passes_logs/2026/01/20/R4.6S_Anadyr/R4.6S_Anadyr__20260120_205846_NOAA_21_JPSS-2_rec.log

#Pass ID: 20260120_205846_NOAA 21 (JPSS-2)
#Satellite: NOAA 21 (JPSS-2)
#Configuration: NOAA-21
#almurnet v.1.7.20251203
#Start time: 2026-01-20 20:58:48

#Version: 2.2.20231116
#Station: R4.6S_Anadyr
#Location: 177.4865 lon 64.73178 lat
#TLE: 1 54234U 22150A   26019.94667805  .00000106  00000+0  71222-4 0  9995
#TLE: 2 54234  98.7505 320.7866 0000607 253.4528 106.6582 14.19535964165511

#Time	Az	El	Level	Level2	SNR	BER	BlckErr	Temp	State	Recorded	gain1	gain2
2026-01-20 20:58:48.52	80.75	0.09	-51.8	-66.7	3.5	1.51e+00	0	40	0	0	60	78017
2026-01-20 20:58:49.52	80.68	0.14	-51.5	-64.4	3.5	1.52e+00	0	41	104	0	60	58229
2026-01-20 20:58:50.54	80.61	0.20	-51.5	-64.4	3.5	1.52e+00	0	41	104	0	60	57971
2026-01-20 20:58:51.55	80.54	0.25	-51.4	-64.3	3.5	1.51e+00	0	41	104	0	60	57641
2026-01-20 20:58:52.56	80.47	0.30	-51.4	-64.3	3.5	1.51e+00	0	41	104	0	60	57607
2026-01-20 20:58:53.57	80.40	0.35	-51.4	-64.3	3.5	1.52e+00	0	41	104	0	60	57756
2026-01-20 20:58:54.58	80.34	0.40	-51.5	-64.3	3.5	1.52e+00	0	41	104	0	60	57710
2026-01-20 20:58:55.58	80.27	0.46	-51.4	-64.2	3.5	1.52e+00	0	41	104	0	60	57202
2026-01-20 20:58:56.59	80.20	0.51	-51.4	-64.3	3.5	1.52e+00	0	41	104	0	60	57592
2026-01-20 20:58:57.60	80.13	0.56	-51.4	-64.2	3.5	1.52e+00	0	41	104	0	60	57121
2026-01-20 20:58:58.61	80.06	0.61	-51.4	-64.3	3.5	1.52e+00	0	41	104	0	60	57451
2026-01-20 20:58:59.62	79.99	0.66	-51.4	-64.3	3.5	1.52e+00	0	41	104	0	60	57767
2026-01-20 20:59:00.63	79.92	0.72	-51.4	-64.3	3.5	1.52e+00	0	41	104	0	60	57337
2026-01-20 20:59:01.64	79.85	0.77	-51.4	-64.3	3.5	1.52e+00	0	42	104	0	60	57323
2026-01-20 20:59:02.65	79.78	0.82	-51.4	-64.2	3.5	1.52e+00	0	42	104	0	60	57102
2026-01-20 20:59:03.66	79.70	0.87	-51.3	-64.2	3.5	1.52e+00	0	41	104	0	60	57045
2026-01-20 20:59:04.67	79.63	0.93	-51.3	-64.1	3.5	1.52e+00	0	42	104	0	60	56465
2026-01-20 20:59:05.68	79.56	0.98	-51.1	-64.2	3.5	1.52e+00	0	42	104	0	60	56683
2026-01-20 20:59:06.69	79.49	1.03	-51.2	-64.1	3.5	1.52e+00	0	42	104	0	60	56275
2026-01-20 20:59:07.70	79.42	1.08	-51.1	-64.0	3.5	1.52e+00	0	42	104	0	60	55436
2026-01-20 20:59:08.71	79.34	1.14	-50.8	-63.9	3.5	1.52e+00	0	42	104	0	60	54881
2026-01-20 20:59:09.72	79.27	1.19	-50.9	-63.8	3.5	1.51e+00	0	42	104	0	60	54549
2026-01-20 20:59:10.73	79.20	1.24	-50.5	-63.7	3.5	1.51e+00	0	41	104	0	60	53594
2026-01-20 20:59:11.74	79.13	1.30	-50.4	-63.3	3.5	1.52e+00	0	42	104	0	60	51488
2026-01-20 20:59:12.75	79.05	1.35	-50.1	-63.0	3.5	1.52e+00	0	42	104	0	60	49355
2026-01-20 20:59:13.76	78.98	1.40	-49.8	-62.6	3.5	1.52e+00	0	42	104	0	60	47564
2026-01-20 20:59:14.77	78.90	1.46	-49.7	-62.6	3.5	1.51e+00	0	42	104	0	60	47421
2026-01-20 20:59:15.78	78.83	1.51	-49.7	-62.6	3.5	1.52e+00	0	42	104	0	60	47404
2026-01-20 20:59:16.79	78.75	1.56	-49.7	-62.6	3.5	1.52e+00	0	42	104	0	60	47401
2026-01-20 20:59:17.80	78.68	1.61	-49.7	-62.5	3.5	1.52e+00	0	42	104	0	60	46962
2026-01-20 20:59:18.81	78.60	1.67	-49.7	-62.5	3.5	1.52e+00	0	42	104	0	60	47019
2026-01-20 20:59:19.82	78.53	1.72	-49.7	-62.5	3.5	1.52e+00	0	42	104	0	60	47052
2026-01-20 20:59:20.84	78.45	1.78	-49.7	-62.5	3.5	1.52e+00	0	42	104	0	60	46815
2026-01-20 20:59:21.84	78.38	1.83	-49.7	-62.6	3.5	1.52e+00	0	42	104	0	60	47176
2026-01-20 20:59:22.85	78.30	1.88	-49.7	-62.6	3.5	1.52e+00	0	42	104	0	60	47282
2026-01-20 20:59:23.86	78.22	1.93	-49.7	-62.6	3.5	1.52e+00	0	42	104	0	60	47179
2026-01-20 20:59:24.87	78.15	1.99	-49.7	-62.6	3.5	1.52e+00	0	42	104	0	60	47260
2026-01-20 20:59:25.88	78.07	2.04	-49.7	-62.5	3.5	1.52e+00	0	42	104	0	60	46885
2026-01-20 20:59:26.89	77.99	2.10	-49.7	-62.4	3.5	1.52e+00	0	42	104	0	60	46368
2026-01-20 20:59:27.90	77.91	2.15	-49.7	-62.4	3.5	1.52e+00	0	42	104	0	60	46294
2026-01-20 20:59:28.91	77.84	2.20	-49.7	-62.3	3.5	1.52e+00	0	42	104	0	60	45917
2026-01-20 20:59:29.92	77.76	2.26	-49.7	-62.0	3.5	1.52e+00	0	42	104	0	60	44272
2026-01-20 20:59:30.93	77.68	2.31	-49.7	-62.3	3.5	1.52e+00	0	42	104	0	60	45510
2026-01-20 20:59:31.95	77.60	2.37	-49.7	-62.3	3.5	1.52e+00	0	42	104	0	60	45815
2026-01-20 20:59:32.95	77.52	2.42	-49.7	-62.6	3.5	1.52e+00	0	42	104	0	60	47409
2026-01-20 20:59:33.96	77.44	2.47	-49.7	-62.6	3.5	1.52e+00	0	42	104	0	60	47136
2026-01-20 20:59:34.97	77.36	2.53	-49.7	-62.5	3.5	1.52e+00	0	42	104	0	60	46733
2026-01-20 20:59:35.98	77.28	2.58	-49.7	-62.4	3.5	1.52e+00	0	42	104	0	60	46493
2026-01-20 20:59:36.99	77.20	2.64	-49.7	-62.5	3.5	1.52e+00	0	42	104	0	60	47018
2026-01-20 20:59:38.00	77.12	2.69	-49.7	-62.6	3.5	1.51e+00	0	42	104	0	60	47367
2026-01-20 20:59:39.01	77.04	2.74	-49.7	-62.2	3.5	1.52e+00	0	42	104	0	60	45181
2026-01-20 20:59:40.02	76.96	2.80	-49.6	-61.6	3.5	1.51e+00	0	42	104	0	60	41974
2026-01-20 20:59:41.03	76.88	2.85	-49.6	-61.6	3.5	1.52e+00	0	42	104	0	60	42115
2026-01-20 20:59:42.04	76.79	2.91	-49.6	-61.8	3.5	1.52e+00	0	42	104	0	60	43041
2026-01-20 20:59:43.05	76.71	2.96	-49.6	-62.1	3.5	1.51e+00	0	42	104	0	60	44872
2026-01-20 20:59:44.06	76.63	3.02	-49.4	-59.9	3.6	1.51e+00	0	42	104	0	60	34777
2026-01-20 20:59:45.07	76.54	3.07	-48.9	-56.2	5.8	5.48e-01	122	42	0	0	60	22694
2026-01-20 20:59:46.08	76.46	3.13	-47.4	-51.3	10.1	1.15e-02	123	42	0	3145728	60	12886
2026-01-20 20:59:47.09	76.38	3.18	-49.1	-57.3	3.9	1.37e+00	0	42	104	5242880	60	25742
2026-01-20 20:59:48.10	76.29	3.24	-49.7	-61.7	3.5	1.51e+00	0	42	104	5242880	60	42460
2026-01-20 20:59:49.11	76.21	3.29	-44.7	-47.3	15.3	1.27e+00	123	42	104	5242880	60	8096
2026-01-20 20:59:50.12	76.12	3.34	-42.2	-43.7	18.5	0.00e+00	123	42	0	6291456	56	6772
2026-01-20 20:59:51.13	76.04	3.40	-49.4	-61.2	3.5	1.51e+00	0	42	104	8388608	60	40455
2026-01-20 20:59:52.14	75.95	3.45	-41.8	-43.5	17.9	2.66e-01	122	42	104	8388608	56	6634
2026-01-20 20:59:53.15	75.87	3.51	-42.1	-43.6	18.0	0.00e+00	123	42	0	9437184	56	6680
2026-01-20 20:59:54.16	75.78	3.56	-42.5	-44.0	18.0	0.00e+00	123	42	0	12582912	58	6252
2026-01-20 20:59:55.16	75.70	3.62	-40.1	-41.3	20.4	0.00e+00	123	42	0	15728640	54	5765
2026-01-20 20:59:56.17	75.61	3.67	-40.4	-41.7	20.0	0.00e+00	122	42	0	18874368	54	6003
2026-01-20 20:59:57.18	75.52	3.73	-41.2	-42.6	19.2	0.00e+00	122	42	0	22020096	54	6651
2026-01-20 20:59:58.19	75.44	3.78	-40.9	-42.2	19.6	0.00e+00	123	42	0	25165824	54	6397
2026-01-20 20:59:59.20	75.35	3.84	-40.5	-41.7	20.0	0.00e+00	122	42	0	28311552	54	6061
2026-01-20 21:00:00.20	75.26	3.89	-40.8	-42.1	19.9	0.00e+00	120	42	0	31457280	54	6288
2026-01-20 21:00:01.21	75.17	3.95	-41.5	-42.8	19.4	0.00e+00	123	42	0	34603008	54	6849
2026-01-20 21:00:02.22	75.08	4.01	-41.1	-42.4	18.9	0.00e+00	120	42	0	37748736	54	6549
2026-01-20 21:00:03.23	75.00	4.06	-42.4	-43.8	18.9	0.00e+00	122	42	0	40894464	58	6112
2026-01-20 21:00:04.24	74.91	4.12	-42.0	-43.5	18.6	0.00e+00	120	42	0	44040192	56	6577
2026-01-20 21:00:05.25	74.82	4.17	-40.5	-41.7	20.3	0.00e+00	123	42	0	47185920	56	5346
2026-01-20 21:00:06.26	74.73	4.23	-41.3	-42.6	19.5	0.00e+00	122	42	0	50331648	54	6683
2026-01-20 21:00:07.27	74.64	4.28	-40.3	-41.5	20.1	0.00e+00	122	42	0	53477376	54	5921
2026-01-20 21:00:08.28	74.54	4.34	-40.3	-41.5	20.3	0.00e+00	123	42	0	56623104	54	5885
2026-01-20 21:00:09.29	74.45	4.40	-41.3	-42.6	19.7	0.00e+00	122	42	0	60817408	56	5956
2026-01-20 21:00:10.30	74.36	4.45	-40.2	-41.3	20.3	0.00e+00	123	42	0	62914560	52	6494
2026-01-20 21:00:11.31	74.27	4.51	-41.2	-42.4	19.6	0.00e+00	123	42	0	66060288	54	6561
2026-01-20 21:00:12.32	74.18	4.56	-40.9	-42.1	19.8	0.00e+00	123	42	0	69206016	54	6320
2026-01-20 21:00:13.32	74.09	4.62	-40.2	-41.3	20.6	0.00e+00	120	42	0	72351744	54	5787
2026-01-20 21:00:14.33	73.99	4.67	-40.6	-41.8	19.9	0.00e+00	122	42	0	75497472	54	6134
2026-01-20 21:00:15.34	73.90	4.73	-40.6	-41.8	20.1	0.00e+00	123	42	0	79691776	54	6127
2026-01-20 21:00:16.35	73.81	4.79	-40.4	-41.6	20.1	0.00e+00	122	42	0	82837504	54	5982
2026-01-20 21:00:17.36	73.71	4.84	-40.5	-41.7	20.3	0.00e+00	121	42	0	84934656	54	6060
2026-01-20 21:00:18.37	73.62	4.90	-40.7	-41.9	20.0	0.00e+00	123	42	0	88080384	54	6194
2026-01-20 21:00:19.38	73.52	4.96	-40.7	-41.9	19.8	0.00e+00	122	42	0	91226112	54	6159
2026-01-20 21:00:20.39	73.43	5.01	-40.8	-42.0	20.0	0.00e+00	122	42	0	95420416	54	6254
2026-01-20 21:00:21.40	73.33	5.07	-40.2	-41.4	20.5	0.00e+00	123	42	0	98566144	54	5833
2026-01-20 21:00:22.41	73.24	5.12	-40.7	-41.9	19.9	0.00e+00	123	42	0	101711872	54	6202
2026-01-20 21:00:23.42	73.14	5.18	-40.0	-41.2	20.6	0.00e+00	122	42	0	104857600	54	5687
2026-01-20 21:00:24.43	73.04	5.24	-40.6	-41.8	20.0	0.00e+00	122	42	0	108003328	54	6094
2026-01-20 21:00:25.44	72.95	5.29	-40.6	-41.8	20.2	0.00e+00	123	42	0	111149056	54	6119
2026-01-20 21:00:26.45	72.85	5.35	-40.8	-42.0	20.0	0.00e+00	122	42	0	114294784	54	6268
2026-01-20 21:00:27.46	72.75	5.41	-40.8	-42.1	19.9	0.00e+00	123	42	0	117440512	54	6292
2026-01-20 21:00:28.47	72.65	5.46	-40.8	-42.0	20.1	0.00e+00	120	42	0	120586240	54	6244
2026-01-20 21:00:29.48	72.55	5.52	-40.9	-42.2	19.8	0.00e+00	122	42	0	123731968	54	6381
2026-01-20 21:00:30.49	72.45	5.58	-41.0	-42.2	19.8	0.00e+00	123	42	0	126877696	54	6413
2026-01-20 21:00:31.50	72.35	5.63	-41.2	-42.5	19.6	0.00e+00	123	42	0	130023424	54	6582
2026-01-20 21:00:32.51	72.25	5.69	-40.3	-41.5	20.5	0.00e+00	120	42	0	133169152	54	5859
2026-01-20 21:00:33.52	72.15	5.75	-41.3	-42.6	19.4	0.00e+00	120	42	0	136314880	54	6698
2026-01-20 21:00:34.53	72.05	5.80	-41.6	-43.0	19.1	0.00e+00	122	42	0	139460608	54	6975
2026-01-20 21:00:35.53	71.95	5.86	-41.1	-42.3	19.6	0.00e+00	122	42	0	142606336	54	6477
2026-01-20 21:00:36.54	71.85	5.92	-40.6	-41.8	20.2	0.00e+00	122	42	0	145752064	54	6078
2026-01-20 21:00:37.55	71.75	5.97	-40.6	-41.8	20.1	0.00e+00	123	42	0	148897792	54	6127
2026-01-20 21:00:38.56	71.65	6.03	-41.3	-42.7	19.3	0.00e+00	122	42	0	152043520	54	6732
2026-01-20 21:00:39.57	71.55	6.09	-41.0	-42.2	19.7	0.00e+00	123	42	0	155189248	54	6412
2026-01-20 21:00:40.58	71.44	6.15	-40.4	-41.6	20.3	0.00e+00	123	42	0	158334976	54	5958
2026-01-20 21:00:41.59	71.34	6.20	-41.5	-42.8	19.2	0.00e+00	122	42	0	161480704	54	6859
2026-01-20 21:00:42.60	71.23	6.26	-40.7	-41.9	20.0	0.00e+00	123	42	0	164626432	54	6164
2026-01-20 21:00:43.61	71.13	6.32	-40.8	-42.1	19.7	0.00e+00	123	42	0	167772160	54	6300
2026-01-20 21:00:44.62	71.03	6.37	-40.8	-42.1	19.9	0.00e+00	123	42	0	170917888	54	6302
2026-01-20 21:00:45.63	70.92	6.43	-40.7	-41.9	20.1	0.00e+00	123	42	0	174063616	54	6139
2026-01-20 21:00:46.64	70.81	6.49	-40.4	-41.6	20.3	0.00e+00	123	42	0	177209344	54	5971
2026-01-20 21:00:47.65	70.71	6.55	-40.4	-41.6	20.3	0.00e+00	122	42	0	180355072	54	5975
2026-01-20 21:00:48.66	70.60	6.60	-40.4	-41.6	20.4	0.00e+00	122	42	0	183500800	54	5955
2026-01-20 21:00:49.67	70.50	6.66	-40.4	-41.6	20.4	0.00e+00	123	42	0	186646528	54	5955
2026-01-20 21:00:50.68	70.39	6.72	-40.3	-41.5	20.4	0.00e+00	123	42	0	189792256	54	5921
2026-01-20 21:00:51.69	70.28	6.78	-40.4	-41.6	20.3	0.00e+00	123	42	0	192937984	54	5992
2026-01-20 21:00:52.70	70.17	6.83	-40.6	-41.9	20.2	0.00e+00	122	42	0	196083712	54	6159
2026-01-20 21:00:53.71	70.06	6.89	-40.3	-41.4	20.6	0.00e+00	122	42	0	199229440	54	5854
2026-01-20 21:00:54.72	69.95	6.95	-40.3	-41.4	20.6	0.00e+00	122	42	0	202375168	54	5851
2026-01-20 21:00:55.73	69.84	7.01	-40.1	-41.3	20.7	0.00e+00	123	42	0	205520896	54	5763
2026-01-20 21:00:56.74	69.73	7.06	-39.9	-41.0	21.1	0.00e+00	122	42	0	208666624	52	6230
2026-01-20 21:00:57.75	69.62	7.12	-40.0	-41.1	20.9	0.00e+00	123	42	0	211812352	52	6332
2026-01-20 21:00:58.75	69.51	7.18	-39.9	-41.0	21.0	0.00e+00	122	42	0	214958080	52	6234
2026-01-20 21:00:59.76	69.40	7.24	-39.7	-40.8	21.2	0.00e+00	122	42	0	218103808	52	6123
2026-01-20 21:01:00.77	69.29	7.29	-39.8	-41.0	21.0	0.00e+00	123	42	0	221249536	52	6217
2026-01-20 21:01:01.78	69.18	7.35	-39.8	-41.0	21.0	0.00e+00	123	42	0	224395264	52	6214
2026-01-20 21:01:02.79	69.07	7.41	-40.1	-41.3	20.8	0.00e+00	120	42	0	227540992	52	6454
2026-01-20 21:01:03.80	68.95	7.47	-39.4	-40.5	21.4	0.00e+00	123	42	0	230686720	52	5905
2026-01-20 21:01:04.81	68.84	7.53	-39.7	-40.8	21.3	0.00e+00	123	42	0	233832448	52	6075
2026-01-20 21:01:05.82	68.72	7.58	-39.7	-40.8	21.2	0.00e+00	123	42	0	236978176	52	6119
2026-01-20 21:01:06.83	68.61	7.64	-39.7	-40.8	21.1	0.00e+00	123	42	0	240123904	52	6132
2026-01-20 21:01:07.84	68.49	7.70	-40.3	-41.5	20.7	0.00e+00	123	42	0	243269632	52	6586
2026-01-20 21:01:08.85	68.38	7.76	-40.0	-41.2	21.1	0.00e+00	122	42	0	246415360	52	6356
2026-01-20 21:01:09.86	68.26	7.82	-39.8	-40.9	21.3	0.00e+00	120	42	0	249561088	52	6146
2026-01-20 21:01:10.87	68.15	7.87	-39.8	-40.9	21.2	0.00e+00	123	42	0	252706816	52	6157
2026-01-20 21:01:11.88	68.03	7.93	-39.8	-40.9	21.4	0.00e+00	122	42	0	255852544	52	6150
2026-01-20 21:01:12.89	67.91	7.99	-39.6	-40.6	21.5	0.00e+00	123	42	0	258998272	52	5991
2026-01-20 21:01:13.90	67.79	8.05	-38.9	-40.0	22.0	0.00e+00	120	42	0	262144000	52	5540
2026-01-20 21:01:14.91	67.68	8.11	-39.1	-40.2	21.9	0.00e+00	122	42	0	265289728	52	5691
2026-01-20 21:01:15.92	67.56	8.16	-39.3	-40.4	21.6	0.00e+00	123	42	0	268435456	52	5821
2026-01-20 21:01:16.93	67.44	8.22	-39.1	-40.2	21.8	0.00e+00	122	42	0	271581184	52	5680
2026-01-20 21:01:17.94	67.32	8.28	-39.0	-40.0	22.1	0.00e+00	123	42	0	274726912	52	5592
2026-01-20 21:01:18.95	67.20	8.34	-39.0	-40.1	21.9	0.00e+00	122	42	0	277872640	52	5606
2026-01-20 21:01:19.96	67.08	8.40	-39.1	-40.2	21.9	0.00e+00	120	42	0	281018368	52	5667
2026-01-20 21:01:20.97	66.96	8.45	-39.5	-40.6	21.6	0.00e+00	123	42	0	284164096	52	5935
2026-01-20 21:01:21.98	66.83	8.51	-38.8	-39.9	22.1	0.00e+00	120	42	0	287309824	52	5476
2026-01-20 21:01:22.99	66.71	8.57	-39.2	-40.3	21.8	0.00e+00	123	42	0	290455552	52	5726
2026-01-20 21:01:24.00	66.59	8.63	-39.0	-40.0	22.0	0.00e+00	122	42	0	293601280	52	5592
2026-01-20 21:01:25.01	66.47	8.69	-38.9	-39.9	22.2	0.00e+00	120	42	0	296747008	52	5514
2026-01-20 21:01:26.02	66.34	8.74	-39.1	-40.1	22.0	0.00e+00	123	42	0	299892736	52	5648
2026-01-20 21:01:27.03	66.22	8.80	-39.5	-40.6	21.7	0.00e+00	120	42	0	303038464	52	5942
2026-01-20 21:01:28.04	66.09	8.86	-38.1	-39.1	22.8	0.00e+00	122	42	0	306184192	50	5624
2026-01-20 21:01:29.05	65.97	8.92	-39.3	-40.4	21.8	0.00e+00	123	42	0	309329920	50	6507
2026-01-20 21:01:30.06	65.84	8.98	-38.8	-39.8	22.2	0.00e+00	122	42	0	312475648	50	6124
2026-01-20 21:01:31.07	65.72	9.04	-38.6	-39.7	22.3	0.00e+00	122	42	0	315621376	50	6004
2026-01-20 21:01:32.08	65.59	9.09	-38.7	-39.8	22.2	0.00e+00	123	42	0	318767104	50	6065
2026-01-20 21:01:33.09	65.46	9.15	-38.9	-39.9	22.1	0.00e+00	122	42	0	321912832	50	6173
2026-01-20 21:01:34.10	65.33	9.21	-38.8	-39.9	22.1	0.00e+00	123	42	0	325058560	50	6144
2026-01-20 21:01:35.11	65.20	9.27	-38.8	-39.8	22.2	0.00e+00	122	42	0	328204288	50	6106
2026-01-20 21:01:36.12	65.08	9.33	-38.5	-39.5	22.4	0.00e+00	123	42	0	331350016	50	5900
2026-01-20 21:01:37.13	64.95	9.38	-38.4	-39.4	22.6	0.00e+00	123	42	0	334495744	50	5840
2026-01-20 21:01:38.14	64.82	9.44	-38.7	-39.8	22.4	0.00e+00	123	42	0	337641472	50	6068
2026-01-20 21:01:39.15	64.69	9.50	-38.5	-39.4	22.6	0.00e+00	123	42	0	340787200	50	5854
2026-01-20 21:01:40.16	64.55	9.56	-38.4	-39.4	22.6	0.00e+00	123	42	0	343932928	50	5836
2026-01-20 21:01:41.17	64.42	9.62	-38.3	-39.3	22.6	0.00e+00	123	42	0	347078656	50	5775
2026-01-20 21:01:42.17	64.29	9.67	-38.4	-39.4	22.6	0.00e+00	123	42	0	350224384	50	5829
2026-01-20 21:01:43.18	64.16	9.73	-38.4	-39.4	22.7	0.00e+00	120	42	0	353370112	50	5801
2026-01-20 21:01:44.20	64.02	9.79	-38.5	-39.5	22.5	0.00e+00	123	42	0	356515840	50	5903
2026-01-20 21:01:45.20	63.89	9.85	-38.8	-39.8	22.4	0.00e+00	122	42	0	359661568	50	6076
2026-01-20 21:01:46.21	63.76	9.91	-38.8	-39.8	22.3	0.00e+00	120	42	0	362807296	50	6088
2026-01-20 21:01:47.22	63.62	9.96	-38.7	-39.7	22.4	0.00e+00	121	42	0	365953024	50	6026
2026-01-20 21:01:48.23	63.49	10.02	-38.3	-39.2	22.8	0.00e+00	123	42	0	369098752	50	5718
2026-01-20 21:01:49.24	63.35	10.08	-38.4	-39.4	22.7	0.00e+00	123	42	0	372244480	50	5812
2026-01-20 21:01:50.25	63.22	10.14	-38.0	-39.0	23.0	0.00e+00	123	42	0	375390208	50	5554
2026-01-20 21:01:51.25	63.08	10.20	-38.2	-39.2	22.9	0.00e+00	122	43	0	378535936	50	5665
2026-01-20 21:01:52.26	62.94	10.25	-38.1	-39.1	23.0	0.00e+00	122	42	0	381681664	50	5633
2026-01-20 21:01:53.27	62.80	10.31	-38.0	-39.0	23.0	0.00e+00	122	42	0	384827392	50	5532
2026-01-20 21:01:54.28	62.67	10.37	-38.0	-39.0	23.1	0.00e+00	123	42	0	387973120	50	5552
2026-01-20 21:01:55.29	62.53	10.43	-38.2	-39.1	22.9	0.00e+00	122	42	0	391118848	50	5647
2026-01-20 21:01:56.29	62.39	10.49	-38.2	-39.1	23.0	0.00e+00	123	42	0	394264576	50	5650
2026-01-20 21:01:57.30	62.25	10.54	-38.0	-39.0	23.0	0.00e+00	122	42	0	397410304	50	5545
2026-01-20 21:01:58.31	62.11	10.60	-38.0	-39.0	23.0	0.00e+00	122	42	0	400556032	50	5564
2026-01-20 21:01:59.32	61.97	10.66	-38.3	-39.3	22.8	0.00e+00	123	43	0	403701760	50	5764
2026-01-20 21:02:00.33	61.82	10.72	-38.3	-39.3	22.7	0.00e+00	122	43	0	406847488	50	5745
2026-01-20 21:02:01.34	61.68	10.77	-38.2	-39.2	22.9	0.00e+00	122	42	0	409993216	50	5718
2026-01-20 21:02:02.35	61.54	10.83	-38.1	-39.1	22.9	0.00e+00	123	42	0	413138944	50	5626
2026-01-20 21:02:03.36	61.39	10.89	-38.1	-39.1	22.9	0.00e+00	123	42	0	416284672	50	5657
2026-01-20 21:02:04.37	61.25	10.95	-38.2	-39.2	23.0	0.00e+00	123	42	0	419430400	50	5668
2026-01-20 21:02:05.38	61.10	11.00	-38.2	-39.2	23.0	0.00e+00	122	42	0	422576128	50	5660
2026-01-20 21:02:06.39	60.96	11.06	-38.0	-39.0	23.1	0.00e+00	120	42	0	425721856	50	5566
2026-01-20 21:02:07.40	60.81	11.12	-38.1	-39.0	23.0	0.00e+00	120	42	0	428867584	50	5586
2026-01-20 21:02:08.40	60.67	11.18	-38.1	-39.0	23.0	0.00e+00	123	42	0	432013312	50	5594
2026-01-20 21:02:09.41	60.52	11.23	-38.0	-39.0	23.1	0.00e+00	120	42	0	435159040	50	5554
2026-01-20 21:02:10.42	60.37	11.29	-38.0	-39.0	23.1	0.00e+00	122	42	0	438304768	50	5550
2026-01-20 21:02:11.43	60.22	11.35	-38.1	-39.1	23.1	0.00e+00	123	42	0	441450496	50	5619
2026-01-20 21:02:12.44	60.07	11.40	-38.0	-39.0	23.1	0.00e+00	120	42	0	445644800	50	5552
2026-01-20 21:02:13.45	59.93	11.46	-38.0	-39.0	23.1	0.00e+00	122	42	0	448790528	50	5552
2026-01-20 21:02:14.46	59.77	11.52	-38.1	-39.1	23.0	0.00e+00	120	42	0	450887680	50	5630
2026-01-20 21:02:15.47	59.62	11.58	-38.1	-39.1	23.1	0.00e+00	121	43	0	454033408	50	5615
2026-01-20 21:02:16.48	59.47	11.63	-38.1	-39.1	23.1	0.00e+00	123	42	0	457179136	50	5613
2026-01-20 21:02:17.49	59.32	11.69	-38.1	-39.1	22.9	0.00e+00	123	42	0	461373440	50	5631
2026-01-20 21:02:18.50	59.17	11.75	-38.2	-39.1	23.0	0.00e+00	120	42	0	464519168	50	5659
2026-01-20 21:02:19.51	59.02	11.80	-38.0	-39.0	23.1	0.00e+00	120	42	0	467664896	50	5569
2026-01-20 21:02:20.52	58.86	11.86	-38.1	-39.1	22.9	0.00e+00	123	42	0	470810624	50	5620
2026-01-20 21:02:21.53	58.71	11.92	-38.1	-39.0	23.1	0.00e+00	120	42	0	472907776	50	5589
2026-01-20 21:02:22.53	58.55	11.97	-38.1	-39.1	22.8	0.00e+00	123	43	0	476053504	50	5635
2026-01-20 21:02:23.54	58.40	12.03	-38.5	-39.5	22.6	0.00e+00	123	42	0	480247808	50	5867
2026-01-20 21:02:24.56	58.24	12.09	-38.6	-39.6	22.5	0.00e+00	123	43	0	483393536	50	5933
2026-01-20 21:02:25.57	58.08	12.14	-38.5	-39.5	22.6	0.00e+00	122	43	0	486539264	50	5874
2026-01-20 21:02:26.58	57.93	12.20	-38.3	-39.3	22.8	0.00e+00	122	42	0	489684992	50	5751
2026-01-20 21:02:27.58	57.77	12.25	-38.7	-39.7	22.5	0.00e+00	123	42	0	492830720	50	6046
2026-01-20 21:02:28.59	57.61	12.31	-38.7	-39.8	22.4	0.00e+00	122	43	0	495976448	50	6073
2026-01-20 21:02:29.60	57.45	12.36	-38.3	-39.3	22.8	0.00e+00	122	43	0	499122176	50	5772
2026-01-20 21:02:30.61	57.29	12.42	-38.4	-39.4	22.8	0.00e+00	123	42	0	502267904	50	5828
2026-01-20 21:02:31.63	57.13	12.48	-38.3	-39.3	22.8	0.00e+00	123	43	0	505413632	50	5749
2026-01-20 21:02:32.64	56.97	12.53	-38.4	-39.4	22.8	0.00e+00	122	42	0	508559360	50	5792
2026-01-20 21:02:33.65	56.81	12.59	-38.3	-39.2	22.9	0.00e+00	123	43	0	511705088	50	5720
2026-01-20 21:02:34.65	56.65	12.64	-38.4	-39.4	22.9	0.00e+00	123	43	0	514850816	50	5795
2026-01-20 21:02:35.66	56.48	12.70	-38.6	-39.6	22.7	0.00e+00	120	43	0	517996544	50	5950
2026-01-20 21:02:36.67	56.32	12.75	-38.7	-39.7	22.6	0.00e+00	123	43	0	521142272	50	6000
2026-01-20 21:02:37.68	56.16	12.81	-38.6	-39.6	22.7	0.00e+00	120	42	0	524288000	50	5944
2026-01-20 21:02:38.69	55.99	12.86	-38.6	-39.6	22.7	0.00e+00	123	42	0	527433728	50	5979
2026-01-20 21:02:39.70	55.83	12.92	-38.6	-39.6	22.7	0.00e+00	123	42	0	530579456	50	5932
2026-01-20 21:02:40.71	55.66	12.97	-38.4	-39.4	22.8	0.00e+00	123	43	0	533725184	50	5830
2026-01-20 21:02:41.72	55.49	13.03	-38.4	-39.4	22.9	0.00e+00	122	42	0	536870912	50	5818
2026-01-20 21:02:42.73	55.33	13.08	-38.4	-39.3	22.9	0.00e+00	121	42	0	540016640	50	5786
2026-01-20 21:02:43.74	55.16	13.14	-38.1	-39.1	23.2	0.00e+00	120	43	0	543162368	50	5609
2026-01-20 21:02:44.75	54.99	13.19	-37.9	-38.9	23.2	0.00e+00	120	43	0	546308096	50	5504
2026-01-20 21:02:45.76	54.82	13.25	-37.8	-38.8	23.4	0.00e+00	123	42	0	549453824	50	5410
2026-01-20 21:02:46.77	54.65	13.30	-38.0	-38.9	23.2	0.00e+00	122	43	0	552599552	50	5519
2026-01-20 21:02:47.78	54.48	13.35	-38.2	-39.1	23.1	0.00e+00	122	43	0	555745280	50	5639
2026-01-20 21:02:48.79	54.31	13.41	-38.1	-39.1	23.2	0.00e+00	123	43	0	558891008	50	5632
2026-01-20 21:02:49.80	54.14	13.46	-38.0	-38.9	23.2	0.00e+00	123	42	0	562036736	50	5523
2026-01-20 21:02:50.81	53.96	13.51	-37.8	-38.7	23.4	0.00e+00	122	43	0	565182464	50	5390
2026-01-20 21:02:51.83	53.79	13.57	-37.8	-38.8	23.3	0.00e+00	123	43	0	568328192	50	5435
2026-01-20 21:02:52.84	53.62	13.62	-38.0	-38.9	23.2	0.00e+00	123	42	0	571473920	48	6179
2026-01-20 21:02:53.84	53.44	13.67	-37.9	-38.9	23.2	0.00e+00	120	43	0	574619648	48	6163
2026-01-20 21:02:54.85	53.27	13.73	-37.9	-38.9	23.2	0.00e+00	123	43	0	577765376	48	6186
2026-01-20 21:02:55.86	53.09	13.78	-38.0	-39.0	23.1	0.00e+00	120	43	0	580911104	48	6239
2026-01-20 21:02:56.87	52.92	13.83	-38.0	-39.0	23.1	0.00e+00	120	42	0	584056832	48	6215
2026-01-20 21:02:57.88	52.74	13.88	-38.2	-39.2	23.0	0.00e+00	122	43	0	587202560	48	6381
2026-01-20 21:02:58.89	52.56	13.94	-38.1	-39.1	23.1	0.00e+00	120	42	0	590348288	48	6310
2026-01-20 21:02:59.90	52.38	13.99	-38.0	-38.9	23.3	0.00e+00	123	43	0	593494016	48	6179
2026-01-20 21:03:00.90	52.21	14.04	-37.9	-38.9	23.2	0.00e+00	123	43	0	596639744	48	6161
2026-01-20 21:03:01.92	52.03	14.09	-38.0	-38.9	23.3	0.00e+00	122	42	0	599785472	48	6154
2026-01-20 21:03:02.93	51.85	14.14	-38.1	-39.1	23.1	0.00e+00	123	43	0	602931200	48	6294
2026-01-20 21:03:03.93	51.67	14.19	-38.2	-39.2	22.9	0.00e+00	120	43	0	606076928	48	6359
2026-01-20 21:03:04.95	51.49	14.25	-38.1	-39.1	23.1	0.00e+00	123	43	0	609222656	48	6311
2026-01-20 21:03:05.96	51.30	14.30	-38.0	-38.9	23.3	0.00e+00	123	43	0	612368384	48	6196
2026-01-20 21:03:06.97	51.12	14.35	-38.3	-39.3	23.0	0.00e+00	122	43	0	615514112	48	6434
2026-01-20 21:03:07.98	50.94	14.40	-38.0	-39.0	23.2	0.00e+00	119	42	0	618659840	48	6227
2026-01-20 21:03:08.98	50.76	14.45	-38.1	-39.1	23.2	0.00e+00	123	42	0	621805568	48	6294
2026-01-20 21:03:09.99	50.57	14.50	-38.1	-39.0	23.1	0.00e+00	123	43	0	624951296	48	6274
2026-01-20 21:03:11.00	50.39	14.55	-38.3	-39.2	22.9	0.00e+00	122	43	0	628097024	48	6419
2026-01-20 21:03:12.01	50.20	14.60	-38.2	-39.1	23.1	0.00e+00	123	42	0	631242752	48	6329
2026-01-20 21:03:13.02	50.02	14.65	-38.4	-39.4	23.0	0.00e+00	120	43	0	634388480	48	6514
2026-01-20 21:03:14.03	49.83	14.70	-38.4	-39.4	22.8	0.00e+00	123	43	0	637534208	48	6519
2026-01-20 21:03:15.04	49.64	14.75	-38.2	-39.1	23.1	0.00e+00	122	42	0	640679936	48	6331
2026-01-20 21:03:16.05	49.45	14.80	-38.2	-39.2	23.1	0.00e+00	122	43	0	643825664	48	6373
2026-01-20 21:03:17.06	49.26	14.85	-38.0	-39.0	23.1	0.00e+00	120	43	0	646971392	48	6244
2026-01-20 21:03:18.07	49.07	14.89	-37.9	-38.9	23.3	0.00e+00	122	43	0	650117120	48	6159
2026-01-20 21:03:19.08	48.88	14.94	-37.9	-38.8	23.3	0.00e+00	123	43	0	653262848	48	6117
2026-01-20 21:03:20.09	48.69	14.99	-37.9	-38.8	23.3	0.00e+00	122	43	0	656408576	48	6107
2026-01-20 21:03:21.10	48.50	15.04	-37.9	-38.9	23.2	0.00e+00	123	43	0	659554304	48	6143
2026-01-20 21:03:22.11	48.31	15.09	-37.8	-38.8	23.3	0.00e+00	123	43	0	662700032	48	6070
2026-01-20 21:03:23.12	48.12	15.13	-37.9	-38.9	23.1	0.00e+00	120	42	0	665845760	48	6171
2026-01-20 21:03:24.13	47.93	15.18	-38.2	-39.1	23.0	0.00e+00	121	43	0	668991488	48	6345
2026-01-20 21:03:25.14	47.73	15.23	-38.1	-39.0	23.0	0.00e+00	123	43	0	672137216	48	6261
2026-01-20 21:03:26.16	47.54	15.28	-38.3	-39.3	23.0	0.00e+00	120	43	0	675282944	48	6478
2026-01-20 21:03:27.17	47.34	15.32	-38.1	-39.0	23.2	0.00e+00	122	43	0	678428672	48	6275
2026-01-20 21:03:28.18	47.14	15.37	-38.2	-39.2	23.1	0.00e+00	121	43	0	681574400	48	6409
2026-01-20 21:03:29.19	46.95	15.41	-38.1	-39.1	23.1	0.00e+00	123	43	0	684720128	48	6291
2026-01-20 21:03:30.20	46.75	15.46	-37.9	-38.9	23.3	0.00e+00	122	42	0	687865856	48	6167
2026-01-20 21:03:31.21	46.55	15.51	-38.0	-38.9	23.3	0.00e+00	122	43	0	691011584	48	6196
2026-01-20 21:03:32.22	46.36	15.55	-37.8	-38.8	23.4	0.00e+00	123	43	0	694157312	48	6095
2026-01-20 21:03:33.23	46.16	15.60	-37.8	-38.7	23.5	0.00e+00	123	43	0	697303040	48	6031
2026-01-20 21:03:34.24	45.96	15.64	-37.8	-38.7	23.4	0.00e+00	123	42	0	700448768	48	6049
2026-01-20 21:03:35.25	45.76	15.69	-37.7	-38.7	23.5	0.00e+00	123	43	0	703594496	48	6014
2026-01-20 21:03:36.26	45.56	15.73	-37.4	-38.3	23.7	0.00e+00	123	43	0	706740224	48	5791
2026-01-20 21:03:37.27	45.36	15.77	-37.5	-38.4	23.8	0.00e+00	123	42	0	709885952	48	5822
2026-01-20 21:03:38.27	45.16	15.82	-37.6	-38.5	23.7	0.00e+00	120	43	0	713031680	48	5870
2026-01-20 21:03:39.28	44.96	15.86	-37.4	-38.3	23.7	0.00e+00	122	43	0	716177408	48	5782
2026-01-20 21:03:40.29	44.75	15.90	-37.2	-38.1	23.9	0.00e+00	120	43	0	719323136	48	5625
2026-01-20 21:03:41.30	44.55	15.95	-37.4	-38.3	23.6	0.00e+00	122	43	0	722468864	48	5775
2026-01-20 21:03:42.31	44.35	15.99	-37.3	-38.3	23.7	0.00e+00	123	43	0	725614592	48	5732
2026-01-20 21:03:43.32	44.14	16.03	-37.4	-38.3	23.7	0.00e+00	123	43	0	728760320	48	5761
2026-01-20 21:03:44.33	43.94	16.07	-37.6	-38.6	23.5	0.00e+00	123	43	0	731906048	48	5934
2026-01-20 21:03:45.34	43.73	16.11	-37.5	-38.4	23.6	0.00e+00	123	43	0	735051776	48	5839
2026-01-20 21:03:46.35	43.52	16.16	-37.3	-38.2	23.8	0.00e+00	122	43	0	738197504	48	5686
2026-01-20 21:03:47.36	43.32	16.20	-37.4	-38.3	23.6	0.00e+00	122	43	0	741343232	48	5785
2026-01-20 21:03:48.38	43.11	16.24	-37.4	-38.4	23.7	0.00e+00	122	43	0	744488960	48	5794
2026-01-20 21:03:49.39	42.90	16.28	-37.3	-38.2	23.7	0.00e+00	122	43	0	747634688	48	5707
2026-01-20 21:03:50.40	42.69	16.32	-37.4	-38.4	23.6	0.00e+00	123	43	0	750780416	48	5795
2026-01-20 21:03:51.41	42.48	16.36	-37.4	-38.3	23.6	0.00e+00	123	43	0	753926144	48	5755
2026-01-20 21:03:52.41	42.28	16.40	-37.4	-38.3	23.6	0.00e+00	123	43	0	757071872	48	5777
2026-01-20 21:03:53.42	42.07	16.44	-37.6	-38.6	23.5	0.00e+00	123	43	0	760217600	48	5933
2026-01-20 21:03:54.43	41.85	16.47	-37.6	-38.6	23.5	0.00e+00	122	43	0	763363328	48	5931
2026-01-20 21:03:55.44	41.64	16.51	-37.6	-38.5	23.5	0.00e+00	123	43	0	766509056	48	5920
2026-01-20 21:03:56.44	41.43	16.55	-37.6	-38.5	23.6	0.00e+00	122	43	0	769654784	48	5913
2026-01-20 21:03:57.45	41.22	16.59	-37.5	-38.5	23.5	0.00e+00	122	43	0	772800512	48	5885
2026-01-20 21:03:58.46	41.01	16.63	-37.5	-38.5	23.5	0.00e+00	122	43	0	775946240	48	5884
2026-01-20 21:03:59.47	40.79	16.66	-37.4	-38.3	23.7	0.00e+00	121	43	0	779091968	48	5777
2026-01-20 21:04:00.48	40.58	16.70	-37.3	-38.3	23.8	0.00e+00	123	43	0	782237696	48	5739
2026-01-20 21:04:01.49	40.37	16.74	-37.3	-38.2	23.8	0.00e+00	123	43	0	786432000	48	5717
2026-01-20 21:04:02.50	40.15	16.77	-37.3	-38.2	23.9	0.00e+00	122	43	0	789577728	48	5690
2026-01-20 21:04:03.51	39.94	16.81	-37.2	-38.1	23.9	0.00e+00	122	43	0	791674880	48	5646
2026-01-20 21:04:04.52	39.72	16.84	-37.3	-38.2	23.9	0.00e+00	123	43	0	794820608	48	5693
2026-01-20 21:04:05.53	39.50	16.88	-37.1	-38.1	24.0	0.00e+00	123	43	0	797966336	48	5605
2026-01-20 21:04:06.54	39.29	16.91	-37.0	-37.9	24.1	0.00e+00	120	43	0	802160640	48	5507
2026-01-20 21:04:07.55	39.07	16.95	-37.1	-38.0	24.1	0.00e+00	123	43	0	805306368	48	5556
2026-01-20 21:04:08.56	38.85	16.98	-37.1	-38.1	23.9	0.00e+00	123	43	0	808452096	48	5597
2026-01-20 21:04:09.57	38.63	17.01	-37.4	-38.3	23.7	0.00e+00	122	43	0	811597824	48	5762
2026-01-20 21:04:10.58	38.41	17.05	-37.1	-38.1	24.0	0.00e+00	122	43	0	813694976	48	5603
2026-01-20 21:04:11.59	38.19	17.08	-37.4	-38.3	23.8	0.00e+00	123	43	0	817889280	48	5751
2026-01-20 21:04:12.60	37.97	17.11	-37.2	-38.1	23.9	0.00e+00	120	43	0	821035008	48	5638
2026-01-20 21:04:13.61	37.75	17.14	-37.2	-38.1	23.8	0.00e+00	123	43	0	824180736	48	5643
2026-01-20 21:04:14.62	37.53	17.17	-37.3	-38.3	23.7	0.00e+00	123	43	0	827326464	48	5747
2026-01-20 21:04:15.63	37.31	17.21	-37.4	-38.3	23.7	0.00e+00	122	43	0	830472192	48	5787
2026-01-20 21:04:16.64	37.09	17.24	-37.4	-38.4	23.7	0.00e+00	123	43	0	833617920	48	5796
2026-01-20 21:04:17.65	36.87	17.27	-37.4	-38.3	23.7	0.00e+00	120	43	0	836763648	48	5758
2026-01-20 21:04:18.66	36.64	17.30	-37.2	-38.2	23.8	0.00e+00	123	43	0	839909376	48	5674
2026-01-20 21:04:19.67	36.42	17.33	-37.4	-38.3	23.7	0.00e+00	122	43	0	843055104	48	5758
2026-01-20 21:04:20.68	36.20	17.35	-37.4	-38.3	23.7	0.00e+00	120	43	0	846200832	48	5771
2026-01-20 21:04:21.69	35.97	17.38	-37.4	-38.3	23.7	0.00e+00	122	43	0	849346560	48	5789
2026-01-20 21:04:22.70	35.75	17.41	-37.4	-38.3	23.7	0.00e+00	120	43	0	852492288	48	5760
2026-01-20 21:04:23.71	35.52	17.44	-37.4	-38.4	23.7	0.00e+00	123	43	0	855638016	48	5805
2026-01-20 21:04:24.72	35.30	17.47	-37.4	-38.3	23.7	0.00e+00	120	43	0	858783744	48	5761
2026-01-20 21:04:25.73	35.07	17.49	-37.5	-38.5	23.7	0.00e+00	122	43	0	861929472	48	5861
2026-01-20 21:04:26.74	34.85	17.52	-37.4	-38.4	23.7	0.00e+00	120	43	0	865075200	48	5804
2026-01-20 21:04:27.75	34.62	17.55	-37.4	-38.4	23.7	0.00e+00	122	43	0	868220928	48	5797
2026-01-20 21:04:28.76	34.39	17.57	-37.4	-38.3	23.9	0.00e+00	122	43	0	871366656	48	5767
2026-01-20 21:04:29.77	34.17	17.60	-37.4	-38.3	23.8	0.00e+00	123	43	0	874512384	48	5774
2026-01-20 21:04:30.78	33.94	17.62	-37.2	-38.2	23.9	0.00e+00	121	43	0	877658112	48	5673
2026-01-20 21:04:31.79	33.71	17.65	-37.2	-38.1	23.9	0.00e+00	120	43	0	880803840	48	5617
2026-01-20 21:04:32.80	33.48	17.67	-37.4	-38.3	23.9	0.00e+00	122	43	0	883949568	48	5750
2026-01-20 21:04:33.81	33.25	17.69	-37.2	-38.2	23.9	0.00e+00	120	43	0	887095296	48	5672
2026-01-20 21:04:34.82	33.03	17.72	-37.3	-38.2	23.8	0.00e+00	123	43	0	890241024	48	5716
2026-01-20 21:04:35.83	32.80	17.74	-37.4	-38.4	23.6	0.00e+00	123	43	0	893386752	48	5809
2026-01-20 21:04:36.84	32.57	17.76	-37.7	-38.6	23.6	0.00e+00	122	43	0	896532480	48	5965
2026-01-20 21:04:37.85	32.34	17.78	-37.6	-38.5	23.6	0.00e+00	120	43	0	899678208	48	5913
2026-01-20 21:04:38.86	32.11	17.80	-37.6	-38.5	23.7	0.00e+00	123	43	0	902823936	48	5897
2026-01-20 21:04:39.87	31.88	17.82	-37.4	-38.3	23.8	0.00e+00	120	43	0	905969664	48	5790
2026-01-20 21:04:40.88	31.64	17.84	-37.4	-38.4	23.7	0.00e+00	122	43	0	909115392	48	5800
2026-01-20 21:04:41.89	31.41	17.86	-37.5	-38.5	23.7	0.00e+00	123	43	0	912261120	48	5873
2026-01-20 21:04:42.90	31.18	17.88	-37.5	-38.4	23.7	0.00e+00	122	43	0	915406848	48	5841
2026-01-20 21:04:43.91	30.95	17.90	-37.7	-38.6	23.5	0.00e+00	122	43	0	918552576	48	5958
2026-01-20 21:04:44.92	30.72	17.92	-37.9	-38.8	23.5	0.00e+00	120	43	0	921698304	48	6123
2026-01-20 21:04:45.93	30.49	17.94	-37.7	-38.6	23.6	0.00e+00	122	43	0	924844032	48	5977
2026-01-20 21:04:46.94	30.25	17.95	-37.6	-38.6	23.7	0.00e+00	123	43	0	927989760	48	5936
2026-01-20 21:04:47.95	30.02	17.97	-37.3	-38.3	23.9	0.00e+00	122	43	0	931135488	48	5727
2026-01-20 21:04:48.96	29.79	17.99	-37.4	-38.4	23.8	0.00e+00	122	43	0	934281216	48	5807
2026-01-20 21:04:49.97	29.55	18.00	-37.3	-38.2	23.9	0.00e+00	120	43	0	937426944	48	5688
2026-01-20 21:04:50.98	29.32	18.02	-37.2	-38.1	23.9	0.00e+00	120	43	0	940572672	48	5655
2026-01-20 21:04:51.99	29.09	18.03	-37.3	-38.2	23.9	0.00e+00	123	43	0	943718400	48	5699
2026-01-20 21:04:53.00	28.85	18.05	-37.2	-38.1	23.9	0.00e+00	124	43	0	946864128	48	5644
2026-01-20 21:04:54.01	28.62	18.06	-37.3	-38.3	23.9	0.00e+00	122	43	0	950009856	48	5747
2026-01-20 21:04:55.02	28.38	18.08	-37.2	-38.1	24.0	0.00e+00	122	43	0	953155584	48	5611
2026-01-20 21:04:56.03	28.15	18.09	-37.2	-38.1	23.9	0.00e+00	122	43	0	956301312	48	5642
2026-01-20 21:04:57.04	27.91	18.10	-37.3	-38.2	23.9	0.00e+00	123	43	0	959447040	48	5701
2026-01-20 21:04:58.05	27.68	18.11	-37.2	-38.1	24.0	0.00e+00	122	43	0	962592768	48	5615
2026-01-20 21:04:59.06	27.44	18.13	-37.3	-38.2	23.9	0.00e+00	122	43	0	965738496	48	5723
2026-01-20 21:05:00.07	27.21	18.14	-37.2	-38.1	23.9	0.00e+00	122	43	0	968884224	48	5625
2026-01-20 21:05:01.08	26.97	18.15	-37.3	-38.2	23.9	0.00e+00	121	43	0	972029952	48	5702
2026-01-20 21:05:02.09	26.73	18.16	-37.4	-38.3	23.7	0.00e+00	123	43	0	975175680	48	5778
2026-01-20 21:05:03.10	26.50	18.17	-37.4	-38.3	23.7	0.00e+00	123	43	0	978321408	48	5757
2026-01-20 21:05:04.11	26.26	18.18	-37.3	-38.3	23.8	0.00e+00	123	43	0	981467136	48	5751
2026-01-20 21:05:05.12	26.03	18.18	-37.5	-38.4	23.7	0.00e+00	122	43	0	984612864	48	5821
2026-01-20 21:05:06.13	25.79	18.19	-37.4	-38.3	23.7	0.00e+00	122	43	0	987758592	48	5789
2026-01-20 21:05:07.14	25.55	18.20	-37.6	-38.6	23.6	0.00e+00	123	43	0	990904320	48	5936
2026-01-20 21:05:08.15	25.32	18.21	-37.5	-38.5	23.7	0.00e+00	123	43	0	994050048	48	5865
2026-01-20 21:05:09.15	25.08	18.21	-37.6	-38.6	23.5	0.00e+00	122	43	0	997195776	48	5957
2026-01-20 21:05:10.16	24.84	18.22	-37.9	-38.8	23.4	0.00e+00	122	43	0	1000341504	48	6121
2026-01-20 21:05:11.18	24.60	18.22	-37.8	-38.7	23.4	0.00e+00	123	43	0	1003487232	48	6052
2026-01-20 21:05:12.19	24.37	18.23	-37.7	-38.6	23.6	0.00e+00	123	43	0	1006632960	48	5966
2026-01-20 21:05:13.20	24.13	18.23	-37.7	-38.7	23.6	0.00e+00	123	43	0	1009778688	48	6008
2026-01-20 21:05:14.21	23.89	18.24	-37.5	-38.4	23.8	0.00e+00	122	43	0	1012924416	48	5822
2026-01-20 21:05:15.22	23.66	18.24	-37.3	-38.2	23.9	0.00e+00	120	43	0	1016070144	48	5708
2026-01-20 21:05:16.23	23.42	18.24	-37.3	-38.2	23.9	0.00e+00	123	43	0	1019215872	48	5677
2026-01-20 21:05:17.24	23.18	18.25	-37.1	-38.0	24.1	0.00e+00	120	43	0	1022361600	48	5566
2026-01-20 21:05:18.25	22.94	18.25	-37.2	-38.1	23.9	0.00e+00	123	43	0	1025507328	48	5617
2026-01-20 21:05:19.26	22.71	18.25	-37.0	-37.9	24.1	0.00e+00	120	43	0	1028653056	48	5510
2026-01-20 21:05:20.27	22.47	18.25	-37.0	-37.9	24.0	0.00e+00	123	43	0	1031798784	48	5511
2026-01-20 21:05:21.28	22.23	18.25	-37.0	-37.9	24.1	0.00e+00	123	43	0	1034944512	48	5520
2026-01-20 21:05:22.30	21.99	18.25	-37.0	-37.9	24.1	0.00e+00	123	43	0	1038090240	48	5526
2026-01-20 21:05:23.31	21.75	18.25	-37.1	-38.0	24.1	0.00e+00	122	43	0	1041235968	48	5591
2026-01-20 21:05:24.31	21.52	18.25	-37.0	-37.9	24.1	0.00e+00	123	43	0	1044381696	48	5517
2026-01-20 21:05:25.32	21.28	18.25	-37.1	-38.0	24.1	0.00e+00	122	43	0	1047527424	48	5563
2026-01-20 21:05:26.34	21.04	18.25	-37.0	-37.9	24.1	0.00e+00	122	43	0	1050673152	48	5494
2026-01-20 21:05:27.35	20.81	18.24	-37.2	-38.1	23.9	0.00e+00	123	43	0	1053818880	48	5620
2026-01-20 21:05:28.36	20.57	18.24	-37.2	-38.1	23.9	0.00e+00	120	43	0	1056964608	48	5605
2026-01-20 21:05:29.37	20.33	18.24	-37.3	-38.2	23.9	0.00e+00	123	43	0	1060110336	48	5668
2026-01-20 21:05:30.38	20.09	18.23	-37.4	-38.3	23.7	0.00e+00	120	43	0	1063256064	48	5774
2026-01-20 21:05:31.39	19.86	18.23	-37.5	-38.4	23.8	0.00e+00	123	43	0	1066401792	48	5827
2026-01-20 21:05:32.40	19.62	18.22	-37.4	-38.3	23.9	0.00e+00	120	43	0	1069547520	48	5760
2026-01-20 21:05:33.41	19.38	18.22	-37.5	-38.5	23.8	0.00e+00	123	43	0	1072693248	48	5870
2026-01-20 21:05:34.42	19.15	18.21	-37.3	-38.2	23.9	0.00e+00	122	43	0	1075838976	48	5720
2026-01-20 21:05:35.43	18.91	18.20	-37.3	-38.3	23.9	0.00e+00	123	43	0	1078984704	48	5737
2026-01-20 21:05:36.44	18.67	18.20	-37.3	-38.3	23.9	0.00e+00	120	43	0	1083179008	48	5756
2026-01-20 21:05:37.45	18.44	18.19	-37.4	-38.4	23.8	0.00e+00	123	43	0	1085276160	48	5795
2026-01-20 21:05:38.46	18.20	18.18	-37.3	-38.2	23.9	0.00e+00	120	43	0	1088421888	48	5725
2026-01-20 21:05:39.47	17.96	18.17	-37.1	-38.1	24.0	0.00e+00	123	43	0	1091567616	48	5603
2026-01-20 21:05:40.48	17.73	18.16	-37.1	-38.1	23.7	0.00e+00	123	43	0	1094713344	48	5601
2026-01-20 21:05:41.49	17.49	18.15	-37.2	-38.1	23.9	0.00e+00	121	43	0	1098907648	48	5632
2026-01-20 21:05:42.50	17.26	18.14	-37.2	-38.1	23.9	0.00e+00	122	43	0	1102053376	48	5644
2026-01-20 21:05:43.51	17.02	18.13	-37.0	-37.9	24.1	0.00e+00	120	43	0	1105199104	48	5530
2026-01-20 21:05:44.52	16.78	18.12	-37.1	-38.0	24.0	0.00e+00	123	43	0	1107296256	48	5556
2026-01-20 21:05:45.53	16.55	18.11	-37.1	-38.0	24.0	0.00e+00	120	43	0	1110441984	48	5551
2026-01-20 21:05:46.54	16.31	18.10	-37.0	-37.9	24.2	0.00e+00	122	43	0	1114636288	48	5503
2026-01-20 21:05:47.55	16.08	18.08	-37.0	-37.9	24.1	0.00e+00	120	43	0	1117782016	48	5530
2026-01-20 21:05:48.56	15.84	18.07	-37.3	-38.2	23.8	0.00e+00	123	43	0	1120927744	48	5713
2026-01-20 21:05:49.57	15.61	18.06	-37.4	-38.3	23.9	0.00e+00	123	43	0	1124073472	48	5771
2026-01-20 21:05:50.58	15.38	18.04	-37.4	-38.4	23.8	0.00e+00	123	43	0	1127219200	48	5798
2026-01-20 21:05:51.58	15.14	18.03	-37.5	-38.4	23.8	0.00e+00	123	43	0	1130364928	48	5843
2026-01-20 21:05:52.59	14.91	18.01	-37.4	-38.4	23.9	0.00e+00	123	43	0	1133510656	48	5800
2026-01-20 21:05:53.60	14.68	18.00	-37.5	-38.4	23.7	0.00e+00	123	43	0	1136656384	48	5848
2026-01-20 21:05:54.61	14.44	17.98	-37.4	-38.4	23.6	0.00e+00	122	43	0	1139802112	48	5816
2026-01-20 21:05:55.62	14.21	17.97	-37.5	-38.4	23.5	0.00e+00	123	43	0	1142947840	48	5844
2026-01-20 21:05:56.63	13.98	17.95	-37.5	-38.5	23.6	0.00e+00	123	43	0	1146093568	48	5898
2026-01-20 21:05:57.64	13.75	17.93	-37.5	-38.4	23.6	0.00e+00	123	43	0	1149239296	48	5854
2026-01-20 21:05:58.65	13.51	17.91	-37.4	-38.3	23.8	0.00e+00	123	43	0	1152385024	48	5758
2026-01-20 21:05:59.66	13.28	17.89	-37.2	-38.1	23.9	0.00e+00	122	43	0	1155530752	48	5650
2026-01-20 21:06:00.67	13.05	17.88	-37.2	-38.1	23.9	0.00e+00	123	43	0	1158676480	48	5621
2026-01-20 21:06:01.68	12.82	17.86	-37.1	-38.0	24.1	0.00e+00	123	43	0	1161822208	48	5576
2026-01-20 21:06:02.69	12.59	17.84	-37.2	-38.1	24.0	0.00e+00	123	43	0	1164967936	48	5633
2026-01-20 21:06:03.70	12.36	17.82	-37.2	-38.1	24.1	0.00e+00	123	43	0	1168113664	48	5612
2026-01-20 21:06:04.71	12.13	17.80	-37.2	-38.1	24.0	0.00e+00	123	43	0	1171259392	48	5607
2026-01-20 21:06:05.72	11.90	17.77	-37.2	-38.1	24.0	0.00e+00	122	43	0	1174405120	48	5605
2026-01-20 21:06:06.73	11.67	17.75	-37.1	-38.1	23.8	0.00e+00	123	43	0	1177550848	48	5602
2026-01-20 21:06:07.74	11.44	17.73	-37.2	-38.1	23.9	0.00e+00	122	43	0	1180696576	48	5651
2026-01-20 21:06:08.75	11.21	17.71	-37.2	-38.1	23.8	0.00e+00	120	43	0	1183842304	48	5624
2026-01-20 21:06:09.76	10.98	17.68	-37.1	-38.0	23.9	0.00e+00	123	43	0	1186988032	48	5531
2026-01-20 21:06:10.77	10.75	17.66	-37.3	-38.2	23.9	0.00e+00	123	43	0	1190133760	48	5711
2026-01-20 21:06:11.78	10.52	17.64	-37.2	-38.2	23.7	0.00e+00	123	43	0	1193279488	48	5663
2026-01-20 21:06:12.78	10.30	17.61	-37.2	-38.2	23.9	0.00e+00	122	43	0	1196425216	48	5669
2026-01-20 21:06:13.80	10.07	17.59	-37.2	-38.1	23.9	0.00e+00	123	43	0	1199570944	48	5644
2026-01-20 21:06:14.81	9.84	17.56	-37.3	-38.2	23.9	0.00e+00	122	43	0	1202716672	48	5724
2026-01-20 21:06:15.82	9.61	17.54	-37.2	-38.1	23.9	0.00e+00	123	43	0	1205862400	48	5619
2026-01-20 21:06:16.83	9.39	17.51	-37.3	-38.2	23.8	0.00e+00	120	43	0	1209008128	48	5715
2026-01-20 21:06:17.84	9.16	17.48	-37.3	-38.2	23.9	0.00e+00	122	43	0	1212153856	48	5722
2026-01-20 21:06:18.84	8.94	17.46	-37.2	-38.1	23.9	0.00e+00	122	43	0	1215299584	48	5634
2026-01-20 21:06:19.85	8.71	17.43	-37.2	-38.1	23.9	0.00e+00	123	43	0	1218445312	48	5658
2026-01-20 21:06:20.86	8.49	17.40	-37.2	-38.1	23.9	0.00e+00	123	43	0	1221591040	48	5616
2026-01-20 21:06:21.87	8.27	17.37	-37.2	-38.1	23.9	0.00e+00	123	43	0	1224736768	48	5652
2026-01-20 21:06:22.88	8.04	17.35	-37.2	-38.1	23.9	0.00e+00	120	43	0	1227882496	48	5653
2026-01-20 21:06:23.89	7.82	17.32	-37.3	-38.2	23.8	0.00e+00	123	43	0	1231028224	48	5722
2026-01-20 21:06:24.90	7.60	17.29	-37.2	-38.2	23.9	0.00e+00	123	43	0	1234173952	48	5673
2026-01-20 21:06:25.92	7.37	17.26	-37.0	-38.0	24.1	0.00e+00	122	43	0	1237319680	48	5535
2026-01-20 21:06:26.93	7.15	17.23	-37.2	-38.1	24.0	0.00e+00	122	43	0	1240465408	48	5623
2026-01-20 21:06:27.94	6.93	17.20	-37.2	-38.1	23.9	0.00e+00	123	43	0	1243611136	48	5655
2026-01-20 21:06:28.95	6.71	17.16	-37.1	-38.0	24.0	0.00e+00	123	43	0	1246756864	48	5585
2026-01-20 21:06:29.96	6.49	17.13	-37.1	-38.1	24.0	0.00e+00	122	43	0	1249902592	48	5599
2026-01-20 21:06:30.97	6.27	17.10	-37.1	-38.0	24.1	0.00e+00	123	43	0	1253048320	48	5537
2026-01-20 21:06:31.98	6.05	17.07	-37.2	-38.2	24.0	0.00e+00	122	43	0	1256194048	48	5663
2026-01-20 21:06:32.99	5.83	17.04	-37.1	-38.1	24.1	0.00e+00	122	43	0	1259339776	48	5607
2026-01-20 21:06:34.00	5.61	17.00	-37.2	-38.1	24.0	0.00e+00	123	43	0	1262485504	48	5648
2026-01-20 21:06:35.01	5.39	16.97	-37.1	-38.0	24.1	0.00e+00	123	43	0	1265631232	48	5590
2026-01-20 21:06:36.02	5.17	16.94	-37.5	-38.4	23.9	0.00e+00	120	43	0	1268776960	48	5809
2026-01-20 21:06:37.03	4.96	16.90	-37.4	-38.3	23.9	0.00e+00	123	43	0	1271922688	48	5786
2026-01-20 21:06:38.04	4.74	16.87	-37.3	-38.2	23.9	0.00e+00	123	43	0	1275068416	48	5679
2026-01-20 21:06:39.05	4.52	16.83	-37.2	-38.2	23.9	0.00e+00	120	43	0	1278214144	48	5664
2026-01-20 21:06:40.06	4.31	16.80	-37.3	-38.3	23.9	0.00e+00	122	43	0	1281359872	48	5729
2026-01-20 21:06:41.07	4.09	16.76	-37.3	-38.2	23.9	0.00e+00	122	43	0	1284505600	48	5690
2026-01-20 21:06:42.08	3.88	16.72	-37.3	-38.2	23.9	0.00e+00	122	43	0	1287651328	48	5695
2026-01-20 21:06:43.09	3.67	16.69	-37.3	-38.2	24.0	0.00e+00	120	43	0	1290797056	48	5701
2026-01-20 21:06:44.10	3.45	16.65	-37.3	-38.3	23.9	0.00e+00	122	43	0	1293942784	48	5735
2026-01-20 21:06:45.11	3.24	16.61	-37.4	-38.3	23.9	0.00e+00	120	43	0	1297088512	48	5769
2026-01-20 21:06:46.12	3.03	16.58	-37.4	-38.4	23.8	0.00e+00	122	43	0	1300234240	48	5810
2026-01-20 21:06:47.13	2.82	16.54	-37.7	-38.6	23.6	0.00e+00	123	43	0	1303379968	48	5979
2026-01-20 21:06:48.14	2.60	16.50	-37.6	-38.5	23.7	0.00e+00	123	43	0	1306525696	48	5887
2026-01-20 21:06:49.15	2.39	16.46	-37.3	-38.2	24.0	0.00e+00	123	43	0	1309671424	48	5692
2026-01-20 21:06:50.16	2.18	16.42	-37.4	-38.3	23.9	0.00e+00	122	43	0	1312817152	48	5761
2026-01-20 21:06:51.17	1.97	16.38	-37.3	-38.2	24.0	0.00e+00	122	43	0	1315962880	48	5676
2026-01-20 21:06:52.18	1.76	16.35	-37.0	-37.9	24.2	0.00e+00	121	43	0	1319108608	48	5515
2026-01-20 21:06:53.19	1.56	16.31	-37.1	-38.1	24.0	0.00e+00	123	43	0	1322254336	48	5607
2026-01-20 21:06:54.20	1.35	16.27	-37.2	-38.1	24.1	0.00e+00	122	43	0	1325400064	48	5608
2026-01-20 21:06:55.21	1.14	16.22	-37.2	-38.1	23.9	0.00e+00	123	43	0	1328545792	48	5636
2026-01-20 21:06:56.22	0.93	16.18	-37.2	-38.2	24.0	0.00e+00	122	43	0	1331691520	48	5669
2026-01-20 21:06:57.23	0.73	16.14	-37.3	-38.3	23.9	0.00e+00	123	43	0	1334837248	48	5728
2026-01-20 21:06:58.24	0.52	16.10	-37.4	-38.4	23.8	0.00e+00	122	43	0	1337982976	48	5804
2026-01-20 21:06:59.25	0.32	16.06	-37.5	-38.4	23.8	0.00e+00	123	43	0	1341128704	48	5821
2026-01-20 21:07:00.26	0.11	16.02	-37.4	-38.4	23.8	0.00e+00	122	43	0	1344274432	48	5809
2026-01-20 21:07:01.27	359.91	15.98	-37.6	-38.6	23.7	0.00e+00	122	43	0	1347420160	48	5929
2026-01-20 21:07:02.28	359.70	15.93	-37.4	-38.3	23.8	0.00e+00	123	43	0	1350565888	48	5776
2026-01-20 21:07:03.29	359.50	15.89	-37.3	-38.2	23.9	0.00e+00	121	43	0	1353711616	48	5686
2026-01-20 21:07:04.30	359.30	15.85	-37.2	-38.1	23.9	0.00e+00	123	43	0	1356857344	48	5646
2026-01-20 21:07:05.31	359.10	15.80	-37.2	-38.1	23.9	0.00e+00	123	43	0	1360003072	48	5643
2026-01-20 21:07:06.33	358.89	15.76	-37.0	-37.9	24.0	0.00e+00	120	43	0	1363148800	48	5528
2026-01-20 21:07:07.33	358.70	15.72	-37.1	-38.1	23.9	0.00e+00	122	43	0	1366294528	48	5600
2026-01-20 21:07:08.34	358.50	15.67	-37.2	-38.1	23.9	0.00e+00	123	43	0	1369440256	48	5638
2026-01-20 21:07:09.36	358.29	15.63	-37.2	-38.2	23.9	0.00e+00	123	43	0	1372585984	48	5674
2026-01-20 21:07:10.37	358.10	15.58	-37.3	-38.3	23.8	0.00e+00	120	43	0	1375731712	48	5734
2026-01-20 21:07:11.38	357.90	15.54	-37.6	-38.5	23.5	0.00e+00	122	43	0	1378877440	48	5902
2026-01-20 21:07:12.39	357.70	15.49	-37.7	-38.6	23.5	0.00e+00	122	43	0	1382023168	48	5962
2026-01-20 21:07:13.40	357.50	15.45	-37.7	-38.6	23.4	0.00e+00	120	43	0	1385168896	48	5994
2026-01-20 21:07:14.41	357.31	15.40	-37.9	-38.9	23.2	0.00e+00	123	43	0	1388314624	48	6141
2026-01-20 21:07:15.42	357.11	15.35	-37.7	-38.6	23.5	0.00e+00	123	43	0	1391460352	48	5955
2026-01-20 21:07:16.43	356.92	15.31	-37.7	-38.6	23.5	0.00e+00	123	43	0	1394606080	48	5963
2026-01-20 21:07:17.44	356.72	15.26	-37.9	-38.8	23.4	0.00e+00	122	43	0	1398800384	48	6100
2026-01-20 21:07:18.45	356.53	15.21	-37.9	-38.9	23.4	0.00e+00	123	43	0	1400897536	48	6170
2026-01-20 21:07:19.46	356.34	15.17	-37.6	-38.6	23.6	0.00e+00	120	43	0	1404043264	48	5938
2026-01-20 21:07:20.47	356.14	15.12	-37.8	-38.8	23.4	0.00e+00	120	43	0	1407188992	48	6089
2026-01-20 21:07:21.48	355.95	15.07	-37.9	-38.8	23.4	0.00e+00	123	43	0	1410334720	48	6109
2026-01-20 21:07:22.49	355.76	15.02	-37.8	-38.7	23.5	0.00e+00	120	43	0	1414529024	48	6055
2026-01-20 21:07:23.50	355.57	14.98	-37.8	-38.8	23.4	0.00e+00	123	43	0	1417674752	48	6107
2026-01-20 21:07:24.51	355.38	14.93	-37.5	-38.4	23.6	0.00e+00	122	43	0	1420820480	48	5848
2026-01-20 21:07:25.52	355.19	14.88	-37.6	-38.6	23.5	0.00e+00	122	43	0	1422917632	48	5941
2026-01-20 21:07:26.53	355.00	14.83	-37.7	-38.6	23.5	0.00e+00	120	43	0	1426063360	48	5983
2026-01-20 21:07:27.54	354.81	14.78	-37.8	-38.7	23.5	0.00e+00	123	43	0	1430257664	48	6057
2026-01-20 21:07:28.55	354.63	14.73	-37.5	-38.5	23.7	0.00e+00	123	43	0	1433403392	48	5865
2026-01-20 21:07:29.56	354.44	14.68	-37.5	-38.5	23.6	0.00e+00	120	43	0	1436549120	48	5865
2026-01-20 21:07:30.57	354.25	14.63	-37.6	-38.6	23.5	0.00e+00	123	43	0	1439694848	48	5937
2026-01-20 21:07:31.58	354.07	14.58	-37.7	-38.6	23.5	0.00e+00	120	43	0	1442840576	48	5984
2026-01-20 21:07:32.59	353.88	14.53	-37.9	-38.8	23.3	0.00e+00	123	43	0	1445986304	48	6125
2026-01-20 21:07:33.61	353.70	14.48	-37.7	-38.7	23.3	0.00e+00	120	43	0	1449132032	48	6024
2026-01-20 21:07:34.62	353.51	14.43	-37.8	-38.7	23.3	0.00e+00	122	43	0	1452277760	48	6054
2026-01-20 21:07:35.63	353.33	14.38	-38.0	-39.0	23.1	0.00e+00	123	43	0	1455423488	48	6225
2026-01-20 21:07:36.63	353.15	14.33	-37.9	-38.9	23.3	0.00e+00	123	43	0	1458569216	48	6140
2026-01-20 21:07:37.64	352.97	14.28	-37.8	-38.8	23.3	0.00e+00	120	43	0	1461714944	48	6115
2026-01-20 21:07:38.65	352.79	14.23	-37.8	-38.8	23.3	0.00e+00	123	43	0	1464860672	48	6074
2026-01-20 21:07:39.66	352.60	14.18	-37.9	-38.9	23.2	0.00e+00	123	43	0	1468006400	48	6177
2026-01-20 21:07:40.67	352.42	14.13	-38.1	-39.1	23.1	0.00e+00	123	43	0	1471152128	48	6278
2026-01-20 21:07:41.68	352.25	14.08	-37.8	-38.8	23.3	0.00e+00	123	43	0	1474297856	48	6069
2026-01-20 21:07:42.70	352.07	14.02	-38.0	-38.9	23.3	0.00e+00	123	43	0	1477443584	48	6192
2026-01-20 21:07:43.71	351.89	13.97	-37.9	-38.8	23.2	0.00e+00	122	43	0	1480589312	48	6125
2026-01-20 21:07:44.72	351.71	13.92	-38.1	-39.1	23.1	0.00e+00	123	43	0	1483735040	48	6279
2026-01-20 21:07:45.73	351.53	13.87	-38.0	-39.0	23.1	0.00e+00	121	43	0	1486880768	48	6248
2026-01-20 21:07:46.74	351.36	13.82	-38.2	-39.1	23.0	0.00e+00	123	43	0	1490026496	48	6349
2026-01-20 21:07:47.75	351.18	13.76	-38.4	-39.4	22.9	0.00e+00	120	43	0	1493172224	48	6526
2026-01-20 21:07:48.76	351.01	13.71	-38.4	-39.4	22.9	0.00e+00	122	43	0	1496317952	48	6523
2026-01-20 21:07:49.77	350.83	13.66	-38.4	-39.4	22.8	0.00e+00	122	43	0	1499463680	48	6550
2026-01-20 21:07:50.78	350.66	13.61	-38.3	-39.3	23.0	0.00e+00	122	43	0	1502609408	48	6473
2026-01-20 21:07:51.79	350.49	13.55	-37.9	-38.8	23.3	0.00e+00	123	43	0	1505755136	48	6110
2026-01-20 21:07:52.80	350.31	13.50	-38.0	-39.0	23.2	0.00e+00	123	43	0	1508900864	48	6220
2026-01-20 21:07:53.81	350.14	13.45	-38.0	-39.0	23.3	0.00e+00	123	43	0	1512046592	48	6219
2026-01-20 21:07:54.82	349.97	13.39	-38.0	-39.0	23.2	0.00e+00	122	43	0	1515192320	48	6233
2026-01-20 21:07:55.83	349.80	13.34	-38.1	-39.0	23.2	0.00e+00	122	43	0	1518338048	48	6245
2026-01-20 21:07:56.84	349.63	13.28	-38.0	-39.0	23.3	0.00e+00	123	43	0	1521483776	48	6229
2026-01-20 21:07:57.85	349.46	13.23	-37.6	-38.5	23.5	0.00e+00	123	43	0	1524629504	48	5923
2026-01-20 21:07:58.86	349.29	13.18	-37.8	-38.8	23.3	0.00e+00	123	43	0	1527775232	48	6082
2026-01-20 21:07:59.87	349.12	13.12	-37.8	-38.7	23.3	0.00e+00	122	43	0	1530920960	48	6055
2026-01-20 21:08:00.88	348.96	13.07	-37.7	-38.6	23.4	0.00e+00	122	43	0	1534066688	48	5990
2026-01-20 21:08:01.89	348.79	13.01	-37.7	-38.6	23.4	0.00e+00	121	43	0	1537212416	48	5979
2026-01-20 21:08:02.90	348.62	12.96	-37.8	-38.8	23.3	0.00e+00	120	43	0	1540358144	48	6082
2026-01-20 21:08:03.91	348.46	12.90	-37.9	-38.9	23.2	0.00e+00	123	43	0	1543503872	48	6135
2026-01-20 21:08:04.92	348.29	12.85	-37.9	-38.9	23.2	0.00e+00	123	43	0	1546649600	48	6136
2026-01-20 21:08:05.93	348.13	12.79	-37.9	-38.8	23.2	0.00e+00	123	43	0	1549795328	48	6127
2026-01-20 21:08:06.94	347.97	12.74	-37.8	-38.8	23.2	0.00e+00	122	43	0	1552941056	48	6070
2026-01-20 21:08:07.95	347.80	12.68	-37.9	-38.8	23.2	0.00e+00	122	43	0	1556086784	48	6123
2026-01-20 21:08:08.96	347.64	12.63	-38.0	-39.0	23.0	0.00e+00	120	43	0	1559232512	48	6224
2026-01-20 21:08:09.97	347.48	12.57	-38.1	-39.0	22.9	0.00e+00	123	43	0	1562378240	48	6268
2026-01-20 21:08:10.98	347.32	12.52	-38.1	-39.1	23.0	0.00e+00	123	43	0	1565523968	48	6301
2026-01-20 21:08:11.99	347.16	12.46	-38.1	-39.1	22.9	0.00e+00	123	43	0	1568669696	48	6322
2026-01-20 21:08:13.00	347.00	12.41	-38.2	-39.2	22.9	0.00e+00	120	43	0	1571815424	48	6388
2026-01-20 21:08:14.02	346.84	12.35	-38.3	-39.3	22.9	0.00e+00	123	43	0	1574961152	48	6455
2026-01-20 21:08:15.03	346.68	12.29	-38.3	-39.3	22.8	0.00e+00	123	43	0	1578106880	48	6480
2026-01-20 21:08:16.03	346.52	12.24	-38.5	-39.5	22.7	0.00e+00	122	43	0	1581252608	48	6583
2026-01-20 21:08:17.04	346.37	12.18	-38.6	-39.6	22.6	0.00e+00	123	43	0	1584398336	48	6684
2026-01-20 21:08:18.06	346.21	12.13	-38.6	-39.6	22.6	0.00e+00	122	43	0	1587544064	50	5977
2026-01-20 21:08:19.07	346.05	12.07	-38.7	-39.7	22.6	0.00e+00	123	43	0	1590689792	50	6016
2026-01-20 21:08:20.08	345.90	12.01	-38.5	-39.5	22.7	0.00e+00	123	43	0	1593835520	50	5863
2026-01-20 21:08:21.08	345.74	11.96	-38.4	-39.4	22.7	0.00e+00	123	43	0	1596981248	50	5854
2026-01-20 21:08:22.09	345.59	11.90	-38.6	-39.6	22.6	0.00e+00	122	43	0	1600126976	50	5950
2026-01-20 21:08:23.10	345.43	11.85	-38.6	-39.7	22.5	0.00e+00	123	43	0	1603272704	50	6011
2026-01-20 21:08:24.12	345.28	11.79	-38.5	-39.6	22.7	0.00e+00	123	43	0	1606418432	50	5936
2026-01-20 21:08:25.13	345.13	11.73	-38.4	-39.4	22.6	0.00e+00	123	43	0	1609564160	50	5852
2026-01-20 21:08:26.13	344.98	11.68	-38.5	-39.5	22.6	0.00e+00	123	43	0	1612709888	50	5903
2026-01-20 21:08:27.14	344.82	11.62	-38.3	-39.3	22.8	0.00e+00	122	43	0	1615855616	50	5746
2026-01-20 21:08:28.15	344.67	11.56	-38.4	-39.4	22.6	0.00e+00	123	43	0	1619001344	50	5797
2026-01-20 21:08:29.16	344.52	11.50	-38.4	-39.4	22.7	0.00e+00	122	43	0	1622147072	50	5809
2026-01-20 21:08:30.17	344.37	11.45	-38.4	-39.4	22.7	0.00e+00	122	43	0	1625292800	50	5799
2026-01-20 21:08:31.18	344.23	11.39	-38.3	-39.3	22.8	0.00e+00	120	43	0	1628438528	50	5787
2026-01-20 21:08:32.20	344.08	11.33	-38.3	-39.3	22.9	0.00e+00	121	43	0	1631584256	50	5757
2026-01-20 21:08:33.21	343.93	11.28	-38.1	-39.1	23.0	0.00e+00	123	43	0	1634729984	50	5634
2026-01-20 21:08:34.22	343.78	11.22	-38.6	-39.6	22.6	0.00e+00	123	43	0	1637875712	50	5965
2026-01-20 21:08:35.23	343.63	11.16	-38.5	-39.5	22.6	0.00e+00	122	43	0	1641021440	50	5884
2026-01-20 21:08:36.24	343.49	11.10	-38.4	-39.5	22.6	0.00e+00	122	43	0	1644167168	50	5863
2026-01-20 21:08:37.25	343.34	11.05	-38.3	-39.3	22.8	0.00e+00	123	43	0	1647312896	50	5752
2026-01-20 21:08:38.26	343.20	10.99	-38.5	-39.5	22.6	0.00e+00	122	43	0	1650458624	50	5921
2026-01-20 21:08:39.27	343.05	10.93	-38.8	-39.8	22.5	0.00e+00	120	43	0	1653604352	50	6083
2026-01-20 21:08:40.27	342.91	10.88	-38.6	-39.6	22.6	0.00e+00	123	43	0	1656750080	50	5930
2026-01-20 21:08:41.28	342.77	10.82	-38.7	-39.7	22.5	0.00e+00	122	43	0	1659895808	50	6037
2026-01-20 21:08:42.29	342.63	10.76	-38.5	-39.5	22.7	0.00e+00	123	43	0	1663041536	50	5922
2026-01-20 21:08:43.31	342.48	10.70	-38.8	-39.8	22.3	0.00e+00	120	43	0	1666187264	50	6072
2026-01-20 21:08:44.32	342.34	10.64	-38.8	-39.8	22.4	0.00e+00	121	43	0	1669332992	50	6107
2026-01-20 21:08:45.33	342.20	10.59	-38.4	-39.4	22.8	0.00e+00	122	43	0	1672478720	50	5802
2026-01-20 21:08:46.34	342.06	10.53	-38.8	-39.8	22.3	0.00e+00	123	43	0	1675624448	50	6127
2026-01-20 21:08:47.35	341.92	10.47	-38.5	-39.5	22.6	0.00e+00	123	43	0	1678770176	50	5897
2026-01-20 21:08:48.36	341.78	10.41	-38.6	-39.6	22.5	0.00e+00	122	43	0	1681915904	50	5986
2026-01-20 21:08:49.37	341.64	10.36	-38.8	-39.8	22.3	0.00e+00	123	43	0	1685061632	50	6093
2026-01-20 21:08:50.38	341.50	10.30	-38.7	-39.7	22.4	0.00e+00	120	43	0	1688207360	50	6022
2026-01-20 21:08:51.39	341.37	10.24	-38.7	-39.7	22.4	0.00e+00	122	43	0	1691353088	50	6036
2026-01-20 21:08:52.40	341.23	10.18	-38.9	-39.9	22.2	0.00e+00	123	43	0	1694498816	50	6175
2026-01-20 21:08:53.41	341.09	10.12	-39.0	-40.0	22.1	0.00e+00	123	43	0	1697644544	50	6250
2026-01-20 21:08:54.42	340.96	10.07	-38.6	-39.7	22.3	0.00e+00	121	43	0	1700790272	50	6010
2026-01-20 21:08:55.43	340.82	10.01	-38.7	-39.7	22.4	0.00e+00	123	43	0	1703936000	50	6049
2026-01-20 21:08:56.44	340.69	9.95	-38.8	-39.8	22.3	0.00e+00	123	43	0	1708130304	50	6125
2026-01-20 21:08:57.45	340.55	9.89	-38.7	-39.7	22.4	0.00e+00	121	43	0	1711276032	50	6035
2026-01-20 21:08:58.46	340.42	9.83	-38.7	-39.8	22.3	0.00e+00	122	43	0	1714421760	50	6072
2026-01-20 21:08:59.47	340.29	9.78	-38.6	-39.6	22.4	0.00e+00	120	43	0	1716518912	50	5955
2026-01-20 21:09:00.48	340.15	9.72	-38.5	-39.5	22.7	0.00e+00	120	43	0	1719664640	50	5861
2026-01-20 21:09:01.49	340.02	9.66	-38.9	-40.0	22.2	0.00e+00	123	43	0	1723858944	50	6212
2026-01-20 21:09:02.50	339.89	9.60	-39.1	-40.1	22.2	0.00e+00	122	43	0	1727004672	50	6324
2026-01-20 21:09:03.51	339.76	9.54	-39.0	-40.1	22.2	0.00e+00	122	43	0	1730150400	50	6286
2026-01-20 21:09:04.52	339.63	9.49	-39.2	-40.3	22.0	0.00e+00	120	43	0	1733296128	50	6455
2026-01-20 21:09:05.53	339.50	9.43	-39.2	-40.3	21.9	0.00e+00	122	43	0	1736441856	50	6475
2026-01-20 21:09:06.54	339.37	9.37	-39.3	-40.4	21.8	0.00e+00	120	43	0	1739587584	50	6557
2026-01-20 21:09:07.55	339.24	9.31	-39.2	-40.2	22.0	0.00e+00	122	43	0	1742733312	50	6391
2026-01-20 21:09:08.56	339.11	9.25	-39.3	-40.4	21.7	0.00e+00	121	43	0	1745879040	50	6546
2026-01-20 21:09:09.57	338.98	9.20	-39.1	-40.1	22.0	0.00e+00	123	43	0	1749024768	50	6337
2026-01-20 21:09:10.58	338.86	9.14	-39.6	-40.6	21.5	0.00e+00	121	43	0	1752170496	50	6723
2026-01-20 21:09:11.59	338.73	9.08	-39.0	-40.1	21.9	0.00e+00	122	43	0	1755316224	50	6281
2026-01-20 21:09:12.60	338.60	9.02	-39.1	-40.1	21.9	0.00e+00	123	43	0	1758461952	50	6350
2026-01-20 21:09:13.61	338.48	8.96	-39.3	-40.4	21.7	0.00e+00	120	43	0	1761607680	50	6513
2026-01-20 21:09:14.62	338.35	8.91	-39.4	-40.4	21.7	0.00e+00	122	43	0	1764753408	50	6554
2026-01-20 21:09:15.63	338.23	8.85	-39.4	-40.4	21.8	0.00e+00	120	43	0	1767899136	50	6563
2026-01-20 21:09:16.64	338.10	8.79	-39.3	-40.4	21.8	0.00e+00	123	43	0	1771044864	50	6513
2026-01-20 21:09:17.65	337.98	8.73	-39.3	-40.3	22.0	0.00e+00	121	43	0	1774190592	50	6461
2026-01-20 21:09:18.66	337.86	8.67	-39.5	-40.6	21.7	0.00e+00	123	43	0	1777336320	50	6656
2026-01-20 21:09:19.67	337.74	8.62	-39.6	-40.7	21.7	0.00e+00	122	43	0	1780482048	52	6002
2026-01-20 21:09:20.68	337.61	8.56	-39.4	-40.5	21.7	0.00e+00	122	43	0	1783627776	52	5904
2026-01-20 21:09:21.69	337.49	8.50	-39.5	-40.6	21.7	0.00e+00	123	43	0	1786773504	52	5927
2026-01-20 21:09:22.70	337.37	8.44	-39.8	-40.8	21.5	0.00e+00	120	43	0	1789919232	52	6126
2026-01-20 21:09:23.71	337.25	8.38	-39.6	-40.7	21.6	0.00e+00	123	43	0	1793064960	52	6006
2026-01-20 21:09:24.72	337.13	8.32	-39.7	-40.8	21.3	0.00e+00	122	43	0	1796210688	52	6072
2026-01-20 21:09:25.73	337.01	8.27	-39.7	-40.8	21.4	0.00e+00	122	43	0	1799356416	52	6111
2026-01-20 21:09:26.75	336.89	8.21	-39.9	-40.9	21.3	0.00e+00	122	43	0	1802502144	52	6193
2026-01-20 21:09:27.76	336.77	8.15	-39.7	-40.8	21.4	0.00e+00	120	43	0	1805647872	52	6085
2026-01-20 21:09:28.76	336.65	8.09	-39.3	-40.4	21.6	0.00e+00	123	43	0	1808793600	52	5845
2026-01-20 21:09:29.78	336.53	8.03	-39.5	-40.6	21.6	0.00e+00	123	43	0	1811939328	52	5952
2026-01-20 21:09:30.78	336.42	7.98	-39.4	-40.4	21.7	0.00e+00	123	43	0	1815085056	52	5839
2026-01-20 21:09:31.79	336.30	7.92	-39.4	-40.5	21.6	0.00e+00	123	43	0	1818230784	52	5884
2026-01-20 21:09:32.81	336.18	7.86	-39.5	-40.6	21.5	0.00e+00	121	43	0	1821376512	52	5964
2026-01-20 21:09:33.82	336.07	7.80	-39.2	-40.2	21.8	0.00e+00	123	43	0	1824522240	52	5696
2026-01-20 21:09:34.83	335.95	7.74	-39.3	-40.3	21.7	0.00e+00	120	43	0	1827667968	52	5772
2026-01-20 21:09:35.83	335.84	7.69	-39.5	-40.6	21.4	0.00e+00	123	43	0	1830813696	52	5942
2026-01-20 21:09:36.84	335.73	7.63	-39.7	-40.8	21.2	0.00e+00	122	43	0	1833959424	52	6078
2026-01-20 21:09:37.85	335.61	7.57	-39.8	-40.9	21.2	0.00e+00	122	43	0	1837105152	52	6188
2026-01-20 21:09:38.86	335.50	7.51	-40.0	-41.2	20.9	0.00e+00	122	43	0	1840250880	52	6362
2026-01-20 21:09:39.87	335.38	7.46	-39.5	-40.6	21.4	0.00e+00	123	43	0	1843396608	52	5968
2026-01-20 21:09:40.88	335.27	7.40	-39.5	-40.6	21.3	0.00e+00	120	43	0	1846542336	52	5974
2026-01-20 21:09:41.89	335.16	7.34	-40.1	-41.2	20.7	0.00e+00	123	43	0	1849688064	52	6412
2026-01-20 21:09:42.90	335.05	7.28	-40.0	-41.1	20.9	0.00e+00	123	43	0	1852833792	52	6324
2026-01-20 21:09:43.91	334.94	7.23	-40.1	-41.2	20.8	0.00e+00	123	43	0	1855979520	52	6383
2026-01-20 21:09:44.92	334.83	7.17	-39.7	-40.8	21.1	0.00e+00	122	43	0	1859125248	52	6092
2026-01-20 21:09:45.94	334.71	7.11	-39.5	-40.6	21.4	0.00e+00	122	43	0	1862270976	52	5971
2026-01-20 21:09:46.95	334.61	7.05	-39.3	-40.4	21.4	0.00e+00	122	43	0	1865416704	52	5832
2026-01-20 21:09:47.96	334.50	6.99	-39.5	-40.6	21.3	0.00e+00	122	43	0	1868562432	52	5937
2026-01-20 21:09:48.96	334.39	6.94	-39.2	-40.3	21.6	0.00e+00	123	43	0	1871708160	52	5732
2026-01-20 21:09:49.98	334.28	6.88	-39.3	-40.3	21.5	0.00e+00	123	43	0	1874853888	52	5791
2026-01-20 21:09:50.99	334.17	6.82	-39.2	-40.3	21.5	0.00e+00	123	43	0	1877999616	52	5752
2026-01-20 21:09:52.00	334.06	6.76	-39.1	-40.2	21.7	0.00e+00	123	43	0	1881145344	52	5683
2026-01-20 21:09:53.01	333.96	6.71	-39.3	-40.3	21.4	0.00e+00	123	43	0	1884291072	52	5789
2026-01-20 21:09:54.02	333.85	6.65	-39.4	-40.5	21.5	0.00e+00	122	43	0	1887436800	52	5895
2026-01-20 21:09:55.02	333.74	6.59	-39.5	-40.6	21.2	0.00e+00	123	43	0	1890582528	52	5984
2026-01-20 21:09:56.03	333.64	6.54	-39.5	-40.6	21.2	0.00e+00	123	43	0	1893728256	52	5934
2026-01-20 21:09:57.04	333.53	6.48	-39.7	-40.9	21.2	0.00e+00	122	43	0	1896873984	52	6136
2026-01-20 21:09:58.06	333.43	6.42	-40.2	-41.4	20.5	0.00e+00	123	43	0	1900019712	52	6527
2026-01-20 21:09:59.07	333.32	6.36	-40.2	-41.4	20.5	0.00e+00	123	43	0	1903165440	52	6559
2026-01-20 21:10:00.08	333.22	6.31	-40.4	-41.6	20.3	0.00e+00	123	43	0	1906311168	52	6686
2026-01-20 21:10:01.09	333.11	6.25	-40.4	-41.5	20.3	0.00e+00	120	43	0	1909456896	52	6649
2026-01-20 21:10:02.10	333.01	6.19	-40.6	-41.8	20.2	0.00e+00	123	43	0	1912602624	52	6822
2026-01-20 21:10:03.11	332.91	6.14	-40.6	-41.8	20.1	0.00e+00	122	43	0	1915748352	52	6857
2026-01-20 21:10:04.12	332.80	6.08	-40.4	-41.6	19.9	0.00e+00	123	43	0	1918894080	52	6721
2026-01-20 21:10:05.13	332.70	6.02	-40.3	-41.5	20.3	0.00e+00	123	43	0	1922039808	52	6580
2026-01-20 21:10:06.13	332.60	5.97	-40.4	-41.7	20.1	0.00e+00	120	43	0	1925185536	52	6730
2026-01-20 21:10:07.15	332.50	5.91	-40.7	-42.0	19.9	0.00e+00	120	43	0	1928331264	52	6963
2026-01-20 21:10:08.16	332.40	5.85	-40.1	-41.3	20.5	0.00e+00	122	43	0	1931476992	52	6460
2026-01-20 21:10:09.17	332.30	5.79	-40.0	-41.2	20.6	0.00e+00	123	43	0	1934622720	52	6365
2026-01-20 21:10:10.18	332.20	5.74	-39.9	-41.1	20.6	0.00e+00	123	43	0	1937768448	52	6287
2026-01-20 21:10:11.19	332.10	5.68	-40.0	-41.1	20.6	0.00e+00	123	43	0	1940914176	52	6343
2026-01-20 21:10:12.19	332.00	5.62	-39.8	-40.9	20.9	0.00e+00	120	43	0	1944059904	52	6192
2026-01-20 21:10:13.20	331.90	5.57	-40.0	-41.1	20.6	0.00e+00	122	43	0	1947205632	52	6328
2026-01-20 21:10:14.21	331.80	5.51	-40.2	-41.4	20.5	0.00e+00	123	43	0	1950351360	52	6510
