passes_logs/2026/01/20/R4.6S_Anadyr/R4.6S_Anadyr__20260120_215407_TY-42_rec.log

#Pass ID: 20260120_215407_TY-42
#Satellite: TY-42
#Configuration: TY-42_900M
#almurnet v.1.7.20251203
#Start time: 2026-01-20 21:54:40

#Version: 2.2.20231116
#Station: R4.6S_Anadyr
#Location: 177.4865 lon 64.73178 lat
#TLE: 1 64048U 25103A   26020.70454861  .00008012  00000-0  38191-3 0 09994
#TLE: 2 64048 097.4120 096.0146 0001696 091.1097 307.5247 15.19178485 37683

#Time	Az	El	Level	Level2	SNR	BER	BlckErr	Temp	State	Recorded	gain1	gain2
2026-01-20 21:54:40.88	24.96	1.87	-51.4	-66.3	3.5	1.51e+00	0	39	0	0	60	74392
2026-01-20 21:54:41.88	25.06	1.93	-49.8	-52.3	6.1	0.00e+00	0	41	104	0	60	50487
2026-01-20 21:54:42.89	25.15	1.99	-49.8	-52.3	6.1	0.00e+00	0	41	104	0	60	50338
2026-01-20 21:54:43.90	25.25	2.05	-49.8	-52.3	6.1	0.00e+00	0	41	104	0	60	50585
2026-01-20 21:54:44.91	25.35	2.11	-49.8	-52.3	6.1	0.00e+00	0	41	104	0	60	50559
2026-01-20 21:54:45.92	25.45	2.17	-49.8	-52.3	6.1	0.00e+00	0	41	104	0	60	50470
2026-01-20 21:54:46.93	25.55	2.23	-49.8	-52.3	6.1	0.00e+00	0	41	104	0	60	50370
2026-01-20 21:54:47.94	25.65	2.29	-49.8	-52.3	6.1	0.00e+00	0	41	104	0	60	50496
2026-01-20 21:54:48.95	25.75	2.35	-49.8	-52.3	6.1	0.00e+00	0	41	104	0	60	50411
2026-01-20 21:54:49.96	25.85	2.41	-49.8	-52.4	6.1	0.00e+00	0	41	104	0	60	50785
2026-01-20 21:54:50.97	25.95	2.47	-49.8	-52.3	6.1	0.00e+00	0	41	104	0	60	50709
2026-01-20 21:54:51.98	26.05	2.53	-49.8	-52.3	6.1	0.00e+00	0	41	104	0	60	50271
2026-01-20 21:54:52.99	26.15	2.59	-49.8	-52.3	6.1	0.00e+00	0	41	104	0	60	50559
2026-01-20 21:54:54.00	26.25	2.65	-49.8	-52.3	6.1	0.00e+00	0	41	104	0	60	50644
2026-01-20 21:54:55.01	26.36	2.71	-49.8	-52.3	6.1	0.00e+00	0	41	104	0	60	50492
2026-01-20 21:54:56.02	26.46	2.77	-49.8	-52.3	6.1	0.00e+00	0	41	104	0	60	50258
2026-01-20 21:54:57.03	26.56	2.83	-49.8	-52.3	6.1	0.00e+00	0	41	104	0	60	50697
2026-01-20 21:54:58.04	26.67	2.89	-49.8	-52.3	6.1	0.00e+00	0	41	104	0	60	50673
2026-01-20 21:54:59.05	26.77	2.95	-49.8	-52.3	6.1	0.00e+00	0	42	104	0	60	50662
2026-01-20 21:55:00.06	26.88	3.01	-49.8	-52.3	6.1	0.00e+00	0	41	104	0	60	50627
2026-01-20 21:55:01.07	26.99	3.07	-49.8	-52.3	6.1	0.00e+00	0	42	104	0	60	50498
2026-01-20 21:55:02.08	27.09	3.14	-49.8	-52.3	6.1	0.00e+00	0	42	104	0	60	50445
2026-01-20 21:55:03.09	27.20	3.20	-49.8	-52.3	6.1	0.00e+00	0	42	104	0	60	50655
2026-01-20 21:55:04.10	27.31	3.26	-49.8	-52.3	6.1	0.00e+00	0	42	104	0	60	50573
2026-01-20 21:55:05.11	27.42	3.32	-49.8	-52.3	6.1	0.00e+00	0	42	104	0	60	50467
2026-01-20 21:55:06.12	27.52	3.38	-49.8	-52.3	6.1	0.00e+00	0	42	104	0	60	50366
2026-01-20 21:55:07.13	27.63	3.44	-49.8	-52.3	6.1	0.00e+00	0	42	104	0	60	50400
2026-01-20 21:55:08.14	27.74	3.51	-49.8	-52.3	6.1	0.00e+00	0	42	104	0	60	50242
2026-01-20 21:55:09.15	27.85	3.57	-49.8	-52.3	6.1	0.00e+00	0	42	104	0	60	50420
2026-01-20 21:55:10.16	27.97	3.63	-49.7	-52.2	6.1	0.00e+00	0	42	104	0	60	50046
2026-01-20 21:55:11.17	28.08	3.69	-50.0	-52.5	6.1	0.00e+00	0	42	104	0	60	51832
2026-01-20 21:55:12.18	28.19	3.76	-50.0	-52.5	6.1	0.00e+00	0	42	104	0	60	51559
2026-01-20 21:55:13.19	28.30	3.82	-49.9	-52.4	6.1	0.00e+00	0	42	104	0	60	50933
2026-01-20 21:55:14.19	28.42	3.88	-49.7	-52.2	6.1	0.00e+00	0	42	104	0	60	49663
2026-01-20 21:55:15.20	28.53	3.94	-50.1	-52.6	6.1	0.00e+00	0	42	104	0	60	52261
2026-01-20 21:55:16.21	28.64	4.01	-50.0	-52.5	6.1	0.00e+00	0	42	104	0	60	51760
2026-01-20 21:55:17.22	28.76	4.07	-50.0	-52.5	6.1	0.00e+00	0	42	104	0	60	51640
2026-01-20 21:55:18.23	28.87	4.13	-49.9	-52.3	6.1	0.00e+00	0	42	104	0	60	50377
2026-01-20 21:55:19.24	28.99	4.20	-50.1	-52.5	6.1	0.00e+00	0	42	104	0	60	51763
2026-01-20 21:55:20.25	29.11	4.26	-50.1	-52.5	6.1	0.00e+00	0	42	104	0	60	51795
2026-01-20 21:55:21.26	29.23	4.32	-50.1	-52.5	6.1	0.00e+00	0	42	104	0	60	51912
2026-01-20 21:55:22.27	29.34	4.39	-49.9	-52.4	6.1	0.00e+00	0	42	104	0	60	50921
2026-01-20 21:55:23.28	29.46	4.45	-50.0	-52.5	6.1	0.00e+00	0	42	104	0	60	51420
2026-01-20 21:55:24.29	29.58	4.51	-50.1	-52.6	6.1	0.00e+00	0	42	104	0	60	52380
2026-01-20 21:55:25.30	29.70	4.58	-50.0	-52.5	6.1	0.00e+00	0	42	104	0	60	51650
2026-01-20 21:55:26.31	29.82	4.64	-50.0	-52.4	6.1	0.00e+00	0	42	104	0	60	51264
2026-01-20 21:55:27.32	29.95	4.71	-50.2	-52.7	6.1	0.00e+00	0	42	104	0	60	52611
2026-01-20 21:55:28.33	30.07	4.77	-50.2	-52.7	6.1	0.00e+00	0	42	104	0	60	52619
2026-01-20 21:55:29.34	30.19	4.84	-50.2	-52.6	6.1	0.00e+00	0	42	104	0	60	52295
2026-01-20 21:55:30.35	30.31	4.90	-50.1	-52.5	6.1	0.00e+00	0	42	104	0	60	51859
2026-01-20 21:55:31.36	30.44	4.97	-50.3	-52.7	6.1	0.00e+00	0	42	104	0	60	53133
2026-01-20 21:55:32.37	30.56	5.03	-50.2	-52.6	6.1	0.00e+00	0	42	104	0	60	52192
2026-01-20 21:55:33.38	30.69	5.10	-50.2	-52.7	6.1	0.00e+00	0	42	104	0	60	52556
2026-01-20 21:55:34.39	30.81	5.16	-50.0	-52.5	6.1	0.00e+00	0	42	104	0	60	51820
2026-01-20 21:55:35.40	30.94	5.23	-50.2	-52.7	6.1	0.00e+00	0	42	104	0	60	52969
2026-01-20 21:55:36.41	31.07	5.29	-50.1	-52.6	6.1	0.00e+00	0	42	104	0	60	52484
2026-01-20 21:55:37.42	31.20	5.36	-50.2	-52.6	6.1	0.00e+00	0	42	104	0	60	52518
2026-01-20 21:55:38.43	31.33	5.42	-50.0	-52.5	6.1	0.00e+00	0	42	104	0	60	51578
2026-01-20 21:55:39.44	31.46	5.49	-50.2	-52.7	6.1	0.00e+00	0	42	104	0	60	52681
2026-01-20 21:55:40.45	31.59	5.55	-50.2	-52.6	6.1	0.00e+00	0	42	104	0	60	52393
2026-01-20 21:55:41.46	31.72	5.62	-50.2	-52.6	6.1	0.00e+00	0	42	104	0	60	52322
2026-01-20 21:55:42.47	31.85	5.69	-50.2	-52.7	6.1	0.00e+00	0	42	104	0	60	52663
2026-01-20 21:55:43.48	31.98	5.75	-50.2	-52.6	6.1	0.00e+00	0	42	104	0	60	52372
2026-01-20 21:55:44.49	32.11	5.82	-40.9	-41.2	10.0	0.00e+00	5513	42	0	41943040	56	17785
2026-01-20 21:55:45.50	32.25	5.88	-49.2	-51.2	6.2	0.00e+00	0	42	104	58720256	60	44292
2026-01-20 21:55:46.51	32.38	5.95	-40.2	-40.6	9.9	0.00e+00	0	42	104	58720256	56	16529
2026-01-20 21:55:47.52	32.52	6.02	-37.0	-37.4	13.0	8.57e-02	0	43	0	83886080	50	16111
2026-01-20 21:55:48.53	32.65	6.08	-34.6	-35.0	14.3	8.57e-02	0	43	0	201326592	46	15415
2026-01-20 21:55:49.54	32.79	6.15	-32.3	-32.8	15.3	4.71e-02	0	43	0	318767104	40	16878
2026-01-20 21:55:50.55	32.93	6.22	-31.9	-32.3	15.5	4.71e-02	0	43	0	427819008	40	15961
2026-01-20 21:55:51.56	33.07	6.29	-31.0	-31.5	15.8	3.90e-03	0	43	0	545259520	38	16264
2026-01-20 21:55:52.57	33.21	6.35	-31.3	-31.8	15.8	1.69e-03	0	43	0	654311424	38	16899
2026-01-20 21:55:53.58	33.35	6.42	-30.8	-31.3	15.9	1.69e-03	0	43	0	763363328	38	15942
2026-01-20 21:55:54.59	33.49	6.49	-30.3	-30.7	16.1	1.23e-03	0	43	0	880803840	36	16756
2026-01-20 21:55:55.60	33.63	6.55	-30.1	-30.6	16.1	1.23e-03	0	43	0	998244352	36	16556
2026-01-20 21:55:56.61	33.77	6.62	-30.1	-30.6	16.1	4.74e-04	0	43	0	1107296256	36	16491
2026-01-20 21:55:57.62	33.92	6.69	-30.3	-30.7	16.0	4.74e-04	0	43	0	1224736768	36	16764
2026-01-20 21:55:58.63	34.06	6.76	-30.0	-30.4	16.2	5.18e-04	0	43	0	1333788672	36	16145
2026-01-20 21:55:59.64	34.20	6.83	-29.9	-30.4	16.2	5.18e-04	0	43	0	1451229184	36	16121
2026-01-20 21:56:00.65	34.35	6.89	-29.6	-30.1	16.3	3.49e-04	0	43	0	1568669696	34	17411
2026-01-20 21:56:01.66	34.50	6.96	-29.5	-29.9	16.4	3.49e-04	0	43	0	1677721600	34	17192
2026-01-20 21:56:02.67	34.64	7.03	-30.0	-30.4	16.2	3.05e-04	0	43	0	1786773504	34	18209
2026-01-20 21:56:03.68	34.79	7.10	-30.0	-30.4	16.2	3.05e-04	0	43	0	1904214016	34	18164
2026-01-20 21:56:04.69	34.94	7.17	-29.5	-29.9	16.3	2.89e-04	0	43	0	2013265920	34	17191
2026-01-20 21:56:05.70	35.09	7.24	-29.4	-29.9	16.3	2.89e-04	0	43	0	2130706432	34	17089
2026-01-20 21:56:06.71	35.24	7.30	-29.6	-30.1	16.3	1.80e-04	0	43	0	2248146944	34	17434
2026-01-20 21:56:07.72	35.39	7.37	-29.1	-29.6	16.4	2.23e-04	0	43	0	2357198848	34	16476
2026-01-20 21:56:08.73	35.55	7.44	-29.6	-30.0	16.3	2.23e-04	0	43	0	2474639360	34	17397
2026-01-20 21:56:09.74	35.70	7.51	-29.4	-29.8	16.4	1.69e-04	0	43	0	2592079872	34	16968
2026-01-20 21:56:10.75	35.85	7.58	-29.4	-29.9	16.4	1.69e-04	0	43	0	2701131776	34	17137
2026-01-20 21:56:11.76	36.01	7.65	-29.6	-30.1	16.3	1.74e-04	0	43	0	2810183680	34	17574
2026-01-20 21:56:12.77	36.16	7.72	-29.4	-29.9	16.3	1.74e-04	0	43	0	2927624192	34	17118
2026-01-20 21:56:13.78	36.32	7.79	-29.2	-29.8	16.4	1.47e-04	0	43	0	3036676096	34	16812
2026-01-20 21:56:14.79	36.48	7.86	-29.5	-30.0	16.4	1.47e-04	0	43	0	3154116608	34	17248
2026-01-20 21:56:15.80	36.64	7.93	-29.1	-29.6	16.5	9.26e-05	0	43	0	3271557120	34	16488
2026-01-20 21:56:16.81	36.80	8.00	-29.2	-29.7	16.5	9.26e-05	0	43	0	3380609024	34	16633
2026-01-20 21:56:17.82	36.96	8.07	-29.2	-29.7	16.4	1.20e-04	0	43	0	3498049536	34	16734
2026-01-20 21:56:18.83	37.12	8.14	-29.3	-29.7	16.4	1.36e-04	0	43	0	3607101440	34	16800
2026-01-20 21:56:19.84	37.28	8.21	-29.4	-29.9	16.4	1.36e-04	0	43	0	3724541952	34	17099
2026-01-20 21:56:20.85	37.44	8.28	-28.9	-29.4	16.6	1.52e-04	0	43	0	3833593856	34	16111
2026-01-20 21:56:21.86	37.61	8.35	-29.1	-29.5	16.5	1.52e-04	0	43	0	3951034368	34	16427
2026-01-20 21:56:22.87	37.77	8.42	-29.2	-29.6	16.5	1.20e-04	0	43	0	4060086272	34	16583
2026-01-20 21:56:23.88	37.94	8.49	-29.3	-29.8	16.3	1.20e-04	0	43	0	4177526784	34	16854
2026-01-20 21:56:24.90	38.11	8.56	-29.2	-29.6	16.3	2.02e-04	0	43	0	4294967296	34	16591
2026-01-20 21:56:25.90	38.27	8.63	-28.8	-29.3	16.4	2.02e-04	0	43	0	4404019200	34	15932
2026-01-20 21:56:26.92	38.45	8.70	-28.8	-29.3	16.5	2.12e-04	0	44	0	4521459712	32	17850
2026-01-20 21:56:27.93	38.62	8.77	-28.8	-29.2	16.6	2.12e-04	0	44	0	4630511616	32	17805
2026-01-20 21:56:28.94	38.79	8.84	-28.8	-29.3	16.6	9.80e-05	0	43	0	4739563520	32	17946
2026-01-20 21:56:29.95	38.96	8.91	-28.6	-29.1	16.7	9.80e-05	0	44	0	4865392640	32	17500
2026-01-20 21:56:30.96	39.13	8.98	-28.5	-29.0	16.7	7.62e-05	0	44	0	4974444544	32	17369
2026-01-20 21:56:31.97	39.31	9.05	-28.7	-29.2	16.6	7.62e-05	0	44	0	5083496448	32	17796
2026-01-20 21:56:32.98	39.48	9.12	-28.5	-29.0	16.7	2.72e-05	0	44	0	5200936960	32	17358
2026-01-20 21:56:33.99	39.66	9.19	-28.4	-28.9	16.8	2.72e-05	0	43	0	5318377472	32	17069
2026-01-20 21:56:35.00	39.83	9.27	-28.4	-28.8	16.8	2.72e-05	0	44	0	5427429376	32	17002
2026-01-20 21:56:36.01	40.01	9.34	-28.5	-29.0	16.7	2.17e-05	0	44	0	5544869888	32	17323
2026-01-20 21:56:37.02	40.19	9.41	-28.6	-29.1	16.7	3.26e-05	0	44	0	5653921792	32	17581
2026-01-20 21:56:38.03	40.37	9.48	-28.6	-29.1	16.7	3.26e-05	0	44	0	5762973696	32	17514
2026-01-20 21:56:39.04	40.55	9.55	-28.3	-28.9	16.8	2.72e-05	0	44	0	5888802816	32	17013
2026-01-20 21:56:40.05	40.73	9.62	-28.2	-28.7	16.8	2.72e-05	0	44	0	5997854720	32	16776
2026-01-20 21:56:41.06	40.92	9.69	-28.1	-28.6	16.8	2.17e-05	0	44	0	6106906624	32	16552
2026-01-20 21:56:42.07	41.10	9.77	-28.4	-28.9	16.7	2.17e-05	0	44	0	6224347136	32	17007
2026-01-20 21:56:43.08	41.29	9.84	-28.2	-28.7	16.8	2.17e-05	0	44	0	6333399040	32	16732
2026-01-20 21:56:44.09	41.47	9.91	-28.4	-28.9	16.7	2.17e-05	0	44	0	6450839552	32	17180
2026-01-20 21:56:45.10	41.66	9.98	-28.1	-28.6	16.9	3.81e-05	0	44	0	6568280064	32	16571
2026-01-20 21:56:46.11	41.85	10.05	-28.3	-28.7	16.8	2.72e-05	0	44	0	6677331968	32	16787
2026-01-20 21:56:47.12	42.04	10.12	-28.3	-28.8	16.8	2.72e-05	0	44	0	6794772480	32	16828
2026-01-20 21:56:48.13	42.23	10.20	-28.0	-28.5	16.9	2.17e-05	0	44	0	6903824384	32	16276
2026-01-20 21:56:49.14	42.42	10.27	-27.9	-28.4	16.9	2.17e-05	0	44	0	7021264896	32	16180
2026-01-20 21:56:50.15	42.62	10.34	-27.9	-28.3	17.0	5.40e-06	0	44	0	7130316800	32	16052
2026-01-20 21:56:51.16	42.81	10.41	-28.0	-28.5	17.0	5.40e-06	0	44	0	7247757312	30	18241
2026-01-20 21:56:52.17	43.01	10.48	-28.0	-28.5	16.9	0.00e+00	0	44	0	7356809216	30	18314
2026-01-20 21:56:53.18	43.21	10.56	-27.9	-28.4	16.9	0.00e+00	0	44	0	7474249728	30	18102
2026-01-20 21:56:54.19	43.40	10.63	-27.9	-28.4	17.0	1.08e-05	0	44	0	7591690240	30	18180
2026-01-20 21:56:55.20	43.60	10.70	-27.7	-28.3	17.0	1.08e-05	0	44	0	7700742144	30	17807
2026-01-20 21:56:56.21	43.80	10.77	-27.7	-28.2	17.0	5.40e-06	0	44	0	7818182656	30	17780
2026-01-20 21:56:57.22	44.00	10.84	-27.7	-28.2	16.9	5.40e-06	0	44	0	7927234560	30	17700
2026-01-20 21:56:58.23	44.21	10.92	-27.7	-28.2	16.8	5.40e-06	0	44	0	8036286464	30	17699
2026-01-20 21:56:59.24	44.41	10.99	-27.8	-28.3	16.7	1.08e-05	0	44	0	8153726976	30	17906
2026-01-20 21:57:00.25	44.62	11.06	-27.6	-28.1	16.7	1.08e-05	0	44	0	8271167488	30	17530
2026-01-20 21:57:01.26	44.82	11.13	-27.6	-28.1	16.7	3.26e-05	0	44	0	8380219392	30	17547
2026-01-20 21:57:02.27	45.03	11.20	-27.5	-28.0	16.7	3.26e-05	0	44	0	8497659904	30	17316
2026-01-20 21:57:03.28	45.24	11.28	-27.4	-27.9	16.9	1.63e-05	0	44	0	8606711808	30	17063
2026-01-20 21:57:04.29	45.45	11.35	-27.4	-28.0	17.0	1.63e-05	0	44	0	8724152320	30	17202
2026-01-20 21:57:05.30	45.66	11.42	-27.4	-27.9	17.0	1.08e-05	0	44	0	8841592832	30	17140
2026-01-20 21:57:06.31	45.87	11.49	-27.5	-28.0	17.1	1.08e-05	0	44	0	8950644736	30	17284
2026-01-20 21:57:07.32	46.08	11.56	-27.5	-28.0	17.0	5.40e-06	0	44	0	9059696640	30	17370
2026-01-20 21:57:08.33	46.30	11.63	-27.2	-27.8	17.1	5.40e-06	0	44	0	9177137152	30	16817
2026-01-20 21:57:09.34	46.51	11.71	-27.3	-27.8	17.0	0.00e+00	0	44	0	9294577664	30	16885
2026-01-20 21:57:10.35	46.73	11.78	-27.3	-27.8	17.0	0.00e+00	0	44	0	9403629568	30	16922
2026-01-20 21:57:11.36	46.95	11.85	-27.5	-28.0	17.0	0.00e+00	0	44	0	9521070080	30	17233
2026-01-20 21:57:12.37	47.17	11.92	-27.3	-27.8	17.0	1.08e-05	0	44	0	9630121984	30	16976
2026-01-20 21:57:13.38	47.39	11.99	-27.3	-27.8	17.0	1.08e-05	0	44	0	9747562496	30	16936
2026-01-20 21:57:14.39	47.61	12.07	-27.4	-28.0	17.0	0.00e+00	0	44	0	9865003008	30	17227
2026-01-20 21:57:15.40	47.84	12.14	-27.3	-27.8	17.1	0.00e+00	0	44	0	9974054912	30	16971
2026-01-20 21:57:16.41	48.06	12.21	-27.4	-27.9	16.9	5.40e-06	0	44	0	10083106816	30	17196
2026-01-20 21:57:17.42	48.29	12.28	-27.2	-27.7	16.9	5.40e-06	0	44	0	10200547328	30	16655
2026-01-20 21:57:18.43	48.52	12.35	-27.1	-27.6	16.9	1.08e-05	0	44	0	10309599232	30	16496
2026-01-20 21:57:19.43	48.74	12.42	-27.1	-27.6	16.7	1.08e-05	0	44	0	10427039744	30	16523
2026-01-20 21:57:20.43	48.97	12.49	-27.1	-27.6	16.7	2.17e-05	0	44	0	10536091648	30	16555
2026-01-20 21:57:21.45	49.20	12.56	-27.1	-27.6	16.8	2.17e-05	0	44	0	10653532160	30	16558
2026-01-20 21:57:22.46	49.44	12.63	-27.2	-27.7	16.9	1.63e-05	0	44	0	10770972672	30	16757
2026-01-20 21:57:23.47	49.67	12.71	-27.1	-27.6	17.0	1.63e-05	0	44	0	10880024576	30	16507
2026-01-20 21:57:24.48	49.91	12.78	-26.9	-27.5	17.0	0.00e+00	0	44	0	10989076480	30	16258
2026-01-20 21:57:25.49	50.14	12.85	-26.9	-27.4	17.0	0.00e+00	0	44	0	11114905600	30	16212
2026-01-20 21:57:26.50	50.38	12.92	-26.9	-27.4	17.0	0.00e+00	0	44	0	11223957504	30	16159
2026-01-20 21:57:27.51	50.62	12.99	-27.1	-27.6	17.0	0.00e+00	0	44	0	11333009408	30	16609
2026-01-20 21:57:28.52	50.86	13.06	-27.2	-27.7	17.0	0.00e+00	0	44	0	11450449920	30	16699
2026-01-20 21:57:29.53	51.10	13.13	-27.2	-27.7	17.0	5.40e-06	0	44	0	11559501824	30	16788
2026-01-20 21:57:30.54	51.35	13.20	-27.2	-27.8	17.0	5.40e-06	0	44	0	11676942336	30	16861
2026-01-20 21:57:31.55	51.59	13.27	-26.9	-27.5	17.0	0.00e+00	0	44	0	11794382848	30	16246
2026-01-20 21:57:32.56	51.84	13.34	-27.1	-27.6	16.9	0.00e+00	0	44	0	11903434752	30	16498
2026-01-20 21:57:33.57	52.08	13.41	-26.8	-27.3	16.9	0.00e+00	0	44	0	12012486656	30	15979
2026-01-20 21:57:34.58	52.33	13.48	-26.9	-27.4	16.9	5.40e-06	0	44	0	12129927168	30	16191
2026-01-20 21:57:35.59	52.58	13.54	-26.8	-27.3	17.0	5.40e-06	0	44	0	12238979072	30	15966
2026-01-20 21:57:36.59	52.83	13.61	-26.7	-27.3	17.0	5.40e-06	0	44	0	12356419584	28	17824
2026-01-20 21:57:37.61	53.09	13.68	-26.7	-27.2	17.0	5.40e-06	0	44	0	12473860096	28	17786
2026-01-20 21:57:38.62	53.34	13.75	-26.7	-27.2	16.9	0.00e+00	0	44	0	12582912000	28	17794
2026-01-20 21:57:39.63	53.60	13.82	-26.7	-27.2	16.9	0.00e+00	0	44	0	12700352512	28	17735
2026-01-20 21:57:40.63	53.85	13.89	-26.8	-27.3	16.9	0.00e+00	0	44	0	12809404416	28	17989
2026-01-20 21:57:41.64	54.11	13.95	-26.7	-27.2	16.9	0.00e+00	0	44	0	12926844928	28	17686
2026-01-20 21:57:42.65	54.37	14.02	-26.7	-27.2	17.0	0.00e+00	0	44	0	13044285440	28	17693
2026-01-20 21:57:43.66	54.63	14.09	-26.6	-27.1	17.0	0.00e+00	0	44	0	13153337344	28	17544
2026-01-20 21:57:44.67	54.89	14.16	-26.7	-27.2	17.0	0.00e+00	0	44	0	13262389248	28	17659
2026-01-20 21:57:45.68	55.16	14.22	-26.6	-27.1	16.9	1.63e-05	0	44	0	13379829760	28	17456
2026-01-20 21:57:46.69	55.42	14.29	-26.5	-27.1	16.9	1.63e-05	0	44	0	13497270272	28	17437
2026-01-20 21:57:47.70	55.69	14.36	-26.6	-27.1	17.0	5.40e-06	0	44	0	13606322176	28	17529
2026-01-20 21:57:48.71	55.96	14.42	-26.6	-27.2	17.0	0.00e+00	0	44	0	13723762688	28	17633
2026-01-20 21:57:49.72	56.23	14.49	-26.6	-27.2	17.0	0.00e+00	0	44	0	13832814592	28	17607
2026-01-20 21:57:50.73	56.50	14.55	-26.6	-27.1	17.0	5.40e-06	0	44	0	13941866496	28	17521
2026-01-20 21:57:51.74	56.77	14.62	-26.5	-27.0	17.0	5.40e-06	0	44	0	14067695616	28	17375
2026-01-20 21:57:52.75	57.04	14.68	-26.4	-26.9	17.0	5.40e-06	0	45	0	14176747520	28	17184
2026-01-20 21:57:53.76	57.32	14.75	-26.4	-26.9	17.1	5.40e-06	0	44	0	14285799424	28	17115
2026-01-20 21:57:54.78	57.60	14.81	-26.4	-27.0	16.9	0.00e+00	0	45	0	14403239936	28	17207
2026-01-20 21:57:55.78	57.87	14.88	-26.4	-26.9	16.9	0.00e+00	0	44	0	14512291840	28	17104
2026-01-20 21:57:56.79	58.15	14.94	-26.4	-26.9	16.8	5.40e-06	0	45	0	14629732352	28	17194
2026-01-20 21:57:57.80	58.43	15.00	-26.3	-26.8	16.8	5.40e-06	0	45	0	14747172864	28	16918
2026-01-20 21:57:58.81	58.72	15.07	-26.3	-26.8	16.9	5.40e-06	0	45	0	14856224768	28	16877
2026-01-20 21:57:59.83	59.00	15.13	-26.4	-26.9	16.9	5.40e-06	0	45	0	14973665280	28	17029
2026-01-20 21:58:00.84	59.29	15.19	-26.5	-26.9	16.6	5.40e-06	0	45	0	15082717184	28	17190
2026-01-20 21:58:01.85	59.57	15.25	-26.2	-26.7	16.5	5.40e-06	0	44	0	15200157696	28	16723
2026-01-20 21:58:02.86	59.86	15.31	-26.3	-26.8	16.6	1.08e-05	0	44	0	15309209600	28	16881
2026-01-20 21:58:03.86	60.15	15.38	-26.1	-26.6	16.9	1.08e-05	0	44	0	15426650112	28	16566
2026-01-20 21:58:04.87	60.44	15.44	-26.2	-26.7	17.0	5.40e-06	0	44	0	15535702016	28	16678
2026-01-20 21:58:05.88	60.73	15.50	-26.2	-26.7	17.0	5.40e-06	0	45	0	15653142528	28	16767
2026-01-20 21:58:06.89	61.02	15.56	-26.3	-26.8	16.9	5.40e-06	0	45	0	15770583040	28	16929
2026-01-20 21:58:07.90	61.32	15.61	-25.9	-26.4	16.6	0.00e+00	0	45	0	15879634944	28	16135
2026-01-20 21:58:08.91	61.61	15.67	-26.0	-26.5	16.5	0.00e+00	0	44	0	15997075456	28	16296
2026-01-20 21:58:09.92	61.91	15.73	-25.8	-26.3	16.8	1.63e-05	0	44	0	16106127360	28	16014
2026-01-20 21:58:10.93	62.21	15.79	-25.7	-26.3	17.0	1.63e-05	0	45	0	16215179264	28	15884
2026-01-20 21:58:11.94	62.51	15.85	-25.7	-26.2	17.1	5.40e-06	0	45	0	16332619776	26	17795
2026-01-20 21:58:12.95	62.81	15.90	-25.6	-26.2	17.0	0.00e+00	0	45	0	16450060288	26	17629
2026-01-20 21:58:13.96	63.11	15.96	-25.7	-26.2	17.1	0.00e+00	0	45	0	16559112192	26	17774
2026-01-20 21:58:14.97	63.42	16.02	-25.8	-26.4	17.1	5.40e-06	0	45	0	16676552704	26	18016
2026-01-20 21:58:15.98	63.72	16.07	-25.7	-26.2	17.1	5.40e-06	0	45	0	16785604608	26	17790
2026-01-20 21:58:16.98	64.02	16.13	-25.6	-26.1	17.0	0.00e+00	0	45	0	16903045120	26	17453
2026-01-20 21:58:17.99	64.33	16.18	-25.6	-26.1	17.1	0.00e+00	0	45	0	17020485632	26	17567
2026-01-20 21:58:19.00	64.64	16.23	-25.5	-26.0	17.2	0.00e+00	0	45	0	17129537536	26	17346
2026-01-20 21:58:20.01	64.95	16.29	-25.6	-26.1	17.2	0.00e+00	0	45	0	17238589440	26	17484
2026-01-20 21:58:21.02	65.26	16.34	-25.5	-26.0	17.2	0.00e+00	0	45	0	17356029952	26	17316
2026-01-20 21:58:22.03	65.57	16.39	-25.6	-26.1	17.2	0.00e+00	0	45	0	17465081856	26	17588
2026-01-20 21:58:23.04	65.89	16.44	-25.5	-26.0	17.2	0.00e+00	0	45	0	17582522368	26	17313
2026-01-20 21:58:24.05	66.20	16.49	-25.6	-26.1	17.0	0.00e+00	0	45	0	17699962880	26	17459
2026-01-20 21:58:25.06	66.52	16.55	-25.5	-26.0	17.0	0.00e+00	0	45	0	17809014784	26	17379
2026-01-20 21:58:26.07	66.84	16.59	-25.5	-26.0	16.8	0.00e+00	0	45	0	17926455296	26	17336
2026-01-20 21:58:27.07	67.15	16.64	-25.6	-26.0	16.9	1.08e-05	0	45	0	18035507200	26	17389
2026-01-20 21:58:28.09	67.48	16.69	-25.7	-26.2	17.1	1.08e-05	0	45	0	18144559104	26	17756
2026-01-20 21:58:29.10	67.80	16.74	-25.6	-26.1	17.1	0.00e+00	0	45	0	18261999616	26	17505
2026-01-20 21:58:30.10	68.12	16.79	-25.7	-26.1	17.1	0.00e+00	0	45	0	18379440128	26	17602
2026-01-20 21:58:31.12	68.44	16.83	-25.6	-26.1	17.1	0.00e+00	0	45	0	18488492032	26	17519
2026-01-20 21:58:32.12	68.77	16.88	-25.5	-26.0	17.1	0.00e+00	0	45	0	18605932544	26	17275
2026-01-20 21:58:33.14	69.10	16.92	-25.5	-26.0	17.1	0.00e+00	0	45	0	18714984448	26	17282
2026-01-20 21:58:34.15	69.42	16.97	-25.4	-25.9	17.1	0.00e+00	0	45	0	18832424960	26	17086
2026-01-20 21:58:35.15	69.75	17.01	-25.6	-26.0	17.1	0.00e+00	0	45	0	18949865472	26	17385
2026-01-20 21:58:36.16	70.08	17.06	-25.6	-26.1	17.2	0.00e+00	0	45	0	19058917376	26	17444
2026-01-20 21:58:37.17	70.41	17.10	-25.5	-26.0	17.2	0.00e+00	0	45	0	19167969280	26	17338
2026-01-20 21:58:38.18	70.74	17.14	-25.5	-26.0	17.0	0.00e+00	0	45	0	19285409792	26	17307
2026-01-20 21:58:39.19	71.07	17.18	-25.5	-26.0	16.9	0.00e+00	0	45	0	19402850304	26	17223
2026-01-20 21:58:40.20	71.40	17.22	-25.5	-25.9	16.6	0.00e+00	0	45	0	19511902208	26	17196
2026-01-20 21:58:41.21	71.74	17.26	-25.5	-26.0	16.9	0.00e+00	0	45	0	19629342720	26	17241
2026-01-20 21:58:42.22	72.07	17.30	-25.4	-25.8	17.1	5.40e-06	0	45	0	19738394624	26	16999
2026-01-20 21:58:43.23	72.41	17.34	-25.4	-25.9	17.1	5.40e-06	0	45	0	19855835136	26	17054
2026-01-20 21:58:44.24	72.75	17.37	-25.4	-25.9	17.1	0.00e+00	0	45	0	19973275648	26	17039
2026-01-20 21:58:45.25	73.09	17.41	-25.5	-26.0	17.1	0.00e+00	0	45	0	20082327552	26	17289
2026-01-20 21:58:46.26	73.43	17.45	-25.4	-25.9	17.1	0.00e+00	0	45	0	20191379456	26	17144
2026-01-20 21:58:47.27	73.77	17.48	-25.4	-25.9	17.1	5.40e-06	0	45	0	20308819968	26	17108
2026-01-20 21:58:48.28	74.11	17.51	-25.3	-25.8	17.1	5.40e-06	0	45	0	20417871872	26	16964
2026-01-20 21:58:49.28	74.45	17.55	-25.4	-25.9	17.2	0.00e+00	0	45	0	20535312384	26	17123
2026-01-20 21:58:50.29	74.79	17.58	-25.4	-25.9	17.2	0.00e+00	0	45	0	20652752896	26	17005
2026-01-20 21:58:51.30	75.13	17.61	-25.4	-25.8	17.2	0.00e+00	0	45	0	20761804800	26	17002
2026-01-20 21:58:52.31	75.48	17.64	-25.3	-25.8	17.3	0.00e+00	0	45	0	20879245312	26	16924
2026-01-20 21:58:53.32	75.82	17.67	-25.4	-25.9	17.1	0.00e+00	0	45	0	20988297216	26	17117
2026-01-20 21:58:54.33	76.17	17.70	-25.3	-25.8	17.2	0.00e+00	0	45	0	21097349120	26	16922
2026-01-20 21:58:55.34	76.51	17.73	-25.5	-26.0	17.1	0.00e+00	0	45	0	21223178240	26	17220
2026-01-20 21:58:56.35	76.86	17.75	-25.5	-25.9	17.1	0.00e+00	0	45	0	21332230144	26	17196
2026-01-20 21:58:57.36	77.21	17.78	-25.6	-26.1	17.1	0.00e+00	0	45	0	21441282048	26	17490
2026-01-20 21:58:58.37	77.56	17.81	-25.4	-25.9	17.0	0.00e+00	0	45	0	21558722560	26	17149
2026-01-20 21:58:59.38	77.91	17.83	-25.2	-25.7	16.9	0.00e+00	0	45	0	21667774464	26	16731
2026-01-20 21:59:00.37	78.25	17.85	-25.2	-25.7	16.9	0.00e+00	0	45	0	21785214976	26	16680
2026-01-20 21:59:01.36	78.60	17.88	-25.3	-25.8	16.9	0.00e+00	0	45	0	21894266880	26	16811
2026-01-20 21:59:02.38	78.95	17.90	-25.3	-25.7	17.0	1.08e-05	0	45	0	22003318784	26	16776
2026-01-20 21:59:03.39	79.30	17.92	-25.2	-25.7	17.1	1.08e-05	0	45	0	22120759296	26	16754
2026-01-20 21:59:04.40	79.66	17.94	-25.2	-25.7	17.1	5.40e-06	0	45	0	22238199808	26	16681
2026-01-20 21:59:05.41	80.01	17.96	-25.3	-25.8	17.1	0.00e+00	0	45	0	22347251712	26	16914
2026-01-20 21:59:06.42	80.36	17.98	-25.2	-25.7	17.1	0.00e+00	0	45	0	22464692224	26	16667
2026-01-20 21:59:07.43	80.72	17.99	-25.2	-25.7	17.1	0.00e+00	0	45	0	22573744128	26	16708
2026-01-20 21:59:08.44	81.07	18.01	-25.2	-25.7	16.9	0.00e+00	0	45	0	22691184640	26	16684
2026-01-20 21:59:09.45	81.43	18.02	-25.3	-25.8	17.0	5.40e-06	0	45	0	22808625152	26	16883
2026-01-20 21:59:10.46	81.78	18.04	-25.1	-25.6	17.0	5.40e-06	0	45	0	22917677056	26	16505
2026-01-20 21:59:11.47	82.14	18.05	-25.2	-25.7	17.0	0.00e+00	0	45	0	23026728960	26	16685
2026-01-20 21:59:12.47	82.49	18.06	-25.4	-25.9	17.0	0.00e+00	0	45	0	23144169472	26	17085
2026-01-20 21:59:13.48	82.85	18.08	-25.2	-25.6	16.9	0.00e+00	0	45	0	23253221376	26	16616
2026-01-20 21:59:14.49	83.20	18.09	-25.1	-25.6	16.9	0.00e+00	0	45	0	23370661888	26	16475
2026-01-20 21:59:15.50	83.56	18.10	-25.4	-25.9	16.9	0.00e+00	0	45	0	23488102400	26	17127
2026-01-20 21:59:16.51	83.92	18.10	-25.4	-25.9	16.9	0.00e+00	0	45	0	23597154304	26	17114
2026-01-20 21:59:17.52	84.27	18.11	-25.4	-25.9	16.9	0.00e+00	0	45	0	23714594816	26	17075
2026-01-20 21:59:18.53	84.63	18.12	-25.4	-25.8	17.0	5.40e-06	0	45	0	23823646720	26	16953
2026-01-20 21:59:19.54	84.99	18.12	-25.2	-25.7	17.0	5.40e-06	0	45	0	23941087232	26	16631
2026-01-20 21:59:20.55	85.35	18.13	-25.1	-25.6	17.0	0.00e+00	0	45	0	24050139136	26	16478
2026-01-20 21:59:21.56	85.71	18.13	-25.2	-25.7	17.0	0.00e+00	0	45	0	24167579648	26	16696
2026-01-20 21:59:22.58	86.07	18.13	-25.4	-25.8	17.0	0.00e+00	0	45	0	24276631552	26	16916
2026-01-20 21:59:23.59	86.43	18.14	-25.5	-25.9	17.0	0.00e+00	0	45	0	24394072064	26	17165
2026-01-20 21:59:24.60	86.79	18.14	-25.5	-25.9	16.9	0.00e+00	0	45	0	24511512576	26	17095
2026-01-20 21:59:25.61	87.14	18.14	-25.3	-25.8	16.9	0.00e+00	0	45	0	24620564480	26	16870
2026-01-20 21:59:26.61	87.50	18.14	-25.2	-25.6	16.9	0.00e+00	0	45	0	24738004992	26	16553
2026-01-20 21:59:27.62	87.86	18.13	-25.3	-25.7	16.9	0.00e+00	0	45	0	24847056896	26	16772
2026-01-20 21:59:28.64	88.22	18.13	-25.2	-25.7	16.8	0.00e+00	0	45	0	24956108800	26	16714
2026-01-20 21:59:29.65	88.58	18.13	-25.3	-25.8	16.9	0.00e+00	0	45	0	25081937920	26	16855
2026-01-20 21:59:30.66	88.94	18.12	-25.1	-25.5	16.9	0.00e+00	0	45	0	25190989824	26	16424
2026-01-20 21:59:31.66	89.29	18.12	-25.2	-25.7	16.9	5.40e-06	0	45	0	25300041728	26	16634
2026-01-20 21:59:32.67	89.65	18.11	-25.2	-25.7	16.9	5.40e-06	0	45	0	25417482240	26	16619
2026-01-20 21:59:33.69	90.01	18.10	-25.2	-25.6	16.9	0.00e+00	0	45	0	25526534144	26	16560
2026-01-20 21:59:34.70	90.37	18.09	-25.3	-25.7	16.9	0.00e+00	0	45	0	25643974656	26	16764
2026-01-20 21:59:35.71	90.72	18.08	-25.2	-25.7	16.9	0.00e+00	0	45	0	25761415168	26	16731
2026-01-20 21:59:36.72	91.08	18.07	-25.6	-26.0	16.9	0.00e+00	0	45	0	25870467072	26	17365
2026-01-20 21:59:37.73	91.44	18.06	-25.4	-25.9	16.9	0.00e+00	0	45	0	25979518976	26	17146
2026-01-20 21:59:38.74	91.79	18.05	-25.4	-25.8	16.9	0.00e+00	0	45	0	26105348096	26	16998
2026-01-20 21:59:39.75	92.15	18.03	-25.4	-25.9	16.9	0.00e+00	0	45	0	26214400000	26	17023
2026-01-20 21:59:40.76	92.50	18.02	-25.4	-25.9	16.9	0.00e+00	0	45	0	26323451904	26	17089
2026-01-20 21:59:41.77	92.86	18.00	-25.6	-26.0	16.9	0.00e+00	0	45	0	26440892416	26	17365
2026-01-20 21:59:42.78	93.21	17.98	-25.6	-26.0	16.9	0.00e+00	0	45	0	26549944320	26	17334
2026-01-20 21:59:43.79	93.57	17.97	-25.4	-25.8	16.8	0.00e+00	0	45	0	26667384832	26	16935
2026-01-20 21:59:44.80	93.92	17.95	-25.4	-25.9	16.9	0.00e+00	0	45	0	26784825344	26	17073
2026-01-20 21:59:45.81	94.28	17.93	-25.6	-26.0	16.9	0.00e+00	0	45	0	26893877248	26	17303
2026-01-20 21:59:46.82	94.63	17.91	-25.4	-25.8	16.9	0.00e+00	0	45	0	27011317760	26	16906
2026-01-20 21:59:47.83	94.98	17.89	-25.5	-26.0	16.8	0.00e+00	0	45	0	27120369664	26	17251
2026-01-20 21:59:48.84	95.33	17.86	-25.4	-25.9	16.8	0.00e+00	0	45	0	27237810176	26	17056
2026-01-20 21:59:49.85	95.68	17.84	-25.4	-25.8	16.9	0.00e+00	0	45	0	27346862080	26	16996
2026-01-20 21:59:50.86	96.04	17.82	-25.4	-25.9	16.9	0.00e+00	0	45	0	27464302592	26	17031
2026-01-20 21:59:51.87	96.39	17.79	-25.5	-25.9	16.9	0.00e+00	0	45	0	27573354496	26	17123
2026-01-20 21:59:52.88	96.73	17.77	-25.4	-25.9	16.9	0.00e+00	0	45	0	27690795008	26	17043
2026-01-20 21:59:53.89	97.08	17.74	-25.4	-25.9	16.9	0.00e+00	0	45	0	27808235520	26	17045
2026-01-20 21:59:54.89	97.43	17.71	-25.5	-25.9	16.9	0.00e+00	0	45	0	27917287424	26	17075
2026-01-20 21:59:55.90	97.77	17.68	-25.5	-25.9	16.9	0.00e+00	0	45	0	28034727936	26	17165
2026-01-20 21:59:56.91	98.12	17.65	-25.4	-25.8	16.9	0.00e+00	0	45	0	28143779840	26	16884
2026-01-20 21:59:57.92	98.47	17.62	-25.4	-25.8	16.9	0.00e+00	0	45	0	28252831744	26	16945
2026-01-20 21:59:58.93	98.81	17.59	-25.4	-25.9	16.8	0.00e+00	0	45	0	28370272256	26	17013
2026-01-20 21:59:59.94	99.16	17.56	-25.4	-25.8	16.8	0.00e+00	0	45	0	28487712768	26	16842
2026-01-20 22:00:00.95	99.50	17.53	-25.5	-25.9	16.9	0.00e+00	0	45	0	28596764672	26	17059
2026-01-20 22:00:01.97	99.84	17.49	-25.9	-26.3	16.9	0.00e+00	0	45	0	28714205184	26	17964
2026-01-20 22:00:02.97	100.18	17.46	-25.5	-25.9	17.0	0.00e+00	0	45	0	28823257088	26	17136
2026-01-20 22:00:03.99	100.53	17.43	-25.5	-25.9	17.0	0.00e+00	0	45	0	28940697600	26	17113
2026-01-20 22:00:05.00	100.87	17.39	-25.4	-25.8	17.0	0.00e+00	0	45	0	29058138112	26	16979
2026-01-20 22:00:06.01	101.21	17.35	-25.7	-26.2	17.0	0.00e+00	0	45	0	29167190016	26	17632
2026-01-20 22:00:07.01	101.54	17.32	-25.6	-26.0	17.1	0.00e+00	0	45	0	29276241920	26	17366
2026-01-20 22:00:08.03	101.88	17.28	-25.5	-25.9	17.1	0.00e+00	0	45	0	29393682432	26	17037
2026-01-20 22:00:09.04	102.22	17.24	-25.3	-25.7	17.1	0.00e+00	0	45	0	29502734336	26	16751
2026-01-20 22:00:10.04	102.55	17.20	-25.5	-26.0	17.1	0.00e+00	0	45	0	29620174848	26	17233
2026-01-20 22:00:11.05	102.88	17.16	-51.0	-53.5	6.1	0.00e+00	0	45	104	29678895104	60	58089
2026-01-20 22:00:12.06	103.22	17.12	-51.0	-53.4	6.1	0.00e+00	0	45	104	29678895104	60	57597
2026-01-20 22:00:13.07	103.55	17.07	-50.9	-53.4	6.1	0.00e+00	0	45	104	29678895104	60	57404
2026-01-20 22:00:14.08	103.88	17.03	-51.0	-53.5	6.1	0.00e+00	0	45	104	29678895104	60	58225
2026-01-20 22:00:15.08	104.20	16.99	-50.9	-53.3	6.1	0.00e+00	0	45	104	29678895104	60	56750
2026-01-20 22:00:16.09	104.53	16.94	-50.9	-53.3	6.1	0.00e+00	0	45	104	29678895104	60	56827
2026-01-20 22:00:17.10	104.86	16.90	-50.9	-53.4	6.1	0.00e+00	0	45	104	29678895104	60	57303
2026-01-20 22:00:18.11	105.19	16.85	-50.8	-53.4	6.1	0.00e+00	0	45	104	29678895104	60	57121
2026-01-20 22:00:19.12	105.51	16.81	-51.0	-53.5	6.1	0.00e+00	0	45	104	29678895104	60	58069
2026-01-20 22:00:20.13	105.84	16.76	-51.0	-53.4	6.1	0.00e+00	0	45	104	29678895104	60	57525
2026-01-20 22:00:21.14	106.16	16.71	-51.0	-53.5	6.1	0.00e+00	0	45	104	29678895104	60	58034
2026-01-20 22:00:22.15	106.48	16.66	-51.0	-53.5	6.1	0.00e+00	0	45	104	29678895104	60	57782
2026-01-20 22:00:23.16	106.80	16.61	-51.0	-53.5	6.1	0.00e+00	0	45	104	29678895104	60	57695
2026-01-20 22:00:24.17	107.12	16.56	-51.0	-53.5	6.1	0.00e+00	0	45	104	29678895104	60	58054
2026-01-20 22:00:25.18	107.44	16.51	-51.0	-53.5	6.1	0.00e+00	0	45	104	29678895104	60	57752
2026-01-20 22:00:26.18	107.75	16.46	-51.0	-53.5	6.1	0.00e+00	0	45	104	29678895104	60	57736
2026-01-20 22:00:27.19	108.07	16.41	-51.0	-53.5	6.1	0.00e+00	0	45	104	29678895104	60	57986
2026-01-20 22:00:28.20	108.38	16.36	-51.0	-53.5	6.1	0.00e+00	0	45	104	29678895104	60	58064
2026-01-20 22:00:29.21	108.70	16.31	-51.0	-53.5	6.1	0.00e+00	0	45	104	29678895104	60	57683
2026-01-20 22:00:30.22	109.01	16.25	-51.0	-53.5	6.1	0.00e+00	0	45	104	29678895104	60	57994
2026-01-20 22:00:31.23	109.32	16.20	-50.8	-53.4	6.1	0.00e+00	0	45	104	29678895104	60	57097
2026-01-20 22:00:32.24	109.63	16.15	-50.8	-53.3	6.1	0.00e+00	0	45	104	29678895104	60	56805
2026-01-20 22:00:33.25	109.94	16.09	-50.9	-53.4	6.1	0.00e+00	0	45	104	29678895104	60	57123
2026-01-20 22:00:34.26	110.25	16.03	-51.0	-53.4	6.1	0.00e+00	0	45	104	29678895104	60	57531
2026-01-20 22:00:35.27	110.55	15.98	-50.7	-53.2	6.1	0.00e+00	0	45	104	29678895104	60	55888
2026-01-20 22:00:36.28	110.86	15.92	-50.9	-53.4	6.1	0.00e+00	0	45	104	29678895104	60	57129
2026-01-20 22:00:37.30	111.16	15.86	-50.8	-53.2	6.1	0.00e+00	0	45	104	29678895104	60	56036
2026-01-20 22:00:38.30	111.46	15.81	-50.9	-53.4	6.1	0.00e+00	0	45	104	29678895104	60	57038
2026-01-20 22:00:39.31	111.76	15.75	-50.9	-53.4	6.1	0.00e+00	0	45	104	29678895104	60	57493
2026-01-20 22:00:40.32	112.06	15.69	-50.9	-53.4	6.1	0.00e+00	0	45	104	29678895104	60	57006
2026-01-20 22:00:41.33	112.36	15.63	-50.9	-53.3	6.1	0.00e+00	0	45	104	29678895104	60	56899
2026-01-20 22:00:42.34	112.65	15.57	-51.0	-53.5	6.1	0.00e+00	0	45	104	29678895104	60	57712
2026-01-20 22:00:43.35	112.95	15.51	-50.9	-53.4	6.1	0.00e+00	0	45	104	29678895104	60	57483
2026-01-20 22:00:44.36	113.24	15.45	-50.9	-53.4	6.1	0.00e+00	0	45	104	29678895104	60	57016
2026-01-20 22:00:45.37	113.54	15.39	-50.9	-53.4	6.1	0.00e+00	0	45	104	29678895104	60	57303
2026-01-20 22:00:46.38	113.83	15.33	-51.0	-53.4	6.1	0.00e+00	0	45	104	29678895104	60	57453
2026-01-20 22:00:47.39	114.12	15.27	-50.9	-53.3	6.1	0.00e+00	0	45	104	29678895104	60	56910
2026-01-20 22:00:48.40	114.40	15.21	-50.9	-53.4	6.1	0.00e+00	0	45	104	29678895104	60	57244
2026-01-20 22:00:49.41	114.69	15.14	-50.7	-53.3	6.1	0.00e+00	0	45	104	29678895104	60	56591
2026-01-20 22:00:50.42	114.98	15.08	-50.9	-53.4	6.1	0.00e+00	0	45	104	29678895104	60	57435
2026-01-20 22:00:51.43	115.26	15.02	-50.7	-53.2	6.1	0.00e+00	0	45	104	29678895104	60	56231
2026-01-20 22:00:52.44	115.54	14.95	-50.7	-53.3	6.1	0.00e+00	0	45	104	29678895104	60	56406
2026-01-20 22:00:53.45	115.82	14.89	-50.8	-53.3	6.1	0.00e+00	0	45	104	29678895104	60	56815
2026-01-20 22:00:54.46	116.10	14.83	-50.7	-53.3	6.1	0.00e+00	0	45	104	29678895104	60	56421
2026-01-20 22:00:55.47	116.38	14.76	-50.8	-53.3	6.1	0.00e+00	0	45	104	29678895104	60	56330
2026-01-20 22:00:56.47	116.66	14.70	-50.7	-53.2	6.1	0.00e+00	0	45	104	29678895104	60	56173
2026-01-20 22:00:57.48	116.93	14.63	-50.8	-53.3	6.1	0.00e+00	0	45	104	29678895104	60	56942
2026-01-20 22:00:58.49	117.21	14.57	-50.6	-53.2	6.1	0.00e+00	0	45	104	29678895104	60	55948
2026-01-20 22:00:59.50	117.48	14.50	-50.7	-53.3	6.1	0.00e+00	0	45	104	29678895104	60	56610
2026-01-20 22:01:00.51	117.75	14.44	-50.8	-53.3	6.1	0.00e+00	0	45	104	29678895104	60	56882
2026-01-20 22:01:01.52	118.02	14.37	-50.8	-53.3	6.1	0.00e+00	0	45	104	29678895104	60	56356
2026-01-20 22:01:02.53	118.29	14.30	-50.7	-53.2	6.1	0.00e+00	0	45	104	29678895104	60	56150
2026-01-20 22:01:03.54	118.56	14.23	-50.7	-53.2	6.1	0.00e+00	0	45	104	29678895104	60	55934
2026-01-20 22:01:04.54	118.82	14.17	-50.8	-53.3	6.1	0.00e+00	0	45	104	29678895104	60	56413
2026-01-20 22:01:05.55	119.09	14.10	-50.8	-53.3	6.1	0.00e+00	0	45	104	29678895104	60	56826
2026-01-20 22:01:06.56	119.35	14.03	-50.8	-53.4	6.1	0.00e+00	0	45	104	29678895104	60	56963
2026-01-20 22:01:07.57	119.61	13.96	-50.8	-53.3	6.1	0.00e+00	0	45	104	29678895104	60	56368
2026-01-20 22:01:08.58	119.87	13.90	-50.7	-53.2	6.1	0.00e+00	0	45	104	29678895104	60	55987
2026-01-20 22:01:09.60	120.13	13.83	-50.8	-53.2	6.1	0.00e+00	0	45	104	29678895104	60	56170
2026-01-20 22:01:10.60	120.39	13.76	-50.7	-53.2	6.1	0.00e+00	0	45	104	29678895104	60	56035
2026-01-20 22:01:11.62	120.65	13.69	-50.7	-53.1	6.1	0.00e+00	0	45	104	29678895104	60	55587
2026-01-20 22:01:12.62	120.90	13.62	-50.7	-53.2	6.1	0.00e+00	0	45	104	29678895104	60	55768
2026-01-20 22:01:13.63	121.15	13.55	-50.7	-53.2	6.0	0.00e+00	0	45	104	29678895104	60	55943
2026-01-20 22:01:14.64	121.41	13.48	-50.8	-53.2	6.1	0.00e+00	0	45	104	29678895104	60	56140
2026-01-20 22:01:15.65	121.66	13.41	-50.7	-53.2	6.1	0.00e+00	0	45	104	29678895104	60	56041
2026-01-20 22:01:16.66	121.91	13.34	-50.7	-53.1	6.1	0.00e+00	0	45	104	29678895104	60	55594
2026-01-20 22:01:17.67	122.15	13.27	-50.7	-53.3	6.1	0.00e+00	0	45	104	29678895104	60	56318
2026-01-20 22:01:18.69	122.40	13.20	-50.8	-53.2	6.1	0.00e+00	0	45	104	29678895104	60	56173
2026-01-20 22:01:19.69	122.65	13.13	-50.7	-53.3	6.1	0.00e+00	0	45	104	29678895104	60	56322
2026-01-20 22:01:20.70	122.89	13.06	-50.7	-53.2	6.1	0.00e+00	0	45	104	29678895104	60	55991
2026-01-20 22:01:21.71	123.13	12.99	-50.7	-53.2	6.1	0.00e+00	0	45	104	29678895104	60	56033
2026-01-20 22:01:22.72	123.37	12.92	-50.8	-53.2	6.1	0.00e+00	0	45	104	29678895104	60	56164
2026-01-20 22:01:23.73	123.61	12.85	-50.7	-53.2	6.1	0.00e+00	0	45	104	29678895104	60	56096
2026-01-20 22:01:24.74	123.85	12.78	-50.6	-53.1	6.1	0.00e+00	0	45	104	29678895104	60	55437
2026-01-20 22:01:25.75	124.09	12.71	-50.7	-53.2	6.1	0.00e+00	0	45	104	29678895104	60	55864
2026-01-20 22:01:26.76	124.32	12.64	-50.7	-53.2	6.1	0.00e+00	0	45	104	29678895104	60	55852
2026-01-20 22:01:27.77	124.56	12.56	-50.7	-53.2	6.1	0.00e+00	0	45	104	29678895104	60	55724
2026-01-20 22:01:28.78	124.79	12.49	-50.7	-53.2	6.1	0.00e+00	0	45	104	29678895104	60	56058
2026-01-20 22:01:29.79	125.02	12.42	-50.6	-53.2	6.1	0.00e+00	0	45	104	29678895104	60	55851
2026-01-20 22:01:30.80	125.25	12.35	-50.7	-53.2	6.1	0.00e+00	0	45	104	29678895104	60	55903
2026-01-20 22:01:31.81	125.48	12.28	-50.7	-53.1	6.1	0.00e+00	0	45	104	29678895104	60	55412
2026-01-20 22:01:32.82	125.71	12.20	-50.7	-53.1	6.1	0.00e+00	0	45	104	29678895104	60	55590
2026-01-20 22:01:33.83	125.94	12.13	-50.6	-53.1	6.1	0.00e+00	0	45	104	29678895104	60	55524
2026-01-20 22:01:34.84	126.16	12.06	-50.6	-53.1	6.1	0.00e+00	0	45	104	29678895104	60	55274
2026-01-20 22:01:35.85	126.39	11.99	-50.5	-53.0	6.1	0.00e+00	0	45	104	29678895104	60	54526
2026-01-20 22:01:36.86	126.61	11.92	-50.6	-53.1	6.1	0.00e+00	0	45	104	29678895104	60	55419
2026-01-20 22:01:37.87	126.83	11.84	-50.6	-53.1	6.1	0.00e+00	0	45	104	29678895104	60	55257
2026-01-20 22:01:38.87	127.05	11.77	-50.6	-53.2	6.1	0.00e+00	0	45	104	29678895104	60	55712
2026-01-20 22:01:39.88	127.27	11.70	-50.5	-53.0	6.1	0.00e+00	0	44	104	29678895104	60	54683
2026-01-20 22:01:40.89	127.49	11.63	-50.5	-53.0	6.1	0.00e+00	0	45	104	29678895104	60	54677
2026-01-20 22:01:41.90	127.70	11.56	-50.7	-53.2	6.1	0.00e+00	0	45	104	29678895104	60	55693
2026-01-20 22:01:42.91	127.92	11.48	-50.6	-53.1	6.1	0.00e+00	0	45	104	29678895104	60	55417
2026-01-20 22:01:43.92	128.13	11.41	-50.6	-53.1	6.1	0.00e+00	0	45	104	29678895104	60	55235
2026-01-20 22:01:44.93	128.34	11.34	-50.4	-53.0	6.1	0.00e+00	0	45	104	29678895104	60	54489
2026-01-20 22:01:45.94	128.56	11.27	-50.6	-53.1	6.1	0.00e+00	0	45	104	29678895104	60	55332
2026-01-20 22:01:46.95	128.77	11.19	-50.6	-53.0	6.0	0.00e+00	0	45	104	29678895104	60	54851
2026-01-20 22:01:47.96	128.98	11.12	-50.6	-53.0	6.1	0.00e+00	0	45	104	29678895104	60	54847
2026-01-20 22:01:48.97	129.18	11.05	-50.6	-53.1	6.1	0.00e+00	0	45	104	29678895104	60	55061
2026-01-20 22:01:49.98	129.39	10.97	-50.5	-53.0	6.1	0.00e+00	0	45	104	29678895104	60	54920
2026-01-20 22:01:50.99	129.60	10.90	-50.4	-53.0	6.1	0.00e+00	0	45	104	29678895104	60	54467
2026-01-20 22:01:52.00	129.80	10.83	-50.5	-53.0	6.1	0.00e+00	0	45	104	29678895104	60	54698
2026-01-20 22:01:53.01	130.00	10.76	-50.5	-53.0	6.1	0.00e+00	0	45	104	29678895104	60	54841
2026-01-20 22:01:54.02	130.20	10.68	-50.5	-53.0	6.1	0.00e+00	0	45	104	29678895104	60	54677
2026-01-20 22:01:55.02	130.40	10.61	-50.4	-52.9	6.1	0.00e+00	0	45	104	29678895104	60	54247
2026-01-20 22:01:56.04	130.60	10.54	-50.5	-53.0	6.1	0.00e+00	0	45	104	29678895104	60	54580
2026-01-20 22:01:57.04	130.80	10.47	-50.4	-52.9	6.1	0.00e+00	0	45	104	29678895104	60	53943
2026-01-20 22:01:58.06	131.00	10.39	-50.6	-53.0	6.1	0.00e+00	0	45	104	29678895104	60	54996
2026-01-20 22:01:59.07	131.20	10.32	-50.3	-52.8	6.1	0.00e+00	0	45	104	29678895104	60	53738
2026-01-20 22:02:00.08	131.39	10.25	-50.3	-52.8	6.1	0.00e+00	0	45	104	29678895104	60	53688
2026-01-20 22:02:01.09	131.58	10.18	-50.5	-53.0	6.1	0.00e+00	0	45	104	29678895104	60	54683
2026-01-20 22:02:02.10	131.78	10.10	-50.5	-53.0	6.1	0.00e+00	0	45	104	29678895104	60	54453
2026-01-20 22:02:03.11	131.97	10.03	-50.5	-53.0	6.1	0.00e+00	0	45	104	29678895104	60	54817
2026-01-20 22:02:04.11	132.16	9.96	-50.3	-52.8	6.1	0.00e+00	0	45	104	29678895104	60	53518
2026-01-20 22:02:05.12	132.34	9.89	-50.5	-53.0	6.1	0.00e+00	0	45	104	29678895104	60	54955
2026-01-20 22:02:06.13	132.53	9.82	-50.4	-52.9	6.1	0.00e+00	0	45	104	29678895104	60	54143
2026-01-20 22:02:07.14	132.72	9.74	-50.5	-53.0	6.1	0.00e+00	0	45	104	29678895104	60	54400
2026-01-20 22:02:08.15	132.91	9.67	-50.6	-53.0	6.1	0.00e+00	0	45	104	29678895104	60	54860
2026-01-20 22:02:09.16	133.09	9.60	-50.5	-52.9	6.1	0.00e+00	0	45	104	29678895104	60	54374
2026-01-20 22:02:10.17	133.27	9.53	-50.5	-53.0	6.1	0.00e+00	0	45	104	29678895104	60	54504
2026-01-20 22:02:11.18	133.46	9.45	-50.5	-53.0	6.1	0.00e+00	0	45	104	29678895104	60	54766
2026-01-20 22:02:12.19	133.64	9.38	-50.4	-52.9	6.1	0.00e+00	0	45	104	29678895104	60	54239
2026-01-20 22:02:13.20	133.82	9.31	-50.5	-53.0	6.1	0.00e+00	0	45	104	29678895104	60	54538
2026-01-20 22:02:14.21	134.00	9.24	-50.4	-52.9	6.1	0.00e+00	0	45	104	29678895104	60	54353
2026-01-20 22:02:15.22	134.18	9.17	-50.4	-52.9	6.1	0.00e+00	0	45	104	29678895104	60	54316
2026-01-20 22:02:16.23	134.35	9.10	-50.5	-53.0	6.1	0.00e+00	0	45	104	29678895104	60	54547
2026-01-20 22:02:17.24	134.53	9.02	-50.5	-53.0	6.1	0.00e+00	0	45	104	29678895104	60	54503
2026-01-20 22:02:18.25	134.71	8.95	-50.5	-53.0	6.1	0.00e+00	0	45	104	29678895104	60	54622
2026-01-20 22:02:19.26	134.88	8.88	-50.5	-53.0	6.1	0.00e+00	0	45	104	29678895104	60	54477
2026-01-20 22:02:20.26	135.05	8.81	-50.4	-52.9	6.1	0.00e+00	0	45	104	29678895104	60	54383
2026-01-20 22:02:21.28	135.22	8.74	-50.4	-52.9	6.1	0.00e+00	0	45	104	29678895104	60	53970
2026-01-20 22:02:22.29	135.40	8.67	-50.5	-52.9	6.1	0.00e+00	0	45	104	29678895104	60	54378
2026-01-20 22:02:23.30	135.57	8.60	-50.4	-52.9	6.1	0.00e+00	0	45	104	29678895104	60	54121
2026-01-20 22:02:24.30	135.73	8.53	-50.5	-53.0	6.1	0.00e+00	0	45	104	29678895104	60	54589
2026-01-20 22:02:25.32	135.90	8.45	-50.4	-52.9	6.1	0.00e+00	0	45	104	29678895104	60	53850
2026-01-20 22:02:26.33	136.07	8.38	-50.5	-53.0	6.1	0.00e+00	0	45	104	29678895104	60	54518
2026-01-20 22:02:27.34	136.24	8.31	-50.3	-52.8	6.1	0.00e+00	0	45	104	29678895104	60	53548
2026-01-20 22:02:28.35	136.40	8.24	-50.4	-52.9	6.1	0.00e+00	0	45	104	29678895104	60	53844
2026-01-20 22:02:29.36	136.57	8.17	-50.4	-52.9	6.1	0.00e+00	0	45	104	29678895104	60	54338
2026-01-20 22:02:30.37	136.73	8.10	-50.5	-52.9	6.1	0.00e+00	0	45	104	29678895104	60	54276
2026-01-20 22:02:31.38	136.89	8.03	-50.5	-52.9	6.1	0.00e+00	0	45	104	29678895104	60	54363
2026-01-20 22:02:32.39	137.05	7.96	-50.3	-52.9	6.1	0.00e+00	0	45	104	29678895104	60	53813
2026-01-20 22:02:33.40	137.21	7.89	-50.4	-52.9	6.1	0.00e+00	0	45	104	29678895104	60	53875
2026-01-20 22:02:34.41	137.37	7.82	-50.4	-52.8	6.1	0.00e+00	0	45	104	29678895104	60	53723
2026-01-20 22:02:35.42	137.53	7.75	-50.4	-52.9	6.1	0.00e+00	0	45	104	29678895104	60	53832
2026-01-20 22:02:36.42	137.69	7.68	-50.4	-53.0	6.0	0.00e+00	0	45	104	29678895104	60	54432
2026-01-20 22:02:37.43	137.85	7.61	-50.4	-52.9	6.1	0.00e+00	0	45	104	29678895104	60	53806
2026-01-20 22:02:38.45	138.00	7.54	-50.5	-52.9	6.1	0.00e+00	0	45	104	29678895104	60	54321
2026-01-20 22:02:39.45	138.16	7.47	-50.3	-52.8	6.1	0.00e+00	0	45	104	29678895104	60	53679
2026-01-20 22:02:40.46	138.31	7.40	-50.4	-52.9	6.1	0.00e+00	0	45	104	29678895104	60	53852
2026-01-20 22:02:41.48	138.47	7.33	-50.3	-52.8	6.1	0.00e+00	0	45	104	29678895104	60	53479
2026-01-20 22:02:42.49	138.62	7.26	-50.3	-52.8	6.1	0.00e+00	0	45	104	29678895104	60	53511
2026-01-20 22:02:43.50	138.77	7.19	-50.3	-52.8	6.1	0.00e+00	0	45	104	29678895104	60	53216
2026-01-20 22:02:44.51	138.92	7.12	-50.3	-52.8	6.1	0.00e+00	0	45	104	29678895104	60	53598
2026-01-20 22:02:45.52	139.07	7.05	-50.2	-52.7	6.1	0.00e+00	0	45	104	29678895104	60	52945
2026-01-20 22:02:46.53	139.22	6.98	-50.3	-52.7	6.1	0.00e+00	0	45	104	29678895104	60	53067
2026-01-20 22:02:47.53	139.37	6.91	-50.0	-52.4	6.1	0.00e+00	0	45	104	29678895104	60	51225
2026-01-20 22:02:48.55	139.52	6.85	-50.2	-52.7	6.1	0.00e+00	0	45	104	29678895104	60	52962
2026-01-20 22:02:49.56	139.66	6.78	-50.0	-52.4	6.1	0.00e+00	0	45	104	29678895104	60	51244
2026-01-20 22:02:50.57	139.81	6.71	-49.8	-52.2	6.1	0.00e+00	0	45	104	29678895104	60	50048
2026-01-20 22:02:51.57	139.95	6.64	-49.5	-52.0	6.1	0.00e+00	0	45	104	29678895104	60	48949
2026-01-20 22:02:52.58	140.09	6.57	-49.9	-52.4	6.1	0.00e+00	0	45	104	29678895104	60	50927
2026-01-20 22:02:53.59	140.24	6.50	-49.4	-51.9	6.1	0.00e+00	0	45	104	29678895104	60	48243
2026-01-20 22:02:54.60	140.38	6.44	-49.2	-51.7	6.1	0.00e+00	0	45	104	29678895104	60	46892
2026-01-20 22:02:55.61	140.52	6.37	-49.0	-51.4	6.1	0.00e+00	0	45	104	29678895104	60	45726
2026-01-20 22:02:56.62	140.66	6.30	-49.4	-51.9	6.1	0.00e+00	0	45	104	29678895104	60	48041
2026-01-20 22:02:57.63	140.80	6.23	-48.9	-51.4	6.1	0.00e+00	0	45	104	29678895104	60	45336
2026-01-20 22:02:58.64	140.94	6.16	-48.9	-51.5	6.1	0.00e+00	0	45	104	29678895104	60	46006
2026-01-20 22:02:59.65	141.08	6.10	-48.8	-51.3	6.1	0.00e+00	0	45	104	29678895104	60	44934
2026-01-20 22:03:00.66	141.22	6.03	-48.8	-51.3	6.1	0.00e+00	0	45	104	29678895104	60	44798
2026-01-20 22:03:01.67	141.35	5.96	-48.8	-51.3	6.1	0.00e+00	0	45	104	29678895104	60	44903
2026-01-20 22:03:02.68	141.49	5.89	-48.9	-51.4	6.1	0.00e+00	0	45	104	29678895104	60	45692
2026-01-20 22:03:03.69	141.63	5.83	-48.8	-51.3	6.1	0.00e+00	0	45	104	29678895104	60	44970
2026-01-20 22:03:04.70	141.76	5.76	-48.8	-51.3	6.1	0.00e+00	0	45	104	29678895104	60	44826
2026-01-20 22:03:05.71	141.89	5.69	-48.8	-51.3	6.1	0.00e+00	0	45	104	29678895104	60	45171
2026-01-20 22:03:06.72	142.03	5.63	-48.8	-51.4	6.1	0.00e+00	0	45	104	29678895104	60	45451
2026-01-20 22:03:07.72	142.16	5.56	-48.7	-51.2	6.1	0.00e+00	0	45	104	29678895104	60	44628
2026-01-20 22:03:08.73	142.29	5.49	-48.7	-51.2	6.1	0.00e+00	0	45	104	29678895104	60	44301
2026-01-20 22:03:09.74	142.42	5.43	-48.7	-51.2	6.1	0.00e+00	0	45	104	29678895104	60	44366
2026-01-20 22:03:10.75	142.55	5.36	-48.7	-51.2	6.1	0.00e+00	0	45	104	29678895104	60	44443
2026-01-20 22:03:11.76	142.68	5.30	-48.7	-51.2	6.1	0.00e+00	0	45	104	29678895104	60	44444
2026-01-20 22:03:12.76	142.81	5.23	-49.1	-51.5	6.1	0.00e+00	0	45	104	29678895104	60	46147
2026-01-20 22:03:13.77	142.94	5.16	-49.3	-51.8	6.1	0.00e+00	0	45	104	29678895104	60	47858
2026-01-20 22:03:14.78	143.06	5.10	-49.2	-51.7	6.1	0.00e+00	0	45	104	29678895104	60	47304
2026-01-20 22:03:15.79	143.19	5.03	-49.0	-51.5	6.1	0.00e+00	0	45	104	29678895104	60	46190
2026-01-20 22:03:16.80	143.32	4.97	-49.2	-51.7	6.1	0.00e+00	0	45	104	29678895104	60	47117
2026-01-20 22:03:17.81	143.44	4.90	-49.4	-52.0	6.1	0.00e+00	0	45	104	29678895104	60	48588
2026-01-20 22:03:18.82	143.57	4.84	-49.4	-51.9	6.1	0.00e+00	0	45	104	29678895104	60	48312
2026-01-20 22:03:19.83	143.69	4.77	-49.3	-51.7	6.1	0.00e+00	0	45	104	29678895104	60	47223
2026-01-20 22:03:20.84	143.81	4.71	-49.4	-51.9	6.1	0.00e+00	0	45	104	29678895104	60	48466
2026-01-20 22:03:21.85	143.94	4.64	-49.5	-52.0	6.1	0.00e+00	0	45	104	29678895104	60	48844
2026-01-20 22:03:22.86	144.06	4.58	-49.5	-52.0	6.1	0.00e+00	0	45	104	29678895104	60	48543
2026-01-20 22:03:23.87	144.18	4.51	-49.3	-51.8	6.1	0.00e+00	0	45	104	29678895104	60	47895
2026-01-20 22:03:24.88	144.30	4.45	-49.5	-52.0	6.1	0.00e+00	0	45	104	29678895104	60	48856
2026-01-20 22:03:25.89	144.42	4.38	-49.5	-52.0	6.1	0.00e+00	0	45	104	29678895104	60	48900
2026-01-20 22:03:26.90	144.54	4.32	-49.5	-52.0	6.1	0.00e+00	0	45	104	29678895104	60	48650
2026-01-20 22:03:27.91	144.66	4.25	-49.4	-51.9	6.1	0.00e+00	0	45	104	29678895104	60	48137
2026-01-20 22:03:28.92	144.78	4.19	-49.5	-52.0	6.1	0.00e+00	0	45	104	29678895104	60	48682
2026-01-20 22:03:29.93	144.89	4.13	-49.4	-51.9	6.1	0.00e+00	0	45	104	29678895104	60	48136
2026-01-20 22:03:30.94	145.01	4.06	-49.4	-51.9	6.0	0.00e+00	0	45	104	29678895104	60	48154
2026-01-20 22:03:31.95	145.13	4.00	-49.4	-51.8	6.1	0.00e+00	0	45	104	29678895104	60	47770
2026-01-20 22:03:32.96	145.24	3.93	-49.4	-51.9	6.1	0.00e+00	0	45	104	29678895104	60	48470
2026-01-20 22:03:33.96	145.36	3.87	-49.3	-51.8	6.1	0.00e+00	0	45	104	29678895104	60	47714
2026-01-20 22:03:34.97	145.47	3.81	-49.4	-51.9	6.1	0.00e+00	0	45	104	29678895104	60	48238
2026-01-20 22:03:35.98	145.59	3.74	-49.1	-51.6	6.1	0.00e+00	0	45	104	29678895104	60	46531
2026-01-20 22:03:36.99	145.70	3.68	-49.4	-51.9	6.1	0.00e+00	0	45	104	29678895104	60	48412
2026-01-20 22:03:38.00	145.81	3.62	-49.3	-51.8	6.1	0.00e+00	0	45	104	29678895104	60	47425
2026-01-20 22:03:39.01	145.92	3.56	-49.2	-51.7	6.1	0.00e+00	0	45	104	29678895104	60	47302
2026-01-20 22:03:40.02	146.03	3.49	-48.9	-51.4	6.1	0.00e+00	0	45	104	29678895104	60	45556
2026-01-20 22:03:41.03	146.15	3.43	-49.4	-51.9	6.1	0.00e+00	0	45	104	29678895104	60	48078
2026-01-20 22:03:42.04	146.26	3.37	-48.8	-51.3	6.1	0.00e+00	0	45	104	29678895104	60	44928
2026-01-20 22:03:43.05	146.37	3.30	-48.8	-51.3	6.1	0.00e+00	0	45	104	29678895104	60	44923
2026-01-20 22:03:44.06	146.47	3.24	-48.6	-51.2	6.1	0.00e+00	0	45	104	29678895104	60	44275
2026-01-20 22:03:45.07	146.58	3.18	-48.5	-51.0	6.1	0.00e+00	0	45	104	29678895104	60	43494
2026-01-20 22:03:46.08	146.69	3.12	-48.4	-50.9	6.1	0.00e+00	0	45	104	29678895104	60	43129
2026-01-20 22:03:47.08	146.80	3.06	-48.2	-50.8	6.1	0.00e+00	0	45	104	29678895104	60	42301
2026-01-20 22:03:48.09	146.90	2.99	-49.1	-51.6	6.1	0.00e+00	0	45	104	29678895104	60	46492
2026-01-20 22:03:49.10	147.01	2.93	-48.8	-51.3	6.1	0.00e+00	0	45	104	29678895104	60	44901
2026-01-20 22:03:50.11	147.12	2.87	-50.4	-52.9	6.0	0.00e+00	0	45	104	29678895104	60	53850
2026-01-20 22:03:51.12	147.22	2.81	-50.6	-53.1	6.1	0.00e+00	0	45	104	29678895104	60	55214
2026-01-20 22:03:52.13	147.33	2.75	-50.7	-53.1	6.1	0.00e+00	0	45	104	29678895104	60	55309
2026-01-20 22:03:53.14	147.43	2.69	-50.9	-53.4	6.1	0.00e+00	0	45	104	29678895104	60	57105
2026-01-20 22:03:54.15	147.53	2.62	-51.1	-53.6	6.1	0.00e+00	0	45	104	29678895104	60	58295
2026-01-20 22:03:55.16	147.64	2.56	-51.2	-53.7	6.1	0.00e+00	0	45	104	29678895104	60	59254
2026-01-20 22:03:56.17	147.74	2.50	-51.3	-53.8	6.1	0.00e+00	0	45	104	29678895104	60	59854
2026-01-20 22:03:57.18	147.84	2.44	-51.3	-53.8	6.1	0.00e+00	0	45	104	29678895104	60	60016
2026-01-20 22:03:58.19	147.94	2.38	-51.3	-53.8	6.1	0.00e+00	0	45	104	29678895104	60	59807
2026-01-20 22:03:59.20	148.04	2.32	-51.3	-53.7	6.1	0.00e+00	0	45	104	29678895104	60	59510
2026-01-20 22:04:00.21	148.15	2.26	-51.4	-53.8	6.1	0.00e+00	0	45	104	29678895104	60	60307
2026-01-20 22:04:01.22	148.25	2.20	-51.4	-53.9	6.1	0.00e+00	0	45	104	29678895104	60	60679
2026-01-20 22:04:02.23	148.35	2.14	-51.4	-53.9	6.1	0.00e+00	0	45	104	29678895104	60	60823
2026-01-20 22:04:03.24	148.44	2.08	-51.5	-53.9	6.1	0.00e+00	0	45	104	29678895104	60	60914
2026-01-20 22:04:04.25	148.54	2.02	-51.6	-54.0	6.1	0.00e+00	0	45	104	29678895104	60	61566
2026-01-20 22:04:05.26	148.64	1.96	-51.6	-54.0	6.1	0.00e+00	0	45	104	29678895104	60	61576
2026-01-20 22:04:06.27	148.74	1.90	-51.6	-54.1	6.1	0.00e+00	0	45	104	29678895104	60	61873
2026-01-20 22:04:07.28	148.84	1.84	-51.6	-54.0	6.1	0.00e+00	0	45	104	29678895104	60	61457
2026-01-20 22:04:08.29	148.93	1.78	-51.6	-54.0	6.1	0.00e+00	0	45	104	29678895104	60	61487
2026-01-20 22:04:09.30	149.03	1.72	-51.6	-54.1	6.0	0.00e+00	0	45	104	29678895104	60	61836
2026-01-20 22:04:10.31	149.12	1.66	-51.6	-54.0	6.1	0.00e+00	0	45	104	29678895104	60	61125
2026-01-20 22:04:11.32	149.22	1.60	-51.6	-54.1	6.1	0.00e+00	0	45	104	29678895104	60	62137
2026-01-20 22:04:12.33	149.31	1.54	-51.6	-54.0	6.1	0.00e+00	0	45	104	29678895104	60	61732
2026-01-20 22:04:13.34	149.41	1.48	-51.6	-54.1	6.1	0.00e+00	0	45	104	29678895104	60	62082
2026-01-20 22:04:14.35	149.50	1.42	-51.6	-54.0	6.1	0.00e+00	0	45	104	29678895104	60	61704
2026-01-20 22:04:15.36	149.60	1.36	-51.6	-54.0	6.1	0.00e+00	0	45	104	29678895104	60	61481
2026-01-20 22:04:16.37	149.69	1.30	-51.6	-54.0	6.1	0.00e+00	0	45	104	29678895104	60	61598
2026-01-20 22:04:17.38	149.78	1.25	-51.6	-54.1	6.1	0.00e+00	0	45	104	29678895104	60	61792
2026-01-20 22:04:18.39	149.87	1.19	-51.6	-54.1	6.1	0.00e+00	0	45	104	29678895104	60	62081
2026-01-20 22:04:19.40	149.97	1.13	-51.6	-54.0	6.1	0.00e+00	0	45	104	29678895104	60	61607
2026-01-20 22:04:20.41	150.06	1.07	-51.6	-54.1	6.1	0.00e+00	0	45	104	29678895104	60	61811
2026-01-20 22:04:21.42	150.15	1.01	-51.6	-54.0	6.1	0.00e+00	0	45	104	29678895104	60	61486
2026-01-20 22:04:22.43	150.24	0.95	-51.6	-54.0	6.1	0.00e+00	0	45	104	29678895104	60	61475
2026-01-20 22:04:23.45	150.33	0.89	-51.6	-54.0	6.1	0.00e+00	0	45	104	29678895104	60	61638
2026-01-20 22:04:24.46	150.42	0.84	-51.6	-54.0	6.1	0.00e+00	0	45	104	29678895104	60	61589
2026-01-20 22:04:25.47	150.51	0.78	-51.6	-54.1	6.1	0.00e+00	0	45	104	29678895104	60	61973
2026-01-20 22:04:26.48	150.59	0.72	-51.6	-54.1	6.1	0.00e+00	0	45	104	29678895104	60	61796
2026-01-20 22:04:27.48	150.68	0.66	-51.6	-54.0	6.1	0.00e+00	0	45	104	29678895104	60	61500
2026-01-20 22:04:28.49	150.77	0.61	-51.6	-54.1	6.1	0.00e+00	0	45	104	29678895104	60	61845
2026-01-20 22:04:29.50	150.86	0.55	-51.6	-54.1	6.1	0.00e+00	0	45	104	29678895104	60	61793
2026-01-20 22:04:30.51	150.94	0.49	-51.6	-54.0	6.1	0.00e+00	0	45	104	29678895104	60	61543
2026-01-20 22:04:31.52	151.03	0.43	-51.6	-54.1	6.1	0.00e+00	0	45	104	29678895104	60	61771
2026-01-20 22:04:32.53	151.12	0.38	-51.6	-54.1	6.1	0.00e+00	0	45	104	29678895104	60	61828
2026-01-20 22:04:33.54	151.20	0.32	-51.5	-54.1	6.1	0.00e+00	0	45	104	29678895104	60	62074
2026-01-20 22:04:34.55	151.29	0.26	-51.6	-54.0	6.1	0.00e+00	0	45	104	29678895104	60	61610
2026-01-20 22:04:35.56	151.37	0.21	-51.6	-54.1	6.1	0.00e+00	0	45	104	29678895104	60	61867
2026-01-20 22:04:36.57	151.46	0.15	-51.6	-54.1	6.1	0.00e+00	0	45	104	29678895104	60	61796
2026-01-20 22:04:37.58	151.54	0.09	-51.6	-54.0	6.1	0.00e+00	0	45	104	29678895104	60	61493
2026-01-20 22:04:38.59	151.63	0.04	-51.6	-54.0	6.1	0.00e+00	0	45	104	29678895104	60	61601
2026-01-20 22:04:39.60	151.71	-0.02	-51.6	-54.0	6.1	0.00e+00	0	45	104	29678895104	60	61724
2026-01-20 22:04:40.61	151.79	-0.08	-51.6	-54.0	6.1	0.00e+00	0	45	104	29678895104	60	61516
2026-01-20 22:04:41.62	151.87	-0.13	-51.6	-54.0	6.1	0.00e+00	0	45	104	29678895104	60	61574

#Closed at: 2026-01-20 22:04:41
#Recorded file [29678 MB]: D:/lorett/data/35029_260121_095440.dat