passes_logs/2026/01/20/R4.6S_Anadyr/R4.6S_Anadyr__20260120_190928_FENGYUN_3D_rec.log

#Pass ID: 20260120_190928_FENGYUN 3D
#Satellite: FENGYUN 3D
#Configuration: FENGYUN 3D
#almurnet v.1.7.20251203
#Start time: 2026-01-20 19:09:31

#Version: 2.2.20231116
#Station: R4.6S_Anadyr
#Location: 177.4865 lon 64.73178 lat
#TLE: 1 43010U 17072A   26019.93695019 -.00000250  00000+0 -96545-4 0  9996
#TLE: 2 43010  98.9942 351.8290 0002452 100.7901 259.3550 14.19695974423957

#Time	Az	El	Level	Level2	SNR	BER	BlckErr	Temp	State	Recorded	gain1	gain2
2026-01-20 19:09:31.88	30.00	0.17	-52.1	-62.8	3.3	8.41e-01	0	41	0	0	60	50179
2026-01-20 19:09:32.89	29.95	0.23	-51.8	-64.0	3.6	8.46e-01	0	41	104	0	60	57150
2026-01-20 19:09:33.90	29.89	0.28	-51.7	-63.8	3.6	8.45e-01	0	41	104	0	60	56028
2026-01-20 19:09:34.91	29.84	0.34	-51.6	-63.8	3.6	8.44e-01	0	41	104	0	60	55947
2026-01-20 19:09:35.92	29.79	0.40	-51.5	-63.7	3.6	8.45e-01	0	41	104	0	60	55451
2026-01-20 19:09:36.93	29.73	0.45	-51.6	-63.7	3.6	8.44e-01	0	41	104	0	60	55266
2026-01-20 19:09:37.94	29.68	0.51	-51.6	-63.7	3.6	8.46e-01	0	41	104	0	60	55555
2026-01-20 19:09:38.95	29.63	0.56	-51.4	-63.6	3.6	8.45e-01	0	41	104	0	60	54437
2026-01-20 19:09:39.96	29.57	0.62	-51.3	-63.4	3.6	8.46e-01	0	41	104	0	60	53723
2026-01-20 19:09:40.97	29.52	0.68	-51.2	-63.3	3.6	8.45e-01	0	41	104	0	60	52876
2026-01-20 19:09:41.98	29.46	0.73	-51.2	-63.4	3.6	8.46e-01	0	41	104	0	60	53383
2026-01-20 19:09:42.99	29.41	0.79	-51.1	-63.2	3.6	8.45e-01	0	41	104	0	60	52378
2026-01-20 19:09:44.00	29.35	0.84	-51.1	-63.2	3.6	8.45e-01	0	41	104	0	60	52343
2026-01-20 19:09:45.01	29.30	0.90	-51.0	-63.2	3.6	8.45e-01	0	41	104	0	60	51949
2026-01-20 19:09:46.02	29.24	0.96	-50.8	-63.0	3.6	8.45e-01	0	41	104	0	60	51070
2026-01-20 19:09:47.03	29.19	1.01	-50.7	-62.9	3.6	8.45e-01	0	41	104	0	60	50287
2026-01-20 19:09:48.04	29.13	1.07	-50.7	-62.8	3.6	8.45e-01	0	41	104	0	60	50110
2026-01-20 19:09:49.05	29.08	1.13	-50.6	-62.7	3.6	8.45e-01	0	41	104	0	60	49306
2026-01-20 19:09:50.06	29.02	1.18	-50.4	-62.5	3.6	8.45e-01	0	41	104	0	60	48284
2026-01-20 19:09:51.07	28.96	1.24	-50.3	-62.4	3.6	8.46e-01	0	41	104	0	60	47873
2026-01-20 19:09:52.08	28.91	1.30	-49.9	-62.0	3.6	8.44e-01	0	41	104	0	60	45640
2026-01-20 19:09:53.09	28.85	1.35	-49.6	-61.6	3.6	8.46e-01	0	41	104	0	60	43215
2026-01-20 19:09:54.10	28.79	1.41	-49.5	-61.5	3.6	8.46e-01	0	41	104	0	60	42930
2026-01-20 19:09:55.11	28.73	1.47	-49.5	-61.6	3.6	8.46e-01	0	41	104	0	60	43288
2026-01-20 19:09:56.12	28.68	1.53	-49.5	-61.6	3.6	8.45e-01	0	41	104	0	60	43255
2026-01-20 19:09:57.13	28.62	1.58	-49.5	-61.6	3.6	8.45e-01	0	42	104	0	60	43285
2026-01-20 19:09:58.14	28.56	1.64	-49.5	-61.6	3.6	8.44e-01	0	41	104	0	60	43310
2026-01-20 19:09:59.15	28.50	1.70	-49.5	-61.6	3.6	8.45e-01	0	41	104	0	60	43273
2026-01-20 19:10:00.16	28.44	1.76	-49.5	-61.6	3.6	8.46e-01	0	41	104	0	60	43305
2026-01-20 19:10:01.17	28.39	1.81	-49.5	-61.6	3.6	8.45e-01	0	42	104	0	60	43535
2026-01-20 19:10:02.18	28.33	1.87	-49.5	-61.5	3.6	8.45e-01	0	42	104	0	60	43024
2026-01-20 19:10:03.19	28.27	1.93	-49.5	-61.4	3.6	8.45e-01	0	41	104	0	60	42248
2026-01-20 19:10:04.20	28.21	1.99	-49.4	-61.1	3.6	8.46e-01	0	41	104	0	60	40835
2026-01-20 19:10:05.21	28.15	2.05	-49.4	-60.7	3.6	8.44e-01	0	41	104	0	60	39119
2026-01-20 19:10:06.22	28.09	2.10	-49.4	-61.1	3.6	8.45e-01	0	41	104	0	60	41137
2026-01-20 19:10:07.23	28.03	2.16	-49.4	-60.8	3.6	8.45e-01	0	42	104	0	60	39562
2026-01-20 19:10:08.24	27.97	2.22	-49.4	-61.3	3.6	8.44e-01	0	42	104	0	60	42046
2026-01-20 19:10:09.25	27.90	2.28	-49.4	-61.4	3.6	8.44e-01	0	41	104	0	60	42483
2026-01-20 19:10:10.27	27.84	2.34	-49.4	-61.5	3.6	8.45e-01	0	42	104	0	60	42948
2026-01-20 19:10:11.28	27.78	2.40	-49.4	-61.5	3.6	8.45e-01	0	41	104	0	60	43171
2026-01-20 19:10:12.29	27.72	2.46	-49.4	-61.5	3.6	8.46e-01	0	42	104	0	60	43091
2026-01-20 19:10:13.30	27.66	2.52	-49.4	-61.6	3.6	8.44e-01	0	41	104	0	60	43211
2026-01-20 19:10:14.31	27.60	2.57	-49.4	-61.5	3.6	8.45e-01	0	42	104	0	60	42901
2026-01-20 19:10:15.32	27.53	2.63	-49.4	-60.9	3.6	8.45e-01	0	42	104	0	60	40006
2026-01-20 19:10:16.33	27.47	2.69	-49.4	-60.8	3.6	8.47e-01	0	42	104	0	60	39601
2026-01-20 19:10:17.34	27.41	2.75	-49.3	-60.4	3.5	8.46e-01	0	42	104	0	60	37670
2026-01-20 19:10:18.35	27.34	2.81	-49.3	-59.7	3.6	8.45e-01	0	42	104	0	60	34868
2026-01-20 19:10:19.36	27.28	2.87	-49.4	-61.0	3.6	8.45e-01	0	42	104	0	60	40773
2026-01-20 19:10:20.37	27.22	2.93	-49.4	-61.1	3.6	8.46e-01	0	42	104	0	60	40823
2026-01-20 19:10:21.38	27.15	2.99	-49.3	-60.3	3.6	8.45e-01	0	42	104	0	60	37562
2026-01-20 19:10:22.39	27.09	3.05	-48.9	-56.9	4.5	8.23e-01	0	42	0	0	60	25370
2026-01-20 19:10:23.40	27.02	3.11	-47.4	-50.8	9.5	2.26e-01	0	42	0	3145728	60	12548
2026-01-20 19:10:24.41	26.96	3.17	-47.0	-50.3	10.0	7.79e-03	0	41	0	8388608	60	11877
2026-01-20 19:10:25.42	26.89	3.23	-44.8	-46.8	13.7	5.70e-06	0	41	0	14680064	60	7914
2026-01-20 19:10:26.43	26.83	3.29	-46.4	-49.3	10.9	1.87e-03	0	41	0	19922944	60	10593
2026-01-20 19:10:27.44	26.76	3.35	-47.5	-51.6	7.8	1.19e-04	0	42	0	26214400	60	13799
2026-01-20 19:10:28.45	26.70	3.41	-47.2	-50.9	5.8	8.44e-01	0	42	104	26214400	60	12623
2026-01-20 19:10:29.46	26.63	3.47	-42.8	-44.3	12.6	0.00e+00	0	41	104	26214400	52	9352
2026-01-20 19:10:30.47	26.56	3.53	-49.0	-57.1	4.5	8.44e-01	0	42	104	26214400	60	25950
2026-01-20 19:10:31.48	26.50	3.59	-40.0	-41.0	19.4	5.07e-02	0	42	104	26214400	58	4551
2026-01-20 19:10:32.49	26.43	3.65	-42.3	-43.6	17.8	0.00e+00	0	42	0	30408704	56	6855
2026-01-20 19:10:33.50	26.36	3.71	-41.1	-42.1	19.2	0.00e+00	0	42	0	36700160	54	6508
2026-01-20 19:10:34.51	26.29	3.77	-40.0	-41.0	19.7	0.00e+00	0	42	0	41943040	54	5722
2026-01-20 19:10:35.52	26.23	3.83	-39.5	-40.5	20.0	0.00e+00	0	42	0	48234496	50	6802
2026-01-20 19:10:36.53	26.16	3.89	-40.3	-41.3	19.4	0.00e+00	0	42	0	53477376	52	6621
2026-01-20 19:10:37.54	26.09	3.96	-38.0	-38.8	22.1	0.00e+00	0	42	0	59768832	50	5630
2026-01-20 19:10:38.55	26.02	4.02	-38.9	-39.8	21.0	0.00e+00	0	42	0	65011712	50	6265
2026-01-20 19:10:39.56	25.95	4.08	-38.5	-39.4	21.5	0.00e+00	0	42	0	71303168	50	5979
2026-01-20 19:10:40.57	25.88	4.14	-38.3	-39.2	21.6	0.00e+00	0	42	0	76546048	50	5832
2026-01-20 19:10:41.57	25.81	4.20	-38.9	-39.8	21.0	0.00e+00	0	42	0	81788928	50	6261
2026-01-20 19:10:42.59	25.74	4.26	-38.1	-38.9	21.9	0.00e+00	0	42	0	88080384	50	5660
2026-01-20 19:10:43.60	25.67	4.32	-39.0	-39.8	20.8	0.00e+00	0	42	0	93323264	50	6317
2026-01-20 19:10:44.61	25.60	4.39	-38.8	-39.7	21.3	0.00e+00	0	42	0	99614720	52	5512
2026-01-20 19:10:45.62	25.53	4.45	-38.8	-39.7	21.2	0.00e+00	0	42	0	104857600	50	6208
2026-01-20 19:10:46.63	25.46	4.51	-39.3	-40.2	20.6	0.00e+00	0	42	0	110100480	50	6547
2026-01-20 19:10:47.64	25.38	4.57	-37.4	-38.1	22.5	0.00e+00	0	42	0	116391936	48	5824
2026-01-20 19:10:48.65	25.31	4.63	-38.4	-39.2	21.5	0.00e+00	0	42	0	121634816	48	6581
2026-01-20 19:10:49.66	25.24	4.70	-38.3	-39.1	21.5	0.00e+00	0	42	0	127926272	48	6481
2026-01-20 19:10:50.67	25.17	4.76	-38.1	-38.9	21.6	0.00e+00	0	42	0	133169152	48	6325
2026-01-20 19:10:51.68	25.09	4.82	-38.4	-39.2	21.6	0.00e+00	0	42	0	138412032	50	5883
2026-01-20 19:10:52.69	25.02	4.88	-37.3	-38.0	22.7	0.00e+00	0	42	0	144703488	48	5752
2026-01-20 19:10:53.70	24.95	4.95	-38.7	-39.6	21.3	0.00e+00	0	42	0	149946368	48	6872
2026-01-20 19:10:54.71	24.87	5.01	-38.1	-38.9	21.9	0.00e+00	0	42	0	156237824	48	6388
2026-01-20 19:10:55.72	24.80	5.07	-38.9	-39.8	21.0	0.00e+00	0	42	0	161480704	48	7017
2026-01-20 19:10:56.73	24.72	5.13	-39.1	-40.0	21.2	0.00e+00	0	42	0	167772160	50	6393
2026-01-20 19:10:57.75	24.65	5.20	-38.2	-39.0	21.9	0.00e+00	0	42	0	173015040	50	5760
2026-01-20 19:10:58.76	24.57	5.26	-38.3	-39.1	21.8	0.00e+00	0	42	0	179306496	50	5803
2026-01-20 19:10:59.77	24.49	5.32	-38.5	-39.4	21.7	0.00e+00	0	42	0	184549376	50	5965
2026-01-20 19:11:00.78	24.42	5.39	-38.5	-39.4	21.7	0.00e+00	0	42	0	189792256	50	5988
2026-01-20 19:11:01.79	24.34	5.45	-38.0	-38.8	22.1	0.00e+00	0	42	0	196083712	50	5586
2026-01-20 19:11:02.80	24.27	5.52	-38.3	-39.0	21.9	0.00e+00	0	42	0	201326592	50	5759
2026-01-20 19:11:03.81	24.19	5.58	-37.8	-38.6	22.4	0.00e+00	0	42	0	207618048	48	6137
2026-01-20 19:11:04.82	24.11	5.64	-38.1	-38.9	22.2	0.00e+00	0	42	0	212860928	48	6348
2026-01-20 19:11:05.82	24.03	5.71	-38.3	-39.1	21.6	0.00e+00	0	42	0	218103808	48	6524
2026-01-20 19:11:06.83	23.95	5.77	-38.0	-38.7	22.2	0.00e+00	0	42	0	224395264	48	6239
2026-01-20 19:11:07.84	23.88	5.83	-37.2	-37.9	23.0	0.00e+00	0	42	0	229638144	48	5679
2026-01-20 19:11:08.85	23.80	5.90	-38.1	-38.9	22.3	0.00e+00	0	42	0	235929600	48	6339
2026-01-20 19:11:09.86	23.72	5.96	-38.5	-39.3	21.9	0.00e+00	0	42	0	241172480	48	6647
2026-01-20 19:11:10.87	23.64	6.03	-38.2	-39.1	22.2	0.00e+00	0	42	0	246415360	48	6471
2026-01-20 19:11:11.88	23.56	6.09	-37.8	-38.6	22.3	0.00e+00	0	42	0	252706816	48	6108
2026-01-20 19:11:12.89	23.48	6.16	-37.9	-38.7	22.4	0.00e+00	0	42	0	257949696	48	6206
2026-01-20 19:11:13.90	23.40	6.22	-37.3	-38.0	23.1	0.00e+00	0	42	0	264241152	48	5759
2026-01-20 19:11:14.91	23.31	6.29	-37.9	-38.7	22.5	0.00e+00	0	42	0	269484032	48	6184
2026-01-20 19:11:15.91	23.23	6.35	-38.2	-39.0	22.2	0.00e+00	0	42	0	275775488	48	6422
2026-01-20 19:11:16.93	23.15	6.42	-38.5	-39.3	22.0	0.00e+00	0	42	0	281018368	48	6634
2026-01-20 19:11:17.93	23.07	6.48	-37.7	-38.5	22.8	0.00e+00	0	42	0	286261248	48	6044
2026-01-20 19:11:18.94	22.99	6.55	-37.8	-38.6	22.6	0.00e+00	0	42	0	292552704	48	6158
2026-01-20 19:11:19.95	22.90	6.61	-38.1	-38.9	22.3	0.00e+00	0	42	0	297795584	48	6362
2026-01-20 19:11:20.97	22.82	6.68	-38.3	-39.1	22.3	0.00e+00	0	42	0	304087040	50	5828
2026-01-20 19:11:21.98	22.73	6.74	-38.4	-39.2	22.1	0.00e+00	0	42	0	309329920	50	5857
2026-01-20 19:11:22.98	22.65	6.81	-37.5	-38.3	22.9	0.00e+00	0	42	0	314572800	48	5927
2026-01-20 19:11:23.99	22.57	6.87	-38.7	-39.6	21.9	0.00e+00	0	42	0	320864256	48	6862
2026-01-20 19:11:25.00	22.48	6.94	-38.3	-39.1	22.2	0.00e+00	0	42	0	326107136	48	6511
2026-01-20 19:11:26.01	22.40	7.01	-37.9	-38.7	22.7	0.00e+00	0	42	0	332398592	48	6217
2026-01-20 19:11:27.02	22.31	7.07	-37.7	-38.5	22.8	0.00e+00	0	42	0	337641472	48	6036
2026-01-20 19:11:28.04	22.22	7.14	-37.5	-38.3	23.0	0.00e+00	0	42	0	342884352	48	5929
2026-01-20 19:11:29.05	22.14	7.20	-37.4	-38.2	23.0	0.00e+00	0	42	0	349175808	48	5838
2026-01-20 19:11:30.06	22.05	7.27	-37.8	-38.6	22.8	0.00e+00	0	42	0	354418688	48	6117
2026-01-20 19:11:31.07	21.96	7.34	-37.2	-38.0	23.3	0.00e+00	0	42	0	360710144	48	5698
2026-01-20 19:11:32.08	21.87	7.40	-37.3	-38.1	23.2	0.00e+00	0	42	0	365953024	48	5765
2026-01-20 19:11:33.09	21.78	7.47	-37.7	-38.5	22.8	0.00e+00	0	42	0	372244480	48	6064
2026-01-20 19:11:34.10	21.70	7.54	-37.2	-38.0	23.4	0.00e+00	0	42	0	377487360	48	5698
2026-01-20 19:11:35.11	21.61	7.61	-37.3	-38.1	23.2	0.00e+00	0	42	0	383778816	48	5792
2026-01-20 19:11:36.12	21.52	7.67	-37.1	-37.8	23.5	0.00e+00	0	42	0	389021696	48	5599
2026-01-20 19:11:37.13	21.43	7.74	-37.2	-37.9	23.3	0.00e+00	0	42	0	394264576	48	5680
2026-01-20 19:11:38.14	21.34	7.81	-37.3	-38.1	23.2	0.00e+00	0	42	0	400556032	48	5768
2026-01-20 19:11:39.15	21.24	7.87	-37.4	-38.2	23.2	0.00e+00	0	42	0	405798912	48	5879
2026-01-20 19:11:40.16	21.15	7.94	-37.2	-38.0	23.3	0.00e+00	0	42	0	412090368	48	5710
2026-01-20 19:11:41.17	21.06	8.01	-37.3	-38.1	23.1	0.00e+00	0	42	0	417333248	48	5781
2026-01-20 19:11:42.18	20.97	8.08	-37.5	-38.3	23.1	0.00e+00	0	42	0	422576128	48	5925
2026-01-20 19:11:43.18	20.88	8.14	-37.1	-37.8	23.5	0.00e+00	0	42	0	428867584	48	5615
2026-01-20 19:11:44.19	20.78	8.21	-37.2	-38.0	23.3	0.00e+00	0	42	0	434110464	48	5733
2026-01-20 19:11:45.21	20.69	8.28	-37.0	-37.7	23.6	0.00e+00	0	42	0	440401920	48	5536
2026-01-20 19:11:46.22	20.59	8.35	-37.0	-37.8	23.6	0.00e+00	0	42	0	445644800	48	5575
2026-01-20 19:11:47.23	20.50	8.42	-37.1	-37.9	23.4	0.00e+00	0	42	0	450887680	46	6356
2026-01-20 19:11:48.23	20.41	8.49	-37.1	-37.8	23.5	0.00e+00	0	42	0	457179136	46	6296
2026-01-20 19:11:49.24	20.31	8.55	-36.9	-37.7	23.7	0.00e+00	0	42	0	462422016	46	6204
2026-01-20 19:11:50.25	20.21	8.62	-37.2	-38.0	23.3	0.00e+00	0	42	0	468713472	46	6405
2026-01-20 19:11:51.26	20.12	8.69	-37.1	-37.8	23.5	0.00e+00	0	42	0	473956352	46	6295
2026-01-20 19:11:52.27	20.02	8.76	-37.2	-38.0	23.5	0.00e+00	0	42	0	480247808	46	6411
2026-01-20 19:11:53.28	19.92	8.83	-37.1	-37.8	23.5	0.00e+00	0	42	0	485490688	46	6287
2026-01-20 19:11:54.29	19.82	8.90	-36.9	-37.6	23.7	0.00e+00	0	42	0	490733568	46	6171
2026-01-20 19:11:55.30	19.73	8.97	-37.4	-38.1	23.4	0.00e+00	0	42	0	497025024	46	6534
2026-01-20 19:11:56.31	19.63	9.04	-37.2	-37.9	23.5	0.00e+00	0	42	0	502267904	46	6376
2026-01-20 19:11:57.32	19.53	9.11	-37.2	-37.9	23.4	0.00e+00	0	42	0	508559360	46	6369
2026-01-20 19:11:58.33	19.43	9.18	-37.1	-37.8	23.5	0.00e+00	0	42	0	513802240	46	6287
2026-01-20 19:11:59.34	19.33	9.24	-37.1	-37.8	23.7	0.00e+00	0	42	0	519045120	46	6299
2026-01-20 19:12:00.35	19.23	9.31	-37.0	-37.7	23.7	0.00e+00	0	42	0	525336576	46	6209
2026-01-20 19:12:01.36	19.12	9.38	-36.9	-37.6	23.8	0.00e+00	0	42	0	530579456	46	6154
2026-01-20 19:12:02.37	19.02	9.45	-37.0	-37.7	23.8	0.00e+00	0	42	0	536870912	46	6207
2026-01-20 19:12:03.38	18.92	9.52	-36.7	-37.5	23.9	0.00e+00	0	42	0	542113792	46	6034
2026-01-20 19:12:04.39	18.82	9.59	-36.7	-37.4	24.0	0.00e+00	0	42	0	547356672	46	6029
2026-01-20 19:12:05.40	18.71	9.66	-36.6	-37.3	24.1	0.00e+00	0	42	0	553648128	46	5916
2026-01-20 19:12:06.41	18.61	9.74	-36.7	-37.4	24.1	0.00e+00	0	42	0	558891008	46	6024
2026-01-20 19:12:07.42	18.51	9.81	-36.5	-37.2	24.1	0.00e+00	0	42	0	565182464	46	5895
2026-01-20 19:12:08.43	18.40	9.88	-36.8	-37.5	23.8	0.00e+00	0	42	0	570425344	46	6093
2026-01-20 19:12:09.44	18.29	9.95	-36.7	-37.4	24.0	0.00e+00	0	42	0	576716800	46	6007
2026-01-20 19:12:10.45	18.19	10.02	-36.5	-37.2	24.2	0.00e+00	0	42	0	581959680	46	5852
2026-01-20 19:12:11.46	18.08	10.09	-36.5	-37.2	24.1	0.00e+00	0	42	0	588251136	46	5895
2026-01-20 19:12:12.47	17.97	10.16	-36.5	-37.2	24.1	0.00e+00	0	42	0	593494016	46	5843
2026-01-20 19:12:13.48	17.87	10.23	-36.6	-37.3	24.1	0.00e+00	0	42	0	598736896	46	5919
2026-01-20 19:12:14.49	17.76	10.30	-36.4	-37.1	24.3	0.00e+00	0	42	0	605028352	46	5816
2026-01-20 19:12:15.50	17.65	10.37	-36.3	-37.1	24.4	0.00e+00	0	42	0	610271232	46	5766
2026-01-20 19:12:16.51	17.54	10.44	-36.6	-37.4	24.1	0.00e+00	0	42	0	616562688	46	5974
2026-01-20 19:12:17.52	17.43	10.52	-36.7	-37.4	24.1	0.00e+00	0	42	0	621805568	46	5976
2026-01-20 19:12:18.53	17.32	10.59	-36.6	-37.3	24.2	0.00e+00	0	42	0	627048448	46	5949
2026-01-20 19:12:19.54	17.21	10.66	-36.6	-37.3	24.2	0.00e+00	0	42	0	633339904	46	5950
2026-01-20 19:12:20.55	17.10	10.73	-36.5	-37.2	24.1	0.00e+00	0	42	0	638582784	46	5875
2026-01-20 19:12:21.56	16.99	10.80	-37.0	-37.8	23.8	0.00e+00	0	42	0	644874240	46	6251
2026-01-20 19:12:22.57	16.87	10.88	-36.8	-37.5	24.0	0.00e+00	0	42	0	650117120	46	6060
2026-01-20 19:12:23.58	16.76	10.95	-36.7	-37.5	23.9	0.00e+00	0	42	0	655360000	46	6053
2026-01-20 19:12:24.59	16.65	11.02	-37.1	-37.8	23.9	0.00e+00	0	42	0	661651456	46	6298
2026-01-20 19:12:25.60	16.53	11.09	-36.7	-37.4	24.2	0.00e+00	0	42	0	666894336	46	5997
2026-01-20 19:12:26.61	16.42	11.16	-36.7	-37.4	24.2	0.00e+00	0	42	0	673185792	46	5979
2026-01-20 19:12:27.62	16.30	11.24	-36.6	-37.3	24.2	0.00e+00	0	42	0	678428672	46	5937
2026-01-20 19:12:28.63	16.18	11.31	-36.6	-37.3	24.3	0.00e+00	0	42	0	684720128	46	5931
2026-01-20 19:12:29.64	16.07	11.38	-36.6	-37.3	24.1	0.00e+00	0	42	0	689963008	46	5932
2026-01-20 19:12:30.65	15.95	11.45	-36.6	-37.3	24.2	0.00e+00	0	42	0	696254464	46	5915
2026-01-20 19:12:31.66	15.83	11.53	-36.6	-37.3	24.2	0.00e+00	0	42	0	701497344	46	5948
2026-01-20 19:12:32.67	15.71	11.60	-36.4	-37.1	24.4	0.00e+00	0	42	0	706740224	46	5780
2026-01-20 19:12:33.68	15.59	11.67	-36.4	-37.1	24.4	0.00e+00	0	42	0	713031680	46	5825
2026-01-20 19:12:34.69	15.47	11.75	-36.3	-37.0	24.5	0.00e+00	0	42	0	718274560	46	5703
2026-01-20 19:12:35.69	15.36	11.82	-36.3	-37.0	24.4	0.00e+00	0	42	0	723517440	46	5749
2026-01-20 19:12:36.71	15.23	11.89	-36.3	-37.0	24.5	0.00e+00	0	42	0	729808896	46	5730
2026-01-20 19:12:37.72	15.11	11.97	-36.4	-37.1	24.4	0.00e+00	0	42	0	735051776	46	5773
2026-01-20 19:12:38.73	14.99	12.04	-36.6	-37.4	24.2	0.00e+00	0	42	0	741343232	46	5983
2026-01-20 19:12:39.74	14.87	12.11	-36.6	-37.2	24.3	0.00e+00	0	42	0	746586112	46	5880
2026-01-20 19:12:40.75	14.74	12.19	-36.1	-36.8	24.6	0.00e+00	0	42	0	752877568	46	5584
2026-01-20 19:12:41.76	14.62	12.26	-36.2	-36.9	24.6	0.00e+00	0	42	0	758120448	46	5689
2026-01-20 19:12:42.77	14.49	12.34	-36.1	-36.8	24.7	0.00e+00	0	42	0	763363328	46	5580
2026-01-20 19:12:43.78	14.37	12.41	-36.0	-36.7	24.7	0.00e+00	0	42	0	769654784	46	5507
2026-01-20 19:12:44.79	14.24	12.48	-35.8	-36.5	25.0	0.00e+00	0	42	0	774897664	46	5419
2026-01-20 19:12:45.80	14.12	12.56	-35.8	-36.5	24.9	0.00e+00	0	42	0	781189120	46	5403
2026-01-20 19:12:46.81	13.99	12.63	-35.9	-36.6	24.8	0.00e+00	0	42	0	786432000	46	5479
2026-01-20 19:12:47.82	13.86	12.71	-35.8	-36.5	24.9	0.00e+00	0	42	0	792723456	46	5396
2026-01-20 19:12:48.83	13.73	12.78	-35.8	-36.5	24.9	0.00e+00	0	42	0	797966336	46	5411
2026-01-20 19:12:49.84	13.60	12.86	-35.8	-36.5	24.9	0.00e+00	0	42	0	803209216	46	5409
2026-01-20 19:12:50.85	13.47	12.93	-35.6	-36.3	25.1	0.00e+00	0	42	0	809500672	44	5937
2026-01-20 19:12:51.86	13.34	13.00	-35.6	-36.3	25.1	0.00e+00	0	42	0	814743552	44	5932
2026-01-20 19:12:52.87	13.21	13.08	-35.6	-36.3	25.1	0.00e+00	0	42	0	821035008	44	5918
2026-01-20 19:12:53.88	13.08	13.15	-35.5	-36.2	25.2	0.00e+00	0	42	0	826277888	44	5866
2026-01-20 19:12:54.89	12.94	13.23	-35.5	-36.1	25.2	0.00e+00	0	42	0	831520768	44	5827
2026-01-20 19:12:55.90	12.81	13.30	-35.4	-36.1	25.2	0.00e+00	0	42	0	837812224	44	5791
2026-01-20 19:12:56.91	12.68	13.38	-35.6	-36.3	25.1	0.00e+00	0	42	0	843055104	44	5945
2026-01-20 19:12:57.92	12.54	13.45	-35.7	-36.4	25.0	0.00e+00	0	42	0	849346560	44	6023
2026-01-20 19:12:58.93	12.41	13.53	-35.6	-36.3	25.1	0.00e+00	0	42	0	854589440	44	5907
2026-01-20 19:12:59.94	12.27	13.60	-35.7	-36.5	25.0	0.00e+00	0	42	0	859832320	44	6040
2026-01-20 19:13:00.95	12.13	13.68	-35.5	-36.2	25.2	0.00e+00	0	42	0	866123776	44	5863
2026-01-20 19:13:01.96	11.99	13.76	-35.7	-36.4	25.1	0.00e+00	0	42	0	871366656	44	5967
2026-01-20 19:13:02.97	11.86	13.83	-35.6	-36.3	25.1	0.00e+00	0	42	0	877658112	44	5905
2026-01-20 19:13:03.98	11.72	13.91	-35.4	-36.1	25.3	0.00e+00	0	42	0	882900992	44	5800
2026-01-20 19:13:04.99	11.58	13.98	-35.4	-36.1	25.4	0.00e+00	0	42	0	889192448	44	5772
2026-01-20 19:13:06.00	11.44	14.06	-35.4	-36.1	25.3	0.00e+00	0	42	0	894435328	44	5796
2026-01-20 19:13:07.01	11.29	14.13	-35.5	-36.1	25.3	0.00e+00	0	42	0	900726784	44	5813
2026-01-20 19:13:08.02	11.15	14.21	-35.5	-36.2	25.2	0.00e+00	0	42	0	905969664	44	5867
2026-01-20 19:13:09.03	11.01	14.29	-35.4	-36.0	25.4	0.00e+00	0	42	0	911212544	44	5756
2026-01-20 19:13:10.04	10.87	14.36	-35.4	-36.1	25.3	0.00e+00	0	42	0	917504000	44	5773
2026-01-20 19:13:11.05	10.72	14.44	-35.3	-36.0	25.4	0.00e+00	0	42	0	922746880	44	5738
2026-01-20 19:13:12.06	10.58	14.51	-35.3	-36.0	25.5	0.00e+00	0	42	0	929038336	44	5706
2026-01-20 19:13:13.06	10.43	14.59	-35.2	-35.9	25.5	0.00e+00	0	42	0	934281216	44	5673
2026-01-20 19:13:14.08	10.28	14.67	-35.2	-35.9	25.6	0.00e+00	0	42	0	939524096	44	5633
2026-01-20 19:13:15.09	10.14	14.74	-35.1	-35.8	25.7	0.00e+00	0	42	0	945815552	44	5572
2026-01-20 19:13:16.10	9.99	14.82	-35.2	-35.9	25.5	0.00e+00	0	42	0	951058432	44	5653
2026-01-20 19:13:17.11	9.84	14.89	-35.1	-35.8	25.7	0.00e+00	0	42	0	957349888	44	5587
2026-01-20 19:13:18.11	9.69	14.97	-35.3	-36.0	25.5	0.00e+00	0	42	0	962592768	44	5733
2026-01-20 19:13:19.12	9.54	15.05	-35.2	-35.9	25.6	0.00e+00	0	42	0	967835648	44	5657
2026-01-20 19:13:20.14	9.39	15.12	-35.2	-35.8	25.5	0.00e+00	0	42	0	974127104	44	5623
2026-01-20 19:13:21.15	9.23	15.20	-35.3	-36.0	25.5	0.00e+00	0	42	0	979369984	44	5749
2026-01-20 19:13:22.16	9.08	15.28	-35.2	-35.8	25.5	0.00e+00	0	42	0	985661440	44	5610
2026-01-20 19:13:23.17	8.93	15.35	-35.1	-35.8	25.7	0.00e+00	0	42	0	990904320	44	5586
2026-01-20 19:13:24.18	8.77	15.43	-35.2	-35.9	25.6	0.00e+00	0	42	0	997195776	44	5634
2026-01-20 19:13:25.19	8.62	15.50	-34.9	-35.6	25.8	0.00e+00	0	42	0	1002438656	44	5451
2026-01-20 19:13:26.20	8.46	15.58	-35.0	-35.7	25.7	0.00e+00	0	42	0	1008730112	44	5555
2026-01-20 19:13:27.21	8.30	15.66	-35.0	-35.7	25.7	0.00e+00	0	42	0	1013972992	44	5520
2026-01-20 19:13:28.22	8.15	15.73	-35.0	-35.7	25.8	0.00e+00	0	42	0	1019215872	44	5544
2026-01-20 19:13:29.23	7.99	15.81	-35.0	-35.6	25.8	0.00e+00	0	42	0	1025507328	44	5502
2026-01-20 19:13:30.24	7.83	15.89	-34.9	-35.5	25.9	0.00e+00	0	42	0	1030750208	44	5420
2026-01-20 19:13:31.25	7.67	15.96	-34.7	-35.4	26.0	0.00e+00	0	42	0	1037041664	44	5353
2026-01-20 19:13:32.26	7.51	16.04	-34.9	-35.6	26.0	0.00e+00	0	42	0	1042284544	42	6120
2026-01-20 19:13:33.27	7.34	16.12	-34.8	-35.5	26.1	0.00e+00	0	42	0	1047527424	42	6039
2026-01-20 19:13:34.28	7.18	16.19	-34.8	-35.5	26.1	0.00e+00	0	42	0	1053818880	42	6071
2026-01-20 19:13:35.29	7.02	16.27	-34.7	-35.4	26.2	0.00e+00	0	42	0	1059061760	42	5976
2026-01-20 19:13:36.30	6.85	16.35	-34.7	-35.4	26.0	0.00e+00	0	42	0	1065353216	42	6001
2026-01-20 19:13:37.31	6.69	16.42	-34.9	-35.6	26.0	0.00e+00	0	42	0	1070596096	42	6111
2026-01-20 19:13:38.32	6.52	16.50	-35.0	-35.6	25.9	0.00e+00	0	42	0	1075838976	42	6168
2026-01-20 19:13:39.33	6.35	16.58	-34.9	-35.6	25.9	0.00e+00	0	42	0	1082130432	42	6137
2026-01-20 19:13:40.34	6.19	16.65	-34.8	-35.5	26.1	0.00e+00	0	42	0	1087373312	42	6056
2026-01-20 19:13:41.35	6.02	16.73	-34.8	-35.5	26.1	0.00e+00	0	42	0	1093664768	42	6038
2026-01-20 19:13:42.36	5.85	16.81	-34.9	-35.5	26.0	0.00e+00	0	42	0	1098907648	42	6079
2026-01-20 19:13:43.37	5.68	16.88	-35.2	-35.8	25.8	0.00e+00	0	42	0	1105199104	42	6311
2026-01-20 19:13:44.38	5.50	16.96	-35.0	-35.7	25.9	0.00e+00	0	42	0	1110441984	42	6183
2026-01-20 19:13:45.39	5.33	17.04	-34.9	-35.6	26.0	0.00e+00	0	42	0	1115684864	42	6115
2026-01-20 19:13:46.40	5.16	17.11	-35.1	-35.8	25.8	0.00e+00	0	42	0	1121976320	42	6273
2026-01-20 19:13:47.41	4.98	17.19	-35.1	-35.7	25.8	0.00e+00	0	42	0	1127219200	42	6241
2026-01-20 19:13:48.42	4.81	17.27	-35.1	-35.8	25.8	0.00e+00	0	42	0	1133510656	42	6275
2026-01-20 19:13:49.43	4.63	17.34	-35.1	-35.8	25.8	0.00e+00	0	42	0	1138753536	42	6247
2026-01-20 19:13:50.44	4.46	17.42	-34.9	-35.5	26.0	0.00e+00	0	42	0	1143996416	42	6100
2026-01-20 19:13:51.45	4.28	17.49	-34.8	-35.4	26.0	0.00e+00	0	42	0	1150287872	42	6021
2026-01-20 19:13:52.46	4.10	17.57	-34.8	-35.5	26.1	0.00e+00	0	42	0	1155530752	42	6084
2026-01-20 19:13:53.47	3.92	17.65	-34.6	-35.2	26.3	0.00e+00	0	42	0	1161822208	42	5892
2026-01-20 19:13:54.48	3.74	17.72	-34.6	-35.3	26.2	0.00e+00	0	42	0	1167065088	42	5943
2026-01-20 19:13:55.50	3.56	17.80	-34.4	-35.0	26.5	0.00e+00	0	42	0	1173356544	42	5749
2026-01-20 19:13:56.51	3.37	17.88	-34.4	-35.1	26.4	0.00e+00	0	42	0	1178599424	42	5788
2026-01-20 19:13:57.52	3.19	17.95	-34.5	-35.2	26.3	0.00e+00	0	42	0	1183842304	42	5842
2026-01-20 19:13:58.53	3.00	18.03	-34.4	-35.0	26.5	0.00e+00	0	42	0	1190133760	42	5760
2026-01-20 19:13:59.54	2.82	18.10	-34.6	-35.3	26.2	0.00e+00	0	42	0	1195376640	42	5911
2026-01-20 19:14:00.55	2.63	18.18	-34.5	-35.2	26.3	0.00e+00	0	42	0	1201668096	42	5853
2026-01-20 19:14:01.56	2.45	18.25	-34.5	-35.1	26.4	0.00e+00	0	42	0	1206910976	42	5818
2026-01-20 19:14:02.57	2.26	18.33	-34.4	-35.0	26.4	0.00e+00	0	42	0	1213202432	42	5760
2026-01-20 19:14:03.58	2.07	18.41	-34.4	-35.1	26.5	0.00e+00	0	42	0	1218445312	42	5786
2026-01-20 19:14:04.59	1.88	18.48	-34.1	-34.8	26.7	0.00e+00	0	42	0	1223688192	42	5597
2026-01-20 19:14:05.60	1.69	18.56	-34.3	-35.0	26.5	0.00e+00	0	42	0	1229979648	42	5699
2026-01-20 19:14:06.61	1.50	18.63	-34.5	-35.1	26.4	0.00e+00	0	42	0	1235222528	42	5819
2026-01-20 19:14:07.62	1.30	18.71	-34.4	-35.1	26.3	0.00e+00	0	42	0	1241513984	42	5783
2026-01-20 19:14:08.63	1.11	18.78	-34.4	-35.1	26.4	0.00e+00	0	42	0	1246756864	42	5775
2026-01-20 19:14:09.64	0.91	18.86	-34.5	-35.2	26.3	0.00e+00	0	42	0	1251999744	42	5883
2026-01-20 19:14:10.65	0.72	18.93	-34.4	-35.1	26.4	0.00e+00	0	42	0	1258291200	42	5788
2026-01-20 19:14:11.66	0.52	19.00	-34.7	-35.3	26.2	0.00e+00	0	42	0	1263534080	42	5951
2026-01-20 19:14:12.67	0.32	19.08	-34.3	-35.0	26.4	0.00e+00	0	42	0	1269825536	42	5711
2026-01-20 19:14:13.68	0.12	19.15	-34.3	-34.9	26.6	0.00e+00	0	42	0	1275068416	42	5677
2026-01-20 19:14:14.69	359.92	19.23	-34.3	-35.0	26.5	0.00e+00	0	42	0	1280311296	42	5696
2026-01-20 19:14:15.70	359.72	19.30	-34.3	-35.0	26.4	0.00e+00	0	42	0	1286602752	42	5723
2026-01-20 19:14:16.71	359.52	19.37	-34.5	-35.1	26.4	0.00e+00	0	42	0	1291845632	42	5824
2026-01-20 19:14:17.72	359.32	19.45	-34.4	-35.1	26.3	0.00e+00	0	42	0	1298137088	42	5783
2026-01-20 19:14:18.73	359.11	19.52	-34.7	-35.4	26.2	0.00e+00	0	42	0	1303379968	42	6023
2026-01-20 19:14:19.74	358.91	19.60	-34.1	-34.8	26.6	0.00e+00	0	42	0	1309671424	42	5585
2026-01-20 19:14:20.75	358.70	19.67	-34.0	-34.7	26.7	0.00e+00	0	42	0	1314914304	42	5505
2026-01-20 19:14:21.76	358.50	19.74	-34.0	-34.7	26.7	0.00e+00	0	42	0	1321205760	42	5535
2026-01-20 19:14:22.77	358.29	19.81	-33.9	-34.6	26.8	0.00e+00	0	42	0	1326448640	42	5454
2026-01-20 19:14:23.77	358.08	19.89	-33.9	-34.6	26.8	0.00e+00	0	42	0	1331691520	42	5474
2026-01-20 19:14:24.78	357.87	19.96	-33.9	-34.5	26.9	0.00e+00	0	42	0	1337982976	42	5433
2026-01-20 19:14:25.80	357.66	20.03	-33.7	-34.4	27.0	0.00e+00	0	42	0	1343225856	42	5347
2026-01-20 19:14:26.80	357.45	20.10	-33.6	-34.2	27.0	0.00e+00	0	42	0	1349517312	40	5892
2026-01-20 19:14:27.82	357.24	20.18	-33.6	-34.2	27.1	0.00e+00	0	42	0	1354760192	40	5837
2026-01-20 19:14:28.83	357.02	20.25	-33.4	-34.0	27.3	0.00e+00	0	42	0	1360003072	40	5717
2026-01-20 19:14:29.84	356.81	20.32	-33.4	-34.1	27.2	0.00e+00	0	42	0	1366294528	40	5784
2026-01-20 19:14:30.85	356.59	20.39	-33.3	-33.9	27.2	0.00e+00	0	42	0	1371537408	40	5689
2026-01-20 19:14:31.86	356.37	20.46	-33.4	-34.1	27.2	0.00e+00	0	42	0	1377828864	40	5788
2026-01-20 19:14:32.87	356.16	20.53	-33.6	-34.2	27.0	0.00e+00	0	42	0	1383071744	40	5889
2026-01-20 19:14:33.88	355.94	20.60	-33.6	-34.2	27.1	0.00e+00	0	42	0	1388314624	40	5892
2026-01-20 19:14:34.89	355.72	20.67	-33.7	-34.3	26.9	0.00e+00	0	42	0	1394606080	40	5959
2026-01-20 19:14:35.90	355.50	20.74	-33.5	-34.2	27.0	0.00e+00	0	42	0	1399848960	40	5834
2026-01-20 19:14:36.91	355.27	20.81	-33.6	-34.2	27.0	0.00e+00	0	42	0	1406140416	40	5867
2026-01-20 19:14:37.92	355.05	20.88	-33.6	-34.3	27.0	0.00e+00	0	42	0	1411383296	40	5925
2026-01-20 19:14:38.93	354.83	20.95	-33.7	-34.4	26.8	0.00e+00	0	42	0	1417674752	40	5969
2026-01-20 19:14:39.94	354.60	21.02	-33.8	-34.5	26.8	0.00e+00	0	42	0	1422917632	40	6054
2026-01-20 19:14:40.95	354.38	21.09	-33.9	-34.6	26.7	0.00e+00	0	42	0	1429209088	40	6139
2026-01-20 19:14:41.96	354.15	21.15	-34.0	-34.6	26.7	0.00e+00	0	42	0	1434451968	40	6163
2026-01-20 19:14:42.97	353.92	21.22	-33.9	-34.4	26.9	0.00e+00	0	42	0	1439694848	40	6033
2026-01-20 19:14:43.98	353.69	21.29	-33.8	-34.5	26.9	0.00e+00	0	42	0	1445986304	40	6056
2026-01-20 19:14:44.99	353.46	21.36	-34.0	-34.6	26.8	0.00e+00	0	42	0	1451229184	40	6140
2026-01-20 19:14:46.00	353.23	21.42	-33.9	-34.6	26.7	0.00e+00	0	42	0	1457520640	40	6155
2026-01-20 19:14:47.01	353.00	21.49	-34.2	-34.8	26.6	0.00e+00	0	42	0	1462763520	40	6300
2026-01-20 19:14:48.03	352.76	21.56	-34.1	-34.8	26.7	0.00e+00	0	42	0	1468006400	40	6250
2026-01-20 19:14:49.04	352.53	21.62	-34.0	-34.6	26.8	0.00e+00	0	42	0	1474297856	40	6152
2026-01-20 19:14:50.04	352.30	21.69	-33.9	-34.6	27.0	0.00e+00	0	42	0	1479540736	40	6119
2026-01-20 19:14:51.05	352.06	21.76	-33.9	-34.5	26.7	0.00e+00	0	42	0	1485832192	40	6076
2026-01-20 19:14:52.06	351.82	21.82	-34.1	-34.8	26.6	0.00e+00	0	42	0	1491075072	40	6249
2026-01-20 19:14:53.08	351.58	21.89	-34.7	-35.3	26.5	0.00e+00	0	42	0	1496317952	40	6660
2026-01-20 19:14:54.08	351.35	21.95	-34.7	-35.4	26.3	0.00e+00	0	42	0	1502609408	42	6032
2026-01-20 19:14:55.10	351.10	22.01	-34.7	-35.3	26.3	0.00e+00	0	42	0	1507852288	42	5958
2026-01-20 19:14:56.11	350.86	22.08	-34.6	-35.3	26.4	0.00e+00	0	42	0	1514143744	42	5922
2026-01-20 19:14:57.12	350.62	22.14	-34.4	-35.1	26.4	0.00e+00	0	42	0	1519386624	42	5770
2026-01-20 19:14:58.13	350.38	22.20	-34.9	-35.6	26.1	0.00e+00	0	42	0	1525678080	42	6151
2026-01-20 19:14:59.14	350.13	22.27	-34.3	-35.0	26.6	0.00e+00	0	42	0	1530920960	42	5702
2026-01-20 19:15:00.15	349.89	22.33	-33.7	-34.3	27.1	0.00e+00	0	42	0	1537212416	42	5299
2026-01-20 19:15:01.16	349.64	22.39	-33.4	-34.1	27.3	0.00e+00	0	42	0	1542455296	40	5773
2026-01-20 19:15:02.17	349.39	22.45	-33.5	-34.1	27.2	0.00e+00	0	42	0	1547698176	40	5819
2026-01-20 19:15:03.18	349.14	22.51	-33.5	-34.2	27.2	0.00e+00	0	42	0	1553989632	40	5840
2026-01-20 19:15:04.19	348.90	22.57	-33.9	-34.5	27.0	0.00e+00	0	42	0	1559232512	40	6065
2026-01-20 19:15:05.20	348.65	22.63	-33.6	-34.3	27.2	0.00e+00	0	42	0	1565523968	40	5903
2026-01-20 19:15:06.20	348.40	22.69	-33.6	-34.2	27.3	0.00e+00	0	42	0	1570766848	40	5887
2026-01-20 19:15:07.21	348.14	22.75	-33.5	-34.2	27.4	0.00e+00	0	42	0	1576009728	40	5832
2026-01-20 19:15:08.22	347.89	22.81	-33.5	-34.2	27.2	0.00e+00	0	42	0	1582301184	40	5839
2026-01-20 19:15:09.23	347.64	22.86	-33.4	-34.1	27.3	0.00e+00	0	42	0	1587544064	40	5785
2026-01-20 19:15:10.24	347.38	22.92	-33.6	-34.2	27.3	0.00e+00	0	42	0	1592786944	40	5861
2026-01-20 19:15:11.25	347.13	22.98	-33.7	-34.4	27.1	0.00e+00	0	42	0	1599078400	40	5986
2026-01-20 19:15:12.26	346.87	23.04	-33.5	-34.1	27.4	0.00e+00	0	42	0	1604321280	40	5764
2026-01-20 19:15:13.27	346.61	23.09	-33.4	-34.1	27.4	0.00e+00	0	42	0	1610612736	40	5773
2026-01-20 19:15:14.28	346.35	23.15	-33.4	-34.1	27.4	0.00e+00	0	42	0	1615855616	40	5787
2026-01-20 19:15:15.29	346.09	23.20	-33.5	-34.2	27.3	0.00e+00	0	42	0	1622147072	40	5845
2026-01-20 19:15:16.30	345.83	23.26	-33.6	-34.2	27.2	0.00e+00	0	42	0	1627389952	40	5863
2026-01-20 19:15:17.31	345.57	23.31	-33.6	-34.2	27.2	0.00e+00	0	42	0	1633681408	40	5867
2026-01-20 19:15:18.32	345.31	23.36	-33.6	-34.3	27.2	0.00e+00	0	42	0	1638924288	40	5916
2026-01-20 19:15:19.33	345.05	23.42	-33.4	-34.0	27.4	0.00e+00	0	42	0	1644167168	40	5759
2026-01-20 19:15:20.34	344.78	23.47	-33.4	-34.1	27.4	0.00e+00	0	42	0	1650458624	40	5778
2026-01-20 19:15:21.35	344.52	23.52	-33.5	-34.2	27.3	0.00e+00	0	42	0	1655701504	40	5848
2026-01-20 19:15:22.36	344.25	23.57	-33.4	-34.0	27.4	0.00e+00	0	42	0	1661992960	40	5751
2026-01-20 19:15:23.37	343.98	23.62	-33.4	-34.0	27.4	0.00e+00	0	42	0	1667235840	40	5738
2026-01-20 19:15:24.37	343.72	23.67	-33.3	-33.9	27.5	0.00e+00	0	42	0	1672478720	40	5666
2026-01-20 19:15:25.38	343.45	23.72	-33.2	-33.8	27.6	0.00e+00	0	42	0	1678770176	40	5578
2026-01-20 19:15:26.39	343.18	23.77	-33.4	-34.0	27.4	0.00e+00	0	42	0	1684013056	40	5749
2026-01-20 19:15:27.40	342.91	23.82	-33.2	-33.8	27.6	0.00e+00	0	42	0	1690304512	40	5583
2026-01-20 19:15:28.41	342.64	23.87	-33.2	-33.9	27.6	0.00e+00	0	42	0	1695547392	40	5635
2026-01-20 19:15:29.42	342.37	23.91	-33.2	-33.9	27.5	0.00e+00	0	42	0	1700790272	40	5636
2026-01-20 19:15:30.43	342.09	23.96	-33.3	-34.0	27.4	0.00e+00	0	42	0	1707081728	40	5697
2026-01-20 19:15:31.44	341.82	24.00	-33.4	-34.1	27.3	0.00e+00	0	42	0	1712324608	40	5779
2026-01-20 19:15:32.45	341.55	24.05	-33.3	-33.9	27.4	0.00e+00	0	42	0	1718616064	40	5654
2026-01-20 19:15:33.46	341.27	24.09	-33.3	-33.9	27.5	0.00e+00	0	42	0	1723858944	40	5667
2026-01-20 19:15:34.47	341.00	24.14	-33.1	-33.7	27.6	0.00e+00	0	42	0	1730150400	40	5561
2026-01-20 19:15:35.48	340.72	24.18	-33.1	-33.7	27.6	0.00e+00	0	42	0	1735393280	40	5561
2026-01-20 19:15:36.49	340.44	24.22	-33.2	-33.8	27.6	0.00e+00	0	42	0	1740636160	40	5616
2026-01-20 19:15:37.50	340.16	24.27	-33.1	-33.7	27.6	0.00e+00	0	42	0	1746927616	40	5551
2026-01-20 19:15:38.51	339.88	24.31	-33.0	-33.7	27.6	0.00e+00	0	42	0	1752170496	40	5517
2026-01-20 19:15:39.52	339.60	24.35	-32.9	-33.5	27.8	0.00e+00	0	42	0	1758461952	40	5434
2026-01-20 19:15:40.53	339.32	24.39	-32.8	-33.5	27.8	0.00e+00	0	42	0	1763704832	40	5380
2026-01-20 19:15:41.54	339.04	24.43	-32.9	-33.5	27.7	0.00e+00	0	42	0	1768947712	40	5412
2026-01-20 19:15:42.55	338.76	24.46	-33.1	-33.7	27.6	0.00e+00	0	42	0	1775239168	40	5523
2026-01-20 19:15:43.56	338.48	24.50	-33.2	-33.8	27.6	0.00e+00	0	42	0	1780482048	40	5617
2026-01-20 19:15:44.57	338.20	24.54	-33.1	-33.7	27.6	0.00e+00	0	42	0	1786773504	40	5565
2026-01-20 19:15:45.58	337.91	24.58	-33.4	-34.1	27.4	0.00e+00	0	42	0	1792016384	40	5773
2026-01-20 19:15:46.59	337.63	24.61	-33.5	-34.1	27.4	0.00e+00	0	42	0	1797259264	40	5799
2026-01-20 19:15:47.60	337.34	24.65	-33.5	-34.1	27.3	0.00e+00	0	42	0	1803550720	40	5822
2026-01-20 19:15:48.61	337.06	24.68	-33.5	-34.1	27.3	0.00e+00	0	42	0	1808793600	40	5818
2026-01-20 19:15:49.62	336.77	24.71	-33.5	-34.1	27.4	0.00e+00	0	42	0	1815085056	40	5810
2026-01-20 19:15:50.63	336.48	24.75	-33.4	-34.0	27.4	0.00e+00	0	42	0	1820327936	40	5712
2026-01-20 19:15:51.64	336.19	24.78	-33.3	-34.0	27.4	0.00e+00	0	42	0	1826619392	40	5707
2026-01-20 19:15:52.65	335.91	24.81	-33.3	-34.0	27.6	0.00e+00	0	42	0	1831862272	40	5699
2026-01-20 19:15:53.66	335.62	24.84	-33.3	-34.0	27.4	0.00e+00	0	42	0	1838153728	40	5726
2026-01-20 19:15:54.67	335.33	24.87	-33.2	-33.9	27.5	0.00e+00	0	42	0	1843396608	40	5658
2026-01-20 19:15:55.68	335.04	24.90	-33.3	-33.9	27.5	0.00e+00	0	42	0	1848639488	40	5653
2026-01-20 19:15:56.69	334.75	24.93	-33.1	-33.8	27.6	0.00e+00	0	42	0	1854930944	40	5577
2026-01-20 19:15:57.70	334.46	24.95	-33.3	-33.9	27.5	0.00e+00	0	42	0	1860173824	40	5694
2026-01-20 19:15:58.71	334.16	24.98	-33.1	-33.7	27.6	0.00e+00	0	42	0	1866465280	40	5540
2026-01-20 19:15:59.72	333.87	25.01	-33.3	-33.9	27.5	0.00e+00	0	42	0	1871708160	40	5676
2026-01-20 19:16:00.73	333.58	25.03	-33.4	-34.0	27.4	0.00e+00	0	42	0	1876951040	40	5743
2026-01-20 19:16:01.74	333.29	25.06	-33.2	-33.8	27.5	0.00e+00	0	42	0	1883242496	40	5600
2026-01-20 19:16:02.75	332.99	25.08	-33.1	-33.8	27.6	0.00e+00	0	42	0	1888485376	40	5569
2026-01-20 19:16:03.76	332.70	25.10	-33.0	-33.6	27.8	0.00e+00	0	42	0	1894776832	40	5485
2026-01-20 19:16:04.77	332.41	25.12	-32.9	-33.5	27.8	0.00e+00	0	42	0	1900019712	40	5425
2026-01-20 19:16:05.78	332.11	25.14	-32.8	-33.5	27.7	0.00e+00	0	42	0	1905262592	40	5403
2026-01-20 19:16:06.79	331.82	25.16	-33.0	-33.7	27.6	0.00e+00	0	42	0	1911554048	40	5528
2026-01-20 19:16:07.80	331.52	25.18	-33.0	-33.6	27.6	0.00e+00	0	42	0	1916796928	40	5491
2026-01-20 19:16:08.81	331.22	25.20	-33.0	-33.6	27.6	0.00e+00	0	42	0	1923088384	40	5492
2026-01-20 19:16:09.82	330.93	25.22	-33.3	-33.9	27.5	0.00e+00	0	42	0	1928331264	40	5675
2026-01-20 19:16:10.83	330.63	25.24	-33.4	-34.0	27.4	0.00e+00	0	42	0	1934622720	40	5709
2026-01-20 19:16:11.84	330.34	25.25	-33.5	-34.2	27.4	0.00e+00	0	42	0	1939865600	40	5853
2026-01-20 19:16:12.85	330.04	25.27	-33.6	-34.3	27.2	0.00e+00	0	42	0	1946157056	40	5900
2026-01-20 19:16:13.86	329.74	25.28	-33.6	-34.2	27.3	0.00e+00	0	42	0	1951399936	40	5884
2026-01-20 19:16:14.87	329.44	25.30	-33.6	-34.2	27.3	0.00e+00	0	42	0	1956642816	40	5885
2026-01-20 19:16:15.88	329.15	25.31	-33.5	-34.2	27.4	0.00e+00	0	42	0	1962934272	40	5846
2026-01-20 19:16:16.89	328.85	25.32	-33.4	-34.1	27.4	0.00e+00	0	42	0	1968177152	40	5768
2026-01-20 19:16:17.90	328.55	25.33	-33.4	-34.0	27.4	0.00e+00	0	42	0	1974468608	40	5743
2026-01-20 19:16:18.91	328.25	25.34	-33.2	-33.9	27.5	0.00e+00	0	42	0	1979711488	40	5663
2026-01-20 19:16:19.92	327.95	25.35	-33.3	-34.0	27.5	0.00e+00	0	42	0	1984954368	40	5710
2026-01-20 19:16:20.93	327.65	25.36	-33.0	-33.7	27.7	0.00e+00	0	42	0	1991245824	40	5523
2026-01-20 19:16:21.94	327.35	25.37	-32.9	-33.6	27.8	0.00e+00	0	42	0	1996488704	40	5446
2026-01-20 19:16:22.95	327.05	25.37	-32.8	-33.4	27.9	0.00e+00	0	42	0	2002780160	40	5357
2026-01-20 19:16:23.97	326.75	25.38	-32.9	-33.5	27.9	0.00e+00	0	42	0	2008023040	40	5390
2026-01-20 19:16:24.98	326.45	25.39	-32.9	-33.5	27.8	0.00e+00	0	42	0	2013265920	40	5414
2026-01-20 19:16:25.99	326.15	25.39	-32.9	-33.6	27.8	0.00e+00	0	42	0	2019557376	40	5450
2026-01-20 19:16:27.00	325.85	25.39	-33.1	-33.7	27.6	0.00e+00	0	42	0	2024800256	40	5547
2026-01-20 19:16:28.01	325.55	25.40	-33.1	-33.8	27.7	0.00e+00	0	42	0	2031091712	40	5567
2026-01-20 19:16:29.02	325.25	25.40	-33.0	-33.6	27.6	0.00e+00	0	42	0	2036334592	40	5479
2026-01-20 19:16:30.03	324.95	25.40	-33.0	-33.7	27.7	0.00e+00	0	42	0	2042626048	40	5513
2026-01-20 19:16:31.04	324.65	25.40	-33.1	-33.7	27.7	0.00e+00	0	42	0	2047868928	40	5563
2026-01-20 19:16:32.05	324.35	25.40	-33.3	-34.0	27.5	0.00e+00	0	42	0	2054160384	40	5719
2026-01-20 19:16:33.06	324.05	25.40	-33.2	-33.9	27.6	0.00e+00	0	42	0	2059403264	40	5644
2026-01-20 19:16:34.07	323.76	25.39	-33.1	-33.8	27.6	0.00e+00	0	42	0	2064646144	40	5600
2026-01-20 19:16:35.08	323.46	25.39	-33.1	-33.7	27.7	0.00e+00	0	42	0	2070937600	40	5557
2026-01-20 19:16:36.09	323.16	25.38	-33.0	-33.6	27.7	0.00e+00	0	42	0	2076180480	40	5496
2026-01-20 19:16:37.10	322.86	25.38	-32.9	-33.6	27.7	0.00e+00	0	42	0	2082471936	40	5473
2026-01-20 19:16:38.11	322.56	25.37	-33.1	-33.7	27.6	0.00e+00	0	42	0	2087714816	40	5538
2026-01-20 19:16:39.12	322.26	25.37	-33.0	-33.6	27.6	0.00e+00	0	42	0	2092957696	40	5475
2026-01-20 19:16:40.13	321.96	25.36	-32.9	-33.5	27.7	0.00e+00	0	42	0	2099249152	40	5404
2026-01-20 19:16:41.14	321.66	25.35	-32.9	-33.5	27.8	0.00e+00	0	42	0	2104492032	40	5423
2026-01-20 19:16:42.15	321.36	25.34	-32.8	-33.4	27.8	0.00e+00	0	42	0	2110783488	38	6012
2026-01-20 19:16:43.16	321.06	25.33	-32.8	-33.4	27.9	0.00e+00	0	42	0	2116026368	38	6013
2026-01-20 19:16:44.17	320.76	25.32	-32.7	-33.3	28.0	0.00e+00	0	42	0	2121269248	38	5919
2026-01-20 19:16:45.18	320.47	25.31	-32.9	-33.5	27.8	0.00e+00	0	42	0	2127560704	38	6066
2026-01-20 19:16:46.20	320.16	25.29	-33.1	-33.7	27.7	0.00e+00	0	42	0	2132803584	38	6180
2026-01-20 19:16:47.21	319.87	25.28	-33.2	-33.8	27.6	0.00e+00	0	42	0	2139095040	38	6293
2026-01-20 19:16:48.22	319.57	25.27	-33.3	-33.9	27.5	0.00e+00	0	42	0	2144337920	38	6328
2026-01-20 19:16:49.23	319.27	25.25	-33.2	-33.8	27.5	0.00e+00	0	42	0	2150629376	38	6267
2026-01-20 19:16:50.24	318.98	25.23	-33.2	-33.8	27.6	0.00e+00	0	42	0	2155872256	38	6292
2026-01-20 19:16:51.25	318.68	25.22	-33.1	-33.7	27.6	0.00e+00	0	42	0	2162163712	38	6240
2026-01-20 19:16:52.26	318.38	25.20	-33.4	-34.0	27.4	0.00e+00	0	42	0	2167406592	38	6420
2026-01-20 19:16:53.27	318.09	25.18	-33.2	-33.8	27.6	0.00e+00	0	42	0	2172649472	38	6267
2026-01-20 19:16:54.28	317.79	25.16	-33.1	-33.8	27.6	0.00e+00	0	42	0	2178940928	38	6258
2026-01-20 19:16:55.29	317.50	25.14	-33.1	-33.7	27.7	0.00e+00	0	42	0	2184183808	38	6209
2026-01-20 19:16:56.30	317.20	25.12	-33.1	-33.7	27.7	0.00e+00	0	42	0	2190475264	38	6235
2026-01-20 19:16:57.31	316.91	25.10	-33.1	-33.7	27.8	0.00e+00	0	42	0	2195718144	38	6209
2026-01-20 19:16:58.32	316.61	25.07	-33.0	-33.5	27.8	0.00e+00	0	42	0	2200961024	38	6087
2026-01-20 19:16:59.33	316.32	25.05	-33.1	-33.7	27.8	0.00e+00	0	42	0	2207252480	38	6240
2026-01-20 19:17:00.34	316.03	25.03	-33.0	-33.6	27.7	0.00e+00	0	42	0	2212495360	38	6168
2026-01-20 19:17:01.35	315.73	25.00	-32.8	-33.4	27.9	0.00e+00	0	42	0	2218786816	38	5987
2026-01-20 19:17:02.36	315.44	24.98	-32.8	-33.4	28.0	0.00e+00	0	42	0	2224029696	38	5976
2026-01-20 19:17:03.37	315.15	24.95	-32.6	-33.2	28.1	0.00e+00	0	42	0	2229272576	38	5844
2026-01-20 19:17:04.38	314.86	24.92	-32.7	-33.4	28.0	0.00e+00	0	42	0	2235564032	38	6002
2026-01-20 19:17:05.39	314.57	24.89	-32.9	-33.5	27.8	0.00e+00	0	42	0	2240806912	38	6070
2026-01-20 19:17:06.41	314.27	24.86	-33.1	-33.7	27.6	0.00e+00	0	42	0	2247098368	38	6243
2026-01-20 19:17:07.42	313.98	24.83	-33.0	-33.7	27.7	0.00e+00	0	42	0	2252341248	38	6204
2026-01-20 19:17:08.43	313.70	24.80	-33.3	-33.9	27.6	0.00e+00	0	42	0	2258632704	38	6357
2026-01-20 19:17:09.44	313.41	24.77	-33.1	-33.8	27.7	0.00e+00	0	42	0	2263875584	38	6256
2026-01-20 19:17:10.45	313.12	24.74	-33.2	-33.8	27.5	0.00e+00	0	42	0	2270167040	38	6285
2026-01-20 19:17:11.46	312.83	24.71	-33.3	-33.9	27.5	0.00e+00	0	42	0	2275409920	38	6384
2026-01-20 19:17:12.47	312.55	24.67	-33.2	-33.8	27.6	0.00e+00	0	42	0	2280652800	38	6307
2026-01-20 19:17:13.48	312.26	24.64	-33.2	-33.8	27.6	0.00e+00	0	42	0	2286944256	38	6308
2026-01-20 19:17:14.49	311.97	24.60	-33.2	-33.8	27.6	0.00e+00	0	42	0	2292187136	38	6312
2026-01-20 19:17:15.50	311.69	24.57	-33.2	-33.8	27.6	0.00e+00	0	42	0	2298478592	38	6276
2026-01-20 19:17:16.51	311.41	24.53	-33.3	-34.0	27.5	0.00e+00	0	42	0	2303721472	38	6394
2026-01-20 19:17:17.52	311.12	24.49	-33.3	-33.9	27.5	0.00e+00	0	42	0	2308964352	38	6356
2026-01-20 19:17:18.53	310.84	24.46	-33.4	-34.1	27.4	0.00e+00	0	42	0	2315255808	38	6518
2026-01-20 19:17:19.54	310.56	24.42	-33.2	-33.8	27.6	0.00e+00	0	42	0	2320498688	38	6275
2026-01-20 19:17:20.55	310.28	24.38	-33.1	-33.7	27.8	0.00e+00	0	42	0	2326790144	38	6207
2026-01-20 19:17:21.56	309.99	24.34	-33.0	-33.6	27.8	0.00e+00	0	42	0	2332033024	38	6168
2026-01-20 19:17:22.57	309.71	24.30	-32.9	-33.6	27.9	0.00e+00	0	42	0	2337275904	38	6107
2026-01-20 19:17:23.58	309.44	24.26	-32.9	-33.5	27.8	0.00e+00	0	42	0	2343567360	38	6074
2026-01-20 19:17:24.59	309.16	24.21	-33.0	-33.6	27.7	0.00e+00	0	42	0	2348810240	38	6104
2026-01-20 19:17:25.60	308.88	24.17	-33.2	-33.9	27.6	0.00e+00	0	42	0	2355101696	38	6372
2026-01-20 19:17:26.61	308.60	24.13	-33.2	-33.8	27.5	0.00e+00	0	42	0	2360344576	38	6260
2026-01-20 19:17:27.62	308.33	24.08	-33.5	-34.2	27.4	0.00e+00	0	42	0	2366636032	38	6574
2026-01-20 19:17:28.63	308.05	24.04	-33.2	-33.7	27.6	0.00e+00	0	42	0	2371878912	38	6229
2026-01-20 19:17:29.64	307.78	23.99	-33.2	-33.9	27.7	0.00e+00	0	42	0	2377121792	38	6320
2026-01-20 19:17:30.64	307.50	23.95	-33.2	-33.9	27.6	0.00e+00	0	42	0	2383413248	38	6373
2026-01-20 19:17:31.65	307.23	23.90	-33.3	-33.9	27.6	0.00e+00	0	42	0	2388656128	38	6359
2026-01-20 19:17:32.66	306.96	23.85	-33.2	-33.9	27.7	0.00e+00	0	42	0	2394947584	38	6347
2026-01-20 19:17:33.67	306.69	23.81	-33.2	-33.9	27.6	0.00e+00	0	42	0	2400190464	38	6322
2026-01-20 19:17:34.68	306.42	23.76	-33.0	-33.7	27.7	0.00e+00	0	42	0	2405433344	38	6192
2026-01-20 19:17:35.69	306.15	23.71	-32.9	-33.5	27.8	0.00e+00	0	42	0	2411724800	38	6088
2026-01-20 19:17:36.70	305.88	23.66	-32.9	-33.4	27.8	0.00e+00	0	42	0	2416967680	38	6005
2026-01-20 19:17:37.71	305.61	23.61	-33.0	-33.6	27.7	0.00e+00	0	42	0	2423259136	38	6148
2026-01-20 19:17:38.72	305.34	23.56	-32.8	-33.5	27.9	0.00e+00	0	42	0	2428502016	38	6035
2026-01-20 19:17:39.73	305.08	23.51	-32.8	-33.4	28.0	0.00e+00	0	42	0	2433744896	38	5981
2026-01-20 19:17:40.74	304.81	23.46	-32.9	-33.5	27.8	0.00e+00	0	42	0	2440036352	38	6045
2026-01-20 19:17:41.75	304.55	23.40	-33.0	-33.6	27.7	0.00e+00	0	42	0	2445279232	38	6163
2026-01-20 19:17:42.76	304.28	23.35	-33.1	-33.6	27.7	0.00e+00	0	42	0	2451570688	38	6154
2026-01-20 19:17:43.77	304.02	23.30	-33.2	-33.8	27.6	0.00e+00	0	42	0	2456813568	38	6305
2026-01-20 19:17:44.78	303.76	23.24	-33.1	-33.8	27.7	0.00e+00	0	42	0	2463105024	38	6261
2026-01-20 19:17:45.79	303.50	23.19	-33.1	-33.7	27.6	0.00e+00	0	42	0	2468347904	38	6240
2026-01-20 19:17:46.80	303.24	23.13	-33.2	-33.8	27.6	0.00e+00	0	42	0	2474639360	38	6263
2026-01-20 19:17:47.81	302.98	23.08	-33.3	-33.8	27.6	0.00e+00	0	42	0	2479882240	38	6295
2026-01-20 19:17:48.82	302.72	23.02	-33.3	-33.9	27.5	0.00e+00	0	42	0	2485125120	38	6365
2026-01-20 19:17:49.83	302.46	22.96	-33.3	-34.0	27.5	0.00e+00	0	42	0	2491416576	38	6418
2026-01-20 19:17:50.84	302.21	22.91	-33.2	-33.8	27.5	0.00e+00	0	42	0	2496659456	38	6274
2026-01-20 19:17:51.85	301.95	22.85	-33.2	-33.8	27.5	0.00e+00	0	42	0	2502950912	38	6248
2026-01-20 19:17:52.86	301.70	22.79	-33.2	-33.8	27.6	0.00e+00	0	42	0	2508193792	38	6247
2026-01-20 19:17:53.87	301.45	22.73	-33.3	-33.8	27.5	0.00e+00	0	42	0	2513436672	38	6316
2026-01-20 19:17:54.88	301.19	22.67	-33.3	-33.9	27.5	0.00e+00	0	42	0	2519728128	38	6322
2026-01-20 19:17:55.89	300.94	22.61	-33.3	-34.0	27.4	0.00e+00	0	42	0	2524971008	38	6451
2026-01-20 19:17:56.90	300.69	22.55	-33.3	-34.0	27.5	0.00e+00	0	42	0	2531262464	38	6398
2026-01-20 19:17:57.91	300.44	22.49	-33.1	-33.7	27.6	0.00e+00	0	42	0	2536505344	38	6192
2026-01-20 19:17:58.93	300.19	22.43	-33.1	-33.7	27.6	0.00e+00	0	42	0	2541748224	38	6186
2026-01-20 19:17:59.94	299.94	22.37	-33.0	-33.6	27.7	0.00e+00	0	42	0	2548039680	38	6148
2026-01-20 19:18:00.95	299.70	22.31	-33.0	-33.6	27.7	0.00e+00	0	42	0	2553282560	38	6157
2026-01-20 19:18:01.96	299.45	22.25	-32.9	-33.6	27.8	0.00e+00	0	42	0	2559574016	38	6118
2026-01-20 19:18:02.97	299.21	22.18	-32.9	-33.6	27.8	0.00e+00	0	42	0	2564816896	38	6125
2026-01-20 19:18:03.98	298.96	22.12	-32.9	-33.5	27.8	0.00e+00	0	42	0	2571108352	38	6056
2026-01-20 19:18:04.99	298.72	22.06	-33.0	-33.7	27.6	0.00e+00	0	42	0	2576351232	38	6176
2026-01-20 19:18:06.00	298.48	21.99	-33.2	-33.8	27.5	0.00e+00	0	42	0	2582642688	38	6299
2026-01-20 19:18:07.01	298.24	21.93	-33.2	-33.8	27.6	0.00e+00	0	42	0	2587885568	38	6270
2026-01-20 19:18:08.02	298.00	21.87	-33.2	-33.8	27.5	0.00e+00	0	42	0	2593128448	38	6250
2026-01-20 19:18:09.03	297.76	21.80	-33.2	-33.9	27.6	0.00e+00	0	42	0	2599419904	38	6349
2026-01-20 19:18:10.04	297.52	21.74	-33.4	-34.0	27.3	0.00e+00	0	42	0	2604662784	38	6460
2026-01-20 19:18:11.05	297.29	21.67	-33.5	-34.1	27.3	0.00e+00	0	42	0	2610954240	38	6478
2026-01-20 19:18:12.06	297.05	21.60	-33.6	-34.2	27.2	0.00e+00	0	42	0	2616197120	38	6613
2026-01-20 19:18:13.07	296.82	21.54	-34.0	-34.5	26.9	0.00e+00	0	42	0	2621440000	40	6079
2026-01-20 19:18:14.08	296.58	21.47	-33.9	-34.5	27.0	0.00e+00	0	42	0	2627731456	40	6096
2026-01-20 19:18:15.09	296.35	21.40	-33.9	-34.5	27.0	0.00e+00	0	42	0	2632974336	40	6042
2026-01-20 19:18:16.11	296.12	21.34	-33.9	-34.5	27.0	0.00e+00	0	42	0	2639265792	40	6067
2026-01-20 19:18:17.12	295.89	21.27	-33.8	-34.4	26.9	0.00e+00	0	42	0	2644508672	40	6000
2026-01-20 19:18:18.13	295.66	21.20	-33.5	-34.1	27.4	0.00e+00	0	42	0	2649751552	40	5780
2026-01-20 19:18:19.14	295.43	21.13	-33.4	-34.0	27.2	0.00e+00	0	42	0	2656043008	40	5727
2026-01-20 19:18:20.15	295.20	21.06	-33.6	-34.2	27.2	0.00e+00	0	42	0	2661285888	40	5849
2026-01-20 19:18:21.16	294.97	21.00	-33.4	-34.0	27.3	0.00e+00	0	42	0	2667577344	40	5719
2026-01-20 19:18:22.17	294.75	20.93	-33.4	-33.9	27.4	0.00e+00	0	42	0	2672820224	40	5679
2026-01-20 19:18:23.18	294.52	20.86	-33.4	-33.9	27.3	0.00e+00	0	42	0	2679111680	40	5687
2026-01-20 19:18:24.19	294.30	20.79	-33.7	-34.3	27.1	0.00e+00	0	42	0	2684354560	40	5960
2026-01-20 19:18:25.20	294.08	20.72	-33.8	-34.3	27.1	0.00e+00	0	42	0	2690646016	40	5954
2026-01-20 19:18:26.21	293.86	20.65	-33.9	-34.6	26.8	0.00e+00	0	42	0	2695888896	40	6109
2026-01-20 19:18:27.22	293.64	20.58	-33.8	-34.4	26.9	0.00e+00	0	42	0	2701131776	40	6002
2026-01-20 19:18:28.23	293.42	20.51	-33.9	-34.6	26.7	0.00e+00	0	42	0	2707423232	40	6123
2026-01-20 19:18:29.25	293.20	20.44	-34.0	-34.7	26.7	0.00e+00	0	42	0	2712666112	40	6185
2026-01-20 19:18:30.25	292.98	20.36	-34.0	-34.7	26.7	0.00e+00	0	42	0	2718957568	40	6239
2026-01-20 19:18:31.26	292.77	20.29	-33.9	-34.6	26.7	0.00e+00	0	42	0	2724200448	40	6167
2026-01-20 19:18:32.28	292.55	20.22	-33.9	-34.5	26.8	0.00e+00	0	42	0	2729443328	40	6042
2026-01-20 19:18:33.29	292.33	20.15	-33.9	-34.4	26.8	0.00e+00	0	42	0	2735734784	40	6025
2026-01-20 19:18:34.30	292.12	20.08	-33.8	-34.3	26.8	0.00e+00	0	42	0	2740977664	40	5958
2026-01-20 19:18:35.31	291.91	20.01	-33.9	-34.5	26.7	0.00e+00	0	42	0	2747269120	40	6044
2026-01-20 19:18:36.32	291.70	19.93	-33.9	-34.6	26.8	0.00e+00	0	42	0	2752512000	40	6121
2026-01-20 19:18:37.33	291.49	19.86	-34.1	-34.8	26.6	0.00e+00	0	42	0	2757754880	40	6264
2026-01-20 19:18:38.34	291.28	19.79	-34.2	-34.9	26.6	0.00e+00	0	42	0	2764046336	40	6318
2026-01-20 19:18:39.35	291.07	19.71	-34.1	-34.9	26.5	0.00e+00	0	42	0	2769289216	40	6325
2026-01-20 19:18:40.36	290.86	19.64	-34.1	-34.7	26.5	0.00e+00	0	42	0	2775580672	40	6225
2026-01-20 19:18:41.37	290.66	19.57	-34.0	-34.6	26.7	0.00e+00	0	42	0	2780823552	40	6113
2026-01-20 19:18:42.38	290.45	19.49	-34.0	-34.7	26.5	0.00e+00	0	42	0	2787115008	40	6237
2026-01-20 19:18:43.39	290.25	19.42	-34.0	-34.6	26.6	0.00e+00	0	42	0	2792357888	40	6159
2026-01-20 19:18:44.40	290.04	19.35	-34.2	-34.9	26.4	0.00e+00	0	42	0	2798649344	40	6383
2026-01-20 19:18:45.41	289.84	19.27	-34.3	-35.0	26.4	0.00e+00	0	42	0	2803892224	40	6431
2026-01-20 19:18:46.42	289.64	19.20	-34.3	-34.9	26.4	0.00e+00	0	42	0	2809135104	40	6345
2026-01-20 19:18:47.43	289.44	19.12	-34.1	-34.8	26.3	0.00e+00	0	42	0	2815426560	40	6268
2026-01-20 19:18:48.44	289.24	19.05	-34.1	-34.7	26.4	0.00e+00	0	42	0	2820669440	40	6186
2026-01-20 19:18:49.45	289.04	18.98	-34.2	-34.9	26.2	0.00e+00	0	42	0	2826960896	40	6354
2026-01-20 19:18:50.46	288.85	18.90	-34.4	-35.0	26.2	0.00e+00	0	42	0	2832203776	40	6422
2026-01-20 19:18:51.47	288.65	18.83	-34.4	-35.0	26.1	0.00e+00	0	42	0	2837446656	40	6434
2026-01-20 19:18:52.48	288.45	18.75	-34.6	-35.2	26.0	0.00e+00	0	42	0	2843738112	40	6592
2026-01-20 19:18:53.49	288.26	18.68	-34.8	-35.5	25.9	0.00e+00	0	42	0	2848980992	42	6074
2026-01-20 19:18:54.50	288.07	18.60	-34.5	-35.1	26.1	0.00e+00	0	42	0	2855272448	42	5813
2026-01-20 19:18:55.51	287.87	18.52	-34.5	-35.0	26.3	0.00e+00	0	42	0	2860515328	42	5760
2026-01-20 19:18:56.52	287.68	18.45	-34.4	-35.1	26.2	0.00e+00	0	42	0	2865758208	42	5808
2026-01-20 19:18:57.53	287.49	18.37	-34.4	-35.1	26.3	0.00e+00	0	42	0	2872049664	42	5811
2026-01-20 19:18:58.54	287.30	18.30	-34.4	-35.0	26.3	0.00e+00	0	42	0	2877292544	42	5713
2026-01-20 19:18:59.55	287.11	18.22	-34.4	-35.2	26.3	0.00e+00	0	42	0	2883584000	42	5832
2026-01-20 19:19:00.56	286.93	18.15	-34.2	-34.9	26.5	0.00e+00	0	42	0	2888826880	42	5676
2026-01-20 19:19:01.57	286.74	18.07	-34.1	-34.7	26.6	0.00e+00	0	42	0	2895118336	42	5508
2026-01-20 19:19:02.58	286.55	17.99	-34.1	-34.8	26.6	0.00e+00	0	42	0	2900361216	42	5598
2026-01-20 19:19:03.59	286.37	17.92	-34.1	-34.8	26.6	0.00e+00	0	42	0	2905604096	42	5606
2026-01-20 19:19:04.60	286.18	17.84	-34.2	-34.8	26.4	0.00e+00	0	42	0	2911895552	42	5598
2026-01-20 19:19:05.61	286.00	17.77	-34.2	-34.9	26.5	0.00e+00	0	42	0	2917138432	42	5695
2026-01-20 19:19:06.62	285.82	17.69	-34.2	-34.8	26.4	0.00e+00	0	42	0	2923429888	42	5592
2026-01-20 19:19:07.63	285.64	17.61	-34.3	-34.9	26.3	0.00e+00	0	42	0	2928672768	42	5639
2026-01-20 19:19:08.63	285.46	17.54	-34.1	-34.7	26.5	0.00e+00	0	42	0	2933915648	42	5552
2026-01-20 19:19:09.64	285.28	17.46	-34.1	-34.7	26.5	0.00e+00	0	42	0	2940207104	42	5515
2026-01-20 19:19:10.66	285.10	17.38	-34.4	-35.1	26.2	0.00e+00	0	42	0	2945449984	42	5817
2026-01-20 19:19:11.67	284.92	17.31	-34.4	-35.0	26.4	0.00e+00	0	42	0	2951741440	42	5707
2026-01-20 19:19:12.68	284.75	17.23	-34.6	-35.2	26.2	0.00e+00	0	42	0	2956984320	42	5847
2026-01-20 19:19:13.69	284.57	17.16	-34.7	-35.2	26.0	0.00e+00	0	42	0	2962227200	42	5895
2026-01-20 19:19:14.70	284.40	17.08	-34.6	-35.4	26.1	0.00e+00	0	42	0	2968518656	42	5972
2026-01-20 19:19:15.71	284.22	17.00	-34.6	-35.2	26.1	0.00e+00	0	42	0	2973761536	42	5864
2026-01-20 19:19:16.72	284.05	16.93	-34.9	-35.6	25.9	0.00e+00	0	42	0	2980052992	42	6110
2026-01-20 19:19:17.73	283.88	16.85	-34.8	-35.4	25.9	0.00e+00	0	42	0	2985295872	42	6008
2026-01-20 19:19:18.74	283.71	16.77	-34.8	-35.5	26.0	0.00e+00	0	42	0	2991587328	42	6051
2026-01-20 19:19:19.75	283.54	16.69	-34.8	-35.4	25.9	0.00e+00	0	42	0	2996830208	42	5998
2026-01-20 19:19:20.76	283.37	16.62	-34.8	-35.4	25.9	0.00e+00	0	43	0	3003121664	42	5985
2026-01-20 19:19:21.77	283.20	16.54	-34.8	-35.4	26.0	0.00e+00	0	42	0	3008364544	42	6031
2026-01-20 19:19:22.78	283.03	16.46	-34.9	-35.6	25.9	0.00e+00	0	42	0	3013607424	42	6158
2026-01-20 19:19:23.79	282.86	16.39	-34.7	-35.5	25.9	0.00e+00	0	42	0	3019898880	42	6051
2026-01-20 19:19:24.80	282.70	16.31	-34.6	-35.2	26.0	0.00e+00	0	42	0	3025141760	42	5836
2026-01-20 19:19:25.81	282.53	16.23	-34.7	-35.3	26.0	0.00e+00	0	42	0	3031433216	42	5900
2026-01-20 19:19:26.82	282.37	16.16	-34.8	-35.3	25.9	0.00e+00	0	42	0	3036676096	42	5956
2026-01-20 19:19:27.83	282.21	16.08	-34.7	-35.4	26.0	0.00e+00	0	42	0	3041918976	42	6004
2026-01-20 19:19:28.84	282.04	16.00	-34.7	-35.2	26.0	0.00e+00	0	42	0	3048210432	42	5888
2026-01-20 19:19:29.85	281.88	15.93	-34.9	-35.6	25.8	0.00e+00	0	42	0	3053453312	42	6132
2026-01-20 19:19:30.86	281.72	15.85	-34.9	-35.6	25.9	0.00e+00	0	42	0	3059744768	42	6132
2026-01-20 19:19:31.87	281.56	15.77	-34.9	-35.5	25.8	0.00e+00	0	42	0	3064987648	42	6087
2026-01-20 19:19:32.88	281.40	15.70	-35.1	-35.7	25.6	0.00e+00	0	42	0	3070230528	42	6233
2026-01-20 19:19:33.89	281.24	15.62	-35.1	-35.7	25.7	0.00e+00	0	43	0	3076521984	42	6178
2026-01-20 19:19:34.90	281.09	15.54	-35.0	-35.6	25.8	0.00e+00	0	42	0	3081764864	42	6114
2026-01-20 19:19:35.91	280.93	15.47	-34.9	-35.7	25.8	0.00e+00	0	42	0	3088056320	42	6176
2026-01-20 19:19:36.92	280.77	15.39	-35.1	-35.8	25.7	0.00e+00	0	42	0	3093299200	42	6315
2026-01-20 19:19:37.93	280.62	15.31	-35.1	-35.8	25.6	0.00e+00	0	42	0	3099590656	42	6296
2026-01-20 19:19:38.94	280.46	15.24	-35.2	-36.0	25.5	0.00e+00	0	42	0	3104833536	42	6395
2026-01-20 19:19:39.95	280.31	15.16	-35.1	-35.7	25.6	0.00e+00	0	42	0	3111124992	42	6211
2026-01-20 19:19:40.96	280.16	15.08	-35.2	-35.8	25.6	0.00e+00	0	42	0	3116367872	42	6255
2026-01-20 19:19:41.97	280.01	15.01	-35.1	-35.7	25.6	0.00e+00	0	43	0	3121610752	42	6232
2026-01-20 19:19:42.98	279.85	14.93	-35.0	-35.8	25.7	0.00e+00	0	43	0	3127902208	42	6248
2026-01-20 19:19:43.99	279.70	14.85	-35.3	-36.0	25.5	0.00e+00	0	42	0	3133145088	42	6435
2026-01-20 19:19:45.00	279.55	14.78	-35.2	-36.0	25.5	0.00e+00	0	42	0	3139436544	42	6395
2026-01-20 19:19:46.01	279.41	14.70	-35.3	-35.9	25.4	0.00e+00	0	43	0	3144679424	42	6377
2026-01-20 19:19:47.03	279.26	14.62	-35.3	-36.1	25.4	0.00e+00	0	42	0	3149922304	42	6495
2026-01-20 19:19:48.04	279.11	14.55	-35.4	-36.2	25.2	0.00e+00	0	43	0	3156213760	42	6549
2026-01-20 19:19:49.04	278.96	14.47	-35.2	-35.8	25.5	0.00e+00	0	43	0	3161456640	42	6276
2026-01-20 19:19:50.05	278.82	14.40	-35.4	-36.2	25.3	0.00e+00	0	43	0	3167748096	42	6560
2026-01-20 19:19:51.06	278.67	14.32	-35.3	-36.0	25.4	0.00e+00	0	43	0	3172990976	42	6429
2026-01-20 19:19:52.07	278.53	14.24	-35.4	-36.0	25.3	0.00e+00	0	43	0	3178233856	42	6448
2026-01-20 19:19:53.08	278.39	14.17	-35.7	-36.4	25.2	0.00e+00	0	43	0	3184525312	42	6727
2026-01-20 19:19:54.09	278.24	14.09	-35.8	-36.6	25.0	0.00e+00	0	43	0	3189768192	42	6870
2026-01-20 19:19:55.10	278.10	14.02	-35.5	-36.3	25.2	0.00e+00	0	43	0	3196059648	44	5933
2026-01-20 19:19:56.12	277.96	13.94	-35.5	-36.2	25.2	0.00e+00	0	42	0	3201302528	44	5891
2026-01-20 19:19:57.13	277.82	13.86	-35.5	-36.1	25.2	0.00e+00	0	43	0	3207593984	44	5811
2026-01-20 19:19:58.14	277.68	13.79	-35.5	-36.3	25.1	0.00e+00	0	43	0	3212836864	44	5898
2026-01-20 19:19:59.15	277.54	13.71	-35.6	-36.3	25.1	0.00e+00	0	43	0	3219128320	44	5948
2026-01-20 19:20:00.16	277.40	13.64	-35.7	-36.4	25.1	0.00e+00	0	43	0	3224371200	44	5973
2026-01-20 19:20:01.17	277.26	13.56	-35.7	-36.3	25.0	0.00e+00	0	43	0	3229614080	44	5952
2026-01-20 19:20:02.18	277.13	13.49	-35.4	-36.2	25.2	0.00e+00	0	43	0	3235905536	44	5831
2026-01-20 19:20:03.19	276.99	13.41	-35.6	-36.2	25.1	0.00e+00	0	42	0	3241148416	44	5852
2026-01-20 19:20:04.20	276.86	13.33	-35.6	-36.3	25.2	0.00e+00	0	42	0	3247439872	44	5927
2026-01-20 19:20:05.21	276.72	13.26	-35.6	-36.2	25.0	0.00e+00	0	43	0	3252682752	44	5855
2026-01-20 19:20:06.22	276.59	13.18	-35.6	-36.2	25.1	0.00e+00	0	43	0	3257925632	44	5871
2026-01-20 19:20:07.23	276.45	13.11	-35.8	-36.6	24.9	0.00e+00	0	43	0	3264217088	44	6140
2026-01-20 19:20:08.24	276.32	13.03	-35.7	-36.4	24.9	0.00e+00	0	43	0	3269459968	44	6018
2026-01-20 19:20:09.25	276.19	12.96	-35.8	-36.5	24.9	0.00e+00	0	43	0	3275751424	44	6046
2026-01-20 19:20:10.26	276.06	12.88	-35.8	-36.5	25.0	0.00e+00	0	43	0	3280994304	44	6081
2026-01-20 19:20:11.27	275.93	12.81	-36.0	-36.7	24.8	0.00e+00	0	43	0	3286237184	44	6227
2026-01-20 19:20:12.28	275.80	12.74	-36.1	-36.8	24.7	0.00e+00	0	43	0	3292528640	44	6316
2026-01-20 19:20:13.29	275.67	12.66	-36.1	-36.8	24.7	0.00e+00	0	43	0	3297771520	44	6280
2026-01-20 19:20:14.30	275.54	12.59	-36.2	-36.8	24.6	0.00e+00	0	43	0	3304062976	44	6265
2026-01-20 19:20:15.31	275.41	12.51	-36.2	-36.9	24.4	0.00e+00	0	43	0	3309305856	44	6337
2026-01-20 19:20:16.32	275.28	12.44	-35.8	-36.5	24.9	0.00e+00	0	43	0	3315597312	44	6066
2026-01-20 19:20:17.33	275.16	12.36	-36.0	-36.6	24.8	0.00e+00	0	43	0	3320840192	44	6126
2026-01-20 19:20:18.34	275.03	12.29	-35.7	-36.3	24.8	0.00e+00	0	43	0	3326083072	44	5948
2026-01-20 19:20:19.35	274.91	12.21	-35.8	-36.4	24.9	0.00e+00	0	43	0	3332374528	44	6028
2026-01-20 19:20:20.37	274.78	12.14	-36.0	-36.7	24.7	0.00e+00	0	43	0	3337617408	44	6187
2026-01-20 19:20:21.38	274.66	12.07	-35.9	-36.7	24.6	0.00e+00	0	43	0	3343908864	44	6198
2026-01-20 19:20:22.39	274.53	11.99	-36.2	-36.8	24.6	0.00e+00	0	43	0	3349151744	44	6299
2026-01-20 19:20:23.40	274.41	11.92	-36.0	-36.6	24.8	0.00e+00	0	43	0	3355443200	44	6116
2026-01-20 19:20:24.41	274.29	11.85	-35.9	-36.6	24.7	0.00e+00	0	43	0	3360686080	44	6108
2026-01-20 19:20:25.42	274.17	11.77	-36.3	-37.1	24.4	0.00e+00	0	43	0	3365928960	44	6489
2026-01-20 19:20:26.43	274.05	11.70	-36.2	-37.0	24.5	0.00e+00	0	43	0	3372220416	44	6433
2026-01-20 19:20:27.44	273.93	11.62	-36.5	-37.1	24.3	0.00e+00	0	43	0	3377463296	44	6532
2026-01-20 19:20:28.45	273.81	11.55	-36.4	-37.2	24.3	0.00e+00	0	43	0	3383754752	44	6581
2026-01-20 19:20:29.46	273.69	11.48	-36.7	-37.4	24.0	0.00e+00	0	43	0	3388997632	44	6727
2026-01-20 19:20:30.47	273.57	11.41	-36.4	-37.0	24.4	0.00e+00	0	43	0	3394240512	44	6453
2026-01-20 19:20:31.48	273.45	11.33	-36.5	-37.1	24.3	0.00e+00	0	43	0	3400531968	44	6505
2026-01-20 19:20:32.49	273.33	11.26	-36.4	-37.2	24.2	0.00e+00	0	43	0	3405774848	44	6583
2026-01-20 19:20:33.50	273.22	11.19	-36.5	-37.1	24.2	0.00e+00	0	43	0	3412066304	44	6531
2026-01-20 19:20:34.51	273.10	11.11	-36.6	-37.3	24.0	0.00e+00	0	43	0	3417309184	44	6648
2026-01-20 19:20:35.52	272.99	11.04	-36.6	-37.3	24.3	0.00e+00	0	43	0	3423600640	46	5914
2026-01-20 19:20:36.53	272.87	10.97	-36.4	-37.0	24.3	0.00e+00	0	43	0	3428843520	46	5727
2026-01-20 19:20:37.54	272.76	10.90	-36.5	-37.3	24.0	0.00e+00	0	43	0	3434086400	46	5944
2026-01-20 19:20:38.55	272.64	10.82	-36.6	-37.4	24.1	0.00e+00	0	43	0	3440377856	46	5979
2026-01-20 19:20:39.56	272.53	10.75	-36.6	-37.3	24.1	0.00e+00	0	43	0	3445620736	46	5927
2026-01-20 19:20:40.57	272.42	10.68	-36.5	-37.3	24.1	0.00e+00	0	43	0	3451912192	46	5940
2026-01-20 19:20:41.58	272.30	10.61	-36.6	-37.3	24.1	0.00e+00	0	43	0	3457155072	46	5949
2026-01-20 19:20:42.59	272.19	10.54	-36.4	-37.1	24.3	0.00e+00	0	43	0	3462397952	46	5823
2026-01-20 19:20:43.60	272.08	10.46	-36.5	-37.1	24.1	0.00e+00	0	43	0	3468689408	46	5803
2026-01-20 19:20:44.62	271.97	10.39	-36.6	-37.3	24.0	0.00e+00	0	43	0	3473932288	46	5920
2026-01-20 19:20:45.63	271.86	10.32	-36.6	-37.3	24.1	0.00e+00	0	43	0	3480223744	46	5898
2026-01-20 19:20:46.64	271.75	10.25	-36.6	-37.3	24.1	0.00e+00	0	43	0	3485466624	46	5928
2026-01-20 19:20:47.65	271.64	10.18	-36.4	-37.2	24.2	0.00e+00	0	43	0	3491758080	46	5830
2026-01-20 19:20:48.66	271.53	10.11	-36.7	-37.3	23.9	0.00e+00	0	43	0	3497000960	46	5942
2026-01-20 19:20:49.67	271.43	10.04	-36.6	-37.4	24.1	0.00e+00	0	43	0	3502243840	46	5993
2026-01-20 19:20:50.68	271.32	9.96	-36.4	-37.1	24.2	0.00e+00	0	43	0	3508535296	46	5783
2026-01-20 19:20:51.68	271.21	9.89	-36.7	-37.3	23.9	0.00e+00	0	43	0	3513778176	46	5939
2026-01-20 19:20:52.70	271.11	9.82	-36.8	-37.6	23.9	0.00e+00	0	43	0	3520069632	46	6112
2026-01-20 19:20:53.71	271.00	9.75	-36.8	-37.5	23.8	0.00e+00	0	43	0	3525312512	46	6068
2026-01-20 19:20:54.72	270.90	9.68	-36.8	-37.6	23.9	0.00e+00	0	43	0	3531603968	46	6148
2026-01-20 19:20:55.73	270.79	9.61	-36.9	-37.7	23.7	0.00e+00	0	43	0	3536846848	46	6227
2026-01-20 19:20:56.73	270.69	9.54	-37.0	-37.8	23.7	0.00e+00	0	43	0	3542089728	46	6307
2026-01-20 19:20:57.75	270.59	9.47	-37.1	-37.9	23.5	0.00e+00	0	43	0	3548381184	46	6356
2026-01-20 19:20:58.76	270.48	9.40	-36.9	-37.6	23.8	0.00e+00	0	43	0	3553624064	46	6117
2026-01-20 19:20:59.77	270.38	9.33	-37.0	-37.7	23.5	0.00e+00	0	43	0	3559915520	46	6213
2026-01-20 19:21:00.78	270.28	9.26	-36.9	-37.6	23.8	0.00e+00	0	43	0	3565158400	46	6138
2026-01-20 19:21:01.79	270.18	9.19	-36.9	-37.7	23.7	0.00e+00	0	43	0	3570401280	46	6174
2026-01-20 19:21:02.80	270.08	9.12	-37.1	-37.8	23.5	0.00e+00	0	43	0	3576692736	46	6295
2026-01-20 19:21:03.81	269.98	9.05	-37.1	-37.8	23.4	0.00e+00	0	43	0	3581935616	46	6279
2026-01-20 19:21:04.82	269.88	8.98	-37.1	-37.9	23.4	0.00e+00	0	43	0	3588227072	46	6379
2026-01-20 19:21:05.83	269.78	8.91	-37.3	-38.1	23.4	0.00e+00	0	43	0	3593469952	46	6535
