passes_logs/2026/01/20/R4.6S_Anadyr/R4.6S_Anadyr__20260120_184014_AQUA_rec.log

#Pass ID: 20260120_184014_AQUA
#Satellite: AQUA
#Configuration: AQUA
#almurnet v.1.7.20251203
#Start time: 2026-01-20 18:40:15

#Version: 2.2.20231116
#Station: R4.6S_Anadyr
#Location: 177.4865 lon 64.73178 lat
#TLE: 1 27424U 02022A   26019.95447505  .00001296  00000+0  26931-3 0  9993
#TLE: 2 27424  98.4091 346.4652 0001983  72.1988 359.6274 14.61832814261618

#Time	Az	El	Level	Level2	SNR	BER	BlckErr	Temp	State	Recorded	gain1	gain2
2026-01-20 18:40:15.41	25.62	0.07	-51.4	-66.3	3.5	1.51e+00	0	39	0	0	60	74561
2026-01-20 18:40:16.42	25.56	0.13	-52.5	-70.5	3.5	3.02e+01	0	41	104	0	60	128524
2026-01-20 18:40:17.43	25.49	0.19	-52.3	-70.2	3.5	3.02e+01	0	41	104	0	60	124634
2026-01-20 18:40:18.43	25.43	0.24	-52.3	-70.2	3.5	3.02e+01	0	41	104	0	60	124412
2026-01-20 18:40:19.44	25.36	0.30	-52.2	-70.0	3.5	3.02e+01	0	41	104	0	60	122295
2026-01-20 18:40:20.46	25.30	0.35	-52.0	-70.0	3.5	3.02e+01	0	41	104	0	60	121338
2026-01-20 18:40:21.47	25.23	0.41	-52.1	-70.0	3.5	3.02e+01	0	41	104	0	60	121917
2026-01-20 18:40:22.48	25.17	0.47	-52.1	-70.0	3.5	3.02e+01	0	41	104	0	60	121780
2026-01-20 18:40:23.49	25.10	0.52	-52.1	-69.9	3.5	3.02e+01	0	41	104	0	60	120340
2026-01-20 18:40:24.50	25.04	0.58	-52.0	-69.9	3.5	3.02e+01	0	41	104	0	60	119733
2026-01-20 18:40:25.50	24.97	0.64	-52.0	-69.8	3.5	3.02e+01	0	41	104	0	60	119002
2026-01-20 18:40:26.52	24.91	0.69	-51.9	-69.8	3.5	3.02e+01	0	41	104	0	60	118646
2026-01-20 18:40:27.52	24.84	0.75	-51.8	-69.7	3.5	3.02e+01	0	41	104	0	60	118028
2026-01-20 18:40:28.53	24.77	0.81	-51.8	-69.7	3.5	3.02e+01	0	41	104	0	60	117324
2026-01-20 18:40:29.54	24.71	0.86	-51.8	-69.6	3.5	3.02e+01	0	41	104	0	60	116370
2026-01-20 18:40:30.55	24.64	0.92	-51.7	-69.5	3.5	3.02e+01	0	41	104	0	60	114781
2026-01-20 18:40:31.56	24.57	0.98	-51.6	-69.5	3.5	3.02e+01	0	41	104	0	60	114404
2026-01-20 18:40:32.57	24.50	1.03	-51.4	-69.3	3.5	3.02e+01	0	41	104	0	60	111813
2026-01-20 18:40:33.58	24.43	1.09	-51.2	-69.1	3.5	3.02e+01	0	41	104	0	60	109528
2026-01-20 18:40:34.59	24.37	1.15	-50.9	-69.0	3.5	3.02e+01	0	41	104	0	60	108089
2026-01-20 18:40:35.60	24.30	1.21	-51.0	-68.8	3.5	3.02e+01	0	41	104	0	60	106508
2026-01-20 18:40:36.61	24.23	1.26	-51.0	-68.8	3.5	3.02e+01	0	41	104	0	60	105598
2026-01-20 18:40:37.62	24.16	1.32	-50.6	-68.6	3.5	3.02e+01	0	41	104	0	60	103815
2026-01-20 18:40:38.63	24.09	1.38	-35.5	-67.0	3.5	3.02e+01	0	41	104	0	50	152675
2026-01-20 18:40:39.64	24.02	1.44	-50.2	-68.1	3.5	3.02e+01	0	41	104	0	60	97394
2026-01-20 18:40:40.65	23.95	1.49	-50.1	-67.9	3.5	3.02e+01	0	41	104	0	60	95976
2026-01-20 18:40:41.66	23.88	1.55	-50.1	-67.9	3.5	3.02e+01	0	41	104	0	60	95319
2026-01-20 18:40:42.67	23.80	1.61	-50.1	-67.8	3.5	3.02e+01	0	41	104	0	60	94948
2026-01-20 18:40:43.68	23.73	1.67	-50.1	-67.9	3.5	3.02e+01	0	41	104	0	60	95104
2026-01-20 18:40:44.69	23.66	1.73	-50.1	-67.9	3.5	3.02e+01	0	41	104	0	60	95554
2026-01-20 18:40:45.70	23.59	1.78	-50.1	-67.9	3.5	3.02e+01	0	41	104	0	60	95064
2026-01-20 18:40:46.71	23.52	1.84	-50.1	-67.9	3.5	3.02e+01	0	41	104	0	60	95776
2026-01-20 18:40:47.72	23.44	1.90	-50.1	-68.0	3.5	3.02e+01	0	41	104	0	60	96356
2026-01-20 18:40:48.73	23.37	1.96	-50.1	-67.9	3.5	3.02e+01	0	41	104	0	60	96086
2026-01-20 18:40:49.74	23.30	2.02	-50.1	-67.9	3.5	3.02e+01	0	41	104	0	60	95807
2026-01-20 18:40:50.75	23.22	2.08	-50.1	-67.9	3.5	3.02e+01	0	41	104	0	60	95543
2026-01-20 18:40:51.76	23.15	2.14	-50.1	-68.0	3.5	3.02e+01	0	41	104	0	60	96319
2026-01-20 18:40:52.77	23.07	2.20	-50.1	-67.9	3.5	3.02e+01	0	41	104	0	60	95264
2026-01-20 18:40:53.78	23.00	2.25	-50.1	-67.8	3.5	3.02e+01	0	41	104	0	60	94485
2026-01-20 18:40:54.79	22.92	2.31	-50.0	-67.7	3.5	3.02e+01	0	41	104	0	60	92996
2026-01-20 18:40:55.80	22.85	2.37	-50.0	-67.6	3.5	3.02e+01	0	41	104	0	60	92157
2026-01-20 18:40:56.81	22.77	2.43	-50.0	-67.6	3.5	3.02e+01	0	41	104	0	60	92760
2026-01-20 18:40:57.82	22.70	2.49	-50.1	-67.9	3.5	3.02e+01	0	41	104	0	60	95427
2026-01-20 18:40:58.83	22.62	2.55	-50.1	-67.9	3.5	3.02e+01	0	41	104	0	60	95915
2026-01-20 18:40:59.84	22.54	2.61	-50.0	-67.9	3.5	3.02e+01	0	41	104	0	60	95472
2026-01-20 18:41:00.85	22.47	2.67	-50.0	-67.9	3.5	3.02e+01	0	41	104	0	60	95167
2026-01-20 18:41:01.86	22.39	2.73	-50.1	-67.9	3.5	3.02e+01	0	41	104	0	60	95204
2026-01-20 18:41:02.87	22.31	2.79	-50.1	-68.0	3.5	3.02e+01	0	42	104	0	60	96238
2026-01-20 18:41:03.88	22.23	2.85	-50.1	-67.9	3.5	3.02e+01	0	42	104	0	60	95558
2026-01-20 18:41:04.89	22.15	2.91	-50.0	-67.4	3.5	3.02e+01	0	42	104	0	60	89765
2026-01-20 18:41:05.90	22.07	2.97	-49.9	-67.0	3.5	3.02e+01	0	42	104	0	60	86305
2026-01-20 18:41:06.91	21.99	3.03	-49.9	-66.9	3.5	3.02e+01	0	42	104	0	60	85138
2026-01-20 18:41:07.92	21.91	3.09	-50.0	-67.6	3.5	3.02e+01	0	42	104	0	60	92709
2026-01-20 18:41:08.93	21.83	3.15	-50.0	-67.4	3.5	3.02e+01	0	42	104	0	60	90454
2026-01-20 18:41:09.94	21.75	3.21	-49.5	-65.0	3.5	3.02e+01	0	41	104	0	60	68578
2026-01-20 18:41:10.95	21.67	3.27	-49.6	-65.5	3.5	3.02e+01	0	41	104	0	60	72682
2026-01-20 18:41:11.96	21.59	3.33	-47.1	-59.4	3.5	3.02e+01	0	42	104	0	60	35949
2026-01-20 18:41:12.97	21.51	3.39	-46.9	-59.1	3.5	3.02e+01	0	41	104	0	60	34857
2026-01-20 18:41:13.98	21.43	3.45	-49.4	-64.9	3.5	3.02e+01	0	42	104	0	60	67921
2026-01-20 18:41:14.99	21.34	3.52	-41.8	-52.3	3.5	3.02e+01	0	42	104	0	58	17864
2026-01-20 18:41:16.00	21.26	3.58	-50.0	-67.7	3.5	3.02e+01	0	42	104	0	60	93175
2026-01-20 18:41:17.01	21.18	3.64	-50.0	-67.1	3.5	3.02e+01	0	42	104	0	60	86805
2026-01-20 18:41:18.02	21.09	3.70	-43.6	-54.5	3.5	3.02e+01	0	42	104	0	60	20411
2026-01-20 18:41:19.03	21.01	3.76	-40.4	-50.8	3.5	3.02e+01	0	42	104	0	56	16738
2026-01-20 18:41:20.04	20.92	3.82	-40.2	-50.6	3.5	3.02e+01	0	42	104	0	56	16348
2026-01-20 18:41:21.05	20.84	3.88	-42.0	-52.6	3.5	3.02e+01	0	42	104	0	58	18445
2026-01-20 18:41:22.06	20.75	3.95	-41.6	-52.1	3.5	3.02e+01	0	42	104	0	58	17468
2026-01-20 18:41:23.07	20.67	4.01	-42.9	-53.7	3.5	3.02e+01	0	42	104	0	58	20831
2026-01-20 18:41:24.08	20.58	4.07	-41.0	-51.5	3.5	3.02e+01	0	42	104	0	56	18207
2026-01-20 18:41:25.09	20.50	4.13	-50.0	-67.7	3.5	3.02e+01	0	42	104	0	60	92895
2026-01-20 18:41:26.10	20.41	4.19	-50.1	-66.6	3.6	3.02e+01	0	42	104	0	60	82741
2026-01-20 18:41:27.11	20.32	4.26	-42.8	-53.5	3.5	3.02e+01	0	42	104	0	58	20421
2026-01-20 18:41:28.12	20.23	4.32	-42.5	-53.1	3.5	3.02e+01	0	42	104	0	58	19563
2026-01-20 18:41:29.13	20.14	4.38	-42.1	-52.7	3.5	3.02e+01	0	41	104	0	58	18547
2026-01-20 18:41:30.14	20.06	4.44	-41.1	-51.6	3.6	3.02e+01	0	41	104	0	58	16460
2026-01-20 18:41:31.15	19.97	4.50	-41.9	-52.5	3.6	3.02e+01	0	42	104	0	58	18181
2026-01-20 18:41:32.16	19.88	4.57	-40.6	-50.9	3.5	3.02e+01	0	42	104	0	54	19104
2026-01-20 18:41:33.17	19.79	4.63	-48.2	-61.4	3.5	3.02e+01	0	42	104	0	60	45336
2026-01-20 18:41:34.18	19.70	4.69	-49.9	-65.9	3.5	3.02e+01	0	41	104	0	60	76109
2026-01-20 18:41:35.19	19.60	4.76	-43.5	-54.3	3.6	3.02e+01	0	41	104	0	60	19958
2026-01-20 18:41:36.20	19.51	4.82	-50.1	-67.4	3.5	3.02e+01	0	42	104	0	60	90648
2026-01-20 18:41:37.21	19.42	4.88	-44.3	-55.3	3.5	3.02e+01	0	42	104	0	60	22428
2026-01-20 18:41:38.22	19.33	4.95	-43.9	-54.8	3.6	3.02e+01	0	42	104	0	60	21129
2026-01-20 18:41:39.23	19.24	5.01	-43.7	-54.5	3.5	3.02e+01	0	42	104	0	60	20457
2026-01-20 18:41:40.24	19.14	5.07	-44.0	-54.8	3.5	3.02e+01	0	42	104	0	60	21261
2026-01-20 18:41:41.25	19.05	5.14	-50.3	-67.9	3.5	3.02e+01	0	42	104	0	60	95664
2026-01-20 18:41:42.25	18.96	5.20	-42.0	-52.6	3.6	3.02e+01	0	42	104	0	58	18339
2026-01-20 18:41:43.26	18.86	5.26	-50.2	-67.6	3.5	3.02e+01	0	42	104	0	60	92297
2026-01-20 18:41:44.27	18.77	5.33	-48.3	-61.4	3.5	3.02e+01	0	42	104	0	60	45360
2026-01-20 18:41:45.28	18.67	5.39	-43.3	-54.1	3.5	3.02e+01	0	42	104	0	60	19499
2026-01-20 18:41:46.29	18.57	5.45	-41.0	-51.4	3.5	3.02e+01	0	42	104	0	58	16011
2026-01-20 18:41:47.30	18.48	5.52	-42.3	-53.0	3.5	3.02e+01	0	42	104	0	58	19187
2026-01-20 18:41:48.31	18.38	5.58	-40.6	-51.0	3.5	3.02e+01	0	42	104	0	56	17226
2026-01-20 18:41:49.32	18.28	5.65	-41.9	-52.4	3.5	3.02e+01	0	42	104	0	58	17972
2026-01-20 18:41:50.33	18.18	5.71	-41.8	-52.4	3.5	3.02e+01	0	42	104	0	56	20154
2026-01-20 18:41:51.34	18.09	5.78	-46.5	-58.2	3.5	3.02e+01	0	42	104	0	60	31390
2026-01-20 18:41:52.35	17.99	5.84	-49.2	-63.2	3.5	3.02e+01	0	42	104	0	60	55816
2026-01-20 18:41:53.36	17.89	5.91	-40.9	-51.3	3.5	3.02e+01	0	42	104	0	56	17743
2026-01-20 18:41:54.37	17.79	5.97	-50.4	-68.1	3.5	3.02e+01	0	42	104	0	60	97390
2026-01-20 18:41:55.38	17.69	6.04	-42.8	-53.4	3.6	3.02e+01	0	42	104	0	60	18030
2026-01-20 18:41:56.39	17.59	6.10	-42.5	-53.1	3.5	3.02e+01	0	42	104	0	60	17402
2026-01-20 18:41:57.40	17.48	6.17	-42.3	-52.8	3.5	3.02e+01	0	42	104	0	58	18953
2026-01-20 18:41:58.41	17.38	6.23	-41.9	-52.4	3.5	3.02e+01	0	42	104	0	58	18078
2026-01-20 18:41:59.42	17.28	6.30	-47.4	-59.6	3.6	3.02e+01	0	42	104	0	60	36740
2026-01-20 18:42:00.43	17.18	6.36	-43.7	-54.5	3.5	3.02e+01	0	42	104	0	56	25796
2026-01-20 18:42:01.44	17.07	6.43	-50.3	-66.5	3.5	3.02e+01	0	42	104	0	60	80913
2026-01-20 18:42:02.45	16.97	6.49	-42.3	-52.8	3.6	3.02e+01	0	42	104	0	60	16890
2026-01-20 18:42:03.46	16.86	6.56	-42.7	-53.4	3.5	3.02e+01	0	42	104	0	60	17905
2026-01-20 18:42:04.47	16.76	6.63	-41.3	-51.7	3.5	3.02e+01	0	42	104	0	58	16567
2026-01-20 18:42:05.48	16.65	6.69	-40.9	-51.3	3.5	3.02e+01	0	42	104	0	56	17896
2026-01-20 18:42:06.49	16.55	6.76	-40.7	-51.1	3.5	3.02e+01	0	42	104	0	56	17342
2026-01-20 18:42:07.50	16.44	6.82	-41.7	-52.3	3.5	3.02e+01	0	42	104	0	56	19890
2026-01-20 18:42:08.51	16.33	6.89	-41.7	-52.2	3.5	3.02e+01	0	42	104	0	56	19634
2026-01-20 18:42:09.52	16.22	6.96	-45.9	-57.3	3.5	3.02e+01	0	42	104	0	60	28143
2026-01-20 18:42:10.53	16.12	7.02	-45.2	-56.4	3.6	3.02e+01	0	42	104	0	60	25394
2026-01-20 18:42:11.53	16.01	7.09	-45.4	-56.6	3.5	3.02e+01	0	42	104	0	58	29310
2026-01-20 18:42:12.54	15.90	7.16	-49.7	-64.3	3.5	3.02e+01	0	42	104	0	60	62934
2026-01-20 18:42:13.55	15.79	7.22	-41.4	-51.8	3.5	3.02e+01	0	42	104	0	58	16886
2026-01-20 18:42:14.56	15.68	7.29	-40.6	-51.0	3.5	3.02e+01	0	42	104	0	56	17099
2026-01-20 18:42:15.57	15.57	7.36	-40.5	-50.9	3.5	3.02e+01	0	42	104	0	56	16960
2026-01-20 18:42:16.58	15.45	7.42	-48.0	-60.5	3.5	3.02e+01	0	42	104	0	60	40955
2026-01-20 18:42:17.59	15.34	7.49	-44.8	-56.0	3.5	3.02e+01	0	42	104	0	60	24229
2026-01-20 18:42:18.60	15.23	7.56	-49.5	-63.9	3.4	3.02e+01	0	42	104	0	60	60566
2026-01-20 18:42:19.61	15.12	7.63	-50.1	-65.7	3.5	3.02e+01	0	42	104	0	60	73956
2026-01-20 18:42:20.62	15.00	7.69	-41.3	-51.7	3.5	3.02e+01	0	42	104	0	60	14795
2026-01-20 18:42:21.62	14.89	7.76	-42.1	-52.7	3.5	3.02e+01	0	42	104	0	60	16565
2026-01-20 18:42:22.64	14.77	7.83	-41.6	-52.1	3.5	3.02e+01	0	42	104	0	58	17412
2026-01-20 18:42:23.65	14.65	7.90	-42.2	-52.7	3.6	3.02e+01	0	42	104	0	58	18677
2026-01-20 18:42:24.66	14.54	7.96	-41.5	-51.9	3.6	3.02e+01	0	42	104	0	58	17053
2026-01-20 18:42:25.67	14.42	8.03	-40.6	-51.0	3.6	3.02e+01	0	42	104	0	56	17283
2026-01-20 18:42:26.68	14.30	8.10	-44.9	-56.0	3.5	3.02e+01	0	42	104	0	60	24267
2026-01-20 18:42:27.69	14.18	8.17	-48.8	-61.8	3.5	3.02e+01	0	42	104	0	60	47528
2026-01-20 18:42:28.70	14.07	8.24	-46.0	-57.5	3.5	3.02e+01	0	42	104	0	60	28736
2026-01-20 18:42:29.70	13.95	8.30	-50.7	-68.0	3.5	3.02e+01	0	42	104	0	60	96417
2026-01-20 18:42:30.71	13.83	8.37	-49.3	-62.9	3.5	3.02e+01	0	42	104	0	60	53942
2026-01-20 18:42:31.72	13.71	8.44	-44.9	-56.0	3.5	3.02e+01	0	42	104	0	60	24326
2026-01-20 18:42:32.73	13.58	8.51	-44.9	-56.1	3.5	3.02e+01	0	42	104	0	60	24448
2026-01-20 18:42:33.74	13.46	8.58	-44.3	-55.2	3.6	3.02e+01	0	42	104	0	60	22178
2026-01-20 18:42:34.75	13.34	8.65	-50.8	-67.9	3.5	3.02e+01	0	42	104	0	60	95050
2026-01-20 18:42:35.76	13.21	8.72	-50.9	-68.6	3.5	3.02e+01	0	42	104	0	60	103774
2026-01-20 18:42:36.77	13.09	8.78	-45.1	-56.2	3.5	3.02e+01	0	42	104	0	60	24983
2026-01-20 18:42:37.78	12.97	8.85	-40.1	-50.4	3.5	3.02e+01	0	42	104	0	54	18050
2026-01-20 18:42:38.79	12.84	8.92	-50.7	-68.3	3.5	3.02e+01	0	42	104	0	60	100476
2026-01-20 18:42:39.80	12.71	8.99	-41.5	-52.0	3.6	3.02e+01	0	42	104	0	60	15366
2026-01-20 18:42:40.81	12.59	9.06	-40.3	-50.7	3.6	3.02e+01	0	42	104	0	56	16531
2026-01-20 18:42:41.82	12.46	9.13	-40.0	-50.4	3.5	3.02e+01	0	42	104	0	56	15990
2026-01-20 18:42:42.83	12.33	9.20	-40.1	-50.4	3.5	3.02e+01	0	42	104	0	54	18023
2026-01-20 18:42:43.84	12.20	9.27	-51.0	-68.6	3.5	3.02e+01	0	42	104	0	60	103989
2026-01-20 18:42:44.85	12.07	9.34	-48.3	-60.9	3.6	3.02e+01	0	42	104	0	60	42834
2026-01-20 18:42:45.86	11.94	9.41	-50.7	-67.2	3.5	3.02e+01	0	42	104	0	60	87988
2026-01-20 18:42:46.86	11.81	9.48	-42.0	-52.5	3.5	3.02e+01	0	42	104	0	60	16209
2026-01-20 18:42:47.87	11.68	9.55	-50.7	-67.6	3.5	3.02e+01	0	42	104	0	60	92241
2026-01-20 18:42:48.88	11.55	9.62	-45.5	-56.6	3.5	3.02e+01	0	42	104	0	60	26073
2026-01-20 18:42:49.89	11.42	9.69	-43.2	-53.9	3.6	3.02e+01	0	42	104	0	60	19051
2026-01-20 18:42:50.90	11.28	9.76	-41.5	-52.0	3.6	3.02e+01	0	42	104	0	58	17285
2026-01-20 18:42:51.91	11.15	9.83	-40.4	-50.7	3.5	3.02e+01	0	42	104	0	56	16673
2026-01-20 18:42:52.92	11.01	9.90	-49.7	-64.2	3.5	3.02e+01	0	42	104	0	60	62188
2026-01-20 18:42:53.93	10.88	9.97	-41.6	-52.0	3.5	3.02e+01	0	42	104	0	60	15328
2026-01-20 18:42:54.94	10.74	10.04	-50.7	-67.5	3.5	3.02e+01	0	42	104	0	60	91421
2026-01-20 18:42:55.95	10.60	10.11	-50.5	-66.5	3.5	3.02e+01	0	42	104	0	60	81639
2026-01-20 18:42:56.96	10.46	10.18	-42.3	-52.9	3.5	3.02e+01	0	42	104	0	58	19045
2026-01-20 18:42:57.97	10.33	10.25	-41.0	-51.4	3.6	3.02e+01	0	42	104	0	56	18058
2026-01-20 18:42:58.98	10.19	10.32	-40.6	-51.0	3.5	3.02e+01	0	42	104	0	56	17140
2026-01-20 18:42:59.99	10.05	10.39	-40.3	-50.6	3.5	3.02e+01	0	42	104	0	56	16416
2026-01-20 18:43:01.00	9.90	10.46	-39.5	-49.8	3.6	3.02e+01	0	42	104	0	54	16864
2026-01-20 18:43:02.01	9.76	10.53	-40.8	-51.1	3.5	3.02e+01	0	42	104	0	54	19606
2026-01-20 18:43:03.02	9.62	10.61	-47.7	-59.8	3.5	3.02e+01	0	42	104	0	60	37466
2026-01-20 18:43:04.03	9.48	10.68	-50.9	-67.8	3.5	3.02e+01	0	42	104	0	60	94219
2026-01-20 18:43:05.04	9.33	10.75	-41.0	-51.4	3.5	3.02e+01	0	42	104	0	58	16099
2026-01-20 18:43:06.05	9.19	10.82	-50.8	-67.6	3.5	3.02e+01	0	42	104	0	60	91912
2026-01-20 18:43:07.06	9.04	10.89	-40.2	-50.5	3.5	3.02e+01	0	42	104	0	56	16264
2026-01-20 18:43:08.07	8.89	10.96	-39.7	-50.0	3.6	3.02e+01	0	42	104	0	54	17285
2026-01-20 18:43:09.08	8.75	11.03	-39.1	-49.4	3.5	3.02e+01	0	42	104	0	54	15979
2026-01-20 18:43:10.09	8.60	11.10	-39.0	-49.2	3.5	3.02e+01	0	42	104	0	54	15624
2026-01-20 18:43:11.10	8.45	11.18	-50.3	-65.5	3.5	3.02e+01	0	42	104	0	60	72894
2026-01-20 18:43:12.11	8.30	11.25	-40.6	-51.0	3.5	3.02e+01	0	42	104	0	58	15280
2026-01-20 18:43:13.12	8.15	11.32	-50.7	-67.1	3.5	3.02e+01	0	42	104	0	60	87476
2026-01-20 18:43:14.13	8.00	11.39	-49.1	-62.3	3.6	3.02e+01	0	42	104	0	60	50199
2026-01-20 18:43:15.14	7.85	11.46	-42.7	-53.2	3.5	3.02e+01	0	42	104	0	60	17618
2026-01-20 18:43:16.15	7.69	11.53	-40.9	-51.3	3.5	3.02e+01	0	42	104	0	56	17794
2026-01-20 18:43:17.16	7.54	11.60	-41.0	-51.4	3.5	3.02e+01	0	42	104	0	56	17951
2026-01-20 18:43:18.17	7.39	11.68	-41.3	-51.7	3.5	3.02e+01	0	42	104	0	56	18653
2026-01-20 18:43:19.18	7.23	11.75	-41.0	-51.4	3.6	3.02e+01	0	42	104	0	56	18099
2026-01-20 18:43:20.19	7.07	11.82	-38.9	-49.1	3.5	3.02e+01	0	42	104	0	52	17374
2026-01-20 18:43:21.20	6.92	11.89	-47.1	-58.9	3.6	3.02e+01	0	42	104	0	60	33743
2026-01-20 18:43:22.21	6.76	11.96	-50.2	-64.8	3.5	3.02e+01	0	42	104	0	60	67106
2026-01-20 18:43:23.22	6.60	12.04	-41.8	-52.3	3.5	3.02e+01	0	42	104	0	60	15838
2026-01-20 18:43:24.23	6.44	12.11	-50.7	-66.5	3.5	3.02e+01	0	42	104	0	60	81456
2026-01-20 18:43:25.24	6.28	12.18	-41.2	-51.5	3.5	3.02e+01	0	42	104	0	58	16201
2026-01-20 18:43:26.25	6.12	12.25	-41.9	-52.4	3.5	3.02e+01	0	42	104	0	58	17944
2026-01-20 18:43:27.26	5.96	12.32	-40.6	-51.0	3.5	3.02e+01	0	42	104	0	56	17171
2026-01-20 18:43:28.27	5.79	12.40	-42.3	-52.8	3.5	3.02e+01	0	42	104	0	56	21116
2026-01-20 18:43:29.28	5.63	12.47	-51.1	-68.5	3.5	3.02e+01	0	42	104	0	60	102612
2026-01-20 18:43:30.29	5.46	12.54	-39.2	-49.5	3.6	3.02e+01	0	42	104	0	54	16207
2026-01-20 18:43:31.30	5.30	12.61	-50.8	-66.9	3.5	3.02e+01	0	42	104	0	60	85118
2026-01-20 18:43:32.31	5.13	12.68	-44.5	-55.4	3.5	3.02e+01	0	42	104	0	60	22641
2026-01-20 18:43:33.32	4.96	12.76	-42.8	-53.3	3.5	3.02e+01	0	42	104	0	60	17833
2026-01-20 18:43:34.33	4.79	12.83	-39.7	-49.9	3.5	3.02e+01	0	42	104	0	54	17056
2026-01-20 18:43:35.34	4.63	12.90	-39.7	-49.9	3.5	3.02e+01	0	42	104	0	54	16999
2026-01-20 18:43:36.35	4.45	12.97	-39.4	-49.7	3.5	3.02e+01	0	42	104	0	54	16596
2026-01-20 18:43:37.36	4.28	13.04	-39.7	-49.9	3.5	3.02e+01	0	42	104	0	54	17032
2026-01-20 18:43:38.37	4.11	13.12	-42.0	-52.4	3.5	3.02e+01	0	42	104	0	58	17922
2026-01-20 18:43:39.38	3.94	13.19	-43.9	-54.6	3.6	3.02e+01	0	42	104	0	60	20628
2026-01-20 18:43:40.39	3.76	13.26	-44.5	-55.4	3.5	3.02e+01	0	42	104	0	60	22775
2026-01-20 18:43:41.40	3.59	13.33	-39.0	-49.2	3.4	3.02e+01	0	42	104	0	52	17625
2026-01-20 18:43:42.41	3.41	13.41	-50.9	-67.3	3.5	3.02e+01	0	42	104	0	60	89232
2026-01-20 18:43:43.42	3.24	13.48	-39.8	-50.1	3.5	3.02e+01	0	42	104	0	54	17381
2026-01-20 18:43:44.43	3.06	13.55	-40.1	-50.4	3.5	3.02e+01	0	42	104	0	54	18002
2026-01-20 18:43:45.44	2.88	13.62	-39.2	-49.4	3.5	3.02e+01	0	42	104	0	54	16048
2026-01-20 18:43:46.45	2.70	13.69	-43.4	-54.0	3.5	3.02e+01	0	42	104	0	56	24409
2026-01-20 18:43:47.46	2.52	13.76	-44.8	-55.8	3.5	3.02e+01	0	42	104	0	60	23685
2026-01-20 18:43:48.47	2.34	13.84	-41.5	-51.9	3.6	3.02e+01	0	42	104	0	52	24053
2026-01-20 18:43:49.48	2.16	13.91	-51.0	-67.0	3.5	3.02e+01	0	42	104	0	60	85731
2026-01-20 18:43:50.49	1.97	13.98	-39.8	-50.1	3.5	3.02e+01	0	42	104	0	58	13762
2026-01-20 18:43:51.50	1.79	14.05	-42.0	-52.5	3.5	3.02e+01	0	42	104	0	60	16176
2026-01-20 18:43:52.51	1.60	14.12	-39.8	-50.1	3.6	3.02e+01	0	42	104	0	54	17339
2026-01-20 18:43:53.51	1.42	14.19	-40.2	-50.5	3.5	3.02e+01	0	42	104	0	54	18120
2026-01-20 18:43:54.52	1.23	14.27	-39.8	-50.0	3.5	3.02e+01	0	42	104	0	54	17121
2026-01-20 18:43:55.53	1.04	14.34	-40.1	-50.4	3.5	3.02e+01	0	42	104	0	54	17965
2026-01-20 18:43:56.54	0.85	14.41	-43.0	-53.5	3.5	3.02e+01	0	42	104	0	58	20408
2026-01-20 18:43:57.55	0.66	14.48	-44.1	-54.8	3.5	3.02e+01	0	42	104	0	60	21046
2026-01-20 18:43:58.56	0.47	14.55	-44.0	-54.8	3.6	3.02e+01	0	42	104	0	60	21183
2026-01-20 18:43:59.57	0.28	14.62	-44.3	-55.1	3.4	3.02e+01	0	42	104	0	54	30934
2026-01-20 18:44:00.58	0.09	14.69	-46.3	-57.4	3.5	3.02e+01	0	42	104	0	60	28659
2026-01-20 18:44:01.59	359.89	14.77	-40.4	-50.7	3.5	3.02e+01	0	42	104	0	56	16595
2026-01-20 18:44:02.60	359.70	14.84	-40.1	-50.4	3.5	3.02e+01	0	42	104	0	56	16117
2026-01-20 18:44:03.61	359.50	14.91	-40.5	-50.8	3.5	3.02e+01	0	42	104	0	56	16827
2026-01-20 18:44:04.62	359.30	14.98	-45.9	-57.1	3.5	3.02e+01	0	42	104	0	60	27641
2026-01-20 18:44:05.63	359.10	15.05	-43.6	-54.2	3.5	3.02e+01	0	42	104	0	60	19827
2026-01-20 18:44:06.64	358.91	15.12	-50.1	-64.2	3.5	3.02e+01	0	42	104	0	60	62505
2026-01-20 18:44:07.65	358.71	15.19	-47.8	-59.9	3.5	3.02e+01	0	42	104	0	60	37861
2026-01-20 18:44:08.66	358.50	15.26	-39.5	-49.8	3.5	3.02e+01	0	42	104	0	52	18827
2026-01-20 18:44:09.67	358.30	15.33	-41.1	-51.5	3.5	3.02e+01	0	42	104	0	60	14425
2026-01-20 18:44:10.68	358.10	15.40	-40.3	-50.6	3.5	3.02e+01	0	42	104	0	56	16415
2026-01-20 18:44:11.69	357.89	15.47	-40.9	-51.3	3.5	3.02e+01	0	42	104	0	56	17820
2026-01-20 18:44:12.70	357.69	15.54	-40.7	-51.0	3.5	3.02e+01	0	42	104	0	56	17123
2026-01-20 18:44:13.71	357.48	15.61	-39.3	-49.6	3.5	3.02e+01	0	42	104	0	54	16361
2026-01-20 18:44:14.72	357.27	15.68	-44.5	-55.3	3.5	3.02e+01	0	42	104	0	58	25053
2026-01-20 18:44:15.72	357.07	15.75	-46.9	-58.4	3.5	3.02e+01	0	42	104	0	60	32135
2026-01-20 18:44:16.74	356.85	15.82	-41.6	-52.0	3.5	3.02e+01	0	42	104	0	58	17110
2026-01-20 18:44:17.75	356.64	15.89	-51.1	-68.5	3.5	3.02e+01	0	42	104	0	60	102006
2026-01-20 18:44:18.75	356.43	15.96	-41.5	-51.9	3.4	3.02e+01	0	42	104	0	60	15169
2026-01-20 18:44:19.76	356.22	16.03	-39.5	-49.8	3.5	3.02e+01	0	42	104	0	54	16752
2026-01-20 18:44:20.77	356.01	16.09	-39.8	-50.0	3.5	3.02e+01	0	42	104	0	54	17278
2026-01-20 18:44:21.78	355.79	16.16	-39.4	-49.7	3.5	3.02e+01	0	42	104	0	54	16631
2026-01-20 18:44:22.79	355.58	16.23	-45.4	-56.4	3.5	3.02e+01	0	42	104	0	60	25550
2026-01-20 18:44:23.80	355.36	16.30	-41.2	-51.5	3.5	3.02e+01	0	42	104	0	58	16254
2026-01-20 18:44:24.81	355.14	16.37	-51.0	-68.1	3.5	3.02e+01	0	42	104	0	60	97354
2026-01-20 18:44:25.82	354.92	16.44	-46.0	-57.3	3.5	3.02e+01	0	42	104	0	60	28250
2026-01-20 18:44:26.83	354.70	16.50	-42.9	-53.5	3.5	3.02e+01	0	42	104	0	56	22814
2026-01-20 18:44:27.83	354.48	16.57	-39.6	-49.8	3.5	3.02e+01	0	42	104	0	56	14984
2026-01-20 18:44:28.84	354.26	16.64	-39.7	-50.0	3.5	3.02e+01	0	42	104	0	54	17163
2026-01-20 18:44:29.85	354.04	16.70	-39.0	-49.2	3.5	3.02e+01	0	42	104	0	54	15677
2026-01-20 18:44:30.86	353.81	16.77	-39.0	-49.1	3.5	3.02e+01	0	42	104	0	52	17488
2026-01-20 18:44:31.87	353.59	16.84	-41.9	-52.3	3.5	3.02e+01	0	42	104	0	56	20080
2026-01-20 18:44:32.88	353.36	16.90	-40.6	-50.9	3.6	3.02e+01	0	42	104	0	56	17025
2026-01-20 18:44:33.89	353.13	16.97	-51.1	-68.2	3.5	3.02e+01	0	42	104	0	60	99137
2026-01-20 18:44:34.91	352.90	17.03	-46.1	-57.5	3.5	3.02e+01	0	42	104	0	60	28895
2026-01-20 18:44:35.92	352.67	17.10	-44.1	-54.9	3.5	3.02e+01	0	42	104	0	58	24054
2026-01-20 18:44:36.92	352.44	17.16	-41.4	-51.7	3.5	3.02e+01	0	42	104	0	58	16692
2026-01-20 18:44:37.93	352.21	17.23	-41.5	-51.9	3.5	3.02e+01	0	42	104	0	58	16986
2026-01-20 18:44:38.94	351.98	17.29	-40.9	-51.3	3.5	3.02e+01	0	42	104	0	56	17752
2026-01-20 18:44:39.95	351.74	17.36	-41.1	-51.5	3.5	3.02e+01	0	42	104	0	56	18257
2026-01-20 18:44:40.96	351.51	17.42	-38.6	-48.8	3.5	3.02e+01	0	42	104	0	52	16836
2026-01-20 18:44:41.97	351.27	17.49	-49.1	-62.2	3.5	3.02e+01	0	42	104	0	60	49426
2026-01-20 18:44:42.98	351.03	17.55	-48.0	-60.2	3.5	3.02e+01	0	42	104	0	60	39320
2026-01-20 18:44:43.98	350.80	17.61	-44.1	-54.9	3.5	3.02e+01	0	42	104	0	60	21273
2026-01-20 18:44:44.99	350.56	17.68	-51.2	-68.3	3.5	3.02e+01	0	42	104	0	60	99552
2026-01-20 18:44:46.00	350.31	17.74	-43.5	-54.1	3.5	3.02e+01	0	42	104	0	60	19506
2026-01-20 18:44:47.02	350.07	17.80	-43.1	-53.6	3.5	3.02e+01	0	42	104	0	60	18473
2026-01-20 18:44:48.03	349.83	17.86	-42.3	-52.8	3.5	3.02e+01	0	42	104	0	60	16864
2026-01-20 18:44:49.03	349.59	17.92	-42.4	-52.9	3.5	3.02e+01	0	42	104	0	60	17037
2026-01-20 18:44:50.04	349.34	17.99	-51.4	-69.1	3.5	3.02e+01	0	42	104	0	60	109247
2026-01-20 18:44:51.06	349.09	18.05	-48.5	-61.0	3.5	3.02e+01	0	42	104	0	60	43092
2026-01-20 18:44:52.07	348.85	18.11	-49.8	-63.4	3.6	3.02e+01	0	42	104	0	60	57160
2026-01-20 18:44:53.08	348.60	18.17	-41.6	-52.0	3.5	3.02e+01	0	42	104	0	56	19393
2026-01-20 18:44:54.08	348.35	18.23	-51.3	-68.4	3.5	3.02e+01	0	42	104	0	60	101683
2026-01-20 18:44:55.10	348.10	18.29	-39.7	-49.9	3.5	3.02e+01	0	42	104	0	54	16987
2026-01-20 18:44:56.10	347.85	18.34	-40.2	-50.5	3.5	3.02e+01	0	42	104	0	54	18217
2026-01-20 18:44:57.12	347.59	18.40	-39.6	-49.8	3.5	3.02e+01	0	42	104	0	54	16852
2026-01-20 18:44:58.13	347.34	18.46	-39.4	-49.7	3.5	3.02e+01	0	42	104	0	54	16569
2026-01-20 18:44:59.14	347.09	18.52	-47.8	-59.7	3.5	3.02e+01	0	42	104	0	60	37248
2026-01-20 18:45:00.15	346.83	18.58	-41.0	-51.3	3.5	3.02e+01	0	42	104	0	58	15885
2026-01-20 18:45:01.16	346.57	18.63	-51.3	-68.6	3.5	3.02e+01	0	42	104	0	60	103584
2026-01-20 18:45:02.17	346.32	18.69	-43.2	-53.8	3.5	3.02e+01	0	42	104	0	60	18828
2026-01-20 18:45:03.18	346.06	18.75	-47.9	-60.0	3.5	3.02e+01	0	42	104	0	60	38420
2026-01-20 18:45:04.19	345.80	18.80	-39.7	-50.0	3.6	3.02e+01	0	42	104	0	56	15351
2026-01-20 18:45:05.20	345.54	18.86	-39.6	-49.8	3.6	3.02e+01	0	42	104	0	54	16871
2026-01-20 18:45:06.21	345.28	18.91	-39.1	-49.3	3.6	3.02e+01	0	42	104	0	54	15921
2026-01-20 18:45:07.22	345.01	18.97	-39.0	-49.3	3.5	3.02e+01	0	42	104	0	52	17706
2026-01-20 18:45:08.23	344.75	19.02	-41.8	-52.2	3.5	3.02e+01	0	42	104	0	60	15633
2026-01-20 18:45:09.24	344.48	19.07	-39.6	-49.9	3.5	3.02e+01	0	42	104	0	56	15184
2026-01-20 18:45:10.25	344.22	19.13	-51.5	-69.2	3.5	3.02e+01	0	42	104	0	60	111232
2026-01-20 18:45:11.26	343.95	19.18	-42.7	-53.2	3.5	3.02e+01	0	42	104	0	60	17621
2026-01-20 18:45:12.27	343.69	19.23	-49.6	-63.1	3.5	3.02e+01	0	42	104	0	60	54827
2026-01-20 18:45:13.28	343.42	19.28	-41.8	-52.2	3.5	3.02e+01	0	42	104	0	58	17566
2026-01-20 18:45:14.29	343.15	19.33	-41.6	-52.0	3.5	3.02e+01	0	42	104	0	58	17246
2026-01-20 18:45:15.30	342.88	19.38	-40.7	-51.0	3.6	3.02e+01	0	42	104	0	56	17193
2026-01-20 18:45:16.31	342.61	19.43	-39.3	-49.5	3.5	3.02e+01	0	42	104	0	54	16196
2026-01-20 18:45:17.32	342.33	19.48	-40.5	-50.8	3.5	3.02e+01	0	42	104	0	58	14956
2026-01-20 18:45:18.33	342.06	19.53	-39.5	-49.7	3.5	3.02e+01	0	42	104	0	56	14802
2026-01-20 18:45:19.34	341.79	19.58	-51.5	-69.1	3.5	3.02e+01	0	42	104	0	60	110167
2026-01-20 18:45:20.35	341.51	19.63	-41.4	-51.8	3.5	3.02e+01	0	42	104	0	60	15017
2026-01-20 18:45:21.36	341.23	19.67	-48.4	-60.7	3.5	3.02e+01	0	42	104	0	60	41565
2026-01-20 18:45:22.37	340.96	19.72	-40.5	-50.7	3.5	3.02e+01	0	42	104	0	56	16620
2026-01-20 18:45:23.38	340.68	19.77	-41.0	-51.3	3.5	3.02e+01	0	42	104	0	56	17851
2026-01-20 18:45:24.39	340.40	19.81	-39.6	-49.8	3.5	3.02e+01	0	42	104	0	54	16782
2026-01-20 18:45:25.40	340.12	19.86	-39.1	-49.2	3.5	3.02e+01	0	42	104	0	52	17660
2026-01-20 18:45:26.41	339.84	19.90	-41.9	-52.3	3.4	3.02e+01	0	42	104	0	60	15846
2026-01-20 18:45:27.42	339.56	19.94	-39.4	-49.6	3.5	3.02e+01	0	42	104	0	54	16497
2026-01-20 18:45:28.43	339.28	19.99	-49.9	-63.9	3.5	3.02e+01	0	42	104	0	60	60031
2026-01-20 18:45:29.44	338.99	20.03	-40.1	-50.4	3.5	3.02e+01	0	42	104	0	56	15964
2026-01-20 18:45:30.45	338.71	20.07	-46.7	-58.2	3.5	3.02e+01	0	42	104	0	60	31197
2026-01-20 18:45:31.46	338.43	20.11	-41.5	-51.9	3.5	3.02e+01	0	42	104	0	58	17061
2026-01-20 18:45:32.47	338.14	20.15	-40.4	-50.7	3.5	3.02e+01	0	42	104	0	56	16554
2026-01-20 18:45:33.47	337.86	20.19	-40.5	-50.8	3.5	3.02e+01	0	42	104	0	56	16819
2026-01-20 18:45:34.49	337.57	20.23	-39.0	-49.2	3.5	3.02e+01	0	42	104	0	54	15730
2026-01-20 18:45:35.50	337.28	20.27	-40.4	-50.6	3.5	3.02e+01	0	42	104	0	56	16491
2026-01-20 18:45:36.51	336.99	20.31	-39.7	-49.9	3.5	3.02e+01	0	42	104	0	52	19089
2026-01-20 18:45:37.52	336.70	20.34	-48.8	-61.5	3.5	3.02e+01	0	42	104	0	60	45687
2026-01-20 18:45:38.53	336.41	20.38	-41.1	-51.5	3.5	3.02e+01	0	42	104	0	54	20335
2026-01-20 18:45:39.54	336.12	20.41	-44.5	-55.5	3.5	3.02e+01	0	42	104	0	60	22857
2026-01-20 18:45:40.55	335.83	20.45	-41.4	-51.7	3.4	3.02e+01	0	42	104	0	58	16678
2026-01-20 18:45:41.56	335.54	20.48	-40.4	-50.7	3.4	3.02e+01	0	42	104	0	56	16574
2026-01-20 18:45:42.57	335.24	20.52	-39.6	-49.8	3.5	3.02e+01	0	42	104	0	54	16748
2026-01-20 18:45:43.58	334.95	20.55	-41.0	-42.7	22.9	3.02e+01	57	42	104	0	52	8362
2026-01-20 18:45:44.59	334.66	20.58	-40.8	-42.2	26.3	3.02e+01	60	42	0	1048576	56	6220
2026-01-20 18:45:45.60	334.36	20.61	-44.1	-46.0	19.8	3.02e+01	59	42	0	3145728	54	10803
2026-01-20 18:45:46.61	334.07	20.64	-45.6	-48.2	20.2	3.02e+01	58	42	104	3145728	60	9889
2026-01-20 18:45:47.62	333.77	20.67	-41.1	-42.5	25.7	3.02e+01	54	42	0	4194304	56	6489
2026-01-20 18:45:48.63	333.47	20.70	-40.9	-42.2	27.0	3.02e+01	61	42	0	6291456	60	4967
2026-01-20 18:45:49.64	333.18	20.73	-39.9	-41.3	27.3	3.02e+01	56	42	0	7864320	54	6282
2026-01-20 18:45:50.65	332.88	20.76	-39.1	-40.4	28.3	3.02e+01	44	42	0	9961472	54	5661
2026-01-20 18:45:51.66	332.58	20.79	-39.1	-40.4	28.2	3.02e+01	59	42	0	12058624	52	6398
2026-01-20 18:45:52.67	332.28	20.81	-39.0	-40.2	28.4	3.02e+01	58	42	0	13631488	52	6257
2026-01-20 18:45:53.68	331.98	20.84	-39.0	-40.3	28.3	3.02e+01	60	42	0	15728640	52	6290
2026-01-20 18:45:54.69	331.68	20.86	-38.8	-40.1	28.5	3.02e+01	59	42	0	17301504	52	6159
2026-01-20 18:45:55.70	331.38	20.89	-38.8	-40.1	28.5	3.02e+01	44	42	0	19398656	52	6163
2026-01-20 18:45:56.70	331.08	20.91	-39.1	-40.3	28.4	3.02e+01	58	42	0	21495808	52	6328
2026-01-20 18:45:57.71	330.78	20.93	-39.1	-40.4	28.3	3.02e+01	59	42	0	23068672	52	6371
2026-01-20 18:45:58.72	330.48	20.95	-39.2	-40.5	28.2	3.02e+01	46	42	0	25165824	52	6472
2026-01-20 18:45:59.73	330.18	20.97	-39.1	-40.3	28.3	3.02e+01	60	42	0	27262976	52	6336
2026-01-20 18:46:00.74	329.87	20.99	-39.0	-40.3	28.3	3.02e+01	58	42	0	28835840	52	6293
2026-01-20 18:46:01.75	329.57	21.01	-38.8	-40.1	28.5	3.02e+01	57	42	0	30932992	52	6170
2026-01-20 18:46:02.76	329.27	21.03	-38.9	-40.2	28.4	3.02e+01	61	42	0	32505856	52	6239
2026-01-20 18:46:03.77	328.96	21.05	-39.0	-40.3	28.4	3.02e+01	55	42	0	34603008	52	6316
2026-01-20 18:46:04.78	328.66	21.07	-39.0	-40.3	28.4	3.02e+01	57	42	0	36700160	52	6315
2026-01-20 18:46:05.79	328.35	21.08	-38.9	-40.2	28.4	3.02e+01	60	42	0	38273024	52	6235
2026-01-20 18:46:06.80	328.05	21.10	-39.1	-40.4	28.3	3.02e+01	55	42	0	40370176	52	6366
2026-01-20 18:46:07.80	327.75	21.11	-38.9	-40.2	28.3	3.02e+01	55	42	0	41943040	52	6216
2026-01-20 18:46:08.81	327.44	21.13	-39.2	-40.5	28.3	3.02e+01	45	42	0	44040192	52	6441
2026-01-20 18:46:09.82	327.13	21.14	-39.1	-40.4	28.1	3.02e+01	60	42	0	46137344	52	6401
2026-01-20 18:46:10.83	326.83	21.15	-39.1	-40.3	28.4	3.02e+01	58	42	0	47710208	52	6338
2026-01-20 18:46:11.84	326.52	21.16	-38.8	-40.1	28.5	3.02e+01	40	42	0	49807360	52	6171
2026-01-20 18:46:12.85	326.21	21.17	-38.8	-40.1	28.5	3.02e+01	60	42	0	51380224	52	6155
2026-01-20 18:46:13.86	325.91	21.18	-38.8	-40.1	28.5	3.02e+01	56	42	0	53477376	52	6139
2026-01-20 18:46:14.87	325.60	21.19	-38.9	-40.2	28.3	3.02e+01	52	42	0	55574528	52	6242
2026-01-20 18:46:15.88	325.29	21.20	-39.1	-40.3	28.2	3.02e+01	57	42	0	57147392	52	6339
2026-01-20 18:46:16.89	324.99	21.20	-39.2	-40.5	28.2	3.02e+01	58	42	0	59244544	52	6449
2026-01-20 18:46:17.90	324.68	21.21	-39.2	-40.4	28.2	3.02e+01	62	42	0	60817408	52	6411
2026-01-20 18:46:18.91	324.37	21.21	-39.0	-40.3	28.3	3.02e+01	58	42	0	62914560	52	6317
2026-01-20 18:46:19.92	324.06	21.22	-39.1	-40.4	28.3	3.02e+01	47	42	0	65011712	52	6373
2026-01-20 18:46:20.93	323.75	21.22	-39.0	-40.3	28.4	3.02e+01	60	42	0	66584576	52	6279
2026-01-20 18:46:21.94	323.45	21.23	-39.1	-40.3	28.2	3.02e+01	58	42	0	68681728	52	6349
2026-01-20 18:46:22.95	323.14	21.23	-39.0	-40.3	28.4	3.02e+01	58	42	0	70778880	52	6311
2026-01-20 18:46:23.95	322.83	21.23	-39.1	-40.3	28.4	3.02e+01	60	42	0	72351744	52	6326
2026-01-20 18:46:24.96	322.53	21.23	-39.0	-40.3	28.4	3.02e+01	57	42	0	74448896	52	6293
2026-01-20 18:46:25.97	322.22	21.23	-38.9	-40.1	28.5	3.02e+01	57	42	0	76021760	52	6176
2026-01-20 18:46:26.98	321.91	21.23	-38.8	-40.1	28.5	3.02e+01	61	42	0	78118912	52	6159
2026-01-20 18:46:27.99	321.60	21.22	-39.1	-40.4	28.2	3.02e+01	54	42	0	80216064	52	6366
2026-01-20 18:46:29.00	321.29	21.22	-39.0	-40.3	28.3	3.02e+01	60	42	0	81788928	52	6304
2026-01-20 18:46:30.01	320.98	21.22	-39.5	-40.8	27.9	3.02e+01	56	42	0	83886080	52	6702
2026-01-20 18:46:31.02	320.68	21.21	-39.3	-40.6	28.1	3.02e+01	62	42	0	85458944	52	6558
2026-01-20 18:46:32.03	320.37	21.21	-39.5	-40.8	27.9	3.02e+01	58	42	0	87556096	52	6714
2026-01-20 18:46:33.04	320.06	21.20	-39.1	-40.4	28.3	3.02e+01	45	42	0	89653248	52	6361
2026-01-20 18:46:34.05	319.75	21.19	-39.0	-40.2	28.3	3.02e+01	54	42	0	91226112	52	6274
2026-01-20 18:46:35.06	319.45	21.18	-39.0	-40.2	28.4	3.02e+01	56	42	0	93323264	52	6259
2026-01-20 18:46:36.07	319.14	21.17	-39.3	-40.6	28.1	3.02e+01	46	42	0	94896128	52	6541
2026-01-20 18:46:37.08	318.83	21.16	-39.1	-40.3	28.3	3.02e+01	62	42	0	96993280	52	6339
2026-01-20 18:46:38.09	318.53	21.15	-39.1	-40.4	28.3	3.02e+01	56	42	0	99090432	52	6387
2026-01-20 18:46:39.10	318.22	21.14	-39.4	-40.7	28.1	3.02e+01	59	42	0	100663296	52	6632
2026-01-20 18:46:40.11	317.91	21.13	-39.2	-40.5	28.2	3.02e+01	60	42	0	102760448	52	6463
2026-01-20 18:46:41.11	317.61	21.12	-39.3	-40.6	28.0	3.02e+01	51	42	0	104333312	52	6547
2026-01-20 18:46:42.12	317.31	21.10	-39.3	-40.6	28.2	3.02e+01	60	42	0	106430464	52	6536
2026-01-20 18:46:43.13	317.00	21.09	-39.5	-40.8	27.8	3.02e+01	61	42	0	108527616	52	6667
2026-01-20 18:46:44.14	316.69	21.07	-39.3	-40.6	28.2	3.02e+01	62	42	0	110100480	52	6521
2026-01-20 18:46:45.15	316.39	21.06	-38.9	-40.2	28.5	3.02e+01	59	42	0	112197632	52	6214
2026-01-20 18:46:46.16	316.09	21.04	-39.3	-40.6	28.2	3.02e+01	46	42	0	113770496	52	6506
2026-01-20 18:46:47.17	315.78	21.02	-39.3	-40.5	28.0	3.02e+01	61	42	0	115867648	52	6497
2026-01-20 18:46:48.18	315.48	21.00	-39.2	-40.4	28.3	3.02e+01	56	42	0	117964800	52	6413
2026-01-20 18:46:49.19	315.17	20.98	-39.0	-40.3	28.2	3.02e+01	47	42	0	119537664	52	6303
2026-01-20 18:46:50.20	314.87	20.96	-39.3	-40.6	28.1	3.02e+01	56	42	0	121634816	52	6560
2026-01-20 18:46:51.21	314.57	20.94	-39.3	-40.6	28.2	3.02e+01	63	42	0	123731968	52	6504
2026-01-20 18:46:52.22	314.27	20.92	-39.7	-41.0	27.8	3.02e+01	60	42	0	125304832	52	6856
2026-01-20 18:46:53.23	313.97	20.90	-39.9	-41.3	27.5	3.02e+01	52	42	0	127401984	52	7070
2026-01-20 18:46:54.24	313.66	20.87	-40.1	-41.4	27.5	3.02e+01	59	42	0	128974848	54	6387
2026-01-20 18:46:55.25	313.36	20.85	-39.4	-40.7	28.0	3.02e+01	61	42	0	131072000	54	5896
2026-01-20 18:46:56.26	313.06	20.82	-39.8	-41.1	27.5	3.02e+01	58	42	0	133169152	54	6195
2026-01-20 18:46:57.27	312.76	20.80	-39.7	-41.0	27.7	3.02e+01	45	42	0	134742016	54	6121
2026-01-20 18:46:58.28	312.47	20.77	-39.6	-40.9	27.6	3.02e+01	60	42	0	136839168	54	6010
2026-01-20 18:46:59.29	312.17	20.74	-40.4	-41.8	27.1	3.02e+01	65	42	0	138936320	54	6673
2026-01-20 18:47:00.30	311.87	20.71	-39.7	-41.0	27.7	3.02e+01	58	42	0	140509184	54	6085
2026-01-20 18:47:01.31	311.57	20.68	-39.2	-40.4	28.1	3.02e+01	60	42	0	142606336	54	5724
2026-01-20 18:47:02.32	311.28	20.65	-40.0	-41.3	27.5	3.02e+01	59	42	0	144179200	54	6321
2026-01-20 18:47:03.33	310.98	20.62	-38.9	-40.2	28.6	3.02e+01	61	42	0	146276352	52	6207
2026-01-20 18:47:04.34	310.68	20.59	-39.1	-40.3	28.2	3.02e+01	59	42	0	148373504	52	6340
2026-01-20 18:47:05.35	310.39	20.56	-39.7	-41.0	27.8	3.02e+01	46	42	0	149946368	52	6825
2026-01-20 18:47:06.36	310.10	20.53	-39.3	-40.5	27.9	3.02e+01	60	42	0	152043520	52	6492
2026-01-20 18:47:07.36	309.80	20.50	-39.7	-41.0	27.6	3.02e+01	60	42	0	153616384	52	6864
2026-01-20 18:47:08.37	309.51	20.46	-39.4	-40.7	27.8	3.02e+01	58	42	0	155713536	52	6608
2026-01-20 18:47:09.38	309.22	20.43	-39.4	-40.7	27.9	3.02e+01	58	42	0	157810688	54	5870
2026-01-20 18:47:10.39	308.93	20.39	-40.6	-42.1	26.4	3.02e+01	49	42	0	159383552	54	6916
2026-01-20 18:47:11.40	308.64	20.36	-39.5	-40.7	27.7	3.02e+01	58	42	0	161480704	54	5916
2026-01-20 18:47:12.41	308.35	20.32	-39.3	-40.5	27.9	3.02e+01	59	42	0	163053568	54	5788
2026-01-20 18:47:13.43	308.06	20.28	-39.9	-41.2	27.5	3.02e+01	49	42	0	165150720	54	6275
2026-01-20 18:47:14.44	307.77	20.24	-39.0	-40.2	28.5	3.02e+01	56	42	0	167247872	54	5589
2026-01-20 18:47:15.45	307.48	20.20	-39.7	-41.1	27.4	3.02e+01	59	42	0	168820736	52	6924
2026-01-20 18:47:16.45	307.19	20.16	-38.3	-39.5	28.8	3.02e+01	60	42	0	170917888	52	5733
2026-01-20 18:47:17.46	306.91	20.12	-39.4	-40.7	27.2	3.02e+01	57	42	0	172490752	54	5910
2026-01-20 18:47:18.47	306.62	20.08	-39.9	-41.3	27.4	3.02e+01	52	42	0	174587904	52	7052
2026-01-20 18:47:19.49	306.34	20.04	-38.5	-39.7	28.8	3.02e+01	61	42	0	176685056	52	5870
2026-01-20 18:47:20.50	306.05	20.00	-39.5	-40.8	27.9	3.02e+01	61	42	0	178257920	52	6686
2026-01-20 18:47:21.51	305.77	19.96	-38.6	-39.8	28.8	3.02e+01	59	42	0	180355072	52	5954
2026-01-20 18:47:22.51	305.49	19.91	-39.7	-41.1	27.5	3.02e+01	61	42	0	181927936	52	6949
2026-01-20 18:47:23.52	305.21	19.87	-38.9	-40.1	28.0	3.02e+01	46	42	0	184025088	52	6194
2026-01-20 18:47:24.53	304.93	19.83	-39.6	-40.9	27.2	3.02e+01	59	42	0	186122240	54	6000
2026-01-20 18:47:25.55	304.65	19.78	-40.0	-41.4	27.2	3.02e+01	61	42	0	187695104	54	6394
2026-01-20 18:47:26.56	304.37	19.73	-39.0	-40.3	28.2	3.02e+01	44	42	0	189792256	54	5606
2026-01-20 18:47:27.57	304.09	19.69	-39.7	-41.1	27.6	3.02e+01	61	42	0	191889408	54	6151
2026-01-20 18:47:28.58	303.81	19.64	-39.2	-40.5	28.2	3.02e+01	58	42	0	193462272	54	5737
2026-01-20 18:47:29.59	303.54	19.59	-40.0	-41.4	27.3	3.02e+01	59	42	0	195559424	54	6388
2026-01-20 18:47:30.60	303.26	19.55	-38.7	-39.9	28.5	3.02e+01	56	42	0	197132288	52	6055
2026-01-20 18:47:31.61	302.99	19.50	-39.6	-40.9	27.6	3.02e+01	54	42	0	199229440	52	6773
2026-01-20 18:47:32.62	302.71	19.45	-38.6	-39.8	28.7	3.02e+01	59	42	0	201326592	52	5953
2026-01-20 18:47:33.63	302.44	19.40	-38.9	-40.2	28.5	3.02e+01	57	42	0	202899456	52	6236
2026-01-20 18:47:34.64	302.17	19.35	-38.9	-40.1	28.5	3.02e+01	49	42	0	204996608	52	6200
2026-01-20 18:47:35.65	301.90	19.30	-39.3	-40.6	28.1	3.02e+01	60	42	0	207093760	52	6559
2026-01-20 18:47:36.66	301.63	19.25	-38.5	-39.7	28.7	3.02e+01	57	42	0	208666624	52	5861
2026-01-20 18:47:37.67	301.36	19.19	-39.3	-40.6	28.0	3.02e+01	60	42	0	210763776	52	6501
2026-01-20 18:47:38.68	301.10	19.14	-39.1	-40.3	28.3	3.02e+01	61	42	0	212336640	52	6347
2026-01-20 18:47:39.68	300.83	19.09	-39.3	-40.6	28.1	3.02e+01	52	42	0	214433792	52	6516
2026-01-20 18:47:40.69	300.57	19.04	-39.1	-40.3	28.2	3.02e+01	60	42	0	216530944	52	6332
2026-01-20 18:47:41.70	300.30	18.98	-39.6	-40.9	27.6	3.02e+01	59	42	0	218103808	52	6800
2026-01-20 18:47:42.71	300.04	18.93	-38.6	-39.9	28.7	3.02e+01	44	42	0	220200960	52	5999
2026-01-20 18:47:43.73	299.77	18.87	-39.2	-40.5	28.2	3.02e+01	60	42	0	221773824	52	6485
2026-01-20 18:47:44.74	299.51	18.82	-38.7	-39.9	28.8	3.02e+01	58	42	0	223870976	52	6047
2026-01-20 18:47:45.75	299.25	18.76	-38.8	-40.1	28.5	3.02e+01	59	42	0	225968128	52	6175
2026-01-20 18:47:46.76	298.99	18.71	-38.5	-39.7	28.6	3.02e+01	61	42	0	227540992	52	5884
2026-01-20 18:47:47.77	298.73	18.65	-39.6	-40.9	27.8	3.02e+01	54	42	0	229638144	52	6767
2026-01-20 18:47:48.78	298.47	18.59	-38.7	-40.0	28.8	3.02e+01	59	42	0	231735296	52	6072
2026-01-20 18:47:49.79	298.22	18.54	-39.2	-40.5	28.1	3.02e+01	59	42	0	233308160	52	6461
2026-01-20 18:47:50.80	297.96	18.48	-38.3	-39.4	29.0	3.02e+01	50	42	0	235405312	52	5717
2026-01-20 18:47:51.81	297.71	18.42	-39.5	-40.8	27.8	3.02e+01	60	42	0	236978176	52	6697
2026-01-20 18:47:52.82	297.45	18.36	-38.7	-39.9	28.6	3.02e+01	60	42	0	239075328	52	6059
2026-01-20 18:47:53.82	297.21	18.30	-39.4	-40.8	27.9	3.02e+01	59	42	0	241172480	52	6663
2026-01-20 18:47:54.83	296.95	18.24	-38.6	-39.9	28.6	3.02e+01	60	42	0	242745344	52	6000
2026-01-20 18:47:55.85	296.70	18.18	-39.4	-40.7	28.0	3.02e+01	50	42	0	244842496	52	6579
2026-01-20 18:47:56.86	296.45	18.12	-38.6	-39.8	28.6	3.02e+01	59	42	0	246415360	52	5986
2026-01-20 18:47:57.87	296.20	18.06	-39.3	-40.6	27.8	3.02e+01	59	42	0	248512512	52	6542
2026-01-20 18:47:58.88	295.96	18.00	-38.6	-39.8	28.4	3.02e+01	58	42	0	250609664	52	5989
2026-01-20 18:47:59.89	295.71	17.94	-39.1	-40.4	27.9	3.02e+01	61	42	0	252182528	52	6368
2026-01-20 18:48:00.90	295.47	17.88	-38.4	-39.6	28.4	3.02e+01	47	42	0	254279680	52	5829
2026-01-20 18:48:01.91	295.22	17.82	-39.6	-40.9	27.3	3.02e+01	58	42	0	255852544	52	6774
2026-01-20 18:48:02.92	294.98	17.75	-38.7	-39.9	28.5	3.02e+01	60	42	0	257949696	52	6017
2026-01-20 18:48:03.93	294.74	17.69	-39.7	-41.1	27.4	3.02e+01	44	42	0	260046848	52	6929
2026-01-20 18:48:04.94	294.50	17.63	-38.8	-40.0	28.2	3.02e+01	59	42	0	261619712	52	6112
2026-01-20 18:48:05.95	294.26	17.57	-40.2	-41.6	27.4	3.02e+01	61	42	0	263716864	54	6560
2026-01-20 18:48:06.96	294.02	17.50	-38.6	-39.8	28.7	3.02e+01	59	42	0	265289728	52	5952
2026-01-20 18:48:07.97	293.78	17.44	-40.1	-41.5	27.2	3.02e+01	60	42	0	267386880	54	6479
2026-01-20 18:48:08.98	293.54	17.37	-39.8	-41.0	27.7	3.02e+01	47	42	0	269484032	54	6121
2026-01-20 18:48:09.99	293.31	17.31	-40.3	-41.7	27.2	3.02e+01	55	42	0	271056896	54	6584
2026-01-20 18:48:11.00	293.07	17.25	-39.5	-40.8	27.6	3.02e+01	63	42	0	273154048	54	5962
2026-01-20 18:48:12.01	292.84	17.18	-39.8	-41.1	27.5	3.02e+01	54	42	0	275251200	54	6202
2026-01-20 18:48:13.02	292.61	17.12	-39.2	-40.5	28.0	3.02e+01	57	42	0	276824064	54	5733
2026-01-20 18:48:14.02	292.38	17.05	-38.7	-40.0	28.5	3.02e+01	60	42	0	278921216	52	6073
2026-01-20 18:48:15.03	292.15	16.98	-39.0	-40.3	28.0	3.02e+01	58	42	0	280494080	52	6284
2026-01-20 18:48:16.04	291.92	16.92	-38.3	-39.4	28.8	3.02e+01	58	42	0	282591232	52	5715
2026-01-20 18:48:17.05	291.69	16.85	-39.7	-41.1	27.4	3.02e+01	56	42	0	284688384	52	6935
2026-01-20 18:48:18.06	291.47	16.79	-38.6	-39.8	28.6	3.02e+01	62	42	0	286261248	52	5937
2026-01-20 18:48:19.07	291.24	16.72	-39.1	-40.4	28.0	3.02e+01	59	42	0	288358400	52	6398
2026-01-20 18:48:20.08	291.02	16.65	-38.9	-40.1	28.3	3.02e+01	57	42	0	289931264	52	6191
2026-01-20 18:48:21.09	290.79	16.58	-39.1	-40.3	28.5	3.02e+01	61	42	0	292028416	52	6319
2026-01-20 18:48:22.10	290.57	16.52	-39.1	-40.4	28.0	3.02e+01	59	42	0	294125568	52	6403
2026-01-20 18:48:23.11	290.35	16.45	-38.6	-39.8	28.7	3.02e+01	58	42	0	295698432	52	5961
2026-01-20 18:48:24.12	290.13	16.38	-39.0	-40.3	28.2	3.02e+01	57	42	0	297795584	52	6312
2026-01-20 18:48:25.13	289.91	16.31	-38.9	-40.1	28.3	3.02e+01	52	42	0	299892736	52	6176
2026-01-20 18:48:26.14	289.69	16.25	-39.0	-40.2	28.3	3.02e+01	58	42	0	301465600	52	6245
2026-01-20 18:48:27.15	289.47	16.18	-39.1	-40.4	28.2	3.02e+01	60	42	0	303562752	52	6384
2026-01-20 18:48:28.16	289.26	16.11	-39.1	-40.4	28.0	3.02e+01	60	42	0	305135616	52	6354
2026-01-20 18:48:29.17	289.04	16.04	-38.9	-40.1	28.3	3.02e+01	50	42	0	307232768	52	6165
2026-01-20 18:48:30.18	288.83	15.97	-38.9	-40.1	28.5	3.02e+01	52	42	0	309329920	52	6162
2026-01-20 18:48:31.19	288.62	15.90	-38.9	-40.2	28.3	3.02e+01	58	42	0	310902784	52	6225
2026-01-20 18:48:32.20	288.40	15.83	-39.1	-40.4	28.1	3.02e+01	54	42	0	312999936	52	6380
2026-01-20 18:48:33.21	288.19	15.76	-39.0	-40.3	28.2	3.02e+01	47	42	0	314572800	52	6293
2026-01-20 18:48:34.22	287.98	15.69	-38.7	-40.0	28.3	3.02e+01	57	42	0	316669952	52	6071
2026-01-20 18:48:35.23	287.77	15.62	-39.2	-40.5	28.0	3.02e+01	53	42	0	318767104	52	6487
2026-01-20 18:48:36.24	287.57	15.55	-38.9	-40.1	28.2	3.02e+01	59	42	0	320339968	52	6193
2026-01-20 18:48:37.25	287.36	15.48	-38.8	-40.1	28.3	3.02e+01	54	42	0	322437120	52	6143
2026-01-20 18:48:38.26	287.16	15.41	-38.9	-40.2	28.3	3.02e+01	50	42	0	324009984	52	6258
2026-01-20 18:48:39.27	286.95	15.34	-38.8	-40.1	28.3	3.02e+01	59	42	0	326107136	52	6159
2026-01-20 18:48:40.28	286.75	15.27	-38.4	-39.6	28.7	3.02e+01	60	42	0	328204288	52	5829
2026-01-20 18:48:41.29	286.54	15.20	-38.7	-39.9	28.6	3.02e+01	47	42	0	329777152	52	6063
2026-01-20 18:48:42.30	286.34	15.13	-38.8	-40.0	28.4	3.02e+01	60	42	0	331874304	52	6127
2026-01-20 18:48:43.31	286.14	15.06	-39.0	-40.3	28.2	3.02e+01	54	42	0	333447168	52	6280
2026-01-20 18:48:44.32	285.94	14.99	-38.9	-40.2	28.2	3.02e+01	59	42	0	335544320	52	6228
2026-01-20 18:48:45.33	285.74	14.92	-38.8	-40.1	28.3	3.02e+01	60	42	0	337641472	52	6157
2026-01-20 18:48:46.34	285.55	14.85	-38.5	-39.8	28.6	3.02e+01	52	42	0	339214336	52	5941
2026-01-20 18:48:47.35	285.35	14.78	-38.7	-39.9	28.4	3.02e+01	61	42	0	341311488	52	6058
2026-01-20 18:48:48.36	285.16	14.71	-39.0	-40.3	28.3	3.02e+01	60	42	0	343408640	52	6333
2026-01-20 18:48:49.37	284.96	14.63	-38.9	-40.1	28.2	3.02e+01	50	42	0	344981504	52	6181
2026-01-20 18:48:50.38	284.77	14.56	-38.7	-40.0	28.4	3.02e+01	59	42	0	347078656	52	6085
2026-01-20 18:48:51.39	284.58	14.49	-38.6	-39.8	28.6	3.02e+01	53	42	0	348651520	52	5955
2026-01-20 18:48:52.40	284.38	14.42	-38.7	-39.9	28.6	3.02e+01	61	42	0	350748672	52	6049
2026-01-20 18:48:53.42	284.19	14.35	-39.1	-40.4	28.2	3.02e+01	56	42	0	352845824	52	6352
2026-01-20 18:48:54.43	284.00	14.28	-39.1	-40.3	28.0	3.02e+01	53	42	0	354418688	52	6350
2026-01-20 18:48:55.43	283.82	14.20	-38.8	-40.0	28.4	3.02e+01	60	42	0	356515840	52	6091
2026-01-20 18:48:56.44	283.63	14.13	-39.1	-40.3	28.0	3.02e+01	59	42	0	358088704	52	6327
2026-01-20 18:48:57.46	283.44	14.06	-38.9	-40.2	28.1	3.02e+01	59	42	0	360185856	52	6238
2026-01-20 18:48:58.46	283.26	13.99	-38.9	-40.2	28.2	3.02e+01	58	42	0	362283008	52	6221
2026-01-20 18:48:59.47	283.07	13.92	-38.9	-40.1	28.3	3.02e+01	47	42	0	363855872	52	6186
2026-01-20 18:49:00.49	282.89	13.84	-38.9	-40.2	28.3	3.02e+01	59	42	0	365953024	52	6224
2026-01-20 18:49:01.50	282.70	13.77	-39.1	-40.4	28.0	3.02e+01	55	42	0	368050176	52	6404
2026-01-20 18:49:02.51	282.52	13.70	-38.9	-40.1	28.1	3.02e+01	50	42	0	369623040	52	6189
2026-01-20 18:49:03.52	282.34	13.63	-38.9	-40.2	28.2	3.02e+01	60	42	0	371720192	52	6231
2026-01-20 18:49:04.53	282.16	13.56	-39.1	-40.4	28.0	3.02e+01	59	42	0	373293056	52	6370
2026-01-20 18:49:05.54	281.98	13.48	-39.4	-40.7	27.7	3.02e+01	60	42	0	375390208	52	6625
2026-01-20 18:49:06.55	281.81	13.41	-39.6	-40.9	27.6	3.02e+01	62	42	0	377487360	52	6784
2026-01-20 18:49:07.56	281.63	13.34	-39.3	-40.6	27.8	3.02e+01	54	42	0	379060224	52	6547
2026-01-20 18:49:08.57	281.45	13.27	-39.1	-40.4	28.0	3.02e+01	59	42	0	381157376	52	6359
2026-01-20 18:49:09.58	281.28	13.19	-39.1	-40.4	28.1	3.02e+01	60	42	0	383254528	52	6393
2026-01-20 18:49:10.59	281.11	13.12	-38.8	-40.1	28.2	3.02e+01	43	42	0	384827392	52	6153
2026-01-20 18:49:11.60	280.93	13.05	-39.1	-40.4	28.0	3.02e+01	57	42	0	386924544	52	6358
2026-01-20 18:49:12.61	280.76	12.98	-39.1	-40.4	28.0	3.02e+01	60	42	0	388497408	52	6363
2026-01-20 18:49:13.62	280.59	12.90	-39.2	-40.5	27.8	3.02e+01	55	42	0	390594560	52	6451
2026-01-20 18:49:14.63	280.42	12.83	-39.1	-40.4	27.9	3.02e+01	56	42	0	392691712	52	6369
2026-01-20 18:49:15.64	280.25	12.76	-38.8	-40.0	28.3	3.02e+01	48	42	0	394264576	52	6112
2026-01-20 18:49:16.65	280.08	12.69	-38.6	-39.9	28.4	3.02e+01	60	42	0	396361728	52	6007
2026-01-20 18:49:17.66	279.91	12.62	-38.7	-39.9	28.4	3.02e+01	60	42	0	397934592	52	6046
2026-01-20 18:49:18.67	279.75	12.54	-39.1	-40.3	28.1	3.02e+01	52	42	0	400031744	52	6338
2026-01-20 18:49:19.68	279.58	12.47	-39.1	-40.4	27.8	3.02e+01	60	42	0	402128896	52	6379
2026-01-20 18:49:20.69	279.41	12.40	-39.3	-40.6	27.7	3.02e+01	58	42	0	403701760	52	6515
2026-01-20 18:49:21.69	279.25	12.33	-39.2	-40.5	27.9	3.02e+01	59	42	0	405798912	52	6450
2026-01-20 18:49:22.71	279.09	12.25	-39.2	-40.5	27.8	3.02e+01	60	42	0	407371776	52	6479
2026-01-20 18:49:23.71	278.93	12.18	-39.0	-40.3	28.0	3.02e+01	46	42	0	409468928	52	6287
2026-01-20 18:49:24.72	278.77	12.11	-39.1	-40.4	27.9	3.02e+01	58	42	0	411566080	52	6363
2026-01-20 18:49:25.73	278.60	12.04	-39.3	-40.7	27.6	3.02e+01	59	42	0	413138944	52	6582
2026-01-20 18:49:26.74	278.44	11.97	-39.1	-40.4	27.8	3.02e+01	53	42	0	415236096	52	6418
2026-01-20 18:49:27.75	278.29	11.89	-38.9	-40.2	28.0	3.02e+01	60	42	0	416808960	52	6228
2026-01-20 18:49:28.75	278.13	11.82	-39.0	-40.2	28.0	3.02e+01	58	42	0	418906112	52	6255
2026-01-20 18:49:29.76	277.97	11.75	-39.3	-40.6	27.7	3.02e+01	60	42	0	421003264	52	6550
2026-01-20 18:49:30.77	277.82	11.68	-39.2	-40.5	27.7	3.02e+01	61	42	0	422576128	52	6477
2026-01-20 18:49:31.78	277.66	11.61	-39.1	-40.3	28.0	3.02e+01	54	42	0	424673280	52	6345
2026-01-20 18:49:32.79	277.51	11.53	-39.4	-40.7	27.6	3.02e+01	54	42	0	426246144	52	6641
2026-01-20 18:49:33.80	277.35	11.46	-39.2	-40.5	27.8	3.02e+01	65	42	0	428343296	52	6478
2026-01-20 18:49:34.81	277.20	11.39	-39.3	-40.6	27.6	3.02e+01	57	42	0	430440448	52	6547
2026-01-20 18:49:35.82	277.05	11.32	-39.7	-41.0	27.3	3.02e+01	60	42	0	432013312	52	6852
2026-01-20 18:49:36.83	276.89	11.25	-39.4	-40.7	27.6	3.02e+01	46	42	0	434110464	52	6634
2026-01-20 18:49:37.84	276.74	11.18	-39.3	-40.6	27.6	3.02e+01	61	42	0	436207616	52	6504
2026-01-20 18:49:38.85	276.59	11.10	-39.1	-40.4	27.8	3.02e+01	57	42	0	437780480	52	6401
2026-01-20 18:49:39.86	276.44	11.03	-39.3	-40.6	27.6	3.02e+01	46	42	0	439877632	52	6565
2026-01-20 18:49:40.87	276.30	10.96	-39.4	-40.7	27.5	3.02e+01	56	42	0	441450496	52	6643
2026-01-20 18:49:41.88	276.15	10.89	-39.3	-40.6	27.6	3.02e+01	57	42	0	443547648	52	6556
2026-01-20 18:49:42.89	276.00	10.82	-39.2	-40.5	27.7	3.02e+01	59	42	0	445644800	52	6447
2026-01-20 18:49:43.90	275.86	10.75	-39.8	-41.2	27.1	3.02e+01	59	42	0	447217664	52	7008
2026-01-20 18:49:44.91	275.71	10.68	-39.6	-41.0	27.3	3.02e+01	56	42	0	449314816	52	6814
2026-01-20 18:49:45.92	275.57	10.60	-39.4	-40.7	27.5	3.02e+01	58	42	0	450887680	52	6587
2026-01-20 18:49:46.93	275.42	10.53	-39.5	-40.9	27.4	3.02e+01	60	42	0	452984832	52	6737
2026-01-20 18:49:47.94	275.28	10.46	-39.5	-40.8	27.4	3.02e+01	45	42	0	455081984	52	6699
2026-01-20 18:49:48.95	275.14	10.39	-39.8	-41.1	27.2	3.02e+01	62	42	0	456654848	52	6943
2026-01-20 18:49:49.96	275.00	10.32	-39.6	-40.9	27.4	3.02e+01	62	42	0	458752000	54	6046
2026-01-20 18:49:50.97	274.86	10.25	-39.5	-40.9	27.4	3.02e+01	58	42	0	460324864	54	6004
2026-01-20 18:49:51.98	274.72	10.18	-39.7	-41.0	27.2	3.02e+01	60	42	0	462422016	54	6096
2026-01-20 18:49:52.98	274.58	10.11	-39.7	-41.0	27.2	3.02e+01	47	42	0	464519168	54	6106
2026-01-20 18:49:53.99	274.44	10.04	-39.6	-40.9	27.3	3.02e+01	61	42	0	466092032	54	6039
2026-01-20 18:49:55.00	274.30	9.97	-39.3	-40.6	27.6	3.02e+01	61	42	0	468189184	54	5837
2026-01-20 18:49:56.01	274.17	9.90	-39.6	-41.0	27.2	3.02e+01	45	42	0	469762048	54	6082
2026-01-20 18:49:57.02	274.03	9.83	-39.5	-40.8	27.2	3.02e+01	59	42	0	471859200	54	5974
2026-01-20 18:49:58.03	273.89	9.76	-39.7	-41.0	27.2	3.02e+01	64	42	0	473956352	54	6116
2026-01-20 18:49:59.04	273.76	9.68	-39.3	-40.6	27.4	3.02e+01	61	42	0	475529216	54	5830
2026-01-20 18:50:00.05	273.63	9.61	-39.6	-40.9	27.1	3.02e+01	57	42	0	477626368	54	6052
2026-01-20 18:50:01.06	273.49	9.54	-39.7	-41.0	27.2	3.02e+01	56	42	0	479723520	54	6106
2026-01-20 18:50:02.07	273.36	9.47	-39.5	-40.8	27.2	3.02e+01	57	42	0	481296384	54	5975
2026-01-20 18:50:03.08	273.23	9.40	-39.5	-40.8	27.3	3.02e+01	59	42	0	483393536	54	5965
2026-01-20 18:50:04.09	273.10	9.33	-39.6	-40.9	27.1	3.02e+01	46	42	0	484966400	54	6047
2026-01-20 18:50:05.10	272.97	9.26	-40.0	-41.4	26.8	3.02e+01	60	42	0	487063552	54	6367
2026-01-20 18:50:06.11	272.84	9.19	-40.0	-41.4	26.8	3.02e+01	57	42	0	489160704	54	6359
2026-01-20 18:50:07.11	272.71	9.13	-39.8	-41.2	26.9	3.02e+01	59	42	0	490733568	54	6219
2026-01-20 18:50:08.12	272.58	9.06	-39.8	-41.2	26.9	3.02e+01	61	42	0	492830720	54	6231
2026-01-20 18:50:09.13	272.45	8.99	-39.6	-40.9	27.1	3.02e+01	47	42	0	494403584	54	6051
2026-01-20 18:50:10.14	272.33	8.92	-40.0	-41.4	26.7	3.02e+01	61	42	0	496500736	54	6385
2026-01-20 18:50:11.15	272.20	8.85	-39.7	-41.1	27.0	3.02e+01	59	42	0	498597888	54	6153
2026-01-20 18:50:12.16	272.07	8.78	-39.9	-41.3	26.7	3.02e+01	57	42	0	500170752	54	6317
2026-01-20 18:50:13.18	271.95	8.71	-40.0	-41.3	26.6	3.02e+01	58	42	0	502267904	54	6349
2026-01-20 18:50:14.19	271.82	8.64	-40.1	-41.5	26.6	3.02e+01	45	42	0	504365056	54	6453
2026-01-20 18:50:15.20	271.70	8.57	-40.7	-42.2	25.9	3.02e+01	58	43	0	505937920	54	6981
2026-01-20 18:50:16.21	271.58	8.50	-39.9	-41.2	26.8	3.02e+01	58	42	0	508035072	54	6273
2026-01-20 18:50:17.22	271.45	8.43	-40.9	-42.4	25.6	3.02e+01	47	42	0	509607936	54	7164
2026-01-20 18:50:18.23	271.33	8.36	-39.5	-40.9	27.1	3.02e+01	61	42	0	511705088	54	5999
2026-01-20 18:50:19.23	271.21	8.30	-40.9	-42.4	26.2	3.02e+01	58	42	0	513802240	56	6383
2026-01-20 18:50:20.24	271.09	8.23	-40.3	-41.6	26.5	3.02e+01	59	42	0	515375104	56	5857
2026-01-20 18:50:21.25	270.97	8.16	-39.6	-40.9	26.7	3.02e+01	56	42	0	517472256	54	6050
2026-01-20 18:50:22.26	270.85	8.09	-39.6	-40.9	26.9	3.02e+01	62	42	0	519045120	54	6053
2026-01-20 18:50:23.27	270.73	8.02	-40.2	-41.6	26.4	3.02e+01	58	42	0	521142272	54	6564
2026-01-20 18:50:24.28	270.61	7.95	-40.1	-41.5	26.4	3.02e+01	60	42	0	523239424	54	6477
2026-01-20 18:50:25.29	270.50	7.89	-40.3	-41.7	26.3	3.02e+01	49	42	0	524812288	54	6612
2026-01-20 18:50:26.30	270.38	7.82	-39.8	-41.2	26.6	3.02e+01	61	42	0	526909440	54	6256
2026-01-20 18:50:27.31	270.26	7.75	-39.8	-41.2	26.7	3.02e+01	57	42	0	528482304	54	6227
2026-01-20 18:50:28.32	270.15	7.68	-40.4	-41.8	26.1	3.02e+01	57	42	0	530579456	54	6688
2026-01-20 18:50:29.33	270.03	7.62	-40.5	-41.9	26.3	3.02e+01	61	42	0	532676608	54	6767
2026-01-20 18:50:30.34	269.92	7.55	-40.5	-41.9	26.2	3.02e+01	50	42	0	534249472	54	6776
2026-01-20 18:50:31.35	269.80	7.48	-40.2	-41.6	26.3	3.02e+01	58	42	0	536346624	54	6568
2026-01-20 18:50:32.36	269.69	7.41	-40.1	-41.5	26.4	3.02e+01	60	42	0	537919488	54	6451
2026-01-20 18:50:33.37	269.58	7.35	-40.7	-42.1	25.9	3.02e+01	46	42	0	540016640	54	6930
2026-01-20 18:50:34.38	269.47	7.28	-40.1	-41.5	26.5	3.02e+01	61	42	0	542113792	56	5733
2026-01-20 18:50:35.39	269.35	7.21	-40.4	-41.8	26.2	3.02e+01	60	43	0	543686656	54	6717
2026-01-20 18:50:36.40	269.24	7.14	-40.5	-42.0	25.8	3.02e+01	61	43	0	545783808	54	6808
2026-01-20 18:50:37.41	269.13	7.08	-41.0	-42.5	25.6	3.02e+01	59	42	0	547880960	54	7243
2026-01-20 18:50:38.41	269.02	7.01	-41.1	-42.6	25.3	3.02e+01	48	42	0	549453824	56	6503
2026-01-20 18:50:39.42	268.91	6.94	-40.9	-42.4	25.6	3.02e+01	59	43	0	551550976	56	6402
2026-01-20 18:50:40.43	268.81	6.88	-41.5	-43.0	25.1	3.02e+01	59	43	0	553123840	56	6822
2026-01-20 18:50:41.44	268.70	6.81	-40.6	-42.0	25.9	3.02e+01	49	42	0	555220992	56	6112
2026-01-20 18:50:42.45	268.59	6.75	-40.8	-42.3	25.7	3.02e+01	59	42	0	557318144	56	6314
2026-01-20 18:50:43.46	268.48	6.68	-41.6	-43.1	24.9	3.02e+01	49	42	0	558891008	56	6955
2026-01-20 18:50:44.47	268.38	6.61	-41.2	-42.7	25.2	3.02e+01	59	42	0	560988160	56	6638
2026-01-20 18:50:45.48	268.27	6.55	-40.9	-42.4	25.5	3.02e+01	60	42	0	562561024	56	6417
2026-01-20 18:50:46.49	268.16	6.48	-40.7	-42.2	26.0	3.02e+01	51	42	0	564658176	56	6233
2026-01-20 18:50:47.50	268.06	6.41	-40.5	-41.9	26.0	3.02e+01	61	42	0	566755328	56	6022
2026-01-20 18:50:48.51	267.96	6.35	-40.8	-42.3	25.6	3.02e+01	60	42	0	568328192	56	6298
2026-01-20 18:50:49.52	267.85	6.28	-40.7	-42.1	25.9	3.02e+01	50	42	0	570425344	56	6175
2026-01-20 18:50:50.53	267.75	6.22	-40.8	-42.3	25.3	3.02e+01	60	42	0	572522496	56	6314
2026-01-20 18:50:51.54	267.65	6.15	-40.5	-41.9	25.7	3.02e+01	46	42	0	574095360	56	6046
2026-01-20 18:50:52.55	267.54	6.09	-40.6	-42.1	25.7	3.02e+01	55	42	0	576192512	56	6146
2026-01-20 18:50:53.56	267.44	6.02	-41.0	-42.5	25.2	3.02e+01	62	42	0	577765376	56	6495
2026-01-20 18:50:54.57	267.34	5.96	-40.7	-42.2	25.5	3.02e+01	46	42	0	579862528	56	6236
2026-01-20 18:50:55.58	267.24	5.89	-40.6	-42.1	25.7	3.02e+01	57	43	0	581959680	56	6153
2026-01-20 18:50:56.59	267.14	5.83	-39.9	-41.3	26.3	3.02e+01	60	43	0	583532544	54	6337
2026-01-20 18:50:57.60	267.04	5.76	-40.5	-42.0	25.6	3.02e+01	58	43	0	585629696	54	6847
2026-01-20 18:50:58.61	266.94	5.70	-41.6	-43.2	24.6	3.02e+01	58	42	0	587202560	56	6966
2026-01-20 18:50:59.62	266.84	5.63	-38.1	-39.4	28.1	3.02e+01	59	42	0	589299712	52	5704
2026-01-20 18:51:00.63	266.74	5.57	-42.1	-43.8	23.8	3.02e+01	56	42	0	591396864	58	6703
2026-01-20 18:51:01.64	266.64	5.50	-42.0	-43.7	24.0	3.02e+01	60	42	0	592969728	58	6629
2026-01-20 18:51:02.65	266.55	5.44	-40.7	-42.1	25.7	3.02e+01	45	43	0	595066880	58	5530
2026-01-20 18:51:03.66	266.45	5.37	-41.0	-42.5	25.1	3.02e+01	57	43	0	596639744	56	6471
2026-01-20 18:51:04.67	266.35	5.31	-41.7	-43.4	24.4	3.02e+01	57	42	0	598736896	56	7133
2026-01-20 18:51:05.68	266.26	5.25	-42.4	-44.2	23.4	3.02e+01	60	43	0	600834048	58	6982
2026-01-20 18:51:06.69	266.16	5.18	-41.1	-42.6	24.6	3.02e+01	59	42	0	602406912	56	6567
2026-01-20 18:51:07.70	266.07	5.12	-41.0	-42.5	25.3	3.02e+01	48	42	0	604504064	58	5783
2026-01-20 18:51:08.71	265.97	5.06	-41.2	-42.7	24.8	3.02e+01	60	42	0	606076928	56	6637
2026-01-20 18:51:09.72	265.88	4.99	-41.3	-42.8	24.7	3.02e+01	58	43	0	608174080	56	6721
2026-01-20 18:51:10.73	265.78	4.93	-41.8	-43.4	24.3	3.02e+01	47	43	0	610271232	58	6384
2026-01-20 18:51:11.74	265.69	4.86	-42.3	-44.1	23.6	3.02e+01	53	43	0	611844096	58	6886
2026-01-20 18:51:12.75	265.60	4.80	-42.1	-43.8	23.6	3.02e+01	57	43	0	613941248	58	6678
2026-01-20 18:51:13.76	265.51	4.74	-42.3	-44.0	23.7	3.02e+01	61	42	0	615514112	58	6882
2026-01-20 18:51:14.77	265.41	4.67	-41.8	-43.5	23.3	3.02e+01	60	43	0	617611264	56	7226
2026-01-20 18:51:15.78	265.32	4.61	-42.3	-44.1	23.8	3.02e+01	50	43	0	619708416	58	6886
2026-01-20 18:51:16.79	265.23	4.55	-40.4	-41.9	25.4	3.02e+01	57	42	0	621281280	54	6765
2026-01-20 18:51:17.80	265.14	4.49	-42.4	-44.2	23.2	3.02e+01	60	43	0	623378432	58	6971
2026-01-20 18:51:18.81	265.05	4.42	-38.9	-40.3	26.9	3.02e+01	59	43	0	625475584	52	6293
2026-01-20 18:51:19.82	264.96	4.36	-40.3	-41.8	25.7	3.02e+01	57	43	0	627048448	56	5927
2026-01-20 18:51:20.83	264.87	4.30	-41.3	-42.8	25.0	3.02e+01	44	42	0	629145600	58	5994
2026-01-20 18:51:21.84	264.78	4.24	-41.9	-43.5	23.8	3.02e+01	58	42	0	630718464	56	7282
2026-01-20 18:51:22.85	264.70	4.17	-40.8	-42.3	25.3	3.02e+01	59	43	0	632815616	58	5596
2026-01-20 18:51:23.86	264.61	4.11	-41.6	-43.3	24.5	3.02e+01	46	43	0	634912768	58	6283
2026-01-20 18:51:24.87	264.52	4.05	-42.5	-44.4	23.0	3.02e+01	58	43	0	636485632	58	7128
2026-01-20 18:51:25.88	264.43	3.99	-40.9	-42.4	25.1	3.02e+01	59	43	0	638582784	56	6402
2026-01-20 18:51:26.89	264.35	3.92	-42.0	-43.7	23.5	3.02e+01	61	43	0	640679936	58	6610
2026-01-20 18:51:27.90	264.26	3.86	-41.8	-43.4	24.8	3.02e+01	62	43	0	642252800	60	5691
2026-01-20 18:51:28.91	264.17	3.80	-42.9	-44.8	22.5	3.02e+01	45	43	0	644349952	58	7494
2026-01-20 18:51:29.92	264.09	3.74	-42.3	-44.1	23.5	3.02e+01	61	43	0	645922816	58	6896
2026-01-20 18:51:30.93	264.00	3.68	-41.2	-42.8	24.6	3.02e+01	59	43	0	648019968	56	6666
2026-01-20 18:51:31.94	263.92	3.62	-42.5	-44.3	23.2	3.02e+01	44	43	0	650117120	58	7093
2026-01-20 18:51:32.95	263.83	3.56	-42.5	-44.2	23.3	3.02e+01	57	42	0	651689984	58	7039
2026-01-20 18:51:33.96	263.75	3.49	-42.2	-43.9	23.4	3.02e+01	57	43	0	653787136	56	7580
2026-01-20 18:51:34.97	263.67	3.43	-41.8	-43.4	24.2	3.02e+01	57	42	0	655360000	60	5714
2026-01-20 18:51:35.98	263.58	3.37	-40.6	-42.1	25.1	3.02e+01	59	43	0	657457152	54	6956
2026-01-20 18:51:36.99	263.50	3.31	-42.0	-43.7	23.8	3.02e+01	46	43	0	659554304	58	6579
2026-01-20 18:51:38.00	263.42	3.25	-43.3	-45.3	22.6	3.02e+01	57	43	0	661127168	58	7909
2026-01-20 18:51:39.01	263.34	3.19	-40.6	-42.1	25.3	3.02e+01	58	43	0	663224320	56	6171
2026-01-20 18:51:40.02	263.26	3.13	-42.2	-43.9	23.7	3.02e+01	50	42	0	664797184	60	6047
2026-01-20 18:51:41.03	263.18	3.07	-42.7	-44.5	21.1	3.02e+01	61	43	0	666894336	58	7275
2026-01-20 18:51:42.04	263.09	3.01	-42.9	-44.8	21.9	3.02e+01	60	43	0	668991488	60	6661
2026-01-20 18:51:43.05	263.01	2.95	-50.5	-68.1	3.5	3.02e+01	0	43	104	669515776	60	98217
2026-01-20 18:51:44.06	262.93	2.89	-51.1	-68.7	3.5	3.02e+01	0	43	104	669515776	60	105177
2026-01-20 18:51:45.07	262.85	2.83	-51.3	-69.1	3.5	3.02e+01	0	43	104	669515776	60	109693
2026-01-20 18:51:46.08	262.78	2.77	-51.5	-69.2	3.5	3.02e+01	0	43	104	669515776	60	111395
2026-01-20 18:51:47.09	262.70	2.71	-51.6	-69.4	3.5	3.02e+01	0	43	104	669515776	60	113701
2026-01-20 18:51:48.10	262.62	2.65	-51.7	-69.5	3.5	3.02e+01	0	43	104	669515776	60	114529
2026-01-20 18:51:49.11	262.54	2.59	-51.7	-69.6	3.5	3.02e+01	0	43	104	669515776	60	115577
2026-01-20 18:51:50.12	262.46	2.53	-51.7	-69.6	3.5	3.02e+01	0	43	104	669515776	60	115627
2026-01-20 18:51:51.13	262.38	2.47	-51.8	-69.6	3.5	3.02e+01	0	43	104	669515776	60	116714
2026-01-20 18:51:52.14	262.31	2.41	-51.9	-69.7	3.5	3.02e+01	0	43	104	669515776	60	117277
2026-01-20 18:51:53.15	262.23	2.35	-51.9	-69.7	3.5	3.02e+01	0	43	104	669515776	60	117528
2026-01-20 18:51:54.16	262.15	2.29	-51.9	-69.7	3.5	3.02e+01	0	43	104	669515776	60	117373
2026-01-20 18:51:55.17	262.08	2.23	-51.9	-69.7	3.5	3.02e+01	0	43	104	669515776	60	118088
2026-01-20 18:51:56.17	262.00	2.17	-51.8	-69.7	3.5	3.02e+01	0	43	104	669515776	60	117628
2026-01-20 18:51:57.19	261.93	2.11	-51.8	-69.7	3.5	3.02e+01	0	43	104	669515776	60	117285
2026-01-20 18:51:58.20	261.85	2.05	-51.7	-69.7	3.5	3.02e+01	0	43	104	669515776	60	117756
2026-01-20 18:51:59.20	261.78	1.99	-51.7	-69.7	3.5	3.02e+01	0	43	104	669515776	60	118239
2026-01-20 18:52:00.22	261.70	1.94	-51.8	-69.7	3.5	3.02e+01	0	43	104	669515776	60	117224
2026-01-20 18:52:01.22	261.63	1.88	-51.7	-69.7	3.5	3.02e+01	0	43	104	669515776	60	117151
2026-01-20 18:52:02.24	261.56	1.82	-51.7	-69.7	3.5	3.02e+01	0	43	104	669515776	60	117939
2026-01-20 18:52:03.24	261.48	1.76	-51.7	-69.6	3.6	3.02e+01	0	43	104	669515776	60	116749
2026-01-20 18:52:04.25	261.41	1.70	-51.9	-69.7	3.5	3.02e+01	0	43	104	669515776	60	117767
2026-01-20 18:52:05.26	261.34	1.64	-51.9	-69.7	3.5	3.02e+01	0	43	104	669515776	60	118144
2026-01-20 18:52:06.27	261.27	1.59	-51.7	-69.7	3.5	3.02e+01	0	43	104	669515776	60	117221
2026-01-20 18:52:07.28	261.19	1.53	-51.8	-69.7	3.5	3.02e+01	0	43	104	669515776	60	117285
2026-01-20 18:52:08.29	261.12	1.47	-51.9	-69.7	3.5	3.02e+01	0	43	104	669515776	60	117739
2026-01-20 18:52:09.30	261.05	1.41	-51.8	-69.7	3.5	3.02e+01	0	43	104	669515776	60	117178
2026-01-20 18:52:10.31	260.98	1.35	-51.9	-69.8	3.5	3.02e+01	0	43	104	669515776	60	119305
