passes_logs/2026/01/20/R4.6S_Anadyr/R4.6S_Anadyr__20260120_020300_AQUA_rec.log

#Pass ID: 20260120_020300_AQUA
#Satellite: AQUA
#Configuration: AQUA
#almurnet v.1.7.20251203
#Start time: 2026-01-20 02:03:02

#Version: 2.2.20231116
#Station: R4.6S_Anadyr
#Location: 177.4865 lon 64.73178 lat
#TLE: 1 27424U 02022A   26019.27629806  .00001032  00000+0  21655-3 0  9990
#TLE: 2 27424  98.4090 345.7756 0001997  73.0764  31.8912 14.61830109261513

#Time	Az	El	Level	Level2	SNR	BER	BlckErr	Temp	State	Recorded	gain1	gain2
2026-01-20 02:03:02.90	158.77	0.15	-53.1	-68.0	3.6	1.51e+00	0	39	0	0	60	91088
2026-01-20 02:03:03.90	158.78	0.21	-54.9	-72.7	3.5	3.02e+01	0	40	104	0	60	165479
2026-01-20 02:03:04.91	158.78	0.28	-54.2	-72.0	3.5	3.02e+01	0	40	104	0	60	153574
2026-01-20 02:03:05.92	158.79	0.34	-53.7	-71.5	3.5	3.02e+01	0	40	104	0	60	145162
2026-01-20 02:03:06.94	158.79	0.40	-53.0	-70.8	3.5	3.02e+01	0	40	104	0	60	133665
2026-01-20 02:03:07.94	158.80	0.47	-52.5	-70.3	3.5	3.02e+01	0	40	104	0	60	125900
2026-01-20 02:03:08.96	158.80	0.53	-52.5	-70.4	3.5	3.02e+01	0	40	104	0	60	127056
2026-01-20 02:03:09.97	158.81	0.59	-52.3	-70.1	3.5	3.02e+01	0	40	104	0	60	123420
2026-01-20 02:03:10.98	158.82	0.66	-52.2	-70.0	3.5	3.02e+01	0	41	104	0	60	121689
2026-01-20 02:03:11.99	158.82	0.72	-52.0	-69.7	3.5	3.02e+01	0	41	104	0	60	117508
2026-01-20 02:03:12.99	158.83	0.78	-51.6	-69.4	3.5	3.02e+01	0	41	104	0	60	113615
2026-01-20 02:03:14.01	158.83	0.85	-51.7	-69.6	3.5	3.02e+01	0	41	104	0	60	115622
2026-01-20 02:03:15.01	158.84	0.91	-51.9	-69.7	3.5	3.02e+01	0	41	104	0	60	117806
2026-01-20 02:03:16.02	158.85	0.98	-52.0	-69.8	3.5	3.02e+01	0	41	104	0	60	118731
2026-01-20 02:03:17.03	158.85	1.04	-51.9	-69.7	3.5	3.02e+01	0	41	104	0	60	117429
2026-01-20 02:03:18.04	158.86	1.11	-51.8	-69.7	3.5	3.02e+01	0	41	104	0	60	117901
2026-01-20 02:03:19.05	158.86	1.17	-52.2	-70.0	3.5	3.02e+01	0	41	104	0	60	122143
2026-01-20 02:03:20.06	158.87	1.24	-51.6	-69.5	3.5	3.02e+01	0	41	104	0	60	114436
2026-01-20 02:03:21.07	158.87	1.30	-51.1	-68.9	3.5	3.02e+01	0	41	104	0	60	107480
2026-01-20 02:03:22.08	158.88	1.37	-50.9	-68.7	3.5	3.02e+01	0	41	104	0	60	104342
2026-01-20 02:03:23.09	158.89	1.43	-51.0	-68.8	3.5	3.02e+01	0	41	104	0	60	106183
2026-01-20 02:03:24.11	158.89	1.50	-50.1	-67.2	3.5	3.02e+01	0	41	104	0	60	88617
2026-01-20 02:03:25.12	158.90	1.57	-51.0	-67.6	3.5	3.02e+01	0	41	104	0	60	91917
2026-01-20 02:03:26.12	158.90	1.63	-50.1	-67.9	3.5	3.02e+01	0	41	104	0	60	95656
2026-01-20 02:03:27.13	158.91	1.70	-49.9	-67.5	3.5	3.02e+01	0	41	104	0	60	91372
2026-01-20 02:03:28.14	158.92	1.77	-49.9	-67.3	3.5	3.02e+01	0	41	104	0	60	89401
2026-01-20 02:03:29.15	158.92	1.83	-49.9	-67.3	3.5	3.02e+01	0	41	104	0	60	89415
2026-01-20 02:03:30.16	158.93	1.90	-49.8	-67.0	3.5	3.02e+01	0	41	104	0	60	86263
2026-01-20 02:03:31.17	158.93	1.97	-49.9	-66.9	3.5	3.02e+01	0	41	104	0	60	85143
2026-01-20 02:03:32.18	158.94	2.03	-49.9	-66.9	3.5	3.02e+01	0	41	104	0	60	85639
2026-01-20 02:03:33.19	158.95	2.10	-49.8	-66.6	3.5	3.02e+01	0	41	104	0	60	81916
2026-01-20 02:03:34.20	158.95	2.17	-49.7	-67.0	3.5	3.02e+01	0	41	104	0	60	86361
2026-01-20 02:03:35.21	158.96	2.24	-49.8	-67.2	3.5	3.02e+01	0	41	104	0	60	88026
2026-01-20 02:03:36.22	158.96	2.30	-49.7	-67.3	3.5	3.02e+01	0	41	104	0	60	89310
2026-01-20 02:03:37.23	158.97	2.37	-50.3	-67.8	3.5	3.02e+01	0	41	104	0	60	94684
2026-01-20 02:03:38.24	158.98	2.44	-50.0	-67.6	3.5	3.02e+01	0	41	104	0	60	92307
2026-01-20 02:03:39.25	158.98	2.51	-49.9	-67.5	3.5	3.02e+01	0	41	104	0	60	91017
2026-01-20 02:03:40.26	158.99	2.58	-49.8	-67.3	3.5	3.02e+01	0	41	104	0	60	88721
2026-01-20 02:03:41.27	159.00	2.65	-49.7	-66.8	3.5	3.02e+01	0	41	104	0	60	83935
2026-01-20 02:03:42.28	159.00	2.72	-49.8	-66.5	3.5	3.02e+01	0	41	104	0	60	81264
2026-01-20 02:03:43.29	159.01	2.79	-49.7	-65.2	3.5	3.02e+01	0	41	104	0	60	70066
2026-01-20 02:03:44.31	159.01	2.86	-49.6	-64.2	4.1	3.02e+01	0	41	104	0	60	62354
2026-01-20 02:03:45.32	159.02	2.93	-49.5	-63.3	4.4	3.02e+01	0	41	104	0	60	56401
2026-01-20 02:03:46.33	159.03	3.00	-49.7	-63.1	4.6	3.02e+01	0	41	104	0	60	54973
2026-01-20 02:03:47.34	159.03	3.07	-49.7	-64.0	4.2	3.02e+01	0	41	104	0	60	60735
2026-01-20 02:03:48.35	159.04	3.14	-49.8	-63.8	3.6	3.02e+01	0	41	104	0	60	59728
2026-01-20 02:03:49.36	159.05	3.21	-50.2	-62.2	5.5	3.02e+01	25	41	0	0	60	49804
2026-01-20 02:03:50.37	159.05	3.28	-49.6	-57.9	11.0	3.02e+01	0	41	104	0	60	30089
2026-01-20 02:03:51.38	159.06	3.35	-48.4	-53.7	12.9	3.02e+01	0	41	0	1572864	60	18665
2026-01-20 02:03:52.39	159.06	3.42	-47.8	-52.2	15.3	3.02e+01	0	41	0	3145728	60	15648
2026-01-20 02:03:53.40	159.07	3.49	-46.5	-49.7	17.9	3.02e+01	0	41	0	5242880	60	11767
2026-01-20 02:03:54.41	159.08	3.56	-45.4	-48.1	19.4	3.02e+01	0	41	0	6815744	60	9777
2026-01-20 02:03:55.42	159.08	3.63	-44.6	-47.0	20.5	3.02e+01	0	41	0	8912896	60	8589
2026-01-20 02:03:56.43	159.09	3.70	-42.0	-43.6	24.0	3.02e+01	0	41	0	11010048	60	5849
2026-01-20 02:03:57.44	159.10	3.78	-45.6	-47.8	21.7	3.02e+01	0	41	0	12582912	60	9475
2026-01-20 02:03:58.44	159.10	3.85	-43.2	-45.0	22.9	3.02e+01	0	41	0	14680064	60	6865
2026-01-20 02:03:59.45	159.11	3.92	-42.3	-44.0	23.8	3.02e+01	0	41	0	16252928	60	6065
2026-01-20 02:04:00.46	159.12	3.99	-43.1	-45.0	22.5	3.02e+01	0	41	0	18350080	60	6845
2026-01-20 02:04:01.47	159.12	4.07	-45.7	-48.4	16.6	3.02e+01	0	41	0	20447232	60	10176
2026-01-20 02:04:02.48	159.13	4.14	-48.7	-54.7	13.1	3.02e+01	0	41	104	20971520	60	20971
2026-01-20 02:04:03.49	159.14	4.21	-42.9	-44.6	23.4	3.02e+01	0	41	0	21495808	60	6518
2026-01-20 02:04:04.50	159.14	4.29	-49.6	-56.3	14.8	3.02e+01	0	41	104	22544384	60	25201
2026-01-20 02:04:05.51	159.15	4.36	-42.1	-43.7	23.2	3.02e+01	0	41	0	23068672	58	6628
2026-01-20 02:04:06.52	159.16	4.43	-47.1	-50.8	19.8	3.02e+01	0	41	104	23592960	60	13333
2026-01-20 02:04:07.53	159.16	4.51	-41.7	-43.2	24.8	3.02e+01	0	41	0	24641536	58	6258
2026-01-20 02:04:08.54	159.17	4.58	-41.5	-43.1	25.5	3.02e+01	0	41	0	26214400	58	6145
2026-01-20 02:04:09.55	159.17	4.66	-42.0	-43.6	24.9	3.02e+01	0	41	0	28311552	58	6513
2026-01-20 02:04:10.56	159.18	4.73	-41.4	-42.9	25.6	3.02e+01	0	41	0	30408704	58	6024
2026-01-20 02:04:11.57	159.19	4.81	-41.2	-42.7	25.5	3.02e+01	0	41	0	31981568	58	5918
2026-01-20 02:04:12.58	159.20	4.88	-41.2	-42.7	25.5	3.02e+01	0	41	0	34078720	56	6616
2026-01-20 02:04:13.59	159.20	4.96	-41.2	-42.7	25.7	3.02e+01	0	41	0	36175872	56	6641
2026-01-20 02:04:14.60	159.21	5.04	-41.6	-43.1	25.6	3.02e+01	0	41	0	37748736	58	6168
2026-01-20 02:04:15.61	159.22	5.11	-41.7	-43.2	25.6	3.02e+01	0	41	0	39845888	58	6221
2026-01-20 02:04:16.62	159.22	5.19	-40.8	-42.2	25.9	3.02e+01	0	41	0	41418752	56	6268
2026-01-20 02:04:17.63	159.23	5.27	-41.9	-43.4	25.4	3.02e+01	0	41	0	43515904	58	6372
2026-01-20 02:04:18.64	159.24	5.34	-42.8	-44.4	24.4	3.02e+01	0	41	0	45613056	58	7126
2026-01-20 02:04:19.65	159.24	5.42	-41.9	-43.5	25.2	3.02e+01	0	41	0	47185920	58	6437
2026-01-20 02:04:20.66	159.25	5.50	-42.9	-44.5	24.7	3.02e+01	0	41	0	49283072	60	6476
2026-01-20 02:04:21.67	159.26	5.57	-41.3	-42.7	25.3	3.02e+01	0	41	0	51380224	58	5896
2026-01-20 02:04:22.68	159.26	5.65	-42.4	-43.9	25.0	3.02e+01	0	41	0	52953088	58	6730
2026-01-20 02:04:23.69	159.27	5.73	-42.4	-44.0	24.8	3.02e+01	0	41	0	55050240	58	6845
2026-01-20 02:04:24.70	159.28	5.81	-43.4	-45.2	23.9	3.02e+01	0	41	0	56623104	58	7819
2026-01-20 02:04:25.71	159.28	5.89	-41.5	-42.9	25.5	3.02e+01	0	41	0	58720256	58	6061
2026-01-20 02:04:26.72	159.29	5.97	-41.7	-43.2	25.3	3.02e+01	0	41	0	60817408	58	6249
2026-01-20 02:04:27.73	159.30	6.05	-42.2	-43.7	22.9	3.02e+01	0	41	0	62390272	58	6633
2026-01-20 02:04:28.74	159.31	6.13	-42.2	-43.8	24.7	3.02e+01	0	41	0	64487424	60	5936
2026-01-20 02:04:29.75	159.31	6.21	-41.4	-42.9	25.8	3.02e+01	0	41	0	66060288	58	6009
2026-01-20 02:04:30.76	159.32	6.29	-42.4	-43.8	25.5	3.02e+01	0	41	0	68157440	58	6723
2026-01-20 02:04:31.77	159.33	6.37	-42.9	-44.4	24.9	3.02e+01	0	41	0	70254592	58	7174
2026-01-20 02:04:32.78	159.33	6.45	-42.1	-43.6	24.6	3.02e+01	0	41	0	71827456	60	5844
2026-01-20 02:04:33.79	159.34	6.53	-41.6	-43.1	24.8	3.02e+01	0	41	0	73924608	58	6189
2026-01-20 02:04:34.80	159.35	6.61	-40.9	-42.4	25.3	3.02e+01	0	41	0	75497472	56	6385
2026-01-20 02:04:35.81	159.36	6.69	-40.4	-41.8	26.1	3.02e+01	0	41	0	77594624	56	5969
2026-01-20 02:04:36.82	159.36	6.77	-41.8	-43.3	25.1	3.02e+01	0	41	0	79691776	56	7097
2026-01-20 02:04:37.83	159.37	6.85	-42.0	-43.5	25.9	3.02e+01	0	41	0	81264640	58	6437
2026-01-20 02:04:38.84	159.38	6.94	-42.5	-44.1	24.4	3.02e+01	0	41	0	83361792	58	6906
2026-01-20 02:04:39.85	159.38	7.02	-42.4	-43.9	25.5	3.02e+01	0	41	0	84934656	58	6800
2026-01-20 02:04:40.86	159.39	7.10	-41.1	-42.4	26.0	3.02e+01	0	41	0	87031808	56	6394
2026-01-20 02:04:41.87	159.40	7.19	-41.3	-42.7	24.6	3.02e+01	0	41	0	89128960	58	5871
2026-01-20 02:04:42.88	159.41	7.27	-43.3	-44.9	24.4	3.02e+01	0	41	0	90701824	60	6730
2026-01-20 02:04:43.89	159.41	7.35	-41.8	-43.3	26.2	3.02e+01	0	41	0	92798976	58	6303
2026-01-20 02:04:44.90	159.42	7.44	-41.9	-43.3	26.9	3.02e+01	0	41	0	94896128	56	7119
2026-01-20 02:04:45.91	159.43	7.52	-42.9	-44.4	25.4	3.02e+01	0	41	0	96468992	58	7156
2026-01-20 02:04:46.92	159.44	7.61	-42.1	-43.6	26.3	3.02e+01	0	41	0	98566144	58	6518
2026-01-20 02:04:47.93	159.44	7.69	-42.2	-43.7	25.4	3.02e+01	0	41	0	100139008	58	6578
2026-01-20 02:04:48.94	159.45	7.78	-42.3	-43.9	25.6	3.02e+01	0	41	0	102236160	56	7568
2026-01-20 02:04:49.95	159.46	7.86	-42.4	-43.9	25.5	3.02e+01	0	41	0	104333312	58	6770
2026-01-20 02:04:50.96	159.47	7.95	-41.7	-43.1	26.5	3.02e+01	0	41	0	105906176	58	6192
2026-01-20 02:04:51.97	159.47	8.04	-42.4	-43.9	24.5	3.02e+01	0	41	0	108003328	60	5999
2026-01-20 02:04:52.98	159.48	8.12	-40.5	-41.8	26.9	3.02e+01	0	41	0	109576192	56	5971
2026-01-20 02:04:53.99	159.49	8.21	-42.2	-43.5	25.5	3.02e+01	0	41	0	111673344	60	5781
2026-01-20 02:04:55.00	159.50	8.30	-42.0	-43.5	26.2	3.02e+01	0	41	0	113770496	56	7249
2026-01-20 02:04:56.01	159.51	8.38	-40.5	-41.9	25.9	3.02e+01	0	41	0	115343360	56	6017
2026-01-20 02:04:57.01	159.51	8.47	-40.8	-42.2	26.3	3.02e+01	0	41	0	117440512	56	6236
2026-01-20 02:04:58.02	159.52	8.56	-40.7	-42.1	26.8	3.02e+01	0	41	0	119537664	56	6172
2026-01-20 02:04:59.04	159.53	8.65	-40.1	-41.6	26.2	3.02e+01	0	41	0	121110528	54	6499
2026-01-20 02:05:00.05	159.54	8.74	-39.9	-41.3	27.2	3.02e+01	0	41	0	123207680	54	6288
2026-01-20 02:05:01.06	159.55	8.83	-40.0	-41.3	27.4	3.02e+01	0	41	0	124780544	54	6304
2026-01-20 02:05:02.07	159.55	8.92	-40.0	-41.3	27.9	3.02e+01	0	41	0	126877696	56	5602
2026-01-20 02:05:03.08	159.56	9.01	-40.7	-42.0	26.9	3.02e+01	0	41	0	128974848	54	6876
2026-01-20 02:05:04.09	159.57	9.10	-41.1	-42.5	26.9	3.02e+01	0	41	0	130547712	54	7229
2026-01-20 02:05:05.10	159.58	9.19	-40.2	-41.5	27.6	3.02e+01	0	41	0	132644864	54	6473
2026-01-20 02:05:06.11	159.59	9.28	-40.5	-41.9	27.2	3.02e+01	0	41	0	134217728	56	6016
2026-01-20 02:05:07.12	159.59	9.37	-41.4	-42.8	25.8	3.02e+01	0	41	0	136314880	54	7481
2026-01-20 02:05:08.12	159.60	9.46	-40.1	-41.4	27.3	3.02e+01	0	41	0	138412032	56	5669
2026-01-20 02:05:09.13	159.61	9.56	-39.2	-40.5	28.0	3.02e+01	0	41	0	139984896	54	5759
2026-01-20 02:05:10.14	159.62	9.65	-39.5	-40.8	28.1	3.02e+01	0	41	0	142082048	54	5951
2026-01-20 02:05:11.15	159.63	9.74	-40.3	-41.6	27.6	3.02e+01	0	41	0	143654912	56	5796
2026-01-20 02:05:12.16	159.63	9.84	-39.0	-40.3	28.3	3.02e+01	0	41	0	145752064	52	6288
2026-01-20 02:05:13.17	159.64	9.93	-39.6	-40.9	28.0	3.02e+01	0	41	0	147849216	52	6789
2026-01-20 02:05:14.18	159.65	10.03	-40.2	-41.6	28.3	3.02e+01	0	41	0	149422080	52	7296
2026-01-20 02:05:15.19	159.66	10.12	-39.4	-40.7	28.3	3.02e+01	0	41	0	151519232	54	5891
2026-01-20 02:05:16.20	159.67	10.22	-39.5	-40.8	28.4	3.02e+01	0	41	0	153092096	54	5928
2026-01-20 02:05:17.21	159.68	10.31	-39.2	-40.4	28.4	3.02e+01	0	41	0	155189248	52	6401
2026-01-20 02:05:18.22	159.68	10.41	-38.4	-39.7	28.7	3.02e+01	0	41	0	157286400	52	5859
2026-01-20 02:05:19.23	159.69	10.50	-38.6	-39.8	28.4	3.02e+01	0	41	0	158859264	52	5972
2026-01-20 02:05:20.24	159.70	10.60	-38.0	-39.3	28.5	3.02e+01	0	41	0	160956416	52	5617
2026-01-20 02:05:21.25	159.71	10.70	-37.7	-39.0	28.6	3.02e+01	0	41	0	163053568	50	6070
2026-01-20 02:05:22.26	159.72	10.80	-37.6	-38.8	28.6	3.02e+01	0	41	0	164626432	50	5949
2026-01-20 02:05:23.27	159.73	10.89	-38.8	-40.0	28.7	3.02e+01	0	41	0	166723584	50	6879
2026-01-20 02:05:24.28	159.74	10.99	-38.6	-39.8	28.8	3.02e+01	0	41	0	168296448	52	5961
2026-01-20 02:05:25.29	159.74	11.09	-38.8	-40.0	28.4	3.02e+01	0	41	0	170393600	52	6134
2026-01-20 02:05:26.30	159.75	11.19	-38.5	-39.8	28.5	3.02e+01	0	41	0	172490752	52	5942
2026-01-20 02:05:27.31	159.76	11.29	-38.7	-39.9	28.7	3.02e+01	0	41	0	174063616	52	6063
2026-01-20 02:05:28.31	159.77	11.39	-39.1	-40.3	28.7	3.02e+01	0	41	0	176160768	52	6314
2026-01-20 02:05:29.32	159.78	11.49	-38.6	-39.8	28.9	3.02e+01	0	41	0	177733632	52	5975
2026-01-20 02:05:30.33	159.79	11.59	-38.3	-39.5	28.9	3.02e+01	0	41	0	179830784	52	5756
2026-01-20 02:05:31.34	159.80	11.69	-37.8	-39.0	28.8	3.02e+01	0	41	0	181927936	50	6095
2026-01-20 02:05:32.35	159.81	11.80	-37.6	-38.8	28.8	3.02e+01	0	41	0	183500800	50	5991
2026-01-20 02:05:33.36	159.82	11.90	-37.4	-38.7	28.8	3.02e+01	0	41	0	185597952	50	5870
2026-01-20 02:05:34.37	159.83	12.00	-37.5	-38.8	28.8	3.02e+01	0	41	0	187695104	50	5942
2026-01-20 02:05:35.38	159.83	12.11	-37.4	-38.6	29.0	3.02e+01	0	41	0	189267968	50	5852
2026-01-20 02:05:36.39	159.84	12.21	-37.4	-38.6	28.8	3.02e+01	0	41	0	191365120	50	5825
2026-01-20 02:05:37.40	159.85	12.32	-37.3	-38.5	28.9	3.02e+01	0	41	0	192937984	50	5766
2026-01-20 02:05:38.41	159.86	12.42	-37.4	-38.6	28.9	3.02e+01	0	41	0	195035136	50	5819
2026-01-20 02:05:39.42	159.87	12.53	-38.6	-39.8	28.7	3.02e+01	0	41	0	197132288	50	6714
2026-01-20 02:05:40.43	159.88	12.63	-38.6	-39.9	28.5	3.02e+01	0	41	0	198705152	50	6730
2026-01-20 02:05:41.44	159.89	12.74	-37.8	-39.0	28.9	3.02e+01	0	41	0	200802304	50	6129
2026-01-20 02:05:42.45	159.90	12.85	-37.9	-39.2	28.7	3.02e+01	0	41	0	202375168	50	6226
2026-01-20 02:05:43.46	159.91	12.96	-37.7	-38.9	28.8	3.02e+01	0	41	0	204472320	50	6031
2026-01-20 02:05:44.47	159.92	13.06	-38.3	-39.6	28.8	3.02e+01	0	41	0	206569472	50	6509
2026-01-20 02:05:45.48	159.93	13.17	-39.1	-40.3	28.9	3.02e+01	0	41	0	208142336	52	6314
2026-01-20 02:05:46.49	159.94	13.28	-38.6	-39.8	28.9	3.02e+01	0	41	0	210239488	52	5963
2026-01-20 02:05:47.50	159.95	13.39	-38.5	-39.8	28.8	3.02e+01	0	41	0	211812352	52	5945
2026-01-20 02:05:48.51	159.96	13.50	-38.6	-39.8	28.7	3.02e+01	0	41	0	213909504	52	5993
2026-01-20 02:05:49.52	159.97	13.61	-37.9	-39.1	29.0	3.02e+01	0	41	0	216006656	50	6167
2026-01-20 02:05:50.53	159.98	13.73	-37.6	-38.8	29.0	3.02e+01	0	41	0	217579520	50	5956
2026-01-20 02:05:51.54	159.99	13.84	-37.6	-38.8	29.1	3.02e+01	0	41	0	219676672	50	5988
2026-01-20 02:05:52.55	160.00	13.95	-38.0	-39.2	29.2	3.02e+01	0	41	0	221249536	50	6268
2026-01-20 02:05:53.56	160.01	14.06	-38.8	-40.0	29.1	3.02e+01	0	41	0	223346688	50	6831
2026-01-20 02:05:54.57	160.02	14.18	-38.9	-40.2	29.3	3.02e+01	0	41	0	225443840	52	6221
2026-01-20 02:05:55.58	160.03	14.29	-38.2	-39.4	29.3	3.02e+01	0	41	0	227016704	52	5706
2026-01-20 02:05:56.60	160.04	14.41	-37.9	-39.2	29.3	3.02e+01	0	41	0	229113856	50	6214
2026-01-20 02:05:57.60	160.05	14.52	-37.8	-39.0	29.2	3.02e+01	0	41	0	231211008	50	6095
2026-01-20 02:05:58.61	160.06	14.64	-37.5	-38.7	29.2	3.02e+01	0	41	0	232783872	50	5917
2026-01-20 02:05:59.62	160.07	14.76	-37.1	-38.3	29.5	3.02e+01	0	41	0	234881024	50	5618
2026-01-20 02:06:00.63	160.08	14.88	-37.7	-38.9	29.4	3.02e+01	0	41	0	236453888	50	6041
2026-01-20 02:06:01.64	160.09	14.99	-38.2	-39.4	29.3	3.02e+01	0	41	0	238551040	50	6391
2026-01-20 02:06:02.65	160.10	15.11	-37.9	-39.1	29.5	3.02e+01	0	41	0	240648192	50	6173
2026-01-20 02:06:03.66	160.11	15.23	-37.8	-39.0	29.3	3.02e+01	0	41	0	242221056	50	6123
2026-01-20 02:06:04.67	160.12	15.35	-37.6	-38.8	29.3	3.02e+01	0	41	0	244318208	50	5941
2026-01-20 02:06:05.68	160.13	15.47	-37.6	-38.8	29.3	3.02e+01	0	41	0	245891072	50	5933
2026-01-20 02:06:06.69	160.14	15.59	-37.5	-38.7	29.1	3.02e+01	0	41	0	247988224	50	5900
2026-01-20 02:06:07.70	160.15	15.72	-37.5	-38.7	29.1	3.02e+01	0	41	0	250085376	50	5899
2026-01-20 02:06:08.71	160.17	15.84	-37.6	-38.8	29.1	3.02e+01	0	41	0	251658240	50	5974
2026-01-20 02:06:09.72	160.18	15.96	-37.2	-38.4	29.3	3.02e+01	0	41	0	253755392	50	5724
2026-01-20 02:06:10.73	160.19	16.09	-37.2	-38.5	29.2	3.02e+01	0	41	0	255852544	50	5730
2026-01-20 02:06:11.74	160.20	16.21	-38.0	-39.2	29.1	3.02e+01	0	41	0	257425408	50	6234
2026-01-20 02:06:12.74	160.21	16.34	-37.7	-38.9	29.2	3.02e+01	0	41	0	259522560	50	6025
2026-01-20 02:06:13.75	160.22	16.46	-37.6	-38.9	29.2	3.02e+01	0	41	0	261095424	50	6007
2026-01-20 02:06:14.76	160.23	16.59	-37.9	-39.1	29.3	3.02e+01	0	41	0	263192576	50	6168
2026-01-20 02:06:15.77	160.24	16.72	-38.3	-39.5	29.2	3.02e+01	0	41	0	265289728	50	6463
2026-01-20 02:06:16.78	160.26	16.85	-38.1	-39.3	29.4	3.02e+01	0	41	0	266862592	50	6312
2026-01-20 02:06:17.79	160.27	16.98	-38.6	-39.8	29.0	3.02e+01	0	41	0	268959744	50	6685
2026-01-20 02:06:18.80	160.28	17.11	-37.7	-38.9	29.5	3.02e+01	0	41	0	270532608	50	6020
2026-01-20 02:06:19.81	160.29	17.24	-37.5	-38.7	29.5	3.02e+01	0	41	0	272629760	50	5916
2026-01-20 02:06:20.82	160.30	17.37	-37.7	-38.9	29.3	3.02e+01	0	41	0	274726912	50	5999
2026-01-20 02:06:21.83	160.31	17.50	-37.4	-38.6	29.4	3.02e+01	0	41	0	276299776	50	5856
2026-01-20 02:06:22.84	160.33	17.64	-37.3	-38.5	29.3	3.02e+01	0	41	0	278396928	50	5771
2026-01-20 02:06:23.85	160.34	17.77	-37.2	-38.4	29.5	3.02e+01	0	41	0	279969792	50	5671
2026-01-20 02:06:24.86	160.35	17.91	-37.4	-38.6	29.3	3.02e+01	0	41	0	282066944	50	5808
2026-01-20 02:06:25.87	160.36	18.04	-37.6	-38.8	29.1	3.02e+01	0	41	0	284164096	50	5983
2026-01-20 02:06:26.88	160.37	18.18	-37.5	-38.7	29.1	3.02e+01	0	41	0	285736960	50	5869
2026-01-20 02:06:27.89	160.39	18.31	-37.5	-38.7	29.4	3.02e+01	0	41	0	287834112	50	5870
2026-01-20 02:06:28.91	160.40	18.45	-37.9	-39.1	29.2	3.02e+01	0	41	0	289406976	50	6162
2026-01-20 02:06:29.92	160.41	18.59	-38.8	-40.0	28.9	3.02e+01	0	41	0	291504128	50	6856
2026-01-20 02:06:30.93	160.42	18.73	-38.5	-39.7	29.0	3.02e+01	0	41	0	293601280	50	6635
2026-01-20 02:06:31.94	160.44	18.87	-38.6	-39.8	29.0	3.02e+01	0	41	0	295174144	50	6661
2026-01-20 02:06:32.94	160.45	19.01	-39.2	-40.5	27.8	3.02e+01	0	41	0	297271296	50	7273
2026-01-20 02:06:33.95	160.46	19.16	-38.2	-39.4	29.0	3.02e+01	0	41	0	299368448	52	5689
2026-01-20 02:06:34.96	160.48	19.30	-37.4	-38.6	29.2	3.02e+01	0	41	0	300941312	50	5835
2026-01-20 02:06:35.97	160.49	19.45	-37.4	-38.6	29.4	3.02e+01	0	41	0	303038464	50	5852
2026-01-20 02:06:36.98	160.50	19.59	-37.3	-38.5	29.4	3.02e+01	0	41	0	304611328	50	5755
2026-01-20 02:06:37.99	160.52	19.74	-37.8	-39.0	29.4	3.02e+01	0	41	0	306708480	50	6102
2026-01-20 02:06:39.00	160.53	19.88	-37.7	-38.9	29.5	3.02e+01	0	41	0	308805632	50	6059
2026-01-20 02:06:40.01	160.54	20.03	-37.4	-38.6	29.5	3.02e+01	0	41	0	310378496	50	5837
2026-01-20 02:06:41.02	160.56	20.18	-37.9	-39.1	29.3	3.02e+01	0	41	0	312475648	50	6163
2026-01-20 02:06:42.03	160.57	20.33	-39.5	-40.8	24.9	3.02e+01	0	41	0	314048512	50	7485
2026-01-20 02:06:43.04	160.58	20.48	-38.5	-39.7	29.1	3.02e+01	0	41	0	316145664	52	5877
2026-01-20 02:06:44.05	160.60	20.64	-38.8	-40.0	29.2	3.02e+01	0	41	0	318242816	52	6110
2026-01-20 02:06:45.06	160.61	20.79	-38.5	-39.7	29.2	3.02e+01	0	41	0	319815680	52	5909
2026-01-20 02:06:46.07	160.63	20.94	-38.2	-39.4	29.2	3.02e+01	0	41	0	321912832	52	5705
2026-01-20 02:06:47.08	160.64	21.10	-38.4	-39.6	29.1	3.02e+01	0	41	0	324009984	52	5816
2026-01-20 02:06:48.09	160.65	21.25	-38.7	-39.9	29.0	3.02e+01	0	41	0	325582848	52	6058
2026-01-20 02:06:49.10	160.67	21.41	-38.6	-39.9	29.0	3.02e+01	0	41	0	327680000	52	6000
2026-01-20 02:06:50.11	160.68	21.57	-38.5	-39.8	28.8	3.02e+01	0	41	0	329252864	52	5935
2026-01-20 02:06:51.12	160.70	21.73	-38.8	-40.1	28.8	3.02e+01	0	41	0	331350016	52	6148
2026-01-20 02:06:52.13	160.71	21.89	-38.4	-39.6	28.9	3.02e+01	0	41	0	333447168	52	5837
2026-01-20 02:06:53.14	160.73	22.05	-38.4	-39.6	28.8	3.02e+01	0	41	0	335020032	52	5858
2026-01-20 02:06:54.15	160.74	22.21	-38.2	-39.4	28.9	3.02e+01	0	41	0	337117184	52	5724
2026-01-20 02:06:55.16	160.76	22.38	-39.1	-40.3	28.4	3.02e+01	0	41	0	338690048	52	6322
2026-01-20 02:06:56.17	160.77	22.54	-38.9	-40.2	28.9	3.02e+01	0	41	0	340787200	52	6215
2026-01-20 02:06:57.18	160.79	22.71	-38.3	-39.5	29.0	3.02e+01	0	41	0	342884352	52	5742
2026-01-20 02:06:58.19	160.80	22.88	-38.9	-40.1	28.8	3.02e+01	0	41	0	344457216	52	6202
2026-01-20 02:06:59.20	160.82	23.05	-38.3	-39.5	29.0	3.02e+01	0	41	0	346554368	52	5763
2026-01-20 02:07:00.21	160.84	23.22	-38.1	-39.3	29.0	3.02e+01	0	41	0	348651520	52	5638
2026-01-20 02:07:01.22	160.85	23.39	-37.9	-39.2	29.1	3.02e+01	0	41	0	350224384	52	5536
2026-01-20 02:07:02.23	160.87	23.56	-38.0	-39.3	29.1	3.02e+01	0	41	0	352321536	50	6289
2026-01-20 02:07:03.24	160.88	23.73	-38.1	-39.3	28.9	3.02e+01	0	41	0	353894400	50	6345
2026-01-20 02:07:04.25	160.90	23.91	-38.2	-39.4	29.1	3.02e+01	0	42	0	355991552	50	6379
2026-01-20 02:07:05.26	160.92	24.08	-38.0	-39.3	29.0	3.02e+01	0	41	0	357564416	50	6280
2026-01-20 02:07:06.27	160.93	24.26	-38.3	-39.5	29.4	3.02e+01	0	41	0	359661568	50	6448
2026-01-20 02:07:07.28	160.95	24.44	-38.2	-39.4	29.4	3.02e+01	0	41	0	361758720	50	6364
2026-01-20 02:07:08.29	160.97	24.62	-37.8	-39.0	29.3	3.02e+01	0	41	0	363331584	50	6068
2026-01-20 02:07:09.30	160.98	24.80	-38.9	-40.1	29.2	3.02e+01	0	42	0	365428736	52	6186
2026-01-20 02:07:10.31	161.00	24.99	-38.9	-40.1	28.6	3.02e+01	0	41	0	367525888	54	5504
2026-01-20 02:07:11.32	161.02	25.17	-39.0	-40.2	28.2	3.02e+01	0	41	0	369098752	52	6265
2026-01-20 02:07:12.33	161.04	25.36	-38.8	-40.0	28.9	3.02e+01	0	41	0	371195904	52	6120
2026-01-20 02:07:13.34	161.06	25.54	-39.2	-40.4	28.8	3.02e+01	0	41	0	372768768	52	6415
2026-01-20 02:07:14.35	161.07	25.73	-39.1	-40.3	29.1	3.02e+01	0	41	0	374865920	52	6331
2026-01-20 02:07:15.36	161.09	25.92	-40.1	-41.4	28.4	3.02e+01	0	41	0	376963072	52	7140
2026-01-20 02:07:16.37	161.11	26.11	-39.0	-40.2	28.9	3.02e+01	0	41	0	378535936	52	6271
2026-01-20 02:07:17.38	161.13	26.30	-39.1	-40.4	29.3	3.02e+01	0	41	0	380633088	52	6360
2026-01-20 02:07:18.39	161.15	26.50	-39.1	-40.3	29.0	3.02e+01	0	41	0	382205952	52	6295
2026-01-20 02:07:19.40	161.17	26.69	-39.3	-40.5	29.3	3.02e+01	0	41	0	384303104	52	6484
2026-01-20 02:07:20.40	161.19	26.89	-38.7	-39.9	29.4	3.02e+01	0	41	0	386400256	52	6055
2026-01-20 02:07:21.41	161.21	27.09	-38.2	-39.4	29.5	3.02e+01	0	41	0	387973120	52	5720
2026-01-20 02:07:22.42	161.22	27.29	-38.8	-40.0	29.3	3.02e+01	0	41	0	390070272	52	6104
2026-01-20 02:07:23.43	161.24	27.49	-38.1	-39.3	29.6	3.02e+01	0	41	0	392167424	52	5648
2026-01-20 02:07:24.44	161.26	27.70	-39.3	-40.5	28.1	3.02e+01	0	41	0	393740288	52	6469
2026-01-20 02:07:25.45	161.28	27.90	-39.1	-40.3	29.0	3.02e+01	0	41	0	395837440	52	6335
2026-01-20 02:07:26.46	161.31	28.11	-39.3	-40.6	29.0	3.02e+01	0	41	0	397410304	52	6509
2026-01-20 02:07:27.47	161.33	28.32	-38.2	-39.3	29.8	3.02e+01	0	41	0	399507456	52	5651
2026-01-20 02:07:28.47	161.35	28.52	-39.3	-40.5	28.6	3.02e+01	0	41	0	401604608	54	5733
2026-01-20 02:07:29.49	161.37	28.74	-40.0	-41.3	29.0	3.02e+01	0	41	0	403177472	54	6325
2026-01-20 02:07:30.50	161.39	28.95	-37.9	-39.0	29.1	3.02e+01	0	41	0	405274624	54	4845
2026-01-20 02:07:31.51	161.41	29.17	-39.6	-40.8	28.1	3.02e+01	0	41	0	406847488	52	6688
2026-01-20 02:07:32.52	161.43	29.39	-40.4	-41.6	28.4	3.02e+01	0	41	0	408944640	54	6544
2026-01-20 02:07:33.53	161.46	29.61	-40.6	-41.9	28.4	3.02e+01	0	41	0	411041792	56	6025
2026-01-20 02:07:34.54	161.48	29.83	-40.6	-41.8	28.5	3.02e+01	0	41	0	412614656	54	6707
2026-01-20 02:07:35.55	161.50	30.05	-39.6	-40.8	27.1	3.02e+01	0	41	0	414711808	56	5302
2026-01-20 02:07:36.55	161.52	30.27	-38.8	-40.0	29.6	3.02e+01	0	41	0	416284672	52	6101
2026-01-20 02:07:37.56	161.55	30.50	-38.3	-39.5	29.6	3.02e+01	0	41	0	418381824	52	5783
2026-01-20 02:07:38.58	161.57	30.73	-37.4	-38.5	29.8	3.02e+01	0	41	0	420478976	50	5781
2026-01-20 02:07:39.59	161.59	30.96	-37.2	-38.4	30.0	3.02e+01	0	42	0	422051840	50	5678
2026-01-20 02:07:40.59	161.62	31.19	-37.6	-38.8	29.7	3.02e+01	0	41	0	424148992	50	5972
2026-01-20 02:07:41.60	161.64	31.42	-37.5	-38.7	29.8	3.02e+01	0	41	0	425721856	50	5899
2026-01-20 02:07:42.61	161.67	31.66	-37.7	-38.9	29.6	3.02e+01	0	41	0	427819008	50	6053
2026-01-20 02:07:43.62	161.69	31.90	-37.5	-38.7	29.5	3.02e+01	0	41	0	429916160	50	5909
2026-01-20 02:07:44.63	161.72	32.14	-37.4	-38.6	29.5	3.02e+01	0	41	0	431489024	50	5844
2026-01-20 02:07:45.64	161.74	32.38	-37.4	-38.6	29.4	3.02e+01	0	41	0	433586176	50	5795
2026-01-20 02:07:46.65	161.77	32.63	-37.9	-39.1	29.3	3.02e+01	0	41	0	435683328	50	6160
2026-01-20 02:07:47.66	161.80	32.87	-38.3	-39.4	29.5	3.02e+01	0	41	0	437256192	50	6422
2026-01-20 02:07:48.67	161.82	33.12	-37.6	-38.8	29.4	3.02e+01	0	41	0	439353344	50	5971
2026-01-20 02:07:49.67	161.85	33.37	-37.7	-38.9	29.4	3.02e+01	0	41	0	440926208	50	6061
2026-01-20 02:07:50.68	161.88	33.62	-38.5	-39.7	29.2	3.02e+01	0	41	0	443023360	50	6590
2026-01-20 02:07:51.69	161.91	33.88	-38.4	-39.6	29.2	3.02e+01	0	41	0	445120512	50	6569
2026-01-20 02:07:52.70	161.93	34.14	-39.0	-40.2	29.1	3.02e+01	0	41	0	446693376	52	6208
2026-01-20 02:07:53.71	161.96	34.40	-38.8	-40.0	29.1	3.02e+01	0	41	0	448790528	52	6080
2026-01-20 02:07:54.72	161.99	34.66	-38.7	-39.9	29.2	3.02e+01	0	41	0	450363392	52	6013
2026-01-20 02:07:55.73	162.02	34.93	-39.3	-40.5	28.5	3.02e+01	0	41	0	452460544	54	5752
2026-01-20 02:07:56.74	162.05	35.19	-38.9	-40.1	28.8	3.02e+01	0	41	0	454557696	52	6168
2026-01-20 02:07:57.75	162.08	35.46	-38.4	-39.7	28.6	3.02e+01	0	41	0	456130560	52	5877
2026-01-20 02:07:58.76	162.11	35.73	-38.5	-39.8	28.5	3.02e+01	0	41	0	458227712	52	5937
2026-01-20 02:07:59.77	162.14	36.01	-38.6	-39.8	28.4	3.02e+01	0	41	0	460324864	52	5975
2026-01-20 02:08:00.78	162.18	36.29	-39.8	-41.1	28.3	3.02e+01	0	41	0	461897728	52	6900
2026-01-20 02:08:01.79	162.21	36.57	-40.4	-41.6	28.1	3.02e+01	0	41	0	463994880	54	6551
2026-01-20 02:08:02.80	162.24	36.85	-39.7	-41.0	28.2	3.02e+01	0	41	0	465567744	54	6069
2026-01-20 02:08:03.81	162.28	37.13	-39.8	-41.1	28.1	3.02e+01	0	41	0	467664896	54	6135
2026-01-20 02:08:04.82	162.31	37.42	-39.9	-41.1	28.1	3.02e+01	0	41	0	469762048	54	6191
2026-01-20 02:08:05.83	162.34	37.71	-40.0	-41.3	27.8	3.02e+01	0	41	0	471334912	54	6301
2026-01-20 02:08:06.84	162.38	38.00	-40.4	-41.7	27.5	3.02e+01	0	41	0	473432064	54	6596
2026-01-20 02:08:07.85	162.41	38.30	-40.2	-41.5	27.6	3.02e+01	0	41	0	475004928	54	6442
2026-01-20 02:08:08.86	162.45	38.60	-39.8	-41.1	27.6	3.02e+01	0	41	0	477102080	54	6168
2026-01-20 02:08:09.87	162.49	38.90	-40.0	-41.3	27.7	3.02e+01	0	41	0	479199232	54	6298
2026-01-20 02:08:10.88	162.52	39.20	-40.0	-41.3	27.9	3.02e+01	0	41	0	480772096	54	6302
2026-01-20 02:08:11.89	162.56	39.51	-40.8	-42.1	27.8	3.02e+01	0	41	0	482869248	54	6938
2026-01-20 02:08:12.90	162.60	39.82	-41.1	-42.4	27.9	3.02e+01	0	41	0	484442112	56	6374
2026-01-20 02:08:13.91	162.64	40.13	-40.5	-41.8	27.9	3.02e+01	0	41	0	486539264	56	5937
2026-01-20 02:08:14.92	162.68	40.44	-41.3	-42.6	27.9	3.02e+01	0	41	0	488636416	56	6510
2026-01-20 02:08:15.93	162.72	40.76	-40.4	-41.7	28.1	3.02e+01	0	41	0	490209280	54	6579
2026-01-20 02:08:16.94	162.76	41.08	-42.2	-43.6	27.6	3.02e+01	0	41	0	492306432	58	6503
2026-01-20 02:08:17.95	162.81	41.41	-40.1	-41.4	28.4	3.02e+01	0	41	0	493879296	56	5671
2026-01-20 02:08:18.95	162.85	41.73	-39.5	-40.8	28.3	3.02e+01	0	41	0	495976448	54	5956
2026-01-20 02:08:19.96	162.89	42.06	-39.7	-40.9	28.7	3.02e+01	0	41	0	498073600	54	6057
2026-01-20 02:08:20.97	162.94	42.40	-39.4	-40.6	28.8	3.02e+01	0	41	0	499646464	54	5822
2026-01-20 02:08:21.98	162.98	42.73	-41.4	-42.8	27.6	3.02e+01	0	41	0	501743616	54	7508
2026-01-20 02:08:22.99	163.03	43.07	-40.7	-42.0	29.1	3.02e+01	0	41	0	503840768	54	6829
2026-01-20 02:08:24.00	163.08	43.42	-39.3	-40.5	29.3	3.02e+01	0	41	0	505413632	54	5759
2026-01-20 02:08:25.01	163.13	43.76	-38.8	-40.0	29.2	3.02e+01	0	41	0	507510784	52	6104
2026-01-20 02:08:26.02	163.18	44.11	-38.2	-39.5	29.3	3.02e+01	0	41	0	509083648	52	5728
2026-01-20 02:08:27.03	163.23	44.46	-37.8	-39.0	29.3	3.02e+01	0	41	0	511180800	50	6102
2026-01-20 02:08:28.04	163.28	44.82	-37.8	-39.0	29.6	3.02e+01	0	41	0	513277952	50	6076
2026-01-20 02:08:29.05	163.33	45.18	-37.6	-38.8	29.5	3.02e+01	0	41	0	514850816	50	5942
2026-01-20 02:08:30.06	163.39	45.54	-37.6	-38.8	29.4	3.02e+01	0	41	0	516947968	50	5988
2026-01-20 02:08:31.07	163.44	45.91	-37.8	-39.0	29.2	3.02e+01	0	41	0	518520832	50	6108
2026-01-20 02:08:32.08	163.50	46.28	-37.8	-39.0	29.1	3.02e+01	0	41	0	520617984	50	6107
2026-01-20 02:08:33.09	163.56	46.65	-37.7	-38.8	29.4	3.02e+01	0	41	0	522715136	50	5992
2026-01-20 02:08:34.10	163.62	47.03	-37.6	-38.8	29.6	3.02e+01	0	41	0	524288000	50	5961
2026-01-20 02:08:35.11	163.68	47.41	-38.5	-39.7	29.4	3.02e+01	0	41	0	526385152	50	6605
2026-01-20 02:08:36.12	163.74	47.79	-38.1	-39.3	29.4	3.02e+01	0	41	0	528482304	50	6343
2026-01-20 02:08:37.13	163.80	48.18	-37.8	-38.9	29.6	3.02e+01	0	41	0	530055168	50	6055
2026-01-20 02:08:38.14	163.87	48.57	-38.1	-39.3	29.3	3.02e+01	0	41	0	532152320	50	6297
2026-01-20 02:08:39.15	163.93	48.97	-37.7	-39.0	29.2	3.02e+01	0	41	0	533725184	50	6072
2026-01-20 02:08:40.15	164.00	49.36	-37.7	-38.9	29.3	3.02e+01	0	41	0	535822336	50	6055
2026-01-20 02:08:41.16	164.07	49.76	-37.6	-38.8	29.6	3.02e+01	0	41	0	537919488	50	5955
2026-01-20 02:08:42.17	164.14	50.17	-37.4	-38.5	29.9	3.02e+01	0	41	0	539492352	50	5779
2026-01-20 02:08:43.18	164.21	50.58	-37.5	-38.8	29.6	3.02e+01	0	41	0	541589504	50	5931
2026-01-20 02:08:44.19	164.29	50.99	-37.8	-39.0	29.7	3.02e+01	0	42	0	543162368	50	6075
2026-01-20 02:08:45.20	164.37	51.41	-37.6	-38.8	29.9	3.02e+01	0	41	0	545259520	50	5957
2026-01-20 02:08:46.21	164.45	51.83	-37.3	-38.4	30.0	3.02e+01	0	41	0	547356672	50	5709
2026-01-20 02:08:47.22	164.53	52.25	-38.2	-39.3	29.9	3.02e+01	0	41	0	548929536	50	6350
2026-01-20 02:08:48.23	164.61	52.68	-38.4	-39.6	30.1	3.02e+01	0	41	0	551026688	50	6501
2026-01-20 02:08:49.24	164.70	53.11	-38.8	-40.0	29.8	3.02e+01	0	41	0	552599552	52	6095
2026-01-20 02:08:50.24	164.79	53.54	-38.3	-39.5	29.7	3.02e+01	0	41	0	554696704	52	5756
2026-01-20 02:08:51.25	164.88	53.98	-38.4	-39.6	29.7	3.02e+01	0	41	0	556793856	50	6528
2026-01-20 02:08:52.26	164.97	54.43	-38.0	-39.2	30.0	3.02e+01	0	41	0	558366720	50	6245
2026-01-20 02:08:53.27	165.07	54.88	-39.4	-40.7	29.7	3.02e+01	0	41	0	560463872	50	7384
2026-01-20 02:08:54.28	165.17	55.33	-39.2	-40.4	29.5	3.02e+01	0	41	0	562036736	52	6377
2026-01-20 02:08:55.29	165.27	55.78	-38.8	-40.0	29.6	3.02e+01	0	41	0	564133888	52	6089
2026-01-20 02:08:56.30	165.38	56.24	-39.0	-40.2	29.4	3.02e+01	0	41	0	566231040	52	6254
2026-01-20 02:08:57.31	165.49	56.70	-39.3	-40.5	29.3	3.02e+01	0	41	0	567803904	52	6449
2026-01-20 02:08:58.32	165.61	57.17	-38.5	-39.8	29.2	3.02e+01	0	41	0	569901056	52	5929
2026-01-20 02:08:59.33	165.72	57.64	-39.1	-40.3	29.1	3.02e+01	0	41	0	571998208	52	6328
2026-01-20 02:09:00.34	165.84	58.12	-39.1	-40.4	28.9	3.02e+01	0	41	0	573571072	52	6376
2026-01-20 02:09:01.35	165.97	58.60	-39.5	-40.7	28.6	3.02e+01	0	41	0	575668224	52	6623
2026-01-20 02:09:02.36	166.10	59.08	-39.4	-40.7	28.6	3.02e+01	0	41	0	577241088	52	6603
2026-01-20 02:09:03.37	166.24	59.57	-38.9	-40.1	28.7	3.02e+01	0	41	0	579338240	52	6178
2026-01-20 02:09:04.38	166.38	60.06	-39.2	-40.5	28.1	3.02e+01	0	41	0	581435392	52	6439
2026-01-20 02:09:05.39	166.52	60.55	-39.5	-40.7	28.2	3.02e+01	0	41	0	583008256	52	6623
2026-01-20 02:09:06.40	166.68	61.05	-39.4	-40.7	28.0	3.02e+01	0	41	0	585105408	52	6584
2026-01-20 02:09:07.41	166.83	61.55	-39.4	-40.7	27.8	3.02e+01	0	41	0	586678272	52	6615
2026-01-20 02:09:08.42	167.00	62.06	-39.9	-41.3	27.6	3.02e+01	0	41	0	588775424	52	7050
2026-01-20 02:09:09.43	167.17	62.57	-40.8	-42.1	27.2	3.02e+01	0	42	0	590872576	54	6908
2026-01-20 02:09:10.44	167.35	63.08	-41.8	-43.1	26.8	3.02e+01	0	41	0	592445440	58	6202
2026-01-20 02:09:11.45	167.53	63.60	-42.0	-43.4	26.6	3.02e+01	0	42	0	594542592	58	6358
2026-01-20 02:09:12.46	167.73	64.12	-42.5	-43.9	26.1	3.02e+01	0	41	0	596639744	58	6767
2026-01-20 02:09:13.47	167.93	64.64	-42.6	-44.0	26.0	3.02e+01	0	41	0	598212608	60	6126
2026-01-20 02:09:14.48	168.14	65.17	-43.0	-44.5	25.5	3.02e+01	0	41	0	600309760	60	6464
2026-01-20 02:09:15.49	168.36	65.70	-42.7	-44.2	25.2	3.02e+01	0	41	0	601882624	60	6259
2026-01-20 02:09:16.50	168.60	66.23	-43.5	-45.0	25.0	3.02e+01	0	41	0	603979776	60	6849
2026-01-20 02:09:17.51	168.84	66.77	-44.6	-46.2	24.7	3.02e+01	0	41	0	606076928	60	7881
2026-01-20 02:09:18.52	169.10	67.31	-43.8	-45.3	25.1	3.02e+01	0	41	0	607649792	60	7111
2026-01-20 02:09:19.53	169.37	67.85	-44.7	-46.3	24.4	3.02e+01	0	41	0	609746944	60	7950
2026-01-20 02:09:20.54	169.66	68.40	-43.9	-45.6	24.3	3.02e+01	0	41	0	611319808	60	7299
2026-01-20 02:09:21.55	169.96	68.95	-44.3	-45.9	24.0	3.02e+01	0	41	0	613416960	60	7614
2026-01-20 02:09:22.55	170.28	69.50	-45.3	-47.0	24.0	3.02e+01	0	41	0	614989824	60	8640
2026-01-20 02:09:23.56	170.61	70.05	-44.1	-45.7	24.1	3.02e+01	0	42	0	617086976	60	7448
2026-01-20 02:09:24.57	170.97	70.61	-44.2	-45.7	24.9	3.02e+01	0	41	0	619184128	60	7459
2026-01-20 02:09:25.58	171.35	71.17	-44.7	-46.3	24.6	3.02e+01	0	41	0	620756992	60	7945
2026-01-20 02:09:26.59	171.76	71.73	-43.5	-45.0	25.3	3.02e+01	0	41	0	622854144	60	6853
2026-01-20 02:09:27.60	172.19	72.30	-44.1	-45.6	25.3	3.02e+01	0	41	0	624951296	60	7321
2026-01-20 02:09:28.61	172.66	72.87	-43.4	-44.9	25.6	3.02e+01	0	41	0	626524160	60	6771
2026-01-20 02:09:29.62	173.15	73.44	-43.3	-44.7	25.9	3.02e+01	0	41	0	628621312	60	6631
2026-01-20 02:09:30.63	173.69	74.01	-43.3	-44.7	25.9	3.02e+01	0	41	0	630194176	60	6635
2026-01-20 02:09:31.64	174.26	74.58	-43.1	-44.5	25.9	3.02e+01	0	41	0	632291328	60	6495
2026-01-20 02:09:32.65	174.88	75.15	-43.1	-44.5	26.2	3.02e+01	0	41	0	634388480	60	6448
2026-01-20 02:09:33.66	175.55	75.72	-43.1	-44.6	25.9	3.02e+01	0	41	0	635961344	60	6504
2026-01-20 02:09:34.67	176.28	76.30	-41.9	-43.3	26.7	3.02e+01	0	42	0	638058496	58	6279
2026-01-20 02:09:35.68	177.08	76.87	-42.6	-44.0	26.3	3.02e+01	0	41	0	640155648	58	6839
2026-01-20 02:09:36.69	177.95	77.45	-42.1	-43.5	26.5	3.02e+01	0	41	0	641728512	60	5759
2026-01-20 02:09:37.70	178.91	78.02	-42.5	-43.9	26.6	3.02e+01	0	41	0	643825664	60	6019
2026-01-20 02:09:38.71	179.96	78.59	-42.3	-43.7	26.7	3.02e+01	0	41	0	645398528	60	5867
2026-01-20 02:09:39.72	181.13	79.16	-43.5	-44.9	25.4	3.02e+01	0	41	0	647495680	60	6761
2026-01-20 02:09:40.73	182.42	79.72	-43.7	-45.1	25.1	3.02e+01	0	41	0	649592832	60	6949
2026-01-20 02:09:41.74	183.87	80.29	-41.2	-42.5	27.8	3.02e+01	0	41	0	651165696	56	6456
2026-01-20 02:09:42.75	185.50	80.84	-39.4	-40.6	28.5	3.02e+01	0	41	0	653262848	54	5825
2026-01-20 02:09:43.76	187.35	81.39	-39.8	-41.1	28.5	3.02e+01	0	41	0	654835712	54	6142
2026-01-20 02:09:44.77	189.44	81.93	-40.6	-41.9	28.8	3.02e+01	0	41	0	656932864	54	6763
2026-01-20 02:09:45.77	191.81	82.46	-40.3	-41.5	29.1	3.02e+01	0	41	0	659030016	54	6455
2026-01-20 02:09:46.79	194.59	82.98	-39.8	-41.1	28.9	3.02e+01	0	41	0	660602880	54	6143
2026-01-20 02:09:47.79	197.75	83.47	-40.7	-41.9	28.9	3.02e+01	0	41	0	662700032	54	6760
2026-01-20 02:09:48.80	201.45	83.95	-40.0	-41.2	29.0	3.02e+01	0	42	0	664272896	54	6226
2026-01-20 02:09:49.81	205.77	84.40	-40.3	-41.5	28.8	3.02e+01	0	42	0	666370048	54	6476
2026-01-20 02:09:50.82	210.81	84.81	-40.9	-42.2	28.3	3.02e+01	0	41	0	668467200	56	6238
2026-01-20 02:09:51.83	216.66	85.17	-39.9	-41.1	28.6	3.02e+01	0	41	0	670040064	54	6160
2026-01-20 02:09:52.84	223.39	85.48	-40.3	-41.5	28.8	3.02e+01	0	41	0	672137216	56	5788
2026-01-20 02:09:53.85	230.99	85.72	-40.7	-42.0	28.0	3.02e+01	0	41	0	673710080	56	6091
2026-01-20 02:09:54.86	239.31	85.87	-39.9	-41.1	29.1	3.02e+01	0	41	0	675807232	54	6158
2026-01-20 02:09:55.87	248.09	85.94	-39.5	-40.8	28.7	3.02e+01	0	41	0	677904384	54	5932
2026-01-20 02:09:56.88	256.92	85.90	-40.5	-41.7	28.9	3.02e+01	0	41	0	679477248	54	6626
2026-01-20 02:09:57.89	265.41	85.77	-39.3	-40.5	29.3	3.02e+01	0	41	0	681574400	52	6482
2026-01-20 02:09:58.90	273.24	85.56	-39.5	-40.7	29.0	3.02e+01	0	41	0	683147264	52	6643
2026-01-20 02:09:59.91	280.23	85.27	-40.2	-41.4	28.5	3.02e+01	0	42	0	685244416	52	7207
2026-01-20 02:10:00.92	286.34	84.92	-40.6	-41.8	28.5	3.02e+01	0	41	0	687341568	56	5967
2026-01-20 02:10:01.93	291.60	84.52	-40.0	-41.2	28.2	3.02e+01	0	41	0	688914432	54	6242
2026-01-20 02:10:02.94	296.12	84.09	-39.5	-40.7	28.4	3.02e+01	0	41	0	691011584	54	5925
2026-01-20 02:10:03.95	299.99	83.62	-39.1	-40.3	28.7	3.02e+01	0	41	0	693108736	54	5659
2026-01-20 02:10:04.96	303.32	83.12	-39.6	-40.9	28.3	3.02e+01	0	41	0	694681600	54	5998
2026-01-20 02:10:05.97	306.19	82.61	-39.8	-41.0	28.4	3.02e+01	0	41	0	696778752	54	6120
2026-01-20 02:10:06.98	308.68	82.09	-40.1	-41.3	28.6	3.02e+01	0	41	0	698351616	54	6293
2026-01-20 02:10:07.99	310.85	81.55	-41.0	-42.3	28.4	3.02e+01	0	41	0	700448768	56	6295
2026-01-20 02:10:09.00	312.76	81.00	-42.1	-43.5	28.3	3.02e+01	0	41	0	702545920	56	7272
2026-01-20 02:10:10.01	314.45	80.45	-41.4	-42.6	28.6	3.02e+01	0	41	0	704118784	56	6562
2026-01-20 02:10:11.02	315.95	79.89	-41.2	-42.5	28.1	3.02e+01	0	41	0	706215936	56	6461
2026-01-20 02:10:12.03	317.28	79.32	-41.1	-42.4	28.1	3.02e+01	0	41	0	707788800	58	5711
2026-01-20 02:10:13.04	318.49	78.76	-41.5	-42.8	28.0	3.02e+01	0	41	0	709885952	56	6661
2026-01-20 02:10:14.05	319.57	78.19	-41.9	-43.2	27.6	3.02e+01	0	41	0	711983104	58	6242
2026-01-20 02:10:15.05	320.54	77.62	-42.1	-43.5	27.0	3.02e+01	0	41	0	713555968	58	6472
2026-01-20 02:10:16.06	321.44	77.05	-42.8	-44.1	26.8	3.02e+01	0	41	0	715653120	58	6954
2026-01-20 02:10:17.07	322.25	76.47	-42.8	-44.2	26.3	3.02e+01	0	41	0	717750272	60	6268
2026-01-20 02:10:18.08	323.00	75.90	-42.6	-44.0	26.5	3.02e+01	0	41	0	719323136	60	6108
2026-01-20 02:10:19.09	323.69	75.33	-42.2	-43.6	26.3	3.02e+01	0	41	0	721420288	60	5819
2026-01-20 02:10:20.11	324.33	74.75	-43.0	-44.6	25.1	3.02e+01	0	42	0	722993152	60	6522
2026-01-20 02:10:21.12	324.92	74.18	-43.0	-44.5	25.5	3.02e+01	0	41	0	725090304	60	6454
2026-01-20 02:10:22.13	325.46	73.61	-42.3	-43.7	26.5	3.02e+01	0	42	0	727187456	60	5894
2026-01-20 02:10:23.13	325.96	73.05	-42.5	-44.0	26.1	3.02e+01	0	41	0	728760320	58	6809
2026-01-20 02:10:24.15	326.44	72.47	-43.2	-44.9	25.1	3.02e+01	0	41	0	730857472	58	7551
2026-01-20 02:10:25.16	326.88	71.91	-44.0	-45.5	25.7	3.02e+01	0	41	0	732430336	60	7248
2026-01-20 02:10:26.17	327.30	71.35	-43.3	-44.6	26.5	3.02e+01	0	41	0	734527488	60	6561
2026-01-20 02:10:27.18	327.68	70.79	-43.6	-45.2	25.4	3.02e+01	0	41	0	736624640	60	6991
2026-01-20 02:10:28.19	328.05	70.23	-43.6	-45.1	25.1	3.02e+01	0	41	0	738197504	60	6942
2026-01-20 02:10:29.20	328.39	69.67	-43.5	-44.9	25.7	3.02e+01	0	42	0	740294656	60	6794
2026-01-20 02:10:30.21	328.72	69.12	-43.7	-45.1	25.7	3.02e+01	0	41	0	741867520	60	6959
2026-01-20 02:10:31.22	329.02	68.57	-44.9	-46.5	24.6	3.02e+01	0	42	0	743964672	60	8156
2026-01-20 02:10:32.23	329.31	68.03	-45.1	-46.6	24.9	3.02e+01	0	41	0	746061824	60	8255
2026-01-20 02:10:33.24	329.59	67.48	-44.8	-46.4	25.4	3.02e+01	0	42	0	747634688	60	8029
2026-01-20 02:10:34.25	329.85	66.94	-43.5	-44.9	25.4	3.02e+01	0	41	0	749731840	60	6775
2026-01-20 02:10:35.26	330.10	66.40	-44.2	-45.7	24.8	3.02e+01	0	41	0	751828992	60	7451
2026-01-20 02:10:36.27	330.34	65.87	-42.3	-43.7	25.6	3.02e+01	0	41	0	753401856	60	5883
2026-01-20 02:10:37.28	330.56	65.34	-43.0	-44.5	26.2	3.02e+01	0	42	0	755499008	60	6436
2026-01-20 02:10:38.29	330.78	64.81	-42.9	-44.3	26.2	3.02e+01	0	42	0	757071872	58	7074
2026-01-20 02:10:39.30	330.98	64.29	-43.0	-44.4	26.8	3.02e+01	0	41	0	759169024	60	6394
2026-01-20 02:10:40.31	331.18	63.77	-42.1	-43.5	27.4	3.02e+01	0	41	0	761266176	58	6427
2026-01-20 02:10:41.32	331.37	63.25	-42.4	-43.7	27.2	3.02e+01	0	41	0	762839040	58	6627
2026-01-20 02:10:42.33	331.55	62.74	-42.0	-43.4	26.8	3.02e+01	0	42	0	764936192	58	6351
2026-01-20 02:10:43.34	331.72	62.23	-42.4	-43.7	27.8	3.02e+01	0	41	0	766509056	58	6619
2026-01-20 02:10:44.35	331.89	61.73	-41.6	-42.8	27.5	3.02e+01	0	41	0	768606208	58	5973
2026-01-20 02:10:45.36	332.05	61.22	-41.2	-42.5	28.2	3.02e+01	0	41	0	770703360	56	6434
2026-01-20 02:10:46.37	332.20	60.73	-41.4	-42.7	28.2	3.02e+01	0	41	0	772276224	56	6575
2026-01-20 02:10:47.38	332.35	60.23	-41.9	-43.2	27.8	3.02e+01	0	41	0	774373376	58	6272
2026-01-20 02:10:48.39	332.49	59.74	-40.7	-41.9	28.0	3.02e+01	0	41	0	775946240	56	6057
2026-01-20 02:10:49.40	332.63	59.25	-41.1	-42.3	28.6	3.02e+01	0	41	0	778043392	56	6334
2026-01-20 02:10:50.41	332.76	58.77	-40.5	-41.7	28.8	3.02e+01	0	41	0	780140544	56	5887
2026-01-20 02:10:51.42	332.89	58.29	-41.1	-42.3	29.0	3.02e+01	0	41	0	781713408	54	7114
2026-01-20 02:10:52.43	333.01	57.82	-40.6	-41.8	29.0	3.02e+01	0	41	0	783810560	54	6689
2026-01-20 02:10:53.44	333.13	57.35	-40.0	-41.3	28.3	3.02e+01	0	41	0	785907712	54	6293
2026-01-20 02:10:54.44	333.24	56.89	-39.7	-40.9	28.9	3.02e+01	0	41	0	787480576	54	6033
2026-01-20 02:10:55.45	333.35	56.42	-39.5	-40.7	29.4	3.02e+01	0	41	0	789577728	54	5860
2026-01-20 02:10:56.46	333.46	55.96	-39.7	-40.9	29.8	3.02e+01	0	41	0	791150592	52	6749
2026-01-20 02:10:57.47	333.57	55.51	-39.2	-40.4	29.5	3.02e+01	0	41	0	793247744	52	6410
2026-01-20 02:10:58.48	333.67	55.06	-38.4	-39.7	29.2	3.02e+01	0	42	0	795344896	52	5876
2026-01-20 02:10:59.49	333.76	54.61	-38.3	-39.5	28.9	3.02e+01	0	42	0	796917760	52	5773
2026-01-20 02:11:00.50	333.86	54.17	-37.0	-38.1	30.0	3.02e+01	0	41	0	799014912	48	6188
2026-01-20 02:11:01.51	333.95	53.73	-36.7	-37.8	30.3	3.02e+01	0	42	0	800587776	48	5991
2026-01-20 02:11:02.52	334.04	53.29	-37.3	-38.5	29.9	3.02e+01	0	42	0	802684928	48	6463
2026-01-20 02:11:03.52	334.13	52.86	-37.4	-38.5	30.0	3.02e+01	0	41	0	804782080	48	6481
2026-01-20 02:11:04.53	334.21	52.43	-37.3	-38.5	30.0	3.02e+01	0	41	0	806354944	48	6467
2026-01-20 02:11:05.54	334.30	52.01	-38.9	-40.1	29.7	3.02e+01	0	42	0	808452096	50	6934
2026-01-20 02:11:06.55	334.38	51.59	-39.8	-41.0	29.3	3.02e+01	0	42	0	810024960	52	6859
2026-01-20 02:11:07.56	334.45	51.17	-39.9	-41.2	28.5	3.02e+01	0	41	0	812122112	54	6220
2026-01-20 02:11:08.58	334.53	50.76	-40.4	-41.6	28.8	3.02e+01	0	42	0	814219264	54	6564
2026-01-20 02:11:09.59	334.61	50.35	-39.9	-41.1	29.3	3.02e+01	0	41	0	815792128	54	6142
2026-01-20 02:11:10.60	334.68	49.94	-39.0	-40.2	29.4	3.02e+01	0	42	0	817889280	54	5571
2026-01-20 02:11:11.61	334.75	49.54	-40.2	-41.4	28.8	3.02e+01	0	42	0	819462144	54	6393
2026-01-20 02:11:12.62	334.82	49.14	-40.3	-41.5	29.2	3.02e+01	0	41	0	821559296	54	6492
2026-01-20 02:11:13.63	334.88	48.75	-39.4	-40.6	29.2	3.02e+01	0	42	0	823656448	54	5804
2026-01-20 02:11:14.63	334.95	48.36	-39.3	-40.5	28.9	3.02e+01	0	42	0	825229312	54	5775
2026-01-20 02:11:15.64	335.01	47.97	-39.3	-40.6	29.0	3.02e+01	0	42	0	827326464	52	6502
2026-01-20 02:11:16.65	335.08	47.59	-38.7	-39.9	29.1	3.02e+01	0	41	0	829423616	52	6013
2026-01-20 02:11:17.67	335.14	47.20	-39.3	-40.5	29.1	3.02e+01	0	42	0	830996480	52	6457
2026-01-20 02:11:18.67	335.20	46.83	-38.4	-39.6	29.1	3.02e+01	0	42	0	833093632	52	5816
2026-01-20 02:11:19.68	335.25	46.46	-38.8	-40.0	29.1	3.02e+01	0	42	0	834666496	52	6081
2026-01-20 02:11:20.70	335.31	46.09	-38.7	-39.9	29.0	3.02e+01	0	42	0	836763648	52	6022
2026-01-20 02:11:21.71	335.37	45.72	-38.5	-39.7	28.9	3.02e+01	0	42	0	838860800	52	5885
2026-01-20 02:11:22.71	335.42	45.36	-38.1	-39.4	28.8	3.02e+01	0	42	0	840433664	52	5660
2026-01-20 02:11:23.72	335.48	45.00	-38.1	-39.3	28.7	3.02e+01	0	42	0	842530816	50	6326
2026-01-20 02:11:24.73	335.53	44.65	-38.2	-39.5	28.7	3.02e+01	0	41	0	844103680	50	6434
2026-01-20 02:11:25.74	335.58	44.29	-38.7	-39.9	28.8	3.02e+01	0	42	0	846200832	50	6802
2026-01-20 02:11:26.75	335.63	43.94	-39.4	-40.7	28.3	3.02e+01	0	42	0	848297984	52	6608
2026-01-20 02:11:27.76	335.68	43.60	-41.1	-42.3	28.1	3.02e+01	0	41	0	849870848	56	6332
2026-01-20 02:11:28.77	335.73	43.25	-41.5	-42.8	27.6	3.02e+01	0	42	0	851968000	56	6690
2026-01-20 02:11:29.78	335.77	42.91	-40.7	-41.9	27.3	3.02e+01	0	42	0	854065152	56	6029
2026-01-20 02:11:30.79	335.82	42.58	-42.6	-43.9	26.4	3.02e+01	0	42	0	855638016	56	7557
2026-01-20 02:11:31.80	335.87	42.25	-43.8	-45.3	27.5	3.02e+01	0	41	0	857735168	58	7945
2026-01-20 02:11:32.81	335.91	41.91	-42.0	-43.3	28.2	3.02e+01	0	41	0	859308032	56	7077
2026-01-20 02:11:33.82	335.95	41.59	-40.2	-41.4	28.4	3.02e+01	0	42	0	861405184	54	6385
2026-01-20 02:11:34.83	336.00	41.26	-41.4	-42.8	27.9	3.02e+01	0	42	0	863502336	56	6653
2026-01-20 02:11:35.84	336.04	40.94	-41.0	-42.2	28.2	3.02e+01	0	42	0	865075200	56	6266
2026-01-20 02:11:36.85	336.08	40.62	-41.0	-42.3	28.0	3.02e+01	0	42	0	867172352	56	6297
2026-01-20 02:11:37.86	336.12	40.31	-41.2	-42.5	28.0	3.02e+01	0	41	0	868745216	56	6451
2026-01-20 02:11:38.87	336.16	40.00	-42.0	-43.3	27.3	3.02e+01	0	42	0	870842368	58	6324
2026-01-20 02:11:39.88	336.20	39.69	-41.3	-42.6	27.7	3.02e+01	0	42	0	872939520	56	6518
2026-01-20 02:11:40.89	336.24	39.38	-41.0	-42.3	27.7	3.02e+01	0	41	0	874512384	56	6320
2026-01-20 02:11:41.90	336.28	39.08	-41.0	-42.3	27.9	3.02e+01	0	42	0	876609536	54	7115
2026-01-20 02:11:42.91	336.31	38.78	-41.7	-43.0	27.5	3.02e+01	0	41	0	878182400	56	6877
2026-01-20 02:11:43.92	336.35	38.48	-41.7	-43.0	28.0	3.02e+01	0	41	0	880279552	58	6086
2026-01-20 02:11:44.93	336.39	38.18	-40.3	-41.6	28.3	3.02e+01	0	42	0	882376704	56	5799
2026-01-20 02:11:45.94	336.42	37.89	-41.1	-42.4	28.2	3.02e+01	0	41	0	883949568	56	6358
2026-01-20 02:11:46.95	336.46	37.60	-40.3	-41.6	28.3	3.02e+01	0	41	0	886046720	56	5797
2026-01-20 02:11:47.96	336.49	37.31	-39.5	-40.8	28.7	3.02e+01	0	41	0	887619584	56	5286
2026-01-20 02:11:48.96	336.52	37.03	-39.7	-40.9	28.9	3.02e+01	0	41	0	889716736	54	6042
2026-01-20 02:11:49.97	336.56	36.75	-40.7	-41.9	28.2	3.02e+01	0	41	0	891813888	54	6743
2026-01-20 02:11:50.98	336.59	36.47	-40.4	-41.6	28.8	3.02e+01	0	41	0	893386752	54	6515
2026-01-20 02:11:51.99	336.62	36.19	-39.9	-41.1	28.0	3.02e+01	0	42	0	895483904	56	5487
2026-01-20 02:11:53.00	336.66	35.92	-40.6	-41.8	28.7	3.02e+01	0	42	0	897581056	54	6699
2026-01-20 02:11:54.01	336.69	35.65	-40.4	-41.6	28.6	3.02e+01	0	41	0	899153920	56	5823
2026-01-20 02:11:55.02	336.72	35.38	-40.7	-41.9	28.2	3.02e+01	0	41	0	901251072	56	6041
2026-01-20 02:11:56.03	336.75	35.11	-39.2	-40.4	29.2	3.02e+01	0	41	0	902823936	54	5693
2026-01-20 02:11:57.04	336.78	34.85	-40.6	-41.9	28.6	3.02e+01	0	41	0	904921088	54	6743
2026-01-20 02:11:58.05	336.81	34.58	-39.7	-40.9	29.1	3.02e+01	0	42	0	907018240	54	6042
2026-01-20 02:11:59.06	336.84	34.32	-40.1	-41.3	29.4	3.02e+01	0	42	0	908591104	54	6284
2026-01-20 02:12:00.07	336.87	34.07	-39.9	-41.1	28.6	3.02e+01	0	42	0	910688256	54	6202
2026-01-20 02:12:01.08	336.89	33.81	-40.1	-41.3	28.6	3.02e+01	0	42	0	912261120	54	6328
2026-01-20 02:12:02.09	336.92	33.56	-39.1	-40.4	28.7	3.02e+01	0	42	0	914358272	52	6391
2026-01-20 02:12:03.10	336.95	33.31	-38.3	-39.5	29.3	3.02e+01	0	42	0	916455424	52	5753
2026-01-20 02:12:04.11	336.98	33.06	-37.6	-38.7	29.7	3.02e+01	0	41	0	918028288	50	5919
2026-01-20 02:12:05.12	337.00	32.81	-38.8	-40.0	29.6	3.02e+01	0	42	0	920125440	52	6083
2026-01-20 02:12:06.13	337.03	32.57	-38.0	-39.2	30.1	3.02e+01	0	42	0	922222592	50	6218
2026-01-20 02:12:07.15	337.06	32.32	-38.7	-39.9	30.3	3.02e+01	0	42	0	923795456	50	6761
2026-01-20 02:12:08.15	337.08	32.08	-38.9	-40.1	29.7	3.02e+01	0	41	0	925892608	50	6919
2026-01-20 02:12:09.16	337.11	31.84	-38.7	-39.9	30.0	3.02e+01	0	42	0	927465472	52	6026
2026-01-20 02:12:10.18	337.13	31.61	-38.7	-39.9	30.0	3.02e+01	0	42	0	929562624	52	6028
2026-01-20 02:12:11.19	337.16	31.37	-39.5	-40.6	29.9	3.02e+01	0	41	0	931659776	52	6567
2026-01-20 02:12:12.20	337.18	31.14	-39.8	-41.0	29.2	3.02e+01	0	42	0	933232640	52	6852
2026-01-20 02:12:13.21	337.21	30.91	-39.2	-40.4	29.5	3.02e+01	0	42	0	935329792	52	6356
2026-01-20 02:12:14.22	337.23	30.68	-39.7	-40.9	29.7	3.02e+01	0	41	0	937426944	52	6778
2026-01-20 02:12:15.23	337.25	30.45	-40.8	-42.0	29.3	3.02e+01	0	41	0	938999808	56	6128
2026-01-20 02:12:16.24	337.28	30.23	-39.9	-41.1	29.7	3.02e+01	0	41	0	941096960	52	6923
2026-01-20 02:12:17.25	337.30	30.01	-39.9	-41.1	29.6	3.02e+01	0	41	0	942669824	54	6156
2026-01-20 02:12:18.26	337.32	29.79	-40.3	-41.5	29.0	3.02e+01	0	41	0	944766976	54	6470
2026-01-20 02:12:19.27	337.35	29.57	-40.0	-41.2	28.9	3.02e+01	0	41	0	946864128	54	6276
2026-01-20 02:12:20.28	337.37	29.35	-39.4	-40.6	29.5	3.02e+01	0	41	0	948436992	54	5850
2026-01-20 02:12:21.29	337.39	29.13	-39.7	-41.0	29.3	3.02e+01	0	41	0	950534144	54	6072
2026-01-20 02:12:22.30	337.41	28.92	-39.6	-40.8	29.6	3.02e+01	0	42	0	952107008	52	6694
2026-01-20 02:12:23.31	337.43	28.71	-40.2	-41.4	28.8	3.02e+01	0	41	0	954204160	54	6421
2026-01-20 02:12:24.32	337.46	28.50	-39.3	-40.5	29.1	3.02e+01	0	41	0	956301312	54	5771
2026-01-20 02:12:25.33	337.48	28.29	-38.6	-39.8	29.3	3.02e+01	0	41	0	957874176	52	5984
2026-01-20 02:12:26.34	337.50	28.08	-38.5	-39.7	29.3	3.02e+01	0	42	0	959971328	52	5904
2026-01-20 02:12:27.36	337.52	27.88	-39.8	-41.0	29.6	3.02e+01	0	41	0	961544192	52	6861
2026-01-20 02:12:28.36	337.54	27.67	-39.9	-41.1	29.4	3.02e+01	0	41	0	963641344	52	6913
2026-01-20 02:12:29.37	337.56	27.47	-39.5	-40.7	29.4	3.02e+01	0	41	0	965738496	54	5889
2026-01-20 02:12:30.39	337.58	27.27	-39.1	-40.3	29.3	3.02e+01	0	41	0	967311360	54	5633
2026-01-20 02:12:31.39	337.60	27.07	-38.5	-39.7	29.2	3.02e+01	0	41	0	969408512	52	5880
2026-01-20 02:12:32.40	337.62	26.88	-37.9	-39.1	29.3	3.02e+01	0	41	0	970981376	50	6151
2026-01-20 02:12:33.41	337.64	26.68	-38.3	-39.5	29.3	3.02e+01	0	41	0	973078528	50	6495
2026-01-20 02:12:34.42	337.66	26.49	-38.0	-39.2	29.5	3.02e+01	0	41	0	975175680	50	6250
2026-01-20 02:12:35.43	337.68	26.29	-38.0	-39.2	29.4	3.02e+01	0	41	0	976748544	50	6212
2026-01-20 02:12:36.44	337.69	26.10	-38.2	-39.4	29.3	3.02e+01	0	42	0	978845696	50	6365
2026-01-20 02:12:37.45	337.71	25.91	-39.1	-40.3	29.3	3.02e+01	0	41	0	980418560	52	6331
2026-01-20 02:12:38.46	337.73	25.72	-39.9	-41.1	29.3	3.02e+01	0	41	0	982515712	52	6928
2026-01-20 02:12:39.47	337.75	25.54	-38.9	-40.1	29.2	3.02e+01	0	42	0	984612864	52	6194
2026-01-20 02:12:40.48	337.77	25.35	-38.8	-40.0	29.0	3.02e+01	0	42	0	986185728	52	6130
2026-01-20 02:12:41.49	337.79	25.17	-39.2	-40.5	29.0	3.02e+01	0	41	0	988282880	52	6433
2026-01-20 02:12:42.50	337.80	24.98	-39.6	-40.8	28.9	3.02e+01	0	42	0	990380032	52	6723
2026-01-20 02:12:43.51	337.82	24.80	-40.1	-41.4	28.9	3.02e+01	0	41	0	991952896	52	7176
2026-01-20 02:12:44.52	337.84	24.62	-40.0	-41.3	28.8	3.02e+01	0	41	0	994050048	54	6283
2026-01-20 02:12:45.53	337.86	24.44	-38.9	-40.1	28.9	3.02e+01	0	42	0	995622912	54	5508
2026-01-20 02:12:46.54	337.87	24.27	-40.0	-41.2	29.0	3.02e+01	0	42	0	997720064	54	6251
2026-01-20 02:12:47.55	337.89	24.09	-39.4	-40.6	28.9	3.02e+01	0	42	0	999817216	54	5853
2026-01-20 02:12:48.56	337.91	23.92	-39.8	-41.1	28.8	3.02e+01	0	41	0	1001390080	54	6149
2026-01-20 02:12:49.58	337.93	23.74	-39.6	-40.8	29.0	3.02e+01	0	41	0	1003487232	54	5983
2026-01-20 02:12:50.58	337.94	23.57	-40.1	-41.3	29.0	3.02e+01	0	41	0	1005584384	54	6293
2026-01-20 02:12:51.60	337.96	23.40	-39.3	-40.6	29.0	3.02e+01	0	41	0	1007157248	54	5798
2026-01-20 02:12:52.61	337.97	23.23	-39.5	-40.7	29.0	3.02e+01	0	41	0	1009254400	54	5875
2026-01-20 02:12:53.62	337.99	23.06	-40.0	-41.2	28.9	3.02e+01	0	42	0	1010827264	54	6277
2026-01-20 02:12:54.62	338.01	22.89	-39.5	-40.8	28.9	3.02e+01	0	42	0	1012924416	54	5932
2026-01-20 02:12:55.63	338.02	22.73	-39.0	-40.2	28.9	3.02e+01	0	41	0	1015021568	52	6236
2026-01-20 02:12:56.64	338.04	22.56	-39.3	-40.5	29.0	3.02e+01	0	41	0	1016594432	52	6475
2026-01-20 02:12:57.66	338.05	22.40	-39.8	-41.1	29.1	3.02e+01	0	42	0	1018691584	54	6139
2026-01-20 02:12:58.67	338.07	22.23	-39.5	-40.7	29.1	3.02e+01	0	42	0	1020264448	52	6600
2026-01-20 02:12:59.68	338.08	22.07	-39.1	-40.3	29.2	3.02e+01	0	42	0	1022361600	52	6303
2026-01-20 02:13:00.68	338.10	21.91	-39.4	-40.6	29.3	3.02e+01	0	41	0	1024458752	52	6527
2026-01-20 02:13:01.69	338.12	21.75	-39.5	-40.7	29.2	3.02e+01	0	42	0	1026031616	52	6611
2026-01-20 02:13:02.70	338.13	21.60	-39.2	-40.4	29.3	3.02e+01	0	42	0	1028128768	52	6367
2026-01-20 02:13:03.71	338.15	21.44	-38.6	-39.8	29.1	3.02e+01	0	42	0	1030225920	52	5968
2026-01-20 02:13:04.72	338.16	21.28	-38.2	-39.4	29.1	3.02e+01	0	41	0	1031798784	52	5722
2026-01-20 02:13:05.73	338.17	21.13	-38.0	-39.2	29.3	3.02e+01	0	42	0	1033895936	52	5591
2026-01-20 02:13:06.74	338.19	20.97	-38.6	-39.9	29.1	3.02e+01	0	42	0	1035468800	52	6000
2026-01-20 02:13:07.75	338.20	20.82	-38.8	-40.1	29.2	3.02e+01	0	41	0	1037565952	52	6149
2026-01-20 02:13:08.76	338.22	20.67	-39.2	-40.4	29.1	3.02e+01	0	41	0	1039663104	52	6421
2026-01-20 02:13:09.77	338.23	20.52	-38.9	-40.1	29.2	3.02e+01	0	42	0	1041235968	52	6178
2026-01-20 02:13:10.78	338.25	20.37	-38.7	-39.9	29.3	3.02e+01	0	41	0	1043333120	52	6033
2026-01-20 02:13:11.79	338.26	20.22	-38.8	-40.0	29.3	3.02e+01	0	42	0	1044905984	52	6131
2026-01-20 02:13:12.80	338.27	20.07	-38.9	-40.1	29.2	3.02e+01	0	41	0	1047003136	52	6156
2026-01-20 02:13:13.81	338.29	19.92	-38.9	-40.1	29.0	3.02e+01	0	42	0	1049100288	52	6155
2026-01-20 02:13:14.82	338.30	19.78	-39.3	-40.6	29.1	3.02e+01	0	42	0	1050673152	52	6501
2026-01-20 02:13:15.83	338.32	19.63	-39.4	-40.6	29.0	3.02e+01	0	42	0	1052770304	52	6558
2026-01-20 02:13:16.84	338.33	19.49	-39.7	-40.9	29.0	3.02e+01	0	42	0	1054343168	52	6796
2026-01-20 02:13:17.85	338.34	19.34	-39.4	-40.6	29.1	3.02e+01	0	42	0	1056440320	52	6571
2026-01-20 02:13:18.86	338.36	19.20	-39.5	-40.7	28.9	3.02e+01	0	42	0	1058537472	52	6606
2026-01-20 02:13:19.87	338.37	19.06	-39.7	-40.9	28.8	3.02e+01	0	42	0	1060110336	52	6773
2026-01-20 02:13:20.88	338.38	18.92	-39.9	-41.1	28.9	3.02e+01	0	42	0	1062207488	54	6199
2026-01-20 02:13:21.89	338.40	18.78	-40.0	-41.3	28.5	3.02e+01	0	42	0	1063780352	54	6299
2026-01-20 02:13:22.90	338.41	18.64	-38.9	-40.1	28.9	3.02e+01	0	42	0	1065877504	52	6184
2026-01-20 02:13:23.91	338.42	18.50	-39.2	-40.4	29.0	3.02e+01	0	42	0	1067974656	54	5685
2026-01-20 02:13:24.92	338.44	18.36	-39.6	-40.8	29.0	3.02e+01	0	42	0	1069547520	52	6701
2026-01-20 02:13:25.93	338.45	18.23	-39.8	-41.0	29.1	3.02e+01	0	41	0	1071644672	52	6854
2026-01-20 02:13:26.94	338.46	18.09	-39.2	-40.4	29.1	3.02e+01	0	42	0	1073741824	52	6380
2026-01-20 02:13:27.95	338.47	17.96	-40.1	-41.3	29.0	3.02e+01	0	42	0	1075314688	54	6302
2026-01-20 02:13:28.96	338.49	17.82	-39.8	-41.0	29.0	3.02e+01	0	41	0	1077411840	54	6129
2026-01-20 02:13:29.97	338.50	17.69	-39.3	-40.5	29.1	3.02e+01	0	42	0	1078984704	54	5783
2026-01-20 02:13:30.98	338.51	17.56	-39.4	-40.6	29.1	3.02e+01	0	42	0	1081081856	54	5829
2026-01-20 02:13:31.99	338.52	17.43	-40.2	-41.4	28.9	3.02e+01	0	42	0	1083179008	54	6409
2026-01-20 02:13:33.00	338.54	17.30	-39.5	-40.7	28.8	3.02e+01	0	42	0	1084751872	54	5900
2026-01-20 02:13:34.01	338.55	17.17	-39.2	-40.4	28.9	3.02e+01	0	42	0	1086849024	52	6423
2026-01-20 02:13:35.02	338.56	17.04	-39.5	-40.7	29.0	3.02e+01	0	42	0	1088421888	52	6628
2026-01-20 02:13:36.03	338.57	16.91	-39.5	-40.7	28.8	3.02e+01	0	42	0	1090519040	52	6628
2026-01-20 02:13:37.05	338.58	16.78	-39.8	-41.0	28.8	3.02e+01	0	42	0	1092616192	52	6845
2026-01-20 02:13:38.05	338.60	16.65	-39.8	-41.0	28.8	3.02e+01	0	42	0	1094189056	54	6101
2026-01-20 02:13:39.06	338.61	16.53	-39.3	-40.5	28.7	3.02e+01	0	42	0	1096286208	52	6487
2026-01-20 02:13:40.07	338.62	16.40	-39.2	-40.4	28.9	3.02e+01	0	42	0	1098383360	52	6387
2026-01-20 02:13:41.08	338.63	16.28	-39.8	-41.0	28.8	3.02e+01	0	42	0	1099956224	52	6873
2026-01-20 02:13:42.09	338.64	16.15	-39.7	-41.0	28.9	3.02e+01	0	42	0	1102053376	54	6087
2026-01-20 02:13:43.10	338.65	16.03	-39.4	-40.6	28.7	3.02e+01	0	42	0	1103626240	54	5850
2026-01-20 02:13:44.11	338.67	15.91	-38.1	-39.3	29.0	3.02e+01	0	42	0	1105723392	52	5621
2026-01-20 02:13:45.12	338.68	15.78	-38.4	-39.6	29.2	3.02e+01	0	42	0	1107820544	50	6539
2026-01-20 02:13:46.13	338.69	15.66	-39.3	-40.5	29.1	3.02e+01	0	42	0	1109393408	52	6439
2026-01-20 02:13:47.14	338.70	15.54	-39.3	-40.5	29.2	3.02e+01	0	42	0	1111490560	52	6441
2026-01-20 02:13:48.15	338.71	15.42	-38.8	-40.0	29.1	3.02e+01	0	42	0	1113063424	52	6073
2026-01-20 02:13:49.16	338.72	15.30	-38.9	-40.2	29.1	3.02e+01	0	42	0	1115160576	52	6208
2026-01-20 02:13:50.17	338.73	15.18	-38.4	-39.6	29.1	3.02e+01	0	42	0	1117257728	52	5857
2026-01-20 02:13:51.18	338.74	15.06	-38.4	-39.6	28.9	3.02e+01	0	42	0	1118830592	52	5855
2026-01-20 02:13:52.19	338.76	14.95	-38.2	-39.4	29.2	3.02e+01	0	42	0	1120927744	52	5679
2026-01-20 02:13:53.20	338.77	14.83	-37.9	-39.1	29.0	3.02e+01	0	42	0	1122500608	50	6174
2026-01-20 02:13:54.21	338.78	14.71	-38.9	-40.2	29.0	3.02e+01	0	42	0	1124597760	50	6973
2026-01-20 02:13:55.22	338.79	14.60	-38.4	-39.6	29.1	3.02e+01	0	42	0	1126694912	50	6550
2026-01-20 02:13:56.23	338.80	14.48	-38.5	-39.7	29.1	3.02e+01	0	42	0	1128267776	50	6646
2026-01-20 02:13:57.24	338.81	14.37	-38.9	-40.2	29.0	3.02e+01	0	42	0	1130364928	52	6215
2026-01-20 02:13:58.25	338.82	14.25	-38.7	-39.9	28.9	3.02e+01	0	42	0	1131937792	52	6050
2026-01-20 02:13:59.26	338.83	14.14	-38.6	-39.9	29.0	3.02e+01	0	42	0	1134034944	52	6011
2026-01-20 02:14:00.27	338.84	14.03	-38.2	-39.4	29.0	3.02e+01	0	42	0	1136132096	52	5708
2026-01-20 02:14:01.28	338.85	13.92	-38.5	-39.7	28.9	3.02e+01	0	42	0	1137704960	52	5885
2026-01-20 02:14:02.29	338.86	13.80	-38.2	-39.4	28.9	3.02e+01	0	42	0	1139802112	52	5709
2026-01-20 02:14:03.30	338.87	13.69	-38.8	-40.0	29.0	3.02e+01	0	42	0	1141899264	52	6103
2026-01-20 02:14:04.31	338.88	13.58	-39.3	-40.6	28.6	3.02e+01	0	42	0	1143472128	52	6499
2026-01-20 02:14:05.32	338.89	13.47	-39.4	-40.6	28.5	3.02e+01	0	42	0	1145569280	52	6544
2026-01-20 02:14:06.33	338.90	13.36	-38.7	-39.9	28.9	3.02e+01	0	42	0	1147142144	52	6040
2026-01-20 02:14:07.34	338.91	13.25	-38.8	-40.0	29.0	3.02e+01	0	42	0	1149239296	52	6128
2026-01-20 02:14:08.35	338.92	13.15	-38.5	-39.7	28.8	3.02e+01	0	42	0	1151336448	52	5879
2026-01-20 02:14:09.36	338.93	13.04	-39.1	-40.4	29.0	3.02e+01	0	42	0	1152909312	52	6352
2026-01-20 02:14:10.37	338.94	12.93	-38.6	-39.8	29.0	3.02e+01	0	42	0	1155006464	52	5989
2026-01-20 02:14:11.38	338.95	12.82	-39.0	-40.2	28.7	3.02e+01	0	42	0	1156579328	52	6238
2026-01-20 02:14:12.39	338.96	12.72	-39.6	-40.8	28.4	3.02e+01	0	42	0	1158676480	52	6702
2026-01-20 02:14:13.40	338.97	12.61	-39.4	-40.7	28.4	3.02e+01	0	42	0	1160773632	52	6601
2026-01-20 02:14:14.41	338.98	12.51	-39.4	-40.6	28.7	3.02e+01	0	42	0	1162346496	52	6542
2026-01-20 02:14:15.42	338.99	12.40	-39.4	-40.6	28.8	3.02e+01	0	42	0	1164443648	52	6526
2026-01-20 02:14:16.43	339.00	12.30	-38.5	-39.7	28.8	3.02e+01	0	42	0	1166540800	52	5883
2026-01-20 02:14:17.44	339.01	12.19	-38.7	-39.9	28.8	3.02e+01	0	42	0	1168113664	52	6040
2026-01-20 02:14:18.45	339.02	12.09	-38.8	-40.0	28.8	3.02e+01	0	42	0	1170210816	52	6119
2026-01-20 02:14:19.46	339.03	11.99	-39.5	-40.7	28.7	3.02e+01	0	42	0	1171783680	52	6621
2026-01-20 02:14:20.47	339.04	11.89	-39.3	-40.5	28.7	3.02e+01	0	42	0	1173880832	54	5768
2026-01-20 02:14:21.48	339.05	11.78	-39.7	-41.0	28.2	3.02e+01	0	42	0	1175977984	54	6080
2026-01-20 02:14:22.49	339.06	11.68	-39.5	-40.7	28.6	3.02e+01	0	42	0	1177550848	54	5889
2026-01-20 02:14:23.50	339.07	11.58	-39.4	-40.6	28.5	3.02e+01	0	42	0	1179648000	54	5832
2026-01-20 02:14:24.51	339.08	11.48	-39.2	-40.5	28.7	3.02e+01	0	42	0	1181220864	52	6443
2026-01-20 02:14:25.52	339.09	11.38	-39.3	-40.5	28.7	3.02e+01	0	42	0	1183318016	52	6482
2026-01-20 02:14:26.53	339.10	11.28	-38.8	-40.0	28.8	3.02e+01	0	41	0	1185415168	52	6117
2026-01-20 02:14:27.54	339.11	11.18	-38.8	-40.0	28.8	3.02e+01	0	42	0	1186988032	52	6125
2026-01-20 02:14:28.55	339.12	11.08	-38.7	-40.0	28.6	3.02e+01	0	42	0	1189085184	52	6076
2026-01-20 02:14:29.56	339.13	10.99	-39.0	-40.3	28.5	3.02e+01	0	42	0	1190658048	52	6313
2026-01-20 02:14:30.57	339.14	10.89	-38.6	-39.9	28.5	3.02e+01	0	42	0	1192755200	52	6021
2026-01-20 02:14:31.58	339.15	10.79	-39.3	-40.5	28.5	3.02e+01	0	42	0	1194852352	52	6490
2026-01-20 02:14:32.59	339.16	10.69	-38.9	-40.2	28.5	3.02e+01	0	42	0	1196425216	52	6215
2026-01-20 02:14:33.59	339.17	10.60	-39.5	-40.7	28.5	3.02e+01	0	42	0	1198522368	52	6610
2026-01-20 02:14:34.60	339.18	10.50	-39.3	-40.6	28.5	3.02e+01	0	42	0	1200095232	52	6532
2026-01-20 02:14:35.61	339.18	10.41	-40.5	-41.7	28.3	3.02e+01	0	42	0	1202192384	54	6640
2026-01-20 02:14:36.62	339.19	10.31	-40.0	-41.3	28.3	3.02e+01	0	42	0	1204289536	54	6296
