passes_logs/2026/01/20/R4.6S_Anadyr/R4.6S_Anadyr__20260120_170250_AQUA_rec.log

#Pass ID: 20260120_170250_AQUA
#Satellite: AQUA
#Configuration: AQUA
#almurnet v.1.7.20251203
#Start time: 2026-01-20 17:02:51

#Version: 2.2.20231116
#Station: R4.6S_Anadyr
#Location: 177.4865 lon 64.73178 lat
#TLE: 1 27424U 02022A   26019.95447505  .00001296  00000+0  26931-3 0  9993
#TLE: 2 27424  98.4091 346.4652 0001983  72.1988 359.6274 14.61832814261618

#Time	Az	El	Level	Level2	SNR	BER	BlckErr	Temp	State	Recorded	gain1	gain2
2026-01-20 17:02:51.87	20.63	0.11	-51.5	-66.4	3.5	1.51e+00	0	39	0	0	60	75446
2026-01-20 17:02:52.88	20.61	0.17	-52.6	-70.4	3.5	3.02e+01	0	40	104	0	60	127741
2026-01-20 17:02:53.89	20.60	0.23	-52.5	-70.3	3.5	3.02e+01	0	40	104	0	60	126212
2026-01-20 17:02:54.90	20.58	0.30	-52.4	-70.2	3.5	3.02e+01	0	40	104	0	60	125167
2026-01-20 17:02:55.91	20.56	0.36	-52.5	-70.4	3.5	3.02e+01	0	40	104	0	60	126897
2026-01-20 17:02:56.92	20.54	0.42	-52.3	-70.2	3.5	3.02e+01	0	41	104	0	60	124344
2026-01-20 17:02:57.93	20.52	0.48	-52.2	-70.1	3.5	3.02e+01	0	40	104	0	60	122466
2026-01-20 17:02:58.94	20.51	0.55	-52.1	-70.1	3.5	3.02e+01	0	41	104	0	60	122568
2026-01-20 17:02:59.94	20.49	0.61	-52.2	-70.0	3.5	3.02e+01	0	40	104	0	60	121923
2026-01-20 17:03:00.95	20.47	0.67	-52.1	-69.9	3.5	3.02e+01	0	41	104	0	60	120716
2026-01-20 17:03:01.96	20.45	0.73	-52.0	-69.9	3.5	3.02e+01	0	41	104	0	60	120965
2026-01-20 17:03:02.97	20.43	0.80	-52.0	-69.9	3.5	3.02e+01	0	41	104	0	60	119916
2026-01-20 17:03:03.99	20.41	0.86	-51.9	-69.8	3.5	3.02e+01	0	41	104	0	60	119191
2026-01-20 17:03:05.00	20.40	0.92	-51.8	-69.7	3.5	3.02e+01	0	41	104	0	60	118201
2026-01-20 17:03:06.01	20.38	0.99	-51.8	-69.7	3.5	3.02e+01	0	41	104	0	60	117033
2026-01-20 17:03:07.02	20.36	1.05	-51.7	-69.6	3.5	3.02e+01	0	41	104	0	60	115665
2026-01-20 17:03:08.03	20.34	1.12	-51.6	-69.4	3.5	3.02e+01	0	41	104	0	60	114043
2026-01-20 17:03:09.04	20.32	1.18	-51.3	-69.4	3.5	3.02e+01	0	41	104	0	60	113322
2026-01-20 17:03:10.04	20.30	1.24	-51.5	-69.3	3.5	3.02e+01	0	41	104	0	60	112612
2026-01-20 17:03:11.05	20.28	1.31	-51.2	-69.2	3.5	3.02e+01	0	41	104	0	60	110646
2026-01-20 17:03:12.06	20.26	1.37	-51.1	-69.0	3.5	3.02e+01	0	41	104	0	60	109032
2026-01-20 17:03:13.07	20.24	1.44	-51.1	-68.9	3.5	3.02e+01	0	41	104	0	60	107067
2026-01-20 17:03:14.08	20.22	1.50	-50.9	-68.8	3.5	3.02e+01	0	41	104	0	60	106241
2026-01-20 17:03:15.09	20.20	1.57	-50.6	-68.5	3.5	3.02e+01	0	41	104	0	60	102021
2026-01-20 17:03:16.09	20.18	1.63	-50.5	-68.3	3.5	3.02e+01	0	41	104	0	60	99939
2026-01-20 17:03:17.10	20.16	1.70	-50.5	-68.3	3.5	3.02e+01	0	41	104	0	60	99776
2026-01-20 17:03:18.11	20.14	1.76	-50.5	-68.3	3.5	3.02e+01	0	41	104	0	60	99830
2026-01-20 17:03:19.12	20.12	1.83	-50.5	-68.0	3.5	3.02e+01	0	41	104	0	60	96764
2026-01-20 17:03:20.13	20.10	1.89	-50.5	-68.1	3.5	3.02e+01	0	41	104	0	60	97575
2026-01-20 17:03:21.14	20.08	1.96	-50.5	-68.1	3.5	3.02e+01	0	41	104	0	60	98290
2026-01-20 17:03:22.15	20.06	2.03	-50.5	-68.1	3.5	3.02e+01	0	41	104	0	60	98164
2026-01-20 17:03:23.16	20.04	2.09	-50.4	-68.1	3.5	3.02e+01	0	41	104	0	60	98248
2026-01-20 17:03:24.17	20.02	2.16	-50.4	-68.2	3.5	3.02e+01	0	41	104	0	60	99250
2026-01-20 17:03:25.18	20.00	2.22	-50.5	-68.2	3.5	3.02e+01	0	41	104	0	60	99229
2026-01-20 17:03:26.19	19.98	2.29	-50.5	-68.3	3.5	3.02e+01	0	41	104	0	60	100409
2026-01-20 17:03:27.20	19.95	2.36	-50.5	-68.3	3.5	3.02e+01	0	41	104	0	60	99938
2026-01-20 17:03:28.21	19.93	2.43	-50.5	-68.3	3.5	3.02e+01	0	41	104	0	60	99612
2026-01-20 17:03:29.22	19.91	2.49	-50.5	-68.2	3.5	3.02e+01	0	41	104	0	60	99380
2026-01-20 17:03:30.23	19.89	2.56	-50.4	-68.2	3.5	3.02e+01	0	41	104	0	60	98591
2026-01-20 17:03:31.25	19.87	2.63	-50.4	-68.2	3.5	3.02e+01	0	41	104	0	60	98469
2026-01-20 17:03:32.26	19.85	2.70	-50.4	-67.9	3.5	3.02e+01	0	41	104	0	60	95220
2026-01-20 17:03:33.27	19.82	2.76	-50.4	-67.7	3.5	3.02e+01	0	41	104	0	60	93582
2026-01-20 17:03:34.28	19.80	2.83	-50.4	-67.6	3.5	3.02e+01	0	41	104	0	60	92447
2026-01-20 17:03:35.29	19.78	2.90	-50.3	-67.4	3.5	3.02e+01	0	41	104	0	60	90473
2026-01-20 17:03:36.30	19.76	2.97	-50.3	-67.5	3.5	3.02e+01	0	41	104	0	60	91767
2026-01-20 17:03:37.31	19.73	3.04	-50.3	-67.7	3.5	3.02e+01	0	41	104	0	60	92926
2026-01-20 17:03:38.32	19.71	3.11	-50.4	-68.2	3.5	3.02e+01	0	41	104	0	60	98482
2026-01-20 17:03:39.33	19.69	3.18	-50.4	-68.1	3.5	3.02e+01	0	41	104	0	60	97718
2026-01-20 17:03:40.34	19.66	3.25	-50.3	-67.4	3.5	3.02e+01	0	41	104	0	60	89722
2026-01-20 17:03:41.35	19.64	3.32	-49.7	-65.0	3.5	3.02e+01	0	41	104	0	60	68435
2026-01-20 17:03:42.36	19.62	3.38	-49.2	-63.4	3.5	3.02e+01	0	41	104	0	60	56762
2026-01-20 17:03:43.37	19.59	3.45	-48.2	-61.2	3.5	3.02e+01	0	41	104	0	60	44000
2026-01-20 17:03:44.38	19.57	3.52	-47.6	-60.1	3.5	3.02e+01	0	41	104	0	60	38906
2026-01-20 17:03:45.39	19.55	3.59	-46.6	-58.4	3.5	3.02e+01	0	41	104	0	60	32063
2026-01-20 17:03:46.40	19.52	3.67	-46.6	-58.4	3.5	3.02e+01	0	41	104	0	60	32115
2026-01-20 17:03:47.41	19.50	3.74	-46.5	-58.1	3.6	3.02e+01	0	41	104	0	60	31085
2026-01-20 17:03:48.41	19.47	3.81	-47.2	-59.3	3.5	3.02e+01	0	41	104	0	60	35509
2026-01-20 17:03:49.42	19.45	3.88	-46.7	-58.6	3.5	3.02e+01	0	41	104	0	60	32753
2026-01-20 17:03:50.43	19.43	3.95	-48.4	-61.4	3.5	3.02e+01	0	41	104	0	60	45401
2026-01-20 17:03:51.44	19.40	4.02	-49.5	-64.2	3.5	3.02e+01	0	41	104	0	60	62239
2026-01-20 17:03:52.45	19.38	4.09	-43.5	-54.2	3.5	3.02e+01	0	41	104	0	56	24961
2026-01-20 17:03:53.46	19.35	4.16	-50.1	-66.3	3.6	3.02e+01	0	41	104	0	60	79036
2026-01-20 17:03:54.48	19.33	4.24	-40.6	-51.1	3.5	3.02e+01	0	41	104	0	60	13766
2026-01-20 17:03:55.48	19.30	4.31	-48.8	-62.5	3.5	3.02e+01	0	41	104	0	60	51330
2026-01-20 17:03:56.49	19.27	4.38	-42.6	-53.2	3.6	3.02e+01	0	41	104	0	60	17584
2026-01-20 17:03:57.50	19.25	4.45	-42.0	-52.5	3.5	3.02e+01	0	41	104	0	60	16255
2026-01-20 17:03:58.52	19.22	4.53	-42.3	-52.9	3.5	3.02e+01	0	41	104	0	58	18961
2026-01-20 17:03:59.53	19.20	4.60	-40.5	-50.9	3.5	3.02e+01	0	41	104	0	56	17069
2026-01-20 17:04:00.53	19.17	4.67	-40.9	-51.3	3.4	3.02e+01	0	41	104	0	58	15933
2026-01-20 17:04:01.54	19.14	4.75	-47.2	-59.2	3.5	3.02e+01	0	41	104	0	60	34974
2026-01-20 17:04:02.56	19.12	4.82	-49.6	-64.3	3.6	3.02e+01	0	41	104	0	60	63053
2026-01-20 17:04:03.56	19.09	4.89	-39.8	-50.1	3.5	3.02e+01	0	41	104	0	60	12361
2026-01-20 17:04:04.57	19.06	4.97	-48.5	-61.8	3.5	3.02e+01	0	41	104	0	60	47259
2026-01-20 17:04:05.58	19.04	5.04	-43.9	-54.7	3.5	3.02e+01	0	41	104	0	60	20927
2026-01-20 17:04:06.59	19.01	5.12	-44.3	-55.3	3.6	3.02e+01	0	41	104	0	60	22363
2026-01-20 17:04:07.60	18.98	5.19	-45.4	-56.7	3.5	3.02e+01	0	41	104	0	60	26377
2026-01-20 17:04:08.61	18.96	5.27	-48.7	-62.1	3.5	3.02e+01	0	41	104	0	60	49083
2026-01-20 17:04:09.62	18.93	5.34	-43.4	-54.1	3.5	3.02e+01	0	41	104	0	60	19546
2026-01-20 17:04:10.63	18.90	5.42	-47.0	-58.8	3.5	3.02e+01	0	41	104	0	60	33338
2026-01-20 17:04:11.64	18.87	5.49	-48.5	-61.4	3.5	3.02e+01	0	41	104	0	60	45127
2026-01-20 17:04:12.65	18.84	5.57	-43.3	-54.0	3.5	3.02e+01	0	41	104	0	58	21634
2026-01-20 17:04:13.66	18.81	5.65	-47.3	-59.4	3.5	3.02e+01	0	41	104	0	60	35739
2026-01-20 17:04:14.67	18.79	5.72	-43.8	-54.6	3.5	3.02e+01	0	41	104	0	60	20593
2026-01-20 17:04:15.68	18.76	5.80	-45.1	-56.2	3.5	3.02e+01	0	42	104	0	60	24792
2026-01-20 17:04:16.69	18.73	5.88	-43.5	-54.2	3.5	3.02e+01	0	41	104	0	60	19804
2026-01-20 17:04:17.70	18.70	5.95	-40.5	-50.8	3.5	3.02e+01	0	41	104	0	56	16789
2026-01-20 17:04:18.71	18.67	6.03	-39.8	-50.1	3.5	3.02e+01	0	41	104	0	54	17398
2026-01-20 17:04:19.72	18.64	6.11	-49.2	-62.8	3.5	3.02e+01	0	41	104	0	60	53056
2026-01-20 17:04:20.73	18.61	6.19	-46.3	-57.9	3.5	3.02e+01	0	41	104	0	60	30095
2026-01-20 17:04:21.74	18.58	6.26	-44.5	-55.4	3.5	3.02e+01	0	41	104	0	56	28664
2026-01-20 17:04:22.74	18.55	6.34	-43.0	-53.7	3.5	3.02e+01	0	41	104	0	60	18548
2026-01-20 17:04:23.75	18.52	6.42	-41.8	-52.4	3.5	3.02e+01	0	41	104	0	60	15955
2026-01-20 17:04:24.76	18.49	6.50	-41.4	-51.9	3.5	3.02e+01	0	41	104	0	58	16902
2026-01-20 17:04:25.77	18.46	6.58	-41.3	-51.7	3.5	3.02e+01	0	41	104	0	56	18649
2026-01-20 17:04:26.78	18.43	6.66	-48.0	-60.4	3.5	3.02e+01	0	41	104	0	60	40342
2026-01-20 17:04:27.79	18.40	6.74	-40.1	-50.4	3.5	3.02e+01	0	41	104	0	56	16112
2026-01-20 17:04:28.80	18.36	6.82	-50.7	-68.0	3.5	3.02e+01	0	42	104	0	60	97203
2026-01-20 17:04:29.81	18.33	6.90	-45.0	-56.1	3.5	3.02e+01	0	41	104	0	60	24448
2026-01-20 17:04:30.82	18.30	6.98	-43.9	-54.8	3.5	3.02e+01	0	41	104	0	58	23641
2026-01-20 17:04:31.83	18.27	7.06	-44.2	-55.0	3.5	3.02e+01	0	41	104	0	60	21737
2026-01-20 17:04:32.84	18.24	7.14	-42.9	-53.6	3.5	3.02e+01	0	41	104	0	60	18358
2026-01-20 17:04:33.85	18.20	7.22	-42.0	-52.5	3.5	3.02e+01	0	41	104	0	58	18177
2026-01-20 17:04:34.86	18.17	7.31	-42.6	-53.2	3.5	3.02e+01	0	42	104	0	58	19713
2026-01-20 17:04:35.87	18.14	7.39	-40.7	-51.0	3.5	3.02e+01	0	41	104	0	56	17241
2026-01-20 17:04:36.88	18.10	7.47	-39.8	-50.1	3.5	3.02e+01	0	41	104	0	56	15527
2026-01-20 17:04:37.89	18.07	7.55	-50.6	-67.3	3.5	3.02e+01	0	41	104	0	60	89459
2026-01-20 17:04:38.90	18.04	7.64	-47.7	-59.9	3.5	3.02e+01	0	42	104	0	60	38196
2026-01-20 17:04:39.91	18.00	7.72	-49.8	-64.1	3.5	3.02e+01	0	41	104	0	60	61448
2026-01-20 17:04:40.92	17.97	7.80	-43.5	-54.1	3.5	3.02e+01	0	41	104	0	60	19498
2026-01-20 17:04:41.93	17.93	7.89	-43.2	-53.9	3.5	3.02e+01	0	41	104	0	60	18993
2026-01-20 17:04:42.94	17.90	7.97	-42.0	-52.5	3.5	3.02e+01	0	41	104	0	58	18147
2026-01-20 17:04:43.95	17.86	8.05	-41.5	-51.9	3.6	3.02e+01	0	41	104	0	58	17042
2026-01-20 17:04:44.96	17.83	8.14	-42.1	-52.7	3.5	3.02e+01	0	41	104	0	58	18577
2026-01-20 17:04:45.97	17.79	8.22	-39.3	-49.6	3.5	3.02e+01	0	42	104	0	54	16368
2026-01-20 17:04:46.98	17.76	8.31	-50.7	-67.1	3.5	3.02e+01	0	42	104	0	60	87254
2026-01-20 17:04:47.99	17.72	8.39	-48.2	-60.7	3.5	3.02e+01	0	41	104	0	60	41553
2026-01-20 17:04:49.00	17.69	8.48	-50.0	-64.9	3.5	3.02e+01	0	41	104	0	60	67529
2026-01-20 17:04:50.00	17.65	8.57	-41.6	-52.1	3.5	3.02e+01	0	41	104	0	58	17434
2026-01-20 17:04:51.01	17.61	8.65	-41.4	-51.8	3.5	3.02e+01	0	41	104	0	58	16795
2026-01-20 17:04:52.02	17.58	8.74	-41.6	-52.1	3.6	3.02e+01	0	41	104	0	58	17377
2026-01-20 17:04:53.03	17.54	8.83	-41.5	-52.0	3.6	3.02e+01	0	42	104	0	58	17159
2026-01-20 17:04:54.04	17.50	8.91	-41.6	-52.1	3.5	3.02e+01	0	41	104	0	58	17481
2026-01-20 17:04:55.05	17.46	9.00	-41.6	-52.0	3.5	3.02e+01	0	42	104	0	58	17249
2026-01-20 17:04:56.06	17.43	9.09	-41.6	-52.1	3.5	3.02e+01	0	41	104	0	58	17327
2026-01-20 17:04:57.07	17.39	9.18	-41.3	-51.7	3.5	3.02e+01	0	41	104	0	58	16702
2026-01-20 17:04:58.08	17.35	9.27	-41.4	-51.8	3.5	3.02e+01	0	41	104	0	58	16729
2026-01-20 17:04:59.09	17.31	9.36	-41.5	-51.9	3.5	3.02e+01	0	41	104	0	58	17001
2026-01-20 17:05:00.10	17.27	9.45	-41.5	-52.0	3.5	3.02e+01	0	42	104	0	58	17147
2026-01-20 17:05:01.11	17.23	9.54	-41.4	-51.9	3.5	3.02e+01	0	42	104	0	58	17004
2026-01-20 17:05:02.12	17.19	9.63	-41.2	-51.6	3.5	3.02e+01	0	42	104	0	58	16407
2026-01-20 17:05:03.13	17.15	9.72	-41.2	-51.6	3.5	3.02e+01	0	41	104	0	58	16495
2026-01-20 17:05:04.14	17.11	9.81	-41.4	-51.9	3.5	3.02e+01	0	41	104	0	58	16959
2026-01-20 17:05:05.15	17.07	9.90	-41.2	-51.6	3.5	3.02e+01	0	42	104	0	58	16484
2026-01-20 17:05:06.15	17.03	9.99	-41.2	-51.6	3.5	3.02e+01	0	42	104	0	58	16444
2026-01-20 17:05:07.16	16.99	10.08	-41.2	-51.6	3.5	3.02e+01	0	41	104	0	58	16490
2026-01-20 17:05:08.17	16.95	10.17	-41.3	-51.7	3.5	3.02e+01	0	41	104	0	58	16559
2026-01-20 17:05:09.18	16.91	10.27	-41.0	-51.4	3.5	3.02e+01	0	42	104	0	56	18013
2026-01-20 17:05:10.19	16.86	10.36	-41.2	-51.5	3.6	3.02e+01	0	41	104	0	56	18227
2026-01-20 17:05:11.20	16.82	10.45	-41.0	-51.4	3.5	3.02e+01	0	42	104	0	56	18069
2026-01-20 17:05:12.20	16.78	10.55	-40.5	-50.9	3.6	3.02e+01	0	42	104	0	56	16908
2026-01-20 17:05:13.21	16.74	10.64	-41.1	-51.5	3.5	3.02e+01	0	42	104	0	56	18184
2026-01-20 17:05:14.22	16.69	10.74	-41.1	-51.5	3.5	3.02e+01	0	42	104	0	56	18142
2026-01-20 17:05:15.23	16.65	10.83	-40.9	-51.3	3.5	3.02e+01	0	42	104	0	56	17715
2026-01-20 17:05:16.24	16.60	10.93	-41.4	-51.8	3.6	3.02e+01	0	42	104	0	56	18863
2026-01-20 17:05:17.25	16.56	11.02	-40.9	-51.2	3.5	3.02e+01	0	42	104	0	56	17674
2026-01-20 17:05:18.26	16.52	11.12	-40.9	-51.2	3.6	3.02e+01	0	42	104	0	56	17678
2026-01-20 17:05:19.27	16.47	11.21	-41.0	-51.4	3.5	3.02e+01	0	42	104	0	56	17945
2026-01-20 17:05:20.28	16.42	11.31	-40.5	-50.8	3.5	3.02e+01	0	42	104	0	56	16764
2026-01-20 17:05:21.29	16.38	11.41	-41.0	-51.4	3.5	3.02e+01	0	42	104	0	56	17929
2026-01-20 17:05:22.30	16.33	11.51	-40.9	-51.3	3.6	3.02e+01	0	42	104	0	56	17758
2026-01-20 17:05:23.31	16.29	11.61	-40.9	-51.3	3.5	3.02e+01	0	42	104	0	56	17700
2026-01-20 17:05:24.32	16.24	11.70	-40.7	-51.0	3.5	3.02e+01	0	42	104	0	56	17241
2026-01-20 17:05:25.33	16.19	11.80	-40.5	-50.9	3.5	3.02e+01	0	42	104	0	56	16962
2026-01-20 17:05:26.34	16.14	11.90	-40.5	-50.9	3.5	3.02e+01	0	42	104	0	56	16900
2026-01-20 17:05:27.35	16.10	12.00	-40.8	-51.1	3.5	3.02e+01	0	42	104	0	56	17415
2026-01-20 17:05:28.36	16.05	12.10	-40.6	-51.0	3.5	3.02e+01	0	42	104	0	56	17195
2026-01-20 17:05:29.36	16.00	12.20	-40.8	-51.2	3.6	3.02e+01	0	42	104	0	56	17559
2026-01-20 17:05:30.37	15.95	12.30	-40.7	-51.0	3.5	3.02e+01	0	42	104	0	56	17228
2026-01-20 17:05:31.38	15.90	12.41	-40.3	-50.7	3.5	3.02e+01	0	42	104	0	56	16543
2026-01-20 17:05:32.38	15.85	12.51	-40.6	-51.0	3.5	3.02e+01	0	42	104	0	56	17175
2026-01-20 17:05:33.39	15.80	12.61	-40.5	-50.8	3.5	3.02e+01	0	42	104	0	56	16775
2026-01-20 17:05:34.40	15.75	12.71	-40.4	-50.7	3.5	3.02e+01	0	42	104	0	56	16702
2026-01-20 17:05:35.42	15.70	12.82	-40.4	-50.7	3.5	3.02e+01	0	42	104	0	56	16605
2026-01-20 17:05:36.42	15.65	12.92	-40.7	-51.0	3.5	3.02e+01	0	42	104	0	56	17188
2026-01-20 17:05:37.43	15.59	13.03	-40.7	-51.0	3.5	3.02e+01	0	42	104	0	56	17264
2026-01-20 17:05:38.44	15.54	13.13	-40.4	-50.7	3.5	3.02e+01	0	42	104	0	56	16632
2026-01-20 17:05:39.45	15.49	13.24	-40.4	-50.7	3.5	3.02e+01	0	42	104	0	56	16602
2026-01-20 17:05:40.46	15.43	13.34	-40.6	-51.0	3.5	3.02e+01	0	42	104	0	56	17118
2026-01-20 17:05:41.47	15.38	13.45	-40.5	-50.9	3.5	3.02e+01	0	42	104	0	56	16906
2026-01-20 17:05:42.47	15.33	13.55	-40.8	-51.1	3.5	3.02e+01	0	42	104	0	56	17437
2026-01-20 17:05:43.48	15.27	13.66	-40.7	-51.0	3.5	3.02e+01	0	42	104	0	56	17210
2026-01-20 17:05:44.49	15.22	13.77	-40.2	-50.5	3.5	3.02e+01	0	42	104	0	56	16191
2026-01-20 17:05:45.50	15.16	13.88	-40.6	-50.9	3.5	3.02e+01	0	42	104	0	56	17082
2026-01-20 17:05:46.51	15.11	13.99	-40.3	-50.6	3.5	3.02e+01	0	42	104	0	56	16500
2026-01-20 17:05:47.52	15.05	14.10	-40.4	-50.8	3.5	3.02e+01	0	42	104	0	56	16712
2026-01-20 17:05:48.52	14.99	14.21	-40.7	-51.0	3.5	3.02e+01	0	42	104	0	56	17267
2026-01-20 17:05:49.53	14.93	14.32	-40.8	-51.1	3.5	3.02e+01	0	42	104	0	56	17406
2026-01-20 17:05:50.54	14.88	14.43	-40.5	-50.9	3.6	3.02e+01	0	42	104	0	56	16904
2026-01-20 17:05:51.55	14.82	14.54	-40.6	-51.0	3.6	3.02e+01	0	42	104	0	56	17104
2026-01-20 17:05:52.56	14.76	14.65	-40.5	-50.8	3.5	3.02e+01	0	42	104	0	56	16868
2026-01-20 17:05:53.57	14.70	14.76	-40.5	-50.8	3.5	3.02e+01	0	42	104	0	56	16875
2026-01-20 17:05:54.58	14.64	14.88	-40.4	-50.7	3.5	3.02e+01	0	42	104	0	56	16610
2026-01-20 17:05:55.59	14.58	14.99	-40.4	-50.7	3.5	3.02e+01	0	42	104	0	56	16524
2026-01-20 17:05:56.59	14.52	15.10	-40.4	-50.7	3.5	3.02e+01	0	42	104	0	56	16595
2026-01-20 17:05:57.60	14.46	15.22	-40.1	-50.4	3.5	3.02e+01	0	42	104	0	56	16067
2026-01-20 17:05:58.61	14.39	15.33	-40.3	-50.6	3.5	3.02e+01	0	42	104	0	56	16425
2026-01-20 17:05:59.62	14.33	15.45	-40.2	-50.5	3.5	3.02e+01	0	42	104	0	56	16159
2026-01-20 17:06:00.63	14.27	15.57	-40.7	-51.0	3.5	3.02e+01	0	42	104	0	56	17101
2026-01-20 17:06:01.64	14.20	15.68	-40.3	-50.5	3.6	3.02e+01	0	42	104	0	56	16315
2026-01-20 17:06:02.65	14.14	15.80	-40.1	-50.4	3.5	3.02e+01	0	42	104	0	56	15991
2026-01-20 17:06:03.66	14.07	15.92	-40.1	-50.4	3.5	3.02e+01	0	42	104	0	56	16056
2026-01-20 17:06:04.67	14.01	16.04	-40.2	-50.5	3.5	3.02e+01	0	42	104	0	56	16321
2026-01-20 17:06:05.68	13.94	16.16	-39.8	-50.0	3.5	3.02e+01	0	42	104	0	54	17215
2026-01-20 17:06:06.69	13.88	16.28	-39.8	-50.1	3.6	3.02e+01	0	42	104	0	54	17405
2026-01-20 17:06:07.70	13.81	16.40	-40.1	-50.4	3.5	3.02e+01	0	42	104	0	54	17959
2026-01-20 17:06:08.71	13.74	16.52	-40.0	-50.2	3.5	3.02e+01	0	42	104	0	54	17678
2026-01-20 17:06:09.72	13.67	16.64	-39.9	-50.1	3.5	3.02e+01	0	42	104	0	54	17351
2026-01-20 17:06:10.73	13.60	16.77	-39.6	-49.8	3.5	3.02e+01	0	42	104	0	54	16719
2026-01-20 17:06:11.74	13.53	16.89	-39.9	-50.1	3.5	3.02e+01	0	42	104	0	54	17455
2026-01-20 17:06:12.75	13.46	17.01	-39.4	-49.6	3.5	3.02e+01	0	42	104	0	54	16408
2026-01-20 17:06:13.76	13.39	17.14	-39.6	-49.9	3.5	3.02e+01	0	42	104	0	54	17019
2026-01-20 17:06:14.76	13.32	17.26	-40.3	-50.6	3.5	3.02e+01	0	42	104	0	54	18463
2026-01-20 17:06:15.77	13.25	17.39	-40.1	-50.4	3.5	3.02e+01	0	42	104	0	54	18062
2026-01-20 17:06:16.78	13.17	17.51	-39.9	-50.2	3.5	3.02e+01	0	42	104	0	54	17503
2026-01-20 17:06:17.79	13.10	17.64	-40.0	-50.3	3.5	3.02e+01	0	42	104	0	54	17873
2026-01-20 17:06:18.80	13.02	17.77	-39.9	-50.2	3.5	3.02e+01	0	42	104	0	54	17562
2026-01-20 17:06:19.81	12.95	17.90	-39.7	-50.0	3.5	3.02e+01	0	42	104	0	54	17181
2026-01-20 17:06:20.82	12.87	18.03	-40.2	-50.5	3.5	3.02e+01	0	42	104	0	54	18273
2026-01-20 17:06:21.83	12.80	18.16	-40.0	-50.3	3.5	3.02e+01	0	42	104	0	54	17728
2026-01-20 17:06:22.84	12.72	18.29	-41.0	-51.4	3.5	3.02e+01	0	42	104	0	58	16047
2026-01-20 17:06:23.84	12.64	18.42	-41.6	-52.1	3.5	3.02e+01	0	42	104	0	58	17357
2026-01-20 17:06:24.85	12.56	18.55	-47.7	-59.5	3.5	3.02e+01	0	42	104	0	60	36488
2026-01-20 17:06:25.86	12.48	18.68	-49.8	-63.1	3.4	3.02e+01	0	42	104	0	60	55089
2026-01-20 17:06:26.87	12.40	18.82	-39.9	-50.2	3.6	3.02e+01	0	42	104	0	56	15636
2026-01-20 17:06:27.88	12.32	18.95	-51.3	-67.7	3.5	3.02e+01	0	42	104	0	60	93440
2026-01-20 17:06:28.88	12.24	19.09	-39.1	-49.3	3.5	3.02e+01	0	42	104	0	54	15946
2026-01-20 17:06:29.89	12.16	19.22	-39.1	-49.3	3.5	3.02e+01	0	42	104	0	54	15838
2026-01-20 17:06:30.90	12.07	19.36	-39.0	-49.3	3.5	3.02e+01	0	42	104	0	52	17712
2026-01-20 17:06:31.91	11.99	19.50	-38.9	-49.2	3.5	3.02e+01	0	42	104	0	52	17501
2026-01-20 17:06:32.92	11.90	19.63	-51.5	-68.3	3.5	3.02e+01	0	42	104	0	60	100288
2026-01-20 17:06:33.93	11.82	19.77	-38.1	-48.3	3.5	3.02e+01	0	42	104	0	50	17785
2026-01-20 17:06:34.94	11.73	19.91	-51.3	-67.5	3.5	3.02e+01	0	42	104	0	60	91422
2026-01-20 17:06:35.95	11.64	20.05	-47.0	-58.6	3.5	3.02e+01	0	42	104	0	60	32741
2026-01-20 17:06:36.95	11.55	20.19	-48.1	-60.2	3.5	3.02e+01	0	42	104	0	60	39595
2026-01-20 17:06:37.96	11.46	20.34	-39.6	-49.9	3.5	3.02e+01	0	42	104	0	56	15080
2026-01-20 17:06:38.97	11.37	20.48	-39.1	-49.3	3.5	3.02e+01	0	42	104	0	54	15901
2026-01-20 17:06:39.98	11.28	20.62	-38.4	-48.6	3.5	3.02e+01	0	42	104	0	52	16444
2026-01-20 17:06:40.99	11.19	20.77	-38.5	-48.7	3.5	3.02e+01	0	42	104	0	52	16629
2026-01-20 17:06:42.00	11.09	20.91	-44.4	-55.2	3.5	3.02e+01	0	42	104	0	60	22052
2026-01-20 17:06:43.01	11.00	21.06	-39.2	-49.5	3.5	3.02e+01	0	42	104	0	52	18121
2026-01-20 17:06:44.02	10.90	21.21	-51.5	-67.9	3.5	3.02e+01	0	42	104	0	60	95509
2026-01-20 17:06:45.03	10.81	21.35	-47.9	-59.9	3.5	3.02e+01	0	42	104	0	60	37892
2026-01-20 17:06:46.04	10.71	21.50	-49.2	-62.0	3.5	3.02e+01	0	42	104	0	60	48704
2026-01-20 17:06:47.05	10.61	21.65	-43.4	-54.0	3.5	3.02e+01	0	42	104	0	60	19383
2026-01-20 17:06:48.06	10.51	21.80	-43.4	-54.0	3.5	3.02e+01	0	42	104	0	60	19309
2026-01-20 17:06:49.07	10.41	21.95	-43.0	-53.6	3.5	3.02e+01	0	42	104	0	60	18414
2026-01-20 17:06:50.08	10.31	22.11	-43.6	-54.2	3.5	3.02e+01	0	42	104	0	60	19705
2026-01-20 17:06:51.09	10.20	22.26	-43.7	-54.2	3.5	3.02e+01	0	42	104	0	60	19827
2026-01-20 17:06:52.10	10.10	22.41	-51.7	-69.3	3.5	3.02e+01	0	42	104	0	60	112573
2026-01-20 17:06:53.11	10.00	22.57	-48.6	-61.0	3.5	3.02e+01	0	42	104	0	60	43126
2026-01-20 17:06:54.12	9.89	22.72	-42.8	-53.2	3.5	3.02e+01	0	42	104	0	60	17666
2026-01-20 17:06:55.12	9.78	22.88	-51.7	-68.8	3.5	3.02e+01	0	42	104	0	60	105489
2026-01-20 17:06:56.13	9.67	23.04	-43.4	-53.9	3.5	3.02e+01	0	42	104	0	60	19099
2026-01-20 17:06:57.14	9.56	23.20	-43.0	-53.5	3.5	3.02e+01	0	42	104	0	60	18255
2026-01-20 17:06:58.15	9.45	23.36	-42.4	-52.8	3.5	3.02e+01	0	42	104	0	60	16771
2026-01-20 17:06:59.16	9.34	23.52	-41.3	-51.6	3.6	3.02e+01	0	42	104	0	58	16409
2026-01-20 17:07:00.16	9.23	23.68	-45.6	-56.7	3.5	3.02e+01	0	42	104	0	60	26252
2026-01-20 17:07:01.17	9.11	23.84	-48.2	-60.2	3.5	3.02e+01	0	42	104	0	60	39368
2026-01-20 17:07:02.18	9.00	24.00	-51.8	-69.3	3.5	3.02e+01	0	42	104	0	60	112551
2026-01-20 17:07:03.19	8.88	24.17	-39.7	-49.9	3.5	3.02e+01	0	42	104	0	54	17040
2026-01-20 17:07:04.20	8.76	24.33	-51.5	-68.3	3.5	3.02e+01	0	42	104	0	60	99501
2026-01-20 17:07:05.21	8.64	24.50	-39.5	-49.8	3.5	3.02e+01	0	42	104	0	54	16889
2026-01-20 17:07:06.22	8.52	24.67	-39.0	-49.2	3.6	3.02e+01	0	42	104	0	54	15674
2026-01-20 17:07:07.23	8.40	24.84	-39.2	-49.4	3.5	3.02e+01	0	42	104	0	52	18078
2026-01-20 17:07:08.24	8.27	25.01	-39.1	-49.3	3.5	3.02e+01	0	42	104	0	52	17714
2026-01-20 17:07:09.25	8.15	25.18	-49.5	-62.4	3.5	3.02e+01	0	42	104	0	60	50964
2026-01-20 17:07:10.26	8.02	25.35	-38.9	-49.2	3.4	3.02e+01	0	42	104	0	54	15602
2026-01-20 17:07:11.27	7.89	25.52	-51.5	-68.7	3.5	3.02e+01	0	42	104	0	60	104335
2026-01-20 17:07:12.28	7.76	25.70	-45.5	-56.5	3.5	3.02e+01	0	42	104	0	60	25666
2026-01-20 17:07:13.29	7.63	25.87	-51.5	-68.4	3.5	3.02e+01	0	42	104	0	60	101074
2026-01-20 17:07:14.30	7.50	26.05	-41.6	-51.9	3.5	3.02e+01	0	42	104	0	58	17005
2026-01-20 17:07:15.31	7.36	26.23	-42.3	-52.7	3.5	3.02e+01	0	42	104	0	58	18731
2026-01-20 17:07:16.32	7.22	26.40	-42.0	-52.4	3.5	3.02e+01	0	42	104	0	58	18076
2026-01-20 17:07:17.33	7.09	26.58	-41.0	-51.3	3.5	3.02e+01	0	42	104	0	58	15769
2026-01-20 17:07:18.34	6.95	26.76	-39.0	-49.2	3.5	3.02e+01	0	42	104	0	52	17583
2026-01-20 17:07:19.35	6.80	26.95	-38.8	-49.0	3.5	3.02e+01	0	42	104	0	52	17128
2026-01-20 17:07:20.36	6.66	27.13	-51.8	-69.2	3.5	3.02e+01	0	42	104	0	60	110395
2026-01-20 17:07:21.37	6.52	27.31	-42.3	-52.8	3.5	3.02e+01	0	42	104	0	60	16806
2026-01-20 17:07:22.38	6.37	27.50	-51.1	-66.3	3.5	3.02e+01	0	42	104	0	60	79633
2026-01-20 17:07:23.39	6.22	27.68	-41.0	-51.3	3.5	3.02e+01	0	42	104	0	58	15918
2026-01-20 17:07:24.40	6.07	27.87	-40.6	-50.9	3.5	3.02e+01	0	42	104	0	56	16924
2026-01-20 17:07:25.41	5.92	28.06	-40.2	-50.6	3.6	3.02e+01	0	42	104	0	56	16324
2026-01-20 17:07:26.42	5.76	28.25	-39.8	-50.0	3.5	3.02e+01	0	42	104	0	56	15393
2026-01-20 17:07:27.43	5.61	28.44	-40.5	-50.8	3.6	3.02e+01	0	42	104	0	58	14941
2026-01-20 17:07:28.44	5.45	28.63	-38.9	-49.1	3.5	3.02e+01	0	42	104	0	52	17313
2026-01-20 17:07:29.45	5.29	28.82	-51.2	-66.3	3.5	3.02e+01	0	42	104	0	60	79777
2026-01-20 17:07:30.46	5.12	29.02	-39.1	-49.2	3.5	3.02e+01	0	42	104	0	56	13975
2026-01-20 17:07:31.47	4.96	29.21	-49.8	-63.2	3.6	3.02e+01	0	42	104	0	60	55323
2026-01-20 17:07:32.47	4.79	29.41	-40.5	-50.7	3.5	3.02e+01	0	42	104	0	56	16697
2026-01-20 17:07:33.48	4.63	29.61	-39.7	-50.1	3.5	3.02e+01	0	42	104	0	54	17300
2026-01-20 17:07:34.49	4.45	29.81	-38.9	-49.1	3.5	3.02e+01	0	42	104	0	52	17352
2026-01-20 17:07:35.51	4.28	30.01	-38.1	-48.3	3.5	3.02e+01	0	42	104	0	52	15862
2026-01-20 17:07:36.52	4.10	30.21	-38.8	-49.0	3.5	3.02e+01	0	42	104	0	52	17242
2026-01-20 17:07:37.53	3.93	30.41	-39.1	-49.2	3.5	3.02e+01	0	42	104	0	52	17610
2026-01-20 17:07:38.54	3.75	30.62	-45.6	-56.5	3.5	3.02e+01	0	42	104	0	60	25652
2026-01-20 17:07:39.55	3.56	30.82	-38.1	-48.2	3.5	3.02e+01	0	42	104	0	52	15656
2026-01-20 17:07:40.56	3.38	31.03	-48.6	-61.0	3.5	3.02e+01	0	42	104	0	60	42956
2026-01-20 17:07:41.57	3.19	31.24	-41.5	-52.0	3.5	3.02e+01	0	42	104	0	56	19253
2026-01-20 17:07:42.58	3.00	31.45	-41.6	-52.0	3.6	3.02e+01	0	42	104	0	58	17187
2026-01-20 17:07:43.59	2.81	31.66	-39.5	-49.8	3.6	3.02e+01	0	42	104	0	54	16771
2026-01-20 17:07:44.60	2.61	31.87	-39.6	-49.8	3.5	3.02e+01	0	42	104	0	52	18860
2026-01-20 17:07:45.61	2.41	32.08	-39.4	-49.6	3.5	3.02e+01	0	42	104	0	56	14599
2026-01-20 17:07:46.61	2.21	32.29	-44.5	-55.3	3.5	3.02e+01	0	42	104	0	54	31480
2026-01-20 17:07:47.63	2.01	32.51	-45.4	-56.3	3.6	3.02e+01	0	42	104	0	60	24995
2026-01-20 17:07:48.64	1.80	32.73	-39.5	-49.7	3.5	3.02e+01	0	42	104	0	52	18597
2026-01-20 17:07:49.65	1.59	32.94	-45.6	-56.7	3.5	3.02e+01	0	42	104	0	60	26321
2026-01-20 17:07:50.65	1.38	33.16	-41.7	-52.1	3.5	3.02e+01	0	42	104	0	58	17399
2026-01-20 17:07:51.66	1.17	33.38	-40.8	-51.2	3.5	3.02e+01	0	42	104	0	56	17496
2026-01-20 17:07:52.67	0.95	33.60	-40.8	-51.1	3.5	3.02e+01	0	42	104	0	56	17489
2026-01-20 17:07:53.68	0.73	33.83	-38.7	-48.9	3.5	3.02e+01	0	42	104	0	52	16921
2026-01-20 17:07:54.69	0.50	34.05	-39.3	-49.6	3.5	3.02e+01	0	42	104	0	54	16406
2026-01-20 17:07:55.70	0.27	34.28	-46.0	-57.0	3.4	3.02e+01	0	42	104	0	56	34261
2026-01-20 17:07:56.71	0.04	34.50	-45.0	-55.8	3.6	3.02e+01	0	42	104	0	60	23738
2026-01-20 17:07:57.72	359.81	34.73	-40.9	-51.2	3.5	3.02e+01	0	42	104	0	52	22271
2026-01-20 17:07:58.73	359.57	34.96	-44.6	-55.4	3.5	3.02e+01	0	42	104	0	60	22649
2026-01-20 17:07:59.74	359.33	35.19	-42.0	-52.5	3.5	3.02e+01	0	42	104	0	58	18154
2026-01-20 17:08:00.75	359.08	35.42	-41.5	-51.9	3.5	3.02e+01	0	42	104	0	58	16953
2026-01-20 17:08:01.75	358.83	35.65	-40.2	-50.4	3.5	3.02e+01	0	42	104	0	56	15987
2026-01-20 17:08:02.77	358.58	35.89	-42.8	-53.2	3.6	3.02e+01	0	42	104	0	56	22124
2026-01-20 17:08:03.78	358.32	36.12	-40.5	-50.7	3.5	3.02e+01	0	42	104	0	56	16661
2026-01-20 17:08:04.79	358.06	36.36	-51.6	-67.8	3.5	3.02e+01	0	42	104	0	60	94851
2026-01-20 17:08:05.79	357.80	36.59	-45.1	-56.0	3.5	3.02e+01	0	42	104	0	60	24220
2026-01-20 17:08:06.80	357.53	36.83	-46.7	-58.0	3.5	3.02e+01	0	42	104	0	60	30468
2026-01-20 17:08:07.81	357.26	37.07	-43.9	-54.6	3.6	3.02e+01	0	42	104	0	60	20568
2026-01-20 17:08:08.82	356.98	37.31	-43.2	-53.7	3.6	3.02e+01	0	42	104	0	60	18648
2026-01-20 17:08:09.83	356.70	37.55	-43.6	-54.2	3.5	3.02e+01	0	42	104	0	60	19662
2026-01-20 17:08:10.84	356.42	37.80	-42.0	-52.3	3.5	3.02e+01	0	42	104	0	60	15823
2026-01-20 17:08:11.85	356.13	38.04	-43.1	-53.5	3.5	3.02e+01	0	42	104	0	58	20439
2026-01-20 17:08:12.86	355.83	38.28	-41.5	-51.8	3.5	3.02e+01	0	42	104	0	56	18946
2026-01-20 17:08:13.87	355.53	38.53	-51.8	-69.0	3.5	3.02e+01	0	42	104	0	60	108382
2026-01-20 17:08:14.88	355.23	38.78	-48.0	-60.0	3.5	3.02e+01	0	42	104	0	60	38588
2026-01-20 17:08:15.89	354.92	39.02	-51.6	-68.2	3.5	3.02e+01	0	42	104	0	60	99229
2026-01-20 17:08:16.90	354.61	39.27	-45.6	-56.5	3.5	3.02e+01	0	42	104	0	60	25704
2026-01-20 17:08:17.91	354.29	39.52	-45.6	-56.6	3.5	3.02e+01	0	42	104	0	60	26020
2026-01-20 17:08:18.92	353.97	39.77	-45.2	-56.0	3.5	3.02e+01	0	42	104	0	60	24386
2026-01-20 17:08:19.93	353.64	40.03	-44.8	-55.5	3.5	3.02e+01	0	42	104	0	60	22848
2026-01-20 17:08:20.94	353.30	40.28	-47.1	-58.5	3.5	3.02e+01	0	42	104	0	60	32233
2026-01-20 17:08:21.95	352.96	40.53	-51.8	-69.0	3.5	3.02e+01	0	42	104	0	60	108587
2026-01-20 17:08:22.96	352.62	40.78	-47.6	-59.4	3.5	3.02e+01	0	42	104	0	60	35836
2026-01-20 17:08:23.97	352.27	41.04	-44.7	-55.4	3.5	3.02e+01	0	42	104	0	60	22609
2026-01-20 17:08:24.98	351.91	41.29	-51.8	-68.6	3.5	3.02e+01	0	42	104	0	60	103502
2026-01-20 17:08:25.99	351.55	41.55	-43.2	-53.8	3.5	3.02e+01	0	42	104	0	60	18746
2026-01-20 17:08:27.00	351.18	41.81	-42.3	-52.9	3.5	3.02e+01	0	42	104	0	60	16932
2026-01-20 17:08:28.01	350.81	42.06	-41.0	-51.2	3.6	3.02e+01	0	42	104	0	58	15731
2026-01-20 17:08:29.02	350.43	42.32	-40.5	-50.7	3.5	3.02e+01	0	42	104	0	56	16699
2026-01-20 17:08:30.03	350.04	42.58	-51.6	-68.5	3.5	3.02e+01	0	42	104	0	60	102589
2026-01-20 17:08:31.04	349.65	42.84	-47.8	-59.7	3.5	3.02e+01	0	42	104	0	60	37221
2026-01-20 17:08:32.05	349.25	43.10	-51.8	-68.8	3.5	3.02e+01	0	42	104	0	60	105785
2026-01-20 17:08:33.06	348.84	43.36	-43.2	-53.8	3.6	3.02e+01	0	42	104	0	58	21228
2026-01-20 17:08:34.07	348.43	43.62	-51.9	-69.5	3.5	3.02e+01	0	42	104	0	60	114403
2026-01-20 17:08:35.08	348.01	43.87	-41.7	-52.1	3.5	3.02e+01	0	42	104	0	60	15490
2026-01-20 17:08:36.09	347.58	44.13	-40.3	-50.5	3.5	3.02e+01	0	42	104	0	56	16227
2026-01-20 17:08:37.10	347.15	44.39	-39.7	-49.9	3.5	3.02e+01	0	42	104	0	54	17009
2026-01-20 17:08:38.11	346.71	44.65	-39.9	-50.2	3.5	3.02e+01	0	42	104	0	54	17506
2026-01-20 17:08:39.12	346.26	44.91	-46.6	-57.8	3.5	3.02e+01	0	42	104	0	60	29803
2026-01-20 17:08:40.13	345.80	45.17	-43.9	-54.5	3.5	3.02e+01	0	42	104	0	60	20542
2026-01-20 17:08:41.14	345.34	45.43	-51.8	-69.3	3.5	3.02e+01	0	42	104	0	60	112400
2026-01-20 17:08:42.15	344.87	45.69	-49.6	-62.7	3.5	3.02e+01	0	42	104	0	60	52535
2026-01-20 17:08:43.16	344.39	45.95	-51.6	-67.9	3.5	3.02e+01	0	42	104	0	60	95699
2026-01-20 17:08:44.17	343.90	46.20	-48.4	-60.3	3.5	3.02e+01	0	42	104	0	60	39964
2026-01-20 17:08:45.18	343.40	46.46	-48.4	-60.4	3.5	3.02e+01	0	42	104	0	60	40128
2026-01-20 17:08:46.19	342.90	46.72	-48.0	-59.7	3.5	3.02e+01	0	42	104	0	60	37168
2026-01-20 17:08:47.21	342.38	46.98	-47.8	-59.4	3.5	3.02e+01	0	42	104	0	60	36109
2026-01-20 17:08:48.22	341.86	47.23	-49.9	-63.8	3.5	3.02e+01	0	42	104	0	60	59566
2026-01-20 17:08:49.22	341.34	47.48	-51.5	-69.3	3.5	3.02e+01	0	42	104	0	60	111784
2026-01-20 17:08:50.23	340.80	47.73	-43.4	-53.9	3.5	3.02e+01	0	42	104	0	60	19153
2026-01-20 17:08:51.24	340.25	47.99	-44.2	-55.0	3.5	3.02e+01	0	42	104	0	60	21717
2026-01-20 17:08:52.25	339.69	48.24	-51.6	-69.8	3.5	3.02e+01	0	42	104	0	60	118621
2026-01-20 17:08:53.26	339.12	48.48	-43.9	-54.5	3.5	3.02e+01	0	42	104	0	60	20318
2026-01-20 17:08:54.27	338.55	48.73	-43.6	-54.3	3.5	3.02e+01	0	42	104	0	60	19956
2026-01-20 17:08:55.28	337.96	48.98	-43.5	-54.2	3.5	3.02e+01	0	42	104	0	60	19766
2026-01-20 17:08:56.29	337.37	49.22	-43.1	-53.5	3.5	3.02e+01	0	42	104	0	60	18270
2026-01-20 17:08:57.30	336.77	49.46	-46.1	-57.1	3.5	3.02e+01	0	42	104	0	60	27507
2026-01-20 17:08:58.31	336.15	49.70	-43.1	-53.7	3.5	3.02e+01	0	42	104	0	60	18617
2026-01-20 17:08:59.32	335.53	49.94	-52.0	-69.9	3.5	3.02e+01	0	42	104	0	60	120143
2026-01-20 17:09:00.33	334.89	50.17	-42.6	-53.0	3.5	3.02e+01	0	42	104	0	60	17102
2026-01-20 17:09:01.34	334.25	50.40	-51.9	-69.2	3.5	3.02e+01	0	42	104	0	60	110773
2026-01-20 17:09:02.35	333.60	50.63	-40.9	-51.2	3.5	3.02e+01	0	42	104	0	56	17564
2026-01-20 17:09:03.36	332.93	50.86	-39.7	-49.9	3.5	3.02e+01	0	42	104	0	54	17015
2026-01-20 17:09:04.37	332.26	51.08	-39.2	-49.3	3.5	3.02e+01	0	42	104	0	54	15823
2026-01-20 17:09:05.38	331.57	51.30	-39.0	-49.2	3.6	3.02e+01	0	42	104	0	54	15713
2026-01-20 17:09:06.39	330.88	51.52	-45.3	-56.3	3.6	3.02e+01	0	42	104	0	60	25050
2026-01-20 17:09:07.40	330.17	51.73	-40.6	-51.0	3.5	3.02e+01	0	42	104	0	58	15243
2026-01-20 17:09:08.41	329.46	51.95	-52.0	-69.4	3.5	3.02e+01	0	42	104	0	60	113049
2026-01-20 17:09:09.42	328.73	52.15	-45.0	-55.9	3.4	3.02e+01	0	42	104	0	60	23936
2026-01-20 17:09:10.43	328.00	52.35	-51.9	-65.8	3.7	3.02e+01	0	42	104	0	60	74825
2026-01-20 17:09:11.44	327.25	52.55	-44.0	-45.7	23.5	3.02e+01	60	42	0	0	60	7449
2026-01-20 17:09:12.45	326.50	52.75	-44.1	-45.9	24.0	3.02e+01	61	42	0	2097152	60	7561
2026-01-20 17:09:13.46	325.73	52.94	-44.4	-46.2	23.4	3.02e+01	46	42	0	3670016	60	7828
2026-01-20 17:09:14.47	324.95	53.12	-43.8	-45.5	23.8	3.02e+01	60	42	0	5767168	60	7246
2026-01-20 17:09:15.48	324.17	53.30	-43.6	-45.2	23.9	3.02e+01	57	42	0	7340032	60	7029
2026-01-20 17:09:16.49	323.37	53.48	-42.1	-43.6	25.5	3.02e+01	55	42	0	9437184	58	6561
2026-01-20 17:09:17.50	322.56	53.65	-41.2	-42.6	26.5	3.02e+01	59	42	0	11534336	56	6504
2026-01-20 17:09:18.51	321.75	53.82	-40.4	-41.8	27.5	3.02e+01	59	42	0	13107200	56	5941
2026-01-20 17:09:19.52	320.93	53.98	-40.0	-41.3	27.6	3.02e+01	53	42	0	15204352	56	5608
2026-01-20 17:09:20.53	320.09	54.13	-39.9	-41.2	27.6	3.02e+01	60	42	0	17301504	54	6229
2026-01-20 17:09:21.54	319.25	54.28	-39.5	-40.8	28.1	3.02e+01	60	42	0	18874368	54	5927
2026-01-20 17:09:22.55	318.40	54.42	-39.7	-40.9	28.0	3.02e+01	57	42	0	20971520	54	6056
2026-01-20 17:09:23.56	317.54	54.56	-38.4	-39.6	29.3	3.02e+01	48	42	0	22544384	52	5842
2026-01-20 17:09:24.57	316.67	54.69	-38.8	-40.0	28.9	3.02e+01	57	42	0	24641536	52	6101
2026-01-20 17:09:25.58	315.79	54.82	-38.9	-40.2	28.8	3.02e+01	60	42	0	26738688	52	6220
2026-01-20 17:09:26.59	314.91	54.94	-38.6	-39.8	29.1	3.02e+01	48	42	0	28311552	52	5950
2026-01-20 17:09:27.60	314.02	55.05	-38.8	-40.0	29.0	3.02e+01	58	42	0	30408704	52	6088
2026-01-20 17:09:28.61	313.12	55.15	-38.9	-40.2	28.8	3.02e+01	59	42	0	31981568	52	6227
2026-01-20 17:09:29.62	312.21	55.25	-38.8	-40.1	28.9	3.02e+01	63	42	0	34078720	52	6148
2026-01-20 17:09:30.63	311.30	55.34	-39.0	-40.2	28.7	3.02e+01	60	42	0	36175872	52	6261
2026-01-20 17:09:31.64	310.39	55.43	-39.3	-40.6	28.4	3.02e+01	56	42	0	37748736	52	6504
2026-01-20 17:09:32.65	309.46	55.51	-39.6	-40.8	28.2	3.02e+01	60	42	0	39845888	52	6724
2026-01-20 17:09:33.66	308.54	55.58	-38.9	-40.1	28.7	3.02e+01	60	42	0	41943040	52	6185
2026-01-20 17:09:34.67	307.61	55.64	-39.1	-40.3	28.7	3.02e+01	44	42	0	43515904	52	6310
2026-01-20 17:09:35.68	306.67	55.69	-39.0	-40.2	28.8	3.02e+01	58	42	0	45613056	52	6230
2026-01-20 17:09:36.69	305.73	55.74	-39.3	-40.6	28.4	3.02e+01	58	42	0	47185920	52	6521
2026-01-20 17:09:37.70	304.79	55.78	-39.2	-40.5	28.5	3.02e+01	58	42	0	49283072	52	6445
2026-01-20 17:09:38.71	303.84	55.82	-38.9	-40.1	28.8	3.02e+01	59	42	0	51380224	52	6195
2026-01-20 17:09:39.72	302.90	55.84	-39.5	-40.8	28.1	3.02e+01	59	42	0	52953088	52	6721
2026-01-20 17:09:40.73	301.95	55.86	-39.2	-40.5	28.5	3.02e+01	58	42	0	55050240	52	6426
2026-01-20 17:09:41.74	301.00	55.87	-39.1	-40.4	28.5	3.02e+01	59	42	0	56623104	52	6357
2026-01-20 17:09:42.75	300.05	55.87	-39.1	-40.4	28.5	3.02e+01	46	42	0	58720256	52	6358
2026-01-20 17:09:43.77	299.09	55.87	-39.6	-40.9	28.0	3.02e+01	58	42	0	60817408	52	6747
2026-01-20 17:09:44.77	298.15	55.86	-38.8	-40.1	28.7	3.02e+01	60	42	0	62390272	52	6136
2026-01-20 17:09:45.78	297.20	55.84	-39.0	-40.3	28.2	3.02e+01	59	42	0	64487424	52	6297
2026-01-20 17:09:46.79	296.26	55.81	-40.0	-41.3	27.8	3.02e+01	56	42	0	66584576	54	6315
2026-01-20 17:09:47.80	295.31	55.77	-39.3	-40.6	28.5	3.02e+01	54	42	0	68157440	52	6524
2026-01-20 17:09:48.81	294.37	55.73	-38.8	-40.1	28.8	3.02e+01	59	42	0	70254592	52	6139
2026-01-20 17:09:49.82	293.43	55.68	-39.1	-40.4	28.2	3.02e+01	64	42	0	71827456	52	6354
2026-01-20 17:09:50.83	292.50	55.62	-39.9	-41.2	27.7	3.02e+01	55	42	0	73924608	52	6973
2026-01-20 17:09:51.84	291.57	55.56	-39.1	-40.4	28.4	3.02e+01	58	42	0	76021760	52	6363
2026-01-20 17:09:52.85	290.64	55.48	-39.1	-40.3	28.6	3.02e+01	62	42	0	77594624	52	6314
2026-01-20 17:09:53.86	289.72	55.40	-38.8	-40.1	28.8	3.02e+01	62	42	0	79691776	52	6140
2026-01-20 17:09:54.87	288.81	55.32	-39.2	-40.5	28.4	3.02e+01	60	42	0	81264640	52	6472
2026-01-20 17:09:55.88	287.90	55.22	-38.9	-40.1	28.8	3.02e+01	53	42	0	83361792	52	6172
2026-01-20 17:09:56.89	286.99	55.12	-38.9	-40.1	28.4	3.02e+01	59	42	0	85458944	52	6158
2026-01-20 17:09:57.90	286.10	55.01	-39.7	-41.0	27.6	3.02e+01	58	42	0	87031808	54	6097
2026-01-20 17:09:58.91	285.21	54.90	-39.7	-41.1	27.7	3.02e+01	55	42	0	89128960	52	6925
2026-01-20 17:09:59.92	284.33	54.78	-39.2	-40.5	27.8	3.02e+01	58	42	0	90701824	52	6463
2026-01-20 17:10:00.93	283.45	54.65	-38.3	-39.4	29.0	3.02e+01	37	42	0	92798976	52	5716
2026-01-20 17:10:01.94	282.58	54.52	-37.9	-39.1	29.1	3.02e+01	59	42	0	94896128	50	6149
2026-01-20 17:10:02.95	281.73	54.38	-37.7	-38.8	29.0	3.02e+01	58	42	0	96468992	50	5988
2026-01-20 17:10:03.96	280.88	54.23	-39.2	-40.5	28.3	3.02e+01	46	42	0	98566144	50	7284
2026-01-20 17:10:04.97	280.04	54.08	-38.9	-40.2	28.5	3.02e+01	58	42	0	100139008	52	6241
2026-01-20 17:10:05.98	279.20	53.93	-38.8	-40.1	28.8	3.02e+01	58	42	0	102236160	52	6168
2026-01-20 17:10:06.99	278.38	53.76	-38.3	-39.5	29.2	3.02e+01	61	42	0	104333312	52	5727
2026-01-20 17:10:08.00	277.57	53.60	-38.1	-39.3	29.4	3.02e+01	59	42	0	105906176	50	6293
2026-01-20 17:10:09.01	276.76	53.42	-38.1	-39.3	29.6	3.02e+01	58	42	0	108003328	50	6284
2026-01-20 17:10:10.02	275.97	53.25	-37.3	-38.5	30.1	3.02e+01	60	42	0	110100480	50	5730
2026-01-20 17:10:11.03	275.19	53.06	-37.9	-39.1	29.8	3.02e+01	58	42	0	111673344	50	6136
2026-01-20 17:10:12.04	274.41	52.88	-38.1	-39.3	29.5	3.02e+01	49	42	0	113770496	50	6297
2026-01-20 17:10:13.05	273.65	52.68	-37.3	-38.4	30.1	3.02e+01	58	42	0	115343360	50	5714
2026-01-20 17:10:14.06	272.89	52.49	-37.7	-38.9	29.8	3.02e+01	57	42	0	117440512	50	6021
2026-01-20 17:10:15.07	272.15	52.29	-38.1	-39.3	29.4	3.02e+01	59	42	0	119537664	50	6305
2026-01-20 17:10:16.08	271.42	52.08	-38.2	-39.4	29.4	3.02e+01	63	42	0	121110528	50	6362
2026-01-20 17:10:17.09	270.69	51.88	-38.4	-39.6	29.3	3.02e+01	44	42	0	123207680	50	6555
2026-01-20 17:10:18.10	269.98	51.66	-38.1	-39.3	29.4	3.02e+01	60	42	0	124780544	50	6280
2026-01-20 17:10:19.11	269.28	51.45	-38.7	-39.9	28.6	3.02e+01	59	42	0	126877696	52	6064
2026-01-20 17:10:20.12	268.58	51.23	-38.3	-39.5	29.4	3.02e+01	39	42	0	128974848	52	5783
2026-01-20 17:10:21.13	267.90	51.01	-38.3	-39.6	29.3	3.02e+01	56	42	0	130547712	52	5792
2026-01-20 17:10:22.13	267.24	50.78	-37.9	-39.2	29.5	3.02e+01	61	42	0	132644864	52	5531
2026-01-20 17:10:23.14	266.57	50.56	-36.9	-38.0	30.3	3.02e+01	59	42	0	134742016	50	5445
2026-01-20 17:10:24.15	265.92	50.33	-38.0	-39.2	29.4	3.02e+01	58	42	0	136314880	50	6258
2026-01-20 17:10:25.16	265.28	50.09	-38.3	-39.5	29.2	3.02e+01	54	42	0	138412032	50	6497
2026-01-20 17:10:26.17	264.65	49.86	-37.9	-39.1	29.1	3.02e+01	57	42	0	139984896	50	6137
2026-01-20 17:10:27.18	264.03	49.62	-37.6	-38.8	29.7	3.02e+01	59	42	0	142082048	50	5940
2026-01-20 17:10:28.19	263.41	49.38	-37.8	-39.0	29.6	3.02e+01	55	43	0	144179200	50	6116
2026-01-20 17:10:29.20	262.81	49.13	-38.8	-40.1	28.7	3.02e+01	56	42	0	145752064	50	6892
2026-01-20 17:10:30.21	262.22	48.89	-38.2	-39.4	29.3	3.02e+01	47	42	0	147849216	50	6402
2026-01-20 17:10:31.22	261.64	48.64	-37.9	-39.1	29.5	3.02e+01	60	42	0	149422080	50	6162
2026-01-20 17:10:32.23	261.06	48.40	-37.7	-38.9	29.7	3.02e+01	59	43	0	151519232	50	6031
2026-01-20 17:10:33.24	260.50	48.15	-38.3	-39.6	29.2	3.02e+01	49	42	0	153616384	50	6523
2026-01-20 17:10:34.25	259.94	47.90	-38.3	-39.5	29.2	3.02e+01	60	42	0	155189248	50	6455
2026-01-20 17:10:35.26	259.40	47.64	-38.2	-39.5	29.2	3.02e+01	62	42	0	157286400	50	6443
2026-01-20 17:10:36.27	258.86	47.39	-38.1	-39.3	29.4	3.02e+01	56	43	0	158859264	50	6287
2026-01-20 17:10:37.28	258.33	47.13	-37.9	-39.1	29.6	3.02e+01	60	42	0	160956416	50	6138
2026-01-20 17:10:38.29	257.81	46.88	-37.8	-39.0	29.5	3.02e+01	61	42	0	163053568	50	6071
2026-01-20 17:10:39.30	257.30	46.62	-38.0	-39.2	29.4	3.02e+01	58	42	0	164626432	50	6242
2026-01-20 17:10:40.30	256.80	46.37	-37.9	-39.1	29.6	3.02e+01	58	42	0	166723584	50	6162
2026-01-20 17:10:41.31	256.31	46.11	-37.6	-38.8	29.8	3.02e+01	45	42	0	168296448	50	5955
2026-01-20 17:10:42.33	255.82	45.85	-37.6	-38.8	29.8	3.02e+01	59	42	0	170393600	50	5950
2026-01-20 17:10:43.34	255.34	45.59	-38.0	-39.2	29.5	3.02e+01	60	42	0	172490752	50	6223
2026-01-20 17:10:44.35	254.87	45.33	-38.3	-39.5	29.0	3.02e+01	58	42	0	174063616	50	6498
2026-01-20 17:10:45.35	254.41	45.07	-37.6	-38.8	29.5	3.02e+01	58	42	0	176160768	50	5979
2026-01-20 17:10:46.36	253.95	44.81	-37.4	-38.6	29.9	3.02e+01	55	42	0	178257920	50	5832
2026-01-20 17:10:47.37	253.51	44.55	-37.6	-38.8	29.8	3.02e+01	61	42	0	179830784	50	5982
2026-01-20 17:10:48.38	253.07	44.29	-38.4	-39.7	29.1	3.02e+01	61	42	0	181927936	50	6589
2026-01-20 17:10:49.39	252.63	44.03	-38.4	-39.7	29.0	3.02e+01	45	42	0	183500800	50	6580
2026-01-20 17:10:50.40	252.21	43.77	-38.3	-39.5	29.2	3.02e+01	61	42	0	185597952	50	6451
2026-01-20 17:10:51.41	251.79	43.51	-38.1	-39.3	29.2	3.02e+01	63	42	0	187695104	50	6324
2026-01-20 17:10:52.42	251.38	43.25	-38.5	-39.7	29.0	3.02e+01	61	42	0	189267968	50	6632
2026-01-20 17:10:53.43	250.97	42.99	-38.7	-40.0	28.7	3.02e+01	60	42	0	191365120	50	6813
2026-01-20 17:10:54.44	250.57	42.73	-39.0	-40.2	28.5	3.02e+01	57	42	0	192937984	52	6268
2026-01-20 17:10:55.45	250.18	42.47	-39.3	-40.5	28.5	3.02e+01	61	42	0	195035136	52	6466
2026-01-20 17:10:56.46	249.80	42.21	-39.4	-40.7	28.0	3.02e+01	58	42	0	197132288	52	6615
2026-01-20 17:10:57.47	249.42	41.96	-39.4	-40.6	28.3	3.02e+01	48	42	0	198705152	52	6555
2026-01-20 17:10:58.48	249.05	41.70	-39.0	-40.2	28.4	3.02e+01	60	43	0	200802304	52	6263
2026-01-20 17:10:59.49	248.68	41.44	-39.4	-40.6	28.2	3.02e+01	49	42	0	202899456	52	6560
2026-01-20 17:11:00.50	248.32	41.19	-39.3	-40.6	28.3	3.02e+01	59	42	0	204472320	52	6556
2026-01-20 17:11:01.50	247.97	40.93	-39.5	-40.7	28.1	3.02e+01	58	42	0	206569472	52	6633
2026-01-20 17:11:02.52	247.61	40.67	-39.7	-40.9	27.9	3.02e+01	52	42	0	208142336	52	6800
2026-01-20 17:11:03.52	247.27	40.42	-39.4	-40.7	28.0	3.02e+01	58	43	0	210239488	52	6631
2026-01-20 17:11:04.53	246.93	40.17	-39.2	-40.4	28.4	3.02e+01	58	43	0	212336640	52	6406
2026-01-20 17:11:05.54	246.60	39.92	-39.5	-40.8	28.1	3.02e+01	60	43	0	213909504	52	6672
2026-01-20 17:11:06.55	246.27	39.66	-40.1	-41.4	27.4	3.02e+01	58	42	0	216006656	54	6416
2026-01-20 17:11:07.56	245.95	39.41	-40.0	-41.3	27.6	3.02e+01	51	42	0	217579520	54	6318
2026-01-20 17:11:08.57	245.63	39.16	-39.6	-40.8	28.0	3.02e+01	60	42	0	219676672	54	5960
2026-01-20 17:11:09.58	245.32	38.91	-39.7	-41.0	27.8	3.02e+01	57	42	0	221249536	54	6092
2026-01-20 17:11:10.59	245.01	38.66	-40.4	-41.8	27.2	3.02e+01	44	42	0	223346688	54	6655
2026-01-20 17:11:11.60	244.71	38.42	-39.8	-41.1	27.6	3.02e+01	58	42	0	225443840	54	6175
2026-01-20 17:11:12.61	244.41	38.17	-39.6	-40.9	28.1	3.02e+01	59	42	0	227016704	54	6019
2026-01-20 17:11:13.62	244.12	37.92	-39.9	-41.2	27.8	3.02e+01	59	42	0	229113856	54	6220
2026-01-20 17:11:14.63	243.83	37.68	-40.6	-42.0	27.0	3.02e+01	59	42	0	231211008	54	6829
2026-01-20 17:11:15.64	243.54	37.44	-40.3	-41.6	27.3	3.02e+01	50	42	0	232783872	54	6561
2026-01-20 17:11:16.65	243.26	37.19	-39.8	-41.1	27.7	3.02e+01	59	42	0	234881024	54	6187
2026-01-20 17:11:17.66	242.99	36.95	-39.7	-41.0	27.8	3.02e+01	58	42	0	236453888	54	6080
2026-01-20 17:11:18.67	242.71	36.71	-39.7	-41.0	27.8	3.02e+01	50	42	0	238551040	54	6109
2026-01-20 17:11:19.67	242.45	36.48	-39.5	-40.8	28.0	3.02e+01	57	42	0	240648192	54	5961
2026-01-20 17:11:20.68	242.19	36.24	-39.6	-40.9	28.2	3.02e+01	59	42	0	242221056	54	6010
2026-01-20 17:11:21.70	241.92	36.00	-39.6	-40.9	28.0	3.02e+01	58	42	0	244318208	54	6031
2026-01-20 17:11:22.71	241.67	35.77	-40.1	-41.4	27.6	3.02e+01	59	42	0	246415360	54	6386
2026-01-20 17:11:23.72	241.41	35.53	-39.7	-41.0	27.8	3.02e+01	49	42	0	247988224	54	6088
2026-01-20 17:11:24.73	241.17	35.30	-38.9	-40.1	28.6	3.02e+01	59	42	0	250085376	52	6174
2026-01-20 17:11:25.74	240.92	35.07	-38.9	-40.1	28.6	3.02e+01	60	42	0	251658240	52	6187
2026-01-20 17:11:26.74	240.68	34.84	-39.3	-40.6	28.3	3.02e+01	44	42	0	253755392	52	6528
2026-01-20 17:11:27.75	240.44	34.61	-39.4	-40.7	28.1	3.02e+01	57	42	0	255852544	52	6628
2026-01-20 17:11:28.76	240.21	34.38	-39.1	-40.3	28.4	3.02e+01	59	42	0	257425408	52	6327
2026-01-20 17:11:29.77	239.98	34.15	-38.9	-40.2	28.5	3.02e+01	55	42	0	259522560	52	6224
2026-01-20 17:11:30.78	239.75	33.93	-38.6	-39.8	28.9	3.02e+01	63	42	0	261095424	52	5994
2026-01-20 17:11:31.79	239.53	33.70	-38.8	-40.1	28.7	3.02e+01	52	42	0	263192576	52	6168
2026-01-20 17:11:32.80	239.31	33.48	-38.9	-40.2	28.5	3.02e+01	60	42	0	265289728	52	6219
2026-01-20 17:11:33.81	239.09	33.26	-38.5	-39.7	29.0	3.02e+01	58	42	0	266862592	52	5905
2026-01-20 17:11:34.82	238.87	33.04	-38.2	-39.4	29.2	3.02e+01	44	42	0	268959744	52	5721
2026-01-20 17:11:35.83	238.66	32.82	-38.4	-39.7	29.0	3.02e+01	56	42	0	270532608	52	5866
2026-01-20 17:11:36.84	238.45	32.60	-38.6	-39.8	28.9	3.02e+01	60	42	0	272629760	52	5994
2026-01-20 17:11:37.85	238.24	32.38	-38.4	-39.6	29.0	3.02e+01	58	42	0	274726912	52	5841
2026-01-20 17:11:38.86	238.04	32.17	-38.2	-39.4	29.3	3.02e+01	57	42	0	276299776	52	5665
2026-01-20 17:11:39.87	237.84	31.95	-37.9	-39.1	29.4	3.02e+01	49	42	0	278396928	52	5516
2026-01-20 17:11:40.88	237.64	31.74	-37.8	-39.0	29.6	3.02e+01	62	42	0	279969792	50	6085
2026-01-20 17:11:41.89	237.45	31.53	-38.1	-39.3	29.3	3.02e+01	60	42	0	282066944	50	6320
2026-01-20 17:11:42.90	237.25	31.32	-38.3	-39.5	29.1	3.02e+01	54	42	0	284164096	50	6450
2026-01-20 17:11:43.91	237.06	31.11	-38.2	-39.4	29.3	3.02e+01	58	42	0	285736960	50	6385
2026-01-20 17:11:44.92	236.88	30.90	-38.0	-39.2	29.2	3.02e+01	46	42	0	287834112	50	6269
2026-01-20 17:11:45.93	236.69	30.69	-37.8	-39.0	29.4	3.02e+01	61	42	0	289406976	50	6110
2026-01-20 17:11:46.94	236.51	30.49	-37.7	-38.9	29.6	3.02e+01	60	42	0	291504128	50	6016
2026-01-20 17:11:47.95	236.33	30.28	-38.0	-39.2	29.4	3.02e+01	46	42	0	293601280	50	6222
2026-01-20 17:11:48.96	236.15	30.08	-38.0	-39.2	29.4	3.02e+01	61	42	0	295174144	50	6256
2026-01-20 17:11:49.97	235.98	29.88	-37.9	-39.1	29.5	3.02e+01	58	42	0	297271296	50	6149
2026-01-20 17:11:50.97	235.80	29.68	-38.0	-39.2	29.2	3.02e+01	58	42	0	299368448	50	6260
2026-01-20 17:11:51.98	235.63	29.48	-38.1	-39.3	29.4	3.02e+01	62	42	0	300941312	50	6282
2026-01-20 17:11:52.99	235.46	29.28	-38.1	-39.3	29.3	3.02e+01	58	42	0	303038464	50	6313
2026-01-20 17:11:54.00	235.30	29.09	-38.2	-39.4	29.2	3.02e+01	56	42	0	304611328	50	6410
2026-01-20 17:11:55.01	235.13	28.89	-38.4	-39.6	29.0	3.02e+01	60	42	0	306708480	50	6573
2026-01-20 17:11:56.02	234.97	28.69	-38.3	-39.5	29.1	3.02e+01	54	42	0	308805632	50	6495
2026-01-20 17:11:57.03	234.81	28.50	-38.1	-39.3	29.2	3.02e+01	62	42	0	310378496	50	6338
2026-01-20 17:11:58.04	234.65	28.31	-37.9	-39.1	29.4	3.02e+01	58	42	0	312475648	50	6155
2026-01-20 17:11:59.05	234.50	28.12	-37.9	-39.1	29.4	3.02e+01	52	42	0	314572800	50	6196
2026-01-20 17:12:00.06	234.34	27.93	-38.0	-39.2	29.3	3.02e+01	56	42	0	316145664	50	6273
2026-01-20 17:12:01.06	234.19	27.74	-38.2	-39.4	29.1	3.02e+01	58	42	0	318242816	50	6408
2026-01-20 17:12:02.07	234.04	27.55	-38.4	-39.6	29.0	3.02e+01	62	42	0	319815680	50	6535
2026-01-20 17:12:03.08	233.89	27.37	-38.2	-39.4	29.1	3.02e+01	60	42	0	321912832	50	6370
2026-01-20 17:12:04.09	233.74	27.18	-38.2	-39.4	29.1	3.02e+01	44	42	0	324009984	50	6400
2026-01-20 17:12:05.10	233.60	27.00	-38.2	-39.4	29.1	3.02e+01	60	42	0	325582848	50	6387
2026-01-20 17:12:06.11	233.46	26.81	-38.2	-39.4	29.1	3.02e+01	60	42	0	327680000	50	6402
2026-01-20 17:12:07.12	233.31	26.63	-38.2	-39.4	29.1	3.02e+01	57	42	0	329252864	50	6410
2026-01-20 17:12:08.13	233.17	26.45	-38.1	-39.3	29.3	3.02e+01	59	42	0	331350016	50	6310
2026-01-20 17:12:09.14	233.04	26.27	-38.1	-39.3	29.2	3.02e+01	53	42	0	333447168	50	6329
2026-01-20 17:12:10.15	232.90	26.09	-38.2	-39.4	29.2	3.02e+01	58	42	0	335020032	50	6369
2026-01-20 17:12:11.16	232.76	25.92	-38.1	-39.3	29.2	3.02e+01	58	42	0	337117184	50	6350
2026-01-20 17:12:12.17	232.63	25.74	-38.3	-39.5	29.1	3.02e+01	55	42	0	338690048	50	6460
2026-01-20 17:12:13.18	232.50	25.56	-38.3	-39.5	29.0	3.02e+01	55	42	0	340787200	50	6490
2026-01-20 17:12:14.19	232.37	25.39	-38.5	-39.8	28.8	3.02e+01	44	42	0	342884352	50	6656
2026-01-20 17:12:15.20	232.24	25.22	-38.6	-39.8	28.8	3.02e+01	59	42	0	344457216	50	6707
2026-01-20 17:12:16.21	232.11	25.04	-38.8	-40.1	28.5	3.02e+01	58	42	0	346554368	50	6900
2026-01-20 17:12:17.22	231.99	24.87	-38.8	-40.1	28.4	3.02e+01	52	42	0	348127232	52	6167
2026-01-20 17:12:18.23	231.86	24.70	-38.4	-39.6	28.9	3.02e+01	58	42	0	350224384	52	5837
2026-01-20 17:12:19.24	231.74	24.53	-38.3	-39.5	29.0	3.02e+01	58	42	0	352321536	52	5788
2026-01-20 17:12:20.25	231.62	24.37	-38.2	-39.4	29.1	3.02e+01	58	42	0	353894400	52	5665
2026-01-20 17:12:21.26	231.50	24.20	-38.1	-39.3	29.2	3.02e+01	62	42	0	355991552	52	5643
2026-01-20 17:12:22.27	231.38	24.03	-38.3	-39.5	29.0	3.02e+01	46	42	0	357564416	52	5737
2026-01-20 17:12:23.28	231.26	23.87	-38.2	-39.4	29.1	3.02e+01	61	42	0	359661568	52	5684
2026-01-20 17:12:24.29	231.14	23.71	-38.5	-39.7	28.8	3.02e+01	58	42	0	361758720	52	5883
2026-01-20 17:12:25.30	231.03	23.54	-38.5	-39.7	28.8	3.02e+01	48	42	0	363331584	52	5918
2026-01-20 17:12:26.31	230.92	23.38	-38.5	-39.7	28.8	3.02e+01	57	42	0	365428736	52	5874
2026-01-20 17:12:27.31	230.80	23.22	-38.5	-39.7	28.8	3.02e+01	62	42	0	367525888	52	5890
2026-01-20 17:12:28.32	230.69	23.06	-38.6	-39.8	28.8	3.02e+01	59	42	0	369098752	52	5980
2026-01-20 17:12:29.33	230.58	22.90	-38.5	-39.7	28.8	3.02e+01	58	42	0	371195904	52	5915
2026-01-20 17:12:30.34	230.47	22.74	-38.6	-39.9	28.7	3.02e+01	65	42	0	372768768	52	6015
2026-01-20 17:12:31.35	230.37	22.59	-38.8	-40.1	28.5	3.02e+01	57	42	0	374865920	52	6137
2026-01-20 17:12:32.36	230.26	22.43	-38.6	-39.8	28.7	3.02e+01	59	42	0	376963072	52	5966
2026-01-20 17:12:33.37	230.15	22.28	-38.5	-39.7	28.7	3.02e+01	45	42	0	378535936	52	5923
2026-01-20 17:12:34.38	230.05	22.12	-38.6	-39.9	28.6	3.02e+01	57	42	0	380633088	52	6000
2026-01-20 17:12:35.39	229.95	21.97	-38.5	-39.7	28.7	3.02e+01	60	42	0	382730240	52	5917
2026-01-20 17:12:36.40	229.84	21.82	-38.5	-39.7	28.7	3.02e+01	62	42	0	384303104	52	5912
2026-01-20 17:12:37.41	229.74	21.66	-38.6	-39.8	28.7	3.02e+01	60	42	0	386400256	52	5979
2026-01-20 17:12:38.42	229.64	21.51	-38.6	-39.9	28.6	3.02e+01	56	42	0	387973120	52	6000
2026-01-20 17:12:39.43	229.55	21.36	-38.6	-39.8	28.7	3.02e+01	62	42	0	390070272	52	5957
2026-01-20 17:12:40.44	229.45	21.21	-38.6	-39.8	28.6	3.02e+01	61	42	0	392167424	52	5975
2026-01-20 17:12:41.45	229.35	21.07	-38.6	-39.8	28.7	3.02e+01	46	42	0	393740288	52	5979
2026-01-20 17:12:42.46	229.25	20.92	-38.6	-39.8	28.6	3.02e+01	60	42	0	395837440	52	5988
2026-01-20 17:12:43.47	229.16	20.77	-38.6	-39.9	28.5	3.02e+01	59	42	0	397410304	52	5999
2026-01-20 17:12:44.48	229.07	20.63	-38.5	-39.8	28.6	3.02e+01	60	42	0	399507456	52	5927
2026-01-20 17:12:45.49	228.97	20.48	-38.4	-39.7	28.7	3.02e+01	60	42	0	401604608	52	5873
2026-01-20 17:12:46.50	228.88	20.34	-38.5	-39.7	28.7	3.02e+01	54	42	0	403177472	52	5895
2026-01-20 17:12:47.51	228.79	20.20	-38.4	-39.6	28.8	3.02e+01	60	42	0	405274624	52	5821
2026-01-20 17:12:48.52	228.70	20.05	-38.3	-39.5	28.9	3.02e+01	60	42	0	406847488	52	5769
2026-01-20 17:12:49.53	228.61	19.91	-38.2	-39.4	29.0	3.02e+01	46	42	0	408944640	52	5703
2026-01-20 17:12:50.54	228.52	19.77	-38.2	-39.4	29.0	3.02e+01	62	42	0	411041792	52	5710
2026-01-20 17:12:51.55	228.44	19.63	-38.3	-39.5	28.9	3.02e+01	46	42	0	412614656	52	5741
2026-01-20 17:12:52.56	228.35	19.49	-38.4	-39.6	28.8	3.02e+01	55	42	0	414711808	52	5837
2026-01-20 17:12:53.57	228.26	19.35	-38.2	-39.5	29.0	3.02e+01	59	42	0	416284672	52	5726
2026-01-20 17:12:54.58	228.18	19.22	-38.4	-39.6	28.8	3.02e+01	47	42	0	418381824	52	5841
2026-01-20 17:12:55.59	228.09	19.08	-38.4	-39.6	28.8	3.02e+01	58	42	0	420478976	52	5838
2026-01-20 17:12:56.60	228.01	18.94	-38.3	-39.5	28.8	3.02e+01	60	42	0	422051840	52	5789
2026-01-20 17:12:57.61	227.93	18.81	-38.4	-39.6	28.9	3.02e+01	59	42	0	424148992	52	5815
2026-01-20 17:12:58.62	227.85	18.67	-38.4	-39.6	28.8	3.02e+01	56	42	0	425721856	52	5848
2026-01-20 17:12:59.63	227.77	18.54	-38.5	-39.7	28.7	3.02e+01	52	42	0	427819008	52	5897
2026-01-20 17:13:00.64	227.69	18.41	-38.3	-39.6	28.8	3.02e+01	58	42	0	429916160	52	5796
2026-01-20 17:13:01.65	227.61	18.27	-38.4	-39.6	28.7	3.02e+01	58	42	0	431489024	52	5858
2026-01-20 17:13:02.66	227.53	18.14	-38.3	-39.6	28.7	3.02e+01	53	42	0	433586176	52	5797
2026-01-20 17:13:03.67	227.45	18.01	-38.3	-39.5	28.8	3.02e+01	57	42	0	435683328	52	5774
2026-01-20 17:13:04.67	227.37	17.88	-38.6	-39.8	28.6	3.02e+01	56	42	0	437256192	52	5994
2026-01-20 17:13:05.68	227.30	17.75	-38.5	-39.8	28.7	3.02e+01	57	42	0	439353344	52	5942
2026-01-20 17:13:06.69	227.22	17.62	-38.7	-40.0	28.4	3.02e+01	57	42	0	440926208	52	6073
2026-01-20 17:13:07.70	227.15	17.50	-38.3	-39.5	28.8	3.02e+01	57	42	0	443023360	52	5789
2026-01-20 17:13:08.71	227.07	17.37	-38.2	-39.4	28.9	3.02e+01	57	42	0	445120512	52	5705
2026-01-20 17:13:09.72	227.00	17.24	-38.4	-39.7	28.7	3.02e+01	57	42	0	446693376	52	5876
2026-01-20 17:13:10.74	226.92	17.12	-38.3	-39.5	28.8	3.02e+01	45	42	0	448790528	52	5786
2026-01-20 17:13:11.75	226.85	16.99	-38.1	-39.3	29.0	3.02e+01	57	42	0	450887680	52	5636
2026-01-20 17:13:12.76	226.78	16.87	-38.2	-39.4	28.9	3.02e+01	59	42	0	452460544	52	5707
2026-01-20 17:13:13.77	226.71	16.74	-38.3	-39.5	28.8	3.02e+01	59	42	0	454557696	52	5749
2026-01-20 17:13:14.78	226.64	16.62	-38.2	-39.4	29.0	3.02e+01	59	42	0	456130560	52	5684
2026-01-20 17:13:15.79	226.57	16.50	-38.4	-39.6	28.7	3.02e+01	49	42	0	458227712	52	5830
2026-01-20 17:13:16.80	226.50	16.37	-38.2	-39.5	28.8	3.02e+01	60	42	0	460324864	52	5733
2026-01-20 17:13:17.81	226.43	16.25	-38.5	-39.7	28.6	3.02e+01	57	42	0	461897728	52	5924
2026-01-20 17:13:18.82	226.36	16.13	-38.1	-39.3	28.8	3.02e+01	37	42	0	463994880	52	5628
2026-01-20 17:13:19.83	226.30	16.01	-38.2	-39.4	28.7	3.02e+01	57	42	0	465567744	52	5714
2026-01-20 17:13:20.84	226.23	15.89	-38.2	-39.5	28.8	3.02e+01	58	42	0	467664896	52	5733
2026-01-20 17:13:21.85	226.17	15.77	-38.2	-39.4	28.8	3.02e+01	60	42	0	469762048	52	5699
2026-01-20 17:13:22.86	226.10	15.65	-38.2	-39.4	28.8	3.02e+01	59	42	0	471334912	52	5696
2026-01-20 17:13:23.87	226.03	15.54	-38.2	-39.5	28.7	3.02e+01	53	42	0	473432064	52	5733
2026-01-20 17:13:24.88	225.97	15.42	-38.2	-39.4	28.8	3.02e+01	62	42	0	475004928	52	5706
2026-01-20 17:13:25.89	225.91	15.30	-38.3	-39.5	28.7	3.02e+01	57	42	0	477102080	52	5750
2026-01-20 17:13:26.90	225.84	15.19	-38.5	-39.7	28.6	3.02e+01	60	42	0	479199232	52	5890
2026-01-20 17:13:27.91	225.78	15.07	-38.4	-39.7	28.6	3.02e+01	59	42	0	480772096	52	5878
2026-01-20 17:13:28.92	225.72	14.95	-38.6	-39.8	28.5	3.02e+01	46	42	0	482869248	52	5974
2026-01-20 17:13:29.93	225.66	14.84	-38.3	-39.6	28.6	3.02e+01	59	42	0	484442112	52	5804
2026-01-20 17:13:30.94	225.60	14.73	-38.5	-39.7	28.5	3.02e+01	60	42	0	486539264	52	5917
2026-01-20 17:13:31.95	225.54	14.61	-38.5	-39.7	28.5	3.02e+01	45	42	0	488636416	52	5926
2026-01-20 17:13:32.95	225.48	14.50	-38.3	-39.6	28.6	3.02e+01	58	42	0	490209280	52	5811
2026-01-20 17:13:33.96	225.42	14.39	-38.5	-39.8	28.5	3.02e+01	59	42	0	492306432	52	5955
2026-01-20 17:13:34.97	225.36	14.28	-38.6	-39.8	28.4	3.02e+01	61	42	0	493879296	52	5988
2026-01-20 17:13:35.99	225.30	14.17	-38.4	-39.6	28.6	3.02e+01	57	42	0	495976448	52	5828
2026-01-20 17:13:36.99	225.24	14.06	-38.4	-39.6	28.6	3.02e+01	60	42	0	498073600	52	5850
2026-01-20 17:13:38.01	225.18	13.94	-38.4	-39.6	28.6	3.02e+01	50	42	0	499646464	52	5853
2026-01-20 17:13:39.02	225.13	13.84	-38.5	-39.8	28.4	3.02e+01	56	42	0	501743616	52	5938
2026-01-20 17:13:40.03	225.07	13.73	-38.4	-39.7	28.5	3.02e+01	44	42	0	503840768	52	5885
2026-01-20 17:13:41.04	225.01	13.62	-38.3	-39.5	28.7	3.02e+01	61	42	0	505413632	52	5763
2026-01-20 17:13:42.05	224.96	13.51	-38.4	-39.6	28.6	3.02e+01	57	42	0	507510784	52	5836
2026-01-20 17:13:43.06	224.90	13.40	-38.6	-39.8	28.5	3.02e+01	58	42	0	509083648	52	5956
2026-01-20 17:13:44.06	224.85	13.30	-38.4	-39.7	28.5	3.02e+01	58	42	0	511180800	52	5874
2026-01-20 17:13:45.07	224.79	13.19	-38.4	-39.6	28.5	3.02e+01	56	42	0	513277952	52	5832
2026-01-20 17:13:46.09	224.74	13.08	-38.5	-39.7	28.4	3.02e+01	60	42	0	514850816	52	5926
2026-01-20 17:13:47.10	224.69	12.98	-38.1	-39.4	28.8	3.02e+01	57	42	0	516947968	52	5665
2026-01-20 17:13:48.11	224.63	12.87	-38.6	-39.8	28.3	3.02e+01	44	42	0	519045120	52	5993
2026-01-20 17:13:49.12	224.58	12.77	-38.3	-39.6	28.4	3.02e+01	58	42	0	520617984	52	5825
2026-01-20 17:13:50.13	224.53	12.66	-38.7	-39.9	28.4	3.02e+01	57	42	0	522715136	52	6044
2026-01-20 17:13:51.14	224.48	12.56	-38.6	-39.8	28.4	3.02e+01	59	42	0	524288000	52	5985
2026-01-20 17:13:52.15	224.43	12.46	-39.0	-40.3	27.9	3.02e+01	59	42	0	526385152	52	6318
2026-01-20 17:13:53.16	224.37	12.35	-39.1	-40.4	27.9	3.02e+01	53	42	0	528482304	52	6372
2026-01-20 17:13:54.17	224.32	12.25	-38.9	-40.1	28.1	3.02e+01	56	42	0	530055168	52	6196
2026-01-20 17:13:55.18	224.27	12.15	-38.5	-39.8	28.4	3.02e+01	60	42	0	532152320	52	5972
2026-01-20 17:13:56.19	224.22	12.05	-38.7	-39.9	28.3	3.02e+01	54	42	0	533725184	52	6056
2026-01-20 17:13:57.20	224.17	11.95	-38.7	-39.9	28.2	3.02e+01	59	42	0	535822336	52	6059
2026-01-20 17:13:58.21	224.13	11.85	-38.6	-39.9	28.2	3.02e+01	45	42	0	537919488	52	6021
2026-01-20 17:13:59.22	224.08	11.75	-38.6	-39.9	28.3	3.02e+01	60	42	0	539492352	52	6014
2026-01-20 17:14:00.23	224.03	11.65	-38.8	-40.1	28.1	3.02e+01	58	42	0	541589504	52	6159
2026-01-20 17:14:01.24	223.98	11.55	-39.0	-40.3	27.9	3.02e+01	45	42	0	543686656	52	6279
2026-01-20 17:14:02.25	223.93	11.45	-38.6	-39.9	28.3	3.02e+01	59	42	0	545259520	52	6041
2026-01-20 17:14:03.26	223.89	11.35	-38.9	-40.2	28.0	3.02e+01	56	42	0	547356672	52	6255
2026-01-20 17:14:04.27	223.84	11.25	-39.2	-40.4	27.7	3.02e+01	60	42	0	548929536	52	6423
2026-01-20 17:14:05.28	223.79	11.16	-39.0	-40.3	27.8	3.02e+01	58	42	0	551026688	52	6294
2026-01-20 17:14:06.28	223.75	11.06	-38.9	-40.1	28.0	3.02e+01	46	42	0	552599552	52	6201
2026-01-20 17:14:07.29	223.70	10.96	-39.1	-40.4	27.8	3.02e+01	56	42	0	554696704	52	6374
2026-01-20 17:14:08.30	223.66	10.87	-39.5	-40.8	27.4	3.02e+01	57	42	0	556793856	52	6721
2026-01-20 17:14:09.31	223.61	10.77	-39.0	-40.3	27.8	3.02e+01	44	42	0	558366720	52	6297
2026-01-20 17:14:10.32	223.57	10.67	-39.2	-40.5	27.7	3.02e+01	59	42	0	560463872	52	6485
2026-01-20 17:14:11.33	223.52	10.58	-39.3	-40.6	27.6	3.02e+01	61	42	0	562036736	52	6570
2026-01-20 17:14:12.34	223.48	10.49	-38.9	-40.1	27.9	3.02e+01	61	42	0	564133888	52	6194
2026-01-20 17:14:13.35	223.44	10.39	-39.1	-40.4	27.9	3.02e+01	60	42	0	566231040	52	6367
2026-01-20 17:14:14.36	223.39	10.30	-39.1	-40.4	27.7	3.02e+01	62	42	0	567803904	52	6401
2026-01-20 17:14:15.37	223.35	10.20	-39.1	-40.4	27.7	3.02e+01	61	42	0	569901056	52	6395
2026-01-20 17:14:16.38	223.31	10.11	-39.4	-40.8	27.5	3.02e+01	55	42	0	571998208	52	6655
2026-01-20 17:14:17.39	223.26	10.02	-39.0	-40.3	27.9	3.02e+01	54	42	0	573571072	52	6346
2026-01-20 17:14:18.40	223.22	9.92	-39.2	-40.5	27.5	3.02e+01	58	42	0	575668224	52	6486
2026-01-20 17:14:19.41	223.18	9.83	-39.6	-40.9	27.4	3.02e+01	59	42	0	577241088	52	6789
2026-01-20 17:14:20.42	223.14	9.74	-39.3	-40.6	27.5	3.02e+01	60	42	0	579338240	52	6547
2026-01-20 17:14:21.43	223.10	9.65	-39.5	-40.8	27.4	3.02e+01	59	42	0	581435392	52	6693
2026-01-20 17:14:22.44	223.06	9.56	-39.5	-40.8	27.4	3.02e+01	48	42	0	583008256	52	6702
2026-01-20 17:14:23.45	223.02	9.47	-39.5	-40.9	27.3	3.02e+01	60	42	0	585105408	52	6740
2026-01-20 17:14:24.46	222.98	9.38	-39.7	-41.0	27.1	3.02e+01	59	42	0	586678272	52	6862
2026-01-20 17:14:25.47	222.94	9.29	-39.4	-40.7	27.4	3.02e+01	45	42	0	588775424	52	6611
2026-01-20 17:14:26.47	222.90	9.20	-39.7	-41.0	27.1	3.02e+01	59	42	0	590872576	52	6865
2026-01-20 17:14:27.48	222.86	9.11	-39.7	-41.0	27.1	3.02e+01	51	42	0	592445440	52	6847
2026-01-20 17:14:28.49	222.82	9.02	-39.6	-40.9	27.2	3.02e+01	61	42	0	594542592	52	6774
2026-01-20 17:14:29.50	222.78	8.93	-39.8	-41.1	27.0	3.02e+01	61	42	0	596639744	52	6934
2026-01-20 17:14:30.51	222.74	8.84	-39.7	-41.1	27.0	3.02e+01	50	42	0	598212608	52	6890
2026-01-20 17:14:31.52	222.70	8.76	-39.8	-41.2	26.9	3.02e+01	60	42	0	600309760	52	6998
2026-01-20 17:14:32.53	222.66	8.67	-39.6	-40.9	27.2	3.02e+01	61	42	0	601882624	52	6763
2026-01-20 17:14:33.54	222.63	8.58	-39.9	-41.2	26.9	3.02e+01	58	42	0	603979776	52	7026
2026-01-20 17:14:34.55	222.59	8.49	-39.7	-41.0	27.1	3.02e+01	60	42	0	606076928	52	6861
2026-01-20 17:14:35.56	222.55	8.41	-39.7	-41.1	27.1	3.02e+01	53	42	0	607649792	52	6904
2026-01-20 17:14:36.57	222.51	8.32	-40.1	-41.5	26.6	3.02e+01	55	42	0	609746944	54	6455
2026-01-20 17:14:37.58	222.48	8.24	-39.9	-41.3	26.8	3.02e+01	59	42	0	611319808	54	6328
2026-01-20 17:14:38.59	222.44	8.15	-39.8	-41.1	27.0	3.02e+01	46	42	0	613416960	54	6205
2026-01-20 17:14:39.60	222.40	8.07	-39.8	-41.2	26.9	3.02e+01	59	42	0	615514112	54	6206
2026-01-20 17:14:40.61	222.37	7.98	-39.9	-41.4	26.7	3.02e+01	61	42	0	617086976	54	6355
2026-01-20 17:14:41.62	222.33	7.90	-40.2	-41.7	26.4	3.02e+01	58	42	0	619184128	54	6575
2026-01-20 17:14:42.63	222.30	7.81	-40.1	-41.5	26.6	3.02e+01	61	42	0	620756992	54	6498
2026-01-20 17:14:43.64	222.26	7.73	-39.9	-41.3	26.7	3.02e+01	56	42	0	622854144	54	6340
2026-01-20 17:14:44.65	222.23	7.64	-40.1	-41.5	26.5	3.02e+01	59	42	0	624951296	54	6458
2026-01-20 17:14:45.65	222.19	7.56	-39.9	-41.3	26.7	3.02e+01	57	42	0	626524160	54	6316
2026-01-20 17:14:46.66	222.16	7.48	-39.9	-41.3	26.7	3.02e+01	50	42	0	628621312	54	6338
2026-01-20 17:14:47.67	222.12	7.39	-39.9	-41.3	26.7	3.02e+01	58	42	0	630194176	54	6321
2026-01-20 17:14:48.68	222.09	7.31	-40.0	-41.5	26.5	3.02e+01	57	42	0	632291328	54	6447
2026-01-20 17:14:49.69	222.06	7.23	-40.6	-42.1	25.7	3.02e+01	60	42	0	634388480	54	6929
2026-01-20 17:14:50.70	222.02	7.15	-40.6	-42.2	26.0	3.02e+01	61	42	0	635961344	54	6983
