passes_logs/2026/01/20/R4.6S_Anadyr/R4.6S_Anadyr__20260120_134751_AQUA_rec.log

#Pass ID: 20260120_134751_AQUA
#Satellite: AQUA
#Configuration: AQUA
#almurnet v.1.7.20251203
#Start time: 2026-01-20 13:47:53

#Version: 2.2.20231116
#Station: R4.6S_Anadyr
#Location: 177.4865 lon 64.73178 lat
#TLE: 1 27424U 02022A   26019.95447505  .00001296  00000+0  26931-3 0  9993
#TLE: 2 27424  98.4091 346.4652 0001983  72.1988 359.6274 14.61832814261618

#Time	Az	El	Level	Level2	SNR	BER	BlckErr	Temp	State	Recorded	gain1	gain2
2026-01-20 13:47:53.19	22.86	0.08	-51.7	-66.7	3.5	1.51e+00	0	40	0	0	60	77807
2026-01-20 13:47:54.19	22.96	0.12	-53.0	-70.9	3.5	3.02e+01	0	41	104	0	60	135264
2026-01-20 13:47:55.20	23.05	0.17	-52.7	-70.6	3.5	3.02e+01	0	41	104	0	60	130817
2026-01-20 13:47:56.21	23.15	0.21	-52.3	-70.2	3.5	3.02e+01	0	41	104	0	60	123991
2026-01-20 13:47:57.22	23.25	0.26	-52.6	-70.5	3.5	3.02e+01	0	41	104	0	60	129259
2026-01-20 13:47:58.23	23.35	0.30	-53.4	-71.3	3.5	3.02e+01	0	41	104	0	60	141090
2026-01-20 13:47:59.24	23.45	0.35	-52.5	-70.4	3.5	3.02e+01	0	41	104	0	60	126888
2026-01-20 13:48:00.25	23.55	0.39	-52.3	-70.2	3.5	3.02e+01	0	41	104	0	60	124458
2026-01-20 13:48:01.26	23.65	0.44	-52.4	-70.2	3.5	3.02e+01	0	41	104	0	60	125145
2026-01-20 13:48:02.27	23.75	0.49	-52.3	-70.2	3.5	3.02e+01	0	41	104	0	60	124187
2026-01-20 13:48:03.28	23.85	0.53	-52.1	-69.9	3.5	3.02e+01	0	41	104	0	60	120653
2026-01-20 13:48:04.29	23.95	0.58	-52.1	-70.0	3.5	3.02e+01	0	41	104	0	60	121648
2026-01-20 13:48:05.30	24.05	0.62	-52.0	-69.9	3.5	3.02e+01	0	41	104	0	60	120624
2026-01-20 13:48:06.31	24.15	0.67	-51.8	-69.8	3.5	3.02e+01	0	41	104	0	60	119241
2026-01-20 13:48:07.32	24.25	0.71	-51.8	-69.7	3.5	3.02e+01	0	42	104	0	60	117896
2026-01-20 13:48:08.33	24.35	0.76	-51.8	-69.6	3.5	3.02e+01	0	41	104	0	60	116152
2026-01-20 13:48:09.34	24.45	0.81	-51.7	-69.6	3.5	3.02e+01	0	41	104	0	60	116205
2026-01-20 13:48:10.35	24.56	0.85	-51.5	-69.5	3.5	3.02e+01	0	41	104	0	60	114609
2026-01-20 13:48:11.36	24.66	0.90	-51.5	-69.4	3.5	3.02e+01	0	41	104	0	60	113692
2026-01-20 13:48:12.37	24.76	0.94	-51.4	-69.4	3.5	3.02e+01	0	41	104	0	60	113234
2026-01-20 13:48:13.38	24.87	0.99	-51.3	-69.3	3.5	3.02e+01	0	41	104	0	60	112225
2026-01-20 13:48:14.39	24.97	1.04	-51.2	-69.2	3.5	3.02e+01	0	41	104	0	60	110362
2026-01-20 13:48:15.39	25.07	1.08	-51.0	-68.7	3.5	3.02e+01	0	41	104	0	60	105270
2026-01-20 13:48:16.40	25.18	1.13	-50.9	-68.8	3.5	3.02e+01	0	41	104	0	60	106181
2026-01-20 13:48:17.41	25.28	1.17	-50.6	-68.6	3.5	3.02e+01	0	41	104	0	60	103229
2026-01-20 13:48:18.42	25.39	1.22	-50.2	-68.2	3.5	3.02e+01	0	42	104	0	60	98858
2026-01-20 13:48:19.43	25.49	1.27	-49.9	-67.8	3.5	3.02e+01	0	41	104	0	60	94958
2026-01-20 13:48:20.44	25.60	1.31	-49.9	-67.9	3.5	3.02e+01	0	42	104	0	60	95125
2026-01-20 13:48:21.45	25.70	1.36	-49.9	-67.8	3.5	3.02e+01	0	42	104	0	60	95009
2026-01-20 13:48:22.46	25.81	1.40	-49.9	-67.8	3.5	3.02e+01	0	41	104	0	60	94502
2026-01-20 13:48:23.47	25.92	1.45	-49.8	-67.8	3.5	3.02e+01	0	41	104	0	60	94479
2026-01-20 13:48:24.48	26.02	1.50	-49.8	-67.8	3.5	3.02e+01	0	42	104	0	60	94478
2026-01-20 13:48:25.49	26.13	1.54	-50.0	-67.9	3.5	3.02e+01	0	42	104	0	60	96092
2026-01-20 13:48:26.50	26.24	1.59	-50.0	-67.9	3.5	3.02e+01	0	42	104	0	60	95780
2026-01-20 13:48:27.51	26.35	1.63	-49.9	-67.8	3.5	3.02e+01	0	42	104	0	60	94955
2026-01-20 13:48:28.52	26.46	1.68	-49.9	-67.8	3.5	3.02e+01	0	41	104	0	60	94109
2026-01-20 13:48:29.53	26.57	1.73	-49.9	-67.7	3.5	3.02e+01	0	42	104	0	60	93369
2026-01-20 13:48:30.54	26.67	1.77	-49.9	-67.7	3.5	3.02e+01	0	42	104	0	60	93521
2026-01-20 13:48:31.55	26.78	1.82	-49.9	-67.9	3.5	3.02e+01	0	42	104	0	60	95120
2026-01-20 13:48:32.56	26.89	1.86	-49.9	-67.9	3.5	3.02e+01	0	42	104	0	60	95771
2026-01-20 13:48:33.57	27.00	1.91	-49.9	-67.9	3.5	3.02e+01	0	42	104	0	60	95281
2026-01-20 13:48:34.58	27.12	1.96	-49.9	-67.9	3.5	3.02e+01	0	42	104	0	60	95064
2026-01-20 13:48:35.59	27.23	2.00	-49.9	-67.9	3.5	3.02e+01	0	42	104	0	60	95339
2026-01-20 13:48:36.60	27.34	2.05	-49.9	-67.8	3.5	3.02e+01	0	42	104	0	60	94714
2026-01-20 13:48:37.61	27.45	2.09	-49.9	-67.9	3.5	3.02e+01	0	42	104	0	60	95015
2026-01-20 13:48:38.62	27.56	2.14	-49.8	-67.8	3.5	3.02e+01	0	42	104	0	60	94603
2026-01-20 13:48:39.63	27.67	2.19	-49.9	-67.8	3.5	3.02e+01	0	42	104	0	60	94789
2026-01-20 13:48:40.64	27.79	2.23	-49.9	-67.8	3.5	3.02e+01	0	42	104	0	60	94654
2026-01-20 13:48:41.65	27.90	2.28	-49.8	-67.8	3.5	3.02e+01	0	42	104	0	60	94662
2026-01-20 13:48:42.66	28.01	2.32	-49.9	-67.8	3.5	3.02e+01	0	42	104	0	60	94931
2026-01-20 13:48:43.67	28.13	2.37	-49.9	-67.8	3.5	3.02e+01	0	42	104	0	60	94773
2026-01-20 13:48:44.68	28.24	2.42	-49.9	-67.8	3.5	3.02e+01	0	42	104	0	60	94906
2026-01-20 13:48:45.68	28.36	2.46	-49.9	-67.8	3.5	3.02e+01	0	42	104	0	60	94673
2026-01-20 13:48:46.69	28.47	2.51	-49.8	-67.5	3.5	3.02e+01	0	42	104	0	60	91763
2026-01-20 13:48:47.71	28.59	2.55	-49.8	-67.7	3.5	3.02e+01	0	42	104	0	60	92893
2026-01-20 13:48:48.72	28.70	2.60	-49.8	-67.2	3.5	3.02e+01	0	42	104	0	60	88309
2026-01-20 13:48:49.73	28.82	2.65	-49.8	-67.5	3.5	3.02e+01	0	42	104	0	60	91118
2026-01-20 13:48:50.74	28.94	2.69	-49.4	-65.5	3.5	3.02e+01	0	42	104	0	60	72240
2026-01-20 13:48:51.75	29.05	2.74	-47.7	-60.8	3.7	3.02e+01	0	42	104	0	60	42215
2026-01-20 13:48:52.76	29.17	2.79	-45.6	-57.3	3.6	3.02e+01	0	42	104	0	60	28152
2026-01-20 13:48:53.77	29.29	2.83	-45.2	-56.7	3.5	3.02e+01	0	42	104	0	60	26285
2026-01-20 13:48:54.78	29.41	2.88	-43.2	-54.0	3.5	3.02e+01	0	42	104	0	60	19308
2026-01-20 13:48:55.79	29.53	2.92	-43.0	-53.9	3.5	3.02e+01	0	42	104	0	60	19066
2026-01-20 13:48:56.80	29.64	2.97	-45.4	-57.0	3.5	3.02e+01	0	42	104	0	60	27110
2026-01-20 13:48:57.81	29.76	3.02	-45.2	-56.8	3.5	3.02e+01	0	42	104	0	60	26515
2026-01-20 13:48:58.82	29.88	3.06	-42.3	-53.0	3.5	3.02e+01	0	42	104	0	60	17165
2026-01-20 13:48:59.83	30.00	3.11	-46.2	-58.1	3.5	3.02e+01	0	42	104	0	58	34783
2026-01-20 13:49:00.84	30.12	3.15	-46.0	-58.0	3.5	3.02e+01	0	42	104	0	60	30514
2026-01-20 13:49:01.85	30.24	3.20	-45.8	-57.3	3.5	3.02e+01	0	42	104	0	60	28127
2026-01-20 13:49:02.86	30.37	3.25	-48.8	-63.2	3.5	3.02e+01	0	42	104	0	60	55414
2026-01-20 13:49:03.87	30.49	3.29	-47.5	-60.1	3.6	3.02e+01	0	42	104	0	60	38768
2026-01-20 13:49:04.88	30.61	3.34	-41.9	-52.5	3.5	3.02e+01	0	42	104	0	58	18194
2026-01-20 13:49:05.89	30.73	3.38	-42.7	-53.4	3.5	3.02e+01	0	42	104	0	58	20136
2026-01-20 13:49:06.90	30.86	3.43	-45.2	-56.5	3.5	3.02e+01	0	42	104	0	60	25705
2026-01-20 13:49:07.91	30.98	3.47	-41.5	-52.1	3.5	3.02e+01	0	42	104	0	58	17331
2026-01-20 13:49:08.92	31.10	3.52	-45.2	-56.6	3.5	3.02e+01	0	42	104	0	60	26017
2026-01-20 13:49:09.93	31.23	3.57	-49.6	-66.3	3.5	3.02e+01	0	42	104	0	60	79093
2026-01-20 13:49:10.93	31.35	3.61	-46.2	-57.8	3.5	3.02e+01	0	42	104	0	60	30027
2026-01-20 13:49:11.94	31.47	3.66	-49.7	-66.6	3.5	3.02e+01	0	42	104	0	60	82438
2026-01-20 13:49:12.95	31.60	3.70	-44.4	-55.4	3.5	3.02e+01	0	42	104	0	60	22749
2026-01-20 13:49:13.96	31.73	3.75	-43.0	-53.7	3.6	3.02e+01	0	42	104	0	60	18668
2026-01-20 13:49:14.97	31.85	3.80	-41.6	-52.1	3.5	3.02e+01	0	42	104	0	58	17416
2026-01-20 13:49:15.98	31.98	3.84	-43.1	-53.8	3.5	3.02e+01	0	42	104	0	60	18828
2026-01-20 13:49:16.99	32.11	3.89	-50.2	-68.1	3.5	3.02e+01	0	42	104	0	60	98087
2026-01-20 13:49:18.00	32.23	3.93	-45.6	-57.1	3.6	3.02e+01	0	42	104	0	60	27571
2026-01-20 13:49:19.00	32.36	3.98	-49.9	-66.9	3.5	3.02e+01	0	42	104	0	60	85052
2026-01-20 13:49:20.01	32.49	4.02	-49.9	-67.5	3.5	3.02e+01	0	42	104	0	60	91182
2026-01-20 13:49:21.02	32.62	4.07	-42.2	-52.8	3.5	3.02e+01	0	42	104	0	58	18849
2026-01-20 13:49:22.03	32.75	4.12	-43.4	-54.1	3.5	3.02e+01	0	42	104	0	60	19557
2026-01-20 13:49:23.04	32.88	4.16	-43.5	-54.3	3.5	3.02e+01	0	42	104	0	60	20035
2026-01-20 13:49:24.05	33.01	4.21	-41.8	-52.3	3.5	3.02e+01	0	42	104	0	56	19916
2026-01-20 13:49:25.06	33.14	4.25	-42.8	-53.4	3.5	3.02e+01	0	42	104	0	60	18050
2026-01-20 13:49:26.07	33.27	4.30	-44.5	-55.4	3.5	3.02e+01	0	42	104	0	60	22779
2026-01-20 13:49:27.08	33.40	4.34	-44.5	-55.5	3.5	3.02e+01	0	42	104	0	60	22987
2026-01-20 13:49:28.08	33.53	4.39	-50.4	-68.2	3.5	3.02e+01	0	42	104	0	60	99128
2026-01-20 13:49:29.09	33.66	4.43	-49.9	-67.0	3.5	3.02e+01	0	42	104	0	60	85924
2026-01-20 13:49:30.10	33.79	4.48	-45.6	-57.0	3.5	3.02e+01	0	42	104	0	60	27206
2026-01-20 13:49:31.11	33.93	4.52	-43.7	-54.5	3.5	3.02e+01	0	42	104	0	60	20376
2026-01-20 13:49:32.12	34.06	4.57	-40.3	-50.7	3.6	3.02e+01	0	42	104	0	56	16587
2026-01-20 13:49:33.13	34.19	4.61	-43.3	-54.1	3.5	3.02e+01	0	42	104	0	60	19580
2026-01-20 13:49:34.14	34.33	4.66	-40.7	-51.1	3.5	3.02e+01	0	42	104	0	54	19576
2026-01-20 13:49:35.15	34.46	4.71	-44.7	-55.8	3.5	3.02e+01	0	42	104	0	60	23779
2026-01-20 13:49:36.16	34.60	4.75	-41.6	-52.1	3.5	3.02e+01	0	42	104	0	58	17327
2026-01-20 13:49:37.17	34.73	4.80	-50.3	-68.3	3.5	3.02e+01	0	42	104	0	60	99597
2026-01-20 13:49:38.18	34.87	4.84	-50.2	-67.0	3.5	3.02e+01	0	42	104	0	60	86569
2026-01-20 13:49:39.18	35.00	4.89	-46.4	-58.0	3.5	3.02e+01	0	42	104	0	60	30420
2026-01-20 13:49:40.19	35.14	4.93	-43.3	-54.0	3.6	3.02e+01	0	42	104	0	60	19337
2026-01-20 13:49:41.20	35.28	4.98	-41.8	-52.4	3.5	3.02e+01	0	42	104	0	58	18009
2026-01-20 13:49:42.20	35.42	5.02	-41.4	-51.8	3.5	3.02e+01	0	42	104	0	58	16838
2026-01-20 13:49:43.22	35.56	5.07	-41.8	-52.3	3.5	3.02e+01	0	42	104	0	58	17845
2026-01-20 13:49:44.23	35.69	5.11	-42.9	-53.6	3.5	3.02e+01	0	42	104	0	60	18341
2026-01-20 13:49:45.23	35.83	5.16	-41.9	-52.4	3.5	3.02e+01	0	42	104	0	60	16003
2026-01-20 13:49:46.24	35.97	5.20	-50.6	-68.2	3.5	3.02e+01	0	42	104	0	60	99394
2026-01-20 13:49:47.25	36.11	5.24	-50.4	-67.5	3.5	3.02e+01	0	42	104	0	60	90960
2026-01-20 13:49:48.27	36.25	5.29	-48.1	-60.8	3.5	3.02e+01	0	42	104	0	60	42227
2026-01-20 13:49:49.28	36.39	5.33	-42.5	-53.1	3.5	3.02e+01	0	42	104	0	60	17489
2026-01-20 13:49:50.29	36.54	5.38	-41.1	-51.5	3.5	3.02e+01	0	42	104	0	58	16298
2026-01-20 13:49:51.29	36.68	5.42	-41.3	-51.8	3.6	3.02e+01	0	42	104	0	58	16790
2026-01-20 13:49:52.30	36.82	5.47	-40.5	-50.8	3.5	3.02e+01	0	42	104	0	56	16861
2026-01-20 13:49:53.31	36.96	5.51	-46.7	-58.5	3.5	3.02e+01	0	42	104	0	60	32541
2026-01-20 13:49:54.31	37.10	5.56	-44.3	-55.2	3.5	3.02e+01	0	42	104	0	60	22238
2026-01-20 13:49:55.32	37.25	5.60	-50.4	-67.6	3.5	3.02e+01	0	42	104	0	60	91989
2026-01-20 13:49:56.33	37.39	5.64	-50.3	-67.4	3.5	3.02e+01	0	42	104	0	60	89709
2026-01-20 13:49:57.34	37.54	5.69	-47.3	-59.3	3.5	3.02e+01	0	42	104	0	60	35627
2026-01-20 13:49:58.36	37.68	5.73	-42.9	-53.6	3.5	3.02e+01	0	42	104	0	60	18404
2026-01-20 13:49:59.36	37.83	5.78	-41.4	-51.9	3.5	3.02e+01	0	42	104	0	58	17038
2026-01-20 13:50:00.37	37.97	5.82	-44.2	-55.2	3.5	3.02e+01	0	42	104	0	60	22085
2026-01-20 13:50:01.38	38.12	5.87	-41.6	-52.1	3.5	3.02e+01	0	42	104	0	58	17320
2026-01-20 13:50:02.39	38.27	5.91	-44.4	-55.3	3.5	3.02e+01	0	42	104	0	60	22474
2026-01-20 13:50:03.40	38.41	5.95	-47.3	-59.2	3.5	3.02e+01	0	42	104	0	60	35153
2026-01-20 13:50:04.41	38.56	6.00	-50.5	-67.6	3.5	3.02e+01	0	42	104	0	60	92331
2026-01-20 13:50:05.42	38.71	6.04	-44.9	-56.0	3.5	3.02e+01	0	42	104	0	60	24179
2026-01-20 13:50:06.43	38.86	6.08	-50.5	-68.0	3.5	3.02e+01	0	42	104	0	60	96229
2026-01-20 13:50:07.44	39.01	6.13	-44.6	-55.6	3.5	3.02e+01	0	42	104	0	60	23217
2026-01-20 13:50:08.45	39.16	6.17	-44.9	-56.0	3.5	3.02e+01	0	42	104	0	60	24182
2026-01-20 13:50:09.46	39.31	6.21	-44.2	-55.2	3.5	3.02e+01	0	42	104	0	60	22044
2026-01-20 13:50:10.47	39.46	6.26	-45.0	-56.1	3.5	3.02e+01	0	42	104	0	60	24524
2026-01-20 13:50:11.47	39.61	6.30	-49.9	-65.3	3.5	3.02e+01	0	42	104	0	60	71089
2026-01-20 13:50:12.48	39.76	6.34	-41.3	-51.8	3.5	3.02e+01	0	42	104	0	58	16716
2026-01-20 13:50:13.49	39.91	6.39	-50.6	-67.7	3.5	3.02e+01	0	42	104	0	60	93556
2026-01-20 13:50:14.50	40.07	6.43	-50.1	-65.8	3.5	3.02e+01	0	42	104	0	60	75242
2026-01-20 13:50:15.52	40.22	6.47	-46.1	-57.6	3.5	3.02e+01	0	42	104	0	60	29143
2026-01-20 13:50:16.52	40.37	6.52	-41.8	-52.3	3.5	3.02e+01	0	42	104	0	58	17802
2026-01-20 13:50:17.53	40.53	6.56	-41.5	-52.0	3.5	3.02e+01	0	42	104	0	58	17147
2026-01-20 13:50:18.54	40.68	6.60	-41.6	-52.0	3.5	3.02e+01	0	42	104	0	58	17136
2026-01-20 13:50:19.55	40.84	6.64	-41.3	-51.6	3.5	3.02e+01	0	42	104	0	58	16508
2026-01-20 13:50:20.56	40.99	6.69	-40.5	-50.9	3.5	3.02e+01	0	42	104	0	56	16936
2026-01-20 13:50:21.58	41.15	6.73	-42.2	-52.9	3.7	3.02e+01	0	42	104	0	56	21344
2026-01-20 13:50:22.59	41.31	6.77	-50.8	-68.5	3.5	3.02e+01	0	42	104	0	60	102741
2026-01-20 13:50:23.60	41.46	6.81	-49.8	-64.9	3.6	3.02e+01	0	42	104	0	60	67270
2026-01-20 13:50:24.61	41.62	6.86	-44.1	-55.3	3.5	3.02e+01	0	42	104	0	60	22415
2026-01-20 13:50:25.62	41.78	6.90	-41.5	-52.1	3.5	3.02e+01	0	42	104	0	56	19415
2026-01-20 13:50:26.63	41.94	6.94	-41.1	-51.5	3.5	3.02e+01	0	42	104	0	58	16270
2026-01-20 13:50:27.64	42.09	6.98	-41.0	-51.6	3.5	3.02e+01	0	42	104	0	56	18391
2026-01-20 13:50:28.65	42.25	7.02	-40.2	-50.7	3.5	3.02e+01	0	42	104	0	56	16524
2026-01-20 13:50:29.66	42.41	7.07	-41.6	-52.2	3.5	3.02e+01	0	42	104	0	56	19808
2026-01-20 13:50:30.67	42.57	7.11	-41.7	-52.3	3.5	3.02e+01	0	42	104	0	56	20026
2026-01-20 13:50:31.68	42.73	7.15	-50.4	-68.5	3.5	3.02e+01	0	42	104	0	60	102371
2026-01-20 13:50:32.69	42.90	7.19	-45.7	-57.3	3.6	3.02e+01	0	42	104	0	60	28346
2026-01-20 13:50:33.70	43.06	7.23	-44.9	-56.0	3.5	3.02e+01	0	42	104	0	60	24145
2026-01-20 13:50:34.71	43.22	7.27	-41.7	-52.2	3.5	3.02e+01	0	42	104	0	58	17581
2026-01-20 13:50:35.71	43.38	7.31	-42.0	-52.6	3.6	3.02e+01	0	42	104	0	58	18380
2026-01-20 13:50:36.72	43.54	7.36	-40.8	-51.2	3.5	3.02e+01	0	42	104	0	56	17580
2026-01-20 13:50:37.73	43.71	7.40	-40.7	-51.1	3.5	3.02e+01	0	42	104	0	56	17442
2026-01-20 13:50:38.74	43.87	7.44	-41.3	-51.7	3.5	3.02e+01	0	42	104	0	56	18661
2026-01-20 13:50:39.75	44.04	7.48	-43.0	-53.7	3.5	3.02e+01	0	42	104	0	56	23411
2026-01-20 13:50:40.76	44.20	7.52	-49.8	-65.5	3.5	3.02e+01	0	42	104	0	60	72560
2026-01-20 13:50:41.77	44.37	7.56	-41.4	-51.8	3.6	3.02e+01	0	42	104	0	60	14959
2026-01-20 13:50:42.78	44.53	7.60	-44.2	-55.2	3.5	3.02e+01	0	42	104	0	60	22043
2026-01-20 13:50:43.79	44.70	7.64	-42.1	-52.6	3.5	3.02e+01	0	42	104	0	58	18423
2026-01-20 13:50:44.80	44.87	7.68	-41.6	-52.1	3.5	3.02e+01	0	42	104	0	58	17339
2026-01-20 13:50:45.81	45.04	7.72	-40.3	-50.7	3.5	3.02e+01	0	42	104	0	56	16523
2026-01-20 13:50:46.82	45.20	7.76	-40.1	-50.4	3.5	3.02e+01	0	42	104	0	54	18102
2026-01-20 13:50:47.83	45.37	7.80	-41.1	-51.6	3.5	3.02e+01	0	42	104	0	56	18363
2026-01-20 13:50:48.84	45.54	7.84	-46.2	-57.7	3.5	3.02e+01	0	42	104	0	60	29476
2026-01-20 13:50:49.84	45.71	7.88	-50.1	-66.2	3.5	3.02e+01	0	42	104	0	60	78634
2026-01-20 13:50:50.85	45.88	7.92	-40.9	-51.3	3.6	3.02e+01	0	42	104	0	56	17862
2026-01-20 13:50:51.86	46.05	7.96	-43.6	-54.4	3.6	3.02e+01	0	42	104	0	60	20152
2026-01-20 13:50:52.87	46.22	7.99	-40.7	-51.0	3.6	3.02e+01	0	42	104	0	56	17266
2026-01-20 13:50:53.88	46.39	8.03	-40.6	-50.9	3.5	3.02e+01	0	42	104	0	56	17015
2026-01-20 13:50:54.89	46.56	8.07	-40.6	-50.9	3.6	3.02e+01	0	42	104	0	56	16992
2026-01-20 13:50:55.89	46.74	8.11	-44.8	-55.7	3.5	3.02e+01	0	42	104	0	60	23471
2026-01-20 13:50:56.91	46.91	8.15	-40.4	-50.7	3.5	3.02e+01	0	42	104	0	56	16634
2026-01-20 13:50:57.92	47.08	8.19	-49.6	-64.0	3.5	3.02e+01	0	42	104	0	60	60782
2026-01-20 13:50:58.93	47.26	8.23	-50.2	-66.9	3.5	3.02e+01	0	42	104	0	60	85236
2026-01-20 13:50:59.94	47.43	8.26	-41.4	-51.8	3.5	3.02e+01	0	42	104	0	56	18946
2026-01-20 13:51:00.95	47.61	8.30	-41.6	-52.1	3.5	3.02e+01	0	42	104	0	60	15513
2026-01-20 13:51:01.96	47.78	8.34	-41.3	-51.8	3.5	3.02e+01	0	42	104	0	58	16737
2026-01-20 13:51:02.97	47.96	8.38	-41.4	-51.8	3.6	3.02e+01	0	42	104	0	56	18873
2026-01-20 13:51:03.98	48.13	8.41	-41.6	-52.0	3.5	3.02e+01	0	42	104	0	56	19188
2026-01-20 13:51:04.99	48.31	8.45	-40.7	-51.1	3.5	3.02e+01	0	42	104	0	56	17350
2026-01-20 13:51:06.00	48.49	8.49	-40.9	-51.4	3.5	3.02e+01	0	42	104	0	56	17955
2026-01-20 13:51:07.01	48.67	8.52	-50.2	-65.8	3.5	3.02e+01	0	42	104	0	60	75230
2026-01-20 13:51:08.02	48.84	8.56	-50.3	-66.6	3.5	3.02e+01	0	42	104	0	60	81845
2026-01-20 13:51:09.03	49.02	8.60	-40.9	-51.2	3.5	3.02e+01	0	42	104	0	54	19800
2026-01-20 13:51:10.04	49.20	8.63	-41.6	-52.1	3.6	3.02e+01	0	42	104	0	60	15420
2026-01-20 13:51:11.05	49.38	8.67	-41.2	-51.5	3.5	3.02e+01	0	42	104	0	58	16321
2026-01-20 13:51:12.06	49.56	8.71	-40.5	-50.9	3.5	3.02e+01	0	42	104	0	56	17021
2026-01-20 13:51:13.07	49.74	8.74	-40.9	-51.3	3.5	3.02e+01	0	42	104	0	56	17853
2026-01-20 13:51:14.08	49.92	8.78	-40.7	-51.1	3.5	3.02e+01	0	42	104	0	56	17321
2026-01-20 13:51:15.09	50.10	8.81	-41.0	-51.4	3.5	3.02e+01	0	42	104	0	56	17985
2026-01-20 13:51:16.10	50.29	8.85	-50.9	-68.3	3.5	3.02e+01	0	42	104	0	60	100156
2026-01-20 13:51:17.10	50.47	8.88	-50.7	-67.5	3.5	3.02e+01	0	42	104	0	60	91014
2026-01-20 13:51:18.11	50.65	8.92	-45.1	-56.4	3.5	3.02e+01	0	42	104	0	60	25482
2026-01-20 13:51:19.12	50.83	8.95	-39.9	-50.3	3.5	3.02e+01	0	42	104	0	56	15790
2026-01-20 13:51:20.13	51.02	8.99	-39.5	-49.9	3.5	3.02e+01	0	42	104	0	54	17066
2026-01-20 13:51:21.14	51.20	9.02	-39.4	-49.9	3.6	3.02e+01	0	42	104	0	54	17001
2026-01-20 13:51:22.15	51.39	9.06	-39.8	-50.4	3.5	3.02e+01	0	42	104	0	54	17991
2026-01-20 13:51:23.16	51.57	9.09	-45.0	-56.6	3.6	3.02e+01	0	42	104	0	60	25998
2026-01-20 13:51:24.17	51.76	9.12	-40.3	-50.6	3.5	3.02e+01	0	42	104	0	54	18508
2026-01-20 13:51:25.17	51.94	9.16	-49.4	-68.3	3.5	3.02e+01	0	42	104	0	60	99920
2026-01-20 13:51:26.18	52.13	9.19	-48.9	-67.7	3.5	3.02e+01	0	42	104	0	60	93312
2026-01-20 13:51:27.19	52.31	9.22	-44.9	-55.9	3.5	3.02e+01	0	42	104	0	60	24016
2026-01-20 13:51:28.20	52.50	9.26	-41.2	-51.6	3.5	3.02e+01	0	42	104	0	56	18368
2026-01-20 13:51:29.21	52.69	9.29	-41.2	-51.6	3.5	3.02e+01	0	42	104	0	56	18486
2026-01-20 13:51:30.22	52.88	9.32	-41.5	-52.0	3.6	3.02e+01	0	42	104	0	56	19332
2026-01-20 13:51:31.23	53.07	9.36	-40.5	-50.9	3.5	3.02e+01	0	42	104	0	56	16920
2026-01-20 13:51:32.24	53.26	9.39	-40.2	-50.7	3.6	3.02e+01	0	42	104	0	54	18605
2026-01-20 13:51:33.25	53.45	9.42	-40.3	-50.9	3.5	3.02e+01	0	42	104	0	54	18960
2026-01-20 13:51:34.26	53.64	9.45	-50.9	-67.8	3.5	3.02e+01	0	42	104	0	60	94193
2026-01-20 13:51:35.27	53.83	9.48	-49.7	-67.3	3.5	3.02e+01	0	42	104	0	60	88997
2026-01-20 13:51:36.27	54.02	9.51	-46.0	-57.6	3.5	3.02e+01	0	42	104	0	60	29172
2026-01-20 13:51:37.28	54.21	9.55	-41.1	-51.7	3.6	3.02e+01	0	42	104	0	58	16635
2026-01-20 13:51:38.30	54.40	9.58	-41.6	-52.2	3.6	3.02e+01	0	42	104	0	56	19763
2026-01-20 13:51:39.31	54.59	9.61	-40.4	-50.8	3.5	3.02e+01	0	42	104	0	56	16718
2026-01-20 13:51:40.31	54.78	9.64	-40.0	-50.3	3.5	3.02e+01	0	42	104	0	56	15853
2026-01-20 13:51:41.32	54.98	9.67	-46.1	-57.4	3.5	3.02e+01	0	42	104	0	60	28491
2026-01-20 13:51:42.33	55.17	9.70	-40.8	-51.2	3.5	3.02e+01	0	42	104	0	56	17496
2026-01-20 13:51:43.34	55.36	9.73	-50.1	-68.1	3.5	3.02e+01	0	42	104	0	60	98168
2026-01-20 13:51:44.35	55.56	9.76	-50.6	-66.8	3.5	3.02e+01	0	42	104	0	60	84669
2026-01-20 13:51:45.36	55.75	9.79	-46.3	-57.7	3.5	3.02e+01	0	42	104	0	60	29683
2026-01-20 13:51:46.37	55.95	9.82	-40.4	-50.7	3.5	3.02e+01	0	42	104	0	56	16530
2026-01-20 13:51:47.38	56.14	9.84	-40.5	-50.8	3.5	3.02e+01	0	42	104	0	56	16824
2026-01-20 13:51:48.39	56.34	9.87	-40.5	-50.9	3.5	3.02e+01	0	42	104	0	56	16986
2026-01-20 13:51:49.40	56.54	9.90	-39.7	-50.1	3.5	3.02e+01	0	42	104	0	56	15478
2026-01-20 13:51:50.41	56.73	9.93	-45.1	-56.2	3.6	3.02e+01	0	42	104	0	60	24927
2026-01-20 13:51:51.42	56.93	9.96	-39.8	-50.1	3.5	3.02e+01	0	42	104	0	54	17474
2026-01-20 13:51:52.43	57.13	9.99	-50.8	-68.0	3.5	3.02e+01	0	42	104	0	60	96349
2026-01-20 13:51:53.43	57.33	10.01	-49.2	-64.7	3.5	3.02e+01	0	42	104	0	60	66060
2026-01-20 13:51:54.44	57.52	10.04	-45.4	-56.8	3.5	3.02e+01	0	42	104	0	60	26754
2026-01-20 13:51:55.45	57.72	10.07	-40.7	-51.1	3.5	3.02e+01	0	42	104	0	56	17439
2026-01-20 13:51:56.46	57.92	10.09	-40.3	-50.7	3.5	3.02e+01	0	42	104	0	56	16520
2026-01-20 13:51:57.47	58.12	10.12	-41.6	-52.0	3.5	3.02e+01	0	42	104	0	56	19384
2026-01-20 13:51:58.48	58.32	10.15	-40.9	-51.3	3.5	3.02e+01	0	42	104	0	56	17709
2026-01-20 13:51:59.49	58.52	10.17	-44.3	-55.2	3.5	3.02e+01	0	42	104	0	60	22167
2026-01-20 13:52:00.50	58.72	10.20	-39.6	-49.9	3.6	3.02e+01	0	42	104	0	54	16965
2026-01-20 13:52:01.51	58.92	10.22	-50.9	-67.7	3.5	3.02e+01	0	42	104	0	60	93653
2026-01-20 13:52:02.52	59.13	10.25	-49.4	-63.9	3.5	3.02e+01	0	42	104	0	60	60163
2026-01-20 13:52:03.53	59.33	10.27	-46.7	-58.3	3.5	3.02e+01	0	42	104	0	60	31739
2026-01-20 13:52:04.54	59.53	10.30	-41.0	-51.4	3.5	3.02e+01	0	42	104	0	56	18095
2026-01-20 13:52:05.55	59.73	10.32	-40.5	-50.9	3.5	3.02e+01	0	42	104	0	56	16917
2026-01-20 13:52:06.56	59.93	10.34	-40.8	-51.1	3.5	3.02e+01	0	42	104	0	56	17368
2026-01-20 13:52:07.57	60.14	10.37	-40.4	-50.7	3.5	3.02e+01	0	42	104	0	56	16586
2026-01-20 13:52:08.58	60.34	10.39	-39.9	-50.2	3.5	3.02e+01	0	42	104	0	54	17533
2026-01-20 13:52:09.58	60.54	10.41	-40.5	-50.8	3.5	3.02e+01	0	42	104	0	54	18889
2026-01-20 13:52:10.59	60.75	10.44	-50.4	-68.3	3.5	3.02e+01	0	42	104	0	60	100573
2026-01-20 13:52:11.60	60.95	10.46	-47.1	-59.0	3.6	3.02e+01	0	42	104	0	60	34371
2026-01-20 13:52:12.61	61.16	10.48	-44.3	-55.2	3.5	3.02e+01	0	42	104	0	60	22029
2026-01-20 13:52:13.62	61.36	10.50	-39.7	-49.9	3.5	3.02e+01	0	42	104	0	54	17083
2026-01-20 13:52:14.63	61.57	10.53	-41.0	-51.4	3.5	3.02e+01	0	42	104	0	54	20249
2026-01-20 13:52:15.64	61.77	10.55	-41.5	-52.1	3.5	3.02e+01	0	42	104	0	56	19575
2026-01-20 13:52:16.65	61.98	10.57	-39.6	-50.0	3.5	3.02e+01	0	42	104	0	56	15262
2026-01-20 13:52:17.66	62.19	10.59	-39.4	-49.7	3.6	3.02e+01	0	42	104	0	54	16596
2026-01-20 13:52:18.67	62.39	10.61	-40.8	-51.3	3.5	3.02e+01	0	42	104	0	54	19881
2026-01-20 13:52:19.68	62.60	10.63	-50.8	-68.3	3.5	3.02e+01	0	42	104	0	60	100626
2026-01-20 13:52:20.69	62.81	10.65	-44.5	-55.8	3.6	3.02e+01	0	42	104	0	60	23764
2026-01-20 13:52:21.70	63.02	10.67	-43.4	-55.1	3.6	3.02e+01	0	42	104	0	60	21800
2026-01-20 13:52:22.71	63.22	10.69	-40.1	-50.6	3.6	3.02e+01	0	42	104	0	56	16326
2026-01-20 13:52:23.72	63.43	10.71	-40.0	-50.4	3.5	3.02e+01	0	42	104	0	54	18104
2026-01-20 13:52:24.73	63.64	10.73	-39.7	-50.1	3.5	3.02e+01	0	42	104	0	54	17418
2026-01-20 13:52:25.73	63.85	10.75	-38.8	-49.1	3.6	3.02e+01	0	42	104	0	52	17310
2026-01-20 13:52:26.74	64.06	10.76	-40.3	-50.9	3.5	3.02e+01	0	42	104	0	54	19086
2026-01-20 13:52:27.75	64.27	10.78	-41.0	-51.7	3.5	3.02e+01	0	42	104	0	54	20963
2026-01-20 13:52:28.75	64.48	10.80	-48.6	-65.6	3.5	3.02e+01	0	42	104	0	60	73430
2026-01-20 13:52:29.76	64.69	10.82	-40.0	-50.3	3.6	3.02e+01	0	42	104	0	60	12578
2026-01-20 13:52:30.77	64.90	10.83	-42.7	-53.3	3.6	3.02e+01	0	42	104	0	60	17779
2026-01-20 13:52:31.78	65.11	10.85	-40.9	-51.3	3.5	3.02e+01	0	42	104	0	56	17716
2026-01-20 13:52:32.79	65.32	10.87	-40.4	-50.7	3.5	3.02e+01	0	42	104	0	56	16661
2026-01-20 13:52:33.80	65.53	10.88	-40.5	-50.9	3.5	3.02e+01	0	42	104	0	56	16923
2026-01-20 13:52:34.81	65.74	10.90	-39.2	-49.5	3.5	3.02e+01	0	42	104	0	54	16312
2026-01-20 13:52:35.82	65.95	10.91	-40.1	-50.4	3.5	3.02e+01	0	42	104	0	54	17950
2026-01-20 13:52:36.83	66.16	10.93	-45.0	-56.0	3.5	3.02e+01	0	42	104	0	58	27250
2026-01-20 13:52:37.84	66.37	10.94	-49.4	-63.6	3.5	3.02e+01	0	42	104	0	60	58197
2026-01-20 13:52:38.84	66.58	10.96	-39.2	-49.5	3.5	3.02e+01	0	42	104	0	58	12935
2026-01-20 13:52:39.85	66.80	10.97	-41.7	-52.3	3.7	3.02e+01	0	42	104	0	60	15789
2026-01-20 13:52:40.86	67.01	10.99	-39.6	-50.1	3.5	3.02e+01	0	42	104	0	54	17307
2026-01-20 13:52:41.87	67.22	11.00	-38.8	-49.1	3.5	3.02e+01	0	42	104	0	52	17457
2026-01-20 13:52:42.88	67.44	11.01	-39.4	-49.7	3.5	3.02e+01	0	42	104	0	52	18581
2026-01-20 13:52:43.88	67.65	11.02	-41.0	-51.6	3.6	3.02e+01	0	42	104	0	54	20751
2026-01-20 13:52:44.89	67.86	11.04	-40.6	-51.2	3.5	3.02e+01	0	42	104	0	56	17620
2026-01-20 13:52:45.90	68.07	11.05	-47.5	-61.6	3.5	3.02e+01	0	42	104	0	60	46311
2026-01-20 13:52:46.91	68.29	11.06	-47.8	-65.5	3.5	3.02e+01	0	42	104	0	60	72635
2026-01-20 13:52:47.92	68.50	11.07	-40.0	-50.5	3.5	3.02e+01	0	42	104	0	52	20426
2026-01-20 13:52:48.93	68.72	11.08	-40.9	-51.6	3.5	3.02e+01	0	42	104	0	58	16374
2026-01-20 13:52:49.94	68.93	11.09	-39.3	-49.8	3.5	3.02e+01	0	42	104	0	54	16838
2026-01-20 13:52:50.95	69.15	11.11	-39.6	-50.2	3.5	3.02e+01	0	42	104	0	54	17506
2026-01-20 13:52:51.96	69.36	11.12	-39.2	-49.6	3.5	3.02e+01	0	42	104	0	54	16416
2026-01-20 13:52:52.97	69.58	11.13	-38.7	-49.2	3.5	3.02e+01	0	42	104	0	52	17551
2026-01-20 13:52:53.98	69.79	11.13	-39.5	-49.8	3.5	3.02e+01	0	42	104	0	52	18796
2026-01-20 13:52:54.99	70.01	11.14	-48.8	-65.6	3.5	3.02e+01	0	42	104	0	60	73724
2026-01-20 13:52:56.00	70.22	11.15	-50.2	-66.1	3.5	3.02e+01	0	42	104	0	60	77408
2026-01-20 13:52:57.01	70.44	11.16	-40.8	-51.2	3.5	3.02e+01	0	42	104	0	54	19811
2026-01-20 13:52:58.02	70.65	11.17	-41.6	-52.0	3.5	3.02e+01	0	42	104	0	58	17239
2026-01-20 13:52:59.03	70.87	11.18	-40.7	-51.0	3.5	3.02e+01	0	42	104	0	56	17239
2026-01-20 13:53:00.04	71.08	11.18	-39.7	-50.0	3.5	3.02e+01	0	42	104	0	54	17267
2026-01-20 13:53:01.05	71.30	11.19	-39.5	-49.8	3.5	3.02e+01	0	42	104	0	54	16849
2026-01-20 13:53:02.06	71.52	11.20	-41.9	-52.4	3.5	3.02e+01	0	42	104	0	56	20219
2026-01-20 13:53:03.07	71.73	11.20	-40.4	-50.7	3.5	3.02e+01	0	42	104	0	56	16652
2026-01-20 13:53:04.08	71.95	11.21	-50.7	-67.9	3.5	3.02e+01	0	42	104	0	60	95121
2026-01-20 13:53:05.09	72.16	11.22	-50.7	-67.6	3.5	3.02e+01	0	42	104	0	60	91954
2026-01-20 13:53:06.10	72.38	11.22	-44.3	-55.1	3.5	3.02e+01	0	42	104	0	58	24610
2026-01-20 13:53:07.11	72.60	11.23	-38.5	-48.8	3.5	3.02e+01	0	42	104	0	52	16805
2026-01-20 13:53:08.12	72.81	11.23	-39.1	-49.4	3.5	3.02e+01	0	42	104	0	52	17972
2026-01-20 13:53:09.13	73.03	11.24	-39.7	-50.0	3.5	3.02e+01	0	42	104	0	52	19371
2026-01-20 13:53:10.14	73.25	11.24	-39.4	-49.6	3.6	3.02e+01	0	42	104	0	52	18493
2026-01-20 13:53:11.15	73.47	11.24	-42.8	-53.6	3.5	3.02e+01	0	42	104	0	58	20581
2026-01-20 13:53:12.15	73.68	11.25	-40.2	-50.6	3.5	3.02e+01	0	42	104	0	58	14619
2026-01-20 13:53:13.17	73.90	11.25	-50.6	-68.3	3.5	3.02e+01	0	42	104	0	60	100072
2026-01-20 13:53:14.18	74.12	11.25	-49.9	-66.8	3.5	3.02e+01	0	42	104	0	60	84022
2026-01-20 13:53:15.19	74.33	11.25	-44.0	-55.0	3.5	3.02e+01	0	42	104	0	58	24215
2026-01-20 13:53:16.20	74.55	11.26	-40.5	-50.9	3.5	3.02e+01	0	42	104	0	56	17016
2026-01-20 13:53:17.20	74.77	11.26	-39.4	-49.8	3.5	3.02e+01	0	42	104	0	54	16776
2026-01-20 13:53:18.21	74.98	11.26	-39.3	-49.7	3.5	3.02e+01	0	42	104	0	54	16682
2026-01-20 13:53:19.22	75.20	11.26	-39.7	-50.0	3.5	3.02e+01	0	42	104	0	54	17249
2026-01-20 13:53:20.23	75.42	11.26	-44.4	-55.2	3.5	3.02e+01	0	42	104	0	60	22225
2026-01-20 13:53:21.24	75.63	11.26	-39.8	-50.2	3.5	3.02e+01	0	42	104	0	54	17505
2026-01-20 13:53:22.25	75.85	11.26	-50.8	-68.3	3.5	3.02e+01	0	42	104	0	60	100398
2026-01-20 13:53:23.26	76.07	11.26	-48.8	-67.5	3.5	3.02e+01	0	42	104	0	60	91722
2026-01-20 13:53:24.27	76.29	11.26	-45.5	-57.4	3.5	3.02e+01	0	42	104	0	60	28691
2026-01-20 13:53:25.28	76.50	11.26	-39.9	-50.5	3.5	3.02e+01	0	42	104	0	56	16185
2026-01-20 13:53:26.28	76.72	11.26	-39.2	-49.7	3.5	3.02e+01	0	42	104	0	54	16550
2026-01-20 13:53:27.29	76.94	11.25	-38.8	-49.2	3.5	3.02e+01	0	42	104	0	52	17596
2026-01-20 13:53:28.30	77.15	11.25	-39.5	-49.8	3.5	3.02e+01	0	42	104	0	52	18950
2026-01-20 13:53:29.31	77.37	11.25	-40.1	-50.3	3.5	3.02e+01	0	42	104	0	54	17802
2026-01-20 13:53:30.32	77.59	11.25	-40.0	-50.3	3.5	3.02e+01	0	42	104	0	54	17896
2026-01-20 13:53:31.33	77.80	11.24	-50.4	-68.0	3.5	3.02e+01	0	42	104	0	60	96381
2026-01-20 13:53:32.34	78.02	11.24	-50.0	-67.2	3.5	3.02e+01	0	42	104	0	60	88523
2026-01-20 13:53:33.35	78.24	11.24	-45.9	-57.2	3.6	3.02e+01	0	42	104	0	60	27971
2026-01-20 13:53:34.36	78.45	11.23	-39.2	-49.4	3.5	3.02e+01	0	42	104	0	54	16075
2026-01-20 13:53:35.37	78.67	11.23	-39.4	-49.7	3.5	3.02e+01	0	42	104	0	52	18567
2026-01-20 13:53:36.37	78.89	11.22	-39.0	-49.2	3.5	3.02e+01	0	42	104	0	54	15704
2026-01-20 13:53:37.38	79.10	11.22	-38.2	-48.5	3.5	3.02e+01	0	42	104	0	52	16225
2026-01-20 13:53:38.39	79.32	11.21	-41.7	-52.2	3.5	3.02e+01	0	42	104	0	58	17597
2026-01-20 13:53:39.40	79.54	11.20	-39.9	-50.2	3.6	3.02e+01	0	42	104	0	56	15741
2026-01-20 13:53:40.41	79.75	11.20	-50.8	-68.1	3.5	3.02e+01	0	42	104	0	60	98219
2026-01-20 13:53:41.42	79.97	11.19	-50.2	-66.0	3.5	3.02e+01	0	42	104	0	60	76744
2026-01-20 13:53:42.43	80.18	11.18	-45.1	-56.2	3.5	3.02e+01	0	42	104	0	60	24813
2026-01-20 13:53:43.44	80.40	11.18	-40.2	-50.6	3.6	3.02e+01	0	42	104	0	56	16474
2026-01-20 13:53:44.44	80.61	11.17	-39.5	-49.8	3.6	3.02e+01	0	42	104	0	54	16773
2026-01-20 13:53:45.45	80.83	11.16	-39.0	-49.1	3.5	3.02e+01	0	42	104	0	54	15578
2026-01-20 13:53:46.46	81.05	11.15	-39.6	-49.9	3.5	3.02e+01	0	42	104	0	54	16998
2026-01-20 13:53:47.47	81.26	11.14	-39.5	-49.8	3.6	3.02e+01	0	42	104	0	52	18932
2026-01-20 13:53:48.48	81.48	11.13	-39.2	-49.5	3.5	3.02e+01	0	42	104	0	52	18216
2026-01-20 13:53:49.48	81.69	11.12	-50.7	-67.8	3.5	3.02e+01	0	42	104	0	60	94124
2026-01-20 13:53:50.50	81.91	11.11	-50.3	-66.4	3.6	3.02e+01	0	42	104	0	60	80024
2026-01-20 13:53:51.51	82.12	11.10	-45.9	-57.2	3.5	3.02e+01	0	42	104	0	60	27936
2026-01-20 13:53:52.52	82.34	11.09	-40.4	-50.8	3.5	3.02e+01	0	42	104	0	56	16854
2026-01-20 13:53:53.53	82.55	11.08	-40.1	-50.3	3.5	3.02e+01	0	42	104	0	56	15928
2026-01-20 13:53:54.53	82.76	11.07	-40.6	-50.9	3.5	3.02e+01	0	42	104	0	56	17000
2026-01-20 13:53:55.54	82.98	11.06	-40.0	-50.3	3.5	3.02e+01	0	42	104	0	56	15779
2026-01-20 13:53:56.55	83.19	11.05	-40.4	-50.8	3.6	3.02e+01	0	42	104	0	56	16734
2026-01-20 13:53:57.56	83.41	11.04	-40.2	-50.6	3.5	3.02e+01	0	42	104	0	54	18376
2026-01-20 13:53:58.58	83.62	11.02	-50.3	-66.9	3.5	3.02e+01	0	42	104	0	60	85483
2026-01-20 13:53:59.59	83.84	11.01	-46.8	-58.6	3.5	3.02e+01	0	42	104	0	60	32784
2026-01-20 13:54:00.60	84.05	11.00	-45.1	-56.1	3.5	3.02e+01	0	42	104	0	60	24664
2026-01-20 13:54:01.60	84.26	10.98	-40.1	-50.4	3.5	3.02e+01	0	42	104	0	56	16076
2026-01-20 13:54:02.62	84.48	10.97	-38.9	-49.1	3.5	3.02e+01	0	42	104	0	54	15523
2026-01-20 13:54:03.63	84.69	10.96	-39.1	-49.3	3.5	3.02e+01	0	42	104	0	52	17829
2026-01-20 13:54:04.64	84.90	10.94	-39.6	-49.8	3.5	3.02e+01	0	42	104	0	52	18919
2026-01-20 13:54:05.65	85.11	10.93	-39.6	-49.9	3.6	3.02e+01	0	42	104	0	54	16945
2026-01-20 13:54:06.66	85.33	10.91	-40.3	-50.7	3.5	3.02e+01	0	42	104	0	54	18535
2026-01-20 13:54:07.67	85.54	10.90	-50.7	-67.9	3.5	3.02e+01	0	42	104	0	60	95942
2026-01-20 13:54:08.68	85.75	10.88	-45.7	-57.2	3.5	3.02e+01	0	42	104	0	60	27814
2026-01-20 13:54:09.69	85.96	10.86	-44.3	-55.1	3.5	3.02e+01	0	42	104	0	60	21946
2026-01-20 13:54:10.69	86.17	10.85	-40.8	-51.2	3.5	3.02e+01	0	42	104	0	56	17570
2026-01-20 13:54:11.70	86.38	10.83	-40.4	-50.7	3.5	3.02e+01	0	42	104	0	56	16603
2026-01-20 13:54:12.71	86.59	10.81	-41.2	-51.6	3.5	3.02e+01	0	42	104	0	56	18481
2026-01-20 13:54:13.72	86.80	10.80	-39.2	-49.4	3.5	3.02e+01	0	42	104	0	54	16118
2026-01-20 13:54:14.73	87.01	10.78	-39.5	-49.7	3.5	3.02e+01	0	42	104	0	54	16593
2026-01-20 13:54:15.74	87.22	10.76	-42.9	-53.5	3.5	3.02e+01	0	42	104	0	60	18271
2026-01-20 13:54:16.75	87.43	10.74	-49.0	-62.6	3.6	3.02e+01	0	42	104	0	60	52102
2026-01-20 13:54:17.76	87.64	10.73	-42.7	-53.3	3.5	3.02e+01	0	42	104	0	54	25023
2026-01-20 13:54:18.77	87.85	10.71	-46.4	-58.0	3.6	3.02e+01	0	42	104	0	60	30436
2026-01-20 13:54:19.78	88.06	10.69	-40.2	-50.6	3.5	3.02e+01	0	42	104	0	54	18441
2026-01-20 13:54:20.79	88.27	10.67	-39.5	-49.9	3.5	3.02e+01	0	42	104	0	54	17023
2026-01-20 13:54:21.80	88.48	10.65	-39.7	-50.0	3.5	3.02e+01	0	42	104	0	54	17223
2026-01-20 13:54:22.81	88.69	10.63	-39.9	-50.2	3.5	3.02e+01	0	42	104	0	54	17551
2026-01-20 13:54:23.82	88.89	10.61	-41.7	-52.2	3.5	3.02e+01	0	42	104	0	60	15610
2026-01-20 13:54:24.83	89.10	10.59	-44.0	-54.9	3.5	3.02e+01	0	42	104	0	58	24092
2026-01-20 13:54:25.83	89.31	10.57	-49.5	-64.6	3.5	3.02e+01	0	42	104	0	60	65026
2026-01-20 13:54:26.85	89.51	10.54	-39.0	-49.3	3.5	3.02e+01	0	42	104	0	58	12601
2026-01-20 13:54:27.86	89.72	10.52	-40.5	-50.9	3.6	3.02e+01	0	42	104	0	58	15116
2026-01-20 13:54:28.87	89.93	10.50	-38.9	-49.1	3.5	3.02e+01	0	42	104	0	54	15585
2026-01-20 13:54:29.87	90.13	10.48	-39.3	-49.6	3.5	3.02e+01	0	42	104	0	52	18391
2026-01-20 13:54:30.88	90.34	10.46	-39.2	-49.5	3.5	3.02e+01	0	42	104	0	52	18214
2026-01-20 13:54:31.89	90.54	10.43	-40.2	-50.6	3.5	3.02e+01	0	42	104	0	52	20571
2026-01-20 13:54:32.90	90.75	10.41	-40.7	-51.2	3.5	3.02e+01	0	42	104	0	58	15625
2026-01-20 13:54:33.91	90.95	10.39	-48.3	-61.0	3.5	3.02e+01	0	42	104	0	60	43161
2026-01-20 13:54:34.92	91.15	10.36	-49.9	-64.9	3.5	3.02e+01	0	42	104	0	60	67467
2026-01-20 13:54:35.93	91.36	10.34	-39.4	-49.7	3.5	3.02e+01	0	42	104	0	52	18539
2026-01-20 13:54:36.94	91.56	10.32	-41.8	-52.2	3.5	3.02e+01	0	42	104	0	60	15755
2026-01-20 13:54:37.95	91.77	10.29	-40.6	-51.0	3.5	3.02e+01	0	42	104	0	56	17268
2026-01-20 13:54:38.96	91.97	10.27	-40.0	-50.3	3.5	3.02e+01	0	42	104	0	54	17852
2026-01-20 13:54:39.97	92.17	10.24	-40.2	-50.5	3.5	3.02e+01	0	42	104	0	54	18208
2026-01-20 13:54:40.98	92.37	10.22	-39.1	-49.4	3.5	3.02e+01	0	42	104	0	54	16117
2026-01-20 13:54:41.99	92.57	10.19	-39.9	-50.3	3.5	3.02e+01	0	42	104	0	52	19859
2026-01-20 13:54:42.99	92.77	10.17	-49.4	-63.4	3.5	3.02e+01	0	42	104	0	60	57232
2026-01-20 13:54:44.01	92.98	10.14	-50.3	-66.5	3.5	3.02e+01	0	42	104	0	60	81130
2026-01-20 13:54:45.01	93.18	10.11	-39.9	-50.2	3.5	3.02e+01	0	42	104	0	52	19682
2026-01-20 13:54:46.02	93.38	10.09	-41.1	-51.5	3.5	3.02e+01	0	42	104	0	58	16218
2026-01-20 13:54:47.03	93.58	10.06	-40.1	-50.4	3.5	3.02e+01	0	42	104	0	56	16098
2026-01-20 13:54:48.04	93.77	10.03	-39.3	-49.4	3.5	3.02e+01	0	42	104	0	54	16116
2026-01-20 13:54:49.05	93.97	10.01	-39.7	-49.9	3.6	3.02e+01	0	42	104	0	54	17087
2026-01-20 13:54:50.06	94.17	9.98	-39.6	-49.8	3.5	3.02e+01	0	42	104	0	54	16856
2026-01-20 13:54:51.06	94.37	9.95	-40.2	-50.7	3.5	3.02e+01	0	42	104	0	54	18614
2026-01-20 13:54:52.07	94.57	9.92	-50.3	-68.0	3.5	3.02e+01	0	42	104	0	60	96778
2026-01-20 13:54:53.08	94.76	9.89	-49.9	-66.9	3.5	3.02e+01	0	42	104	0	60	85127
2026-01-20 13:54:54.09	94.96	9.87	-41.0	-51.5	3.4	3.02e+01	0	42	104	0	52	22912
2026-01-20 13:54:55.10	95.16	9.84	-40.5	-50.8	3.5	3.02e+01	0	42	104	0	56	16847
2026-01-20 13:54:56.11	95.35	9.81	-40.6	-51.0	3.5	3.02e+01	0	42	104	0	56	17146
2026-01-20 13:54:57.12	95.55	9.78	-39.9	-50.2	3.5	3.02e+01	0	42	104	0	56	15674
2026-01-20 13:54:58.13	95.75	9.75	-39.2	-49.5	3.5	3.02e+01	0	42	104	0	54	16158
2026-01-20 13:54:59.14	95.94	9.72	-43.2	-54.0	3.5	3.02e+01	0	42	104	0	58	21575
2026-01-20 13:55:00.15	96.14	9.69	-40.0	-50.4	3.5	3.02e+01	0	42	104	0	54	18078
2026-01-20 13:55:01.15	96.33	9.66	-50.4	-68.2	3.5	3.02e+01	0	42	104	0	60	98734
2026-01-20 13:55:02.17	96.52	9.63	-50.5	-67.5	3.5	3.02e+01	0	42	104	0	60	90773
2026-01-20 13:55:03.18	96.72	9.60	-44.2	-46.7	5.1	3.02e+01	0	42	104	0	58	9363
2026-01-20 13:55:04.18	96.91	9.57	-44.6	-47.2	20.0	3.02e+01	57	42	104	0	60	8864
2026-01-20 13:55:05.19	97.10	9.54	-44.8	-47.4	20.4	3.02e+01	57	42	0	1048576	60	8986
2026-01-20 13:55:06.20	97.29	9.51	-44.7	-47.1	21.1	3.02e+01	56	42	0	3145728	60	8725
2026-01-20 13:55:07.21	97.48	9.47	-45.5	-48.2	20.2	3.02e+01	59	42	0	4718592	60	9866
2026-01-20 13:55:08.22	97.68	9.44	-42.9	-44.7	23.7	3.02e+01	41	42	0	6815744	60	6609
2026-01-20 13:55:09.23	97.87	9.41	-42.2	-43.9	24.2	3.02e+01	59	42	0	8912896	60	6013
2026-01-20 13:55:10.24	98.06	9.38	-42.2	-43.9	24.5	3.02e+01	59	42	0	10485760	58	6779
2026-01-20 13:55:11.25	98.25	9.35	-41.6	-43.2	25.2	3.02e+01	59	42	0	12582912	58	6232
2026-01-20 13:55:12.26	98.44	9.31	-39.8	-41.1	26.8	3.02e+01	60	42	0	14155776	54	6204
2026-01-20 13:55:13.27	98.62	9.28	-39.0	-40.3	27.5	3.02e+01	53	42	0	16252928	54	5647
2026-01-20 13:55:14.28	98.81	9.25	-39.4	-40.7	27.2	3.02e+01	60	42	0	18350080	54	5900
2026-01-20 13:55:15.28	99.00	9.21	-39.1	-40.5	27.4	3.02e+01	60	42	0	19922944	52	6436
2026-01-20 13:55:16.29	99.19	9.18	-39.4	-40.8	27.2	3.02e+01	45	42	0	22020096	52	6675
2026-01-20 13:55:17.30	99.37	9.15	-38.8	-40.1	27.8	3.02e+01	58	42	0	24117248	52	6182
2026-01-20 13:55:18.31	99.56	9.11	-39.0	-40.3	27.5	3.02e+01	58	42	0	25690112	52	6308
2026-01-20 13:55:19.32	99.75	9.08	-38.8	-40.1	27.8	3.02e+01	60	42	0	27787264	52	6203
2026-01-20 13:55:20.33	99.93	9.04	-39.0	-40.4	27.4	3.02e+01	61	42	0	29360128	52	6371
2026-01-20 13:55:21.34	100.12	9.01	-39.1	-40.5	27.4	3.02e+01	61	42	0	31457280	52	6453
2026-01-20 13:55:22.35	100.30	8.98	-39.1	-40.4	27.6	3.02e+01	56	42	0	33554432	52	6391
2026-01-20 13:55:23.36	100.49	8.94	-38.7	-40.0	27.8	3.02e+01	59	42	0	35127296	52	6121
2026-01-20 13:55:24.37	100.67	8.91	-39.4	-40.7	27.2	3.02e+01	61	42	0	37224448	52	6610
2026-01-20 13:55:25.38	100.86	8.87	-39.8	-41.2	26.7	3.02e+01	56	42	0	38797312	52	6985
2026-01-20 13:55:26.39	101.04	8.83	-39.0	-40.3	27.7	3.02e+01	50	42	0	40894464	54	5609
2026-01-20 13:55:27.40	101.22	8.80	-38.7	-40.0	27.9	3.02e+01	62	42	0	42467328	52	6127
2026-01-20 13:55:28.41	101.40	8.76	-37.8	-39.1	28.6	3.02e+01	56	42	0	44564480	50	6164
2026-01-20 13:55:29.42	101.59	8.73	-39.2	-40.5	27.2	3.02e+01	46	42	0	46661632	50	7283
2026-01-20 13:55:30.43	101.77	8.69	-39.9	-41.3	26.6	3.02e+01	52	42	0	48234496	54	6328
2026-01-20 13:55:31.44	101.95	8.65	-39.2	-40.5	27.3	3.02e+01	61	42	0	50331648	54	5759
2026-01-20 13:55:32.45	102.13	8.62	-38.7	-39.9	27.8	3.02e+01	60	42	0	52428800	52	6064
2026-01-20 13:55:33.46	102.31	8.58	-38.7	-40.0	27.9	3.02e+01	61	42	0	54001664	52	6116
2026-01-20 13:55:34.47	102.49	8.54	-38.6	-39.8	28.0	3.02e+01	45	42	0	56098816	52	5989
2026-01-20 13:55:35.48	102.67	8.51	-39.0	-40.3	27.5	3.02e+01	61	42	0	57671680	52	6317
2026-01-20 13:55:36.49	102.84	8.47	-39.6	-41.0	27.0	3.02e+01	60	42	0	59768832	52	6816
2026-01-20 13:55:37.50	103.02	8.43	-39.3	-40.6	27.4	3.02e+01	44	42	0	61865984	52	6541
2026-01-20 13:55:38.51	103.20	8.40	-39.3	-40.7	27.2	3.02e+01	61	42	0	63438848	52	6582
2026-01-20 13:55:39.52	103.38	8.36	-40.2	-41.6	26.4	3.02e+01	59	42	0	65536000	54	6514
2026-01-20 13:55:40.53	103.55	8.32	-39.1	-40.4	27.3	3.02e+01	59	42	0	67633152	54	5712
2026-01-20 13:55:41.54	103.73	8.28	-38.6	-39.9	28.0	3.02e+01	58	42	0	69206016	52	6040
2026-01-20 13:55:42.55	103.91	8.24	-38.6	-39.9	28.0	3.02e+01	59	42	0	71303168	52	6046
2026-01-20 13:55:43.56	104.08	8.21	-39.2	-40.6	27.3	3.02e+01	57	42	0	72876032	52	6544
2026-01-20 13:55:44.57	104.25	8.17	-39.5	-40.9	27.1	3.02e+01	59	42	0	74973184	52	6743
2026-01-20 13:55:45.57	104.43	8.13	-39.1	-40.4	27.5	3.02e+01	48	42	0	77070336	52	6406
2026-01-20 13:55:46.58	104.60	8.09	-39.2	-40.6	27.4	3.02e+01	59	42	0	78643200	52	6504
2026-01-20 13:55:47.59	104.77	8.05	-39.1	-40.5	27.4	3.02e+01	59	42	0	80740352	52	6434
2026-01-20 13:55:48.60	104.95	8.01	-39.2	-40.5	27.3	3.02e+01	57	42	0	82313216	52	6489
2026-01-20 13:55:49.61	105.12	7.97	-39.2	-40.6	27.3	3.02e+01	60	42	0	84410368	52	6519
2026-01-20 13:55:50.62	105.29	7.93	-39.3	-40.6	27.4	3.02e+01	51	42	0	86507520	52	6573
2026-01-20 13:55:51.63	105.46	7.89	-39.0	-40.3	27.6	3.02e+01	60	42	0	88080384	52	6323
2026-01-20 13:55:52.64	105.63	7.86	-39.2	-40.5	27.4	3.02e+01	62	42	0	90177536	52	6490
2026-01-20 13:55:53.65	105.80	7.82	-39.6	-40.9	26.8	3.02e+01	52	42	0	92274688	52	6802
2026-01-20 13:55:54.66	105.97	7.78	-39.7	-41.1	26.8	3.02e+01	57	42	0	93847552	54	6144
2026-01-20 13:55:55.67	106.14	7.74	-39.0	-40.3	27.7	3.02e+01	59	42	0	95944704	52	6305
2026-01-20 13:55:56.67	106.31	7.70	-39.1	-40.4	27.4	3.02e+01	58	42	0	97517568	52	6419
2026-01-20 13:55:57.68	106.48	7.66	-40.3	-41.7	26.4	3.02e+01	60	42	0	99614720	54	6628
2026-01-20 13:55:58.69	106.64	7.62	-39.3	-40.6	27.2	3.02e+01	50	42	0	101187584	52	6539
2026-01-20 13:55:59.70	106.81	7.57	-39.7	-41.1	26.8	3.02e+01	57	42	0	103284736	52	6888
2026-01-20 13:56:00.71	106.98	7.53	-39.3	-40.7	27.2	3.02e+01	59	42	0	105381888	52	6574
2026-01-20 13:56:01.72	107.14	7.49	-39.7	-41.0	26.9	3.02e+01	60	42	0	106954752	52	6882
2026-01-20 13:56:02.73	107.31	7.45	-39.3	-40.7	27.0	3.02e+01	60	42	0	109051904	54	5869
2026-01-20 13:56:03.74	107.48	7.41	-39.5	-40.8	26.9	3.02e+01	46	42	0	110624768	54	5984
2026-01-20 13:56:04.75	107.64	7.37	-39.3	-40.6	27.1	3.02e+01	59	42	0	112721920	54	5832
2026-01-20 13:56:05.76	107.81	7.33	-39.2	-40.5	27.3	3.02e+01	59	42	0	114819072	54	5750
2026-01-20 13:56:06.76	107.97	7.29	-40.5	-42.0	26.1	3.02e+01	52	42	0	116391936	54	6846
2026-01-20 13:56:07.77	108.13	7.25	-40.7	-42.2	25.7	3.02e+01	60	42	0	118489088	54	6994
2026-01-20 13:56:08.78	108.29	7.21	-40.2	-41.6	26.3	3.02e+01	56	42	0	120586240	54	6534
2026-01-20 13:56:09.79	108.46	7.16	-39.2	-40.6	27.2	3.02e+01	58	42	0	122159104	54	5822
2026-01-20 13:56:10.79	108.62	7.12	-39.1	-40.5	27.3	3.02e+01	59	42	0	124256256	54	5734
2026-01-20 13:56:11.80	108.78	7.08	-38.9	-40.3	27.4	3.02e+01	47	42	0	125829120	54	5611
2026-01-20 13:56:12.81	108.94	7.04	-39.5	-40.9	26.8	3.02e+01	60	42	0	127926272	52	6741
2026-01-20 13:56:13.82	109.10	7.00	-39.5	-40.8	27.0	3.02e+01	57	42	0	130023424	52	6720
2026-01-20 13:56:14.83	109.26	6.95	-39.4	-40.8	26.9	3.02e+01	49	42	0	131596288	52	6674
2026-01-20 13:56:15.84	109.42	6.91	-39.4	-40.8	27.1	3.02e+01	59	42	0	133693440	52	6671
2026-01-20 13:56:16.85	109.58	6.87	-39.5	-40.8	27.0	3.02e+01	60	42	0	135266304	52	6705
2026-01-20 13:56:17.86	109.74	6.83	-39.8	-41.2	26.5	3.02e+01	60	42	0	137363456	52	7010
2026-01-20 13:56:18.87	109.89	6.78	-40.1	-41.5	26.3	3.02e+01	59	42	0	139460608	54	6486
2026-01-20 13:56:19.88	110.05	6.74	-39.8	-41.2	26.5	3.02e+01	58	42	0	141033472	54	6239
2026-01-20 13:56:20.89	110.21	6.70	-40.1	-41.6	26.4	3.02e+01	58	42	0	143130624	54	6500
2026-01-20 13:56:21.90	110.37	6.66	-39.8	-41.2	26.6	3.02e+01	60	42	0	144703488	54	6232
2026-01-20 13:56:22.91	110.52	6.61	-39.7	-41.1	26.8	3.02e+01	44	42	0	146800640	54	6188
2026-01-20 13:56:23.91	110.68	6.57	-39.8	-41.2	26.6	3.02e+01	60	42	0	148897792	54	6220
2026-01-20 13:56:24.92	110.83	6.53	-40.1	-41.6	26.2	3.02e+01	58	42	0	150470656	54	6524
2026-01-20 13:56:25.93	110.99	6.48	-39.2	-40.5	27.2	3.02e+01	59	42	0	152567808	54	5762
2026-01-20 13:56:26.94	111.14	6.44	-39.7	-41.1	26.9	3.02e+01	59	42	0	154140672	54	6180
2026-01-20 13:56:27.95	111.29	6.40	-39.4	-40.8	27.2	3.02e+01	57	42	0	156237824	54	5943
2026-01-20 13:56:28.96	111.45	6.35	-39.4	-40.8	26.9	3.02e+01	61	42	0	158334976	52	6651
2026-01-20 13:56:29.97	111.60	6.31	-39.9	-41.3	26.4	3.02e+01	59	42	0	159907840	54	6310
2026-01-20 13:56:30.98	111.75	6.27	-39.2	-40.5	27.2	3.02e+01	48	42	0	162004992	54	5763
2026-01-20 13:56:31.99	111.90	6.22	-40.7	-42.1	25.8	3.02e+01	58	42	0	164102144	54	6955
2026-01-20 13:56:33.00	112.05	6.18	-40.0	-41.4	26.4	3.02e+01	61	42	0	165675008	54	6360
2026-01-20 13:56:34.01	112.21	6.14	-39.3	-40.6	27.1	3.02e+01	62	42	0	167772160	54	5857
2026-01-20 13:56:35.02	112.36	6.09	-39.7	-41.1	26.7	3.02e+01	61	42	0	169345024	54	6179
2026-01-20 13:56:36.03	112.51	6.05	-38.8	-40.2	27.6	3.02e+01	55	42	0	171442176	54	5532
2026-01-20 13:56:37.04	112.66	6.00	-39.9	-41.2	26.6	3.02e+01	59	42	0	173539328	52	7037
2026-01-20 13:56:38.05	112.80	5.96	-40.3	-41.7	26.1	3.02e+01	59	42	0	175112192	54	6595
2026-01-20 13:56:39.06	112.95	5.92	-39.3	-40.7	27.2	3.02e+01	57	42	0	177209344	54	5859
2026-01-20 13:56:40.07	113.10	5.87	-40.0	-41.4	26.4	3.02e+01	57	42	0	178782208	54	6382
2026-01-20 13:56:41.08	113.25	5.83	-39.7	-41.1	26.6	3.02e+01	44	42	0	180879360	54	6194
2026-01-20 13:56:42.09	113.40	5.78	-39.9	-41.3	26.5	3.02e+01	60	42	0	182976512	54	6314
2026-01-20 13:56:43.10	113.54	5.74	-41.0	-42.5	25.3	3.02e+01	58	42	0	184549376	56	6434
2026-01-20 13:56:44.11	113.69	5.69	-41.0	-42.5	25.4	3.02e+01	46	42	0	186646528	56	6458
2026-01-20 13:56:45.12	113.83	5.65	-41.2	-42.7	25.3	3.02e+01	60	42	0	188743680	56	6619
2026-01-20 13:56:46.13	113.98	5.60	-40.1	-41.5	26.3	3.02e+01	63	42	0	190316544	56	5785
2026-01-20 13:56:47.13	114.12	5.56	-40.0	-41.5	26.4	3.02e+01	59	42	0	192413696	54	6435
2026-01-20 13:56:48.14	114.27	5.52	-39.3	-40.6	27.0	3.02e+01	59	42	0	193986560	54	5827
2026-01-20 13:56:49.15	114.41	5.47	-40.1	-41.5	26.2	3.02e+01	62	42	0	196083712	54	6453
2026-01-20 13:56:50.16	114.55	5.43	-40.6	-42.1	25.7	3.02e+01	49	42	0	198180864	54	6926
2026-01-20 13:56:51.17	114.70	5.38	-39.9	-41.4	26.1	3.02e+01	58	42	0	199753728	54	6360
2026-01-20 13:56:52.17	114.84	5.34	-40.4	-41.9	25.8	3.02e+01	44	42	0	201850880	54	6733
2026-01-20 13:56:53.19	114.98	5.29	-40.0	-41.4	26.1	3.02e+01	58	42	0	203423744	54	6383
2026-01-20 13:56:54.20	115.12	5.25	-40.5	-42.0	26.0	3.02e+01	60	42	0	205520896	54	6811
2026-01-20 13:56:55.20	115.26	5.20	-40.2	-41.7	25.6	3.02e+01	60	42	0	207618048	54	6635
2026-01-20 13:56:56.21	115.40	5.16	-39.4	-40.8	26.4	3.02e+01	61	42	0	209190912	52	6714
2026-01-20 13:56:57.22	115.54	5.11	-40.6	-42.1	25.8	3.02e+01	58	42	0	211288064	54	6900
2026-01-20 13:56:58.23	115.68	5.07	-39.0	-40.3	27.2	3.02e+01	57	42	0	212860928	52	6341
2026-01-20 13:56:59.24	115.82	5.02	-39.5	-40.9	26.4	3.02e+01	56	42	0	214958080	52	6771
2026-01-20 13:57:00.25	115.96	4.97	-40.5	-42.0	25.7	3.02e+01	44	42	0	217055232	54	6871
2026-01-20 13:57:01.26	116.10	4.93	-39.6	-41.0	26.5	3.02e+01	61	42	0	218628096	54	6129
2026-01-20 13:57:02.27	116.24	4.88	-39.5	-40.9	26.5	3.02e+01	60	42	0	220725248	54	6063
2026-01-20 13:57:03.28	116.37	4.84	-39.6	-41.1	26.5	3.02e+01	59	42	0	222298112	54	6151
2026-01-20 13:57:04.28	116.51	4.79	-39.6	-41.0	26.6	3.02e+01	60	42	0	224395264	54	6110
2026-01-20 13:57:05.29	116.65	4.75	-40.7	-42.3	25.5	3.02e+01	46	42	0	226492416	54	7055
2026-01-20 13:57:06.30	116.78	4.70	-39.6	-41.0	26.5	3.02e+01	63	42	0	228065280	54	6128
2026-01-20 13:57:07.31	116.92	4.66	-42.1	-43.8	23.9	3.02e+01	63	42	0	230162432	56	7511
2026-01-20 13:57:08.32	117.05	4.61	-42.3	-44.1	23.4	3.02e+01	46	42	0	232259584	58	6904
2026-01-20 13:57:09.33	117.19	4.56	-41.4	-43.0	24.6	3.02e+01	61	42	0	233832448	58	6099
2026-01-20 13:57:10.34	117.32	4.52	-41.1	-42.7	25.0	3.02e+01	60	42	0	235929600	58	5868
2026-01-20 13:57:11.35	117.45	4.47	-40.5	-42.0	25.5	3.02e+01	59	42	0	237502464	56	6115
2026-01-20 13:57:12.35	117.59	4.43	-41.4	-43.0	24.7	3.02e+01	59	42	0	239599616	58	6131
2026-01-20 13:57:13.36	117.72	4.38	-39.9	-41.3	26.2	3.02e+01	59	42	0	241696768	56	5657
2026-01-20 13:57:14.37	117.85	4.34	-41.1	-42.7	24.5	3.02e+01	61	42	0	243269632	54	7440
2026-01-20 13:57:15.38	117.98	4.29	-42.9	-44.8	23.3	3.02e+01	60	42	0	245366784	60	6665
2026-01-20 13:57:16.39	118.12	4.24	-41.6	-43.2	24.0	3.02e+01	44	42	0	246939648	58	6255
2026-01-20 13:57:17.40	118.25	4.20	-42.7	-44.5	23.0	3.02e+01	58	42	0	249036800	58	7272
2026-01-20 13:57:18.40	118.38	4.15	-42.6	-44.4	23.3	3.02e+01	49	42	0	251133952	58	7173
2026-01-20 13:57:19.41	118.51	4.11	-42.4	-44.2	23.3	3.02e+01	61	42	0	252706816	58	6988
2026-01-20 13:57:20.42	118.64	4.06	-44.8	-47.2	20.4	3.02e+01	59	42	0	254803968	60	8788
2026-01-20 13:57:21.43	118.77	4.01	-41.4	-43.0	24.8	3.02e+01	49	42	0	256376832	58	6066
2026-01-20 13:57:22.44	118.89	3.97	-41.5	-43.1	24.1	3.02e+01	60	42	0	258473984	56	6940
2026-01-20 13:57:23.45	119.02	3.92	-40.7	-42.2	25.2	3.02e+01	58	42	0	260571136	56	6225
2026-01-20 13:57:24.46	119.15	3.88	-41.1	-42.7	24.8	3.02e+01	60	42	0	262144000	56	6575
2026-01-20 13:57:25.47	119.28	3.83	-40.5	-42.1	25.2	3.02e+01	60	42	0	264241152	54	6891
2026-01-20 13:57:26.48	119.41	3.78	-42.0	-43.7	23.6	3.02e+01	47	42	0	265814016	58	6628
2026-01-20 13:57:27.49	119.53	3.74	-39.8	-41.3	26.2	3.02e+01	58	42	0	267911168	56	5596
2026-01-20 13:57:28.49	119.66	3.69	-40.0	-41.5	25.9	3.02e+01	58	42	0	270008320	54	6461
2026-01-20 13:57:29.50	119.79	3.65	-42.2	-43.9	23.7	3.02e+01	54	42	0	271581184	58	6793
2026-01-20 13:57:30.51	119.91	3.60	-40.3	-41.8	25.2	3.02e+01	61	42	0	273678336	56	5944
2026-01-20 13:57:31.52	120.04	3.55	-41.3	-43.0	24.2	3.02e+01	57	42	0	275251200	56	6816
2026-01-20 13:57:32.53	120.16	3.51	-42.8	-44.8	22.3	3.02e+01	58	42	0	277348352	58	7506
2026-01-20 13:57:33.54	120.29	3.46	-39.3	-40.7	26.5	3.02e+01	61	42	0	279445504	54	5871
2026-01-20 13:57:34.55	120.41	3.41	-41.5	-43.2	24.0	3.02e+01	52	42	0	281018368	56	6995
2026-01-20 13:57:35.56	120.53	3.37	-40.0	-41.5	24.5	3.02e+01	57	42	0	283115520	56	5758
2026-01-20 13:57:36.57	120.66	3.32	-40.2	-41.8	25.0	3.02e+01	59	42	0	285212672	52	7484
2026-01-20 13:57:37.58	120.78	3.27	-44.6	-47.2	20.1	3.02e+01	49	42	0	286785536	60	8794
2026-01-20 13:57:38.59	120.90	3.23	-41.1	-42.7	24.4	3.02e+01	58	42	0	288882688	58	5887
2026-01-20 13:57:39.60	121.02	3.18	-41.2	-42.9	24.2	3.02e+01	63	42	0	290455552	58	6018
2026-01-20 13:57:40.61	121.14	3.14	-38.1	-39.5	27.4	3.02e+01	61	42	0	292552704	50	6435
2026-01-20 13:57:41.62	121.27	3.09	-41.6	-43.3	23.7	3.02e+01	60	42	0	294649856	56	7098
2026-01-20 13:57:42.62	121.39	3.04	-40.3	-41.9	25.1	3.02e+01	50	42	0	296222720	56	6019
2026-01-20 13:57:43.63	121.51	3.00	-45.6	-48.7	15.1	3.02e+01	62	42	0	298319872	56	13264
2026-01-20 13:57:44.64	121.63	2.95	-50.6	-68.5	3.5	3.02e+01	0	42	104	298319872	60	102041
2026-01-20 13:57:45.65	121.75	2.90	-51.0	-68.9	3.5	3.02e+01	0	42	104	298319872	60	107389
2026-01-20 13:57:46.66	121.86	2.86	-51.1	-69.0	3.5	3.02e+01	0	42	104	298319872	60	108582
2026-01-20 13:57:47.67	121.98	2.81	-51.3	-69.3	3.5	3.02e+01	0	42	104	298319872	60	111635
2026-01-20 13:57:48.68	122.10	2.76	-51.4	-69.3	3.5	3.02e+01	0	43	104	298319872	60	112408
2026-01-20 13:57:49.68	122.22	2.72	-51.3	-69.4	3.5	3.02e+01	0	43	104	298319872	60	113516
2026-01-20 13:57:50.70	122.34	2.67	-51.4	-69.4	3.5	3.02e+01	0	42	104	298319872	60	113993
2026-01-20 13:57:51.70	122.45	2.62	-50.9	-69.5	3.5	3.02e+01	0	42	104	298319872	60	114850
2026-01-20 13:57:52.71	122.57	2.58	-51.6	-69.5	3.5	3.02e+01	0	42	104	298319872	60	115092
2026-01-20 13:57:53.72	122.69	2.53	-51.5	-69.6	3.5	3.02e+01	0	42	104	298319872	60	116344
2026-01-20 13:57:54.73	122.80	2.49	-51.7	-69.6	3.5	3.02e+01	0	42	104	298319872	60	116544
2026-01-20 13:57:55.74	122.92	2.44	-51.7	-69.7	3.5	3.02e+01	0	42	104	298319872	60	117125
2026-01-20 13:57:56.75	123.03	2.39	-51.8	-69.6	3.5	3.02e+01	0	43	104	298319872	60	116592
2026-01-20 13:57:57.76	123.15	2.35	-51.8	-69.6	3.5	3.02e+01	0	42	104	298319872	60	116888
2026-01-20 13:57:58.77	123.26	2.30	-51.8	-69.7	3.5	3.02e+01	0	43	104	298319872	60	117159
2026-01-20 13:57:59.78	123.38	2.25	-51.8	-69.6	3.5	3.02e+01	0	42	104	298319872	60	116580
2026-01-20 13:58:00.77	123.49	2.21	-51.9	-69.7	3.5	3.02e+01	0	43	104	298319872	60	117343
2026-01-20 13:58:01.77	123.60	2.16	-51.8	-69.7	3.5	3.02e+01	0	42	104	298319872	60	117209
2026-01-20 13:58:02.78	123.71	2.11	-51.8	-69.7	3.5	3.02e+01	0	42	104	298319872	60	117050
2026-01-20 13:58:03.79	123.83	2.07	-51.8	-69.7	3.5	3.02e+01	0	42	104	298319872	60	116896
2026-01-20 13:58:04.80	123.94	2.02	-51.9	-69.7	3.5	3.02e+01	0	42	104	298319872	60	118055
2026-01-20 13:58:05.81	124.05	1.97	-51.9	-69.8	3.5	3.02e+01	0	42	104	298319872	60	118714
2026-01-20 13:58:06.82	124.16	1.93	-51.8	-69.7	3.5	3.02e+01	0	42	104	298319872	60	118128
2026-01-20 13:58:07.83	124.27	1.88	-51.8	-69.7	3.5	3.02e+01	0	43	104	298319872	60	117312
2026-01-20 13:58:08.84	124.38	1.84	-51.9	-69.7	3.5	3.02e+01	0	42	104	298319872	60	117934
2026-01-20 13:58:09.85	124.49	1.79	-51.9	-69.7	3.5	3.02e+01	0	42	104	298319872	60	117461
2026-01-20 13:58:10.86	124.60	1.74	-51.8	-69.7	3.5	3.02e+01	0	42	104	298319872	60	118003
2026-01-20 13:58:11.87	124.71	1.70	-51.9	-69.8	3.5	3.02e+01	0	42	104	298319872	60	118301
2026-01-20 13:58:12.88	124.82	1.65	-51.9	-69.8	3.5	3.02e+01	0	43	104	298319872	60	118496
2026-01-20 13:58:13.89	124.93	1.60	-51.9	-69.8	3.5	3.02e+01	0	42	104	298319872	60	118362
2026-01-20 13:58:14.90	125.04	1.56	-51.9	-69.7	3.5	3.02e+01	0	43	104	298319872	60	118123
2026-01-20 13:58:15.91	125.15	1.51	-51.9	-69.8	3.5	3.02e+01	0	43	104	298319872	60	118690
2026-01-20 13:58:16.92	125.26	1.46	-51.9	-69.8	3.5	3.02e+01	0	42	104	298319872	60	119443
2026-01-20 13:58:17.93	125.36	1.42	-52.0	-69.8	3.5	3.02e+01	0	42	104	298319872	60	119541
2026-01-20 13:58:18.94	125.47	1.37	-51.9	-69.8	3.5	3.02e+01	0	43	104	298319872	60	118512
2026-01-20 13:58:19.95	125.58	1.32	-52.0	-69.9	3.5	3.02e+01	0	43	104	298319872	60	120360
2026-01-20 13:58:20.96	125.68	1.28	-52.0	-69.9	3.5	3.02e+01	0	43	104	298319872	60	119745
2026-01-20 13:58:21.96	125.79	1.23	-52.0	-69.9	3.5	3.02e+01	0	43	104	298319872	60	120472
2026-01-20 13:58:22.97	125.90	1.19	-52.1	-70.0	3.5	3.02e+01	0	43	104	298319872	60	121193
2026-01-20 13:58:23.99	126.00	1.14	-52.1	-70.0	3.5	3.02e+01	0	43	104	298319872	60	121063
2026-01-20 13:58:25.00	126.11	1.09	-52.2	-70.0	3.5	3.02e+01	0	43	104	298319872	60	122273
2026-01-20 13:58:26.00	126.21	1.05	-52.3	-70.2	3.5	3.02e+01	0	43	104	298319872	60	124175
2026-01-20 13:58:27.02	126.32	1.00	-52.2	-70.1	3.5	3.02e+01	0	43	104	298319872	60	122927
2026-01-20 13:58:28.02	126.42	0.95	-52.2	-70.1	3.5	3.02e+01	0	43	104	298319872	60	122958
2026-01-20 13:58:29.04	126.52	0.91	-52.1	-69.9	3.5	3.02e+01	0	43	104	298319872	60	120291
2026-01-20 13:58:30.05	126.63	0.86	-52.0	-69.9	3.5	3.02e+01	0	43	104	298319872	60	119636
2026-01-20 13:58:31.06	126.73	0.81	-52.0	-69.8	3.5	3.02e+01	0	43	104	298319872	60	118687
2026-01-20 13:58:32.07	126.83	0.77	-51.9	-69.8	3.5	3.02e+01	0	43	104	298319872	60	118475
2026-01-20 13:58:33.08	126.94	0.72	-51.9	-69.8	3.5	3.02e+01	0	42	104	298319872	60	119485
2026-01-20 13:58:34.09	127.04	0.67	-51.9	-69.8	3.5	3.02e+01	0	43	104	298319872	60	118703
2026-01-20 13:58:35.10	127.14	0.63	-51.9	-69.8	3.5	3.02e+01	0	43	104	298319872	60	118419
2026-01-20 13:58:36.11	127.24	0.58	-51.9	-69.7	3.5	3.02e+01	0	43	104	298319872	60	117531
2026-01-20 13:58:37.12	127.34	0.54	-51.9	-69.8	3.5	3.02e+01	0	43	104	298319872	60	118767
2026-01-20 13:58:38.13	127.44	0.49	-52.0	-69.9	3.5	3.02e+01	0	42	104	298319872	60	120921
2026-01-20 13:58:39.14	127.54	0.44	-52.2	-70.1	3.5	3.02e+01	0	43	104	298319872	60	123033
2026-01-20 13:58:40.15	127.64	0.40	-52.1	-70.0	3.5	3.02e+01	0	43	104	298319872	60	121524
2026-01-20 13:58:41.16	127.74	0.35	-52.1	-70.0	3.5	3.02e+01	0	43	104	298319872	60	121706
2026-01-20 13:58:42.17	127.84	0.30	-52.3	-70.2	3.5	3.02e+01	0	42	104	298319872	60	124028
2026-01-20 13:58:43.18	127.94	0.26	-52.2	-70.0	3.5	3.02e+01	0	42	104	298319872	60	121692
2026-01-20 13:58:44.19	128.04	0.21	-52.2	-70.0	3.5	3.02e+01	0	43	104	298319872	60	122087
2026-01-20 13:58:45.19	128.14	0.17	-52.1	-70.0	3.5	3.02e+01	0	43	104	298319872	60	121254
2026-01-20 13:58:46.20	128.24	0.12	-52.4	-70.2	3.5	3.02e+01	0	43	104	298319872	60	124292
2026-01-20 13:58:47.21	128.33	0.07	-52.3	-70.2	3.5	3.02e+01	0	43	104	298319872	60	124328
2026-01-20 13:58:48.22	128.43	0.03	-52.4	-70.3	3.5	3.02e+01	0	43	104	298319872	60	125688
2026-01-20 13:58:49.23	128.53	-0.02	-52.2	-70.1	3.5	3.02e+01	0	43	104	298319872	60	123027

#Closed at: 2026-01-20 13:58:49
#Recorded file [298 MB]: D:/lorett/data/35029_260121_014753.dat