passes_logs/2026/01/20/R4.6S_Anadyr/R4.6S_Anadyr__20260120_232643_NOAA_20_JPSS-1_rec.log

#Pass ID: 20260120_232643_NOAA 20 (JPSS-1)
#Satellite: NOAA 20 (JPSS-1)
#Configuration: NOAA 20
#almurnet v.1.7.20251203
#Start time: 2026-01-20 23:26:43

#Version: 2.2.20231116
#Station: R4.6S_Anadyr
#Location: 177.4865 lon 64.73178 lat
#TLE: 1 43013U 17073A   26020.26397077  .00000127  00000+0  80954-4 0  9999
#TLE: 2 43013  98.7643 321.1479 0001288  31.3158 328.8095 14.19537595423482

#Time	Az	El	Level	Level2	SNR	BER	BlckErr	Temp	State	Recorded	gain1	gain2
2026-01-20 23:26:43.85	137.20	0.05	-51.4	-66.3	3.5	1.51e+00	0	39	0	0	60	75019
2026-01-20 23:26:44.86	137.18	0.11	-51.5	-66.7	3.6	1.51e+00	0	40	104	0	60	78401
2026-01-20 23:26:45.87	137.16	0.17	-51.4	-66.7	3.6	1.51e+00	0	40	104	0	60	77912
2026-01-20 23:26:46.88	137.14	0.23	-51.4	-66.6	3.6	1.51e+00	0	40	104	0	60	77249
2026-01-20 23:26:47.89	137.12	0.29	-51.4	-66.6	3.6	1.51e+00	0	40	104	0	60	77077
2026-01-20 23:26:48.90	137.11	0.35	-51.3	-66.5	3.6	1.51e+00	0	40	104	0	60	76662
2026-01-20 23:26:49.91	137.09	0.41	-51.3	-66.5	3.6	1.51e+00	0	40	104	0	60	76452
2026-01-20 23:26:50.92	137.07	0.47	-51.2	-66.5	3.6	1.51e+00	0	40	104	0	60	75974
2026-01-20 23:26:51.93	137.05	0.53	-51.2	-66.4	3.6	1.51e+00	0	40	104	0	60	75923
2026-01-20 23:26:52.94	137.03	0.59	-51.2	-66.4	3.6	1.51e+00	0	40	104	0	60	75800
2026-01-20 23:26:53.95	137.01	0.65	-51.2	-66.4	3.6	1.51e+00	0	40	104	0	60	75387
2026-01-20 23:26:54.95	136.99	0.72	-51.2	-66.4	3.6	1.51e+00	0	40	104	0	60	75531
2026-01-20 23:26:55.96	136.97	0.78	-51.1	-66.3	3.6	1.51e+00	0	40	104	0	60	74643
2026-01-20 23:26:56.98	136.95	0.84	-51.0	-66.2	3.6	1.51e+00	0	40	104	0	60	74161
2026-01-20 23:26:57.99	136.94	0.90	-50.9	-66.2	3.6	1.51e+00	0	40	104	0	60	73612
2026-01-20 23:26:59.00	136.92	0.96	-50.8	-66.1	3.6	1.51e+00	0	40	104	0	60	72588
2026-01-20 23:27:00.01	136.90	1.03	-50.8	-66.0	3.6	1.51e+00	0	40	104	0	60	72278
2026-01-20 23:27:01.02	136.88	1.09	-50.7	-65.9	3.6	1.51e+00	0	40	104	0	60	71441
2026-01-20 23:27:02.03	136.86	1.15	-50.6	-65.8	3.6	1.51e+00	0	40	104	0	60	70521
2026-01-20 23:27:03.04	136.84	1.21	-50.6	-65.8	3.6	1.51e+00	0	40	104	0	60	70185
2026-01-20 23:27:04.05	136.82	1.27	-50.5	-65.7	3.6	1.51e+00	0	40	104	0	60	69411
2026-01-20 23:27:05.06	136.80	1.34	-50.5	-65.7	3.6	1.51e+00	0	40	104	0	60	69597
2026-01-20 23:27:06.07	136.78	1.40	-50.3	-65.5	3.6	1.51e+00	0	40	104	0	60	67987
2026-01-20 23:27:07.08	136.76	1.46	-50.2	-65.3	3.6	1.51e+00	0	40	104	0	60	66653
2026-01-20 23:27:08.09	136.74	1.53	-49.7	-64.6	3.6	1.51e+00	0	40	104	0	60	61714
2026-01-20 23:27:09.10	136.72	1.59	-49.5	-64.7	3.6	1.51e+00	0	40	104	0	60	61912
2026-01-20 23:27:10.11	136.70	1.65	-49.4	-64.7	3.6	1.51e+00	0	41	104	0	60	61964
2026-01-20 23:27:11.12	136.68	1.72	-49.4	-64.7	3.6	1.51e+00	0	40	104	0	60	62173
2026-01-20 23:27:12.12	136.66	1.78	-49.4	-64.7	3.6	1.51e+00	0	40	104	0	60	61945
2026-01-20 23:27:13.14	136.63	1.84	-49.4	-64.7	3.6	1.51e+00	0	41	104	0	60	62124
2026-01-20 23:27:14.14	136.61	1.91	-49.4	-64.6	3.6	1.51e+00	0	41	104	0	60	61517
2026-01-20 23:27:15.15	136.59	1.97	-49.4	-64.6	3.6	1.51e+00	0	41	104	0	60	61517
2026-01-20 23:27:16.17	136.57	2.04	-49.4	-64.4	3.6	1.51e+00	0	41	104	0	60	60261
2026-01-20 23:27:17.17	136.55	2.10	-49.4	-64.3	3.6	1.51e+00	0	41	104	0	60	59040
2026-01-20 23:27:18.18	136.53	2.16	-49.4	-64.2	3.6	1.51e+00	0	41	104	0	60	58555
2026-01-20 23:27:19.19	136.51	2.23	-49.4	-64.3	3.6	1.51e+00	0	41	104	0	60	59338
2026-01-20 23:27:20.20	136.49	2.29	-49.4	-64.3	3.6	1.51e+00	0	41	104	0	60	59572
2026-01-20 23:27:21.21	136.46	2.36	-49.4	-64.5	3.6	1.51e+00	0	41	104	0	60	60938
2026-01-20 23:27:22.22	136.44	2.42	-49.4	-64.7	3.6	1.51e+00	0	41	104	0	60	62295
2026-01-20 23:27:23.23	136.42	2.49	-49.4	-64.7	3.6	1.51e+00	0	41	104	0	60	61882
2026-01-20 23:27:24.24	136.40	2.55	-49.4	-64.7	3.6	1.51e+00	0	41	104	0	60	61787
2026-01-20 23:27:25.25	136.38	2.62	-49.4	-64.6	3.6	1.51e+00	0	41	104	0	60	61189
2026-01-20 23:27:26.26	136.36	2.68	-49.4	-64.4	3.6	1.51e+00	0	41	104	0	60	60131
2026-01-20 23:27:27.27	136.33	2.75	-49.4	-64.3	3.6	1.51e+00	0	41	104	0	60	59360
2026-01-20 23:27:28.28	136.31	2.82	-49.4	-64.2	3.6	1.51e+00	0	41	104	0	60	58295
2026-01-20 23:27:29.29	136.29	2.88	-49.4	-64.0	3.6	1.51e+00	0	41	104	0	60	57057
2026-01-20 23:27:30.29	136.27	2.95	-49.4	-63.8	3.5	1.51e+00	0	41	104	0	60	55819
2026-01-20 23:27:31.30	136.24	3.01	-49.4	-63.5	3.6	1.51e+00	0	41	104	0	60	53796
2026-01-20 23:27:32.31	136.22	3.08	-49.4	-63.5	3.6	1.51e+00	0	41	104	0	60	53872
2026-01-20 23:27:33.32	136.20	3.15	-49.4	-63.9	3.6	1.51e+00	0	41	104	0	60	56333
2026-01-20 23:27:34.33	136.17	3.21	-49.4	-64.3	3.6	1.51e+00	0	41	104	0	60	59581
2026-01-20 23:27:35.34	136.15	3.28	-49.4	-64.7	3.6	1.51e+00	0	41	104	0	60	62177
2026-01-20 23:27:36.35	136.13	3.35	-49.4	-64.3	3.6	1.51e+00	0	41	104	0	60	59332
2026-01-20 23:27:37.36	136.10	3.42	-49.3	-62.6	3.6	1.51e+00	0	41	104	0	60	48714
2026-01-20 23:27:38.37	136.08	3.48	-49.0	-58.2	5.0	9.88e-01	0	41	0	0	60	29480
2026-01-20 23:27:39.38	136.06	3.55	-48.6	-55.4	7.7	4.31e-01	0	41	0	2097152	60	21305
2026-01-20 23:27:40.39	136.03	3.62	-48.3	-54.3	8.7	3.92e-02	0	41	0	3145728	60	18855
2026-01-20 23:27:41.40	136.01	3.69	-47.7	-52.5	10.5	9.18e-03	0	41	0	5242880	60	15330
2026-01-20 23:27:42.41	135.99	3.75	-48.5	-54.8	5.4	2.48e-03	0	41	0	7340032	60	19951
2026-01-20 23:27:43.42	135.96	3.82	-49.6	-63.3	3.6	1.51e+00	0	41	104	7340032	60	52615
2026-01-20 23:27:44.43	135.94	3.89	-49.2	-58.8	4.7	1.51e+00	0	41	104	7340032	60	31593
2026-01-20 23:27:45.44	135.91	3.96	-47.1	-51.0	13.5	3.59e-01	0	41	0	7340032	60	12777
2026-01-20 23:27:46.45	135.89	4.03	-44.8	-47.0	15.8	0.00e+00	0	41	0	9437184	58	9030
2026-01-20 23:27:47.45	135.86	4.10	-49.3	-62.9	3.7	1.51e+00	0	41	104	9437184	60	50358
2026-01-20 23:27:48.46	135.84	4.17	-42.6	-44.1	18.6	2.86e-01	0	41	104	9437184	58	6488
2026-01-20 23:27:49.47	135.81	4.24	-41.8	-43.1	20.5	0.00e+00	0	41	0	10485760	56	6494
2026-01-20 23:27:50.48	135.79	4.30	-42.0	-43.4	20.4	0.00e+00	0	41	0	12582912	56	6705
2026-01-20 23:27:51.49	135.76	4.37	-41.9	-43.1	20.6	0.00e+00	0	41	0	14680064	56	6535
2026-01-20 23:27:52.50	135.74	4.44	-42.0	-43.3	20.5	0.00e+00	0	41	0	15728640	56	6639
2026-01-20 23:27:53.51	135.71	4.51	-42.3	-43.7	20.3	0.00e+00	0	41	0	17825792	56	6950
2026-01-20 23:27:54.52	135.69	4.58	-42.0	-43.2	20.6	0.00e+00	0	41	0	19922944	56	6606
2026-01-20 23:27:55.53	135.66	4.65	-42.2	-43.5	20.3	0.00e+00	0	41	0	22020096	56	6809
2026-01-20 23:27:56.54	135.64	4.72	-42.0	-43.3	20.5	0.00e+00	0	41	0	24117248	56	6644
2026-01-20 23:27:57.55	135.61	4.80	-42.1	-43.4	20.6	0.00e+00	0	41	0	25165824	56	6697
2026-01-20 23:27:58.57	135.58	4.87	-42.3	-43.7	20.3	0.00e+00	0	41	0	27262976	56	6954
2026-01-20 23:27:59.57	135.56	4.94	-42.1	-43.4	20.6	0.00e+00	0	41	0	29360128	56	6698
2026-01-20 23:28:00.58	135.53	5.01	-42.1	-43.4	20.5	0.00e+00	0	41	0	31457280	56	6733
2026-01-20 23:28:01.59	135.50	5.08	-42.4	-43.8	20.2	0.00e+00	0	41	0	33554432	58	6265
2026-01-20 23:28:02.60	135.48	5.15	-42.2	-43.5	20.3	0.00e+00	0	41	0	34603008	58	6083
2026-01-20 23:28:03.61	135.45	5.22	-42.3	-43.6	20.4	0.00e+00	0	41	0	36700160	58	6146
2026-01-20 23:28:04.62	135.42	5.30	-42.2	-43.5	20.3	0.00e+00	0	41	0	38797312	58	6065
2026-01-20 23:28:05.63	135.40	5.37	-42.4	-43.7	20.2	0.00e+00	0	41	0	40894464	58	6196
2026-01-20 23:28:06.64	135.37	5.44	-42.3	-43.7	20.3	0.00e+00	0	41	0	42991616	58	6187
2026-01-20 23:28:07.64	135.34	5.51	-42.1	-43.4	20.7	0.00e+00	0	41	0	45088768	58	6005
2026-01-20 23:28:08.65	135.31	5.58	-41.8	-43.0	21.0	0.00e+00	0	41	0	46137344	58	5739
2026-01-20 23:28:09.66	135.29	5.66	-41.3	-42.5	21.5	0.00e+00	0	41	0	48234496	56	6036
2026-01-20 23:28:10.67	135.26	5.73	-41.6	-42.7	21.4	0.00e+00	0	41	0	50331648	56	6244
2026-01-20 23:28:11.68	135.23	5.80	-41.6	-42.8	21.2	0.00e+00	0	41	0	52428800	56	6276
2026-01-20 23:28:12.69	135.20	5.88	-41.7	-42.9	21.3	0.00e+00	0	41	0	54525952	56	6349
2026-01-20 23:28:13.70	135.17	5.95	-41.5	-42.6	21.3	0.00e+00	0	41	0	55574528	56	6166
2026-01-20 23:28:14.71	135.15	6.03	-41.5	-42.6	21.6	0.00e+00	0	41	0	57671680	56	6132
2026-01-20 23:28:15.72	135.12	6.10	-42.0	-43.3	20.8	0.00e+00	0	41	0	59768832	56	6637
2026-01-20 23:28:16.73	135.09	6.17	-41.5	-42.6	21.4	0.00e+00	0	41	0	61865984	56	6140
2026-01-20 23:28:17.74	135.06	6.25	-41.7	-42.8	21.3	0.00e+00	0	41	0	63963136	56	6313
2026-01-20 23:28:18.75	135.03	6.32	-41.7	-42.9	21.3	0.00e+00	0	41	0	65011712	56	6325
2026-01-20 23:28:19.76	135.00	6.40	-41.4	-42.5	21.7	0.00e+00	0	41	0	67108864	56	6051
2026-01-20 23:28:20.77	134.97	6.47	-41.5	-42.6	21.5	0.00e+00	0	41	0	69206016	56	6170
2026-01-20 23:28:21.77	134.94	6.55	-41.4	-42.5	21.7	0.00e+00	0	41	0	71303168	56	6091
2026-01-20 23:28:22.79	134.91	6.62	-41.4	-42.5	21.7	0.00e+00	0	41	0	73400320	56	6050
2026-01-20 23:28:23.80	134.88	6.70	-41.5	-42.7	21.6	0.00e+00	0	41	0	74448896	56	6196
2026-01-20 23:28:24.81	134.85	6.78	-41.3	-42.4	21.7	0.00e+00	0	41	0	76546048	56	6020
2026-01-20 23:28:25.82	134.82	6.85	-41.4	-42.5	21.6	0.00e+00	0	41	0	78643200	56	6043
2026-01-20 23:28:26.83	134.79	6.93	-41.5	-42.6	21.5	0.00e+00	0	41	0	80740352	56	6118
2026-01-20 23:28:27.84	134.76	7.01	-41.6	-42.8	21.4	0.00e+00	0	41	0	82837504	56	6281
2026-01-20 23:28:28.85	134.73	7.08	-41.3	-42.4	21.8	0.00e+00	0	41	0	83886080	56	6029
2026-01-20 23:28:29.85	134.70	7.16	-41.3	-42.4	21.8	0.00e+00	0	41	0	85983232	56	6027
2026-01-20 23:28:30.87	134.67	7.24	-40.9	-42.0	22.1	0.00e+00	0	41	0	88080384	56	5729
2026-01-20 23:28:31.88	134.64	7.32	-41.1	-42.2	22.0	0.00e+00	0	41	0	90177536	56	5868
2026-01-20 23:28:32.89	134.60	7.39	-41.3	-42.4	21.8	0.00e+00	0	41	0	92274688	56	5994
2026-01-20 23:28:33.90	134.57	7.47	-41.5	-42.7	21.6	0.00e+00	0	41	0	93323264	56	6210
2026-01-20 23:28:34.91	134.54	7.55	-41.6	-42.8	21.5	0.00e+00	0	41	0	95420416	56	6247
2026-01-20 23:28:35.92	134.51	7.63	-41.4	-42.6	21.7	0.00e+00	0	41	0	97517568	56	6120
2026-01-20 23:28:36.93	134.47	7.71	-41.5	-42.7	21.6	0.00e+00	0	41	0	99614720	56	6197
2026-01-20 23:28:37.93	134.44	7.78	-41.8	-43.0	21.4	0.00e+00	0	41	0	101711872	56	6443
2026-01-20 23:28:38.94	134.41	7.86	-41.4	-42.5	21.8	0.00e+00	0	41	0	102760448	56	6075
2026-01-20 23:28:39.95	134.38	7.94	-41.2	-42.2	22.1	0.00e+00	0	41	0	104857600	56	5889
2026-01-20 23:28:40.96	134.34	8.02	-41.1	-42.2	22.1	0.00e+00	0	41	0	106954752	56	5877
2026-01-20 23:28:41.97	134.31	8.10	-41.2	-42.3	21.9	0.00e+00	0	41	0	109051904	56	5953
2026-01-20 23:28:42.98	134.28	8.18	-41.2	-42.3	22.1	0.00e+00	0	41	0	111149056	56	5946
2026-01-20 23:28:43.99	134.24	8.26	-40.8	-41.8	22.4	0.00e+00	0	41	0	113246208	56	5614
2026-01-20 23:28:45.00	134.21	8.34	-40.9	-41.9	22.2	0.00e+00	0	41	0	114294784	54	6366
2026-01-20 23:28:46.01	134.17	8.43	-40.6	-41.6	22.6	0.00e+00	0	41	0	116391936	54	6115
2026-01-20 23:28:47.02	134.14	8.51	-40.7	-41.7	22.5	0.00e+00	0	41	0	118489088	54	6214
2026-01-20 23:28:48.03	134.11	8.59	-40.8	-41.8	22.4	0.00e+00	0	41	0	120586240	54	6286
2026-01-20 23:28:49.03	134.07	8.67	-40.8	-41.8	22.4	0.00e+00	0	41	0	122683392	54	6298
2026-01-20 23:28:50.04	134.04	8.75	-40.8	-41.9	22.4	0.00e+00	0	41	0	123731968	54	6332
2026-01-20 23:28:51.05	134.00	8.83	-40.7	-41.8	22.5	0.00e+00	0	41	0	125829120	54	6259
2026-01-20 23:28:52.06	133.97	8.92	-40.8	-41.8	22.3	0.00e+00	0	41	0	127926272	54	6307
2026-01-20 23:28:53.07	133.93	9.00	-41.0	-42.0	22.2	0.00e+00	0	41	0	130023424	54	6457
2026-01-20 23:28:54.08	133.89	9.08	-40.9	-41.9	22.3	0.00e+00	0	41	0	132120576	54	6383
2026-01-20 23:28:55.09	133.86	9.16	-41.1	-42.1	22.1	0.00e+00	0	41	0	133169152	54	6526
2026-01-20 23:28:56.10	133.82	9.25	-40.8	-41.8	22.4	0.00e+00	0	41	0	135266304	54	6303
2026-01-20 23:28:57.11	133.79	9.33	-40.8	-41.9	22.4	0.00e+00	0	41	0	137363456	54	6322
2026-01-20 23:28:58.12	133.75	9.42	-40.7	-41.7	22.5	0.00e+00	0	41	0	139460608	54	6233
2026-01-20 23:28:59.13	133.71	9.50	-40.7	-41.7	22.6	0.00e+00	0	41	0	141557760	54	6178
2026-01-20 23:29:00.14	133.67	9.58	-40.6	-41.6	22.6	0.00e+00	0	41	0	142606336	54	6128
2026-01-20 23:29:01.15	133.64	9.67	-40.8	-41.8	22.5	0.00e+00	0	41	0	144703488	54	6280
2026-01-20 23:29:02.16	133.60	9.75	-40.4	-41.4	22.8	0.00e+00	0	41	0	146800640	54	5988
2026-01-20 23:29:03.17	133.56	9.84	-40.5	-41.5	22.7	0.00e+00	0	41	0	148897792	54	6081
2026-01-20 23:29:04.17	133.52	9.92	-40.5	-41.5	22.8	0.00e+00	0	41	0	150994944	54	6073
2026-01-20 23:29:05.18	133.48	10.01	-40.5	-41.5	22.8	0.00e+00	0	41	0	152043520	54	6083
2026-01-20 23:29:06.19	133.45	10.10	-40.6	-41.6	22.6	0.00e+00	0	41	0	154140672	54	6126
2026-01-20 23:29:07.20	133.41	10.18	-40.6	-41.6	22.7	0.00e+00	0	41	0	156237824	54	6131
2026-01-20 23:29:08.22	133.37	10.27	-40.6	-41.6	22.6	0.00e+00	0	41	0	158334976	54	6161
2026-01-20 23:29:09.23	133.33	10.36	-40.8	-41.8	22.5	0.00e+00	0	41	0	160432128	54	6312
2026-01-20 23:29:10.24	133.29	10.45	-40.5	-41.5	22.8	0.00e+00	0	41	0	161480704	54	6062
2026-01-20 23:29:11.24	133.25	10.53	-40.6	-41.6	22.7	0.00e+00	0	41	0	163577856	54	6130
2026-01-20 23:29:12.26	133.21	10.62	-40.5	-41.5	22.8	0.00e+00	0	41	0	165675008	54	6099
2026-01-20 23:29:13.27	133.17	10.71	-40.5	-41.5	22.9	0.00e+00	0	41	0	167772160	54	6040
2026-01-20 23:29:14.27	133.13	10.80	-40.5	-41.5	22.8	0.00e+00	0	41	0	169869312	54	6039
2026-01-20 23:29:15.28	133.09	10.89	-40.4	-41.3	22.9	0.00e+00	0	41	0	170917888	54	5939
2026-01-20 23:29:16.29	133.05	10.98	-40.3	-41.3	23.0	0.00e+00	0	41	0	173015040	54	5930
2026-01-20 23:29:17.31	133.00	11.07	-40.3	-41.3	23.0	0.00e+00	0	41	0	175112192	54	5932
2026-01-20 23:29:18.32	132.96	11.16	-40.3	-41.3	23.0	0.00e+00	0	41	0	177209344	54	5903
2026-01-20 23:29:19.33	132.92	11.25	-40.3	-41.3	23.1	0.00e+00	0	41	0	179306496	54	5921
2026-01-20 23:29:20.33	132.88	11.34	-40.2	-41.1	23.1	0.00e+00	0	41	0	181403648	54	5828
2026-01-20 23:29:21.35	132.83	11.43	-40.2	-41.2	23.1	0.00e+00	0	41	0	182452224	54	5843
2026-01-20 23:29:22.36	132.79	11.52	-40.3	-41.3	23.1	0.00e+00	0	41	0	184549376	54	5898
2026-01-20 23:29:23.36	132.75	11.61	-40.4	-41.3	23.0	0.00e+00	0	41	0	186646528	54	5959
2026-01-20 23:29:24.37	132.70	11.70	-40.4	-41.4	22.9	0.00e+00	0	41	0	188743680	54	5967
2026-01-20 23:29:25.38	132.66	11.79	-40.4	-41.4	23.0	0.00e+00	0	41	0	190840832	54	6000
2026-01-20 23:29:26.39	132.62	11.89	-40.4	-41.3	23.0	0.00e+00	0	41	0	191889408	54	5957
2026-01-20 23:29:27.40	132.57	11.98	-40.6	-41.6	22.7	0.00e+00	0	41	0	193986560	54	6158
2026-01-20 23:29:28.41	132.53	12.07	-40.5	-41.5	22.9	0.00e+00	0	41	0	196083712	54	6070
2026-01-20 23:29:29.42	132.48	12.17	-40.6	-41.6	22.8	0.00e+00	0	41	0	198180864	54	6115
2026-01-20 23:29:30.43	132.44	12.26	-40.5	-41.4	22.9	0.00e+00	0	41	0	200278016	54	6032
2026-01-20 23:29:31.44	132.39	12.35	-40.5	-41.5	22.8	0.00e+00	0	41	0	201326592	54	6083
2026-01-20 23:29:32.45	132.35	12.45	-40.3	-41.3	23.0	0.00e+00	0	41	0	203423744	54	5928
2026-01-20 23:29:33.46	132.30	12.54	-40.4	-41.3	22.9	0.00e+00	0	41	0	205520896	54	5962
2026-01-20 23:29:34.47	132.25	12.64	-40.4	-41.4	23.0	0.00e+00	0	41	0	207618048	54	5981
2026-01-20 23:29:35.48	132.21	12.73	-40.3	-41.3	23.0	0.00e+00	0	41	0	209715200	54	5908
2026-01-20 23:29:36.49	132.16	12.83	-40.1	-41.1	23.3	0.00e+00	0	41	0	210763776	54	5780
2026-01-20 23:29:37.50	132.11	12.93	-40.2	-41.2	23.1	0.00e+00	0	41	0	212860928	54	5842
2026-01-20 23:29:38.51	132.06	13.02	-40.2	-41.1	23.2	0.00e+00	0	41	0	214958080	54	5803
2026-01-20 23:29:39.52	132.02	13.12	-40.3	-41.2	23.1	0.00e+00	0	41	0	217055232	54	5886
2026-01-20 23:29:40.53	131.97	13.22	-40.2	-41.1	23.2	0.00e+00	0	41	0	219152384	54	5816
2026-01-20 23:29:41.53	131.92	13.31	-40.2	-41.1	23.2	0.00e+00	0	41	0	220200960	54	5812
2026-01-20 23:29:42.54	131.87	13.41	-40.2	-41.1	23.2	0.00e+00	0	41	0	222298112	54	5823
2026-01-20 23:29:43.55	131.82	13.51	-40.1	-41.0	23.3	0.00e+00	0	41	0	224395264	54	5751
2026-01-20 23:29:44.56	131.77	13.61	-40.2	-41.1	23.2	0.00e+00	0	41	0	226492416	54	5790
2026-01-20 23:29:45.57	131.72	13.71	-40.1	-41.0	23.2	0.00e+00	0	41	0	228589568	54	5757
2026-01-20 23:29:46.58	131.67	13.81	-40.1	-41.0	23.3	0.00e+00	0	41	0	229638144	54	5746
2026-01-20 23:29:47.59	131.62	13.91	-40.1	-41.0	23.3	0.00e+00	0	41	0	231735296	54	5751
2026-01-20 23:29:48.60	131.57	14.01	-40.1	-41.1	23.2	0.00e+00	0	41	0	233832448	54	5781
2026-01-20 23:29:49.61	131.52	14.11	-40.2	-41.1	23.2	0.00e+00	0	41	0	235929600	54	5785
2026-01-20 23:29:50.62	131.46	14.21	-40.4	-41.3	23.0	0.00e+00	0	41	0	238026752	54	5963
2026-01-20 23:29:51.63	131.41	14.31	-40.2	-41.2	23.1	0.00e+00	0	41	0	239075328	54	5844
2026-01-20 23:29:52.64	131.36	14.41	-40.4	-41.3	23.2	0.00e+00	0	41	0	241172480	54	5949
2026-01-20 23:29:53.65	131.30	14.52	-40.3	-41.2	23.2	0.00e+00	0	41	0	243269632	54	5895
2026-01-20 23:29:54.66	131.25	14.62	-40.2	-41.2	23.1	0.00e+00	0	41	0	245366784	54	5838
2026-01-20 23:29:55.67	131.20	14.72	-40.4	-41.4	23.0	0.00e+00	0	41	0	247463936	54	5980
2026-01-20 23:29:56.68	131.14	14.83	-40.5	-41.4	22.9	0.00e+00	0	41	0	249561088	54	6022
2026-01-20 23:29:57.69	131.09	14.93	-40.6	-41.6	22.8	0.00e+00	0	41	0	250609664	54	6113
2026-01-20 23:29:58.70	131.03	15.03	-40.6	-41.6	22.8	0.00e+00	0	41	0	252706816	54	6162
2026-01-20 23:29:59.71	130.98	15.14	-40.6	-41.6	22.9	0.00e+00	0	41	0	254803968	54	6133
2026-01-20 23:30:00.72	130.92	15.24	-40.7	-41.7	22.7	0.00e+00	0	41	0	256901120	54	6192
2026-01-20 23:30:01.73	130.86	15.35	-40.3	-41.3	23.0	0.00e+00	0	41	0	258998272	54	5925
2026-01-20 23:30:02.74	130.81	15.46	-40.5	-41.5	22.9	0.00e+00	0	41	0	260046848	54	6057
2026-01-20 23:30:03.75	130.75	15.56	-40.1	-41.0	23.4	0.00e+00	0	41	0	262144000	54	5738
2026-01-20 23:30:04.75	130.69	15.67	-39.9	-40.8	23.6	0.00e+00	0	41	0	264241152	54	5608
2026-01-20 23:30:05.77	130.63	15.78	-39.8	-40.7	23.6	0.00e+00	0	41	0	266338304	54	5554
2026-01-20 23:30:06.77	130.58	15.88	-40.0	-40.9	23.6	0.00e+00	0	41	0	268435456	54	5643
2026-01-20 23:30:07.78	130.52	15.99	-39.9	-40.9	23.5	0.00e+00	0	41	0	269484032	54	5638
2026-01-20 23:30:08.79	130.46	16.10	-40.1	-41.0	23.4	0.00e+00	0	41	0	271581184	54	5737
2026-01-20 23:30:09.80	130.40	16.21	-40.0	-40.9	23.5	0.00e+00	0	41	0	273678336	54	5675
2026-01-20 23:30:10.81	130.34	16.32	-40.1	-41.0	23.5	0.00e+00	0	41	0	275775488	54	5731
2026-01-20 23:30:11.82	130.28	16.43	-40.1	-41.0	23.4	0.00e+00	0	41	0	277872640	54	5746
2026-01-20 23:30:12.83	130.22	16.54	-40.1	-41.0	23.4	0.00e+00	0	41	0	278921216	54	5753
2026-01-20 23:30:13.84	130.15	16.65	-39.9	-40.8	23.5	0.00e+00	0	41	0	281018368	54	5625
2026-01-20 23:30:14.85	130.09	16.76	-40.1	-41.0	23.4	0.00e+00	0	41	0	283115520	54	5709
2026-01-20 23:30:15.86	130.03	16.87	-40.0	-40.9	23.5	0.00e+00	0	41	0	285212672	54	5664
2026-01-20 23:30:16.86	129.97	16.99	-40.0	-40.9	23.6	0.00e+00	0	41	0	287309824	54	5646
2026-01-20 23:30:17.87	129.90	17.10	-40.1	-41.0	23.4	0.00e+00	0	41	0	288358400	54	5744
2026-01-20 23:30:18.88	129.84	17.21	-40.0	-41.0	23.4	0.00e+00	0	41	0	290455552	54	5712
2026-01-20 23:30:19.89	129.77	17.33	-40.0	-40.9	23.5	0.00e+00	0	41	0	292552704	54	5686
2026-01-20 23:30:20.90	129.71	17.44	-40.1	-41.1	23.4	0.00e+00	0	41	0	294649856	54	5781
2026-01-20 23:30:21.91	129.64	17.56	-40.0	-40.9	23.5	0.00e+00	0	41	0	296747008	54	5652
2026-01-20 23:30:22.92	129.58	17.67	-40.1	-41.0	23.5	0.00e+00	0	41	0	297795584	54	5746
2026-01-20 23:30:23.93	129.51	17.79	-40.0	-40.9	23.4	0.00e+00	0	41	0	299892736	54	5682
2026-01-20 23:30:24.94	129.44	17.90	-40.0	-40.9	23.5	0.00e+00	0	41	0	301989888	54	5691
2026-01-20 23:30:25.95	129.37	18.02	-40.1	-41.0	23.4	0.00e+00	0	41	0	304087040	54	5747
2026-01-20 23:30:26.96	129.30	18.14	-40.0	-40.9	23.4	0.00e+00	0	41	0	306184192	54	5689
2026-01-20 23:30:27.97	129.24	18.26	-40.1	-41.0	23.4	0.00e+00	0	41	0	307232768	54	5750
2026-01-20 23:30:28.98	129.17	18.37	-40.1	-41.1	23.4	0.00e+00	0	41	0	309329920	54	5777
2026-01-20 23:30:29.99	129.10	18.49	-40.2	-41.1	23.3	0.00e+00	0	41	0	311427072	54	5812
2026-01-20 23:30:31.00	129.02	18.61	-40.3	-41.3	23.3	0.00e+00	0	41	0	313524224	54	5906
2026-01-20 23:30:32.01	128.95	18.73	-40.3	-41.2	23.2	0.00e+00	0	41	0	315621376	54	5877
2026-01-20 23:30:33.02	128.88	18.85	-40.0	-40.9	23.5	0.00e+00	0	41	0	317718528	54	5692
2026-01-20 23:30:34.03	128.81	18.97	-40.0	-40.9	23.5	0.00e+00	0	42	0	318767104	54	5670
2026-01-20 23:30:35.04	128.74	19.10	-40.1	-41.0	23.5	0.00e+00	0	41	0	320864256	54	5735
2026-01-20 23:30:36.05	128.66	19.22	-40.0	-40.9	23.6	0.00e+00	0	41	0	322961408	54	5682
2026-01-20 23:30:37.06	128.59	19.34	-40.1	-41.0	23.5	0.00e+00	0	41	0	325058560	54	5737
2026-01-20 23:30:38.07	128.51	19.47	-40.0	-41.0	23.6	0.00e+00	0	41	0	327155712	54	5699
2026-01-20 23:30:39.08	128.44	19.59	-40.1	-41.0	23.5	0.00e+00	0	41	0	328204288	54	5725
2026-01-20 23:30:40.08	128.36	19.71	-40.1	-41.0	23.6	0.00e+00	0	42	0	330301440	54	5720
2026-01-20 23:30:41.09	128.28	19.84	-40.1	-41.0	23.5	0.00e+00	0	41	0	332398592	54	5700
2026-01-20 23:30:42.10	128.21	19.96	-40.1	-41.0	23.5	0.00e+00	0	41	0	334495744	54	5737
2026-01-20 23:30:43.11	128.13	20.09	-40.2	-41.1	23.4	0.00e+00	0	41	0	336592896	54	5793
2026-01-20 23:30:44.12	128.05	20.22	-40.3	-41.2	23.3	0.00e+00	0	41	0	337641472	54	5876
2026-01-20 23:30:45.13	127.97	20.34	-40.3	-41.2	23.3	0.00e+00	0	41	0	339738624	54	5880
2026-01-20 23:30:46.14	127.89	20.47	-40.3	-41.2	23.3	0.00e+00	0	41	0	341835776	54	5864
2026-01-20 23:30:47.15	127.81	20.60	-40.3	-41.2	23.3	0.00e+00	0	41	0	343932928	54	5879
2026-01-20 23:30:48.16	127.73	20.73	-40.3	-41.2	23.3	0.00e+00	0	41	0	346030080	54	5883
2026-01-20 23:30:49.17	127.64	20.86	-40.3	-41.2	23.4	0.00e+00	0	41	0	347078656	54	5867
2026-01-20 23:30:50.18	127.56	20.99	-40.4	-41.4	23.2	0.00e+00	0	41	0	349175808	54	5984
2026-01-20 23:30:51.19	127.48	21.12	-40.4	-41.3	23.3	0.00e+00	0	41	0	351272960	54	5928
2026-01-20 23:30:52.20	127.39	21.25	-40.5	-41.5	23.2	0.00e+00	0	41	0	353370112	54	6050
2026-01-20 23:30:53.21	127.31	21.38	-40.4	-41.3	23.3	0.00e+00	0	41	0	355467264	54	5953
2026-01-20 23:30:54.22	127.22	21.52	-40.4	-41.3	23.4	0.00e+00	0	42	0	356515840	54	5927
2026-01-20 23:30:55.23	127.14	21.65	-40.5	-41.5	23.0	0.00e+00	0	42	0	358612992	54	6043
2026-01-20 23:30:56.24	127.05	21.78	-40.4	-41.3	23.2	0.00e+00	0	41	0	360710144	54	5953
2026-01-20 23:30:57.25	126.96	21.92	-40.6	-41.5	23.1	0.00e+00	0	41	0	362807296	54	6085
2026-01-20 23:30:58.26	126.87	22.05	-40.5	-41.5	23.1	0.00e+00	0	41	0	364904448	54	6065
2026-01-20 23:30:59.27	126.78	22.19	-40.7	-41.7	22.9	0.00e+00	0	41	0	365953024	54	6235
2026-01-20 23:31:00.28	126.69	22.33	-40.6	-41.6	23.0	0.00e+00	0	42	0	368050176	54	6136
2026-01-20 23:31:01.29	126.60	22.46	-40.6	-41.6	23.1	0.00e+00	0	42	0	370147328	54	6106
2026-01-20 23:31:02.29	126.51	22.60	-40.6	-41.6	23.1	0.00e+00	0	41	0	372244480	54	6143
2026-01-20 23:31:03.30	126.41	22.74	-40.8	-41.8	22.9	0.00e+00	0	42	0	374341632	54	6290
2026-01-20 23:31:04.31	126.32	22.88	-40.9	-41.8	22.8	0.00e+00	0	41	0	375390208	54	6312
2026-01-20 23:31:05.32	126.22	23.02	-41.0	-42.0	22.7	0.00e+00	0	41	0	377487360	54	6453
2026-01-20 23:31:06.33	126.13	23.16	-40.9	-41.9	22.8	0.00e+00	0	42	0	379584512	54	6339
2026-01-20 23:31:07.34	126.03	23.30	-41.1	-42.1	22.7	0.00e+00	0	42	0	381681664	54	6473
2026-01-20 23:31:08.35	125.93	23.44	-41.1	-42.0	22.7	0.00e+00	0	41	0	383778816	54	6463
2026-01-20 23:31:09.36	125.83	23.59	-41.1	-42.0	22.7	0.00e+00	0	42	0	384827392	54	6454
2026-01-20 23:31:10.37	125.73	23.73	-41.1	-42.1	22.6	0.00e+00	0	42	0	386924544	54	6496
2026-01-20 23:31:11.38	125.63	23.87	-41.3	-42.3	22.4	0.00e+00	0	42	0	389021696	54	6655
2026-01-20 23:31:12.39	125.53	24.02	-41.5	-42.6	22.2	0.00e+00	0	42	0	391118848	54	6899
2026-01-20 23:31:13.40	125.43	24.16	-41.6	-42.7	22.1	0.00e+00	0	41	0	393216000	54	6947
2026-01-20 23:31:14.41	125.33	24.31	-41.9	-43.0	21.9	0.00e+00	0	42	0	394264576	56	6419
2026-01-20 23:31:15.42	125.22	24.46	-41.8	-42.9	22.0	0.00e+00	0	42	0	396361728	56	6364
2026-01-20 23:31:16.43	125.12	24.60	-41.7	-42.7	22.1	0.00e+00	0	42	0	398458880	56	6228
2026-01-20 23:31:17.44	125.01	24.75	-41.7	-42.8	22.0	0.00e+00	0	42	0	400556032	56	6269
2026-01-20 23:31:18.45	124.90	24.90	-41.7	-42.8	22.0	0.00e+00	0	42	0	402653184	56	6284
2026-01-20 23:31:19.46	124.79	25.05	-41.6	-42.7	22.2	0.00e+00	0	41	0	404750336	56	6203
2026-01-20 23:31:20.47	124.68	25.20	-41.8	-42.9	22.0	0.00e+00	0	42	0	405798912	56	6320
2026-01-20 23:31:21.48	124.57	25.35	-41.9	-43.0	21.8	0.00e+00	0	42	0	407896064	56	6405
2026-01-20 23:31:22.49	124.46	25.51	-41.8	-42.9	21.9	0.00e+00	0	42	0	409993216	56	6334
2026-01-20 23:31:23.49	124.35	25.66	-41.9	-43.0	21.7	0.00e+00	0	42	0	412090368	56	6445
2026-01-20 23:31:24.50	124.24	25.81	-41.8	-42.9	22.0	0.00e+00	0	42	0	414187520	56	6374
2026-01-20 23:31:25.51	124.12	25.96	-42.0	-43.1	21.7	0.00e+00	0	42	0	415236096	56	6517
2026-01-20 23:31:26.52	124.00	26.12	-42.1	-43.3	21.6	0.00e+00	0	42	0	417333248	56	6618
2026-01-20 23:31:27.53	123.89	26.28	-42.1	-43.2	21.7	0.00e+00	0	41	0	419430400	56	6572
2026-01-20 23:31:28.54	123.77	26.43	-42.3	-43.4	21.5	0.00e+00	0	42	0	421527552	56	6729
2026-01-20 23:31:29.55	123.65	26.59	-42.2	-43.3	21.6	0.00e+00	0	42	0	423624704	56	6654
2026-01-20 23:31:30.57	123.53	26.75	-42.3	-43.4	21.5	0.00e+00	0	42	0	424673280	56	6720
2026-01-20 23:31:31.57	123.40	26.91	-42.3	-43.5	21.4	0.00e+00	0	42	0	426770432	56	6792
2026-01-20 23:31:32.59	123.28	27.07	-42.4	-43.6	21.3	0.00e+00	0	42	0	428867584	56	6868
2026-01-20 23:31:33.60	123.15	27.23	-42.5	-43.7	21.2	0.00e+00	0	42	0	430964736	56	6942
2026-01-20 23:31:34.60	123.03	27.39	-42.5	-43.7	21.3	0.00e+00	0	41	0	433061888	56	6940
2026-01-20 23:31:35.61	122.90	27.55	-42.8	-44.0	21.0	0.00e+00	0	42	0	434110464	58	6411
2026-01-20 23:31:36.62	122.77	27.71	-43.0	-44.2	20.7	0.00e+00	0	42	0	436207616	58	6584
2026-01-20 23:31:37.64	122.64	27.88	-42.8	-44.0	21.0	0.00e+00	0	42	0	438304768	58	6425
2026-01-20 23:31:38.65	122.51	28.04	-42.8	-44.0	21.0	0.00e+00	0	42	0	440401920	58	6393
2026-01-20 23:31:39.66	122.38	28.21	-42.7	-43.9	20.9	0.00e+00	0	42	0	442499072	58	6355
2026-01-20 23:31:40.67	122.24	28.37	-42.7	-43.9	21.1	0.00e+00	0	42	0	444596224	58	6339
2026-01-20 23:31:41.68	122.11	28.54	-42.6	-43.8	21.1	0.00e+00	0	42	0	445644800	58	6288
2026-01-20 23:31:42.69	121.97	28.71	-42.6	-43.8	21.1	0.00e+00	0	42	0	447741952	58	6311
2026-01-20 23:31:43.70	121.83	28.88	-42.4	-43.6	21.3	0.00e+00	0	41	0	449839104	58	6135
2026-01-20 23:31:44.71	121.69	29.05	-42.5	-43.7	21.2	0.00e+00	0	42	0	451936256	58	6225
2026-01-20 23:31:45.72	121.55	29.22	-42.5	-43.7	21.3	0.00e+00	0	42	0	454033408	58	6191
2026-01-20 23:31:46.72	121.41	29.39	-42.4	-43.6	21.3	0.00e+00	0	42	0	455081984	58	6131
2026-01-20 23:31:47.73	121.26	29.56	-42.4	-43.5	21.4	0.00e+00	0	42	0	457179136	58	6096
2026-01-20 23:31:48.75	121.12	29.73	-42.3	-43.5	21.4	0.00e+00	0	42	0	459276288	58	6041
2026-01-20 23:31:49.75	120.97	29.90	-41.9	-43.0	21.8	0.00e+00	0	42	0	461373440	58	5748
2026-01-20 23:31:50.77	120.82	30.08	-41.8	-42.9	21.9	0.00e+00	0	42	0	463470592	58	5662
2026-01-20 23:31:51.78	120.67	30.25	-41.9	-42.9	21.9	0.00e+00	0	42	0	464519168	58	5690
2026-01-20 23:31:52.79	120.51	30.43	-41.8	-42.9	22.1	0.00e+00	0	42	0	466616320	56	6338
2026-01-20 23:31:53.79	120.36	30.61	-41.7	-42.8	22.1	0.00e+00	0	42	0	468713472	56	6269
2026-01-20 23:31:54.80	120.20	30.78	-41.8	-42.9	22.0	0.00e+00	0	42	0	470810624	56	6371
2026-01-20 23:31:55.82	120.04	30.96	-41.9	-43.0	21.9	0.00e+00	0	42	0	472907776	56	6442
2026-01-20 23:31:56.83	119.88	31.14	-42.0	-43.1	21.8	0.00e+00	0	42	0	473956352	56	6488
2026-01-20 23:31:57.83	119.72	31.32	-42.2	-43.4	21.5	0.00e+00	0	42	0	476053504	56	6703
2026-01-20 23:31:58.84	119.56	31.50	-42.4	-43.5	21.4	0.00e+00	0	41	0	478150656	56	6840
2026-01-20 23:31:59.85	119.39	31.68	-42.6	-43.8	21.2	0.00e+00	0	42	0	480247808	56	7013
2026-01-20 23:32:00.86	119.23	31.87	-42.7	-43.9	21.1	0.00e+00	0	42	0	482344960	58	6367
2026-01-20 23:32:01.87	119.06	32.05	-42.8	-44.0	20.9	0.00e+00	0	42	0	483393536	58	6430
2026-01-20 23:32:02.88	118.89	32.24	-43.3	-44.6	20.5	0.00e+00	0	41	0	485490688	58	6926
2026-01-20 23:32:03.89	118.71	32.42	-43.2	-44.5	20.3	0.00e+00	0	42	0	487587840	58	6820
2026-01-20 23:32:04.90	118.54	32.61	-43.3	-44.6	20.2	0.00e+00	0	41	0	489684992	58	6921
2026-01-20 23:32:05.91	118.36	32.79	-43.5	-44.8	20.1	0.00e+00	0	42	0	491782144	58	7029
2026-01-20 23:32:06.92	118.18	32.98	-43.7	-45.1	19.8	0.00e+00	0	42	0	492830720	60	6539
2026-01-20 23:32:07.93	118.00	33.17	-43.8	-45.2	19.9	0.00e+00	0	42	0	494927872	60	6593
2026-01-20 23:32:08.94	117.82	33.36	-43.3	-44.6	20.5	0.00e+00	0	42	0	497025024	60	6160
2026-01-20 23:32:09.95	117.63	33.55	-43.2	-44.5	20.5	0.00e+00	0	41	0	499122176	60	6055
2026-01-20 23:32:10.96	117.44	33.74	-43.0	-44.2	20.7	0.00e+00	0	42	0	501219328	60	5883
2026-01-20 23:32:11.97	117.25	33.93	-43.1	-44.4	20.7	0.00e+00	0	42	0	502267904	60	5972
2026-01-20 23:32:12.98	117.06	34.13	-43.4	-44.7	20.2	0.00e+00	0	42	0	504365056	60	6233
2026-01-20 23:32:13.99	116.86	34.32	-43.9	-45.3	19.7	0.00e+00	0	42	0	506462208	60	6645
2026-01-20 23:32:15.00	116.67	34.51	-44.0	-45.5	19.5	0.00e+00	0	42	0	508559360	60	6825
2026-01-20 23:32:16.00	116.47	34.71	-44.1	-45.7	19.4	0.00e+00	0	42	0	510656512	60	6929
2026-01-20 23:32:17.01	116.27	34.90	-44.2	-45.7	19.3	0.00e+00	0	42	0	511705088	60	6975
2026-01-20 23:32:18.02	116.06	35.10	-44.0	-45.5	19.4	0.00e+00	0	42	0	513802240	60	6825
2026-01-20 23:32:19.03	115.86	35.30	-44.1	-45.6	19.4	0.00e+00	0	42	0	515899392	60	6859
2026-01-20 23:32:20.04	115.65	35.50	-44.1	-45.5	19.5	0.00e+00	0	42	0	517996544	60	6848
2026-01-20 23:32:21.05	115.43	35.70	-44.1	-45.6	19.4	0.00e+00	0	42	0	520093696	60	6888
2026-01-20 23:32:22.06	115.22	35.90	-44.0	-45.5	19.5	0.00e+00	0	42	0	521142272	60	6815
2026-01-20 23:32:23.07	115.00	36.10	-44.0	-45.5	19.5	0.00e+00	0	42	0	523239424	60	6817
2026-01-20 23:32:24.08	114.78	36.30	-43.9	-45.4	19.7	0.00e+00	0	42	0	525336576	60	6721
2026-01-20 23:32:25.08	114.56	36.50	-43.6	-45.0	20.0	0.00e+00	0	42	0	527433728	60	6405
2026-01-20 23:32:26.09	114.33	36.70	-43.5	-44.9	20.1	0.00e+00	0	42	0	529530880	60	6335
2026-01-20 23:32:27.10	114.10	36.91	-43.0	-44.3	20.8	0.00e+00	0	42	0	530579456	60	5929
2026-01-20 23:32:28.11	113.87	37.11	-43.0	-44.2	20.7	0.00e+00	0	42	0	532676608	60	5876
2026-01-20 23:32:29.12	113.64	37.32	-42.9	-44.2	20.8	0.00e+00	0	42	0	534773760	60	5847
2026-01-20 23:32:30.13	113.40	37.52	-42.8	-44.0	20.8	0.00e+00	0	42	0	536870912	58	6439
2026-01-20 23:32:31.14	113.16	37.73	-42.6	-43.8	21.0	0.00e+00	0	42	0	538968064	58	6276
2026-01-20 23:32:32.15	112.92	37.94	-42.7	-43.9	20.9	0.00e+00	0	42	0	541065216	58	6372
2026-01-20 23:32:33.16	112.67	38.14	-42.8	-44.1	20.9	0.00e+00	0	42	0	542113792	58	6466
2026-01-20 23:32:34.17	112.42	38.35	-42.8	-44.0	20.9	0.00e+00	0	42	0	544210944	58	6432
2026-01-20 23:32:35.17	112.17	38.56	-43.0	-44.2	20.7	0.00e+00	0	41	0	546308096	58	6578
2026-01-20 23:32:36.18	111.91	38.77	-43.1	-44.4	20.5	0.00e+00	0	42	0	548405248	58	6743
2026-01-20 23:32:37.19	111.65	38.98	-42.8	-44.1	20.8	0.00e+00	0	42	0	550502400	58	6475
2026-01-20 23:32:38.20	111.39	39.19	-43.2	-44.5	20.5	0.00e+00	0	42	0	551550976	58	6776
2026-01-20 23:32:39.21	111.12	39.40	-43.1	-44.4	20.5	0.00e+00	0	42	0	553648128	58	6712
2026-01-20 23:32:40.22	110.85	39.62	-43.1	-44.3	20.4	0.00e+00	0	41	0	555745280	58	6691
2026-01-20 23:32:41.23	110.57	39.83	-43.3	-44.7	20.2	0.00e+00	0	42	0	557842432	58	6940
2026-01-20 23:32:42.24	110.30	40.04	-43.8	-45.2	19.7	0.00e+00	0	42	0	559939584	58	7414
2026-01-20 23:32:43.25	110.02	40.26	-44.2	-45.8	19.3	0.00e+00	0	42	0	560988160	60	7064
2026-01-20 23:32:44.26	109.73	40.47	-44.1	-45.7	19.3	0.00e+00	0	42	0	563085312	60	6953
2026-01-20 23:32:45.27	109.44	40.69	-44.1	-45.7	19.5	0.00e+00	0	42	0	565182464	60	6976
2026-01-20 23:32:46.28	109.15	40.90	-43.7	-45.1	19.9	0.00e+00	0	42	0	567279616	60	6523
2026-01-20 23:32:47.29	108.85	41.12	-43.3	-44.7	20.4	0.00e+00	0	42	0	569376768	60	6211
2026-01-20 23:32:48.30	108.55	41.34	-42.7	-43.9	21.0	0.00e+00	0	42	0	570425344	58	6351
2026-01-20 23:32:49.31	108.24	41.55	-42.7	-44.0	20.8	0.00e+00	0	42	0	572522496	58	6412
2026-01-20 23:32:50.32	107.94	41.77	-42.7	-44.0	20.9	0.00e+00	0	42	0	574619648	58	6408
2026-01-20 23:32:51.33	107.62	41.99	-42.7	-44.0	20.9	0.00e+00	0	42	0	576716800	58	6400
2026-01-20 23:32:52.34	107.30	42.20	-42.8	-44.0	20.8	0.00e+00	0	42	0	578813952	58	6464
2026-01-20 23:32:53.34	106.98	42.42	-42.5	-43.7	21.2	0.00e+00	0	42	0	579862528	58	6195
2026-01-20 23:32:54.35	106.66	42.64	-42.4	-43.5	21.3	0.00e+00	0	42	0	581959680	58	6089
2026-01-20 23:32:55.36	106.33	42.86	-42.2	-43.4	21.5	0.00e+00	0	42	0	584056832	58	5974
2026-01-20 23:32:56.37	105.99	43.07	-42.1	-43.2	21.6	0.00e+00	0	42	0	586153984	58	5892
2026-01-20 23:32:57.38	105.65	43.29	-42.3	-43.5	21.4	0.00e+00	0	42	0	588251136	58	6065
2026-01-20 23:32:58.39	105.31	43.51	-42.8	-44.0	20.9	0.00e+00	0	42	0	589299712	58	6431
2026-01-20 23:32:59.40	104.96	43.73	-43.2	-44.5	20.4	0.00e+00	0	42	0	591396864	58	6805
2026-01-20 23:33:00.41	104.60	43.95	-43.3	-44.6	20.2	0.00e+00	0	42	0	593494016	58	6902
2026-01-20 23:33:01.42	104.24	44.17	-43.3	-44.7	20.2	0.00e+00	0	42	0	595591168	58	6946
2026-01-20 23:33:02.43	103.88	44.39	-43.5	-44.9	20.1	0.00e+00	0	42	0	597688320	58	7109
2026-01-20 23:33:03.43	103.51	44.60	-43.3	-44.7	20.3	0.00e+00	0	42	0	598736896	58	6955
2026-01-20 23:33:04.45	103.13	44.82	-43.2	-44.5	20.4	0.00e+00	0	42	0	600834048	58	6831
2026-01-20 23:33:05.46	102.75	45.04	-43.1	-44.4	20.5	0.00e+00	0	42	0	602931200	58	6700
2026-01-20 23:33:06.46	102.37	45.26	-43.0	-44.2	20.7	0.00e+00	0	42	0	605028352	58	6600
2026-01-20 23:33:07.48	101.98	45.48	-43.3	-44.7	20.3	0.00e+00	0	42	0	607125504	58	6940
2026-01-20 23:33:08.48	101.59	45.69	-43.4	-44.7	20.3	0.00e+00	0	42	0	609222656	58	6959
2026-01-20 23:33:09.49	101.18	45.91	-43.2	-44.5	20.5	0.00e+00	0	42	0	610271232	58	6839
2026-01-20 23:33:10.50	100.78	46.13	-43.1	-44.4	20.5	0.00e+00	0	42	0	612368384	58	6747
2026-01-20 23:33:11.51	100.36	46.34	-43.2	-44.5	20.4	0.00e+00	0	42	0	614465536	58	6831
2026-01-20 23:33:12.52	99.95	46.56	-43.4	-44.8	20.1	0.00e+00	0	42	0	616562688	58	7022
2026-01-20 23:33:13.53	99.52	46.77	-43.5	-44.9	20.0	0.00e+00	0	42	0	618659840	58	7109
2026-01-20 23:33:14.54	99.09	46.99	-43.4	-44.8	20.0	0.00e+00	0	42	0	619708416	58	7030
2026-01-20 23:33:15.55	98.66	47.20	-43.2	-44.5	20.4	0.00e+00	0	42	0	621805568	58	6804
2026-01-20 23:33:16.56	98.21	47.41	-43.2	-44.5	20.5	0.00e+00	0	42	0	623902720	58	6808
2026-01-20 23:33:17.57	97.76	47.62	-43.2	-44.5	20.6	0.00e+00	0	42	0	625999872	58	6836
2026-01-20 23:33:18.58	97.31	47.84	-42.8	-44.0	21.0	0.00e+00	0	42	0	628097024	58	6415
2026-01-20 23:33:19.59	96.85	48.05	-42.5	-43.6	21.3	0.00e+00	0	42	0	629145600	58	6156
2026-01-20 23:33:20.60	96.38	48.25	-42.2	-43.3	21.6	0.00e+00	0	42	0	631242752	58	5933
2026-01-20 23:33:21.60	95.91	48.46	-42.2	-43.3	21.5	0.00e+00	0	42	0	633339904	58	5955
2026-01-20 23:33:22.62	95.43	48.67	-42.2	-43.4	21.5	0.00e+00	0	42	0	635437056	58	5985
2026-01-20 23:33:23.63	94.94	48.87	-42.2	-43.4	21.6	0.00e+00	0	42	0	637534208	58	6002
2026-01-20 23:33:24.64	94.45	49.08	-41.9	-43.0	21.9	0.00e+00	0	42	0	638582784	58	5757
2026-01-20 23:33:25.65	93.95	49.28	-41.6	-42.7	22.1	0.00e+00	0	42	0	640679936	56	6186
2026-01-20 23:33:26.66	93.45	49.48	-41.4	-42.4	22.4	0.00e+00	0	42	0	642777088	56	6016
2026-01-20 23:33:27.67	92.93	49.68	-41.4	-42.4	22.5	0.00e+00	0	42	0	644874240	56	6001
2026-01-20 23:33:28.67	92.42	49.88	-40.9	-41.8	23.0	0.00e+00	0	42	0	646971392	56	5608
2026-01-20 23:33:29.69	91.89	50.08	-40.4	-41.3	23.4	0.00e+00	0	42	0	648019968	54	5939
2026-01-20 23:33:30.69	91.36	50.27	-40.1	-41.0	23.5	0.00e+00	0	42	0	650117120	54	5739
2026-01-20 23:33:31.70	90.82	50.46	-39.8	-40.7	23.9	0.00e+00	0	42	0	652214272	54	5544
2026-01-20 23:33:32.71	90.27	50.65	-39.9	-40.7	23.9	0.00e+00	0	42	0	654311424	52	6240
2026-01-20 23:33:33.72	89.72	50.84	-39.9	-40.7	23.8	0.00e+00	0	42	0	656408576	52	6243
2026-01-20 23:33:34.73	89.16	51.03	-39.8	-40.7	23.9	0.00e+00	0	42	0	657457152	52	6175
2026-01-20 23:33:35.74	88.59	51.21	-39.8	-40.7	23.8	0.00e+00	0	42	0	659554304	52	6202
2026-01-20 23:33:36.75	88.02	51.40	-39.8	-40.7	23.8	0.00e+00	0	42	0	661651456	52	6207
2026-01-20 23:33:37.76	87.43	51.58	-40.1	-41.0	23.7	0.00e+00	0	42	0	663748608	52	6415
2026-01-20 23:33:38.77	86.85	51.75	-40.1	-41.0	23.5	0.00e+00	0	42	0	665845760	52	6436
2026-01-20 23:33:39.78	86.25	51.93	-40.2	-41.1	23.7	0.00e+00	0	42	0	666894336	52	6490
2026-01-20 23:33:40.79	85.65	52.10	-39.8	-40.6	23.9	0.00e+00	0	42	0	668991488	52	6170
2026-01-20 23:33:41.79	85.04	52.27	-39.6	-40.5	24.0	0.00e+00	0	42	0	671088640	52	6054
2026-01-20 23:33:42.80	84.43	52.44	-39.8	-40.7	23.9	0.00e+00	0	42	0	673185792	52	6184
2026-01-20 23:33:43.81	83.80	52.60	-39.9	-40.8	23.8	0.00e+00	0	42	0	675282944	52	6293
2026-01-20 23:33:44.82	83.17	52.76	-40.2	-41.1	23.6	0.00e+00	0	42	0	677380096	52	6482
2026-01-20 23:33:45.83	82.53	52.92	-40.5	-41.4	23.2	0.00e+00	0	42	0	678428672	52	6756
2026-01-20 23:33:46.84	81.89	53.07	-40.5	-41.4	23.3	0.00e+00	0	42	0	680525824	52	6714
2026-01-20 23:33:47.85	81.24	53.22	-40.7	-41.7	23.0	0.00e+00	0	42	0	682622976	52	6956
2026-01-20 23:33:48.86	80.58	53.37	-40.7	-41.7	23.0	0.00e+00	0	42	0	684720128	52	6947
2026-01-20 23:33:49.87	79.91	53.51	-40.5	-41.4	23.2	0.00e+00	0	42	0	686817280	52	6744
2026-01-20 23:33:50.88	79.24	53.66	-40.0	-40.9	23.8	0.00e+00	0	42	0	687865856	52	6366
2026-01-20 23:33:51.89	78.57	53.79	-39.7	-40.6	24.0	0.00e+00	0	42	0	689963008	52	6151
2026-01-20 23:33:52.90	77.88	53.93	-39.7	-40.6	24.1	0.00e+00	0	42	0	692060160	52	6126
2026-01-20 23:33:53.91	77.19	54.06	-39.4	-40.3	24.2	0.00e+00	0	42	0	694157312	52	5910
2026-01-20 23:33:54.92	76.50	54.18	-39.2	-40.1	24.5	0.00e+00	0	42	0	696254464	52	5768
2026-01-20 23:33:55.93	75.79	54.30	-38.8	-39.6	24.9	0.00e+00	0	42	0	697303040	50	6113
2026-01-20 23:33:56.94	75.08	54.42	-38.8	-39.6	24.8	0.00e+00	0	42	0	699400192	50	6112
2026-01-20 23:33:57.95	74.37	54.53	-39.1	-39.9	24.6	0.00e+00	0	42	0	701497344	50	6363
2026-01-20 23:33:58.96	73.65	54.64	-39.1	-39.9	24.5	0.00e+00	0	42	0	703594496	50	6384
2026-01-20 23:33:59.97	72.93	54.75	-38.7	-39.5	24.9	0.00e+00	0	42	0	705691648	50	6084
2026-01-20 23:34:00.97	72.20	54.85	-38.7	-39.5	25.0	0.00e+00	0	42	0	706740224	50	6036
2026-01-20 23:34:01.98	71.47	54.94	-38.7	-39.5	24.9	0.00e+00	0	42	0	708837376	50	6082
2026-01-20 23:34:02.99	70.73	55.03	-38.5	-39.3	25.0	0.00e+00	0	42	0	710934528	50	5946
2026-01-20 23:34:04.00	69.98	55.12	-38.5	-39.2	25.1	0.00e+00	0	42	0	713031680	50	5893
2026-01-20 23:34:05.00	69.24	55.20	-38.4	-39.2	25.1	0.00e+00	0	42	0	715128832	50	5853
2026-01-20 23:34:06.01	68.49	55.28	-38.3	-39.1	25.2	0.00e+00	0	42	0	716177408	50	5812
2026-01-20 23:34:07.02	67.73	55.35	-38.1	-38.9	25.4	0.00e+00	0	42	0	718274560	50	5641
2026-01-20 23:34:08.03	66.97	55.42	-37.9	-38.7	25.6	0.00e+00	0	42	0	720371712	50	5507
2026-01-20 23:34:09.04	66.20	55.48	-37.7	-38.4	25.7	0.00e+00	0	42	0	722468864	48	6001
2026-01-20 23:34:10.05	65.44	55.54	-37.9	-38.6	25.6	0.00e+00	0	42	0	724566016	48	6147
2026-01-20 23:34:11.06	64.67	55.59	-38.1	-38.9	25.4	0.00e+00	0	42	0	725614592	48	6354
2026-01-20 23:34:12.07	63.89	55.64	-37.6	-38.3	25.9	0.00e+00	0	42	0	727711744	48	5955
2026-01-20 23:34:13.08	63.12	55.68	-37.6	-38.3	25.9	0.00e+00	0	42	0	729808896	48	5921
2026-01-20 23:34:14.09	62.34	55.71	-37.7	-38.5	25.7	0.00e+00	0	42	0	731906048	48	6054
2026-01-20 23:34:15.10	61.56	55.75	-37.9	-38.6	25.7	0.00e+00	0	42	0	734003200	48	6146
2026-01-20 23:34:16.11	60.78	55.77	-37.7	-38.4	25.8	0.00e+00	0	42	0	735051776	48	5998
2026-01-20 23:34:17.12	59.99	55.79	-37.6	-38.4	25.7	0.00e+00	0	42	0	737148928	48	5965
2026-01-20 23:34:18.13	59.21	55.81	-37.9	-38.7	25.5	0.00e+00	0	42	0	739246080	48	6186
2026-01-20 23:34:19.14	58.42	55.82	-38.2	-39.0	25.2	0.00e+00	0	42	0	741343232	48	6434
2026-01-20 23:34:20.14	57.65	55.83	-38.3	-39.1	25.3	0.00e+00	0	42	0	743440384	48	6479
2026-01-20 23:34:21.15	56.86	55.83	-38.4	-39.2	25.2	0.00e+00	0	42	0	744488960	48	6571
2026-01-20 23:34:22.16	56.08	55.82	-38.7	-39.5	25.0	0.00e+00	0	42	0	746586112	48	6794
2026-01-20 23:34:23.17	55.29	55.81	-38.5	-39.3	25.2	0.00e+00	0	42	0	748683264	48	6632
2026-01-20 23:34:24.18	54.51	55.80	-38.5	-39.3	25.1	0.00e+00	0	42	0	750780416	48	6649
2026-01-20 23:34:25.18	53.73	55.78	-38.2	-39.0	25.2	0.00e+00	0	42	0	752877568	48	6457
2026-01-20 23:34:26.19	52.95	55.75	-38.3	-39.0	25.3	0.00e+00	0	42	0	753926144	48	6458
2026-01-20 23:34:27.20	52.17	55.72	-37.9	-38.6	25.6	0.00e+00	0	42	0	756023296	48	6152
2026-01-20 23:34:28.21	51.39	55.68	-38.2	-39.0	25.2	0.00e+00	0	42	0	758120448	48	6440
2026-01-20 23:34:29.22	50.62	55.64	-38.1	-38.9	25.6	0.00e+00	0	42	0	760217600	48	6328
2026-01-20 23:34:30.23	49.84	55.59	-37.6	-38.4	25.8	0.00e+00	0	42	0	762314752	48	5981
2026-01-20 23:34:31.24	49.07	55.54	-37.2	-37.9	26.3	0.00e+00	0	42	0	763363328	48	5686
2026-01-20 23:34:32.25	48.30	55.48	-36.7	-37.4	26.4	0.00e+00	0	42	0	765460480	46	6032
2026-01-20 23:34:33.26	47.54	55.42	-36.7	-37.4	26.5	0.00e+00	0	42	0	767557632	46	6029
2026-01-20 23:34:34.27	46.78	55.36	-36.9	-37.6	26.4	0.00e+00	0	42	0	769654784	46	6172
2026-01-20 23:34:35.28	46.02	55.28	-36.9	-37.6	26.4	0.00e+00	0	42	0	771751936	46	6123
2026-01-20 23:34:36.29	45.27	55.21	-37.0	-37.7	26.5	0.00e+00	0	42	0	773849088	46	6204
2026-01-20 23:34:37.30	44.52	55.13	-36.6	-37.3	26.6	0.00e+00	0	42	0	774897664	46	5941
2026-01-20 23:34:38.31	43.77	55.04	-36.6	-37.3	26.6	0.00e+00	0	42	0	776994816	46	5964
2026-01-20 23:34:39.32	43.03	54.95	-36.7	-37.4	26.5	0.00e+00	0	42	0	779091968	46	6000
2026-01-20 23:34:40.33	42.30	54.85	-37.0	-37.7	26.4	0.00e+00	0	42	0	781189120	46	6190
2026-01-20 23:34:41.34	41.57	54.76	-37.2	-37.9	26.2	0.00e+00	0	42	0	783286272	46	6380
2026-01-20 23:34:42.35	40.84	54.65	-37.2	-37.9	26.2	0.00e+00	0	42	0	784334848	46	6351
2026-01-20 23:34:43.36	40.12	54.54	-37.5	-38.2	26.0	0.00e+00	0	42	0	786432000	46	6600
2026-01-20 23:34:44.36	39.42	54.43	-37.7	-38.4	25.8	0.00e+00	0	42	0	788529152	46	6743
2026-01-20 23:34:45.37	38.71	54.31	-38.1	-38.9	25.5	0.00e+00	0	42	0	790626304	48	6331
2026-01-20 23:34:46.37	38.01	54.19	-38.3	-39.0	25.3	0.00e+00	0	42	0	792723456	48	6462
2026-01-20 23:34:47.38	37.32	54.07	-38.4	-39.2	25.2	0.00e+00	0	42	0	793772032	48	6581
2026-01-20 23:34:48.39	36.63	53.94	-38.7	-39.5	25.0	0.00e+00	0	42	0	795869184	48	6826
2026-01-20 23:34:49.40	35.94	53.81	-38.9	-39.7	24.7	0.00e+00	0	42	0	797966336	50	6190
2026-01-20 23:34:50.41	35.27	53.67	-39.2	-40.1	24.5	0.00e+00	0	42	0	800063488	50	6467
2026-01-20 23:34:51.42	34.60	53.53	-39.1	-39.9	24.6	0.00e+00	0	42	0	802160640	50	6362
2026-01-20 23:34:52.43	33.93	53.39	-39.1	-39.9	24.6	0.00e+00	0	42	0	803209216	50	6380
2026-01-20 23:34:53.44	33.27	53.24	-39.0	-39.8	24.8	0.00e+00	0	42	0	805306368	50	6296
2026-01-20 23:34:54.45	32.62	53.09	-38.7	-39.5	25.0	0.00e+00	0	42	0	807403520	50	6090
2026-01-20 23:34:55.46	31.98	52.94	-38.6	-39.4	25.0	0.00e+00	0	42	0	809500672	50	6006
2026-01-20 23:34:56.46	31.35	52.78	-38.9	-39.7	24.8	0.00e+00	0	42	0	811597824	50	6207
2026-01-20 23:34:57.47	30.72	52.62	-38.9	-39.7	24.9	0.00e+00	0	42	0	812646400	50	6179
2026-01-20 23:34:58.48	30.09	52.46	-38.8	-39.6	24.8	0.00e+00	0	42	0	814743552	50	6156
2026-01-20 23:34:59.50	29.47	52.29	-38.8	-39.6	24.8	0.00e+00	0	42	0	816840704	50	6151
2026-01-20 23:35:00.51	28.86	52.12	-39.0	-39.8	24.7	0.00e+00	0	42	0	818937856	50	6274
2026-01-20 23:35:01.52	28.26	51.95	-39.1	-39.9	24.6	0.00e+00	0	42	0	821035008	50	6355
2026-01-20 23:35:02.52	27.67	51.78	-39.2	-40.1	24.5	0.00e+00	0	42	0	822083584	50	6479
2026-01-20 23:35:03.53	27.08	51.60	-39.3	-40.1	24.4	0.00e+00	0	42	0	824180736	50	6501
2026-01-20 23:35:04.54	26.50	51.42	-39.1	-39.9	24.6	0.00e+00	0	42	0	826277888	50	6383
2026-01-20 23:35:05.55	25.92	51.24	-39.4	-40.3	24.3	0.00e+00	0	42	0	828375040	50	6625
2026-01-20 23:35:06.56	25.36	51.06	-40.1	-40.9	23.8	0.00e+00	0	42	0	830472192	52	6390
2026-01-20 23:35:07.57	24.80	50.87	-40.4	-41.4	23.4	0.00e+00	0	42	0	831520768	52	6704
2026-01-20 23:35:08.59	24.24	50.68	-40.9	-41.9	22.6	0.00e+00	0	42	0	833617920	54	6330
2026-01-20 23:35:09.60	23.69	50.49	-41.0	-41.9	22.9	0.00e+00	0	42	0	835715072	54	6389
2026-01-20 23:35:10.60	23.16	50.30	-41.0	-41.9	22.7	0.00e+00	0	42	0	837812224	54	6390
2026-01-20 23:35:11.61	22.62	50.11	-41.3	-42.3	22.5	0.00e+00	0	42	0	839909376	54	6654
2026-01-20 23:35:12.62	22.10	49.91	-42.3	-43.4	21.5	0.00e+00	0	42	0	842006528	56	6753
2026-01-20 23:35:13.63	21.58	49.71	-42.4	-43.6	21.5	0.00e+00	0	42	0	843055104	56	6864
2026-01-20 23:35:14.64	21.07	49.51	-42.6	-43.7	21.2	0.00e+00	0	42	0	845152256	56	6978
2026-01-20 23:35:15.65	20.56	49.31	-42.9	-44.1	20.8	0.00e+00	0	42	0	847249408	58	6528
2026-01-20 23:35:16.66	20.06	49.11	-43.1	-44.4	20.6	0.00e+00	0	42	0	849346560	58	6695
2026-01-20 23:35:17.68	19.56	48.91	-43.7	-45.0	20.0	0.00e+00	0	42	0	851443712	58	7235
2026-01-20 23:35:18.69	19.08	48.70	-44.3	-45.8	19.3	0.00e+00	0	42	0	852492288	60	7037
2026-01-20 23:35:19.70	18.60	48.49	-44.4	-45.9	19.3	0.00e+00	0	42	0	854589440	60	7141
2026-01-20 23:35:20.71	18.13	48.29	-43.9	-45.3	19.8	0.00e+00	0	42	0	856686592	60	6682
2026-01-20 23:35:21.72	17.66	48.08	-44.0	-45.4	19.6	0.00e+00	0	42	0	858783744	60	6746
2026-01-20 23:35:22.73	17.20	47.87	-44.8	-46.5	18.9	0.00e+00	0	42	0	860880896	60	7613
2026-01-20 23:35:23.74	16.75	47.66	-44.6	-46.2	18.9	0.00e+00	0	42	0	861929472	60	7392
2026-01-20 23:35:24.75	16.30	47.45	-43.9	-45.3	19.9	0.00e+00	0	42	0	864026624	60	6638
2026-01-20 23:35:25.76	15.86	47.24	-43.6	-44.9	20.3	0.00e+00	0	42	0	866123776	60	6349
2026-01-20 23:35:26.76	15.43	47.03	-43.4	-44.8	20.3	0.00e+00	0	42	0	868220928	60	6257
2026-01-20 23:35:27.77	15.00	46.81	-43.7	-45.1	20.2	0.00e+00	0	42	0	870318080	60	6468
2026-01-20 23:35:28.78	14.57	46.60	-43.5	-44.8	20.2	0.00e+00	0	42	0	871366656	60	6317
2026-01-20 23:35:29.79	14.15	46.38	-44.0	-45.5	19.6	0.00e+00	0	42	0	873463808	60	6775
2026-01-20 23:35:30.80	13.74	46.17	-43.8	-45.2	20.1	0.00e+00	0	42	0	875560960	60	6540
2026-01-20 23:35:31.81	13.33	45.95	-43.1	-44.3	20.6	0.00e+00	0	42	0	877658112	60	5944
2026-01-20 23:35:32.82	12.93	45.74	-42.2	-43.3	21.6	0.00e+00	0	42	0	879755264	58	5942
2026-01-20 23:35:33.83	12.54	45.52	-42.3	-43.4	21.5	0.00e+00	0	42	0	880803840	58	5992
2026-01-20 23:35:34.84	12.15	45.30	-42.2	-43.4	21.5	0.00e+00	0	42	0	882900992	58	5992
2026-01-20 23:35:35.84	11.77	45.09	-42.1	-43.2	21.7	0.00e+00	0	42	0	884998144	58	5874
2026-01-20 23:35:36.85	11.39	44.87	-42.2	-43.3	21.5	0.00e+00	0	42	0	887095296	58	5929
2026-01-20 23:35:37.86	11.01	44.65	-42.7	-43.9	21.0	0.00e+00	0	42	0	889192448	58	6329
2026-01-20 23:35:38.88	10.64	44.43	-42.5	-43.7	21.2	0.00e+00	0	42	0	890241024	58	6209
2026-01-20 23:35:39.88	10.28	44.22	-42.1	-43.2	21.7	0.00e+00	0	42	0	892338176	58	5858
2026-01-20 23:35:40.89	9.92	44.00	-41.8	-42.9	22.0	0.00e+00	0	42	0	894435328	58	5668
2026-01-20 23:35:41.90	9.57	43.78	-41.8	-42.9	21.9	0.00e+00	0	42	0	896532480	58	5685
2026-01-20 23:35:42.91	9.22	43.56	-42.1	-43.2	21.7	0.00e+00	0	42	0	898629632	58	5859
2026-01-20 23:35:43.92	8.87	43.34	-42.2	-43.4	21.5	0.00e+00	0	42	0	899678208	58	5985
2026-01-20 23:35:44.93	8.53	43.13	-42.3	-43.5	21.3	0.00e+00	0	42	0	901775360	58	6047
2026-01-20 23:35:45.94	8.20	42.91	-42.4	-43.5	21.5	0.00e+00	0	42	0	903872512	58	6062
2026-01-20 23:35:46.95	7.87	42.69	-42.5	-43.7	21.4	0.00e+00	0	42	0	905969664	58	6174
2026-01-20 23:35:47.95	7.54	42.48	-42.3	-43.4	21.5	0.00e+00	0	42	0	908066816	58	6030
2026-01-20 23:35:48.96	7.22	42.26	-42.3	-43.5	21.4	0.00e+00	0	42	0	909115392	58	6073
2026-01-20 23:35:49.97	6.90	42.04	-42.6	-43.7	21.1	0.00e+00	0	42	0	911212544	58	6241
2026-01-20 23:35:50.98	6.59	41.83	-42.8	-44.1	20.9	0.00e+00	0	42	0	913309696	58	6471
2026-01-20 23:35:51.99	6.28	41.61	-43.0	-44.3	20.7	0.00e+00	0	42	0	915406848	58	6625
2026-01-20 23:35:53.00	5.98	41.39	-43.0	-44.2	20.6	0.00e+00	0	42	0	917504000	58	6593
2026-01-20 23:35:54.01	5.68	41.18	-42.8	-44.1	20.9	0.00e+00	0	42	0	918552576	58	6470
2026-01-20 23:35:55.02	5.38	40.96	-42.7	-43.9	21.0	0.00e+00	0	42	0	920649728	58	6372
2026-01-20 23:35:56.03	5.09	40.75	-42.4	-43.6	21.3	0.00e+00	0	42	0	922746880	58	6145
2026-01-20 23:35:57.04	4.80	40.53	-42.6	-43.7	21.1	0.00e+00	0	42	0	924844032	58	6242
2026-01-20 23:35:58.05	4.51	40.32	-42.6	-43.8	21.0	0.00e+00	0	42	0	926941184	58	6252
2026-01-20 23:35:59.06	4.23	40.11	-42.6	-43.8	21.0	0.00e+00	0	42	0	927989760	58	6304
2026-01-20 23:36:00.07	3.95	39.89	-42.8	-44.1	20.8	0.00e+00	0	42	0	930086912	58	6488
2026-01-20 23:36:01.08	3.68	39.68	-42.6	-43.8	21.0	0.00e+00	0	42	0	932184064	58	6268
2026-01-20 23:36:02.09	3.41	39.47	-42.3	-43.5	21.4	0.00e+00	0	42	0	934281216	58	6075
2026-01-20 23:36:03.09	3.15	39.26	-42.3	-43.4	21.4	0.00e+00	0	42	0	936378368	58	6032
2026-01-20 23:36:04.10	2.88	39.05	-42.3	-43.4	21.4	0.00e+00	0	42	0	938475520	58	5989
2026-01-20 23:36:05.11	2.62	38.84	-42.4	-43.5	21.2	0.00e+00	0	42	0	939524096	58	6073
2026-01-20 23:36:06.12	2.37	38.63	-42.5	-43.6	21.2	0.00e+00	0	42	0	941621248	58	6157
2026-01-20 23:36:07.13	2.11	38.42	-42.6	-43.8	21.0	0.00e+00	0	42	0	943718400	58	6295
2026-01-20 23:36:08.14	1.86	38.21	-42.8	-44.1	20.8	0.00e+00	0	42	0	945815552	58	6488
2026-01-20 23:36:09.15	1.62	38.01	-43.1	-44.4	20.5	0.00e+00	0	42	0	947912704	58	6750
2026-01-20 23:36:10.16	1.37	37.80	-42.9	-44.2	20.7	0.00e+00	0	42	0	948961280	58	6567
2026-01-20 23:36:11.17	1.13	37.59	-42.6	-43.8	21.0	0.00e+00	0	42	0	951058432	58	6270
2026-01-20 23:36:12.18	0.89	37.39	-42.5	-43.8	21.1	0.00e+00	0	42	0	953155584	58	6247
2026-01-20 23:36:13.19	0.66	37.18	-42.7	-44.0	20.9	0.00e+00	0	42	0	955252736	58	6399
2026-01-20 23:36:14.20	0.43	36.98	-42.7	-43.9	20.9	0.00e+00	0	42	0	957349888	58	6388
2026-01-20 23:36:15.21	0.20	36.78	-42.4	-43.6	21.2	0.00e+00	0	42	0	958398464	58	6169
2026-01-20 23:36:16.22	359.97	36.57	-42.4	-43.6	21.1	0.00e+00	0	42	0	960495616	58	6148
2026-01-20 23:36:17.23	359.75	36.37	-42.3	-43.5	21.3	0.00e+00	0	42	0	962592768	58	6081
2026-01-20 23:36:18.24	359.53	36.17	-42.3	-43.5	21.3	0.00e+00	0	42	0	964689920	58	6054
2026-01-20 23:36:19.25	359.31	35.97	-42.3	-43.5	21.3	0.00e+00	0	42	0	966787072	58	6059
2026-01-20 23:36:20.26	359.10	35.77	-42.5	-43.7	21.1	0.00e+00	0	42	0	967835648	58	6192
2026-01-20 23:36:21.26	358.89	35.58	-42.9	-44.1	20.7	0.00e+00	0	42	0	969932800	58	6522
2026-01-20 23:36:22.27	358.68	35.38	-43.0	-44.3	20.4	0.00e+00	0	42	0	972029952	58	6671
2026-01-20 23:36:23.29	358.47	35.18	-43.4	-44.8	20.1	0.00e+00	0	42	0	974127104	58	7053
2026-01-20 23:36:24.30	358.27	34.98	-43.5	-45.0	20.0	0.00e+00	0	42	0	976224256	58	7186
2026-01-20 23:36:25.31	358.07	34.79	-43.4	-44.8	20.1	0.00e+00	0	42	0	977272832	58	7052
2026-01-20 23:36:26.32	357.87	34.59	-43.2	-44.5	20.3	0.00e+00	0	42	0	979369984	58	6836
2026-01-20 23:36:27.33	357.67	34.40	-42.9	-44.2	20.6	0.00e+00	0	42	0	981467136	58	6602
2026-01-20 23:36:28.34	357.47	34.20	-42.5	-43.8	21.0	0.00e+00	0	42	0	983564288	58	6270
2026-01-20 23:36:29.35	357.28	34.01	-42.5	-43.7	21.1	0.00e+00	0	41	0	985661440	58	6231
2026-01-20 23:36:30.35	357.09	33.82	-42.5	-43.8	21.0	0.00e+00	0	42	0	986710016	58	6248
2026-01-20 23:36:31.36	356.91	33.63	-42.6	-43.8	20.9	0.00e+00	0	42	0	988807168	58	6290
2026-01-20 23:36:32.38	356.72	33.44	-42.7	-44.0	20.7	0.00e+00	0	41	0	990904320	58	6415
2026-01-20 23:36:33.38	356.54	33.25	-42.9	-44.2	20.4	0.00e+00	0	42	0	993001472	58	6595
2026-01-20 23:36:34.39	356.36	33.07	-43.1	-44.4	20.4	0.00e+00	0	42	0	995098624	58	6722
2026-01-20 23:36:35.40	356.18	32.88	-43.2	-44.5	20.3	0.00e+00	0	41	0	996147200	58	6833
2026-01-20 23:36:36.41	356.00	32.69	-43.2	-44.5	20.3	0.00e+00	0	42	0	998244352	58	6831
2026-01-20 23:36:37.42	355.83	32.51	-43.3	-44.7	20.0	0.00e+00	0	42	0	1000341504	58	6956
2026-01-20 23:36:38.43	355.65	32.32	-43.2	-44.5	20.2	0.00e+00	0	42	0	1002438656	58	6844
2026-01-20 23:36:39.44	355.48	32.14	-43.1	-44.4	20.4	0.00e+00	0	42	0	1004535808	58	6703
2026-01-20 23:36:40.45	355.31	31.96	-43.1	-44.4	20.5	0.00e+00	0	42	0	1006632960	58	6702
2026-01-20 23:36:41.46	355.15	31.77	-43.0	-44.2	20.5	0.00e+00	0	42	0	1007681536	58	6607
2026-01-20 23:36:42.47	354.98	31.59	-42.9	-44.2	20.5	0.00e+00	0	41	0	1009778688	58	6544
2026-01-20 23:36:43.48	354.82	31.41	-42.9	-44.1	20.6	0.00e+00	0	42	0	1011875840	58	6518
2026-01-20 23:36:44.49	354.66	31.23	-42.7	-44.0	20.8	0.00e+00	0	42	0	1013972992	58	6411
2026-01-20 23:36:45.50	354.50	31.05	-42.4	-43.6	21.1	0.00e+00	0	41	0	1016070144	58	6154
2026-01-20 23:36:46.51	354.34	30.87	-42.4	-43.6	21.1	0.00e+00	0	42	0	1017118720	58	6142
2026-01-20 23:36:47.51	354.18	30.70	-42.1	-43.3	21.3	0.00e+00	0	41	0	1019215872	58	5937
2026-01-20 23:36:48.52	354.03	30.52	-42.2	-43.4	21.2	0.00e+00	0	41	0	1021313024	58	5983
2026-01-20 23:36:49.53	353.88	30.35	-42.3	-43.5	21.2	0.00e+00	0	41	0	1023410176	58	6052
2026-01-20 23:36:50.54	353.73	30.17	-42.4	-43.6	21.1	0.00e+00	0	42	0	1025507328	58	6123
2026-01-20 23:36:51.55	353.58	30.00	-42.5	-43.8	20.9	0.00e+00	0	42	0	1026555904	58	6251
2026-01-20 23:36:52.56	353.43	29.83	-42.5	-43.7	20.9	0.00e+00	0	41	0	1028653056	58	6239
2026-01-20 23:36:53.57	353.28	29.65	-42.5	-43.8	20.9	0.00e+00	0	41	0	1030750208	58	6268
2026-01-20 23:36:54.58	353.14	29.48	-42.7	-43.9	20.8	0.00e+00	0	41	0	1032847360	58	6377
2026-01-20 23:36:55.59	353.00	29.31	-42.6	-43.8	20.9	0.00e+00	0	41	0	1034944512	58	6305
2026-01-20 23:36:56.60	352.86	29.14	-42.6	-43.9	20.8	0.00e+00	0	41	0	1035993088	58	6329
2026-01-20 23:36:57.61	352.72	28.97	-42.6	-43.8	20.8	0.00e+00	0	41	0	1038090240	58	6310
2026-01-20 23:36:58.61	352.58	28.81	-42.6	-43.8	20.9	0.00e+00	0	41	0	1040187392	58	6304
2026-01-20 23:36:59.62	352.44	28.64	-42.4	-43.6	21.1	0.00e+00	0	41	0	1042284544	58	6152
2026-01-20 23:37:00.63	352.31	28.47	-42.4	-43.6	21.1	0.00e+00	0	41	0	1044381696	58	6128
2026-01-20 23:37:01.64	352.17	28.31	-42.3	-43.5	21.0	0.00e+00	0	41	0	1045430272	58	6078
2026-01-20 23:37:02.65	352.04	28.14	-42.2	-43.4	21.1	0.00e+00	0	41	0	1047527424	58	6023
2026-01-20 23:37:03.66	351.91	27.98	-42.3	-43.5	21.1	0.00e+00	0	41	0	1049624576	58	6048
2026-01-20 23:37:04.67	351.78	27.82	-42.4	-43.6	21.0	0.00e+00	0	41	0	1051721728	58	6126
2026-01-20 23:37:05.68	351.65	27.65	-42.0	-43.2	21.4	0.00e+00	0	41	0	1053818880	58	5854
2026-01-20 23:37:06.69	351.52	27.49	-41.9	-43.0	21.4	0.00e+00	0	41	0	1054867456	58	5758
2026-01-20 23:37:07.69	351.40	27.33	-41.9	-43.0	21.6	0.00e+00	0	41	0	1056964608	58	5752
2026-01-20 23:37:08.70	351.27	27.17	-41.7	-42.9	21.7	0.00e+00	0	41	0	1059061760	58	5640
2026-01-20 23:37:09.71	351.15	27.01	-41.7	-42.8	21.8	0.00e+00	0	41	0	1061158912	56	6288
2026-01-20 23:37:10.72	351.03	26.86	-41.7	-42.8	21.8	0.00e+00	0	41	0	1063256064	56	6277
2026-01-20 23:37:11.73	350.91	26.70	-41.6	-42.7	21.9	0.00e+00	0	41	0	1064304640	56	6217
2026-01-20 23:37:12.74	350.79	26.54	-41.7	-42.8	21.8	0.00e+00	0	41	0	1066401792	56	6253
2026-01-20 23:37:13.75	350.67	26.39	-41.6	-42.7	21.8	0.00e+00	0	41	0	1068498944	56	6243
2026-01-20 23:37:14.76	350.55	26.23	-41.5	-42.6	22.0	0.00e+00	0	41	0	1070596096	56	6149
2026-01-20 23:37:15.77	350.44	26.08	-41.6	-42.6	21.9	0.00e+00	0	41	0	1072693248	56	6173
2026-01-20 23:37:16.77	350.32	25.92	-41.4	-42.5	22.1	0.00e+00	0	41	0	1074790400	56	6051
2026-01-20 23:37:17.78	350.21	25.77	-41.4	-42.4	22.1	0.00e+00	0	41	0	1075838976	56	6024
2026-01-20 23:37:18.79	350.10	25.62	-41.3	-42.3	22.2	0.00e+00	0	41	0	1077936128	56	5962
2026-01-20 23:37:19.80	349.99	25.47	-41.4	-42.4	22.1	0.00e+00	0	41	0	1080033280	56	6008
2026-01-20 23:37:20.81	349.88	25.31	-41.2	-42.3	22.2	0.00e+00	0	41	0	1082130432	56	5916
2026-01-20 23:37:21.82	349.77	25.16	-41.3	-42.4	22.2	0.00e+00	0	41	0	1084227584	56	5985
2026-01-20 23:37:22.83	349.66	25.02	-41.4	-42.4	22.1	0.00e+00	0	41	0	1085276160	56	5999
2026-01-20 23:37:23.84	349.55	24.87	-41.2	-42.2	22.3	0.00e+00	0	41	0	1087373312	56	5892
2026-01-20 23:37:24.85	349.45	24.72	-41.2	-42.3	22.3	0.00e+00	0	41	0	1089470464	56	5898
2026-01-20 23:37:25.86	349.34	24.57	-41.2	-42.3	22.2	0.00e+00	0	41	0	1091567616	56	5908
2026-01-20 23:37:26.87	349.24	24.42	-41.4	-42.4	22.1	0.00e+00	0	41	0	1092616192	56	6015
2026-01-20 23:37:27.88	349.13	24.28	-41.5	-42.6	21.9	0.00e+00	0	41	0	1094713344	56	6110
2026-01-20 23:37:28.89	349.03	24.13	-41.6	-42.6	21.9	0.00e+00	0	41	0	1096810496	56	6172
2026-01-20 23:37:29.90	348.93	23.99	-41.5	-42.6	22.0	0.00e+00	0	41	0	1098907648	56	6127
2026-01-20 23:37:30.91	348.83	23.85	-41.5	-42.6	22.0	0.00e+00	0	41	0	1101004800	56	6120
2026-01-20 23:37:31.92	348.73	23.70	-41.5	-42.6	21.9	0.00e+00	0	41	0	1103101952	56	6163
2026-01-20 23:37:32.93	348.63	23.56	-41.5	-42.6	21.9	0.00e+00	0	41	0	1104150528	56	6139
2026-01-20 23:37:33.93	348.54	23.42	-41.5	-42.6	22.0	0.00e+00	0	41	0	1106247680	56	6142
2026-01-20 23:37:34.94	348.44	23.28	-41.4	-42.5	22.0	0.00e+00	0	41	0	1108344832	56	6035
2026-01-20 23:37:35.95	348.34	23.14	-41.3	-42.4	22.1	0.00e+00	0	41	0	1110441984	56	6010
2026-01-20 23:37:36.96	348.25	23.00	-41.3	-42.4	22.1	0.00e+00	0	41	0	1112539136	56	5974
2026-01-20 23:37:37.97	348.16	22.86	-41.2	-42.3	22.2	0.00e+00	0	41	0	1113587712	56	5905
2026-01-20 23:37:38.98	348.06	22.72	-41.2	-42.3	22.2	0.00e+00	0	41	0	1115684864	56	5899
2026-01-20 23:37:39.99	347.97	22.58	-41.2	-42.2	22.3	0.00e+00	0	41	0	1117782016	56	5867
2026-01-20 23:37:41.00	347.88	22.45	-41.1	-42.2	22.3	0.00e+00	0	41	0	1119879168	56	5837
2026-01-20 23:37:42.01	347.79	22.31	-41.1	-42.2	22.3	0.00e+00	0	41	0	1121976320	56	5842
2026-01-20 23:37:43.01	347.70	22.18	-41.3	-42.4	22.2	0.00e+00	0	41	0	1123024896	56	5975
2026-01-20 23:37:44.02	347.61	22.04	-41.1	-42.1	22.4	0.00e+00	0	41	0	1125122048	56	5793
2026-01-20 23:37:45.03	347.52	21.91	-41.1	-42.1	22.4	0.00e+00	0	41	0	1127219200	56	5791
2026-01-20 23:37:46.04	347.44	21.77	-41.0	-42.0	22.4	0.00e+00	0	41	0	1129316352	56	5761
2026-01-20 23:37:47.05	347.35	21.64	-41.0	-42.0	22.5	0.00e+00	0	41	0	1131413504	56	5738
2026-01-20 23:37:48.06	347.26	21.51	-41.1	-42.2	22.2	0.00e+00	0	41	0	1132462080	56	5862
2026-01-20 23:37:49.07	347.18	21.38	-41.0	-42.1	22.4	0.00e+00	0	41	0	1134559232	56	5779
2026-01-20 23:37:50.08	347.10	21.25	-40.8	-41.8	22.5	0.00e+00	0	41	0	1136656384	56	5604
2026-01-20 23:37:51.09	347.01	21.11	-40.9	-42.0	22.4	0.00e+00	0	41	0	1138753536	56	5699
2026-01-20 23:37:52.10	346.93	20.98	-41.0	-42.0	22.5	0.00e+00	0	41	0	1140850688	56	5749
2026-01-20 23:37:53.11	346.85	20.85	-40.9	-41.9	22.4	0.00e+00	0	41	0	1141899264	56	5676
2026-01-20 23:37:54.12	346.77	20.73	-40.8	-41.8	22.6	0.00e+00	0	41	0	1143996416	56	5620
2026-01-20 23:37:55.13	346.69	20.60	-40.9	-41.9	22.5	0.00e+00	0	41	0	1146093568	56	5644
2026-01-20 23:37:56.14	346.61	20.47	-40.8	-41.8	22.5	0.00e+00	0	41	0	1148190720	56	5613
2026-01-20 23:37:57.15	346.53	20.34	-40.9	-41.9	22.6	0.00e+00	0	41	0	1150287872	56	5645
2026-01-20 23:37:58.16	346.45	20.22	-40.9	-41.9	22.5	0.00e+00	0	41	0	1151336448	56	5680
2026-01-20 23:37:59.17	346.37	20.09	-40.8	-41.8	22.6	0.00e+00	0	41	0	1153433600	56	5597
2026-01-20 23:38:00.18	346.29	19.97	-41.0	-42.0	22.3	0.00e+00	0	41	0	1155530752	56	5708
2026-01-20 23:38:01.19	346.22	19.84	-40.9	-41.9	22.5	0.00e+00	0	41	0	1157627904	56	5691
2026-01-20 23:38:02.20	346.14	19.72	-41.1	-42.1	22.2	0.00e+00	0	41	0	1159725056	56	5798
2026-01-20 23:38:03.21	346.07	19.59	-40.7	-41.6	22.5	0.00e+00	0	41	0	1160773632	54	6165
2026-01-20 23:38:04.22	345.99	19.47	-40.7	-41.7	22.6	0.00e+00	0	41	0	1162870784	54	6190
2026-01-20 23:38:05.23	345.92	19.35	-40.6	-41.6	22.7	0.00e+00	0	41	0	1164967936	54	6107
2026-01-20 23:38:06.23	345.85	19.23	-40.7	-41.7	22.6	0.00e+00	0	41	0	1167065088	54	6176
2026-01-20 23:38:07.24	345.77	19.10	-40.7	-41.7	22.6	0.00e+00	0	41	0	1169162240	54	6177
2026-01-20 23:38:08.25	345.70	18.98	-40.7	-41.7	22.6	0.00e+00	0	41	0	1171259392	54	6239
2026-01-20 23:38:09.26	345.63	18.86	-40.8	-41.8	22.5	0.00e+00	0	41	0	1172307968	54	6266
2026-01-20 23:38:10.27	345.56	18.74	-40.9	-41.9	22.3	0.00e+00	0	41	0	1174405120	54	6363
2026-01-20 23:38:11.28	345.49	18.62	-40.7	-41.7	22.6	0.00e+00	0	41	0	1176502272	54	6224
2026-01-20 23:38:12.29	345.42	18.51	-40.8	-41.9	22.3	0.00e+00	0	41	0	1178599424	54	6321
2026-01-20 23:38:13.29	345.35	18.39	-40.9	-41.9	22.4	0.00e+00	0	41	0	1180696576	54	6367
2026-01-20 23:38:14.30	345.28	18.27	-40.8	-41.8	22.3	0.00e+00	0	41	0	1181745152	54	6281
2026-01-20 23:38:15.31	345.21	18.15	-40.8	-41.8	22.3	0.00e+00	0	41	0	1183842304	54	6293
2026-01-20 23:38:16.32	345.15	18.04	-40.8	-41.8	22.4	0.00e+00	0	41	0	1185939456	54	6269
2026-01-20 23:38:17.33	345.08	17.92	-40.9	-41.9	22.3	0.00e+00	0	41	0	1188036608	54	6368
2026-01-20 23:38:18.34	345.01	17.81	-40.9	-41.9	22.3	0.00e+00	0	41	0	1190133760	54	6348
2026-01-20 23:38:19.35	344.95	17.69	-41.0	-42.1	22.2	0.00e+00	0	41	0	1191182336	54	6478
2026-01-20 23:38:20.36	344.88	17.58	-40.9	-42.0	22.2	0.00e+00	0	41	0	1193279488	54	6391
