passes_logs/2026/01/20/R4.6S_Anadyr/R4.6S_Anadyr__20260120_133107_NOAA_20_JPSS-1_rec.log

#Pass ID: 20260120_133107_NOAA 20 (JPSS-1)
#Satellite: NOAA 20 (JPSS-1)
#Configuration: NOAA 20
#almurnet v.1.7.20251203
#Start time: 2026-01-20 13:31:10

#Version: 2.2.20231116
#Station: R4.6S_Anadyr
#Location: 177.4865 lon 64.73178 lat
#TLE: 1 43013U 17073A   26019.91154542  .00000116  00000+0  76014-4 0  9997
#TLE: 2 43013  98.7642 320.7991 0001304  32.0041 328.1214 14.19537346423438

#Time	Az	El	Level	Level2	SNR	BER	BlckErr	Temp	State	Recorded	gain1	gain2
2026-01-20 13:31:10.58	18.97	0.15	-51.7	-66.7	3.5	1.51e+00	0	40	0	0	60	78484
2026-01-20 13:31:11.58	19.01	0.21	-53.1	-68.4	3.5	1.51e+00	0	41	104	0	60	95239
2026-01-20 13:31:12.59	19.05	0.27	-52.8	-68.1	3.6	1.51e+00	0	41	104	0	60	91462
2026-01-20 13:31:13.60	19.09	0.33	-53.3	-68.5	3.6	1.51e+00	0	41	104	0	60	96157
2026-01-20 13:31:14.61	19.14	0.38	-52.8	-68.1	3.5	1.51e+00	0	41	104	0	60	91414
2026-01-20 13:31:15.62	19.18	0.44	-52.2	-67.5	3.6	1.51e+00	0	41	104	0	60	86045
2026-01-20 13:31:16.63	19.22	0.50	-51.8	-67.1	3.6	1.51e+00	0	41	104	0	60	81686
2026-01-20 13:31:17.64	19.26	0.56	-51.8	-67.0	3.6	1.51e+00	0	41	104	0	60	80751
2026-01-20 13:31:18.65	19.30	0.62	-51.6	-66.9	3.6	1.51e+00	0	41	104	0	60	79650
2026-01-20 13:31:19.66	19.34	0.67	-51.6	-66.8	3.6	1.51e+00	0	41	104	0	60	79128
2026-01-20 13:31:20.67	19.39	0.73	-51.5	-66.7	3.6	1.51e+00	0	41	104	0	60	78224
2026-01-20 13:31:21.68	19.43	0.79	-51.4	-66.7	3.6	1.51e+00	0	41	104	0	60	78030
2026-01-20 13:31:22.69	19.47	0.85	-51.4	-66.7	3.6	1.51e+00	0	41	104	0	60	77925
2026-01-20 13:31:23.70	19.51	0.91	-51.4	-66.6	3.6	1.51e+00	0	41	104	0	60	77613
2026-01-20 13:31:24.71	19.56	0.97	-51.3	-66.6	3.6	1.51e+00	0	41	104	0	60	76863
2026-01-20 13:31:25.72	19.60	1.03	-51.2	-66.4	3.6	1.51e+00	0	41	104	0	60	75448
2026-01-20 13:31:26.73	19.64	1.09	-51.1	-66.4	3.6	1.51e+00	0	41	104	0	60	75310
2026-01-20 13:31:27.74	19.68	1.14	-51.0	-66.2	3.6	1.51e+00	0	41	104	0	60	73718
2026-01-20 13:31:28.75	19.73	1.20	-50.9	-66.1	3.6	1.51e+00	0	41	104	0	60	73084
2026-01-20 13:31:29.76	19.77	1.26	-50.6	-66.0	3.6	1.51e+00	0	41	104	0	60	72201
2026-01-20 13:31:30.77	19.82	1.32	-50.6	-65.9	3.6	1.51e+00	0	41	104	0	60	70949
2026-01-20 13:31:31.78	19.86	1.38	-50.5	-65.7	3.6	1.51e+00	0	41	104	0	60	69910
2026-01-20 13:31:32.79	19.90	1.44	-50.3	-65.5	3.6	1.51e+00	0	41	104	0	60	68067
2026-01-20 13:31:33.80	19.95	1.50	-50.1	-65.3	3.6	1.51e+00	0	41	104	0	60	66288
2026-01-20 13:31:34.81	19.99	1.56	-49.7	-64.8	3.6	1.51e+00	0	41	104	0	60	62850
2026-01-20 13:31:35.81	20.04	1.62	-49.6	-64.8	3.6	1.51e+00	0	41	104	0	60	62926
2026-01-20 13:31:36.82	20.08	1.68	-49.6	-64.7	3.6	1.51e+00	0	41	104	0	60	62427
2026-01-20 13:31:37.83	20.12	1.74	-49.6	-64.7	3.6	1.51e+00	0	41	104	0	60	62274
2026-01-20 13:31:38.84	20.17	1.80	-49.6	-64.8	3.6	1.51e+00	0	41	104	0	60	63116
2026-01-20 13:31:39.85	20.21	1.86	-49.6	-64.8	3.6	1.51e+00	0	41	104	0	60	62707
2026-01-20 13:31:40.86	20.26	1.92	-49.6	-64.8	3.6	1.51e+00	0	41	104	0	60	62925
2026-01-20 13:31:41.87	20.30	1.98	-49.6	-64.8	3.6	1.51e+00	0	41	104	0	60	62868
2026-01-20 13:31:42.88	20.35	2.04	-49.6	-64.9	3.6	1.51e+00	0	41	104	0	60	63217
2026-01-20 13:31:43.90	20.40	2.11	-49.6	-64.9	3.6	1.51e+00	0	41	104	0	60	63347
2026-01-20 13:31:44.91	20.44	2.17	-49.6	-64.9	3.6	1.51e+00	0	41	104	0	60	63216
2026-01-20 13:31:45.92	20.49	2.23	-49.7	-64.9	3.6	1.51e+00	0	41	104	0	60	63230
2026-01-20 13:31:46.93	20.53	2.29	-49.7	-64.8	3.6	1.51e+00	0	41	104	0	60	63046
2026-01-20 13:31:47.94	20.58	2.35	-49.7	-64.5	3.6	1.51e+00	0	41	104	0	60	60499
2026-01-20 13:31:48.95	20.63	2.41	-49.7	-64.5	3.6	1.51e+00	0	41	104	0	60	60337
2026-01-20 13:31:49.96	20.67	2.47	-49.7	-64.1	3.6	1.51e+00	0	42	104	0	60	58061
2026-01-20 13:31:50.97	20.72	2.53	-49.7	-64.2	3.6	1.51e+00	0	41	104	0	60	58562
2026-01-20 13:31:51.98	20.77	2.60	-49.7	-64.3	3.6	1.51e+00	0	41	104	0	60	59023
2026-01-20 13:31:52.98	20.81	2.66	-49.7	-64.7	3.6	1.51e+00	0	42	104	0	60	61932
2026-01-20 13:31:53.99	20.86	2.72	-49.3	-59.2	4.2	1.51e+00	0	42	104	0	60	32838
2026-01-20 13:31:55.00	20.91	2.78	-49.3	-59.4	5.0	1.18e+00	0	41	104	0	60	33748
2026-01-20 13:31:56.01	20.96	2.84	-49.0	-56.1	7.2	2.74e-01	0	41	0	1048576	60	23185
2026-01-20 13:31:57.02	21.01	2.91	-47.0	-50.6	13.0	8.43e-04	2	42	0	3145728	60	12209
2026-01-20 13:31:58.03	21.05	2.97	-47.1	-50.8	13.1	1.22e-03	39	41	0	5242880	60	12468
2026-01-20 13:31:59.04	21.10	3.03	-45.2	-47.6	16.0	0.00e+00	0	42	0	7340032	60	8624
2026-01-20 13:32:00.05	21.15	3.10	-45.3	-47.7	16.4	0.00e+00	90	42	0	8388608	60	8777
2026-01-20 13:32:01.06	21.20	3.16	-44.6	-46.6	17.7	0.00e+00	0	41	0	10485760	60	7688
2026-01-20 13:32:02.07	21.25	3.22	-45.4	-47.8	16.4	0.00e+00	86	42	0	12582912	60	8888
2026-01-20 13:32:03.08	21.30	3.29	-43.7	-45.4	18.5	0.00e+00	2	41	0	14680064	60	6753
2026-01-20 13:32:04.09	21.35	3.35	-46.2	-49.2	14.5	0.00e+00	59	41	0	16777216	60	10418
2026-01-20 13:32:05.10	21.40	3.41	-44.2	-46.1	17.6	0.00e+00	0	41	0	17825792	60	7334
2026-01-20 13:32:06.11	21.45	3.48	-45.8	-48.4	15.1	6.80e-06	60	41	0	19922944	60	9489
2026-01-20 13:32:07.12	21.50	3.54	-47.4	-51.3	12.0	1.14e-04	92	41	0	22020096	60	13306
2026-01-20 13:32:08.12	21.54	3.60	-48.3	-53.7	10.3	6.61e-02	55	42	0	24117248	60	17532
2026-01-20 13:32:09.13	21.59	3.67	-44.5	-46.5	17.2	0.00e+00	92	41	0	26214400	60	7618
2026-01-20 13:32:10.14	21.65	3.73	-49.5	-63.4	3.6	8.70e-01	0	41	104	27262976	60	53345
2026-01-20 13:32:11.15	21.70	3.80	-49.3	-58.0	5.7	1.12e+00	0	42	104	27262976	60	28662
2026-01-20 13:32:12.16	21.75	3.86	-48.3	-53.1	11.1	2.52e-02	27	41	0	27262976	60	16401
2026-01-20 13:32:13.17	21.80	3.92	-49.7	-63.3	3.6	1.34e+00	0	42	104	28311552	60	52691
2026-01-20 13:32:14.18	21.85	3.99	-47.8	-52.2	11.9	1.28e+00	53	42	104	28311552	60	14645
2026-01-20 13:32:15.19	21.90	4.05	-47.5	-51.4	13.0	6.63e-05	28	42	0	29360128	60	13366
2026-01-20 13:32:16.20	21.95	4.12	-48.1	-52.7	10.9	1.78e-03	92	42	0	31457280	60	15622
2026-01-20 13:32:17.21	22.00	4.18	-47.6	-51.5	12.8	5.68e-03	0	42	0	32505856	60	13530
2026-01-20 13:32:18.22	22.06	4.25	-47.8	-52.0	11.6	4.57e-05	0	41	0	34603008	60	14364
2026-01-20 13:32:19.23	22.11	4.31	-48.1	-52.7	11.2	3.29e-04	0	42	0	36700160	60	15525
2026-01-20 13:32:20.24	22.16	4.38	-47.2	-50.8	13.3	8.46e-05	21	42	0	38797312	60	12529
2026-01-20 13:32:21.24	22.21	4.45	-46.4	-49.3	14.3	7.00e-07	92	42	0	40894464	60	10524
2026-01-20 13:32:22.25	22.27	4.51	-48.1	-52.4	11.4	8.08e-03	0	42	0	41943040	60	15143
2026-01-20 13:32:23.26	22.32	4.58	-46.4	-49.1	14.9	1.44e-05	92	42	0	44040192	60	10317
2026-01-20 13:32:24.27	22.37	4.64	-47.6	-51.5	12.1	0.00e+00	0	41	0	46137344	60	13517
2026-01-20 13:32:25.28	22.43	4.71	-46.8	-49.9	13.9	0.00e+00	88	41	0	48234496	60	11324
2026-01-20 13:32:26.29	22.48	4.78	-46.6	-49.4	14.8	5.30e-06	0	41	0	50331648	60	10672
2026-01-20 13:32:27.30	22.53	4.84	-46.3	-48.9	15.5	0.00e+00	0	41	0	51380224	60	10110
2026-01-20 13:32:28.31	22.59	4.91	-45.5	-47.8	16.4	0.00e+00	0	41	0	53477376	60	8835
2026-01-20 13:32:29.32	22.64	4.98	-47.0	-50.1	14.1	8.30e-06	60	42	0	55574528	60	11611
2026-01-20 13:32:30.33	22.70	5.04	-46.6	-49.6	14.6	3.00e-06	92	42	0	57671680	60	10857
2026-01-20 13:32:31.34	22.75	5.11	-46.3	-49.1	15.2	0.00e+00	0	42	0	59768832	60	10268
2026-01-20 13:32:32.35	22.81	5.18	-46.7	-49.6	14.4	0.00e+00	92	42	0	60817408	60	10948
2026-01-20 13:32:33.36	22.86	5.25	-45.5	-47.6	16.9	0.00e+00	57	42	0	62914560	60	8704
2026-01-20 13:32:34.37	22.92	5.31	-45.8	-48.2	15.9	0.00e+00	0	42	0	65011712	60	9276
2026-01-20 13:32:35.37	22.97	5.38	-46.0	-48.4	15.9	0.00e+00	0	42	0	67108864	60	9500
2026-01-20 13:32:36.38	23.03	5.45	-45.8	-48.2	16.4	0.00e+00	59	42	0	69206016	60	9253
2026-01-20 13:32:37.39	23.09	5.52	-46.6	-49.5	14.7	0.00e+00	91	42	0	70254592	60	10790
2026-01-20 13:32:38.40	23.14	5.58	-46.0	-48.5	15.9	0.00e+00	8	42	0	72351744	60	9612
2026-01-20 13:32:39.41	23.20	5.65	-46.4	-49.1	15.5	0.00e+00	92	42	0	74448896	60	10253
2026-01-20 13:32:40.42	23.26	5.72	-45.9	-48.3	15.9	0.00e+00	22	42	0	76546048	60	9416
2026-01-20 13:32:41.43	23.31	5.79	-46.3	-48.9	15.5	0.00e+00	5	41	0	78643200	60	10097
2026-01-20 13:32:42.44	23.37	5.86	-47.1	-50.2	14.3	0.00e+00	0	41	0	79691776	60	11658
2026-01-20 13:32:43.45	23.43	5.93	-46.1	-48.5	15.9	0.00e+00	0	42	0	81788928	60	9643
2026-01-20 13:32:44.46	23.49	6.00	-46.4	-49.0	15.4	0.00e+00	0	42	0	83886080	60	10204
2026-01-20 13:32:45.47	23.55	6.07	-46.0	-48.5	16.0	0.00e+00	5	42	0	85983232	60	9591
2026-01-20 13:32:46.48	23.60	6.14	-45.8	-48.2	15.9	0.00e+00	92	42	0	88080384	60	9247
2026-01-20 13:32:47.49	23.66	6.21	-46.6	-49.5	15.2	0.00e+00	6	42	0	89128960	60	10745
2026-01-20 13:32:48.50	23.72	6.28	-45.9	-48.3	16.4	7.00e-07	3	42	0	91226112	60	9430
2026-01-20 13:32:49.51	23.78	6.35	-45.2	-47.2	17.1	0.00e+00	0	42	0	93323264	60	8315
2026-01-20 13:32:50.52	23.84	6.42	-45.2	-47.2	17.4	0.00e+00	61	42	0	95420416	60	8287
2026-01-20 13:32:51.52	23.90	6.49	-45.8	-48.1	16.4	0.00e+00	0	42	0	97517568	60	9224
2026-01-20 13:32:52.53	23.96	6.56	-44.3	-46.0	18.6	0.00e+00	60	42	0	98566144	60	7175
2026-01-20 13:32:53.54	24.02	6.63	-44.8	-46.7	17.6	0.00e+00	90	42	0	100663296	60	7835
2026-01-20 13:32:54.55	24.08	6.70	-43.8	-45.4	18.8	0.00e+00	54	41	0	102760448	60	6734
2026-01-20 13:32:55.56	24.14	6.77	-45.0	-46.9	17.6	0.00e+00	90	42	0	104857600	60	8022
2026-01-20 13:32:56.57	24.20	6.84	-43.8	-45.4	19.0	0.00e+00	26	41	0	106954752	60	6726
2026-01-20 13:32:57.58	24.26	6.91	-44.0	-45.6	18.9	0.00e+00	4	42	0	108003328	60	6883
2026-01-20 13:32:58.59	24.33	6.98	-44.1	-45.8	18.8	0.00e+00	27	42	0	110100480	60	7013
2026-01-20 13:32:59.60	24.39	7.05	-43.8	-45.4	19.0	0.00e+00	26	42	0	112197632	60	6696
2026-01-20 13:33:00.61	24.45	7.13	-43.9	-45.5	18.9	0.00e+00	91	42	0	114294784	60	6776
2026-01-20 13:33:01.62	24.51	7.20	-44.2	-45.9	18.7	0.00e+00	31	41	0	116391936	60	7127
2026-01-20 13:33:02.63	24.58	7.27	-43.9	-45.5	18.8	0.00e+00	91	42	0	117440512	60	6803
2026-01-20 13:33:03.63	24.64	7.34	-43.6	-45.1	19.5	0.00e+00	36	42	0	119537664	60	6522
2026-01-20 13:33:04.64	24.70	7.42	-43.6	-45.1	19.5	0.00e+00	0	42	0	121634816	60	6483
2026-01-20 13:33:05.65	24.77	7.49	-43.5	-45.0	19.5	0.00e+00	0	42	0	123731968	60	6426
2026-01-20 13:33:06.66	24.83	7.56	-43.7	-45.2	19.4	0.00e+00	6	41	0	125829120	60	6598
2026-01-20 13:33:07.67	24.89	7.63	-43.2	-44.6	20.0	0.00e+00	0	42	0	127926272	60	6150
2026-01-20 13:33:08.68	24.96	7.71	-43.6	-45.1	19.5	0.00e+00	8	42	0	128974848	60	6528
2026-01-20 13:33:09.68	25.02	7.78	-43.5	-45.0	19.6	0.00e+00	92	42	0	131072000	60	6412
2026-01-20 13:33:10.69	25.09	7.85	-43.5	-45.0	19.8	0.00e+00	0	42	0	133169152	60	6391
2026-01-20 13:33:11.70	25.15	7.93	-43.5	-44.9	19.7	0.00e+00	92	42	0	135266304	60	6381
2026-01-20 13:33:12.71	25.22	8.00	-43.2	-44.5	20.1	0.00e+00	62	42	0	137363456	60	6100
2026-01-20 13:33:13.72	25.29	8.08	-43.0	-44.3	20.3	0.00e+00	0	42	0	138412032	60	5931
2026-01-20 13:33:14.72	25.35	8.15	-43.0	-44.4	20.2	0.00e+00	0	42	0	140509184	60	5985
2026-01-20 13:33:15.73	25.42	8.23	-42.8	-44.2	20.5	0.00e+00	62	42	0	142606336	60	5829
2026-01-20 13:33:16.74	25.49	8.30	-43.4	-44.9	20.0	0.00e+00	92	42	0	144703488	60	6327
2026-01-20 13:33:17.75	25.55	8.37	-42.7	-44.0	20.5	0.00e+00	57	42	0	146800640	58	6444
2026-01-20 13:33:18.76	25.62	8.45	-43.0	-44.3	20.3	0.00e+00	92	42	0	147849216	58	6644
2026-01-20 13:33:19.77	25.69	8.53	-42.9	-44.2	20.5	0.00e+00	25	42	0	149946368	58	6567
2026-01-20 13:33:20.78	25.76	8.60	-42.7	-44.0	20.5	0.00e+00	61	42	0	152043520	58	6399
2026-01-20 13:33:21.79	25.83	8.68	-43.2	-44.6	20.1	0.00e+00	0	42	0	154140672	58	6852
2026-01-20 13:33:22.80	25.90	8.75	-42.2	-43.4	21.2	0.00e+00	2	42	0	156237824	58	5969
2026-01-20 13:33:23.81	25.97	8.83	-42.6	-43.8	20.8	0.00e+00	92	42	0	157286400	58	6287
2026-01-20 13:33:24.81	26.03	8.90	-42.5	-43.8	20.9	0.00e+00	19	42	0	159383552	58	6261
2026-01-20 13:33:25.82	26.10	8.98	-42.0	-43.1	21.4	0.00e+00	92	42	0	161480704	58	5816
2026-01-20 13:33:26.83	26.18	9.06	-42.8	-44.1	20.6	0.00e+00	26	42	0	163577856	58	6480
2026-01-20 13:33:27.84	26.25	9.14	-42.4	-43.7	21.1	0.00e+00	0	42	0	165675008	58	6193
2026-01-20 13:33:28.85	26.32	9.21	-42.7	-43.9	20.8	0.00e+00	0	42	0	166723584	58	6382
2026-01-20 13:33:29.86	26.39	9.29	-42.4	-43.6	21.0	0.00e+00	0	42	0	168820736	58	6127
2026-01-20 13:33:30.87	26.46	9.37	-42.3	-43.5	21.1	0.00e+00	0	42	0	170917888	58	6088
2026-01-20 13:33:31.88	26.53	9.45	-42.5	-43.7	20.9	0.00e+00	0	42	0	173015040	58	6235
2026-01-20 13:33:32.89	26.61	9.52	-42.5	-43.7	20.7	0.00e+00	92	42	0	175112192	58	6236
2026-01-20 13:33:33.90	26.68	9.60	-42.8	-44.1	20.5	0.00e+00	57	42	0	176160768	58	6534
2026-01-20 13:33:34.91	26.75	9.68	-42.7	-43.9	21.1	0.00e+00	91	42	0	178257920	58	6379
2026-01-20 13:33:35.92	26.83	9.76	-42.5	-43.8	20.8	0.00e+00	0	42	0	180355072	58	6249
2026-01-20 13:33:36.93	26.90	9.84	-42.6	-43.8	20.7	0.00e+00	61	42	0	182452224	58	6306
2026-01-20 13:33:37.94	26.97	9.92	-42.0	-43.2	21.5	0.00e+00	47	42	0	184549376	58	5857
2026-01-20 13:33:38.95	27.05	10.00	-42.0	-43.2	21.5	0.00e+00	0	42	0	185597952	58	5849
2026-01-20 13:33:39.96	27.12	10.08	-42.7	-43.9	20.7	0.00e+00	92	42	0	187695104	58	6360
2026-01-20 13:33:40.97	27.20	10.16	-42.4	-43.6	21.1	0.00e+00	20	42	0	189792256	58	6122
2026-01-20 13:33:41.97	27.27	10.23	-42.4	-43.6	21.2	0.00e+00	92	42	0	191889408	58	6123
2026-01-20 13:33:42.98	27.35	10.32	-41.8	-43.0	21.7	0.00e+00	25	42	0	193986560	58	5698
2026-01-20 13:33:43.99	27.43	10.40	-41.8	-42.9	21.8	0.00e+00	23	42	0	196083712	56	6343
2026-01-20 13:33:45.00	27.50	10.48	-42.4	-43.6	21.2	0.00e+00	19	42	0	197132288	56	6868
2026-01-20 13:33:46.01	27.58	10.56	-41.8	-42.9	21.9	0.00e+00	20	42	0	199229440	56	6347
2026-01-20 13:33:47.02	27.66	10.64	-41.8	-42.9	21.8	0.00e+00	3	42	0	201326592	56	6359
2026-01-20 13:33:48.03	27.74	10.72	-41.8	-42.9	21.8	0.00e+00	0	41	0	203423744	56	6346
2026-01-20 13:33:49.04	27.82	10.80	-41.9	-43.0	21.7	0.00e+00	92	42	0	204472320	56	6391
2026-01-20 13:33:50.05	27.90	10.88	-42.1	-43.2	21.6	0.00e+00	0	42	0	206569472	56	6569
2026-01-20 13:33:51.06	27.98	10.96	-42.2	-43.3	21.5	0.00e+00	86	42	0	208666624	56	6654
2026-01-20 13:33:52.07	28.06	11.05	-42.1	-43.3	21.5	0.00e+00	0	42	0	210763776	56	6641
2026-01-20 13:33:53.08	28.14	11.13	-41.8	-42.9	21.9	0.00e+00	0	42	0	212860928	56	6319
2026-01-20 13:33:54.08	28.22	11.21	-41.2	-42.3	22.4	0.00e+00	0	42	0	213909504	56	5900
2026-01-20 13:33:55.09	28.30	11.29	-41.9	-43.0	21.6	0.00e+00	0	42	0	216006656	56	6400
2026-01-20 13:33:56.10	28.38	11.38	-41.7	-42.8	21.8	0.00e+00	90	42	0	218103808	56	6284
2026-01-20 13:33:57.11	28.46	11.46	-41.8	-42.9	21.8	0.00e+00	0	42	0	220200960	56	6319
2026-01-20 13:33:58.12	28.54	11.54	-41.8	-42.9	21.9	0.00e+00	92	42	0	222298112	56	6355
2026-01-20 13:33:59.13	28.63	11.63	-41.7	-42.8	22.0	0.00e+00	0	42	0	224395264	56	6255
2026-01-20 13:34:00.14	28.71	11.71	-42.0	-43.1	21.7	0.00e+00	63	42	0	225443840	56	6539
2026-01-20 13:34:01.15	28.79	11.80	-41.9	-43.0	21.8	0.00e+00	57	42	0	227540992	56	6395
2026-01-20 13:34:02.16	28.88	11.88	-41.5	-42.5	22.1	0.00e+00	0	42	0	229638144	56	6073
2026-01-20 13:34:03.16	28.96	11.96	-41.7	-42.8	22.0	0.00e+00	64	42	0	231735296	56	6275
2026-01-20 13:34:04.17	29.05	12.05	-41.6	-42.7	21.9	0.00e+00	63	42	0	233832448	56	6189
2026-01-20 13:34:05.18	29.13	12.14	-41.4	-42.5	22.3	0.00e+00	92	42	0	234881024	56	6063
2026-01-20 13:34:06.19	29.22	12.22	-41.5	-42.5	22.2	0.00e+00	0	42	0	236978176	56	6094
2026-01-20 13:34:07.20	29.31	12.31	-41.3	-42.4	22.4	0.00e+00	25	42	0	239075328	56	5975
2026-01-20 13:34:08.21	29.39	12.39	-41.5	-42.6	22.2	0.00e+00	17	42	0	241172480	56	6117
2026-01-20 13:34:09.22	29.48	12.48	-41.2	-42.2	22.5	0.00e+00	2	42	0	243269632	56	5893
2026-01-20 13:34:10.23	29.57	12.57	-41.4	-42.4	22.3	0.00e+00	64	42	0	244318208	56	5995
2026-01-20 13:34:11.24	29.66	12.65	-41.4	-42.4	22.4	0.00e+00	0	42	0	246415360	56	6010
2026-01-20 13:34:12.25	29.75	12.74	-41.6	-42.6	22.1	0.00e+00	90	42	0	248512512	56	6160
2026-01-20 13:34:13.26	29.84	12.83	-41.2	-42.2	22.6	0.00e+00	2	42	0	250609664	56	5858
2026-01-20 13:34:14.27	29.93	12.91	-41.0	-42.0	22.7	0.00e+00	92	42	0	252706816	56	5761
2026-01-20 13:34:15.28	30.02	13.00	-41.2	-42.2	22.5	0.00e+00	2	42	0	253755392	56	5872
2026-01-20 13:34:16.29	30.11	13.09	-41.2	-42.3	22.5	0.00e+00	0	42	0	255852544	56	5903
2026-01-20 13:34:17.30	30.20	13.18	-41.5	-42.5	22.4	0.00e+00	0	42	0	257949696	56	6077
2026-01-20 13:34:18.31	30.29	13.27	-41.4	-42.5	22.4	0.00e+00	0	42	0	260046848	56	6041
2026-01-20 13:34:19.32	30.39	13.36	-41.1	-42.1	22.7	0.00e+00	91	42	0	262144000	56	5788
2026-01-20 13:34:20.33	30.48	13.44	-41.2	-42.2	22.6	0.00e+00	62	42	0	263192576	56	5885
2026-01-20 13:34:21.34	30.57	13.53	-41.1	-42.1	22.6	0.00e+00	90	42	0	265289728	56	5791
2026-01-20 13:34:22.35	30.67	13.62	-41.2	-42.2	22.6	0.00e+00	57	42	0	267386880	56	5864
2026-01-20 13:34:23.35	30.76	13.71	-40.8	-41.7	23.1	0.00e+00	57	42	0	269484032	56	5544
2026-01-20 13:34:24.36	30.86	13.80	-41.1	-42.1	22.7	0.00e+00	17	42	0	271581184	54	6490
2026-01-20 13:34:25.37	30.95	13.89	-41.0	-42.0	22.6	0.00e+00	63	42	0	272629760	54	6394
2026-01-20 13:34:26.38	31.05	13.98	-41.3	-42.3	22.5	0.00e+00	62	42	0	274726912	54	6649
2026-01-20 13:34:27.39	31.15	14.07	-41.0	-42.0	22.7	0.00e+00	0	42	0	276824064	54	6393
2026-01-20 13:34:28.40	31.25	14.17	-40.5	-41.4	23.3	0.00e+00	92	42	0	278921216	54	6005
2026-01-20 13:34:29.41	31.34	14.26	-40.5	-41.5	23.2	0.00e+00	6	42	0	281018368	54	6056
2026-01-20 13:34:30.42	31.44	14.35	-40.6	-41.5	23.2	0.00e+00	5	42	0	282066944	54	6090
2026-01-20 13:34:31.42	31.54	14.44	-40.6	-41.6	23.1	0.00e+00	5	42	0	284164096	54	6119
2026-01-20 13:34:32.43	31.64	14.53	-40.5	-41.5	23.2	0.00e+00	17	42	0	286261248	54	6042
2026-01-20 13:34:33.44	31.74	14.62	-40.5	-41.4	23.2	0.00e+00	92	42	0	288358400	54	6012
2026-01-20 13:34:34.45	31.84	14.72	-40.4	-41.3	23.3	0.00e+00	6	42	0	290455552	54	5962
2026-01-20 13:34:35.46	31.94	14.81	-40.4	-41.3	23.4	0.00e+00	91	42	0	292552704	54	5950
2026-01-20 13:34:36.47	32.05	14.90	-40.6	-41.5	23.2	0.00e+00	0	42	0	293601280	54	6103
2026-01-20 13:34:37.48	32.15	15.00	-40.5	-41.5	23.2	0.00e+00	0	42	0	295698432	54	6047
2026-01-20 13:34:38.49	32.25	15.09	-40.6	-41.5	23.1	0.00e+00	0	42	0	297795584	54	6074
2026-01-20 13:34:39.50	32.36	15.19	-40.8	-41.8	22.9	0.00e+00	58	42	0	299892736	54	6263
2026-01-20 13:34:40.51	32.46	15.28	-40.7	-41.7	23.0	0.00e+00	0	42	0	301989888	54	6213
2026-01-20 13:34:41.52	32.57	15.38	-40.9	-41.8	22.9	0.00e+00	0	42	0	303038464	54	6298
2026-01-20 13:34:42.53	32.67	15.47	-40.8	-41.8	23.0	0.00e+00	92	42	0	305135616	54	6283
2026-01-20 13:34:43.54	32.78	15.57	-41.1	-42.1	22.6	0.00e+00	61	42	0	307232768	54	6480
2026-01-20 13:34:44.55	32.89	15.66	-41.1	-42.1	22.8	0.00e+00	92	42	0	309329920	54	6472
2026-01-20 13:34:45.55	33.00	15.76	-41.0	-42.0	22.7	0.00e+00	58	42	0	311427072	54	6439
2026-01-20 13:34:46.56	33.10	15.85	-41.0	-42.0	22.6	0.00e+00	29	42	0	312475648	54	6440
2026-01-20 13:34:47.58	33.22	15.95	-41.2	-42.2	22.5	0.00e+00	31	42	0	314572800	54	6548
2026-01-20 13:34:48.58	33.32	16.05	-41.1	-42.1	22.6	0.00e+00	23	42	0	316669952	54	6531
2026-01-20 13:34:49.59	33.43	16.14	-41.2	-42.2	22.8	0.00e+00	91	42	0	318767104	54	6596
2026-01-20 13:34:50.60	33.55	16.24	-41.0	-42.0	22.8	0.00e+00	6	42	0	320864256	54	6400
2026-01-20 13:34:51.61	33.66	16.34	-41.1	-42.1	22.6	0.00e+00	92	42	0	321912832	54	6514
2026-01-20 13:34:52.62	33.77	16.44	-41.2	-42.2	22.8	0.00e+00	22	42	0	324009984	54	6543
2026-01-20 13:34:53.63	33.89	16.53	-40.9	-41.9	22.9	0.00e+00	75	42	0	326107136	54	6331
2026-01-20 13:34:54.64	34.00	16.63	-41.0	-42.0	22.8	0.00e+00	6	42	0	328204288	54	6440
2026-01-20 13:34:55.65	34.11	16.73	-41.0	-42.0	22.7	0.00e+00	6	42	0	330301440	54	6432
2026-01-20 13:34:56.66	34.23	16.83	-41.2	-42.2	22.7	0.00e+00	33	42	0	331350016	54	6572
2026-01-20 13:34:57.67	34.35	16.93	-41.2	-42.2	22.7	0.00e+00	0	42	0	333447168	54	6574
2026-01-20 13:34:58.68	34.46	17.03	-41.1	-42.1	22.7	0.00e+00	91	42	0	335544320	54	6511
2026-01-20 13:34:59.69	34.58	17.13	-41.2	-42.2	22.6	0.00e+00	0	42	0	337641472	54	6612
2026-01-20 13:35:00.70	34.70	17.23	-41.4	-42.4	22.5	0.00e+00	70	42	0	339738624	54	6766
2026-01-20 13:35:01.70	34.82	17.33	-41.3	-42.3	22.5	0.00e+00	59	42	0	340787200	54	6690
2026-01-20 13:35:02.71	34.94	17.43	-41.3	-42.3	22.6	0.00e+00	58	42	0	342884352	54	6637
2026-01-20 13:35:03.72	35.06	17.53	-41.1	-42.1	22.8	0.00e+00	0	42	0	344981504	54	6476
2026-01-20 13:35:04.73	35.18	17.63	-41.7	-42.8	22.3	0.00e+00	0	42	0	347078656	54	7015
2026-01-20 13:35:05.74	35.31	17.74	-41.8	-42.9	21.8	0.00e+00	92	42	0	349175808	56	6331
2026-01-20 13:35:06.75	35.43	17.84	-41.8	-42.9	22.3	0.00e+00	18	42	0	350224384	56	6350
2026-01-20 13:35:07.76	35.55	17.94	-41.8	-42.9	22.0	0.00e+00	92	42	0	352321536	56	6326
2026-01-20 13:35:08.77	35.68	18.04	-42.0	-43.0	22.1	0.00e+00	18	42	0	354418688	56	6463
2026-01-20 13:35:09.78	35.80	18.15	-42.2	-43.3	21.9	0.00e+00	20	42	0	356515840	56	6634
2026-01-20 13:35:10.79	35.93	18.25	-42.1	-43.2	21.7	0.00e+00	22	42	0	358612992	56	6548
2026-01-20 13:35:11.80	36.06	18.35	-42.0	-43.1	22.0	0.00e+00	18	42	0	360710144	56	6501
2026-01-20 13:35:12.81	36.19	18.46	-41.8	-42.9	22.1	0.00e+00	91	42	0	361758720	56	6354
2026-01-20 13:35:13.82	36.32	18.56	-41.7	-42.8	22.2	0.00e+00	22	42	0	363855872	56	6263
2026-01-20 13:35:14.83	36.45	18.67	-42.1	-43.2	21.8	0.00e+00	92	42	0	365953024	56	6596
2026-01-20 13:35:15.84	36.58	18.77	-41.9	-43.0	22.1	0.00e+00	0	42	0	368050176	56	6414
2026-01-20 13:35:16.85	36.71	18.88	-41.9	-42.9	21.9	0.00e+00	0	42	0	370147328	56	6374
2026-01-20 13:35:17.86	36.84	18.98	-42.0	-43.1	21.7	0.00e+00	0	42	0	371195904	56	6496
2026-01-20 13:35:18.87	36.98	19.09	-42.0	-43.1	21.9	0.00e+00	0	42	0	373293056	56	6512
2026-01-20 13:35:19.87	37.11	19.19	-42.2	-43.3	21.8	0.00e+00	0	42	0	375390208	56	6631
2026-01-20 13:35:20.88	37.24	19.30	-42.2	-43.3	21.8	0.00e+00	2	42	0	377487360	56	6641
2026-01-20 13:35:21.89	37.38	19.41	-42.5	-43.6	21.6	0.00e+00	91	42	0	379584512	56	6903
2026-01-20 13:35:22.90	37.52	19.51	-42.5	-43.6	21.6	0.00e+00	0	42	0	380633088	56	6911
2026-01-20 13:35:23.91	37.66	19.62	-42.3	-43.4	21.6	0.00e+00	92	42	0	382730240	56	6711
2026-01-20 13:35:24.92	37.79	19.73	-42.2	-43.4	21.8	0.00e+00	65	42	0	384827392	56	6694
2026-01-20 13:35:25.93	37.93	19.84	-42.1	-43.2	21.9	0.00e+00	64	42	0	386924544	56	6590
2026-01-20 13:35:26.94	38.08	19.94	-42.2	-43.3	21.8	0.00e+00	56	42	0	389021696	56	6649
2026-01-20 13:35:27.95	38.22	20.05	-42.2	-43.3	21.8	0.00e+00	64	42	0	390070272	56	6658
2026-01-20 13:35:28.96	38.36	20.16	-42.1	-43.2	21.9	0.00e+00	92	42	0	392167424	56	6597
2026-01-20 13:35:29.97	38.50	20.27	-42.2	-43.3	21.8	0.00e+00	16	42	0	394264576	56	6624
2026-01-20 13:35:30.97	38.65	20.38	-42.0	-43.1	21.8	0.00e+00	92	42	0	396361728	56	6520
2026-01-20 13:35:31.98	38.79	20.49	-41.9	-43.0	22.2	0.00e+00	16	42	0	398458880	56	6395
2026-01-20 13:35:32.99	38.94	20.60	-41.9	-42.9	22.2	0.00e+00	0	42	0	399507456	56	6386
2026-01-20 13:35:34.00	39.09	20.71	-42.0	-43.1	22.1	0.00e+00	16	42	0	401604608	56	6526
2026-01-20 13:35:35.01	39.24	20.82	-42.0	-43.1	22.1	0.00e+00	17	42	0	403701760	56	6517
2026-01-20 13:35:36.02	39.39	20.93	-41.9	-43.0	22.1	0.00e+00	92	42	0	405798912	56	6393
2026-01-20 13:35:37.03	39.54	21.04	-42.0	-43.0	22.1	0.00e+00	16	42	0	407896064	56	6448
2026-01-20 13:35:38.04	39.69	21.15	-42.1	-43.2	21.9	0.00e+00	92	42	0	408944640	56	6597
2026-01-20 13:35:39.05	39.84	21.27	-41.9	-42.9	22.2	0.00e+00	0	42	0	411041792	56	6384
2026-01-20 13:35:40.06	40.00	21.38	-42.0	-43.1	22.0	0.00e+00	90	42	0	413138944	56	6527
2026-01-20 13:35:41.07	40.15	21.49	-42.0	-43.0	21.9	0.00e+00	0	42	0	415236096	56	6464
2026-01-20 13:35:42.08	40.31	21.60	-42.0	-43.1	21.9	0.00e+00	0	42	0	417333248	56	6512
2026-01-20 13:35:43.09	40.47	21.72	-42.1	-43.2	21.9	0.00e+00	0	42	0	418381824	56	6540
2026-01-20 13:35:44.10	40.63	21.83	-42.0	-43.0	22.0	0.00e+00	67	42	0	420478976	56	6461
2026-01-20 13:35:45.11	40.79	21.94	-41.9	-42.9	22.1	0.00e+00	90	42	0	422576128	56	6355
2026-01-20 13:35:46.12	40.95	22.06	-41.9	-43.0	22.1	0.00e+00	0	42	0	424673280	56	6399
2026-01-20 13:35:47.13	41.11	22.17	-42.0	-43.0	22.1	0.00e+00	15	42	0	426770432	56	6440
2026-01-20 13:35:48.14	41.27	22.29	-42.0	-43.0	22.1	0.00e+00	0	42	0	427819008	56	6447
2026-01-20 13:35:49.15	41.44	22.40	-41.9	-42.9	22.2	0.00e+00	16	42	0	429916160	56	6374
2026-01-20 13:35:50.16	41.60	22.52	-41.8	-42.8	22.3	0.00e+00	24	42	0	432013312	56	6298
2026-01-20 13:35:51.16	41.77	22.63	-41.7	-42.7	22.4	0.00e+00	14	42	0	434110464	56	6237
2026-01-20 13:35:52.17	41.94	22.75	-41.7	-42.7	22.4	0.00e+00	92	42	0	436207616	56	6198
2026-01-20 13:35:53.18	42.11	22.86	-41.6	-42.6	22.5	0.00e+00	14	42	0	437256192	56	6124
2026-01-20 13:35:54.19	42.28	22.98	-41.7	-42.7	22.4	0.00e+00	92	42	0	439353344	56	6213
2026-01-20 13:35:55.20	42.45	23.09	-41.6	-42.6	22.6	0.00e+00	0	42	0	441450496	56	6118
2026-01-20 13:35:56.21	42.62	23.21	-41.5	-42.5	22.6	0.00e+00	15	42	0	443547648	56	6069
2026-01-20 13:35:57.22	42.79	23.33	-41.4	-42.4	22.7	0.00e+00	0	42	0	445644800	56	5994
2026-01-20 13:35:58.23	42.97	23.44	-41.3	-42.3	22.8	0.00e+00	15	42	0	446693376	56	5951
2026-01-20 13:35:59.24	43.15	23.56	-41.3	-42.3	22.8	0.00e+00	36	42	0	448790528	56	5932
2026-01-20 13:36:00.24	43.32	23.68	-41.4	-42.4	22.5	0.00e+00	0	42	0	450887680	56	6027
2026-01-20 13:36:01.25	43.50	23.80	-41.5	-42.5	22.6	0.00e+00	92	42	0	452984832	56	6069
2026-01-20 13:36:02.26	43.68	23.92	-41.5	-42.5	22.3	0.00e+00	2	42	0	455081984	56	6050
2026-01-20 13:36:03.27	43.87	24.03	-41.3	-42.2	22.8	0.00e+00	0	42	0	457179136	56	5887
2026-01-20 13:36:04.28	44.05	24.15	-41.4	-42.4	22.7	0.00e+00	0	42	0	458227712	56	5969
2026-01-20 13:36:05.29	44.23	24.27	-41.2	-42.2	22.9	0.00e+00	0	42	0	460324864	56	5878
2026-01-20 13:36:06.30	44.42	24.39	-41.1	-42.0	23.0	0.00e+00	0	42	0	462422016	56	5753
2026-01-20 13:36:07.31	44.61	24.51	-40.9	-41.8	23.3	0.00e+00	64	42	0	464519168	56	5595
2026-01-20 13:36:08.31	44.79	24.63	-40.7	-41.6	23.4	0.00e+00	92	42	0	466616320	54	6131
2026-01-20 13:36:09.32	44.98	24.75	-40.3	-41.2	23.6	0.00e+00	60	42	0	467664896	54	5884
2026-01-20 13:36:10.33	45.18	24.87	-40.3	-41.2	23.5	0.00e+00	92	42	0	469762048	54	5876
2026-01-20 13:36:11.33	45.37	24.99	-40.4	-41.3	23.7	0.00e+00	0	42	0	471859200	54	5946
2026-01-20 13:36:12.34	45.56	25.11	-40.4	-41.3	23.5	0.00e+00	22	42	0	473956352	54	5947
2026-01-20 13:36:13.35	45.76	25.23	-40.5	-41.4	23.6	0.00e+00	23	42	0	476053504	54	5988
2026-01-20 13:36:14.36	45.96	25.35	-40.5	-41.4	23.5	0.00e+00	60	42	0	477102080	54	5987
2026-01-20 13:36:15.37	46.15	25.47	-40.3	-41.2	23.7	0.00e+00	72	42	0	479199232	54	5884
2026-01-20 13:36:16.38	46.36	25.59	-40.5	-41.4	23.6	0.00e+00	14	42	0	481296384	54	5988
2026-01-20 13:36:17.39	46.56	25.72	-40.3	-41.2	23.7	0.00e+00	92	42	0	483393536	54	5880
2026-01-20 13:36:18.40	46.76	25.84	-40.4	-41.3	23.6	0.00e+00	5	42	0	485490688	54	5912
2026-01-20 13:36:19.41	46.97	25.96	-40.4	-41.3	23.6	0.00e+00	0	42	0	486539264	54	5940
2026-01-20 13:36:20.42	47.17	26.08	-40.5	-41.4	23.6	0.00e+00	15	42	0	488636416	54	5971
2026-01-20 13:36:21.68	47.43	26.24	-40.3	-41.2	23.7	0.00e+00	5	42	0	490733568	54	5894
2026-01-20 13:36:22.40	47.58	26.32	-40.4	-41.3	23.6	0.00e+00	13	42	0	491782144	54	5899
2026-01-20 13:36:23.70	47.85	26.48	-40.3	-41.3	23.7	0.00e+00	0	42	0	494927872	54	5899
2026-01-20 13:36:24.42	48.01	26.57	-40.4	-41.3	23.6	0.00e+00	51	42	0	495976448	54	5927
2026-01-20 13:36:25.72	48.28	26.73	-40.8	-41.7	23.2	0.00e+00	6	42	0	498073600	54	6207
2026-01-20 13:36:26.44	48.44	26.81	-40.6	-41.5	23.3	0.00e+00	92	42	0	499122176	54	6084
2026-01-20 13:36:27.74	48.72	26.97	-40.7	-41.6	23.5	0.00e+00	5	42	0	502267904	54	6130
2026-01-20 13:36:28.46	48.87	27.06	-40.5	-41.5	23.5	0.00e+00	91	42	0	503316480	54	6040
2026-01-20 13:36:29.76	49.16	27.22	-40.6	-41.6	23.4	0.00e+00	0	42	0	505413632	54	6112
2026-01-20 13:36:30.48	49.32	27.31	-40.7	-41.6	23.3	0.00e+00	0	42	0	507510784	54	6139
2026-01-20 13:36:31.77	49.60	27.47	-41.0	-42.0	23.1	0.00e+00	92	42	0	509607936	54	6436
2026-01-20 13:36:32.49	49.77	27.56	-41.1	-42.1	23.0	0.00e+00	0	42	0	510656512	54	6508
2026-01-20 13:36:33.79	50.06	27.71	-41.1	-42.1	23.0	0.00e+00	92	42	0	513802240	54	6488
2026-01-20 13:36:34.51	50.22	27.80	-41.1	-42.1	22.9	0.00e+00	0	42	0	514850816	54	6519
2026-01-20 13:36:35.81	50.52	27.96	-41.0	-42.0	23.1	0.00e+00	63	42	0	516947968	54	6397
2026-01-20 13:36:36.53	50.69	28.05	-40.9	-41.9	23.1	0.00e+00	0	42	0	519045120	54	6334
2026-01-20 13:36:37.83	50.99	28.21	-40.8	-41.7	23.2	0.00e+00	61	42	0	521142272	54	6231
2026-01-20 13:36:38.55	51.16	28.30	-40.9	-41.9	23.1	0.00e+00	60	42	0	522190848	54	6337
2026-01-20 13:36:39.84	51.46	28.46	-41.1	-42.1	23.0	0.00e+00	53	42	0	524288000	54	6476
2026-01-20 13:36:40.56	51.64	28.55	-41.3	-42.2	22.9	0.00e+00	61	42	0	526385152	54	6600
2026-01-20 13:36:41.86	51.95	28.71	-41.4	-42.4	22.7	0.00e+00	0	42	0	528482304	54	6728
2026-01-20 13:36:42.58	52.12	28.80	-41.6	-42.6	22.4	0.00e+00	92	42	0	529530880	54	6920
2026-01-20 13:36:43.88	52.44	28.96	-42.2	-43.3	22.0	0.00e+00	5	42	0	532676608	56	6638
2026-01-20 13:36:44.60	52.62	29.05	-42.0	-43.0	22.2	0.00e+00	91	42	0	533725184	56	6456
2026-01-20 13:36:45.90	52.94	29.21	-42.3	-43.5	21.8	0.00e+00	0	42	0	535822336	56	6771
2026-01-20 13:36:46.62	53.12	29.29	-42.5	-43.7	21.5	0.00e+00	64	42	0	537919488	56	6928
2026-01-20 13:36:47.92	53.44	29.45	-42.6	-43.7	21.5	0.00e+00	92	42	0	540016640	56	6970
2026-01-20 13:36:48.64	53.63	29.54	-42.8	-43.9	21.4	0.00e+00	66	42	0	541065216	56	7160
2026-01-20 13:36:49.94	53.96	29.70	-42.7	-43.9	21.3	0.00e+00	0	42	0	543162368	58	6372
2026-01-20 13:36:50.66	54.14	29.79	-43.2	-44.4	20.9	0.00e+00	0	42	0	545259520	58	6747
2026-01-20 13:36:51.96	54.48	29.95	-43.1	-44.3	21.0	0.00e+00	67	42	0	547356672	58	6657
2026-01-20 13:36:52.68	54.67	30.04	-43.1	-44.4	20.9	0.00e+00	6	42	0	548405248	58	6725
2026-01-20 13:36:53.98	55.01	30.20	-43.0	-44.3	21.0	0.00e+00	0	42	0	551550976	58	6627
2026-01-20 13:36:54.70	55.20	30.29	-43.1	-44.3	21.1	0.00e+00	0	42	0	552599552	58	6677
2026-01-20 13:36:56.00	55.55	30.45	-42.8	-43.9	21.3	0.00e+00	66	42	0	554696704	58	6390
2026-01-20 13:36:56.72	55.74	30.53	-42.8	-44.0	21.3	0.00e+00	92	42	0	556793856	58	6396
2026-01-20 13:36:58.02	56.09	30.69	-43.0	-44.2	21.1	0.00e+00	14	42	0	558891008	58	6552
2026-01-20 13:36:58.74	56.29	30.78	-43.3	-44.5	20.7	0.00e+00	92	42	0	559939584	58	6842
2026-01-20 13:37:00.03	56.64	30.94	-43.7	-45.0	20.1	0.00e+00	14	42	0	563085312	58	7212
2026-01-20 13:37:00.75	56.84	31.03	-44.2	-45.7	19.7	0.00e+00	66	42	0	564133888	60	6956
2026-01-20 13:37:02.05	57.21	31.18	-44.9	-46.6	18.9	0.00e+00	92	42	0	566231040	60	7693
2026-01-20 13:37:02.77	57.41	31.27	-45.2	-46.9	18.6	0.00e+00	67	42	0	567279616	60	7972
2026-01-20 13:37:04.07	57.78	31.43	-45.4	-47.2	18.3	0.00e+00	92	42	0	570425344	60	8243
2026-01-20 13:37:04.79	57.98	31.51	-45.4	-47.1	18.3	0.00e+00	0	42	0	571473920	60	8228
2026-01-20 13:37:06.09	58.36	31.67	-45.6	-47.4	18.0	0.00e+00	0	42	0	573571072	60	8519
2026-01-20 13:37:06.81	58.56	31.76	-45.6	-47.4	18.1	0.00e+00	68	42	0	575668224	60	8434
2026-01-20 13:37:08.10	58.94	31.91	-45.5	-47.3	18.3	0.00e+00	0	42	0	577765376	60	8342
2026-01-20 13:37:08.83	59.15	32.00	-45.0	-46.7	19.0	0.00e+00	26	42	0	578813952	60	7773
2026-01-20 13:37:10.12	59.54	32.15	-44.6	-46.1	19.4	0.00e+00	0	42	0	581959680	60	7281
2026-01-20 13:37:10.84	59.75	32.24	-44.5	-46.0	19.4	0.00e+00	0	42	0	583008256	60	7251
2026-01-20 13:37:12.14	60.14	32.39	-44.6	-46.1	19.3	0.00e+00	0	42	0	585105408	60	7300
2026-01-20 13:37:12.86	60.36	32.48	-44.8	-46.4	19.0	0.00e+00	92	42	0	587202560	60	7532
2026-01-20 13:37:14.16	60.76	32.63	-45.2	-46.9	18.6	0.00e+00	61	42	0	589299712	60	7977
2026-01-20 13:37:14.88	60.98	32.71	-45.5	-47.3	18.1	0.00e+00	92	42	0	590348288	60	8365
2026-01-20 13:37:16.18	61.38	32.87	-45.8	-47.8	17.7	0.00e+00	0	42	0	592445440	60	8862
2026-01-20 13:37:16.90	61.60	32.95	-45.8	-47.7	17.7	0.00e+00	6	42	0	594542592	60	8769
2026-01-20 13:37:18.19	62.01	33.10	-45.4	-47.2	18.4	0.00e+00	92	42	0	596639744	60	8266
2026-01-20 13:37:18.91	62.23	33.18	-45.3	-47.1	18.3	0.00e+00	0	42	0	597688320	60	8142
2026-01-20 13:37:20.21	62.65	33.33	-44.6	-46.1	19.4	0.00e+00	90	42	0	600834048	60	7333
2026-01-20 13:37:20.93	62.88	33.41	-44.4	-45.9	19.5	0.00e+00	6	42	0	601882624	60	7151
2026-01-20 13:37:22.23	63.30	33.56	-44.2	-45.6	19.8	0.00e+00	67	42	0	603979776	60	6910
2026-01-20 13:37:22.95	63.53	33.64	-44.2	-45.7	19.7	0.00e+00	67	42	0	606076928	60	6951
2026-01-20 13:37:24.25	63.96	33.79	-44.3	-45.7	19.7	0.00e+00	2	42	0	608174080	60	6994
2026-01-20 13:37:24.97	64.19	33.87	-44.4	-45.9	19.5	0.00e+00	68	42	0	609222656	60	7159
2026-01-20 13:37:26.27	64.63	34.01	-44.4	-45.9	19.5	0.00e+00	14	42	0	611319808	60	7118
2026-01-20 13:37:26.99	64.87	34.09	-44.5	-46.0	19.5	0.00e+00	8	42	0	613416960	60	7194
2026-01-20 13:37:28.29	65.30	34.23	-44.3	-45.8	19.6	0.00e+00	14	42	0	615514112	60	7024
2026-01-20 13:37:29.01	65.55	34.31	-44.3	-45.8	19.6	0.00e+00	92	42	0	616562688	60	7050
2026-01-20 13:37:30.31	65.99	34.45	-44.3	-45.7	19.7	0.00e+00	0	42	0	619708416	60	7005
2026-01-20 13:37:31.03	66.24	34.53	-44.2	-45.6	19.8	0.00e+00	61	42	0	620756992	60	6918
2026-01-20 13:37:32.32	66.68	34.67	-44.1	-45.5	20.0	0.00e+00	0	42	0	622854144	60	6794
2026-01-20 13:37:33.05	66.93	34.75	-44.1	-45.5	20.0	0.00e+00	14	42	0	624951296	60	6780
2026-01-20 13:37:34.34	67.38	34.88	-43.6	-45.0	20.4	0.00e+00	92	42	0	627048448	60	6396
2026-01-20 13:37:35.06	67.64	34.96	-43.4	-44.7	20.8	0.00e+00	0	42	0	628097024	60	6220
2026-01-20 13:37:36.36	68.10	35.09	-43.1	-44.3	21.0	0.00e+00	92	42	0	631242752	60	5950
2026-01-20 13:37:37.08	68.35	35.17	-43.0	-44.2	21.0	0.00e+00	13	42	0	632291328	60	5892
2026-01-20 13:37:38.38	68.82	35.30	-43.5	-44.8	20.6	0.00e+00	0	42	0	634388480	60	6308
2026-01-20 13:37:39.10	69.08	35.37	-43.5	-44.8	20.6	0.00e+00	0	42	0	635437056	60	6266
2026-01-20 13:37:40.40	69.55	35.50	-43.6	-45.0	20.5	0.00e+00	18	42	0	638582784	60	6394
2026-01-20 13:37:41.12	69.82	35.57	-43.3	-44.6	20.7	0.00e+00	0	42	0	639631360	60	6146
2026-01-20 13:37:42.41	70.29	35.70	-42.6	-43.8	21.5	0.00e+00	19	42	0	641728512	58	6280
2026-01-20 13:37:43.14	70.56	35.77	-42.4	-43.5	21.7	0.00e+00	90	42	0	643825664	58	6061
2026-01-20 13:37:44.43	71.04	35.89	-42.0	-43.1	22.2	0.00e+00	63	42	0	645922816	58	5799
2026-01-20 13:37:45.15	71.31	35.96	-41.4	-42.3	22.8	0.00e+00	90	42	0	646971392	56	5951
2026-01-20 13:37:46.45	71.80	36.09	-41.4	-42.3	22.1	0.00e+00	0	42	0	650117120	56	5964
2026-01-20 13:37:47.17	72.07	36.15	-41.5	-42.5	22.7	0.00e+00	76	42	0	651165696	56	6038
2026-01-20 13:37:48.47	72.56	36.27	-41.7	-42.7	22.5	0.00e+00	34	42	0	653262848	56	6185
2026-01-20 13:37:49.19	72.84	36.34	-41.8	-42.9	22.4	0.00e+00	13	42	0	655360000	56	6334
2026-01-20 13:37:50.49	73.34	36.45	-41.8	-42.9	22.3	0.00e+00	92	42	0	657457152	56	6336
2026-01-20 13:37:51.21	73.62	36.52	-41.7	-42.7	22.5	0.00e+00	68	42	0	658505728	56	6235
2026-01-20 13:37:52.51	74.12	36.63	-41.6	-42.6	22.6	0.00e+00	59	42	0	660602880	56	6151
2026-01-20 13:37:53.23	74.41	36.69	-41.6	-42.6	22.6	0.00e+00	67	42	0	662700032	56	6124
2026-01-20 13:37:54.53	74.92	36.80	-41.9	-42.9	22.2	0.00e+00	0	42	0	664797184	56	6361
2026-01-20 13:37:55.25	75.20	36.86	-42.0	-43.1	22.2	0.00e+00	0	42	0	665845760	56	6476
2026-01-20 13:37:56.54	75.71	36.97	-42.4	-43.5	21.8	0.00e+00	0	42	0	668991488	56	6813
2026-01-20 13:37:57.27	76.00	37.02	-42.4	-43.6	21.8	0.00e+00	0	42	0	670040064	56	6850
2026-01-20 13:37:58.57	76.53	37.13	-42.5	-43.7	21.5	0.00e+00	0	42	0	672137216	56	6947
2026-01-20 13:37:59.29	76.82	37.18	-42.5	-43.6	21.7	0.00e+00	92	42	0	673185792	56	6910
2026-01-20 13:38:00.59	77.34	37.28	-42.4	-43.5	21.8	0.00e+00	67	42	0	676331520	56	6811
2026-01-20 13:38:01.31	77.63	37.34	-42.3	-43.3	21.8	0.00e+00	92	42	0	677380096	56	6692
2026-01-20 13:38:02.60	78.16	37.43	-42.4	-43.5	21.7	0.00e+00	2	42	0	679477248	56	6841
2026-01-20 13:38:03.33	78.46	37.48	-42.6	-43.7	21.6	0.00e+00	0	42	0	681574400	56	6970
2026-01-20 13:38:04.62	78.99	37.58	-42.6	-43.7	21.5	0.00e+00	92	42	0	683671552	56	6992
2026-01-20 13:38:05.34	79.29	37.63	-42.7	-43.9	21.4	0.00e+00	0	42	0	684720128	56	7117
2026-01-20 13:38:06.64	79.83	37.71	-42.9	-44.1	21.2	0.00e+00	92	42	0	687865856	58	6473
2026-01-20 13:38:07.36	80.13	37.76	-42.6	-43.7	21.6	0.00e+00	62	42	0	688914432	58	6240
2026-01-20 13:38:08.66	80.68	37.84	-42.3	-43.5	21.9	0.00e+00	19	42	0	691011584	58	6035
2026-01-20 13:38:09.38	80.98	37.89	-42.6	-43.7	21.5	0.00e+00	0	42	0	693108736	58	6195
2026-01-20 13:38:10.68	81.53	37.97	-42.9	-44.1	21.1	0.00e+00	0	42	0	695205888	58	6526
2026-01-20 13:38:11.40	81.83	38.01	-43.1	-44.3	20.9	0.00e+00	0	42	0	696254464	58	6651
2026-01-20 13:38:12.69	82.38	38.09	-43.3	-44.6	20.8	0.00e+00	21	42	0	698351616	58	6886
2026-01-20 13:38:13.41	82.69	38.13	-43.1	-44.3	20.9	0.00e+00	0	42	0	700448768	58	6627
2026-01-20 13:38:14.71	83.25	38.20	-43.0	-44.2	21.2	0.00e+00	0	42	0	702545920	58	6588
2026-01-20 13:38:15.43	83.56	38.24	-42.9	-44.1	21.1	0.00e+00	92	42	0	703594496	58	6494
2026-01-20 13:38:16.73	84.12	38.30	-42.9	-44.1	21.2	0.00e+00	0	42	0	706740224	58	6504
2026-01-20 13:38:17.45	84.43	38.34	-42.9	-44.1	21.2	0.00e+00	92	42	0	707788800	58	6485
2026-01-20 13:38:18.74	84.99	38.40	-43.1	-44.4	21.0	0.00e+00	0	42	0	709885952	58	6707
2026-01-20 13:38:19.47	85.31	38.43	-43.3	-44.6	20.7	0.00e+00	0	42	0	711983104	58	6892
2026-01-20 13:38:20.77	85.87	38.49	-43.8	-45.1	20.1	0.00e+00	92	42	0	714080256	58	7331
2026-01-20 13:38:21.49	86.19	38.52	-43.9	-45.4	20.1	0.00e+00	13	42	0	715128832	60	6704
2026-01-20 13:38:22.78	86.75	38.58	-43.6	-45.0	20.4	0.00e+00	92	42	0	718274560	60	6401
2026-01-20 13:38:23.51	87.07	38.60	-43.6	-44.9	20.5	0.00e+00	0	42	0	719323136	60	6352
2026-01-20 13:38:24.80	87.64	38.65	-43.5	-44.8	20.5	0.00e+00	19	42	0	721420288	60	6282
2026-01-20 13:38:25.52	87.96	38.68	-43.5	-44.8	20.5	0.00e+00	0	42	0	722468864	60	6317
2026-01-20 13:38:26.82	88.54	38.72	-44.0	-45.4	20.0	0.00e+00	19	42	0	725614592	60	6724
2026-01-20 13:38:27.54	88.86	38.74	-44.3	-45.7	19.8	0.00e+00	0	42	0	726663168	60	7004
2026-01-20 13:38:28.84	89.43	38.78	-44.7	-46.3	19.3	0.00e+00	20	42	0	728760320	60	7423
2026-01-20 13:38:29.56	89.75	38.80	-44.7	-46.3	19.4	0.00e+00	92	42	0	730857472	60	7455
2026-01-20 13:38:30.86	90.33	38.83	-44.6	-46.2	19.1	0.00e+00	20	42	0	732954624	60	7407
2026-01-20 13:38:31.58	90.66	38.85	-44.6	-46.2	19.3	0.00e+00	92	42	0	734003200	60	7360
2026-01-20 13:38:32.88	91.24	38.88	-44.8	-46.4	19.2	0.00e+00	19	42	0	737148928	60	7532
2026-01-20 13:38:33.60	91.56	38.89	-44.9	-46.5	19.0	0.00e+00	92	42	0	738197504	60	7621
2026-01-20 13:38:34.90	92.14	38.92	-44.9	-46.5	18.9	0.00e+00	79	42	0	740294656	60	7675
2026-01-20 13:38:35.62	92.47	38.93	-45.1	-46.7	18.6	0.00e+00	0	42	0	741343232	60	7859
2026-01-20 13:38:36.91	93.05	38.95	-44.7	-46.2	19.2	0.00e+00	92	42	0	744488960	60	7380
2026-01-20 13:38:37.63	93.37	38.96	-44.7	-46.2	19.4	0.00e+00	63	42	0	745537536	60	7401
2026-01-20 13:38:38.93	93.95	38.97	-44.2	-45.6	19.8	0.00e+00	92	42	0	747634688	60	6891
2026-01-20 13:38:39.66	94.28	38.98	-44.0	-45.4	20.0	0.00e+00	21	42	0	749731840	60	6722
2026-01-20 13:38:40.96	94.87	38.98	-43.8	-45.2	20.3	0.00e+00	0	42	0	751828992	60	6577
2026-01-20 13:38:41.68	95.19	38.99	-43.6	-44.9	20.5	0.00e+00	5	42	0	752877568	60	6381
2026-01-20 13:38:42.97	95.77	38.99	-43.7	-45.0	20.3	0.00e+00	0	42	0	756023296	60	6442
2026-01-20 13:38:43.69	96.10	38.99	-43.7	-45.1	20.3	0.00e+00	0	42	0	757071872	60	6467
2026-01-20 13:38:44.99	96.68	38.99	-43.9	-45.3	20.1	0.00e+00	61	42	0	759169024	60	6686
2026-01-20 13:38:45.71	97.01	38.99	-43.6	-44.9	20.6	0.00e+00	92	42	0	761266176	60	6343
2026-01-20 13:38:47.01	97.59	38.98	-43.4	-44.7	20.7	0.00e+00	13	42	0	763363328	60	6186
2026-01-20 13:38:47.73	97.92	38.97	-43.2	-44.4	20.9	0.00e+00	92	42	0	764411904	60	6025
2026-01-20 13:38:49.03	98.50	38.96	-43.0	-44.2	21.2	0.00e+00	13	42	0	766509056	60	5883
2026-01-20 13:38:49.75	98.83	38.95	-42.4	-43.5	21.7	0.00e+00	5	42	0	768606208	58	6085
2026-01-20 13:38:51.04	99.41	38.94	-42.8	-44.0	21.5	0.00e+00	68	42	0	770703360	58	6431
2026-01-20 13:38:51.77	99.74	38.92	-43.1	-44.3	21.1	0.00e+00	61	42	0	771751936	58	6655
2026-01-20 13:38:53.06	100.31	38.90	-43.3	-44.6	20.8	0.00e+00	92	42	0	774897664	58	6886
2026-01-20 13:38:53.79	100.64	38.89	-43.4	-44.7	20.5	0.00e+00	0	42	0	775946240	58	6955
2026-01-20 13:38:55.08	101.22	38.86	-43.4	-44.7	20.5	0.00e+00	90	42	0	778043392	58	6974
2026-01-20 13:38:55.81	101.55	38.84	-43.4	-44.7	20.7	0.00e+00	67	42	0	780140544	58	6948
2026-01-20 13:38:57.10	102.12	38.81	-43.4	-44.7	20.7	0.00e+00	0	42	0	782237696	58	6966
2026-01-20 13:38:57.82	102.44	38.79	-43.5	-44.8	20.6	0.00e+00	5	42	0	783286272	58	7020
2026-01-20 13:38:59.12	103.02	38.75	-44.5	-46.1	19.5	0.00e+00	0	42	0	786432000	60	7263
2026-01-20 13:38:59.84	103.34	38.73	-44.9	-46.5	18.9	0.00e+00	54	42	0	787480576	60	7654
2026-01-20 13:39:01.14	103.92	38.69	-45.1	-46.9	18.6	0.00e+00	0	42	0	789577728	60	8001
2026-01-20 13:39:01.86	104.24	38.67	-45.4	-47.3	18.2	0.00e+00	92	42	0	790626304	60	8353
2026-01-20 13:39:03.16	104.81	38.62	-45.0	-46.7	18.8	0.00e+00	0	42	0	793772032	60	7800
2026-01-20 13:39:03.88	105.13	38.59	-44.8	-46.4	19.1	0.00e+00	92	42	0	794820608	60	7527
2026-01-20 13:39:05.17	105.69	38.54	-44.7	-46.3	19.2	0.00e+00	0	42	0	796917760	60	7483
2026-01-20 13:39:05.90	106.01	38.51	-44.6	-46.2	19.5	0.00e+00	7	42	0	799014912	60	7341
2026-01-20 13:39:07.19	106.58	38.45	-43.7	-45.1	20.4	0.00e+00	90	42	0	801112064	60	6483
2026-01-20 13:39:07.91	106.89	38.42	-43.6	-44.9	20.6	0.00e+00	7	42	0	802160640	60	6384
2026-01-20 13:39:09.21	107.46	38.36	-43.6	-44.9	20.5	0.00e+00	92	42	0	805306368	60	6335
2026-01-20 13:39:09.93	107.77	38.32	-43.8	-45.2	20.3	0.00e+00	0	42	0	806354944	60	6562
2026-01-20 13:39:11.23	108.33	38.26	-44.2	-45.8	19.8	0.00e+00	64	42	0	808452096	60	7009
2026-01-20 13:39:11.95	108.64	38.22	-43.8	-45.2	20.2	0.00e+00	63	42	0	809500672	60	6608
2026-01-20 13:39:13.25	109.20	38.15	-43.0	-44.3	21.1	0.00e+00	20	42	0	812646400	60	5913
2026-01-20 13:39:13.97	109.51	38.11	-42.6	-43.8	21.5	0.00e+00	62	42	0	813694976	58	6254
2026-01-20 13:39:15.27	110.06	38.03	-42.6	-43.7	21.5	0.00e+00	0	42	0	815792128	58	6211
2026-01-20 13:39:15.99	110.37	37.99	-42.7	-43.9	21.4	0.00e+00	62	42	0	817889280	58	6363
2026-01-20 13:39:17.29	110.92	37.91	-42.3	-43.4	21.9	0.00e+00	14	42	0	819986432	58	6017
2026-01-20 13:39:18.01	111.22	37.87	-42.0	-43.1	22.2	0.00e+00	92	42	0	821035008	58	5777
2026-01-20 13:39:19.31	111.77	37.78	-41.6	-42.6	22.7	0.00e+00	0	42	0	824180736	56	6143
2026-01-20 13:39:20.03	112.07	37.74	-41.0	-42.0	23.2	0.00e+00	92	42	0	825229312	56	5719
2026-01-20 13:39:21.32	112.61	37.65	-41.2	-42.1	23.1	0.00e+00	16	42	0	827326464	56	5809
2026-01-20 13:39:22.05	112.91	37.60	-41.6	-42.6	22.4	0.00e+00	13	42	0	829423616	56	6150
2026-01-20 13:39:23.34	113.45	37.51	-42.1	-43.2	22.1	0.00e+00	92	42	0	831520768	56	6567
2026-01-20 13:39:24.07	113.75	37.46	-41.8	-42.8	22.4	0.00e+00	14	42	0	832569344	56	6288
2026-01-20 13:39:25.36	114.28	37.36	-41.3	-42.3	22.9	0.00e+00	90	42	0	834666496	56	5930
2026-01-20 13:39:26.08	114.57	37.31	-40.8	-41.7	23.4	0.00e+00	13	42	0	836763648	56	5527
2026-01-20 13:39:27.38	115.10	37.21	-40.9	-41.8	23.2	0.00e+00	0	42	0	838860800	54	6303
2026-01-20 13:39:28.10	115.39	37.15	-41.1	-42.1	22.9	0.00e+00	0	42	0	839909376	54	6517
2026-01-20 13:39:29.40	115.91	37.05	-40.6	-41.5	23.5	0.00e+00	15	42	0	843055104	54	6059
2026-01-20 13:39:30.12	116.20	36.99	-40.0	-40.9	24.0	0.00e+00	0	42	0	844103680	54	5638
2026-01-20 13:39:31.42	116.72	36.89	-39.6	-40.4	24.4	0.00e+00	0	42	0	846200832	52	6033
2026-01-20 13:39:32.15	117.01	36.83	-39.7	-40.5	24.3	0.00e+00	91	42	0	848297984	52	6086
2026-01-20 13:39:33.44	117.52	36.72	-40.1	-41.0	24.0	0.00e+00	14	42	0	850395136	52	6420
2026-01-20 13:39:34.17	117.80	36.66	-40.6	-41.5	23.5	0.00e+00	92	42	0	851443712	52	6788
2026-01-20 13:39:35.46	118.31	36.54	-40.7	-41.7	23.4	0.00e+00	2	42	0	854589440	54	6199
2026-01-20 13:39:36.18	118.59	36.48	-40.2	-41.1	23.8	0.00e+00	80	42	0	855638016	54	5813
2026-01-20 13:39:37.48	119.09	36.36	-40.3	-41.1	23.9	0.00e+00	37	42	0	857735168	54	5821
2026-01-20 13:39:38.20	119.37	36.30	-39.6	-40.4	24.4	0.00e+00	20	42	0	858783744	52	5985
2026-01-20 13:39:39.50	119.86	36.18	-40.1	-41.0	24.0	0.00e+00	92	42	0	861929472	52	6430
2026-01-20 13:39:40.22	120.14	36.11	-40.3	-41.2	23.5	0.00e+00	20	42	0	862978048	52	6585
2026-01-20 13:39:41.52	120.63	35.99	-39.7	-40.6	24.3	0.00e+00	56	42	0	865075200	52	6106
2026-01-20 13:39:42.24	120.90	35.92	-39.5	-40.3	24.4	0.00e+00	62	42	0	867172352	52	5947
2026-01-20 13:39:43.54	121.38	35.80	-39.4	-40.2	24.6	0.00e+00	0	42	0	869269504	52	5875
2026-01-20 13:39:44.26	121.65	35.73	-39.5	-40.3	24.5	0.00e+00	0	42	0	870318080	52	5923
2026-01-20 13:39:45.55	122.13	35.60	-40.2	-41.1	23.8	0.00e+00	61	42	0	873463808	52	6484
2026-01-20 13:39:46.28	122.39	35.53	-40.3	-41.2	23.3	0.00e+00	0	42	0	874512384	52	6565
2026-01-20 13:39:47.57	122.87	35.40	-40.1	-41.0	24.0	0.00e+00	0	42	0	876609536	52	6408
2026-01-20 13:39:48.29	123.13	35.33	-39.8	-40.6	24.4	0.00e+00	92	42	0	877658112	52	6135
2026-01-20 13:39:49.59	123.59	35.20	-39.7	-40.6	24.3	0.00e+00	67	42	0	880803840	52	6133
2026-01-20 13:39:50.31	123.85	35.12	-39.8	-40.6	24.3	0.00e+00	90	42	0	881852416	52	6137
2026-01-20 13:39:51.60	124.31	34.99	-40.8	-41.7	23.3	0.00e+00	52	42	0	883949568	52	6995
2026-01-20 13:39:52.33	124.57	34.91	-41.2	-42.2	22.8	0.00e+00	0	42	0	886046720	54	6571
2026-01-20 13:39:53.62	125.02	34.78	-41.3	-42.3	22.8	0.00e+00	92	42	0	888143872	54	6665
2026-01-20 13:39:54.35	125.28	34.70	-41.0	-42.0	23.0	0.00e+00	2	42	0	889192448	54	6416
2026-01-20 13:39:55.64	125.72	34.56	-40.9	-41.8	23.2	0.00e+00	5	42	0	892338176	54	6283
2026-01-20 13:39:56.37	125.98	34.48	-40.8	-41.7	23.3	0.00e+00	67	42	0	893386752	54	6197
2026-01-20 13:39:57.66	126.42	34.34	-41.2	-42.2	22.8	0.00e+00	5	42	0	895483904	54	6597
2026-01-20 13:39:58.38	126.66	34.26	-41.5	-42.5	22.6	0.00e+00	68	42	0	896532480	54	6823
2026-01-20 13:39:59.68	127.10	34.12	-41.4	-42.4	22.8	0.00e+00	6	42	0	899678208	54	6727
2026-01-20 13:40:00.40	127.34	34.04	-40.8	-41.7	23.5	0.00e+00	13	42	0	900726784	54	6210
2026-01-20 13:40:01.70	127.78	33.89	-40.6	-41.6	23.3	0.00e+00	0	42	0	902823936	54	6105
2026-01-20 13:40:02.42	128.01	33.81	-40.9	-41.9	23.0	0.00e+00	28	42	0	904921088	54	6335
2026-01-20 13:40:03.72	128.44	33.67	-41.9	-43.0	22.0	0.00e+00	5	42	0	907018240	56	6417
2026-01-20 13:40:04.44	128.68	33.59	-42.4	-43.5	21.7	0.00e+00	92	42	0	908066816	56	6801
2026-01-20 13:40:05.74	129.10	33.44	-42.2	-43.3	22.0	0.00e+00	5	42	0	911212544	56	6660
2026-01-20 13:40:06.46	129.33	33.36	-41.7	-42.7	22.5	0.00e+00	92	42	0	912261120	56	6187
2026-01-20 13:40:07.76	129.74	33.21	-41.1	-42.1	23.0	0.00e+00	0	42	0	914358272	56	5781
2026-01-20 13:40:08.48	129.97	33.12	-41.4	-42.4	22.6	0.00e+00	19	42	0	916455424	56	6011
2026-01-20 13:40:09.78	130.38	32.97	-42.3	-43.4	21.8	0.00e+00	92	42	0	918552576	56	6748
2026-01-20 13:40:10.49	130.61	32.89	-43.2	-44.4	20.7	0.00e+00	0	42	0	919601152	58	6759
2026-01-20 13:40:11.79	131.01	32.74	-43.1	-44.4	20.8	0.00e+00	60	42	0	921698304	58	6713
2026-01-20 13:40:12.51	131.23	32.65	-42.5	-43.7	21.5	0.00e+00	0	42	0	923795456	58	6180
2026-01-20 13:40:13.81	131.63	32.50	-41.8	-42.9	22.1	0.00e+00	63	42	0	925892608	58	5643
2026-01-20 13:40:14.53	131.85	32.41	-41.5	-42.4	22.6	0.00e+00	0	42	0	926941184	56	6028
2026-01-20 13:40:15.83	132.24	32.26	-42.0	-43.1	22.0	0.00e+00	26	42	0	930086912	56	6505
2026-01-20 13:40:16.55	132.46	32.17	-42.6	-43.7	21.4	0.00e+00	0	42	0	931135488	56	6985
2026-01-20 13:40:17.85	132.84	32.02	-43.3	-44.5	20.7	0.00e+00	8	42	0	933232640	58	6832
2026-01-20 13:40:18.57	133.06	31.93	-42.8	-44.0	21.3	0.00e+00	48	42	0	935329792	58	6440
2026-01-20 13:40:19.87	133.44	31.78	-42.3	-43.4	21.9	0.00e+00	8	42	0	937426944	58	6032
2026-01-20 13:40:20.59	133.65	31.69	-41.7	-42.7	22.4	0.00e+00	90	42	0	938475520	58	5560
2026-01-20 13:40:21.89	134.02	31.53	-41.8	-42.9	22.0	0.00e+00	6	42	0	940572672	56	6325
2026-01-20 13:40:22.61	134.23	31.44	-42.4	-43.6	21.6	0.00e+00	18	42	0	942669824	56	6856
2026-01-20 13:40:23.91	134.60	31.29	-43.7	-45.1	20.0	0.00e+00	92	42	0	944766976	58	7336
2026-01-20 13:40:24.63	134.80	31.20	-44.5	-46.0	19.2	0.00e+00	65	42	0	945815552	60	7248
2026-01-20 13:40:25.93	135.17	31.04	-43.9	-45.3	20.1	0.00e+00	92	42	0	948961280	60	6643
2026-01-20 13:40:26.65	135.37	30.95	-42.8	-44.0	21.2	0.00e+00	5	42	0	950009856	60	5719
2026-01-20 13:40:27.95	135.73	30.79	-41.7	-42.7	22.3	0.00e+00	0	42	0	952107008	58	5522
2026-01-20 13:40:28.67	135.93	30.71	-41.5	-42.5	22.5	0.00e+00	5	42	0	954204160	56	6097
2026-01-20 13:40:29.96	136.28	30.55	-42.0	-43.1	22.0	0.00e+00	0	42	0	956301312	56	6485
2026-01-20 13:40:30.68	136.47	30.46	-42.4	-43.6	21.5	0.00e+00	5	42	0	957349888	56	6854
2026-01-20 13:40:31.98	136.82	30.30	-43.2	-44.5	20.7	0.00e+00	66	42	0	960495616	58	6774
2026-01-20 13:40:32.70	137.01	30.21	-42.8	-44.1	21.2	0.00e+00	0	42	0	961544192	58	6465
2026-01-20 13:40:34.00	137.36	30.05	-41.5	-42.5	22.7	0.00e+00	16	42	0	963641344	58	5418
2026-01-20 13:40:34.72	137.54	29.96	-40.9	-41.8	23.2	0.00e+00	92	42	0	964689920	56	5630
2026-01-20 13:40:36.02	137.88	29.80	-40.0	-40.8	23.8	0.00e+00	15	42	0	967835648	54	5628
2026-01-20 13:40:36.74	138.07	29.71	-40.3	-41.2	23.5	0.00e+00	92	42	0	968884224	54	5881
2026-01-20 13:40:38.04	138.40	29.55	-41.4	-42.4	22.5	0.00e+00	20	42	0	970981376	54	6765
2026-01-20 13:40:38.76	138.59	29.46	-42.2	-43.4	21.7	0.00e+00	58	42	0	973078528	56	6697
2026-01-20 13:40:40.06	138.91	29.30	-42.1	-43.2	22.0	0.00e+00	90	42	0	975175680	56	6586
2026-01-20 13:40:40.78	139.09	29.21	-41.7	-42.7	22.4	0.00e+00	0	42	0	976224256	56	6234
2026-01-20 13:40:42.08	139.42	29.05	-41.1	-42.1	22.8	0.00e+00	92	42	0	979369984	56	5800
2026-01-20 13:40:42.80	139.59	28.96	-40.2	-41.1	23.8	0.00e+00	26	42	0	980418560	54	5767
2026-01-20 13:40:44.10	139.91	28.80	-40.3	-41.2	23.6	0.00e+00	0	42	0	982515712	54	5889
2026-01-20 13:40:44.82	140.09	28.71	-40.9	-41.8	23.2	0.00e+00	59	42	0	984612864	54	6291
2026-01-20 13:40:46.12	140.40	28.55	-41.9	-43.0	22.1	0.00e+00	0	42	0	986710016	56	6423
2026-01-20 13:40:46.85	140.58	28.46	-42.2	-43.3	21.8	0.00e+00	21	42	0	987758592	56	6665
2026-01-20 13:40:48.14	140.88	28.30	-41.6	-42.7	22.4	0.00e+00	64	42	0	990904320	56	6190
2026-01-20 13:40:48.87	141.06	28.21	-41.3	-42.3	22.7	0.00e+00	56	42	0	991952896	56	5926
2026-01-20 13:40:50.16	141.36	28.05	-40.3	-41.2	23.7	0.00e+00	0	42	0	994050048	54	5860
2026-01-20 13:40:50.88	141.52	27.96	-40.1	-41.0	23.8	0.00e+00	91	42	0	995098624	54	5712
2026-01-20 13:40:52.18	141.82	27.80	-39.8	-40.6	24.1	0.00e+00	0	42	0	998244352	52	6155
2026-01-20 13:40:52.90	141.99	27.71	-39.9	-40.7	24.1	0.00e+00	92	42	0	999292928	52	6240
2026-01-20 13:40:54.20	142.28	27.55	-40.2	-41.1	23.5	0.00e+00	34	42	0	1001390080	52	6522
2026-01-20 13:40:54.92	142.45	27.46	-40.4	-41.3	23.5	0.00e+00	8	42	0	1003487232	52	6688
2026-01-20 13:40:56.22	142.74	27.30	-40.6	-41.5	23.4	0.00e+00	92	42	0	1005584384	52	6840
2026-01-20 13:40:56.94	142.90	27.21	-40.0	-40.9	23.9	0.00e+00	0	42	0	1006632960	52	6338
2026-01-20 13:40:58.24	143.18	27.05	-39.3	-40.2	24.5	0.00e+00	92	42	0	1008730112	52	5834
2026-01-20 13:40:58.96	143.34	26.96	-38.5	-39.2	25.3	0.00e+00	65	42	0	1010827264	50	5878
2026-01-20 13:41:00.26	143.62	26.80	-38.0	-38.7	25.6	0.00e+00	0	42	0	1012924416	50	5553
2026-01-20 13:41:00.97	143.77	26.72	-38.3	-39.0	25.2	0.00e+00	0	42	0	1013972992	50	5746
2026-01-20 13:41:02.27	144.05	26.56	-39.1	-39.9	24.4	0.00e+00	17	42	0	1017118720	50	6332
2026-01-20 13:41:02.99	144.20	26.47	-39.7	-40.6	24.0	0.00e+00	17	42	0	1018167296	50	6856
2026-01-20 13:41:04.29	144.48	26.31	-40.7	-41.6	23.2	0.00e+00	18	42	0	1020264448	52	6912
2026-01-20 13:41:05.01	144.63	26.22	-40.9	-41.9	22.9	0.00e+00	66	42	0	1022361600	54	6363
2026-01-20 13:41:06.31	144.90	26.06	-40.4	-41.4	23.3	0.00e+00	0	42	0	1024458752	54	5983
2026-01-20 13:41:07.03	145.05	25.98	-40.2	-41.1	23.8	0.00e+00	92	42	0	1025507328	54	5789
2026-01-20 13:41:08.33	145.31	25.82	-38.6	-39.3	25.2	0.00e+00	0	42	0	1028653056	50	5959
2026-01-20 13:41:09.05	145.46	25.73	-38.6	-39.3	25.2	0.00e+00	92	42	0	1029701632	50	5949
2026-01-20 13:41:10.35	145.72	25.57	-38.2	-39.0	25.5	0.00e+00	78	42	0	1031798784	50	5712
2026-01-20 13:41:11.07	145.86	25.48	-38.2	-39.0	25.5	0.00e+00	0	42	0	1032847360	50	5725
2026-01-20 13:41:12.36	146.12	25.33	-38.7	-39.5	25.0	0.00e+00	91	42	0	1035993088	50	6068
2026-01-20 13:41:13.08	146.26	25.24	-39.1	-39.9	24.7	0.00e+00	20	42	0	1037041664	50	6354
2026-01-20 13:41:14.38	146.51	25.09	-39.5	-40.4	24.4	0.00e+00	49	42	0	1039138816	50	6735
2026-01-20 13:41:15.10	146.65	25.00	-39.6	-40.5	24.3	0.00e+00	2	42	0	1041235968	50	6784
2026-01-20 13:41:16.40	146.90	24.84	-39.5	-40.3	24.4	0.00e+00	16	42	0	1043333120	50	6680
2026-01-20 13:41:17.12	147.04	24.76	-38.4	-39.2	25.2	0.00e+00	0	42	0	1044381696	50	5871
2026-01-20 13:41:18.42	147.28	24.60	-38.4	-39.2	25.3	0.00e+00	65	42	0	1047527424	50	5860
2026-01-20 13:41:19.14	147.42	24.51	-38.2	-39.0	25.5	0.00e+00	0	42	0	1048576000	50	5709
2026-01-20 13:41:20.44	147.66	24.36	-38.0	-38.8	25.6	0.00e+00	16	42	0	1050673152	50	5597
2026-01-20 13:41:21.16	147.80	24.27	-38.1	-38.9	25.5	0.00e+00	91	42	0	1052770304	50	5657
2026-01-20 13:41:22.46	148.03	24.12	-38.6	-39.4	25.1	0.00e+00	0	42	0	1054867456	50	6016
2026-01-20 13:41:23.18	148.17	24.03	-38.9	-39.7	24.7	0.00e+00	91	42	0	1055916032	50	6229
2026-01-20 13:41:24.47	148.40	23.88	-39.2	-40.0	24.6	0.00e+00	17	42	0	1058013184	50	6444
2026-01-20 13:41:25.20	148.53	23.80	-39.3	-40.1	24.6	0.00e+00	16	42	0	1060110336	50	6535
2026-01-20 13:41:26.50	148.76	23.64	-39.0	-39.8	24.8	0.00e+00	91	42	0	1062207488	50	6297
2026-01-20 13:41:27.21	148.89	23.56	-38.9	-39.7	24.8	0.00e+00	16	42	0	1063256064	50	6200
2026-01-20 13:41:28.51	149.12	23.41	-39.1	-39.9	24.6	0.00e+00	92	42	0	1066401792	50	6337
2026-01-20 13:41:29.23	149.24	23.32	-39.2	-40.0	24.6	0.00e+00	62	42	0	1067450368	50	6455
2026-01-20 13:41:30.53	149.47	23.17	-39.1	-39.9	24.6	0.00e+00	0	42	0	1069547520	50	6380
2026-01-20 13:41:31.25	149.59	23.09	-39.1	-39.9	24.6	0.00e+00	0	42	0	1071644672	50	6388
2026-01-20 13:41:32.55	149.81	22.94	-39.5	-40.4	24.2	0.00e+00	63	42	0	1073741824	50	6718
2026-01-20 13:41:33.27	149.94	22.85	-39.8	-40.7	23.9	0.00e+00	18	42	0	1074790400	52	6214
2026-01-20 13:41:34.57	150.15	22.70	-39.7	-40.5	24.1	0.00e+00	63	42	0	1076887552	52	6101
2026-01-20 13:41:35.29	150.27	22.62	-39.5	-40.3	24.2	0.00e+00	26	42	0	1078984704	52	5957
2026-01-20 13:41:36.58	150.49	22.47	-39.5	-40.4	24.3	0.00e+00	0	42	0	1081081856	52	5974
2026-01-20 13:41:37.30	150.61	22.39	-39.7	-40.5	24.2	0.00e+00	92	42	0	1082130432	52	6064
2026-01-20 13:41:38.60	150.82	22.24	-39.1	-39.9	24.7	0.00e+00	0	42	0	1085276160	52	5686
2026-01-20 13:41:39.32	150.94	22.16	-39.3	-40.1	24.5	0.00e+00	92	42	0	1086324736	52	5800
2026-01-20 13:41:40.62	151.15	22.01	-39.3	-40.2	24.4	0.00e+00	55	42	0	1088421888	52	5841
2026-01-20 13:41:41.35	151.26	21.93	-39.6	-40.4	24.2	0.00e+00	0	42	0	1090519040	52	6007
2026-01-20 13:41:42.64	151.47	21.78	-39.7	-40.6	24.0	0.00e+00	92	42	0	1092616192	52	6105
2026-01-20 13:41:43.36	151.58	21.70	-39.8	-40.7	23.9	0.00e+00	0	42	0	1093664768	52	6202
2026-01-20 13:41:44.66	151.78	21.55	-39.9	-40.8	23.8	0.00e+00	92	42	0	1096810496	52	6271
2026-01-20 13:41:45.38	151.90	21.47	-40.0	-40.9	23.8	0.00e+00	0	42	0	1097859072	52	6379
2026-01-20 13:41:46.68	152.10	21.33	-39.9	-40.7	24.0	0.00e+00	0	42	0	1099956224	52	6242
2026-01-20 13:41:47.40	152.21	21.25	-39.9	-40.7	23.9	0.00e+00	0	42	0	1101004800	52	6245
2026-01-20 13:41:48.70	152.41	21.10	-39.9	-40.8	23.9	0.00e+00	5	42	0	1104150528	52	6274
2026-01-20 13:41:49.42	152.51	21.02	-39.9	-40.8	24.0	0.00e+00	64	42	0	1105199104	52	6267
2026-01-20 13:41:50.71	152.71	20.88	-40.2	-41.1	23.6	0.00e+00	0	42	0	1107296256	52	6478
2026-01-20 13:41:51.43	152.81	20.80	-40.5	-41.4	23.3	0.00e+00	37	42	0	1109393408	52	6768
2026-01-20 13:41:52.73	153.01	20.65	-41.0	-42.0	22.8	0.00e+00	0	42	0	1111490560	54	6425
2026-01-20 13:41:53.46	153.11	20.57	-41.1	-42.1	22.6	0.00e+00	92	42	0	1112539136	54	6509
2026-01-20 13:41:54.75	153.30	20.43	-41.4	-42.5	22.3	0.00e+00	63	42	0	1115684864	54	6775
2026-01-20 13:41:55.47	153.41	20.35	-41.6	-42.7	22.2	0.00e+00	0	42	0	1116733440	54	6978
2026-01-20 13:41:56.77	153.59	20.21	-42.1	-43.2	21.7	0.00e+00	5	42	0	1118830592	56	6583
2026-01-20 13:41:57.49	153.70	20.13	-41.9	-43.0	22.0	0.00e+00	17	42	0	1119879168	56	6405
2026-01-20 13:41:58.79	153.88	19.99	-41.9	-43.0	22.0	0.00e+00	92	42	0	1123024896	56	6426
2026-01-20 13:41:59.51	153.98	19.91	-41.9	-43.0	22.1	0.00e+00	0	42	0	1124073472	56	6399
2026-01-20 13:42:00.81	154.17	19.77	-42.1	-43.2	21.8	0.00e+00	92	42	0	1126170624	56	6569
2026-01-20 13:42:01.53	154.27	19.70	-41.5	-42.5	22.4	0.00e+00	2	42	0	1128267776	56	6055
2026-01-20 13:42:02.82	154.44	19.56	-41.4	-42.4	22.3	0.00e+00	63	42	0	1130364928	56	6030
2026-01-20 13:42:03.54	154.54	19.48	-41.1	-42.1	22.6	0.00e+00	0	42	0	1131413504	56	5799
2026-01-20 13:42:04.84	154.72	19.34	-41.5	-42.6	22.1	0.00e+00	61	42	0	1134559232	56	6143
2026-01-20 13:42:05.56	154.82	19.27	-41.7	-42.8	21.7	0.00e+00	0	42	0	1135607808	56	6283
2026-01-20 13:42:06.86	154.99	19.13	-42.1	-43.3	21.3	0.00e+00	24	42	0	1137704960	56	6671
2026-01-20 13:42:07.58	155.09	19.05	-42.2	-43.4	21.2	0.00e+00	90	42	0	1138753536	56	6705
2026-01-20 13:42:08.88	155.26	18.91	-42.6	-43.9	20.7	0.00e+00	31	42	0	1141899264	56	7091
2026-01-20 13:42:09.60	155.35	18.84	-42.6	-43.9	20.6	0.00e+00	92	42	0	1142947840	58	6360
2026-01-20 13:42:10.90	155.52	18.70	-42.4	-43.7	20.9	0.00e+00	5	42	0	1145044992	58	6178
2026-01-20 13:42:11.62	155.62	18.63	-42.4	-43.7	20.8	0.00e+00	0	42	0	1147142144	58	6207
2026-01-20 13:42:12.92	155.79	18.49	-42.2	-43.5	21.1	0.00e+00	91	42	0	1149239296	58	6037
2026-01-20 13:42:13.64	155.88	18.42	-42.2	-43.4	21.1	0.00e+00	24	42	0	1150287872	58	5998
2026-01-20 13:42:14.94	156.04	18.28	-41.8	-42.9	21.2	0.00e+00	92	42	0	1153433600	58	5663
2026-01-20 13:42:15.66	156.13	18.21	-41.3	-42.3	22.2	0.00e+00	7	42	0	1154482176	56	5964
2026-01-20 13:42:16.96	156.30	18.07	-41.1	-42.2	22.5	0.00e+00	89	42	0	1156579328	56	5831
2026-01-20 13:42:17.68	156.39	18.00	-41.0	-42.0	22.7	0.00e+00	5	42	0	1158676480	56	5717
2026-01-20 13:42:18.97	156.55	17.87	-40.5	-41.4	23.0	0.00e+00	0	42	0	1160773632	54	6020
2026-01-20 13:42:19.69	156.64	17.79	-40.5	-41.4	23.2	0.00e+00	0	42	0	1161822208	54	5996
2026-01-20 13:42:20.99	156.80	17.66	-40.2	-41.1	23.4	0.00e+00	0	42	0	1163919360	54	5808
2026-01-20 13:42:21.71	156.88	17.59	-40.2	-41.1	23.4	0.00e+00	0	42	0	1166016512	54	5810
2026-01-20 13:42:23.01	157.04	17.46	-40.5	-41.4	23.1	0.00e+00	56	42	0	1168113664	54	5999
2026-01-20 13:42:23.73	157.13	17.38	-40.3	-41.2	23.4	0.00e+00	92	42	0	1169162240	54	5837
2026-01-20 13:42:25.03	157.28	17.25	-40.3	-41.3	23.3	0.00e+00	63	42	0	1172307968	54	5905
2026-01-20 13:42:25.75	157.37	17.18	-40.4	-41.4	23.2	0.00e+00	92	42	0	1173356544	54	5969
2026-01-20 13:42:27.05	157.52	17.05	-40.5	-41.4	23.3	0.00e+00	0	42	0	1175453696	54	6008
2026-01-20 13:42:27.77	157.60	16.98	-40.8	-41.7	22.9	0.00e+00	0	42	0	1177550848	54	6238
2026-01-20 13:42:29.07	157.76	16.85	-40.5	-41.5	23.1	0.00e+00	91	42	0	1179648000	54	6042
2026-01-20 13:42:29.79	157.84	16.78	-40.6	-41.6	23.0	0.00e+00	59	42	0	1180696576	54	6136
2026-01-20 13:42:31.09	157.99	16.65	-40.7	-41.7	22.8	0.00e+00	92	42	0	1183842304	54	6211
2026-01-20 13:42:31.81	158.07	16.58	-40.6	-41.6	22.9	0.00e+00	24	42	0	1184890880	54	6141
2026-01-20 13:42:33.10	158.22	16.45	-40.7	-41.7	22.9	0.00e+00	0	42	0	1186988032	54	6177
2026-01-20 13:42:33.83	158.30	16.38	-40.7	-41.7	22.9	0.00e+00	6	42	0	1188036608	54	6220
2026-01-20 13:42:35.12	158.44	16.26	-40.7	-41.6	23.0	0.00e+00	0	42	0	1191182336	54	6161
2026-01-20 13:42:35.84	158.52	16.19	-40.6	-41.5	23.1	0.00e+00	25	42	0	1192230912	54	6093
2026-01-20 13:42:37.14	158.67	16.06	-40.4	-41.3	23.2	0.00e+00	0	42	0	1194328064	54	5949
2026-01-20 13:42:37.86	158.75	15.99	-40.6	-41.6	23.0	0.00e+00	48	42	0	1196425216	54	6140
2026-01-20 13:42:39.16	158.89	15.86	-40.5	-41.5	23.1	0.00e+00	55	42	0	1198522368	54	6035
2026-01-20 13:42:39.88	158.97	15.79	-40.8	-41.7	22.9	0.00e+00	92	42	0	1199570944	54	6233
2026-01-20 13:42:41.18	159.11	15.67	-40.9	-41.9	22.7	0.00e+00	56	42	0	1202716672	54	6377
2026-01-20 13:42:41.90	159.18	15.60	-41.1	-42.1	22.6	0.00e+00	32	42	0	1203765248	54	6521
2026-01-20 13:42:43.20	159.32	15.48	-41.1	-42.2	22.5	0.00e+00	0	42	0	1205862400	54	6540
2026-01-20 13:42:43.92	159.40	15.41	-41.1	-42.2	22.4	0.00e+00	6	42	0	1206910976	54	6559
2026-01-20 13:42:45.22	159.53	15.29	-41.6	-42.6	21.9	0.00e+00	92	42	0	1210056704	54	6917
