passes_logs/2026/01/20/R4.6S_Anadyr/R4.6S_Anadyr__20260120_072912_TY-42_rec.log

#Pass ID: 20260120_072912_TY-42
#Satellite: TY-42
#Configuration: TY-42_900M
#almurnet v.1.7.20251203
#Start time: 2026-01-20 07:29:43

#Version: 2.2.20231116
#Station: R4.6S_Anadyr
#Location: 177.4865 lon 64.73178 lat
#TLE: 1 64048U 25103A   26019.69670139  .00008010  00000-0  38191-3 0 09996
#TLE: 2 64048 097.4123 095.0255 0001753 094.0404 196.1589 15.19169419 37525

#Time	Az	El	Level	Level2	SNR	BER	BlckErr	Temp	State	Recorded	gain1	gain2
2026-01-20 07:29:43.38	103.65	1.84	-52.6	-64.3	3.5	8.45e-01	0	39	0	0	60	59244
2026-01-20 07:29:44.38	103.56	1.90	-49.4	-52.0	6.1	0.00e+00	0	41	104	0	60	48907
2026-01-20 07:29:45.39	103.46	1.96	-49.5	-52.1	6.1	0.00e+00	0	40	104	0	60	49187
2026-01-20 07:29:46.40	103.37	2.02	-49.4	-52.1	6.1	0.00e+00	0	41	104	0	60	49171
2026-01-20 07:29:47.41	103.28	2.08	-49.4	-52.0	6.1	0.00e+00	0	41	104	0	60	48862
2026-01-20 07:29:48.42	103.18	2.14	-49.3	-52.0	6.1	0.00e+00	0	41	104	0	60	48780
2026-01-20 07:29:49.43	103.08	2.20	-49.3	-52.0	6.1	0.00e+00	0	41	104	0	60	48698
2026-01-20 07:29:50.44	102.99	2.26	-49.4	-52.1	6.1	0.00e+00	0	41	104	0	60	49298
2026-01-20 07:29:51.45	102.89	2.32	-49.4	-52.0	6.1	0.00e+00	0	41	104	0	60	48876
2026-01-20 07:29:52.46	102.79	2.38	-49.4	-52.0	6.1	0.00e+00	0	41	104	0	60	48969
2026-01-20 07:29:53.47	102.70	2.45	-49.4	-52.0	6.1	0.00e+00	0	41	104	0	60	49026
2026-01-20 07:29:54.48	102.60	2.51	-49.4	-52.0	6.1	0.00e+00	0	41	104	0	60	48992
2026-01-20 07:29:55.49	102.50	2.57	-49.4	-52.0	6.1	0.00e+00	0	41	104	0	60	48954
2026-01-20 07:29:56.50	102.40	2.63	-49.4	-52.0	6.1	0.00e+00	0	41	104	0	60	48918
2026-01-20 07:29:57.51	102.30	2.69	-49.3	-52.0	6.1	0.00e+00	0	41	104	0	60	48708
2026-01-20 07:29:58.52	102.20	2.75	-49.3	-52.0	6.1	0.00e+00	0	41	104	0	60	48976
2026-01-20 07:29:59.53	102.10	2.82	-49.3	-52.0	6.1	0.00e+00	0	41	104	0	60	48694
2026-01-20 07:30:00.54	102.00	2.88	-49.3	-52.0	6.1	0.00e+00	0	41	104	0	60	48616
2026-01-20 07:30:01.55	101.90	2.94	-49.3	-52.0	6.1	0.00e+00	0	41	104	0	60	48713
2026-01-20 07:30:02.56	101.79	3.00	-49.3	-52.0	6.1	0.00e+00	0	41	104	0	60	48707
2026-01-20 07:30:03.57	101.69	3.07	-49.3	-52.0	6.1	0.00e+00	0	41	104	0	60	48789
2026-01-20 07:30:04.58	101.59	3.13	-49.3	-52.0	6.1	0.00e+00	0	41	104	0	60	48638
2026-01-20 07:30:05.59	101.48	3.19	-49.3	-52.0	6.1	0.00e+00	0	41	104	0	60	48544
2026-01-20 07:30:06.60	101.38	3.26	-49.3	-52.0	6.1	0.00e+00	0	41	104	0	60	48777
2026-01-20 07:30:07.61	101.27	3.32	-49.3	-52.0	6.1	0.00e+00	0	41	104	0	60	48494
2026-01-20 07:30:08.62	101.16	3.38	-49.3	-52.0	6.1	0.00e+00	0	41	104	0	60	48540
2026-01-20 07:30:09.63	101.06	3.45	-49.3	-52.0	6.1	0.00e+00	0	41	104	0	60	48815
2026-01-20 07:30:10.64	100.95	3.51	-49.3	-51.9	6.1	0.00e+00	0	41	104	0	60	48393
2026-01-20 07:30:11.65	100.84	3.57	-49.2	-51.9	6.1	0.00e+00	0	42	104	0	60	48422
2026-01-20 07:30:12.66	100.73	3.64	-49.5	-52.1	6.1	0.00e+00	0	42	104	0	60	49409
2026-01-20 07:30:13.67	100.62	3.70	-49.3	-51.9	6.1	0.00e+00	0	42	104	0	60	48243
2026-01-20 07:30:14.68	100.51	3.76	-49.2	-51.9	6.1	0.00e+00	0	42	104	0	60	48345
2026-01-20 07:30:15.68	100.41	3.83	-49.3	-52.0	6.1	0.00e+00	0	42	104	0	60	49001
2026-01-20 07:30:16.69	100.29	3.89	-49.5	-52.1	6.1	0.00e+00	0	42	104	0	60	49532
2026-01-20 07:30:17.70	100.18	3.96	-48.8	-51.7	6.1	0.00e+00	0	42	104	0	60	47135
2026-01-20 07:30:18.71	100.07	4.02	-49.4	-52.1	6.1	0.00e+00	0	42	104	0	60	49365
2026-01-20 07:30:19.72	99.96	4.09	-49.5	-52.2	6.1	0.00e+00	0	42	104	0	60	49811
2026-01-20 07:30:20.73	99.84	4.15	-49.6	-52.3	6.1	0.00e+00	0	42	104	0	60	50228
2026-01-20 07:30:21.74	99.73	4.21	-49.3	-52.0	6.1	0.00e+00	0	42	104	0	60	48793
2026-01-20 07:30:22.75	99.61	4.28	-49.5	-52.1	6.1	0.00e+00	0	42	104	0	60	49558
2026-01-20 07:30:23.76	99.50	4.34	-49.3	-52.0	6.0	0.00e+00	0	42	104	0	60	48968
2026-01-20 07:30:24.77	99.38	4.41	-49.5	-52.1	6.1	0.00e+00	0	42	104	0	60	49220
2026-01-20 07:30:25.78	99.27	4.47	-49.5	-52.1	6.1	0.00e+00	0	42	104	0	60	49446
2026-01-20 07:30:26.79	99.15	4.54	-49.4	-52.0	6.1	0.00e+00	0	42	104	0	60	49004
2026-01-20 07:30:27.80	99.03	4.61	-49.5	-52.1	6.1	0.00e+00	0	42	104	0	60	49155
2026-01-20 07:30:28.81	98.91	4.67	-49.6	-52.2	6.1	0.00e+00	0	42	104	0	60	49925
2026-01-20 07:30:29.82	98.79	4.74	-49.6	-52.3	6.1	0.00e+00	0	42	104	0	60	50299
2026-01-20 07:30:30.83	98.67	4.80	-49.7	-52.3	6.1	0.00e+00	0	42	104	0	60	50559
2026-01-20 07:30:31.83	98.55	4.87	-49.8	-52.4	6.1	0.00e+00	0	42	104	0	60	50917
2026-01-20 07:30:32.84	98.43	4.93	-49.9	-52.5	6.1	0.00e+00	0	42	104	0	60	51439
2026-01-20 07:30:33.85	98.31	5.00	-49.7	-52.3	6.1	0.00e+00	0	42	104	0	60	50536
2026-01-20 07:30:34.86	98.18	5.07	-49.9	-52.5	6.1	0.00e+00	0	42	104	0	60	51484
2026-01-20 07:30:35.87	98.06	5.13	-50.0	-52.6	6.1	0.00e+00	0	42	104	0	60	52035
2026-01-20 07:30:36.88	97.93	5.20	-49.6	-52.2	6.1	0.00e+00	0	42	104	0	60	50128
2026-01-20 07:30:37.89	97.81	5.27	-48.8	-51.6	6.1	0.00e+00	0	42	104	0	60	46744
2026-01-20 07:30:38.90	97.68	5.33	-49.5	-52.2	6.1	0.00e+00	0	42	104	0	60	50120
2026-01-20 07:30:39.91	97.56	5.40	-48.9	-51.7	6.1	0.00e+00	0	42	104	0	60	47191
2026-01-20 07:30:40.91	97.43	5.47	-49.0	-51.7	6.1	0.00e+00	0	42	104	0	60	47298
2026-01-20 07:30:41.92	97.30	5.53	-49.4	-52.0	6.1	0.00e+00	0	42	104	0	60	48579
2026-01-20 07:30:42.93	97.17	5.60	-49.7	-52.3	6.1	0.00e+00	0	42	104	0	60	50449
2026-01-20 07:30:43.94	97.04	5.67	-48.6	-50.5	6.1	0.00e+00	0	42	104	0	60	40850
2026-01-20 07:30:44.95	96.91	5.73	-48.2	-49.9	6.2	0.00e+00	0	42	104	0	60	38281
2026-01-20 07:30:45.96	96.78	5.80	-34.5	-34.7	12.4	0.00e+00	427	42	104	0	46	14965
2026-01-20 07:30:46.97	96.65	5.87	-30.9	-31.4	15.6	0.00e+00	0	42	0	41943040	36	18142
2026-01-20 07:30:47.98	96.51	5.94	-46.3	-47.5	6.4	3.42e-02	2942	43	104	142606336	52	46067
2026-01-20 07:30:48.99	96.38	6.00	-32.7	-33.0	13.0	0.00e+00	0	42	104	142606336	44	13719
2026-01-20 07:30:50.00	96.25	6.07	-30.6	-31.1	16.0	1.25e-02	0	43	0	184549376	36	17434
2026-01-20 07:30:51.01	96.11	6.14	-31.2	-31.6	15.9	1.25e-02	0	43	0	293601280	36	18641
2026-01-20 07:30:52.02	95.97	6.21	-30.2	-30.7	16.1	2.01e-03	0	43	0	402653184	34	18670
2026-01-20 07:30:53.03	95.84	6.28	-30.1	-30.5	16.2	2.01e-03	0	43	0	520093696	34	18410
2026-01-20 07:30:54.04	95.70	6.35	-30.6	-31.0	16.0	6.05e-04	0	43	0	629145600	36	17397
2026-01-20 07:30:55.05	95.56	6.41	-30.2	-30.6	16.0	6.05e-04	0	43	0	746586112	36	16617
2026-01-20 07:30:56.05	95.42	6.48	-30.7	-31.2	16.0	6.05e-04	0	43	0	864026624	36	17740
2026-01-20 07:30:57.06	95.28	6.55	-30.5	-31.0	15.9	8.94e-04	0	43	0	973078528	36	17341
2026-01-20 07:30:58.07	95.14	6.62	-30.8	-31.2	16.0	8.94e-04	0	43	0	1090519040	36	17758
2026-01-20 07:30:59.08	95.00	6.69	-30.7	-31.1	16.0	9.32e-04	0	43	0	1199570944	36	17587
2026-01-20 07:31:00.09	94.86	6.76	-31.1	-31.6	15.7	9.32e-04	0	43	0	1308622848	36	18575
2026-01-20 07:31:01.10	94.71	6.83	-31.8	-32.3	15.5	1.90e-03	0	43	0	1426063360	38	17928
2026-01-20 07:31:02.11	94.57	6.90	-30.7	-31.1	16.0	1.90e-03	0	43	0	1543503872	36	17567
2026-01-20 07:31:03.12	94.42	6.97	-30.5	-31.0	16.2	1.36e-03	0	43	0	1652555776	36	17324
2026-01-20 07:31:04.13	94.28	7.03	-30.2	-30.7	16.3	1.36e-03	0	43	0	1769996288	36	16635
2026-01-20 07:31:05.14	94.13	7.10	-29.9	-30.4	16.3	6.65e-04	0	43	0	1879048192	36	16069
2026-01-20 07:31:06.15	93.98	7.17	-29.8	-30.3	16.3	6.65e-04	0	43	0	1996488704	36	15930
2026-01-20 07:31:07.15	93.83	7.24	-29.9	-30.4	16.2	6.65e-04	0	43	0	2113929216	34	18162
2026-01-20 07:31:08.16	93.68	7.31	-30.5	-30.9	16.1	5.07e-04	0	43	0	2222981120	34	19291
2026-01-20 07:31:09.17	93.53	7.38	-30.2	-30.6	16.3	5.07e-04	0	43	0	2332033024	34	18640
2026-01-20 07:31:10.18	93.38	7.45	-29.9	-30.4	16.4	4.31e-04	0	43	0	2449473536	34	18160
2026-01-20 07:31:11.19	93.23	7.52	-30.1	-30.6	16.3	4.31e-04	0	43	0	2566914048	34	18571
2026-01-20 07:31:12.20	93.07	7.59	-30.1	-30.6	16.4	3.32e-04	0	43	0	2675965952	34	18454
2026-01-20 07:31:13.21	92.92	7.66	-30.6	-31.1	16.1	3.32e-04	0	43	0	2793406464	34	19585
2026-01-20 07:31:14.22	92.76	7.73	-30.8	-31.3	16.0	3.32e-04	0	43	0	2902458368	36	17811
2026-01-20 07:31:15.23	92.61	7.80	-30.6	-31.0	16.2	6.65e-04	0	43	0	3019898880	36	17365
2026-01-20 07:31:16.24	92.45	7.87	-30.7	-31.2	15.9	6.65e-04	0	43	0	3128950784	36	17689
2026-01-20 07:31:17.25	92.29	7.95	-29.8	-30.3	16.1	9.54e-04	0	43	0	3246391296	36	16034
2026-01-20 07:31:18.26	92.13	8.02	-29.4	-29.9	16.3	9.54e-04	0	43	0	3355443200	34	17062
2026-01-20 07:31:19.27	91.97	8.09	-29.5	-30.0	16.2	7.14e-04	0	43	0	3472883712	34	17267
2026-01-20 07:31:20.28	91.81	8.16	-29.7	-30.2	16.0	7.14e-04	0	43	0	3581935616	34	17734
2026-01-20 07:31:21.29	91.65	8.23	-29.5	-30.0	16.1	7.14e-04	0	43	0	3699376128	34	17355
2026-01-20 07:31:22.30	91.49	8.30	-29.4	-29.9	16.1	4.14e-04	0	43	0	3816816640	32	19270
2026-01-20 07:31:23.30	91.32	8.37	-29.2	-29.6	16.2	4.14e-04	0	43	0	3925868544	32	18602
2026-01-20 07:31:24.31	91.16	8.44	-29.5	-30.0	16.3	3.92e-04	0	43	0	4043309056	32	19394
2026-01-20 07:31:25.32	90.99	8.51	-29.9	-30.4	16.3	3.92e-04	0	43	0	4152360960	34	18032
2026-01-20 07:31:26.33	90.82	8.58	-29.8	-30.3	16.3	3.11e-04	0	43	0	4261412864	34	17949
2026-01-20 07:31:27.34	90.66	8.66	-29.8	-30.3	16.2	3.11e-04	0	43	0	4378853376	34	17861
2026-01-20 07:31:28.35	90.49	8.73	-29.7	-30.2	16.2	3.11e-04	0	43	0	4496293888	34	17722
2026-01-20 07:31:29.36	90.32	8.80	-29.9	-30.4	16.1	4.80e-04	0	43	0	4605345792	34	18144
2026-01-20 07:31:30.37	90.14	8.87	-29.9	-30.4	16.3	4.80e-04	0	43	0	4722786304	34	18061
2026-01-20 07:31:31.38	89.97	8.94	-29.5	-30.0	16.4	4.80e-04	0	43	0	4831838208	34	17225
2026-01-20 07:31:32.39	89.80	9.01	-29.6	-30.1	16.4	4.52e-04	0	43	0	4949278720	34	17533
2026-01-20 07:31:33.39	89.63	9.08	-29.3	-29.8	16.5	3.11e-04	0	43	0	5066719232	34	16850
2026-01-20 07:31:34.40	89.45	9.16	-29.4	-29.8	16.4	3.11e-04	0	43	0	5175771136	34	17003
2026-01-20 07:31:35.40	89.28	9.23	-28.9	-29.4	16.5	2.51e-04	0	43	0	5284823040	32	18036
2026-01-20 07:31:36.41	89.10	9.30	-28.6	-29.1	16.6	2.51e-04	0	44	0	5402263552	32	17443
2026-01-20 07:31:37.42	88.92	9.37	-28.7	-29.2	16.5	2.51e-04	0	43	0	5511315456	32	17622
2026-01-20 07:31:38.43	88.74	9.44	-28.9	-29.3	16.4	1.14e-04	0	44	0	5628755968	32	17963
2026-01-20 07:31:39.44	88.56	9.52	-28.8	-29.3	16.5	1.14e-04	0	44	0	5737807872	32	17985
2026-01-20 07:31:40.45	88.38	9.59	-28.8	-29.3	16.6	1.96e-04	0	43	0	5855248384	32	17923
2026-01-20 07:31:41.45	88.19	9.66	-28.8	-29.3	16.6	1.58e-04	0	44	0	5972688896	32	17865
2026-01-20 07:31:42.46	88.01	9.73	-29.0	-29.5	16.6	1.58e-04	0	44	0	6081740800	32	18319
2026-01-20 07:31:43.47	87.82	9.80	-29.4	-29.9	16.5	6.53e-05	0	44	0	6190792704	32	19124
2026-01-20 07:31:44.48	87.64	9.88	-28.4	-28.9	16.7	6.53e-05	0	44	0	6308233216	32	17164
2026-01-20 07:31:45.49	87.45	9.95	-28.3	-28.8	16.7	6.53e-05	0	44	0	6425673728	32	16946
2026-01-20 07:31:46.50	87.26	10.02	-29.0	-29.5	16.5	7.08e-05	0	44	0	6534725632	32	18222
2026-01-20 07:31:47.51	87.07	10.09	-28.6	-29.1	16.7	7.08e-05	0	44	0	6652166144	32	17559
2026-01-20 07:31:48.52	86.88	10.17	-28.5	-28.9	16.7	9.80e-05	0	44	0	6761218048	32	17172
2026-01-20 07:31:49.53	86.69	10.24	-28.5	-29.0	16.7	7.62e-05	0	44	0	6878658560	32	17320
2026-01-20 07:31:50.54	86.49	10.31	-28.5	-29.0	16.7	7.62e-05	0	44	0	6996099072	32	17223
2026-01-20 07:31:51.55	86.30	10.38	-28.8	-29.2	16.8	3.81e-05	0	44	0	7105150976	32	17747
2026-01-20 07:31:52.56	86.10	10.46	-27.6	-28.1	17.0	3.81e-05	0	44	0	7214202880	32	15613
2026-01-20 07:31:53.57	85.90	10.53	-28.7	-29.2	16.7	3.81e-05	0	44	0	7331643392	30	19826
2026-01-20 07:31:54.58	85.70	10.60	-28.3	-28.7	16.8	1.63e-05	0	44	0	7440695296	32	16788
2026-01-20 07:31:55.59	85.51	10.67	-28.9	-29.3	16.7	1.63e-05	0	44	0	7558135808	32	17995
2026-01-20 07:31:56.60	85.30	10.75	-28.5	-28.9	16.8	4.90e-05	0	44	0	7675576320	32	17156
2026-01-20 07:31:57.61	85.10	10.82	-28.4	-28.8	16.8	4.90e-05	0	44	0	7784628224	32	16983
2026-01-20 07:31:58.62	84.90	10.89	-27.9	-28.4	16.9	3.26e-05	0	44	0	7902068736	32	16181
2026-01-20 07:31:59.63	84.69	10.96	-27.9	-28.4	16.9	3.26e-05	0	44	0	8011120640	32	16143
2026-01-20 07:32:00.63	84.49	11.03	-28.0	-28.5	16.9	1.63e-05	0	44	0	8120172544	32	16270
2026-01-20 07:32:01.64	84.28	11.11	-27.7	-28.2	17.0	1.63e-05	0	44	0	8237613056	30	17721
2026-01-20 07:32:02.65	84.07	11.18	-27.8	-28.3	16.9	1.63e-05	0	44	0	8355053568	30	17851
2026-01-20 07:32:03.66	83.87	11.25	-28.2	-28.6	16.8	1.08e-05	0	44	0	8464105472	30	18622
2026-01-20 07:32:04.67	83.65	11.32	-27.9	-28.3	16.9	1.08e-05	0	44	0	8581545984	30	17997
2026-01-20 07:32:05.68	83.44	11.40	-27.9	-28.4	16.8	0.00e+00	0	44	0	8690597888	30	18128
2026-01-20 07:32:06.69	83.23	11.47	-27.9	-28.4	16.8	0.00e+00	0	44	0	8808038400	30	18067
2026-01-20 07:32:07.70	83.01	11.54	-28.1	-28.6	16.6	1.08e-05	0	44	0	8925478912	30	18440
2026-01-20 07:32:08.71	82.80	11.61	-27.7	-28.1	16.7	1.08e-05	0	44	0	9034530816	30	17546
2026-01-20 07:32:09.72	82.58	11.68	-27.6	-28.0	16.8	1.08e-05	0	44	0	9143582720	30	17390
2026-01-20 07:32:10.73	82.36	11.76	-27.6	-28.0	16.8	1.08e-05	0	44	0	9261023232	30	17333
2026-01-20 07:32:11.74	82.14	11.83	-28.0	-28.4	17.0	1.63e-05	0	44	0	9370075136	30	18130
2026-01-20 07:32:12.75	81.92	11.90	-27.4	-27.8	17.0	1.63e-05	0	44	0	9487515648	30	16983
2026-01-20 07:32:13.75	81.70	11.97	-28.0	-28.5	16.9	1.63e-05	0	44	0	9604956160	30	18237
2026-01-20 07:32:14.76	81.48	12.04	-27.7	-28.1	17.0	1.08e-05	0	44	0	9714008064	30	17506
2026-01-20 07:32:15.77	81.25	12.11	-27.7	-28.1	16.9	1.08e-05	0	44	0	9831448576	30	17583
2026-01-20 07:32:16.78	81.03	12.18	-28.1	-28.6	16.7	0.00e+00	0	44	0	9940500480	30	18464
2026-01-20 07:32:17.79	80.80	12.25	-27.5	-27.9	16.9	0.00e+00	0	44	0	10057940992	30	17167
2026-01-20 07:32:18.80	80.57	12.33	-27.5	-27.9	17.0	3.26e-05	0	44	0	10166992896	30	17131
2026-01-20 07:32:19.81	80.34	12.40	-27.0	-27.5	17.1	3.26e-05	0	44	0	10284433408	30	16293
2026-01-20 07:32:20.82	80.11	12.47	-27.6	-28.0	17.0	5.40e-06	0	44	0	10393485312	30	17291
2026-01-20 07:32:21.83	79.87	12.54	-27.7	-28.1	17.0	5.40e-06	0	44	0	10510925824	30	17579
2026-01-20 07:32:22.84	79.64	12.61	-28.1	-28.5	16.9	2.17e-05	0	44	0	10619977728	30	18292
2026-01-20 07:32:23.85	79.40	12.68	-28.4	-28.8	16.9	2.17e-05	0	44	0	10737418240	30	19018
2026-01-20 07:32:24.85	79.17	12.75	-28.4	-28.8	16.9	5.40e-06	0	44	0	10854858752	32	16990
2026-01-20 07:32:25.86	78.93	12.82	-28.1	-28.5	16.8	5.40e-06	0	44	0	10963910656	32	16354
2026-01-20 07:32:26.87	78.69	12.89	-28.4	-28.8	17.0	2.72e-05	0	44	0	11072962560	32	16927
2026-01-20 07:32:27.88	78.45	12.96	-28.1	-28.6	16.8	2.72e-05	0	44	0	11190403072	32	16458
2026-01-20 07:32:28.89	78.20	13.03	-28.5	-28.9	16.5	4.35e-05	0	44	0	11307843584	32	17168
2026-01-20 07:32:29.90	77.96	13.10	-28.7	-29.2	16.5	4.35e-05	0	44	0	11416895488	32	17634
2026-01-20 07:32:30.91	77.72	13.17	-28.2	-28.6	16.2	2.07e-04	0	44	0	11534336000	30	18480
2026-01-20 07:32:31.92	77.47	13.24	-27.8	-28.2	16.2	2.07e-04	0	44	0	11643387904	30	17632
2026-01-20 07:32:32.93	77.22	13.31	-27.6	-28.0	16.8	2.07e-04	0	44	0	11760828416	30	17354
2026-01-20 07:32:33.94	76.97	13.37	-27.7	-28.1	16.9	7.08e-05	0	44	0	11869880320	30	17459
2026-01-20 07:32:34.95	76.72	13.44	-27.4	-27.8	16.9	7.08e-05	0	44	0	11987320832	30	16909
2026-01-20 07:32:35.95	76.47	13.51	-27.4	-27.8	17.0	0.00e+00	0	44	0	12096372736	30	16875
2026-01-20 07:32:36.96	76.22	13.58	-27.4	-27.8	16.9	0.00e+00	0	44	0	12213813248	30	16919
2026-01-20 07:32:37.97	75.96	13.65	-27.1	-27.6	16.3	1.63e-05	0	44	0	12322865152	30	16431
2026-01-20 07:32:38.98	75.70	13.71	-27.1	-27.5	16.1	1.63e-05	0	44	0	12440305664	30	16406
2026-01-20 07:32:39.99	75.45	13.78	-27.1	-27.5	16.3	1.36e-04	0	44	0	12549357568	30	16291
2026-01-20 07:32:41.00	75.19	13.85	-26.8	-27.2	16.7	1.36e-04	0	44	0	12666798080	30	15856
2026-01-20 07:32:42.01	74.93	13.91	-26.7	-27.2	16.9	5.44e-05	0	44	0	12784238592	30	15731
2026-01-20 07:32:43.02	74.66	13.98	-27.0	-27.4	16.9	2.72e-05	0	44	0	12893290496	28	18171
2026-01-20 07:32:44.03	74.40	14.05	-27.4	-27.9	16.7	2.72e-05	0	44	0	13002342400	28	19111
2026-01-20 07:32:45.03	74.14	14.11	-27.0	-27.5	17.0	2.17e-05	0	44	0	13119782912	28	18241
2026-01-20 07:32:46.04	73.87	14.18	-27.1	-27.5	17.1	2.17e-05	0	44	0	13237223424	28	18344
2026-01-20 07:32:47.05	73.60	14.24	-26.6	-27.0	17.1	2.17e-05	0	44	0	13346275328	28	17287
2026-01-20 07:32:48.06	73.33	14.31	-26.9	-27.3	17.0	1.08e-05	0	44	0	13463715840	28	17912
2026-01-20 07:32:49.08	73.06	14.37	-27.0	-27.4	17.0	1.08e-05	0	44	0	13572767744	28	18115
2026-01-20 07:32:50.08	72.79	14.44	-27.4	-27.8	17.0	5.40e-06	0	44	0	13690208256	28	19012
2026-01-20 07:32:51.09	72.52	14.50	-26.9	-27.3	17.0	5.40e-06	0	44	0	13807648768	28	17916
2026-01-20 07:32:52.10	72.24	14.56	-27.0	-27.4	17.0	5.40e-06	0	44	0	13916700672	28	18120
2026-01-20 07:32:53.11	71.97	14.63	-27.2	-27.7	16.9	5.40e-06	0	44	0	14025752576	28	18693
2026-01-20 07:32:54.11	71.69	14.69	-27.0	-27.4	17.0	0.00e+00	0	45	0	14143193088	28	18143
2026-01-20 07:32:55.13	71.41	14.75	-26.8	-27.2	17.0	0.00e+00	0	44	0	14252244992	28	17694
2026-01-20 07:32:56.13	71.13	14.81	-27.3	-27.7	16.7	0.00e+00	0	44	0	14369685504	28	18814
2026-01-20 07:32:57.15	70.85	14.88	-27.0	-27.4	16.5	0.00e+00	0	44	0	14487126016	28	18140
2026-01-20 07:32:58.15	70.57	14.94	-27.2	-27.7	16.4	6.53e-05	0	44	0	14596177920	28	18656
2026-01-20 07:32:59.16	70.28	15.00	-27.0	-27.5	16.5	6.53e-05	0	44	0	14713618432	28	18265
2026-01-20 07:33:00.17	70.00	15.06	-26.5	-26.9	16.4	4.35e-05	0	44	0	14822670336	28	17128
2026-01-20 07:33:01.18	69.71	15.12	-26.3	-26.7	16.8	4.35e-05	0	44	0	14931722240	28	16741
2026-01-20 07:33:02.19	69.42	15.18	-26.3	-26.8	17.1	4.35e-05	0	45	0	15057551360	28	16852
2026-01-20 07:33:03.20	69.13	15.24	-26.5	-26.9	17.0	5.40e-06	0	44	0	15166603264	28	17179
2026-01-20 07:33:04.21	68.84	15.29	-26.3	-26.7	16.8	5.40e-06	0	44	0	15275655168	28	16793
2026-01-20 07:33:05.22	68.55	15.35	-26.8	-27.2	16.7	5.40e-06	0	45	0	15393095680	28	17702
2026-01-20 07:33:06.23	68.25	15.41	-26.5	-26.9	17.0	5.40e-06	0	44	0	15502147584	28	17143
2026-01-20 07:33:07.24	67.96	15.47	-26.2	-26.6	17.1	5.40e-06	0	44	0	15619588096	28	16617
2026-01-20 07:33:08.25	67.66	15.52	-26.2	-26.7	16.8	5.40e-06	0	44	0	15737028608	28	16717
2026-01-20 07:33:09.26	67.36	15.58	-26.2	-26.7	16.4	1.08e-05	0	45	0	15846080512	28	16689
2026-01-20 07:33:10.27	67.07	15.64	-26.2	-26.6	16.5	1.08e-05	0	45	0	15955132416	28	16594
2026-01-20 07:33:11.28	66.76	15.69	-26.1	-26.6	16.8	1.63e-05	0	44	0	16072572928	28	16477
2026-01-20 07:33:12.29	66.46	15.75	-26.2	-26.6	16.8	1.63e-05	0	44	0	16181624832	28	16529
2026-01-20 07:33:13.30	66.16	15.80	-26.1	-26.6	16.8	1.63e-05	0	45	0	16299065344	28	16476
2026-01-20 07:33:14.31	65.86	15.85	-26.2	-26.7	16.9	5.40e-06	0	45	0	16416505856	28	16653
2026-01-20 07:33:15.31	65.55	15.91	-26.2	-26.7	17.0	5.40e-06	0	45	0	16525557760	28	16687
2026-01-20 07:33:16.32	65.25	15.96	-26.5	-26.9	16.9	5.40e-06	0	45	0	16642998272	28	17118
2026-01-20 07:33:17.33	64.94	16.01	-26.3	-26.8	16.9	5.40e-06	0	45	0	16752050176	28	16840
2026-01-20 07:33:18.34	64.63	16.06	-26.7	-27.1	16.9	1.08e-05	0	44	0	16869490688	28	17550
2026-01-20 07:33:19.35	64.32	16.11	-26.1	-26.6	16.9	0.00e+00	0	44	0	16986931200	28	16503
2026-01-20 07:33:20.36	64.01	16.16	-26.7	-27.2	16.6	0.00e+00	0	45	0	17095983104	28	17638
2026-01-20 07:33:21.37	63.69	16.21	-26.9	-27.4	16.6	0.00e+00	0	45	0	17205035008	28	18062
2026-01-20 07:33:22.38	63.38	16.26	-27.2	-27.7	16.8	1.08e-05	0	45	0	17322475520	28	18699
2026-01-20 07:33:23.39	63.06	16.31	-25.9	-26.4	17.0	1.08e-05	0	45	0	17439916032	28	16173
2026-01-20 07:33:24.40	62.75	16.35	-26.0	-26.5	16.9	5.40e-06	0	45	0	17548967936	28	16279
2026-01-20 07:33:25.41	62.43	16.40	-26.2	-26.7	16.8	5.40e-06	0	45	0	17666408448	28	16620
2026-01-20 07:33:26.42	62.11	16.45	-26.3	-26.8	16.9	5.40e-06	0	45	0	17775460352	28	16864
2026-01-20 07:33:27.43	61.79	16.49	-26.2	-26.7	16.8	5.40e-06	0	45	0	17884512256	28	16675
2026-01-20 07:33:28.44	61.47	16.54	-26.3	-26.7	16.7	5.40e-06	0	45	0	18001952768	28	16710
2026-01-20 07:33:29.45	61.15	16.58	-26.5	-26.9	16.5	5.40e-06	0	45	0	18119393280	28	17100
2026-01-20 07:33:30.46	60.82	16.62	-26.3	-26.7	16.5	5.40e-06	0	45	0	18228445184	28	16792
2026-01-20 07:33:31.47	60.50	16.67	-25.9	-26.3	16.5	1.08e-05	0	45	0	18345885696	28	16052
2026-01-20 07:33:32.47	60.17	16.71	-26.1	-26.5	16.8	1.08e-05	0	45	0	18454937600	28	16310
2026-01-20 07:33:33.48	59.85	16.75	-25.9	-26.3	16.9	1.08e-05	0	45	0	18572378112	28	16000
2026-01-20 07:33:34.49	59.52	16.79	-25.9	-26.3	16.8	0.00e+00	0	44	0	18689818624	28	15953
2026-01-20 07:33:35.50	59.19	16.83	-26.2	-26.6	16.7	0.00e+00	0	45	0	18798870528	28	16578
2026-01-20 07:33:36.51	58.86	16.87	-26.0	-26.5	16.7	0.00e+00	0	45	0	18916311040	28	16249
2026-01-20 07:33:37.52	58.53	16.90	-26.1	-26.6	16.4	0.00e+00	0	45	0	19025362944	28	16441
2026-01-20 07:33:38.53	58.20	16.94	-26.8	-27.2	16.2	0.00e+00	0	45	0	19134414848	28	17630
2026-01-20 07:33:39.54	57.87	16.98	-26.0	-26.4	16.7	2.17e-05	0	45	0	19251855360	28	16237
2026-01-20 07:33:40.55	57.53	17.01	-26.0	-26.4	16.9	2.17e-05	0	45	0	19369295872	28	16126
2026-01-20 07:33:41.56	57.20	17.05	-25.9	-26.3	16.8	2.17e-05	0	45	0	19478347776	28	16007
2026-01-20 07:33:42.57	56.87	17.08	-26.0	-26.4	16.6	0.00e+00	0	45	0	19595788288	28	16137
2026-01-20 07:33:43.58	56.53	17.11	-26.1	-26.5	16.6	0.00e+00	0	45	0	19704840192	28	16330
2026-01-20 07:33:44.59	56.19	17.15	-26.0	-26.5	16.7	5.40e-06	0	45	0	19813892096	28	16251
2026-01-20 07:33:45.60	55.85	17.18	-26.0	-26.5	16.8	5.40e-06	0	45	0	19939721216	28	16266
2026-01-20 07:33:46.61	55.52	17.21	-25.9	-26.4	16.8	0.00e+00	0	45	0	20048773120	28	16076
2026-01-20 07:33:47.61	55.18	17.24	-26.3	-26.7	16.7	0.00e+00	0	45	0	20157825024	28	16775
2026-01-20 07:33:48.62	54.84	17.27	-26.2	-26.6	16.7	5.40e-06	0	45	0	20275265536	28	16599
2026-01-20 07:33:49.63	54.50	17.30	-26.1	-26.5	16.7	5.40e-06	0	45	0	20384317440	28	16422
2026-01-20 07:33:50.64	54.16	17.32	-25.9	-26.3	16.7	0.00e+00	0	45	0	20501757952	28	16033
2026-01-20 07:33:51.65	53.82	17.35	-26.1	-26.6	16.6	0.00e+00	0	45	0	20619198464	28	16484
2026-01-20 07:33:52.66	53.47	17.37	-26.0	-26.4	16.6	0.00e+00	0	45	0	20728250368	28	16193
2026-01-20 07:33:53.67	53.13	17.40	-26.1	-26.5	16.5	0.00e+00	0	45	0	20845690880	28	16340
2026-01-20 07:33:54.68	52.78	17.42	-26.1	-26.5	16.6	1.08e-05	0	45	0	20954742784	28	16343
2026-01-20 07:33:55.69	52.44	17.44	-26.4	-26.9	16.6	1.08e-05	0	45	0	21063794688	28	17021
2026-01-20 07:33:56.70	52.09	17.47	-26.0	-26.4	16.4	0.00e+00	0	45	0	21181235200	28	16197
2026-01-20 07:33:57.70	51.75	17.49	-26.1	-26.5	16.5	0.00e+00	0	45	0	21298675712	28	16329
2026-01-20 07:33:58.71	51.41	17.51	-26.1	-26.6	16.6	0.00e+00	0	45	0	21407727616	28	16467
2026-01-20 07:33:59.72	51.06	17.53	-26.1	-26.6	16.6	0.00e+00	0	45	0	21525168128	28	16461
2026-01-20 07:34:00.73	50.71	17.54	-26.1	-26.5	16.6	0.00e+00	0	45	0	21634220032	28	16337
2026-01-20 07:34:01.74	50.36	17.56	-26.4	-26.8	16.5	0.00e+00	0	45	0	21751660544	28	16877
2026-01-20 07:34:02.75	50.02	17.58	-26.3	-26.7	16.5	0.00e+00	0	45	0	21869101056	28	16807
2026-01-20 07:34:03.76	49.67	17.59	-26.2	-26.6	16.5	0.00e+00	0	45	0	21978152960	28	16518
2026-01-20 07:34:04.77	49.32	17.61	-26.3	-26.7	16.5	0.00e+00	0	45	0	22087204864	28	16742
2026-01-20 07:34:05.78	48.97	17.62	-26.2	-26.6	16.6	0.00e+00	0	45	0	22204645376	28	16578
2026-01-20 07:34:06.79	48.62	17.63	-26.3	-26.7	16.5	2.17e-05	0	45	0	22313697280	28	16711
2026-01-20 07:34:07.80	48.27	17.64	-26.4	-26.8	16.6	2.17e-05	0	45	0	22431137792	28	16995
2026-01-20 07:34:08.81	47.92	17.65	-26.7	-27.1	16.5	0.00e+00	0	45	0	22548578304	28	17559
2026-01-20 07:34:09.82	47.57	17.66	-26.4	-26.8	16.6	0.00e+00	0	45	0	22657630208	28	16989
2026-01-20 07:34:10.83	47.22	17.67	-26.9	-27.3	16.4	1.08e-05	0	45	0	22775070720	28	17969
2026-01-20 07:34:11.84	46.87	17.68	-26.6	-27.0	16.5	1.08e-05	0	45	0	22884122624	28	17329
2026-01-20 07:34:12.85	46.51	17.68	-26.7	-27.1	16.6	5.40e-06	0	45	0	23001563136	28	17537
2026-01-20 07:34:13.86	46.16	17.69	-26.5	-26.9	16.5	5.40e-06	0	45	0	23110615040	28	17157
2026-01-20 07:34:14.86	45.81	17.69	-26.2	-26.6	16.7	5.40e-06	0	45	0	23228055552	28	16439
2026-01-20 07:34:15.87	45.46	17.70	-26.2	-26.6	16.7	0.00e+00	0	45	0	23337107456	28	16466
2026-01-20 07:34:16.88	45.11	17.70	-26.4	-26.8	16.7	0.00e+00	0	45	0	23454547968	28	16968
2026-01-20 07:34:17.89	44.76	17.70	-26.3	-26.7	16.7	0.00e+00	0	45	0	23571988480	28	16732
2026-01-20 07:34:18.90	44.41	17.70	-26.3	-26.7	16.7	0.00e+00	0	45	0	23681040384	28	16715
2026-01-20 07:34:19.91	44.06	17.70	-26.2	-26.6	16.7	0.00e+00	0	45	0	23798480896	28	16550
2026-01-20 07:34:20.92	43.70	17.70	-26.4	-26.8	16.8	0.00e+00	0	45	0	23907532800	28	16886
2026-01-20 07:34:21.93	43.35	17.70	-26.1	-26.5	16.8	5.40e-06	0	45	0	24016584704	28	16399
2026-01-20 07:34:22.94	43.00	17.70	-26.1	-26.5	16.8	5.40e-06	0	45	0	24134025216	28	16344
2026-01-20 07:34:23.94	42.65	17.69	-26.2	-26.6	16.8	0.00e+00	0	45	0	24251465728	28	16473
2026-01-20 07:34:24.95	42.30	17.69	-26.1	-26.5	16.8	0.00e+00	0	45	0	24360517632	28	16258
2026-01-20 07:34:25.96	41.95	17.68	-26.1	-26.5	16.8	0.00e+00	0	45	0	24477958144	28	16387
2026-01-20 07:34:26.97	41.60	17.67	-26.2	-26.6	16.9	0.00e+00	0	45	0	24587010048	28	16547
2026-01-20 07:34:27.98	41.25	17.66	-26.1	-26.5	16.9	0.00e+00	0	45	0	24704450560	28	16354
2026-01-20 07:34:28.99	40.90	17.66	-26.1	-26.5	16.9	0.00e+00	0	45	0	24821891072	28	16366
2026-01-20 07:34:30.00	40.55	17.65	-26.3	-26.7	16.9	0.00e+00	0	45	0	24930942976	28	16739
2026-01-20 07:34:31.01	40.20	17.63	-26.0	-26.5	16.8	0.00e+00	0	45	0	25039994880	28	16311
2026-01-20 07:34:32.01	39.85	17.62	-26.2	-26.6	16.9	0.00e+00	0	45	0	25157435392	28	16573
2026-01-20 07:34:33.02	39.50	17.61	-26.1	-26.6	17.0	1.08e-05	0	45	0	25266487296	28	16446
2026-01-20 07:34:34.03	39.15	17.60	-26.0	-26.5	16.9	1.08e-05	0	45	0	25383927808	28	16306
2026-01-20 07:34:35.04	38.80	17.58	-26.2	-26.6	16.9	0.00e+00	0	45	0	25501368320	28	16599
2026-01-20 07:34:36.05	38.46	17.57	-26.2	-26.6	17.0	0.00e+00	0	45	0	25610420224	28	16596
2026-01-20 07:34:37.06	38.11	17.55	-26.0	-26.5	17.0	0.00e+00	0	45	0	25727860736	28	16316
2026-01-20 07:34:38.07	37.76	17.53	-26.1	-26.6	16.9	0.00e+00	0	45	0	25836912640	28	16556
2026-01-20 07:34:39.08	37.41	17.51	-26.4	-26.9	16.9	0.00e+00	0	45	0	25945964544	28	17034
2026-01-20 07:34:40.09	37.07	17.49	-26.4	-26.9	17.0	0.00e+00	0	45	0	26063405056	28	17105
2026-01-20 07:34:41.10	36.72	17.47	-26.4	-26.9	17.0	0.00e+00	0	45	0	26180845568	28	17118
2026-01-20 07:34:42.10	36.38	17.45	-26.8	-27.3	16.9	0.00e+00	0	45	0	26289897472	28	17989
2026-01-20 07:34:43.11	36.04	17.43	-27.2	-27.7	16.8	0.00e+00	0	45	0	26407337984	28	18699
2026-01-20 07:34:44.12	35.69	17.41	-26.2	-26.7	16.9	0.00e+00	0	45	0	26516389888	28	16790
2026-01-20 07:34:45.13	35.35	17.38	-26.2	-26.7	17.0	0.00e+00	0	45	0	26633830400	28	16619
2026-01-20 07:34:46.14	35.01	17.36	-26.2	-26.7	17.0	5.40e-06	0	45	0	26751270912	28	16656
2026-01-20 07:34:47.15	34.66	17.33	-26.3	-26.8	16.9	5.40e-06	0	45	0	26860322816	28	16877
2026-01-20 07:34:48.16	34.32	17.30	-26.1	-26.6	16.9	0.00e+00	0	45	0	26969374720	28	16470
2026-01-20 07:34:49.17	33.98	17.28	-26.1	-26.6	17.0	0.00e+00	0	45	0	27086815232	28	16477
2026-01-20 07:34:50.18	33.64	17.25	-26.2	-26.7	17.1	5.40e-06	0	45	0	27195867136	28	16694
2026-01-20 07:34:51.18	33.31	17.22	-26.1	-26.6	17.1	5.40e-06	0	45	0	27313307648	28	16551
2026-01-20 07:34:52.19	32.97	17.19	-26.1	-26.6	17.0	5.40e-06	0	45	0	27430748160	28	16568
2026-01-20 07:34:53.20	32.63	17.16	-26.1	-26.6	17.1	5.40e-06	0	45	0	27539800064	28	16517
2026-01-20 07:34:54.21	32.30	17.12	-25.9	-26.5	17.1	0.00e+00	0	45	0	27657240576	28	16295
2026-01-20 07:34:55.22	31.96	17.09	-26.2	-26.7	17.1	0.00e+00	0	45	0	27766292480	28	16797
2026-01-20 07:34:56.23	31.63	17.06	-26.1	-26.6	17.1	0.00e+00	0	45	0	27875344384	28	16535
2026-01-20 07:34:57.24	31.29	17.02	-26.2	-26.7	17.1	0.00e+00	0	45	0	27992784896	28	16773
2026-01-20 07:34:58.24	30.96	16.99	-26.3	-26.8	17.1	0.00e+00	0	45	0	28110225408	28	16860
2026-01-20 07:34:59.25	30.63	16.95	-26.4	-26.9	17.0	0.00e+00	0	45	0	28219277312	28	17171
2026-01-20 07:35:00.26	30.30	16.92	-26.6	-27.1	17.0	0.00e+00	0	45	0	28336717824	28	17574
2026-01-20 07:35:01.27	29.97	16.88	-26.1	-26.6	17.0	0.00e+00	0	45	0	28445769728	28	16535
2026-01-20 07:35:02.28	29.64	16.84	-26.3	-26.8	17.0	0.00e+00	0	45	0	28563210240	28	16938
2026-01-20 07:35:03.29	29.31	16.80	-26.5	-27.1	16.9	0.00e+00	0	45	0	28680650752	28	17413
2026-01-20 07:35:04.30	28.98	16.76	-26.3	-26.9	16.9	0.00e+00	0	45	0	28789702656	28	17015
2026-01-20 07:35:05.31	28.66	16.72	-26.6	-27.1	16.9	0.00e+00	0	45	0	28898754560	28	17560
2026-01-20 07:35:06.32	28.33	16.68	-51.1	-53.5	6.1	0.00e+00	0	45	104	28923920384	60	58176
2026-01-20 07:35:07.33	28.01	16.64	-51.0	-53.5	6.1	0.00e+00	0	45	104	28923920384	60	57912
2026-01-20 07:35:08.33	27.69	16.59	-51.0	-53.4	6.1	0.00e+00	0	45	104	28923920384	60	57582
2026-01-20 07:35:09.35	27.36	16.55	-51.0	-53.5	6.1	0.00e+00	0	45	104	28923920384	60	57871
2026-01-20 07:35:10.35	27.05	16.51	-50.9	-53.4	6.1	0.00e+00	0	45	104	28923920384	60	57443
2026-01-20 07:35:11.36	26.73	16.46	-51.0	-53.4	6.1	0.00e+00	0	45	104	28923920384	60	57564
2026-01-20 07:35:12.37	26.41	16.42	-51.1	-53.5	6.1	0.00e+00	0	45	104	28923920384	60	58153
2026-01-20 07:35:13.38	26.09	16.37	-50.9	-53.4	6.1	0.00e+00	0	45	104	28923920384	60	57352
2026-01-20 07:35:14.39	25.77	16.32	-50.9	-53.4	6.1	0.00e+00	0	45	104	28923920384	60	57278
2026-01-20 07:35:15.40	25.46	16.28	-50.9	-53.4	6.1	0.00e+00	0	45	104	28923920384	60	57276
2026-01-20 07:35:16.41	25.15	16.23	-50.9	-53.4	6.1	0.00e+00	0	45	104	28923920384	60	57127
2026-01-20 07:35:17.42	24.83	16.18	-50.9	-53.4	6.1	0.00e+00	0	45	104	28923920384	60	57095
2026-01-20 07:35:18.43	24.52	16.13	-51.0	-53.5	6.1	0.00e+00	0	45	104	28923920384	60	57720
2026-01-20 07:35:19.44	24.21	16.08	-51.0	-53.4	6.1	0.00e+00	0	45	104	28923920384	60	57562
2026-01-20 07:35:20.45	23.90	16.03	-51.0	-53.4	6.1	0.00e+00	0	45	104	28923920384	60	57284
2026-01-20 07:35:21.46	23.59	15.98	-51.1	-53.5	6.1	0.00e+00	0	45	104	28923920384	60	57885
2026-01-20 07:35:22.47	23.29	15.92	-50.8	-53.3	6.1	0.00e+00	0	45	104	28923920384	60	56797
2026-01-20 07:35:23.48	22.98	15.87	-51.0	-53.4	6.1	0.00e+00	0	45	104	28923920384	60	57574
2026-01-20 07:35:24.49	22.68	15.82	-51.0	-53.5	6.1	0.00e+00	0	45	104	28923920384	60	57669
2026-01-20 07:35:25.50	22.38	15.77	-51.0	-53.5	6.1	0.00e+00	0	45	104	28923920384	60	57704
2026-01-20 07:35:26.51	22.08	15.71	-50.8	-53.4	6.1	0.00e+00	0	45	104	28923920384	60	57078
2026-01-20 07:35:27.51	21.78	15.66	-50.9	-53.4	6.1	0.00e+00	0	45	104	28923920384	60	57133
2026-01-20 07:35:28.52	21.48	15.60	-50.9	-53.4	6.1	0.00e+00	0	45	104	28923920384	60	57341
2026-01-20 07:35:29.53	21.18	15.55	-50.9	-53.4	6.1	0.00e+00	0	45	104	28923920384	60	57123
2026-01-20 07:35:30.54	20.89	15.49	-51.0	-53.5	6.1	0.00e+00	0	45	104	28923920384	60	57840
2026-01-20 07:35:31.55	20.59	15.43	-51.0	-53.5	6.1	0.00e+00	0	45	104	28923920384	60	57677
2026-01-20 07:35:32.56	20.30	15.38	-51.0	-53.5	6.1	0.00e+00	0	45	104	28923920384	60	57919
2026-01-20 07:35:33.57	20.01	15.32	-51.0	-53.5	6.1	0.00e+00	0	45	104	28923920384	60	57684
2026-01-20 07:35:34.58	19.72	15.26	-51.0	-53.5	6.1	0.00e+00	0	45	104	28923920384	60	57674
2026-01-20 07:35:35.59	19.43	15.20	-51.0	-53.5	6.1	0.00e+00	0	44	104	28923920384	60	58111
2026-01-20 07:35:36.60	19.14	15.14	-50.9	-53.4	6.1	0.00e+00	0	45	104	28923920384	60	57360
2026-01-20 07:35:37.60	18.85	15.08	-51.0	-53.4	6.1	0.00e+00	0	45	104	28923920384	60	57560
2026-01-20 07:35:38.61	18.57	15.02	-50.9	-53.4	6.1	0.00e+00	0	45	104	28923920384	60	57062
2026-01-20 07:35:39.62	18.28	14.96	-51.0	-53.5	6.1	0.00e+00	0	44	104	28923920384	60	57678
2026-01-20 07:35:40.63	18.00	14.90	-51.0	-53.5	6.1	0.00e+00	0	45	104	28923920384	60	57845
2026-01-20 07:35:41.64	17.72	14.84	-50.9	-53.4	6.1	0.00e+00	0	45	104	28923920384	60	57238
2026-01-20 07:35:42.65	17.44	14.78	-51.0	-53.4	6.1	0.00e+00	0	45	104	28923920384	60	57417
2026-01-20 07:35:43.65	17.17	14.72	-51.1	-53.6	6.1	0.00e+00	0	45	104	28923920384	60	58626
2026-01-20 07:35:44.66	16.89	14.65	-51.0	-53.5	6.1	0.00e+00	0	45	104	28923920384	60	57763
2026-01-20 07:35:45.67	16.61	14.59	-51.0	-53.5	6.1	0.00e+00	0	44	104	28923920384	60	57652
2026-01-20 07:35:46.68	16.34	14.53	-51.0	-53.4	6.1	0.00e+00	0	44	104	28923920384	60	57451
2026-01-20 07:35:47.69	16.07	14.46	-51.0	-53.5	6.1	0.00e+00	0	44	104	28923920384	60	57634
2026-01-20 07:35:48.69	15.80	14.40	-51.0	-53.5	6.1	0.00e+00	0	44	104	28923920384	60	57848
2026-01-20 07:35:49.70	15.53	14.34	-51.0	-53.4	6.1	0.00e+00	0	44	104	28923920384	60	57454
2026-01-20 07:35:50.71	15.26	14.27	-50.9	-53.4	6.1	0.00e+00	0	44	104	28923920384	60	56986
2026-01-20 07:35:51.72	14.99	14.21	-51.0	-53.4	6.1	0.00e+00	0	44	104	28923920384	60	57504
2026-01-20 07:35:52.73	14.73	14.14	-51.0	-53.5	6.1	0.00e+00	0	44	104	28923920384	60	57635
2026-01-20 07:35:53.74	14.46	14.08	-50.9	-53.5	6.1	0.00e+00	0	44	104	28923920384	60	57696
2026-01-20 07:35:54.75	14.20	14.01	-50.9	-53.4	6.1	0.00e+00	0	44	104	28923920384	60	57571
2026-01-20 07:35:55.76	13.94	13.95	-50.9	-53.3	6.0	0.00e+00	0	44	104	28923920384	60	56776
2026-01-20 07:35:56.77	13.68	13.88	-51.0	-53.4	6.1	0.00e+00	0	44	104	28923920384	60	57345
2026-01-20 07:35:57.78	13.42	13.81	-51.0	-53.5	6.1	0.00e+00	0	44	104	28923920384	60	57809
2026-01-20 07:35:58.78	13.16	13.75	-51.0	-53.4	6.1	0.00e+00	0	44	104	28923920384	60	57371
2026-01-20 07:35:59.79	12.91	13.68	-50.9	-53.4	6.1	0.00e+00	0	44	104	28923920384	60	57162
2026-01-20 07:36:00.80	12.65	13.61	-50.9	-53.4	6.1	0.00e+00	0	44	104	28923920384	60	57010
2026-01-20 07:36:01.81	12.40	13.54	-50.8	-53.3	6.1	0.00e+00	0	44	104	28923920384	60	56598
2026-01-20 07:36:02.82	12.15	13.48	-50.9	-53.4	6.1	0.00e+00	0	45	104	28923920384	60	57130
2026-01-20 07:36:03.83	11.90	13.41	-50.9	-53.4	6.1	0.00e+00	0	44	104	28923920384	60	57384
2026-01-20 07:36:04.84	11.65	13.34	-50.9	-53.3	6.1	0.00e+00	0	45	104	28923920384	60	56843
2026-01-20 07:36:05.84	11.40	13.27	-50.9	-53.4	6.1	0.00e+00	0	44	104	28923920384	60	57091
2026-01-20 07:36:06.85	11.16	13.20	-50.9	-53.3	6.1	0.00e+00	0	45	104	28923920384	60	56770
2026-01-20 07:36:07.86	10.91	13.13	-50.9	-53.4	6.1	0.00e+00	0	44	104	28923920384	60	57178
2026-01-20 07:36:08.87	10.67	13.07	-50.9	-53.3	6.1	0.00e+00	0	44	104	28923920384	60	56737
2026-01-20 07:36:09.88	10.43	13.00	-50.8	-53.3	6.1	0.00e+00	0	45	104	28923920384	60	56406
2026-01-20 07:36:10.88	10.19	12.93	-50.8	-53.3	6.1	0.00e+00	0	45	104	28923920384	60	56545
2026-01-20 07:36:11.89	9.95	12.86	-50.8	-53.3	6.1	0.00e+00	0	45	104	28923920384	60	56815
2026-01-20 07:36:12.90	9.71	12.79	-50.8	-53.3	6.1	0.00e+00	0	44	104	28923920384	60	56764
2026-01-20 07:36:13.91	9.47	12.72	-50.8	-53.3	6.1	0.00e+00	0	44	104	28923920384	60	56614
2026-01-20 07:36:14.92	9.24	12.65	-50.8	-53.3	6.1	0.00e+00	0	44	104	28923920384	60	56388
2026-01-20 07:36:15.93	9.00	12.58	-50.9	-53.4	6.1	0.00e+00	0	44	104	28923920384	60	57012
2026-01-20 07:36:16.94	8.77	12.51	-50.8	-53.3	6.1	0.00e+00	0	45	104	28923920384	60	56600
2026-01-20 07:36:17.95	8.54	12.44	-50.8	-53.3	6.1	0.00e+00	0	45	104	28923920384	60	56405
2026-01-20 07:36:18.96	8.31	12.37	-50.8	-53.3	6.1	0.00e+00	0	45	104	28923920384	60	56455
2026-01-20 07:36:19.97	8.08	12.30	-50.7	-53.2	6.1	0.00e+00	0	44	104	28923920384	60	56126
2026-01-20 07:36:20.77	7.90	12.24	-50.8	-53.2	6.1	0.00e+00	0	44	104	28923920384	60	56266
2026-01-20 07:36:21.92	7.65	12.16	-50.8	-53.2	6.1	0.00e+00	0	45	104	28923920384	60	56121
2026-01-20 07:36:22.79	7.45	12.10	-50.8	-53.3	6.1	0.00e+00	0	44	104	28923920384	60	56308
2026-01-20 07:36:23.94	7.20	12.02	-50.8	-53.3	6.1	0.00e+00	0	44	104	28923920384	60	56711
2026-01-20 07:36:24.80	7.01	11.96	-50.7	-53.2	6.1	0.00e+00	0	45	104	28923920384	60	56123
2026-01-20 07:36:25.96	6.76	11.87	-50.7	-53.2	6.1	0.00e+00	0	45	104	28923920384	60	56085
2026-01-20 07:36:26.82	6.57	11.81	-50.7	-53.2	6.1	0.00e+00	0	45	104	28923920384	60	55754
2026-01-20 07:36:27.97	6.32	11.73	-50.7	-53.2	6.1	0.00e+00	0	45	104	28923920384	60	56251
2026-01-20 07:36:28.84	6.13	11.67	-50.7	-53.2	6.1	0.00e+00	0	44	104	28923920384	60	55666
2026-01-20 07:36:29.99	5.89	11.59	-50.7	-53.2	6.1	0.00e+00	0	44	104	28923920384	60	56111
2026-01-20 07:36:30.85	5.71	11.53	-50.8	-53.3	6.1	0.00e+00	0	45	104	28923920384	60	56314
2026-01-20 07:36:32.01	5.46	11.44	-50.8	-53.3	6.1	0.00e+00	0	45	104	28923920384	60	56478
2026-01-20 07:36:32.88	5.28	11.38	-50.7	-53.2	6.1	0.00e+00	0	44	104	28923920384	60	55918
2026-01-20 07:36:34.03	5.04	11.30	-50.6	-53.1	6.1	0.00e+00	0	45	104	28923920384	60	55586
2026-01-20 07:36:34.90	4.86	11.24	-50.7	-53.2	6.1	0.00e+00	0	44	104	28923920384	60	56126
2026-01-20 07:36:36.05	4.62	11.16	-50.7	-53.2	6.1	0.00e+00	0	44	104	28923920384	60	56250
2026-01-20 07:36:36.91	4.45	11.10	-50.7	-53.2	6.1	0.00e+00	0	44	104	28923920384	60	55721
2026-01-20 07:36:38.07	4.21	11.01	-50.7	-53.2	6.1	0.00e+00	0	45	104	28923920384	60	55842
2026-01-20 07:36:38.93	4.04	10.95	-50.7	-53.2	6.1	0.00e+00	0	44	104	28923920384	60	55695
2026-01-20 07:36:40.08	3.81	10.87	-50.7	-53.2	6.1	0.00e+00	0	44	104	28923920384	60	55974
2026-01-20 07:36:40.95	3.63	10.81	-50.6	-53.1	6.1	0.00e+00	0	45	104	28923920384	60	55166
2026-01-20 07:36:42.10	3.40	10.73	-50.6	-53.1	6.1	0.00e+00	0	44	104	28923920384	60	55602
2026-01-20 07:36:42.97	3.23	10.66	-50.7	-53.2	6.1	0.00e+00	0	45	104	28923920384	60	55861
2026-01-20 07:36:44.12	3.01	10.58	-50.7	-53.2	6.1	0.00e+00	0	44	104	28923920384	60	55952
2026-01-20 07:36:44.98	2.84	10.52	-50.6	-53.1	6.1	0.00e+00	0	44	104	28923920384	60	55473
2026-01-20 07:36:46.14	2.61	10.44	-50.6	-53.1	6.1	0.00e+00	0	45	104	28923920384	60	55435
2026-01-20 07:36:47.00	2.45	10.38	-50.7	-53.2	6.1	0.00e+00	0	45	104	28923920384	60	55812
2026-01-20 07:36:48.15	2.23	10.29	-50.7	-53.2	6.1	0.00e+00	0	45	104	28923920384	60	56048
2026-01-20 07:36:49.02	2.06	10.23	-50.7	-53.2	6.1	0.00e+00	0	45	104	28923920384	60	56078
2026-01-20 07:36:50.17	1.85	10.15	-50.7	-53.2	6.1	0.00e+00	0	45	104	28923920384	60	56055
2026-01-20 07:36:51.03	1.68	10.09	-50.7	-53.2	6.1	0.00e+00	0	45	104	28923920384	60	55906
2026-01-20 07:36:52.18	1.47	10.01	-50.7	-53.2	6.1	0.00e+00	0	45	104	28923920384	60	56010
2026-01-20 07:36:53.05	1.31	9.94	-50.7	-53.2	6.1	0.00e+00	0	45	104	28923920384	60	55840
2026-01-20 07:36:54.20	1.10	9.86	-50.6	-53.1	6.1	0.00e+00	0	45	104	28923920384	60	55629
2026-01-20 07:36:55.06	0.94	9.80	-50.7	-53.2	6.1	0.00e+00	0	45	104	28923920384	60	55671
2026-01-20 07:36:56.22	0.73	9.72	-50.7	-53.2	6.1	0.00e+00	0	44	104	28923920384	60	56007
2026-01-20 07:36:57.08	0.57	9.66	-50.6	-53.1	6.1	0.00e+00	0	45	104	28923920384	60	55200
2026-01-20 07:36:58.24	0.36	9.57	-50.7	-53.2	6.1	0.00e+00	0	45	104	28923920384	60	55932
2026-01-20 07:36:59.10	0.21	9.51	-50.7	-53.2	6.1	0.00e+00	0	45	104	28923920384	60	56067
2026-01-20 07:37:00.25	0.00	9.43	-50.7	-53.2	6.1	0.00e+00	0	45	104	28923920384	60	56074
2026-01-20 07:37:01.12	359.85	9.37	-50.7	-53.1	6.1	0.00e+00	0	44	104	28923920384	60	55600
2026-01-20 07:37:02.27	359.65	9.29	-50.7	-53.2	6.1	0.00e+00	0	44	104	28923920384	60	56055
2026-01-20 07:37:03.14	359.50	9.23	-50.7	-53.2	6.1	0.00e+00	0	44	104	28923920384	60	55748
2026-01-20 07:37:04.29	359.30	9.14	-50.7	-53.1	6.1	0.00e+00	0	44	104	28923920384	60	55606
2026-01-20 07:37:05.15	359.15	9.08	-50.7	-53.2	6.1	0.00e+00	0	45	104	28923920384	60	55913
2026-01-20 07:37:06.30	358.95	9.00	-50.7	-53.1	6.1	0.00e+00	0	45	104	28923920384	60	55564
2026-01-20 07:37:07.17	358.80	8.94	-50.7	-53.1	6.1	0.00e+00	0	44	104	28923920384	60	55576
2026-01-20 07:37:08.32	358.61	8.86	-50.7	-53.2	6.1	0.00e+00	0	44	104	28923920384	60	55694
2026-01-20 07:37:09.18	358.46	8.80	-50.7	-53.2	6.0	0.00e+00	0	44	104	28923920384	60	55742
2026-01-20 07:37:10.34	358.27	8.72	-50.7	-53.2	6.1	0.00e+00	0	45	104	28923920384	60	55702
2026-01-20 07:37:11.20	358.13	8.66	-50.7	-53.1	6.1	0.00e+00	0	44	104	28923920384	60	55444
2026-01-20 07:37:12.35	357.94	8.58	-50.6	-53.1	6.1	0.00e+00	0	45	104	28923920384	60	55426
2026-01-20 07:37:13.22	357.79	8.51	-50.7	-53.2	6.1	0.00e+00	0	44	104	28923920384	60	55849
2026-01-20 07:37:14.37	357.61	8.43	-50.7	-53.1	6.1	0.00e+00	0	45	104	28923920384	60	55584
2026-01-20 07:37:15.23	357.47	8.37	-50.6	-53.1	6.1	0.00e+00	0	45	104	28923920384	60	55603
2026-01-20 07:37:16.39	357.28	8.29	-50.6	-53.1	6.1	0.00e+00	0	44	104	28923920384	60	55402
2026-01-20 07:37:17.25	357.14	8.23	-50.6	-53.1	6.1	0.00e+00	0	44	104	28923920384	60	55612
2026-01-20 07:37:18.41	356.96	8.15	-50.6	-53.1	6.1	0.00e+00	0	45	104	28923920384	60	55227
2026-01-20 07:37:19.27	356.82	8.09	-50.6	-53.1	6.1	0.00e+00	0	44	104	28923920384	60	55521
2026-01-20 07:37:20.42	356.64	8.01	-50.6	-53.2	6.1	0.00e+00	0	44	104	28923920384	60	55668
2026-01-20 07:37:21.29	356.50	7.95	-50.6	-53.0	6.1	0.00e+00	0	45	104	28923920384	60	54791
2026-01-20 07:37:22.44	356.33	7.87	-50.6	-53.1	6.1	0.00e+00	0	44	104	28923920384	60	55216
2026-01-20 07:37:23.30	356.19	7.81	-50.6	-53.1	6.1	0.00e+00	0	44	104	28923920384	60	55066
2026-01-20 07:37:24.46	356.01	7.73	-50.6	-53.0	6.0	0.00e+00	0	44	104	28923920384	60	54986
2026-01-20 07:37:25.32	355.88	7.67	-50.5	-53.0	6.1	0.00e+00	0	44	104	28923920384	60	54565
2026-01-20 07:37:26.47	355.71	7.59	-50.5	-53.0	6.1	0.00e+00	0	44	104	28923920384	60	54406
2026-01-20 07:37:27.34	355.58	7.53	-50.6	-53.0	6.1	0.00e+00	0	44	104	28923920384	60	54699
2026-01-20 07:37:28.49	355.41	7.45	-50.5	-53.0	6.1	0.00e+00	0	45	104	28923920384	60	54900
2026-01-20 07:37:29.35	355.28	7.39	-50.5	-53.0	6.1	0.00e+00	0	44	104	28923920384	60	54519
2026-01-20 07:37:30.51	355.11	7.31	-50.5	-53.0	6.1	0.00e+00	0	44	104	28923920384	60	54647
2026-01-20 07:37:31.38	354.98	7.25	-50.5	-53.0	6.1	0.00e+00	0	44	104	28923920384	60	54625
2026-01-20 07:37:32.53	354.81	7.17	-50.4	-52.9	6.1	0.00e+00	0	44	104	28923920384	60	54262
2026-01-20 07:37:33.39	354.69	7.11	-50.3	-52.8	6.1	0.00e+00	0	44	104	28923920384	60	53538
2026-01-20 07:37:34.54	354.52	7.03	-50.5	-53.0	6.1	0.00e+00	0	44	104	28923920384	60	54546
2026-01-20 07:37:35.41	354.39	6.97	-50.5	-53.0	6.1	0.00e+00	0	44	104	28923920384	60	54825
2026-01-20 07:37:36.56	354.23	6.90	-50.5	-52.9	6.1	0.00e+00	0	44	104	28923920384	60	54300
2026-01-20 07:37:37.43	354.11	6.84	-50.6	-53.0	6.1	0.00e+00	0	44	104	28923920384	60	54606
2026-01-20 07:37:38.58	353.94	6.76	-50.6	-53.1	6.1	0.00e+00	0	45	104	28923920384	60	55216
2026-01-20 07:37:39.45	353.82	6.70	-50.5	-53.0	6.1	0.00e+00	0	44	104	28923920384	60	54761
2026-01-20 07:37:40.60	353.66	6.62	-50.6	-53.0	6.1	0.00e+00	0	44	104	28923920384	60	54591
2026-01-20 07:37:41.46	353.54	6.56	-50.5	-53.0	6.1	0.00e+00	0	44	104	28923920384	60	54911
2026-01-20 07:37:42.62	353.38	6.48	-50.6	-53.1	6.1	0.00e+00	0	45	104	28923920384	60	55055
2026-01-20 07:37:43.48	353.27	6.43	-50.7	-53.1	6.1	0.00e+00	0	44	104	28923920384	60	55654
2026-01-20 07:37:44.64	353.11	6.35	-50.5	-53.0	6.1	0.00e+00	0	44	104	28923920384	60	54403
2026-01-20 07:37:45.50	352.99	6.29	-50.5	-52.9	6.1	0.00e+00	0	44	104	28923920384	60	54360
2026-01-20 07:37:46.65	352.84	6.21	-50.6	-53.0	6.1	0.00e+00	0	44	104	28923920384	60	54944
2026-01-20 07:37:47.52	352.72	6.15	-50.6	-53.1	6.1	0.00e+00	0	44	104	28923920384	60	55033
2026-01-20 07:37:48.67	352.57	6.08	-50.5	-52.9	6.1	0.00e+00	0	44	104	28923920384	60	54188
2026-01-20 07:37:49.54	352.45	6.02	-50.4	-52.9	6.1	0.00e+00	0	45	104	28923920384	60	53892
2026-01-20 07:37:50.69	352.30	5.94	-50.5	-53.0	6.1	0.00e+00	0	45	104	28923920384	60	54791
2026-01-20 07:37:51.55	352.19	5.88	-50.6	-53.0	6.1	0.00e+00	0	44	104	28923920384	60	54797
2026-01-20 07:37:52.71	352.04	5.81	-50.3	-52.8	6.1	0.00e+00	0	44	104	28923920384	60	53432
2026-01-20 07:37:53.57	351.93	5.75	-50.4	-52.9	6.1	0.00e+00	0	44	104	28923920384	60	54165
2026-01-20 07:37:54.73	351.78	5.67	-50.4	-52.9	6.1	0.00e+00	0	44	104	28923920384	60	54130
2026-01-20 07:37:55.59	351.67	5.62	-50.5	-53.0	6.1	0.00e+00	0	44	104	28923920384	60	54640
2026-01-20 07:37:56.75	351.52	5.54	-50.3	-52.8	6.1	0.00e+00	0	44	104	28923920384	60	53494
2026-01-20 07:37:57.61	351.42	5.48	-50.3	-52.8	6.1	0.00e+00	0	45	104	28923920384	60	53721
2026-01-20 07:37:58.77	351.27	5.41	-50.4	-52.9	6.1	0.00e+00	0	45	104	28923920384	60	53955
2026-01-20 07:37:59.63	351.16	5.35	-50.5	-52.9	6.1	0.00e+00	0	44	104	28923920384	60	54049
2026-01-20 07:38:00.78	351.02	5.27	-50.3	-52.8	6.1	0.00e+00	0	44	104	28923920384	60	53320
2026-01-20 07:38:01.65	350.92	5.22	-50.4	-52.8	6.1	0.00e+00	0	44	104	28923920384	60	53658
2026-01-20 07:38:02.80	350.77	5.14	-50.4	-52.9	6.1	0.00e+00	0	44	104	28923920384	60	54141
2026-01-20 07:38:03.67	350.67	5.08	-50.5	-53.0	6.1	0.00e+00	0	44	104	28923920384	60	54543
2026-01-20 07:38:04.82	350.53	5.01	-50.3	-52.8	6.1	0.00e+00	0	44	104	28923920384	60	53464
2026-01-20 07:38:05.69	350.43	4.95	-50.3	-52.8	6.1	0.00e+00	0	44	104	28923920384	60	53485
2026-01-20 07:38:06.84	350.29	4.88	-50.3	-52.9	6.0	0.00e+00	0	45	104	28923920384	60	53822
2026-01-20 07:38:07.70	350.19	4.82	-50.5	-53.0	6.1	0.00e+00	0	44	104	28923920384	60	54547
2026-01-20 07:38:08.86	350.05	4.75	-50.2	-52.7	6.1	0.00e+00	0	44	104	28923920384	60	52916
2026-01-20 07:38:09.72	349.95	4.69	-50.1	-52.6	6.1	0.00e+00	0	44	104	28923920384	60	52376
2026-01-20 07:38:10.87	349.81	4.62	-50.3	-52.8	6.1	0.00e+00	0	44	104	28923920384	60	53316
2026-01-20 07:38:11.74	349.71	4.56	-50.4	-52.9	6.1	0.00e+00	0	44	104	28923920384	60	53923
2026-01-20 07:38:12.89	349.58	4.49	-50.2	-52.7	6.1	0.00e+00	0	45	104	28923920384	60	52918
2026-01-20 07:38:13.76	349.48	4.43	-50.2	-52.7	6.1	0.00e+00	0	45	104	28923920384	60	52854
2026-01-20 07:38:14.91	349.35	4.36	-50.3	-52.7	6.1	0.00e+00	0	44	104	28923920384	60	53071
2026-01-20 07:38:15.78	349.25	4.30	-50.2	-52.7	6.1	0.00e+00	0	45	104	28923920384	60	52595
2026-01-20 07:38:16.93	349.12	4.23	-49.9	-52.4	6.1	0.00e+00	0	44	104	28923920384	60	51079
2026-01-20 07:38:17.80	349.02	4.17	-49.9	-52.3	6.1	0.00e+00	0	45	104	28923920384	60	50555
2026-01-20 07:38:18.95	348.90	4.10	-50.2	-52.7	6.1	0.00e+00	0	45	104	28923920384	60	52904
2026-01-20 07:38:19.82	348.80	4.04	-50.1	-52.6	6.1	0.00e+00	0	45	104	28923920384	60	52297
2026-01-20 07:38:20.97	348.67	3.97	-49.8	-52.3	6.1	0.00e+00	0	45	104	28923920384	60	50609
2026-01-20 07:38:21.84	348.58	3.91	-49.3	-51.8	6.1	0.00e+00	0	44	104	28923920384	60	47537
2026-01-20 07:38:22.99	348.45	3.84	-50.0	-52.4	6.0	0.00e+00	0	44	104	28923920384	60	51277
2026-01-20 07:38:23.86	348.36	3.79	-49.4	-51.8	6.1	0.00e+00	0	44	104	28923920384	60	47824
2026-01-20 07:38:25.01	348.24	3.71	-48.6	-51.1	6.1	0.00e+00	0	44	104	28923920384	60	44177
2026-01-20 07:38:25.88	348.14	3.66	-48.5	-50.9	6.1	0.00e+00	0	44	104	28923920384	60	43090
2026-01-20 07:38:27.03	348.02	3.59	-48.2	-50.7	6.1	0.00e+00	0	44	104	28923920384	60	41745
2026-01-20 07:38:27.89	347.93	3.53	-47.8	-50.3	6.1	0.00e+00	0	44	104	28923920384	60	39977
2026-01-20 07:38:29.05	347.81	3.46	-47.6	-50.1	6.1	0.00e+00	0	44	104	28923920384	60	38981
2026-01-20 07:38:29.91	347.72	3.41	-47.3	-49.8	6.1	0.00e+00	0	44	104	28923920384	60	37968
2026-01-20 07:38:31.06	347.60	3.34	-47.7	-50.2	6.1	0.00e+00	0	44	104	28923920384	60	39452
2026-01-20 07:38:31.93	347.51	3.28	-47.9	-50.4	6.1	0.00e+00	0	44	104	28923920384	60	40450
2026-01-20 07:38:33.08	347.39	3.21	-47.0	-49.6	6.1	0.00e+00	0	44	104	28923920384	60	36812
2026-01-20 07:38:33.94	347.30	3.16	-48.0	-50.5	6.1	0.00e+00	0	44	104	28923920384	60	41030
2026-01-20 07:38:35.10	347.18	3.08	-46.9	-49.4	6.1	0.00e+00	0	44	104	28923920384	60	36344
2026-01-20 07:38:35.96	347.10	3.03	-46.8	-49.3	6.1	0.00e+00	0	44	104	28923920384	60	35815
2026-01-20 07:38:37.11	346.98	2.96	-47.2	-49.7	6.1	0.00e+00	0	44	104	28923920384	60	37333
2026-01-20 07:38:37.98	346.89	2.91	-49.1	-51.6	6.0	0.00e+00	0	44	104	28923920384	60	46591
2026-01-20 07:38:39.14	346.78	2.84	-50.7	-53.2	6.1	0.00e+00	0	44	104	28923920384	60	56080
2026-01-20 07:38:40.00	346.69	2.78	-50.8	-53.3	6.1	0.00e+00	0	45	104	28923920384	60	56368
2026-01-20 07:38:41.15	346.58	2.71	-50.9	-53.4	6.1	0.00e+00	0	45	104	28923920384	60	57272
2026-01-20 07:38:42.02	346.50	2.66	-51.2	-53.7	6.1	0.00e+00	0	44	104	28923920384	60	59379
2026-01-20 07:38:43.18	346.38	2.59	-51.3	-53.8	6.1	0.00e+00	0	44	104	28923920384	60	60003
2026-01-20 07:38:44.04	346.30	2.54	-51.3	-53.8	6.1	0.00e+00	0	44	104	28923920384	60	59902
2026-01-20 07:38:45.20	346.19	2.47	-51.3	-53.8	6.1	0.00e+00	0	45	104	28923920384	60	60095
2026-01-20 07:38:46.06	346.11	2.41	-51.2	-53.7	6.1	0.00e+00	0	44	104	28923920384	60	59449
2026-01-20 07:38:47.22	346.00	2.34	-51.6	-54.1	6.1	0.00e+00	0	45	104	28923920384	60	61790
2026-01-20 07:38:48.08	345.91	2.29	-51.6	-54.1	6.1	0.00e+00	0	45	104	28923920384	60	61823
2026-01-20 07:38:49.24	345.80	2.22	-51.5	-54.0	6.1	0.00e+00	0	44	104	28923920384	60	61532
2026-01-20 07:38:50.11	345.72	2.17	-51.6	-54.1	6.1	0.00e+00	0	44	104	28923920384	60	62115
2026-01-20 07:38:51.26	345.62	2.10	-51.5	-54.0	6.1	0.00e+00	0	45	104	28923920384	60	61397
2026-01-20 07:38:52.12	345.54	2.05	-51.7	-54.2	6.1	0.00e+00	0	44	104	28923920384	60	62701
2026-01-20 07:38:53.28	345.43	1.98	-51.7	-54.2	6.1	0.00e+00	0	45	104	28923920384	60	62727
2026-01-20 07:38:54.15	345.35	1.93	-51.7	-54.2	6.0	0.00e+00	0	45	104	28923920384	60	62663
2026-01-20 07:38:55.30	345.25	1.86	-51.8	-54.2	6.1	0.00e+00	0	44	104	28923920384	60	62965
2026-01-20 07:38:56.17	345.17	1.81	-51.7	-54.2	6.1	0.00e+00	0	44	104	28923920384	60	62896
2026-01-20 07:38:57.32	345.06	1.74	-51.9	-54.3	6.1	0.00e+00	0	45	104	28923920384	60	63859
2026-01-20 07:38:58.19	344.98	1.69	-51.9	-54.4	6.1	0.00e+00	0	45	104	28923920384	60	64020
2026-01-20 07:38:59.34	344.88	1.62	-51.7	-54.2	6.1	0.00e+00	0	44	104	28923920384	60	62914
2026-01-20 07:39:00.21	344.81	1.57	-51.7	-54.2	6.1	0.00e+00	0	44	104	28923920384	60	62506
2026-01-20 07:39:01.36	344.70	1.50	-51.8	-54.3	6.1	0.00e+00	0	45	104	28923920384	60	63671
2026-01-20 07:39:02.22	344.63	1.45	-51.9	-54.4	6.1	0.00e+00	0	45	104	28923920384	60	64495
2026-01-20 07:39:03.38	344.53	1.38	-51.7	-54.2	6.1	0.00e+00	0	45	104	28923920384	60	62722
2026-01-20 07:39:04.24	344.45	1.33	-51.8	-54.3	6.1	0.00e+00	0	45	104	28923920384	60	63473
2026-01-20 07:39:05.40	344.35	1.26	-52.0	-54.5	6.1	0.00e+00	0	45	104	28923920384	60	64978
2026-01-20 07:39:06.26	344.28	1.21	-52.0	-54.5	6.1	0.00e+00	0	45	104	28923920384	60	64809
2026-01-20 07:39:07.41	344.18	1.14	-52.2	-54.7	6.1	0.00e+00	0	45	104	28923920384	60	66231
2026-01-20 07:39:08.28	344.11	1.09	-52.0	-54.4	6.1	0.00e+00	0	45	104	28923920384	60	64525
2026-01-20 07:39:09.43	344.01	1.02	-51.9	-54.3	6.1	0.00e+00	0	45	104	28923920384	60	63826
2026-01-20 07:39:10.30	343.94	0.97	-51.8	-54.3	6.1	0.00e+00	0	45	104	28923920384	60	63408
2026-01-20 07:39:11.45	343.84	0.91	-52.1	-54.6	6.1	0.00e+00	0	45	104	28923920384	60	65526
2026-01-20 07:39:12.32	343.77	0.86	-52.2	-54.7	6.1	0.00e+00	0	45	104	28923920384	60	66602
2026-01-20 07:39:13.47	343.67	0.79	-52.4	-54.8	6.1	0.00e+00	0	45	104	28923920384	60	67647
2026-01-20 07:39:14.33	343.60	0.74	-51.9	-54.4	6.1	0.00e+00	0	45	104	28923920384	60	64334
2026-01-20 07:39:15.49	343.51	0.67	-51.7	-54.2	6.1	0.00e+00	0	45	104	28923920384	60	62695
2026-01-20 07:39:16.36	343.44	0.62	-51.7	-54.2	6.1	0.00e+00	0	45	104	28923920384	60	62519
2026-01-20 07:39:17.51	343.34	0.56	-51.7	-54.2	6.1	0.00e+00	0	45	104	28923920384	60	62842
2026-01-20 07:39:18.38	343.27	0.51	-52.3	-54.8	6.1	0.00e+00	0	45	104	28923920384	60	67493
2026-01-20 07:39:19.53	343.18	0.44	-52.2	-54.7	6.1	0.00e+00	0	45	104	28923920384	60	66448
2026-01-20 07:39:20.40	343.11	0.39	-52.1	-54.6	6.1	0.00e+00	0	45	104	28923920384	60	65843
2026-01-20 07:39:21.55	343.02	0.33	-51.7	-54.2	6.1	0.00e+00	0	45	104	28923920384	60	62464
2026-01-20 07:39:22.42	342.95	0.28	-51.8	-54.3	6.1	0.00e+00	0	45	104	28923920384	60	63311
2026-01-20 07:39:23.57	342.86	0.21	-52.4	-54.8	6.1	0.00e+00	0	45	104	28923920384	60	67220
2026-01-20 07:39:24.44	342.79	0.16	-52.6	-55.1	6.1	0.00e+00	0	45	104	28923920384	60	69387
2026-01-20 07:39:25.59	342.70	0.10	-52.6	-55.0	6.1	0.00e+00	0	45	104	28923920384	60	69091
2026-01-20 07:39:26.46	342.64	0.05	-52.6	-55.0	6.1	0.00e+00	0	45	104	28923920384	60	69062
2026-01-20 07:39:27.61	342.55	-0.02	-52.3	-54.7	6.1	0.00e+00	0	45	104	28923920384	60	66786
2026-01-20 07:39:28.47	342.48	-0.07	-52.2	-54.7	6.1	0.00e+00	0	45	104	28923920384	60	66359

#Closed at: 2026-01-20 07:39:28
#Recorded file [28923 MB]: D:/lorett/data/35029_260120_192943.dat