passes_logs/2026/01/20/R4.6S_Anadyr/R4.6S_Anadyr__20260120_154858_FENGYUN_3D_rec.log

#Pass ID: 20260120_154858_FENGYUN 3D
#Satellite: FENGYUN 3D
#Configuration: FENGYUN 3D
#almurnet v.1.7.20251203
#Start time: 2026-01-20 15:49:00

#Version: 2.2.20231116
#Station: R4.6S_Anadyr
#Location: 177.4865 lon 64.73178 lat
#TLE: 1 43010U 17072A   26019.93695019 -.00000250  00000+0 -96545-4 0  9996
#TLE: 2 43010  98.9942 351.8290 0002452 100.7901 259.3550 14.19695974423957

#Time	Az	El	Level	Level2	SNR	BER	BlckErr	Temp	State	Recorded	gain1	gain2
2026-01-20 15:49:00.50	19.63	0.11	-51.6	-66.5	3.5	1.51e+00	0	39	0	0	60	76192
2026-01-20 15:49:01.51	19.67	0.17	-51.6	-63.8	3.6	8.46e-01	0	40	104	0	60	55972
2026-01-20 15:49:02.52	19.70	0.23	-51.5	-63.7	3.6	8.45e-01	0	40	104	0	60	55056
2026-01-20 15:49:03.53	19.74	0.28	-51.4	-63.6	3.6	8.45e-01	0	40	104	0	60	54622
2026-01-20 15:49:04.54	19.77	0.34	-51.4	-63.5	3.6	8.45e-01	0	40	104	0	60	54203
2026-01-20 15:49:05.55	19.81	0.40	-51.4	-63.5	3.6	8.47e-01	0	40	104	0	60	54319
2026-01-20 15:49:06.56	19.84	0.46	-51.4	-63.5	3.6	8.44e-01	0	40	104	0	60	54376
2026-01-20 15:49:07.57	19.88	0.52	-51.3	-63.5	3.6	8.46e-01	0	40	104	0	60	54125
2026-01-20 15:49:08.58	19.91	0.58	-51.4	-63.5	3.6	8.46e-01	0	40	104	0	60	54067
2026-01-20 15:49:09.59	19.95	0.64	-51.3	-63.5	3.6	8.45e-01	0	40	104	0	60	54134
2026-01-20 15:49:10.60	19.99	0.70	-51.3	-63.4	3.6	8.45e-01	0	41	104	0	60	53713
2026-01-20 15:49:11.60	20.02	0.75	-51.3	-63.5	3.6	8.45e-01	0	41	104	0	60	53814
2026-01-20 15:49:12.61	20.06	0.81	-51.2	-63.4	3.6	8.46e-01	0	40	104	0	60	53457
2026-01-20 15:49:13.63	20.09	0.87	-51.1	-63.3	3.6	8.45e-01	0	41	104	0	60	53096
2026-01-20 15:49:14.63	20.13	0.93	-51.1	-63.3	3.6	8.45e-01	0	41	104	0	60	52615
2026-01-20 15:49:15.64	20.17	0.99	-51.0	-63.1	3.6	8.46e-01	0	41	104	0	60	51796
2026-01-20 15:49:16.66	20.20	1.05	-50.9	-63.1	3.6	8.46e-01	0	41	104	0	60	51415
2026-01-20 15:49:17.66	20.24	1.11	-50.8	-62.9	3.6	8.45e-01	0	41	104	0	60	50373
2026-01-20 15:49:18.68	20.28	1.17	-50.5	-62.7	3.6	8.45e-01	0	41	104	0	60	49502
2026-01-20 15:49:19.69	20.31	1.23	-50.5	-62.7	3.6	8.46e-01	0	41	104	0	60	49047
2026-01-20 15:49:20.69	20.35	1.29	-50.5	-62.5	3.6	8.47e-01	0	41	104	0	60	48476
2026-01-20 15:49:21.70	20.39	1.35	-50.3	-62.5	3.6	8.44e-01	0	41	104	0	60	48425
2026-01-20 15:49:22.72	20.43	1.42	-50.1	-62.2	3.6	8.46e-01	0	41	104	0	60	46710
2026-01-20 15:49:23.73	20.46	1.48	-49.8	-61.9	3.6	8.47e-01	0	41	104	0	60	45228
2026-01-20 15:49:24.74	20.50	1.54	-49.7	-61.5	3.6	8.46e-01	0	41	104	0	60	42911
2026-01-20 15:49:25.75	20.54	1.60	-49.7	-61.7	3.6	8.45e-01	0	41	104	0	60	43709
2026-01-20 15:49:26.76	20.58	1.66	-49.7	-61.7	3.6	8.45e-01	0	41	104	0	60	43759
2026-01-20 15:49:27.77	20.62	1.72	-49.7	-61.7	3.6	8.46e-01	0	41	104	0	60	44132
2026-01-20 15:49:28.78	20.65	1.78	-49.7	-61.6	3.6	8.46e-01	0	41	104	0	60	43347
2026-01-20 15:49:29.78	20.69	1.84	-49.7	-61.6	3.6	8.45e-01	0	41	104	0	60	43661
2026-01-20 15:49:30.79	20.73	1.90	-49.7	-61.8	3.6	8.46e-01	0	41	104	0	60	44393
2026-01-20 15:49:31.81	20.77	1.97	-49.7	-61.8	3.6	8.46e-01	0	41	104	0	60	44268
2026-01-20 15:49:32.82	20.81	2.03	-49.6	-61.7	3.6	8.45e-01	0	41	104	0	60	44127
2026-01-20 15:49:33.83	20.85	2.09	-49.7	-61.8	3.6	8.46e-01	0	41	104	0	60	44308
2026-01-20 15:49:34.84	20.89	2.15	-49.6	-61.4	3.6	8.45e-01	0	41	104	0	60	42273
2026-01-20 15:49:35.84	20.93	2.21	-49.6	-61.3	3.6	8.45e-01	0	41	104	0	60	41759
2026-01-20 15:49:36.85	20.96	2.28	-49.5	-60.5	3.6	8.45e-01	0	41	104	0	60	38419
2026-01-20 15:49:37.86	21.00	2.34	-49.5	-60.7	3.6	8.45e-01	0	41	104	0	60	39317
2026-01-20 15:49:38.87	21.04	2.40	-49.5	-60.4	3.6	8.45e-01	0	41	104	0	60	37846
2026-01-20 15:49:39.88	21.08	2.46	-49.3	-58.8	3.7	8.44e-01	0	41	104	0	60	31569
2026-01-20 15:49:40.89	21.12	2.53	-49.5	-60.9	3.6	8.43e-01	0	41	104	0	60	40312
2026-01-20 15:49:41.90	21.16	2.59	-49.6	-61.6	3.6	8.45e-01	0	41	104	0	60	43303
2026-01-20 15:49:42.90	21.20	2.65	-49.5	-60.3	3.6	8.45e-01	0	41	104	0	60	37266
2026-01-20 15:49:43.92	21.24	2.72	-48.1	-53.3	7.8	5.21e-01	0	41	104	0	60	16777
2026-01-20 15:49:44.93	21.29	2.78	-47.2	-50.5	9.8	5.39e-02	0	41	0	4194304	60	12129
2026-01-20 15:49:45.94	21.33	2.84	-44.9	-46.9	13.6	1.10e-06	0	41	0	9437184	60	8018
2026-01-20 15:49:46.95	21.37	2.91	-43.4	-44.9	16.2	5.70e-06	0	41	0	14680064	60	6347
2026-01-20 15:49:47.96	21.41	2.97	-42.6	-43.9	16.9	0.00e+00	0	41	0	20971520	58	6362
2026-01-20 15:49:48.96	21.45	3.03	-39.8	-40.8	19.8	0.00e+00	0	41	0	26214400	52	6263
2026-01-20 15:49:49.97	21.49	3.10	-39.2	-40.1	21.0	0.00e+00	0	41	0	32505856	52	5793
2026-01-20 15:49:50.98	21.53	3.16	-39.0	-39.9	20.3	0.00e+00	0	41	0	37748736	50	6370
2026-01-20 15:49:51.99	21.57	3.23	-39.9	-40.8	20.1	0.00e+00	0	41	0	42991616	52	6306
2026-01-20 15:49:53.00	21.62	3.29	-37.8	-38.6	21.9	0.00e+00	0	41	0	49283072	48	6159
2026-01-20 15:49:54.01	21.66	3.36	-41.5	-42.7	18.3	0.00e+00	0	41	0	54525952	54	6939
2026-01-20 15:49:55.02	21.70	3.42	-38.6	-39.5	21.1	0.00e+00	0	41	0	60817408	48	6774
2026-01-20 15:49:56.03	21.74	3.48	-41.9	-43.2	17.5	0.00e+00	0	41	0	66060288	56	6573
2026-01-20 15:49:57.04	21.78	3.55	-45.2	-47.4	13.2	3.40e-06	0	41	0	72351744	60	8462
2026-01-20 15:49:58.05	21.83	3.61	-44.5	-46.4	13.5	0.00e+00	0	41	0	77594624	60	7524
2026-01-20 15:49:59.06	21.87	3.68	-40.3	-41.3	18.7	0.00e+00	0	41	0	82837504	52	6661
2026-01-20 15:50:00.07	21.91	3.75	-49.3	-59.3	3.6	3.56e-01	0	41	104	87031808	60	33305
2026-01-20 15:50:01.08	21.96	3.81	-48.2	-53.0	7.3	2.20e-06	0	41	0	87031808	60	16142
2026-01-20 15:50:02.09	22.00	3.88	-43.4	-44.9	15.9	0.00e+00	0	41	0	92274688	60	6364
2026-01-20 15:50:03.10	22.04	3.94	-49.4	-59.1	3.8	5.37e-01	0	41	104	95420416	60	32456
2026-01-20 15:50:04.10	22.09	4.01	-41.9	-43.1	17.7	2.20e-06	0	41	0	96468992	58	5826
2026-01-20 15:50:05.11	22.13	4.07	-43.6	-45.1	15.7	0.00e+00	0	41	0	102760448	58	7299
2026-01-20 15:50:06.13	22.17	4.14	-41.1	-42.2	18.3	0.00e+00	0	41	0	108003328	54	6608
2026-01-20 15:50:07.14	22.22	4.21	-42.1	-43.4	17.7	0.00e+00	0	41	0	114294784	58	5985
2026-01-20 15:50:08.14	22.26	4.27	-40.9	-42.0	19.0	0.00e+00	0	41	0	119537664	56	5732
2026-01-20 15:50:09.15	22.31	4.34	-40.1	-41.1	19.9	0.00e+00	0	41	0	124780544	54	5821
2026-01-20 15:50:10.16	22.35	4.41	-40.3	-41.3	19.7	0.00e+00	0	41	0	131072000	52	6621
2026-01-20 15:50:11.18	22.40	4.48	-38.6	-39.4	21.5	0.00e+00	0	41	0	136314880	50	6008
2026-01-20 15:50:12.18	22.44	4.54	-39.6	-40.6	20.2	0.00e+00	0	41	0	142606336	50	6858
2026-01-20 15:50:13.19	22.49	4.61	-39.4	-40.3	20.6	0.00e+00	0	41	0	147849216	52	5955
2026-01-20 15:50:14.20	22.53	4.68	-40.2	-41.1	19.9	0.00e+00	0	41	0	153092096	52	6519
2026-01-20 15:50:15.21	22.58	4.74	-39.9	-40.9	20.2	0.00e+00	0	41	0	159383552	52	6334
2026-01-20 15:50:16.22	22.62	4.81	-39.6	-40.5	20.6	0.00e+00	0	41	0	164626432	52	6037
2026-01-20 15:50:17.23	22.67	4.88	-39.5	-40.4	20.7	0.00e+00	0	41	0	170917888	52	5978
2026-01-20 15:50:18.24	22.72	4.95	-40.2	-41.2	19.8	0.00e+00	0	41	0	176160768	52	6564
2026-01-20 15:50:19.25	22.76	5.02	-39.7	-40.7	20.4	0.00e+00	0	41	0	182452224	52	6174
2026-01-20 15:50:20.26	22.81	5.09	-39.1	-40.0	21.0	0.00e+00	0	41	0	187695104	52	5743
2026-01-20 15:50:21.27	22.86	5.15	-39.3	-40.2	20.9	0.00e+00	0	41	0	193986560	52	5847
2026-01-20 15:50:22.28	22.90	5.22	-38.4	-39.2	21.8	0.00e+00	0	41	0	199229440	50	5874
2026-01-20 15:50:23.28	22.95	5.29	-37.9	-38.7	22.2	0.00e+00	0	41	0	204472320	50	5546
2026-01-20 15:50:24.29	23.00	5.36	-38.2	-39.0	22.0	0.00e+00	0	41	0	210763776	48	6463
2026-01-20 15:50:25.31	23.05	5.43	-37.3	-38.0	22.8	0.00e+00	0	41	0	216006656	48	5742
2026-01-20 15:50:26.32	23.09	5.50	-38.6	-39.5	22.1	0.00e+00	0	41	0	222298112	50	6056
2026-01-20 15:50:27.33	23.14	5.57	-36.8	-37.6	23.3	0.00e+00	0	41	0	227540992	48	5463
2026-01-20 15:50:28.34	23.19	5.64	-39.0	-39.8	21.1	0.00e+00	0	41	0	232783872	48	7068
2026-01-20 15:50:29.35	23.24	5.71	-38.0	-38.8	22.2	0.00e+00	0	41	0	239075328	48	6301
2026-01-20 15:50:30.36	23.29	5.78	-37.9	-38.7	22.4	0.00e+00	0	41	0	244318208	48	6213
2026-01-20 15:50:31.37	23.34	5.85	-37.6	-38.3	22.7	0.00e+00	0	41	0	250609664	48	5961
2026-01-20 15:50:32.38	23.39	5.92	-37.1	-37.9	23.2	0.00e+00	0	41	0	255852544	48	5639
2026-01-20 15:50:33.39	23.44	5.99	-37.6	-38.3	22.8	0.00e+00	0	41	0	261095424	48	5959
2026-01-20 15:50:34.40	23.49	6.06	-37.7	-38.5	22.5	0.00e+00	0	41	0	267386880	48	6082
2026-01-20 15:50:35.41	23.53	6.13	-38.2	-39.0	22.2	0.00e+00	0	41	0	272629760	48	6396
2026-01-20 15:50:36.42	23.58	6.21	-37.4	-38.2	22.9	0.00e+00	0	41	0	278921216	48	5867
2026-01-20 15:50:37.43	23.64	6.28	-37.9	-38.7	22.8	0.00e+00	0	41	0	284164096	48	6188
2026-01-20 15:50:38.44	23.69	6.35	-37.8	-38.6	22.5	0.00e+00	0	41	0	290455552	48	6113
2026-01-20 15:50:39.45	23.74	6.42	-37.5	-38.2	22.9	0.00e+00	0	41	0	295698432	48	5875
2026-01-20 15:50:40.46	23.79	6.49	-37.3	-38.1	23.0	0.00e+00	0	41	0	300941312	48	5812
2026-01-20 15:50:41.47	23.84	6.57	-38.2	-39.0	22.3	0.00e+00	0	41	0	307232768	48	6434
2026-01-20 15:50:42.48	23.89	6.64	-37.4	-38.2	22.8	0.00e+00	0	41	0	312475648	48	5832
2026-01-20 15:50:43.49	23.94	6.71	-37.2	-38.0	23.2	0.00e+00	0	41	0	318767104	48	5736
2026-01-20 15:50:44.50	23.99	6.78	-37.5	-38.3	23.0	0.00e+00	0	41	0	324009984	48	5898
2026-01-20 15:50:45.51	24.05	6.86	-37.1	-37.8	23.3	0.00e+00	0	41	0	329252864	48	5611
2026-01-20 15:50:46.52	24.10	6.93	-37.0	-37.8	23.4	0.00e+00	0	41	0	335544320	48	5570
2026-01-20 15:50:47.53	24.15	7.00	-36.9	-37.6	23.5	0.00e+00	0	41	0	340787200	46	6130
2026-01-20 15:50:48.53	24.20	7.08	-37.1	-37.8	23.3	0.00e+00	0	41	0	347078656	46	6307
2026-01-20 15:50:49.55	24.26	7.15	-38.0	-38.8	22.5	0.00e+00	0	41	0	352321536	48	6251
2026-01-20 15:50:50.56	24.31	7.22	-37.0	-37.8	23.4	0.00e+00	0	41	0	357564416	48	5593
2026-01-20 15:50:51.56	24.36	7.30	-37.6	-38.4	22.8	0.00e+00	0	41	0	363855872	46	6746
2026-01-20 15:50:52.57	24.42	7.37	-37.8	-38.6	22.8	0.00e+00	0	41	0	369098752	48	6149
2026-01-20 15:50:53.58	24.47	7.45	-37.3	-38.0	23.0	0.00e+00	0	41	0	375390208	46	6431
2026-01-20 15:50:54.59	24.52	7.52	-37.6	-38.4	22.8	0.00e+00	0	41	0	380633088	46	6729
2026-01-20 15:50:55.60	24.58	7.60	-37.5	-38.3	22.8	0.00e+00	0	41	0	386924544	48	5897
2026-01-20 15:50:56.61	24.63	7.67	-38.3	-39.1	22.2	0.00e+00	0	41	0	392167424	48	6497
2026-01-20 15:50:57.62	24.69	7.75	-37.0	-37.7	23.3	0.00e+00	0	41	0	398458880	48	5538
2026-01-20 15:50:58.63	24.74	7.82	-37.0	-37.8	23.5	0.00e+00	0	41	0	403701760	48	5582
2026-01-20 15:50:59.64	24.80	7.90	-36.8	-37.6	23.7	0.00e+00	0	41	0	408944640	46	6104
2026-01-20 15:51:00.65	24.86	7.97	-37.2	-37.9	23.4	0.00e+00	0	41	0	415236096	46	6368
2026-01-20 15:51:01.66	24.91	8.05	-36.5	-37.3	23.8	0.00e+00	0	41	0	420478976	46	5924
2026-01-20 15:51:02.67	24.97	8.13	-36.4	-37.2	24.0	0.00e+00	0	41	0	426770432	46	5855
2026-01-20 15:51:03.68	25.02	8.20	-36.3	-37.1	24.1	0.00e+00	0	41	0	432013312	46	5768
2026-01-20 15:51:04.69	25.08	8.28	-36.3	-37.0	24.1	0.00e+00	0	41	0	437256192	46	5747
2026-01-20 15:51:05.70	25.14	8.36	-36.7	-37.4	23.9	0.00e+00	0	41	0	443547648	46	6027
2026-01-20 15:51:06.71	25.20	8.43	-36.2	-36.9	24.2	0.00e+00	0	41	0	448790528	46	5675
2026-01-20 15:51:07.72	25.25	8.51	-36.2	-36.9	24.3	0.00e+00	0	41	0	455081984	46	5644
2026-01-20 15:51:08.73	25.31	8.59	-36.8	-37.5	23.8	0.00e+00	0	41	0	460324864	46	6038
2026-01-20 15:51:09.74	25.37	8.67	-36.5	-37.3	24.0	0.00e+00	0	41	0	465567744	46	5912
2026-01-20 15:51:10.75	25.43	8.74	-36.1	-36.8	24.4	0.00e+00	0	41	0	471859200	46	5602
2026-01-20 15:51:11.76	25.49	8.82	-36.7	-37.4	24.0	0.00e+00	0	41	0	477102080	46	5988
2026-01-20 15:51:12.77	25.55	8.90	-36.2	-36.9	24.5	0.00e+00	0	41	0	483393536	46	5646
2026-01-20 15:51:13.78	25.61	8.98	-36.2	-36.9	24.4	0.00e+00	0	41	0	488636416	46	5639
2026-01-20 15:51:14.79	25.67	9.06	-36.2	-36.9	24.2	0.00e+00	0	41	0	494927872	46	5661
2026-01-20 15:51:15.80	25.73	9.14	-35.9	-36.7	24.6	0.00e+00	0	41	0	500170752	46	5503
2026-01-20 15:51:16.81	25.79	9.22	-36.2	-37.0	24.3	0.00e+00	0	41	0	505413632	46	5708
2026-01-20 15:51:17.82	25.85	9.30	-36.1	-36.7	24.5	0.00e+00	0	41	0	511705088	46	5557
2026-01-20 15:51:18.83	25.91	9.38	-35.5	-36.2	24.9	0.00e+00	0	41	0	516947968	44	5874
2026-01-20 15:51:19.84	25.97	9.46	-35.9	-36.6	24.4	0.00e+00	0	41	0	523239424	44	6135
2026-01-20 15:51:20.85	26.03	9.54	-36.1	-36.8	24.3	0.00e+00	0	41	0	528482304	44	6269
2026-01-20 15:51:21.86	26.09	9.62	-35.9	-36.6	24.6	0.00e+00	0	41	0	533725184	44	6131
2026-01-20 15:51:22.87	26.16	9.70	-36.2	-36.9	24.3	0.00e+00	0	41	0	540016640	44	6331
2026-01-20 15:51:23.88	26.22	9.78	-35.8	-36.4	24.7	0.00e+00	0	41	0	545259520	44	6032
2026-01-20 15:51:24.89	26.28	9.86	-36.1	-36.9	24.4	0.00e+00	0	41	0	551550976	44	6319
2026-01-20 15:51:25.90	26.34	9.94	-36.0	-36.6	24.5	0.00e+00	0	41	0	556793856	44	6164
2026-01-20 15:51:26.91	26.41	10.03	-35.9	-36.6	24.6	0.00e+00	0	41	0	562036736	44	6139
2026-01-20 15:51:27.92	26.47	10.11	-36.4	-37.2	24.2	0.00e+00	0	41	0	568328192	44	6557
2026-01-20 15:51:28.93	26.54	10.19	-36.5	-37.2	24.1	0.00e+00	0	41	0	573571072	44	6579
2026-01-20 15:51:29.94	26.60	10.27	-36.2	-36.9	24.4	0.00e+00	0	41	0	579862528	44	6343
2026-01-20 15:51:30.95	26.67	10.35	-36.4	-37.1	24.2	0.00e+00	0	41	0	585105408	44	6475
2026-01-20 15:51:31.96	26.73	10.44	-36.5	-37.2	24.1	0.00e+00	0	41	0	591396864	44	6540
2026-01-20 15:51:32.97	26.80	10.52	-36.3	-37.0	24.2	0.00e+00	0	41	0	596639744	44	6391
2026-01-20 15:51:33.98	26.86	10.60	-36.7	-37.4	24.0	0.00e+00	0	41	0	602931200	44	6707
2026-01-20 15:51:34.99	26.93	10.69	-37.0	-37.7	23.6	0.00e+00	0	41	0	608174080	46	6199
2026-01-20 15:51:36.00	27.00	10.77	-36.5	-37.3	24.0	0.00e+00	0	41	0	613416960	46	5907
2026-01-20 15:51:37.01	27.06	10.86	-36.5	-37.2	24.1	0.00e+00	0	41	0	619708416	46	5861
2026-01-20 15:51:38.01	27.13	10.94	-36.4	-37.1	24.2	0.00e+00	0	41	0	624951296	46	5808
2026-01-20 15:51:39.02	27.20	11.03	-36.4	-37.1	24.2	0.00e+00	0	41	0	631242752	46	5801
2026-01-20 15:51:40.03	27.26	11.11	-36.1	-36.8	24.5	0.00e+00	0	41	0	636485632	46	5607
2026-01-20 15:51:41.04	27.33	11.20	-35.7	-36.4	24.8	0.00e+00	0	41	0	641728512	44	5986
2026-01-20 15:51:42.05	27.40	11.28	-35.8	-36.4	24.8	0.00e+00	0	41	0	648019968	44	6030
2026-01-20 15:51:43.06	27.47	11.37	-36.0	-36.8	24.6	0.00e+00	0	41	0	653262848	44	6246
2026-01-20 15:51:44.07	27.54	11.45	-36.0	-36.7	24.5	0.00e+00	0	42	0	659554304	44	6227
2026-01-20 15:51:45.08	27.61	11.54	-36.0	-36.8	24.6	0.00e+00	0	41	0	664797184	44	6246
2026-01-20 15:51:46.09	27.68	11.63	-35.9	-36.7	24.6	0.00e+00	0	41	0	670040064	44	6184
2026-01-20 15:51:47.10	27.75	11.71	-35.8	-36.5	24.8	0.00e+00	0	41	0	676331520	44	6037
2026-01-20 15:51:48.11	27.82	11.80	-35.8	-36.5	24.7	0.00e+00	0	41	0	681574400	44	6099
2026-01-20 15:51:49.12	27.89	11.89	-35.9	-36.6	24.7	0.00e+00	0	41	0	687865856	44	6136
2026-01-20 15:51:50.13	27.97	11.98	-36.0	-36.7	24.6	0.00e+00	0	41	0	693108736	44	6213
2026-01-20 15:51:51.14	28.04	12.06	-35.8	-36.4	24.9	0.00e+00	0	41	0	699400192	44	6032
2026-01-20 15:51:52.15	28.11	12.15	-35.7	-36.3	24.9	0.00e+00	0	41	0	704643072	44	5955
2026-01-20 15:51:53.16	28.18	12.24	-35.9	-36.6	24.7	0.00e+00	0	42	0	709885952	44	6107
2026-01-20 15:51:54.17	28.26	12.33	-36.2	-36.9	24.5	0.00e+00	0	41	0	716177408	44	6357
2026-01-20 15:51:55.18	28.33	12.42	-36.1	-36.7	24.6	0.00e+00	0	41	0	721420288	44	6240
2026-01-20 15:51:56.19	28.41	12.51	-35.8	-36.5	24.8	0.00e+00	0	42	0	727711744	44	6089
2026-01-20 15:51:57.20	28.48	12.60	-35.5	-36.2	25.1	0.00e+00	0	41	0	732954624	44	5862
2026-01-20 15:51:58.21	28.56	12.69	-35.7	-36.4	24.9	0.00e+00	0	41	0	738197504	44	6009
2026-01-20 15:51:59.22	28.63	12.78	-35.7	-36.4	24.9	0.00e+00	0	41	0	744488960	44	6023
2026-01-20 15:52:00.23	28.71	12.87	-35.4	-36.1	25.2	0.00e+00	0	42	0	749731840	44	5811
2026-01-20 15:52:01.24	28.78	12.96	-35.6	-36.3	25.0	0.00e+00	0	41	0	756023296	44	5931
2026-01-20 15:52:02.25	28.86	13.05	-35.6	-36.3	25.0	0.00e+00	0	41	0	761266176	44	5924
2026-01-20 15:52:03.26	28.94	13.14	-35.6	-36.4	24.9	0.00e+00	0	41	0	766509056	44	5965
2026-01-20 15:52:04.27	29.02	13.24	-35.6	-36.2	25.1	0.00e+00	0	41	0	772800512	44	5887
2026-01-20 15:52:05.28	29.10	13.33	-35.6	-36.3	25.0	0.00e+00	0	42	0	778043392	44	5937
2026-01-20 15:52:06.29	29.17	13.42	-35.3	-36.0	25.2	0.00e+00	0	42	0	784334848	44	5718
2026-01-20 15:52:07.29	29.25	13.51	-35.3	-36.0	25.2	0.00e+00	0	41	0	789577728	44	5750
2026-01-20 15:52:08.30	29.33	13.61	-35.4	-36.1	25.3	0.00e+00	0	42	0	795869184	44	5764
2026-01-20 15:52:09.31	29.41	13.70	-35.4	-36.0	25.4	0.00e+00	0	42	0	801112064	44	5749
2026-01-20 15:52:10.32	29.49	13.79	-35.6	-36.3	25.0	0.00e+00	0	41	0	807403520	44	5916
2026-01-20 15:52:11.33	29.57	13.89	-35.4	-36.1	25.2	0.00e+00	0	41	0	812646400	44	5812
2026-01-20 15:52:12.34	29.66	13.98	-35.3	-36.0	25.4	0.00e+00	0	42	0	817889280	44	5722
2026-01-20 15:52:13.35	29.74	14.08	-35.3	-35.9	25.4	0.00e+00	0	42	0	824180736	44	5689
2026-01-20 15:52:14.36	29.82	14.17	-35.2	-35.9	25.3	0.00e+00	0	41	0	829423616	44	5670
2026-01-20 15:52:15.37	29.90	14.27	-35.2	-35.8	25.4	0.00e+00	0	41	0	835715072	44	5613
2026-01-20 15:52:16.37	29.99	14.36	-35.0	-35.7	25.7	0.00e+00	0	41	0	840957952	44	5503
2026-01-20 15:52:17.38	30.07	14.46	-35.4	-36.1	25.3	0.00e+00	0	42	0	846200832	44	5781
2026-01-20 15:52:18.39	30.16	14.55	-35.3	-36.0	25.4	0.00e+00	0	41	0	852492288	44	5706
2026-01-20 15:52:19.40	30.24	14.65	-34.9	-35.6	25.7	0.00e+00	0	41	0	857735168	44	5477
2026-01-20 15:52:20.41	30.33	14.75	-34.8	-35.4	25.8	0.00e+00	0	41	0	862978048	44	5370
2026-01-20 15:52:21.42	30.41	14.84	-34.9	-35.5	25.7	0.00e+00	0	41	0	869269504	42	6081
2026-01-20 15:52:22.43	30.50	14.94	-34.9	-35.6	25.7	0.00e+00	0	41	0	874512384	42	6141
2026-01-20 15:52:23.44	30.59	15.04	-35.1	-35.7	25.6	0.00e+00	0	41	0	880803840	42	6222
2026-01-20 15:52:24.45	30.68	15.14	-35.2	-35.9	25.5	0.00e+00	0	42	0	886046720	42	6334
2026-01-20 15:52:25.46	30.76	15.24	-35.3	-36.0	25.3	0.00e+00	0	41	0	892338176	42	6429
2026-01-20 15:52:26.46	30.85	15.33	-35.0	-35.7	25.7	0.00e+00	0	41	0	897581056	42	6203
2026-01-20 15:52:27.47	30.94	15.43	-35.2	-35.9	25.6	0.00e+00	0	41	0	903872512	42	6339
2026-01-20 15:52:28.48	31.03	15.53	-35.3	-36.0	25.5	0.00e+00	0	41	0	909115392	42	6408
2026-01-20 15:52:29.49	31.12	15.63	-35.4	-36.0	25.5	0.00e+00	0	42	0	914358272	42	6459
2026-01-20 15:52:30.50	31.21	15.73	-35.1	-35.8	25.7	0.00e+00	0	42	0	920649728	42	6278
2026-01-20 15:52:31.51	31.31	15.84	-34.9	-35.5	25.9	0.00e+00	0	42	0	925892608	42	6092
2026-01-20 15:52:32.52	31.40	15.94	-34.6	-35.3	26.0	0.00e+00	0	41	0	932184064	42	5934
2026-01-20 15:52:33.53	31.49	16.04	-34.6	-35.2	26.1	0.00e+00	0	42	0	937426944	42	5887
2026-01-20 15:52:34.54	31.59	16.14	-34.6	-35.3	26.1	0.00e+00	0	41	0	942669824	42	5899
2026-01-20 15:52:35.55	31.68	16.24	-34.5	-35.1	26.1	0.00e+00	0	41	0	948961280	42	5816
2026-01-20 15:52:36.56	31.77	16.34	-34.5	-35.1	26.2	0.00e+00	0	42	0	954204160	42	5808
2026-01-20 15:52:37.57	31.87	16.45	-34.4	-35.1	26.3	0.00e+00	0	41	0	960495616	42	5779
2026-01-20 15:52:38.59	31.97	16.55	-34.7	-35.3	26.0	0.00e+00	0	41	0	965738496	42	5951
2026-01-20 15:52:39.59	32.06	16.65	-34.6	-35.2	26.1	0.00e+00	0	41	0	970981376	42	5876
2026-01-20 15:52:40.60	32.16	16.76	-34.5	-35.1	26.2	0.00e+00	0	41	0	977272832	42	5817
2026-01-20 15:52:41.61	32.26	16.86	-34.4	-35.1	26.2	0.00e+00	0	41	0	982515712	42	5765
2026-01-20 15:52:42.62	32.36	16.97	-34.6	-35.3	26.0	0.00e+00	0	42	0	988807168	42	5914
2026-01-20 15:52:43.63	32.46	17.07	-34.6	-35.3	26.0	0.00e+00	0	42	0	994050048	42	5904
2026-01-20 15:52:44.64	32.56	17.18	-34.4	-35.1	26.3	0.00e+00	0	42	0	1000341504	42	5777
2026-01-20 15:52:45.65	32.66	17.28	-34.4	-35.0	26.3	0.00e+00	0	42	0	1005584384	42	5748
2026-01-20 15:52:46.66	32.76	17.39	-34.5	-35.2	26.2	0.00e+00	0	42	0	1010827264	42	5848
2026-01-20 15:52:47.67	32.86	17.50	-34.2	-34.9	26.4	0.00e+00	0	42	0	1017118720	42	5656
2026-01-20 15:52:48.68	32.96	17.60	-34.4	-35.1	26.3	0.00e+00	0	42	0	1022361600	42	5770
2026-01-20 15:52:49.69	33.07	17.71	-34.2	-34.9	26.4	0.00e+00	0	42	0	1028653056	42	5645
2026-01-20 15:52:50.70	33.17	17.82	-34.3	-35.0	26.3	0.00e+00	0	42	0	1033895936	42	5712
2026-01-20 15:52:51.71	33.28	17.93	-34.2	-34.8	26.5	0.00e+00	0	42	0	1039138816	42	5612
2026-01-20 15:52:52.72	33.38	18.04	-34.1	-34.8	26.5	0.00e+00	0	42	0	1045430272	42	5580
2026-01-20 15:52:53.73	33.49	18.14	-34.1	-34.7	26.6	0.00e+00	0	42	0	1050673152	42	5532
2026-01-20 15:52:54.74	33.59	18.25	-33.9	-34.6	26.7	0.00e+00	0	42	0	1056964608	42	5466
2026-01-20 15:52:55.75	33.70	18.36	-34.0	-34.7	26.6	0.00e+00	0	42	0	1062207488	42	5508
2026-01-20 15:52:56.76	33.81	18.47	-34.1	-34.7	26.6	0.00e+00	0	41	0	1067450368	42	5536
2026-01-20 15:52:57.77	33.92	18.58	-33.9	-34.6	26.7	0.00e+00	0	41	0	1073741824	42	5455
2026-01-20 15:52:58.78	34.03	18.69	-34.0	-34.7	26.7	0.00e+00	0	42	0	1078984704	42	5529
2026-01-20 15:52:59.79	34.14	18.81	-34.0	-34.7	26.7	0.00e+00	0	41	0	1085276160	42	5510
2026-01-20 15:53:00.80	34.25	18.92	-33.9	-34.6	26.8	0.00e+00	0	41	0	1090519040	42	5449
2026-01-20 15:53:01.81	34.36	19.03	-33.9	-34.5	26.7	0.00e+00	0	41	0	1096810496	40	6096
2026-01-20 15:53:02.82	34.48	19.14	-33.9	-34.5	26.8	0.00e+00	0	42	0	1102053376	40	6056
2026-01-20 15:53:03.83	34.59	19.26	-33.7	-34.4	26.8	0.00e+00	0	42	0	1108344832	40	5977
2026-01-20 15:53:04.84	34.71	19.37	-33.8	-34.4	26.9	0.00e+00	0	42	0	1113587712	40	6007
2026-01-20 15:53:05.85	34.82	19.48	-33.7	-34.3	26.9	0.00e+00	0	41	0	1118830592	40	5932
2026-01-20 15:53:06.86	34.94	19.60	-33.7	-34.3	26.8	0.00e+00	0	42	0	1125122048	40	5904
2026-01-20 15:53:07.87	35.06	19.71	-33.7	-34.4	26.7	0.00e+00	0	41	0	1130364928	40	5965
2026-01-20 15:53:08.88	35.17	19.83	-34.1	-34.7	26.7	0.00e+00	0	41	0	1136656384	40	6198
2026-01-20 15:53:09.88	35.29	19.94	-33.7	-34.4	26.8	0.00e+00	0	41	0	1141899264	40	5970
2026-01-20 15:53:10.89	35.41	20.06	-33.7	-34.4	26.9	0.00e+00	0	41	0	1147142144	40	5984
2026-01-20 15:53:11.90	35.53	20.17	-33.9	-34.5	26.7	0.00e+00	0	42	0	1153433600	40	6094
2026-01-20 15:53:12.91	35.65	20.29	-33.9	-34.5	26.8	0.00e+00	0	42	0	1158676480	40	6075
2026-01-20 15:53:13.92	35.78	20.41	-34.0	-34.6	26.7	0.00e+00	0	41	0	1164967936	40	6168
2026-01-20 15:53:14.93	35.90	20.53	-33.9	-34.6	26.7	0.00e+00	0	42	0	1170210816	40	6112
2026-01-20 15:53:15.94	36.02	20.64	-33.8	-34.4	26.8	0.00e+00	0	42	0	1175453696	40	6030
2026-01-20 15:53:16.95	36.15	20.76	-33.8	-34.5	26.7	0.00e+00	0	41	0	1181745152	40	6048
2026-01-20 15:53:17.96	36.28	20.88	-33.9	-34.6	26.7	0.00e+00	0	41	0	1186988032	40	6126
2026-01-20 15:53:18.97	36.40	21.00	-33.7	-34.4	26.8	0.00e+00	0	42	0	1193279488	40	5982
2026-01-20 15:53:19.97	36.53	21.12	-33.9	-34.6	26.7	0.00e+00	0	42	0	1198522368	40	6119
2026-01-20 15:53:20.98	36.66	21.24	-34.0	-34.6	26.7	0.00e+00	0	42	0	1204813824	40	6172
2026-01-20 15:53:21.99	36.79	21.36	-33.7	-34.3	26.9	0.00e+00	0	42	0	1210056704	40	5957
2026-01-20 15:53:23.00	36.92	21.48	-33.8	-34.4	26.8	0.00e+00	0	42	0	1215299584	40	6024
2026-01-20 15:53:24.02	37.05	21.60	-33.5	-34.1	27.0	0.00e+00	0	42	0	1221591040	40	5822
2026-01-20 15:53:25.02	37.19	21.72	-33.6	-34.2	27.0	0.00e+00	0	41	0	1226833920	40	5880
2026-01-20 15:53:26.03	37.32	21.85	-33.6	-34.2	27.1	0.00e+00	0	42	0	1233125376	40	5848
2026-01-20 15:53:27.04	37.45	21.97	-33.6	-34.2	27.0	0.00e+00	0	42	0	1238368256	40	5892
2026-01-20 15:53:28.05	37.59	22.09	-33.8	-34.4	26.9	0.00e+00	0	42	0	1243611136	40	6003
2026-01-20 15:53:29.06	37.73	22.22	-33.4	-34.0	27.1	0.00e+00	0	42	0	1249902592	40	5738
2026-01-20 15:53:30.07	37.87	22.34	-33.5	-34.2	27.0	0.00e+00	0	42	0	1255145472	40	5844
2026-01-20 15:53:31.08	38.00	22.46	-33.4	-34.1	27.1	0.00e+00	0	42	0	1261436928	40	5798
2026-01-20 15:53:32.09	38.15	22.59	-33.4	-34.1	27.1	0.00e+00	0	42	0	1266679808	40	5766
2026-01-20 15:53:33.10	38.29	22.72	-33.4	-34.0	27.2	0.00e+00	0	42	0	1271922688	40	5727
2026-01-20 15:53:34.11	38.43	22.84	-33.5	-34.2	27.1	0.00e+00	0	42	0	1278214144	40	5840
2026-01-20 15:53:35.12	38.57	22.97	-33.4	-34.0	27.2	0.00e+00	0	42	0	1283457024	40	5739
2026-01-20 15:53:36.13	38.72	23.09	-33.2	-33.9	27.3	0.00e+00	0	42	0	1289748480	40	5643
2026-01-20 15:53:37.14	38.86	23.22	-33.2	-33.8	27.3	0.00e+00	0	42	0	1294991360	40	5624
2026-01-20 15:53:38.15	39.01	23.35	-33.3	-33.9	27.4	0.00e+00	0	42	0	1301282816	40	5677
2026-01-20 15:53:39.16	39.16	23.48	-33.1	-33.7	27.4	0.00e+00	0	42	0	1306525696	40	5548
2026-01-20 15:53:40.17	39.31	23.61	-33.0	-33.7	27.5	0.00e+00	0	42	0	1312817152	40	5504
2026-01-20 15:53:41.17	39.46	23.73	-33.0	-33.6	27.5	0.00e+00	0	42	0	1318060032	40	5471
2026-01-20 15:53:42.18	39.61	23.86	-33.0	-33.6	27.5	0.00e+00	0	42	0	1323302912	40	5493
2026-01-20 15:53:43.19	39.76	23.99	-33.0	-33.6	27.5	0.00e+00	0	42	0	1329594368	40	5440
2026-01-20 15:53:44.20	39.92	24.12	-32.7	-33.3	27.8	0.00e+00	0	41	0	1334837248	40	5289
2026-01-20 15:53:45.21	40.07	24.25	-32.7	-33.4	27.7	0.00e+00	0	42	0	1340080128	38	5968
2026-01-20 15:53:46.22	40.23	24.39	-32.9	-33.5	27.6	0.00e+00	0	42	0	1346371584	38	6082
2026-01-20 15:53:47.23	40.39	24.52	-32.6	-33.2	27.9	0.00e+00	0	42	0	1351614464	38	5887
2026-01-20 15:53:48.24	40.55	24.65	-32.7	-33.3	27.8	0.00e+00	0	42	0	1357905920	38	5959
2026-01-20 15:53:49.25	40.71	24.78	-32.8	-33.4	27.7	0.00e+00	0	42	0	1363148800	38	5977
2026-01-20 15:53:50.26	40.87	24.92	-32.6	-33.3	27.8	0.00e+00	0	42	0	1368391680	38	5900
2026-01-20 15:53:51.27	41.03	25.05	-32.7	-33.4	27.7	0.00e+00	0	42	0	1374683136	38	5970
2026-01-20 15:53:52.28	41.20	25.18	-32.7	-33.3	27.7	0.00e+00	0	42	0	1379926016	38	5958
2026-01-20 15:53:53.29	41.36	25.32	-32.9	-33.5	27.7	0.00e+00	0	42	0	1386217472	38	6065
2026-01-20 15:53:54.30	41.53	25.45	-32.8	-33.4	27.8	0.00e+00	0	42	0	1391460352	38	5993
2026-01-20 15:53:55.31	41.70	25.59	-32.8	-33.4	27.7	0.00e+00	0	42	0	1397751808	38	6022
2026-01-20 15:53:56.32	41.87	25.72	-32.8	-33.4	27.6	0.00e+00	0	42	0	1402994688	38	6030
2026-01-20 15:53:57.32	42.04	25.86	-32.9	-33.5	27.7	0.00e+00	0	42	0	1409286144	38	6086
2026-01-20 15:53:58.33	42.21	26.00	-32.7	-33.4	27.7	0.00e+00	0	42	0	1414529024	38	5965
2026-01-20 15:53:59.34	42.39	26.13	-32.7	-33.3	27.8	0.00e+00	0	42	0	1419771904	38	5927
2026-01-20 15:54:00.35	42.56	26.27	-32.8	-33.5	27.8	0.00e+00	0	42	0	1426063360	38	6035
2026-01-20 15:54:01.36	42.74	26.41	-32.8	-33.4	27.8	0.00e+00	0	42	0	1431306240	38	6021
2026-01-20 15:54:02.37	42.92	26.55	-32.9	-33.5	27.6	0.00e+00	0	42	0	1437597696	38	6068
2026-01-20 15:54:03.38	43.10	26.68	-32.5	-33.1	27.9	0.00e+00	0	42	0	1442840576	38	5791
2026-01-20 15:54:04.39	43.28	26.82	-32.6	-33.2	28.0	0.00e+00	0	42	0	1448083456	38	5835
2026-01-20 15:54:05.40	43.47	26.96	-32.5	-33.1	28.0	0.00e+00	0	42	0	1454374912	38	5789
2026-01-20 15:54:06.41	43.65	27.10	-32.5	-33.1	27.9	0.00e+00	0	42	0	1459617792	38	5828
2026-01-20 15:54:07.41	43.84	27.24	-32.4	-33.1	27.9	0.00e+00	0	42	0	1465909248	38	5769
2026-01-20 15:54:08.42	44.03	27.38	-32.4	-33.0	28.0	0.00e+00	0	42	0	1471152128	38	5738
2026-01-20 15:54:09.43	44.22	27.52	-32.3	-33.0	28.0	0.00e+00	0	42	0	1476395008	38	5709
2026-01-20 15:54:10.45	44.41	27.67	-32.3	-32.9	28.0	0.00e+00	0	42	0	1482686464	38	5688
2026-01-20 15:54:11.46	44.60	27.81	-32.3	-32.9	28.1	0.00e+00	0	42	0	1487929344	38	5668
2026-01-20 15:54:12.46	44.80	27.95	-32.3	-33.0	28.1	0.00e+00	0	42	0	1494220800	38	5696
2026-01-20 15:54:13.47	44.99	28.09	-32.2	-32.9	28.2	0.00e+00	0	42	0	1499463680	38	5651
2026-01-20 15:54:14.48	45.19	28.24	-32.3	-32.9	28.2	0.00e+00	0	42	0	1505755136	38	5649
2026-01-20 15:54:15.49	45.39	28.38	-32.3	-32.9	28.1	0.00e+00	0	42	0	1510998016	38	5676
2026-01-20 15:54:16.50	45.59	28.52	-32.3	-33.0	28.0	0.00e+00	0	42	0	1516240896	38	5728
2026-01-20 15:54:17.51	45.80	28.67	-32.4	-33.0	28.0	0.00e+00	0	42	0	1522532352	38	5761
2026-01-20 15:54:18.52	46.00	28.81	-32.5	-33.2	28.0	0.00e+00	0	42	0	1527775232	38	5841
2026-01-20 15:54:19.53	46.21	28.96	-32.3	-32.8	28.1	0.00e+00	0	42	0	1534066688	38	5614
2026-01-20 15:54:20.54	46.42	29.10	-32.3	-32.9	28.1	0.00e+00	0	42	0	1539309568	38	5640
2026-01-20 15:54:21.55	46.63	29.25	-32.2	-32.8	28.2	0.00e+00	0	42	0	1544552448	38	5607
2026-01-20 15:54:22.56	46.84	29.40	-32.3	-32.9	28.2	0.00e+00	0	42	0	1550843904	38	5640
2026-01-20 15:54:23.57	47.06	29.54	-32.3	-32.9	28.1	0.00e+00	0	42	0	1556086784	38	5664
2026-01-20 15:54:24.58	47.28	29.69	-32.5	-33.1	28.0	0.00e+00	0	42	0	1562378240	38	5802
2026-01-20 15:54:25.59	47.49	29.84	-32.4	-33.1	28.1	0.00e+00	0	42	0	1567621120	38	5769
2026-01-20 15:54:26.60	47.72	29.98	-32.5	-33.2	27.9	0.00e+00	0	42	0	1572864000	38	5837
2026-01-20 15:54:27.61	47.94	30.13	-32.2	-32.8	28.2	0.00e+00	0	42	0	1579155456	38	5587
2026-01-20 15:54:28.62	48.16	30.28	-32.1	-32.7	28.2	0.00e+00	0	42	0	1584398336	38	5556
2026-01-20 15:54:29.63	48.39	30.43	-32.2	-32.9	28.2	0.00e+00	0	42	0	1590689792	38	5651
2026-01-20 15:54:30.65	48.62	30.58	-32.2	-32.8	28.2	0.00e+00	0	42	0	1595932672	38	5608
2026-01-20 15:54:31.66	48.85	30.73	-32.1	-32.7	28.2	0.00e+00	0	42	0	1602224128	38	5532
2026-01-20 15:54:32.67	49.09	30.88	-32.2	-32.8	28.1	0.00e+00	0	42	0	1607467008	38	5610
2026-01-20 15:54:33.68	49.32	31.03	-32.1	-32.8	28.2	0.00e+00	0	42	0	1613758464	38	5574
2026-01-20 15:54:34.69	49.56	31.18	-32.1	-32.8	28.2	0.00e+00	0	42	0	1619001344	38	5571
2026-01-20 15:54:35.70	49.80	31.33	-32.2	-32.8	28.2	0.00e+00	0	42	0	1624244224	38	5624
2026-01-20 15:54:36.71	50.04	31.48	-32.1	-32.7	28.2	0.00e+00	0	42	0	1630535680	38	5545
2026-01-20 15:54:37.72	50.28	31.63	-32.2	-32.8	28.2	0.00e+00	0	42	0	1635778560	38	5630
2026-01-20 15:54:38.73	50.53	31.78	-32.2	-32.8	28.1	0.00e+00	0	42	0	1642070016	38	5600
2026-01-20 15:54:39.74	50.78	31.93	-32.2	-32.8	28.0	0.00e+00	0	42	0	1647312896	38	5611
2026-01-20 15:54:40.75	51.03	32.08	-32.4	-33.0	27.9	0.00e+00	0	42	0	1652555776	38	5742
2026-01-20 15:54:41.76	51.28	32.23	-32.2	-32.8	28.2	0.00e+00	0	42	0	1658847232	38	5596
2026-01-20 15:54:42.77	51.54	32.38	-32.1	-32.7	28.2	0.00e+00	0	42	0	1664090112	38	5511
2026-01-20 15:54:43.78	51.79	32.53	-32.1	-32.7	28.3	0.00e+00	0	42	0	1670381568	38	5513
2026-01-20 15:54:44.79	52.05	32.68	-32.2	-32.9	28.1	0.00e+00	0	42	0	1675624448	38	5636
2026-01-20 15:54:45.80	52.32	32.84	-32.1	-32.7	28.3	0.00e+00	0	42	0	1680867328	38	5530
2026-01-20 15:54:46.81	52.58	32.99	-32.2	-32.8	28.2	0.00e+00	0	42	0	1687158784	38	5601
2026-01-20 15:54:47.82	52.85	33.14	-32.3	-32.9	28.2	0.00e+00	0	42	0	1692401664	38	5656
2026-01-20 15:54:48.83	53.12	33.29	-32.5	-33.1	28.1	0.00e+00	0	42	0	1698693120	38	5762
2026-01-20 15:54:49.83	53.39	33.44	-32.2	-32.8	28.2	0.00e+00	0	42	0	1703936000	38	5608
2026-01-20 15:54:50.84	53.66	33.60	-32.2	-32.8	28.2	0.00e+00	0	42	0	1710227456	38	5598
2026-01-20 15:54:51.85	53.94	33.75	-32.3	-32.9	28.2	0.00e+00	0	42	0	1715470336	38	5658
2026-01-20 15:54:52.86	54.22	33.90	-32.2	-32.8	28.2	0.00e+00	0	42	0	1720713216	38	5603
2026-01-20 15:54:53.87	54.50	34.05	-32.4	-33.1	28.1	0.00e+00	0	42	0	1727004672	38	5770
2026-01-20 15:54:54.88	54.79	34.21	-32.3	-33.0	28.1	0.00e+00	0	42	0	1732247552	38	5699
2026-01-20 15:54:55.89	55.07	34.36	-32.3	-33.0	28.1	0.00e+00	0	42	0	1738539008	38	5698
2026-01-20 15:54:56.90	55.36	34.51	-32.3	-32.9	28.1	0.00e+00	0	42	0	1743781888	38	5658
2026-01-20 15:54:57.91	55.66	34.66	-32.1	-32.7	28.3	0.00e+00	0	42	0	1749024768	38	5524
2026-01-20 15:54:58.92	55.95	34.81	-32.1	-32.7	28.3	0.00e+00	0	42	0	1755316224	38	5545
2026-01-20 15:54:59.93	56.25	34.97	-32.2	-32.8	28.3	0.00e+00	0	42	0	1760559104	38	5618
2026-01-20 15:55:00.93	56.55	35.12	-32.3	-33.0	28.2	0.00e+00	0	42	0	1766850560	38	5699
2026-01-20 15:55:01.94	56.85	35.27	-32.1	-32.8	28.2	0.00e+00	0	42	0	1772093440	38	5567
2026-01-20 15:55:02.95	57.16	35.42	-32.3	-32.9	28.1	0.00e+00	0	42	0	1777336320	38	5676
2026-01-20 15:55:03.96	57.47	35.57	-32.1	-32.7	28.3	0.00e+00	0	42	0	1783627776	38	5544
2026-01-20 15:55:04.97	57.78	35.72	-32.3	-33.0	28.2	0.00e+00	0	42	0	1788870656	38	5707
2026-01-20 15:55:05.98	58.10	35.87	-32.2	-32.8	28.3	0.00e+00	0	42	0	1795162112	38	5587
2026-01-20 15:55:06.99	58.42	36.02	-32.2	-32.8	28.2	0.00e+00	0	42	0	1800404992	38	5608
2026-01-20 15:55:08.00	58.74	36.17	-32.1	-32.7	28.3	0.00e+00	0	42	0	1806696448	38	5540
2026-01-20 15:55:09.01	59.06	36.33	-32.0	-32.6	28.5	0.00e+00	0	42	0	1811939328	38	5460
2026-01-20 15:55:10.02	59.39	36.48	-31.9	-32.5	28.4	0.00e+00	0	42	0	1818230784	38	5430
2026-01-20 15:55:11.03	59.72	36.62	-31.9	-32.5	28.5	0.00e+00	0	42	0	1823473664	38	5400
2026-01-20 15:55:12.04	60.05	36.77	-32.1	-32.8	28.4	0.00e+00	0	42	0	1828716544	38	5569
2026-01-20 15:55:13.05	60.39	36.92	-32.0	-32.6	28.3	0.00e+00	0	42	0	1835008000	38	5501
2026-01-20 15:55:14.06	60.73	37.07	-32.0	-32.6	28.4	0.00e+00	0	42	0	1840250880	38	5498
2026-01-20 15:55:15.07	61.07	37.22	-31.8	-32.4	28.4	0.00e+00	0	42	0	1846542336	38	5371
2026-01-20 15:55:16.08	61.41	37.37	-31.7	-32.3	28.3	0.00e+00	0	42	0	1851785216	36	5931
2026-01-20 15:55:17.09	61.76	37.51	-31.9	-32.5	28.2	0.00e+00	0	42	0	1857028096	36	6103
2026-01-20 15:55:18.10	62.11	37.66	-32.2	-32.8	28.2	0.00e+00	0	42	0	1863319552	36	6268
2026-01-20 15:55:19.11	62.47	37.81	-31.9	-32.5	28.5	0.00e+00	0	42	0	1868562432	36	6050
2026-01-20 15:55:20.12	62.83	37.95	-31.9	-32.5	28.4	0.00e+00	0	42	0	1874853888	36	6069
2026-01-20 15:55:21.13	63.19	38.10	-31.9	-32.5	28.4	0.00e+00	0	42	0	1880096768	36	6102
2026-01-20 15:55:22.14	63.55	38.24	-31.9	-32.5	28.5	0.00e+00	0	42	0	1885339648	36	6067
2026-01-20 15:55:23.15	63.92	38.38	-31.9	-32.5	28.4	0.00e+00	0	42	0	1891631104	36	6071
2026-01-20 15:55:24.16	64.29	38.53	-32.0	-32.7	28.3	0.00e+00	0	42	0	1896873984	36	6178
2026-01-20 15:55:25.17	64.66	38.67	-32.0	-32.7	28.3	0.00e+00	0	42	0	1903165440	36	6174
2026-01-20 15:55:26.18	65.04	38.81	-32.2	-32.8	28.3	0.00e+00	0	42	0	1908408320	36	6295
2026-01-20 15:55:27.19	65.42	38.95	-32.1	-32.8	28.3	0.00e+00	0	42	0	1914699776	36	6252
2026-01-20 15:55:28.20	65.80	39.09	-32.3	-32.9	28.2	0.00e+00	0	42	0	1919942656	36	6342
2026-01-20 15:55:29.21	66.19	39.23	-32.0	-32.6	28.4	0.00e+00	0	42	0	1925185536	36	6171
2026-01-20 15:55:30.22	66.58	39.37	-31.7	-32.3	28.5	0.00e+00	0	42	0	1931476992	36	5938
2026-01-20 15:55:31.23	66.97	39.51	-31.7	-32.3	28.6	0.00e+00	0	42	0	1936719872	36	5958
2026-01-20 15:55:32.24	67.37	39.64	-32.1	-32.7	28.3	0.00e+00	0	42	0	1943011328	36	6191
2026-01-20 15:55:33.25	67.77	39.78	-32.3	-33.0	28.2	0.00e+00	0	42	0	1948254208	36	6425
2026-01-20 15:55:34.26	68.17	39.91	-32.3	-32.9	28.1	0.00e+00	0	42	0	1953497088	36	6388
2026-01-20 15:55:35.27	68.58	40.04	-32.4	-33.0	28.2	0.00e+00	0	42	0	1959788544	36	6421
2026-01-20 15:55:36.28	68.99	40.18	-31.7	-32.3	28.6	0.00e+00	0	42	0	1965031424	36	5953
2026-01-20 15:55:37.29	69.40	40.31	-31.8	-32.3	28.6	0.00e+00	0	42	0	1971322880	36	5959
2026-01-20 15:55:38.30	69.82	40.44	-31.8	-32.4	28.5	0.00e+00	0	42	0	1976565760	36	6026
2026-01-20 15:55:39.31	70.23	40.57	-32.0	-32.6	28.4	0.00e+00	0	42	0	1981808640	36	6154
2026-01-20 15:55:40.32	70.66	40.69	-31.9	-32.5	28.5	0.00e+00	0	42	0	1988100096	36	6088
2026-01-20 15:55:41.33	71.08	40.82	-31.9	-32.5	28.5	0.00e+00	0	42	0	1993342976	36	6072
2026-01-20 15:55:42.33	71.51	40.94	-32.0	-32.6	28.4	0.00e+00	0	42	0	1999634432	36	6159
2026-01-20 15:55:43.34	71.94	41.07	-32.1	-32.8	28.2	0.00e+00	0	42	0	2004877312	36	6274
2026-01-20 15:55:44.35	72.38	41.19	-32.2	-32.8	28.2	0.00e+00	0	42	0	2011168768	36	6307
2026-01-20 15:55:45.36	72.82	41.31	-32.1	-32.6	28.3	0.00e+00	0	42	0	2016411648	36	6166
2026-01-20 15:55:46.37	73.26	41.43	-32.1	-32.7	28.3	0.00e+00	0	42	0	2022703104	36	6242
2026-01-20 15:55:47.38	73.70	41.54	-32.1	-32.7	28.4	0.00e+00	0	42	0	2027945984	36	6221
2026-01-20 15:55:48.39	74.15	41.66	-32.1	-32.7	28.3	0.00e+00	0	42	0	2033188864	36	6194
2026-01-20 15:55:49.40	74.61	41.78	-32.0	-32.6	28.3	0.00e+00	0	42	0	2039480320	36	6156
2026-01-20 15:55:50.41	75.06	41.89	-32.1	-32.7	28.4	0.00e+00	0	42	0	2044723200	36	6228
2026-01-20 15:55:51.42	75.52	42.00	-31.9	-32.5	28.4	0.00e+00	0	42	0	2051014656	36	6050
2026-01-20 15:55:52.43	75.98	42.11	-32.1	-32.8	28.2	0.00e+00	0	42	0	2056257536	36	6257
2026-01-20 15:55:53.44	76.44	42.22	-32.2	-32.8	28.2	0.00e+00	0	42	0	2061500416	36	6315
2026-01-20 15:55:54.45	76.91	42.32	-32.1	-32.7	28.3	0.00e+00	0	42	0	2067791872	36	6178
2026-01-20 15:55:55.46	77.38	42.43	-32.1	-32.7	28.2	0.00e+00	0	42	0	2073034752	36	6199
2026-01-20 15:55:56.47	77.86	42.53	-32.4	-33.0	28.2	0.00e+00	0	42	0	2079326208	36	6439
2026-01-20 15:55:57.48	78.33	42.63	-32.4	-33.0	28.1	0.00e+00	0	42	0	2084569088	36	6442
2026-01-20 15:55:58.49	78.81	42.73	-32.3	-33.0	28.2	0.00e+00	0	42	0	2089811968	36	6399
2026-01-20 15:55:59.50	79.30	42.83	-32.2	-32.9	28.2	0.00e+00	0	42	0	2096103424	36	6321
2026-01-20 15:56:00.51	79.78	42.92	-32.2	-32.8	28.2	0.00e+00	0	42	0	2101346304	36	6275
2026-01-20 15:56:01.52	80.27	43.01	-32.3	-32.9	28.2	0.00e+00	0	42	0	2107637760	36	6351
2026-01-20 15:56:02.53	80.76	43.10	-32.3	-32.9	28.2	0.00e+00	0	42	0	2112880640	36	6347
2026-01-20 15:56:03.53	81.25	43.19	-31.9	-32.5	28.3	0.00e+00	0	42	0	2119172096	36	6056
2026-01-20 15:56:04.54	81.75	43.28	-31.9	-32.5	28.4	0.00e+00	0	42	0	2124414976	36	6091
2026-01-20 15:56:05.55	82.24	43.36	-32.3	-32.9	28.2	0.00e+00	0	42	0	2129657856	36	6370
2026-01-20 15:56:06.56	82.75	43.44	-32.5	-33.1	28.0	0.00e+00	0	42	0	2135949312	36	6537
2026-01-20 15:56:07.57	83.25	43.52	-32.2	-32.8	28.3	0.00e+00	0	42	0	2141192192	36	6304
2026-01-20 15:56:08.58	83.76	43.60	-32.2	-32.8	28.2	0.00e+00	0	42	0	2147483648	36	6296
2026-01-20 15:56:09.59	84.27	43.68	-32.1	-32.7	28.3	0.00e+00	0	42	0	2152726528	36	6232
2026-01-20 15:56:10.60	84.78	43.75	-32.2	-32.8	28.2	0.00e+00	0	42	0	2157969408	36	6297
2026-01-20 15:56:11.61	85.29	43.82	-32.4	-33.0	28.2	0.00e+00	0	42	0	2164260864	36	6397
2026-01-20 15:56:12.62	85.81	43.89	-32.5	-33.1	28.1	0.00e+00	0	42	0	2169503744	36	6528
2026-01-20 15:56:13.63	86.32	43.96	-32.8	-33.4	27.9	0.00e+00	0	42	0	2175795200	38	5975
2026-01-20 15:56:14.64	86.84	44.02	-32.8	-33.5	27.7	0.00e+00	0	42	0	2181038080	38	6039
2026-01-20 15:56:15.65	87.37	44.08	-32.9	-33.5	27.8	0.00e+00	0	42	0	2186280960	38	6075
2026-01-20 15:56:16.66	87.89	44.14	-32.7	-33.4	27.9	0.00e+00	0	42	0	2192572416	38	5984
2026-01-20 15:56:17.67	88.42	44.19	-32.7	-33.3	28.0	0.00e+00	0	42	0	2197815296	38	5914
2026-01-20 15:56:18.68	88.94	44.25	-32.6	-33.3	27.9	0.00e+00	0	42	0	2204106752	38	5902
2026-01-20 15:56:19.69	89.47	44.30	-32.8	-33.4	27.9	0.00e+00	0	42	0	2209349632	38	6026
2026-01-20 15:56:20.70	90.01	44.35	-32.7	-33.4	27.9	0.00e+00	0	42	0	2215641088	38	5976
2026-01-20 15:56:21.71	90.54	44.39	-32.7	-33.3	27.9	0.00e+00	0	42	0	2220883968	38	5934
2026-01-20 15:56:22.72	91.07	44.43	-32.7	-33.3	27.9	0.00e+00	0	42	0	2227175424	38	5955
2026-01-20 15:56:23.73	91.61	44.47	-32.5	-33.1	28.1	0.00e+00	0	42	0	2232418304	38	5801
2026-01-20 15:56:24.74	92.14	44.51	-32.4	-33.0	28.1	0.00e+00	0	42	0	2237661184	38	5729
2026-01-20 15:56:25.75	92.68	44.55	-32.4	-33.1	28.1	0.00e+00	0	42	0	2243952640	38	5796
2026-01-20 15:56:26.75	93.22	44.58	-32.5	-33.1	28.0	0.00e+00	0	42	0	2249195520	38	5800
2026-01-20 15:56:27.76	93.76	44.61	-32.6	-33.3	28.0	0.00e+00	0	42	0	2254438400	38	5902
2026-01-20 15:56:28.77	94.30	44.63	-32.7	-33.3	28.0	0.00e+00	0	42	0	2260729856	38	5933
2026-01-20 15:56:29.78	94.84	44.66	-32.6	-33.2	28.0	0.00e+00	0	42	0	2265972736	38	5873
2026-01-20 15:56:30.79	95.38	44.68	-32.5	-33.1	28.1	0.00e+00	0	42	0	2272264192	38	5815
2026-01-20 15:56:31.80	95.93	44.70	-32.3	-32.9	28.2	0.00e+00	0	42	0	2277507072	38	5680
2026-01-20 15:56:32.81	96.47	44.71	-32.4	-33.1	28.1	0.00e+00	0	42	0	2282749952	38	5795
2026-01-20 15:56:33.83	97.02	44.73	-32.5	-33.1	27.9	0.00e+00	0	42	0	2289041408	38	5824
2026-01-20 15:56:34.83	97.56	44.74	-32.5	-33.2	28.0	0.00e+00	0	42	0	2294284288	38	5847
2026-01-20 15:56:35.84	98.11	44.74	-32.5	-33.2	28.0	0.00e+00	0	42	0	2300575744	38	5829
2026-01-20 15:56:36.85	98.65	44.75	-32.8	-33.5	27.8	0.00e+00	0	42	0	2305818624	38	6035
2026-01-20 15:56:37.87	99.20	44.75	-33.0	-33.7	27.6	0.00e+00	0	42	0	2312110080	38	6201
2026-01-20 15:56:38.88	99.75	44.75	-32.8	-33.5	27.8	0.00e+00	0	42	0	2317352960	38	6039
2026-01-20 15:56:39.89	100.29	44.74	-32.7	-33.3	27.8	0.00e+00	0	42	0	2323644416	38	5959
2026-01-20 15:56:40.90	100.84	44.74	-32.6	-33.2	28.0	0.00e+00	0	42	0	2328887296	38	5894
2026-01-20 15:56:41.91	101.38	44.73	-32.4	-33.0	28.0	0.00e+00	0	42	0	2334130176	38	5722
2026-01-20 15:56:42.92	101.93	44.71	-32.5	-33.1	27.9	0.00e+00	0	42	0	2340421632	38	5805
2026-01-20 15:56:43.93	102.47	44.70	-32.6	-33.2	27.9	0.00e+00	0	42	0	2345664512	38	5858
2026-01-20 15:56:44.94	103.02	44.68	-32.7	-33.3	27.8	0.00e+00	0	42	0	2351955968	38	5940
2026-01-20 15:56:45.95	103.56	44.66	-32.6	-33.2	27.8	0.00e+00	0	42	0	2357198848	38	5873
2026-01-20 15:56:46.95	104.10	44.64	-32.8	-33.4	27.7	0.00e+00	0	42	0	2362441728	38	6017
2026-01-20 15:56:47.96	104.64	44.61	-32.9	-33.6	27.6	0.00e+00	0	42	0	2368733184	38	6113
2026-01-20 15:56:48.97	105.18	44.58	-32.8	-33.4	27.7	0.00e+00	0	42	0	2373976064	38	6024
2026-01-20 15:56:49.98	105.72	44.55	-32.6	-33.2	27.9	0.00e+00	0	42	0	2380267520	38	5881
2026-01-20 15:56:50.99	106.26	44.51	-32.5	-33.1	27.9	0.00e+00	0	42	0	2385510400	38	5774
2026-01-20 15:56:52.00	106.80	44.48	-32.5	-33.1	28.0	0.00e+00	0	42	0	2390753280	38	5813
2026-01-20 15:56:53.01	107.33	44.44	-32.8	-33.4	27.8	0.00e+00	0	42	0	2397044736	38	5991
2026-01-20 15:56:54.02	107.87	44.39	-32.9	-33.5	27.7	0.00e+00	0	42	0	2402287616	38	6071
2026-01-20 15:56:55.03	108.40	44.35	-32.7	-33.3	27.9	0.00e+00	0	42	0	2408579072	38	5945
2026-01-20 15:56:56.04	108.93	44.30	-32.4	-33.0	28.1	0.00e+00	0	42	0	2413821952	38	5696
2026-01-20 15:56:57.05	109.46	44.25	-32.5	-33.0	28.0	0.00e+00	0	42	0	2420113408	38	5759
2026-01-20 15:56:58.05	109.98	44.20	-32.7	-33.3	27.9	0.00e+00	0	42	0	2425356288	38	5913
2026-01-20 15:56:59.06	110.51	44.14	-32.6	-33.2	28.0	0.00e+00	0	42	0	2430599168	38	5894
2026-01-20 15:57:00.07	111.04	44.08	-32.6	-33.1	27.9	0.00e+00	0	42	0	2436890624	38	5828
2026-01-20 15:57:01.08	111.56	44.02	-32.6	-33.1	28.0	0.00e+00	0	42	0	2442133504	38	5805
2026-01-20 15:57:02.09	112.08	43.96	-32.6	-33.3	28.0	0.00e+00	0	42	0	2448424960	38	5899
2026-01-20 15:57:03.10	112.60	43.89	-32.3	-32.8	28.2	0.00e+00	0	42	0	2453667840	38	5620
2026-01-20 15:57:04.11	113.12	43.83	-32.2	-32.7	28.2	0.00e+00	0	42	0	2458910720	38	5531
2026-01-20 15:57:05.12	113.63	43.76	-32.4	-33.0	28.0	0.00e+00	0	42	0	2465202176	38	5734
2026-01-20 15:57:06.13	114.14	43.68	-32.7	-33.3	27.8	0.00e+00	0	42	0	2470445056	38	5957
2026-01-20 15:57:07.14	114.65	43.61	-32.4	-33.0	28.0	0.00e+00	0	42	0	2476736512	38	5740
2026-01-20 15:57:08.15	115.16	43.53	-32.1	-32.8	28.3	0.00e+00	0	42	0	2481979392	38	5567
2026-01-20 15:57:09.16	115.66	43.45	-32.1	-32.7	28.4	0.00e+00	0	42	0	2487222272	38	5510
2026-01-20 15:57:10.16	116.16	43.37	-32.1	-32.8	28.3	0.00e+00	0	42	0	2493513728	38	5602
2026-01-20 15:57:11.17	116.66	43.28	-32.2	-32.8	28.2	0.00e+00	0	42	0	2498756608	38	5592
2026-01-20 15:57:12.18	117.16	43.20	-32.2	-32.8	28.2	0.00e+00	0	42	0	2505048064	38	5597
2026-01-20 15:57:13.19	117.65	43.11	-32.3	-32.9	28.1	0.00e+00	0	42	0	2510290944	38	5642
2026-01-20 15:57:14.20	118.15	43.02	-32.5	-33.0	28.0	0.00e+00	0	42	0	2516582400	38	5749
2026-01-20 15:57:15.21	118.63	42.93	-32.8	-33.3	27.7	0.00e+00	0	42	0	2521825280	38	5960
2026-01-20 15:57:16.22	119.12	42.83	-32.8	-33.4	27.8	0.00e+00	0	42	0	2528116736	38	5971
2026-01-20 15:57:17.23	119.60	42.73	-32.7	-33.4	27.8	0.00e+00	0	42	0	2533359616	38	5971
2026-01-20 15:57:18.24	120.09	42.63	-32.5	-33.0	28.0	0.00e+00	0	42	0	2538602496	38	5747
2026-01-20 15:57:19.25	120.56	42.53	-32.6	-33.3	28.0	0.00e+00	0	42	0	2544893952	38	5924
2026-01-20 15:57:20.26	121.04	42.43	-32.5	-33.2	27.9	0.00e+00	0	42	0	2550136832	38	5875
2026-01-20 15:57:21.27	121.51	42.33	-32.4	-33.0	28.1	0.00e+00	0	42	0	2556428288	38	5696
2026-01-20 15:57:22.28	121.98	42.22	-32.4	-33.1	28.0	0.00e+00	0	42	0	2561671168	38	5784
2026-01-20 15:57:23.29	122.44	42.11	-32.5	-33.1	28.0	0.00e+00	0	42	0	2566914048	38	5785
2026-01-20 15:57:24.30	122.91	42.00	-32.7	-33.2	27.9	0.00e+00	0	42	0	2573205504	38	5889
2026-01-20 15:57:25.31	123.37	41.89	-32.6	-33.2	27.9	0.00e+00	0	42	0	2578448384	38	5867
2026-01-20 15:57:26.32	123.82	41.78	-32.3	-32.9	28.0	0.00e+00	0	42	0	2584739840	38	5675
2026-01-20 15:57:27.33	124.28	41.66	-32.4	-33.1	28.1	0.00e+00	0	42	0	2589982720	38	5773
2026-01-20 15:57:28.34	124.73	41.55	-32.4	-33.0	28.1	0.00e+00	0	42	0	2595225600	38	5746
2026-01-20 15:57:29.35	125.17	41.43	-32.2	-32.8	28.3	0.00e+00	0	42	0	2601517056	38	5570
2026-01-20 15:57:30.36	125.62	41.31	-32.1	-32.6	28.3	0.00e+00	0	42	0	2606759936	38	5502
2026-01-20 15:57:31.37	126.06	41.19	-32.2	-32.7	28.3	0.00e+00	0	42	0	2613051392	38	5548
2026-01-20 15:57:32.38	126.49	41.07	-32.2	-32.9	28.2	0.00e+00	0	42	0	2618294272	38	5634
2026-01-20 15:57:33.39	126.93	40.94	-32.1	-32.8	28.3	0.00e+00	0	42	0	2624585728	38	5602
2026-01-20 15:57:34.40	127.36	40.82	-31.9	-32.6	28.4	0.00e+00	0	42	0	2629828608	38	5443
2026-01-20 15:57:35.41	127.78	40.69	-31.8	-32.4	28.5	0.00e+00	0	42	0	2635071488	38	5331
2026-01-20 15:57:36.42	128.21	40.56	-31.9	-32.6	28.5	0.00e+00	0	42	0	2641362944	36	6110
2026-01-20 15:57:37.43	128.63	40.43	-32.2	-32.7	28.3	0.00e+00	0	42	0	2646605824	36	6226
2026-01-20 15:57:38.44	129.05	40.30	-32.4	-33.0	28.0	0.00e+00	0	42	0	2652897280	36	6454
2026-01-20 15:57:39.45	129.46	40.17	-32.6	-33.3	28.0	0.00e+00	0	42	0	2658140160	36	6645
2026-01-20 15:57:40.46	129.87	40.04	-32.3	-32.9	28.1	0.00e+00	0	42	0	2663383040	36	6384
2026-01-20 15:57:41.47	130.28	39.91	-32.2	-32.9	28.3	0.00e+00	0	42	0	2669674496	36	6327
2026-01-20 15:57:42.48	130.68	39.77	-32.0	-32.5	28.4	0.00e+00	0	42	0	2674917376	36	6103
2026-01-20 15:57:43.49	131.08	39.64	-31.8	-32.4	28.6	0.00e+00	0	42	0	2681208832	36	6002
2026-01-20 15:57:44.49	131.48	39.50	-31.7	-32.3	28.7	0.00e+00	0	42	0	2686451712	36	5906
2026-01-20 15:57:45.51	131.88	39.36	-31.7	-32.3	28.6	0.00e+00	0	42	0	2691694592	36	5904
2026-01-20 15:57:46.52	132.27	39.22	-31.8	-32.4	28.5	0.00e+00	0	42	0	2697986048	36	6024
2026-01-20 15:57:47.53	132.65	39.08	-32.0	-32.5	28.5	0.00e+00	0	42	0	2703228928	36	6085
2026-01-20 15:57:48.54	133.04	38.94	-31.9	-32.6	28.4	0.00e+00	0	42	0	2709520384	36	6116
2026-01-20 15:57:49.55	133.42	38.80	-31.8	-32.5	28.5	0.00e+00	0	42	0	2714763264	36	6071
2026-01-20 15:57:50.55	133.79	38.66	-31.9	-32.6	28.4	0.00e+00	0	42	0	2721054720	36	6123
2026-01-20 15:57:51.56	134.17	38.52	-31.9	-32.6	28.3	0.00e+00	0	42	0	2726297600	36	6125
2026-01-20 15:57:52.57	134.54	38.38	-31.9	-32.5	28.4	0.00e+00	0	42	0	2732589056	36	6054
2026-01-20 15:57:53.58	134.91	38.23	-31.9	-32.5	28.5	0.00e+00	0	42	0	2737831936	36	6057
2026-01-20 15:57:54.59	135.27	38.09	-31.9	-32.5	28.4	0.00e+00	0	42	0	2743074816	36	6067
2026-01-20 15:57:55.60	135.64	37.94	-31.9	-32.4	28.4	0.00e+00	0	42	0	2749366272	36	6021
2026-01-20 15:57:56.61	135.99	37.80	-31.9	-32.5	28.5	0.00e+00	0	42	0	2754609152	36	6103
2026-01-20 15:57:57.62	136.35	37.65	-31.7	-32.4	28.5	0.00e+00	0	42	0	2760900608	36	5989
2026-01-20 15:57:58.63	136.70	37.50	-31.5	-32.1	28.7	0.00e+00	0	42	0	2766143488	36	5788
2026-01-20 15:57:59.64	137.05	37.35	-31.6	-32.3	28.6	0.00e+00	0	42	0	2771386368	36	5935
2026-01-20 15:58:00.63	137.39	37.21	-31.8	-32.4	28.4	0.00e+00	0	42	0	2777677824	36	5974
2026-01-20 15:58:01.64	137.73	37.06	-31.9	-32.6	28.3	0.00e+00	0	42	0	2782920704	36	6113
2026-01-20 15:58:02.65	138.07	36.91	-32.0	-32.5	28.4	0.00e+00	0	42	0	2788163584	36	6103
2026-01-20 15:58:03.66	138.41	36.76	-31.9	-32.4	28.4	0.00e+00	0	42	0	2794455040	36	6030
2026-01-20 15:58:04.67	138.75	36.61	-31.9	-32.6	28.4	0.00e+00	0	42	0	2799697920	36	6132
2026-01-20 15:58:05.68	139.08	36.46	-31.9	-32.5	28.6	0.00e+00	0	42	0	2805989376	36	6089
2026-01-20 15:58:06.69	139.40	36.31	-32.0	-32.7	28.2	0.00e+00	0	42	0	2811232256	36	6238
2026-01-20 15:58:07.70	139.73	36.16	-32.4	-33.0	28.1	0.00e+00	0	42	0	2817523712	36	6440
2026-01-20 15:58:08.71	140.05	36.01	-32.5	-33.2	27.9	0.00e+00	0	42	0	2822766592	36	6613
2026-01-20 15:58:09.72	140.37	35.86	-32.5	-33.1	28.0	0.00e+00	0	42	0	2829058048	36	6499
2026-01-20 15:58:10.73	140.69	35.70	-32.2	-32.7	28.1	0.00e+00	0	42	0	2834300928	36	6231
2026-01-20 15:58:11.74	141.00	35.55	-32.0	-32.7	28.2	0.00e+00	0	42	0	2839543808	36	6234
2026-01-20 15:58:12.75	141.31	35.40	-31.9	-32.6	28.1	0.00e+00	0	42	0	2845835264	36	6118
2026-01-20 15:58:13.76	141.62	35.25	-31.9	-32.4	28.2	0.00e+00	0	42	0	2851078144	36	6031
2026-01-20 15:58:14.77	141.92	35.10	-31.9	-32.5	28.1	0.00e+00	0	42	0	2857369600	36	6058
2026-01-20 15:58:15.78	142.23	34.94	-31.9	-32.4	28.0	0.00e+00	0	42	0	2862612480	36	6016
2026-01-20 15:58:16.79	142.52	34.79	-31.8	-32.4	28.3	0.00e+00	0	42	0	2867855360	36	5983
2026-01-20 15:58:17.80	142.82	34.64	-31.8	-32.3	28.3	0.00e+00	0	42	0	2874146816	36	5963
2026-01-20 15:58:18.81	143.12	34.48	-31.8	-32.5	28.3	0.00e+00	0	42	0	2879389696	36	6048
2026-01-20 15:58:19.82	143.41	34.33	-31.8	-32.5	27.8	0.00e+00	0	42	0	2885681152	36	6084
2026-01-20 15:58:20.83	143.70	34.18	-32.1	-32.8	28.0	0.00e+00	0	42	0	2890924032	36	6268
2026-01-20 15:58:21.84	143.98	34.03	-32.2	-32.7	28.2	0.00e+00	0	42	0	2896166912	36	6224
2026-01-20 15:58:22.85	144.26	33.87	-32.3	-32.9	28.0	0.00e+00	0	42	0	2902458368	36	6389
2026-01-20 15:58:23.86	144.54	33.72	-32.1	-32.8	28.2	0.00e+00	0	42	0	2907701248	36	6252
2026-01-20 15:58:24.87	144.82	33.57	-31.9	-32.6	28.4	0.00e+00	0	42	0	2913992704	36	6155
2026-01-20 15:58:25.88	145.10	33.41	-31.9	-32.4	28.3	0.00e+00	0	42	0	2919235584	36	6009
2026-01-20 15:58:26.89	145.37	33.26	-32.0	-32.5	28.2	0.00e+00	0	42	0	2925527040	36	6071
2026-01-20 15:58:27.90	145.64	33.11	-31.9	-32.5	28.3	0.00e+00	0	42	0	2930769920	36	6055
2026-01-20 15:58:28.91	145.91	32.95	-32.0	-32.7	28.2	0.00e+00	0	42	0	2936012800	36	6203
2026-01-20 15:58:29.92	146.18	32.80	-32.1	-32.7	28.2	0.00e+00	0	42	0	2942304256	36	6177
2026-01-20 15:58:30.93	146.44	32.65	-32.2	-32.9	28.1	0.00e+00	0	42	0	2947547136	36	6330
2026-01-20 15:58:31.94	146.70	32.50	-32.0	-32.7	28.3	0.00e+00	0	42	0	2953838592	36	6239
2026-01-20 15:58:32.95	146.96	32.34	-32.0	-32.6	28.3	0.00e+00	0	42	0	2959081472	36	6123
2026-01-20 15:58:33.96	147.21	32.19	-32.0	-32.6	28.2	0.00e+00	0	42	0	2964324352	36	6109
2026-01-20 15:58:34.97	147.47	32.04	-32.0	-32.5	28.3	0.00e+00	0	42	0	2970615808	36	6085
2026-01-20 15:58:35.98	147.72	31.89	-32.1	-32.7	28.2	0.00e+00	0	42	0	2975858688	36	6243
2026-01-20 15:58:36.99	147.97	31.74	-32.2	-32.7	28.1	0.00e+00	0	42	0	2982150144	36	6231
2026-01-20 15:58:38.01	148.22	31.58	-32.4	-33.1	28.0	0.00e+00	0	42	0	2987393024	36	6522
2026-01-20 15:58:39.02	148.46	31.43	-32.2	-32.7	28.2	0.00e+00	0	42	0	2993684480	36	6220
2026-01-20 15:58:40.03	148.70	31.28	-32.4	-33.1	28.1	0.00e+00	0	42	0	2998927360	36	6511
2026-01-20 15:58:41.04	148.94	31.13	-32.5	-33.0	27.9	0.00e+00	0	42	0	3004170240	36	6462
2026-01-20 15:58:42.05	149.18	30.98	-32.4	-32.9	27.9	0.00e+00	0	42	0	3010461696	36	6388
2026-01-20 15:58:43.06	149.42	30.83	-32.4	-32.9	28.1	0.00e+00	0	42	0	3015704576	36	6372
2026-01-20 15:58:44.07	149.65	30.68	-32.3	-33.0	28.0	0.00e+00	0	42	0	3021996032	36	6428
2026-01-20 15:58:45.08	149.88	30.53	-32.3	-32.9	28.1	0.00e+00	0	42	0	3027238912	36	6376
2026-01-20 15:58:46.09	150.11	30.38	-32.3	-33.0	28.0	0.00e+00	0	42	0	3033530368	36	6439
2026-01-20 15:58:47.10	150.34	30.23	-32.3	-32.8	28.0	0.00e+00	0	42	0	3038773248	36	6312
2026-01-20 15:58:48.11	150.56	30.08	-32.4	-32.9	28.0	0.00e+00	0	42	0	3044016128	36	6374
2026-01-20 15:58:49.12	150.79	29.93	-32.2	-32.9	28.1	0.00e+00	0	42	0	3050307584	36	6346
2026-01-20 15:58:50.13	151.01	29.78	-32.2	-32.9	28.1	0.00e+00	0	42	0	3055550464	36	6368
2026-01-20 15:58:51.14	151.23	29.64	-32.5	-33.1	27.9	0.00e+00	0	42	0	3061841920	36	6476
2026-01-20 15:58:52.15	151.44	29.49	-32.5	-33.1	27.9	0.00e+00	0	42	0	3067084800	36	6491
2026-01-20 15:58:53.16	151.66	29.34	-32.3	-33.0	28.0	0.00e+00	0	42	0	3072327680	36	6462
2026-01-20 15:58:54.17	151.87	29.19	-32.2	-32.8	28.1	0.00e+00	0	42	0	3078619136	36	6273
2026-01-20 15:58:55.17	152.08	29.05	-32.1	-32.8	28.2	0.00e+00	0	42	0	3083862016	36	6291
2026-01-20 15:58:56.18	152.29	28.90	-32.2	-32.9	28.1	0.00e+00	0	42	0	3090153472	36	6380
2026-01-20 15:58:57.19	152.50	28.76	-32.2	-32.7	28.1	0.00e+00	0	42	0	3095396352	36	6233
2026-01-20 15:58:58.20	152.71	28.61	-32.3	-33.0	28.0	0.00e+00	0	42	0	3100639232	36	6423
2026-01-20 15:58:59.21	152.91	28.47	-32.3	-33.0	28.0	0.00e+00	0	42	0	3106930688	36	6459
2026-01-20 15:59:00.22	153.11	28.32	-32.5	-33.2	27.9	0.00e+00	0	42	0	3112173568	36	6576
2026-01-20 15:59:01.23	153.31	28.18	-32.7	-33.4	27.8	0.00e+00	0	42	0	3118465024	36	6704
2026-01-20 15:59:02.24	153.51	28.03	-32.6	-33.1	27.8	0.00e+00	0	42	0	3123707904	36	6523
2026-01-20 15:59:03.25	153.71	27.89	-32.6	-33.1	27.8	0.00e+00	0	42	0	3129999360	36	6539
2026-01-20 15:59:04.26	153.91	27.75	-32.7	-33.4	27.7	0.00e+00	0	42	0	3135242240	36	6715
2026-01-20 15:59:05.27	154.10	27.60	-32.7	-33.3	27.7	0.00e+00	0	42	0	3141533696	36	6643
2026-01-20 15:59:06.28	154.29	27.46	-32.6	-33.2	27.8	0.00e+00	0	42	0	3146776576	38	5852
2026-01-20 15:59:07.28	154.48	27.32	-32.6	-33.3	27.8	0.00e+00	0	42	0	3152019456	38	5912
2026-01-20 15:59:08.29	154.67	27.18	-32.5	-33.2	27.9	0.00e+00	0	42	0	3158310912	38	5881
2026-01-20 15:59:09.30	154.86	27.04	-32.5	-33.1	27.8	0.00e+00	0	42	0	3163553792	38	5811
2026-01-20 15:59:10.31	155.04	26.90	-32.5	-33.2	27.8	0.00e+00	0	42	0	3168796672	38	5861
2026-01-20 15:59:11.32	155.23	26.76	-32.4	-32.9	28.0	0.00e+00	0	42	0	3175088128	38	5695
2026-01-20 15:59:12.33	155.41	26.62	-32.4	-33.1	27.9	0.00e+00	0	42	0	3180331008	38	5805
2026-01-20 15:59:13.34	155.59	26.48	-32.4	-33.0	27.9	0.00e+00	0	42	0	3186622464	38	5712
2026-01-20 15:59:14.35	155.77	26.34	-32.5	-33.2	27.8	0.00e+00	0	42	0	3191865344	38	5832
2026-01-20 15:59:15.36	155.95	26.20	-32.5	-33.2	27.9	0.00e+00	0	42	0	3197108224	38	5868
2026-01-20 15:59:16.37	156.12	26.06	-32.8	-33.5	27.7	0.00e+00	0	42	0	3203399680	38	6060
2026-01-20 15:59:17.38	156.30	25.92	-32.6	-33.3	27.7	0.00e+00	0	42	0	3208642560	38	5964
2026-01-20 15:59:18.39	156.47	25.79	-32.8	-33.5	27.6	0.00e+00	0	42	0	3214934016	38	6046
2026-01-20 15:59:19.40	156.64	25.65	-32.8	-33.5	27.6	0.00e+00	0	42	0	3220176896	38	6102
2026-01-20 15:59:20.41	156.81	25.51	-32.7	-33.4	27.6	0.00e+00	0	42	0	3226468352	38	6008
2026-01-20 15:59:21.42	156.98	25.38	-32.8	-33.4	27.5	0.00e+00	0	42	0	3231711232	38	5993
2026-01-20 15:59:22.43	157.15	25.24	-32.7	-33.3	27.8	0.00e+00	0	42	0	3238002688	38	5953
2026-01-20 15:59:23.43	157.31	25.11	-32.9	-33.6	27.6	0.00e+00	0	42	0	3243245568	38	6118
2026-01-20 15:59:24.45	157.48	24.97	-32.9	-33.6	27.5	0.00e+00	0	42	0	3248488448	38	6158
2026-01-20 15:59:25.46	157.64	24.84	-32.8	-33.5	27.6	0.00e+00	0	42	0	3254779904	38	6102
2026-01-20 15:59:26.47	157.81	24.70	-32.7	-33.2	27.7	0.00e+00	0	42	0	3260022784	38	5884
2026-01-20 15:59:27.48	157.97	24.57	-32.7	-33.4	27.6	0.00e+00	0	42	0	3266314240	38	6025
2026-01-20 15:59:28.49	158.13	24.44	-32.6	-33.3	27.7	0.00e+00	0	42	0	3271557120	38	5962
2026-01-20 15:59:29.50	158.28	24.30	-32.7	-33.3	27.7	0.00e+00	0	42	0	3276800000	38	5902
2026-01-20 15:59:30.51	158.44	24.17	-32.7	-33.3	27.7	0.00e+00	0	42	0	3283091456	38	5963
2026-01-20 15:59:31.52	158.60	24.04	-32.8	-33.5	27.5	0.00e+00	0	42	0	3288334336	38	6077
2026-01-20 15:59:32.53	158.75	23.91	-32.8	-33.3	27.6	0.00e+00	0	42	0	3294625792	38	5959
2026-01-20 15:59:33.54	158.90	23.78	-32.7	-33.4	27.7	0.00e+00	0	42	0	3299868672	38	5987
2026-01-20 15:59:34.55	159.06	23.65	-32.9	-33.6	27.5	0.00e+00	0	42	0	3305111552	38	6126
2026-01-20 15:59:35.56	159.21	23.52	-32.8	-33.3	27.6	0.00e+00	0	42	0	3311403008	38	5930
2026-01-20 15:59:36.57	159.36	23.39	-32.8	-33.4	27.6	0.00e+00	0	42	0	3316645888	38	5978
2026-01-20 15:59:37.58	159.50	23.26	-32.9	-33.6	27.5	0.00e+00	0	42	0	3322937344	38	6119
2026-01-20 15:59:38.59	159.65	23.13	-33.0	-33.7	27.5	0.00e+00	0	42	0	3328180224	38	6217
2026-01-20 15:59:39.60	159.80	23.00	-32.9	-33.6	27.5	0.00e+00	0	42	0	3334471680	38	6163
2026-01-20 15:59:40.61	159.94	22.88	-33.3	-34.0	27.1	0.00e+00	0	42	0	3339714560	38	6445
2026-01-20 15:59:41.62	160.09	22.75	-33.3	-34.1	27.2	0.00e+00	0	42	0	3346006016	38	6467
2026-01-20 15:59:42.63	160.23	22.62	-33.5	-34.2	27.1	0.00e+00	0	42	0	3351248896	38	6560
2026-01-20 15:59:43.64	160.37	22.50	-33.4	-34.2	27.1	0.00e+00	0	42	0	3356491776	38	6544
2026-01-20 15:59:44.65	160.51	22.37	-33.4	-34.1	27.1	0.00e+00	0	42	0	3362783232	38	6517
2026-01-20 15:59:45.66	160.65	22.25	-33.3	-33.9	27.1	0.00e+00	0	42	0	3368026112	38	6364
2026-01-20 15:59:46.67	160.79	22.12	-33.3	-33.9	27.1	0.00e+00	0	42	0	3374317568	38	6373
2026-01-20 15:59:47.68	160.92	22.00	-33.3	-33.8	27.1	0.00e+00	0	42	0	3379560448	38	6306
2026-01-20 15:59:48.69	161.06	21.87	-33.2	-33.8	27.2	0.00e+00	0	42	0	3384803328	38	6262
2026-01-20 15:59:49.70	161.20	21.75	-33.3	-33.8	27.1	0.00e+00	0	42	0	3391094784	38	6307
2026-01-20 15:59:50.71	161.33	21.63	-33.2	-33.9	27.2	0.00e+00	0	42	0	3396337664	38	6341
2026-01-20 15:59:51.72	161.46	21.50	-33.2	-33.9	27.2	0.00e+00	0	42	0	3402629120	38	6371
2026-01-20 15:59:52.73	161.59	21.38	-33.2	-33.9	27.2	0.00e+00	0	42	0	3407872000	38	6350
2026-01-20 15:59:53.74	161.73	21.26	-33.2	-33.9	27.3	0.00e+00	0	42	0	3413114880	38	6338
2026-01-20 15:59:54.75	161.86	21.14	-33.3	-34.0	27.2	0.00e+00	0	42	0	3419406336	38	6444
2026-01-20 15:59:55.76	161.98	21.02	-33.3	-33.9	27.1	0.00e+00	0	42	0	3424649216	38	6358
2026-01-20 15:59:56.77	162.11	20.90	-33.4	-34.0	27.1	0.00e+00	0	42	0	3430940672	38	6408
2026-01-20 15:59:57.78	162.24	20.78	-33.5	-34.1	27.0	0.00e+00	0	42	0	3436183552	38	6489
2026-01-20 15:59:58.79	162.37	20.66	-33.5	-34.2	27.0	0.00e+00	0	42	0	3442475008	38	6573
2026-01-20 15:59:59.80	162.49	20.54	-33.6	-34.1	26.9	0.00e+00	0	42	0	3447717888	38	6515
2026-01-20 16:00:00.81	162.61	20.42	-33.4	-34.1	27.1	0.00e+00	0	42	0	3452960768	38	6492
2026-01-20 16:00:01.82	162.74	20.30	-33.5	-34.2	27.0	0.00e+00	0	42	0	3459252224	38	6559
2026-01-20 16:00:02.83	162.86	20.18	-33.6	-34.2	26.9	0.00e+00	0	42	0	3464495104	38	6540
2026-01-20 16:00:03.84	162.98	20.07	-33.6	-34.1	26.9	0.00e+00	0	42	0	3470786560	38	6521
2026-01-20 16:00:04.85	163.10	19.95	-33.6	-34.3	26.9	0.00e+00	0	42	0	3476029440	38	6687
2026-01-20 16:00:05.86	163.22	19.83	-33.6	-34.3	26.9	0.00e+00	0	42	0	3481272320	38	6677
2026-01-20 16:00:06.86	163.34	19.72	-33.6	-34.1	26.9	0.00e+00	0	42	0	3487563776	38	6525
2026-01-20 16:00:07.87	163.46	19.60	-33.7	-34.3	26.8	0.00e+00	0	42	0	3492806656	38	6678
2026-01-20 16:00:08.88	163.57	19.49	-33.8	-34.6	26.7	0.00e+00	0	42	0	3499098112	40	6109
2026-01-20 16:00:09.89	163.69	19.37	-33.7	-34.2	26.9	0.00e+00	0	42	0	3504340992	40	5877
2026-01-20 16:00:10.90	163.81	19.26	-33.8	-34.3	26.8	0.00e+00	0	42	0	3509583872	40	5950
2026-01-20 16:00:11.91	163.92	19.14	-33.8	-34.5	26.7	0.00e+00	0	42	0	3515875328	40	6061
2026-01-20 16:00:12.92	164.03	19.03	-34.1	-34.8	26.5	0.00e+00	0	42	0	3521118208	40	6270
2026-01-20 16:00:13.92	164.15	18.92	-34.0	-34.7	26.6	0.00e+00	0	42	0	3527409664	40	6205
2026-01-20 16:00:14.94	164.26	18.80	-34.2	-34.9	26.4	0.00e+00	0	42	0	3532652544	40	6353
2026-01-20 16:00:15.95	164.37	18.69	-34.2	-35.0	26.3	0.00e+00	0	42	0	3538944000	40	6398
2026-01-20 16:00:16.96	164.48	18.58	-34.1	-34.6	26.5	0.00e+00	0	42	0	3544186880	40	6172
2026-01-20 16:00:17.97	164.59	18.47	-34.2	-34.8	26.5	0.00e+00	0	42	0	3550478336	40	6250
2026-01-20 16:00:18.97	164.70	18.36	-34.1	-34.8	26.6	0.00e+00	0	42	0	3555721216	40	6286
2026-01-20 16:00:19.98	164.81	18.25	-34.3	-34.9	26.2	0.00e+00	0	42	0	3560964096	40	6377
2026-01-20 16:00:21.00	164.92	18.14	-34.5	-35.0	26.1	0.00e+00	0	42	0	3567255552	40	6461
2026-01-20 16:00:22.00	165.02	18.03	-34.2	-34.7	26.4	0.00e+00	0	42	0	3572498432	40	6244
2026-01-20 16:00:23.02	165.13	17.92	-34.3	-34.9	26.4	0.00e+00	0	42	0	3578789888	40	6338
2026-01-20 16:00:24.02	165.23	17.81	-34.0	-34.5	26.5	0.00e+00	0	42	0	3584032768	40	6090
2026-01-20 16:00:25.03	165.34	17.70	-34.1	-34.7	26.4	0.00e+00	0	42	0	3589275648	40	6176
2026-01-20 16:00:26.04	165.44	17.59	-34.1	-34.7	26.3	0.00e+00	0	42	0	3595567104	40	6207
2026-01-20 16:00:27.05	165.54	17.48	-34.1	-34.8	26.5	0.00e+00	0	42	0	3600809984	40	6264
2026-01-20 16:00:28.06	165.65	17.38	-34.4	-35.1	26.3	0.00e+00	0	42	0	3606052864	40	6502
2026-01-20 16:00:29.07	165.75	17.27	-34.4	-35.1	26.3	0.00e+00	0	42	0	3612344320	40	6536
2026-01-20 16:00:30.08	165.85	17.16	-34.8	-35.4	25.9	0.00e+00	0	42	0	3617587200	42	5995
2026-01-20 16:00:31.09	165.95	17.06	-34.6	-35.1	26.1	0.00e+00	0	42	0	3623878656	42	5812
2026-01-20 16:00:32.10	166.05	16.95	-34.6	-35.4	26.1	0.00e+00	0	42	0	3629121536	42	5968
2026-01-20 16:00:33.11	166.15	16.84	-34.6	-35.3	25.9	0.00e+00	0	42	0	3635412992	42	5947
2026-01-20 16:00:34.12	166.25	16.74	-34.6	-35.3	26.0	0.00e+00	0	42	0	3640655872	42	5934
2026-01-20 16:00:35.13	166.35	16.63	-34.9	-35.6	25.7	0.00e+00	0	42	0	3646947328	42	6171
