passes_logs/2026/01/20/R4.6S_Anadyr/R4.6S_Anadyr__20260120_024747_SUOMI_NPP_rec.log

#Pass ID: 20260120_024747_SUOMI NPP
#Satellite: SUOMI NPP
#Configuration: NPP
#almurnet v.1.7.20251203
#Start time: 2026-01-20 02:47:50

#Version: 2.2.20231116
#Station: R4.6S_Anadyr
#Location: 177.4865 lon 64.73178 lat
#TLE: 1 37849U 11061A   26019.26265094  .00000081  00000+0  59609-4 0  9993
#TLE: 2 37849  98.7817 321.2746 0002356  56.2510 303.8890 14.19526363737315

#Time	Az	El	Level	Level2	SNR	BER	BlckErr	Temp	State	Recorded	gain1	gain2
2026-01-20 02:47:50.81	222.49	0.14	-53.9	-67.7	3.3	1.54e+00	0	41	0	0	60	87360
2026-01-20 02:47:51.82	222.57	0.19	-53.6	-68.9	3.6	1.51e+00	0	41	104	0	60	100562
2026-01-20 02:47:52.83	222.65	0.24	-53.3	-68.6	3.6	1.51e+00	0	41	104	0	60	96943
2026-01-20 02:47:53.84	222.73	0.28	-52.5	-67.7	3.6	1.51e+00	0	41	104	0	60	87919
2026-01-20 02:47:54.85	222.81	0.33	-51.6	-66.9	3.6	1.51e+00	0	41	104	0	60	79924
2026-01-20 02:47:55.86	222.89	0.38	-51.4	-66.6	3.6	1.51e+00	0	41	104	0	60	77574
2026-01-20 02:47:56.87	222.97	0.43	-52.3	-67.6	3.6	1.51e+00	0	41	104	0	60	86480
2026-01-20 02:47:57.88	223.05	0.48	-52.7	-67.9	3.6	1.51e+00	0	41	104	0	60	89965
2026-01-20 02:47:58.89	223.13	0.53	-52.8	-68.0	3.6	1.51e+00	0	41	104	0	60	90498
2026-01-20 02:47:59.90	223.21	0.58	-52.7	-68.1	3.6	1.51e+00	0	41	104	0	60	91741
2026-01-20 02:48:00.91	223.29	0.63	-53.2	-68.6	3.6	1.51e+00	0	41	104	0	60	96840
2026-01-20 02:48:01.92	223.37	0.68	-52.9	-68.3	3.6	1.51e+00	0	41	104	0	60	93485
2026-01-20 02:48:02.93	223.45	0.72	-52.1	-67.4	3.6	1.51e+00	0	41	104	0	60	84685
2026-01-20 02:48:03.94	223.54	0.77	-52.3	-67.5	3.6	1.51e+00	0	41	104	0	60	85993
2026-01-20 02:48:04.95	223.62	0.82	-52.3	-67.5	3.6	1.51e+00	0	41	104	0	60	85930
2026-01-20 02:48:05.96	223.70	0.87	-51.4	-66.9	3.6	1.51e+00	0	41	104	0	60	80240
2026-01-20 02:48:06.97	223.78	0.92	-51.8	-67.6	3.6	1.51e+00	0	41	104	0	60	86422
2026-01-20 02:48:07.98	223.86	0.97	-52.3	-67.9	3.6	1.51e+00	0	41	104	0	60	89688
2026-01-20 02:48:08.99	223.95	1.02	-52.6	-68.0	3.6	1.51e+00	0	41	104	0	60	90914
2026-01-20 02:48:10.00	224.03	1.07	-52.5	-67.8	3.6	1.51e+00	0	41	104	0	60	88328
2026-01-20 02:48:11.01	224.11	1.12	-51.7	-66.8	3.6	1.51e+00	0	41	104	0	60	79220
2026-01-20 02:48:12.02	224.20	1.17	-51.0	-66.1	3.6	1.51e+00	0	41	104	0	60	73029
2026-01-20 02:48:13.03	224.28	1.22	-50.4	-65.5	3.6	1.51e+00	0	41	104	0	60	67750
2026-01-20 02:48:14.04	224.37	1.27	-49.0	-64.1	3.6	1.51e+00	0	41	104	0	60	58208
2026-01-20 02:48:15.05	224.45	1.32	-48.6	-63.8	3.6	1.51e+00	0	41	104	0	60	55910
2026-01-20 02:48:16.06	224.53	1.37	-48.5	-63.7	3.6	1.51e+00	0	41	104	0	60	55186
2026-01-20 02:48:17.07	224.62	1.42	-48.6	-63.8	3.6	1.51e+00	0	41	104	0	60	55719
2026-01-20 02:48:18.08	224.70	1.47	-49.1	-64.2	3.6	1.51e+00	0	41	104	0	60	58890
2026-01-20 02:48:19.09	224.79	1.52	-49.5	-64.7	3.6	1.51e+00	0	41	104	0	60	61797
2026-01-20 02:48:20.10	224.88	1.57	-49.4	-64.7	3.6	1.51e+00	0	41	104	0	60	62082
2026-01-20 02:48:21.11	224.96	1.62	-49.4	-64.6	3.6	1.51e+00	0	41	104	0	60	61677
2026-01-20 02:48:22.12	225.05	1.67	-49.3	-64.4	3.6	1.51e+00	0	41	104	0	60	60305
2026-01-20 02:48:23.13	225.14	1.71	-49.5	-64.7	3.6	1.51e+00	0	41	104	0	60	61744
2026-01-20 02:48:24.14	225.22	1.76	-49.3	-64.5	3.6	1.51e+00	0	41	104	0	60	60507
2026-01-20 02:48:25.15	225.31	1.81	-48.9	-64.1	3.6	1.51e+00	0	41	104	0	60	57824
2026-01-20 02:48:26.16	225.40	1.86	-49.2	-64.5	3.6	1.51e+00	0	41	104	0	60	60396
2026-01-20 02:48:27.17	225.48	1.91	-49.1	-64.3	3.6	1.51e+00	0	41	104	0	60	59137
2026-01-20 02:48:28.18	225.57	1.96	-48.8	-63.9	3.6	1.51e+00	0	41	104	0	60	56614
2026-01-20 02:48:29.19	225.66	2.01	-48.6	-63.8	3.6	1.51e+00	0	41	104	0	60	55823
2026-01-20 02:48:30.20	225.75	2.06	-48.7	-63.9	3.6	1.51e+00	0	41	104	0	60	56517
2026-01-20 02:48:31.21	225.84	2.11	-48.7	-63.8	3.6	1.51e+00	0	41	104	0	60	56082
2026-01-20 02:48:32.22	225.93	2.17	-48.5	-63.5	3.6	1.51e+00	0	41	104	0	60	54124
2026-01-20 02:48:33.23	226.02	2.22	-48.4	-63.6	3.6	1.51e+00	0	41	104	0	60	54862
2026-01-20 02:48:34.24	226.11	2.27	-48.4	-63.6	3.6	1.51e+00	0	41	104	0	60	54786
2026-01-20 02:48:35.25	226.20	2.32	-48.4	-63.6	3.6	1.51e+00	0	41	104	0	60	54460
2026-01-20 02:48:36.26	226.29	2.37	-48.7	-63.7	3.6	1.51e+00	0	41	104	0	60	55264
2026-01-20 02:48:37.27	226.38	2.42	-48.7	-63.5	3.6	1.51e+00	0	41	104	0	60	54214
2026-01-20 02:48:38.28	226.47	2.47	-48.7	-63.5	3.6	1.51e+00	0	41	104	0	60	54262
2026-01-20 02:48:39.29	226.56	2.52	-48.5	-62.8	3.6	1.51e+00	0	41	104	0	60	49666
2026-01-20 02:48:40.30	226.65	2.57	-48.5	-62.7	3.6	1.51e+00	0	41	104	0	60	49537
2026-01-20 02:48:41.31	226.74	2.62	-48.6	-62.6	3.6	1.51e+00	0	41	104	0	60	48617
2026-01-20 02:48:42.32	226.84	2.67	-48.5	-61.1	3.8	1.50e+00	0	41	104	0	60	40855
2026-01-20 02:48:43.33	226.93	2.72	-48.3	-57.3	5.1	9.47e-01	0	41	0	0	60	26338
2026-01-20 02:48:44.34	227.02	2.77	-48.1	-56.7	5.1	7.37e-01	0	41	0	2097152	60	24791
2026-01-20 02:48:45.35	227.11	2.82	-48.0	-55.4	6.3	3.77e-01	0	41	0	4194304	60	21390
2026-01-20 02:48:46.36	227.21	2.87	-48.0	-56.1	5.5	2.00e-01	0	41	0	6291456	60	23188
2026-01-20 02:48:47.37	227.30	2.92	-47.4	-53.6	8.2	3.93e-02	0	41	0	7340032	60	17248
2026-01-20 02:48:48.38	227.39	2.97	-47.9	-56.9	4.7	4.02e-01	0	41	0	9437184	60	25232
2026-01-20 02:48:49.39	227.49	3.02	-47.6	-54.2	7.6	3.30e-01	0	41	0	11534336	60	18498
2026-01-20 02:48:50.40	227.58	3.07	-48.5	-61.7	3.7	1.51e+00	0	41	104	11534336	60	43840
2026-01-20 02:48:51.41	227.68	3.12	-47.9	-56.9	5.7	9.68e-01	0	41	104	11534336	60	25186
2026-01-20 02:48:52.42	227.77	3.18	-48.5	-62.7	3.6	1.45e+00	0	41	104	11534336	60	49107
2026-01-20 02:48:53.43	227.87	3.23	-48.6	-61.6	3.9	1.51e+00	0	41	104	11534336	60	43358
2026-01-20 02:48:54.44	227.96	3.28	-48.0	-54.9	7.6	7.57e-02	0	41	104	11534336	60	20209
2026-01-20 02:48:55.45	228.06	3.33	-47.8	-53.7	8.7	2.77e-01	0	41	0	12582912	60	17506
2026-01-20 02:48:56.46	228.16	3.38	-48.4	-55.7	6.4	1.19e-01	0	41	0	14680064	60	21982
2026-01-20 02:48:57.47	228.25	3.43	-48.8	-56.4	6.5	2.28e-01	0	41	0	16777216	60	23819
2026-01-20 02:48:58.48	228.35	3.48	-47.9	-53.3	9.1	8.36e-02	0	41	0	18874368	60	16784
2026-01-20 02:48:59.49	228.45	3.53	-48.7	-56.3	6.3	5.91e-02	0	41	0	19922944	60	23739
2026-01-20 02:49:00.49	228.55	3.58	-47.9	-52.8	10.4	2.86e-02	0	41	0	22020096	60	15712
2026-01-20 02:49:01.50	228.64	3.63	-48.6	-55.9	6.9	1.26e-01	0	41	0	24117248	60	22617
2026-01-20 02:49:02.51	228.74	3.68	-48.1	-54.7	6.5	2.42e-02	0	41	0	26214400	60	19709
2026-01-20 02:49:03.53	228.84	3.74	-48.2	-54.8	7.4	1.23e-01	0	42	0	28311552	60	19787
2026-01-20 02:49:04.54	228.94	3.79	-48.0	-54.2	8.2	4.37e-02	0	41	0	29360128	60	18559
2026-01-20 02:49:05.54	229.04	3.84	-48.3	-54.9	7.5	7.86e-02	0	42	0	31457280	60	20170
2026-01-20 02:49:06.55	229.14	3.89	-48.6	-55.7	6.9	1.46e-01	0	42	0	33554432	60	21918
2026-01-20 02:49:07.56	229.24	3.94	-48.4	-54.7	8.0	1.11e-01	0	42	0	35651584	60	19718
2026-01-20 02:49:08.57	229.34	3.99	-48.9	-56.3	6.4	1.02e-01	0	41	0	37748736	60	23578
2026-01-20 02:49:09.59	229.44	4.04	-48.6	-55.8	6.8	2.08e-01	0	42	0	38797312	60	22396
2026-01-20 02:49:10.59	229.54	4.09	-48.8	-56.3	6.4	1.89e-01	0	42	0	40894464	60	23473
2026-01-20 02:49:11.60	229.64	4.15	-48.6	-56.0	6.6	3.28e-01	0	42	0	42991616	60	22693
2026-01-20 02:49:12.61	229.74	4.20	-48.4	-54.7	7.9	1.05e-01	0	41	0	45088768	60	19686
2026-01-20 02:49:13.62	229.85	4.25	-48.6	-55.8	6.8	2.03e-01	0	42	0	47185920	60	22401
2026-01-20 02:49:14.63	229.95	4.30	-48.3	-54.5	8.1	1.41e-01	0	42	0	48234496	60	19271
2026-01-20 02:49:15.64	230.05	4.35	-48.5	-55.6	7.0	9.09e-02	0	42	0	50331648	60	21779
2026-01-20 02:49:16.65	230.15	4.40	-48.6	-55.2	7.4	1.19e-01	0	42	0	52428800	60	20840
2026-01-20 02:49:17.66	230.26	4.45	-48.8	-56.0	7.0	1.57e-01	0	42	0	54525952	60	22907
2026-01-20 02:49:18.67	230.36	4.51	-49.2	-56.4	7.0	2.22e-01	0	42	0	56623104	60	23812
2026-01-20 02:49:19.68	230.47	4.56	-49.0	-56.0	7.0	1.09e-01	0	42	0	58720256	60	22898
2026-01-20 02:49:20.69	230.57	4.61	-48.9	-56.1	6.8	1.98e-01	0	41	0	59768832	60	23039
2026-01-20 02:49:21.70	230.68	4.66	-48.7	-56.2	6.5	1.37e-01	0	42	0	61865984	60	23229
2026-01-20 02:49:22.71	230.78	4.71	-48.5	-55.9	6.5	2.25e-01	0	42	0	63963136	60	22421
2026-01-20 02:49:23.72	230.89	4.76	-48.4	-55.8	6.4	2.13e-01	0	42	0	66060288	60	22340
2026-01-20 02:49:24.73	230.99	4.82	-48.4	-55.6	6.7	2.01e-01	0	42	0	68157440	60	21782
2026-01-20 02:49:25.74	231.10	4.87	-48.6	-56.2	6.3	2.73e-01	0	42	0	69206016	60	23324
2026-01-20 02:49:26.75	231.21	4.92	-48.7	-56.4	5.9	3.41e-01	0	42	0	71303168	60	23861
2026-01-20 02:49:27.76	231.31	4.97	-48.7	-56.0	6.4	2.79e-01	0	42	0	73400320	60	22934
2026-01-20 02:49:28.77	231.42	5.02	-48.7	-56.2	6.3	2.75e-01	0	42	0	75497472	60	23347
2026-01-20 02:49:29.78	231.53	5.07	-48.7	-56.2	6.2	2.85e-01	0	42	0	76546048	60	23443
2026-01-20 02:49:30.79	231.64	5.13	-49.0	-57.2	5.6	3.26e-01	0	42	0	78643200	60	26195
2026-01-20 02:49:31.79	231.74	5.18	-49.1	-56.4	6.0	2.38e-01	0	42	0	80740352	60	24005
2026-01-20 02:49:32.80	231.85	5.23	-49.2	-56.3	6.8	2.22e-01	0	42	0	82837504	60	23736
2026-01-20 02:49:33.81	231.96	5.28	-49.3	-56.8	6.3	2.84e-01	0	42	0	84934656	60	24998
2026-01-20 02:49:34.82	232.07	5.33	-49.6	-56.9	6.7	2.76e-01	0	42	0	87031808	60	25302
2026-01-20 02:49:35.83	232.18	5.38	-50.3	-57.8	6.2	2.55e-01	0	42	0	88080384	60	28128
2026-01-20 02:49:36.84	232.29	5.44	-49.7	-56.8	6.8	1.97e-01	0	42	0	90177536	60	25000
2026-01-20 02:49:37.85	232.40	5.49	-49.6	-56.8	6.7	1.82e-01	0	42	0	92274688	60	25007
2026-01-20 02:49:38.86	232.51	5.54	-49.7	-56.9	6.7	1.68e-01	0	42	0	94371840	60	25421
2026-01-20 02:49:39.87	232.62	5.59	-49.8	-57.1	6.6	2.33e-01	0	42	0	96468992	60	25762
2026-01-20 02:49:40.88	232.74	5.64	-49.7	-57.0	6.9	2.18e-01	0	42	0	97517568	60	25517
2026-01-20 02:49:41.89	232.85	5.70	-49.5	-57.0	6.6	1.32e-01	0	42	0	99614720	60	25476
2026-01-20 02:49:42.90	232.96	5.75	-49.5	-57.1	6.2	1.60e-01	0	42	0	101711872	60	25949
2026-01-20 02:49:43.91	233.07	5.80	-49.3	-56.3	6.6	2.09e-01	0	42	0	103809024	60	23652
2026-01-20 02:49:44.92	233.19	5.85	-49.9	-56.8	7.2	1.78e-01	0	42	0	105906176	60	25079
2026-01-20 02:49:45.94	233.30	5.90	-49.7	-55.9	8.3	6.90e-02	0	42	0	106954752	60	22435
2026-01-20 02:49:46.94	233.42	5.96	-49.4	-55.7	8.0	6.12e-02	0	42	0	109051904	60	21967
2026-01-20 02:49:47.95	233.53	6.01	-49.5	-56.0	7.5	6.73e-02	0	42	0	111149056	60	22841
2026-01-20 02:49:48.97	233.65	6.06	-50.0	-57.1	6.9	1.25e-01	0	42	0	113246208	60	25940
2026-01-20 02:49:49.98	233.76	6.11	-49.9	-56.9	7.0	1.41e-01	0	42	0	115343360	60	25178
2026-01-20 02:49:50.99	233.88	6.16	-49.3	-55.6	7.9	1.26e-01	0	42	0	116391936	60	21737
2026-01-20 02:49:52.00	233.99	6.22	-49.3	-55.9	7.6	5.67e-02	0	42	0	118489088	60	22574
2026-01-20 02:49:53.01	234.11	6.27	-49.4	-55.9	7.8	7.62e-02	0	42	0	120586240	60	22488
2026-01-20 02:49:54.01	234.23	6.32	-49.7	-56.6	7.2	1.16e-01	0	42	0	122683392	60	24432
2026-01-20 02:49:55.02	234.34	6.37	-49.7	-56.3	7.9	1.05e-01	0	42	0	124780544	60	23486
2026-01-20 02:49:56.03	234.46	6.42	-49.3	-55.7	7.8	7.82e-02	0	42	0	126877696	60	22011
2026-01-20 02:49:57.04	234.58	6.48	-48.9	-55.2	8.0	4.63e-02	0	42	0	127926272	60	20815
2026-01-20 02:49:58.05	234.70	6.53	-49.9	-56.3	8.0	8.69e-02	0	42	0	130023424	60	23634
2026-01-20 02:49:59.06	234.82	6.58	-49.5	-55.5	8.5	3.73e-02	0	42	0	132120576	60	21473
2026-01-20 02:50:00.07	234.94	6.63	-49.6	-55.8	8.3	4.66e-02	0	42	0	134217728	60	22195
2026-01-20 02:50:01.08	235.06	6.68	-49.9	-56.2	8.3	6.05e-02	0	42	0	136314880	60	23236
2026-01-20 02:50:02.09	235.18	6.74	-49.4	-55.5	8.1	6.36e-02	0	42	0	137363456	60	21607
2026-01-20 02:50:03.10	235.30	6.79	-49.6	-55.9	8.1	5.21e-02	0	42	0	139460608	60	22664
2026-01-20 02:50:04.11	235.42	6.84	-49.2	-55.2	8.5	6.88e-02	0	42	0	141557760	60	20791
2026-01-20 02:50:05.12	235.54	6.89	-48.9	-55.0	8.3	4.11e-02	0	42	0	143654912	60	20268
2026-01-20 02:50:06.14	235.66	6.94	-48.8	-54.8	8.7	4.04e-02	0	42	0	145752064	60	19801
2026-01-20 02:50:07.15	235.79	7.00	-49.3	-55.2	8.7	3.55e-02	0	42	0	146800640	60	20791
2026-01-20 02:50:08.16	235.91	7.05	-49.2	-55.1	8.8	4.91e-02	0	42	0	148897792	60	20468
2026-01-20 02:50:09.17	236.03	7.10	-49.0	-55.0	8.7	3.24e-02	0	42	0	150994944	60	20262
2026-01-20 02:50:10.18	236.15	7.15	-49.2	-55.7	7.7	5.80e-02	0	42	0	153092096	60	21928
2026-01-20 02:50:11.19	236.28	7.20	-49.1	-55.6	7.7	7.22e-02	0	42	0	155189248	60	21687
2026-01-20 02:50:12.19	236.40	7.26	-49.1	-54.7	9.1	2.80e-02	0	42	0	156237824	60	19662
2026-01-20 02:50:13.20	236.53	7.31	-48.9	-54.4	9.4	2.13e-02	0	41	0	158334976	60	18969
2026-01-20 02:50:14.21	236.65	7.36	-48.9	-54.7	8.8	1.70e-02	0	41	0	160432128	60	19713
2026-01-20 02:50:15.22	236.78	7.41	-48.5	-53.7	9.8	1.29e-02	0	42	0	162529280	60	17543
2026-01-20 02:50:16.23	236.90	7.46	-48.3	-53.3	10.5	8.49e-03	0	42	0	164626432	60	16661
2026-01-20 02:50:17.24	237.03	7.52	-48.0	-52.6	11.2	2.26e-03	0	42	0	165675008	60	15338
2026-01-20 02:50:18.25	237.16	7.57	-48.3	-53.1	10.7	2.48e-03	0	42	0	167772160	60	16371
2026-01-20 02:50:19.26	237.29	7.62	-48.3	-53.3	10.4	4.09e-03	0	42	0	169869312	60	16809
2026-01-20 02:50:20.27	237.41	7.67	-48.2	-53.2	10.8	6.30e-03	0	42	0	171966464	60	16435
2026-01-20 02:50:21.28	237.54	7.72	-48.1	-52.3	11.8	9.63e-04	0	42	0	174063616	60	14971
2026-01-20 02:50:22.29	237.67	7.78	-48.4	-52.8	11.3	2.29e-04	0	42	0	175112192	60	15805
2026-01-20 02:50:23.30	237.80	7.83	-48.6	-53.1	11.8	1.53e-03	0	42	0	177209344	60	16397
2026-01-20 02:50:24.31	237.93	7.88	-47.2	-50.6	13.5	1.24e-04	0	42	0	179306496	60	12184
2026-01-20 02:50:25.32	238.06	7.93	-48.6	-52.7	12.3	3.74e-04	0	42	0	181403648	60	15648
2026-01-20 02:50:26.33	238.19	7.98	-47.7	-50.9	14.0	3.05e-05	0	42	0	183500800	60	12741
2026-01-20 02:50:27.34	238.32	8.04	-47.5	-50.6	14.4	7.00e-07	0	42	0	184549376	60	12248
2026-01-20 02:50:28.35	238.45	8.09	-48.4	-51.8	13.6	4.50e-06	0	42	0	186646528	60	14065
2026-01-20 02:50:29.36	238.58	8.14	-48.1	-51.4	13.7	2.20e-06	0	42	0	188743680	60	13463
2026-01-20 02:50:30.37	238.72	8.19	-47.8	-51.2	13.7	9.90e-06	0	42	0	190840832	60	13071
2026-01-20 02:50:31.38	238.85	8.24	-47.5	-50.5	14.6	3.80e-06	0	42	0	192937984	60	12091
2026-01-20 02:50:32.39	238.98	8.29	-47.5	-50.6	13.9	7.00e-07	0	42	0	195035136	60	12284
2026-01-20 02:50:33.40	239.12	8.35	-47.6	-50.9	14.4	1.37e-05	0	42	0	196083712	60	12666
2026-01-20 02:50:34.41	239.25	8.40	-47.1	-50.0	15.0	7.00e-07	0	42	0	198180864	60	11444
2026-01-20 02:50:35.42	239.38	8.45	-47.8	-51.0	13.1	1.50e-06	0	42	0	200278016	60	12769
2026-01-20 02:50:36.43	239.52	8.50	-47.5	-50.5	14.9	3.00e-06	0	42	0	202375168	60	12064
2026-01-20 02:50:37.44	239.66	8.55	-47.6	-50.6	14.2	1.50e-06	0	42	0	204472320	60	12260
2026-01-20 02:50:38.45	239.79	8.60	-46.9	-49.3	15.9	0.00e+00	0	42	0	205520896	60	10548
2026-01-20 02:50:39.46	239.93	8.66	-47.7	-50.3	15.3	0.00e+00	0	42	0	207618048	60	11833
2026-01-20 02:50:40.47	240.06	8.71	-47.6	-50.0	16.0	0.00e+00	0	42	0	209715200	60	11375
2026-01-20 02:50:41.48	240.20	8.76	-46.8	-48.9	16.9	0.00e+00	0	42	0	211812352	60	10073
2026-01-20 02:50:42.49	240.34	8.81	-47.1	-49.4	16.4	0.00e+00	0	41	0	213909504	60	10623
2026-01-20 02:50:43.50	240.48	8.86	-47.2	-49.5	16.3	0.00e+00	0	42	0	214958080	60	10851
2026-01-20 02:50:44.51	240.62	8.91	-46.9	-49.0	17.0	0.00e+00	0	42	0	217055232	60	10174
2026-01-20 02:50:45.51	240.75	8.96	-47.5	-49.7	16.2	0.00e+00	0	42	0	219152384	60	11106
2026-01-20 02:50:46.52	240.89	9.01	-46.8	-48.8	17.1	0.00e+00	0	42	0	221249536	60	10004
2026-01-20 02:50:47.53	241.03	9.07	-46.6	-48.6	17.4	0.00e+00	0	42	0	223346688	60	9715
2026-01-20 02:50:48.54	241.18	9.12	-47.1	-49.2	17.0	0.00e+00	0	42	0	224395264	60	10416
2026-01-20 02:50:49.55	241.32	9.17	-47.1	-49.2	17.0	0.00e+00	0	42	0	226492416	60	10386
2026-01-20 02:50:50.56	241.46	9.22	-46.2	-48.0	17.8	0.00e+00	0	42	0	228589568	60	9122
2026-01-20 02:50:51.57	241.60	9.27	-45.4	-47.2	18.2	0.00e+00	0	42	0	230686720	60	8267
2026-01-20 02:50:52.58	241.74	9.32	-45.2	-47.1	18.0	0.00e+00	0	42	0	232783872	60	8139
2026-01-20 02:50:53.59	241.89	9.37	-46.0	-47.8	17.6	0.00e+00	0	42	0	233832448	60	8922
2026-01-20 02:50:54.60	242.03	9.42	-45.9	-47.7	17.8	0.00e+00	0	42	0	235929600	60	8795
2026-01-20 02:50:55.61	242.17	9.47	-45.5	-47.3	18.0	0.00e+00	0	42	0	238026752	60	8377
2026-01-20 02:50:56.62	242.32	9.52	-44.7	-46.3	19.1	0.00e+00	0	41	0	240123904	60	7437
2026-01-20 02:50:57.63	242.46	9.57	-44.5	-46.0	19.2	0.00e+00	0	41	0	242221056	60	7238
2026-01-20 02:50:58.64	242.61	9.63	-44.0	-45.5	19.3	0.00e+00	0	42	0	243269632	60	6770
2026-01-20 02:50:59.65	242.75	9.68	-43.2	-44.6	19.8	0.00e+00	0	42	0	245366784	60	6130
2026-01-20 02:51:00.66	242.90	9.73	-43.3	-44.7	19.8	0.00e+00	0	42	0	247463936	60	6207
2026-01-20 02:51:01.67	243.05	9.78	-43.8	-45.3	19.2	0.00e+00	0	42	0	249561088	60	6656
2026-01-20 02:51:02.68	243.20	9.83	-43.2	-44.7	19.6	0.00e+00	0	42	0	251658240	60	6179
2026-01-20 02:51:03.69	243.34	9.88	-45.7	-47.4	19.7	0.00e+00	0	42	0	252706816	60	8471
2026-01-20 02:51:04.70	243.49	9.93	-44.6	-45.9	20.2	0.00e+00	0	42	0	254803968	60	7121
2026-01-20 02:51:05.71	243.64	9.98	-44.1	-45.5	19.9	0.00e+00	0	42	0	256901120	60	6774
2026-01-20 02:51:06.72	243.79	10.03	-44.0	-45.3	20.5	0.00e+00	0	42	0	258998272	60	6671
2026-01-20 02:51:07.73	243.94	10.08	-43.3	-44.6	20.5	0.00e+00	0	42	0	261095424	60	6108
2026-01-20 02:51:08.74	244.09	10.13	-43.0	-44.3	20.9	0.00e+00	0	42	0	263192576	58	6621
2026-01-20 02:51:09.75	244.24	10.18	-42.3	-43.5	21.1	0.00e+00	0	42	0	264241152	58	6040
2026-01-20 02:51:10.76	244.39	10.23	-41.9	-43.1	21.4	0.00e+00	0	42	0	266338304	58	5768
2026-01-20 02:51:11.77	244.54	10.28	-41.8	-42.9	21.2	0.00e+00	0	42	0	268435456	56	6387
2026-01-20 02:51:12.78	244.70	10.33	-41.7	-42.8	21.4	0.00e+00	0	41	0	270532608	56	6298
2026-01-20 02:51:13.79	244.85	10.38	-41.8	-42.9	21.4	0.00e+00	0	42	0	272629760	56	6380
2026-01-20 02:51:14.80	245.00	10.43	-41.8	-42.9	21.8	0.00e+00	0	42	0	273678336	56	6337
2026-01-20 02:51:15.80	245.16	10.48	-42.8	-44.0	21.3	0.00e+00	0	42	0	275775488	56	7179
2026-01-20 02:51:16.81	245.31	10.53	-42.6	-43.7	21.5	0.00e+00	0	42	0	277872640	58	6186
2026-01-20 02:51:17.82	245.47	10.57	-42.4	-43.5	21.9	0.00e+00	0	42	0	279969792	58	6073
2026-01-20 02:51:18.83	245.62	10.62	-41.9	-43.1	21.5	0.00e+00	0	41	0	282066944	56	6466
2026-01-20 02:51:19.84	245.78	10.67	-42.4	-43.6	21.5	0.00e+00	0	41	0	283115520	58	6105
2026-01-20 02:51:20.86	245.93	10.72	-42.6	-43.7	21.4	0.00e+00	0	42	0	285212672	58	6229
2026-01-20 02:51:21.87	246.09	10.77	-42.2	-43.4	21.5	0.00e+00	0	42	0	287309824	58	5983
2026-01-20 02:51:22.88	246.25	10.82	-41.7	-42.8	21.9	0.00e+00	0	41	0	289406976	56	6249
2026-01-20 02:51:23.89	246.41	10.87	-41.2	-42.3	21.9	0.00e+00	0	42	0	291504128	56	5907
2026-01-20 02:51:24.90	246.57	10.92	-40.6	-41.5	22.5	0.00e+00	0	42	0	292552704	54	6102
2026-01-20 02:51:25.91	246.72	10.97	-41.3	-42.3	22.3	0.00e+00	0	42	0	294649856	54	6662
2026-01-20 02:51:26.92	246.88	11.02	-40.9	-41.9	22.7	0.00e+00	0	42	0	296747008	54	6329
2026-01-20 02:51:27.93	247.04	11.06	-40.4	-41.3	22.9	0.00e+00	0	41	0	298844160	54	5938
2026-01-20 02:51:28.94	247.20	11.11	-40.6	-41.6	22.8	0.00e+00	0	42	0	300941312	54	6133
2026-01-20 02:51:29.95	247.37	11.16	-41.0	-42.0	22.6	0.00e+00	0	41	0	301989888	54	6449
2026-01-20 02:51:30.96	247.53	11.21	-41.3	-42.4	22.2	0.00e+00	0	42	0	304087040	54	6711
2026-01-20 02:51:31.97	247.69	11.26	-41.1	-42.2	22.2	0.00e+00	0	42	0	306184192	54	6556
2026-01-20 02:51:32.98	247.85	11.30	-40.6	-41.6	22.6	0.00e+00	0	42	0	308281344	54	6141
2026-01-20 02:51:33.99	248.01	11.35	-41.5	-42.5	22.0	0.00e+00	0	42	0	310378496	54	6834
2026-01-20 02:51:35.00	248.18	11.40	-41.4	-42.5	22.0	0.00e+00	0	42	0	311427072	54	6798
2026-01-20 02:51:36.01	248.34	11.45	-41.4	-42.4	21.9	0.00e+00	0	42	0	313524224	54	6759
2026-01-20 02:51:37.02	248.51	11.49	-40.9	-41.9	22.2	0.00e+00	0	42	0	315621376	54	6344
2026-01-20 02:51:38.03	248.67	11.54	-41.2	-42.3	22.1	0.00e+00	0	42	0	317718528	54	6625
2026-01-20 02:51:39.04	248.84	11.59	-40.8	-41.9	22.2	0.00e+00	0	42	0	319815680	54	6322
2026-01-20 02:51:40.05	249.00	11.64	-41.5	-42.5	22.2	0.00e+00	0	42	0	320864256	54	6809
2026-01-20 02:51:41.06	249.17	11.68	-41.4	-42.4	22.2	0.00e+00	0	42	0	322961408	54	6719
2026-01-20 02:51:42.07	249.34	11.73	-41.5	-42.5	22.1	0.00e+00	0	41	0	325058560	56	6088
2026-01-20 02:51:43.08	249.50	11.78	-42.1	-43.1	21.9	0.00e+00	0	41	0	327155712	56	6529
2026-01-20 02:51:44.09	249.67	11.82	-42.4	-43.6	21.8	0.00e+00	0	42	0	329252864	56	6849
2026-01-20 02:51:45.10	249.84	11.87	-41.9	-43.0	21.9	0.00e+00	0	42	0	331350016	56	6405
2026-01-20 02:51:46.11	250.01	11.91	-41.7	-42.7	22.5	0.00e+00	0	41	0	332398592	56	6204
2026-01-20 02:51:47.12	250.18	11.96	-41.6	-42.6	22.2	0.00e+00	0	41	0	334495744	56	6134
2026-01-20 02:51:48.13	250.35	12.01	-41.1	-42.1	22.5	0.00e+00	0	42	0	336592896	56	5775
2026-01-20 02:51:49.14	250.52	12.05	-41.3	-42.3	22.0	0.00e+00	0	42	0	338690048	56	5942
2026-01-20 02:51:50.15	250.69	12.10	-43.2	-44.4	20.9	0.00e+00	0	42	0	340787200	60	6000
2026-01-20 02:51:51.16	250.86	12.14	-43.3	-44.5	21.2	0.00e+00	0	42	0	341835776	60	6049
2026-01-20 02:51:52.17	251.04	12.19	-44.3	-45.7	20.2	0.00e+00	0	42	0	343932928	60	6942
2026-01-20 02:51:53.18	251.21	12.23	-43.5	-44.6	21.0	0.00e+00	0	42	0	346030080	60	6153
2026-01-20 02:51:54.19	251.38	12.28	-43.8	-44.9	21.6	0.00e+00	0	42	0	348127232	60	6367
2026-01-20 02:51:55.20	251.56	12.32	-43.3	-44.4	21.2	0.00e+00	0	42	0	350224384	60	6028
2026-01-20 02:51:56.21	251.73	12.37	-43.1	-44.2	22.1	0.00e+00	0	42	0	351272960	58	6602
2026-01-20 02:51:57.22	251.91	12.41	-42.4	-43.4	22.0	0.00e+00	0	42	0	353370112	58	6011
2026-01-20 02:51:58.23	252.08	12.46	-42.7	-43.7	22.3	0.00e+00	0	42	0	355467264	58	6201
2026-01-20 02:51:59.24	252.26	12.50	-41.8	-42.8	22.3	0.00e+00	0	42	0	357564416	58	5577
2026-01-20 02:52:00.25	252.43	12.55	-42.4	-43.4	21.8	0.00e+00	0	42	0	359661568	58	6016
2026-01-20 02:52:01.26	252.61	12.59	-42.3	-43.4	22.1	0.00e+00	0	42	0	360710144	58	5966
2026-01-20 02:52:02.27	252.79	12.63	-42.7	-43.8	21.9	0.00e+00	0	42	0	362807296	58	6291
2026-01-20 02:52:03.28	252.97	12.68	-42.8	-44.0	21.5	0.00e+00	0	42	0	364904448	58	6404
2026-01-20 02:52:04.28	253.14	12.72	-42.9	-44.0	21.7	0.00e+00	0	42	0	367001600	58	6426
2026-01-20 02:52:05.29	253.32	12.76	-42.8	-43.9	21.8	0.00e+00	0	42	0	369098752	58	6348
2026-01-20 02:52:06.30	253.50	12.81	-42.7	-43.8	21.7	0.00e+00	0	42	0	370147328	58	6311
2026-01-20 02:52:07.31	253.68	12.85	-42.7	-43.8	21.9	0.00e+00	0	42	0	372244480	58	6289
2026-01-20 02:52:08.32	253.86	12.89	-42.4	-43.5	21.8	0.00e+00	0	42	0	374341632	58	6043
2026-01-20 02:52:09.33	254.04	12.94	-42.2	-43.3	21.5	0.00e+00	0	42	0	376438784	58	5936
2026-01-20 02:52:10.34	254.22	12.98	-42.4	-43.5	21.9	0.00e+00	0	41	0	378535936	58	6042
2026-01-20 02:52:11.35	254.41	13.02	-42.1	-43.1	22.1	0.00e+00	0	41	0	379584512	58	5828
2026-01-20 02:52:12.36	254.59	13.06	-41.9	-43.0	21.8	0.00e+00	0	41	0	381681664	58	5732
2026-01-20 02:52:13.37	254.77	13.10	-42.3	-43.4	21.8	0.00e+00	0	42	0	383778816	58	5983
2026-01-20 02:52:14.38	254.95	13.15	-42.5	-43.6	21.8	0.00e+00	0	42	0	385875968	58	6107
2026-01-20 02:52:15.39	255.14	13.19	-42.1	-43.2	21.7	0.00e+00	0	42	0	387973120	58	5851
2026-01-20 02:52:16.40	255.32	13.23	-42.4	-43.5	21.3	0.00e+00	0	42	0	389021696	58	6060
2026-01-20 02:52:17.41	255.51	13.27	-43.1	-44.2	21.3	0.00e+00	0	42	0	391118848	58	6593
2026-01-20 02:52:18.42	255.69	13.31	-42.5	-43.7	21.4	0.00e+00	0	41	0	393216000	58	6179
2026-01-20 02:52:19.43	255.88	13.35	-43.3	-44.5	21.3	0.00e+00	0	42	0	395313152	58	6788
2026-01-20 02:52:20.44	256.07	13.39	-43.4	-44.5	21.1	0.00e+00	0	42	0	397410304	58	6847
2026-01-20 02:52:21.45	256.25	13.43	-43.4	-44.6	21.1	0.00e+00	0	41	0	399507456	58	6910
2026-01-20 02:52:22.46	256.44	13.47	-44.0	-45.3	20.9	0.00e+00	0	41	0	400556032	60	6624
2026-01-20 02:52:23.47	256.63	13.51	-44.2	-45.5	21.0	0.00e+00	0	42	0	402653184	60	6776
2026-01-20 02:52:24.48	256.82	13.55	-44.7	-46.0	20.2	0.00e+00	0	42	0	404750336	60	7198
2026-01-20 02:52:25.49	257.01	13.59	-44.6	-45.8	20.0	0.00e+00	0	42	0	406847488	60	7036
2026-01-20 02:52:26.50	257.19	13.63	-45.3	-46.7	20.3	0.00e+00	0	42	0	408944640	60	7827
2026-01-20 02:52:27.51	257.38	13.67	-45.2	-46.5	20.8	0.00e+00	0	42	0	409993216	60	7618
2026-01-20 02:52:28.52	257.57	13.71	-44.7	-45.9	20.7	0.00e+00	0	42	0	412090368	60	7133
2026-01-20 02:52:29.53	257.77	13.75	-44.3	-45.6	20.6	0.00e+00	0	42	0	414187520	60	6868
2026-01-20 02:52:30.54	257.96	13.78	-44.5	-45.8	20.1	0.00e+00	0	42	0	416284672	60	7054
2026-01-20 02:52:31.55	258.15	13.82	-44.4	-45.6	20.7	0.00e+00	0	42	0	418381824	60	6915
2026-01-20 02:52:32.56	258.34	13.86	-45.2	-46.6	19.2	0.00e+00	0	42	0	419430400	60	7721
2026-01-20 02:52:33.57	258.53	13.90	-45.5	-46.8	20.0	0.00e+00	0	42	0	421527552	60	7926
2026-01-20 02:52:34.58	258.73	13.93	-45.3	-46.7	20.0	0.00e+00	0	42	0	423624704	60	7824
2026-01-20 02:52:35.59	258.92	13.97	-44.9	-46.2	20.4	0.00e+00	0	42	0	425721856	60	7361
2026-01-20 02:52:36.60	259.11	14.01	-45.1	-46.5	19.9	0.00e+00	0	42	0	427819008	60	7651
2026-01-20 02:52:37.62	259.31	14.04	-44.8	-46.2	20.0	0.00e+00	0	42	0	428867584	60	7391
2026-01-20 02:52:38.62	259.50	14.08	-45.1	-46.4	19.6	0.00e+00	0	42	0	430964736	60	7574
2026-01-20 02:52:39.63	259.70	14.12	-45.5	-46.9	19.4	0.00e+00	0	42	0	433061888	60	8013
2026-01-20 02:52:40.64	259.90	14.15	-44.7	-46.1	19.9	0.00e+00	0	42	0	435159040	60	7312
2026-01-20 02:52:41.65	260.09	14.19	-45.7	-47.2	19.4	0.00e+00	0	42	0	437256192	60	8276
2026-01-20 02:52:42.66	260.29	14.22	-44.9	-46.2	20.2	0.00e+00	0	42	0	438304768	60	7402
2026-01-20 02:52:43.67	260.49	14.26	-44.0	-45.2	20.8	0.00e+00	0	42	0	440401920	60	6586
2026-01-20 02:52:44.69	260.69	14.29	-43.9	-45.1	20.7	0.00e+00	0	42	0	442499072	60	6505
2026-01-20 02:52:45.70	260.88	14.33	-44.0	-45.3	20.7	0.00e+00	0	42	0	444596224	60	6620
2026-01-20 02:52:46.71	261.08	14.36	-44.2	-45.4	20.7	0.00e+00	0	42	0	446693376	60	6755
2026-01-20 02:52:47.72	261.28	14.40	-44.0	-45.2	20.7	0.00e+00	0	42	0	447741952	60	6604
2026-01-20 02:52:48.73	261.48	14.43	-44.0	-45.3	20.4	0.00e+00	0	42	0	449839104	60	6646
2026-01-20 02:52:49.74	261.68	14.46	-44.1	-45.4	20.4	0.00e+00	0	41	0	451936256	60	6764
2026-01-20 02:52:50.75	261.88	14.50	-44.2	-45.5	20.5	0.00e+00	0	42	0	454033408	60	6794
2026-01-20 02:52:51.76	262.08	14.53	-44.5	-45.8	20.4	0.00e+00	0	42	0	456130560	60	7031
2026-01-20 02:52:52.77	262.28	14.56	-44.6	-45.9	20.7	0.00e+00	0	42	0	457179136	60	7128
2026-01-20 02:52:53.78	262.48	14.59	-43.7	-44.9	20.7	0.00e+00	0	42	0	459276288	60	6381
2026-01-20 02:52:54.79	262.69	14.63	-43.5	-44.7	20.7	0.00e+00	0	42	0	461373440	60	6243
2026-01-20 02:52:55.80	262.89	14.66	-42.7	-43.9	21.1	0.00e+00	0	42	0	463470592	60	5658
2026-01-20 02:52:56.81	263.09	14.69	-42.4	-43.6	21.2	0.00e+00	0	42	0	465567744	58	6117
2026-01-20 02:52:57.82	263.30	14.72	-42.4	-43.6	21.2	0.00e+00	0	42	0	467664896	58	6142
2026-01-20 02:52:58.83	263.50	14.75	-41.9	-43.0	21.7	0.00e+00	0	42	0	468713472	58	5747
2026-01-20 02:52:59.84	263.70	14.78	-42.0	-43.1	21.7	0.00e+00	0	41	0	470810624	58	5775
2026-01-20 02:53:00.85	263.91	14.81	-41.7	-42.8	21.9	0.00e+00	0	42	0	472907776	56	6276
2026-01-20 02:53:01.85	264.11	14.84	-41.4	-42.5	22.1	0.00e+00	0	42	0	475004928	56	6051
2026-01-20 02:53:02.86	264.32	14.87	-41.5	-42.5	22.2	0.00e+00	0	42	0	477102080	56	6062
2026-01-20 02:53:03.87	264.52	14.90	-42.6	-43.6	22.4	0.00e+00	0	42	0	478150656	56	6859
2026-01-20 02:53:04.89	264.73	14.93	-42.2	-43.1	22.7	0.00e+00	0	42	0	480247808	56	6536
2026-01-20 02:53:05.89	264.93	14.96	-42.2	-43.2	22.2	0.00e+00	0	42	0	482344960	56	6605
2026-01-20 02:53:06.90	265.14	14.99	-41.8	-42.7	22.5	0.00e+00	0	41	0	484442112	56	6243
2026-01-20 02:53:07.91	265.35	15.01	-41.9	-42.9	22.2	0.00e+00	0	41	0	486539264	56	6356
2026-01-20 02:53:08.92	265.56	15.04	-41.7	-42.7	22.4	0.00e+00	0	42	0	487587840	56	6185
2026-01-20 02:53:09.93	265.76	15.07	-42.0	-43.1	22.2	0.00e+00	0	42	0	489684992	56	6480
2026-01-20 02:53:10.94	265.97	15.10	-41.8	-42.8	22.5	0.00e+00	0	42	0	491782144	56	6269
2026-01-20 02:53:11.95	266.18	15.12	-41.6	-42.6	22.4	0.00e+00	0	42	0	493879296	56	6152
2026-01-20 02:53:12.96	266.39	15.15	-42.3	-43.3	22.1	0.00e+00	0	41	0	495976448	56	6670
2026-01-20 02:53:13.97	266.60	15.17	-42.8	-43.9	21.7	0.00e+00	0	42	0	497025024	56	7160
2026-01-20 02:53:14.98	266.81	15.20	-42.0	-43.0	21.8	0.00e+00	0	42	0	499122176	58	5758
2026-01-20 02:53:15.99	267.02	15.23	-42.4	-43.5	21.6	0.00e+00	0	42	0	501219328	56	6820
2026-01-20 02:53:17.00	267.23	15.25	-41.6	-42.7	22.1	0.00e+00	0	42	0	503316480	56	6177
2026-01-20 02:53:18.01	267.44	15.28	-41.5	-42.6	22.2	0.00e+00	0	42	0	505413632	56	6125
2026-01-20 02:53:19.02	267.65	15.30	-41.0	-42.0	22.3	0.00e+00	0	42	0	506462208	56	5741
2026-01-20 02:53:20.03	267.86	15.32	-41.2	-42.2	22.1	0.00e+00	0	42	0	508559360	56	5845
2026-01-20 02:53:21.04	268.08	15.35	-42.3	-43.3	21.5	0.00e+00	0	42	0	510656512	56	6681
2026-01-20 02:53:22.05	268.29	15.37	-42.7	-43.7	21.8	0.00e+00	0	42	0	512753664	56	6999
2026-01-20 02:53:23.06	268.50	15.39	-42.3	-43.4	21.8	0.00e+00	0	42	0	514850816	58	6025
2026-01-20 02:53:24.07	268.71	15.42	-42.4	-43.5	21.5	0.00e+00	0	42	0	515899392	58	6080
2026-01-20 02:53:25.08	268.93	15.44	-42.8	-43.9	21.5	0.00e+00	0	42	0	517996544	58	6363
2026-01-20 02:53:26.09	269.14	15.46	-42.8	-44.0	21.6	0.00e+00	0	42	0	520093696	60	5697
2026-01-20 02:53:27.10	269.35	15.48	-43.5	-44.7	20.9	0.00e+00	0	42	0	522190848	60	6228
2026-01-20 02:53:28.11	269.57	15.50	-43.6	-44.8	21.6	0.00e+00	0	41	0	524288000	60	6269
2026-01-20 02:53:29.13	269.78	15.53	-43.9	-45.1	21.3	0.00e+00	0	42	0	525336576	60	6473
2026-01-20 02:53:30.13	270.00	15.55	-44.8	-46.1	20.7	0.00e+00	0	42	0	527433728	60	7330
2026-01-20 02:53:31.14	270.21	15.57	-43.9	-45.1	20.9	0.00e+00	0	42	0	529530880	60	6516
2026-01-20 02:53:32.15	270.43	15.59	-44.7	-46.1	20.9	0.00e+00	0	42	0	531628032	60	7263
2026-01-20 02:53:33.17	270.64	15.61	-44.0	-45.2	21.1	0.00e+00	0	42	0	533725184	60	6593
2026-01-20 02:53:34.18	270.86	15.62	-43.9	-45.1	21.6	0.00e+00	0	42	0	535822336	60	6472
2026-01-20 02:53:35.19	271.07	15.64	-44.9	-46.3	21.3	0.00e+00	0	42	0	536870912	60	7464
2026-01-20 02:53:36.20	271.29	15.66	-44.5	-45.6	21.4	0.00e+00	0	42	0	538968064	60	6920
2026-01-20 02:53:37.21	271.51	15.68	-43.2	-44.3	21.4	0.00e+00	0	42	0	541065216	60	5939
2026-01-20 02:53:38.22	271.72	15.70	-43.7	-44.9	20.7	0.00e+00	0	42	0	543162368	60	6322
2026-01-20 02:53:39.23	271.94	15.71	-44.4	-45.8	20.4	0.00e+00	0	42	0	545259520	60	7028
2026-01-20 02:53:40.24	272.16	15.73	-45.0	-46.4	19.9	0.00e+00	0	42	0	546308096	60	7512
2026-01-20 02:53:41.25	272.37	15.75	-45.3	-46.7	19.7	0.00e+00	0	42	0	548405248	60	7811
2026-01-20 02:53:42.26	272.59	15.76	-44.5	-45.7	21.0	0.00e+00	0	42	0	550502400	60	6930
2026-01-20 02:53:43.27	272.81	15.78	-43.6	-44.7	21.5	0.00e+00	0	42	0	552599552	60	6205
2026-01-20 02:53:44.28	273.03	15.80	-42.8	-43.9	22.2	0.00e+00	0	42	0	554696704	60	5656
2026-01-20 02:53:45.29	273.25	15.81	-42.2	-43.2	22.3	0.00e+00	0	42	0	555745280	56	6557
2026-01-20 02:53:46.30	273.46	15.82	-42.5	-43.5	22.6	0.00e+00	0	41	0	557842432	56	6774
2026-01-20 02:53:47.31	273.68	15.84	-43.1	-44.2	22.3	0.00e+00	0	42	0	559939584	58	6550
2026-01-20 02:53:48.32	273.90	15.85	-43.0	-44.0	22.0	0.00e+00	0	41	0	562036736	58	6445
2026-01-20 02:53:49.33	274.12	15.87	-43.2	-44.3	21.4	0.00e+00	0	42	0	564133888	58	6645
2026-01-20 02:53:50.34	274.34	15.88	-43.9	-45.1	21.4	0.00e+00	0	41	0	565182464	60	6486
2026-01-20 02:53:51.35	274.56	15.89	-43.9	-45.0	21.8	0.00e+00	0	41	0	567279616	60	6435
2026-01-20 02:53:52.36	274.78	15.90	-42.9	-44.0	21.8	0.00e+00	0	41	0	569376768	60	5711
2026-01-20 02:53:53.37	275.00	15.92	-43.2	-44.2	22.4	0.00e+00	0	42	0	571473920	58	6606
2026-01-20 02:53:54.38	275.22	15.93	-42.4	-43.4	22.6	0.00e+00	0	42	0	573571072	58	5980
2026-01-20 02:53:55.38	275.44	15.94	-42.3	-43.3	22.5	0.00e+00	0	42	0	575668224	58	5948
2026-01-20 02:53:56.39	275.66	15.95	-42.0	-43.0	22.7	0.00e+00	0	42	0	576716800	58	5731
2026-01-20 02:53:57.40	275.88	15.96	-42.4	-43.5	22.1	0.00e+00	0	42	0	578813952	58	6066
2026-01-20 02:53:58.41	276.10	15.97	-42.3	-43.3	22.1	0.00e+00	0	42	0	580911104	58	5946
2026-01-20 02:53:59.42	276.32	15.98	-42.8	-43.8	22.1	0.00e+00	0	42	0	583008256	58	6310
2026-01-20 02:54:00.42	276.54	15.99	-42.3	-43.3	22.4	0.00e+00	0	42	0	584056832	58	5925
2026-01-20 02:54:01.43	276.76	16.00	-42.9	-43.9	22.1	0.00e+00	0	42	0	586153984	58	6377
2026-01-20 02:54:02.43	276.98	16.01	-42.6	-43.6	22.1	0.00e+00	0	42	0	588251136	58	6151
2026-01-20 02:54:03.45	277.20	16.01	-42.3	-43.4	22.2	0.00e+00	0	42	0	590348288	58	5983
2026-01-20 02:54:04.46	277.42	16.02	-42.5	-43.6	21.9	0.00e+00	0	42	0	592445440	58	6111
2026-01-20 02:54:05.47	277.64	16.03	-42.7	-43.8	21.6	0.00e+00	0	42	0	593494016	58	6271
2026-01-20 02:54:06.48	277.86	16.04	-43.1	-44.2	21.5	0.00e+00	0	42	0	595591168	58	6598
2026-01-20 02:54:07.49	278.09	16.04	-42.9	-44.0	21.6	0.00e+00	0	42	0	597688320	58	6415
2026-01-20 02:54:08.50	278.31	16.05	-42.9	-44.0	21.3	0.00e+00	0	41	0	599785472	58	6412
2026-01-20 02:54:09.51	278.53	16.05	-42.8	-43.9	21.5	0.00e+00	0	41	0	601882624	58	6361
2026-01-20 02:54:10.52	278.75	16.06	-42.3	-43.4	21.5	0.00e+00	0	41	0	603979776	58	5989
2026-01-20 02:54:11.53	278.97	16.06	-42.6	-43.8	21.5	0.00e+00	0	42	0	605028352	58	6253
2026-01-20 02:54:12.53	279.19	16.07	-43.0	-44.1	21.3	0.00e+00	0	42	0	607125504	58	6520
2026-01-20 02:54:13.54	279.41	16.07	-43.6	-44.8	20.9	0.00e+00	0	42	0	609222656	60	6292
2026-01-20 02:54:14.55	279.64	16.08	-43.7	-45.0	20.9	0.00e+00	0	42	0	611319808	60	6427
2026-01-20 02:54:15.56	279.86	16.08	-45.0	-46.4	19.4	0.00e+00	0	42	0	613416960	60	7551
2026-01-20 02:54:16.57	280.08	16.08	-44.6	-45.9	21.0	0.00e+00	0	42	0	614465536	60	7142
2026-01-20 02:54:17.58	280.30	16.08	-43.4	-44.6	21.5	0.00e+00	0	42	0	616562688	60	6108
2026-01-20 02:54:18.59	280.52	16.09	-43.2	-44.3	21.8	0.00e+00	0	42	0	618659840	60	5905
2026-01-20 02:54:19.59	280.74	16.09	-43.6	-44.7	21.7	0.00e+00	0	42	0	620756992	60	6218
2026-01-20 02:54:20.61	280.97	16.09	-43.3	-44.4	21.3	0.00e+00	0	42	0	622854144	60	6030
2026-01-20 02:54:21.61	281.19	16.09	-43.7	-44.9	21.2	0.00e+00	0	42	0	623902720	60	6346
2026-01-20 02:54:22.62	281.41	16.09	-43.5	-44.6	21.3	0.00e+00	0	42	0	625999872	60	6155
2026-01-20 02:54:23.64	281.63	16.09	-43.2	-44.4	20.8	0.00e+00	0	42	0	628097024	60	6027
2026-01-20 02:54:24.65	281.86	16.09	-42.6	-43.8	20.7	0.00e+00	0	42	0	630194176	58	6280
2026-01-20 02:54:25.66	282.08	16.09	-42.8	-43.9	22.0	0.00e+00	0	42	0	632291328	58	6348
2026-01-20 02:54:26.67	282.30	16.09	-43.2	-44.2	22.0	0.00e+00	0	42	0	633339904	58	6597
2026-01-20 02:54:27.68	282.52	16.08	-44.4	-45.6	21.1	0.00e+00	0	42	0	635437056	60	6920
2026-01-20 02:54:28.69	282.75	16.08	-43.3	-44.4	21.4	0.00e+00	0	42	0	637534208	60	6019
2026-01-20 02:54:29.70	282.97	16.08	-42.9	-44.1	20.8	0.00e+00	0	42	0	639631360	60	5806
2026-01-20 02:54:30.71	283.19	16.08	-43.3	-44.5	21.1	0.00e+00	0	42	0	641728512	60	6087
2026-01-20 02:54:31.72	283.41	16.07	-43.4	-44.5	21.8	0.00e+00	0	42	0	642777088	60	6055
2026-01-20 02:54:32.73	283.63	16.07	-43.0	-44.0	22.2	0.00e+00	0	42	0	644874240	60	5737
2026-01-20 02:54:33.74	283.85	16.07	-42.7	-43.7	22.0	0.00e+00	0	42	0	646971392	58	6240
2026-01-20 02:54:34.75	284.08	16.06	-41.3	-42.2	22.8	0.00e+00	0	42	0	649068544	56	5872
2026-01-20 02:54:35.76	284.30	16.06	-41.8	-42.8	22.5	0.00e+00	0	42	0	651165696	56	6292
2026-01-20 02:54:36.77	284.52	16.05	-42.7	-43.7	21.8	0.00e+00	0	42	0	652214272	58	6219
2026-01-20 02:54:37.78	284.74	16.04	-43.0	-44.1	22.0	0.00e+00	0	42	0	654311424	58	6469
2026-01-20 02:54:38.79	284.96	16.04	-43.3	-44.4	22.1	0.00e+00	0	42	0	656408576	58	6696
2026-01-20 02:54:39.80	285.18	16.03	-43.2	-44.2	22.0	0.00e+00	0	41	0	658505728	58	6577
2026-01-20 02:54:40.81	285.41	16.03	-42.8	-43.8	22.3	0.00e+00	0	42	0	660602880	58	6300
2026-01-20 02:54:41.82	285.63	16.02	-42.8	-43.8	22.4	0.00e+00	0	42	0	661651456	58	6279
2026-01-20 02:54:42.83	285.85	16.01	-42.3	-43.3	22.2	0.00e+00	0	42	0	663748608	58	5929
2026-01-20 02:54:43.84	286.07	16.00	-42.1	-43.1	22.3	0.00e+00	0	42	0	665845760	56	6507
2026-01-20 02:54:44.85	286.29	15.99	-42.5	-43.6	22.1	0.00e+00	0	41	0	667942912	56	6874
2026-01-20 02:54:45.86	286.51	15.98	-42.7	-43.8	22.1	0.00e+00	0	42	0	670040064	58	6261
2026-01-20 02:54:46.87	286.73	15.98	-42.9	-43.9	22.1	0.00e+00	0	42	0	672137216	58	6377
2026-01-20 02:54:47.88	286.95	15.97	-42.7	-43.7	22.2	0.00e+00	0	42	0	673185792	58	6244
2026-01-20 02:54:48.89	287.17	15.96	-43.2	-44.3	21.9	0.00e+00	0	42	0	675282944	58	6617
2026-01-20 02:54:49.90	287.39	15.94	-42.3	-43.3	22.5	0.00e+00	0	42	0	677380096	58	5951
2026-01-20 02:54:50.91	287.61	15.93	-43.0	-44.0	22.5	0.00e+00	0	42	0	679477248	58	6443
2026-01-20 02:54:51.92	287.83	15.92	-43.2	-44.2	22.2	0.00e+00	0	42	0	681574400	58	6555
2026-01-20 02:54:52.93	288.05	15.91	-43.9	-45.0	22.2	0.00e+00	0	41	0	682622976	60	6422
2026-01-20 02:54:53.94	288.27	15.90	-43.7	-44.8	20.6	0.00e+00	0	42	0	684720128	60	6258
2026-01-20 02:54:54.95	288.49	15.89	-44.6	-45.8	20.7	0.00e+00	0	42	0	686817280	60	7039
2026-01-20 02:54:55.96	288.71	15.87	-44.9	-46.1	21.4	0.00e+00	0	42	0	688914432	60	7277
2026-01-20 02:54:56.97	288.93	15.86	-44.5	-45.7	20.9	0.00e+00	0	41	0	691011584	60	6940
2026-01-20 02:54:57.98	289.14	15.85	-43.4	-44.5	21.5	0.00e+00	0	42	0	692060160	60	6100
2026-01-20 02:54:58.99	289.36	15.83	-42.7	-43.8	21.3	0.00e+00	0	41	0	694157312	60	5619
2026-01-20 02:55:00.00	289.58	15.82	-42.4	-43.5	21.9	0.00e+00	0	42	0	696254464	58	6043
2026-01-20 02:55:01.01	289.80	15.80	-42.5	-43.6	21.9	0.00e+00	0	42	0	698351616	58	6126
2026-01-20 02:55:02.02	290.02	15.79	-41.8	-42.8	22.4	0.00e+00	0	42	0	700448768	58	5589
2026-01-20 02:55:03.03	290.23	15.77	-41.3	-42.3	22.6	0.00e+00	0	42	0	701497344	56	5915
2026-01-20 02:55:04.04	290.45	15.76	-41.1	-42.1	22.6	0.00e+00	0	41	0	703594496	56	5794
2026-01-20 02:55:05.05	290.67	15.74	-41.4	-42.4	22.6	0.00e+00	0	41	0	705691648	56	6002
2026-01-20 02:55:06.06	290.89	15.72	-41.3	-42.3	22.5	0.00e+00	0	41	0	707788800	56	5950
2026-01-20 02:55:07.07	291.10	15.71	-41.8	-42.8	22.5	0.00e+00	0	42	0	709885952	56	6266
2026-01-20 02:55:08.08	291.32	15.69	-42.4	-43.4	22.2	0.00e+00	0	42	0	711983104	56	6766
2026-01-20 02:55:09.09	291.53	15.67	-42.2	-43.3	21.7	0.00e+00	0	42	0	713031680	56	6616
2026-01-20 02:55:10.10	291.75	15.65	-43.0	-44.1	22.2	0.00e+00	0	42	0	715128832	58	6479
2026-01-20 02:55:11.11	291.97	15.63	-43.6	-44.6	21.3	0.00e+00	0	42	0	717225984	58	6916
2026-01-20 02:55:12.12	292.18	15.62	-44.7	-46.0	21.6	0.00e+00	0	42	0	719323136	60	7197
2026-01-20 02:55:13.14	292.40	15.60	-43.6	-44.6	22.0	0.00e+00	0	42	0	721420288	60	6147
2026-01-20 02:55:14.14	292.61	15.58	-43.1	-44.1	22.0	0.00e+00	0	41	0	722468864	60	5806
2026-01-20 02:55:15.15	292.83	15.56	-42.4	-43.5	22.1	0.00e+00	0	42	0	724566016	58	6048
2026-01-20 02:55:16.16	293.04	15.54	-42.2	-43.2	22.3	0.00e+00	0	41	0	726663168	58	5894
2026-01-20 02:55:17.17	293.25	15.52	-42.8	-43.8	22.2	0.00e+00	0	41	0	728760320	58	6291
2026-01-20 02:55:18.18	293.47	15.50	-42.8	-43.8	22.4	0.00e+00	0	42	0	730857472	58	6289
2026-01-20 02:55:19.19	293.68	15.47	-42.5	-43.5	22.7	0.00e+00	0	42	0	731906048	58	6053
2026-01-20 02:55:20.20	293.89	15.45	-41.9	-42.9	22.9	0.00e+00	0	41	0	734003200	58	5658
2026-01-20 02:55:21.21	294.11	15.43	-41.8	-42.7	23.0	0.00e+00	0	42	0	736100352	58	5544
2026-01-20 02:55:22.22	294.32	15.41	-41.5	-42.5	23.2	0.00e+00	0	42	0	738197504	56	6046
2026-01-20 02:55:23.23	294.53	15.38	-41.1	-42.0	23.5	0.00e+00	0	42	0	740294656	56	5734
2026-01-20 02:55:24.23	294.74	15.36	-41.3	-42.2	23.3	0.00e+00	0	41	0	741343232	56	5849
2026-01-20 02:55:25.25	294.95	15.34	-41.4	-42.4	23.2	0.00e+00	0	42	0	743440384	56	5971
2026-01-20 02:55:26.26	295.17	15.31	-41.5	-42.4	23.1	0.00e+00	0	42	0	745537536	56	6019
2026-01-20 02:55:27.27	295.38	15.29	-41.8	-42.8	23.1	0.00e+00	0	42	0	747634688	56	6258
2026-01-20 02:55:28.28	295.59	15.27	-41.5	-42.4	23.2	0.00e+00	0	41	0	749731840	56	5980
2026-01-20 02:55:29.28	295.79	15.24	-42.4	-43.3	23.2	0.00e+00	0	42	0	750780416	56	6682
2026-01-20 02:55:30.29	296.00	15.22	-41.3	-42.2	23.3	0.00e+00	0	42	0	752877568	56	5844
2026-01-20 02:55:31.30	296.21	15.19	-40.7	-41.6	23.3	0.00e+00	0	42	0	754974720	56	5492
2026-01-20 02:55:32.31	296.42	15.17	-41.2	-42.1	23.2	0.00e+00	0	42	0	757071872	54	6504
2026-01-20 02:55:33.32	296.63	15.14	-41.2	-42.1	23.1	0.00e+00	0	42	0	759169024	54	6487
2026-01-20 02:55:34.33	296.84	15.11	-41.1	-42.1	22.9	0.00e+00	0	42	0	760217600	54	6470
2026-01-20 02:55:35.34	297.05	15.09	-41.5	-42.4	22.8	0.00e+00	0	42	0	762314752	54	6750
2026-01-20 02:55:36.35	297.26	15.06	-41.3	-42.3	22.8	0.00e+00	0	42	0	764411904	54	6640
2026-01-20 02:55:37.36	297.46	15.03	-41.5	-42.5	22.6	0.00e+00	0	42	0	766509056	54	6781
2026-01-20 02:55:38.37	297.67	15.00	-41.9	-42.9	22.6	0.00e+00	0	42	0	768606208	54	7125
2026-01-20 02:55:39.38	297.88	14.98	-42.2	-43.2	22.7	0.00e+00	0	41	0	769654784	56	6573
2026-01-20 02:55:40.39	298.08	14.95	-41.9	-42.9	22.7	0.00e+00	0	42	0	771751936	56	6339
2026-01-20 02:55:41.40	298.29	14.92	-41.9	-42.9	22.5	0.00e+00	0	42	0	773849088	56	6327
2026-01-20 02:55:42.41	298.49	14.89	-42.4	-43.4	22.4	0.00e+00	0	42	0	775946240	58	5992
2026-01-20 02:55:43.42	298.70	14.86	-42.8	-43.8	22.1	0.00e+00	0	42	0	778043392	58	6294
2026-01-20 02:55:44.43	298.90	14.83	-42.2	-43.2	22.3	0.00e+00	0	42	0	780140544	58	5854
2026-01-20 02:55:45.44	299.11	14.80	-42.4	-43.3	22.7	0.00e+00	0	42	0	781189120	58	5960
2026-01-20 02:55:46.45	299.31	14.77	-42.3	-43.3	22.5	0.00e+00	0	41	0	783286272	58	5935
2026-01-20 02:55:47.45	299.51	14.74	-42.5	-43.5	22.3	0.00e+00	0	41	0	785383424	58	6054
2026-01-20 02:55:48.46	299.71	14.71	-41.2	-42.2	23.0	0.00e+00	0	42	0	787480576	56	5829
2026-01-20 02:55:49.48	299.92	14.68	-40.7	-41.6	23.1	0.00e+00	0	42	0	788529152	56	5491
2026-01-20 02:55:50.48	300.12	14.65	-40.6	-41.5	23.1	0.00e+00	0	42	0	790626304	54	6064
2026-01-20 02:55:51.49	300.32	14.62	-40.0	-40.9	23.5	0.00e+00	0	42	0	792723456	54	5667
2026-01-20 02:55:52.50	300.52	14.58	-40.7	-41.6	23.6	0.00e+00	0	41	0	794820608	54	6165
2026-01-20 02:55:53.51	300.72	14.55	-40.7	-41.6	23.8	0.00e+00	0	42	0	796917760	54	6138
2026-01-20 02:55:54.52	300.92	14.52	-41.1	-42.0	23.2	0.00e+00	0	42	0	797966336	54	6428
2026-01-20 02:55:55.53	301.12	14.49	-41.1	-41.9	23.6	0.00e+00	0	42	0	800063488	54	6379
2026-01-20 02:55:56.55	301.32	14.45	-41.8	-42.7	23.3	0.00e+00	0	42	0	802160640	56	6192
2026-01-20 02:55:57.56	301.52	14.42	-41.5	-42.4	23.2	0.00e+00	0	42	0	804257792	56	6000
2026-01-20 02:55:58.56	301.72	14.39	-41.4	-42.4	22.6	0.00e+00	0	42	0	806354944	56	6000
2026-01-20 02:55:59.58	301.92	14.35	-41.4	-42.3	22.7	0.00e+00	0	42	0	808452096	56	5954
2026-01-20 02:56:00.59	302.12	14.32	-41.3	-42.2	23.5	0.00e+00	0	42	0	809500672	56	5867
2026-01-20 02:56:01.60	302.31	14.28	-41.7	-42.6	23.3	0.00e+00	0	42	0	811597824	56	6127
2026-01-20 02:56:02.61	302.51	14.25	-41.4	-42.3	23.5	0.00e+00	0	42	0	813694976	56	5904
2026-01-20 02:56:03.62	302.71	14.21	-41.3	-42.2	23.3	0.00e+00	0	42	0	815792128	56	5867
2026-01-20 02:56:04.63	302.90	14.18	-41.1	-42.0	23.2	0.00e+00	0	42	0	817889280	56	5728
2026-01-20 02:56:05.64	303.10	14.14	-41.2	-42.1	22.8	0.00e+00	0	41	0	818937856	56	5811
2026-01-20 02:56:06.65	303.29	14.11	-41.6	-42.6	22.5	0.00e+00	0	42	0	821035008	56	6127
2026-01-20 02:56:07.66	303.49	14.07	-41.7	-42.7	22.2	0.00e+00	0	42	0	823132160	56	6222
2026-01-20 02:56:08.67	303.68	14.04	-41.3	-42.2	23.1	0.00e+00	0	42	0	825229312	56	5864
2026-01-20 02:56:09.68	303.88	14.00	-42.4	-43.3	22.4	0.00e+00	0	42	0	827326464	56	6668
2026-01-20 02:56:10.69	304.07	13.96	-42.1	-43.1	22.8	0.00e+00	0	42	0	828375040	56	6469
2026-01-20 02:56:11.70	304.26	13.93	-41.4	-42.3	22.9	0.00e+00	0	42	0	830472192	56	5957
2026-01-20 02:56:12.70	304.45	13.89	-41.9	-42.8	22.8	0.00e+00	0	42	0	832569344	56	6305
2026-01-20 02:56:13.72	304.65	13.85	-41.5	-42.5	22.6	0.00e+00	0	42	0	834666496	56	6076
2026-01-20 02:56:14.72	304.84	13.81	-40.9	-41.8	22.9	0.00e+00	0	42	0	836763648	56	5627
2026-01-20 02:56:15.73	305.03	13.78	-41.5	-42.4	23.1	0.00e+00	0	42	0	837812224	54	6729
2026-01-20 02:56:16.74	305.22	13.74	-41.4	-42.3	23.1	0.00e+00	0	41	0	839909376	54	6677
2026-01-20 02:56:17.75	305.41	13.70	-40.9	-41.8	23.4	0.00e+00	0	42	0	842006528	54	6286
2026-01-20 02:56:18.76	305.60	13.66	-40.2	-41.1	23.3	0.00e+00	0	42	0	844103680	54	5802
2026-01-20 02:56:19.77	305.79	13.62	-40.3	-41.3	23.1	0.00e+00	0	42	0	846200832	54	5912
2026-01-20 02:56:20.78	305.97	13.58	-41.0	-42.0	22.7	0.00e+00	0	41	0	848297984	54	6419
2026-01-20 02:56:21.79	306.16	13.55	-41.3	-42.3	23.0	0.00e+00	0	41	0	849346560	54	6620
2026-01-20 02:56:22.80	306.35	13.51	-41.6	-42.6	22.6	0.00e+00	0	41	0	851443712	54	6868
2026-01-20 02:56:23.81	306.54	13.47	-42.2	-43.2	22.5	0.00e+00	0	42	0	853540864	56	6612
2026-01-20 02:56:24.82	306.72	13.43	-42.0	-43.0	22.7	0.00e+00	0	41	0	855638016	56	6438
2026-01-20 02:56:25.83	306.91	13.39	-42.1	-43.1	22.5	0.00e+00	0	42	0	857735168	56	6490
2026-01-20 02:56:26.84	307.09	13.35	-41.6	-42.6	22.7	0.00e+00	0	42	0	858783744	56	6111
2026-01-20 02:56:27.85	307.28	13.31	-41.5	-42.4	22.6	0.00e+00	0	42	0	860880896	56	6028
2026-01-20 02:56:28.86	307.46	13.27	-41.2	-42.2	22.2	0.00e+00	0	42	0	862978048	56	5834
2026-01-20 02:56:29.87	307.65	13.22	-41.2	-42.2	22.4	0.00e+00	0	42	0	865075200	56	5894
2026-01-20 02:56:30.88	307.83	13.18	-42.0	-43.1	21.9	0.00e+00	0	42	0	866123776	56	6500
2026-01-20 02:56:31.89	308.01	13.14	-42.5	-43.6	22.0	0.00e+00	0	41	0	868220928	56	6868
2026-01-20 02:56:32.90	308.20	13.10	-42.5	-43.6	21.7	0.00e+00	0	42	0	870318080	56	6899
2026-01-20 02:56:33.91	308.38	13.06	-42.2	-43.2	22.0	0.00e+00	0	42	0	872415232	58	5889
2026-01-20 02:56:34.92	308.56	13.02	-42.5	-43.6	21.7	0.00e+00	0	42	0	874512384	58	6115
2026-01-20 02:56:35.93	308.74	12.98	-42.4	-43.5	21.7	0.00e+00	0	42	0	876609536	58	6034
2026-01-20 02:56:36.93	308.92	12.93	-43.1	-44.3	21.2	0.00e+00	0	42	0	877658112	60	5897
2026-01-20 02:56:37.94	309.10	12.89	-44.3	-45.5	21.0	0.00e+00	0	42	0	879755264	60	6838
2026-01-20 02:56:38.95	309.28	12.85	-43.4	-44.6	21.1	0.00e+00	0	42	0	881852416	60	6119
2026-01-20 02:56:39.96	309.46	12.81	-42.7	-43.8	21.3	0.00e+00	0	42	0	883949568	58	6279
2026-01-20 02:56:40.97	309.64	12.76	-42.6	-43.8	21.3	0.00e+00	0	42	0	886046720	58	6294
2026-01-20 02:56:41.98	309.81	12.72	-43.1	-44.2	21.5	0.00e+00	0	42	0	887095296	58	6597
2026-01-20 02:56:42.99	309.99	12.68	-43.3	-44.4	21.3	0.00e+00	0	42	0	889192448	58	6751
2026-01-20 02:56:44.00	310.17	12.63	-44.3	-45.5	21.1	0.00e+00	0	42	0	891289600	60	6792
2026-01-20 02:56:45.01	310.35	12.59	-44.6	-45.8	20.5	0.00e+00	0	42	0	893386752	60	7081
2026-01-20 02:56:46.02	310.52	12.55	-44.5	-45.8	20.3	0.00e+00	0	42	0	895483904	60	7079
2026-01-20 02:56:47.03	310.70	12.50	-44.7	-46.0	20.6	0.00e+00	0	42	0	896532480	60	7195
2026-01-20 02:56:48.03	310.87	12.46	-44.1	-45.5	20.3	0.00e+00	0	41	0	898629632	60	6791
2026-01-20 02:56:49.04	311.04	12.42	-43.8	-45.0	21.1	0.00e+00	0	42	0	900726784	60	6453
2026-01-20 02:56:50.05	311.22	12.37	-43.7	-44.8	21.4	0.00e+00	0	42	0	902823936	60	6286
2026-01-20 02:56:51.06	311.39	12.33	-43.4	-44.6	21.1	0.00e+00	0	42	0	904921088	60	6140
2026-01-20 02:56:52.07	311.56	12.28	-43.5	-44.6	21.5	0.00e+00	0	42	0	905969664	60	6131
2026-01-20 02:56:53.08	311.74	12.24	-43.0	-44.2	21.4	0.00e+00	0	42	0	908066816	60	5839
2026-01-20 02:56:54.09	311.91	12.19	-42.5	-43.6	21.5	0.00e+00	0	41	0	910163968	58	6162
2026-01-20 02:56:55.10	312.08	12.15	-43.1	-44.3	21.1	0.00e+00	0	42	0	912261120	58	6641
2026-01-20 02:56:56.11	312.25	12.10	-43.8	-45.0	21.0	0.00e+00	0	42	0	914358272	60	6422
2026-01-20 02:56:57.12	312.42	12.06	-44.3	-45.6	20.7	0.00e+00	0	42	0	915406848	60	6858
2026-01-20 02:56:58.13	312.59	12.01	-44.1	-45.4	20.7	0.00e+00	0	42	0	917504000	60	6699
2026-01-20 02:56:59.14	312.76	11.97	-43.8	-45.1	20.8	0.00e+00	0	42	0	919601152	60	6479
2026-01-20 02:57:00.15	312.93	11.92	-44.6	-45.8	20.6	0.00e+00	0	42	0	921698304	60	7079
2026-01-20 02:57:01.16	313.10	11.87	-44.8	-46.1	20.1	0.00e+00	0	42	0	923795456	60	7319
2026-01-20 02:57:02.17	313.27	11.83	-45.0	-46.3	20.2	0.00e+00	0	42	0	924844032	60	7508
2026-01-20 02:57:03.18	313.43	11.78	-44.7	-46.1	20.1	0.00e+00	0	42	0	926941184	60	7288
2026-01-20 02:57:04.19	313.60	11.73	-44.8	-46.2	19.8	0.00e+00	0	42	0	929038336	60	7402
2026-01-20 02:57:05.19	313.76	11.69	-45.0	-46.4	19.9	0.00e+00	0	42	0	931135488	60	7542
2026-01-20 02:57:06.20	313.93	11.64	-44.4	-45.8	19.9	0.00e+00	0	42	0	933232640	60	7023
2026-01-20 02:57:07.21	314.09	11.60	-43.6	-44.9	20.7	0.00e+00	0	42	0	934281216	60	6327
2026-01-20 02:57:08.22	314.26	11.55	-43.1	-44.3	21.0	0.00e+00	0	42	0	936378368	60	5925
2026-01-20 02:57:09.23	314.42	11.50	-42.9	-44.1	21.1	0.00e+00	0	42	0	938475520	60	5828
2026-01-20 02:57:10.24	314.59	11.46	-42.7	-43.8	21.4	0.00e+00	0	42	0	940572672	58	6302
2026-01-20 02:57:11.25	314.75	11.41	-43.1	-44.3	21.3	0.00e+00	0	42	0	942669824	58	6627
2026-01-20 02:57:12.26	314.91	11.36	-43.1	-44.3	21.0	0.00e+00	0	42	0	944766976	58	6669
2026-01-20 02:57:13.27	315.08	11.31	-43.6	-44.8	21.1	0.00e+00	0	42	0	945815552	58	7074
2026-01-20 02:57:14.28	315.24	11.27	-44.6	-45.9	20.8	0.00e+00	0	42	0	947912704	60	7090
2026-01-20 02:57:15.29	315.40	11.22	-44.6	-45.8	21.0	0.00e+00	0	42	0	950009856	60	7051
2026-01-20 02:57:16.30	315.56	11.17	-44.1	-45.4	20.7	0.00e+00	0	42	0	952107008	60	6709
2026-01-20 02:57:17.31	315.72	11.12	-44.6	-46.0	20.2	0.00e+00	0	42	0	954204160	60	7172
2026-01-20 02:57:18.32	315.88	11.07	-43.6	-44.9	20.7	0.00e+00	0	42	0	955252736	60	6336
2026-01-20 02:57:19.33	316.04	11.03	-43.6	-44.8	20.7	0.00e+00	0	42	0	957349888	60	6311
2026-01-20 02:57:20.34	316.20	10.98	-44.1	-45.3	20.9	0.00e+00	0	41	0	959447040	60	6672
2026-01-20 02:57:21.35	316.35	10.93	-43.6	-44.8	21.2	0.00e+00	0	42	0	961544192	60	6285
2026-01-20 02:57:22.36	316.51	10.88	-43.1	-44.3	21.2	0.00e+00	0	42	0	963641344	60	5912
2026-01-20 02:57:23.37	316.67	10.83	-42.6	-43.8	21.3	0.00e+00	0	41	0	964689920	58	6250
2026-01-20 02:57:24.38	316.83	10.79	-42.2	-43.3	21.3	0.00e+00	0	42	0	966787072	58	5959
2026-01-20 02:57:25.39	316.98	10.74	-42.8	-44.0	20.8	0.00e+00	0	41	0	968884224	58	6421
2026-01-20 02:57:26.40	317.14	10.69	-44.0	-45.3	20.4	0.00e+00	0	41	0	970981376	60	6663
2026-01-20 02:57:27.41	317.29	10.64	-44.5	-45.9	20.1	0.00e+00	0	42	0	973078528	60	7121
2026-01-20 02:57:28.42	317.45	10.59	-44.9	-46.3	20.2	0.00e+00	0	42	0	974127104	60	7437
2026-01-20 02:57:29.43	317.60	10.54	-44.7	-46.1	19.9	0.00e+00	0	42	0	976224256	60	7262
2026-01-20 02:57:30.43	317.75	10.49	-44.9	-46.3	20.1	0.00e+00	0	42	0	978321408	60	7505
2026-01-20 02:57:31.44	317.91	10.44	-45.3	-46.8	19.9	0.00e+00	0	41	0	980418560	60	7872
2026-01-20 02:57:32.45	318.06	10.40	-44.5	-45.8	20.2	0.00e+00	0	42	0	982515712	60	7058
2026-01-20 02:57:33.46	318.21	10.35	-44.2	-45.5	20.3	0.00e+00	0	42	0	983564288	60	6807
2026-01-20 02:57:34.47	318.36	10.30	-45.0	-46.3	20.3	0.00e+00	0	42	0	985661440	60	7433
2026-01-20 02:57:35.48	318.51	10.25	-44.4	-45.7	20.8	0.00e+00	0	41	0	987758592	60	6957
2026-01-20 02:57:36.49	318.66	10.20	-44.3	-45.6	20.8	0.00e+00	0	42	0	989855744	60	6861
2026-01-20 02:57:37.50	318.81	10.15	-44.5	-45.7	20.7	0.00e+00	0	41	0	991952896	60	6984
2026-01-20 02:57:38.51	318.96	10.10	-44.7	-46.0	20.3	0.00e+00	0	41	0	993001472	60	7178
2026-01-20 02:57:39.52	319.11	10.05	-44.4	-45.7	20.8	0.00e+00	0	42	0	995098624	60	6934
2026-01-20 02:57:40.53	319.26	10.00	-44.2	-45.4	20.9	0.00e+00	0	42	0	997195776	60	6768
2026-01-20 02:57:41.54	319.41	9.95	-44.5	-45.7	20.9	0.00e+00	0	42	0	999292928	60	6980
2026-01-20 02:57:42.55	319.56	9.90	-43.2	-44.4	21.2	0.00e+00	0	42	0	1001390080	60	5965
2026-01-20 02:57:43.56	319.71	9.85	-44.0	-45.2	21.2	0.00e+00	0	42	0	1002438656	60	6550
2026-01-20 02:57:44.57	319.85	9.80	-44.1	-45.3	21.1	0.00e+00	0	41	0	1004535808	60	6634
2026-01-20 02:57:45.58	320.00	9.75	-43.6	-44.8	21.4	0.00e+00	0	42	0	1006632960	60	6261
2026-01-20 02:57:46.59	320.14	9.70	-43.3	-44.5	21.2	0.00e+00	0	41	0	1008730112	60	6084
2026-01-20 02:57:47.60	320.29	9.65	-43.2	-44.4	21.3	0.00e+00	0	42	0	1010827264	60	5993
2026-01-20 02:57:48.61	320.43	9.60	-42.6	-43.8	21.1	0.00e+00	0	41	0	1012924416	58	6248
2026-01-20 02:57:49.62	320.58	9.55	-43.2	-44.4	21.1	0.00e+00	0	42	0	1013972992	58	6732
2026-01-20 02:57:50.64	320.72	9.50	-43.9	-45.1	21.4	0.00e+00	0	42	0	1016070144	60	6479
2026-01-20 02:57:51.65	320.87	9.45	-43.6	-44.8	21.0	0.00e+00	0	42	0	1018167296	60	6302
2026-01-20 02:57:52.66	321.01	9.40	-43.9	-45.0	21.4	0.00e+00	0	42	0	1020264448	60	6456
2026-01-20 02:57:53.66	321.15	9.35	-43.9	-45.1	21.2	0.00e+00	0	41	0	1022361600	60	6504
2026-01-20 02:57:54.67	321.29	9.30	-43.8	-44.9	21.5	0.00e+00	0	42	0	1023410176	60	6368
2026-01-20 02:57:55.68	321.43	9.25	-42.7	-43.9	21.5	0.00e+00	0	41	0	1025507328	60	5646
2026-01-20 02:57:56.69	321.57	9.20	-43.2	-44.4	21.4	0.00e+00	0	42	0	1027604480	60	5983
2026-01-20 02:57:57.70	321.72	9.15	-43.1	-44.2	21.5	0.00e+00	0	41	0	1029701632	58	6615
2026-01-20 02:57:58.71	321.86	9.09	-43.1	-44.2	21.5	0.00e+00	0	42	0	1031798784	58	6610
2026-01-20 02:57:59.72	321.99	9.04	-43.1	-44.2	21.4	0.00e+00	0	42	0	1032847360	60	5858
2026-01-20 02:58:00.73	322.13	8.99	-42.9	-44.0	21.5	0.00e+00	0	42	0	1034944512	60	5751
2026-01-20 02:58:01.74	322.27	8.94	-43.7	-44.9	21.1	0.00e+00	0	41	0	1037041664	60	6357
2026-01-20 02:58:02.75	322.41	8.89	-44.1	-45.3	21.3	0.00e+00	0	41	0	1039138816	60	6623
2026-01-20 02:58:03.76	322.55	8.84	-43.9	-45.0	21.2	0.00e+00	0	42	0	1041235968	60	6439
2026-01-20 02:58:04.76	322.68	8.79	-43.2	-44.3	21.2	0.00e+00	0	42	0	1042284544	60	5948
2026-01-20 02:58:05.78	322.82	8.74	-42.5	-43.7	21.2	0.00e+00	0	42	0	1044381696	58	6187
2026-01-20 02:58:06.79	322.96	8.69	-41.9	-43.1	21.1	0.00e+00	0	42	0	1046478848	58	5788
2026-01-20 02:58:07.80	323.09	8.64	-42.7	-43.9	20.9	0.00e+00	0	42	0	1048576000	58	6367
2026-01-20 02:58:08.81	323.23	8.59	-43.0	-44.2	21.4	0.00e+00	0	42	0	1050673152	58	6541
2026-01-20 02:58:09.82	323.36	8.53	-42.8	-43.9	21.4	0.00e+00	0	41	0	1051721728	58	6347
2026-01-20 02:58:10.83	323.50	8.48	-42.5	-43.6	21.6	0.00e+00	0	41	0	1053818880	58	6137
2026-01-20 02:58:11.84	323.63	8.43	-42.5	-43.6	21.5	0.00e+00	0	42	0	1055916032	58	6162
2026-01-20 02:58:12.85	323.77	8.38	-43.2	-44.3	21.6	0.00e+00	0	41	0	1058013184	58	6668
2026-01-20 02:58:13.86	323.90	8.33	-43.2	-44.3	21.5	0.00e+00	0	41	0	1060110336	58	6661
2026-01-20 02:58:14.86	324.03	8.28	-43.0	-44.1	21.4	0.00e+00	0	42	0	1061158912	58	6538
2026-01-20 02:58:15.87	324.16	8.23	-42.8	-44.0	21.5	0.00e+00	0	42	0	1063256064	58	6392
2026-01-20 02:58:16.88	324.30	8.18	-42.9	-44.1	21.4	0.00e+00	0	41	0	1065353216	58	6495
2026-01-20 02:58:17.89	324.43	8.13	-42.7	-43.9	21.2	0.00e+00	0	42	0	1067450368	58	6337
2026-01-20 02:58:18.90	324.56	8.07	-42.5	-43.7	21.1	0.00e+00	0	41	0	1069547520	58	6214
2026-01-20 02:58:19.91	324.69	8.02	-42.4	-43.7	20.9	0.00e+00	0	41	0	1070596096	58	6175
2026-01-20 02:58:20.92	324.82	7.97	-42.7	-44.0	20.5	0.00e+00	0	42	0	1072693248	58	6443
2026-01-20 02:58:21.93	324.95	7.92	-42.6	-43.9	20.8	0.00e+00	0	41	0	1074790400	58	6319
2026-01-20 02:58:22.94	325.08	7.87	-43.4	-44.7	20.6	0.00e+00	0	42	0	1076887552	58	7002
2026-01-20 02:58:23.95	325.21	7.82	-43.2	-44.5	20.6	0.00e+00	0	42	0	1078984704	58	6815
2026-01-20 02:58:24.96	325.33	7.77	-44.0	-45.3	20.2	0.00e+00	0	42	0	1081081856	60	6665
2026-01-20 02:58:25.97	325.46	7.71	-43.9	-45.2	20.5	0.00e+00	0	41	0	1082130432	60	6552
2026-01-20 02:58:26.98	325.59	7.66	-44.4	-45.8	20.0	0.00e+00	0	41	0	1084227584	60	7021
2026-01-20 02:58:27.99	325.72	7.61	-43.9	-45.1	20.6	0.00e+00	0	42	0	1086324736	60	6528
2026-01-20 02:58:29.00	325.84	7.56	-44.1	-45.5	20.1	0.00e+00	0	41	0	1088421888	60	6813
2026-01-20 02:58:30.01	325.97	7.51	-44.2	-45.5	20.4	0.00e+00	0	41	0	1090519040	60	6807
2026-01-20 02:58:31.02	326.09	7.46	-45.2	-46.7	19.6	0.00e+00	0	41	0	1091567616	60	7802
2026-01-20 02:58:32.03	326.22	7.41	-45.9	-47.4	19.6	0.00e+00	0	41	0	1093664768	60	8510
2026-01-20 02:58:33.04	326.34	7.35	-44.7	-46.1	20.0	0.00e+00	0	41	0	1095761920	60	7262
2026-01-20 02:58:34.05	326.47	7.30	-44.5	-45.9	20.0	0.00e+00	0	42	0	1097859072	60	7106
2026-01-20 02:58:35.05	326.59	7.25	-44.9	-46.2	20.1	0.00e+00	0	42	0	1099956224	60	7403
2026-01-20 02:58:36.06	326.71	7.20	-44.4	-45.6	20.4	0.00e+00	0	42	0	1101004800	60	6923
2026-01-20 02:58:37.07	326.84	7.15	-44.3	-45.6	20.6	0.00e+00	0	42	0	1103101952	60	6867
2026-01-20 02:58:38.08	326.96	7.10	-43.7	-44.9	21.1	0.00e+00	0	41	0	1105199104	60	6353
2026-01-20 02:58:39.09	327.08	7.05	-44.0	-45.1	21.3	0.00e+00	0	41	0	1107296256	60	6518
2026-01-20 02:58:40.10	327.20	6.99	-44.2	-45.4	20.6	0.00e+00	0	41	0	1109393408	60	6710
2026-01-20 02:58:41.12	327.33	6.94	-43.9	-45.1	21.2	0.00e+00	0	41	0	1110441984	60	6501
2026-01-20 02:58:42.13	327.45	6.89	-44.9	-46.2	20.4	0.00e+00	0	42	0	1112539136	60	7377
2026-01-20 02:58:43.14	327.57	6.84	-43.9	-45.1	20.8	0.00e+00	0	41	0	1114636288	60	6534
2026-01-20 02:58:44.15	327.69	6.79	-45.0	-46.3	20.1	0.00e+00	0	42	0	1116733440	60	7488
2026-01-20 02:58:45.16	327.81	6.74	-44.6	-45.9	20.8	0.00e+00	0	42	0	1118830592	60	7112
2026-01-20 02:58:46.17	327.93	6.68	-44.5	-45.8	20.6	0.00e+00	0	42	0	1119879168	60	7018
2026-01-20 02:58:47.18	328.05	6.63	-43.8	-45.1	20.5	0.00e+00	0	41	0	1121976320	60	6526
2026-01-20 02:58:48.19	328.17	6.58	-44.2	-45.6	20.0	0.00e+00	0	41	0	1124073472	60	6883
2026-01-20 02:58:49.20	328.28	6.53	-44.0	-45.4	20.1	0.00e+00	0	41	0	1126170624	60	6700
2026-01-20 02:58:50.21	328.40	6.48	-44.3	-45.5	20.7	0.00e+00	0	41	0	1128267776	60	6843
2026-01-20 02:58:51.22	328.52	6.43	-43.6	-44.9	20.8	0.00e+00	0	41	0	1129316352	60	6353
2026-01-20 02:58:52.23	328.64	6.38	-44.9	-46.2	20.6	0.00e+00	0	41	0	1131413504	60	7357
2026-01-20 02:58:53.24	328.75	6.32	-44.7	-46.0	20.6	0.00e+00	0	41	0	1133510656	60	7198
2026-01-20 02:58:54.25	328.87	6.27	-45.2	-46.5	20.1	0.00e+00	0	41	0	1135607808	60	7662
2026-01-20 02:58:55.26	328.99	6.22	-45.3	-46.6	20.3	0.00e+00	0	42	0	1137704960	60	7708
2026-01-20 02:58:56.27	329.10	6.17	-44.2	-45.5	20.1	0.00e+00	0	42	0	1138753536	60	6839
2026-01-20 02:58:57.28	329.22	6.12	-45.5	-46.9	19.4	0.00e+00	0	42	0	1140850688	60	8009
2026-01-20 02:58:58.29	329.33	6.07	-44.9	-46.3	19.7	0.00e+00	0	41	0	1142947840	60	7458
2026-01-20 02:58:59.30	329.45	6.01	-44.9	-46.3	19.9	0.00e+00	0	42	0	1145044992	60	7495
2026-01-20 02:59:00.31	329.56	5.96	-44.7	-46.1	19.6	0.00e+00	0	42	0	1147142144	60	7285
2026-01-20 02:59:01.32	329.67	5.91	-44.6	-46.0	19.6	0.00e+00	0	41	0	1149239296	60	7249
2026-01-20 02:59:02.33	329.79	5.86	-44.8	-46.3	19.3	0.00e+00	0	41	0	1150287872	60	7475
2026-01-20 02:59:03.34	329.90	5.81	-44.8	-46.3	19.5	0.00e+00	0	42	0	1152385024	60	7457
2026-01-20 02:59:04.35	330.01	5.76	-45.4	-47.0	19.0	0.00e+00	0	41	0	1154482176	60	8088
2026-01-20 02:59:05.35	330.12	5.71	-45.5	-47.1	18.7	0.00e+00	0	42	0	1156579328	60	8164
2026-01-20 02:59:06.37	330.23	5.65	-44.9	-46.4	19.1	0.00e+00	0	42	0	1158676480	60	7566
2026-01-20 02:59:07.38	330.35	5.60	-45.0	-46.6	19.1	0.00e+00	0	41	0	1159725056	60	7694
2026-01-20 02:59:08.39	330.46	5.55	-44.8	-46.4	19.4	0.00e+00	0	42	0	1161822208	60	7509
2026-01-20 02:59:09.40	330.57	5.50	-46.1	-47.8	18.5	0.00e+00	0	42	0	1163919360	60	8905
2026-01-20 02:59:10.40	330.68	5.45	-45.3	-46.8	19.5	0.00e+00	0	42	0	1166016512	60	7900
2026-01-20 02:59:11.42	330.79	5.40	-44.4	-45.9	19.2	0.00e+00	0	42	0	1168113664	60	7123
2026-01-20 02:59:12.43	330.90	5.35	-45.1	-46.7	18.9	0.00e+00	0	41	0	1169162240	60	7824
2026-01-20 02:59:13.44	331.01	5.30	-45.1	-46.7	19.0	0.00e+00	0	41	0	1171259392	60	7843
2026-01-20 02:59:14.45	331.11	5.24	-44.9	-46.4	18.8	0.00e+00	0	41	0	1173356544	60	7585
2026-01-20 02:59:15.46	331.22	5.19	-44.9	-46.5	18.9	0.00e+00	0	42	0	1175453696	60	7628
2026-01-20 02:59:16.47	331.33	5.14	-44.7	-46.3	18.7	0.00e+00	0	42	0	1177550848	60	7496
2026-01-20 02:59:17.48	331.44	5.09	-44.5	-46.2	18.7	0.00e+00	0	41	0	1178599424	60	7357
2026-01-20 02:59:18.49	331.55	5.04	-44.6	-46.4	18.1	0.00e+00	0	42	0	1180696576	60	7517
2026-01-20 02:59:19.50	331.65	4.99	-44.7	-46.5	18.3	0.00e+00	0	42	0	1182793728	60	7628
2026-01-20 02:59:20.51	331.76	4.94	-45.6	-47.5	17.6	0.00e+00	0	42	0	1184890880	60	8577
2026-01-20 02:59:21.52	331.86	4.89	-45.6	-47.6	17.4	0.00e+00	0	41	0	1186988032	60	8680
2026-01-20 02:59:22.53	331.97	4.83	-46.2	-48.1	17.5	0.00e+00	0	42	0	1188036608	60	9194
2026-01-20 02:59:23.54	332.08	4.78	-45.4	-47.2	17.9	0.00e+00	0	42	0	1190133760	60	8318
2026-01-20 02:59:24.55	332.18	4.73	-46.2	-48.2	17.1	0.00e+00	0	42	0	1192230912	60	9300
2026-01-20 02:59:25.56	332.29	4.68	-46.0	-48.2	16.5	0.00e+00	0	41	0	1194328064	60	9275
2026-01-20 02:59:26.57	332.39	4.63	-46.3	-48.9	15.4	0.00e+00	0	42	0	1196425216	60	10013
