passes_logs/2026/01/20/R4.6S_Anadyr/R4.6S_Anadyr__20260120_012609_NOAA_20_JPSS-1_rec.log

#Pass ID: 20260120_012609_NOAA 20 (JPSS-1)
#Satellite: NOAA 20 (JPSS-1)
#Configuration: NOAA 20
#almurnet v.1.7.20251203
#Start time: 2026-01-20 01:26:11

#Version: 2.2.20231116
#Station: R4.6S_Anadyr
#Location: 177.4865 lon 64.73178 lat
#TLE: 1 43013U 17073A   26019.27717929  .00000087  00000+0  62288-4 0  9995
#TLE: 2 43013  98.7641 320.1715 0001339  33.1986 326.9274 14.19537047423343

#Time	Az	El	Level	Level2	SNR	BER	BlckErr	Temp	State	Recorded	gain1	gain2
2026-01-20 01:26:11.84	187.27	0.15	-53.3	-68.2	3.5	1.51e+00	0	39	0	0	60	93320
2026-01-20 01:26:12.84	187.31	0.21	-52.4	-67.6	3.6	1.51e+00	0	40	104	0	60	86879
2026-01-20 01:26:13.85	187.35	0.27	-52.9	-68.1	3.5	1.51e+00	0	40	104	0	60	91919
2026-01-20 01:26:14.86	187.39	0.33	-52.9	-68.2	3.6	1.51e+00	0	40	104	0	60	93129
2026-01-20 01:26:15.87	187.43	0.38	-52.6	-67.8	3.6	1.51e+00	0	40	104	0	60	88598
2026-01-20 01:26:16.88	187.47	0.44	-53.2	-68.4	3.6	1.51e+00	0	40	104	0	60	95598
2026-01-20 01:26:17.89	187.51	0.50	-53.8	-69.0	3.6	1.51e+00	0	40	104	0	60	101303
2026-01-20 01:26:18.90	187.56	0.56	-53.3	-68.7	3.6	1.51e+00	0	40	104	0	60	98032
2026-01-20 01:26:19.91	187.60	0.62	-53.0	-68.3	3.6	1.51e+00	0	40	104	0	60	94220
2026-01-20 01:26:20.91	187.64	0.68	-53.2	-68.4	3.6	1.51e+00	0	40	104	0	60	95199
2026-01-20 01:26:21.92	187.68	0.74	-53.0	-68.2	3.6	1.51e+00	0	40	104	0	60	93165
2026-01-20 01:26:22.93	187.72	0.80	-52.3	-67.6	3.6	1.51e+00	0	40	104	0	60	86692
2026-01-20 01:26:23.94	187.76	0.85	-52.4	-67.7	3.6	1.51e+00	0	40	104	0	60	87500
2026-01-20 01:26:24.95	187.81	0.91	-51.8	-67.0	3.6	1.51e+00	0	40	104	0	60	81078
2026-01-20 01:26:25.96	187.85	0.97	-51.4	-66.6	3.6	1.51e+00	0	40	104	0	60	77456
2026-01-20 01:26:26.97	187.89	1.03	-51.1	-66.3	3.6	1.51e+00	0	41	104	0	60	74842
2026-01-20 01:26:27.98	187.93	1.09	-51.2	-66.5	3.6	1.51e+00	0	41	104	0	60	76208
2026-01-20 01:26:28.99	187.98	1.15	-50.9	-66.2	3.6	1.51e+00	0	41	104	0	60	73397
2026-01-20 01:26:30.00	188.02	1.21	-50.5	-65.9	3.6	1.51e+00	0	41	104	0	60	71104
2026-01-20 01:26:31.01	188.06	1.27	-50.4	-65.7	3.6	1.51e+00	0	41	104	0	60	69714
2026-01-20 01:26:32.02	188.11	1.33	-50.3	-65.6	3.6	1.51e+00	0	41	104	0	60	68559
2026-01-20 01:26:33.03	188.15	1.39	-50.0	-65.3	3.6	1.51e+00	0	41	104	0	60	66794
2026-01-20 01:26:34.04	188.19	1.45	-49.9	-65.0	3.6	1.51e+00	0	41	104	0	60	64415
2026-01-20 01:26:35.05	188.24	1.51	-50.1	-65.4	3.6	1.51e+00	0	41	104	0	60	67305
2026-01-20 01:26:36.06	188.28	1.57	-49.6	-64.8	3.6	1.51e+00	0	41	104	0	60	63150
2026-01-20 01:26:37.07	188.33	1.63	-49.5	-64.6	3.6	1.51e+00	0	41	104	0	60	61676
2026-01-20 01:26:38.08	188.37	1.70	-49.5	-64.7	3.6	1.51e+00	0	41	104	0	60	62027
2026-01-20 01:26:39.09	188.41	1.76	-49.5	-64.7	3.6	1.51e+00	0	41	104	0	60	61949
2026-01-20 01:26:40.10	188.46	1.82	-49.4	-64.6	3.6	1.51e+00	0	41	104	0	60	61077
2026-01-20 01:26:41.11	188.50	1.88	-49.4	-64.6	3.6	1.51e+00	0	41	104	0	60	61037
2026-01-20 01:26:42.13	188.55	1.94	-49.3	-64.5	3.6	1.51e+00	0	41	104	0	60	60886
2026-01-20 01:26:43.14	188.59	2.00	-49.3	-64.4	3.6	1.51e+00	0	41	104	0	60	59933
2026-01-20 01:26:44.15	188.64	2.06	-49.3	-64.5	3.6	1.51e+00	0	41	104	0	60	60691
2026-01-20 01:26:45.15	188.68	2.12	-49.3	-64.4	3.6	1.51e+00	0	41	104	0	60	60040
2026-01-20 01:26:46.17	188.73	2.19	-49.3	-64.5	3.6	1.51e+00	0	41	104	0	60	60416
2026-01-20 01:26:47.17	188.78	2.25	-49.3	-64.5	3.6	1.51e+00	0	41	104	0	60	60593
2026-01-20 01:26:48.18	188.82	2.31	-49.3	-64.6	3.6	1.51e+00	0	41	104	0	60	61070
2026-01-20 01:26:49.20	188.87	2.37	-49.5	-64.8	3.6	1.51e+00	0	41	104	0	60	62455
2026-01-20 01:26:50.21	188.92	2.43	-49.6	-64.8	3.6	1.51e+00	0	41	104	0	60	62965
2026-01-20 01:26:51.22	188.96	2.50	-49.7	-64.9	3.6	1.51e+00	0	41	104	0	60	63599
2026-01-20 01:26:52.23	189.01	2.56	-50.4	-65.6	3.6	1.51e+00	0	41	104	0	60	68989
2026-01-20 01:26:53.24	189.06	2.62	-50.9	-66.1	3.6	1.51e+00	0	41	104	0	60	73108
2026-01-20 01:26:54.25	189.10	2.68	-50.6	-65.7	3.6	1.51e+00	0	41	104	0	60	69959
2026-01-20 01:26:55.25	189.15	2.75	-50.0	-64.9	3.6	1.51e+00	0	41	104	0	60	63344
2026-01-20 01:26:56.27	189.20	2.81	-49.8	-64.6	3.6	1.51e+00	0	41	104	0	60	61545
2026-01-20 01:26:57.28	189.24	2.87	-49.7	-63.6	3.6	1.51e+00	0	41	104	0	60	54946
2026-01-20 01:26:58.29	189.29	2.94	-50.1	-64.8	3.6	1.51e+00	0	41	104	0	60	62945
2026-01-20 01:26:59.30	189.34	3.00	-50.1	-65.0	3.6	1.51e+00	0	41	104	0	60	64487
2026-01-20 01:27:00.31	189.39	3.06	-50.4	-63.3	3.6	1.51e+00	0	41	104	0	60	52987
2026-01-20 01:27:01.31	189.44	3.13	-50.0	-60.8	4.9	1.39e+00	0	41	104	0	60	39560
2026-01-20 01:27:02.32	189.49	3.19	-50.6	-58.3	6.4	5.74e-01	0	41	0	1048576	60	29873
2026-01-20 01:27:03.33	189.53	3.25	-50.2	-55.5	9.5	2.82e-02	0	41	0	3145728	60	21635
2026-01-20 01:27:04.34	189.58	3.32	-48.7	-52.7	12.3	1.37e-03	0	41	0	5242880	60	15560
2026-01-20 01:27:05.35	189.63	3.38	-46.8	-49.5	15.1	1.29e-05	0	41	0	7340032	60	10812
2026-01-20 01:27:06.36	189.68	3.45	-46.4	-49.2	15.0	0.00e+00	0	41	0	8388608	60	10443
2026-01-20 01:27:07.37	189.73	3.51	-46.3	-48.7	16.3	0.00e+00	0	41	0	10485760	60	9894
2026-01-20 01:27:08.38	189.78	3.58	-46.1	-48.5	16.3	0.00e+00	0	41	0	12582912	60	9673
2026-01-20 01:27:09.39	189.83	3.64	-46.2	-48.6	15.2	0.00e+00	0	41	0	14680064	60	9739
2026-01-20 01:27:10.40	189.88	3.70	-46.0	-48.3	16.6	0.00e+00	0	41	0	16777216	60	9382
2026-01-20 01:27:11.41	189.93	3.77	-47.3	-50.4	14.4	1.47e-03	0	41	0	17825792	60	11914
2026-01-20 01:27:12.42	189.98	3.83	-45.5	-47.8	16.6	5.64e-05	0	41	0	19922944	60	8895
2026-01-20 01:27:13.43	190.03	3.90	-49.4	-60.0	3.8	5.63e-01	0	41	0	22020096	60	36160
2026-01-20 01:27:14.44	190.09	3.97	-48.6	-55.2	5.4	1.51e+00	0	41	104	22020096	60	20837
2026-01-20 01:27:15.44	190.14	4.03	-45.7	-47.9	16.5	4.36e-01	0	41	104	22020096	60	8994
2026-01-20 01:27:16.45	190.19	4.10	-45.7	-47.9	16.6	0.00e+00	0	41	0	23068672	60	9010
2026-01-20 01:27:17.46	190.24	4.16	-45.8	-48.1	16.2	0.00e+00	0	41	0	25165824	60	9179
2026-01-20 01:27:18.47	190.29	4.23	-45.7	-48.0	16.2	0.00e+00	0	41	0	27262976	60	9129
2026-01-20 01:27:19.48	190.34	4.29	-45.7	-48.0	16.6	0.00e+00	0	41	0	29360128	60	9129
2026-01-20 01:27:20.49	190.40	4.36	-45.1	-47.2	17.0	0.00e+00	0	41	0	30408704	60	8252
2026-01-20 01:27:21.50	190.45	4.43	-44.9	-47.0	17.2	0.00e+00	0	41	0	32505856	60	8078
2026-01-20 01:27:22.51	190.50	4.49	-44.9	-47.0	17.1	0.00e+00	0	41	0	34603008	60	8083
2026-01-20 01:27:23.52	190.55	4.56	-44.7	-46.8	17.1	0.00e+00	0	41	0	36700160	60	7885
2026-01-20 01:27:24.53	190.61	4.63	-44.0	-45.7	18.2	0.00e+00	0	41	0	38797312	60	7002
2026-01-20 01:27:25.54	190.66	4.69	-43.9	-45.6	18.6	0.00e+00	0	41	0	40894464	60	6871
2026-01-20 01:27:26.55	190.72	4.76	-44.1	-45.8	18.4	0.00e+00	0	41	0	41943040	60	7012
2026-01-20 01:27:27.56	190.77	4.83	-44.3	-46.0	18.6	0.00e+00	0	41	0	44040192	60	7177
2026-01-20 01:27:28.57	190.82	4.90	-44.9	-46.6	18.5	0.00e+00	0	41	0	46137344	60	7759
2026-01-20 01:27:29.58	190.88	4.96	-44.9	-46.8	18.0	0.00e+00	0	41	0	48234496	60	7871
2026-01-20 01:27:30.59	190.93	5.03	-44.4	-46.1	18.3	0.00e+00	0	41	0	50331648	60	7311
2026-01-20 01:27:31.60	190.99	5.10	-44.4	-46.1	18.1	0.00e+00	0	41	0	51380224	60	7282
2026-01-20 01:27:32.61	191.04	5.17	-44.2	-45.9	18.4	0.00e+00	0	41	0	53477376	60	7102
2026-01-20 01:27:33.62	191.10	5.23	-43.8	-45.4	19.0	0.00e+00	0	41	0	55574528	60	6729
2026-01-20 01:27:34.63	191.15	5.30	-44.1	-45.8	18.7	0.00e+00	0	41	0	57671680	60	7035
2026-01-20 01:27:35.64	191.21	5.37	-43.7	-45.2	19.0	0.00e+00	0	41	0	59768832	60	6599
2026-01-20 01:27:36.65	191.27	5.44	-44.2	-45.9	18.2	0.00e+00	0	41	0	60817408	60	7149
2026-01-20 01:27:37.66	191.32	5.51	-44.0	-45.7	18.6	0.00e+00	0	41	0	62914560	60	6935
2026-01-20 01:27:38.67	191.38	5.58	-44.1	-45.7	18.6	0.00e+00	0	41	0	65011712	60	6992
2026-01-20 01:27:39.68	191.44	5.65	-44.5	-46.1	18.7	0.00e+00	0	41	0	67108864	60	7299
2026-01-20 01:27:40.69	191.49	5.72	-44.2	-45.9	18.8	0.00e+00	0	41	0	69206016	60	7123
2026-01-20 01:27:41.69	191.55	5.78	-44.4	-46.1	18.5	0.00e+00	0	41	0	70254592	60	7291
2026-01-20 01:27:42.70	191.61	5.85	-44.0	-45.7	18.8	0.00e+00	0	41	0	72351744	60	6929
2026-01-20 01:27:43.71	191.67	5.92	-43.7	-45.2	19.2	0.00e+00	0	41	0	74448896	60	6578
2026-01-20 01:27:44.72	191.72	5.99	-43.1	-44.6	19.8	0.00e+00	0	41	0	76546048	60	6106
2026-01-20 01:27:45.73	191.78	6.06	-43.8	-45.4	19.1	0.00e+00	0	41	0	78643200	60	6718
2026-01-20 01:27:46.74	191.84	6.13	-43.4	-44.9	19.4	0.00e+00	0	41	0	79691776	60	6387
2026-01-20 01:27:47.74	191.90	6.20	-43.4	-44.9	19.5	0.00e+00	0	41	0	81788928	60	6358
2026-01-20 01:27:48.75	191.96	6.27	-43.2	-44.7	19.5	0.00e+00	0	41	0	83886080	60	6227
2026-01-20 01:27:49.76	192.02	6.35	-43.5	-45.0	19.6	0.00e+00	0	41	0	85983232	60	6409
2026-01-20 01:27:50.77	192.08	6.42	-44.9	-46.4	19.5	0.00e+00	0	41	0	88080384	60	7538
2026-01-20 01:27:51.78	192.14	6.49	-44.2	-45.7	19.7	0.00e+00	0	41	0	89128960	60	6951
2026-01-20 01:27:52.79	192.20	6.56	-44.1	-45.7	19.4	0.00e+00	0	41	0	91226112	60	6966
2026-01-20 01:27:53.80	192.26	6.63	-44.1	-45.6	19.5	0.00e+00	0	41	0	93323264	60	6874
2026-01-20 01:27:54.81	192.32	6.70	-44.1	-45.6	19.9	0.00e+00	0	41	0	95420416	60	6889
2026-01-20 01:27:55.82	192.38	6.77	-44.6	-46.1	19.5	0.00e+00	0	41	0	97517568	60	7302
2026-01-20 01:27:56.83	192.44	6.85	-44.5	-46.0	19.5	0.00e+00	0	41	0	98566144	60	7213
2026-01-20 01:27:57.84	192.50	6.92	-43.8	-45.3	19.7	0.00e+00	0	41	0	100663296	60	6630
2026-01-20 01:27:58.84	192.57	6.99	-43.3	-44.8	19.8	0.00e+00	0	41	0	102760448	60	6246
2026-01-20 01:27:59.85	192.63	7.06	-43.2	-44.6	19.9	0.00e+00	0	41	0	104857600	60	6136
2026-01-20 01:28:00.86	192.69	7.13	-43.2	-44.7	19.9	0.00e+00	0	41	0	106954752	60	6177
2026-01-20 01:28:01.87	192.75	7.21	-43.2	-44.6	20.1	0.00e+00	0	41	0	109051904	60	6136
2026-01-20 01:28:02.88	192.82	7.28	-43.2	-44.6	20.1	0.00e+00	0	41	0	110100480	60	6118
2026-01-20 01:28:03.89	192.88	7.35	-43.2	-44.6	20.1	0.00e+00	0	41	0	112197632	60	6145
2026-01-20 01:28:04.90	192.94	7.43	-43.0	-44.4	20.1	0.00e+00	0	41	0	114294784	60	5971
2026-01-20 01:28:05.90	193.01	7.50	-43.1	-44.4	20.2	0.00e+00	0	41	0	116391936	60	6022
2026-01-20 01:28:06.91	193.07	7.57	-43.2	-44.5	20.2	0.00e+00	0	41	0	118489088	60	6097
2026-01-20 01:28:07.93	193.14	7.65	-43.5	-44.8	20.2	0.00e+00	0	41	0	119537664	60	6316
2026-01-20 01:28:08.94	193.20	7.72	-43.5	-44.9	20.1	0.00e+00	0	41	0	121634816	60	6352
2026-01-20 01:28:09.95	193.27	7.80	-42.9	-44.2	20.5	0.00e+00	0	41	0	123731968	60	5840
2026-01-20 01:28:10.96	193.33	7.87	-42.9	-44.2	20.4	0.00e+00	0	41	0	125829120	60	5871
2026-01-20 01:28:11.97	193.40	7.95	-42.4	-43.7	20.7	0.00e+00	0	41	0	127926272	58	6183
2026-01-20 01:28:12.98	193.47	8.02	-42.5	-43.7	20.5	0.00e+00	0	41	0	128974848	58	6245
2026-01-20 01:28:13.99	193.53	8.10	-42.3	-43.5	20.6	0.00e+00	0	41	0	131072000	58	6081
2026-01-20 01:28:15.00	193.60	8.17	-43.2	-44.5	20.6	0.00e+00	0	41	0	133169152	58	6831
2026-01-20 01:28:16.00	193.67	8.25	-42.9	-44.2	20.6	0.00e+00	0	41	0	135266304	58	6562
2026-01-20 01:28:17.01	193.73	8.32	-43.5	-44.8	20.7	0.00e+00	0	41	0	137363456	58	7049
2026-01-20 01:28:18.02	193.80	8.40	-43.2	-44.4	20.7	0.00e+00	0	41	0	138412032	58	6741
2026-01-20 01:28:19.03	193.87	8.47	-43.6	-44.9	20.5	0.00e+00	0	41	0	140509184	58	7131
2026-01-20 01:28:20.04	193.94	8.55	-44.1	-45.4	20.5	0.00e+00	0	41	0	142606336	60	6736
2026-01-20 01:28:21.05	194.01	8.63	-44.0	-45.3	20.6	0.00e+00	0	41	0	144703488	60	6642
2026-01-20 01:28:22.06	194.08	8.70	-44.4	-45.7	20.7	0.00e+00	0	41	0	146800640	60	6959
2026-01-20 01:28:23.07	194.15	8.78	-44.4	-45.7	20.7	0.00e+00	0	41	0	147849216	60	6992
2026-01-20 01:28:24.07	194.22	8.86	-44.4	-45.7	20.4	0.00e+00	0	41	0	149946368	60	6974
2026-01-20 01:28:25.08	194.29	8.93	-44.7	-46.0	20.6	0.00e+00	0	41	0	152043520	60	7188
2026-01-20 01:28:26.09	194.36	9.01	-44.4	-45.7	20.6	0.00e+00	0	41	0	154140672	60	6941
2026-01-20 01:28:27.10	194.43	9.09	-45.0	-46.4	20.3	0.00e+00	0	41	0	156237824	60	7556
2026-01-20 01:28:28.11	194.50	9.17	-44.3	-45.6	20.5	0.00e+00	0	41	0	157286400	60	6895
2026-01-20 01:28:29.12	194.57	9.24	-43.7	-45.0	20.5	0.00e+00	0	41	0	159383552	60	6423
2026-01-20 01:28:30.13	194.64	9.32	-43.5	-44.9	20.4	0.00e+00	0	41	0	161480704	60	6335
2026-01-20 01:28:31.13	194.71	9.40	-43.0	-44.3	20.8	0.00e+00	0	41	0	163577856	60	5932
2026-01-20 01:28:32.14	194.79	9.48	-42.8	-44.0	20.8	0.00e+00	0	41	0	165675008	58	6455
2026-01-20 01:28:33.15	194.86	9.56	-42.6	-43.9	20.9	0.00e+00	0	41	0	166723584	58	6330
2026-01-20 01:28:34.17	194.94	9.64	-42.4	-43.6	21.0	0.00e+00	0	41	0	168820736	58	6122
2026-01-20 01:28:35.17	195.01	9.72	-42.2	-43.5	20.9	0.00e+00	0	41	0	170917888	58	6034
2026-01-20 01:28:36.18	195.08	9.80	-42.2	-43.5	20.7	0.00e+00	0	41	0	173015040	58	6039
2026-01-20 01:28:37.19	195.16	9.88	-42.1	-43.3	21.2	0.00e+00	0	41	0	175112192	58	5922
2026-01-20 01:28:38.20	195.23	9.96	-42.0	-43.2	21.1	0.00e+00	0	41	0	177209344	58	5871
2026-01-20 01:28:39.21	195.31	10.04	-42.7	-44.0	20.9	0.00e+00	0	41	0	178257920	58	6422
2026-01-20 01:28:40.21	195.38	10.12	-42.2	-43.4	21.3	0.00e+00	0	41	0	180355072	58	6017
2026-01-20 01:28:41.22	195.46	10.20	-42.3	-43.5	21.0	0.00e+00	0	41	0	182452224	58	6049
2026-01-20 01:28:42.23	195.54	10.28	-41.9	-43.1	21.2	0.00e+00	0	41	0	184549376	58	5815
2026-01-20 01:28:43.24	195.61	10.36	-42.0	-43.2	21.3	0.00e+00	0	41	0	185597952	58	5867
2026-01-20 01:28:44.25	195.69	10.44	-42.2	-43.4	21.2	0.00e+00	0	41	0	187695104	58	5979
2026-01-20 01:28:45.26	195.77	10.52	-42.7	-43.9	21.5	0.00e+00	0	41	0	189792256	58	6332
2026-01-20 01:28:46.27	195.85	10.60	-42.5	-43.6	21.5	0.00e+00	0	41	0	191889408	58	6140
2026-01-20 01:28:47.28	195.93	10.69	-42.3	-43.5	21.5	0.00e+00	0	41	0	193986560	58	6056
2026-01-20 01:28:48.29	196.01	10.77	-42.3	-43.5	21.4	0.00e+00	0	41	0	195035136	58	6053
2026-01-20 01:28:49.30	196.09	10.85	-42.1	-43.2	21.4	0.00e+00	0	41	0	197132288	58	5889
2026-01-20 01:28:50.30	196.16	10.93	-42.5	-43.7	21.4	0.00e+00	0	41	0	199229440	58	6206
2026-01-20 01:28:51.31	196.25	11.01	-42.4	-43.6	21.5	0.00e+00	0	41	0	201326592	58	6142
2026-01-20 01:28:52.32	196.33	11.10	-42.6	-43.7	21.5	0.00e+00	0	41	0	203423744	58	6213
2026-01-20 01:28:53.33	196.41	11.18	-43.6	-44.8	21.4	0.00e+00	0	41	0	205520896	58	7013
2026-01-20 01:28:54.34	196.49	11.27	-43.7	-44.8	21.2	0.00e+00	0	41	0	206569472	58	7058
2026-01-20 01:28:55.35	196.57	11.35	-43.3	-44.4	21.8	0.00e+00	0	41	0	208666624	60	6028
2026-01-20 01:28:56.36	196.65	11.43	-43.2	-44.3	21.6	0.00e+00	0	41	0	210763776	60	5943
2026-01-20 01:28:57.37	196.74	11.52	-43.5	-44.6	21.8	0.00e+00	0	41	0	212860928	60	6160
2026-01-20 01:28:58.38	196.82	11.60	-43.0	-44.1	21.7	0.00e+00	0	41	0	214958080	60	5812
2026-01-20 01:28:59.39	196.91	11.69	-42.6	-43.7	22.1	0.00e+00	0	41	0	216006656	58	6177
2026-01-20 01:29:00.39	196.99	11.77	-42.6	-43.6	22.1	0.00e+00	0	41	0	218103808	58	6156
2026-01-20 01:29:01.40	197.07	11.86	-43.0	-44.1	22.1	0.00e+00	0	41	0	220200960	58	6488
2026-01-20 01:29:02.41	197.16	11.94	-42.3	-43.4	22.2	0.00e+00	0	41	0	222298112	58	5969
2026-01-20 01:29:03.42	197.25	12.03	-42.3	-43.4	22.2	0.00e+00	0	41	0	224395264	58	5980
2026-01-20 01:29:04.43	197.33	12.11	-42.6	-43.7	22.2	0.00e+00	0	41	0	225443840	58	6179
2026-01-20 01:29:05.44	197.42	12.20	-42.8	-43.9	22.2	0.00e+00	0	41	0	227540992	58	6353
2026-01-20 01:29:06.45	197.51	12.29	-42.6	-43.6	22.1	0.00e+00	0	41	0	229638144	58	6157
2026-01-20 01:29:07.46	197.59	12.37	-43.2	-44.3	21.9	0.00e+00	0	41	0	231735296	58	6660
2026-01-20 01:29:08.47	197.68	12.46	-42.5	-43.6	22.3	0.00e+00	0	41	0	233832448	58	6120
2026-01-20 01:29:09.48	197.77	12.55	-42.3	-43.4	22.3	0.00e+00	0	41	0	234881024	58	5973
2026-01-20 01:29:10.49	197.86	12.64	-42.8	-43.8	22.0	0.00e+00	0	41	0	236978176	58	6311
2026-01-20 01:29:11.50	197.95	12.72	-42.8	-43.8	22.3	0.00e+00	0	41	0	239075328	58	6299
2026-01-20 01:29:12.51	198.04	12.81	-42.8	-43.8	22.3	0.00e+00	0	41	0	241172480	58	6311
2026-01-20 01:29:13.52	198.13	12.90	-42.3	-43.3	22.3	0.00e+00	0	41	0	243269632	58	5949
2026-01-20 01:29:14.53	198.22	12.99	-42.3	-43.3	22.3	0.00e+00	0	41	0	244318208	58	5950
2026-01-20 01:29:15.54	198.32	13.08	-42.1	-43.1	22.2	0.00e+00	0	41	0	246415360	58	5805
2026-01-20 01:29:16.55	198.41	13.17	-41.5	-42.5	22.4	0.00e+00	0	41	0	248512512	56	6100
2026-01-20 01:29:17.55	198.50	13.25	-41.4	-42.4	22.4	0.00e+00	0	41	0	250609664	56	6003
2026-01-20 01:29:18.57	198.59	13.34	-41.4	-42.5	22.3	0.00e+00	0	41	0	252706816	56	6039
2026-01-20 01:29:19.57	198.69	13.43	-41.1	-42.1	22.4	0.00e+00	0	41	0	253755392	56	5816
2026-01-20 01:29:20.58	198.78	13.52	-41.0	-42.1	22.4	0.00e+00	0	41	0	255852544	56	5764
2026-01-20 01:29:21.59	198.88	13.61	-41.0	-42.0	22.4	0.00e+00	0	41	0	257949696	56	5716
2026-01-20 01:29:22.60	198.97	13.70	-41.0	-42.1	22.3	0.00e+00	0	41	0	260046848	56	5781
2026-01-20 01:29:23.61	199.07	13.80	-41.0	-42.0	22.3	0.00e+00	0	41	0	262144000	56	5724
2026-01-20 01:29:24.62	199.17	13.89	-41.0	-42.0	22.4	0.00e+00	0	41	0	263192576	56	5730
2026-01-20 01:29:25.63	199.26	13.98	-41.1	-42.1	22.5	0.00e+00	0	41	0	265289728	56	5798
2026-01-20 01:29:26.64	199.36	14.07	-41.9	-42.9	22.6	0.00e+00	0	41	0	267386880	56	6365
2026-01-20 01:29:27.64	199.46	14.16	-41.8	-42.8	22.5	0.00e+00	0	41	0	269484032	56	6296
2026-01-20 01:29:28.65	199.56	14.25	-41.7	-42.7	22.6	0.00e+00	0	41	0	271581184	56	6188
2026-01-20 01:29:29.66	199.66	14.35	-41.4	-42.4	22.6	0.00e+00	0	42	0	273678336	56	6029
2026-01-20 01:29:30.67	199.76	14.44	-41.5	-42.6	22.4	0.00e+00	0	42	0	274726912	56	6108
2026-01-20 01:29:31.68	199.86	14.53	-41.2	-42.2	22.6	0.00e+00	0	41	0	276824064	56	5837
2026-01-20 01:29:32.69	199.96	14.63	-41.7	-42.8	22.3	0.00e+00	0	41	0	278921216	56	6255
2026-01-20 01:29:33.70	200.06	14.72	-41.5	-42.5	22.4	0.00e+00	0	41	0	281018368	56	6047
2026-01-20 01:29:34.71	200.17	14.81	-41.4	-42.5	22.5	0.00e+00	0	42	0	283115520	56	6039
2026-01-20 01:29:35.72	200.27	14.91	-41.0	-42.0	22.7	0.00e+00	0	42	0	284164096	56	5723
2026-01-20 01:29:36.73	200.38	15.00	-41.1	-42.1	22.6	0.00e+00	0	42	0	286261248	56	5808
2026-01-20 01:29:37.74	200.48	15.10	-40.8	-41.8	22.8	0.00e+00	0	41	0	288358400	56	5584
2026-01-20 01:29:38.75	200.59	15.19	-40.5	-41.5	22.9	0.00e+00	0	42	0	290455552	54	6058
2026-01-20 01:29:39.75	200.69	15.29	-41.1	-42.1	22.8	0.00e+00	0	42	0	292552704	54	6526
2026-01-20 01:29:40.76	200.80	15.38	-41.4	-42.4	22.8	0.00e+00	0	42	0	293601280	54	6710
2026-01-20 01:29:41.77	200.90	15.48	-41.2	-42.2	22.8	0.00e+00	0	42	0	295698432	54	6595
2026-01-20 01:29:42.78	201.01	15.57	-41.0	-42.0	22.8	0.00e+00	0	41	0	297795584	54	6412
2026-01-20 01:29:43.79	201.12	15.67	-40.7	-41.7	22.9	0.00e+00	0	42	0	299892736	54	6212
2026-01-20 01:29:44.79	201.23	15.77	-40.6	-41.6	23.0	0.00e+00	0	42	0	301989888	54	6136
2026-01-20 01:29:45.80	201.34	15.86	-41.3	-42.3	22.8	0.00e+00	0	42	0	303038464	54	6631
2026-01-20 01:29:46.81	201.45	15.96	-41.4	-42.3	23.1	0.00e+00	0	42	0	305135616	54	6691
2026-01-20 01:29:47.82	201.56	16.06	-41.6	-42.6	23.1	0.00e+00	0	42	0	307232768	54	6859
2026-01-20 01:29:48.83	201.67	16.16	-41.8	-42.8	22.9	0.00e+00	0	42	0	309329920	56	6273
2026-01-20 01:29:49.84	201.79	16.25	-42.0	-43.0	22.9	0.00e+00	0	41	0	311427072	56	6439
2026-01-20 01:29:50.85	201.90	16.35	-42.5	-43.5	22.9	0.00e+00	0	42	0	312475648	56	6770
2026-01-20 01:29:51.86	202.01	16.45	-42.2	-43.3	22.7	0.00e+00	0	42	0	314572800	56	6627
2026-01-20 01:29:52.87	202.13	16.55	-41.9	-42.9	22.7	0.00e+00	0	42	0	316669952	56	6372
2026-01-20 01:29:53.88	202.25	16.65	-42.2	-43.3	22.3	0.00e+00	0	41	0	318767104	56	6649
2026-01-20 01:29:54.89	202.36	16.75	-42.4	-43.4	22.5	0.00e+00	0	42	0	320864256	56	6755
2026-01-20 01:29:55.90	202.48	16.85	-42.1	-43.1	22.7	0.00e+00	0	42	0	321912832	56	6503
2026-01-20 01:29:56.91	202.60	16.95	-41.9	-42.9	22.5	0.00e+00	0	42	0	324009984	56	6352
2026-01-20 01:29:57.91	202.71	17.05	-41.7	-42.8	22.6	0.00e+00	0	42	0	326107136	56	6267
2026-01-20 01:29:58.92	202.83	17.15	-42.2	-43.3	22.5	0.00e+00	0	41	0	328204288	56	6650
2026-01-20 01:29:59.93	202.95	17.25	-42.6	-43.7	22.2	0.00e+00	0	42	0	330301440	58	6197
2026-01-20 01:30:00.94	203.08	17.35	-42.4	-43.5	22.2	0.00e+00	0	42	0	331350016	58	6069
2026-01-20 01:30:01.96	203.20	17.46	-42.0	-43.1	22.5	0.00e+00	0	42	0	333447168	58	5773
2026-01-20 01:30:02.96	203.32	17.56	-41.9	-42.9	22.6	0.00e+00	0	42	0	335544320	58	5684
2026-01-20 01:30:03.97	203.44	17.66	-41.9	-42.9	22.6	0.00e+00	0	42	0	337641472	56	6372
2026-01-20 01:30:04.98	203.57	17.76	-41.6	-42.7	22.6	0.00e+00	0	42	0	339738624	56	6194
2026-01-20 01:30:05.99	203.69	17.87	-41.8	-42.8	22.5	0.00e+00	0	42	0	340787200	56	6312
2026-01-20 01:30:07.00	203.82	17.97	-41.6	-42.6	22.5	0.00e+00	0	42	0	342884352	56	6155
2026-01-20 01:30:08.01	203.95	18.07	-41.7	-42.7	22.5	0.00e+00	0	42	0	344981504	56	6235
2026-01-20 01:30:09.03	204.07	18.18	-41.7	-42.7	22.3	0.00e+00	0	42	0	347078656	56	6218
2026-01-20 01:30:10.04	204.20	18.28	-41.8	-42.9	22.1	0.00e+00	0	42	0	349175808	56	6372
2026-01-20 01:30:11.05	204.33	18.39	-42.2	-43.2	22.2	0.00e+00	0	42	0	350224384	56	6604
2026-01-20 01:30:12.06	204.46	18.49	-42.8	-43.8	22.1	0.00e+00	0	42	0	352321536	56	7087
2026-01-20 01:30:13.07	204.59	18.60	-42.7	-43.7	22.3	0.00e+00	0	42	0	354418688	58	6221
2026-01-20 01:30:14.08	204.72	18.70	-43.0	-44.0	22.2	0.00e+00	0	42	0	356515840	58	6446
2026-01-20 01:30:15.08	204.86	18.81	-42.6	-43.7	22.1	0.00e+00	0	42	0	358612992	58	6184
2026-01-20 01:30:16.09	204.99	18.91	-42.3	-43.3	22.2	0.00e+00	0	42	0	359661568	58	5959
2026-01-20 01:30:17.10	205.12	19.02	-42.9	-44.0	22.1	0.00e+00	0	42	0	361758720	58	6424
2026-01-20 01:30:18.11	205.26	19.13	-42.7	-43.7	22.5	0.00e+00	0	42	0	363855872	58	6225
2026-01-20 01:30:19.12	205.40	19.23	-42.9	-43.9	22.4	0.00e+00	0	42	0	365953024	58	6353
2026-01-20 01:30:20.13	205.53	19.34	-42.5	-43.5	22.4	0.00e+00	0	42	0	368050176	58	6086
2026-01-20 01:30:21.14	205.67	19.45	-42.5	-43.6	22.3	0.00e+00	0	42	0	370147328	58	6111
2026-01-20 01:30:22.14	205.81	19.55	-42.1	-43.2	22.3	0.00e+00	0	42	0	371195904	58	5855
2026-01-20 01:30:23.15	205.95	19.66	-42.2	-43.3	22.2	0.00e+00	0	42	0	373293056	58	5903
2026-01-20 01:30:24.16	206.09	19.77	-42.5	-43.6	22.0	0.00e+00	0	42	0	375390208	58	6116
2026-01-20 01:30:25.16	206.23	19.88	-42.7	-43.8	21.9	0.00e+00	0	42	0	377487360	58	6315
2026-01-20 01:30:26.17	206.37	19.99	-42.2	-43.3	21.9	0.00e+00	0	42	0	379584512	58	5963
2026-01-20 01:30:27.18	206.52	20.10	-41.8	-42.9	22.1	0.00e+00	0	42	0	380633088	58	5680
2026-01-20 01:30:28.19	206.66	20.21	-41.8	-43.0	21.9	0.00e+00	0	42	0	382730240	58	5704
2026-01-20 01:30:29.20	206.81	20.32	-42.7	-43.9	21.5	0.00e+00	0	42	0	384827392	58	6341
2026-01-20 01:30:30.21	206.96	20.43	-42.7	-43.8	21.9	0.00e+00	0	42	0	386924544	58	6283
2026-01-20 01:30:31.22	207.10	20.54	-42.5	-43.6	21.9	0.00e+00	0	42	0	389021696	58	6159
2026-01-20 01:30:32.23	207.25	20.65	-42.1	-43.2	22.0	0.00e+00	0	42	0	390070272	58	5873
2026-01-20 01:30:33.24	207.40	20.76	-41.9	-43.1	22.1	0.00e+00	0	42	0	392167424	58	5787
2026-01-20 01:30:34.24	207.55	20.87	-42.0	-43.1	22.0	0.00e+00	0	42	0	394264576	58	5788
2026-01-20 01:30:35.25	207.71	20.98	-41.9	-43.1	21.9	0.00e+00	0	42	0	396361728	58	5767
2026-01-20 01:30:36.26	207.86	21.10	-41.8	-43.0	21.8	0.00e+00	0	42	0	398458880	58	5718
2026-01-20 01:30:37.27	208.01	21.21	-41.8	-42.9	21.8	0.00e+00	0	42	0	399507456	58	5691
2026-01-20 01:30:38.28	208.17	21.32	-42.0	-43.1	21.8	0.00e+00	0	42	0	401604608	56	6478
2026-01-20 01:30:39.29	208.33	21.43	-41.9	-43.0	21.8	0.00e+00	0	42	0	403701760	56	6438
2026-01-20 01:30:40.30	208.48	21.55	-42.1	-43.2	21.7	0.00e+00	0	42	0	405798912	56	6557
2026-01-20 01:30:41.31	208.64	21.66	-42.0	-43.1	21.8	0.00e+00	0	42	0	407896064	56	6514
2026-01-20 01:30:42.32	208.80	21.77	-41.9	-43.0	21.9	0.00e+00	0	42	0	408944640	56	6416
2026-01-20 01:30:43.33	208.96	21.89	-41.5	-42.6	22.0	0.00e+00	0	42	0	411041792	56	6118
2026-01-20 01:30:44.34	209.13	22.00	-41.4	-42.5	22.1	0.00e+00	0	42	0	413138944	56	6055
2026-01-20 01:30:45.35	209.29	22.12	-41.4	-42.5	22.1	0.00e+00	0	42	0	415236096	56	6083
2026-01-20 01:30:46.36	209.45	22.23	-41.5	-42.5	22.1	0.00e+00	0	42	0	417333248	56	6073
2026-01-20 01:30:47.37	209.62	22.35	-41.8	-43.0	21.9	0.00e+00	0	42	0	418381824	56	6400
2026-01-20 01:30:48.38	209.79	22.46	-41.4	-42.4	22.4	0.00e+00	0	42	0	420478976	56	6021
2026-01-20 01:30:49.39	209.96	22.58	-41.8	-42.9	22.4	0.00e+00	0	42	0	422576128	56	6325
2026-01-20 01:30:50.40	210.12	22.70	-42.4	-43.4	22.4	0.00e+00	0	42	0	424673280	56	6728
2026-01-20 01:30:51.41	210.30	22.81	-42.3	-43.3	22.5	0.00e+00	0	42	0	426770432	56	6692
2026-01-20 01:30:52.42	210.47	22.93	-42.0	-43.1	22.5	0.00e+00	0	42	0	428867584	56	6465
2026-01-20 01:30:53.43	210.64	23.05	-41.6	-42.5	22.6	0.00e+00	0	42	0	429916160	56	6102
2026-01-20 01:30:54.43	210.81	23.16	-41.4	-42.4	22.5	0.00e+00	0	42	0	432013312	56	5978
2026-01-20 01:30:55.44	210.99	23.28	-41.2	-42.2	22.6	0.00e+00	0	42	0	434110464	56	5895
2026-01-20 01:30:56.45	211.17	23.40	-41.3	-42.4	22.5	0.00e+00	0	42	0	436207616	56	5966
2026-01-20 01:30:57.46	211.34	23.52	-41.3	-42.4	22.2	0.00e+00	0	42	0	438304768	56	5974
2026-01-20 01:30:58.47	211.52	23.63	-41.2	-42.2	22.6	0.00e+00	0	42	0	439353344	56	5835
2026-01-20 01:30:59.48	211.70	23.75	-41.1	-42.0	22.6	0.00e+00	0	42	0	441450496	56	5758
2026-01-20 01:31:00.49	211.89	23.87	-42.0	-43.1	22.6	0.00e+00	0	42	0	443547648	56	6475
2026-01-20 01:31:01.49	212.07	23.99	-41.6	-42.6	22.8	0.00e+00	0	42	0	445644800	56	6125
2026-01-20 01:31:02.50	212.25	24.11	-42.4	-43.3	22.8	0.00e+00	0	42	0	447741952	56	6685
2026-01-20 01:31:03.51	212.44	24.23	-42.2	-43.1	22.9	0.00e+00	0	42	0	448790528	56	6532
2026-01-20 01:31:04.52	212.63	24.35	-41.8	-42.8	22.9	0.00e+00	0	42	0	450887680	56	6248
2026-01-20 01:31:05.53	212.82	24.47	-42.4	-43.4	23.0	0.00e+00	0	42	0	452984832	56	6738
2026-01-20 01:31:06.54	213.01	24.59	-42.6	-43.5	23.1	0.00e+00	0	42	0	455081984	56	6819
2026-01-20 01:31:07.55	213.20	24.71	-42.0	-43.0	23.1	0.00e+00	0	42	0	457179136	56	6393
2026-01-20 01:31:08.55	213.39	24.83	-41.6	-42.6	23.1	0.00e+00	0	42	0	458227712	56	6134
2026-01-20 01:31:09.56	213.59	24.95	-41.4	-42.4	23.2	0.00e+00	0	42	0	460324864	56	5984
2026-01-20 01:31:10.57	213.78	25.07	-41.7	-42.6	23.2	0.00e+00	0	42	0	462422016	56	6143
2026-01-20 01:31:11.58	213.98	25.19	-41.7	-42.6	23.1	0.00e+00	0	42	0	464519168	56	6161
2026-01-20 01:31:12.59	214.18	25.31	-41.2	-42.2	23.2	0.00e+00	0	42	0	466616320	56	5837
2026-01-20 01:31:13.60	214.38	25.43	-41.7	-42.7	23.4	0.00e+00	0	42	0	467664896	56	6180
2026-01-20 01:31:14.61	214.58	25.56	-42.0	-43.0	23.4	0.00e+00	0	42	0	469762048	56	6392
2026-01-20 01:31:15.62	214.79	25.68	-41.8	-42.7	23.4	0.00e+00	0	42	0	471859200	56	6205
2026-01-20 01:31:16.62	214.99	25.80	-42.6	-43.6	23.1	0.00e+00	0	42	0	473956352	58	6114
2026-01-20 01:31:17.63	215.20	25.92	-42.7	-43.7	23.1	0.00e+00	0	42	0	476053504	58	6188
2026-01-20 01:31:18.64	215.41	26.04	-43.3	-44.4	22.6	0.00e+00	0	42	0	477102080	58	6698
2026-01-20 01:31:19.65	215.62	26.17	-43.0	-44.0	22.8	0.00e+00	0	42	0	479199232	58	6391
2026-01-20 01:31:20.66	215.83	26.29	-42.2	-43.1	23.0	0.00e+00	0	42	0	481296384	58	5820
2026-01-20 01:31:21.67	216.04	26.41	-42.1	-43.1	23.0	0.00e+00	0	42	0	483393536	58	5776
2026-01-20 01:31:22.69	216.26	26.54	-41.7	-42.7	22.9	0.00e+00	0	42	0	485490688	56	6219
2026-01-20 01:31:23.70	216.47	26.66	-42.7	-43.7	22.8	0.00e+00	0	42	0	486539264	56	6973
2026-01-20 01:31:24.71	216.69	26.79	-42.3	-43.3	22.9	0.00e+00	0	42	0	488636416	58	5910
2026-01-20 01:31:25.71	216.91	26.91	-42.1	-43.1	23.0	0.00e+00	0	42	0	490733568	58	5787
2026-01-20 01:31:26.72	217.13	27.03	-41.9	-42.8	23.0	0.00e+00	0	42	0	492830720	56	6306
2026-01-20 01:31:27.73	217.35	27.16	-42.3	-43.3	22.8	0.00e+00	0	42	0	494927872	56	6654
2026-01-20 01:31:28.74	217.58	27.28	-42.1	-43.1	22.7	0.00e+00	0	42	0	495976448	56	6521
2026-01-20 01:31:29.75	217.81	27.40	-42.1	-43.1	22.7	0.00e+00	0	42	0	498073600	56	6505
2026-01-20 01:31:30.77	218.04	27.53	-42.5	-43.5	22.6	0.00e+00	0	42	0	500170752	56	6788
2026-01-20 01:31:31.77	218.26	27.65	-42.4	-43.4	22.7	0.00e+00	0	42	0	502267904	58	6022
2026-01-20 01:31:32.78	218.50	27.78	-42.2	-43.2	22.8	0.00e+00	0	42	0	504365056	58	5857
2026-01-20 01:31:33.80	218.73	27.90	-41.9	-42.8	22.9	0.00e+00	0	42	0	505413632	58	5628
2026-01-20 01:31:34.80	218.96	28.03	-42.0	-43.0	22.7	0.00e+00	0	42	0	507510784	58	5759
2026-01-20 01:31:35.81	219.20	28.15	-41.8	-42.8	22.7	0.00e+00	0	42	0	509607936	56	6287
2026-01-20 01:31:36.82	219.44	28.27	-42.2	-43.2	22.5	0.00e+00	0	42	0	511705088	56	6603
2026-01-20 01:31:37.82	219.68	28.40	-42.3	-43.3	22.4	0.00e+00	0	42	0	513802240	56	6664
2026-01-20 01:31:38.83	219.92	28.52	-42.1	-43.1	22.1	0.00e+00	0	42	0	514850816	56	6537
2026-01-20 01:31:39.85	220.17	28.65	-42.0	-43.1	21.9	0.00e+00	0	42	0	516947968	56	6509
2026-01-20 01:31:40.86	220.41	28.77	-42.4	-43.4	22.2	0.00e+00	0	42	0	519045120	56	6736
2026-01-20 01:31:41.87	220.66	28.90	-43.6	-44.7	21.9	0.00e+00	0	42	0	521142272	60	6229
2026-01-20 01:31:42.87	220.91	29.02	-43.6	-44.7	21.9	0.00e+00	0	42	0	523239424	60	6203
2026-01-20 01:31:43.88	221.16	29.14	-44.2	-45.3	21.6	0.00e+00	0	42	0	525336576	60	6681
2026-01-20 01:31:44.89	221.42	29.27	-43.4	-44.5	21.6	0.00e+00	0	42	0	526385152	60	6071
2026-01-20 01:31:45.90	221.67	29.39	-44.0	-45.2	21.5	0.00e+00	0	42	0	528482304	60	6569
2026-01-20 01:31:46.91	221.93	29.52	-44.3	-45.5	21.1	0.00e+00	0	42	0	530579456	60	6843
2026-01-20 01:31:47.92	222.19	29.64	-44.5	-45.6	21.3	0.00e+00	0	42	0	532676608	60	6926
2026-01-20 01:31:48.93	222.45	29.77	-44.6	-45.8	20.9	0.00e+00	0	42	0	534773760	60	7030
2026-01-20 01:31:49.94	222.71	29.89	-43.9	-45.1	21.2	0.00e+00	0	42	0	535822336	60	6478
2026-01-20 01:31:50.95	222.98	30.01	-43.3	-44.4	21.7	0.00e+00	0	42	0	537919488	60	6016
2026-01-20 01:31:51.96	223.25	30.14	-44.0	-45.1	21.5	0.00e+00	0	42	0	540016640	60	6519
2026-01-20 01:31:52.96	223.51	30.26	-44.3	-45.4	21.7	0.00e+00	0	42	0	542113792	60	6718
2026-01-20 01:31:53.97	223.79	30.38	-44.4	-45.6	21.4	0.00e+00	0	42	0	544210944	60	6907
2026-01-20 01:31:54.98	224.06	30.51	-43.9	-45.1	21.2	0.00e+00	0	42	0	545259520	60	6486
2026-01-20 01:31:55.99	224.34	30.63	-43.6	-44.8	21.0	0.00e+00	0	42	0	547356672	60	6260
2026-01-20 01:31:57.00	224.61	30.75	-43.4	-44.6	21.1	0.00e+00	0	42	0	549453824	60	6127
2026-01-20 01:31:58.01	224.89	30.88	-43.4	-44.6	21.1	0.00e+00	0	42	0	551550976	60	6146
2026-01-20 01:31:59.02	225.17	31.00	-44.1	-45.4	20.6	0.00e+00	0	42	0	553648128	60	6702
2026-01-20 01:32:00.03	225.46	31.12	-43.3	-44.5	21.2	0.00e+00	0	42	0	554696704	60	6103
2026-01-20 01:32:01.03	225.74	31.24	-43.6	-44.8	21.1	0.00e+00	0	42	0	556793856	60	6308
2026-01-20 01:32:02.04	226.03	31.37	-44.4	-45.6	21.0	0.00e+00	0	42	0	558891008	60	6892
2026-01-20 01:32:03.06	226.32	31.49	-44.6	-45.8	20.9	0.00e+00	0	42	0	560988160	60	7060
2026-01-20 01:32:04.06	226.61	31.61	-45.6	-46.9	20.3	0.00e+00	0	42	0	563085312	60	8042
2026-01-20 01:32:05.07	226.91	31.73	-45.6	-47.1	19.9	0.00e+00	0	42	0	564133888	60	8170
2026-01-20 01:32:06.09	227.21	31.85	-46.1	-47.6	19.7	0.00e+00	0	42	0	566231040	60	8667
2026-01-20 01:32:07.10	227.51	31.97	-46.2	-47.8	19.3	0.00e+00	0	42	0	568328192	60	8917
2026-01-20 01:32:08.11	227.81	32.09	-45.8	-47.5	18.9	0.00e+00	0	42	0	570425344	60	8546
2026-01-20 01:32:09.12	228.11	32.21	-45.5	-47.2	18.8	0.00e+00	0	42	0	572522496	60	8295
2026-01-20 01:32:10.12	228.41	32.33	-46.9	-48.7	18.3	0.00e+00	0	42	0	573571072	60	9878
2026-01-20 01:32:11.13	228.72	32.45	-46.8	-48.5	18.7	0.00e+00	0	42	0	575668224	60	9644
2026-01-20 01:32:12.14	229.03	32.57	-46.2	-48.0	18.7	0.00e+00	0	42	0	577765376	60	9038
2026-01-20 01:32:13.15	229.34	32.68	-46.9	-48.7	18.5	0.00e+00	0	42	0	579862528	60	9828
2026-01-20 01:32:14.16	229.66	32.80	-47.1	-48.9	18.2	0.00e+00	0	42	0	581959680	60	10104
2026-01-20 01:32:15.17	229.97	32.92	-47.1	-49.0	18.0	0.00e+00	0	42	0	583008256	60	10220
2026-01-20 01:32:16.18	230.29	33.03	-47.5	-49.3	17.8	0.00e+00	0	42	0	585105408	60	10577
2026-01-20 01:32:17.19	230.61	33.15	-47.1	-49.0	18.1	0.00e+00	0	42	0	587202560	60	10144
2026-01-20 01:32:18.20	230.94	33.26	-46.9	-48.8	18.2	0.00e+00	0	42	0	589299712	60	9939
2026-01-20 01:32:19.21	231.26	33.38	-47.1	-48.9	18.1	0.00e+00	0	42	0	591396864	60	10085
2026-01-20 01:32:20.21	231.59	33.49	-46.6	-48.5	17.8	0.00e+00	0	42	0	593494016	60	9574
2026-01-20 01:32:21.22	231.92	33.61	-47.1	-49.1	17.8	0.00e+00	0	42	0	594542592	60	10257
2026-01-20 01:32:22.23	232.25	33.72	-47.2	-49.3	17.2	0.00e+00	0	42	0	596639744	60	10591
2026-01-20 01:32:23.24	232.59	33.83	-47.7	-49.8	17.1	0.00e+00	0	42	0	598736896	60	11216
2026-01-20 01:32:24.25	232.92	33.94	-47.5	-49.6	17.4	0.00e+00	0	42	0	600834048	60	10879
2026-01-20 01:32:25.26	233.26	34.05	-46.5	-48.5	18.0	0.00e+00	0	42	0	602931200	60	9566
2026-01-20 01:32:26.27	233.60	34.16	-47.3	-49.1	18.5	0.00e+00	0	42	0	603979776	60	10275
2026-01-20 01:32:27.28	233.95	34.27	-46.2	-47.6	19.9	0.00e+00	0	42	0	606076928	60	8714
2026-01-20 01:32:28.29	234.29	34.38	-45.7	-47.1	20.0	0.00e+00	0	42	0	608174080	60	8159
2026-01-20 01:32:29.30	234.64	34.49	-45.9	-47.3	20.2	0.00e+00	0	42	0	610271232	60	8343
2026-01-20 01:32:30.31	234.99	34.60	-45.8	-47.2	19.9	0.00e+00	0	42	0	612368384	60	8312
2026-01-20 01:32:31.32	235.34	34.70	-46.2	-47.7	19.2	0.00e+00	0	42	0	613416960	60	8807
2026-01-20 01:32:32.33	235.70	34.81	-47.2	-48.9	18.7	0.00e+00	0	42	0	615514112	60	10052
2026-01-20 01:32:33.33	236.05	34.91	-47.2	-48.9	18.6	0.00e+00	0	42	0	617611264	60	10103
2026-01-20 01:32:34.35	236.42	35.02	-47.8	-49.7	18.0	0.00e+00	0	42	0	619708416	60	11049
2026-01-20 01:32:35.35	236.77	35.12	-47.3	-49.0	19.0	0.00e+00	0	42	0	621805568	60	10194
2026-01-20 01:32:36.36	237.14	35.22	-46.8	-48.4	19.3	0.00e+00	0	42	0	622854144	60	9488
2026-01-20 01:32:37.37	237.50	35.32	-45.8	-47.2	19.9	0.00e+00	0	42	0	624951296	60	8316
2026-01-20 01:32:38.38	237.87	35.42	-45.6	-46.9	20.2	0.00e+00	0	42	0	627048448	60	8045
2026-01-20 01:32:39.39	238.24	35.52	-45.7	-47.1	20.4	0.00e+00	0	42	0	629145600	60	8139
2026-01-20 01:32:40.39	238.61	35.62	-45.2	-46.6	20.3	0.00e+00	0	42	0	631242752	60	7709
2026-01-20 01:32:41.40	238.99	35.71	-44.5	-45.8	20.8	0.00e+00	0	42	0	632291328	60	7029
2026-01-20 01:32:42.41	239.36	35.81	-44.7	-46.0	20.6	0.00e+00	0	42	0	634388480	60	7234
2026-01-20 01:32:43.43	239.75	35.91	-44.6	-45.9	20.4	0.00e+00	0	42	0	636485632	60	7158
2026-01-20 01:32:44.43	240.12	36.00	-44.0	-45.3	20.6	0.00e+00	0	42	0	638582784	60	6645
2026-01-20 01:32:45.44	240.51	36.09	-44.1	-45.4	20.8	0.00e+00	0	42	0	640679936	60	6703
2026-01-20 01:32:46.45	240.89	36.18	-44.3	-45.6	20.7	0.00e+00	0	42	0	641728512	60	6881
2026-01-20 01:32:47.46	241.28	36.27	-44.0	-45.2	21.6	0.00e+00	0	42	0	643825664	60	6546
2026-01-20 01:32:48.47	241.67	36.36	-43.6	-44.8	21.3	0.00e+00	0	42	0	645922816	60	6301
2026-01-20 01:32:49.48	242.06	36.45	-42.9	-43.9	22.5	0.00e+00	0	42	0	648019968	60	5669
2026-01-20 01:32:50.49	242.46	36.54	-43.4	-44.4	22.2	0.00e+00	0	42	0	650117120	60	6007
2026-01-20 01:32:51.50	242.85	36.62	-43.1	-44.1	22.1	0.00e+00	0	42	0	651165696	60	5818
2026-01-20 01:32:52.51	243.25	36.71	-44.3	-45.5	20.9	0.00e+00	0	42	0	653262848	60	6816
2026-01-20 01:32:53.52	243.65	36.79	-44.9	-46.1	21.4	0.00e+00	0	42	0	655360000	60	7315
2026-01-20 01:32:54.53	244.05	36.87	-44.4	-45.6	21.6	0.00e+00	0	42	0	657457152	60	6888
2026-01-20 01:32:55.53	244.45	36.95	-44.0	-45.1	21.8	0.00e+00	0	42	0	659554304	60	6473
2026-01-20 01:32:56.54	244.86	37.03	-44.1	-45.3	21.4	0.00e+00	0	42	0	660602880	60	6635
2026-01-20 01:32:57.55	245.27	37.10	-44.1	-45.2	21.4	0.00e+00	0	42	0	662700032	60	6580
2026-01-20 01:32:58.56	245.68	37.18	-44.3	-45.4	21.4	0.00e+00	0	42	0	664797184	60	6757
2026-01-20 01:32:59.57	246.09	37.25	-44.1	-45.2	21.4	0.00e+00	0	42	0	666894336	60	6604
2026-01-20 01:33:00.58	246.50	37.33	-44.3	-45.5	21.2	0.00e+00	0	42	0	668991488	60	6792
2026-01-20 01:33:01.59	246.92	37.40	-44.5	-45.7	20.8	0.00e+00	0	42	0	670040064	60	6963
2026-01-20 01:33:02.60	247.34	37.47	-44.7	-45.9	20.9	0.00e+00	0	42	0	672137216	60	7146
2026-01-20 01:33:03.61	247.76	37.54	-43.6	-44.8	21.2	0.00e+00	0	42	0	674234368	60	6255
2026-01-20 01:33:04.61	248.17	37.60	-43.7	-44.9	21.2	0.00e+00	0	42	0	676331520	60	6360
2026-01-20 01:33:05.62	248.59	37.67	-44.0	-45.2	21.0	0.00e+00	0	42	0	678428672	60	6586
2026-01-20 01:33:06.63	249.02	37.73	-44.0	-45.3	20.9	0.00e+00	0	42	0	679477248	60	6633
2026-01-20 01:33:07.64	249.44	37.79	-44.4	-45.6	21.5	0.00e+00	0	42	0	681574400	60	6854
2026-01-20 01:33:08.65	249.87	37.85	-44.3	-45.5	21.3	0.00e+00	0	42	0	683671552	60	6812
2026-01-20 01:33:09.66	250.30	37.91	-44.1	-45.3	21.2	0.00e+00	0	42	0	685768704	60	6675
2026-01-20 01:33:10.67	250.73	37.97	-43.8	-45.0	21.0	0.00e+00	0	42	0	687865856	60	6419
2026-01-20 01:33:11.67	251.16	38.02	-44.4	-45.6	21.1	0.00e+00	0	42	0	689963008	60	6891
2026-01-20 01:33:12.68	251.59	38.08	-43.9	-45.1	21.1	0.00e+00	0	42	0	691011584	60	6492
2026-01-20 01:33:13.69	252.02	38.13	-43.5	-44.7	21.6	0.00e+00	0	42	0	693108736	60	6192
2026-01-20 01:33:14.70	252.46	38.18	-43.3	-44.5	21.4	0.00e+00	0	42	0	695205888	60	6047
2026-01-20 01:33:15.71	252.90	38.23	-43.3	-44.5	21.0	0.00e+00	0	42	0	697303040	60	6061
2026-01-20 01:33:16.72	253.33	38.28	-44.3	-45.6	20.4	0.00e+00	0	42	0	699400192	60	6864
2026-01-20 01:33:17.73	253.77	38.32	-44.4	-45.7	20.5	0.00e+00	0	42	0	700448768	60	6976
2026-01-20 01:33:18.73	254.21	38.36	-45.1	-46.5	20.7	0.00e+00	0	42	0	702545920	60	7597
2026-01-20 01:33:19.74	254.65	38.40	-44.5	-45.8	21.0	0.00e+00	0	42	0	704643072	60	7034
2026-01-20 01:33:20.75	255.09	38.44	-44.5	-45.7	20.8	0.00e+00	0	42	0	706740224	60	7001
2026-01-20 01:33:21.76	255.54	38.48	-44.2	-45.4	21.1	0.00e+00	0	42	0	708837376	60	6723
2026-01-20 01:33:22.77	255.98	38.52	-44.0	-45.2	20.8	0.00e+00	0	42	0	709885952	60	6615
2026-01-20 01:33:23.78	256.43	38.55	-44.8	-46.2	20.0	0.00e+00	0	42	0	711983104	60	7348
2026-01-20 01:33:24.79	256.87	38.58	-44.8	-46.1	20.2	0.00e+00	0	42	0	714080256	60	7312
2026-01-20 01:33:25.80	257.32	38.61	-45.3	-46.7	19.7	0.00e+00	0	42	0	716177408	60	7843
2026-01-20 01:33:26.81	257.77	38.64	-45.7	-47.2	19.3	0.00e+00	0	42	0	718274560	60	8318
2026-01-20 01:33:27.81	258.21	38.67	-45.1	-46.6	19.7	0.00e+00	0	42	0	719323136	60	7733
2026-01-20 01:33:28.82	258.66	38.69	-44.7	-46.1	20.0	0.00e+00	0	42	0	721420288	60	7280
2026-01-20 01:33:29.83	259.11	38.71	-44.2	-45.5	20.3	0.00e+00	0	42	0	723517440	60	6812
2026-01-20 01:33:30.84	259.56	38.73	-43.9	-45.3	20.1	0.00e+00	0	42	0	725614592	60	6650
2026-01-20 01:33:31.85	260.01	38.75	-44.8	-46.2	19.9	0.00e+00	0	42	0	727711744	60	7409
2026-01-20 01:33:32.86	260.47	38.77	-45.3	-46.7	20.0	0.00e+00	0	42	0	728760320	60	7806
2026-01-20 01:33:33.87	260.92	38.78	-46.0	-47.5	19.6	0.00e+00	0	42	0	730857472	60	8530
2026-01-20 01:33:34.88	261.37	38.80	-46.1	-47.6	19.6	0.00e+00	0	42	0	732954624	60	8651
2026-01-20 01:33:35.89	261.82	38.81	-46.0	-47.5	19.3	0.00e+00	0	42	0	735051776	60	8593
2026-01-20 01:33:36.90	262.28	38.82	-45.8	-47.3	19.5	0.00e+00	0	41	0	737148928	60	8333
2026-01-20 01:33:37.91	262.73	38.82	-45.9	-47.5	18.9	0.00e+00	0	42	0	738197504	60	8615
2026-01-20 01:33:38.92	263.18	38.83	-46.1	-47.7	19.0	0.00e+00	0	42	0	740294656	60	8791
2026-01-20 01:33:39.93	263.64	38.83	-46.1	-47.7	19.0	0.00e+00	0	42	0	742391808	60	8733
2026-01-20 01:33:40.94	264.09	38.83	-46.0	-47.6	18.9	0.00e+00	0	42	0	744488960	60	8718
2026-01-20 01:33:41.95	264.54	38.83	-45.9	-47.4	19.4	0.00e+00	0	42	0	746586112	60	8450
2026-01-20 01:33:42.96	265.00	38.83	-47.3	-49.0	19.3	0.00e+00	0	41	0	747634688	60	10150
2026-01-20 01:33:43.97	265.45	38.82	-46.6	-48.0	19.7	0.00e+00	0	42	0	749731840	60	9063
2026-01-20 01:33:44.98	265.90	38.81	-45.3	-46.7	20.2	0.00e+00	0	42	0	751828992	60	7825
2026-01-20 01:33:45.99	266.36	38.81	-44.8	-46.1	20.4	0.00e+00	0	42	0	753926144	60	7269
2026-01-20 01:33:47.00	266.81	38.79	-45.4	-46.7	20.5	0.00e+00	0	42	0	756023296	60	7790
2026-01-20 01:33:48.01	267.26	38.78	-45.5	-46.9	20.3	0.00e+00	0	41	0	758120448	60	7959
2026-01-20 01:33:49.02	267.71	38.77	-45.2	-46.6	20.1	0.00e+00	0	41	0	759169024	60	7687
2026-01-20 01:33:50.02	268.16	38.75	-44.6	-46.0	20.1	0.00e+00	0	41	0	761266176	60	7178
2026-01-20 01:33:51.03	268.61	38.73	-44.3	-45.6	20.0	0.00e+00	0	42	0	763363328	60	6890
2026-01-20 01:33:52.04	269.06	38.71	-44.2	-45.5	20.8	0.00e+00	0	42	0	765460480	60	6822
2026-01-20 01:33:53.05	269.51	38.69	-44.3	-45.5	20.9	0.00e+00	0	42	0	767557632	60	6814
2026-01-20 01:33:54.06	269.96	38.66	-43.8	-45.0	21.0	0.00e+00	0	41	0	768606208	60	6461
2026-01-20 01:33:55.07	270.41	38.64	-43.3	-44.4	21.4	0.00e+00	0	41	0	770703360	60	6030
2026-01-20 01:33:56.08	270.85	38.61	-43.8	-45.0	21.2	0.00e+00	0	42	0	772800512	60	6395
2026-01-20 01:33:57.09	271.30	38.58	-44.9	-46.2	21.0	0.00e+00	0	42	0	774897664	60	7348
2026-01-20 01:33:58.10	271.75	38.55	-44.6	-45.8	20.8	0.00e+00	0	42	0	776994816	60	7071
2026-01-20 01:33:59.11	272.19	38.51	-44.4	-45.6	20.7	0.00e+00	0	42	0	778043392	60	6922
2026-01-20 01:34:00.12	272.64	38.48	-44.3	-45.6	20.7	0.00e+00	0	42	0	780140544	60	6895
2026-01-20 01:34:01.13	273.08	38.44	-44.0	-45.2	20.6	0.00e+00	0	41	0	782237696	60	6596
2026-01-20 01:34:02.13	273.52	38.40	-43.9	-45.3	20.2	0.00e+00	0	42	0	784334848	60	6650
2026-01-20 01:34:03.14	273.96	38.36	-44.0	-45.4	19.9	0.00e+00	0	42	0	786432000	60	6736
2026-01-20 01:34:04.15	274.40	38.31	-45.8	-47.4	18.9	0.00e+00	0	42	0	787480576	60	8510
2026-01-20 01:34:05.16	274.84	38.27	-47.0	-48.9	17.8	0.00e+00	0	42	0	789577728	60	10040
2026-01-20 01:34:06.17	275.27	38.22	-47.6	-49.7	17.2	0.00e+00	0	42	0	791674880	60	11031
2026-01-20 01:34:07.18	275.71	38.17	-47.6	-49.7	17.2	0.00e+00	0	42	0	793772032	60	10995
2026-01-20 01:34:08.19	276.14	38.12	-47.0	-48.8	18.1	0.00e+00	0	42	0	795869184	60	9968
2026-01-20 01:34:09.19	276.57	38.07	-46.1	-47.8	18.8	0.00e+00	0	42	0	796917760	60	8828
2026-01-20 01:34:10.20	277.01	38.02	-45.0	-46.4	19.8	0.00e+00	0	42	0	799014912	60	7580
2026-01-20 01:34:11.21	277.44	37.96	-44.9	-46.2	20.3	0.00e+00	0	42	0	801112064	60	7389
2026-01-20 01:34:12.22	277.87	37.91	-44.5	-45.8	20.7	0.00e+00	0	42	0	803209216	60	7024
2026-01-20 01:34:13.22	278.29	37.85	-44.2	-45.4	20.9	0.00e+00	0	42	0	805306368	60	6769
2026-01-20 01:34:14.23	278.71	37.79	-43.9	-45.2	20.8	0.00e+00	0	42	0	806354944	60	6545
2026-01-20 01:34:15.24	279.14	37.72	-44.1	-45.4	20.5	0.00e+00	0	41	0	808452096	60	6711
2026-01-20 01:34:16.25	279.56	37.66	-44.3	-45.7	20.0	0.00e+00	0	41	0	810549248	60	6954
2026-01-20 01:34:17.26	279.98	37.60	-44.4	-45.8	20.0	0.00e+00	0	42	0	812646400	60	7031
2026-01-20 01:34:18.27	280.40	37.53	-43.4	-44.6	21.2	0.00e+00	0	42	0	814743552	60	6143
2026-01-20 01:34:19.28	280.82	37.46	-42.3	-43.4	21.9	0.00e+00	0	42	0	815792128	58	5976
2026-01-20 01:34:20.29	281.24	37.39	-42.4	-43.5	22.2	0.00e+00	0	42	0	817889280	58	6054
2026-01-20 01:34:21.30	281.65	37.32	-43.3	-44.3	22.2	0.00e+00	0	42	0	819986432	58	6687
2026-01-20 01:34:22.31	282.06	37.25	-43.8	-44.9	21.9	0.00e+00	0	42	0	822083584	60	6376
2026-01-20 01:34:23.32	282.47	37.17	-43.6	-44.7	21.8	0.00e+00	0	42	0	824180736	60	6230
2026-01-20 01:34:24.33	282.88	37.10	-42.5	-43.5	22.5	0.00e+00	0	42	0	825229312	58	6054
2026-01-20 01:34:25.33	283.29	37.02	-42.6	-43.6	22.7	0.00e+00	0	42	0	827326464	58	6155
2026-01-20 01:34:26.34	283.69	36.94	-42.2	-43.2	23.2	0.00e+00	0	42	0	829423616	58	5856
2026-01-20 01:34:27.34	284.09	36.86	-42.5	-43.5	23.0	0.00e+00	0	42	0	831520768	58	6085
2026-01-20 01:34:28.35	284.49	36.78	-42.7	-43.6	22.7	0.00e+00	0	42	0	833617920	58	6173
2026-01-20 01:34:29.36	284.89	36.70	-42.7	-43.7	22.5	0.00e+00	0	42	0	834666496	58	6207
2026-01-20 01:34:30.37	285.29	36.62	-42.0	-43.0	22.9	0.00e+00	0	42	0	836763648	58	5718
2026-01-20 01:34:31.38	285.68	36.53	-41.3	-42.2	23.4	0.00e+00	0	42	0	838860800	56	5862
2026-01-20 01:34:32.39	286.07	36.44	-41.0	-41.9	23.5	0.00e+00	0	42	0	840957952	56	5683
2026-01-20 01:34:33.39	286.46	36.36	-41.3	-42.3	23.3	0.00e+00	0	42	0	843055104	56	5919
2026-01-20 01:34:34.40	286.85	36.27	-42.1	-43.0	23.0	0.00e+00	0	42	0	844103680	56	6447
2026-01-20 01:34:35.41	287.24	36.18	-41.8	-42.8	23.1	0.00e+00	0	42	0	846200832	56	6264
2026-01-20 01:34:36.42	287.62	36.09	-42.1	-43.0	23.2	0.00e+00	0	42	0	848297984	56	6426
2026-01-20 01:34:37.43	288.00	35.99	-41.0	-41.8	24.5	0.00e+00	0	42	0	850395136	56	5620
2026-01-20 01:34:38.44	288.38	35.90	-40.7	-41.5	24.5	0.00e+00	0	42	0	852492288	54	6083
2026-01-20 01:34:39.45	288.76	35.81	-40.8	-41.7	24.5	0.00e+00	0	42	0	854589440	54	6186
2026-01-20 01:34:40.45	289.13	35.71	-41.2	-42.1	23.8	0.00e+00	0	42	0	855638016	54	6510
2026-01-20 01:34:41.46	289.51	35.62	-41.8	-42.7	23.5	0.00e+00	0	42	0	857735168	56	6236
2026-01-20 01:34:42.47	289.88	35.52	-41.2	-42.1	23.6	0.00e+00	0	42	0	859832320	56	5782
2026-01-20 01:34:43.48	290.25	35.42	-40.6	-41.4	24.4	0.00e+00	0	42	0	861929472	54	6021
2026-01-20 01:34:44.49	290.62	35.32	-41.1	-41.9	24.3	0.00e+00	0	42	0	862978048	54	6374
2026-01-20 01:34:45.50	290.98	35.22	-41.0	-41.8	24.6	0.00e+00	0	42	0	865075200	54	6251
2026-01-20 01:34:46.51	291.34	35.12	-41.6	-42.5	23.9	0.00e+00	0	42	0	867172352	54	6780
2026-01-20 01:34:47.52	291.70	35.01	-42.1	-43.1	23.1	0.00e+00	0	41	0	869269504	56	6482
2026-01-20 01:34:48.52	292.06	34.91	-42.2	-43.2	22.7	0.00e+00	0	42	0	871366656	56	6598
2026-01-20 01:34:49.53	292.41	34.81	-42.3	-43.2	23.2	0.00e+00	0	42	0	872415232	56	6615
2026-01-20 01:34:50.54	292.77	34.70	-41.5	-42.4	23.5	0.00e+00	0	42	0	874512384	56	5979
2026-01-20 01:34:51.55	293.12	34.60	-41.2	-42.1	23.4	0.00e+00	0	42	0	876609536	56	5780
2026-01-20 01:34:52.56	293.47	34.49	-41.3	-42.3	23.2	0.00e+00	0	42	0	878706688	56	5905
2026-01-20 01:34:53.57	293.82	34.38	-42.1	-43.1	22.6	0.00e+00	0	42	0	880803840	56	6466
2026-01-20 01:34:54.58	294.16	34.27	-42.4	-43.5	22.3	0.00e+00	0	42	0	882900992	56	6792
2026-01-20 01:34:55.59	294.50	34.17	-42.6	-43.6	22.6	0.00e+00	0	42	0	883949568	58	6172
2026-01-20 01:34:56.60	294.84	34.06	-42.1	-43.1	23.1	0.00e+00	0	42	0	886046720	58	5787
2026-01-20 01:34:57.61	295.18	33.95	-41.5	-42.4	23.1	0.00e+00	0	42	0	888143872	56	6005
2026-01-20 01:34:58.62	295.52	33.83	-42.1	-43.1	22.7	0.00e+00	0	42	0	890241024	56	6523
2026-01-20 01:34:59.62	295.85	33.72	-42.7	-43.8	21.9	0.00e+00	0	41	0	892338176	56	7019
2026-01-20 01:35:00.63	296.18	33.61	-43.6	-44.8	21.2	0.00e+00	0	42	0	893386752	58	7036
2026-01-20 01:35:01.64	296.51	33.50	-43.4	-44.6	21.4	0.00e+00	0	42	0	895483904	60	6117
2026-01-20 01:35:02.65	296.83	33.38	-42.6	-43.6	22.1	0.00e+00	0	42	0	897581056	58	6168
2026-01-20 01:35:03.66	297.16	33.27	-42.0	-42.9	22.5	0.00e+00	0	42	0	899678208	58	5694
2026-01-20 01:35:04.67	297.48	33.16	-42.1	-43.2	22.1	0.00e+00	0	42	0	901775360	58	5840
2026-01-20 01:35:05.68	297.80	33.04	-43.3	-44.5	21.4	0.00e+00	0	41	0	902823936	58	6793
2026-01-20 01:35:06.69	298.12	32.92	-43.7	-44.9	20.9	0.00e+00	0	41	0	904921088	58	7158
2026-01-20 01:35:07.70	298.43	32.81	-43.9	-45.2	20.7	0.00e+00	0	41	0	907018240	60	6545
2026-01-20 01:35:08.71	298.75	32.69	-43.8	-45.0	21.4	0.00e+00	0	42	0	909115392	60	6445
2026-01-20 01:35:09.72	299.06	32.57	-43.1	-44.2	21.9	0.00e+00	0	41	0	911212544	60	5863
2026-01-20 01:35:10.73	299.36	32.46	-43.2	-44.3	21.8	0.00e+00	0	42	0	912261120	60	5911
2026-01-20 01:35:11.73	299.67	32.34	-43.6	-44.7	21.3	0.00e+00	0	42	0	914358272	60	6218
2026-01-20 01:35:12.74	299.97	32.22	-44.2	-45.5	20.4	0.00e+00	0	41	0	916455424	60	6828
2026-01-20 01:35:13.75	300.27	32.10	-44.2	-45.6	20.1	0.00e+00	0	42	0	918552576	60	6895
2026-01-20 01:35:14.76	300.57	31.98	-43.9	-45.2	20.5	0.00e+00	0	42	0	920649728	60	6611
2026-01-20 01:35:15.77	300.87	31.86	-43.2	-44.3	21.6	0.00e+00	0	42	0	921698304	60	5953
2026-01-20 01:35:16.78	301.17	31.74	-42.5	-43.5	22.6	0.00e+00	0	41	0	923795456	58	6067
2026-01-20 01:35:17.79	301.46	31.62	-42.5	-43.4	22.8	0.00e+00	0	42	0	925892608	58	6013
2026-01-20 01:35:18.80	301.75	31.50	-42.8	-43.8	22.3	0.00e+00	0	42	0	927989760	58	6274
2026-01-20 01:35:19.81	302.04	31.38	-43.5	-44.6	21.4	0.00e+00	0	42	0	930086912	58	6924
2026-01-20 01:35:20.81	302.33	31.26	-44.5	-45.8	20.6	0.00e+00	0	41	0	931135488	60	7046
2026-01-20 01:35:21.82	302.61	31.14	-43.9	-45.2	21.0	0.00e+00	0	41	0	933232640	60	6549
2026-01-20 01:35:22.83	302.90	31.02	-42.3	-43.4	22.2	0.00e+00	0	41	0	935329792	58	5981
2026-01-20 01:35:23.84	303.18	30.90	-41.9	-42.8	22.9	0.00e+00	0	42	0	937426944	58	5595
2026-01-20 01:35:24.85	303.45	30.77	-41.8	-42.7	23.2	0.00e+00	0	41	0	939524096	56	6206
2026-01-20 01:35:25.85	303.73	30.65	-42.9	-43.9	22.3	0.00e+00	0	41	0	940572672	56	7130
2026-01-20 01:35:26.86	304.00	30.53	-43.5	-44.7	21.2	0.00e+00	0	41	0	942669824	58	6967
2026-01-20 01:35:27.87	304.28	30.41	-44.6	-46.0	19.9	0.00e+00	0	41	0	944766976	60	7213
2026-01-20 01:35:28.88	304.55	30.29	-44.5	-45.9	20.4	0.00e+00	0	41	0	946864128	60	7121
2026-01-20 01:35:29.89	304.82	30.16	-43.7	-44.9	21.2	0.00e+00	0	41	0	948961280	60	6360
2026-01-20 01:35:30.89	305.08	30.04	-43.0	-44.1	21.7	0.00e+00	0	42	0	950009856	60	5767
2026-01-20 01:35:31.90	305.34	29.92	-42.1	-43.1	22.6	0.00e+00	0	42	0	952107008	58	5770
2026-01-20 01:35:32.91	305.61	29.79	-41.9	-42.9	22.2	0.00e+00	0	42	0	954204160	58	5694
2026-01-20 01:35:33.92	305.87	29.67	-42.6	-43.8	21.4	0.00e+00	0	42	0	956301312	58	6289
2026-01-20 01:35:34.93	306.13	29.55	-43.5	-44.9	20.2	0.00e+00	0	41	0	958398464	58	7089
2026-01-20 01:35:35.94	306.38	29.42	-44.0	-45.4	19.8	0.00e+00	0	42	0	959447040	60	6739
2026-01-20 01:35:36.95	306.64	29.30	-43.4	-44.7	20.8	0.00e+00	0	42	0	961544192	60	6242
2026-01-20 01:35:37.96	306.89	29.18	-42.3	-43.4	22.2	0.00e+00	0	41	0	963641344	58	6003
2026-01-20 01:35:38.97	307.14	29.05	-41.2	-42.1	23.5	0.00e+00	0	42	0	965738496	56	5804
2026-01-20 01:35:39.97	307.39	28.93	-40.8	-41.7	23.8	0.00e+00	0	41	0	967835648	56	5505
2026-01-20 01:35:40.98	307.64	28.81	-41.1	-42.0	23.5	0.00e+00	0	41	0	968884224	54	6394
2026-01-20 01:35:41.99	307.88	28.68	-42.1	-43.1	22.4	0.00e+00	0	42	0	970981376	56	6522
2026-01-20 01:35:43.00	308.12	28.56	-43.3	-44.5	21.1	0.00e+00	0	41	0	973078528	58	6807
2026-01-20 01:35:44.01	308.37	28.43	-43.2	-44.4	21.1	0.00e+00	0	42	0	975175680	58	6743
2026-01-20 01:35:45.02	308.61	28.31	-42.5	-43.6	21.9	0.00e+00	0	41	0	977272832	58	6111
2026-01-20 01:35:46.03	308.84	28.19	-41.6	-42.6	23.0	0.00e+00	0	41	0	979369984	56	6112
2026-01-20 01:35:47.04	309.08	28.06	-41.4	-42.2	23.3	0.00e+00	0	42	0	980418560	56	5888
2026-01-20 01:35:48.05	309.32	27.94	-42.4	-43.3	23.2	0.00e+00	0	41	0	982515712	58	5947
2026-01-20 01:35:49.06	309.55	27.82	-42.4	-43.4	22.7	0.00e+00	0	42	0	984612864	58	5981
2026-01-20 01:35:50.07	309.78	27.69	-43.2	-44.3	21.0	0.00e+00	0	42	0	986710016	58	6671
2026-01-20 01:35:51.08	310.01	27.57	-43.6	-44.7	21.3	0.00e+00	0	41	0	988807168	60	6227
2026-01-20 01:35:52.09	310.24	27.45	-43.6	-44.8	21.0	0.00e+00	0	41	0	989855744	60	6273
2026-01-20 01:35:53.10	310.46	27.32	-43.0	-44.1	21.6	0.00e+00	0	41	0	991952896	60	5820
2026-01-20 01:35:54.11	310.69	27.20	-42.5	-43.6	22.3	0.00e+00	0	41	0	994050048	58	6119
2026-01-20 01:35:55.12	310.91	27.08	-41.8	-42.7	23.1	0.00e+00	0	41	0	996147200	56	6245
2026-01-20 01:35:56.13	311.13	26.95	-41.9	-42.8	23.2	0.00e+00	0	41	0	998244352	58	5588
2026-01-20 01:35:57.14	311.35	26.83	-42.9	-44.0	22.0	0.00e+00	0	42	0	999292928	58	6435
2026-01-20 01:35:58.15	311.57	26.71	-41.8	-42.8	22.9	0.00e+00	0	41	0	1001390080	56	6249
2026-01-20 01:35:59.15	311.78	26.59	-42.4	-43.4	22.4	0.00e+00	0	42	0	1003487232	56	6733
2026-01-20 01:36:00.16	311.99	26.46	-42.1	-43.2	22.4	0.00e+00	0	41	0	1005584384	58	5849
2026-01-20 01:36:01.17	312.21	26.34	-42.5	-43.5	22.6	0.00e+00	0	41	0	1007681536	58	6055
2026-01-20 01:36:02.18	312.42	26.22	-41.9	-42.9	22.7	0.00e+00	0	41	0	1008730112	58	5643
2026-01-20 01:36:03.19	312.63	26.10	-41.4	-42.3	23.7	0.00e+00	0	41	0	1010827264	56	5900
2026-01-20 01:36:04.20	312.83	25.98	-41.5	-42.4	24.1	0.00e+00	0	41	0	1012924416	56	5993
2026-01-20 01:36:05.21	313.04	25.85	-41.0	-41.9	24.3	0.00e+00	0	41	0	1015021568	56	5658
2026-01-20 01:36:06.22	313.24	25.73	-41.1	-42.0	24.2	0.00e+00	0	41	0	1017118720	56	5721
2026-01-20 01:36:07.23	313.45	25.61	-40.9	-41.8	24.1	0.00e+00	0	41	0	1018167296	56	5592
2026-01-20 01:36:08.24	313.65	25.49	-41.0	-41.8	24.0	0.00e+00	0	41	0	1020264448	56	5619
2026-01-20 01:36:09.24	313.85	25.37	-41.6	-42.5	23.6	0.00e+00	0	42	0	1022361600	56	6101
2026-01-20 01:36:10.25	314.05	25.25	-41.1	-42.0	23.8	0.00e+00	0	41	0	1024458752	56	5745
2026-01-20 01:36:11.26	314.24	25.13	-40.6	-41.5	24.4	0.00e+00	0	42	0	1026555904	54	6047
2026-01-20 01:36:12.27	314.44	25.01	-40.7	-41.6	24.6	0.00e+00	0	41	0	1027604480	54	6119
2026-01-20 01:36:13.28	314.63	24.89	-40.2	-41.0	24.6	0.00e+00	0	42	0	1029701632	54	5729
2026-01-20 01:36:14.29	314.83	24.77	-40.0	-40.8	24.8	0.00e+00	0	42	0	1031798784	54	5585
2026-01-20 01:36:15.30	315.02	24.65	-40.0	-40.7	25.2	0.00e+00	0	41	0	1033895936	52	6232
2026-01-20 01:36:16.31	315.21	24.53	-40.3	-41.1	24.3	0.00e+00	0	41	0	1035993088	54	5785
2026-01-20 01:36:17.32	315.40	24.41	-41.5	-42.4	24.2	0.00e+00	0	41	0	1037041664	54	6727
2026-01-20 01:36:18.33	315.58	24.29	-41.4	-42.3	24.4	0.00e+00	0	41	0	1039138816	56	5909
2026-01-20 01:36:19.34	315.77	24.17	-41.3	-42.2	24.1	0.00e+00	0	41	0	1041235968	56	5829
2026-01-20 01:36:20.34	315.95	24.06	-41.7	-42.5	24.1	0.00e+00	0	41	0	1043333120	56	6103
2026-01-20 01:36:21.35	316.14	23.94	-41.8	-42.6	24.4	0.00e+00	0	42	0	1045430272	56	6158
2026-01-20 01:36:22.36	316.32	23.82	-41.2	-42.0	24.6	0.00e+00	0	42	0	1047527424	54	6434
2026-01-20 01:36:23.37	316.50	23.70	-40.4	-41.2	24.8	0.00e+00	0	41	0	1048576000	54	5852
2026-01-20 01:36:24.38	316.68	23.58	-39.7	-40.5	24.9	0.00e+00	0	41	0	1050673152	54	5396
2026-01-20 01:36:25.39	316.86	23.47	-40.4	-41.2	25.0	0.00e+00	0	41	0	1052770304	52	6565
2026-01-20 01:36:26.39	317.03	23.35	-39.9	-40.7	25.1	0.00e+00	0	41	0	1054867456	52	6209
2026-01-20 01:36:27.40	317.21	23.23	-39.8	-40.6	24.7	0.00e+00	0	41	0	1056964608	52	6149
2026-01-20 01:36:28.41	317.38	23.12	-41.1	-41.9	24.4	0.00e+00	0	41	0	1058013184	54	6348
2026-01-20 01:36:29.42	317.55	23.00	-40.9	-41.7	24.3	0.00e+00	0	42	0	1060110336	54	6219
2026-01-20 01:36:30.43	317.72	22.89	-40.6	-41.5	24.1	0.00e+00	0	41	0	1062207488	54	6051
2026-01-20 01:36:31.43	317.89	22.77	-41.0	-41.8	24.2	0.00e+00	0	42	0	1064304640	54	6307
2026-01-20 01:36:32.44	318.06	22.66	-41.1	-42.0	24.2	0.00e+00	0	41	0	1066401792	54	6397
2026-01-20 01:36:33.45	318.23	22.54	-42.1	-43.0	23.8	0.00e+00	0	42	0	1067450368	56	6404
2026-01-20 01:36:34.46	318.40	22.43	-40.9	-41.7	24.6	0.00e+00	0	41	0	1069547520	56	5518
2026-01-20 01:36:35.47	318.56	22.31	-40.8	-41.7	24.4	0.00e+00	0	42	0	1071644672	56	5517
2026-01-20 01:36:36.48	318.73	22.20	-41.8	-42.6	24.4	0.00e+00	0	42	0	1073741824	56	6137
2026-01-20 01:36:37.49	318.89	22.08	-41.6	-42.4	24.5	0.00e+00	0	41	0	1075838976	56	6007
2026-01-20 01:36:38.50	319.05	21.97	-41.4	-42.2	24.7	0.00e+00	0	42	0	1076887552	56	5872
2026-01-20 01:36:39.51	319.21	21.86	-41.4	-42.3	24.4	0.00e+00	0	42	0	1078984704	56	5901
2026-01-20 01:36:40.52	319.37	21.74	-41.7	-42.6	24.1	0.00e+00	0	41	0	1081081856	56	6105
2026-01-20 01:36:41.53	319.53	21.63	-41.3	-42.2	24.2	0.00e+00	0	42	0	1083179008	56	5862
2026-01-20 01:36:42.54	319.69	21.52	-40.6	-41.5	24.1	0.00e+00	0	41	0	1085276160	54	6058
2026-01-20 01:36:43.54	319.84	21.41	-41.1	-42.0	24.1	0.00e+00	0	42	0	1086324736	54	6391
2026-01-20 01:36:44.55	320.00	21.29	-40.8	-41.6	24.3	0.00e+00	0	42	0	1088421888	54	6148
2026-01-20 01:36:45.56	320.15	21.18	-40.2	-41.0	24.1	0.00e+00	0	41	0	1090519040	54	5736
2026-01-20 01:36:46.57	320.31	21.07	-39.8	-40.6	24.4	0.00e+00	0	41	0	1092616192	52	6169
2026-01-20 01:36:47.58	320.46	20.96	-40.2	-41.0	24.4	0.00e+00	0	41	0	1094713344	52	6436
2026-01-20 01:36:48.59	320.61	20.85	-40.4	-41.3	24.3	0.00e+00	0	42	0	1095761920	52	6623
2026-01-20 01:36:49.60	320.76	20.74	-41.8	-42.6	24.1	0.00e+00	0	41	0	1097859072	56	6171
2026-01-20 01:36:50.60	320.91	20.63	-41.5	-42.3	24.1	0.00e+00	0	41	0	1099956224	56	5948
2026-01-20 01:36:51.61	321.06	20.52	-41.6	-42.4	23.8	0.00e+00	0	41	0	1102053376	56	6013
2026-01-20 01:36:52.62	321.20	20.41	-42.1	-42.9	23.7	0.00e+00	0	42	0	1104150528	56	6385
2026-01-20 01:36:53.63	321.35	20.30	-41.7	-42.6	23.8	0.00e+00	0	41	0	1105199104	56	6151
2026-01-20 01:36:54.64	321.49	20.19	-41.4	-42.3	23.9	0.00e+00	0	41	0	1107296256	56	5900
2026-01-20 01:36:55.65	321.64	20.08	-41.5	-42.3	24.1	0.00e+00	0	41	0	1109393408	56	5964
2026-01-20 01:36:56.66	321.78	19.97	-42.0	-42.8	24.2	0.00e+00	0	42	0	1111490560	56	6266
2026-01-20 01:36:57.67	321.92	19.87	-41.8	-42.6	24.3	0.00e+00	0	42	0	1113587712	56	6147
2026-01-20 01:36:58.67	322.06	19.76	-41.4	-42.2	24.4	0.00e+00	0	42	0	1114636288	56	5886
2026-01-20 01:36:59.68	322.20	19.65	-42.0	-42.9	24.2	0.00e+00	0	42	0	1116733440	56	6336
2026-01-20 01:37:00.69	322.34	19.54	-41.4	-42.3	24.0	0.00e+00	0	41	0	1118830592	56	5907
2026-01-20 01:37:01.70	322.48	19.44	-42.1	-43.0	23.6	0.00e+00	0	42	0	1120927744	56	6450
2026-01-20 01:37:02.71	322.62	19.33	-42.3	-43.3	23.3	0.00e+00	0	42	0	1123024896	56	6629
2026-01-20 01:37:03.72	322.75	19.22	-42.5	-43.4	23.1	0.00e+00	0	42	0	1124073472	56	6741
2026-01-20 01:37:04.73	322.89	19.12	-42.7	-43.6	22.8	0.00e+00	0	42	0	1126170624	56	6926
2026-01-20 01:37:05.74	323.02	19.01	-42.6	-43.6	22.7	0.00e+00	0	42	0	1128267776	58	6142
2026-01-20 01:37:06.75	323.16	18.91	-42.2	-43.2	22.9	0.00e+00	0	41	0	1130364928	58	5882
2026-01-20 01:37:07.76	323.29	18.80	-42.3	-43.2	23.0	0.00e+00	0	42	0	1132462080	58	5884
2026-01-20 01:37:08.77	323.42	18.70	-42.0	-43.0	23.2	0.00e+00	0	42	0	1133510656	58	5702
2026-01-20 01:37:09.78	323.55	18.59	-42.5	-43.4	23.3	0.00e+00	0	42	0	1135607808	56	6732
2026-01-20 01:37:10.79	323.68	18.49	-42.5	-43.4	23.3	0.00e+00	0	42	0	1137704960	58	5984
2026-01-20 01:37:11.80	323.81	18.39	-42.3	-43.3	23.3	0.00e+00	0	41	0	1139802112	58	5903
2026-01-20 01:37:12.80	323.94	18.28	-43.0	-43.9	22.9	0.00e+00	0	41	0	1141899264	58	6384
2026-01-20 01:37:13.81	324.07	18.18	-43.3	-44.3	22.8	0.00e+00	0	41	0	1143996416	58	6638
2026-01-20 01:37:14.82	324.19	18.08	-44.0	-45.0	22.5	0.00e+00	0	42	0	1145044992	58	7224
2026-01-20 01:37:15.83	324.32	17.97	-43.2	-44.3	22.3	0.00e+00	0	41	0	1147142144	60	5938
2026-01-20 01:37:16.84	324.44	17.87	-43.6	-44.7	21.8	0.00e+00	0	41	0	1149239296	60	6243
2026-01-20 01:37:17.85	324.57	17.77	-43.6	-44.7	21.9	0.00e+00	0	42	0	1151336448	60	6214
2026-01-20 01:37:18.86	324.69	17.67	-43.3	-44.4	21.7	0.00e+00	0	41	0	1153433600	60	5992
2026-01-20 01:37:19.87	324.81	17.57	-42.7	-43.8	21.7	0.00e+00	0	41	0	1154482176	58	6312
2026-01-20 01:37:20.88	324.94	17.46	-42.5	-43.5	22.0	0.00e+00	0	42	0	1156579328	58	6093
2026-01-20 01:37:21.89	325.06	17.36	-42.1	-43.1	22.3	0.00e+00	0	42	0	1158676480	58	5823
2026-01-20 01:37:22.90	325.18	17.26	-42.3	-43.3	22.5	0.00e+00	0	42	0	1160773632	58	5947
2026-01-20 01:37:23.91	325.30	17.16	-42.5	-43.5	22.6	0.00e+00	0	41	0	1162870784	58	6050
2026-01-20 01:37:24.92	325.42	17.06	-42.5	-43.5	22.7	0.00e+00	0	41	0	1163919360	58	6043
2026-01-20 01:37:25.93	325.53	16.96	-42.3	-43.2	22.6	0.00e+00	0	42	0	1166016512	58	5861
2026-01-20 01:37:26.94	325.65	16.86	-43.3	-44.3	22.6	0.00e+00	0	42	0	1168113664	58	6679
2026-01-20 01:37:27.95	325.77	16.77	-42.8	-43.8	22.8	0.00e+00	0	42	0	1170210816	58	6256
2026-01-20 01:37:28.96	325.88	16.67	-42.8	-43.7	22.9	0.00e+00	0	41	0	1172307968	58	6241
2026-01-20 01:37:29.97	326.00	16.57	-43.2	-44.2	22.7	0.00e+00	0	42	0	1173356544	58	6596
2026-01-20 01:37:30.97	326.11	16.47	-43.3	-44.4	22.0	0.00e+00	0	42	0	1175453696	58	6732
2026-01-20 01:37:31.98	326.23	16.37	-43.7	-44.7	22.4	0.00e+00	0	41	0	1177550848	60	6210
2026-01-20 01:37:32.99	326.34	16.27	-44.0	-45.1	22.1	0.00e+00	0	41	0	1179648000	60	6472
2026-01-20 01:37:34.00	326.45	16.18	-44.1	-45.2	21.8	0.00e+00	0	41	0	1181745152	60	6554
2026-01-20 01:37:35.01	326.56	16.08	-44.2	-45.3	22.0	0.00e+00	0	41	0	1182793728	60	6660
2026-01-20 01:37:36.02	326.67	15.98	-43.6	-44.8	22.1	0.00e+00	0	42	0	1184890880	60	6249
2026-01-20 01:37:37.03	326.78	15.89	-43.8	-44.9	22.3	0.00e+00	0	41	0	1186988032	60	6332
2026-01-20 01:37:38.04	326.89	15.79	-43.0	-44.1	21.9	0.00e+00	0	41	0	1189085184	60	5769
2026-01-20 01:37:39.05	327.00	15.70	-43.3	-44.3	22.3	0.00e+00	0	41	0	1191182336	60	5964
2026-01-20 01:37:40.06	327.11	15.60	-43.1	-44.2	22.5	0.00e+00	0	41	0	1192230912	60	5848
2026-01-20 01:37:41.07	327.22	15.50	-43.2	-44.2	22.4	0.00e+00	0	42	0	1194328064	58	6574
2026-01-20 01:37:42.08	327.32	15.41	-43.6	-44.7	22.8	0.00e+00	0	42	0	1196425216	58	6973
2026-01-20 01:37:43.09	327.43	15.31	-43.4	-44.4	22.5	0.00e+00	0	41	0	1198522368	58	6721
2026-01-20 01:37:44.10	327.54	15.22	-42.7	-43.7	22.9	0.00e+00	0	41	0	1200619520	58	6224
2026-01-20 01:37:45.11	327.64	15.13	-43.4	-44.4	22.3	0.00e+00	0	41	0	1201668096	58	6708
