passes_logs/2026/01/20/R4.6S_Anadyr/R4.6S_Anadyr__20260120_194948_SUOMI_NPP_rec.log

#Pass ID: 20260120_194948_SUOMI NPP
#Satellite: SUOMI NPP
#Configuration: NPP
#almurnet v.1.7.20251203
#Start time: 2026-01-20 19:49:52

#Version: 2.2.20231116
#Station: R4.6S_Anadyr
#Location: 177.4865 lon 64.73178 lat
#TLE: 1 37849U 11061A   26019.89702167  .00000121  00000+0  78274-4 0  9993
#TLE: 2 37849  98.7817 321.9035 0002338  55.0397 305.0998 14.19526700737401

#Time	Az	El	Level	Level2	SNR	BER	BlckErr	Temp	State	Recorded	gain1	gain2
2026-01-20 19:49:52.29	57.98	0.16	-52.1	-65.9	3.3	1.54e+00	0	41	0	0	60	71290
2026-01-20 19:49:53.29	57.90	0.21	-51.9	-67.1	3.6	1.51e+00	0	41	104	0	60	82001
2026-01-20 19:49:54.30	57.82	0.26	-52.1	-67.4	3.6	1.51e+00	0	41	104	0	60	84415
2026-01-20 19:49:55.31	57.75	0.31	-51.9	-67.2	3.6	1.51e+00	0	41	104	0	60	82691
2026-01-20 19:49:56.32	57.67	0.36	-51.7	-67.0	3.6	1.51e+00	0	41	104	0	60	80514
2026-01-20 19:49:57.33	57.59	0.41	-51.6	-66.8	3.6	1.51e+00	0	41	104	0	60	79521
2026-01-20 19:49:58.34	57.51	0.46	-51.6	-66.9	3.6	1.51e+00	0	41	104	0	60	79567
2026-01-20 19:49:59.35	57.43	0.51	-51.5	-66.7	3.6	1.51e+00	0	41	104	0	60	78121
2026-01-20 19:50:00.36	57.36	0.56	-51.4	-66.7	3.6	1.51e+00	0	41	104	0	60	78385
2026-01-20 19:50:01.37	57.28	0.60	-51.4	-66.7	3.6	1.51e+00	0	41	104	0	60	78253
2026-01-20 19:50:02.38	57.20	0.65	-51.4	-66.7	3.6	1.51e+00	0	41	104	0	60	77880
2026-01-20 19:50:03.39	57.12	0.70	-51.4	-66.7	3.6	1.51e+00	0	41	104	0	60	77918
2026-01-20 19:50:04.40	57.04	0.75	-51.4	-66.7	3.6	1.51e+00	0	41	104	0	60	77821
2026-01-20 19:50:05.41	56.96	0.80	-51.3	-66.6	3.6	1.51e+00	0	41	104	0	60	76873
2026-01-20 19:50:06.42	56.88	0.85	-51.2	-66.5	3.6	1.51e+00	0	41	104	0	60	76214
2026-01-20 19:50:07.43	56.80	0.90	-51.2	-66.4	3.6	1.51e+00	0	41	104	0	60	75735
2026-01-20 19:50:08.44	56.72	0.95	-51.1	-66.3	3.6	1.51e+00	0	41	104	0	60	74900
2026-01-20 19:50:09.45	56.64	1.00	-51.0	-66.2	3.5	1.51e+00	0	41	104	0	60	74090
2026-01-20 19:50:10.46	56.56	1.05	-50.9	-66.1	3.6	1.51e+00	0	41	104	0	60	73158
2026-01-20 19:50:11.47	56.47	1.10	-50.6	-65.9	3.6	1.51e+00	0	41	104	0	60	71133
2026-01-20 19:50:12.48	56.39	1.15	-50.5	-65.7	3.6	1.51e+00	0	41	104	0	60	69933
2026-01-20 19:50:13.49	56.31	1.20	-50.1	-65.3	3.6	1.51e+00	0	41	104	0	60	66486
2026-01-20 19:50:14.50	56.23	1.25	-49.4	-64.6	3.6	1.51e+00	0	41	104	0	60	61402
2026-01-20 19:50:15.51	56.15	1.30	-49.4	-64.6	3.6	1.51e+00	0	42	104	0	60	61688
2026-01-20 19:50:16.52	56.06	1.35	-49.4	-64.6	3.6	1.51e+00	0	42	104	0	60	61309
2026-01-20 19:50:17.53	55.98	1.40	-49.4	-64.6	3.6	1.51e+00	0	42	104	0	60	61112
2026-01-20 19:50:18.54	55.90	1.45	-49.4	-64.6	3.6	1.51e+00	0	42	104	0	60	61621
2026-01-20 19:50:19.55	55.81	1.50	-49.4	-64.6	3.6	1.51e+00	0	42	104	0	60	61419
2026-01-20 19:50:20.56	55.73	1.55	-49.4	-64.6	3.6	1.51e+00	0	41	104	0	60	61119
2026-01-20 19:50:21.57	55.64	1.60	-49.4	-64.5	3.5	1.51e+00	0	41	104	0	60	60868
2026-01-20 19:50:22.58	55.56	1.65	-49.4	-64.5	3.6	1.51e+00	0	41	104	0	60	60701
2026-01-20 19:50:23.59	55.47	1.70	-49.4	-64.5	3.6	1.51e+00	0	41	104	0	60	60856
2026-01-20 19:50:24.60	55.39	1.75	-49.4	-64.6	3.6	1.51e+00	0	42	104	0	60	61304
2026-01-20 19:50:25.61	55.30	1.80	-49.4	-64.6	3.6	1.51e+00	0	42	104	0	60	61374
2026-01-20 19:50:26.62	55.22	1.85	-49.4	-64.6	3.6	1.51e+00	0	41	104	0	60	61422
2026-01-20 19:50:27.63	55.13	1.90	-49.4	-64.6	3.6	1.51e+00	0	41	104	0	60	61180
2026-01-20 19:50:28.64	55.05	1.95	-49.4	-64.6	3.6	1.51e+00	0	42	104	0	60	61194
2026-01-20 19:50:29.65	54.96	2.00	-49.4	-64.5	3.6	1.51e+00	0	42	104	0	60	60808
2026-01-20 19:50:30.65	54.87	2.05	-49.4	-64.4	3.6	1.51e+00	0	42	104	0	60	60070
2026-01-20 19:50:31.67	54.78	2.10	-49.4	-64.3	3.6	1.51e+00	0	42	104	0	60	59613
2026-01-20 19:50:32.68	54.70	2.15	-49.4	-64.4	3.6	1.51e+00	0	42	104	0	60	59680
2026-01-20 19:50:33.69	54.61	2.20	-49.4	-64.2	3.6	1.51e+00	0	42	104	0	60	58929
2026-01-20 19:50:34.70	54.52	2.25	-49.4	-64.5	3.6	1.51e+00	0	42	104	0	60	60566
2026-01-20 19:50:35.70	54.43	2.30	-49.4	-64.6	3.6	1.51e+00	0	42	104	0	60	61565
2026-01-20 19:50:36.71	54.34	2.35	-49.4	-64.6	3.6	1.51e+00	0	42	104	0	60	61593
2026-01-20 19:50:37.72	54.25	2.40	-49.4	-64.5	3.6	1.51e+00	0	42	104	0	60	60582
2026-01-20 19:50:38.73	54.16	2.45	-49.4	-64.5	3.6	1.51e+00	0	42	104	0	60	60531
2026-01-20 19:50:39.74	54.07	2.50	-49.4	-64.6	3.6	1.51e+00	0	42	104	0	60	61477
2026-01-20 19:50:40.75	53.98	2.55	-49.4	-64.6	3.6	1.51e+00	0	42	104	0	60	61526
2026-01-20 19:50:41.76	53.89	2.60	-49.4	-64.3	3.6	1.51e+00	0	42	104	0	60	59480
2026-01-20 19:50:42.77	53.80	2.65	-49.4	-63.7	3.6	1.51e+00	0	42	104	0	60	55615
2026-01-20 19:50:43.78	53.71	2.70	-49.3	-63.4	3.6	1.51e+00	0	42	104	0	60	53308
2026-01-20 19:50:44.79	53.62	2.75	-49.4	-63.9	3.6	1.51e+00	0	42	104	0	60	56885
2026-01-20 19:50:45.80	53.53	2.80	-49.4	-64.4	3.6	1.51e+00	0	42	104	0	60	59775
2026-01-20 19:50:46.81	53.44	2.85	-49.3	-62.9	3.6	1.51e+00	0	42	104	0	60	50278
2026-01-20 19:50:47.83	53.34	2.91	-49.2	-60.4	4.1	1.39e+00	18	42	104	0	60	37953
2026-01-20 19:50:48.84	53.25	2.96	-48.8	-56.3	6.0	6.05e-01	0	42	0	1048576	60	23682
2026-01-20 19:50:49.85	53.16	3.01	-48.4	-54.6	8.2	1.59e-01	66	42	0	3145728	60	19382
2026-01-20 19:50:50.85	53.06	3.06	-48.6	-55.3	7.4	4.71e-02	0	42	0	5242880	60	21118
2026-01-20 19:50:51.86	52.97	3.11	-47.1	-50.8	13.2	2.53e-03	71	42	0	7340032	60	12541
2026-01-20 19:50:52.87	52.88	3.16	-49.4	-64.2	3.6	8.19e-03	0	42	104	8388608	60	58670
2026-01-20 19:50:53.88	52.78	3.21	-49.6	-63.2	3.6	1.51e+00	0	42	104	8388608	60	52541
2026-01-20 19:50:54.89	52.69	3.26	-46.8	-50.5	13.1	2.71e-02	68	42	0	8388608	60	12098
2026-01-20 19:50:55.90	52.59	3.31	-46.8	-50.3	13.3	1.05e-04	0	42	0	10485760	60	11826
2026-01-20 19:50:56.91	52.50	3.36	-46.5	-49.7	14.2	1.67e-05	27	42	0	12582912	60	11055
2026-01-20 19:50:57.92	52.40	3.41	-46.0	-48.8	14.5	0.00e+00	0	42	0	14680064	60	9975
2026-01-20 19:50:58.93	52.30	3.46	-46.2	-49.1	14.9	7.00e-07	70	42	0	15728640	60	10280
2026-01-20 19:50:59.94	52.21	3.51	-45.7	-48.3	15.2	0.00e+00	0	42	0	17825792	60	9451
2026-01-20 19:51:00.95	52.11	3.56	-45.0	-47.2	16.6	0.00e+00	92	42	0	19922944	60	8276
2026-01-20 19:51:01.96	52.01	3.62	-46.0	-48.8	15.1	0.00e+00	67	42	0	22020096	60	9981
2026-01-20 19:51:02.97	51.92	3.67	-45.9	-48.6	15.2	0.00e+00	0	42	0	24117248	60	9726
2026-01-20 19:51:03.98	51.82	3.72	-45.6	-48.1	15.7	0.00e+00	7	42	0	25165824	60	9148
2026-01-20 19:51:04.99	51.72	3.77	-45.4	-47.7	16.0	0.00e+00	0	42	0	27262976	60	8795
2026-01-20 19:51:06.00	51.62	3.82	-45.3	-47.7	16.4	0.00e+00	90	42	0	29360128	60	8721
2026-01-20 19:51:07.01	51.52	3.87	-44.9	-47.0	17.0	0.00e+00	0	42	0	31457280	60	8105
2026-01-20 19:51:08.02	51.42	3.92	-45.4	-47.8	16.4	0.00e+00	92	42	0	33554432	60	8831
2026-01-20 19:51:09.03	51.32	3.97	-44.9	-47.1	17.0	0.00e+00	30	42	0	34603008	60	8146
2026-01-20 19:51:10.04	51.22	4.02	-44.5	-46.5	17.7	0.00e+00	0	42	0	36700160	60	7598
2026-01-20 19:51:11.05	51.12	4.07	-44.4	-46.3	17.9	0.00e+00	60	42	0	38797312	60	7467
2026-01-20 19:51:12.06	51.02	4.13	-44.9	-47.0	16.9	0.00e+00	0	42	0	40894464	60	8136
2026-01-20 19:51:13.07	50.92	4.18	-45.5	-47.9	16.3	0.00e+00	91	42	0	42991616	60	8998
2026-01-20 19:51:14.08	50.82	4.23	-46.0	-48.7	15.2	0.00e+00	0	42	0	45088768	60	9844
2026-01-20 19:51:15.09	50.72	4.28	-45.5	-47.8	16.0	0.00e+00	78	42	0	46137344	60	8900
2026-01-20 19:51:16.10	50.61	4.33	-45.2	-47.5	16.5	0.00e+00	0	42	0	48234496	60	8555
2026-01-20 19:51:17.11	50.51	4.38	-45.6	-48.0	16.2	0.00e+00	31	42	0	50331648	60	9125
2026-01-20 19:51:18.12	50.41	4.43	-45.5	-47.9	16.3	0.00e+00	90	42	0	52428800	60	8927
2026-01-20 19:51:19.13	50.31	4.48	-45.6	-48.0	16.0	0.00e+00	0	42	0	54525952	60	9114
2026-01-20 19:51:20.13	50.20	4.53	-44.9	-47.0	17.1	0.00e+00	92	42	0	55574528	60	8052
2026-01-20 19:51:21.14	50.10	4.58	-45.0	-47.1	17.1	0.00e+00	0	42	0	57671680	60	8153
2026-01-20 19:51:22.15	49.99	4.64	-44.8	-46.8	17.3	0.00e+00	93	42	0	59768832	60	7913
2026-01-20 19:51:23.16	49.89	4.69	-44.7	-46.7	17.5	0.00e+00	0	42	0	61865984	60	7843
2026-01-20 19:51:24.17	49.78	4.74	-44.9	-47.0	17.1	0.00e+00	0	42	0	63963136	60	8116
2026-01-20 19:51:25.19	49.68	4.79	-45.0	-47.2	17.1	0.00e+00	69	42	0	65011712	60	8238
2026-01-20 19:51:26.20	49.57	4.84	-45.1	-47.3	16.9	0.00e+00	0	42	0	67108864	60	8376
2026-01-20 19:51:27.21	49.47	4.89	-44.9	-47.0	17.1	0.00e+00	88	42	0	69206016	60	8124
2026-01-20 19:51:28.22	49.36	4.94	-44.5	-46.5	17.7	0.00e+00	0	42	0	71303168	60	7641
2026-01-20 19:51:29.23	49.25	4.99	-44.7	-46.7	17.6	0.00e+00	92	42	0	73400320	60	7804
2026-01-20 19:51:30.24	49.14	5.05	-44.6	-46.6	17.7	0.00e+00	0	42	0	74448896	60	7712
2026-01-20 19:51:31.25	49.04	5.10	-45.0	-47.1	17.5	0.00e+00	0	42	0	76546048	60	8174
2026-01-20 19:51:32.26	48.93	5.15	-44.8	-46.8	17.3	0.00e+00	91	42	0	78643200	60	7917
2026-01-20 19:51:33.27	48.82	5.20	-44.6	-46.6	17.7	0.00e+00	0	42	0	80740352	60	7699
2026-01-20 19:51:34.28	48.71	5.25	-44.5	-46.4	18.0	0.00e+00	64	42	0	82837504	60	7588
2026-01-20 19:51:35.29	48.60	5.30	-44.6	-46.5	17.6	0.00e+00	0	42	0	83886080	60	7677
2026-01-20 19:51:36.30	48.49	5.35	-44.7	-46.7	17.7	0.00e+00	77	42	0	85983232	60	7773
2026-01-20 19:51:37.31	48.38	5.40	-44.4	-46.2	18.1	0.00e+00	0	42	0	88080384	60	7374
2026-01-20 19:51:38.32	48.27	5.45	-45.1	-47.1	17.3	0.00e+00	92	42	0	90177536	60	8186
2026-01-20 19:51:39.33	48.16	5.51	-44.5	-46.3	18.1	0.00e+00	0	42	0	92274688	60	7490
2026-01-20 19:51:40.34	48.05	5.56	-44.5	-46.4	18.0	0.00e+00	0	42	0	93323264	60	7514
2026-01-20 19:51:41.35	47.94	5.61	-44.6	-46.5	18.0	0.00e+00	25	42	0	95420416	60	7617
2026-01-20 19:51:42.36	47.82	5.66	-44.3	-46.0	18.4	0.00e+00	0	42	0	97517568	60	7216
2026-01-20 19:51:43.37	47.71	5.71	-44.4	-46.2	18.4	0.00e+00	80	42	0	99614720	60	7354
2026-01-20 19:51:44.38	47.60	5.76	-43.6	-45.2	19.2	0.00e+00	0	42	0	101711872	60	6546
2026-01-20 19:51:45.39	47.48	5.81	-44.0	-45.6	18.9	0.00e+00	92	42	0	102760448	60	6908
2026-01-20 19:51:46.40	47.37	5.86	-43.9	-45.5	19.0	0.00e+00	0	42	0	104857600	60	6823
2026-01-20 19:51:47.41	47.26	5.92	-43.7	-45.3	19.1	0.00e+00	0	42	0	106954752	60	6649
2026-01-20 19:51:48.42	47.14	5.97	-43.7	-45.3	19.0	0.00e+00	73	42	0	109051904	60	6623
2026-01-20 19:51:49.43	47.03	6.02	-44.3	-46.1	18.4	0.00e+00	0	42	0	111149056	60	7256
2026-01-20 19:51:50.44	46.91	6.07	-43.6	-45.1	19.2	0.00e+00	92	42	0	113246208	60	6504
2026-01-20 19:51:51.45	46.79	6.12	-43.2	-44.7	19.7	0.00e+00	0	42	0	114294784	60	6177
2026-01-20 19:51:52.46	46.68	6.17	-43.5	-45.0	19.4	0.00e+00	82	42	0	116391936	60	6434
2026-01-20 19:51:53.47	46.56	6.22	-43.5	-45.0	19.3	0.00e+00	0	42	0	118489088	60	6426
2026-01-20 19:51:54.48	46.44	6.27	-43.5	-45.0	19.1	0.00e+00	0	42	0	120586240	60	6431
2026-01-20 19:51:55.49	46.33	6.32	-43.6	-45.1	19.1	0.00e+00	91	42	0	122683392	60	6490
2026-01-20 19:51:56.50	46.21	6.38	-43.7	-45.3	18.9	0.00e+00	0	42	0	123731968	60	6617
2026-01-20 19:51:57.51	46.09	6.43	-43.6	-45.1	19.3	0.00e+00	91	42	0	125829120	60	6532
2026-01-20 19:51:58.53	45.97	6.48	-43.3	-44.8	19.5	0.00e+00	0	42	0	127926272	60	6288
2026-01-20 19:51:59.54	45.85	6.53	-43.8	-45.4	18.9	0.00e+00	89	42	0	130023424	60	6760
2026-01-20 19:52:00.55	45.73	6.58	-44.0	-45.6	19.0	0.00e+00	0	42	0	132120576	60	6873
2026-01-20 19:52:01.56	45.61	6.63	-43.7	-45.2	19.2	0.00e+00	0	42	0	133169152	60	6596
2026-01-20 19:52:02.57	45.49	6.68	-43.5	-45.0	19.2	0.00e+00	90	42	0	135266304	60	6459
2026-01-20 19:52:03.58	45.37	6.73	-43.9	-45.5	18.8	0.00e+00	0	42	0	137363456	60	6815
2026-01-20 19:52:04.59	45.25	6.78	-44.0	-45.6	18.8	0.00e+00	63	42	0	139460608	60	6882
2026-01-20 19:52:05.60	45.12	6.83	-44.1	-45.8	18.6	0.00e+00	0	42	0	141557760	60	7018
2026-01-20 19:52:06.61	45.00	6.89	-43.9	-45.5	18.9	0.00e+00	70	42	0	142606336	60	6817
2026-01-20 19:52:07.62	44.88	6.94	-44.5	-46.2	18.3	0.00e+00	0	42	0	144703488	60	7410
2026-01-20 19:52:08.63	44.76	6.99	-44.6	-46.4	18.2	0.00e+00	32	42	0	146800640	60	7520
2026-01-20 19:52:09.64	44.63	7.04	-44.0	-45.6	18.8	0.00e+00	64	42	0	148897792	60	6919
2026-01-20 19:52:10.65	44.51	7.09	-44.5	-46.3	18.4	0.00e+00	0	42	0	150994944	60	7437
2026-01-20 19:52:11.66	44.38	7.14	-44.5	-46.2	18.3	0.00e+00	62	42	0	153092096	60	7421
2026-01-20 19:52:12.67	44.26	7.19	-44.2	-45.9	18.5	0.00e+00	0	42	0	154140672	60	7168
2026-01-20 19:52:13.68	44.13	7.24	-44.4	-46.2	18.2	0.00e+00	65	42	0	156237824	60	7339
2026-01-20 19:52:14.69	44.01	7.29	-44.5	-46.3	18.3	0.00e+00	0	42	0	158334976	60	7467
2026-01-20 19:52:15.70	43.88	7.34	-44.3	-46.1	18.4	0.00e+00	0	42	0	160432128	60	7300
2026-01-20 19:52:16.71	43.75	7.39	-44.3	-46.1	18.4	0.00e+00	69	42	0	162529280	60	7295
2026-01-20 19:52:17.72	43.63	7.44	-44.1	-45.8	18.8	0.00e+00	0	42	0	163577856	60	7068
2026-01-20 19:52:18.73	43.50	7.49	-43.9	-45.6	19.0	0.00e+00	12	42	0	165675008	60	6877
2026-01-20 19:52:19.74	43.37	7.54	-44.0	-45.6	18.9	0.00e+00	0	42	0	167772160	60	6911
2026-01-20 19:52:20.75	43.24	7.59	-43.9	-45.5	19.0	0.00e+00	68	42	0	169869312	60	6819
2026-01-20 19:52:21.76	43.11	7.65	-43.6	-45.1	19.3	0.00e+00	0	42	0	171966464	60	6496
2026-01-20 19:52:22.77	42.98	7.70	-43.6	-45.1	19.3	0.00e+00	61	42	0	173015040	60	6505
2026-01-20 19:52:23.78	42.85	7.75	-43.2	-44.7	19.8	0.00e+00	23	42	0	175112192	60	6200
2026-01-20 19:52:24.79	42.72	7.80	-43.8	-45.4	19.1	0.00e+00	0	42	0	177209344	60	6752
2026-01-20 19:52:25.80	42.59	7.85	-43.8	-45.3	19.1	0.00e+00	69	42	0	179306496	60	6689
2026-01-20 19:52:26.81	42.46	7.90	-43.5	-45.0	19.4	0.00e+00	0	42	0	181403648	60	6427
2026-01-20 19:52:27.82	42.33	7.95	-43.5	-44.9	19.5	0.00e+00	92	42	0	182452224	60	6379
2026-01-20 19:52:28.83	42.20	8.00	-43.5	-45.0	19.4	0.00e+00	0	42	0	184549376	60	6398
2026-01-20 19:52:29.84	42.06	8.05	-43.3	-44.8	19.6	0.00e+00	71	42	0	186646528	60	6247
2026-01-20 19:52:30.84	41.93	8.10	-43.8	-45.4	19.0	0.00e+00	0	42	0	188743680	60	6719
2026-01-20 19:52:31.86	41.80	8.15	-44.1	-45.7	18.6	0.00e+00	0	42	0	190840832	60	7005
2026-01-20 19:52:32.86	41.66	8.20	-44.2	-45.8	18.7	0.00e+00	46	42	0	191889408	60	7053
2026-01-20 19:52:33.87	41.53	8.25	-44.1	-45.8	18.9	0.00e+00	0	42	0	193986560	60	7033
2026-01-20 19:52:34.88	41.39	8.30	-44.7	-46.5	17.9	0.00e+00	70	42	0	196083712	60	7661
2026-01-20 19:52:35.89	41.26	8.35	-44.7	-46.5	17.9	0.00e+00	0	42	0	198180864	60	7666
2026-01-20 19:52:36.90	41.12	8.40	-45.0	-47.0	17.7	0.00e+00	79	42	0	200278016	60	8075
2026-01-20 19:52:37.91	40.98	8.45	-44.5	-46.4	18.2	0.00e+00	24	42	0	201326592	60	7528
2026-01-20 19:52:38.92	40.85	8.49	-44.0	-45.6	18.9	0.00e+00	0	42	0	203423744	60	6925
2026-01-20 19:52:39.93	40.71	8.54	-44.0	-45.7	18.8	0.00e+00	92	42	0	205520896	60	6974
2026-01-20 19:52:40.93	40.57	8.59	-43.9	-45.5	19.1	0.00e+00	0	42	0	207618048	60	6801
2026-01-20 19:52:41.95	40.43	8.64	-43.9	-45.5	19.1	0.00e+00	44	42	0	209715200	60	6803
2026-01-20 19:52:42.95	40.30	8.69	-44.0	-45.7	18.9	0.00e+00	0	42	0	210763776	60	6957
2026-01-20 19:52:43.97	40.15	8.74	-44.0	-45.6	18.9	0.00e+00	92	42	0	212860928	60	6923
2026-01-20 19:52:44.98	40.01	8.79	-43.8	-45.5	19.1	0.00e+00	0	42	0	214958080	60	6779
2026-01-20 19:52:45.98	39.88	8.84	-43.6	-45.1	19.4	0.00e+00	0	42	0	217055232	60	6508
2026-01-20 19:52:46.99	39.74	8.89	-43.5	-45.0	19.5	0.00e+00	71	42	0	219152384	60	6402
2026-01-20 19:52:48.00	39.59	8.94	-43.5	-45.0	19.4	0.00e+00	0	42	0	221249536	60	6449
2026-01-20 19:52:49.01	39.45	8.99	-43.5	-45.0	19.4	0.00e+00	27	42	0	222298112	60	6439
2026-01-20 19:52:50.02	39.31	9.04	-43.4	-44.9	19.6	0.00e+00	0	42	0	224395264	60	6323
2026-01-20 19:52:51.03	39.17	9.08	-43.5	-45.0	19.6	0.00e+00	83	42	0	226492416	60	6432
2026-01-20 19:52:52.04	39.02	9.13	-43.6	-45.2	19.4	0.00e+00	0	42	0	228589568	60	6554
2026-01-20 19:52:53.05	38.88	9.18	-43.2	-44.6	19.9	0.00e+00	9	42	0	230686720	60	6125
2026-01-20 19:52:54.06	38.74	9.23	-43.0	-44.4	20.2	0.00e+00	41	42	0	231735296	60	5979
2026-01-20 19:52:55.07	38.59	9.28	-43.4	-44.8	19.8	0.00e+00	0	42	0	233832448	60	6277
2026-01-20 19:52:56.08	38.45	9.33	-42.7	-44.1	20.3	0.00e+00	43	42	0	235929600	60	5778
2026-01-20 19:52:57.09	38.30	9.38	-42.8	-44.2	20.1	0.00e+00	0	42	0	238026752	58	6595
2026-01-20 19:52:58.10	38.15	9.42	-43.1	-44.6	20.0	0.00e+00	91	42	0	240123904	58	6869
2026-01-20 19:52:59.11	38.01	9.47	-42.6	-43.9	20.5	0.00e+00	0	42	0	241172480	58	6332
2026-01-20 19:53:00.12	37.86	9.52	-42.5	-43.8	20.6	0.00e+00	78	42	0	243269632	58	6302
2026-01-20 19:53:01.13	37.71	9.57	-42.4	-43.6	20.7	0.00e+00	63	42	0	245366784	58	6162
2026-01-20 19:53:02.14	37.56	9.62	-42.5	-43.8	20.6	0.00e+00	0	42	0	247463936	58	6253
2026-01-20 19:53:03.16	37.41	9.66	-42.8	-44.1	20.2	0.00e+00	91	42	0	249561088	58	6507
2026-01-20 19:53:04.17	37.26	9.71	-42.6	-43.9	20.4	0.00e+00	32	42	0	250609664	58	6376
2026-01-20 19:53:05.17	37.12	9.76	-42.5	-43.7	20.6	0.00e+00	92	42	0	252706816	58	6244
2026-01-20 19:53:06.18	36.97	9.81	-42.1	-43.3	21.1	0.00e+00	0	42	0	254803968	58	5951
2026-01-20 19:53:07.20	36.81	9.85	-41.9	-43.1	21.2	0.00e+00	92	42	0	256901120	58	5783
2026-01-20 19:53:08.20	36.66	9.90	-41.8	-43.0	21.3	0.00e+00	0	42	0	258998272	58	5724
2026-01-20 19:53:09.21	36.51	9.95	-41.7	-42.9	21.5	0.00e+00	0	42	0	260046848	56	6346
2026-01-20 19:53:10.22	36.36	9.99	-41.7	-42.9	21.5	0.00e+00	81	42	0	262144000	56	6331
2026-01-20 19:53:11.23	36.21	10.04	-41.6	-42.7	21.5	0.00e+00	0	42	0	264241152	56	6230
2026-01-20 19:53:12.25	36.05	10.09	-41.8	-43.0	21.5	0.00e+00	92	42	0	266338304	56	6409
2026-01-20 19:53:13.26	35.90	10.14	-41.8	-43.0	21.4	0.00e+00	0	42	0	268435456	56	6397
2026-01-20 19:53:14.27	35.74	10.18	-41.7	-42.9	21.4	0.00e+00	0	42	0	269484032	56	6343
2026-01-20 19:53:15.28	35.59	10.23	-42.1	-43.4	21.0	0.00e+00	0	42	0	271581184	56	6697
2026-01-20 19:53:16.29	35.43	10.28	-41.9	-43.1	21.3	0.00e+00	0	42	0	273678336	56	6484
2026-01-20 19:53:17.29	35.28	10.32	-42.1	-43.3	21.1	0.00e+00	92	42	0	275775488	56	6685
2026-01-20 19:53:18.31	35.12	10.37	-42.1	-43.4	21.0	0.00e+00	0	42	0	277872640	56	6708
2026-01-20 19:53:19.31	34.97	10.41	-42.3	-43.6	20.9	0.00e+00	87	42	0	278921216	56	6852
2026-01-20 19:53:20.32	34.81	10.46	-42.1	-43.3	21.2	0.00e+00	0	42	0	281018368	56	6668
2026-01-20 19:53:21.33	34.65	10.50	-42.0	-43.2	21.1	0.00e+00	0	42	0	283115520	56	6592
2026-01-20 19:53:22.34	34.49	10.55	-41.9	-43.1	21.2	0.00e+00	0	42	0	285212672	56	6471
2026-01-20 19:53:23.35	34.33	10.60	-41.7	-42.9	21.4	0.00e+00	0	42	0	287309824	56	6344
2026-01-20 19:53:24.36	34.18	10.64	-41.4	-42.5	21.9	0.00e+00	71	42	0	289406976	56	6043
2026-01-20 19:53:25.38	34.01	10.69	-41.4	-42.5	21.8	0.00e+00	0	42	0	290455552	56	6056
2026-01-20 19:53:26.39	33.85	10.73	-41.5	-42.6	21.6	0.00e+00	73	42	0	292552704	56	6161
2026-01-20 19:53:27.39	33.69	10.78	-41.6	-42.7	21.6	0.00e+00	0	42	0	294649856	56	6213
2026-01-20 19:53:28.41	33.53	10.82	-41.4	-42.5	21.8	0.00e+00	0	42	0	296747008	56	6073
2026-01-20 19:53:29.42	33.37	10.87	-41.6	-42.7	21.7	0.00e+00	0	42	0	298844160	56	6177
2026-01-20 19:53:30.43	33.21	10.91	-41.1	-42.2	22.2	0.00e+00	0	42	0	299892736	56	5846
2026-01-20 19:53:31.44	33.05	10.96	-40.6	-41.6	22.5	0.00e+00	65	42	0	301989888	54	6126
2026-01-20 19:53:32.44	32.88	11.00	-40.8	-41.8	22.4	0.00e+00	0	42	0	304087040	54	6265
2026-01-20 19:53:33.45	32.72	11.04	-40.7	-41.7	22.4	0.00e+00	92	42	0	306184192	54	6210
2026-01-20 19:53:34.46	32.56	11.09	-40.8	-41.8	22.3	0.00e+00	0	42	0	308281344	54	6303
2026-01-20 19:53:35.47	32.39	11.13	-41.2	-42.3	22.1	0.00e+00	0	42	0	309329920	54	6652
2026-01-20 19:53:36.48	32.23	11.18	-41.4	-42.5	21.9	0.00e+00	0	42	0	311427072	54	6791
2026-01-20 19:53:37.49	32.06	11.22	-41.1	-42.2	22.0	0.00e+00	0	42	0	313524224	54	6587
2026-01-20 19:53:38.50	31.89	11.26	-41.0	-42.1	22.1	0.00e+00	8	42	0	315621376	54	6483
2026-01-20 19:53:39.51	31.73	11.31	-40.9	-41.9	22.1	0.00e+00	0	42	0	317718528	54	6387
2026-01-20 19:53:40.52	31.56	11.35	-41.0	-42.1	22.2	0.00e+00	92	42	0	318767104	54	6498
2026-01-20 19:53:41.53	31.39	11.39	-40.9	-41.9	22.4	0.00e+00	0	42	0	320864256	54	6343
2026-01-20 19:53:42.54	31.22	11.43	-41.0	-42.0	22.3	0.00e+00	19	42	0	322961408	54	6424
2026-01-20 19:53:43.55	31.06	11.48	-40.8	-41.8	22.5	0.00e+00	0	42	0	325058560	54	6260
2026-01-20 19:53:44.56	30.89	11.52	-40.4	-41.4	22.8	0.00e+00	0	42	0	327155712	54	6007
2026-01-20 19:53:45.57	30.72	11.56	-40.4	-41.3	22.8	0.00e+00	63	42	0	328204288	54	5948
2026-01-20 19:53:46.58	30.55	11.60	-40.4	-41.4	22.8	0.00e+00	0	42	0	330301440	54	5976
2026-01-20 19:53:47.58	30.38	11.64	-40.4	-41.4	22.8	0.00e+00	62	42	0	332398592	54	6002
2026-01-20 19:53:48.60	30.20	11.69	-40.3	-41.3	22.9	0.00e+00	0	42	0	334495744	54	5904
2026-01-20 19:53:49.61	30.03	11.73	-40.5	-41.5	22.7	0.00e+00	0	42	0	336592896	54	6071
2026-01-20 19:53:50.61	29.86	11.77	-40.8	-41.8	22.4	0.00e+00	0	42	0	337641472	54	6311
2026-01-20 19:53:51.62	29.69	11.81	-40.9	-42.0	22.3	0.00e+00	0	42	0	339738624	54	6429
2026-01-20 19:53:52.63	29.52	11.85	-41.4	-42.6	21.8	0.00e+00	32	42	0	341835776	54	6871
2026-01-20 19:53:53.64	29.34	11.89	-41.6	-42.8	21.7	0.00e+00	0	42	0	343932928	54	7010
2026-01-20 19:53:54.65	29.17	11.93	-41.7	-42.8	21.5	0.00e+00	91	42	0	346030080	56	6282
2026-01-20 19:53:55.66	28.99	11.97	-41.7	-42.8	21.5	0.00e+00	0	42	0	347078656	56	6283
2026-01-20 19:53:56.67	28.82	12.01	-41.9	-43.0	21.5	0.00e+00	90	42	0	349175808	56	6440
2026-01-20 19:53:57.68	28.64	12.05	-41.6	-42.7	21.9	0.00e+00	0	42	0	351272960	56	6200
2026-01-20 19:53:58.69	28.47	12.09	-41.3	-42.4	22.1	0.00e+00	0	42	0	353370112	56	5984
2026-01-20 19:53:59.70	28.29	12.13	-41.5	-42.6	21.9	0.00e+00	0	42	0	355467264	56	6133
2026-01-20 19:54:00.71	28.11	12.17	-41.4	-42.5	22.0	0.00e+00	0	42	0	357564416	56	6048
2026-01-20 19:54:01.72	27.94	12.21	-41.4	-42.5	21.9	0.00e+00	12	42	0	358612992	56	6048
2026-01-20 19:54:02.73	27.76	12.25	-41.5	-42.6	22.0	0.00e+00	0	42	0	360710144	56	6133
2026-01-20 19:54:03.74	27.58	12.29	-41.4	-42.5	21.9	0.00e+00	79	42	0	362807296	56	6090
2026-01-20 19:54:04.75	27.40	12.33	-41.4	-42.5	21.8	0.00e+00	0	42	0	364904448	56	6088
2026-01-20 19:54:05.76	27.22	12.37	-41.6	-42.7	21.8	0.00e+00	0	42	0	367001600	56	6241
2026-01-20 19:54:06.77	27.04	12.40	-41.8	-42.9	21.6	0.00e+00	0	42	0	368050176	56	6379
2026-01-20 19:54:07.77	26.86	12.44	-41.9	-43.1	21.4	0.00e+00	0	42	0	370147328	56	6499
2026-01-20 19:54:08.78	26.68	12.48	-42.0	-43.3	21.4	0.00e+00	67	42	0	372244480	56	6618
2026-01-20 19:54:09.79	26.50	12.52	-41.6	-42.7	21.7	0.00e+00	0	42	0	374341632	56	6217
2026-01-20 19:54:10.80	26.32	12.55	-41.7	-42.8	21.8	0.00e+00	81	42	0	376438784	56	6282
2026-01-20 19:54:11.81	26.14	12.59	-41.5	-42.7	21.8	0.00e+00	0	42	0	377487360	56	6184
2026-01-20 19:54:12.82	25.95	12.63	-41.4	-42.5	22.0	0.00e+00	0	42	0	379584512	56	6068
2026-01-20 19:54:13.83	25.77	12.66	-40.9	-41.9	22.5	0.00e+00	0	42	0	381681664	56	5669
2026-01-20 19:54:14.84	25.59	12.70	-41.0	-42.0	22.4	0.00e+00	0	42	0	383778816	56	5752
2026-01-20 19:54:15.85	25.40	12.74	-41.0	-42.0	22.4	0.00e+00	0	42	0	385875968	56	5704
2026-01-20 19:54:16.86	25.22	12.77	-41.0	-42.0	22.4	0.00e+00	0	42	0	386924544	56	5721
2026-01-20 19:54:17.86	25.03	12.81	-41.1	-42.2	22.2	0.00e+00	85	42	0	389021696	56	5848
2026-01-20 19:54:18.87	24.85	12.84	-41.1	-42.1	22.2	0.00e+00	0	42	0	391118848	56	5820
2026-01-20 19:54:19.88	24.66	12.88	-41.1	-42.1	22.2	0.00e+00	0	42	0	393216000	56	5812
2026-01-20 19:54:20.89	24.48	12.91	-41.2	-42.2	22.1	0.00e+00	0	42	0	395313152	56	5887
2026-01-20 19:54:21.90	24.29	12.95	-41.7	-42.8	21.7	0.00e+00	0	42	0	396361728	56	6280
2026-01-20 19:54:22.91	24.10	12.98	-41.6	-42.7	21.9	0.00e+00	0	42	0	398458880	56	6209
2026-01-20 19:54:23.92	23.92	13.02	-41.4	-42.5	21.9	0.00e+00	0	42	0	400556032	56	6068
2026-01-20 19:54:24.94	23.73	13.05	-41.1	-42.1	22.3	0.00e+00	66	42	0	402653184	56	5796
2026-01-20 19:54:25.95	23.54	13.08	-40.7	-41.7	22.5	0.00e+00	0	42	0	404750336	54	6208
2026-01-20 19:54:26.96	23.35	13.12	-40.8	-41.8	22.3	0.00e+00	0	42	0	405798912	54	6275
2026-01-20 19:54:27.97	23.16	13.15	-41.0	-42.0	22.3	0.00e+00	0	42	0	407896064	54	6448
2026-01-20 19:54:28.98	22.97	13.18	-41.1	-42.2	22.1	0.00e+00	0	42	0	409993216	54	6586
2026-01-20 19:54:29.99	22.78	13.21	-41.5	-42.7	21.7	0.00e+00	0	42	0	412090368	54	6946
2026-01-20 19:54:31.00	22.59	13.25	-41.7	-42.8	21.6	0.00e+00	0	42	0	414187520	54	7084
2026-01-20 19:54:32.00	22.40	13.28	-41.7	-42.8	21.6	0.00e+00	26	42	0	415236096	54	7082
2026-01-20 19:54:33.01	22.21	13.31	-42.1	-43.3	21.2	0.00e+00	0	42	0	417333248	56	6635
2026-01-20 19:54:34.02	22.02	13.34	-41.9	-43.0	21.4	0.00e+00	48	42	0	419430400	56	6456
2026-01-20 19:54:35.03	21.82	13.37	-41.8	-43.0	21.6	0.00e+00	0	42	0	421527552	56	6414
2026-01-20 19:54:36.04	21.63	13.40	-41.3	-42.4	22.1	0.00e+00	0	42	0	423624704	56	6004
2026-01-20 19:54:37.05	21.44	13.43	-41.1	-42.2	22.1	0.00e+00	0	42	0	425721856	56	5834
2026-01-20 19:54:38.06	21.24	13.46	-40.6	-41.5	22.3	0.00e+00	0	42	0	426770432	54	6098
2026-01-20 19:54:39.07	21.05	13.49	-40.3	-41.2	22.7	0.00e+00	41	42	0	428867584	54	5876
2026-01-20 19:54:40.08	20.86	13.52	-40.3	-41.3	22.8	0.00e+00	0	42	0	430964736	54	5921
2026-01-20 19:54:41.09	20.66	13.55	-40.3	-41.2	22.9	0.00e+00	92	42	0	433061888	54	5890
2026-01-20 19:54:42.10	20.47	13.58	-40.3	-41.2	22.8	0.00e+00	32	42	0	435159040	54	5874
2026-01-20 19:54:43.11	20.27	13.61	-40.3	-41.2	22.8	0.00e+00	0	42	0	436207616	54	5890
2026-01-20 19:54:44.12	20.07	13.64	-40.2	-41.1	23.0	0.00e+00	0	42	0	438304768	54	5816
2026-01-20 19:54:45.13	19.88	13.67	-40.4	-41.3	22.7	0.00e+00	33	42	0	440401920	54	5960
2026-01-20 19:54:46.14	19.68	13.70	-40.6	-41.6	22.6	0.00e+00	68	42	0	442499072	54	6107
2026-01-20 19:54:47.15	19.48	13.72	-40.5	-41.5	22.7	0.00e+00	0	42	0	443547648	54	6040
2026-01-20 19:54:48.16	19.29	13.75	-40.6	-41.6	22.5	0.00e+00	92	42	0	445644800	54	6117
2026-01-20 19:54:49.16	19.09	13.78	-40.2	-41.2	22.9	0.00e+00	0	42	0	447741952	54	5846
2026-01-20 19:54:50.17	18.89	13.80	-40.2	-41.2	23.1	0.00e+00	0	42	0	449839104	54	5850
2026-01-20 19:54:51.18	18.69	13.83	-40.2	-41.2	22.8	0.00e+00	0	42	0	451936256	54	5830
2026-01-20 19:54:52.19	18.50	13.86	-40.2	-41.2	22.9	0.00e+00	0	42	0	454033408	54	5829
2026-01-20 19:54:53.20	18.30	13.88	-40.1	-41.0	23.1	0.00e+00	71	42	0	455081984	54	5708
2026-01-20 19:54:54.21	18.10	13.91	-40.4	-41.3	22.9	0.00e+00	0	42	0	457179136	54	5951
2026-01-20 19:54:55.22	17.90	13.93	-40.5	-41.4	22.8	0.00e+00	84	42	0	459276288	54	6029
2026-01-20 19:54:56.23	17.70	13.96	-40.8	-41.8	22.4	0.00e+00	0	42	0	461373440	54	6305
2026-01-20 19:54:57.24	17.50	13.98	-40.9	-41.9	22.3	0.00e+00	0	42	0	463470592	54	6383
2026-01-20 19:54:58.25	17.30	14.01	-41.2	-42.2	22.0	0.00e+00	0	42	0	464519168	54	6596
2026-01-20 19:54:59.26	17.09	14.03	-41.2	-42.2	22.1	0.00e+00	0	42	0	466616320	54	6605
2026-01-20 19:55:00.27	16.89	14.05	-41.1	-42.1	22.2	0.00e+00	17	42	0	468713472	54	6537
2026-01-20 19:55:01.28	16.69	14.08	-41.1	-42.2	22.2	0.00e+00	0	42	0	470810624	54	6546
2026-01-20 19:55:02.29	16.49	14.10	-41.1	-42.2	22.1	0.00e+00	70	42	0	472907776	54	6580
2026-01-20 19:55:03.30	16.29	14.12	-41.3	-42.4	21.9	0.00e+00	0	42	0	473956352	54	6737
2026-01-20 19:55:04.31	16.08	14.14	-41.4	-42.5	21.6	0.00e+00	1	42	0	476053504	54	6805
2026-01-20 19:55:05.32	15.88	14.17	-41.5	-42.7	21.6	0.00e+00	0	42	0	478150656	54	6934
2026-01-20 19:55:06.33	15.68	14.19	-41.4	-42.5	21.9	0.00e+00	0	42	0	480247808	54	6799
2026-01-20 19:55:07.33	15.47	14.21	-41.6	-42.7	21.8	0.00e+00	0	42	0	482344960	54	6965
2026-01-20 19:55:08.34	15.27	14.23	-41.5	-42.7	21.7	0.00e+00	0	42	0	483393536	54	6937
2026-01-20 19:55:09.35	15.07	14.25	-41.6	-42.7	21.7	0.00e+00	90	42	0	485490688	54	6991
2026-01-20 19:55:10.36	14.86	14.27	-41.4	-42.5	21.8	0.00e+00	0	42	0	487587840	54	6803
2026-01-20 19:55:11.37	14.66	14.29	-41.6	-42.7	21.7	0.00e+00	71	42	0	489684992	54	6951
2026-01-20 19:55:12.38	14.45	14.31	-41.6	-42.8	21.8	0.00e+00	0	42	0	491782144	54	7024
2026-01-20 19:55:13.39	14.25	14.33	-41.5	-42.6	21.9	0.00e+00	0	42	0	492830720	54	6863
2026-01-20 19:55:14.40	14.04	14.35	-41.3	-42.3	22.1	0.00e+00	0	42	0	494927872	54	6686
2026-01-20 19:55:15.41	13.84	14.36	-41.2	-42.2	22.2	0.00e+00	0	42	0	497025024	54	6580
2026-01-20 19:55:16.42	13.63	14.38	-40.7	-41.7	22.6	0.00e+00	11	42	0	499122176	54	6236
2026-01-20 19:55:17.43	13.42	14.40	-40.6	-41.5	22.6	0.00e+00	0	42	0	501219328	54	6100
2026-01-20 19:55:18.44	13.22	14.42	-40.5	-41.4	22.8	0.00e+00	66	42	0	502267904	54	6021
2026-01-20 19:55:19.45	13.01	14.43	-40.7	-41.7	22.6	0.00e+00	0	42	0	504365056	54	6195
2026-01-20 19:55:20.46	12.80	14.45	-40.6	-41.6	22.7	0.00e+00	0	42	0	506462208	54	6104
2026-01-20 19:55:21.47	12.59	14.47	-40.6	-41.5	22.6	0.00e+00	0	42	0	508559360	54	6088
2026-01-20 19:55:22.48	12.39	14.48	-40.9	-42.0	22.5	0.00e+00	0	42	0	510656512	54	6399
2026-01-20 19:55:23.49	12.18	14.50	-40.9	-41.9	22.4	0.00e+00	63	42	0	511705088	54	6370
2026-01-20 19:55:24.50	11.97	14.51	-40.9	-41.9	22.4	0.00e+00	0	42	0	513802240	54	6335
2026-01-20 19:55:25.51	11.76	14.53	-41.0	-42.0	22.2	0.00e+00	91	42	0	515899392	54	6427
2026-01-20 19:55:26.52	11.56	14.54	-41.0	-42.0	22.2	0.00e+00	0	42	0	517996544	54	6462
2026-01-20 19:55:27.53	11.35	14.56	-41.0	-42.1	22.3	0.00e+00	0	42	0	520093696	54	6490
2026-01-20 19:55:28.54	11.14	14.57	-40.9	-42.0	22.2	0.00e+00	0	42	0	522190848	54	6407
2026-01-20 19:55:29.55	10.93	14.58	-40.9	-42.0	22.2	0.00e+00	0	42	0	523239424	54	6412
2026-01-20 19:55:30.56	10.72	14.60	-40.8	-41.9	22.4	0.00e+00	0	42	0	525336576	54	6322
2026-01-20 19:55:31.57	10.51	14.61	-40.6	-41.6	22.6	0.00e+00	0	42	0	527433728	54	6158
2026-01-20 19:55:32.58	10.30	14.62	-40.8	-41.8	22.4	0.00e+00	92	42	0	529530880	54	6290
2026-01-20 19:55:33.59	10.09	14.63	-41.0	-42.0	22.3	0.00e+00	0	42	0	531628032	54	6453
2026-01-20 19:55:34.60	9.88	14.64	-41.2	-42.3	22.2	0.00e+00	0	42	0	532676608	54	6616
2026-01-20 19:55:35.61	9.67	14.65	-41.1	-42.2	22.0	0.00e+00	0	42	0	534773760	54	6582
2026-01-20 19:55:36.62	9.46	14.66	-41.4	-42.6	22.0	0.00e+00	0	42	0	536870912	54	6858
2026-01-20 19:55:37.63	9.25	14.67	-41.5	-42.7	21.8	0.00e+00	64	42	0	538968064	54	6936
2026-01-20 19:55:38.64	9.04	14.68	-41.7	-42.8	21.7	0.00e+00	0	42	0	541065216	54	7076
2026-01-20 19:55:39.65	8.83	14.69	-41.6	-42.7	21.7	0.00e+00	93	42	0	542113792	56	6231
2026-01-20 19:55:40.66	8.62	14.70	-42.0	-43.1	21.8	0.00e+00	0	42	0	544210944	56	6525
2026-01-20 19:55:41.67	8.41	14.71	-41.7	-42.8	21.5	0.00e+00	28	42	0	546308096	56	6270
2026-01-20 19:55:42.68	8.20	14.72	-41.8	-43.0	21.8	0.00e+00	0	42	0	548405248	56	6397
2026-01-20 19:55:43.69	7.99	14.73	-41.6	-42.8	21.7	0.00e+00	0	42	0	550502400	56	6254
2026-01-20 19:55:44.70	7.77	14.73	-41.3	-42.4	22.0	0.00e+00	0	42	0	551550976	56	5987
2026-01-20 19:55:45.71	7.56	14.74	-41.6	-42.7	21.8	0.00e+00	0	42	0	553648128	56	6234
2026-01-20 19:55:46.72	7.35	14.75	-41.4	-42.5	22.1	0.00e+00	36	42	0	555745280	56	6040
2026-01-20 19:55:47.73	7.14	14.75	-41.1	-42.2	22.3	0.00e+00	0	42	0	557842432	56	5829
2026-01-20 19:55:48.74	6.93	14.76	-41.0	-42.1	22.4	0.00e+00	69	42	0	559939584	56	5783
2026-01-20 19:55:49.75	6.72	14.77	-40.9	-42.0	22.5	0.00e+00	0	42	0	560988160	56	5710
2026-01-20 19:55:50.76	6.51	14.77	-40.8	-41.9	22.5	0.00e+00	0	42	0	563085312	56	5647
2026-01-20 19:55:51.77	6.29	14.78	-40.6	-41.7	22.7	0.00e+00	0	42	0	565182464	54	6175
2026-01-20 19:55:52.79	6.08	14.78	-40.8	-41.8	22.5	0.00e+00	0	42	0	567279616	54	6271
2026-01-20 19:55:53.80	5.87	14.78	-40.9	-42.0	22.4	0.00e+00	64	42	0	569376768	54	6395
2026-01-20 19:55:54.81	5.66	14.79	-41.1	-42.1	22.2	0.00e+00	0	42	0	571473920	54	6536
2026-01-20 19:55:55.82	5.44	14.79	-41.3	-42.4	22.0	0.00e+00	92	42	0	572522496	54	6725
2026-01-20 19:55:56.83	5.23	14.79	-41.4	-42.5	22.0	0.00e+00	0	42	0	574619648	54	6834
2026-01-20 19:55:57.84	5.02	14.80	-41.5	-42.6	21.9	0.00e+00	0	42	0	576716800	54	6850
2026-01-20 19:55:58.85	4.81	14.80	-41.3	-42.3	22.1	0.00e+00	0	42	0	578813952	54	6688
2026-01-20 19:55:59.86	4.60	14.80	-41.2	-42.3	22.1	0.00e+00	0	42	0	580911104	54	6653
2026-01-20 19:56:00.86	4.39	14.80	-41.1	-42.2	22.2	0.00e+00	71	42	0	581959680	54	6580
2026-01-20 19:56:01.87	4.17	14.80	-41.1	-42.1	22.2	0.00e+00	0	42	0	584056832	54	6536
2026-01-20 19:56:02.88	3.96	14.80	-40.9	-41.9	22.5	0.00e+00	71	42	0	586153984	54	6365
2026-01-20 19:56:03.89	3.75	14.80	-40.8	-41.8	22.5	0.00e+00	0	42	0	588251136	54	6305
2026-01-20 19:56:04.90	3.54	14.80	-41.0	-42.0	22.5	0.00e+00	0	42	0	590348288	54	6457
2026-01-20 19:56:05.91	3.32	14.80	-40.6	-41.6	22.7	0.00e+00	0	42	0	591396864	54	6122
2026-01-20 19:56:06.92	3.11	14.80	-40.6	-41.6	22.7	0.00e+00	0	42	0	593494016	54	6107
2026-01-20 19:56:07.93	2.90	14.80	-40.7	-41.7	22.6	0.00e+00	73	42	0	595591168	54	6210
2026-01-20 19:56:08.94	2.69	14.80	-40.5	-41.5	22.7	0.00e+00	0	42	0	597688320	54	6099
2026-01-20 19:56:09.95	2.48	14.79	-40.5	-41.5	22.6	0.00e+00	72	42	0	599785472	54	6077
2026-01-20 19:56:10.96	2.26	14.79	-40.9	-42.0	22.5	0.00e+00	0	42	0	600834048	54	6404
2026-01-20 19:56:11.97	2.05	14.79	-40.8	-41.9	22.5	0.00e+00	0	42	0	602931200	54	6323
2026-01-20 19:56:12.98	1.84	14.78	-41.0	-42.1	22.2	0.00e+00	0	42	0	605028352	54	6513
2026-01-20 19:56:13.99	1.63	14.78	-41.1	-42.1	22.3	0.00e+00	0	42	0	607125504	54	6529
2026-01-20 19:56:15.00	1.42	14.78	-41.1	-42.2	22.2	0.00e+00	37	42	0	609222656	54	6590
2026-01-20 19:56:16.01	1.20	14.77	-41.4	-42.5	21.9	0.00e+00	0	42	0	610271232	54	6798
2026-01-20 19:56:17.02	0.99	14.77	-41.6	-42.7	21.8	0.00e+00	74	42	0	612368384	54	6973
2026-01-20 19:56:18.03	0.78	14.76	-41.5	-42.7	21.7	0.00e+00	0	42	0	614465536	54	6930
2026-01-20 19:56:19.04	0.57	14.75	-41.5	-42.6	21.7	0.00e+00	62	42	0	616562688	54	6863
2026-01-20 19:56:20.05	0.36	14.75	-41.6	-42.8	21.7	0.00e+00	0	42	0	618659840	54	7013
2026-01-20 19:56:21.06	0.15	14.74	-41.8	-43.0	21.6	0.00e+00	0	42	0	619708416	56	6411
2026-01-20 19:56:22.07	359.94	14.73	-41.8	-42.9	21.7	0.00e+00	0	42	0	621805568	56	6354
2026-01-20 19:56:23.08	359.72	14.73	-41.7	-42.8	21.8	0.00e+00	0	42	0	623902720	56	6265
2026-01-20 19:56:24.09	359.51	14.72	-41.6	-42.7	21.9	0.00e+00	31	42	0	625999872	56	6193
2026-01-20 19:56:25.10	359.30	14.71	-41.4	-42.5	22.1	0.00e+00	0	42	0	628097024	56	6099
2026-01-20 19:56:26.11	359.09	14.70	-41.3	-42.4	22.0	0.00e+00	89	42	0	629145600	56	5965
2026-01-20 19:56:27.12	358.88	14.69	-41.3	-42.4	22.2	0.00e+00	0	42	0	631242752	56	5980
2026-01-20 19:56:28.13	358.67	14.68	-41.0	-42.0	22.4	0.00e+00	0	42	0	633339904	56	5751
2026-01-20 19:56:29.13	358.46	14.67	-40.9	-42.0	22.5	0.00e+00	31	42	0	635437056	56	5701
2026-01-20 19:56:30.14	358.25	14.66	-40.8	-41.9	22.6	0.00e+00	0	42	0	637534208	56	5632
2026-01-20 19:56:31.15	358.04	14.65	-40.6	-41.6	22.7	0.00e+00	69	42	0	639631360	54	6162
2026-01-20 19:56:32.16	357.83	14.64	-40.5	-41.5	22.7	0.00e+00	31	42	0	640679936	54	6085
2026-01-20 19:56:33.17	357.62	14.63	-40.7	-41.7	22.6	0.00e+00	92	42	0	642777088	54	6198
2026-01-20 19:56:34.18	357.41	14.62	-40.7	-41.8	22.8	0.00e+00	0	42	0	644874240	54	6246
2026-01-20 19:56:35.19	357.20	14.61	-40.9	-41.9	22.5	0.00e+00	32	42	0	646971392	54	6355
2026-01-20 19:56:36.20	356.99	14.60	-40.9	-41.9	22.3	0.00e+00	0	42	0	648019968	54	6386
2026-01-20 19:56:37.20	356.79	14.58	-41.1	-42.1	22.3	0.00e+00	0	42	0	650117120	54	6532
2026-01-20 19:56:38.21	356.58	14.57	-40.9	-41.9	22.4	0.00e+00	0	42	0	652214272	54	6354
2026-01-20 19:56:39.22	356.37	14.56	-40.6	-41.6	22.7	0.00e+00	0	42	0	654311424	54	6170
2026-01-20 19:56:40.23	356.16	14.54	-40.4	-41.4	22.8	0.00e+00	90	42	0	656408576	54	6009
2026-01-20 19:56:41.24	355.95	14.53	-40.3	-41.3	22.8	0.00e+00	0	42	0	657457152	54	5944
2026-01-20 19:56:42.25	355.74	14.51	-40.3	-41.3	22.8	0.00e+00	0	42	0	659554304	54	5941
2026-01-20 19:56:43.27	355.53	14.50	-40.4	-41.4	22.9	0.00e+00	0	42	0	661651456	54	5988
2026-01-20 19:56:44.28	355.33	14.48	-40.6	-41.6	22.6	0.00e+00	0	42	0	663748608	54	6152
2026-01-20 19:56:45.29	355.12	14.47	-40.8	-41.8	22.4	0.00e+00	0	42	0	665845760	54	6297
2026-01-20 19:56:46.30	354.91	14.45	-40.8	-41.8	22.5	0.00e+00	0	42	0	667942912	54	6315
2026-01-20 19:56:47.30	354.71	14.43	-41.0	-42.1	22.4	0.00e+00	81	42	0	668991488	54	6482
2026-01-20 19:56:48.32	354.50	14.42	-40.8	-41.8	22.5	0.00e+00	0	42	0	671088640	54	6273
2026-01-20 19:56:49.33	354.29	14.40	-41.2	-42.3	22.2	0.00e+00	0	42	0	673185792	54	6655
2026-01-20 19:56:50.33	354.09	14.38	-41.0	-42.1	22.1	0.00e+00	0	42	0	675282944	54	6503
2026-01-20 19:56:51.34	353.88	14.37	-41.1	-42.2	22.1	0.00e+00	0	42	0	677380096	54	6569
2026-01-20 19:56:52.35	353.67	14.35	-41.3	-42.5	21.9	0.00e+00	40	42	0	678428672	54	6776
2026-01-20 19:56:53.36	353.47	14.33	-41.6	-42.8	21.7	0.00e+00	0	42	0	680525824	54	7022
2026-01-20 19:56:54.37	353.26	14.31	-41.5	-42.7	21.8	0.00e+00	68	42	0	682622976	54	6943
2026-01-20 19:56:55.38	353.06	14.29	-41.5	-42.7	21.9	0.00e+00	0	42	0	684720128	54	6958
2026-01-20 19:56:56.39	352.85	14.27	-41.6	-42.7	21.9	0.00e+00	91	42	0	686817280	56	6211
2026-01-20 19:56:57.40	352.65	14.25	-41.6	-42.8	21.8	0.00e+00	0	42	0	687865856	56	6252
2026-01-20 19:56:58.41	352.45	14.23	-41.6	-42.7	22.0	0.00e+00	0	42	0	689963008	56	6208
2026-01-20 19:56:59.42	352.24	14.21	-41.5	-42.6	22.0	0.00e+00	0	42	0	692060160	56	6154
2026-01-20 19:57:00.43	352.04	14.19	-41.6	-42.7	21.9	0.00e+00	0	42	0	694157312	56	6190
2026-01-20 19:57:01.44	351.83	14.17	-41.3	-42.3	22.2	0.00e+00	64	42	0	696254464	56	5959
2026-01-20 19:57:02.45	351.63	14.14	-41.2	-42.3	22.4	0.00e+00	0	42	0	697303040	56	5917
2026-01-20 19:57:03.46	351.43	14.12	-41.1	-42.1	22.5	0.00e+00	92	42	0	699400192	56	5805
2026-01-20 19:57:04.47	351.23	14.10	-40.5	-41.5	22.9	0.00e+00	0	42	0	701497344	54	6057
2026-01-20 19:57:05.47	351.03	14.08	-40.6	-41.6	22.7	0.00e+00	0	42	0	703594496	54	6127
2026-01-20 19:57:06.48	350.82	14.05	-40.6	-41.6	22.6	0.00e+00	0	42	0	705691648	54	6144
2026-01-20 19:57:07.49	350.62	14.03	-41.0	-42.0	22.6	0.00e+00	0	42	0	706740224	54	6420
2026-01-20 19:57:08.50	350.42	14.01	-40.8	-41.9	22.6	0.00e+00	67	42	0	708837376	54	6319
2026-01-20 19:57:09.51	350.22	13.98	-40.9	-42.0	22.4	0.00e+00	0	42	0	710934528	54	6398
2026-01-20 19:57:10.52	350.02	13.96	-40.6	-41.6	22.8	0.00e+00	58	42	0	713031680	54	6117
2026-01-20 19:57:11.53	349.82	13.93	-40.8	-41.8	22.6	0.00e+00	0	42	0	715128832	54	6269
2026-01-20 19:57:12.54	349.62	13.91	-40.5	-41.4	22.9	0.00e+00	0	42	0	716177408	54	6024
2026-01-20 19:57:13.55	349.42	13.88	-40.5	-41.5	22.8	0.00e+00	0	42	0	718274560	54	6073
2026-01-20 19:57:14.56	349.22	13.86	-40.7	-41.6	22.6	0.00e+00	0	42	0	720371712	54	6173
2026-01-20 19:57:15.57	349.02	13.83	-41.0	-42.0	22.5	0.00e+00	63	42	0	722468864	54	6433
2026-01-20 19:57:16.58	348.82	13.81	-41.1	-42.2	22.3	0.00e+00	0	42	0	724566016	54	6576
2026-01-20 19:57:17.59	348.63	13.78	-41.4	-42.5	22.0	0.00e+00	67	42	0	725614592	54	6804
2026-01-20 19:57:18.60	348.43	13.75	-41.1	-42.2	22.3	0.00e+00	0	42	0	727711744	54	6546
2026-01-20 19:57:19.61	348.23	13.72	-41.0	-42.1	22.1	0.00e+00	0	42	0	729808896	54	6513
2026-01-20 19:57:20.62	348.03	13.70	-41.1	-42.2	22.2	0.00e+00	0	42	0	731906048	54	6568
2026-01-20 19:57:21.63	347.84	13.67	-41.2	-42.3	22.1	0.00e+00	0	42	0	734003200	54	6685
2026-01-20 19:57:22.64	347.64	13.64	-41.1	-42.2	22.2	0.00e+00	57	42	0	736100352	54	6552
2026-01-20 19:57:23.64	347.45	13.61	-41.0	-42.1	22.3	0.00e+00	0	42	0	737148928	54	6486
2026-01-20 19:57:24.65	347.25	13.58	-41.0	-42.1	22.3	0.00e+00	91	42	0	739246080	54	6483
2026-01-20 19:57:25.66	347.06	13.56	-41.1	-42.3	22.2	0.00e+00	0	42	0	741343232	54	6626
2026-01-20 19:57:26.67	346.86	13.53	-41.1	-42.2	22.2	0.00e+00	68	42	0	743440384	54	6610
2026-01-20 19:57:27.68	346.67	13.50	-41.3	-42.4	22.0	0.00e+00	0	42	0	745537536	54	6763
2026-01-20 19:57:28.69	346.47	13.47	-41.4	-42.6	21.8	0.00e+00	0	42	0	746586112	54	6910
2026-01-20 19:57:29.70	346.28	13.44	-41.4	-42.6	21.9	0.00e+00	61	42	0	748683264	54	6866
2026-01-20 19:57:30.71	346.09	13.41	-41.3	-42.5	22.0	0.00e+00	0	42	0	750780416	54	6780
2026-01-20 19:57:31.72	345.90	13.37	-41.1	-42.3	22.0	0.00e+00	64	42	0	752877568	54	6655
2026-01-20 19:57:32.73	345.70	13.34	-41.2	-42.3	22.2	0.00e+00	0	42	0	754974720	54	6684
2026-01-20 19:57:33.74	345.51	13.31	-40.8	-41.8	22.4	0.00e+00	66	42	0	756023296	54	6312
2026-01-20 19:57:34.75	345.32	13.28	-40.8	-41.9	22.5	0.00e+00	0	42	0	758120448	54	6377
2026-01-20 19:57:35.76	345.13	13.25	-40.8	-41.8	22.4	0.00e+00	0	42	0	760217600	54	6317
2026-01-20 19:57:36.77	344.94	13.22	-40.6	-41.6	22.6	0.00e+00	0	42	0	762314752	54	6171
2026-01-20 19:57:37.78	344.75	13.18	-40.6	-41.6	22.6	0.00e+00	0	42	0	764411904	54	6159
2026-01-20 19:57:38.79	344.56	13.15	-40.7	-41.8	22.5	0.00e+00	64	42	0	765460480	54	6271
2026-01-20 19:57:39.80	344.37	13.12	-40.8	-41.9	22.4	0.00e+00	0	42	0	767557632	54	6338
2026-01-20 19:57:40.81	344.18	13.08	-40.5	-41.5	22.7	0.00e+00	85	42	0	769654784	54	6067
2026-01-20 19:57:41.82	343.99	13.05	-40.4	-41.4	22.8	0.00e+00	0	42	0	771751936	54	6023
2026-01-20 19:57:42.83	343.80	13.02	-40.4	-41.5	22.7	0.00e+00	0	42	0	773849088	54	6075
2026-01-20 19:57:43.84	343.62	12.98	-40.4	-41.4	22.7	0.00e+00	0	42	0	774897664	54	6033
2026-01-20 19:57:44.85	343.43	12.95	-40.1	-41.1	23.0	0.00e+00	0	42	0	776994816	54	5819
2026-01-20 19:57:45.86	343.24	12.91	-39.9	-41.0	23.1	0.00e+00	69	42	0	779091968	54	5700
2026-01-20 19:57:46.87	343.06	12.88	-40.0	-41.0	22.5	0.00e+00	0	42	0	781189120	54	5747
2026-01-20 19:57:47.88	342.87	12.84	-40.1	-41.1	23.0	0.00e+00	73	42	0	783286272	54	5775
2026-01-20 19:57:48.89	342.69	12.81	-40.2	-41.2	23.0	0.00e+00	0	42	0	784334848	54	5851
2026-01-20 19:57:49.90	342.50	12.77	-40.1	-41.2	22.8	0.00e+00	0	42	0	786432000	54	5837
2026-01-20 19:57:50.92	342.31	12.74	-40.3	-41.4	22.7	0.00e+00	0	42	0	788529152	54	5986
2026-01-20 19:57:51.92	342.13	12.70	-40.5	-41.5	22.6	0.00e+00	0	42	0	790626304	54	6103
2026-01-20 19:57:52.93	341.95	12.67	-40.7	-41.8	22.5	0.00e+00	69	42	0	792723456	54	6301
2026-01-20 19:57:53.94	341.77	12.63	-40.9	-42.0	22.3	0.00e+00	0	42	0	793772032	54	6419
2026-01-20 19:57:54.95	341.58	12.59	-40.9	-42.1	22.3	0.00e+00	72	42	0	795869184	54	6497
2026-01-20 19:57:55.96	341.40	12.56	-41.1	-42.2	22.2	0.00e+00	0	42	0	797966336	54	6599
2026-01-20 19:57:56.97	341.22	12.52	-41.5	-42.7	21.7	0.00e+00	0	42	0	800063488	54	6991
2026-01-20 19:57:57.98	341.04	12.48	-41.3	-42.6	21.9	0.00e+00	0	42	0	802160640	54	6851
2026-01-20 19:57:58.99	340.86	12.44	-41.5	-42.7	21.7	0.00e+00	0	42	0	804257792	54	6972
2026-01-20 19:58:00.00	340.68	12.41	-41.7	-42.9	21.7	0.00e+00	0	42	0	805306368	56	6381
2026-01-20 19:58:00.98	340.50	12.37	-41.8	-43.0	21.4	0.00e+00	0	42	0	807403520	56	6452
2026-01-20 19:58:01.99	340.32	12.33	-41.8	-43.0	21.4	0.00e+00	71	42	0	809500672	56	6461
2026-01-20 19:58:03.01	340.14	12.29	-41.6	-42.8	21.7	0.00e+00	0	42	0	811597824	56	6307
2026-01-20 19:58:04.01	339.97	12.25	-41.7	-42.9	21.6	0.00e+00	32	42	0	813694976	56	6354
2026-01-20 19:58:05.02	339.79	12.21	-41.5	-42.7	21.6	0.00e+00	0	42	0	814743552	56	6217
2026-01-20 19:58:06.03	339.61	12.18	-41.7	-42.9	21.5	0.00e+00	0	42	0	816840704	56	6347
2026-01-20 19:58:07.04	339.43	12.14	-41.7	-42.9	21.6	0.00e+00	0	42	0	818937856	56	6375
2026-01-20 19:58:08.05	339.26	12.10	-41.7	-42.9	21.6	0.00e+00	0	42	0	821035008	56	6384
2026-01-20 19:58:09.06	339.08	12.06	-41.7	-42.9	21.5	0.00e+00	37	42	0	823132160	56	6367
2026-01-20 19:58:10.08	338.90	12.02	-41.7	-43.0	21.6	0.00e+00	0	42	0	824180736	56	6404
2026-01-20 19:58:11.09	338.73	11.98	-41.8	-43.0	21.4	0.00e+00	38	42	0	826277888	56	6462
2026-01-20 19:58:12.10	338.55	11.94	-41.8	-43.1	21.4	0.00e+00	0	42	0	828375040	56	6508
2026-01-20 19:58:13.10	338.38	11.90	-42.0	-43.3	21.5	0.00e+00	0	42	0	830472192	56	6648
2026-01-20 19:58:14.12	338.21	11.85	-41.7	-43.0	21.5	0.00e+00	0	42	0	832569344	56	6411
2026-01-20 19:58:15.13	338.03	11.81	-41.8	-43.0	21.5	0.00e+00	0	42	0	833617920	56	6439
2026-01-20 19:58:16.13	337.86	11.77	-41.9	-43.1	21.3	0.00e+00	66	42	0	835715072	56	6504
2026-01-20 19:58:17.14	337.69	11.73	-41.8	-43.0	21.5	0.00e+00	0	42	0	837812224	56	6448
2026-01-20 19:58:18.15	337.52	11.69	-41.8	-43.0	21.6	0.00e+00	92	42	0	839909376	56	6443
2026-01-20 19:58:19.16	337.35	11.65	-42.0	-43.2	21.3	0.00e+00	31	42	0	842006528	56	6576
2026-01-20 19:58:20.17	337.18	11.61	-41.8	-43.0	21.4	0.00e+00	0	42	0	843055104	56	6458
2026-01-20 19:58:21.18	337.01	11.57	-42.1	-43.4	21.1	0.00e+00	0	42	0	845152256	56	6719
2026-01-20 19:58:22.19	336.84	11.52	-42.0	-43.2	21.3	0.00e+00	31	42	0	847249408	56	6583
2026-01-20 19:58:23.20	336.67	11.48	-42.0	-43.2	21.2	0.00e+00	70	42	0	849346560	56	6614
2026-01-20 19:58:24.21	336.50	11.44	-41.9	-43.0	21.4	0.00e+00	0	42	0	851443712	56	6453
2026-01-20 19:58:25.22	336.33	11.40	-41.7	-42.8	21.7	0.00e+00	92	42	0	852492288	56	6283
2026-01-20 19:58:26.23	336.16	11.35	-41.7	-42.8	21.6	0.00e+00	0	42	0	854589440	56	6305
2026-01-20 19:58:27.24	336.00	11.31	-41.1	-42.2	22.1	0.00e+00	21	42	0	856686592	56	5857
2026-01-20 19:58:28.25	335.83	11.27	-41.2	-42.3	22.1	0.00e+00	0	42	0	858783744	56	5903
2026-01-20 19:58:29.26	335.66	11.22	-41.6	-42.7	21.7	0.00e+00	0	42	0	860880896	56	6234
2026-01-20 19:58:30.27	335.50	11.18	-41.8	-42.9	21.5	0.00e+00	0	42	0	861929472	56	6389
2026-01-20 19:58:31.28	335.33	11.14	-42.2	-43.4	21.1	0.00e+00	0	42	0	864026624	56	6711
2026-01-20 19:58:32.29	335.17	11.09	-42.3	-43.5	21.1	0.00e+00	92	42	0	866123776	56	6776
2026-01-20 19:58:33.30	335.00	11.05	-42.9	-44.2	20.4	0.00e+00	0	42	0	868220928	58	6585
2026-01-20 19:58:34.31	334.84	11.00	-42.9	-44.3	20.3	0.00e+00	0	42	0	870318080	58	6636
2026-01-20 19:58:35.32	334.68	10.96	-43.3	-44.7	20.0	0.00e+00	0	42	0	872415232	58	6951
2026-01-20 19:58:36.33	334.52	10.92	-43.2	-44.6	20.0	0.00e+00	0	42	0	873463808	58	6878
2026-01-20 19:58:37.34	334.35	10.87	-43.0	-44.4	20.2	0.00e+00	0	42	0	875560960	58	6728
2026-01-20 19:58:38.35	334.19	10.83	-42.9	-44.2	20.4	0.00e+00	0	42	0	877658112	58	6570
2026-01-20 19:58:39.36	334.03	10.78	-42.7	-44.0	20.7	0.00e+00	67	42	0	879755264	58	6420
2026-01-20 19:58:40.37	333.87	10.74	-42.6	-43.8	20.8	0.00e+00	0	42	0	881852416	58	6309
2026-01-20 19:58:41.38	333.71	10.69	-42.6	-43.8	20.7	0.00e+00	51	42	0	882900992	58	6289
2026-01-20 19:58:42.39	333.55	10.65	-42.7	-44.0	20.6	0.00e+00	0	42	0	884998144	58	6442
2026-01-20 19:58:43.40	333.39	10.60	-42.7	-44.0	20.6	0.00e+00	0	42	0	887095296	58	6400
2026-01-20 19:58:44.41	333.23	10.56	-43.0	-44.3	20.3	0.00e+00	40	42	0	889192448	58	6651
2026-01-20 19:58:45.42	333.07	10.51	-43.4	-44.8	19.8	0.00e+00	0	42	0	891289600	58	7042
2026-01-20 19:58:46.43	332.92	10.46	-43.9	-45.5	19.2	0.00e+00	58	42	0	892338176	60	6788
2026-01-20 19:58:47.44	332.76	10.42	-44.7	-46.5	18.4	0.00e+00	0	42	0	894435328	60	7621
2026-01-20 19:58:48.45	332.60	10.37	-45.0	-46.9	18.0	0.00e+00	81	42	0	896532480	60	7973
2026-01-20 19:58:49.46	332.45	10.33	-45.4	-47.4	17.6	0.00e+00	0	42	0	898629632	60	8431
2026-01-20 19:58:50.47	332.29	10.28	-45.3	-47.3	17.6	0.00e+00	0	42	0	900726784	60	8394
2026-01-20 19:58:51.48	332.14	10.23	-45.2	-47.2	17.6	0.00e+00	0	42	0	901775360	60	8294
2026-01-20 19:58:52.49	331.98	10.19	-45.2	-47.1	17.8	0.00e+00	0	42	0	903872512	60	8197
2026-01-20 19:58:53.50	331.83	10.14	-44.9	-46.8	18.1	0.00e+00	64	42	0	905969664	60	7867
2026-01-20 19:58:54.51	331.67	10.09	-44.7	-46.5	18.4	0.00e+00	0	42	0	908066816	60	7602
2026-01-20 19:58:55.52	331.52	10.05	-44.9	-46.7	18.0	0.00e+00	70	42	0	910163968	60	7842
2026-01-20 19:58:56.53	331.37	10.00	-44.4	-46.0	18.8	0.00e+00	0	42	0	911212544	60	7241
2026-01-20 19:58:57.54	331.22	9.95	-44.3	-45.9	18.9	0.00e+00	0	42	0	913309696	60	7108
2026-01-20 19:58:58.55	331.06	9.91	-44.3	-46.0	18.7	0.00e+00	0	42	0	915406848	60	7203
2026-01-20 19:58:59.56	330.91	9.86	-44.5	-46.1	18.6	0.00e+00	0	42	0	917504000	60	7321
2026-01-20 19:59:00.57	330.76	9.81	-44.3	-45.9	19.0	0.00e+00	62	42	0	919601152	60	7103
2026-01-20 19:59:01.58	330.61	9.76	-44.2	-45.7	19.0	0.00e+00	0	42	0	920649728	60	6996
2026-01-20 19:59:02.59	330.46	9.72	-44.1	-45.6	19.1	0.00e+00	66	42	0	922746880	60	6898
2026-01-20 19:59:03.60	330.31	9.67	-43.7	-45.2	19.5	0.00e+00	0	42	0	924844032	60	6576
2026-01-20 19:59:04.62	330.16	9.62	-43.7	-45.1	19.6	0.00e+00	0	42	0	926941184	60	6532
2026-01-20 19:59:05.62	330.02	9.57	-43.7	-45.2	19.5	0.00e+00	0	42	0	929038336	60	6560
2026-01-20 19:59:06.63	329.87	9.53	-43.7	-45.2	19.4	0.00e+00	0	42	0	930086912	60	6570
2026-01-20 19:59:07.65	329.72	9.48	-44.0	-45.5	19.2	0.00e+00	0	42	0	932184064	60	6815
2026-01-20 19:59:08.66	329.57	9.43	-44.1	-45.7	19.1	0.00e+00	0	42	0	934281216	60	6938
2026-01-20 19:59:09.67	329.43	9.38	-43.7	-45.1	19.6	0.00e+00	90	42	0	936378368	60	6516
2026-01-20 19:59:10.68	329.28	9.33	-43.8	-45.3	19.5	0.00e+00	0	42	0	938475520	60	6662
2026-01-20 19:59:11.69	329.14	9.28	-43.4	-44.8	19.7	0.00e+00	91	42	0	940572672	60	6315
2026-01-20 19:59:12.70	328.99	9.24	-43.2	-44.5	20.1	0.00e+00	0	42	0	941621248	60	6081
2026-01-20 19:59:13.70	328.85	9.19	-43.2	-44.6	20.0	0.00e+00	0	42	0	943718400	60	6122
2026-01-20 19:59:14.72	328.70	9.14	-43.4	-44.8	19.9	0.00e+00	63	42	0	945815552	60	6284
2026-01-20 19:59:15.73	328.56	9.09	-43.1	-44.4	20.2	0.00e+00	0	42	0	947912704	60	6002
2026-01-20 19:59:16.74	328.42	9.04	-43.0	-44.3	20.3	0.00e+00	62	42	0	950009856	60	5908
2026-01-20 19:59:17.75	328.28	8.99	-42.9	-44.2	20.4	0.00e+00	0	42	0	951058432	60	5855
2026-01-20 19:59:18.76	328.13	8.94	-43.0	-44.3	20.3	0.00e+00	22	42	0	953155584	60	5954
2026-01-20 19:59:19.76	327.99	8.89	-43.2	-44.5	20.1	0.00e+00	0	42	0	955252736	60	6083
2026-01-20 19:59:20.78	327.85	8.85	-43.0	-44.3	20.3	0.00e+00	0	42	0	957349888	60	5919
2026-01-20 19:59:21.78	327.71	8.80	-43.0	-44.4	20.1	0.00e+00	0	42	0	959447040	60	5971
2026-01-20 19:59:22.79	327.57	8.75	-43.2	-44.6	20.0	0.00e+00	0	42	0	960495616	60	6141
2026-01-20 19:59:23.80	327.43	8.70	-42.9	-44.2	20.5	0.00e+00	65	42	0	962592768	60	5836
2026-01-20 19:59:24.81	327.30	8.65	-43.2	-44.6	19.8	0.00e+00	0	42	0	964689920	60	6131
2026-01-20 19:59:25.82	327.16	8.60	-43.1	-44.5	20.1	0.00e+00	92	42	0	966787072	60	6044
2026-01-20 19:59:26.83	327.02	8.55	-43.5	-45.0	19.6	0.00e+00	0	42	0	968884224	60	6444
2026-01-20 19:59:27.84	326.88	8.50	-43.5	-45.0	19.6	0.00e+00	0	42	0	969932800	60	6434
2026-01-20 19:59:28.85	326.74	8.45	-43.6	-45.1	19.5	0.00e+00	0	42	0	972029952	60	6501
2026-01-20 19:59:29.86	326.61	8.40	-43.7	-45.2	19.4	0.00e+00	0	42	0	974127104	60	6569
2026-01-20 19:59:30.87	326.47	8.35	-43.4	-44.8	19.5	0.00e+00	70	42	0	976224256	60	6297
2026-01-20 19:59:31.88	326.34	8.30	-43.8	-45.4	19.2	0.00e+00	0	42	0	978321408	60	6712
2026-01-20 19:59:32.89	326.20	8.25	-43.6	-45.1	19.4	0.00e+00	92	42	0	979369984	60	6493
2026-01-20 19:59:33.90	326.07	8.20	-43.2	-44.6	19.9	0.00e+00	0	42	0	981467136	60	6156
2026-01-20 19:59:34.91	325.93	8.15	-43.3	-44.7	19.9	0.00e+00	0	42	0	983564288	60	6204
2026-01-20 19:59:35.92	325.80	8.10	-43.4	-44.8	19.9	0.00e+00	0	42	0	985661440	60	6281
2026-01-20 19:59:36.93	325.67	8.05	-43.3	-44.8	19.7	0.00e+00	0	42	0	987758592	60	6257
2026-01-20 19:59:37.94	325.53	8.00	-43.2	-44.5	19.9	0.00e+00	67	42	0	988807168	60	6094
2026-01-20 19:59:38.95	325.40	7.95	-43.4	-44.8	19.8	0.00e+00	0	42	0	990904320	60	6279
2026-01-20 19:59:39.96	325.27	7.90	-43.2	-44.6	20.0	0.00e+00	89	42	0	993001472	60	6119
2026-01-20 19:59:40.97	325.14	7.85	-43.2	-44.6	20.0	0.00e+00	0	42	0	995098624	60	6127
2026-01-20 19:59:41.98	325.01	7.80	-43.4	-44.8	19.8	0.00e+00	0	42	0	997195776	60	6294
2026-01-20 19:59:42.99	324.88	7.75	-43.2	-44.6	20.0	0.00e+00	0	42	0	998244352	60	6137
2026-01-20 19:59:44.00	324.75	7.70	-43.4	-44.9	19.8	0.00e+00	0	42	0	1000341504	60	6343
2026-01-20 19:59:45.01	324.62	7.65	-42.9	-44.3	20.3	0.00e+00	0	42	0	1002438656	60	5904
2026-01-20 19:59:46.02	324.49	7.60	-42.4	-43.6	20.8	0.00e+00	0	42	0	1004535808	58	6170
2026-01-20 19:59:47.03	324.36	7.55	-42.0	-43.2	21.1	0.00e+00	44	42	0	1006632960	58	5880
2026-01-20 19:59:48.04	324.23	7.50	-42.0	-43.2	21.2	0.00e+00	0	42	0	1008730112	56	6547
2026-01-20 19:59:49.05	324.10	7.45	-42.1	-43.2	21.2	0.00e+00	0	42	0	1009778688	56	6608
2026-01-20 19:59:50.06	323.98	7.40	-42.0	-43.1	21.1	0.00e+00	0	42	0	1011875840	56	6522
2026-01-20 19:59:51.07	323.85	7.35	-42.1	-43.3	21.1	0.00e+00	0	42	0	1013972992	56	6685
2026-01-20 19:59:52.08	323.72	7.30	-42.2	-43.4	21.2	0.00e+00	0	42	0	1016070144	56	6723
2026-01-20 19:59:53.09	323.60	7.25	-42.0	-43.1	21.3	0.00e+00	0	42	0	1018167296	56	6524
2026-01-20 19:59:54.10	323.47	7.20	-42.1	-43.3	21.0	0.00e+00	31	42	0	1019215872	56	6641
2026-01-20 19:59:55.11	323.35	7.15	-42.1	-43.3	20.9	0.00e+00	0	42	0	1021313024	56	6681
2026-01-20 19:59:56.12	323.22	7.10	-42.3	-43.5	20.8	0.00e+00	43	42	0	1023410176	56	6828
2026-01-20 19:59:57.13	323.10	7.04	-42.6	-43.9	20.5	0.00e+00	0	42	0	1025507328	56	7110
2026-01-20 19:59:58.14	322.98	6.99	-42.8	-44.1	20.6	0.00e+00	0	42	0	1027604480	56	7327
2026-01-20 19:59:59.15	322.85	6.94	-42.3	-43.5	21.0	0.00e+00	0	42	0	1028653056	58	6058
2026-01-20 20:00:00.16	322.73	6.89	-41.9	-43.0	21.3	0.00e+00	0	42	0	1030750208	58	5759
2026-01-20 20:00:01.17	322.61	6.84	-42.0	-43.1	21.1	0.00e+00	82	42	0	1032847360	56	6535
2026-01-20 20:00:02.18	322.49	6.79	-41.7	-42.8	21.4	0.00e+00	0	42	0	1034944512	56	6282
2026-01-20 20:00:03.19	322.36	6.74	-42.3	-43.5	20.8	0.00e+00	62	42	0	1037041664	56	6841
2026-01-20 20:00:04.20	322.24	6.69	-42.4	-43.7	20.7	0.00e+00	0	42	0	1038090240	56	6976
2026-01-20 20:00:05.21	322.12	6.64	-42.3	-43.5	20.7	0.00e+00	0	42	0	1040187392	56	6823
2026-01-20 20:00:06.22	322.00	6.59	-41.8	-43.0	21.2	0.00e+00	0	42	0	1042284544	56	6439
2026-01-20 20:00:07.22	321.88	6.54	-42.6	-43.9	20.5	0.00e+00	0	42	0	1044381696	56	7105
2026-01-20 20:00:08.23	321.77	6.49	-42.2	-43.5	20.7	0.00e+00	8	42	0	1046478848	56	6788
2026-01-20 20:00:09.24	321.65	6.43	-42.2	-43.4	20.9	0.00e+00	0	42	0	1047527424	56	6717
2026-01-20 20:00:10.25	321.53	6.38	-42.4	-43.6	20.6	0.00e+00	91	42	0	1049624576	56	6924
2026-01-20 20:00:11.26	321.41	6.33	-42.6	-43.9	20.5	0.00e+00	0	42	0	1051721728	56	7124
2026-01-20 20:00:12.27	321.29	6.28	-42.2	-43.5	20.7	0.00e+00	0	42	0	1053818880	58	6039
2026-01-20 20:00:13.28	321.18	6.23	-43.3	-44.8	19.7	0.00e+00	0	42	0	1055916032	58	7018
2026-01-20 20:00:14.29	321.06	6.18	-42.6	-43.9	20.4	0.00e+00	0	42	0	1056964608	58	6336
2026-01-20 20:00:15.30	320.94	6.13	-42.8	-44.2	20.0	0.00e+00	66	42	0	1059061760	58	6562
2026-01-20 20:00:16.31	320.83	6.08	-42.8	-44.1	20.3	0.00e+00	0	42	0	1061158912	58	6515
2026-01-20 20:00:17.32	320.71	6.03	-43.0	-44.4	19.9	0.00e+00	92	42	0	1063256064	58	6708
2026-01-20 20:00:18.33	320.60	5.98	-43.0	-44.5	19.9	0.00e+00	0	42	0	1065353216	58	6776
2026-01-20 20:00:19.34	320.48	5.92	-42.6	-43.9	20.3	0.00e+00	27	42	0	1066401792	58	6342
2026-01-20 20:00:20.35	320.37	5.87	-42.6	-43.9	20.2	0.00e+00	0	42	0	1068498944	58	6333
2026-01-20 20:00:21.36	320.25	5.82	-42.8	-44.2	19.7	0.00e+00	0	42	0	1070596096	58	6561
2026-01-20 20:00:22.37	320.14	5.77	-43.1	-44.5	19.7	0.00e+00	0	43	0	1072693248	58	6836
2026-01-20 20:00:23.37	320.03	5.72	-42.9	-44.3	19.8	0.00e+00	0	43	0	1074790400	58	6686
2026-01-20 20:00:24.38	319.92	5.67	-42.6	-43.9	20.3	0.00e+00	65	42	0	1076887552	58	6356
2026-01-20 20:00:25.39	319.80	5.62	-42.9	-44.3	19.7	0.00e+00	0	42	0	1077936128	58	6670
2026-01-20 20:00:26.40	319.69	5.57	-42.5	-43.8	20.1	0.00e+00	0	43	0	1080033280	58	6310
2026-01-20 20:00:27.41	319.58	5.52	-43.0	-44.5	19.6	0.00e+00	0	43	0	1082130432	58	6799
2026-01-20 20:00:28.42	319.47	5.46	-42.3	-43.5	20.0	0.00e+00	0	43	0	1084227584	58	6097
2026-01-20 20:00:29.43	319.36	5.41	-43.2	-44.6	19.5	0.00e+00	59	43	0	1086324736	58	6887
2026-01-20 20:00:30.44	319.25	5.36	-42.4	-43.7	20.2	0.00e+00	0	43	0	1087373312	58	6181
2026-01-20 20:00:31.45	319.14	5.31	-42.5	-43.8	20.2	0.00e+00	92	43	0	1089470464	58	6294
2026-01-20 20:00:32.46	319.03	5.26	-42.1	-43.3	20.8	0.00e+00	0	43	0	1091567616	58	5952
2026-01-20 20:00:33.47	318.92	5.21	-42.3	-43.6	20.5	0.00e+00	73	43	0	1093664768	58	6115
2026-01-20 20:00:34.48	318.81	5.16	-42.6	-43.9	20.4	0.00e+00	0	43	0	1095761920	58	6360
2026-01-20 20:00:35.49	318.70	5.11	-42.1	-43.3	20.8	0.00e+00	0	43	0	1096810496	58	5924
2026-01-20 20:00:36.50	318.60	5.06	-42.4	-43.7	20.2	0.00e+00	0	43	0	1098907648	58	6243
2026-01-20 20:00:37.51	318.49	5.00	-41.9	-43.1	21.0	0.00e+00	0	43	0	1101004800	58	5772
2026-01-20 20:00:38.52	318.38	4.95	-42.1	-43.4	20.7	0.00e+00	59	42	0	1103101952	58	5980
2026-01-20 20:00:39.52	318.28	4.90	-42.0	-43.3	20.7	0.00e+00	0	43	0	1105199104	58	5912
2026-01-20 20:00:40.53	318.17	4.85	-42.1	-43.4	20.6	0.00e+00	92	43	0	1106247680	58	6013
2026-01-20 20:00:41.54	318.06	4.80	-42.5	-43.9	20.1	0.00e+00	0	42	0	1108344832	58	6354
2026-01-20 20:00:42.55	317.96	4.75	-42.5	-43.8	20.3	0.00e+00	0	42	0	1110441984	58	6270
2026-01-20 20:00:43.56	317.85	4.70	-43.0	-44.4	19.8	0.00e+00	0	43	0	1112539136	58	6723
2026-01-20 20:00:44.57	317.75	4.65	-43.0	-44.4	19.9	0.00e+00	0	43	0	1114636288	58	6759
2026-01-20 20:00:45.58	317.64	4.60	-43.2	-44.7	19.4	0.00e+00	60	43	0	1115684864	58	6957
2026-01-20 20:00:46.59	317.54	4.54	-43.4	-44.9	19.2	0.00e+00	0	43	0	1117782016	58	7120
2026-01-20 20:00:47.60	317.44	4.49	-43.5	-45.1	18.9	0.00e+00	67	43	0	1119879168	58	7302
2026-01-20 20:00:48.61	317.33	4.44	-43.5	-45.1	19.2	0.00e+00	0	43	0	1121976320	60	6474
2026-01-20 20:00:49.62	317.23	4.39	-43.6	-45.2	18.9	0.00e+00	0	42	0	1124073472	60	6579
2026-01-20 20:00:50.63	317.13	4.34	-43.8	-45.4	18.8	0.00e+00	0	43	0	1125122048	60	6757
2026-01-20 20:00:51.64	317.02	4.29	-43.9	-45.5	18.7	0.00e+00	0	42	0	1127219200	60	6812
2026-01-20 20:00:52.65	316.92	4.24	-43.8	-45.4	18.8	0.00e+00	65	43	0	1129316352	60	6702
2026-01-20 20:00:53.66	316.82	4.19	-43.5	-45.0	19.0	0.00e+00	0	43	0	1131413504	60	6444
2026-01-20 20:00:54.67	316.72	4.14	-43.4	-44.9	19.3	0.00e+00	75	42	0	1133510656	60	6347
2026-01-20 20:00:55.68	316.62	4.09	-43.4	-44.9	19.5	0.00e+00	0	42	0	1134559232	60	6349
2026-01-20 20:00:56.69	316.52	4.03	-42.6	-43.9	20.3	0.00e+00	0	43	0	1136656384	60	5693
2026-01-20 20:00:57.70	316.42	3.98	-42.3	-43.5	20.3	0.00e+00	0	43	0	1138753536	56	6823
2026-01-20 20:00:58.71	316.32	3.93	-42.1	-43.4	20.4	0.00e+00	0	42	0	1140850688	58	5989
2026-01-20 20:00:59.72	316.22	3.88	-42.4	-43.7	20.3	0.00e+00	62	42	0	1142947840	58	6184
2026-01-20 20:01:00.73	316.12	3.83	-43.7	-45.3	18.7	0.00e+00	0	42	0	1145044992	58	7423
2026-01-20 20:01:01.74	316.02	3.78	-42.2	-43.5	20.7	0.00e+00	90	43	0	1146093568	58	6079
2026-01-20 20:01:02.75	315.93	3.73	-40.1	-41.0	22.5	0.00e+00	0	43	0	1148190720	54	5759
2026-01-20 20:01:03.76	315.83	3.68	-42.5	-43.8	20.1	0.00e+00	0	42	0	1150287872	58	6276
2026-01-20 20:01:04.76	315.73	3.63	-42.1	-43.4	20.6	0.00e+00	0	43	0	1152385024	58	5969
2026-01-20 20:01:05.77	315.63	3.58	-42.4	-43.8	20.1	0.00e+00	0	43	0	1154482176	58	6254
2026-01-20 20:01:06.79	315.54	3.53	-43.4	-44.9	19.1	0.00e+00	0	43	0	1155530752	58	7122
2026-01-20 20:01:07.80	315.44	3.47	-41.9	-43.1	20.4	0.00e+00	0	42	0	1157627904	56	6491
2026-01-20 20:01:08.81	315.34	3.42	-43.0	-44.4	19.7	0.00e+00	76	43	0	1159725056	60	6003
2026-01-20 20:01:09.82	315.25	3.37	-44.8	-46.8	17.7	0.00e+00	0	43	0	1161822208	60	7897
2026-01-20 20:01:10.83	315.15	3.32	-42.5	-43.8	20.3	0.00e+00	92	43	0	1163919360	60	5588
2026-01-20 20:01:11.84	315.06	3.27	-43.8	-45.4	18.6	0.00e+00	0	43	0	1164967936	60	6759
2026-01-20 20:01:12.84	314.96	3.22	-44.3	-46.2	18.0	0.00e+00	0	43	0	1167065088	60	7368
2026-01-20 20:01:13.86	314.87	3.17	-43.5	-45.1	18.4	0.00e+00	0	42	0	1169162240	60	6521
2026-01-20 20:01:14.87	314.77	3.12	-44.2	-46.1	18.0	0.00e+00	0	43	0	1171259392	60	7276
2026-01-20 20:01:15.88	314.68	3.07	-43.3	-44.8	19.2	0.00e+00	64	42	0	1173356544	60	6304
2026-01-20 20:01:16.89	314.59	3.02	-44.9	-47.0	17.2	0.00e+00	0	43	0	1174405120	60	8138
2026-01-20 20:01:17.90	314.49	2.97	-50.3	-65.5	3.5	7.15e-01	0	43	104	1175453696	60	68052
2026-01-20 20:01:18.91	314.40	2.92	-50.6	-65.9	3.6	1.51e+00	0	43	104	1175453696	60	70939
2026-01-20 20:01:19.92	314.31	2.87	-50.9	-66.1	3.6	1.51e+00	0	43	104	1175453696	60	72956
2026-01-20 20:01:20.93	314.22	2.82	-51.1	-66.3	3.6	1.51e+00	0	43	104	1175453696	60	74425
2026-01-20 20:01:21.94	314.13	2.77	-51.2	-66.4	3.6	1.51e+00	0	43	104	1175453696	60	75639
2026-01-20 20:01:22.95	314.03	2.71	-51.3	-66.5	3.6	1.51e+00	0	43	104	1175453696	60	76562
2026-01-20 20:01:23.96	313.94	2.66	-51.4	-66.6	3.6	1.51e+00	0	43	104	1175453696	60	77179
2026-01-20 20:01:24.97	313.85	2.61	-51.4	-66.7	3.6	1.51e+00	0	43	104	1175453696	60	77772
2026-01-20 20:01:25.97	313.76	2.56	-51.5	-66.7	3.6	1.51e+00	0	43	104	1175453696	60	78236
2026-01-20 20:01:26.98	313.67	2.51	-51.5	-66.8	3.6	1.51e+00	0	43	104	1175453696	60	78831
2026-01-20 20:01:27.99	313.58	2.46	-51.5	-66.7	3.6	1.51e+00	0	43	104	1175453696	60	78409
2026-01-20 20:01:29.00	313.49	2.41	-51.5	-66.7	3.6	1.51e+00	0	43	104	1175453696	60	78587
2026-01-20 20:01:30.01	313.40	2.36	-51.6	-66.8	3.6	1.51e+00	0	43	104	1175453696	60	78782
2026-01-20 20:01:31.02	313.32	2.31	-51.6	-66.8	3.6	1.51e+00	0	43	104	1175453696	60	78890
2026-01-20 20:01:32.03	313.23	2.26	-51.4	-66.8	3.6	1.51e+00	0	43	104	1175453696	60	78749
