passes_logs/2026/01/20/R4.6S_Anadyr/R4.6S_Anadyr__20260120_151134_NOAA_20_JPSS-1_rec.log

#Pass ID: 20260120_151134_NOAA 20 (JPSS-1)
#Satellite: NOAA 20 (JPSS-1)
#Configuration: NOAA 20
#almurnet v.1.7.20251203
#Start time: 2026-01-20 15:11:37

#Version: 2.2.20231116
#Station: R4.6S_Anadyr
#Location: 177.4865 lon 64.73178 lat
#TLE: 1 43013U 17073A   26019.91154542  .00000116  00000+0  76014-4 0  9997
#TLE: 2 43013  98.7642 320.7991 0001304  32.0041 328.1214 14.19537346423438

#Time	Az	El	Level	Level2	SNR	BER	BlckErr	Temp	State	Recorded	gain1	gain2
2026-01-20 15:11:37.79	21.59	0.17	-52.9	-66.7	3.3	1.54e+00	0	41	0	0	60	78593
2026-01-20 15:11:38.80	21.58	0.23	-51.8	-67.0	3.6	1.51e+00	0	41	104	0	60	81298
2026-01-20 15:11:39.81	21.57	0.29	-51.8	-67.0	3.6	1.51e+00	0	41	104	0	60	80494
2026-01-20 15:11:40.82	21.57	0.36	-51.6	-66.9	3.6	1.51e+00	0	41	104	0	60	79682
2026-01-20 15:11:41.83	21.56	0.42	-51.6	-66.8	3.6	1.51e+00	0	41	104	0	60	79291
2026-01-20 15:11:42.83	21.55	0.48	-51.6	-66.8	3.6	1.51e+00	0	41	104	0	60	79116
2026-01-20 15:11:43.84	21.54	0.54	-51.6	-66.8	3.6	1.51e+00	0	41	104	0	60	79058
2026-01-20 15:11:44.85	21.53	0.60	-51.7	-66.8	3.6	1.51e+00	0	41	104	0	60	79524
2026-01-20 15:11:45.86	21.52	0.66	-51.6	-66.9	3.6	1.51e+00	0	41	104	0	60	79744
2026-01-20 15:11:46.87	21.51	0.72	-51.6	-66.8	3.6	1.51e+00	0	41	104	0	60	78823
2026-01-20 15:11:47.88	21.50	0.78	-51.5	-66.7	3.6	1.51e+00	0	41	104	0	60	78187
2026-01-20 15:11:48.89	21.49	0.84	-51.4	-66.6	3.6	1.51e+00	0	41	104	0	60	76858
2026-01-20 15:11:49.90	21.48	0.91	-51.2	-66.4	3.6	1.51e+00	0	41	104	0	60	75490
2026-01-20 15:11:50.91	21.47	0.97	-51.1	-66.4	3.6	1.51e+00	0	41	104	0	60	75104
2026-01-20 15:11:51.92	21.46	1.03	-51.0	-66.2	3.6	1.51e+00	0	41	104	0	60	73699
2026-01-20 15:11:52.93	21.46	1.09	-50.9	-66.1	3.6	1.51e+00	0	41	104	0	60	72643
2026-01-20 15:11:53.94	21.45	1.16	-50.7	-65.9	3.6	1.51e+00	0	41	104	0	60	71315
2026-01-20 15:11:54.95	21.44	1.22	-50.7	-65.9	3.6	1.51e+00	0	42	104	0	60	71060
2026-01-20 15:11:55.96	21.43	1.28	-50.5	-65.7	3.6	1.51e+00	0	41	104	0	60	69985
2026-01-20 15:11:56.97	21.42	1.34	-50.3	-65.5	3.6	1.51e+00	0	41	104	0	60	67845
2026-01-20 15:11:57.98	21.41	1.41	-50.2	-65.4	3.6	1.51e+00	0	42	104	0	60	66934
2026-01-20 15:11:58.98	21.40	1.47	-49.8	-64.6	3.6	1.51e+00	0	42	104	0	60	61122
2026-01-20 15:12:00.00	21.39	1.53	-49.8	-64.8	3.6	1.51e+00	0	42	104	0	60	62662
2026-01-20 15:12:01.01	21.38	1.60	-49.8	-64.7	3.6	1.51e+00	0	42	104	0	60	62151
2026-01-20 15:12:02.02	21.37	1.66	-49.8	-64.8	3.6	1.51e+00	0	42	104	0	60	62980
2026-01-20 15:12:03.03	21.36	1.72	-49.8	-65.0	3.6	1.51e+00	0	42	104	0	60	63944
2026-01-20 15:12:04.04	21.35	1.79	-49.8	-64.9	3.6	1.51e+00	0	42	104	0	60	63567
2026-01-20 15:12:05.04	21.34	1.85	-49.8	-65.0	3.5	1.51e+00	0	42	104	0	60	64146
2026-01-20 15:12:06.05	21.33	1.91	-49.8	-65.0	3.6	1.51e+00	0	42	104	0	60	64071
2026-01-20 15:12:07.06	21.32	1.98	-49.8	-65.0	3.6	1.51e+00	0	42	104	0	60	64263
2026-01-20 15:12:08.07	21.31	2.04	-49.9	-65.0	3.6	1.51e+00	0	42	104	0	60	64420
2026-01-20 15:12:09.08	21.30	2.11	-49.9	-65.1	3.6	1.51e+00	0	42	104	0	60	64697
2026-01-20 15:12:10.09	21.29	2.17	-49.9	-64.9	3.6	1.51e+00	0	42	104	0	60	63612
2026-01-20 15:12:11.10	21.27	2.24	-49.8	-64.8	3.6	1.51e+00	0	42	104	0	60	63041
2026-01-20 15:12:12.11	21.26	2.30	-49.9	-64.6	3.6	1.51e+00	0	42	104	0	60	61509
2026-01-20 15:12:13.12	21.25	2.37	-49.8	-64.6	3.6	1.51e+00	0	42	104	0	60	61635
2026-01-20 15:12:14.13	21.24	2.43	-49.8	-64.2	3.6	1.51e+00	0	42	104	0	60	58564
2026-01-20 15:12:15.14	21.23	2.50	-49.8	-63.8	3.6	1.51e+00	0	42	104	0	60	56068
2026-01-20 15:12:16.15	21.22	2.56	-49.7	-64.0	3.6	1.51e+00	0	42	104	0	60	57148
2026-01-20 15:12:17.16	21.21	2.63	-49.8	-64.4	3.6	1.51e+00	0	42	104	0	60	59663
2026-01-20 15:12:18.17	21.20	2.69	-49.8	-63.7	3.6	1.51e+00	0	42	104	0	60	55043
2026-01-20 15:12:19.17	21.19	2.76	-49.8	-64.2	3.6	1.51e+00	0	42	104	0	60	58613
2026-01-20 15:12:20.18	21.18	2.82	-49.7	-61.9	4.0	1.47e+00	0	42	104	0	60	44850
2026-01-20 15:12:21.19	21.17	2.89	-49.7	-61.7	4.0	1.50e+00	0	42	104	0	60	44103
2026-01-20 15:12:22.20	21.15	2.96	-49.6	-59.6	4.9	7.28e-01	58	42	0	0	60	34540
2026-01-20 15:12:23.21	21.14	3.02	-49.2	-56.7	6.6	2.86e-01	57	42	0	2097152	60	24632
2026-01-20 15:12:24.22	21.13	3.09	-49.0	-56.0	7.4	1.90e-01	0	42	0	4194304	60	22682
2026-01-20 15:12:25.23	21.12	3.16	-48.9	-55.4	8.1	2.17e-02	56	42	0	6291456	60	21406
2026-01-20 15:12:26.24	21.11	3.22	-48.8	-55.1	8.4	2.13e-02	92	42	0	8388608	60	20534
2026-01-20 15:12:27.25	21.10	3.29	-47.5	-51.4	12.4	3.32e-04	0	42	0	9437184	60	13364
2026-01-20 15:12:28.26	21.08	3.36	-47.1	-50.6	13.1	3.66e-05	91	42	0	11534336	60	12268
2026-01-20 15:12:29.27	21.07	3.42	-48.2	-53.2	10.0	5.86e-04	0	42	0	13631488	60	16535
2026-01-20 15:12:30.28	21.06	3.49	-47.4	-51.4	12.2	6.71e-05	24	42	0	15728640	60	13402
2026-01-20 15:12:31.29	21.05	3.56	-46.7	-49.8	13.8	6.74e-04	25	42	0	17825792	60	11207
2026-01-20 15:12:32.30	21.04	3.63	-48.1	-53.0	11.1	1.08e-03	24	42	0	19922944	60	16129
2026-01-20 15:12:33.31	21.02	3.70	-48.2	-53.1	7.6	9.26e-03	92	42	0	20971520	60	16386
2026-01-20 15:12:34.32	21.01	3.76	-49.7	-63.9	3.6	1.51e+00	0	42	104	22020096	60	56370
2026-01-20 15:12:35.33	21.00	3.83	-48.1	-52.8	11.8	5.59e-01	92	42	104	22020096	60	15704
2026-01-20 15:12:36.34	20.99	3.90	-49.7	-64.2	3.6	9.64e-01	0	42	104	22020096	60	58902
2026-01-20 15:12:37.35	20.98	3.97	-45.8	-48.3	15.6	2.81e-01	0	42	104	22020096	60	9426
2026-01-20 15:12:38.35	20.96	4.04	-49.8	-64.7	3.6	1.46e+00	0	42	104	22020096	60	62138
2026-01-20 15:12:39.36	20.95	4.11	-46.1	-48.8	15.2	9.37e-01	52	42	104	22020096	60	9933
2026-01-20 15:12:40.37	20.94	4.18	-44.6	-46.5	17.9	0.00e+00	82	42	0	23068672	60	7606
2026-01-20 15:12:41.38	20.92	4.25	-44.8	-46.7	17.6	0.00e+00	0	42	0	25165824	60	7833
2026-01-20 15:12:42.39	20.91	4.32	-44.5	-46.3	18.0	0.00e+00	90	42	0	26214400	60	7485
2026-01-20 15:12:43.40	20.90	4.39	-44.2	-46.0	18.2	0.00e+00	0	42	0	28311552	60	7217
2026-01-20 15:12:44.41	20.89	4.46	-44.6	-46.5	17.9	0.00e+00	50	42	0	30408704	60	7644
2026-01-20 15:12:45.42	20.87	4.53	-44.1	-45.8	18.4	0.00e+00	30	42	0	32505856	60	7017
2026-01-20 15:12:46.43	20.86	4.60	-43.4	-45.0	19.4	0.00e+00	24	42	0	34603008	60	6397
2026-01-20 15:12:47.44	20.85	4.67	-44.1	-45.8	18.4	0.00e+00	0	42	0	35651584	60	7070
2026-01-20 15:12:48.45	20.83	4.74	-44.0	-45.6	18.8	0.00e+00	25	42	0	37748736	60	6897
2026-01-20 15:12:49.46	20.82	4.81	-44.4	-46.2	18.1	0.00e+00	91	42	0	39845888	60	7359
2026-01-20 15:12:50.46	20.81	4.88	-45.3	-47.4	17.3	0.00e+00	5	42	0	41943040	60	8487
2026-01-20 15:12:51.47	20.79	4.95	-45.4	-47.5	16.6	0.00e+00	0	42	0	44040192	60	8621
2026-01-20 15:12:52.48	20.78	5.02	-43.0	-44.3	19.8	0.00e+00	6	42	0	45088768	60	5964
2026-01-20 15:12:53.49	20.76	5.09	-44.9	-46.9	17.8	0.00e+00	7	42	0	47185920	60	7981
2026-01-20 15:12:54.50	20.75	5.17	-44.3	-46.0	18.3	0.00e+00	6	42	0	49283072	60	7202
2026-01-20 15:12:55.51	20.74	5.24	-44.0	-45.6	19.0	0.00e+00	5	42	0	51380224	60	6894
2026-01-20 15:12:56.52	20.72	5.31	-44.4	-46.1	18.6	0.00e+00	92	42	0	53477376	60	7308
2026-01-20 15:12:57.53	20.71	5.38	-44.0	-45.5	18.9	0.00e+00	5	42	0	54525952	60	6845
2026-01-20 15:12:58.54	20.69	5.46	-45.6	-47.9	16.7	0.00e+00	92	42	0	56623104	60	8959
2026-01-20 15:12:59.55	20.68	5.53	-44.0	-45.6	18.9	0.00e+00	0	42	0	58720256	60	6905
2026-01-20 15:13:00.56	20.67	5.60	-45.5	-47.6	17.1	0.00e+00	57	42	0	60817408	60	8681
2026-01-20 15:13:01.57	20.65	5.67	-44.7	-46.5	17.9	0.00e+00	54	42	0	62914560	60	7656
2026-01-20 15:13:02.58	20.64	5.75	-43.6	-45.1	19.2	0.00e+00	0	42	0	65011712	60	6530
2026-01-20 15:13:03.59	20.62	5.82	-44.0	-45.6	19.0	0.00e+00	92	42	0	66060288	60	6878
2026-01-20 15:13:04.60	20.61	5.90	-44.8	-46.7	17.7	0.00e+00	55	42	0	68157440	60	7799
2026-01-20 15:13:05.61	20.59	5.97	-44.1	-45.8	18.6	0.00e+00	92	42	0	70254592	60	7015
2026-01-20 15:13:06.62	20.58	6.04	-43.7	-45.3	19.0	0.00e+00	30	42	0	72351744	60	6620
2026-01-20 15:13:07.63	20.56	6.12	-43.9	-45.5	19.1	0.00e+00	51	42	0	74448896	60	6847
2026-01-20 15:13:08.64	20.55	6.19	-43.7	-45.3	19.1	0.00e+00	51	42	0	75497472	60	6630
2026-01-20 15:13:09.65	20.53	6.27	-43.9	-45.4	19.2	0.00e+00	52	42	0	77594624	60	6766
2026-01-20 15:13:10.66	20.52	6.34	-44.0	-45.6	18.9	0.00e+00	85	42	0	79691776	60	6885
2026-01-20 15:13:11.67	20.50	6.42	-43.7	-45.2	19.5	0.00e+00	7	42	0	81788928	60	6547
2026-01-20 15:13:12.68	20.48	6.49	-44.1	-45.7	18.8	0.00e+00	90	42	0	83886080	60	6986
2026-01-20 15:13:13.69	20.47	6.57	-43.5	-45.0	19.5	0.00e+00	0	42	0	84934656	60	6439
2026-01-20 15:13:14.70	20.45	6.65	-44.0	-45.6	18.9	0.00e+00	27	42	0	87031808	60	6897
2026-01-20 15:13:15.71	20.44	6.72	-43.4	-44.8	20.1	0.00e+00	0	42	0	89128960	60	6252
2026-01-20 15:13:16.72	20.42	6.80	-43.8	-45.3	19.5	0.00e+00	6	42	0	91226112	60	6630
2026-01-20 15:13:17.73	20.40	6.88	-43.6	-45.0	19.5	0.00e+00	5	42	0	93323264	60	6463
2026-01-20 15:13:18.74	20.39	6.95	-43.9	-45.5	19.3	0.00e+00	7	42	0	94371840	60	6803
2026-01-20 15:13:19.75	20.37	7.03	-44.2	-45.9	18.9	0.00e+00	92	42	0	96468992	60	7108
2026-01-20 15:13:20.76	20.36	7.11	-44.3	-45.9	18.9	0.00e+00	0	42	0	98566144	60	7160
2026-01-20 15:13:21.76	20.34	7.18	-44.8	-46.7	18.1	0.00e+00	92	42	0	100663296	60	7777
2026-01-20 15:13:22.78	20.32	7.26	-44.3	-46.0	18.7	0.00e+00	60	42	0	102760448	60	7221
2026-01-20 15:13:23.78	20.31	7.34	-44.1	-45.7	19.2	0.00e+00	0	42	0	103809024	60	6955
2026-01-20 15:13:24.79	20.29	7.42	-43.3	-44.7	19.8	0.00e+00	0	42	0	105906176	60	6231
2026-01-20 15:13:25.80	20.27	7.50	-43.7	-45.2	19.4	0.00e+00	60	42	0	108003328	60	6557
2026-01-20 15:13:26.81	20.25	7.58	-44.2	-45.8	18.9	0.00e+00	92	42	0	110100480	60	7032
2026-01-20 15:13:27.82	20.24	7.65	-44.0	-45.6	19.1	0.00e+00	58	42	0	112197632	60	6880
2026-01-20 15:13:28.83	20.22	7.73	-44.2	-45.9	19.3	0.00e+00	92	42	0	113246208	60	7093
2026-01-20 15:13:29.84	20.20	7.81	-43.9	-45.4	19.4	0.00e+00	23	42	0	115343360	60	6766
2026-01-20 15:13:30.85	20.18	7.89	-43.5	-44.9	19.7	0.00e+00	71	42	0	117440512	60	6387
2026-01-20 15:13:31.86	20.17	7.97	-43.9	-45.5	19.3	0.00e+00	2	42	0	119537664	60	6778
2026-01-20 15:13:32.87	20.15	8.05	-43.8	-45.2	19.6	0.00e+00	2	42	0	121634816	60	6603
2026-01-20 15:13:33.87	20.13	8.13	-43.4	-44.8	19.9	0.00e+00	0	42	0	122683392	60	6297
2026-01-20 15:13:34.88	20.11	8.21	-43.7	-45.1	19.6	0.00e+00	22	42	0	124780544	60	6524
2026-01-20 15:13:35.89	20.09	8.29	-43.3	-44.7	20.1	0.00e+00	92	42	0	126877696	60	6207
2026-01-20 15:13:36.90	20.08	8.38	-43.7	-45.1	19.6	0.00e+00	0	42	0	128974848	60	6530
2026-01-20 15:13:37.91	20.06	8.46	-42.8	-44.0	20.8	0.00e+00	0	42	0	131072000	60	5748
2026-01-20 15:13:38.92	20.04	8.54	-42.2	-43.4	21.2	0.00e+00	0	42	0	133169152	58	5989
2026-01-20 15:13:39.93	20.02	8.62	-42.3	-43.5	21.2	0.00e+00	2	42	0	134217728	58	6082
2026-01-20 15:13:40.94	20.00	8.70	-42.8	-44.1	20.5	0.00e+00	2	42	0	136314880	58	6529
2026-01-20 15:13:41.95	19.98	8.79	-42.8	-44.0	20.7	0.00e+00	0	42	0	138412032	58	6457
2026-01-20 15:13:42.96	19.96	8.87	-42.6	-43.8	20.6	0.00e+00	91	42	0	140509184	58	6316
2026-01-20 15:13:43.97	19.94	8.95	-42.9	-44.2	20.5	0.00e+00	54	42	0	142606336	58	6581
2026-01-20 15:13:44.98	19.92	9.04	-43.3	-44.7	20.4	0.00e+00	92	42	0	143654912	58	6952
2026-01-20 15:13:45.99	19.91	9.12	-42.5	-43.7	20.9	0.00e+00	0	42	0	145752064	58	6217
2026-01-20 15:13:47.00	19.89	9.20	-43.3	-44.6	20.1	0.00e+00	0	42	0	147849216	58	6895
2026-01-20 15:13:48.01	19.87	9.29	-42.8	-44.1	20.8	0.00e+00	23	42	0	149946368	58	6484
2026-01-20 15:13:49.02	19.85	9.37	-42.8	-44.1	20.7	0.00e+00	59	42	0	152043520	58	6507
2026-01-20 15:13:50.03	19.83	9.46	-43.0	-44.3	20.4	0.00e+00	92	42	0	153092096	58	6657
2026-01-20 15:13:51.04	19.81	9.54	-42.7	-44.0	20.8	0.00e+00	59	42	0	155189248	58	6404
2026-01-20 15:13:52.04	19.78	9.63	-42.7	-44.0	20.8	0.00e+00	92	42	0	157286400	58	6409
2026-01-20 15:13:53.05	19.76	9.71	-42.9	-44.2	20.6	0.00e+00	23	42	0	159383552	58	6571
2026-01-20 15:13:54.06	19.74	9.80	-42.3	-43.5	21.3	0.00e+00	27	42	0	161480704	58	6101
2026-01-20 15:13:55.07	19.72	9.88	-42.5	-43.7	21.0	0.00e+00	0	42	0	162529280	58	6224
2026-01-20 15:13:56.08	19.70	9.97	-42.2	-43.4	21.4	0.00e+00	2	42	0	164626432	58	5984
2026-01-20 15:13:57.09	19.68	10.06	-42.1	-43.3	21.5	0.00e+00	0	42	0	166723584	58	5906
2026-01-20 15:13:58.10	19.66	10.14	-42.3	-43.4	21.3	0.00e+00	22	42	0	168820736	58	6019
2026-01-20 15:13:59.11	19.64	10.23	-41.8	-42.9	21.8	0.00e+00	92	42	0	170917888	58	5656
2026-01-20 15:14:00.12	19.62	10.32	-42.4	-43.7	21.4	0.00e+00	0	42	0	171966464	58	6174
2026-01-20 15:14:01.13	19.59	10.41	-42.4	-43.6	21.2	0.00e+00	91	42	0	174063616	58	6132
2026-01-20 15:14:02.14	19.57	10.50	-42.2	-43.4	21.5	0.00e+00	0	42	0	176160768	58	5974
2026-01-20 15:14:03.15	19.55	10.59	-42.1	-43.2	21.7	0.00e+00	0	42	0	178257920	58	5853
2026-01-20 15:14:04.16	19.53	10.67	-42.2	-43.4	21.5	0.00e+00	0	42	0	180355072	58	6003
2026-01-20 15:14:05.17	19.51	10.76	-41.9	-43.0	21.8	0.00e+00	0	42	0	181403648	58	5748
2026-01-20 15:14:06.18	19.48	10.85	-42.4	-43.5	21.3	0.00e+00	92	42	0	183500800	58	6097
2026-01-20 15:14:07.19	19.46	10.94	-42.1	-43.2	21.6	0.00e+00	0	42	0	185597952	58	5857
2026-01-20 15:14:08.19	19.44	11.03	-42.1	-43.2	21.5	0.00e+00	92	42	0	187695104	58	5890
2026-01-20 15:14:09.20	19.42	11.12	-42.0	-43.2	21.6	0.00e+00	0	42	0	189792256	58	5856
2026-01-20 15:14:10.21	19.39	11.21	-42.0	-43.1	21.8	0.00e+00	0	42	0	190840832	58	5801
2026-01-20 15:14:11.22	19.37	11.31	-42.1	-43.3	21.6	0.00e+00	0	42	0	192937984	58	5902
2026-01-20 15:14:12.23	19.34	11.40	-41.9	-43.0	21.9	0.00e+00	20	42	0	195035136	56	6402
2026-01-20 15:14:13.24	19.32	11.49	-41.9	-43.0	21.9	0.00e+00	0	42	0	197132288	56	6430
2026-01-20 15:14:14.25	19.30	11.58	-42.0	-43.2	21.8	0.00e+00	20	42	0	199229440	56	6542
2026-01-20 15:14:15.26	19.27	11.67	-41.7	-42.7	22.2	0.00e+00	91	42	0	201326592	56	6244
2026-01-20 15:14:16.27	19.25	11.77	-41.6	-42.6	22.3	0.00e+00	0	42	0	202375168	56	6139
2026-01-20 15:14:17.28	19.22	11.86	-41.6	-42.7	22.2	0.00e+00	2	42	0	204472320	56	6187
2026-01-20 15:14:18.29	19.20	11.95	-41.7	-42.7	22.1	0.00e+00	0	42	0	206569472	56	6216
2026-01-20 15:14:19.30	19.18	12.05	-42.0	-43.1	22.0	0.00e+00	0	42	0	208666624	56	6478
2026-01-20 15:14:20.30	19.15	12.14	-41.9	-43.0	21.9	0.00e+00	0	42	0	209715200	56	6414
2026-01-20 15:14:21.31	19.13	12.24	-42.0	-43.1	21.7	0.00e+00	0	42	0	211812352	56	6534
2026-01-20 15:14:22.32	19.10	12.33	-41.6	-42.6	22.3	0.00e+00	92	42	0	213909504	56	6156
2026-01-20 15:14:23.33	19.07	12.43	-41.4	-42.5	22.4	0.00e+00	0	42	0	216006656	56	6051
2026-01-20 15:14:24.34	19.05	12.52	-41.7	-42.7	22.1	0.00e+00	90	42	0	218103808	56	6231
2026-01-20 15:14:25.35	19.02	12.62	-41.6	-42.7	22.4	0.00e+00	0	42	0	219152384	56	6189
2026-01-20 15:14:26.36	19.00	12.72	-41.5	-42.6	22.3	0.00e+00	0	42	0	221249536	56	6126
2026-01-20 15:14:27.37	18.97	12.81	-41.2	-42.2	22.6	0.00e+00	0	42	0	223346688	56	5865
2026-01-20 15:14:28.38	18.94	12.91	-41.4	-42.4	22.4	0.00e+00	0	42	0	225443840	56	6024
2026-01-20 15:14:29.39	18.92	13.01	-41.3	-42.3	22.5	0.00e+00	90	42	0	227540992	56	5947
2026-01-20 15:14:30.40	18.89	13.11	-41.3	-42.3	22.6	0.00e+00	0	42	0	229638144	56	5946
2026-01-20 15:14:31.41	18.86	13.20	-41.5	-42.5	22.4	0.00e+00	90	42	0	230686720	56	6053
2026-01-20 15:14:32.42	18.84	13.30	-41.1	-42.1	22.8	0.00e+00	55	42	0	232783872	56	5819
2026-01-20 15:14:33.42	18.81	13.40	-41.2	-42.2	22.7	0.00e+00	27	42	0	234881024	56	5839
2026-01-20 15:14:34.44	18.78	13.50	-41.1	-42.1	22.8	0.00e+00	0	42	0	236978176	56	5802
2026-01-20 15:14:35.45	18.75	13.60	-41.1	-42.1	22.8	0.00e+00	0	42	0	239075328	56	5766
2026-01-20 15:14:36.46	18.72	13.70	-41.3	-42.3	22.6	0.00e+00	38	42	0	240123904	56	5934
2026-01-20 15:14:37.47	18.69	13.80	-41.0	-41.9	23.0	0.00e+00	20	42	0	242221056	56	5682
2026-01-20 15:14:38.47	18.67	13.90	-40.8	-41.7	23.2	0.00e+00	90	42	0	244318208	56	5549
2026-01-20 15:14:39.49	18.64	14.01	-40.8	-41.8	23.0	0.00e+00	27	42	0	246415360	54	6263
2026-01-20 15:14:40.49	18.61	14.11	-40.7	-41.7	23.0	0.00e+00	90	42	0	248512512	54	6209
2026-01-20 15:14:41.50	18.58	14.21	-40.8	-41.7	23.1	0.00e+00	6	42	0	249561088	54	6227
2026-01-20 15:14:42.51	18.55	14.31	-40.9	-41.8	23.0	0.00e+00	0	42	0	251658240	54	6312
2026-01-20 15:14:43.52	18.52	14.42	-40.8	-41.8	23.0	0.00e+00	5	42	0	253755392	54	6256
2026-01-20 15:14:44.53	18.49	14.52	-40.8	-41.7	23.1	0.00e+00	0	42	0	255852544	54	6241
2026-01-20 15:14:45.54	18.46	14.62	-40.6	-41.6	23.2	0.00e+00	92	42	0	257949696	54	6107
2026-01-20 15:14:46.55	18.43	14.73	-40.6	-41.5	23.3	0.00e+00	7	42	0	258998272	54	6097
2026-01-20 15:14:47.56	18.40	14.83	-40.7	-41.7	23.1	0.00e+00	92	42	0	261095424	54	6188
2026-01-20 15:14:48.57	18.37	14.94	-40.6	-41.6	23.2	0.00e+00	0	42	0	263192576	54	6122
2026-01-20 15:14:49.58	18.34	15.05	-40.3	-41.2	23.5	0.00e+00	0	42	0	265289728	54	5896
2026-01-20 15:14:50.59	18.30	15.15	-40.4	-41.3	23.5	0.00e+00	51	42	0	267386880	54	5924
2026-01-20 15:14:51.60	18.27	15.26	-40.3	-41.2	23.4	0.00e+00	0	42	0	268435456	54	5892
2026-01-20 15:14:52.61	18.24	15.37	-40.3	-41.2	23.5	0.00e+00	40	42	0	270532608	54	5881
2026-01-20 15:14:53.62	18.21	15.47	-40.4	-41.3	23.5	0.00e+00	58	42	0	272629760	54	5957
2026-01-20 15:14:54.62	18.18	15.58	-40.6	-41.6	23.2	0.00e+00	92	42	0	274726912	54	6115
2026-01-20 15:14:55.63	18.14	15.69	-40.5	-41.4	23.4	0.00e+00	55	42	0	276824064	54	5993
2026-01-20 15:14:56.64	18.11	15.80	-40.3	-41.2	23.8	0.00e+00	30	42	0	277872640	54	5836
2026-01-20 15:14:57.65	18.08	15.91	-40.2	-41.1	23.7	0.00e+00	0	42	0	279969792	54	5796
2026-01-20 15:14:58.66	18.04	16.02	-40.1	-41.0	23.8	0.00e+00	7	42	0	282066944	54	5734
2026-01-20 15:14:59.67	18.01	16.13	-40.1	-41.0	23.7	0.00e+00	34	42	0	284164096	54	5735
2026-01-20 15:15:00.68	17.97	16.24	-40.2	-41.1	23.7	0.00e+00	24	42	0	286261248	54	5804
2026-01-20 15:15:01.69	17.94	16.35	-40.2	-41.1	23.7	0.00e+00	92	42	0	287309824	54	5794
2026-01-20 15:15:02.70	17.91	16.47	-40.1	-41.0	23.9	0.00e+00	26	42	0	289406976	54	5727
2026-01-20 15:15:03.71	17.87	16.58	-40.3	-41.2	23.5	0.00e+00	92	42	0	291504128	54	5874
2026-01-20 15:15:04.72	17.83	16.69	-39.9	-40.7	24.0	0.00e+00	0	42	0	293601280	54	5563
2026-01-20 15:15:05.73	17.80	16.81	-40.0	-40.8	23.9	0.00e+00	8	42	0	295698432	54	5624
2026-01-20 15:15:06.74	17.76	16.92	-40.0	-40.9	23.8	0.00e+00	0	42	0	297795584	54	5673
2026-01-20 15:15:07.75	17.73	17.04	-40.1	-41.0	23.8	0.00e+00	0	42	0	298844160	54	5724
2026-01-20 15:15:08.76	17.69	17.15	-39.8	-40.7	24.0	0.00e+00	90	42	0	300941312	54	5531
2026-01-20 15:15:09.77	17.65	17.27	-39.7	-40.6	24.1	0.00e+00	63	42	0	303038464	54	5476
2026-01-20 15:15:10.77	17.62	17.38	-39.9	-40.8	23.9	0.00e+00	90	42	0	305135616	52	6295
2026-01-20 15:15:11.78	17.58	17.50	-39.8	-40.7	24.0	0.00e+00	0	42	0	307232768	52	6184
2026-01-20 15:15:12.79	17.54	17.62	-39.8	-40.7	24.0	0.00e+00	58	42	0	308281344	52	6184
2026-01-20 15:15:13.80	17.50	17.73	-39.8	-40.7	24.1	0.00e+00	0	42	0	310378496	52	6182
2026-01-20 15:15:14.81	17.46	17.85	-39.7	-40.6	24.1	0.00e+00	64	42	0	312475648	52	6145
2026-01-20 15:15:15.82	17.43	17.97	-39.7	-40.6	24.2	0.00e+00	61	42	0	314572800	52	6129
2026-01-20 15:15:16.83	17.39	18.09	-39.8	-40.6	24.2	0.00e+00	63	42	0	316669952	52	6156
2026-01-20 15:15:17.83	17.35	18.21	-39.6	-40.4	24.3	0.00e+00	92	42	0	317718528	52	6032
2026-01-20 15:15:18.84	17.31	18.33	-39.7	-40.6	24.2	0.00e+00	62	42	0	319815680	52	6131
2026-01-20 15:15:19.85	17.27	18.45	-39.6	-40.4	24.3	0.00e+00	92	42	0	321912832	52	6024
2026-01-20 15:15:20.86	17.23	18.58	-39.6	-40.4	24.3	0.00e+00	23	42	0	324009984	52	6025
2026-01-20 15:15:21.87	17.18	18.70	-39.5	-40.3	24.4	0.00e+00	26	42	0	326107136	52	5955
2026-01-20 15:15:22.88	17.14	18.82	-39.7	-40.5	24.2	0.00e+00	84	42	0	327155712	52	6067
2026-01-20 15:15:23.89	17.10	18.95	-39.5	-40.3	24.4	0.00e+00	21	42	0	329252864	52	5961
2026-01-20 15:15:24.90	17.06	19.07	-39.4	-40.3	24.4	0.00e+00	92	42	0	331350016	52	5915
2026-01-20 15:15:25.91	17.02	19.20	-39.5	-40.4	24.4	0.00e+00	18	42	0	333447168	52	5971
2026-01-20 15:15:26.92	16.97	19.32	-39.5	-40.3	24.4	0.00e+00	92	42	0	335544320	52	5956
2026-01-20 15:15:27.93	16.93	19.45	-39.4	-40.3	24.4	0.00e+00	0	42	0	336592896	52	5921
2026-01-20 15:15:28.94	16.89	19.57	-39.4	-40.2	24.4	0.00e+00	0	42	0	338690048	52	5896
2026-01-20 15:15:29.94	16.84	19.70	-39.5	-40.4	24.4	0.00e+00	2	42	0	340787200	52	5965
2026-01-20 15:15:30.95	16.80	19.83	-39.5	-40.3	24.5	0.00e+00	0	42	0	342884352	52	5951
2026-01-20 15:15:31.96	16.75	19.96	-39.4	-40.3	24.5	0.00e+00	92	42	0	344981504	52	5901
2026-01-20 15:15:32.97	16.71	20.09	-39.4	-40.2	24.5	0.00e+00	0	42	0	346030080	52	5879
2026-01-20 15:15:33.98	16.66	20.22	-39.4	-40.2	24.5	0.00e+00	92	42	0	348127232	52	5884
2026-01-20 15:15:34.99	16.62	20.35	-39.4	-40.2	24.5	0.00e+00	0	42	0	350224384	52	5874
2026-01-20 15:15:36.00	16.57	20.48	-39.4	-40.2	24.4	0.00e+00	12	42	0	352321536	52	5881
2026-01-20 15:15:37.01	16.52	20.61	-39.3	-40.1	24.5	0.00e+00	56	42	0	354418688	52	5804
2026-01-20 15:15:38.02	16.48	20.74	-39.5	-40.3	24.4	0.00e+00	20	42	0	355467264	52	5911
2026-01-20 15:15:39.03	16.43	20.88	-39.4	-40.3	24.5	0.00e+00	63	42	0	357564416	52	5911
2026-01-20 15:15:40.03	16.38	21.01	-39.4	-40.2	24.6	0.00e+00	64	42	0	359661568	52	5846
2026-01-20 15:15:41.04	16.33	21.15	-39.3	-40.1	24.6	0.00e+00	92	42	0	361758720	52	5796
2026-01-20 15:15:42.06	16.28	21.28	-39.1	-39.9	24.8	0.00e+00	19	42	0	363855872	52	5657
2026-01-20 15:15:43.07	16.23	21.42	-39.2	-40.0	24.8	0.00e+00	0	42	0	365953024	52	5710
2026-01-20 15:15:44.07	16.18	21.56	-39.2	-40.0	24.7	0.00e+00	0	42	0	367001600	52	5734
2026-01-20 15:15:45.08	16.13	21.69	-39.1	-39.9	24.8	0.00e+00	23	42	0	369098752	52	5648
2026-01-20 15:15:46.09	16.08	21.83	-39.1	-39.9	24.8	0.00e+00	36	42	0	371195904	52	5655
2026-01-20 15:15:47.10	16.03	21.97	-39.1	-39.9	24.9	0.00e+00	0	42	0	373293056	52	5664
2026-01-20 15:15:48.11	15.98	22.11	-39.1	-39.9	24.7	0.00e+00	92	42	0	375390208	52	5694
2026-01-20 15:15:49.12	15.93	22.25	-39.0	-39.8	24.9	0.00e+00	0	42	0	376438784	52	5616
2026-01-20 15:15:50.13	15.87	22.39	-39.3	-40.1	24.7	0.00e+00	90	42	0	378535936	52	5790
2026-01-20 15:15:51.14	15.82	22.53	-39.4	-40.3	24.6	0.00e+00	0	42	0	380633088	52	5905
2026-01-20 15:15:52.15	15.76	22.68	-39.2	-40.0	24.8	0.00e+00	0	42	0	382730240	52	5747
2026-01-20 15:15:53.16	15.71	22.82	-39.0	-39.8	25.0	0.00e+00	0	42	0	383778816	52	5604
2026-01-20 15:15:54.17	15.65	22.97	-39.0	-39.8	25.0	0.00e+00	0	42	0	385875968	52	5607
2026-01-20 15:15:55.18	15.60	23.11	-39.1	-39.9	24.8	0.00e+00	92	42	0	387973120	52	5677
2026-01-20 15:15:56.19	15.54	23.26	-39.1	-39.9	24.9	0.00e+00	63	42	0	390070272	52	5634
2026-01-20 15:15:57.20	15.49	23.40	-39.1	-39.9	24.8	0.00e+00	91	42	0	392167424	52	5682
2026-01-20 15:15:58.21	15.43	23.55	-39.1	-39.9	24.8	0.00e+00	0	42	0	394264576	52	5684
2026-01-20 15:15:59.22	15.37	23.70	-39.1	-39.9	24.9	0.00e+00	59	42	0	395313152	52	5643
2026-01-20 15:16:00.22	15.31	23.85	-39.3	-40.1	24.8	0.00e+00	59	42	0	397410304	52	5775
2026-01-20 15:16:01.23	15.25	24.00	-39.1	-39.9	24.9	0.00e+00	24	42	0	399507456	52	5671
2026-01-20 15:16:02.24	15.19	24.15	-39.4	-40.2	24.7	0.00e+00	65	42	0	401604608	52	5843
2026-01-20 15:16:03.25	15.13	24.30	-39.4	-40.2	24.7	0.00e+00	0	42	0	403701760	52	5857
2026-01-20 15:16:04.26	15.07	24.45	-39.5	-40.4	24.5	0.00e+00	90	42	0	404750336	52	5967
2026-01-20 15:16:05.27	15.01	24.61	-39.5	-40.4	24.5	0.00e+00	0	42	0	406847488	52	5984
2026-01-20 15:16:06.28	14.95	24.76	-39.7	-40.5	24.4	0.00e+00	0	42	0	408944640	52	6080
2026-01-20 15:16:07.29	14.88	24.92	-39.8	-40.7	24.3	0.00e+00	2	42	0	411041792	52	6183
2026-01-20 15:16:08.30	14.82	25.07	-39.8	-40.7	24.3	0.00e+00	24	42	0	413138944	52	6188
2026-01-20 15:16:09.31	14.76	25.23	-40.0	-40.8	24.2	0.00e+00	3	42	0	414187520	52	6287
2026-01-20 15:16:10.32	14.69	25.39	-40.2	-41.1	23.9	0.00e+00	0	42	0	416284672	52	6491
2026-01-20 15:16:11.33	14.62	25.55	-40.0	-40.8	24.2	0.00e+00	92	42	0	418381824	52	6296
2026-01-20 15:16:12.34	14.56	25.71	-40.3	-41.2	23.8	0.00e+00	2	42	0	420478976	52	6565
2026-01-20 15:16:13.35	14.49	25.87	-40.4	-41.3	23.7	0.00e+00	91	42	0	422576128	52	6639
2026-01-20 15:16:14.36	14.42	26.03	-40.5	-41.4	23.7	0.00e+00	0	42	0	423624704	52	6700
2026-01-20 15:16:15.37	14.35	26.19	-40.6	-41.5	23.6	0.00e+00	0	42	0	425721856	52	6770
2026-01-20 15:16:16.38	14.28	26.36	-40.7	-41.6	23.4	0.00e+00	0	42	0	427819008	52	6914
2026-01-20 15:16:17.39	14.21	26.52	-40.7	-41.7	23.3	0.00e+00	57	42	0	429916160	54	6181
2026-01-20 15:16:18.40	14.14	26.69	-41.0	-41.9	23.2	0.00e+00	90	42	0	432013312	54	6362
2026-01-20 15:16:19.41	14.07	26.85	-40.9	-41.8	23.3	0.00e+00	0	42	0	433061888	54	6295
2026-01-20 15:16:20.42	14.00	27.02	-41.1	-42.0	23.1	0.00e+00	92	42	0	435159040	54	6458
2026-01-20 15:16:21.43	13.93	27.19	-41.0	-41.9	23.2	0.00e+00	65	42	0	437256192	54	6376
2026-01-20 15:16:22.43	13.85	27.35	-41.3	-42.3	22.9	0.00e+00	63	42	0	439353344	54	6628
2026-01-20 15:16:23.44	13.78	27.53	-41.5	-42.5	22.7	0.00e+00	58	42	0	441450496	54	6807
2026-01-20 15:16:24.46	13.70	27.70	-41.4	-42.4	22.7	0.00e+00	22	42	0	442499072	54	6748
2026-01-20 15:16:25.46	13.63	27.87	-41.6	-42.6	22.6	0.00e+00	60	42	0	444596224	54	6883
2026-01-20 15:16:26.47	13.55	28.04	-42.1	-43.1	22.2	0.00e+00	6	42	0	446693376	56	6509
2026-01-20 15:16:27.48	13.47	28.22	-42.0	-43.1	22.2	0.00e+00	92	42	0	448790528	56	6473
2026-01-20 15:16:28.49	13.39	28.39	-42.2	-43.2	22.2	0.00e+00	19	42	0	450887680	56	6586
2026-01-20 15:16:29.50	13.31	28.57	-42.2	-43.2	22.1	0.00e+00	90	42	0	451936256	56	6611
2026-01-20 15:16:30.51	13.23	28.75	-42.3	-43.4	22.0	0.00e+00	5	42	0	454033408	56	6712
2026-01-20 15:16:31.52	13.15	28.92	-42.5	-43.6	21.7	0.00e+00	6	42	0	456130560	56	6902
2026-01-20 15:16:32.53	13.06	29.10	-42.7	-43.8	21.6	0.00e+00	0	42	0	458227712	56	7066
2026-01-20 15:16:33.54	12.98	29.28	-42.7	-43.9	21.5	0.00e+00	0	42	0	460324864	56	7127
2026-01-20 15:16:34.55	12.89	29.47	-43.0	-44.2	21.2	0.00e+00	90	42	0	462422016	58	6564
2026-01-20 15:16:35.56	12.81	29.65	-43.2	-44.4	21.0	0.00e+00	0	42	0	463470592	58	6735
2026-01-20 15:16:36.57	12.72	29.83	-43.4	-44.6	20.8	0.00e+00	92	42	0	465567744	58	6926
2026-01-20 15:16:37.58	12.63	30.02	-43.2	-44.5	21.0	0.00e+00	66	42	0	467664896	58	6775
2026-01-20 15:16:38.59	12.54	30.21	-43.2	-44.5	21.0	0.00e+00	62	42	0	469762048	58	6785
2026-01-20 15:16:39.60	12.45	30.39	-43.2	-44.5	21.0	0.00e+00	42	42	0	471859200	58	6772
2026-01-20 15:16:40.60	12.36	30.58	-43.3	-44.6	20.9	0.00e+00	0	42	0	472907776	58	6856
2026-01-20 15:16:41.61	12.27	30.77	-43.3	-44.6	20.9	0.00e+00	92	42	0	475004928	58	6887
2026-01-20 15:16:42.62	12.18	30.96	-43.5	-44.7	20.8	0.00e+00	64	42	0	477102080	58	6984
2026-01-20 15:16:43.63	12.08	31.15	-43.6	-44.9	20.6	0.00e+00	92	42	0	479199232	58	7107
2026-01-20 15:16:44.64	11.99	31.35	-43.8	-45.2	20.3	0.00e+00	21	42	0	481296384	58	7371
2026-01-20 15:16:45.65	11.89	31.54	-43.7	-45.0	20.5	0.00e+00	28	42	0	482344960	60	6453
2026-01-20 15:16:46.66	11.79	31.74	-43.9	-45.3	20.3	0.00e+00	5	42	0	484442112	60	6686
2026-01-20 15:16:47.67	11.69	31.93	-44.2	-45.7	19.9	0.00e+00	6	42	0	486539264	60	6948
2026-01-20 15:16:48.68	11.59	32.13	-44.3	-45.7	19.9	0.00e+00	33	42	0	488636416	60	6973
2026-01-20 15:16:49.69	11.49	32.33	-44.4	-45.9	19.7	0.00e+00	0	42	0	490733568	60	7131
2026-01-20 15:16:50.70	11.38	32.53	-44.4	-45.9	19.5	0.00e+00	90	42	0	491782144	60	7125
2026-01-20 15:16:51.71	11.28	32.73	-44.5	-45.9	19.6	0.00e+00	24	42	0	493879296	60	7152
2026-01-20 15:16:52.71	11.17	32.93	-44.4	-45.8	19.7	0.00e+00	55	42	0	495976448	60	7063
2026-01-20 15:16:53.72	11.07	33.14	-44.6	-46.0	19.6	0.00e+00	7	42	0	498073600	60	7233
2026-01-20 15:16:54.73	10.96	33.34	-44.6	-46.1	19.6	0.00e+00	6	42	0	500170752	60	7312
2026-01-20 15:16:55.74	10.85	33.55	-44.7	-46.2	19.4	0.00e+00	0	42	0	501219328	60	7370
2026-01-20 15:16:56.75	10.73	33.76	-44.9	-46.4	19.2	0.00e+00	6	42	0	503316480	60	7552
2026-01-20 15:16:57.76	10.62	33.97	-44.8	-46.3	19.3	0.00e+00	92	42	0	505413632	60	7504
2026-01-20 15:16:58.77	10.51	34.18	-44.6	-46.1	19.5	0.00e+00	0	42	0	507510784	60	7323
2026-01-20 15:16:59.78	10.39	34.39	-44.5	-46.0	19.7	0.00e+00	92	42	0	509607936	60	7179
2026-01-20 15:17:00.79	10.27	34.60	-44.4	-45.9	19.7	0.00e+00	0	42	0	510656512	60	7134
2026-01-20 15:17:01.79	10.15	34.81	-44.0	-45.4	20.2	0.00e+00	0	42	0	512753664	60	6748
2026-01-20 15:17:02.80	10.03	35.03	-43.9	-45.3	20.4	0.00e+00	0	42	0	514850816	60	6620
2026-01-20 15:17:03.81	9.91	35.25	-43.8	-45.1	20.5	0.00e+00	64	42	0	516947968	60	6511
2026-01-20 15:17:04.82	9.78	35.47	-43.6	-44.9	20.5	0.00e+00	92	42	0	519045120	60	6357
2026-01-20 15:17:05.83	9.66	35.69	-43.7	-45.1	20.4	0.00e+00	16	42	0	520093696	60	6488
2026-01-20 15:17:06.84	9.53	35.91	-43.6	-45.0	20.4	0.00e+00	92	42	0	522190848	60	6395
2026-01-20 15:17:07.85	9.40	36.13	-43.7	-45.0	20.5	0.00e+00	65	42	0	524288000	60	6402
2026-01-20 15:17:08.86	9.27	36.35	-43.8	-45.2	20.4	0.00e+00	0	42	0	526385152	60	6552
2026-01-20 15:17:09.87	9.13	36.58	-43.8	-45.1	20.5	0.00e+00	15	42	0	528482304	60	6529
2026-01-20 15:17:10.88	9.00	36.81	-44.0	-45.5	20.1	0.00e+00	15	42	0	530579456	60	6799
2026-01-20 15:17:11.89	8.86	37.03	-44.3	-45.8	19.8	0.00e+00	60	42	0	531628032	60	7015
2026-01-20 15:17:12.90	8.72	37.26	-44.3	-45.8	19.7	0.00e+00	0	42	0	533725184	60	7065
2026-01-20 15:17:13.91	8.58	37.49	-44.6	-46.1	19.5	0.00e+00	92	42	0	535822336	60	7334
2026-01-20 15:17:14.92	8.44	37.73	-44.5	-46.0	19.5	0.00e+00	0	42	0	537919488	60	7192
2026-01-20 15:17:15.93	8.29	37.96	-44.5	-46.1	19.5	0.00e+00	92	42	0	540016640	60	7285
2026-01-20 15:17:16.94	8.14	38.20	-44.4	-46.0	19.8	0.00e+00	0	42	0	541065216	60	7175
2026-01-20 15:17:17.95	7.99	38.43	-44.4	-45.9	19.8	0.00e+00	0	42	0	543162368	60	7107
2026-01-20 15:17:18.96	7.84	38.67	-44.4	-46.0	19.6	0.00e+00	0	42	0	545259520	60	7176
2026-01-20 15:17:19.97	7.68	38.91	-44.6	-46.1	19.6	0.00e+00	0	42	0	547356672	60	7317
2026-01-20 15:17:20.98	7.53	39.15	-44.5	-46.0	19.6	0.00e+00	92	42	0	549453824	60	7223
2026-01-20 15:17:21.99	7.37	39.39	-44.5	-46.0	19.7	0.00e+00	65	42	0	550502400	60	7198
2026-01-20 15:17:23.00	7.21	39.64	-44.3	-45.8	19.8	0.00e+00	92	42	0	552599552	60	7035
2026-01-20 15:17:24.01	7.04	39.88	-44.3	-45.7	20.1	0.00e+00	16	42	0	554696704	60	6982
2026-01-20 15:17:25.02	6.87	40.13	-44.0	-45.3	20.3	0.00e+00	16	42	0	556793856	60	6657
2026-01-20 15:17:26.03	6.70	40.38	-44.0	-45.3	20.2	0.00e+00	16	42	0	558891008	60	6687
2026-01-20 15:17:27.04	6.53	40.63	-43.8	-45.1	19.9	0.00e+00	65	42	0	559939584	60	6473
2026-01-20 15:17:28.04	6.36	40.87	-43.8	-45.1	20.5	0.00e+00	90	42	0	562036736	60	6495
2026-01-20 15:17:29.06	6.18	41.13	-43.7	-45.0	20.6	0.00e+00	16	42	0	564133888	60	6394
2026-01-20 15:17:30.06	6.00	41.38	-43.7	-45.0	20.7	0.00e+00	92	42	0	566231040	60	6399
2026-01-20 15:17:31.07	5.82	41.64	-43.3	-44.6	21.1	0.00e+00	0	42	0	568328192	60	6130
2026-01-20 15:17:32.09	5.63	41.90	-43.2	-44.4	21.2	0.00e+00	82	42	0	569376768	60	6011
2026-01-20 15:17:33.09	5.44	42.15	-42.9	-44.1	21.4	0.00e+00	0	42	0	571473920	60	5801
2026-01-20 15:17:34.11	5.25	42.41	-42.8	-43.9	21.5	0.00e+00	16	42	0	573571072	58	6373
2026-01-20 15:17:35.11	5.05	42.67	-42.8	-43.9	21.7	0.00e+00	77	42	0	575668224	58	6354
2026-01-20 15:17:36.12	4.85	42.94	-42.3	-43.4	21.9	0.00e+00	2	42	0	577765376	58	6020
2026-01-20 15:17:37.13	4.65	43.20	-42.8	-44.0	21.5	0.00e+00	90	42	0	578813952	58	6412
2026-01-20 15:17:38.14	4.44	43.46	-42.7	-43.8	21.7	0.00e+00	0	42	0	580911104	58	6261
2026-01-20 15:17:39.15	4.23	43.73	-42.3	-43.3	22.2	0.00e+00	0	42	0	583008256	58	5942
2026-01-20 15:17:40.16	4.02	44.00	-42.2	-43.3	22.2	0.00e+00	0	42	0	585105408	58	5920
2026-01-20 15:17:41.17	3.80	44.27	-41.9	-42.9	22.5	0.00e+00	0	42	0	587202560	58	5654
2026-01-20 15:17:42.18	3.58	44.54	-41.9	-42.9	22.5	0.00e+00	0	42	0	588251136	56	6371
2026-01-20 15:17:43.19	3.36	44.81	-41.7	-42.6	22.7	0.00e+00	62	42	0	590348288	56	6165
2026-01-20 15:17:44.20	3.13	45.09	-41.7	-42.7	22.6	0.00e+00	92	42	0	592445440	56	6224
2026-01-20 15:17:45.21	2.90	45.36	-41.8	-42.8	22.7	0.00e+00	60	42	0	594542592	56	6247
2026-01-20 15:17:46.22	2.66	45.64	-41.7	-42.7	22.7	0.00e+00	92	42	0	596639744	56	6235
2026-01-20 15:17:47.22	2.42	45.91	-41.5	-42.4	23.0	0.00e+00	0	42	0	598736896	56	6025
2026-01-20 15:17:48.23	2.18	46.19	-41.4	-42.4	23.0	0.00e+00	66	42	0	599785472	56	6010
2026-01-20 15:17:49.24	1.93	46.47	-41.4	-42.4	23.0	0.00e+00	67	42	0	601882624	56	5990
2026-01-20 15:17:50.25	1.67	46.76	-41.2	-42.2	23.2	0.00e+00	13	42	0	603979776	56	5840
2026-01-20 15:17:51.26	1.41	47.04	-41.2	-42.2	23.2	0.00e+00	92	42	0	606076928	56	5849
2026-01-20 15:17:52.27	1.15	47.32	-41.1	-42.0	23.2	0.00e+00	13	42	0	608174080	56	5704
2026-01-20 15:17:53.28	0.88	47.61	-41.3	-42.3	23.1	0.00e+00	91	42	0	609222656	56	5911
2026-01-20 15:17:54.29	0.61	47.90	-41.4	-42.4	23.2	0.00e+00	0	42	0	611319808	56	5983
2026-01-20 15:17:55.30	0.33	48.18	-41.4	-42.4	22.9	0.00e+00	0	42	0	613416960	56	5985
2026-01-20 15:17:56.31	0.04	48.47	-41.5	-42.4	23.0	0.00e+00	0	42	0	615514112	56	6012
2026-01-20 15:17:57.32	359.75	48.76	-41.6	-42.6	22.5	0.00e+00	0	42	0	617611264	56	6144
2026-01-20 15:17:58.33	359.46	49.06	-41.7	-42.6	22.9	0.00e+00	25	42	0	618659840	56	6172
2026-01-20 15:17:59.34	359.16	49.35	-41.6	-42.5	23.0	0.00e+00	0	42	0	620756992	56	6093
2026-01-20 15:18:00.34	358.85	49.64	-41.3	-42.3	23.1	0.00e+00	92	42	0	622854144	56	5929
2026-01-20 15:18:01.36	358.54	49.94	-41.0	-41.9	23.4	0.00e+00	0	42	0	624951296	56	5655
2026-01-20 15:18:02.37	358.22	50.23	-41.1	-42.1	23.4	0.00e+00	0	42	0	627048448	56	5778
2026-01-20 15:18:03.37	357.89	50.53	-41.0	-41.9	23.5	0.00e+00	0	42	0	628097024	56	5675
2026-01-20 15:18:04.39	357.56	50.83	-40.2	-41.1	24.1	0.00e+00	67	42	0	630194176	54	5816
2026-01-20 15:18:05.39	357.22	51.12	-40.1	-40.9	24.2	0.00e+00	0	42	0	632291328	54	5684
2026-01-20 15:18:06.40	356.88	51.42	-39.7	-40.6	24.6	0.00e+00	0	42	0	634388480	54	5443
2026-01-20 15:18:07.41	356.52	51.72	-39.5	-40.4	24.7	0.00e+00	90	42	0	636485632	52	5976
2026-01-20 15:18:08.42	356.16	52.02	-39.7	-40.5	24.6	0.00e+00	61	42	0	637534208	52	6058
2026-01-20 15:18:09.43	355.80	52.32	-39.7	-40.5	24.6	0.00e+00	90	42	0	639631360	52	6089
2026-01-20 15:18:10.44	355.42	52.62	-39.5	-40.3	24.9	0.00e+00	0	42	0	641728512	52	5906
2026-01-20 15:18:11.45	355.04	52.93	-39.7	-40.5	24.8	0.00e+00	0	42	0	643825664	52	6087
2026-01-20 15:18:12.46	354.65	53.23	-39.6	-40.4	24.9	0.00e+00	20	42	0	645922816	52	6008
2026-01-20 15:18:13.46	354.25	53.53	-39.7	-40.5	24.6	0.00e+00	5	42	0	646971392	52	6087
2026-01-20 15:18:14.47	353.84	53.83	-40.4	-41.2	24.1	0.00e+00	53	42	0	649068544	52	6608
2026-01-20 15:18:15.48	353.43	54.14	-40.7	-41.6	23.9	0.00e+00	22	42	0	651165696	52	6875
2026-01-20 15:18:16.49	353.00	54.44	-40.1	-40.9	24.2	0.00e+00	92	42	0	653262848	52	6362
2026-01-20 15:18:17.50	352.56	54.75	-40.1	-41.0	24.2	0.00e+00	18	42	0	655360000	52	6407
2026-01-20 15:18:18.51	352.12	55.05	-40.7	-41.6	23.7	0.00e+00	0	42	0	656408576	52	6874
2026-01-20 15:18:19.52	351.67	55.36	-41.1	-42.0	23.3	0.00e+00	5	42	0	658505728	54	6432
2026-01-20 15:18:20.53	351.20	55.66	-41.7	-42.7	22.5	0.00e+00	5	42	0	660602880	54	6959
2026-01-20 15:18:21.54	350.73	55.96	-42.5	-43.6	22.0	0.00e+00	0	42	0	662700032	56	6927
2026-01-20 15:18:22.55	350.24	56.27	-43.4	-44.6	21.0	0.00e+00	0	42	0	664797184	58	6904
2026-01-20 15:18:23.56	349.75	56.57	-44.5	-46.0	19.7	0.00e+00	92	42	0	666894336	60	7175
2026-01-20 15:18:24.57	349.24	56.87	-45.4	-47.0	18.9	0.00e+00	61	42	0	667942912	60	8108
2026-01-20 15:18:25.57	348.73	57.17	-45.5	-47.2	18.5	0.00e+00	92	42	0	670040064	60	8303
2026-01-20 15:18:26.59	348.19	57.48	-46.1	-48.1	17.8	0.00e+00	0	42	0	672137216	60	9170
2026-01-20 15:18:27.59	347.66	57.78	-45.8	-47.5	18.2	0.00e+00	0	42	0	674234368	60	8616
2026-01-20 15:18:28.60	347.10	58.08	-45.0	-46.5	19.2	0.00e+00	0	42	0	675282944	60	7680
2026-01-20 15:18:29.61	346.53	58.38	-44.5	-45.9	19.9	0.00e+00	18	42	0	677380096	60	7155
2026-01-20 15:18:30.62	345.95	58.67	-43.6	-44.9	20.7	0.00e+00	92	42	0	679477248	60	6339
2026-01-20 15:18:31.63	345.36	58.97	-42.9	-44.1	21.6	0.00e+00	67	42	0	681574400	60	5763
2026-01-20 15:18:32.64	344.76	59.27	-42.8	-43.9	21.7	0.00e+00	92	42	0	683671552	58	6385
2026-01-20 15:18:33.65	344.14	59.56	-43.0	-44.2	21.5	0.00e+00	5	42	0	684720128	58	6602
2026-01-20 15:18:34.66	343.50	59.85	-43.2	-44.4	21.5	0.00e+00	66	42	0	686817280	58	6729
2026-01-20 15:18:35.66	342.86	60.14	-42.2	-43.2	22.3	0.00e+00	5	42	0	688914432	58	5868
2026-01-20 15:18:36.67	342.19	60.42	-41.6	-42.6	22.9	0.00e+00	21	42	0	691011584	56	6126
2026-01-20 15:18:37.68	341.52	60.71	-40.9	-41.8	23.5	0.00e+00	42	42	0	693108736	56	5593
2026-01-20 15:18:38.69	340.82	60.99	-40.1	-41.0	23.7	0.00e+00	7	42	0	695205888	54	5696
2026-01-20 15:18:39.70	340.11	61.27	-39.6	-40.4	24.6	0.00e+00	91	42	0	696254464	52	6028
2026-01-20 15:18:40.71	339.38	61.55	-39.2	-40.0	25.0	0.00e+00	0	42	0	698351616	52	5702
2026-01-20 15:18:41.72	338.64	61.83	-38.7	-39.4	25.3	0.00e+00	0	42	0	700448768	50	6027
2026-01-20 15:18:42.73	337.88	62.10	-38.2	-38.9	25.8	0.00e+00	0	42	0	702545920	50	5680
2026-01-20 15:18:43.74	337.10	62.37	-38.1	-38.9	25.9	0.00e+00	7	42	0	704643072	50	5644
2026-01-20 15:18:44.75	336.31	62.63	-38.3	-39.1	25.7	0.00e+00	6	42	0	705691648	50	5766
2026-01-20 15:18:45.76	335.50	62.89	-38.7	-39.5	25.4	0.00e+00	68	42	0	707788800	50	6044
2026-01-20 15:18:46.77	334.67	63.15	-39.3	-40.1	25.0	0.00e+00	92	42	0	709885952	50	6498
2026-01-20 15:18:47.77	333.83	63.40	-39.2	-40.0	25.0	0.00e+00	0	42	0	711983104	50	6442
2026-01-20 15:18:48.78	332.96	63.65	-39.5	-40.3	24.7	0.00e+00	91	42	0	714080256	50	6674
2026-01-20 15:18:49.79	332.08	63.89	-39.6	-40.4	24.6	0.00e+00	0	42	0	715128832	50	6732
2026-01-20 15:18:50.80	331.18	64.13	-39.5	-40.3	24.8	0.00e+00	67	42	0	717225984	50	6663
2026-01-20 15:18:51.81	330.26	64.36	-39.3	-40.1	24.9	0.00e+00	25	42	0	719323136	50	6476
2026-01-20 15:18:52.82	329.31	64.59	-39.5	-40.3	24.8	0.00e+00	68	42	0	721420288	50	6640
2026-01-20 15:18:53.83	328.36	64.81	-39.8	-40.6	24.5	0.00e+00	90	42	0	723517440	52	6138
2026-01-20 15:18:54.84	327.38	65.03	-40.1	-40.9	24.3	0.00e+00	67	42	0	724566016	52	6381
2026-01-20 15:18:55.85	326.38	65.24	-40.3	-41.2	24.0	0.00e+00	92	42	0	726663168	52	6560
2026-01-20 15:18:56.86	325.36	65.45	-40.6	-41.5	23.8	0.00e+00	69	42	0	728760320	52	6807
2026-01-20 15:18:57.87	324.33	65.64	-40.7	-41.5	23.9	0.00e+00	0	42	0	730857472	54	6092
2026-01-20 15:18:58.87	323.29	65.83	-41.1	-42.1	23.4	0.00e+00	2	42	0	732954624	54	6490
2026-01-20 15:18:59.88	322.22	66.02	-42.1	-43.1	22.5	0.00e+00	14	42	0	734003200	56	6531
2026-01-20 15:19:00.89	321.13	66.19	-42.8	-44.0	21.6	0.00e+00	49	42	0	736100352	58	6429
2026-01-20 15:19:01.90	320.02	66.36	-42.8	-44.0	21.5	0.00e+00	12	42	0	738197504	58	6438
2026-01-20 15:19:02.91	318.89	66.52	-42.3	-43.4	22.3	0.00e+00	91	42	0	740294656	58	5995
2026-01-20 15:19:03.92	317.75	66.68	-41.9	-42.9	22.6	0.00e+00	0	42	0	742391808	58	5695
2026-01-20 15:19:04.93	316.60	66.82	-41.9	-43.0	22.5	0.00e+00	45	42	0	743440384	58	5719
2026-01-20 15:19:05.94	315.42	66.96	-42.4	-43.5	21.8	0.00e+00	0	42	0	745537536	58	6092
2026-01-20 15:19:06.95	314.24	67.09	-42.3	-43.4	22.1	0.00e+00	0	42	0	747634688	58	5990
2026-01-20 15:19:07.96	313.04	67.20	-43.0	-44.1	21.6	0.00e+00	0	42	0	749731840	58	6538
2026-01-20 15:19:08.97	311.82	67.31	-42.9	-44.1	21.5	0.00e+00	0	42	0	751828992	58	6504
2026-01-20 15:19:09.98	310.59	67.41	-43.6	-44.8	21.0	0.00e+00	92	42	0	752877568	58	7086
2026-01-20 15:19:10.99	309.36	67.50	-43.2	-44.4	21.5	0.00e+00	62	42	0	754974720	58	6748
2026-01-20 15:19:12.00	308.11	67.58	-42.7	-43.8	21.8	0.00e+00	92	42	0	757071872	58	6316
2026-01-20 15:19:13.01	306.85	67.65	-42.5	-43.6	22.0	0.00e+00	0	42	0	759169024	58	6150
2026-01-20 15:19:14.01	305.59	67.72	-43.0	-44.1	21.5	0.00e+00	62	42	0	761266176	58	6533
2026-01-20 15:19:15.02	304.32	67.77	-43.3	-44.5	21.1	0.00e+00	2	42	0	763363328	58	6837
2026-01-20 15:19:16.03	303.04	67.81	-43.0	-44.1	21.2	0.00e+00	67	42	0	764411904	58	6536
2026-01-20 15:19:17.04	301.76	67.84	-43.1	-44.3	21.3	0.00e+00	91	42	0	766509056	58	6624
2026-01-20 15:19:18.05	300.47	67.86	-42.8	-43.9	21.7	0.00e+00	14	42	0	768606208	58	6329
2026-01-20 15:19:19.06	299.18	67.87	-42.6	-43.7	21.9	0.00e+00	92	42	0	770703360	58	6175
2026-01-20 15:19:20.07	297.90	67.87	-42.5	-43.6	21.9	0.00e+00	0	42	0	772800512	58	6151
2026-01-20 15:19:21.08	296.61	67.86	-42.5	-43.6	21.2	0.00e+00	47	42	0	773849088	58	6129
2026-01-20 15:19:22.08	295.33	67.84	-42.9	-44.1	21.1	0.00e+00	13	42	0	775946240	58	6510
2026-01-20 15:19:23.09	294.05	67.80	-43.5	-44.8	20.7	0.00e+00	0	42	0	778043392	58	7070
2026-01-20 15:19:24.10	292.77	67.76	-43.6	-44.8	20.7	0.00e+00	92	42	0	780140544	58	7066
2026-01-20 15:19:25.11	291.50	67.71	-43.8	-45.1	20.7	0.00e+00	0	42	0	782237696	60	6515
2026-01-20 15:19:26.12	290.23	67.65	-42.9	-44.0	21.6	0.00e+00	92	42	0	783286272	60	5737
2026-01-20 15:19:27.13	288.97	67.58	-42.5	-43.6	22.1	0.00e+00	0	42	0	785383424	58	6111
2026-01-20 15:19:28.14	287.73	67.50	-42.5	-43.6	22.0	0.00e+00	54	42	0	787480576	58	6121
2026-01-20 15:19:29.15	286.49	67.40	-42.7	-43.8	22.0	0.00e+00	2	42	0	789577728	58	6264
2026-01-20 15:19:30.16	285.26	67.30	-42.5	-43.6	22.1	0.00e+00	2	42	0	791674880	58	6119
2026-01-20 15:19:31.17	284.05	67.19	-42.3	-43.3	22.1	0.00e+00	0	42	0	792723456	58	5937
2026-01-20 15:19:32.18	282.85	67.07	-42.2	-43.2	22.4	0.00e+00	67	42	0	794820608	58	5883
2026-01-20 15:19:33.19	281.66	66.95	-42.0	-43.0	22.6	0.00e+00	92	42	0	796917760	58	5757
2026-01-20 15:19:34.19	280.50	66.81	-42.1	-43.2	22.5	0.00e+00	0	42	0	799014912	58	5843
2026-01-20 15:19:35.20	279.34	66.67	-42.1	-43.1	22.5	0.00e+00	90	42	0	801112064	58	5806
2026-01-20 15:19:36.21	278.20	66.51	-42.4	-43.4	22.3	0.00e+00	69	42	0	802160640	58	6023
2026-01-20 15:19:37.22	277.08	66.35	-41.8	-42.7	22.8	0.00e+00	62	42	0	804257792	58	5561
2026-01-20 15:19:38.23	275.97	66.18	-41.6	-42.6	23.1	0.00e+00	0	42	0	806354944	56	6135
2026-01-20 15:19:39.24	274.88	66.00	-41.4	-42.4	23.2	0.00e+00	0	42	0	808452096	56	5988
2026-01-20 15:19:40.25	273.81	65.82	-41.0	-41.9	23.5	0.00e+00	61	42	0	810549248	56	5676
2026-01-20 15:19:41.26	272.76	65.63	-40.1	-41.0	24.2	0.00e+00	19	42	0	811597824	54	5701
2026-01-20 15:19:42.27	271.73	65.43	-39.8	-40.6	24.6	0.00e+00	92	42	0	813694976	52	6161
2026-01-20 15:19:43.28	270.71	65.22	-39.9	-40.7	24.6	0.00e+00	20	42	0	815792128	52	6238
2026-01-20 15:19:44.29	269.72	65.01	-39.7	-40.5	24.6	0.00e+00	73	42	0	817889280	52	6103
2026-01-20 15:19:45.30	268.74	64.79	-39.7	-40.5	24.7	0.00e+00	19	42	0	819986432	52	6077
2026-01-20 15:19:46.31	267.78	64.57	-39.3	-40.1	25.0	0.00e+00	0	42	0	821035008	52	5772
2026-01-20 15:19:47.32	266.84	64.34	-39.0	-39.8	25.2	0.00e+00	0	42	0	823132160	52	5568
2026-01-20 15:19:48.33	265.92	64.11	-39.0	-39.7	25.2	0.00e+00	0	42	0	825229312	52	5559
2026-01-20 15:19:49.34	265.02	63.87	-39.0	-39.7	25.2	0.00e+00	92	42	0	827326464	52	5558
2026-01-20 15:19:50.35	264.13	63.62	-39.0	-39.8	25.2	0.00e+00	0	42	0	829423616	52	5590
2026-01-20 15:19:51.36	263.27	63.37	-39.3	-40.1	24.9	0.00e+00	57	42	0	831520768	52	5787
2026-01-20 15:19:52.37	262.42	63.12	-39.4	-40.2	24.9	0.00e+00	0	42	0	832569344	52	5840
2026-01-20 15:19:53.38	261.59	62.86	-40.1	-41.0	24.3	0.00e+00	66	42	0	834666496	52	6404
2026-01-20 15:19:54.39	260.78	62.60	-40.9	-41.9	23.4	0.00e+00	0	42	0	836763648	54	6318
2026-01-20 15:19:55.40	259.99	62.33	-41.4	-42.3	23.1	0.00e+00	0	42	0	838860800	54	6680
2026-01-20 15:19:56.41	259.21	62.06	-41.8	-42.8	22.7	0.00e+00	92	42	0	840957952	56	6306
2026-01-20 15:19:57.42	258.45	61.79	-42.0	-43.1	22.4	0.00e+00	68	42	0	842006528	56	6488
2026-01-20 15:19:58.42	257.72	61.52	-42.1	-43.2	22.3	0.00e+00	92	42	0	844103680	56	6544
2026-01-20 15:19:59.43	256.99	61.24	-42.0	-43.1	22.3	0.00e+00	66	42	0	846200832	56	6472
2026-01-20 15:20:00.44	256.28	60.96	-42.2	-43.3	22.1	0.00e+00	68	42	0	848297984	56	6624
2026-01-20 15:20:01.45	255.59	60.68	-42.7	-43.8	21.6	0.00e+00	66	42	0	849346560	56	7074
2026-01-20 15:20:02.46	254.91	60.39	-43.6	-44.9	20.6	0.00e+00	7	42	0	851443712	58	7104
2026-01-20 15:20:03.47	254.25	60.10	-43.8	-45.2	20.3	0.00e+00	92	42	0	853540864	60	6556
2026-01-20 15:20:04.48	253.60	59.81	-44.3	-45.7	19.9	0.00e+00	7	42	0	855638016	60	6997
2026-01-20 15:20:05.49	252.97	59.52	-44.5	-46.0	19.4	0.00e+00	92	42	0	857735168	60	7217
2026-01-20 15:20:06.50	252.35	59.22	-44.2	-45.7	19.9	0.00e+00	6	42	0	859832320	60	6940
2026-01-20 15:20:07.51	251.74	58.93	-44.0	-45.3	20.2	0.00e+00	18	42	0	860880896	60	6654
2026-01-20 15:20:08.51	251.15	58.63	-44.0	-45.4	20.2	0.00e+00	0	42	0	862978048	60	6739
2026-01-20 15:20:09.52	250.57	58.33	-44.0	-45.4	20.4	0.00e+00	0	42	0	865075200	60	6705
2026-01-20 15:20:10.53	250.01	58.03	-44.2	-45.5	20.2	0.00e+00	6	42	0	867172352	60	6841
2026-01-20 15:20:11.54	249.45	57.73	-43.9	-45.2	20.6	0.00e+00	0	42	0	869269504	60	6570
2026-01-20 15:20:12.55	248.91	57.43	-42.9	-44.0	21.5	0.00e+00	92	42	0	870318080	60	5761
2026-01-20 15:20:13.56	248.38	57.13	-42.0	-43.1	22.4	0.00e+00	6	42	0	872415232	58	5764
2026-01-20 15:20:14.57	247.87	56.83	-41.6	-42.6	22.9	0.00e+00	92	42	0	874512384	56	6107
2026-01-20 15:20:15.57	247.36	56.53	-41.4	-42.3	23.0	0.00e+00	64	42	0	876609536	56	5956
2026-01-20 15:20:16.58	246.87	56.22	-41.1	-42.0	23.3	0.00e+00	67	42	0	878706688	56	5760
2026-01-20 15:20:17.59	246.38	55.92	-41.0	-41.9	23.3	0.00e+00	0	42	0	879755264	56	5684
2026-01-20 15:20:18.60	245.91	55.61	-41.4	-42.3	23.3	0.00e+00	0	42	0	881852416	56	5919
2026-01-20 15:20:19.61	245.45	55.31	-41.5	-42.4	23.4	0.00e+00	92	42	0	883949568	56	6019
2026-01-20 15:20:20.62	244.99	55.00	-41.2	-42.1	23.6	0.00e+00	64	42	0	886046720	56	5807
2026-01-20 15:20:21.63	244.55	54.70	-40.8	-41.7	23.8	0.00e+00	92	42	0	888143872	56	5565
2026-01-20 15:20:22.64	244.11	54.39	-40.7	-41.6	23.7	0.00e+00	22	42	0	889192448	56	5494
2026-01-20 15:20:23.65	243.69	54.09	-40.6	-41.5	23.7	0.00e+00	23	42	0	891289600	54	6096
2026-01-20 15:20:24.65	243.28	53.78	-40.8	-41.7	23.4	0.00e+00	20	42	0	893386752	54	6175
2026-01-20 15:20:25.66	242.87	53.48	-40.8	-41.7	23.6	0.00e+00	0	42	0	895483904	54	6223
2026-01-20 15:20:26.67	242.47	53.18	-41.1	-42.0	23.4	0.00e+00	47	42	0	897581056	54	6432
2026-01-20 15:20:27.68	242.08	52.87	-41.4	-42.4	23.2	0.00e+00	6	42	0	898629632	54	6697
2026-01-20 15:20:28.69	241.70	52.57	-41.5	-42.5	23.0	0.00e+00	92	42	0	900726784	54	6773
2026-01-20 15:20:29.70	241.32	52.27	-41.9	-42.9	22.9	0.00e+00	20	42	0	902823936	56	6354
2026-01-20 15:20:30.71	240.95	51.96	-42.1	-43.1	22.7	0.00e+00	0	42	0	904921088	56	6530
2026-01-20 15:20:31.72	240.59	51.66	-41.7	-42.7	22.9	0.00e+00	8	42	0	907018240	56	6185
2026-01-20 15:20:32.73	240.24	51.36	-41.4	-42.3	23.1	0.00e+00	7	42	0	908066816	56	5961
2026-01-20 15:20:33.74	239.89	51.06	-41.6	-42.6	22.9	0.00e+00	7	42	0	910163968	56	6111
2026-01-20 15:20:34.75	239.56	50.76	-42.0	-43.0	22.5	0.00e+00	6	42	0	912261120	56	6454
2026-01-20 15:20:35.76	239.22	50.47	-42.2	-43.3	22.2	0.00e+00	90	42	0	914358272	56	6660
2026-01-20 15:20:36.76	238.90	50.17	-42.7	-43.9	21.8	0.00e+00	65	42	0	916455424	56	7109
2026-01-20 15:20:37.78	238.58	49.87	-42.7	-43.9	21.8	0.00e+00	92	42	0	917504000	56	7111
2026-01-20 15:20:38.79	238.27	49.58	-42.5	-43.7	22.0	0.00e+00	0	42	0	919601152	56	6929
2026-01-20 15:20:39.80	237.96	49.28	-42.2	-43.4	22.2	0.00e+00	0	42	0	921698304	56	6695
2026-01-20 15:20:40.81	237.66	48.99	-42.1	-43.2	22.3	0.00e+00	30	42	0	923795456	56	6541
2026-01-20 15:20:41.82	237.36	48.70	-42.3	-43.4	22.1	0.00e+00	22	42	0	925892608	56	6748
2026-01-20 15:20:42.82	237.07	48.41	-42.3	-43.4	22.0	0.00e+00	92	42	0	927989760	56	6764
2026-01-20 15:20:43.83	236.79	48.12	-42.4	-43.6	22.0	0.00e+00	62	42	0	929038336	56	6850
2026-01-20 15:20:44.84	236.51	47.83	-42.3	-43.4	22.1	0.00e+00	91	42	0	931135488	56	6746
2026-01-20 15:20:45.85	236.24	47.54	-42.3	-43.4	22.1	0.00e+00	62	42	0	933232640	56	6763
2026-01-20 15:20:46.86	235.97	47.26	-42.3	-43.5	21.9	0.00e+00	15	42	0	935329792	56	6811
2026-01-20 15:20:47.87	235.70	46.97	-42.2	-43.4	22.0	0.00e+00	2	42	0	937426944	56	6736
2026-01-20 15:20:48.88	235.45	46.69	-42.1	-43.2	22.1	0.00e+00	14	42	0	938475520	56	6577
2026-01-20 15:20:49.89	235.19	46.40	-42.1	-43.2	22.1	0.00e+00	21	42	0	940572672	56	6610
2026-01-20 15:20:50.90	234.94	46.12	-42.1	-43.3	22.1	0.00e+00	17	42	0	942669824	56	6650
2026-01-20 15:20:51.90	234.70	45.85	-42.4	-43.6	21.8	0.00e+00	92	42	0	944766976	56	6859
2026-01-20 15:20:52.91	234.46	45.57	-42.7	-44.0	21.6	0.00e+00	2	42	0	946864128	58	6407
2026-01-20 15:20:53.92	234.22	45.29	-42.9	-44.3	21.2	0.00e+00	91	42	0	947912704	58	6631
2026-01-20 15:20:54.93	233.99	45.01	-43.0	-44.3	21.2	0.00e+00	2	42	0	950009856	58	6651
2026-01-20 15:20:55.94	233.76	44.74	-42.8	-44.2	21.0	0.00e+00	2	42	0	952107008	58	6554
2026-01-20 15:20:56.95	233.54	44.47	-42.7	-44.0	21.3	0.00e+00	0	42	0	954204160	58	6445
2026-01-20 15:20:57.96	233.31	44.19	-42.8	-44.1	21.3	0.00e+00	0	42	0	956301312	58	6490
2026-01-20 15:20:58.97	233.10	43.92	-42.9	-44.2	21.2	0.00e+00	92	42	0	957349888	58	6588
2026-01-20 15:20:59.98	232.88	43.65	-43.0	-44.4	20.9	0.00e+00	64	42	0	959447040	58	6747
2026-01-20 15:21:00.99	232.67	43.39	-43.5	-45.0	20.7	0.00e+00	92	42	0	961544192	58	7179
2026-01-20 15:21:02.00	232.47	43.12	-43.5	-45.0	20.4	0.00e+00	0	42	0	963641344	58	7215
2026-01-20 15:21:03.01	232.27	42.86	-43.3	-44.7	20.7	0.00e+00	60	42	0	965738496	58	6983
2026-01-20 15:21:04.02	232.07	42.59	-43.5	-44.9	20.6	0.00e+00	26	42	0	966787072	58	7133
2026-01-20 15:21:05.03	231.87	42.33	-44.0	-45.5	20.1	0.00e+00	65	42	0	968884224	60	6835
2026-01-20 15:21:06.04	231.68	42.07	-44.3	-45.9	19.7	0.00e+00	92	42	0	970981376	60	7110
2026-01-20 15:21:07.05	231.49	41.81	-44.7	-46.4	19.5	0.00e+00	0	42	0	973078528	60	7516
2026-01-20 15:21:08.06	231.30	41.55	-44.8	-46.5	19.2	0.00e+00	92	42	0	975175680	60	7661
2026-01-20 15:21:09.07	231.12	41.30	-44.9	-46.7	18.9	0.00e+00	22	42	0	976224256	60	7782
2026-01-20 15:21:10.08	230.94	41.04	-45.1	-46.9	18.7	0.00e+00	21	42	0	978321408	60	8034
2026-01-20 15:21:11.09	230.76	40.79	-45.2	-47.1	18.6	0.00e+00	22	42	0	980418560	60	8146
2026-01-20 15:21:12.10	230.58	40.54	-45.2	-47.0	18.6	0.00e+00	0	42	0	982515712	60	8130
2026-01-20 15:21:13.10	230.41	40.29	-45.3	-47.2	18.6	0.00e+00	86	42	0	984612864	60	8284
2026-01-20 15:21:14.11	230.24	40.04	-45.1	-46.9	18.8	0.00e+00	2	42	0	985661440	60	7975
2026-01-20 15:21:15.12	230.07	39.80	-45.1	-46.9	18.8	0.00e+00	92	42	0	987758592	60	7971
2026-01-20 15:21:16.13	229.91	39.55	-45.0	-46.9	18.8	0.00e+00	0	42	0	989855744	60	7970
2026-01-20 15:21:17.14	229.75	39.31	-44.9	-46.7	19.0	0.00e+00	88	42	0	991952896	60	7780
2026-01-20 15:21:18.15	229.59	39.06	-44.4	-45.9	19.7	0.00e+00	0	42	0	994050048	60	7155
2026-01-20 15:21:19.16	229.43	38.82	-44.0	-45.6	19.9	0.00e+00	64	42	0	996147200	60	6886
2026-01-20 15:21:20.17	229.28	38.58	-43.9	-45.3	20.2	0.00e+00	0	42	0	997195776	60	6675
2026-01-20 15:21:21.18	229.12	38.34	-43.9	-45.3	20.1	0.00e+00	65	42	0	999292928	60	6688
2026-01-20 15:21:22.19	228.97	38.11	-43.4	-44.8	20.7	0.00e+00	92	42	0	1001390080	60	6258
2026-01-20 15:21:23.19	228.83	37.87	-43.7	-45.2	20.3	0.00e+00	0	42	0	1003487232	60	6550
2026-01-20 15:21:24.20	228.68	37.64	-43.6	-45.0	20.6	0.00e+00	90	42	0	1004535808	60	6460
2026-01-20 15:21:25.21	228.54	37.40	-43.6	-45.0	20.5	0.00e+00	15	42	0	1006632960	60	6411
2026-01-20 15:21:26.22	228.39	37.17	-43.7	-45.1	20.4	0.00e+00	65	42	0	1008730112	60	6497
2026-01-20 15:21:27.23	228.25	36.94	-43.5	-44.8	20.6	0.00e+00	16	42	0	1010827264	60	6313
2026-01-20 15:21:28.24	228.12	36.71	-43.2	-44.6	21.0	0.00e+00	65	42	0	1012924416	60	6106
2026-01-20 15:21:29.24	227.98	36.49	-43.3	-44.6	20.9	0.00e+00	64	42	0	1013972992	60	6127
2026-01-20 15:21:30.25	227.85	36.26	-43.4	-44.7	20.8	0.00e+00	0	42	0	1016070144	60	6214
2026-01-20 15:21:31.26	227.72	36.04	-43.4	-44.8	20.7	0.00e+00	92	42	0	1018167296	60	6267
2026-01-20 15:21:32.27	227.59	35.82	-43.3	-44.6	20.8	0.00e+00	18	42	0	1020264448	60	6141
2026-01-20 15:21:33.28	227.46	35.59	-43.2	-44.5	20.9	0.00e+00	2	42	0	1022361600	60	6103
2026-01-20 15:21:34.29	227.33	35.37	-43.2	-44.6	20.9	0.00e+00	17	42	0	1024458752	60	6107
2026-01-20 15:21:35.30	227.21	35.15	-43.3	-44.7	21.0	0.00e+00	18	42	0	1025507328	60	6176
2026-01-20 15:21:36.31	227.08	34.94	-43.3	-44.6	20.8	0.00e+00	92	42	0	1027604480	60	6124
2026-01-20 15:21:37.32	226.96	34.72	-43.4	-44.7	20.6	0.00e+00	2	42	0	1029701632	60	6206
2026-01-20 15:21:38.33	226.84	34.51	-43.5	-44.9	20.6	0.00e+00	92	42	0	1031798784	60	6332
2026-01-20 15:21:39.34	226.72	34.29	-43.5	-44.8	20.6	0.00e+00	0	42	0	1033895936	60	6311
2026-01-20 15:21:40.35	226.61	34.08	-43.6	-44.9	20.7	0.00e+00	65	42	0	1034944512	60	6373
2026-01-20 15:21:41.36	226.49	33.87	-43.4	-44.7	20.8	0.00e+00	58	42	0	1037041664	60	6200
2026-01-20 15:21:42.37	226.38	33.66	-43.3	-44.6	20.9	0.00e+00	0	42	0	1039138816	60	6150
2026-01-20 15:21:43.38	226.27	33.45	-43.2	-44.5	21.0	0.00e+00	0	42	0	1041235968	60	6035
2026-01-20 15:21:44.39	226.15	33.24	-43.2	-44.5	20.9	0.00e+00	56	42	0	1043333120	60	6063
2026-01-20 15:21:45.39	226.05	33.04	-43.1	-44.3	21.2	0.00e+00	92	42	0	1044381696	60	5916
2026-01-20 15:21:46.40	225.94	32.83	-43.0	-44.2	21.2	0.00e+00	0	42	0	1046478848	60	5878
2026-01-20 15:21:47.41	225.83	32.63	-43.0	-44.2	21.2	0.00e+00	0	42	0	1048576000	60	5896
2026-01-20 15:21:48.42	225.73	32.43	-43.2	-44.4	21.0	0.00e+00	18	42	0	1050673152	60	6000
2026-01-20 15:21:49.43	225.62	32.23	-43.5	-44.8	20.8	0.00e+00	21	42	0	1052770304	60	6253
2026-01-20 15:21:50.44	225.52	32.03	-43.5	-44.8	20.6	0.00e+00	62	42	0	1053818880	60	6287
2026-01-20 15:21:51.45	225.42	31.83	-43.7	-45.0	20.4	0.00e+00	20	42	0	1055916032	60	6453
2026-01-20 15:21:52.46	225.32	31.63	-43.8	-45.1	20.4	0.00e+00	89	42	0	1058013184	60	6477
2026-01-20 15:21:53.47	225.22	31.44	-43.8	-45.2	20.4	0.00e+00	21	42	0	1060110336	60	6565
2026-01-20 15:21:54.48	225.12	31.24	-43.9	-45.3	20.3	0.00e+00	92	42	0	1062207488	60	6632
2026-01-20 15:21:55.49	225.03	31.05	-43.9	-45.3	20.2	0.00e+00	0	42	0	1063256064	60	6638
2026-01-20 15:21:56.49	224.93	30.86	-44.1	-45.5	20.1	0.00e+00	32	42	0	1065353216	60	6784
2026-01-20 15:21:57.50	224.84	30.67	-44.2	-45.6	20.0	0.00e+00	19	42	0	1067450368	60	6860
2026-01-20 15:21:58.51	224.75	30.48	-44.2	-45.6	19.9	0.00e+00	6	42	0	1069547520	60	6908
2026-01-20 15:21:59.53	224.65	30.29	-44.3	-45.7	19.8	0.00e+00	0	42	0	1071644672	60	6993
2026-01-20 15:22:00.54	224.56	30.10	-44.4	-45.9	19.7	0.00e+00	0	42	0	1072693248	60	7099
2026-01-20 15:22:01.55	224.47	29.91	-44.4	-45.9	19.6	0.00e+00	91	42	0	1074790400	60	7106
2026-01-20 15:22:02.55	224.38	29.73	-44.6	-46.1	19.4	0.00e+00	0	42	0	1076887552	60	7283
2026-01-20 15:22:03.56	224.30	29.54	-44.6	-46.1	19.4	0.00e+00	62	42	0	1078984704	60	7278
2026-01-20 15:22:04.57	224.21	29.36	-44.7	-46.3	19.3	0.00e+00	61	42	0	1081081856	60	7427
2026-01-20 15:22:05.58	224.13	29.18	-44.9	-46.5	19.2	0.00e+00	0	42	0	1082130432	60	7612
2026-01-20 15:22:06.59	224.04	29.00	-45.1	-46.8	18.9	0.00e+00	0	42	0	1084227584	60	7887
2026-01-20 15:22:07.60	223.96	28.82	-44.9	-46.5	19.0	0.00e+00	56	42	0	1086324736	60	7642
2026-01-20 15:22:08.61	223.88	28.64	-45.0	-46.6	19.0	0.00e+00	92	42	0	1088421888	60	7700
2026-01-20 15:22:09.62	223.79	28.46	-44.8	-46.4	19.2	0.00e+00	6	42	0	1090519040	60	7513
2026-01-20 15:22:10.63	223.71	28.28	-45.0	-46.6	19.2	0.00e+00	92	42	0	1092616192	60	7750
2026-01-20 15:22:11.64	223.63	28.11	-44.8	-46.3	19.3	0.00e+00	29	42	0	1093664768	60	7482
2026-01-20 15:22:12.65	223.55	27.93	-44.5	-45.9	19.8	0.00e+00	30	42	0	1095761920	60	7158
2026-01-20 15:22:13.66	223.48	27.76	-44.4	-45.8	19.8	0.00e+00	8	42	0	1097859072	60	7034
2026-01-20 15:22:14.67	223.40	27.59	-44.1	-45.5	20.1	0.00e+00	7	42	0	1099956224	60	6816
2026-01-20 15:22:15.68	223.32	27.41	-44.2	-45.7	19.9	0.00e+00	92	42	0	1102053376	60	6928
2026-01-20 15:22:16.69	223.25	27.24	-44.0	-45.4	20.1	0.00e+00	7	42	0	1103101952	60	6743
2026-01-20 15:22:17.70	223.17	27.07	-43.9	-45.3	20.2	0.00e+00	92	42	0	1105199104	60	6675
2026-01-20 15:22:18.70	223.10	26.91	-44.1	-45.5	20.0	0.00e+00	25	42	0	1107296256	60	6812
2026-01-20 15:22:19.71	223.03	26.74	-43.9	-45.3	20.2	0.00e+00	0	42	0	1109393408	60	6656
2026-01-20 15:22:20.72	222.96	26.57	-43.9	-45.3	20.3	0.00e+00	0	42	0	1111490560	60	6629
2026-01-20 15:22:21.73	222.88	26.41	-43.9	-45.3	20.2	0.00e+00	7	42	0	1112539136	60	6629
2026-01-20 15:22:22.74	222.81	26.24	-43.8	-45.1	20.4	0.00e+00	13	42	0	1114636288	60	6519
2026-01-20 15:22:23.75	222.74	26.08	-43.7	-45.0	20.5	0.00e+00	0	42	0	1116733440	60	6448
2026-01-20 15:22:24.76	222.67	25.91	-43.6	-44.9	20.6	0.00e+00	90	42	0	1118830592	60	6365
2026-01-20 15:22:25.77	222.61	25.75	-43.5	-44.8	20.6	0.00e+00	0	42	0	1120927744	60	6301
2026-01-20 15:22:26.78	222.54	25.59	-43.2	-44.5	20.9	0.00e+00	92	42	0	1121976320	60	6063
2026-01-20 15:22:27.79	222.47	25.43	-43.4	-44.7	20.8	0.00e+00	0	42	0	1124073472	60	6195
2026-01-20 15:22:28.79	222.41	25.27	-43.2	-44.4	21.0	0.00e+00	0	42	0	1126170624	60	6020
2026-01-20 15:22:29.80	222.34	25.12	-43.2	-44.5	20.9	0.00e+00	0	42	0	1128267776	60	6054
2026-01-20 15:22:30.81	222.28	24.96	-43.1	-44.4	21.0	0.00e+00	61	42	0	1130364928	60	5994
2026-01-20 15:22:31.82	222.21	24.80	-43.1	-44.5	20.9	0.00e+00	92	42	0	1131413504	60	6037
2026-01-20 15:22:32.83	222.15	24.65	-42.9	-44.2	21.1	0.00e+00	18	42	0	1133510656	60	5876
2026-01-20 15:22:33.84	222.09	24.49	-42.8	-44.1	21.3	0.00e+00	92	42	0	1135607808	60	5783
2026-01-20 15:22:34.85	222.02	24.34	-42.8	-44.1	21.2	0.00e+00	19	42	0	1137704960	60	5789
2026-01-20 15:22:35.85	221.96	24.19	-42.6	-43.8	21.4	0.00e+00	21	42	0	1139802112	58	6312
2026-01-20 15:22:36.86	221.90	24.03	-42.7	-43.9	21.3	0.00e+00	20	42	0	1140850688	58	6374
2026-01-20 15:22:37.88	221.84	23.88	-42.5	-43.7	21.6	0.00e+00	24	42	0	1142947840	58	6190
2026-01-20 15:22:38.89	221.78	23.73	-42.4	-43.5	21.6	0.00e+00	92	42	0	1145044992	58	6103
2026-01-20 15:22:39.89	221.72	23.58	-42.4	-43.6	21.6	0.00e+00	29	42	0	1147142144	58	6168
2026-01-20 15:22:40.91	221.66	23.43	-42.2	-43.4	21.9	0.00e+00	92	42	0	1149239296	58	6003
2026-01-20 15:22:41.92	221.61	23.28	-42.3	-43.5	21.6	0.00e+00	0	42	0	1150287872	58	6057
2026-01-20 15:22:42.92	221.55	23.14	-42.2	-43.4	21.8	0.00e+00	0	42	0	1152385024	58	5978
2026-01-20 15:22:43.93	221.49	22.99	-42.2	-43.3	21.9	0.00e+00	0	42	0	1154482176	58	5936
2026-01-20 15:22:44.94	221.44	22.85	-42.2	-43.4	21.9	0.00e+00	0	42	0	1156579328	58	5970
2026-01-20 15:22:45.95	221.38	22.70	-42.1	-43.3	22.0	0.00e+00	0	42	0	1158676480	58	5905
2026-01-20 15:22:46.96	221.32	22.56	-42.0	-43.1	22.1	0.00e+00	0	42	0	1160773632	58	5817
2026-01-20 15:22:47.97	221.27	22.41	-42.0	-43.2	22.0	0.00e+00	92	42	0	1161822208	58	5836
2026-01-20 15:22:48.98	221.22	22.27	-41.8	-42.9	22.3	0.00e+00	0	42	0	1163919360	58	5660
2026-01-20 15:22:49.99	221.16	22.13	-41.9	-43.0	22.2	0.00e+00	90	42	0	1166016512	56	6391
2026-01-20 15:22:51.00	221.11	21.99	-42.0	-43.1	21.8	0.00e+00	3	42	0	1168113664	56	6483
2026-01-20 15:22:52.01	221.06	21.85	-41.8	-42.9	22.3	0.00e+00	59	42	0	1169162240	56	6324
2026-01-20 15:22:53.02	221.00	21.71	-41.8	-42.9	22.2	0.00e+00	42	42	0	1171259392	56	6360
2026-01-20 15:22:54.03	220.95	21.57	-41.8	-42.9	22.3	0.00e+00	19	42	0	1173356544	56	6350
2026-01-20 15:22:55.04	220.90	21.43	-41.7	-42.8	22.4	0.00e+00	91	42	0	1175453696	56	6256
2026-01-20 15:22:56.04	220.85	21.30	-41.8	-42.9	22.3	0.00e+00	60	42	0	1177550848	56	6352
2026-01-20 15:22:57.05	220.80	21.16	-41.8	-42.9	22.3	0.00e+00	92	42	0	1178599424	56	6336
2026-01-20 15:22:58.06	220.75	21.02	-41.8	-42.9	22.4	0.00e+00	0	42	0	1180696576	56	6342
2026-01-20 15:22:59.07	220.70	20.89	-41.8	-42.9	22.4	0.00e+00	0	42	0	1182793728	56	6344
2026-01-20 15:23:00.08	220.65	20.76	-41.5	-42.5	22.6	0.00e+00	20	42	0	1184890880	56	6099
2026-01-20 15:23:01.09	220.61	20.62	-41.7	-42.7	22.5	0.00e+00	0	42	0	1186988032	56	6224
2026-01-20 15:23:02.10	220.56	20.49	-41.5	-42.6	22.6	0.00e+00	92	42	0	1189085184	56	6113
2026-01-20 15:23:03.11	220.51	20.36	-41.5	-42.5	22.7	0.00e+00	0	42	0	1190133760	56	6086
2026-01-20 15:23:04.12	220.46	20.22	-41.4	-42.4	22.6	0.00e+00	92	42	0	1192230912	56	6015
2026-01-20 15:23:05.13	220.42	20.09	-41.5	-42.5	22.7	0.00e+00	0	42	0	1194328064	56	6053
2026-01-20 15:23:06.14	220.37	19.96	-41.6	-42.6	22.6	0.00e+00	56	42	0	1196425216	56	6129
2026-01-20 15:23:07.15	220.33	19.83	-41.5	-42.5	22.7	0.00e+00	0	42	0	1198522368	56	6052
2026-01-20 15:23:08.16	220.28	19.70	-41.4	-42.5	22.7	0.00e+00	0	42	0	1199570944	56	6038
2026-01-20 15:23:09.17	220.24	19.58	-41.6	-42.6	22.5	0.00e+00	55	42	0	1201668096	56	6126
2026-01-20 15:23:10.18	220.19	19.45	-41.6	-42.6	22.5	0.00e+00	0	42	0	1203765248	56	6154
2026-01-20 15:23:11.19	220.15	19.32	-41.6	-42.6	22.4	0.00e+00	91	42	0	1205862400	56	6159
