passes_logs/2026/01/20/R4.6S_Anadyr/R4.6S_Anadyr__20260120_124045_NOAA_21_JPSS-2_rec.log

#Pass ID: 20260120_124045_NOAA 21 (JPSS-2)
#Satellite: NOAA 21 (JPSS-2)
#Configuration: NOAA-21
#almurnet v.1.7.20251203
#Start time: 2026-01-20 12:40:48

#Version: 2.2.20231116
#Station: R4.6S_Anadyr
#Location: 177.4865 lon 64.73178 lat
#TLE: 1 54234U 22150A   26019.94667805  .00000106  00000+0  71222-4 0  9995
#TLE: 2 54234  98.7505 320.7866 0000607 253.4528 106.6582 14.19535964165511

#Time	Az	El	Level	Level2	SNR	BER	BlckErr	Temp	State	Recorded	gain1	gain2
2026-01-20 12:40:48.84	18.93	0.16	-52.5	-63.9	3.3	1.54e+00	0	41	0	0	60	55004
2026-01-20 12:40:49.85	18.99	0.21	-52.5	-65.4	3.5	1.52e+00	0	41	104	0	60	65034
2026-01-20 12:40:50.86	19.06	0.27	-52.0	-65.0	3.5	1.52e+00	0	41	104	0	60	62169
2026-01-20 12:40:51.87	19.13	0.32	-51.8	-64.7	3.5	1.52e+00	0	41	104	0	60	60079
2026-01-20 12:40:52.88	19.19	0.37	-51.8	-64.6	3.5	1.52e+00	0	41	104	0	60	59826
2026-01-20 12:40:53.89	19.26	0.42	-51.7	-64.6	3.5	1.52e+00	0	41	104	0	60	59778
2026-01-20 12:40:54.90	19.33	0.48	-51.6	-64.4	3.5	1.52e+00	0	41	104	0	60	58315
2026-01-20 12:40:55.91	19.39	0.53	-51.8	-64.6	3.5	1.52e+00	0	41	104	0	60	59855
2026-01-20 12:40:56.92	19.46	0.58	-51.6	-64.5	3.5	1.52e+00	0	41	104	0	60	58975
2026-01-20 12:40:57.93	19.53	0.63	-51.5	-64.4	3.5	1.52e+00	0	41	104	0	60	57976
2026-01-20 12:40:58.94	19.60	0.69	-51.3	-64.2	3.5	1.51e+00	0	41	104	0	60	57064
2026-01-20 12:40:59.95	19.66	0.74	-51.3	-64.2	3.5	1.51e+00	0	41	104	0	60	56633
2026-01-20 12:41:00.96	19.73	0.79	-51.3	-64.2	3.5	1.51e+00	0	41	104	0	60	56654
2026-01-20 12:41:01.97	19.80	0.84	-51.1	-64.0	3.5	1.52e+00	0	41	104	0	60	55822
2026-01-20 12:41:02.98	19.87	0.90	-51.0	-63.9	3.5	1.52e+00	0	41	104	0	60	54903
2026-01-20 12:41:03.99	19.94	0.95	-50.9	-63.7	3.5	1.52e+00	0	41	104	0	60	53836
2026-01-20 12:41:05.00	20.01	1.00	-50.8	-63.6	3.5	1.52e+00	0	41	104	0	60	53270
2026-01-20 12:41:06.01	20.08	1.06	-50.7	-63.5	3.4	1.52e+00	0	41	104	0	60	52572
2026-01-20 12:41:07.02	20.15	1.11	-50.5	-63.4	3.5	1.52e+00	0	41	104	0	60	51731
2026-01-20 12:41:08.03	20.22	1.16	-50.4	-63.3	3.5	1.52e+00	0	41	104	0	60	51123
2026-01-20 12:41:09.04	20.29	1.22	-50.3	-63.1	3.5	1.51e+00	0	41	104	0	60	50229
2026-01-20 12:41:10.05	20.36	1.27	-50.1	-62.9	3.5	1.52e+00	0	41	104	0	60	49244
2026-01-20 12:41:11.06	20.43	1.32	-49.7	-62.5	3.5	1.52e+00	0	41	104	0	60	46908
2026-01-20 12:41:12.07	20.50	1.38	-49.6	-62.5	3.5	1.52e+00	0	41	104	0	60	46546
2026-01-20 12:41:13.07	20.57	1.43	-49.6	-62.5	3.5	1.52e+00	0	41	104	0	60	46732
2026-01-20 12:41:14.08	20.64	1.48	-49.6	-62.5	3.5	1.52e+00	0	41	104	0	60	46660
2026-01-20 12:41:15.09	20.71	1.54	-49.6	-62.5	3.5	1.52e+00	0	41	104	0	60	46826
2026-01-20 12:41:16.10	20.78	1.59	-49.6	-62.4	3.5	1.52e+00	0	41	104	0	60	46457
2026-01-20 12:41:17.11	20.86	1.64	-49.6	-62.2	3.5	1.52e+00	0	41	104	0	60	44991
2026-01-20 12:41:18.12	20.93	1.70	-49.6	-62.4	3.5	1.52e+00	0	41	104	0	60	46119
2026-01-20 12:41:19.13	21.00	1.75	-49.6	-62.3	3.5	1.51e+00	0	41	104	0	60	45766
2026-01-20 12:41:20.14	21.07	1.81	-49.6	-62.3	3.5	1.52e+00	0	41	104	0	60	46003
2026-01-20 12:41:21.15	21.15	1.86	-49.6	-62.2	3.5	1.52e+00	0	41	104	0	60	45396
2026-01-20 12:41:22.16	21.22	1.91	-49.6	-62.4	3.5	1.51e+00	0	41	104	0	60	46085
2026-01-20 12:41:23.17	21.29	1.97	-49.6	-62.3	3.5	1.52e+00	0	41	104	0	60	45976
2026-01-20 12:41:24.18	21.37	2.02	-49.6	-62.4	3.5	1.52e+00	0	41	104	0	60	46316
2026-01-20 12:41:25.19	21.44	2.08	-49.6	-62.4	3.5	1.52e+00	0	41	104	0	60	46216
2026-01-20 12:41:26.20	21.51	2.13	-49.5	-62.2	3.5	1.51e+00	0	41	104	0	60	45304
2026-01-20 12:41:27.21	21.59	2.19	-49.5	-62.0	3.5	1.52e+00	0	41	104	0	60	44350
2026-01-20 12:41:28.22	21.66	2.24	-49.5	-61.3	3.5	1.51e+00	0	41	104	0	60	40610
2026-01-20 12:41:29.23	21.74	2.29	-49.5	-61.2	3.5	1.52e+00	0	41	104	0	60	40423
2026-01-20 12:41:30.24	21.81	2.35	-49.4	-61.0	3.5	1.52e+00	0	41	104	0	60	39238
2026-01-20 12:41:31.25	21.89	2.40	-49.5	-61.5	3.5	1.51e+00	0	41	104	0	60	41902
2026-01-20 12:41:32.26	21.96	2.46	-49.3	-59.9	3.9	1.44e+00	0	41	104	0	60	34566
2026-01-20 12:41:33.27	22.04	2.51	-47.6	-51.9	9.6	7.57e-02	123	42	0	2097152	60	13760
2026-01-20 12:41:34.28	22.12	2.57	-47.8	-52.3	8.8	2.56e-02	122	42	0	5242880	60	14538
2026-01-20 12:41:35.29	22.19	2.62	-46.2	-49.2	12.6	1.29e-03	122	42	0	8388608	60	10180
2026-01-20 12:41:36.30	22.27	2.68	-43.1	-44.8	17.1	2.20e-06	122	42	0	11534336	60	6113
2026-01-20 12:41:37.31	22.35	2.73	-42.7	-44.3	17.3	0.00e+00	123	41	0	14680064	58	6439
2026-01-20 12:41:38.32	22.42	2.79	-41.5	-42.9	19.0	0.00e+00	123	42	0	17825792	56	6188
2026-01-20 12:41:39.33	22.50	2.84	-40.3	-41.5	20.1	0.00e+00	122	41	0	20971520	56	5258
2026-01-20 12:41:40.34	22.58	2.90	-41.5	-42.8	19.3	0.00e+00	118	41	0	24117248	58	5433
2026-01-20 12:41:41.35	22.66	2.96	-43.1	-44.8	16.7	0.00e+00	123	42	0	27262976	58	6824
2026-01-20 12:41:42.35	22.74	3.01	-43.0	-44.8	16.9	0.00e+00	120	41	0	30408704	60	6065
2026-01-20 12:41:43.36	22.81	3.07	-45.4	-47.9	13.7	3.00e-06	123	42	0	33554432	60	8703
2026-01-20 12:41:44.38	22.89	3.12	-43.4	-45.1	16.9	9.51e-04	120	42	0	36700160	60	6278
2026-01-20 12:41:45.39	22.97	3.18	-43.1	-44.8	17.4	0.00e+00	123	42	0	39845888	60	6107
2026-01-20 12:41:46.40	23.05	3.23	-42.8	-44.5	15.1	0.00e+00	123	41	0	42991616	56	7426
2026-01-20 12:41:47.41	23.13	3.29	-49.5	-61.9	3.5	1.51e+00	0	42	104	42991616	60	43693
2026-01-20 12:41:48.42	23.21	3.35	-43.4	-45.5	17.2	8.55e-02	123	42	104	42991616	60	6638
2026-01-20 12:41:49.42	23.29	3.40	-44.1	-46.0	16.2	2.20e-06	122	42	0	45088768	60	7030
2026-01-20 12:41:50.44	23.37	3.46	-40.9	-42.2	19.9	0.00e+00	123	42	0	48234496	56	5677
2026-01-20 12:41:51.44	23.45	3.51	-40.6	-41.9	19.7	0.00e+00	123	42	0	51380224	52	6893
2026-01-20 12:41:52.45	23.54	3.57	-41.7	-43.1	18.5	0.00e+00	122	42	0	54525952	56	6305
2026-01-20 12:41:53.46	23.62	3.63	-41.2	-42.5	19.3	0.00e+00	121	42	0	57671680	56	5881
2026-01-20 12:41:54.47	23.70	3.68	-41.3	-42.6	19.0	0.00e+00	122	42	0	60817408	54	6696
2026-01-20 12:41:55.48	23.78	3.74	-40.9	-42.2	19.4	0.00e+00	122	42	0	63963136	54	6400
2026-01-20 12:41:56.49	23.86	3.80	-42.3	-43.7	18.1	0.00e+00	122	42	0	67108864	56	6798
2026-01-20 12:41:57.50	23.95	3.85	-41.5	-42.9	19.0	0.00e+00	123	42	0	70254592	56	6164
2026-01-20 12:41:58.51	24.03	3.91	-40.9	-42.2	19.1	0.00e+00	123	42	0	73400320	54	6373
2026-01-20 12:41:59.52	24.11	3.97	-42.1	-43.6	18.7	0.00e+00	123	42	0	76546048	56	6679
2026-01-20 12:42:00.53	24.20	4.02	-41.7	-43.1	18.6	0.00e+00	123	42	0	79691776	56	6309
2026-01-20 12:42:01.54	24.28	4.08	-42.3	-43.8	18.8	0.00e+00	123	42	0	82837504	58	6082
2026-01-20 12:42:02.55	24.37	4.14	-40.9	-42.2	19.4	0.00e+00	120	42	0	85983232	54	6363
2026-01-20 12:42:03.56	24.45	4.19	-41.5	-42.9	19.2	0.00e+00	122	42	0	89128960	56	6148
2026-01-20 12:42:04.57	24.54	4.25	-41.9	-43.3	18.5	0.00e+00	122	42	0	92274688	56	6498
2026-01-20 12:42:05.58	24.62	4.31	-41.1	-42.4	19.5	0.00e+00	123	42	0	95420416	56	5796
2026-01-20 12:42:06.59	24.71	4.36	-40.9	-42.2	19.6	0.00e+00	123	42	0	98566144	54	6409
2026-01-20 12:42:07.60	24.79	4.42	-41.0	-42.3	19.5	0.00e+00	123	42	0	101711872	54	6442
2026-01-20 12:42:08.61	24.88	4.48	-41.1	-42.4	19.3	0.00e+00	123	42	0	104857600	54	6561
2026-01-20 12:42:09.62	24.96	4.54	-40.5	-41.8	20.1	0.00e+00	122	42	0	108003328	54	6067
2026-01-20 12:42:10.63	25.05	4.59	-40.9	-42.2	19.3	0.00e+00	122	42	0	111149056	54	6385
2026-01-20 12:42:11.64	25.14	4.65	-41.1	-42.4	19.4	0.00e+00	122	42	0	114294784	54	6545
2026-01-20 12:42:12.65	25.23	4.71	-40.7	-41.9	20.0	0.00e+00	123	42	0	117440512	54	6168
2026-01-20 12:42:13.66	25.31	4.77	-40.8	-42.0	19.7	0.00e+00	122	42	0	121634816	54	6268
2026-01-20 12:42:14.67	25.40	4.82	-40.6	-41.8	20.1	0.00e+00	123	42	0	124780544	54	6096
2026-01-20 12:42:15.68	25.49	4.88	-41.7	-43.1	18.9	0.00e+00	121	42	0	127926272	54	7088
2026-01-20 12:42:16.69	25.58	4.94	-40.1	-41.3	20.4	0.00e+00	122	42	0	130023424	54	5769
2026-01-20 12:42:17.70	25.67	5.00	-40.6	-41.8	19.8	0.00e+00	122	42	0	133169152	54	6087
2026-01-20 12:42:18.71	25.76	5.06	-41.7	-43.0	19.1	0.00e+00	123	42	0	137363456	56	6255
2026-01-20 12:42:19.72	25.85	5.11	-43.1	-44.7	17.5	0.00e+00	122	42	0	140509184	58	6747
2026-01-20 12:42:20.73	25.94	5.17	-41.0	-42.3	19.7	0.00e+00	123	42	0	143654912	56	5752
2026-01-20 12:42:21.74	26.03	5.23	-40.3	-41.4	20.7	0.00e+00	120	42	0	146800640	54	5850
2026-01-20 12:42:22.75	26.12	5.29	-40.1	-41.3	20.7	0.00e+00	123	42	0	149946368	54	5742
2026-01-20 12:42:23.76	26.21	5.35	-40.9	-42.1	20.1	0.00e+00	123	42	0	153092096	54	6338
2026-01-20 12:42:24.76	26.30	5.41	-40.6	-41.8	20.1	0.00e+00	124	42	0	156237824	54	6109
2026-01-20 12:42:25.77	26.39	5.46	-41.0	-42.2	19.6	0.00e+00	122	42	0	159383552	54	6400
2026-01-20 12:42:26.78	26.48	5.52	-41.6	-42.9	19.3	0.00e+00	120	42	0	162529280	56	6182
2026-01-20 12:42:27.79	26.58	5.58	-41.4	-42.7	19.5	0.00e+00	122	42	0	165675008	56	6041
2026-01-20 12:42:28.80	26.67	5.64	-41.2	-42.4	19.6	0.00e+00	123	42	0	168820736	56	5839
2026-01-20 12:42:29.81	26.76	5.70	-41.1	-42.4	19.7	0.00e+00	120	42	0	171966464	56	5835
2026-01-20 12:42:30.82	26.86	5.76	-41.0	-42.3	19.9	0.00e+00	120	42	0	175112192	56	5751
2026-01-20 12:42:31.83	26.95	5.82	-40.8	-42.0	19.9	0.00e+00	123	42	0	178257920	56	5592
2026-01-20 12:42:32.84	27.04	5.88	-40.5	-41.7	20.3	0.00e+00	122	42	0	181403648	54	6011
2026-01-20 12:42:33.84	27.14	5.94	-41.1	-42.3	20.1	0.00e+00	122	42	0	184549376	54	6467
2026-01-20 12:42:34.85	27.23	5.99	-41.1	-42.4	19.8	0.00e+00	123	42	0	187695104	54	6533
2026-01-20 12:42:35.86	27.33	6.05	-40.6	-41.8	20.3	0.00e+00	120	42	0	190840832	54	6094
2026-01-20 12:42:36.88	27.43	6.11	-40.7	-41.9	20.1	0.00e+00	123	42	0	193986560	54	6181
2026-01-20 12:42:37.88	27.52	6.17	-39.9	-41.1	20.9	0.00e+00	123	42	0	197132288	54	5603
2026-01-20 12:42:38.90	27.62	6.23	-40.8	-42.0	20.2	0.00e+00	123	42	0	200278016	54	6241
2026-01-20 12:42:39.91	27.72	6.29	-40.3	-41.5	20.5	0.00e+00	123	42	0	203423744	54	5894
2026-01-20 12:42:40.92	27.81	6.35	-40.7	-41.9	20.2	0.00e+00	122	42	0	206569472	54	6135
2026-01-20 12:42:41.93	27.91	6.41	-39.6	-40.7	21.1	0.00e+00	120	42	0	209715200	54	5369
2026-01-20 12:42:42.94	28.01	6.47	-41.0	-42.2	19.8	0.00e+00	122	42	0	212860928	54	6386
2026-01-20 12:42:43.94	28.11	6.53	-40.3	-41.5	20.7	0.00e+00	122	42	0	216006656	54	5873
2026-01-20 12:42:44.96	28.21	6.59	-40.4	-41.6	20.4	0.00e+00	120	42	0	219152384	54	5985
2026-01-20 12:42:45.96	28.30	6.65	-40.3	-41.4	20.4	0.00e+00	122	42	0	222298112	54	5851
2026-01-20 12:42:46.97	28.40	6.71	-39.9	-41.0	21.0	0.00e+00	123	42	0	225443840	54	5559
2026-01-20 12:42:47.98	28.50	6.77	-41.0	-42.2	19.9	0.00e+00	123	42	0	228589568	54	6406
2026-01-20 12:42:48.99	28.60	6.83	-40.3	-41.5	20.7	0.00e+00	120	42	0	231735296	54	5896
2026-01-20 12:42:50.00	28.70	6.89	-40.7	-41.9	20.0	0.00e+00	122	42	0	234881024	54	6205
2026-01-20 12:42:51.01	28.81	6.95	-40.5	-41.7	20.4	0.00e+00	120	42	0	238026752	54	6027
2026-01-20 12:42:52.02	28.91	7.01	-40.3	-41.5	20.6	0.00e+00	123	42	0	241172480	54	5896
2026-01-20 12:42:53.03	29.01	7.07	-39.9	-41.0	21.1	0.00e+00	122	42	0	244318208	54	5549
2026-01-20 12:42:54.04	29.11	7.13	-40.3	-41.4	20.6	0.00e+00	123	42	0	247463936	54	5857
2026-01-20 12:42:55.05	29.21	7.19	-40.0	-41.1	20.9	0.00e+00	123	42	0	250609664	54	5610
2026-01-20 12:42:56.06	29.32	7.26	-40.6	-41.8	20.4	0.00e+00	122	42	0	253755392	54	6101
2026-01-20 12:42:57.07	29.42	7.32	-40.0	-41.1	21.0	0.00e+00	122	42	0	256901120	54	5626
2026-01-20 12:42:58.08	29.52	7.38	-40.1	-41.2	21.0	0.00e+00	123	42	0	260046848	52	6404
2026-01-20 12:42:59.09	29.63	7.44	-40.2	-41.3	21.0	0.00e+00	123	42	0	263192576	52	6444
2026-01-20 12:43:00.09	29.73	7.50	-40.1	-41.2	20.8	0.00e+00	120	42	0	266338304	52	6420
2026-01-20 12:43:01.10	29.84	7.56	-40.8	-42.0	20.2	0.00e+00	123	42	0	269484032	54	6228
2026-01-20 12:43:02.11	29.94	7.62	-40.3	-41.5	20.7	0.00e+00	120	42	0	272629760	54	5868
2026-01-20 12:43:03.12	30.05	7.68	-40.1	-41.2	20.9	0.00e+00	122	42	0	275775488	54	5722
2026-01-20 12:43:04.13	30.16	7.74	-39.4	-40.5	21.5	0.00e+00	123	42	0	278921216	52	5902
2026-01-20 12:43:05.14	30.26	7.80	-40.2	-41.3	20.8	0.00e+00	123	42	0	282066944	52	6493
2026-01-20 12:43:06.15	30.37	7.87	-39.8	-40.9	21.2	0.00e+00	122	42	0	285212672	52	6192
2026-01-20 12:43:07.16	30.48	7.93	-39.6	-40.7	21.4	0.00e+00	118	42	0	288358400	52	5996
2026-01-20 12:43:08.17	30.59	7.99	-39.8	-40.9	21.3	0.00e+00	122	42	0	291504128	52	6160
2026-01-20 12:43:09.18	30.69	8.05	-39.7	-40.8	21.2	0.00e+00	122	42	0	294649856	52	6094
2026-01-20 12:43:10.19	30.80	8.11	-40.1	-41.2	20.9	0.00e+00	123	42	0	297795584	52	6387
2026-01-20 12:43:11.20	30.91	8.17	-40.0	-41.1	21.1	0.00e+00	123	42	0	300941312	52	6318
2026-01-20 12:43:12.20	31.02	8.24	-39.7	-40.8	21.4	0.00e+00	120	42	0	304087040	52	6126
2026-01-20 12:43:13.22	31.13	8.30	-39.2	-40.2	21.8	0.00e+00	122	42	0	307232768	52	5709
2026-01-20 12:43:14.23	31.24	8.36	-39.7	-40.8	21.2	0.00e+00	123	42	0	310378496	52	6124
2026-01-20 12:43:15.23	31.36	8.42	-39.8	-40.9	21.3	0.00e+00	123	42	0	313524224	52	6170
2026-01-20 12:43:16.24	31.47	8.48	-40.0	-41.2	21.1	0.00e+00	123	42	0	316669952	52	6354
2026-01-20 12:43:17.26	31.58	8.55	-39.8	-40.9	21.4	0.00e+00	123	42	0	319815680	52	6169
2026-01-20 12:43:18.27	31.69	8.61	-39.5	-40.5	21.6	0.00e+00	122	42	0	322961408	52	5922
2026-01-20 12:43:19.28	31.81	8.67	-39.7	-40.8	21.4	0.00e+00	123	42	0	326107136	52	6095
2026-01-20 12:43:20.29	31.92	8.73	-39.3	-40.4	21.8	0.00e+00	123	42	0	329252864	52	5802
2026-01-20 12:43:21.30	32.03	8.80	-39.4	-40.4	21.8	0.00e+00	122	42	0	332398592	52	5842
2026-01-20 12:43:22.31	32.15	8.86	-39.3	-40.3	21.7	0.00e+00	123	42	0	335544320	52	5790
2026-01-20 12:43:23.32	32.26	8.92	-39.1	-40.1	21.9	0.00e+00	123	42	0	338690048	52	5641
2026-01-20 12:43:24.32	32.38	8.98	-39.3	-40.3	21.8	0.00e+00	123	42	0	341835776	52	5775
2026-01-20 12:43:25.33	32.49	9.04	-39.9	-41.0	21.2	0.00e+00	123	42	0	344981504	52	6230
2026-01-20 12:43:26.34	32.61	9.11	-39.4	-40.5	21.8	0.00e+00	123	42	0	348127232	52	5868
2026-01-20 12:43:27.35	32.73	9.17	-39.4	-40.5	21.5	0.00e+00	120	42	0	351272960	52	5879
2026-01-20 12:43:28.36	32.84	9.23	-38.9	-40.0	22.0	0.00e+00	122	42	0	354418688	52	5532
2026-01-20 12:43:29.36	32.96	9.29	-39.1	-40.2	21.8	0.00e+00	123	42	0	357564416	52	5678
2026-01-20 12:43:30.37	33.08	9.36	-38.8	-39.9	22.2	0.00e+00	123	42	0	360710144	50	6163
2026-01-20 12:43:31.38	33.20	9.42	-39.4	-40.5	21.7	0.00e+00	121	42	0	363855872	50	6619
2026-01-20 12:43:32.39	33.32	9.48	-39.2	-40.3	21.9	0.00e+00	123	42	0	367001600	52	5767
2026-01-20 12:43:33.40	33.44	9.55	-39.3	-40.3	21.8	0.00e+00	123	42	0	370147328	52	5787
2026-01-20 12:43:34.41	33.56	9.61	-39.5	-40.6	21.6	0.00e+00	120	42	0	373293056	52	5935
2026-01-20 12:43:35.42	33.68	9.67	-39.0	-40.0	22.1	0.00e+00	122	42	0	376438784	52	5559
2026-01-20 12:43:36.43	33.80	9.74	-38.9	-39.9	22.3	0.00e+00	120	42	0	379584512	52	5513
2026-01-20 12:43:37.44	33.92	9.80	-38.7	-39.7	22.2	0.00e+00	123	42	0	382730240	50	6019
2026-01-20 12:43:38.44	34.04	9.86	-39.7	-40.8	21.5	0.00e+00	123	42	0	385875968	50	6832
2026-01-20 12:43:39.46	34.17	9.93	-39.3	-40.3	21.8	0.00e+00	122	42	0	389021696	50	6496
2026-01-20 12:43:40.47	34.29	9.99	-39.1	-40.1	22.1	0.00e+00	123	42	0	392167424	50	6313
2026-01-20 12:43:41.48	34.41	10.05	-38.8	-39.8	22.2	0.00e+00	123	42	0	395313152	50	6111
2026-01-20 12:43:42.49	34.54	10.12	-39.2	-40.3	22.0	0.00e+00	122	42	0	398458880	50	6448
2026-01-20 12:43:43.50	34.66	10.18	-38.8	-39.8	22.3	0.00e+00	123	42	0	401604608	50	6088
2026-01-20 12:43:44.51	34.79	10.24	-38.6	-39.6	22.5	0.00e+00	123	42	0	404750336	50	5931
2026-01-20 12:43:45.52	34.92	10.31	-38.7	-39.7	22.5	0.00e+00	120	42	0	407896064	50	6019
2026-01-20 12:43:46.52	35.04	10.37	-38.2	-39.1	22.8	0.00e+00	123	42	0	411041792	50	5656
2026-01-20 12:43:47.53	35.17	10.43	-38.3	-39.3	22.7	0.00e+00	121	42	0	414187520	50	5758
2026-01-20 12:43:48.54	35.29	10.50	-38.5	-39.5	22.6	0.00e+00	124	42	0	417333248	50	5867
2026-01-20 12:43:49.55	35.42	10.56	-38.3	-39.3	22.6	0.00e+00	121	43	0	420478976	50	5734
2026-01-20 12:43:50.56	35.55	10.63	-38.5	-39.5	22.6	0.00e+00	122	42	0	423624704	50	5870
2026-01-20 12:43:51.56	35.68	10.69	-38.4	-39.4	22.5	0.00e+00	122	42	0	426770432	50	5838
2026-01-20 12:43:52.57	35.81	10.75	-38.5	-39.5	22.6	0.00e+00	122	42	0	429916160	50	5922
2026-01-20 12:43:53.58	35.94	10.82	-38.6	-39.6	22.6	0.00e+00	122	42	0	433061888	50	5967
2026-01-20 12:43:54.59	36.07	10.88	-38.5	-39.5	22.5	0.00e+00	123	42	0	436207616	50	5924
2026-01-20 12:43:55.60	36.20	10.95	-38.4	-39.4	22.6	0.00e+00	122	42	0	439353344	50	5828
2026-01-20 12:43:56.61	36.33	11.01	-38.7	-39.7	22.3	0.00e+00	122	42	0	442499072	50	6030
2026-01-20 12:43:57.62	36.47	11.07	-38.6	-39.6	22.4	0.00e+00	122	42	0	445644800	50	5943
2026-01-20 12:43:58.63	36.60	11.14	-38.2	-39.2	22.8	0.00e+00	122	42	0	448790528	50	5688
2026-01-20 12:43:59.64	36.73	11.20	-37.9	-38.9	23.0	0.00e+00	122	43	0	451936256	50	5476
2026-01-20 12:44:00.64	36.87	11.27	-38.5	-39.4	22.7	0.00e+00	121	42	0	455081984	50	5854
2026-01-20 12:44:01.65	37.00	11.33	-38.2	-39.2	22.8	0.00e+00	122	42	0	458227712	50	5714
2026-01-20 12:44:02.66	37.14	11.39	-38.2	-39.2	22.9	0.00e+00	123	43	0	461373440	50	5683
2026-01-20 12:44:03.67	37.27	11.46	-38.1	-39.1	22.9	0.00e+00	122	43	0	464519168	50	5622
2026-01-20 12:44:04.68	37.41	11.52	-38.5	-39.5	22.5	0.00e+00	123	43	0	467664896	50	5907
2026-01-20 12:44:05.69	37.54	11.59	-38.4	-39.5	22.6	0.00e+00	123	43	0	470810624	50	5867
2026-01-20 12:44:06.70	37.68	11.65	-38.5	-39.5	22.5	0.00e+00	122	42	0	473956352	50	5890
2026-01-20 12:44:07.71	37.82	11.72	-37.9	-38.9	23.0	0.00e+00	123	43	0	477102080	50	5513
2026-01-20 12:44:08.72	37.96	11.78	-38.0	-39.0	23.1	0.00e+00	123	43	0	480247808	50	5574
2026-01-20 12:44:09.73	38.10	11.85	-38.8	-39.9	22.3	0.00e+00	122	42	0	483393536	50	6139
2026-01-20 12:44:10.74	38.24	11.91	-38.7	-39.7	22.4	0.00e+00	121	42	0	486539264	50	6042
2026-01-20 12:44:11.75	38.38	11.97	-39.1	-40.2	22.0	0.00e+00	123	42	0	489684992	50	6385
2026-01-20 12:44:12.76	38.52	12.04	-38.3	-39.3	22.7	0.00e+00	122	42	0	492830720	50	5761
2026-01-20 12:44:13.76	38.66	12.10	-38.3	-39.3	22.8	0.00e+00	123	43	0	495976448	50	5788
2026-01-20 12:44:14.77	38.80	12.17	-38.5	-39.5	22.5	0.00e+00	122	43	0	499122176	50	5910
2026-01-20 12:44:15.78	38.95	12.23	-38.7	-39.7	22.6	0.00e+00	122	43	0	502267904	50	6012
2026-01-20 12:44:16.79	39.09	12.30	-38.1	-39.1	23.0	0.00e+00	123	42	0	505413632	50	5646
2026-01-20 12:44:17.80	39.23	12.36	-38.3	-39.3	22.8	0.00e+00	123	43	0	508559360	50	5768
2026-01-20 12:44:18.81	39.38	12.43	-38.3	-39.2	23.0	0.00e+00	122	43	0	512753664	50	5719
2026-01-20 12:44:19.82	39.52	12.49	-38.4	-39.4	22.7	0.00e+00	118	42	0	515899392	50	5800
2026-01-20 12:44:20.83	39.67	12.56	-38.2	-39.2	23.0	0.00e+00	123	43	0	517996544	50	5663
2026-01-20 12:44:21.84	39.82	12.62	-37.5	-38.5	23.4	0.00e+00	123	42	0	521142272	48	5871
2026-01-20 12:44:22.85	39.96	12.68	-38.1	-39.0	23.0	0.00e+00	123	43	0	524288000	48	6262
2026-01-20 12:44:23.86	40.11	12.75	-38.2	-39.2	22.9	0.00e+00	123	43	0	528482304	48	6389
2026-01-20 12:44:24.87	40.26	12.81	-38.0	-39.0	23.0	0.00e+00	123	43	0	531628032	48	6252
2026-01-20 12:44:25.88	40.41	12.88	-38.5	-39.5	22.6	0.00e+00	122	43	0	534773760	48	6591
2026-01-20 12:44:26.89	40.56	12.94	-38.2	-39.2	22.9	0.00e+00	123	43	0	537919488	48	6356
2026-01-20 12:44:27.90	40.71	13.01	-37.8	-38.8	23.2	0.00e+00	123	43	0	540016640	48	6100
2026-01-20 12:44:28.91	40.86	13.07	-37.8	-38.7	23.2	0.00e+00	123	43	0	544210944	48	6062
2026-01-20 12:44:29.92	41.01	13.14	-38.1	-39.1	22.9	0.00e+00	122	42	0	547356672	48	6288
2026-01-20 12:44:30.93	41.16	13.20	-38.2	-39.2	22.9	0.00e+00	123	43	0	550502400	48	6395
2026-01-20 12:44:31.94	41.32	13.27	-37.7	-38.6	23.3	0.00e+00	122	43	0	553648128	48	5973
2026-01-20 12:44:32.95	41.47	13.33	-38.0	-39.0	23.1	0.00e+00	122	43	0	556793856	48	6249
2026-01-20 12:44:33.96	41.63	13.40	-37.9	-38.9	23.1	0.00e+00	120	43	0	559939584	48	6149
2026-01-20 12:44:34.97	41.78	13.46	-37.9	-38.8	23.2	0.00e+00	120	43	0	563085312	48	6129
2026-01-20 12:44:35.98	41.94	13.53	-37.7	-38.6	23.4	0.00e+00	123	43	0	566231040	48	5991
2026-01-20 12:44:36.98	42.09	13.59	-37.7	-38.7	23.3	0.00e+00	123	43	0	569376768	48	6008
2026-01-20 12:44:38.00	42.25	13.65	-38.1	-39.1	23.0	0.00e+00	123	43	0	572522496	48	6320
2026-01-20 12:44:39.00	42.40	13.72	-37.9	-38.9	23.2	0.00e+00	122	43	0	575668224	48	6169
2026-01-20 12:44:40.02	42.56	13.78	-38.7	-39.7	22.6	0.00e+00	123	42	0	578813952	48	6745
2026-01-20 12:44:41.02	42.72	13.85	-38.5	-39.4	22.8	0.00e+00	123	43	0	581959680	48	6568
2026-01-20 12:44:42.04	42.88	13.91	-38.5	-39.5	22.9	0.00e+00	122	43	0	585105408	48	6589
2026-01-20 12:44:43.05	43.04	13.98	-38.7	-39.7	22.1	0.00e+00	123	43	0	588251136	48	6762
2026-01-20 12:44:44.05	43.20	14.04	-38.1	-39.1	23.1	0.00e+00	122	43	0	591396864	50	5598
2026-01-20 12:44:45.06	43.36	14.10	-37.6	-38.5	23.3	0.00e+00	123	43	0	594542592	48	5909
2026-01-20 12:44:46.07	43.53	14.17	-37.7	-38.6	23.4	0.00e+00	122	43	0	597688320	48	5977
2026-01-20 12:44:47.08	43.69	14.23	-37.5	-38.5	23.4	0.00e+00	120	43	0	600834048	48	5867
2026-01-20 12:44:48.09	43.85	14.30	-37.6	-38.6	23.4	0.00e+00	120	43	0	603979776	48	5956
2026-01-20 12:44:49.10	44.02	14.36	-37.8	-38.8	23.2	0.00e+00	123	43	0	607125504	48	6065
2026-01-20 12:44:50.11	44.18	14.43	-37.8	-38.7	23.2	0.00e+00	123	43	0	610271232	48	6050
2026-01-20 12:44:51.12	44.35	14.49	-37.7	-38.7	23.1	0.00e+00	122	43	0	613416960	48	5995
2026-01-20 12:44:52.12	44.51	14.55	-37.5	-38.5	23.4	0.00e+00	122	43	0	616562688	48	5877
2026-01-20 12:44:53.13	44.68	14.62	-37.7	-38.6	23.2	0.00e+00	123	43	0	619708416	48	5990
2026-01-20 12:44:54.15	44.85	14.68	-37.9	-38.9	23.1	0.00e+00	122	43	0	622854144	48	6161
2026-01-20 12:44:55.16	45.02	14.75	-37.6	-38.5	23.3	0.00e+00	123	43	0	625999872	48	5921
2026-01-20 12:44:56.16	45.19	14.81	-37.5	-38.5	23.5	0.00e+00	122	42	0	629145600	48	5878
2026-01-20 12:44:57.17	45.36	14.87	-37.6	-38.6	23.3	0.00e+00	122	42	0	632291328	48	5957
2026-01-20 12:44:58.18	45.53	14.94	-37.6	-38.5	23.4	0.00e+00	123	42	0	635437056	48	5920
2026-01-20 12:44:59.19	45.70	15.00	-37.6	-38.6	23.4	0.00e+00	123	43	0	638582784	48	5954
2026-01-20 12:45:00.20	45.87	15.06	-37.9	-38.9	23.2	0.00e+00	120	43	0	641728512	48	6183
2026-01-20 12:45:01.20	46.04	15.13	-37.8	-38.8	23.2	0.00e+00	122	43	0	644874240	48	6074
2026-01-20 12:45:02.21	46.21	15.19	-37.8	-38.7	23.3	0.00e+00	123	42	0	648019968	48	6064
2026-01-20 12:45:03.22	46.39	15.25	-37.7	-38.6	23.5	0.00e+00	122	42	0	651165696	48	5958
2026-01-20 12:45:04.23	46.56	15.32	-37.4	-38.3	23.7	0.00e+00	123	43	0	654311424	48	5760
2026-01-20 12:45:05.23	46.74	15.38	-37.5	-38.5	23.5	0.00e+00	123	43	0	657457152	48	5866
2026-01-20 12:45:06.24	46.91	15.44	-37.6	-38.5	23.5	0.00e+00	122	43	0	660602880	48	5923
2026-01-20 12:45:07.25	47.09	15.51	-37.8	-38.8	23.3	0.00e+00	123	42	0	663748608	48	6074
2026-01-20 12:45:08.26	47.27	15.57	-37.8	-38.7	23.4	0.00e+00	123	43	0	666894336	48	6045
2026-01-20 12:45:09.27	47.45	15.63	-37.7	-38.6	23.5	0.00e+00	123	43	0	670040064	48	5976
2026-01-20 12:45:10.28	47.63	15.69	-37.9	-38.8	23.2	0.00e+00	123	43	0	673185792	48	6111
2026-01-20 12:45:11.28	47.80	15.76	-37.9	-38.9	23.2	0.00e+00	122	43	0	676331520	48	6154
2026-01-20 12:45:12.29	47.98	15.82	-38.2	-39.1	23.1	0.00e+00	120	43	0	679477248	48	6337
2026-01-20 12:45:13.31	48.17	15.88	-38.0	-39.0	23.3	0.00e+00	123	43	0	682622976	48	6214
2026-01-20 12:45:14.31	48.35	15.94	-37.8	-38.8	23.3	0.00e+00	123	43	0	685768704	48	6077
2026-01-20 12:45:15.32	48.53	16.01	-37.8	-38.8	23.3	0.00e+00	123	43	0	688914432	48	6084
2026-01-20 12:45:16.33	48.71	16.07	-37.8	-38.8	23.3	0.00e+00	120	43	0	692060160	48	6073
2026-01-20 12:45:17.34	48.90	16.13	-37.7	-38.7	23.4	0.00e+00	122	43	0	695205888	48	6014
2026-01-20 12:45:18.35	49.08	16.19	-37.9	-38.9	23.3	0.00e+00	120	43	0	698351616	48	6158
2026-01-20 12:45:19.36	49.27	16.25	-37.7	-38.7	23.4	0.00e+00	123	43	0	701497344	48	5999
2026-01-20 12:45:20.37	49.46	16.31	-37.8	-38.7	23.4	0.00e+00	123	43	0	704643072	48	6048
2026-01-20 12:45:21.38	49.64	16.38	-38.0	-38.9	23.3	0.00e+00	123	43	0	707788800	48	6205
2026-01-20 12:45:22.39	49.83	16.44	-37.8	-38.8	23.4	0.00e+00	123	43	0	710934528	48	6079
2026-01-20 12:45:23.39	50.02	16.50	-37.6	-38.5	23.6	0.00e+00	123	43	0	714080256	48	5899
2026-01-20 12:45:24.40	50.21	16.56	-37.8	-38.7	23.5	0.00e+00	123	43	0	717225984	48	6055
2026-01-20 12:45:25.41	50.40	16.62	-37.4	-38.3	23.7	0.00e+00	123	42	0	720371712	48	5790
2026-01-20 12:45:26.42	50.59	16.68	-37.4	-38.3	23.7	0.00e+00	123	43	0	723517440	48	5787
2026-01-20 12:45:27.43	50.78	16.74	-37.4	-38.3	23.7	0.00e+00	123	42	0	726663168	48	5753
2026-01-20 12:45:28.44	50.97	16.80	-37.3	-38.3	23.6	0.00e+00	123	42	0	729808896	48	5750
2026-01-20 12:45:29.44	51.17	16.86	-37.6	-38.6	23.3	0.00e+00	123	43	0	732954624	48	5965
2026-01-20 12:45:30.46	51.36	16.92	-37.6	-38.6	23.3	0.00e+00	122	42	0	736100352	48	5955
2026-01-20 12:45:31.47	51.56	16.98	-37.8	-38.8	23.3	0.00e+00	120	43	0	739246080	48	6112
2026-01-20 12:45:32.48	51.75	17.04	-37.8	-38.8	23.3	0.00e+00	120	42	0	742391808	48	6081
2026-01-20 12:45:33.48	51.95	17.10	-38.2	-39.2	22.9	0.00e+00	123	43	0	745537536	48	6398
2026-01-20 12:45:34.49	52.14	17.16	-38.2	-39.2	23.1	0.00e+00	120	43	0	748683264	48	6353
2026-01-20 12:45:35.50	52.34	17.22	-38.0	-38.9	23.3	0.00e+00	122	42	0	751828992	48	6176
2026-01-20 12:45:36.51	52.54	17.28	-37.9	-38.8	23.3	0.00e+00	123	42	0	754974720	48	6108
2026-01-20 12:45:37.52	52.74	17.34	-37.8	-38.7	23.4	0.00e+00	120	42	0	758120448	48	6046
2026-01-20 12:45:38.53	52.94	17.40	-37.5	-38.5	23.6	0.00e+00	123	42	0	761266176	48	5862
2026-01-20 12:45:39.54	53.14	17.45	-37.4	-38.3	23.6	0.00e+00	122	42	0	764411904	48	5778
2026-01-20 12:45:40.55	53.34	17.51	-37.4	-38.3	23.6	0.00e+00	120	42	0	767557632	48	5790
2026-01-20 12:45:41.56	53.55	17.57	-37.3	-38.3	23.7	0.00e+00	123	42	0	770703360	48	5730
2026-01-20 12:45:42.57	53.75	17.63	-37.4	-38.3	23.6	0.00e+00	120	43	0	773849088	48	5779
2026-01-20 12:45:43.58	53.95	17.69	-37.4	-38.3	23.6	0.00e+00	123	42	0	776994816	48	5750
2026-01-20 12:45:44.59	54.16	17.74	-37.2	-38.1	23.8	0.00e+00	123	43	0	780140544	48	5630
2026-01-20 12:45:45.60	54.36	17.80	-37.4	-38.3	23.5	0.00e+00	122	43	0	783286272	48	5787
2026-01-20 12:45:46.61	54.57	17.86	-37.3	-38.3	23.7	0.00e+00	122	43	0	786432000	48	5748
2026-01-20 12:45:47.62	54.78	17.92	-37.4	-38.3	23.7	0.00e+00	120	43	0	789577728	48	5774
2026-01-20 12:45:48.63	54.98	17.97	-37.3	-38.3	23.7	0.00e+00	123	43	0	792723456	48	5736
2026-01-20 12:45:49.64	55.19	18.03	-37.4	-38.3	23.7	0.00e+00	122	42	0	795869184	48	5768
2026-01-20 12:45:50.65	55.40	18.09	-37.6	-38.5	23.5	0.00e+00	120	43	0	799014912	48	5917
2026-01-20 12:45:51.66	55.61	18.14	-37.6	-38.5	23.6	0.00e+00	122	43	0	802160640	48	5895
2026-01-20 12:45:52.66	55.82	18.20	-37.6	-38.5	23.5	0.00e+00	122	43	0	805306368	48	5899
2026-01-20 12:45:53.68	56.04	18.25	-37.3	-38.2	23.8	0.00e+00	123	43	0	808452096	48	5677
2026-01-20 12:45:54.68	56.25	18.31	-37.3	-38.2	23.8	0.00e+00	122	43	0	811597824	48	5684
2026-01-20 12:45:55.69	56.46	18.36	-37.2	-38.1	23.8	0.00e+00	122	43	0	814743552	48	5611
2026-01-20 12:45:56.69	56.67	18.42	-37.1	-38.0	23.8	0.00e+00	123	42	0	817889280	48	5590
2026-01-20 12:45:57.71	56.89	18.47	-37.2	-38.1	23.8	0.00e+00	123	43	0	821035008	48	5646
2026-01-20 12:45:58.72	57.10	18.52	-37.4	-38.3	23.6	0.00e+00	123	43	0	824180736	48	5771
2026-01-20 12:45:59.72	57.32	18.58	-37.2	-38.2	23.8	0.00e+00	120	43	0	827326464	48	5662
2026-01-20 12:46:00.73	57.53	18.63	-37.4	-38.3	23.7	0.00e+00	122	43	0	830472192	48	5777
2026-01-20 12:46:01.74	57.75	18.69	-37.5	-38.4	23.7	0.00e+00	123	43	0	833617920	48	5850
2026-01-20 12:46:02.76	57.97	18.74	-37.6	-38.6	23.6	0.00e+00	120	42	0	836763648	48	5955
2026-01-20 12:46:03.76	58.19	18.79	-37.6	-38.6	23.5	0.00e+00	123	43	0	839909376	48	5935
2026-01-20 12:46:04.77	58.41	18.84	-37.4	-38.3	23.8	0.00e+00	123	43	0	843055104	48	5773
2026-01-20 12:46:05.78	58.63	18.90	-37.1	-38.0	23.9	0.00e+00	123	43	0	846200832	48	5565
2026-01-20 12:46:06.79	58.85	18.95	-37.1	-38.0	23.9	0.00e+00	122	43	0	849346560	48	5579
2026-01-20 12:46:07.80	59.07	19.00	-37.1	-38.0	24.0	0.00e+00	120	42	0	852492288	48	5546
2026-01-20 12:46:08.80	59.29	19.05	-37.2	-38.1	23.8	0.00e+00	123	43	0	855638016	48	5631
2026-01-20 12:46:09.82	59.52	19.10	-37.3	-38.2	23.7	0.00e+00	120	43	0	858783744	48	5705
2026-01-20 12:46:10.82	59.74	19.15	-37.4	-38.4	23.7	0.00e+00	122	42	0	861929472	48	5802
2026-01-20 12:46:11.83	59.97	19.20	-37.1	-38.0	23.9	0.00e+00	122	43	0	865075200	48	5584
2026-01-20 12:46:12.84	60.19	19.25	-37.1	-38.1	23.9	0.00e+00	122	42	0	868220928	48	5600
2026-01-20 12:46:13.85	60.42	19.30	-36.8	-37.7	24.2	0.00e+00	122	42	0	871366656	48	5400
2026-01-20 12:46:14.86	60.64	19.35	-36.9	-37.8	24.1	0.00e+00	123	42	0	874512384	48	5445
2026-01-20 12:46:15.87	60.87	19.40	-36.8	-37.7	24.2	0.00e+00	120	43	0	877658112	48	5399
2026-01-20 12:46:16.88	61.10	19.45	-36.8	-37.7	24.1	0.00e+00	122	43	0	880803840	48	5401
2026-01-20 12:46:17.89	61.33	19.50	-36.8	-37.7	24.2	0.00e+00	122	43	0	883949568	48	5398
2026-01-20 12:46:18.90	61.56	19.54	-36.9	-37.8	24.1	0.00e+00	121	43	0	887095296	48	5419
2026-01-20 12:46:19.91	61.79	19.59	-36.9	-37.8	24.1	0.00e+00	123	43	0	890241024	48	5426
2026-01-20 12:46:20.91	62.02	19.64	-37.1	-38.0	23.9	0.00e+00	122	43	0	893386752	48	5555
2026-01-20 12:46:21.92	62.25	19.68	-36.9	-37.8	24.1	0.00e+00	122	43	0	896532480	48	5448
2026-01-20 12:46:22.94	62.49	19.73	-36.8	-37.7	24.1	0.00e+00	123	43	0	899678208	48	5369
2026-01-20 12:46:23.95	62.72	19.78	-36.7	-37.6	24.4	0.00e+00	123	43	0	902823936	46	5961
2026-01-20 12:46:24.96	62.96	19.82	-36.8	-37.8	24.2	0.00e+00	122	43	0	905969664	46	6070
2026-01-20 12:46:25.96	63.19	19.87	-36.7	-37.6	24.2	0.00e+00	122	42	0	909115392	46	5927
2026-01-20 12:46:26.97	63.42	19.91	-36.6	-37.5	24.3	0.00e+00	121	43	0	912261120	46	5900
2026-01-20 12:46:27.98	63.66	19.96	-36.7	-37.6	24.2	0.00e+00	123	43	0	915406848	46	5983
2026-01-20 12:46:28.99	63.90	20.00	-36.7	-37.6	24.1	0.00e+00	121	43	0	918552576	46	5986
2026-01-20 12:46:30.00	64.13	20.05	-37.1	-38.0	24.1	0.00e+00	122	42	0	921698304	46	6220
2026-01-20 12:46:31.01	64.37	20.09	-37.0	-37.9	24.0	0.00e+00	123	42	0	925892608	46	6154
2026-01-20 12:46:32.02	64.61	20.13	-37.0	-37.9	24.1	0.00e+00	123	42	0	927989760	46	6165
2026-01-20 12:46:33.03	64.85	20.17	-36.9	-37.8	24.1	0.00e+00	120	43	0	931135488	46	6109
2026-01-20 12:46:34.04	65.09	20.22	-36.9	-37.8	24.2	0.00e+00	122	43	0	934281216	46	6116
2026-01-20 12:46:35.05	65.33	20.26	-36.7	-37.6	24.2	0.00e+00	122	43	0	937426944	46	5945
2026-01-20 12:46:36.06	65.57	20.30	-36.7	-37.6	24.3	0.00e+00	122	43	0	941621248	46	5939
2026-01-20 12:46:37.07	65.82	20.34	-37.0	-37.9	24.1	0.00e+00	123	42	0	944766976	46	6146
2026-01-20 12:46:38.08	66.06	20.38	-36.7	-37.6	24.2	0.00e+00	122	43	0	947912704	46	5977
2026-01-20 12:46:39.09	66.30	20.42	-36.9	-37.8	24.0	0.00e+00	122	43	0	951058432	46	6120
2026-01-20 12:46:40.09	66.54	20.46	-37.0	-38.0	24.1	0.00e+00	121	43	0	953155584	46	6214
2026-01-20 12:46:41.11	66.79	20.50	-37.1	-38.0	24.0	0.00e+00	123	43	0	957349888	46	6247
2026-01-20 12:46:42.12	67.04	20.54	-36.8	-37.7	24.2	0.00e+00	122	43	0	960495616	46	6055
2026-01-20 12:46:43.13	67.28	20.57	-36.8	-37.7	24.3	0.00e+00	123	42	0	963641344	46	6044
2026-01-20 12:46:44.14	67.53	20.61	-36.6	-37.5	24.4	0.00e+00	122	42	0	966787072	46	5904
2026-01-20 12:46:45.14	67.77	20.65	-36.6	-37.5	24.4	0.00e+00	122	42	0	969932800	46	5909
2026-01-20 12:46:46.15	68.02	20.68	-36.7	-37.6	24.2	0.00e+00	123	43	0	973078528	46	5968
2026-01-20 12:46:47.16	68.27	20.72	-36.8	-37.7	24.2	0.00e+00	123	42	0	976224256	46	6057
2026-01-20 12:46:48.17	68.52	20.76	-36.8	-37.8	24.1	0.00e+00	123	42	0	979369984	46	6072
2026-01-20 12:46:49.18	68.77	20.79	-36.5	-37.4	24.3	0.00e+00	122	42	0	982515712	46	5857
2026-01-20 12:46:50.19	69.02	20.83	-36.7	-37.7	24.3	0.00e+00	122	43	0	985661440	46	5995
2026-01-20 12:46:51.20	69.27	20.86	-36.5	-37.4	24.4	0.00e+00	123	43	0	988807168	46	5795
2026-01-20 12:46:52.21	69.52	20.89	-36.8	-37.7	24.3	0.00e+00	123	43	0	991952896	46	6033
2026-01-20 12:46:53.22	69.77	20.93	-36.7	-37.6	24.3	0.00e+00	123	43	0	995098624	46	5977
2026-01-20 12:46:54.23	70.02	20.96	-36.8	-37.7	24.2	0.00e+00	123	43	0	998244352	46	6016
2026-01-20 12:46:55.24	70.27	20.99	-36.7	-37.7	24.3	0.00e+00	123	43	0	1001390080	46	5998
2026-01-20 12:46:56.25	70.53	21.02	-37.1	-38.0	23.9	0.00e+00	123	43	0	1004535808	46	6257
2026-01-20 12:46:57.26	70.78	21.05	-36.9	-37.8	24.1	0.00e+00	123	42	0	1007681536	46	6131
2026-01-20 12:46:58.27	71.03	21.09	-36.9	-37.8	24.2	0.00e+00	123	43	0	1010827264	46	6086
2026-01-20 12:46:59.28	71.29	21.12	-36.8	-37.8	24.2	0.00e+00	123	42	0	1013972992	46	6073
2026-01-20 12:47:00.29	71.54	21.15	-36.8	-37.7	24.2	0.00e+00	123	43	0	1017118720	46	6034
2026-01-20 12:47:01.30	71.80	21.17	-36.7	-37.6	24.3	0.00e+00	123	43	0	1020264448	46	5944
2026-01-20 12:47:02.31	72.05	21.20	-37.0	-37.9	24.0	0.00e+00	123	43	0	1023410176	46	6194
2026-01-20 12:47:03.32	72.31	21.23	-36.8	-37.7	24.3	0.00e+00	123	43	0	1026555904	46	6023
2026-01-20 12:47:04.33	72.57	21.26	-36.7	-37.6	24.2	0.00e+00	121	43	0	1029701632	46	5988
2026-01-20 12:47:05.34	72.83	21.28	-37.0	-37.9	24.1	0.00e+00	122	42	0	1032847360	46	6191
2026-01-20 12:47:06.34	73.08	21.31	-36.9	-37.8	24.1	0.00e+00	120	42	0	1035993088	46	6094
2026-01-20 12:47:07.36	73.34	21.34	-37.0	-38.0	23.9	0.00e+00	123	42	0	1039138816	46	6210
2026-01-20 12:47:08.36	73.60	21.36	-36.8	-37.7	24.3	0.00e+00	123	43	0	1042284544	46	6033
2026-01-20 12:47:09.37	73.86	21.39	-36.8	-37.7	24.2	0.00e+00	122	42	0	1045430272	46	6014
2026-01-20 12:47:10.38	74.12	21.41	-36.5	-37.4	24.5	0.00e+00	123	42	0	1048576000	46	5843
2026-01-20 12:47:11.39	74.38	21.43	-36.6	-37.5	24.4	0.00e+00	123	43	0	1051721728	46	5910
2026-01-20 12:47:12.40	74.64	21.46	-36.6	-37.5	24.4	0.00e+00	123	43	0	1054867456	46	5889
2026-01-20 12:47:13.41	74.90	21.48	-36.5	-37.4	24.6	0.00e+00	123	42	0	1058013184	46	5797
2026-01-20 12:47:14.42	75.16	21.50	-36.4	-37.3	24.5	0.00e+00	122	42	0	1061158912	46	5780
2026-01-20 12:47:15.43	75.42	21.52	-36.6	-37.4	24.4	0.00e+00	122	42	0	1064304640	46	5856
2026-01-20 12:47:16.44	75.68	21.54	-36.4	-37.3	24.6	0.00e+00	123	42	0	1067450368	46	5758
2026-01-20 12:47:17.45	75.94	21.56	-36.4	-37.3	24.5	0.00e+00	123	43	0	1070596096	46	5783
2026-01-20 12:47:18.46	76.20	21.58	-36.4	-37.3	24.5	0.00e+00	123	42	0	1073741824	46	5759
2026-01-20 12:47:19.47	76.47	21.60	-36.7	-37.6	24.4	0.00e+00	122	42	0	1076887552	46	5957
2026-01-20 12:47:20.48	76.73	21.62	-36.7	-37.6	24.4	0.00e+00	120	42	0	1080033280	46	5941
2026-01-20 12:47:21.48	76.99	21.64	-36.6	-37.5	24.5	0.00e+00	120	43	0	1083179008	46	5891
2026-01-20 12:47:22.49	77.26	21.65	-36.6	-37.5	24.3	0.00e+00	122	42	0	1086324736	46	5924
2026-01-20 12:47:23.50	77.52	21.67	-36.7	-37.6	24.3	0.00e+00	123	42	0	1089470464	46	5973
2026-01-20 12:47:24.51	77.78	21.69	-36.8	-37.8	24.2	0.00e+00	123	43	0	1092616192	46	6085
2026-01-20 12:47:25.52	78.05	21.70	-36.6	-37.5	24.4	0.00e+00	123	42	0	1095761920	46	5859
2026-01-20 12:47:26.53	78.31	21.72	-36.7	-37.6	24.3	0.00e+00	120	42	0	1098907648	46	5981
2026-01-20 12:47:27.54	78.58	21.73	-36.4	-37.3	24.5	0.00e+00	123	43	0	1102053376	46	5747
2026-01-20 12:47:28.55	78.84	21.74	-36.3	-37.2	24.6	0.00e+00	122	43	0	1105199104	46	5674
2026-01-20 12:47:29.56	79.11	21.76	-36.3	-37.2	24.6	0.00e+00	120	43	0	1108344832	46	5705
2026-01-20 12:47:30.57	79.37	21.77	-36.4	-37.3	24.5	0.00e+00	123	43	0	1111490560	46	5769
2026-01-20 12:47:31.58	79.64	21.78	-36.5	-37.3	24.5	0.00e+00	123	42	0	1114636288	46	5788
2026-01-20 12:47:32.59	79.91	21.79	-36.4	-37.3	24.6	0.00e+00	120	42	0	1117782016	46	5786
2026-01-20 12:47:33.60	80.17	21.80	-36.3	-37.2	24.7	0.00e+00	123	42	0	1120927744	46	5711
2026-01-20 12:47:34.61	80.44	21.81	-36.6	-37.5	24.5	0.00e+00	123	42	0	1124073472	46	5895
2026-01-20 12:47:35.62	80.70	21.82	-36.5	-37.4	24.6	0.00e+00	123	43	0	1127219200	46	5819
2026-01-20 12:47:36.63	80.97	21.83	-36.5	-37.4	24.6	0.00e+00	122	42	0	1130364928	46	5806
2026-01-20 12:47:37.64	81.24	21.84	-36.5	-37.4	24.5	0.00e+00	123	42	0	1133510656	46	5807
2026-01-20 12:47:38.65	81.51	21.85	-36.5	-37.4	24.6	0.00e+00	123	42	0	1136656384	46	5797
2026-01-20 12:47:39.66	81.77	21.85	-36.4	-37.3	24.6	0.00e+00	122	42	0	1139802112	46	5768
2026-01-20 12:47:40.67	82.04	21.86	-36.4	-37.3	24.7	0.00e+00	123	42	0	1142947840	46	5765
2026-01-20 12:47:41.68	82.31	21.86	-36.5	-37.4	24.5	0.00e+00	122	43	0	1146093568	46	5831
2026-01-20 12:47:42.69	82.57	21.87	-36.5	-37.4	24.4	0.00e+00	123	42	0	1149239296	46	5843
2026-01-20 12:47:43.70	82.84	21.87	-36.8	-37.8	24.3	0.00e+00	122	42	0	1152385024	46	6078
2026-01-20 12:47:44.71	83.11	21.88	-37.3	-38.2	24.0	0.00e+00	123	43	0	1155530752	46	6387
2026-01-20 12:47:45.72	83.38	21.88	-36.8	-37.7	24.2	0.00e+00	123	42	0	1158676480	46	6034
2026-01-20 12:47:46.73	83.64	21.88	-36.9	-37.8	24.2	0.00e+00	123	43	0	1161822208	46	6105
2026-01-20 12:47:47.74	83.91	21.88	-36.9	-37.8	24.1	0.00e+00	122	42	0	1164967936	46	6090
2026-01-20 12:47:48.75	84.18	21.88	-36.7	-37.7	24.4	0.00e+00	123	42	0	1168113664	46	5999
2026-01-20 12:47:49.76	84.45	21.89	-37.0	-37.9	24.1	0.00e+00	122	43	0	1171259392	46	6191
2026-01-20 12:47:50.76	84.71	21.88	-36.7	-37.7	24.3	0.00e+00	123	42	0	1174405120	46	6019
2026-01-20 12:47:51.77	84.98	21.88	-36.6	-37.6	24.4	0.00e+00	122	43	0	1177550848	46	5943
2026-01-20 12:47:52.78	85.25	21.88	-36.5	-37.4	24.5	0.00e+00	122	42	0	1180696576	46	5838
2026-01-20 12:47:53.79	85.52	21.88	-37.0	-38.0	24.2	0.00e+00	123	42	0	1183842304	46	6212
2026-01-20 12:47:54.80	85.78	21.88	-36.9	-37.8	24.2	0.00e+00	123	43	0	1186988032	46	6097
2026-01-20 12:47:55.81	86.05	21.87	-36.4	-37.3	24.5	0.00e+00	123	42	0	1190133760	46	5739
2026-01-20 12:47:56.82	86.32	21.87	-36.5	-37.4	24.4	0.00e+00	123	42	0	1193279488	46	5825
2026-01-20 12:47:57.83	86.59	21.87	-36.4	-37.2	24.5	0.00e+00	120	42	0	1196425216	46	5720
2026-01-20 12:47:58.84	86.85	21.86	-36.5	-37.4	24.5	0.00e+00	123	43	0	1199570944	46	5841
2026-01-20 12:47:59.85	87.12	21.85	-36.6	-37.5	24.5	0.00e+00	123	42	0	1202716672	46	5891
2026-01-20 12:48:00.86	87.39	21.85	-36.3	-37.1	24.8	0.00e+00	122	43	0	1205862400	46	5637
2026-01-20 12:48:01.87	87.66	21.84	-36.3	-37.2	24.8	0.00e+00	123	42	0	1209008128	46	5698
2026-01-20 12:48:02.88	87.92	21.83	-36.4	-37.3	24.4	0.00e+00	122	42	0	1212153856	46	5755
2026-01-20 12:48:03.89	88.19	21.83	-36.6	-37.4	24.5	0.00e+00	122	43	0	1215299584	46	5858
2026-01-20 12:48:04.90	88.46	21.82	-36.8	-37.7	24.3	0.00e+00	121	42	0	1218445312	46	6054
2026-01-20 12:48:05.91	88.72	21.81	-36.9	-37.8	24.2	0.00e+00	123	42	0	1221591040	46	6118
2026-01-20 12:48:06.92	88.99	21.80	-36.6	-37.5	24.5	0.00e+00	123	42	0	1224736768	46	5894
2026-01-20 12:48:07.93	89.26	21.79	-36.5	-37.4	24.4	0.00e+00	120	42	0	1227882496	46	5828
2026-01-20 12:48:08.94	89.52	21.77	-36.3	-37.2	24.6	0.00e+00	123	42	0	1231028224	46	5675
2026-01-20 12:48:09.95	89.79	21.76	-36.5	-37.4	24.5	0.00e+00	120	42	0	1234173952	46	5834
2026-01-20 12:48:10.96	90.05	21.75	-36.5	-37.4	24.5	0.00e+00	123	42	0	1237319680	46	5822
2026-01-20 12:48:11.96	90.32	21.74	-36.4	-37.3	24.5	0.00e+00	120	42	0	1240465408	46	5771
2026-01-20 12:48:12.97	90.58	21.72	-36.6	-37.5	24.5	0.00e+00	122	43	0	1243611136	46	5921
2026-01-20 12:48:13.98	90.85	21.71	-36.3	-37.2	24.6	0.00e+00	122	42	0	1246756864	46	5690
2026-01-20 12:48:14.99	91.11	21.69	-36.3	-37.2	24.7	0.00e+00	121	42	0	1249902592	46	5696
2026-01-20 12:48:16.00	91.38	21.68	-36.5	-37.4	24.6	0.00e+00	120	42	0	1253048320	46	5814
2026-01-20 12:48:17.00	91.64	21.66	-36.5	-37.4	24.5	0.00e+00	123	42	0	1256194048	46	5825
2026-01-20 12:48:18.01	91.90	21.64	-36.4	-37.3	24.5	0.00e+00	123	43	0	1259339776	46	5784
2026-01-20 12:48:19.02	92.17	21.63	-36.7	-37.6	24.3	0.00e+00	122	43	0	1262485504	46	5946
2026-01-20 12:48:20.03	92.43	21.61	-36.6	-37.5	24.5	0.00e+00	122	42	0	1265631232	46	5863
2026-01-20 12:48:21.04	92.69	21.59	-36.6	-37.5	24.5	0.00e+00	123	43	0	1268776960	46	5890
2026-01-20 12:48:22.04	92.95	21.57	-36.6	-37.5	24.5	0.00e+00	123	42	0	1271922688	46	5887
2026-01-20 12:48:23.05	93.22	21.55	-36.7	-37.6	24.4	0.00e+00	123	43	0	1275068416	46	5976
2026-01-20 12:48:24.06	93.48	21.53	-36.6	-37.5	24.3	0.00e+00	120	42	0	1278214144	46	5894
2026-01-20 12:48:25.08	93.74	21.51	-36.7	-37.6	24.3	0.00e+00	123	42	0	1281359872	46	5990
2026-01-20 12:48:26.09	94.01	21.49	-36.7	-37.6	24.3	0.00e+00	122	42	0	1284505600	46	5988
2026-01-20 12:48:27.10	94.27	21.47	-36.6	-37.5	24.4	0.00e+00	123	43	0	1287651328	46	5904
2026-01-20 12:48:28.10	94.52	21.44	-36.3	-37.1	24.6	0.00e+00	122	42	0	1290797056	46	5658
2026-01-20 12:48:29.11	94.79	21.42	-36.5	-37.4	24.5	0.00e+00	123	43	0	1293942784	46	5846
2026-01-20 12:48:30.12	95.05	21.40	-36.6	-37.5	24.4	0.00e+00	120	42	0	1297088512	46	5889
2026-01-20 12:48:31.13	95.31	21.37	-36.5	-37.4	24.4	0.00e+00	122	42	0	1300234240	46	5845
2026-01-20 12:48:32.14	95.56	21.35	-36.6	-37.5	24.4	0.00e+00	122	42	0	1303379968	46	5898
2026-01-20 12:48:33.15	95.82	21.32	-36.5	-37.5	24.4	0.00e+00	122	42	0	1306525696	46	5867
2026-01-20 12:48:34.16	96.08	21.29	-36.7	-37.6	24.3	0.00e+00	122	42	0	1310720000	46	5994
2026-01-20 12:48:35.16	96.34	21.27	-37.1	-38.0	24.1	0.00e+00	122	42	0	1313865728	46	6235
2026-01-20 12:48:36.17	96.59	21.24	-37.0	-37.9	24.0	0.00e+00	122	42	0	1315962880	46	6168
2026-01-20 12:48:37.18	96.85	21.21	-37.3	-38.2	23.9	0.00e+00	123	42	0	1319108608	46	6366
2026-01-20 12:48:38.19	97.11	21.18	-36.4	-37.3	24.5	0.00e+00	122	43	0	1322254336	46	5782
2026-01-20 12:48:39.20	97.37	21.16	-36.4	-37.3	24.5	0.00e+00	122	42	0	1325400064	46	5766
2026-01-20 12:48:40.21	97.62	21.13	-36.5	-37.4	24.4	0.00e+00	123	42	0	1329594368	46	5846
2026-01-20 12:48:41.22	97.88	21.10	-36.5	-37.5	24.4	0.00e+00	122	42	0	1332740096	46	5867
2026-01-20 12:48:42.23	98.13	21.07	-36.4	-37.3	24.5	0.00e+00	123	42	0	1335885824	46	5781
2026-01-20 12:48:43.24	98.39	21.04	-36.5	-37.4	24.3	0.00e+00	121	42	0	1339031552	46	5810
2026-01-20 12:48:44.25	98.64	21.00	-36.6	-37.5	24.3	0.00e+00	123	42	0	1341128704	46	5900
2026-01-20 12:48:45.26	98.89	20.97	-36.3	-37.2	24.6	0.00e+00	123	42	0	1345323008	46	5717
2026-01-20 12:48:46.27	99.15	20.94	-36.3	-37.2	24.5	0.00e+00	122	43	0	1348468736	46	5713
2026-01-20 12:48:47.28	99.40	20.91	-36.5	-37.4	24.4	0.00e+00	123	42	0	1351614464	46	5846
2026-01-20 12:48:48.28	99.65	20.87	-36.9	-37.8	24.1	0.00e+00	122	42	0	1354760192	46	6121
2026-01-20 12:48:49.29	99.90	20.84	-36.6	-37.5	24.4	0.00e+00	120	42	0	1357905920	46	5874
2026-01-20 12:48:50.30	100.15	20.80	-36.5	-37.4	24.5	0.00e+00	123	42	0	1361051648	46	5826
2026-01-20 12:48:51.31	100.40	20.77	-36.5	-37.5	24.4	0.00e+00	120	42	0	1364197376	46	5868
2026-01-20 12:48:52.32	100.65	20.73	-36.4	-37.3	24.5	0.00e+00	123	42	0	1367343104	46	5757
2026-01-20 12:48:53.33	100.90	20.70	-36.6	-37.6	24.3	0.00e+00	123	42	0	1370488832	46	5938
2026-01-20 12:48:54.34	101.15	20.66	-36.5	-37.4	24.5	0.00e+00	123	42	0	1373634560	46	5837
2026-01-20 12:48:55.35	101.39	20.62	-36.5	-37.4	24.5	0.00e+00	123	42	0	1376780288	46	5838
2026-01-20 12:48:56.36	101.64	20.59	-36.3	-37.2	24.6	0.00e+00	123	42	0	1379926016	46	5678
2026-01-20 12:48:57.37	101.89	20.55	-36.6	-37.4	24.3	0.00e+00	122	42	0	1383071744	46	5857
2026-01-20 12:48:58.38	102.13	20.51	-36.3	-37.2	24.4	0.00e+00	123	42	0	1386217472	46	5709
2026-01-20 12:48:59.39	102.38	20.47	-36.7	-37.6	24.1	0.00e+00	122	42	0	1389363200	46	5983
2026-01-20 12:49:00.40	102.62	20.43	-37.0	-37.9	24.1	0.00e+00	123	42	0	1392508928	46	6168
2026-01-20 12:49:01.41	102.87	20.39	-37.0	-38.0	24.0	0.00e+00	120	42	0	1395654656	46	6220
2026-01-20 12:49:02.42	103.11	20.35	-37.3	-38.2	23.8	0.00e+00	123	42	0	1398800384	46	6404
2026-01-20 12:49:03.43	103.36	20.31	-37.7	-38.6	23.4	0.00e+00	123	42	0	1401946112	48	5985
2026-01-20 12:49:04.44	103.60	20.27	-38.1	-39.0	23.2	0.00e+00	120	42	0	1405091840	48	6266
2026-01-20 12:49:05.45	103.84	20.23	-37.5	-38.4	23.7	0.00e+00	123	42	0	1408237568	48	5841
2026-01-20 12:49:06.46	104.08	20.19	-37.4	-38.3	23.6	0.00e+00	120	42	0	1411383296	48	5760
2026-01-20 12:49:07.47	104.32	20.14	-37.3	-38.2	23.7	0.00e+00	123	42	0	1414529024	48	5708
2026-01-20 12:49:08.48	104.56	20.10	-37.6	-38.5	23.3	0.00e+00	123	42	0	1417674752	48	5899
2026-01-20 12:49:09.48	104.80	20.06	-37.7	-38.7	23.2	0.00e+00	122	42	0	1420820480	48	6006
2026-01-20 12:49:10.49	105.04	20.01	-38.2	-39.2	23.1	0.00e+00	120	42	0	1423966208	48	6397
2026-01-20 12:49:11.50	105.28	19.97	-37.8	-38.8	23.3	0.00e+00	122	42	0	1427111936	48	6080
2026-01-20 12:49:12.51	105.51	19.92	-37.0	-37.9	24.0	0.00e+00	123	42	0	1430257664	48	5520
2026-01-20 12:49:13.52	105.75	19.88	-37.1	-38.0	24.0	0.00e+00	121	42	0	1433403392	48	5577
2026-01-20 12:49:14.53	105.99	19.83	-36.7	-37.7	24.1	0.00e+00	123	43	0	1436549120	48	5350
2026-01-20 12:49:15.54	106.22	19.79	-36.8	-37.7	24.2	0.00e+00	122	42	0	1439694848	46	6038
2026-01-20 12:49:16.55	106.46	19.74	-36.9	-37.9	24.0	0.00e+00	123	42	0	1442840576	46	6145
2026-01-20 12:49:17.56	106.69	19.70	-36.7	-37.6	24.1	0.00e+00	122	42	0	1445986304	46	5985
2026-01-20 12:49:18.57	106.92	19.65	-36.9	-37.8	23.9	0.00e+00	122	42	0	1449132032	46	6096
2026-01-20 12:49:19.58	107.15	19.60	-37.0	-37.9	24.0	0.00e+00	123	42	0	1452277760	46	6174
2026-01-20 12:49:20.59	107.39	19.55	-36.9	-37.8	24.1	0.00e+00	123	43	0	1455423488	46	6098
2026-01-20 12:49:21.60	107.62	19.51	-36.8	-37.8	24.2	0.00e+00	123	42	0	1458569216	46	6073
2026-01-20 12:49:22.61	107.85	19.46	-36.9	-37.8	24.0	0.00e+00	122	43	0	1461714944	46	6088
2026-01-20 12:49:23.62	108.08	19.41	-36.8	-37.8	24.0	0.00e+00	123	43	0	1464860672	46	6077
2026-01-20 12:49:24.63	108.31	19.36	-37.0	-38.0	24.0	0.00e+00	122	42	0	1468006400	46	6206
2026-01-20 12:49:25.64	108.54	19.31	-37.3	-38.2	23.8	0.00e+00	123	43	0	1471152128	46	6383
2026-01-20 12:49:26.65	108.76	19.26	-37.4	-38.3	23.7	0.00e+00	123	43	0	1474297856	46	6448
2026-01-20 12:49:27.66	108.99	19.21	-37.5	-38.4	23.5	0.00e+00	123	43	0	1477443584	46	6542
2026-01-20 12:49:28.67	109.22	19.16	-36.8	-37.7	24.1	0.00e+00	120	42	0	1480589312	46	6054
2026-01-20 12:49:29.68	109.44	19.11	-36.5	-37.4	24.4	0.00e+00	123	42	0	1483735040	46	5811
2026-01-20 12:49:30.69	109.67	19.06	-36.5	-37.4	24.3	0.00e+00	123	43	0	1486880768	46	5824
2026-01-20 12:49:31.70	109.89	19.01	-36.4	-37.3	24.4	0.00e+00	123	42	0	1490026496	46	5757
2026-01-20 12:49:32.71	110.11	18.96	-36.4	-37.3	24.4	0.00e+00	123	42	0	1493172224	46	5744
2026-01-20 12:49:33.72	110.34	18.90	-36.4	-37.3	24.5	0.00e+00	122	42	0	1496317952	46	5769
2026-01-20 12:49:34.73	110.56	18.85	-36.6	-37.5	24.3	0.00e+00	123	42	0	1499463680	46	5909
2026-01-20 12:49:35.73	110.78	18.80	-36.5	-37.4	24.4	0.00e+00	123	43	0	1502609408	46	5828
2026-01-20 12:49:36.74	111.00	18.75	-36.6	-37.5	24.5	0.00e+00	120	42	0	1505755136	46	5874
2026-01-20 12:49:37.75	111.22	18.69	-36.6	-37.5	24.4	0.00e+00	122	42	0	1508900864	46	5888
2026-01-20 12:49:38.76	111.43	18.64	-36.9	-37.8	24.1	0.00e+00	123	42	0	1512046592	46	6096
2026-01-20 12:49:39.77	111.65	18.59	-36.7	-37.5	24.3	0.00e+00	123	42	0	1515192320	46	5923
2026-01-20 12:49:40.78	111.87	18.53	-36.8	-37.7	24.2	0.00e+00	123	42	0	1518338048	46	6005
2026-01-20 12:49:41.79	112.09	18.48	-36.9	-37.9	24.0	0.00e+00	122	42	0	1521483776	46	6141
2026-01-20 12:49:42.80	112.30	18.42	-36.9	-37.8	24.1	0.00e+00	123	42	0	1524629504	46	6114
2026-01-20 12:49:43.81	112.52	18.37	-37.0	-37.9	24.0	0.00e+00	121	42	0	1527775232	46	6179
2026-01-20 12:49:44.82	112.73	18.31	-37.0	-38.0	24.0	0.00e+00	122	42	0	1530920960	46	6219
2026-01-20 12:49:45.83	112.94	18.26	-37.1	-38.0	23.9	0.00e+00	120	43	0	1534066688	46	6255
2026-01-20 12:49:46.84	113.16	18.20	-36.8	-37.8	24.1	0.00e+00	122	42	0	1537212416	46	6066
2026-01-20 12:49:47.85	113.37	18.14	-36.7	-37.6	24.2	0.00e+00	123	43	0	1540358144	46	5965
2026-01-20 12:49:48.86	113.58	18.09	-36.7	-37.6	24.1	0.00e+00	123	42	0	1543503872	46	5959
2026-01-20 12:49:49.87	113.79	18.03	-36.8	-37.7	24.1	0.00e+00	123	43	0	1546649600	46	6051
2026-01-20 12:49:50.87	114.00	17.98	-36.8	-37.7	24.1	0.00e+00	120	43	0	1549795328	46	6020
2026-01-20 12:49:51.88	114.21	17.92	-36.9	-37.8	24.1	0.00e+00	122	43	0	1552941056	46	6086
2026-01-20 12:49:52.89	114.42	17.86	-37.0	-37.9	24.0	0.00e+00	122	42	0	1556086784	46	6152
2026-01-20 12:49:53.90	114.62	17.80	-37.0	-37.9	24.0	0.00e+00	123	43	0	1559232512	46	6157
2026-01-20 12:49:54.91	114.83	17.75	-37.1	-38.1	23.9	0.00e+00	122	42	0	1562378240	46	6297
2026-01-20 12:49:55.92	115.04	17.69	-37.5	-38.4	23.6	0.00e+00	121	42	0	1565523968	46	6554
2026-01-20 12:49:56.93	115.24	17.63	-37.5	-38.4	23.5	0.00e+00	123	42	0	1568669696	46	6569
2026-01-20 12:49:57.93	115.44	17.57	-37.7	-38.7	23.3	0.00e+00	123	43	0	1571815424	46	6758
2026-01-20 12:49:58.94	115.65	17.51	-37.6	-38.6	23.5	0.00e+00	123	42	0	1574961152	46	6668
2026-01-20 12:49:59.95	115.85	17.46	-37.4	-38.3	23.6	0.00e+00	122	42	0	1578106880	46	6481
2026-01-20 12:50:00.96	116.05	17.40	-37.2	-38.1	23.8	0.00e+00	123	43	0	1581252608	46	6338
2026-01-20 12:50:01.97	116.25	17.34	-36.8	-37.7	24.1	0.00e+00	123	43	0	1584398336	46	6021
2026-01-20 12:50:02.97	116.45	17.28	-37.0	-37.9	23.9	0.00e+00	120	42	0	1587544064	46	6151
2026-01-20 12:50:03.98	116.65	17.22	-36.9	-37.8	23.9	0.00e+00	122	42	0	1590689792	46	6128
2026-01-20 12:50:04.99	116.85	17.16	-37.0	-37.9	23.9	0.00e+00	120	42	0	1593835520	46	6182
2026-01-20 12:50:06.00	117.05	17.10	-37.1	-38.0	23.8	0.00e+00	122	42	0	1596981248	46	6270
2026-01-20 12:50:07.01	117.25	17.04	-36.9	-37.8	24.1	0.00e+00	123	42	0	1600126976	46	6096
2026-01-20 12:50:08.02	117.44	16.98	-37.0	-38.0	23.9	0.00e+00	122	42	0	1603272704	46	6213
2026-01-20 12:50:09.04	117.64	16.92	-37.3	-38.3	23.6	0.00e+00	122	42	0	1606418432	46	6440
2026-01-20 12:50:10.05	117.84	16.86	-37.2	-38.1	23.7	0.00e+00	120	42	0	1609564160	46	6332
2026-01-20 12:50:11.05	118.03	16.80	-37.4	-38.3	23.6	0.00e+00	121	42	0	1612709888	46	6481
2026-01-20 12:50:12.07	118.22	16.74	-37.1	-38.1	23.8	0.00e+00	123	42	0	1615855616	46	6303
2026-01-20 12:50:13.07	118.41	16.68	-37.3	-38.3	23.6	0.00e+00	123	42	0	1619001344	46	6429
2026-01-20 12:50:14.08	118.61	16.61	-37.3	-38.3	23.6	0.00e+00	123	43	0	1622147072	46	6429
2026-01-20 12:50:15.09	118.80	16.55	-37.5	-38.5	23.4	0.00e+00	122	43	0	1625292800	46	6615
2026-01-20 12:50:16.10	118.99	16.49	-37.6	-38.6	23.2	0.00e+00	123	42	0	1628438528	48	5957
2026-01-20 12:50:17.11	119.18	16.43	-37.5	-38.5	23.3	0.00e+00	120	42	0	1631584256	48	5891
2026-01-20 12:50:18.12	119.37	16.37	-37.8	-38.7	23.2	0.00e+00	122	43	0	1634729984	48	6064
2026-01-20 12:50:19.14	119.56	16.31	-38.1	-39.1	22.9	0.00e+00	122	42	0	1637875712	48	6291
2026-01-20 12:50:20.14	119.74	16.24	-38.1	-39.0	23.0	0.00e+00	120	42	0	1641021440	48	6276
2026-01-20 12:50:21.15	119.93	16.18	-38.6	-39.6	22.4	0.00e+00	122	42	0	1644167168	48	6708
2026-01-20 12:50:22.16	120.12	16.12	-38.9	-40.0	22.3	0.00e+00	123	42	0	1647312896	50	6209
2026-01-20 12:50:23.17	120.30	16.06	-37.5	-38.5	23.3	0.00e+00	122	42	0	1650458624	48	5895
2026-01-20 12:50:24.18	120.49	16.00	-37.9	-38.9	23.1	0.00e+00	122	42	0	1653604352	48	6159
2026-01-20 12:50:25.19	120.67	15.93	-37.6	-38.5	23.4	0.00e+00	120	43	0	1656750080	48	5918
2026-01-20 12:50:26.20	120.85	15.87	-37.7	-38.7	23.3	0.00e+00	120	42	0	1659895808	48	6000
2026-01-20 12:50:27.21	121.04	15.81	-37.3	-38.2	23.7	0.00e+00	122	42	0	1663041536	48	5704
2026-01-20 12:50:28.22	121.22	15.74	-37.0	-37.9	23.9	0.00e+00	120	42	0	1666187264	48	5506
2026-01-20 12:50:29.23	121.40	15.68	-37.4	-38.4	23.6	0.00e+00	123	42	0	1669332992	48	5816
2026-01-20 12:50:30.24	121.58	15.62	-37.2	-38.1	23.7	0.00e+00	122	42	0	1672478720	48	5650
2026-01-20 12:50:31.24	121.76	15.56	-37.3	-38.3	23.6	0.00e+00	123	42	0	1675624448	48	5741
2026-01-20 12:50:32.25	121.94	15.49	-37.4	-38.3	23.6	0.00e+00	122	42	0	1678770176	48	5772
2026-01-20 12:50:33.26	122.11	15.43	-37.4	-38.3	23.6	0.00e+00	123	42	0	1681915904	48	5785
2026-01-20 12:50:34.27	122.29	15.36	-37.6	-38.5	23.4	0.00e+00	120	42	0	1685061632	48	5922
2026-01-20 12:50:35.28	122.47	15.30	-37.3	-38.3	23.6	0.00e+00	123	43	0	1688207360	48	5737
2026-01-20 12:50:36.29	122.64	15.24	-37.2	-38.1	23.7	0.00e+00	121	43	0	1691353088	48	5623
2026-01-20 12:50:37.30	122.82	15.17	-37.4	-38.4	23.5	0.00e+00	123	42	0	1694498816	48	5806
2026-01-20 12:50:38.31	122.99	15.11	-37.2	-38.2	23.6	0.00e+00	121	42	0	1698693120	48	5684
2026-01-20 12:50:39.32	123.17	15.05	-37.3	-38.2	23.7	0.00e+00	122	42	0	1701838848	48	5724
2026-01-20 12:50:40.33	123.34	14.98	-37.1	-38.1	23.8	0.00e+00	123	42	0	1703936000	48	5599
2026-01-20 12:50:41.34	123.51	14.92	-37.0	-38.0	23.9	0.00e+00	123	42	0	1707081728	48	5533
2026-01-20 12:50:42.35	123.68	14.85	-36.9	-37.8	23.9	0.00e+00	122	43	0	1710227456	48	5428
2026-01-20 12:50:43.36	123.85	14.79	-37.1	-38.0	23.9	0.00e+00	122	43	0	1714421760	48	5568
2026-01-20 12:50:44.37	124.02	14.72	-37.0	-37.9	23.8	0.00e+00	122	42	0	1717567488	48	5509
2026-01-20 12:50:45.38	124.19	14.66	-37.0	-37.9	23.7	0.00e+00	123	42	0	1720713216	48	5503
2026-01-20 12:50:46.39	124.36	14.60	-36.6	-37.6	24.1	0.00e+00	123	42	0	1723858944	46	5929
2026-01-20 12:50:47.40	124.53	14.53	-37.0	-37.9	23.8	0.00e+00	120	42	0	1725956096	46	6160
2026-01-20 12:50:48.40	124.70	14.47	-37.1	-38.1	23.8	0.00e+00	122	42	0	1730150400	46	6290
2026-01-20 12:50:49.42	124.86	14.40	-37.0	-38.0	23.8	0.00e+00	122	42	0	1733296128	46	6207
2026-01-20 12:50:50.43	125.03	14.34	-37.3	-38.2	23.7	0.00e+00	123	42	0	1736441856	46	6378
2026-01-20 12:50:51.44	125.19	14.27	-37.2	-38.2	23.7	0.00e+00	122	42	0	1739587584	46	6359
2026-01-20 12:50:52.44	125.36	14.21	-37.7	-38.6	23.2	0.00e+00	123	42	0	1742733312	46	6713
2026-01-20 12:50:53.45	125.52	14.14	-37.4	-38.4	23.6	0.00e+00	122	42	0	1745879040	46	6500
2026-01-20 12:50:54.46	125.68	14.08	-37.5	-38.4	23.5	0.00e+00	122	43	0	1749024768	46	6540
2026-01-20 12:50:55.47	125.85	14.01	-37.6	-38.6	23.3	0.00e+00	122	42	0	1752170496	46	6667
2026-01-20 12:50:56.48	126.01	13.95	-37.6	-38.5	23.3	0.00e+00	123	42	0	1755316224	48	5902
2026-01-20 12:50:57.49	126.17	13.88	-37.8	-38.8	23.1	0.00e+00	123	43	0	1758461952	48	6081
2026-01-20 12:50:58.50	126.33	13.82	-37.7	-38.6	23.2	0.00e+00	122	43	0	1761607680	48	5975
2026-01-20 12:50:59.51	126.49	13.75	-37.8	-38.7	23.2	0.00e+00	123	43	0	1764753408	48	6047
2026-01-20 12:51:00.52	126.65	13.69	-37.9	-38.9	23.0	0.00e+00	122	43	0	1767899136	48	6176
2026-01-20 12:51:01.53	126.81	13.62	-38.0	-39.0	23.0	0.00e+00	122	43	0	1771044864	48	6247
2026-01-20 12:51:02.54	126.96	13.56	-37.6	-38.6	23.2	0.00e+00	120	43	0	1774190592	48	5935
2026-01-20 12:51:03.56	127.12	13.49	-37.8	-38.8	23.0	0.00e+00	122	42	0	1777336320	48	6112
2026-01-20 12:51:04.56	127.28	13.43	-37.8	-38.8	22.9	0.00e+00	122	42	0	1780482048	48	6119
2026-01-20 12:51:05.57	127.43	13.36	-38.0	-39.0	22.9	0.00e+00	123	42	0	1783627776	48	6269
2026-01-20 12:51:06.58	127.59	13.30	-38.1	-39.1	22.8	0.00e+00	122	42	0	1786773504	48	6301
2026-01-20 12:51:07.59	127.74	13.23	-37.8	-38.8	23.1	0.00e+00	123	43	0	1789919232	48	6110
2026-01-20 12:51:08.60	127.90	13.17	-38.3	-39.3	22.7	0.00e+00	122	43	0	1793064960	48	6457
2026-01-20 12:51:09.61	128.05	13.10	-38.0	-39.0	22.9	0.00e+00	123	42	0	1796210688	48	6215
2026-01-20 12:51:10.62	128.20	13.04	-38.1	-39.1	22.9	0.00e+00	123	43	0	1799356416	48	6289
2026-01-20 12:51:11.62	128.35	12.97	-37.8	-38.8	23.1	0.00e+00	123	43	0	1802502144	48	6096
2026-01-20 12:51:12.63	128.50	12.91	-38.1	-39.1	22.8	0.00e+00	122	43	0	1805647872	48	6286
2026-01-20 12:51:13.64	128.65	12.84	-38.1	-39.1	22.9	0.00e+00	123	43	0	1808793600	48	6292
2026-01-20 12:51:14.65	128.80	12.78	-37.9	-38.9	23.0	0.00e+00	120	43	0	1811939328	48	6140
2026-01-20 12:51:15.66	128.95	12.71	-38.0	-38.9	22.9	0.00e+00	122	42	0	1815085056	48	6199
2026-01-20 12:51:16.67	129.10	12.65	-37.8	-38.8	23.1	0.00e+00	123	42	0	1818230784	48	6116
2026-01-20 12:51:17.67	129.25	12.58	-38.0	-39.0	22.9	0.00e+00	122	42	0	1821376512	48	6248
2026-01-20 12:51:18.68	129.39	12.52	-37.9	-38.9	23.1	0.00e+00	123	43	0	1824522240	48	6148
2026-01-20 12:51:19.70	129.54	12.45	-38.3	-39.2	22.8	0.00e+00	123	43	0	1827667968	48	6421
2026-01-20 12:51:20.71	129.69	12.39	-37.9	-38.8	23.0	0.00e+00	123	42	0	1830813696	48	6130
2026-01-20 12:51:21.72	129.83	12.32	-38.0	-38.9	23.0	0.00e+00	120	42	0	1833959424	48	6180
2026-01-20 12:51:22.72	129.98	12.26	-38.0	-38.9	23.0	0.00e+00	122	42	0	1837105152	48	6196
2026-01-20 12:51:23.73	130.12	12.19	-38.3	-39.3	22.6	0.00e+00	123	42	0	1840250880	48	6450
2026-01-20 12:51:24.74	130.26	12.12	-38.8	-39.8	22.3	0.00e+00	123	43	0	1843396608	48	6827
2026-01-20 12:51:25.75	130.41	12.06	-38.8	-39.9	22.3	0.00e+00	122	43	0	1846542336	50	6147
2026-01-20 12:51:26.76	130.55	11.99	-38.4	-39.4	22.6	0.00e+00	123	42	0	1849688064	50	5820
2026-01-20 12:51:27.77	130.69	11.93	-38.4	-39.4	22.6	0.00e+00	123	42	0	1852833792	50	5846
2026-01-20 12:51:28.78	130.83	11.86	-38.4	-39.5	22.5	0.00e+00	123	42	0	1855979520	50	5863
2026-01-20 12:51:29.79	130.97	11.80	-38.4	-39.4	22.6	0.00e+00	123	43	0	1859125248	50	5793
2026-01-20 12:51:30.80	131.11	11.73	-38.7	-39.7	22.3	0.00e+00	122	43	0	1862270976	50	6036
2026-01-20 12:51:31.80	131.25	11.67	-38.5	-39.5	22.4	0.00e+00	122	43	0	1865416704	50	5877
2026-01-20 12:51:32.81	131.39	11.60	-38.2	-39.2	22.8	0.00e+00	120	43	0	1868562432	50	5675
2026-01-20 12:51:33.82	131.53	11.54	-38.2	-39.2	22.6	0.00e+00	122	42	0	1871708160	50	5678
2026-01-20 12:51:34.83	131.67	11.47	-37.9	-38.9	22.8	0.00e+00	123	42	0	1874853888	50	5509
2026-01-20 12:51:35.84	131.80	11.41	-38.3	-39.3	22.5	0.00e+00	120	42	0	1877999616	50	5759
2026-01-20 12:51:36.85	131.94	11.34	-38.1	-39.0	22.7	0.00e+00	120	43	0	1881145344	50	5587
2026-01-20 12:51:37.86	132.07	11.28	-38.2	-39.2	22.6	0.00e+00	122	43	0	1884291072	50	5697
2026-01-20 12:51:38.87	132.21	11.21	-38.4	-39.4	22.5	0.00e+00	123	42	0	1887436800	50	5848
2026-01-20 12:51:39.88	132.34	11.15	-38.2	-39.2	22.5	0.00e+00	123	43	0	1890582528	50	5690
2026-01-20 12:51:40.89	132.48	11.09	-38.5	-39.5	22.3	0.00e+00	123	43	0	1893728256	50	5891
2026-01-20 12:51:41.90	132.61	11.02	-38.7	-39.7	22.1	0.00e+00	120	43	0	1896873984	50	6058
2026-01-20 12:51:42.91	132.74	10.96	-39.0	-40.0	22.0	0.00e+00	122	42	0	1900019712	50	6265
2026-01-20 12:51:43.92	132.88	10.89	-39.4	-40.5	21.6	0.00e+00	122	43	0	1903165440	50	6592
2026-01-20 12:51:44.92	133.01	10.83	-39.0	-40.0	22.0	0.00e+00	123	42	0	1906311168	50	6266
2026-01-20 12:51:45.93	133.14	10.76	-39.0	-40.1	21.9	0.00e+00	122	43	0	1909456896	50	6301
2026-01-20 12:51:46.94	133.27	10.70	-38.9	-39.9	22.1	0.00e+00	120	42	0	1912602624	50	6189
2026-01-20 12:51:47.95	133.40	10.63	-38.6	-39.7	22.3	0.00e+00	123	42	0	1915748352	50	6000
2026-01-20 12:51:48.96	133.53	10.57	-38.7	-39.7	22.2	0.00e+00	127	43	0	1918894080	50	6022
2026-01-20 12:51:49.97	133.66	10.50	-38.3	-39.3	22.5	0.00e+00	123	42	0	1922039808	50	5776
2026-01-20 12:51:50.98	133.79	10.44	-38.7	-39.7	22.2	0.00e+00	123	43	0	1925185536	50	6046
2026-01-20 12:51:51.99	133.91	10.38	-38.4	-39.4	22.4	0.00e+00	123	43	0	1928331264	50	5848
2026-01-20 12:51:53.00	134.04	10.31	-38.5	-39.5	22.3	0.00e+00	123	42	0	1931476992	50	5874
2026-01-20 12:51:54.00	134.17	10.25	-38.7	-39.7	22.2	0.00e+00	123	42	0	1934622720	50	6063
2026-01-20 12:51:55.01	134.29	10.18	-38.7	-39.8	22.1	0.00e+00	123	43	0	1937768448	50	6106
2026-01-20 12:51:56.02	134.42	10.12	-38.9	-39.9	21.9	0.00e+00	123	42	0	1940914176	50	6168
2026-01-20 12:51:57.03	134.55	10.05	-38.9	-39.9	21.9	0.00e+00	120	42	0	1944059904	50	6181
2026-01-20 12:51:58.04	134.67	9.99	-39.2	-40.3	21.8	0.00e+00	123	43	0	1947205632	50	6444
2026-01-20 12:51:59.05	134.79	9.93	-39.1	-40.1	21.5	0.00e+00	123	42	0	1950351360	50	6344
2026-01-20 12:52:00.06	134.92	9.86	-39.0	-40.0	21.9	0.00e+00	123	43	0	1953497088	50	6269
2026-01-20 12:52:01.07	135.04	9.80	-38.9	-40.0	21.9	0.00e+00	122	42	0	1956642816	50	6218
2026-01-20 12:52:02.08	135.16	9.73	-39.3	-40.4	21.5	0.00e+00	120	43	0	1959788544	50	6507
2026-01-20 12:52:03.09	135.29	9.67	-38.6	-39.7	22.2	0.00e+00	123	43	0	1962934272	50	6008
2026-01-20 12:52:04.10	135.41	9.61	-39.0	-40.1	21.8	0.00e+00	122	43	0	1966080000	50	6320
2026-01-20 12:52:05.11	135.53	9.54	-38.9	-39.9	21.9	0.00e+00	123	43	0	1969225728	50	6200
2026-01-20 12:52:06.12	135.65	9.48	-38.3	-39.3	22.4	0.00e+00	123	43	0	1972371456	50	5780
2026-01-20 12:52:07.13	135.77	9.42	-38.5	-39.5	22.3	0.00e+00	122	43	0	1975517184	50	5867
2026-01-20 12:52:08.14	135.89	9.35	-38.8	-39.8	22.1	0.00e+00	123	42	0	1978662912	50	6080
2026-01-20 12:52:09.15	136.01	9.29	-38.7	-39.7	22.1	0.00e+00	123	42	0	1981808640	50	6036
2026-01-20 12:52:10.16	136.13	9.23	-38.4	-39.4	22.3	0.00e+00	123	43	0	1984954368	50	5852
2026-01-20 12:52:11.17	136.24	9.16	-38.8	-39.8	22.1	0.00e+00	122	43	0	1988100096	50	6098
