passes_logs/2026/01/20/R4.6S_Anadyr/R4.6S_Anadyr__20260120_230622_SUOMI_NPP_rec.log

#Pass ID: 20260120_230622_SUOMI NPP
#Satellite: SUOMI NPP
#Configuration: NPP
#almurnet v.1.7.20251203
#Start time: 2026-01-20 23:06:27

#Version: 2.2.20231116
#Station: R4.6S_Anadyr
#Location: 177.4865 lon 64.73178 lat
#TLE: 1 37849U 11061A   26020.31993517  .00000142  00000+0  88240-4 0  9990
#TLE: 2 37849  98.7818 322.3228 0002330  54.3778 305.7615 14.19527005737466

#Time	Az	El	Level	Level2	SNR	BER	BlckErr	Temp	State	Recorded	gain1	gain2
2026-01-20 23:06:27.76	127.10	0.29	-51.6	-53.2	5.7	0.00e+00	0	39	0	0	60	55797
2026-01-20 23:06:28.77	127.07	0.35	-51.3	-66.5	3.5	1.51e+00	0	40	104	0	60	76339
2026-01-20 23:06:29.78	127.04	0.41	-51.3	-66.5	3.6	1.51e+00	0	40	104	0	60	76340
2026-01-20 23:06:30.79	127.02	0.47	-51.3	-66.5	3.6	1.51e+00	0	40	104	0	60	76279
2026-01-20 23:06:31.80	126.99	0.53	-51.3	-66.5	3.6	1.51e+00	0	40	104	0	60	76512
2026-01-20 23:06:32.81	126.96	0.59	-51.3	-66.5	3.6	1.51e+00	0	41	104	0	60	76388
2026-01-20 23:06:33.82	126.93	0.65	-51.2	-66.4	3.6	1.51e+00	0	40	104	0	60	75483
2026-01-20 23:06:34.83	126.90	0.71	-51.2	-66.4	3.5	1.51e+00	0	40	104	0	60	75781
2026-01-20 23:06:35.84	126.87	0.77	-51.2	-66.4	3.6	1.51e+00	0	41	104	0	60	75517
2026-01-20 23:06:36.85	126.84	0.83	-51.1	-66.4	3.6	1.51e+00	0	41	104	0	60	75295
2026-01-20 23:06:37.86	126.80	0.89	-51.1	-66.4	3.6	1.51e+00	0	41	104	0	60	75275
2026-01-20 23:06:38.87	126.77	0.95	-51.1	-66.4	3.6	1.51e+00	0	41	104	0	60	75219
2026-01-20 23:06:39.88	126.74	1.01	-51.0	-66.3	3.6	1.51e+00	0	41	104	0	60	74336
2026-01-20 23:06:40.89	126.71	1.07	-50.8	-66.2	3.6	1.51e+00	0	41	104	0	60	73478
2026-01-20 23:06:41.90	126.68	1.13	-51.0	-66.1	3.6	1.51e+00	0	41	104	0	60	73175
2026-01-20 23:06:42.91	126.65	1.20	-50.7	-66.0	3.6	1.51e+00	0	41	104	0	60	72409
2026-01-20 23:06:43.92	126.62	1.26	-50.8	-65.9	3.6	1.51e+00	0	41	104	0	60	71605
2026-01-20 23:06:44.93	126.59	1.32	-50.7	-65.9	3.6	1.51e+00	0	41	104	0	60	70996
2026-01-20 23:06:45.94	126.56	1.38	-50.5	-65.7	3.6	1.51e+00	0	41	104	0	60	69939
2026-01-20 23:06:46.95	126.52	1.44	-50.4	-65.5	3.6	1.51e+00	0	41	104	0	60	67895
2026-01-20 23:06:47.96	126.49	1.50	-50.1	-65.3	3.6	1.51e+00	0	41	104	0	60	66454
2026-01-20 23:06:48.97	126.46	1.57	-49.7	-64.9	3.5	1.51e+00	0	41	104	0	60	63656
2026-01-20 23:06:49.98	126.43	1.63	-49.7	-64.9	3.6	1.51e+00	0	41	104	0	60	63302
2026-01-20 23:06:50.99	126.40	1.69	-49.7	-64.9	3.6	1.51e+00	0	41	104	0	60	63625
2026-01-20 23:06:52.00	126.36	1.75	-49.7	-64.9	3.6	1.51e+00	0	41	104	0	60	63640
2026-01-20 23:06:53.01	126.33	1.82	-49.7	-64.9	3.6	1.51e+00	0	41	104	0	60	63886
2026-01-20 23:06:54.02	126.30	1.88	-49.7	-64.9	3.6	1.51e+00	0	41	104	0	60	63510
2026-01-20 23:06:55.03	126.26	1.94	-49.7	-64.9	3.6	1.51e+00	0	41	104	0	60	63698
2026-01-20 23:06:56.04	126.23	2.00	-49.7	-64.9	3.6	1.51e+00	0	41	104	0	60	63403
2026-01-20 23:06:57.05	126.20	2.07	-49.7	-64.9	3.6	1.51e+00	0	41	104	0	60	63632
2026-01-20 23:06:58.06	126.16	2.13	-49.7	-64.7	3.6	1.51e+00	0	41	104	0	60	62099
2026-01-20 23:06:59.07	126.13	2.19	-49.7	-64.8	3.6	1.51e+00	0	41	104	0	60	62479
2026-01-20 23:07:00.08	126.10	2.26	-49.7	-64.6	3.6	1.51e+00	0	41	104	0	60	61529
2026-01-20 23:07:01.09	126.06	2.32	-49.7	-64.7	3.6	1.51e+00	0	41	104	0	60	62132
2026-01-20 23:07:02.10	126.03	2.39	-49.7	-64.7	3.6	1.51e+00	0	41	104	0	60	61893
2026-01-20 23:07:03.12	126.00	2.45	-49.7	-64.8	3.6	1.51e+00	0	41	104	0	60	63029
2026-01-20 23:07:04.13	125.96	2.51	-49.7	-64.9	3.6	1.51e+00	0	41	104	0	60	63720
2026-01-20 23:07:05.14	125.93	2.58	-49.7	-64.9	3.6	1.51e+00	0	41	104	0	60	63615
2026-01-20 23:07:06.15	125.89	2.64	-49.7	-64.9	3.6	1.51e+00	0	41	104	0	60	63415
2026-01-20 23:07:07.16	125.86	2.71	-49.7	-64.9	3.6	1.51e+00	0	41	104	0	60	63197
2026-01-20 23:07:08.17	125.82	2.77	-49.7	-64.8	3.6	1.51e+00	0	41	104	0	60	62841
2026-01-20 23:07:09.18	125.79	2.84	-49.6	-64.6	3.6	1.51e+00	0	41	104	0	60	61736
2026-01-20 23:07:10.19	125.75	2.90	-49.7	-64.6	3.6	1.51e+00	0	41	104	0	60	61530
2026-01-20 23:07:11.20	125.72	2.97	-49.6	-64.4	3.6	1.51e+00	0	41	104	0	60	60283
2026-01-20 23:07:12.21	125.68	3.03	-49.6	-64.1	3.6	1.51e+00	0	41	104	0	60	57765
2026-01-20 23:07:13.22	125.64	3.10	-49.6	-64.0	3.6	1.51e+00	0	41	104	0	60	57233
2026-01-20 23:07:14.23	125.61	3.16	-49.6	-64.2	3.5	1.51e+00	0	41	104	0	60	58419
2026-01-20 23:07:15.24	125.57	3.23	-49.6	-64.3	3.6	1.51e+00	0	41	104	0	60	59337
2026-01-20 23:07:16.25	125.54	3.29	-49.6	-64.7	3.6	1.51e+00	0	41	104	0	60	62424
2026-01-20 23:07:17.26	125.50	3.36	-49.6	-64.8	3.6	1.51e+00	0	41	104	0	60	62681
2026-01-20 23:07:18.27	125.46	3.42	-49.6	-63.9	3.6	1.51e+00	0	41	104	0	60	56392
2026-01-20 23:07:19.28	125.43	3.49	-49.4	-60.7	4.3	1.50e+00	57	41	104	0	60	39079
2026-01-20 23:07:20.29	125.39	3.56	-49.1	-57.4	5.6	7.79e-01	0	41	0	0	60	26898
2026-01-20 23:07:21.30	125.35	3.62	-48.5	-54.5	8.7	1.08e-01	0	41	0	2097152	60	19085
2026-01-20 23:07:22.31	125.31	3.69	-48.5	-54.4	8.8	1.53e-02	0	41	0	4194304	60	18884
2026-01-20 23:07:23.32	125.28	3.76	-49.3	-58.2	4.8	1.92e-01	0	41	0	6291456	60	29325
2026-01-20 23:07:24.33	125.24	3.82	-49.6	-64.6	3.7	1.51e+00	0	41	104	6291456	60	61278
2026-01-20 23:07:25.34	125.20	3.89	-47.3	-51.6	13.5	1.71e-02	0	41	104	6291456	60	13764
2026-01-20 23:07:26.35	125.16	3.96	-43.5	-45.1	17.9	0.00e+00	0	41	0	7340032	58	7298
2026-01-20 23:07:27.36	125.12	4.02	-49.6	-64.5	3.5	1.51e+00	0	41	104	8388608	60	60774
2026-01-20 23:07:28.37	125.08	4.09	-42.7	-44.2	18.3	4.79e-01	0	41	104	8388608	60	5843
2026-01-20 23:07:29.38	125.05	4.16	-43.4	-45.0	18.7	0.00e+00	0	41	0	9437184	58	7217
2026-01-20 23:07:30.39	125.01	4.23	-43.3	-44.9	18.7	0.00e+00	0	41	0	11534336	58	7163
2026-01-20 23:07:31.40	124.97	4.30	-43.3	-44.9	18.6	0.00e+00	0	41	0	12582912	58	7130
2026-01-20 23:07:32.41	124.93	4.36	-43.1	-44.7	19.1	0.00e+00	0	41	0	14680064	58	6972
2026-01-20 23:07:33.42	124.89	4.43	-42.9	-44.5	19.4	0.00e+00	0	41	0	16777216	58	6782
2026-01-20 23:07:34.43	124.85	4.50	-43.3	-44.9	18.9	0.00e+00	0	41	0	18874368	58	7117
2026-01-20 23:07:35.44	124.81	4.57	-43.1	-44.6	19.3	0.00e+00	0	41	0	20971520	58	6880
2026-01-20 23:07:36.45	124.77	4.64	-42.7	-44.2	19.7	0.00e+00	0	41	0	22020096	58	6545
2026-01-20 23:07:37.46	124.73	4.71	-42.5	-43.9	19.9	0.00e+00	0	41	0	24117248	58	6326
2026-01-20 23:07:38.47	124.69	4.78	-41.8	-43.0	20.7	0.00e+00	0	41	0	26214400	58	5753
2026-01-20 23:07:39.48	124.65	4.85	-42.3	-43.6	20.2	0.00e+00	0	41	0	28311552	56	6852
2026-01-20 23:07:40.49	124.61	4.91	-42.6	-43.9	19.9	0.00e+00	0	41	0	30408704	56	7170
2026-01-20 23:07:41.50	124.56	4.98	-42.9	-44.3	19.5	0.00e+00	0	41	0	32505856	58	6659
2026-01-20 23:07:42.51	124.52	5.05	-43.1	-44.7	19.2	0.00e+00	0	41	0	33554432	58	6938
2026-01-20 23:07:43.52	124.48	5.12	-43.8	-45.5	18.5	0.00e+00	0	41	0	35651584	58	7642
2026-01-20 23:07:44.53	124.44	5.19	-43.5	-45.2	18.7	0.00e+00	0	41	0	37748736	60	6567
2026-01-20 23:07:45.54	124.40	5.26	-43.5	-45.2	18.9	0.00e+00	0	41	0	39845888	60	6558
2026-01-20 23:07:46.55	124.36	5.33	-43.7	-45.4	18.6	0.00e+00	0	41	0	41943040	60	6733
2026-01-20 23:07:47.56	124.31	5.41	-44.1	-46.0	18.2	0.00e+00	0	41	0	42991616	60	7176
2026-01-20 23:07:48.58	124.27	5.48	-43.8	-45.5	18.6	0.00e+00	0	41	0	45088768	60	6818
2026-01-20 23:07:49.59	124.23	5.55	-43.9	-45.7	18.3	0.00e+00	0	41	0	47185920	60	6949
2026-01-20 23:07:50.60	124.18	5.62	-43.5	-45.2	18.8	0.00e+00	0	41	0	49283072	60	6591
2026-01-20 23:07:51.61	124.14	5.69	-43.2	-44.8	19.2	0.00e+00	0	41	0	51380224	60	6301
2026-01-20 23:07:52.62	124.10	5.76	-43.0	-44.5	19.4	0.00e+00	0	41	0	52428800	60	6074
2026-01-20 23:07:53.63	124.05	5.83	-42.9	-44.4	19.5	0.00e+00	0	41	0	54525952	58	6693
2026-01-20 23:07:54.64	124.01	5.91	-42.5	-43.9	20.0	0.00e+00	0	41	0	56623104	58	6335
2026-01-20 23:07:55.64	123.97	5.98	-42.4	-43.7	20.3	0.00e+00	0	41	0	58720256	58	6239
2026-01-20 23:07:56.65	123.92	6.05	-42.5	-43.9	20.0	0.00e+00	0	41	0	60817408	58	6336
2026-01-20 23:07:57.66	123.88	6.12	-42.4	-43.8	20.1	0.00e+00	0	41	0	61865984	58	6261
2026-01-20 23:07:58.67	123.83	6.19	-42.6	-44.1	19.8	0.00e+00	0	41	0	63963136	58	6493
2026-01-20 23:07:59.68	123.79	6.27	-42.8	-44.3	19.7	0.00e+00	0	41	0	66060288	58	6645
2026-01-20 23:08:00.68	123.74	6.34	-43.1	-44.6	19.4	0.00e+00	0	41	0	68157440	58	6876
2026-01-20 23:08:01.69	123.69	6.41	-43.2	-44.8	19.3	0.00e+00	0	41	0	70254592	58	7014
2026-01-20 23:08:02.70	123.65	6.49	-43.0	-44.5	19.5	0.00e+00	0	41	0	71303168	58	6811
2026-01-20 23:08:03.71	123.60	6.56	-43.1	-44.6	19.3	0.00e+00	0	41	0	73400320	58	6903
2026-01-20 23:08:04.72	123.56	6.63	-43.0	-44.5	19.5	0.00e+00	0	41	0	75497472	58	6786
2026-01-20 23:08:05.73	123.51	6.71	-42.9	-44.4	19.6	0.00e+00	0	41	0	77594624	58	6736
2026-01-20 23:08:06.74	123.46	6.78	-42.6	-44.0	19.9	0.00e+00	0	41	0	79691776	58	6426
2026-01-20 23:08:07.75	123.42	6.85	-42.4	-43.7	20.3	0.00e+00	0	41	0	80740352	58	6231
2026-01-20 23:08:08.76	123.37	6.93	-42.0	-43.2	20.7	0.00e+00	0	41	0	82837504	58	5871
2026-01-20 23:08:09.77	123.32	7.00	-42.3	-43.5	20.3	0.00e+00	0	41	0	84934656	58	6097
2026-01-20 23:08:10.78	123.27	7.08	-42.1	-43.4	20.6	0.00e+00	0	41	0	87031808	58	5975
2026-01-20 23:08:11.79	123.22	7.15	-42.2	-43.4	20.5	0.00e+00	0	41	0	89128960	58	6030
2026-01-20 23:08:12.80	123.18	7.23	-42.4	-43.7	20.4	0.00e+00	0	41	0	90177536	58	6181
2026-01-20 23:08:13.80	123.13	7.30	-42.7	-44.0	20.1	0.00e+00	0	41	0	92274688	58	6428
2026-01-20 23:08:14.81	123.08	7.38	-42.6	-43.9	20.1	0.00e+00	0	41	0	94371840	58	6375
2026-01-20 23:08:15.82	123.03	7.46	-42.7	-44.1	19.9	0.00e+00	0	41	0	96468992	58	6526
2026-01-20 23:08:16.83	122.98	7.53	-42.7	-44.1	20.0	0.00e+00	0	41	0	98566144	58	6529
2026-01-20 23:08:17.84	122.93	7.61	-42.6	-44.0	20.1	0.00e+00	0	41	0	100663296	58	6452
2026-01-20 23:08:18.85	122.88	7.68	-42.6	-44.0	20.1	0.00e+00	0	41	0	101711872	58	6407
2026-01-20 23:08:19.86	122.83	7.76	-42.4	-43.8	20.3	0.00e+00	0	41	0	103809024	58	6259
2026-01-20 23:08:20.87	122.78	7.84	-42.3	-43.6	20.4	0.00e+00	0	41	0	105906176	58	6171
2026-01-20 23:08:21.88	122.73	7.92	-42.1	-43.4	20.6	0.00e+00	0	41	0	108003328	58	5987
2026-01-20 23:08:22.89	122.68	7.99	-41.9	-43.1	20.9	0.00e+00	0	41	0	110100480	58	5774
2026-01-20 23:08:23.90	122.62	8.07	-41.8	-42.9	21.1	0.00e+00	0	41	0	111149056	56	6383
2026-01-20 23:08:24.91	122.57	8.15	-41.7	-42.8	21.3	0.00e+00	0	41	0	113246208	56	6278
2026-01-20 23:08:25.92	122.52	8.23	-41.7	-42.8	21.2	0.00e+00	0	41	0	115343360	56	6288
2026-01-20 23:08:26.93	122.47	8.30	-41.8	-42.9	21.1	0.00e+00	0	41	0	117440512	56	6385
2026-01-20 23:08:27.94	122.41	8.38	-41.8	-43.0	21.1	0.00e+00	0	41	0	119537664	56	6437
2026-01-20 23:08:28.94	122.36	8.46	-42.0	-43.2	20.9	0.00e+00	0	41	0	120586240	56	6576
2026-01-20 23:08:29.95	122.31	8.54	-42.0	-43.3	20.9	0.00e+00	0	41	0	122683392	56	6621
2026-01-20 23:08:30.96	122.25	8.62	-42.1	-43.3	20.8	0.00e+00	0	41	0	124780544	56	6686
2026-01-20 23:08:31.97	122.20	8.70	-42.3	-43.6	20.6	0.00e+00	0	41	0	126877696	56	6878
2026-01-20 23:08:32.98	122.15	8.78	-42.2	-43.5	20.8	0.00e+00	0	41	0	128974848	56	6771
2026-01-20 23:08:33.99	122.09	8.86	-42.3	-43.6	20.6	0.00e+00	0	41	0	130023424	56	6868
2026-01-20 23:08:35.00	122.04	8.94	-42.3	-43.6	20.6	0.00e+00	0	41	0	132120576	56	6872
2026-01-20 23:08:36.01	121.98	9.02	-42.2	-43.5	20.8	0.00e+00	0	41	0	134217728	56	6780
2026-01-20 23:08:37.02	121.93	9.10	-42.0	-43.2	21.0	0.00e+00	0	41	0	136314880	56	6566
2026-01-20 23:08:38.02	121.87	9.18	-42.2	-43.4	20.9	0.00e+00	0	41	0	138412032	56	6717
2026-01-20 23:08:39.03	121.81	9.26	-41.8	-43.0	21.2	0.00e+00	0	41	0	139460608	56	6416
2026-01-20 23:08:40.04	121.76	9.34	-41.9	-43.1	21.2	0.00e+00	0	41	0	141557760	56	6499
2026-01-20 23:08:41.05	121.70	9.42	-41.8	-42.9	21.1	0.00e+00	0	41	0	143654912	56	6388
2026-01-20 23:08:42.06	121.64	9.50	-41.9	-43.0	21.1	0.00e+00	0	41	0	145752064	56	6459
2026-01-20 23:08:43.07	121.59	9.58	-42.1	-43.3	21.0	0.00e+00	0	41	0	147849216	56	6639
2026-01-20 23:08:44.08	121.53	9.67	-41.9	-43.1	21.1	0.00e+00	0	41	0	148897792	56	6508
2026-01-20 23:08:45.09	121.47	9.75	-42.1	-43.3	20.9	0.00e+00	0	41	0	150994944	56	6662
2026-01-20 23:08:46.10	121.41	9.83	-41.9	-43.1	21.2	0.00e+00	0	41	0	153092096	56	6493
2026-01-20 23:08:47.11	121.35	9.91	-41.9	-43.1	21.2	0.00e+00	0	41	0	155189248	56	6499
2026-01-20 23:08:48.11	121.29	10.00	-42.0	-43.2	21.2	0.00e+00	0	41	0	157286400	56	6546
2026-01-20 23:08:49.12	121.23	10.08	-41.8	-43.0	21.2	0.00e+00	0	41	0	158334976	56	6402
2026-01-20 23:08:50.13	121.17	10.16	-41.6	-42.7	21.4	0.00e+00	0	41	0	160432128	56	6202
2026-01-20 23:08:51.14	121.11	10.25	-41.7	-42.9	21.3	0.00e+00	0	41	0	162529280	56	6352
2026-01-20 23:08:52.15	121.05	10.33	-41.7	-42.9	21.3	0.00e+00	0	41	0	164626432	56	6339
2026-01-20 23:08:53.16	120.99	10.42	-41.9	-43.1	21.2	0.00e+00	0	41	0	166723584	56	6491
2026-01-20 23:08:54.17	120.93	10.50	-41.8	-42.9	21.3	0.00e+00	0	41	0	167772160	56	6387
2026-01-20 23:08:55.18	120.87	10.59	-42.2	-43.5	20.8	0.00e+00	0	41	0	169869312	56	6781
2026-01-20 23:08:56.19	120.81	10.67	-42.0	-43.2	21.1	0.00e+00	0	41	0	171966464	56	6540
2026-01-20 23:08:57.20	120.74	10.76	-41.9	-43.0	21.2	0.00e+00	0	41	0	174063616	56	6451
2026-01-20 23:08:58.21	120.68	10.84	-41.8	-42.9	21.3	0.00e+00	0	41	0	176160768	56	6359
2026-01-20 23:08:59.22	120.62	10.93	-41.7	-42.8	21.4	0.00e+00	0	41	0	177209344	56	6294
2026-01-20 23:09:00.23	120.55	11.01	-41.5	-42.6	21.5	0.00e+00	0	41	0	179306496	56	6173
2026-01-20 23:09:01.24	120.49	11.10	-41.7	-42.9	21.5	0.00e+00	0	41	0	181403648	56	6325
2026-01-20 23:09:02.24	120.43	11.19	-41.3	-42.4	21.7	0.00e+00	0	41	0	183500800	56	5996
2026-01-20 23:09:03.25	120.36	11.27	-41.1	-42.2	22.0	0.00e+00	0	41	0	185597952	56	5856
2026-01-20 23:09:04.26	120.30	11.36	-41.1	-42.2	21.8	0.00e+00	0	41	0	186646528	56	5857
2026-01-20 23:09:05.27	120.23	11.45	-41.1	-42.2	22.0	0.00e+00	0	41	0	188743680	56	5852
2026-01-20 23:09:06.28	120.16	11.54	-41.1	-42.2	21.9	0.00e+00	0	41	0	190840832	56	5860
2026-01-20 23:09:07.29	120.10	11.62	-41.2	-42.3	21.9	0.00e+00	0	41	0	192937984	56	5935
2026-01-20 23:09:08.30	120.03	11.71	-41.4	-42.5	21.6	0.00e+00	0	41	0	195035136	56	6091
2026-01-20 23:09:09.31	119.96	11.80	-41.7	-42.9	21.4	0.00e+00	0	41	0	197132288	56	6324
2026-01-20 23:09:10.31	119.90	11.89	-41.6	-42.7	21.6	0.00e+00	0	41	0	198180864	56	6223
2026-01-20 23:09:11.33	119.83	11.98	-41.4	-42.6	21.6	0.00e+00	0	41	0	200278016	56	6120
2026-01-20 23:09:12.33	119.76	12.07	-41.4	-42.5	21.7	0.00e+00	0	41	0	202375168	56	6073
2026-01-20 23:09:13.35	119.69	12.16	-41.4	-42.5	21.6	0.00e+00	0	41	0	204472320	56	6097
2026-01-20 23:09:14.36	119.62	12.25	-41.4	-42.5	21.6	0.00e+00	0	41	0	206569472	56	6077
2026-01-20 23:09:15.37	119.55	12.34	-41.2	-42.3	21.9	0.00e+00	0	41	0	207618048	56	5915
2026-01-20 23:09:16.38	119.48	12.43	-41.2	-42.3	21.8	0.00e+00	0	41	0	209715200	56	5956
2026-01-20 23:09:17.39	119.41	12.52	-41.3	-42.4	21.9	0.00e+00	0	41	0	211812352	56	5998
2026-01-20 23:09:18.40	119.34	12.61	-41.3	-42.4	21.7	0.00e+00	0	41	0	213909504	56	6033
2026-01-20 23:09:19.41	119.26	12.70	-41.4	-42.5	21.8	0.00e+00	0	41	0	216006656	56	6061
2026-01-20 23:09:20.42	119.19	12.80	-41.4	-42.6	21.5	0.00e+00	0	41	0	217055232	56	6106
2026-01-20 23:09:21.43	119.12	12.89	-41.6	-42.8	21.5	0.00e+00	0	41	0	219152384	56	6276
2026-01-20 23:09:22.44	119.05	12.98	-41.8	-42.9	21.3	0.00e+00	0	41	0	221249536	56	6379
2026-01-20 23:09:23.44	118.97	13.07	-41.4	-42.6	21.8	0.00e+00	0	41	0	223346688	56	6104
2026-01-20 23:09:24.45	118.90	13.17	-41.1	-42.1	22.0	0.00e+00	0	41	0	225443840	56	5822
2026-01-20 23:09:25.46	118.82	13.26	-41.0	-42.0	22.2	0.00e+00	0	41	0	226492416	56	5736
2026-01-20 23:09:26.47	118.75	13.35	-41.0	-42.1	22.1	0.00e+00	0	41	0	228589568	56	5770
2026-01-20 23:09:27.48	118.67	13.45	-41.0	-42.1	22.2	0.00e+00	0	41	0	230686720	56	5763
2026-01-20 23:09:28.49	118.60	13.54	-41.1	-42.2	22.1	0.00e+00	0	41	0	232783872	56	5856
2026-01-20 23:09:29.50	118.52	13.64	-41.2	-42.3	21.9	0.00e+00	0	41	0	234881024	56	5915
2026-01-20 23:09:30.51	118.44	13.73	-41.4	-42.6	21.8	0.00e+00	0	41	0	235929600	56	6115
2026-01-20 23:09:31.52	118.37	13.83	-41.3	-42.3	21.9	0.00e+00	0	41	0	238026752	56	5963
2026-01-20 23:09:32.53	118.29	13.92	-41.2	-42.3	22.0	0.00e+00	0	41	0	240123904	56	5941
2026-01-20 23:09:33.54	118.21	14.02	-41.2	-42.3	21.9	0.00e+00	0	41	0	242221056	56	5963
2026-01-20 23:09:34.55	118.13	14.11	-41.3	-42.4	21.9	0.00e+00	0	41	0	244318208	56	6031
2026-01-20 23:09:35.56	118.05	14.21	-40.9	-41.9	22.2	0.00e+00	0	41	0	245366784	56	5689
2026-01-20 23:09:36.57	117.97	14.31	-41.0	-42.1	22.2	0.00e+00	0	41	0	247463936	56	5807
2026-01-20 23:09:37.58	117.89	14.40	-41.1	-42.2	22.1	0.00e+00	0	41	0	249561088	56	5829
2026-01-20 23:09:38.59	117.81	14.50	-41.0	-42.1	22.1	0.00e+00	0	41	0	251658240	56	5797
2026-01-20 23:09:39.60	117.72	14.60	-41.2	-42.2	21.9	0.00e+00	0	41	0	253755392	56	5892
2026-01-20 23:09:40.60	117.64	14.70	-41.1	-42.2	22.0	0.00e+00	0	41	0	255852544	56	5841
2026-01-20 23:09:41.61	117.56	14.79	-41.2	-42.2	22.1	0.00e+00	0	41	0	256901120	56	5875
2026-01-20 23:09:42.62	117.48	14.89	-41.4	-42.5	21.7	0.00e+00	0	41	0	258998272	56	6074
2026-01-20 23:09:43.63	117.39	14.99	-41.6	-42.8	21.5	0.00e+00	0	41	0	261095424	56	6275
2026-01-20 23:09:44.63	117.31	15.09	-41.6	-42.8	21.6	0.00e+00	0	41	0	263192576	56	6247
2026-01-20 23:09:45.64	117.22	15.19	-41.9	-43.1	21.3	0.00e+00	0	41	0	265289728	56	6536
2026-01-20 23:09:46.65	117.14	15.29	-41.8	-43.0	21.3	0.00e+00	0	41	0	266338304	56	6457
2026-01-20 23:09:47.66	117.05	15.39	-41.6	-42.7	21.5	0.00e+00	0	41	0	268435456	56	6243
2026-01-20 23:09:48.67	116.96	15.49	-41.3	-42.5	21.7	0.00e+00	0	41	0	270532608	56	6040
2026-01-20 23:09:49.68	116.87	15.59	-41.4	-42.6	21.7	0.00e+00	0	41	0	272629760	56	6142
2026-01-20 23:09:50.69	116.79	15.70	-41.1	-42.2	21.9	0.00e+00	0	41	0	274726912	56	5838
2026-01-20 23:09:51.70	116.70	15.80	-41.1	-42.3	21.8	0.00e+00	0	41	0	275775488	56	5910
2026-01-20 23:09:52.71	116.61	15.90	-41.2	-42.3	21.8	0.00e+00	0	41	0	277872640	56	5933
2026-01-20 23:09:53.72	116.52	16.00	-41.1	-42.2	22.0	0.00e+00	0	41	0	279969792	56	5896
2026-01-20 23:09:54.73	116.43	16.11	-41.1	-42.2	22.1	0.00e+00	0	41	0	282066944	56	5841
2026-01-20 23:09:55.74	116.33	16.21	-41.2	-42.3	21.9	0.00e+00	0	41	0	284164096	56	5951
2026-01-20 23:09:56.75	116.24	16.31	-41.1	-42.2	22.0	0.00e+00	0	41	0	285212672	56	5863
2026-01-20 23:09:57.76	116.15	16.42	-41.1	-42.1	22.0	0.00e+00	0	41	0	287309824	56	5798
2026-01-20 23:09:58.77	116.05	16.52	-41.0	-42.1	22.2	0.00e+00	0	41	0	289406976	56	5773
2026-01-20 23:09:59.78	115.96	16.63	-41.0	-42.1	22.1	0.00e+00	0	41	0	291504128	56	5780
2026-01-20 23:10:00.79	115.87	16.73	-41.2	-42.3	22.0	0.00e+00	0	41	0	293601280	56	5899
2026-01-20 23:10:01.80	115.77	16.84	-41.3	-42.3	22.0	0.00e+00	0	41	0	294649856	56	5963
2026-01-20 23:10:02.81	115.67	16.94	-41.2	-42.2	22.0	0.00e+00	0	41	0	296747008	56	5890
2026-01-20 23:10:03.82	115.58	17.05	-41.3	-42.3	22.0	0.00e+00	0	41	0	298844160	56	5958
2026-01-20 23:10:04.83	115.48	17.16	-41.4	-42.5	21.8	0.00e+00	0	41	0	300941312	56	6060
2026-01-20 23:10:05.84	115.38	17.26	-41.2	-42.3	22.0	0.00e+00	0	41	0	303038464	56	5937
2026-01-20 23:10:06.85	115.28	17.37	-41.0	-42.1	22.2	0.00e+00	0	41	0	304087040	56	5805
2026-01-20 23:10:07.86	115.18	17.48	-41.0	-42.1	22.2	0.00e+00	0	41	0	306184192	56	5805
2026-01-20 23:10:08.86	115.08	17.59	-40.9	-42.0	22.3	0.00e+00	0	41	0	308281344	56	5723
2026-01-20 23:10:09.88	114.98	17.70	-40.8	-41.8	22.3	0.00e+00	0	41	0	310378496	56	5623
2026-01-20 23:10:10.88	114.88	17.80	-41.0	-42.0	22.4	0.00e+00	0	41	0	312475648	56	5727
2026-01-20 23:10:11.89	114.77	17.91	-40.9	-42.0	22.4	0.00e+00	0	41	0	313524224	56	5717
2026-01-20 23:10:12.90	114.67	18.02	-41.1	-42.2	22.3	0.00e+00	0	41	0	315621376	56	5829
2026-01-20 23:10:13.91	114.57	18.13	-41.1	-42.2	22.1	0.00e+00	0	41	0	317718528	56	5871
2026-01-20 23:10:14.92	114.46	18.24	-41.1	-42.2	22.0	0.00e+00	0	41	0	319815680	56	5852
2026-01-20 23:10:15.93	114.35	18.35	-41.1	-42.1	22.2	0.00e+00	0	41	0	321912832	56	5826
2026-01-20 23:10:16.94	114.25	18.47	-41.2	-42.3	22.0	0.00e+00	0	41	0	324009984	56	5948
2026-01-20 23:10:17.95	114.14	18.58	-41.1	-42.1	22.2	0.00e+00	0	41	0	325058560	56	5819
2026-01-20 23:10:18.96	114.03	18.69	-41.1	-42.2	22.1	0.00e+00	0	41	0	327155712	56	5846
2026-01-20 23:10:19.97	113.92	18.80	-41.1	-42.2	22.1	0.00e+00	0	41	0	329252864	56	5848
2026-01-20 23:10:20.98	113.81	18.92	-41.3	-42.4	22.0	0.00e+00	0	41	0	331350016	56	5974
2026-01-20 23:10:21.99	113.70	19.03	-41.4	-42.5	21.9	0.00e+00	0	41	0	333447168	56	6037
2026-01-20 23:10:23.00	113.59	19.14	-41.5	-42.6	21.8	0.00e+00	0	41	0	334495744	56	6137
2026-01-20 23:10:24.01	113.48	19.26	-41.5	-42.6	21.7	0.00e+00	0	41	0	336592896	56	6117
2026-01-20 23:10:25.02	113.36	19.37	-41.4	-42.5	21.9	0.00e+00	0	41	0	338690048	56	6044
2026-01-20 23:10:26.03	113.25	19.49	-41.2	-42.3	22.0	0.00e+00	0	41	0	340787200	56	5902
2026-01-20 23:10:27.04	113.13	19.60	-40.9	-41.9	22.4	0.00e+00	0	41	0	342884352	56	5672
2026-01-20 23:10:28.05	113.02	19.72	-41.0	-42.0	22.3	0.00e+00	0	41	0	343932928	56	5708
2026-01-20 23:10:29.06	112.90	19.83	-40.9	-41.9	22.4	0.00e+00	0	41	0	346030080	56	5654
2026-01-20 23:10:30.07	112.78	19.95	-40.5	-41.4	22.7	0.00e+00	0	41	0	348127232	54	6032
2026-01-20 23:10:31.08	112.66	20.07	-40.6	-41.7	22.5	0.00e+00	0	41	0	350224384	54	6182
2026-01-20 23:10:32.09	112.54	20.18	-41.0	-42.1	22.2	0.00e+00	0	41	0	352321536	54	6491
2026-01-20 23:10:33.09	112.42	20.30	-41.1	-42.2	22.1	0.00e+00	0	41	0	353370112	54	6558
2026-01-20 23:10:34.10	112.30	20.42	-40.9	-42.0	22.3	0.00e+00	0	41	0	355467264	54	6425
2026-01-20 23:10:35.11	112.18	20.54	-40.8	-41.8	22.4	0.00e+00	0	41	0	357564416	54	6277
2026-01-20 23:10:36.12	112.06	20.66	-41.0	-42.0	22.3	0.00e+00	0	41	0	359661568	54	6427
2026-01-20 23:10:37.13	111.93	20.78	-40.5	-41.4	22.7	0.00e+00	0	41	0	361758720	54	6028
2026-01-20 23:10:38.14	111.81	20.90	-40.8	-41.8	22.4	0.00e+00	0	41	0	362807296	54	6283
2026-01-20 23:10:39.15	111.68	21.02	-41.2	-42.3	22.0	0.00e+00	0	41	0	364904448	54	6650
2026-01-20 23:10:40.16	111.55	21.14	-41.4	-42.5	21.8	0.00e+00	0	41	0	367001600	54	6817
2026-01-20 23:10:41.17	111.42	21.26	-41.5	-42.6	21.7	0.00e+00	0	41	0	369098752	54	6905
2026-01-20 23:10:42.18	111.29	21.38	-42.0	-43.2	21.2	0.00e+00	0	41	0	371195904	56	6584
2026-01-20 23:10:43.19	111.16	21.50	-41.9	-43.1	21.4	0.00e+00	0	41	0	372244480	56	6473
2026-01-20 23:10:44.20	111.03	21.63	-41.9	-43.1	21.5	0.00e+00	0	41	0	374341632	56	6479
2026-01-20 23:10:45.21	110.90	21.75	-41.7	-42.8	21.7	0.00e+00	0	41	0	376438784	56	6264
2026-01-20 23:10:46.22	110.76	21.87	-41.8	-42.9	21.5	0.00e+00	0	41	0	378535936	56	6387
2026-01-20 23:10:47.23	110.63	22.00	-41.7	-42.8	21.6	0.00e+00	0	41	0	380633088	56	6269
2026-01-20 23:10:48.24	110.49	22.12	-41.6	-42.7	21.8	0.00e+00	0	41	0	381681664	56	6240
2026-01-20 23:10:49.25	110.35	22.25	-41.4	-42.5	22.0	0.00e+00	0	41	0	383778816	56	6035
2026-01-20 23:10:50.26	110.22	22.37	-41.4	-42.5	22.0	0.00e+00	0	41	0	385875968	56	6049
2026-01-20 23:10:51.27	110.08	22.50	-41.3	-42.4	21.9	0.00e+00	0	41	0	387973120	56	6006
2026-01-20 23:10:52.28	109.94	22.62	-41.3	-42.4	22.1	0.00e+00	0	41	0	390070272	56	5993
2026-01-20 23:10:53.29	109.79	22.75	-41.3	-42.3	22.0	0.00e+00	0	41	0	391118848	56	5955
2026-01-20 23:10:54.30	109.65	22.88	-41.5	-42.6	21.9	0.00e+00	0	41	0	393216000	56	6112
2026-01-20 23:10:55.31	109.51	23.00	-41.5	-42.6	21.9	0.00e+00	0	41	0	395313152	56	6138
2026-01-20 23:10:56.31	109.36	23.13	-41.9	-43.1	21.5	0.00e+00	0	41	0	397410304	56	6468
2026-01-20 23:10:57.32	109.22	23.26	-41.9	-43.1	21.5	0.00e+00	0	41	0	399507456	56	6485
2026-01-20 23:10:58.33	109.07	23.39	-41.8	-43.0	21.7	0.00e+00	0	41	0	401604608	56	6392
2026-01-20 23:10:59.34	108.92	23.51	-42.2	-43.4	21.2	0.00e+00	0	41	0	402653184	56	6767
2026-01-20 23:11:00.35	108.77	23.64	-42.3	-43.5	21.2	0.00e+00	0	41	0	404750336	56	6830
2026-01-20 23:11:01.36	108.62	23.77	-42.0	-43.1	21.5	0.00e+00	0	41	0	406847488	56	6529
2026-01-20 23:11:02.37	108.46	23.90	-42.1	-43.3	21.3	0.00e+00	0	41	0	408944640	56	6659
2026-01-20 23:11:03.38	108.31	24.04	-41.7	-42.8	21.8	0.00e+00	0	41	0	411041792	56	6287
2026-01-20 23:11:04.39	108.15	24.17	-41.6	-42.7	21.9	0.00e+00	0	41	0	412090368	56	6215
2026-01-20 23:11:05.40	108.00	24.30	-41.4	-42.5	22.0	0.00e+00	0	41	0	414187520	56	6039
2026-01-20 23:11:06.41	107.84	24.43	-41.0	-42.0	22.5	0.00e+00	0	41	0	416284672	56	5756
2026-01-20 23:11:07.42	107.68	24.56	-41.4	-42.5	22.2	0.00e+00	0	41	0	418381824	56	6048
2026-01-20 23:11:08.43	107.52	24.69	-41.3	-42.4	22.1	0.00e+00	0	41	0	420478976	56	6015
2026-01-20 23:11:09.44	107.36	24.83	-41.4	-42.5	22.0	0.00e+00	0	41	0	421527552	56	6085
2026-01-20 23:11:10.45	107.19	24.96	-41.2	-42.3	22.2	0.00e+00	0	41	0	423624704	56	5916
2026-01-20 23:11:11.46	107.03	25.10	-41.4	-42.5	21.9	0.00e+00	0	41	0	425721856	56	6036
2026-01-20 23:11:12.47	106.86	25.23	-41.6	-42.7	21.9	0.00e+00	0	41	0	427819008	56	6212
2026-01-20 23:11:13.48	106.69	25.37	-41.7	-42.8	21.8	0.00e+00	0	41	0	429916160	56	6302
2026-01-20 23:11:14.49	106.52	25.50	-41.6	-42.7	21.8	0.00e+00	0	41	0	430964736	56	6219
2026-01-20 23:11:15.50	106.35	25.64	-42.3	-43.5	21.3	0.00e+00	0	41	0	433061888	56	6782
2026-01-20 23:11:16.51	106.18	25.77	-42.1	-43.3	21.5	0.00e+00	0	41	0	435159040	56	6667
2026-01-20 23:11:17.52	106.00	25.91	-42.4	-43.6	21.2	0.00e+00	0	41	0	437256192	56	6891
2026-01-20 23:11:18.53	105.83	26.05	-41.8	-42.9	21.7	0.00e+00	0	41	0	439353344	56	6340
2026-01-20 23:11:19.54	105.65	26.18	-41.7	-42.8	21.8	0.00e+00	0	41	0	440401920	56	6276
2026-01-20 23:11:20.55	105.47	26.32	-42.1	-43.3	21.3	0.00e+00	0	41	0	442499072	56	6656
2026-01-20 23:11:21.56	105.29	26.46	-42.1	-43.3	21.6	0.00e+00	0	41	0	444596224	56	6644
2026-01-20 23:11:22.57	105.11	26.60	-42.2	-43.3	21.3	0.00e+00	0	41	0	446693376	56	6661
2026-01-20 23:11:23.58	104.93	26.74	-42.4	-43.6	21.2	0.00e+00	0	41	0	448790528	56	6888
2026-01-20 23:11:24.59	104.74	26.88	-41.5	-42.5	22.1	0.00e+00	0	41	0	449839104	56	6085
2026-01-20 23:11:25.60	104.56	27.02	-41.9	-43.0	21.7	0.00e+00	0	41	0	451936256	56	6407
2026-01-20 23:11:26.60	104.37	27.15	-42.3	-43.4	21.3	0.00e+00	0	41	0	454033408	56	6749
2026-01-20 23:11:27.61	104.18	27.29	-42.6	-43.8	21.0	0.00e+00	0	41	0	456130560	56	7075
2026-01-20 23:11:28.62	103.99	27.44	-42.1	-43.3	21.3	0.00e+00	0	41	0	458227712	58	5923
2026-01-20 23:11:29.63	103.79	27.58	-42.3	-43.5	21.3	0.00e+00	0	41	0	459276288	58	6059
2026-01-20 23:11:30.64	103.60	27.72	-41.7	-42.9	21.6	0.00e+00	0	41	0	461373440	58	5631
2026-01-20 23:11:31.65	103.40	27.86	-41.7	-42.8	21.9	0.00e+00	0	41	0	463470592	56	6274
2026-01-20 23:11:32.66	103.20	28.00	-41.9	-43.1	21.6	0.00e+00	0	41	0	465567744	56	6488
2026-01-20 23:11:33.67	103.00	28.14	-42.1	-43.3	21.4	0.00e+00	0	41	0	467664896	56	6630
2026-01-20 23:11:34.68	102.80	28.29	-42.4	-43.6	21.0	0.00e+00	0	41	0	469762048	56	6914
2026-01-20 23:11:35.69	102.60	28.43	-42.6	-43.9	20.8	0.00e+00	0	41	0	470810624	58	6340
2026-01-20 23:11:36.69	102.39	28.57	-42.9	-44.2	20.5	0.00e+00	0	41	0	472907776	58	6583
2026-01-20 23:11:37.70	102.19	28.72	-42.9	-44.2	20.8	0.00e+00	0	41	0	475004928	58	6595
2026-01-20 23:11:38.72	101.97	28.86	-43.0	-44.3	20.7	0.00e+00	0	41	0	477102080	58	6623
2026-01-20 23:11:39.72	101.76	29.01	-43.1	-44.4	20.4	0.00e+00	0	41	0	479199232	58	6747
2026-01-20 23:11:40.73	101.55	29.15	-43.2	-44.6	20.4	0.00e+00	0	41	0	480247808	58	6854
2026-01-20 23:11:41.74	101.33	29.30	-43.7	-45.2	19.7	0.00e+00	0	41	0	482344960	58	7374
2026-01-20 23:11:42.75	101.12	29.44	-43.8	-45.2	19.8	0.00e+00	0	41	0	484442112	60	6591
2026-01-20 23:11:43.76	100.90	29.59	-44.3	-46.0	19.0	0.00e+00	0	41	0	486539264	60	7180
2026-01-20 23:11:44.77	100.68	29.73	-44.3	-45.9	19.2	0.00e+00	0	41	0	488636416	60	7116
2026-01-20 23:11:45.78	100.45	29.88	-44.3	-45.9	19.2	0.00e+00	0	41	0	489684992	60	7113
2026-01-20 23:11:46.79	100.23	30.02	-44.8	-46.6	18.5	0.00e+00	0	41	0	491782144	60	7728
2026-01-20 23:11:47.80	100.00	30.17	-44.8	-46.6	18.7	0.00e+00	0	41	0	493879296	60	7714
2026-01-20 23:11:48.81	99.77	30.32	-44.1	-45.7	19.5	0.00e+00	0	41	0	495976448	60	6973
2026-01-20 23:11:49.82	99.54	30.47	-44.1	-45.6	19.6	0.00e+00	0	41	0	498073600	60	6849
2026-01-20 23:11:50.83	99.30	30.61	-43.6	-45.0	19.8	0.00e+00	0	41	0	499122176	60	6453
2026-01-20 23:11:51.84	99.07	30.76	-44.8	-46.6	18.7	0.00e+00	0	41	0	501219328	60	7686
2026-01-20 23:11:52.85	98.83	30.91	-45.0	-46.8	18.6	0.00e+00	0	41	0	503316480	60	7945
2026-01-20 23:11:53.86	98.59	31.06	-44.9	-46.6	18.7	0.00e+00	0	41	0	505413632	60	7699
2026-01-20 23:11:54.87	98.34	31.20	-44.4	-45.9	19.2	0.00e+00	0	41	0	507510784	60	7137
2026-01-20 23:11:55.88	98.10	31.35	-43.9	-45.3	19.8	0.00e+00	0	41	0	508559360	60	6671
2026-01-20 23:11:56.88	97.85	31.50	-43.6	-45.0	20.0	0.00e+00	0	41	0	510656512	60	6417
2026-01-20 23:11:57.89	97.61	31.65	-43.5	-44.9	20.1	0.00e+00	0	41	0	512753664	60	6333
2026-01-20 23:11:58.90	97.35	31.80	-43.8	-45.2	19.9	0.00e+00	0	41	0	514850816	60	6564
2026-01-20 23:11:59.91	97.10	31.94	-44.1	-45.6	20.0	0.00e+00	0	41	0	516947968	60	6884
2026-01-20 23:12:00.92	96.84	32.09	-43.7	-45.2	20.0	0.00e+00	0	41	0	517996544	60	6550
2026-01-20 23:12:01.93	96.58	32.24	-44.2	-45.9	19.3	0.00e+00	0	41	0	520093696	60	7096
2026-01-20 23:12:02.94	96.32	32.39	-44.3	-46.0	19.2	0.00e+00	0	41	0	522190848	60	7184
2026-01-20 23:12:03.95	96.06	32.54	-44.8	-46.7	18.7	0.00e+00	0	41	0	524288000	60	7796
2026-01-20 23:12:04.96	95.79	32.69	-44.6	-46.3	19.0	0.00e+00	0	41	0	526385152	60	7442
2026-01-20 23:12:05.97	95.52	32.84	-43.7	-45.1	20.0	0.00e+00	0	41	0	527433728	60	6475
2026-01-20 23:12:06.98	95.25	32.99	-43.0	-44.3	20.8	0.00e+00	0	41	0	529530880	60	5906
2026-01-20 23:12:07.98	94.98	33.13	-42.5	-43.6	21.1	0.00e+00	0	41	0	531628032	58	6169
2026-01-20 23:12:08.99	94.70	33.28	-42.1	-43.1	21.8	0.00e+00	0	41	0	533725184	58	5819
2026-01-20 23:12:10.00	94.43	33.43	-41.8	-42.8	21.9	0.00e+00	0	41	0	535822336	58	5626
2026-01-20 23:12:11.01	94.14	33.58	-41.9	-43.0	21.8	0.00e+00	0	41	0	536870912	56	6392
2026-01-20 23:12:12.02	93.86	33.73	-42.1	-43.2	21.6	0.00e+00	0	41	0	538968064	56	6600
2026-01-20 23:12:13.02	93.58	33.88	-42.7	-43.9	21.0	0.00e+00	0	41	0	541065216	56	7145
2026-01-20 23:12:14.03	93.29	34.03	-43.0	-44.3	20.6	0.00e+00	0	41	0	543162368	58	6656
2026-01-20 23:12:15.04	92.99	34.17	-43.2	-44.6	20.4	0.00e+00	0	41	0	545259520	58	6866
2026-01-20 23:12:16.04	92.70	34.32	-43.3	-44.7	20.4	0.00e+00	0	41	0	546308096	58	6938
2026-01-20 23:12:17.05	92.41	34.47	-43.5	-44.9	20.3	0.00e+00	0	41	0	548405248	58	7105
2026-01-20 23:12:18.06	92.11	34.62	-43.4	-44.7	20.0	0.00e+00	0	41	0	550502400	58	6979
2026-01-20 23:12:19.06	91.81	34.76	-43.1	-44.4	20.2	0.00e+00	0	41	0	552599552	60	5998
2026-01-20 23:12:20.07	91.50	34.91	-43.2	-44.4	20.8	0.00e+00	0	41	0	554696704	60	6019
2026-01-20 23:12:21.08	91.19	35.06	-43.3	-44.6	20.5	0.00e+00	0	41	0	556793856	60	6128
2026-01-20 23:12:22.09	90.88	35.21	-43.2	-44.6	20.5	0.00e+00	0	41	0	557842432	60	6105
2026-01-20 23:12:23.10	90.57	35.35	-43.4	-44.8	20.3	0.00e+00	0	41	0	559939584	60	6283
2026-01-20 23:12:24.11	90.25	35.50	-43.5	-44.9	20.3	0.00e+00	0	41	0	562036736	60	6371
2026-01-20 23:12:25.12	89.93	35.65	-43.3	-44.6	20.4	0.00e+00	0	41	0	564133888	60	6146
2026-01-20 23:12:26.13	89.61	35.79	-43.0	-44.3	20.6	0.00e+00	0	41	0	566231040	60	5915
2026-01-20 23:12:27.14	89.28	35.94	-43.6	-45.0	20.1	0.00e+00	0	41	0	567279616	60	6406
2026-01-20 23:12:28.15	88.95	36.08	-43.9	-45.4	19.6	0.00e+00	0	41	0	569376768	60	6711
2026-01-20 23:12:29.15	88.62	36.22	-44.3	-45.9	19.3	0.00e+00	0	41	0	571473920	60	7124
2026-01-20 23:12:30.16	88.29	36.37	-43.9	-45.4	19.6	0.00e+00	0	41	0	573571072	60	6750
2026-01-20 23:12:31.17	87.95	36.51	-43.9	-45.4	19.7	0.00e+00	0	41	0	574619648	60	6716
2026-01-20 23:12:32.18	87.61	36.66	-44.8	-46.5	18.9	0.00e+00	0	41	0	576716800	60	7637
2026-01-20 23:12:33.19	87.27	36.80	-44.8	-46.6	18.7	0.00e+00	0	41	0	578813952	60	7723
2026-01-20 23:12:34.20	86.92	36.94	-44.8	-46.5	18.7	0.00e+00	0	41	0	580911104	60	7664
2026-01-20 23:12:35.21	86.57	37.08	-44.6	-46.3	18.9	0.00e+00	0	41	0	583008256	60	7499
2026-01-20 23:12:36.22	86.22	37.22	-44.8	-46.6	18.9	0.00e+00	0	41	0	585105408	60	7706
2026-01-20 23:12:37.23	85.87	37.36	-44.5	-46.1	19.0	0.00e+00	0	41	0	586153984	60	7321
2026-01-20 23:12:38.24	85.51	37.50	-43.9	-45.5	19.7	0.00e+00	0	41	0	588251136	60	6774
2026-01-20 23:12:39.24	85.15	37.64	-43.6	-45.0	20.1	0.00e+00	0	41	0	590348288	60	6400
2026-01-20 23:12:40.25	84.78	37.78	-43.4	-44.8	20.2	0.00e+00	0	41	0	592445440	60	6289
2026-01-20 23:12:41.26	84.42	37.91	-43.3	-44.7	20.4	0.00e+00	0	41	0	594542592	60	6183
2026-01-20 23:12:42.27	84.05	38.05	-42.6	-43.9	21.2	0.00e+00	0	41	0	595591168	58	6336
2026-01-20 23:12:43.28	83.67	38.19	-42.0	-43.1	21.7	0.00e+00	0	41	0	597688320	58	5782
2026-01-20 23:12:44.29	83.29	38.32	-41.8	-42.8	21.6	0.00e+00	0	41	0	599785472	56	6294
2026-01-20 23:12:45.30	82.91	38.45	-42.4	-43.6	21.3	0.00e+00	0	41	0	601882624	56	6888
2026-01-20 23:12:46.31	82.53	38.59	-42.4	-43.5	21.4	0.00e+00	0	41	0	603979776	56	6824
2026-01-20 23:12:47.31	82.15	38.72	-42.5	-43.7	21.1	0.00e+00	0	41	0	605028352	56	7006
2026-01-20 23:12:48.32	81.76	38.85	-42.3	-43.5	21.3	0.00e+00	0	41	0	607125504	58	6069
2026-01-20 23:12:49.34	81.36	38.98	-42.1	-43.3	21.7	0.00e+00	0	41	0	609222656	58	5903
2026-01-20 23:12:50.35	80.97	39.11	-41.8	-43.0	21.6	0.00e+00	0	41	0	611319808	58	5702
2026-01-20 23:12:51.36	80.57	39.24	-42.1	-43.2	21.6	0.00e+00	0	41	0	613416960	58	5881
2026-01-20 23:12:52.37	80.16	39.36	-41.8	-42.9	21.8	0.00e+00	0	41	0	614465536	56	6378
2026-01-20 23:12:53.38	79.76	39.49	-41.8	-42.8	22.0	0.00e+00	0	41	0	616562688	56	6312
2026-01-20 23:12:54.38	79.35	39.61	-41.9	-43.0	21.7	0.00e+00	0	41	0	618659840	56	6449
2026-01-20 23:12:55.39	78.94	39.73	-41.8	-42.9	21.8	0.00e+00	0	41	0	620756992	56	6350
2026-01-20 23:12:56.40	78.53	39.85	-41.6	-42.7	22.1	0.00e+00	0	41	0	622854144	56	6199
2026-01-20 23:12:57.41	78.11	39.97	-41.6	-42.7	22.2	0.00e+00	0	41	0	623902720	56	6193
2026-01-20 23:12:58.42	77.69	40.09	-41.2	-42.3	22.3	0.00e+00	0	41	0	625999872	56	5920
2026-01-20 23:12:59.43	77.26	40.21	-40.9	-42.0	22.6	0.00e+00	0	41	0	628097024	56	5707
2026-01-20 23:13:00.44	76.84	40.33	-40.6	-41.6	23.0	0.00e+00	0	41	0	630194176	54	6157
2026-01-20 23:13:01.45	76.41	40.44	-40.3	-41.2	23.2	0.00e+00	0	41	0	632291328	54	5880
2026-01-20 23:13:02.46	75.97	40.56	-40.6	-41.6	22.8	0.00e+00	0	41	0	633339904	54	6173
2026-01-20 23:13:03.47	75.54	40.67	-41.0	-42.0	22.7	0.00e+00	0	41	0	635437056	54	6459
2026-01-20 23:13:04.48	75.10	40.78	-42.1	-43.4	21.6	0.00e+00	0	42	0	637534208	56	6722
2026-01-20 23:13:05.49	74.66	40.89	-42.1	-43.3	21.6	0.00e+00	0	41	0	639631360	56	6678
2026-01-20 23:13:06.50	74.21	40.99	-41.6	-42.7	22.1	0.00e+00	0	41	0	641728512	56	6195
2026-01-20 23:13:07.51	73.76	41.10	-41.1	-42.1	22.4	0.00e+00	0	41	0	642777088	56	5815
2026-01-20 23:13:08.52	73.31	41.20	-40.6	-41.6	22.9	0.00e+00	0	41	0	644874240	54	6161
2026-01-20 23:13:09.53	72.86	41.30	-40.5	-41.4	23.1	0.00e+00	0	41	0	646971392	54	6023
2026-01-20 23:13:10.54	72.40	41.40	-40.2	-41.1	23.2	0.00e+00	0	41	0	649068544	54	5802
2026-01-20 23:13:11.55	71.94	41.50	-39.6	-40.4	23.9	0.00e+00	0	41	0	651165696	52	6022
2026-01-20 23:13:12.56	71.48	41.60	-39.1	-39.9	24.3	0.00e+00	0	41	0	652214272	52	5658
2026-01-20 23:13:13.56	71.02	41.69	-39.4	-40.2	24.0	0.00e+00	0	41	0	654311424	52	5879
2026-01-20 23:13:14.57	70.55	41.78	-39.6	-40.4	23.8	0.00e+00	0	41	0	656408576	52	6010
2026-01-20 23:13:15.58	70.08	41.87	-39.6	-40.4	23.8	0.00e+00	0	41	0	658505728	52	6030
2026-01-20 23:13:16.60	69.60	41.96	-40.1	-41.0	23.3	0.00e+00	0	41	0	660602880	52	6437
2026-01-20 23:13:17.60	69.13	42.05	-40.6	-41.7	22.9	0.00e+00	0	41	0	662700032	52	6929
2026-01-20 23:13:18.61	68.65	42.13	-41.4	-42.6	22.2	0.00e+00	0	41	0	663748608	54	6857
2026-01-20 23:13:19.62	68.17	42.22	-41.8	-43.0	21.9	0.00e+00	0	41	0	665845760	56	6408
2026-01-20 23:13:20.63	67.69	42.30	-42.2	-43.4	21.7	0.00e+00	0	41	0	667942912	56	6757
2026-01-20 23:13:21.64	67.20	42.38	-41.8	-42.9	22.1	0.00e+00	0	41	0	670040064	56	6352
2026-01-20 23:13:22.65	66.71	42.45	-40.6	-41.6	22.8	0.00e+00	0	41	0	672137216	54	6107
2026-01-20 23:13:23.66	66.22	42.53	-41.3	-42.4	22.2	0.00e+00	0	41	0	673185792	54	6704
2026-01-20 23:13:24.67	65.73	42.60	-41.9	-43.1	21.7	0.00e+00	0	41	0	675282944	56	6499
2026-01-20 23:13:25.68	65.24	42.67	-41.7	-42.8	22.0	0.00e+00	0	41	0	677380096	58	5614
2026-01-20 23:13:26.69	64.74	42.73	-40.8	-41.8	22.8	0.00e+00	0	41	0	679477248	56	5581
2026-01-20 23:13:27.70	64.24	42.80	-40.9	-41.8	22.9	0.00e+00	0	41	0	681574400	54	6300
2026-01-20 23:13:28.71	63.74	42.86	-40.8	-41.9	22.5	0.00e+00	0	41	0	682622976	54	6331
2026-01-20 23:13:29.72	63.24	42.92	-41.3	-42.4	22.2	0.00e+00	0	41	0	684720128	54	6719
2026-01-20 23:13:30.73	62.73	42.98	-41.5	-42.5	22.2	0.00e+00	0	41	0	686817280	54	6835
2026-01-20 23:13:31.74	62.23	43.03	-41.8	-42.9	21.8	0.00e+00	0	41	0	688914432	54	7105
2026-01-20 23:13:32.75	61.72	43.09	-42.7	-44.0	21.0	0.00e+00	0	41	0	691011584	56	7209
2026-01-20 23:13:33.76	61.21	43.14	-42.1	-43.3	21.7	0.00e+00	0	41	0	692060160	58	5934
2026-01-20 23:13:34.77	60.70	43.19	-41.6	-42.6	22.3	0.00e+00	0	41	0	694157312	58	5488
2026-01-20 23:13:35.78	60.19	43.23	-41.0	-42.0	22.7	0.00e+00	0	41	0	696254464	56	5723
2026-01-20 23:13:36.79	59.67	43.27	-41.1	-42.1	22.6	0.00e+00	0	41	0	698351616	56	5766
2026-01-20 23:13:37.80	59.16	43.31	-41.4	-42.4	22.3	0.00e+00	0	41	0	700448768	56	6014
2026-01-20 23:13:38.80	58.65	43.35	-41.6	-42.7	22.2	0.00e+00	0	41	0	701497344	56	6188
2026-01-20 23:13:39.81	58.13	43.39	-42.0	-43.1	21.7	0.00e+00	0	41	0	703594496	56	6535
2026-01-20 23:13:40.82	57.61	43.42	-42.3	-43.6	21.4	0.00e+00	0	41	0	705691648	56	6865
2026-01-20 23:13:41.83	57.09	43.45	-42.0	-43.2	21.5	0.00e+00	0	41	0	707788800	56	6542
2026-01-20 23:13:42.84	56.57	43.48	-42.4	-43.6	21.2	0.00e+00	0	41	0	709885952	56	6909
2026-01-20 23:13:43.85	56.05	43.50	-42.4	-43.6	21.3	0.00e+00	0	41	0	710934528	56	6924
2026-01-20 23:13:44.86	55.52	43.52	-42.7	-44.0	21.0	0.00e+00	0	41	0	713031680	58	6393
2026-01-20 23:13:45.87	55.00	43.54	-41.9	-43.1	21.7	0.00e+00	0	41	0	715128832	58	5775
2026-01-20 23:13:46.88	54.48	43.56	-41.6	-42.7	22.1	0.00e+00	0	41	0	717225984	56	6177
2026-01-20 23:13:47.89	53.95	43.57	-42.0	-43.1	21.6	0.00e+00	0	41	0	719323136	56	6526
2026-01-20 23:13:48.90	53.43	43.58	-42.8	-44.2	20.4	0.00e+00	0	41	0	720371712	58	6608
2026-01-20 23:13:49.91	52.90	43.59	-43.1	-44.5	20.5	0.00e+00	0	41	0	722468864	58	6836
2026-01-20 23:13:50.92	52.38	43.60	-43.1	-44.5	20.7	0.00e+00	0	41	0	724566016	58	6828
2026-01-20 23:13:51.93	51.85	43.60	-41.9	-43.1	21.9	0.00e+00	0	41	0	726663168	58	5779
2026-01-20 23:13:52.94	51.33	43.60	-41.6	-42.7	22.1	0.00e+00	0	41	0	728760320	56	6177
2026-01-20 23:13:53.95	50.80	43.60	-41.6	-42.6	21.9	0.00e+00	0	41	0	730857472	56	6167
2026-01-20 23:13:54.96	50.28	43.59	-42.3	-43.5	21.4	0.00e+00	0	42	0	731906048	56	6808
2026-01-20 23:13:55.97	49.75	43.59	-42.9	-44.2	20.9	0.00e+00	0	41	0	734003200	58	6560
2026-01-20 23:13:56.98	49.23	43.58	-43.6	-45.1	20.2	0.00e+00	0	41	0	736100352	58	7256
2026-01-20 23:13:57.99	48.71	43.56	-43.9	-45.4	19.7	0.00e+00	0	41	0	738197504	60	6730
2026-01-20 23:13:59.00	48.18	43.55	-44.0	-45.5	19.7	0.00e+00	0	41	0	740294656	60	6811
2026-01-20 23:14:00.01	47.66	43.53	-44.1	-45.7	19.5	0.00e+00	0	41	0	741343232	60	6932
2026-01-20 23:14:01.02	47.14	43.51	-44.7	-46.6	18.8	0.00e+00	0	42	0	743440384	60	7707
2026-01-20 23:14:02.03	46.61	43.48	-44.3	-46.0	19.3	0.00e+00	0	41	0	745537536	60	7232
2026-01-20 23:14:03.04	46.09	43.46	-44.0	-45.6	19.5	0.00e+00	0	41	0	747634688	60	6889
2026-01-20 23:14:04.04	45.58	43.43	-43.8	-45.3	19.9	0.00e+00	0	41	0	749731840	60	6642
2026-01-20 23:14:05.05	45.06	43.40	-44.3	-46.0	19.6	0.00e+00	0	41	0	750780416	60	7194
2026-01-20 23:14:06.06	44.54	43.36	-43.8	-45.3	19.8	0.00e+00	0	41	0	752877568	60	6645
2026-01-20 23:14:07.07	44.03	43.33	-43.6	-45.1	20.0	0.00e+00	0	41	0	754974720	60	6484
2026-01-20 23:14:08.08	43.51	43.29	-43.1	-44.5	20.6	0.00e+00	0	41	0	757071872	60	6061
2026-01-20 23:14:09.09	43.00	43.25	-44.2	-45.8	19.5	0.00e+00	0	41	0	759169024	60	7051
2026-01-20 23:14:10.10	42.48	43.20	-44.7	-46.5	18.6	0.00e+00	0	41	0	760217600	60	7654
2026-01-20 23:14:11.11	41.97	43.15	-44.5	-46.2	19.1	0.00e+00	0	41	0	762314752	60	7420
2026-01-20 23:14:12.12	41.46	43.10	-44.1	-45.6	19.7	0.00e+00	0	41	0	764411904	60	6903
2026-01-20 23:14:13.13	40.95	43.05	-44.3	-45.9	19.2	0.00e+00	0	41	0	766509056	60	7154
2026-01-20 23:14:14.14	40.45	43.00	-43.8	-45.2	20.0	0.00e+00	0	42	0	768606208	60	6574
2026-01-20 23:14:15.15	39.94	42.94	-44.0	-45.5	19.7	0.00e+00	0	41	0	769654784	60	6824
2026-01-20 23:14:16.16	39.44	42.88	-44.1	-45.7	19.4	0.00e+00	0	42	0	771751936	60	6997
2026-01-20 23:14:17.17	38.94	42.82	-44.3	-46.0	19.3	0.00e+00	0	41	0	773849088	60	7238
2026-01-20 23:14:18.17	38.45	42.76	-43.5	-45.1	20.4	0.00e+00	0	41	0	775946240	60	6469
2026-01-20 23:14:19.18	37.95	42.69	-42.1	-43.2	21.6	0.00e+00	0	42	0	778043392	58	5885
2026-01-20 23:14:20.19	37.45	42.62	-41.7	-42.7	22.2	0.00e+00	0	41	0	779091968	56	6233
2026-01-20 23:14:21.20	36.96	42.55	-41.7	-42.7	22.1	0.00e+00	0	41	0	781189120	56	6244
2026-01-20 23:14:22.21	36.47	42.48	-41.4	-42.4	22.5	0.00e+00	0	42	0	783286272	56	5990
2026-01-20 23:14:23.22	35.98	42.40	-41.4	-42.5	22.1	0.00e+00	0	41	0	785383424	56	6039
2026-01-20 23:14:24.23	35.50	42.33	-41.1	-42.1	22.5	0.00e+00	0	41	0	787480576	56	5824
2026-01-20 23:14:25.24	35.01	42.25	-41.2	-42.2	22.5	0.00e+00	0	41	0	788529152	56	5863
2026-01-20 23:14:26.25	34.53	42.16	-40.3	-41.2	23.2	0.00e+00	0	41	0	790626304	54	5868
2026-01-20 23:14:27.26	34.05	42.08	-39.8	-40.6	23.6	0.00e+00	0	41	0	792723456	52	6171
2026-01-20 23:14:28.26	33.58	42.00	-40.0	-40.9	23.5	0.00e+00	0	41	0	794820608	52	6332
2026-01-20 23:14:29.27	33.11	41.91	-40.7	-41.7	22.8	0.00e+00	0	41	0	796917760	52	6978
2026-01-20 23:14:30.28	32.64	41.82	-40.8	-41.7	22.8	0.00e+00	0	42	0	799014912	54	6244
2026-01-20 23:14:31.29	32.17	41.73	-40.2	-41.1	23.3	0.00e+00	0	42	0	800063488	54	5819
2026-01-20 23:14:32.30	31.71	41.63	-39.9	-40.8	23.5	0.00e+00	0	41	0	802160640	54	5570
2026-01-20 23:14:33.31	31.24	41.54	-39.9	-40.7	23.5	0.00e+00	0	41	0	804257792	54	5564
2026-01-20 23:14:34.32	30.78	41.44	-40.6	-41.6	22.9	0.00e+00	0	41	0	806354944	54	6116
2026-01-20 23:14:35.33	30.33	41.34	-41.0	-42.0	22.4	0.00e+00	0	42	0	808452096	54	6450
2026-01-20 23:14:36.34	29.87	41.24	-41.2	-42.2	22.4	0.00e+00	0	42	0	809500672	54	6603
2026-01-20 23:14:37.35	29.42	41.14	-41.0	-42.0	22.4	0.00e+00	0	42	0	811597824	54	6451
2026-01-20 23:14:38.36	28.97	41.03	-40.0	-40.9	23.5	0.00e+00	0	42	0	813694976	54	5677
2026-01-20 23:14:39.37	28.53	40.93	-39.4	-40.2	24.0	0.00e+00	0	41	0	815792128	52	5868
2026-01-20 23:14:40.38	28.08	40.82	-39.2	-40.0	24.1	0.00e+00	0	42	0	817889280	52	5753
2026-01-20 23:14:41.39	27.64	40.71	-39.0	-39.8	24.4	0.00e+00	0	41	0	818937856	52	5607
2026-01-20 23:14:42.40	27.21	40.60	-38.7	-39.5	24.7	0.00e+00	0	41	0	821035008	50	6045
2026-01-20 23:14:43.40	26.78	40.49	-38.9	-39.7	24.4	0.00e+00	0	41	0	823132160	50	6226
2026-01-20 23:14:44.41	26.35	40.37	-39.3	-40.2	23.9	0.00e+00	0	41	0	825229312	50	6542
2026-01-20 23:14:45.42	25.92	40.26	-40.0	-40.9	23.6	0.00e+00	0	41	0	827326464	52	6336
2026-01-20 23:14:46.43	25.50	40.14	-38.9	-39.7	24.4	0.00e+00	0	41	0	828375040	52	5551
2026-01-20 23:14:47.44	25.08	40.02	-38.6	-39.4	24.6	0.00e+00	0	41	0	830472192	50	6004
2026-01-20 23:14:48.45	24.66	39.90	-38.5	-39.3	24.6	0.00e+00	0	42	0	832569344	50	5937
2026-01-20 23:14:49.46	24.24	39.78	-38.3	-39.1	24.8	0.00e+00	0	42	0	834666496	50	5794
2026-01-20 23:14:50.47	23.83	39.66	-38.1	-38.8	24.9	0.00e+00	0	42	0	836763648	50	5628
2026-01-20 23:14:51.48	23.42	39.54	-38.4	-39.2	24.7	0.00e+00	0	41	0	837812224	50	5837
2026-01-20 23:14:52.48	23.02	39.41	-39.2	-40.1	24.0	0.00e+00	0	42	0	839909376	50	6468
2026-01-20 23:14:53.50	22.61	39.29	-40.0	-41.0	23.4	0.00e+00	0	41	0	842006528	52	6408
2026-01-20 23:14:54.50	22.22	39.16	-39.6	-40.5	23.8	0.00e+00	0	41	0	844103680	52	6044
2026-01-20 23:14:55.51	21.82	39.03	-38.5	-39.3	24.4	0.00e+00	0	41	0	846200832	50	5906
2026-01-20 23:14:56.52	21.43	38.90	-38.3	-39.1	24.6	0.00e+00	0	41	0	847249408	50	5785
2026-01-20 23:14:57.53	21.04	38.77	-38.7	-39.5	24.2	0.00e+00	0	42	0	849346560	50	6057
2026-01-20 23:14:58.54	20.65	38.64	-38.9	-39.7	24.2	0.00e+00	0	41	0	851443712	50	6189
2026-01-20 23:14:59.55	20.27	38.51	-39.0	-39.8	24.2	0.00e+00	0	41	0	853540864	50	6308
2026-01-20 23:15:00.56	19.89	38.38	-39.6	-40.5	23.8	0.00e+00	0	41	0	855638016	50	6807
2026-01-20 23:15:01.58	19.51	38.24	-40.6	-41.6	22.8	0.00e+00	0	41	0	856686592	54	6143
2026-01-20 23:15:02.59	19.13	38.11	-41.0	-42.0	22.6	0.00e+00	0	41	0	858783744	54	6424
2026-01-20 23:15:03.59	18.77	37.97	-40.3	-41.3	23.2	0.00e+00	0	41	0	860880896	54	5900
2026-01-20 23:15:04.60	18.40	37.84	-39.8	-40.7	23.6	0.00e+00	0	41	0	862978048	52	6202
2026-01-20 23:15:05.61	18.03	37.70	-40.5	-41.4	23.0	0.00e+00	0	41	0	865075200	52	6745
2026-01-20 23:15:06.62	17.67	37.56	-41.1	-42.2	22.5	0.00e+00	0	42	0	867172352	54	6585
2026-01-20 23:15:07.63	17.31	37.42	-41.8	-43.0	22.0	0.00e+00	0	41	0	868220928	56	6392
2026-01-20 23:15:08.64	16.96	37.28	-40.7	-41.7	22.9	0.00e+00	0	42	0	870318080	56	5519
2026-01-20 23:15:09.65	16.60	37.14	-40.7	-41.7	22.9	0.00e+00	0	41	0	872415232	54	6220
2026-01-20 23:15:10.66	16.25	37.00	-40.6	-41.6	23.0	0.00e+00	0	41	0	874512384	54	6148
2026-01-20 23:15:11.67	15.91	36.86	-40.8	-41.9	22.8	0.00e+00	0	41	0	875560960	54	6328
2026-01-20 23:15:12.68	15.56	36.72	-40.5	-41.5	23.0	0.00e+00	0	41	0	877658112	54	6034
2026-01-20 23:15:13.69	15.22	36.58	-40.4	-41.3	23.3	0.00e+00	0	42	0	879755264	54	5937
2026-01-20 23:15:14.70	14.89	36.44	-40.1	-41.0	23.3	0.00e+00	0	41	0	881852416	54	5727
2026-01-20 23:15:15.71	14.55	36.29	-40.6	-41.6	23.0	0.00e+00	0	42	0	883949568	54	6117
2026-01-20 23:15:16.72	14.22	36.15	-40.5	-41.5	23.1	0.00e+00	0	42	0	884998144	54	6043
2026-01-20 23:15:17.73	13.89	36.00	-40.1	-41.0	23.4	0.00e+00	0	41	0	887095296	54	5727
2026-01-20 23:15:18.74	13.57	35.86	-40.0	-40.9	23.5	0.00e+00	0	41	0	889192448	54	5688
2026-01-20 23:15:19.75	13.24	35.71	-40.6	-41.5	22.9	0.00e+00	0	41	0	891289600	54	6100
2026-01-20 23:15:20.76	12.92	35.57	-40.8	-41.8	22.8	0.00e+00	0	41	0	893386752	54	6264
2026-01-20 23:15:21.77	12.61	35.42	-40.5	-41.5	22.9	0.00e+00	0	42	0	895483904	54	6051
2026-01-20 23:15:22.78	12.29	35.28	-40.4	-41.2	23.3	0.00e+00	0	41	0	896532480	54	5886
2026-01-20 23:15:23.79	11.98	35.13	-40.7	-41.7	22.7	0.00e+00	0	42	0	898629632	54	6180
2026-01-20 23:15:24.80	11.67	34.98	-41.4	-42.5	22.1	0.00e+00	0	42	0	900726784	54	6790
2026-01-20 23:15:25.80	11.37	34.84	-42.4	-43.5	21.4	0.00e+00	0	42	0	902823936	56	6819
2026-01-20 23:15:26.82	11.06	34.69	-41.9	-42.9	21.9	0.00e+00	0	41	0	904921088	56	6376
2026-01-20 23:15:27.83	10.76	34.54	-40.7	-41.6	22.8	0.00e+00	0	41	0	905969664	56	5476
2026-01-20 23:15:28.84	10.47	34.39	-40.9	-41.9	22.9	0.00e+00	0	42	0	908066816	54	6327
2026-01-20 23:15:29.84	10.17	34.25	-41.4	-42.3	22.3	0.00e+00	0	41	0	910163968	54	6679
2026-01-20 23:15:30.85	9.88	34.10	-42.0	-43.1	21.7	0.00e+00	0	41	0	912261120	56	6474
2026-01-20 23:15:31.86	9.59	33.95	-42.3	-43.3	21.6	0.00e+00	0	42	0	914358272	56	6673
2026-01-20 23:15:32.87	9.31	33.80	-42.6	-43.8	21.3	0.00e+00	0	41	0	915406848	56	7053
2026-01-20 23:15:33.88	9.02	33.66	-43.5	-44.9	20.2	0.00e+00	0	41	0	917504000	58	7123
2026-01-20 23:15:34.89	8.74	33.51	-44.8	-46.5	18.8	0.00e+00	0	41	0	919601152	60	7655
2026-01-20 23:15:35.90	8.46	33.36	-45.9	-48.0	17.3	0.00e+00	0	41	0	921698304	60	9075
2026-01-20 23:15:36.91	8.19	33.21	-44.6	-46.2	19.1	0.00e+00	0	41	0	923795456	60	7409
2026-01-20 23:15:37.92	7.91	33.06	-43.5	-44.9	20.4	0.00e+00	0	41	0	924844032	60	6319
2026-01-20 23:15:38.93	7.64	32.91	-43.2	-44.5	20.7	0.00e+00	0	42	0	926941184	60	6061
2026-01-20 23:15:39.94	7.37	32.76	-43.5	-44.8	20.2	0.00e+00	0	42	0	929038336	60	6287
2026-01-20 23:15:40.95	7.11	32.62	-44.1	-45.6	19.6	0.00e+00	0	42	0	931135488	60	6899
2026-01-20 23:15:41.96	6.84	32.47	-45.3	-47.2	18.2	0.00e+00	0	41	0	933232640	60	8234
2026-01-20 23:15:42.97	6.58	32.32	-44.9	-46.6	18.6	0.00e+00	0	41	0	934281216	60	7745
2026-01-20 23:15:43.98	6.32	32.17	-44.5	-46.0	19.1	0.00e+00	0	42	0	936378368	60	7231
2026-01-20 23:15:44.99	6.07	32.02	-44.1	-45.5	19.9	0.00e+00	0	42	0	938475520	60	6806
2026-01-20 23:15:46.00	5.81	31.87	-43.8	-45.2	20.0	0.00e+00	0	41	0	940572672	60	6553
2026-01-20 23:15:47.00	5.56	31.73	-43.2	-44.4	20.6	0.00e+00	0	42	0	942669824	60	6029
2026-01-20 23:15:48.02	5.31	31.58	-43.0	-44.2	20.9	0.00e+00	0	42	0	943718400	60	5881
2026-01-20 23:15:49.03	5.06	31.43	-42.9	-44.1	20.9	0.00e+00	0	42	0	945815552	58	6476
2026-01-20 23:15:50.03	4.82	31.28	-42.9	-44.1	21.0	0.00e+00	0	42	0	947912704	58	6483
2026-01-20 23:15:51.04	4.58	31.14	-43.4	-44.7	20.5	0.00e+00	0	41	0	950009856	60	6192
2026-01-20 23:15:52.05	4.34	30.99	-43.6	-44.9	20.1	0.00e+00	0	42	0	952107008	60	6325
2026-01-20 23:15:53.06	4.10	30.84	-43.7	-45.1	20.2	0.00e+00	0	42	0	953155584	60	6466
2026-01-20 23:15:54.07	3.86	30.70	-42.7	-43.9	21.4	0.00e+00	0	42	0	955252736	58	6323
2026-01-20 23:15:55.08	3.63	30.55	-42.1	-43.2	21.7	0.00e+00	0	42	0	957349888	58	5850
2026-01-20 23:15:56.09	3.40	30.40	-41.3	-42.3	22.4	0.00e+00	0	41	0	959447040	56	5936
2026-01-20 23:15:57.10	3.17	30.26	-41.9	-43.0	21.8	0.00e+00	0	41	0	961544192	56	6442
2026-01-20 23:15:58.11	2.94	30.11	-42.4	-43.5	21.4	0.00e+00	0	41	0	963641344	56	6834
2026-01-20 23:15:59.11	2.72	29.97	-42.7	-43.9	21.0	0.00e+00	0	41	0	964689920	56	7144
2026-01-20 23:16:00.12	2.49	29.82	-42.6	-43.8	21.0	0.00e+00	0	41	0	966787072	58	6261
2026-01-20 23:16:01.14	2.27	29.67	-43.0	-44.3	20.7	0.00e+00	0	42	0	968884224	58	6628
2026-01-20 23:16:02.15	2.05	29.53	-42.7	-43.9	21.4	0.00e+00	0	42	0	970981376	58	6331
2026-01-20 23:16:03.16	1.83	29.38	-42.4	-43.6	21.3	0.00e+00	0	42	0	973078528	58	6135
2026-01-20 23:16:04.17	1.62	29.24	-42.0	-43.1	21.7	0.00e+00	0	41	0	974127104	58	5817
2026-01-20 23:16:05.17	1.40	29.10	-42.0	-43.0	21.8	0.00e+00	0	42	0	976224256	58	5761
2026-01-20 23:16:06.18	1.19	28.95	-41.9	-43.1	21.8	0.00e+00	0	42	0	978321408	58	5773
2026-01-20 23:16:07.20	0.98	28.81	-42.3	-43.5	21.4	0.00e+00	0	42	0	980418560	58	6046
2026-01-20 23:16:08.20	0.78	28.66	-42.3	-43.5	21.3	0.00e+00	0	42	0	982515712	58	6060
2026-01-20 23:16:09.21	0.57	28.52	-42.3	-43.5	21.4	0.00e+00	0	41	0	983564288	58	6073
2026-01-20 23:16:10.22	0.37	28.38	-42.1	-43.2	21.7	0.00e+00	0	42	0	985661440	58	5874
2026-01-20 23:16:11.23	0.16	28.24	-42.2	-43.4	21.4	0.00e+00	0	42	0	987758592	58	5965
2026-01-20 23:16:12.24	359.96	28.09	-42.4	-43.5	21.3	0.00e+00	0	42	0	989855744	58	6099
2026-01-20 23:16:13.25	359.77	27.95	-42.3	-43.5	21.4	0.00e+00	0	41	0	991952896	58	6059
2026-01-20 23:16:14.26	359.57	27.81	-42.3	-43.4	21.5	0.00e+00	0	41	0	993001472	58	5992
2026-01-20 23:16:15.27	359.37	27.67	-41.9	-43.0	21.8	0.00e+00	0	42	0	995098624	58	5712
2026-01-20 23:16:16.28	359.18	27.53	-41.9	-43.0	21.8	0.00e+00	0	41	0	997195776	58	5714
2026-01-20 23:16:17.29	358.99	27.39	-41.9	-43.0	21.9	0.00e+00	0	41	0	999292928	58	5708
2026-01-20 23:16:18.30	358.80	27.25	-42.0	-43.1	21.8	0.00e+00	0	42	0	1001390080	56	6471
2026-01-20 23:16:19.31	358.61	27.11	-41.7	-42.7	22.1	0.00e+00	0	42	0	1002438656	56	6227
2026-01-20 23:16:20.32	358.42	26.97	-41.6	-42.7	22.2	0.00e+00	0	41	0	1004535808	56	6196
2026-01-20 23:16:21.33	358.24	26.83	-41.2	-42.2	22.5	0.00e+00	0	41	0	1006632960	56	5863
2026-01-20 23:16:22.34	358.06	26.69	-41.5	-42.5	22.2	0.00e+00	0	42	0	1008730112	56	6096
2026-01-20 23:16:23.34	357.88	26.56	-41.5	-42.5	22.3	0.00e+00	0	42	0	1010827264	56	6072
2026-01-20 23:16:24.35	357.70	26.42	-41.7	-42.8	22.0	0.00e+00	0	42	0	1011875840	56	6290
2026-01-20 23:16:25.36	357.52	26.28	-42.0	-43.1	21.7	0.00e+00	0	42	0	1013972992	56	6487
2026-01-20 23:16:26.37	357.34	26.14	-42.0	-43.2	21.6	0.00e+00	0	41	0	1016070144	56	6563
2026-01-20 23:16:27.38	357.17	26.01	-42.3	-43.4	21.4	0.00e+00	0	42	0	1018167296	58	6031
2026-01-20 23:16:28.39	356.99	25.87	-42.4	-43.6	21.2	0.00e+00	0	42	0	1020264448	58	6123
2026-01-20 23:16:29.40	356.82	25.73	-42.4	-43.5	21.4	0.00e+00	0	42	0	1021313024	58	6094
2026-01-20 23:16:30.41	356.65	25.60	-41.7	-42.8	21.9	0.00e+00	0	41	0	1023410176	56	6304
2026-01-20 23:16:31.41	356.48	25.47	-41.3	-42.3	22.4	0.00e+00	0	42	0	1025507328	56	5951
2026-01-20 23:16:32.42	356.31	25.33	-40.6	-41.5	23.1	0.00e+00	0	41	0	1027604480	54	6099
2026-01-20 23:16:33.43	356.15	25.20	-40.4	-41.3	23.2	0.00e+00	0	42	0	1029701632	54	5936
2026-01-20 23:16:34.44	355.98	25.06	-40.2	-41.1	23.2	0.00e+00	0	42	0	1031798784	54	5774
2026-01-20 23:16:35.45	355.82	24.93	-40.5	-41.4	23.1	0.00e+00	0	42	0	1032847360	54	6000
2026-01-20 23:16:36.46	355.66	24.80	-40.9	-41.9	22.6	0.00e+00	0	41	0	1034944512	54	6347
2026-01-20 23:16:37.47	355.50	24.66	-41.3	-42.4	22.2	0.00e+00	0	42	0	1037041664	54	6703
2026-01-20 23:16:38.48	355.34	24.53	-41.6	-42.7	21.9	0.00e+00	0	42	0	1039138816	54	6972
2026-01-20 23:16:39.49	355.18	24.40	-42.1	-43.2	21.6	0.00e+00	0	41	0	1041235968	56	6552
2026-01-20 23:16:40.50	355.02	24.27	-42.3	-43.4	21.5	0.00e+00	0	41	0	1042284544	56	6753
2026-01-20 23:16:41.50	354.87	24.14	-42.1	-43.2	21.6	0.00e+00	0	42	0	1044381696	56	6582
2026-01-20 23:16:42.51	354.71	24.01	-42.2	-43.3	21.7	0.00e+00	0	42	0	1046478848	56	6671
2026-01-20 23:16:43.52	354.56	23.88	-42.2	-43.3	21.4	0.00e+00	0	42	0	1048576000	56	6668
2026-01-20 23:16:44.53	354.41	23.75	-42.6	-43.9	21.0	0.00e+00	0	42	0	1050673152	56	7095
2026-01-20 23:16:45.54	354.26	23.62	-42.8	-44.1	20.8	0.00e+00	0	42	0	1051721728	58	6497
2026-01-20 23:16:46.55	354.11	23.49	-43.3	-44.7	20.3	0.00e+00	0	42	0	1053818880	58	6954
2026-01-20 23:16:47.56	353.96	23.36	-43.6	-45.0	20.2	0.00e+00	0	42	0	1055916032	58	7200
2026-01-20 23:16:48.57	353.82	23.24	-44.0	-45.5	19.7	0.00e+00	0	42	0	1058013184	60	6795
2026-01-20 23:16:49.58	353.67	23.11	-43.6	-44.9	20.2	0.00e+00	0	42	0	1060110336	60	6385
2026-01-20 23:16:50.59	353.53	22.98	-43.2	-44.5	20.5	0.00e+00	0	42	0	1061158912	60	6052
2026-01-20 23:16:51.60	353.38	22.86	-42.9	-44.2	20.8	0.00e+00	0	42	0	1063256064	60	5839
2026-01-20 23:16:52.61	353.24	22.73	-42.1	-43.2	21.5	0.00e+00	0	42	0	1065353216	58	5868
2026-01-20 23:16:53.62	353.10	22.60	-41.7	-42.8	22.0	0.00e+00	0	42	0	1067450368	58	5579
2026-01-20 23:16:54.63	352.96	22.48	-41.4	-42.5	22.2	0.00e+00	0	42	0	1069547520	56	6048
2026-01-20 23:16:55.64	352.82	22.35	-41.3	-42.3	22.3	0.00e+00	0	42	0	1070596096	56	5921
2026-01-20 23:16:56.65	352.69	22.23	-41.0	-42.0	22.6	0.00e+00	0	42	0	1072693248	56	5745
2026-01-20 23:16:57.66	352.55	22.11	-41.0	-42.0	22.7	0.00e+00	0	42	0	1074790400	56	5713
2026-01-20 23:16:58.67	352.42	21.98	-41.0	-42.0	22.6	0.00e+00	0	42	0	1076887552	56	5730
2026-01-20 23:16:59.68	352.28	21.86	-40.9	-41.9	22.7	0.00e+00	0	42	0	1078984704	56	5681
2026-01-20 23:17:00.69	352.15	21.74	-41.1	-42.1	22.5	0.00e+00	0	42	0	1080033280	56	5806
2026-01-20 23:17:01.70	352.02	21.61	-41.2	-42.2	22.3	0.00e+00	0	42	0	1082130432	56	5882
2026-01-20 23:17:02.71	351.89	21.49	-41.6	-42.7	22.1	0.00e+00	0	42	0	1084227584	56	6218
2026-01-20 23:17:03.72	351.76	21.37	-41.4	-42.5	22.1	0.00e+00	0	42	0	1086324736	56	6036
2026-01-20 23:17:04.73	351.63	21.25	-41.8	-42.9	21.8	0.00e+00	0	42	0	1088421888	56	6374
2026-01-20 23:17:05.74	351.50	21.13	-41.5	-42.6	22.0	0.00e+00	0	42	0	1089470464	56	6152
2026-01-20 23:17:06.75	351.38	21.01	-41.6	-42.7	22.0	0.00e+00	0	42	0	1091567616	56	6192
2026-01-20 23:17:07.75	351.25	20.89	-41.5	-42.5	22.1	0.00e+00	0	41	0	1093664768	56	6096
2026-01-20 23:17:08.76	351.13	20.77	-41.2	-42.3	22.2	0.00e+00	0	42	0	1095761920	56	5911
2026-01-20 23:17:09.77	351.01	20.65	-41.1	-42.1	22.4	0.00e+00	0	42	0	1097859072	56	5810
2026-01-20 23:17:10.78	350.88	20.53	-41.0	-42.1	22.4	0.00e+00	0	42	0	1099956224	56	5763
2026-01-20 23:17:11.79	350.76	20.42	-40.9	-41.8	22.7	0.00e+00	0	42	0	1101004800	56	5624
2026-01-20 23:17:12.80	350.64	20.30	-41.1	-42.1	22.5	0.00e+00	0	42	0	1103101952	56	5810
2026-01-20 23:17:13.81	350.52	20.18	-41.3	-42.3	22.3	0.00e+00	0	42	0	1105199104	56	5963
2026-01-20 23:17:14.82	350.40	20.06	-41.6	-42.7	22.0	0.00e+00	0	42	0	1107296256	56	6188
2026-01-20 23:17:15.83	350.28	19.95	-42.2	-43.4	21.5	0.00e+00	0	42	0	1109393408	56	6713
2026-01-20 23:17:16.83	350.17	19.83	-42.8	-44.1	21.0	0.00e+00	0	42	0	1110441984	56	7275
2026-01-20 23:17:17.84	350.05	19.72	-43.0	-44.3	20.4	0.00e+00	0	42	0	1112539136	58	6669
2026-01-20 23:17:18.86	349.94	19.60	-43.7	-45.2	20.0	0.00e+00	0	42	0	1114636288	60	6543
2026-01-20 23:17:19.86	349.82	19.49	-44.1	-45.7	19.5	0.00e+00	0	42	0	1116733440	60	6953
2026-01-20 23:17:20.88	349.71	19.37	-43.8	-45.3	19.7	0.00e+00	0	42	0	1118830592	60	6683
2026-01-20 23:17:21.89	349.60	19.26	-43.7	-45.1	20.0	0.00e+00	0	42	0	1119879168	60	6506
2026-01-20 23:17:22.90	349.49	19.14	-43.5	-44.9	20.1	0.00e+00	0	42	0	1121976320	60	6377
2026-01-20 23:17:23.91	349.38	19.03	-43.1	-44.5	20.4	0.00e+00	0	42	0	1124073472	60	6065
2026-01-20 23:17:24.92	349.27	18.92	-43.3	-44.7	20.4	0.00e+00	0	42	0	1126170624	60	6180
2026-01-20 23:17:25.93	349.16	18.81	-42.5	-43.8	21.1	0.00e+00	0	42	0	1128267776	58	6264
2026-01-20 23:17:26.94	349.05	18.69	-42.7	-43.9	20.9	0.00e+00	0	42	0	1129316352	58	6379
2026-01-20 23:17:27.95	348.94	18.58	-42.5	-43.8	21.0	0.00e+00	0	42	0	1131413504	58	6261
2026-01-20 23:17:28.96	348.84	18.47	-42.2	-43.4	21.2	0.00e+00	0	42	0	1133510656	58	6021
2026-01-20 23:17:29.97	348.73	18.36	-42.2	-43.4	21.3	0.00e+00	0	42	0	1135607808	58	6007
2026-01-20 23:17:30.97	348.63	18.25	-42.0	-43.2	21.4	0.00e+00	0	42	0	1137704960	58	5843
2026-01-20 23:17:31.98	348.52	18.14	-42.0	-43.1	21.5	0.00e+00	0	42	0	1138753536	58	5797
2026-01-20 23:17:32.99	348.42	18.03	-41.9	-43.0	21.6	0.00e+00	0	42	0	1140850688	56	6464
2026-01-20 23:17:34.00	348.32	17.92	-41.8	-42.9	21.7	0.00e+00	0	42	0	1142947840	56	6363
2026-01-20 23:17:35.01	348.21	17.81	-41.6	-42.7	22.0	0.00e+00	0	42	0	1145044992	56	6192
2026-01-20 23:17:36.02	348.11	17.71	-41.7	-42.8	21.9	0.00e+00	0	42	0	1147142144	56	6252
2026-01-20 23:17:37.03	348.01	17.60	-41.7	-42.7	21.9	0.00e+00	0	42	0	1148190720	56	6237
2026-01-20 23:17:38.04	347.91	17.49	-42.1	-43.3	21.4	0.00e+00	0	42	0	1150287872	56	6623
2026-01-20 23:17:39.04	347.81	17.38	-42.0	-43.2	21.5	0.00e+00	0	42	0	1152385024	56	6547
2026-01-20 23:17:40.05	347.72	17.28	-41.9	-43.0	21.6	0.00e+00	0	42	0	1154482176	56	6446
2026-01-20 23:17:41.06	347.62	17.17	-42.0	-43.1	21.4	0.00e+00	0	42	0	1156579328	56	6511
2026-01-20 23:17:42.07	347.52	17.06	-42.1	-43.3	21.4	0.00e+00	0	41	0	1157627904	56	6650
2026-01-20 23:17:43.08	347.43	16.96	-42.3	-43.4	21.3	0.00e+00	0	42	0	1159725056	56	6767
2026-01-20 23:17:44.09	347.33	16.85	-42.4	-43.6	21.2	0.00e+00	0	42	0	1161822208	56	6876
2026-01-20 23:17:45.10	347.24	16.75	-42.5	-43.7	21.1	0.00e+00	0	42	0	1163919360	56	6968
2026-01-20 23:17:46.11	347.14	16.64	-42.4	-43.6	21.2	0.00e+00	0	42	0	1166016512	56	6866
2026-01-20 23:17:47.12	347.05	16.54	-42.0	-43.2	21.5	0.00e+00	0	42	0	1167065088	56	6567
2026-01-20 23:17:48.13	346.96	16.44	-42.2	-43.3	21.5	0.00e+00	0	42	0	1169162240	56	6692
2026-01-20 23:17:49.14	346.87	16.33	-41.9	-43.1	21.5	0.00e+00	0	42	0	1171259392	56	6472
2026-01-20 23:17:50.15	346.77	16.23	-42.1	-43.2	21.5	0.00e+00	0	42	0	1173356544	56	6599
2026-01-20 23:17:51.16	346.68	16.13	-42.1	-43.2	21.4	0.00e+00	0	42	0	1175453696	56	6595
2026-01-20 23:17:52.17	346.59	16.02	-42.1	-43.3	21.4	0.00e+00	0	42	0	1176502272	56	6630
2026-01-20 23:17:53.18	346.50	15.92	-42.3	-43.5	21.2	0.00e+00	0	42	0	1178599424	56	6835
2026-01-20 23:17:54.19	346.42	15.82	-42.3	-43.6	21.1	0.00e+00	0	42	0	1180696576	56	6849
2026-01-20 23:17:55.20	346.33	15.72	-42.5	-43.8	21.0	0.00e+00	0	42	0	1182793728	58	6263
2026-01-20 23:17:56.21	346.24	15.62	-42.6	-43.8	20.9	0.00e+00	0	42	0	1184890880	58	6306
2026-01-20 23:17:57.22	346.15	15.52	-42.8	-44.1	20.7	0.00e+00	0	42	0	1185939456	58	6499
2026-01-20 23:17:58.23	346.07	15.42	-43.0	-44.3	20.6	0.00e+00	0	42	0	1188036608	58	6640
2026-01-20 23:17:59.23	345.98	15.32	-42.8	-44.1	20.5	0.00e+00	0	42	0	1190133760	58	6523
2026-01-20 23:18:00.24	345.90	15.22	-43.2	-44.6	20.1	0.00e+00	0	42	0	1192230912	58	6896
2026-01-20 23:18:01.25	345.81	15.12	-43.2	-44.6	20.2	0.00e+00	0	42	0	1194328064	58	6900
2026-01-20 23:18:02.26	345.73	15.02	-43.2	-44.5	20.3	0.00e+00	0	42	0	1196425216	58	6829
2026-01-20 23:18:03.27	345.65	14.92	-43.2	-44.6	20.1	0.00e+00	0	42	0	1197473792	58	6897
2026-01-20 23:18:04.27	345.56	14.82	-43.2	-44.5	20.3	0.00e+00	0	42	0	1199570944	58	6845
2026-01-20 23:18:05.28	345.48	14.73	-42.9	-44.2	20.5	0.00e+00	0	42	0	1201668096	58	6573
