passes_logs/2026/01/20/R4.6S_Anadyr/R4.6S_Anadyr__20260120_212754_SUOMI_NPP_rec.log

#Pass ID: 20260120_212754_SUOMI NPP
#Satellite: SUOMI NPP
#Configuration: NPP
#almurnet v.1.7.20251203
#Start time: 2026-01-20 21:27:57

#Version: 2.2.20231116
#Station: R4.6S_Anadyr
#Location: 177.4865 lon 64.73178 lat
#TLE: 1 37849U 11061A   26019.89702167  .00000121  00000+0  78274-4 0  9993
#TLE: 2 37849  98.7817 321.9035 0002338  55.0397 305.0998 14.19526700737401

#Time	Az	El	Level	Level2	SNR	BER	BlckErr	Temp	State	Recorded	gain1	gain2
2026-01-20 21:27:57.38	89.34	0.13	-51.7	-64.2	3.5	1.52e+00	0	40	0	0	60	57232
2026-01-20 21:27:58.39	89.28	0.19	-51.7	-66.9	3.6	1.51e+00	0	41	104	0	60	80193
2026-01-20 21:27:59.40	89.21	0.24	-51.6	-66.8	3.6	1.51e+00	0	41	104	0	60	79206
2026-01-20 21:28:00.41	89.15	0.29	-51.6	-66.7	3.6	1.51e+00	0	41	104	0	60	78504
2026-01-20 21:28:01.42	89.09	0.35	-51.5	-66.7	3.6	1.51e+00	0	41	104	0	60	78386
2026-01-20 21:28:02.43	89.02	0.40	-51.5	-66.7	3.6	1.51e+00	0	41	104	0	60	78318
2026-01-20 21:28:03.44	88.96	0.45	-51.4	-66.7	3.6	1.51e+00	0	41	104	0	60	77937
2026-01-20 21:28:04.45	88.90	0.51	-51.4	-66.7	3.6	1.51e+00	0	41	104	0	60	77925
2026-01-20 21:28:05.46	88.83	0.56	-51.4	-66.6	3.6	1.51e+00	0	41	104	0	60	77199
2026-01-20 21:28:06.47	88.77	0.62	-51.4	-66.6	3.6	1.51e+00	0	41	104	0	60	77456
2026-01-20 21:28:07.48	88.70	0.67	-51.4	-66.6	3.6	1.51e+00	0	41	104	0	60	77710
2026-01-20 21:28:08.49	88.64	0.72	-51.4	-66.7	3.6	1.51e+00	0	41	104	0	60	78017
2026-01-20 21:28:09.50	88.57	0.78	-51.4	-66.6	3.6	1.51e+00	0	41	104	0	60	77176
2026-01-20 21:28:10.51	88.51	0.83	-51.3	-66.6	3.6	1.51e+00	0	41	104	0	60	76937
2026-01-20 21:28:11.51	88.44	0.89	-51.3	-66.6	3.6	1.51e+00	0	41	104	0	60	76870
2026-01-20 21:28:12.52	88.38	0.94	-51.1	-66.5	3.6	1.51e+00	0	41	104	0	60	76399
2026-01-20 21:28:13.53	88.31	0.99	-51.2	-66.5	3.6	1.51e+00	0	41	104	0	60	76466
2026-01-20 21:28:14.54	88.24	1.05	-51.1	-66.5	3.6	1.51e+00	0	41	104	0	60	75979
2026-01-20 21:28:15.55	88.18	1.10	-51.1	-66.4	3.6	1.51e+00	0	41	104	0	60	75360
2026-01-20 21:28:16.56	88.11	1.16	-51.0	-66.3	3.6	1.51e+00	0	41	104	0	60	74270
2026-01-20 21:28:17.57	88.04	1.21	-50.7	-66.1	3.6	1.51e+00	0	41	104	0	60	73261
2026-01-20 21:28:18.58	87.98	1.27	-50.6	-66.1	3.6	1.51e+00	0	41	104	0	60	73142
2026-01-20 21:28:19.59	87.91	1.32	-50.6	-65.9	3.6	1.51e+00	0	41	104	0	60	71035
2026-01-20 21:28:20.60	87.84	1.38	-50.3	-65.6	3.6	1.51e+00	0	41	104	0	60	68860
2026-01-20 21:28:21.61	87.77	1.43	-49.8	-65.3	3.6	1.51e+00	0	41	104	0	60	66272
2026-01-20 21:28:22.62	87.70	1.49	-49.6	-64.9	3.6	1.51e+00	0	41	104	0	60	63504
2026-01-20 21:28:23.63	87.64	1.54	-49.5	-64.8	3.6	1.51e+00	0	41	104	0	60	63153
2026-01-20 21:28:24.64	87.57	1.60	-49.5	-64.8	3.6	1.51e+00	0	41	104	0	60	63115
2026-01-20 21:28:25.65	87.50	1.65	-49.5	-64.9	3.6	1.51e+00	0	41	104	0	60	63268
2026-01-20 21:28:26.66	87.43	1.71	-49.5	-64.8	3.6	1.51e+00	0	41	104	0	60	62755
2026-01-20 21:28:27.67	87.36	1.76	-49.5	-64.8	3.6	1.51e+00	0	41	104	0	60	62819
2026-01-20 21:28:28.68	87.29	1.82	-49.5	-64.8	3.6	1.51e+00	0	41	104	0	60	62643
2026-01-20 21:28:29.69	87.22	1.87	-49.5	-64.8	3.6	1.51e+00	0	41	104	0	60	62632
2026-01-20 21:28:30.70	87.15	1.93	-49.5	-64.9	3.6	1.51e+00	0	41	104	0	60	63525
2026-01-20 21:28:31.71	87.08	1.98	-49.5	-64.9	3.6	1.51e+00	0	41	104	0	60	63248
2026-01-20 21:28:32.72	87.01	2.04	-49.6	-64.9	3.6	1.51e+00	0	41	104	0	60	63270
2026-01-20 21:28:33.73	86.93	2.10	-49.6	-64.8	3.6	1.51e+00	0	41	104	0	60	62846
2026-01-20 21:28:34.74	86.86	2.15	-49.5	-64.8	3.6	1.51e+00	0	41	104	0	60	62808
2026-01-20 21:28:35.75	86.79	2.21	-49.5	-64.8	3.6	1.51e+00	0	41	104	0	60	63056
2026-01-20 21:28:36.76	86.72	2.26	-49.4	-64.6	3.6	1.51e+00	0	41	104	0	60	61075
2026-01-20 21:28:37.77	86.65	2.32	-49.6	-64.7	3.6	1.51e+00	0	41	104	0	60	61989
2026-01-20 21:28:38.78	86.57	2.37	-49.5	-64.7	3.6	1.51e+00	0	41	104	0	60	61771
2026-01-20 21:28:39.79	86.50	2.43	-49.5	-64.5	3.6	1.51e+00	0	41	104	0	60	60904
2026-01-20 21:28:40.80	86.43	2.49	-49.5	-64.7	3.6	1.51e+00	0	42	104	0	60	61999
2026-01-20 21:28:41.80	86.35	2.54	-49.6	-64.9	3.6	1.51e+00	0	41	104	0	60	63855
2026-01-20 21:28:42.82	86.28	2.60	-49.5	-64.8	3.6	1.51e+00	0	42	104	0	60	62938
2026-01-20 21:28:43.83	86.21	2.66	-49.6	-64.8	3.6	1.51e+00	0	42	104	0	60	62714
2026-01-20 21:28:44.84	86.13	2.71	-49.6	-64.7	3.6	1.51e+00	0	41	104	0	60	62393
2026-01-20 21:28:45.85	86.06	2.77	-49.6	-64.8	3.6	1.51e+00	0	41	104	0	60	62858
2026-01-20 21:28:46.86	85.98	2.82	-49.4	-64.8	3.6	1.51e+00	0	42	104	0	60	62739
2026-01-20 21:28:47.87	85.91	2.88	-49.6	-64.6	3.6	1.51e+00	0	42	104	0	60	61672
2026-01-20 21:28:48.88	85.83	2.94	-49.5	-64.1	3.6	1.51e+00	0	41	104	0	60	57710
2026-01-20 21:28:49.89	85.75	2.99	-49.5	-64.1	3.6	1.51e+00	0	41	104	0	60	58019
2026-01-20 21:28:50.90	85.68	3.05	-49.5	-64.3	3.6	1.51e+00	0	42	104	0	60	59236
2026-01-20 21:28:51.91	85.60	3.11	-49.5	-64.6	3.6	1.51e+00	0	42	104	0	60	61717
2026-01-20 21:28:52.92	85.52	3.17	-49.4	-62.9	3.6	1.51e+00	0	42	104	0	60	50261
2026-01-20 21:28:53.93	85.45	3.22	-49.1	-58.9	4.8	1.32e+00	0	42	0	0	60	31885
2026-01-20 21:28:54.94	85.37	3.28	-48.9	-56.2	6.7	5.50e-01	0	42	0	2097152	60	23404
2026-01-20 21:28:55.95	85.29	3.34	-49.7	-64.8	3.6	1.32e+00	0	42	104	3145728	60	63085
2026-01-20 21:28:56.96	85.21	3.39	-49.7	-64.0	3.6	1.51e+00	0	42	104	3145728	60	57394
2026-01-20 21:28:57.97	85.13	3.45	-47.0	-51.0	12.5	1.44e+00	0	42	104	3145728	60	12781
2026-01-20 21:28:58.98	85.06	3.51	-45.6	-48.3	15.5	0.00e+00	0	42	0	4194304	60	9397
2026-01-20 21:28:59.99	84.98	3.57	-49.1	-63.8	3.6	4.56e-01	0	42	104	5242880	60	56063
2026-01-20 21:29:01.00	84.90	3.62	-45.1	-47.5	15.8	1.49e+00	1	42	104	5242880	60	8530
2026-01-20 21:29:02.01	84.82	3.68	-45.5	-48.0	15.6	0.00e+00	0	42	0	5242880	60	9117
2026-01-20 21:29:03.02	84.74	3.74	-46.1	-49.0	14.9	0.00e+00	0	42	0	7340032	60	10183
2026-01-20 21:29:04.03	84.66	3.80	-44.8	-47.0	16.9	0.00e+00	0	42	0	9437184	60	8075
2026-01-20 21:29:05.04	84.58	3.85	-45.4	-47.8	16.0	0.00e+00	0	42	0	11534336	60	8921
2026-01-20 21:29:06.05	84.49	3.91	-45.0	-47.3	16.6	0.00e+00	0	42	0	12582912	60	8400
2026-01-20 21:29:07.06	84.41	3.97	-45.1	-47.4	16.6	0.00e+00	0	42	0	14680064	60	8491
2026-01-20 21:29:08.07	84.33	4.03	-44.4	-46.3	17.6	0.00e+00	0	42	0	16777216	60	7466
2026-01-20 21:29:09.08	84.25	4.09	-44.7	-46.7	17.5	0.00e+00	0	42	0	18874368	60	7816
2026-01-20 21:29:10.09	84.17	4.14	-44.1	-46.0	18.1	0.00e+00	0	42	0	20971520	60	7199
2026-01-20 21:29:11.10	84.08	4.20	-44.6	-46.7	17.3	0.00e+00	0	42	0	22020096	60	7824
2026-01-20 21:29:12.11	84.00	4.26	-44.6	-46.7	17.4	0.00e+00	0	42	0	24117248	60	7792
2026-01-20 21:29:13.12	83.92	4.32	-44.0	-45.9	18.0	0.00e+00	0	42	0	26214400	60	7121
2026-01-20 21:29:14.13	83.83	4.38	-44.0	-45.9	18.3	0.00e+00	0	42	0	28311552	60	7090
2026-01-20 21:29:15.14	83.75	4.44	-45.1	-47.4	16.5	0.00e+00	0	42	0	30408704	60	8427
2026-01-20 21:29:16.15	83.66	4.49	-43.3	-44.9	19.1	0.00e+00	0	42	0	31457280	60	6388
2026-01-20 21:29:17.16	83.58	4.55	-44.7	-46.8	17.2	0.00e+00	0	42	0	33554432	60	7885
2026-01-20 21:29:18.17	83.49	4.61	-45.5	-47.9	16.3	0.00e+00	0	42	0	35651584	60	9012
2026-01-20 21:29:19.18	83.41	4.67	-44.1	-46.0	18.3	0.00e+00	0	42	0	37748736	60	7188
2026-01-20 21:29:20.19	83.32	4.73	-44.3	-46.3	17.9	0.00e+00	0	42	0	39845888	60	7431
2026-01-20 21:29:21.20	83.24	4.79	-43.5	-45.2	18.8	0.00e+00	0	42	0	41943040	60	6608
2026-01-20 21:29:22.21	83.15	4.85	-43.8	-45.6	18.3	0.00e+00	0	42	0	42991616	60	6886
2026-01-20 21:29:23.22	83.06	4.91	-44.0	-45.9	18.4	0.00e+00	0	42	0	45088768	60	7095
2026-01-20 21:29:24.23	82.98	4.96	-43.9	-45.8	18.1	0.00e+00	0	42	0	47185920	60	7038
2026-01-20 21:29:25.24	82.89	5.02	-44.7	-46.9	17.4	0.00e+00	0	42	0	49283072	60	7992
2026-01-20 21:29:26.25	82.80	5.08	-44.3	-46.3	17.9	0.00e+00	0	42	0	51380224	60	7445
2026-01-20 21:29:27.26	82.71	5.14	-44.0	-45.9	18.1	0.00e+00	0	42	0	52428800	60	7148
2026-01-20 21:29:28.27	82.62	5.20	-43.9	-45.8	18.1	0.00e+00	0	42	0	54525952	60	7036
2026-01-20 21:29:29.28	82.53	5.26	-43.9	-45.8	18.4	0.00e+00	0	42	0	56623104	60	7008
2026-01-20 21:29:30.29	82.44	5.32	-43.2	-44.8	19.1	0.00e+00	0	42	0	58720256	60	6316
2026-01-20 21:29:31.30	82.35	5.38	-43.3	-44.9	19.3	0.00e+00	0	42	0	60817408	60	6354
2026-01-20 21:29:32.31	82.26	5.44	-43.0	-44.6	19.3	0.00e+00	0	42	0	61865984	60	6106
2026-01-20 21:29:33.32	82.17	5.50	-43.1	-44.6	19.3	0.00e+00	0	42	0	63963136	60	6155
2026-01-20 21:29:34.33	82.08	5.56	-43.2	-44.8	19.1	0.00e+00	0	42	0	66060288	60	6274
2026-01-20 21:29:35.34	81.99	5.62	-43.4	-45.1	18.9	0.00e+00	0	42	0	68157440	60	6490
2026-01-20 21:29:36.35	81.90	5.68	-43.3	-44.9	19.1	0.00e+00	0	42	0	70254592	60	6358
2026-01-20 21:29:37.36	81.80	5.74	-43.1	-44.7	19.5	0.00e+00	0	42	0	71303168	60	6192
2026-01-20 21:29:38.36	81.71	5.80	-43.3	-44.9	19.3	0.00e+00	0	42	0	73400320	60	6375
2026-01-20 21:29:39.38	81.62	5.86	-43.1	-44.7	19.4	0.00e+00	0	42	0	75497472	60	6216
2026-01-20 21:29:40.38	81.53	5.92	-43.0	-44.5	19.5	0.00e+00	0	42	0	77594624	60	6091
2026-01-20 21:29:41.39	81.43	5.98	-42.9	-44.3	19.7	0.00e+00	0	42	0	79691776	60	5943
2026-01-20 21:29:42.40	81.34	6.04	-42.7	-44.2	19.9	0.00e+00	0	42	0	80740352	58	6575
2026-01-20 21:29:43.41	81.24	6.10	-43.2	-44.8	19.3	0.00e+00	0	42	0	82837504	58	7017
2026-01-20 21:29:44.42	81.15	6.16	-43.3	-45.0	19.1	0.00e+00	0	42	0	84934656	58	7171
2026-01-20 21:29:45.43	81.05	6.22	-43.2	-44.9	19.3	0.00e+00	0	42	0	87031808	58	7094
2026-01-20 21:29:46.44	80.96	6.28	-43.7	-45.5	18.6	0.00e+00	0	42	0	89128960	58	7666
2026-01-20 21:29:47.45	80.86	6.34	-43.5	-45.3	18.8	0.00e+00	0	42	0	90177536	58	7445
2026-01-20 21:29:48.46	80.76	6.40	-43.7	-45.5	18.6	0.00e+00	0	42	0	92274688	58	7644
2026-01-20 21:29:49.47	80.67	6.46	-43.4	-45.1	19.0	0.00e+00	0	42	0	94371840	58	7310
2026-01-20 21:29:50.48	80.57	6.52	-43.4	-45.1	19.1	0.00e+00	0	42	0	96468992	58	7298
2026-01-20 21:29:51.49	80.47	6.58	-43.5	-45.3	19.0	0.00e+00	0	42	0	98566144	58	7454
2026-01-20 21:29:52.49	80.37	6.64	-43.7	-45.6	18.7	0.00e+00	0	42	0	99614720	60	6852
2026-01-20 21:29:53.50	80.27	6.71	-43.7	-45.6	18.7	0.00e+00	0	42	0	101711872	60	6874
2026-01-20 21:29:54.51	80.18	6.77	-43.7	-45.5	19.0	0.00e+00	0	42	0	103809024	60	6823
2026-01-20 21:29:55.52	80.08	6.83	-43.8	-45.6	18.7	0.00e+00	0	42	0	105906176	60	6872
2026-01-20 21:29:56.53	79.98	6.89	-43.8	-45.7	18.7	0.00e+00	0	42	0	108003328	60	6940
2026-01-20 21:29:57.54	79.88	6.95	-44.1	-46.0	18.3	0.00e+00	0	42	0	109051904	60	7206
2026-01-20 21:29:58.55	79.77	7.01	-44.1	-46.1	18.2	0.00e+00	0	42	0	111149056	60	7276
2026-01-20 21:29:59.56	79.67	7.07	-43.9	-45.7	18.5	0.00e+00	0	42	0	113246208	60	6983
2026-01-20 21:30:00.57	79.57	7.13	-44.9	-47.1	17.3	0.00e+00	0	42	0	115343360	60	8190
2026-01-20 21:30:01.58	79.47	7.20	-44.1	-46.0	18.4	0.00e+00	0	42	0	117440512	60	7172
2026-01-20 21:30:02.59	79.37	7.26	-43.8	-45.6	19.0	0.00e+00	0	42	0	118489088	60	6856
2026-01-20 21:30:03.60	79.26	7.32	-43.9	-45.7	18.7	0.00e+00	0	42	0	120586240	60	6940
2026-01-20 21:30:04.61	79.16	7.38	-43.9	-45.7	18.7	0.00e+00	0	42	0	122683392	60	6933
2026-01-20 21:30:05.61	79.06	7.44	-43.9	-45.7	18.6	0.00e+00	0	42	0	124780544	60	6943
2026-01-20 21:30:06.62	78.95	7.50	-43.6	-45.3	19.0	0.00e+00	0	42	0	126877696	60	6659
2026-01-20 21:30:07.63	78.85	7.56	-43.4	-45.1	19.3	0.00e+00	0	42	0	127926272	60	6509
2026-01-20 21:30:08.64	78.74	7.63	-43.2	-44.9	19.6	0.00e+00	0	42	0	130023424	60	6351
2026-01-20 21:30:09.65	78.63	7.69	-42.9	-44.5	19.9	0.00e+00	0	42	0	132120576	60	6046
2026-01-20 21:30:10.66	78.53	7.75	-42.9	-44.5	19.8	0.00e+00	0	42	0	134217728	60	6056
2026-01-20 21:30:11.67	78.42	7.81	-42.9	-44.4	19.9	0.00e+00	0	42	0	136314880	60	5997
2026-01-20 21:30:12.68	78.31	7.87	-42.9	-44.5	19.6	0.00e+00	0	42	0	138412032	60	6053
2026-01-20 21:30:13.69	78.21	7.94	-43.0	-44.5	19.7	0.00e+00	0	42	0	139460608	60	6099
2026-01-20 21:30:14.70	78.10	8.00	-43.1	-44.6	19.7	0.00e+00	0	42	0	141557760	60	6170
2026-01-20 21:30:15.71	77.99	8.06	-43.4	-45.0	19.4	0.00e+00	0	42	0	143654912	60	6443
2026-01-20 21:30:16.72	77.88	8.12	-43.4	-45.1	19.3	0.00e+00	0	42	0	145752064	60	6467
2026-01-20 21:30:17.73	77.77	8.19	-43.2	-44.8	19.5	0.00e+00	0	42	0	147849216	60	6250
2026-01-20 21:30:18.74	77.66	8.25	-43.3	-45.0	19.2	0.00e+00	0	42	0	148897792	60	6402
2026-01-20 21:30:19.75	77.55	8.31	-43.2	-44.9	19.4	0.00e+00	0	42	0	150994944	60	6358
2026-01-20 21:30:20.76	77.44	8.37	-43.3	-45.0	19.5	0.00e+00	0	42	0	153092096	60	6403
2026-01-20 21:30:21.77	77.33	8.44	-43.4	-45.1	19.2	0.00e+00	0	42	0	155189248	60	6516
2026-01-20 21:30:22.78	77.21	8.50	-43.4	-45.1	19.3	0.00e+00	0	42	0	157286400	60	6487
2026-01-20 21:30:23.79	77.10	8.56	-43.5	-45.2	19.2	0.00e+00	0	42	0	158334976	60	6600
2026-01-20 21:30:24.80	76.99	8.62	-43.5	-45.3	19.1	0.00e+00	0	42	0	160432128	60	6624
2026-01-20 21:30:25.80	76.88	8.69	-43.4	-45.2	19.2	0.00e+00	0	42	0	162529280	60	6540
2026-01-20 21:30:26.81	76.76	8.75	-43.5	-45.3	19.0	0.00e+00	0	42	0	164626432	60	6677
2026-01-20 21:30:27.82	76.65	8.81	-43.3	-45.0	19.4	0.00e+00	0	42	0	166723584	60	6438
2026-01-20 21:30:28.83	76.53	8.88	-43.3	-44.9	19.4	0.00e+00	0	42	0	167772160	60	6386
2026-01-20 21:30:29.84	76.42	8.94	-43.2	-44.9	19.4	0.00e+00	0	42	0	169869312	60	6387
2026-01-20 21:30:30.85	76.30	9.00	-43.1	-44.7	19.7	0.00e+00	0	42	0	171966464	60	6197
2026-01-20 21:30:31.86	76.18	9.06	-43.0	-44.6	19.7	0.00e+00	0	42	0	174063616	60	6167
2026-01-20 21:30:32.87	76.07	9.13	-43.2	-44.9	19.6	0.00e+00	0	42	0	176160768	60	6357
2026-01-20 21:30:33.88	75.95	9.19	-42.8	-44.4	19.9	0.00e+00	0	42	0	177209344	60	6016
2026-01-20 21:30:34.89	75.83	9.25	-42.9	-44.5	19.8	0.00e+00	0	42	0	179306496	60	6092
2026-01-20 21:30:35.90	75.71	9.32	-42.9	-44.4	20.0	0.00e+00	0	42	0	181403648	60	6017
2026-01-20 21:30:36.91	75.59	9.38	-42.7	-44.3	20.0	0.00e+00	0	42	0	183500800	58	6671
2026-01-20 21:30:37.92	75.47	9.44	-42.6	-44.1	20.2	0.00e+00	0	42	0	185597952	58	6512
2026-01-20 21:30:38.93	75.35	9.51	-42.7	-44.2	20.1	0.00e+00	0	42	0	186646528	58	6571
2026-01-20 21:30:39.94	75.23	9.57	-42.7	-44.2	20.1	0.00e+00	0	42	0	188743680	58	6591
2026-01-20 21:30:40.95	75.11	9.63	-42.3	-43.7	20.6	0.00e+00	0	42	0	190840832	58	6204
2026-01-20 21:30:41.96	74.99	9.70	-42.4	-43.7	20.5	0.00e+00	0	42	0	192937984	58	6245
2026-01-20 21:30:42.97	74.86	9.76	-42.5	-43.9	20.4	0.00e+00	0	42	0	195035136	58	6373
2026-01-20 21:30:43.98	74.74	9.82	-42.4	-43.8	20.5	0.00e+00	0	42	0	196083712	58	6292
2026-01-20 21:30:44.99	74.62	9.89	-42.6	-44.0	20.3	0.00e+00	0	42	0	198180864	58	6451
2026-01-20 21:30:46.00	74.49	9.95	-42.4	-43.8	20.5	0.00e+00	0	42	0	200278016	58	6296
2026-01-20 21:30:47.01	74.37	10.02	-42.5	-43.9	20.4	0.00e+00	0	42	0	202375168	58	6356
2026-01-20 21:30:48.02	74.24	10.08	-42.5	-43.9	20.4	0.00e+00	0	42	0	204472320	58	6389
2026-01-20 21:30:49.03	74.12	10.14	-42.5	-43.9	20.4	0.00e+00	0	42	0	206569472	58	6336
2026-01-20 21:30:50.04	73.99	10.21	-42.5	-43.9	20.5	0.00e+00	0	42	0	207618048	58	6325
2026-01-20 21:30:51.05	73.86	10.27	-42.5	-43.9	20.4	0.00e+00	0	42	0	209715200	58	6355
2026-01-20 21:30:52.06	73.74	10.33	-42.6	-44.1	20.3	0.00e+00	0	42	0	211812352	58	6503
2026-01-20 21:30:53.07	73.61	10.40	-42.8	-44.3	20.2	0.00e+00	0	42	0	213909504	58	6641
2026-01-20 21:30:54.08	73.48	10.46	-42.7	-44.1	20.3	0.00e+00	0	42	0	216006656	58	6505
2026-01-20 21:30:55.09	73.35	10.53	-42.8	-44.3	20.2	0.00e+00	0	42	0	217055232	58	6634
2026-01-20 21:30:56.10	73.22	10.59	-43.0	-44.5	20.0	0.00e+00	0	42	0	219152384	58	6772
2026-01-20 21:30:57.11	73.09	10.65	-43.0	-44.5	20.0	0.00e+00	0	42	0	221249536	58	6782
2026-01-20 21:30:58.12	72.96	10.72	-42.9	-44.4	20.0	0.00e+00	0	42	0	223346688	58	6759
2026-01-20 21:30:59.14	72.83	10.78	-42.8	-44.2	20.2	0.00e+00	0	42	0	225443840	58	6598
2026-01-20 21:31:00.15	72.69	10.85	-42.8	-44.3	20.1	0.00e+00	0	42	0	226492416	58	6665
2026-01-20 21:31:01.16	72.56	10.91	-42.7	-44.3	20.3	0.00e+00	0	42	0	228589568	58	6619
2026-01-20 21:31:02.17	72.43	10.97	-42.7	-44.2	20.3	0.00e+00	0	42	0	230686720	58	6545
2026-01-20 21:31:03.18	72.29	11.04	-42.7	-44.1	20.4	0.00e+00	0	42	0	232783872	58	6502
2026-01-20 21:31:04.19	72.16	11.10	-42.4	-43.7	20.6	0.00e+00	0	42	0	234881024	58	6236
2026-01-20 21:31:05.20	72.03	11.17	-42.4	-43.7	20.6	0.00e+00	0	42	0	235929600	58	6216
2026-01-20 21:31:06.21	71.89	11.23	-42.3	-43.7	20.7	0.00e+00	0	42	0	238026752	58	6181
2026-01-20 21:31:07.22	71.75	11.29	-42.4	-43.7	20.7	0.00e+00	0	42	0	240123904	58	6233
2026-01-20 21:31:08.22	71.62	11.36	-42.2	-43.5	20.9	0.00e+00	0	42	0	242221056	58	6068
2026-01-20 21:31:09.23	71.48	11.42	-42.2	-43.4	20.9	0.00e+00	0	42	0	244318208	58	6029
2026-01-20 21:31:10.25	71.34	11.49	-42.3	-43.6	20.7	0.00e+00	0	42	0	246415360	58	6160
2026-01-20 21:31:11.25	71.20	11.55	-42.4	-43.7	20.8	0.00e+00	0	42	0	247463936	58	6182
2026-01-20 21:31:12.26	71.06	11.61	-42.4	-43.7	20.2	0.00e+00	0	42	0	249561088	58	6209
2026-01-20 21:31:13.27	70.92	11.68	-42.5	-43.8	20.6	0.00e+00	0	42	0	251658240	58	6290
2026-01-20 21:31:14.28	70.78	11.74	-42.4	-43.7	20.6	0.00e+00	0	42	0	253755392	58	6202
2026-01-20 21:31:15.29	70.64	11.81	-42.3	-43.5	20.9	0.00e+00	0	42	0	254803968	58	6095
2026-01-20 21:31:16.30	70.50	11.87	-42.3	-43.6	20.9	0.00e+00	0	42	0	256901120	58	6140
2026-01-20 21:31:17.31	70.36	11.93	-42.3	-43.5	20.9	0.00e+00	0	42	0	258998272	58	6073
2026-01-20 21:31:18.32	70.21	12.00	-42.3	-43.6	20.7	0.00e+00	0	42	0	261095424	58	6159
2026-01-20 21:31:19.33	70.07	12.06	-42.6	-44.0	20.5	0.00e+00	0	42	0	263192576	58	6407
2026-01-20 21:31:20.34	69.93	12.13	-42.4	-43.7	20.8	0.00e+00	0	42	0	264241152	58	6183
2026-01-20 21:31:21.35	69.78	12.19	-42.5	-43.7	20.7	0.00e+00	0	42	0	266338304	58	6237
2026-01-20 21:31:22.36	69.63	12.25	-42.4	-43.7	20.8	0.00e+00	0	42	0	268435456	58	6177
2026-01-20 21:31:23.37	69.49	12.32	-42.4	-43.7	20.8	0.00e+00	0	42	0	270532608	58	6190
2026-01-20 21:31:24.38	69.34	12.38	-42.5	-43.7	20.7	0.00e+00	0	42	0	272629760	58	6233
2026-01-20 21:31:25.39	69.19	12.45	-42.4	-43.7	20.7	0.00e+00	0	42	0	274726912	58	6183
2026-01-20 21:31:26.40	69.05	12.51	-42.3	-43.6	20.9	0.00e+00	0	42	0	275775488	58	6115
2026-01-20 21:31:27.41	68.90	12.57	-42.4	-43.6	20.7	0.00e+00	0	42	0	277872640	58	6155
2026-01-20 21:31:28.42	68.75	12.64	-42.2	-43.4	20.9	0.00e+00	0	42	0	279969792	58	6004
2026-01-20 21:31:29.43	68.60	12.70	-42.2	-43.4	21.0	0.00e+00	0	42	0	282066944	58	6001
2026-01-20 21:31:30.44	68.45	12.77	-42.3	-43.4	21.0	0.00e+00	0	42	0	284164096	58	6031
2026-01-20 21:31:31.45	68.29	12.83	-42.2	-43.4	21.1	0.00e+00	0	42	0	285212672	58	6012
2026-01-20 21:31:32.46	68.14	12.89	-42.1	-43.3	21.1	0.00e+00	0	42	0	287309824	58	5941
2026-01-20 21:31:33.47	67.99	12.96	-42.5	-43.7	20.7	0.00e+00	0	42	0	289406976	58	6243
2026-01-20 21:31:34.48	67.84	13.02	-42.5	-43.8	20.7	0.00e+00	0	42	0	291504128	58	6263
2026-01-20 21:31:35.49	67.68	13.08	-42.6	-43.9	20.6	0.00e+00	0	42	0	293601280	58	6348
2026-01-20 21:31:36.50	67.53	13.15	-42.6	-43.8	20.7	0.00e+00	0	42	0	294649856	58	6287
2026-01-20 21:31:37.51	67.37	13.21	-42.5	-43.8	20.7	0.00e+00	0	42	0	296747008	58	6260
2026-01-20 21:31:38.52	67.21	13.27	-42.6	-43.9	20.9	0.00e+00	0	42	0	298844160	58	6356
2026-01-20 21:31:39.53	67.06	13.34	-42.7	-43.9	20.6	0.00e+00	0	42	0	300941312	58	6385
2026-01-20 21:31:40.54	66.90	13.40	-42.8	-44.1	20.4	0.00e+00	0	42	0	303038464	58	6512
2026-01-20 21:31:41.55	66.74	13.46	-42.8	-44.2	20.4	0.00e+00	0	42	0	304087040	58	6544
2026-01-20 21:31:42.56	66.58	13.53	-42.9	-44.2	20.3	0.00e+00	0	42	0	306184192	58	6596
2026-01-20 21:31:43.57	66.42	13.59	-42.9	-44.3	20.3	0.00e+00	0	42	0	308281344	58	6636
2026-01-20 21:31:44.58	66.26	13.65	-43.0	-44.3	20.3	0.00e+00	0	42	0	310378496	58	6647
2026-01-20 21:31:45.59	66.10	13.72	-42.7	-44.0	20.6	0.00e+00	0	42	0	312475648	58	6415
2026-01-20 21:31:46.60	65.94	13.78	-42.6	-43.9	20.6	0.00e+00	0	42	0	314572800	58	6331
2026-01-20 21:31:47.61	65.78	13.84	-42.8	-44.0	20.4	0.00e+00	0	42	0	315621376	58	6464
2026-01-20 21:31:48.62	65.61	13.91	-42.8	-44.1	20.5	0.00e+00	0	42	0	317718528	58	6502
2026-01-20 21:31:49.63	65.45	13.97	-42.8	-44.1	20.4	0.00e+00	0	42	0	319815680	58	6503
2026-01-20 21:31:50.64	65.28	14.03	-42.5	-43.7	20.7	0.00e+00	0	42	0	321912832	58	6224
2026-01-20 21:31:51.65	65.12	14.09	-42.5	-43.7	20.8	0.00e+00	0	42	0	324009984	58	6224
2026-01-20 21:31:52.66	64.95	14.16	-42.7	-44.0	20.5	0.00e+00	0	42	0	325058560	58	6425
2026-01-20 21:31:53.67	64.79	14.22	-42.6	-43.9	20.7	0.00e+00	0	42	0	327155712	58	6348
2026-01-20 21:31:54.68	64.62	14.28	-42.4	-43.7	20.8	0.00e+00	0	42	0	329252864	58	6208
2026-01-20 21:31:55.69	64.45	14.34	-42.6	-43.9	20.6	0.00e+00	0	42	0	331350016	58	6354
2026-01-20 21:31:56.70	64.28	14.41	-42.5	-43.8	20.8	0.00e+00	0	42	0	333447168	58	6254
2026-01-20 21:31:57.71	64.11	14.47	-42.5	-43.8	20.7	0.00e+00	0	42	0	334495744	58	6274
2026-01-20 21:31:58.72	63.94	14.53	-42.6	-43.9	20.6	0.00e+00	0	42	0	336592896	58	6378
2026-01-20 21:31:59.73	63.77	14.59	-42.7	-44.1	20.6	0.00e+00	0	42	0	338690048	58	6479
2026-01-20 21:32:00.74	63.60	14.66	-42.9	-44.2	20.4	0.00e+00	0	42	0	340787200	58	6603
2026-01-20 21:32:01.75	63.43	14.72	-42.6	-43.9	20.6	0.00e+00	0	42	0	342884352	58	6378
2026-01-20 21:32:02.76	63.25	14.78	-42.6	-43.9	20.7	0.00e+00	0	42	0	343932928	58	6349
2026-01-20 21:32:03.77	63.08	14.84	-42.3	-43.6	21.0	0.00e+00	0	42	0	346030080	58	6110
2026-01-20 21:32:04.78	62.90	14.90	-42.2	-43.4	21.1	0.00e+00	0	42	0	348127232	58	6015
2026-01-20 21:32:05.79	62.73	14.96	-41.8	-42.9	21.5	0.00e+00	0	42	0	350224384	58	5670
2026-01-20 21:32:06.80	62.55	15.02	-41.8	-42.9	21.2	0.00e+00	0	42	0	352321536	58	5679
2026-01-20 21:32:07.81	62.37	15.09	-41.8	-43.0	21.4	0.00e+00	0	42	0	353370112	56	6391
2026-01-20 21:32:08.82	62.20	15.15	-41.7	-42.8	21.4	0.00e+00	0	42	0	355467264	56	6304
2026-01-20 21:32:09.83	62.02	15.21	-41.7	-42.8	21.6	0.00e+00	0	42	0	357564416	56	6265
2026-01-20 21:32:10.84	61.84	15.27	-41.5	-42.6	21.9	0.00e+00	0	42	0	359661568	56	6146
2026-01-20 21:32:11.85	61.66	15.33	-41.2	-42.3	22.1	0.00e+00	0	42	0	361758720	56	5900
2026-01-20 21:32:12.86	61.48	15.39	-41.3	-42.3	21.9	0.00e+00	0	42	0	362807296	56	5960
2026-01-20 21:32:13.87	61.30	15.45	-41.3	-42.4	22.0	0.00e+00	0	42	0	364904448	56	5996
2026-01-20 21:32:14.87	61.12	15.51	-41.4	-42.5	22.0	0.00e+00	0	42	0	367001600	56	6081
2026-01-20 21:32:15.88	60.93	15.57	-41.3	-42.4	22.1	0.00e+00	0	42	0	369098752	56	5991
2026-01-20 21:32:16.89	60.75	15.63	-41.1	-42.2	22.2	0.00e+00	0	42	0	371195904	56	5840
2026-01-20 21:32:17.90	60.57	15.69	-40.8	-41.9	22.6	0.00e+00	0	42	0	372244480	56	5631
2026-01-20 21:32:18.91	60.38	15.75	-41.0	-42.0	22.3	0.00e+00	0	42	0	374341632	56	5757
2026-01-20 21:32:19.92	60.20	15.81	-41.1	-42.2	22.2	0.00e+00	0	42	0	376438784	56	5840
2026-01-20 21:32:20.93	60.01	15.87	-40.9	-41.9	22.4	0.00e+00	0	42	0	378535936	56	5675
2026-01-20 21:32:21.94	59.82	15.93	-40.9	-41.9	22.4	0.00e+00	0	42	0	380633088	56	5643
2026-01-20 21:32:22.95	59.63	15.98	-40.6	-41.6	22.7	0.00e+00	0	42	0	382730240	54	6139
2026-01-20 21:32:23.96	59.44	16.04	-40.4	-41.3	22.8	0.00e+00	0	42	0	383778816	54	5951
2026-01-20 21:32:24.97	59.26	16.10	-40.4	-41.4	22.8	0.00e+00	0	42	0	385875968	54	5967
2026-01-20 21:32:25.98	59.06	16.16	-40.4	-41.4	22.9	0.00e+00	0	42	0	387973120	54	5989
2026-01-20 21:32:26.99	58.87	16.22	-40.4	-41.4	22.8	0.00e+00	0	42	0	390070272	54	5967
2026-01-20 21:32:28.00	58.68	16.28	-40.4	-41.4	22.8	0.00e+00	0	42	0	392167424	54	6021
2026-01-20 21:32:29.01	58.49	16.33	-40.4	-41.4	22.8	0.00e+00	0	42	0	393216000	54	6030
2026-01-20 21:32:30.02	58.30	16.39	-40.4	-41.4	22.8	0.00e+00	0	42	0	395313152	54	6013
2026-01-20 21:32:31.03	58.10	16.45	-40.5	-41.5	22.6	0.00e+00	0	42	0	397410304	54	6060
2026-01-20 21:32:32.04	57.91	16.51	-40.6	-41.7	22.6	0.00e+00	0	42	0	399507456	54	6185
2026-01-20 21:32:33.05	57.71	16.56	-40.5	-41.5	22.7	0.00e+00	0	42	0	401604608	54	6068
2026-01-20 21:32:34.06	57.52	16.62	-40.5	-41.5	22.7	0.00e+00	0	42	0	402653184	54	6070
2026-01-20 21:32:35.07	57.32	16.68	-40.4	-41.4	22.8	0.00e+00	0	42	0	404750336	54	5969
2026-01-20 21:32:36.08	57.12	16.73	-40.4	-41.4	22.7	0.00e+00	0	42	0	406847488	54	6028
2026-01-20 21:32:37.09	56.92	16.79	-40.3	-41.3	22.9	0.00e+00	0	42	0	408944640	54	5937
2026-01-20 21:32:38.10	56.72	16.85	-40.3	-41.3	22.9	0.00e+00	0	42	0	411041792	54	5952
2026-01-20 21:32:39.11	56.52	16.90	-40.3	-41.3	22.9	0.00e+00	0	42	0	412090368	54	5920
2026-01-20 21:32:40.11	56.32	16.96	-40.1	-41.1	23.1	0.00e+00	0	42	0	414187520	54	5783
2026-01-20 21:32:41.12	56.12	17.01	-40.3	-41.3	22.9	0.00e+00	0	42	0	416284672	54	5910
2026-01-20 21:32:42.13	55.92	17.07	-40.3	-41.3	23.1	0.00e+00	0	42	0	418381824	54	5919
2026-01-20 21:32:43.14	55.72	17.12	-40.2	-41.2	23.0	0.00e+00	0	42	0	420478976	54	5854
2026-01-20 21:32:44.15	55.51	17.18	-40.5	-41.5	22.8	0.00e+00	0	42	0	421527552	54	6066
2026-01-20 21:32:45.16	55.31	17.23	-40.6	-41.6	22.7	0.00e+00	0	42	0	423624704	54	6168
2026-01-20 21:32:46.17	55.10	17.28	-40.7	-41.7	22.6	0.00e+00	0	42	0	425721856	54	6223
2026-01-20 21:32:47.18	54.90	17.34	-40.6	-41.7	22.6	0.00e+00	0	42	0	427819008	54	6193
2026-01-20 21:32:48.19	54.69	17.39	-40.6	-41.6	22.6	0.00e+00	0	42	0	429916160	54	6173
2026-01-20 21:32:49.20	54.48	17.44	-40.5	-41.5	22.8	0.00e+00	0	42	0	430964736	54	6098
2026-01-20 21:32:50.21	54.28	17.50	-40.4	-41.4	22.9	0.00e+00	0	42	0	433061888	54	6010
2026-01-20 21:32:51.22	54.07	17.55	-40.1	-41.1	23.0	0.00e+00	0	42	0	435159040	54	5785
2026-01-20 21:32:52.23	53.86	17.60	-40.0	-41.0	23.1	0.00e+00	0	42	0	437256192	54	5725
2026-01-20 21:32:53.24	53.65	17.65	-40.4	-41.4	22.9	0.00e+00	0	42	0	439353344	54	5977
2026-01-20 21:32:54.25	53.44	17.71	-40.2	-41.1	23.1	0.00e+00	0	42	0	440401920	54	5797
2026-01-20 21:32:55.26	53.22	17.76	-40.1	-41.0	23.1	0.00e+00	0	42	0	442499072	54	5739
2026-01-20 21:32:56.27	53.01	17.81	-40.1	-41.0	23.2	0.00e+00	0	42	0	444596224	54	5721
2026-01-20 21:32:57.28	52.80	17.86	-39.8	-40.7	23.4	0.00e+00	0	42	0	446693376	54	5524
2026-01-20 21:32:58.29	52.58	17.91	-39.7	-40.5	23.5	0.00e+00	0	42	0	448790528	52	6102
2026-01-20 21:32:59.30	52.37	17.96	-39.5	-40.4	23.6	0.00e+00	0	42	0	450887680	52	5989
2026-01-20 21:33:00.31	52.15	18.01	-39.2	-40.0	23.9	0.00e+00	0	42	0	451936256	52	5748
2026-01-20 21:33:01.32	51.94	18.06	-39.1	-39.9	24.0	0.00e+00	0	42	0	454033408	52	5672
2026-01-20 21:33:02.33	51.72	18.11	-38.9	-39.7	24.2	0.00e+00	0	42	0	456130560	52	5563
2026-01-20 21:33:03.34	51.50	18.16	-38.9	-39.7	24.1	0.00e+00	0	42	0	458227712	52	5548
2026-01-20 21:33:04.35	51.28	18.21	-39.1	-39.9	23.7	0.00e+00	0	42	0	460324864	52	5686
2026-01-20 21:33:05.36	51.07	18.26	-39.3	-40.1	23.8	0.00e+00	0	42	0	461373440	52	5810
2026-01-20 21:33:06.37	50.85	18.30	-39.2	-40.0	23.9	0.00e+00	0	42	0	463470592	52	5754
2026-01-20 21:33:07.38	50.63	18.35	-39.3	-40.2	23.9	0.00e+00	0	42	0	465567744	52	5851
2026-01-20 21:33:08.38	50.41	18.40	-39.4	-40.3	23.7	0.00e+00	0	42	0	467664896	52	5939
2026-01-20 21:33:09.39	50.18	18.44	-39.7	-40.6	23.6	0.00e+00	0	42	0	469762048	52	6173
2026-01-20 21:33:10.40	49.96	18.49	-40.0	-40.9	23.2	0.00e+00	0	42	0	470810624	52	6377
2026-01-20 21:33:11.41	49.74	18.54	-40.1	-41.1	23.2	0.00e+00	0	42	0	472907776	52	6479
2026-01-20 21:33:12.42	49.51	18.58	-40.0	-40.9	23.3	0.00e+00	0	42	0	475004928	52	6388
2026-01-20 21:33:13.43	49.29	18.63	-40.0	-41.0	23.3	0.00e+00	0	42	0	477102080	52	6397
2026-01-20 21:33:14.44	49.07	18.67	-39.9	-40.8	23.4	0.00e+00	0	42	0	479199232	52	6302
2026-01-20 21:33:15.45	48.84	18.72	-40.0	-41.0	23.2	0.00e+00	0	42	0	480247808	52	6412
2026-01-20 21:33:16.46	48.61	18.76	-40.2	-41.2	22.9	0.00e+00	0	42	0	482344960	52	6585
2026-01-20 21:33:17.47	48.39	18.81	-40.2	-41.1	23.0	0.00e+00	0	42	0	484442112	52	6531
2026-01-20 21:33:18.48	48.16	18.85	-40.0	-41.0	23.3	0.00e+00	0	42	0	486539264	52	6423
2026-01-20 21:33:19.48	47.93	18.89	-39.8	-40.7	23.6	0.00e+00	0	42	0	488636416	52	6194
2026-01-20 21:33:20.49	47.70	18.94	-39.7	-40.6	23.5	0.00e+00	0	42	0	489684992	52	6143
2026-01-20 21:33:21.50	47.47	18.98	-39.7	-40.6	23.5	0.00e+00	0	42	0	491782144	52	6129
2026-01-20 21:33:22.51	47.24	19.02	-39.6	-40.5	23.5	0.00e+00	0	42	0	493879296	52	6071
2026-01-20 21:33:23.53	47.01	19.06	-39.4	-40.2	23.9	0.00e+00	0	42	0	495976448	52	5875
2026-01-20 21:33:24.53	46.78	19.10	-39.2	-40.1	23.9	0.00e+00	0	42	0	498073600	52	5791
2026-01-20 21:33:25.55	46.55	19.14	-39.2	-40.0	24.1	0.00e+00	0	42	0	499122176	52	5730
2026-01-20 21:33:26.56	46.31	19.18	-39.0	-39.8	24.0	0.00e+00	0	42	0	501219328	52	5589
2026-01-20 21:33:27.57	46.08	19.22	-39.1	-39.9	23.9	0.00e+00	0	42	0	503316480	52	5672
2026-01-20 21:33:28.58	45.84	19.26	-39.1	-40.0	23.5	0.00e+00	0	42	0	505413632	52	5703
2026-01-20 21:33:29.59	45.61	19.30	-39.3	-40.1	23.8	0.00e+00	0	42	0	507510784	52	5822
2026-01-20 21:33:30.59	45.38	19.34	-39.2	-40.1	23.9	0.00e+00	0	42	0	508559360	52	5792
2026-01-20 21:33:31.60	45.14	19.38	-39.4	-40.3	23.7	0.00e+00	0	42	0	510656512	52	5923
2026-01-20 21:33:32.61	44.90	19.42	-39.5	-40.4	23.7	0.00e+00	0	42	0	512753664	52	5985
2026-01-20 21:33:33.62	44.67	19.45	-39.3	-40.2	23.8	0.00e+00	0	42	0	514850816	52	5871
2026-01-20 21:33:34.63	44.43	19.49	-39.3	-40.2	23.9	0.00e+00	0	42	0	516947968	52	5847
2026-01-20 21:33:35.64	44.19	19.53	-39.3	-40.2	23.9	0.00e+00	0	42	0	519045120	52	5851
2026-01-20 21:33:36.65	43.95	19.56	-39.5	-40.4	23.7	0.00e+00	0	42	0	520093696	52	5997
2026-01-20 21:33:37.66	43.71	19.60	-39.8	-40.7	23.6	0.00e+00	0	42	0	522190848	52	6183
2026-01-20 21:33:38.67	43.47	19.63	-39.8	-40.8	23.4	0.00e+00	0	42	0	524288000	52	6247
2026-01-20 21:33:39.68	43.23	19.67	-39.8	-40.7	23.2	0.00e+00	0	42	0	526385152	52	6238
2026-01-20 21:33:40.69	42.99	19.70	-40.1	-41.0	23.2	0.00e+00	0	42	0	527433728	52	6444
2026-01-20 21:33:41.70	42.75	19.73	-40.1	-41.0	23.2	0.00e+00	0	42	0	529530880	52	6447
2026-01-20 21:33:42.71	42.51	19.77	-40.1	-41.0	23.3	0.00e+00	0	42	0	531628032	52	6412
2026-01-20 21:33:43.72	42.27	19.80	-40.3	-41.3	23.1	0.00e+00	0	42	0	533725184	52	6636
2026-01-20 21:33:44.73	42.02	19.83	-40.3	-41.3	23.0	0.00e+00	0	42	0	535822336	52	6640
2026-01-20 21:33:45.74	41.78	19.86	-40.5	-41.4	22.9	0.00e+00	0	42	0	536870912	52	6755
2026-01-20 21:33:46.75	41.53	19.89	-40.5	-41.4	22.9	0.00e+00	0	42	0	538968064	52	6741
2026-01-20 21:33:47.76	41.29	19.92	-40.7	-41.6	22.8	0.00e+00	0	42	0	541065216	52	6902
2026-01-20 21:33:48.77	41.04	19.95	-40.8	-41.8	22.6	0.00e+00	0	42	0	543162368	54	6308
2026-01-20 21:33:49.78	40.80	19.98	-41.1	-42.2	22.1	0.00e+00	0	42	0	545259520	54	6560
2026-01-20 21:33:50.78	40.56	20.01	-41.1	-42.1	22.4	0.00e+00	0	42	0	547356672	54	6514
2026-01-20 21:33:51.79	40.31	20.04	-41.2	-42.2	22.3	0.00e+00	0	42	0	548405248	54	6602
2026-01-20 21:33:52.80	40.06	20.07	-40.8	-41.8	22.6	0.00e+00	0	42	0	550502400	54	6291
2026-01-20 21:33:53.81	39.81	20.09	-40.6	-41.5	22.8	0.00e+00	0	42	0	552599552	54	6093
2026-01-20 21:33:54.82	39.57	20.12	-40.5	-41.4	22.9	0.00e+00	0	42	0	554696704	54	6004
2026-01-20 21:33:55.83	39.32	20.15	-40.4	-41.3	23.1	0.00e+00	0	42	0	556793856	54	5956
2026-01-20 21:33:56.84	39.07	20.17	-40.6	-41.5	22.8	0.00e+00	0	42	0	557842432	54	6085
2026-01-20 21:33:57.85	38.82	20.20	-40.7	-41.7	22.6	0.00e+00	0	42	0	559939584	54	6192
2026-01-20 21:33:58.86	38.57	20.22	-40.8	-41.8	22.6	0.00e+00	0	42	0	562036736	54	6312
2026-01-20 21:33:59.87	38.32	20.25	-41.2	-42.3	22.2	0.00e+00	0	42	0	564133888	54	6621
2026-01-20 21:34:00.88	38.07	20.27	-41.5	-42.7	21.8	0.00e+00	0	42	0	566231040	54	6928
2026-01-20 21:34:01.89	37.82	20.29	-41.7	-42.8	21.8	0.00e+00	0	42	0	567279616	54	7078
2026-01-20 21:34:02.90	37.57	20.31	-41.7	-42.8	21.9	0.00e+00	0	42	0	569376768	56	6299
2026-01-20 21:34:03.91	37.32	20.34	-41.6	-42.7	22.0	0.00e+00	0	42	0	571473920	56	6198
2026-01-20 21:34:04.92	37.07	20.36	-41.3	-42.4	22.1	0.00e+00	0	42	0	573571072	56	5970
2026-01-20 21:34:05.93	36.81	20.38	-41.2	-42.3	22.3	0.00e+00	0	42	0	575668224	56	5942
2026-01-20 21:34:06.94	36.56	20.40	-41.4	-42.5	22.2	0.00e+00	0	42	0	576716800	56	6079
2026-01-20 21:34:07.95	36.31	20.42	-41.7	-42.9	21.8	0.00e+00	0	42	0	578813952	56	6325
2026-01-20 21:34:08.96	36.06	20.44	-41.8	-43.0	21.8	0.00e+00	0	42	0	580911104	56	6411
2026-01-20 21:34:09.97	35.80	20.45	-41.8	-43.0	21.7	0.00e+00	0	42	0	583008256	56	6396
2026-01-20 21:34:10.98	35.55	20.47	-41.7	-42.8	21.8	0.00e+00	0	42	0	585105408	56	6284
2026-01-20 21:34:11.99	35.30	20.49	-41.4	-42.4	22.2	0.00e+00	0	42	0	586153984	56	6014
2026-01-20 21:34:13.00	35.04	20.51	-40.9	-41.9	22.5	0.00e+00	0	42	0	588251136	56	5687
2026-01-20 21:34:14.01	34.79	20.52	-40.8	-41.8	22.7	0.00e+00	0	42	0	590348288	56	5619
2026-01-20 21:34:15.02	34.53	20.54	-40.6	-41.6	22.8	0.00e+00	0	42	0	592445440	54	6124
2026-01-20 21:34:16.03	34.28	20.55	-40.7	-41.7	22.7	0.00e+00	0	42	0	594542592	54	6210
2026-01-20 21:34:17.04	34.02	20.57	-40.7	-41.7	22.8	0.00e+00	0	42	0	595591168	54	6200
2026-01-20 21:34:18.05	33.77	20.58	-40.8	-41.8	22.5	0.00e+00	0	42	0	597688320	54	6290
2026-01-20 21:34:19.06	33.51	20.59	-40.9	-41.9	22.4	0.00e+00	0	42	0	599785472	54	6338
2026-01-20 21:34:20.07	33.26	20.60	-41.3	-42.4	22.1	0.00e+00	0	42	0	601882624	54	6746
2026-01-20 21:34:21.08	33.00	20.62	-41.6	-42.6	21.7	0.00e+00	0	42	0	603979776	54	6923
2026-01-20 21:34:22.09	32.74	20.63	-41.8	-42.9	21.8	0.00e+00	0	42	0	605028352	56	6340
2026-01-20 21:34:23.10	32.49	20.64	-41.7	-42.8	21.8	0.00e+00	0	42	0	607125504	56	6315
2026-01-20 21:34:24.11	32.23	20.65	-41.5	-42.6	22.0	0.00e+00	0	42	0	609222656	56	6164
2026-01-20 21:34:25.12	31.97	20.66	-41.7	-42.8	21.9	0.00e+00	0	42	0	611319808	56	6273
2026-01-20 21:34:26.13	31.72	20.67	-41.4	-42.5	22.0	0.00e+00	0	42	0	613416960	56	6063
2026-01-20 21:34:27.14	31.46	20.68	-41.6	-42.7	22.0	0.00e+00	0	42	0	615514112	56	6233
2026-01-20 21:34:28.15	31.20	20.68	-41.5	-42.5	22.0	0.00e+00	0	42	0	616562688	56	6099
2026-01-20 21:34:29.16	30.95	20.69	-41.5	-42.6	21.9	0.00e+00	0	42	0	618659840	56	6158
2026-01-20 21:34:30.17	30.69	20.70	-41.4	-42.5	22.1	0.00e+00	0	42	0	620756992	56	6062
2026-01-20 21:34:31.18	30.43	20.70	-41.4	-42.4	22.2	0.00e+00	0	42	0	622854144	56	5992
2026-01-20 21:34:32.19	30.17	20.71	-41.1	-42.1	22.4	0.00e+00	0	42	0	624951296	56	5787
2026-01-20 21:34:33.20	29.91	20.71	-40.9	-41.9	22.6	0.00e+00	0	42	0	625999872	56	5675
2026-01-20 21:34:34.20	29.66	20.72	-41.0	-42.1	22.7	0.00e+00	0	42	0	628097024	56	5765
2026-01-20 21:34:35.21	29.40	20.72	-40.7	-41.7	22.7	0.00e+00	0	42	0	630194176	54	6192
2026-01-20 21:34:36.22	29.14	20.72	-40.7	-41.7	22.8	0.00e+00	0	42	0	632291328	54	6189
2026-01-20 21:34:37.23	28.89	20.72	-40.6	-41.6	22.9	0.00e+00	0	42	0	634388480	54	6124
2026-01-20 21:34:38.24	28.63	20.73	-40.4	-41.3	23.0	0.00e+00	0	42	0	635437056	54	5954
2026-01-20 21:34:39.25	28.37	20.73	-40.3	-41.2	23.2	0.00e+00	0	42	0	637534208	54	5871
2026-01-20 21:34:40.26	28.11	20.73	-40.6	-41.5	22.9	0.00e+00	0	42	0	639631360	54	6088
2026-01-20 21:34:41.27	27.85	20.73	-40.9	-41.9	22.6	0.00e+00	0	42	0	641728512	54	6348
2026-01-20 21:34:42.28	27.60	20.73	-41.0	-42.1	22.3	0.00e+00	0	42	0	643825664	54	6469
2026-01-20 21:34:43.29	27.34	20.72	-41.2	-42.2	22.2	0.00e+00	0	42	0	644874240	54	6613
2026-01-20 21:34:44.30	27.08	20.72	-41.3	-42.4	22.2	0.00e+00	0	42	0	646971392	54	6751
2026-01-20 21:34:45.31	26.82	20.72	-41.2	-42.3	22.3	0.00e+00	0	42	0	649068544	54	6652
2026-01-20 21:34:46.32	26.57	20.72	-41.4	-42.5	22.1	0.00e+00	0	42	0	651165696	54	6778
2026-01-20 21:34:47.33	26.31	20.71	-41.4	-42.5	22.1	0.00e+00	0	42	0	653262848	54	6802
2026-01-20 21:34:48.34	26.05	20.71	-41.1	-42.1	22.4	0.00e+00	0	42	0	654311424	54	6501
2026-01-20 21:34:49.35	25.79	20.70	-41.0	-42.0	22.4	0.00e+00	0	42	0	656408576	54	6457
2026-01-20 21:34:50.36	25.53	20.70	-40.7	-41.6	22.7	0.00e+00	0	42	0	658505728	54	6166
2026-01-20 21:34:51.37	25.28	20.69	-40.3	-41.2	23.1	0.00e+00	0	42	0	660602880	54	5889
2026-01-20 21:34:52.38	25.02	20.68	-40.2	-41.1	23.0	0.00e+00	0	42	0	662700032	54	5792
2026-01-20 21:34:53.39	24.76	20.67	-39.7	-40.6	23.6	0.00e+00	0	42	0	663748608	54	5442
2026-01-20 21:34:54.40	24.51	20.67	-39.4	-40.3	23.6	0.00e+00	0	42	0	665845760	52	5934
2026-01-20 21:34:55.41	24.25	20.66	-39.4	-40.2	23.9	0.00e+00	0	42	0	667942912	52	5891
2026-01-20 21:34:56.42	23.99	20.65	-39.2	-40.0	24.0	0.00e+00	0	42	0	670040064	52	5760
2026-01-20 21:34:57.43	23.74	20.64	-39.4	-40.2	23.9	0.00e+00	0	42	0	672137216	52	5867
2026-01-20 21:34:58.44	23.48	20.63	-39.4	-40.2	23.8	0.00e+00	0	42	0	674234368	52	5868
2026-01-20 21:34:59.45	23.22	20.62	-39.6	-40.4	23.7	0.00e+00	0	42	0	675282944	52	6032
2026-01-20 21:35:00.46	22.97	20.60	-39.3	-40.1	24.0	0.00e+00	0	42	0	677380096	52	5824
2026-01-20 21:35:01.47	22.71	20.59	-39.3	-40.1	24.0	0.00e+00	0	42	0	679477248	52	5795
2026-01-20 21:35:02.48	22.46	20.58	-39.3	-40.1	24.0	0.00e+00	0	42	0	681574400	52	5788
2026-01-20 21:35:03.49	22.20	20.56	-39.4	-40.2	23.8	0.00e+00	0	42	0	683671552	52	5873
2026-01-20 21:35:04.50	21.95	20.55	-39.4	-40.3	23.8	0.00e+00	0	42	0	684720128	52	5943
2026-01-20 21:35:05.51	21.69	20.54	-39.5	-40.3	23.7	0.00e+00	0	42	0	686817280	52	5952
2026-01-20 21:35:06.52	21.44	20.52	-39.6	-40.5	23.7	0.00e+00	0	42	0	688914432	52	6081
2026-01-20 21:35:07.53	21.18	20.50	-39.7	-40.6	23.6	0.00e+00	0	42	0	691011584	52	6147
2026-01-20 21:35:08.54	20.93	20.49	-39.6	-40.5	23.8	0.00e+00	0	42	0	693108736	52	6053
2026-01-20 21:35:09.55	20.68	20.47	-39.3	-40.1	23.8	0.00e+00	0	42	0	694157312	52	5812
2026-01-20 21:35:10.56	20.42	20.45	-39.2	-40.1	23.9	0.00e+00	0	42	0	696254464	52	5798
2026-01-20 21:35:11.57	20.17	20.43	-39.1	-39.9	24.0	0.00e+00	0	42	0	698351616	52	5679
2026-01-20 21:35:12.58	19.92	20.41	-39.1	-40.0	24.0	0.00e+00	0	42	0	700448768	52	5715
2026-01-20 21:35:13.59	19.66	20.40	-39.1	-40.0	24.0	0.00e+00	0	42	0	702545920	52	5714
2026-01-20 21:35:14.60	19.41	20.38	-39.2	-40.1	23.9	0.00e+00	0	42	0	703594496	52	5785
2026-01-20 21:35:15.61	19.16	20.35	-39.4	-40.3	23.9	0.00e+00	0	42	0	705691648	52	5931
2026-01-20 21:35:16.62	18.91	20.33	-39.7	-40.7	23.5	0.00e+00	0	42	0	707788800	52	6174
2026-01-20 21:35:17.62	18.66	20.31	-40.0	-41.0	23.3	0.00e+00	0	42	0	709885952	52	6424
2026-01-20 21:35:18.63	18.41	20.29	-39.7	-40.6	23.8	0.00e+00	0	42	0	711983104	52	6111
2026-01-20 21:35:19.64	18.16	20.27	-39.5	-40.4	23.8	0.00e+00	0	42	0	713031680	52	5982
2026-01-20 21:35:20.65	17.91	20.24	-39.2	-40.1	23.9	0.00e+00	0	42	0	715128832	52	5791
2026-01-20 21:35:21.66	17.66	20.22	-39.2	-40.0	24.0	0.00e+00	0	42	0	717225984	52	5748
2026-01-20 21:35:22.67	17.41	20.19	-39.2	-40.1	23.6	0.00e+00	0	42	0	719323136	52	5798
2026-01-20 21:35:23.68	17.16	20.17	-39.5	-40.4	23.7	0.00e+00	0	42	0	721420288	52	6015
2026-01-20 21:35:24.69	16.91	20.14	-39.6	-40.4	23.6	0.00e+00	0	42	0	723517440	52	6031
2026-01-20 21:35:25.70	16.66	20.12	-39.3	-40.1	23.8	0.00e+00	0	42	0	724566016	52	5801
2026-01-20 21:35:26.71	16.42	20.09	-39.3	-40.2	23.8	0.00e+00	0	42	0	726663168	52	5864
2026-01-20 21:35:27.72	16.17	20.06	-39.5	-40.4	23.8	0.00e+00	0	42	0	728760320	52	5971
2026-01-20 21:35:28.73	15.92	20.04	-39.8	-40.7	23.4	0.00e+00	0	42	0	730857472	52	6185
2026-01-20 21:35:29.74	15.68	20.01	-40.2	-41.2	23.1	0.00e+00	0	42	0	732954624	52	6582
2026-01-20 21:35:30.75	15.43	19.98	-40.7	-41.7	22.8	0.00e+00	0	42	0	734003200	52	6961
2026-01-20 21:35:31.76	15.19	19.95	-40.9	-41.9	22.6	0.00e+00	0	42	0	736100352	54	6349
2026-01-20 21:35:32.77	14.94	19.92	-40.8	-41.9	22.5	0.00e+00	0	42	0	738197504	54	6324
2026-01-20 21:35:33.78	14.70	19.89	-40.9	-41.9	22.5	0.00e+00	0	42	0	740294656	54	6378
2026-01-20 21:35:34.79	14.45	19.86	-41.0	-42.0	22.6	0.00e+00	0	42	0	741343232	54	6428
2026-01-20 21:35:35.80	14.21	19.83	-40.7	-41.7	22.7	0.00e+00	0	42	0	743440384	54	6245
2026-01-20 21:35:36.81	13.97	19.80	-40.9	-42.0	22.5	0.00e+00	0	43	0	745537536	54	6397
2026-01-20 21:35:37.82	13.73	19.76	-40.9	-41.9	22.6	0.00e+00	0	43	0	747634688	54	6384
2026-01-20 21:35:38.83	13.48	19.73	-41.0	-42.0	22.5	0.00e+00	0	42	0	749731840	54	6437
2026-01-20 21:35:39.84	13.24	19.70	-41.1	-42.1	22.4	0.00e+00	0	42	0	751828992	54	6528
2026-01-20 21:35:40.85	13.00	19.66	-41.4	-42.6	22.2	0.00e+00	0	42	0	752877568	54	6855
2026-01-20 21:35:41.86	12.76	19.63	-41.4	-42.5	22.1	0.00e+00	0	42	0	754974720	54	6839
2026-01-20 21:35:42.87	12.52	19.59	-41.5	-42.6	22.1	0.00e+00	0	43	0	757071872	54	6875
2026-01-20 21:35:43.87	12.29	19.56	-41.6	-42.8	21.8	0.00e+00	0	42	0	759169024	54	7020
2026-01-20 21:35:44.88	12.05	19.52	-41.6	-42.8	21.7	0.00e+00	0	42	0	761266176	54	7015
2026-01-20 21:35:45.89	11.81	19.49	-42.0	-43.1	21.7	0.00e+00	0	42	0	762314752	56	6513
2026-01-20 21:35:46.91	11.57	19.45	-41.7	-42.8	21.9	0.00e+00	0	42	0	764411904	56	6270
2026-01-20 21:35:47.91	11.34	19.41	-41.9	-43.0	21.9	0.00e+00	0	42	0	766509056	56	6422
2026-01-20 21:35:48.92	11.10	19.38	-41.3	-42.3	22.3	0.00e+00	0	42	0	768606208	56	5957
2026-01-20 21:35:49.94	10.86	19.34	-41.2	-42.2	22.5	0.00e+00	0	42	0	770703360	56	5856
2026-01-20 21:35:50.95	10.63	19.30	-41.1	-42.1	22.5	0.00e+00	0	42	0	771751936	56	5809
2026-01-20 21:35:51.96	10.39	19.26	-41.1	-42.1	22.4	0.00e+00	0	42	0	773849088	56	5828
2026-01-20 21:35:52.97	10.16	19.22	-40.7	-41.6	22.8	0.00e+00	0	43	0	775946240	54	6163
2026-01-20 21:35:53.98	9.93	19.18	-40.5	-41.5	22.9	0.00e+00	0	42	0	778043392	54	6080
2026-01-20 21:35:54.98	9.70	19.14	-40.8	-41.7	22.7	0.00e+00	0	42	0	780140544	54	6243
2026-01-20 21:35:55.99	9.46	19.10	-40.8	-41.8	22.7	0.00e+00	0	42	0	781189120	54	6302
2026-01-20 21:35:57.01	9.23	19.06	-40.7	-41.7	22.7	0.00e+00	0	42	0	783286272	54	6207
2026-01-20 21:35:58.02	9.00	19.02	-40.6	-41.6	22.7	0.00e+00	0	43	0	785383424	54	6142
2026-01-20 21:35:59.03	8.77	18.98	-40.7	-41.7	22.7	0.00e+00	0	43	0	787480576	54	6192
2026-01-20 21:36:00.04	8.54	18.93	-40.5	-41.4	22.9	0.00e+00	0	43	0	789577728	54	5993
2026-01-20 21:36:01.05	8.31	18.89	-40.6	-41.5	22.8	0.00e+00	0	42	0	790626304	54	6090
2026-01-20 21:36:02.06	8.08	18.85	-40.3	-41.3	23.1	0.00e+00	0	42	0	792723456	54	5913
2026-01-20 21:36:03.06	7.86	18.80	-40.1	-41.0	23.3	0.00e+00	0	42	0	794820608	54	5707
2026-01-20 21:36:04.07	7.63	18.76	-39.9	-40.8	23.5	0.00e+00	0	42	0	796917760	54	5570
2026-01-20 21:36:05.08	7.41	18.72	-39.6	-40.5	23.5	0.00e+00	0	43	0	799014912	52	6048
2026-01-20 21:36:06.09	7.18	18.67	-39.6	-40.5	23.6	0.00e+00	0	43	0	800063488	52	6057
2026-01-20 21:36:07.10	6.96	18.63	-39.7	-40.6	23.2	0.00e+00	0	43	0	802160640	52	6154
2026-01-20 21:36:08.11	6.73	18.58	-39.7	-40.6	23.5	0.00e+00	0	42	0	804257792	52	6158
2026-01-20 21:36:09.12	6.51	18.54	-39.9	-40.8	23.4	0.00e+00	0	43	0	806354944	52	6316
2026-01-20 21:36:10.13	6.29	18.49	-40.2	-41.1	22.9	0.00e+00	0	42	0	808452096	52	6493
2026-01-20 21:36:11.14	6.06	18.44	-40.4	-41.3	23.0	0.00e+00	0	43	0	809500672	52	6667
2026-01-20 21:36:12.15	5.84	18.40	-40.5	-41.4	22.9	0.00e+00	0	43	0	811597824	52	6753
2026-01-20 21:36:13.16	5.62	18.35	-41.3	-42.4	22.3	0.00e+00	0	43	0	813694976	54	6693
2026-01-20 21:36:14.17	5.40	18.30	-41.6	-42.7	21.8	0.00e+00	0	43	0	815792128	54	6995
2026-01-20 21:36:15.17	5.19	18.25	-42.2	-43.4	21.3	0.00e+00	0	43	0	817889280	56	6741
2026-01-20 21:36:16.18	4.97	18.21	-42.3	-43.5	21.2	0.00e+00	0	42	0	818937856	56	6833
2026-01-20 21:36:17.19	4.75	18.16	-42.1	-43.3	21.4	0.00e+00	0	43	0	821035008	56	6662
2026-01-20 21:36:18.20	4.53	18.11	-42.0	-43.2	21.6	0.00e+00	0	43	0	823132160	56	6546
2026-01-20 21:36:19.21	4.32	18.06	-42.0	-43.2	21.5	0.00e+00	0	43	0	825229312	56	6564
2026-01-20 21:36:20.23	4.10	18.01	-42.0	-43.2	21.6	0.00e+00	0	43	0	827326464	56	6546
2026-01-20 21:36:21.24	3.88	17.96	-42.3	-43.6	21.2	0.00e+00	0	43	0	829423616	56	6860
2026-01-20 21:36:22.53	3.61	17.89	-42.6	-43.8	21.0	0.00e+00	0	43	0	830472192	56	7080
2026-01-20 21:36:23.25	3.46	17.86	-42.5	-43.8	20.9	0.00e+00	0	43	0	832569344	56	7081
2026-01-20 21:36:24.56	3.18	17.79	-43.1	-44.5	20.5	0.00e+00	0	43	0	834666496	58	6797
2026-01-20 21:36:25.28	3.03	17.76	-43.3	-44.7	20.3	0.00e+00	0	43	0	835715072	58	6947
2026-01-20 21:36:26.58	2.76	17.69	-42.8	-44.1	20.9	0.00e+00	0	43	0	838860800	58	6531
2026-01-20 21:36:27.30	2.61	17.65	-42.5	-43.8	21.1	0.00e+00	0	43	0	839909376	58	6280
2026-01-20 21:36:28.60	2.34	17.59	-42.1	-43.3	21.5	0.00e+00	0	43	0	842006528	58	5959
2026-01-20 21:36:29.32	2.19	17.55	-41.9	-43.0	21.6	0.00e+00	0	43	0	843055104	58	5747
2026-01-20 21:36:30.62	1.92	17.48	-41.1	-42.1	22.5	0.00e+00	0	43	0	846200832	56	5813
2026-01-20 21:36:31.34	1.78	17.44	-40.9	-41.9	22.7	0.00e+00	0	43	0	847249408	56	5656
2026-01-20 21:36:32.64	1.51	17.37	-40.4	-41.3	23.0	0.00e+00	0	43	0	849346560	54	5953
2026-01-20 21:36:33.36	1.36	17.34	-39.8	-40.8	23.3	0.00e+00	0	43	0	851443712	54	5575
2026-01-20 21:36:34.66	1.10	17.27	-40.1	-41.0	23.2	0.00e+00	0	43	0	853540864	54	5759
2026-01-20 21:36:35.38	0.95	17.23	-39.9	-40.9	23.4	0.00e+00	0	43	0	854589440	54	5643
2026-01-20 21:36:36.68	0.69	17.16	-39.9	-40.8	23.4	0.00e+00	0	43	0	857735168	54	5595
2026-01-20 21:36:37.40	0.55	17.12	-40.0	-40.9	23.3	0.00e+00	0	42	0	858783744	54	5693
2026-01-20 21:36:38.69	0.29	17.05	-40.4	-41.4	22.8	0.00e+00	0	42	0	860880896	54	5976
2026-01-20 21:36:39.42	0.14	17.01	-40.6	-41.6	22.8	0.00e+00	0	43	0	862978048	54	6104
2026-01-20 21:36:40.72	359.88	16.94	-41.2	-42.2	22.3	0.00e+00	0	43	0	865075200	54	6596
2026-01-20 21:36:41.44	359.74	16.90	-41.4	-42.5	22.1	0.00e+00	0	43	0	866123776	54	6776
2026-01-20 21:36:42.74	359.48	16.83	-41.3	-42.3	22.2	0.00e+00	0	43	0	869269504	54	6670
2026-01-20 21:36:43.46	359.34	16.79	-41.3	-42.4	22.2	0.00e+00	0	43	0	870318080	54	6747
2026-01-20 21:36:44.76	359.09	16.72	-40.8	-41.8	22.5	0.00e+00	0	43	0	872415232	54	6249
2026-01-20 21:36:45.48	358.95	16.68	-40.6	-41.6	22.7	0.00e+00	0	43	0	873463808	54	6154
2026-01-20 21:36:46.77	358.70	16.60	-40.5	-41.5	22.8	0.00e+00	0	43	0	876609536	54	6051
2026-01-20 21:36:47.50	358.55	16.56	-40.4	-41.4	22.9	0.00e+00	0	43	0	877658112	54	5981
2026-01-20 21:36:48.79	358.31	16.49	-40.7	-41.8	22.5	0.00e+00	0	43	0	879755264	54	6255
2026-01-20 21:36:49.52	358.17	16.45	-40.9	-42.0	22.4	0.00e+00	0	43	0	881852416	54	6396
2026-01-20 21:36:50.81	357.92	16.38	-41.3	-42.4	22.1	0.00e+00	0	43	0	883949568	54	6733
2026-01-20 21:36:51.53	357.78	16.34	-41.7	-42.9	21.5	0.00e+00	0	43	0	884998144	54	7142
2026-01-20 21:36:52.83	357.53	16.26	-42.5	-43.8	20.8	0.00e+00	0	43	0	888143872	56	7018
2026-01-20 21:36:53.55	357.40	16.22	-42.5	-43.8	20.4	0.00e+00	0	43	0	889192448	56	7076
2026-01-20 21:36:54.85	357.15	16.14	-42.7	-44.1	20.7	0.00e+00	0	43	0	891289600	58	6479
2026-01-20 21:36:55.57	357.02	16.10	-42.7	-44.1	20.8	0.00e+00	0	43	0	892338176	58	6471
2026-01-20 21:36:56.87	356.78	16.03	-42.4	-43.6	21.2	0.00e+00	0	42	0	895483904	58	6161
2026-01-20 21:36:57.59	356.64	15.99	-42.3	-43.5	21.1	0.00e+00	0	43	0	896532480	58	6097
2026-01-20 21:36:58.89	356.40	15.91	-42.1	-43.3	21.5	0.00e+00	0	43	0	898629632	58	5899
2026-01-20 21:36:59.60	356.27	15.87	-41.4	-42.5	22.0	0.00e+00	0	43	0	900726784	56	6067
2026-01-20 21:37:00.90	356.03	15.79	-41.3	-42.4	22.2	0.00e+00	0	43	0	902823936	56	6001
2026-01-20 21:37:01.63	355.90	15.75	-41.3	-42.4	22.0	0.00e+00	0	43	0	903872512	56	6003
2026-01-20 21:37:02.92	355.66	15.67	-41.2	-42.3	22.2	0.00e+00	0	43	0	907018240	56	5945
2026-01-20 21:37:03.64	355.53	15.63	-41.3	-42.4	22.1	0.00e+00	0	43	0	908066816	56	6025
2026-01-20 21:37:04.94	355.29	15.55	-41.3	-42.4	21.9	0.00e+00	0	43	0	910163968	56	6019
2026-01-20 21:37:05.66	355.16	15.51	-41.3	-42.4	22.1	0.00e+00	0	43	0	911212544	56	5971
2026-01-20 21:37:06.96	354.93	15.43	-41.0	-42.1	22.3	0.00e+00	0	43	0	914358272	56	5765
2026-01-20 21:37:07.68	354.80	15.39	-41.0	-42.1	22.3	0.00e+00	0	43	0	915406848	56	5799
2026-01-20 21:37:08.98	354.57	15.31	-41.3	-42.3	22.2	0.00e+00	0	43	0	917504000	56	5949
2026-01-20 21:37:09.70	354.44	15.27	-41.5	-42.5	22.0	0.00e+00	0	43	0	919601152	56	6091
2026-01-20 21:37:11.00	354.21	15.19	-41.7	-42.8	21.8	0.00e+00	0	43	0	921698304	56	6305
2026-01-20 21:37:11.72	354.09	15.15	-41.8	-42.9	21.5	0.00e+00	0	43	0	922746880	56	6388
2026-01-20 21:37:13.02	353.86	15.07	-42.1	-43.3	21.3	0.00e+00	0	43	0	925892608	56	6683
2026-01-20 21:37:13.74	353.73	15.03	-42.1	-43.4	21.3	0.00e+00	0	43	0	926941184	56	6693
2026-01-20 21:37:15.04	353.51	14.95	-42.2	-43.5	21.2	0.00e+00	0	43	0	929038336	56	6791
2026-01-20 21:37:15.75	353.39	14.91	-42.2	-43.4	21.3	0.00e+00	0	43	0	931135488	56	6742
2026-01-20 21:37:17.05	353.16	14.83	-41.9	-43.1	21.6	0.00e+00	0	43	0	933232640	56	6486
2026-01-20 21:37:17.77	353.04	14.78	-41.6	-42.7	21.8	0.00e+00	0	43	0	934281216	56	6206
2026-01-20 21:37:19.07	352.82	14.70	-41.3	-42.4	22.1	0.00e+00	0	43	0	936378368	56	6021
2026-01-20 21:37:19.79	352.69	14.66	-41.4	-42.4	22.0	0.00e+00	0	43	0	938475520	56	6032
2026-01-20 21:37:21.09	352.47	14.58	-41.4	-42.5	22.2	0.00e+00	0	43	0	940572672	56	6041
2026-01-20 21:37:21.81	352.35	14.54	-41.4	-42.5	22.0	0.00e+00	0	43	0	941621248	56	6056
2026-01-20 21:37:23.11	352.13	14.46	-41.5	-42.5	21.9	0.00e+00	0	43	0	944766976	56	6094
2026-01-20 21:37:23.83	352.01	14.41	-41.5	-42.6	22.0	0.00e+00	0	43	0	945815552	56	6107
2026-01-20 21:37:25.13	351.80	14.33	-41.6	-42.7	21.9	0.00e+00	0	43	0	947912704	56	6221
2026-01-20 21:37:25.85	351.68	14.29	-41.7	-42.8	21.8	0.00e+00	0	43	0	950009856	56	6300
2026-01-20 21:37:27.15	351.46	14.21	-41.8	-42.9	21.6	0.00e+00	0	43	0	952107008	56	6351
2026-01-20 21:37:27.87	351.34	14.16	-41.9	-43.0	21.6	0.00e+00	0	42	0	953155584	56	6448
2026-01-20 21:37:29.17	351.13	14.08	-41.7	-42.8	21.7	0.00e+00	0	42	0	955252736	56	6255
2026-01-20 21:37:29.89	351.01	14.04	-41.4	-42.5	21.9	0.00e+00	0	42	0	957349888	56	6049
2026-01-20 21:37:31.19	350.80	13.96	-41.1	-42.2	22.3	0.00e+00	0	42	0	959447040	56	5867
2026-01-20 21:37:31.91	350.69	13.91	-41.1	-42.1	22.3	0.00e+00	0	42	0	960495616	56	5821
2026-01-20 21:37:33.21	350.48	13.83	-40.6	-41.6	22.6	0.00e+00	0	43	0	963641344	54	6136
2026-01-20 21:37:33.93	350.36	13.79	-40.6	-41.6	22.6	0.00e+00	0	42	0	964689920	54	6124
2026-01-20 21:37:35.23	350.15	13.71	-40.7	-41.7	22.5	0.00e+00	0	43	0	966787072	54	6241
2026-01-20 21:37:35.95	350.04	13.66	-40.6	-41.6	22.7	0.00e+00	0	43	0	968884224	54	6112
2026-01-20 21:37:37.25	349.83	13.58	-40.5	-41.5	22.7	0.00e+00	0	43	0	970981376	54	6090
2026-01-20 21:37:37.97	349.72	13.54	-40.8	-41.8	22.5	0.00e+00	0	42	0	972029952	54	6264
2026-01-20 21:37:39.27	349.52	13.45	-40.3	-41.3	22.9	0.00e+00	0	42	0	975175680	54	5912
2026-01-20 21:37:39.99	349.40	13.41	-40.0	-40.9	23.2	0.00e+00	0	42	0	976224256	54	5668
2026-01-20 21:37:41.29	349.20	13.33	-39.8	-40.7	23.5	0.00e+00	0	43	0	978321408	52	6188
2026-01-20 21:37:42.01	349.09	13.28	-39.6	-40.5	23.6	0.00e+00	0	43	0	979369984	52	6056
2026-01-20 21:37:43.30	348.89	13.20	-39.4	-40.3	23.6	0.00e+00	0	42	0	982515712	52	5952
2026-01-20 21:37:44.02	348.78	13.16	-39.4	-40.3	23.7	0.00e+00	0	43	0	983564288	52	5915
2026-01-20 21:37:45.32	348.58	13.07	-39.3	-40.2	23.8	0.00e+00	0	43	0	985661440	52	5864
2026-01-20 21:37:46.04	348.47	13.03	-39.6	-40.4	23.5	0.00e+00	0	42	0	987758592	52	6029
2026-01-20 21:37:47.34	348.28	12.95	-39.7	-40.7	23.5	0.00e+00	0	42	0	989855744	52	6177
2026-01-20 21:37:48.06	348.17	12.90	-39.9	-40.9	23.3	0.00e+00	0	42	0	990904320	52	6319
2026-01-20 21:37:49.36	347.97	12.82	-40.1	-41.0	23.1	0.00e+00	0	43	0	994050048	52	6447
2026-01-20 21:37:50.08	347.87	12.78	-40.2	-41.2	22.9	0.00e+00	0	43	0	995098624	52	6580
2026-01-20 21:37:51.38	347.67	12.69	-40.6	-41.6	22.5	0.00e+00	0	43	0	997195776	52	6880
2026-01-20 21:37:52.10	347.57	12.65	-40.6	-41.6	22.8	0.00e+00	0	42	0	999292928	52	6878
2026-01-20 21:37:53.40	347.37	12.57	-40.7	-41.7	22.5	0.00e+00	0	43	0	1001390080	54	6240
2026-01-20 21:37:54.12	347.27	12.52	-40.7	-41.7	22.4	0.00e+00	0	43	0	1002438656	54	6226
2026-01-20 21:37:55.41	347.08	12.44	-40.6	-41.6	22.6	0.00e+00	0	43	0	1004535808	54	6155
2026-01-20 21:37:56.13	346.98	12.39	-40.7	-41.7	22.5	0.00e+00	0	43	0	1006632960	54	6219
2026-01-20 21:37:57.43	346.79	12.31	-40.4	-41.4	22.7	0.00e+00	0	42	0	1008730112	54	6022
2026-01-20 21:37:58.15	346.68	12.27	-40.3	-41.3	22.9	0.00e+00	0	43	0	1009778688	54	5897
2026-01-20 21:37:59.45	346.50	12.18	-40.1	-41.0	23.0	0.00e+00	0	42	0	1012924416	54	5743
2026-01-20 21:38:00.17	346.39	12.14	-39.9	-40.9	23.2	0.00e+00	0	43	0	1013972992	54	5644
2026-01-20 21:38:01.47	346.21	12.06	-39.9	-40.8	23.2	0.00e+00	0	42	0	1016070144	54	5624
2026-01-20 21:38:02.19	346.11	12.01	-40.0	-41.0	23.0	0.00e+00	0	43	0	1018167296	54	5721
2026-01-20 21:38:03.49	345.92	11.93	-40.0	-40.9	23.1	0.00e+00	0	43	0	1020264448	54	5659
2026-01-20 21:38:04.21	345.82	11.88	-39.9	-40.9	23.2	0.00e+00	0	42	0	1021313024	54	5643
2026-01-20 21:38:05.51	345.64	11.80	-40.3	-41.3	22.9	0.00e+00	0	42	0	1023410176	54	5897
2026-01-20 21:38:06.23	345.54	11.75	-40.4	-41.4	22.6	0.00e+00	0	42	0	1025507328	54	6006
2026-01-20 21:38:07.53	345.36	11.67	-40.6	-41.6	22.5	0.00e+00	0	42	0	1027604480	54	6144
2026-01-20 21:38:08.24	345.26	11.63	-40.5	-41.5	22.7	0.00e+00	0	42	0	1028653056	54	6052
2026-01-20 21:38:09.54	345.08	11.55	-41.1	-42.2	22.0	0.00e+00	0	42	0	1031798784	54	6551
2026-01-20 21:38:10.26	344.99	11.50	-41.0	-42.1	22.1	0.00e+00	0	42	0	1032847360	54	6520
2026-01-20 21:38:11.56	344.81	11.42	-41.2	-42.3	22.0	0.00e+00	0	42	0	1034944512	54	6617
2026-01-20 21:38:12.28	344.71	11.37	-41.1	-42.2	22.0	0.00e+00	0	42	0	1037041664	54	6575
2026-01-20 21:38:13.58	344.54	11.29	-41.3	-42.4	21.8	0.00e+00	0	42	0	1039138816	54	6758
2026-01-20 21:38:14.30	344.44	11.24	-41.5	-42.7	21.6	0.00e+00	0	43	0	1040187392	54	6951
2026-01-20 21:38:15.60	344.26	11.16	-41.2	-42.3	21.9	0.00e+00	0	42	0	1043333120	54	6683
2026-01-20 21:38:16.32	344.17	11.12	-41.3	-42.5	21.8	0.00e+00	0	43	0	1044381696	54	6793
2026-01-20 21:38:17.62	344.00	11.03	-40.9	-41.9	22.1	0.00e+00	0	42	0	1046478848	54	6383
2026-01-20 21:38:18.34	343.90	10.99	-40.4	-41.4	22.7	0.00e+00	0	42	0	1047527424	54	6017
2026-01-20 21:38:19.64	343.73	10.91	-40.7	-41.7	22.4	0.00e+00	0	43	0	1050673152	54	6225
2026-01-20 21:38:20.36	343.64	10.86	-40.2	-41.2	22.8	0.00e+00	0	42	0	1051721728	54	5878
2026-01-20 21:38:21.66	343.47	10.78	-40.2	-41.2	22.5	0.00e+00	0	42	0	1053818880	54	5833
2026-01-20 21:38:22.38	343.37	10.73	-40.2	-41.2	22.3	0.00e+00	0	42	0	1055916032	54	5836
2026-01-20 21:38:23.68	343.21	10.65	-39.9	-40.8	23.0	0.00e+00	0	42	0	1058013184	52	6259
2026-01-20 21:38:24.40	343.11	10.61	-39.9	-40.8	23.1	0.00e+00	0	42	0	1059061760	52	6282
2026-01-20 21:38:25.70	342.95	10.52	-40.3	-41.2	22.8	0.00e+00	0	42	0	1062207488	52	6602
2026-01-20 21:38:26.42	342.86	10.48	-40.6	-41.6	22.6	0.00e+00	0	42	0	1063256064	52	6892
2026-01-20 21:38:27.71	342.69	10.40	-41.1	-42.2	22.0	0.00e+00	0	42	0	1065353216	54	6546
2026-01-20 21:38:28.44	342.60	10.35	-41.3	-42.4	21.7	0.00e+00	0	42	0	1067450368	54	6763
2026-01-20 21:38:29.73	342.44	10.27	-42.0	-43.2	21.2	0.00e+00	0	43	0	1069547520	56	6587
2026-01-20 21:38:30.45	342.35	10.22	-42.2	-43.4	21.1	0.00e+00	0	42	0	1070596096	56	6757
2026-01-20 21:38:31.75	342.19	10.14	-41.9	-43.0	21.2	0.00e+00	0	42	0	1072693248	56	6438
2026-01-20 21:38:32.47	342.10	10.10	-42.1	-43.2	21.2	0.00e+00	0	42	0	1074790400	56	6607
2026-01-20 21:38:33.77	341.94	10.02	-41.8	-42.9	21.5	0.00e+00	0	42	0	1076887552	56	6357
2026-01-20 21:38:34.49	341.85	9.97	-41.9	-43.1	21.3	0.00e+00	0	42	0	1077936128	56	6515
2026-01-20 21:38:35.79	341.69	9.89	-41.9	-43.0	21.3	0.00e+00	0	42	0	1081081856	56	6427
2026-01-20 21:38:36.51	341.60	9.84	-41.3	-42.4	21.9	0.00e+00	0	42	0	1082130432	56	6014
2026-01-20 21:38:37.81	341.44	9.76	-41.6	-42.7	21.6	0.00e+00	0	42	0	1084227584	56	6238
2026-01-20 21:38:38.53	341.36	9.72	-41.6	-42.7	21.7	0.00e+00	0	42	0	1085276160	56	6220
2026-01-20 21:38:39.83	341.20	9.64	-41.2	-42.3	21.9	0.00e+00	0	42	0	1088421888	56	5952
2026-01-20 21:38:40.55	341.12	9.59	-41.2	-42.3	21.9	0.00e+00	0	42	0	1089470464	56	5922
2026-01-20 21:38:41.85	340.96	9.51	-41.3	-42.4	21.8	0.00e+00	0	42	0	1091567616	56	5988
2026-01-20 21:38:42.57	340.88	9.46	-41.3	-42.4	21.8	0.00e+00	0	42	0	1093664768	56	6000
2026-01-20 21:38:43.87	340.72	9.38	-41.7	-42.8	21.6	0.00e+00	0	42	0	1095761920	56	6286
2026-01-20 21:38:44.59	340.64	9.34	-41.7	-42.8	21.6	0.00e+00	0	42	0	1096810496	56	6267
2026-01-20 21:38:45.88	340.49	9.26	-41.8	-42.9	21.4	0.00e+00	0	42	0	1099956224	56	6370
2026-01-20 21:38:46.61	340.40	9.21	-41.9	-43.1	21.3	0.00e+00	0	42	0	1101004800	56	6495
2026-01-20 21:38:47.91	340.25	9.13	-41.4	-42.5	21.7	0.00e+00	0	42	0	1103101952	56	6047
2026-01-20 21:38:48.63	340.17	9.09	-41.8	-42.9	21.3	0.00e+00	0	42	0	1105199104	56	6381
2026-01-20 21:38:49.92	340.02	9.01	-41.8	-42.9	21.4	0.00e+00	0	42	0	1107296256	56	6353
2026-01-20 21:38:50.65	339.94	8.96	-42.2	-43.4	20.9	0.00e+00	0	42	0	1108344832	56	6694
2026-01-20 21:38:51.94	339.79	8.88	-42.1	-43.2	21.1	0.00e+00	0	42	0	1111490560	56	6608
2026-01-20 21:38:52.67	339.71	8.83	-42.2	-43.4	21.0	0.00e+00	0	42	0	1112539136	56	6711
2026-01-20 21:38:53.96	339.56	8.75	-42.3	-43.6	20.8	0.00e+00	0	42	0	1114636288	56	6853
2026-01-20 21:38:54.69	339.48	8.71	-42.5	-43.8	20.6	0.00e+00	0	42	0	1115684864	56	7057
2026-01-20 21:38:55.98	339.33	8.63	-42.7	-44.0	20.3	0.00e+00	0	42	0	1118830592	58	6464
2026-01-20 21:38:56.71	339.25	8.58	-42.8	-44.1	20.2	0.00e+00	0	42	0	1119879168	58	6483
2026-01-20 21:38:58.00	339.11	8.50	-42.6	-43.9	20.5	0.00e+00	0	42	0	1121976320	58	6344
2026-01-20 21:38:58.72	339.03	8.46	-42.4	-43.7	20.6	0.00e+00	0	42	0	1124073472	58	6211
2026-01-20 21:39:00.02	338.89	8.38	-42.4	-43.7	20.8	0.00e+00	0	42	0	1126170624	58	6209
2026-01-20 21:39:00.74	338.81	8.33	-42.3	-43.5	20.8	0.00e+00	0	42	0	1127219200	58	6068
2026-01-20 21:39:02.04	338.67	8.25	-42.0	-43.2	21.1	0.00e+00	0	42	0	1130364928	58	5845
2026-01-20 21:39:02.76	338.59	8.21	-42.1	-43.2	21.0	0.00e+00	0	42	0	1131413504	58	5888
2026-01-20 21:39:04.06	338.45	8.13	-42.0	-43.2	21.1	0.00e+00	0	42	0	1133510656	58	5862
2026-01-20 21:39:04.79	338.37	8.08	-42.6	-43.9	20.7	0.00e+00	0	42	0	1135607808	58	6331
2026-01-20 21:39:06.08	338.23	8.01	-42.5	-43.8	20.6	0.00e+00	0	42	0	1137704960	58	6246
2026-01-20 21:39:06.80	338.16	7.96	-42.6	-43.9	20.5	0.00e+00	0	42	0	1138753536	58	6329
2026-01-20 21:39:08.10	338.02	7.88	-42.9	-44.3	20.1	0.00e+00	0	43	0	1140850688	58	6680
2026-01-20 21:39:08.82	337.94	7.84	-43.1	-44.5	20.0	0.00e+00	0	42	0	1142947840	58	6781
2026-01-20 21:39:10.12	337.81	7.76	-43.5	-45.0	19.3	0.00e+00	0	42	0	1145044992	58	7225
2026-01-20 21:39:10.84	337.73	7.71	-43.2	-44.6	19.6	0.00e+00	0	42	0	1146093568	58	6926
2026-01-20 21:39:12.14	337.59	7.63	-43.0	-44.4	19.8	0.00e+00	0	42	0	1149239296	58	6768
2026-01-20 21:39:12.86	337.52	7.59	-43.4	-44.9	19.4	0.00e+00	0	42	0	1150287872	58	7096
2026-01-20 21:39:14.16	337.39	7.51	-43.3	-44.8	19.6	0.00e+00	0	42	0	1152385024	58	7018
2026-01-20 21:39:14.88	337.31	7.47	-43.0	-44.4	19.8	0.00e+00	0	42	0	1154482176	58	6756
2026-01-20 21:39:16.18	337.18	7.39	-43.1	-44.5	20.0	0.00e+00	0	42	0	1156579328	58	6780
2026-01-20 21:39:16.90	337.10	7.34	-42.6	-43.9	20.4	0.00e+00	0	42	0	1157627904	58	6338
2026-01-20 21:39:18.20	336.97	7.26	-42.9	-44.3	20.0	0.00e+00	0	42	0	1159725056	58	6616
2026-01-20 21:39:18.91	336.90	7.22	-42.9	-44.3	20.0	0.00e+00	0	42	0	1161822208	58	6637
2026-01-20 21:39:20.21	336.77	7.14	-42.5	-43.8	20.4	0.00e+00	0	42	0	1163919360	58	6246
2026-01-20 21:39:20.93	336.70	7.10	-42.7	-44.0	20.2	0.00e+00	0	42	0	1164967936	58	6454
2026-01-20 21:39:22.23	336.57	7.02	-42.4	-43.7	20.4	0.00e+00	0	43	0	1168113664	58	6197
2026-01-20 21:39:22.96	336.50	6.98	-42.1	-43.3	20.7	0.00e+00	0	42	0	1169162240	58	5940
2026-01-20 21:39:24.25	336.37	6.90	-43.0	-44.4	19.7	0.00e+00	0	42	0	1171259392	58	6711
2026-01-20 21:39:24.97	336.30	6.85	-42.7	-44.0	20.1	0.00e+00	0	42	0	1173356544	58	6455
2026-01-20 21:39:26.27	336.17	6.78	-42.4	-43.7	20.4	0.00e+00	0	42	0	1175453696	58	6210
2026-01-20 21:39:26.99	336.10	6.73	-42.4	-43.7	20.4	0.00e+00	0	42	0	1176502272	58	6196
2026-01-20 21:39:28.29	335.97	6.65	-42.6	-44.0	20.0	0.00e+00	0	42	0	1179648000	58	6403
2026-01-20 21:39:29.01	335.90	6.61	-42.7	-44.1	20.0	0.00e+00	0	42	0	1180696576	58	6474
2026-01-20 21:39:30.31	335.78	6.53	-42.6	-44.0	20.0	0.00e+00	0	42	0	1182793728	58	6433
2026-01-20 21:39:31.03	335.71	6.49	-42.7	-44.0	19.9	0.00e+00	0	42	0	1183842304	58	6460
2026-01-20 21:39:32.33	335.58	6.41	-43.2	-44.6	19.4	0.00e+00	0	42	0	1186988032	58	6906
2026-01-20 21:39:33.05	335.52	6.37	-43.2	-44.6	19.5	0.00e+00	0	42	0	1188036608	58	6921
2026-01-20 21:39:34.35	335.39	6.29	-43.2	-44.7	19.3	0.00e+00	0	42	0	1190133760	58	6965
2026-01-20 21:39:35.07	335.32	6.25	-43.4	-45.0	19.0	0.00e+00	0	42	0	1192230912	58	7182
2026-01-20 21:39:36.37	335.20	6.17	-43.9	-45.6	18.6	0.00e+00	0	42	0	1194328064	60	6911
2026-01-20 21:39:37.09	335.14	6.13	-43.2	-44.7	19.1	0.00e+00	0	42	0	1195376640	60	6197
2026-01-20 21:39:38.39	335.01	6.05	-43.9	-45.6	18.2	0.00e+00	0	42	0	1198522368	60	6894
2026-01-20 21:39:39.11	334.95	6.01	-43.5	-45.1	18.6	0.00e+00	0	42	0	1199570944	60	6525
2026-01-20 21:39:40.41	334.83	5.93	-43.7	-45.5	18.0	0.00e+00	0	42	0	1201668096	60	6805
