passes_logs/2026/01/20/R4.6S_Anadyr/R4.6S_Anadyr__20260120_113017_SUOMI_NPP_rec.log

#Pass ID: 20260120_113017_SUOMI NPP
#Satellite: SUOMI NPP
#Configuration: NPP
#almurnet v.1.7.20251203
#Start time: 2026-01-20 11:30:20

#Version: 2.2.20231116
#Station: R4.6S_Anadyr
#Location: 177.4865 lon 64.73178 lat
#TLE: 1 37849U 11061A   26019.89702167  .00000121  00000+0  78274-4 0  9993
#TLE: 2 37849  98.7817 321.9035 0002338  55.0397 305.0998 14.19526700737401

#Time	Az	El	Level	Level2	SNR	BER	BlckErr	Temp	State	Recorded	gain1	gain2
2026-01-20 11:30:20.98	21.60	0.15	-52.3	-53.8	5.5	0.00e+00	0	39	0	0	60	60285
2026-01-20 11:30:21.99	21.70	0.18	-52.4	-67.7	3.6	1.51e+00	0	41	104	0	60	87307
2026-01-20 11:30:23.00	21.80	0.22	-52.3	-67.5	3.6	1.51e+00	0	41	104	0	60	85232
2026-01-20 11:30:24.02	21.90	0.26	-52.1	-67.3	3.6	1.51e+00	0	41	104	0	60	83829
2026-01-20 11:30:25.03	22.00	0.30	-51.8	-67.0	3.6	1.51e+00	0	41	104	0	60	81181
2026-01-20 11:30:26.04	22.11	0.34	-51.6	-66.8	3.6	1.51e+00	0	41	104	0	60	79473
2026-01-20 11:30:27.05	22.21	0.37	-51.6	-66.8	3.6	1.51e+00	0	41	104	0	60	78966
2026-01-20 11:30:28.06	22.31	0.41	-51.6	-66.9	3.6	1.51e+00	0	41	104	0	60	79756
2026-01-20 11:30:29.07	22.41	0.45	-51.8	-67.0	3.6	1.51e+00	0	41	104	0	60	81348
2026-01-20 11:30:30.08	22.52	0.49	-51.5	-66.8	3.6	1.51e+00	0	41	104	0	60	78912
2026-01-20 11:30:31.09	22.62	0.52	-51.6	-66.8	3.6	1.51e+00	0	41	104	0	60	79386
2026-01-20 11:30:32.10	22.72	0.56	-51.4	-66.6	3.6	1.51e+00	0	41	104	0	60	77167
2026-01-20 11:30:33.11	22.83	0.60	-51.2	-66.5	3.6	1.51e+00	0	41	104	0	60	75987
2026-01-20 11:30:34.11	22.93	0.64	-51.1	-66.3	3.6	1.51e+00	0	41	104	0	60	74736
2026-01-20 11:30:35.13	23.03	0.67	-51.0	-66.2	3.6	1.51e+00	0	41	104	0	60	73699
2026-01-20 11:30:36.14	23.14	0.71	-51.0	-66.2	3.6	1.51e+00	0	41	104	0	60	73706
2026-01-20 11:30:37.15	23.24	0.75	-50.8	-66.0	3.6	1.51e+00	0	41	104	0	60	71923
2026-01-20 11:30:38.16	23.35	0.79	-50.7	-65.9	3.6	1.51e+00	0	41	104	0	60	71080
2026-01-20 11:30:39.17	23.45	0.82	-50.6	-65.8	3.6	1.51e+00	0	41	104	0	60	70233
2026-01-20 11:30:40.18	23.56	0.86	-50.4	-65.6	3.6	1.51e+00	0	41	104	0	60	68499
2026-01-20 11:30:41.19	23.66	0.90	-50.1	-65.2	3.6	1.51e+00	0	41	104	0	60	66037
2026-01-20 11:30:42.20	23.77	0.94	-49.8	-65.0	3.6	1.51e+00	0	41	104	0	60	64200
2026-01-20 11:30:43.21	23.88	0.97	-49.6	-64.8	3.6	1.51e+00	0	41	104	0	60	62797
2026-01-20 11:30:44.22	23.98	1.01	-49.5	-64.7	3.6	1.51e+00	0	41	104	0	60	62324
2026-01-20 11:30:45.23	24.09	1.05	-49.5	-64.7	3.6	1.51e+00	0	41	104	0	60	62217
2026-01-20 11:30:46.24	24.20	1.08	-49.5	-64.7	3.6	1.51e+00	0	41	104	0	60	62282
2026-01-20 11:30:47.25	24.30	1.12	-49.5	-64.8	3.6	1.51e+00	0	41	104	0	60	62582
2026-01-20 11:30:48.26	24.41	1.16	-49.5	-64.7	3.6	1.51e+00	0	41	104	0	60	62014
2026-01-20 11:30:49.27	24.52	1.20	-49.5	-64.7	3.6	1.51e+00	0	41	104	0	60	61821
2026-01-20 11:30:50.28	24.63	1.23	-49.5	-64.7	3.6	1.51e+00	0	41	104	0	60	62125
2026-01-20 11:30:51.29	24.74	1.27	-49.5	-64.7	3.6	1.51e+00	0	41	104	0	60	61995
2026-01-20 11:30:52.31	24.85	1.31	-49.5	-64.6	3.6	1.51e+00	0	41	104	0	60	61287
2026-01-20 11:30:53.32	24.95	1.35	-49.5	-64.6	3.6	1.51e+00	0	41	104	0	60	61697
2026-01-20 11:30:54.33	25.06	1.38	-49.5	-64.7	3.6	1.51e+00	0	41	104	0	60	62125
2026-01-20 11:30:55.34	25.17	1.42	-49.5	-64.7	3.6	1.51e+00	0	41	104	0	60	62119
2026-01-20 11:30:56.35	25.28	1.46	-49.5	-64.7	3.6	1.51e+00	0	41	104	0	60	62001
2026-01-20 11:30:57.36	25.39	1.49	-49.5	-64.7	3.6	1.51e+00	0	41	104	0	60	61953
2026-01-20 11:30:58.37	25.50	1.53	-49.5	-64.7	3.6	1.51e+00	0	41	104	0	60	61896
2026-01-20 11:30:59.38	25.61	1.57	-49.5	-64.6	3.6	1.51e+00	0	41	104	0	60	61408
2026-01-20 11:31:00.39	25.72	1.60	-49.5	-64.7	3.6	1.51e+00	0	41	104	0	60	62115
2026-01-20 11:31:01.40	25.83	1.64	-49.5	-64.7	3.6	1.51e+00	0	41	104	0	60	61870
2026-01-20 11:31:02.41	25.94	1.68	-49.5	-64.7	3.6	1.51e+00	0	41	104	0	60	61834
2026-01-20 11:31:03.42	26.06	1.71	-49.5	-64.7	3.6	1.51e+00	0	41	104	0	60	61889
2026-01-20 11:31:04.43	26.17	1.75	-49.5	-64.6	3.6	1.51e+00	0	41	104	0	60	61643
2026-01-20 11:31:05.44	26.28	1.79	-49.5	-64.7	3.6	1.51e+00	0	41	104	0	60	61766
2026-01-20 11:31:06.45	26.39	1.82	-49.5	-64.7	3.6	1.51e+00	0	41	104	0	60	62030
2026-01-20 11:31:07.46	26.50	1.86	-49.5	-64.6	3.6	1.51e+00	0	41	104	0	60	61645
2026-01-20 11:31:08.47	26.62	1.90	-49.4	-64.6	3.6	1.51e+00	0	41	104	0	60	61054
2026-01-20 11:31:09.48	26.73	1.93	-49.4	-64.6	3.6	1.51e+00	0	41	104	0	60	61086
2026-01-20 11:31:10.49	26.84	1.97	-49.4	-64.6	3.6	1.51e+00	0	41	104	0	60	61180
2026-01-20 11:31:11.50	26.96	2.01	-49.4	-64.6	3.6	1.51e+00	0	41	104	0	60	61543
2026-01-20 11:31:12.51	27.07	2.04	-49.4	-64.6	3.6	1.51e+00	0	41	104	0	60	61241
2026-01-20 11:31:13.53	27.18	2.08	-49.4	-64.5	3.6	1.51e+00	0	41	104	0	60	61007
2026-01-20 11:31:14.54	27.30	2.11	-49.4	-64.6	3.6	1.51e+00	0	41	104	0	60	61064
2026-01-20 11:31:15.55	27.41	2.15	-49.4	-64.6	3.6	1.51e+00	0	41	104	0	60	61348
2026-01-20 11:31:16.56	27.53	2.19	-49.4	-64.6	3.6	1.51e+00	0	41	104	0	60	61475
2026-01-20 11:31:17.57	27.64	2.22	-49.4	-64.6	3.6	1.51e+00	0	41	104	0	60	61505
2026-01-20 11:31:18.58	27.76	2.26	-49.4	-64.6	3.5	1.51e+00	0	41	104	0	60	61167
2026-01-20 11:31:19.59	27.87	2.30	-49.4	-64.6	3.6	1.51e+00	0	41	104	0	60	61509
2026-01-20 11:31:20.60	27.99	2.33	-49.4	-64.5	3.5	1.51e+00	0	41	104	0	60	60907
2026-01-20 11:31:21.61	28.11	2.37	-49.4	-64.5	3.6	1.51e+00	0	41	104	0	60	60931
2026-01-20 11:31:22.62	28.22	2.40	-49.4	-64.5	3.6	1.51e+00	0	41	104	0	60	60390
2026-01-20 11:31:23.63	28.34	2.44	-49.4	-64.5	3.6	1.51e+00	0	41	104	0	60	60622
2026-01-20 11:31:24.63	28.45	2.47	-49.4	-64.6	3.6	1.51e+00	0	41	104	0	60	61303
2026-01-20 11:31:25.64	28.57	2.51	-49.4	-64.5	3.6	1.51e+00	0	41	104	0	60	60807
2026-01-20 11:31:26.66	28.69	2.55	-49.4	-64.6	3.6	1.51e+00	0	41	104	0	60	61341
2026-01-20 11:31:27.67	28.81	2.58	-49.4	-64.4	3.6	1.51e+00	0	41	104	0	60	59750
2026-01-20 11:31:28.68	28.93	2.62	-49.4	-63.7	3.6	1.51e+00	0	42	104	0	60	55262
2026-01-20 11:31:29.69	29.04	2.65	-49.4	-63.3	3.6	1.51e+00	0	41	104	0	60	52990
2026-01-20 11:31:30.70	29.16	2.69	-49.4	-64.0	3.6	1.51e+00	0	41	104	0	60	57005
2026-01-20 11:31:31.71	29.28	2.72	-49.4	-64.2	3.6	1.51e+00	0	41	104	0	60	58315
2026-01-20 11:31:32.72	29.40	2.76	-48.8	-57.0	6.5	7.21e-01	0	41	104	0	60	25461
2026-01-20 11:31:33.73	29.52	2.79	-47.9	-52.8	10.7	2.68e-02	0	41	0	1048576	60	15825
2026-01-20 11:31:34.74	29.64	2.83	-46.1	-49.1	14.5	1.11e-04	0	41	0	3145728	60	10355
2026-01-20 11:31:35.75	29.76	2.87	-45.5	-48.1	16.0	0.00e+00	0	41	0	5242880	60	9166
2026-01-20 11:31:36.76	29.88	2.90	-45.0	-47.4	16.5	0.00e+00	0	42	0	6291456	60	8474
2026-01-20 11:31:37.77	30.00	2.94	-45.3	-47.7	15.9	0.00e+00	0	41	0	8388608	60	8783
2026-01-20 11:31:38.78	30.12	2.97	-46.0	-49.0	14.1	0.00e+00	0	41	0	9437184	60	10144
2026-01-20 11:31:39.79	30.24	3.01	-46.4	-49.7	13.8	0.00e+00	0	41	0	11534336	60	11101
2026-01-20 11:31:40.80	30.36	3.04	-49.9	-64.7	3.6	2.10e-01	0	41	104	12582912	60	62320
2026-01-20 11:31:41.81	30.48	3.08	-49.3	-63.9	3.6	1.51e+00	22	41	104	12582912	60	56800
2026-01-20 11:31:42.82	30.61	3.11	-46.9	-50.3	13.2	4.19e-01	0	42	0	12582912	60	11818
2026-01-20 11:31:43.83	30.73	3.14	-43.2	-44.8	18.9	1.29e-05	0	41	0	14680064	60	6314
2026-01-20 11:31:44.84	30.85	3.18	-49.4	-60.3	3.6	0.00e+00	0	41	104	16777216	60	37408
2026-01-20 11:31:45.85	30.97	3.21	-44.2	-46.1	6.0	9.92e-01	67	41	104	16777216	60	7301
2026-01-20 11:31:46.85	31.10	3.25	-43.7	-45.4	18.2	0.00e+00	0	41	0	16777216	60	6765
2026-01-20 11:31:47.87	31.22	3.28	-44.1	-45.9	17.9	0.00e+00	0	41	0	18874368	60	7151
2026-01-20 11:31:48.88	31.34	3.32	-44.5	-46.5	17.2	0.00e+00	0	41	0	19922944	60	7627
2026-01-20 11:31:49.88	31.47	3.35	-44.5	-46.5	17.3	0.00e+00	0	41	0	22020096	60	7616
2026-01-20 11:31:50.89	31.59	3.39	-43.4	-45.0	18.8	0.00e+00	0	41	0	24117248	60	6425
2026-01-20 11:31:51.90	31.71	3.42	-43.7	-45.4	18.4	0.00e+00	0	41	0	26214400	60	6712
2026-01-20 11:31:52.91	31.84	3.45	-42.7	-44.1	19.7	0.00e+00	0	41	0	28311552	58	6513
2026-01-20 11:31:53.92	31.96	3.49	-42.4	-43.8	19.7	0.00e+00	0	41	0	29360128	58	6287
2026-01-20 11:31:54.93	32.09	3.52	-42.9	-44.4	18.9	0.00e+00	0	41	0	31457280	58	6763
2026-01-20 11:31:55.94	32.21	3.56	-44.6	-46.7	16.9	0.00e+00	0	41	0	33554432	60	7797
2026-01-20 11:31:56.95	32.34	3.59	-44.0	-45.8	17.9	0.00e+00	0	41	0	35651584	60	7044
2026-01-20 11:31:57.96	32.47	3.62	-43.5	-45.1	18.9	0.00e+00	0	41	0	37748736	60	6511
2026-01-20 11:31:58.96	32.59	3.66	-43.1	-44.7	19.1	0.00e+00	0	42	0	38797312	60	6183
2026-01-20 11:31:59.97	32.72	3.69	-43.3	-44.9	19.0	0.00e+00	0	42	0	40894464	60	6324
2026-01-20 11:32:00.98	32.84	3.73	-44.0	-45.8	17.6	0.00e+00	0	41	0	42991616	60	7026
2026-01-20 11:32:01.99	32.97	3.76	-44.5	-46.5	17.4	0.00e+00	0	41	0	45088768	60	7657
2026-01-20 11:32:03.00	33.10	3.79	-43.2	-44.8	19.1	0.00e+00	0	41	0	47185920	60	6267
2026-01-20 11:32:04.01	33.23	3.83	-43.3	-44.9	18.7	0.00e+00	0	41	0	48234496	60	6352
2026-01-20 11:32:05.02	33.36	3.86	-43.4	-45.1	18.7	0.00e+00	0	41	0	50331648	60	6474
2026-01-20 11:32:06.03	33.48	3.89	-43.2	-44.8	19.0	0.00e+00	0	41	0	52428800	60	6312
2026-01-20 11:32:07.04	33.61	3.93	-42.7	-44.2	19.5	0.00e+00	0	41	0	54525952	58	6545
2026-01-20 11:32:08.05	33.74	3.96	-42.9	-44.5	19.1	0.00e+00	0	42	0	56623104	58	6775
2026-01-20 11:32:09.06	33.87	3.99	-43.3	-45.0	18.8	0.00e+00	0	41	0	58720256	58	7172
2026-01-20 11:32:10.07	34.00	4.03	-43.6	-45.3	18.3	0.00e+00	0	41	0	59768832	58	7473
2026-01-20 11:32:11.08	34.13	4.06	-43.3	-44.9	19.0	0.00e+00	0	41	0	61865984	60	6371
2026-01-20 11:32:12.09	34.26	4.09	-43.5	-45.2	18.6	0.00e+00	0	41	0	63963136	60	6566
2026-01-20 11:32:13.10	34.39	4.12	-43.0	-44.5	18.9	0.00e+00	0	42	0	66060288	60	6043
2026-01-20 11:32:14.11	34.52	4.16	-42.9	-44.4	19.4	0.00e+00	0	42	0	68157440	60	5977
2026-01-20 11:32:15.12	34.65	4.19	-43.4	-45.0	18.8	0.00e+00	0	42	0	69206016	60	6444
2026-01-20 11:32:16.13	34.78	4.22	-43.2	-44.8	19.2	0.00e+00	0	41	0	71303168	60	6253
2026-01-20 11:32:17.14	34.91	4.25	-42.8	-44.2	19.6	0.00e+00	0	42	0	73400320	60	5895
2026-01-20 11:32:18.15	35.04	4.29	-43.5	-45.1	18.9	0.00e+00	0	41	0	75497472	60	6492
2026-01-20 11:32:19.16	35.18	4.32	-44.0	-45.8	18.2	0.00e+00	0	42	0	77594624	60	7016
2026-01-20 11:32:20.17	35.31	4.35	-43.0	-44.5	19.3	0.00e+00	0	42	0	78643200	60	6084
2026-01-20 11:32:21.17	35.44	4.38	-42.9	-44.4	19.3	0.00e+00	0	42	0	80740352	60	5976
2026-01-20 11:32:22.18	35.57	4.42	-43.6	-45.3	18.5	0.00e+00	0	42	0	82837504	60	6677
2026-01-20 11:32:23.19	35.70	4.45	-44.0	-45.8	18.2	0.00e+00	0	42	0	84934656	60	7078
2026-01-20 11:32:24.20	35.84	4.48	-44.1	-45.9	18.0	0.00e+00	0	42	0	87031808	60	7163
2026-01-20 11:32:25.21	35.97	4.51	-43.9	-45.6	18.1	0.00e+00	0	42	0	88080384	60	6915
2026-01-20 11:32:26.22	36.11	4.54	-43.7	-45.3	18.7	0.00e+00	0	42	0	90177536	60	6679
2026-01-20 11:32:27.23	36.24	4.57	-42.5	-43.9	19.9	0.00e+00	0	42	0	92274688	58	6382
2026-01-20 11:32:28.24	36.37	4.61	-44.1	-45.9	18.0	0.00e+00	0	42	0	94371840	60	7098
2026-01-20 11:32:29.25	36.51	4.64	-44.5	-46.5	17.4	0.00e+00	0	42	0	96468992	60	7598
2026-01-20 11:32:30.26	36.64	4.67	-43.2	-44.7	19.2	0.00e+00	0	41	0	97517568	60	6243
2026-01-20 11:32:31.27	36.78	4.70	-42.5	-43.8	19.8	0.00e+00	0	42	0	99614720	58	6315
2026-01-20 11:32:32.28	36.91	4.73	-43.3	-44.8	18.9	0.00e+00	0	41	0	101711872	58	7081
2026-01-20 11:32:33.29	37.05	4.76	-44.0	-45.7	18.4	0.00e+00	0	41	0	103809024	60	6995
2026-01-20 11:32:34.30	37.19	4.79	-43.6	-45.2	18.9	0.00e+00	0	41	0	105906176	60	6584
2026-01-20 11:32:35.31	37.32	4.82	-43.2	-44.8	19.1	0.00e+00	0	41	0	106954752	60	6284
2026-01-20 11:32:36.32	37.46	4.85	-44.1	-46.0	18.1	0.00e+00	0	41	0	109051904	60	7172
2026-01-20 11:32:37.33	37.60	4.88	-44.1	-45.9	18.1	0.00e+00	0	42	0	111149056	60	7093
2026-01-20 11:32:38.33	37.73	4.92	-44.9	-46.9	17.2	0.00e+00	0	42	0	113246208	60	8020
2026-01-20 11:32:39.34	37.87	4.95	-44.4	-46.3	17.6	0.00e+00	0	42	0	115343360	60	7472
2026-01-20 11:32:40.35	38.01	4.98	-44.2	-46.0	17.9	0.00e+00	0	42	0	116391936	60	7184
2026-01-20 11:32:41.36	38.15	5.01	-43.8	-45.5	18.7	0.00e+00	0	42	0	118489088	60	6824
2026-01-20 11:32:42.37	38.28	5.04	-43.2	-44.8	19.2	0.00e+00	0	42	0	120586240	60	6250
2026-01-20 11:32:43.38	38.42	5.07	-43.6	-45.3	18.7	0.00e+00	0	41	0	122683392	60	6634
2026-01-20 11:32:44.39	38.56	5.10	-44.1	-45.9	17.9	0.00e+00	0	42	0	124780544	60	7129
2026-01-20 11:32:45.40	38.70	5.13	-44.3	-46.1	17.9	0.00e+00	0	42	0	126877696	60	7307
2026-01-20 11:32:46.41	38.84	5.16	-43.7	-45.3	18.9	0.00e+00	0	41	0	127926272	60	6662
2026-01-20 11:32:47.42	38.98	5.19	-43.5	-45.1	18.7	0.00e+00	0	42	0	130023424	60	6495
2026-01-20 11:32:48.43	39.12	5.22	-44.6	-46.6	17.6	0.00e+00	0	42	0	132120576	60	7684
2026-01-20 11:32:49.44	39.26	5.24	-43.7	-45.3	18.9	0.00e+00	0	42	0	134217728	60	6687
2026-01-20 11:32:50.45	39.40	5.27	-43.1	-44.6	19.4	0.00e+00	0	41	0	136314880	58	6889
2026-01-20 11:32:51.46	39.54	5.30	-43.2	-44.8	19.0	0.00e+00	0	42	0	137363456	58	7033
2026-01-20 11:32:52.47	39.68	5.33	-44.4	-46.2	17.7	0.00e+00	0	42	0	139460608	60	7415
2026-01-20 11:32:53.48	39.82	5.36	-45.1	-47.2	16.6	0.00e+00	0	42	0	141557760	60	8328
2026-01-20 11:32:54.49	39.96	5.39	-44.3	-46.1	18.1	0.00e+00	0	42	0	143654912	60	7324
2026-01-20 11:32:55.49	40.10	5.42	-43.1	-44.6	19.8	0.00e+00	0	42	0	144703488	60	6134
2026-01-20 11:32:56.50	40.25	5.45	-44.2	-46.0	18.0	0.00e+00	0	42	0	146800640	60	7174
2026-01-20 11:32:57.52	40.39	5.48	-44.1	-45.9	18.3	0.00e+00	0	42	0	148897792	60	7113
2026-01-20 11:32:58.53	40.53	5.50	-44.1	-45.8	18.3	0.00e+00	0	42	0	150994944	60	7065
2026-01-20 11:32:59.53	40.67	5.53	-44.6	-46.6	17.6	0.00e+00	0	42	0	153092096	60	7699
2026-01-20 11:33:00.54	40.82	5.56	-43.2	-44.7	19.3	0.00e+00	0	41	0	155189248	60	6238
2026-01-20 11:33:01.55	40.96	5.59	-44.3	-46.2	18.0	0.00e+00	0	42	0	156237824	60	7360
2026-01-20 11:33:02.56	41.11	5.62	-44.4	-46.2	17.9	0.00e+00	0	42	0	158334976	60	7421
2026-01-20 11:33:03.58	41.25	5.65	-44.9	-46.9	17.5	0.00e+00	0	41	0	160432128	60	8017
2026-01-20 11:33:04.58	41.39	5.67	-44.1	-45.8	18.3	0.00e+00	0	41	0	162529280	60	7066
2026-01-20 11:33:05.59	41.54	5.70	-43.2	-44.7	19.4	0.00e+00	0	42	0	164626432	60	6188
2026-01-20 11:33:06.60	41.68	5.73	-43.6	-45.2	19.1	0.00e+00	0	42	0	165675008	60	6547
2026-01-20 11:33:07.61	41.83	5.76	-44.1	-45.9	18.4	0.00e+00	0	42	0	167772160	60	7152
2026-01-20 11:33:08.62	41.97	5.78	-44.0	-45.7	18.5	0.00e+00	0	42	0	169869312	60	6965
2026-01-20 11:33:09.63	42.12	5.81	-44.3	-46.1	18.0	0.00e+00	0	42	0	171966464	60	7319
2026-01-20 11:33:10.64	42.26	5.84	-44.5	-46.5	17.9	0.00e+00	0	42	0	174063616	60	7632
2026-01-20 11:33:11.64	42.41	5.86	-44.1	-45.9	18.1	0.00e+00	0	42	0	175112192	60	7123
2026-01-20 11:33:12.65	42.56	5.89	-43.7	-45.3	18.7	0.00e+00	0	42	0	177209344	60	6680
2026-01-20 11:33:13.66	42.70	5.92	-43.9	-45.6	18.6	0.00e+00	0	42	0	179306496	60	6910
2026-01-20 11:33:14.67	42.85	5.94	-43.5	-45.0	19.0	0.00e+00	0	42	0	181403648	60	6459
2026-01-20 11:33:15.68	43.00	5.97	-44.1	-45.8	18.4	0.00e+00	0	42	0	183500800	60	7054
2026-01-20 11:33:16.69	43.14	6.00	-43.7	-45.4	18.8	0.00e+00	0	42	0	184549376	60	6716
2026-01-20 11:33:17.70	43.29	6.02	-43.8	-45.5	18.6	0.00e+00	0	42	0	186646528	60	6823
2026-01-20 11:33:18.71	43.44	6.05	-44.1	-45.8	18.4	0.00e+00	0	42	0	188743680	60	7036
2026-01-20 11:33:19.72	43.59	6.07	-43.7	-45.3	19.0	0.00e+00	0	42	0	190840832	60	6624
2026-01-20 11:33:20.73	43.74	6.10	-44.0	-45.7	18.4	0.00e+00	0	42	0	192937984	60	6944
2026-01-20 11:33:21.74	43.88	6.12	-44.2	-45.9	18.1	0.00e+00	0	42	0	193986560	60	7170
2026-01-20 11:33:22.75	44.03	6.15	-44.5	-46.3	17.7	0.00e+00	0	42	0	196083712	60	7493
2026-01-20 11:33:23.76	44.18	6.18	-44.3	-46.1	18.1	0.00e+00	0	42	0	198180864	60	7306
2026-01-20 11:33:24.77	44.33	6.20	-43.9	-45.6	18.6	0.00e+00	0	42	0	200278016	60	6891
2026-01-20 11:33:25.78	44.48	6.23	-44.1	-45.9	18.4	0.00e+00	0	42	0	202375168	60	7118
2026-01-20 11:33:26.79	44.63	6.25	-44.0	-45.7	18.4	0.00e+00	0	42	0	203423744	60	6954
2026-01-20 11:33:27.80	44.78	6.28	-43.8	-45.5	18.8	0.00e+00	0	41	0	205520896	60	6787
2026-01-20 11:33:28.81	44.93	6.30	-44.0	-45.7	18.6	0.00e+00	0	41	0	207618048	60	6937
2026-01-20 11:33:29.82	45.08	6.32	-43.4	-44.9	19.2	0.00e+00	0	42	0	209715200	60	6386
2026-01-20 11:33:30.83	45.23	6.35	-43.8	-45.4	18.8	0.00e+00	0	42	0	211812352	60	6758
2026-01-20 11:33:31.84	45.38	6.37	-43.8	-45.5	18.7	0.00e+00	0	42	0	212860928	60	6819
2026-01-20 11:33:32.85	45.54	6.40	-44.2	-46.0	18.3	0.00e+00	0	42	0	214958080	60	7228
2026-01-20 11:33:33.86	45.69	6.42	-44.3	-46.2	18.1	0.00e+00	0	42	0	217055232	60	7348
2026-01-20 11:33:34.86	45.84	6.44	-44.3	-46.1	18.2	0.00e+00	0	41	0	219152384	60	7276
2026-01-20 11:33:35.87	45.99	6.47	-44.5	-46.4	17.8	0.00e+00	0	42	0	221249536	60	7585
2026-01-20 11:33:36.88	46.14	6.49	-44.6	-46.5	17.7	0.00e+00	0	42	0	223346688	60	7596
2026-01-20 11:33:37.89	46.29	6.51	-44.8	-46.8	17.5	0.00e+00	0	42	0	224395264	60	7928
2026-01-20 11:33:38.90	46.45	6.54	-44.9	-46.9	17.5	0.00e+00	0	42	0	226492416	60	7968
2026-01-20 11:33:39.91	46.60	6.56	-44.6	-46.5	17.8	0.00e+00	0	42	0	228589568	60	7649
2026-01-20 11:33:40.92	46.75	6.58	-44.9	-46.8	17.3	0.00e+00	0	42	0	230686720	60	7950
2026-01-20 11:33:41.93	46.91	6.61	-45.0	-47.0	17.5	0.00e+00	0	42	0	232783872	60	8066
2026-01-20 11:33:42.94	47.06	6.63	-44.8	-46.7	17.6	0.00e+00	0	42	0	233832448	60	7819
2026-01-20 11:33:43.95	47.21	6.65	-44.8	-46.8	17.6	0.00e+00	0	42	0	235929600	60	7879
2026-01-20 11:33:44.96	47.37	6.67	-44.6	-46.5	17.7	0.00e+00	0	42	0	238026752	60	7621
2026-01-20 11:33:45.97	47.52	6.70	-44.6	-46.5	17.6	0.00e+00	0	42	0	240123904	60	7657
2026-01-20 11:33:46.97	47.68	6.72	-44.1	-45.9	18.6	0.00e+00	0	42	0	242221056	60	7108
2026-01-20 11:33:47.99	47.83	6.74	-43.8	-45.5	18.8	0.00e+00	0	42	0	243269632	60	6774
2026-01-20 11:33:49.00	47.99	6.76	-44.1	-45.8	18.5	0.00e+00	0	42	0	245366784	60	7048
2026-01-20 11:33:50.00	48.14	6.78	-43.9	-45.6	18.6	0.00e+00	0	42	0	247463936	60	6862
2026-01-20 11:33:51.01	48.30	6.80	-43.7	-45.3	18.8	0.00e+00	0	42	0	249561088	60	6692
2026-01-20 11:33:52.02	48.45	6.83	-44.2	-46.0	18.4	0.00e+00	0	42	0	251658240	60	7172
2026-01-20 11:33:53.03	48.61	6.85	-44.4	-46.2	18.0	0.00e+00	0	42	0	252706816	60	7394
2026-01-20 11:33:54.04	48.76	6.87	-45.1	-47.1	17.3	0.00e+00	0	42	0	254803968	60	8175
2026-01-20 11:33:55.05	48.92	6.89	-44.6	-46.5	18.0	0.00e+00	0	42	0	256901120	60	7596
2026-01-20 11:33:56.06	49.08	6.91	-42.9	-44.3	19.9	0.00e+00	0	42	0	258998272	60	5950
2026-01-20 11:33:57.07	49.23	6.93	-43.5	-45.0	18.9	0.00e+00	0	42	0	261095424	60	6417
2026-01-20 11:33:58.08	49.39	6.95	-43.9	-45.5	18.8	0.00e+00	0	42	0	262144000	60	6810
2026-01-20 11:33:59.09	49.55	6.97	-43.7	-45.2	19.1	0.00e+00	0	42	0	264241152	60	6605
2026-01-20 11:34:00.10	49.71	6.99	-44.0	-45.7	18.6	0.00e+00	0	42	0	266338304	60	6984
2026-01-20 11:34:01.11	49.86	7.01	-44.4	-46.2	17.9	0.00e+00	0	42	0	268435456	60	7388
2026-01-20 11:34:02.12	50.02	7.03	-45.4	-47.6	16.7	0.00e+00	0	42	0	270532608	60	8636
2026-01-20 11:34:03.12	50.18	7.05	-44.9	-46.8	17.5	0.00e+00	0	42	0	271581184	60	7935
2026-01-20 11:34:04.13	50.34	7.07	-44.6	-46.6	17.9	0.00e+00	0	42	0	273678336	60	7703
2026-01-20 11:34:05.14	50.50	7.09	-44.6	-46.5	17.7	0.00e+00	0	42	0	275775488	60	7668
2026-01-20 11:34:06.15	50.65	7.10	-44.9	-46.8	17.6	0.00e+00	0	42	0	277872640	60	7923
2026-01-20 11:34:07.16	50.81	7.12	-44.8	-46.7	17.7	0.00e+00	0	42	0	279969792	60	7830
2026-01-20 11:34:08.17	50.97	7.14	-43.9	-45.5	18.8	0.00e+00	0	42	0	281018368	60	6838
2026-01-20 11:34:09.18	51.13	7.16	-43.7	-45.3	19.0	0.00e+00	0	42	0	283115520	60	6634
2026-01-20 11:34:10.19	51.29	7.18	-43.4	-45.0	19.3	0.00e+00	0	42	0	285212672	60	6400
2026-01-20 11:34:11.20	51.45	7.20	-43.6	-45.1	19.2	0.00e+00	0	42	0	287309824	60	6538
2026-01-20 11:34:12.21	51.61	7.21	-43.5	-45.1	19.1	0.00e+00	0	42	0	289406976	60	6485
2026-01-20 11:34:13.22	51.77	7.23	-43.5	-45.1	19.2	0.00e+00	0	42	0	291504128	60	6488
2026-01-20 11:34:14.22	51.93	7.25	-43.3	-44.8	19.4	0.00e+00	0	42	0	292552704	60	6265
2026-01-20 11:34:15.23	52.09	7.27	-43.2	-44.7	19.6	0.00e+00	0	42	0	294649856	60	6197
2026-01-20 11:34:16.24	52.25	7.28	-43.3	-44.7	19.6	0.00e+00	0	42	0	296747008	60	6245
2026-01-20 11:34:17.25	52.41	7.30	-43.2	-44.6	19.5	0.00e+00	0	42	0	298844160	60	6161
2026-01-20 11:34:18.26	52.57	7.32	-43.4	-44.9	19.4	0.00e+00	0	42	0	300941312	60	6344
2026-01-20 11:34:19.27	52.73	7.33	-43.3	-44.7	19.7	0.00e+00	0	42	0	301989888	60	6243
2026-01-20 11:34:20.28	52.89	7.35	-43.1	-44.6	19.8	0.00e+00	0	42	0	304087040	60	6125
2026-01-20 11:34:21.29	53.06	7.37	-42.7	-44.0	20.1	0.00e+00	0	42	0	306184192	58	6423
2026-01-20 11:34:22.30	53.22	7.38	-43.0	-44.4	19.6	0.00e+00	0	42	0	308281344	58	6707
2026-01-20 11:34:23.31	53.38	7.40	-42.8	-44.2	19.9	0.00e+00	0	42	0	310378496	58	6564
2026-01-20 11:34:24.32	53.54	7.41	-43.1	-44.5	19.7	0.00e+00	0	42	0	311427072	58	6836
2026-01-20 11:34:25.33	53.70	7.43	-42.9	-44.3	19.9	0.00e+00	0	42	0	313524224	58	6650
2026-01-20 11:34:26.34	53.87	7.44	-43.1	-44.5	19.7	0.00e+00	0	42	0	315621376	58	6832
2026-01-20 11:34:27.34	54.03	7.46	-42.7	-44.0	20.0	0.00e+00	0	42	0	317718528	58	6454
2026-01-20 11:34:28.35	54.19	7.47	-42.9	-44.2	19.9	0.00e+00	0	42	0	319815680	58	6606
2026-01-20 11:34:29.36	54.35	7.49	-42.9	-44.3	19.8	0.00e+00	0	42	0	320864256	58	6667
2026-01-20 11:34:30.37	54.52	7.50	-42.8	-44.2	20.1	0.00e+00	0	42	0	322961408	58	6540
2026-01-20 11:34:31.38	54.68	7.52	-42.6	-44.0	20.2	0.00e+00	0	42	0	325058560	58	6427
2026-01-20 11:34:32.39	54.84	7.53	-42.7	-44.1	20.0	0.00e+00	0	42	0	327155712	58	6507
2026-01-20 11:34:33.40	55.01	7.55	-42.5	-43.9	20.1	0.00e+00	0	42	0	329252864	58	6356
2026-01-20 11:34:34.41	55.17	7.56	-42.9	-44.3	19.9	0.00e+00	0	42	0	330301440	58	6654
2026-01-20 11:34:35.42	55.33	7.57	-43.0	-44.4	19.9	0.00e+00	0	42	0	332398592	58	6722
2026-01-20 11:34:36.43	55.50	7.59	-42.8	-44.2	19.8	0.00e+00	0	42	0	334495744	58	6612
2026-01-20 11:34:37.44	55.66	7.60	-43.6	-45.2	19.1	0.00e+00	0	42	0	336592896	58	7416
2026-01-20 11:34:38.45	55.83	7.61	-43.5	-45.1	19.2	0.00e+00	0	42	0	338690048	60	6480
2026-01-20 11:34:39.46	55.99	7.63	-43.8	-45.4	18.8	0.00e+00	0	42	0	339738624	60	6760
2026-01-20 11:34:40.47	56.16	7.64	-43.7	-45.3	19.2	0.00e+00	0	42	0	341835776	60	6635
2026-01-20 11:34:41.48	56.32	7.65	-43.9	-45.6	18.8	0.00e+00	0	42	0	343932928	60	6861
2026-01-20 11:34:42.49	56.48	7.66	-43.7	-45.2	19.2	0.00e+00	0	42	0	346030080	60	6604
2026-01-20 11:34:43.50	56.65	7.68	-43.6	-45.2	19.1	0.00e+00	0	42	0	348127232	60	6584
2026-01-20 11:34:44.51	56.81	7.69	-43.6	-45.2	19.1	0.00e+00	0	42	0	349175808	60	6556
2026-01-20 11:34:45.52	56.98	7.70	-43.6	-45.2	19.1	0.00e+00	0	42	0	351272960	60	6544
2026-01-20 11:34:46.53	57.15	7.71	-43.7	-45.3	19.1	0.00e+00	0	42	0	353370112	60	6661
2026-01-20 11:34:47.54	57.31	7.72	-43.7	-45.3	19.0	0.00e+00	0	42	0	355467264	60	6691
2026-01-20 11:34:48.54	57.47	7.73	-43.8	-45.5	18.9	0.00e+00	0	42	0	357564416	60	6798
2026-01-20 11:34:49.55	57.64	7.74	-43.7	-45.3	18.9	0.00e+00	0	42	0	359661568	60	6669
2026-01-20 11:34:50.56	57.81	7.75	-43.5	-45.0	19.3	0.00e+00	0	42	0	360710144	60	6434
2026-01-20 11:34:51.57	57.97	7.77	-43.5	-45.0	19.2	0.00e+00	0	42	0	362807296	60	6421
2026-01-20 11:34:52.58	58.14	7.78	-44.2	-46.0	18.5	0.00e+00	0	42	0	364904448	60	7199
2026-01-20 11:34:53.59	58.30	7.79	-43.8	-45.5	19.0	0.00e+00	0	42	0	367001600	60	6794
2026-01-20 11:34:54.60	58.47	7.80	-44.2	-45.9	18.4	0.00e+00	0	42	0	368050176	60	7156
2026-01-20 11:34:55.61	58.64	7.80	-44.4	-46.2	18.2	0.00e+00	0	42	0	370147328	60	7370
2026-01-20 11:34:56.62	58.80	7.81	-44.9	-46.9	17.6	0.00e+00	0	42	0	372244480	60	7966
2026-01-20 11:34:57.63	58.97	7.82	-44.5	-46.3	17.9	0.00e+00	0	42	0	374341632	60	7471
2026-01-20 11:34:58.64	59.14	7.83	-44.9	-46.9	17.3	0.00e+00	0	42	0	376438784	60	8036
2026-01-20 11:34:59.64	59.30	7.84	-44.5	-46.4	18.2	0.00e+00	0	42	0	377487360	60	7542
2026-01-20 11:35:00.65	59.47	7.85	-44.5	-46.3	18.1	0.00e+00	0	42	0	379584512	60	7472
2026-01-20 11:35:01.66	59.64	7.86	-44.6	-46.5	17.9	0.00e+00	0	42	0	381681664	60	7609
2026-01-20 11:35:02.67	59.80	7.87	-44.5	-46.3	18.2	0.00e+00	0	42	0	383778816	60	7475
2026-01-20 11:35:03.68	59.97	7.88	-44.2	-46.0	18.5	0.00e+00	0	42	0	385875968	60	7181
2026-01-20 11:35:04.69	60.14	7.88	-44.1	-45.9	18.4	0.00e+00	0	42	0	387973120	60	7094
2026-01-20 11:35:05.70	60.31	7.89	-43.9	-45.6	18.4	0.00e+00	0	42	0	389021696	60	6864
2026-01-20 11:35:06.71	60.47	7.90	-44.3	-46.1	18.3	0.00e+00	0	42	0	391118848	60	7273
2026-01-20 11:35:07.72	60.64	7.91	-44.2	-45.9	18.3	0.00e+00	0	42	0	393216000	60	7163
2026-01-20 11:35:08.73	60.81	7.91	-44.0	-45.7	18.6	0.00e+00	0	42	0	395313152	60	6982
2026-01-20 11:35:09.74	60.98	7.92	-44.4	-46.2	18.2	0.00e+00	0	42	0	397410304	60	7376
2026-01-20 11:35:10.75	61.14	7.93	-44.6	-46.4	17.8	0.00e+00	0	42	0	398458880	60	7593
2026-01-20 11:35:11.76	61.31	7.93	-44.1	-45.8	18.3	0.00e+00	0	42	0	400556032	60	7059
2026-01-20 11:35:12.77	61.48	7.94	-44.6	-46.5	17.8	0.00e+00	0	42	0	402653184	60	7609
2026-01-20 11:35:13.78	61.65	7.94	-44.7	-46.6	17.9	0.00e+00	0	42	0	404750336	60	7768
2026-01-20 11:35:14.78	61.81	7.95	-44.5	-46.3	18.0	0.00e+00	0	42	0	406847488	60	7458
2026-01-20 11:35:15.79	61.98	7.96	-44.6	-46.5	17.9	0.00e+00	0	42	0	407896064	60	7642
2026-01-20 11:35:16.80	62.15	7.96	-44.6	-46.4	18.0	0.00e+00	0	42	0	409993216	60	7538
2026-01-20 11:35:17.81	62.32	7.97	-44.2	-46.0	18.4	0.00e+00	0	42	0	412090368	60	7176
2026-01-20 11:35:18.82	62.49	7.97	-44.2	-45.9	18.5	0.00e+00	0	42	0	414187520	60	7117
2026-01-20 11:35:19.83	62.65	7.98	-44.2	-45.9	18.4	0.00e+00	0	42	0	416284672	60	7152
2026-01-20 11:35:20.84	62.82	7.98	-44.3	-46.0	18.3	0.00e+00	0	42	0	417333248	60	7250
2026-01-20 11:35:21.85	62.99	7.98	-44.2	-46.0	18.6	0.00e+00	0	42	0	419430400	60	7211
2026-01-20 11:35:22.86	63.16	7.99	-44.4	-46.1	18.2	0.00e+00	0	42	0	421527552	60	7314
2026-01-20 11:35:23.86	63.33	7.99	-44.3	-46.1	18.3	0.00e+00	0	42	0	423624704	60	7311
2026-01-20 11:35:24.88	63.50	8.00	-43.9	-45.5	18.9	0.00e+00	0	42	0	425721856	60	6829
2026-01-20 11:35:25.88	63.66	8.00	-43.5	-45.0	19.3	0.00e+00	0	42	0	426770432	60	6433
2026-01-20 11:35:26.89	63.83	8.00	-43.4	-45.0	19.4	0.00e+00	0	42	0	428867584	60	6406
2026-01-20 11:35:27.90	64.00	8.01	-43.4	-45.0	19.1	0.00e+00	0	42	0	430964736	60	6399
2026-01-20 11:35:28.91	64.17	8.01	-43.5	-45.0	19.2	0.00e+00	0	42	0	433061888	60	6436
2026-01-20 11:35:29.92	64.34	8.01	-43.4	-45.0	19.2	0.00e+00	0	42	0	435159040	60	6421
2026-01-20 11:35:30.93	64.51	8.01	-43.3	-44.8	19.5	0.00e+00	0	42	0	436207616	60	6276
2026-01-20 11:35:31.94	64.68	8.02	-43.3	-44.9	19.3	0.00e+00	0	42	0	438304768	60	6322
2026-01-20 11:35:32.95	64.85	8.02	-43.7	-45.3	19.0	0.00e+00	0	42	0	440401920	60	6650
2026-01-20 11:35:33.96	65.02	8.02	-43.6	-45.2	19.0	0.00e+00	0	42	0	442499072	60	6604
2026-01-20 11:35:34.97	65.18	8.02	-43.7	-45.3	19.1	0.00e+00	0	42	0	444596224	60	6643
2026-01-20 11:35:35.98	65.35	8.02	-43.3	-44.8	19.5	0.00e+00	0	42	0	445644800	60	6258
2026-01-20 11:35:36.99	65.52	8.02	-43.4	-44.9	19.4	0.00e+00	0	42	0	447741952	60	6365
2026-01-20 11:35:38.00	65.69	8.03	-42.8	-44.2	19.9	0.00e+00	0	42	0	449839104	60	5869
2026-01-20 11:35:39.01	65.86	8.03	-42.8	-44.3	19.9	0.00e+00	0	42	0	451936256	58	6619
2026-01-20 11:35:40.02	66.03	8.03	-42.9	-44.3	19.7	0.00e+00	0	42	0	454033408	58	6642
2026-01-20 11:35:41.03	66.20	8.03	-42.9	-44.3	19.9	0.00e+00	0	42	0	456130560	58	6632
2026-01-20 11:35:42.04	66.37	8.03	-43.4	-44.9	19.2	0.00e+00	0	42	0	457179136	58	7138
2026-01-20 11:35:43.04	66.53	8.03	-43.2	-44.6	19.5	0.00e+00	0	42	0	459276288	58	6914
2026-01-20 11:35:44.05	66.70	8.03	-43.2	-44.7	19.4	0.00e+00	0	42	0	461373440	58	6970
2026-01-20 11:35:45.06	66.87	8.03	-43.4	-44.9	19.0	0.00e+00	0	42	0	463470592	58	7151
2026-01-20 11:35:46.07	67.04	8.03	-43.2	-44.7	19.4	0.00e+00	0	42	0	465567744	58	6999
2026-01-20 11:35:47.08	67.21	8.02	-43.5	-45.1	19.3	0.00e+00	0	42	0	466616320	58	7254
2026-01-20 11:35:48.09	67.38	8.02	-43.0	-44.4	19.7	0.00e+00	0	42	0	468713472	58	6709
2026-01-20 11:35:49.10	67.55	8.02	-42.8	-44.1	20.0	0.00e+00	0	42	0	470810624	58	6527
2026-01-20 11:35:50.11	67.72	8.02	-42.4	-43.7	20.4	0.00e+00	0	42	0	472907776	58	6199
2026-01-20 11:35:51.12	67.89	8.02	-42.2	-43.5	20.4	0.00e+00	0	42	0	475004928	58	6075
2026-01-20 11:35:52.13	68.06	8.02	-42.4	-43.7	20.5	0.00e+00	0	42	0	476053504	58	6216
2026-01-20 11:35:53.14	68.23	8.01	-42.5	-43.8	20.1	0.00e+00	0	42	0	478150656	58	6292
2026-01-20 11:35:54.15	68.39	8.01	-42.6	-43.9	19.9	0.00e+00	0	42	0	480247808	58	6371
2026-01-20 11:35:55.16	68.56	8.01	-43.1	-44.6	19.6	0.00e+00	0	42	0	482344960	58	6927
2026-01-20 11:35:56.17	68.73	8.01	-43.2	-44.7	19.5	0.00e+00	0	42	0	484442112	58	6985
2026-01-20 11:35:57.17	68.90	8.00	-43.1	-44.6	19.4	0.00e+00	0	42	0	485490688	58	6898
2026-01-20 11:35:58.18	69.07	8.00	-43.1	-44.6	19.6	0.00e+00	0	42	0	487587840	58	6867
2026-01-20 11:35:59.19	69.24	8.00	-42.6	-44.0	20.0	0.00e+00	0	42	0	489684992	58	6410
2026-01-20 11:36:00.20	69.41	7.99	-42.2	-43.5	20.6	0.00e+00	0	42	0	491782144	58	6061
2026-01-20 11:36:01.21	69.57	7.99	-42.2	-43.4	20.5	0.00e+00	0	42	0	493879296	58	6015
2026-01-20 11:36:02.22	69.74	7.98	-42.2	-43.5	20.1	0.00e+00	0	42	0	494927872	58	6090
2026-01-20 11:36:03.23	69.91	7.98	-42.4	-43.8	20.0	0.00e+00	0	42	0	497025024	58	6272
2026-01-20 11:36:04.24	70.08	7.98	-42.6	-44.0	20.3	0.00e+00	0	42	0	499122176	58	6404
2026-01-20 11:36:05.25	70.25	7.97	-42.7	-44.1	19.7	0.00e+00	0	42	0	501219328	58	6527
2026-01-20 11:36:06.26	70.42	7.97	-42.7	-44.1	19.8	0.00e+00	0	42	0	503316480	58	6509
2026-01-20 11:36:07.27	70.59	7.96	-42.7	-44.1	19.9	0.00e+00	0	42	0	504365056	58	6508
2026-01-20 11:36:08.28	70.75	7.95	-43.1	-44.6	19.7	0.00e+00	0	42	0	506462208	58	6852
2026-01-20 11:36:09.29	70.92	7.95	-42.8	-44.3	19.8	0.00e+00	0	42	0	508559360	58	6616
2026-01-20 11:36:10.29	71.09	7.94	-42.4	-43.7	20.3	0.00e+00	0	42	0	510656512	58	6195
2026-01-20 11:36:11.30	71.26	7.94	-42.1	-43.3	20.7	0.00e+00	0	42	0	512753664	58	5961
2026-01-20 11:36:12.31	71.42	7.93	-41.8	-43.0	21.0	0.00e+00	0	42	0	513802240	56	6439
2026-01-20 11:36:13.32	71.59	7.92	-41.6	-42.8	21.2	0.00e+00	0	42	0	515899392	56	6248
2026-01-20 11:36:14.33	71.76	7.92	-41.8	-43.0	20.9	0.00e+00	0	42	0	517996544	56	6463
2026-01-20 11:36:15.34	71.93	7.91	-41.5	-42.7	21.2	0.00e+00	0	42	0	520093696	56	6202
2026-01-20 11:36:16.35	72.10	7.90	-41.6	-42.7	21.1	0.00e+00	0	42	0	522190848	56	6224
2026-01-20 11:36:17.36	72.26	7.90	-41.1	-42.2	21.6	0.00e+00	0	42	0	524288000	56	5864
2026-01-20 11:36:18.37	72.43	7.89	-41.7	-43.0	21.1	0.00e+00	0	42	0	525336576	56	6393
2026-01-20 11:36:19.38	72.60	7.88	-42.1	-43.4	20.7	0.00e+00	0	42	0	527433728	56	6702
2026-01-20 11:36:20.39	72.77	7.87	-42.3	-43.6	20.4	0.00e+00	0	42	0	529530880	56	6894
2026-01-20 11:36:21.39	72.93	7.87	-42.2	-43.5	20.9	0.00e+00	0	42	0	531628032	56	6772
2026-01-20 11:36:22.40	73.10	7.86	-42.0	-43.2	21.0	0.00e+00	0	42	0	533725184	56	6612
2026-01-20 11:36:23.41	73.27	7.85	-41.9	-43.1	20.8	0.00e+00	0	42	0	534773760	56	6525
2026-01-20 11:36:24.42	73.43	7.84	-42.2	-43.5	20.8	0.00e+00	0	42	0	536870912	56	6798
2026-01-20 11:36:25.43	73.60	7.83	-42.2	-43.5	20.5	0.00e+00	0	42	0	538968064	56	6831
2026-01-20 11:36:26.44	73.77	7.82	-42.3	-43.6	20.4	0.00e+00	0	42	0	541065216	56	6891
2026-01-20 11:36:27.45	73.93	7.81	-42.3	-43.6	20.4	0.00e+00	0	42	0	543162368	56	6921
2026-01-20 11:36:28.45	74.10	7.80	-42.5	-43.9	20.2	0.00e+00	0	42	0	544210944	56	7116
2026-01-20 11:36:29.46	74.27	7.79	-42.3	-43.6	20.5	0.00e+00	0	42	0	546308096	56	6863
2026-01-20 11:36:30.47	74.43	7.78	-42.3	-43.6	20.4	0.00e+00	0	42	0	548405248	56	6866
2026-01-20 11:36:31.48	74.60	7.77	-42.5	-43.8	20.4	0.00e+00	0	42	0	550502400	56	7068
2026-01-20 11:36:32.49	74.77	7.76	-42.5	-43.8	20.3	0.00e+00	0	42	0	552599552	56	7069
2026-01-20 11:36:33.50	74.93	7.75	-42.4	-43.7	20.4	0.00e+00	0	42	0	553648128	58	6238
2026-01-20 11:36:34.51	75.10	7.74	-42.1	-43.4	20.5	0.00e+00	0	42	0	555745280	58	5995
2026-01-20 11:36:35.52	75.26	7.73	-42.5	-43.8	20.2	0.00e+00	0	42	0	557842432	58	6293
2026-01-20 11:36:36.53	75.43	7.72	-42.1	-43.3	20.6	0.00e+00	0	41	0	559939584	58	5945
2026-01-20 11:36:37.54	75.60	7.71	-41.9	-43.2	20.7	0.00e+00	0	42	0	562036736	58	5849
2026-01-20 11:36:38.55	75.76	7.70	-42.0	-43.3	20.5	0.00e+00	0	42	0	563085312	58	5935
2026-01-20 11:36:39.56	75.93	7.69	-42.2	-43.5	20.4	0.00e+00	0	42	0	565182464	56	6825
2026-01-20 11:36:40.57	76.09	7.67	-42.2	-43.5	20.6	0.00e+00	0	42	0	567279616	56	6787
2026-01-20 11:36:41.58	76.26	7.66	-42.1	-43.4	20.5	0.00e+00	0	42	0	569376768	56	6695
2026-01-20 11:36:42.59	76.42	7.65	-42.6	-43.9	20.0	0.00e+00	0	42	0	571473920	56	7168
2026-01-20 11:36:43.59	76.59	7.64	-42.6	-43.9	20.1	0.00e+00	0	42	0	572522496	56	7142
2026-01-20 11:36:44.60	76.75	7.62	-42.4	-43.7	20.3	0.00e+00	0	42	0	574619648	56	6992
2026-01-20 11:36:45.61	76.91	7.61	-42.5	-43.9	20.0	0.00e+00	0	42	0	576716800	56	7122
2026-01-20 11:36:46.62	77.08	7.60	-42.5	-43.8	20.3	0.00e+00	0	42	0	578813952	56	7046
2026-01-20 11:36:47.63	77.24	7.58	-42.6	-43.9	20.3	0.00e+00	0	42	0	580911104	56	7146
2026-01-20 11:36:48.64	77.41	7.57	-42.4	-43.7	20.2	0.00e+00	0	42	0	581959680	56	6973
2026-01-20 11:36:49.65	77.57	7.56	-42.4	-43.7	20.2	0.00e+00	0	42	0	584056832	58	6240
2026-01-20 11:36:50.66	77.74	7.54	-43.0	-44.5	19.7	0.00e+00	0	42	0	586153984	58	6826
2026-01-20 11:36:51.67	77.90	7.53	-42.5	-43.9	20.0	0.00e+00	0	42	0	588251136	58	6364
2026-01-20 11:36:52.68	78.06	7.51	-43.0	-44.5	19.4	0.00e+00	0	42	0	590348288	58	6780
2026-01-20 11:36:53.69	78.23	7.50	-42.9	-44.3	19.8	0.00e+00	0	42	0	592445440	58	6688
2026-01-20 11:36:54.70	78.39	7.49	-42.6	-44.0	19.9	0.00e+00	0	42	0	593494016	58	6447
2026-01-20 11:36:55.71	78.55	7.47	-42.5	-43.9	20.0	0.00e+00	0	42	0	595591168	58	6318
2026-01-20 11:36:56.72	78.72	7.46	-42.0	-43.3	20.6	0.00e+00	0	42	0	597688320	58	5934
2026-01-20 11:36:57.72	78.88	7.44	-42.1	-43.4	20.5	0.00e+00	0	42	0	599785472	58	6026
2026-01-20 11:36:58.74	79.04	7.43	-41.9	-43.2	20.6	0.00e+00	0	42	0	600834048	58	5858
2026-01-20 11:36:59.74	79.20	7.41	-41.8	-43.1	20.9	0.00e+00	0	42	0	602931200	58	5778
2026-01-20 11:37:00.75	79.37	7.39	-41.6	-42.8	20.9	0.00e+00	0	42	0	605028352	58	5591
2026-01-20 11:37:01.76	79.53	7.38	-41.6	-42.8	21.2	0.00e+00	0	42	0	607125504	56	6296
2026-01-20 11:37:02.77	79.69	7.36	-41.1	-42.3	21.7	0.00e+00	0	42	0	609222656	56	5898
2026-01-20 11:37:03.78	79.85	7.35	-40.9	-42.0	21.7	0.00e+00	0	42	0	610271232	56	5737
2026-01-20 11:37:04.79	80.01	7.33	-40.9	-42.0	21.6	0.00e+00	0	42	0	612368384	56	5740
2026-01-20 11:37:05.80	80.17	7.31	-40.9	-42.0	21.9	0.00e+00	0	42	0	614465536	56	5707
2026-01-20 11:37:06.81	80.34	7.30	-41.0	-42.1	21.8	0.00e+00	0	42	0	616562688	56	5794
2026-01-20 11:37:07.81	80.50	7.28	-41.1	-42.3	21.5	0.00e+00	0	42	0	618659840	56	5911
2026-01-20 11:37:08.82	80.66	7.26	-41.0	-42.1	21.8	0.00e+00	0	42	0	620756992	56	5780
2026-01-20 11:37:09.83	80.82	7.24	-41.4	-42.6	21.2	0.00e+00	0	42	0	621805568	56	6104
2026-01-20 11:37:10.84	80.98	7.23	-41.3	-42.4	21.2	0.00e+00	0	42	0	623902720	56	6018
2026-01-20 11:37:11.85	81.14	7.21	-41.6	-42.8	21.3	0.00e+00	0	42	0	625999872	56	6316
2026-01-20 11:37:12.86	81.30	7.19	-41.2	-42.3	21.5	0.00e+00	0	42	0	628097024	56	5956
2026-01-20 11:37:13.87	81.46	7.17	-41.2	-42.3	21.5	0.00e+00	0	42	0	630194176	56	5957
2026-01-20 11:37:14.88	81.62	7.15	-41.2	-42.4	21.4	0.00e+00	0	42	0	631242752	54	6708
2026-01-20 11:37:15.89	81.78	7.14	-41.1	-42.2	21.4	0.00e+00	0	42	0	633339904	54	6605
2026-01-20 11:37:16.90	81.94	7.12	-41.1	-42.2	21.5	0.00e+00	0	42	0	635437056	54	6563
2026-01-20 11:37:17.91	82.10	7.10	-41.3	-42.4	21.5	0.00e+00	0	42	0	637534208	54	6740
2026-01-20 11:37:18.92	82.26	7.08	-41.0	-42.2	21.6	0.00e+00	0	42	0	639631360	54	6558
2026-01-20 11:37:19.92	82.41	7.06	-41.5	-42.7	21.2	0.00e+00	0	42	0	640679936	54	6996
2026-01-20 11:37:20.93	82.57	7.04	-41.7	-42.9	21.1	0.00e+00	0	42	0	642777088	56	6356
2026-01-20 11:37:21.94	82.73	7.02	-41.8	-43.1	20.8	0.00e+00	0	42	0	644874240	56	6473
2026-01-20 11:37:22.95	82.89	7.00	-41.7	-42.9	20.9	0.00e+00	0	42	0	646971392	56	6382
2026-01-20 11:37:23.96	83.05	6.98	-42.2	-43.6	20.6	0.00e+00	0	42	0	649068544	56	6862
2026-01-20 11:37:24.97	83.20	6.96	-42.4	-43.8	20.3	0.00e+00	0	42	0	650117120	56	7016
2026-01-20 11:37:25.98	83.36	6.94	-42.2	-43.6	20.5	0.00e+00	0	42	0	652214272	56	6867
2026-01-20 11:37:26.99	83.52	6.92	-41.9	-43.2	20.5	0.00e+00	0	42	0	654311424	56	6578
2026-01-20 11:37:28.00	83.68	6.90	-41.8	-43.1	20.9	0.00e+00	0	42	0	656408576	56	6533
2026-01-20 11:37:29.01	83.83	6.88	-41.6	-42.8	21.0	0.00e+00	0	42	0	658505728	56	6313
2026-01-20 11:37:30.02	83.99	6.86	-41.9	-43.1	20.7	0.00e+00	0	42	0	659554304	56	6527
2026-01-20 11:37:31.03	84.15	6.84	-41.7	-43.0	21.0	0.00e+00	0	42	0	661651456	56	6391
2026-01-20 11:37:32.04	84.30	6.82	-41.4	-42.6	21.3	0.00e+00	0	42	0	663748608	56	6118
2026-01-20 11:37:33.05	84.46	6.80	-41.5	-42.7	21.4	0.00e+00	0	42	0	665845760	56	6225
2026-01-20 11:37:34.05	84.61	6.78	-41.1	-42.3	21.4	0.00e+00	0	42	0	667942912	56	5932
2026-01-20 11:37:35.06	84.77	6.75	-41.0	-42.1	21.6	0.00e+00	0	42	0	668991488	56	5808
2026-01-20 11:37:36.07	84.92	6.73	-40.9	-42.1	21.8	0.00e+00	0	42	0	671088640	56	5768
2026-01-20 11:37:37.08	85.08	6.71	-41.1	-42.3	21.6	0.00e+00	0	42	0	673185792	56	5940
2026-01-20 11:37:38.09	85.24	6.69	-41.4	-42.5	21.2	0.00e+00	0	42	0	675282944	56	6087
2026-01-20 11:37:39.10	85.39	6.67	-41.6	-42.8	21.2	0.00e+00	0	42	0	677380096	56	6273
2026-01-20 11:37:40.11	85.54	6.64	-41.5	-42.7	21.1	0.00e+00	0	42	0	678428672	56	6195
2026-01-20 11:37:41.12	85.70	6.62	-41.6	-42.9	20.9	0.00e+00	0	42	0	680525824	56	6372
2026-01-20 11:37:42.13	85.85	6.60	-42.0	-43.3	20.6	0.00e+00	0	42	0	682622976	56	6623
2026-01-20 11:37:43.14	86.01	6.57	-42.0	-43.3	20.6	0.00e+00	0	42	0	684720128	56	6617
2026-01-20 11:37:44.14	86.16	6.55	-41.8	-43.0	20.6	0.00e+00	0	42	0	686817280	56	6457
2026-01-20 11:37:45.15	86.31	6.53	-41.8	-43.1	20.7	0.00e+00	0	42	0	688914432	56	6478
2026-01-20 11:37:46.16	86.47	6.51	-41.8	-43.0	20.9	0.00e+00	0	42	0	689963008	56	6439
2026-01-20 11:37:47.18	86.62	6.48	-41.7	-43.0	20.8	0.00e+00	0	42	0	692060160	56	6404
2026-01-20 11:37:48.19	86.77	6.46	-41.7	-43.0	20.9	0.00e+00	0	42	0	694157312	56	6416
2026-01-20 11:37:49.20	86.93	6.43	-41.7	-42.9	20.9	0.00e+00	0	42	0	696254464	56	6352
2026-01-20 11:37:50.21	87.08	6.41	-42.0	-43.4	20.5	0.00e+00	0	42	0	698351616	56	6705
2026-01-20 11:37:51.22	87.23	6.39	-41.5	-42.7	21.1	0.00e+00	0	42	0	699400192	56	6219
2026-01-20 11:37:52.23	87.38	6.36	-41.9	-43.1	20.8	0.00e+00	0	42	0	701497344	56	6506
2026-01-20 11:37:53.24	87.53	6.34	-42.4	-43.7	20.1	0.00e+00	0	42	0	703594496	56	6949
2026-01-20 11:37:54.25	87.68	6.31	-42.2	-43.4	20.5	0.00e+00	0	42	0	705691648	56	6769
2026-01-20 11:37:55.26	87.84	6.29	-42.4	-43.7	20.4	0.00e+00	0	42	0	707788800	56	6974
2026-01-20 11:37:56.27	87.99	6.26	-42.7	-44.1	19.9	0.00e+00	0	42	0	708837376	58	6539
2026-01-20 11:37:57.28	88.14	6.24	-42.8	-44.2	19.7	0.00e+00	0	42	0	710934528	58	6607
2026-01-20 11:37:58.29	88.29	6.21	-43.0	-44.5	19.2	0.00e+00	0	42	0	713031680	58	6811
2026-01-20 11:37:59.30	88.44	6.19	-43.3	-44.9	19.0	0.00e+00	0	42	0	715128832	58	7106
2026-01-20 11:38:00.31	88.59	6.16	-42.9	-44.4	19.6	0.00e+00	0	42	0	717225984	58	6698
2026-01-20 11:38:01.32	88.74	6.14	-43.1	-44.7	19.2	0.00e+00	0	42	0	718274560	58	6940
2026-01-20 11:38:02.32	88.88	6.11	-43.2	-44.7	19.0	0.00e+00	0	42	0	720371712	58	6985
2026-01-20 11:38:03.33	89.03	6.09	-43.2	-44.8	19.2	0.00e+00	0	42	0	722468864	58	7027
2026-01-20 11:38:04.34	89.18	6.06	-43.3	-44.9	19.1	0.00e+00	0	42	0	724566016	58	7152
2026-01-20 11:38:05.35	89.33	6.03	-43.2	-44.7	19.1	0.00e+00	0	42	0	726663168	58	6956
2026-01-20 11:38:06.36	89.48	6.01	-44.0	-45.7	18.1	0.00e+00	0	42	0	727711744	60	7005
2026-01-20 11:38:07.37	89.63	5.98	-43.6	-45.2	18.6	0.00e+00	0	42	0	729808896	60	6570
2026-01-20 11:38:08.38	89.77	5.96	-43.9	-45.7	18.4	0.00e+00	0	42	0	731906048	60	6945
2026-01-20 11:38:09.39	89.92	5.93	-43.8	-45.4	18.7	0.00e+00	0	42	0	734003200	60	6765
2026-01-20 11:38:10.40	90.07	5.90	-43.5	-45.1	18.9	0.00e+00	0	42	0	736100352	60	6484
2026-01-20 11:38:11.41	90.22	5.88	-43.9	-45.6	18.6	0.00e+00	0	42	0	737148928	60	6879
2026-01-20 11:38:12.42	90.36	5.85	-43.5	-45.2	19.0	0.00e+00	0	42	0	739246080	60	6543
2026-01-20 11:38:13.43	90.51	5.82	-43.4	-45.0	19.0	0.00e+00	0	42	0	741343232	60	6432
2026-01-20 11:38:14.44	90.66	5.79	-43.4	-45.0	19.1	0.00e+00	0	42	0	743440384	60	6429
2026-01-20 11:38:15.45	90.80	5.77	-43.2	-44.8	19.1	0.00e+00	0	42	0	745537536	60	6269
2026-01-20 11:38:16.46	90.95	5.74	-43.0	-44.5	19.5	0.00e+00	0	42	0	746586112	60	6079
2026-01-20 11:38:17.47	91.09	5.71	-43.1	-44.7	19.3	0.00e+00	0	42	0	748683264	60	6183
2026-01-20 11:38:18.48	91.24	5.68	-43.4	-44.9	19.0	0.00e+00	0	42	0	750780416	60	6388
2026-01-20 11:38:19.49	91.38	5.66	-43.9	-45.6	18.4	0.00e+00	0	42	0	752877568	60	6912
2026-01-20 11:38:20.50	91.53	5.63	-43.7	-45.5	18.6	0.00e+00	0	42	0	754974720	60	6776
2026-01-20 11:38:21.51	91.67	5.60	-43.7	-45.4	18.6	0.00e+00	0	42	0	757071872	60	6709
2026-01-20 11:38:22.52	91.82	5.57	-43.6	-45.3	18.6	0.00e+00	0	42	0	758120448	60	6684
2026-01-20 11:38:23.53	91.96	5.54	-43.9	-45.7	18.7	0.00e+00	0	42	0	760217600	60	6933
2026-01-20 11:38:24.54	92.10	5.52	-44.2	-46.0	17.9	0.00e+00	0	42	0	762314752	60	7218
2026-01-20 11:38:25.55	92.25	5.49	-44.1	-45.9	18.1	0.00e+00	0	42	0	764411904	60	7117
2026-01-20 11:38:26.56	92.39	5.46	-43.5	-45.1	19.0	0.00e+00	0	42	0	766509056	60	6502
2026-01-20 11:38:27.57	92.53	5.43	-43.9	-45.7	18.3	0.00e+00	0	42	0	767557632	60	6946
2026-01-20 11:38:28.58	92.68	5.40	-43.8	-45.5	18.1	0.00e+00	0	42	0	769654784	60	6844
2026-01-20 11:38:29.59	92.82	5.37	-44.4	-46.4	17.6	0.00e+00	0	42	0	771751936	60	7552
2026-01-20 11:38:30.60	92.96	5.34	-45.3	-47.8	16.4	0.00e+00	0	42	0	773849088	60	8832
2026-01-20 11:38:31.61	93.10	5.31	-45.4	-47.9	16.1	0.00e+00	0	42	0	775946240	60	8962
2026-01-20 11:38:32.62	93.24	5.28	-45.5	-48.1	15.7	0.00e+00	0	42	0	776994816	60	9167
2026-01-20 11:38:33.62	93.38	5.25	-45.6	-48.1	16.2	0.00e+00	0	42	0	779091968	60	9180
2026-01-20 11:38:34.63	93.52	5.22	-45.1	-47.4	16.7	0.00e+00	0	42	0	781189120	60	8490
2026-01-20 11:38:35.64	93.66	5.19	-45.4	-47.8	16.2	0.00e+00	0	42	0	783286272	60	8884
2026-01-20 11:38:36.65	93.80	5.17	-45.4	-47.9	16.2	0.00e+00	0	42	0	785383424	60	8925
2026-01-20 11:38:37.66	93.94	5.14	-44.2	-46.2	17.8	0.00e+00	0	42	0	786432000	60	7371
2026-01-20 11:38:38.67	94.08	5.11	-45.4	-47.8	16.3	0.00e+00	0	42	0	788529152	60	8916
2026-01-20 11:38:39.68	94.22	5.08	-44.5	-46.6	17.4	0.00e+00	0	42	0	790626304	60	7701
2026-01-20 11:38:40.69	94.36	5.04	-44.6	-46.8	17.0	0.00e+00	0	42	0	792723456	60	7915
2026-01-20 11:38:41.70	94.50	5.01	-44.6	-46.6	17.6	0.00e+00	0	42	0	794820608	60	7760
2026-01-20 11:38:42.71	94.64	4.98	-44.1	-46.1	17.9	0.00e+00	0	42	0	795869184	60	7272
2026-01-20 11:38:43.72	94.78	4.95	-43.5	-45.3	18.5	0.00e+00	0	42	0	797966336	60	6621
2026-01-20 11:38:44.73	94.92	4.92	-44.4	-46.5	17.3	0.00e+00	0	42	0	800063488	60	7597
2026-01-20 11:38:45.74	95.05	4.89	-44.5	-46.5	17.7	0.00e+00	0	42	0	802160640	60	7627
2026-01-20 11:38:46.75	95.19	4.86	-44.7	-46.8	17.2	0.00e+00	0	42	0	804257792	60	7876
2026-01-20 11:38:47.76	95.33	4.83	-44.5	-46.5	17.9	0.00e+00	0	42	0	805306368	60	7647
2026-01-20 11:38:48.76	95.47	4.80	-44.2	-46.2	17.4	0.00e+00	0	42	0	807403520	60	7356
2026-01-20 11:38:49.77	95.60	4.77	-44.5	-46.7	17.2	0.00e+00	0	42	0	809500672	60	7845
2026-01-20 11:38:50.78	95.74	4.74	-45.2	-48.0	16.1	0.00e+00	0	42	0	811597824	60	9074
2026-01-20 11:38:51.80	95.88	4.71	-45.2	-48.0	15.9	0.00e+00	0	42	0	813694976	60	9103
2026-01-20 11:38:52.80	96.01	4.67	-44.1	-46.3	17.8	0.00e+00	0	42	0	814743552	60	7442
2026-01-20 11:38:53.81	96.15	4.64	-44.0	-46.2	17.6	0.00e+00	0	42	0	816840704	60	7418
2026-01-20 11:38:54.82	96.28	4.61	-43.9	-46.2	17.8	0.00e+00	0	42	0	818937856	60	7392
2026-01-20 11:38:55.83	96.42	4.58	-44.0	-46.4	17.5	0.00e+00	0	42	0	821035008	60	7536
2026-01-20 11:38:56.84	96.55	4.55	-44.4	-46.7	17.3	0.00e+00	0	42	0	823132160	60	7830
2026-01-20 11:38:57.85	96.69	4.52	-44.2	-46.5	17.4	0.00e+00	0	42	0	825229312	60	7608
2026-01-20 11:38:58.86	96.82	4.48	-44.6	-47.0	16.5	0.00e+00	0	42	0	826277888	60	8119
2026-01-20 11:38:59.87	96.95	4.45	-44.1	-46.2	17.5	0.00e+00	0	42	0	828375040	60	7373
2026-01-20 11:39:00.88	97.09	4.42	-43.2	-44.9	18.9	0.00e+00	0	42	0	830472192	60	6355
2026-01-20 11:39:01.89	97.22	4.39	-44.4	-46.5	17.3	0.00e+00	0	42	0	832569344	60	7656
2026-01-20 11:39:02.90	97.35	4.36	-43.5	-45.1	18.6	0.00e+00	0	42	0	834666496	60	6536
2026-01-20 11:39:03.91	97.49	4.32	-43.6	-45.3	18.6	0.00e+00	0	42	0	835715072	60	6643
2026-01-20 11:39:04.92	97.62	4.29	-43.7	-45.5	18.4	0.00e+00	0	42	0	837812224	60	6817
2026-01-20 11:39:05.93	97.75	4.26	-43.8	-45.6	18.3	0.00e+00	0	42	0	839909376	60	6873
2026-01-20 11:39:06.94	97.88	4.23	-43.6	-45.3	18.5	0.00e+00	0	42	0	842006528	60	6669
2026-01-20 11:39:07.94	98.01	4.19	-44.1	-46.0	17.9	0.00e+00	0	42	0	844103680	60	7188
2026-01-20 11:39:08.95	98.14	4.16	-44.0	-45.9	17.9	0.00e+00	0	42	0	845152256	60	7128
2026-01-20 11:39:09.96	98.28	4.13	-44.8	-47.2	16.7	0.00e+00	0	42	0	847249408	60	8281
2026-01-20 11:39:10.97	98.41	4.09	-44.6	-47.0	16.8	0.00e+00	0	42	0	849346560	60	8117
2026-01-20 11:39:11.98	98.54	4.06	-44.8	-47.5	16.3	0.00e+00	0	42	0	851443712	60	8572
2026-01-20 11:39:12.99	98.67	4.03	-44.5	-47.0	16.5	0.00e+00	0	42	0	853540864	60	8135
2026-01-20 11:39:14.00	98.80	3.99	-45.5	-48.9	15.0	0.00e+00	0	42	0	854589440	60	10041
2026-01-20 11:39:15.01	98.93	3.96	-44.6	-47.3	16.5	0.00e+00	0	42	0	856686592	60	8413
2026-01-20 11:39:16.02	99.06	3.93	-44.5	-46.9	17.0	0.00e+00	0	42	0	858783744	60	8010
2026-01-20 11:39:17.03	99.19	3.89	-44.8	-47.1	16.5	0.00e+00	0	42	0	860880896	60	8220
2026-01-20 11:39:18.04	99.31	3.86	-44.6	-47.0	16.7	0.00e+00	0	42	0	862978048	60	8074
2026-01-20 11:39:19.05	99.44	3.83	-43.7	-45.6	18.0	0.00e+00	0	42	0	864026624	60	6912
2026-01-20 11:39:20.05	99.57	3.79	-43.7	-45.6	17.8	0.00e+00	0	42	0	866123776	60	6907
2026-01-20 11:39:21.06	99.70	3.76	-44.0	-46.1	17.6	0.00e+00	0	42	0	868220928	60	7271
2026-01-20 11:39:22.07	99.83	3.73	-43.2	-44.9	18.3	0.00e+00	0	42	0	870318080	60	6367
2026-01-20 11:39:23.08	99.95	3.69	-43.1	-44.7	18.6	0.00e+00	0	42	0	872415232	60	6232
2026-01-20 11:39:24.09	100.08	3.66	-42.9	-44.5	18.8	0.00e+00	0	42	0	873463808	60	6073
2026-01-20 11:39:25.10	100.21	3.62	-43.0	-44.7	18.5	0.00e+00	0	42	0	875560960	58	6986
2026-01-20 11:39:26.12	100.34	3.59	-43.4	-45.3	17.9	0.00e+00	0	42	0	877658112	58	7444
2026-01-20 11:39:27.12	100.46	3.56	-43.8	-45.7	17.4	0.00e+00	0	42	0	879755264	60	6982
2026-01-20 11:39:28.13	100.59	3.52	-43.7	-45.6	18.4	0.00e+00	0	42	0	881852416	60	6900
2026-01-20 11:39:29.14	100.71	3.49	-43.2	-45.0	18.4	0.00e+00	0	42	0	882900992	60	6407
2026-01-20 11:39:30.15	100.84	3.45	-43.4	-45.9	17.6	0.00e+00	0	42	0	884998144	60	7115
2026-01-20 11:39:31.16	100.96	3.42	-43.5	-46.7	16.9	0.00e+00	0	42	0	887095296	60	7831
2026-01-20 11:39:32.17	101.09	3.38	-42.7	-46.5	17.0	0.00e+00	0	42	0	889192448	58	8524
2026-01-20 11:39:33.18	101.21	3.35	-42.7	-46.7	16.8	0.00e+00	0	42	0	891289600	58	8759
2026-01-20 11:39:34.19	101.34	3.31	-43.5	-48.3	15.0	0.00e+00	0	42	0	892338176	58	10606
2026-01-20 11:39:35.20	101.46	3.28	-42.8	-46.5	17.0	0.00e+00	0	42	0	894435328	58	8543
2026-01-20 11:39:36.21	101.58	3.24	-43.5	-47.0	16.1	0.00e+00	0	42	0	896532480	58	9064
2026-01-20 11:39:37.22	101.71	3.21	-45.2	-48.9	14.1	1.50e-06	0	42	0	898629632	60	10067
2026-01-20 11:39:38.22	101.83	3.18	-45.2	-47.9	15.3	0.00e+00	0	42	0	900726784	60	8975
2026-01-20 11:39:39.23	101.95	3.14	-44.7	-47.0	16.2	0.00e+00	0	42	0	901775360	60	8098
2026-01-20 11:39:40.24	102.08	3.11	-44.6	-47.2	15.8	0.00e+00	0	42	0	903872512	60	8280
2026-01-20 11:39:41.25	102.20	3.07	-43.0	-45.1	17.9	0.00e+00	0	42	0	905969664	60	6483
2026-01-20 11:39:42.26	102.32	3.03	-44.0	-47.0	16.7	0.00e+00	0	42	0	908066816	60	8070
2026-01-20 11:39:43.27	102.44	3.00	-43.4	-45.8	16.6	0.00e+00	0	42	0	910163968	58	7903
2026-01-20 11:39:44.28	102.56	2.96	-49.9	-65.3	3.6	1.51e+00	0	42	104	910163968	60	66252
2026-01-20 11:39:45.29	102.68	2.93	-50.3	-65.5	3.6	1.51e+00	0	42	104	910163968	60	68005
2026-01-20 11:39:46.30	102.81	2.89	-50.3	-65.7	3.6	1.51e+00	0	42	104	910163968	60	69941
2026-01-20 11:39:47.31	102.93	2.86	-50.7	-65.9	3.6	1.51e+00	0	42	104	910163968	60	71464
2026-01-20 11:39:48.32	103.05	2.82	-50.8	-66.1	3.6	1.51e+00	0	42	104	910163968	60	72613
2026-01-20 11:39:49.33	103.17	2.79	-50.8	-66.2	3.6	1.51e+00	0	42	104	910163968	60	73503
2026-01-20 11:39:50.34	103.29	2.75	-50.9	-66.2	3.6	1.51e+00	0	42	104	910163968	60	73446
2026-01-20 11:39:51.34	103.41	2.72	-51.0	-66.2	3.6	1.51e+00	0	42	104	910163968	60	73668
2026-01-20 11:39:52.36	103.53	2.68	-51.0	-66.2	3.6	1.51e+00	0	42	104	910163968	60	74067
2026-01-20 11:39:53.36	103.64	2.64	-51.1	-66.3	3.6	1.51e+00	0	42	104	910163968	60	74899
2026-01-20 11:39:54.37	103.76	2.61	-51.1	-66.3	3.6	1.51e+00	0	42	104	910163968	60	74886
2026-01-20 11:39:55.38	103.88	2.57	-51.1	-66.3	3.6	1.51e+00	0	42	104	910163968	60	74877
2026-01-20 11:39:56.39	104.00	2.54	-51.0	-66.4	3.6	1.51e+00	0	42	104	910163968	60	75269
2026-01-20 11:39:57.40	104.12	2.50	-51.1	-66.4	3.6	1.51e+00	0	42	104	910163968	60	75638
2026-01-20 11:39:58.41	104.23	2.46	-51.2	-66.4	3.6	1.51e+00	0	42	104	910163968	60	75483
2026-01-20 11:39:59.42	104.35	2.43	-51.1	-66.3	3.6	1.51e+00	0	42	104	910163968	60	74886
2026-01-20 11:40:00.43	104.47	2.39	-51.2	-66.3	3.6	1.51e+00	0	42	104	910163968	60	75073
2026-01-20 11:40:01.44	104.59	2.36	-51.1	-66.4	3.6	1.51e+00	0	42	104	910163968	60	75711
2026-01-20 11:40:02.45	104.70	2.32	-51.2	-66.4	3.6	1.51e+00	0	42	104	910163968	60	75796
2026-01-20 11:40:03.46	104.82	2.28	-51.3	-66.5	3.6	1.51e+00	0	42	104	910163968	60	76293
2026-01-20 11:40:04.47	104.93	2.25	-51.2	-66.4	3.6	1.51e+00	0	42	104	910163968	60	75908
2026-01-20 11:40:05.47	105.05	2.21	-51.2	-66.5	3.6	1.51e+00	0	42	104	910163968	60	76087
2026-01-20 11:40:06.48	105.16	2.17	-51.3	-66.5	3.6	1.51e+00	0	42	104	910163968	60	75966
2026-01-20 11:40:07.49	105.28	2.14	-51.3	-66.6	3.6	1.51e+00	0	42	104	910163968	60	76866
2026-01-20 11:40:08.50	105.40	2.10	-51.3	-66.6	3.6	1.51e+00	0	42	104	910163968	60	77175
2026-01-20 11:40:09.51	105.51	2.07	-51.5	-66.7	3.6	1.51e+00	0	42	104	910163968	60	78119
2026-01-20 11:40:10.52	105.62	2.03	-51.5	-66.7	3.6	1.51e+00	0	42	104	910163968	60	77832
2026-01-20 11:40:11.53	105.74	1.99	-51.5	-66.7	3.6	1.51e+00	0	42	104	910163968	60	78459
2026-01-20 11:40:12.54	105.85	1.96	-51.4	-66.6	3.6	1.51e+00	0	42	104	910163968	60	77633
2026-01-20 11:40:13.55	105.97	1.92	-52.0	-67.2	3.6	1.51e+00	0	42	104	910163968	60	83033
2026-01-20 11:40:14.57	106.08	1.88	-51.7	-66.9	3.6	1.51e+00	0	42	104	910163968	60	79981
2026-01-20 11:40:15.58	106.19	1.84	-51.8	-67.0	3.6	1.51e+00	0	42	104	910163968	60	81354
2026-01-20 11:40:16.59	106.31	1.81	-51.6	-66.9	3.6	1.51e+00	0	42	104	910163968	60	79957
2026-01-20 11:40:17.60	106.42	1.77	-52.1	-67.4	3.6	1.51e+00	0	42	104	910163968	60	84927
2026-01-20 11:40:18.61	106.53	1.73	-51.8	-67.1	3.6	1.51e+00	0	42	104	910163968	60	81399
2026-01-20 11:40:19.62	106.64	1.70	-52.0	-67.2	3.6	1.51e+00	0	42	104	910163968	60	82490
2026-01-20 11:40:20.63	106.75	1.66	-51.5	-66.7	3.6	1.51e+00	0	42	104	910163968	60	78389
2026-01-20 11:40:21.64	106.87	1.62	-52.0	-67.3	3.6	1.51e+00	0	42	104	910163968	60	83673
2026-01-20 11:40:22.65	106.98	1.59	-51.9	-67.1	3.6	1.51e+00	0	42	104	910163968	60	82159
2026-01-20 11:40:23.65	107.09	1.55	-52.0	-67.3	3.6	1.51e+00	0	42	104	910163968	60	83560
2026-01-20 11:40:24.66	107.20	1.51	-52.1	-67.4	3.6	1.51e+00	0	42	104	910163968	60	84365
2026-01-20 11:40:25.67	107.31	1.47	-51.8	-67.0	3.6	1.51e+00	0	42	104	910163968	60	81153
2026-01-20 11:40:26.68	107.42	1.44	-51.9	-67.2	3.6	1.51e+00	0	42	104	910163968	60	82620
2026-01-20 11:40:27.69	107.53	1.40	-51.8	-67.1	3.6	1.51e+00	0	42	104	910163968	60	81455
2026-01-20 11:40:28.70	107.64	1.36	-51.8	-67.0	3.6	1.51e+00	0	42	104	910163968	60	81177
2026-01-20 11:40:29.71	107.75	1.33	-51.9	-67.1	3.6	1.51e+00	0	42	104	910163968	60	81586
2026-01-20 11:40:30.72	107.86	1.29	-51.8	-67.0	3.6	1.51e+00	0	42	104	910163968	60	81026
2026-01-20 11:40:31.73	107.96	1.25	-52.0	-67.2	3.6	1.51e+00	0	42	104	910163968	60	83019
2026-01-20 11:40:32.74	108.07	1.21	-52.3	-67.5	3.6	1.51e+00	0	42	104	910163968	60	85829
2026-01-20 11:40:33.75	108.18	1.18	-52.5	-67.7	3.6	1.51e+00	0	42	104	910163968	60	87967
2026-01-20 11:40:34.76	108.29	1.14	-52.5	-67.7	3.6	1.51e+00	0	42	104	910163968	60	88051
2026-01-20 11:40:35.77	108.40	1.10	-52.5	-67.8	3.6	1.51e+00	0	42	104	910163968	60	88576
2026-01-20 11:40:36.78	108.50	1.06	-52.5	-67.7	3.6	1.51e+00	0	42	104	910163968	60	87916
2026-01-20 11:40:37.79	108.61	1.03	-52.5	-67.7	3.6	1.51e+00	0	42	104	910163968	60	87427
2026-01-20 11:40:38.79	108.72	0.99	-51.8	-67.0	3.6	1.51e+00	0	42	104	910163968	60	81129
2026-01-20 11:40:39.81	108.83	0.95	-51.7	-67.0	3.6	1.51e+00	0	42	104	910163968	60	80905
2026-01-20 11:40:40.82	108.93	0.91	-51.6	-66.8	3.6	1.51e+00	0	42	104	910163968	60	79079
2026-01-20 11:40:41.82	109.04	0.88	-51.7	-66.9	3.6	1.51e+00	0	42	104	910163968	60	79570
2026-01-20 11:40:42.83	109.14	0.84	-51.6	-66.9	3.6	1.51e+00	0	42	104	910163968	60	80076
2026-01-20 11:40:43.84	109.25	0.80	-51.7	-66.9	3.6	1.51e+00	0	42	104	910163968	60	80446
2026-01-20 11:40:44.85	109.35	0.76	-52.6	-67.8	3.6	1.51e+00	0	42	104	910163968	60	89226
2026-01-20 11:40:45.86	109.46	0.72	-52.4	-67.7	3.6	1.51e+00	0	42	104	910163968	60	87654
2026-01-20 11:40:46.87	109.56	0.69	-51.6	-66.8	3.6	1.51e+00	0	42	104	910163968	60	79450
2026-01-20 11:40:47.88	109.67	0.65	-51.6	-66.8	3.6	1.51e+00	0	42	104	910163968	60	79516
2026-01-20 11:40:48.89	109.77	0.61	-51.5	-66.8	3.6	1.51e+00	0	42	104	910163968	60	78922
2026-01-20 11:40:49.90	109.88	0.57	-51.8	-67.0	3.6	1.51e+00	0	42	104	910163968	60	81314
2026-01-20 11:40:50.91	109.98	0.53	-51.7	-66.9	3.6	1.51e+00	0	42	104	910163968	60	79636
2026-01-20 11:40:51.92	110.09	0.50	-51.8	-67.2	3.6	1.51e+00	0	42	104	910163968	60	82355
2026-01-20 11:40:52.93	110.19	0.46	-52.4	-67.7	3.6	1.51e+00	0	42	104	910163968	60	87264
2026-01-20 11:40:53.94	110.29	0.42	-52.2	-67.5	3.6	1.51e+00	0	42	104	910163968	60	85454
2026-01-20 11:40:54.95	110.39	0.38	-51.8	-67.1	3.6	1.51e+00	0	42	104	910163968	60	81690
2026-01-20 11:40:55.96	110.50	0.34	-52.1	-67.3	3.6	1.51e+00	0	42	104	910163968	60	84200
2026-01-20 11:40:56.96	110.60	0.31	-52.0	-67.2	3.6	1.51e+00	0	42	104	910163968	60	82587
2026-01-20 11:40:57.97	110.70	0.27	-52.7	-68.0	3.6	1.51e+00	0	42	104	910163968	60	90516
2026-01-20 11:40:58.98	110.80	0.23	-52.7	-68.0	3.6	1.51e+00	0	42	104	910163968	60	90418
2026-01-20 11:40:59.99	110.90	0.19	-52.5	-67.7	3.6	1.51e+00	0	42	104	910163968	60	88173
2026-01-20 11:41:01.00	111.01	0.15	-52.2	-67.4	3.6	1.51e+00	0	42	104	910163968	60	85198
2026-01-20 11:41:02.02	111.11	0.12	-52.4	-67.7	3.6	1.51e+00	0	42	104	910163968	60	87210
2026-01-20 11:41:03.03	111.21	0.08	-52.8	-68.0	3.6	1.51e+00	0	42	104	910163968	60	90973
2026-01-20 11:41:04.04	111.31	0.04	-52.3	-67.6	3.6	1.51e+00	0	42	104	910163968	60	86852
2026-01-20 11:41:05.05	111.41	0.00	-51.8	-67.0	3.6	1.51e+00	0	42	104	910163968	60	81059
2026-01-20 11:41:06.06	111.51	-0.04	-52.3	-67.5	3.6	1.51e+00	0	42	104	910163968	60	85837

#Closed at: 2026-01-20 11:41:06
#Recorded file [910 MB]: D:/lorett/data/35029_260120_233020.dat