passes_logs/2026/01/20/R4.6S_Anadyr/R4.6S_Anadyr__20260120_181059_SUOMI_NPP_rec.log

#Pass ID: 20260120_181059_SUOMI NPP
#Satellite: SUOMI NPP
#Configuration: NPP
#almurnet v.1.7.20251203
#Start time: 2026-01-20 18:11:02

#Version: 2.2.20231116
#Station: R4.6S_Anadyr
#Location: 177.4865 lon 64.73178 lat
#TLE: 1 37849U 11061A   26019.89702167  .00000121  00000+0  78274-4 0  9993
#TLE: 2 37849  98.7817 321.9035 0002338  55.0397 305.0998 14.19526700737401

#Time	Az	El	Level	Level2	SNR	BER	BlckErr	Temp	State	Recorded	gain1	gain2
2026-01-20 18:11:02.56	37.28	0.15	-52.9	-66.7	3.3	1.54e+00	0	41	0	0	60	78047
2026-01-20 18:11:03.56	37.21	0.20	-52.0	-67.3	3.6	1.51e+00	0	41	104	0	60	84145
2026-01-20 18:11:04.57	37.14	0.25	-52.3	-67.6	3.6	1.51e+00	0	41	104	0	60	86563
2026-01-20 18:11:05.58	37.07	0.30	-52.0	-67.2	3.6	1.51e+00	0	41	104	0	60	83102
2026-01-20 18:11:06.59	37.00	0.36	-51.9	-67.1	3.6	1.51e+00	0	41	104	0	60	82251
2026-01-20 18:11:07.60	36.93	0.41	-51.6	-66.9	3.6	1.51e+00	0	41	104	0	60	80007
2026-01-20 18:11:08.61	36.86	0.46	-51.6	-66.8	3.6	1.51e+00	0	41	104	0	60	78963
2026-01-20 18:11:09.63	36.79	0.51	-51.6	-66.8	3.6	1.51e+00	0	41	104	0	60	79464
2026-01-20 18:11:10.64	36.72	0.56	-51.5	-66.8	3.6	1.51e+00	0	41	104	0	60	78636
2026-01-20 18:11:11.65	36.65	0.62	-51.4	-66.6	3.6	1.51e+00	0	41	104	0	60	77496
2026-01-20 18:11:12.66	36.58	0.67	-51.4	-66.6	3.6	1.51e+00	0	41	104	0	60	77418
2026-01-20 18:11:13.67	36.51	0.72	-51.4	-66.7	3.6	1.51e+00	0	41	104	0	60	77862
2026-01-20 18:11:14.68	36.44	0.77	-51.4	-66.6	3.6	1.51e+00	0	41	104	0	60	77064
2026-01-20 18:11:15.69	36.37	0.82	-51.3	-66.5	3.6	1.51e+00	0	41	104	0	60	76759
2026-01-20 18:11:16.70	36.29	0.88	-51.2	-66.4	3.6	1.51e+00	0	41	104	0	60	75228
2026-01-20 18:11:17.71	36.22	0.93	-51.1	-66.4	3.6	1.51e+00	0	41	104	0	60	75207
2026-01-20 18:11:18.72	36.15	0.98	-51.0	-66.2	3.6	1.51e+00	0	41	104	0	60	74158
2026-01-20 18:11:19.73	36.08	1.03	-50.9	-66.1	3.6	1.51e+00	0	41	104	0	60	72757
2026-01-20 18:11:20.74	36.00	1.08	-50.7	-65.9	3.6	1.51e+00	0	41	104	0	60	71609
2026-01-20 18:11:21.75	35.93	1.14	-50.7	-65.8	3.6	1.51e+00	0	41	104	0	60	70882
2026-01-20 18:11:22.76	35.86	1.19	-50.4	-65.6	3.6	1.51e+00	0	41	104	0	60	68645
2026-01-20 18:11:23.77	35.78	1.24	-50.1	-65.3	3.6	1.51e+00	0	41	104	0	60	66463
2026-01-20 18:11:24.78	35.71	1.29	-49.6	-64.8	3.6	1.51e+00	0	41	104	0	60	62910
2026-01-20 18:11:25.79	35.63	1.35	-49.6	-64.8	3.6	1.51e+00	0	41	104	0	60	62693
2026-01-20 18:11:26.80	35.56	1.40	-49.6	-64.8	3.5	1.51e+00	0	41	104	0	60	62556
2026-01-20 18:11:27.81	35.49	1.45	-49.6	-64.7	3.6	1.51e+00	0	41	104	0	60	62310
2026-01-20 18:11:28.82	35.41	1.50	-49.6	-64.8	3.6	1.51e+00	0	41	104	0	60	62820
2026-01-20 18:11:29.83	35.33	1.56	-49.6	-64.8	3.6	1.51e+00	0	41	104	0	60	62527
2026-01-20 18:11:30.84	35.26	1.61	-49.6	-64.8	3.6	1.51e+00	0	41	104	0	60	62660
2026-01-20 18:11:31.85	35.18	1.66	-49.6	-64.7	3.6	1.51e+00	0	41	104	0	60	62291
2026-01-20 18:11:32.86	35.11	1.72	-49.6	-64.8	3.6	1.51e+00	0	41	104	0	60	62542
2026-01-20 18:11:33.87	35.03	1.77	-49.6	-64.8	3.6	1.51e+00	0	41	104	0	60	62778
2026-01-20 18:11:34.88	34.95	1.82	-49.6	-64.8	3.6	1.51e+00	0	41	104	0	60	62868
2026-01-20 18:11:35.89	34.88	1.87	-49.6	-64.8	3.6	1.51e+00	0	41	104	0	60	62595
2026-01-20 18:11:36.90	34.80	1.93	-49.6	-64.8	3.6	1.51e+00	0	41	104	0	60	62467
2026-01-20 18:11:37.91	34.72	1.98	-49.6	-64.7	3.6	1.51e+00	0	41	104	0	60	62186
2026-01-20 18:11:38.92	34.64	2.03	-49.6	-64.6	3.6	1.51e+00	0	41	104	0	60	61487
2026-01-20 18:11:39.93	34.56	2.09	-49.6	-64.5	3.6	1.51e+00	0	41	104	0	60	60690
2026-01-20 18:11:40.94	34.48	2.14	-49.6	-64.7	3.6	1.51e+00	0	41	104	0	60	61771
2026-01-20 18:11:41.95	34.41	2.19	-49.6	-64.7	3.6	1.51e+00	0	41	104	0	60	62241
2026-01-20 18:11:42.96	34.33	2.25	-49.6	-64.8	3.6	1.51e+00	0	41	104	0	60	62625
2026-01-20 18:11:43.97	34.25	2.30	-49.6	-64.7	3.6	1.51e+00	0	41	104	0	60	62159
2026-01-20 18:11:44.98	34.17	2.35	-49.6	-64.6	3.6	1.51e+00	0	41	104	0	60	61579
2026-01-20 18:11:45.99	34.09	2.41	-49.6	-64.7	3.6	1.51e+00	0	41	104	0	60	62118
2026-01-20 18:11:47.00	34.01	2.46	-49.6	-64.8	3.6	1.51e+00	0	42	104	0	60	62600
2026-01-20 18:11:48.01	33.93	2.51	-49.6	-64.7	3.6	1.51e+00	0	41	104	0	60	62186
2026-01-20 18:11:49.02	33.84	2.57	-49.6	-64.2	3.6	1.51e+00	0	42	104	0	60	58290
2026-01-20 18:11:50.03	33.76	2.62	-49.5	-63.7	3.6	1.51e+00	0	42	104	0	60	55631
2026-01-20 18:11:51.04	33.68	2.68	-49.5	-63.1	3.6	1.51e+00	0	42	104	0	60	51566
2026-01-20 18:11:52.05	33.60	2.73	-49.5	-64.2	3.6	1.51e+00	0	41	104	0	60	58881
2026-01-20 18:11:53.06	33.52	2.78	-49.5	-64.5	3.6	1.51e+00	0	42	104	0	60	60857
2026-01-20 18:11:54.07	33.43	2.84	-49.5	-63.6	3.6	1.51e+00	0	42	104	0	60	54539
2026-01-20 18:11:55.08	33.35	2.89	-49.4	-61.2	3.7	1.50e+00	0	42	104	0	60	41512
2026-01-20 18:11:56.09	33.27	2.94	-49.1	-58.0	5.1	6.20e-01	0	42	0	0	60	28730
2026-01-20 18:11:57.10	33.18	3.00	-49.0	-56.7	6.0	3.39e-01	0	42	0	2097152	60	24824
2026-01-20 18:11:58.11	33.10	3.05	-48.7	-55.4	7.4	2.01e-01	0	42	0	4194304	60	21188
2026-01-20 18:11:59.12	33.02	3.11	-49.6	-64.2	3.6	1.51e+00	0	42	104	4194304	60	58461
2026-01-20 18:12:00.13	32.93	3.16	-43.7	-45.4	17.3	9.34e-01	0	42	104	4194304	60	6749
2026-01-20 18:12:01.14	32.85	3.22	-49.4	-64.3	3.6	7.07e-01	0	42	104	4194304	60	59362
2026-01-20 18:12:02.14	32.76	3.27	-49.5	-61.3	4.6	1.47e+00	2	42	104	4194304	60	41744
2026-01-20 18:12:03.15	32.68	3.32	-45.6	-48.2	15.4	1.50e-06	76	42	0	5242880	60	9289
2026-01-20 18:12:04.17	32.59	3.38	-44.8	-46.9	16.8	0.00e+00	0	42	0	6291456	60	8039
2026-01-20 18:12:05.18	32.50	3.43	-46.3	-49.3	14.5	7.60e-06	0	42	0	8388608	60	10564
2026-01-20 18:12:06.18	32.42	3.49	-45.6	-48.2	15.4	0.00e+00	33	42	0	10485760	60	9265
2026-01-20 18:12:07.19	32.33	3.54	-46.5	-49.6	13.8	0.00e+00	0	42	0	12582912	60	10950
2026-01-20 18:12:08.20	32.24	3.60	-45.8	-48.4	15.3	0.00e+00	57	42	0	14680064	60	9453
2026-01-20 18:12:09.21	32.16	3.65	-45.1	-47.3	16.7	0.00e+00	33	42	0	15728640	60	8407
2026-01-20 18:12:10.22	32.07	3.70	-45.6	-48.1	15.6	0.00e+00	64	42	0	17825792	60	9226
2026-01-20 18:12:11.23	31.98	3.76	-44.3	-46.2	17.6	0.00e+00	0	42	0	19922944	60	7364
2026-01-20 18:12:12.24	31.89	3.81	-44.6	-46.6	17.3	0.00e+00	0	42	0	22020096	60	7744
2026-01-20 18:12:13.25	31.80	3.87	-45.3	-47.6	16.4	0.00e+00	0	42	0	24117248	60	8661
2026-01-20 18:12:14.26	31.71	3.92	-44.5	-46.5	16.8	0.00e+00	0	42	0	25165824	60	7611
2026-01-20 18:12:15.27	31.62	3.98	-42.4	-43.7	20.0	0.00e+00	12	42	0	27262976	60	5552
2026-01-20 18:12:16.28	31.53	4.03	-44.9	-47.0	17.1	0.00e+00	0	42	0	29360128	60	8053
2026-01-20 18:12:17.29	31.44	4.09	-44.5	-46.4	17.3	0.00e+00	69	42	0	31457280	60	7555
2026-01-20 18:12:18.30	31.35	4.14	-44.4	-46.3	17.5	0.00e+00	0	42	0	33554432	60	7480
2026-01-20 18:12:19.31	31.26	4.20	-45.1	-47.3	16.6	0.00e+00	0	42	0	35651584	60	8334
2026-01-20 18:12:20.32	31.17	4.25	-43.2	-44.8	18.8	0.00e+00	0	41	0	36700160	60	6277
2026-01-20 18:12:21.33	31.08	4.31	-44.9	-47.0	16.9	0.00e+00	0	42	0	38797312	60	8046
2026-01-20 18:12:22.34	30.99	4.36	-44.1	-45.9	18.1	0.00e+00	3	42	0	40894464	60	7091
2026-01-20 18:12:23.35	30.89	4.42	-44.0	-45.8	18.1	0.00e+00	0	42	0	42991616	60	7051
2026-01-20 18:12:24.36	30.80	4.47	-43.2	-44.8	19.0	0.00e+00	92	42	0	45088768	60	6258
2026-01-20 18:12:25.37	30.71	4.53	-43.2	-44.8	19.2	0.00e+00	0	42	0	46137344	60	6247
2026-01-20 18:12:26.38	30.61	4.58	-45.1	-47.4	16.6	0.00e+00	0	42	0	48234496	60	8433
2026-01-20 18:12:27.39	30.52	4.64	-43.7	-45.4	18.3	0.00e+00	0	42	0	50331648	60	6735
2026-01-20 18:12:28.40	30.42	4.70	-43.5	-45.1	19.2	0.00e+00	0	42	0	52428800	60	6512
2026-01-20 18:12:29.41	30.33	4.75	-45.2	-47.3	17.3	0.00e+00	0	42	0	54525952	60	8420
2026-01-20 18:12:30.42	30.23	4.81	-44.1	-45.9	18.1	0.00e+00	0	42	0	55574528	60	7130
2026-01-20 18:12:31.43	30.14	4.86	-44.8	-46.8	17.6	0.00e+00	79	42	0	57671680	60	7878
2026-01-20 18:12:32.44	30.04	4.92	-44.5	-46.4	17.9	0.00e+00	0	42	0	59768832	60	7536
2026-01-20 18:12:33.44	29.95	4.97	-44.3	-46.1	18.0	0.00e+00	20	42	0	61865984	60	7272
2026-01-20 18:12:34.46	29.85	5.03	-43.9	-45.6	18.5	0.00e+00	0	42	0	63963136	60	6893
2026-01-20 18:12:35.46	29.75	5.08	-44.5	-46.4	17.7	0.00e+00	0	42	0	65011712	60	7539
2026-01-20 18:12:36.47	29.66	5.14	-44.4	-46.2	18.0	0.00e+00	49	42	0	67108864	60	7414
2026-01-20 18:12:37.48	29.56	5.20	-44.9	-47.0	17.1	0.00e+00	0	42	0	69206016	60	8050
2026-01-20 18:12:38.49	29.46	5.25	-44.2	-45.9	18.0	0.00e+00	76	42	0	71303168	60	7140
2026-01-20 18:12:39.50	29.36	5.31	-44.1	-45.8	18.2	0.00e+00	0	42	0	73400320	60	7026
2026-01-20 18:12:40.51	29.26	5.36	-44.3	-46.1	18.1	0.00e+00	85	42	0	74448896	60	7267
2026-01-20 18:12:41.52	29.16	5.42	-44.2	-46.0	18.2	0.00e+00	0	42	0	76546048	60	7179
2026-01-20 18:12:42.53	29.06	5.47	-44.2	-46.0	18.4	0.00e+00	0	42	0	78643200	60	7208
2026-01-20 18:12:43.54	28.96	5.53	-44.2	-46.0	17.9	0.00e+00	25	42	0	80740352	60	7206
2026-01-20 18:12:44.55	28.86	5.59	-44.1	-45.9	18.1	0.00e+00	0	42	0	82837504	60	7102
2026-01-20 18:12:45.56	28.76	5.64	-43.6	-45.2	18.9	0.00e+00	85	42	0	83886080	60	6559
2026-01-20 18:12:46.57	28.66	5.70	-42.9	-44.4	19.5	0.00e+00	0	42	0	85983232	60	5968
2026-01-20 18:12:47.59	28.56	5.76	-44.5	-46.3	17.7	0.00e+00	80	42	0	88080384	60	7495
2026-01-20 18:12:48.60	28.46	5.81	-44.2	-45.9	18.1	0.00e+00	0	42	0	90177536	60	7159
2026-01-20 18:12:49.61	28.35	5.87	-43.3	-44.8	19.1	0.00e+00	0	42	0	92274688	60	6246
2026-01-20 18:12:50.62	28.25	5.92	-43.8	-45.5	18.9	0.00e+00	0	42	0	94371840	60	6775
2026-01-20 18:12:51.63	28.15	5.98	-43.8	-45.5	18.4	0.00e+00	0	42	0	95420416	60	6798
2026-01-20 18:12:52.64	28.04	6.04	-43.3	-44.9	19.1	0.00e+00	2	42	0	97517568	60	6325
2026-01-20 18:12:53.65	27.94	6.09	-44.1	-45.8	18.3	0.00e+00	0	42	0	99614720	60	7046
2026-01-20 18:12:54.66	27.84	6.15	-43.7	-45.3	18.8	0.00e+00	89	42	0	101711872	60	6681
2026-01-20 18:12:55.67	27.73	6.21	-44.8	-46.7	17.4	0.00e+00	0	42	0	103809024	60	7827
2026-01-20 18:12:56.68	27.63	6.26	-43.9	-45.6	18.6	0.00e+00	0	42	0	104857600	60	6882
2026-01-20 18:12:57.69	27.52	6.32	-44.5	-46.3	18.3	0.00e+00	0	42	0	106954752	60	7446
2026-01-20 18:12:58.70	27.41	6.37	-44.4	-46.2	18.0	0.00e+00	0	42	0	109051904	60	7354
2026-01-20 18:12:59.71	27.31	6.43	-44.1	-45.7	18.8	0.00e+00	1	42	0	111149056	60	6985
2026-01-20 18:13:00.72	27.20	6.49	-44.0	-45.6	18.4	0.00e+00	0	42	0	113246208	60	6908
2026-01-20 18:13:01.73	27.09	6.54	-44.2	-46.0	18.5	0.00e+00	59	42	0	114294784	60	7174
2026-01-20 18:13:02.74	26.98	6.60	-44.3	-46.1	18.4	0.00e+00	0	42	0	116391936	60	7294
2026-01-20 18:13:03.75	26.88	6.66	-44.4	-46.3	18.1	0.00e+00	0	42	0	118489088	60	7430
2026-01-20 18:13:04.76	26.77	6.71	-44.8	-46.8	17.7	0.00e+00	0	42	0	120586240	60	7867
2026-01-20 18:13:05.77	26.66	6.77	-44.7	-46.7	17.8	0.00e+00	0	42	0	122683392	60	7789
2026-01-20 18:13:06.78	26.55	6.83	-45.0	-47.0	17.6	0.00e+00	1	42	0	123731968	60	8065
2026-01-20 18:13:07.78	26.44	6.88	-44.5	-46.3	18.0	0.00e+00	0	42	0	125829120	60	7489
2026-01-20 18:13:08.79	26.33	6.94	-44.6	-46.5	17.7	0.00e+00	90	42	0	127926272	60	7663
2026-01-20 18:13:09.80	26.22	7.00	-44.6	-46.5	17.9	0.00e+00	33	42	0	130023424	60	7620
2026-01-20 18:13:10.81	26.11	7.05	-44.3	-46.1	18.2	0.00e+00	0	42	0	132120576	60	7279
2026-01-20 18:13:11.83	25.99	7.11	-44.1	-45.8	18.5	0.00e+00	0	42	0	133169152	60	7009
2026-01-20 18:13:12.83	25.88	7.17	-43.7	-45.4	18.8	0.00e+00	0	42	0	135266304	60	6698
2026-01-20 18:13:13.84	25.77	7.22	-44.3	-46.1	18.2	0.00e+00	78	42	0	137363456	60	7282
2026-01-20 18:13:14.85	25.65	7.28	-44.0	-45.7	18.6	0.00e+00	0	42	0	139460608	60	6938
2026-01-20 18:13:15.87	25.54	7.34	-44.2	-45.9	18.4	0.00e+00	90	42	0	141557760	60	7168
2026-01-20 18:13:16.87	25.43	7.40	-44.1	-45.8	18.6	0.00e+00	0	42	0	143654912	60	7047
2026-01-20 18:13:17.88	25.31	7.45	-44.1	-45.8	18.5	0.00e+00	0	42	0	144703488	60	7079
2026-01-20 18:13:18.89	25.20	7.51	-44.1	-45.8	18.6	0.00e+00	0	42	0	146800640	60	7013
2026-01-20 18:13:19.90	25.08	7.57	-44.0	-45.7	18.8	0.00e+00	0	42	0	148897792	60	6937
2026-01-20 18:13:20.91	24.96	7.62	-43.9	-45.5	18.9	0.00e+00	2	42	0	150994944	60	6812
2026-01-20 18:13:21.92	24.85	7.68	-44.1	-45.7	18.7	0.00e+00	0	42	0	153092096	60	6990
2026-01-20 18:13:22.93	24.73	7.74	-44.2	-45.8	18.7	0.00e+00	89	42	0	154140672	60	7082
2026-01-20 18:13:23.94	24.61	7.79	-43.9	-45.5	18.9	0.00e+00	0	42	0	156237824	60	6822
2026-01-20 18:13:24.95	24.50	7.85	-44.2	-46.0	18.4	0.00e+00	92	42	0	158334976	60	7201
2026-01-20 18:13:25.97	24.38	7.91	-44.5	-46.3	18.2	0.00e+00	0	42	0	160432128	60	7467
2026-01-20 18:13:26.97	24.26	7.96	-43.4	-44.9	19.6	0.00e+00	0	42	0	162529280	60	6344
2026-01-20 18:13:27.99	24.14	8.02	-43.4	-45.0	19.4	0.00e+00	0	42	0	163577856	60	6407
2026-01-20 18:13:29.00	24.02	8.08	-43.5	-45.0	19.5	0.00e+00	0	42	0	165675008	60	6408
2026-01-20 18:13:30.01	23.90	8.14	-43.5	-45.0	19.5	0.00e+00	0	42	0	167772160	60	6432
2026-01-20 18:13:31.02	23.78	8.19	-43.3	-44.8	19.6	0.00e+00	0	42	0	169869312	60	6254
2026-01-20 18:13:32.03	23.66	8.25	-43.6	-45.2	19.3	0.00e+00	92	42	0	171966464	60	6567
2026-01-20 18:13:33.04	23.53	8.31	-43.9	-45.5	19.0	0.00e+00	0	42	0	173015040	60	6795
2026-01-20 18:13:34.05	23.41	8.36	-43.5	-45.0	19.4	0.00e+00	0	42	0	175112192	60	6463
2026-01-20 18:13:35.06	23.29	8.42	-43.6	-45.1	19.3	0.00e+00	0	42	0	177209344	60	6526
2026-01-20 18:13:36.07	23.17	8.48	-43.9	-45.5	19.0	0.00e+00	0	42	0	179306496	60	6834
2026-01-20 18:13:37.08	23.04	8.54	-44.0	-45.7	18.9	0.00e+00	70	42	0	181403648	60	6929
2026-01-20 18:13:38.09	22.92	8.59	-43.8	-45.5	19.1	0.00e+00	0	42	0	182452224	60	6786
2026-01-20 18:13:39.10	22.79	8.65	-43.7	-45.3	19.2	0.00e+00	83	42	0	184549376	60	6669
2026-01-20 18:13:40.11	22.67	8.71	-44.1	-45.8	18.8	0.00e+00	5	42	0	186646528	60	7042
2026-01-20 18:13:41.12	22.54	8.76	-43.7	-45.3	19.1	0.00e+00	0	42	0	188743680	60	6668
2026-01-20 18:13:42.13	22.41	8.82	-43.3	-44.7	19.7	0.00e+00	0	42	0	190840832	60	6227
2026-01-20 18:13:43.14	22.29	8.88	-43.7	-45.3	19.2	0.00e+00	2	42	0	191889408	60	6631
2026-01-20 18:13:44.15	22.16	8.94	-43.2	-44.6	19.9	0.00e+00	0	42	0	193986560	60	6125
2026-01-20 18:13:45.16	22.03	8.99	-43.2	-44.7	19.5	0.00e+00	0	42	0	196083712	60	6182
2026-01-20 18:13:46.17	21.90	9.05	-43.3	-44.7	19.7	0.00e+00	92	42	0	198180864	60	6234
2026-01-20 18:13:47.18	21.78	9.11	-42.8	-44.2	20.1	0.00e+00	0	42	0	200278016	60	5842
2026-01-20 18:13:48.18	21.65	9.16	-43.2	-44.6	19.8	0.00e+00	0	42	0	201326592	58	6914
2026-01-20 18:13:49.19	21.52	9.22	-42.8	-44.1	20.3	0.00e+00	0	42	0	203423744	58	6490
2026-01-20 18:13:50.20	21.39	9.28	-42.8	-44.2	20.0	0.00e+00	32	42	0	205520896	58	6563
2026-01-20 18:13:51.21	21.26	9.33	-43.1	-44.5	19.9	0.00e+00	8	42	0	207618048	58	6824
2026-01-20 18:13:52.22	21.12	9.39	-43.0	-44.4	20.1	0.00e+00	0	42	0	209715200	58	6709
2026-01-20 18:13:53.23	20.99	9.45	-42.5	-43.7	20.5	0.00e+00	92	42	0	211812352	58	6243
2026-01-20 18:13:54.24	20.86	9.50	-43.2	-44.7	19.7	0.00e+00	0	42	0	212860928	58	6934
2026-01-20 18:13:55.25	20.73	9.56	-43.0	-44.4	20.1	0.00e+00	92	42	0	214958080	58	6706
2026-01-20 18:13:56.26	20.59	9.62	-42.7	-44.0	20.5	0.00e+00	0	42	0	217055232	58	6418
2026-01-20 18:13:57.27	20.46	9.68	-42.7	-44.0	20.3	0.00e+00	0	42	0	219152384	58	6393
2026-01-20 18:13:58.28	20.32	9.73	-42.9	-44.3	20.1	0.00e+00	0	42	0	221249536	58	6628
2026-01-20 18:13:59.29	20.19	9.79	-43.4	-44.8	19.7	0.00e+00	0	42	0	222298112	58	7084
2026-01-20 18:14:00.30	20.05	9.85	-43.0	-44.3	20.1	0.00e+00	57	42	0	224395264	58	6686
2026-01-20 18:14:01.31	19.92	9.90	-43.3	-44.8	19.9	0.00e+00	0	42	0	226492416	58	7009
2026-01-20 18:14:02.32	19.78	9.96	-43.6	-45.1	19.5	0.00e+00	92	42	0	228589568	58	7279
2026-01-20 18:14:03.33	19.64	10.02	-43.0	-44.4	20.1	0.00e+00	0	42	0	230686720	58	6695
2026-01-20 18:14:04.34	19.50	10.07	-43.1	-44.5	20.0	0.00e+00	0	42	0	231735296	58	6801
2026-01-20 18:14:05.35	19.37	10.13	-42.9	-44.3	20.2	0.00e+00	0	42	0	233832448	58	6619
2026-01-20 18:14:06.36	19.23	10.19	-43.3	-44.8	19.8	0.00e+00	0	42	0	235929600	58	7013
2026-01-20 18:14:07.36	19.09	10.24	-43.1	-44.4	19.9	0.00e+00	3	42	0	238026752	58	6758
2026-01-20 18:14:08.37	18.95	10.30	-43.2	-44.6	19.8	0.00e+00	0	42	0	240123904	58	6892
2026-01-20 18:14:09.38	18.81	10.36	-43.0	-44.3	20.1	0.00e+00	92	42	0	241172480	58	6691
2026-01-20 18:14:10.39	18.67	10.41	-43.1	-44.5	20.0	0.00e+00	0	42	0	243269632	58	6797
2026-01-20 18:14:11.40	18.53	10.47	-42.6	-43.8	20.5	0.00e+00	0	42	0	245366784	58	6312
2026-01-20 18:14:12.41	18.38	10.52	-42.5	-43.8	20.7	0.00e+00	0	42	0	247463936	58	6264
2026-01-20 18:14:13.42	18.24	10.58	-42.9	-44.2	20.3	0.00e+00	0	42	0	249561088	58	6563
2026-01-20 18:14:14.43	18.10	10.64	-42.5	-43.8	20.5	0.00e+00	91	42	0	250609664	58	6301
2026-01-20 18:14:15.44	17.95	10.69	-42.5	-43.8	20.5	0.00e+00	0	42	0	252706816	58	6279
2026-01-20 18:14:16.45	17.81	10.75	-43.0	-44.3	20.1	0.00e+00	76	42	0	254803968	58	6664
2026-01-20 18:14:17.46	17.66	10.81	-42.8	-44.1	20.4	0.00e+00	0	42	0	256901120	58	6496
2026-01-20 18:14:18.47	17.52	10.86	-42.7	-44.0	20.6	0.00e+00	0	42	0	258998272	58	6393
2026-01-20 18:14:19.48	17.37	10.92	-42.8	-44.1	20.4	0.00e+00	0	42	0	260046848	58	6530
2026-01-20 18:14:20.49	17.22	10.97	-42.9	-44.2	20.3	0.00e+00	0	42	0	262144000	58	6572
2026-01-20 18:14:21.50	17.08	11.03	-42.9	-44.2	20.2	0.00e+00	65	42	0	264241152	58	6584
2026-01-20 18:14:22.51	16.93	11.09	-42.9	-44.2	20.4	0.00e+00	0	42	0	266338304	58	6590
2026-01-20 18:14:23.52	16.78	11.14	-42.7	-44.0	20.3	0.00e+00	82	42	0	268435456	58	6449
2026-01-20 18:14:24.53	16.63	11.20	-43.0	-44.3	20.2	0.00e+00	0	42	0	269484032	58	6671
2026-01-20 18:14:25.54	16.48	11.25	-42.9	-44.2	20.3	0.00e+00	0	42	0	271581184	58	6564
2026-01-20 18:14:26.55	16.33	11.31	-42.7	-44.0	20.5	0.00e+00	0	42	0	273678336	58	6417
2026-01-20 18:14:27.56	16.18	11.36	-43.0	-44.3	20.1	0.00e+00	0	42	0	275775488	58	6647
2026-01-20 18:14:28.57	16.03	11.42	-43.0	-44.3	20.2	0.00e+00	49	42	0	277872640	58	6671
2026-01-20 18:14:29.57	15.88	11.47	-42.9	-44.2	20.1	0.00e+00	0	42	0	279969792	58	6611
2026-01-20 18:14:30.58	15.72	11.53	-43.2	-44.6	20.0	0.00e+00	90	42	0	281018368	58	6854
2026-01-20 18:14:31.59	15.57	11.59	-43.7	-45.2	19.4	0.00e+00	0	42	0	283115520	58	7387
2026-01-20 18:14:32.60	15.42	11.64	-43.5	-45.0	19.6	0.00e+00	7	42	0	285212672	58	7224
2026-01-20 18:14:33.61	15.26	11.70	-43.4	-44.8	19.7	0.00e+00	0	42	0	287309824	58	7071
2026-01-20 18:14:34.62	15.11	11.75	-43.0	-44.3	20.1	0.00e+00	0	42	0	289406976	58	6686
2026-01-20 18:14:35.63	14.95	11.81	-43.0	-44.4	20.2	0.00e+00	33	42	0	290455552	58	6696
2026-01-20 18:14:36.64	14.80	11.86	-43.2	-44.6	20.0	0.00e+00	0	42	0	292552704	58	6907
2026-01-20 18:14:37.65	14.64	11.91	-43.1	-44.4	19.9	0.00e+00	0	42	0	294649856	58	6758
2026-01-20 18:14:38.66	14.48	11.97	-43.2	-44.6	19.9	0.00e+00	0	42	0	296747008	58	6857
2026-01-20 18:14:39.67	14.32	12.02	-42.9	-44.3	20.2	0.00e+00	88	42	0	297795584	58	6651
2026-01-20 18:14:40.68	14.16	12.08	-42.8	-44.1	20.4	0.00e+00	0	42	0	299892736	58	6539
2026-01-20 18:14:41.69	14.01	12.13	-42.9	-44.3	20.2	0.00e+00	0	42	0	301989888	58	6643
2026-01-20 18:14:42.70	13.85	12.19	-42.6	-43.9	20.6	0.00e+00	0	42	0	304087040	58	6366
2026-01-20 18:14:43.71	13.69	12.24	-42.8	-44.1	20.5	0.00e+00	0	42	0	306184192	58	6535
2026-01-20 18:14:44.72	13.52	12.30	-42.8	-44.2	20.5	0.00e+00	0	42	0	308281344	58	6543
2026-01-20 18:14:45.73	13.36	12.35	-42.6	-43.9	20.7	0.00e+00	0	42	0	309329920	58	6336
2026-01-20 18:14:46.74	13.20	12.40	-42.7	-44.0	20.5	0.00e+00	90	42	0	311427072	58	6426
2026-01-20 18:14:47.75	13.04	12.46	-42.6	-43.9	20.3	0.00e+00	0	42	0	313524224	58	6336
2026-01-20 18:14:48.76	12.87	12.51	-43.0	-44.4	20.2	0.00e+00	0	42	0	315621376	58	6721
2026-01-20 18:14:49.77	12.71	12.56	-42.6	-43.9	20.5	0.00e+00	0	42	0	317718528	58	6356
2026-01-20 18:14:50.78	12.55	12.62	-42.8	-44.2	20.5	0.00e+00	0	42	0	318767104	58	6561
2026-01-20 18:14:51.79	12.38	12.67	-42.4	-43.7	20.8	0.00e+00	78	42	0	320864256	58	6176
2026-01-20 18:14:52.80	12.21	12.72	-41.7	-42.9	21.2	0.00e+00	0	42	0	322961408	58	5660
2026-01-20 18:14:53.81	12.05	12.78	-42.0	-43.2	21.4	0.00e+00	92	42	0	325058560	56	6559
2026-01-20 18:14:54.82	11.88	12.83	-41.9	-43.1	21.3	0.00e+00	0	42	0	327155712	56	6476
2026-01-20 18:14:55.83	11.71	12.88	-42.2	-43.4	21.2	0.00e+00	0	42	0	328204288	56	6720
2026-01-20 18:14:56.84	11.54	12.94	-41.7	-42.8	21.5	0.00e+00	0	42	0	330301440	56	6276
2026-01-20 18:14:57.85	11.38	12.99	-41.6	-42.7	21.7	0.00e+00	0	42	0	332398592	56	6200
2026-01-20 18:14:58.86	11.21	13.04	-41.1	-42.1	22.2	0.00e+00	4	42	0	334495744	56	5803
2026-01-20 18:14:59.87	11.04	13.09	-41.0	-42.0	22.3	0.00e+00	0	42	0	336592896	56	5748
2026-01-20 18:15:00.88	10.87	13.14	-40.9	-42.0	22.2	0.00e+00	92	42	0	337641472	56	5707
2026-01-20 18:15:01.89	10.69	13.20	-40.8	-41.9	22.3	0.00e+00	0	42	0	339738624	56	5648
2026-01-20 18:15:02.90	10.52	13.25	-41.1	-42.2	22.2	0.00e+00	55	42	0	341835776	56	5855
2026-01-20 18:15:03.91	10.35	13.30	-41.3	-42.4	22.0	0.00e+00	0	42	0	343932928	56	5976
2026-01-20 18:15:04.92	10.18	13.35	-41.4	-42.5	21.7	0.00e+00	0	42	0	346030080	56	6048
2026-01-20 18:15:05.93	10.00	13.40	-41.4	-42.6	21.7	0.00e+00	69	42	0	348127232	56	6116
2026-01-20 18:15:06.94	9.83	13.45	-41.2	-42.3	22.0	0.00e+00	0	42	0	349175808	56	5917
2026-01-20 18:15:07.95	9.65	13.51	-41.1	-42.2	22.1	0.00e+00	27	42	0	351272960	56	5851
2026-01-20 18:15:08.96	9.48	13.56	-41.0	-42.0	22.1	0.00e+00	0	42	0	353370112	56	5751
2026-01-20 18:15:09.97	9.30	13.61	-41.2	-42.3	21.9	0.00e+00	0	42	0	355467264	56	5960
2026-01-20 18:15:10.98	9.12	13.66	-41.3	-42.4	21.7	0.00e+00	0	42	0	357564416	56	6018
2026-01-20 18:15:11.99	8.95	13.71	-41.4	-42.5	21.9	0.00e+00	0	42	0	358612992	56	6079
2026-01-20 18:15:13.00	8.77	13.76	-41.3	-42.4	21.9	0.00e+00	0	42	0	360710144	56	5973
2026-01-20 18:15:14.01	8.59	13.81	-41.2	-42.3	22.0	0.00e+00	0	42	0	362807296	56	5920
2026-01-20 18:15:15.02	8.41	13.86	-41.3	-42.4	21.9	0.00e+00	65	42	0	364904448	56	5995
2026-01-20 18:15:16.03	8.23	13.91	-41.5	-42.6	21.8	0.00e+00	0	42	0	367001600	56	6107
2026-01-20 18:15:17.04	8.05	13.96	-41.6	-42.7	21.8	0.00e+00	64	42	0	368050176	56	6191
2026-01-20 18:15:18.05	7.87	14.01	-41.7	-42.9	21.4	0.00e+00	0	42	0	370147328	56	6340
2026-01-20 18:15:19.06	7.69	14.06	-41.7	-42.9	21.5	0.00e+00	0	42	0	372244480	56	6355
2026-01-20 18:15:20.07	7.50	14.11	-41.8	-43.0	21.3	0.00e+00	0	42	0	374341632	56	6423
2026-01-20 18:15:21.08	7.32	14.15	-41.7	-42.8	21.5	0.00e+00	0	42	0	376438784	56	6301
2026-01-20 18:15:22.09	7.14	14.20	-41.7	-42.9	21.5	0.00e+00	35	42	0	377487360	56	6322
2026-01-20 18:15:23.09	6.95	14.25	-41.7	-42.9	21.6	0.00e+00	0	42	0	379584512	56	6319
2026-01-20 18:15:24.10	6.77	14.30	-41.5	-42.6	21.7	0.00e+00	64	42	0	381681664	56	6166
2026-01-20 18:15:25.11	6.58	14.35	-41.4	-42.5	21.9	0.00e+00	0	42	0	383778816	56	6097
2026-01-20 18:15:26.12	6.40	14.39	-41.6	-42.8	21.6	0.00e+00	0	42	0	385875968	56	6299
2026-01-20 18:15:27.13	6.21	14.44	-41.2	-42.4	22.1	0.00e+00	26	42	0	386924544	56	5968
2026-01-20 18:15:28.14	6.02	14.49	-40.8	-41.8	22.5	0.00e+00	0	42	0	389021696	56	5617
2026-01-20 18:15:29.15	5.84	14.54	-40.7	-41.7	22.5	0.00e+00	7	42	0	391118848	54	6200
2026-01-20 18:15:30.16	5.65	14.58	-40.2	-41.1	22.8	0.00e+00	7	42	0	393216000	54	5807
2026-01-20 18:15:31.17	5.46	14.63	-40.0	-41.0	23.1	0.00e+00	92	42	0	395313152	54	5716
2026-01-20 18:15:32.17	5.27	14.68	-39.8	-40.7	23.3	0.00e+00	0	42	0	396361728	52	6222
2026-01-20 18:15:33.18	5.08	14.72	-39.7	-40.6	23.4	0.00e+00	0	42	0	398458880	52	6155
2026-01-20 18:15:34.19	4.89	14.77	-40.0	-41.0	23.0	0.00e+00	0	42	0	400556032	52	6400
2026-01-20 18:15:35.20	4.70	14.81	-40.0	-41.0	22.8	0.00e+00	0	42	0	402653184	52	6417
2026-01-20 18:15:36.21	4.51	14.86	-40.0	-40.9	23.1	0.00e+00	3	42	0	404750336	52	6337
2026-01-20 18:15:37.22	4.31	14.90	-40.3	-41.3	22.9	0.00e+00	0	42	0	405798912	52	6616
2026-01-20 18:15:38.23	4.12	14.95	-40.1	-41.1	23.0	0.00e+00	92	42	0	407896064	52	6502
2026-01-20 18:15:39.24	3.93	14.99	-40.3	-41.3	22.9	0.00e+00	0	42	0	409993216	52	6646
2026-01-20 18:15:40.25	3.73	15.04	-40.7	-41.7	22.6	0.00e+00	6	42	0	412090368	52	6970
2026-01-20 18:15:41.26	3.54	15.08	-40.8	-41.8	22.4	0.00e+00	0	42	0	414187520	54	6299
2026-01-20 18:15:42.27	3.34	15.13	-40.9	-42.0	22.3	0.00e+00	0	42	0	416284672	54	6398
2026-01-20 18:15:43.28	3.14	15.17	-41.2	-42.3	22.1	0.00e+00	7	42	0	417333248	54	6644
2026-01-20 18:15:44.29	2.95	15.21	-40.9	-41.9	22.4	0.00e+00	0	42	0	419430400	54	6389
2026-01-20 18:15:45.30	2.75	15.26	-40.7	-41.8	22.4	0.00e+00	92	42	0	421527552	54	6262
2026-01-20 18:15:46.31	2.55	15.30	-40.4	-41.3	22.9	0.00e+00	0	42	0	423624704	54	5958
2026-01-20 18:15:47.32	2.35	15.34	-40.5	-41.5	22.8	0.00e+00	92	42	0	424673280	54	6044
2026-01-20 18:15:48.33	2.15	15.39	-40.5	-41.5	22.6	0.00e+00	0	42	0	426770432	54	6045
2026-01-20 18:15:49.34	1.95	15.43	-40.5	-41.5	22.7	0.00e+00	0	42	0	428867584	54	6067
2026-01-20 18:15:50.35	1.75	15.47	-40.9	-42.0	22.4	0.00e+00	0	42	0	430964736	54	6399
2026-01-20 18:15:51.35	1.56	15.51	-41.0	-42.1	22.2	0.00e+00	0	42	0	433061888	54	6525
2026-01-20 18:15:52.36	1.35	15.55	-40.9	-42.0	22.3	0.00e+00	4	42	0	434110464	54	6417
2026-01-20 18:15:53.37	1.15	15.59	-40.8	-41.8	22.5	0.00e+00	0	42	0	436207616	54	6283
2026-01-20 18:15:54.38	0.95	15.63	-40.7	-41.7	22.6	0.00e+00	92	42	0	438304768	54	6226
2026-01-20 18:15:55.39	0.75	15.67	-40.7	-41.7	22.6	0.00e+00	0	42	0	440401920	54	6216
2026-01-20 18:15:56.41	0.54	15.71	-40.7	-41.7	22.6	0.00e+00	0	42	0	442499072	54	6214
2026-01-20 18:15:57.42	0.34	15.75	-40.7	-41.7	22.6	0.00e+00	0	42	0	444596224	54	6191
2026-01-20 18:15:58.42	0.13	15.79	-40.7	-41.7	22.5	0.00e+00	0	42	0	445644800	54	6204
2026-01-20 18:15:59.44	359.93	15.83	-40.6	-41.6	22.5	0.00e+00	0	42	0	447741952	54	6139
2026-01-20 18:16:00.45	359.72	15.87	-40.2	-41.2	22.9	0.00e+00	0	42	0	449839104	54	5832
2026-01-20 18:16:01.46	359.51	15.91	-40.3	-41.3	22.9	0.00e+00	57	42	0	451936256	54	5928
2026-01-20 18:16:02.47	359.31	15.95	-40.3	-41.3	22.6	0.00e+00	0	42	0	454033408	54	5944
2026-01-20 18:16:03.48	359.10	15.99	-40.6	-41.6	22.6	0.00e+00	0	42	0	455081984	54	6125
2026-01-20 18:16:04.49	358.89	16.02	-40.7	-41.8	22.4	0.00e+00	0	42	0	457179136	54	6251
2026-01-20 18:16:05.50	358.68	16.06	-41.0	-42.1	22.3	0.00e+00	0	42	0	459276288	54	6518
2026-01-20 18:16:06.50	358.48	16.10	-40.9	-41.9	22.4	0.00e+00	65	42	0	461373440	54	6387
2026-01-20 18:16:07.51	358.27	16.13	-40.5	-41.5	22.7	0.00e+00	0	42	0	463470592	54	6081
2026-01-20 18:16:08.52	358.06	16.17	-40.5	-41.5	22.7	0.00e+00	92	42	0	464519168	54	6062
2026-01-20 18:16:09.53	357.85	16.21	-40.4	-41.4	22.8	0.00e+00	0	42	0	466616320	54	6019
2026-01-20 18:16:10.54	357.63	16.24	-40.0	-40.9	23.2	0.00e+00	0	42	0	468713472	54	5667
2026-01-20 18:16:11.55	357.42	16.28	-40.0	-40.9	23.2	0.00e+00	0	42	0	470810624	54	5683
2026-01-20 18:16:12.56	357.21	16.31	-40.0	-40.9	23.0	0.00e+00	0	42	0	472907776	54	5692
2026-01-20 18:16:13.57	357.00	16.35	-40.2	-41.1	22.7	0.00e+00	0	42	0	473956352	54	5802
2026-01-20 18:16:14.58	356.79	16.38	-39.8	-40.7	22.8	0.00e+00	0	42	0	476053504	54	5565
2026-01-20 18:16:15.59	356.57	16.42	-39.9	-40.8	23.2	0.00e+00	89	42	0	478150656	52	6307
2026-01-20 18:16:16.60	356.36	16.45	-39.3	-40.1	23.8	0.00e+00	0	42	0	480247808	52	5819
2026-01-20 18:16:17.61	356.14	16.48	-39.4	-40.2	23.6	0.00e+00	5	42	0	482344960	52	5883
2026-01-20 18:16:18.62	355.93	16.51	-39.6	-40.5	23.4	0.00e+00	0	42	0	483393536	52	6039
2026-01-20 18:16:19.63	355.71	16.55	-39.5	-40.4	23.6	0.00e+00	0	42	0	485490688	52	5968
2026-01-20 18:16:20.64	355.50	16.58	-39.6	-40.5	23.4	0.00e+00	49	42	0	487587840	52	6067
2026-01-20 18:16:21.65	355.28	16.61	-39.7	-40.6	23.4	0.00e+00	0	42	0	489684992	52	6143
2026-01-20 18:16:22.66	355.06	16.64	-39.9	-40.9	23.1	0.00e+00	8	42	0	491782144	52	6329
2026-01-20 18:16:23.67	354.85	16.67	-39.7	-40.7	23.4	0.00e+00	0	42	0	492830720	52	6191
2026-01-20 18:16:24.67	354.63	16.70	-39.8	-40.7	23.3	0.00e+00	8	42	0	494927872	52	6203
2026-01-20 18:16:25.68	354.41	16.73	-39.9	-40.9	23.2	0.00e+00	0	42	0	497025024	52	6326
2026-01-20 18:16:26.69	354.19	16.76	-40.0	-41.0	22.9	0.00e+00	0	42	0	499122176	52	6402
2026-01-20 18:16:27.70	353.97	16.79	-40.5	-41.5	22.7	0.00e+00	0	42	0	501219328	52	6835
2026-01-20 18:16:28.71	353.75	16.82	-40.5	-41.5	22.7	0.00e+00	0	42	0	502267904	54	6074
2026-01-20 18:16:29.72	353.53	16.85	-40.6	-41.6	22.6	0.00e+00	92	42	0	504365056	54	6156
2026-01-20 18:16:30.73	353.31	16.88	-40.6	-41.7	22.6	0.00e+00	0	42	0	506462208	54	6199
2026-01-20 18:16:31.74	353.09	16.91	-40.5	-41.5	22.8	0.00e+00	81	42	0	508559360	54	6098
2026-01-20 18:16:32.75	352.87	16.93	-40.0	-41.0	23.1	0.00e+00	0	42	0	510656512	54	5718
2026-01-20 18:16:33.76	352.65	16.96	-40.3	-41.3	22.9	0.00e+00	0	42	0	512753664	54	5903
2026-01-20 18:16:34.77	352.43	16.99	-40.3	-41.3	22.9	0.00e+00	0	42	0	513802240	54	5944
2026-01-20 18:16:35.78	352.21	17.01	-40.5	-41.5	22.7	0.00e+00	0	42	0	515899392	54	6043
2026-01-20 18:16:36.79	351.98	17.04	-40.5	-41.5	22.6	0.00e+00	3	42	0	517996544	54	6090
2026-01-20 18:16:37.80	351.76	17.06	-40.8	-41.8	22.3	0.00e+00	0	42	0	520093696	54	6276
2026-01-20 18:16:38.81	351.54	17.09	-40.7	-41.7	22.6	0.00e+00	92	42	0	522190848	54	6182
2026-01-20 18:16:39.82	351.31	17.11	-40.4	-41.4	22.8	0.00e+00	0	42	0	523239424	54	6000
2026-01-20 18:16:40.83	351.09	17.14	-40.3	-41.3	22.8	0.00e+00	0	42	0	525336576	54	5907
2026-01-20 18:16:41.84	350.86	17.16	-40.7	-41.7	22.5	0.00e+00	0	42	0	527433728	54	6195
2026-01-20 18:16:42.84	350.64	17.18	-40.8	-41.8	22.5	0.00e+00	0	42	0	529530880	54	6258
2026-01-20 18:16:43.86	350.41	17.21	-41.0	-42.0	22.3	0.00e+00	83	42	0	531628032	54	6456
2026-01-20 18:16:44.87	350.19	17.23	-40.8	-41.8	22.4	0.00e+00	0	42	0	532676608	54	6310
2026-01-20 18:16:45.87	349.96	17.25	-41.0	-42.0	22.3	0.00e+00	92	42	0	534773760	54	6430
2026-01-20 18:16:46.89	349.74	17.27	-40.9	-41.9	22.5	0.00e+00	0	42	0	536870912	54	6362
2026-01-20 18:16:47.90	349.51	17.29	-40.6	-41.5	22.8	0.00e+00	0	42	0	538968064	54	6084
2026-01-20 18:16:48.91	349.28	17.31	-40.3	-41.3	22.9	0.00e+00	0	42	0	541065216	54	5920
2026-01-20 18:16:49.91	349.06	17.33	-40.0	-40.9	23.2	0.00e+00	0	42	0	542113792	54	5634
2026-01-20 18:16:50.92	348.83	17.35	-40.3	-41.2	23.0	0.00e+00	78	42	0	544210944	54	5876
2026-01-20 18:16:51.93	348.60	17.37	-40.5	-41.5	22.8	0.00e+00	0	42	0	546308096	54	6071
2026-01-20 18:16:52.94	348.37	17.39	-40.7	-41.7	22.6	0.00e+00	58	42	0	548405248	54	6185
2026-01-20 18:16:53.95	348.14	17.41	-40.8	-41.8	22.5	0.00e+00	0	42	0	550502400	54	6267
2026-01-20 18:16:54.96	347.92	17.43	-40.4	-41.4	22.8	0.00e+00	20	42	0	551550976	54	6000
2026-01-20 18:16:55.97	347.69	17.44	-40.2	-41.2	23.1	0.00e+00	0	42	0	553648128	54	5833
2026-01-20 18:16:56.98	347.46	17.46	-40.2	-41.2	23.1	0.00e+00	0	42	0	555745280	54	5843
2026-01-20 18:16:57.99	347.23	17.48	-40.2	-41.2	23.0	0.00e+00	0	42	0	557842432	54	5833
2026-01-20 18:16:59.00	347.00	17.49	-40.2	-41.1	23.1	0.00e+00	0	42	0	559939584	54	5820
2026-01-20 18:17:00.01	346.77	17.51	-40.4	-41.4	22.8	0.00e+00	24	42	0	560988160	54	5983
2026-01-20 18:17:01.01	346.54	17.52	-40.6	-41.6	22.5	0.00e+00	0	42	0	563085312	54	6152
2026-01-20 18:17:02.02	346.31	17.54	-40.9	-41.9	22.4	0.00e+00	65	42	0	565182464	54	6357
2026-01-20 18:17:03.03	346.08	17.55	-41.2	-42.3	22.1	0.00e+00	0	42	0	567279616	54	6670
2026-01-20 18:17:04.04	345.85	17.57	-41.8	-43.0	21.6	0.00e+00	0	42	0	569376768	56	6393
2026-01-20 18:17:05.05	345.62	17.58	-42.0	-43.2	21.5	0.00e+00	0	42	0	570425344	56	6544
2026-01-20 18:17:06.06	345.38	17.59	-42.1	-43.4	21.3	0.00e+00	0	42	0	572522496	56	6699
2026-01-20 18:17:07.07	345.15	17.60	-42.2	-43.4	21.3	0.00e+00	66	42	0	574619648	56	6765
2026-01-20 18:17:08.08	344.92	17.62	-41.9	-43.1	21.4	0.00e+00	2	42	0	576716800	56	6519
2026-01-20 18:17:09.09	344.69	17.63	-41.8	-43.0	21.6	0.00e+00	92	42	0	578813952	56	6399
2026-01-20 18:17:10.10	344.46	17.64	-41.9	-43.1	21.5	0.00e+00	0	42	0	579862528	56	6527
2026-01-20 18:17:11.11	344.23	17.65	-41.8	-43.0	21.5	0.00e+00	0	42	0	581959680	56	6439
2026-01-20 18:17:12.11	344.00	17.66	-41.6	-42.7	21.7	0.00e+00	0	42	0	584056832	56	6229
2026-01-20 18:17:13.13	343.76	17.67	-41.4	-42.5	22.0	0.00e+00	0	42	0	586153984	56	6097
2026-01-20 18:17:14.14	343.53	17.68	-41.2	-42.2	22.3	0.00e+00	93	42	0	588251136	56	5872
2026-01-20 18:17:15.14	343.30	17.68	-41.3	-42.4	22.2	0.00e+00	0	42	0	590348288	56	6003
2026-01-20 18:17:16.16	343.06	17.69	-41.2	-42.2	22.3	0.00e+00	90	42	0	591396864	56	5870
2026-01-20 18:17:17.17	342.83	17.70	-41.3	-42.4	22.1	0.00e+00	26	42	0	593494016	56	6006
2026-01-20 18:17:18.17	342.60	17.71	-41.2	-42.2	22.4	0.00e+00	0	42	0	595591168	56	5858
2026-01-20 18:17:19.18	342.36	17.71	-41.3	-42.3	22.3	0.00e+00	0	42	0	597688320	56	5946
2026-01-20 18:17:20.19	342.13	17.72	-41.3	-42.3	22.3	0.00e+00	0	42	0	599785472	56	5942
2026-01-20 18:17:21.20	341.90	17.72	-41.1	-42.2	22.3	0.00e+00	6	42	0	600834048	56	5838
2026-01-20 18:17:22.21	341.66	17.73	-41.3	-42.3	22.3	0.00e+00	0	42	0	602931200	56	5957
2026-01-20 18:17:23.22	341.43	17.73	-41.0	-42.0	22.6	0.00e+00	80	42	0	605028352	56	5755
2026-01-20 18:17:24.23	341.20	17.74	-40.5	-41.5	22.9	0.00e+00	0	42	0	607125504	54	6070
2026-01-20 18:17:25.24	340.96	17.74	-40.5	-41.5	22.8	0.00e+00	0	42	0	609222656	54	6059
2026-01-20 18:17:26.25	340.73	17.74	-40.4	-41.4	22.9	0.00e+00	0	42	0	610271232	54	5972
2026-01-20 18:17:27.26	340.50	17.75	-40.5	-41.5	22.8	0.00e+00	0	42	0	612368384	54	6062
2026-01-20 18:17:28.27	340.26	17.75	-40.7	-41.8	22.6	0.00e+00	60	42	0	614465536	54	6280
2026-01-20 18:17:29.28	340.03	17.75	-40.9	-42.0	22.4	0.00e+00	0	42	0	616562688	54	6416
2026-01-20 18:17:30.29	339.79	17.75	-41.1	-42.2	22.1	0.00e+00	92	42	0	618659840	54	6572
2026-01-20 18:17:31.30	339.56	17.75	-41.3	-42.4	22.0	0.00e+00	0	42	0	619708416	54	6724
2026-01-20 18:17:32.31	339.33	17.75	-41.3	-42.4	22.2	0.00e+00	92	42	0	621805568	54	6757
2026-01-20 18:17:33.32	339.09	17.75	-41.2	-42.3	22.2	0.00e+00	0	42	0	623902720	54	6647
2026-01-20 18:17:34.33	338.86	17.75	-41.3	-42.4	22.1	0.00e+00	0	42	0	625999872	54	6713
2026-01-20 18:17:35.34	338.62	17.75	-40.9	-42.0	22.5	0.00e+00	19	42	0	628097024	54	6394
2026-01-20 18:17:36.34	338.39	17.75	-40.7	-41.7	22.7	0.00e+00	0	42	0	629145600	54	6236
2026-01-20 18:17:37.35	338.16	17.74	-40.4	-41.4	22.8	0.00e+00	12	42	0	631242752	54	5987
2026-01-20 18:17:38.36	337.92	17.74	-40.3	-41.3	23.0	0.00e+00	0	42	0	633339904	54	5911
2026-01-20 18:17:39.37	337.69	17.74	-40.0	-40.9	23.2	0.00e+00	92	42	0	635437056	54	5669
2026-01-20 18:17:40.38	337.46	17.73	-40.1	-41.1	23.2	0.00e+00	0	42	0	637534208	54	5775
2026-01-20 18:17:41.39	337.22	17.73	-40.3	-41.3	23.1	0.00e+00	0	42	0	638582784	54	5949
2026-01-20 18:17:42.40	336.99	17.72	-40.5	-41.5	22.8	0.00e+00	0	42	0	640679936	54	6077
2026-01-20 18:17:43.41	336.76	17.72	-40.7	-41.7	22.5	0.00e+00	0	42	0	642777088	54	6206
2026-01-20 18:17:44.42	336.52	17.71	-41.0	-42.0	22.3	0.00e+00	92	42	0	644874240	54	6446
2026-01-20 18:17:45.43	336.29	17.71	-41.2	-42.3	21.8	0.00e+00	0	42	0	646971392	54	6644
2026-01-20 18:17:46.44	336.06	17.70	-41.1	-42.2	22.3	0.00e+00	36	42	0	648019968	54	6585
2026-01-20 18:17:47.45	335.82	17.69	-41.3	-42.4	22.0	0.00e+00	0	42	0	650117120	54	6713
2026-01-20 18:17:48.46	335.59	17.69	-41.4	-42.5	22.0	0.00e+00	0	42	0	652214272	54	6792
2026-01-20 18:17:49.47	335.36	17.68	-41.3	-42.4	22.1	0.00e+00	0	42	0	654311424	54	6737
2026-01-20 18:17:50.48	335.12	17.67	-41.2	-42.3	22.1	0.00e+00	0	42	0	656408576	54	6630
2026-01-20 18:17:51.49	334.89	17.66	-41.1	-42.2	22.2	0.00e+00	0	42	0	658505728	54	6570
2026-01-20 18:17:52.50	334.66	17.65	-40.9	-42.0	22.4	0.00e+00	0	42	0	659554304	54	6415
2026-01-20 18:17:53.51	334.43	17.64	-40.9	-41.9	22.4	0.00e+00	43	42	0	661651456	54	6349
2026-01-20 18:17:54.52	334.19	17.63	-40.9	-41.9	22.5	0.00e+00	0	42	0	663748608	54	6385
2026-01-20 18:17:55.53	333.96	17.62	-40.7	-41.7	22.6	0.00e+00	0	42	0	665845760	54	6205
2026-01-20 18:17:56.54	333.73	17.61	-40.8	-41.8	22.5	0.00e+00	0	42	0	667942912	54	6295
2026-01-20 18:17:57.55	333.50	17.59	-40.8	-41.8	22.7	0.00e+00	0	42	0	668991488	54	6271
2026-01-20 18:17:58.56	333.27	17.58	-40.7	-41.7	22.6	0.00e+00	63	42	0	671088640	54	6206
2026-01-20 18:17:59.57	333.04	17.57	-40.6	-41.6	22.7	0.00e+00	0	42	0	673185792	54	6161
2026-01-20 18:18:00.58	332.80	17.55	-40.5	-41.5	22.7	0.00e+00	73	42	0	675282944	54	6070
2026-01-20 18:18:01.59	332.57	17.54	-40.6	-41.6	22.8	0.00e+00	0	42	0	677380096	54	6117
2026-01-20 18:18:02.60	332.34	17.53	-40.4	-41.4	22.8	0.00e+00	0	42	0	678428672	54	5990
2026-01-20 18:18:03.61	332.11	17.51	-40.5	-41.5	22.9	0.00e+00	0	42	0	680525824	54	6036
2026-01-20 18:18:04.62	331.88	17.50	-40.6	-41.6	22.7	0.00e+00	0	42	0	682622976	54	6138
2026-01-20 18:18:05.63	331.65	17.48	-40.8	-41.8	22.7	0.00e+00	0	42	0	684720128	54	6312
2026-01-20 18:18:06.64	331.42	17.46	-40.9	-41.9	22.6	0.00e+00	0	42	0	686817280	54	6356
2026-01-20 18:18:07.65	331.19	17.45	-41.0	-42.1	22.4	0.00e+00	13	42	0	687865856	54	6487
2026-01-20 18:18:08.66	330.96	17.43	-40.8	-41.8	22.6	0.00e+00	0	42	0	689963008	54	6268
2026-01-20 18:18:09.66	330.74	17.41	-40.4	-41.4	23.0	0.00e+00	63	42	0	692060160	54	5998
2026-01-20 18:18:10.67	330.51	17.39	-40.3	-41.3	23.0	0.00e+00	0	42	0	694157312	54	5926
2026-01-20 18:18:11.68	330.28	17.37	-40.1	-41.0	23.3	0.00e+00	0	42	0	696254464	54	5760
2026-01-20 18:18:12.69	330.05	17.36	-40.2	-41.1	23.1	0.00e+00	0	42	0	697303040	54	5827
2026-01-20 18:18:13.69	329.83	17.34	-40.0	-41.0	23.3	0.00e+00	0	42	0	699400192	54	5701
2026-01-20 18:18:14.70	329.60	17.32	-40.3	-41.3	22.9	0.00e+00	14	42	0	701497344	54	5916
2026-01-20 18:18:15.72	329.37	17.30	-40.3	-41.2	23.0	0.00e+00	0	42	0	703594496	54	5880
2026-01-20 18:18:16.73	329.14	17.27	-40.1	-41.0	23.1	0.00e+00	77	42	0	705691648	54	5751
2026-01-20 18:18:17.73	328.92	17.25	-40.3	-41.2	23.2	0.00e+00	0	42	0	706740224	54	5882
2026-01-20 18:18:18.74	328.69	17.23	-40.2	-41.1	22.9	0.00e+00	0	42	0	708837376	54	5791
2026-01-20 18:18:19.75	328.47	17.21	-40.3	-41.3	23.2	0.00e+00	0	42	0	710934528	54	5910
2026-01-20 18:18:20.76	328.24	17.19	-40.4	-41.3	23.1	0.00e+00	0	42	0	713031680	54	5948
2026-01-20 18:18:21.77	328.02	17.16	-40.4	-41.4	23.0	0.00e+00	92	42	0	715128832	54	5999
2026-01-20 18:18:22.78	327.79	17.14	-40.5	-41.4	22.9	0.00e+00	0	42	0	716177408	54	6021
2026-01-20 18:18:23.79	327.57	17.12	-40.7	-41.7	22.7	0.00e+00	92	42	0	718274560	54	6190
2026-01-20 18:18:24.80	327.34	17.09	-40.7	-41.7	22.5	0.00e+00	6	42	0	720371712	54	6202
2026-01-20 18:18:25.81	327.12	17.07	-40.7	-41.7	22.6	0.00e+00	0	42	0	722468864	54	6239
2026-01-20 18:18:26.82	326.90	17.04	-40.8	-41.8	22.7	0.00e+00	0	42	0	724566016	54	6276
2026-01-20 18:18:27.83	326.67	17.02	-40.9	-41.9	22.5	0.00e+00	0	42	0	726663168	54	6389
2026-01-20 18:18:28.84	326.45	16.99	-40.7	-41.7	22.6	0.00e+00	6	42	0	727711744	54	6202
2026-01-20 18:18:29.85	326.23	16.96	-40.5	-41.5	22.8	0.00e+00	0	42	0	729808896	54	6071
2026-01-20 18:18:30.86	326.01	16.94	-40.7	-41.7	22.7	0.00e+00	91	42	0	731906048	54	6209
2026-01-20 18:18:31.87	325.78	16.91	-40.5	-41.5	22.9	0.00e+00	0	42	0	734003200	54	6071
2026-01-20 18:18:32.88	325.56	16.88	-40.6	-41.5	22.8	0.00e+00	0	42	0	736100352	54	6094
2026-01-20 18:18:33.89	325.34	16.85	-40.7	-41.6	22.8	0.00e+00	0	42	0	737148928	54	6165
2026-01-20 18:18:34.89	325.13	16.83	-40.7	-41.7	22.6	0.00e+00	0	42	0	739246080	54	6204
2026-01-20 18:18:35.90	324.91	16.80	-40.6	-41.6	22.7	0.00e+00	11	42	0	741343232	54	6122
2026-01-20 18:18:36.91	324.69	16.77	-40.8	-41.7	22.7	0.00e+00	0	42	0	743440384	54	6243
2026-01-20 18:18:37.92	324.47	16.74	-40.5	-41.5	22.8	0.00e+00	92	42	0	745537536	54	6048
2026-01-20 18:18:38.93	324.25	16.71	-40.6	-41.6	23.0	0.00e+00	0	42	0	746586112	54	6122
2026-01-20 18:18:39.94	324.03	16.68	-40.6	-41.5	23.0	0.00e+00	80	42	0	748683264	54	6078
2026-01-20 18:18:40.95	323.81	16.65	-40.6	-41.6	22.8	0.00e+00	0	42	0	750780416	54	6125
2026-01-20 18:18:41.96	323.60	16.62	-41.0	-42.0	22.5	0.00e+00	0	42	0	752877568	54	6395
2026-01-20 18:18:42.97	323.38	16.58	-41.0	-42.0	22.6	0.00e+00	3	42	0	754974720	54	6444
2026-01-20 18:18:43.98	323.16	16.55	-41.0	-42.0	22.5	0.00e+00	0	42	0	756023296	54	6418
2026-01-20 18:18:44.99	322.95	16.52	-40.9	-41.8	22.5	0.00e+00	90	42	0	758120448	54	6312
2026-01-20 18:18:45.99	322.73	16.49	-40.8	-41.8	22.7	0.00e+00	0	42	0	760217600	54	6252
2026-01-20 18:18:47.01	322.52	16.45	-40.9	-41.9	22.6	0.00e+00	92	42	0	762314752	54	6350
2026-01-20 18:18:48.02	322.30	16.42	-41.3	-42.3	22.2	0.00e+00	0	42	0	764411904	54	6647
2026-01-20 18:18:49.02	322.09	16.39	-41.3	-42.3	22.4	0.00e+00	0	42	0	765460480	54	6654
2026-01-20 18:18:50.03	321.88	16.35	-41.6	-42.7	22.0	0.00e+00	0	42	0	767557632	54	6940
2026-01-20 18:18:51.04	321.66	16.32	-42.0	-43.1	21.6	0.00e+00	0	42	0	769654784	56	6517
2026-01-20 18:18:52.05	321.45	16.28	-42.0	-43.1	21.6	0.00e+00	62	42	0	771751936	56	6526
2026-01-20 18:18:53.06	321.24	16.25	-41.9	-43.1	21.6	0.00e+00	0	42	0	773849088	56	6466
2026-01-20 18:18:54.07	321.03	16.21	-42.1	-43.2	21.6	0.00e+00	92	42	0	774897664	56	6592
2026-01-20 18:18:55.08	320.82	16.18	-42.0	-43.1	21.6	0.00e+00	8	42	0	776994816	56	6529
2026-01-20 18:18:56.09	320.61	16.14	-41.7	-42.8	22.0	0.00e+00	0	42	0	779091968	56	6280
2026-01-20 18:18:57.09	320.40	16.10	-41.6	-42.7	22.0	0.00e+00	0	42	0	781189120	56	6192
2026-01-20 18:18:58.11	320.19	16.07	-41.5	-42.6	22.1	0.00e+00	0	42	0	783286272	56	6121
2026-01-20 18:18:59.12	319.98	16.03	-41.2	-42.2	22.2	0.00e+00	65	42	0	784334848	56	5874
2026-01-20 18:19:00.13	319.77	15.99	-41.2	-42.3	22.4	0.00e+00	0	42	0	786432000	56	5898
2026-01-20 18:19:01.14	319.56	15.95	-41.5	-42.5	22.1	0.00e+00	90	42	0	788529152	56	6080
2026-01-20 18:19:02.14	319.36	15.92	-41.4	-42.5	22.1	0.00e+00	0	42	0	790626304	56	6070
2026-01-20 18:19:03.15	319.15	15.88	-41.2	-42.3	22.3	0.00e+00	0	42	0	792723456	56	5916
2026-01-20 18:19:04.16	318.95	15.84	-41.3	-42.3	22.3	0.00e+00	0	42	0	793772032	56	5940
2026-01-20 18:19:05.17	318.74	15.80	-41.4	-42.4	22.2	0.00e+00	0	42	0	795869184	56	6006
2026-01-20 18:19:06.18	318.54	15.76	-41.2	-42.3	22.2	0.00e+00	3	42	0	797966336	56	5912
2026-01-20 18:19:07.19	318.33	15.72	-41.3	-42.4	21.9	0.00e+00	0	42	0	800063488	56	5971
2026-01-20 18:19:08.20	318.13	15.68	-41.2	-42.2	22.5	0.00e+00	92	42	0	802160640	56	5846
2026-01-20 18:19:09.21	317.92	15.64	-40.3	-41.2	23.0	0.00e+00	0	42	0	803209216	54	5886
2026-01-20 18:19:10.22	317.72	15.60	-40.4	-41.3	22.7	0.00e+00	44	42	0	805306368	54	5959
2026-01-20 18:19:11.23	317.52	15.56	-40.4	-41.3	23.0	0.00e+00	0	42	0	807403520	54	5928
2026-01-20 18:19:12.24	317.32	15.52	-40.2	-41.1	23.2	0.00e+00	0	42	0	809500672	54	5798
2026-01-20 18:19:13.25	317.12	15.48	-40.3	-41.2	23.1	0.00e+00	60	42	0	811597824	54	5892
2026-01-20 18:19:14.26	316.91	15.43	-40.2	-41.1	23.2	0.00e+00	0	42	0	812646400	54	5817
2026-01-20 18:19:15.27	316.71	15.39	-40.4	-41.3	23.0	0.00e+00	77	42	0	814743552	54	5928
2026-01-20 18:19:16.28	316.51	15.35	-40.6	-41.6	22.8	0.00e+00	0	42	0	816840704	54	6132
2026-01-20 18:19:17.29	316.32	15.31	-40.9	-41.9	22.5	0.00e+00	20	42	0	818937856	54	6322
2026-01-20 18:19:18.30	316.12	15.26	-40.6	-41.6	22.7	0.00e+00	0	42	0	821035008	54	6150
2026-01-20 18:19:19.31	315.92	15.22	-41.0	-42.1	22.5	0.00e+00	0	42	0	823132160	54	6487
2026-01-20 18:19:20.32	315.72	15.18	-41.6	-42.7	21.7	0.00e+00	3	42	0	824180736	54	6937
2026-01-20 18:19:21.33	315.53	15.13	-42.0	-43.2	21.4	0.00e+00	0	42	0	826277888	56	6583
2026-01-20 18:19:22.34	315.33	15.09	-42.4	-43.5	21.2	0.00e+00	11	42	0	828375040	56	6843
2026-01-20 18:19:23.35	315.13	15.05	-42.7	-43.9	20.8	0.00e+00	0	42	0	830472192	56	7130
2026-01-20 18:19:24.36	314.94	15.00	-42.6	-43.8	21.0	0.00e+00	88	42	0	832569344	58	6282
2026-01-20 18:19:25.37	314.75	14.96	-42.5	-43.7	20.9	0.00e+00	0	42	0	833617920	58	6217
2026-01-20 18:19:26.38	314.55	14.91	-42.4	-43.6	21.1	0.00e+00	0	42	0	835715072	58	6143
2026-01-20 18:19:27.39	314.36	14.87	-42.3	-43.5	21.1	0.00e+00	0	42	0	837812224	58	6082
2026-01-20 18:19:28.40	314.17	14.82	-42.0	-43.2	21.5	0.00e+00	0	42	0	839909376	58	5840
2026-01-20 18:19:29.41	313.97	14.77	-42.0	-43.2	21.5	0.00e+00	81	42	0	842006528	58	5853
2026-01-20 18:19:30.42	313.78	14.73	-42.3	-43.4	21.4	0.00e+00	0	42	0	843055104	58	6033
2026-01-20 18:19:31.43	313.59	14.68	-42.2	-43.4	21.5	0.00e+00	90	42	0	845152256	58	5968
2026-01-20 18:19:32.44	313.40	14.64	-42.1	-43.2	21.3	0.00e+00	0	42	0	847249408	58	5894
2026-01-20 18:19:33.45	313.21	14.59	-42.3	-43.5	21.2	0.00e+00	0	42	0	849346560	58	6051
2026-01-20 18:19:34.46	313.02	14.54	-42.3	-43.4	21.4	0.00e+00	0	42	0	851443712	58	6017
2026-01-20 18:19:35.47	312.84	14.50	-42.2	-43.4	21.5	0.00e+00	0	42	0	852492288	58	5967
2026-01-20 18:19:36.48	312.65	14.45	-41.8	-42.9	21.7	0.00e+00	0	42	0	854589440	58	5641
2026-01-20 18:19:37.49	312.46	14.40	-41.8	-42.9	21.8	0.00e+00	0	42	0	856686592	56	6322
2026-01-20 18:19:38.50	312.27	14.35	-41.7	-42.7	21.9	0.00e+00	65	42	0	858783744	56	6219
2026-01-20 18:19:39.51	312.09	14.30	-41.5	-42.5	22.1	0.00e+00	0	42	0	860880896	56	6095
2026-01-20 18:19:40.52	311.90	14.26	-41.4	-42.4	22.2	0.00e+00	0	42	0	861929472	56	5998
2026-01-20 18:19:41.52	311.72	14.21	-41.5	-42.5	22.2	0.00e+00	0	42	0	864026624	56	6064
2026-01-20 18:19:42.53	311.54	14.16	-41.4	-42.4	22.1	0.00e+00	0	42	0	866123776	56	6028
2026-01-20 18:19:43.54	311.35	14.11	-41.3	-42.4	22.0	0.00e+00	0	42	0	868220928	56	5968
2026-01-20 18:19:44.55	311.17	14.06	-41.1	-42.0	22.5	0.00e+00	0	42	0	870318080	56	5758
2026-01-20 18:19:45.56	310.99	14.01	-40.8	-41.8	22.8	0.00e+00	89	42	0	871366656	56	5582
2026-01-20 18:19:46.57	310.81	13.96	-40.8	-41.7	22.8	0.00e+00	0	42	0	873463808	54	6225
2026-01-20 18:19:47.58	310.63	13.91	-40.7	-41.6	22.7	0.00e+00	17	42	0	875560960	54	6133
2026-01-20 18:19:48.59	310.45	13.86	-40.5	-41.5	22.9	0.00e+00	0	42	0	877658112	54	6037
2026-01-20 18:19:49.60	310.27	13.81	-40.7	-41.6	22.6	0.00e+00	0	42	0	879755264	54	6155
2026-01-20 18:19:50.61	310.09	13.76	-41.0	-42.0	22.2	0.00e+00	3	42	0	880803840	54	6438
2026-01-20 18:19:51.61	309.91	13.71	-41.1	-42.1	22.5	0.00e+00	0	42	0	882900992	54	6490
2026-01-20 18:19:52.62	309.73	13.66	-41.3	-42.3	22.2	0.00e+00	57	42	0	884998144	54	6636
2026-01-20 18:19:53.63	309.55	13.61	-41.4	-42.4	21.9	0.00e+00	0	42	0	887095296	54	6768
2026-01-20 18:19:54.64	309.38	13.56	-41.5	-42.5	22.0	0.00e+00	91	42	0	889192448	54	6848
2026-01-20 18:19:55.65	309.20	13.51	-41.6	-42.6	21.9	0.00e+00	0	42	0	891289600	54	6892
2026-01-20 18:19:56.66	309.03	13.46	-41.1	-42.1	22.3	0.00e+00	0	42	0	892338176	54	6496
2026-01-20 18:19:57.67	308.85	13.41	-41.2	-42.2	22.2	0.00e+00	0	42	0	894435328	54	6586
2026-01-20 18:19:58.68	308.68	13.36	-41.1	-42.1	22.2	0.00e+00	0	42	0	896532480	54	6497
2026-01-20 18:19:59.69	308.50	13.31	-41.3	-42.4	22.1	0.00e+00	40	42	0	898629632	54	6693
2026-01-20 18:20:00.70	308.33	13.26	-41.2	-42.2	22.3	0.00e+00	0	42	0	900726784	54	6605
2026-01-20 18:20:01.71	308.16	13.20	-41.3	-42.3	22.1	0.00e+00	68	42	0	901775360	54	6629
2026-01-20 18:20:02.73	307.99	13.15	-41.5	-42.5	21.9	0.00e+00	0	42	0	903872512	54	6815
2026-01-20 18:20:03.74	307.81	13.10	-41.9	-43.0	21.5	0.00e+00	0	42	0	905969664	56	6440
2026-01-20 18:20:04.75	307.64	13.05	-42.5	-43.6	20.9	0.00e+00	0	42	0	908066816	56	6896
2026-01-20 18:20:05.76	307.47	12.99	-43.0	-44.3	20.3	0.00e+00	0	42	0	910163968	58	6645
2026-01-20 18:20:06.77	307.30	12.94	-43.5	-45.0	19.7	0.00e+00	92	42	0	911212544	58	7176
2026-01-20 18:20:07.78	307.14	12.89	-43.9	-45.4	19.5	0.00e+00	0	42	0	913309696	60	6737
2026-01-20 18:20:08.78	306.97	12.84	-44.2	-45.8	19.0	0.00e+00	91	42	0	915406848	60	7079
2026-01-20 18:20:09.80	306.80	12.78	-44.5	-46.1	18.7	0.00e+00	0	42	0	917504000	60	7331
2026-01-20 18:20:10.80	306.63	12.73	-44.4	-46.1	18.9	0.00e+00	0	42	0	919601152	60	7265
2026-01-20 18:20:11.81	306.47	12.68	-44.0	-45.6	19.3	0.00e+00	0	42	0	920649728	60	6849
2026-01-20 18:20:12.82	306.30	12.62	-44.3	-46.0	18.9	0.00e+00	3	42	0	922746880	60	7176
2026-01-20 18:20:13.83	306.14	12.57	-43.7	-45.2	19.7	0.00e+00	0	42	0	924844032	60	6564
2026-01-20 18:20:14.84	305.97	12.52	-43.5	-44.9	19.9	0.00e+00	0	42	0	926941184	60	6354
2026-01-20 18:20:15.85	305.81	12.46	-43.5	-44.9	19.9	0.00e+00	92	42	0	929038336	60	6384
2026-01-20 18:20:16.86	305.65	12.41	-43.8	-45.2	19.7	0.00e+00	0	42	0	930086912	60	6605
2026-01-20 18:20:17.87	305.48	12.36	-43.6	-45.0	19.8	0.00e+00	0	42	0	932184064	60	6459
2026-01-20 18:20:18.88	305.32	12.30	-43.8	-45.3	19.7	0.00e+00	0	42	0	934281216	60	6652
2026-01-20 18:20:19.89	305.16	12.25	-43.1	-44.4	20.5	0.00e+00	0	42	0	936378368	60	5995
2026-01-20 18:20:20.90	305.00	12.19	-42.8	-44.1	20.6	0.00e+00	3	42	0	938475520	60	5774
2026-01-20 18:20:21.91	304.84	12.14	-43.1	-44.4	20.4	0.00e+00	0	42	0	939524096	60	6003
2026-01-20 18:20:22.92	304.68	12.08	-42.4	-43.5	21.1	0.00e+00	90	42	0	941621248	58	6094
2026-01-20 18:20:23.93	304.52	12.03	-42.5	-43.7	21.0	0.00e+00	0	42	0	943718400	58	6176
2026-01-20 18:20:24.94	304.36	11.98	-42.5	-43.7	20.9	0.00e+00	14	42	0	945815552	58	6200
2026-01-20 18:20:25.95	304.20	11.92	-42.6	-43.8	21.0	0.00e+00	0	42	0	947912704	58	6268
2026-01-20 18:20:26.96	304.05	11.87	-42.8	-44.1	20.6	0.00e+00	0	42	0	948961280	58	6465
2026-01-20 18:20:27.97	303.89	11.81	-42.9	-44.2	20.3	0.00e+00	4	42	0	951058432	58	6544
2026-01-20 18:20:28.98	303.73	11.76	-42.7	-43.9	20.7	0.00e+00	0	42	0	953155584	58	6379
2026-01-20 18:20:29.98	303.58	11.70	-42.8	-44.0	20.7	0.00e+00	92	42	0	955252736	58	6436
2026-01-20 18:20:30.99	303.43	11.65	-42.5	-43.7	20.9	0.00e+00	0	42	0	957349888	58	6198
2026-01-20 18:20:32.00	303.27	11.59	-42.4	-43.6	21.0	0.00e+00	65	42	0	959447040	58	6128
2026-01-20 18:20:33.01	303.12	11.54	-42.0	-43.2	21.4	0.00e+00	0	42	0	960495616	58	5842
2026-01-20 18:20:34.02	302.96	11.48	-41.8	-42.9	21.5	0.00e+00	0	42	0	962592768	56	6343
2026-01-20 18:20:35.03	302.81	11.43	-41.7	-42.8	21.7	0.00e+00	0	42	0	964689920	56	6308
2026-01-20 18:20:36.04	302.66	11.37	-41.7	-42.8	21.5	0.00e+00	0	42	0	966787072	56	6294
2026-01-20 18:20:37.05	302.51	11.31	-42.0	-43.2	21.3	0.00e+00	77	42	0	968884224	56	6568
2026-01-20 18:20:38.06	302.36	11.26	-41.8	-42.9	21.6	0.00e+00	0	42	0	969932800	56	6376
2026-01-20 18:20:39.07	302.21	11.20	-41.8	-42.9	21.6	0.00e+00	92	42	0	972029952	56	6328
2026-01-20 18:20:40.08	302.06	11.15	-41.9	-43.0	21.4	0.00e+00	0	42	0	974127104	56	6439
2026-01-20 18:20:41.08	301.91	11.09	-41.6	-42.7	21.7	0.00e+00	0	42	0	976224256	56	6215
2026-01-20 18:20:42.10	301.76	11.04	-41.9	-43.0	21.2	0.00e+00	0	42	0	978321408	56	6425
2026-01-20 18:20:43.11	301.61	10.98	-42.0	-43.1	21.2	0.00e+00	0	42	0	979369984	56	6519
2026-01-20 18:20:44.11	301.47	10.92	-42.2	-43.4	21.2	0.00e+00	9	42	0	981467136	56	6699
2026-01-20 18:20:45.12	301.32	10.87	-42.6	-43.8	21.0	0.00e+00	29	42	0	983564288	56	7027
2026-01-20 18:20:46.13	301.17	10.81	-42.2	-43.3	21.2	0.00e+00	90	42	0	985661440	56	6674
2026-01-20 18:20:47.14	301.03	10.76	-42.3	-43.4	21.0	0.00e+00	0	42	0	987758592	56	6751
2026-01-20 18:20:48.15	300.88	10.70	-42.4	-43.6	20.9	0.00e+00	3	42	0	988807168	56	6863
2026-01-20 18:20:49.16	300.74	10.64	-42.2	-43.4	21.1	0.00e+00	0	42	0	990904320	56	6737
2026-01-20 18:20:50.17	300.59	10.59	-42.3	-43.5	21.0	0.00e+00	0	42	0	993001472	56	6785
2026-01-20 18:20:51.18	300.45	10.53	-42.4	-43.6	20.9	0.00e+00	77	42	0	995098624	56	6915
2026-01-20 18:20:52.19	300.31	10.47	-42.3	-43.5	21.0	0.00e+00	0	42	0	997195776	56	6805
2026-01-20 18:20:53.20	300.17	10.42	-42.1	-43.3	21.2	0.00e+00	90	42	0	998244352	56	6632
2026-01-20 18:20:54.22	300.02	10.36	-42.1	-43.3	21.2	0.00e+00	0	42	0	1000341504	56	6639
2026-01-20 18:20:55.23	299.88	10.30	-42.3	-43.4	21.0	0.00e+00	28	42	0	1002438656	56	6767
2026-01-20 18:20:56.24	299.74	10.25	-41.7	-42.8	21.6	0.00e+00	0	42	0	1004535808	56	6257
2026-01-20 18:20:57.25	299.60	10.19	-41.8	-42.9	21.4	0.00e+00	0	42	0	1006632960	56	6382
2026-01-20 18:20:58.26	299.46	10.13	-41.5	-42.6	21.9	0.00e+00	3	42	0	1007681536	56	6141
2026-01-20 18:20:59.27	299.32	10.08	-41.1	-42.1	22.1	0.00e+00	0	42	0	1009778688	56	5822
2026-01-20 18:21:00.28	299.19	10.02	-41.1	-42.1	22.2	0.00e+00	64	42	0	1011875840	56	5821
2026-01-20 18:21:01.29	299.05	9.96	-40.9	-41.9	22.3	0.00e+00	0	42	0	1013972992	54	6326
2026-01-20 18:21:02.30	298.91	9.91	-40.7	-41.7	22.4	0.00e+00	79	42	0	1016070144	54	6181
2026-01-20 18:21:03.30	298.77	9.85	-40.3	-41.3	22.7	0.00e+00	0	42	0	1017118720	54	5915
2026-01-20 18:21:04.31	298.64	9.79	-40.8	-41.8	22.3	0.00e+00	0	42	0	1019215872	54	6311
2026-01-20 18:21:05.32	298.50	9.74	-40.6	-41.6	22.5	0.00e+00	3	42	0	1021313024	54	6110
2026-01-20 18:21:06.33	298.37	9.68	-40.7	-41.6	22.5	0.00e+00	0	42	0	1023410176	54	6151
2026-01-20 18:21:07.34	298.23	9.62	-40.6	-41.6	22.4	0.00e+00	12	42	0	1025507328	54	6110
2026-01-20 18:21:08.35	298.10	9.57	-40.7	-41.7	22.4	0.00e+00	0	42	0	1027604480	54	6204
2026-01-20 18:21:09.36	297.97	9.51	-41.0	-42.0	22.1	0.00e+00	92	42	0	1028653056	54	6433
2026-01-20 18:21:10.37	297.83	9.45	-41.1	-42.2	22.0	0.00e+00	0	42	0	1030750208	54	6549
2026-01-20 18:21:11.38	297.70	9.40	-41.2	-42.3	21.8	0.00e+00	0	42	0	1032847360	54	6651
2026-01-20 18:21:12.39	297.57	9.34	-40.7	-41.8	22.4	0.00e+00	0	42	0	1034944512	54	6251
2026-01-20 18:21:13.40	297.44	9.28	-40.9	-41.9	22.1	0.00e+00	0	42	0	1037041664	54	6389
2026-01-20 18:21:14.41	297.31	9.22	-40.7	-41.7	22.3	0.00e+00	0	42	0	1038090240	54	6216
2026-01-20 18:21:15.42	297.18	9.17	-40.6	-41.6	22.4	0.00e+00	0	42	0	1040187392	54	6124
2026-01-20 18:21:16.43	297.05	9.11	-40.6	-41.6	22.4	0.00e+00	88	42	0	1042284544	54	6149
2026-01-20 18:21:17.44	296.92	9.05	-40.7	-41.7	22.3	0.00e+00	0	42	0	1044381696	54	6236
2026-01-20 18:21:18.45	296.79	9.00	-40.7	-41.7	22.4	0.00e+00	0	42	0	1046478848	54	6179
2026-01-20 18:21:19.46	296.66	8.94	-40.4	-41.3	22.7	0.00e+00	0	42	0	1047527424	54	5959
2026-01-20 18:21:20.47	296.53	8.88	-40.5	-41.5	22.6	0.00e+00	0	42	0	1049624576	54	6047
2026-01-20 18:21:21.48	296.40	8.82	-40.7	-41.7	22.3	0.00e+00	81	42	0	1051721728	54	6212
2026-01-20 18:21:22.49	296.28	8.77	-41.1	-42.1	21.9	0.00e+00	0	42	0	1053818880	54	6539
2026-01-20 18:21:23.50	296.15	8.71	-40.8	-41.8	22.3	0.00e+00	89	42	0	1055916032	54	6269
2026-01-20 18:21:24.51	296.03	8.65	-41.2	-42.3	21.8	0.00e+00	0	42	0	1056964608	54	6662
2026-01-20 18:21:25.52	295.90	8.60	-41.2	-42.2	21.9	0.00e+00	0	42	0	1059061760	54	6595
2026-01-20 18:21:26.53	295.78	8.54	-41.5	-42.6	21.6	0.00e+00	0	42	0	1061158912	54	6855
2026-01-20 18:21:27.54	295.65	8.48	-41.8	-43.0	20.9	0.00e+00	0	42	0	1063256064	54	7219
2026-01-20 18:21:28.55	295.53	8.43	-42.0	-43.2	21.0	0.00e+00	89	42	0	1065353216	56	6561
2026-01-20 18:21:29.56	295.41	8.37	-42.2	-43.4	21.0	0.00e+00	0	42	0	1066401792	56	6701
2026-01-20 18:21:30.57	295.28	8.31	-41.2	-42.3	21.9	0.00e+00	76	42	0	1068498944	56	5908
2026-01-20 18:21:31.58	295.16	8.25	-42.1	-43.3	21.0	0.00e+00	0	42	0	1070596096	56	6634
2026-01-20 18:21:32.59	295.04	8.20	-42.1	-43.3	20.9	0.00e+00	0	42	0	1072693248	56	6628
2026-01-20 18:21:33.60	294.92	8.14	-41.9	-43.1	20.9	0.00e+00	0	42	0	1074790400	56	6477
2026-01-20 18:21:34.60	294.80	8.08	-42.0	-43.2	20.7	0.00e+00	0	42	0	1075838976	56	6575
2026-01-20 18:21:35.61	294.68	8.03	-42.1	-43.3	21.1	0.00e+00	17	42	0	1077936128	56	6683
2026-01-20 18:21:36.62	294.56	7.97	-42.3	-43.6	20.6	0.00e+00	0	42	0	1080033280	56	6866
2026-01-20 18:21:37.63	294.44	7.91	-42.3	-43.5	20.7	0.00e+00	91	42	0	1082130432	56	6845
2026-01-20 18:21:38.64	294.32	7.85	-42.8	-44.1	20.3	0.00e+00	0	42	0	1084227584	56	7276
2026-01-20 18:21:39.65	294.20	7.80	-42.3	-43.5	20.6	0.00e+00	72	42	0	1085276160	58	6084
2026-01-20 18:21:40.66	294.08	7.74	-42.5	-43.7	20.6	0.00e+00	0	42	0	1087373312	58	6227
2026-01-20 18:21:41.67	293.97	7.68	-41.5	-42.6	21.3	0.00e+00	0	43	0	1089470464	56	6146
2026-01-20 18:21:42.68	293.85	7.63	-41.9	-43.0	21.2	0.00e+00	0	42	0	1091567616	56	6435
2026-01-20 18:21:43.69	293.73	7.57	-41.7	-42.9	21.3	0.00e+00	0	42	0	1093664768	56	6338
2026-01-20 18:21:44.70	293.62	7.51	-41.2	-42.2	22.0	0.00e+00	91	43	0	1095761920	56	5880
2026-01-20 18:21:45.71	293.50	7.46	-42.1	-43.2	20.9	0.00e+00	0	43	0	1096810496	56	6607
2026-01-20 18:21:46.72	293.39	7.40	-41.6	-42.7	21.6	0.00e+00	92	42	0	1098907648	56	6184
2026-01-20 18:21:47.73	293.27	7.34	-41.0	-42.0	22.0	0.00e+00	0	42	0	1101004800	56	5741
2026-01-20 18:21:48.74	293.16	7.28	-41.5	-42.6	21.5	0.00e+00	0	42	0	1103101952	56	6144
2026-01-20 18:21:49.74	293.04	7.23	-41.4	-42.5	21.7	0.00e+00	0	42	0	1105199104	56	6042
2026-01-20 18:21:50.75	292.93	7.17	-42.0	-43.2	21.2	0.00e+00	0	42	0	1106247680	56	6576
2026-01-20 18:21:51.76	292.82	7.11	-42.1	-43.3	20.9	0.00e+00	90	42	0	1108344832	56	6636
2026-01-20 18:21:52.77	292.71	7.06	-42.2	-43.4	20.8	0.00e+00	0	42	0	1110441984	56	6738
2026-01-20 18:21:53.78	292.59	7.00	-42.0	-43.2	21.0	0.00e+00	92	42	0	1112539136	56	6594
2026-01-20 18:21:54.79	292.48	6.94	-41.7	-42.9	21.2	0.00e+00	0	42	0	1114636288	56	6332
2026-01-20 18:21:55.80	292.37	6.89	-42.6	-43.9	20.4	0.00e+00	0	42	0	1115684864	56	7103
2026-01-20 18:21:56.81	292.26	6.83	-42.3	-43.6	20.7	0.00e+00	0	42	0	1117782016	58	6123
2026-01-20 18:21:57.82	292.15	6.77	-41.9	-43.1	21.1	0.00e+00	0	42	0	1119879168	58	5775
2026-01-20 18:21:58.83	292.04	6.72	-43.2	-44.6	19.8	0.00e+00	90	42	0	1121976320	58	6855
2026-01-20 18:21:59.84	291.93	6.66	-42.7	-44.0	20.2	0.00e+00	0	43	0	1124073472	58	6409
2026-01-20 18:22:00.85	291.82	6.60	-41.9	-43.0	21.2	0.00e+00	66	42	0	1125122048	58	5745
2026-01-20 18:22:01.86	291.71	6.55	-41.8	-42.9	20.9	0.00e+00	0	43	0	1127219200	54	7143
2026-01-20 18:22:02.87	291.61	6.49	-43.3	-44.8	19.6	0.00e+00	0	42	0	1129316352	58	7025
2026-01-20 18:22:03.88	291.50	6.43	-41.8	-42.9	21.2	0.00e+00	0	43	0	1131413504	58	5686
2026-01-20 18:22:04.89	291.39	6.38	-41.8	-43.0	21.0	0.00e+00	0	42	0	1133510656	56	6443
2026-01-20 18:22:05.90	291.28	6.32	-41.7	-42.8	21.2	0.00e+00	0	42	0	1134559232	56	6317
2026-01-20 18:22:06.91	291.18	6.26	-41.9	-43.0	21.0	0.00e+00	0	43	0	1136656384	56	6451
2026-01-20 18:22:07.91	291.07	6.21	-42.1	-43.3	20.9	0.00e+00	89	42	0	1138753536	56	6640
2026-01-20 18:22:08.92	290.97	6.15	-42.2	-43.5	20.5	0.00e+00	0	43	0	1140850688	56	6780
2026-01-20 18:22:09.93	290.86	6.10	-42.3	-43.6	20.5	0.00e+00	0	43	0	1142947840	56	6893
2026-01-20 18:22:10.94	290.76	6.04	-42.2	-43.5	20.5	0.00e+00	0	42	0	1143996416	56	6813
2026-01-20 18:22:11.95	290.65	5.98	-42.4	-43.7	20.3	0.00e+00	0	42	0	1146093568	56	6979
2026-01-20 18:22:12.96	290.55	5.93	-43.6	-45.1	19.2	0.00e+00	0	42	0	1148190720	60	6483
2026-01-20 18:22:13.97	290.45	5.87	-42.2	-43.4	20.5	0.00e+00	0	42	0	1150287872	58	6012
2026-01-20 18:22:14.98	290.34	5.81	-42.1	-43.4	20.5	0.00e+00	88	43	0	1152385024	58	5967
2026-01-20 18:22:15.99	290.24	5.76	-42.3	-43.6	20.5	0.00e+00	0	43	0	1153433600	58	6144
2026-01-20 18:22:17.00	290.14	5.70	-42.7	-44.0	20.0	0.00e+00	17	42	0	1155530752	58	6459
2026-01-20 18:22:18.01	290.04	5.65	-43.1	-44.5	19.6	0.00e+00	0	42	0	1157627904	58	6840
2026-01-20 18:22:19.02	289.94	5.59	-43.7	-45.3	18.7	0.00e+00	0	43	0	1159725056	58	7443
2026-01-20 18:22:20.03	289.84	5.53	-43.7	-45.3	18.8	0.00e+00	0	42	0	1161822208	60	6661
2026-01-20 18:22:21.05	289.73	5.48	-43.7	-45.3	19.0	0.00e+00	0	43	0	1163919360	60	6641
2026-01-20 18:22:22.06	289.63	5.42	-43.4	-45.0	19.3	0.00e+00	54	43	0	1164967936	60	6411
2026-01-20 18:22:23.07	289.53	5.37	-43.5	-45.1	19.0	0.00e+00	0	42	0	1167065088	60	6469
2026-01-20 18:22:24.07	289.44	5.31	-44.0	-45.7	18.4	0.00e+00	51	43	0	1169162240	60	6973
2026-01-20 18:22:25.08	289.34	5.25	-43.3	-44.8	19.3	0.00e+00	0	42	0	1171259392	60	6275
2026-01-20 18:22:26.09	289.24	5.20	-44.1	-45.8	18.4	0.00e+00	0	43	0	1173356544	60	7035
2026-01-20 18:22:27.10	289.14	5.14	-42.2	-43.4	20.6	0.00e+00	0	42	0	1174405120	58	6011
2026-01-20 18:22:28.11	289.04	5.09	-43.0	-44.5	19.7	0.00e+00	0	42	0	1176502272	58	6775
2026-01-20 18:22:29.12	288.94	5.03	-43.5	-45.1	18.9	0.00e+00	83	43	0	1178599424	58	7274
2026-01-20 18:22:30.13	288.85	4.98	-42.6	-44.0	20.0	0.00e+00	0	43	0	1180696576	60	5715
2026-01-20 18:22:31.14	288.75	4.92	-43.5	-45.0	19.1	0.00e+00	72	43	0	1182793728	58	7222
2026-01-20 18:22:32.15	288.65	4.86	-42.0	-43.3	20.5	0.00e+00	33	43	0	1183842304	58	5931
2026-01-20 18:22:33.16	288.56	4.81	-43.1	-44.5	19.3	0.00e+00	0	43	0	1185939456	58	6826
2026-01-20 18:22:34.17	288.46	4.75	-42.9	-44.3	19.6	0.00e+00	0	43	0	1188036608	58	6664
2026-01-20 18:22:35.18	288.37	4.70	-45.0	-47.1	17.0	0.00e+00	0	42	0	1190133760	60	8189
2026-01-20 18:22:36.18	288.27	4.64	-43.7	-45.3	18.8	0.00e+00	81	43	0	1192230912	60	6684
2026-01-20 18:22:37.19	288.18	4.59	-44.3	-46.1	17.5	0.00e+00	0	43	0	1193279488	60	7294
2026-01-20 18:22:38.21	288.08	4.53	-42.9	-44.4	19.6	0.00e+00	52	43	0	1195376640	60	5980
2026-01-20 18:22:39.22	287.99	4.48	-43.4	-45.0	18.8	0.00e+00	33	43	0	1197473792	60	6392
2026-01-20 18:22:40.22	287.90	4.42	-45.0	-47.1	16.9	0.00e+00	0	43	0	1199570944	60	8228
