passes_logs/2026/01/20/R4.6S_Anadyr/R4.6S_Anadyr__20260120_172922_FENGYUN_3D_rec.log

#Pass ID: 20260120_172922_FENGYUN 3D
#Satellite: FENGYUN 3D
#Configuration: FENGYUN 3D
#almurnet v.1.7.20251203
#Start time: 2026-01-20 17:29:24

#Version: 2.2.20231116
#Station: R4.6S_Anadyr
#Location: 177.4865 lon 64.73178 lat
#TLE: 1 43010U 17072A   26019.93695019 -.00000250  00000+0 -96545-4 0  9996
#TLE: 2 43010  98.9942 351.8290 0002452 100.7901 259.3550 14.19695974423957

#Time	Az	El	Level	Level2	SNR	BER	BlckErr	Temp	State	Recorded	gain1	gain2
2026-01-20 17:29:24.65	22.72	0.12	-52.0	-69.7	3.5	3.02e+01	0	39	0	0	60	117748
2026-01-20 17:29:25.65	22.70	0.18	-51.6	-63.8	3.6	8.44e-01	0	41	104	0	60	55929
2026-01-20 17:29:26.66	22.69	0.24	-51.6	-63.8	3.6	8.45e-01	0	41	104	0	60	55958
2026-01-20 17:29:27.67	22.68	0.31	-51.5	-63.7	3.6	8.45e-01	0	41	104	0	60	55423
2026-01-20 17:29:28.68	22.66	0.37	-51.5	-63.7	3.6	8.45e-01	0	41	104	0	60	55262
2026-01-20 17:29:29.69	22.65	0.43	-51.5	-63.7	3.6	8.45e-01	0	41	104	0	60	55328
2026-01-20 17:29:30.70	22.63	0.49	-51.5	-63.7	3.6	8.45e-01	0	41	104	0	60	55074
2026-01-20 17:29:31.71	22.62	0.55	-51.5	-63.7	3.6	8.45e-01	0	41	104	0	60	55125
2026-01-20 17:29:32.72	22.61	0.61	-51.5	-63.6	3.6	8.46e-01	0	41	104	0	60	54933
2026-01-20 17:29:33.73	22.59	0.67	-51.5	-63.6	3.6	8.45e-01	0	41	104	0	60	54902
2026-01-20 17:29:34.74	22.58	0.73	-51.4	-63.6	3.6	8.46e-01	0	41	104	0	60	54542
2026-01-20 17:29:35.75	22.56	0.79	-51.4	-63.5	3.6	8.45e-01	0	41	104	0	60	54085
2026-01-20 17:29:36.76	22.55	0.85	-51.4	-63.5	3.6	8.45e-01	0	41	104	0	60	54308
2026-01-20 17:29:37.77	22.53	0.92	-51.3	-63.4	3.6	8.46e-01	0	41	104	0	60	53564
2026-01-20 17:29:38.78	22.52	0.98	-51.2	-63.4	3.6	8.45e-01	0	41	104	0	60	53461
2026-01-20 17:29:39.79	22.50	1.04	-51.1	-63.3	3.6	8.44e-01	0	41	104	0	60	52684
2026-01-20 17:29:40.80	22.49	1.10	-51.0	-63.1	3.6	8.45e-01	0	41	104	0	60	51816
2026-01-20 17:29:41.81	22.47	1.16	-50.8	-62.9	3.6	8.45e-01	0	41	104	0	60	50665
2026-01-20 17:29:42.83	22.46	1.23	-50.6	-62.8	3.6	8.46e-01	0	41	104	0	60	50160
2026-01-20 17:29:43.84	22.44	1.29	-50.6	-62.8	3.6	8.46e-01	0	41	104	0	60	49754
2026-01-20 17:29:44.85	22.43	1.35	-50.5	-62.6	3.6	8.45e-01	0	41	104	0	60	48909
2026-01-20 17:29:45.85	22.41	1.41	-50.3	-62.4	3.6	8.46e-01	0	41	104	0	60	47546
2026-01-20 17:29:46.86	22.39	1.48	-50.1	-62.2	3.6	8.45e-01	0	41	104	0	60	46622
2026-01-20 17:29:47.87	22.38	1.54	-49.8	-61.5	3.6	8.47e-01	0	41	104	0	60	42929
2026-01-20 17:29:48.88	22.36	1.60	-49.8	-61.6	3.6	8.46e-01	0	41	104	0	60	43327
2026-01-20 17:29:49.89	22.35	1.67	-49.9	-61.5	3.6	8.45e-01	0	41	104	0	60	42804
2026-01-20 17:29:50.90	22.33	1.73	-49.8	-61.2	3.6	8.44e-01	0	41	104	0	60	41687
2026-01-20 17:29:51.91	22.32	1.79	-49.8	-61.6	3.6	8.45e-01	0	41	104	0	60	43465
2026-01-20 17:29:52.92	22.30	1.86	-49.8	-61.5	3.6	8.45e-01	0	41	104	0	60	43155
2026-01-20 17:29:53.93	22.28	1.92	-49.8	-61.6	3.6	8.46e-01	0	41	104	0	60	43340
2026-01-20 17:29:54.94	22.27	1.98	-49.9	-61.9	3.6	8.45e-01	0	41	104	0	60	44952
2026-01-20 17:29:55.95	22.25	2.05	-49.8	-62.0	3.6	8.45e-01	0	41	104	0	60	45387
2026-01-20 17:29:56.96	22.23	2.11	-49.9	-62.0	3.6	8.44e-01	0	41	104	0	60	45417
2026-01-20 17:29:57.97	22.22	2.18	-49.8	-61.9	3.6	8.45e-01	0	41	104	0	60	44807
2026-01-20 17:29:58.98	22.20	2.24	-49.8	-61.8	3.6	8.46e-01	0	41	104	0	60	44581
2026-01-20 17:29:59.99	22.18	2.31	-49.8	-61.6	3.6	8.45e-01	0	41	104	0	60	43546
2026-01-20 17:30:01.00	22.17	2.37	-49.8	-61.1	3.6	8.45e-01	0	41	104	0	60	41245
2026-01-20 17:30:02.01	22.15	2.43	-49.7	-60.9	3.6	8.46e-01	0	41	104	0	60	40009
2026-01-20 17:30:03.02	22.13	2.50	-49.6	-60.0	3.6	8.43e-01	0	41	104	0	60	36140
2026-01-20 17:30:04.03	22.12	2.57	-49.6	-59.7	3.6	8.44e-01	0	41	104	0	60	34796
2026-01-20 17:30:05.04	22.10	2.63	-49.7	-60.5	3.6	8.44e-01	0	41	104	0	60	38311
2026-01-20 17:30:06.05	22.08	2.70	-49.7	-60.2	3.6	8.44e-01	0	41	104	0	60	36884
2026-01-20 17:30:07.06	22.07	2.76	-49.7	-60.8	3.6	8.45e-01	0	41	104	0	60	39537
2026-01-20 17:30:08.07	22.05	2.83	-49.8	-61.5	3.6	8.45e-01	0	41	104	0	60	42858
2026-01-20 17:30:09.08	22.03	2.89	-49.7	-61.2	3.6	8.46e-01	0	41	104	0	60	41559
2026-01-20 17:30:10.09	22.01	2.96	-49.7	-60.3	3.6	8.44e-01	0	41	104	0	60	37456
2026-01-20 17:30:11.10	21.99	3.03	-49.2	-56.9	4.5	8.41e-01	0	41	104	0	60	25245
2026-01-20 17:30:12.11	21.98	3.09	-48.8	-54.0	6.6	6.49e-01	0	41	0	1048576	60	18186
2026-01-20 17:30:13.12	21.96	3.16	-46.3	-48.9	12.1	1.97e-02	0	41	0	6291456	60	10024
2026-01-20 17:30:14.13	21.94	3.23	-47.3	-50.6	9.7	6.57e-03	0	41	0	12582912	60	12178
2026-01-20 17:30:15.14	21.92	3.29	-46.6	-49.4	11.3	1.61e-03	0	41	0	17825792	60	10696
2026-01-20 17:30:16.15	21.90	3.36	-45.7	-48.0	13.1	6.73e-04	0	42	0	23068672	60	9042
2026-01-20 17:30:17.16	21.89	3.43	-44.7	-46.5	14.3	0.00e+00	0	41	0	29360128	60	7626
2026-01-20 17:30:18.17	21.87	3.49	-45.1	-47.1	13.9	0.00e+00	0	41	0	34603008	60	8199
2026-01-20 17:30:19.18	21.85	3.56	-44.0	-45.6	15.3	0.00e+00	0	41	0	40894464	60	6915
2026-01-20 17:30:20.19	21.83	3.63	-45.4	-47.5	13.3	1.60e-05	0	41	0	46137344	60	8575
2026-01-20 17:30:21.20	21.81	3.70	-45.1	-47.1	13.9	1.94e-05	0	42	0	51380224	60	8186
2026-01-20 17:30:22.21	21.79	3.76	-45.6	-47.8	12.1	1.71e-05	0	41	0	57671680	60	8904
2026-01-20 17:30:23.22	21.77	3.83	-49.8	-60.8	3.6	8.45e-01	0	41	104	58720256	60	39525
2026-01-20 17:30:24.23	21.75	3.90	-46.6	-49.4	5.7	8.14e-01	0	41	104	58720256	60	10707
2026-01-20 17:30:25.24	21.74	3.97	-49.7	-60.3	3.6	8.46e-01	0	41	104	58720256	60	37339
2026-01-20 17:30:26.25	21.72	4.04	-38.7	-39.5	21.3	0.00e+00	0	41	0	58720256	50	6100
2026-01-20 17:30:27.26	21.70	4.11	-49.7	-59.2	3.6	8.44e-01	0	41	104	60817408	60	33010
2026-01-20 17:30:28.27	21.68	4.18	-38.9	-39.8	21.1	0.00e+00	0	41	0	62914560	50	6261
2026-01-20 17:30:29.28	21.66	4.25	-38.5	-39.3	22.1	0.00e+00	0	41	0	68157440	52	5288
2026-01-20 17:30:30.29	21.64	4.31	-38.6	-39.5	21.2	0.00e+00	0	41	0	74448896	50	6034
2026-01-20 17:30:31.30	21.62	4.38	-38.9	-39.7	21.3	0.00e+00	0	41	0	79691776	50	6225
2026-01-20 17:30:32.31	21.60	4.45	-39.5	-40.4	20.7	0.00e+00	0	41	0	85983232	50	6737
2026-01-20 17:30:33.32	21.58	4.52	-37.8	-38.6	22.5	0.00e+00	0	41	0	91226112	50	5445
2026-01-20 17:30:34.33	21.56	4.59	-39.0	-39.8	21.2	0.00e+00	0	41	0	97517568	50	6281
2026-01-20 17:30:35.34	21.54	4.66	-38.8	-39.6	21.5	0.00e+00	0	41	0	102760448	52	5496
2026-01-20 17:30:36.35	21.52	4.73	-39.6	-40.5	21.0	0.00e+00	0	42	0	108003328	50	6780
2026-01-20 17:30:37.36	21.50	4.81	-38.3	-39.1	22.1	0.00e+00	0	41	0	114294784	50	5804
2026-01-20 17:30:38.37	21.48	4.88	-38.1	-38.9	21.9	0.00e+00	0	41	0	119537664	48	6339
2026-01-20 17:30:39.38	21.45	4.95	-38.4	-39.2	22.1	0.00e+00	0	41	0	125829120	50	5878
2026-01-20 17:30:40.39	21.43	5.02	-37.9	-38.7	22.2	0.00e+00	0	42	0	131072000	50	5552
2026-01-20 17:30:41.40	21.41	5.09	-39.0	-39.9	21.4	0.00e+00	0	41	0	136314880	50	6328
2026-01-20 17:30:42.41	21.39	5.16	-38.7	-39.6	21.6	0.00e+00	0	42	0	142606336	50	6105
2026-01-20 17:30:43.42	21.37	5.23	-37.9	-38.6	22.4	0.00e+00	0	42	0	147849216	48	6163
2026-01-20 17:30:44.43	21.35	5.30	-38.2	-39.0	22.0	0.00e+00	0	42	0	154140672	48	6418
2026-01-20 17:30:45.44	21.33	5.38	-38.8	-39.7	21.4	0.00e+00	0	42	0	159383552	48	6969
2026-01-20 17:30:46.45	21.30	5.45	-37.7	-38.5	22.4	0.00e+00	0	41	0	164626432	48	6054
2026-01-20 17:30:47.46	21.28	5.52	-38.3	-39.1	22.2	0.00e+00	0	42	0	170917888	48	6505
2026-01-20 17:30:48.47	21.26	5.59	-37.6	-38.4	22.7	0.00e+00	0	41	0	176160768	48	5978
2026-01-20 17:30:49.48	21.24	5.67	-38.6	-39.4	21.8	0.00e+00	0	42	0	182452224	48	6739
2026-01-20 17:30:50.49	21.22	5.74	-37.8	-38.6	22.3	0.00e+00	0	42	0	187695104	48	6105
2026-01-20 17:30:51.50	21.19	5.81	-39.1	-40.0	21.8	0.00e+00	0	42	0	193986560	50	6409
2026-01-20 17:30:52.51	21.17	5.89	-38.1	-38.8	22.4	0.00e+00	0	42	0	199229440	48	6316
2026-01-20 17:30:53.52	21.15	5.96	-37.7	-38.5	22.6	0.00e+00	0	42	0	205520896	48	6037
2026-01-20 17:30:54.53	21.13	6.03	-37.8	-38.6	22.7	0.00e+00	0	41	0	210763776	48	6107
2026-01-20 17:30:55.54	21.10	6.11	-37.8	-38.7	22.5	0.00e+00	0	41	0	216006656	48	6174
2026-01-20 17:30:56.55	21.08	6.18	-38.1	-38.9	22.4	0.00e+00	0	42	0	222298112	48	6377
2026-01-20 17:30:57.56	21.06	6.26	-37.5	-38.3	22.8	0.00e+00	0	41	0	227540992	48	5949
2026-01-20 17:30:58.57	21.03	6.33	-37.7	-38.5	22.7	0.00e+00	0	41	0	233832448	48	6075
2026-01-20 17:30:59.58	21.01	6.41	-38.0	-38.7	22.6	0.00e+00	0	42	0	239075328	48	6234
2026-01-20 17:31:00.59	20.99	6.48	-38.0	-38.8	22.6	0.00e+00	0	41	0	244318208	48	6251
2026-01-20 17:31:01.60	20.96	6.56	-38.2	-39.0	22.3	0.00e+00	0	41	0	250609664	48	6450
2026-01-20 17:31:02.61	20.94	6.63	-38.7	-39.5	21.6	0.00e+00	0	41	0	255852544	48	6795
2026-01-20 17:31:03.62	20.91	6.71	-38.0	-38.8	22.5	0.00e+00	0	41	0	262144000	50	5592
2026-01-20 17:31:04.63	20.89	6.79	-38.1	-38.9	22.4	0.00e+00	0	42	0	267386880	50	5669
2026-01-20 17:31:05.63	20.87	6.86	-37.6	-38.3	23.0	0.00e+00	0	42	0	272629760	48	5964
2026-01-20 17:31:06.65	20.84	6.94	-37.9	-38.7	22.5	0.00e+00	0	42	0	278921216	48	6203
2026-01-20 17:31:07.66	20.82	7.01	-38.1	-38.9	22.7	0.00e+00	0	42	0	284164096	48	6328
2026-01-20 17:31:08.67	20.79	7.09	-37.7	-38.5	22.9	0.00e+00	0	41	0	290455552	48	6044
2026-01-20 17:31:09.68	20.77	7.17	-37.7	-38.4	22.9	0.00e+00	0	42	0	295698432	48	6023
2026-01-20 17:31:10.68	20.74	7.25	-37.4	-38.2	23.2	0.00e+00	0	41	0	301989888	48	5857
2026-01-20 17:31:11.70	20.72	7.32	-37.5	-38.3	23.0	0.00e+00	0	42	0	307232768	48	5937
2026-01-20 17:31:12.71	20.69	7.40	-37.4	-38.1	23.2	0.00e+00	0	42	0	312475648	48	5791
2026-01-20 17:31:13.72	20.67	7.48	-37.4	-38.2	23.3	0.00e+00	0	42	0	318767104	48	5829
2026-01-20 17:31:14.73	20.64	7.56	-37.2	-38.0	23.3	0.00e+00	0	42	0	324009984	48	5709
2026-01-20 17:31:15.74	20.61	7.64	-37.2	-38.0	23.3	0.00e+00	0	42	0	330301440	48	5712
2026-01-20 17:31:16.75	20.59	7.71	-37.3	-38.1	23.1	0.00e+00	0	42	0	335544320	48	5791
2026-01-20 17:31:17.76	20.56	7.79	-37.6	-38.4	23.1	0.00e+00	0	42	0	340787200	48	5966
2026-01-20 17:31:18.77	20.53	7.87	-37.1	-37.9	23.4	0.00e+00	0	42	0	347078656	48	5640
2026-01-20 17:31:19.78	20.51	7.95	-37.3	-38.0	23.3	0.00e+00	0	42	0	352321536	48	5751
2026-01-20 17:31:20.79	20.48	8.03	-37.4	-38.1	23.2	0.00e+00	0	42	0	358612992	48	5795
2026-01-20 17:31:21.80	20.45	8.11	-37.2	-37.9	23.3	0.00e+00	0	42	0	363855872	48	5685
2026-01-20 17:31:22.81	20.43	8.19	-37.7	-38.4	23.1	0.00e+00	0	42	0	369098752	48	6023
2026-01-20 17:31:23.82	20.40	8.27	-37.3	-38.0	23.4	0.00e+00	0	42	0	375390208	48	5717
2026-01-20 17:31:24.83	20.37	8.35	-37.3	-38.0	23.4	0.00e+00	0	42	0	380633088	48	5748
2026-01-20 17:31:25.84	20.35	8.43	-37.1	-37.9	23.5	0.00e+00	0	42	0	386924544	48	5663
2026-01-20 17:31:26.85	20.32	8.52	-37.2	-37.9	23.5	0.00e+00	0	42	0	392167424	48	5670
2026-01-20 17:31:27.86	20.29	8.60	-37.0	-37.7	23.6	0.00e+00	0	42	0	398458880	48	5563
2026-01-20 17:31:28.87	20.26	8.68	-36.8	-37.6	23.8	0.00e+00	0	42	0	403701760	48	5443
2026-01-20 17:31:29.88	20.23	8.76	-37.0	-37.7	23.6	0.00e+00	0	42	0	409993216	48	5560
2026-01-20 17:31:30.89	20.20	8.84	-37.0	-37.8	23.6	0.00e+00	0	42	0	415236096	48	5582
2026-01-20 17:31:31.90	20.18	8.93	-36.8	-37.5	23.9	0.00e+00	0	42	0	420478976	46	6095
2026-01-20 17:31:32.91	20.15	9.01	-36.9	-37.6	23.8	0.00e+00	0	42	0	426770432	46	6134
2026-01-20 17:31:33.92	20.12	9.09	-36.9	-37.6	23.9	0.00e+00	0	42	0	432013312	46	6139
2026-01-20 17:31:34.93	20.09	9.17	-37.0	-37.7	23.6	0.00e+00	0	42	0	438304768	46	6191
2026-01-20 17:31:35.94	20.06	9.26	-37.2	-37.9	23.6	0.00e+00	0	42	0	443547648	46	6351
2026-01-20 17:31:36.95	20.03	9.34	-36.7	-37.4	24.0	0.00e+00	0	42	0	448790528	46	5982
2026-01-20 17:31:37.96	20.00	9.43	-37.2	-37.9	23.7	0.00e+00	0	42	0	455081984	46	6337
2026-01-20 17:31:38.97	19.97	9.51	-37.3	-38.0	23.5	0.00e+00	0	42	0	460324864	46	6410
2026-01-20 17:31:39.98	19.94	9.59	-37.0	-37.7	23.8	0.00e+00	0	42	0	466616320	46	6217
2026-01-20 17:31:40.99	19.91	9.68	-37.1	-37.8	23.8	0.00e+00	0	42	0	471859200	46	6278
2026-01-20 17:31:42.00	19.88	9.77	-36.5	-37.3	24.3	0.00e+00	0	42	0	477102080	46	5904
2026-01-20 17:31:43.01	19.85	9.85	-36.8	-37.5	24.0	0.00e+00	0	42	0	483393536	46	6065
2026-01-20 17:31:44.02	19.82	9.94	-36.8	-37.5	24.1	0.00e+00	0	42	0	488636416	46	6046
2026-01-20 17:31:45.03	19.78	10.02	-36.6	-37.3	24.1	0.00e+00	0	42	0	494927872	46	5942
2026-01-20 17:31:46.04	19.75	10.11	-36.6	-37.3	24.1	0.00e+00	0	42	0	500170752	46	5935
2026-01-20 17:31:47.05	19.72	10.20	-36.6	-37.3	24.3	0.00e+00	0	42	0	506462208	46	5936
2026-01-20 17:31:48.06	19.69	10.28	-36.4	-37.1	24.4	0.00e+00	0	42	0	511705088	46	5802
2026-01-20 17:31:49.07	19.66	10.37	-36.6	-37.3	24.1	0.00e+00	0	42	0	517996544	46	5915
2026-01-20 17:31:50.08	19.62	10.46	-36.6	-37.3	24.2	0.00e+00	0	42	0	523239424	46	5927
2026-01-20 17:31:51.09	19.59	10.55	-36.3	-37.0	24.5	0.00e+00	0	42	0	528482304	46	5696
2026-01-20 17:31:52.10	19.56	10.63	-36.6	-37.3	24.1	0.00e+00	0	42	0	534773760	46	5955
2026-01-20 17:31:53.11	19.53	10.72	-36.5	-37.2	24.3	0.00e+00	0	42	0	540016640	46	5888
2026-01-20 17:31:54.12	19.49	10.81	-36.2	-36.9	24.4	0.00e+00	0	42	0	546308096	46	5685
2026-01-20 17:31:55.13	19.46	10.90	-36.1	-36.8	24.6	0.00e+00	0	42	0	551550976	46	5587
2026-01-20 17:31:56.14	19.43	10.99	-36.1	-36.8	24.6	0.00e+00	0	42	0	556793856	46	5574
2026-01-20 17:31:57.15	19.39	11.08	-36.2	-36.9	24.6	0.00e+00	0	42	0	563085312	46	5644
2026-01-20 17:31:58.16	19.36	11.17	-36.4	-37.1	24.3	0.00e+00	0	42	0	568328192	46	5823
2026-01-20 17:31:59.17	19.32	11.26	-36.5	-37.2	24.3	0.00e+00	0	42	0	574619648	46	5864
2026-01-20 17:32:00.18	19.29	11.35	-36.5	-37.2	24.2	0.00e+00	0	42	0	579862528	46	5890
2026-01-20 17:32:01.19	19.25	11.44	-36.2	-36.9	24.6	0.00e+00	0	42	0	585105408	46	5645
2026-01-20 17:32:02.20	19.22	11.53	-36.3	-37.0	24.5	0.00e+00	0	42	0	591396864	46	5707
2026-01-20 17:32:03.21	19.18	11.62	-35.6	-36.3	25.0	0.00e+00	0	42	0	596639744	44	5938
2026-01-20 17:32:04.22	19.15	11.72	-35.9	-36.6	24.8	0.00e+00	0	42	0	602931200	44	6142
2026-01-20 17:32:05.23	19.11	11.81	-35.9	-36.6	24.9	0.00e+00	0	42	0	608174080	44	6122
2026-01-20 17:32:06.24	19.08	11.90	-36.0	-36.6	24.8	0.00e+00	0	42	0	614465536	44	6171
2026-01-20 17:32:07.25	19.04	11.99	-35.7	-36.4	25.0	0.00e+00	0	42	0	619708416	44	6003
2026-01-20 17:32:08.26	19.00	12.09	-36.0	-36.6	24.8	0.00e+00	0	42	0	624951296	44	6173
2026-01-20 17:32:09.27	18.97	12.18	-35.7	-36.4	25.0	0.00e+00	0	42	0	631242752	44	5999
2026-01-20 17:32:10.28	18.93	12.28	-35.7	-36.4	25.0	0.00e+00	0	42	0	636485632	44	6007
2026-01-20 17:32:11.29	18.89	12.37	-35.6	-36.3	25.0	0.00e+00	0	42	0	642777088	44	5924
2026-01-20 17:32:12.30	18.85	12.46	-36.2	-36.9	24.5	0.00e+00	0	42	0	648019968	44	6357
2026-01-20 17:32:13.31	18.82	12.56	-35.8	-36.5	25.0	0.00e+00	0	42	0	654311424	44	6085
2026-01-20 17:32:14.32	18.78	12.65	-35.8	-36.5	24.9	0.00e+00	0	42	0	659554304	44	6097
2026-01-20 17:32:15.33	18.74	12.75	-35.9	-36.6	24.9	0.00e+00	0	42	0	664797184	44	6151
2026-01-20 17:32:16.34	18.70	12.85	-35.9	-36.6	24.9	0.00e+00	0	42	0	671088640	44	6131
2026-01-20 17:32:17.35	18.66	12.94	-35.8	-36.5	24.9	0.00e+00	0	42	0	676331520	44	6087
2026-01-20 17:32:18.36	18.62	13.04	-35.9	-36.6	24.8	0.00e+00	0	42	0	682622976	44	6159
2026-01-20 17:32:19.37	18.58	13.14	-35.9	-36.5	24.9	0.00e+00	0	42	0	687865856	44	6101
2026-01-20 17:32:20.38	18.54	13.24	-35.8	-36.5	24.9	0.00e+00	0	42	0	693108736	44	6068
2026-01-20 17:32:21.39	18.50	13.33	-36.0	-36.7	24.8	0.00e+00	0	42	0	699400192	44	6230
2026-01-20 17:32:22.40	18.46	13.43	-35.6	-36.3	25.2	0.00e+00	0	42	0	704643072	44	5923
2026-01-20 17:32:23.41	18.42	13.53	-35.7	-36.3	25.1	0.00e+00	0	42	0	710934528	44	5964
2026-01-20 17:32:24.43	18.38	13.63	-35.7	-36.4	25.1	0.00e+00	0	42	0	716177408	44	6010
2026-01-20 17:32:25.44	18.34	13.73	-35.6	-36.3	25.3	0.00e+00	0	42	0	722468864	44	5938
2026-01-20 17:32:26.45	18.30	13.83	-35.6	-36.3	25.2	0.00e+00	0	42	0	727711744	44	5925
2026-01-20 17:32:27.45	18.25	13.93	-35.6	-36.3	25.1	0.00e+00	0	42	0	732954624	44	5916
2026-01-20 17:32:28.46	18.21	14.03	-35.7	-36.4	25.1	0.00e+00	0	42	0	739246080	44	5970
2026-01-20 17:32:29.47	18.17	14.13	-35.7	-36.4	25.1	0.00e+00	0	42	0	744488960	44	5995
2026-01-20 17:32:30.48	18.13	14.23	-35.5	-36.1	25.2	0.00e+00	0	42	0	750780416	44	5818
2026-01-20 17:32:31.50	18.08	14.34	-35.6	-36.2	25.3	0.00e+00	0	42	0	756023296	44	5892
2026-01-20 17:32:32.50	18.04	14.44	-35.5	-36.2	25.3	0.00e+00	0	42	0	761266176	44	5863
2026-01-20 17:32:33.51	17.99	14.54	-35.5	-36.1	25.4	0.00e+00	0	42	0	767557632	44	5819
2026-01-20 17:32:34.52	17.95	14.64	-35.5	-36.1	25.4	0.00e+00	0	42	0	772800512	44	5814
2026-01-20 17:32:35.54	17.91	14.75	-35.6	-36.3	25.4	0.00e+00	0	42	0	779091968	44	5920
2026-01-20 17:32:36.54	17.86	14.85	-35.4	-36.0	25.4	0.00e+00	0	42	0	784334848	44	5754
2026-01-20 17:32:37.55	17.82	14.96	-35.8	-36.5	25.1	0.00e+00	0	42	0	789577728	44	6035
2026-01-20 17:32:38.56	17.77	15.06	-35.3	-36.0	25.6	0.00e+00	0	42	0	795869184	44	5744
2026-01-20 17:32:39.57	17.72	15.17	-35.6	-36.3	25.4	0.00e+00	0	42	0	801112064	44	5930
2026-01-20 17:32:40.58	17.68	15.27	-35.3	-35.9	25.5	0.00e+00	0	42	0	807403520	44	5693
2026-01-20 17:32:41.59	17.63	15.38	-35.5	-36.2	25.3	0.00e+00	0	42	0	812646400	44	5880
2026-01-20 17:32:42.60	17.58	15.49	-35.3	-36.0	25.6	0.00e+00	0	42	0	818937856	44	5703
2026-01-20 17:32:43.61	17.54	15.59	-35.3	-35.9	25.6	0.00e+00	0	42	0	824180736	44	5692
2026-01-20 17:32:44.62	17.49	15.70	-35.3	-36.0	25.5	0.00e+00	0	42	0	830472192	44	5742
2026-01-20 17:32:45.63	17.44	15.81	-35.0	-35.7	25.8	0.00e+00	0	42	0	835715072	44	5515
2026-01-20 17:32:46.64	17.39	15.92	-35.1	-35.8	25.7	0.00e+00	0	42	0	840957952	44	5588
2026-01-20 17:32:47.65	17.34	16.03	-34.9	-35.5	25.9	0.00e+00	0	42	0	847249408	44	5435
2026-01-20 17:32:48.66	17.29	16.14	-34.8	-35.4	26.0	0.00e+00	0	42	0	852492288	44	5341
2026-01-20 17:32:49.67	17.24	16.25	-34.9	-35.6	25.9	0.00e+00	0	42	0	858783744	42	6132
2026-01-20 17:32:50.68	17.19	16.36	-35.0	-35.7	26.0	0.00e+00	0	42	0	864026624	42	6211
2026-01-20 17:32:51.69	17.14	16.47	-34.7	-35.3	26.1	0.00e+00	0	42	0	869269504	42	5964
2026-01-20 17:32:52.70	17.09	16.58	-34.7	-35.3	26.1	0.00e+00	0	42	0	875560960	42	5953
2026-01-20 17:32:53.71	17.04	16.69	-34.6	-35.2	26.3	0.00e+00	0	42	0	880803840	42	5891
2026-01-20 17:32:54.72	16.99	16.80	-34.6	-35.2	26.2	0.00e+00	0	42	0	887095296	42	5886
2026-01-20 17:32:55.73	16.94	16.92	-34.5	-35.1	26.4	0.00e+00	0	42	0	892338176	42	5787
2026-01-20 17:32:56.74	16.88	17.03	-34.4	-35.1	26.4	0.00e+00	0	42	0	897581056	42	5777
2026-01-20 17:32:57.75	16.83	17.14	-34.3	-34.9	26.5	0.00e+00	0	42	0	903872512	42	5679
2026-01-20 17:32:58.76	16.78	17.26	-34.3	-35.0	26.5	0.00e+00	0	42	0	909115392	42	5701
2026-01-20 17:32:59.78	16.72	17.37	-34.3	-34.9	26.5	0.00e+00	0	42	0	915406848	42	5679
2026-01-20 17:33:00.79	16.67	17.49	-34.3	-35.0	26.4	0.00e+00	0	42	0	920649728	42	5696
2026-01-20 17:33:01.80	16.61	17.60	-34.2	-34.9	26.5	0.00e+00	0	42	0	926941184	42	5632
2026-01-20 17:33:02.81	16.56	17.72	-34.3	-34.9	26.5	0.00e+00	0	42	0	932184064	42	5672
2026-01-20 17:33:03.82	16.50	17.84	-34.1	-34.8	26.7	0.00e+00	0	42	0	938475520	42	5579
2026-01-20 17:33:04.83	16.45	17.96	-34.2	-34.8	26.5	0.00e+00	0	42	0	943718400	42	5611
2026-01-20 17:33:05.84	16.39	18.07	-34.2	-34.8	26.6	0.00e+00	0	42	0	948961280	42	5589
2026-01-20 17:33:06.85	16.33	18.19	-34.1	-34.7	26.7	0.00e+00	0	42	0	955252736	42	5546
2026-01-20 17:33:07.86	16.27	18.31	-34.1	-34.8	26.7	0.00e+00	0	42	0	960495616	42	5580
2026-01-20 17:33:08.87	16.22	18.43	-34.0	-34.7	26.8	0.00e+00	0	42	0	966787072	42	5510
2026-01-20 17:33:09.88	16.16	18.55	-34.0	-34.7	26.7	0.00e+00	0	42	0	972029952	42	5508
2026-01-20 17:33:10.89	16.10	18.67	-34.0	-34.7	26.7	0.00e+00	0	42	0	977272832	42	5536
2026-01-20 17:33:11.90	16.04	18.79	-33.9	-34.6	26.8	0.00e+00	0	42	0	983564288	42	5462
2026-01-20 17:33:12.91	15.98	18.91	-34.1	-34.7	26.7	0.00e+00	0	42	0	988807168	42	5552
2026-01-20 17:33:13.92	15.92	19.04	-34.0	-34.7	26.8	0.00e+00	0	42	0	995098624	42	5527
2026-01-20 17:33:14.93	15.86	19.16	-33.9	-34.5	26.9	0.00e+00	0	42	0	1000341504	42	5410
2026-01-20 17:33:15.94	15.80	19.28	-34.0	-34.7	26.7	0.00e+00	0	42	0	1005584384	42	5521
2026-01-20 17:33:16.95	15.73	19.41	-34.0	-34.6	26.8	0.00e+00	0	42	0	1011875840	42	5496
2026-01-20 17:33:17.96	15.67	19.53	-34.3	-34.9	26.5	0.00e+00	0	42	0	1017118720	42	5679
2026-01-20 17:33:18.97	15.61	19.66	-34.0	-34.7	26.8	0.00e+00	0	42	0	1023410176	42	5510
2026-01-20 17:33:19.98	15.54	19.78	-34.0	-34.6	26.8	0.00e+00	0	42	0	1028653056	42	5476
2026-01-20 17:33:20.99	15.48	19.91	-34.1	-34.7	26.7	0.00e+00	0	42	0	1034944512	42	5536
2026-01-20 17:33:22.00	15.41	20.04	-34.1	-34.8	26.7	0.00e+00	0	42	0	1040187392	42	5583
2026-01-20 17:33:23.01	15.35	20.17	-34.0	-34.7	26.8	0.00e+00	0	42	0	1046478848	42	5516
2026-01-20 17:33:24.02	15.28	20.29	-34.2	-34.8	26.6	0.00e+00	0	42	0	1051721728	42	5626
2026-01-20 17:33:25.03	15.22	20.42	-34.1	-34.7	26.6	0.00e+00	0	42	0	1056964608	42	5551
2026-01-20 17:33:26.04	15.15	20.55	-34.4	-35.0	26.7	0.00e+00	0	42	0	1063256064	42	5734
2026-01-20 17:33:27.05	15.08	20.68	-34.1	-34.8	26.6	0.00e+00	0	42	0	1068498944	42	5574
2026-01-20 17:33:28.07	15.01	20.81	-34.2	-34.9	26.6	0.00e+00	0	42	0	1074790400	42	5652
2026-01-20 17:33:29.07	14.94	20.94	-34.2	-34.9	26.6	0.00e+00	0	42	0	1080033280	42	5654
2026-01-20 17:33:30.08	14.87	21.08	-34.1	-34.8	26.7	0.00e+00	0	42	0	1085276160	42	5570
2026-01-20 17:33:31.09	14.80	21.21	-34.2	-34.9	26.7	0.00e+00	0	42	0	1091567616	42	5640
2026-01-20 17:33:32.10	14.73	21.34	-33.9	-34.6	26.9	0.00e+00	0	42	0	1096810496	42	5440
2026-01-20 17:33:33.11	14.66	21.48	-33.9	-34.6	26.9	0.00e+00	0	42	0	1103101952	42	5440
2026-01-20 17:33:34.12	14.59	21.61	-33.9	-34.5	26.9	0.00e+00	0	42	0	1108344832	42	5420
2026-01-20 17:33:35.13	14.51	21.75	-33.7	-34.4	27.1	0.00e+00	0	42	0	1113587712	42	5337
2026-01-20 17:33:36.14	14.44	21.88	-33.7	-34.3	27.1	0.00e+00	0	42	0	1119879168	40	5942
2026-01-20 17:33:37.15	14.37	22.02	-33.7	-34.4	27.0	0.00e+00	0	42	0	1125122048	40	5965
2026-01-20 17:33:38.16	14.29	22.16	-33.7	-34.3	27.1	0.00e+00	0	42	0	1131413504	40	5951
2026-01-20 17:33:39.17	14.21	22.30	-33.7	-34.3	27.2	0.00e+00	0	42	0	1136656384	40	5925
2026-01-20 17:33:40.18	14.14	22.44	-33.2	-33.9	27.4	0.00e+00	0	42	0	1142947840	40	5635
2026-01-20 17:33:41.19	14.06	22.58	-33.5	-34.1	27.3	0.00e+00	0	42	0	1148190720	40	5816
2026-01-20 17:33:42.20	13.98	22.72	-33.3	-33.9	27.4	0.00e+00	0	42	0	1153433600	40	5648
2026-01-20 17:33:43.21	13.90	22.86	-33.3	-33.9	27.3	0.00e+00	0	42	0	1159725056	40	5692
2026-01-20 17:33:44.22	13.82	23.00	-33.6	-34.3	27.2	0.00e+00	0	42	0	1164967936	40	5898
2026-01-20 17:33:45.23	13.74	23.14	-33.5	-34.1	27.2	0.00e+00	0	42	0	1171259392	40	5797
2026-01-20 17:33:46.24	13.66	23.28	-33.5	-34.1	27.1	0.00e+00	0	42	0	1176502272	40	5815
2026-01-20 17:33:47.25	13.58	23.43	-33.6	-34.2	27.3	0.00e+00	0	42	0	1181745152	40	5881
2026-01-20 17:33:48.27	13.50	23.57	-33.1	-33.7	27.6	0.00e+00	0	42	0	1188036608	40	5534
2026-01-20 17:33:49.28	13.41	23.72	-33.2	-33.8	27.5	0.00e+00	0	42	0	1193279488	40	5615
2026-01-20 17:33:50.29	13.33	23.87	-33.4	-34.0	27.4	0.00e+00	0	42	0	1199570944	40	5729
2026-01-20 17:33:51.30	13.25	24.01	-33.1	-33.8	27.5	0.00e+00	0	42	0	1204813824	40	5580
2026-01-20 17:33:52.31	13.16	24.16	-33.3	-33.9	27.5	0.00e+00	0	42	0	1210056704	40	5663
2026-01-20 17:33:53.32	13.07	24.31	-33.2	-33.8	27.6	0.00e+00	0	42	0	1216348160	40	5588
2026-01-20 17:33:54.33	12.98	24.46	-33.1	-33.7	27.7	0.00e+00	0	42	0	1221591040	40	5563
2026-01-20 17:33:55.34	12.90	24.61	-33.2	-33.8	27.5	0.00e+00	0	42	0	1227882496	40	5612
2026-01-20 17:33:56.35	12.81	24.76	-33.1	-33.7	27.6	0.00e+00	0	42	0	1233125376	40	5555
2026-01-20 17:33:57.36	12.72	24.91	-33.0	-33.6	27.7	0.00e+00	0	42	0	1239416832	40	5485
2026-01-20 17:33:58.37	12.63	25.06	-33.0	-33.7	27.7	0.00e+00	0	42	0	1244659712	40	5515
2026-01-20 17:33:59.38	12.53	25.22	-32.9	-33.5	27.8	0.00e+00	0	42	0	1250951168	40	5432
2026-01-20 17:34:00.39	12.44	25.37	-33.0	-33.7	27.7	0.00e+00	0	42	0	1256194048	40	5519
2026-01-20 17:34:01.39	12.35	25.52	-33.1	-33.7	27.7	0.00e+00	0	42	0	1261436928	40	5522
2026-01-20 17:34:02.40	12.25	25.68	-32.9	-33.5	27.8	0.00e+00	0	42	0	1267728384	40	5410
2026-01-20 17:34:03.41	12.16	25.84	-32.8	-33.4	27.9	0.00e+00	0	42	0	1272971264	40	5331
2026-01-20 17:34:04.42	12.06	25.99	-32.8	-33.4	27.9	0.00e+00	0	42	0	1279262720	38	6015
2026-01-20 17:34:05.43	11.96	26.15	-33.0	-33.6	27.8	0.00e+00	0	42	0	1284505600	38	6129
2026-01-20 17:34:06.44	11.86	26.31	-32.8	-33.5	27.9	0.00e+00	0	42	0	1289748480	38	6048
2026-01-20 17:34:07.45	11.76	26.47	-32.9	-33.5	27.7	0.00e+00	0	42	0	1296039936	38	6073
2026-01-20 17:34:08.46	11.66	26.63	-33.1	-33.7	27.8	0.00e+00	0	42	0	1301282816	38	6207
2026-01-20 17:34:09.47	11.56	26.79	-33.0	-33.6	27.7	0.00e+00	0	42	0	1307574272	38	6167
2026-01-20 17:34:10.48	11.46	26.95	-32.9	-33.5	27.8	0.00e+00	0	42	0	1312817152	38	6080
2026-01-20 17:34:11.49	11.35	27.12	-33.1	-33.7	27.7	0.00e+00	0	42	0	1318060032	38	6219
2026-01-20 17:34:12.50	11.25	27.28	-33.1	-33.7	27.7	0.00e+00	0	42	0	1324351488	38	6226
2026-01-20 17:34:13.51	11.14	27.45	-33.3	-33.9	27.5	0.00e+00	0	42	0	1329594368	38	6388
2026-01-20 17:34:14.52	11.03	27.61	-33.0	-33.6	27.9	0.00e+00	0	42	0	1335885824	38	6124
2026-01-20 17:34:15.53	10.92	27.78	-33.0	-33.6	27.8	0.00e+00	0	42	0	1341128704	38	6136
2026-01-20 17:34:16.54	10.81	27.95	-33.2	-33.8	27.7	0.00e+00	0	42	0	1347420160	38	6312
2026-01-20 17:34:17.55	10.70	28.12	-33.2	-33.8	27.8	0.00e+00	0	42	0	1352663040	38	6274
2026-01-20 17:34:18.57	10.59	28.29	-32.9	-33.5	27.7	0.00e+00	0	42	0	1358954496	38	6086
2026-01-20 17:34:19.57	10.48	28.46	-33.0	-33.6	27.8	0.00e+00	0	42	0	1364197376	38	6132
2026-01-20 17:34:20.58	10.36	28.63	-32.9	-33.5	27.9	0.00e+00	0	42	0	1369440256	38	6085
2026-01-20 17:34:21.59	10.25	28.80	-32.9	-33.5	27.9	0.00e+00	0	42	0	1375731712	38	6067
2026-01-20 17:34:22.60	10.13	28.97	-32.9	-33.5	27.9	0.00e+00	0	42	0	1380974592	38	6082
2026-01-20 17:34:23.61	10.01	29.15	-33.0	-33.6	27.8	0.00e+00	0	42	0	1387266048	38	6155
2026-01-20 17:34:24.63	9.89	29.32	-32.9	-33.5	27.9	0.00e+00	0	42	0	1392508928	38	6084
2026-01-20 17:34:25.64	9.77	29.50	-32.9	-33.5	27.8	0.00e+00	0	42	0	1397751808	38	6101
2026-01-20 17:34:26.65	9.64	29.68	-33.1	-33.7	27.8	0.00e+00	0	42	0	1404043264	38	6205
2026-01-20 17:34:27.66	9.52	29.85	-33.0	-33.7	27.8	0.00e+00	0	42	0	1409286144	38	6175
2026-01-20 17:34:28.67	9.39	30.03	-33.1	-33.7	27.8	0.00e+00	0	42	0	1415577600	38	6200
2026-01-20 17:34:29.68	9.27	30.21	-33.2	-33.8	27.6	0.00e+00	0	42	0	1420820480	38	6311
2026-01-20 17:34:30.69	9.14	30.39	-33.2	-33.9	27.6	0.00e+00	0	42	0	1426063360	38	6328
2026-01-20 17:34:31.70	9.01	30.58	-33.0	-33.6	27.9	0.00e+00	0	42	0	1432354816	38	6155
2026-01-20 17:34:32.71	8.88	30.76	-32.8	-33.5	27.9	0.00e+00	0	42	0	1437597696	38	6035
2026-01-20 17:34:33.72	8.74	30.94	-32.9	-33.5	27.9	0.00e+00	0	42	0	1443889152	38	6063
2026-01-20 17:34:34.73	8.61	31.13	-32.6	-33.3	28.1	0.00e+00	0	42	0	1449132032	38	5902
2026-01-20 17:34:35.74	8.47	31.31	-32.6	-33.2	28.1	0.00e+00	0	42	0	1455423488	38	5886
2026-01-20 17:34:36.75	8.33	31.50	-32.7	-33.3	28.1	0.00e+00	0	42	0	1460666368	38	5914
2026-01-20 17:34:37.76	8.19	31.69	-32.7	-33.4	28.0	0.00e+00	0	42	0	1465909248	38	5976
2026-01-20 17:34:38.77	8.05	31.88	-32.9	-33.5	27.9	0.00e+00	0	42	0	1472200704	38	6103
2026-01-20 17:34:39.78	7.91	32.07	-32.8	-33.4	28.0	0.00e+00	0	42	0	1477443584	38	5987
2026-01-20 17:34:40.79	7.77	32.26	-32.7	-33.3	28.1	0.00e+00	0	42	0	1483735040	38	5949
2026-01-20 17:34:41.80	7.62	32.45	-32.6	-33.2	28.1	0.00e+00	0	42	0	1488977920	38	5857
2026-01-20 17:34:42.81	7.47	32.64	-32.5	-33.1	28.1	0.00e+00	0	42	0	1495269376	38	5821
2026-01-20 17:34:43.82	7.32	32.83	-32.4	-33.1	28.2	0.00e+00	0	42	0	1500512256	38	5769
2026-01-20 17:34:44.83	7.17	33.03	-32.4	-33.0	28.3	0.00e+00	0	42	0	1505755136	38	5744
2026-01-20 17:34:45.84	7.01	33.23	-32.5	-33.1	28.1	0.00e+00	0	42	0	1512046592	38	5797
2026-01-20 17:34:46.85	6.86	33.42	-32.5	-33.1	28.2	0.00e+00	0	42	0	1517289472	38	5802
2026-01-20 17:34:47.86	6.70	33.62	-32.5	-33.1	28.2	0.00e+00	0	42	0	1523580928	38	5822
2026-01-20 17:34:48.87	6.54	33.82	-32.4	-33.0	28.2	0.00e+00	0	42	0	1528823808	38	5734
2026-01-20 17:34:49.88	6.38	34.02	-32.4	-33.0	28.3	0.00e+00	0	42	0	1534066688	38	5751
2026-01-20 17:34:50.89	6.22	34.22	-32.5	-33.2	28.1	0.00e+00	0	42	0	1540358144	38	5852
2026-01-20 17:34:51.90	6.05	34.42	-32.6	-33.2	28.1	0.00e+00	0	42	0	1545601024	38	5893
2026-01-20 17:34:52.91	5.88	34.63	-32.7	-33.3	28.1	0.00e+00	0	42	0	1551892480	38	5946
2026-01-20 17:34:53.92	5.71	34.83	-32.7	-33.3	28.0	0.00e+00	0	42	0	1557135360	38	5920
2026-01-20 17:34:54.93	5.54	35.03	-32.7	-33.3	28.0	0.00e+00	0	42	0	1563426816	38	5953
2026-01-20 17:34:55.94	5.37	35.24	-32.6	-33.2	28.1	0.00e+00	0	42	0	1568669696	38	5886
2026-01-20 17:34:56.95	5.19	35.45	-32.5	-33.2	28.2	0.00e+00	0	42	0	1573912576	38	5842
2026-01-20 17:34:57.96	5.01	35.66	-32.4	-33.1	28.3	0.00e+00	0	42	0	1580204032	38	5765
2026-01-20 17:34:58.97	4.83	35.87	-32.5	-33.1	28.3	0.00e+00	0	42	0	1585446912	38	5796
2026-01-20 17:34:59.98	4.64	36.08	-32.2	-32.8	28.5	0.00e+00	0	42	0	1591738368	38	5603
2026-01-20 17:35:00.99	4.46	36.29	-32.2	-32.8	28.4	0.00e+00	0	42	0	1596981248	38	5596
2026-01-20 17:35:02.01	4.27	36.50	-32.1	-32.8	28.5	0.00e+00	0	42	0	1602224128	38	5580
2026-01-20 17:35:03.02	4.08	36.72	-32.2	-32.8	28.4	0.00e+00	0	42	0	1608515584	38	5623
2026-01-20 17:35:04.02	3.88	36.93	-32.3	-32.9	28.4	0.00e+00	0	42	0	1613758464	38	5661
2026-01-20 17:35:05.04	3.69	37.15	-32.3	-33.0	28.4	0.00e+00	0	42	0	1620049920	38	5699
2026-01-20 17:35:06.05	3.49	37.36	-32.4	-33.1	28.2	0.00e+00	0	42	0	1625292800	38	5772
2026-01-20 17:35:07.06	3.28	37.58	-32.5	-33.1	28.2	0.00e+00	0	42	0	1630535680	38	5799
2026-01-20 17:35:08.07	3.08	37.80	-32.5	-33.1	28.2	0.00e+00	0	42	0	1636827136	38	5806
2026-01-20 17:35:09.08	2.87	38.02	-32.2	-32.8	28.5	0.00e+00	0	42	0	1642070016	38	5607
2026-01-20 17:35:10.09	2.66	38.24	-32.3	-33.0	28.3	0.00e+00	0	42	0	1648361472	38	5696
2026-01-20 17:35:11.10	2.45	38.46	-32.2	-32.8	28.4	0.00e+00	0	42	0	1653604352	38	5620
2026-01-20 17:35:12.11	2.23	38.68	-32.4	-33.0	28.3	0.00e+00	0	42	0	1659895808	38	5757
2026-01-20 17:35:13.12	2.01	38.91	-32.5	-33.2	28.1	0.00e+00	0	42	0	1665138688	38	5837
2026-01-20 17:35:14.13	1.79	39.13	-32.5	-33.1	28.2	0.00e+00	0	42	0	1671430144	38	5820
2026-01-20 17:35:15.14	1.57	39.36	-32.6	-33.3	28.0	0.00e+00	0	42	0	1676673024	38	5921
2026-01-20 17:35:16.15	1.34	39.58	-32.6	-33.2	28.1	0.00e+00	0	42	0	1681915904	38	5874
2026-01-20 17:35:17.16	1.10	39.81	-32.8	-33.4	28.0	0.00e+00	0	42	0	1688207360	38	6028
2026-01-20 17:35:18.17	0.87	40.04	-32.9	-33.5	28.0	0.00e+00	0	42	0	1693450240	38	6047
2026-01-20 17:35:19.18	0.63	40.27	-32.8	-33.4	28.0	0.00e+00	0	42	0	1699741696	38	5993
2026-01-20 17:35:20.19	0.39	40.50	-32.6	-33.3	28.1	0.00e+00	0	42	0	1704984576	38	5915
2026-01-20 17:35:21.20	0.14	40.73	-32.6	-33.3	28.2	0.00e+00	0	42	0	1710227456	38	5905
2026-01-20 17:35:22.21	359.89	40.96	-32.7	-33.3	28.1	0.00e+00	0	42	0	1716518912	38	5939
2026-01-20 17:35:23.22	359.64	41.19	-32.7	-33.4	28.1	0.00e+00	0	42	0	1721761792	38	5972
2026-01-20 17:35:24.23	359.38	41.43	-32.9	-33.5	27.9	0.00e+00	0	42	0	1728053248	38	6101
2026-01-20 17:35:25.24	359.12	41.66	-33.0	-33.6	27.9	0.00e+00	0	42	0	1733296128	38	6148
2026-01-20 17:35:26.25	358.86	41.90	-32.7	-33.3	28.0	0.00e+00	0	42	0	1738539008	38	5941
2026-01-20 17:35:27.25	358.59	42.13	-32.8	-33.4	28.0	0.00e+00	0	42	0	1744830464	38	5997
2026-01-20 17:35:28.27	358.32	42.37	-32.7	-33.3	28.1	0.00e+00	0	42	0	1750073344	38	5937
2026-01-20 17:35:29.28	358.04	42.61	-32.7	-33.3	28.1	0.00e+00	0	42	0	1756364800	38	5940
2026-01-20 17:35:30.29	357.76	42.85	-32.8	-33.4	28.0	0.00e+00	0	42	0	1761607680	38	6011
2026-01-20 17:35:31.30	357.48	43.09	-32.8	-33.4	28.1	0.00e+00	0	42	0	1767899136	38	6033
2026-01-20 17:35:32.31	357.19	43.33	-33.0	-33.7	27.8	0.00e+00	0	42	0	1773142016	38	6192
2026-01-20 17:35:33.32	356.89	43.57	-33.2	-33.8	27.8	0.00e+00	0	42	0	1779433472	38	6312
2026-01-20 17:35:34.33	356.59	43.81	-33.2	-33.8	27.8	0.00e+00	0	42	0	1784676352	38	6272
2026-01-20 17:35:35.34	356.29	44.05	-33.1	-33.7	27.8	0.00e+00	0	42	0	1789919232	38	6205
2026-01-20 17:35:36.35	355.98	44.29	-32.9	-33.5	27.9	0.00e+00	0	42	0	1796210688	38	6055
2026-01-20 17:35:37.36	355.67	44.54	-32.8	-33.4	28.1	0.00e+00	0	42	0	1801453568	38	6022
2026-01-20 17:35:38.36	355.36	44.78	-32.9	-33.5	28.0	0.00e+00	0	42	0	1807745024	38	6102
2026-01-20 17:35:39.38	355.03	45.02	-32.8	-33.4	28.0	0.00e+00	0	42	0	1812987904	38	6020
2026-01-20 17:35:40.39	354.71	45.27	-32.8	-33.4	28.1	0.00e+00	0	42	0	1818230784	38	6021
2026-01-20 17:35:41.40	354.37	45.51	-32.6	-33.2	28.1	0.00e+00	0	42	0	1824522240	38	5892
2026-01-20 17:35:42.40	354.04	45.76	-32.7	-33.3	28.1	0.00e+00	0	42	0	1829765120	38	5927
2026-01-20 17:35:43.42	353.69	46.01	-32.8	-33.5	28.0	0.00e+00	0	42	0	1836056576	38	6058
2026-01-20 17:35:44.43	353.34	46.25	-32.9	-33.5	28.0	0.00e+00	0	42	0	1841299456	38	6089
2026-01-20 17:35:45.44	352.99	46.50	-33.3	-33.9	27.7	0.00e+00	0	42	0	1846542336	38	6381
2026-01-20 17:35:46.45	352.63	46.74	-33.5	-34.2	27.5	0.00e+00	0	42	0	1852833792	38	6578
2026-01-20 17:35:47.46	352.27	46.99	-33.6	-34.2	27.5	0.00e+00	0	42	0	1858076672	38	6583
2026-01-20 17:35:48.47	351.90	47.24	-33.4	-34.1	27.6	0.00e+00	0	42	0	1864368128	38	6479
2026-01-20 17:35:49.48	351.52	47.49	-33.1	-33.7	27.8	0.00e+00	0	42	0	1869611008	38	6240
2026-01-20 17:35:50.49	351.13	47.73	-33.2	-33.8	27.8	0.00e+00	0	42	0	1875902464	38	6283
2026-01-20 17:35:51.50	350.75	47.98	-33.2	-33.8	27.7	0.00e+00	0	42	0	1881145344	38	6289
2026-01-20 17:35:52.51	350.35	48.23	-33.2	-33.8	27.7	0.00e+00	0	42	0	1886388224	38	6284
2026-01-20 17:35:53.52	349.95	48.47	-33.4	-34.1	27.4	0.00e+00	0	42	0	1892679680	38	6480
2026-01-20 17:35:54.53	349.54	48.72	-33.7	-34.3	27.4	0.00e+00	0	42	0	1897922560	38	6655
2026-01-20 17:35:55.54	349.12	48.97	-33.5	-34.1	27.5	0.00e+00	0	42	0	1904214016	38	6538
2026-01-20 17:35:56.55	348.70	49.21	-33.7	-34.4	27.3	0.00e+00	0	42	0	1909456896	38	6707
2026-01-20 17:35:57.56	348.27	49.46	-34.1	-34.8	26.9	0.00e+00	0	42	0	1914699776	40	6277
2026-01-20 17:35:58.57	347.84	49.71	-34.5	-35.2	26.5	0.00e+00	0	42	0	1920991232	40	6565
2026-01-20 17:35:59.58	347.39	49.95	-34.3	-34.9	26.7	0.00e+00	0	42	0	1926234112	40	6377
2026-01-20 17:36:00.59	346.94	50.20	-34.0	-34.6	27.0	0.00e+00	0	42	0	1932525568	40	6136
2026-01-20 17:36:01.60	346.48	50.44	-33.8	-34.4	27.2	0.00e+00	0	42	0	1937768448	40	6031
2026-01-20 17:36:02.61	346.02	50.68	-33.9	-34.5	27.1	0.00e+00	0	42	0	1943011328	40	6079
2026-01-20 17:36:03.62	345.55	50.93	-34.1	-34.7	27.0	0.00e+00	0	42	0	1949302784	40	6219
2026-01-20 17:36:04.63	345.06	51.17	-33.9	-34.5	27.2	0.00e+00	0	42	0	1954545664	40	6084
2026-01-20 17:36:05.64	344.58	51.41	-33.8	-34.4	27.3	0.00e+00	0	42	0	1960837120	40	6024
2026-01-20 17:36:06.65	344.08	51.65	-33.8	-34.5	27.2	0.00e+00	0	42	0	1966080000	40	6034
2026-01-20 17:36:07.66	343.58	51.89	-33.7	-34.3	27.4	0.00e+00	0	42	0	1972371456	40	5960
2026-01-20 17:36:08.67	343.06	52.12	-33.8	-34.4	27.3	0.00e+00	0	42	0	1977614336	40	6020
2026-01-20 17:36:09.68	342.54	52.36	-33.9	-34.5	27.1	0.00e+00	0	42	0	1983905792	40	6074
2026-01-20 17:36:10.69	342.01	52.59	-33.7	-34.3	27.5	0.00e+00	0	42	0	1989148672	40	5909
2026-01-20 17:36:11.70	341.47	52.83	-33.8	-34.5	27.4	0.00e+00	0	42	0	1994391552	40	6041
2026-01-20 17:36:12.71	340.93	53.06	-34.2	-34.8	26.9	0.00e+00	0	42	0	2000683008	40	6305
2026-01-20 17:36:13.72	340.37	53.29	-34.1	-34.7	27.0	0.00e+00	0	42	0	2005925888	40	6200
2026-01-20 17:36:14.73	339.81	53.52	-34.0	-34.7	27.1	0.00e+00	0	42	0	2012217344	40	6190
2026-01-20 17:36:15.74	339.23	53.74	-33.9	-34.6	27.2	0.00e+00	0	42	0	2017460224	40	6115
2026-01-20 17:36:16.75	338.65	53.97	-34.0	-34.7	27.0	0.00e+00	0	42	0	2022703104	40	6192
2026-01-20 17:36:17.76	338.06	54.19	-33.7	-34.4	27.3	0.00e+00	0	42	0	2028994560	40	5968
2026-01-20 17:36:18.78	337.45	54.41	-33.9	-34.5	27.3	0.00e+00	0	42	0	2034237440	40	6053
2026-01-20 17:36:19.78	336.85	54.63	-33.9	-34.6	27.2	0.00e+00	0	42	0	2040528896	40	6145
2026-01-20 17:36:20.79	336.23	54.85	-33.8	-34.5	27.2	0.00e+00	0	42	0	2045771776	40	6046
2026-01-20 17:36:21.73	335.64	55.04	-33.7	-34.4	27.3	0.00e+00	0	42	0	2051014656	40	5975
2026-01-20 17:36:22.74	335.00	55.25	-33.6	-34.2	27.4	0.00e+00	0	42	0	2057306112	40	5887
2026-01-20 17:36:23.75	334.36	55.46	-33.7	-34.3	27.4	0.00e+00	0	42	0	2062548992	40	5917
2026-01-20 17:36:24.76	333.70	55.67	-33.7	-34.3	27.3	0.00e+00	0	42	0	2068840448	40	5919
2026-01-20 17:36:25.77	333.03	55.87	-33.7	-34.3	27.3	0.00e+00	0	42	0	2074083328	40	5962
2026-01-20 17:36:26.78	332.35	56.07	-33.9	-34.5	27.2	0.00e+00	0	42	0	2080374784	40	6081
2026-01-20 17:36:27.80	331.66	56.27	-33.9	-34.5	27.2	0.00e+00	0	42	0	2085617664	40	6085
2026-01-20 17:36:28.81	330.97	56.46	-34.0	-34.6	27.1	0.00e+00	0	42	0	2091909120	40	6152
2026-01-20 17:36:29.82	330.26	56.65	-34.0	-34.6	27.1	0.00e+00	0	42	0	2097152000	40	6140
2026-01-20 17:36:30.82	329.55	56.83	-33.7	-34.4	27.4	0.00e+00	0	42	0	2102394880	40	5975
2026-01-20 17:36:31.84	328.82	57.01	-33.7	-34.3	27.3	0.00e+00	0	42	0	2108686336	40	5951
2026-01-20 17:36:32.85	328.08	57.19	-33.3	-33.9	27.7	0.00e+00	0	42	0	2113929216	40	5646
2026-01-20 17:36:33.86	327.34	57.36	-33.3	-33.9	27.8	0.00e+00	0	42	0	2120220672	40	5655
2026-01-20 17:36:34.86	326.59	57.53	-33.0	-33.6	27.9	0.00e+00	0	42	0	2125463552	40	5452
2026-01-20 17:36:35.88	325.82	57.70	-33.4	-34.1	27.4	0.00e+00	0	42	0	2130706432	40	5777
2026-01-20 17:36:36.89	325.05	57.86	-33.5	-34.1	27.5	0.00e+00	0	42	0	2136997888	40	5794
2026-01-20 17:36:37.90	324.27	58.01	-33.2	-33.8	27.7	0.00e+00	0	42	0	2142240768	40	5624
2026-01-20 17:36:38.91	323.48	58.17	-33.4	-33.9	27.6	0.00e+00	0	42	0	2148532224	40	5694
2026-01-20 17:36:39.92	322.68	58.31	-33.7	-34.3	27.3	0.00e+00	0	42	0	2153775104	40	5960
2026-01-20 17:36:40.93	321.87	58.45	-33.9	-34.6	27.2	0.00e+00	0	42	0	2159017984	40	6109
2026-01-20 17:36:41.94	321.05	58.59	-33.6	-34.3	27.4	0.00e+00	0	42	0	2165309440	40	5916
2026-01-20 17:36:42.95	320.23	58.72	-33.6	-34.2	27.5	0.00e+00	0	42	0	2170552320	40	5874
2026-01-20 17:36:43.96	319.39	58.85	-33.7	-34.4	27.4	0.00e+00	0	42	0	2176843776	40	5982
2026-01-20 17:36:44.97	318.55	58.97	-33.9	-34.6	27.2	0.00e+00	0	42	0	2182086656	40	6109
2026-01-20 17:36:45.98	317.70	59.08	-33.7	-34.4	27.4	0.00e+00	0	42	0	2188378112	40	5971
2026-01-20 17:36:46.99	316.85	59.19	-33.4	-34.1	27.6	0.00e+00	0	42	0	2193620992	40	5785
2026-01-20 17:36:48.00	315.98	59.30	-33.7	-34.3	27.4	0.00e+00	0	42	0	2199912448	40	5935
2026-01-20 17:36:49.01	315.11	59.39	-33.6	-34.2	27.4	0.00e+00	0	42	0	2205155328	40	5870
2026-01-20 17:36:50.02	314.24	59.49	-33.6	-34.3	27.5	0.00e+00	0	42	0	2210398208	40	5901
2026-01-20 17:36:51.03	313.35	59.57	-33.7	-34.3	27.3	0.00e+00	0	42	0	2216689664	40	5928
2026-01-20 17:36:52.04	312.47	59.65	-33.9	-34.5	27.2	0.00e+00	0	42	0	2221932544	40	6082
2026-01-20 17:36:53.05	311.57	59.72	-33.7	-34.3	27.3	0.00e+00	0	42	0	2228224000	40	5924
2026-01-20 17:36:54.07	310.67	59.79	-33.4	-34.1	27.5	0.00e+00	0	42	0	2233466880	40	5767
2026-01-20 17:36:55.08	309.76	59.85	-33.6	-34.2	27.3	0.00e+00	0	42	0	2238709760	40	5852
2026-01-20 17:36:56.08	308.86	59.91	-33.6	-34.2	27.3	0.00e+00	0	42	0	2245001216	40	5870
2026-01-20 17:36:57.09	307.95	59.95	-33.6	-34.3	27.4	0.00e+00	0	42	0	2250244096	40	5933
2026-01-20 17:36:58.11	307.03	60.00	-33.6	-34.2	27.4	0.00e+00	0	42	0	2256535552	40	5896
2026-01-20 17:36:59.12	306.12	60.03	-33.1	-33.7	27.8	0.00e+00	0	42	0	2261778432	40	5531
2026-01-20 17:37:00.13	305.20	60.06	-33.1	-33.7	27.7	0.00e+00	0	42	0	2267021312	40	5552
2026-01-20 17:37:01.14	304.28	60.08	-33.1	-33.8	27.7	0.00e+00	0	42	0	2273312768	40	5583
2026-01-20 17:37:02.14	303.36	60.10	-33.1	-33.6	27.8	0.00e+00	0	42	0	2278555648	40	5502
2026-01-20 17:37:03.16	302.43	60.10	-32.9	-33.5	27.9	0.00e+00	0	42	0	2284847104	40	5405
2026-01-20 17:37:04.17	301.51	60.11	-33.1	-33.8	27.7	0.00e+00	0	42	0	2290089984	40	5608
2026-01-20 17:37:05.18	300.59	60.10	-33.2	-33.8	27.7	0.00e+00	0	42	0	2296381440	40	5619
2026-01-20 17:37:06.19	299.66	60.09	-33.4	-34.0	27.5	0.00e+00	0	42	0	2301624320	40	5746
2026-01-20 17:37:07.20	298.74	60.07	-33.4	-34.0	27.5	0.00e+00	0	42	0	2307915776	40	5735
2026-01-20 17:37:08.20	297.83	60.04	-33.1	-33.7	27.5	0.00e+00	0	42	0	2313158656	40	5562
2026-01-20 17:37:09.21	296.91	60.01	-33.0	-33.7	27.6	0.00e+00	0	42	0	2318401536	40	5508
2026-01-20 17:37:10.22	296.00	59.97	-33.3	-34.0	27.3	0.00e+00	0	42	0	2324692992	40	5715
2026-01-20 17:37:11.23	295.09	59.93	-33.4	-34.0	27.2	0.00e+00	0	42	0	2329935872	40	5701
2026-01-20 17:37:12.25	294.17	59.88	-33.4	-34.0	27.4	0.00e+00	0	42	0	2336227328	40	5720
2026-01-20 17:37:13.26	293.26	59.82	-33.6	-34.2	27.3	0.00e+00	0	42	0	2341470208	40	5888
2026-01-20 17:37:14.27	292.36	59.75	-33.2	-33.8	27.7	0.00e+00	0	42	0	2346713088	40	5612
2026-01-20 17:37:15.28	291.47	59.68	-32.7	-33.3	28.1	0.00e+00	0	42	0	2353004544	38	5900
2026-01-20 17:37:16.29	290.58	59.61	-32.9	-33.5	27.8	0.00e+00	0	42	0	2358247424	38	6074
2026-01-20 17:37:17.30	289.69	59.52	-33.5	-34.2	27.5	0.00e+00	0	42	0	2364538880	38	6566
2026-01-20 17:37:18.30	288.82	59.44	-33.5	-34.1	27.5	0.00e+00	0	42	0	2369781760	38	6518
2026-01-20 17:37:19.31	287.95	59.34	-33.3	-34.0	27.6	0.00e+00	0	42	0	2375024640	38	6391
2026-01-20 17:37:20.32	287.08	59.24	-33.6	-34.2	27.5	0.00e+00	0	42	0	2381316096	38	6615
2026-01-20 17:37:21.33	286.22	59.13	-33.6	-34.3	27.3	0.00e+00	0	42	0	2386558976	38	6625
2026-01-20 17:37:22.35	285.36	59.02	-33.5	-34.2	27.4	0.00e+00	0	42	0	2392850432	38	6578
2026-01-20 17:37:23.36	284.51	58.90	-33.6	-34.2	27.4	0.00e+00	0	42	0	2398093312	38	6582
2026-01-20 17:37:24.37	283.67	58.78	-33.4	-34.1	27.6	0.00e+00	0	42	0	2404384768	38	6465
2026-01-20 17:37:25.38	282.84	58.65	-33.2	-33.8	27.7	0.00e+00	0	42	0	2409627648	38	6301
2026-01-20 17:37:26.39	282.02	58.51	-33.2	-33.8	27.6	0.00e+00	0	42	0	2415919104	38	6316
2026-01-20 17:37:27.40	281.21	58.37	-33.2	-33.8	27.6	0.00e+00	0	42	0	2421161984	38	6299
2026-01-20 17:37:28.41	280.41	58.23	-33.3	-33.9	27.6	0.00e+00	0	42	0	2426404864	38	6356
2026-01-20 17:37:29.42	279.61	58.08	-33.3	-33.8	27.5	0.00e+00	0	42	0	2432696320	38	6302
2026-01-20 17:37:30.43	278.82	57.93	-33.5	-34.1	27.5	0.00e+00	0	42	0	2437939200	38	6478
2026-01-20 17:37:31.44	278.05	57.77	-33.1	-33.8	27.7	0.00e+00	0	42	0	2444230656	38	6306
2026-01-20 17:37:32.45	277.28	57.60	-32.8	-33.4	28.0	0.00e+00	0	42	0	2449473536	38	5971
2026-01-20 17:37:33.46	276.52	57.44	-32.9	-33.5	27.9	0.00e+00	0	42	0	2454716416	38	6095
2026-01-20 17:37:34.47	275.77	57.27	-33.1	-33.9	27.8	0.00e+00	0	42	0	2461007872	38	6320
2026-01-20 17:37:35.49	275.02	57.09	-32.9	-33.5	27.9	0.00e+00	0	42	0	2466250752	38	6055
2026-01-20 17:37:36.49	274.30	56.91	-32.6	-33.2	28.1	0.00e+00	0	42	0	2472542208	38	5855
2026-01-20 17:37:37.50	273.58	56.73	-32.9	-33.6	27.9	0.00e+00	0	42	0	2477785088	38	6151
2026-01-20 17:37:38.52	272.86	56.54	-33.2	-33.9	27.7	0.00e+00	0	42	0	2483027968	38	6352
2026-01-20 17:37:39.53	272.16	56.35	-33.3	-33.9	27.6	0.00e+00	0	42	0	2489319424	38	6371
2026-01-20 17:37:40.54	271.47	56.15	-33.5	-34.1	27.2	0.00e+00	0	42	0	2494562304	38	6519
2026-01-20 17:37:41.55	270.78	55.95	-33.7	-34.4	27.3	0.00e+00	0	42	0	2500853760	40	5973
2026-01-20 17:37:42.56	270.11	55.75	-33.9	-34.6	27.2	0.00e+00	0	42	0	2506096640	40	6121
2026-01-20 17:37:43.57	269.45	55.55	-33.6	-34.2	27.5	0.00e+00	0	42	0	2512388096	40	5883
2026-01-20 17:37:44.58	268.80	55.34	-33.0	-33.6	27.8	0.00e+00	0	42	0	2517630976	40	5481
2026-01-20 17:37:45.59	268.15	55.13	-33.3	-34.0	27.8	0.00e+00	0	42	0	2523922432	40	5700
2026-01-20 17:37:46.60	267.52	54.92	-33.4	-34.0	27.6	0.00e+00	0	42	0	2529165312	40	5735
2026-01-20 17:37:47.61	266.90	54.70	-33.5	-34.2	27.5	0.00e+00	0	42	0	2534408192	40	5872
2026-01-20 17:37:48.62	266.28	54.49	-33.3	-33.9	27.7	0.00e+00	0	42	0	2540699648	40	5661
2026-01-20 17:37:49.63	265.68	54.27	-33.2	-33.8	27.7	0.00e+00	0	42	0	2545942528	40	5591
2026-01-20 17:37:50.64	265.08	54.04	-33.1	-33.8	27.7	0.00e+00	0	42	0	2552233984	40	5576
2026-01-20 17:37:51.65	264.49	53.82	-33.3	-34.0	27.7	0.00e+00	0	42	0	2557476864	40	5710
2026-01-20 17:37:52.66	263.91	53.59	-33.2	-33.8	27.7	0.00e+00	0	42	0	2562719744	40	5609
2026-01-20 17:37:53.67	263.35	53.37	-33.2	-33.9	27.7	0.00e+00	0	42	0	2569011200	40	5653
2026-01-20 17:37:54.68	262.79	53.13	-33.2	-33.8	27.8	0.00e+00	0	42	0	2574254080	40	5612
2026-01-20 17:37:55.69	262.23	52.90	-33.3	-33.9	27.6	0.00e+00	0	42	0	2580545536	40	5677
2026-01-20 17:37:56.70	261.69	52.67	-33.4	-34.1	27.5	0.00e+00	0	42	0	2585788416	40	5763
2026-01-20 17:37:57.71	261.16	52.43	-33.4	-34.0	27.5	0.00e+00	0	42	0	2591031296	40	5736
2026-01-20 17:37:58.72	260.63	52.20	-33.4	-34.0	27.6	0.00e+00	0	42	0	2597322752	40	5734
2026-01-20 17:37:59.73	260.12	51.96	-33.6	-34.2	27.5	0.00e+00	0	42	0	2602565632	40	5896
2026-01-20 17:38:00.74	259.61	51.72	-33.4	-34.0	27.5	0.00e+00	0	42	0	2608857088	40	5703
2026-01-20 17:38:01.75	259.11	51.48	-33.6	-34.2	27.5	0.00e+00	0	42	0	2614099968	40	5885
2026-01-20 17:38:02.75	258.62	51.24	-33.4	-34.0	27.5	0.00e+00	0	42	0	2620391424	40	5752
2026-01-20 17:38:03.76	258.14	51.00	-33.4	-33.9	27.6	0.00e+00	0	42	0	2625634304	40	5664
2026-01-20 17:38:04.77	257.66	50.76	-33.4	-34.0	27.5	0.00e+00	0	42	0	2630877184	40	5746
2026-01-20 17:38:05.78	257.19	50.51	-33.2	-33.8	27.7	0.00e+00	0	42	0	2637168640	40	5583
2026-01-20 17:38:06.79	256.73	50.27	-33.2	-33.7	27.7	0.00e+00	0	42	0	2642411520	40	5533
2026-01-20 17:38:07.80	256.27	50.03	-33.0	-33.7	27.7	0.00e+00	0	42	0	2648702976	40	5513
2026-01-20 17:38:08.81	255.83	49.78	-33.0	-33.5	27.8	0.00e+00	0	42	0	2653945856	40	5403
2026-01-20 17:38:09.82	255.39	49.53	-33.1	-33.7	27.8	0.00e+00	0	42	0	2659188736	40	5524
2026-01-20 17:38:10.83	254.95	49.29	-33.2	-33.9	27.7	0.00e+00	0	42	0	2665480192	40	5659
2026-01-20 17:38:11.84	254.53	49.04	-33.1	-33.6	27.8	0.00e+00	0	42	0	2670723072	40	5494
2026-01-20 17:38:12.85	254.11	48.79	-33.0	-33.6	27.9	0.00e+00	0	42	0	2677014528	40	5466
2026-01-20 17:38:13.86	253.70	48.55	-33.0	-33.7	27.9	0.00e+00	0	42	0	2682257408	40	5538
2026-01-20 17:38:14.87	253.29	48.30	-33.1	-33.8	27.8	0.00e+00	0	42	0	2687500288	40	5569
2026-01-20 17:38:15.88	252.89	48.05	-33.1	-33.7	27.7	0.00e+00	0	42	0	2693791744	40	5517
2026-01-20 17:38:16.89	252.50	47.80	-33.1	-33.7	27.7	0.00e+00	0	42	0	2699034624	40	5543
2026-01-20 17:38:17.90	252.12	47.55	-33.3	-33.9	27.7	0.00e+00	0	43	0	2705326080	40	5675
2026-01-20 17:38:18.91	251.74	47.31	-33.3	-33.9	27.6	0.00e+00	0	42	0	2710568960	40	5644
2026-01-20 17:38:19.92	251.36	47.06	-32.9	-33.4	28.0	0.00e+00	0	43	0	2716860416	40	5374
2026-01-20 17:38:20.93	250.99	46.81	-32.9	-33.6	28.0	0.00e+00	0	42	0	2722103296	40	5468
2026-01-20 17:38:21.94	250.63	46.56	-32.7	-33.4	27.9	0.00e+00	0	42	0	2727346176	38	5980
2026-01-20 17:38:22.95	250.27	46.32	-32.7	-33.2	27.9	0.00e+00	0	42	0	2733637632	38	5877
2026-01-20 17:38:23.96	249.92	46.07	-32.8	-33.3	27.8	0.00e+00	0	42	0	2738880512	38	5934
2026-01-20 17:38:24.97	249.58	45.82	-32.5	-33.2	27.9	0.00e+00	0	42	0	2745171968	38	5888
2026-01-20 17:38:25.98	249.24	45.58	-32.5	-33.2	28.1	0.00e+00	0	42	0	2750414848	38	5852
2026-01-20 17:38:26.99	248.90	45.33	-32.2	-32.9	28.2	0.00e+00	0	42	0	2756706304	38	5661
2026-01-20 17:38:28.00	248.57	45.08	-32.2	-32.8	28.2	0.00e+00	0	43	0	2761949184	38	5586
2026-01-20 17:38:29.01	248.25	44.84	-32.3	-33.0	28.1	0.00e+00	0	42	0	2767192064	38	5743
2026-01-20 17:38:30.02	247.93	44.59	-32.3	-32.9	28.3	0.00e+00	0	43	0	2773483520	38	5642
2026-01-20 17:38:31.03	247.61	44.35	-32.2	-32.9	28.3	0.00e+00	0	42	0	2778726400	38	5665
2026-01-20 17:38:32.05	247.30	44.10	-32.2	-32.7	28.4	0.00e+00	0	42	0	2785017856	38	5559
2026-01-20 17:38:33.05	247.00	43.86	-32.4	-33.1	28.2	0.00e+00	0	42	0	2790260736	38	5772
2026-01-20 17:38:34.07	246.69	43.62	-32.3	-33.0	28.4	0.00e+00	0	42	0	2795503616	38	5735
2026-01-20 17:38:35.08	246.40	43.38	-32.5	-33.1	28.2	0.00e+00	0	42	0	2801795072	38	5785
2026-01-20 17:38:36.09	246.11	43.14	-32.6	-33.1	28.1	0.00e+00	0	42	0	2807037952	38	5814
2026-01-20 17:38:37.10	245.82	42.90	-32.7	-33.4	27.9	0.00e+00	0	42	0	2813329408	38	5973
2026-01-20 17:38:38.11	245.54	42.66	-32.4	-32.9	28.2	0.00e+00	0	42	0	2818572288	38	5690
2026-01-20 17:38:39.11	245.26	42.42	-32.5	-33.1	28.1	0.00e+00	0	42	0	2823815168	38	5789
2026-01-20 17:38:40.12	244.99	42.18	-32.4	-32.9	28.2	0.00e+00	0	42	0	2830106624	38	5673
2026-01-20 17:38:41.13	244.72	41.95	-32.5	-33.2	28.2	0.00e+00	0	42	0	2835349504	38	5836
2026-01-20 17:38:42.14	244.45	41.71	-32.7	-33.4	28.0	0.00e+00	0	42	0	2841640960	38	6015
2026-01-20 17:38:43.15	244.19	41.47	-32.8	-33.5	28.0	0.00e+00	0	42	0	2846883840	38	6063
2026-01-20 17:38:44.16	243.93	41.24	-32.6	-33.2	28.1	0.00e+00	0	42	0	2853175296	38	5836
2026-01-20 17:38:45.18	243.67	41.00	-32.5	-33.0	28.3	0.00e+00	0	43	0	2858418176	38	5716
2026-01-20 17:38:46.19	243.42	40.77	-32.7	-33.4	28.1	0.00e+00	0	42	0	2864709632	38	5969
2026-01-20 17:38:47.20	243.17	40.54	-32.6	-33.2	28.1	0.00e+00	0	42	0	2869952512	38	5842
2026-01-20 17:38:48.20	242.93	40.31	-32.9	-33.5	28.0	0.00e+00	0	43	0	2875195392	38	6038
2026-01-20 17:38:49.22	242.69	40.08	-32.7	-33.2	28.1	0.00e+00	0	42	0	2881486848	38	5880
2026-01-20 17:38:50.22	242.45	39.85	-32.7	-33.3	28.0	0.00e+00	0	42	0	2886729728	38	5914
2026-01-20 17:38:51.24	242.22	39.62	-32.5	-33.0	28.3	0.00e+00	0	42	0	2893021184	38	5723
2026-01-20 17:38:52.25	241.99	39.39	-32.3	-33.0	28.4	0.00e+00	0	42	0	2898264064	38	5722
2026-01-20 17:38:53.26	241.76	39.16	-32.4	-33.1	28.2	0.00e+00	0	43	0	2903506944	38	5805
2026-01-20 17:38:54.27	241.54	38.94	-32.2	-32.9	28.4	0.00e+00	0	42	0	2909798400	38	5659
2026-01-20 17:38:55.28	241.31	38.71	-32.2	-32.7	28.3	0.00e+00	0	42	0	2915041280	38	5561
2026-01-20 17:38:56.29	241.10	38.49	-32.1	-32.8	28.5	0.00e+00	0	43	0	2921332736	38	5570
2026-01-20 17:38:57.30	240.88	38.27	-32.2	-32.9	28.4	0.00e+00	0	42	0	2926575616	38	5648
2026-01-20 17:38:58.31	240.67	38.04	-32.1	-32.6	28.5	0.00e+00	0	42	0	2931818496	38	5493
2026-01-20 17:38:59.32	240.46	37.82	-31.9	-32.5	28.6	0.00e+00	0	43	0	2938109952	38	5394
2026-01-20 17:39:00.33	240.25	37.60	-32.0	-32.7	28.3	0.00e+00	0	42	0	2943352832	38	5556
2026-01-20 17:39:01.34	240.05	37.39	-32.1	-32.8	28.4	0.00e+00	0	42	0	2949644288	38	5591
2026-01-20 17:39:02.35	239.85	37.17	-32.2	-32.7	28.3	0.00e+00	0	42	0	2954887168	38	5545
2026-01-20 17:39:03.36	239.65	36.95	-32.2	-32.9	28.3	0.00e+00	0	43	0	2961178624	38	5657
2026-01-20 17:39:04.37	239.46	36.74	-32.3	-32.8	28.2	0.00e+00	0	43	0	2966421504	38	5606
2026-01-20 17:39:05.38	239.26	36.52	-32.3	-32.9	28.3	0.00e+00	0	42	0	2971664384	38	5647
2026-01-20 17:39:06.39	239.07	36.31	-32.3	-32.8	28.3	0.00e+00	0	43	0	2977955840	38	5610
2026-01-20 17:39:07.40	238.89	36.09	-32.3	-32.9	28.2	0.00e+00	0	42	0	2983198720	38	5657
2026-01-20 17:39:08.41	238.70	35.88	-32.4	-33.1	28.3	0.00e+00	0	43	0	2989490176	38	5792
2026-01-20 17:39:09.42	238.52	35.67	-32.5	-33.1	28.0	0.00e+00	0	43	0	2994733056	38	5781
2026-01-20 17:39:10.43	238.34	35.46	-32.6	-33.1	28.1	0.00e+00	0	42	0	2999975936	38	5815
2026-01-20 17:39:11.44	238.16	35.26	-32.2	-32.9	28.2	0.00e+00	0	43	0	3006267392	38	5676
2026-01-20 17:39:12.45	237.98	35.05	-32.2	-32.9	28.4	0.00e+00	0	43	0	3011510272	38	5633
2026-01-20 17:39:13.45	237.81	34.84	-32.2	-32.7	28.3	0.00e+00	0	43	0	3017801728	38	5561
2026-01-20 17:39:14.46	237.64	34.64	-32.4	-33.1	28.2	0.00e+00	0	43	0	3023044608	38	5790
2026-01-20 17:39:15.47	237.47	34.43	-32.6	-33.2	28.2	0.00e+00	0	42	0	3028287488	38	5895
2026-01-20 17:39:16.48	237.30	34.23	-32.5	-33.0	28.1	0.00e+00	0	43	0	3034578944	38	5730
2026-01-20 17:39:17.49	237.14	34.03	-32.6	-33.2	28.0	0.00e+00	0	43	0	3039821824	38	5864
2026-01-20 17:39:18.50	236.98	33.83	-32.6	-33.1	28.0	0.00e+00	0	43	0	3046113280	38	5819
2026-01-20 17:39:19.51	236.82	33.63	-32.4	-33.0	28.1	0.00e+00	0	42	0	3051356160	38	5711
2026-01-20 17:39:20.52	236.66	33.43	-32.3	-32.9	28.2	0.00e+00	0	43	0	3057647616	38	5663
2026-01-20 17:39:21.53	236.50	33.23	-32.3	-32.8	28.2	0.00e+00	0	43	0	3062890496	38	5619
2026-01-20 17:39:22.55	236.34	33.03	-32.4	-32.9	28.2	0.00e+00	0	43	0	3069181952	38	5672
2026-01-20 17:39:23.56	236.19	32.84	-32.3	-32.8	28.2	0.00e+00	0	42	0	3074424832	38	5620
2026-01-20 17:39:24.57	236.04	32.64	-32.1	-32.7	28.3	0.00e+00	0	43	0	3079667712	38	5515
2026-01-20 17:39:25.58	235.89	32.45	-32.2	-32.9	28.3	0.00e+00	0	42	0	3085959168	38	5651
2026-01-20 17:39:26.59	235.74	32.26	-32.3	-33.0	28.2	0.00e+00	0	42	0	3091202048	38	5752
2026-01-20 17:39:27.60	235.60	32.06	-32.6	-33.3	28.0	0.00e+00	0	42	0	3097493504	38	5915
2026-01-20 17:39:28.61	235.45	31.87	-32.7	-33.5	27.9	0.00e+00	0	43	0	3102736384	38	6035
2026-01-20 17:39:29.62	235.31	31.68	-32.7	-33.2	27.9	0.00e+00	0	42	0	3107979264	38	5883
2026-01-20 17:39:30.63	235.17	31.49	-32.6	-33.1	28.0	0.00e+00	0	43	0	3114270720	38	5822
2026-01-20 17:39:31.64	235.03	31.31	-32.7	-33.4	27.9	0.00e+00	0	43	0	3119513600	38	5995
2026-01-20 17:39:32.65	234.89	31.12	-32.9	-33.6	27.8	0.00e+00	0	42	0	3125805056	38	6136
2026-01-20 17:39:33.66	234.76	30.93	-32.8	-33.5	27.9	0.00e+00	0	42	0	3131047936	38	6097
2026-01-20 17:39:34.68	234.62	30.75	-32.8	-33.5	27.9	0.00e+00	0	43	0	3136290816	38	6086
2026-01-20 17:39:35.69	234.49	30.56	-32.9	-33.6	27.8	0.00e+00	0	43	0	3142582272	38	6114
2026-01-20 17:39:36.70	234.36	30.38	-32.9	-33.6	27.8	0.00e+00	0	43	0	3147825152	38	6146
2026-01-20 17:39:37.71	234.23	30.20	-32.9	-33.6	27.8	0.00e+00	0	42	0	3154116608	38	6172
2026-01-20 17:39:38.72	234.10	30.02	-32.9	-33.6	27.8	0.00e+00	0	43	0	3159359488	38	6160
2026-01-20 17:39:39.73	233.97	29.84	-33.0	-33.7	27.7	0.00e+00	0	43	0	3165650944	38	6188
2026-01-20 17:39:40.74	233.85	29.66	-32.8	-33.4	27.8	0.00e+00	0	43	0	3170893824	38	6005
2026-01-20 17:39:41.75	233.72	29.48	-32.9	-33.5	27.8	0.00e+00	0	43	0	3177185280	38	6035
2026-01-20 17:39:42.76	233.60	29.31	-32.8	-33.3	27.9	0.00e+00	0	43	0	3182428160	38	5948
2026-01-20 17:39:43.77	233.48	29.13	-32.7	-33.4	27.9	0.00e+00	0	43	0	3187671040	38	6021
2026-01-20 17:39:44.77	233.36	28.96	-32.7	-33.4	27.8	0.00e+00	0	43	0	3193962496	38	6015
2026-01-20 17:39:45.78	233.24	28.78	-32.7	-33.4	27.9	0.00e+00	0	42	0	3199205376	38	6000
2026-01-20 17:39:46.79	233.13	28.61	-32.7	-33.3	27.9	0.00e+00	0	43	0	3205496832	38	5908
2026-01-20 17:39:47.80	233.01	28.44	-32.9	-33.4	27.8	0.00e+00	0	43	0	3210739712	38	6012
2026-01-20 17:39:48.81	232.89	28.27	-32.8	-33.4	27.9	0.00e+00	0	42	0	3215982592	38	5970
2026-01-20 17:39:49.83	232.78	28.09	-32.8	-33.3	27.9	0.00e+00	0	43	0	3222274048	38	5957
2026-01-20 17:39:50.83	232.67	27.93	-32.9	-33.4	27.8	0.00e+00	0	42	0	3227516928	38	6023
2026-01-20 17:39:51.85	232.56	27.76	-32.8	-33.4	27.8	0.00e+00	0	42	0	3233808384	38	5986
2026-01-20 17:39:52.86	232.45	27.59	-33.0	-33.5	27.7	0.00e+00	0	42	0	3239051264	38	6068
2026-01-20 17:39:53.87	232.34	27.42	-32.9	-33.4	27.8	0.00e+00	0	42	0	3244294144	38	6021
2026-01-20 17:39:54.88	232.23	27.26	-33.1	-33.6	27.6	0.00e+00	0	43	0	3250585600	38	6167
2026-01-20 17:39:55.89	232.13	27.09	-32.9	-33.5	27.6	0.00e+00	0	42	0	3255828480	38	6065
2026-01-20 17:39:56.90	232.02	26.93	-33.0	-33.6	27.4	0.00e+00	0	42	0	3262119936	38	6144
2026-01-20 17:39:57.91	231.92	26.76	-32.9	-33.5	27.5	0.00e+00	0	42	0	3267362816	38	6075
2026-01-20 17:39:58.92	231.81	26.60	-33.0	-33.6	27.4	0.00e+00	0	43	0	3273654272	38	6135
2026-01-20 17:39:59.93	231.71	26.44	-32.9	-33.5	27.5	0.00e+00	0	42	0	3278897152	38	6078
2026-01-20 17:40:00.94	231.61	26.28	-33.0	-33.6	27.4	0.00e+00	0	42	0	3285188608	38	6140
2026-01-20 17:40:01.95	231.51	26.12	-32.9	-33.5	27.5	0.00e+00	0	42	0	3290431488	38	6064
2026-01-20 17:40:02.96	231.41	25.96	-32.9	-33.6	27.5	0.00e+00	0	42	0	3295674368	38	6172
2026-01-20 17:40:03.97	231.31	25.80	-32.9	-33.5	27.5	0.00e+00	0	42	0	3301965824	38	6074
2026-01-20 17:40:04.98	231.22	25.65	-33.1	-33.6	27.4	0.00e+00	0	42	0	3307208704	38	6168
2026-01-20 17:40:05.99	231.12	25.49	-33.4	-34.0	27.3	0.00e+00	0	42	0	3313500160	38	6437
2026-01-20 17:40:07.00	231.03	25.33	-32.9	-33.5	27.5	0.00e+00	0	42	0	3318743040	38	6064
2026-01-20 17:40:08.01	230.93	25.18	-32.9	-33.5	27.5	0.00e+00	0	42	0	3323985920	38	6062
2026-01-20 17:40:09.02	230.84	25.02	-33.0	-33.5	27.5	0.00e+00	0	42	0	3330277376	38	6101
2026-01-20 17:40:10.03	230.75	24.87	-32.9	-33.5	27.5	0.00e+00	0	42	0	3335520256	38	6079
2026-01-20 17:40:11.05	230.66	24.72	-33.0	-33.6	27.5	0.00e+00	0	42	0	3341811712	38	6122
2026-01-20 17:40:12.06	230.57	24.57	-32.9	-33.5	27.5	0.00e+00	0	42	0	3347054592	38	6036
2026-01-20 17:40:13.07	230.48	24.42	-32.9	-33.6	27.6	0.00e+00	0	42	0	3352297472	38	6109
2026-01-20 17:40:14.08	230.39	24.27	-32.9	-33.5	27.5	0.00e+00	0	42	0	3358588928	38	6034
2026-01-20 17:40:15.09	230.30	24.12	-32.9	-33.4	27.5	0.00e+00	0	42	0	3363831808	38	6031
2026-01-20 17:40:16.10	230.21	23.97	-33.0	-33.5	27.5	0.00e+00	0	42	0	3370123264	38	6075
2026-01-20 17:40:17.11	230.13	23.82	-32.9	-33.5	27.5	0.00e+00	0	42	0	3375366144	38	6058
2026-01-20 17:40:18.12	230.04	23.67	-33.0	-33.5	27.5	0.00e+00	0	42	0	3381657600	38	6083
2026-01-20 17:40:19.12	229.96	23.53	-32.8	-33.4	27.5	0.00e+00	0	42	0	3386900480	38	5989
2026-01-20 17:40:20.13	229.88	23.38	-33.0	-33.5	27.5	0.00e+00	0	42	0	3393191936	38	6087
2026-01-20 17:40:21.14	229.79	23.24	-33.1	-33.6	27.4	0.00e+00	0	42	0	3398434816	38	6160
2026-01-20 17:40:22.15	229.71	23.09	-33.1	-33.6	27.4	0.00e+00	0	42	0	3403677696	38	6147
2026-01-20 17:40:23.16	229.63	22.95	-33.0	-33.6	27.4	0.00e+00	0	42	0	3409969152	38	6114
2026-01-20 17:40:24.17	229.55	22.81	-33.0	-33.6	27.4	0.00e+00	0	42	0	3415212032	38	6139
2026-01-20 17:40:25.18	229.47	22.67	-33.2	-33.7	27.3	0.00e+00	0	43	0	3420454912	38	6218
2026-01-20 17:40:26.19	229.39	22.53	-33.2	-33.8	27.3	0.00e+00	0	42	0	3426746368	38	6247
2026-01-20 17:40:27.20	229.31	22.39	-33.3	-33.9	27.3	0.00e+00	0	42	0	3431989248	38	6347
2026-01-20 17:40:28.21	229.24	22.25	-33.3	-33.9	27.2	0.00e+00	0	42	0	3438280704	38	6354
2026-01-20 17:40:29.22	229.16	22.11	-33.2	-33.8	27.2	0.00e+00	0	42	0	3443523584	38	6283
2026-01-20 17:40:30.23	229.08	21.97	-33.2	-34.0	27.2	0.00e+00	0	43	0	3448766464	38	6392
2026-01-20 17:40:31.24	229.01	21.83	-33.2	-33.9	27.3	0.00e+00	0	43	0	3455057920	38	6329
2026-01-20 17:40:32.25	228.93	21.70	-33.4	-34.1	27.2	0.00e+00	0	43	0	3460300800	38	6468
2026-01-20 17:40:33.26	228.86	21.56	-33.2	-33.9	27.2	0.00e+00	0	43	0	3466592256	38	6348
2026-01-20 17:40:34.27	228.79	21.42	-33.4	-34.1	27.2	0.00e+00	0	43	0	3471835136	38	6483
2026-01-20 17:40:35.29	228.71	21.29	-33.4	-34.1	27.1	0.00e+00	0	42	0	3478126592	38	6480
2026-01-20 17:40:36.30	228.64	21.15	-33.6	-34.3	27.0	0.00e+00	0	43	0	3483369472	38	6667
2026-01-20 17:40:37.31	228.57	21.02	-33.4	-34.0	27.2	0.00e+00	0	42	0	3489660928	38	6414
2026-01-20 17:40:38.32	228.50	20.89	-33.6	-34.1	27.0	0.00e+00	0	43	0	3494903808	38	6526
2026-01-20 17:40:39.33	228.43	20.76	-33.6	-34.2	26.9	0.00e+00	0	42	0	3500146688	38	6555
2026-01-20 17:40:40.34	228.36	20.62	-33.6	-34.2	26.9	0.00e+00	0	42	0	3506438144	38	6554
2026-01-20 17:40:41.35	228.29	20.49	-33.5	-34.2	27.0	0.00e+00	0	42	0	3511681024	38	6584
2026-01-20 17:40:42.36	228.22	20.36	-33.7	-34.4	26.9	0.00e+00	0	43	0	3517972480	38	6735
2026-01-20 17:40:43.37	228.16	20.23	-33.9	-34.5	26.7	0.00e+00	0	42	0	3523215360	40	6041
2026-01-20 17:40:44.38	228.09	20.10	-33.6	-34.2	26.9	0.00e+00	0	42	0	3528458240	40	5839
2026-01-20 17:40:45.39	228.02	19.98	-33.9	-34.5	26.7	0.00e+00	0	42	0	3534749696	40	6048
2026-01-20 17:40:46.40	227.96	19.85	-33.6	-34.2	26.9	0.00e+00	0	42	0	3539992576	40	5882
2026-01-20 17:40:47.41	227.89	19.72	-33.7	-34.3	26.8	0.00e+00	0	42	0	3546284032	40	5901
2026-01-20 17:40:48.42	227.83	19.60	-33.7	-34.5	26.8	0.00e+00	0	42	0	3551526912	40	6037
2026-01-20 17:40:49.43	227.76	19.47	-33.7	-34.4	26.9	0.00e+00	0	42	0	3556769792	40	5978
2026-01-20 17:40:50.44	227.70	19.34	-33.7	-34.3	26.9	0.00e+00	0	42	0	3563061248	40	5899
2026-01-20 17:40:51.45	227.64	19.22	-33.8	-34.4	26.7	0.00e+00	0	42	0	3568304128	40	5992
2026-01-20 17:40:52.46	227.58	19.10	-33.8	-34.5	26.8	0.00e+00	0	42	0	3574595584	40	6059
2026-01-20 17:40:53.47	227.51	18.97	-33.9	-34.4	26.7	0.00e+00	0	42	0	3579838464	40	6016
2026-01-20 17:40:54.48	227.45	18.85	-34.0	-34.6	26.6	0.00e+00	0	42	0	3586129920	40	6111
2026-01-20 17:40:55.49	227.39	18.73	-34.0	-34.6	26.6	0.00e+00	0	43	0	3591372800	40	6142
2026-01-20 17:40:56.49	227.33	18.61	-34.1	-34.6	26.5	0.00e+00	0	42	0	3597664256	40	6172
2026-01-20 17:40:57.51	227.27	18.48	-34.2	-34.7	26.4	0.00e+00	0	42	0	3602907136	40	6235
2026-01-20 17:40:58.51	227.21	18.36	-34.1	-34.6	26.6	0.00e+00	0	42	0	3608150016	40	6173
