passes_logs/2025/01/15/LEX_Murmansk/LEX_Murmansk__20250115_192657_NOAA_18_rec.log

#Pass ID: 20250115_192657_NOAA 18
#Satellite: NOAA 18
#Configuration: NOAA 18
#Start time: 2025-01-15 19:26:52.603057

#LorettStation: 1.0.0 05.05.2024
#Station: LEX_Murmansk
#Location: 33.156738 lon 68.926811 lat
#TLE: 1 28654U 05018A   25015.16278545  .00000300  00000+0  18295-3 0  9990
#TLE: 2 28654  98.8567  96.2156 0014367 178.7074 181.4138 14.13486503 13201

#Time	Az	El	Level	SNR
2025-01-15 19:27:04.776556	170.1	16.3	-92.1	5.1
2025-01-15 19:27:05.926646	170.1	16.4	-92.6	4.8
2025-01-15 19:27:07.072166	170.2	16.5	-92.8	9.0
2025-01-15 19:27:08.219493	170.2	16.7	-92.2	7.8
2025-01-15 19:27:09.367111	170.3	16.8	-92.3	7.2
2025-01-15 19:27:10.500262	170.3	16.9	-92.1	5.8
2025-01-15 19:27:11.658064	170.4	17.0	-92.3	6.3
2025-01-15 19:27:12.805674	170.4	17.2	-92.7	7.7
2025-01-15 19:27:13.953933	170.5	17.3	-92.7	5.4
2025-01-15 19:27:15.098868	170.5	17.4	-91.8	5.5
2025-01-15 19:27:16.249578	170.6	17.6	-92.2	5.1
2025-01-15 19:27:17.403163	170.6	17.7	-92.8	4.3
2025-01-15 19:27:18.553509	170.7	17.8	-92.6	5.4
2025-01-15 19:27:19.705465	170.8	18.0	-92.7	8.5
2025-01-15 19:27:20.856776	170.8	18.1	-92.5	7.7
2025-01-15 19:27:22.004915	170.9	18.2	-92.6	5.4
2025-01-15 19:27:23.152602	170.9	18.4	-92.3	6.1
2025-01-15 19:27:24.300971	171.0	18.5	-92.3	3.7
2025-01-15 19:27:25.448846	171.0	18.6	-92.5	4.6
2025-01-15 19:27:26.597859	171.1	18.8	-92.5	6.7
2025-01-15 19:27:27.756154	171.1	18.9	-92.7	6.7
2025-01-15 19:27:28.904567	171.2	19.1	-92.2	6.8
2025-01-15 19:27:30.052682	171.2	19.2	-92.5	6.5
2025-01-15 19:27:31.211967	171.3	19.3	-92.2	6.5
2025-01-15 19:27:32.365092	171.4	19.5	-92.1	6.2
2025-01-15 19:27:33.513620	171.4	19.6	-92.6	4.9
2025-01-15 19:27:34.665548	171.5	19.8	-92.6	7.5
2025-01-15 19:27:35.815350	171.5	19.9	-92.8	6.4
2025-01-15 19:27:36.961568	171.6	20.0	-92.6	6.4
2025-01-15 19:27:38.110357	171.7	20.2	-92.4	3.3
2025-01-15 19:27:39.274682	171.7	20.3	-92.6	6.7
2025-01-15 19:27:40.419552	171.8	20.5	-92.5	5.4
2025-01-15 19:27:41.566261	171.9	20.6	-92.8	7.6
2025-01-15 19:27:42.713578	171.9	20.8	-92.9	7.2
2025-01-15 19:27:43.861751	172.0	20.9	-92.7	8.7
2025-01-15 19:27:45.012183	172.0	21.1	-92.6	10.3
2025-01-15 19:27:46.155094	172.1	21.2	-92.6	11.2
2025-01-15 19:27:47.304463	172.2	21.4	-92.5	7.8
2025-01-15 19:27:48.455075	172.2	21.5	-92.8	5.6
2025-01-15 19:27:49.604548	172.3	21.7	-92.7	6.5
2025-01-15 19:27:50.748102	172.4	21.8	-92.5	11.2
2025-01-15 19:27:51.897938	172.4	22.0	-92.8	8.4
2025-01-15 19:27:53.047180	172.5	22.1	-92.6	9.5
2025-01-15 19:27:54.192511	172.6	22.3	-92.4	12.4
2025-01-15 19:27:55.339799	172.6	22.5	-93.1	13.0
2025-01-15 19:27:56.487102	172.7	22.6	-92.8	12.5
2025-01-15 19:27:57.637611	172.8	22.8	-92.8	10.0
2025-01-15 19:27:58.789341	172.9	22.9	-92.7	12.4
2025-01-15 19:27:59.940332	172.9	23.1	-92.8	11.6
2025-01-15 19:28:01.089502	173.0	23.3	-92.3	13.3
2025-01-15 19:28:02.237207	173.1	23.4	-92.1	12.6
2025-01-15 19:28:03.387997	173.2	23.6	-92.4	13.3
2025-01-15 19:28:04.550150	173.2	23.8	-92.6	8.4
2025-01-15 19:28:05.699108	173.3	23.9	-92.8	12.3
2025-01-15 19:28:06.850586	173.4	24.1	-92.4	11.9
2025-01-15 19:28:08.004173	173.5	24.3	-92.6	7.2
2025-01-15 19:28:09.155980	173.5	24.4	-92.3	11.7
2025-01-15 19:28:10.315581	173.6	24.6	-92.5	13.2
2025-01-15 19:28:11.471565	173.7	24.8	-92.5	15.8
2025-01-15 19:28:12.620874	173.8	25.0	-92.4	14.1
2025-01-15 19:28:13.769573	173.9	25.1	-93.0	13.4
2025-01-15 19:28:14.922135	173.9	25.3	-92.0	10.5
2025-01-15 19:28:16.074446	174.0	25.5	-92.5	10.3
2025-01-15 19:28:17.221072	174.1	25.7	-92.4	11.3
2025-01-15 19:28:18.364201	174.2	25.8	-91.9	11.0
2025-01-15 19:28:19.511524	174.3	26.0	-92.2	9.5
2025-01-15 19:28:20.664369	174.4	26.2	-92.2	8.2
2025-01-15 19:28:21.811175	174.5	26.4	-92.6	10.2
2025-01-15 19:28:22.959630	174.5	26.6	-92.6	6.5
2025-01-15 19:28:24.108704	174.6	26.7	-92.1	6.4
2025-01-15 19:28:25.256173	174.7	26.9	-92.6	8.4
2025-01-15 19:28:26.415437	174.8	27.1	-92.9	6.5
2025-01-15 19:28:27.570853	174.9	27.3	-92.9	11.8
2025-01-15 19:28:28.720421	175.0	27.5	-92.7	10.1
2025-01-15 19:28:29.870389	175.1	27.7	-92.8	11.5
2025-01-15 19:28:31.025776	175.2	27.9	-92.7	10.1
2025-01-15 19:28:32.174489	175.3	28.1	-92.5	13.7
2025-01-15 19:28:33.327743	175.4	28.3	-92.7	10.4
2025-01-15 19:28:34.488449	175.5	28.4	-93.1	11.6
2025-01-15 19:28:35.632943	175.6	28.6	-92.8	11.7
2025-01-15 19:28:36.777502	175.7	28.8	-92.8	9.3
2025-01-15 19:28:37.921875	175.8	29.0	-93.0	8.1
2025-01-15 19:28:39.070979	175.9	29.2	-92.3	5.8
2025-01-15 19:28:40.221928	176.0	29.4	-92.6	7.4
2025-01-15 19:28:41.368443	176.1	29.6	-92.7	7.6
2025-01-15 19:28:42.515546	176.2	29.8	-92.6	5.3
2025-01-15 19:28:43.665020	176.3	30.0	-92.9	8.1
2025-01-15 19:28:44.811643	176.4	30.3	-93.0	13.1
2025-01-15 19:28:45.960475	176.5	30.5	-92.9	13.1
2025-01-15 19:28:47.107689	176.7	30.7	-92.7	10.9
2025-01-15 19:28:48.265120	176.8	30.9	-92.2	7.3
2025-01-15 19:28:49.412012	176.9	31.1	-93.1	8.0
2025-01-15 19:28:50.561385	177.0	31.3	-93.0	6.3
2025-01-15 19:28:51.714425	177.1	31.5	-93.1	8.5
2025-01-15 19:28:52.868893	177.2	31.7	-92.7	11.5
2025-01-15 19:28:54.018424	177.4	32.0	-92.8	5.1
2025-01-15 19:28:55.165217	177.5	32.2	-92.7	10.0
2025-01-15 19:28:56.311516	177.6	32.4	-92.1	12.7
2025-01-15 19:28:57.464062	177.7	32.6	-92.9	6.8
2025-01-15 19:28:58.612339	177.9	32.8	-92.5	6.5
2025-01-15 19:28:59.771773	178.0	33.1	-92.9	10.3
2025-01-15 19:29:00.919482	178.1	33.3	-92.9	8.0
2025-01-15 19:29:02.064393	178.3	33.5	-92.6	9.8
2025-01-15 19:29:03.212117	178.4	33.8	-92.5	14.7
2025-01-15 19:29:04.368298	178.5	34.0	-92.4	15.8
2025-01-15 19:29:05.516293	178.7	34.2	-92.8	11.7
2025-01-15 19:29:06.668984	178.8	34.5	-92.5	15.3
2025-01-15 19:29:07.811499	179.0	34.7	-92.7	11.8
2025-01-15 19:29:08.962769	179.1	34.9	-93.2	13.1
2025-01-15 19:29:10.105588	179.3	35.2	-92.5	8.5
2025-01-15 19:29:11.251541	179.4	35.4	-92.7	10.2
2025-01-15 19:29:12.409124	179.6	35.6	-92.7	10.2
2025-01-15 19:29:13.562748	179.7	35.9	-93.0	8.5
2025-01-15 19:29:14.710901	179.9	36.1	-92.9	11.5
2025-01-15 19:29:15.861238	180.0	36.4	-92.7	10.1
2025-01-15 19:29:17.010907	180.2	36.6	-92.1	6.5
2025-01-15 19:29:18.160593	180.4	36.9	-92.7	10.2
2025-01-15 19:29:19.306833	180.5	37.1	-93.2	13.8
2025-01-15 19:29:20.457829	180.7	37.4	-93.1	13.7
2025-01-15 19:29:21.600692	180.9	37.6	-93.2	12.3
2025-01-15 19:29:22.755762	181.0	37.9	-93.2	8.8
2025-01-15 19:29:23.904748	181.2	38.2	-92.4	9.3
2025-01-15 19:29:25.057029	181.4	38.4	-92.8	8.8
2025-01-15 19:29:26.204361	181.6	38.7	-92.4	10.8
2025-01-15 19:29:27.354054	181.7	38.9	-92.9	9.1
2025-01-15 19:29:28.519813	181.9	39.2	-92.5	8.3
2025-01-15 19:29:29.665974	182.1	39.5	-93.4	5.7
2025-01-15 19:29:30.819545	182.3	39.8	-92.9	8.1
2025-01-15 19:29:31.970644	182.5	40.0	-92.8	7.7
2025-01-15 19:29:33.118417	182.7	40.3	-92.8	6.9
2025-01-15 19:29:34.270440	182.9	40.6	-93.1	10.7
2025-01-15 19:29:35.422917	183.1	40.8	-92.5	6.4
2025-01-15 19:29:36.570695	183.3	41.1	-92.7	3.8
2025-01-15 19:29:37.722314	183.6	41.4	-92.8	14.2
2025-01-15 19:29:38.867299	183.8	41.7	-93.0	13.3
2025-01-15 19:29:40.019269	184.0	42.0	-93.0	16.5
2025-01-15 19:29:41.163482	184.2	42.3	-92.4	16.6
2025-01-15 19:29:42.313967	184.4	42.5	-92.4	17.4
2025-01-15 19:29:43.463490	184.7	42.8	-92.9	16.6
2025-01-15 19:29:44.618333	184.9	43.1	-92.8	12.5
2025-01-15 19:29:45.775662	185.2	43.4	-92.6	15.6
2025-01-15 19:29:46.924943	185.4	43.7	-92.6	9.4
2025-01-15 19:29:48.077428	185.6	44.0	-92.6	12.1
2025-01-15 19:29:49.227496	185.9	44.3	-92.9	11.3
2025-01-15 19:29:50.372824	186.2	44.6	-93.0	17.6
2025-01-15 19:29:51.526672	186.4	44.9	-92.7	16.7
2025-01-15 19:29:52.675997	186.7	45.2	-93.0	15.3
2025-01-15 19:29:53.829039	187.0	45.5	-92.8	20.0
2025-01-15 19:29:54.968707	187.2	45.8	-92.8	9.2
2025-01-15 19:29:56.114586	187.5	46.1	-92.7	7.0
2025-01-15 19:29:57.264616	187.8	46.4	-93.1	11.8
2025-01-15 19:29:58.416683	188.1	46.7	-92.9	9.3
2025-01-15 19:29:59.565325	188.4	47.0	-92.7	9.0
2025-01-15 19:30:00.712308	188.7	47.3	-92.8	13.2
2025-01-15 19:30:01.866197	189.0	47.7	-93.1	16.7
2025-01-15 19:30:03.012423	189.4	48.0	-93.0	15.9
2025-01-15 19:30:04.157680	189.7	48.3	-92.5	15.4
2025-01-15 19:30:05.306778	190.0	48.6	-92.7	11.9
2025-01-15 19:30:06.453263	190.3	48.9	-92.8	10.2
2025-01-15 19:30:07.598292	190.7	49.2	-92.8	10.3
2025-01-15 19:30:08.749144	191.0	49.6	-93.0	16.1
2025-01-15 19:30:09.892080	191.4	49.9	-93.3	13.9
2025-01-15 19:30:11.047151	191.8	50.2	-93.0	13.1
2025-01-15 19:30:12.204315	192.2	50.5	-92.4	15.3
2025-01-15 19:30:13.353897	192.5	50.9	-92.9	7.6
2025-01-15 19:30:14.499817	192.9	51.2	-92.8	5.5
2025-01-15 19:30:15.652882	193.3	51.5	-93.1	10.6
2025-01-15 19:30:16.798599	193.7	51.8	-92.9	12.7
2025-01-15 19:30:17.949353	194.2	52.2	-93.0	6.1
2025-01-15 19:30:19.100090	194.6	52.5	-92.7	5.8
2025-01-15 19:30:20.258889	195.0	52.8	-92.7	15.6
2025-01-15 19:30:21.408734	195.5	53.2	-92.7	13.3
2025-01-15 19:30:22.558163	195.9	53.5	-92.6	11.2
2025-01-15 19:30:23.703470	196.4	53.8	-92.6	16.8
2025-01-15 19:30:24.853244	196.9	54.1	-93.0	17.0
2025-01-15 19:30:26.001386	197.4	54.5	-92.6	14.1
2025-01-15 19:30:27.149589	197.9	54.8	-92.4	13.3
2025-01-15 19:30:28.305877	198.4	55.1	-92.7	15.7
2025-01-15 19:30:29.452965	198.9	55.5	-92.9	17.4
2025-01-15 19:30:30.594464	199.4	55.8	-92.8	13.9
2025-01-15 19:30:31.742361	200.0	56.1	-92.6	17.8
2025-01-15 19:30:32.888889	200.5	56.4	-92.7	15.4
2025-01-15 19:30:34.034081	201.1	56.8	-92.6	11.3
2025-01-15 19:30:35.185609	201.7	57.1	-92.6	15.5
2025-01-15 19:30:36.333236	202.3	57.4	-92.9	12.9
2025-01-15 19:30:37.486250	202.9	57.8	-92.9	17.2
2025-01-15 19:30:38.634829	203.6	58.1	-92.8	15.1
2025-01-15 19:30:39.786081	204.2	58.4	-92.4	16.8
2025-01-15 19:30:40.938325	204.9	58.7	-92.9	18.7
2025-01-15 19:30:42.084683	205.6	59.0	-92.9	10.6
2025-01-15 19:30:43.237407	206.3	59.4	-92.1	11.9
2025-01-15 19:30:44.383604	207.0	59.7	-92.8	13.3
2025-01-15 19:30:45.532075	207.7	60.0	-93.1	9.4
2025-01-15 19:30:46.678620	208.4	60.3	-92.8	14.7
2025-01-15 19:30:47.824069	209.2	60.6	-92.9	17.6
2025-01-15 19:30:48.973951	210.0	60.9	-92.6	7.4
2025-01-15 19:30:50.123932	210.8	61.2	-92.5	11.0
2025-01-15 19:30:51.270283	211.6	61.5	-92.6	18.6
2025-01-15 19:30:52.423067	212.5	61.8	-92.6	16.6
2025-01-15 19:30:53.571079	213.3	62.1	-92.7	19.7
2025-01-15 19:30:54.720763	214.2	62.4	-93.2	20.2
2025-01-15 19:30:55.873735	215.1	62.6	-93.0	18.5
2025-01-15 19:30:57.020953	216.0	62.9	-92.6	22.3
2025-01-15 19:30:58.169808	217.0	63.2	-92.4	21.3
2025-01-15 19:30:59.320675	217.9	63.4	-92.7	19.6
2025-01-15 19:31:00.466219	218.9	63.7	-92.3	17.6
2025-01-15 19:31:01.623265	219.9	64.0	-93.0	19.6
2025-01-15 19:31:02.772359	221.0	64.2	-92.6	21.1
2025-01-15 19:31:03.922141	222.0	64.4	-92.6	14.2
2025-01-15 19:31:05.073027	223.1	64.7	-92.9	17.2
2025-01-15 19:31:06.218184	224.2	64.9	-92.5	17.3
2025-01-15 19:31:07.363921	225.3	65.1	-92.9	20.3
2025-01-15 19:31:08.507982	226.4	65.3	-92.9	13.7
2025-01-15 19:31:09.657507	227.6	65.5	-92.4	23.3
2025-01-15 19:31:10.806830	228.8	65.7	-92.9	22.6
2025-01-15 19:31:11.953203	230.0	65.9	-93.3	11.1
2025-01-15 19:31:13.101111	231.2	66.1	-92.6	16.2
2025-01-15 19:31:14.251508	232.4	66.2	-92.6	19.5
2025-01-15 19:31:15.405401	233.7	66.4	-92.5	23.4
2025-01-15 19:31:16.553204	235.0	66.5	-93.1	22.6
2025-01-15 19:31:17.710658	236.3	66.7	-93.1	21.5
2025-01-15 19:31:18.864778	237.6	66.8	-93.2	19.5
2025-01-15 19:31:20.013967	238.9	66.9	-92.8	21.4
2025-01-15 19:31:21.166859	240.3	67.0	-92.3	24.2
2025-01-15 19:31:22.309920	241.6	67.1	-93.1	21.4
2025-01-15 19:31:23.458590	242.9	67.2	-92.4	20.8
2025-01-15 19:31:24.607376	244.3	67.2	-92.4	18.5
2025-01-15 19:31:25.753632	245.7	67.3	-92.9	17.6
2025-01-15 19:31:26.901050	247.1	67.3	-92.0	15.2
2025-01-15 19:31:28.029431	248.4	67.3	-92.5	15.5
2025-01-15 19:31:29.150396	249.8	67.4	-92.1	20.9
2025-01-15 19:31:30.270612	251.1	67.4	-91.6	19.1
2025-01-15 19:31:31.391043	252.5	67.4	-89.7	13.8
2025-01-15 19:31:32.511112	253.8	67.3	-91.7	13.3
2025-01-15 19:31:33.631162	255.2	67.3	-92.7	15.2
2025-01-15 19:31:34.752515	256.5	67.3	-92.5	26.1
2025-01-15 19:31:35.873641	257.9	67.2	-92.4	20.2
2025-01-15 19:31:36.998028	259.2	67.2	-90.9	11.6
2025-01-15 19:31:38.144920	260.6	67.1	-91.4	16.2
2025-01-15 19:31:39.293359	261.9	67.0	-92.2	22.5
2025-01-15 19:31:40.448064	263.3	66.9	-92.5	13.7
2025-01-15 19:31:41.581073	264.6	66.8	-92.7	12.9
2025-01-15 19:31:42.736716	265.9	66.7	-92.6	19.7
2025-01-15 19:31:43.885913	267.2	66.5	-93.0	14.2
2025-01-15 19:31:45.037108	268.4	66.4	-93.1	10.6
2025-01-15 19:31:46.189179	269.7	66.2	-92.6	16.8
2025-01-15 19:31:47.333402	270.9	66.1	-92.4	20.5
2025-01-15 19:31:48.480664	272.2	65.9	-92.7	11.8
2025-01-15 19:31:49.635415	273.4	65.7	-92.6	23.8
2025-01-15 19:31:50.782432	274.6	65.5	-93.0	19.1
2025-01-15 19:31:51.938092	275.7	65.3	-92.9	16.1
2025-01-15 19:31:53.091774	276.9	65.1	-92.4	18.4
2025-01-15 19:31:54.247531	278.0	64.9	-92.7	15.3
2025-01-15 19:31:55.395752	279.1	64.7	-92.8	13.0
2025-01-15 19:31:56.543584	280.2	64.5	-93.1	10.8
2025-01-15 19:31:57.693679	281.2	64.2	-92.8	17.9
2025-01-15 19:31:58.850541	282.3	64.0	-92.6	16.3
2025-01-15 19:31:59.999624	283.3	63.7	-92.9	7.9
2025-01-15 19:32:01.144879	284.3	63.5	-92.8	3.2
2025-01-15 19:32:02.293212	285.2	63.2	-93.0	2.9
2025-01-15 19:32:03.443551	286.2	63.0	-92.8	5.9
2025-01-15 19:32:04.594752	287.1	62.7	-93.3	5.4
2025-01-15 19:32:05.738134	288.0	62.4	-93.5	7.5
2025-01-15 19:32:06.891220	288.9	62.1	-92.7	8.6
2025-01-15 19:32:08.047074	289.8	61.8	-92.5	10.3
2025-01-15 19:32:09.194820	290.6	61.5	-92.8	9.1
2025-01-15 19:32:10.352433	291.5	61.2	-92.8	12.4
2025-01-15 19:32:11.499103	292.3	60.9	-92.8	5.6
2025-01-15 19:32:12.657353	293.1	60.6	-93.0	11.2
2025-01-15 19:32:13.800852	293.8	60.3	-92.8	13.8
2025-01-15 19:32:14.949025	294.6	60.0	-92.9	13.3
2025-01-15 19:32:16.096192	295.3	59.7	-92.7	10.4
2025-01-15 19:32:17.245894	296.0	59.4	-92.5	12.1
2025-01-15 19:32:18.394718	296.7	59.1	-92.6	8.7
2025-01-15 19:32:19.539226	297.4	58.8	-93.2	11.5
2025-01-15 19:32:20.687165	298.1	58.4	-92.7	15.0
2025-01-15 19:32:21.831806	298.7	58.1	-93.1	18.5
2025-01-15 19:32:22.985145	299.3	57.8	-92.8	13.6
2025-01-15 19:32:24.131366	300.0	57.5	-92.6	14.8
2025-01-15 19:32:25.277715	300.6	57.2	-92.6	20.0
2025-01-15 19:32:26.425707	301.2	56.8	-93.0	11.8
2025-01-15 19:32:27.575846	301.7	56.5	-93.0	10.1
2025-01-15 19:32:28.724827	302.3	56.2	-92.9	21.0
2025-01-15 19:32:29.887933	302.9	55.8	-93.0	14.1
2025-01-15 19:32:31.034902	303.4	55.5	-92.7	15.9
2025-01-15 19:32:32.181571	303.9	55.2	-92.8	22.5
2025-01-15 19:32:33.326275	304.4	54.8	-93.2	16.8
2025-01-15 19:32:34.475378	304.9	54.5	-92.7	8.7
2025-01-15 19:32:35.619562	305.4	54.2	-92.9	17.3
2025-01-15 19:32:36.765801	305.9	53.9	-93.2	21.8
2025-01-15 19:32:37.907632	306.4	53.5	-92.8	12.7
2025-01-15 19:32:39.055038	306.8	53.2	-93.2	12.1
2025-01-15 19:32:40.204411	307.3	52.9	-92.8	10.6
2025-01-15 19:32:41.355322	307.7	52.5	-92.4	19.0
2025-01-15 19:32:42.490514	308.1	52.2	-93.2	12.6
2025-01-15 19:32:43.639117	308.6	51.9	-92.6	9.0
2025-01-15 19:32:44.791619	309.0	51.6	-92.9	14.3
2025-01-15 19:32:45.942013	309.4	51.2	-92.8	11.1
2025-01-15 19:32:47.097455	309.8	50.9	-92.6	11.4
2025-01-15 19:32:48.243692	310.2	50.6	-92.5	8.7
2025-01-15 19:32:49.389579	310.5	50.3	-92.8	13.4
2025-01-15 19:32:50.537576	310.9	49.9	-93.0	13.7
2025-01-15 19:32:51.684412	311.3	49.6	-93.2	12.6
2025-01-15 19:32:52.831594	311.6	49.3	-93.0	9.3
2025-01-15 19:32:53.979377	312.0	49.0	-93.1	11.8
2025-01-15 19:32:55.131733	312.3	48.7	-93.0	11.4
2025-01-15 19:32:56.277818	312.6	48.3	-93.1	18.7
2025-01-15 19:32:57.428977	313.0	48.0	-92.8	14.7
2025-01-15 19:32:58.573825	313.3	47.7	-92.9	13.3
2025-01-15 19:32:59.719169	313.6	47.4	-92.9	9.7
2025-01-15 19:33:00.872126	313.9	47.1	-93.2	16.3
2025-01-15 19:33:02.021330	314.2	46.8	-92.9	9.4
2025-01-15 19:33:03.167528	314.5	46.5	-92.6	13.4
2025-01-15 19:33:04.316691	314.8	46.2	-92.6	18.0
2025-01-15 19:33:05.468443	315.1	45.9	-92.9	7.8
2025-01-15 19:33:06.616103	315.4	45.5	-93.2	10.0
2025-01-15 19:33:07.767130	315.6	45.2	-93.3	16.0
2025-01-15 19:33:08.920553	315.9	44.9	-93.0	11.7
2025-01-15 19:33:10.067485	316.2	44.6	-92.6	12.0
2025-01-15 19:33:11.212604	316.4	44.3	-92.7	14.8
2025-01-15 19:33:12.361348	316.7	44.1	-93.2	15.5
2025-01-15 19:33:13.507059	316.9	43.8	-93.0	15.3
2025-01-15 19:33:14.655948	317.2	43.5	-92.9	15.7
2025-01-15 19:33:15.801243	317.4	43.2	-93.3	16.2
2025-01-15 19:33:16.951055	317.7	42.9	-92.8	17.1
2025-01-15 19:33:18.103477	317.9	42.6	-92.7	12.8
2025-01-15 19:33:19.255080	318.1	42.3	-92.7	20.4
2025-01-15 19:33:20.410003	318.4	42.0	-93.1	11.5
2025-01-15 19:33:21.558422	318.6	41.7	-93.0	17.4
2025-01-15 19:33:22.704139	318.8	41.5	-93.0	19.3
2025-01-15 19:33:23.851848	319.0	41.2	-92.9	14.0
2025-01-15 19:33:25.000577	319.2	40.9	-92.8	10.8
2025-01-15 19:33:26.147476	319.4	40.6	-93.1	10.3
2025-01-15 19:33:27.296144	319.6	40.4	-92.7	13.5
2025-01-15 19:33:28.442307	319.8	40.1	-93.0	12.8
2025-01-15 19:33:29.597279	320.0	39.8	-93.2	15.2
2025-01-15 19:33:30.755315	320.2	39.5	-93.0	18.0
2025-01-15 19:33:31.903730	320.4	39.3	-92.9	13.3
2025-01-15 19:33:33.058969	320.6	39.0	-92.9	13.9
2025-01-15 19:33:34.215091	320.8	38.7	-92.8	10.2
2025-01-15 19:33:35.371193	321.0	38.5	-92.5	19.9
2025-01-15 19:33:36.515979	321.1	38.2	-93.2	14.3
2025-01-15 19:33:37.664992	321.3	38.0	-93.5	16.3
2025-01-15 19:33:38.817684	321.5	37.7	-92.7	15.0
2025-01-15 19:33:39.958682	321.7	37.4	-93.2	14.7
2025-01-15 19:33:41.106034	321.8	37.2	-93.1	8.5
2025-01-15 19:33:42.260868	322.0	36.9	-92.7	15.4
2025-01-15 19:33:43.406263	322.2	36.7	-92.8	7.4
2025-01-15 19:33:44.554015	322.3	36.4	-93.3	6.9
2025-01-15 19:33:45.704292	322.5	36.2	-92.8	14.2
2025-01-15 19:33:46.856472	322.6	35.9	-93.0	10.7
2025-01-15 19:33:48.004991	322.8	35.7	-92.7	3.0
2025-01-15 19:33:49.151071	323.0	35.5	-92.6	12.1
2025-01-15 19:33:50.297783	323.1	35.2	-92.5	14.3
2025-01-15 19:33:51.445207	323.2	35.0	-92.7	11.9
2025-01-15 19:33:52.591744	323.4	34.7	-93.0	18.1
2025-01-15 19:33:53.739778	323.5	34.5	-93.1	18.3
2025-01-15 19:33:54.892826	323.7	34.3	-92.7	12.1
2025-01-15 19:33:56.036982	323.8	34.0	-92.8	15.0
2025-01-15 19:33:57.184103	324.0	33.8	-92.8	15.0
2025-01-15 19:33:58.335389	324.1	33.6	-92.4	17.2
2025-01-15 19:33:59.480912	324.2	33.3	-92.1	17.1
2025-01-15 19:34:00.630426	324.4	33.1	-93.1	11.5
2025-01-15 19:34:01.775456	324.5	32.9	-92.6	18.4
2025-01-15 19:34:02.934765	324.6	32.7	-92.9	12.1
2025-01-15 19:34:04.080269	324.7	32.4	-92.6	10.0
2025-01-15 19:34:05.229416	324.9	32.2	-93.0	8.1
2025-01-15 19:34:06.377306	325.0	32.0	-92.5	11.1
2025-01-15 19:34:07.519497	325.1	31.8	-92.7	13.7
2025-01-15 19:34:08.672106	325.2	31.6	-93.3	12.3
2025-01-15 19:34:09.824513	325.4	31.4	-93.5	15.5
2025-01-15 19:34:10.975382	325.5	31.1	-92.9	16.6
2025-01-15 19:34:12.122714	325.6	30.9	-92.5	13.7
2025-01-15 19:34:13.266718	325.7	30.7	-92.4	16.5
2025-01-15 19:34:14.414745	325.8	30.5	-93.0	14.4
2025-01-15 19:34:15.560365	325.9	30.3	-92.8	10.0
2025-01-15 19:34:16.714429	326.0	30.1	-93.1	10.8
2025-01-15 19:34:17.866173	326.2	29.9	-93.3	6.9
2025-01-15 19:34:19.015104	326.3	29.7	-93.1	7.3
2025-01-15 19:34:20.161655	326.4	29.5	-92.3	7.4
2025-01-15 19:34:21.307381	326.5	29.3	-92.9	5.5
2025-01-15 19:34:22.452705	326.6	29.1	-93.1	5.9
2025-01-15 19:34:23.597037	326.7	28.9	-92.7	7.2
2025-01-15 19:34:24.746742	326.8	28.7	-93.1	15.7
2025-01-15 19:34:25.893877	326.9	28.5	-93.4	16.2
2025-01-15 19:34:27.041510	327.0	28.3	-93.0	10.0
2025-01-15 19:34:28.189277	327.1	28.1	-93.0	9.8
2025-01-15 19:34:29.341049	327.2	27.9	-92.6	11.9
2025-01-15 19:34:30.491107	327.3	27.7	-93.2	8.1
2025-01-15 19:34:31.635574	327.4	27.5	-92.8	6.2
2025-01-15 19:34:32.786507	327.5	27.3	-93.0	10.1
2025-01-15 19:34:33.933319	327.6	27.2	-93.2	7.9
2025-01-15 19:34:35.080363	327.7	27.0	-92.5	9.5
2025-01-15 19:34:36.226571	327.7	26.8	-92.8	8.8
2025-01-15 19:34:37.375402	327.8	26.6	-92.9	15.1
2025-01-15 19:34:38.520213	327.9	26.4	-92.7	10.6
2025-01-15 19:34:39.673475	328.0	26.2	-92.6	14.1
2025-01-15 19:34:40.820458	328.1	26.1	-92.7	13.8
2025-01-15 19:34:41.969730	328.2	25.9	-92.8	13.9
2025-01-15 19:34:43.115416	328.3	25.7	-92.4	11.4
2025-01-15 19:34:44.266607	328.4	25.5	-92.5	9.7
2025-01-15 19:34:45.413285	328.4	25.3	-92.8	11.0
2025-01-15 19:34:46.561543	328.5	25.2	-93.0	7.5
2025-01-15 19:34:47.708117	328.6	25.0	-92.4	12.1
2025-01-15 19:34:48.855639	328.7	24.8	-92.7	12.4
2025-01-15 19:34:50.000678	328.8	24.7	-91.3	8.6
2025-01-15 19:34:51.147566	328.9	24.5	-92.0	9.7
2025-01-15 19:34:52.295366	328.9	24.3	-92.6	12.4
2025-01-15 19:34:53.444359	329.0	24.1	-93.0	8.7
2025-01-15 19:34:54.590924	329.1	24.0	-92.7	8.6
2025-01-15 19:34:55.740174	329.2	23.8	-92.7	10.7
2025-01-15 19:34:56.886358	329.2	23.6	-92.6	10.4
2025-01-15 19:34:58.040135	329.3	23.5	-92.6	11.5
2025-01-15 19:34:59.190133	329.4	23.3	-92.4	6.4
2025-01-15 19:35:00.335934	329.5	23.2	-92.5	8.2
2025-01-15 19:35:01.482777	329.5	23.0	-92.9	5.4
2025-01-15 19:35:02.632228	329.6	22.8	-93.0	5.0
2025-01-15 19:35:03.785699	329.7	22.7	-93.3	8.5
2025-01-15 19:35:04.933043	329.7	22.5	-93.2	7.1
2025-01-15 19:35:06.087993	329.8	22.4	-93.2	5.7
2025-01-15 19:35:07.231166	329.9	22.2	-92.3	15.7
2025-01-15 19:35:08.376051	330.0	22.0	-92.6	7.9
2025-01-15 19:35:09.521533	330.0	21.9	-93.3	11.0
2025-01-15 19:35:10.669513	330.1	21.7	-92.6	9.9
2025-01-15 19:35:11.820134	330.2	21.6	-93.2	9.7
2025-01-15 19:35:12.966067	330.2	21.4	-93.1	12.6
2025-01-15 19:35:14.114755	330.3	21.3	-92.5	12.8
2025-01-15 19:35:15.263086	330.4	21.1	-92.8	12.8
2025-01-15 19:35:16.407340	330.4	21.0	-93.3	9.2
2025-01-15 19:35:17.560830	330.5	20.8	-93.0	5.3
2025-01-15 19:35:18.722321	330.6	20.7	-93.0	6.7
2025-01-15 19:35:19.870676	330.6	20.5	-93.2	6.7
2025-01-15 19:35:21.017548	330.7	20.4	-92.6	2.1
2025-01-15 19:35:22.163578	330.7	20.2	-92.9	3.6
2025-01-15 19:35:23.312578	330.8	20.1	-92.9	4.3
2025-01-15 19:35:24.461483	330.9	19.9	-92.5	3.9
2025-01-15 19:35:25.614009	330.9	19.8	-93.1	3.0
2025-01-15 19:35:26.772311	331.0	19.7	-93.0	6.2
2025-01-15 19:35:27.916160	331.0	19.5	-93.1	5.5
2025-01-15 19:35:29.064357	331.1	19.4	-92.8	6.0
2025-01-15 19:35:30.220681	331.2	19.2	-92.3	3.9
2025-01-15 19:35:31.375644	331.2	19.1	-92.7	5.2
2025-01-15 19:35:32.524215	331.3	19.0	-93.2	4.7
2025-01-15 19:35:33.673721	331.3	18.8	-93.2	8.0
2025-01-15 19:35:34.818527	331.4	18.7	-92.8	9.6
2025-01-15 19:35:35.971210	331.4	18.5	-93.2	3.4
2025-01-15 19:35:37.122216	331.5	18.4	-92.9	3.0
2025-01-15 19:35:38.275786	331.6	18.3	-93.1	4.0
2025-01-15 19:35:39.420190	331.6	18.1	-92.3	4.3
2025-01-15 19:35:40.568036	331.7	18.0	-93.1	5.5
2025-01-15 19:35:41.715475	331.7	17.9	-93.2	6.6
2025-01-15 19:35:42.868049	331.8	17.7	-93.0	6.2
2025-01-15 19:35:44.016669	331.8	17.6	-93.0	2.5
2025-01-15 19:35:45.164021	331.9	17.5	-93.2	3.2
2025-01-15 19:35:46.318782	331.9	17.3	-92.9	6.5
2025-01-15 19:35:47.467026	332.0	17.2	-93.2	4.5
2025-01-15 19:35:48.614507	332.0	17.1	-92.6	3.9
2025-01-15 19:35:49.763520	332.1	17.0	-92.8	3.5
2025-01-15 19:35:50.910219	332.1	16.8	-93.2	4.0
2025-01-15 19:35:52.057721	332.2	16.7	-92.8	4.3
2025-01-15 19:35:53.211429	332.2	16.6	-92.9	5.7
2025-01-15 19:35:54.359439	332.3	16.5	-92.8	5.7
2025-01-15 19:35:55.508292	332.3	16.3	-93.2	6.5
2025-01-15 19:35:56.662094	332.4	16.2	-93.2	4.0
2025-01-15 19:35:57.810036	332.4	16.1	-92.9	2.7
2025-01-15 19:35:58.953623	332.5	16.0	-93.2	4.9
2025-01-15 19:36:00.105546	332.5	15.8	-92.8	4.3
2025-01-15 19:36:01.248621	332.6	15.7	-92.9	4.6
2025-01-15 19:36:02.394941	332.6	15.6	-93.1	3.0
2025-01-15 19:36:03.544861	332.7	15.5	-93.1	3.6
2025-01-15 19:36:04.700060	332.7	15.3	-93.4	2.3
2025-01-15 19:36:05.844156	332.8	15.2	-92.8	5.8
2025-01-15 19:36:06.990980	332.8	15.1	-92.9	5.0
2025-01-15 19:36:08.138917	332.9	15.0	-92.9	4.6
2025-01-15 19:36:09.285392	332.9	14.9	-92.4	4.3
2025-01-15 19:36:10.436165	332.9	14.8	-93.1	4.4
2025-01-15 19:36:11.594250	333.0	14.6	-93.0	4.6
2025-01-15 19:36:12.741229	333.0	14.5	-92.9	6.3
#Closed at: 2025-01-15 19:26:57.578569