passes_logs/2025/01/15/LEX_Murmansk/LEX_Murmansk__20250115_092659_NOAA_18_rec.log

#Pass ID: 20250115_092659_NOAA 18
#Satellite: NOAA 18
#Configuration: NOAA 18
#Start time: 2025-01-15 09:26:54.295939

#LorettStation: 1.0.0 05.05.2024
#Station: LEX_Murmansk
#Location: 33.156738 lon 68.926811 lat
#TLE: 1 28654U 05018A   25014.17177243  .00000313  00000+0  18955-3 0  9990
#TLE: 2 28654  98.8569  95.2344 0014326 181.4762 178.6370 14.13485757 13061

#Time	Az	El	Level	SNR
2025-01-15 09:27:06.574629	27.9	16.3	-91.0	4.0
2025-01-15 09:27:07.737089	27.9	16.4	-91.2	11.4
2025-01-15 09:27:08.901839	28.0	16.5	-90.9	7.2
2025-01-15 09:27:10.054757	28.0	16.7	-90.9	7.3
2025-01-15 09:27:11.210916	28.1	16.8	-90.8	12.3
2025-01-15 09:27:12.382344	28.1	16.9	-90.4	10.4
2025-01-15 09:27:13.542496	28.2	17.1	-91.0	11.9
2025-01-15 09:27:14.714093	28.3	17.2	-91.1	10.9
2025-01-15 09:27:15.873732	28.3	17.3	-91.2	10.6
2025-01-15 09:27:17.039646	28.4	17.4	-91.1	9.2
2025-01-15 09:27:18.208039	28.4	17.6	-90.8	9.7
2025-01-15 09:27:19.369709	28.5	17.7	-90.8	11.1
2025-01-15 09:27:20.529301	28.5	17.8	-91.0	7.0
2025-01-15 09:27:21.690000	28.6	18.0	-91.1	10.4
2025-01-15 09:27:22.852923	28.7	18.1	-91.2	11.2
2025-01-15 09:27:24.015317	28.7	18.2	-91.0	11.6
2025-01-15 09:27:25.178835	28.8	18.4	-90.7	11.6
2025-01-15 09:27:26.345084	28.8	18.5	-90.6	13.4
2025-01-15 09:27:27.510024	28.9	18.7	-91.2	10.3
2025-01-15 09:27:28.677878	29.0	18.8	-90.9	12.4
2025-01-15 09:27:29.842202	29.0	18.9	-90.9	11.2
2025-01-15 09:27:31.004000	29.1	19.1	-91.0	5.4
2025-01-15 09:27:32.166701	29.1	19.2	-90.7	11.0
2025-01-15 09:27:33.329969	29.2	19.4	-90.5	10.4
2025-01-15 09:27:34.501029	29.3	19.5	-91.0	11.3
2025-01-15 09:27:35.661249	29.3	19.6	-91.3	13.9
2025-01-15 09:27:36.826924	29.4	19.8	-91.3	11.3
2025-01-15 09:27:37.986066	29.5	19.9	-91.3	9.7
2025-01-15 09:27:39.142218	29.5	20.1	-91.0	10.4
2025-01-15 09:27:40.305414	29.6	20.2	-90.9	14.5
2025-01-15 09:27:41.468965	29.7	20.4	-91.0	15.0
2025-01-15 09:27:42.630926	29.7	20.5	-91.1	15.5
2025-01-15 09:27:43.793455	29.8	20.7	-90.9	14.4
2025-01-15 09:27:44.957015	29.9	20.8	-90.8	9.5
2025-01-15 09:27:46.123178	29.9	21.0	-90.8	8.5
2025-01-15 09:27:47.285588	30.0	21.1	-91.1	13.7
2025-01-15 09:27:48.449193	30.1	21.3	-90.9	7.4
2025-01-15 09:27:49.617819	30.2	21.4	-91.3	8.2
2025-01-15 09:27:50.778052	30.2	21.6	-91.2	10.1
2025-01-15 09:27:51.941452	30.3	21.7	-91.1	11.6
2025-01-15 09:27:53.100768	30.4	21.9	-90.8	12.2
2025-01-15 09:27:54.259798	30.5	22.0	-91.0	9.6
2025-01-15 09:27:55.425890	30.5	22.2	-90.9	12.0
2025-01-15 09:27:56.585393	30.6	22.3	-91.2	11.5
2025-01-15 09:27:57.754933	30.7	22.5	-91.3	12.2
2025-01-15 09:27:58.917315	30.8	22.7	-91.3	15.2
2025-01-15 09:28:00.079782	30.8	22.8	-91.1	10.4
2025-01-15 09:28:01.236883	30.9	23.0	-91.0	12.1
2025-01-15 09:28:02.401385	31.0	23.1	-91.2	12.6
2025-01-15 09:28:03.557590	31.1	23.3	-91.5	9.1
2025-01-15 09:28:04.722799	31.2	23.5	-91.6	10.7
2025-01-15 09:28:05.883117	31.2	23.6	-91.2	10.3
2025-01-15 09:28:07.050503	31.3	23.8	-91.5	11.2
2025-01-15 09:28:08.205556	31.4	24.0	-91.1	12.7
2025-01-15 09:28:09.367836	31.5	24.1	-91.1	12.1
2025-01-15 09:28:10.532745	31.6	24.3	-91.2	14.9
2025-01-15 09:28:11.689739	31.7	24.5	-91.1	11.3
2025-01-15 09:28:12.856742	31.7	24.7	-91.3	12.6
2025-01-15 09:28:14.021637	31.8	24.8	-91.4	13.1
2025-01-15 09:28:15.183925	31.9	25.0	-91.2	13.2
2025-01-15 09:28:16.347110	32.0	25.2	-91.0	10.7
2025-01-15 09:28:17.506983	32.1	25.4	-91.3	9.9
2025-01-15 09:28:18.665346	32.2	25.5	-91.4	10.2
2025-01-15 09:28:19.828349	32.3	25.7	-91.4	9.5
2025-01-15 09:28:20.984339	32.4	25.9	-91.3	12.2
2025-01-15 09:28:22.150194	32.5	26.1	-91.0	9.5
2025-01-15 09:28:23.314853	32.6	26.2	-91.1	9.4
2025-01-15 09:28:24.477957	32.7	26.4	-91.2	9.6
2025-01-15 09:28:25.644749	32.8	26.6	-91.4	10.8
2025-01-15 09:28:26.804232	32.9	26.8	-91.1	11.4
2025-01-15 09:28:27.966710	33.0	27.0	-90.9	9.9
2025-01-15 09:28:29.127190	33.1	27.2	-91.1	11.8
2025-01-15 09:28:30.289199	33.2	27.4	-91.2	11.9
2025-01-15 09:28:31.446481	33.3	27.5	-91.0	10.1
2025-01-15 09:28:32.613716	33.4	27.7	-91.2	12.1
2025-01-15 09:28:33.780074	33.5	27.9	-91.2	10.4
2025-01-15 09:28:34.944066	33.6	28.1	-91.0	12.8
2025-01-15 09:28:36.103229	33.7	28.3	-90.7	11.1
2025-01-15 09:28:37.273736	33.8	28.5	-90.5	7.7
2025-01-15 09:28:38.436947	33.9	28.7	-90.6	6.7
2025-01-15 09:28:39.597342	34.0	28.9	-91.1	9.1
2025-01-15 09:28:40.764019	34.1	29.1	-91.4	9.5
2025-01-15 09:28:41.928455	34.3	29.3	-91.5	10.5
2025-01-15 09:28:43.094528	34.4	29.5	-91.2	13.4
2025-01-15 09:28:44.252712	34.5	29.7	-91.3	14.3
2025-01-15 09:28:45.417754	34.6	29.9	-91.2	10.8
2025-01-15 09:28:46.584207	34.7	30.1	-91.3	12.1
2025-01-15 09:28:47.743685	34.9	30.3	-91.1	12.2
2025-01-15 09:28:48.912444	35.0	30.6	-91.1	11.9
2025-01-15 09:28:50.074968	35.1	30.8	-91.0	8.8
2025-01-15 09:28:51.238033	35.2	31.0	-91.0	9.3
2025-01-15 09:28:52.402487	35.4	31.2	-91.3	13.6
2025-01-15 09:28:53.566880	35.5	31.4	-91.2	8.9
2025-01-15 09:28:54.730177	35.6	31.6	-91.3	13.3
2025-01-15 09:28:55.895707	35.8	31.8	-91.4	9.9
2025-01-15 09:28:57.060186	35.9	32.1	-91.2	7.4
2025-01-15 09:28:58.218492	36.0	32.3	-89.9	8.3
2025-01-15 09:28:59.381335	36.2	32.5	-89.8	9.1
2025-01-15 09:29:00.540407	36.3	32.7	-89.7	9.5
2025-01-15 09:29:01.701364	36.5	32.9	-90.1	13.0
2025-01-15 09:29:02.863413	36.6	33.2	-90.2	14.0
2025-01-15 09:29:04.028979	36.7	33.4	-91.6	13.2
2025-01-15 09:29:05.188782	36.9	33.6	-91.3	12.8
2025-01-15 09:29:06.355239	37.0	33.9	-91.3	15.8
2025-01-15 09:29:07.522165	37.2	34.1	-91.4	10.2
2025-01-15 09:29:08.686539	37.3	34.3	-91.4	14.7
2025-01-15 09:29:09.847699	37.5	34.6	-91.4	14.7
2025-01-15 09:29:11.003984	37.7	34.8	-91.1	11.1
2025-01-15 09:29:12.184223	37.8	35.0	-91.3	12.5
2025-01-15 09:29:13.346983	38.0	35.3	-91.1	15.6
2025-01-15 09:29:14.514027	38.2	35.5	-91.2	7.8
2025-01-15 09:29:15.675086	38.3	35.8	-91.0	13.3
2025-01-15 09:29:16.838068	38.5	36.0	-91.0	14.3
2025-01-15 09:29:18.005746	38.7	36.3	-91.2	14.8
2025-01-15 09:29:19.166651	38.8	36.5	-91.0	13.4
2025-01-15 09:29:20.334886	39.0	36.8	-91.4	16.6
2025-01-15 09:29:21.496330	39.2	37.0	-91.5	14.8
2025-01-15 09:29:22.657196	39.4	37.3	-91.4	16.3
2025-01-15 09:29:23.809801	39.6	37.5	-91.2	15.3
2025-01-15 09:29:24.975643	39.8	37.8	-91.6	12.8
2025-01-15 09:29:26.136396	40.0	38.0	-91.1	15.1
2025-01-15 09:29:27.309200	40.1	38.3	-91.0	13.2
2025-01-15 09:29:28.477792	40.3	38.6	-91.1	12.9
2025-01-15 09:29:29.628521	40.5	38.8	-90.9	13.6
2025-01-15 09:29:30.793903	40.8	39.1	-91.2	12.4
2025-01-15 09:29:31.961773	41.0	39.4	-91.4	11.0
2025-01-15 09:29:33.136078	41.2	39.6	-91.2	10.3
2025-01-15 09:29:34.304460	41.4	39.9	-90.9	14.8
2025-01-15 09:29:35.466071	41.6	40.2	-90.8	12.7
2025-01-15 09:29:36.628792	41.8	40.4	-90.9	12.1
2025-01-15 09:29:37.796781	42.1	40.7	-91.2	15.3
2025-01-15 09:29:38.965793	42.3	41.0	-91.8	16.5
2025-01-15 09:29:40.131320	42.5	41.3	-91.3	17.9
2025-01-15 09:29:41.292538	42.8	41.6	-91.2	16.2
2025-01-15 09:29:42.463320	43.0	41.8	-91.4	14.1
2025-01-15 09:29:43.621014	43.2	42.1	-91.4	12.0
2025-01-15 09:29:44.786159	43.5	42.4	-91.5	15.4
2025-01-15 09:29:45.951931	43.8	42.7	-91.6	10.6
2025-01-15 09:29:47.113282	44.0	43.0	-91.1	18.2
2025-01-15 09:29:48.277749	44.3	43.3	-91.2	16.0
2025-01-15 09:29:49.444721	44.5	43.6	-91.1	15.0
2025-01-15 09:29:50.607932	44.8	43.9	-91.1	11.7
2025-01-15 09:29:51.772220	45.1	44.1	-91.2	14.8
2025-01-15 09:29:52.937325	45.4	44.4	-91.1	8.0
2025-01-15 09:29:54.102555	45.7	44.7	-90.8	8.2
2025-01-15 09:29:55.265904	46.0	45.0	-91.3	13.5
2025-01-15 09:29:56.430476	46.3	45.3	-91.3	13.4
2025-01-15 09:29:57.593264	46.6	45.6	-91.5	14.7
2025-01-15 09:29:58.755950	46.9	45.9	-91.6	20.1
2025-01-15 09:29:59.919828	47.2	46.2	-91.3	16.0
2025-01-15 09:30:01.084188	47.5	46.6	-91.3	11.8
2025-01-15 09:30:02.252141	47.8	46.9	-91.3	16.5
2025-01-15 09:30:03.421666	48.2	47.2	-91.5	10.5
2025-01-15 09:30:04.586140	48.5	47.5	-91.6	9.5
2025-01-15 09:30:05.755075	48.9	47.8	-91.6	15.4
2025-01-15 09:30:06.920856	49.2	48.1	-91.6	7.5
2025-01-15 09:30:08.090538	49.6	48.4	-91.5	8.4
2025-01-15 09:30:09.253421	50.0	48.7	-91.7	5.3
2025-01-15 09:30:10.412629	50.3	49.0	-91.2	11.1
2025-01-15 09:30:11.578551	50.7	49.4	-91.5	11.8
2025-01-15 09:30:12.743491	51.1	49.7	-91.7	12.2
2025-01-15 09:30:13.904309	51.5	50.0	-91.5	6.9
2025-01-15 09:30:15.065394	51.9	50.3	-91.4	7.5
2025-01-15 09:30:16.226849	52.3	50.6	-91.3	6.5
2025-01-15 09:30:17.393494	52.8	50.9	-89.9	6.6
2025-01-15 09:30:18.557954	53.2	51.3	-89.9	4.0
2025-01-15 09:30:19.723445	53.7	51.6	-90.1	6.7
2025-01-15 09:30:20.887250	54.1	51.9	-90.3	9.5
2025-01-15 09:30:22.051041	54.6	52.2	-89.8	10.1
2025-01-15 09:30:23.212164	55.1	52.5	-91.1	12.3
2025-01-15 09:30:24.376461	55.5	52.9	-91.1	14.6
2025-01-15 09:30:25.541021	56.0	53.2	-91.0	17.1
2025-01-15 09:30:26.707877	56.5	53.5	-91.2	15.1
2025-01-15 09:30:27.876556	57.1	53.8	-91.3	12.9
2025-01-15 09:30:29.037620	57.6	54.2	-91.0	9.6
2025-01-15 09:30:30.203990	58.1	54.5	-91.2	13.8
2025-01-15 09:30:31.361731	58.7	54.8	-91.2	15.4
2025-01-15 09:30:32.527594	59.3	55.1	-91.4	13.3
2025-01-15 09:30:33.691127	59.8	55.4	-91.7	13.0
2025-01-15 09:30:34.854886	60.4	55.7	-91.5	16.9
2025-01-15 09:30:36.015913	61.0	56.1	-91.3	18.4
2025-01-15 09:30:37.182898	61.7	56.4	-91.0	14.5
2025-01-15 09:30:38.350534	62.3	56.7	-90.7	16.9
2025-01-15 09:30:39.505093	62.9	57.0	-91.0	13.8
2025-01-15 09:30:40.665969	63.6	57.3	-90.8	13.9
2025-01-15 09:30:41.828386	64.3	57.6	-91.4	15.3
2025-01-15 09:30:42.996345	65.0	57.9	-91.6	10.4
2025-01-15 09:30:44.154037	65.7	58.2	-91.1	11.6
2025-01-15 09:30:45.320215	66.4	58.5	-90.8	20.5
2025-01-15 09:30:46.479266	67.1	58.8	-91.3	10.3
2025-01-15 09:30:47.645573	67.9	59.1	-91.1	10.1
2025-01-15 09:30:48.809384	68.7	59.4	-90.9	16.6
2025-01-15 09:30:49.969228	69.5	59.7	-91.0	16.9
2025-01-15 09:30:51.136300	70.3	60.0	-90.6	16.1
2025-01-15 09:30:52.295110	71.1	60.3	-90.9	18.0
2025-01-15 09:30:53.458082	71.9	60.5	-91.4	16.8
2025-01-15 09:30:54.620892	72.8	60.8	-91.3	19.9
2025-01-15 09:30:55.785723	73.7	61.1	-91.4	19.1
2025-01-15 09:30:56.947561	74.6	61.3	-91.5	17.1
2025-01-15 09:30:58.112595	75.5	61.6	-91.1	12.6
2025-01-15 09:30:59.269509	76.4	61.8	-91.1	17.1
2025-01-15 09:31:00.434045	77.4	62.1	-90.9	13.7
2025-01-15 09:31:01.586252	78.4	62.3	-91.5	15.0
2025-01-15 09:31:02.755438	79.4	62.6	-90.7	21.0
2025-01-15 09:31:03.931343	80.4	62.8	-91.2	13.0
2025-01-15 09:31:05.087479	81.4	63.0	-91.4	11.4
2025-01-15 09:31:06.249056	82.5	63.2	-91.2	13.7
2025-01-15 09:31:07.413975	83.5	63.4	-91.4	17.0
2025-01-15 09:31:08.580909	84.6	63.6	-91.3	15.4
2025-01-15 09:31:09.742014	85.7	63.8	-91.2	15.8
2025-01-15 09:31:10.917115	86.9	64.0	-91.2	12.8
2025-01-15 09:31:12.075885	88.0	64.2	-91.2	18.8
2025-01-15 09:31:13.248421	89.2	64.3	-91.0	15.5
2025-01-15 09:31:14.413021	90.4	64.5	-91.2	13.5
2025-01-15 09:31:15.576307	91.6	64.6	-90.3	15.2
2025-01-15 09:31:16.739290	92.8	64.8	-90.3	15.8
2025-01-15 09:31:17.901063	94.0	64.9	-90.3	10.5
2025-01-15 09:31:19.064440	95.2	65.0	-89.9	9.0
2025-01-15 09:31:20.226806	96.5	65.1	-89.2	10.9
2025-01-15 09:31:21.394126	97.7	65.2	-90.1	14.2
2025-01-15 09:31:22.552235	99.0	65.3	-91.2	10.3
2025-01-15 09:31:23.712146	100.3	65.4	-91.0	20.3
2025-01-15 09:31:24.875178	101.6	65.4	-91.1	14.4
2025-01-15 09:31:26.040779	102.8	65.5	-91.5	12.1
2025-01-15 09:31:27.206172	104.1	65.5	-91.2	12.5
2025-01-15 09:31:28.367013	105.4	65.6	-91.2	7.9
2025-01-15 09:31:29.530224	106.7	65.6	-91.5	10.7
2025-01-15 09:31:30.692613	108.1	65.6	-91.4	17.6
2025-01-15 09:31:31.849316	109.3	65.6	-91.6	11.1
2025-01-15 09:31:33.013092	110.7	65.6	-91.3	13.1
2025-01-15 09:31:34.178319	112.0	65.5	-90.8	17.1
2025-01-15 09:31:35.343664	113.3	65.5	-90.8	10.6
2025-01-15 09:31:36.501756	114.5	65.4	-91.0	11.8
2025-01-15 09:31:37.663548	115.8	65.4	-91.2	12.9
2025-01-15 09:31:38.821984	117.1	65.3	-91.3	8.9
2025-01-15 09:31:39.984854	118.4	65.2	-91.4	10.3
2025-01-15 09:31:41.145636	119.6	65.1	-90.6	13.0
2025-01-15 09:31:42.305246	120.9	65.0	-91.0	17.5
2025-01-15 09:31:43.468969	122.1	64.9	-91.4	11.0
2025-01-15 09:31:44.635512	123.3	64.8	-91.5	12.9
2025-01-15 09:31:45.795857	124.6	64.7	-91.4	15.2
2025-01-15 09:31:46.960292	125.8	64.5	-91.2	10.2
2025-01-15 09:31:48.126142	126.9	64.4	-90.8	16.4
2025-01-15 09:31:49.288666	128.1	64.2	-90.8	12.0
2025-01-15 09:31:50.454311	129.2	64.0	-91.6	14.1
2025-01-15 09:31:51.608600	130.4	63.8	-91.0	20.8
2025-01-15 09:31:52.770358	131.5	63.7	-90.9	17.4
2025-01-15 09:31:53.930028	132.6	63.5	-89.9	17.9
2025-01-15 09:31:55.106480	133.7	63.3	-89.2	21.6
2025-01-15 09:31:56.271663	134.7	63.0	-89.3	18.0
2025-01-15 09:31:57.435848	135.8	62.8	-89.7	20.9
2025-01-15 09:31:58.601909	136.8	62.6	-89.8	21.2
2025-01-15 09:31:59.763596	137.8	62.4	-91.4	16.7
2025-01-15 09:32:00.918527	138.8	62.1	-91.4	18.1
2025-01-15 09:32:02.079429	139.7	61.9	-91.1	16.7
2025-01-15 09:32:03.248072	140.7	61.6	-89.7	15.7
2025-01-15 09:32:04.409939	141.6	61.4	-89.8	16.8
2025-01-15 09:32:05.576756	142.5	61.1	-89.8	19.2
2025-01-15 09:32:06.733621	143.4	60.8	-89.8	17.0
2025-01-15 09:32:07.902270	144.3	60.6	-89.5	9.1
2025-01-15 09:32:09.068381	145.1	60.3	-91.0	18.0
2025-01-15 09:32:10.225420	145.9	60.0	-91.0	19.3
2025-01-15 09:32:11.391184	146.8	59.7	-90.9	12.8
2025-01-15 09:32:12.551458	147.6	59.4	-91.1	18.5
2025-01-15 09:32:13.711897	148.3	59.1	-91.0	17.0
2025-01-15 09:32:14.872317	149.1	58.9	-90.8	25.5
2025-01-15 09:32:16.031555	149.8	58.6	-91.1	7.9
2025-01-15 09:32:17.194070	150.6	58.3	-91.3	13.7
2025-01-15 09:32:18.360358	151.3	57.9	-91.1	12.5
2025-01-15 09:32:19.522296	152.0	57.6	-91.4	18.1
2025-01-15 09:32:20.687213	152.7	57.3	-91.3	9.2
2025-01-15 09:32:21.843647	153.3	57.0	-91.5	13.5
2025-01-15 09:32:23.006927	154.0	56.7	-91.4	13.1
2025-01-15 09:32:24.173742	154.6	56.4	-91.3	11.8
2025-01-15 09:32:25.332095	155.2	56.1	-90.9	4.7
2025-01-15 09:32:26.500653	155.8	55.8	-91.0	6.6
2025-01-15 09:32:27.664098	156.4	55.4	-91.3	12.2
2025-01-15 09:32:28.807558	157.0	55.1	-91.6	11.0
2025-01-15 09:32:29.973223	157.6	54.8	-91.1	9.3
2025-01-15 09:32:31.143408	158.1	54.5	-91.1	10.1
2025-01-15 09:32:32.304287	158.7	54.2	-91.1	15.8
2025-01-15 09:32:33.474978	159.2	53.8	-91.5	6.0
2025-01-15 09:32:34.645873	159.8	53.5	-91.3	10.3
2025-01-15 09:32:35.804684	160.3	53.2	-91.0	19.0
2025-01-15 09:32:36.964073	160.8	52.9	-91.5	5.6
2025-01-15 09:32:38.129084	161.2	52.6	-91.2	11.1
2025-01-15 09:32:39.288050	161.7	52.2	-91.0	11.5
2025-01-15 09:32:40.446751	162.2	51.9	-91.3	6.1
2025-01-15 09:32:41.616330	162.6	51.6	-90.9	6.6
2025-01-15 09:32:42.764577	163.1	51.3	-91.1	9.3
2025-01-15 09:32:43.884595	163.5	51.0	-90.6	7.3
2025-01-15 09:32:45.034806	163.9	50.6	-91.4	8.8
2025-01-15 09:32:46.200396	164.4	50.3	-91.4	11.5
2025-01-15 09:32:47.361753	164.8	50.0	-91.3	10.1
2025-01-15 09:32:48.531051	165.2	49.7	-90.6	11.8
2025-01-15 09:32:49.687390	165.6	49.4	-90.8	11.7
2025-01-15 09:32:50.853706	166.0	49.0	-91.1	9.7
2025-01-15 09:32:52.014546	166.3	48.7	-91.1	5.3
2025-01-15 09:32:53.179752	166.7	48.4	-90.8	6.1
2025-01-15 09:32:54.343342	167.1	48.1	-89.9	7.2
2025-01-15 09:32:55.503257	167.4	47.8	-90.9	11.3
2025-01-15 09:32:56.667621	167.8	47.5	-90.9	11.1
2025-01-15 09:32:57.830628	168.1	47.2	-91.2	14.9
2025-01-15 09:32:58.986548	168.5	46.9	-91.2	12.2
2025-01-15 09:33:00.153039	168.8	46.5	-90.5	14.8
2025-01-15 09:33:01.311786	169.1	46.2	-89.4	18.0
2025-01-15 09:33:02.471605	169.4	45.9	-90.0	10.5
2025-01-15 09:33:03.636351	169.8	45.6	-90.2	9.6
2025-01-15 09:33:04.795355	170.1	45.3	-90.6	20.3
2025-01-15 09:33:05.957744	170.4	45.0	-90.5	6.4
2025-01-15 09:33:07.120578	170.7	44.7	-90.6	6.3
2025-01-15 09:33:08.285013	170.9	44.4	-90.5	10.3
2025-01-15 09:33:09.439779	171.2	44.1	-90.7	11.2
2025-01-15 09:33:10.603343	171.5	43.8	-91.0	12.4
2025-01-15 09:33:11.764093	171.8	43.5	-91.0	16.1
2025-01-15 09:33:12.928403	172.1	43.2	-91.4	9.5
2025-01-15 09:33:14.087851	172.3	43.0	-91.3	10.2
2025-01-15 09:33:15.254383	172.6	42.7	-90.9	14.0
2025-01-15 09:33:16.420828	172.8	42.4	-91.1	11.9
2025-01-15 09:33:17.563845	173.1	42.1	-91.4	11.4
2025-01-15 09:33:18.721864	173.3	41.8	-91.6	14.3
2025-01-15 09:33:19.883813	173.6	41.5	-91.8	13.6
2025-01-15 09:33:21.048263	173.8	41.2	-91.5	16.3
2025-01-15 09:33:22.202523	174.0	41.0	-91.3	20.6
2025-01-15 09:33:23.361633	174.3	40.7	-91.2	9.2
2025-01-15 09:33:24.523366	174.5	40.4	-91.6	8.8
2025-01-15 09:33:25.692181	174.7	40.1	-91.3	3.6
2025-01-15 09:33:26.857892	174.9	39.9	-91.5	9.1
2025-01-15 09:33:28.021601	175.2	39.6	-91.7	6.2
2025-01-15 09:33:29.182000	175.4	39.3	-91.7	7.6
2025-01-15 09:33:30.353414	175.6	39.0	-91.2	9.5
2025-01-15 09:33:31.515146	175.8	38.8	-91.5	8.4
2025-01-15 09:33:32.671186	176.0	38.5	-91.7	13.3
2025-01-15 09:33:33.839080	176.2	38.2	-91.3	12.6
2025-01-15 09:33:34.997651	176.4	38.0	-91.5	6.5
2025-01-15 09:33:36.157347	176.6	37.7	-91.3	11.3
2025-01-15 09:33:37.321438	176.8	37.5	-91.2	13.8
2025-01-15 09:33:38.488774	177.0	37.2	-91.3	14.4
2025-01-15 09:33:39.650430	177.1	37.0	-91.1	12.5
2025-01-15 09:33:40.813483	177.3	36.7	-91.2	13.9
2025-01-15 09:33:41.978307	177.5	36.4	-91.5	9.7
2025-01-15 09:33:43.141553	177.7	36.2	-90.7	9.8
2025-01-15 09:33:44.308581	177.9	35.9	-91.0	13.2
2025-01-15 09:33:45.478598	178.0	35.7	-91.0	8.6
2025-01-15 09:33:46.641081	178.2	35.4	-90.9	12.1
2025-01-15 09:33:47.806777	178.4	35.2	-91.1	12.9
2025-01-15 09:33:48.968641	178.5	35.0	-90.9	6.0
2025-01-15 09:33:50.133318	178.7	34.7	-90.7	6.9
2025-01-15 09:33:51.294662	178.9	34.5	-91.3	10.6
2025-01-15 09:33:52.450954	179.0	34.2	-91.3	6.9
2025-01-15 09:33:53.614207	179.2	34.0	-91.4	9.6
2025-01-15 09:33:54.779458	179.3	33.8	-91.3	14.1
2025-01-15 09:33:55.933987	179.5	33.5	-91.4	11.5
2025-01-15 09:33:57.097992	179.6	33.3	-91.3	11.6
2025-01-15 09:33:58.261829	179.8	33.1	-91.2	11.9
2025-01-15 09:33:59.423133	179.9	32.9	-91.5	11.5
2025-01-15 09:34:00.579714	180.0	32.6	-91.4	14.6
2025-01-15 09:34:01.740517	180.2	32.4	-91.3	11.7
2025-01-15 09:34:02.901371	180.3	32.2	-91.4	10.6
2025-01-15 09:34:04.064400	180.5	32.0	-91.6	10.1
2025-01-15 09:34:05.227909	180.6	31.7	-91.4	11.0
2025-01-15 09:34:06.389628	180.7	31.5	-91.3	8.6
2025-01-15 09:34:07.553301	180.9	31.3	-91.4	7.5
2025-01-15 09:34:08.717828	181.0	31.1	-91.7	8.5
2025-01-15 09:34:09.882507	181.1	30.9	-91.7	6.2
2025-01-15 09:34:11.036291	181.3	30.6	-91.3	8.3
2025-01-15 09:34:12.198789	181.4	30.4	-91.0	7.5
2025-01-15 09:34:13.356408	181.5	30.2	-91.5	14.3
2025-01-15 09:34:14.519340	181.6	30.0	-91.3	10.1
2025-01-15 09:34:15.682705	181.7	29.8	-91.0	12.2
2025-01-15 09:34:16.846223	181.9	29.6	-91.3	8.3
2025-01-15 09:34:18.009941	182.0	29.4	-91.0	8.9
2025-01-15 09:34:19.176104	182.1	29.2	-90.9	7.3
2025-01-15 09:34:20.340367	182.2	29.0	-90.8	7.4
2025-01-15 09:34:21.505542	182.3	28.8	-91.4	6.1
2025-01-15 09:34:22.665160	182.4	28.6	-91.3	7.1
2025-01-15 09:34:23.833196	182.6	28.4	-91.1	5.2
2025-01-15 09:34:24.993460	182.7	28.2	-91.1	3.1
2025-01-15 09:34:26.157774	182.8	28.0	-91.0	4.7
2025-01-15 09:34:27.330815	182.9	27.8	-91.1	7.1
2025-01-15 09:34:28.491198	183.0	27.6	-91.0	6.2
2025-01-15 09:34:29.658499	183.1	27.4	-91.5	7.7
2025-01-15 09:34:30.823027	183.2	27.2	-91.4	10.7
2025-01-15 09:34:31.986295	183.3	27.0	-91.1	10.7
2025-01-15 09:34:33.150843	183.4	26.8	-91.2	7.3
2025-01-15 09:34:34.311464	183.5	26.6	-91.1	9.8
2025-01-15 09:34:35.477478	183.6	26.5	-91.1	10.0
2025-01-15 09:34:36.642186	183.7	26.3	-90.9	7.6
2025-01-15 09:34:37.810368	183.8	26.1	-90.8	8.7
2025-01-15 09:34:38.976641	183.9	25.9	-91.0	7.7
2025-01-15 09:34:40.131442	184.0	25.7	-91.1	8.5
2025-01-15 09:34:41.294065	184.1	25.5	-90.9	10.1
2025-01-15 09:34:42.450399	184.2	25.4	-90.8	8.3
2025-01-15 09:34:43.618798	184.3	25.2	-91.1	10.4
2025-01-15 09:34:44.774797	184.4	25.0	-91.6	10.9
2025-01-15 09:34:45.935354	184.4	24.8	-91.5	10.6
2025-01-15 09:34:47.095123	184.5	24.7	-91.5	9.1
2025-01-15 09:34:48.266619	184.6	24.5	-91.4	9.0
2025-01-15 09:34:49.432049	184.7	24.3	-91.2	8.9
2025-01-15 09:34:50.596195	184.8	24.1	-91.4	6.9
2025-01-15 09:34:51.760590	184.9	24.0	-91.3	7.0
2025-01-15 09:34:52.921611	185.0	23.8	-91.2	5.8
2025-01-15 09:34:54.086645	185.0	23.6	-91.3	3.6
2025-01-15 09:34:55.246768	185.1	23.5	-91.0	9.0
2025-01-15 09:34:56.414359	185.2	23.3	-91.1	6.3
2025-01-15 09:34:57.575463	185.3	23.1	-91.5	5.4
2025-01-15 09:34:58.743252	185.4	23.0	-91.2	10.9
2025-01-15 09:34:59.903621	185.5	22.8	-91.1	10.5
2025-01-15 09:35:01.069428	185.5	22.6	-91.3	10.2
2025-01-15 09:35:02.230759	185.6	22.5	-91.2	11.7
2025-01-15 09:35:03.392639	185.7	22.3	-91.2	10.6
2025-01-15 09:35:04.557932	185.8	22.2	-91.2	11.1
2025-01-15 09:35:05.715964	185.8	22.0	-90.9	10.5
2025-01-15 09:35:06.880799	185.9	21.8	-91.2	6.0
2025-01-15 09:35:08.041707	186.0	21.7	-91.0	6.7
2025-01-15 09:35:09.198650	186.1	21.5	-90.7	7.4
2025-01-15 09:35:10.362859	186.1	21.4	-90.7	4.4
2025-01-15 09:35:11.526776	186.2	21.2	-90.7	3.9
2025-01-15 09:35:12.683921	186.3	21.1	-90.8	9.0
2025-01-15 09:35:13.856803	186.3	20.9	-90.6	6.8
2025-01-15 09:35:15.023065	186.4	20.8	-90.9	7.5
2025-01-15 09:35:16.183820	186.5	20.6	-90.6	7.2
2025-01-15 09:35:17.342333	186.6	20.5	-90.6	6.2
2025-01-15 09:35:18.502833	186.6	20.3	-91.5	6.7
2025-01-15 09:35:19.670042	186.7	20.2	-91.6	8.0
2025-01-15 09:35:20.835343	186.8	20.0	-91.4	7.1
2025-01-15 09:35:22.004626	186.8	19.9	-91.0	4.9
2025-01-15 09:35:23.164299	186.9	19.7	-91.3	6.7
2025-01-15 09:35:24.330424	187.0	19.6	-91.2	6.5
2025-01-15 09:35:25.493133	187.0	19.4	-91.2	7.4
2025-01-15 09:35:26.658609	187.1	19.3	-91.7	5.3
2025-01-15 09:35:27.819886	187.2	19.1	-91.0	7.1
2025-01-15 09:35:28.982662	187.2	19.0	-91.3	4.6
2025-01-15 09:35:30.149438	187.3	18.9	-91.3	8.5
2025-01-15 09:35:31.309696	187.3	18.7	-91.4	4.6
2025-01-15 09:35:32.473867	187.4	18.6	-91.3	4.5
2025-01-15 09:35:33.633621	187.5	18.4	-91.4	3.0
2025-01-15 09:35:34.795280	187.5	18.3	-91.5	5.7
2025-01-15 09:35:35.951760	187.6	18.2	-91.4	4.6
2025-01-15 09:35:37.116078	187.6	18.0	-91.2	6.9
2025-01-15 09:35:38.280054	187.7	17.9	-91.0	3.1
2025-01-15 09:35:39.440979	187.8	17.8	-91.4	4.9
2025-01-15 09:35:40.601328	187.8	17.6	-91.8	6.2
2025-01-15 09:35:41.763140	187.9	17.5	-91.6	8.8
2025-01-15 09:35:42.926780	187.9	17.4	-90.4	4.8
2025-01-15 09:35:44.089814	188.0	17.2	-91.4	6.4
2025-01-15 09:35:45.255585	188.1	17.1	-91.7	7.3
2025-01-15 09:35:46.419712	188.1	17.0	-91.3	6.2
2025-01-15 09:35:47.581490	188.2	16.8	-91.3	6.4
2025-01-15 09:35:48.746323	188.2	16.7	-91.4	8.0
2025-01-15 09:35:49.902927	188.3	16.6	-91.0	5.6
2025-01-15 09:35:51.073055	188.3	16.4	-91.2	4.0
2025-01-15 09:35:52.228248	188.4	16.3	-91.2	6.7
2025-01-15 09:35:53.389909	188.4	16.2	-91.1	4.1
2025-01-15 09:35:54.553885	188.5	16.1	-89.0	3.9
2025-01-15 09:35:55.720841	188.5	15.9	-91.3	5.5
2025-01-15 09:35:56.880424	188.6	15.8	-91.6	7.2
2025-01-15 09:35:58.045563	188.6	15.7	-91.5	5.5
2025-01-15 09:35:59.209315	188.7	15.6	-91.6	5.9
2025-01-15 09:36:00.373252	188.7	15.4	-91.5	6.6
2025-01-15 09:36:01.536577	188.8	15.3	-91.5	4.7
2025-01-15 09:36:02.695180	188.8	15.2	-91.5	3.3
2025-01-15 09:36:03.861335	188.9	15.1	-91.4	3.4
2025-01-15 09:36:05.023391	188.9	14.9	-91.2	4.8
2025-01-15 09:36:06.182289	189.0	14.8	-91.2	4.9
2025-01-15 09:36:07.341667	189.0	14.7	-91.0	4.2
2025-01-15 09:36:08.506405	189.1	14.6	-91.8	5.7
2025-01-15 09:36:09.649721	189.1	14.5	-91.6	4.0
#Closed at: 2025-01-15 09:26:59.366935