passes_logs/2025/01/15/LEX_Murmansk/LEX_Murmansk__20250115_110748_NOAA_18_rec.log

#Pass ID: 20250115_110748_NOAA 18
#Satellite: NOAA 18
#Configuration: NOAA 18
#Start time: 2025-01-15 11:07:43.791946

#LorettStation: 1.0.0 05.05.2024
#Station: LEX_Murmansk
#Location: 33.156738 lon 68.926811 lat
#TLE: 1 28654U 05018A   25014.17177243  .00000313  00000+0  18955-3 0  9990
#TLE: 2 28654  98.8569  95.2344 0014326 181.4762 178.6370 14.13485757 13061

#Time	Az	El	Level	SNR
2025-01-15 11:07:56.071078	23.2	16.3	-90.7	15.7
2025-01-15 11:07:57.223407	23.1	16.4	-90.5	13.7
2025-01-15 11:07:58.388674	23.0	16.5	-90.5	15.6
2025-01-15 11:07:59.545119	22.9	16.6	-90.8	15.7
2025-01-15 11:08:00.701076	22.9	16.8	-90.3	12.5
2025-01-15 11:08:01.866456	22.8	16.9	-90.9	13.3
2025-01-15 11:08:03.024388	22.7	17.0	-90.9	13.8
2025-01-15 11:08:04.184743	22.6	17.1	-90.5	15.7
2025-01-15 11:08:05.334102	22.6	17.3	-90.0	17.1
2025-01-15 11:08:06.490329	22.5	17.4	-90.9	16.0
2025-01-15 11:08:07.648887	22.4	17.5	-90.8	16.3
2025-01-15 11:08:08.806821	22.3	17.6	-90.4	15.8
2025-01-15 11:08:09.966296	22.2	17.8	-90.7	13.7
2025-01-15 11:08:11.133625	22.2	17.9	-90.6	16.2
2025-01-15 11:08:12.297762	22.1	18.0	-90.8	10.9
2025-01-15 11:08:13.464364	22.0	18.2	-90.8	13.5
2025-01-15 11:08:14.621942	21.9	18.3	-90.5	13.8
2025-01-15 11:08:15.782405	21.8	18.4	-90.8	15.7
2025-01-15 11:08:16.946257	21.7	18.6	-90.4	12.0
2025-01-15 11:08:18.100729	21.7	18.7	-89.7	12.5
2025-01-15 11:08:19.253007	21.6	18.8	-89.1	12.0
2025-01-15 11:08:20.409969	21.5	19.0	-90.4	13.2
2025-01-15 11:08:21.561072	21.4	19.1	-90.6	11.5
2025-01-15 11:08:22.720055	21.3	19.2	-91.0	11.9
2025-01-15 11:08:23.885829	21.2	19.4	-90.4	14.1
2025-01-15 11:08:25.041604	21.1	19.5	-90.8	14.5
2025-01-15 11:08:26.190109	21.0	19.6	-90.2	10.1
2025-01-15 11:08:27.348968	20.9	19.8	-90.1	11.0
2025-01-15 11:08:28.502972	20.8	19.9	-90.6	10.1
2025-01-15 11:08:29.660449	20.7	20.1	-90.4	10.1
2025-01-15 11:08:30.835731	20.7	20.2	-90.8	12.4
2025-01-15 11:08:31.994782	20.6	20.3	-90.5	13.6
2025-01-15 11:08:33.152091	20.5	20.5	-90.4	11.9
2025-01-15 11:08:34.312367	20.4	20.6	-90.6	11.8
2025-01-15 11:08:35.471680	20.3	20.8	-91.0	7.5
2025-01-15 11:08:36.627371	20.2	20.9	-90.4	6.2
2025-01-15 11:08:37.780625	20.1	21.1	-88.6	9.8
2025-01-15 11:08:38.943338	20.0	21.2	-89.4	7.7
2025-01-15 11:08:40.102309	19.9	21.4	-89.0	9.3
2025-01-15 11:08:41.262387	19.8	21.5	-89.0	10.6
2025-01-15 11:08:42.429085	19.6	21.6	-89.3	7.7
2025-01-15 11:08:43.589690	19.5	21.8	-89.3	10.0
2025-01-15 11:08:44.745348	19.4	21.9	-89.1	11.7
2025-01-15 11:08:45.899495	19.3	22.1	-90.3	13.5
2025-01-15 11:08:47.059696	19.2	22.2	-90.1	14.0
2025-01-15 11:08:48.213504	19.1	22.4	-90.5	12.1
2025-01-15 11:08:49.374547	19.0	22.5	-90.0	14.2
2025-01-15 11:08:50.533993	18.9	22.7	-89.8	12.3
2025-01-15 11:08:51.702377	18.8	22.9	-90.3	15.4
2025-01-15 11:08:52.861865	18.7	23.0	-90.6	13.8
2025-01-15 11:08:54.013805	18.5	23.2	-90.6	12.3
2025-01-15 11:08:55.168087	18.4	23.3	-90.5	16.5
2025-01-15 11:08:56.328796	18.3	23.5	-90.2	14.3
2025-01-15 11:08:57.490780	18.2	23.6	-90.5	12.4
2025-01-15 11:08:58.651025	18.1	23.8	-91.0	13.9
2025-01-15 11:08:59.815148	17.9	24.0	-90.9	14.7
2025-01-15 11:09:00.979032	17.8	24.1	-91.1	13.0
2025-01-15 11:09:02.137726	17.7	24.3	-90.4	12.0
2025-01-15 11:09:03.289131	17.6	24.4	-90.9	14.3
2025-01-15 11:09:04.444161	17.4	24.6	-90.9	12.2
2025-01-15 11:09:05.604056	17.3	24.8	-91.0	14.6
2025-01-15 11:09:06.767300	17.2	24.9	-90.9	13.9
2025-01-15 11:09:07.928625	17.0	25.1	-91.1	14.0
2025-01-15 11:09:09.086545	16.9	25.3	-90.7	12.8
2025-01-15 11:09:10.244421	16.8	25.4	-90.7	11.3
2025-01-15 11:09:11.410298	16.6	25.6	-90.8	10.6
2025-01-15 11:09:12.564561	16.5	25.8	-91.2	14.1
2025-01-15 11:09:13.726259	16.4	25.9	-91.4	13.9
2025-01-15 11:09:14.880964	16.2	26.1	-91.1	11.8
2025-01-15 11:09:16.033212	16.1	26.3	-91.4	12.6
2025-01-15 11:09:17.196991	15.9	26.5	-91.1	11.3
2025-01-15 11:09:18.340710	15.8	26.6	-90.9	10.3
2025-01-15 11:09:19.494811	15.7	26.8	-91.2	8.7
2025-01-15 11:09:20.649895	15.5	27.0	-90.9	8.7
2025-01-15 11:09:21.812949	15.4	27.1	-91.3	11.6
2025-01-15 11:09:22.967586	15.2	27.3	-91.5	7.1
2025-01-15 11:09:24.131844	15.0	27.5	-91.0	5.2
2025-01-15 11:09:25.294771	14.9	27.7	-91.1	8.3
2025-01-15 11:09:26.454126	14.7	27.9	-91.2	7.7
2025-01-15 11:09:27.620690	14.6	28.0	-91.3	5.3
2025-01-15 11:09:28.783750	14.4	28.2	-91.2	10.0
2025-01-15 11:09:29.946676	14.3	28.4	-91.1	9.7
2025-01-15 11:09:31.104636	14.1	28.6	-90.9	10.5
2025-01-15 11:09:32.266884	13.9	28.8	-90.8	11.3
2025-01-15 11:09:33.428023	13.7	29.0	-90.9	11.5
2025-01-15 11:09:34.590119	13.6	29.2	-90.8	11.3
2025-01-15 11:09:35.749163	13.4	29.3	-90.9	14.8
2025-01-15 11:09:36.917511	13.2	29.5	-91.2	11.8
2025-01-15 11:09:38.067332	13.1	29.7	-91.2	13.2
2025-01-15 11:09:39.202250	12.9	29.9	-90.7	14.8
2025-01-15 11:09:40.359437	12.7	30.1	-91.4	13.2
2025-01-15 11:09:41.510920	12.5	30.3	-91.1	14.2
2025-01-15 11:09:42.660225	12.3	30.5	-90.9	12.8
2025-01-15 11:09:43.825382	12.1	30.7	-91.1	13.5
2025-01-15 11:09:44.985618	12.0	30.9	-91.4	12.4
2025-01-15 11:09:46.140593	11.8	31.1	-90.6	11.4
2025-01-15 11:09:47.309475	11.6	31.3	-91.2	11.6
2025-01-15 11:09:48.473518	11.4	31.5	-91.1	13.4
2025-01-15 11:09:49.637028	11.2	31.7	-91.2	14.0
2025-01-15 11:09:50.794903	11.0	31.9	-91.0	10.2
2025-01-15 11:09:51.956206	10.8	32.1	-91.3	12.2
2025-01-15 11:09:53.116593	10.5	32.3	-90.8	13.7
2025-01-15 11:09:54.274670	10.3	32.5	-90.8	16.4
2025-01-15 11:09:55.433446	10.1	32.7	-91.4	12.9
2025-01-15 11:09:56.594869	9.9	32.9	-91.3	14.4
2025-01-15 11:09:57.758984	9.7	33.1	-91.6	13.4
2025-01-15 11:09:58.928033	9.5	33.3	-90.9	15.8
2025-01-15 11:10:00.087155	9.2	33.5	-91.1	16.0
2025-01-15 11:10:01.246115	9.0	33.7	-90.7	13.4
2025-01-15 11:10:02.416583	8.8	33.9	-90.9	11.1
2025-01-15 11:10:03.577380	8.6	34.1	-91.0	13.1
2025-01-15 11:10:04.737560	8.3	34.3	-91.2	14.6
2025-01-15 11:10:05.894919	8.1	34.5	-91.3	10.6
2025-01-15 11:10:07.060005	7.8	34.7	-91.0	6.7
2025-01-15 11:10:08.224627	7.6	35.0	-90.6	10.6
2025-01-15 11:10:09.385516	7.3	35.2	-90.6	10.9
2025-01-15 11:10:10.549909	7.1	35.4	-90.6	13.6
2025-01-15 11:10:11.709023	6.8	35.6	-90.9	17.8
2025-01-15 11:10:12.864491	6.6	35.8	-91.2	13.2
2025-01-15 11:10:14.026627	6.3	36.0	-91.1	13.6
2025-01-15 11:10:15.188892	6.0	36.3	-91.0	14.8
2025-01-15 11:10:16.346821	5.8	36.5	-90.8	13.0
2025-01-15 11:10:17.513086	5.5	36.7	-90.9	13.6
2025-01-15 11:10:18.671911	5.2	36.9	-90.7	18.6
2025-01-15 11:10:19.830873	4.9	37.1	-90.9	16.4
2025-01-15 11:10:20.991480	4.6	37.4	-90.9	18.3
2025-01-15 11:10:22.156277	4.4	37.6	-90.7	15.6
2025-01-15 11:10:23.318660	4.1	37.8	-90.6	14.1
2025-01-15 11:10:24.475634	3.8	38.0	-91.1	11.3
2025-01-15 11:10:25.636930	3.5	38.2	-91.5	13.8
2025-01-15 11:10:26.790012	3.2	38.5	-91.2	13.9
2025-01-15 11:10:27.950019	2.9	38.7	-90.9	7.3
2025-01-15 11:10:29.112663	2.5	38.9	-90.8	12.3
2025-01-15 11:10:30.277083	2.2	39.1	-91.1	16.4
2025-01-15 11:10:31.433909	1.9	39.4	-91.0	18.3
2025-01-15 11:10:32.597355	1.6	39.6	-91.3	14.2
2025-01-15 11:10:33.755941	1.2	39.8	-91.0	17.2
2025-01-15 11:10:34.923229	0.9	40.1	-91.1	15.6
2025-01-15 11:10:36.081931	0.6	40.3	-90.8	15.8
2025-01-15 11:10:37.245979	0.2	40.5	-90.9	21.5
2025-01-15 11:10:38.401425	359.9	40.7	-91.1	14.8
2025-01-15 11:10:39.560397	359.5	41.0	-91.3	15.5
2025-01-15 11:10:40.720965	359.1	41.2	-91.2	22.3
2025-01-15 11:10:41.878569	358.8	41.4	-91.4	21.0
2025-01-15 11:10:43.039752	358.4	41.7	-91.1	19.8
2025-01-15 11:10:44.205665	358.0	41.9	-90.9	19.6
2025-01-15 11:10:45.369385	357.6	42.1	-90.9	20.0
2025-01-15 11:10:46.523882	357.2	42.3	-91.3	12.7
2025-01-15 11:10:47.681963	356.8	42.6	-91.4	16.3
2025-01-15 11:10:48.841634	356.4	42.8	-91.2	19.1
2025-01-15 11:10:49.997245	356.0	43.0	-91.1	11.1
2025-01-15 11:10:51.161531	355.6	43.2	-90.9	17.1
2025-01-15 11:10:52.329125	355.2	43.5	-91.0	17.0
2025-01-15 11:10:53.488510	354.8	43.7	-91.2	13.4
2025-01-15 11:10:54.653258	354.4	43.9	-91.3	18.0
2025-01-15 11:10:55.807278	353.9	44.2	-91.1	14.6
2025-01-15 11:10:56.968970	353.5	44.4	-91.3	18.6
2025-01-15 11:10:58.133604	353.0	44.6	-90.7	18.3
2025-01-15 11:10:59.296683	352.6	44.8	-91.0	18.2
2025-01-15 11:11:00.455701	352.1	45.1	-91.3	14.8
2025-01-15 11:11:01.614602	351.6	45.3	-91.5	14.6
2025-01-15 11:11:02.781665	351.2	45.5	-91.4	18.3
2025-01-15 11:11:03.951023	350.7	45.7	-91.2	14.2
2025-01-15 11:11:05.114296	350.2	45.9	-91.2	17.5
2025-01-15 11:11:06.265317	349.7	46.2	-91.0	17.1
2025-01-15 11:11:07.430473	349.2	46.4	-91.4	18.4
2025-01-15 11:11:08.593630	348.7	46.6	-91.5	15.8
2025-01-15 11:11:09.750507	348.2	46.8	-91.5	17.8
2025-01-15 11:11:10.914295	347.6	47.0	-91.3	14.1
2025-01-15 11:11:12.073330	347.1	47.2	-90.8	11.6
2025-01-15 11:11:13.230939	346.6	47.4	-90.6	14.8
2025-01-15 11:11:14.398899	346.0	47.6	-91.1	10.0
2025-01-15 11:11:15.562810	345.5	47.9	-91.3	9.2
2025-01-15 11:11:16.719097	344.9	48.1	-91.3	14.5
2025-01-15 11:11:17.884449	344.3	48.3	-91.5	11.5
2025-01-15 11:11:19.044354	343.8	48.5	-91.1	10.8
2025-01-15 11:11:20.211149	343.2	48.7	-91.0	12.1
2025-01-15 11:11:21.362873	342.6	48.8	-91.1	9.6
2025-01-15 11:11:22.526426	342.0	49.0	-91.5	7.8
2025-01-15 11:11:23.689288	341.4	49.2	-91.4	10.4
2025-01-15 11:11:24.843411	340.8	49.4	-91.3	7.5
2025-01-15 11:11:25.999618	340.2	49.6	-91.6	13.4
2025-01-15 11:11:27.163223	339.5	49.8	-91.3	13.1
2025-01-15 11:11:28.323504	338.9	50.0	-91.2	11.4
2025-01-15 11:11:29.492011	338.2	50.1	-91.5	10.4
2025-01-15 11:11:30.656292	337.6	50.3	-91.4	11.1
2025-01-15 11:11:31.811796	336.9	50.5	-91.4	7.3
2025-01-15 11:11:32.974925	336.3	50.6	-91.1	4.6
2025-01-15 11:11:34.134852	335.6	50.8	-90.7	8.0
2025-01-15 11:11:35.303080	334.9	51.0	-90.9	11.1
2025-01-15 11:11:36.461957	334.2	51.1	-91.2	10.6
2025-01-15 11:11:37.627487	333.5	51.3	-91.3	15.6
2025-01-15 11:11:38.793365	332.8	51.4	-91.4	14.4
2025-01-15 11:11:39.953551	332.1	51.6	-91.5	16.4
2025-01-15 11:11:41.111302	331.4	51.7	-90.8	12.6
2025-01-15 11:11:42.273763	330.7	51.8	-91.1	12.6
2025-01-15 11:11:43.435034	330.0	52.0	-91.7	9.6
2025-01-15 11:11:44.600447	329.2	52.1	-91.5	9.3
2025-01-15 11:11:45.763926	328.5	52.2	-91.3	4.9
2025-01-15 11:11:46.916634	327.7	52.3	-91.4	9.9
2025-01-15 11:11:48.080495	327.0	52.4	-91.1	8.1
2025-01-15 11:11:49.240703	326.2	52.5	-90.9	11.9
2025-01-15 11:11:50.402924	325.5	52.6	-90.0	10.7
2025-01-15 11:11:51.565782	324.7	52.7	-90.1	8.4
2025-01-15 11:11:52.721734	323.9	52.8	-89.8	14.8
2025-01-15 11:11:53.879384	323.1	52.9	-89.7	11.4
2025-01-15 11:11:55.045299	322.4	53.0	-89.7	6.3
2025-01-15 11:11:56.201138	321.6	53.0	-90.2	11.3
2025-01-15 11:11:57.359878	320.8	53.1	-90.5	10.3
2025-01-15 11:11:58.524478	320.0	53.2	-90.5	5.8
2025-01-15 11:11:59.690293	319.2	53.2	-90.8	12.5
2025-01-15 11:12:00.866726	318.4	53.3	-91.2	11.5
2025-01-15 11:12:02.030848	317.6	53.3	-91.2	12.5
2025-01-15 11:12:03.198284	316.8	53.4	-90.8	16.7
2025-01-15 11:12:04.357167	316.0	53.4	-90.8	17.7
2025-01-15 11:12:05.514314	315.1	53.4	-91.0	15.3
2025-01-15 11:12:06.672484	314.3	53.5	-91.1	15.5
2025-01-15 11:12:07.836911	313.5	53.5	-90.9	14.8
2025-01-15 11:12:08.994214	312.7	53.5	-91.1	15.1
2025-01-15 11:12:10.150943	311.9	53.5	-90.8	14.9
2025-01-15 11:12:11.310242	311.1	53.5	-90.8	15.9
2025-01-15 11:12:12.473258	310.3	53.5	-91.2	13.8
2025-01-15 11:12:13.627169	309.5	53.5	-91.3	8.9
2025-01-15 11:12:14.788919	308.7	53.5	-91.1	13.9
2025-01-15 11:12:15.949680	307.8	53.4	-91.2	12.5
2025-01-15 11:12:17.105691	307.0	53.4	-90.9	11.0
2025-01-15 11:12:18.261948	306.2	53.4	-91.0	15.7
2025-01-15 11:12:19.424078	305.4	53.3	-91.0	14.2
2025-01-15 11:12:20.579707	304.6	53.3	-91.5	12.2
2025-01-15 11:12:21.743607	303.8	53.2	-91.4	17.5
2025-01-15 11:12:22.903895	303.0	53.2	-91.4	15.5
2025-01-15 11:12:24.066723	302.2	53.1	-91.2	10.9
2025-01-15 11:12:25.227496	301.4	53.0	-90.8	18.4
2025-01-15 11:12:26.381197	300.7	53.0	-91.0	14.0
2025-01-15 11:12:27.547447	299.9	52.9	-91.6	10.8
2025-01-15 11:12:28.709005	299.1	52.8	-91.5	14.2
2025-01-15 11:12:29.872508	298.3	52.7	-90.3	11.7
2025-01-15 11:12:31.038317	297.6	52.6	-90.0	8.6
2025-01-15 11:12:32.204205	296.8	52.5	-90.3	15.1
2025-01-15 11:12:33.360443	296.0	52.4	-89.9	13.6
2025-01-15 11:12:34.519026	295.3	52.3	-90.3	8.2
2025-01-15 11:12:35.673577	294.5	52.2	-91.3	13.0
2025-01-15 11:12:36.831997	293.8	52.0	-91.5	13.6
2025-01-15 11:12:37.991917	293.1	51.9	-91.4	8.7
2025-01-15 11:12:39.149328	292.3	51.8	-91.1	16.1
2025-01-15 11:12:40.303990	291.6	51.7	-90.8	17.8
2025-01-15 11:12:41.474670	290.9	51.5	-91.1	11.2
2025-01-15 11:12:42.637623	290.2	51.4	-91.4	13.3
2025-01-15 11:12:43.799891	289.5	51.2	-91.2	17.4
2025-01-15 11:12:44.968881	288.8	51.1	-91.4	8.3
2025-01-15 11:12:46.136275	288.1	50.9	-90.9	12.5
2025-01-15 11:12:47.292290	287.4	50.8	-89.7	17.3
2025-01-15 11:12:48.453172	286.8	50.6	-89.9	11.0
2025-01-15 11:12:49.621492	286.1	50.4	-90.4	11.1
2025-01-15 11:12:50.779197	285.4	50.3	-90.1	13.5
2025-01-15 11:12:51.941542	284.8	50.1	-90.2	11.1
2025-01-15 11:12:53.103046	284.1	49.9	-91.3	7.2
2025-01-15 11:12:54.265755	283.5	49.7	-91.2	13.7
2025-01-15 11:12:55.425549	282.9	49.5	-91.4	11.4
2025-01-15 11:12:56.580126	282.2	49.4	-91.5	11.1
2025-01-15 11:12:57.739526	281.6	49.2	-89.7	16.2
2025-01-15 11:12:58.901131	281.0	49.0	-90.4	11.7
2025-01-15 11:13:00.059013	280.4	48.8	-89.8	10.4
2025-01-15 11:13:01.215853	279.8	48.6	-89.8	15.7
2025-01-15 11:13:02.379978	279.3	48.4	-90.2	11.6
2025-01-15 11:13:03.534239	278.7	48.2	-90.4	10.4
2025-01-15 11:13:04.668127	278.1	48.0	-90.0	10.3
2025-01-15 11:13:05.828052	277.6	47.8	-90.2	14.8
2025-01-15 11:13:06.981580	277.0	47.6	-90.6	10.8
2025-01-15 11:13:08.142379	276.5	47.4	-90.4	10.8
2025-01-15 11:13:09.300671	275.9	47.2	-89.8	14.8
2025-01-15 11:13:10.457715	275.4	47.0	-90.1	12.2
2025-01-15 11:13:11.614314	274.9	46.7	-90.1	9.9
2025-01-15 11:13:12.772693	274.4	46.5	-90.2	15.7
2025-01-15 11:13:13.933457	273.9	46.3	-90.0	10.4
2025-01-15 11:13:15.102901	273.3	46.1	-89.6	13.3
2025-01-15 11:13:16.264616	272.8	45.9	-89.6	20.8
2025-01-15 11:13:17.422092	272.4	45.7	-89.4	11.7
2025-01-15 11:13:18.574898	271.9	45.4	-90.4	12.9
2025-01-15 11:13:19.734095	271.4	45.2	-90.3	15.6
2025-01-15 11:13:20.878203	270.9	45.0	-90.7	15.4
2025-01-15 11:13:22.040786	270.5	44.8	-90.1	15.2
2025-01-15 11:13:23.201037	270.0	44.5	-89.5	16.3
2025-01-15 11:13:24.365531	269.6	44.3	-89.9	19.0
2025-01-15 11:13:25.523659	269.1	44.1	-90.0	15.3
2025-01-15 11:13:26.685654	268.7	43.9	-90.4	15.2
2025-01-15 11:13:27.850657	268.3	43.6	-90.8	12.5
2025-01-15 11:13:29.014680	267.8	43.4	-89.9	12.0
2025-01-15 11:13:30.177337	267.4	43.2	-89.6	14.8
2025-01-15 11:13:31.333036	267.0	42.9	-89.9	8.1
2025-01-15 11:13:32.491518	266.6	42.7	-91.1	12.8
2025-01-15 11:13:33.649590	266.2	42.5	-91.3	12.4
2025-01-15 11:13:34.812331	265.8	42.3	-91.2	13.8
2025-01-15 11:13:35.976697	265.4	42.0	-91.3	7.9
2025-01-15 11:13:37.142270	265.0	41.8	-91.0	11.7
2025-01-15 11:13:38.303606	264.6	41.6	-91.1	14.2
2025-01-15 11:13:39.468544	264.3	41.3	-91.1	8.3
2025-01-15 11:13:40.627881	263.9	41.1	-91.3	8.3
2025-01-15 11:13:41.786557	263.5	40.9	-91.4	10.5
2025-01-15 11:13:42.949921	263.2	40.6	-91.3	7.6
2025-01-15 11:13:44.110594	262.8	40.4	-90.8	10.1
2025-01-15 11:13:45.273937	262.5	40.2	-90.7	9.0
2025-01-15 11:13:46.433554	262.1	40.0	-90.8	9.1
2025-01-15 11:13:47.593403	261.8	39.7	-90.8	8.1
2025-01-15 11:13:48.751763	261.5	39.5	-90.8	10.1
2025-01-15 11:13:49.918158	261.1	39.3	-90.9	5.8
2025-01-15 11:13:51.077179	260.8	39.0	-90.9	6.0
2025-01-15 11:13:52.242653	260.5	38.8	-90.8	11.0
2025-01-15 11:13:53.398364	260.2	38.6	-90.6	7.2
2025-01-15 11:13:54.567067	259.9	38.4	-91.0	11.7
2025-01-15 11:13:55.730099	259.6	38.1	-91.4	15.4
2025-01-15 11:13:56.893467	259.3	37.9	-91.5	11.5
2025-01-15 11:13:58.061004	259.0	37.7	-91.5	6.8
2025-01-15 11:13:59.219696	258.7	37.5	-91.2	4.8
2025-01-15 11:14:00.381446	258.4	37.2	-91.3	7.5
2025-01-15 11:14:01.543300	258.1	37.0	-91.4	10.2
2025-01-15 11:14:02.709183	257.8	36.8	-91.3	10.0
2025-01-15 11:14:03.862869	257.5	36.6	-91.4	6.5
2025-01-15 11:14:05.025890	257.3	36.3	-91.5	6.0
2025-01-15 11:14:06.189660	257.0	36.1	-91.0	4.8
2025-01-15 11:14:07.345982	256.7	35.9	-91.1	8.9
2025-01-15 11:14:08.509962	256.5	35.7	-91.2	8.3
2025-01-15 11:14:09.671599	256.2	35.5	-91.3	12.6
2025-01-15 11:14:10.829568	255.9	35.3	-91.7	11.8
2025-01-15 11:14:11.993908	255.7	35.0	-91.4	11.2
2025-01-15 11:14:13.161657	255.4	34.8	-91.5	15.9
2025-01-15 11:14:14.325454	255.2	34.6	-91.5	16.1
2025-01-15 11:14:15.490228	254.9	34.4	-91.4	11.3
2025-01-15 11:14:16.654123	254.7	34.2	-91.4	13.7
2025-01-15 11:14:17.817297	254.5	34.0	-91.4	19.7
2025-01-15 11:14:18.980322	254.2	33.8	-91.6	10.1
2025-01-15 11:14:20.143414	254.0	33.5	-91.1	14.7
2025-01-15 11:14:21.303149	253.8	33.3	-91.0	17.1
2025-01-15 11:14:22.453155	253.5	33.1	-91.3	17.2
2025-01-15 11:14:23.608507	253.3	32.9	-91.5	10.3
2025-01-15 11:14:24.774229	253.1	32.7	-91.4	14.9
2025-01-15 11:14:25.937240	252.9	32.5	-91.3	9.5
2025-01-15 11:14:27.089827	252.7	32.3	-91.1	7.8
2025-01-15 11:14:28.251191	252.5	32.1	-91.1	16.0
2025-01-15 11:14:29.415484	252.3	31.9	-91.3	17.4
2025-01-15 11:14:30.580410	252.1	31.7	-91.2	13.8
2025-01-15 11:14:31.744174	251.8	31.5	-91.3	16.1
2025-01-15 11:14:32.905956	251.6	31.3	-91.8	8.8
2025-01-15 11:14:34.065801	251.4	31.1	-91.3	11.9
2025-01-15 11:14:35.225209	251.3	30.9	-90.9	14.1
2025-01-15 11:14:36.388680	251.1	30.7	-91.2	5.7
2025-01-15 11:14:37.548286	250.9	30.5	-91.4	10.7
2025-01-15 11:14:38.715429	250.7	30.3	-91.7	18.4
2025-01-15 11:14:39.887768	250.5	30.1	-91.2	16.1
2025-01-15 11:14:41.055349	250.3	29.9	-91.0	12.1
2025-01-15 11:14:42.212055	250.1	29.7	-91.0	20.9
2025-01-15 11:14:43.375298	249.9	29.5	-91.0	15.2
2025-01-15 11:14:44.539863	249.8	29.3	-91.5	6.3
2025-01-15 11:14:45.704247	249.6	29.2	-91.5	15.5
2025-01-15 11:14:46.872347	249.4	29.0	-91.3	10.9
2025-01-15 11:14:48.030569	249.2	28.8	-91.3	9.3
2025-01-15 11:14:49.193988	249.1	28.6	-90.9	17.0
2025-01-15 11:14:50.351966	248.9	28.4	-91.1	17.2
2025-01-15 11:14:51.516825	248.7	28.2	-91.3	11.2
2025-01-15 11:14:52.674980	248.6	28.0	-91.6	14.0
2025-01-15 11:14:53.839266	248.4	27.9	-91.1	21.4
2025-01-15 11:14:55.001811	248.3	27.7	-91.3	17.0
2025-01-15 11:14:56.163102	248.1	27.5	-91.0	19.6
2025-01-15 11:14:57.321254	247.9	27.3	-89.8	13.4
2025-01-15 11:14:58.482200	247.8	27.1	-89.7	17.4
2025-01-15 11:14:59.640639	247.6	27.0	-89.9	13.8
2025-01-15 11:15:00.803714	247.5	26.8	-90.6	12.8
2025-01-15 11:15:01.967567	247.3	26.6	-89.6	8.0
2025-01-15 11:15:03.122398	247.2	26.4	-89.9	11.3
2025-01-15 11:15:04.279252	247.0	26.3	-89.9	16.0
2025-01-15 11:15:05.435788	246.9	26.1	-89.9	12.4
2025-01-15 11:15:06.601885	246.8	25.9	-91.1	11.0
2025-01-15 11:15:07.753326	246.6	25.7	-91.1	13.3
2025-01-15 11:15:08.909473	246.5	25.6	-91.1	9.8
2025-01-15 11:15:10.066001	246.3	25.4	-90.7	13.7
2025-01-15 11:15:11.225629	246.2	25.2	-90.7	9.5
2025-01-15 11:15:12.380110	246.1	25.1	-90.9	5.0
2025-01-15 11:15:13.547746	245.9	24.9	-91.1	9.5
2025-01-15 11:15:14.706022	245.8	24.7	-91.3	9.1
2025-01-15 11:15:15.865630	245.7	24.6	-91.2	10.4
2025-01-15 11:15:17.029301	245.5	24.4	-91.1	7.2
2025-01-15 11:15:18.202705	245.4	24.2	-91.4	12.7
2025-01-15 11:15:19.358377	245.3	24.1	-91.4	11.0
2025-01-15 11:15:20.532255	245.2	23.9	-91.3	7.0
2025-01-15 11:15:21.695610	245.0	23.7	-90.4	6.9
2025-01-15 11:15:22.857095	244.9	23.6	-91.3	6.7
2025-01-15 11:15:24.024308	244.8	23.4	-91.3	2.6
2025-01-15 11:15:25.184593	244.7	23.3	-90.9	4.4
2025-01-15 11:15:26.342530	244.6	23.1	-91.0	3.2
2025-01-15 11:15:27.502120	244.4	22.9	-90.9	6.0
2025-01-15 11:15:28.670292	244.3	22.8	-91.0	6.4
2025-01-15 11:15:29.828090	244.2	22.6	-91.5	5.1
2025-01-15 11:15:30.991435	244.1	22.5	-91.7	6.2
2025-01-15 11:15:32.153821	244.0	22.3	-91.3	3.7
2025-01-15 11:15:33.315451	243.9	22.2	-91.3	6.4
2025-01-15 11:15:34.466388	243.8	22.0	-91.3	3.4
2025-01-15 11:15:35.624471	243.6	21.9	-91.6	6.4
2025-01-15 11:15:36.784679	243.5	21.7	-91.5	5.6
2025-01-15 11:15:37.941595	243.4	21.6	-91.1	4.8
2025-01-15 11:15:39.101214	243.3	21.4	-91.1	4.1
2025-01-15 11:15:40.255713	243.2	21.3	-91.1	7.0
2025-01-15 11:15:41.414875	243.1	21.1	-90.3	3.3
2025-01-15 11:15:42.574575	243.0	21.0	-90.1	6.4
2025-01-15 11:15:43.739778	242.9	20.8	-90.3	6.8
2025-01-15 11:15:44.902810	242.8	20.7	-90.6	12.0
2025-01-15 11:15:46.069483	242.7	20.5	-89.9	5.5
2025-01-15 11:15:47.229791	242.6	20.4	-89.8	10.5
2025-01-15 11:15:48.385343	242.5	20.2	-90.9	6.5
2025-01-15 11:15:49.546985	242.4	20.1	-91.1	7.0
2025-01-15 11:15:50.705900	242.3	20.0	-91.3	11.4
2025-01-15 11:15:51.858462	242.2	19.8	-91.0	8.4
2025-01-15 11:15:53.022218	242.1	19.7	-90.6	7.6
2025-01-15 11:15:54.177511	242.0	19.5	-90.4	8.2
2025-01-15 11:15:55.336735	241.9	19.4	-91.0	13.5
2025-01-15 11:15:56.492043	241.9	19.3	-91.4	8.6
2025-01-15 11:15:57.649986	241.8	19.1	-91.2	13.7
2025-01-15 11:15:58.813366	241.7	19.0	-91.4	15.4
2025-01-15 11:15:59.977108	241.6	18.9	-91.4	7.5
2025-01-15 11:16:01.131891	241.5	18.7	-91.1	12.7
2025-01-15 11:16:02.292176	241.4	18.6	-90.7	8.9
2025-01-15 11:16:03.447634	241.3	18.4	-91.5	8.3
2025-01-15 11:16:04.607754	241.2	18.3	-91.5	6.6
2025-01-15 11:16:05.763455	241.1	18.2	-91.1	18.4
2025-01-15 11:16:06.927252	241.1	18.1	-90.9	3.8
2025-01-15 11:16:08.078151	241.0	17.9	-91.0	5.6
2025-01-15 11:16:09.239135	240.9	17.8	-91.1	7.2
2025-01-15 11:16:10.396268	240.8	17.7	-91.0	4.1
2025-01-15 11:16:11.558805	240.7	17.5	-91.3	11.4
2025-01-15 11:16:12.728856	240.6	17.4	-91.3	5.5
2025-01-15 11:16:13.897443	240.6	17.3	-91.1	8.9
2025-01-15 11:16:15.053905	240.5	17.1	-91.2	5.3
2025-01-15 11:16:16.213647	240.4	17.0	-91.1	9.4
2025-01-15 11:16:17.368419	240.3	16.9	-90.7	10.9
2025-01-15 11:16:18.530024	240.3	16.8	-91.0	3.9
2025-01-15 11:16:19.693120	240.2	16.6	-91.3	7.8
2025-01-15 11:16:20.857247	240.1	16.5	-91.3	7.5
2025-01-15 11:16:22.018872	240.0	16.4	-91.1	7.5
2025-01-15 11:16:23.172299	239.9	16.3	-91.1	7.5
2025-01-15 11:16:24.335663	239.9	16.1	-90.8	8.1
2025-01-15 11:16:25.493920	239.8	16.0	-91.1	12.6
2025-01-15 11:16:26.658093	239.7	15.9	-91.0	10.0
2025-01-15 11:16:27.818083	239.7	15.8	-91.1	7.2
2025-01-15 11:16:28.981729	239.6	15.6	-91.5	13.4
2025-01-15 11:16:30.136755	239.5	15.5	-90.7	12.6
2025-01-15 11:16:31.304015	239.4	15.4	-90.9	6.5
2025-01-15 11:16:32.464478	239.4	15.3	-91.1	12.3
2025-01-15 11:16:33.622710	239.3	15.2	-91.3	10.8
2025-01-15 11:16:34.778278	239.2	15.0	-91.3	8.9
2025-01-15 11:16:35.939337	239.2	14.9	-91.1	6.6
2025-01-15 11:16:37.102437	239.1	14.8	-91.1	9.3
2025-01-15 11:16:38.253215	239.0	14.7	-90.9	13.1
2025-01-15 11:16:39.414101	239.0	14.6	-91.0	11.5
2025-01-15 11:16:40.560783	238.9	14.5	-90.8	8.3
#Closed at: 2025-01-15 11:07:48.859671