passes_logs/2025/01/15/LEX_Murmansk/LEX_Murmansk__20250115_174630_NOAA_18_rec.log

#Pass ID: 20250115_174630_NOAA 18
#Satellite: NOAA 18
#Configuration: NOAA 18
#Start time: 2025-01-15 17:46:25.334242

#LorettStation: 1.0.0 05.05.2024
#Station: LEX_Murmansk
#Location: 33.156738 lon 68.926811 lat
#TLE: 1 28654U 05018A   25015.16278545  .00000300  00000+0  18295-3 0  9990
#TLE: 2 28654  98.8567  96.2156 0014367 178.7074 181.4138 14.13486503 13201

#Time	Az	El	Level	SNR
2025-01-15 17:46:37.391118	119.0	16.2	-91.9	13.9
2025-01-15 17:46:38.549378	118.9	16.4	-91.8	9.8
2025-01-15 17:46:39.697206	118.8	16.5	-92.3	9.7
2025-01-15 17:46:40.850303	118.7	16.6	-92.2	13.8
2025-01-15 17:46:42.012446	118.7	16.7	-92.3	5.7
2025-01-15 17:46:43.174499	118.6	16.9	-90.3	8.2
2025-01-15 17:46:44.332352	118.5	17.0	-90.9	7.8
2025-01-15 17:46:45.497250	118.4	17.1	-91.1	6.4
2025-01-15 17:46:46.660976	118.3	17.2	-90.8	6.4
2025-01-15 17:46:47.823407	118.3	17.4	-90.6	8.8
2025-01-15 17:46:48.987354	118.2	17.5	-90.8	9.2
2025-01-15 17:46:50.145165	118.1	17.6	-90.7	12.1
2025-01-15 17:46:51.305552	118.0	17.7	-90.5	11.9
2025-01-15 17:46:52.476051	117.9	17.9	-90.8	12.5
2025-01-15 17:46:53.632246	117.8	18.0	-91.0	16.3
2025-01-15 17:46:54.789829	117.7	18.1	-90.9	13.6
2025-01-15 17:46:55.963113	117.7	18.3	-91.1	8.7
2025-01-15 17:46:57.129443	117.6	18.4	-90.6	9.7
2025-01-15 17:46:58.292312	117.5	18.5	-90.9	8.9
2025-01-15 17:46:59.454494	117.4	18.7	-90.8	6.7
2025-01-15 17:47:00.615586	117.3	18.8	-91.0	6.5
2025-01-15 17:47:01.790071	117.2	18.9	-92.7	11.6
2025-01-15 17:47:02.949152	117.1	19.1	-92.5	10.5
2025-01-15 17:47:04.117865	117.0	19.2	-92.4	12.7
2025-01-15 17:47:05.288433	116.9	19.3	-91.7	13.1
2025-01-15 17:47:06.449826	116.8	19.5	-92.3	10.0
2025-01-15 17:47:07.615962	116.7	19.6	-92.4	9.9
2025-01-15 17:47:08.780217	116.6	19.8	-92.4	12.6
2025-01-15 17:47:09.956174	116.5	19.9	-92.6	14.8
2025-01-15 17:47:11.121597	116.5	20.0	-92.1	13.0
2025-01-15 17:47:12.277507	116.4	20.2	-92.2	11.2
2025-01-15 17:47:13.443401	116.3	20.3	-92.3	9.4
2025-01-15 17:47:14.600741	116.2	20.5	-92.4	6.4
2025-01-15 17:47:15.762609	116.1	20.6	-92.3	10.6
2025-01-15 17:47:16.922728	115.9	20.7	-92.5	5.0
2025-01-15 17:47:18.092533	115.8	20.9	-92.0	10.7
2025-01-15 17:47:19.261155	115.7	21.0	-92.2	15.8
2025-01-15 17:47:20.420559	115.6	21.2	-92.7	16.3
2025-01-15 17:47:21.586463	115.5	21.3	-92.7	11.4
2025-01-15 17:47:22.749858	115.4	21.5	-92.4	13.5
2025-01-15 17:47:23.912837	115.3	21.6	-92.6	8.0
2025-01-15 17:47:25.074642	115.2	21.8	-92.5	8.2
2025-01-15 17:47:26.238572	115.1	21.9	-92.2	9.1
2025-01-15 17:47:27.397944	115.0	22.1	-92.3	11.5
2025-01-15 17:47:28.564418	114.9	22.2	-92.4	10.3
2025-01-15 17:47:29.721449	114.7	22.4	-92.6	7.4
2025-01-15 17:47:30.887427	114.6	22.5	-92.6	6.2
2025-01-15 17:47:32.052897	114.5	22.7	-92.7	5.1
2025-01-15 17:47:33.213525	114.4	22.8	-92.1	8.8
2025-01-15 17:47:34.373932	114.3	23.0	-92.2	5.0
2025-01-15 17:47:35.533960	114.2	23.1	-92.1	8.0
2025-01-15 17:47:36.700718	114.0	23.3	-92.3	5.2
2025-01-15 17:47:37.858355	113.9	23.4	-92.7	5.8
2025-01-15 17:47:39.014673	113.8	23.6	-92.6	3.0
2025-01-15 17:47:40.163719	113.7	23.8	-92.4	5.2
2025-01-15 17:47:41.329258	113.5	23.9	-92.4	6.4
2025-01-15 17:47:42.486822	113.4	24.1	-92.7	10.5
2025-01-15 17:47:43.651988	113.3	24.2	-92.7	5.9
2025-01-15 17:47:44.814436	113.2	24.4	-92.6	5.8
2025-01-15 17:47:45.976280	113.0	24.6	-92.6	6.5
2025-01-15 17:47:47.143120	112.9	24.7	-92.4	5.3
2025-01-15 17:47:48.317704	112.8	24.9	-92.5	6.4
2025-01-15 17:47:49.482444	112.6	25.1	-92.5	4.4
2025-01-15 17:47:50.649541	112.5	25.2	-92.9	4.4
2025-01-15 17:47:51.812275	112.3	25.4	-92.6	6.4
2025-01-15 17:47:52.970240	112.2	25.6	-92.7	4.9
2025-01-15 17:47:54.133511	112.1	25.7	-92.0	3.4
2025-01-15 17:47:55.293425	111.9	25.9	-92.3	3.9
2025-01-15 17:47:56.457013	111.8	26.1	-92.6	7.5
2025-01-15 17:47:57.618357	111.6	26.2	-92.5	4.9
2025-01-15 17:47:58.754184	111.5	26.4	-92.6	7.3
2025-01-15 17:47:59.873881	111.3	26.6	-92.6	10.1
2025-01-15 17:48:00.994437	111.2	26.7	-92.6	7.6
2025-01-15 17:48:02.114953	111.0	26.9	-92.1	12.3
2025-01-15 17:48:03.235906	110.9	27.1	-90.5	7.7
2025-01-15 17:48:04.358867	110.7	27.2	-90.6	8.8
2025-01-15 17:48:05.479367	110.6	27.4	-91.4	9.9
2025-01-15 17:48:06.604213	110.4	27.6	-91.3	8.7
2025-01-15 17:48:07.724739	110.3	27.8	-91.3	12.4
2025-01-15 17:48:08.884839	110.1	27.9	-91.2	5.2
2025-01-15 17:48:10.041946	109.9	28.1	-91.8	11.7
2025-01-15 17:48:11.209184	109.8	28.3	-92.1	14.8
2025-01-15 17:48:12.361221	109.6	28.5	-92.3	11.0
2025-01-15 17:48:13.526001	109.4	28.7	-92.4	14.6
2025-01-15 17:48:14.678479	109.3	28.8	-92.6	6.3
2025-01-15 17:48:15.838188	109.1	29.0	-92.3	12.3
2025-01-15 17:48:16.994731	108.9	29.2	-92.6	9.3
2025-01-15 17:48:18.164231	108.7	29.4	-92.2	10.9
2025-01-15 17:48:19.323740	108.6	29.6	-92.5	5.4
2025-01-15 17:48:20.486656	108.4	29.8	-92.4	16.6
2025-01-15 17:48:21.645645	108.2	30.0	-92.6	6.6
2025-01-15 17:48:22.810070	108.0	30.2	-92.4	17.1
2025-01-15 17:48:23.973327	107.8	30.3	-92.3	9.2
2025-01-15 17:48:25.133369	107.6	30.5	-92.0	13.8
2025-01-15 17:48:26.305280	107.4	30.7	-92.5	13.2
2025-01-15 17:48:27.462426	107.2	30.9	-92.8	4.7
2025-01-15 17:48:28.631821	107.0	31.1	-92.3	10.2
2025-01-15 17:48:29.794017	106.8	31.3	-92.5	9.5
2025-01-15 17:48:30.960404	106.6	31.5	-92.2	16.2
2025-01-15 17:48:32.118884	106.4	31.7	-92.0	9.1
2025-01-15 17:48:33.280872	106.2	31.9	-92.2	12.2
2025-01-15 17:48:34.441760	106.0	32.1	-92.2	12.7
2025-01-15 17:48:35.601435	105.8	32.3	-91.9	10.9
2025-01-15 17:48:36.758212	105.6	32.5	-92.6	19.5
2025-01-15 17:48:37.923936	105.3	32.7	-92.6	10.5
2025-01-15 17:48:39.088970	105.1	32.9	-92.4	13.6
2025-01-15 17:48:40.254522	104.9	33.1	-92.2	10.0
2025-01-15 17:48:41.425374	104.7	33.3	-92.6	10.5
2025-01-15 17:48:42.588490	104.4	33.5	-92.7	4.0
2025-01-15 17:48:43.749865	104.2	33.7	-92.4	8.1
2025-01-15 17:48:44.908776	103.9	33.9	-92.3	7.6
2025-01-15 17:48:46.070691	103.7	34.1	-92.2	7.4
2025-01-15 17:48:47.239977	103.5	34.3	-92.2	10.6
2025-01-15 17:48:48.400166	103.2	34.5	-92.6	7.4
2025-01-15 17:48:49.569489	103.0	34.8	-92.7	12.8
2025-01-15 17:48:50.730492	102.7	35.0	-92.6	13.8
2025-01-15 17:48:51.892112	102.5	35.2	-92.9	11.4
2025-01-15 17:48:53.056975	102.2	35.4	-92.4	14.8
2025-01-15 17:48:54.213856	101.9	35.6	-92.2	17.4
2025-01-15 17:48:55.372259	101.7	35.8	-92.3	12.6
2025-01-15 17:48:56.533865	101.4	36.0	-92.4	10.7
2025-01-15 17:48:57.699606	101.1	36.2	-92.4	13.0
2025-01-15 17:48:58.862741	100.8	36.5	-92.5	6.7
2025-01-15 17:49:00.031046	100.6	36.7	-92.5	13.8
2025-01-15 17:49:01.187709	100.3	36.9	-92.3	7.1
2025-01-15 17:49:02.345511	100.0	37.1	-91.8	9.9
2025-01-15 17:49:03.524396	99.7	37.3	-92.6	7.7
2025-01-15 17:49:04.689340	99.4	37.5	-92.7	6.6
2025-01-15 17:49:05.857498	99.1	37.8	-92.6	3.4
2025-01-15 17:49:07.026960	98.8	38.0	-92.9	5.6
2025-01-15 17:49:08.188456	98.5	38.2	-92.7	13.1
2025-01-15 17:49:09.351424	98.2	38.4	-92.7	15.6
2025-01-15 17:49:10.521685	97.8	38.6	-92.6	5.3
2025-01-15 17:49:11.685547	97.5	38.9	-92.6	16.4
2025-01-15 17:49:12.846193	97.2	39.1	-92.3	15.4
2025-01-15 17:49:14.005662	96.9	39.3	-92.4	17.3
2025-01-15 17:49:15.161667	96.5	39.5	-92.1	11.0
2025-01-15 17:49:16.330213	96.2	39.7	-91.6	18.0
2025-01-15 17:49:17.491569	95.8	40.0	-92.5	8.0
2025-01-15 17:49:18.659206	95.5	40.2	-92.5	16.5
2025-01-15 17:49:19.818532	95.1	40.4	-92.9	12.2
2025-01-15 17:49:20.980262	94.8	40.6	-92.8	9.4
2025-01-15 17:49:22.143316	94.4	40.9	-92.3	15.7
2025-01-15 17:49:23.305695	94.0	41.1	-92.9	6.6
2025-01-15 17:49:24.470568	93.7	41.3	-92.7	10.5
2025-01-15 17:49:25.630436	93.3	41.5	-93.0	8.2
2025-01-15 17:49:26.796614	92.9	41.7	-92.3	8.2
2025-01-15 17:49:27.960528	92.5	42.0	-92.7	5.8
2025-01-15 17:49:29.126392	92.1	42.2	-92.4	5.1
2025-01-15 17:49:30.287205	91.7	42.4	-92.7	7.1
2025-01-15 17:49:31.447335	91.3	42.6	-92.3	5.8
2025-01-15 17:49:32.612702	90.9	42.9	-92.6	8.1
2025-01-15 17:49:33.778024	90.5	43.1	-92.5	12.5
2025-01-15 17:49:34.938695	90.0	43.3	-92.6	15.6
2025-01-15 17:49:36.108429	89.6	43.5	-92.0	16.8
2025-01-15 17:49:37.264995	89.2	43.7	-92.2	16.2
2025-01-15 17:49:38.427480	88.7	43.9	-92.2	13.5
2025-01-15 17:49:39.598680	88.3	44.2	-92.5	12.2
2025-01-15 17:49:40.760310	87.8	44.4	-92.8	12.1
2025-01-15 17:49:41.923426	87.3	44.6	-92.5	13.3
2025-01-15 17:49:43.085683	86.9	44.8	-92.8	3.1
2025-01-15 17:49:44.248575	86.4	45.0	-92.5	9.4
2025-01-15 17:49:45.414019	85.9	45.2	-92.7	6.3
2025-01-15 17:49:46.567882	85.4	45.5	-92.9	13.2
2025-01-15 17:49:47.736054	84.9	45.7	-92.7	11.8
2025-01-15 17:49:48.896887	84.4	45.9	-92.9	14.0
2025-01-15 17:49:50.058058	83.9	46.1	-92.4	14.1
2025-01-15 17:49:51.216732	83.4	46.3	-92.3	11.0
2025-01-15 17:49:52.374664	82.9	46.5	-92.1	5.0
2025-01-15 17:49:53.540482	82.4	46.7	-92.3	4.9
2025-01-15 17:49:54.699893	81.8	46.9	-92.6	14.0
2025-01-15 17:49:55.859995	81.3	47.1	-92.5	12.5
2025-01-15 17:49:57.022047	80.8	47.3	-92.4	6.6
2025-01-15 17:49:58.183900	80.2	47.5	-92.3	13.5
2025-01-15 17:49:59.350493	79.6	47.7	-92.1	10.6
2025-01-15 17:50:00.514506	79.1	47.9	-92.6	11.2
2025-01-15 17:50:01.679220	78.5	48.1	-92.2	13.4
2025-01-15 17:50:02.847984	77.9	48.2	-92.8	4.9
2025-01-15 17:50:04.009678	77.3	48.4	-92.3	9.5
2025-01-15 17:50:05.172629	76.7	48.6	-92.0	9.2
2025-01-15 17:50:06.335022	76.1	48.8	-91.8	13.1
2025-01-15 17:50:07.494756	75.5	49.0	-92.3	12.6
2025-01-15 17:50:08.661227	74.9	49.1	-92.7	10.5
2025-01-15 17:50:09.822002	74.3	49.3	-92.7	12.9
2025-01-15 17:50:10.985247	73.6	49.5	-92.5	5.9
2025-01-15 17:50:12.150819	73.0	49.6	-91.7	8.8
2025-01-15 17:50:13.313902	72.3	49.8	-91.9	7.7
2025-01-15 17:50:14.472068	71.7	49.9	-92.0	8.8
2025-01-15 17:50:15.636062	71.0	50.1	-92.1	10.8
2025-01-15 17:50:16.797197	70.4	50.2	-92.2	7.3
2025-01-15 17:50:17.961131	69.7	50.4	-92.4	7.3
2025-01-15 17:50:19.125061	69.0	50.5	-92.0	13.7
2025-01-15 17:50:20.289841	68.3	50.7	-92.0	10.0
2025-01-15 17:50:21.454595	67.6	50.8	-92.7	10.1
2025-01-15 17:50:22.631597	66.9	50.9	-92.5	5.3
2025-01-15 17:50:23.794529	66.2	51.1	-92.3	13.2
2025-01-15 17:50:24.955754	65.5	51.2	-92.3	9.4
2025-01-15 17:50:26.125025	64.8	51.3	-92.3	9.5
2025-01-15 17:50:27.291894	64.1	51.4	-92.2	10.7
2025-01-15 17:50:28.460661	63.3	51.5	-92.2	7.3
2025-01-15 17:50:29.625987	62.6	51.6	-92.5	7.1
2025-01-15 17:50:30.792599	61.9	51.7	-92.6	10.9
2025-01-15 17:50:31.955176	61.1	51.8	-92.1	7.4
2025-01-15 17:50:33.122345	60.4	51.9	-92.5	3.5
2025-01-15 17:50:34.281565	59.6	52.0	-92.4	10.5
2025-01-15 17:50:35.439087	58.9	52.1	-92.4	7.1
2025-01-15 17:50:36.603954	58.1	52.1	-92.7	7.3
2025-01-15 17:50:37.766790	57.4	52.2	-92.7	12.6
2025-01-15 17:50:38.930334	56.6	52.3	-92.5	7.3
2025-01-15 17:50:40.098874	55.8	52.3	-92.5	9.5
2025-01-15 17:50:41.261390	55.1	52.4	-92.3	8.1
2025-01-15 17:50:42.427484	54.3	52.4	-92.7	11.3
2025-01-15 17:50:43.586881	53.5	52.5	-92.4	11.9
2025-01-15 17:50:44.750797	52.7	52.5	-92.8	14.3
2025-01-15 17:50:45.910848	51.9	52.5	-92.5	15.3
2025-01-15 17:50:47.065735	51.2	52.6	-92.6	17.0
2025-01-15 17:50:48.229449	50.4	52.6	-92.6	18.3
2025-01-15 17:50:49.393311	49.6	52.6	-92.4	18.4
2025-01-15 17:50:50.560336	48.8	52.6	-92.7	14.2
2025-01-15 17:50:51.721145	48.0	52.6	-92.6	16.2
2025-01-15 17:50:52.887506	47.2	52.6	-92.7	12.9
2025-01-15 17:50:54.054009	46.5	52.6	-92.5	12.2
2025-01-15 17:50:55.214081	45.7	52.6	-92.0	15.5
2025-01-15 17:50:56.376987	44.9	52.6	-92.3	15.4
2025-01-15 17:50:57.532722	44.1	52.6	-92.6	10.9
2025-01-15 17:50:58.693226	43.3	52.5	-92.6	11.6
2025-01-15 17:50:59.856236	42.5	52.5	-92.6	12.7
2025-01-15 17:51:01.011245	41.8	52.5	-92.5	9.7
2025-01-15 17:51:02.155806	41.0	52.4	-92.5	15.1
2025-01-15 17:51:03.276199	40.3	52.4	-90.3	13.3
2025-01-15 17:51:04.396125	39.5	52.3	-90.2	9.1
2025-01-15 17:51:05.517151	38.8	52.2	-90.7	11.0
2025-01-15 17:51:06.637565	38.1	52.2	-90.8	10.7
2025-01-15 17:51:07.759099	37.3	52.1	-90.9	13.5
2025-01-15 17:51:08.879794	36.6	52.0	-91.6	11.4
2025-01-15 17:51:10.000956	35.9	52.0	-91.1	8.7
2025-01-15 17:51:11.126459	35.1	51.9	-92.2	14.0
2025-01-15 17:51:12.274791	34.4	51.8	-92.3	14.7
2025-01-15 17:51:13.433983	33.7	51.7	-92.4	9.6
2025-01-15 17:51:14.597039	32.9	51.6	-92.7	8.9
2025-01-15 17:51:15.745881	32.2	51.5	-92.5	18.2
2025-01-15 17:51:16.898357	31.5	51.4	-92.9	8.8
2025-01-15 17:51:18.062052	30.8	51.3	-92.5	7.6
2025-01-15 17:51:19.227229	30.1	51.1	-92.3	12.9
2025-01-15 17:51:20.392151	29.3	51.0	-92.3	8.7
2025-01-15 17:51:21.559407	28.6	50.9	-92.7	8.4
2025-01-15 17:51:22.724531	27.9	50.8	-92.8	12.9
2025-01-15 17:51:23.887980	27.3	50.6	-92.4	8.7
2025-01-15 17:51:25.055966	26.6	50.5	-92.1	7.4
2025-01-15 17:51:26.213663	25.9	50.3	-92.3	8.0
2025-01-15 17:51:27.378231	25.2	50.2	-92.1	12.5
2025-01-15 17:51:28.543560	24.6	50.1	-92.3	7.3
2025-01-15 17:51:29.708916	23.9	49.9	-92.3	15.6
2025-01-15 17:51:30.870670	23.2	49.7	-92.3	16.0
2025-01-15 17:51:32.035650	22.6	49.6	-92.5	9.9
2025-01-15 17:51:33.201763	22.0	49.4	-92.4	17.0
2025-01-15 17:51:34.367818	21.3	49.2	-92.5	14.5
2025-01-15 17:51:35.526635	20.7	49.1	-92.4	11.6
2025-01-15 17:51:36.689904	20.1	48.9	-92.5	18.8
2025-01-15 17:51:37.853182	19.5	48.7	-92.3	14.7
2025-01-15 17:51:39.013997	18.9	48.5	-92.4	12.7
2025-01-15 17:51:40.178006	18.3	48.4	-92.4	19.0
2025-01-15 17:51:41.341292	17.7	48.2	-92.5	15.5
2025-01-15 17:51:42.503014	17.1	48.0	-92.7	12.0
2025-01-15 17:51:43.666817	16.5	47.8	-92.7	18.3
2025-01-15 17:51:44.830938	16.0	47.6	-92.4	19.3
2025-01-15 17:51:45.988906	15.4	47.4	-92.6	10.0
2025-01-15 17:51:47.145401	14.9	47.2	-92.3	18.8
2025-01-15 17:51:48.311545	14.3	47.0	-92.2	20.4
2025-01-15 17:51:49.474480	13.8	46.8	-92.6	12.1
2025-01-15 17:51:50.637431	13.2	46.6	-92.4	18.4
2025-01-15 17:51:51.799023	12.7	46.4	-92.4	21.9
2025-01-15 17:51:52.968231	12.2	46.2	-92.4	14.3
2025-01-15 17:51:54.130142	11.7	46.0	-92.0	16.8
2025-01-15 17:51:55.289537	11.2	45.8	-92.0	20.9
2025-01-15 17:51:56.444565	10.7	45.6	-92.3	12.8
2025-01-15 17:51:57.607125	10.2	45.4	-92.6	14.0
2025-01-15 17:51:58.769744	9.7	45.2	-92.5	20.5
2025-01-15 17:51:59.932878	9.2	45.0	-92.5	15.1
2025-01-15 17:52:01.100949	8.8	44.7	-92.1	12.5
2025-01-15 17:52:02.266251	8.3	44.5	-92.6	19.2
2025-01-15 17:52:03.434114	7.8	44.3	-92.2	16.2
2025-01-15 17:52:04.596228	7.4	44.1	-92.3	17.9
2025-01-15 17:52:05.757385	6.9	43.9	-92.1	18.5
2025-01-15 17:52:06.922017	6.5	43.7	-92.2	20.4
2025-01-15 17:52:08.093228	6.0	43.4	-92.1	19.1
2025-01-15 17:52:09.260319	5.6	43.2	-92.0	17.3
2025-01-15 17:52:10.421513	5.2	43.0	-91.8	17.3
2025-01-15 17:52:11.589399	4.8	42.8	-92.4	18.7
2025-01-15 17:52:12.753309	4.4	42.6	-92.4	19.3
2025-01-15 17:52:13.913750	4.0	42.3	-92.8	19.6
2025-01-15 17:52:15.077371	3.6	42.1	-92.2	20.1
2025-01-15 17:52:16.234574	3.2	41.9	-92.2	21.4
2025-01-15 17:52:17.399023	2.8	41.7	-92.3	19.2
2025-01-15 17:52:18.562775	2.4	41.4	-92.3	18.4
2025-01-15 17:52:19.727072	2.0	41.2	-92.3	21.2
2025-01-15 17:52:20.887002	1.6	41.0	-92.1	17.9
2025-01-15 17:52:22.052923	1.3	40.8	-92.3	14.4
2025-01-15 17:52:23.214021	0.9	40.6	-92.4	19.3
2025-01-15 17:52:24.374550	0.5	40.3	-92.2	16.2
2025-01-15 17:52:25.537655	0.2	40.1	-92.5	13.8
2025-01-15 17:52:26.697142	359.8	39.9	-92.6	20.3
2025-01-15 17:52:27.864708	359.5	39.7	-92.2	19.2
2025-01-15 17:52:29.027100	359.2	39.4	-92.3	13.7
2025-01-15 17:52:30.190960	358.8	39.2	-91.9	18.8
2025-01-15 17:52:31.357498	358.5	39.0	-91.8	20.0
2025-01-15 17:52:32.529440	358.2	38.8	-92.3	12.7
2025-01-15 17:52:33.695562	357.8	38.6	-92.2	20.1
2025-01-15 17:52:34.856976	357.5	38.3	-92.5	18.1
2025-01-15 17:52:36.015921	357.2	38.1	-92.8	18.7
2025-01-15 17:52:37.193164	356.9	37.9	-92.1	17.6
2025-01-15 17:52:38.363093	356.6	37.7	-92.6	16.7
2025-01-15 17:52:39.525416	356.3	37.5	-92.5	17.8
2025-01-15 17:52:40.683250	356.0	37.2	-92.4	17.7
2025-01-15 17:52:41.845062	355.7	37.0	-92.6	12.5
2025-01-15 17:52:43.021947	355.4	36.8	-92.4	12.2
2025-01-15 17:52:44.186222	355.1	36.6	-92.1	12.4
2025-01-15 17:52:45.347299	354.8	36.4	-92.1	14.9
2025-01-15 17:52:46.504995	354.6	36.2	-92.1	10.9
2025-01-15 17:52:47.664533	354.3	35.9	-92.3	14.2
2025-01-15 17:52:48.828043	354.0	35.7	-92.5	15.0
2025-01-15 17:52:49.992280	353.8	35.5	-92.4	10.9
2025-01-15 17:52:51.161016	353.5	35.3	-92.5	16.3
2025-01-15 17:52:52.331953	353.2	35.1	-92.2	17.2
2025-01-15 17:52:53.492970	353.0	34.9	-92.4	8.0
2025-01-15 17:52:54.662116	352.7	34.7	-92.8	12.5
2025-01-15 17:52:55.815658	352.5	34.5	-92.3	10.3
2025-01-15 17:52:56.982405	352.2	34.3	-92.1	10.8
2025-01-15 17:52:58.146123	352.0	34.0	-92.3	13.3
2025-01-15 17:52:59.311521	351.7	33.8	-92.2	15.5
2025-01-15 17:53:00.469290	351.5	33.6	-92.5	10.9
2025-01-15 17:53:01.630337	351.3	33.4	-92.5	15.4
2025-01-15 17:53:02.798185	351.0	33.2	-92.6	11.7
2025-01-15 17:53:03.957689	350.8	33.0	-92.9	12.7
2025-01-15 17:53:05.129762	350.6	32.8	-92.5	12.1
2025-01-15 17:53:06.281862	350.4	32.6	-92.2	11.2
2025-01-15 17:53:07.445687	350.1	32.4	-92.4	10.7
2025-01-15 17:53:08.609650	349.9	32.2	-92.7	10.7
2025-01-15 17:53:09.774521	349.7	32.0	-92.7	10.8
2025-01-15 17:53:10.937150	349.5	31.8	-92.6	8.5
2025-01-15 17:53:12.105833	349.3	31.6	-92.5	8.8
2025-01-15 17:53:13.270704	349.1	31.4	-92.4	17.6
2025-01-15 17:53:14.432175	348.9	31.2	-92.5	9.3
2025-01-15 17:53:15.597591	348.7	31.0	-92.8	12.7
2025-01-15 17:53:16.753825	348.5	30.8	-92.6	17.0
2025-01-15 17:53:17.920743	348.3	30.6	-92.3	12.1
2025-01-15 17:53:19.078238	348.1	30.4	-92.2	12.7
2025-01-15 17:53:20.238558	347.9	30.3	-92.3	16.4
2025-01-15 17:53:21.397752	347.7	30.1	-92.2	11.1
2025-01-15 17:53:22.555650	347.5	29.9	-92.3	15.8
2025-01-15 17:53:23.710908	347.3	29.7	-92.5	12.1
2025-01-15 17:53:24.878582	347.2	29.5	-92.4	13.4
2025-01-15 17:53:26.035243	347.0	29.3	-92.3	10.0
2025-01-15 17:53:27.201479	346.8	29.1	-92.3	16.4
2025-01-15 17:53:28.362634	346.6	28.9	-92.3	12.0
2025-01-15 17:53:29.526054	346.5	28.8	-92.6	6.5
2025-01-15 17:53:30.688840	346.3	28.6	-92.8	7.4
2025-01-15 17:53:31.853722	346.1	28.4	-93.0	6.4
2025-01-15 17:53:33.018810	345.9	28.2	-92.5	4.5
2025-01-15 17:53:34.175064	345.8	28.0	-92.6	6.0
2025-01-15 17:53:35.331629	345.6	27.9	-92.7	7.1
2025-01-15 17:53:36.479980	345.5	27.7	-92.6	9.1
2025-01-15 17:53:37.644251	345.3	27.5	-92.0	11.5
2025-01-15 17:53:38.808615	345.1	27.3	-92.5	15.3
2025-01-15 17:53:39.977276	345.0	27.1	-92.6	13.5
2025-01-15 17:53:41.135166	344.8	27.0	-92.2	12.1
2025-01-15 17:53:42.294526	344.7	26.8	-91.6	20.4
2025-01-15 17:53:43.454890	344.5	26.6	-92.3	16.8
2025-01-15 17:53:44.619389	344.4	26.4	-92.5	15.1
2025-01-15 17:53:45.783197	344.2	26.3	-92.4	14.2
2025-01-15 17:53:46.940142	344.1	26.1	-92.7	4.5
2025-01-15 17:53:48.105634	343.9	25.9	-92.5	9.4
2025-01-15 17:53:49.264312	343.8	25.8	-92.1	10.4
2025-01-15 17:53:50.430270	343.6	25.6	-92.4	7.9
2025-01-15 17:53:51.594375	343.5	25.4	-92.5	12.3
2025-01-15 17:53:52.759234	343.4	25.3	-92.3	16.0
2025-01-15 17:53:53.916490	343.2	25.1	-92.5	14.9
2025-01-15 17:53:55.081016	343.1	24.9	-92.5	12.1
2025-01-15 17:53:56.236187	342.9	24.8	-92.5	10.6
2025-01-15 17:53:57.404289	342.8	24.6	-92.4	12.9
2025-01-15 17:53:58.563552	342.7	24.4	-92.6	9.6
2025-01-15 17:53:59.730340	342.5	24.3	-92.5	11.2
2025-01-15 17:54:00.890345	342.4	24.1	-92.4	10.8
2025-01-15 17:54:02.050652	342.3	24.0	-92.5	7.1
2025-01-15 17:54:03.218825	342.2	23.8	-90.9	6.8
2025-01-15 17:54:04.377791	342.0	23.6	-90.9	8.5
2025-01-15 17:54:05.540745	341.9	23.5	-91.3	5.9
2025-01-15 17:54:06.700662	341.8	23.3	-91.2	4.0
2025-01-15 17:54:07.868355	341.7	23.2	-90.9	8.5
2025-01-15 17:54:09.031229	341.5	23.0	-90.8	7.2
2025-01-15 17:54:10.193825	341.4	22.9	-92.4	10.2
2025-01-15 17:54:11.354634	341.3	22.7	-92.5	10.8
2025-01-15 17:54:12.516072	341.2	22.5	-92.5	15.6
2025-01-15 17:54:13.684561	341.1	22.4	-92.4	11.8
2025-01-15 17:54:14.855108	341.0	22.2	-93.0	11.4
2025-01-15 17:54:16.019058	340.8	22.1	-92.8	12.1
2025-01-15 17:54:17.175471	340.7	21.9	-92.2	17.5
2025-01-15 17:54:18.341148	340.6	21.8	-92.2	16.2
2025-01-15 17:54:19.505592	340.5	21.6	-92.4	11.7
2025-01-15 17:54:20.683586	340.4	21.5	-92.9	15.9
2025-01-15 17:54:21.846108	340.3	21.3	-93.0	9.7
2025-01-15 17:54:23.010577	340.2	21.2	-92.8	14.8
2025-01-15 17:54:24.176414	340.1	21.0	-92.0	12.8
2025-01-15 17:54:25.341752	340.0	20.9	-92.3	15.6
2025-01-15 17:54:26.506457	339.9	20.8	-92.7	17.8
2025-01-15 17:54:27.687260	339.8	20.6	-93.0	12.2
2025-01-15 17:54:28.852753	339.7	20.5	-91.9	11.7
2025-01-15 17:54:30.017586	339.6	20.3	-92.6	10.5
2025-01-15 17:54:31.175458	339.5	20.2	-92.5	8.7
2025-01-15 17:54:32.336126	339.4	20.0	-92.3	12.1
2025-01-15 17:54:33.501790	339.3	19.9	-92.7	5.2
2025-01-15 17:54:34.666470	339.2	19.8	-92.6	9.1
2025-01-15 17:54:35.833192	339.1	19.6	-92.6	10.4
2025-01-15 17:54:36.992464	339.0	19.5	-92.7	5.7
2025-01-15 17:54:38.159969	338.9	19.4	-92.6	7.0
2025-01-15 17:54:39.325470	338.8	19.2	-92.3	6.2
2025-01-15 17:54:40.502032	338.7	19.1	-92.6	4.4
2025-01-15 17:54:41.663312	338.6	18.9	-92.3	8.5
2025-01-15 17:54:42.824181	338.5	18.8	-92.6	5.4
2025-01-15 17:54:43.987271	338.4	18.7	-92.7	8.9
2025-01-15 17:54:45.155916	338.3	18.5	-92.0	5.4
2025-01-15 17:54:46.312566	338.3	18.4	-92.4	13.8
2025-01-15 17:54:47.471719	338.2	18.3	-92.8	6.5
2025-01-15 17:54:48.634626	338.1	18.1	-92.5	8.2
2025-01-15 17:54:49.795316	338.0	18.0	-92.7	8.5
2025-01-15 17:54:50.957314	337.9	17.9	-92.7	6.9
2025-01-15 17:54:52.124044	337.8	17.8	-92.6	6.5
2025-01-15 17:54:53.277848	337.7	17.6	-92.4	11.0
2025-01-15 17:54:54.443898	337.7	17.5	-92.5	4.0
2025-01-15 17:54:55.608934	337.6	17.4	-92.7	7.6
2025-01-15 17:54:56.768841	337.5	17.2	-92.5	6.5
2025-01-15 17:54:57.933335	337.4	17.1	-92.3	2.9
2025-01-15 17:54:59.091684	337.3	17.0	-92.3	4.2
2025-01-15 17:55:00.253805	337.3	16.9	-92.1	5.4
2025-01-15 17:55:01.413482	337.2	16.7	-92.6	4.2
2025-01-15 17:55:02.577975	337.1	16.6	-93.0	3.3
2025-01-15 17:55:03.750667	337.0	16.5	-92.7	5.7
2025-01-15 17:55:04.914772	336.9	16.4	-92.4	5.1
2025-01-15 17:55:06.079373	336.9	16.2	-92.5	4.0
2025-01-15 17:55:07.242921	336.8	16.1	-92.3	5.6
2025-01-15 17:55:08.402422	336.7	16.0	-92.3	5.0
2025-01-15 17:55:09.570024	336.6	15.9	-92.7	6.3
2025-01-15 17:55:10.731921	336.6	15.8	-92.8	8.2
2025-01-15 17:55:11.895930	336.5	15.6	-92.5	9.9
2025-01-15 17:55:13.058797	336.4	15.5	-92.3	11.6
2025-01-15 17:55:14.225752	336.4	15.4	-92.5	7.8
2025-01-15 17:55:15.386127	336.3	15.3	-92.1	6.8
2025-01-15 17:55:16.542417	336.2	15.2	-92.3	6.6
2025-01-15 17:55:17.712277	336.1	15.0	-92.5	5.3
2025-01-15 17:55:18.873171	336.1	14.9	-92.5	7.1
2025-01-15 17:55:20.041112	336.0	14.8	-92.7	8.0
2025-01-15 17:55:21.206434	335.9	14.7	-92.5	7.7
2025-01-15 17:55:22.361902	335.9	14.6	-92.3	5.4
#Closed at: 2025-01-15 17:46:30.246240