passes_logs/2026/01/24/T1/T1__20260124_113911_SUOMI_NPP_rec.log

#Pass ID: 20260124_113911_SUOMI NPP
#Satellite: SUOMI NPP
#Configuration: NPP
#almurnet v.1.7.20251203
#Start time: 2026-01-24 11:39:14

#Version: 2.0.20230620
#Station: T1
#Location: 37.570604 lon 55.790049 lat
#TLE: 1 37849U 11061A   26023.63275593  .00000212  00000+0  12133-3 0  9990
#TLE: 2 37849  98.7820 325.6074 0002234  48.9695 311.1673 14.19528901737937

#Time	Az	El	Level	Level2	SNR	BER	BlckErr	Temp	State	Recorded	gain1	gain2
2026-01-24 11:39:14.05	215.04	5.13	-46.2	-63.2	3.8	1.49e+00	0	35	0	0	64	24819
2026-01-24 11:39:15.04	215.14	5.19	-46.3	-63.2	3.8	1.49e+00	0	35	104	0	63	26455
2026-01-24 11:39:16.04	215.23	5.24	-46.3	-63.3	3.8	1.49e+00	0	35	104	0	63	26547
2026-01-24 11:39:17.03	215.32	5.30	-46.3	-63.3	3.8	1.49e+00	0	35	104	0	63	26463
2026-01-24 11:39:18.02	215.42	5.36	-46.3	-63.2	3.8	1.49e+00	0	35	104	0	63	26386
2026-01-24 11:39:19.02	215.51	5.42	-46.3	-63.2	3.8	1.49e+00	0	35	104	0	63	26296
2026-01-24 11:39:20.01	215.60	5.47	-46.3	-63.2	3.8	1.49e+00	0	35	104	0	63	26365
2026-01-24 11:39:21.00	215.70	5.53	-46.3	-63.2	3.8	1.49e+00	0	35	104	0	63	26212
2026-01-24 11:39:22.00	215.79	5.59	-46.3	-63.2	3.8	1.49e+00	0	35	104	0	63	26321
2026-01-24 11:39:22.99	215.89	5.65	-46.3	-63.2	3.8	1.49e+00	0	35	104	0	63	26212
2026-01-24 11:39:23.98	215.98	5.70	-46.3	-63.2	3.8	1.49e+00	0	35	104	0	63	26171
2026-01-24 11:39:24.97	216.08	5.76	-46.3	-63.2	3.8	1.49e+00	0	35	104	0	63	26258
2026-01-24 11:39:25.97	216.17	5.82	-46.3	-63.2	3.8	1.49e+00	0	35	104	0	63	26277
2026-01-24 11:39:26.96	216.27	5.88	-46.3	-63.2	3.8	1.49e+00	0	35	104	0	63	26364
2026-01-24 11:39:27.95	216.37	5.93	-46.3	-63.2	3.8	1.49e+00	0	36	104	0	63	26403
2026-01-24 11:39:28.95	216.47	5.99	-46.3	-63.2	3.8	1.49e+00	0	35	104	0	63	26414
2026-01-24 11:39:29.94	216.56	6.05	-46.3	-63.2	3.8	1.49e+00	0	36	104	0	63	26310
2026-01-24 11:39:30.93	216.66	6.11	-46.3	-63.2	3.8	1.49e+00	0	35	104	0	63	26169
2026-01-24 11:39:31.93	216.76	6.17	-46.3	-63.2	3.8	1.49e+00	0	35	104	0	63	26201
2026-01-24 11:39:32.92	216.86	6.22	-46.3	-63.1	3.8	1.49e+00	0	35	104	0	63	26113
2026-01-24 11:39:33.91	216.96	6.28	-46.3	-63.2	3.8	1.49e+00	0	35	104	0	63	26169
2026-01-24 11:39:34.90	217.06	6.34	-46.3	-63.1	3.8	1.49e+00	0	36	104	0	63	26050
2026-01-24 11:39:35.90	217.16	6.40	-46.3	-63.1	3.8	1.49e+00	0	36	104	0	63	26115
2026-01-24 11:39:36.89	217.26	6.46	-46.3	-63.2	3.8	1.49e+00	0	36	104	0	63	26272
2026-01-24 11:39:37.88	217.36	6.52	-46.3	-63.2	3.8	1.49e+00	0	35	104	0	63	26341
2026-01-24 11:39:38.88	217.46	6.57	-46.3	-63.3	3.8	1.49e+00	0	36	104	0	63	26497
2026-01-24 11:39:39.87	217.56	6.63	-46.3	-63.3	3.8	1.49e+00	0	36	104	0	63	26514
2026-01-24 11:39:40.86	217.66	6.69	-46.3	-63.2	3.8	1.49e+00	0	36	104	0	63	26314
2026-01-24 11:39:41.86	217.77	6.75	-46.3	-63.2	3.8	1.49e+00	0	36	104	0	63	26202
2026-01-24 11:39:42.85	217.87	6.81	-46.3	-63.1	3.8	1.49e+00	0	36	104	0	63	26105
2026-01-24 11:39:43.84	217.97	6.87	-46.3	-63.1	3.8	1.49e+00	0	36	104	0	63	25986
2026-01-24 11:39:44.84	218.07	6.93	-46.3	-63.0	3.8	1.49e+00	0	36	104	0	63	25673
2026-01-24 11:39:45.83	218.18	6.99	-46.3	-62.9	3.8	1.49e+00	0	36	104	0	63	25292
2026-01-24 11:39:46.82	218.28	7.04	-46.3	-62.8	3.8	1.49e+00	0	36	104	0	63	25210
2026-01-24 11:39:47.82	218.39	7.10	-46.3	-62.8	3.8	1.49e+00	0	36	104	0	63	25112
2026-01-24 11:39:48.81	218.49	7.16	-46.3	-62.8	3.8	1.49e+00	0	36	104	0	63	25222
2026-01-24 11:39:49.80	218.60	7.22	-46.3	-62.9	3.8	1.49e+00	0	36	104	0	63	25451
2026-01-24 11:39:50.80	218.70	7.28	-46.3	-62.8	3.8	1.49e+00	0	36	104	0	63	25215
2026-01-24 11:39:51.79	218.81	7.34	-46.3	-62.8	3.8	1.49e+00	0	36	104	0	63	25072
2026-01-24 11:39:52.78	218.92	7.40	-46.3	-62.7	3.8	1.49e+00	0	36	104	0	63	24946
2026-01-24 11:39:53.78	219.02	7.46	-46.3	-62.7	3.8	1.49e+00	0	36	104	0	63	24827
2026-01-24 11:39:54.77	219.13	7.52	-46.3	-62.7	3.8	1.49e+00	0	36	104	0	63	24846
2026-01-24 11:39:55.76	219.24	7.58	-46.3	-62.9	3.8	1.49e+00	0	36	104	0	63	25277
2026-01-24 11:39:56.76	219.35	7.64	-46.3	-62.9	3.8	1.49e+00	0	36	104	0	63	25278
2026-01-24 11:39:57.75	219.46	7.70	-46.3	-62.9	3.8	1.49e+00	0	36	104	0	63	25388
2026-01-24 11:39:58.74	219.57	7.76	-46.3	-62.7	3.8	1.49e+00	0	36	104	0	63	24847
2026-01-24 11:39:59.74	219.68	7.82	-46.3	-62.1	3.8	1.49e+00	0	36	104	0	63	23286
2026-01-24 11:40:00.73	219.79	7.88	-46.2	-61.6	3.8	1.49e+00	0	36	104	0	63	21830
2026-01-24 11:40:01.72	219.90	7.94	-46.2	-61.3	3.8	1.49e+00	0	36	104	0	63	21213
2026-01-24 11:40:02.71	220.01	8.00	-46.2	-61.6	3.8	1.49e+00	0	36	104	0	63	21966
2026-01-24 11:40:03.71	220.12	8.06	-46.3	-62.5	3.8	1.49e+00	0	37	104	0	63	24286
2026-01-24 11:40:04.70	220.23	8.12	-46.3	-63.1	3.8	1.49e+00	0	36	104	0	63	25936
2026-01-24 11:40:05.69	220.34	8.18	-46.2	-61.3	3.8	1.49e+00	0	36	104	0	63	21173
2026-01-24 11:40:06.69	220.46	8.24	-45.9	-57.2	5.2	1.10e+00	0	36	0	0	63	13157
2026-01-24 11:40:07.68	220.57	8.30	-45.4	-53.7	8.2	2.40e-01	0	36	0	2097152	62	9293
2026-01-24 11:40:08.67	220.68	8.36	-44.7	-51.2	10.7	2.42e-02	0	36	0	4194304	61	7417
2026-01-24 11:40:09.67	220.80	8.42	-44.0	-49.2	12.7	2.14e-04	0	37	0	6291456	60	6231
2026-01-24 11:40:10.66	220.91	8.48	-43.5	-48.0	13.9	1.37e-05	0	36	0	7340032	59	5779
2026-01-24 11:40:11.65	221.03	8.54	-43.1	-47.2	14.8	7.00e-07	0	37	0	9437184	58	5529
2026-01-24 11:40:12.65	221.15	8.60	-42.9	-46.9	15.1	0.00e+00	0	36	0	11534336	57	5678
2026-01-24 11:40:13.64	221.26	8.66	-43.0	-47.0	14.9	0.00e+00	0	36	0	13631488	57	5757
2026-01-24 11:40:14.63	221.38	8.72	-43.3	-47.5	14.5	0.00e+00	0	37	0	14680064	57	6074
2026-01-24 11:40:15.63	221.49	8.78	-43.6	-48.2	13.8	1.50e-06	0	36	0	16777216	57	6575
2026-01-24 11:40:16.62	221.61	8.84	-44.2	-49.5	12.5	3.58e-05	0	36	0	18874368	59	6826
2026-01-24 11:40:17.61	221.73	8.90	-44.7	-51.0	10.9	8.93e-04	0	37	0	20971520	60	7715
2026-01-24 11:40:18.61	221.85	8.96	-45.1	-52.6	9.3	7.52e-03	0	36	0	23068672	60	9228
2026-01-24 11:40:19.60	221.97	9.02	-45.5	-54.3	7.6	3.37e-02	0	36	0	24117248	61	10628
2026-01-24 11:40:20.59	222.09	9.08	-45.2	-51.7	10.2	1.19e-01	0	37	0	26214400	61	7823
2026-01-24 11:40:21.59	222.21	9.14	-44.3	-49.2	12.9	3.38e-04	0	37	0	28311552	60	6203
2026-01-24 11:40:22.58	222.33	9.20	-45.9	-55.5	6.7	3.37e-04	0	36	0	30408704	62	11442
2026-01-24 11:40:23.57	222.45	9.26	-46.2	-56.7	5.5	7.56e-01	0	37	0	32505856	63	12477
2026-01-24 11:40:24.57	222.57	9.33	-45.2	-50.9	11.1	2.68e-01	0	36	0	33554432	62	6726
2026-01-24 11:40:25.56	222.69	9.39	-45.5	-50.7	11.4	3.67e-03	0	37	0	35651584	62	6589
2026-01-24 11:40:26.56	222.81	9.45	-45.5	-50.6	11.5	5.80e-04	0	37	0	37748736	62	6539
2026-01-24 11:40:27.55	222.94	9.51	-45.6	-50.8	11.3	1.49e-03	0	37	0	39845888	62	6647
2026-01-24 11:40:28.55	223.06	9.57	-45.2	-49.8	12.3	3.00e-04	0	37	0	40894464	62	5951
2026-01-24 11:40:29.54	223.18	9.63	-44.7	-48.7	13.5	4.88e-05	0	37	0	42991616	61	5530
2026-01-24 11:40:30.54	223.31	9.69	-44.6	-48.5	13.7	1.29e-05	0	36	0	45088768	61	5432
2026-01-24 11:40:31.53	223.43	9.75	-44.5	-48.2	14.0	1.50e-06	0	37	0	47185920	60	5578
2026-01-24 11:40:32.53	223.56	9.82	-44.5	-48.2	14.0	7.00e-07	0	37	0	49283072	60	5553
2026-01-24 11:40:33.52	223.69	9.88	-44.7	-48.5	13.7	4.50e-06	0	37	0	50331648	60	5750
2026-01-24 11:40:34.52	223.81	9.94	-44.6	-48.4	13.8	1.06e-05	0	37	0	52428800	60	5667
2026-01-24 11:40:35.51	223.94	10.00	-44.0	-47.4	14.8	0.00e+00	0	37	0	54525952	60	5079
2026-01-24 11:40:36.51	224.07	10.06	-43.5	-46.6	15.6	0.00e+00	0	37	0	56623104	59	4911
2026-01-24 11:40:37.50	224.19	10.12	-43.6	-46.8	15.4	0.00e+00	0	37	0	57671680	58	5295
2026-01-24 11:40:38.50	224.32	10.18	-43.7	-47.0	15.2	0.00e+00	0	37	0	59768832	58	5430
2026-01-24 11:40:39.49	224.45	10.24	-43.2	-46.3	15.9	0.00e+00	0	37	0	61865984	58	5005
2026-01-24 11:40:40.49	224.58	10.31	-43.1	-46.0	16.2	0.00e+00	0	37	0	63963136	58	4864
2026-01-24 11:40:41.48	224.71	10.37	-42.8	-45.7	16.5	0.00e+00	0	37	0	66060288	57	4955
2026-01-24 11:40:42.48	224.84	10.43	-42.9	-45.7	16.5	0.00e+00	0	37	0	67108864	57	4967
2026-01-24 11:40:43.47	224.97	10.49	-42.9	-45.8	16.5	0.00e+00	0	37	0	69206016	57	4984
2026-01-24 11:40:44.47	225.11	10.55	-42.7	-45.5	16.7	0.00e+00	0	37	0	71303168	57	4843
2026-01-24 11:40:45.46	225.24	10.61	-42.6	-45.4	16.8	0.00e+00	0	37	0	73400320	57	4791
2026-01-24 11:40:46.46	225.37	10.68	-42.6	-45.4	16.9	0.00e+00	0	37	0	74448896	57	4764
2026-01-24 11:40:47.45	225.51	10.74	-42.6	-45.4	16.8	0.00e+00	0	37	0	76546048	57	4781
2026-01-24 11:40:48.45	225.64	10.80	-42.7	-45.4	16.8	0.00e+00	0	37	0	78643200	56	5094
2026-01-24 11:40:49.44	225.77	10.86	-42.5	-45.3	17.0	0.00e+00	0	37	0	80740352	56	4987
2026-01-24 11:40:50.44	225.91	10.92	-42.7	-45.5	16.7	0.00e+00	0	37	0	82837504	56	5149
2026-01-24 11:40:51.43	226.04	10.98	-42.4	-45.2	17.1	0.00e+00	0	37	0	83886080	56	4931
2026-01-24 11:40:52.43	226.18	11.05	-42.6	-45.4	16.9	0.00e+00	0	37	0	85983232	56	5042
2026-01-24 11:40:53.42	226.32	11.11	-42.3	-45.0	17.2	0.00e+00	0	37	0	88080384	56	4837
2026-01-24 11:40:54.42	226.46	11.17	-42.3	-45.0	17.3	0.00e+00	0	37	0	90177536	56	4828
2026-01-24 11:40:55.41	226.59	11.23	-42.3	-45.0	17.2	0.00e+00	0	37	0	91226112	56	4836
2026-01-24 11:40:56.41	226.73	11.29	-42.3	-45.0	17.2	0.00e+00	0	37	0	93323264	56	4825
2026-01-24 11:40:57.40	226.87	11.35	-42.3	-44.9	17.3	0.00e+00	0	37	0	95420416	56	4797
2026-01-24 11:40:58.39	227.01	11.42	-41.9	-44.5	17.6	0.00e+00	0	37	0	97517568	55	4835
2026-01-24 11:40:59.38	227.15	11.48	-41.8	-44.4	17.7	0.00e+00	0	37	0	99614720	55	4765
2026-01-24 11:41:00.38	227.29	11.54	-41.9	-44.4	17.6	0.00e+00	0	37	0	100663296	55	4798
2026-01-24 11:41:01.37	227.43	11.60	-41.8	-44.4	17.6	0.00e+00	0	37	0	102760448	55	4785
2026-01-24 11:41:02.37	227.57	11.66	-41.7	-44.2	17.8	0.00e+00	0	37	0	104857600	55	4694
2026-01-24 11:41:03.36	227.71	11.72	-41.6	-44.1	17.9	0.00e+00	0	37	0	106954752	55	4651
2026-01-24 11:41:04.36	227.86	11.79	-41.6	-44.1	17.9	0.00e+00	0	37	0	108003328	55	4647
2026-01-24 11:41:05.35	228.00	11.85	-41.6	-44.1	18.0	0.00e+00	0	37	0	110100480	55	4623
2026-01-24 11:41:06.35	228.15	11.91	-41.6	-44.1	18.0	0.00e+00	0	37	0	112197632	55	4615
2026-01-24 11:41:07.34	228.29	11.97	-41.7	-44.3	17.8	0.00e+00	0	37	0	114294784	55	4708
2026-01-24 11:41:08.33	228.44	12.03	-41.7	-44.2	17.9	0.00e+00	0	37	0	116391936	55	4661
2026-01-24 11:41:09.33	228.58	12.09	-41.7	-44.2	17.9	0.00e+00	0	37	0	117440512	55	4673
2026-01-24 11:41:10.32	228.73	12.16	-41.8	-44.3	17.8	0.00e+00	0	37	0	119537664	55	4740
2026-01-24 11:41:11.32	228.88	12.22	-42.0	-44.6	17.5	0.00e+00	0	37	0	121634816	55	4888
2026-01-24 11:41:12.31	229.02	12.28	-42.0	-44.6	17.5	0.00e+00	0	37	0	123731968	55	4910
2026-01-24 11:41:13.31	229.17	12.34	-42.0	-44.6	17.5	0.00e+00	0	37	0	124780544	55	4894
2026-01-24 11:41:14.30	229.32	12.40	-42.1	-44.7	17.4	0.00e+00	0	37	0	126877696	55	4946
2026-01-24 11:41:15.30	229.47	12.46	-41.9	-44.5	17.6	0.00e+00	0	37	0	128974848	55	4834
2026-01-24 11:41:16.29	229.62	12.53	-42.0	-44.6	17.5	0.00e+00	0	37	0	131072000	55	4872
2026-01-24 11:41:17.29	229.77	12.59	-41.9	-44.5	17.6	0.00e+00	0	37	0	133169152	55	4851
2026-01-24 11:41:18.28	229.92	12.65	-41.9	-44.5	17.6	0.00e+00	0	37	0	134217728	55	4847
2026-01-24 11:41:19.28	230.07	12.71	-41.9	-44.5	17.6	0.00e+00	0	37	0	136314880	55	4845
2026-01-24 11:41:20.27	230.23	12.77	-42.0	-44.5	17.6	0.00e+00	0	37	0	138412032	55	4853
2026-01-24 11:41:21.27	230.38	12.83	-42.1	-44.7	17.5	0.00e+00	0	37	0	140509184	55	4954
2026-01-24 11:41:22.27	230.54	12.90	-41.8	-44.4	17.7	0.00e+00	0	37	0	141557760	55	4780
2026-01-24 11:41:23.26	230.69	12.96	-42.2	-44.8	17.3	0.00e+00	0	37	0	143654912	55	5035
2026-01-24 11:41:24.26	230.84	13.02	-41.9	-44.5	17.6	0.00e+00	0	37	0	145752064	55	4850
2026-01-24 11:41:25.25	231.00	13.08	-42.0	-44.6	17.6	0.00e+00	0	37	0	147849216	55	4871
2026-01-24 11:41:26.25	231.16	13.14	-42.0	-44.6	17.6	0.00e+00	0	37	0	149946368	55	4875
2026-01-24 11:41:27.24	231.31	13.20	-41.9	-44.4	17.7	0.00e+00	0	37	0	150994944	55	4807
2026-01-24 11:41:28.24	231.47	13.26	-41.8	-44.3	17.9	0.00e+00	0	37	0	153092096	55	4731
2026-01-24 11:41:29.23	231.63	13.32	-41.7	-44.2	18.0	0.00e+00	0	37	0	155189248	55	4670
2026-01-24 11:41:30.22	231.79	13.38	-41.6	-44.1	18.0	0.00e+00	0	37	0	157286400	55	4600
2026-01-24 11:41:31.22	231.95	13.45	-41.4	-43.9	18.2	0.00e+00	0	37	0	158334976	54	4778
2026-01-24 11:41:32.21	232.11	13.51	-41.6	-44.1	18.0	0.00e+00	0	37	0	160432128	54	4896
2026-01-24 11:41:33.21	232.27	13.57	-41.6	-44.0	18.1	0.00e+00	0	37	0	162529280	54	4864
2026-01-24 11:41:34.20	232.43	13.63	-41.4	-43.9	18.2	0.00e+00	0	37	0	164626432	54	4778
2026-01-24 11:41:35.20	232.59	13.69	-41.4	-43.8	18.3	0.00e+00	0	37	0	166723584	54	4753
2026-01-24 11:41:36.19	232.75	13.75	-41.3	-43.7	18.4	0.00e+00	0	37	0	167772160	54	4659
2026-01-24 11:41:37.19	232.92	13.81	-41.3	-43.7	18.5	0.00e+00	0	37	0	169869312	54	4661
2026-01-24 11:41:38.18	233.08	13.87	-41.5	-43.9	18.3	0.00e+00	0	37	0	171966464	54	4790
2026-01-24 11:41:39.18	233.25	13.93	-41.4	-43.9	18.2	0.00e+00	0	37	0	174063616	54	4779
2026-01-24 11:41:40.17	233.41	13.99	-41.3	-43.7	18.5	0.00e+00	0	37	0	175112192	54	4657
2026-01-24 11:41:41.17	233.58	14.05	-41.5	-43.9	18.2	0.00e+00	0	37	0	177209344	54	4812
2026-01-24 11:41:42.16	233.74	14.11	-41.6	-44.1	18.1	0.00e+00	0	37	0	179306496	54	4873
2026-01-24 11:41:43.16	233.91	14.17	-41.4	-43.9	18.2	0.00e+00	0	37	0	181403648	54	4781
2026-01-24 11:41:44.15	234.08	14.23	-41.6	-44.1	18.0	0.00e+00	0	37	0	183500800	54	4922
2026-01-24 11:41:45.15	234.25	14.30	-41.6	-44.1	18.1	0.00e+00	0	37	0	184549376	54	4888
2026-01-24 11:41:46.14	234.42	14.35	-41.5	-44.0	18.2	0.00e+00	0	37	0	186646528	54	4852
2026-01-24 11:41:47.14	234.59	14.42	-41.5	-44.0	18.2	0.00e+00	0	37	0	188743680	54	4816
2026-01-24 11:41:48.13	234.76	14.47	-41.5	-44.1	18.1	0.00e+00	0	37	0	190840832	54	4875
2026-01-24 11:41:49.13	234.93	14.54	-41.6	-44.2	18.0	0.00e+00	0	37	0	191889408	54	4927
2026-01-24 11:41:50.12	235.10	14.59	-41.6	-44.1	18.0	0.00e+00	0	37	0	193986560	54	4909
2026-01-24 11:41:51.11	235.27	14.65	-41.8	-44.4	17.9	0.00e+00	0	37	0	196083712	54	5049
2026-01-24 11:41:52.11	235.45	14.71	-41.8	-44.4	17.8	0.00e+00	0	37	0	198180864	54	5082
2026-01-24 11:41:53.10	235.62	14.77	-42.1	-44.7	17.4	0.00e+00	0	37	0	200278016	54	5271
2026-01-24 11:41:54.10	235.80	14.83	-42.1	-44.8	17.4	0.00e+00	0	37	0	201326592	54	5315
2026-01-24 11:41:55.09	235.97	14.89	-42.2	-44.9	17.3	0.00e+00	0	37	0	203423744	55	5059
2026-01-24 11:41:56.09	236.15	14.95	-42.0	-44.6	17.5	0.00e+00	0	37	0	205520896	55	4925
2026-01-24 11:41:57.08	236.32	15.01	-42.0	-44.6	17.6	0.00e+00	0	37	0	207618048	55	4883
2026-01-24 11:41:58.08	236.50	15.07	-41.8	-44.4	17.8	0.00e+00	0	37	0	208666624	55	4787
2026-01-24 11:41:59.08	236.68	15.13	-41.7	-44.2	18.0	0.00e+00	0	37	0	210763776	55	4685
2026-01-24 11:42:00.07	236.86	15.19	-41.6	-44.1	18.1	0.00e+00	0	37	0	212860928	54	4891
2026-01-24 11:42:01.06	237.04	15.24	-41.6	-44.1	18.1	0.00e+00	0	37	0	214958080	54	4896
2026-01-24 11:42:02.06	237.22	15.30	-41.7	-44.2	18.0	0.00e+00	0	37	0	217055232	54	4942
2026-01-24 11:42:03.05	237.40	15.36	-41.7	-44.2	18.0	0.00e+00	0	37	0	218103808	54	4952
2026-01-24 11:42:04.05	237.58	15.42	-42.0	-44.6	17.6	0.00e+00	0	37	0	220200960	54	5165
2026-01-24 11:42:05.04	237.76	15.48	-41.8	-44.3	17.9	0.00e+00	0	37	0	222298112	54	5004
2026-01-24 11:42:06.03	237.94	15.54	-41.7	-44.2	18.0	0.00e+00	0	37	0	224395264	54	4969
2026-01-24 11:42:07.03	238.13	15.59	-41.6	-44.1	18.1	0.00e+00	0	37	0	225443840	54	4885
2026-01-24 11:42:08.02	238.31	15.65	-41.5	-44.0	18.2	0.00e+00	0	37	0	227540992	54	4835
2026-01-24 11:42:09.02	238.50	15.71	-41.4	-43.8	18.4	0.00e+00	0	37	0	229638144	54	4711
2026-01-24 11:42:10.01	238.68	15.77	-41.2	-43.5	18.6	0.00e+00	0	37	0	231735296	54	4598
2026-01-24 11:42:11.00	238.87	15.82	-41.2	-43.6	18.6	0.00e+00	0	37	0	233832448	54	4610
2026-01-24 11:42:12.00	239.06	15.88	-41.2	-43.6	18.4	0.00e+00	0	37	0	234881024	54	4624
2026-01-24 11:42:12.99	239.24	15.94	-41.2	-43.6	18.6	0.00e+00	0	37	0	236978176	54	4618
2026-01-24 11:42:13.99	239.43	15.99	-41.1	-43.4	18.7	0.00e+00	0	37	0	239075328	54	4514
2026-01-24 11:42:14.98	239.62	16.05	-41.1	-43.5	18.6	0.00e+00	0	37	0	241172480	54	4552
2026-01-24 11:42:15.98	239.81	16.11	-41.2	-43.6	18.5	0.00e+00	0	37	0	242221056	54	4620
2026-01-24 11:42:16.98	240.00	16.16	-41.1	-43.5	18.6	0.00e+00	0	37	0	244318208	54	4562
2026-01-24 11:42:17.97	240.19	16.22	-41.1	-43.5	18.7	0.00e+00	0	37	0	246415360	54	4557
2026-01-24 11:42:18.97	240.39	16.28	-41.1	-43.5	18.7	0.00e+00	0	37	0	248512512	54	4567
2026-01-24 11:42:19.96	240.58	16.33	-41.1	-43.4	18.7	0.00e+00	0	37	0	250609664	54	4543
2026-01-24 11:42:20.96	240.77	16.39	-41.2	-43.6	18.6	0.00e+00	0	37	0	251658240	54	4617
2026-01-24 11:42:21.95	240.96	16.44	-41.4	-43.8	18.4	0.00e+00	0	37	0	253755392	54	4706
2026-01-24 11:42:22.95	241.16	16.50	-41.3	-43.7	18.5	0.00e+00	0	37	0	255852544	54	4658
2026-01-24 11:42:23.94	241.35	16.55	-41.4	-43.9	18.3	0.00e+00	0	37	0	257949696	54	4767
2026-01-24 11:42:24.93	241.55	16.61	-41.5	-43.9	18.3	0.00e+00	0	37	0	258998272	54	4803
2026-01-24 11:42:25.93	241.75	16.66	-41.3	-43.6	18.5	0.00e+00	0	37	0	261095424	54	4648
2026-01-24 11:42:26.92	241.94	16.72	-41.4	-43.8	18.4	0.00e+00	0	37	0	263192576	54	4706
2026-01-24 11:42:27.92	242.14	16.77	-41.1	-43.5	18.7	0.00e+00	0	37	0	265289728	54	4563
2026-01-24 11:42:28.91	242.34	16.82	-41.1	-43.4	18.7	0.00e+00	0	37	0	267386880	54	4530
2026-01-24 11:42:29.91	242.54	16.88	-41.1	-43.5	18.7	0.00e+00	0	37	0	268435456	54	4555
2026-01-24 11:42:30.90	242.74	16.93	-41.2	-43.6	18.6	0.00e+00	0	37	0	270532608	54	4601
2026-01-24 11:42:31.90	242.94	16.98	-41.4	-43.8	18.3	0.00e+00	0	37	0	272629760	54	4735
2026-01-24 11:42:32.90	243.15	17.04	-41.5	-43.9	18.4	0.00e+00	0	37	0	274726912	54	4776
2026-01-24 11:42:33.89	243.35	17.09	-41.6	-44.0	18.2	0.00e+00	0	37	0	275775488	54	4845
2026-01-24 11:42:34.89	243.55	17.14	-41.6	-44.0	18.2	0.00e+00	0	37	0	277872640	54	4858
2026-01-24 11:42:35.88	243.75	17.20	-41.7	-44.2	18.0	0.00e+00	0	37	0	279969792	54	4936
2026-01-24 11:42:36.88	243.96	17.25	-41.6	-44.1	18.2	0.00e+00	0	37	0	282066944	54	4876
2026-01-24 11:42:37.87	244.16	17.30	-41.5	-43.9	18.4	0.00e+00	0	37	0	284164096	54	4764
2026-01-24 11:42:38.86	244.37	17.35	-41.5	-43.9	18.3	0.00e+00	0	37	0	285212672	54	4764
2026-01-24 11:42:39.86	244.58	17.40	-41.5	-43.9	18.3	0.00e+00	0	37	0	287309824	54	4780
2026-01-24 11:42:40.85	244.78	17.45	-41.6	-44.0	18.2	0.00e+00	0	37	0	289406976	54	4859
2026-01-24 11:42:41.85	244.99	17.51	-41.8	-44.2	18.0	0.00e+00	0	37	0	291504128	54	4981
2026-01-24 11:42:42.84	245.20	17.56	-41.9	-44.4	17.8	0.00e+00	0	37	0	293601280	54	5099
2026-01-24 11:42:43.84	245.41	17.61	-42.1	-44.6	17.6	0.00e+00	0	37	0	294649856	54	5218
2026-01-24 11:42:44.83	245.62	17.66	-42.0	-44.6	17.5	0.00e+00	0	37	0	296747008	54	5213
2026-01-24 11:42:45.82	245.83	17.71	-41.9	-44.6	17.0	3.89e-05	0	37	0	298844160	54	5218
2026-01-24 11:42:46.82	246.04	17.76	-41.6	-44.6	16.8	1.15e-02	0	37	0	300941312	54	5179
2026-01-24 11:42:47.81	246.25	17.81	-41.1	-44.5	16.8	1.40e-02	0	37	0	301989888	54	5152
2026-01-24 11:42:48.81	246.46	17.85	-41.1	-44.6	16.7	1.56e-02	0	37	0	304087040	54	5205
2026-01-24 11:42:49.80	246.67	17.90	-41.5	-44.8	16.5	1.58e-02	0	37	0	306184192	54	5335
2026-01-24 11:42:50.80	246.89	17.95	-42.2	-44.9	17.1	7.96e-03	0	37	0	308281344	54	5377
2026-01-24 11:42:51.79	247.10	18.00	-42.4	-45.1	17.2	0.00e+00	0	37	0	309329920	55	5163
2026-01-24 11:42:52.79	247.32	18.05	-42.4	-45.1	17.0	0.00e+00	0	37	0	311427072	55	5203
2026-01-24 11:42:53.78	247.53	18.10	-42.4	-45.0	17.2	0.00e+00	0	37	0	313524224	55	5159
2026-01-24 11:42:54.78	247.75	18.14	-42.5	-45.1	17.1	0.00e+00	0	37	0	315621376	55	5204
2026-01-24 11:42:55.78	247.97	18.19	-42.9	-45.7	16.8	0.00e+00	0	37	0	317718528	56	5222
2026-01-24 11:42:56.77	248.19	18.24	-43.0	-45.8	16.6	0.00e+00	0	37	0	318767104	56	5307
2026-01-24 11:42:57.77	248.41	18.28	-43.0	-45.9	16.5	0.00e+00	0	37	0	320864256	56	5360
2026-01-24 11:42:58.76	248.62	18.33	-43.1	-46.0	16.5	0.00e+00	0	37	0	322961408	57	5128
2026-01-24 11:42:59.75	248.84	18.38	-43.2	-46.2	16.3	0.00e+00	0	37	0	325058560	57	5237
2026-01-24 11:43:00.75	249.06	18.42	-43.2	-46.1	16.4	0.00e+00	0	37	0	326107136	57	5198
2026-01-24 11:43:01.74	249.28	18.47	-43.0	-45.9	16.6	0.00e+00	0	37	0	328204288	57	5066
2026-01-24 11:43:02.74	249.51	18.51	-43.0	-45.9	16.6	0.00e+00	0	37	0	330301440	57	5051
2026-01-24 11:43:03.73	249.73	18.55	-43.2	-46.0	16.4	0.00e+00	0	37	0	332398592	57	5154
2026-01-24 11:43:04.73	249.95	18.60	-43.2	-46.1	16.3	0.00e+00	0	37	0	334495744	57	5214
2026-01-24 11:43:05.73	250.18	18.64	-43.4	-46.4	16.1	0.00e+00	0	37	0	335544320	57	5360
2026-01-24 11:43:06.72	250.40	18.69	-43.3	-46.2	16.2	0.00e+00	0	37	0	337641472	57	5250
2026-01-24 11:43:07.71	250.62	18.73	-43.2	-46.1	16.4	0.00e+00	0	37	0	339738624	57	5172
2026-01-24 11:43:08.71	250.85	18.77	-43.1	-46.0	16.5	0.00e+00	0	37	0	341835776	57	5103
2026-01-24 11:43:09.70	251.07	18.81	-42.9	-45.7	16.7	0.00e+00	0	37	0	342884352	57	4946
2026-01-24 11:43:10.70	251.30	18.86	-42.7	-45.4	17.1	0.00e+00	0	37	0	344981504	57	4780
2026-01-24 11:43:11.69	251.53	18.90	-42.8	-45.5	16.9	0.00e+00	0	37	0	347078656	57	4865
2026-01-24 11:43:12.69	251.76	18.94	-42.8	-45.5	16.9	0.00e+00	0	37	0	349175808	57	4846
2026-01-24 11:43:13.68	251.98	18.98	-42.7	-45.5	17.0	0.00e+00	0	37	0	351272960	57	4818
2026-01-24 11:43:14.68	252.22	19.02	-42.7	-45.4	17.0	0.00e+00	0	37	0	352321536	57	4787
2026-01-24 11:43:15.67	252.44	19.06	-42.5	-45.2	17.3	0.00e+00	0	37	0	354418688	57	4657
2026-01-24 11:43:16.67	252.67	19.10	-42.4	-45.0	17.5	0.00e+00	0	37	0	356515840	56	4848
2026-01-24 11:43:17.66	252.90	19.14	-42.0	-44.5	17.9	0.00e+00	0	37	0	358612992	56	4567
2026-01-24 11:43:18.66	253.14	19.18	-41.9	-44.5	17.8	0.00e+00	0	37	0	360710144	55	4818
2026-01-24 11:43:19.65	253.37	19.22	-41.8	-44.3	17.9	0.00e+00	0	37	0	361758720	55	4751
2026-01-24 11:43:20.65	253.60	19.26	-42.0	-44.6	17.6	0.00e+00	0	37	0	363855872	55	4899
2026-01-24 11:43:21.64	253.83	19.29	-42.0	-44.6	17.7	0.00e+00	0	37	0	365953024	55	4900
2026-01-24 11:43:22.63	254.07	19.33	-42.1	-44.7	17.6	0.00e+00	0	37	0	368050176	55	4940
2026-01-24 11:43:23.63	254.30	19.37	-42.0	-44.5	17.7	0.00e+00	0	37	0	369098752	55	4860
2026-01-24 11:43:24.62	254.53	19.40	-41.9	-44.4	17.9	0.00e+00	0	37	0	371195904	55	4793
2026-01-24 11:43:25.62	254.77	19.44	-41.8	-44.3	18.0	0.00e+00	0	37	0	373293056	55	4712
2026-01-24 11:43:26.61	255.01	19.47	-41.4	-43.8	18.5	0.00e+00	0	37	0	375390208	54	4742
2026-01-24 11:43:27.60	255.24	19.51	-41.5	-43.9	18.4	0.00e+00	0	37	0	377487360	54	4775
2026-01-24 11:43:28.60	255.48	19.54	-41.6	-44.0	18.2	0.00e+00	0	37	0	378535936	54	4832
2026-01-24 11:43:29.59	255.71	19.58	-41.6	-44.0	18.2	0.00e+00	0	37	0	380633088	54	4853
2026-01-24 11:43:30.59	255.95	19.61	-41.9	-44.5	17.8	0.00e+00	0	37	0	382730240	54	5104
2026-01-24 11:43:31.59	256.19	19.65	-41.6	-44.1	18.2	0.00e+00	0	37	0	384827392	54	4875
2026-01-24 11:43:32.58	256.43	19.68	-41.3	-43.7	18.5	0.00e+00	0	37	0	385875968	54	4701
2026-01-24 11:43:33.57	256.67	19.71	-41.2	-43.5	18.7	0.00e+00	0	37	0	387973120	54	4575
2026-01-24 11:43:34.57	256.91	19.74	-40.9	-43.1	19.0	0.00e+00	0	37	0	390070272	53	4650
2026-01-24 11:43:35.57	257.15	19.78	-40.7	-43.0	19.2	0.00e+00	0	37	0	392167424	53	4552
2026-01-24 11:43:36.56	257.39	19.81	-40.9	-43.2	19.0	0.00e+00	0	37	0	394264576	53	4686
2026-01-24 11:43:37.56	257.63	19.84	-41.0	-43.4	18.8	0.00e+00	0	37	0	395313152	53	4772
2026-01-24 11:43:38.55	257.87	19.87	-40.9	-43.2	18.9	0.00e+00	0	37	0	397410304	53	4696
2026-01-24 11:43:39.55	258.12	19.90	-40.9	-43.2	19.0	0.00e+00	0	37	0	399507456	53	4656
2026-01-24 11:43:40.54	258.36	19.93	-40.7	-42.9	19.2	0.00e+00	0	37	0	401604608	53	4543
2026-01-24 11:43:41.54	258.60	19.96	-40.7	-42.9	19.2	0.00e+00	0	37	0	402653184	53	4535
2026-01-24 11:43:42.53	258.85	19.98	-40.8	-43.0	19.1	0.00e+00	0	37	0	404750336	53	4594
2026-01-24 11:43:43.53	259.09	20.01	-40.9	-43.2	19.0	0.00e+00	0	37	0	406847488	53	4674
2026-01-24 11:43:44.52	259.33	20.04	-41.3	-43.7	18.5	0.00e+00	0	37	0	408944640	53	4963
2026-01-24 11:43:45.52	259.58	20.07	-41.3	-43.7	18.5	0.00e+00	0	37	0	411041792	53	4964
2026-01-24 11:43:46.51	259.82	20.09	-41.3	-43.7	18.6	0.00e+00	0	37	0	412090368	53	4937
2026-01-24 11:43:47.51	260.07	20.12	-41.2	-43.6	18.7	0.00e+00	0	37	0	414187520	53	4887
2026-01-24 11:43:48.50	260.32	20.14	-41.0	-43.3	18.9	0.00e+00	0	37	0	416284672	53	4735
2026-01-24 11:43:49.49	260.56	20.17	-41.1	-43.5	18.8	0.00e+00	0	38	0	418381824	53	4817
2026-01-24 11:43:50.49	260.81	20.19	-41.0	-43.4	18.8	0.00e+00	0	37	0	419430400	53	4780
2026-01-24 11:43:51.48	261.06	20.22	-41.2	-43.7	18.6	0.00e+00	0	37	0	421527552	53	4941
2026-01-24 11:43:52.48	261.30	20.24	-41.3	-43.7	18.5	0.00e+00	0	37	0	423624704	53	4965
2026-01-24 11:43:53.47	261.55	20.26	-41.2	-43.6	18.7	0.00e+00	0	37	0	425721856	53	4893
2026-01-24 11:43:54.47	261.80	20.29	-41.1	-43.4	18.8	0.00e+00	0	37	0	427819008	53	4801
2026-01-24 11:43:55.46	262.05	20.31	-40.9	-43.2	19.0	0.00e+00	0	37	0	428867584	53	4688
2026-01-24 11:43:56.46	262.30	20.33	-40.9	-43.2	19.1	0.00e+00	0	37	0	430964736	53	4653
2026-01-24 11:43:57.45	262.55	20.35	-41.1	-43.4	18.8	0.00e+00	0	37	0	433061888	53	4782
2026-01-24 11:43:58.45	262.80	20.37	-41.3	-43.7	18.5	0.00e+00	0	37	0	435159040	53	4975
2026-01-24 11:43:59.44	263.05	20.39	-41.3	-43.7	18.5	0.00e+00	0	37	0	436207616	53	4977
2026-01-24 11:44:00.44	263.30	20.41	-41.2	-43.6	18.7	0.00e+00	0	37	0	438304768	53	4895
2026-01-24 11:44:01.43	263.55	20.43	-41.0	-43.4	18.8	0.00e+00	0	37	0	440401920	53	4763
2026-01-24 11:44:02.43	263.80	20.45	-40.6	-42.9	19.3	0.00e+00	0	37	0	442499072	53	4520
2026-01-24 11:44:03.42	264.05	20.46	-40.7	-43.0	19.1	0.00e+00	0	37	0	444596224	53	4588
2026-01-24 11:44:04.42	264.30	20.48	-41.0	-43.4	18.9	0.00e+00	0	37	0	445644800	53	4769
2026-01-24 11:44:05.41	264.55	20.50	-41.3	-43.7	18.6	0.00e+00	0	37	0	447741952	53	4952
2026-01-24 11:44:06.41	264.80	20.51	-41.5	-43.9	18.4	0.00e+00	0	37	0	449839104	53	5088
2026-01-24 11:44:07.40	265.05	20.53	-41.7	-44.1	18.2	0.00e+00	0	37	0	451936256	54	4918
2026-01-24 11:44:08.39	265.31	20.55	-41.5	-43.9	18.3	0.00e+00	0	37	0	452984832	54	4813
2026-01-24 11:44:09.39	265.56	20.56	-41.5	-43.9	18.4	0.00e+00	0	37	0	455081984	54	4784
2026-01-24 11:44:10.38	265.81	20.57	-41.5	-43.9	18.3	0.00e+00	0	37	0	457179136	54	4802
2026-01-24 11:44:11.38	266.07	20.59	-41.6	-44.0	18.2	0.00e+00	0	37	0	459276288	54	4858
2026-01-24 11:44:12.38	266.32	20.60	-41.8	-44.3	17.9	0.00e+00	0	37	0	461373440	54	5024
2026-01-24 11:44:13.37	266.57	20.61	-41.9	-44.5	17.9	0.00e+00	0	37	0	462422016	54	5113
2026-01-24 11:44:14.37	266.83	20.62	-42.0	-44.6	17.8	0.00e+00	0	37	0	464519168	54	5174
2026-01-24 11:44:15.36	267.08	20.64	-41.9	-44.4	17.9	0.00e+00	0	37	0	466616320	54	5096
2026-01-24 11:44:16.35	267.33	20.65	-41.6	-44.1	18.2	0.00e+00	0	37	0	468713472	54	4915
2026-01-24 11:44:17.35	267.59	20.66	-41.3	-43.7	18.5	0.00e+00	0	37	0	469762048	54	4693
2026-01-24 11:44:18.34	267.84	20.67	-41.3	-43.7	18.6	0.00e+00	0	37	0	471859200	54	4659
2026-01-24 11:44:19.34	268.10	20.67	-41.3	-43.6	18.6	0.00e+00	0	37	0	473956352	54	4642
2026-01-24 11:44:20.33	268.35	20.68	-41.4	-43.7	18.5	0.00e+00	0	37	0	476053504	54	4702
2026-01-24 11:44:21.33	268.61	20.69	-41.3	-43.7	18.5	0.00e+00	0	37	0	478150656	54	4687
2026-01-24 11:44:22.32	268.86	20.70	-41.3	-43.7	18.6	0.00e+00	0	37	0	479199232	54	4655
2026-01-24 11:44:23.32	269.11	20.70	-41.2	-43.6	18.6	0.00e+00	0	37	0	481296384	54	4647
2026-01-24 11:44:24.31	269.37	20.71	-41.1	-43.5	18.8	0.00e+00	0	37	0	483393536	54	4551
2026-01-24 11:44:25.31	269.62	20.72	-41.2	-43.6	18.7	0.00e+00	0	37	0	485490688	54	4609
2026-01-24 11:44:26.30	269.88	20.72	-41.5	-43.9	18.3	0.00e+00	0	37	0	486539264	54	4812
2026-01-24 11:44:27.29	270.13	20.73	-41.8	-44.3	18.0	0.00e+00	0	37	0	488636416	54	4992
2026-01-24 11:44:28.29	270.39	20.73	-42.0	-44.6	17.8	0.00e+00	0	37	0	490733568	54	5173
2026-01-24 11:44:29.28	270.64	20.73	-42.1	-44.7	17.5	0.00e+00	0	37	0	492830720	54	5266
2026-01-24 11:44:30.28	270.90	20.74	-42.3	-44.9	17.4	0.00e+00	0	37	0	494927872	55	5098
2026-01-24 11:44:31.27	271.15	20.74	-42.1	-44.7	17.6	0.00e+00	0	37	0	495976448	55	4945
2026-01-24 11:44:32.26	271.41	20.74	-42.0	-44.6	17.7	0.00e+00	0	37	0	498073600	55	4878
2026-01-24 11:44:33.26	271.67	20.74	-42.1	-44.7	17.6	0.00e+00	0	37	0	500170752	55	4951
2026-01-24 11:44:34.25	271.92	20.74	-42.1	-44.7	17.6	0.00e+00	0	37	0	502267904	55	4965
2026-01-24 11:44:35.25	272.18	20.74	-42.2	-44.7	17.6	0.00e+00	0	37	0	503316480	55	4975
2026-01-24 11:44:36.24	272.43	20.74	-42.1	-44.6	17.7	0.00e+00	0	37	0	505413632	55	4903
2026-01-24 11:44:37.23	272.68	20.74	-42.1	-44.7	17.6	0.00e+00	0	37	0	507510784	55	4958
2026-01-24 11:44:38.23	272.94	20.74	-41.9	-44.4	17.9	0.00e+00	0	37	0	509607936	55	4800
2026-01-24 11:44:39.23	273.20	20.73	-42.0	-44.6	17.7	0.00e+00	0	37	0	511705088	55	4895
2026-01-24 11:44:40.22	273.45	20.73	-42.0	-44.7	17.6	0.00e+00	0	37	0	512753664	55	4940
2026-01-24 11:44:41.21	273.71	20.73	-42.0	-44.7	17.6	0.00e+00	0	37	0	514850816	55	4937
2026-01-24 11:44:42.21	273.96	20.72	-42.1	-44.7	17.6	0.00e+00	0	37	0	516947968	55	4978
2026-01-24 11:44:43.20	274.22	20.72	-42.1	-44.7	17.7	0.00e+00	0	37	0	519045120	55	4937
2026-01-24 11:44:44.20	274.47	20.71	-41.9	-44.5	17.8	0.00e+00	0	37	0	520093696	55	4831
2026-01-24 11:44:45.19	274.73	20.71	-41.9	-44.4	17.9	0.00e+00	0	37	0	522190848	55	4791
2026-01-24 11:44:46.19	274.98	20.70	-41.9	-44.4	17.9	0.00e+00	0	37	0	524288000	55	4766
2026-01-24 11:44:47.18	275.24	20.70	-42.0	-44.6	17.8	0.00e+00	0	37	0	526385152	55	4895
2026-01-24 11:44:48.18	275.49	20.69	-42.2	-44.8	17.5	0.00e+00	0	37	0	528482304	55	5038
2026-01-24 11:44:49.17	275.74	20.68	-42.5	-45.3	17.1	0.00e+00	0	37	0	529530880	55	5286
2026-01-24 11:44:50.17	276.00	20.67	-42.5	-45.3	17.1	0.00e+00	0	37	0	531628032	55	5284
2026-01-24 11:44:51.16	276.25	20.66	-42.7	-45.4	17.1	0.00e+00	0	37	0	533725184	56	5083
2026-01-24 11:44:52.16	276.51	20.65	-42.6	-45.3	17.2	0.00e+00	0	37	0	535822336	56	5017
2026-01-24 11:44:53.15	276.76	20.64	-42.5	-45.1	17.4	0.00e+00	0	37	0	536870912	56	4880
2026-01-24 11:44:54.15	277.02	20.63	-42.4	-45.0	17.5	0.00e+00	0	37	0	538968064	56	4850
2026-01-24 11:44:55.14	277.27	20.62	-42.5	-45.1	17.4	0.00e+00	0	37	0	541065216	56	4901
2026-01-24 11:44:56.13	277.52	20.61	-42.5	-45.2	17.3	0.00e+00	0	37	0	543162368	56	4952
2026-01-24 11:44:57.13	277.77	20.60	-42.5	-45.1	17.4	0.00e+00	0	37	0	545259520	56	4921
2026-01-24 11:44:58.12	278.03	20.58	-42.3	-45.0	17.5	0.00e+00	0	37	0	546308096	56	4815
2026-01-24 11:44:59.12	278.28	20.57	-42.2	-44.7	17.8	0.00e+00	0	37	0	548405248	56	4701
2026-01-24 11:45:00.11	278.53	20.56	-41.7	-44.2	18.1	0.00e+00	0	37	0	550502400	55	4664
2026-01-24 11:45:01.11	278.78	20.54	-41.5	-43.9	18.4	0.00e+00	0	38	0	552599552	55	4513
2026-01-24 11:45:02.10	279.03	20.53	-41.4	-43.7	18.5	0.00e+00	0	37	0	553648128	54	4696
2026-01-24 11:45:03.09	279.28	20.51	-41.5	-43.9	18.5	0.00e+00	0	37	0	555745280	54	4760
2026-01-24 11:45:04.09	279.54	20.49	-41.4	-43.8	18.5	0.00e+00	0	37	0	557842432	54	4756
2026-01-24 11:45:05.08	279.79	20.48	-41.5	-43.9	18.4	0.00e+00	0	37	0	559939584	54	4768
2026-01-24 11:45:06.08	280.04	20.46	-41.5	-43.9	18.4	0.00e+00	0	37	0	562036736	54	4801
2026-01-24 11:45:07.07	280.29	20.44	-41.6	-44.0	18.3	0.00e+00	0	37	0	563085312	54	4868
2026-01-24 11:45:08.07	280.54	20.42	-41.8	-44.2	18.1	0.00e+00	0	37	0	565182464	54	4981
2026-01-24 11:45:09.07	280.79	20.41	-42.0	-44.5	17.8	0.00e+00	0	37	0	567279616	54	5134
2026-01-24 11:45:10.06	281.04	20.39	-42.0	-44.6	17.7	0.00e+00	0	37	0	569376768	54	5180
2026-01-24 11:45:11.05	281.29	20.37	-42.0	-44.5	17.8	0.00e+00	0	37	0	571473920	54	5131
2026-01-24 11:45:12.05	281.54	20.35	-41.9	-44.5	17.8	0.00e+00	0	37	0	572522496	54	5105
2026-01-24 11:45:13.04	281.79	20.32	-41.9	-44.4	17.9	0.00e+00	0	37	0	574619648	54	5054
2026-01-24 11:45:14.04	282.04	20.30	-41.8	-44.2	18.0	0.00e+00	0	37	0	576716800	54	4983
2026-01-24 11:45:15.03	282.28	20.28	-41.8	-44.3	18.0	0.00e+00	0	37	0	578813952	54	5019
2026-01-24 11:45:16.03	282.53	20.26	-41.7	-44.2	18.1	0.00e+00	0	37	0	579862528	54	4947
2026-01-24 11:45:17.02	282.78	20.24	-41.7	-44.2	18.1	0.00e+00	0	37	0	581959680	54	4929
2026-01-24 11:45:18.02	283.02	20.21	-41.7	-44.2	18.1	0.00e+00	0	37	0	584056832	54	4950
2026-01-24 11:45:19.01	283.27	20.19	-41.8	-44.2	18.0	0.00e+00	0	37	0	586153984	54	4977
2026-01-24 11:45:20.01	283.52	20.16	-41.7	-44.1	18.1	0.00e+00	0	37	0	588251136	54	4923
2026-01-24 11:45:21.00	283.76	20.14	-41.8	-44.3	18.0	0.00e+00	0	38	0	589299712	54	5020
2026-01-24 11:45:22.00	284.01	20.11	-41.7	-44.1	18.1	0.00e+00	0	37	0	591396864	54	4919
2026-01-24 11:45:22.99	284.25	20.09	-41.6	-44.0	18.2	0.00e+00	0	37	0	593494016	54	4836
2026-01-24 11:45:23.99	284.50	20.06	-41.5	-43.9	18.3	0.00e+00	0	37	0	595591168	54	4794
2026-01-24 11:45:24.98	284.74	20.03	-41.4	-43.8	18.4	0.00e+00	0	37	0	596639744	54	4754
2026-01-24 11:45:25.98	284.99	20.01	-41.5	-43.9	18.4	0.00e+00	0	37	0	598736896	54	4796
2026-01-24 11:45:26.97	285.23	19.98	-41.5	-44.0	18.3	0.00e+00	0	37	0	600834048	54	4831
2026-01-24 11:45:27.97	285.47	19.95	-41.7	-44.2	18.1	0.00e+00	0	38	0	602931200	54	4948
2026-01-24 11:45:28.97	285.72	19.92	-41.9	-44.4	17.9	0.00e+00	0	37	0	605028352	54	5085
2026-01-24 11:45:29.96	285.96	19.89	-42.0	-44.5	17.8	0.00e+00	0	37	0	606076928	54	5135
2026-01-24 11:45:30.96	286.20	19.86	-41.9	-44.4	17.9	0.00e+00	0	37	0	608174080	54	5091
2026-01-24 11:45:31.96	286.44	19.83	-42.0	-44.5	17.8	0.00e+00	0	37	0	610271232	54	5145
2026-01-24 11:45:32.95	286.68	19.80	-42.0	-44.6	17.7	0.00e+00	0	37	0	612368384	54	5193
2026-01-24 11:45:33.94	286.92	19.77	-42.4	-45.1	17.2	0.00e+00	0	37	0	613416960	55	5196
2026-01-24 11:45:34.94	287.16	19.74	-42.6	-45.3	17.1	0.00e+00	0	37	0	615514112	55	5302
2026-01-24 11:45:35.93	287.40	19.71	-42.5	-45.3	17.0	0.00e+00	0	37	0	617611264	55	5292
2026-01-24 11:45:36.93	287.64	19.67	-42.6	-45.4	17.0	0.00e+00	0	37	0	619708416	55	5342
2026-01-24 11:45:37.92	287.87	19.64	-42.4	-45.1	17.2	0.00e+00	0	37	0	621805568	55	5208
2026-01-24 11:45:38.92	288.11	19.61	-42.2	-44.9	17.4	0.00e+00	0	37	0	622854144	55	5045
2026-01-24 11:45:39.91	288.35	19.57	-41.9	-44.4	17.9	0.00e+00	0	37	0	624951296	55	4801
2026-01-24 11:45:40.91	288.59	19.54	-41.5	-43.9	18.3	0.00e+00	0	37	0	627048448	55	4541
2026-01-24 11:45:41.90	288.82	19.50	-41.5	-43.9	18.4	0.00e+00	0	37	0	629145600	54	4773
2026-01-24 11:45:42.90	289.06	19.47	-41.4	-43.8	18.4	0.00e+00	0	37	0	630194176	54	4736
2026-01-24 11:45:43.89	289.29	19.43	-41.6	-44.0	18.3	0.00e+00	0	37	0	632291328	54	4843
2026-01-24 11:45:44.89	289.53	19.40	-41.7	-44.1	18.2	0.00e+00	0	37	0	634388480	54	4917
2026-01-24 11:45:45.88	289.76	19.36	-41.8	-44.3	18.0	0.00e+00	0	37	0	636485632	54	5027
2026-01-24 11:45:46.88	289.99	19.32	-41.4	-43.9	18.4	0.00e+00	0	37	0	638582784	54	4768
2026-01-24 11:45:47.87	290.22	19.29	-41.3	-43.7	18.6	0.00e+00	0	38	0	639631360	54	4664
2026-01-24 11:45:48.87	290.46	19.25	-41.3	-43.7	18.5	0.00e+00	0	37	0	641728512	54	4653
2026-01-24 11:45:49.86	290.69	19.21	-41.2	-43.6	18.6	0.00e+00	0	38	0	643825664	54	4621
2026-01-24 11:45:50.86	290.92	19.17	-41.3	-43.7	18.5	0.00e+00	0	37	0	645922816	54	4695
2026-01-24 11:45:51.85	291.15	19.13	-41.5	-43.9	18.4	0.00e+00	0	37	0	646971392	54	4766
2026-01-24 11:45:52.85	291.38	19.10	-41.5	-44.0	18.3	0.00e+00	0	37	0	649068544	54	4818
2026-01-24 11:45:53.84	291.61	19.06	-41.6	-44.1	18.2	0.00e+00	0	37	0	651165696	54	4883
2026-01-24 11:45:54.84	291.84	19.02	-41.7	-44.1	18.2	0.00e+00	0	37	0	653262848	54	4913
2026-01-24 11:45:55.83	292.06	18.98	-41.5	-43.9	18.3	0.00e+00	0	37	0	655360000	54	4812
2026-01-24 11:45:56.83	292.29	18.93	-41.4	-43.8	18.5	0.00e+00	0	37	0	656408576	54	4717
2026-01-24 11:45:57.82	292.52	18.89	-41.2	-43.5	18.7	0.00e+00	0	37	0	658505728	54	4582
2026-01-24 11:45:58.82	292.75	18.85	-41.0	-43.3	18.9	0.00e+00	0	37	0	660602880	53	4730
2026-01-24 11:45:59.81	292.97	18.81	-40.9	-43.2	19.0	0.00e+00	0	37	0	662700032	53	4683
2026-01-24 11:46:00.81	293.20	18.77	-41.0	-43.3	18.9	0.00e+00	0	37	0	663748608	53	4746
2026-01-24 11:46:01.81	293.42	18.73	-41.0	-43.3	18.8	0.00e+00	0	37	0	665845760	53	4752
2026-01-24 11:46:02.80	293.64	18.68	-41.2	-43.5	18.7	0.00e+00	0	37	0	667942912	53	4845
2026-01-24 11:46:03.79	293.87	18.64	-41.2	-43.5	18.7	0.00e+00	0	37	0	670040064	53	4865
2026-01-24 11:46:04.79	294.09	18.60	-41.4	-43.9	18.4	0.00e+00	0	37	0	672137216	53	5052
2026-01-24 11:46:05.79	294.31	18.55	-41.3	-43.7	18.6	0.00e+00	0	37	0	673185792	53	4927
2026-01-24 11:46:06.78	294.53	18.51	-41.2	-43.6	18.6	0.00e+00	0	37	0	675282944	53	4902
2026-01-24 11:46:07.77	294.75	18.46	-41.4	-43.7	18.5	0.00e+00	0	37	0	677380096	53	4980
2026-01-24 11:46:08.77	294.97	18.42	-41.4	-43.8	18.3	0.00e+00	0	37	0	679477248	53	5026
2026-01-24 11:46:09.76	295.19	18.37	-41.5	-43.9	18.2	0.00e+00	0	37	0	681574400	53	5092
2026-01-24 11:46:10.76	295.41	18.33	-41.7	-44.2	18.1	0.00e+00	0	37	0	682622976	54	4928
2026-01-24 11:46:11.75	295.63	18.28	-42.1	-44.7	17.6	0.00e+00	0	37	0	684720128	54	5226
2026-01-24 11:46:12.75	295.85	18.24	-42.0	-44.6	17.6	0.00e+00	0	38	0	686817280	54	5199
2026-01-24 11:46:13.74	296.06	18.19	-42.1	-44.8	17.5	0.00e+00	0	37	0	688914432	54	5291
2026-01-24 11:46:14.73	296.28	18.14	-41.9	-44.5	17.8	0.00e+00	0	37	0	689963008	54	5123
2026-01-24 11:46:15.73	296.49	18.10	-41.7	-44.2	18.0	0.00e+00	0	37	0	692060160	54	4974
2026-01-24 11:46:16.72	296.71	18.05	-41.6	-44.0	18.2	0.00e+00	0	37	0	694157312	54	4868
2026-01-24 11:46:17.72	296.92	18.00	-41.6	-44.1	18.1	0.00e+00	0	37	0	696254464	54	4926
2026-01-24 11:46:18.71	297.14	17.95	-41.5	-44.0	18.2	0.00e+00	0	37	0	698351616	54	4849
2026-01-24 11:46:19.71	297.35	17.91	-41.6	-44.1	18.1	0.00e+00	0	37	0	699400192	54	4887
2026-01-24 11:46:20.70	297.56	17.86	-41.6	-44.1	18.1	0.00e+00	0	37	0	701497344	54	4888
2026-01-24 11:46:21.70	297.77	17.81	-41.6	-44.1	18.1	0.00e+00	0	37	0	703594496	54	4899
2026-01-24 11:46:22.69	297.98	17.76	-41.9	-44.5	17.8	0.00e+00	0	37	0	705691648	54	5118
2026-01-24 11:46:23.69	298.19	17.71	-42.0	-44.6	17.7	0.00e+00	0	37	0	706740224	54	5172
2026-01-24 11:46:24.68	298.40	17.66	-42.3	-45.0	17.2	0.00e+00	0	37	0	708837376	55	5130
2026-01-24 11:46:25.68	298.61	17.61	-42.4	-45.1	17.2	0.00e+00	0	37	0	710934528	55	5196
2026-01-24 11:46:26.67	298.82	17.56	-42.6	-45.4	16.9	0.00e+00	0	37	0	713031680	55	5348
2026-01-24 11:46:27.67	299.03	17.51	-42.3	-45.0	17.2	0.00e+00	0	37	0	715128832	55	5146
2026-01-24 11:46:28.67	299.23	17.46	-42.4	-45.0	17.2	0.00e+00	0	37	0	716177408	55	5146
2026-01-24 11:46:29.66	299.44	17.41	-42.2	-44.8	17.4	0.00e+00	0	37	0	718274560	55	5012
2026-01-24 11:46:30.65	299.64	17.36	-42.2	-44.8	17.5	0.00e+00	0	37	0	720371712	55	4984
2026-01-24 11:46:31.65	299.85	17.31	-42.4	-45.0	17.2	0.00e+00	0	38	0	722468864	55	5139
2026-01-24 11:46:32.64	300.05	17.25	-42.4	-45.0	17.2	0.00e+00	0	37	0	723517440	55	5152
2026-01-24 11:46:33.64	300.26	17.20	-42.4	-45.0	17.2	0.00e+00	0	37	0	725614592	55	5158
2026-01-24 11:46:34.63	300.46	17.15	-42.3	-44.9	17.3	0.00e+00	0	37	0	727711744	55	5086
2026-01-24 11:46:35.63	300.66	17.10	-42.1	-44.7	17.5	0.00e+00	0	37	0	729808896	55	4937
2026-01-24 11:46:36.62	300.86	17.05	-42.0	-44.6	17.7	0.00e+00	0	37	0	731906048	55	4874
2026-01-24 11:46:37.62	301.06	16.99	-41.8	-44.3	17.9	0.00e+00	0	38	0	732954624	55	4744
2026-01-24 11:46:38.61	301.26	16.94	-41.7	-44.2	18.0	0.00e+00	0	37	0	735051776	55	4673
2026-01-24 11:46:39.60	301.46	16.89	-41.8	-44.3	17.9	0.00e+00	0	37	0	737148928	55	4750
2026-01-24 11:46:40.60	301.66	16.83	-42.0	-44.5	17.7	0.00e+00	0	37	0	739246080	55	4845
2026-01-24 11:46:41.59	301.86	16.78	-42.1	-44.7	17.5	0.00e+00	0	37	0	740294656	55	4976
2026-01-24 11:46:42.59	302.05	16.73	-42.5	-45.3	17.0	0.00e+00	0	37	0	742391808	55	5285
2026-01-24 11:46:43.58	302.25	16.67	-42.9	-45.7	16.8	0.00e+00	0	37	0	744488960	56	5241
2026-01-24 11:46:44.58	302.45	16.62	-43.0	-45.9	16.6	0.00e+00	0	37	0	746586112	56	5343
2026-01-24 11:46:45.57	302.64	16.56	-43.2	-46.1	16.3	0.00e+00	0	37	0	748683264	57	5195
2026-01-24 11:46:46.57	302.84	16.51	-43.4	-46.3	16.1	0.00e+00	0	38	0	749731840	57	5335
2026-01-24 11:46:47.56	303.03	16.45	-43.6	-46.6	15.8	0.00e+00	0	37	0	751828992	57	5505
2026-01-24 11:46:48.56	303.22	16.40	-43.4	-46.5	16.0	0.00e+00	0	38	0	753926144	58	5101
2026-01-24 11:46:49.55	303.41	16.34	-43.3	-46.3	16.2	0.00e+00	0	37	0	756023296	58	4992
2026-01-24 11:46:50.55	303.61	16.29	-43.1	-46.1	16.4	0.00e+00	0	37	0	757071872	58	4878
2026-01-24 11:46:51.54	303.80	16.23	-43.0	-45.9	16.5	0.00e+00	0	37	0	759169024	58	4811
2026-01-24 11:46:52.54	303.99	16.18	-42.9	-45.7	16.7	0.00e+00	0	37	0	761266176	57	4959
2026-01-24 11:46:53.53	304.18	16.12	-42.6	-45.4	17.0	0.00e+00	0	37	0	763363328	57	4760
2026-01-24 11:46:54.53	304.37	16.07	-42.5	-45.3	17.2	0.00e+00	0	37	0	765460480	56	5010
2026-01-24 11:46:55.52	304.55	16.01	-42.3	-44.9	17.4	0.00e+00	0	37	0	766509056	56	4801
2026-01-24 11:46:56.52	304.74	15.95	-42.2	-44.8	17.6	0.00e+00	0	37	0	768606208	56	4736
2026-01-24 11:46:57.51	304.93	15.90	-42.0	-44.5	17.8	0.00e+00	0	37	0	770703360	56	4588
2026-01-24 11:46:58.51	305.11	15.84	-41.8	-44.4	17.8	0.00e+00	0	37	0	772800512	55	4769
2026-01-24 11:46:59.50	305.30	15.78	-42.1	-44.7	17.5	0.00e+00	0	37	0	773849088	55	4952
2026-01-24 11:47:00.48	305.48	15.73	-42.3	-45.0	17.2	0.00e+00	0	37	0	775946240	55	5150
2026-01-24 11:47:01.47	305.66	15.67	-42.6	-45.4	16.8	0.00e+00	0	37	0	778043392	55	5358
2026-01-24 11:47:02.47	305.85	15.61	-43.3	-46.3	16.1	0.00e+00	0	37	0	780140544	57	5325
2026-01-24 11:47:03.46	306.03	15.56	-43.6	-46.7	15.7	0.00e+00	0	38	0	782237696	57	5549
2026-01-24 11:47:04.46	306.21	15.50	-43.6	-46.7	15.8	0.00e+00	0	37	0	783286272	57	5554
2026-01-24 11:47:05.45	306.39	15.44	-43.4	-46.5	15.9	0.00e+00	0	38	0	785383424	57	5429
2026-01-24 11:47:06.45	306.57	15.38	-43.3	-46.3	16.1	0.00e+00	0	37	0	787480576	57	5318
2026-01-24 11:47:07.44	306.75	15.33	-43.2	-46.2	16.2	0.00e+00	0	37	0	789577728	57	5230
2026-01-24 11:47:08.44	306.93	15.27	-42.8	-45.6	16.8	0.00e+00	0	37	0	790626304	57	4901
2026-01-24 11:47:09.43	307.11	15.21	-42.7	-45.5	16.9	0.00e+00	0	37	0	792723456	57	4854
2026-01-24 11:47:10.43	307.29	15.15	-42.7	-45.5	16.9	0.00e+00	0	37	0	794820608	57	4824
2026-01-24 11:47:11.42	307.46	15.09	-42.8	-45.6	16.8	0.00e+00	0	37	0	796917760	57	4901
2026-01-24 11:47:12.42	307.64	15.04	-42.8	-45.6	16.8	0.00e+00	0	37	0	799014912	57	4913
2026-01-24 11:47:13.41	307.82	14.98	-42.7	-45.5	16.8	0.00e+00	0	37	0	800063488	57	4853
2026-01-24 11:47:14.41	307.99	14.92	-42.6	-45.3	17.0	0.00e+00	0	37	0	802160640	57	4755
2026-01-24 11:47:15.40	308.17	14.86	-42.6	-45.3	17.1	0.00e+00	0	37	0	804257792	56	4997
2026-01-24 11:47:16.40	308.34	14.80	-42.2	-44.8	17.6	0.00e+00	0	37	0	806354944	56	4724
2026-01-24 11:47:17.39	308.51	14.74	-42.2	-44.8	17.5	0.00e+00	0	37	0	807403520	56	4720
2026-01-24 11:47:18.38	308.69	14.68	-42.2	-44.9	17.5	0.00e+00	0	37	0	809500672	56	4765
2026-01-24 11:47:19.38	308.86	14.62	-42.4	-45.1	17.3	0.00e+00	0	37	0	811597824	56	4872
2026-01-24 11:47:20.37	309.03	14.57	-42.4	-45.1	17.2	0.00e+00	0	37	0	813694976	56	4911
2026-01-24 11:47:21.37	309.20	14.51	-42.5	-45.3	17.1	0.00e+00	0	37	0	815792128	56	5009
2026-01-24 11:47:22.36	309.37	14.45	-42.6	-45.4	16.9	0.00e+00	0	37	0	816840704	56	5077
2026-01-24 11:47:23.36	309.54	14.39	-42.6	-45.4	17.0	0.00e+00	0	37	0	818937856	56	5060
2026-01-24 11:47:24.35	309.71	14.33	-42.9	-45.9	16.5	0.00e+00	0	37	0	821035008	56	5352
2026-01-24 11:47:25.35	309.87	14.27	-42.8	-45.7	16.7	0.00e+00	0	37	0	823132160	56	5239
2026-01-24 11:47:26.34	310.04	14.21	-42.6	-45.4	16.9	0.00e+00	0	37	0	824180736	56	5082
2026-01-24 11:47:27.33	310.21	14.15	-42.5	-45.3	17.0	0.00e+00	0	37	0	826277888	56	5033
2026-01-24 11:47:28.33	310.37	14.09	-42.4	-45.1	17.2	0.00e+00	0	37	0	828375040	56	4905
2026-01-24 11:47:29.33	310.54	14.03	-42.2	-44.9	17.4	0.00e+00	0	37	0	830472192	56	4801
2026-01-24 11:47:30.32	310.70	13.97	-42.3	-45.0	17.3	0.00e+00	0	38	0	832569344	56	4850
2026-01-24 11:47:31.32	310.87	13.91	-42.2	-44.9	17.4	0.00e+00	0	37	0	833617920	56	4796
2026-01-24 11:47:32.31	311.03	13.85	-42.4	-45.2	17.2	0.00e+00	0	37	0	835715072	56	4934
2026-01-24 11:47:33.31	311.19	13.79	-42.4	-45.2	17.2	0.00e+00	0	38	0	837812224	56	4939
2026-01-24 11:47:34.30	311.35	13.73	-42.3	-45.1	17.2	0.00e+00	0	38	0	839909376	56	4878
2026-01-24 11:47:35.30	311.52	13.67	-42.4	-45.2	17.1	0.00e+00	0	37	0	840957952	56	4951
2026-01-24 11:47:36.29	311.68	13.61	-42.4	-45.1	17.2	0.00e+00	0	37	0	843055104	56	4920
2026-01-24 11:47:37.29	311.84	13.55	-42.4	-45.2	17.1	0.00e+00	0	37	0	845152256	56	4957
2026-01-24 11:47:38.28	312.00	13.49	-42.3	-45.1	17.2	0.00e+00	0	37	0	847249408	56	4872
2026-01-24 11:47:39.28	312.16	13.43	-42.4	-45.2	17.1	0.00e+00	0	37	0	849346560	56	4943
2026-01-24 11:47:40.28	312.31	13.37	-42.4	-45.2	17.1	0.00e+00	0	37	0	850395136	56	4952
2026-01-24 11:47:41.27	312.47	13.31	-42.6	-45.4	16.9	0.00e+00	0	37	0	852492288	56	5093
2026-01-24 11:47:42.27	312.63	13.24	-42.7	-45.5	16.8	0.00e+00	0	37	0	854589440	56	5129
2026-01-24 11:47:43.26	312.78	13.18	-42.5	-45.3	17.0	0.00e+00	0	38	0	856686592	56	4992
2026-01-24 11:47:44.26	312.94	13.12	-42.5	-45.3	17.0	0.00e+00	0	37	0	857735168	56	5015
2026-01-24 11:47:45.25	313.10	13.06	-42.3	-45.0	17.3	0.00e+00	0	37	0	859832320	56	4837
2026-01-24 11:47:46.25	313.25	13.00	-42.0	-44.7	17.6	0.00e+00	0	38	0	861929472	56	4659
2026-01-24 11:47:47.25	313.41	12.94	-41.7	-44.3	17.8	0.00e+00	0	37	0	864026624	55	4735
2026-01-24 11:47:48.24	313.56	12.88	-41.5	-44.1	18.0	0.00e+00	0	37	0	866123776	55	4630
2026-01-24 11:47:49.23	313.71	12.82	-41.7	-44.3	17.8	0.00e+00	0	37	0	867172352	54	5005
2026-01-24 11:47:50.23	313.86	12.76	-41.7	-44.3	17.7	0.00e+00	0	37	0	869269504	54	5041
2026-01-24 11:47:51.23	314.01	12.70	-41.3	-43.8	18.3	0.00e+00	0	37	0	871366656	54	4717
2026-01-24 11:47:52.22	314.16	12.64	-41.5	-44.1	17.9	0.00e+00	0	38	0	873463808	54	4913
2026-01-24 11:47:53.22	314.31	12.58	-41.5	-44.2	17.9	0.00e+00	0	37	0	874512384	54	4927
2026-01-24 11:47:54.21	314.46	12.52	-41.7	-44.3	17.7	0.00e+00	0	37	0	876609536	54	5026
2026-01-24 11:47:55.20	314.61	12.45	-42.0	-44.7	17.4	0.00e+00	0	37	0	878706688	54	5252
2026-01-24 11:47:56.20	314.76	12.39	-42.2	-45.0	17.1	0.00e+00	0	37	0	880803840	55	5116
2026-01-24 11:47:57.20	314.91	12.33	-42.2	-45.0	17.1	0.00e+00	0	37	0	882900992	55	5124
2026-01-24 11:47:58.19	315.06	12.27	-42.4	-45.2	16.9	0.00e+00	0	37	0	883949568	55	5261
2026-01-24 11:47:59.18	315.20	12.21	-42.2	-45.0	17.1	0.00e+00	0	37	0	886046720	55	5125
2026-01-24 11:48:00.18	315.35	12.15	-42.0	-44.8	17.3	0.00e+00	0	37	0	888143872	55	5001
2026-01-24 11:48:01.17	315.49	12.09	-41.8	-44.6	17.5	0.00e+00	0	37	0	890241024	55	4879
2026-01-24 11:48:02.17	315.64	12.03	-41.6	-44.3	17.8	0.00e+00	0	37	0	891289600	55	4720
2026-01-24 11:48:03.16	315.78	11.97	-41.5	-44.1	17.8	0.00e+00	0	37	0	893386752	55	4651
2026-01-24 11:48:04.16	315.93	11.90	-41.5	-44.2	17.8	0.00e+00	0	37	0	895483904	54	4939
2026-01-24 11:48:05.15	316.07	11.84	-41.6	-44.2	17.8	0.00e+00	0	38	0	897581056	54	4977
2026-01-24 11:48:06.15	316.21	11.78	-41.7	-44.4	17.6	0.00e+00	0	38	0	899678208	54	5056
2026-01-24 11:48:07.14	316.35	11.72	-41.8	-44.5	17.5	0.00e+00	0	37	0	900726784	54	5126
2026-01-24 11:48:08.14	316.50	11.66	-41.8	-44.5	17.5	0.00e+00	0	37	0	902823936	54	5146
2026-01-24 11:48:09.13	316.64	11.60	-41.9	-44.7	17.4	0.00e+00	0	37	0	904921088	54	5240
2026-01-24 11:48:10.13	316.78	11.54	-42.1	-44.9	17.1	0.00e+00	0	38	0	907018240	54	5366
2026-01-24 11:48:11.12	316.91	11.48	-41.9	-44.6	17.3	0.00e+00	0	38	0	908066816	54	5217
2026-01-24 11:48:12.12	317.05	11.42	-42.0	-44.7	17.3	0.00e+00	0	38	0	910163968	54	5223
2026-01-24 11:48:13.11	317.19	11.36	-42.0	-44.6	17.4	0.00e+00	0	37	0	912261120	54	5217
2026-01-24 11:48:14.11	317.33	11.29	-42.0	-44.7	17.3	0.00e+00	0	38	0	914358272	54	5235
2026-01-24 11:48:15.10	317.47	11.23	-41.9	-44.6	17.4	0.00e+00	0	37	0	916455424	54	5190
2026-01-24 11:48:16.09	317.60	11.17	-42.0	-44.7	17.3	0.00e+00	0	38	0	917504000	54	5232
2026-01-24 11:48:17.09	317.74	11.11	-42.1	-44.8	17.1	0.00e+00	0	37	0	919601152	55	5034
2026-01-24 11:48:18.08	317.88	11.05	-42.3	-45.1	16.9	0.00e+00	0	37	0	921698304	55	5178
2026-01-24 11:48:19.08	318.01	10.99	-42.4	-45.3	16.7	0.00e+00	0	38	0	923795456	55	5302
2026-01-24 11:48:20.07	318.15	10.93	-42.6	-45.6	16.5	0.00e+00	0	37	0	924844032	55	5483
2026-01-24 11:48:21.07	318.28	10.87	-43.0	-46.1	16.1	0.00e+00	0	38	0	926941184	56	5486
2026-01-24 11:48:22.06	318.41	10.81	-43.1	-46.3	15.9	0.00e+00	0	37	0	929038336	56	5640
2026-01-24 11:48:23.04	318.54	10.75	-43.2	-46.4	15.8	0.00e+00	0	37	0	931135488	57	5385
2026-01-24 11:48:24.03	318.68	10.69	-42.9	-46.1	16.1	0.00e+00	0	37	0	933232640	57	5184
2026-01-24 11:48:25.03	318.81	10.62	-42.9	-46.1	16.1	0.00e+00	0	37	0	934281216	57	5168
2026-01-24 11:48:26.02	318.94	10.56	-43.0	-46.2	16.0	0.00e+00	0	38	0	936378368	57	5232
2026-01-24 11:48:27.02	319.07	10.50	-42.7	-45.9	16.3	0.00e+00	0	38	0	938475520	57	5050
2026-01-24 11:48:28.01	319.20	10.44	-42.6	-45.6	16.5	0.00e+00	0	37	0	940572672	57	4924
2026-01-24 11:48:29.01	319.33	10.38	-42.5	-45.6	16.6	0.00e+00	0	38	0	941621248	56	5196
2026-01-24 11:48:30.00	319.46	10.32	-42.5	-45.6	16.6	0.00e+00	0	37	0	943718400	56	5181
2026-01-24 11:48:31.00	319.59	10.26	-42.6	-45.7	16.5	0.00e+00	0	37	0	945815552	56	5247
2026-01-24 11:48:31.99	319.72	10.20	-42.6	-45.8	16.4	0.00e+00	0	37	0	947912704	56	5302
2026-01-24 11:48:32.98	319.84	10.14	-42.5	-45.6	16.5	0.00e+00	0	38	0	950009856	56	5179
2026-01-24 11:48:33.98	319.97	10.08	-42.6	-45.7	16.4	0.00e+00	0	37	0	951058432	56	5270
2026-01-24 11:48:34.97	320.10	10.02	-42.5	-45.6	16.5	0.00e+00	0	38	0	953155584	56	5176
2026-01-24 11:48:35.97	320.23	9.96	-42.5	-45.5	16.6	0.00e+00	0	38	0	955252736	56	5153
2026-01-24 11:48:36.96	320.35	9.90	-42.6	-45.6	16.5	0.00e+00	0	37	0	957349888	56	5191
2026-01-24 11:48:37.96	320.48	9.84	-42.6	-45.7	16.4	0.00e+00	0	37	0	958398464	56	5228
2026-01-24 11:48:38.95	320.60	9.77	-42.6	-45.6	16.5	0.00e+00	0	38	0	960495616	56	5199
2026-01-24 11:48:39.94	320.72	9.71	-42.5	-45.5	16.6	0.00e+00	0	37	0	962592768	56	5142
2026-01-24 11:48:40.94	320.85	9.65	-42.4	-45.3	16.8	0.00e+00	0	37	0	964689920	56	5031
2026-01-24 11:48:41.93	320.97	9.59	-42.4	-45.4	16.7	0.00e+00	0	37	0	966787072	56	5056
2026-01-24 11:48:42.93	321.10	9.53	-42.4	-45.3	16.8	0.00e+00	0	37	0	967835648	56	5018
2026-01-24 11:48:43.92	321.22	9.47	-42.5	-45.5	16.6	0.00e+00	0	37	0	969932800	56	5133
2026-01-24 11:48:44.91	321.34	9.41	-42.6	-45.6	16.5	0.00e+00	0	37	0	972029952	56	5176
2026-01-24 11:48:45.91	321.46	9.35	-42.8	-45.8	16.3	0.00e+00	0	37	0	974127104	56	5324
2026-01-24 11:48:46.90	321.58	9.29	-42.8	-45.9	16.2	0.00e+00	0	38	0	976224256	56	5361
2026-01-24 11:48:47.90	321.70	9.23	-42.9	-45.9	16.2	0.00e+00	0	38	0	977272832	56	5390
2026-01-24 11:48:48.90	321.82	9.17	-42.9	-45.9	16.2	0.00e+00	0	37	0	979369984	56	5379
2026-01-24 11:48:49.89	321.94	9.11	-42.8	-45.9	16.2	0.00e+00	0	37	0	981467136	56	5357
2026-01-24 11:48:50.88	322.06	9.05	-42.6	-45.7	16.4	0.00e+00	0	37	0	983564288	56	5254
2026-01-24 11:48:51.88	322.18	8.99	-47.6	-59.8	4.4	0.00e+00	0	37	0	984612864	65	15873
2026-01-24 11:48:52.87	322.30	8.93	-47.6	-63.5	3.8	1.49e+00	0	37	104	984612864	66	22812
2026-01-24 11:48:53.86	322.41	8.87	-47.4	-63.6	3.8	1.49e+00	0	38	104	984612864	66	23208
2026-01-24 11:48:54.86	322.53	8.81	-48.2	-63.7	3.8	1.49e+00	0	38	104	984612864	67	22231
2026-01-24 11:48:55.85	322.65	8.75	-48.5	-63.8	3.8	1.49e+00	0	38	104	984612864	67	22469
2026-01-24 11:48:56.84	322.76	8.69	-48.2	-63.9	3.8	1.49e+00	0	37	104	984612864	67	22547
2026-01-24 11:48:57.84	322.88	8.63	-48.8	-64.1	3.8	1.49e+00	0	37	104	984612864	68	21847
2026-01-24 11:48:58.83	322.99	8.57	-48.8	-64.2	3.8	1.49e+00	0	38	104	984612864	68	22018
2026-01-24 11:48:59.82	323.11	8.51	-48.6	-64.2	3.8	1.49e+00	0	37	104	984612864	68	22039
2026-01-24 11:49:00.81	323.22	8.45	-48.8	-64.2	3.8	1.49e+00	0	37	104	984612864	68	22103
2026-01-24 11:49:01.80	323.33	8.40	-48.9	-64.2	3.8	1.49e+00	0	38	104	984612864	68	22094
2026-01-24 11:49:02.80	323.45	8.34	-48.9	-64.2	3.8	1.49e+00	0	38	104	984612864	68	22063
2026-01-24 11:49:03.79	323.56	8.28	-48.9	-64.2	3.8	1.49e+00	0	37	104	984612864	68	22102
2026-01-24 11:49:04.78	323.67	8.22	-48.6	-64.1	3.8	1.49e+00	0	38	104	984612864	68	21854
2026-01-24 11:49:05.78	323.79	8.16	-49.0	-64.2	3.8	1.49e+00	0	37	104	984612864	68	22170
2026-01-24 11:49:06.77	323.90	8.10	-49.1	-64.2	3.8	1.49e+00	0	38	104	984612864	68	22198
2026-01-24 11:49:07.76	324.01	8.04	-49.0	-64.2	3.8	1.49e+00	0	37	104	984612864	68	22229
2026-01-24 11:49:08.76	324.12	7.98	-49.1	-64.2	3.8	1.49e+00	0	38	104	984612864	68	22088
2026-01-24 11:49:09.75	324.23	7.92	-49.0	-64.2	3.8	1.49e+00	0	38	104	984612864	68	22152
2026-01-24 11:49:10.74	324.34	7.86	-48.9	-64.2	3.8	1.49e+00	0	38	104	984612864	68	22130
2026-01-24 11:49:11.74	324.45	7.80	-48.7	-64.1	3.8	1.49e+00	0	37	104	984612864	68	21936
2026-01-24 11:49:12.73	324.56	7.74	-48.7	-64.1	3.8	1.49e+00	0	38	104	984612864	68	21973
2026-01-24 11:49:13.72	324.66	7.68	-48.7	-64.1	3.8	1.49e+00	0	37	104	984612864	68	21912
2026-01-24 11:49:14.71	324.77	7.63	-48.7	-64.1	3.8	1.49e+00	0	38	104	984612864	68	21905
2026-01-24 11:49:15.71	324.88	7.57	-48.7	-64.1	3.8	1.49e+00	0	37	104	984612864	68	21904
2026-01-24 11:49:16.70	324.99	7.51	-48.7	-64.1	3.8	1.49e+00	0	38	104	984612864	68	21808
2026-01-24 11:49:17.69	325.09	7.45	-48.7	-64.1	3.8	1.49e+00	0	37	104	984612864	68	21905
2026-01-24 11:49:18.69	325.20	7.39	-48.7	-64.1	3.8	1.49e+00	0	37	104	984612864	68	21851
2026-01-24 11:49:19.68	325.31	7.33	-48.7	-64.1	3.8	1.49e+00	0	38	104	984612864	68	21867
2026-01-24 11:49:20.67	325.41	7.27	-48.7	-64.1	3.8	1.49e+00	0	38	104	984612864	68	21920
2026-01-24 11:49:21.67	325.52	7.22	-48.7	-64.1	3.8	1.49e+00	0	38	104	984612864	68	21883
2026-01-24 11:49:22.66	325.62	7.16	-48.7	-64.1	3.8	1.49e+00	0	37	104	984612864	68	21892
2026-01-24 11:49:23.65	325.73	7.10	-48.7	-64.1	3.8	1.49e+00	0	38	104	984612864	68	21841
2026-01-24 11:49:24.64	325.83	7.04	-48.7	-64.1	3.8	1.49e+00	0	38	104	984612864	68	21912
2026-01-24 11:49:25.64	325.93	6.98	-48.7	-64.1	3.8	1.49e+00	0	38	104	984612864	68	21804
2026-01-24 11:49:26.63	326.04	6.92	-48.7	-64.1	3.8	1.49e+00	0	37	104	984612864	68	21949
2026-01-24 11:49:27.63	326.14	6.87	-48.7	-64.1	3.8	1.49e+00	0	38	104	984612864	68	21901
2026-01-24 11:49:28.62	326.24	6.81	-48.7	-64.1	3.8	1.49e+00	0	37	104	984612864	68	21764
2026-01-24 11:49:29.61	326.35	6.75	-48.7	-64.1	3.8	1.49e+00	0	38	104	984612864	68	21845
2026-01-24 11:49:30.60	326.45	6.69	-48.7	-64.1	3.8	1.49e+00	0	37	104	984612864	68	21843
2026-01-24 11:49:31.60	326.55	6.63	-48.7	-64.1	3.8	1.49e+00	0	38	104	984612864	68	21805
2026-01-24 11:49:32.59	326.65	6.58	-48.7	-64.1	3.8	1.49e+00	0	38	104	984612864	68	21890
2026-01-24 11:49:33.58	326.75	6.52	-48.7	-64.1	3.8	1.49e+00	0	38	104	984612864	68	21857
2026-01-24 11:49:34.58	326.85	6.46	-48.7	-64.1	3.8	1.49e+00	0	38	104	984612864	68	21829
2026-01-24 11:49:35.57	326.95	6.40	-48.7	-64.1	3.8	1.49e+00	0	37	104	984612864	68	21902
2026-01-24 11:49:36.56	327.05	6.35	-48.7	-64.1	3.8	1.49e+00	0	38	104	984612864	68	21812
2026-01-24 11:49:37.55	327.15	6.29	-48.7	-64.1	3.8	1.49e+00	0	38	104	984612864	68	21807
2026-01-24 11:49:38.55	327.25	6.23	-48.7	-64.1	3.8	1.49e+00	0	37	104	984612864	68	21796
2026-01-24 11:49:39.54	327.34	6.17	-48.7	-64.1	3.8	1.49e+00	0	37	104	984612864	68	21809
2026-01-24 11:49:40.53	327.44	6.12	-48.7	-64.1	3.8	1.49e+00	0	38	104	984612864	68	21793
2026-01-24 11:49:41.53	327.54	6.06	-48.7	-64.1	3.8	1.49e+00	0	38	104	984612864	68	21781
2026-01-24 11:49:42.52	327.64	6.00	-48.7	-64.1	3.8	1.49e+00	0	37	104	984612864	68	21805
2026-01-24 11:49:43.51	327.73	5.94	-48.7	-64.1	3.8	1.49e+00	0	38	104	984612864	68	21805
2026-01-24 11:49:44.51	327.83	5.89	-48.7	-64.1	3.8	1.49e+00	0	38	104	984612864	68	21759
2026-01-24 11:49:45.50	327.93	5.83	-48.7	-64.1	3.8	1.49e+00	0	38	104	984612864	68	21872
2026-01-24 11:49:46.49	328.02	5.77	-48.7	-64.1	3.8	1.49e+00	0	38	104	984612864	68	21778
2026-01-24 11:49:47.49	328.12	5.72	-48.7	-64.1	3.8	1.49e+00	0	37	104	984612864	68	21904
2026-01-24 11:49:48.48	328.21	5.66	-48.7	-64.1	3.8	1.49e+00	0	38	104	984612864	68	21773
2026-01-24 11:49:49.47	328.31	5.60	-48.7	-64.1	3.8	1.49e+00	0	38	104	984612864	68	21845
2026-01-24 11:49:50.46	328.40	5.55	-48.7	-64.1	3.8	1.49e+00	0	38	104	984612864	68	21776
2026-01-24 11:49:51.46	328.50	5.49	-48.7	-64.0	3.8	1.49e+00	0	38	104	984612864	68	21747
2026-01-24 11:49:52.45	328.59	5.43	-48.7	-64.1	3.8	1.49e+00	0	37	104	984612864	68	21799
2026-01-24 11:49:53.44	328.68	5.38	-48.7	-64.1	3.8	1.49e+00	0	38	104	984612864	68	21829
2026-01-24 11:49:54.44	328.78	5.32	-48.7	-64.1	3.8	1.49e+00	0	38	104	984612864	68	21837
2026-01-24 11:49:55.43	328.87	5.26	-48.7	-64.1	3.8	1.49e+00	0	38	104	984612864	68	21757
2026-01-24 11:49:56.42	328.96	5.21	-48.7	-64.1	3.8	1.49e+00	0	38	104	984612864	68	21778
2026-01-24 11:49:57.41	329.05	5.15	-48.7	-64.0	3.8	1.49e+00	0	38	104	984612864	68	21700
2026-01-24 11:49:58.41	329.14	5.09	-48.7	-64.1	3.8	1.49e+00	0	38	104	984612864	68	21808
2026-01-24 11:49:59.40	329.23	5.04	-48.7	-64.1	3.8	1.49e+00	0	37	104	984612864	68	21773
2026-01-24 11:50:00.39	329.32	4.98	-48.7	-64.0	3.8	1.49e+00	0	38	104	984612864	68	21709

#Closed at: 2026-01-24 11:50:01
#Recorded file [984 MB]: D:/Data/31040_260124_143914.dat