passes_logs/2026/01/24/T1/T1__20260124_141804_FENGYUN_3E_rec.log

#Pass ID: 20260124_141804_FENGYUN 3E
#Satellite: FENGYUN 3E
#Configuration: FENGYUN 3E
#almurnet v.1.7.20251203
#Start time: 2026-01-24 14:18:06

#Version: 2.0.20230620
#Station: T1
#Location: 37.570604 lon 55.790049 lat
#TLE: 1 49008U 21062A   26024.23699167 -.00000179  00000+0 -63840-4 0  9992
#TLE: 2 49008  98.7493  29.2570 0002404 119.1229 241.0188 14.19886095236155

#Time	Az	El	Level	Level2	SNR	BER	BlckErr	Temp	State	Recorded	gain1	gain2
2026-01-24 14:18:06.22	163.12	5.10	-46.1	-58.8	3.8	8.44e-01	0	36	0	0	63	14811
2026-01-24 14:18:07.21	163.13	5.18	-46.1	-58.6	3.8	8.47e-01	0	36	104	0	61	16213
2026-01-24 14:18:08.20	163.14	5.25	-46.1	-58.5	3.8	8.46e-01	0	37	104	0	62	15184
2026-01-24 14:18:09.19	163.14	5.32	-46.0	-58.5	3.8	8.47e-01	0	36	104	0	62	15128
2026-01-24 14:18:10.19	163.15	5.39	-46.0	-58.8	3.8	8.46e-01	0	37	104	0	62	15731
2026-01-24 14:18:11.18	163.16	5.46	-46.1	-58.9	3.8	8.45e-01	0	36	104	0	62	15813
2026-01-24 14:18:12.17	163.16	5.54	-46.1	-59.0	3.9	8.45e-01	0	37	104	0	62	15952
2026-01-24 14:18:13.17	163.17	5.61	-46.1	-58.9	3.9	8.42e-01	0	37	104	0	62	15884
2026-01-24 14:18:14.16	163.18	5.68	-46.2	-59.3	3.8	8.47e-01	0	37	104	0	62	16601
2026-01-24 14:18:15.15	163.18	5.76	-46.2	-59.1	3.8	8.47e-01	0	37	104	0	62	16245
2026-01-24 14:18:16.15	163.19	5.83	-46.2	-58.9	3.8	8.47e-01	0	37	104	0	62	15772
2026-01-24 14:18:17.14	163.20	5.90	-46.2	-58.3	3.8	8.47e-01	0	37	104	0	62	14864
2026-01-24 14:18:18.13	163.20	5.98	-46.1	-57.8	3.8	8.47e-01	0	37	104	0	62	13993
2026-01-24 14:18:19.13	163.21	6.05	-46.1	-57.2	3.8	8.46e-01	0	37	104	0	62	13090
2026-01-24 14:18:20.12	163.22	6.13	-46.1	-56.7	4.0	8.45e-01	0	37	104	0	62	12342
2026-01-24 14:18:21.11	163.22	6.20	-45.9	-56.3	4.0	8.42e-01	0	37	0	0	62	11730
2026-01-24 14:18:22.11	163.23	6.27	-45.8	-56.0	4.1	8.41e-01	0	37	0	0	62	11411
2026-01-24 14:18:23.08	163.24	6.35	-45.9	-56.0	4.1	8.40e-01	0	37	0	0	62	11384
2026-01-24 14:18:24.07	163.25	6.42	-45.8	-56.0	4.1	8.40e-01	0	37	0	0	62	11409
2026-01-24 14:18:25.07	163.25	6.50	-45.9	-56.2	4.1	8.41e-01	0	37	0	0	62	11619
2026-01-24 14:18:26.06	163.26	6.57	-45.9	-56.6	3.9	8.43e-01	0	37	104	0	62	12151
2026-01-24 14:18:27.06	163.27	6.65	-46.0	-57.3	3.8	8.44e-01	0	37	104	0	62	13124
2026-01-24 14:18:28.05	163.27	6.73	-46.0	-57.6	3.8	8.47e-01	0	37	104	0	62	13620
2026-01-24 14:18:29.04	163.28	6.80	-46.0	-58.0	3.8	8.44e-01	0	37	104	0	62	14214
2026-01-24 14:18:30.04	163.29	6.88	-46.0	-58.5	3.8	8.45e-01	0	37	104	0	62	15129
2026-01-24 14:18:31.03	163.29	6.96	-46.3	-58.9	3.8	8.44e-01	0	37	104	0	62	15820
2026-01-24 14:18:32.02	163.30	7.03	-46.0	-58.8	3.8	8.44e-01	0	37	104	0	62	15681
2026-01-24 14:18:33.02	163.31	7.11	-46.1	-58.9	3.9	8.43e-01	0	37	104	0	62	15788
2026-01-24 14:18:34.01	163.32	7.19	-46.2	-58.9	3.9	8.44e-01	0	37	104	0	62	15931
2026-01-24 14:18:35.00	163.32	7.26	-46.2	-59.0	3.8	8.46e-01	0	37	104	0	62	16105
2026-01-24 14:18:36.00	163.33	7.34	-46.2	-58.5	3.8	8.48e-01	0	37	104	0	62	15183
2026-01-24 14:18:36.99	163.34	7.42	-46.1	-57.6	3.8	8.47e-01	0	37	104	0	62	13579
2026-01-24 14:18:37.98	163.35	7.50	-46.0	-56.0	3.9	8.43e-01	0	37	104	0	62	11352
2026-01-24 14:18:38.98	163.35	7.58	-45.8	-54.3	4.7	8.10e-01	0	38	0	0	62	9364
2026-01-24 14:18:39.97	163.36	7.66	-45.4	-52.5	5.8	6.77e-01	0	38	0	0	61	8070
2026-01-24 14:18:40.96	163.37	7.74	-44.9	-50.9	7.2	1.91e-01	0	38	0	7340032	60	7048
2026-01-24 14:18:41.95	163.37	7.81	-44.5	-49.4	8.5	4.97e-02	0	38	0	14680064	59	6292
2026-01-24 14:18:42.95	163.38	7.89	-44.0	-48.4	9.5	1.88e-02	0	38	0	20971520	59	5620
2026-01-24 14:18:43.94	163.39	7.97	-43.5	-47.3	10.6	5.30e-03	0	38	0	28311552	57	5576
2026-01-24 14:18:44.93	163.40	8.05	-43.1	-46.6	11.3	1.24e-03	0	38	0	35651584	57	5155
2026-01-24 14:18:45.93	163.40	8.14	-42.7	-45.9	12.1	5.35e-04	0	38	0	42991616	56	5029
2026-01-24 14:18:46.92	163.41	8.22	-42.4	-45.5	12.4	2.24e-04	0	38	0	50331648	55	5079
2026-01-24 14:18:47.91	163.42	8.30	-42.3	-45.4	12.5	1.05e-04	0	38	0	57671680	55	5009
2026-01-24 14:18:48.91	163.43	8.38	-42.2	-45.3	12.6	6.75e-05	0	38	0	65011712	55	4934
2026-01-24 14:18:49.90	163.43	8.46	-42.5	-45.6	12.2	1.86e-04	0	38	0	71303168	55	5158
2026-01-24 14:18:50.89	163.44	8.54	-42.5	-45.8	12.1	3.27e-04	0	38	0	78643200	55	5241
2026-01-24 14:18:51.89	163.45	8.62	-43.1	-46.7	11.1	1.04e-03	0	38	0	85983232	55	5843
2026-01-24 14:18:52.88	163.46	8.70	-43.7	-47.8	10.2	5.06e-03	0	38	0	93323264	56	6258
2026-01-24 14:18:53.87	163.47	8.79	-44.2	-48.8	9.1	2.06e-02	0	38	0	100663296	57	6646
2026-01-24 14:18:54.87	163.47	8.87	-44.8	-50.2	7.7	8.27e-02	0	38	0	108003328	59	6941
2026-01-24 14:18:55.86	163.48	8.95	-45.2	-52.1	6.2	2.48e-01	0	38	0	115343360	60	8086
2026-01-24 14:18:56.85	163.49	9.04	-45.6	-53.9	5.0	7.38e-01	0	38	0	118489088	60	9949
2026-01-24 14:18:57.85	163.50	9.12	-45.3	-52.2	6.1	4.40e-01	0	38	0	120586240	60	8203
2026-01-24 14:18:58.84	163.50	9.20	-43.0	-46.0	12.2	3.07e-03	0	38	0	127926272	56	5050
2026-01-24 14:18:59.83	163.51	9.29	-46.1	-58.0	3.8	5.94e-01	0	38	104	133169152	62	14231
2026-01-24 14:19:00.83	163.52	9.37	-45.7	-54.2	4.8	8.35e-01	0	38	104	133169152	62	9196
2026-01-24 14:19:01.82	163.53	9.46	-40.7	-42.6	15.3	4.07e-03	0	38	0	137363456	52	4340
2026-01-24 14:19:02.82	163.54	9.54	-40.5	-42.5	15.5	1.01e-02	0	38	0	144703488	51	4499
2026-01-24 14:19:03.81	163.54	9.63	-39.9	-41.7	16.3	0.00e+00	0	38	0	150994944	50	4353
2026-01-24 14:19:04.81	163.55	9.71	-39.0	-40.6	17.3	0.00e+00	0	38	0	158334976	48	4326
2026-01-24 14:19:05.80	163.56	9.80	-38.3	-40.0	17.7	6.60e-03	0	38	0	165675008	47	4247
2026-01-24 14:19:06.80	163.57	9.89	-37.9	-39.5	18.1	0.00e+00	0	38	0	173015040	46	4251
2026-01-24 14:19:07.79	163.58	9.97	-37.7	-39.2	18.4	0.00e+00	0	38	0	180355072	46	4133
2026-01-24 14:19:08.79	163.58	10.06	-37.4	-39.0	18.6	0.00e+00	0	38	0	187695104	45	4265
2026-01-24 14:19:09.78	163.59	10.15	-36.9	-38.4	19.1	0.00e+00	0	38	0	193986560	44	4208
2026-01-24 14:19:10.77	163.60	10.23	-36.5	-37.9	19.4	0.00e+00	0	38	0	201326592	43	4232
2026-01-24 14:19:11.77	163.61	10.32	-36.5	-37.9	19.4	0.00e+00	0	38	0	208666624	43	4233
2026-01-24 14:19:12.76	163.62	10.41	-36.1	-37.6	19.7	0.00e+00	0	38	0	216006656	43	4077
2026-01-24 14:19:13.76	163.63	10.50	-36.3	-37.8	19.5	0.00e+00	0	38	0	223346688	43	4160
2026-01-24 14:19:14.75	163.63	10.59	-36.3	-37.8	19.5	0.00e+00	0	38	0	230686720	43	4157
2026-01-24 14:19:15.75	163.64	10.68	-36.3	-37.8	19.5	0.00e+00	0	38	0	236978176	43	4173
2026-01-24 14:19:16.74	163.65	10.77	-36.0	-37.5	19.8	0.00e+00	0	38	0	244318208	42	4262
2026-01-24 14:19:17.73	163.66	10.86	-36.0	-37.5	19.8	0.00e+00	0	38	0	251658240	42	4248
2026-01-24 14:19:18.73	163.67	10.95	-36.1	-37.6	19.7	0.00e+00	0	38	0	258998272	42	4324
2026-01-24 14:19:19.72	163.68	11.04	-36.0	-37.5	19.8	0.00e+00	0	38	0	266338304	42	4251
2026-01-24 14:19:20.72	163.69	11.13	-36.2	-37.6	19.7	0.00e+00	0	38	0	273678336	42	4331
2026-01-24 14:19:21.71	163.69	11.22	-36.2	-37.7	19.6	0.00e+00	0	38	0	281018368	42	4343
2026-01-24 14:19:22.71	163.70	11.31	-36.0	-37.5	19.8	0.00e+00	0	38	0	288358400	42	4247
2026-01-24 14:19:23.70	163.71	11.40	-36.0	-37.5	19.8	0.00e+00	0	38	0	294649856	42	4247
2026-01-24 14:19:24.70	163.72	11.49	-36.2	-37.7	19.6	0.00e+00	0	38	0	301989888	42	4370
2026-01-24 14:19:25.69	163.73	11.59	-36.2	-37.7	19.2	0.00e+00	0	38	0	309329920	42	4370
2026-01-24 14:19:26.69	163.74	11.68	-36.2	-37.7	19.6	0.00e+00	0	38	0	316669952	42	4354
2026-01-24 14:19:27.68	163.75	11.77	-36.1	-37.6	19.7	0.00e+00	0	38	0	324009984	42	4329
2026-01-24 14:19:28.67	163.76	11.87	-36.1	-37.5	19.8	0.00e+00	0	38	0	331350016	42	4291
2026-01-24 14:19:29.67	163.76	11.96	-35.9	-37.3	20.0	0.00e+00	0	38	0	337641472	42	4192
2026-01-24 14:19:30.66	163.77	12.05	-35.9	-37.3	20.0	0.00e+00	0	38	0	344981504	42	4175
2026-01-24 14:19:31.66	163.78	12.15	-35.8	-37.3	20.0	0.00e+00	0	38	0	352321536	42	4157
2026-01-24 14:19:32.66	163.79	12.24	-35.7	-37.1	20.2	0.00e+00	0	38	0	359661568	42	4087
2026-01-24 14:19:33.65	163.80	12.34	-35.8	-37.3	20.0	0.00e+00	0	38	0	367001600	42	4164
2026-01-24 14:19:34.64	163.81	12.43	-35.7	-37.2	20.2	0.00e+00	0	38	0	374341632	42	4106
2026-01-24 14:19:35.64	163.82	12.53	-35.8	-37.2	20.1	0.00e+00	0	38	0	380633088	42	4119
2026-01-24 14:19:36.63	163.83	12.63	-35.7	-37.1	20.2	0.00e+00	0	38	0	387973120	42	4078
2026-01-24 14:19:37.63	163.84	12.72	-35.6	-37.0	20.3	0.00e+00	0	38	0	395313152	42	4041
2026-01-24 14:19:38.62	163.85	12.82	-35.8	-37.3	20.1	0.00e+00	0	38	0	402653184	42	4166
2026-01-24 14:19:39.62	163.86	12.92	-35.8	-37.2	20.1	0.00e+00	0	38	0	409993216	42	4123
2026-01-24 14:19:40.61	163.87	13.02	-35.8	-37.2	20.1	0.00e+00	0	38	0	417333248	42	4141
2026-01-24 14:19:41.61	163.87	13.12	-35.5	-36.9	20.4	0.00e+00	0	38	0	424673280	41	4226
2026-01-24 14:19:42.61	163.88	13.22	-35.7	-37.1	20.2	0.00e+00	0	38	0	432013312	41	4312
2026-01-24 14:19:43.60	163.89	13.32	-35.5	-37.0	20.3	0.00e+00	0	38	0	438304768	41	4247
2026-01-24 14:19:44.59	163.90	13.41	-35.6	-37.0	20.2	0.00e+00	0	38	0	445644800	41	4289
2026-01-24 14:19:45.59	163.91	13.51	-35.5	-36.9	20.4	0.00e+00	0	39	0	452984832	41	4232
2026-01-24 14:19:46.58	163.92	13.62	-35.5	-36.9	20.4	0.00e+00	0	39	0	460324864	41	4210
2026-01-24 14:19:47.58	163.93	13.72	-35.5	-36.9	20.4	0.00e+00	0	39	0	467664896	41	4209
2026-01-24 14:19:48.57	163.94	13.82	-35.5	-36.9	20.5	0.00e+00	0	39	0	475004928	41	4195
2026-01-24 14:19:49.56	163.95	13.92	-35.4	-36.8	20.5	0.00e+00	0	38	0	481296384	41	4154
2026-01-24 14:19:50.56	163.96	14.02	-35.4	-36.8	20.5	0.00e+00	0	39	0	488636416	41	4153
2026-01-24 14:19:51.56	163.97	14.12	-35.4	-36.8	19.4	0.00e+00	0	38	0	495976448	41	4156
2026-01-24 14:19:52.55	163.98	14.23	-35.4	-36.7	20.6	0.00e+00	0	38	0	503316480	41	4140
2026-01-24 14:19:53.55	163.99	14.33	-35.2	-36.6	20.7	0.00e+00	0	38	0	510656512	41	4073
2026-01-24 14:19:54.54	164.00	14.44	-35.2	-36.5	20.8	0.00e+00	0	38	0	517996544	41	4029
2026-01-24 14:19:55.53	164.01	14.54	-35.3	-36.7	20.6	0.00e+00	0	38	0	524288000	41	4106
2026-01-24 14:19:56.53	164.02	14.64	-35.1	-36.4	20.9	0.00e+00	0	38	0	531628032	41	4003
2026-01-24 14:19:57.53	164.03	14.75	-35.2	-36.6	20.7	0.00e+00	0	38	0	538968064	41	4060
2026-01-24 14:19:58.52	164.04	14.86	-35.2	-36.5	20.8	0.00e+00	0	38	0	546308096	41	4034
2026-01-24 14:19:59.51	164.05	14.96	-35.1	-36.4	20.9	0.00e+00	0	38	0	553648128	40	4229
2026-01-24 14:20:00.51	164.06	15.07	-35.1	-36.4	20.9	0.00e+00	0	39	0	560988160	40	4231
2026-01-24 14:20:01.50	164.07	15.18	-35.1	-36.4	20.8	0.00e+00	0	39	0	568328192	40	4235
2026-01-24 14:20:02.50	164.08	15.28	-35.0	-36.4	20.9	0.00e+00	0	38	0	574619648	40	4218
2026-01-24 14:20:03.49	164.09	15.39	-35.1	-36.4	20.9	0.00e+00	0	39	0	581959680	40	4222
2026-01-24 14:20:04.49	164.10	15.50	-35.0	-36.3	21.0	0.00e+00	0	38	0	589299712	40	4185
2026-01-24 14:20:05.48	164.12	15.61	-35.0	-36.4	20.9	0.00e+00	0	39	0	596639744	40	4206
2026-01-24 14:20:06.48	164.13	15.72	-34.9	-36.3	21.0	0.00e+00	0	39	0	603979776	40	4157
2026-01-24 14:20:07.47	164.14	15.83	-35.0	-36.3	21.0	0.00e+00	0	39	0	611319808	40	4182
2026-01-24 14:20:08.47	164.15	15.94	-34.9	-36.3	21.0	0.00e+00	0	39	0	618659840	40	4146
2026-01-24 14:20:09.46	164.16	16.05	-34.9	-36.3	21.0	0.00e+00	0	39	0	624951296	40	4173
2026-01-24 14:20:10.46	164.17	16.16	-34.9	-36.2	21.1	0.00e+00	0	39	0	632291328	40	4128
2026-01-24 14:20:11.45	164.18	16.27	-34.9	-36.3	21.0	0.00e+00	0	39	0	639631360	40	4161
2026-01-24 14:20:12.45	164.19	16.39	-34.9	-36.3	21.0	0.00e+00	0	39	0	646971392	40	4146
2026-01-24 14:20:13.44	164.20	16.50	-34.9	-36.2	21.0	0.00e+00	0	39	0	654311424	40	4140
2026-01-24 14:20:14.44	164.21	16.62	-34.8	-36.1	21.1	0.00e+00	0	38	0	661651456	40	4095
2026-01-24 14:20:15.43	164.23	16.73	-34.7	-36.0	21.2	0.00e+00	0	39	0	667942912	40	4047
2026-01-24 14:20:16.43	164.24	16.84	-34.9	-36.3	21.0	0.00e+00	0	38	0	675282944	40	4155
2026-01-24 14:20:17.42	164.25	16.96	-34.7	-36.0	21.2	0.00e+00	0	39	0	682622976	40	4051
2026-01-24 14:20:18.41	164.26	17.07	-34.8	-36.2	21.1	0.00e+00	0	39	0	689963008	40	4105
2026-01-24 14:20:19.41	164.27	17.19	-34.8	-36.2	21.1	0.00e+00	0	39	0	697303040	40	4117
2026-01-24 14:20:20.41	164.28	17.31	-34.6	-35.9	21.4	0.00e+00	0	39	0	704643072	40	3984
2026-01-24 14:20:21.40	164.29	17.43	-34.7	-36.0	21.2	0.00e+00	0	39	0	711983104	40	4027
2026-01-24 14:20:22.40	164.31	17.54	-34.8	-36.1	21.1	0.00e+00	0	39	0	718274560	40	4077
2026-01-24 14:20:23.39	164.32	17.66	-34.8	-36.2	21.1	0.00e+00	0	39	0	725614592	40	4112
2026-01-24 14:20:24.38	164.33	17.78	-34.8	-36.1	21.1	0.00e+00	0	39	0	732954624	40	4093
2026-01-24 14:20:25.38	164.34	17.90	-34.7	-36.1	21.2	0.00e+00	0	39	0	740294656	40	4055
2026-01-24 14:20:26.37	164.35	18.02	-34.7	-36.1	21.2	0.00e+00	0	39	0	747634688	40	4069
2026-01-24 14:20:27.37	164.37	18.14	-34.7	-36.0	21.2	0.00e+00	0	39	0	754974720	40	4047
2026-01-24 14:20:28.36	164.38	18.26	-34.7	-36.1	21.2	0.00e+00	0	39	0	762314752	40	4067
2026-01-24 14:20:29.36	164.39	18.39	-34.7	-36.1	21.2	0.00e+00	0	39	0	768606208	40	4061
2026-01-24 14:20:30.35	164.40	18.51	-34.7	-36.0	21.2	0.00e+00	0	39	0	775946240	40	4040
2026-01-24 14:20:31.35	164.41	18.63	-34.7	-36.0	21.2	0.00e+00	0	39	0	783286272	40	4045
2026-01-24 14:20:32.34	164.43	18.76	-34.8	-36.2	21.1	0.00e+00	0	39	0	790626304	40	4118
2026-01-24 14:20:33.34	164.44	18.88	-34.7	-36.1	21.1	0.00e+00	0	39	0	797966336	40	4071
2026-01-24 14:20:34.34	164.45	19.01	-34.7	-36.1	21.2	0.00e+00	0	39	0	805306368	39	4296
2026-01-24 14:20:35.33	164.46	19.13	-34.7	-36.0	21.3	0.00e+00	0	39	0	811597824	39	4274
2026-01-24 14:20:36.33	164.48	19.26	-34.6	-35.9	21.4	0.00e+00	0	39	0	818937856	39	4235
2026-01-24 14:20:37.32	164.49	19.39	-34.7	-36.1	21.2	0.00e+00	0	39	0	826277888	39	4323
2026-01-24 14:20:38.32	164.50	19.52	-34.5	-35.9	21.4	0.00e+00	0	39	0	833617920	39	4197
2026-01-24 14:20:39.31	164.52	19.65	-34.6	-36.0	21.3	0.00e+00	0	39	0	840957952	39	4245
2026-01-24 14:20:40.31	164.53	19.78	-34.6	-35.9	21.4	0.00e+00	0	39	0	848297984	39	4219
2026-01-24 14:20:41.30	164.54	19.90	-34.4	-35.7	21.6	0.00e+00	0	39	0	855638016	39	4114
2026-01-24 14:20:42.30	164.56	20.04	-34.5	-35.8	21.4	0.00e+00	0	39	0	861929472	39	4190
2026-01-24 14:20:43.29	164.57	20.17	-34.3	-35.7	21.6	0.00e+00	0	38	0	869269504	39	4105
2026-01-24 14:20:44.29	164.58	20.30	-34.3	-35.6	21.6	0.00e+00	0	39	0	876609536	39	4066
2026-01-24 14:20:45.28	164.60	20.43	-34.3	-35.6	21.6	0.00e+00	0	39	0	883949568	39	4094
2026-01-24 14:20:46.27	164.61	20.56	-34.2	-35.5	21.7	0.00e+00	0	39	0	891289600	39	4023
2026-01-24 14:20:47.27	164.62	20.70	-34.3	-35.6	21.7	0.00e+00	0	39	0	898629632	39	4087
2026-01-24 14:20:48.26	164.64	20.83	-34.3	-35.7	21.6	0.00e+00	0	39	0	905969664	39	4105
2026-01-24 14:20:49.26	164.65	20.97	-34.2	-35.5	21.8	0.00e+00	0	39	0	912261120	39	4011
2026-01-24 14:20:50.25	164.66	21.11	-34.2	-35.5	21.7	0.00e+00	0	39	0	919601152	39	4033
2026-01-24 14:20:51.25	164.68	21.24	-34.1	-35.4	21.8	0.00e+00	0	39	0	926941184	38	4228
2026-01-24 14:20:52.24	164.69	21.38	-33.9	-35.2	21.9	0.00e+00	0	39	0	934281216	38	4136
2026-01-24 14:20:53.24	164.71	21.52	-34.0	-35.3	21.9	0.00e+00	0	39	0	941621248	38	4173
2026-01-24 14:20:54.23	164.72	21.66	-33.9	-35.2	21.9	0.00e+00	0	38	0	948961280	38	4122
2026-01-24 14:20:55.23	164.74	21.80	-33.9	-35.2	22.0	0.00e+00	0	39	0	955252736	38	4108
2026-01-24 14:20:56.22	164.75	21.94	-33.9	-35.2	21.9	0.00e+00	0	39	0	962592768	38	4124
2026-01-24 14:20:57.22	164.77	22.08	-33.9	-35.2	21.9	0.00e+00	0	39	0	969932800	38	4136
2026-01-24 14:20:58.21	164.78	22.22	-33.8	-35.1	22.0	0.00e+00	0	39	0	977272832	38	4054
2026-01-24 14:20:59.20	164.80	22.37	-34.0	-35.3	21.8	0.00e+00	0	39	0	984612864	38	4165
2026-01-24 14:21:00.20	164.81	22.51	-33.9	-35.2	21.9	0.00e+00	0	39	0	990904320	38	4130
2026-01-24 14:21:01.19	164.83	22.66	-33.8	-35.1	21.9	0.00e+00	0	39	0	998244352	38	4081
2026-01-24 14:21:02.19	164.84	22.80	-33.8	-35.2	21.8	0.00e+00	0	39	0	1005584384	38	4112
2026-01-24 14:21:03.18	164.86	22.95	-33.8	-35.1	22.0	0.00e+00	0	39	0	1012924416	38	4061
2026-01-24 14:21:04.18	164.87	23.10	-33.7	-35.1	22.0	0.00e+00	0	39	0	1020264448	38	4054
2026-01-24 14:21:05.17	164.89	23.24	-33.8	-35.1	22.0	0.00e+00	0	39	0	1027604480	38	4079
2026-01-24 14:21:06.17	164.90	23.39	-33.8	-35.1	22.0	0.00e+00	0	39	0	1034944512	38	4075
2026-01-24 14:21:07.16	164.92	23.54	-33.8	-35.2	21.9	0.00e+00	0	39	0	1042284544	38	4123
2026-01-24 14:21:08.16	164.94	23.69	-33.9	-35.3	21.8	0.00e+00	0	39	0	1049624576	38	4152
2026-01-24 14:21:09.15	164.95	23.85	-33.8	-35.1	21.9	0.00e+00	0	39	0	1055916032	38	4091
2026-01-24 14:21:10.15	164.97	24.00	-33.7	-35.0	21.9	0.00e+00	0	39	0	1063256064	38	4047
2026-01-24 14:21:11.14	164.98	24.15	-33.8	-35.2	21.9	0.00e+00	0	39	0	1070596096	38	4112
2026-01-24 14:21:12.14	165.00	24.31	-33.9	-35.3	21.8	0.00e+00	0	39	0	1077936128	38	4153
2026-01-24 14:21:13.13	165.02	24.46	-33.8	-35.2	21.8	0.00e+00	0	39	0	1085276160	38	4135
2026-01-24 14:21:14.13	165.03	24.62	-33.9	-35.3	21.7	0.00e+00	0	39	0	1092616192	38	4171
2026-01-24 14:21:15.12	165.05	24.78	-33.9	-35.3	21.6	0.00e+00	0	39	0	1098907648	38	4178
2026-01-24 14:21:16.12	165.07	24.93	-33.9	-35.3	21.7	0.00e+00	0	39	0	1106247680	38	4167
2026-01-24 14:21:17.11	165.08	25.09	-33.9	-35.3	21.7	0.00e+00	0	39	0	1113587712	38	4157
2026-01-24 14:21:18.10	165.10	25.25	-33.7	-35.1	21.8	0.00e+00	0	39	0	1120927744	38	4081
2026-01-24 14:21:19.10	165.12	25.41	-33.7	-35.1	21.9	0.00e+00	0	39	0	1128267776	38	4080
2026-01-24 14:21:20.09	165.14	25.58	-33.7	-35.1	21.9	0.00e+00	0	39	0	1134559232	37	4320
2026-01-24 14:21:21.08	165.16	25.74	-33.7	-35.1	21.9	0.00e+00	0	39	0	1141899264	37	4295
2026-01-24 14:21:22.08	165.17	25.90	-33.6	-35.0	21.9	0.00e+00	0	39	0	1149239296	37	4274
2026-01-24 14:21:23.07	165.19	26.07	-33.6	-34.9	22.0	0.00e+00	0	39	0	1156579328	37	4240
2026-01-24 14:21:24.07	165.21	26.23	-33.5	-34.8	22.1	0.00e+00	0	39	0	1163919360	37	4189
2026-01-24 14:21:25.06	165.23	26.40	-33.4	-34.8	22.1	0.00e+00	0	39	0	1171259392	37	4166
2026-01-24 14:21:26.05	165.25	26.57	-33.4	-34.7	22.2	0.00e+00	0	39	0	1178599424	37	4120
2026-01-24 14:21:27.05	165.26	26.74	-33.3	-34.6	22.3	0.00e+00	0	39	0	1184890880	37	4092
2026-01-24 14:21:28.04	165.28	26.91	-33.3	-34.6	22.3	0.00e+00	0	39	0	1192230912	37	4073
2026-01-24 14:21:29.04	165.30	27.08	-33.3	-34.6	22.3	0.00e+00	0	39	0	1199570944	37	4085
2026-01-24 14:21:30.03	165.32	27.25	-33.4	-34.7	22.3	0.00e+00	0	39	0	1206910976	37	4101
2026-01-24 14:21:31.03	165.34	27.42	-33.2	-34.5	22.5	0.00e+00	0	39	0	1214251008	37	4021
2026-01-24 14:21:32.02	165.36	27.60	-33.0	-34.3	22.6	0.00e+00	0	39	0	1221591040	36	4170
2026-01-24 14:21:33.02	165.38	27.78	-32.9	-34.2	22.7	0.00e+00	0	39	0	1228931072	36	4122
2026-01-24 14:21:34.01	165.40	27.95	-32.9	-34.1	22.8	0.00e+00	0	39	0	1236271104	36	4090
2026-01-24 14:21:35.01	165.42	28.13	-32.9	-34.2	22.7	0.00e+00	0	39	0	1242562560	36	4106
2026-01-24 14:21:36.00	165.44	28.31	-33.1	-34.4	22.6	0.00e+00	0	39	0	1249902592	36	4197
2026-01-24 14:21:36.99	165.46	28.49	-33.0	-34.2	22.7	0.00e+00	0	39	0	1257242624	36	4130
2026-01-24 14:21:37.99	165.48	28.67	-33.1	-34.3	22.5	0.00e+00	0	39	0	1264582656	36	4181
2026-01-24 14:21:38.98	165.50	28.85	-33.0	-34.3	22.7	0.00e+00	0	39	0	1271922688	36	4154
2026-01-24 14:21:39.98	165.52	29.04	-33.2	-34.4	22.6	0.00e+00	0	39	0	1278214144	36	4218
2026-01-24 14:21:40.97	165.55	29.22	-33.2	-34.4	22.5	0.00e+00	0	39	0	1285554176	36	4242
2026-01-24 14:21:41.97	165.57	29.41	-33.3	-34.5	22.5	0.00e+00	0	39	0	1292894208	36	4275
2026-01-24 14:21:42.96	165.59	29.59	-33.3	-34.6	22.4	0.00e+00	0	38	0	1300234240	36	4320
2026-01-24 14:21:43.96	165.61	29.78	-33.4	-34.7	22.3	0.00e+00	0	39	0	1307574272	36	4354
2026-01-24 14:21:44.95	165.63	29.97	-33.5	-34.8	22.3	0.00e+00	0	39	0	1314914304	36	4418
2026-01-24 14:21:45.95	165.66	30.17	-33.4	-34.8	22.3	0.00e+00	0	39	0	1321205760	36	4399
2026-01-24 14:21:46.94	165.68	30.36	-33.4	-34.8	22.3	0.00e+00	0	39	0	1328545792	36	4394
2026-01-24 14:21:47.94	165.70	30.55	-33.5	-34.8	22.3	0.00e+00	0	39	0	1335885824	36	4412
2026-01-24 14:21:48.93	165.72	30.75	-33.4	-34.7	22.4	0.00e+00	0	39	0	1343225856	36	4367
2026-01-24 14:21:49.92	165.75	30.94	-33.4	-34.7	22.4	0.00e+00	0	39	0	1350565888	36	4365
2026-01-24 14:21:50.92	165.77	31.14	-33.3	-34.6	22.4	0.00e+00	0	39	0	1357905920	36	4326
2026-01-24 14:21:51.91	165.80	31.34	-33.4	-34.7	22.3	0.00e+00	0	39	0	1365245952	36	4362
2026-01-24 14:21:52.91	165.82	31.54	-33.4	-34.7	22.3	0.00e+00	0	39	0	1372585984	36	4370
2026-01-24 14:21:53.90	165.84	31.74	-33.5	-34.8	22.2	0.00e+00	0	39	0	1379926016	36	4421
2026-01-24 14:21:54.90	165.87	31.95	-33.4	-34.7	22.3	0.00e+00	0	39	0	1386217472	36	4378
2026-01-24 14:21:55.89	165.89	32.15	-33.3	-34.7	22.3	0.00e+00	0	39	0	1393557504	36	4363
2026-01-24 14:21:56.89	165.92	32.36	-33.4	-34.8	22.2	0.00e+00	0	39	0	1400897536	36	4392
2026-01-24 14:21:57.88	165.94	32.56	-33.3	-34.7	22.3	0.00e+00	0	39	0	1408237568	36	4345
2026-01-24 14:21:58.88	165.97	32.77	-33.2	-34.6	22.3	0.00e+00	0	39	0	1415577600	36	4315
2026-01-24 14:21:59.87	166.00	32.98	-33.3	-34.6	22.4	0.00e+00	0	39	0	1421869056	36	4327
2026-01-24 14:22:00.87	166.02	33.20	-33.3	-34.7	22.3	0.00e+00	0	39	0	1429209088	36	4353
2026-01-24 14:22:01.86	166.05	33.41	-33.4	-34.8	22.2	0.00e+00	0	39	0	1436549120	36	4399
2026-01-24 14:22:02.85	166.08	33.62	-33.3	-34.7	22.2	0.00e+00	0	39	0	1443889152	36	4383
2026-01-24 14:22:03.85	166.10	33.84	-33.2	-34.6	22.3	0.00e+00	0	39	0	1451229184	36	4316
2026-01-24 14:22:04.84	166.13	34.06	-33.3	-34.8	22.2	0.00e+00	0	39	0	1458569216	36	4394
2026-01-24 14:22:05.84	166.16	34.28	-33.4	-34.8	22.1	0.00e+00	0	39	0	1464860672	36	4416
2026-01-24 14:22:06.84	166.19	34.50	-33.2	-34.6	22.3	0.00e+00	0	39	0	1472200704	36	4314
2026-01-24 14:22:07.83	166.22	34.72	-33.1	-34.5	22.4	0.00e+00	0	39	0	1479540736	36	4271
2026-01-24 14:22:08.83	166.25	34.95	-33.2	-34.6	22.4	0.00e+00	0	39	0	1486880768	36	4303
2026-01-24 14:22:09.82	166.27	35.17	-33.2	-34.6	22.3	0.00e+00	0	39	0	1494220800	36	4292
2026-01-24 14:22:10.82	166.30	35.40	-33.1	-34.4	22.5	0.00e+00	0	39	0	1501560832	36	4237
2026-01-24 14:22:11.81	166.33	35.63	-32.9	-34.3	22.6	0.00e+00	0	39	0	1508900864	36	4172
2026-01-24 14:22:12.81	166.37	35.86	-32.9	-34.2	22.7	0.00e+00	0	39	0	1516240896	36	4130
2026-01-24 14:22:13.80	166.40	36.09	-32.8	-34.1	22.8	0.00e+00	0	39	0	1523580928	36	4072
2026-01-24 14:22:14.80	166.43	36.33	-32.9	-34.2	22.7	0.00e+00	0	39	0	1529872384	36	4140
2026-01-24 14:22:15.79	166.46	36.56	-32.9	-34.3	22.7	0.00e+00	0	38	0	1537212416	36	4151
2026-01-24 14:22:16.79	166.49	36.80	-33.0	-34.3	22.7	0.00e+00	0	39	0	1544552448	36	4158
2026-01-24 14:22:17.78	166.52	37.04	-33.0	-34.3	22.7	0.00e+00	0	39	0	1551892480	36	4174
2026-01-24 14:22:18.78	166.56	37.28	-33.0	-34.3	22.7	0.00e+00	0	39	0	1559232512	36	4170
2026-01-24 14:22:19.78	166.59	37.52	-33.1	-34.4	22.6	0.00e+00	0	39	0	1565523968	36	4234
2026-01-24 14:22:20.77	166.62	37.77	-33.2	-34.5	22.5	0.00e+00	0	39	0	1572864000	36	4278
2026-01-24 14:22:21.77	166.66	38.01	-33.3	-34.6	22.5	0.00e+00	0	39	0	1580204032	36	4333
2026-01-24 14:22:22.76	166.69	38.26	-33.5	-34.9	22.2	0.00e+00	0	39	0	1587544064	36	4446
2026-01-24 14:22:23.76	166.73	38.51	-33.5	-34.8	22.3	0.00e+00	0	39	0	1594884096	36	4410
2026-01-24 14:22:24.75	166.76	38.76	-33.6	-34.9	22.2	0.00e+00	0	39	0	1602224128	36	4476
2026-01-24 14:22:25.75	166.80	39.02	-33.7	-35.1	22.0	0.00e+00	0	39	0	1608515584	36	4549
2026-01-24 14:22:26.74	166.84	39.27	-33.8	-35.1	21.9	0.00e+00	0	39	0	1615855616	37	4333
2026-01-24 14:22:27.74	166.87	39.53	-33.8	-35.2	21.8	0.00e+00	0	39	0	1623195648	37	4360
2026-01-24 14:22:28.73	166.91	39.79	-33.8	-35.2	21.9	0.00e+00	0	39	0	1630535680	37	4347
2026-01-24 14:22:29.73	166.95	40.05	-33.7	-35.0	21.9	0.00e+00	0	39	0	1637875712	37	4286
2026-01-24 14:22:30.72	166.99	40.31	-33.6	-34.9	22.0	0.00e+00	0	39	0	1645215744	37	4235
2026-01-24 14:22:31.72	167.03	40.58	-33.6	-34.9	22.0	0.00e+00	0	39	0	1652555776	37	4239
2026-01-24 14:22:32.71	167.07	40.84	-33.5	-34.8	22.2	0.00e+00	0	39	0	1659895808	37	4149
2026-01-24 14:22:33.71	167.11	41.11	-33.4	-34.7	22.3	0.00e+00	0	39	0	1667235840	37	4130
2026-01-24 14:22:34.70	167.15	41.38	-33.4	-34.7	22.3	0.00e+00	0	38	0	1673527296	37	4114
2026-01-24 14:22:35.70	167.19	41.66	-33.4	-34.7	22.4	0.00e+00	0	39	0	1680867328	37	4100
2026-01-24 14:22:36.69	167.24	41.93	-33.5	-34.7	22.4	0.00e+00	0	39	0	1688207360	37	4141
2026-01-24 14:22:37.68	167.28	42.21	-33.5	-34.7	22.4	0.00e+00	0	39	0	1695547392	37	4144
2026-01-24 14:22:38.68	167.32	42.49	-33.4	-34.6	22.5	0.00e+00	0	39	0	1702887424	37	4084
2026-01-24 14:22:39.67	167.37	42.77	-33.4	-34.7	22.6	0.00e+00	0	38	0	1709178880	37	4099
2026-01-24 14:22:40.67	167.41	43.05	-33.4	-34.7	22.6	0.00e+00	0	39	0	1716518912	37	4101
2026-01-24 14:22:41.66	167.46	43.34	-33.5	-34.8	22.5	0.00e+00	0	39	0	1723858944	37	4152
2026-01-24 14:22:42.66	167.51	43.63	-33.5	-34.7	22.6	0.00e+00	0	39	0	1731198976	37	4143
2026-01-24 14:22:43.65	167.56	43.92	-33.6	-34.8	22.5	0.00e+00	0	39	0	1738539008	37	4169
2026-01-24 14:22:44.65	167.60	44.21	-33.5	-34.7	22.6	0.00e+00	0	39	0	1745879040	37	4135
2026-01-24 14:22:45.64	167.65	44.50	-34.0	-34.9	23.2	0.00e+00	0	39	0	1752170496	37	4203
2026-01-24 14:22:46.64	167.70	44.80	-34.3	-35.1	22.9	0.00e+00	0	39	0	1759510528	38	4091
2026-01-24 14:22:47.63	167.76	45.10	-34.1	-34.9	23.2	0.00e+00	0	39	0	1766850560	38	3994
2026-01-24 14:22:48.63	167.81	45.40	-34.4	-35.2	22.9	0.00e+00	0	39	0	1774190592	38	4135
2026-01-24 14:22:49.63	167.86	45.70	-34.4	-35.3	22.8	0.00e+00	0	39	0	1781530624	38	4168
2026-01-24 14:22:50.62	167.92	46.01	-34.5	-35.4	22.8	0.00e+00	0	39	0	1788870656	38	4200
2026-01-24 14:22:51.62	167.97	46.32	-34.6	-35.5	22.7	0.00e+00	0	39	0	1796210688	38	4264
2026-01-24 14:22:52.61	168.03	46.62	-34.8	-35.6	22.5	0.00e+00	0	39	0	1803550720	39	4094
2026-01-24 14:22:53.61	168.08	46.94	-34.9	-35.8	22.4	0.00e+00	0	39	0	1810890752	39	4164
2026-01-24 14:22:54.60	168.14	47.25	-34.9	-35.7	22.4	0.00e+00	0	39	0	1817182208	39	4139
2026-01-24 14:22:55.60	168.20	47.57	-34.8	-35.6	22.5	0.00e+00	0	39	0	1824522240	39	4087
2026-01-24 14:22:56.59	168.26	47.89	-34.8	-35.6	22.6	0.00e+00	0	39	0	1831862272	39	4080
2026-01-24 14:22:57.59	168.32	48.21	-34.9	-35.7	22.4	0.00e+00	0	39	0	1839202304	39	4144
2026-01-24 14:22:58.58	168.39	48.53	-35.2	-36.0	22.2	0.00e+00	0	39	0	1846542336	39	4289
2026-01-24 14:22:59.57	168.45	48.86	-35.3	-36.2	21.9	0.00e+00	0	39	0	1852833792	40	4130
2026-01-24 14:23:00.57	168.52	49.19	-35.5	-36.4	21.8	0.00e+00	0	39	0	1860173824	40	4222
2026-01-24 14:23:01.57	168.58	49.52	-35.6	-36.5	21.7	0.00e+00	0	39	0	1867513856	40	4276
2026-01-24 14:23:02.56	168.65	49.85	-35.5	-36.4	21.7	0.00e+00	0	39	0	1874853888	40	4236
2026-01-24 14:23:03.56	168.72	50.19	-35.6	-36.5	21.7	0.00e+00	0	39	0	1882193920	40	4256
2026-01-24 14:23:04.55	168.79	50.53	-35.3	-36.2	22.0	0.00e+00	0	39	0	1889533952	40	4112
2026-01-24 14:23:05.55	168.87	50.87	-35.0	-35.9	22.3	0.00e+00	0	39	0	1895825408	40	3960
2026-01-24 14:23:06.54	168.94	51.21	-34.9	-35.7	22.4	0.00e+00	0	39	0	1903165440	40	3900
2026-01-24 14:23:07.53	169.02	51.55	-34.9	-35.8	22.4	0.00e+00	0	39	0	1910505472	40	3914
2026-01-24 14:23:08.53	169.10	51.90	-35.0	-35.9	22.2	0.00e+00	0	39	0	1917845504	40	3975
2026-01-24 14:23:09.53	169.18	52.26	-35.1	-36.0	22.2	0.00e+00	0	39	0	1925185536	39	4245
2026-01-24 14:23:10.52	169.26	52.61	-34.9	-35.7	22.5	0.00e+00	0	39	0	1932525568	39	4126
2026-01-24 14:23:11.52	169.34	52.96	-35.1	-36.0	22.2	0.00e+00	0	39	0	1939865600	39	4251
2026-01-24 14:23:12.51	169.43	53.32	-35.2	-36.1	22.1	0.00e+00	0	39	0	1947205632	40	4059
2026-01-24 14:23:13.51	169.51	53.68	-35.4	-36.3	21.8	0.00e+00	0	39	0	1953497088	40	4164
2026-01-24 14:23:14.50	169.60	54.04	-35.4	-36.4	21.8	0.00e+00	0	39	0	1960837120	40	4200
2026-01-24 14:23:15.50	169.69	54.41	-35.4	-36.2	21.9	0.00e+00	0	39	0	1968177152	40	4142
2026-01-24 14:23:16.49	169.79	54.78	-35.1	-36.0	22.2	0.00e+00	0	39	0	1975517184	40	4023
2026-01-24 14:23:17.49	169.88	55.15	-35.0	-35.9	22.2	0.00e+00	0	39	0	1982857216	40	3979
2026-01-24 14:23:18.48	169.98	55.52	-35.1	-36.0	22.2	0.00e+00	0	39	0	1990197248	40	4024
2026-01-24 14:23:19.47	170.08	55.90	-35.4	-36.3	21.9	0.00e+00	0	39	0	1996488704	40	4162
2026-01-24 14:23:20.47	170.19	56.28	-35.3	-36.2	22.0	0.00e+00	0	39	0	2003828736	40	4103
2026-01-24 14:23:21.46	170.29	56.66	-35.3	-36.2	22.0	0.00e+00	0	39	0	2011168768	40	4100
2026-01-24 14:23:22.46	170.40	57.04	-35.6	-36.5	21.7	0.00e+00	0	39	0	2018508800	40	4271
2026-01-24 14:23:23.45	170.52	57.42	-35.7	-36.6	21.6	0.00e+00	0	39	0	2025848832	40	4307
2026-01-24 14:23:24.44	170.63	57.81	-35.3	-36.2	21.9	0.00e+00	0	39	0	2033188864	40	4133
2026-01-24 14:23:25.44	170.75	58.20	-35.5	-36.4	21.6	0.00e+00	0	39	0	2039480320	40	4236
2026-01-24 14:23:26.43	170.87	58.59	-35.1	-36.0	22.2	0.00e+00	0	39	0	2046820352	40	4017
2026-01-24 14:23:27.43	171.00	58.99	-35.0	-35.8	22.3	0.00e+00	0	39	0	2054160384	40	3935
2026-01-24 14:23:28.42	171.13	59.39	-35.0	-35.8	22.3	0.00e+00	0	39	0	2061500416	40	3951
2026-01-24 14:23:29.42	171.27	59.79	-35.1	-36.0	22.1	0.00e+00	0	39	0	2068840448	40	4043
2026-01-24 14:23:30.41	171.40	60.19	-34.7	-35.6	22.4	0.00e+00	0	39	0	2076180480	40	3846
2026-01-24 14:23:31.41	171.55	60.60	-35.0	-35.9	22.2	0.00e+00	0	39	0	2083520512	40	3984
2026-01-24 14:23:32.40	171.69	61.01	-34.6	-35.4	22.6	0.00e+00	0	39	0	2090860544	40	3773
2026-01-24 14:23:33.40	171.84	61.42	-34.5	-35.3	22.8	0.00e+00	0	39	0	2097152000	39	3935
2026-01-24 14:23:34.39	172.00	61.83	-34.4	-35.3	22.8	0.00e+00	0	39	0	2104492032	39	3924
2026-01-24 14:23:35.39	172.16	62.25	-34.2	-35.0	23.1	0.00e+00	0	39	0	2111832064	38	4040
2026-01-24 14:23:36.38	172.33	62.66	-34.8	-35.6	22.5	0.00e+00	0	39	0	2119172096	39	4088
2026-01-24 14:23:37.37	172.50	63.08	-34.5	-35.4	22.8	0.00e+00	0	39	0	2126512128	39	3975
2026-01-24 14:23:38.37	172.68	63.50	-34.3	-35.2	22.9	0.00e+00	0	39	0	2133852160	39	3894
2026-01-24 14:23:39.36	172.87	63.92	-34.1	-35.0	23.1	0.00e+00	0	39	0	2140143616	38	4023
2026-01-24 14:23:40.36	173.06	64.35	-33.9	-34.7	23.2	0.00e+00	0	39	0	2147483648	38	3912
2026-01-24 14:23:41.35	173.26	64.78	-33.8	-34.7	23.4	0.00e+00	0	39	0	2154823680	37	4107
2026-01-24 14:23:42.35	173.47	65.21	-33.8	-34.6	23.4	0.00e+00	0	39	0	2162163712	37	4076
2026-01-24 14:23:43.34	173.68	65.64	-33.9	-34.7	23.3	0.00e+00	0	39	0	2169503744	37	4117
2026-01-24 14:23:44.34	173.91	66.08	-33.9	-34.8	23.3	0.00e+00	0	39	0	2176843776	37	4152
2026-01-24 14:23:45.33	174.14	66.52	-33.7	-34.5	23.5	0.00e+00	0	39	0	2183135232	37	4035
2026-01-24 14:23:46.33	174.38	66.96	-33.5	-34.3	23.0	0.00e+00	0	39	0	2190475264	37	3941
2026-01-24 14:23:47.32	174.63	67.40	-33.8	-34.6	23.5	0.00e+00	0	39	0	2197815296	37	4061
2026-01-24 14:23:48.32	174.90	67.84	-33.8	-34.6	23.4	0.00e+00	0	39	0	2205155328	37	4079
2026-01-24 14:23:49.31	175.17	68.28	-33.7	-34.5	23.5	0.00e+00	0	39	0	2212495360	37	4049
2026-01-24 14:23:50.31	175.46	68.73	-33.9	-34.8	23.3	0.00e+00	0	39	0	2219835392	37	4149
2026-01-24 14:23:51.30	175.76	69.18	-34.2	-35.1	22.9	0.00e+00	0	39	0	2227175424	37	4304
2026-01-24 14:23:52.30	176.08	69.63	-34.2	-35.0	23.1	0.00e+00	0	39	0	2233466880	38	4045
2026-01-24 14:23:53.29	176.40	70.08	-34.1	-34.9	23.1	0.00e+00	0	39	0	2240806912	38	4002
2026-01-24 14:23:54.29	176.75	70.53	-34.0	-34.8	23.2	0.00e+00	0	39	0	2248146944	38	3948
2026-01-24 14:23:55.28	177.11	70.99	-34.1	-34.9	23.2	0.00e+00	0	39	0	2255486976	38	3984
2026-01-24 14:23:56.28	177.50	71.44	-34.1	-34.9	23.2	0.00e+00	0	39	0	2262827008	38	3982
2026-01-24 14:23:57.27	177.90	71.90	-34.0	-34.8	23.2	0.00e+00	0	39	0	2270167040	38	3930
2026-01-24 14:23:58.27	178.33	72.36	-33.8	-34.6	23.5	0.00e+00	0	39	0	2277507072	38	3835
2026-01-24 14:23:59.27	178.78	72.82	-33.7	-34.5	23.5	0.00e+00	0	39	0	2283798528	37	4033
2026-01-24 14:24:00.26	179.25	73.28	-33.8	-34.6	23.4	0.00e+00	0	39	0	2291138560	37	4079
2026-01-24 14:24:01.26	179.75	73.74	-34.1	-35.0	23.0	0.00e+00	0	39	0	2298478592	37	4258
2026-01-24 14:24:02.25	180.28	74.20	-34.2	-35.0	23.0	0.00e+00	0	39	0	2305818624	38	4046
2026-01-24 14:24:03.25	180.85	74.66	-33.8	-34.6	23.5	0.00e+00	0	39	0	2313158656	38	3841
2026-01-24 14:24:04.24	181.45	75.12	-33.4	-34.2	23.7	0.00e+00	0	39	0	2320498688	37	3895
2026-01-24 14:24:05.23	182.09	75.58	-33.1	-33.9	24.0	0.00e+00	0	39	0	2326790144	36	3973
2026-01-24 14:24:06.23	182.77	76.04	-32.9	-33.8	24.2	0.00e+00	0	39	0	2334130176	36	3914
2026-01-24 14:24:07.23	183.51	76.50	-33.1	-33.9	24.0	0.00e+00	0	39	0	2341470208	36	3960
2026-01-24 14:24:08.22	184.29	76.96	-33.0	-33.8	24.1	0.00e+00	0	39	0	2348810240	36	3934
2026-01-24 14:24:09.21	185.13	77.42	-32.8	-33.6	24.3	0.00e+00	0	39	0	2356150272	36	3850
2026-01-24 14:24:10.21	186.05	77.87	-31.5	-32.3	24.4	0.00e+00	0	39	0	2363490304	33	3919
2026-01-24 14:24:11.20	187.03	78.33	-31.4	-32.2	24.5	0.00e+00	0	39	0	2370830336	33	3881
2026-01-24 14:24:12.20	188.10	78.78	-31.6	-32.4	24.3	0.00e+00	0	39	0	2377121792	33	3976
2026-01-24 14:24:13.19	189.24	79.23	-31.5	-32.3	24.4	0.00e+00	0	39	0	2384461824	33	3918
2026-01-24 14:24:14.18	190.49	79.67	-31.4	-32.2	24.5	0.00e+00	0	39	0	2391801856	33	3887
2026-01-24 14:24:15.18	191.87	80.12	-31.4	-32.2	24.5	0.00e+00	0	39	0	2399141888	33	3889
2026-01-24 14:24:16.17	193.36	80.55	-31.3	-32.0	24.6	0.00e+00	0	39	0	2406481920	33	3822
2026-01-24 14:24:17.16	195.00	80.98	-31.1	-31.9	24.7	0.00e+00	0	39	0	2413821952	33	3766
2026-01-24 14:24:18.16	196.82	81.40	-31.5	-32.3	24.3	0.00e+00	0	39	0	2421161984	33	3936
2026-01-24 14:24:19.15	198.81	81.82	-31.7	-32.5	24.3	0.00e+00	0	39	0	2427453440	33	4015
2026-01-24 14:24:20.15	201.03	82.22	-31.6	-32.4	24.3	0.00e+00	0	39	0	2434793472	33	3969
2026-01-24 14:24:21.14	203.47	82.61	-31.5	-32.3	24.4	0.00e+00	0	39	0	2442133504	33	3935
2026-01-24 14:24:22.14	206.20	82.99	-31.5	-32.3	24.4	0.00e+00	0	39	0	2449473536	33	3914
2026-01-24 14:24:23.13	209.22	83.35	-31.3	-32.1	24.5	0.00e+00	0	39	0	2456813568	33	3859
2026-01-24 14:24:24.13	212.60	83.70	-31.5	-32.3	24.4	0.00e+00	0	39	0	2464153600	33	3941
2026-01-24 14:24:25.12	216.33	84.01	-31.6	-32.4	24.3	0.00e+00	0	39	0	2470445056	33	3968
2026-01-24 14:24:26.12	220.49	84.30	-31.7	-32.5	24.3	0.00e+00	0	39	0	2477785088	33	4006
2026-01-24 14:24:27.11	225.03	84.56	-31.8	-32.6	24.1	0.00e+00	0	39	0	2485125120	33	4070
2026-01-24 14:24:28.11	230.04	84.78	-31.9	-32.7	23.9	0.00e+00	0	39	0	2492465152	33	4123
2026-01-24 14:24:29.10	235.39	84.96	-32.0	-32.8	23.9	0.00e+00	0	39	0	2499805184	33	4169
2026-01-24 14:24:30.10	241.14	85.09	-32.0	-32.8	23.9	0.00e+00	0	39	0	2506096640	33	4182
2026-01-24 14:24:31.09	247.08	85.17	-32.0	-32.9	23.9	0.00e+00	0	39	0	2513436672	33	4200
2026-01-24 14:24:32.09	253.21	85.19	-32.0	-32.8	23.9	0.00e+00	0	39	0	2520776704	33	4185
2026-01-24 14:24:33.08	259.27	85.16	-32.1	-32.9	23.9	0.00e+00	0	39	0	2528116736	33	4226
2026-01-24 14:24:34.08	265.26	85.08	-31.9	-32.8	24.0	0.00e+00	0	39	0	2535456768	33	4151
2026-01-24 14:24:35.07	270.93	84.95	-31.7	-32.5	24.2	0.00e+00	0	39	0	2542796800	33	4035
2026-01-24 14:24:36.07	276.32	84.77	-31.9	-32.7	24.0	0.00e+00	0	39	0	2550136832	33	4139
2026-01-24 14:24:37.06	281.25	84.55	-32.3	-33.1	23.7	0.00e+00	0	39	0	2557476864	34	4075
2026-01-24 14:24:38.06	285.82	84.29	-32.4	-33.2	23.6	0.00e+00	0	39	0	2564816896	34	4110
2026-01-24 14:24:39.05	289.92	84.00	-32.4	-33.2	23.5	0.00e+00	0	39	0	2571108352	34	4142
2026-01-24 14:24:40.05	293.66	83.68	-32.2	-33.0	23.7	0.00e+00	0	39	0	2578448384	34	4026
2026-01-24 14:24:41.04	296.99	83.34	-31.8	-32.6	24.2	0.00e+00	0	39	0	2585788416	34	3841
2026-01-24 14:24:42.03	299.99	82.98	-31.5	-32.3	24.3	0.00e+00	0	39	0	2593128448	33	3940
2026-01-24 14:24:43.03	302.71	82.60	-31.6	-32.4	24.3	0.00e+00	0	39	0	2600468480	33	3986
2026-01-24 14:24:44.02	305.14	82.21	-31.8	-32.6	24.1	0.00e+00	0	39	0	2607808512	33	4067
2026-01-24 14:24:45.02	307.35	81.80	-31.8	-32.6	24.1	0.00e+00	0	39	0	2614099968	33	4084
2026-01-24 14:24:46.02	309.35	81.38	-31.5	-32.3	24.4	0.00e+00	0	39	0	2621440000	33	3939
2026-01-24 14:24:47.01	311.14	80.96	-31.5	-32.3	24.3	0.00e+00	0	39	0	2628780032	33	3943
2026-01-24 14:24:48.00	312.77	80.53	-31.3	-32.1	24.5	0.00e+00	0	39	0	2636120064	33	3842
2026-01-24 14:24:49.00	314.27	80.09	-31.2	-32.0	24.6	0.00e+00	0	39	0	2643460096	33	3804
2026-01-24 14:24:49.99	315.62	79.66	-31.3	-32.1	24.5	0.00e+00	0	39	0	2649751552	33	3834
2026-01-24 14:24:50.99	316.88	79.21	-31.2	-32.0	24.6	0.00e+00	0	39	0	2657091584	33	3801
2026-01-24 14:24:51.98	318.02	78.76	-31.0	-31.8	24.8	0.00e+00	0	39	0	2664431616	32	3934
2026-01-24 14:24:52.97	319.08	78.31	-31.1	-31.8	24.8	0.00e+00	0	39	0	2671771648	32	3957
2026-01-24 14:24:53.97	320.06	77.85	-31.2	-32.0	24.6	0.00e+00	0	39	0	2679111680	32	4025
2026-01-24 14:24:54.96	320.96	77.40	-31.6	-32.4	24.3	0.00e+00	0	39	0	2686451712	32	4203
2026-01-24 14:24:55.96	321.81	76.94	-31.6	-32.4	24.2	0.00e+00	0	39	0	2693791744	33	3978
2026-01-24 14:24:56.95	322.59	76.48	-31.7	-32.5	24.2	0.00e+00	0	39	0	2701131776	33	4030
2026-01-24 14:24:57.95	323.32	76.02	-32.1	-33.0	23.7	0.00e+00	0	39	0	2707423232	33	4246
2026-01-24 14:24:58.94	324.00	75.56	-32.5	-33.3	23.6	0.00e+00	0	39	0	2714763264	34	4164
2026-01-24 14:24:59.94	324.64	75.10	-32.6	-33.4	23.5	0.00e+00	0	39	0	2722103296	34	4226
2026-01-24 14:25:00.93	325.24	74.64	-32.6	-33.4	23.4	0.00e+00	0	39	0	2729443328	34	4222
2026-01-24 14:25:01.93	325.80	74.18	-32.8	-33.7	23.2	0.00e+00	0	39	0	2736783360	35	4109
2026-01-24 14:25:02.92	326.33	73.72	-33.1	-33.9	23.0	0.00e+00	0	39	0	2744123392	35	4238
2026-01-24 14:25:03.92	326.84	73.26	-33.2	-34.1	22.9	0.00e+00	0	39	0	2751463424	35	4300
2026-01-24 14:25:04.91	327.31	72.81	-34.3	-35.1	22.8	0.00e+00	0	39	0	2757754880	37	4320
2026-01-24 14:25:05.91	327.75	72.35	-34.0	-34.8	23.2	0.00e+00	0	39	0	2765094912	37	4181
2026-01-24 14:25:06.90	328.18	71.89	-34.1	-35.0	23.2	0.00e+00	0	39	0	2772434944	37	4243
2026-01-24 14:25:07.90	328.58	71.43	-34.2	-35.0	23.1	0.00e+00	0	39	0	2779774976	37	4265
2026-01-24 14:25:08.89	328.96	70.98	-34.3	-35.2	23.0	0.00e+00	0	39	0	2787115008	38	4112
2026-01-24 14:25:09.89	329.32	70.53	-34.2	-35.0	23.1	0.00e+00	0	39	0	2793406464	38	4040
2026-01-24 14:25:10.88	329.67	70.08	-34.1	-34.9	23.2	0.00e+00	0	39	0	2800746496	38	3977
2026-01-24 14:25:11.88	330.00	69.62	-34.0	-34.8	23.2	0.00e+00	0	39	0	2808086528	38	3944
2026-01-24 14:25:12.87	330.31	69.18	-34.0	-34.9	23.3	0.00e+00	0	39	0	2815426560	38	3962
2026-01-24 14:25:13.87	330.61	68.73	-33.9	-34.7	23.4	0.00e+00	0	39	0	2822766592	38	3884
2026-01-24 14:25:14.86	330.90	68.28	-33.7	-34.5	23.5	0.00e+00	0	39	0	2830106624	38	3808
2026-01-24 14:25:15.86	331.17	67.84	-33.6	-34.4	23.6	0.00e+00	0	39	0	2837446656	37	3980
2026-01-24 14:25:16.85	331.43	67.40	-33.6	-34.4	23.6	0.00e+00	0	39	0	2843738112	37	3996
2026-01-24 14:25:17.84	331.69	66.96	-33.6	-34.4	23.6	0.00e+00	0	39	0	2851078144	37	3973
2026-01-24 14:25:18.84	331.93	66.52	-33.6	-34.5	23.6	0.00e+00	0	39	0	2858418176	37	4005
2026-01-24 14:25:19.84	332.16	66.08	-33.8	-34.6	23.5	0.00e+00	0	39	0	2865758208	37	4065
2026-01-24 14:25:20.83	332.39	65.65	-33.8	-34.7	23.4	0.00e+00	0	39	0	2873098240	37	4103
2026-01-24 14:25:21.82	332.60	65.22	-33.9	-34.7	23.4	0.00e+00	0	39	0	2880438272	37	4115
2026-01-24 14:25:22.82	332.81	64.79	-34.1	-35.0	23.1	0.00e+00	0	39	0	2887778304	37	4265
2026-01-24 14:25:23.81	333.01	64.37	-34.2	-35.0	23.1	0.00e+00	0	39	0	2895118336	37	4269
2026-01-24 14:25:24.81	333.20	63.94	-34.3	-35.2	23.0	0.00e+00	0	39	0	2901409792	38	4102
2026-01-24 14:25:25.80	333.38	63.52	-34.3	-35.1	23.0	0.00e+00	0	39	0	2908749824	38	4089
2026-01-24 14:25:26.80	333.56	63.09	-34.2	-35.1	23.1	0.00e+00	0	39	0	2916089856	38	4054
2026-01-24 14:25:27.79	333.74	62.68	-34.4	-35.2	22.8	0.00e+00	0	39	0	2923429888	38	4138
2026-01-24 14:25:28.79	333.90	62.26	-34.7	-35.5	22.6	0.00e+00	0	39	0	2930769920	38	4275
2026-01-24 14:25:29.78	334.07	61.85	-35.0	-35.8	22.4	0.00e+00	0	39	0	2937061376	39	4192
2026-01-24 14:25:30.78	334.22	61.43	-35.1	-36.0	22.2	0.00e+00	0	39	0	2944401408	40	4019
2026-01-24 14:25:31.77	334.37	61.03	-35.3	-36.2	21.9	0.00e+00	0	39	0	2951741440	40	4127
2026-01-24 14:25:32.77	334.52	60.62	-35.6	-36.5	21.5	0.00e+00	0	39	0	2959081472	40	4253
2026-01-24 14:25:33.76	334.66	60.22	-35.7	-36.6	21.5	0.00e+00	0	39	0	2966421504	40	4333
2026-01-24 14:25:34.76	334.80	59.81	-35.6	-36.5	21.7	0.00e+00	0	39	0	2973761536	40	4290
2026-01-24 14:25:35.75	334.93	59.41	-35.4	-36.3	21.8	0.00e+00	0	39	0	2981101568	40	4165
2026-01-24 14:25:36.75	335.07	59.02	-35.2	-36.1	22.0	0.00e+00	0	39	0	2987393024	40	4095
2026-01-24 14:25:37.74	335.19	58.62	-35.2	-36.1	22.0	0.00e+00	0	39	0	2994733056	40	4073
2026-01-24 14:25:38.74	335.31	58.23	-35.2	-36.1	22.1	0.00e+00	0	39	0	3002073088	40	4074
2026-01-24 14:25:39.74	335.43	57.84	-35.2	-36.1	22.1	0.00e+00	0	39	0	3009413120	40	4072
2026-01-24 14:25:40.73	335.55	57.45	-35.2	-36.1	22.1	0.00e+00	0	39	0	3016753152	40	4062
2026-01-24 14:25:41.73	335.66	57.07	-35.2	-36.1	22.0	0.00e+00	0	39	0	3024093184	40	4057
2026-01-24 14:25:42.72	335.77	56.69	-35.2	-36.1	22.1	0.00e+00	0	39	0	3031433216	40	4061
2026-01-24 14:25:43.72	335.88	56.30	-35.3	-36.2	22.0	0.00e+00	0	39	0	3038773248	40	4111
2026-01-24 14:25:44.72	335.98	55.93	-35.3	-36.2	21.9	0.00e+00	0	39	0	3045064704	40	4118
2026-01-24 14:25:45.71	336.09	55.55	-35.2	-36.1	22.1	0.00e+00	0	39	0	3052404736	40	4067
2026-01-24 14:25:46.71	336.18	55.18	-34.9	-35.8	22.2	0.00e+00	0	39	0	3059744768	40	3938
2026-01-24 14:25:47.70	336.28	54.81	-35.0	-35.9	22.2	0.00e+00	0	39	0	3067084800	40	3963
2026-01-24 14:25:48.70	336.38	54.44	-35.0	-35.9	21.9	0.00e+00	0	39	0	3074424832	40	3981
2026-01-24 14:25:49.70	336.47	54.08	-35.0	-35.8	22.3	0.00e+00	0	38	0	3080716288	40	3950
2026-01-24 14:25:50.69	336.56	53.72	-34.9	-35.8	22.3	0.00e+00	0	38	0	3088056320	40	3936
2026-01-24 14:25:51.69	336.64	53.36	-35.1	-36.0	21.7	0.00e+00	0	38	0	3095396352	40	4024
2026-01-24 14:25:52.68	336.73	53.00	-35.2	-36.0	22.0	0.00e+00	0	38	0	3102736384	40	4042
2026-01-24 14:25:53.68	336.81	52.64	-35.2	-36.0	22.0	0.00e+00	0	39	0	3110076416	40	4039
2026-01-24 14:25:54.67	336.89	52.29	-35.0	-35.9	22.2	0.00e+00	0	39	0	3117416448	40	3976
2026-01-24 14:25:55.67	336.97	51.94	-35.0	-35.9	22.3	0.00e+00	0	39	0	3124756480	40	3965
2026-01-24 14:25:56.66	337.05	51.60	-35.1	-36.0	22.2	0.00e+00	0	39	0	3132096512	40	4016
2026-01-24 14:25:57.66	337.13	51.25	-35.1	-36.0	22.2	0.00e+00	0	39	0	3139436544	40	4012
2026-01-24 14:25:58.65	337.20	50.91	-35.2	-36.1	22.0	0.00e+00	0	38	0	3145728000	40	4064
2026-01-24 14:25:59.65	337.28	50.57	-35.1	-36.0	22.1	0.00e+00	0	39	0	3153068032	40	4044
2026-01-24 14:26:00.64	337.35	50.24	-35.2	-36.0	22.1	0.00e+00	0	39	0	3160408064	40	4050
2026-01-24 14:26:01.64	337.42	49.90	-35.2	-36.1	22.1	0.00e+00	0	39	0	3167748096	40	4062
2026-01-24 14:26:02.63	337.49	49.57	-34.8	-35.7	22.3	0.00e+00	0	39	0	3175088128	40	3883
2026-01-24 14:26:03.63	337.55	49.24	-34.8	-35.6	22.3	0.00e+00	0	39	0	3182428160	40	3862
2026-01-24 14:26:04.62	337.62	48.91	-34.7	-35.6	22.5	0.00e+00	0	39	0	3188719616	40	3842
2026-01-24 14:26:05.61	337.68	48.59	-34.6	-35.5	22.6	0.00e+00	0	39	0	3196059648	40	3788
2026-01-24 14:26:06.61	337.75	48.26	-34.6	-35.5	22.7	0.00e+00	0	39	0	3203399680	39	4009
2026-01-24 14:26:07.60	337.81	47.94	-34.5	-35.4	22.5	0.00e+00	0	39	0	3210739712	39	3987
2026-01-24 14:26:08.60	337.87	47.63	-34.7	-35.6	22.6	0.00e+00	0	39	0	3218079744	39	4054
2026-01-24 14:26:09.60	337.93	47.31	-34.6	-35.5	22.5	0.00e+00	0	39	0	3224371200	39	4025
2026-01-24 14:26:10.59	337.99	47.00	-34.5	-35.4	22.7	0.00e+00	0	39	0	3231711232	39	3980
2026-01-24 14:26:11.59	338.05	46.68	-34.6	-35.4	22.7	0.00e+00	0	39	0	3239051264	39	3995
2026-01-24 14:26:12.58	338.10	46.38	-34.7	-35.5	22.4	0.00e+00	0	39	0	3246391296	39	4023
2026-01-24 14:26:13.58	338.16	46.07	-34.4	-35.2	22.8	0.00e+00	0	39	0	3253731328	39	3909
2026-01-24 14:26:14.57	338.21	45.77	-34.2	-35.0	23.1	0.00e+00	0	39	0	3261071360	39	3815
2026-01-24 14:26:15.57	338.27	45.46	-34.0	-34.8	23.2	0.00e+00	0	39	0	3268411392	38	3953
2026-01-24 14:26:16.56	338.32	45.16	-33.8	-34.6	23.5	0.00e+00	0	39	0	3275751424	38	3856
2026-01-24 14:26:17.56	338.37	44.87	-33.8	-34.6	23.4	0.00e+00	0	39	0	3283091456	38	3866
2026-01-24 14:26:18.56	338.42	44.57	-33.7	-34.5	23.6	0.00e+00	0	39	0	3289382912	38	3794
2026-01-24 14:26:19.55	338.47	44.28	-33.7	-34.5	23.5	0.00e+00	0	39	0	3296722944	38	3820
2026-01-24 14:26:20.55	338.52	43.98	-33.8	-34.6	23.4	0.00e+00	0	39	0	3304062976	38	3855
2026-01-24 14:26:21.55	338.57	43.69	-33.8	-34.7	23.4	0.00e+00	0	39	0	3311403008	38	3880
2026-01-24 14:26:22.54	338.61	43.41	-33.9	-34.8	23.3	0.00e+00	0	39	0	3318743040	38	3915
2026-01-24 14:26:23.53	338.66	43.13	-34.0	-34.8	23.1	0.00e+00	0	39	0	3325034496	38	3946
2026-01-24 14:26:24.53	338.71	42.84	-34.0	-34.9	23.2	0.00e+00	0	39	0	3332374528	38	3973
2026-01-24 14:26:25.52	338.75	42.56	-34.0	-34.8	23.3	0.00e+00	0	39	0	3339714560	38	3943
2026-01-24 14:26:26.52	338.80	42.28	-34.0	-34.8	23.2	0.00e+00	0	39	0	3347054592	38	3936
2026-01-24 14:26:27.52	338.84	42.01	-34.0	-34.8	23.2	0.00e+00	0	39	0	3354394624	38	3952
2026-01-24 14:26:28.51	338.88	41.73	-34.0	-34.8	23.3	0.00e+00	0	39	0	3361734656	38	3938
2026-01-24 14:26:29.50	338.93	41.46	-33.9	-34.7	23.3	0.00e+00	0	39	0	3369074688	38	3902
2026-01-24 14:26:30.50	338.97	41.19	-33.9	-34.8	23.3	0.00e+00	0	39	0	3375366144	38	3919
2026-01-24 14:26:31.49	339.01	40.93	-33.9	-34.7	23.4	0.00e+00	0	39	0	3382706176	38	3896
2026-01-24 14:26:32.49	339.05	40.66	-34.1	-35.0	23.1	0.00e+00	0	39	0	3390046208	38	4005
2026-01-24 14:26:33.48	339.09	40.40	-34.1	-34.9	23.2	0.00e+00	0	39	0	3397386240	38	3987
2026-01-24 14:26:34.48	339.13	40.13	-34.2	-35.1	22.1	0.00e+00	0	39	0	3404726272	38	4063
2026-01-24 14:26:35.47	339.17	39.87	-34.3	-35.2	22.9	0.00e+00	0	39	0	3412066304	38	4108
2026-01-24 14:26:36.47	339.21	39.61	-34.2	-35.1	23.0	0.00e+00	0	39	0	3419406336	38	4068
2026-01-24 14:26:37.46	339.24	39.36	-34.3	-35.2	22.9	0.00e+00	0	39	0	3426746368	38	4118
2026-01-24 14:26:38.46	339.28	39.10	-34.4	-35.2	22.9	0.00e+00	0	39	0	3433037824	38	4135
2026-01-24 14:26:39.45	339.32	38.85	-34.2	-35.0	23.0	0.00e+00	0	39	0	3440377856	38	4043
2026-01-24 14:26:40.45	339.35	38.60	-34.2	-35.1	23.0	0.00e+00	0	39	0	3447717888	38	4052
2026-01-24 14:26:41.44	339.39	38.35	-33.9	-34.7	23.4	0.00e+00	0	39	0	3455057920	38	3879
2026-01-24 14:26:42.43	339.42	38.11	-33.7	-34.5	23.5	0.00e+00	0	39	0	3462397952	38	3824
2026-01-24 14:26:43.43	339.46	37.86	-33.4	-34.2	23.7	0.00e+00	0	39	0	3468689408	37	3907
2026-01-24 14:26:44.42	339.49	37.62	-33.4	-34.2	23.8	0.00e+00	0	39	0	3476029440	37	3891
2026-01-24 14:26:45.42	339.53	37.37	-33.4	-34.2	23.8	0.00e+00	0	39	0	3483369472	37	3891
2026-01-24 14:26:46.41	339.56	37.13	-33.4	-34.2	23.7	0.00e+00	0	39	0	3490709504	37	3903
2026-01-24 14:26:47.41	339.59	36.90	-33.4	-34.2	23.7	0.00e+00	0	39	0	3498049536	37	3913
2026-01-24 14:26:48.41	339.63	36.66	-33.5	-34.3	23.6	0.00e+00	0	39	0	3505389568	37	3947
2026-01-24 14:26:49.40	339.66	36.42	-33.5	-34.3	23.5	0.00e+00	0	39	0	3512729600	37	3956
2026-01-24 14:26:50.40	339.69	36.19	-33.5	-34.3	23.6	0.00e+00	0	39	0	3519021056	37	3945
2026-01-24 14:26:51.39	339.72	35.96	-33.5	-34.3	23.6	0.00e+00	0	39	0	3526361088	37	3942
2026-01-24 14:26:52.39	339.75	35.73	-33.5	-34.3	23.6	0.00e+00	0	39	0	3533701120	37	3951
2026-01-24 14:26:53.38	339.78	35.50	-33.5	-34.4	23.6	0.00e+00	0	39	0	3541041152	37	3978
2026-01-24 14:26:54.38	339.81	35.27	-33.5	-34.3	23.6	0.00e+00	0	39	0	3548381184	37	3953
2026-01-24 14:26:55.38	339.84	35.05	-33.5	-34.4	23.5	0.00e+00	0	39	0	3555721216	37	3972
2026-01-24 14:26:56.37	339.87	34.82	-33.6	-34.4	23.5	0.00e+00	0	39	0	3563061248	37	3999
2026-01-24 14:26:57.37	339.90	34.60	-33.5	-34.3	23.6	0.00e+00	0	39	0	3570401280	37	3932
2026-01-24 14:26:58.36	339.93	34.38	-33.5	-34.3	23.6	0.00e+00	0	39	0	3576692736	37	3958
2026-01-24 14:26:59.36	339.96	34.16	-33.4	-34.3	23.7	0.00e+00	0	39	0	3584032768	37	3917
2026-01-24 14:27:00.35	339.99	33.95	-33.4	-34.2	23.7	0.00e+00	0	39	0	3591372800	37	3907
2026-01-24 14:27:01.35	340.01	33.73	-33.2	-34.1	23.8	0.00e+00	0	39	0	3598712832	37	3829
2026-01-24 14:27:02.34	340.04	33.52	-33.2	-34.0	23.8	0.00e+00	0	39	0	3606052864	37	3813
2026-01-24 14:27:03.34	340.07	33.30	-33.2	-34.0	23.8	0.00e+00	0	39	0	3612344320	37	3824
2026-01-24 14:27:04.33	340.09	33.09	-33.4	-34.2	23.6	0.00e+00	0	39	0	3619684352	37	3891
2026-01-24 14:27:05.32	340.12	32.88	-33.3	-34.1	23.7	0.00e+00	0	39	0	3627024384	37	3855
2026-01-24 14:27:06.32	340.15	32.68	-33.3	-34.1	23.8	0.00e+00	0	39	0	3634364416	37	3866
2026-01-24 14:27:07.31	340.17	32.47	-33.4	-34.2	23.7	0.00e+00	0	39	0	3641704448	37	3888
2026-01-24 14:27:08.31	340.20	32.26	-33.4	-34.2	23.7	0.00e+00	0	39	0	3649044480	37	3897
2026-01-24 14:27:09.31	340.22	32.06	-33.5	-34.3	23.6	0.00e+00	0	39	0	3656384512	37	3944
2026-01-24 14:27:10.30	340.25	31.86	-33.4	-34.3	23.6	0.00e+00	0	39	0	3662675968	37	3931
2026-01-24 14:27:11.29	340.27	31.66	-33.5	-34.3	23.6	0.00e+00	0	39	0	3670016000	37	3948
2026-01-24 14:27:12.29	340.30	31.46	-33.6	-34.5	23.5	0.00e+00	0	39	0	3677356032	37	4014
2026-01-24 14:27:13.28	340.32	31.26	-33.7	-34.6	23.4	0.00e+00	0	39	0	3684696064	37	4059
2026-01-24 14:27:14.28	340.35	31.06	-33.7	-34.5	23.5	0.00e+00	0	39	0	3692036096	37	4043
2026-01-24 14:27:15.27	340.37	30.86	-33.7	-34.6	23.4	0.00e+00	0	39	0	3699376128	37	4057
2026-01-24 14:27:16.27	340.40	30.67	-33.9	-34.7	23.3	0.00e+00	0	39	0	3706716160	37	4123
2026-01-24 14:27:17.26	340.42	30.48	-33.9	-34.7	23.3	0.00e+00	0	39	0	3714056192	37	4126
2026-01-24 14:27:18.26	340.44	30.28	-33.9	-34.8	23.2	0.00e+00	0	39	0	3720347648	37	4156
2026-01-24 14:27:19.25	340.46	30.09	-34.0	-34.9	23.1	0.00e+00	0	39	0	3727687680	37	4221
2026-01-24 14:27:20.25	340.49	29.90	-34.0	-34.9	23.1	0.00e+00	0	39	0	3735027712	37	4198
2026-01-24 14:27:21.24	340.51	29.72	-34.0	-34.9	23.1	0.00e+00	0	39	0	3742367744	37	4207
2026-01-24 14:27:22.24	340.53	29.53	-34.2	-35.0	23.0	0.00e+00	0	39	0	3749707776	37	4286
2026-01-24 14:27:23.23	340.55	29.34	-34.1	-35.0	23.0	0.00e+00	0	39	0	3755999232	37	4271
2026-01-24 14:27:24.23	340.58	29.16	-34.0	-34.9	23.1	0.00e+00	0	39	0	3763339264	37	4207
2026-01-24 14:27:25.22	340.60	28.98	-34.2	-35.0	22.7	0.00e+00	0	39	0	3770679296	37	4279
2026-01-24 14:27:26.22	340.62	28.79	-34.2	-35.0	23.0	0.00e+00	0	38	0	3778019328	37	4278
2026-01-24 14:27:27.22	340.64	28.61	-34.2	-35.0	23.0	0.00e+00	0	39	0	3785359360	37	4271
2026-01-24 14:27:28.21	340.66	28.43	-34.3	-35.2	22.8	0.00e+00	0	39	0	3792699392	38	4101
2026-01-24 14:27:29.21	340.68	28.25	-34.2	-35.1	23.0	0.00e+00	0	39	0	3800039424	38	4057
2026-01-24 14:27:30.21	340.70	28.08	-34.1	-35.0	23.0	0.00e+00	0	39	0	3807379456	38	4030
2026-01-24 14:27:31.20	340.72	27.90	-34.2	-35.1	22.9	0.00e+00	0	39	0	3814719488	38	4073
2026-01-24 14:27:32.19	340.74	27.73	-34.2	-35.1	22.8	0.00e+00	0	39	0	3821010944	38	4096
2026-01-24 14:27:33.19	340.76	27.55	-34.1	-35.0	23.0	0.00e+00	0	39	0	3828350976	38	4026
2026-01-24 14:27:34.18	340.78	27.38	-34.2	-35.1	22.9	0.00e+00	0	39	0	3835691008	38	4053
2026-01-24 14:27:35.18	340.80	27.21	-34.2	-35.1	22.9	0.00e+00	0	39	0	3843031040	38	4084
2026-01-24 14:27:36.17	340.82	27.04	-34.2	-35.1	23.0	0.00e+00	0	39	0	3850371072	38	4056
2026-01-24 14:27:37.17	340.84	26.87	-34.1	-35.0	23.0	0.00e+00	0	39	0	3857711104	38	4019
2026-01-24 14:27:38.16	340.86	26.70	-34.1	-34.9	23.1	0.00e+00	0	39	0	3864002560	38	3984
2026-01-24 14:27:39.16	340.88	26.53	-34.1	-34.9	23.1	0.00e+00	0	39	0	3871342592	38	3984
2026-01-24 14:27:40.15	340.90	26.36	-34.0	-34.9	23.1	0.00e+00	0	39	0	3878682624	38	3959
2026-01-24 14:27:41.15	340.92	26.20	-34.0	-34.9	23.1	0.00e+00	0	39	0	3886022656	38	3978
2026-01-24 14:27:42.14	340.94	26.03	-33.9	-34.8	23.2	0.00e+00	0	39	0	3893362688	38	3934
2026-01-24 14:27:43.14	340.96	25.87	-34.0	-34.9	23.1	0.00e+00	0	39	0	3899654144	38	3962
2026-01-24 14:27:44.13	340.97	25.71	-33.9	-34.8	23.2	0.00e+00	0	39	0	3906994176	38	3933
2026-01-24 14:27:45.12	340.99	25.55	-33.9	-34.8	23.2	0.00e+00	0	39	0	3914334208	38	3924
2026-01-24 14:27:46.12	341.01	25.39	-33.9	-34.7	22.9	0.00e+00	0	39	0	3921674240	38	3906
2026-01-24 14:27:47.11	341.03	25.23	-33.9	-34.8	23.1	0.00e+00	0	39	0	3929014272	38	3935
2026-01-24 14:27:48.11	341.05	25.07	-33.9	-34.7	23.2	0.00e+00	0	39	0	3936354304	38	3910
2026-01-24 14:27:49.10	341.06	24.91	-33.9	-34.7	23.2	0.00e+00	0	39	0	3943694336	38	3899
2026-01-24 14:27:50.10	341.08	24.75	-34.0	-34.8	23.0	0.00e+00	0	39	0	3949985792	38	3958
2026-01-24 14:27:51.09	341.10	24.60	-34.0	-34.9	23.1	0.00e+00	0	38	0	3957325824	38	3970
2026-01-24 14:27:52.08	341.12	24.44	-34.0	-34.9	23.0	0.00e+00	0	39	0	3964665856	38	3959
2026-01-24 14:27:53.08	341.13	24.29	-33.9	-34.8	23.2	0.00e+00	0	39	0	3972005888	38	3924
2026-01-24 14:27:54.08	341.15	24.14	-33.9	-34.8	23.2	0.00e+00	0	39	0	3979345920	38	3930
2026-01-24 14:27:55.07	341.17	23.98	-33.9	-34.8	23.1	0.00e+00	0	39	0	3986685952	38	3931
2026-01-24 14:27:56.06	341.18	23.83	-34.0	-34.8	23.1	0.00e+00	0	39	0	3994025984	38	3950
2026-01-24 14:27:57.06	341.20	23.68	-34.0	-34.9	23.0	0.00e+00	0	39	0	4001366016	38	3972
2026-01-24 14:27:58.05	341.22	23.53	-34.0	-34.9	23.0	0.00e+00	0	38	0	4007657472	38	3973
2026-01-24 14:27:59.05	341.23	23.38	-34.0	-34.9	23.1	0.00e+00	0	38	0	4014997504	38	3964
2026-01-24 14:28:00.04	341.25	23.24	-33.9	-34.8	23.2	0.00e+00	0	39	0	4022337536	38	3916
2026-01-24 14:28:01.04	341.27	23.09	-34.0	-34.9	23.1	0.00e+00	0	39	0	4029677568	38	3967
2026-01-24 14:28:02.04	341.28	22.94	-34.0	-34.9	23.0	0.00e+00	0	39	0	4037017600	38	3985
2026-01-24 14:28:03.03	341.30	22.80	-34.0	-34.9	23.0	0.00e+00	0	39	0	4043309056	38	3992
2026-01-24 14:28:04.02	341.31	22.65	-34.1	-35.0	23.0	0.00e+00	0	39	0	4050649088	38	4010
2026-01-24 14:28:05.02	341.33	22.51	-34.0	-34.9	23.1	0.00e+00	0	39	0	4057989120	38	3959
2026-01-24 14:28:06.01	341.34	22.37	-34.0	-34.9	23.0	0.00e+00	0	39	0	4065329152	38	3986
2026-01-24 14:28:07.01	341.36	22.22	-34.1	-34.9	22.9	0.00e+00	0	39	0	4072669184	38	3991
2026-01-24 14:28:08.00	341.38	22.08	-34.1	-35.0	23.0	0.00e+00	0	39	0	4080009216	38	4006
2026-01-24 14:28:09.00	341.39	21.94	-34.1	-34.9	23.0	0.00e+00	0	39	0	4086300672	38	4002
2026-01-24 14:28:09.99	341.41	21.80	-34.2	-35.0	23.0	0.00e+00	0	39	0	4093640704	38	4027
2026-01-24 14:28:10.99	341.42	21.66	-34.2	-35.0	22.9	0.00e+00	0	39	0	4100980736	38	4032
2026-01-24 14:28:11.98	341.44	21.53	-34.2	-35.0	22.8	0.00e+00	0	39	0	4108320768	38	4036
2026-01-24 14:28:12.98	341.45	21.39	-34.3	-35.1	22.8	0.00e+00	0	39	0	4115660800	38	4090
2026-01-24 14:28:13.97	341.47	21.25	-34.2	-35.1	22.9	0.00e+00	0	39	0	4123000832	38	4062
2026-01-24 14:28:14.97	341.48	21.12	-34.3	-35.2	22.8	0.00e+00	0	39	0	4130340864	38	4110
2026-01-24 14:28:15.96	341.50	20.98	-34.2	-35.1	22.9	0.00e+00	0	39	0	4137680896	38	4078
2026-01-24 14:28:16.96	341.51	20.85	-34.4	-35.3	22.7	0.00e+00	0	39	0	4143972352	38	4156
2026-01-24 14:28:17.95	341.52	20.71	-34.4	-35.3	22.6	0.00e+00	0	39	0	4151312384	38	4184
2026-01-24 14:28:18.95	341.54	20.58	-34.4	-35.3	22.6	0.00e+00	0	39	0	4158652416	38	4169
2026-01-24 14:28:19.94	341.55	20.45	-34.5	-35.4	22.5	0.00e+00	0	39	0	4165992448	38	4220
2026-01-24 14:28:20.94	341.57	20.31	-34.5	-35.4	22.5	0.00e+00	0	39	0	4173332480	38	4216
2026-01-24 14:28:21.93	341.58	20.18	-34.6	-35.5	22.5	0.00e+00	0	39	0	4180672512	38	4260
2026-01-24 14:28:22.93	341.59	20.05	-34.7	-35.6	22.4	0.00e+00	0	39	0	4186963968	38	4317
2026-01-24 14:28:23.92	341.61	19.92	-34.8	-35.7	22.3	0.00e+00	0	39	0	4194304000	39	4104
2026-01-24 14:28:24.92	341.62	19.80	-34.7	-35.6	22.4	0.00e+00	0	39	0	4201644032	39	4062
2026-01-24 14:28:25.91	341.64	19.67	-34.7	-35.6	22.4	0.00e+00	0	39	0	4208984064	39	4073
2026-01-24 14:28:26.91	341.65	19.54	-34.8	-35.7	22.3	0.00e+00	0	39	0	4216324096	39	4124
2026-01-24 14:28:27.90	341.66	19.41	-34.8	-35.7	22.3	0.00e+00	0	39	0	4223664128	39	4103
2026-01-24 14:28:28.90	341.68	19.29	-34.8	-35.7	22.3	0.00e+00	0	39	0	4229955584	39	4121
2026-01-24 14:28:29.89	341.69	19.16	-34.9	-35.7	22.2	0.00e+00	0	39	0	4237295616	39	4132
2026-01-24 14:28:30.88	341.70	19.04	-34.8	-35.7	22.3	0.00e+00	0	39	0	4244635648	39	4120
2026-01-24 14:28:31.88	341.72	18.91	-34.8	-35.7	22.2	0.00e+00	0	39	0	4251975680	39	4136
2026-01-24 14:28:32.88	341.73	18.79	-34.9	-35.8	22.2	0.00e+00	0	39	0	4259315712	39	4168
2026-01-24 14:28:33.87	341.74	18.66	-35.0	-35.9	22.1	0.00e+00	0	39	0	4266655744	39	4229
2026-01-24 14:28:34.87	341.76	18.54	-34.8	-35.7	22.3	0.00e+00	0	39	0	4273995776	39	4126
2026-01-24 14:28:35.86	341.77	18.42	-34.9	-35.8	22.2	0.00e+00	0	39	0	4281335808	39	4186
2026-01-24 14:28:36.86	341.78	18.30	-35.0	-35.9	22.1	0.00e+00	0	39	0	4287627264	39	4219
2026-01-24 14:28:37.85	341.79	18.18	-35.1	-36.0	21.9	0.00e+00	0	39	0	4294967296	39	4258
2026-01-24 14:28:38.85	341.81	18.06	-35.1	-36.0	22.0	0.00e+00	0	39	0	4302307328	39	4251
2026-01-24 14:28:39.85	341.82	17.94	-35.2	-36.1	21.9	0.00e+00	0	38	0	4309647360	39	4314
2026-01-24 14:28:40.84	341.83	17.82	-35.2	-36.1	21.8	0.00e+00	0	39	0	4316987392	40	4082
2026-01-24 14:28:41.84	341.85	17.70	-35.1	-36.0	21.9	0.00e+00	0	39	0	4324327424	40	4030
2026-01-24 14:28:42.83	341.86	17.58	-35.1	-36.0	21.9	0.00e+00	0	39	0	4330618880	40	4030
2026-01-24 14:28:43.83	341.87	17.46	-35.2	-36.2	21.8	0.00e+00	0	39	0	4337958912	40	4100
2026-01-24 14:28:44.82	341.88	17.35	-35.4	-36.4	21.6	0.00e+00	0	39	0	4345298944	40	4195
2026-01-24 14:28:45.82	341.90	17.23	-35.2	-36.1	21.8	0.00e+00	0	39	0	4352638976	40	4092
2026-01-24 14:28:46.81	341.91	17.12	-35.3	-36.3	21.6	0.00e+00	0	39	0	4359979008	40	4148
2026-01-24 14:28:47.80	341.92	17.00	-35.3	-36.2	21.7	0.00e+00	0	39	0	4367319040	40	4129
2026-01-24 14:28:48.80	341.93	16.89	-35.3	-36.2	21.7	0.00e+00	0	39	0	4374659072	40	4118
2026-01-24 14:28:49.80	341.94	16.77	-35.3	-36.2	21.7	0.00e+00	0	39	0	4380950528	40	4130
2026-01-24 14:28:50.79	341.96	16.66	-35.3	-36.3	21.6	0.00e+00	0	39	0	4388290560	40	4161
2026-01-24 14:28:51.79	341.97	16.55	-35.4	-36.3	21.6	0.00e+00	0	39	0	4395630592	40	4180
2026-01-24 14:28:52.78	341.98	16.43	-35.4	-36.3	21.6	0.00e+00	0	39	0	4402970624	40	4185
2026-01-24 14:28:53.78	341.99	16.32	-35.4	-36.4	21.5	0.00e+00	0	39	0	4410310656	40	4211
2026-01-24 14:28:54.77	342.00	16.21	-35.4	-36.4	21.5	0.00e+00	0	39	0	4417650688	40	4200
2026-01-24 14:28:55.77	342.01	16.10	-35.5	-36.4	21.5	0.00e+00	0	39	0	4424990720	40	4240
2026-01-24 14:28:56.76	342.03	15.99	-35.5	-36.5	21.4	0.00e+00	0	39	0	4431282176	40	4255
2026-01-24 14:28:57.75	342.04	15.88	-35.5	-36.5	21.4	0.00e+00	0	39	0	4438622208	40	4271
2026-01-24 14:28:58.75	342.05	15.77	-35.6	-36.6	21.3	0.00e+00	0	38	0	4445962240	40	4293
2026-01-24 14:28:59.74	342.06	15.66	-35.6	-36.6	21.3	0.00e+00	0	39	0	4453302272	40	4311
2026-01-24 14:29:00.74	342.07	15.55	-35.8	-36.7	21.2	0.00e+00	0	39	0	4460642304	41	4116
2026-01-24 14:29:01.73	342.08	15.45	-35.7	-36.7	21.2	0.00e+00	0	38	0	4467982336	41	4105
2026-01-24 14:29:02.73	342.09	15.34	-35.7	-36.7	21.2	0.00e+00	0	39	0	4474273792	41	4108
2026-01-24 14:29:03.72	342.11	15.23	-35.9	-36.8	21.1	0.00e+00	0	39	0	4481613824	41	4184
2026-01-24 14:29:04.72	342.12	15.12	-35.7	-36.7	21.2	0.00e+00	0	39	0	4488953856	41	4123
2026-01-24 14:29:05.71	342.13	15.02	-35.8	-36.8	21.1	0.00e+00	0	39	0	4496293888	41	4159
2026-01-24 14:29:06.71	342.14	14.91	-35.8	-36.8	21.1	0.00e+00	0	39	0	4503633920	41	4193
2026-01-24 14:29:07.70	342.15	14.81	-35.9	-36.9	21.0	0.00e+00	0	39	0	4510973952	41	4211
2026-01-24 14:29:08.70	342.16	14.70	-35.8	-36.8	21.0	0.00e+00	0	39	0	4517265408	41	4184
2026-01-24 14:29:09.69	342.17	14.60	-35.8	-36.8	21.1	0.00e+00	0	39	0	4524605440	41	4178
2026-01-24 14:29:10.69	342.18	14.50	-35.8	-36.8	21.0	0.00e+00	0	39	0	4531945472	41	4184
2026-01-24 14:29:11.68	342.19	14.39	-35.8	-36.9	21.0	0.00e+00	0	39	0	4539285504	41	4212
2026-01-24 14:29:12.68	342.21	14.29	-35.9	-36.9	20.9	0.00e+00	0	39	0	4546625536	41	4238
2026-01-24 14:29:13.67	342.22	14.19	-35.9	-37.0	20.9	0.00e+00	0	39	0	4553965568	41	4270
2026-01-24 14:29:14.67	342.23	14.09	-36.1	-37.1	20.8	0.00e+00	0	39	0	4561305600	41	4333
2026-01-24 14:29:15.66	342.24	13.98	-36.0	-37.1	20.8	0.00e+00	0	39	0	4568645632	41	4314
2026-01-24 14:29:16.65	342.25	13.88	-36.1	-37.1	20.8	0.00e+00	0	39	0	4574937088	41	4325
2026-01-24 14:29:17.65	342.26	13.78	-36.1	-37.1	20.8	0.00e+00	0	39	0	4582277120	41	4333
2026-01-24 14:29:18.64	342.27	13.68	-36.1	-37.1	20.8	0.00e+00	0	39	0	4589617152	41	4318
2026-01-24 14:29:19.64	342.28	13.58	-36.0	-37.1	20.8	0.00e+00	0	39	0	4596957184	41	4308
2026-01-24 14:29:20.63	342.29	13.48	-36.2	-37.3	20.6	0.00e+00	0	39	0	4604297216	41	4413
2026-01-24 14:29:21.63	342.30	13.38	-36.1	-37.2	20.7	0.00e+00	0	39	0	4611637248	41	4359
2026-01-24 14:29:22.62	342.31	13.29	-36.2	-37.2	20.6	0.00e+00	0	39	0	4617928704	41	4382
2026-01-24 14:29:23.62	342.32	13.19	-36.2	-37.3	20.6	0.00e+00	0	39	0	4625268736	41	4400
