passes_logs/2026/01/24/T1/T1__20260124_200656_FENGYUN_3G_rec.log

#Pass ID: 20260124_200656_FENGYUN 3G
#Satellite: FENGYUN 3G
#Configuration: FENGYUN 3G
#almurnet v.1.7.20251203
#Start time: 2026-01-24 20:06:57

#Version: 2.0.20230620
#Station: T1
#Location: 37.570604 lon 55.790049 lat
#TLE: 1 56232U 23055A   26024.24521059  .00049620  00000+0  74824-3 0  9993
#TLE: 2 56232  49.9947   8.2107 0004117  75.2128 284.9296 15.54221826157636

#Time	Az	El	Level	Level2	SNR	BER	BlckErr	Temp	State	Recorded	gain1	gain2
2026-01-24 20:06:57.61	254.39	5.19	-48.3	-67.2	3.8	8.47e-01	0	34	0	0	68	31103
2026-01-24 20:06:58.60	254.30	5.27	-48.2	-67.2	3.8	8.39e-01	0	34	104	0	68	31216
2026-01-24 20:06:59.59	254.21	5.34	-48.3	-67.2	3.8	8.46e-01	0	35	104	0	68	31146
2026-01-24 20:07:00.59	254.12	5.42	-48.3	-67.2	3.8	8.48e-01	0	35	104	0	68	31178
2026-01-24 20:07:01.58	254.03	5.50	-48.2	-67.1	3.8	8.48e-01	0	35	104	0	68	30939
2026-01-24 20:07:02.57	253.94	5.57	-48.2	-67.1	3.8	8.47e-01	0	35	104	0	68	30824
2026-01-24 20:07:03.57	253.85	5.65	-48.2	-67.0	3.8	8.47e-01	0	35	104	0	68	30570
2026-01-24 20:07:04.56	253.75	5.73	-48.2	-66.9	3.8	8.47e-01	0	35	104	0	68	30341
2026-01-24 20:07:05.55	253.66	5.80	-48.2	-66.9	3.8	8.46e-01	0	35	104	0	68	30095
2026-01-24 20:07:06.55	253.57	5.88	-48.2	-66.8	3.8	8.47e-01	0	35	104	0	68	29849
2026-01-24 20:07:07.54	253.47	5.96	-48.2	-66.7	3.8	8.47e-01	0	35	104	0	68	29612
2026-01-24 20:07:08.53	253.38	6.04	-48.2	-66.6	3.8	8.47e-01	0	35	104	0	68	29263
2026-01-24 20:07:09.53	253.28	6.12	-48.2	-66.6	3.8	8.48e-01	0	35	104	0	68	29061
2026-01-24 20:07:10.52	253.18	6.20	-48.2	-66.5	3.8	8.48e-01	0	35	104	0	68	28731
2026-01-24 20:07:11.51	253.09	6.27	-48.2	-66.5	3.8	8.46e-01	0	35	104	0	68	28902
2026-01-24 20:07:12.51	252.99	6.35	-48.2	-66.5	3.8	8.47e-01	0	35	104	0	68	29011
2026-01-24 20:07:13.50	252.89	6.43	-48.2	-66.5	3.8	8.47e-01	0	35	104	0	68	28838
2026-01-24 20:07:14.49	252.79	6.51	-48.2	-66.5	3.8	8.47e-01	0	35	104	0	68	28740
2026-01-24 20:07:15.49	252.69	6.59	-48.2	-66.4	3.8	8.47e-01	0	35	104	0	68	28620
2026-01-24 20:07:16.48	252.59	6.68	-48.2	-66.5	3.8	8.47e-01	0	35	104	0	68	28771
2026-01-24 20:07:17.47	252.48	6.76	-48.2	-66.5	3.8	8.47e-01	0	35	104	0	68	28740
2026-01-24 20:07:18.47	252.38	6.84	-48.2	-66.5	3.8	8.47e-01	0	35	104	0	68	28982
2026-01-24 20:07:19.46	252.28	6.92	-48.2	-66.7	3.8	8.47e-01	0	35	104	0	68	29617
2026-01-24 20:07:20.45	252.17	7.00	-48.2	-67.0	3.8	8.47e-01	0	35	104	0	68	30414
2026-01-24 20:07:21.45	252.06	7.08	-48.2	-67.1	3.8	8.47e-01	0	35	104	0	68	30766
2026-01-24 20:07:22.44	251.96	7.17	-48.2	-67.1	3.8	8.47e-01	0	35	104	0	68	30742
2026-01-24 20:07:23.43	251.85	7.25	-48.2	-67.0	3.8	8.47e-01	0	35	104	0	68	30400
2026-01-24 20:07:24.42	251.74	7.33	-48.2	-66.9	3.8	8.47e-01	0	35	104	0	68	30162
2026-01-24 20:07:25.42	251.63	7.42	-48.2	-66.9	3.8	8.46e-01	0	36	104	0	68	30166
2026-01-24 20:07:26.41	251.52	7.50	-48.2	-66.8	3.8	8.46e-01	0	35	104	0	68	30025
2026-01-24 20:07:27.40	251.41	7.59	-48.2	-66.6	3.8	8.48e-01	0	36	104	0	68	29303
2026-01-24 20:07:28.40	251.30	7.67	-48.2	-66.0	3.8	8.47e-01	0	36	104	0	68	27356
2026-01-24 20:07:29.39	251.19	7.76	-48.2	-65.4	3.8	8.47e-01	0	36	104	0	68	25427
2026-01-24 20:07:30.38	251.07	7.84	-48.1	-64.8	3.9	8.46e-01	0	36	104	0	68	23644
2026-01-24 20:07:31.37	250.96	7.93	-48.1	-64.7	3.9	8.47e-01	0	36	104	0	68	23312
2026-01-24 20:07:32.37	250.84	8.01	-48.1	-64.9	3.8	8.47e-01	0	36	104	0	68	24063
2026-01-24 20:07:33.36	250.72	8.10	-48.2	-65.7	3.8	8.45e-01	0	36	104	0	68	26282
2026-01-24 20:07:34.35	250.61	8.19	-48.2	-66.5	3.8	8.46e-01	0	36	104	0	68	28916
2026-01-24 20:07:35.35	250.49	8.28	-48.2	-67.0	3.8	8.46e-01	0	36	104	0	68	30514
2026-01-24 20:07:36.34	250.37	8.36	-48.2	-66.6	3.8	8.45e-01	0	36	104	0	68	29072
2026-01-24 20:07:37.33	250.25	8.45	-48.2	-65.7	3.8	8.47e-01	0	36	104	0	68	26430
2026-01-24 20:07:38.33	250.13	8.54	-48.1	-64.9	3.9	8.46e-01	0	36	104	0	68	24018
2026-01-24 20:07:39.32	250.00	8.63	-48.1	-64.4	4.0	8.46e-01	0	36	104	0	68	22655
2026-01-24 20:07:40.31	249.88	8.72	-48.0	-62.2	4.6	8.44e-01	0	36	0	0	68	17518
2026-01-24 20:07:41.31	249.75	8.81	-47.6	-58.8	6.8	6.65e-01	0	36	0	0	67	12574
2026-01-24 20:07:42.30	249.63	8.90	-47.1	-55.4	10.2	6.65e-01	0	36	0	0	66	9064
2026-01-24 20:07:43.29	249.50	8.99	-46.4	-52.8	13.0	5.08e-02	0	36	0	0	64	7494
2026-01-24 20:07:44.29	249.37	9.08	-45.7	-51.0	14.8	1.70e-04	0	36	0	0	63	6434
2026-01-24 20:07:45.28	249.24	9.17	-46.6	-53.5	12.2	1.70e-04	0	36	0	0	64	8093
2026-01-24 20:07:46.28	249.11	9.26	-44.1	-47.8	18.4	4.28e-04	0	36	0	0	59	5617
2026-01-24 20:07:47.27	248.98	9.35	-47.0	-55.2	10.1	3.68e-03	0	36	0	0	65	9370
2026-01-24 20:07:48.27	248.85	9.45	-46.8	-54.3	10.3	3.68e-03	0	36	0	0	65	8445
2026-01-24 20:07:49.26	248.71	9.54	-41.4	-44.2	21.6	1.16e-02	0	36	0	0	54	4939
2026-01-24 20:07:50.26	248.58	9.63	-41.3	-44.0	21.8	0.00e+00	0	36	0	0	54	4826
2026-01-24 20:07:51.25	248.44	9.73	-41.1	-43.7	22.2	0.00e+00	0	36	0	0	53	4965
2026-01-24 20:07:52.25	248.30	9.82	-41.0	-43.5	22.2	0.00e+00	0	36	0	0	53	4869
2026-01-24 20:07:53.24	248.16	9.92	-40.4	-42.9	22.9	0.00e+00	0	36	0	0	52	4802
2026-01-24 20:07:54.24	248.02	10.01	-40.5	-43.0	22.8	0.00e+00	0	36	0	0	52	4855
2026-01-24 20:07:55.23	247.88	10.11	-40.4	-42.9	22.9	0.00e+00	0	36	0	0	52	4790
2026-01-24 20:07:56.23	247.74	10.20	-40.2	-42.6	23.1	0.00e+00	0	36	0	0	52	4647
2026-01-24 20:07:57.23	247.59	10.30	-39.9	-42.3	23.6	0.00e+00	0	36	0	0	51	4724
2026-01-24 20:07:58.22	247.45	10.40	-39.9	-42.3	23.6	0.00e+00	0	36	0	0	51	4728
2026-01-24 20:07:59.22	247.30	10.49	-39.8	-42.2	23.6	0.00e+00	0	36	0	0	51	4678
2026-01-24 20:08:00.21	247.15	10.59	-39.8	-42.2	23.7	0.00e+00	0	36	0	0	51	4656
2026-01-24 20:08:01.21	247.00	10.69	-39.6	-41.9	24.0	0.00e+00	0	36	0	0	51	4515
2026-01-24 20:08:02.21	246.85	10.79	-39.4	-41.6	24.2	0.00e+00	0	36	0	0	50	4647
2026-01-24 20:08:03.20	246.70	10.89	-39.0	-41.2	24.6	0.00e+00	0	36	0	0	50	4414
2026-01-24 20:08:04.20	246.55	10.99	-38.6	-40.8	24.9	0.00e+00	0	36	0	0	49	4485
2026-01-24 20:08:05.20	246.39	11.09	-38.5	-40.7	25.0	0.00e+00	0	36	0	0	49	4425
2026-01-24 20:08:06.19	246.24	11.19	-38.6	-40.7	25.0	0.00e+00	0	36	0	0	49	4427
2026-01-24 20:08:07.18	246.08	11.29	-38.5	-40.6	25.1	0.00e+00	0	36	0	0	49	4384
2026-01-24 20:08:08.18	245.92	11.39	-38.6	-40.7	25.1	0.00e+00	0	36	0	0	48	4689
2026-01-24 20:08:09.18	245.76	11.49	-38.7	-40.8	25.0	0.00e+00	0	36	0	0	48	4736
2026-01-24 20:08:10.17	245.60	11.59	-38.9	-41.1	24.8	0.00e+00	0	36	0	0	48	4890
2026-01-24 20:08:11.17	245.43	11.70	-38.6	-40.8	25.0	0.00e+00	0	36	0	0	48	4739
2026-01-24 20:08:12.16	245.27	11.80	-38.6	-40.7	25.0	0.00e+00	0	36	0	0	48	4699
2026-01-24 20:08:13.16	245.10	11.90	-38.6	-40.8	25.0	0.00e+00	0	36	0	0	48	4737
2026-01-24 20:08:14.15	244.93	12.01	-38.5	-40.7	25.1	0.00e+00	0	36	0	0	48	4673
2026-01-24 20:08:15.15	244.76	12.11	-38.6	-40.8	25.1	0.00e+00	0	36	0	0	48	4717
2026-01-24 20:08:16.14	244.59	12.22	-38.6	-40.7	25.1	0.00e+00	0	36	0	0	48	4692
2026-01-24 20:08:17.14	244.41	12.32	-38.4	-40.6	25.2	0.00e+00	0	36	0	0	48	4617
2026-01-24 20:08:18.13	244.24	12.43	-38.2	-40.3	25.4	0.00e+00	0	36	0	0	48	4482
2026-01-24 20:08:19.13	244.06	12.53	-38.2	-40.3	25.5	0.00e+00	0	36	0	0	48	4457
2026-01-24 20:08:20.12	243.88	12.64	-38.2	-40.3	25.5	0.00e+00	0	36	0	0	48	4451
2026-01-24 20:08:21.11	243.71	12.75	-38.2	-40.3	25.4	0.00e+00	0	36	0	0	48	4477
2026-01-24 20:08:22.11	243.52	12.86	-38.0	-40.1	25.6	0.00e+00	0	36	0	0	48	4375
2026-01-24 20:08:23.10	243.34	12.96	-38.1	-40.3	25.4	0.00e+00	0	36	0	0	48	4443
2026-01-24 20:08:24.10	243.15	13.07	-38.4	-40.5	25.2	0.00e+00	0	36	0	0	48	4581
2026-01-24 20:08:25.09	242.97	13.18	-38.4	-40.5	25.2	0.00e+00	0	36	0	0	48	4576
2026-01-24 20:08:26.09	242.78	13.29	-38.4	-40.6	25.2	0.00e+00	0	37	0	0	48	4612
2026-01-24 20:08:27.09	242.58	13.40	-38.1	-40.3	25.5	0.00e+00	0	36	0	0	48	4450
2026-01-24 20:08:28.08	242.39	13.51	-38.1	-40.2	25.5	0.00e+00	0	36	0	0	48	4438
2026-01-24 20:08:29.08	242.20	13.62	-37.9	-40.0	25.7	0.00e+00	0	36	0	0	47	4590
2026-01-24 20:08:30.07	242.00	13.73	-37.9	-40.0	25.7	0.00e+00	0	37	0	0	47	4572
2026-01-24 20:08:31.07	241.80	13.85	-37.9	-40.0	25.7	0.00e+00	0	36	0	0	47	4564
2026-01-24 20:08:32.06	241.60	13.96	-37.8	-39.9	25.8	0.00e+00	0	36	0	0	47	4539
2026-01-24 20:08:33.06	241.40	14.07	-37.7	-39.8	25.9	0.00e+00	0	36	0	0	47	4452
2026-01-24 20:08:34.05	241.19	14.19	-37.7	-39.8	26.0	0.00e+00	0	37	0	0	47	4443
2026-01-24 20:08:35.05	240.99	14.30	-37.5	-39.6	26.2	0.00e+00	0	36	0	0	47	4357
2026-01-24 20:08:36.04	240.78	14.41	-37.6	-39.7	26.0	0.00e+00	0	37	0	0	47	4407
2026-01-24 20:08:37.04	240.57	14.53	-37.5	-39.6	26.2	0.00e+00	0	37	0	0	47	4359
2026-01-24 20:08:38.04	240.35	14.65	-37.6	-39.7	26.1	0.00e+00	0	37	0	0	47	4392
2026-01-24 20:08:39.03	240.14	14.76	-37.6	-39.7	26.0	0.00e+00	0	37	0	0	47	4420
2026-01-24 20:08:40.03	239.92	14.88	-37.5	-39.6	26.2	0.00e+00	0	36	0	0	47	4360
2026-01-24 20:08:41.02	239.70	15.00	-37.6	-39.6	26.1	0.00e+00	0	36	0	0	47	4387
2026-01-24 20:08:42.02	239.48	15.11	-37.3	-39.3	26.4	0.00e+00	0	36	0	0	46	4485
2026-01-24 20:08:43.01	239.26	15.23	-37.2	-39.3	26.4	0.00e+00	0	36	0	0	46	4463
2026-01-24 20:08:44.01	239.03	15.35	-37.2	-39.2	26.5	0.00e+00	0	37	0	0	46	4423
2026-01-24 20:08:45.00	238.80	15.47	-37.1	-39.1	26.7	0.00e+00	0	37	0	0	46	4357
2026-01-24 20:08:46.00	238.57	15.59	-37.0	-39.0	26.6	0.00e+00	0	37	0	0	46	4322
2026-01-24 20:08:47.00	238.33	15.71	-37.0	-39.0	26.7	0.00e+00	0	36	0	0	46	4339
2026-01-24 20:08:47.99	238.10	15.83	-37.0	-39.0	26.7	0.00e+00	0	37	0	0	46	4327
2026-01-24 20:08:48.99	237.86	15.95	-36.8	-38.8	26.9	0.00e+00	0	36	0	0	45	4475
2026-01-24 20:08:49.98	237.62	16.07	-37.0	-39.0	26.7	0.00e+00	0	37	0	0	45	4567
2026-01-24 20:08:50.98	237.38	16.19	-37.0	-39.0	26.7	0.00e+00	0	37	0	0	45	4597
2026-01-24 20:08:51.97	237.13	16.31	-37.1	-39.1	26.6	0.00e+00	0	37	0	0	45	4616
2026-01-24 20:08:52.97	236.88	16.44	-37.1	-39.1	26.7	0.00e+00	0	37	0	0	45	4630
2026-01-24 20:08:53.96	236.63	16.56	-37.1	-39.1	26.6	0.00e+00	0	36	0	0	45	4624
2026-01-24 20:08:54.96	236.38	16.68	-36.8	-38.8	26.9	0.00e+00	0	36	0	0	45	4472
2026-01-24 20:08:55.95	236.12	16.80	-36.8	-38.8	26.9	0.00e+00	0	36	0	0	45	4463
2026-01-24 20:08:56.95	235.86	16.93	-36.8	-38.8	26.9	0.00e+00	0	37	0	0	45	4458
2026-01-24 20:08:57.94	235.60	17.05	-36.7	-38.8	26.8	0.00e+00	0	36	0	0	45	4445
2026-01-24 20:08:58.94	235.34	17.18	-36.7	-38.7	26.9	0.00e+00	0	36	0	0	45	4403
2026-01-24 20:08:59.94	235.07	17.30	-36.7	-38.7	26.9	0.00e+00	0	37	0	0	45	4398
2026-01-24 20:09:00.93	234.80	17.43	-36.7	-38.7	26.9	0.00e+00	0	37	0	0	45	4420
2026-01-24 20:09:01.92	234.53	17.55	-36.6	-38.6	27.1	0.00e+00	0	36	0	0	45	4356
2026-01-24 20:09:02.92	234.25	17.68	-36.7	-38.7	26.9	0.00e+00	0	37	0	0	45	4434
2026-01-24 20:09:03.91	233.98	17.81	-36.9	-38.9	26.8	0.00e+00	0	36	0	0	45	4525
2026-01-24 20:09:04.91	233.69	17.94	-36.8	-38.8	26.8	0.00e+00	0	37	0	0	45	4454
2026-01-24 20:09:05.90	233.41	18.06	-36.5	-38.5	27.1	0.00e+00	0	36	0	0	45	4299
2026-01-24 20:09:06.90	233.12	18.19	-36.1	-38.1	27.5	0.00e+00	0	37	0	0	44	4360
2026-01-24 20:09:07.89	232.84	18.32	-36.1	-38.1	27.5	0.00e+00	0	37	0	0	44	4360
2026-01-24 20:09:08.89	232.54	18.45	-36.2	-38.1	27.5	0.00e+00	0	37	0	0	44	4391
2026-01-24 20:09:09.88	232.25	18.57	-36.2	-38.2	27.4	0.00e+00	0	37	0	0	44	4408
2026-01-24 20:09:10.88	231.95	18.70	-36.3	-38.2	27.4	0.00e+00	0	37	0	0	44	4433
2026-01-24 20:09:11.87	231.64	18.83	-36.4	-38.3	27.3	0.00e+00	0	36	0	0	44	4486
2026-01-24 20:09:12.87	231.34	18.96	-36.6	-38.5	27.1	0.00e+00	0	37	0	0	44	4589
2026-01-24 20:09:13.86	231.03	19.09	-36.8	-38.8	26.9	0.00e+00	0	37	0	0	44	4731
2026-01-24 20:09:14.86	230.72	19.22	-36.7	-38.7	26.9	0.00e+00	0	37	0	0	44	4700
2026-01-24 20:09:15.85	230.40	19.35	-36.5	-38.5	27.1	0.00e+00	0	37	0	0	44	4588
2026-01-24 20:09:16.85	230.08	19.48	-36.5	-38.4	27.2	0.00e+00	0	37	0	0	44	4539
2026-01-24 20:09:17.84	229.76	19.61	-36.5	-38.5	27.2	0.00e+00	0	37	0	0	44	4553
2026-01-24 20:09:18.84	229.43	19.74	-36.0	-37.9	27.7	0.00e+00	0	36	0	0	44	4282
2026-01-24 20:09:19.83	229.11	19.87	-35.7	-37.7	27.7	0.00e+00	0	36	0	0	43	4404
2026-01-24 20:09:20.83	228.77	20.00	-35.8	-37.7	27.7	0.00e+00	0	37	0	0	43	4414
2026-01-24 20:09:21.82	228.44	20.13	-35.9	-37.8	27.6	0.00e+00	0	37	0	0	43	4479
2026-01-24 20:09:22.82	228.10	20.27	-36.1	-38.0	27.4	0.00e+00	0	36	0	0	43	4598
2026-01-24 20:09:23.81	227.76	20.40	-36.4	-38.3	27.1	0.00e+00	0	37	0	0	43	4754
2026-01-24 20:09:24.81	227.41	20.53	-36.1	-38.0	27.4	0.00e+00	0	37	0	0	43	4572
2026-01-24 20:09:25.80	227.06	20.66	-36.2	-38.1	27.3	0.00e+00	0	37	0	0	43	4650
2026-01-24 20:09:26.80	226.71	20.79	-36.3	-38.3	27.3	0.00e+00	0	37	0	0	43	4717
2026-01-24 20:09:27.79	226.35	20.92	-35.9	-37.9	27.6	0.00e+00	0	37	0	0	43	4494
2026-01-24 20:09:28.78	225.99	21.05	-35.7	-37.6	27.8	0.00e+00	0	37	0	0	43	4374
2026-01-24 20:09:29.78	225.63	21.18	-35.7	-37.6	27.8	0.00e+00	0	37	0	0	43	4370
2026-01-24 20:09:30.77	225.26	21.31	-35.4	-37.3	28.0	0.00e+00	0	37	0	0	42	4488
2026-01-24 20:09:31.76	224.89	21.44	-35.1	-37.0	28.3	0.00e+00	0	37	0	0	42	4323
2026-01-24 20:09:32.76	224.51	21.57	-35.1	-37.0	28.2	0.00e+00	0	37	0	0	42	4309
2026-01-24 20:09:33.75	224.14	21.70	-35.3	-37.2	28.1	0.00e+00	0	37	0	0	42	4438
2026-01-24 20:09:34.74	223.76	21.83	-35.2	-37.1	28.2	0.00e+00	0	37	0	0	42	4365
2026-01-24 20:09:35.74	223.37	21.96	-35.3	-37.2	28.2	0.00e+00	0	36	0	0	42	4402
2026-01-24 20:09:36.74	222.97	22.09	-35.4	-37.4	28.0	0.00e+00	0	37	0	0	42	4501
2026-01-24 20:09:37.73	222.58	22.22	-35.2	-37.1	28.2	0.00e+00	0	37	0	0	42	4363
2026-01-24 20:09:38.72	222.18	22.34	-35.4	-37.3	28.1	0.00e+00	0	37	0	0	42	4455
2026-01-24 20:09:39.72	221.78	22.47	-35.1	-37.0	28.3	0.00e+00	0	37	0	0	42	4313
2026-01-24 20:09:40.71	221.38	22.60	-35.2	-37.1	28.1	0.00e+00	0	37	0	0	42	4352
2026-01-24 20:09:41.71	220.96	22.73	-35.0	-36.9	28.3	0.00e+00	0	37	0	0	42	4279
2026-01-24 20:09:42.70	220.55	22.85	-35.0	-36.9	28.3	0.00e+00	0	37	0	0	42	4287
2026-01-24 20:09:43.70	220.13	22.98	-35.1	-37.0	28.3	0.00e+00	0	37	0	0	42	4298
2026-01-24 20:09:44.69	219.71	23.10	-35.1	-37.0	28.4	0.00e+00	0	37	0	0	42	4303
2026-01-24 20:09:45.69	219.28	23.23	-35.3	-37.2	28.2	0.00e+00	0	37	0	0	42	4433
2026-01-24 20:09:46.69	218.85	23.35	-35.1	-37.0	28.3	0.00e+00	0	37	0	0	42	4296
2026-01-24 20:09:47.68	218.42	23.47	-35.3	-37.2	28.2	0.00e+00	0	37	0	0	42	4414
2026-01-24 20:09:48.68	217.98	23.60	-35.2	-37.1	28.2	0.00e+00	0	37	0	0	42	4377
2026-01-24 20:09:49.67	217.54	23.72	-35.1	-37.0	28.3	0.00e+00	0	37	0	0	42	4326
2026-01-24 20:09:50.66	217.09	23.84	-35.2	-37.1	28.2	0.00e+00	0	37	0	0	42	4369
2026-01-24 20:09:51.66	216.64	23.96	-34.9	-36.8	28.5	0.00e+00	0	37	0	0	41	4467
2026-01-24 20:09:52.66	216.18	24.08	-35.0	-36.9	28.4	0.00e+00	0	37	0	0	41	4512
2026-01-24 20:09:53.65	215.73	24.20	-34.8	-36.7	28.5	0.00e+00	0	37	0	0	41	4423
2026-01-24 20:09:54.65	215.26	24.31	-34.9	-36.8	28.4	0.00e+00	0	37	0	0	41	4466
2026-01-24 20:09:55.64	214.80	24.43	-34.8	-36.7	28.6	0.00e+00	0	37	0	0	41	4392
2026-01-24 20:09:56.64	214.32	24.54	-34.8	-36.7	28.5	0.00e+00	0	37	0	0	41	4395
2026-01-24 20:09:57.63	213.85	24.66	-34.8	-36.7	28.5	0.00e+00	0	36	0	0	41	4404
2026-01-24 20:09:58.62	213.38	24.77	-34.5	-36.4	28.8	0.00e+00	0	37	0	0	41	4257
2026-01-24 20:09:59.61	212.90	24.88	-34.5	-36.4	28.9	0.00e+00	0	37	0	0	41	4245
2026-01-24 20:10:00.61	212.41	24.99	-34.4	-36.2	28.9	0.00e+00	0	37	0	0	40	4440
2026-01-24 20:10:01.60	211.92	25.09	-34.4	-36.3	28.9	0.00e+00	0	37	0	0	40	4459
2026-01-24 20:10:02.60	211.42	25.20	-34.5	-36.4	28.8	0.00e+00	0	37	0	0	40	4499
2026-01-24 20:10:03.59	210.93	25.31	-34.6	-36.5	28.8	0.00e+00	0	37	0	0	40	4548
2026-01-24 20:10:04.59	210.42	25.41	-34.5	-36.3	28.9	0.00e+00	0	37	0	0	40	4473
2026-01-24 20:10:05.58	209.92	25.51	-34.4	-36.3	28.9	0.00e+00	0	37	0	0	40	4463
2026-01-24 20:10:06.57	209.41	25.61	-34.4	-36.3	28.9	0.00e+00	0	37	0	0	40	4463
2026-01-24 20:10:07.57	208.90	25.71	-34.4	-36.3	29.0	0.00e+00	0	37	0	0	40	4460
2026-01-24 20:10:08.56	208.38	25.81	-34.4	-36.2	29.0	0.00e+00	0	37	0	0	40	4417
2026-01-24 20:10:09.56	207.86	25.90	-34.3	-36.2	28.9	0.00e+00	0	37	0	0	40	4412
2026-01-24 20:10:10.55	207.34	25.99	-34.5	-36.4	28.8	0.00e+00	0	37	0	0	40	4497
2026-01-24 20:10:11.55	206.81	26.09	-34.4	-36.3	28.8	0.00e+00	0	37	0	0	40	4450
2026-01-24 20:10:12.54	206.28	26.17	-34.5	-36.3	28.9	0.00e+00	0	37	0	0	40	4489
2026-01-24 20:10:13.54	205.74	26.26	-34.1	-35.9	29.2	0.00e+00	0	37	0	0	40	4273
2026-01-24 20:10:14.53	205.21	26.35	-34.1	-36.0	29.1	0.00e+00	0	37	0	0	40	4298
2026-01-24 20:10:15.52	204.67	26.43	-34.2	-36.0	29.1	0.00e+00	0	36	0	0	40	4331
2026-01-24 20:10:16.52	204.12	26.51	-34.5	-36.3	28.8	0.00e+00	0	37	0	0	40	4485
2026-01-24 20:10:17.52	203.57	26.59	-34.4	-36.3	28.8	0.00e+00	0	37	0	0	40	4472
2026-01-24 20:10:18.51	203.03	26.67	-34.4	-36.2	28.9	0.00e+00	0	37	0	0	40	4433
2026-01-24 20:10:19.51	202.47	26.74	-34.0	-35.8	29.3	0.00e+00	0	37	0	0	39	4474
2026-01-24 20:10:20.50	201.92	26.81	-33.9	-35.8	29.3	0.00e+00	0	37	0	0	39	4466
2026-01-24 20:10:21.50	201.36	26.88	-34.2	-36.0	29.1	0.00e+00	0	37	0	0	39	4583
2026-01-24 20:10:22.49	200.80	26.95	-34.3	-36.1	29.1	0.00e+00	0	37	0	0	39	4642
2026-01-24 20:10:23.49	200.23	27.01	-34.1	-36.0	29.1	0.00e+00	0	37	0	0	39	4548
2026-01-24 20:10:24.48	199.67	27.07	-34.0	-35.8	29.3	0.00e+00	0	36	0	0	39	4471
2026-01-24 20:10:25.48	199.09	27.13	-33.6	-35.5	29.5	0.00e+00	0	37	0	0	39	4298
2026-01-24 20:10:26.47	198.52	27.19	-33.6	-35.4	29.7	0.00e+00	0	37	0	0	39	4260
2026-01-24 20:10:27.47	197.95	27.24	-33.8	-35.7	29.5	0.00e+00	0	37	0	0	39	4407
2026-01-24 20:10:28.46	197.37	27.29	-33.9	-35.8	29.4	0.00e+00	0	37	0	0	39	4445
2026-01-24 20:10:29.46	196.79	27.34	-34.0	-35.8	29.3	0.00e+00	0	37	0	0	39	4491
2026-01-24 20:10:30.46	196.21	27.39	-34.1	-36.0	29.1	0.00e+00	0	37	0	0	39	4549
2026-01-24 20:10:31.45	195.63	27.43	-33.9	-35.8	29.4	0.00e+00	0	37	0	0	39	4463
2026-01-24 20:10:32.45	195.04	27.47	-34.0	-35.9	29.3	0.00e+00	0	37	0	0	39	4497
2026-01-24 20:10:33.44	194.46	27.51	-34.1	-35.9	29.3	0.00e+00	0	37	0	0	39	4531
2026-01-24 20:10:34.44	193.87	27.54	-34.1	-36.0	29.2	0.00e+00	0	37	0	0	39	4550
2026-01-24 20:10:35.43	193.29	27.57	-34.3	-36.1	29.1	0.00e+00	0	37	0	0	39	4622
2026-01-24 20:10:36.43	192.69	27.60	-34.2	-36.0	29.1	0.00e+00	0	37	0	0	39	4591
2026-01-24 20:10:37.42	192.11	27.63	-34.2	-36.1	29.2	0.00e+00	0	37	0	0	39	4611
2026-01-24 20:10:38.42	191.51	27.65	-33.9	-35.7	29.4	0.00e+00	0	37	0	0	39	4441
2026-01-24 20:10:39.41	190.92	27.67	-34.1	-35.9	29.2	0.00e+00	0	37	0	0	39	4525
2026-01-24 20:10:40.40	190.33	27.68	-34.2	-36.1	29.1	0.00e+00	0	37	0	0	39	4621
2026-01-24 20:10:41.40	189.73	27.70	-34.4	-36.3	28.9	0.00e+00	0	37	0	0	39	4727
2026-01-24 20:10:42.39	189.14	27.71	-34.4	-36.2	29.0	0.00e+00	0	37	0	0	39	4697
2026-01-24 20:10:43.39	188.55	27.72	-34.6	-36.5	28.8	0.00e+00	0	37	0	0	39	4821
2026-01-24 20:10:44.38	187.95	27.72	-34.5	-36.4	28.9	0.00e+00	0	37	0	0	39	4784
2026-01-24 20:10:45.38	187.36	27.72	-34.7	-36.5	28.7	0.00e+00	0	37	0	0	40	4577
2026-01-24 20:10:46.37	186.76	27.72	-34.5	-36.4	28.9	0.00e+00	0	37	0	0	40	4495
2026-01-24 20:10:47.37	186.17	27.71	-34.5	-36.3	28.8	0.00e+00	0	37	0	0	40	4490
2026-01-24 20:10:48.36	185.57	27.71	-34.5	-36.3	28.9	0.00e+00	0	37	0	0	40	4480
2026-01-24 20:10:49.36	184.98	27.69	-34.1	-35.9	29.2	0.00e+00	0	37	0	0	40	4286
2026-01-24 20:10:50.35	184.39	27.68	-34.2	-36.1	29.0	0.00e+00	0	37	0	0	40	4349
2026-01-24 20:10:51.35	183.79	27.66	-34.1	-35.9	29.1	0.00e+00	0	36	0	0	40	4291
2026-01-24 20:10:52.34	183.20	27.64	-34.0	-35.9	29.2	0.00e+00	0	37	0	0	40	4268
2026-01-24 20:10:53.34	182.61	27.62	-34.0	-35.9	29.2	0.00e+00	0	37	0	0	39	4502
2026-01-24 20:10:54.33	182.02	27.59	-34.1	-36.0	29.2	0.00e+00	0	37	0	0	39	4546
2026-01-24 20:10:55.33	181.43	27.57	-34.0	-35.8	29.3	0.00e+00	0	37	0	0	39	4489
2026-01-24 20:10:56.32	180.84	27.53	-34.0	-35.8	29.2	0.00e+00	0	37	0	0	39	4480
2026-01-24 20:10:57.32	180.25	27.50	-34.2	-36.0	29.2	0.00e+00	0	37	0	0	39	4577
2026-01-24 20:10:58.31	179.67	27.46	-34.5	-36.3	29.0	0.00e+00	0	37	0	0	39	4746
2026-01-24 20:10:59.31	179.08	27.42	-34.4	-36.3	29.0	0.00e+00	0	37	0	0	39	4706
2026-01-24 20:11:00.30	178.50	27.38	-34.3	-36.2	29.0	0.00e+00	0	37	0	0	39	4679
2026-01-24 20:11:01.30	177.92	27.33	-33.8	-35.6	29.4	0.00e+00	0	37	0	0	39	4384
2026-01-24 20:11:02.29	177.35	27.28	-33.2	-35.0	29.9	0.00e+00	0	37	0	0	38	4325
2026-01-24 20:11:03.29	176.77	27.23	-33.4	-35.2	29.8	0.00e+00	0	37	0	0	38	4405
2026-01-24 20:11:04.29	176.19	27.18	-33.9	-35.7	29.4	0.00e+00	0	37	0	0	38	4699
2026-01-24 20:11:05.28	175.62	27.12	-34.3	-36.2	29.0	0.00e+00	0	37	0	0	39	4674
2026-01-24 20:11:06.28	175.05	27.06	-34.3	-36.2	28.8	0.00e+00	0	37	0	0	39	4666
2026-01-24 20:11:07.28	174.48	27.00	-34.2	-36.1	29.1	0.00e+00	0	37	0	0	39	4605
2026-01-24 20:11:08.27	173.92	26.93	-33.9	-35.8	29.3	0.00e+00	0	37	0	0	39	4444
2026-01-24 20:11:09.26	173.36	26.86	-33.7	-35.5	29.4	0.00e+00	0	37	0	0	39	4325
2026-01-24 20:11:10.26	172.80	26.79	-33.8	-35.6	29.4	0.00e+00	0	37	0	0	39	4371
2026-01-24 20:11:11.25	172.25	26.72	-33.7	-35.6	29.5	0.00e+00	0	37	0	0	39	4370
2026-01-24 20:11:12.25	171.69	26.65	-33.9	-35.8	29.2	0.00e+00	0	37	0	0	38	4731
2026-01-24 20:11:13.24	171.15	26.57	-34.1	-36.0	29.2	0.00e+00	0	37	0	0	38	4841
2026-01-24 20:11:14.23	170.60	26.49	-34.3	-36.2	29.0	0.00e+00	0	37	0	0	39	4665
2026-01-24 20:11:15.23	170.06	26.41	-34.1	-35.9	29.1	0.00e+00	0	37	0	0	39	4533
2026-01-24 20:11:16.22	169.52	26.33	-34.4	-36.2	28.9	0.00e+00	0	37	0	0	39	4698
2026-01-24 20:11:17.21	168.98	26.24	-34.5	-36.4	28.8	0.00e+00	0	37	0	0	39	4792
2026-01-24 20:11:18.21	168.45	26.15	-34.5	-36.4	28.8	0.00e+00	0	37	0	0	39	4784
2026-01-24 20:11:19.20	167.92	26.07	-34.6	-36.5	28.6	0.00e+00	0	37	0	0	40	4555
2026-01-24 20:11:20.20	167.39	25.97	-34.6	-36.5	28.7	0.00e+00	0	37	0	0	40	4570
2026-01-24 20:11:21.19	166.87	25.88	-34.5	-36.4	28.9	0.00e+00	0	37	0	0	40	4516
2026-01-24 20:11:22.19	166.35	25.78	-34.1	-36.0	29.0	0.00e+00	0	37	0	0	40	4326
2026-01-24 20:11:23.19	165.83	25.69	-33.9	-35.8	29.3	0.00e+00	0	37	0	0	39	4460
2026-01-24 20:11:24.18	165.32	25.59	-34.1	-36.0	29.2	0.00e+00	0	37	0	0	39	4552
2026-01-24 20:11:25.17	164.81	25.49	-34.3	-36.2	28.9	0.00e+00	0	37	0	0	39	4664
2026-01-24 20:11:26.17	164.31	25.39	-34.6	-36.5	28.7	0.00e+00	0	37	0	0	39	4861
2026-01-24 20:11:27.17	163.80	25.28	-34.9	-36.8	28.5	0.00e+00	0	37	0	0	40	4728
2026-01-24 20:11:28.16	163.31	25.18	-35.0	-36.9	28.4	0.00e+00	0	37	0	0	40	4778
2026-01-24 20:11:29.16	162.81	25.07	-35.0	-36.9	28.2	0.00e+00	0	37	0	0	40	4801
2026-01-24 20:11:30.15	162.32	24.96	-34.8	-36.7	28.5	0.00e+00	0	37	0	0	40	4694
2026-01-24 20:11:31.15	161.84	24.85	-34.6	-36.4	28.7	0.00e+00	0	37	0	0	40	4534
2026-01-24 20:11:32.14	161.36	24.74	-34.8	-36.7	28.5	0.00e+00	0	37	0	0	40	4682
2026-01-24 20:11:33.14	160.88	24.63	-35.0	-36.9	28.4	0.00e+00	0	37	0	0	40	4795
2026-01-24 20:11:34.14	160.40	24.51	-35.1	-37.0	28.3	0.00e+00	0	37	0	0	40	4846
2026-01-24 20:11:35.13	159.93	24.40	-35.1	-37.0	28.2	0.00e+00	0	37	0	0	41	4578
2026-01-24 20:11:36.13	159.47	24.28	-34.9	-36.8	28.4	0.00e+00	0	37	0	0	41	4465
2026-01-24 20:11:37.12	159.01	24.17	-34.7	-36.6	28.6	0.00e+00	0	37	0	0	41	4364
2026-01-24 20:11:38.12	158.55	24.05	-34.5	-36.4	28.8	0.00e+00	0	37	0	0	41	4251
2026-01-24 20:11:39.11	158.09	23.93	-34.5	-36.4	28.8	0.00e+00	0	37	0	0	41	4260
2026-01-24 20:11:40.11	157.64	23.81	-34.5	-36.4	28.7	0.00e+00	0	37	0	0	40	4531
2026-01-24 20:11:41.10	157.20	23.69	-34.8	-36.7	28.5	0.00e+00	0	37	0	0	40	4699
2026-01-24 20:11:42.09	156.76	23.57	-35.1	-37.0	28.2	0.00e+00	0	37	0	0	40	4847
2026-01-24 20:11:43.09	156.32	23.44	-35.2	-37.1	28.2	0.00e+00	0	37	0	0	40	4901
2026-01-24 20:11:44.08	155.89	23.32	-35.3	-37.2	28.1	0.00e+00	0	37	0	0	41	4705
2026-01-24 20:11:45.08	155.46	23.20	-35.2	-37.1	28.2	0.00e+00	0	37	0	0	41	4608
2026-01-24 20:11:46.07	155.03	23.07	-35.0	-36.9	28.3	0.00e+00	0	37	0	0	41	4533
2026-01-24 20:11:47.07	154.61	22.95	-34.8	-36.8	28.4	0.00e+00	0	37	0	0	41	4442
2026-01-24 20:11:48.06	154.19	22.82	-34.7	-36.6	28.5	0.00e+00	0	37	0	0	41	4390
2026-01-24 20:11:49.06	153.78	22.69	-34.6	-36.5	28.7	0.00e+00	0	37	0	0	41	4302
2026-01-24 20:11:50.05	153.37	22.57	-34.5	-36.4	28.7	0.00e+00	0	37	0	0	41	4249
2026-01-24 20:11:51.05	152.96	22.44	-34.5	-36.4	28.7	0.00e+00	0	37	0	0	41	4275
2026-01-24 20:11:52.04	152.56	22.31	-34.9	-36.9	28.4	0.00e+00	0	37	0	0	41	4497
2026-01-24 20:11:53.03	152.17	22.18	-35.1	-37.0	28.2	0.00e+00	0	37	0	0	41	4598
2026-01-24 20:11:54.03	151.77	22.06	-35.3	-37.2	28.1	0.00e+00	0	37	0	0	41	4691
2026-01-24 20:11:55.02	151.38	21.93	-35.3	-37.3	28.0	0.00e+00	0	37	0	0	41	4714
2026-01-24 20:11:56.02	151.00	21.80	-35.4	-37.3	27.9	0.00e+00	0	37	0	0	41	4756
2026-01-24 20:11:57.01	150.62	21.67	-35.2	-37.1	28.1	0.00e+00	0	37	0	0	41	4625
2026-01-24 20:11:58.01	150.23	21.54	-35.3	-37.2	27.8	0.00e+00	0	37	0	0	41	4692
2026-01-24 20:11:59.00	149.86	21.41	-35.3	-37.2	28.0	0.00e+00	0	37	0	0	41	4684
2026-01-24 20:12:00.00	149.49	21.28	-35.5	-37.4	27.9	0.00e+00	0	37	0	0	41	4797
2026-01-24 20:12:01.00	149.12	21.15	-35.4	-37.4	27.2	0.00e+00	0	37	0	0	41	4775
2026-01-24 20:12:01.99	148.76	21.02	-35.5	-37.5	27.9	0.00e+00	0	37	0	0	41	4830
2026-01-24 20:12:02.99	148.40	20.88	-35.4	-37.3	28.0	0.00e+00	0	37	0	0	41	4737
2026-01-24 20:12:03.98	148.04	20.75	-35.5	-37.4	27.9	0.00e+00	0	37	0	0	41	4798
2026-01-24 20:12:04.98	147.69	20.62	-35.5	-37.5	27.8	0.00e+00	0	37	0	0	41	4843
2026-01-24 20:12:05.97	147.34	20.49	-35.7	-37.7	27.6	0.00e+00	0	37	0	0	42	4687
2026-01-24 20:12:06.97	146.99	20.36	-35.8	-37.7	27.6	0.00e+00	0	37	0	0	42	4703
2026-01-24 20:12:07.97	146.65	20.23	-35.7	-37.6	27.7	0.00e+00	0	37	0	0	42	4644
2026-01-24 20:12:08.96	146.31	20.10	-35.5	-37.5	27.8	0.00e+00	0	37	0	0	42	4562
2026-01-24 20:12:09.95	145.98	19.97	-35.5	-37.5	27.8	0.00e+00	0	37	0	0	42	4552
2026-01-24 20:12:10.95	145.65	19.84	-35.5	-37.4	27.8	0.00e+00	0	37	0	0	42	4519
2026-01-24 20:12:11.94	145.32	19.71	-35.6	-37.6	27.7	0.00e+00	0	37	0	0	42	4627
2026-01-24 20:12:12.94	144.99	19.58	-36.0	-38.0	27.4	0.00e+00	0	37	0	0	42	4835
2026-01-24 20:12:13.94	144.67	19.45	-36.1	-38.1	27.2	0.00e+00	0	37	0	0	42	4911
2026-01-24 20:12:14.93	144.35	19.32	-36.0	-38.0	27.3	0.00e+00	0	37	0	0	42	4868
2026-01-24 20:12:15.92	144.04	19.19	-36.0	-38.0	27.4	0.00e+00	0	37	0	0	42	4817
2026-01-24 20:12:16.92	143.73	19.06	-35.9	-37.9	27.4	0.00e+00	0	37	0	0	42	4778
2026-01-24 20:12:17.91	143.42	18.93	-36.0	-38.0	27.3	0.00e+00	0	37	0	0	42	4841
2026-01-24 20:12:18.91	143.12	18.80	-35.9	-37.9	27.4	0.00e+00	0	37	0	0	42	4783
2026-01-24 20:12:19.90	142.82	18.67	-35.9	-37.9	27.4	0.00e+00	0	37	0	0	42	4797
2026-01-24 20:12:20.90	142.51	18.54	-35.9	-37.9	27.4	0.00e+00	0	37	0	0	42	4775
2026-01-24 20:12:21.89	142.22	18.41	-35.9	-37.9	27.4	0.00e+00	0	37	0	0	42	4774
2026-01-24 20:12:22.89	141.93	18.28	-35.8	-37.8	27.5	0.00e+00	0	37	0	0	42	4726
2026-01-24 20:12:23.88	141.64	18.16	-35.9	-37.9	27.4	0.00e+00	0	37	0	0	42	4782
2026-01-24 20:12:24.87	141.35	18.03	-35.9	-37.9	27.4	0.00e+00	0	37	0	0	42	4789
2026-01-24 20:12:25.87	141.07	17.90	-36.2	-38.1	27.3	0.00e+00	0	37	0	0	42	4915
2026-01-24 20:12:26.86	140.79	17.77	-36.3	-38.3	26.9	0.00e+00	0	37	0	0	43	4753
2026-01-24 20:12:27.86	140.51	17.65	-36.3	-38.3	27.1	0.00e+00	0	37	0	0	43	4706
2026-01-24 20:12:28.85	140.24	17.52	-36.4	-38.4	27.0	0.00e+00	0	37	0	0	43	4764
2026-01-24 20:12:29.85	139.96	17.39	-36.2	-38.2	27.2	0.00e+00	0	37	0	0	43	4659
2026-01-24 20:12:30.84	139.70	17.27	-36.0	-38.0	27.3	0.00e+00	0	37	0	0	43	4567
2026-01-24 20:12:31.84	139.43	17.14	-36.2	-38.2	27.2	0.00e+00	0	37	0	0	43	4670
2026-01-24 20:12:32.83	139.17	17.02	-36.3	-38.3	27.1	0.00e+00	0	37	0	0	43	4752
2026-01-24 20:12:33.83	138.90	16.89	-36.4	-38.4	27.0	0.00e+00	0	37	0	0	43	4776
2026-01-24 20:12:34.82	138.65	16.77	-36.5	-38.5	26.8	0.00e+00	0	37	0	0	43	4852
2026-01-24 20:12:35.82	138.39	16.65	-36.6	-38.7	26.8	0.00e+00	0	37	0	0	43	4927
2026-01-24 20:12:36.81	138.14	16.52	-36.9	-39.0	26.7	0.00e+00	0	37	0	0	44	4826
2026-01-24 20:12:37.81	137.89	16.40	-37.1	-39.2	26.4	0.00e+00	0	37	0	0	44	4966
2026-01-24 20:12:38.80	137.64	16.28	-37.1	-39.1	26.4	0.00e+00	0	37	0	0	44	4917
2026-01-24 20:12:39.80	137.39	16.16	-37.1	-39.2	26.4	0.00e+00	0	37	0	0	44	4934
2026-01-24 20:12:40.80	137.15	16.03	-37.1	-39.2	26.4	0.00e+00	0	37	0	0	45	4670
2026-01-24 20:12:41.79	136.91	15.91	-37.0	-39.1	26.5	0.00e+00	0	37	0	0	45	4599
2026-01-24 20:12:42.79	136.67	15.79	-36.9	-39.0	26.6	0.00e+00	0	37	0	0	45	4566
2026-01-24 20:12:43.78	136.44	15.67	-37.0	-39.0	26.6	0.00e+00	0	37	0	0	45	4571
2026-01-24 20:12:44.78	136.20	15.55	-36.9	-38.9	26.7	0.00e+00	0	37	0	0	45	4522
2026-01-24 20:12:45.77	135.98	15.43	-37.1	-39.1	26.4	0.00e+00	0	37	0	0	45	4651
2026-01-24 20:12:46.77	135.75	15.32	-37.4	-39.5	26.2	0.00e+00	0	37	0	0	45	4831
2026-01-24 20:12:47.76	135.52	15.20	-37.6	-39.6	26.0	0.00e+00	0	37	0	0	45	4914
2026-01-24 20:12:48.76	135.30	15.08	-37.6	-39.6	26.0	0.00e+00	0	37	0	0	45	4918
2026-01-24 20:12:49.75	135.08	14.96	-37.6	-39.7	26.0	0.00e+00	0	37	0	0	45	4934
2026-01-24 20:12:50.75	134.86	14.84	-37.5	-39.6	26.0	0.00e+00	0	37	0	0	45	4872
2026-01-24 20:12:51.75	134.64	14.73	-37.6	-39.6	26.0	0.00e+00	0	37	0	0	45	4922
2026-01-24 20:12:52.74	134.42	14.61	-37.4	-39.5	25.9	0.00e+00	0	37	0	0	45	4854
2026-01-24 20:12:53.73	134.21	14.50	-37.4	-39.5	25.8	0.00e+00	0	37	0	0	45	4817
2026-01-24 20:12:54.73	134.00	14.38	-37.5	-39.6	25.8	3.40e-06	0	37	0	0	45	4894
2026-01-24 20:12:55.72	133.79	14.27	-37.6	-39.7	25.8	3.40e-06	0	37	0	0	45	4964
2026-01-24 20:12:56.72	133.59	14.15	-37.7	-39.9	25.3	0.00e+00	0	37	0	0	46	4776
2026-01-24 20:12:57.72	133.38	14.04	-37.9	-40.0	25.5	9.10e-06	0	37	0	0	46	4863
2026-01-24 20:12:58.71	133.18	13.93	-37.9	-40.0	25.6	9.10e-06	0	37	0	0	46	4862
2026-01-24 20:12:59.71	132.98	13.81	-38.0	-40.2	25.4	0.00e+00	0	37	0	0	46	4963
2026-01-24 20:13:00.70	132.78	13.70	-38.1	-40.3	25.2	0.00e+00	0	37	0	0	46	5041
2026-01-24 20:13:01.70	132.58	13.59	-38.1	-40.3	25.3	0.00e+00	0	37	0	0	46	5032
2026-01-24 20:13:02.69	132.39	13.48	-38.1	-40.3	25.3	0.00e+00	0	37	0	0	46	4985
2026-01-24 20:13:03.69	132.20	13.37	-38.0	-40.2	24.9	2.63e-05	0	37	0	0	46	4959
2026-01-24 20:13:04.69	132.00	13.26	-38.0	-40.2	25.1	2.63e-05	0	37	0	0	46	4958
2026-01-24 20:13:05.68	131.82	13.15	-38.0	-40.2	25.3	1.23e-04	0	37	0	0	46	4952
2026-01-24 20:13:06.67	131.63	13.04	-38.1	-40.3	25.3	1.10e-06	0	37	0	0	46	5001
2026-01-24 20:13:07.67	131.44	12.93	-38.0	-40.2	25.3	0.00e+00	0	37	0	0	46	4938
2026-01-24 20:13:08.66	131.26	12.82	-38.2	-40.4	25.2	0.00e+00	0	37	0	0	47	4767
2026-01-24 20:13:09.66	131.08	12.72	-38.4	-40.6	25.1	0.00e+00	0	37	0	0	47	4880
2026-01-24 20:13:10.65	130.90	12.61	-38.4	-40.6	25.0	0.00e+00	0	37	0	0	47	4917
2026-01-24 20:13:11.65	130.72	12.50	-38.6	-40.8	24.9	0.00e+00	0	37	0	0	47	4999
2026-01-24 20:13:12.64	130.55	12.40	-38.6	-40.9	24.8	0.00e+00	0	37	0	0	47	5051
2026-01-24 20:13:13.64	130.37	12.29	-38.7	-40.9	24.8	0.00e+00	0	37	0	0	48	4772
2026-01-24 20:13:14.63	130.20	12.18	-38.7	-40.9	24.8	0.00e+00	0	37	0	0	48	4785
2026-01-24 20:13:15.63	130.03	12.08	-38.7	-40.9	24.8	0.00e+00	0	37	0	0	48	4785
2026-01-24 20:13:16.62	129.86	11.98	-38.6	-40.8	24.9	0.00e+00	0	37	0	0	48	4712
2026-01-24 20:13:17.62	129.69	11.87	-38.6	-40.8	24.9	0.00e+00	0	37	0	0	48	4737
2026-01-24 20:13:18.61	129.52	11.77	-38.8	-41.0	24.6	0.00e+00	0	37	0	0	48	4848
2026-01-24 20:13:19.61	129.35	11.66	-38.9	-41.1	24.5	0.00e+00	0	37	0	0	48	4920
2026-01-24 20:13:20.60	129.19	11.56	-39.0	-41.3	24.4	0.00e+00	0	37	0	0	48	5007
2026-01-24 20:13:21.60	129.03	11.46	-39.1	-41.4	24.3	0.00e+00	0	37	0	0	48	5087
2026-01-24 20:13:22.59	128.87	11.36	-39.1	-41.4	24.3	0.00e+00	0	37	0	0	49	4807
2026-01-24 20:13:23.58	128.71	11.26	-39.2	-41.5	24.2	0.00e+00	0	37	0	0	49	4831
2026-01-24 20:13:24.58	128.55	11.16	-39.1	-41.4	24.3	0.00e+00	0	37	0	0	49	4795
2026-01-24 20:13:25.57	128.40	11.06	-39.1	-41.4	24.2	0.00e+00	0	37	0	0	49	4810
2026-01-24 20:13:26.57	128.24	10.96	-39.1	-41.5	24.2	0.00e+00	0	37	0	0	49	4825
2026-01-24 20:13:27.56	128.09	10.86	-39.0	-41.3	24.4	0.00e+00	0	37	0	0	49	4708
2026-01-24 20:13:28.56	127.94	10.76	-39.1	-41.4	24.3	0.00e+00	0	37	0	0	49	4760
2026-01-24 20:13:29.55	127.79	10.66	-39.1	-41.4	24.3	0.00e+00	0	37	0	0	49	4781
2026-01-24 20:13:30.54	127.64	10.56	-39.2	-41.5	24.1	0.00e+00	0	37	0	0	49	4870
2026-01-24 20:13:31.54	127.49	10.46	-39.3	-41.6	24.0	0.00e+00	0	37	0	0	49	4922
2026-01-24 20:13:32.53	127.34	10.37	-39.2	-41.5	24.1	0.00e+00	0	37	0	0	49	4842
2026-01-24 20:13:33.53	127.20	10.27	-39.2	-41.5	24.1	0.00e+00	0	37	0	0	49	4852
2026-01-24 20:13:34.52	127.05	10.17	-39.3	-41.6	24.1	0.00e+00	0	37	0	0	49	4895
2026-01-24 20:13:35.52	126.91	10.08	-39.4	-41.7	23.9	0.00e+00	0	37	0	0	49	4951
2026-01-24 20:13:36.51	126.77	9.98	-39.5	-41.9	23.7	0.00e+00	0	37	0	0	49	5049
2026-01-24 20:13:37.50	126.63	9.89	-39.6	-41.9	23.7	0.00e+00	0	37	0	0	49	5087
2026-01-24 20:13:38.50	126.49	9.79	-39.7	-42.1	23.5	0.00e+00	0	37	0	0	50	4884
2026-01-24 20:13:39.49	126.35	9.70	-40.0	-42.4	23.2	0.00e+00	0	37	0	0	50	5069
2026-01-24 20:13:40.49	126.22	9.61	-40.2	-42.6	23.0	0.00e+00	0	37	0	0	50	5205
2026-01-24 20:13:41.48	126.08	9.51	-40.1	-42.6	23.0	0.00e+00	0	37	0	0	51	4898
2026-01-24 20:13:42.47	125.95	9.42	-40.2	-42.7	22.9	0.00e+00	0	37	0	0	51	4946
2026-01-24 20:13:43.47	125.82	9.33	-40.0	-42.4	23.1	0.00e+00	0	37	0	0	51	4811
2026-01-24 20:13:44.47	125.68	9.23	-39.9	-42.3	23.2	0.00e+00	0	37	0	0	51	4711
2026-01-24 20:13:45.46	125.55	9.14	-40.0	-42.4	23.2	0.00e+00	0	37	0	0	51	4779
2026-01-24 20:13:46.46	125.42	9.05	-39.7	-42.1	23.4	0.00e+00	0	37	0	0	51	4647
2026-01-24 20:13:47.45	125.30	8.96	-39.8	-42.2	23.4	0.00e+00	0	37	0	0	51	4657
2026-01-24 20:13:48.45	125.17	8.87	-48.2	-66.5	3.7	2.56e-01	0	37	104	0	66	32324
2026-01-24 20:13:49.44	125.04	8.78	-48.3	-67.1	3.8	2.56e-01	0	37	104	0	67	32738
2026-01-24 20:13:50.43	124.92	8.69	-48.5	-67.1	3.8	8.47e-01	0	37	104	0	67	32909
2026-01-24 20:13:51.42	124.79	8.60	-48.5	-67.3	3.8	8.47e-01	0	37	104	0	67	33348
2026-01-24 20:13:52.42	124.67	8.51	-48.4	-67.4	3.8	8.47e-01	0	37	104	0	67	33708
2026-01-24 20:13:53.41	124.55	8.42	-48.4	-67.4	3.8	8.46e-01	0	37	104	0	67	33938
2026-01-24 20:13:54.40	124.43	8.34	-48.7	-67.6	3.8	8.46e-01	0	37	104	0	68	32752
2026-01-24 20:13:55.40	124.31	8.25	-48.8	-67.6	3.8	8.46e-01	0	37	104	0	68	32831
2026-01-24 20:13:56.39	124.19	8.16	-48.8	-67.7	3.8	8.46e-01	0	37	104	0	68	33037
2026-01-24 20:13:57.38	124.07	8.07	-48.6	-67.7	3.8	8.47e-01	0	37	104	0	68	33101
2026-01-24 20:13:58.38	123.96	7.99	-48.9	-67.7	3.8	8.47e-01	0	37	104	0	68	33287
2026-01-24 20:13:59.37	123.84	7.90	-48.7	-67.7	3.8	8.48e-01	0	37	104	0	68	33270
2026-01-24 20:14:00.36	123.73	7.82	-48.6	-67.8	3.8	8.46e-01	0	37	104	0	68	33338
2026-01-24 20:14:01.36	123.61	7.73	-48.6	-67.8	3.8	8.46e-01	0	37	104	0	68	33368
2026-01-24 20:14:02.35	123.50	7.64	-48.7	-67.8	3.8	8.46e-01	0	37	104	0	68	33378
2026-01-24 20:14:03.34	123.39	7.56	-48.8	-67.8	3.8	8.47e-01	0	37	104	0	68	33462
2026-01-24 20:14:04.34	123.27	7.48	-48.7	
