passes_logs/2026/01/24/T1/T1__20260124_234750_SUOMI_NPP_rec.log

#Pass ID: 20260124_234750_SUOMI NPP
#Satellite: SUOMI NPP
#Configuration: NPP
#almurnet v.1.7.20251203
#Start time: 2026-01-24 23:47:52

#Version: 2.0.20230620
#Station: T1
#Location: 37.570604 lon 55.790049 lat
#TLE: 1 37849U 11061A   26024.54906732  .00000185  00000+0  10878-3 0  9990
#TLE: 2 37849  98.7821 326.5159 0002200  47.3746 312.7615 14.19529340738061

#Time	Az	El	Level	Level2	SNR	BER	BlckErr	Temp	State	Recorded	gain1	gain2
2026-01-24 23:47:52.70	16.21	5.15	-46.7	-63.0	3.8	1.49e+00	0	35	0	0	65	23019
2026-01-24 23:47:53.69	16.21	5.22	-46.6	-63.1	3.8	1.49e+00	0	35	104	0	64	24597
2026-01-24 23:47:54.68	16.22	5.30	-46.7	-63.1	3.8	1.49e+00	0	35	104	0	64	24589
2026-01-24 23:47:55.68	16.22	5.37	-46.6	-63.1	3.8	1.49e+00	0	35	104	0	64	24591
2026-01-24 23:47:56.67	16.22	5.44	-46.6	-63.1	3.8	1.49e+00	0	35	104	0	64	24511
2026-01-24 23:47:57.66	16.22	5.51	-46.6	-63.1	3.8	1.49e+00	0	35	104	0	64	24538
2026-01-24 23:47:58.65	16.23	5.58	-46.6	-63.1	3.8	1.49e+00	0	35	104	0	64	24509
2026-01-24 23:47:59.65	16.23	5.66	-46.6	-63.1	3.8	1.49e+00	0	35	104	0	64	24412
2026-01-24 23:48:00.64	16.23	5.73	-46.7	-63.0	3.8	1.49e+00	0	35	104	0	64	24326
2026-01-24 23:48:01.63	16.23	5.80	-46.6	-63.1	3.8	1.49e+00	0	35	104	0	64	24417
2026-01-24 23:48:02.63	16.24	5.87	-46.7	-63.0	3.8	1.49e+00	0	35	104	0	64	24293
2026-01-24 23:48:03.62	16.24	5.95	-46.7	-63.0	3.8	1.49e+00	0	35	104	0	64	24330
2026-01-24 23:48:04.61	16.24	6.02	-46.7	-63.1	3.8	1.49e+00	0	35	104	0	64	24445
2026-01-24 23:48:05.61	16.24	6.09	-46.6	-63.0	3.8	1.49e+00	0	35	104	0	64	24317
2026-01-24 23:48:06.60	16.24	6.17	-46.6	-63.0	3.8	1.49e+00	0	35	104	0	64	24382
2026-01-24 23:48:07.59	16.25	6.24	-46.7	-63.1	3.8	1.49e+00	0	35	104	0	64	24463
2026-01-24 23:48:08.58	16.25	6.32	-46.7	-63.1	3.8	1.49e+00	0	36	104	0	64	24424
2026-01-24 23:48:09.58	16.25	6.39	-46.7	-63.0	3.8	1.49e+00	0	35	104	0	64	24358
2026-01-24 23:48:10.57	16.25	6.46	-46.6	-63.0	3.8	1.49e+00	0	35	104	0	64	24296
2026-01-24 23:48:11.56	16.26	6.54	-46.7	-63.0	3.8	1.49e+00	0	35	104	0	64	24327
2026-01-24 23:48:12.56	16.26	6.61	-46.7	-62.9	3.8	1.49e+00	0	36	104	0	64	24127
2026-01-24 23:48:13.55	16.26	6.69	-46.7	-62.9	3.8	1.49e+00	0	36	104	0	64	24014
2026-01-24 23:48:14.54	16.26	6.76	-46.6	-62.8	3.8	1.49e+00	0	36	104	0	64	23726
2026-01-24 23:48:15.53	16.26	6.84	-46.6	-62.7	3.8	1.49e+00	0	36	104	0	64	23528
2026-01-24 23:48:16.53	16.27	6.92	-46.6	-62.6	3.8	1.49e+00	0	36	104	0	64	23132
2026-01-24 23:48:17.52	16.27	6.99	-46.6	-62.4	3.8	1.49e+00	0	36	104	0	64	22780
2026-01-24 23:48:18.52	16.27	7.07	-46.6	-62.4	3.8	1.49e+00	0	36	104	0	64	22521
2026-01-24 23:48:19.51	16.27	7.15	-46.6	-62.2	3.8	1.49e+00	0	36	104	0	64	22080
2026-01-24 23:48:20.50	16.28	7.22	-46.6	-62.0	3.8	1.49e+00	0	36	104	0	64	21753
2026-01-24 23:48:21.49	16.28	7.30	-46.6	-61.8	3.8	1.49e+00	0	36	104	0	64	21234
2026-01-24 23:48:22.49	16.28	7.38	-46.6	-61.7	3.8	1.49e+00	0	36	104	0	64	20896
2026-01-24 23:48:23.45	16.28	7.45	-46.6	-61.5	3.8	1.49e+00	0	36	104	0	64	20492
2026-01-24 23:48:24.44	16.28	7.53	-46.6	-61.3	3.8	1.49e+00	0	36	104	0	64	20003
2026-01-24 23:48:25.44	16.29	7.61	-46.6	-61.1	3.8	1.49e+00	0	36	104	0	64	19528
2026-01-24 23:48:26.43	16.29	7.69	-46.5	-60.8	3.8	1.49e+00	0	36	104	0	64	18796
2026-01-24 23:48:27.42	16.29	7.76	-46.5	-60.5	3.8	1.48e+00	0	36	104	0	64	18282
2026-01-24 23:48:28.42	16.29	7.84	-46.5	-60.3	3.9	1.47e+00	0	36	104	0	64	17777
2026-01-24 23:48:29.41	16.29	7.92	-46.5	-59.8	4.1	1.43e+00	0	36	0	0	64	16786
2026-01-24 23:48:30.40	16.30	8.00	-46.5	-59.4	4.2	1.39e+00	0	36	0	0	64	16049
2026-01-24 23:48:31.39	16.30	8.08	-46.4	-58.8	4.4	1.35e+00	0	36	0	0	64	15033
2026-01-24 23:48:32.39	16.30	8.16	-46.4	-58.4	4.6	1.18e+00	0	36	0	2097152	64	14214
2026-01-24 23:48:33.38	16.30	8.24	-46.3	-57.8	4.8	8.59e-01	0	36	0	4194304	64	13363
2026-01-24 23:48:34.37	16.30	8.32	-46.3	-57.2	5.2	6.92e-01	0	36	0	5242880	64	12431
2026-01-24 23:48:35.37	16.31	8.40	-46.2	-56.7	5.5	5.73e-01	0	36	0	7340032	64	11783
2026-01-24 23:48:36.36	16.31	8.48	-46.1	-56.2	5.9	4.52e-01	0	36	0	9437184	64	11048
2026-01-24 23:48:37.35	16.31	8.56	-46.0	-55.5	6.4	2.99e-01	0	36	0	11534336	64	10220
2026-01-24 23:48:38.35	16.31	8.64	-46.0	-55.1	6.7	2.08e-01	0	37	0	12582912	64	9775
2026-01-24 23:48:39.34	16.31	8.73	-45.9	-54.6	7.3	1.65e-01	0	36	0	14680064	63	9763
2026-01-24 23:48:40.33	16.32	8.81	-45.9	-54.3	7.4	1.15e-01	0	36	0	16777216	63	9494
2026-01-24 23:48:41.33	16.32	8.89	-45.8	-54.1	7.7	9.48e-02	0	36	0	18874368	63	9195
2026-01-24 23:48:42.32	16.32	8.97	-45.8	-53.9	7.9	7.59e-02	0	36	0	20971520	63	9066
2026-01-24 23:48:43.31	16.32	9.05	-45.8	-54.0	7.8	7.22e-02	0	36	0	22020096	63	9075
2026-01-24 23:48:44.31	16.32	9.14	-46.1	-54.8	7.1	1.44e-01	0	36	0	24117248	63	9954
2026-01-24 23:48:45.30	16.32	9.22	-46.0	-54.6	7.2	2.83e-01	0	36	0	26214400	63	9721
2026-01-24 23:48:46.30	16.33	9.30	-46.4	-57.1	5.4	2.14e-01	0	36	0	28311552	63	13032
2026-01-24 23:48:47.29	16.33	9.39	-46.6	-58.6	4.5	1.24e+00	0	36	104	28311552	64	14563
2026-01-24 23:48:48.28	16.33	9.47	-43.8	-48.4	13.5	2.89e-05	0	36	0	29360128	59	6042
2026-01-24 23:48:49.28	16.33	9.56	-43.7	-48.1	13.8	1.22e-05	0	36	0	31457280	59	5849
2026-01-24 23:48:50.27	16.33	9.64	-43.0	-47.0	14.9	0.00e+00	0	36	0	33554432	58	5437
2026-01-24 23:48:51.26	16.34	9.73	-42.7	-46.4	15.5	0.00e+00	0	36	0	34603008	57	5399
2026-01-24 23:48:52.26	16.34	9.81	-42.6	-46.3	15.7	0.00e+00	0	36	0	36700160	57	5311
2026-01-24 23:48:53.25	16.34	9.90	-42.7	-46.4	15.6	0.00e+00	0	36	0	38797312	57	5357
2026-01-24 23:48:54.25	16.34	9.98	-42.6	-46.3	15.7	0.00e+00	0	36	0	40894464	57	5286
2026-01-24 23:48:55.24	16.34	10.07	-42.6	-46.3	15.7	0.00e+00	0	36	0	42991616	57	5304
2026-01-24 23:48:56.24	16.34	10.16	-42.4	-46.0	16.0	0.00e+00	0	36	0	44040192	56	5443
2026-01-24 23:48:57.23	16.35	10.24	-42.5	-46.3	15.8	0.00e+00	0	36	0	46137344	56	5594
2026-01-24 23:48:58.23	16.35	10.33	-42.4	-46.0	15.9	0.00e+00	0	36	0	48234496	56	5464
2026-01-24 23:48:59.22	16.35	10.42	-42.4	-46.0	16.0	0.00e+00	0	36	0	50331648	56	5415
2026-01-24 23:49:00.21	16.35	10.50	-42.4	-45.9	16.0	0.00e+00	0	36	0	51380224	56	5371
2026-01-24 23:49:01.20	16.35	10.59	-42.4	-45.9	16.1	0.00e+00	0	36	0	53477376	56	5395
2026-01-24 23:49:02.20	16.35	10.68	-42.4	-45.9	16.0	0.00e+00	0	36	0	55574528	56	5398
2026-01-24 23:49:03.19	16.35	10.77	-42.4	-45.8	16.2	0.00e+00	0	37	0	57671680	56	5316
2026-01-24 23:49:04.19	16.36	10.86	-42.2	-45.6	16.4	0.00e+00	0	36	0	59768832	56	5194
2026-01-24 23:49:05.18	16.36	10.95	-42.3	-45.8	16.3	0.00e+00	0	36	0	60817408	56	5294
2026-01-24 23:49:06.18	16.36	11.04	-42.3	-45.8	16.2	0.00e+00	0	37	0	62914560	56	5323
2026-01-24 23:49:07.17	16.36	11.13	-42.2	-45.7	16.3	0.00e+00	0	37	0	65011712	56	5259
2026-01-24 23:49:08.17	16.36	11.22	-42.2	-45.8	16.2	0.00e+00	0	37	0	67108864	56	5283
2026-01-24 23:49:09.17	16.36	11.31	-42.1	-45.5	16.5	0.00e+00	0	37	0	68157440	56	5127
2026-01-24 23:49:10.16	16.37	11.40	-42.1	-45.5	16.5	0.00e+00	0	37	0	70254592	56	5112
2026-01-24 23:49:11.16	16.37	11.49	-42.1	-45.5	16.5	0.00e+00	0	37	0	72351744	56	5106
2026-01-24 23:49:12.15	16.37	11.58	-42.1	-45.4	16.6	0.00e+00	0	37	0	74448896	56	5086
2026-01-24 23:49:13.15	16.37	11.67	-42.1	-45.5	16.6	0.00e+00	0	37	0	76546048	56	5103
2026-01-24 23:49:14.14	16.37	11.77	-42.2	-45.5	16.5	0.00e+00	0	37	0	77594624	56	5128
2026-01-24 23:49:15.13	16.37	11.86	-41.9	-45.1	16.7	0.00e+00	0	37	0	79691776	55	5209
2026-01-24 23:49:16.13	16.37	11.95	-42.0	-45.2	16.6	0.00e+00	0	37	0	81788928	55	5277
2026-01-24 23:49:17.12	16.37	12.04	-41.9	-45.1	16.7	0.00e+00	0	37	0	83886080	55	5206
2026-01-24 23:49:18.11	16.38	12.14	-41.8	-44.9	17.0	0.00e+00	0	37	0	84934656	55	5082
2026-01-24 23:49:19.11	16.38	12.23	-41.7	-44.9	17.0	0.00e+00	0	37	0	87031808	55	5062
2026-01-24 23:49:20.10	16.38	12.33	-41.8	-44.9	17.0	0.00e+00	0	37	0	89128960	55	5075
2026-01-24 23:49:21.10	16.38	12.42	-41.9	-45.1	16.8	0.00e+00	0	37	0	91226112	55	5206
2026-01-24 23:49:22.09	16.38	12.52	-41.6	-44.7	17.1	0.00e+00	0	37	0	93323264	55	4971
2026-01-24 23:49:23.09	16.38	12.61	-41.7	-44.8	17.1	0.00e+00	0	37	0	94371840	54	5304
2026-01-24 23:49:24.08	16.38	12.71	-41.6	-44.7	17.2	0.00e+00	0	37	0	96468992	54	5234
2026-01-24 23:49:25.08	16.38	12.81	-41.5	-44.5	17.4	0.00e+00	0	37	0	98566144	54	5142
2026-01-24 23:49:26.07	16.39	12.90	-41.5	-44.5	17.4	0.00e+00	0	37	0	100663296	54	5118
2026-01-24 23:49:27.07	16.39	13.00	-41.6	-44.7	17.2	0.00e+00	0	37	0	101711872	54	5254
2026-01-24 23:49:28.06	16.39	13.10	-41.4	-44.4	17.5	0.00e+00	0	37	0	103809024	54	5046
2026-01-24 23:49:29.06	16.39	13.19	-41.5	-44.5	17.3	0.00e+00	0	37	0	105906176	54	5146
2026-01-24 23:49:30.05	16.39	13.29	-41.3	-44.2	17.7	0.00e+00	0	37	0	108003328	54	4970
2026-01-24 23:49:31.05	16.39	13.39	-41.3	-44.1	17.7	0.00e+00	0	37	0	110100480	54	4924
2026-01-24 23:49:32.04	16.39	13.49	-41.3	-44.2	17.7	0.00e+00	0	37	0	111149056	54	4944
2026-01-24 23:49:33.03	16.39	13.59	-41.3	-44.1	17.8	0.00e+00	0	37	0	113246208	54	4900
2026-01-24 23:49:34.03	16.39	13.69	-41.3	-44.1	17.8	0.00e+00	0	37	0	115343360	54	4893
2026-01-24 23:49:35.02	16.40	13.79	-41.3	-44.2	17.7	0.00e+00	0	37	0	117440512	54	4931
2026-01-24 23:49:36.02	16.40	13.89	-41.3	-44.2	17.7	0.00e+00	0	37	0	118489088	54	4933
2026-01-24 23:49:37.01	16.40	13.99	-41.3	-44.0	17.9	0.00e+00	0	37	0	120586240	54	4857
2026-01-24 23:49:38.01	16.40	14.09	-41.3	-44.0	17.9	0.00e+00	0	37	0	122683392	54	4821
2026-01-24 23:49:39.00	16.40	14.20	-41.3	-44.0	17.9	0.00e+00	0	37	0	124780544	54	4825
2026-01-24 23:49:40.00	16.40	14.30	-41.2	-43.9	18.0	0.00e+00	0	37	0	126877696	54	4778
2026-01-24 23:49:40.99	16.40	14.40	-41.2	-43.9	18.0	0.00e+00	0	37	0	127926272	54	4788
2026-01-24 23:49:41.99	16.40	14.51	-41.1	-43.7	18.1	0.00e+00	0	37	0	130023424	54	4699
2026-01-24 23:49:42.98	16.40	14.61	-41.2	-43.8	18.1	0.00e+00	0	37	0	132120576	54	4737
2026-01-24 23:49:43.98	16.40	14.71	-41.0	-43.6	18.3	0.00e+00	0	37	0	134217728	53	4891
2026-01-24 23:49:44.97	16.40	14.82	-41.0	-43.5	18.4	0.00e+00	0	37	0	135266304	53	4861
2026-01-24 23:49:45.97	16.40	14.92	-41.0	-43.6	18.3	0.00e+00	0	37	0	137363456	53	4883
2026-01-24 23:49:46.97	16.41	15.03	-41.1	-43.6	18.3	0.00e+00	0	37	0	139460608	53	4903
2026-01-24 23:49:47.96	16.41	15.13	-41.1	-43.7	18.3	0.00e+00	0	37	0	141557760	53	4931
2026-01-24 23:49:48.95	16.41	15.24	-40.9	-43.4	18.4	0.00e+00	0	37	0	143654912	53	4798
2026-01-24 23:49:49.95	16.41	15.35	-41.1	-43.5	18.3	0.00e+00	0	37	0	144703488	53	4860
2026-01-24 23:49:50.94	16.41	15.46	-41.1	-43.6	18.3	0.00e+00	0	37	0	146800640	53	4898
2026-01-24 23:49:51.94	16.41	15.56	-41.0	-43.4	18.5	0.00e+00	0	37	0	148897792	53	4797
2026-01-24 23:49:52.93	16.41	15.67	-41.3	-43.8	18.1	0.00e+00	0	37	0	150994944	53	4994
2026-01-24 23:49:53.93	16.41	15.78	-41.2	-43.7	18.2	0.00e+00	0	37	0	152043520	53	4952
2026-01-24 23:49:54.92	16.41	15.89	-41.2	-43.7	18.2	0.00e+00	0	37	0	154140672	53	4959
2026-01-24 23:49:55.91	16.41	16.00	-41.3	-43.8	18.1	0.00e+00	0	37	0	156237824	53	5041
2026-01-24 23:49:56.91	16.41	16.11	-41.3	-43.7	18.2	0.00e+00	0	37	0	158334976	53	4967
2026-01-24 23:49:57.90	16.41	16.22	-41.2	-43.7	18.2	0.00e+00	0	37	0	160432128	53	4955
2026-01-24 23:49:58.89	16.41	16.33	-41.3	-43.8	18.1	0.00e+00	0	37	0	161480704	53	5023
2026-01-24 23:49:59.89	16.41	16.44	-41.0	-43.5	18.4	0.00e+00	0	37	0	163577856	53	4823
2026-01-24 23:50:00.88	16.41	16.56	-41.2	-43.7	18.2	0.00e+00	0	37	0	165675008	53	4954
2026-01-24 23:50:01.87	16.41	16.67	-41.3	-43.7	18.1	0.00e+00	0	37	0	167772160	53	4980
2026-01-24 23:50:02.87	16.41	16.78	-41.2	-43.6	18.3	0.00e+00	0	37	0	168820736	53	4903
2026-01-24 23:50:03.86	16.41	16.90	-41.2	-43.7	18.2	0.00e+00	0	37	0	170917888	53	4965
2026-01-24 23:50:04.86	16.41	17.01	-41.2	-43.7	18.3	0.00e+00	0	37	0	173015040	53	4929
2026-01-24 23:50:05.85	16.41	17.13	-41.1	-43.5	18.4	0.00e+00	0	37	0	175112192	53	4855
2026-01-24 23:50:06.85	16.41	17.24	-41.2	-43.6	18.3	0.00e+00	0	37	0	177209344	53	4918
2026-01-24 23:50:07.84	16.41	17.36	-41.2	-43.7	18.3	0.00e+00	0	37	0	178257920	53	4930
2026-01-24 23:50:08.83	16.41	17.47	-41.1	-43.6	18.4	0.00e+00	0	37	0	180355072	53	4875
2026-01-24 23:50:09.83	16.41	17.59	-41.0	-43.4	18.5	0.00e+00	0	37	0	182452224	53	4767
2026-01-24 23:50:10.82	16.41	17.71	-41.1	-43.5	18.4	0.00e+00	0	37	0	184549376	53	4852
2026-01-24 23:50:11.82	16.41	17.83	-41.2	-43.7	18.2	0.00e+00	0	37	0	185597952	53	4941
2026-01-24 23:50:12.81	16.41	17.95	-41.1	-43.5	18.4	0.00e+00	0	37	0	187695104	53	4850
2026-01-24 23:50:13.81	16.41	18.07	-41.1	-43.6	18.3	0.00e+00	0	37	0	189792256	53	4895
2026-01-24 23:50:14.80	16.41	18.19	-41.2	-43.6	18.3	0.00e+00	0	37	0	191889408	53	4921
2026-01-24 23:50:15.79	16.41	18.31	-41.2	-43.7	18.3	0.00e+00	0	37	0	193986560	53	4945
2026-01-24 23:50:16.79	16.41	18.43	-41.3	-43.9	18.1	0.00e+00	0	37	0	195035136	53	5042
2026-01-24 23:50:17.78	16.41	18.55	-41.2	-43.7	18.2	0.00e+00	0	37	0	197132288	53	4966
2026-01-24 23:50:18.78	16.41	18.67	-41.1	-43.6	18.3	0.00e+00	0	37	0	199229440	53	4907
2026-01-24 23:50:19.78	16.41	18.80	-41.1	-43.6	18.4	0.00e+00	0	37	0	201326592	53	4879
2026-01-24 23:50:20.77	16.41	18.92	-41.1	-43.6	18.2	0.00e+00	0	37	0	202375168	53	4918
2026-01-24 23:50:21.77	16.41	19.05	-41.3	-43.9	18.1	0.00e+00	0	37	0	204472320	53	5065
2026-01-24 23:50:22.76	16.41	19.17	-41.2	-43.7	18.2	0.00e+00	0	37	0	206569472	53	4964
2026-01-24 23:50:23.75	16.41	19.30	-41.2	-43.7	18.2	0.00e+00	0	37	0	208666624	53	4981
2026-01-24 23:50:24.75	16.41	19.42	-41.3	-43.9	18.1	0.00e+00	0	37	0	210763776	53	5052
2026-01-24 23:50:25.74	16.41	19.55	-41.2	-43.7	18.2	0.00e+00	0	37	0	211812352	53	4978
2026-01-24 23:50:26.74	16.41	19.68	-41.2	-43.8	18.2	0.00e+00	0	37	0	213909504	53	5009
2026-01-24 23:50:27.73	16.41	19.81	-41.3	-43.9	18.1	0.00e+00	0	37	0	216006656	53	5046
2026-01-24 23:50:28.73	16.41	19.94	-41.2	-43.8	18.2	0.00e+00	0	37	0	218103808	53	5016
2026-01-24 23:50:29.72	16.41	20.06	-41.1	-43.7	18.3	0.00e+00	0	37	0	219152384	53	4959
2026-01-24 23:50:30.71	16.41	20.19	-41.2	-43.8	18.2	0.00e+00	0	37	0	221249536	53	4992
2026-01-24 23:50:31.71	16.41	20.33	-41.1	-43.7	18.3	0.00e+00	0	37	0	223346688	53	4932
2026-01-24 23:50:32.70	16.41	20.46	-41.2	-43.8	18.1	0.00e+00	0	37	0	225443840	53	5004
2026-01-24 23:50:33.70	16.41	20.59	-41.1	-43.6	18.4	0.00e+00	0	37	0	227540992	53	4904
2026-01-24 23:50:34.69	16.41	20.72	-41.2	-43.7	18.2	0.00e+00	0	37	0	228589568	53	4971
2026-01-24 23:50:35.68	16.40	20.86	-41.0	-43.5	18.4	0.00e+00	0	37	0	230686720	53	4861
2026-01-24 23:50:36.68	16.40	20.99	-41.2	-43.7	18.3	0.00e+00	0	37	0	232783872	53	4948
2026-01-24 23:50:37.67	16.40	21.13	-41.2	-43.8	18.2	0.00e+00	0	37	0	234881024	53	5001
2026-01-24 23:50:38.67	16.40	21.26	-41.3	-43.8	18.2	0.00e+00	0	37	0	235929600	53	5028
2026-01-24 23:50:39.66	16.40	21.40	-41.1	-43.7	18.4	0.00e+00	0	37	0	238026752	53	4927
2026-01-24 23:50:40.66	16.40	21.54	-41.4	-44.0	18.0	0.00e+00	0	37	0	240123904	53	5103
2026-01-24 23:50:41.65	16.40	21.67	-41.5	-44.1	17.9	0.00e+00	0	37	0	242221056	53	5170
2026-01-24 23:50:42.65	16.40	21.81	-41.5	-44.1	17.9	0.00e+00	0	37	0	244318208	53	5181
2026-01-24 23:50:43.64	16.40	21.95	-41.5	-44.1	18.0	0.00e+00	0	37	0	245366784	53	5165
2026-01-24 23:50:44.63	16.40	22.09	-41.5	-44.1	17.9	0.00e+00	0	37	0	247463936	53	5180
2026-01-24 23:50:45.63	16.39	22.24	-41.4	-44.0	18.0	0.00e+00	0	37	0	249561088	53	5118
2026-01-24 23:50:46.62	16.39	22.38	-41.4	-43.9	18.1	0.00e+00	0	37	0	251658240	53	5080
2026-01-24 23:50:47.62	16.39	22.52	-41.3	-43.9	18.1	0.00e+00	0	37	0	253755392	53	5054
2026-01-24 23:50:48.61	16.39	22.66	-41.3	-43.8	18.2	0.00e+00	0	37	0	254803968	53	5033
2026-01-24 23:50:49.61	16.39	22.81	-41.5	-44.0	18.0	0.00e+00	0	37	0	256901120	53	5149
2026-01-24 23:50:50.60	16.39	22.95	-41.2	-43.8	18.2	0.00e+00	0	37	0	258998272	53	4995
2026-01-24 23:50:51.60	16.39	23.10	-41.2	-43.8	18.2	0.00e+00	0	37	0	261095424	53	5004
2026-01-24 23:50:52.59	16.38	23.25	-41.3	-43.9	18.1	0.00e+00	0	37	0	262144000	53	5048
2026-01-24 23:50:53.59	16.38	23.40	-41.1	-43.7	18.3	0.00e+00	0	37	0	264241152	53	4960
2026-01-24 23:50:54.58	16.38	23.54	-41.1	-43.7	18.3	0.00e+00	0	37	0	266338304	53	4968
2026-01-24 23:50:55.58	16.38	23.69	-41.2	-43.9	18.1	0.00e+00	0	37	0	268435456	53	5045
2026-01-24 23:50:56.57	16.38	23.84	-41.2	-43.7	18.3	0.00e+00	0	37	0	270532608	53	4978
2026-01-24 23:50:57.57	16.37	24.00	-41.3	-43.9	18.1	0.00e+00	0	37	0	271581184	53	5095
2026-01-24 23:50:58.56	16.37	24.15	-41.3	-43.9	18.2	0.00e+00	0	37	0	273678336	53	5051
2026-01-24 23:50:59.56	16.37	24.30	-41.2	-43.8	18.2	0.00e+00	0	37	0	275775488	53	4996
2026-01-24 23:51:00.55	16.37	24.45	-41.2	-43.8	18.2	0.00e+00	0	37	0	277872640	53	5009
2026-01-24 23:51:01.55	16.37	24.61	-41.2	-43.8	18.2	0.00e+00	0	37	0	278921216	53	4996
2026-01-24 23:51:02.54	16.36	24.77	-41.1	-43.6	18.4	0.00e+00	0	37	0	281018368	53	4917
2026-01-24 23:51:03.54	16.36	24.92	-41.3	-43.8	18.3	0.00e+00	0	37	0	283115520	53	4991
2026-01-24 23:51:04.53	16.36	25.08	-41.1	-43.6	18.4	0.00e+00	0	37	0	285212672	53	4902
2026-01-24 23:51:05.52	16.36	25.24	-41.0	-43.4	18.6	0.00e+00	0	37	0	287309824	53	4800
2026-01-24 23:51:06.52	16.35	25.40	-41.1	-43.6	18.4	0.00e+00	0	37	0	288358400	53	4886
2026-01-24 23:51:07.51	16.35	25.56	-40.9	-43.2	18.7	0.00e+00	0	37	0	290455552	53	4699
2026-01-24 23:51:08.51	16.35	25.72	-41.1	-43.5	18.6	0.00e+00	0	37	0	292552704	53	4837
2026-01-24 23:51:09.50	16.35	25.88	-41.2	-43.6	18.4	0.00e+00	0	37	0	294649856	53	4894
2026-01-24 23:51:10.50	16.34	26.05	-41.1	-43.5	18.5	0.00e+00	0	37	0	295698432	53	4820
2026-01-24 23:51:11.49	16.34	26.21	-41.4	-43.9	18.2	0.00e+00	0	37	0	297795584	53	5073
2026-01-24 23:51:12.48	16.34	26.38	-41.4	-43.9	18.1	0.00e+00	0	37	0	299892736	53	5073
2026-01-24 23:51:13.48	16.34	26.54	-41.4	-43.9	18.2	0.00e+00	0	37	0	301989888	53	5051
2026-01-24 23:51:14.48	16.33	26.71	-41.6	-44.2	17.9	0.00e+00	0	37	0	304087040	53	5226
2026-01-24 23:51:15.47	16.33	26.88	-41.4	-43.8	18.2	0.00e+00	0	37	0	305135616	54	4725
2026-01-24 23:51:16.46	16.33	27.05	-41.4	-43.8	18.2	0.00e+00	0	37	0	307232768	54	4755
2026-01-24 23:51:17.46	16.32	27.22	-41.4	-43.9	18.2	0.00e+00	0	37	0	309329920	54	4780
2026-01-24 23:51:18.45	16.32	27.39	-41.2	-43.6	18.4	0.00e+00	0	37	0	311427072	54	4630
2026-01-24 23:51:19.45	16.32	27.57	-41.3	-43.8	18.4	0.00e+00	0	37	0	312475648	54	4737
2026-01-24 23:51:20.44	16.31	27.74	-41.2	-43.7	18.3	0.00e+00	0	37	0	314572800	54	4682
2026-01-24 23:51:21.44	16.31	27.92	-41.3	-43.8	18.3	0.00e+00	0	37	0	316669952	54	4728
2026-01-24 23:51:22.43	16.31	28.09	-41.7	-44.3	17.9	0.00e+00	0	37	0	318767104	54	5004
2026-01-24 23:51:23.43	16.30	28.27	-41.7	-44.3	17.8	0.00e+00	0	37	0	320864256	54	5007
2026-01-24 23:51:24.42	16.30	28.45	-41.8	-44.4	17.6	0.00e+00	0	37	0	321912832	54	5085
2026-01-24 23:51:25.42	16.29	28.63	-42.3	-45.1	17.0	0.00e+00	0	37	0	324009984	55	5205
2026-01-24 23:51:26.41	16.29	28.81	-42.2	-45.1	17.1	0.00e+00	0	37	0	326107136	55	5175
2026-01-24 23:51:27.40	16.29	28.99	-42.2	-45.1	17.0	0.00e+00	0	37	0	328204288	55	5207
2026-01-24 23:51:28.40	16.28	29.17	-42.7	-45.8	16.5	0.00e+00	0	37	0	329252864	56	5297
2026-01-24 23:51:29.39	16.28	29.36	-42.6	-45.6	16.7	0.00e+00	0	37	0	331350016	56	5198
2026-01-24 23:51:30.39	16.27	29.55	-42.6	-45.6	16.7	0.00e+00	0	37	0	333447168	56	5191
2026-01-24 23:51:31.38	16.27	29.73	-42.7	-45.8	16.6	0.00e+00	0	37	0	335544320	56	5304
2026-01-24 23:51:32.38	16.27	29.92	-42.6	-45.6	16.7	0.00e+00	0	37	0	337641472	56	5197
2026-01-24 23:51:33.38	16.26	30.11	-42.7	-45.8	16.6	0.00e+00	0	37	0	338690048	56	5298
2026-01-24 23:51:34.37	16.26	30.30	-42.7	-45.7	16.6	0.00e+00	0	37	0	340787200	56	5276
2026-01-24 23:51:35.36	16.25	30.49	-42.6	-45.5	16.9	0.00e+00	0	37	0	342884352	56	5133
2026-01-24 23:51:36.36	16.25	30.69	-42.8	-45.9	16.5	0.00e+00	0	37	0	344981504	56	5343
2026-01-24 23:51:37.35	16.24	30.88	-43.1	-46.2	16.2	0.00e+00	0	37	0	346030080	56	5550
2026-01-24 23:51:38.35	16.24	31.08	-42.9	-45.9	16.5	0.00e+00	0	37	0	348127232	56	5361
2026-01-24 23:51:39.34	16.23	31.27	-43.0	-46.1	16.4	0.00e+00	0	37	0	350224384	56	5467
2026-01-24 23:51:40.33	16.23	31.47	-43.0	-46.1	16.3	0.00e+00	0	37	0	352321536	57	5173
2026-01-24 23:51:41.33	16.22	31.67	-42.7	-45.6	16.8	0.00e+00	0	37	0	354418688	57	4875
2026-01-24 23:51:42.32	16.22	31.87	-42.8	-45.7	16.7	0.00e+00	0	37	0	355467264	57	4960
2026-01-24 23:51:43.32	16.21	32.08	-42.8	-45.6	16.7	0.00e+00	0	37	0	357564416	57	4921
2026-01-24 23:51:44.31	16.20	32.28	-42.8	-45.6	16.8	0.00e+00	0	37	0	359661568	56	5194
2026-01-24 23:51:45.30	16.20	32.48	-42.9	-45.7	16.7	0.00e+00	0	37	0	361758720	56	5245
2026-01-24 23:51:46.30	16.19	32.69	-42.9	-45.8	16.6	0.00e+00	0	37	0	362807296	56	5325
2026-01-24 23:51:47.29	16.19	32.90	-42.9	-45.7	16.7	0.00e+00	0	37	0	364904448	56	5267
2026-01-24 23:51:48.29	16.18	33.11	-43.0	-45.9	16.5	0.00e+00	0	37	0	367001600	56	5382
2026-01-24 23:51:49.28	16.17	33.32	-42.8	-45.6	16.8	0.00e+00	0	37	0	369098752	57	4902
2026-01-24 23:51:50.28	16.17	33.54	-43.2	-46.2	16.2	0.00e+00	0	37	0	371195904	57	5255
2026-01-24 23:51:51.27	16.16	33.75	-43.0	-45.9	16.5	0.00e+00	0	37	0	372244480	57	5074
2026-01-24 23:51:52.27	16.15	33.97	-42.3	-45.0	17.3	0.00e+00	0	37	0	374341632	56	4852
2026-01-24 23:51:53.26	16.15	34.18	-42.3	-45.0	17.3	0.00e+00	0	37	0	376438784	56	4856
2026-01-24 23:51:54.26	16.14	34.40	-42.2	-44.9	17.5	0.00e+00	0	37	0	378535936	56	4778
2026-01-24 23:51:55.25	16.13	34.62	-41.7	-44.3	17.8	0.00e+00	0	37	0	379584512	54	5007
2026-01-24 23:51:56.24	16.12	34.84	-41.7	-44.2	17.9	0.00e+00	0	37	0	381681664	54	4978
2026-01-24 23:51:57.24	16.12	35.07	-41.4	-43.9	18.3	0.00e+00	0	37	0	383778816	54	4768
2026-01-24 23:51:58.23	16.11	35.29	-41.6	-44.2	18.0	0.00e+00	0	38	0	385875968	54	4930
2026-01-24 23:51:59.23	16.10	35.52	-41.3	-43.7	18.4	0.00e+00	0	37	0	387973120	54	4702
2026-01-24 23:52:00.22	16.09	35.75	-41.0	-43.4	18.7	0.00e+00	0	37	0	389021696	54	4523
2026-01-24 23:52:01.22	16.08	35.98	-40.9	-43.2	18.9	0.00e+00	0	37	0	391118848	53	4675
2026-01-24 23:52:02.21	16.08	36.21	-40.8	-43.2	18.8	0.00e+00	0	37	0	393216000	53	4667
2026-01-24 23:52:03.21	16.07	36.44	-40.7	-43.0	19.1	0.00e+00	0	37	0	395313152	52	4826
2026-01-24 23:52:04.20	16.06	36.68	-40.4	-42.7	19.4	0.00e+00	0	37	0	396361728	52	4668
2026-01-24 23:52:05.20	16.05	36.92	-40.0	-42.2	19.8	0.00e+00	0	37	0	398458880	52	4408
2026-01-24 23:52:06.20	16.04	37.16	-40.1	-42.4	19.7	0.00e+00	0	37	0	400556032	52	4498
2026-01-24 23:52:07.19	16.03	37.40	-40.0	-42.2	19.9	0.00e+00	0	37	0	402653184	51	4680
2026-01-24 23:52:08.19	16.02	37.64	-40.2	-42.4	19.7	0.00e+00	0	37	0	404750336	51	4790
2026-01-24 23:52:09.18	16.01	37.88	-40.2	-42.5	19.6	0.00e+00	0	37	0	405798912	51	4817
2026-01-24 23:52:10.17	16.00	38.13	-39.9	-42.0	20.0	0.00e+00	0	37	0	407896064	51	4579
2026-01-24 23:52:11.17	15.99	38.38	-40.0	-42.2	19.9	0.00e+00	0	37	0	409993216	51	4671
2026-01-24 23:52:12.16	15.98	38.62	-40.1	-42.3	19.8	0.00e+00	0	37	0	412090368	51	4723
2026-01-24 23:52:13.16	15.97	38.88	-39.5	-41.7	20.3	0.00e+00	0	37	0	413138944	50	4660
2026-01-24 23:52:14.15	15.96	39.13	-39.7	-41.8	20.3	0.00e+00	0	37	0	415236096	50	4733
2026-01-24 23:52:15.15	15.95	39.38	-39.8	-42.0	20.0	0.00e+00	0	37	0	417333248	50	4856
2026-01-24 23:52:16.14	15.94	39.64	-40.3	-42.6	19.4	0.00e+00	0	37	0	419430400	51	4912
2026-01-24 23:52:17.13	15.93	39.90	-40.2	-42.5	19.7	0.00e+00	0	37	0	421527552	51	4815
2026-01-24 23:52:18.13	15.92	40.16	-40.3	-42.5	19.6	0.00e+00	0	37	0	422576128	51	4857
2026-01-24 23:52:19.12	15.90	40.42	-40.3	-42.5	19.6	0.00e+00	0	37	0	424673280	51	4856
2026-01-24 23:52:20.12	15.89	40.69	-40.3	-42.6	19.6	0.00e+00	0	37	0	426770432	51	4898
2026-01-24 23:52:21.11	15.88	40.95	-40.5	-42.8	19.4	0.00e+00	0	37	0	428867584	51	5021
2026-01-24 23:52:22.11	15.87	41.22	-40.4	-42.7	19.4	0.00e+00	0	37	0	429916160	51	4931
2026-01-24 23:52:23.10	15.85	41.49	-40.6	-42.9	19.4	0.00e+00	0	37	0	432013312	51	5059
2026-01-24 23:52:24.09	15.84	41.76	-40.7	-43.0	19.0	0.00e+00	0	37	0	434110464	52	4863
2026-01-24 23:52:25.09	15.83	42.04	-40.7	-43.0	19.1	0.00e+00	0	37	0	436207616	52	4848
2026-01-24 23:52:26.08	15.81	42.31	-40.6	-42.9	19.1	0.00e+00	0	37	0	438304768	52	4795
2026-01-24 23:52:27.08	15.80	42.60	-40.9	-43.2	18.9	0.00e+00	0	37	0	439353344	52	4977
2026-01-24 23:52:28.07	15.78	42.87	-41.1	-43.5	18.7	0.00e+00	0	37	0	441450496	52	5111
2026-01-24 23:52:29.06	15.77	43.16	-41.0	-43.4	18.8	0.00e+00	0	37	0	443547648	53	4763
2026-01-24 23:52:30.06	15.75	43.44	-41.0	-43.4	18.8	0.00e+00	0	37	0	445644800	53	4763
2026-01-24 23:52:31.05	15.74	43.73	-41.0	-43.4	18.8	0.00e+00	0	37	0	446693376	53	4762
2026-01-24 23:52:32.05	15.72	44.02	-40.7	-42.9	19.2	0.00e+00	0	37	0	448790528	53	4528
2026-01-24 23:52:33.04	15.71	44.31	-41.1	-43.4	18.8	0.00e+00	0	37	0	450887680	53	4791
2026-01-24 23:52:34.04	15.69	44.61	-41.3	-43.6	18.5	0.00e+00	0	37	0	452984832	53	4912
2026-01-24 23:52:35.03	15.67	44.90	-41.7	-44.1	18.1	0.00e+00	0	37	0	455081984	53	5204
2026-01-24 23:52:36.03	15.66	45.20	-42.0	-44.6	17.7	0.00e+00	0	37	0	456130560	54	5171
2026-01-24 23:52:37.02	15.64	45.50	-42.3	-45.0	17.2	0.00e+00	0	37	0	458227712	55	5136
2026-01-24 23:52:38.02	15.62	45.80	-42.9	-45.7	16.7	0.00e+00	0	37	0	460324864	56	5278
2026-01-24 23:52:39.01	15.60	46.11	-42.7	-45.4	17.1	0.00e+00	0	37	0	462422016	56	5059
2026-01-24 23:52:40.01	15.58	46.42	-42.9	-45.7	16.8	0.00e+00	0	37	0	463470592	56	5266
2026-01-24 23:52:41.00	15.56	46.72	-42.6	-45.2	17.3	0.00e+00	0	37	0	465567744	56	4953
2026-01-24 23:52:42.00	15.54	47.04	-42.6	-45.2	17.2	0.00e+00	0	37	0	467664896	56	4969
2026-01-24 23:52:42.99	15.52	47.35	-42.6	-45.3	17.1	0.00e+00	0	37	0	469762048	56	5027
2026-01-24 23:52:43.99	15.50	47.67	-42.7	-45.4	17.1	0.00e+00	0	37	0	471859200	56	5095
2026-01-24 23:52:44.98	15.48	47.99	-43.2	-46.1	16.4	0.00e+00	0	37	0	472907776	57	5200
2026-01-24 23:52:45.98	15.46	48.31	-43.4	-46.4	16.1	0.00e+00	0	37	0	475004928	57	5383
2026-01-24 23:52:46.97	15.44	48.63	-43.4	-46.4	16.1	0.00e+00	0	37	0	477102080	57	5389
2026-01-24 23:52:47.96	15.41	48.96	-43.2	-46.3	16.2	0.00e+00	0	37	0	479199232	57	5323
2026-01-24 23:52:48.96	15.39	49.29	-42.8	-45.8	16.7	0.00e+00	0	37	0	480247808	57	4991
2026-01-24 23:52:49.95	15.37	49.62	-42.5	-45.3	17.0	0.00e+00	0	37	0	482344960	56	4989
2026-01-24 23:52:50.95	15.34	49.95	-42.4	-45.2	17.4	0.00e+00	0	37	0	484442112	56	4928
2026-01-24 23:52:51.94	15.32	50.29	-42.0	-44.6	17.8	0.00e+00	0	37	0	486539264	56	4635
2026-01-24 23:52:52.94	15.29	50.63	-41.6	-44.2	18.1	0.00e+00	0	37	0	488636416	54	4928
2026-01-24 23:52:53.93	15.26	50.97	-41.0	-43.4	18.7	0.00e+00	0	37	0	489684992	54	4496
2026-01-24 23:52:54.93	15.24	51.31	-40.7	-43.0	19.2	0.00e+00	0	37	0	491782144	53	4575
2026-01-24 23:52:55.92	15.21	51.66	-40.5	-42.7	19.4	0.00e+00	0	37	0	493879296	52	4698
2026-01-24 23:52:56.91	15.18	52.00	-40.6	-42.9	19.2	0.00e+00	0	37	0	495976448	52	4814
2026-01-24 23:52:57.91	15.15	52.36	-40.9	-43.3	18.8	0.00e+00	0	37	0	497025024	52	5038
2026-01-24 23:52:58.90	15.12	52.71	-41.0	-43.4	18.8	0.00e+00	0	37	0	499122176	52	5043
2026-01-24 23:52:59.90	15.09	53.07	-40.5	-42.7	19.4	0.00e+00	0	37	0	501219328	52	4679
2026-01-24 23:53:00.89	15.06	53.42	-39.9	-42.0	20.0	0.00e+00	0	37	0	503316480	51	4581
2026-01-24 23:53:01.89	15.02	53.79	-39.1	-41.0	20.9	0.00e+00	0	37	0	505413632	50	4338
2026-01-24 23:53:02.88	14.99	54.15	-39.0	-40.9	21.1	0.00e+00	0	37	0	506462208	49	4538
2026-01-24 23:53:03.88	14.95	54.52	-39.4	-41.5	20.5	0.00e+00	0	37	0	508559360	49	4817
2026-01-24 23:53:04.87	14.92	54.88	-40.0	-42.1	20.0	0.00e+00	0	37	0	510656512	50	4907
2026-01-24 23:53:05.87	14.88	55.26	-40.4	-42.6	19.6	0.00e+00	0	37	0	512753664	51	4919
2026-01-24 23:53:06.86	14.84	55.63	-40.3	-42.6	19.6	0.00e+00	0	37	0	513802240	51	4874
2026-01-24 23:53:07.86	14.80	56.01	-40.0	-42.2	19.9	0.00e+00	0	37	0	515899392	51	4658
2026-01-24 23:53:08.85	14.76	56.39	-39.7	-41.8	20.2	0.00e+00	0	37	0	517996544	51	4475
2026-01-24 23:53:09.85	14.72	56.77	-40.3	-42.5	19.7	0.00e+00	0	37	0	520093696	51	4860
2026-01-24 23:53:10.84	14.68	57.15	-40.1	-42.3	19.9	0.00e+00	0	37	0	522190848	51	4712
2026-01-24 23:53:11.84	14.63	57.54	-40.1	-42.2	19.9	0.00e+00	0	37	0	523239424	51	4691
2026-01-24 23:53:12.83	14.59	57.93	-40.3	-42.5	19.7	0.00e+00	0	37	0	525336576	51	4859
2026-01-24 23:53:13.83	14.54	58.33	-40.8	-43.2	19.0	0.00e+00	0	37	0	527433728	52	4946
2026-01-24 23:53:14.82	14.49	58.72	-41.7	-44.3	18.0	0.00e+00	0	37	0	529530880	54	5007
2026-01-24 23:53:15.82	14.44	59.12	-42.3	-45.0	17.4	0.00e+00	0	37	0	531628032	55	5115
2026-01-24 23:53:16.81	14.39	59.52	-42.2	-44.9	17.5	0.00e+00	0	37	0	532676608	55	5054
2026-01-24 23:53:17.81	14.34	59.92	-41.8	-44.3	17.9	0.00e+00	0	37	0	534773760	55	4747
2026-01-24 23:53:18.80	14.28	60.33	-41.9	-44.5	17.7	0.00e+00	0	37	0	536870912	55	4844
2026-01-24 23:53:19.80	14.23	60.74	-42.0	-44.6	17.7	0.00e+00	0	37	0	538968064	55	4911
2026-01-24 23:53:20.79	14.17	61.15	-41.7	-44.2	18.0	0.00e+00	0	37	0	540016640	55	4690
2026-01-24 23:53:21.79	14.10	61.56	-41.0	-43.3	18.8	0.00e+00	0	37	0	542113792	54	4492
2026-01-24 23:53:22.78	14.04	61.97	-39.9	-42.0	20.1	0.00e+00	0	37	0	544210944	51	4598
2026-01-24 23:53:23.77	13.98	62.39	-39.4	-41.4	20.6	0.00e+00	0	37	0	546308096	50	4526
2026-01-24 23:53:24.77	13.91	62.81	-39.1	-41.1	20.9	0.00e+00	0	37	0	547356672	50	4343
2026-01-24 23:53:25.76	13.84	63.24	-38.7	-40.7	21.2	0.00e+00	0	37	0	549453824	49	4412
2026-01-24 23:53:26.75	13.76	63.66	-38.6	-40.6	21.4	0.00e+00	0	37	0	551550976	48	4600
2026-01-24 23:53:27.75	13.69	64.09	-38.7	-40.6	21.0	0.00e+00	0	37	0	553648128	48	4645
2026-01-24 23:53:28.74	13.61	64.52	-40.2	-42.1	20.3	0.00e+00	0	37	0	555745280	50	4905
2026-01-24 23:53:29.74	13.52	64.96	-40.1	-42.3	19.9	0.00e+00	0	37	0	556793856	50	5039
2026-01-24 23:53:30.73	13.44	65.39	-39.7	-41.8	20.3	0.00e+00	0	37	0	558891008	50	4719
2026-01-24 23:53:31.72	13.35	65.83	-39.6	-41.6	20.3	0.00e+00	0	37	0	560988160	50	4648
2026-01-24 23:53:32.72	13.26	66.27	-40.3	-42.4	19.8	0.00e+00	0	37	0	563085312	51	4799
2026-01-24 23:53:33.71	13.16	66.71	-41.0	-43.3	18.8	0.00e+00	0	37	0	564133888	52	5040
2026-01-24 23:53:34.70	13.06	67.15	-41.3	-43.7	18.5	0.00e+00	0	37	0	566231040	53	4971
2026-01-24 23:53:35.70	12.95	67.60	-41.0	-43.2	18.9	0.00e+00	0	37	0	568328192	53	4701
2026-01-24 23:53:36.70	12.84	68.06	-42.2	-44.3	18.2	0.00e+00	0	37	0	570425344	54	5007
2026-01-24 23:53:37.69	12.72	68.51	-42.6	-45.2	17.1	0.00e+00	0	37	0	572522496	55	5277
2026-01-24 23:53:38.68	12.60	68.96	-43.2	-46.0	16.4	0.00e+00	0	37	0	573571072	57	5111
2026-01-24 23:53:39.68	12.47	69.42	-44.0	-47.2	15.4	0.00e+00	0	37	0	575668224	58	5587
2026-01-24 23:53:40.67	12.34	69.87	-45.4	-49.6	12.9	8.30e-06	0	37	0	577765376	61	6202
2026-01-24 23:53:41.67	12.19	70.34	-45.6	-50.1	12.4	5.03e-05	0	37	0	579862528	62	6132
2026-01-24 23:53:42.66	12.05	70.80	-45.1	-49.0	13.7	3.81e-05	0	37	0	580911104	62	5454
2026-01-24 23:53:43.66	11.89	71.26	-44.7	-48.3	14.2	1.50e-06	0	37	0	583008256	60	5628
2026-01-24 23:53:44.66	11.72	71.73	-44.8	-48.5	14.1	5.30e-06	0	37	0	585105408	60	5744
2026-01-24 23:53:45.65	11.55	72.20	-45.0	-49.1	13.5	9.10e-06	0	37	0	587202560	60	6148
2026-01-24 23:53:46.65	11.36	72.67	-44.8	-48.8	13.9	3.00e-06	0	38	0	589299712	60	5958
2026-01-24 23:53:47.64	11.16	73.14	-43.7	-46.9	15.6	0.00e+00	0	38	0	590348288	59	5051
2026-01-24 23:53:48.64	10.95	73.62	-43.4	-46.4	16.2	0.00e+00	0	37	0	592445440	58	5061
2026-01-24 23:53:49.63	10.73	74.09	-43.1	-45.9	16.6	0.00e+00	0	37	0	594542592	57	5074
2026-01-24 23:53:50.63	10.49	74.57	-43.1	-46.0	16.4	0.00e+00	0	37	0	596639744	57	5141
2026-01-24 23:53:51.62	10.24	75.05	-43.3	-46.3	16.2	0.00e+00	0	37	0	598736896	58	5000
2026-01-24 23:53:52.62	9.97	75.53	-42.5	-45.1	17.3	0.00e+00	0	38	0	599785472	57	4649
2026-01-24 23:53:53.61	9.68	76.01	-42.9	-45.6	16.9	0.00e+00	0	37	0	601882624	56	5182
2026-01-24 23:53:54.60	9.37	76.50	-44.5	-48.0	14.6	0.00e+00	0	37	0	603979776	59	5758
2026-01-24 23:53:55.60	9.03	76.98	-45.2	-49.3	13.3	2.82e-05	0	37	0	606076928	61	5972
2026-01-24 23:53:56.59	8.67	77.47	-44.5	-48.2	14.3	3.00e-06	0	37	0	607125504	61	5259
2026-01-24 23:53:57.59	8.27	77.95	-44.7	-48.6	14.0	0.00e+00	0	37	0	609222656	60	5804
2026-01-24 23:53:58.58	7.85	78.44	-45.7	-50.4	12.1	8.08e-05	0	37	0	611319808	62	6396
2026-01-24 23:53:59.57	7.38	78.93	-44.9	-48.8	13.7	9.15e-05	0	37	0	613416960	61	5611
2026-01-24 23:54:00.57	6.87	79.42	-44.7	-48.3	14.2	8.23e-05	0	37	0	614465536	61	5322
2026-01-24 23:54:01.56	6.31	79.90	-44.3	-47.6	15.1	3.80e-06	0	37	0	616562688	60	5208
2026-01-24 23:54:02.56	5.69	80.40	-43.1	-45.8	16.8	0.00e+00	0	38	0	618659840	58	4727
2026-01-24 23:54:03.55	5.00	80.88	-43.0	-45.7	16.8	0.00e+00	0	37	0	620756992	57	4977
2026-01-24 23:54:04.55	4.23	81.37	-44.2	-47.6	15.0	0.00e+00	0	37	0	622854144	59	5494
2026-01-24 23:54:05.54	3.37	81.86	-44.3	-47.8	14.8	1.50e-06	0	37	0	623902720	60	5338
2026-01-24 23:54:06.54	2.39	82.35	-42.5	-45.2	17.3	0.00e+00	0	37	0	625999872	57	4692
2026-01-24 23:54:07.53	1.29	82.83	-41.6	-44.0	18.4	0.00e+00	0	37	0	628097024	54	4840
2026-01-24 23:54:08.53	0.01	83.32	-41.2	-43.5	18.7	0.00e+00	0	37	0	630194176	54	4596
2026-01-24 23:54:09.52	358.54	83.80	-40.0	-42.1	20.0	0.00e+00	0	37	0	632291328	51	4647
2026-01-24 23:54:10.51	356.83	84.27	-39.9	-42.0	20.1	0.00e+00	0	37	0	633339904	50	4858
2026-01-24 23:54:11.51	354.79	84.74	-39.8	-41.9	20.2	0.00e+00	0	37	0	635437056	50	4783
2026-01-24 23:54:12.50	352.38	85.21	-40.1	-42.2	20.0	0.00e+00	0	37	0	637534208	50	4940
2026-01-24 23:54:13.50	349.41	85.66	-40.5	-42.7	19.5	0.00e+00	0	37	0	639631360	51	4953
2026-01-24 23:54:14.50	345.76	86.10	-40.3	-42.4	19.8	0.00e+00	0	37	0	640679936	51	4765
2026-01-24 23:54:15.49	341.25	86.52	-41.5	-43.8	18.5	0.00e+00	0	37	0	642777088	53	5020
2026-01-24 23:54:16.48	335.54	86.91	-43.2	-46.1	16.3	0.00e+00	0	37	0	644874240	57	5183
2026-01-24 23:54:17.48	328.19	87.27	-42.5	-45.1	17.4	0.00e+00	0	37	0	646971392	56	4913
2026-01-24 23:54:18.47	318.94	87.57	-44.7	-48.6	14.1	0.00e+00	0	37	0	649068544	60	5814
2026-01-24 23:54:19.47	307.39	87.79	-45.5	-50.1	12.2	2.71e-03	0	37	0	650117120	63	5853
2026-01-24 23:54:20.47	294.00	87.90	-43.6	-46.7	15.6	0.00e+00	0	37	0	652214272	59	4962
2026-01-24 23:54:21.46	280.09	87.89	-44.9	-49.0	13.5	7.00e-07	0	37	0	654311424	60	6088
2026-01-24 23:54:22.46	266.95	87.75	-44.5	-48.4	13.9	6.71e-05	0	37	0	656408576	61	5379
2026-01-24 23:54:23.45	255.88	87.52	-42.7	-45.5	16.8	0.00e+00	0	37	0	657457152	57	4848
2026-01-24 23:54:24.45	246.89	87.21	-43.2	-46.2	16.3	0.00e+00	0	37	0	659554304	57	5222
2026-01-24 23:54:25.44	239.90	86.85	-43.8	-47.1	15.4	0.00e+00	0	37	0	661651456	59	5187
2026-01-24 23:54:26.44	234.36	86.45	-43.2	-46.2	16.4	0.00e+00	0	38	0	663748608	58	4932
2026-01-24 23:54:27.43	230.02	86.03	-41.7	-44.1	18.0	0.00e+00	0	37	0	665845760	55	4651
2026-01-24 23:54:28.42	226.54	85.59	-40.7	-43.0	19.0	0.00e+00	0	37	0	666894336	53	4580
2026-01-24 23:54:29.42	223.67	85.13	-41.5	-44.0	18.2	0.00e+00	0	37	0	668991488	53	5121
2026-01-24 23:54:30.42	221.30	84.66	-41.4	-43.9	18.3	0.00e+00	0	38	0	671088640	53	5077
2026-01-24 23:54:31.41	219.34	84.19	-41.0	-43.4	18.8	0.00e+00	0	37	0	673185792	53	4795
2026-01-24 23:54:32.40	217.67	83.72	-40.7	-43.0	19.2	0.00e+00	0	37	0	674234368	52	4838
2026-01-24 23:54:33.40	216.23	83.23	-40.4	-42.7	19.4	0.00e+00	0	38	0	676331520	52	4667
2026-01-24 23:54:34.39	214.99	82.75	-40.2	-42.4	19.7	0.00e+00	0	37	0	678428672	51	4785
2026-01-24 23:54:35.39	213.90	82.26	-40.7	-42.9	19.2	0.00e+00	0	37	0	680525824	52	4796
2026-01-24 23:54:36.38	212.95	81.78	-42.0	-44.6	17.7	0.00e+00	0	37	0	682622976	54	5176
2026-01-24 23:54:37.38	212.10	81.29	-42.6	-45.4	17.1	0.00e+00	0	37	0	683671552	56	5049
2026-01-24 23:54:38.38	211.34	80.79	-41.7	-44.2	18.1	0.00e+00	0	37	0	685768704	55	4664
2026-01-24 23:54:39.37	210.67	80.31	-41.8	-44.3	18.0	0.00e+00	0	37	0	687865856	54	4997
2026-01-24 23:54:40.37	210.05	79.81	-42.4	-45.1	17.3	0.00e+00	0	37	0	689963008	55	5176
2026-01-24 23:54:41.36	209.50	79.33	-42.4	-45.1	17.3	0.00e+00	0	37	0	691011584	55	5162
2026-01-24 23:54:42.35	209.00	78.84	-43.2	-46.1	16.5	0.00e+00	0	37	0	693108736	57	5217
2026-01-24 23:54:43.35	208.54	78.35	-42.6	-45.3	17.2	0.00e+00	0	37	0	695205888	57	4725
2026-01-24 23:54:44.34	208.12	77.86	-42.4	-45.1	17.4	0.00e+00	0	37	0	697303040	56	4875
2026-01-24 23:54:45.34	207.73	77.37	-42.2	-44.8	17.8	0.00e+00	0	37	0	699400192	56	4737
2026-01-24 23:54:46.33	207.37	76.89	-41.3	-43.7	18.6	0.00e+00	0	37	0	700448768	54	4662
2026-01-24 23:54:47.33	207.04	76.40	-41.4	-43.8	18.5	0.00e+00	0	37	0	702545920	54	4732
2026-01-24 23:54:48.32	206.73	75.92	-41.8	-44.2	18.1	0.00e+00	0	37	0	704643072	54	4952
2026-01-24 23:54:49.32	206.45	75.44	-42.1	-44.6	17.7	0.00e+00	0	37	0	706740224	55	4892
2026-01-24 23:54:50.31	206.18	74.96	-42.9	-45.7	16.8	0.00e+00	0	37	0	707788800	57	4978
2026-01-24 23:54:51.31	205.93	74.48	-42.4	-45.1	17.5	0.00e+00	0	37	0	709885952	56	4879
2026-01-24 23:54:52.30	205.69	74.00	-41.4	-43.8	18.6	0.00e+00	0	37	0	711983104	54	4708
2026-01-24 23:54:53.30	205.47	73.52	-42.9	-45.8	16.7	0.00e+00	0	37	0	714080256	56	5299
2026-01-24 23:54:54.29	205.27	73.05	-43.3	-46.3	16.2	0.00e+00	0	37	0	716177408	57	5310
2026-01-24 23:54:55.28	205.07	72.58	-43.7	-47.0	15.6	0.00e+00	0	37	0	717225984	58	5403
2026-01-24 23:54:56.28	204.89	72.10	-44.2	-47.6	14.9	0.00e+00	0	37	0	719323136	59	5518
2026-01-24 23:54:57.27	204.71	71.64	-45.3	-49.4	13.1	7.00e-07	0	37	0	721420288	61	6029
2026-01-24 23:54:58.27	204.55	71.17	-45.9	-50.5	12.0	2.43e-04	0	37	0	723517440	63	6126
2026-01-24 23:54:59.26	204.39	70.70	-45.6	-50.0	12.6	1.98e-04	0	37	0	724566016	63	5763
2026-01-24 23:55:00.26	204.25	70.24	-46.4	-51.6	10.9	5.39e-04	0	38	0	726663168	63	6939
2026-01-24 23:55:01.26	204.10	69.77	-46.4	-51.9	10.3	1.09e-02	0	38	0	728760320	64	6788
2026-01-24 23:55:02.25	203.97	69.32	-44.7	-48.3	14.3	1.60e-04	0	37	0	730857472	61	5297
2026-01-24 23:55:03.25	203.84	68.86	-44.9	-48.6	13.9	3.00e-06	0	37	0	732954624	60	5827
2026-01-24 23:55:04.24	203.72	68.40	-45.3	-49.3	13.2	3.35e-05	0	37	0	734003200	62	5652
2026-01-24 23:55:05.24	203.61	67.95	-44.0	-47.2	15.3	0.00e+00	0	37	0	736100352	60	4962
2026-01-24 23:55:06.23	203.50	67.50	-43.6	-46.5	16.0	0.00e+00	0	37	0	738197504	58	5143
2026-01-24 23:55:07.23	203.39	67.05	-43.8	-46.9	15.7	0.00e+00	0	37	0	740294656	59	5047
2026-01-24 23:55:08.22	203.29	66.61	-43.3	-46.1	16.4	0.00e+00	0	37	0	741343232	58	4908
2026-01-24 23:55:09.22	203.19	66.16	-42.5	-45.1	17.5	0.00e+00	0	37	0	743440384	57	4600
2026-01-24 23:55:10.21	203.10	65.72	-42.3	-44.9	17.6	0.00e+00	0	37	0	745537536	56	4789
2026-01-24 23:55:11.21	203.01	65.28	-41.7	-44.2	18.1	0.00e+00	0	37	0	747634688	55	4683
2026-01-24 23:55:12.20	202.92	64.85	-41.5	-43.9	18.3	0.00e+00	0	37	0	749731840	55	4545
2026-01-24 23:55:13.20	202.84	64.41	-41.9	-44.6	17.9	0.00e+00	0	37	0	750780416	54	5169
2026-01-24 23:55:14.19	202.76	63.98	-43.0	-45.9	16.7	0.00e+00	0	37	0	752877568	56	5371
2026-01-24 23:55:15.19	202.68	63.55	-43.4	-46.4	16.2	0.00e+00	0	37	0	754974720	57	5397
2026-01-24 23:55:16.18	202.61	63.12	-41.7	-44.3	18.0	0.00e+00	0	37	0	757071872	55	4736
2026-01-24 23:55:17.17	202.54	62.70	-42.2	-44.9	17.5	0.00e+00	0	37	0	758120448	55	5070
2026-01-24 23:55:18.17	202.47	62.28	-41.4	-43.9	18.4	0.00e+00	0	37	0	760217600	54	4762
2026-01-24 23:55:19.16	202.41	61.86	-40.2	-42.4	19.7	0.00e+00	0	37	0	762314752	52	4538
2026-01-24 23:55:20.16	202.34	61.44	-40.0	-42.2	20.0	0.00e+00	0	37	0	764411904	51	4667
2026-01-24 23:55:21.15	202.28	61.03	-41.4	-43.8	18.5	0.00e+00	0	37	0	766509056	53	5028
2026-01-24 23:55:22.14	202.22	60.62	-41.5	-43.9	18.4	0.00e+00	0	37	0	767557632	54	4799
2026-01-24 23:55:23.14	202.17	60.21	-42.0	-44.7	17.6	0.00e+00	0	37	0	769654784	54	5227
2026-01-24 23:55:24.14	202.11	59.80	-40.6	-42.7	19.3	0.00e+00	0	37	0	771751936	53	4439
2026-01-24 23:55:25.13	202.06	59.40	-40.3	-42.4	19.8	0.00e+00	0	37	0	773849088	51	4788
2026-01-24 23:55:26.13	202.01	59.00	-40.6	-42.8	19.4	0.00e+00	0	37	0	774897664	52	4728
2026-01-24 23:55:27.12	201.96	58.60	-41.8	-44.2	18.2	0.00e+00	0	37	0	776994816	54	4949
2026-01-24 23:55:28.12	201.91	58.20	-42.1	-44.6	17.7	0.00e+00	0	37	0	779091968	55	4905
2026-01-24 23:55:29.11	201.86	57.81	-41.7	-44.1	18.1	0.00e+00	0	37	0	781189120	55	4648
2026-01-24 23:55:30.11	201.82	57.42	-41.1	-43.4	18.8	0.00e+00	0	37	0	783286272	53	4792
2026-01-24 23:55:31.10	201.77	57.03	-41.3	-43.6	18.6	0.00e+00	0	37	0	784334848	53	4898
2026-01-24 23:55:32.10	201.73	56.65	-41.0	-43.3	18.9	0.00e+00	0	37	0	786432000	53	4709
2026-01-24 23:55:33.09	201.69	56.26	-40.9	-43.1	19.0	0.00e+00	0	37	0	788529152	53	4639
2026-01-24 23:55:34.09	201.65	55.88	-40.9	-43.2	19.0	0.00e+00	0	37	0	790626304	53	4679
2026-01-24 23:55:35.08	201.61	55.51	-40.8	-43.2	19.1	0.00e+00	0	37	0	792723456	53	4656
2026-01-24 23:55:36.08	201.57	55.13	-40.5	-42.8	19.4	0.00e+00	0	37	0	793772032	52	4707
2026-01-24 23:55:37.07	201.53	54.76	-40.1	-42.2	19.9	0.00e+00	0	37	0	795869184	52	4434
2026-01-24 23:55:38.07	201.50	54.39	-40.0	-42.0	20.1	0.00e+00	0	37	0	797966336	51	4590
2026-01-24 23:55:39.06	201.46	54.02	-41.1	-43.4	18.8	0.00e+00	0	37	0	800063488	52	5084
2026-01-24 23:55:40.05	201.43	53.66	-41.9	-44.4	17.9	0.00e+00	0	37	0	801112064	54	5068
2026-01-24 23:55:41.05	201.39	53.30	-40.9	-43.1	19.0	0.00e+00	0	37	0	803209216	54	4390
2026-01-24 23:55:42.04	201.36	52.94	-40.2	-42.3	19.8	0.00e+00	0	37	0	805306368	52	4478
2026-01-24 23:55:43.04	201.33	52.58	-40.9	-43.2	19.0	0.00e+00	0	37	0	807403520	52	4934
2026-01-24 23:55:44.03	201.30	52.23	-42.7	-45.4	17.0	0.00e+00	0	37	0	809500672	55	5375
2026-01-24 23:55:45.03	201.27	51.87	-43.2	-46.1	16.5	0.00e+00	0	37	0	810549248	57	5178
2026-01-24 23:55:46.02	201.24	51.53	-43.4	-46.4	16.2	0.00e+00	0	37	0	812646400	57	5341
2026-01-24 23:55:47.02	201.21	51.18	-43.7	-46.9	15.6	0.00e+00	0	37	0	814743552	58	5372
2026-01-24 23:55:48.01	201.19	50.83	-44.1	-47.4	15.1	0.00e+00	0	37	0	816840704	58	5716
2026-01-24 23:55:49.01	201.16	50.49	-43.2	-46.2	16.3	0.00e+00	0	37	0	817889280	58	4948
2026-01-24 23:55:50.00	201.13	50.15	-43.2	-46.2	16.3	0.00e+00	0	37	0	819986432	57	5258
2026-01-24 23:55:51.00	201.11	49.82	-43.1	-46.1	16.4	0.00e+00	0	37	0	822083584	57	5213
2026-01-24 23:55:51.99	201.08	49.48	-44.0	-47.4	15.1	0.00e+00	0	38	0	824180736	58	5685
2026-01-24 23:55:52.99	201.06	49.15	-43.5	-46.6	15.8	0.00e+00	0	37	0	826277888	59	4921
2026-01-24 23:55:53.98	201.03	48.82	-44.2	-47.8	14.8	0.00e+00	0	37	0	827326464	59	5600
2026-01-24 23:55:54.98	201.01	48.49	-45.2	-49.7	12.8	4.11e-05	0	37	0	829423616	61	6222
2026-01-24 23:55:55.97	200.99	48.17	-45.1	-49.6	12.9	1.62e-04	0	37	0	831520768	61	6168
2026-01-24 23:55:56.97	200.97	47.85	-44.2	-47.8	14.7	3.80e-06	0	37	0	833617920	60	5328
2026-01-24 23:55:57.97	200.94	47.53	-43.2	-46.2	16.3	0.00e+00	0	37	0	834666496	58	4953
2026-01-24 23:55:58.96	200.92	47.21	-42.1	-44.7	17.8	0.00e+00	0	37	0	836763648	56	4669
2026-01-24 23:55:59.96	200.90	46.89	-41.0	-43.4	18.8	0.00e+00	0	37	0	838860800	54	4509
2026-01-24 23:56:00.95	200.88	46.58	-41.1	-43.4	18.8	0.00e+00	0	37	0	840957952	53	4800
2026-01-24 23:56:01.95	200.86	46.27	-41.1	-43.5	18.6	0.00e+00	0	37	0	843055104	53	4848
2026-01-24 23:56:02.94	200.84	45.96	-41.8	-44.4	17.9	0.00e+00	0	37	0	844103680	54	5063
2026-01-24 23:56:03.94	200.83	45.66	-42.0	-44.6	17.8	0.00e+00	0	37	0	846200832	54	5166
2026-01-24 23:56:04.93	200.81	45.36	-43.8	-47.0	15.5	0.00e+00	0	37	0	848297984	58	5415
2026-01-24 23:56:05.93	200.79	45.05	-44.6	-48.2	14.3	2.20e-06	0	37	0	850395136	60	5587
2026-01-24 23:56:06.92	200.77	44.76	-44.4	-48.0	14.5	2.20e-06	0	37	0	851443712	60	5430
2026-01-24 23:56:07.92	200.75	44.46	-43.8	-47.0	15.3	1.50e-06	0	37	0	853540864	59	5141
2026-01-24 23:56:08.91	200.74	44.16	-43.5	-46.5	16.0	0.00e+00	0	37	0	855638016	58	5154
2026-01-24 23:56:09.91	200.72	43.87	-42.6	-45.3	17.1	0.00e+00	0	37	0	857735168	57	4752
2026-01-24 23:56:10.90	200.71	43.58	-41.8	-44.3	18.0	0.00e+00	0	37	0	859832320	55	4712
2026-01-24 23:56:11.90	200.69	43.29	-41.9	-44.4	17.9	0.00e+00	0	37	0	860880896	55	4774
2026-01-24 23:56:12.89	200.67	43.01	-41.3	-43.7	18.5	0.00e+00	0	37	0	862978048	54	4674
2026-01-24 23:56:13.89	200.66	42.72	-41.3	-43.6	18.6	0.00e+00	0	38	0	865075200	54	4647
2026-01-24 23:56:14.88	200.64	42.44	-41.6	-44.0	18.2	0.00e+00	0	37	0	867172352	54	4859
2026-01-24 23:56:15.88	200.63	42.16	-42.4	-45.2	17.1	0.00e+00	0	37	0	868220928	55	5219
2026-01-24 23:56:16.87	200.62	41.89	-43.3	-46.2	16.3	0.00e+00	0	37	0	870318080	57	5263
2026-01-24 23:56:17.87	200.60	41.61	-43.6	-46.8	15.8	0.00e+00	0	37	0	872415232	57	5594
2026-01-24 23:56:18.87	200.59	41.34	-43.8	-46.9	15.5	0.00e+00	0	37	0	874512384	58	5400
2026-01-24 23:56:19.86	200.58	41.07	-43.2	-46.0	16.4	0.00e+00	0	37	0	876609536	57	5146
2026-01-24 23:56:20.86	200.56	40.80	-42.4	-44.9	17.2	0.00e+00	0	37	0	877658112	56	4802
2026-01-24 23:56:21.85	200.55	40.53	-42.3	-44.8	17.6	0.00e+00	0	37	0	879755264	56	4752
2026-01-24 23:56:22.85	200.54	40.26	-42.7	-45.4	17.0	0.00e+00	0	37	0	881852416	56	5057
2026-01-24 23:56:23.84	200.52	40.00	-42.8	-45.5	16.9	0.00e+00	0	37	0	883949568	56	5154
2026-01-24 23:56:24.83	200.51	39.74	-43.0	-45.8	16.7	0.00e+00	0	37	0	884998144	56	5313
2026-01-24 23:56:25.83	200.50	39.48	-42.7	-45.4	17.0	0.00e+00	0	37	0	887095296	56	5060
2026-01-24 23:56:26.82	200.49	39.23	-42.7	-45.4	17.0	0.00e+00	0	37	0	889192448	56	5085
2026-01-24 23:56:27.82	200.48	38.97	-42.7	-45.4	17.0	0.00e+00	0	37	0	891289600	56	5093
2026-01-24 23:56:28.81	200.47	38.72	-43.1	-46.0	16.5	0.00e+00	0	37	0	893386752	57	5123
2026-01-24 23:56:29.81	200.46	38.46	-44.4	-47.9	14.5	0.00e+00	0	37	0	894435328	59	5679
2026-01-24 23:56:30.80	200.45	38.22	-44.3	-47.8	14.7	0.00e+00	0	37	0	896532480	59	5638
2026-01-24 23:56:31.80	200.44	37.97	-44.3	-47.8	14.7	0.00e+00	0	37	0	898629632	59	5616
2026-01-24 23:56:32.79	200.42	37.72	-43.8	-47.0	15.5	0.00e+00	0	37	0	900726784	59	5140
2026-01-24 23:56:33.78	200.41	37.48	-43.8	-46.9	15.6	0.00e+00	0	37	0	901775360	59	5099
2026-01-24 23:56:34.78	200.40	37.23	-43.3	-46.3	16.1	0.00e+00	0	37	0	903872512	57	5326
2026-01-24 23:56:35.77	200.40	36.99	-43.3	-46.2	16.2	0.00e+00	0	37	0	905969664	57	5273
2026-01-24 23:56:36.77	200.39	36.75	-43.6	-46.7	15.7	0.00e+00	0	37	0	908066816	57	5575
2026-01-24 23:56:37.76	200.38	36.52	-43.5	-46.6	15.9	0.00e+00	0	37	0	910163968	57	5478
2026-01-24 23:56:38.76	200.37	36.28	-44.1	-47.3	15.1	0.00e+00	0	37	0	911212544	58	5645
2026-01-24 23:56:39.75	200.36	36.05	-43.6	-46.7	15.8	0.00e+00	0	37	0	913309696	58	5233
2026-01-24 23:56:40.75	200.35	35.81	-42.8	-45.6	16.8	0.00e+00	0	37	0	915406848	57	4896
2026-01-24 23:56:41.74	200.34	35.59	-42.3	-44.9	17.5	0.00e+00	0	37	0	917504000	56	4797
2026-01-24 23:56:42.74	200.33	35.36	-42.4	-45.0	17.4	0.00e+00	0	37	0	918552576	56	4850
2026-01-24 23:56:43.73	200.32	35.13	-42.6	-45.3	17.1	0.00e+00	0	37	0	920649728	56	5000
2026-01-24 23:56:44.73	200.32	34.90	-42.8	-45.6	16.8	0.00e+00	0	38	0	922746880	56	5179
2026-01-24 23:56:45.72	200.31	34.68	-43.9	-47.1	15.4	0.00e+00	0	37	0	924844032	58	5482
2026-01-24 23:56:46.72	200.30	34.46	-44.4	-47.9	14.6	0.00e+00	0	37	0	926941184	59	5681
2026-01-24 23:56:47.71	200.29	34.24	-45.4	-49.7	12.9	6.80e-06	0	37	0	927989760	61	6221
2026-01-24 23:56:48.71	200.29	34.02	-46.2	-51.2	11.4	1.19e-03	0	37	0	930086912	63	6641
2026-01-24 23:56:49.70	200.28	33.80	-46.6	-52.4	9.9	4.96e-03	0	37	0	932184064	64	7139
2026-01-24 23:56:50.70	200.27	33.58	-46.3	-51.6	10.8	6.80e-03	0	37	0	934281216	64	6568
2026-01-24 23:56:51.69	200.26	33.37	-45.7	-50.4	12.1	8.12e-04	0	37	0	935329792	63	6018
2026-01-24 23:56:52.69	200.26	33.15	-45.0	-49.0	13.5	5.11e-05	0	37	0	937426944	62	5456
2026-01-24 23:56:53.68	200.25	32.94	-44.0	-47.2	15.1	2.20e-06	0	37	0	939524096	59	5243
2026-01-24 23:56:54.67	200.24	32.73	-43.5	-46.6	15.8	0.00e+00	0	37	0	941621248	59	4898
2026-01-24 23:56:55.67	200.24	32.52	-42.4	-45.0	17.4	0.00e+00	0	37	0	943718400	56	4839
2026-01-24 23:56:56.66	200.23	32.32	-42.2	-44.8	17.5	0.00e+00	0	37	0	944766976	56	4754
2026-01-24 23:56:57.66	200.22	32.11	-42.0	-44.5	17.8	0.00e+00	0	37	0	946864128	56	4582
2026-01-24 23:56:58.66	200.22	31.90	-41.8	-44.3	17.9	0.00e+00	0	37	0	948961280	55	4713
2026-01-24 23:56:59.65	200.21	31.70	-42.1	-44.6	17.5	0.00e+00	0	37	0	951058432	55	4918
2026-01-24 23:57:00.65	200.21	31.50	-42.3	-44.9	17.4	0.00e+00	0	37	0	952107008	55	5078
2026-01-24 23:57:01.64	200.20	31.30	-42.5	-45.1	17.1	0.00e+00	0	37	0	954204160	55	5210
2026-01-24 23:57:02.63	200.19	31.10	-42.8	-45.6	16.8	0.00e+00	0	37	0	956301312	56	5178
2026-01-24 23:57:03.63	200.19	30.90	-42.8	-45.5	16.8	0.00e+00	0	37	0	958398464	56	5133
2026-01-24 23:57:04.62	200.18	30.71	-42.6	-45.2	17.2	0.00e+00	0	37	0	960495616	56	4980
2026-01-24 23:57:05.62	200.18	30.51	-42.5	-45.2	17.2	0.00e+00	0	37	0	961544192	56	4943
2026-01-24 23:57:06.61	200.17	30.32	-42.2	-44.7	17.6	0.00e+00	0	37	0	963641344	56	4681
2026-01-24 23:57:07.61	200.17	30.13	-42.3	-44.8	17.5	0.00e+00	0	37	0	965738496	56	4756
2026-01-24 23:57:08.60	200.16	29.94	-42.7	-45.4	17.0	0.00e+00	0	37	0	967835648	56	5050
2026-01-24 23:57:09.60	200.16	29.75	-43.0	-45.9	16.5	0.00e+00	0	37	0	968884224	57	5076
2026-01-24 23:57:10.59	200.15	29.56	-43.5	-46.6	15.8	0.00e+00	0	37	0	970981376	57	5481
2026-01-24 23:57:11.58	200.15	29.37	-43.8	-47.0	15.4	0.00e+00	0	37	0	973078528	58	5448
2026-01-24 23:57:12.58	200.14	29.18	-44.3	-47.7	14.7	0.00e+00	0	37	0	975175680	59	5573
2026-01-24 23:57:13.57	200.14	29.00	-44.4	-48.0	14.5	0.00e+00	0	37	0	977272832	59	5732
2026-01-24 23:57:14.57	200.13	28.82	-44.3	-47.8	14.7	0.00e+00	0	37	0	978321408	59	5616
2026-01-24 23:57:15.57	200.13	28.63	-44.1	-47.4	15.0	7.00e-07	0	37	0	980418560	59	5376
2026-01-24 23:57:16.56	200.12	28.45	-43.5	-46.6	15.8	0.00e+00	0	37	0	982515712	59	4923
2026-01-24 23:57:17.55	200.12	28.27	-42.9	-45.7	16.7	0.00e+00	0	37	0	984612864	57	4973
2026-01-24 23:57:18.55	200.11	28.09	-42.3	-45.0	17.4	0.00e+00	0	37	0	985661440	56	4850
2026-01-24 23:57:19.54	200.11	27.92	-42.2	-44.8	17.5	0.00e+00	0	37	0	987758592	56	4738
2026-01-24 23:57:20.54	200.11	27.74	-41.6	-44.1	18.1	0.00e+00	0	37	0	989855744	54	4923
2026-01-24 23:57:21.53	200.10	27.56	-41.0	-43.3	18.7	0.00e+00	0	37	0	991952896	53	4745
2026-01-24 23:57:22.52	200.10	27.39	-40.7	-43.0	19.1	0.00e+00	0	37	0	994050048	53	4562
2026-01-24 23:57:23.52	200.09	27.22	-40.5	-42.8	19.2	0.00e+00	0	38	0	995098624	53	4483
2026-01-24 23:57:24.51	200.09	27.04	-40.3	-42.6	19.4	0.00e+00	0	37	0	997195776	52	4614
2026-01-24 23:57:25.50	200.09	26.87	-40.3	-42.5	19.5	0.00e+00	0	37	0	999292928	52	4575
2026-01-24 23:57:26.50	200.08	26.70	-40.4	-42.6	19.4	0.00e+00	0	37	0	1001390080	52	4628
2026-01-24 23:57:27.49	200.08	26.53	-40.2	-42.4	19.6	0.00e+00	0	37	0	1002438656	52	4510
2026-01-24 23:57:28.49	200.08	26.37	-40.2	-42.3	19.6	0.00e+00	0	37	0	1004535808	52	4475
2026-01-24 23:57:29.48	200.07	26.20	-40.4	-42.6	19.4	0.00e+00	0	37	0	1006632960	52	4631
2026-01-24 23:57:30.48	200.07	26.03	-40.6	-42.8	19.2	0.00e+00	0	37	0	1008730112	52	4736
2026-01-24 23:57:31.47	200.07	25.87	-41.0	-43.3	18.7	0.00e+00	0	38	0	1010827264	52	5028
2026-01-24 23:57:32.47	200.06	25.70	-41.4	-43.8	18.3	0.00e+00	0	37	0	1011875840	53	5028
2026-01-24 23:57:33.46	200.06	25.54	-41.7	-44.2	18.0	0.00e+00	0	37	0	1013972992	54	4938
2026-01-24 23:57:34.46	200.06	25.38	-41.8	-44.3	17.8	0.00e+00	0	37	0	1016070144	54	5012
2026-01-24 23:57:35.45	200.05	25.22	-41.9	-44.5	17.7	0.00e+00	0	37	0	1018167296	54	5150
2026-01-24 23:57:36.45	200.05	25.06	-41.9	-44.5	17.6	0.00e+00	0	37	0	1019215872	54	5158
2026-01-24 23:57:37.44	200.05	24.90	-41.6	-44.2	18.0	0.00e+00	0	37	0	1021313024	54	4935
2026-01-24 23:57:38.43	200.04	24.74	-41.4	-43.8	18.3	0.00e+00	0	37	0	1023410176	54	4735
2026-01-24 23:57:39.43	200.04	24.59	-40.9	-43.2	18.8	0.00e+00	0	38	0	1025507328	53	4704
2026-01-24 23:57:40.43	200.04	24.43	-40.6	-42.8	19.2	0.00e+00	0	37	0	1027604480	53	4485
2026-01-24 23:57:41.42	200.04	24.27	-40.5	-42.8	19.2	0.00e+00	0	37	0	1028653056	52	4729
2026-01-24 23:57:42.42	200.03	24.12	-40.3	-42.5	19.4	0.00e+00	0	37	0	1030750208	52	4566
2026-01-24 23:57:43.41	200.03	23.97	-40.2	-42.4	19.6	0.00e+00	0	37	0	1032847360	52	4510
2026-01-24 23:57:44.41	200.03	23.81	-40.2	-42.5	19.5	0.00e+00	0	37	0	1034944512	52	4546
2026-01-24 23:57:45.40	200.03	23.66	-40.2	-42.4	19.6	0.00e+00	0	37	0	1035993088	52	4495
2026-01-24 23:57:46.40	200.02	23.51	-40.3	-42.5	19.5	0.00e+00	0	37	0	1038090240	52	4557
2026-01-24 23:57:47.40	200.02	23.36	-40.8	-43.1	19.0	0.00e+00	0	37	0	1040187392	52	4880
2026-01-24 23:57:48.39	200.02	23.21	-41.0	-43.3	18.7	0.00e+00	0	37	0	1042284544	52	5034
2026-01-24 23:57:49.38	200.02	23.06	-41.2	-43.7	18.4	0.00e+00	0	37	0	1044381696	53	4934
2026-01-24 23:57:50.38	200.01	22.92	-41.6	-44.1	18.0	0.00e+00	0	37	0	1045430272	53	5163
2026-01-24 23:57:51.38	200.01	22.77	-41.5	-44.0	18.1	0.00e+00	0	37	0	1047527424	53	5108
2026-01-24 23:57:52.38	200.01	22.62	-41.5	-44.0	18.0	0.00e+00	0	37	0	1049624576	53	5131
2026-01-24 23:57:53.37	200.01	22.48	-41.6	-44.1	18.0	0.00e+00	0	37	0	1051721728	54	4893
2026-01-24 23:57:54.37	200.00	22.33	-41.5	-44.0	18.1	0.00e+00	0	37	0	1052770304	54	4835
2026-01-24 23:57:55.36	200.00	22.19	-41.3	-43.7	18.4	0.00e+00	0	37	0	1054867456	54	4681
2026-01-24 23:57:56.36	200.00	22.05	-41.3	-43.7	18.4	0.00e+00	0	37	0	1056964608	54	4671
2026-01-24 23:57:57.35	200.00	21.91	-41.0	-43.4	18.6	0.00e+00	0	37	0	1059061760	54	4523
2026-01-24 23:57:58.34	200.00	21.77	-41.0	-43.4	18.6	0.00e+00	0	37	0	1061158912	53	4772
2026-01-24 23:57:59.34	199.99	21.63	-41.2	-43.6	18.5	0.00e+00	0	37	0	1062207488	53	4880
2026-01-24 23:58:00.34	199.99	21.49	-40.9	-43.3	18.7	0.00e+00	0	37	0	1064304640	53	4714
2026-01-24 23:58:01.33	199.99	21.35	-40.9	-43.2	18.8	0.00e+00	0	37	0	1066401792	53	4699
2026-01-24 23:58:02.33	199.99	21.21	-41.1	-43.5	18.6	0.00e+00	0	37	0	1068498944	53	4829
2026-01-24 23:58:03.32	199.99	21.07	-41.1	-43.5	18.6	0.00e+00	0	38	0	1070596096	53	4817
2026-01-24 23:58:04.32	199.99	20.94	-41.3	-43.7	18.3	0.00e+00	0	37	0	1071644672	53	4974
2026-01-24 23:58:05.31	199.98	20.80	-41.3	-43.8	18.2	0.00e+00	0	37	0	1073741824	53	5016
2026-01-24 23:58:06.31	199.98	20.67	-41.4	-43.9	18.1	0.00e+00	0	37	0	1075838976	54	4804
2026-01-24 23:58:07.30	199.98	20.53	-41.7	-44.3	17.8	0.00e+00	0	37	0	1077936128	54	5020
2026-01-24 23:58:08.29	199.98	20.40	-41.6	-44.1	17.9	0.00e+00	0	37	0	1078984704	54	4920
2026-01-24 23:58:09.29	199.98	20.27	-41.6	-44.1	18.0	0.00e+00	0	37	0	1081081856	54	4908
2026-01-24 23:58:10.28	199.98	20.14	-41.7	-44.3	17.8	0.00e+00	0	37	0	1083179008	54	5021
2026-01-24 23:58:11.28	199.98	20.00	-41.7	-44.3	17.8	0.00e+00	0	37	0	1085276160	54	5019
2026-01-24 23:58:12.27	199.97	19.87	-41.8	-44.4	17.7	0.00e+00	0	37	0	1087373312	54	5085
2026-01-24 23:58:13.27	199.97	19.74	-41.9	-44.6	17.5	0.00e+00	0	37	0	1088421888	54	5198
2026-01-24 23:58:14.26	199.97	19.62	-41.7	-44.3	17.8	0.00e+00	0	37	0	1090519040	54	5031
2026-01-24 23:58:15.26	199.97	19.49	-41.8	-44.5	17.5	0.00e+00	0	37	0	1092616192	54	5159
2026-01-24 23:58:16.26	199.97	19.36	-41.8	-44.5	17.6	0.00e+00	0	37	0	1094713344	54	5125
2026-01-24 23:58:17.25	199.97	19.23	-41.9	-44.6	17.5	0.00e+00	0	37	0	1095761920	54	5177
2026-01-24 23:58:18.25	199.97	19.10	-42.2	-45.1	17.0	0.00e+00	0	37	0	1097859072	55	5164
2026-01-24 23:58:19.24	199.97	18.98	-42.3	-45.1	17.0	0.00e+00	0	37	0	1099956224	55	5184
2026-01-24 23:58:20.24	199.96	18.85	-42.2	-45.0	17.1	0.00e+00	0	37	0	1102053376	55	5142
2026-01-24 23:58:21.23	199.96	18.73	-42.6	-45.5	16.6	0.00e+00	0	37	0	1104150528	55	5452
2026-01-24 23:58:22.23	199.96	18.60	-42.9	-45.8	16.5	0.00e+00	0	37	0	1105199104	56	5328
2026-01-24 23:58:23.22	199.96	18.48	-42.9	-45.9	16.3	0.00e+00	0	37	0	1107296256	56	5394
2026-01-24 23:58:24.22	199.96	18.36	-43.4	-46.7	15.6	0.00e+00	0	37	0	1109393408	57	5547
2026-01-24 23:58:25.21	199.96	18.24	-43.3	-46.5	15.8	0.00e+00	0	37	0	1111490560	57	5436
2026-01-24 23:58:26.21	199.96	18.11	-43.6	-47.0	15.3	0.00e+00	0	37	0	1112539136	58	5404
2026-01-24 23:58:27.20	199.96	17.99	-44.0	-47.5	14.8	0.00e+00	0	37	0	1114636288	58	5724
2026-01-24 23:58:28.20	199.96	17.87	-43.9	-47.4	14.8	0.00e+00	0	37	0	1116733440	58	5686
2026-01-24 23:58:29.19	199.96	17.75	-44.0	-47.5	14.8	1.50e-06	0	37	0	1118830592	58	5769
2026-01-24 23:58:30.19	199.96	17.63	-44.1	-47.8	14.5	0.00e+00	0	37	0	1120927744	59	5600
2026-01-24 23:58:31.18	199.96	17.52	-44.1	-47.7	14.6	0.00e+00	0	37	0	1121976320	59	5559
2026-01-24 23:58:32.18	199.95	17.40	-44.2	-47.8	14.5	7.00e-07	0	37	0	1124073472	59	5625
2026-01-24 23:58:33.17	199.95	17.28	-44.0	-47.5	14.7	0.00e+00	0	37	0	1126170624	59	5438
2026-01-24 23:58:34.17	199.95	17.16	-44.0	-47.5	14.9	7.00e-07	0	37	0	1128267776	59	5414
2026-01-24 23:58:35.16	199.95	17.05	-43.8	-47.2	15.0	0.00e+00	0	37	0	1129316352	59	5268
2026-01-24 23:58:36.16	199.95	16.93	-43.7	-47.1	15.2	0.00e+00	0	37	0	1131413504	59	5208
2026-01-24 23:58:37.15	199.95	16.82	-43.5	-46.8	15.4	0.00e+00	0	37	0	1133510656	59	5031
2026-01-24 23:58:38.15	199.95	16.70	-43.3	-46.5	15.8	0.00e+00	0	37	0	1135607808	58	5124
2026-01-24 23:58:39.14	199.95	16.59	-43.0	-46.1	16.2	0.00e+00	0	37	0	1137704960	58	4886
2026-01-24 23:58:40.14	199.95	16.47	-42.9	-46.0	16.3	0.00e+00	0	37	0	1138753536	57	5114
2026-01-24 23:58:41.13	199.95	16.36	-43.0	-46.0	16.3	0.00e+00	0	37	0	1140850688	57	5118
2026-01-24 23:58:42.13	199.95	16.25	-42.9	-45.9	16.3	0.00e+00	0	37	0	1142947840	57	5068
2026-01-24 23:58:43.12	199.95	16.14	-42.6	-45.4	16.8	0.00e+00	0	37	0	1145044992	57	4790
2026-01-24 23:58:44.12	199.95	16.02	-42.6	-45.4	16.8	0.00e+00	0	37	0	1147142144	57	4813
2026-01-24 23:58:45.11	199.95	15.91	-42.4	-45.1	17.0	0.00e+00	0	37	0	1148190720	56	4922
2026-01-24 23:58:46.11	199.95	15.80	-42.5	-45.4	16.8	0.00e+00	0	37	0	1150287872	56	5053
2026-01-24 23:58:47.10	199.95	15.69	-42.4	-45.2	17.0	0.00e+00	0	37	0	1152385024	56	4940
2026-01-24 23:58:48.10	199.95	15.58	-42.4	-45.2	17.0	0.00e+00	0	37	0	1154482176	56	4954
2026-01-24 23:58:49.09	199.95	15.47	-42.6	-45.5	16.7	0.00e+00	0	37	0	1155530752	56	5134
2026-01-24 23:58:50.09	199.95	15.37	-42.6	-45.5	16.8	0.00e+00	0	37	0	1157627904	56	5112
2026-01-24 23:58:51.08	199.95	15.26	-42.4	-45.2	17.0	0.00e+00	0	37	0	1159725056	56	4972
2026-01-24 23:58:52.08	199.95	15.15	-42.6	-45.5	16.7	0.00e+00	0	37	0	1161822208	56	5123
2026-01-24 23:58:53.07	199.95	15.04	-42.6	-45.5	16.7	0.00e+00	0	37	0	1163919360	56	5124
2026-01-24 23:58:54.07	199.95	14.94	-42.5	-45.3	16.9	0.00e+00	0	37	0	1164967936	56	5022
2026-01-24 23:58:55.06	199.94	14.83	-42.7	-45.5	16.6	0.00e+00	0	37	0	1167065088	56	5145
2026-01-24 23:58:56.06	199.94	14.72	-42.6	-45.4	16.7	0.00e+00	0	37	0	1169162240	56	5083
2026-01-24 23:58:57.05	199.94	14.62	-42.5	-45.3	16.8	0.00e+00	0	37	0	1171259392	56	5029
2026-01-24 23:58:58.04	199.94	14.51	-42.6	-45.5	16.6	0.00e+00	0	37	0	1172307968	56	5125
2026-01-24 23:58:59.04	199.94	14.41	-42.4	-45.1	16.9	0.00e+00	0	37	0	1174405120	56	4919
2026-01-24 23:59:00.04	199.94	14.31	-42.6	-45.4	16.7	0.00e+00	0	37	0	1176502272	56	5082
2026-01-24 23:59:01.03	199.94	14.20	-42.5	-45.3	16.8	0.00e+00	0	37	0	1178599424	56	5021
2026-01-24 23:59:02.03	199.94	14.10	-42.6	-45.5	16.7	0.00e+00	0	37	0	1180696576	56	5119
2026-01-24 23:59:03.02	199.94	14.00	-42.5	-45.4	16.7	0.00e+00	0	37	0	1181745152	56	5049
2026-01-24 23:59:04.01	199.94	13.89	-42.3	-45.1	17.0	0.00e+00	0	37	0	1183842304	56	4912
2026-01-24 23:59:05.01	199.94	13.79	-42.4	-45.2	16.9	0.00e+00	0	37	0	1185939456	56	4945
2026-01-24 23:59:06.00	199.94	13.69	-42.5	-45.4	16.7	0.00e+00	0	37	0	1188036608	56	5062
2026-01-24 23:59:07.00	199.94	13.59	-42.4	-45.3	16.9	0.00e+00	0	37	0	1189085184	56	4985
2026-01-24 23:59:07.99	199.94	13.49	-42.5	-45.3	16.8	0.00e+00	0	37	0	1191182336	56	5012
2026-01-24 23:59:08.98	199.94	13.39	-42.6	-45.5	16.6	0.00e+00	0	37	0	1193279488	56	5134
2026-01-24 23:59:09.98	199.94	13.29	-42.6	-45.5	16.6	0.00e+00	0	37	0	1195376640	56	5133
2026-01-24 23:59:10.97	199.95	13.19	-42.5	-45.4	16.7	0.00e+00	0	37	0	1197473792	56	5073
2026-01-24 23:59:11.97	199.95	13.09	-42.8	-45.8	16.4	0.00e+00	0	37	0	1198522368	56	5286
2026-01-24 23:59:12.96	199.95	12.99	-42.7	-45.7	16.4	0.00e+00	0	37	0	1200619520	56	5228
2026-01-24 23:59:13.96	199.95	12.90	-42.6	-45.5	16.6	0.00e+00	0	37	0	1202716672	56	5122
2026-01-24 23:59:14.95	199.95	12.80	-42.6	-45.6	16.5	0.00e+00	0	37	0	1204813824	56	5193
2026-01-24 23:59:15.94	199.95	12.70	-42.6	-45.5	16.6	0.00e+00	0	37	0	1205862400	56	5157
2026-01-24 23:59:16.94	199.95	12.60	-42.6	-45.6	16.5	0.00e+00	0	37	0	1207959552	56	5191
2026-01-24 23:59:17.94	199.95	12.51	-42.7	-45.6	16.5	0.00e+00	0	37	0	1210056704	56	5212
2026-01-24 23:59:18.93	199.95	12.41	-42.5	-45.5	16.6	0.00e+00	0	37	0	1212153856	56	5102
2026-01-24 23:59:19.92	199.95	12.32	-42.6	-45.6	16.5	0.00e+00	0	37	0	1214251008	56	5198
