passes_logs/2026/01/24/T1/T1__20260124_024434_FENGYUN_3D_rec.log

#Pass ID: 20260124_024434_FENGYUN 3D
#Satellite: FENGYUN 3D
#Configuration: FENGYUN 3D
#almurnet v.1.7.20251203
#Start time: 2026-01-24 02:44:34

#Version: 2.0.20230620
#Station: T1
#Location: 37.570604 lon 55.790049 lat
#TLE: 1 43010U 17072A   26022.96745493  .00000490  00000+0  25355-3 0  9999
#TLE: 2 43010  98.9955 354.9072 0002484  95.6139 264.5320 14.19700039424383

#Time	Az	El	Level	Level2	SNR	BER	BlckErr	Temp	State	Recorded	gain1	gain2
2026-01-24 02:44:34.45	11.03	5.01	-48.2	-62.0	3.8	8.47e-01	0	35	0	0	68	17122
2026-01-24 02:44:35.44	10.98	5.08	-46.8	-61.5	3.8	8.47e-01	0	35	104	0	64	20466
2026-01-24 02:44:36.44	10.94	5.15	-46.7	-61.5	3.8	8.47e-01	0	35	104	0	64	20510
2026-01-24 02:44:37.43	10.89	5.22	-46.7	-61.5	3.8	8.48e-01	0	35	104	0	64	20408
2026-01-24 02:44:38.42	10.85	5.28	-46.7	-61.5	3.8	8.47e-01	0	35	104	0	64	20421
2026-01-24 02:44:39.42	10.80	5.35	-46.7	-61.5	3.8	8.48e-01	0	35	104	0	64	20344
2026-01-24 02:44:40.41	10.75	5.42	-46.7	-61.5	3.8	8.46e-01	0	35	104	0	64	20431
2026-01-24 02:44:41.40	10.71	5.49	-46.7	-61.5	3.8	8.47e-01	0	35	104	0	64	20420
2026-01-24 02:44:42.40	10.66	5.56	-46.7	-61.5	3.8	8.46e-01	0	35	104	0	64	20375
2026-01-24 02:44:43.39	10.61	5.63	-46.7	-61.5	3.8	8.47e-01	0	35	104	0	64	20312
2026-01-24 02:44:44.38	10.56	5.69	-46.7	-61.5	3.8	8.46e-01	0	35	104	0	64	20310
2026-01-24 02:44:45.37	10.52	5.76	-46.7	-61.4	3.8	8.47e-01	0	35	104	0	64	20230
2026-01-24 02:44:46.37	10.47	5.83	-46.7	-61.4	3.8	8.48e-01	0	35	104	0	64	20275
2026-01-24 02:44:47.36	10.42	5.90	-46.7	-61.5	3.8	8.47e-01	0	35	104	0	64	20350
2026-01-24 02:44:48.35	10.37	5.97	-46.7	-61.5	3.8	8.47e-01	0	35	104	0	64	20343
2026-01-24 02:44:49.35	10.32	6.04	-46.7	-61.5	3.8	8.47e-01	0	35	104	0	64	20335
2026-01-24 02:44:50.34	10.27	6.11	-46.7	-61.5	3.8	8.46e-01	0	35	104	0	64	20304
2026-01-24 02:44:51.33	10.22	6.18	-46.8	-61.5	3.8	8.48e-01	0	35	104	0	64	20309
2026-01-24 02:44:52.33	10.17	6.25	-46.7	-61.4	3.8	8.47e-01	0	35	104	0	64	20211
2026-01-24 02:44:53.32	10.12	6.32	-46.8	-61.4	3.8	8.49e-01	0	36	104	0	64	20195
2026-01-24 02:44:54.31	10.07	6.39	-46.7	-61.4	3.8	8.48e-01	0	36	104	0	64	20186
2026-01-24 02:44:55.31	10.02	6.46	-46.8	-61.3	3.8	8.48e-01	0	36	104	0	64	19936
2026-01-24 02:44:56.30	9.97	6.53	-46.8	-61.2	3.8	8.48e-01	0	36	104	0	64	19718
2026-01-24 02:44:57.29	9.92	6.60	-46.7	-61.0	3.8	8.47e-01	0	36	104	0	64	19371
2026-01-24 02:44:58.29	9.87	6.68	-46.7	-60.8	3.8	8.46e-01	0	36	104	0	64	18737
2026-01-24 02:44:59.28	9.82	6.75	-46.7	-60.4	3.8	8.47e-01	0	36	104	0	64	18031
2026-01-24 02:45:00.27	9.77	6.82	-46.7	-60.0	3.8	8.47e-01	0	36	104	0	64	17251
2026-01-24 02:45:01.27	9.72	6.89	-46.7	-59.5	3.8	8.46e-01	0	36	104	0	64	16277
2026-01-24 02:45:02.26	9.66	6.96	-46.6	-59.0	4.0	8.47e-01	0	36	104	0	64	15346
2026-01-24 02:45:03.25	9.61	7.03	-46.6	-58.7	3.9	8.44e-01	0	36	104	0	64	14762
2026-01-24 02:45:04.25	9.56	7.11	-46.6	-58.3	4.1	8.41e-01	0	36	0	0	64	14102
2026-01-24 02:45:05.24	9.50	7.18	-46.5	-58.1	4.1	8.41e-01	0	36	0	0	64	13869
2026-01-24 02:45:06.23	9.45	7.25	-46.5	-58.1	4.1	8.39e-01	0	36	0	0	64	13790
2026-01-24 02:45:07.22	9.40	7.32	-46.6	-58.3	4.1	8.40e-01	0	36	0	0	64	14110
2026-01-24 02:45:08.22	9.34	7.40	-46.6	-58.6	4.0	8.43e-01	0	36	0	0	64	14579
2026-01-24 02:45:09.21	9.29	7.47	-46.6	-59.0	4.0	8.44e-01	0	36	104	0	64	15318
2026-01-24 02:45:10.20	9.24	7.54	-46.7	-59.6	3.9	8.46e-01	0	36	104	0	64	16356
2026-01-24 02:45:11.20	9.18	7.62	-46.7	-60.1	3.8	8.46e-01	0	36	104	0	64	17372
2026-01-24 02:45:12.19	9.13	7.69	-46.7	-60.6	3.8	8.46e-01	0	36	104	0	64	18428
2026-01-24 02:45:13.18	9.07	7.77	-46.8	-61.1	3.8	8.47e-01	0	36	104	0	64	19436
2026-01-24 02:45:14.18	9.01	7.84	-46.8	-61.4	3.8	8.46e-01	0	36	104	0	64	20107
2026-01-24 02:45:15.17	8.96	7.91	-46.8	-61.4	3.8	8.48e-01	0	36	104	0	64	20252
2026-01-24 02:45:16.16	8.90	7.99	-46.7	-60.8	3.8	8.47e-01	0	36	104	0	64	18887
2026-01-24 02:45:17.15	8.85	8.06	-46.6	-59.3	3.8	8.47e-01	0	36	104	0	64	15817
2026-01-24 02:45:18.15	8.79	8.14	-46.4	-56.7	4.6	8.27e-01	0	36	0	0	64	11783
2026-01-24 02:45:19.14	8.73	8.21	-46.0	-54.2	6.2	5.92e-01	0	37	0	1048576	63	9353
2026-01-24 02:45:20.13	8.67	8.29	-45.4	-52.0	8.2	8.71e-02	0	36	0	7340032	62	7674
2026-01-24 02:45:21.13	8.62	8.36	-44.7	-49.9	10.3	1.30e-02	0	36	0	12582912	61	6407
2026-01-24 02:45:22.12	8.56	8.44	-43.4	-48.3	12.0	1.58e-03	0	36	0	17825792	59	5960
2026-01-24 02:45:23.11	8.50	8.52	-43.3	-47.1	13.3	6.06e-05	0	36	0	24117248	58	5484
2026-01-24 02:45:24.11	8.44	8.59	-42.7	-46.1	14.3	9.10e-06	0	36	0	29360128	57	5165
2026-01-24 02:45:25.10	8.38	8.67	-42.2	-45.4	15.0	0.00e+00	0	36	0	34603008	56	5046
2026-01-24 02:45:26.09	8.32	8.74	-41.8	-44.8	15.5	0.00e+00	0	36	0	40894464	55	4994
2026-01-24 02:45:27.09	8.26	8.82	-41.6	-44.5	15.8	0.00e+00	0	36	0	46137344	55	4834
2026-01-24 02:45:28.08	8.20	8.90	-41.6	-44.5	15.8	0.00e+00	0	37	0	51380224	55	4841
2026-01-24 02:45:29.07	8.14	8.98	-41.8	-44.9	15.4	0.00e+00	0	36	0	57671680	55	5044
2026-01-24 02:45:30.06	8.08	9.05	-42.2	-45.4	14.8	1.10e-06	0	37	0	62914560	55	5361
2026-01-24 02:45:31.06	8.02	9.13	-40.6	-43.2	17.1	0.00e+00	0	37	0	68157440	53	4663
2026-01-24 02:45:32.05	7.96	9.21	-42.1	-45.0	15.3	0.00e+00	0	37	0	73400320	54	5417
2026-01-24 02:45:33.04	7.89	9.29	-44.8	-50.2	10.1	9.70e-04	0	37	0	79691776	60	7023
2026-01-24 02:45:34.04	7.83	9.36	-45.4	-51.7	8.6	8.08e-03	0	36	0	84934656	61	7868
2026-01-24 02:45:35.03	7.77	9.44	-39.7	-41.9	18.4	0.00e+00	0	37	0	91226112	51	4494
2026-01-24 02:45:36.03	7.71	9.52	-39.7	-41.9	18.4	0.00e+00	0	37	0	96468992	51	4522
2026-01-24 02:45:37.02	7.64	9.60	-39.4	-41.5	18.8	0.00e+00	0	37	0	101711872	50	4580
2026-01-24 02:45:38.01	7.58	9.68	-39.3	-41.5	18.8	0.00e+00	0	37	0	108003328	50	4546
2026-01-24 02:45:39.01	7.51	9.76	-39.3	-41.4	18.9	0.00e+00	0	37	0	113246208	50	4502
2026-01-24 02:45:40.01	7.45	9.84	-39.3	-41.4	18.9	0.00e+00	0	37	0	118489088	50	4503
2026-01-24 02:45:41.00	7.39	9.92	-39.4	-41.5	18.8	0.00e+00	0	37	0	123731968	50	4558
2026-01-24 02:45:42.00	7.32	10.00	-39.3	-41.3	19.0	0.00e+00	0	37	0	130023424	50	4470
2026-01-24 02:45:43.00	7.25	10.08	-39.3	-41.3	19.0	0.00e+00	0	36	0	135266304	50	4493
2026-01-24 02:45:43.99	7.19	10.16	-39.2	-41.2	19.0	0.00e+00	0	37	0	141557760	50	4441
2026-01-24 02:45:44.99	7.12	10.24	-39.2	-41.2	19.1	0.00e+00	0	37	0	146800640	50	4430
2026-01-24 02:45:45.98	7.05	10.32	-39.2	-41.2	19.1	0.00e+00	0	37	0	152043520	50	4439
2026-01-24 02:45:46.98	6.99	10.40	-39.2	-41.2	19.1	0.00e+00	0	37	0	158334976	50	4438
2026-01-24 02:45:47.97	6.92	10.48	-39.3	-41.3	18.9	0.00e+00	0	37	0	163577856	50	4491
2026-01-24 02:45:48.97	6.85	10.57	-39.2	-41.2	19.1	0.00e+00	0	37	0	168820736	50	4419
2026-01-24 02:45:49.97	6.78	10.65	-39.2	-41.2	19.1	0.00e+00	0	37	0	175112192	50	4439
2026-01-24 02:45:50.96	6.71	10.73	-39.2	-41.2	19.1	0.00e+00	0	37	0	180355072	50	4430
2026-01-24 02:45:51.96	6.64	10.81	-39.2	-41.2	19.1	0.00e+00	0	37	0	185597952	50	4417
2026-01-24 02:45:52.96	6.57	10.90	-39.2	-41.3	19.0	0.00e+00	0	37	0	191889408	50	4451
2026-01-24 02:45:53.95	6.50	10.98	-39.1	-41.2	19.1	0.00e+00	0	37	0	197132288	50	4406
2026-01-24 02:45:54.95	6.43	11.06	-39.2	-41.2	19.1	0.00e+00	0	37	0	202375168	50	4429
2026-01-24 02:45:55.94	6.36	11.14	-39.2	-41.2	19.1	0.00e+00	0	37	0	208666624	50	4414
2026-01-24 02:45:56.94	6.29	11.23	-39.1	-41.2	19.2	0.00e+00	0	37	0	213909504	50	4399
2026-01-24 02:45:57.93	6.22	11.31	-39.1	-41.2	19.1	0.00e+00	0	37	0	219152384	50	4403
2026-01-24 02:45:58.96	6.14	11.40	-39.1	-41.1	19.2	0.00e+00	0	37	0	225443840	50	4390
2026-01-24 02:45:59.95	6.07	11.48	-39.0	-41.0	19.3	0.00e+00	0	37	0	230686720	50	4305
2026-01-24 02:46:00.95	6.00	11.57	-39.0	-41.0	19.4	0.00e+00	0	37	0	236978176	49	4550
2026-01-24 02:46:01.94	5.93	11.65	-38.9	-40.9	19.5	0.00e+00	0	37	0	242221056	49	4497
2026-01-24 02:46:02.94	5.85	11.74	-38.8	-40.8	19.5	0.00e+00	0	37	0	247463936	49	4468
2026-01-24 02:46:03.93	5.78	11.82	-38.8	-40.8	19.5	0.00e+00	0	37	0	253755392	49	4466
2026-01-24 02:46:04.92	5.70	11.91	-38.7	-40.7	19.6	0.00e+00	0	37	0	258998272	49	4421
2026-01-24 02:46:05.92	5.63	11.99	-38.7	-40.6	19.7	0.00e+00	0	37	0	264241152	49	4373
2026-01-24 02:46:06.91	5.55	12.08	-38.6	-40.6	19.7	0.00e+00	0	37	0	270532608	49	4366
2026-01-24 02:46:07.90	5.47	12.16	-38.6	-40.6	19.7	0.00e+00	0	37	0	275775488	49	4364
2026-01-24 02:46:08.90	5.40	12.25	-38.5	-40.5	19.8	0.00e+00	0	37	0	281018368	49	4316
2026-01-24 02:46:09.90	5.32	12.34	-38.5	-40.4	19.9	0.00e+00	0	37	0	287309824	48	4538
2026-01-24 02:46:10.89	5.24	12.42	-38.5	-40.4	19.9	0.00e+00	0	37	0	292552704	48	4523
2026-01-24 02:46:11.88	5.16	12.51	-38.4	-40.4	19.9	0.00e+00	0	37	0	297795584	48	4514
2026-01-24 02:46:12.88	5.09	12.60	-38.4	-40.3	20.0	0.00e+00	0	37	0	304087040	48	4470
2026-01-24 02:46:13.88	5.01	12.69	-38.3	-40.2	20.1	0.00e+00	0	37	0	309329920	48	4411
2026-01-24 02:46:14.87	4.93	12.77	-38.3	-40.2	20.1	0.00e+00	0	37	0	314572800	48	4407
2026-01-24 02:46:15.96	4.84	12.87	-38.3	-40.3	20.1	0.00e+00	0	37	0	320864256	48	4445
2026-01-24 02:46:16.83	4.77	12.95	-38.3	-40.3	20.1	0.00e+00	0	37	0	326107136	48	4445
2026-01-24 02:46:18.12	4.66	13.06	-38.3	-40.2	20.1	0.00e+00	0	37	0	333447168	48	4413
2026-01-24 02:46:18.83	4.60	13.13	-38.3	-40.2	20.1	0.00e+00	0	37	0	337641472	48	4406
2026-01-24 02:46:20.11	4.50	13.24	-38.4	-40.3	20.0	0.00e+00	0	37	0	344981504	48	4457
2026-01-24 02:46:20.84	4.44	13.31	-38.4	-40.3	20.0	0.00e+00	0	37	0	348127232	48	4474
2026-01-24 02:46:22.12	4.33	13.42	-38.4	-40.3	20.1	0.00e+00	0	37	0	355467264	48	4449
2026-01-24 02:46:22.86	4.27	13.49	-38.3	-40.2	20.1	0.00e+00	0	37	0	359661568	48	4409
2026-01-24 02:46:24.14	4.16	13.61	-38.3	-40.2	20.2	0.00e+00	0	37	0	367001600	48	4400
2026-01-24 02:46:24.86	4.10	13.67	-38.3	-40.1	20.1	0.00e+00	0	37	0	371195904	48	4390
2026-01-24 02:46:26.14	3.99	13.79	-38.2	-40.1	20.2	0.00e+00	0	37	0	378535936	48	4380
2026-01-24 02:46:26.85	3.93	13.85	-38.1	-40.0	20.3	0.00e+00	0	37	0	381681664	48	4332
2026-01-24 02:46:28.13	3.81	13.97	-38.2	-40.1	20.2	0.00e+00	0	37	0	389021696	48	4387
2026-01-24 02:46:29.03	3.73	14.06	-38.2	-40.0	20.3	0.00e+00	0	37	0	394264576	48	4338
2026-01-24 02:46:30.12	3.64	14.16	-38.1	-40.0	20.3	0.00e+00	0	37	0	400556032	48	4336
2026-01-24 02:46:30.97	3.56	14.24	-38.2	-40.1	20.3	0.00e+00	0	37	0	405798912	48	4349
2026-01-24 02:46:32.11	3.46	14.34	-38.2	-40.1	20.2	0.00e+00	0	37	0	412090368	48	4354
2026-01-24 02:46:33.27	3.36	14.45	-38.2	-40.1	20.2	0.00e+00	0	37	0	418381824	48	4365
2026-01-24 02:46:34.12	3.28	14.53	-38.2	-40.1	20.2	0.00e+00	0	37	0	423624704	48	4384
2026-01-24 02:46:35.25	3.18	14.64	-38.2	-40.2	20.2	0.00e+00	0	37	0	429916160	48	4392
2026-01-24 02:46:36.11	3.10	14.72	-38.2	-40.1	20.3	0.00e+00	0	37	0	434110464	48	4341
2026-01-24 02:46:37.24	2.99	14.82	-38.0	-39.9	20.4	0.00e+00	0	37	0	440401920	48	4272
2026-01-24 02:46:38.09	2.91	14.90	-38.1	-40.0	20.4	0.00e+00	0	37	0	445644800	48	4303
2026-01-24 02:46:39.23	2.81	15.01	-37.9	-39.7	20.4	0.00e+00	0	37	0	451936256	47	4440
2026-01-24 02:46:40.08	2.73	15.09	-37.9	-39.7	20.4	0.00e+00	0	37	0	457179136	47	4430
2026-01-24 02:46:41.28	2.61	15.21	-37.8	-39.6	20.5	0.00e+00	0	37	0	463470592	47	4387
2026-01-24 02:46:42.13	2.53	15.29	-37.7	-39.5	20.6	0.00e+00	0	37	0	468713472	47	4324
2026-01-24 02:46:43.27	2.42	15.40	-37.8	-39.6	20.6	0.00e+00	0	37	0	475004928	47	4359
2026-01-24 02:46:44.12	2.34	15.48	-37.8	-39.6	20.5	0.00e+00	0	37	0	479199232	47	4365
2026-01-24 02:46:45.26	2.23	15.59	-37.6	-39.4	20.8	0.00e+00	0	37	0	485490688	47	4268
2026-01-24 02:46:46.11	2.14	15.68	-37.5	-39.3	20.8	0.00e+00	0	37	0	490733568	47	4237
2026-01-24 02:46:47.25	2.03	15.79	-37.4	-39.2	20.9	0.00e+00	0	37	0	497025024	46	4435
2026-01-24 02:46:48.10	1.95	15.87	-37.4	-39.2	20.9	0.00e+00	0	37	0	501219328	46	4433
2026-01-24 02:46:49.24	1.83	15.98	-37.4	-39.2	21.0	0.00e+00	0	37	0	508559360	46	4416
2026-01-24 02:46:50.30	1.72	16.09	-37.4	-39.2	20.9	0.00e+00	0	37	0	513802240	46	4425
2026-01-24 02:46:51.33	1.62	16.19	-37.3	-39.1	21.0	0.00e+00	0	37	0	520093696	46	4391
2026-01-24 02:46:52.33	1.52	16.29	-37.4	-39.2	20.9	0.00e+00	0	37	0	525336576	46	4432
2026-01-24 02:46:53.32	1.42	16.39	-37.4	-39.2	21.0	0.00e+00	0	37	0	531628032	46	4396
2026-01-24 02:46:54.32	1.31	16.49	-37.5	-39.3	20.9	0.00e+00	0	37	0	536870912	46	4454
2026-01-24 02:46:55.31	1.21	16.59	-37.5	-39.3	20.8	0.00e+00	0	37	0	542113792	46	4490
2026-01-24 02:46:56.31	1.10	16.69	-37.6	-39.4	20.8	0.00e+00	0	37	0	548405248	46	4509
2026-01-24 02:46:57.30	1.00	16.79	-37.5	-39.4	20.8	0.00e+00	0	37	0	553648128	46	4507
2026-01-24 02:46:58.30	0.89	16.89	-37.6	-39.5	20.7	0.00e+00	0	37	0	558891008	46	4551
2026-01-24 02:46:59.30	0.78	16.99	-37.6	-39.4	20.8	0.00e+00	0	37	0	565182464	46	4516
2026-01-24 02:47:00.28	0.68	17.09	-37.5	-39.3	20.8	0.00e+00	0	37	0	570425344	46	4492
2026-01-24 02:47:01.26	0.57	17.19	-37.5	-39.3	20.9	0.00e+00	0	37	0	575668224	46	4472
2026-01-24 02:47:02.29	0.46	17.29	-37.5	-39.3	20.9	0.00e+00	0	37	0	581959680	46	4465
2026-01-24 02:47:03.29	0.35	17.40	-37.5	-39.3	20.9	0.00e+00	0	37	0	587202560	46	4457
2026-01-24 02:47:04.36	0.23	17.51	-37.3	-39.1	21.0	0.00e+00	0	37	0	593494016	46	4391
2026-01-24 02:47:05.21	0.13	17.59	-37.2	-39.0	21.1	0.00e+00	0	37	0	597688320	46	4327
2026-01-24 02:47:06.57	359.98	17.73	-37.1	-38.9	21.3	0.00e+00	0	37	0	606076928	46	4258
2026-01-24 02:47:07.29	359.90	17.81	-37.0	-38.8	21.3	0.00e+00	0	37	0	609222656	46	4216
2026-01-24 02:47:08.56	359.75	17.94	-37.0	-38.8	21.4	0.00e+00	0	37	0	616562688	45	4450
2026-01-24 02:47:09.29	359.67	18.02	-36.9	-38.7	21.5	0.00e+00	0	37	0	620756992	45	4392
2026-01-24 02:47:10.57	359.52	18.15	-36.8	-38.6	21.5	0.00e+00	0	37	0	628097024	45	4365
2026-01-24 02:47:11.30	359.43	18.23	-36.9	-38.7	21.5	0.00e+00	0	37	0	632291328	45	4393
2026-01-24 02:47:12.57	359.28	18.36	-36.9	-38.6	21.5	0.00e+00	0	37	0	639631360	45	4385
2026-01-24 02:47:13.29	359.20	18.44	-36.8	-38.6	21.5	0.00e+00	0	37	0	643825664	45	4353
2026-01-24 02:47:14.56	359.05	18.57	-36.9	-38.7	21.5	0.00e+00	0	37	0	651165696	45	4401
2026-01-24 02:47:15.29	358.96	18.65	-36.9	-38.7	21.5	0.00e+00	0	37	0	654311424	45	4395
2026-01-24 02:47:16.57	358.80	18.79	-36.8	-38.5	21.6	0.00e+00	0	37	0	661651456	45	4321
2026-01-24 02:47:17.29	358.71	18.87	-36.8	-38.6	21.5	0.00e+00	0	37	0	665845760	45	4354
2026-01-24 02:47:18.57	358.56	19.00	-36.9	-38.6	21.5	0.00e+00	0	37	0	673185792	45	4388
2026-01-24 02:47:19.28	358.47	19.08	-36.9	-38.6	21.5	0.00e+00	0	37	0	677380096	45	4390
2026-01-24 02:47:20.56	358.31	19.22	-36.7	-38.4	21.7	0.00e+00	0	37	0	684720128	45	4290
2026-01-24 02:47:21.27	358.22	19.30	-36.7	-38.4	21.7	0.00e+00	0	37	0	688914432	45	4279
2026-01-24 02:47:22.55	358.06	19.44	-36.7	-38.5	21.7	0.00e+00	0	37	0	695205888	45	4292
2026-01-24 02:47:23.27	357.96	19.51	-36.7	-38.4	21.7	0.00e+00	0	37	0	699400192	45	4267
2026-01-24 02:47:24.55	357.80	19.65	-36.7	-38.4	21.7	0.00e+00	0	37	0	706740224	45	4287
2026-01-24 02:47:25.27	357.71	19.73	-36.8	-38.6	21.6	0.00e+00	0	37	0	710934528	45	4361
2026-01-24 02:47:26.54	357.54	19.87	-36.7	-38.5	21.6	0.00e+00	0	37	0	718274560	45	4310
2026-01-24 02:47:27.28	357.44	19.95	-36.8	-38.5	21.6	0.00e+00	0	37	0	722468864	45	4325
2026-01-24 02:47:28.75	357.25	20.12	-36.7	-38.5	21.6	0.00e+00	0	37	0	730857472	45	4306
2026-01-24 02:47:29.46	357.15	20.20	-36.6	-38.4	21.8	0.00e+00	0	37	0	735051776	45	4243
2026-01-24 02:47:30.74	356.98	20.34	-36.6	-38.3	21.8	0.00e+00	0	37	0	741343232	45	4233
2026-01-24 02:47:31.46	356.88	20.42	-36.5	-38.3	21.9	0.00e+00	0	37	0	745537536	45	4197
2026-01-24 02:47:32.74	356.71	20.56	-36.5	-38.2	21.9	0.00e+00	0	37	0	752877568	45	4174
2026-01-24 02:47:33.46	356.61	20.64	-36.5	-38.2	21.9	0.00e+00	0	37	0	757071872	45	4176
2026-01-24 02:47:34.73	356.43	20.79	-36.3	-38.0	22.1	0.00e+00	0	37	0	764411904	44	4311
2026-01-24 02:47:35.46	356.33	20.87	-36.2	-37.9	22.2	0.00e+00	0	37	0	768606208	44	4289
2026-01-24 02:47:36.74	356.15	21.02	-36.2	-37.9	22.2	0.00e+00	0	37	0	774897664	44	4278
2026-01-24 02:47:37.47	356.05	21.10	-36.4	-38.1	22.1	0.00e+00	0	37	0	779091968	44	4350
2026-01-24 02:47:38.75	355.86	21.24	-36.2	-37.9	22.2	0.00e+00	0	37	0	786432000	44	4276
2026-01-24 02:47:39.46	355.76	21.33	-36.3	-38.0	22.1	0.00e+00	0	37	0	790626304	44	4305
2026-01-24 02:47:40.74	355.57	21.47	-36.3	-38.0	22.1	0.00e+00	0	37	0	797966336	44	4315
2026-01-24 02:47:41.60	355.45	21.57	-36.3	-38.1	22.1	0.00e+00	0	37	0	802160640	44	4341
2026-01-24 02:47:42.74	355.28	21.70	-36.3	-38.0	22.1	0.00e+00	0	37	0	809500672	44	4300
2026-01-24 02:47:43.59	355.15	21.80	-36.2	-38.0	22.1	0.00e+00	0	37	0	813694976	44	4294
2026-01-24 02:47:44.73	354.98	21.93	-36.2	-37.9	22.2	0.00e+00	0	37	0	819986432	44	4283
2026-01-24 02:47:45.58	354.86	22.03	-36.1	-37.8	22.3	0.00e+00	0	37	0	825229312	44	4201
2026-01-24 02:47:46.72	354.68	22.17	-36.2	-37.9	22.2	0.00e+00	0	37	0	831520768	44	4251
2026-01-24 02:47:47.57	354.55	22.27	-36.1	-37.8	22.3	0.00e+00	0	37	0	836763648	44	4217
2026-01-24 02:47:48.71	354.38	22.40	-36.1	-37.8	22.3	0.00e+00	0	37	0	843055104	44	4218
2026-01-24 02:47:49.56	354.24	22.50	-35.8	-37.5	22.5	0.00e+00	0	37	0	847249408	43	4298
2026-01-24 02:47:50.70	354.06	22.63	-35.8	-37.5	22.4	0.00e+00	0	37	0	853540864	43	4305
2026-01-24 02:47:51.55	353.93	22.73	-35.7	-37.4	22.6	0.00e+00	0	37	0	858783744	43	4253
2026-01-24 02:47:52.68	353.75	22.87	-35.6	-37.3	22.6	0.00e+00	0	37	0	865075200	43	4221
2026-01-24 02:47:53.53	353.61	22.97	-35.7	-37.3	22.6	0.00e+00	0	37	0	870318080	43	4239
2026-01-24 02:47:54.67	353.43	23.11	-35.6	-37.3	22.6	0.00e+00	0	37	0	876609536	43	4194
2026-01-24 02:47:55.53	353.29	23.21	-35.6	-37.3	22.7	0.00e+00	0	37	0	880803840	43	4196
2026-01-24 02:47:56.66	353.10	23.34	-35.6	-37.3	22.6	0.00e+00	0	37	0	887095296	43	4210
2026-01-24 02:47:57.51	352.96	23.45	-35.7	-37.4	22.6	0.00e+00	0	37	0	892338176	43	4249
2026-01-24 02:47:58.65	352.77	23.58	-35.8	-37.5	22.5	0.00e+00	0	37	0	898629632	43	4304
2026-01-24 02:47:59.79	352.58	23.72	-35.6	-37.3	22.6	0.00e+00	0	37	0	904921088	43	4209
2026-01-24 02:48:00.80	352.41	23.84	-35.5	-37.2	22.7	0.00e+00	0	37	0	910163968	43	4167
2026-01-24 02:48:01.95	352.21	23.98	-35.6	-37.3	22.6	0.00e+00	0	37	0	917504000	43	4224
2026-01-24 02:48:02.83	352.06	24.09	-35.6	-37.3	22.6	0.00e+00	0	37	0	921698304	43	4237
2026-01-24 02:48:04.13	351.83	24.25	-35.7	-37.4	22.6	0.00e+00	0	38	0	929038336	43	4255
2026-01-24 02:48:05.25	351.64	24.39	-35.7	-37.5	22.5	0.00e+00	0	37	0	935329792	43	4300
2026-01-24 02:48:06.11	351.48	24.49	-35.7	-37.5	22.5	0.00e+00	0	37	0	940572672	43	4299
2026-01-24 02:48:07.25	351.28	24.63	-35.9	-37.6	22.4	0.00e+00	0	38	0	946864128	43	4358
2026-01-24 02:48:08.10	351.13	24.74	-35.9	-37.6	22.3	0.00e+00	0	37	0	952107008	43	4381
2026-01-24 02:48:09.31	350.91	24.89	-35.7	-37.4	22.5	0.00e+00	0	37	0	958398464	43	4268
2026-01-24 02:48:10.17	350.75	24.99	-35.7	-37.4	22.5	0.00e+00	0	37	0	963641344	43	4266
2026-01-24 02:48:11.30	350.54	25.13	-35.7	-37.4	22.5	0.00e+00	0	37	0	969932800	43	4278
2026-01-24 02:48:12.16	350.38	25.24	-35.6	-37.3	22.7	0.00e+00	0	37	0	975175680	43	4202
2026-01-24 02:48:13.30	350.17	25.38	-35.5	-37.1	22.8	0.00e+00	0	37	0	980418560	42	4382
2026-01-24 02:48:14.15	350.01	25.49	-35.4	-37.1	22.8	0.00e+00	0	37	0	985661440	42	4366
2026-01-24 02:48:15.51	349.75	25.66	-35.2	-36.8	23.1	0.00e+00	0	37	0	994050048	42	4224
2026-01-24 02:48:16.22	349.61	25.74	-35.1	-36.8	23.1	0.00e+00	0	37	0	997195776	42	4207
2026-01-24 02:48:17.48	349.37	25.90	-35.1	-36.8	23.1	0.00e+00	0	37	0	1004535808	42	4213
2026-01-24 02:48:18.28	349.21	26.00	-35.2	-36.9	23.0	0.00e+00	0	37	0	1008730112	42	4260
2026-01-24 02:48:19.42	348.99	26.15	-35.1	-36.8	23.1	0.00e+00	0	37	0	1015021568	42	4216
2026-01-24 02:48:20.27	348.82	26.25	-35.2	-36.9	23.0	0.00e+00	0	37	0	1020264448	42	4270
2026-01-24 02:48:21.41	348.59	26.40	-35.3	-36.9	23.0	0.00e+00	0	37	0	1026555904	42	4291
2026-01-24 02:48:22.26	348.42	26.51	-35.3	-37.0	22.9	0.00e+00	0	37	0	1031798784	42	4308
2026-01-24 02:48:23.39	348.19	26.65	-35.4	-37.0	22.9	0.00e+00	0	37	0	1038090240	42	4326
2026-01-24 02:48:24.24	348.01	26.76	-35.3	-37.0	22.9	0.00e+00	0	37	0	1043333120	42	4316
2026-01-24 02:48:25.38	347.78	26.90	-35.4	-37.0	22.9	0.00e+00	0	37	0	1048576000	42	4338
2026-01-24 02:48:26.23	347.60	27.01	-35.2	-36.9	23.0	0.00e+00	0	37	0	1053818880	42	4268
2026-01-24 02:48:27.37	347.36	27.15	-35.1	-36.7	23.2	0.00e+00	0	37	0	1060110336	42	4188
2026-01-24 02:48:28.22	347.18	27.26	-35.0	-36.7	23.2	0.00e+00	0	37	0	1065353216	42	4154
2026-01-24 02:48:29.36	346.94	27.41	-35.1	-36.8	23.2	0.00e+00	0	37	0	1071644672	42	4208
2026-01-24 02:48:30.21	346.76	27.52	-35.1	-36.8	23.1	0.00e+00	0	37	0	1075838976	42	4212
2026-01-24 02:48:31.35	346.51	27.66	-35.3	-36.9	23.0	0.00e+00	0	37	0	1083179008	42	4280
2026-01-24 02:48:32.20	346.32	27.77	-35.3	-36.9	23.0	0.00e+00	0	38	0	1087373312	42	4290
2026-01-24 02:48:33.34	346.07	27.92	-35.4	-37.0	22.9	0.00e+00	0	38	0	1093664768	42	4340
2026-01-24 02:48:34.19	345.88	28.03	-35.3	-37.0	22.9	0.00e+00	0	38	0	1098907648	42	4313
2026-01-24 02:48:35.33	345.63	28.17	-35.3	-37.0	22.9	0.00e+00	0	37	0	1105199104	42	4293
2026-01-24 02:48:36.18	345.43	28.28	-35.3	-36.9	23.0	0.00e+00	0	37	0	1109393408	42	4269
2026-01-24 02:48:37.32	345.18	28.43	-35.3	-36.9	23.0	0.00e+00	0	37	0	1116733440	42	4277
2026-01-24 02:48:38.17	344.98	28.54	-35.3	-37.0	23.0	0.00e+00	0	38	0	1120927744	42	4307
2026-01-24 02:48:39.31	344.72	28.69	-35.2	-36.9	23.1	0.00e+00	0	37	0	1127219200	42	4246
2026-01-24 02:48:40.16	344.52	28.80	-35.2	-36.9	23.0	0.00e+00	0	38	0	1132462080	42	4278
2026-01-24 02:48:41.30	344.25	28.94	-35.1	-36.8	23.1	0.00e+00	0	37	0	1138753536	42	4220
2026-01-24 02:48:42.15	344.05	29.05	-35.2	-36.9	23.0	0.00e+00	0	37	0	1143996416	42	4249
2026-01-24 02:48:43.29	343.78	29.20	-35.3	-37.0	23.0	0.00e+00	0	37	0	1150287872	42	4302
2026-01-24 02:48:44.14	343.57	29.31	-35.3	-37.0	23.0	0.00e+00	0	37	0	1154482176	42	4298
2026-01-24 02:48:45.28	343.29	29.46	-35.3	-37.0	22.9	0.00e+00	0	37	0	1160773632	42	4320
2026-01-24 02:48:46.13	343.09	29.57	-35.3	-37.0	23.0	0.00e+00	0	37	0	1166016512	42	4319
2026-01-24 02:48:47.27	342.80	29.71	-35.3	-37.0	22.9	0.00e+00	0	37	0	1172307968	42	4334
2026-01-24 02:48:48.12	342.59	29.82	-35.2	-36.9	23.0	0.00e+00	0	37	0	1176502272	42	4278
2026-01-24 02:48:49.26	342.31	29.97	-35.1	-36.7	23.2	0.00e+00	0	37	0	1183842304	42	4190
2026-01-24 02:48:50.11	342.09	30.08	-34.9	-36.6	23.3	0.00e+00	0	37	0	1188036608	41	4375
2026-01-24 02:48:51.25	341.80	30.23	-35.0	-36.7	23.2	0.00e+00	0	37	0	1194328064	41	4396
2026-01-24 02:48:52.10	341.58	30.34	-35.1	-36.8	23.1	0.00e+00	0	37	0	1199570944	41	4468
2026-01-24 02:48:53.24	341.29	30.48	-35.0	-36.6	23.3	0.00e+00	0	37	0	1205862400	41	4387
2026-01-24 02:48:54.09	341.06	30.59	-35.0	-36.6	23.2	0.00e+00	0	37	0	1211105280	41	4389
2026-01-24 02:48:55.23	340.76	30.74	-35.0	-36.6	23.3	0.00e+00	0	37	0	1217396736	41	4374
2026-01-24 02:48:56.08	340.54	30.85	-35.1	-36.7	23.1	0.00e+00	0	37	0	1221591040	41	4427
2026-01-24 02:48:57.22	340.23	31.00	-35.1	-36.7	23.1	0.00e+00	0	37	0	1227882496	41	4441
2026-01-24 02:48:58.07	340.00	31.10	-35.0	-36.7	23.2	0.00e+00	0	37	0	1233125376	41	4431
2026-01-24 02:48:59.21	339.69	31.25	-35.0	-36.7	23.1	0.00e+00	0	37	0	1239416832	41	4435
2026-01-24 02:49:00.06	339.46	31.36	-35.0	-36.7	23.2	0.00e+00	0	38	0	1244659712	41	4410
2026-01-24 02:49:01.19	339.15	31.50	-34.9	-36.6	23.3	0.00e+00	0	37	0	1250951168	41	4351
2026-01-24 02:49:02.05	338.91	31.61	-34.8	-36.5	23.4	0.00e+00	0	37	0	1255145472	41	4326
2026-01-24 02:49:03.18	338.59	31.76	-34.9	-36.6	23.3	0.00e+00	0	37	0	1261436928	41	4351
2026-01-24 02:49:04.04	338.35	31.87	-34.9	-36.6	23.3	0.00e+00	0	37	0	1266679808	41	4350
2026-01-24 02:49:05.27	338.00	32.02	-34.9	-36.6	23.3	0.00e+00	0	37	0	1272971264	41	4366
2026-01-24 02:49:06.12	337.75	32.13	-34.8	-36.5	23.4	0.00e+00	0	38	0	1278214144	41	4296
2026-01-24 02:49:07.26	337.42	32.27	-34.8	-36.5	23.4	0.00e+00	0	37	0	1284505600	41	4297
2026-01-24 02:49:08.11	337.17	32.38	-34.8	-36.5	23.4	0.00e+00	0	38	0	1289748480	41	4302
2026-01-24 02:49:09.25	336.84	32.52	-34.9	-36.6	23.3	0.00e+00	0	37	0	1296039936	41	4356
2026-01-24 02:49:10.10	336.59	32.63	-35.0	-36.6	23.3	0.00e+00	0	37	0	1300234240	41	4362
2026-01-24 02:49:11.24	336.25	32.77	-35.0	-36.6	23.3	0.00e+00	0	37	0	1307574272	41	4374
2026-01-24 02:49:12.09	335.99	32.88	-35.1	-36.7	23.2	0.00e+00	0	37	0	1311768576	41	4417
2026-01-24 02:49:13.23	335.64	33.02	-34.8	-36.5	23.4	0.00e+00	0	37	0	1318060032	41	4315
2026-01-24 02:49:14.08	335.38	33.13	-34.9	-36.5	23.4	0.00e+00	0	37	0	1323302912	41	4328
2026-01-24 02:49:15.22	335.03	33.27	-34.7	-36.4	23.4	0.00e+00	0	37	0	1329594368	41	4264
2026-01-24 02:49:16.07	334.77	33.37	-34.6	-36.3	23.5	0.00e+00	0	37	0	1333788672	41	4226
2026-01-24 02:49:17.21	334.41	33.51	-34.6	-36.3	23.6	0.00e+00	0	37	0	1341128704	41	4202
2026-01-24 02:49:18.06	334.14	33.61	-34.5	-36.2	23.6	0.00e+00	0	37	0	1345323008	41	4176
2026-01-24 02:49:19.20	333.78	33.75	-34.6	-36.3	23.6	0.00e+00	0	37	0	1351614464	41	4196
2026-01-24 02:49:20.05	333.51	33.86	-34.6	-36.3	23.6	0.00e+00	0	37	0	1356857344	41	4211
2026-01-24 02:49:21.29	333.11	34.00	-34.7	-36.3	23.5	0.00e+00	0	37	0	1364197376	41	4237
2026-01-24 02:49:22.14	332.83	34.11	-34.6	-36.3	23.5	0.00e+00	0	37	0	1368391680	41	4204
2026-01-24 02:49:23.36	332.43	34.25	-34.6	-36.2	23.6	0.00e+00	0	37	0	1375731712	41	4169
2026-01-24 02:49:24.21	332.15	34.35	-34.5	-36.1	23.7	0.00e+00	0	37	0	1379926016	41	4124
2026-01-24 02:49:25.35	331.77	34.49	-34.6	-36.2	23.6	0.00e+00	0	37	0	1386217472	41	4161
2026-01-24 02:49:26.20	331.49	34.59	-34.5	-36.1	23.7	0.00e+00	0	37	0	1391460352	41	4138
2026-01-24 02:49:27.49	331.05	34.74	-34.7	-36.3	23.5	0.00e+00	0	37	0	1398800384	41	4217
2026-01-24 02:49:28.20	330.81	34.82	-34.7	-36.3	23.6	0.00e+00	0	37	0	1402994688	41	4224
2026-01-24 02:49:29.48	330.37	34.97	-34.6	-36.2	23.6	0.00e+00	0	37	0	1409286144	41	4191
2026-01-24 02:49:30.22	330.11	35.05	-34.6	-36.2	23.6	0.00e+00	0	37	0	1413480448	41	4188
2026-01-24 02:49:31.50	329.67	35.20	-34.6	-36.2	23.5	0.00e+00	0	38	0	1420820480	41	4191
2026-01-24 02:49:32.21	329.42	35.28	-34.6	-36.2	23.6	0.00e+00	0	37	0	1425014784	41	4189
2026-01-24 02:49:33.49	328.97	35.42	-34.4	-36.1	23.7	0.00e+00	0	37	0	1432354816	40	4343
2026-01-24 02:49:34.20	328.72	35.50	-34.5	-36.1	23.7	0.00e+00	0	38	0	1436549120	40	4374
2026-01-24 02:49:35.48	328.26	35.64	-34.5	-36.2	23.7	0.00e+00	0	37	0	1442840576	40	4392
2026-01-24 02:49:36.21	328.00	35.72	-34.6	-36.3	23.5	0.00e+00	0	37	0	1447034880	40	4448
2026-01-24 02:49:37.48	327.54	35.86	-34.7	-36.3	23.5	0.00e+00	0	37	0	1454374912	40	4487
2026-01-24 02:49:38.21	327.27	35.93	-34.7	-36.3	23.6	0.00e+00	0	37	0	1458569216	40	4468
2026-01-24 02:49:39.49	326.80	36.07	-34.7	-36.4	23.5	0.00e+00	0	37	0	1465909248	40	4499
2026-01-24 02:49:40.20	326.54	36.14	-34.7	-36.3	23.6	0.00e+00	0	38	0	1470103552	40	4475
2026-01-24 02:49:41.48	326.06	36.28	-34.7	-36.4	23.5	0.00e+00	0	37	0	1477443584	40	4507
2026-01-24 02:49:42.21	325.79	36.35	-34.8	-36.4	23.4	0.00e+00	0	37	0	1481637888	40	4531
2026-01-24 02:49:43.49	325.31	36.48	-34.6	-36.3	23.5	0.00e+00	0	38	0	1487929344	40	4468
2026-01-24 02:49:44.20	325.04	36.56	-34.6	-36.2	23.6	0.00e+00	0	37	0	1492123648	40	4416
2026-01-24 02:49:45.48	324.55	36.68	-34.5	-36.1	23.7	0.00e+00	0	37	0	1499463680	40	4370
2026-01-24 02:49:46.19	324.28	36.75	-34.4	-36.0	23.8	0.00e+00	0	38	0	1503657984	40	4333
2026-01-24 02:49:47.64	323.72	36.90	-34.5	-36.2	23.7	0.00e+00	0	37	0	1512046592	40	4394
2026-01-24 02:49:48.35	323.44	36.96	-34.7	-36.3	23.5	0.00e+00	0	37	0	1516240896	40	4479
2026-01-24 02:49:49.70	322.91	37.09	-34.8	-36.5	23.4	0.00e+00	0	37	0	1523580928	40	4547
2026-01-24 02:49:50.41	322.63	37.16	-34.7	-36.4	23.5	0.00e+00	0	37	0	1527775232	40	4499
2026-01-24 02:49:51.69	322.13	37.28	-34.6	-36.2	23.6	0.00e+00	0	37	0	1535115264	40	4433
2026-01-24 02:49:52.40	321.85	37.34	-34.7	-36.3	23.5	0.00e+00	0	37	0	1538260992	40	4478
2026-01-24 02:49:53.68	321.33	37.46	-34.6	-36.3	23.5	0.00e+00	0	37	0	1545601024	40	4462
2026-01-24 02:49:54.41	321.04	37.52	-34.8	-36.4	23.4	0.00e+00	0	38	0	1549795328	40	4528
2026-01-24 02:49:55.69	320.52	37.63	-34.8	-36.5	23.4	0.00e+00	0	37	0	1557135360	40	4556
2026-01-24 02:49:56.40	320.23	37.69	-34.9	-36.6	23.3	0.00e+00	0	38	0	1561329664	40	4600
2026-01-24 02:49:57.68	319.71	37.80	-35.0	-36.6	23.3	0.00e+00	0	38	0	1568669696	40	4639
2026-01-24 02:49:58.47	319.38	37.87	-34.8	-36.4	23.4	0.00e+00	0	38	0	1572864000	40	4525
2026-01-24 02:49:59.67	318.89	37.96	-34.7	-36.4	23.5	0.00e+00	0	37	0	1579155456	40	4494
2026-01-24 02:50:00.52	318.54	38.03	-34.6	-36.2	23.7	0.00e+00	0	37	0	1584398336	40	4406
2026-01-24 02:50:01.66	318.06	38.12	-34.5	-36.1	23.7	0.00e+00	0	37	0	1590689792	40	4376
2026-01-24 02:50:02.70	317.62	38.20	-34.4	-36.0	23.8	0.00e+00	0	37	0	1596981248	40	4324
2026-01-24 02:50:03.64	317.23	38.27	-34.4	-36.0	23.8	0.00e+00	0	37	0	1602224128	40	4326
2026-01-24 02:50:04.64	316.80	38.34	-34.3	-36.0	23.8	0.00e+00	0	38	0	1607467008	40	4301
2026-01-24 02:50:05.92	316.26	38.43	-34.4	-36.0	23.8	0.00e+00	0	38	0	1614807040	40	4332
2026-01-24 02:50:06.67	315.94	38.49	-34.5	-36.1	23.7	0.00e+00	0	37	0	1619001344	40	4360
2026-01-24 02:50:07.95	315.39	38.57	-34.6	-36.3	23.6	0.00e+00	0	38	0	1626341376	40	4444
2026-01-24 02:50:08.66	315.08	38.62	-34.7	-36.3	23.5	0.00e+00	0	37	0	1630535680	40	4467
2026-01-24 02:50:09.94	314.53	38.70	-34.8	-36.5	23.4	0.00e+00	0	37	0	1637875712	40	4552
2026-01-24 02:50:10.67	314.21	38.75	-34.7	-36.3	23.6	0.00e+00	0	38	0	1641021440	40	4454
2026-01-24 02:50:11.95	313.65	38.83	-34.7	-36.3	23.5	0.00e+00	0	37	0	1648361472	40	4484
2026-01-24 02:50:12.66	313.34	38.87	-34.7	-36.4	23.5	0.00e+00	0	38	0	1652555776	40	4498
2026-01-24 02:50:13.95	312.78	38.94	-34.7	-36.4	23.5	0.00e+00	0	38	0	1659895808	40	4515
2026-01-24 02:50:14.66	312.46	38.98	-34.5	-36.2	23.6	0.00e+00	0	38	0	1664090112	40	4407
2026-01-24 02:50:16.00	311.87	39.05	-34.5	-36.2	23.6	0.00e+00	0	37	0	1671430144	40	4398
2026-01-24 02:50:16.72	311.55	39.09	-34.6	-36.3	23.6	0.00e+00	0	37	0	1675624448	40	4453
2026-01-24 02:50:18.04	310.96	39.16	-34.8	-36.4	23.4	0.00e+00	0	38	0	1682964480	40	4526
2026-01-24 02:50:18.75	310.64	39.19	-34.8	-36.5	23.4	0.00e+00	0	38	0	1687158784	40	4546
2026-01-24 02:50:20.03	310.07	39.25	-34.8	-36.4	23.4	0.00e+00	0	37	0	1693450240	40	4529
2026-01-24 02:50:20.76	309.74	39.28	-34.9	-36.5	23.4	0.00e+00	0	38	0	1697644544	40	4564
2026-01-24 02:50:22.03	309.17	39.34	-34.6	-36.3	23.6	0.00e+00	0	38	0	1704984576	40	4450
2026-01-24 02:50:22.75	308.84	39.37	-34.6	-36.2	23.7	0.00e+00	0	37	0	1709178880	40	4417
2026-01-24 02:50:24.25	308.17	39.42	-34.4	-36.1	23.7	0.00e+00	0	37	0	1717567488	40	4350
2026-01-24 02:50:24.96	307.84	39.45	-34.4	-36.0	23.8	0.00e+00	0	38	0	1721761792	40	4305
2026-01-24 02:50:26.23	307.26	39.49	-34.4	-36.1	23.7	0.00e+00	0	37	0	1729101824	40	4350
2026-01-24 02:50:26.95	306.94	39.51	-34.5	-36.2	23.6	0.00e+00	0	37	0	1733296128	40	4412
2026-01-24 02:50:28.24	306.35	39.55	-34.8	-36.5	23.4	0.00e+00	0	37	0	1740636160	40	4555
2026-01-24 02:50:28.95	306.02	39.57	-34.8	-36.4	23.4	0.00e+00	0	38	0	1743781888	40	4545
2026-01-24 02:50:30.23	305.43	39.60	-34.8	-36.4	23.5	0.00e+00	0	37	0	1751121920	40	4508
2026-01-24 02:50:30.95	305.10	39.62	-34.8	-36.4	23.5	0.00e+00	0	38	0	1755316224	40	4517
2026-01-24 02:50:32.23	304.52	39.65	-34.8	-36.4	23.5	0.00e+00	0	38	0	1762656256	40	4515
2026-01-24 02:50:32.96	304.18	39.66	-34.8	-36.5	23.4	0.00e+00	0	37	0	1766850560	40	4563
2026-01-24 02:50:34.24	303.59	39.68	-34.6	-36.2	23.6	0.00e+00	0	37	0	1774190592	40	4429
2026-01-24 02:50:34.95	303.26	39.70	-34.5	-36.1	23.7	0.00e+00	0	38	0	1778384896	40	4388
2026-01-24 02:50:36.22	302.67	39.71	-34.6	-36.2	23.7	0.00e+00	0	38	0	1784676352	40	4407
2026-01-24 02:50:36.94	302.34	39.72	-34.5	-36.1	23.7	0.00e+00	0	37	0	1788870656	40	4384
2026-01-24 02:50:38.21	301.75	39.73	-34.7	-36.3	23.5	0.00e+00	0	38	0	1796210688	40	4487
2026-01-24 02:50:39.13	301.33	39.74	-34.6	-36.2	23.6	0.00e+00	0	37	0	1801453568	40	4423
2026-01-24 02:50:40.46	300.71	39.74	-34.4	-36.0	23.7	0.00e+00	0	38	0	1808793600	40	4328
2026-01-24 02:50:41.17	300.38	39.74	-34.5	-36.1	23.8	0.00e+00	0	38	0	1812987904	40	4355
2026-01-24 02:50:42.44	299.80	39.74	-34.5	-36.1	23.7	0.00e+00	0	37	0	1820327936	40	4386
2026-01-24 02:50:43.15	299.47	39.74	-34.4	-36.0	23.8	0.00e+00	0	38	0	1824522240	40	4316
2026-01-24 02:50:44.44	298.87	39.74	-34.4	-36.0	23.8	0.00e+00	0	37	0	1831862272	40	4322
2026-01-24 02:50:45.15	298.54	39.73	-34.4	-36.1	23.8	0.00e+00	0	38	0	1835008000	40	4348
2026-01-24 02:50:46.44	297.94	39.72	-34.5	-36.2	23.7	0.00e+00	0	37	0	1842348032	40	4404
2026-01-24 02:50:47.15	297.62	39.71	-34.5	-36.1	23.7	0.00e+00	0	38	0	1846542336	40	4371
2026-01-24 02:50:48.43	297.02	39.70	-34.4	-36.0	23.8	0.00e+00	0	37	0	1853882368	40	4333
2026-01-24 02:50:49.16	296.69	39.69	-34.5	-36.1	23.7	0.00e+00	0	37	0	1858076672	40	4365
2026-01-24 02:50:50.44	296.10	39.66	-34.5	-36.2	23.7	0.00e+00	0	38	0	1865416704	40	4392
2026-01-24 02:50:51.17	295.76	39.65	-34.3	-36.0	23.8	0.00e+00	0	38	0	1869611008	40	4305
2026-01-24 02:50:52.61	295.10	39.62	-34.2	-35.7	24.0	0.00e+00	0	37	0	1876951040	40	4193
2026-01-24 02:50:53.32	294.77	39.60	-34.2	-35.8	24.0	0.00e+00	0	37	0	1881145344	40	4199
2026-01-24 02:50:54.66	294.16	39.57	-34.3	-35.9	23.9	0.00e+00	0	37	0	1888485376	40	4272
2026-01-24 02:50:55.37	293.83	39.55	-34.3	-35.9	23.8	0.00e+00	0	37	0	1892679680	40	4288
2026-01-24 02:50:56.65	293.25	39.51	-34.3	-35.9	23.9	0.00e+00	0	37	0	1900019712	40	4259
2026-01-24 02:50:57.36	292.92	39.49	-34.2	-35.8	24.0	0.00e+00	0	38	0	1904214016	40	4210
2026-01-24 02:50:58.76	292.29	39.44	-34.1	-35.7	24.0	0.00e+00	0	37	0	1911554048	40	4166
2026-01-24 02:50:59.47	291.96	39.41	-34.1	-35.7	24.0	0.00e+00	0	37	0	1915748352	40	4163
2026-01-24 02:51:00.82	291.35	39.36	-34.2	-35.8	24.0	0.00e+00	0	38	0	1923088384	40	4206
2026-01-24 02:51:01.54	291.03	39.33	-34.2	-35.9	23.9	0.00e+00	0	37	0	1927282688	40	4253
2026-01-24 02:51:02.82	290.45	39.28	-34.3	-35.9	23.9	0.00e+00	0	38	0	1934622720	40	4279
2026-01-24 02:51:03.56	290.12	39.24	-34.3	-35.9	23.9	0.00e+00	0	37	0	1938817024	40	4251
2026-01-24 02:51:04.84	289.54	39.19	-34.2	-35.8	24.0	0.00e+00	0	37	0	1946157056	40	4209
2026-01-24 02:51:05.55	289.22	39.15	-34.1	-35.7	24.0	0.00e+00	0	37	0	1950351360	40	4179
2026-01-24 02:51:06.83	288.65	39.09	-34.1	-35.7	24.0	0.00e+00	0	37	0	1956642816	40	4191
2026-01-24 02:51:07.54	288.34	39.05	-34.1	-35.7	24.0	0.00e+00	0	37	0	1961885696	40	4187
2026-01-24 02:51:08.82	287.77	38.98	-34.3	-35.9	23.9	0.00e+00	0	37	0	1968177152	40	4272
2026-01-24 02:51:09.61	287.42	38.94	-34.4	-36.1	23.7	0.00e+00	0	38	0	1973420032	40	4362
2026-01-24 02:51:10.75	286.92	38.87	-34.5	-36.2	23.7	0.00e+00	0	37	0	1979711488	40	4403
2026-01-24 02:51:11.60	286.55	38.82	-34.4	-36.0	23.8	0.00e+00	0	38	0	1983905792	40	4315
2026-01-24 02:51:12.74	286.05	38.75	-34.2	-35.8	24.0	0.00e+00	0	37	0	1990197248	40	4235
2026-01-24 02:51:13.59	285.68	38.70	-34.2	-35.8	24.0	0.00e+00	0	38	0	1995440128	40	4206
2026-01-24 02:51:14.73	285.18	38.62	-34.2	-35.8	24.0	0.00e+00	0	38	0	2001731584	40	4229
2026-01-24 02:51:15.58	284.82	38.57	-34.1	-35.7	24.0	0.00e+00	0	37	0	2005925888	40	4178
2026-01-24 02:51:16.72	284.33	38.49	-34.2	-35.8	24.0	0.00e+00	0	37	0	2013265920	40	4209
2026-01-24 02:51:17.57	283.96	38.43	-34.2	-35.8	24.0	0.00e+00	0	38	0	2017460224	40	4208
2026-01-24 02:51:18.71	283.48	38.35	-34.0	-35.6	24.2	0.00e+00	0	37	0	2023751680	39	4351
2026-01-24 02:51:19.56	283.12	38.29	-33.9	-35.5	24.3	0.00e+00	0	38	0	2028994560	39	4325
2026-01-24 02:51:20.70	282.63	38.20	-34.2	-35.8	24.0	0.00e+00	0	37	0	2035286016	39	4478
2026-01-24 02:51:21.57	282.27	38.14	-34.4	-36.0	23.9	0.00e+00	0	37	0	2040528896	39	4568
2026-01-24 02:51:22.70	281.80	38.05	-34.4	-36.0	23.8	0.00e+00	0	38	0	2046820352	39	4579
2026-01-24 02:51:23.58	281.43	37.98	-34.4	-36.0	23.9	0.00e+00	0	38	0	2051014656	39	4553
2026-01-24 02:51:24.91	280.88	37.87	-34.1	-35.7	24.1	0.00e+00	0	38	0	2059403264	39	4436
2026-01-24 02:51:25.62	280.59	37.81	-34.3	-35.9	24.0	0.00e+00	0	37	0	2062548992	39	4510
2026-01-24 02:51:26.90	280.06	37.70	-34.4	-36.0	23.8	0.00e+00	0	38	0	2069889024	39	4577
2026-01-24 02:51:27.61	279.77	37.64	-34.3	-36.0	23.9	0.00e+00	0	38	0	2074083328	39	4552
2026-01-24 02:51:29.14	279.15	37.51	-34.3	-35.9	24.0	0.00e+00	0	37	0	2082471936	39	4499
2026-01-24 02:51:29.86	278.86	37.45	-34.3	-35.9	24.0	0.00e+00	0	37	0	2086666240	39	4502
2026-01-24 02:51:31.13	278.35	37.33	-34.3	-35.9	24.0	0.00e+00	0	38	0	2094006272	39	4513
2026-01-24 02:51:32.18	277.93	37.23	-34.2	-35.8	24.0	0.00e+00	0	37	0	2099249152	39	4462
2026-01-24 02:51:33.49	277.41	37.11	-34.1	-35.7	24.2	0.00e+00	0	37	0	2107637760	39	4400
2026-01-24 02:51:34.20	277.14	37.05	-34.1	-35.7	24.1	0.00e+00	0	37	0	2110783488	39	4441
2026-01-24 02:51:35.83	276.50	36.89	-34.1	-35.7	24.1	0.00e+00	0	37	0	2120220672	39	4413
2026-01-24 02:51:36.40	276.28	36.83	-34.1	-35.7	24.1	0.00e+00	0	37	0	2123366400	39	4392
2026-01-24 02:51:38.09	275.63	36.67	-34.3	-35.9	24.0	0.00e+00	0	38	0	2132803584	39	4508
2026-01-24 02:51:38.74	275.38	36.60	-34.3	-36.0	23.9	0.00e+00	0	37	0	2136997888	39	4559
2026-01-24 02:51:40.15	274.84	36.46	-34.2	-35.8	24.0	0.00e+00	0	37	0	2144337920	39	4477
2026-01-24 02:51:40.87	274.57	36.39	-34.3	-35.9	23.9	0.00e+00	0	38	0	2148532224	39	4525
2026-01-24 02:51:42.15	274.09	36.25	-34.4	-36.0	23.9	0.00e+00	0	37	0	2155872256	39	4555
2026-01-24 02:51:43.06	273.75	36.16	-34.4	-36.1	23.8	0.00e+00	0	38	0	2161115136	39	4607
2026-01-24 02:51:44.36	273.27	36.02	-34.6	-36.2	23.7	0.00e+00	0	37	0	2168455168	39	4697
2026-01-24 02:51:45.07	273.01	35.94	-34.6	-36.2	23.7	0.00e+00	0	37	0	2172649472	39	4679
2026-01-24 02:51:46.35	272.54	35.81	-34.4	-36.0	23.8	0.00e+00	0	38	0	2179989504	39	4596
2026-01-24 02:51:47.07	272.28	35.73	-34.4	-36.0	23.9	0.00e+00	0	37	0	2183135232	39	4578
2026-01-24 02:51:48.35	271.82	35.59	-34.4	-36.1	23.8	0.00e+00	0	37	0	2190475264	39	4604
2026-01-24 02:51:49.07	271.56	35.51	-34.4	-36.0	23.8	0.00e+00	0	38	0	2194669568	39	4583
2026-01-24 02:51:50.35	271.10	35.37	-34.4	-36.0	23.8	0.00e+00	0	37	0	2202009600	39	4593
2026-01-24 02:51:51.06	270.85	35.29	-34.3	-35.9	23.9	0.00e+00	0	37	0	2206203904	39	4527
2026-01-24 02:51:52.36	270.40	35.14	-34.3	-35.9	23.9	0.00e+00	0	38	0	2213543936	39	4534
2026-01-24 02:51:53.07	270.15	35.06	-34.2	-35.8	24.0	0.00e+00	0	37	0	2217738240	39	4490
2026-01-24 02:51:54.35	269.71	34.91	-34.1	-35.8	24.1	0.00e+00	0	38	0	2225078272	39	4446
2026-01-24 02:51:55.06	269.46	34.83	-34.1	-35.7	24.1	0.00e+00	0	37	0	2228224000	39	4422
2026-01-24 02:51:56.42	269.00	34.67	-34.3	-35.9	24.0	0.00e+00	0	38	0	2236612608	39	4519
2026-01-24 02:51:57.13	268.76	34.59	-34.4	-36.0	23.9	0.00e+00	0	38	0	2239758336	39	4553
2026-01-24 02:51:58.41	268.33	34.44	-34.4	-36.0	23.8	0.00e+00	0	38	0	2247098368	39	4578
2026-01-24 02:51:59.13	268.09	34.35	-34.4	-36.0	23.8	0.00e+00	0	37	0	2251292672	39	4598
2026-01-24 02:52:00.41	267.66	34.20	-34.3	-35.9	23.9	0.00e+00	0	38	0	2258632704	39	4541
2026-01-24 02:52:01.12	267.43	34.12	-34.3	-35.9	23.9	0.00e+00	0	38	0	2262827008	39	4543
2026-01-24 02:52:02.39	267.02	33.96	-34.5	-36.1	23.8	0.00e+00	0	38	0	2270167040	39	4615
2026-01-24 02:52:03.11	266.78	33.88	-34.5	-36.1	23.8	0.00e+00	0	37	0	2274361344	39	4631
2026-01-24 02:52:04.40	266.37	33.72	-34.4	-36.0	23.8	0.00e+00	0	38	0	2280652800	39	4585
2026-01-24 02:52:05.11	266.14	33.63	-34.4	-36.0	23.9	0.00e+00	0	38	0	2284847104	39	4575
2026-01-24 02:52:06.72	265.63	33.44	-34.7	-36.3	23.6	0.00e+00	0	37	0	2294284288	39	4723
2026-01-24 02:52:07.29	265.45	33.37	-34.5	-36.2	23.7	0.00e+00	0	37	0	2297430016	39	4667
2026-01-24 02:52:09.19	264.86	33.13	-34.5	-36.1	23.8	0.00e+00	0	38	0	2307915776	40	4354
2026-01-24 02:52:09.75	264.69	33.06	-34.4	-36.0	23.8	0.00e+00	0	37	0	2311061504	40	4310
2026-01-24 02:52:11.47	264.17	32.85	-34.5	-36.1	23.7	0.00e+00	0	38	0	2320498688	40	4354
2026-01-24 02:52:12.04	263.99	32.78	-34.4	-36.1	23.7	0.00e+00	0	38	0	2323644416	40	4350
2026-01-24 02:52:13.74	263.48	32.56	-34.6	-36.2	23.6	0.00e+00	0	38	0	2334130176	40	4434
2026-01-24 02:52:14.31	263.31	32.49	-34.5	-36.2	23.6	0.00e+00	0	37	0	2337275904	40	4399
2026-01-24 02:52:16.01	262.81	32.28	-34.4	-36.1	23.7	0.00e+00	0	37	0	2346713088	40	4349
2026-01-24 02:52:16.58	262.65	32.20	-34.5	-36.1	23.7	0.00e+00	0	37	0	2349858816	40	4385
2026-01-24 02:52:18.27	262.16	31.99	-34.5	-36.1	23.6	0.00e+00	0	37	0	2359296000	40	4388
2026-01-24 02:52:18.84	261.99	31.92	-34.5	-36.1	23.7	0.00e+00	0	37	0	2362441728	40	4384
2026-01-24 02:52:20.55	261.51	31.70	-34.2	-35.8	23.9	0.00e+00	0	37	0	2371878912	40	4235
2026-01-24 02:52:21.11	261.35	31.63	-34.2	-35.8	24.0	0.00e+00	0	38	0	2375024640	40	4209
2026-01-24 02:52:22.82	260.87	31.41	-34.3	-35.9	23.9	0.00e+00	0	38	0	2384461824	40	4268
2026-01-24 02:52:23.39	260.71	31.33	-34.3	-35.9	23.9	0.00e+00	0	38	0	2387607552	40	4284
2026-01-24 02:52:25.15	260.23	31.11	-34.3	-35.9	23.9	0.00e+00	0	38	0	2398093312	40	4252
2026-01-24 02:52:25.72	260.08	31.04	-34.3	-35.9	23.8	0.00e+00	0	37	0	2401239040	40	4279
2026-01-24 02:52:27.43	259.62	30.81	-34.3	-36.0	23.8	0.00e+00	0	38	0	2410676224	40	4294
2026-01-24 02:52:28.00	259.46	30.74	-34.4	-36.0	23.8	0.00e+00	0	37	0	2413821952	40	4307
2026-01-24 02:52:29.70	259.02	30.52	-34.5	-36.1	23.7	0.00e+00	0	38	0	2423259136	40	4374
2026-01-24 02:52:30.27	258.87	30.45	-34.5	-36.1	23.7	0.00e+00	0	38	0	2426404864	40	4373
2026-01-24 02:52:31.98	258.42	30.23	-34.5	-36.1	23.7	0.00e+00	0	37	0	2435842048	40	4387
2026-01-24 02:52:32.55	258.28	30.15	-34.6	-36.2	23.6	0.00e+00	0	37	0	2438987776	40	4409
2026-01-24 02:52:34.25	257.84	29.93	-34.5	-36.1	23.7	0.00e+00	0	37	0	2449473536	40	4374
2026-01-24 02:52:34.82	257.70	29.86	-34.6	-36.2	23.7	0.00e+00	0	38	0	2452619264	40	4398
2026-01-24 02:52:36.53	257.27	29.64	-34.7	-36.4	23.4	0.00e+00	0	38	0	2462056448	40	4503
2026-01-24 02:52:37.09	257.13	29.56	-34.7	-36.3	23.5	0.00e+00	0	37	0	2465202176	40	4487
2026-01-24 02:52:39.04	256.65	29.31	-34.6	-36.3	23.6	0.00e+00	0	38	0	2475687936	40	4444
2026-01-24 02:52:39.60	256.52	29.24	-34.7	-36.3	23.6	0.00e+00	0	37	0	2478833664	40	4465
2026-01-24 02:52:41.31	256.11	29.02	-34.7	-36.3	23.5	0.00e+00	0	37	0	2488270848	40	4463
2026-01-24 02:52:41.88	255.97	28.94	-34.7	-36.4	23.5	0.00e+00	0	37	0	2491416576	40	4494
2026-01-24 02:52:43.58	255.57	28.72	-34.7	-36.4	23.5	0.00e+00	0	38	0	2500853760	40	4506
2026-01-24 02:52:44.15	255.44	28.65	-34.7	-36.3	23.5	0.00e+00	0	37	0	2505048064	40	4483
2026-01-24 02:52:45.85	255.04	28.43	-34.8	-36.4	23.4	0.00e+00	0	38	0	2514485248	40	4542
2026-01-24 02:52:46.42	254.91	28.36	-34.8	-36.4	23.4	0.00e+00	0	37	0	2517630976	40	4532
2026-01-24 02:52:48.12	254.52	28.14	-34.8	-36.5	23.4	0.00e+00	0	38	0	2527068160	40	4547
2026-01-24 02:52:48.82	254.37	28.05	-34.8	-36.5	23.4	0.00e+00	0	37	0	2531262464	40	4573
2026-01-24 02:52:50.24	254.05	27.86	-34.8	-36.4	23.5	0.00e+00	0	37	0	2538602496	40	4513
2026-01-24 02:52:50.96	253.89	27.77	-34.7	-36.3	23.5	0.00e+00	0	38	0	2542796800	40	4479
2026-01-24 02:52:52.23	253.61	27.61	-34.7	-36.3	23.5	0.00e+00	0	38	0	2550136832	40	4463
2026-01-24 02:52:52.95	253.45	27.51	-34.7	-36.3	23.5	0.00e+00	0	38	0	2554331136	40	4490
2026-01-24 02:52:54.22	253.18	27.35	-34.8	-36.5	23.4	0.00e+00	0	37	0	2561671168	40	4556
2026-01-24 02:52:54.93	253.03	27.26	-35.0	-36.6	23.3	0.00e+00	0	38	0	2564816896	40	4625
2026-01-24 02:52:56.24	252.75	27.09	-35.0	-36.6	23.2	0.00e+00	0	38	0	2573205504	40	4630
2026-01-24 02:52:56.95	252.60	27.00	-35.0	-36.6	23.2	0.00e+00	0	38	0	2576351232	40	4645
2026-01-24 02:52:58.23	252.33	26.84	-35.0	-36.6	23.2	0.00e+00	0	38	0	2583691264	40	4648
2026-01-24 02:52:58.96	252.18	26.74	-35.0	-36.6	23.2	0.00e+00	0	37	0	2587885568	40	4626
2026-01-24 02:53:00.23	251.92	26.58	-35.0	-36.6	23.2	0.00e+00	0	37	0	2595225600	40	4635
2026-01-24 02:53:00.97	251.76	26.49	-35.0	-36.6	23.2	0.00e+00	0	37	0	2599419904	40	4648
2026-01-24 02:53:02.25	251.50	26.33	-35.0	-36.7	23.2	0.00e+00	0	38	0	2606759936	40	4654
2026-01-24 02:53:02.97	251.36	26.23	-35.1	-36.7	23.1	0.00e+00	0	37	0	2610954240	40	4676
2026-01-24 02:53:04.25	251.10	26.07	-35.2	-36.8	23.0	0.00e+00	0	38	0	2618294272	41	4486
2026-01-24 02:53:04.98	250.96	25.98	-35.1	-36.8	23.1	0.00e+00	0	37	0	2621440000	41	4453
2026-01-24 02:53:06.26	250.71	25.82	-35.2	-36.9	23.1	0.00e+00	0	38	0	2628780032	41	4496
2026-01-24 02:53:06.97	250.57	25.73	-35.3	-37.0	22.9	0.00e+00	0	38	0	2632974336	41	4556
2026-01-24 02:53:08.25	250.32	25.57	-35.3	-37.0	22.9	0.00e+00	0	38	0	2640314368	41	4558
2026-01-24 02:53:08.96	250.19	25.48	-35.4	-37.0	22.9	0.00e+00	0	37	0	2644508672	41	4587
2026-01-24 02:53:10.24	249.94	25.32	-35.4	-37.0	22.9	0.00e+00	0	38	0	2651848704	41	4597
2026-01-24 02:53:10.96	249.81	25.23	-35.4	-37.0	22.8	0.00e+00	0	38	0	2654994432	41	4588
2026-01-24 02:53:12.24	249.57	25.07	-35.4	-37.0	22.8	0.00e+00	0	37	0	2662334464	41	4597
2026-01-24 02:53:12.97	249.43	24.98	-35.4	-37.0	22.9	0.00e+00	0	38	0	2666528768	41	4590
2026-01-24 02:53:14.25	249.20	24.82	-35.4	-37.0	22.9	0.00e+00	0	38	0	2673868800	41	4580
2026-01-24 02:53:15.20	249.02	24.70	-35.4	-37.0	22.9	0.00e+00	0	38	0	2679111680	41	4582
2026-01-24 02:53:16.19	248.85	24.58	-35.4	-37.0	22.9	0.00e+00	0	38	0	2685403136	41	4596
2026-01-24 02:53:17.19	248.67	24.46	-35.4	-37.1	22.8	0.00e+00	0	38	0	2690646016	41	4605
2026-01-24 02:53:18.18	248.49	24.33	-35.4	-37.1	22.8	0.00e+00	0	38	0	2695888896	41	4616
2026-01-24 02:53:19.18	248.31	24.21	-35.3	-37.0	22.9	0.00e+00	0	37	0	2701131776	41	4563
2026-01-24 02:53:20.17	248.14	24.09	-35.4	-37.1	22.8	0.00e+00	0	38	0	2707423232	41	4630
2026-01-24 02:53:21.17	247.96	23.97	-35.5	-37.1	22.8	0.00e+00	0	37	0	2712666112	41	4642
2026-01-24 02:53:22.17	247.79	23.84	-35.5	-37.1	22.8	0.00e+00	0	38	0	2718957568	41	4643
2026-01-24 02:53:23.16	247.62	23.72	-35.4	-37.1	22.8	0.00e+00	0	37	0	2724200448	41	4611
2026-01-24 02:53:24.16	247.45	23.60	-35.3	-36.9	22.9	0.00e+00	0	37	0	2729443328	41	4534
2026-01-24 02:53:25.16	247.28	23.48	-35.3	-37.0	22.9	0.00e+00	0	38	0	2735734784	41	4548
2026-01-24 02:53:26.15	247.12	23.36	-35.2	-36.9	23.0	0.00e+00	0	38	0	2740977664	41	4499
2026-01-24 02:53:27.15	246.95	23.24	-35.2	-36.8	23.0	0.00e+00	0	38	0	2746220544	41	4488
2026-01-24 02:53:28.14	246.79	23.12	-35.3	-36.9	22.9	0.00e+00	0	38	0	2752512000	41	4543
2026-01-24 02:53:29.13	246.63	23.00	-35.2	-36.9	23.0	0.00e+00	0	38	0	2757754880	41	4510
2026-01-24 02:53:30.13	246.46	22.88	-35.3	-37.0	22.9	0.00e+00	0	38	0	2762997760	41	4570
2026-01-24 02:53:31.12	246.30	22.77	-35.3	-36.9	22.9	0.00e+00	0	38	0	2769289216	41	4523
2026-01-24 02:53:32.12	246.14	22.65	-35.4	-37.0	22.9	0.00e+00	0	38	0	2774532096	41	4577
2026-01-24 02:53:33.11	245.99	22.53	-35.5	-37.1	22.7	0.00e+00	0	38	0	2779774976	41	4649
2026-01-24 02:53:34.11	245.83	22.41	-35.5	-37.1	22.8	0.00e+00	0	38	0	2786066432	41	4637
2026-01-24 02:53:35.10	245.68	22.29	-35.6	-37.2	22.7	0.00e+00	0	38	0	2791309312	41	4697
2026-01-24 02:53:36.12	245.52	22.17	-35.6	-37.3	22.6	0.00e+00	0	37	0	2796552192	41	4724
2026-01-24 02:53:37.15	245.36	22.05	-35.7	-37.4	22.5	0.00e+00	0	37	0	2802843648	42	4513
2026-01-24 02:53:38.18	245.20	21.93	-35.7	-37.4	22.5	0.00e+00	0	38	0	2808086528	42	4522
2026-01-24 02:53:39.17	245.05	21.82	-35.7	-37.3	22.6	0.00e+00	0	37	0	2814377984	42	4488
2026-01-24 02:53:40.23	244.89	21.69	-35.6	-37.3	22.6	0.00e+00	0	38	0	2819620864	42	4474
2026-01-24 02:53:41.14	244.76	21.59	-35.6	-37.2	22.6	0.00e+00	0	37	0	2824863744	42	4441
2026-01-24 02:53:42.28	244.59	21.46	-35.6	-37.2	22.7	0.00e+00	0	37	0	2831155200	42	4432
2026-01-24 02:53:43.14	244.46	21.36	-35.6	-37.2	22.7	0.00e+00	0	37	0	2836398080	42	4411
2026-01-24 02:53:44.48	244.27	21.20	-35.6	-37.2	22.7	0.00e+00	0	38	0	2843738112	42	4421
2026-01-24 02:53:45.19	244.16	21.12	-35.6	-37.3	22.6	0.00e+00	0	38	0	2847932416	42	4446
2026-01-24 02:53:46.47	243.98	20.97	-35.5	-37.2	22.7	0.00e+00	0	38	0	2855272448	42	4417
2026-01-24 02:53:47.18	243.88	20.89	-35.5	-37.2	22.7	0.00e+00	0	37	0	2859466752	42	4407
2026-01-24 02:53:48.74	243.66	20.72	-35.6	-37.3	22.6	0.00e+00	0	38	0	2867855360	42	4468
2026-01-24 02:53:49.45	243.56	20.63	-35.7	-37.4	22.5	0.00e+00	0	38	0	2872049664	42	4502
2026-01-24 02:53:50.84	243.37	20.48	-35.6	-37.3	22.6	0.00e+00	0	38	0	2880438272	42	4475
2026-01-24 02:53:51.56	243.27	20.40	-35.7	-37.4	22.5	0.00e+00	0	37	0	2883584000	42	4510
2026-01-24 02:53:52.84	243.09	20.25	-35.7	-37.4	22.5	0.00e+00	0	37	0	2890924032	42	4501
2026-01-24 02:53:53.55	243.00	20.17	-35.8	-37.4	22.5	0.00e+00	0	37	0	2895118336	42	4542
2026-01-24 02:53:54.83	242.82	20.03	-35.8	-37.5	22.4	0.00e+00	0	37	0	2902458368	42	4552
2026-01-24 02:53:55.54	242.73	19.95	-35.9	-37.6	22.4	0.00e+00	0	37	0	2906652672	42	4608
2026-01-24 02:53:56.82	242.56	19.81	-35.9	-37.6	22.3	0.00e+00	0	37	0	2912944128	42	4633
2026-01-24 02:53:57.53	242.46	19.73	-36.0	-37.7	22.3	0.00e+00	0	38	0	2917138432	42	4667
2026-01-24 02:53:58.81	242.30	19.59	-35.9	-37.6	22.3	0.00e+00	0	38	0	2924478464	42	4630
2026-01-24 02:53:59.55	242.20	19.51	-36.0	-37.7	22.3	0.00e+00	0	38	0	2928672768	42	4657
2026-01-24 02:54:00.83	242.04	19.37	-36.1	-37.7	22.2	0.00e+00	0	37	0	2936012800	42	4696
2026-01-24 02:54:01.54	241.95	19.29	-36.0	-37.7	22.2	0.00e+00	0	38	0	2940207104	42	4674
2026-01-24 02:54:02.82	241.78	19.15	-36.1	-37.8	22.2	0.00e+00	0	38	0	2947547136	42	4713
2026-01-24 02:54:03.55	241.69	19.07	-36.0	-37.7	22.2	0.00e+00	0	38	0	2951741440	42	4692
2026-01-24 02:54:04.82	241.53	18.93	-36.1	-37.8	22.2	0.00e+00	0	38	0	2958032896	42	4714
2026-01-24 02:54:05.54	241.44	18.86	-36.0	-37.7	22.2	0.00e+00	0	37	0	2962227200	42	4694
2026-01-24 02:54:06.81	241.29	18.72	-36.2	-37.9	22.1	0.00e+00	0	37	0	2969567232	42	4773
2026-01-24 02:54:07.53	241.20	18.64	-36.2	-37.9	22.1	0.00e+00	0	37	0	2973761536	43	4505
2026-01-24 02:54:08.80	241.04	18.51	-36.1	-37.8	22.1	0.00e+00	0	38	0	2981101568	43	4465
2026-01-24 02:54:09.52	240.96	18.43	-36.2	-37.9	22.0	0.00e+00	0	37	0	2985295872	43	4514
2026-01-24 02:54:10.79	240.80	18.29	-36.2	-37.9	22.0	0.00e+00	0	38	0	2992635904	43	4514
2026-01-24 02:54:11.52	240.72	18.22	-36.2	-37.9	22.0	0.00e+00	0	37	0	2995781632	43	4533
2026-01-24 02:54:12.80	240.56	18.08	-36.2	-37.9	22.0	0.00e+00	0	37	0	3003121664	43	4534
2026-01-24 02:54:13.52	240.48	18.00	-36.3	-38.0	21.9	0.00e+00	0	37	0	3007315968	43	4569
2026-01-24 02:54:14.80	240.33	17.87	-36.5	-38.2	21.8	0.00e+00	0	37	0	3014656000	43	4656
2026-01-24 02:54:15.53	240.25	17.79	-36.5	-38.2	21.8	0.00e+00	0	38	0	3018850304	43	4656
2026-01-24 02:54:16.81	240.10	17.66	-36.7	-38.4	21.6	0.00e+00	0	38	0	3026190336	43	4785
2026-01-24 02:54:17.52	240.02	17.59	-36.8	-38.5	21.6	0.00e+00	0	37	0	3029336064	44	4589
2026-01-24 02:54:18.79	239.87	17.45	-36.8	-38.5	21.6	0.00e+00	0	38	0	3036676096	44	4572
2026-01-24 02:54:19.57	239.79	17.37	-36.8	-38.5	21.6	0.00e+00	0	37	0	3040870400	44	4583
2026-01-24 02:54:20.85	239.64	17.24	-36.7	-38.4	21.7	0.00e+00	0	38	0	3048210432	44	4514
2026-01-24 02:54:21.65	239.55	17.16	-36.7	-38.4	21.7	0.00e+00	0	38	0	3053453312	44	4530
2026-01-24 02:54:23.07	239.40	17.01	-36.8	-38.6	21.5	0.00e+00	0	37	0	3060793344	44	4605
2026-01-24 02:54:23.78	239.32	16.94	-36.8	-38.5	21.6	0.00e+00	0	37	0	3064987648	44	4554
2026-01-24 02:54:25.25	239.16	16.79	-36.8	-38.5	21.6	0.00e+00	0	38	0	3073376256	44	4585
2026-01-24 02:54:25.96	239.08	16.72	-36.8	-38.5	21.6	0.00e+00	0	38	0	3077570560	44	4574
2026-01-24 02:54:27.24	238.95	16.59	-36.8	-38.5	21.6	0.00e+00	0	38	0	3084910592	44	4562
2026-01-24 02:54:27.95	238.87	16.52	-36.9	-38.6	21.5	0.00e+00	0	38	0	3089104896	44	4603
2026-01-24 02:54:29.24	238.74	16.39	-36.8	-38.5	21.5	0.00e+00	0	38	0	3096444928	44	4588
2026-01-24 02:54:29.95	238.66	16.32	-36.8	-38.5	21.6	0.00e+00	0	38	0	3099590656	44	4589
2026-01-24 02:54:31.23	238.53	16.19	-36.8	-38.5	21.6	0.00e+00	0	37	0	3106930688	44	4577
2026-01-24 02:54:31.94	238.45	16.12	-36.9	-38.6	21.5	0.00e+00	0	38	0	3111124992	44	4600
2026-01-24 02:54:33.22	238.32	15.99	-36.9	-38.6	21.5	0.00e+00	0	38	0	3118465024	44	4621
2026-01-24 02:54:33.94	238.25	15.92	-37.0	-38.7	21.4	0.00e+00	0	38	0	3122659328	44	4680
2026-01-24 02:54:35.22	238.12	15.79	-37.0	-38.8	21.3	0.00e+00	0	38	0	3128950784	44	4712
2026-01-24 02:54:36.11	238.03	15.71	-37.1	-38.9	21.2	0.00e+00	0	38	0	3134193664	44	4760
2026-01-24 02:54:37.24	237.92	15.60	-37.2	-38.9	21.2	0.00e+00	0	38	0	3140485120	44	4788
2026-01-24 02:54:38.09	237.83	15.51	-37.3	-39.0	21.1	0.00e+00	0	38	0	3145728000	45	4574
2026-01-24 02:54:39.23	237.72	15.40	-37.3	-39.0	21.1	0.00e+00	0	38	0	3152019456	45	4585
2026-01-24 02:54:40.08	237.64	15.32	-37.3	-39.0	21.0	0.00e+00	0	37	0	3156213760	45	4597
2026-01-24 02:54:41.22	237.53	15.21	-37.3	-39.0	21.1	0.00e+00	0	37	0	3163553792	45	4585
2026-01-24 02:54:42.07	237.44	15.13	-37.4	-39.2	21.0	0.00e+00	0	38	0	3167748096	45	4654
2026-01-24 02:54:43.21	237.33	15.02	-37.3	-39.1	21.0	0.00e+00	0	38	0	3174039552	45	4610
2026-01-24 02:54:44.06	237.25	14.94	-37.4	-39.2	20.9	0.00e+00	0	37	0	3179282432	45	4656
2026-01-24 02:54:45.20	237.15	14.83	-37.5	-39.2	20.8	0.00e+00	0	38	0	3185573888	45	4693
2026-01-24 02:54:46.05	237.07	14.75	-37.4	-39.1	21.0	0.00e+00	0	38	0	3190816768	45	4645
2026-01-24 02:54:47.30	236.95	14.63	-37.4	-39.1	20.9	0.00e+00	0	37	0	3197108224	45	4649
2026-01-24 02:54:48.15	236.87	14.55	-37.4	-39.1	21.0	0.00e+00	0	38	0	3202351104	45	4632
2026-01-24 02:54:49.28	236.77	14.44	-37.5	-39.2	20.8	0.00e+00	0	38	0	3208642560	45	4697
2026-01-24 02:54:50.14	236.69	14.36	-37.4	-39.2	20.9	0.00e+00	0	38	0	3213885440	45	4658
2026-01-24 02:54:51.40	236.57	14.24	-37.4	-39.1	20.9	0.00e+00	0	38	0	3220176896	45	4643
2026-01-24 02:54:52.20	236.50	14.17	-37.4	-39.2	20.9	0.00e+00	0	38	0	3225419776	45	4674
2026-01-24 02:54:53.34	236.40	14.06	-37.5	-39.3	20.7	0.00e+00	0	38	0	3231711232	45	4742
2026-01-24 02:54:54.19	236.32	13.98	-37.5	-39.3	20.8	0.00e+00	0	37	0	3235905536	45	4719
2026-01-24 02:54:55.33	236.22	13.88	-37.5	-39.2	20.8	0.00e+00	0	38	0	3242196992	45	4695
2026-01-24 02:54:56.18	236.15	13.80	-37.6	-39.3	20.7	0.00e+00	0	37	0	3247439872	45	4751
2026-01-24 02:54:57.32	236.05	13.69	-37.6	-39.3	20.7	0.00e+00	0	38	0	3253731328	45	4742
2026-01-24 02:54:58.29	235.96	13.60	-37.5	-39.3	20.8	0.00e+00	0	38	0	3258974208	45	4734
2026-01-24 02:54:59.46	235.86	13.50	-37.6	-39.4	20.7	0.00e+00	0	38	0	3266314240	45	4772
2026-01-24 02:55:00.34	235.78	13.42	-37.6	-39.3	20.7	0.00e+00	0	38	0	3270508544	45	4755
2026-01-24 02:55:01.48	235.69	13.31	-37.7	-39.4	20.6	0.00e+00	0	38	0	3276800000	45	4811
2026-01-24 02:55:02.33	235.62	13.24	-37.7	-39.5	20.6	0.00e+00	0	38	0	3282042880	46	4557
2026-01-24 02:55:03.47	235.52	13.13	-37.7	-39.5	20.6	0.00e+00	0	38	0	3288334336	46	4561
2026-01-24 02:55:04.32	235.45	13.06	-37.8	-39.7	20.4	0.00e+00	0	38	0	3293577216	46	4655
2026-01-24 02:55:05.46	235.35	12.95	-37.8	-39.6	20.4	0.00e+00	0	38	0	3299868672	46	4651
2026-01-24 02:55:06.31	235.28	12.88	-37.8	-39.6	20.4	0.00e+00	0	38	0	3304062976	46	4645
2026-01-24 02:55:07.45	235.19	12.78	-37.9	-39.7	20.4	0.00e+00	0	38	0	3310354432	46	4674
2026-01-24 02:55:08.30	235.12	12.70	-38.0	-39.8	20.3	0.00e+00	0	38	0	3315597312	46	4726
2026-01-24 02:55:09.44	235.03	12.60	-38.0	-39.8	20.3	0.00e+00	0	38	0	3321888768	46	4751
2026-01-24 02:55:10.29	234.96	12.52	-37.9	-39.8	20.3	0.00e+00	0	38	0	3327131648	46	4718
2026-01-24 02:55:11.46	234.86	12.42	-38.0	-39.9	20.2	0.00e+00	0	38	0	3333423104	46	4773
2026-01-24 02:55:12.32	234.80	12.34	-38.1	-39.9	20.2	0.00e+00	0	38	0	3337617408	46	4804
2026-01-24 02:55:13.46	234.71	12.24	-38.1	-39.9	20.1	0.00e+00	0	38	0	3344957440	46	4810
2026-01-24 02:55:14.31	234.64	12.17	-38.1	-40.0	20.1	0.00e+00	0	38	0	3349151744	46	4824
2026-01-24 02:55:15.44	234.55	12.07	-38.2	-40.1	20.0	0.00e+00	0	38	0	3355443200	47	4612
2026-01-24 02:55:16.30	234.48	12.00	-38.2	-40.0	20.0	0.00e+00	0	38	0	3360686080	47	4596
2026-01-24 02:55:17.44	234.40	11.90	-38.2	-40.1	20.0	0.00e+00	0	38	0	3366977536	47	4611
2026-01-24 02:55:18.29	234.33	11.82	-38.3	-40.2	19.9	0.00e+00	0	38	0	3372220416	47	4657
2026-01-24 02:55:19.43	234.24	11.73	-38.2	-40.1	20.0	0.00e+00	0	38	0	3378511872	47	4621
2026-01-24 02:55:20.28	234.18	11.65	-38.3	-40.2	19.9	0.00e+00	0	38	0	3382706176	47	4652
2026-01-24 02:55:21.42	234.09	11.56	-38.3	-40.1	19.9	0.00e+00	0	38	0	3388997632	47	4640
2026-01-24 02:55:22.27	234.03	11.48	-38.3	-40.1	19.9	0.00e+00	0	38	0	3394240512	47	4651
2026-01-24 02:55:23.41	233.94	11.39	-38.2	-40.0	20.0	0.00e+00	0	38	0	3400531968	47	4557
2026-01-24 02:55:24.26	233.88	11.31	-38.2	-40.0	20.0	0.00e+00	0	38	0	3405774848	47	4568
2026-01-24 02:55:25.40	233.80	11.22	-38.2	-40.0	20.0	0.00e+00	0	38	0	3412066304	47	4595
2026-01-24 02:55:26.25	233.73	11.15	-38.2	-40.0	20.0	0.00e+00	0	38	0	3416260608	47	4558
2026-01-24 02:55:27.40	233.65	11.05	-38.2	-40.0	20.0	0.00e+00	0	38	0	3422552064	47	4554
2026-01-24 02:55:28.25	233.59	10.98	-38.2	-40.0	19.9	0.00e+00	0	38	0	3427794944	47	4588
2026-01-24 02:55:29.39	233.51	10.88	-38.2	-40.0	19.9	0.00e+00	0	38	0	3434086400	47	4591
2026-01-24 02:55:30.24	233.45	10.81	-38.2	-40.0	20.0	0.00e+00	0	38	0	3439329280	47	4590
2026-01-24 02:55:31.51	233.36	10.70	-38.2	-40.0	20.0	0.00e+00	0	38	0	3445620736	47	4582
2026-01-24 02:55:32.27	233.30	10.64	-38.3	-40.1	19.9	0.00e+00	0	38	0	3449815040	47	4626
2026-01-24 02:55:33.54	233.21	10.54	-38.4	-40.2	19.8	0.00e+00	0	38	0	3457155072	47	4678
2026-01-24 02:55:34.26	233.16	10.48	-38.3	-40.2	19.8	0.00e+00	0	38	0	3461349376	47	4657
2026-01-24 02:55:35.54	233.07	10.37	-38.4	-40.2	19.7	0.00e+00	0	38	0	3468689408	47	4703
2026-01-24 02:55:36.25	233.02	10.31	-38.5	-40.3	19.7	0.00e+00	0	38	0	3472883712	47	4729
2026-01-24 02:55:37.78	232.92	10.19	-38.5	-40.3	19.6	0.00e+00	0	38	0	3481272320	47	4758
2026-01-24 02:55:38.49	232.87	10.13	-38.5	-40.3	19.7	0.00e+00	0	37	0	3485466624	47	4738
2026-01-24 02:55:39.85	232.78	10.02	-38.5	-40.3	19.7	0.00e+00	0	38	0	3492806656	47	4735
2026-01-24 02:55:40.56	232.73	9.96	-38.5	-40.4	19.6	0.00e+00	0	38	0	3497000960	47	4794
2026-01-24 02:55:41.84	232.65	9.86	-38.5	-40.4	19.6	0.00e+00	0	38	0	3504340992	47	4765
2026-01-24 02:55:42.55	232.60	9.80	-38.6	-40.4	19.6	0.00e+00	0	38	0	3508535296	47	4803
2026-01-24 02:55:43.83	232.51	9.70	-38.8	-40.6	19.5	0.00e+00	0	38	0	3514826752	48	4646
2026-01-24 02:55:44.55	232.47	9.64	-38.7	-40.6	19.6	0.00e+00	0	38	0	3519021056	48	4601
2026-01-24 02:55:45.82	232.38	9.54	-38.8	-40.6	19.5	0.00e+00	0	38	0	3526361088	48	4643
2026-01-24 02:55:46.53	232.34	9.48	-38.9	-40.7	19.5	0.00e+00	0	38	0	3530555392	48	4685
2026-01-24 02:55:47.81	232.25	9.38	-38.9	-40.8	19.4	0.00e+00	0	38	0	3537895424	48	4727
2026-01-24 02:55:48.57	232.21	9.32	-39.0	-40.9	19.3	0.00e+00	0	38	0	3542089728	48	4771
2026-01-24 02:55:49.85	232.12	9.22	-38.9	-40.7	19.4	0.00e+00	0	38	0	3549429760	48	4701
2026-01-24 02:55:50.56	232.08	9.16	-38.9	-40.8	19.4	0.00e+00	0	38	0	3553624064	48	4725
2026-01-24 02:55:51.84	232.00	9.06	-39.1	-40.9	19.2	0.00e+00	0	38	0	3560964096	48	4800
2026-01-24 02:55:52.55	231.95	9.01	-41.5	-43.8	16.6	0.00e+00	0	37	0	3564109824	53	5006
2026-01-24 02:55:53.83	231.87	8.91	-49.5	-61.8	3.8	8.47e-01	0	38	104	3566206976	69	15873
2026-01-24 02:55:54.54	231.83	8.85	-49.6	-61.9	3.8	8.47e-01	0	38	104	3566206976	69	15976
2026-01-24 02:55:55.81	231.75	8.75	-50.0	-62.0	3.8	8.47e-01	0	38	104	3566206976	70	15353
2026-01-24 02:55:56.52	231.71	8.70	-50.1	-62.1	3.8	8.47e-01	0	38	104	3566206976	70	15558
2026-01-24 02:55:57.80	231.63	8.60	-50.1	-62.2	3.8	8.46e-01	0	38	104	3566206976	70	15704
2026-01-24 02:55:58.51	231.58	8.54	-50.1	-62.2	3.8	8.46e-01	0	38	104	3566206976	70	15753
2026-01-24 02:55:59.79	231.51	8.45	-50.1	-62.3	3.8	8.47e-01	0	38	104	3566206976	70	15798
2026-01-24 02:56:00.50	231.46	8.39	-50.2	-62.3	3.8	8.47e-01	0	38	104	3566206976	71	14961
2026-01-24 02:56:01.78	231.39	8.29	-50.1	-62.3	3.8	8.47e-01	0	38	104	3566206976	71	15027
2026-01-24 02:56:02.50	231.34	8.24	-50.0	-62.3	3.8	8.47e-01	0	38	104	3566206976	71	14966
2026-01-24 02:56:03.78	231.27	8.14	-50.2	-62.3	3.8	8.48e-01	0	38	104	3566206976	71	14948
2026-01-24 02:56:04.50	231.23	8.09	-50.1	-62.3	3.8	8.48e-01	0	38	104	3566206976	71	14993
2026-01-24 02:56:05.78	231.15	7.99	-50.0	-62.3	3.8	8.48e-01	0	38	104	3566206976	71	14985
2026-01-24 02:56:06.49	231.11	7.94	-50.1	-62.3	3.8	8.47e-01	0	38	104	3566206976	71	15045
2026-01-24 02:56:07.77	231.04	7.84	-50.1	-62.4	3.8	8.47e-01	0	38	104	3566206976	71	15119
2026-01-24 02:56:08.48	230.99	7.79	-50.1	-62.4	3.8	8.47e-01	0	37	104	3566206976	71	15074
2026-01-24 02:56:09.75	230.92	7.69	-50.0	-62.3	3.8	8.47e-01	0	38	104	3566206976	71	15025
2026-01-24 02:56:10.46	230.88	7.64	-50.1	-62.3	3.8	8.47e-01	0	38	104	3566206976	71	15031
