passes_logs/2026/01/24/T1/T1__20260124_010412_FENGYUN_3D_rec.log

#Pass ID: 20260124_010412_FENGYUN 3D
#Satellite: FENGYUN 3D
#Configuration: FENGYUN 3D
#almurnet v.1.7.20251203
#Start time: 2026-01-24 01:04:14

#Version: 2.0.20230620
#Station: T1
#Location: 37.570604 lon 55.790049 lat
#TLE: 1 43010U 17072A   26022.96745493  .00000490  00000+0  25355-3 0  9999
#TLE: 2 43010  98.9955 354.9072 0002484  95.6139 264.5320 14.19700039424383

#Time	Az	El	Level	Level2	SNR	BER	BlckErr	Temp	State	Recorded	gain1	gain2
2026-01-24 01:04:14.21	22.15	5.10	-47.3	-60.0	3.8	8.47e-01	0	35	0	0	66	15327
2026-01-24 01:04:15.20	22.19	5.16	-47.3	-59.9	3.8	8.47e-01	0	35	104	0	66	15177
2026-01-24 01:04:16.19	22.24	5.23	-47.3	-59.9	3.8	8.47e-01	0	35	104	0	66	15149
2026-01-24 01:04:17.19	22.28	5.30	-47.3	-59.9	3.8	8.47e-01	0	35	104	0	66	15118
2026-01-24 01:04:18.18	22.33	5.37	-47.3	-59.9	3.8	8.46e-01	0	35	104	0	66	15059
2026-01-24 01:04:19.17	22.37	5.44	-47.3	-59.9	3.8	8.46e-01	0	35	104	0	66	15141
2026-01-24 01:04:20.17	22.41	5.51	-47.3	-59.9	3.8	8.47e-01	0	35	104	0	66	15086
2026-01-24 01:04:21.16	22.46	5.58	-47.3	-59.9	3.8	8.47e-01	0	35	104	0	66	15167
2026-01-24 01:04:22.15	22.50	5.65	-47.3	-59.9	3.8	8.46e-01	0	36	104	0	66	15188
2026-01-24 01:04:23.15	22.55	5.71	-47.3	-59.9	3.8	8.47e-01	0	36	104	0	66	15223
2026-01-24 01:04:24.14	22.59	5.78	-47.3	-60.0	3.8	8.47e-01	0	36	104	0	66	15240
2026-01-24 01:04:25.13	22.64	5.85	-47.3	-60.0	3.8	8.47e-01	0	36	104	0	66	15276
2026-01-24 01:04:26.12	22.68	5.92	-47.3	-60.0	3.8	8.47e-01	0	36	104	0	66	15307
2026-01-24 01:04:27.12	22.73	5.99	-47.3	-60.0	3.8	8.47e-01	0	36	104	0	66	15291
2026-01-24 01:04:28.11	22.78	6.06	-47.3	-60.0	3.8	8.47e-01	0	36	104	0	66	15280
2026-01-24 01:04:29.10	22.82	6.13	-47.3	-59.9	3.8	8.47e-01	0	36	104	0	66	15225
2026-01-24 01:04:30.10	22.87	6.20	-47.3	-59.9	3.8	8.47e-01	0	36	104	0	66	15215
2026-01-24 01:04:31.09	22.92	6.28	-47.3	-59.9	3.8	8.46e-01	0	36	104	0	66	15132
2026-01-24 01:04:32.08	22.96	6.35	-47.3	-59.9	3.8	8.47e-01	0	36	104	0	66	15141
2026-01-24 01:04:33.07	23.01	6.42	-47.3	-59.9	3.8	8.47e-01	0	36	104	0	66	15114
2026-01-24 01:04:34.07	23.06	6.49	-47.3	-59.9	3.8	8.47e-01	0	36	104	0	66	15138
2026-01-24 01:04:35.06	23.10	6.56	-47.3	-59.9	3.8	8.46e-01	0	36	104	0	66	15093
2026-01-24 01:04:36.05	23.15	6.63	-47.3	-59.9	3.8	8.47e-01	0	36	104	0	66	15126
2026-01-24 01:04:37.05	23.20	6.70	-47.3	-59.9	3.8	8.47e-01	0	36	104	0	66	15079
2026-01-24 01:04:38.04	23.25	6.78	-47.3	-59.9	3.8	8.47e-01	0	36	104	0	66	15061
2026-01-24 01:04:39.03	23.30	6.85	-47.3	-59.8	3.8	8.45e-01	0	36	104	0	66	14958
2026-01-24 01:04:40.03	23.34	6.92	-47.3	-59.7	3.8	8.47e-01	0	36	104	0	66	14731
2026-01-24 01:04:41.02	23.39	6.99	-47.2	-59.4	3.8	8.47e-01	0	36	104	0	66	14338
2026-01-24 01:04:42.01	23.44	7.07	-47.2	-59.1	3.8	8.47e-01	0	36	104	0	66	13807
2026-01-24 01:04:43.01	23.49	7.14	-47.2	-58.6	3.8	8.48e-01	0	36	104	0	66	13109
2026-01-24 01:04:44.00	23.54	7.21	-47.1	-58.2	3.8	8.47e-01	0	36	104	0	66	12503
2026-01-24 01:04:44.99	23.59	7.28	-47.1	-57.8	3.8	8.46e-01	0	36	104	0	66	11915
2026-01-24 01:04:45.98	23.64	7.36	-47.0	-57.4	4.0	8.45e-01	0	37	104	0	66	11297
2026-01-24 01:04:46.98	23.69	7.43	-47.0	-57.2	3.9	8.43e-01	0	36	104	0	66	11088
2026-01-24 01:04:47.97	23.74	7.51	-46.9	-56.8	4.1	8.41e-01	0	37	0	0	65	11207
2026-01-24 01:04:48.96	23.79	7.58	-46.9	-56.7	4.1	8.40e-01	0	36	0	0	65	11097
2026-01-24 01:04:49.96	23.84	7.65	-46.9	-56.5	4.2	8.39e-01	0	36	0	0	65	10878
2026-01-24 01:04:50.95	23.89	7.73	-46.9	-56.5	4.2	8.39e-01	0	37	0	0	65	10860
2026-01-24 01:04:51.94	23.94	7.80	-46.9	-56.5	4.2	8.39e-01	0	37	0	0	65	10841
2026-01-24 01:04:52.94	23.99	7.88	-46.9	-56.5	4.2	8.39e-01	0	37	0	0	65	10800
2026-01-24 01:04:53.93	24.05	7.95	-46.9	-56.5	4.2	8.39e-01	0	36	0	0	65	10814
2026-01-24 01:04:54.92	24.10	8.03	-46.9	-56.5	4.2	8.37e-01	0	37	0	0	65	10804
2026-01-24 01:04:55.92	24.15	8.11	-46.8	-56.4	4.2	8.37e-01	0	37	0	0	65	10739
2026-01-24 01:04:56.91	24.20	8.18	-46.8	-56.3	4.2	8.37e-01	0	37	0	0	65	10543
2026-01-24 01:04:57.90	24.26	8.26	-46.7	-55.8	4.3	8.31e-01	0	37	0	0	65	10048
2026-01-24 01:04:58.90	24.31	8.33	-46.7	-55.3	4.6	8.22e-01	0	37	0	0	65	9411
2026-01-24 01:04:59.89	24.36	8.41	-46.5	-54.4	5.0	7.81e-01	0	37	0	0	65	8529
2026-01-24 01:05:00.88	24.41	8.49	-46.2	-53.4	5.6	7.12e-01	0	37	0	0	64	8030
2026-01-24 01:05:01.88	24.47	8.56	-45.9	-52.1	6.7	3.14e-01	0	37	0	5242880	63	7338
2026-01-24 01:05:02.87	24.52	8.64	-45.4	-50.7	8.0	1.03e-01	0	37	0	10485760	62	6605
2026-01-24 01:05:03.86	24.58	8.72	-44.7	-49.3	9.4	3.31e-02	0	37	0	16777216	61	5961
2026-01-24 01:05:04.85	24.63	8.79	-44.0	-48.0	10.9	4.43e-03	0	37	0	22020096	60	5429
2026-01-24 01:05:05.85	24.69	8.87	-43.3	-46.7	12.2	6.98e-04	0	37	0	27262976	58	5259
2026-01-24 01:05:06.84	24.74	8.95	-42.6	-45.6	13.3	1.10e-04	0	37	0	33554432	57	4900
2026-01-24 01:05:07.84	24.80	9.03	-41.8	-44.5	14.2	6.80e-06	0	37	0	38797312	55	4862
2026-01-24 01:05:08.83	24.85	9.11	-44.2	-48.1	11.0	0.00e+00	0	37	0	44040192	59	5806
2026-01-24 01:05:10.00	24.92	9.20	-44.9	-49.9	9.0	1.23e-03	0	37	0	51380224	60	6734
2026-01-24 01:05:10.85	24.97	9.27	-41.0	-43.5	15.3	1.15e-04	0	37	0	55574528	53	4867
2026-01-24 01:05:11.99	25.03	9.36	-45.7	-51.9	6.9	2.58e-02	0	37	0	61865984	62	7629
2026-01-24 01:05:12.84	25.08	9.43	-37.7	-39.7	19.0	1.25e-05	0	37	0	67108864	47	4397
2026-01-24 01:05:13.98	25.14	9.52	-37.4	-39.3	19.4	0.00e+00	0	37	0	73400320	46	4481
2026-01-24 01:05:14.83	25.19	9.59	-37.4	-39.3	19.4	0.00e+00	0	37	0	78643200	46	4465
2026-01-24 01:05:15.97	25.26	9.68	-37.1	-39.0	19.7	0.00e+00	0	37	0	84934656	46	4331
2026-01-24 01:05:16.82	25.31	9.75	-37.1	-39.0	19.7	0.00e+00	0	37	0	89128960	46	4298
2026-01-24 01:05:17.97	25.38	9.84	-36.9	-38.8	19.8	0.00e+00	0	37	0	96468992	45	4481
2026-01-24 01:05:18.83	25.43	9.91	-36.9	-38.8	19.9	0.00e+00	0	37	0	100663296	45	4459
2026-01-24 01:05:19.96	25.49	10.00	-36.9	-38.8	19.9	0.00e+00	0	37	0	106954752	45	4467
2026-01-24 01:05:20.81	25.54	10.07	-36.9	-38.8	19.9	0.00e+00	0	37	0	112197632	45	4465
2026-01-24 01:05:22.09	25.62	10.18	-36.8	-38.7	19.9	0.00e+00	0	37	0	118489088	45	4422
2026-01-24 01:05:22.82	25.67	10.24	-36.8	-38.7	20.0	0.00e+00	0	37	0	123731968	45	4404
2026-01-24 01:05:24.10	25.74	10.34	-36.8	-38.6	20.0	0.00e+00	0	37	0	130023424	45	4386
2026-01-24 01:05:24.82	25.79	10.40	-36.8	-38.6	20.1	0.00e+00	0	37	0	134217728	45	4375
2026-01-24 01:05:26.10	25.86	10.51	-36.8	-38.6	20.0	0.00e+00	0	37	0	141557760	45	4390
2026-01-24 01:05:26.81	25.91	10.57	-36.8	-38.7	20.0	0.00e+00	0	37	0	145752064	45	4418
2026-01-24 01:05:28.10	25.99	10.68	-36.8	-38.7	20.0	0.00e+00	0	37	0	153092096	45	4410
2026-01-24 01:05:28.81	26.03	10.74	-36.8	-38.7	20.0	0.00e+00	0	37	0	157286400	45	4408
2026-01-24 01:05:30.09	26.11	10.84	-36.9	-38.8	20.0	0.00e+00	0	37	0	163577856	45	4457
2026-01-24 01:05:30.80	26.16	10.90	-36.9	-38.8	19.9	0.00e+00	0	37	0	167772160	45	4460
2026-01-24 01:05:32.08	26.24	11.01	-37.0	-38.9	19.8	0.00e+00	0	37	0	175112192	45	4543
2026-01-24 01:05:32.79	26.28	11.07	-36.9	-38.8	19.9	0.00e+00	0	37	0	179306496	45	4469
2026-01-24 01:05:34.12	26.37	11.18	-37.0	-38.9	19.8	0.00e+00	0	37	0	186646528	45	4521
2026-01-24 01:05:34.83	26.41	11.25	-37.1	-39.0	19.7	0.00e+00	0	37	0	190840832	45	4582
2026-01-24 01:05:36.16	26.50	11.36	-37.0	-38.9	19.8	0.00e+00	0	37	0	198180864	45	4519
2026-01-24 01:05:36.87	26.54	11.42	-37.0	-38.9	19.9	0.00e+00	0	37	0	202375168	45	4506
2026-01-24 01:05:38.15	26.63	11.53	-37.0	-38.9	19.9	0.00e+00	0	37	0	209715200	45	4508
2026-01-24 01:05:39.19	26.70	11.62	-37.0	-38.9	19.9	0.00e+00	0	37	0	214958080	45	4513
2026-01-24 01:05:40.46	26.78	11.73	-37.0	-38.9	19.9	0.00e+00	0	37	0	222298112	45	4513
2026-01-24 01:05:41.22	26.83	11.80	-36.9	-38.7	20.0	0.00e+00	0	37	0	226492416	45	4439
2026-01-24 01:05:42.50	26.92	11.91	-36.8	-38.6	20.1	0.00e+00	0	37	0	233832448	45	4388
2026-01-24 01:05:43.22	26.96	11.97	-36.8	-38.6	20.1	0.00e+00	0	37	0	238026752	45	4388
2026-01-24 01:05:44.84	27.07	12.12	-36.8	-38.6	20.1	0.00e+00	0	37	0	247463936	45	4384
2026-01-24 01:05:45.41	27.11	12.17	-36.8	-38.6	20.1	0.00e+00	0	37	0	249561088	45	4391
2026-01-24 01:05:47.11	27.23	12.32	-36.8	-38.7	20.1	0.00e+00	0	37	0	260046848	45	4397
2026-01-24 01:05:47.76	27.27	12.38	-36.7	-38.6	20.2	0.00e+00	0	37	0	263192576	45	4363
2026-01-24 01:05:49.18	27.37	12.50	-36.7	-38.6	20.2	0.00e+00	0	37	0	271581184	45	4343
2026-01-24 01:05:49.96	27.43	12.57	-36.6	-38.5	20.3	0.00e+00	0	37	0	275775488	45	4308
2026-01-24 01:05:51.24	27.52	12.69	-36.6	-38.5	20.3	0.00e+00	0	37	0	283115520	45	4302
2026-01-24 01:05:52.06	27.57	12.76	-36.6	-38.5	20.3	0.00e+00	0	37	0	287309824	45	4303
2026-01-24 01:05:53.20	27.65	12.87	-36.6	-38.5	20.2	0.00e+00	0	37	0	293601280	45	4319
2026-01-24 01:05:54.29	27.73	12.96	-36.6	-38.5	20.3	0.00e+00	0	37	0	299892736	45	4313
2026-01-24 01:05:55.34	27.81	13.06	-36.6	-38.5	20.3	0.00e+00	0	37	0	306184192	45	4303
2026-01-24 01:05:56.22	27.87	13.14	-36.5	-38.3	20.5	0.00e+00	0	37	0	311427072	45	4226
2026-01-24 01:05:57.36	27.95	13.25	-36.6	-38.5	20.4	0.00e+00	0	37	0	317718528	44	4551
2026-01-24 01:05:58.21	28.02	13.32	-36.4	-38.3	20.5	0.00e+00	0	37	0	321912832	44	4458
2026-01-24 01:05:59.35	28.10	13.43	-36.4	-38.2	20.5	0.00e+00	0	37	0	328204288	44	4435
2026-01-24 01:06:00.20	28.16	13.51	-36.4	-38.3	20.5	0.00e+00	0	37	0	333447168	44	4459
2026-01-24 01:06:01.34	28.25	13.61	-36.4	-38.2	20.6	0.00e+00	0	37	0	339738624	44	4423
2026-01-24 01:06:02.19	28.31	13.69	-36.3	-38.1	20.7	0.00e+00	0	37	0	344981504	44	4375
2026-01-24 01:06:03.32	28.40	13.80	-36.2	-38.0	20.8	0.00e+00	0	37	0	351272960	44	4309
2026-01-24 01:06:04.18	28.46	13.88	-36.1	-37.9	20.8	0.00e+00	0	37	0	355467264	44	4289
2026-01-24 01:06:05.42	28.56	14.00	-36.1	-37.9	20.9	0.00e+00	0	38	0	362807296	44	4288
2026-01-24 01:06:06.27	28.62	14.08	-36.1	-37.9	20.9	0.00e+00	0	37	0	368050176	44	4262
2026-01-24 01:06:07.41	28.71	14.19	-36.1	-37.9	20.9	0.00e+00	0	37	0	374341632	44	4267
2026-01-24 01:06:08.26	28.78	14.27	-36.1	-37.9	20.9	0.00e+00	0	37	0	378535936	44	4267
2026-01-24 01:06:09.52	28.87	14.39	-36.1	-37.9	20.9	0.00e+00	0	37	0	385875968	44	4282
2026-01-24 01:06:10.33	28.94	14.47	-36.1	-37.9	20.9	0.00e+00	0	37	0	390070272	44	4263
2026-01-24 01:06:11.47	29.03	14.58	-36.1	-37.9	20.9	0.00e+00	0	37	0	397410304	44	4278
2026-01-24 01:06:12.32	29.10	14.66	-36.1	-37.9	20.9	0.00e+00	0	37	0	401604608	44	4281
2026-01-24 01:06:13.46	29.19	14.77	-36.1	-37.8	21.0	0.00e+00	0	37	0	407896064	44	4235
2026-01-24 01:06:14.31	29.26	14.85	-36.1	-37.8	21.0	0.00e+00	0	37	0	413138944	44	4240
2026-01-24 01:06:15.45	29.35	14.96	-36.0	-37.8	21.0	0.00e+00	0	37	0	419430400	44	4231
2026-01-24 01:06:16.30	29.42	15.05	-36.0	-37.8	21.0	0.00e+00	0	37	0	423624704	44	4225
2026-01-24 01:06:17.44	29.51	15.16	-35.8	-37.5	21.1	0.00e+00	0	37	0	429916160	43	4339
2026-01-24 01:06:18.29	29.58	15.24	-35.9	-37.6	21.0	0.00e+00	0	37	0	435159040	43	4391
2026-01-24 01:06:19.43	29.68	15.36	-35.9	-37.6	21.1	0.00e+00	0	37	0	441450496	43	4371
2026-01-24 01:06:20.28	29.75	15.44	-35.8	-37.6	21.1	0.00e+00	0	37	0	446693376	43	4359
2026-01-24 01:06:21.42	29.84	15.56	-35.7	-37.5	21.2	0.00e+00	0	37	0	452984832	43	4294
2026-01-24 01:06:22.28	29.92	15.64	-35.6	-37.4	21.2	0.00e+00	0	38	0	457179136	43	4261
2026-01-24 01:06:23.41	30.01	15.76	-35.6	-37.4	21.3	0.00e+00	0	37	0	464519168	43	4261
2026-01-24 01:06:24.27	30.09	15.84	-35.6	-37.3	21.3	0.00e+00	0	37	0	468713472	43	4231
2026-01-24 01:06:25.41	30.18	15.96	-35.6	-37.4	21.3	0.00e+00	0	37	0	475004928	43	4247
2026-01-24 01:06:26.26	30.26	16.05	-35.6	-37.3	21.3	0.00e+00	0	37	0	480247808	43	4223
2026-01-24 01:06:27.62	30.38	16.18	-35.5	-37.2	21.4	0.00e+00	0	38	0	487587840	43	4189
2026-01-24 01:06:28.33	30.44	16.26	-35.5	-37.2	21.4	0.00e+00	0	37	0	491782144	42	4431
2026-01-24 01:06:29.61	30.55	16.39	-35.4	-37.2	21.5	0.00e+00	0	37	0	499122176	42	4395
2026-01-24 01:06:30.34	30.62	16.46	-35.3	-37.1	21.6	0.00e+00	0	37	0	503316480	42	4343
2026-01-24 01:06:31.61	30.73	16.60	-35.2	-37.0	21.7	0.00e+00	0	37	0	510656512	42	4294
2026-01-24 01:06:32.34	30.80	16.67	-35.1	-36.9	21.8	0.00e+00	0	37	0	513802240	42	4257
2026-01-24 01:06:33.62	30.92	16.81	-35.2	-36.9	21.7	0.00e+00	0	38	0	521142272	42	4285
2026-01-24 01:06:34.33	30.98	16.88	-35.1	-36.8	21.8	0.00e+00	0	38	0	525336576	42	4223
2026-01-24 01:06:35.61	31.10	17.02	-34.9	-36.6	22.0	0.00e+00	0	37	0	532676608	41	4369
2026-01-24 01:06:36.49	31.18	17.11	-34.9	-36.6	21.9	0.00e+00	0	38	0	537919488	41	4386
2026-01-24 01:06:37.63	31.29	17.23	-35.0	-36.7	21.8	0.00e+00	0	38	0	544210944	41	4441
2026-01-24 01:06:38.48	31.37	17.32	-34.9	-36.6	22.0	0.00e+00	0	38	0	548405248	41	4385
2026-01-24 01:06:39.62	31.48	17.44	-35.0	-36.7	21.9	0.00e+00	0	38	0	555745280	41	4402
2026-01-24 01:06:40.72	31.58	17.56	-35.1	-36.8	21.8	0.00e+00	0	38	0	560988160	41	4470
2026-01-24 01:06:41.75	31.68	17.67	-35.1	-36.8	21.9	0.00e+00	0	38	0	567279616	41	4458
2026-01-24 01:06:42.74	31.78	17.78	-35.0	-36.7	21.9	0.00e+00	0	38	0	572522496	41	4410
2026-01-24 01:06:43.94	31.89	17.91	-34.9	-36.6	22.0	0.00e+00	0	37	0	579862528	41	4373
2026-01-24 01:06:44.83	31.98	18.01	-35.0	-36.7	21.9	0.00e+00	0	37	0	584056832	41	4399
2026-01-24 01:06:46.14	32.11	18.15	-34.9	-36.6	22.0	0.00e+00	0	38	0	591396864	41	4356
2026-01-24 01:06:46.85	32.18	18.23	-34.8	-36.5	22.1	0.00e+00	0	38	0	595591168	41	4338
2026-01-24 01:06:48.13	32.31	18.37	-34.8	-36.5	22.1	0.00e+00	0	38	0	602931200	41	4317
2026-01-24 01:06:49.28	32.43	18.50	-34.8	-36.5	22.2	0.00e+00	0	38	0	609222656	41	4303
2026-01-24 01:06:50.14	32.51	18.59	-34.9	-36.6	22.0	0.00e+00	0	38	0	614465536	41	4344
2026-01-24 01:06:51.28	32.63	18.72	-34.8	-36.5	22.1	0.00e+00	0	38	0	620756992	41	4311
2026-01-24 01:06:52.13	32.72	18.81	-34.8	-36.5	22.1	0.00e+00	0	37	0	625999872	41	4326
2026-01-24 01:06:53.31	32.84	18.95	-34.8	-36.5	22.1	0.00e+00	0	37	0	632291328	41	4333
2026-01-24 01:06:54.17	32.93	19.04	-34.8	-36.5	22.1	0.00e+00	0	38	0	637534208	41	4312
2026-01-24 01:06:55.30	33.05	19.17	-34.7	-36.4	22.2	0.00e+00	0	38	0	642777088	41	4261
2026-01-24 01:06:56.16	33.14	19.27	-34.8	-36.5	22.2	0.00e+00	0	37	0	648019968	41	4301
2026-01-24 01:06:57.30	33.27	19.40	-34.8	-36.5	22.1	0.00e+00	0	38	0	654311424	41	4330
2026-01-24 01:06:58.15	33.36	19.50	-34.7	-36.4	22.2	0.00e+00	0	38	0	659554304	41	4253
2026-01-24 01:06:59.29	33.48	19.63	-34.6	-36.3	22.3	0.00e+00	0	37	0	665845760	41	4199
2026-01-24 01:07:00.14	33.57	19.73	-34.5	-36.2	22.4	0.00e+00	0	38	0	670040064	41	4191
2026-01-24 01:07:01.28	33.70	19.86	-34.5	-36.2	22.4	0.00e+00	0	38	0	677380096	41	4184
2026-01-24 01:07:02.13	33.79	19.96	-34.6	-36.3	22.3	0.00e+00	0	38	0	681574400	41	4214
2026-01-24 01:07:03.27	33.92	20.09	-34.6	-36.3	22.3	0.00e+00	0	38	0	687865856	41	4216
2026-01-24 01:07:04.12	34.02	20.19	-34.6	-36.3	22.4	0.00e+00	0	37	0	693108736	41	4210
2026-01-24 01:07:05.26	34.15	20.32	-34.6	-36.3	22.4	0.00e+00	0	37	0	699400192	41	4209
2026-01-24 01:07:06.11	34.25	20.43	-34.6	-36.3	22.3	0.00e+00	0	37	0	703594496	41	4237
2026-01-24 01:07:07.25	34.38	20.56	-34.5	-36.1	22.5	0.00e+00	0	38	0	710934528	41	4145
2026-01-24 01:07:08.10	34.48	20.66	-34.6	-36.3	22.3	0.00e+00	0	38	0	715128832	40	4469
2026-01-24 01:07:09.23	34.61	20.80	-34.5	-36.1	22.5	0.00e+00	0	38	0	721420288	40	4389
2026-01-24 01:07:10.09	34.71	20.90	-34.5	-36.2	22.5	0.00e+00	0	38	0	726663168	40	4418
2026-01-24 01:07:11.30	34.85	21.05	-34.6	-36.3	22.3	0.00e+00	0	38	0	732954624	40	4468
2026-01-24 01:07:12.15	34.95	21.15	-34.6	-36.3	22.4	0.00e+00	0	38	0	738197504	40	4458
2026-01-24 01:07:13.29	35.09	21.29	-34.6	-36.3	22.3	0.00e+00	0	38	0	744488960	40	4484
2026-01-24 01:07:14.14	35.20	21.39	-34.5	-36.2	22.5	0.00e+00	0	38	0	749731840	40	4408
2026-01-24 01:07:15.40	35.35	21.54	-34.5	-36.2	22.4	0.00e+00	0	38	0	756023296	40	4422
2026-01-24 01:07:16.19	35.45	21.64	-34.6	-36.3	22.3	0.00e+00	0	37	0	761266176	40	4460
2026-01-24 01:07:17.36	35.59	21.79	-34.3	-36.0	22.6	0.00e+00	0	38	0	767557632	40	4310
2026-01-24 01:07:18.21	35.70	21.89	-34.3	-36.0	22.6	0.00e+00	0	38	0	772800512	40	4304
2026-01-24 01:07:19.35	35.84	22.03	-34.4	-36.1	22.6	0.00e+00	0	37	0	778043392	40	4353
2026-01-24 01:07:20.21	35.95	22.14	-34.3	-36.0	22.7	0.00e+00	0	38	0	783286272	40	4297
2026-01-24 01:07:21.34	36.10	22.28	-34.3	-35.9	22.7	0.00e+00	0	37	0	789577728	40	4282
2026-01-24 01:07:22.30	36.22	22.40	-34.3	-36.0	22.7	0.00e+00	0	38	0	794820608	40	4296
2026-01-24 01:07:23.48	36.38	22.55	-34.3	-36.0	22.6	0.00e+00	0	38	0	802160640	40	4325
2026-01-24 01:07:24.33	36.49	22.66	-34.3	-36.0	22.6	0.00e+00	0	38	0	806354944	40	4329
2026-01-24 01:07:25.47	36.64	22.80	-34.4	-36.0	22.6	0.00e+00	0	37	0	812646400	40	4331
2026-01-24 01:07:26.32	36.75	22.91	-34.3	-36.0	22.7	0.00e+00	0	38	0	817889280	40	4302
2026-01-24 01:07:27.46	36.91	23.06	-34.2	-35.9	22.8	0.00e+00	0	38	0	824180736	40	4248
2026-01-24 01:07:28.31	37.02	23.17	-34.2	-35.8	22.8	0.00e+00	0	38	0	829423616	40	4232
2026-01-24 01:07:29.45	37.18	23.32	-34.2	-35.8	22.8	0.00e+00	0	38	0	835715072	40	4236
2026-01-24 01:07:30.30	37.30	23.43	-34.0	-35.7	23.0	0.00e+00	0	38	0	839909376	40	4146
2026-01-24 01:07:31.44	37.46	23.57	-34.0	-35.6	23.1	0.00e+00	0	38	0	846200832	39	4382
2026-01-24 01:07:32.29	37.57	23.69	-33.9	-35.5	23.1	0.00e+00	0	38	0	851443712	39	4326
2026-01-24 01:07:33.42	37.73	23.83	-33.9	-35.6	23.1	0.00e+00	0	38	0	857735168	39	4344
2026-01-24 01:07:34.28	37.86	23.95	-33.8	-35.5	23.2	0.00e+00	0	38	0	862978048	39	4309
2026-01-24 01:07:35.42	38.02	24.10	-33.8	-35.4	23.2	0.00e+00	0	38	0	869269504	39	4264
2026-01-24 01:07:36.27	38.14	24.21	-33.7	-35.3	23.4	0.00e+00	0	38	0	873463808	39	4210
2026-01-24 01:07:37.50	38.32	24.37	-33.7	-35.4	23.3	0.00e+00	0	38	0	880803840	39	4255
2026-01-24 01:07:38.36	38.45	24.49	-33.8	-35.4	23.2	0.00e+00	0	38	0	884998144	39	4277
2026-01-24 01:07:39.57	38.63	24.65	-33.8	-35.4	23.3	0.00e+00	0	38	0	892338176	39	4275
2026-01-24 01:07:40.42	38.76	24.77	-33.7	-35.3	23.3	0.00e+00	0	38	0	897581056	39	4236
2026-01-24 01:07:41.56	38.93	24.92	-33.7	-35.3	23.3	0.00e+00	0	38	0	903872512	39	4228
2026-01-24 01:07:42.41	39.06	25.03	-33.7	-35.3	23.4	0.00e+00	0	38	0	908066816	39	4233
2026-01-24 01:07:43.55	39.23	25.19	-33.7	-35.3	23.4	0.00e+00	0	38	0	914358272	39	4219
2026-01-24 01:07:44.40	39.37	25.31	-33.8	-35.4	23.3	0.00e+00	0	38	0	919601152	39	4263
2026-01-24 01:07:45.54	39.54	25.46	-33.6	-35.3	23.4	0.00e+00	0	38	0	925892608	39	4195
2026-01-24 01:07:46.39	39.68	25.58	-33.7	-35.3	23.3	0.00e+00	0	38	0	931135488	39	4241
2026-01-24 01:07:47.53	39.86	25.74	-33.6	-35.3	23.4	0.00e+00	0	38	0	937426944	39	4194
2026-01-24 01:07:48.38	40.00	25.85	-33.5	-35.1	23.5	0.00e+00	0	38	0	941621248	39	4142
2026-01-24 01:07:49.51	40.18	26.01	-33.5	-35.2	23.5	0.00e+00	0	38	0	947912704	39	4155
2026-01-24 01:07:50.37	40.32	26.13	-33.4	-35.0	23.6	0.00e+00	0	38	0	953155584	38	4321
2026-01-24 01:07:51.50	40.50	26.29	-33.4	-35.1	23.6	0.00e+00	0	38	0	959447040	38	4342
2026-01-24 01:07:52.36	40.65	26.41	-33.4	-35.0	23.7	0.00e+00	0	38	0	964689920	38	4302
2026-01-24 01:07:53.49	40.84	26.57	-33.4	-35.0	23.6	0.00e+00	0	38	0	970981376	38	4337
2026-01-24 01:07:54.35	40.98	26.69	-33.3	-34.9	23.7	0.00e+00	0	37	0	975175680	38	4289
2026-01-24 01:07:55.51	41.18	26.86	-33.2	-34.9	23.8	0.00e+00	0	38	0	982515712	38	4246
2026-01-24 01:07:56.37	41.33	26.98	-33.2	-34.8	23.8	0.00e+00	0	38	0	986710016	38	4223
2026-01-24 01:07:57.50	41.52	27.14	-33.2	-34.9	23.8	0.00e+00	0	38	0	993001472	38	4246
2026-01-24 01:07:58.36	41.67	27.26	-33.3	-34.9	23.7	0.00e+00	0	38	0	998244352	38	4287
2026-01-24 01:07:59.62	41.89	27.45	-33.3	-34.9	23.7	0.00e+00	0	38	0	1005584384	38	4286
2026-01-24 01:08:00.39	42.03	27.56	-33.4	-35.0	23.7	0.00e+00	0	38	0	1009778688	38	4306
2026-01-24 01:08:01.67	42.26	27.74	-33.5	-35.1	23.6	0.00e+00	0	38	0	1017118720	38	4377
2026-01-24 01:08:02.40	42.39	27.85	-33.5	-35.1	23.5	0.00e+00	0	38	0	1020264448	38	4385
2026-01-24 01:08:03.68	42.63	28.04	-33.4	-35.0	23.7	0.00e+00	0	38	0	1027604480	38	4301
2026-01-24 01:08:04.41	42.76	28.14	-33.4	-35.0	23.6	0.00e+00	0	38	0	1031798784	38	4312
2026-01-24 01:08:05.69	43.00	28.33	-33.6	-35.2	23.5	0.00e+00	0	38	0	1039138816	38	4411
2026-01-24 01:08:06.40	43.13	28.43	-33.5	-35.1	23.6	0.00e+00	0	38	0	1043333120	38	4360
2026-01-24 01:08:07.68	43.38	28.62	-33.4	-35.0	23.6	0.00e+00	0	38	0	1050673152	38	4339
2026-01-24 01:08:08.39	43.51	28.73	-33.4	-35.0	23.5	0.00e+00	0	38	0	1054867456	38	4314
2026-01-24 01:08:09.67	43.76	28.92	-33.3	-34.9	23.7	0.00e+00	0	38	0	1062207488	38	4291
2026-01-24 01:08:10.60	43.94	29.06	-33.2	-34.8	23.8	0.00e+00	0	38	0	1066401792	38	4220
2026-01-24 01:08:11.86	44.19	29.25	-33.2	-34.8	23.9	0.00e+00	0	38	0	1073741824	38	4206
2026-01-24 01:08:12.68	44.35	29.37	-33.2	-34.9	23.8	0.00e+00	0	38	0	1078984704	38	4244
2026-01-24 01:08:13.81	44.58	29.54	-33.4	-35.0	23.6	0.00e+00	0	38	0	1085276160	38	4320
2026-01-24 01:08:14.79	44.78	29.69	-33.5	-35.1	23.5	0.00e+00	0	38	0	1090519040	38	4391
2026-01-24 01:08:15.96	45.01	29.87	-33.6	-35.3	23.4	0.00e+00	0	38	0	1096810496	38	4456
2026-01-24 01:08:16.82	45.19	30.00	-33.7	-35.3	23.4	0.00e+00	0	38	0	1102053376	38	4467
2026-01-24 01:08:17.95	45.43	30.17	-33.7	-35.3	23.4	0.00e+00	0	38	0	1108344832	38	4468
2026-01-24 01:08:18.80	45.61	30.30	-33.6	-35.3	23.4	0.00e+00	0	38	0	1112539136	38	4453
2026-01-24 01:08:19.94	45.85	30.47	-33.4	-35.0	23.7	0.00e+00	0	38	0	1119879168	38	4298
2026-01-24 01:08:20.79	46.03	30.60	-33.3	-34.9	23.8	0.00e+00	0	38	0	1124073472	38	4252
2026-01-24 01:08:21.93	46.28	30.78	-33.2	-34.9	23.1	0.00e+00	0	38	0	1130364928	38	4282
2026-01-24 01:08:22.78	46.46	30.91	-33.1	-34.8	23.2	0.00e+00	0	38	0	1135607808	38	4240
2026-01-24 01:08:23.92	46.71	31.09	-33.1	-34.8	23.2	0.00e+00	0	38	0	1141899264	38	4241
2026-01-24 01:08:24.77	46.90	31.22	-33.0	-34.7	23.3	0.00e+00	0	38	0	1147142144	38	4193
2026-01-24 01:08:25.90	47.15	31.39	-32.9	-34.6	23.3	0.00e+00	0	38	0	1152385024	37	4368
2026-01-24 01:08:26.76	47.35	31.53	-33.0	-34.7	23.3	0.00e+00	0	38	0	1157627904	37	4402
2026-01-24 01:08:27.99	47.63	31.72	-33.1	-34.8	23.1	0.00e+00	0	38	0	1164967936	37	4473
2026-01-24 01:08:28.84	47.83	31.85	-33.2	-34.9	23.1	0.00e+00	0	38	0	1169162240	37	4502
2026-01-24 01:08:30.07	48.11	32.05	-33.2	-34.9	23.1	0.00e+00	0	38	0	1176502272	37	4543
2026-01-24 01:08:30.92	48.31	32.18	-33.3	-35.0	23.0	0.00e+00	0	38	0	1181745152	37	4560
2026-01-24 01:08:32.12	48.60	32.37	-33.3	-35.0	23.0	0.00e+00	0	38	0	1188036608	37	4598
2026-01-24 01:08:32.98	48.81	32.50	-33.0	-34.7	23.2	0.00e+00	0	38	0	1193279488	37	4438
2026-01-24 01:08:34.11	49.08	32.68	-32.9	-34.6	23.4	0.00e+00	0	38	0	1199570944	37	4350
2026-01-24 01:08:34.97	49.29	32.82	-32.8	-34.6	23.4	0.00e+00	0	38	0	1203765248	37	4343
2026-01-24 01:08:36.11	49.57	33.00	-32.8	-34.5	23.4	0.00e+00	0	38	0	1210056704	37	4321
2026-01-24 01:08:36.96	49.78	33.14	-32.9	-34.6	23.3	0.00e+00	0	38	0	1215299584	37	4379
2026-01-24 01:08:38.10	50.07	33.32	-32.9	-34.6	23.3	0.00e+00	0	38	0	1221591040	37	4383
2026-01-24 01:08:38.95	50.29	33.45	-33.0	-34.7	23.3	0.00e+00	0	38	0	1225785344	37	4421
2026-01-24 01:08:40.09	50.58	33.63	-33.0	-34.8	23.2	0.00e+00	0	38	0	1233125376	37	4446
2026-01-24 01:08:40.94	50.80	33.77	-33.1	-34.8	23.1	0.00e+00	0	38	0	1237319680	37	4489
2026-01-24 01:08:42.08	51.10	33.95	-33.2	-34.9	23.1	0.00e+00	0	38	0	1243611136	37	4527
2026-01-24 01:08:42.93	51.32	34.09	-33.2	-34.9	23.1	0.00e+00	0	38	0	1248854016	37	4515
2026-01-24 01:08:44.06	51.63	34.27	-33.0	-34.7	23.2	0.00e+00	0	38	0	1255145472	37	4427
2026-01-24 01:08:44.92	51.86	34.41	-32.9	-34.6	23.4	0.00e+00	0	38	0	1260388352	37	4371
2026-01-24 01:08:46.06	52.17	34.59	-32.9	-34.7	23.3	0.00e+00	0	38	0	1266679808	37	4394
2026-01-24 01:08:46.91	52.40	34.73	-33.0	-34.7	23.3	0.00e+00	0	38	0	1270874112	37	4422
2026-01-24 01:08:48.04	52.72	34.91	-33.0	-34.7	23.2	0.00e+00	0	38	0	1277165568	37	4436
2026-01-24 01:08:48.90	52.96	35.05	-32.9	-34.7	23.3	0.00e+00	0	38	0	1282408448	37	4399
2026-01-24 01:08:50.03	53.28	35.23	-33.0	-34.7	23.3	0.00e+00	0	38	0	1288699904	37	4413
2026-01-24 01:08:50.89	53.52	35.37	-33.0	-34.7	23.2	0.00e+00	0	38	0	1293942784	37	4427
2026-01-24 01:08:52.02	53.85	35.55	-32.9	-34.6	23.3	0.00e+00	0	38	0	1300234240	37	4361
2026-01-24 01:08:52.87	54.09	35.69	-32.8	-34.5	23.4	0.00e+00	0	38	0	1304428544	37	4323
2026-01-24 01:08:54.01	54.43	35.87	-32.7	-34.4	23.5	0.00e+00	0	38	0	1311768576	37	4260
2026-01-24 01:08:54.86	54.68	36.01	-32.7	-34.4	23.5	0.00e+00	0	38	0	1315962880	37	4282
2026-01-24 01:08:56.00	55.02	36.19	-32.7	-34.4	23.5	0.00e+00	0	38	0	1322254336	37	4280
2026-01-24 01:08:56.86	55.28	36.33	-33.0	-34.7	23.3	0.00e+00	0	38	0	1327497216	37	4404
2026-01-24 01:08:57.99	55.63	36.51	-33.0	-34.8	23.2	0.00e+00	0	38	0	1333788672	37	4453
2026-01-24 01:08:58.85	55.90	36.65	-33.0	-34.7	23.2	0.00e+00	0	38	0	1337982976	37	4414
2026-01-24 01:09:00.02	56.26	36.84	-33.0	-34.7	23.3	0.00e+00	0	38	0	1345323008	37	4406
2026-01-24 01:09:00.87	56.53	36.98	-32.8	-34.5	23.5	0.00e+00	0	38	0	1349517312	37	4294
2026-01-24 01:09:02.01	56.89	37.16	-32.5	-34.2	23.7	0.00e+00	0	38	0	1355808768	37	4163
2026-01-24 01:09:02.86	57.16	37.30	-32.5	-34.1	23.8	0.00e+00	0	38	0	1361051648	37	4145
2026-01-24 01:09:04.00	57.53	37.48	-32.5	-34.1	23.8	0.00e+00	0	38	0	1367343104	36	4375
2026-01-24 01:09:04.85	57.81	37.61	-32.5	-34.2	23.8	0.00e+00	0	38	0	1371537408	36	4415
2026-01-24 01:09:05.98	58.18	37.80	-32.7	-34.4	23.6	0.00e+00	0	38	0	1378877440	36	4504
2026-01-24 01:09:06.84	58.47	37.93	-32.8	-34.5	23.5	0.00e+00	0	38	0	1383071744	36	4560
2026-01-24 01:09:07.97	58.85	38.11	-33.0	-34.7	23.3	0.00e+00	0	38	0	1389363200	36	4680
2026-01-24 01:09:08.83	59.14	38.25	-33.0	-34.8	23.2	0.00e+00	0	38	0	1394606080	36	4712
2026-01-24 01:09:09.97	59.54	38.43	-32.9	-34.6	23.4	0.00e+00	0	38	0	1400897536	36	4623
2026-01-24 01:09:10.82	59.83	38.56	-33.0	-34.7	23.4	0.00e+00	0	38	0	1406140416	36	4658
2026-01-24 01:09:11.96	60.23	38.74	-32.8	-34.5	23.5	0.00e+00	0	38	0	1412431872	36	4576
2026-01-24 01:09:12.81	60.53	38.88	-32.9	-34.6	23.4	0.00e+00	0	38	0	1416626176	36	4605
2026-01-24 01:09:13.94	60.93	39.05	-32.8	-34.5	23.5	0.00e+00	0	38	0	1422917632	36	4558
2026-01-24 01:09:14.79	61.24	39.19	-32.9	-34.6	23.3	0.00e+00	0	38	0	1428160512	36	4634
2026-01-24 01:09:15.93	61.65	39.36	-33.0	-34.7	23.3	0.00e+00	0	38	0	1434451968	36	4673
2026-01-24 01:09:16.78	61.96	39.49	-33.0	-34.7	23.3	0.00e+00	0	38	0	1439694848	36	4675
2026-01-24 01:09:18.08	62.45	39.70	-32.9	-34.6	23.3	0.00e+00	0	38	0	1447034880	36	4645
2026-01-24 01:09:18.78	62.71	39.80	-32.8	-34.5	23.4	0.00e+00	0	38	0	1450180608	36	4598
2026-01-24 01:09:20.07	63.20	40.00	-32.9	-34.6	23.4	0.00e+00	0	38	0	1457520640	36	4610
2026-01-24 01:09:20.78	63.47	40.11	-32.8	-34.5	23.5	0.00e+00	0	38	0	1461714944	36	4596
2026-01-24 01:09:22.07	63.96	40.30	-32.9	-34.7	23.4	0.00e+00	0	38	0	1469054976	36	4653
2026-01-24 01:09:22.78	64.24	40.41	-32.9	-34.6	23.4	0.00e+00	0	38	0	1473249280	36	4615
2026-01-24 01:09:24.06	64.74	40.60	-32.8	-34.5	23.5	0.00e+00	0	38	0	1479540736	36	4586
2026-01-24 01:09:24.78	65.02	40.71	-32.8	-34.5	23.5	0.00e+00	0	38	0	1483735040	36	4596
2026-01-24 01:09:26.06	65.54	40.90	-32.8	-34.5	23.5	0.00e+00	0	38	0	1491075072	36	4586
2026-01-24 01:09:26.77	65.82	41.00	-32.9	-34.6	23.4	0.00e+00	0	38	0	1495269376	36	4601
2026-01-24 01:09:28.05	66.34	41.19	-32.9	-34.6	23.4	0.00e+00	0	38	0	1502609408	36	4611
2026-01-24 01:09:28.76	66.63	41.29	-33.0	-34.6	23.4	0.00e+00	0	38	0	1506803712	36	4651
2026-01-24 01:09:30.04	67.16	41.48	-32.8	-34.5	23.5	0.00e+00	0	38	0	1514143744	36	4577
2026-01-24 01:09:30.77	67.47	41.58	-32.8	-34.5	23.5	0.00e+00	0	38	0	1518338048	36	4575
2026-01-24 01:09:32.04	68.00	41.76	-32.9	-34.6	23.4	0.00e+00	0	38	0	1524629504	36	4600
2026-01-24 01:09:32.75	68.30	41.86	-32.9	-34.5	23.4	0.00e+00	0	38	0	1528823808	36	4598
2026-01-24 01:09:34.03	68.85	42.04	-33.0	-34.7	23.3	0.00e+00	0	38	0	1536163840	36	4694
2026-01-24 01:09:34.76	69.17	42.14	-33.0	-34.7	23.2	0.00e+00	0	38	0	1540358144	36	4705
2026-01-24 01:09:36.04	69.72	42.32	-33.1	-34.8	23.2	0.00e+00	0	38	0	1547698176	36	4747
2026-01-24 01:09:36.77	70.04	42.42	-33.0	-34.8	23.2	0.00e+00	0	38	0	1551892480	36	4707
2026-01-24 01:09:38.04	70.61	42.59	-33.0	-34.7	23.2	0.00e+00	0	38	0	1559232512	36	4678
2026-01-24 01:09:38.76	70.93	42.69	-33.0	-34.7	23.3	0.00e+00	0	38	0	1562378240	36	4673
2026-01-24 01:09:40.03	71.50	42.85	-33.0	-34.8	23.2	0.00e+00	0	38	0	1569718272	36	4708
2026-01-24 01:09:40.77	71.84	42.95	-33.0	-34.7	23.3	0.00e+00	0	38	0	1573912576	36	4660
2026-01-24 01:09:42.05	72.42	43.11	-33.2	-34.9	23.1	0.00e+00	0	38	0	1581252608	37	4525
2026-01-24 01:09:42.79	72.76	43.21	-33.4	-35.1	23.0	0.00e+00	0	38	0	1585446912	37	4631
2026-01-24 01:09:44.07	73.36	43.37	-33.4	-35.1	22.9	0.00e+00	0	38	0	1592786944	37	4645
2026-01-24 01:09:44.78	73.69	43.46	-33.4	-35.1	23.0	0.00e+00	0	38	0	1596981248	37	4632
2026-01-24 01:09:46.06	74.30	43.61	-33.3	-35.0	23.1	0.00e+00	0	38	0	1603272704	37	4589
2026-01-24 01:09:46.77	74.63	43.70	-33.3	-35.0	23.1	0.00e+00	0	38	0	1607467008	37	4561
2026-01-24 01:09:48.05	75.25	43.85	-33.0	-34.7	23.4	0.00e+00	0	38	0	1614807040	37	4392
2026-01-24 01:09:48.76	75.59	43.93	-32.8	-34.5	23.5	0.00e+00	0	38	0	1619001344	37	4332
2026-01-24 01:09:50.04	76.21	44.08	-32.8	-34.4	23.5	0.00e+00	0	38	0	1626341376	37	4287
2026-01-24 01:09:50.75	76.56	44.16	-33.0	-34.7	23.4	0.00e+00	0	38	0	1630535680	37	4393
2026-01-24 01:09:52.03	77.19	44.30	-33.2	-34.9	23.2	0.00e+00	0	38	0	1637875712	37	4519
2026-01-24 01:09:52.77	77.56	44.38	-33.2	-34.9	23.1	0.00e+00	0	38	0	1642070016	37	4533
2026-01-24 01:09:54.05	78.20	44.52	-33.2	-34.9	23.2	0.00e+00	0	38	0	1648361472	37	4507
2026-01-24 01:09:54.76	78.56	44.59	-33.3	-35.0	23.1	0.00e+00	0	37	0	1652555776	37	4572
2026-01-24 01:09:56.06	79.21	44.73	-33.2	-34.9	23.1	0.00e+00	0	38	0	1659895808	37	4545
2026-01-24 01:09:56.76	79.57	44.80	-33.1	-34.8	23.2	0.00e+00	0	38	0	1664090112	37	4485
2026-01-24 01:09:58.06	80.24	44.93	-33.1	-34.8	23.2	0.00e+00	0	38	0	1671430144	37	4478
2026-01-24 01:09:58.77	80.60	44.99	-33.1	-34.9	23.2	0.00e+00	0	38	0	1675624448	37	4494
2026-01-24 01:10:00.07	81.28	45.12	-33.1	-34.8	23.3	0.00e+00	0	38	0	1682964480	37	4444
2026-01-24 01:10:00.78	81.65	45.18	-33.1	-34.8	23.3	0.00e+00	0	38	0	1687158784	37	4447
2026-01-24 01:10:02.06	82.32	45.30	-33.2	-35.0	23.2	0.00e+00	0	38	0	1693450240	37	4552
2026-01-24 01:10:02.78	82.70	45.36	-33.3	-35.1	23.1	0.00e+00	0	38	0	1697644544	37	4605
2026-01-24 01:10:04.15	83.43	45.47	-33.2	-34.9	23.3	0.00e+00	0	38	0	1706033152	37	4502
2026-01-24 01:10:04.87	83.81	45.53	-33.1	-34.8	23.4	0.00e+00	0	38	0	1710227456	37	4464
2026-01-24 01:10:06.15	84.50	45.63	-33.0	-34.7	23.4	0.00e+00	0	38	0	1716518912	37	4433
2026-01-24 01:10:07.20	85.07	45.71	-33.0	-34.7	23.4	0.00e+00	0	38	0	1722810368	37	4415
2026-01-24 01:10:08.37	85.70	45.80	-33.1	-34.8	23.4	0.00e+00	0	38	0	1729101824	37	4458
2026-01-24 01:10:09.23	86.17	45.86	-33.2	-35.0	23.2	0.00e+00	0	38	0	1734344704	37	4546
2026-01-24 01:10:10.36	86.79	45.93	-33.4	-35.2	23.0	0.00e+00	0	38	0	1740636160	37	4666
2026-01-24 01:10:11.22	87.26	45.99	-33.4	-35.1	23.0	0.00e+00	0	38	0	1745879040	37	4632
2026-01-24 01:10:12.35	87.89	46.06	-33.3	-35.0	23.1	0.00e+00	0	38	0	1752170496	37	4595
2026-01-24 01:10:13.20	88.36	46.11	-33.4	-35.2	23.0	0.00e+00	0	38	0	1756364800	37	4661
2026-01-24 01:10:14.34	88.99	46.17	-33.1	-34.9	23.2	0.00e+00	0	38	0	1762656256	37	4497
2026-01-24 01:10:15.19	89.47	46.22	-33.0	-34.7	23.4	0.00e+00	0	38	0	1767899136	37	4441
2026-01-24 01:10:16.33	90.10	46.28	-33.2	-34.9	23.3	0.00e+00	0	38	0	1774190592	37	4498
2026-01-24 01:10:17.18	90.58	46.32	-33.3	-35.0	23.1	0.00e+00	0	38	0	1779433472	37	4596
2026-01-24 01:10:18.32	91.22	46.37	-33.2	-34.9	23.3	0.00e+00	0	38	0	1785724928	37	4494
2026-01-24 01:10:19.17	91.70	46.41	-33.1	-34.8	23.4	0.00e+00	0	38	0	1789919232	37	4465
2026-01-24 01:10:20.45	92.43	46.46	-33.0	-34.7	23.5	0.00e+00	0	38	0	1797259264	37	4397
2026-01-24 01:10:21.16	92.83	46.48	-33.2	-34.9	23.3	0.00e+00	0	38	0	1801453568	37	4516
2026-01-24 01:10:22.46	93.57	46.53	-33.2	-35.0	23.2	0.00e+00	0	38	0	1808793600	37	4556
2026-01-24 01:10:23.17	93.98	46.55	-33.3	-35.1	23.1	0.00e+00	0	38	0	1812987904	37	4606
2026-01-24 01:10:24.45	94.71	46.58	-33.3	-35.0	23.1	0.00e+00	0	38	0	1819279360	37	4567
2026-01-24 01:10:25.17	95.12	46.60	-33.3	-34.9	23.1	0.00e+00	0	38	0	1823473664	37	4545
2026-01-24 01:10:26.46	95.86	46.63	-33.4	-35.2	23.0	0.00e+00	0	38	0	1830813696	37	4652
2026-01-24 01:10:27.17	96.27	46.64	-33.3	-35.0	23.2	0.00e+00	0	38	0	1835008000	37	4574
2026-01-24 01:10:28.44	97.00	46.66	-33.1	-34.7	23.4	0.00e+00	0	38	0	1842348032	37	4441
2026-01-24 01:10:29.16	97.41	46.67	-33.1	-34.7	23.4	0.00e+00	0	38	0	1846542336	37	4433
2026-01-24 01:10:30.43	98.14	46.68	-33.1	-34.8	23.4	0.00e+00	0	38	0	1853882368	37	4446
2026-01-24 01:10:31.16	98.56	46.68	-33.2	-34.9	23.3	0.00e+00	0	38	0	1857028096	37	4516
2026-01-24 01:10:32.44	99.30	46.68	-33.3	-35.0	23.1	0.00e+00	0	38	0	1864368128	37	4591
2026-01-24 01:10:33.15	99.71	46.68	-33.3	-35.0	23.2	0.00e+00	0	38	0	1868562432	37	4583
2026-01-24 01:10:34.43	100.44	46.68	-33.3	-35.0	23.2	0.00e+00	0	38	0	1875902464	37	4570
2026-01-24 01:10:35.14	100.85	46.67	-33.3	-35.0	23.2	0.00e+00	0	38	0	1880096768	37	4565
2026-01-24 01:10:36.42	101.59	46.66	-33.2	-34.9	23.2	0.00e+00	0	38	0	1887436800	37	4543
2026-01-24 01:10:37.14	102.00	46.65	-33.3	-35.0	23.2	0.00e+00	0	38	0	1891631104	37	4554
2026-01-24 01:10:38.62	102.85	46.63	-33.3	-34.9	23.2	0.00e+00	0	38	0	1900019712	37	4545
2026-01-24 01:10:39.33	103.26	46.61	-33.2	-34.9	23.3	0.00e+00	0	38	0	1903165440	37	4500
2026-01-24 01:10:40.68	104.03	46.58	-33.4	-35.2	23.0	0.00e+00	0	38	0	1911554048	37	4662
2026-01-24 01:10:41.39	104.44	46.56	-33.3	-35.0	23.1	0.00e+00	0	38	0	1914699776	37	4595
2026-01-24 01:10:42.73	105.20	46.53	-33.2	-34.9	23.3	0.00e+00	0	38	0	1923088384	37	4505
2026-01-24 01:10:43.44	105.61	46.50	-33.3	-35.0	23.1	0.00e+00	0	38	0	1926234112	37	4577
2026-01-24 01:10:44.72	106.33	46.46	-33.3	-35.0	23.1	0.00e+00	0	38	0	1933574144	37	4584
2026-01-24 01:10:45.43	106.74	46.43	-33.3	-35.0	23.1	0.00e+00	0	38	0	1937768448	37	4573
2026-01-24 01:10:46.71	107.46	46.38	-33.2	-34.9	23.3	0.00e+00	0	38	0	1945108480	37	4496
2026-01-24 01:10:47.42	107.86	46.35	-33.1	-34.8	23.3	0.00e+00	0	38	0	1949302784	37	4483
2026-01-24 01:10:48.71	108.59	46.29	-33.2	-34.8	23.4	0.00e+00	0	38	0	1956642816	37	4493
2026-01-24 01:10:49.42	108.99	46.25	-33.1	-34.8	23.3	0.00e+00	0	38	0	1960837120	37	4475
2026-01-24 01:10:50.70	109.70	46.18	-33.1	-34.8	23.3	0.00e+00	0	38	0	1967128576	37	4469
2026-01-24 01:10:51.41	110.10	46.14	-33.2	-34.9	23.3	0.00e+00	0	38	0	1971322880	37	4506
2026-01-24 01:10:52.69	110.81	46.07	-33.3	-35.0	23.1	0.00e+00	0	38	0	1978662912	37	4593
2026-01-24 01:10:53.47	111.24	46.02	-33.4	-35.1	23.0	0.00e+00	0	38	0	1982857216	37	4646
2026-01-24 01:10:54.75	111.95	45.94	-33.5	-35.2	23.0	0.00e+00	0	38	0	1990197248	37	4680
2026-01-24 01:10:55.47	112.34	45.89	-33.5	-35.2	22.9	0.00e+00	0	38	0	1994391552	37	4696
2026-01-24 01:10:56.75	113.04	45.80	-33.5	-35.2	23.0	0.00e+00	0	38	0	2001731584	37	4670
2026-01-24 01:10:57.46	113.43	45.75	-33.5	-35.3	23.0	0.00e+00	0	38	0	2005925888	37	4710
2026-01-24 01:10:58.74	114.12	45.65	-33.2	-34.8	23.3	0.00e+00	0	38	0	2012217344	37	4489
2026-01-24 01:10:59.46	114.51	45.60	-33.1	-34.8	23.3	0.00e+00	0	38	0	2016411648	37	4477
2026-01-24 01:11:00.73	115.19	45.50	-33.3	-35.0	23.2	0.00e+00	0	38	0	2023751680	37	4556
2026-01-24 01:11:01.68	115.70	45.42	-33.5	-35.2	22.9	0.00e+00	0	38	0	2028994560	37	4688
2026-01-24 01:11:02.68	116.23	45.33	-33.5	-35.3	22.9	0.00e+00	0	38	0	2035286016	37	4713
2026-01-24 01:11:03.67	116.75	45.25	-33.5	-35.2	23.0	0.00e+00	0	38	0	2040528896	37	4673
2026-01-24 01:11:04.67	117.27	45.16	-33.6	-35.3	22.9	0.00e+00	0	38	0	2045771776	37	4732
2026-01-24 01:11:05.66	117.79	45.06	-33.5	-35.2	22.9	0.00e+00	0	38	0	2052063232	37	4702
2026-01-24 01:11:06.66	118.31	44.97	-33.4	-35.1	23.1	0.00e+00	0	38	0	2057306112	37	4610
2026-01-24 01:11:07.65	118.82	44.87	-33.4	-35.1	23.0	0.00e+00	0	38	0	2062548992	37	4630
2026-01-24 01:11:08.64	119.33	44.77	-33.5	-35.2	23.0	0.00e+00	0	38	0	2068840448	37	4668
2026-01-24 01:11:09.64	119.84	44.67	-33.3	-35.0	23.2	0.00e+00	0	38	0	2074083328	37	4572
2026-01-24 01:11:10.74	120.39	44.56	-33.4	-35.1	23.1	0.00e+00	0	38	0	2080374784	37	4603
2026-01-24 01:11:11.63	120.84	44.46	-33.3	-35.0	23.2	0.00e+00	0	38	0	2085617664	37	4558
2026-01-24 01:11:12.76	121.41	44.34	-33.2	-34.9	23.2	0.00e+00	0	38	0	2091909120	37	4535
2026-01-24 01:11:13.62	121.83	44.25	-33.3	-35.0	23.2	0.00e+00	0	38	0	2096103424	37	4571
2026-01-24 01:11:14.99	122.51	44.09	-33.5	-35.2	22.9	0.00e+00	0	38	0	2104492032	37	4690
2026-01-24 01:11:15.70	122.85	44.01	-33.8	-35.5	22.7	0.00e+00	0	38	0	2107637760	38	4586
2026-01-24 01:11:16.98	123.48	43.86	-33.8	-35.5	22.6	0.00e+00	0	38	0	2114977792	38	4592
2026-01-24 01:11:17.71	123.83	43.78	-33.7	-35.4	22.7	0.00e+00	0	38	0	2119172096	38	4525
2026-01-24 01:11:18.99	124.44	43.62	-33.6	-35.3	22.8	0.00e+00	0	38	0	2126512128	38	4476
2026-01-24 01:11:19.71	124.78	43.54	-33.5	-35.2	22.8	0.00e+00	0	38	0	2130706432	38	4434
2026-01-24 01:11:20.99	125.38	43.38	-33.5	-35.2	22.9	0.00e+00	0	38	0	2138046464	38	4422
2026-01-24 01:11:21.72	125.73	43.29	-33.4	-35.2	22.9	0.00e+00	0	38	0	2142240768	38	4399
2026-01-24 01:11:23.00	126.32	43.12	-33.2	-34.9	23.2	0.00e+00	0	38	0	2149580800	38	4254
2026-01-24 01:11:23.72	126.65	43.03	-33.1	-34.9	23.2	0.00e+00	0	38	0	2153775104	38	4245
2026-01-24 01:11:25.00	127.24	42.86	-33.1	-34.8	23.3	0.00e+00	0	38	0	2160066560	38	4201
2026-01-24 01:11:25.71	127.56	42.77	-33.2	-34.9	23.3	0.00e+00	0	38	0	2164260864	38	4257
2026-01-24 01:11:26.99	128.13	42.60	-33.3	-35.0	23.1	0.00e+00	0	38	0	2171600896	38	4318
2026-01-24 01:11:27.70	128.45	42.51	-33.3	-35.0	23.1	0.00e+00	0	38	0	2175795200	38	4324
2026-01-24 01:11:29.07	129.05	42.32	-33.3	-35.1	23.0	0.00e+00	0	38	0	2183135232	38	4341
2026-01-24 01:11:29.78	129.36	42.22	-33.3	-35.0	23.1	0.00e+00	0	38	0	2187329536	38	4300
2026-01-24 01:11:31.06	129.92	42.04	-33.2	-34.9	23.1	0.00e+00	0	38	0	2194669568	38	4279
2026-01-24 01:11:31.77	130.23	41.94	-33.1	-34.9	23.2	0.00e+00	0	38	0	2198863872	38	4246
2026-01-24 01:11:33.15	130.82	41.75	-33.1	-34.8	23.3	0.00e+00	0	38	0	2206203904	38	4198
2026-01-24 01:11:33.86	131.12	41.65	-33.2	-34.9	23.2	0.00e+00	0	38	0	2210398208	38	4259
2026-01-24 01:11:35.14	131.65	41.47	-33.2	-34.9	23.2	0.00e+00	0	38	0	2217738240	38	4274
2026-01-24 01:11:36.20	132.09	41.31	-33.0	-34.7	23.3	0.00e+00	0	38	0	2222981120	38	4173
2026-01-24 01:11:37.07	132.45	41.18	-33.0	-34.7	23.4	0.00e+00	0	38	0	2228224000	38	4178
2026-01-24 01:11:38.21	132.92	41.02	-32.9	-34.6	23.4	0.00e+00	0	37	0	2234515456	37	4381
2026-01-24 01:11:39.06	133.26	40.89	-32.9	-34.6	23.3	0.00e+00	0	38	0	2239758336	37	4382
2026-01-24 01:11:40.20	133.72	40.72	-33.1	-34.8	23.2	0.00e+00	0	38	0	2246049792	37	4467
2026-01-24 01:11:41.05	134.05	40.59	-33.2	-34.9	23.0	0.00e+00	0	38	0	2250244096	37	4525
2026-01-24 01:11:42.18	134.50	40.42	-33.2	-34.9	23.0	0.00e+00	0	38	0	2257584128	37	4524
2026-01-24 01:11:43.10	134.86	40.29	-33.2	-34.9	23.0	0.00e+00	0	38	0	2261778432	37	4525
2026-01-24 01:11:44.10	135.24	40.13	-33.2	-34.9	22.9	0.00e+00	0	38	0	2268069888	37	4522
2026-01-24 01:11:45.09	135.62	39.98	-33.2	-34.9	23.1	0.00e+00	0	38	0	2273312768	37	4503
2026-01-24 01:11:46.08	136.00	39.83	-33.1	-34.8	23.2	0.00e+00	0	38	0	2278555648	37	4459
2026-01-24 01:11:47.08	136.37	39.68	-32.9	-34.6	23.4	0.00e+00	0	38	0	2284847104	37	4382
2026-01-24 01:11:48.07	136.74	39.52	-32.9	-34.6	23.4	0.00e+00	0	38	0	2290089984	37	4356
2026-01-24 01:11:49.07	137.11	39.37	-32.9	-34.6	23.3	0.00e+00	0	38	0	2296381440	37	4385
2026-01-24 01:11:50.06	137.47	39.21	-33.0	-34.8	23.2	0.00e+00	0	38	0	2301624320	37	4450
2026-01-24 01:11:51.06	137.83	39.06	-33.0	-34.8	23.3	0.00e+00	0	38	0	2306867200	37	4446
2026-01-24 01:11:52.05	138.19	38.90	-32.9	-34.7	23.3	0.00e+00	0	38	0	2312110080	37	4393
2026-01-24 01:11:53.05	138.54	38.74	-33.0	-34.7	23.3	0.00e+00	0	38	0	2318401536	37	4404
2026-01-24 01:11:54.04	138.89	38.59	-32.9	-34.6	23.4	0.00e+00	0	37	0	2323644416	37	4380
2026-01-24 01:11:55.04	139.24	38.43	-32.8	-34.5	23.5	0.00e+00	0	38	0	2328887296	37	4324
2026-01-24 01:11:56.03	139.58	38.27	-32.8	-34.5	23.5	0.00e+00	0	38	0	2335178752	37	4294
2026-01-24 01:11:57.03	139.92	38.11	-32.9	-34.6	23.4	0.00e+00	0	38	0	2340421632	37	4365
2026-01-24 01:11:58.02	140.26	37.95	-33.0	-34.6	23.4	0.00e+00	0	38	0	2346713088	37	4388
2026-01-24 01:11:59.01	140.59	37.79	-32.9	-34.6	23.4	0.00e+00	0	38	0	2351955968	37	4386
2026-01-24 01:12:00.01	140.92	37.63	-33.0	-34.7	23.3	0.00e+00	0	38	0	2357198848	37	4399
2026-01-24 01:12:01.00	141.25	37.47	-33.0	-34.7	23.3	0.00e+00	0	37	0	2362441728	37	4412
2026-01-24 01:12:02.00	141.57	37.31	-33.0	-34.8	23.2	0.00e+00	0	38	0	2368733184	37	4445
2026-01-24 01:12:02.99	141.89	37.15	-32.8	-34.5	23.4	0.00e+00	0	38	0	2373976064	37	4328
2026-01-24 01:12:03.99	142.21	36.99	-32.8	-34.6	23.4	0.00e+00	0	38	0	2379218944	37	4344
2026-01-24 01:12:04.99	142.53	36.83	-33.0	-34.7	23.3	0.00e+00	0	38	0	2385510400	37	4409
2026-01-24 01:12:05.98	142.84	36.67	-33.0	-34.7	23.2	0.00e+00	0	38	0	2390753280	37	4435
2026-01-24 01:12:06.98	143.15	36.51	-33.1	-34.8	23.2	0.00e+00	0	38	0	2397044736	37	4457
2026-01-24 01:12:07.97	143.45	36.35	-33.0	-34.7	23.3	0.00e+00	0	38	0	2402287616	37	4416
2026-01-24 01:12:08.97	143.76	36.19	-33.0	-34.8	23.3	0.00e+00	0	38	0	2407530496	37	4447
2026-01-24 01:12:09.97	144.06	36.02	-32.9	-34.6	23.3	0.00e+00	0	38	0	2413821952	37	4373
2026-01-24 01:12:10.96	144.35	35.86	-32.9	-34.7	23.4	0.00e+00	0	38	0	2419064832	37	4393
2026-01-24 01:12:11.96	144.65	35.70	-32.9	-34.6	23.4	0.00e+00	0	38	0	2424307712	37	4374
2026-01-24 01:12:12.95	144.94	35.54	-32.8	-34.5	23.4	0.00e+00	0	38	0	2429550592	37	4320
2026-01-24 01:12:13.95	145.23	35.38	-32.8	-34.5	23.4	0.00e+00	0	38	0	2435842048	37	4333
2026-01-24 01:12:14.94	145.51	35.22	-32.9	-34.6	23.3	0.00e+00	0	37	0	2441084928	37	4391
2026-01-24 01:12:15.94	145.80	35.06	-33.1	-34.8	23.2	0.00e+00	0	38	0	2447376384	37	4454
2026-01-24 01:12:16.93	146.08	34.90	-33.1	-34.8	23.1	0.00e+00	0	38	0	2452619264	37	4471
2026-01-24 01:12:17.92	146.35	34.73	-33.1	-34.8	23.1	0.00e+00	0	38	0	2457862144	37	4461
2026-01-24 01:12:18.92	146.63	34.57	-33.0	-34.7	23.1	0.00e+00	0	38	0	2464153600	37	4431
2026-01-24 01:12:19.91	146.90	34.41	-33.0	-34.7	23.2	0.00e+00	0	38	0	2469396480	37	4438
2026-01-24 01:12:20.91	147.17	34.25	-33.0	-34.7	23.2	0.00e+00	0	38	0	2474639360	37	4419
2026-01-24 01:12:21.90	147.44	34.09	-32.9	-34.7	23.3	0.00e+00	0	38	0	2479882240	37	4393
2026-01-24 01:12:22.90	147.70	33.93	-32.9	-34.6	23.2	0.00e+00	0	38	0	2486173696	37	4388
2026-01-24 01:12:23.94	147.97	33.76	-32.9	-34.6	23.2	0.00e+00	0	38	0	2491416576	37	4378
2026-01-24 01:12:24.90	148.22	33.61	-32.9	-34.6	23.3	0.00e+00	0	38	0	2497708032	37	4348
2026-01-24 01:12:25.96	148.50	33.44	-33.0	-34.7	23.2	0.00e+00	0	38	0	2502950912	37	4405
2026-01-24 01:12:26.86	148.73	33.29	-33.0	-34.7	23.2	0.00e+00	0	38	0	2508193792	37	4434
2026-01-24 01:12:28.03	149.02	33.11	-33.0	-34.8	23.2	0.00e+00	0	38	0	2514485248	37	4442
2026-01-24 01:12:28.88	149.24	32.97	-33.1	-34.8	23.1	0.00e+00	0	38	0	2519728128	37	4492
2026-01-24 01:12:30.02	149.52	32.79	-33.1	-34.8	23.1	0.00e+00	0	38	0	2526019584	37	4472
2026-01-24 01:12:30.87	149.73	32.65	-33.2	-34.9	23.0	0.00e+00	0	38	0	2531262464	37	4523
2026-01-24 01:12:32.01	150.01	32.47	-33.3	-35.0	22.9	0.00e+00	0	38	0	2537553920	37	4596
2026-01-24 01:12:32.86	150.21	32.34	-33.3	-35.0	22.9	0.00e+00	0	38	0	2541748224	37	4578
2026-01-24 01:12:34.00	150.48	32.16	-33.3	-35.1	22.9	0.00e+00	0	38	0	2548039680	37	4613
2026-01-24 01:12:34.85	150.68	32.02	-33.4	-35.2	22.8	0.00e+00	0	38	0	2553282560	37	4658
2026-01-24 01:12:35.98	150.95	31.84	-33.2	-34.9	23.0	0.00e+00	0	38	0	2559574016	37	4529
2026-01-24 01:12:36.84	151.15	31.71	-33.2	-34.9	23.0	0.00e+00	0	38	0	2564816896	37	4534
2026-01-24 01:12:37.97	151.41	31.53	-33.3	-35.0	23.0	0.00e+00	0	38	0	2571108352	37	4568
2026-01-24 01:12:38.82	151.60	31.40	-33.3	-35.0	22.9	0.00e+00	0	38	0	2575302656	37	4595
2026-01-24 01:12:39.96	151.86	31.22	-33.3	-35.0	22.9	0.00e+00	0	38	0	2582642688	37	4598
2026-01-24 01:12:40.81	152.05	31.08	-33.4	-35.2	22.8	0.00e+00	0	38	0	2586836992	37	4665
2026-01-24 01:12:41.98	152.31	30.90	-33.3	-35.0	22.9	0.00e+00	0	38	0	2593128448	37	4597
2026-01-24 01:12:42.84	152.50	30.77	-33.3	-35.1	22.9	0.00e+00	0	38	0	2598371328	37	4601
2026-01-24 01:12:43.97	152.74	30.59	-33.2	-34.9	23.0	0.00e+00	0	38	0	2604662784	37	4509
2026-01-24 01:12:44.83	152.93	30.46	-33.2	-34.9	23.0	0.00e+00	0	38	0	2609905664	37	4534
2026-01-24 01:12:46.12	153.20	30.26	-33.3	-35.0	22.9	0.00e+00	0	38	0	2617245696	37	4580
2026-01-24 01:12:46.83	153.35	30.15	-33.2	-34.9	23.0	0.00e+00	0	38	0	2620391424	37	4516
2026-01-24 01:12:48.11	153.62	29.96	-33.1	-34.9	23.0	0.00e+00	0	38	0	2627731456	37	4495
2026-01-24 01:12:48.84	153.77	29.84	-33.2	-34.9	23.0	0.00e+00	0	38	0	2631925760	37	4530
2026-01-24 01:12:50.11	154.03	29.65	-33.3	-35.1	22.9	0.00e+00	0	38	0	2639265792	37	4617
2026-01-24 01:12:50.88	154.19	29.53	-33.4	-35.1	22.8	0.00e+00	0	37	0	2643460096	37	4635
2026-01-24 01:12:52.16	154.45	29.34	-33.5	-35.2	22.7	0.00e+00	0	38	0	2650800128	37	4699
2026-01-24 01:12:52.87	154.59	29.23	-33.5	-35.3	22.6	0.00e+00	0	38	0	2654994432	37	4744
2026-01-24 01:12:54.15	154.84	29.04	-33.5	-35.3	22.6	0.00e+00	0	38	0	2661285888	37	4759
2026-01-24 01:12:55.00	155.01	28.91	-33.5	-35.3	22.6	0.00e+00	0	38	0	2666528768	37	4741
2026-01-24 01:12:56.14	155.23	28.74	-33.5	-35.3	22.6	0.00e+00	0	38	0	2672820224	37	4742
2026-01-24 01:12:56.99	155.39	28.61	-33.6	-35.3	22.6	0.00e+00	0	38	0	2678063104	37	4750
2026-01-24 01:12:58.13	155.61	28.44	-33.3	-35.0	22.9	0.00e+00	0	38	0	2684354560	37	4594
2026-01-24 01:12:59.25	155.82	28.28	-33.2	-34.9	23.0	0.00e+00	0	38	0	2690646016	37	4512
2026-01-24 01:13:00.10	155.98	28.15	-33.2	-34.9	23.0	0.00e+00	0	38	0	2694840320	37	4541
2026-01-24 01:13:01.23	156.19	27.98	-33.2	-35.0	23.0	0.00e+00	0	38	0	2702180352	37	4551
2026-01-24 01:13:02.09	156.35	27.86	-33.2	-34.9	23.1	0.00e+00	0	38	0	2706374656	37	4505
2026-01-24 01:13:03.23	156.55	27.69	-33.1	-34.9	23.1	0.00e+00	0	38	0	2712666112	37	4507
2026-01-24 01:13:04.08	156.71	27.57	-33.1	-34.8	23.1	0.00e+00	0	38	0	2717908992	37	4478
2026-01-24 01:13:05.21	156.91	27.40	-33.2	-34.9	23.1	0.00e+00	0	38	0	2724200448	37	4498
2026-01-24 01:13:06.07	157.06	27.28	-33.2	-34.9	23.0	0.00e+00	0	38	0	2729443328	37	4537
2026-01-24 01:13:07.20	157.26	27.11	-33.2	-35.0	23.0	0.00e+00	0	38	0	2734686208	37	4556
2026-01-24 01:13:08.06	157.41	26.99	-33.3	-35.1	22.9	0.00e+00	0	38	0	2739929088	37	4600
2026-01-24 01:13:09.19	157.60	26.83	-33.3	-35.0	22.9	0.00e+00	0	38	0	2746220544	37	4591
2026-01-24 01:13:10.05	157.75	26.70	-33.4	-35.1	22.9	0.00e+00	0	38	0	2751463424	37	4638
2026-01-24 01:13:11.18	157.94	26.54	-33.4	-35.2	22.8	0.00e+00	0	38	0	2757754880	37	4671
2026-01-24 01:13:12.04	158.09	26.42	-33.5	-35.3	22.8	0.00e+00	0	38	0	2762997760	37	4715
2026-01-24 01:13:13.17	158.28	26.26	-33.6	-35.3	22.7	0.00e+00	0	38	0	2769289216	37	4750
2026-01-24 01:13:14.02	158.42	26.14	-33.6	-35.3	22.7	0.00e+00	0	38	0	2773483520	37	4745
2026-01-24 01:13:15.16	158.60	25.98	-33.6	-35.3	22.7	0.00e+00	0	38	0	2779774976	37	4747
2026-01-24 01:13:16.02	158.74	25.86	-33.5	-35.3	22.7	0.00e+00	0	38	0	2785017856	37	4706
2026-01-24 01:13:17.15	158.93	25.70	-33.6	-35.4	22.6	0.00e+00	0	38	0	2791309312	37	4765
2026-01-24 01:13:18.24	159.10	25.55	-33.6	-35.3	22.7	0.00e+00	0	38	0	2797600768	37	4744
2026-01-24 01:13:19.10	159.24	25.43	-33.6	-35.3	22.7	0.00e+00	0	38	0	2801795072	37	4735
2026-01-24 01:13:20.58	159.47	25.23	-33.5	-35.2	22.7	0.00e+00	0	38	0	2810183680	37	4699
2026-01-24 01:13:21.29	159.58	25.13	-33.5	-35.2	22.8	0.00e+00	0	38	0	2814377984	37	4688
2026-01-24 01:13:22.57	159.78	24.95	-33.5	-35.3	22.8	0.00e+00	0	38	0	2821718016	37	4707
2026-01-24 01:13:23.30	159.89	24.85	-33.5	-35.2	22.8	0.00e+00	0	37	0	2825912320	37	4683
2026-01-24 01:13:24.58	160.08	24.68	-33.5	-35.3	22.8	0.00e+00	0	38	0	2833252352	37	4706
2026-01-24 01:13:25.30	160.19	24.58	-33.5	-35.2	22.8	0.00e+00	0	38	0	2837446656	37	4671
2026-01-24 01:13:26.58	160.38	24.41	-33.6	-35.3	22.7	0.00e+00	0	38	0	2844786688	37	4730
2026-01-24 01:13:27.32	160.49	24.31	-33.6	-35.3	22.7	0.00e+00	0	38	0	2848980992	37	4745
2026-01-24 01:13:28.60	160.68	24.14	-33.7	-35.4	22.6	0.00e+00	0	38	0	2855272448	38	4535
2026-01-24 01:13:29.50	160.81	24.02	-33.7	-35.5	22.6	0.00e+00	0	38	0	2860515328	38	4551
2026-01-24 01:13:30.53	160.95	23.88	-33.7	-35.4	22.6	0.00e+00	0	38	0	2866806784	38	4543
2026-01-24 01:13:31.52	161.10	23.75	-33.7	-35.5	22.6	0.00e+00	0	38	0	2872049664	38	4557
2026-01-24 01:13:32.51	161.24	23.62	-33.8	-35.6	22.5	0.00e+00	0	38	0	2877292544	38	4618
2026-01-24 01:13:33.50	161.37	23.49	-33.8	-35.6	22.5	0.00e+00	0	38	0	2883584000	38	4606
2026-01-24 01:13:34.50	161.51	23.36	-34.0	-35.7	22.3	0.00e+00	0	38	0	2888826880	38	4688
2026-01-24 01:13:35.49	161.65	23.23	-34.0	-35.7	22.4	0.00e+00	0	38	0	2894069760	38	4688
2026-01-24 01:13:36.49	161.79	23.10	-34.0	-35.7	22.3	0.00e+00	0	38	0	2900361216	38	4683
2026-01-24 01:13:37.48	161.92	22.97	-34.1	-35.8	22.2	0.00e+00	0	38	0	2905604096	38	4758
2026-01-24 01:13:38.48	162.06	22.84	-34.1	-35.9	22.2	0.00e+00	0	38	0	2910846976	38	4796
2026-01-24 01:13:39.47	162.19	22.71	-34.2	-36.0	22.1	0.00e+00	0	38	0	2917138432	39	4555
2026-01-24 01:13:40.47	162.32	22.59	-34.2	-36.0	22.1	0.00e+00	0	38	0	2922381312	39	4592
2026-01-24 01:13:41.46	162.45	22.46	-34.2	-36.0	22.1	0.00e+00	0	38	0	2927624192	39	4589
2026-01-24 01:13:42.46	162.58	22.33	-34.3	-36.1	22.0	0.00e+00	0	38	0	2933915648	39	4614
2026-01-24 01:13:43.56	162.73	22.19	-34.3	-36.1	22.0	0.00e+00	0	38	0	2940207104	39	4648
2026-01-24 01:13:44.42	162.84	22.08	-34.4	-36.3	21.9	0.00e+00	0	38	0	2944401408	39	4711
2026-01-24 01:13:45.55	162.98	21.94	-34.4	-36.2	21.9	0.00e+00	0	38	0	2950692864	39	4666
2026-01-24 01:13:46.41	163.09	21.83	-34.4	-36.2	21.9	0.00e+00	0	38	0	2955935744	39	4704
2026-01-24 01:13:47.54	163.23	21.69	-34.4	-36.1	21.9	0.00e+00	0	38	0	2962227200	39	4651
2026-01-24 01:13:48.40	163.34	21.59	-34.4	-36.1	22.0	0.00e+00	0	38	0	2967470080	39	4641
2026-01-24 01:13:49.53	163.48	21.45	-34.4	-36.1	21.9	0.00e+00	0	38	0	2973761536	39	4640
2026-01-24 01:13:50.39	163.58	21.34	-34.3	-36.1	22.0	0.00e+00	0	38	0	2977955840	39	4617
2026-01-24 01:13:51.52	163.72	21.20	-34.4	-36.1	21.9	0.00e+00	0	38	0	2984247296	39	4649
2026-01-24 01:13:52.37	163.82	21.10	-34.3	-36.1	22.0	0.00e+00	0	38	0	2989490176	39	4603
2026-01-24 01:13:53.51	163.96	20.96	-34.4	-36.2	19.7	0.00e+00	0	38	0	2995781632	39	4658
2026-01-24 01:13:54.36	164.06	20.86	-34.3	-36.1	22.0	0.00e+00	0	38	0	3001024512	39	4628
2026-01-24 01:13:55.50	164.20	20.72	-34.3	-36.1	22.0	0.00e+00	0	38	0	3007315968	39	4627
2026-01-24 01:13:56.35	164.30	20.62	-34.4	-36.2	21.9	0.00e+00	0	38	0	3011510272	39	4657
2026-01-24 01:13:57.49	164.43	20.48	-34.4	-36.2	21.8	0.00e+00	0	38	0	3017801728	39	4693
2026-01-24 01:13:58.34	164.53	20.38	-34.5	-36.3	21.8	0.00e+00	0	38	0	3023044608	39	4711
2026-01-24 01:13:59.48	164.66	20.24	-34.5	-36.3	21.7	0.00e+00	0	38	0	3029336064	39	4757
2026-01-24 01:14:00.33	164.75	20.14	-34.7	-36.5	21.6	0.00e+00	0	38	0	3034578944	39	4824
2026-01-24 01:14:01.46	164.88	20.01	-34.6	-36.4	21.7	0.00e+00	0	38	0	3040870400	39	4770
2026-01-24 01:14:02.32	164.98	19.91	-34.6	-36.4	21.7	0.00e+00	0	38	0	3045064704	39	4776
2026-01-24 01:14:03.45	165.10	19.77	-34.6	-36.5	21.6	0.00e+00	0	38	0	3051356160	39	4820
2026-01-24 01:14:04.31	165.20	19.67	-34.6	-36.4	21.6	0.00e+00	0	38	0	3056599040	40	4536
2026-01-24 01:14:05.44	165.32	19.54	-34.6	-36.4	21.7	0.00e+00	0	38	0	3062890496	40	4514
2026-01-24 01:14:06.29	165.42	19.44	-34.7	-36.4	21.6	0.00e+00	0	38	0	3068133376	40	4545
2026-01-24 01:14:07.43	165.54	19.31	-34.8	-36.6	21.5	0.00e+00	0	38	0	3074424832	40	4610
2026-01-24 01:14:08.28	165.63	19.21	-34.6	-36.5	21.6	0.00e+00	0	38	0	3078619136	40	4547
2026-01-24 01:14:09.42	165.75	19.08	-34.6	-36.4	21.6	0.00e+00	0	38	0	3084910592	40	4534
2026-01-24 01:14:10.28	165.84	18.98	-34.7	-36.5	21.6	0.00e+00	0	38	0	3090153472	40	4554
2026-01-24 01:14:11.41	165.96	18.85	-34.7	-36.5	21.6	0.00e+00	0	38	0	3096444928	40	4595
2026-01-24 01:14:12.26	166.05	18.76	-34.8	-36.6	21.5	0.00e+00	0	38	0	3101687808	40	4602
2026-01-24 01:14:13.40	166.17	18.63	-34.8	-36.6	21.5	0.00e+00	0	38	0	3107979264	40	4643
2026-01-24 01:14:14.32	166.26	18.53	-34.8	-36.6	21.5	0.00e+00	0	38	0	3113222144	40	4620
2026-01-24 01:14:15.48	166.38	18.40	-34.8	-36.6	21.4	0.00e+00	0	38	0	3119513600	40	4651
2026-01-24 01:14:16.37	166.47	18.30	-34.9	-36.7	21.4	0.00e+00	0	38	0	3124756480	40	4670
2026-01-24 01:14:17.51	166.58	18.17	-34.9	-36.7	21.4	0.00e+00	0	38	0	3131047936	40	4705
2026-01-24 01:14:18.42	166.68	18.07	-34.9	-36.7	21.4	0.00e+00	0	38	0	3136290816	40	4702
2026-01-24 01:14:19.42	166.77	17.96	-35.1	-36.9	21.3	0.00e+00	0	38	0	3141533696	40	4775
2026-01-24 01:14:20.41	166.87	17.85	-35.0	-36.9	21.3	0.00e+00	0	38	0	3146776576	40	4768
2026-01-24 01:14:21.41	166.97	17.74	-35.1	-36.9	21.2	0.00e+00	0	38	0	3153068032	40	4800
2026-01-24 01:14:22.40	167.07	17.63	-35.1	-36.9	21.2	0.00e+00	0	38	0	3158310912	40	4806
2026-01-24 01:14:23.40	167.16	17.52	-35.2	-37.0	21.2	0.00e+00	0	38	0	3163553792	40	4847
2026-01-24 01:14:24.39	167.26	17.42	-35.2	-37.0	21.2	0.00e+00	0	38	0	3169845248	41	4583
2026-01-24 01:14:25.39	167.35	17.31	-35.2	-37.0	21.2	0.00e+00	0	38	0	3175088128	41	4587
2026-01-24 01:14:26.39	167.45	17.20	-35.2	-37.0	21.2	0.00e+00	0	38	0	3180331008	41	4577
2026-01-24 01:14:27.38	167.54	17.09	-35.2	-37.0	21.1	0.00e+00	0	38	0	3186622464	41	4591
2026-01-24 01:14:28.38	167.63	16.99	-35.3	-37.1	21.1	0.00e+00	0	38	0	3191865344	41	4646
2026-01-24 01:14:29.37	167.72	16.88	-35.3	-37.2	21.0	0.00e+00	0	38	0	3197108224	41	4657
2026-01-24 01:14:30.37	167.82	16.78	-35.2	-37.1	21.1	0.00e+00	0	38	0	3203399680	41	4614
2026-01-24 01:14:31.36	167.91	16.67	-35.3	-37.2	21.0	0.00e+00	0	38	0	3208642560	41	4655
2026-01-24 01:14:32.35	168.00	16.57	-35.3	-37.2	21.0	0.00e+00	0	38	0	3213885440	41	4663
2026-01-24 01:14:33.35	168.09	16.46	-35.4	-37.3	20.9	0.00e+00	0	38	0	3220176896	41	4709
2026-01-24 01:14:34.34	168.18	16.36	-35.4	-37.3	20.9	0.00e+00	0	38	0	3225419776	41	4712
2026-01-24 01:14:35.34	168.26	16.26	-35.5	-37.4	20.8	0.00e+00	0	38	0	3230662656	41	4766
2026-01-24 01:14:36.33	168.35	16.15	-35.6	-37.4	20.7	0.00e+00	0	38	0	3236954112	41	4806
2026-01-24 01:14:37.33	168.44	16.05	-35.6	-37.5	20.7	0.00e+00	0	38	0	3242196992	41	4826
2026-01-24 01:14:38.32	168.53	15.95	-35.7	-37.6	20.6	0.00e+00	0	38	0	3247439872	42	4621
2026-01-24 01:14:39.31	168.61	15.85	-35.7	-37.6	20.6	0.00e+00	0	38	0	3253731328	42	4640
2026-01-24 01:14:40.31	168.70	15.74	-35.7	-37.6	20.6	0.00e+00	0	38	0	3258974208	42	4649
2026-01-24 01:14:41.30	168.78	15.64	-35.7	-37.6	20.6	0.00e+00	0	38	0	3264217088	42	4640
2026-01-24 01:14:42.30	168.87	15.54	-35.8	-37.7	20.5	0.00e+00	0	38	0	3270508544	42	4663
2026-01-24 01:14:43.30	168.95	15.44	-35.8	-37.7	20.5	0.00e+00	0	38	0	3275751424	42	4695
2026-01-24 01:14:44.29	169.03	15.34	-35.8	-37.7	20.5	0.00e+00	0	38	0	3280994304	42	4684
2026-01-24 01:14:45.29	169.12	15.24	-35.8	-37.8	19.4	0.00e+00	0	38	0	3287285760	42	4711
2026-01-24 01:14:46.28	169.20	15.14	-35.9	-37.9	20.3	0.00e+00	0	38	0	3292528640	42	4778
2026-01-24 01:14:47.27	169.28	15.04	-36.0	-37.9	20.3	0.00e+00	0	38	0	3297771520	42	4807
2026-01-24 01:14:48.27	169.36	14.94	-35.9	-37.8	20.3	0.00e+00	0	38	0	3304062976	42	4743
2026-01-24 01:14:49.26	169.44	14.85	-36.0	-37.9	20.3	0.00e+00	0	38	0	3309305856	42	4798
2026-01-24 01:14:50.26	169.52	14.75	-35.9	-37.9	20.3	0.00e+00	0	38	0	3314548736	42	4776
2026-01-24 01:14:51.25	169.60	14.65	-35.9	-37.9	20.3	0.00e+00	0	38	0	3320840192	42	4772
2026-01-24 01:14:52.25	169.68	14.55	-36.0	-37.9	20.3	0.00e+00	0	38	0	3326083072	42	4801
2026-01-24 01:14:53.24	169.76	14.46	-36.1	-38.1	20.1	0.00e+00	0	38	0	3331325952	42	4876
2026-01-24 01:14:54.24	169.84	14.36	-36.1	-38.0	20.1	0.00e+00	0	38	0	3337617408	42	4858
2026-01-24 01:14:55.23	169.92	14.26	-36.1	-38.0	20.1	0.00e+00	0	38	0	3342860288	42	4854
2026-01-24 01:14:56.23	170.00	14.17	-36.1	-38.0	20.2	0.00e+00	0	38	0	3348103168	42	4862
2026-01-24 01:14:57.22	170.07	14.07	-36.2	-38.1	20.0	0.00e+00	0	38	0	3354394624	43	4647
2026-01-24 01:14:58.22	170.15	13.98	-36.2	-38.2	20.0	0.00e+00	0	38	0	3359637504	43	4653
2026-01-24 01:14:59.21	170.22	13.88	-36.2	-38.1	20.1	0.00e+00	0	38	0	3365928960	43	4635
2026-01-24 01:15:00.21	170.30	13.79	-36.2	-38.2	20.0	0.00e+00	0	38	0	3371171840	43	4652
2026-01-24 01:15:01.25	170.38	13.69	-36.2	-38.2	20.0	0.00e+00	0	38	0	3376414720	43	4664
2026-01-24 01:15:02.25	170.45	13.59	-36.3	-38.3	19.9	0.00e+00	0	38	0	3382706176	43	4719
2026-01-24 01:15:03.25	170.53	13.50	-36.3	-38.2	20.0	0.00e+00	0	38	0	3387949056	43	4683
2026-01-24 01:15:04.24	170.60	13.41	-36.3	-38.2	19.9	0.00e+00	0	38	0	3393191936	43	4695
2026-01-24 01:15:05.24	170.67	13.31	-36.4	-38.4	19.8	0.00e+00	0	38	0	3399483392	43	4769
2026-01-24 01:15:06.23	170.75	13.22	-36.4	-38.3	19.9	0.00e+00	0	38	0	3404726272	43	4733
2026-01-24 01:15:07.23	170.82	13.13	-36.4	-38.4	19.8	0.00e+00	0	38	0	3409969152	43	4770
2026-01-24 01:15:08.22	170.89	13.04	-36.5	-38.4	19.8	0.00e+00	0	38	0	3416260608	43	4780
2026-01-24 01:15:09.22	170.96	12.94	-36.5	-38.4	19.8	0.00e+00	0	38	0	3421503488	43	4800
2026-01-24 01:15:10.21	171.03	12.85	-36.5	-38.4	19.8	0.00e+00	0	38	0	3426746368	43	4784
2026-01-24 01:15:11.20	171.10	12.76	-36.5	-38.5	19.2	0.00e+00	0	38	0	3433037824	43	4815
2026-01-24 01:15:12.19	171.17	12.67	-36.5	-38.5	19.7	0.00e+00	0	38	0	3438280704	43	4842
2026-01-24 01:15:13.55	171.27	12.55	-36.4	-38.4	19.8	0.00e+00	0	38	0	3445620736	43	4775
2026-01-24 01:15:14.26	171.32	12.48	-36.4	-38.4	19.8	6.02e-03	0	38	0	3449815040	43	4784
2026-01-24 01:15:15.54	171.41	12.37	-36.5	-38.4	19.8	0.00e+00	0	38	0	3457155072	43	4795
2026-01-24 01:15:16.27	171.46	12.30	-36.5	-38.5	19.7	0.00e+00	0	38	0	3461349376	43	4823
2026-01-24 01:15:17.54	171.54	12.19	-36.5	-38.4	19.8	0.00e+00	0	38	0	3468689408	43	4783
2026-01-24 01:15:18.25	171.59	12.12	-36.5	-38.5	19.7	0.00e+00	0	38	0	3471835136	43	4825
2026-01-24 01:15:19.53	171.68	12.01	-36.5	-38.5	19.7	0.00e+00	0	38	0	3479175168	43	4835
2026-01-24 01:15:20.26	171.73	11.94	-36.5	-38.5	19.7	0.00e+00	0	38	0	3483369472	43	4830
2026-01-24 01:15:21.54	171.81	11.83	-36.4	-38.4	19.8	0.00e+00	0	38	0	3490709504	43	4778
2026-01-24 01:15:22.25	171.86	11.77	-36.4	-38.4	19.8	0.00e+00	0	38	0	3494903808	43	4769
2026-01-24 01:15:23.53	171.95	11.66	-36.3	-38.4	19.8	0.00e+00	0	38	0	3502243840	43	4784
2026-01-24 01:15:24.25	171.99	11.59	-36.3	-38.5	19.7	0.00e+00	0	38	0	3506438144	43	4817
2026-01-24 01:15:25.53	172.08	11.48	-36.3	-38.4	17.4	0.00e+00	0	38	0	3513778176	43	4782
2026-01-24 01:15:26.24	172.12	11.42	-36.3	-38.4	19.8	0.00e+00	0	38	0	3516923904	43	4793
2026-01-24 01:15:27.52	172.21	11.31	-36.3	-38.5	19.7	0.00e+00	0	38	0	3524263936	43	4833
2026-01-24 01:15:28.23	172.25	11.25	-36.2	-38.4	19.7	0.00e+00	0	38	0	3528458240	43	4804
2026-01-24 01:15:29.51	172.33	11.13	-36.4	-38.6	19.6	0.00e+00	0	38	0	3535798272	43	4900
2026-01-24 01:15:30.24	172.38	11.07	-36.2	-38.4	19.7	0.00e+00	0	38	0	3539992576	43	4808
2026-01-24 01:15:31.52	172.46	10.96	-36.2	-38.4	19.7	4.45e-03	0	38	0	3547332608	43	4813
2026-01-24 01:15:32.24	172.51	10.90	-36.2	-38.5	19.7	0.00e+00	0	38	0	3551526912	43	4819
2026-01-24 01:15:33.52	172.59	10.79	-36.2	-38.6	19.6	0.00e+00	0	38	0	3558866944	43	4873
2026-01-24 01:15:34.24	172.63	10.73	-36.2	-38.5	19.5	0.00e+00	0	38	0	3562012672	43	4864
2026-01-24 01:15:35.52	172.71	10.62	-36.3	-38.6	19.6	0.00e+00	0	38	0	3569352704	43	4890
2026-01-24 01:15:36.24	172.75	10.56	-36.3	-38.6	19.5	0.00e+00	0	38	0	3573547008	43	4922
2026-01-24 01:15:37.52	172.83	10.45	-36.3	-38.6	19.5	0.00e+00	0	38	0	3580887040	43	4926
2026-01-24 01:15:38.28	172.88	10.39	-36.3	-38.6	19.5	0.00e+00	0	38	0	3585081344	43	4912
2026-01-24 01:15:39.56	172.96	10.28	-36.5	-38.8	19.4	0.00e+00	0	38	0	3592421376	43	5015
2026-01-24 01:15:40.29	173.00	10.22	-36.4	-38.7	19.4	5.05e-03	0	38	0	3596615680	43	4957
2026-01-24 01:15:41.56	173.08	10.12	-36.5	-38.8	19.3	0.00e+00	0	38	0	3603955712	43	4989
2026-01-24 01:15:42.27	173.12	10.06	-36.4	-38.7	19.4	0.00e+00	0	38	0	3607101440	43	4974
2026-01-24 01:15:43.55	173.19	9.95	-36.5	-38.8	19.3	0.00e+00	0	38	0	3614441472	43	5020
2026-01-24 01:15:44.28	173.24	9.89	-36.6	-38.9	19.3	0.00e+00	0	38	0	3618635776	43	5054
2026-01-24 01:15:45.56	173.31	9.78	-36.6	-38.8	19.3	0.00e+00	0	38	0	3625975808	43	5027
