passes_logs/2026/01/24/T1/T1__20260124_105525_FENGYUN_3D_rec.log

#Pass ID: 20260124_105525_FENGYUN 3D
#Satellite: FENGYUN 3D
#Configuration: FENGYUN 3D
#almurnet v.1.7.20251203
#Start time: 2026-01-24 10:55:26

#Version: 2.0.20230620
#Station: T1
#Location: 37.570604 lon 55.790049 lat
#TLE: 1 43010U 17072A   26023.60174628  .00000324  00000+0  17481-3 0  9994
#TLE: 2 43010  98.9958 355.5514 0002482  93.7422 266.4037 14.19699955424476

#Time	Az	El	Level	Level2	SNR	BER	BlckErr	Temp	State	Recorded	gain1	gain2
2026-01-24 10:55:26.99	126.56	5.12	-48.7	-60.6	3.8	8.48e-01	0	35	0	0	69	13856
2026-01-24 10:55:27.97	126.50	5.19	-48.7	-60.6	3.8	8.47e-01	0	35	104	0	69	13743
2026-01-24 10:55:28.97	126.45	5.26	-48.7	-60.6	3.8	8.46e-01	0	35	104	0	69	13806
2026-01-24 10:55:29.96	126.39	5.32	-48.7	-60.6	3.8	8.47e-01	0	35	104	0	69	13789
2026-01-24 10:55:30.95	126.34	5.39	-48.7	-60.5	3.8	8.47e-01	0	35	104	0	69	13726
2026-01-24 10:55:31.95	126.28	5.46	-48.7	-60.6	3.8	8.48e-01	0	35	104	0	69	13802
2026-01-24 10:55:32.94	126.23	5.53	-48.7	-60.6	3.8	8.48e-01	0	35	104	0	69	13745
2026-01-24 10:55:33.93	126.17	5.59	-48.7	-60.6	3.8	8.47e-01	0	35	104	0	69	13847
2026-01-24 10:55:34.93	126.12	5.66	-48.7	-60.6	3.8	8.47e-01	0	35	104	0	69	13810
2026-01-24 10:55:35.92	126.06	5.73	-48.7	-60.6	3.8	8.46e-01	0	35	104	0	69	13880
2026-01-24 10:55:36.91	126.00	5.80	-48.7	-60.7	3.8	8.47e-01	0	35	104	0	69	14018
2026-01-24 10:55:37.91	125.94	5.87	-48.7	-60.8	3.8	8.48e-01	0	35	104	0	69	14097
2026-01-24 10:55:38.90	125.89	5.94	-48.7	-60.8	3.8	8.46e-01	0	36	104	0	69	14129
2026-01-24 10:55:39.89	125.83	6.00	-48.7	-60.8	3.8	8.47e-01	0	36	104	0	69	14186
2026-01-24 10:55:40.89	125.77	6.07	-48.7	-60.8	3.8	8.48e-01	0	36	104	0	69	14110
2026-01-24 10:55:41.88	125.71	6.14	-48.7	-60.8	3.8	8.46e-01	0	35	104	0	69	14114
2026-01-24 10:55:42.87	125.66	6.21	-48.7	-60.7	3.8	8.46e-01	0	36	104	0	69	14000
2026-01-24 10:55:43.87	125.60	6.28	-48.7	-60.7	3.8	8.48e-01	0	36	104	0	69	13900
2026-01-24 10:55:44.86	125.54	6.35	-48.7	-60.5	3.8	8.47e-01	0	36	104	0	69	13717
2026-01-24 10:55:45.85	125.48	6.42	-48.7	-60.4	3.8	8.48e-01	0	36	104	0	69	13537
2026-01-24 10:55:46.84	125.42	6.49	-48.7	-60.3	3.8	8.47e-01	0	36	104	0	69	13338
2026-01-24 10:55:47.84	125.36	6.56	-48.6	-60.2	3.8	8.46e-01	0	36	104	0	69	13192
2026-01-24 10:55:48.83	125.30	6.63	-48.6	-60.2	3.8	8.47e-01	0	36	104	0	69	13131
2026-01-24 10:55:49.82	125.24	6.70	-48.6	-60.2	3.8	8.47e-01	0	36	104	0	69	13186
2026-01-24 10:55:50.82	125.18	6.77	-48.6	-60.3	3.8	8.47e-01	0	36	104	0	69	13351
2026-01-24 10:55:51.81	125.12	6.84	-48.7	-60.5	3.8	8.47e-01	0	36	104	0	69	13702
2026-01-24 10:55:52.80	125.06	6.91	-48.7	-60.7	3.8	8.46e-01	0	36	104	0	69	14001
2026-01-24 10:55:53.80	124.99	6.98	-48.7	-60.8	3.8	8.48e-01	0	36	104	0	69	14150
2026-01-24 10:55:54.79	124.93	7.06	-48.7	-60.7	3.8	8.46e-01	0	36	104	0	69	13999
2026-01-24 10:55:55.78	124.87	7.13	-48.7	-60.4	3.8	8.47e-01	0	36	104	0	69	13435
2026-01-24 10:55:56.78	124.81	7.20	-48.6	-59.8	3.8	8.48e-01	0	36	104	0	69	12552
2026-01-24 10:55:57.77	124.74	7.27	-48.5	-59.2	3.8	8.46e-01	0	36	104	0	69	11689
2026-01-24 10:55:58.76	124.68	7.34	-48.4	-58.5	3.9	8.48e-01	0	36	104	0	68	11501
2026-01-24 10:55:59.76	124.62	7.41	-48.4	-58.0	3.9	8.44e-01	0	36	104	0	68	10860
2026-01-24 10:56:00.75	124.55	7.49	-48.2	-57.3	4.2	8.40e-01	0	36	0	0	68	9988
2026-01-24 10:56:01.74	124.49	7.56	-48.1	-56.5	4.4	8.33e-01	0	36	0	0	68	9104
2026-01-24 10:56:02.73	124.42	7.63	-47.6	-55.0	5.0	8.00e-01	0	36	0	0	67	8088
2026-01-24 10:56:03.73	124.36	7.70	-47.1	-53.1	6.3	4.00e-01	0	36	0	2097152	66	6925
2026-01-24 10:56:04.72	124.29	7.78	-46.2	-51.0	8.3	1.15e-01	0	36	0	7340032	64	6080
2026-01-24 10:56:05.71	124.23	7.85	-45.3	-49.1	10.3	1.19e-02	0	36	0	13631488	62	5521
2026-01-24 10:56:06.70	124.16	7.92	-44.2	-47.4	12.1	1.11e-03	0	36	0	18874368	60	5078
2026-01-24 10:56:07.70	124.10	8.00	-43.0	-45.7	13.8	1.37e-05	0	36	0	24117248	58	4699
2026-01-24 10:56:08.69	124.03	8.07	-42.0	-44.5	15.0	1.10e-06	0	36	0	30408704	56	4583
2026-01-24 10:56:09.68	123.96	8.14	-41.0	-43.3	16.0	0.00e+00	0	36	0	35651584	54	4489
2026-01-24 10:56:10.68	123.89	8.22	-40.3	-42.6	16.8	0.00e+00	0	36	0	40894464	52	4603
2026-01-24 10:56:11.67	123.83	8.29	-40.0	-42.1	17.2	0.00e+00	0	36	0	46137344	51	4647
2026-01-24 10:56:12.66	123.76	8.37	-39.8	-41.9	17.4	0.00e+00	0	37	0	52428800	51	4527
2026-01-24 10:56:13.66	123.69	8.44	-39.8	-41.9	17.4	0.00e+00	0	36	0	57671680	51	4540
2026-01-24 10:56:14.65	123.62	8.51	-39.9	-42.1	17.3	0.00e+00	0	36	0	63963136	51	4622
2026-01-24 10:56:15.64	123.55	8.59	-40.4	-42.6	16.8	0.00e+00	0	37	0	69206016	51	4889
2026-01-24 10:56:16.64	123.48	8.66	-41.0	-43.3	16.0	0.00e+00	0	36	0	74448896	52	5027
2026-01-24 10:56:17.63	123.41	8.74	-41.7	-44.1	15.3	0.00e+00	0	36	0	79691776	53	5218
2026-01-24 10:56:18.62	123.34	8.82	-42.9	-45.7	13.9	3.40e-06	0	37	0	85983232	56	5235
2026-01-24 10:56:19.62	123.27	8.89	-44.1	-47.3	12.3	6.86e-05	0	36	0	91226112	58	5619
2026-01-24 10:56:20.61	123.20	8.97	-45.2	-49.1	10.4	2.72e-03	0	37	0	97517568	61	5813
2026-01-24 10:56:21.60	123.13	9.04	-46.4	-51.1	8.3	2.72e-02	0	36	0	102760448	63	6558
2026-01-24 10:56:22.60	123.06	9.12	-46.3	-51.0	9.2	3.51e-03	0	37	0	108003328	62	6839
2026-01-24 10:56:23.59	122.99	9.20	-45.6	-49.5	9.9	8.43e-01	0	37	104	109051904	63	5429
2026-01-24 10:56:24.58	122.91	9.27	-46.6	-51.7	7.7	1.37e-01	0	37	0	113246208	64	6641
2026-01-24 10:56:25.58	122.84	9.35	-44.6	-48.1	11.4	2.63e-01	0	37	0	117440512	61	5171
2026-01-24 10:56:26.58	122.77	9.43	-46.7	-52.1	7.6	1.48e-05	0	37	0	123731968	64	6913
2026-01-24 10:56:27.57	122.69	9.50	-46.6	-51.8	7.2	8.40e-01	0	37	104	123731968	65	6331
2026-01-24 10:56:28.57	122.62	9.58	-43.0	-45.8	13.9	1.10e-06	0	37	0	127926272	57	5026
2026-01-24 10:56:29.56	122.54	9.66	-42.7	-45.4	14.3	1.10e-06	0	37	0	133169152	56	5075
2026-01-24 10:56:30.56	122.47	9.74	-42.5	-45.2	14.5	0.00e+00	0	37	0	138412032	56	4932
2026-01-24 10:56:31.55	122.39	9.81	-41.6	-44.0	15.5	0.00e+00	0	37	0	144703488	55	4565
2026-01-24 10:56:32.55	122.32	9.89	-40.9	-43.1	16.3	0.00e+00	0	37	0	149946368	53	4641
2026-01-24 10:56:33.54	122.24	9.97	-40.4	-42.6	16.9	0.00e+00	0	37	0	156237824	52	4627
2026-01-24 10:56:34.54	122.16	10.05	-39.9	-42.1	17.5	0.00e+00	0	37	0	161480704	51	4600
2026-01-24 10:56:35.53	122.09	10.13	-39.5	-41.6	17.9	0.00e+00	0	37	0	166723584	51	4358
2026-01-24 10:56:36.52	122.01	10.21	-39.0	-41.1	18.4	0.00e+00	0	37	0	171966464	50	4350
2026-01-24 10:56:37.52	121.93	10.29	-38.8	-40.9	18.6	0.00e+00	0	37	0	178257920	49	4501
2026-01-24 10:56:38.51	121.85	10.36	-38.7	-40.7	18.8	0.00e+00	0	37	0	183500800	49	4421
2026-01-24 10:56:39.51	121.77	10.44	-38.8	-40.8	18.7	0.00e+00	0	37	0	188743680	49	4475
2026-01-24 10:56:40.50	121.69	10.52	-38.8	-40.8	18.6	0.00e+00	0	37	0	195035136	49	4487
2026-01-24 10:56:41.50	121.61	10.60	-38.6	-40.6	18.8	0.00e+00	0	37	0	200278016	49	4373
2026-01-24 10:56:42.50	121.53	10.69	-38.4	-40.4	19.0	0.00e+00	0	37	0	206569472	48	4508
2026-01-24 10:56:43.49	121.45	10.77	-38.3	-40.3	19.1	0.00e+00	0	37	0	211812352	48	4477
2026-01-24 10:56:44.49	121.37	10.85	-38.4	-40.3	19.1	0.00e+00	0	37	0	217055232	48	4493
2026-01-24 10:56:45.48	121.29	10.93	-38.3	-40.2	19.2	0.00e+00	0	37	0	222298112	48	4428
2026-01-24 10:56:46.47	121.21	11.01	-38.2	-40.2	19.3	0.00e+00	0	37	0	228589568	48	4396
2026-01-24 10:56:47.47	121.13	11.09	-38.3	-40.3	19.2	0.00e+00	0	37	0	233832448	48	4444
2026-01-24 10:56:48.46	121.04	11.17	-38.1	-40.1	19.3	0.00e+00	0	37	0	239075328	48	4353
2026-01-24 10:56:49.46	120.96	11.25	-38.0	-39.9	19.5	0.00e+00	0	37	0	245366784	48	4276
2026-01-24 10:56:50.45	120.87	11.33	-37.9	-39.8	19.4	0.00e+00	0	37	0	250609664	47	4464
2026-01-24 10:56:51.45	120.79	11.42	-37.9	-39.8	19.4	0.00e+00	0	37	0	256901120	47	4479
2026-01-24 10:56:52.44	120.71	11.50	-37.9	-39.9	19.3	0.00e+00	0	37	0	262144000	47	4516
2026-01-24 10:56:53.44	120.62	11.58	-37.8	-39.8	19.4	0.00e+00	0	37	0	267386880	47	4461
2026-01-24 10:56:54.43	120.53	11.66	-37.9	-39.9	19.3	0.00e+00	0	37	0	272629760	47	4502
2026-01-24 10:56:55.43	120.45	11.75	-37.9	-39.9	19.3	0.00e+00	0	37	0	278921216	47	4500
2026-01-24 10:56:56.42	120.36	11.83	-38.0	-40.0	19.2	0.00e+00	0	37	0	284164096	47	4555
2026-01-24 10:56:57.42	120.27	11.91	-37.9	-39.9	19.3	0.00e+00	0	37	0	289406976	47	4514
2026-01-24 10:56:58.41	120.18	12.00	-38.0	-40.0	19.3	0.00e+00	0	37	0	295698432	47	4550
2026-01-24 10:56:59.41	120.10	12.08	-38.0	-39.9	19.3	0.00e+00	0	37	0	300941312	47	4535
2026-01-24 10:57:00.40	120.01	12.17	-38.0	-40.0	19.2	0.00e+00	0	37	0	307232768	47	4569
2026-01-24 10:57:01.40	119.92	12.25	-38.1	-40.0	19.2	0.00e+00	0	37	0	312475648	47	4594
2026-01-24 10:57:02.40	119.83	12.33	-38.2	-40.2	19.0	0.00e+00	0	37	0	317718528	47	4678
2026-01-24 10:57:03.39	119.74	12.42	-38.0	-40.0	19.2	0.00e+00	0	37	0	324009984	47	4561
2026-01-24 10:57:04.39	119.64	12.50	-38.0	-39.9	19.2	0.00e+00	0	37	0	329252864	47	4532
2026-01-24 10:57:05.38	119.55	12.59	-38.0	-39.9	19.2	0.00e+00	0	37	0	334495744	47	4539
2026-01-24 10:57:06.38	119.46	12.68	-37.9	-39.8	19.4	0.00e+00	0	37	0	340787200	47	4473
2026-01-24 10:57:07.38	119.37	12.76	-37.8	-39.7	19.4	0.00e+00	0	37	0	346030080	47	4429
2026-01-24 10:57:08.37	119.27	12.85	-37.7	-39.7	19.5	0.00e+00	0	37	0	351272960	47	4412
2026-01-24 10:57:09.36	119.18	12.93	-37.9	-39.9	19.3	0.00e+00	0	37	0	357564416	47	4494
2026-01-24 10:57:10.36	119.09	13.02	-37.6	-39.6	19.6	0.00e+00	0	37	0	362807296	47	4351
2026-01-24 10:57:11.35	118.99	13.11	-37.5	-39.4	19.7	0.00e+00	0	37	0	368050176	47	4269
2026-01-24 10:57:12.35	118.89	13.19	-37.5	-39.4	19.7	0.00e+00	0	37	0	374341632	47	4285
2026-01-24 10:57:13.35	118.80	13.28	-37.5	-39.4	19.7	0.00e+00	0	37	0	379584512	47	4271
2026-01-24 10:57:14.34	118.70	13.37	-37.5	-39.4	19.8	0.00e+00	0	37	0	384827392	46	4514
2026-01-24 10:57:15.33	118.60	13.45	-37.5	-39.4	19.7	0.00e+00	0	37	0	391118848	46	4534
2026-01-24 10:57:16.33	118.51	13.54	-37.5	-39.4	19.7	0.00e+00	0	37	0	396361728	46	4540
2026-01-24 10:57:17.33	118.41	13.63	-37.5	-39.4	19.7	0.00e+00	0	37	0	401604608	46	4534
2026-01-24 10:57:18.32	118.31	13.72	-37.5	-39.4	19.7	0.00e+00	0	37	0	407896064	46	4536
2026-01-24 10:57:19.32	118.21	13.81	-37.4	-39.3	19.8	0.00e+00	0	37	0	413138944	46	4481
2026-01-24 10:57:20.31	118.11	13.90	-37.2	-39.2	19.9	0.00e+00	0	37	0	418381824	46	4402
2026-01-24 10:57:21.30	118.01	13.98	-37.4	-39.3	19.8	0.00e+00	0	37	0	424673280	46	4462
2026-01-24 10:57:22.30	117.91	14.07	-37.4	-39.3	19.8	0.00e+00	0	37	0	429916160	46	4479
2026-01-24 10:57:23.29	117.80	14.16	-37.3	-39.2	19.9	0.00e+00	0	37	0	435159040	46	4429
2026-01-24 10:57:24.29	117.70	14.25	-37.2	-39.1	20.0	0.00e+00	0	37	0	441450496	46	4368
2026-01-24 10:57:25.28	117.60	14.34	-37.2	-39.1	20.1	0.00e+00	0	37	0	446693376	46	4361
2026-01-24 10:57:26.28	117.49	14.43	-37.1	-39.0	20.1	0.00e+00	0	37	0	451936256	46	4312
2026-01-24 10:57:27.27	117.39	14.52	-37.1	-39.0	20.1	0.00e+00	0	37	0	458227712	46	4323
2026-01-24 10:57:28.27	117.28	14.61	-36.9	-38.7	20.3	0.00e+00	0	37	0	463470592	45	4435
2026-01-24 10:57:29.26	117.18	14.70	-36.9	-38.7	20.3	0.00e+00	0	37	0	468713472	45	4434
2026-01-24 10:57:30.26	117.07	14.79	-36.9	-38.8	20.4	0.00e+00	0	37	0	475004928	45	4443
2026-01-24 10:57:31.25	116.96	14.89	-36.9	-38.7	20.4	0.00e+00	0	37	0	480247808	45	4425
2026-01-24 10:57:32.25	116.85	14.98	-36.8	-38.6	20.5	0.00e+00	0	37	0	485490688	45	4379
2026-01-24 10:57:33.24	116.75	15.07	-36.8	-38.7	20.4	0.00e+00	0	37	0	491782144	45	4399
2026-01-24 10:57:34.24	116.64	15.16	-36.9	-38.7	20.4	0.00e+00	0	37	0	497025024	45	4427
2026-01-24 10:57:35.23	116.53	15.25	-36.9	-38.7	20.3	0.00e+00	0	37	0	502267904	45	4429
2026-01-24 10:57:36.23	116.41	15.35	-36.8	-38.7	20.4	0.00e+00	0	37	0	508559360	45	4413
2026-01-24 10:57:37.22	116.30	15.44	-36.9	-38.8	20.3	0.00e+00	0	37	0	513802240	45	4464
2026-01-24 10:57:38.22	116.19	15.53	-36.9	-38.8	20.3	0.00e+00	0	37	0	519045120	45	4469
2026-01-24 10:57:39.22	116.08	15.63	-36.9	-38.8	20.3	0.00e+00	0	37	0	525336576	45	4473
2026-01-24 10:57:40.21	115.96	15.72	-36.9	-38.8	20.3	0.00e+00	0	37	0	530579456	45	4444
2026-01-24 10:57:41.21	115.85	15.81	-36.9	-38.8	20.2	0.00e+00	0	37	0	535822336	45	4476
2026-01-24 10:57:42.20	115.73	15.91	-36.9	-38.8	20.2	0.00e+00	0	37	0	542113792	45	4490
2026-01-24 10:57:43.19	115.62	16.00	-36.9	-38.8	20.3	0.00e+00	0	37	0	547356672	45	4444
2026-01-24 10:57:44.19	115.50	16.09	-36.9	-38.7	20.3	0.00e+00	0	37	0	552599552	45	4440
2026-01-24 10:57:45.18	115.38	16.19	-36.9	-38.8	20.3	0.00e+00	0	37	0	558891008	45	4449
2026-01-24 10:57:46.17	115.27	16.28	-36.9	-38.8	20.3	0.00e+00	0	37	0	564133888	45	4458
2026-01-24 10:57:47.17	115.15	16.38	-36.7	-38.6	20.4	0.00e+00	0	37	0	569376768	45	4383
2026-01-24 10:57:48.16	115.03	16.47	-36.7	-38.6	20.5	0.00e+00	0	37	0	575668224	45	4344
2026-01-24 10:57:49.16	114.91	16.57	-36.6	-38.5	20.6	0.00e+00	0	37	0	580911104	45	4312
2026-01-24 10:57:50.15	114.79	16.67	-36.7	-38.5	20.6	0.00e+00	0	37	0	586153984	45	4327
2026-01-24 10:57:51.15	114.66	16.76	-36.6	-38.4	20.7	0.00e+00	0	37	0	592445440	45	4271
2026-01-24 10:57:52.14	114.54	16.86	-36.5	-38.4	20.7	0.00e+00	0	37	0	597688320	45	4244
2026-01-24 10:57:53.14	114.42	16.95	-36.5	-38.4	20.7	0.00e+00	0	37	0	602931200	45	4257
2026-01-24 10:57:54.13	114.29	17.05	-36.5	-38.3	20.7	0.00e+00	0	37	0	609222656	44	4484
2026-01-24 10:57:55.13	114.17	17.15	-36.5	-38.4	20.7	0.00e+00	0	37	0	614465536	44	4507
2026-01-24 10:57:56.12	114.04	17.25	-36.4	-38.3	20.8	0.00e+00	0	37	0	619708416	44	4449
2026-01-24 10:57:57.12	113.91	17.34	-36.4	-38.3	20.8	0.00e+00	0	37	0	625999872	44	4458
2026-01-24 10:57:58.11	113.79	17.44	-36.3	-38.2	20.9	0.00e+00	0	38	0	631242752	44	4416
2026-01-24 10:57:59.11	113.66	17.54	-36.3	-38.2	20.9	0.00e+00	0	37	0	636485632	44	4399
2026-01-24 10:58:00.10	113.53	17.64	-36.3	-38.2	20.9	0.00e+00	0	37	0	642777088	44	4396
2026-01-24 10:58:01.10	113.40	17.74	-36.0	-37.8	21.2	0.00e+00	0	37	0	648019968	44	4240
2026-01-24 10:58:02.09	113.27	17.83	-35.8	-37.6	21.3	0.00e+00	0	38	0	654311424	43	4342
2026-01-24 10:58:03.09	113.13	17.93	-35.9	-37.7	21.2	0.00e+00	0	37	0	659554304	43	4410
2026-01-24 10:58:04.09	113.00	18.03	-36.0	-37.8	21.1	0.00e+00	0	37	0	664797184	43	4461
2026-01-24 10:58:05.08	112.87	18.13	-36.0	-37.8	21.1	0.00e+00	0	37	0	670040064	43	4474
2026-01-24 10:58:06.08	112.73	18.23	-35.8	-37.6	21.2	0.00e+00	0	37	0	676331520	43	4391
2026-01-24 10:58:07.07	112.60	18.33	-35.9	-37.8	21.1	0.00e+00	0	37	0	681574400	43	4446
2026-01-24 10:58:08.07	112.46	18.43	-35.9	-37.7	21.1	0.00e+00	0	37	0	686817280	43	4439
2026-01-24 10:58:09.06	112.32	18.53	-36.0	-37.8	21.1	0.00e+00	0	37	0	693108736	43	4464
2026-01-24 10:58:10.06	112.18	18.63	-36.0	-37.8	21.1	0.00e+00	0	37	0	698351616	43	4477
2026-01-24 10:58:11.05	112.04	18.74	-36.0	-37.8	21.1	0.00e+00	0	37	0	704643072	43	4486
2026-01-24 10:58:12.05	111.90	18.84	-36.1	-37.9	21.0	0.00e+00	0	37	0	709885952	43	4539
2026-01-24 10:58:13.04	111.76	18.94	-36.1	-37.9	21.0	0.00e+00	0	38	0	715128832	43	4529
2026-01-24 10:58:14.03	111.62	19.04	-35.8	-37.7	21.2	0.00e+00	0	37	0	720371712	43	4402
2026-01-24 10:58:15.03	111.48	19.14	-35.7	-37.5	21.3	0.00e+00	0	37	0	726663168	43	4316
2026-01-24 10:58:16.02	111.33	19.24	-35.7	-37.5	21.4	0.00e+00	0	37	0	731906048	43	4303
2026-01-24 10:58:17.02	111.19	19.35	-35.6	-37.4	21.5	0.00e+00	0	37	0	738197504	43	4261
2026-01-24 10:58:18.02	111.04	19.45	-35.6	-37.4	21.4	0.00e+00	0	37	0	743440384	43	4270
2026-01-24 10:58:19.01	110.89	19.55	-35.5	-37.3	21.5	0.00e+00	0	37	0	748683264	43	4222
2026-01-24 10:58:20.00	110.75	19.65	-35.6	-37.4	21.5	0.00e+00	0	37	0	754974720	43	4244
2026-01-24 10:58:21.00	110.60	19.76	-35.6	-37.3	21.5	0.00e+00	0	37	0	760217600	43	4242
2026-01-24 10:58:21.99	110.45	19.86	-35.5	-37.3	21.5	0.00e+00	0	37	0	765460480	43	4235
2026-01-24 10:58:22.99	110.30	19.96	-35.6	-37.4	21.4	0.00e+00	0	37	0	770703360	43	4289
2026-01-24 10:58:23.98	110.14	20.07	-35.6	-37.4	21.5	0.00e+00	0	38	0	776994816	43	4254
2026-01-24 10:58:24.98	109.99	20.17	-35.7	-37.5	21.4	0.00e+00	0	38	0	782237696	43	4308
2026-01-24 10:58:25.97	109.84	20.28	-35.7	-37.5	21.4	0.00e+00	0	38	0	788529152	43	4304
2026-01-24 10:58:26.97	109.68	20.38	-35.5	-37.3	21.5	0.00e+00	0	37	0	793772032	43	4226
2026-01-24 10:58:27.96	109.52	20.49	-35.5	-37.3	21.5	0.00e+00	0	37	0	799014912	42	4491
2026-01-24 10:58:28.96	109.37	20.59	-35.3	-37.1	21.6	0.00e+00	0	37	0	805306368	42	4380
2026-01-24 10:58:29.95	109.21	20.70	-35.2	-37.0	21.8	0.00e+00	0	37	0	810549248	42	4336
2026-01-24 10:58:30.94	109.05	20.80	-35.3	-37.1	21.7	0.00e+00	0	38	0	815792128	42	4362
2026-01-24 10:58:31.94	108.89	20.91	-35.3	-37.1	21.7	0.00e+00	0	37	0	821035008	42	4376
2026-01-24 10:58:32.93	108.73	21.01	-35.3	-37.1	21.7	0.00e+00	0	38	0	827326464	42	4384
2026-01-24 10:58:33.93	108.56	21.12	-35.2	-37.0	21.8	0.00e+00	0	37	0	832569344	42	4325
2026-01-24 10:58:34.93	108.40	21.23	-35.2	-36.9	21.9	0.00e+00	0	37	0	838860800	42	4286
2026-01-24 10:58:35.92	108.23	21.33	-35.2	-36.9	21.9	0.00e+00	0	37	0	844103680	42	4286
2026-01-24 10:58:36.91	108.07	21.44	-35.3	-37.1	21.8	0.00e+00	0	38	0	849346560	42	4348
2026-01-24 10:58:37.91	107.90	21.55	-35.4	-37.2	21.7	0.00e+00	0	37	0	855638016	42	4393
2026-01-24 10:58:38.90	107.73	21.65	-35.4	-37.2	21.6	0.00e+00	0	37	0	860880896	42	4428
2026-01-24 10:58:39.90	107.56	21.76	-35.3	-37.2	21.7	0.00e+00	0	37	0	866123776	42	4393
2026-01-24 10:58:40.89	107.39	21.87	-35.3	-37.1	21.6	0.00e+00	0	37	0	872415232	42	4389
2026-01-24 10:58:41.89	107.22	21.97	-35.3	-37.1	21.7	0.00e+00	0	37	0	877658112	42	4372
2026-01-24 10:58:42.88	107.04	22.08	-35.3	-37.1	21.7	0.00e+00	0	37	0	882900992	42	4362
2026-01-24 10:58:43.88	106.87	22.19	-35.2	-37.0	21.8	0.00e+00	0	37	0	889192448	42	4318
2026-01-24 10:58:44.87	106.69	22.30	-35.1	-36.9	21.8	0.00e+00	0	37	0	894435328	42	4261
2026-01-24 10:58:45.87	106.51	22.41	-35.2	-37.0	21.7	0.00e+00	0	38	0	899678208	42	4336
2026-01-24 10:58:46.86	106.34	22.51	-35.2	-37.0	21.8	0.00e+00	0	37	0	905969664	42	4308
2026-01-24 10:58:47.85	106.16	22.62	-35.1	-36.9	21.9	0.00e+00	0	37	0	911212544	42	4257
2026-01-24 10:58:48.85	105.97	22.73	-35.0	-36.8	21.9	0.00e+00	0	37	0	916455424	42	4217
2026-01-24 10:58:49.85	105.79	22.84	-35.0	-36.8	22.0	0.00e+00	0	37	0	922746880	42	4212
2026-01-24 10:58:50.84	105.61	22.95	-34.9	-36.7	22.0	0.00e+00	0	37	0	927989760	41	4426
2026-01-24 10:58:51.83	105.42	23.06	-35.0	-36.8	22.0	0.00e+00	0	38	0	933232640	41	4444
2026-01-24 10:58:52.83	105.24	23.17	-35.0	-36.7	22.0	0.00e+00	0	37	0	939524096	41	4438
2026-01-24 10:58:53.82	105.05	23.28	-35.0	-36.8	21.9	0.00e+00	0	38	0	944766976	41	4442
2026-01-24 10:58:54.82	104.86	23.39	-35.0	-36.8	21.9	0.00e+00	0	37	0	950009856	41	4469
2026-01-24 10:58:55.81	104.67	23.50	-35.1	-36.9	21.8	0.00e+00	0	37	0	956301312	41	4518
2026-01-24 10:58:56.81	104.48	23.61	-35.1	-36.9	21.8	0.00e+00	0	37	0	961544192	41	4508
2026-01-24 10:58:57.80	104.29	23.71	-34.9	-36.7	21.9	0.00e+00	0	37	0	966787072	41	4435
2026-01-24 10:58:58.80	104.09	23.83	-34.9	-36.7	22.0	0.00e+00	0	37	0	973078528	41	4429
2026-01-24 10:58:59.79	103.90	23.93	-35.0	-36.8	21.9	0.00e+00	0	37	0	978321408	41	4448
2026-01-24 10:59:00.79	103.70	24.05	-34.9	-36.7	22.0	0.00e+00	0	38	0	983564288	41	4415
2026-01-24 10:59:01.79	103.50	24.16	-35.0	-36.8	22.0	0.00e+00	0	38	0	989855744	41	4456
2026-01-24 10:59:02.78	103.30	24.27	-34.8	-36.5	22.2	0.00e+00	0	37	0	995098624	41	4338
2026-01-24 10:59:03.78	103.10	24.38	-34.7	-36.4	22.3	0.00e+00	0	37	0	1000341504	41	4283
2026-01-24 10:59:04.77	102.89	24.49	-34.7	-36.4	22.3	0.00e+00	0	37	0	1006632960	41	4278
2026-01-24 10:59:05.77	102.69	24.60	-34.8	-36.6	22.1	0.00e+00	0	37	0	1011875840	41	4343
2026-01-24 10:59:06.76	102.48	24.71	-34.7	-36.5	22.2	0.00e+00	0	38	0	1017118720	41	4292
2026-01-24 10:59:07.76	102.28	24.82	-34.5	-36.3	22.3	0.00e+00	0	37	0	1023410176	41	4211
2026-01-24 10:59:08.75	102.07	24.93	-34.6	-36.3	22.3	0.00e+00	0	37	0	1028653056	41	4226
2026-01-24 10:59:09.75	101.86	25.04	-34.6	-36.4	22.3	0.00e+00	0	37	0	1033895936	41	4249
2026-01-24 10:59:10.74	101.65	25.15	-34.5	-36.3	22.3	0.00e+00	0	38	0	1040187392	41	4200
2026-01-24 10:59:11.74	101.43	25.26	-34.6	-36.4	22.3	0.00e+00	0	37	0	1045430272	41	4255
2026-01-24 10:59:12.73	101.22	25.37	-34.6	-36.4	22.3	0.00e+00	0	38	0	1050673152	41	4257
2026-01-24 10:59:13.72	101.00	25.48	-34.6	-36.3	22.3	0.00e+00	0	37	0	1056964608	41	4235
2026-01-24 10:59:14.72	100.78	25.60	-34.5	-36.2	22.4	0.00e+00	0	37	0	1062207488	41	4182
2026-01-24 10:59:15.72	100.56	25.71	-34.4	-36.2	22.4	0.00e+00	0	37	0	1067450368	40	4403
2026-01-24 10:59:16.71	100.34	25.82	-34.5	-36.2	22.5	0.00e+00	0	37	0	1073741824	40	4410
2026-01-24 10:59:17.71	100.12	25.93	-34.6	-36.3	22.4	0.00e+00	0	37	0	1078984704	40	4482
2026-01-24 10:59:18.70	99.90	26.04	-34.6	-36.4	22.4	0.00e+00	0	38	0	1084227584	40	4505
2026-01-24 10:59:19.70	99.67	26.15	-34.4	-36.1	22.6	0.00e+00	0	37	0	1090519040	40	4367
2026-01-24 10:59:20.70	99.44	26.26	-34.2	-35.9	22.7	0.00e+00	0	37	0	1095761920	40	4274
2026-01-24 10:59:21.69	99.21	26.37	-34.2	-36.0	22.7	0.00e+00	0	37	0	1102053376	40	4299
2026-01-24 10:59:22.69	98.98	26.48	-34.3	-36.1	22.6	0.00e+00	0	37	0	1107296256	40	4358
2026-01-24 10:59:23.68	98.75	26.59	-34.3	-36.1	22.5	0.00e+00	0	38	0	1112539136	40	4365
2026-01-24 10:59:24.67	98.52	26.70	-34.3	-36.1	22.6	0.00e+00	0	37	0	1117782016	40	4342
2026-01-24 10:59:25.67	98.28	26.81	-34.3	-36.1	22.6	0.00e+00	0	37	0	1124073472	40	4358
2026-01-24 10:59:26.66	98.05	26.92	-34.2	-35.9	22.7	0.00e+00	0	38	0	1129316352	40	4275
2026-01-24 10:59:27.66	97.81	27.04	-34.1	-35.8	22.8	0.00e+00	0	37	0	1135607808	40	4241
2026-01-24 10:59:28.66	97.57	27.15	-34.2	-35.9	22.7	0.00e+00	0	38	0	1140850688	40	4269
2026-01-24 10:59:29.65	97.33	27.26	-34.2	-35.9	22.8	0.00e+00	0	37	0	1146093568	40	4266
2026-01-24 10:59:30.64	97.08	27.37	-34.2	-35.9	22.8	0.00e+00	0	38	0	1152385024	40	4263
2026-01-24 10:59:31.64	96.84	27.48	-34.0	-35.7	22.9	0.00e+00	0	37	0	1157627904	40	4188
2026-01-24 10:59:32.63	96.59	27.59	-34.1	-35.8	22.9	0.00e+00	0	37	0	1162870784	40	4213
2026-01-24 10:59:33.63	96.34	27.70	-34.1	-35.8	22.8	0.00e+00	0	38	0	1168113664	40	4241
2026-01-24 10:59:34.62	96.09	27.80	-34.1	-35.8	22.8	0.00e+00	0	37	0	1174405120	40	4239
2026-01-24 10:59:35.62	95.84	27.91	-34.2	-36.0	22.7	0.00e+00	0	37	0	1179648000	40	4300
2026-01-24 10:59:36.61	95.59	28.02	-34.3	-36.0	22.7	0.00e+00	0	38	0	1185939456	40	4326
2026-01-24 10:59:37.61	95.33	28.13	-34.3	-36.0	22.6	0.00e+00	0	38	0	1191182336	40	4331
2026-01-24 10:59:38.60	95.07	28.24	-34.4	-36.2	22.6	0.00e+00	0	38	0	1196425216	40	4404
2026-01-24 10:59:39.60	94.81	28.35	-34.5	-36.2	22.5	0.00e+00	0	37	0	1202716672	40	4424
2026-01-24 10:59:40.59	94.55	28.46	-34.4	-36.1	22.6	0.00e+00	0	37	0	1207959552	40	4374
2026-01-24 10:59:41.59	94.29	28.56	-34.3	-36.0	22.7	0.00e+00	0	37	0	1213202432	40	4309
2026-01-24 10:59:42.59	94.02	28.67	-34.3	-36.0	22.7	0.00e+00	0	37	0	1218445312	40	4309
2026-01-24 10:59:43.58	93.76	28.78	-34.2	-35.9	22.7	0.00e+00	0	38	0	1224736768	40	4276
2026-01-24 10:59:44.57	93.49	28.89	-34.2	-36.0	22.7	0.00e+00	0	37	0	1229979648	40	4306
2026-01-24 10:59:45.57	93.22	28.99	-34.1	-35.8	22.8	0.00e+00	0	37	0	1236271104	40	4230
2026-01-24 10:59:46.56	92.95	29.10	-34.0	-35.8	22.8	0.00e+00	0	37	0	1241513984	40	4214
2026-01-24 10:59:47.56	92.67	29.21	-34.1	-35.8	22.7	0.00e+00	0	38	0	1246756864	40	4236
2026-01-24 10:59:48.55	92.40	29.31	-34.0	-35.8	22.8	0.00e+00	0	37	0	1253048320	40	4203
2026-01-24 10:59:49.55	92.12	29.42	-34.0	-35.8	22.9	0.00e+00	0	37	0	1258291200	40	4196
2026-01-24 10:59:50.54	91.84	29.52	-34.0	-35.8	22.9	0.00e+00	0	38	0	1263534080	40	4203
2026-01-24 10:59:51.54	91.56	29.63	-34.2	-35.9	22.8	0.00e+00	0	37	0	1268776960	40	4277
2026-01-24 10:59:52.53	91.28	29.73	-34.0	-35.7	22.9	0.00e+00	0	38	0	1275068416	40	4177
2026-01-24 10:59:53.53	90.99	29.84	-33.9	-35.7	23.0	0.00e+00	0	38	0	1280311296	39	4393
2026-01-24 10:59:54.52	90.71	29.94	-33.8	-35.6	23.2	0.00e+00	0	38	0	1286602752	39	4347
2026-01-24 10:59:55.51	90.42	30.04	-33.8	-35.5	23.2	0.00e+00	0	37	0	1291845632	39	4306
2026-01-24 10:59:56.51	90.13	30.14	-33.7	-35.4	23.3	0.00e+00	0	37	0	1297088512	39	4270
2026-01-24 10:59:57.51	89.84	30.25	-33.7	-35.4	23.3	0.00e+00	0	37	0	1303379968	39	4253
2026-01-24 10:59:58.50	89.55	30.35	-33.7	-35.4	23.2	0.00e+00	0	37	0	1308622848	39	4275
2026-01-24 10:59:59.50	89.25	30.45	-33.8	-35.5	23.2	0.00e+00	0	38	0	1313865728	39	4313
2026-01-24 11:00:00.49	88.95	30.55	-33.9	-35.6	23.0	0.00e+00	0	38	0	1320157184	39	4383
2026-01-24 11:00:01.49	88.65	30.65	-33.9	-35.6	23.0	0.00e+00	0	38	0	1325400064	39	4372
2026-01-24 11:00:02.48	88.35	30.75	-33.9	-35.6	23.0	0.00e+00	0	37	0	1330642944	39	4370
2026-01-24 11:00:03.48	88.05	30.85	-33.9	-35.6	23.0	0.00e+00	0	38	0	1336934400	39	4390
2026-01-24 11:00:04.47	87.75	30.95	-34.0	-35.7	23.0	0.00e+00	0	38	0	1342177280	39	4410
2026-01-24 11:00:05.47	87.44	31.05	-33.9	-35.6	23.1	0.00e+00	0	38	0	1347420160	39	4357
2026-01-24 11:00:06.46	87.13	31.14	-33.7	-35.4	23.3	0.00e+00	0	38	0	1353711616	39	4251
2026-01-24 11:00:07.46	86.82	31.24	-33.6	-35.3	23.4	0.00e+00	0	38	0	1358954496	39	4203
2026-01-24 11:00:08.45	86.51	31.33	-33.6	-35.3	23.3	0.00e+00	0	38	0	1364197376	39	4235
2026-01-24 11:00:09.45	86.19	31.43	-33.7	-35.4	23.3	0.00e+00	0	37	0	1370488832	39	4262
2026-01-24 11:00:10.44	85.88	31.52	-33.8	-35.5	23.2	0.00e+00	0	38	0	1375731712	39	4315
2026-01-24 11:00:11.44	85.56	31.62	-33.8	-35.5	23.2	0.00e+00	0	37	0	1380974592	39	4305
2026-01-24 11:00:12.43	85.24	31.71	-33.7	-35.4	23.3	0.00e+00	0	38	0	1387266048	39	4269
2026-01-24 11:00:13.43	84.92	31.80	-33.7	-35.5	23.2	0.00e+00	0	37	0	1392508928	39	4292
2026-01-24 11:00:14.42	84.59	31.90	-33.6	-35.3	23.3	0.00e+00	0	38	0	1397751808	39	4218
2026-01-24 11:00:15.42	84.27	31.99	-33.5	-35.2	23.3	0.00e+00	0	38	0	1404043264	39	4189
2026-01-24 11:00:16.41	83.94	32.08	-33.5	-35.2	23.4	0.00e+00	0	37	0	1409286144	38	4403
2026-01-24 11:00:17.41	83.61	32.17	-33.5	-35.3	23.4	0.00e+00	0	38	0	1414529024	38	4442
2026-01-24 11:00:18.40	83.28	32.26	-33.5	-35.2	23.4	0.00e+00	0	37	0	1420820480	38	4417
2026-01-24 11:00:19.39	82.95	32.34	-33.5	-35.2	23.4	0.00e+00	0	37	0	1426063360	38	4422
2026-01-24 11:00:20.39	82.62	32.43	-33.6	-35.3	23.4	0.00e+00	0	38	0	1431306240	38	4465
2026-01-24 11:00:21.39	82.28	32.52	-33.6	-35.3	23.3	0.00e+00	0	37	0	1437597696	38	4475
2026-01-24 11:00:22.38	81.94	32.60	-33.6	-35.4	23.3	0.00e+00	0	38	0	1442840576	38	4499
2026-01-24 11:00:23.38	81.60	32.69	-33.5	-35.2	23.5	0.00e+00	0	37	0	1448083456	38	4418
2026-01-24 11:00:24.37	81.26	32.77	-33.5	-35.2	23.5	0.00e+00	0	38	0	1454374912	38	4404
2026-01-24 11:00:25.37	80.92	32.85	-33.5	-35.2	23.4	0.00e+00	0	38	0	1459617792	38	4440
2026-01-24 11:00:26.36	80.57	32.93	-33.5	-35.3	23.3	0.00e+00	0	38	0	1464860672	38	4450
2026-01-24 11:00:27.36	80.22	33.02	-33.7	-35.5	23.1	0.00e+00	0	37	0	1471152128	38	4553
2026-01-24 11:00:28.35	79.88	33.09	-33.6	-35.4	23.2	0.00e+00	0	38	0	1476395008	38	4502
2026-01-24 11:00:29.35	79.53	33.17	-33.7	-35.4	23.2	0.00e+00	0	38	0	1481637888	38	4516
2026-01-24 11:00:30.35	79.17	33.25	-33.7	-35.4	23.2	0.00e+00	0	37	0	1487929344	38	4528
2026-01-24 11:00:31.34	78.82	33.33	-33.7	-35.4	23.2	0.00e+00	0	37	0	1493172224	38	4544
2026-01-24 11:00:32.34	78.46	33.40	-33.8	-35.6	23.1	0.00e+00	0	38	0	1498415104	38	4604
2026-01-24 11:00:33.33	78.11	33.48	-33.9	-35.6	23.0	0.00e+00	0	37	0	1504706560	38	4649
2026-01-24 11:00:34.33	77.75	33.55	-33.8	-35.5	23.1	0.00e+00	0	37	0	1509949440	38	4585
2026-01-24 11:00:35.32	77.39	33.62	-33.8	-35.5	23.1	0.00e+00	0	37	0	1515192320	38	4581
2026-01-24 11:00:36.32	77.03	33.70	-33.8	-35.5	23.1	0.00e+00	0	37	0	1521483776	38	4595
2026-01-24 11:00:37.31	76.67	33.76	-33.7	-35.4	23.2	0.00e+00	0	38	0	1526726656	38	4520
2026-01-24 11:00:38.31	76.30	33.83	-33.7	-35.4	23.2	0.00e+00	0	37	0	1533018112	38	4525
2026-01-24 11:00:39.30	75.94	33.90	-33.5	-35.2	23.4	0.00e+00	0	37	0	1538260992	38	4433
2026-01-24 11:00:40.30	75.57	33.97	-33.5	-35.2	23.4	0.00e+00	0	38	0	1543503872	38	4399
2026-01-24 11:00:41.29	75.20	34.03	-33.5	-35.1	23.5	0.00e+00	0	38	0	1549795328	38	4389
2026-01-24 11:00:42.29	74.83	34.10	-33.5	-35.1	23.4	0.00e+00	0	38	0	1555038208	38	4391
2026-01-24 11:00:43.28	74.46	34.16	-33.6	-35.3	23.3	0.00e+00	0	38	0	1560281088	38	4444
2026-01-24 11:00:44.28	74.08	34.22	-33.8	-35.5	23.1	0.00e+00	0	38	0	1565523968	38	4578
2026-01-24 11:00:45.27	73.71	34.28	-33.6	-35.4	23.2	0.00e+00	0	38	0	1571815424	38	4496
2026-01-24 11:00:46.27	73.33	34.34	-33.5	-35.2	23.3	0.00e+00	0	38	0	1577058304	38	4432
2026-01-24 11:00:47.26	72.95	34.40	-33.4	-35.1	23.5	0.00e+00	0	37	0	1583349760	38	4346
2026-01-24 11:00:48.26	72.57	34.46	-33.4	-35.1	23.5	0.00e+00	0	37	0	1588592640	38	4354
2026-01-24 11:00:49.25	72.20	34.51	-33.4	-35.1	23.5	0.00e+00	0	38	0	1593835520	38	4375
2026-01-24 11:00:50.25	71.81	34.56	-33.6	-35.4	23.2	0.00e+00	0	37	0	1600126976	38	4504
2026-01-24 11:00:51.24	71.43	34.62	-33.8	-35.6	23.1	0.00e+00	0	37	0	1605369856	38	4609
2026-01-24 11:00:52.24	71.04	34.67	-33.9	-35.6	22.8	0.00e+00	0	38	0	1610612736	38	4649
2026-01-24 11:00:53.24	70.66	34.72	-33.8	-35.5	23.2	0.00e+00	0	37	0	1615855616	38	4583
2026-01-24 11:00:54.23	70.27	34.77	-33.7	-35.4	23.2	0.00e+00	0	38	0	1622147072	38	4524
2026-01-24 11:00:55.23	69.88	34.81	-33.5	-35.2	23.4	0.00e+00	0	37	0	1627389952	38	4423
2026-01-24 11:00:56.22	69.50	34.86	-33.4	-35.1	23.5	0.00e+00	0	37	0	1633681408	38	4366
2026-01-24 11:00:57.22	69.11	34.90	-33.5	-35.2	23.4	0.00e+00	0	38	0	1638924288	38	4420
2026-01-24 11:00:58.21	68.72	34.94	-33.4	-35.1	23.5	0.00e+00	0	37	0	1644167168	38	4378
2026-01-24 11:00:59.20	68.33	34.98	-33.7	-35.4	23.3	0.00e+00	0	37	0	1650458624	38	4508
2026-01-24 11:01:00.20	67.93	35.02	-33.7	-35.5	23.2	0.00e+00	0	38	0	1655701504	38	4551
2026-01-24 11:01:01.19	67.54	35.06	-33.5	-35.3	23.3	0.00e+00	0	38	0	1660944384	38	4444
2026-01-24 11:01:02.19	67.15	35.10	-33.3	-35.0	23.5	0.00e+00	0	37	0	1667235840	38	4335
2026-01-24 11:01:03.19	66.75	35.13	-33.4	-35.0	23.6	0.00e+00	0	38	0	1672478720	38	4337
2026-01-24 11:01:04.18	66.35	35.17	-33.3	-35.0	23.6	0.00e+00	0	37	0	1677721600	38	4307
2026-01-24 11:01:05.18	65.95	35.20	-33.2	-34.9	23.6	0.00e+00	0	37	0	1684013056	38	4282
2026-01-24 11:01:06.17	65.56	35.23	-33.3	-35.0	23.6	0.00e+00	0	38	0	1689255936	38	4307
2026-01-24 11:01:07.17	65.16	35.26	-33.3	-35.0	23.6	0.00e+00	0	37	0	1694498816	38	4322
2026-01-24 11:01:08.16	64.76	35.29	-33.3	-35.0	23.6	0.00e+00	0	37	0	1700790272	38	4297
2026-01-24 11:01:09.16	64.36	35.31	-33.2	-34.9	23.7	0.00e+00	0	37	0	1706033152	38	4262
2026-01-24 11:01:10.15	63.96	35.34	-33.3	-35.0	23.6	0.00e+00	0	37	0	1711276032	38	4330
2026-01-24 11:01:11.15	63.56	35.36	-33.5	-35.2	23.4	0.00e+00	0	38	0	1717567488	38	4398
2026-01-24 11:01:12.14	63.16	35.38	-33.6	-35.3	23.3	0.00e+00	0	38	0	1722810368	38	4481
2026-01-24 11:01:13.14	62.76	35.40	-33.5	-35.2	23.4	0.00e+00	0	37	0	1728053248	38	4405
2026-01-24 11:01:14.13	62.36	35.42	-33.5	-35.2	23.4	0.00e+00	0	38	0	1734344704	38	4410
2026-01-24 11:01:15.13	61.95	35.43	-33.4	-35.1	23.5	0.00e+00	0	38	0	1739587584	38	4363
2026-01-24 11:01:16.12	61.55	35.45	-33.3	-34.9	23.6	0.00e+00	0	37	0	1744830464	38	4288
2026-01-24 11:01:17.11	61.15	35.46	-33.4	-35.1	23.5	0.00e+00	0	38	0	1751121920	38	4356
2026-01-24 11:01:18.11	60.74	35.47	-33.6	-35.3	23.4	0.00e+00	0	38	0	1756364800	38	4449
2026-01-24 11:01:19.10	60.34	35.48	-33.7	-35.4	23.3	0.00e+00	0	37	0	1761607680	38	4506
2026-01-24 11:01:20.10	59.93	35.49	-33.7	-35.4	23.2	0.00e+00	0	37	0	1767899136	38	4545
2026-01-24 11:01:21.09	59.53	35.50	-33.4	-35.1	23.4	0.00e+00	0	37	0	1773142016	38	4386
2026-01-24 11:01:22.09	59.12	35.50	-33.4	-35.1	23.4	0.00e+00	0	38	0	1778384896	38	4377
2026-01-24 11:01:23.08	58.72	35.51	-33.4	-35.1	23.4	0.00e+00	0	38	0	1784676352	38	4389
2026-01-24 11:01:24.08	58.32	35.51	-33.5	-35.2	23.4	0.00e+00	0	38	0	1789919232	38	4404
2026-01-24 11:01:25.07	57.91	35.51	-33.4	-35.1	23.5	0.00e+00	0	37	0	1795162112	38	4351
2026-01-24 11:01:26.06	57.51	35.51	-33.4	-35.1	23.4	0.00e+00	0	37	0	1801453568	38	4377
2026-01-24 11:01:27.06	57.10	35.50	-33.4	-35.1	23.4	0.00e+00	0	37	0	1806696448	38	4391
2026-01-24 11:01:28.05	56.70	35.50	-33.4	-35.1	23.4	0.00e+00	0	38	0	1811939328	38	4391
2026-01-24 11:01:29.05	56.29	35.49	-33.4	-35.1	23.4	0.00e+00	0	37	0	1818230784	38	4380
2026-01-24 11:01:30.04	55.89	35.48	-33.4	-35.1	23.5	0.00e+00	0	37	0	1823473664	38	4345
2026-01-24 11:01:31.04	55.49	35.47	-33.5	-35.2	23.4	0.00e+00	0	37	0	1828716544	38	4436
2026-01-24 11:01:32.03	55.08	35.46	-33.4	-35.1	23.5	0.00e+00	0	38	0	1835008000	38	4355
2026-01-24 11:01:33.03	54.68	35.45	-33.4	-35.1	23.5	0.00e+00	0	38	0	1840250880	38	4388
2026-01-24 11:01:34.02	54.28	35.44	-33.6	-35.3	23.3	0.00e+00	0	37	0	1845493760	38	4479
2026-01-24 11:01:35.01	53.88	35.42	-33.7	-35.4	23.2	0.00e+00	0	38	0	1851785216	38	4525
2026-01-24 11:01:36.01	53.47	35.40	-33.8	-35.5	23.1	0.00e+00	0	38	0	1857028096	38	4574
2026-01-24 11:01:37.00	53.07	35.38	-33.7	-35.5	23.2	0.00e+00	0	37	0	1862270976	38	4549
2026-01-24 11:01:38.00	52.67	35.36	-33.6	-35.4	23.2	0.00e+00	0	38	0	1868562432	38	4499
2026-01-24 11:01:38.99	52.27	35.34	-33.6	-35.4	23.3	0.00e+00	0	38	0	1873805312	38	4500
2026-01-24 11:01:39.99	51.87	35.32	-33.7	-35.4	23.2	0.00e+00	0	38	0	1879048192	38	4530
2026-01-24 11:01:40.98	51.47	35.29	-33.7	-35.4	23.3	0.00e+00	0	38	0	1885339648	38	4505
2026-01-24 11:01:41.98	51.07	35.26	-33.7	-35.4	23.3	0.00e+00	0	38	0	1890582528	38	4517
2026-01-24 11:01:42.97	50.68	35.24	-33.7	-35.4	23.3	0.00e+00	0	37	0	1895825408	38	4512
2026-01-24 11:01:43.96	50.28	35.21	-33.7	-35.4	23.2	0.00e+00	0	37	0	1902116864	38	4540
2026-01-24 11:01:44.96	49.88	35.17	-33.5	-35.2	23.5	0.00e+00	0	38	0	1907359744	38	4410
2026-01-24 11:01:45.95	49.49	35.14	-33.3	-35.0	23.6	0.00e+00	0	38	0	1912602624	38	4319
2026-01-24 11:01:46.95	49.09	35.11	-33.4	-35.1	23.5	0.00e+00	0	37	0	1918894080	38	4369
2026-01-24 11:01:47.94	48.70	35.07	-33.5	-35.2	23.5	0.00e+00	0	37	0	1924136960	38	4401
2026-01-24 11:01:48.94	48.30	35.03	-33.4	-35.1	23.5	0.00e+00	0	38	0	1930428416	38	4345
2026-01-24 11:01:49.94	47.91	34.99	-33.4	-35.1	23.5	0.00e+00	0	38	0	1935671296	38	4380
2026-01-24 11:01:50.93	47.52	34.95	-33.6	-35.3	23.3	0.00e+00	0	38	0	1940914176	38	4474
2026-01-24 11:01:51.92	47.13	34.91	-33.7	-35.4	23.2	0.00e+00	0	38	0	1946157056	38	4526
2026-01-24 11:01:52.92	46.74	34.87	-33.7	-35.4	23.2	0.00e+00	0	38	0	1952448512	38	4529
2026-01-24 11:01:53.91	46.35	34.82	-33.5	-35.3	23.3	0.00e+00	0	37	0	1957691392	38	4449
2026-01-24 11:01:54.91	45.96	34.77	-33.6	-35.3	23.3	0.00e+00	0	37	0	1962934272	38	4482
2026-01-24 11:01:55.90	45.58	34.73	-33.3	-35.0	23.6	0.00e+00	0	37	0	1969225728	38	4324
2026-01-24 11:01:56.89	45.20	34.68	-33.1	-34.8	23.7	0.00e+00	0	37	0	1974468608	38	4229
2026-01-24 11:01:57.89	44.81	34.63	-33.3	-34.9	23.6	0.00e+00	0	37	0	1979711488	38	4291
2026-01-24 11:01:58.88	44.43	34.57	-33.3	-35.0	23.6	0.00e+00	0	37	0	1986002944	38	4336
2026-01-24 11:01:59.88	44.05	34.52	-33.4	-35.1	23.5	0.00e+00	0	37	0	1991245824	38	4347
2026-01-24 11:02:00.87	43.67	34.47	-33.4	-35.1	23.5	0.00e+00	0	37	0	1996488704	38	4374
2026-01-24 11:02:01.87	43.29	34.41	-33.3	-35.0	23.5	0.00e+00	0	37	0	2002780160	38	4332
2026-01-24 11:02:02.86	42.92	34.35	-33.4	-35.1	23.5	0.00e+00	0	38	0	2008023040	38	4377
2026-01-24 11:02:03.86	42.54	34.29	-33.5	-35.2	23.4	0.00e+00	0	37	0	2013265920	38	4405
2026-01-24 11:02:04.85	42.16	34.23	-33.6	-35.3	23.3	0.00e+00	0	37	0	2019557376	38	4479
2026-01-24 11:02:05.85	41.79	34.17	-33.8	-35.5	23.1	0.00e+00	0	37	0	2024800256	38	4563
2026-01-24 11:02:06.85	41.42	34.11	-33.7	-35.4	23.2	0.00e+00	0	37	0	2031091712	38	4543
2026-01-24 11:02:07.84	41.05	34.05	-33.6	-35.4	23.3	0.00e+00	0	38	0	2036334592	38	4495
2026-01-24 11:02:08.84	40.68	33.98	-33.7	-35.5	23.3	0.00e+00	0	38	0	2041577472	38	4546
2026-01-24 11:02:09.83	40.31	33.91	-33.6	-35.3	23.4	0.00e+00	0	37	0	2046820352	38	4469
2026-01-24 11:02:10.82	39.95	33.85	-33.7	-35.4	23.3	0.00e+00	0	37	0	2053111808	38	4510
2026-01-24 11:02:11.82	39.58	33.78	-33.7	-35.4	23.3	0.00e+00	0	37	0	2058354688	38	4510
2026-01-24 11:02:12.82	39.22	33.71	-33.7	-35.4	22.8	0.00e+00	0	38	0	2063597568	38	4531
2026-01-24 11:02:13.81	38.86	33.64	-33.7	-35.4	23.3	0.00e+00	0	38	0	2069889024	38	4531
2026-01-24 11:02:14.81	38.50	33.57	-33.8	-35.5	23.2	0.00e+00	0	37	0	2075131904	38	4557
2026-01-24 11:02:15.80	38.14	33.49	-33.7	-35.4	23.9	0.00e+00	0	38	0	2081423360	38	4501
2026-01-24 11:02:16.80	37.78	33.42	-33.8	-35.4	23.9	0.00e+00	0	37	0	2086666240	38	4539
2026-01-24 11:02:17.79	37.43	33.34	-33.6	-35.3	24.0	0.00e+00	0	38	0	2091909120	38	4453
2026-01-24 11:02:18.79	37.08	33.27	-33.5	-35.1	24.1	0.00e+00	0	38	0	2097152000	38	4380
2026-01-24 11:02:19.78	36.73	33.19	-33.5	-35.1	24.2	0.00e+00	0	37	0	2103443456	38	4350
2026-01-24 11:02:20.77	36.38	33.11	-33.4	-35.0	24.2	0.00e+00	0	37	0	2108686336	38	4338
2026-01-24 11:02:21.77	36.03	33.03	-33.6	-35.2	24.1	0.00e+00	0	38	0	2113929216	38	4421
2026-01-24 11:02:22.76	35.69	32.95	-33.8	-35.4	23.9	0.00e+00	0	37	0	2120220672	38	4528
2026-01-24 11:02:23.76	35.34	32.87	-33.7	-35.3	24.0	0.00e+00	0	37	0	2125463552	38	4475
2026-01-24 11:02:24.75	35.00	32.79	-33.5	-35.1	24.2	0.00e+00	0	38	0	2131755008	38	4353
2026-01-24 11:02:25.74	34.66	32.71	-33.4	-35.0	24.2	0.00e+00	0	38	0	2136997888	38	4322
2026-01-24 11:02:26.74	34.32	32.62	-33.5	-35.1	24.2	0.00e+00	0	37	0	2142240768	38	4359
2026-01-24 11:02:27.73	33.98	32.54	-33.6	-35.3	24.1	0.00e+00	0	38	0	2147483648	38	4450
2026-01-24 11:02:28.73	33.65	32.45	-33.7	-35.3	24.0	0.00e+00	0	38	0	2153775104	38	4473
2026-01-24 11:02:29.72	33.31	32.37	-33.7	-35.3	24.0	0.00e+00	0	37	0	2159017984	38	4455
2026-01-24 11:02:30.72	32.98	32.28	-33.7	-35.3	24.0	0.00e+00	0	37	0	2164260864	38	4482
2026-01-24 11:02:31.71	32.65	32.19	-33.9	-35.5	23.8	0.00e+00	0	38	0	2170552320	38	4563
2026-01-24 11:02:32.70	32.33	32.10	-33.9	-35.5	23.8	0.00e+00	0	38	0	2175795200	38	4568
2026-01-24 11:02:33.70	32.00	32.01	-33.7	-35.3	24.0	0.00e+00	0	37	0	2182086656	38	4492
2026-01-24 11:02:34.69	31.67	31.92	-33.7	-35.3	23.9	0.00e+00	0	38	0	2187329536	38	4485
2026-01-24 11:02:35.69	31.35	31.83	-33.7	-35.4	23.9	0.00e+00	0	37	0	2192572416	38	4504
2026-01-24 11:02:36.68	31.03	31.74	-33.8	-35.4	23.9	0.00e+00	0	38	0	2197815296	38	4513
2026-01-24 11:02:37.68	30.71	31.64	-33.9	-35.6	23.8	0.00e+00	0	37	0	2204106752	38	4617
2026-01-24 11:02:38.68	30.39	31.55	-33.9	-35.5	23.8	0.00e+00	0	37	0	2209349632	38	4570
2026-01-24 11:02:39.67	30.08	31.46	-33.9	-35.5	23.9	0.00e+00	0	38	0	2214592512	38	4578
2026-01-24 11:02:40.67	29.76	31.36	-33.9	-35.5	23.8	0.00e+00	0	38	0	2220883968	38	4574
2026-01-24 11:02:41.66	29.45	31.27	-33.8	-35.5	23.8	0.00e+00	0	38	0	2226126848	38	4552
2026-01-24 11:02:42.66	29.14	31.17	-33.9	-35.6	23.8	0.00e+00	0	38	0	2232418304	38	4607
2026-01-24 11:02:43.65	28.83	31.07	-33.7	-35.4	23.9	0.00e+00	0	38	0	2237661184	38	4498
2026-01-24 11:02:44.65	28.53	30.98	-33.8	-35.4	23.9	0.00e+00	0	38	0	2242904064	38	4530
2026-01-24 11:02:45.64	28.22	30.88	-33.8	-35.5	23.8	0.00e+00	0	37	0	2249195520	38	4556
2026-01-24 11:02:46.64	27.92	30.78	-33.9	-35.5	23.8	0.00e+00	0	38	0	2254438400	38	4564
2026-01-24 11:02:47.63	27.62	30.68	-33.9	-35.6	23.8	0.00e+00	0	38	0	2259681280	38	4604
2026-01-24 11:02:48.63	27.32	30.58	-33.9	-35.5	23.8	0.00e+00	0	38	0	2264924160	38	4579
2026-01-24 11:02:49.62	27.03	30.48	-33.9	-35.5	23.8	0.00e+00	0	38	0	2271215616	38	4563
2026-01-24 11:02:50.62	26.73	30.38	-33.9	-35.5	23.8	0.00e+00	0	37	0	2276458496	38	4569
2026-01-24 11:02:51.61	26.44	30.28	-33.9	-35.5	23.8	0.00e+00	0	38	0	2282749952	38	4589
2026-01-24 11:02:52.60	26.15	30.18	-33.9	-35.6	23.8	0.00e+00	0	38	0	2287992832	38	4599
2026-01-24 11:02:53.60	25.86	30.07	-34.0	-35.6	23.7	0.00e+00	0	37	0	2293235712	38	4650
2026-01-24 11:02:54.60	25.57	29.97	-33.9	-35.5	23.8	0.00e+00	0	37	0	2299527168	38	4589
2026-01-24 11:02:55.59	25.28	29.87	-33.8	-35.4	23.9	0.00e+00	0	37	0	2304770048	38	4526
2026-01-24 11:02:56.59	25.00	29.77	-33.8	-35.5	23.9	0.00e+00	0	38	0	2310012928	38	4546
2026-01-24 11:02:57.58	24.72	29.66	-33.8	-35.4	23.9	0.00e+00	0	38	0	2315255808	38	4533
2026-01-24 11:02:58.57	24.44	29.56	-33.9	-35.6	23.8	0.00e+00	0	38	0	2321547264	38	4611
2026-01-24 11:02:59.57	24.16	29.45	-34.0	-35.6	23.7	0.00e+00	0	37	0	2326790144	38	4647
2026-01-24 11:03:00.56	23.89	29.35	-33.9	-35.6	23.8	0.00e+00	0	38	0	2333081600	38	4603
2026-01-24 11:03:01.56	23.61	29.24	-33.9	-35.5	23.8	0.00e+00	0	37	0	2338324480	38	4569
2026-01-24 11:03:02.55	23.34	29.14	-34.0	-35.6	23.7	0.00e+00	0	37	0	2343567360	38	4617
2026-01-24 11:03:03.55	23.07	29.03	-34.0	-35.6	23.7	0.00e+00	0	37	0	2349858816	38	4629
2026-01-24 11:03:04.54	22.80	28.93	-34.0	-35.6	23.5	0.00e+00	0	37	0	2355101696	38	4620
2026-01-24 11:03:05.54	22.53	28.82	-34.0	-35.6	23.7	0.00e+00	0	37	0	2360344576	38	4645
2026-01-24 11:03:06.53	22.26	28.71	-33.9	-35.5	23.8	0.00e+00	0	37	0	2366636032	38	4590
2026-01-24 11:03:07.52	22.00	28.61	-33.8	-35.5	23.8	0.00e+00	0	38	0	2371878912	38	4556
2026-01-24 11:03:08.52	21.74	28.50	-33.9	-35.5	23.8	0.00e+00	0	38	0	2377121792	38	4591
2026-01-24 11:03:09.51	21.48	28.39	-34.1	-35.7	23.7	0.00e+00	0	38	0	2383413248	38	4680
2026-01-24 11:03:10.51	21.22	28.28	-34.1	-35.7	23.6	0.00e+00	0	38	0	2388656128	38	4675
2026-01-24 11:03:11.50	20.96	28.17	-34.1	-35.8	23.6	0.00e+00	0	38	0	2393899008	38	4713
2026-01-24 11:03:12.50	20.71	28.07	-34.0	-35.6	23.7	0.00e+00	0	37	0	2400190464	38	4649
2026-01-24 11:03:13.50	20.45	27.96	-33.9	-35.5	23.7	0.00e+00	0	38	0	2405433344	38	4598
2026-01-24 11:03:14.49	20.20	27.85	-34.1	-35.7	23.6	0.00e+00	0	37	0	2410676224	38	4686
2026-01-24 11:03:15.49	19.95	27.74	-34.1	-35.7	23.6	0.00e+00	0	38	0	2416967680	38	4696
2026-01-24 11:03:16.48	19.71	27.63	-34.1	-35.7	23.6	0.00e+00	0	38	0	2422210560	38	4695
2026-01-24 11:03:17.47	19.46	27.52	-34.1	-35.8	23.6	0.00e+00	0	37	0	2427453440	38	4731
2026-01-24 11:03:18.47	19.22	27.41	-34.2	-35.8	23.5	0.00e+00	0	37	0	2433744896	39	4492
2026-01-24 11:03:19.46	18.97	27.30	-34.1	-35.8	23.5	0.00e+00	0	38	0	2438987776	39	4461
2026-01-24 11:03:20.46	18.73	27.19	-34.2	-35.9	23.4	0.00e+00	0	38	0	2444230656	39	4507
2026-01-24 11:03:21.45	18.49	27.08	-34.3	-35.9	23.4	0.00e+00	0	38	0	2450522112	39	4522
2026-01-24 11:03:22.45	18.25	26.97	-34.2	-35.9	23.5	0.00e+00	0	38	0	2455764992	39	4507
2026-01-24 11:03:23.44	18.02	26.86	-34.4	-36.0	23.3	0.00e+00	0	38	0	2461007872	39	4574
2026-01-24 11:03:24.44	17.78	26.75	-34.4	-36.0	23.3	0.00e+00	0	38	0	2467299328	39	4591
2026-01-24 11:03:25.44	17.55	26.64	-34.4	-36.0	23.3	0.00e+00	0	38	0	2472542208	39	4594
2026-01-24 11:03:26.43	17.32	26.53	-34.4	-36.0	23.3	0.00e+00	0	37	0	2477785088	39	4594
2026-01-24 11:03:27.43	17.09	26.42	-34.5	-36.1	23.2	0.00e+00	0	37	0	2484076544	39	4644
2026-01-24 11:03:28.42	16.86	26.31	-34.5	-36.2	23.2	0.00e+00	0	38	0	2489319424	39	4671
2026-01-24 11:03:29.42	16.63	26.20	-34.7	-36.3	23.1	0.00e+00	0	38	0	2494562304	39	4742
2026-01-24 11:03:30.41	16.41	26.09	-34.7	-36.4	23.0	0.00e+00	0	38	0	2500853760	40	4499
2026-01-24 11:03:31.41	16.18	25.98	-34.5	-36.2	23.1	0.00e+00	0	38	0	2506096640	40	4401
2026-01-24 11:03:32.41	15.96	25.87	-34.6	-36.3	23.0	0.00e+00	0	38	0	2511339520	40	4446
2026-01-24 11:03:33.40	15.74	25.76	-34.6	-36.3	23.0	0.00e+00	0	38	0	2517630976	40	4463
2026-01-24 11:03:34.40	15.52	25.65	-34.6	-36.2	23.1	0.00e+00	0	38	0	2522873856	40	4435
2026-01-24 11:03:35.39	15.31	25.54	-34.7	-36.4	23.0	0.00e+00	0	38	0	2528116736	40	4496
2026-01-24 11:03:36.38	15.09	25.43	-34.8	-36.5	22.9	0.00e+00	0	38	0	2534408192	40	4548
2026-01-24 11:03:37.38	14.88	25.32	-34.7	-36.4	22.9	0.00e+00	0	38	0	2539651072	40	4526
2026-01-24 11:03:38.37	14.67	25.21	-34.7	-36.4	23.0	0.00e+00	0	38	0	2544893952	40	4509
2026-01-24 11:03:39.37	14.45	25.10	-34.7	-36.4	22.9	0.00e+00	0	38	0	2551185408	40	4537
2026-01-24 11:03:40.36	14.25	24.99	-34.7	-36.3	22.9	0.00e+00	0	38	0	2556428288	40	4488
2026-01-24 11:03:41.36	14.04	24.88	-34.6	-36.3	23.0	0.00e+00	0	38	0	2561671168	40	4470
2026-01-24 11:03:42.35	13.83	24.77	-34.6	-36.3	23.0	0.00e+00	0	37	0	2567962624	40	4471
2026-01-24 11:03:43.35	13.62	24.66	-34.7	-36.4	22.9	0.00e+00	0	37	0	2573205504	40	4532
2026-01-24 11:03:44.34	13.42	24.55	-34.8	-36.4	22.9	0.00e+00	0	38	0	2579496960	40	4529
2026-01-24 11:03:45.34	13.22	24.43	-34.8	-36.5	22.8	0.00e+00	0	37	0	2584739840	40	4579
2026-01-24 11:03:46.33	13.02	24.33	-34.8	-36.4	22.9	0.00e+00	0	38	0	2589982720	40	4535
2026-01-24 11:03:47.33	12.82	24.22	-34.7	-36.4	22.9	0.00e+00	0	37	0	2595225600	40	4514
2026-01-24 11:03:48.33	12.62	24.10	-34.9	-36.6	22.7	0.00e+00	0	37	0	2601517056	40	4622
2026-01-24 11:03:49.32	12.42	24.00	-35.0	-36.7	22.7	0.00e+00	0	37	0	2606759936	40	4653
2026-01-24 11:03:50.31	12.23	23.89	-34.9	-36.6	22.7	0.00e+00	0	38	0	2612002816	40	4637
2026-01-24 11:03:51.31	12.04	23.78	-34.9	-36.6	22.7	0.00e+00	0	38	0	2618294272	40	4631
2026-01-24 11:03:52.31	11.84	23.67	-34.9	-36.6	22.7	0.00e+00	0	38	0	2623537152	40	4629
2026-01-24 11:03:53.30	11.65	23.56	-34.9	-36.6	22.8	0.00e+00	0	37	0	2629828608	40	4602
2026-01-24 11:03:54.30	11.46	23.45	-34.8	-36.5	22.8	0.00e+00	0	37	0	2635071488	40	4576
2026-01-24 11:03:55.29	11.27	23.34	-34.7	-36.4	22.9	0.00e+00	0	37	0	2640314368	40	4518
2026-01-24 11:03:56.29	11.09	23.23	-34.8	-36.4	22.9	0.00e+00	0	37	0	2645557248	40	4538
2026-01-24 11:03:57.28	10.90	23.12	-34.8	-36.5	22.9	0.00e+00	0	38	0	2651848704	40	4549
2026-01-24 11:03:58.28	10.72	23.01	-34.7	-36.4	22.9	0.00e+00	0	37	0	2657091584	40	4496
2026-01-24 11:03:59.27	10.53	22.90	-34.6	-36.3	23.0	0.00e+00	0	37	0	2662334464	40	4460
2026-01-24 11:04:00.27	10.35	22.80	-34.7	-36.3	23.0	0.00e+00	0	37	0	2668625920	40	4480
2026-01-24 11:04:01.26	10.17	22.69	-34.7	-36.3	23.0	0.00e+00	0	38	0	2673868800	40	4483
2026-01-24 11:04:02.25	9.99	22.58	-34.6	-36.3	23.0	0.00e+00	0	38	0	2680160256	40	4470
2026-01-24 11:04:03.25	9.81	22.47	-34.6	-36.3	23.0	0.00e+00	0	38	0	2685403136	40	4489
2026-01-24 11:04:04.24	9.64	22.36	-34.6	-36.3	23.0	0.00e+00	0	37	0	2690646016	40	4470
2026-01-24 11:04:05.24	9.46	22.26	-34.7	-36.4	22.9	0.00e+00	0	38	0	2695888896	40	4540
2026-01-24 11:04:06.23	9.29	22.15	-34.8	-36.5	22.8	0.00e+00	0	37	0	2702180352	40	4554
2026-01-24 11:04:07.23	9.11	22.04	-34.9	-36.6	22.7	0.00e+00	0	37	0	2707423232	40	4614
2026-01-24 11:04:08.22	8.94	21.94	-34.7	-36.4	22.8	0.00e+00	0	38	0	2712666112	40	4533
2026-01-24 11:04:09.22	8.77	21.83	-34.8	-36.5	22.8	0.00e+00	0	37	0	2718957568	40	4552
2026-01-24 11:04:10.21	8.60	21.72	-34.9	-36.5	22.7	0.00e+00	0	38	0	2724200448	40	4596
2026-01-24 11:04:11.21	8.43	21.61	-34.8	-36.5	22.8	0.00e+00	0	38	0	2730491904	40	4580
2026-01-24 11:04:12.21	8.27	21.51	-34.9	-36.6	22.7	0.00e+00	0	38	0	2735734784	40	4629
2026-01-24 11:04:13.20	8.10	21.40	-34.9	-36.6	22.7	0.00e+00	0	38	0	2740977664	40	4620
2026-01-24 11:04:14.19	7.94	21.30	-34.9	-36.7	22.7	0.00e+00	0	38	0	2747269120	40	4652
2026-01-24 11:04:15.19	7.77	21.19	-35.0	-36.7	22.7	0.00e+00	0	37	0	2752512000	40	4673
2026-01-24 11:04:16.18	7.61	21.08	-35.1	-36.8	22.5	0.00e+00	0	37	0	2757754880	40	4749
2026-01-24 11:04:17.18	7.45	20.98	-35.1	-36.9	22.5	0.00e+00	0	37	0	2762997760	40	4761
2026-01-24 11:04:18.17	7.29	20.87	-35.2	-36.9	22.4	0.00e+00	0	38	0	2769289216	41	4520
2026-01-24 11:04:19.17	7.13	20.77	-35.2	-36.9	22.4	0.00e+00	0	38	0	2774532096	41	4532
2026-01-24 11:04:20.16	6.97	20.66	-35.2	-36.9	22.4	0.00e+00	0	38	0	2780823552	41	4499
2026-01-24 11:04:21.16	6.82	20.56	-35.1	-36.8	22.5	0.00e+00	0	37	0	2786066432	41	4458
2026-01-24 11:04:22.16	6.66	20.45	-35.1	-36.8	22.5	0.00e+00	0	38	0	2791309312	41	4476
2026-01-24 11:04:23.15	6.51	20.35	-35.1	-36.8	22.5	0.00e+00	0	38	0	2797600768	41	4465
2026-01-24 11:04:24.15	6.35	20.25	-35.0	-36.8	22.5	0.00e+00	0	38	0	2802843648	41	4448
2026-01-24 11:04:25.14	6.20	20.14	-35.0	-36.7	22.6	0.00e+00	0	37	0	2808086528	41	4422
2026-01-24 11:04:26.14	6.05	20.04	-35.1	-36.8	22.5	0.00e+00	0	38	0	2814377984	41	4475
2026-01-24 11:04:27.13	5.90	19.94	-35.1	-36.8	22.5	0.00e+00	0	38	0	2819620864	41	4469
2026-01-24 11:04:28.13	5.75	19.83	-35.0	-36.8	22.5	0.00e+00	0	38	0	2824863744	41	4452
2026-01-24 11:04:29.12	5.60	19.73	-35.1	-36.8	22.4	0.00e+00	0	38	0	2831155200	41	4483
2026-01-24 11:04:30.12	5.45	19.63	-35.2	-36.9	22.4	0.00e+00	0	37	0	2836398080	41	4539
2026-01-24 11:04:31.11	5.31	19.53	-35.3	-37.0	22.4	0.00e+00	0	37	0	2841640960	41	4551
2026-01-24 11:04:32.11	5.16	19.42	-35.3	-37.1	22.2	0.00e+00	0	37	0	2847932416	41	4600
2026-01-24 11:04:33.10	5.02	19.32	-35.3	-37.1	22.2	0.00e+00	0	38	0	2853175296	41	4608
2026-01-24 11:04:34.10	4.87	19.22	-35.3	-37.1	22.2	0.00e+00	0	38	0	2858418176	41	4607
2026-01-24 11:04:35.09	4.73	19.12	-35.5	-37.2	22.1	0.00e+00	0	38	0	2864709632	41	4680
2026-01-24 11:04:36.09	4.59	19.02	-35.4	-37.1	22.2	0.00e+00	0	37	0	2869952512	41	4643
2026-01-24 11:04:37.08	4.45	18.92	-35.4	-37.2	22.1	0.00e+00	0	38	0	2875195392	41	4660
2026-01-24 11:04:38.08	4.31	18.81	-35.5	-37.2	22.1	0.00e+00	0	37	0	2881486848	41	4676
2026-01-24 11:04:39.07	4.17	18.71	-35.5	-37.2	22.1	0.00e+00	0	37	0	2886729728	41	4705
2026-01-24 11:04:40.06	4.03	18.61	-35.5	-37.2	22.1	0.00e+00	0	38	0	2891972608	41	4692
2026-01-24 11:04:41.06	3.90	18.51	-35.6	-37.3	22.1	0.00e+00	0	38	0	2898264064	41	4715
2026-01-24 11:04:42.05	3.76	18.41	-35.6	-37.4	21.9	0.00e+00	0	37	0	2903506944	41	4769
2026-01-24 11:04:43.05	3.62	18.31	-35.6	-37.3	22.0	0.00e+00	0	38	0	2908749824	41	4740
2026-01-24 11:04:44.04	3.49	18.21	-35.7	-37.4	21.9	0.00e+00	0	38	0	2915041280	41	4784
2026-01-24 11:04:45.04	3.36	18.12	-35.7	-37.4	21.9	0.00e+00	0	38	0	2920284160	42	4537
2026-01-24 11:04:46.03	3.23	18.02	-35.6	-37.4	21.9	0.00e+00	0	38	0	2925527040	42	4523
2026-01-24 11:04:47.03	3.09	17.92	-35.7	-37.5	21.9	0.00e+00	0	38	0	2931818496	42	4547
2026-01-24 11:04:48.02	2.96	17.82	-35.7	-37.5	21.8	0.00e+00	0	37	0	2937061376	42	4564
2026-01-24 11:04:49.01	2.83	17.72	-35.8	-37.6	21.8	0.00e+00	0	38	0	2942304256	42	4604
2026-01-24 11:04:50.01	2.71	17.62	-35.9	-37.6	21.8	0.00e+00	0	37	0	2948595712	42	4618
2026-01-24 11:04:51.00	2.58	17.53	-35.9	-37.6	21.7	0.00e+00	0	37	0	2953838592	42	4626
2026-01-24 11:04:52.00	2.45	17.43	-36.0	-37.7	21.7	0.00e+00	0	38	0	2959081472	42	4676
2026-01-24 11:04:52.99	2.32	17.33	-36.0	-37.8	21.6	0.00e+00	0	38	0	2965372928	42	4717
2026-01-24 11:04:53.99	2.20	17.23	-36.0	-37.8	21.6	0.00e+00	0	38	0	2970615808	42	4726
2026-01-24 11:04:54.98	2.07	17.14	-35.9	-37.7	21.6	0.00e+00	0	38	0	2975858688	42	4667
2026-01-24 11:04:55.98	1.95	17.04	-36.1	-37.8	21.5	0.00e+00	0	37	0	2982150144	42	4753
2026-01-24 11:04:56.97	1.83	16.94	-36.1	-37.8	21.5	0.00e+00	0	38	0	2987393024	42	4753
2026-01-24 11:04:57.97	1.71	16.85	-36.1	-37.9	21.4	0.00e+00	0	38	0	2992635904	42	4805
2026-01-24 11:04:58.96	1.58	16.75	-36.1	-37.9	21.4	0.00e+00	0	38	0	2998927360	42	4784
2026-01-24 11:04:59.96	1.46	16.66	-36.1	-37.9	21.4	0.00e+00	0	38	0	3004170240	43	4505
2026-01-24 11:05:00.95	1.34	16.56	-36.1	-37.8	21.5	0.00e+00	0	38	0	3009413120	43	4471
2026-01-24 11:05:01.95	1.22	16.47	-36.1	-37.9	21.5	0.00e+00	0	38	0	3015704576	43	4509
2026-01-24 11:05:02.94	1.11	16.37	-36.1	-37.8	21.5	0.00e+00	0	38	0	3020947456	43	4484
2026-01-24 11:05:03.94	0.99	16.28	-36.1	-37.8	21.5	0.00e+00	0	38	0	3026190336	43	4474
2026-01-24 11:05:04.93	0.87	16.18	-36.1	-37.9	21.5	0.00e+00	0	38	0	3032481792	43	4499
2026-01-24 11:05:05.93	0.76	16.09	-36.2	-37.9	21.4	0.00e+00	0	37	0	3037724672	43	4544
2026-01-24 11:05:06.92	0.64	16.00	-36.1	-37.9	21.4	0.00e+00	0	37	0	3042967552	43	4535
2026-01-24 11:05:07.92	0.53	15.90	-36.1	-37.9	21.4	0.00e+00	0	38	0	3049259008	43	4521
2026-01-24 11:05:08.91	0.41	15.81	-36.2	-38.0	21.4	0.00e+00	0	38	0	3054501888	43	4563
2026-01-24 11:05:09.90	0.30	15.72	-36.3	-38.1	21.2	0.00e+00	0	38	0	3059744768	43	4650
2026-01-24 11:05:10.90	0.19	15.62	-36.4	-38.2	21.2	0.00e+00	0	38	0	3066036224	43	4666
2026-01-24 11:05:11.89	0.08	15.53	-36.4	-38.2	21.2	0.00e+00	0	38	0	3071279104	43	4663
2026-01-24 11:05:12.89	359.97	15.44	-36.4	-38.2	21.1	0.00e+00	0	38	0	3076521984	43	4698
2026-01-24 11:05:13.88	359.86	15.35	-36.5	-38.3	21.1	0.00e+00	0	38	0	3082813440	43	4709
2026-01-24 11:05:14.88	359.75	15.25	-36.5	-38.3	21.0	0.00e+00	0	37	0	3088056320	43	4757
2026-01-24 11:05:15.88	359.64	15.16	-36.5	-38.3	21.0	0.00e+00	0	38	0	3093299200	43	4757
2026-01-24 11:05:16.87	359.53	15.07	-36.6	-38.4	20.8	0.00e+00	0	37	0	3099590656	43	4804
2026-01-24 11:05:17.87	359.42	14.98	-36.8	-38.6	20.9	0.00e+00	0	37	0	3104833536	44	4648
2026-01-24 11:05:18.86	359.32	14.89	-36.8	-38.6	20.9	0.00e+00	0	38	0	3110076416	44	4648
2026-01-24 11:05:19.85	359.21	14.80	-36.9	-38.7	20.8	0.00e+00	0	38	0	3116367872	44	4659
2026-01-24 11:05:20.85	359.10	14.71	-36.8	-38.6	20.9	0.00e+00	0	37	0	3121610752	44	4637
2026-01-24 11:05:21.84	359.00	14.62	-36.8	-38.7	20.8	0.00e+00	0	37	0	3127902208	44	4654
2026-01-24 11:05:22.84	358.90	14.53	-36.8	-38.6	20.9	0.00e+00	0	38	0	3133145088	44	4632
2026-01-24 11:05:23.83	358.79	14.44	-36.8	-38.6	20.9	0.00e+00	0	38	0	3138387968	44	4641
2026-01-24 11:05:24.83	358.69	14.35	-36.8	-38.6	20.9	0.00e+00	0	38	0	3143630848	44	4626
2026-01-24 11:05:25.82	358.59	14.26	-36.9	-38.7	20.8	0.00e+00	0	37	0	3149922304	44	4683
2026-01-24 11:05:26.82	358.49	14.17	-36.9	-38.7	20.8	0.00e+00	0	38	0	3155165184	44	4657
2026-01-24 11:05:27.81	358.39	14.08	-37.0	-38.8	20.7	0.00e+00	0	38	0	3160408064	44	4728
2026-01-24 11:05:28.80	358.29	13.99	-37.0	-38.7	20.8	0.00e+00	0	37	0	3166699520	44	4704
2026-01-24 11:05:29.80	358.19	13.90	-36.9	-38.7	20.8	0.00e+00	0	37	0	3171942400	44	4692
2026-01-24 11:05:30.79	358.09	13.82	-37.0	-38.8	20.7	0.00e+00	0	37	0	3178233856	44	4721
2026-01-24 11:05:31.79	357.99	13.73	-37.0	-38.8	20.7	0.00e+00	0	38	0	3183476736	44	4729
2026-01-24 11:05:32.78	357.89	13.64	-37.1	-38.9	20.6	0.00e+00	0	38	0	3188719616	44	4808
2026-01-24 11:05:33.78	357.79	13.55	-37.0	-38.9	20.6	0.00e+00	0	37	0	3193962496	44	4769
2026-01-24 11:05:34.77	357.70	13.46	-37.1	-38.9	20.6	0.00e+00	0	37	0	3200253952	44	4814
2026-01-24 11:05:35.77	357.60	13.38	-37.1	-38.9	20.6	0.00e+00	0	38	0	3205496832	44	4814
2026-01-24 11:05:36.76	357.51	13.29	-37.2	-39.0	20.5	0.00e+00	0	38	0	3210739712	44	4839
2026-01-24 11:05:37.76	357.41	13.20	-37.3	-39.1	20.4	0.00e+00	0	38	0	3217031168	45	4622
2026-01-24 11:05:38.75	357.32	13.12	-37.3	-39.1	20.4	0.00e+00	0	38	0	3222274048	45	4639
2026-01-24 11:05:39.75	357.22	13.03	-37.3	-39.2	20.3	0.00e+00	0	37	0	3228565504	45	4678
2026-01-24 11:05:40.74	357.13	12.95	-37.3	-39.2	20.4	0.00e+00	0	38	0	3233808384	45	4659
2026-01-24 11:05:41.74	357.04	12.86	-37.4	-39.2	20.3	0.00e+00	0	38	0	3239051264	45	4699
2026-01-24 11:05:42.74	356.94	12.77	-37.3	-39.2	20.3	0.00e+00	0	38	0	3244294144	45	4681
2026-01-24 11:05:43.73	356.85	12.69	-37.4	-39.4	20.1	0.00e+00	0	38	0	3250585600	45	4765
2026-01-24 11:05:44.72	356.76	12.60	-37.4	-39.4	20.1	0.00e+00	0	38	0	3255828480	45	4770
2026-01-24 11:05:45.72	356.67	12.52	-37.4	-39.4	20.2	0.00e+00	0	38	0	3262119936	45	4761
2026-01-24 11:05:46.71	356.58	12.44	-37.4	-39.4	20.1	0.00e+00	0	38	0	3267362816	45	4810
2026-01-24 11:05:47.71	356.49	12.35	-37.5	-39.6	20.0	0.00e+00	0	38	0	3272605696	45	4879
2026-01-24 11:05:48.70	356.40	12.27	-37.4	-39.5	20.0	0.00e+00	0	38	0	3278897152	45	4823
2026-01-24 11:05:49.70	356.32	12.18	-37.3	-39.4	20.1	0.00e+00	0	38	0	3284140032	45	4781
2026-01-24 11:05:50.69	356.23	12.10	-37.4	-39.5	20.0	0.00e+00	0	38	0	3289382912	45	4820
2026-01-24 11:05:51.69	356.14	12.02	-37.5	-39.5	19.9	0.00e+00	0	38	0	3294625792	45	4863
2026-01-24 11:05:52.68	356.05	11.93	-37.4	-39.5	20.0	0.00e+00	0	38	0	3300917248	45	4843
2026-01-24 11:05:53.67	355.97	11.85	-37.4	-39.5	20.0	0.00e+00	0	38	0	3306160128	45	4818
2026-01-24 11:05:54.67	355.88	11.77	-37.3	-39.3	20.2	0.00e+00	0	38	0	3312451584	45	4739
2026-01-24 11:05:55.66	355.80	11.69	-37.4	-39.4	20.0	0.00e+00	0	38	0	3317694464	45	4805
2026-01-24 11:05:56.66	355.71	11.60	-37.4	-39.4	20.1	0.00e+00	0	38	0	3322937344	45	4773
2026-01-24 11:05:57.65	355.63	11.52	-37.5	-39.4	20.0	0.00e+00	0	38	0	3329228800	45	4812
2026-01-24 11:05:58.65	355.55	11.44	-37.5	-39.5	20.0	0.00e+00	0	38	0	3334471680	45	4848
2026-01-24 11:05:59.64	355.46	11.36	-37.4	-39.4	20.1	0.00e+00	0	38	0	3339714560	45	4768
2026-01-24 11:06:00.64	355.38	11.28	-37.5	-39.5	19.9	0.00e+00	0	38	0	3344957440	45	4855
2026-01-24 11:06:01.63	355.30	11.19	-37.5	-39.5	20.0	0.00e+00	0	38	0	3351248896	45	4831
2026-01-24 11:06:02.63	355.22	11.11	-37.5	-39.6	19.9	0.00e+00	0	38	0	3356491776	45	4871
2026-01-24 11:06:03.62	355.13	11.03	-37.4	-39.6	19.9	0.00e+00	0	38	0	3362783232	45	4885
2026-01-24 11:06:04.62	355.05	10.95	-37.3	-39.5	20.0	0.00e+00	0	38	0	3368026112	45	4825
2026-01-24 11:06:05.61	354.97	10.87	-37.4	-39.7	19.8	0.00e+00	0	38	0	3373268992	45	4934
2026-01-24 11:06:06.61	354.89	10.79	-37.3	-39.6	19.8	0.00e+00	0	38	0	3379560448	45	4916
2026-01-24 11:06:07.60	354.81	10.71	-37.3	-39.7	19.8	0.00e+00	0	38	0	3384803328	45	4933
2026-01-24 11:06:08.60	354.73	10.63	-37.3	-39.7	19.8	0.00e+00	0	37	0	3390046208	45	4945
2026-01-24 11:06:09.59	354.66	10.55	-37.3	-39.7	19.7	0.00e+00	0	38	0	3396337664	45	4960
2026-01-24 11:06:10.58	354.58	10.47	-37.2	-39.6	19.8	0.00e+00	0	38	0	3401580544	45	4922
2026-01-24 11:06:11.58	354.50	10.39	-37.3	-39.8	19.6	0.00e+00	0	38	0	3406823424	45	5020
2026-01-24 11:06:12.57	354.42	10.31	-37.3	-39.8	19.6	0.00e+00	0	38	0	3413114880	45	5018
2026-01-24 11:06:13.57	354.35	10.24	-37.4	-39.9	19.6	0.00e+00	0	37	0	3418357760	45	5050
2026-01-24 11:06:14.56	354.27	10.16	-37.5	-40.0	19.5	0.00e+00	0	38	0	3423600640	45	5127
2026-01-24 11:06:15.56	354.19	10.08	-37.6	-40.1	19.4	0.00e+00	0	38	0	3429892096	46	4894
2026-01-24 11:06:16.55	354.12	10.00	-37.5	-40.0	19.5	0.00e+00	0	38	0	3435134976	46	4829
2026-01-24 11:06:17.55	354.04	9.92	-37.5	-40.0	19.5	0.00e+00	0	38	0	3440377856	46	4841
2026-01-24 11:06:18.54	353.97	9.84	-37.4	-39.9	19.5	0.00e+00	0	38	0	3446669312	46	4806
2026-01-24 11:06:19.54	353.89	9.77	-37.3	-39.9	19.5	0.00e+00	0	38	0	3451912192	46	4813
2026-01-24 11:06:20.53	353.82	9.69	-37.3	-40.0	19.5	0.00e+00	0	38	0	3457155072	46	4822
2026-01-24 11:06:21.53	353.75	9.61	-37.3	-40.0	19.4	0.00e+00	0	38	0	3463446528	46	4825
2026-01-24 11:06:22.52	353.67	9.54	-37.4	-40.0	19.4	0.00e+00	0	38	0	3468689408	46	4868
2026-01-24 11:06:23.52	353.60	9.46	-37.3	-39.9	19.6	0.00e+00	0	37	0	3473932288	46	4767
2026-01-24 11:06:24.51	353.53	9.38	-37.4	-39.9	19.5	0.00e+00	0	38	0	3480223744	46	4804
2026-01-24 11:06:25.51	353.46	9.31	-37.6	-40.0	19.4	0.00e+00	0	38	0	3485466624	46	4839
2026-01-24 11:06:26.50	353.39	9.23	-37.7	-40.0	19.4	0.00e+00	0	38	0	3490709504	46	4858
2026-01-24 11:06:27.50	353.32	9.15	-37.8	-40.0	19.4	0.00e+00	0	38	0	3497000960	46	4867
2026-01-24 11:06:28.49	353.25	9.08	-37.7	-39.9	19.5	0.00e+00	0	37	0	3502243840	46	4809
2026-01-24 11:06:29.49	353.17	9.00	-38.0	-40.2	19.2	0.00e+00	0	38	0	3507486720	46	4974
2026-01-24 11:06:30.48	353.11	8.93	-45.4	-60.6	3.8	8.46e-01	0	38	104	3510632448	61	21982
2026-01-24 11:06:31.48	353.04	8.85	-48.5	-61.1	3.8	8.47e-01	0	38	104	3510632448	67	16434
2026-01-24 11:06:32.47	352.97	8.78	-48.5	-61.1	3.8	8.47e-01	0	38	104	3510632448	67	16470
2026-01-24 11:06:33.46	352.90	8.70	-49.0	-61.4	3.8	8.47e-01	0	38	104	3510632448	68	16027
2026-01-24 11:06:34.46	352.83	8.63	-48.9	-61.5	3.8	8.47e-01	0	38	104	3510632448	68	16180
2026-01-24 11:06:35.45	352.76	8.55	-48.9	-61.5	3.8	8.47e-01	0	38	104	3510632448	68	16306
2026-01-24 11:06:36.44	352.69	8.48	-49.4	-61.5	3.8	8.47e-01	0	38	104	3510632448	69	15385
2026-01-24 11:06:37.43	352.63	8.40	-49.0	-61.6	3.8	8.47e-01	0	38	104	3510632448	69	15439
2026-01-24 11:06:38.43	352.56	8.33	-49.0	-61.6	3.8	8.48e-01	0	38	104	3510632448	69	15517
2026-01-24 11:06:39.42	352.49	8.26	-48.7	-61.6	3.8	8.47e-01	0	38	104	3510632448	69	15534
2026-01-24 11:06:40.41	352.43	8.18	-49.5	-61.6	3.8	8.45e-01	0	38	104	3510632448	69	15516
2026-01-24 11:06:41.40	352.36	8.11	-49.4	-61.7	3.8	8.47e-01	0	38	104	3510632448	69	15618
2026-01-24 11:06:42.40	352.30	8.04	-49.2	-61.7	3.8	8.46e-01	0	38	104	3510632448	69	15595
2026-01-24 11:06:43.39	352.23	7.96	-49.4	-61.7	3.8	8.48e-01	0	38	104	3510632448	69	15641
2026-01-24 11:06:44.38	352.17	7.89	-49.5	-61.7	3.8	8.46e-01	0	38	104	3510632448	69	15651
2026-01-24 11:06:45.38	352.10	7.82	-49.5	-61.7	3.8	8.46e-01	0	38	104	3510632448	69	15652
2026-01-24 11:06:46.37	352.04	7.74	-49.4	-61.7	3.8	8.49e-01	0	38	104	3510632448	69	15704
2026-01-24 11:06:47.36	351.98	7.67	-49.2	-61.7	3.8	8.47e-01	0	38	104	3510632448	69	15641
2026-01-24 11:06:48.36	351.91	7.60	-49.5	-61.7	3.8	8.47e-01	0	38	104	3510632448	69	15631
2026-01-24 11:06:49.35	351.85	7.53	-49.5	-61.7	3.8	8.46e-01	0	38	104	3510632448	69	15612
