passes_logs/2026/01/24/T1/T1__20260124_082238_KHAYYAM_rec.log

#Pass ID: 20260124_082238_KHAYYAM
#Satellite: KHAYYAM
#Configuration: KHAYYAM_480M
#almurnet v.1.7.20251203
#Start time: 2026-01-24 08:22:40

#Version: 2.0.20230620
#Station: T1
#Location: 37.570604 lon 55.790049 lat
#TLE: 1 53370U 22096A   26023.62012604  .00008987  00000+0  36588-3 0  9995
#TLE: 2 53370  97.3551 290.4757 0001913 108.0149 252.1298 15.24719440192559

#Time	Az	El	Level	Level2	SNR	BER	BlckErr	Temp	State	Recorded	gain1	gain2
2026-01-24 08:22:40.24	184.16	5.15	-49.8	-54.7	3.4	0.00e+00	0	43	0	0	70	26290
2026-01-24 08:22:41.23	184.22	5.23	-49.7	-54.6	3.7	0.00e+00	0	43	104	0	70	26249
2026-01-24 08:22:42.23	184.27	5.31	-49.7	-54.6	3.7	0.00e+00	0	43	104	0	70	26056
2026-01-24 08:22:43.23	184.33	5.39	-49.7	-54.6	3.7	0.00e+00	0	43	104	0	70	26107
2026-01-24 08:22:44.23	184.39	5.47	-49.7	-54.6	3.7	0.00e+00	0	43	104	0	70	26176
2026-01-24 08:22:45.23	184.45	5.56	-49.7	-54.6	3.7	0.00e+00	0	43	104	0	70	26154
2026-01-24 08:22:46.22	184.50	5.64	-49.7	-54.6	3.7	0.00e+00	0	43	104	0	70	26118
2026-01-24 08:22:47.22	184.56	5.72	-49.7	-54.6	3.7	0.00e+00	0	43	104	0	70	26121
2026-01-24 08:22:48.22	184.62	5.80	-49.7	-54.6	3.7	0.00e+00	0	44	104	0	70	26075
2026-01-24 08:22:49.22	184.68	5.88	-49.7	-54.6	3.7	0.00e+00	0	44	104	0	70	26192
2026-01-24 08:22:50.22	184.74	5.96	-49.7	-54.6	3.7	0.00e+00	0	44	104	0	70	26074
2026-01-24 08:22:51.22	184.80	6.05	-49.7	-54.7	3.7	0.00e+00	0	44	104	0	70	26329
2026-01-24 08:22:52.21	184.87	6.13	-49.7	-54.6	3.7	0.00e+00	0	44	104	0	70	26187
2026-01-24 08:22:53.21	184.93	6.21	-49.7	-54.6	3.7	0.00e+00	0	44	104	0	70	26109
2026-01-24 08:22:54.21	184.99	6.30	-49.7	-54.6	3.7	0.00e+00	0	44	104	0	70	26102
2026-01-24 08:22:55.20	185.05	6.38	-49.7	-54.6	3.7	0.00e+00	0	44	104	0	70	26025
2026-01-24 08:22:56.20	185.11	6.46	-49.7	-54.6	3.7	0.00e+00	0	44	104	0	70	26061
2026-01-24 08:22:57.20	185.18	6.55	-49.7	-54.6	3.7	0.00e+00	0	44	104	0	70	26125
2026-01-24 08:22:58.20	185.24	6.63	-49.7	-54.6	3.7	0.00e+00	0	44	104	0	70	26186
2026-01-24 08:22:59.20	185.31	6.72	-49.7	-54.6	3.7	0.00e+00	0	44	104	0	70	26016
2026-01-24 08:23:00.19	185.37	6.81	-49.7	-54.6	3.7	0.00e+00	0	44	104	0	70	26018
2026-01-24 08:23:01.19	185.44	6.89	-49.7	-54.6	3.7	0.00e+00	0	44	104	0	70	26209
2026-01-24 08:23:02.19	185.50	6.98	-49.7	-54.5	3.7	0.00e+00	0	45	104	0	70	25903
2026-01-24 08:23:03.18	185.57	7.06	-49.7	-54.6	3.7	0.00e+00	0	45	104	0	70	26069
2026-01-24 08:23:04.18	185.63	7.15	-49.6	-54.5	3.7	0.00e+00	0	45	104	0	70	25968
2026-01-24 08:23:05.18	185.70	7.24	-49.6	-54.6	3.7	0.00e+00	0	45	104	0	70	26007
2026-01-24 08:23:06.18	185.77	7.33	-49.7	-54.6	3.7	0.00e+00	0	45	104	0	70	26135
2026-01-24 08:23:07.18	185.84	7.42	-49.6	-54.6	3.7	0.00e+00	0	45	104	0	70	26034
2026-01-24 08:23:08.18	185.90	7.51	-49.6	-54.5	3.7	0.00e+00	0	45	104	0	70	25893
2026-01-24 08:23:09.18	185.97	7.60	-49.7	-54.6	3.7	0.00e+00	0	45	104	0	70	25988
2026-01-24 08:23:10.18	186.04	7.69	-49.6	-54.6	3.7	0.00e+00	0	45	104	0	70	26051
2026-01-24 08:23:11.18	186.11	7.78	-49.7	-54.6	3.7	0.00e+00	0	45	104	0	70	26033
2026-01-24 08:23:12.18	186.18	7.87	-49.7	-54.6	3.7	0.00e+00	0	45	104	0	70	26036
2026-01-24 08:23:13.17	186.25	7.96	-49.6	-54.5	3.7	0.00e+00	0	45	104	0	70	25939
2026-01-24 08:23:14.17	186.33	8.05	-49.6	-54.5	3.7	0.00e+00	0	45	104	0	70	25785
2026-01-24 08:23:15.17	186.40	8.14	-49.7	-54.6	3.7	0.00e+00	0	46	104	0	70	26003
2026-01-24 08:23:16.17	186.47	8.23	-49.7	-54.6	3.7	0.00e+00	0	45	104	0	70	26119
2026-01-24 08:23:17.17	186.55	8.32	-49.6	-54.5	3.7	0.00e+00	0	45	104	0	70	25927
2026-01-24 08:23:18.17	186.62	8.42	-49.7	-54.6	3.7	0.00e+00	0	45	104	0	70	26038
2026-01-24 08:23:19.17	186.69	8.51	-49.7	-54.6	3.7	0.00e+00	0	45	104	0	70	26024
2026-01-24 08:23:20.17	186.77	8.61	-49.7	-54.6	3.7	0.00e+00	0	45	104	0	70	25996
2026-01-24 08:23:21.17	186.84	8.70	-49.7	-54.5	3.7	0.00e+00	0	45	104	0	70	25835
2026-01-24 08:23:22.16	186.92	8.79	-49.7	-54.5	3.7	0.00e+00	0	46	104	0	70	25923
2026-01-24 08:23:23.16	187.00	8.89	-49.6	-54.5	3.7	0.00e+00	0	46	104	0	70	25818
2026-01-24 08:23:24.16	187.07	8.99	-49.7	-54.6	3.7	0.00e+00	0	46	104	0	70	26092
2026-01-24 08:23:25.16	187.15	9.08	-49.7	-54.6	3.7	0.00e+00	0	46	104	0	70	26000
2026-01-24 08:23:26.16	187.23	9.18	-49.4	-54.3	3.7	0.00e+00	0	46	104	0	70	25316
2026-01-24 08:23:27.16	187.31	9.28	-49.5	-54.4	3.7	0.00e+00	0	46	104	0	70	25432
2026-01-24 08:23:28.16	187.39	9.37	-49.6	-54.5	3.7	0.00e+00	0	46	104	0	70	25858
2026-01-24 08:23:29.16	187.47	9.47	-49.3	-54.2	3.7	0.00e+00	0	46	104	0	70	24937
2026-01-24 08:23:30.15	187.55	9.57	-49.7	-54.6	3.7	0.00e+00	0	46	104	0	70	26121
2026-01-24 08:23:31.15	187.63	9.67	-49.4	-54.4	3.7	0.00e+00	0	46	104	0	70	25603
2026-01-24 08:23:32.15	187.72	9.77	-49.4	-54.3	3.7	0.00e+00	0	46	104	0	70	25287
2026-01-24 08:23:33.14	187.80	9.87	-49.3	-54.1	3.7	0.00e+00	0	46	104	0	70	24667
2026-01-24 08:23:34.15	187.88	9.97	-49.5	-54.5	3.7	0.00e+00	0	46	104	0	70	25775
2026-01-24 08:23:35.14	187.97	10.07	-49.2	-54.2	3.7	0.00e+00	0	46	104	0	70	24992
2026-01-24 08:23:36.15	188.05	10.17	-49.5	-54.5	3.7	0.00e+00	0	46	104	0	70	25794
2026-01-24 08:23:37.15	188.14	10.27	-49.2	-54.1	3.7	0.00e+00	0	46	104	0	70	24728
2026-01-24 08:23:38.15	188.23	10.38	-49.2	-54.2	3.7	0.00e+00	0	46	104	0	70	25084
2026-01-24 08:23:39.14	188.31	10.48	-49.2	-54.2	3.7	0.00e+00	0	46	104	0	70	25056
2026-01-24 08:23:40.14	188.40	10.58	-49.2	-54.3	3.7	0.00e+00	0	46	104	0	70	25102
2026-01-24 08:23:41.14	188.49	10.69	-49.0	-54.1	3.7	0.00e+00	0	46	104	0	69	25991
2026-01-24 08:23:42.15	188.58	10.79	-49.4	-54.4	3.7	0.00e+00	0	47	104	0	69	26933
2026-01-24 08:23:43.15	188.67	10.90	-50.0	-54.8	3.7	0.00e+00	0	46	104	0	70	26608
2026-01-24 08:23:44.15	188.76	11.00	-49.0	-54.1	3.7	0.00e+00	0	46	104	0	70	24687
2026-01-24 08:23:45.15	188.85	11.11	-49.2	-54.1	3.7	0.00e+00	0	47	104	0	70	24771
2026-01-24 08:23:46.15	188.95	11.22	-49.6	-54.5	3.7	0.00e+00	0	47	104	0	70	25821
2026-01-24 08:23:47.15	189.04	11.33	-49.7	-54.6	3.7	0.00e+00	0	47	104	0	70	25983
2026-01-24 08:23:48.15	189.14	11.43	-49.8	-54.6	3.7	0.00e+00	0	47	104	0	70	26001
2026-01-24 08:23:49.15	189.23	11.54	-49.9	-54.6	3.7	0.00e+00	0	47	104	0	70	26273
2026-01-24 08:23:50.14	189.33	11.65	-50.0	-54.8	3.7	0.00e+00	0	47	104	0	70	26628
2026-01-24 08:23:51.14	189.42	11.76	-50.1	-54.9	3.7	0.00e+00	0	47	104	0	70	26978
2026-01-24 08:23:52.14	189.52	11.87	-50.1	-54.8	3.7	0.00e+00	0	47	104	0	70	26637
2026-01-24 08:23:53.13	189.62	11.98	-49.5	-54.4	3.7	0.00e+00	0	47	104	0	70	25450
2026-01-24 08:23:54.13	189.72	12.09	-49.5	-54.3	3.7	0.00e+00	0	47	104	0	70	25334
2026-01-24 08:23:55.13	189.82	12.21	-49.9	-54.6	3.7	0.00e+00	0	47	104	0	70	26241
2026-01-24 08:23:56.13	189.92	12.32	-49.2	-54.1	3.7	0.00e+00	0	47	104	0	70	24646
2026-01-24 08:23:57.13	190.02	12.43	-49.7	-54.5	3.7	0.00e+00	0	47	104	0	70	25761
2026-01-24 08:23:58.13	190.13	12.55	-49.2	-54.1	3.7	0.00e+00	0	47	104	0	70	24710
2026-01-24 08:23:59.13	190.23	12.66	-49.4	-54.3	3.7	0.00e+00	0	47	104	0	70	25209
2026-01-24 08:24:00.13	190.34	12.78	-48.5	-53.5	3.7	0.00e+00	0	47	104	0	69	24386
2026-01-24 08:24:01.13	190.44	12.90	-49.2	-54.1	3.7	0.00e+00	0	47	104	0	69	26140
2026-01-24 08:24:02.13	190.55	13.01	-48.6	-53.5	3.7	0.00e+00	0	47	104	0	69	24470
2026-01-24 08:24:03.13	190.66	13.13	-48.9	-53.9	3.7	0.00e+00	0	47	104	0	69	25521
2026-01-24 08:24:04.13	190.77	13.25	-48.9	-53.8	3.7	0.00e+00	0	47	104	0	69	25110
2026-01-24 08:24:05.13	190.88	13.37	-49.1	-53.9	3.7	0.00e+00	0	47	104	0	69	25665
2026-01-24 08:24:06.13	190.99	13.49	-49.3	-54.1	3.7	0.00e+00	0	47	104	0	69	26179
2026-01-24 08:24:07.13	191.10	13.61	-49.4	-54.2	3.7	0.00e+00	0	47	104	0	69	26413
2026-01-24 08:24:08.13	191.21	13.73	-49.4	-54.1	3.7	0.00e+00	0	47	104	0	69	26110
2026-01-24 08:24:09.12	191.33	13.85	-49.6	-54.5	3.7	0.00e+00	0	47	104	0	69	27378
2026-01-24 08:24:10.13	191.44	13.97	-49.2	-54.0	3.7	0.00e+00	0	47	104	0	69	25833
2026-01-24 08:24:11.13	191.56	14.10	-49.4	-54.1	3.7	0.00e+00	0	47	104	0	69	26222
2026-01-24 08:24:12.13	191.68	14.22	-49.7	-54.7	3.7	0.00e+00	0	47	104	0	70	26368
2026-01-24 08:24:13.13	191.80	14.35	-49.8	-54.7	3.7	0.00e+00	0	47	104	0	70	26364
2026-01-24 08:24:14.13	191.92	14.47	-49.6	-54.5	3.7	0.00e+00	0	47	104	0	70	25730
2026-01-24 08:24:15.13	192.04	14.60	-49.8	-54.7	3.7	0.00e+00	0	47	104	0	70	26392
2026-01-24 08:24:16.13	192.16	14.73	-49.9	-54.8	3.7	0.00e+00	0	47	104	0	70	26592
2026-01-24 08:24:17.12	192.28	14.85	-49.7	-54.4	3.7	0.00e+00	0	47	104	0	70	25626
2026-01-24 08:24:18.13	192.41	14.98	-49.8	-54.6	3.7	0.00e+00	0	47	104	0	70	26211
2026-01-24 08:24:19.13	192.54	15.11	-49.8	-54.6	3.7	0.00e+00	0	47	104	0	70	26224
2026-01-24 08:24:20.13	192.66	15.24	-44.2	-46.0	7.0	0.00e+00	0	48	104	0	59	18212
2026-01-24 08:24:21.13	192.79	15.37	-44.3	-46.1	7.0	1.29e-01	0	48	0	58720256	59	18447
2026-01-24 08:24:22.12	192.92	15.50	-44.0	-45.7	7.2	1.54e-01	0	48	0	117440512	60	16752
2026-01-24 08:24:23.12	193.05	15.64	-44.0	-45.7	7.5	1.28e-01	0	48	0	176160768	59	17618
2026-01-24 08:24:24.12	193.19	15.77	-42.8	-44.2	8.9	7.76e-02	0	48	0	234881024	56	17629
2026-01-24 08:24:25.11	193.32	15.90	-43.1	-44.5	8.8	2.99e-02	0	48	0	293601280	56	18315
2026-01-24 08:24:26.11	193.45	16.04	-43.5	-45.0	8.5	3.96e-02	0	48	0	352321536	58	17205
2026-01-24 08:24:27.10	193.59	16.17	-41.7	-43.0	10.2	3.89e-02	0	48	0	411041792	55	16311
2026-01-24 08:24:28.10	193.73	16.31	-39.2	-40.3	12.3	1.11e-03	0	48	0	478150656	50	15943
2026-01-24 08:24:29.10	193.87	16.45	-37.4	-38.4	13.6	1.78e-04	0	48	0	536870912	46	16062
2026-01-24 08:24:30.09	194.01	16.58	-35.3	-36.2	15.2	0.00e+00	0	48	0	595591168	42	15787
2026-01-24 08:24:31.09	194.15	16.72	-33.3	-34.3	16.8	0.00e+00	0	48	0	654311424	38	15844
2026-01-24 08:24:32.09	194.30	16.86	-32.5	-33.4	17.4	0.00e+00	0	48	0	713031680	37	15225
2026-01-24 08:24:33.09	194.44	17.01	-30.2	-31.1	17.8	0.00e+00	0	48	0	771751936	32	15569
2026-01-24 08:24:34.08	194.59	17.15	-29.1	-30.0	18.3	0.00e+00	0	48	0	830472192	30	15359
2026-01-24 08:24:35.08	194.74	17.29	-28.8	-29.6	18.2	0.00e+00	0	48	0	889192448	29	15651
2026-01-24 08:24:36.08	194.89	17.43	-28.8	-29.7	18.2	0.00e+00	0	48	0	947912704	29	15667
2026-01-24 08:24:37.08	195.04	17.58	-28.5	-29.4	18.4	0.00e+00	0	48	0	1015021568	29	15215
2026-01-24 08:24:38.07	195.19	17.72	-28.1	-28.9	18.8	0.00e+00	0	48	0	1073741824	27	16163
2026-01-24 08:24:39.07	195.35	17.87	-27.9	-28.8	19.0	0.00e+00	0	48	0	1132462080	27	15917
2026-01-24 08:24:40.07	195.50	18.02	-28.0	-28.8	19.0	0.00e+00	0	48	0	1191182336	27	15985
2026-01-24 08:24:41.06	195.66	18.17	-27.9	-28.7	19.1	0.00e+00	0	48	0	1249902592	27	15820
2026-01-24 08:24:42.06	195.82	18.32	-27.7	-28.5	19.2	0.00e+00	0	48	0	1308622848	27	15457
2026-01-24 08:24:43.06	195.99	18.47	-27.5	-28.4	19.2	0.00e+00	0	48	0	1375731712	26	16103
2026-01-24 08:24:44.06	196.15	18.62	-27.5	-28.4	19.3	0.00e+00	0	48	0	1434451968	26	16082
2026-01-24 08:24:45.05	196.32	18.77	-27.5	-28.3	19.4	0.00e+00	0	49	0	1493172224	26	15932
2026-01-24 08:24:46.05	196.48	18.92	-26.9	-27.7	19.8	0.00e+00	0	49	0	1551892480	25	15722
2026-01-24 08:24:47.05	196.65	19.08	-26.6	-27.4	20.0	0.00e+00	0	49	0	1610612736	25	15200
2026-01-24 08:24:48.05	196.83	19.23	-26.6	-27.4	20.0	0.00e+00	0	49	0	1669332992	25	15231
2026-01-24 08:24:49.04	197.00	19.39	-26.7	-27.5	19.9	0.00e+00	0	49	0	1728053248	25	15440
2026-01-24 08:24:50.04	197.18	19.55	-26.4	-27.3	20.1	0.00e+00	0	49	0	1786773504	24	15836
2026-01-24 08:24:51.04	197.35	19.71	-26.3	-27.1	20.3	0.00e+00	0	49	0	1845493760	24	15573
2026-01-24 08:24:52.04	197.54	19.87	-26.2	-27.1	20.2	0.00e+00	0	49	0	1912602624	24	15509
2026-01-24 08:24:53.04	197.72	20.03	-26.3	-27.1	20.2	0.00e+00	0	49	0	1971322880	24	15614
2026-01-24 08:24:54.04	197.90	20.19	-26.2	-27.0	20.3	0.00e+00	0	49	0	2030043136	24	15397
2026-01-24 08:24:55.04	198.09	20.35	-26.1	-26.9	20.3	0.00e+00	0	49	0	2088763392	24	15203
2026-01-24 08:24:56.03	198.28	20.51	-26.1	-26.9	20.2	0.00e+00	0	49	0	2147483648	24	15249
2026-01-24 08:24:57.03	198.47	20.68	-26.0	-26.8	20.3	0.00e+00	0	49	0	2206203904	24	15112
2026-01-24 08:24:58.02	198.66	20.85	-26.0	-26.9	20.3	0.00e+00	0	49	0	2264924160	23	16024
2026-01-24 08:24:59.02	198.86	21.01	-25.8	-26.7	20.4	0.00e+00	0	49	0	2332033024	23	15729
2026-01-24 08:25:00.02	199.06	21.18	-25.8	-26.6	20.5	0.00e+00	0	49	0	2390753280	23	15615
2026-01-24 08:25:01.02	199.26	21.35	-25.6	-26.5	20.6	0.00e+00	0	49	0	2449473536	23	15305
2026-01-24 08:25:02.01	199.46	21.52	-25.6	-26.5	20.6	0.00e+00	0	49	0	2508193792	23	15311
2026-01-24 08:25:03.00	199.66	21.69	-25.7	-26.5	20.7	0.00e+00	0	49	0	2566914048	23	15455
2026-01-24 08:25:04.00	199.87	21.86	-25.6	-26.5	20.6	0.00e+00	0	49	0	2625634304	23	15369
2026-01-24 08:25:05.00	200.08	22.04	-25.6	-26.5	20.6	0.00e+00	0	49	0	2692743168	23	15368
2026-01-24 08:25:06.00	200.30	22.21	-25.6	-26.5	20.6	0.00e+00	0	49	0	2751463424	23	15347
2026-01-24 08:25:07.00	200.51	22.39	-25.7	-26.6	20.5	0.00e+00	0	49	0	2810183680	23	15537
2026-01-24 08:25:08.00	200.73	22.57	-25.6	-26.5	20.7	0.00e+00	0	49	0	2868903936	23	15324
2026-01-24 08:25:08.99	200.95	22.74	-25.3	-26.2	20.8	0.00e+00	0	49	0	2927624192	22	15670
2026-01-24 08:25:09.99	201.18	22.92	-25.1	-26.0	20.8	0.00e+00	0	49	0	2986344448	22	15332
2026-01-24 08:25:10.99	201.40	23.11	-25.1	-26.0	20.9	0.00e+00	0	49	0	3045064704	22	15336
2026-01-24 08:25:11.98	201.63	23.29	-25.0	-25.9	21.0	0.00e+00	0	49	0	3103784960	22	15123
2026-01-24 08:25:12.99	201.87	23.47	-25.1	-25.9	20.7	0.00e+00	0	49	0	3162505216	22	15280
2026-01-24 08:25:13.98	202.10	23.65	-25.1	-25.9	20.7	0.00e+00	0	49	0	3229614080	22	15257
2026-01-24 08:25:14.98	202.34	23.84	-25.1	-26.0	20.8	0.00e+00	0	49	0	3288334336	22	15350
2026-01-24 08:25:15.98	202.59	24.03	-24.8	-25.7	20.8	0.00e+00	0	49	0	3347054592	21	15689
2026-01-24 08:25:16.98	202.83	24.22	-24.9	-25.7	20.9	0.00e+00	0	49	0	3405774848	21	15751
2026-01-24 08:25:17.97	203.08	24.40	-24.8	-25.6	21.0	0.00e+00	0	49	0	3464495104	21	15565
2026-01-24 08:25:18.97	203.33	24.59	-24.8	-25.6	21.0	0.00e+00	0	49	0	3523215360	21	15593
2026-01-24 08:25:19.97	203.59	24.79	-24.6	-25.4	20.9	0.00e+00	0	49	0	3581935616	21	15288
2026-01-24 08:25:20.97	203.85	24.98	-24.6	-25.4	21.0	0.00e+00	0	49	0	3649044480	21	15242
2026-01-24 08:25:21.96	204.11	25.17	-24.6	-25.5	21.0	0.00e+00	0	49	0	3707764736	21	15318
2026-01-24 08:25:22.96	204.38	25.37	-24.3	-25.2	21.0	0.00e+00	0	49	0	3766484992	20	15702
2026-01-24 08:25:23.95	204.64	25.56	-24.2	-25.1	21.1	0.00e+00	0	49	0	3825205248	20	15511
2026-01-24 08:25:24.95	204.92	25.76	-24.3	-25.1	21.2	0.00e+00	0	49	0	3883925504	20	15545
2026-01-24 08:25:25.94	205.19	25.95	-24.1	-25.0	21.2	0.00e+00	0	49	0	3942645760	20	15327
2026-01-24 08:25:26.95	205.48	26.16	-24.1	-25.0	21.0	0.00e+00	0	49	0	4009754624	20	15332
2026-01-24 08:25:27.95	205.76	26.36	-24.1	-24.9	21.2	0.00e+00	0	49	0	4068474880	19	16153
2026-01-24 08:25:28.94	206.05	26.56	-24.0	-24.9	21.2	0.00e+00	0	49	0	4127195136	19	16063
2026-01-24 08:25:29.94	206.34	26.76	-23.9	-24.7	21.4	0.00e+00	0	49	0	4185915392	19	15761
2026-01-24 08:25:30.94	206.64	26.97	-24.0	-24.9	21.4	0.00e+00	0	49	0	4244635648	19	16070
2026-01-24 08:25:31.94	206.94	27.17	-24.0	-24.8	21.3	0.00e+00	0	49	0	4303355904	19	15900
2026-01-24 08:25:32.94	207.25	27.38	-23.7	-24.6	21.2	0.00e+00	0	49	0	4362076160	19	15525
2026-01-24 08:25:33.94	207.56	27.59	-23.7	-24.6	21.3	0.00e+00	0	49	0	4420796416	19	15545
2026-01-24 08:25:34.94	207.87	27.79	-23.7	-24.6	21.3	0.00e+00	0	49	0	4479516672	19	15519
2026-01-24 08:25:35.93	208.19	28.00	-23.5	-24.4	21.4	0.00e+00	0	49	0	4546625536	19	15187
2026-01-24 08:25:36.93	208.51	28.21	-23.4	-24.3	21.4	0.00e+00	0	49	0	4605345792	18	15887
2026-01-24 08:25:37.93	208.84	28.43	-23.4	-24.2	21.3	0.00e+00	0	49	0	4664066048	18	15797
2026-01-24 08:25:38.93	209.18	28.64	-23.3	-24.1	21.4	0.00e+00	0	49	0	4722786304	18	15599
2026-01-24 08:25:39.93	209.51	28.85	-23.2	-24.0	21.5	0.00e+00	0	49	0	4781506560	18	15373
2026-01-24 08:25:40.92	209.85	29.06	-23.2	-24.0	21.5	0.00e+00	0	49	0	4840226816	18	15467
2026-01-24 08:25:41.92	210.20	29.28	-23.4	-24.2	21.4	0.00e+00	0	49	0	4898947072	18	15760
2026-01-24 08:25:42.91	210.55	29.49	-23.3	-24.2	21.4	0.00e+00	0	49	0	4966055936	18	15700
2026-01-24 08:25:43.91	210.91	29.71	-23.0	-23.9	21.6	0.00e+00	0	49	0	5024776192	18	15176
2026-01-24 08:25:44.91	211.27	29.93	-23.1	-23.9	21.6	0.00e+00	0	49	0	5083496448	18	15214
2026-01-24 08:25:45.90	211.64	30.15	-22.9	-23.8	21.6	0.00e+00	0	49	0	5142216704	17	15846
2026-01-24 08:25:46.90	212.01	30.37	-23.1	-24.0	21.3	0.00e+00	0	49	0	5200936960	17	16230
2026-01-24 08:25:47.90	212.39	30.59	-23.0	-23.8	21.5	0.00e+00	0	49	0	5259657216	17	15879
2026-01-24 08:25:48.90	212.77	30.81	-22.9	-23.7	21.5	0.00e+00	0	49	0	5326766080	17	15817
2026-01-24 08:25:49.90	213.16	31.03	-22.7	-23.6	21.7	0.00e+00	0	49	0	5385486336	17	15481
2026-01-24 08:25:50.89	213.56	31.25	-22.6	-23.5	21.5	0.00e+00	0	50	0	5444206592	17	15345
2026-01-24 08:25:51.89	213.96	31.48	-22.7	-23.5	21.6	0.00e+00	0	50	0	5502926848	17	15452
2026-01-24 08:25:52.89	214.37	31.70	-22.8	-23.6	21.7	0.00e+00	0	49	0	5561647104	17	15544
2026-01-24 08:25:53.89	214.78	31.92	-22.6	-23.5	21.8	0.00e+00	0	49	0	5620367360	17	15305
2026-01-24 08:25:54.89	215.20	32.15	-22.5	-23.3	21.6	0.00e+00	0	49	0	5679087616	16	16013
2026-01-24 08:25:55.89	215.63	32.38	-22.5	-23.3	21.7	0.00e+00	0	49	0	5737807872	16	15917
2026-01-24 08:25:56.88	216.06	32.60	-22.5	-23.4	21.8	0.00e+00	0	49	0	5796528128	16	16028
2026-01-24 08:25:57.88	216.50	32.82	-22.4	-23.2	21.7	0.00e+00	0	49	0	5863636992	16	15803
2026-01-24 08:25:58.87	216.94	33.05	-22.2	-23.0	21.8	0.00e+00	0	50	0	5922357248	16	15384
2026-01-24 08:25:59.87	217.39	33.27	-22.0	-22.9	22.0	0.00e+00	0	49	0	5981077504	16	15124
2026-01-24 08:26:00.86	217.84	33.50	-21.7	-22.6	22.1	0.00e+00	0	50	0	6039797760	15	15507
2026-01-24 08:26:01.86	218.31	33.73	-21.7	-22.6	21.9	0.00e+00	0	49	0	6098518016	15	15514
2026-01-24 08:26:02.86	218.78	33.95	-21.7	-22.5	22.0	0.00e+00	0	50	0	6157238272	15	15448
2026-01-24 08:26:03.86	219.26	34.18	-21.5	-22.4	22.1	0.00e+00	0	50	0	6215958528	15	15171
2026-01-24 08:26:04.85	219.74	34.40	-21.5	-22.3	21.9	0.00e+00	0	50	0	6283067392	15	15112
2026-01-24 08:26:05.85	220.24	34.63	-21.5	-22.3	22.0	0.00e+00	0	50	0	6341787648	15	15106
2026-01-24 08:26:06.85	220.74	34.85	-21.3	-22.1	22.2	0.00e+00	0	50	0	6400507904	14	15628
2026-01-24 08:26:07.84	221.24	35.08	-21.3	-22.2	22.0	0.00e+00	0	50	0	6459228160	14	15655
2026-01-24 08:26:08.84	221.76	35.30	-21.4	-22.2	22.0	0.00e+00	0	50	0	6517948416	14	15709
2026-01-24 08:26:09.84	222.28	35.52	-21.2	-22.0	22.2	0.00e+00	0	50	0	6576668672	14	15418
2026-01-24 08:26:10.84	222.81	35.75	-21.2	-22.1	22.0	0.00e+00	0	49	0	6635388928	14	15514
2026-01-24 08:26:11.84	223.35	35.97	-21.3	-22.1	22.0	0.00e+00	0	49	0	6694109184	14	15519
2026-01-24 08:26:12.83	223.89	36.19	-21.0	-21.8	22.2	0.00e+00	0	50	0	6761218048	14	15063
2026-01-24 08:26:13.84	224.45	36.41	-21.0	-21.8	22.0	0.00e+00	0	50	0	6819938304	13	15935
2026-01-24 08:26:14.83	225.01	36.63	-21.0	-21.8	22.0	0.00e+00	0	50	0	6878658560	13	15934
2026-01-24 08:26:15.83	225.58	36.85	-20.9	-21.7	22.2	0.00e+00	0	50	0	6937378816	13	15815
2026-01-24 08:26:16.82	226.15	37.06	-20.9	-21.7	22.1	0.00e+00	0	49	0	6996099072	13	15708
2026-01-24 08:26:17.82	226.74	37.28	-20.9	-21.7	22.2	0.00e+00	0	50	0	7054819328	13	15718
2026-01-24 08:26:18.81	227.32	37.49	-20.7	-21.5	22.0	0.00e+00	0	49	0	7113539584	13	15438
2026-01-24 08:26:19.81	227.93	37.70	-20.8	-21.6	22.2	0.00e+00	0	49	0	7180648448	13	15534
2026-01-24 08:26:20.81	228.54	37.91	-20.8	-21.6	22.2	0.00e+00	0	50	0	7239368704	13	15641
2026-01-24 08:26:21.80	229.15	38.11	-20.6	-21.5	22.1	0.00e+00	0	49	0	7298088960	13	15318
2026-01-24 08:26:22.80	229.78	38.32	-20.6	-21.4	22.1	0.00e+00	0	49	0	7356809216	13	15183
2026-01-24 08:26:23.80	230.41	38.52	-20.5	-21.3	22.2	0.00e+00	0	49	0	7415529472	13	15033
2026-01-24 08:26:24.80	231.05	38.72	-20.6	-21.4	22.3	0.00e+00	0	50	0	7474249728	12	16097
2026-01-24 08:26:25.80	231.71	38.92	-20.6	-21.4	22.3	0.00e+00	0	50	0	7532969984	12	16064
2026-01-24 08:26:26.79	232.36	39.12	-20.4	-21.2	22.3	0.00e+00	0	50	0	7591690240	12	15765
2026-01-24 08:26:27.79	233.03	39.31	-20.5	-21.4	22.3	0.00e+00	0	50	0	7650410496	12	16020
2026-01-24 08:26:28.79	233.70	39.50	-20.5	-21.3	22.2	0.00e+00	0	50	0	7717519360	12	15924
2026-01-24 08:26:29.78	234.38	39.68	-20.4	-21.2	22.4	0.00e+00	0	50	0	7776239616	12	15763
2026-01-24 08:26:30.78	235.07	39.87	-20.4	-21.2	22.5	0.00e+00	0	50	0	7834959872	12	15717
2026-01-24 08:26:31.77	235.77	40.05	-20.2	-21.0	22.4	0.00e+00	0	50	0	7893680128	12	15379
2026-01-24 08:26:32.77	236.47	40.22	-20.3	-21.1	22.5	0.00e+00	0	50	0	7952400384	12	15557
2026-01-24 08:26:33.77	237.19	40.40	-20.2	-21.1	22.3	0.00e+00	0	49	0	8011120640	12	15516
2026-01-24 08:26:34.76	237.91	40.56	-20.1	-20.9	22.5	0.00e+00	0	50	0	8069840896	12	15264
2026-01-24 08:26:35.76	238.64	40.73	-52.2	-56.7	3.7	0.00e+00	0	49	104	8120172544	74	26379
2026-01-24 08:26:36.76	239.38	40.89	-52.3	-56.8	3.7	0.00e+00	0	49	104	8120172544	75	25309
2026-01-24 08:26:37.76	240.13	41.05	-52.2	-56.7	3.7	0.00e+00	0	49	104	8120172544	75	25069
2026-01-24 08:26:38.75	240.87	41.20	-52.1	-56.7	3.7	0.00e+00	0	49	104	8120172544	75	24873
2026-01-24 08:26:39.75	241.64	41.34	-52.1	-56.6	3.7	0.00e+00	0	49	104	8120172544	75	24806
2026-01-24 08:26:40.75	242.40	41.49	-52.1	-56.6	3.6	0.00e+00	0	49	104	8120172544	75	24793
2026-01-24 08:26:41.75	243.18	41.62	-51.9	-56.6	3.7	0.00e+00	0	49	104	8120172544	75	24539
2026-01-24 08:26:42.74	243.96	41.75	-51.8	-56.6	3.6	0.00e+00	0	49	104	8120172544	75	24546
2026-01-24 08:26:43.75	244.75	41.88	-52.2	-56.7	3.7	0.00e+00	0	49	104	8120172544	75	25020
2026-01-24 08:26:44.75	245.55	42.01	-52.2	-56.7	3.7	0.00e+00	0	49	104	8120172544	75	25050
2026-01-24 08:26:45.74	246.34	42.12	-52.1	-56.6	3.7	0.00e+00	0	49	104	8120172544	75	24689
2026-01-24 08:26:46.74	247.15	42.23	-52.0	-56.5	3.7	0.00e+00	0	49	104	8120172544	75	24361
2026-01-24 08:26:47.74	247.96	42.34	-52.2	-56.8	3.7	0.00e+00	0	49	104	8120172544	75	25181
2026-01-24 08:26:48.73	248.77	42.44	-52.2	-56.8	3.7	0.00e+00	0	49	104	8120172544	75	25101
2026-01-24 08:26:49.73	249.59	42.53	-52.1	-56.7	3.7	0.00e+00	0	49	104	8120172544	75	24962
2026-01-24 08:26:50.73	250.42	42.62	-52.2	-56.8	3.7	0.00e+00	0	49	104	8120172544	75	25186
2026-01-24 08:26:51.73	251.25	42.70	-52.2	-56.7	3.7	0.00e+00	0	49	104	8120172544	75	25024
2026-01-24 08:26:52.72	252.08	42.77	-52.1	-56.7	3.7	0.00e+00	0	49	104	8120172544	75	24848
2026-01-24 08:26:53.72	252.92	42.84	-52.1	-56.7	3.7	0.00e+00	0	49	104	8120172544	75	24817
2026-01-24 08:26:54.72	253.77	42.90	-52.2	-56.8	3.7	0.00e+00	0	49	104	8120172544	75	25264
2026-01-24 08:26:55.71	254.61	42.96	-52.1	-56.7	3.7	0.00e+00	0	49	104	8120172544	75	24970
2026-01-24 08:26:56.71	255.46	43.01	-52.1	-56.7	3.7	0.00e+00	0	49	104	8120172544	75	24905
2026-01-24 08:26:57.72	256.32	43.05	-52.1	-56.6	3.7	0.00e+00	0	49	104	8120172544	75	24707
2026-01-24 08:26:58.71	257.16	43.08	-52.4	-56.8	3.7	0.00e+00	0	49	104	8120172544	75	25369
2026-01-24 08:26:59.71	258.02	43.11	-52.0	-56.6	3.7	0.00e+00	0	49	104	8120172544	75	24743
2026-01-24 08:27:00.71	258.88	43.13	-52.0	-56.6	3.7	0.00e+00	0	49	104	8120172544	75	24768
2026-01-24 08:27:01.70	259.73	43.15	-52.0	-56.7	3.7	0.00e+00	0	49	104	8120172544	75	24918
2026-01-24 08:27:02.70	260.58	43.16	-52.1	-56.6	3.7	0.00e+00	0	49	104	8120172544	75	24536
2026-01-24 08:27:03.70	261.44	43.16	-51.5	-56.3	3.7	0.00e+00	0	49	104	8120172544	74	25195
2026-01-24 08:27:04.69	262.29	43.15	-51.6	-56.3	3.7	0.00e+00	0	49	104	8120172544	74	25361
2026-01-24 08:27:05.69	263.15	43.14	-52.0	-56.5	3.7	0.00e+00	0	49	104	8120172544	74	25799
2026-01-24 08:27:06.69	264.01	43.12	-51.5	-56.3	3.7	0.00e+00	0	49	104	8120172544	74	25197
2026-01-24 08:27:07.69	264.87	43.10	-51.9	-56.6	3.7	0.00e+00	0	49	104	8120172544	74	26216
2026-01-24 08:27:08.69	265.72	43.07	-52.1	-56.7	3.7	0.00e+00	0	49	104	8120172544	75	24937
2026-01-24 08:27:09.69	266.57	43.03	-52.3	-56.8	3.7	0.00e+00	0	49	104	8120172544	75	25246
2026-01-24 08:27:10.69	267.43	42.98	-51.9	-56.5	3.7	0.00e+00	0	49	104	8120172544	75	24447
2026-01-24 08:27:11.69	268.27	42.93	-51.9	-56.5	3.7	0.00e+00	0	49	104	8120172544	75	24408
2026-01-24 08:27:12.68	269.11	42.87	-52.0	-56.6	3.7	0.00e+00	0	49	104	8120172544	75	24538
2026-01-24 08:27:13.67	269.94	42.81	-52.2	-56.7	3.7	0.00e+00	0	49	104	8120172544	75	25055
2026-01-24 08:27:14.67	270.78	42.73	-51.8	-56.5	3.7	0.00e+00	0	49	104	8120172544	75	24334
2026-01-24 08:27:15.67	271.61	42.66	-51.8	-56.5	3.7	0.00e+00	0	49	104	8120172544	75	24487
2026-01-24 08:27:16.67	272.44	42.57	-51.8	-56.6	3.7	0.00e+00	0	49	104	8120172544	75	24614
2026-01-24 08:27:17.67	273.27	42.48	-52.0	-56.7	3.7	0.00e+00	0	49	104	8120172544	75	24854
2026-01-24 08:27:18.66	274.08	42.39	-52.3	-56.8	3.7	0.00e+00	0	49	104	8120172544	75	25284
2026-01-24 08:27:19.66	274.89	42.28	-52.3	-56.8	3.7	0.00e+00	0	49	104	8120172544	75	25306
2026-01-24 08:27:20.66	275.70	42.18	-52.3	-56.8	3.7	0.00e+00	0	49	104	8120172544	75	25266
2026-01-24 08:27:21.65	276.50	42.06	-52.1	-56.7	3.7	0.00e+00	0	49	104	8120172544	75	25059
2026-01-24 08:27:22.65	277.29	41.94	-52.1	-56.6	3.7	0.00e+00	0	49	104	8120172544	75	24670
2026-01-24 08:27:23.65	278.08	41.82	-52.0	-56.5	3.7	0.00e+00	0	49	104	8120172544	75	24480
2026-01-24 08:27:24.65	278.87	41.69	-51.8	-56.4	3.7	0.00e+00	0	49	104	8120172544	75	24205
2026-01-24 08:27:25.65	279.65	41.56	-51.7	-56.4	3.7	0.00e+00	0	49	104	8120172544	75	24228
2026-01-24 08:27:26.65	280.42	41.42	-52.0	-56.5	3.7	0.00e+00	0	49	104	8120172544	75	24302
2026-01-24 08:27:27.64	281.17	41.27	-52.2	-56.6	3.7	0.00e+00	0	49	104	8120172544	75	24760
2026-01-24 08:27:28.64	281.93	41.12	-52.1	-56.6	3.7	0.00e+00	0	49	104	8120172544	75	24708
2026-01-24 08:27:29.64	282.68	40.97	-52.1	-56.7	3.7	0.00e+00	0	49	104	8120172544	75	24814
2026-01-24 08:27:30.64	283.42	40.81	-52.2	-56.5	3.7	0.00e+00	0	49	104	8120172544	75	24417
2026-01-24 08:27:31.63	284.15	40.65	-52.1	-56.7	3.7	0.00e+00	0	49	104	8120172544	75	24864
2026-01-24 08:27:32.63	284.87	40.48	-52.1	-56.6	3.7	0.00e+00	0	49	104	8120172544	75	24704
2026-01-24 08:27:33.63	285.59	40.31	-52.2	-56.7	3.7	0.00e+00	0	49	104	8120172544	75	25033
2026-01-24 08:27:34.62	286.29	40.14	-52.3	-56.8	3.7	0.00e+00	0	49	104	8120172544	75	25188
2026-01-24 08:27:35.62	287.00	39.96	-52.0	-56.6	3.7	0.00e+00	0	49	104	8120172544	75	24707
2026-01-24 08:27:36.62	287.69	39.78	-51.9	-56.5	3.7	0.00e+00	0	49	104	8120172544	75	24447
2026-01-24 08:27:37.61	288.37	39.60	-51.8	-56.4	3.7	0.00e+00	0	49	104	8120172544	75	24154
2026-01-24 08:27:38.61	289.05	39.41	-51.9	-56.5	3.7	0.00e+00	0	49	104	8120172544	75	24457
2026-01-24 08:27:39.61	289.72	39.22	-52.0	-56.5	3.7	0.00e+00	0	49	104	8120172544	75	24474
2026-01-24 08:27:40.61	290.38	39.03	-52.0	-56.5	3.7	0.00e+00	0	49	104	8120172544	75	24258
2026-01-24 08:27:41.61	291.03	38.83	-52.0	-56.5	3.7	0.00e+00	0	49	104	8120172544	75	24343
2026-01-24 08:27:42.61	291.68	38.63	-51.9	-56.6	3.7	0.00e+00	0	49	104	8120172544	75	24671
2026-01-24 08:27:43.61	292.32	38.43	-52.2	-56.6	3.7	0.00e+00	0	49	104	8120172544	75	24716
2026-01-24 08:27:44.61	292.95	38.23	-52.2	-56.7	3.7	0.00e+00	0	49	104	8120172544	75	24816
2026-01-24 08:27:45.61	293.57	38.02	-52.2	-56.7	3.7	0.00e+00	0	49	104	8120172544	75	24897
2026-01-24 08:27:46.61	294.18	37.81	-52.2	-56.7	3.7	0.00e+00	0	49	104	8120172544	75	24976
2026-01-24 08:27:47.60	294.78	37.61	-51.9	-56.3	3.7	0.00e+00	0	49	104	8120172544	75	23777
2026-01-24 08:27:48.60	295.37	37.40	-51.8	-56.3	3.7	0.00e+00	0	49	104	8120172544	75	23745
2026-01-24 08:27:49.60	295.96	37.18	-51.7	-56.0	3.7	0.00e+00	0	49	104	8120172544	75	23138
2026-01-24 08:27:50.60	296.54	36.97	-51.9	-56.3	3.7	0.00e+00	0	49	104	8120172544	75	23728
2026-01-24 08:27:51.60	297.11	36.75	-51.7	-56.2	3.6	0.00e+00	0	49	104	8120172544	75	23423
2026-01-24 08:27:52.60	297.68	36.53	-51.6	-56.1	3.7	0.00e+00	0	49	104	8120172544	75	23254
2026-01-24 08:27:53.60	298.23	36.32	-51.5	-55.8	3.7	0.00e+00	0	49	104	8120172544	74	23747
2026-01-24 08:27:54.60	298.78	36.10	-51.7	-55.9	3.7	0.00e+00	0	49	104	8120172544	74	24135
2026-01-24 08:27:55.59	299.31	35.88	-51.8	-56.1	3.7	0.00e+00	0	49	104	8120172544	74	24561
2026-01-24 08:27:56.60	299.85	35.65	-51.8	-56.0	3.6	0.00e+00	0	49	104	8120172544	74	24502
2026-01-24 08:27:57.59	300.37	35.43	-51.6	-55.9	3.7	0.00e+00	0	49	104	8120172544	74	24049
2026-01-24 08:27:58.59	300.89	35.21	-51.5	-55.9	3.7	0.00e+00	0	49	104	8120172544	74	24078
2026-01-24 08:27:59.58	301.39	34.99	-51.5	-55.9	3.7	0.00e+00	0	49	104	8120172544	74	24084
2026-01-24 08:28:00.58	301.90	34.77	-51.6	-55.9	3.7	0.00e+00	0	48	104	8120172544	74	24226
2026-01-24 08:28:01.58	302.39	34.54	-51.6	-55.9	3.7	0.00e+00	0	49	104	8120172544	74	24033
2026-01-24 08:28:02.58	302.88	34.32	-51.6	-56.1	3.7	0.00e+00	0	49	104	8120172544	74	24533
2026-01-24 08:28:03.58	303.36	34.09	-51.0	-55.6	3.7	0.00e+00	0	49	104	8120172544	74	23350
2026-01-24 08:28:04.58	303.84	33.87	-50.8	-55.5	3.7	0.00e+00	0	49	104	8120172544	73	24421
2026-01-24 08:28:05.58	304.31	33.64	-50.8	-55.5	3.7	0.00e+00	0	49	104	8120172544	73	24344
2026-01-24 08:28:06.57	304.76	33.42	-51.1	-55.6	3.7	0.00e+00	0	49	104	8120172544	73	24605
2026-01-24 08:28:07.57	305.21	33.19	-51.5	-56.0	3.7	0.00e+00	0	49	104	8120172544	73	25846
2026-01-24 08:28:08.57	305.66	32.97	-51.5	-56.0	3.7	0.00e+00	0	49	104	8120172544	73	25826
2026-01-24 08:28:09.57	306.10	32.74	-51.4	-55.9	3.7	0.00e+00	0	49	104	8120172544	73	25507
2026-01-24 08:28:10.56	306.53	32.52	-51.6	-56.1	3.7	0.00e+00	0	49	104	8120172544	73	26068
2026-01-24 08:28:11.56	306.96	32.30	-51.8	-56.3	3.7	0.00e+00	0	49	104	8120172544	74	25296
2026-01-24 08:28:12.56	307.38	32.07	-51.8	-56.3	3.7	0.00e+00	0	49	104	8120172544	74	25284
2026-01-24 08:28:13.56	307.80	31.85	-51.7	-56.3	3.7	0.00e+00	0	49	104	8120172544	74	25129
2026-01-24 08:28:14.56	308.21	31.63	-51.7	-56.3	3.7	0.00e+00	0	49	104	8120172544	74	25265
2026-01-24 08:28:15.55	308.61	31.41	-51.8	-56.3	3.7	0.00e+00	0	49	104	8120172544	74	25228
2026-01-24 08:28:16.55	309.01	31.19	-51.7	-56.2	3.7	0.00e+00	0	49	104	8120172544	74	25051
2026-01-24 08:28:17.55	309.40	30.97	-51.7	-56.2	3.7	0.00e+00	0	49	104	8120172544	74	25048
2026-01-24 08:28:18.55	309.78	30.74	-51.6	-56.3	3.7	0.00e+00	0	49	104	8120172544	74	25106
2026-01-24 08:28:19.54	310.16	30.53	-51.6	-56.4	3.7	0.00e+00	0	49	104	8120172544	74	25390
2026-01-24 08:28:20.54	310.54	30.31	-51.6	-56.3	3.7	0.00e+00	0	49	104	8120172544	74	25307
2026-01-24 08:28:21.54	310.91	30.09	-51.5	-56.2	3.7	0.00e+00	0	49	104	8120172544	74	25092
2026-01-24 08:28:22.54	311.27	29.87	-51.6	-56.3	3.7	0.00e+00	0	49	104	8120172544	74	25105
2026-01-24 08:28:23.53	311.63	29.66	-51.8	-56.3	3.7	0.00e+00	0	49	104	8120172544	74	25299
2026-01-24 08:28:24.53	311.98	29.44	-51.9	-56.4	3.7	0.00e+00	0	49	104	8120172544	74	25449
2026-01-24 08:28:25.53	312.33	29.23	-51.9	-56.4	3.7	0.00e+00	0	49	104	8120172544	74	25515
2026-01-24 08:28:26.53	312.67	29.01	-52.0	-56.4	3.7	0.00e+00	0	49	104	8120172544	74	25647
2026-01-24 08:28:27.53	313.01	28.80	-52.1	-56.5	3.7	0.00e+00	0	49	104	8120172544	74	25945
2026-01-24 08:28:28.52	313.34	28.59	-52.0	-56.5	3.7	0.00e+00	0	49	104	8120172544	74	25802
2026-01-24 08:28:29.52	313.67	28.38	-52.0	-56.5	3.7	0.00e+00	0	49	104	8120172544	74	25844
2026-01-24 08:28:30.52	314.00	28.17	-51.6	-56.2	3.7	0.00e+00	0	49	104	8120172544	74	25091
2026-01-24 08:28:31.53	314.32	27.96	-50.6	-55.7	3.7	0.00e+00	0	49	104	8120172544	73	24982
2026-01-24 08:28:32.52	314.63	27.75	-50.2	-55.5	3.7	0.00e+00	0	49	104	8120172544	71	27485
2026-01-24 08:28:33.52	314.95	27.55	-50.1	-55.4	3.7	0.00e+00	0	49	104	8120172544	72	25497
2026-01-24 08:28:34.52	315.25	27.34	-49.8	-55.2	3.7	0.00e+00	0	49	104	8120172544	71	26450
2026-01-24 08:28:35.52	315.56	27.14	-50.3	-55.3	3.7	0.00e+00	0	49	104	8120172544	71	26797
2026-01-24 08:28:36.51	315.85	26.93	-50.5	-55.4	3.7	0.00e+00	0	49	104	8120172544	72	25481
2026-01-24 08:28:37.51	316.15	26.73	-50.6	-55.4	3.7	0.00e+00	0	49	104	8120172544	72	25558
2026-01-24 08:28:38.51	316.44	26.53	-51.3	-55.7	3.7	0.00e+00	0	49	104	8120172544	73	24908
2026-01-24 08:28:39.51	316.72	26.33	-51.5	-55.7	3.7	0.00e+00	0	49	104	8120172544	73	25048
2026-01-24 08:28:40.51	317.01	26.13	-51.5	-55.8	3.7	0.00e+00	0	49	104	8120172544	73	25095
2026-01-24 08:28:41.50	317.28	25.93	-51.5	-55.8	3.7	0.00e+00	0	49	104	8120172544	73	25131
2026-01-24 08:28:42.50	317.56	25.74	-51.3	-55.8	3.7	0.00e+00	0	49	104	8120172544	73	25233
2026-01-24 08:28:43.49	317.83	25.54	-50.9	-55.5	3.7	0.00e+00	0	49	104	8120172544	73	24326
2026-01-24 08:28:44.50	318.10	25.35	-50.8	-55.5	3.7	0.00e+00	0	49	104	8120172544	73	24453
2026-01-24 08:28:45.49	318.36	25.16	-50.8	-55.5	3.7	0.00e+00	0	49	104	8120172544	73	24301
2026-01-24 08:28:46.49	318.62	24.96	-50.6	-55.4	3.7	0.00e+00	0	49	104	8120172544	73	24138
2026-01-24 08:28:47.49	318.88	24.77	-50.7	-55.5	3.7	0.00e+00	0	49	104	8120172544	73	24375
2026-01-24 08:28:48.48	319.13	24.58	-50.5	-55.5	3.7	0.00e+00	0	49	104	8120172544	72	25747
2026-01-24 08:28:49.49	319.38	24.39	-50.5	-55.4	3.7	0.00e+00	0	49	104	8120172544	72	25590
2026-01-24 08:28:50.48	319.62	24.21	-50.3	-55.4	3.7	0.00e+00	0	49	104	8120172544	72	25593
2026-01-24 08:28:51.48	319.87	24.02	-50.4	-55.5	3.7	0.00e+00	0	49	104	8120172544	72	25954
2026-01-24 08:28:52.48	320.11	23.84	-50.3	-55.5	3.7	0.00e+00	0	49	104	8120172544	72	25687
2026-01-24 08:28:53.49	320.35	23.65	-50.2	-55.4	3.7	0.00e+00	0	49	104	8120172544	72	25541
2026-01-24 08:28:54.48	320.58	23.47	-49.8	-55.2	3.7	0.00e+00	0	49	104	8120172544	71	26294
2026-01-24 08:28:55.49	320.82	23.29	-49.1	-54.6	3.7	0.00e+00	0	49	104	8120172544	70	26066
2026-01-24 08:28:56.48	321.04	23.11	-48.9	-54.5	3.7	0.00e+00	0	49	104	8120172544	69	27322
2026-01-24 08:28:57.48	321.27	22.93	-49.0	-54.5	3.7	0.00e+00	0	49	104	8120172544	69	27367
2026-01-24 08:28:58.48	321.49	22.75	-49.6	-54.9	3.7	0.00e+00	0	49	104	8120172544	69	28622
2026-01-24 08:28:59.47	321.71	22.57	-50.5	-55.5	3.7	0.00e+00	0	49	104	8120172544	71	27210
2026-01-24 08:29:00.47	321.93	22.40	-50.6	-55.4	3.7	0.00e+00	0	49	104	8120172544	72	25565
2026-01-24 08:29:01.46	322.14	22.22	-50.6	-55.4	3.7	0.00e+00	0	49	104	8120172544	72	25674
2026-01-24 08:29:02.46	322.35	22.05	-50.1	-55.0	3.7	0.00e+00	0	49	104	8120172544	72	24513
2026-01-24 08:29:03.46	322.56	21.88	-49.4	-54.5	3.7	0.00e+00	0	49	104	8120172544	70	25774
2026-01-24 08:29:04.46	322.77	21.71	-49.3	-54.5	3.7	0.00e+00	0	49	104	8120172544	70	25802
2026-01-24 08:29:05.45	322.97	21.54	-49.4	-54.6	3.7	0.00e+00	0	49	104	8120172544	70	26211
2026-01-24 08:29:06.45	323.17	21.37	-50.0	-55.0	3.7	0.00e+00	0	49	104	8120172544	70	27322
2026-01-24 08:29:07.44	323.37	21.20	-50.3	-55.1	3.7	0.00e+00	0	49	104	8120172544	71	26124
2026-01-24 08:29:08.44	323.57	21.04	-50.3	-55.3	3.7	0.00e+00	0	49	104	8120172544	71	26770
2026-01-24 08:29:09.44	323.76	20.87	-50.4	-55.4	3.7	0.00e+00	0	49	104	8120172544	71	27040
2026-01-24 08:29:10.44	323.95	20.70	-50.2	-55.3	3.7	0.00e+00	0	49	104	8120172544	71	26620
2026-01-24 08:29:11.43	324.14	20.54	-50.1	-54.9	3.7	0.00e+00	0	49	104	8120172544	71	25633
2026-01-24 08:29:12.43	324.33	20.38	-50.3	-55.2	3.7	0.00e+00	0	49	104	8120172544	71	26353
2026-01-24 08:29:13.43	324.52	20.22	-50.3	-55.2	3.7	0.00e+00	0	49	104	8120172544	71	26554
2026-01-24 08:29:14.43	324.70	20.06	-50.3	-55.4	3.7	0.00e+00	0	49	104	8120172544	71	26941
2026-01-24 08:29:15.43	324.88	19.90	-50.0	-55.0	3.7	0.00e+00	0	49	104	8120172544	71	25941
2026-01-24 08:29:16.43	325.06	19.74	-50.0	-55.3	3.7	0.00e+00	0	49	104	8120172544	71	26751
2026-01-24 08:29:17.42	325.24	19.58	-50.1	-55.3	3.7	0.00e+00	0	49	104	8120172544	71	26784
2026-01-24 08:29:18.41	325.41	19.43	-50.3	-55.6	3.7	0.00e+00	0	49	104	8120172544	71	27717
2026-01-24 08:29:19.41	325.58	19.27	-50.6	-55.6	3.7	0.00e+00	0	49	104	8120172544	71	27782
2026-01-24 08:29:20.41	325.75	19.12	-51.2	-56.0	3.6	0.00e+00	0	49	104	8120172544	73	25776
2026-01-24 08:29:21.40	325.92	18.97	-50.8	-55.9	3.7	0.00e+00	0	49	104	8120172544	73	25405
2026-01-24 08:29:22.40	326.09	18.81	-51.5	-56.2	3.7	0.00e+00	0	49	104	8120172544	73	26283
2026-01-24 08:29:23.39	326.25	18.66	-51.4	-56.0	3.7	0.00e+00	0	49	104	8120172544	73	25877
2026-01-24 08:29:24.39	326.42	18.51	-50.9	-55.8	3.7	0.00e+00	0	49	104	8120172544	73	25363
2026-01-24 08:29:25.39	326.58	18.36	-51.3	-56.1	3.7	0.00e+00	0	49	104	8120172544	73	26056
2026-01-24 08:29:26.38	326.74	18.22	-49.4	-54.9	3.7	0.00e+00	0	49	104	8120172544	70	27071
2026-01-24 08:29:27.38	326.89	18.07	-49.2	-54.6	3.7	0.00e+00	0	49	104	8120172544	70	26138
2026-01-24 08:29:28.38	327.05	17.92	-49.0	-54.5	3.7	0.00e+00	0	49	104	8120172544	70	25952
2026-01-24 08:29:29.38	327.21	17.78	-49.3	-54.8	3.7	0.00e+00	0	49	104	8120172544	70	26593
2026-01-24 08:29:30.38	327.36	17.63	-49.7	-55.0	3.7	0.00e+00	0	49	104	8120172544	70	27393
2026-01-24 08:29:31.38	327.51	17.49	-50.2	-55.3	3.7	0.00e+00	0	49	104	8120172544	70	28261
2026-01-24 08:29:32.38	327.66	17.35	-50.1	-55.4	3.7	0.00e+00	0	49	104	8120172544	71	27010
2026-01-24 08:29:33.38	327.81	17.20	-50.3	-55.5	3.7	0.00e+00	0	49	104	8120172544	71	27294
2026-01-24 08:29:34.37	327.95	17.07	-49.7	-55.0	3.7	0.00e+00	0	49	104	8120172544	71	25707
2026-01-24 08:29:35.37	328.10	16.93	-50.0	-55.3	3.7	0.00e+00	0	49	104	8120172544	71	26673
2026-01-24 08:29:36.37	328.24	16.79	-50.0	-55.2	3.7	0.00e+00	0	49	104	8120172544	71	26431
2026-01-24 08:29:37.37	328.38	16.65	-50.2	-55.4	3.7	0.00e+00	0	49	104	8120172544	71	27187
2026-01-24 08:29:38.37	328.53	16.51	-49.8	-55.2	3.7	0.00e+00	0	49	104	8120172544	71	26369
2026-01-24 08:29:39.36	328.66	16.37	-49.7	-55.0	3.7	0.00e+00	0	49	104	8120172544	71	25924
2026-01-24 08:29:40.36	328.80	16.24	-49.5	-55.0	3.7	0.00e+00	0	49	104	8120172544	70	27309
2026-01-24 08:29:41.35	328.94	16.11	-49.4	-55.0	3.7	0.00e+00	0	49	104	8120172544	70	27236
2026-01-24 08:29:42.35	329.07	15.97	-50.0	-55.3	3.7	0.00e+00	0	49	104	8120172544	70	28342
2026-01-24 08:29:43.34	329.20	15.84	-51.4	-56.2	3.7	0.00e+00	0	49	104	8120172544	73	26386
2026-01-24 08:29:44.34	329.34	15.71	-50.6	-55.7	3.7	0.00e+00	0	49	104	8120172544	72	26377
2026-01-24 08:29:45.34	329.47	15.58	-51.2	-56.0	3.7	0.00e+00	0	49	104	8120172544	73	25956
2026-01-24 08:29:46.34	329.60	15.44	-51.3	-56.1	3.7	0.00e+00	0	49	104	8120172544	73	26185
2026-01-24 08:29:47.34	329.72	15.31	-51.3	-56.1	3.7	0.00e+00	0	49	104	8120172544	73	25987
2026-01-24 08:29:48.34	329.85	15.19	-51.3	-55.9	3.7	0.00e+00	0	49	104	8120172544	73	25597
2026-01-24 08:29:49.34	329.98	15.06	-51.3	-55.7	3.7	0.00e+00	0	49	104	8120172544	73	25069
2026-01-24 08:29:50.34	330.10	14.93	-51.0	-55.6	3.7	0.00e+00	0	49	104	8120172544	73	24527
2026-01-24 08:29:51.34	330.23	14.80	-50.9	-55.7	3.7	0.00e+00	0	49	104	8120172544	73	25050
2026-01-24 08:29:52.34	330.35	14.68	-51.2	-56.0	3.7	0.00e+00	0	49	104	8120172544	73	25948
2026-01-24 08:29:53.34	330.47	14.55	-50.6	-55.6	3.7	0.00e+00	0	49	104	8120172544	73	24545
2026-01-24 08:29:54.34	330.59	14.43	-50.6	-55.4	3.7	0.00e+00	0	49	104	8120172544	73	24160
2026-01-24 08:29:55.34	330.71	14.30	-50.7	-55.6	3.7	0.00e+00	0	49	104	8120172544	73	24780
2026-01-24 08:29:56.34	330.82	14.18	-50.8	-55.7	3.7	0.00e+00	0	49	104	8120172544	73	25008
2026-01-24 08:29:57.34	330.94	14.06	-50.8	-55.8	3.7	0.00e+00	0	49	104	8120172544	73	25248
2026-01-24 08:29:58.34	331.06	13.94	-50.9	-55.8	3.7	0.00e+00	0	49	104	8120172544	73	25281
2026-01-24 08:29:59.33	331.17	13.82	-50.5	-55.5	3.7	0.00e+00	0	49	104	8120172544	73	24444
2026-01-24 08:30:00.33	331.28	13.70	-50.6	-55.6	3.6	0.00e+00	0	49	104	8120172544	73	24683
2026-01-24 08:30:01.33	331.39	13.58	-50.6	-55.6	3.7	0.00e+00	0	49	104	8120172544	73	24751
2026-01-24 08:30:02.33	331.50	13.46	-50.6	-55.6	3.7	0.00e+00	0	49	104	8120172544	73	24714
2026-01-24 08:30:03.32	331.61	13.34	-50.5	-55.6	3.7	0.00e+00	0	49	104	8120172544	72	26002
2026-01-24 08:30:04.32	331.72	13.22	-50.6	-55.6	3.7	0.00e+00	0	49	104	8120172544	72	26076
2026-01-24 08:30:05.32	331.83	13.11	-51.1	-55.8	3.7	0.00e+00	0	49	104	8120172544	72	26813
2026-01-24 08:30:06.32	331.94	12.99	-51.5	-56.1	3.7	0.00e+00	0	49	104	8120172544	73	26019
2026-01-24 08:30:07.32	332.04	12.87	-50.8	-55.7	3.7	0.00e+00	0	49	104	8120172544	73	24912
2026-01-24 08:30:08.32	332.15	12.76	-51.3	-55.9	3.7	0.00e+00	0	49	104	8120172544	73	25600
2026-01-24 08:30:09.31	332.25	12.65	-51.3	-55.9	3.7	0.00e+00	0	49	104	8120172544	73	25663
2026-01-24 08:30:10.32	332.36	12.53	-51.0	-55.7	3.7	0.00e+00	0	49	104	8120172544	73	24891
2026-01-24 08:30:11.31	332.46	12.42	-51.4	-56.0	3.7	0.00e+00	0	49	104	8120172544	73	25756
2026-01-24 08:30:12.31	332.56	12.31	-51.2	-55.9	3.7	0.00e+00	0	49	104	8120172544	73	25395
2026-01-24 08:30:13.31	332.66	12.20	-50.6	-55.6	3.7	0.00e+00	0	49	104	8120172544	73	24635
2026-01-24 08:30:14.31	332.76	12.09	-50.6	-55.6	3.7	0.00e+00	0	49	104	8120172544	73	24729
2026-01-24 08:30:15.31	332.86	11.97	-50.9	-55.7	3.7	0.00e+00	0	49	104	8120172544	73	24982
2026-01-24 08:30:16.31	332.96	11.86	-50.6	-55.7	3.7	0.00e+00	0	49	104	8120172544	73	24884
2026-01-24 08:30:17.32	333.05	11.75	-50.6	-55.6	3.7	0.00e+00	0	49	104	8120172544	73	24684
2026-01-24 08:30:18.31	333.15	11.65	-50.6	-55.7	3.7	0.00e+00	0	49	104	8120172544	73	25056
2026-01-24 08:30:19.31	333.24	11.54	-50.5	-55.6	3.7	0.00e+00	0	49	104	8120172544	72	26212
2026-01-24 08:30:20.31	333.34	11.43	-50.7	-55.8	3.7	0.00e+00	0	49	104	8120172544	72	26749
2026-01-24 08:30:21.31	333.43	11.32	-50.7	-55.7	3.7	0.00e+00	0	49	104	8120172544	72	26557
2026-01-24 08:30:22.31	333.52	11.22	-50.7	-55.8	3.7	0.00e+00	0	49	104	8120172544	72	26690
2026-01-24 08:30:23.31	333.62	11.11	-50.7	-55.8	3.7	0.00e+00	0	49	104	8120172544	72	26742
2026-01-24 08:30:24.31	333.71	11.01	-50.8	-55.8	3.7	0.00e+00	0	49	104	8120172544	72	26680
2026-01-24 08:30:25.30	333.80	10.90	-51.0	-55.9	3.7	0.00e+00	0	49	104	8120172544	72	26935
2026-01-24 08:30:26.30	333.89	10.80	-50.5	-55.4	3.7	0.00e+00	0	49	104	8120172544	72	25638
2026-01-24 08:30:27.30	333.98	10.70	-50.8	-55.7	3.7	0.00e+00	0	49	104	8120172544	72	26578
2026-01-24 08:30:28.30	334.07	10.59	-50.4	-55.4	3.7	0.00e+00	0	49	104	8120172544	72	25628
2026-01-24 08:30:29.30	334.15	10.49	-50.4	-55.4	3.7	0.00e+00	0	49	104	8120172544	72	25670
2026-01-24 08:30:30.30	334.24	10.39	-49.9	-55.1	3.7	0.00e+00	0	49	104	8120172544	71	26158
2026-01-24 08:30:31.29	334.33	10.29	-50.4	-55.4	3.7	0.00e+00	0	49	104	8120172544	71	27056
2026-01-24 08:30:32.30	334.41	10.19	-49.8	-55.0	3.7	0.00e+00	0	49	104	8120172544	71	25894
2026-01-24 08:30:33.29	334.50	10.09	-50.1	-55.3	3.7	0.00e+00	0	49	104	8120172544	71	26720
2026-01-24 08:30:34.29	334.58	9.99	-50.5	-55.6	3.7	0.00e+00	0	49	104	8120172544	71	27714
2026-01-24 08:30:35.30	334.66	9.89	-49.8	-55.1	3.7	0.00e+00	0	49	104	8120172544	71	25981
2026-01-24 08:30:36.30	334.75	9.79	-49.8	-55.1	3.7	0.00e+00	0	49	104	8120172544	71	26052
2026-01-24 08:30:37.29	334.83	9.69	-49.8	-55.1	3.7	0.00e+00	0	49	104	8120172544	71	26096
2026-01-24 08:30:38.29	334.91	9.59	-49.9	-55.1	3.7	0.00e+00	0	49	104	8120172544	71	26233
2026-01-24 08:30:39.29	334.99	9.49	-50.1	-55.4	3.7	0.00e+00	0	49	104	8120172544	71	26948
2026-01-24 08:30:40.29	335.07	9.40	-50.4	-55.6	3.7	0.00e+00	0	49	104	8120172544	71	27688
2026-01-24 08:30:41.29	335.15	9.30	-50.7	-55.7	3.7	0.00e+00	0	49	104	8120172544	72	26576
2026-01-24 08:30:42.29	335.23	9.20	-49.1	-54.6	3.7	0.00e+00	0	49	104	8120172544	70	26070
2026-01-24 08:30:43.28	335.31	9.11	-49.4	-54.9	3.7	0.00e+00	0	49	104	8120172544	70	27014
2026-01-24 08:30:44.28	335.38	9.01	-48.7	-54.5	3.7	0.00e+00	0	49	104	8120172544	69	27294
2026-01-24 08:30:45.28	335.46	8.92	-50.3	-55.5	3.7	0.00e+00	0	49	104	8120172544	71	27212
2026-01-24 08:30:46.27	335.54	8.83	-50.8	-55.7	3.7	0.00e+00	0	49	104	8120172544	72	26436
2026-01-24 08:30:47.27	335.61	8.73	-51.1	-56.0	3.7	0.00e+00	0	49	104	8120172544	72	27269
2026-01-24 08:30:48.27	335.69	8.64	-49.9	-55.3	3.7	0.00e+00	0	49	104	8120172544	70	28368
2026-01-24 08:30:49.27	335.76	8.55	-50.5	-55.8	3.7	0.00e+00	0	49	104	8120172544	73	25245
2026-01-24 08:30:50.26	335.84	8.45	-51.2	-56.0	3.7	0.00e+00	0	49	104	8120172544	73	25954
2026-01-24 08:30:51.26	335.91	8.36	-50.6	-55.5	3.7	0.00e+00	0	49	104	8120172544	72	25939
2026-01-24 08:30:52.26	335.98	8.27	-50.6	-55.9	3.7	0.00e+00	0	49	104	8120172544	73	25455
2026-01-24 08:30:53.26	336.06	8.18	-50.6	-55.9	3.7	0.00e+00	0	49	104	8120172544	73	25586
2026-01-24 08:30:54.25	336.13	8.09	-51.7	-56.4	3.7	0.00e+00	0	49	104	8120172544	74	25546
2026-01-24 08:30:55.25	336.20	8.00	-51.7	-56.5	3.7	0.00e+00	0	49	104	8120172544	74	25928
2026-01-24 08:30:56.24	336.27	7.91	-52.2	-56.8	3.7	0.00e+00	0	49	104	8120172544	75	25153
2026-01-24 08:30:57.24	336.34	7.82	-51.4	-56.3	3.7	0.00e+00	0	49	104	8120172544	74	25336
2026-01-24 08:30:58.24	336.41	7.73	-52.0	-56.7	3.7	0.00e+00	0	49	104	8120172544	74	26561
2026-01-24 08:30:59.24	336.48	7.64	-51.7	-56.6	3.7	0.00e+00	0	49	104	8120172544	75	24784
2026-01-24 08:31:00.24	336.55	7.55	-51.7	-56.7	3.7	0.00e+00	0	49	104	8120172544	75	24997
2026-01-24 08:31:01.23	336.62	7.47	-52.6	-57.1	3.7	0.00e+00	0	49	104	8120172544	75	26185
2026-01-24 08:31:02.24	336.69	7.38	-52.7	-57.2	3.7	0.00e+00	0	49	104	8120172544	76	24817
2026-01-24 08:31:03.23	336.75	7.29	-52.7	-57.1	3.7	0.00e+00	0	49	104	8120172544	76	24747
2026-01-24 08:31:04.23	336.82	7.20	-52.2	-56.8	3.7	0.00e+00	0	49	104	8120172544	76	23822
2026-01-24 08:31:05.23	336.89	7.12	-52.4	-56.9	3.7	0.00e+00	0	49	104	8120172544	75	25547
2026-01-24 08:31:06.23	336.95	7.03	-52.3	-56.8	3.7	0.00e+00	0	49	104	8120172544	75	25120
2026-01-24 08:31:07.23	337.02	6.95	-52.3	-56.7	3.7	0.00e+00	0	49	104	8120172544	75	25062
2026-01-24 08:31:08.23	337.08	6.86	-51.8	-56.4	3.7	0.00e+00	0	49	104	8120172544	74	25652
2026-01-24 08:31:09.23	337.15	6.77	-51.8	-56.3	3.7	0.00e+00	0	49	104	8120172544	74	25309
2026-01-24 08:31:10.22	337.21	6.69	-51.8	-56.3	3.7	0.00e+00	0	49	104	8120172544	74	25280
2026-01-24 08:31:11.23	337.28	6.61	-51.8	-56.3	3.7	0.00e+00	0	49	104	8120172544	74	25243
2026-01-24 08:31:12.23	337.34	6.52	-51.8	-56.3	3.7	0.00e+00	0	49	104	8120172544	74	25160
2026-01-24 08:31:13.23	337.40	6.44	-51.8	-56.3	3.7	0.00e+00	0	49	104	8120172544	74	25140
2026-01-24 08:31:14.22	337.47	6.36	-51.8	-56.3	3.6	0.00e+00	0	49	104	8120172544	74	25210
2026-01-24 08:31:15.22	337.53	6.27	-51.8	-56.3	3.7	0.00e+00	0	49	104	8120172544	74	25126
2026-01-24 08:31:16.22	337.59	6.19	-51.8	-56.3	3.7	0.00e+00	0	49	104	8120172544	74	25164
2026-01-24 08:31:17.21	337.65	6.11	-51.8	-56.3	3.7	0.00e+00	0	49	104	8120172544	74	25207
2026-01-24 08:31:18.20	337.71	6.03	-51.8	-56.3	3.7	0.00e+00	0	49	104	8120172544	74	25188
2026-01-24 08:31:19.20	337.77	5.95	-51.7	-56.3	3.7	0.00e+00	0	49	104	8120172544	74	25187
2026-01-24 08:31:20.20	337.83	5.86	-51.7	-56.3	3.7	0.00e+00	0	49	104	8120172544	74	25114
2026-01-24 08:31:21.20	337.89	5.78	-51.8	-56.3	3.7	0.00e+00	0	49	104	8120172544	74	25207
2026-01-24 08:31:22.20	337.95	5.70	-51.7	-56.3	3.7	0.00e+00	0	49	104	8120172544	74	25220
2026-01-24 08:31:23.19	338.01	5.62	-51.8	-56.3	3.7	0.00e+00	0	49	104	8120172544	74	25189
2026-01-24 08:31:24.19	338.07	5.54	-51.7	-56.3	3.7	0.00e+00	0	49	104	8120172544	74	25145
2026-01-24 08:31:25.19	338.13	5.46	-51.7	-56.3	3.7	0.00e+00	0	49	104	8120172544	74	25180
2026-01-24 08:31:26.19	338.18	5.38	-51.8	-56.3	3.7	0.00e+00	0	49	104	8120172544	74	25127
2026-01-24 08:31:27.19	338.24	5.30	-51.7	-56.2	3.7	0.00e+00	0	49	104	8120172544	74	25088
2026-01-24 08:31:28.18	338.30	5.23	-51.7	-56.3	3.7	0.00e+00	0	49	104	8120172544	74	25134
2026-01-24 08:31:29.18	338.36	5.15	-51.7	-56.3	3.7	0.00e+00	0	49	104	8120172544	74	25208
2026-01-24 08:31:30.18	338.41	5.07	-51.7	-56.3	3.7	0.00e+00	0	49	104	8120172544	74	25156
2026-01-24 08:31:31.18	338.47	4.99	-51.7	-56.3	3.7	0.00e+00	0	49	104	8120172544	74	25130

#Closed at: 2026-01-24 08:31:32
#Recorded file [8120 MB]: D:/Data/31040_260124_112240.dat