passes_logs/2026/01/24/T1/T1__20260124_042742_FENGYUN_3E_rec.log

#Pass ID: 20260124_042742_FENGYUN 3E
#Satellite: FENGYUN 3E
#Configuration: FENGYUN 3E
#almurnet v.1.7.20251203
#Start time: 2026-01-24 04:27:42

#Version: 2.0.20230620
#Station: T1
#Location: 37.570604 lon 55.790049 lat
#TLE: 1 49008U 21062A   26022.96857035  .00000014  00000+0  27449-4 0  9991
#TLE: 2 49008  98.7488  28.0032 0002359 122.8887 237.2516 14.19886951235971

#Time	Az	El	Level	Level2	SNR	BER	BlckErr	Temp	State	Recorded	gain1	gain2
2026-01-24 04:27:42.80	13.22	5.00	-48.7	-60.0	3.8	8.46e-01	0	39	0	0	66	14353
2026-01-24 04:27:43.79	13.19	5.07	-48.0	-59.7	3.8	8.46e-01	0	39	104	0	65	14687
2026-01-24 04:27:44.78	13.17	5.14	-48.0	-59.7	3.8	8.46e-01	0	39	104	0	65	14633
2026-01-24 04:27:45.77	13.15	5.21	-48.0	-59.7	3.8	8.46e-01	0	39	104	0	65	14574
2026-01-24 04:27:46.77	13.13	5.29	-48.0	-59.6	3.8	8.47e-01	0	39	104	0	65	14513
2026-01-24 04:27:47.76	13.10	5.36	-48.0	-59.6	3.8	8.46e-01	0	39	104	0	65	14431
2026-01-24 04:27:48.75	13.08	5.43	-48.0	-59.6	3.8	8.47e-01	0	40	104	0	65	14462
2026-01-24 04:27:49.75	13.06	5.50	-48.0	-59.6	3.8	8.47e-01	0	40	104	0	65	14416
2026-01-24 04:27:50.74	13.04	5.57	-48.0	-59.6	3.8	8.47e-01	0	40	104	0	65	14417
2026-01-24 04:27:51.73	13.01	5.64	-48.0	-59.7	3.8	8.47e-01	0	39	104	0	65	14568
2026-01-24 04:27:52.73	12.99	5.71	-48.0	-59.7	3.8	8.47e-01	0	40	104	0	65	14675
2026-01-24 04:27:53.72	12.97	5.78	-48.0	-59.8	3.8	8.48e-01	0	40	104	0	65	14869
2026-01-24 04:27:54.71	12.94	5.86	-48.0	-59.8	3.8	8.47e-01	0	40	104	0	65	14777
2026-01-24 04:27:55.71	12.92	5.93	-48.0	-59.9	3.8	8.47e-01	0	40	104	0	65	14881
2026-01-24 04:27:56.70	12.89	6.00	-48.0	-59.9	3.8	8.47e-01	0	40	104	0	65	14894
2026-01-24 04:27:57.70	12.87	6.07	-48.0	-59.9	3.8	8.47e-01	0	40	104	0	65	15026
2026-01-24 04:27:58.69	12.85	6.15	-48.0	-59.8	3.8	8.47e-01	0	40	104	0	65	14854
2026-01-24 04:27:59.68	12.82	6.22	-48.0	-59.7	3.8	8.46e-01	0	40	104	0	65	14687
2026-01-24 04:28:00.68	12.80	6.29	-48.0	-59.7	3.8	8.46e-01	0	40	104	0	65	14608
2026-01-24 04:28:01.67	12.77	6.37	-47.9	-59.4	3.8	8.46e-01	0	40	104	0	65	14205
2026-01-24 04:28:02.66	12.75	6.44	-47.9	-59.2	3.8	8.48e-01	0	40	104	0	65	13880
2026-01-24 04:28:03.66	12.72	6.51	-47.9	-59.0	3.8	8.46e-01	0	40	104	0	65	13522
2026-01-24 04:28:04.65	12.70	6.59	-47.9	-58.8	3.8	8.46e-01	0	40	104	0	65	13238
2026-01-24 04:28:05.64	12.67	6.66	-47.8	-58.5	3.8	8.47e-01	0	40	104	0	65	12741
2026-01-24 04:28:06.64	12.65	6.74	-47.8	-58.3	3.8	8.46e-01	0	40	104	0	65	12453
2026-01-24 04:28:07.63	12.62	6.81	-47.8	-58.1	3.8	8.46e-01	0	40	104	0	65	12214
2026-01-24 04:28:08.62	12.60	6.89	-47.8	-58.1	3.8	8.47e-01	0	40	104	0	65	12110
2026-01-24 04:28:09.62	12.57	6.96	-47.8	-58.1	3.9	8.45e-01	0	41	104	0	65	12127
2026-01-24 04:28:10.61	12.54	7.04	-47.8	-58.2	3.9	8.46e-01	0	40	104	0	65	12246
2026-01-24 04:28:11.61	12.52	7.11	-47.8	-58.4	3.8	8.45e-01	0	40	104	0	65	12532
2026-01-24 04:28:12.60	12.49	7.19	-47.9	-58.6	3.8	8.47e-01	0	40	104	0	65	12929
2026-01-24 04:28:13.59	12.46	7.26	-47.9	-58.8	3.8	8.48e-01	0	40	104	0	65	13243
2026-01-24 04:28:14.59	12.44	7.34	-47.9	-59.1	3.8	8.47e-01	0	40	104	0	65	13619
2026-01-24 04:28:15.58	12.41	7.42	-47.9	-59.2	3.8	8.48e-01	0	40	104	0	65	13754
2026-01-24 04:28:16.57	12.38	7.49	-47.9	-59.1	3.8	8.47e-01	0	40	104	0	65	13697
2026-01-24 04:28:17.57	12.36	7.57	-47.9	-58.8	3.8	8.47e-01	0	41	104	0	65	13246
2026-01-24 04:28:18.56	12.33	7.65	-47.8	-58.3	3.8	8.45e-01	0	41	104	0	65	12467
2026-01-24 04:28:19.55	12.30	7.72	-47.7	-57.6	3.8	8.45e-01	0	41	104	0	65	11450
2026-01-24 04:28:20.55	12.27	7.80	-47.6	-56.3	4.2	8.38e-01	0	41	0	0	65	9840
2026-01-24 04:28:21.54	12.25	7.88	-47.4	-55.0	4.7	8.14e-01	0	41	0	0	65	8498
2026-01-24 04:28:22.53	12.22	7.96	-47.1	-53.7	5.4	7.38e-01	0	41	0	0	64	7749
2026-01-24 04:28:23.53	12.19	8.04	-46.7	-52.3	6.5	2.57e-01	0	41	0	4194304	64	6579
2026-01-24 04:28:24.52	12.16	8.11	-46.3	-51.2	7.6	1.24e-01	0	41	0	11534336	63	6143
2026-01-24 04:28:25.51	12.13	8.19	-45.8	-49.9	8.9	4.51e-02	0	41	0	18874368	62	5604
2026-01-24 04:28:26.51	12.10	8.27	-45.3	-48.8	10.0	1.14e-02	0	41	0	26214400	61	5224
2026-01-24 04:28:27.50	12.08	8.35	-44.8	-47.9	11.0	3.11e-03	0	41	0	33554432	60	5017
2026-01-24 04:28:28.49	12.05	8.43	-44.3	-47.1	11.8	8.46e-04	0	41	0	39845888	59	4816
2026-01-24 04:28:29.49	12.02	8.51	-43.9	-46.4	12.4	2.15e-04	0	41	0	47185920	58	4739
2026-01-24 04:28:30.48	11.99	8.59	-43.7	-46.0	12.8	1.05e-04	0	41	0	54525952	58	4540
2026-01-24 04:28:31.47	11.96	8.67	-43.4	-45.6	13.3	3.43e-05	0	41	0	61865984	57	4580
2026-01-24 04:28:32.47	11.93	8.75	-43.4	-45.6	13.3	2.86e-05	0	41	0	69206016	57	4563
2026-01-24 04:28:33.46	11.90	8.83	-43.2	-45.4	13.5	6.80e-06	0	41	0	76546048	57	4463
2026-01-24 04:28:34.45	11.87	8.91	-43.4	-45.6	13.2	2.40e-05	0	41	0	83886080	57	4583
2026-01-24 04:28:35.45	11.84	8.99	-43.6	-45.9	12.9	6.17e-05	0	41	0	90177536	57	4742
2026-01-24 04:28:36.44	11.81	9.07	-44.5	-47.3	11.5	1.19e-04	0	41	0	97517568	58	5265
2026-01-24 04:28:37.43	11.78	9.16	-45.1	-48.3	10.5	2.97e-02	0	41	0	104857600	61	4952
2026-01-24 04:28:38.43	11.75	9.24	-43.2	-45.3	13.6	2.86e-05	0	41	0	112197632	57	4428
2026-01-24 04:28:39.42	11.72	9.32	-46.0	-50.3	8.4	5.27e-02	0	41	0	119537664	61	6238
2026-01-24 04:28:40.41	11.68	9.40	-44.8	-48.0	10.7	3.12e-01	0	41	0	124780544	60	5091
2026-01-24 04:28:41.41	11.65	9.49	-39.1	-40.4	18.3	0.00e+00	0	41	0	132120576	48	4231
2026-01-24 04:28:42.40	11.62	9.57	-38.9	-40.2	18.6	0.00e+00	0	41	0	139460608	48	4100
2026-01-24 04:28:43.40	11.59	9.65	-38.2	-39.4	19.1	0.00e+00	0	41	0	146800640	47	3991
2026-01-24 04:28:44.39	11.56	9.74	-38.0	-39.2	19.3	0.00e+00	0	41	0	154140672	46	4144
2026-01-24 04:28:45.38	11.52	9.82	-37.8	-39.0	19.5	0.00e+00	0	41	0	161480704	46	4023
2026-01-24 04:28:46.38	11.49	9.90	-37.6	-38.8	19.7	0.00e+00	0	41	0	167772160	46	3943
2026-01-24 04:28:47.37	11.46	9.99	-37.8	-39.0	19.6	0.00e+00	0	41	0	175112192	46	4024
2026-01-24 04:28:48.43	11.42	10.08	-37.7	-38.9	19.7	0.00e+00	0	41	0	183500800	46	3961
2026-01-24 04:28:49.36	11.39	10.16	-37.6	-38.8	19.7	0.00e+00	0	41	0	189792256	46	3944
2026-01-24 04:28:50.48	11.36	10.25	-37.6	-38.8	19.8	0.00e+00	0	41	0	198180864	45	4166
2026-01-24 04:28:51.34	11.33	10.33	-37.5	-38.8	19.8	0.00e+00	0	41	0	203423744	45	4146
2026-01-24 04:28:52.68	11.28	10.44	-37.6	-38.8	19.7	0.00e+00	0	41	0	213909504	45	4188
2026-01-24 04:28:53.39	11.26	10.51	-37.6	-38.9	19.7	0.00e+00	0	41	0	219152384	45	4197
2026-01-24 04:28:54.67	11.21	10.62	-37.5	-38.7	19.9	0.00e+00	0	41	0	228589568	45	4107
2026-01-24 04:28:55.40	11.19	10.68	-37.4	-38.7	19.9	0.00e+00	0	41	0	232783872	45	4109
2026-01-24 04:28:56.68	11.14	10.79	-37.5	-38.7	19.9	0.00e+00	0	41	0	242221056	45	4124
2026-01-24 04:28:57.40	11.12	10.86	-37.4	-38.6	19.9	0.00e+00	0	41	0	247463936	45	4095
2026-01-24 04:28:58.68	11.07	10.97	-37.4	-38.6	20.0	0.00e+00	0	41	0	256901120	45	4056
2026-01-24 04:28:59.47	11.04	11.04	-37.4	-38.6	20.0	0.00e+00	0	41	0	263192576	45	4055
2026-01-24 04:29:00.68	11.00	11.15	-37.3	-38.4	20.1	0.00e+00	0	41	0	271581184	45	3999
2026-01-24 04:29:01.63	10.96	11.23	-37.2	-38.4	20.2	0.00e+00	0	41	0	277872640	45	3978
2026-01-24 04:29:02.80	10.92	11.34	-37.2	-38.4	20.2	0.00e+00	0	41	0	287309824	45	3965
2026-01-24 04:29:03.65	10.89	11.41	-37.3	-38.5	20.1	0.00e+00	0	41	0	293601280	45	4030
2026-01-24 04:29:04.99	10.84	11.53	-37.3	-38.5	20.2	0.00e+00	0	41	0	301989888	45	4005
2026-01-24 04:29:05.70	10.81	11.60	-37.3	-38.5	20.1	0.00e+00	0	41	0	308281344	45	4023
2026-01-24 04:29:07.19	10.76	11.73	-37.2	-38.4	20.2	0.00e+00	0	41	0	318767104	45	3984
2026-01-24 04:29:07.89	10.73	11.80	-37.3	-38.4	20.2	0.00e+00	0	41	0	322961408	45	3999
2026-01-24 04:29:09.24	10.68	11.92	-37.1	-38.2	20.4	0.00e+00	0	41	0	333447168	45	3891
2026-01-24 04:29:09.95	10.65	11.99	-37.1	-38.2	20.4	0.00e+00	0	41	0	338690048	44	4127
2026-01-24 04:29:11.23	10.60	12.10	-37.0	-38.1	20.5	0.00e+00	0	41	0	347078656	44	4081
2026-01-24 04:29:11.95	10.58	12.17	-37.0	-38.1	20.5	0.00e+00	0	41	0	353370112	44	4079
2026-01-24 04:29:13.23	10.53	12.29	-37.1	-38.2	20.4	0.00e+00	0	42	0	361758720	44	4114
2026-01-24 04:29:13.96	10.50	12.36	-36.8	-37.9	20.7	0.00e+00	0	42	0	367001600	44	3976
2026-01-24 04:29:15.24	10.45	12.48	-36.8	-37.9	20.7	0.00e+00	0	42	0	376438784	44	3972
2026-01-24 04:29:15.95	10.42	12.54	-36.8	-37.8	20.8	0.00e+00	0	41	0	381681664	44	3957
2026-01-24 04:29:17.23	10.37	12.66	-36.7	-37.8	20.8	0.00e+00	0	42	0	391118848	44	3942
2026-01-24 04:29:17.97	10.34	12.73	-36.6	-37.7	20.9	0.00e+00	0	41	0	396361728	44	3895
2026-01-24 04:29:19.24	10.28	12.85	-36.6	-37.7	20.9	0.00e+00	0	42	0	405798912	44	3889
2026-01-24 04:29:20.06	10.25	12.93	-36.5	-37.5	20.9	0.00e+00	0	41	0	411041792	43	4038
2026-01-24 04:29:21.50	10.19	13.07	-36.4	-37.4	21.0	0.00e+00	0	41	0	421527552	43	3983
2026-01-24 04:29:22.21	10.16	13.14	-36.3	-37.4	21.0	0.00e+00	0	41	0	426770432	43	3974
2026-01-24 04:29:23.49	10.11	13.26	-36.3	-37.3	21.1	0.00e+00	0	42	0	436207616	43	3938
2026-01-24 04:29:24.20	10.08	13.33	-36.3	-37.4	21.0	0.00e+00	0	42	0	441450496	43	3966
2026-01-24 04:29:25.73	10.01	13.48	-36.2	-37.2	21.2	0.00e+00	0	41	0	451936256	43	3905
2026-01-24 04:29:26.44	9.98	13.55	-36.3	-37.3	21.2	0.00e+00	0	42	0	457179136	43	3916
2026-01-24 04:29:27.72	9.92	13.68	-36.2	-37.2	21.3	0.00e+00	0	41	0	466616320	43	3881
2026-01-24 04:29:28.45	9.89	13.75	-36.4	-37.4	21.1	0.00e+00	0	42	0	471859200	43	3961
2026-01-24 04:29:29.73	9.84	13.87	-36.5	-37.5	21.0	0.00e+00	0	41	0	481296384	43	4009
2026-01-24 04:29:30.44	9.80	13.94	-36.4	-37.4	21.0	0.00e+00	0	42	0	486539264	43	3991
2026-01-24 04:29:31.72	9.75	14.07	-36.1	-37.0	21.4	0.00e+00	0	41	0	495976448	43	3818
2026-01-24 04:29:32.43	9.71	14.14	-36.1	-37.1	21.3	0.00e+00	0	42	0	500170752	43	3842
2026-01-24 04:29:33.72	9.66	14.27	-36.2	-37.1	21.3	0.00e+00	0	41	0	509607936	43	3867
2026-01-24 04:29:34.46	9.62	14.35	-36.0	-37.0	21.5	0.00e+00	0	41	0	515899392	42	4017
2026-01-24 04:29:35.74	9.56	14.48	-36.1	-37.1	21.4	0.00e+00	0	42	0	524288000	42	4060
2026-01-24 04:29:36.47	9.53	14.55	-36.0	-37.0	21.5	0.00e+00	0	42	0	529530880	42	4019
2026-01-24 04:29:37.75	9.47	14.68	-36.0	-37.0	21.5	0.00e+00	0	42	0	538968064	42	4007
2026-01-24 04:29:38.46	9.44	14.75	-36.2	-37.2	21.3	0.00e+00	0	42	0	544210944	42	4105
2026-01-24 04:29:39.74	9.38	14.89	-36.1	-37.1	21.4	0.00e+00	0	42	0	553648128	42	4060
2026-01-24 04:29:40.45	9.34	14.96	-36.0	-37.0	21.5	0.00e+00	0	42	0	558891008	42	4013
2026-01-24 04:29:41.72	9.28	15.09	-36.1	-37.0	21.4	0.00e+00	0	42	0	567279616	42	4027
2026-01-24 04:29:42.45	9.24	15.17	-36.1	-37.0	21.5	0.00e+00	0	42	0	573571072	42	4021
2026-01-24 04:29:43.73	9.18	15.30	-36.1	-37.0	21.4	0.00e+00	0	42	0	581959680	42	4043
2026-01-24 04:29:44.46	9.15	15.38	-36.0	-36.9	21.5	0.00e+00	0	42	0	587202560	42	3997
2026-01-24 04:29:45.83	9.08	15.52	-36.1	-37.0	21.4	0.00e+00	0	42	0	597688320	42	4038
2026-01-24 04:29:46.54	9.04	15.60	-36.0	-36.9	21.6	0.00e+00	0	42	0	602931200	42	3973
2026-01-24 04:29:47.82	8.98	15.73	-36.0	-36.9	21.6	0.00e+00	0	42	0	611319808	42	3980
2026-01-24 04:29:48.54	8.94	15.81	-36.0	-37.0	21.5	0.00e+00	0	42	0	616562688	42	4010
2026-01-24 04:29:49.82	8.88	15.95	-35.9	-36.8	21.6	0.00e+00	0	42	0	625999872	42	3953
2026-01-24 04:29:50.56	8.84	16.03	-36.0	-36.9	21.5	0.00e+00	0	42	0	631242752	42	3999
2026-01-24 04:29:51.84	8.77	16.16	-35.9	-36.8	21.5	0.00e+00	0	42	0	640679936	42	3954
2026-01-24 04:29:52.55	8.73	16.24	-35.9	-36.8	21.6	0.00e+00	0	42	0	645922816	42	3942
2026-01-24 04:29:53.83	8.67	16.38	-36.1	-37.0	21.5	0.00e+00	0	42	0	655360000	42	4016
2026-01-24 04:29:54.55	8.63	16.46	-35.9	-36.8	21.6	0.00e+00	0	42	0	660602880	42	3950
2026-01-24 04:29:55.83	8.56	16.60	-36.0	-36.9	21.5	0.00e+00	0	42	0	670040064	42	3995
2026-01-24 04:29:56.55	8.52	16.68	-36.0	-37.0	21.5	0.00e+00	0	42	0	675282944	42	4016
2026-01-24 04:29:57.83	8.45	16.82	-36.0	-37.0	21.5	0.00e+00	0	42	0	683671552	42	4008
2026-01-24 04:29:58.68	8.40	16.92	-35.9	-36.9	21.6	0.00e+00	0	42	0	689963008	42	3962
2026-01-24 04:30:00.10	8.32	17.08	-36.0	-37.0	21.5	0.00e+00	0	42	0	700448768	42	4023
2026-01-24 04:30:00.81	8.28	17.16	-36.0	-36.9	21.6	0.00e+00	0	42	0	705691648	42	3996
2026-01-24 04:30:02.09	8.21	17.30	-36.1	-37.0	21.5	0.00e+00	0	42	0	715128832	42	4034
2026-01-24 04:30:02.80	8.17	17.38	-36.1	-37.1	21.5	0.00e+00	0	42	0	720371712	42	4052
2026-01-24 04:30:04.08	8.10	17.53	-36.0	-37.0	21.5	0.00e+00	0	42	0	728760320	42	4020
2026-01-24 04:30:04.81	8.06	17.61	-36.0	-37.0	21.5	0.00e+00	0	42	0	734003200	42	4028
2026-01-24 04:30:06.08	7.98	17.76	-35.9	-36.8	21.7	0.00e+00	0	42	0	743440384	42	3958
2026-01-24 04:30:06.80	7.94	17.84	-35.8	-36.8	21.7	0.00e+00	0	42	0	748683264	42	3934
2026-01-24 04:30:08.07	7.86	17.99	-35.7	-36.6	21.9	0.00e+00	0	42	0	758120448	42	3853
2026-01-24 04:30:08.92	7.81	18.09	-35.6	-36.5	22.0	0.00e+00	0	42	0	764411904	42	3807
2026-01-24 04:30:10.06	7.75	18.22	-35.5	-36.4	22.1	0.00e+00	0	42	0	772800512	41	3981
2026-01-24 04:30:10.91	7.69	18.32	-35.4	-36.3	22.1	0.00e+00	0	42	0	778043392	41	3955
2026-01-24 04:30:12.05	7.62	18.45	-35.4	-36.4	22.1	0.00e+00	0	42	0	786432000	41	3969
2026-01-24 04:30:12.90	7.57	18.56	-35.4	-36.3	22.1	0.00e+00	0	42	0	792723456	41	3954
2026-01-24 04:30:14.04	7.50	18.69	-35.4	-36.3	22.2	0.00e+00	0	42	0	801112064	41	3924
2026-01-24 04:30:14.89	7.45	18.79	-35.3	-36.3	22.2	0.00e+00	0	42	0	807403520	41	3920
2026-01-24 04:30:16.03	7.38	18.93	-35.4	-36.3	22.1	0.00e+00	0	42	0	815792128	41	3955
2026-01-24 04:30:16.88	7.32	19.03	-35.3	-36.2	22.2	0.00e+00	0	42	0	821035008	41	3886
2026-01-24 04:30:18.02	7.25	19.17	-35.2	-36.1	22.3	0.00e+00	0	42	0	829423616	41	3863
2026-01-24 04:30:18.88	7.19	19.28	-35.2	-36.2	22.3	0.00e+00	0	42	0	835715072	41	3880
2026-01-24 04:30:20.01	7.12	19.41	-35.2	-36.1	22.3	0.00e+00	0	42	0	844103680	41	3863
2026-01-24 04:30:20.87	7.06	19.52	-35.3	-36.2	22.2	0.00e+00	0	42	0	850395136	41	3910
2026-01-24 04:30:22.00	6.99	19.66	-35.3	-36.2	22.3	0.00e+00	0	42	0	858783744	41	3884
2026-01-24 04:30:22.85	6.93	19.77	-35.2	-36.1	22.3	0.00e+00	0	42	0	865075200	41	3858
2026-01-24 04:30:23.99	6.85	19.91	-35.3	-36.2	22.3	0.00e+00	0	42	0	872415232	41	3879
2026-01-24 04:30:24.84	6.79	20.01	-35.2	-36.1	22.4	0.00e+00	0	42	0	878706688	41	3849
2026-01-24 04:30:25.98	6.72	20.16	-35.1	-36.0	22.4	0.00e+00	0	42	0	887095296	41	3807
2026-01-24 04:30:26.83	6.66	20.27	-35.3	-36.2	22.3	0.00e+00	0	42	0	893386752	41	3889
2026-01-24 04:30:27.97	6.58	20.41	-35.2	-36.1	22.4	0.00e+00	0	42	0	901775360	41	3831
2026-01-24 04:30:28.82	6.52	20.52	-35.2	-36.1	22.4	0.00e+00	0	42	0	908066816	41	3840
2026-01-24 04:30:29.96	6.43	20.66	-35.1	-36.0	22.5	0.00e+00	0	42	0	916455424	41	3797
2026-01-24 04:30:30.81	6.37	20.77	-35.0	-35.9	22.6	0.00e+00	0	42	0	921698304	40	3973
2026-01-24 04:30:31.95	6.29	20.92	-35.2	-36.1	22.4	0.00e+00	0	42	0	930086912	40	4066
2026-01-24 04:30:32.80	6.23	21.03	-35.1	-36.0	22.5	0.00e+00	0	42	0	936378368	40	4029
2026-01-24 04:30:33.93	6.15	21.18	-35.1	-36.0	22.5	0.00e+00	0	42	0	944766976	40	4009
2026-01-24 04:30:34.79	6.08	21.29	-35.1	-36.0	22.5	0.00e+00	0	42	0	951058432	40	4035
2026-01-24 04:30:36.08	5.98	21.46	-35.1	-35.9	22.5	0.00e+00	0	42	0	960495616	40	3993
2026-01-24 04:30:36.79	5.93	21.56	-35.0	-35.9	22.6	0.00e+00	0	42	0	964689920	40	3963
2026-01-24 04:30:38.27	5.82	21.76	-35.2	-36.0	22.5	0.00e+00	0	42	0	976224256	40	4034
2026-01-24 04:30:38.98	5.76	21.85	-35.1	-36.0	22.5	0.00e+00	0	42	0	981467136	40	4007
2026-01-24 04:30:40.26	5.66	22.02	-35.0	-35.9	22.6	0.00e+00	0	42	0	990904320	40	3983
2026-01-24 04:30:40.99	5.60	22.12	-35.0	-35.8	22.6	0.00e+00	0	42	0	995098624	40	3957
2026-01-24 04:30:42.27	5.50	22.30	-35.0	-35.9	22.6	0.00e+00	0	42	0	1004535808	40	3971
2026-01-24 04:30:43.01	5.44	22.40	-34.8	-35.6	22.9	0.00e+00	0	42	0	1009778688	40	3859
2026-01-24 04:30:44.29	5.34	22.57	-34.9	-35.8	22.7	0.00e+00	0	42	0	1019215872	40	3920
2026-01-24 04:30:45.03	5.28	22.68	-34.7	-35.5	22.9	0.00e+00	0	42	0	1024458752	40	3816
2026-01-24 04:30:46.31	5.17	22.85	-34.6	-35.5	23.0	0.00e+00	0	42	0	1033895936	40	3800
2026-01-24 04:30:47.03	5.11	22.95	-34.8	-35.6	22.9	0.00e+00	0	42	0	1039138816	39	4092
2026-01-24 04:30:48.31	5.00	23.13	-34.7	-35.5	23.0	0.00e+00	0	42	0	1048576000	39	4044
2026-01-24 04:30:49.07	4.94	23.24	-34.6	-35.5	23.0	0.00e+00	0	42	0	1053818880	39	4022
2026-01-24 04:30:50.35	4.83	23.42	-34.5	-35.4	23.1	0.00e+00	0	42	0	1063256064	39	3983
2026-01-24 04:30:51.08	4.77	23.53	-34.6	-35.4	23.1	0.00e+00	0	42	0	1068498944	39	3994
2026-01-24 04:30:52.36	4.66	23.71	-34.7	-35.6	23.0	0.00e+00	0	42	0	1077936128	39	4057
2026-01-24 04:30:53.08	4.59	23.81	-34.7	-35.5	23.1	0.00e+00	0	42	0	1083179008	39	4034
2026-01-24 04:30:54.36	4.48	24.00	-34.6	-35.5	23.0	0.00e+00	0	42	0	1092616192	39	4019
2026-01-24 04:30:55.07	4.41	24.10	-34.6	-35.5	23.1	0.00e+00	0	42	0	1096810496	39	4029
2026-01-24 04:30:56.35	4.30	24.29	-34.7	-35.6	23.0	0.00e+00	0	42	0	1106247680	39	4066
2026-01-24 04:30:57.09	4.23	24.40	-34.7	-35.6	23.0	0.00e+00	0	42	0	1111490560	39	4062
2026-01-24 04:30:58.45	4.10	24.60	-34.7	-35.6	23.0	0.00e+00	0	42	0	1121976320	39	4073
2026-01-24 04:30:59.16	4.04	24.70	-34.5	-35.3	23.2	0.00e+00	0	42	0	1127219200	39	3954
2026-01-24 04:31:00.45	3.91	24.90	-34.6	-35.5	23.1	0.00e+00	0	42	0	1136656384	39	4020
2026-01-24 04:31:01.16	3.85	25.00	-34.6	-35.4	23.1	0.00e+00	0	42	0	1140850688	39	3994
2026-01-24 04:31:02.61	3.71	25.22	-34.6	-35.5	23.1	0.00e+00	0	42	0	1151336448	39	4012
2026-01-24 04:31:03.32	3.64	25.33	-34.7	-35.6	23.0	0.00e+00	0	42	0	1156579328	39	4053
2026-01-24 04:31:04.67	3.50	25.53	-34.6	-35.5	23.1	0.00e+00	0	42	0	1167065088	39	4013
2026-01-24 04:31:05.37	3.44	25.64	-34.6	-35.5	23.1	0.00e+00	0	42	0	1171259392	39	4013
2026-01-24 04:31:06.68	3.30	25.84	-34.6	-35.5	23.1	0.00e+00	0	42	0	1180696576	39	4014
2026-01-24 04:31:07.39	3.23	25.95	-34.7	-35.5	23.1	0.00e+00	0	42	0	1185939456	39	4026
2026-01-24 04:31:08.80	3.09	26.17	-34.6	-35.5	23.1	0.00e+00	0	42	0	1196425216	39	4019
2026-01-24 04:31:09.51	3.01	26.28	-34.8	-35.6	23.0	0.00e+00	0	42	0	1201668096	39	4081
2026-01-24 04:31:10.78	2.88	26.48	-34.6	-35.5	23.1	0.00e+00	0	42	0	1211105280	39	4010
2026-01-24 04:31:11.51	2.80	26.60	-34.6	-35.5	23.1	0.00e+00	0	42	0	1216348160	39	4005
2026-01-24 04:31:12.79	2.66	26.80	-34.7	-35.5	23.1	0.00e+00	0	42	0	1224736768	39	4033
2026-01-24 04:31:13.51	2.59	26.92	-34.8	-35.6	23.0	0.00e+00	0	42	0	1229979648	39	4080
2026-01-24 04:31:14.79	2.45	27.12	-34.7	-35.5	23.1	0.00e+00	0	42	0	1239416832	39	4023
2026-01-24 04:31:15.52	2.37	27.24	-34.7	-35.5	23.1	0.00e+00	0	42	0	1244659712	39	4022
2026-01-24 04:31:16.80	2.22	27.45	-34.6	-35.4	23.2	0.00e+00	0	42	0	1254096896	39	4002
2026-01-24 04:31:17.54	2.14	27.57	-34.6	-35.4	23.1	0.00e+00	0	42	0	1259339776	39	4001
2026-01-24 04:31:18.82	1.99	27.78	-34.6	-35.5	23.1	0.00e+00	0	42	0	1268776960	39	4009
2026-01-24 04:31:19.62	1.90	27.91	-34.5	-35.4	23.2	0.00e+00	0	42	0	1274019840	39	3968
2026-01-24 04:31:20.76	1.77	28.10	-34.5	-35.4	23.2	0.00e+00	0	42	0	1282408448	39	3965
2026-01-24 04:31:21.61	1.67	28.24	-34.4	-35.3	23.3	0.00e+00	0	42	0	1288699904	39	3916
2026-01-24 04:31:22.75	1.53	28.43	-34.5	-35.3	23.3	0.00e+00	0	42	0	1297088512	39	3921
2026-01-24 04:31:23.60	1.43	28.57	-34.6	-35.4	23.2	0.00e+00	0	42	0	1303379968	39	3980
2026-01-24 04:31:24.74	1.29	28.77	-34.5	-35.3	23.3	0.00e+00	0	42	0	1311768576	39	3935
2026-01-24 04:31:25.59	1.19	28.91	-34.4	-35.2	23.3	0.00e+00	0	42	0	1317011456	39	3905
2026-01-24 04:31:26.73	1.05	29.11	-34.3	-35.1	23.4	0.00e+00	0	42	0	1325400064	39	3862
2026-01-24 04:31:27.59	0.94	29.25	-34.4	-35.2	23.4	0.00e+00	0	42	0	1331691520	39	3900
2026-01-24 04:31:28.72	0.79	29.45	-34.5	-35.3	23.3	0.00e+00	0	42	0	1340080128	39	3923
2026-01-24 04:31:29.58	0.68	29.60	-34.5	-35.3	23.3	0.00e+00	0	42	0	1346371584	39	3935
2026-01-24 04:31:30.72	0.54	29.80	-34.5	-35.3	23.3	0.00e+00	0	42	0	1354760192	39	3946
2026-01-24 04:31:31.62	0.42	29.96	-34.4	-35.2	23.4	0.00e+00	0	42	0	1361051648	39	3892
2026-01-24 04:31:32.72	0.27	30.15	-34.3	-35.1	23.5	0.00e+00	0	42	0	1369440256	39	3842
2026-01-24 04:31:33.57	0.16	30.30	-34.4	-35.2	23.4	0.00e+00	0	42	0	1374683136	39	3891
2026-01-24 04:31:34.71	0.00	30.50	-34.5	-35.3	23.3	0.00e+00	0	42	0	1383071744	39	3942
2026-01-24 04:31:35.72	359.86	30.68	-34.4	-35.2	23.4	0.00e+00	0	42	0	1390411776	39	3907
2026-01-24 04:31:36.71	359.73	30.86	-34.3	-35.1	23.5	0.00e+00	0	42	0	1397751808	39	3845
2026-01-24 04:31:37.70	359.59	31.04	-34.2	-35.1	23.5	0.00e+00	0	42	0	1405091840	39	3826
2026-01-24 04:31:38.94	359.41	31.27	-34.2	-35.0	23.6	0.00e+00	0	42	0	1413480448	39	3795
2026-01-24 04:31:39.84	359.28	31.43	-34.2	-35.0	23.6	0.00e+00	0	42	0	1420820480	38	4022
2026-01-24 04:31:40.94	359.12	31.63	-34.1	-34.9	23.7	0.00e+00	0	42	0	1428160512	38	3990
2026-01-24 04:31:41.79	358.99	31.79	-34.2	-35.0	23.6	0.00e+00	0	42	0	1434451968	38	4023
2026-01-24 04:31:42.93	358.82	32.00	-34.2	-35.0	23.6	0.00e+00	0	42	0	1442840576	38	4023
2026-01-24 04:31:43.78	358.70	32.16	-34.2	-35.0	23.5	0.00e+00	0	42	0	1449132032	38	4049
2026-01-24 04:31:44.92	358.52	32.38	-34.3	-35.1	23.5	0.00e+00	0	42	0	1457520640	38	4093
2026-01-24 04:31:45.77	358.39	32.54	-34.3	-35.1	23.5	0.00e+00	0	42	0	1462763520	38	4093
2026-01-24 04:31:46.90	358.21	32.75	-34.4	-35.2	23.4	0.00e+00	0	42	0	1471152128	38	4136
2026-01-24 04:31:47.76	358.08	32.91	-34.4	-35.2	23.4	0.00e+00	0	42	0	1477443584	38	4131
2026-01-24 04:31:48.89	357.90	33.13	-34.5	-35.4	23.3	0.00e+00	0	42	0	1485832192	38	4202
2026-01-24 04:31:49.74	357.76	33.29	-34.4	-35.3	23.3	0.00e+00	0	42	0	1492123648	38	4165
2026-01-24 04:31:50.88	357.57	33.51	-34.7	-35.5	23.2	0.00e+00	0	42	0	1500512256	38	4274
2026-01-24 04:31:51.73	357.43	33.68	-34.5	-35.3	23.3	0.00e+00	0	42	0	1505755136	38	4184
2026-01-24 04:31:52.87	357.24	33.90	-34.5	-35.4	23.3	0.00e+00	0	42	0	1514143744	38	4198
2026-01-24 04:31:53.72	357.09	34.07	-34.4	-35.3	23.3	0.00e+00	0	42	0	1520435200	38	4163
2026-01-24 04:31:55.10	356.86	34.34	-34.3	-35.1	23.5	0.00e+00	0	42	0	1530920960	38	4090
2026-01-24 04:31:56.22	356.66	34.56	-34.2	-35.1	23.6	0.00e+00	0	42	0	1538260992	38	4058
2026-01-24 04:31:57.07	356.51	34.73	-34.3	-35.1	23.5	0.00e+00	0	42	0	1544552448	38	4068
2026-01-24 04:31:58.21	356.30	34.96	-34.1	-34.9	23.7	0.00e+00	0	42	0	1552941056	38	3993
2026-01-24 04:31:59.06	356.15	35.13	-34.2	-35.0	23.6	0.00e+00	0	42	0	1559232512	38	4033
2026-01-24 04:32:00.20	355.94	35.36	-34.1	-35.0	23.6	0.00e+00	0	42	0	1567621120	38	4007
2026-01-24 04:32:01.06	355.78	35.54	-34.1	-34.9	23.7	0.00e+00	0	42	0	1573912576	38	3997
2026-01-24 04:32:02.19	355.56	35.77	-34.0	-34.8	23.8	0.00e+00	0	42	0	1581252608	38	3940
2026-01-24 04:32:03.09	355.39	35.95	-34.1	-34.9	23.7	0.00e+00	0	42	0	1588592640	38	3983
2026-01-24 04:32:04.37	355.14	36.22	-34.1	-35.0	23.7	0.00e+00	0	42	0	1598029824	38	4008
2026-01-24 04:32:05.10	355.00	36.37	-34.2	-35.0	23.6	0.00e+00	0	42	0	1603272704	38	4034
2026-01-24 04:32:06.61	354.70	36.68	-34.3	-35.1	23.5	0.00e+00	0	42	0	1613758464	38	4089
2026-01-24 04:32:07.32	354.56	36.83	-34.2	-35.0	23.6	0.00e+00	0	42	0	1619001344	38	4045
2026-01-24 04:32:08.60	354.29	37.10	-34.3	-35.1	23.5	0.00e+00	0	42	0	1628438528	38	4067
2026-01-24 04:32:09.69	354.07	37.33	-34.3	-35.1	23.5	0.00e+00	0	42	0	1635778560	38	4095
2026-01-24 04:32:10.54	353.89	37.51	-34.3	-35.2	23.5	0.00e+00	0	42	0	1642070016	38	4105
2026-01-24 04:32:11.68	353.64	37.75	-34.7	-35.6	23.1	0.00e+00	0	42	0	1650458624	38	4324
2026-01-24 04:32:12.53	353.46	37.94	-34.4	-35.2	23.4	0.00e+00	0	42	0	1656750080	38	4139
2026-01-24 04:32:13.67	353.21	38.18	-34.4	-35.3	23.4	0.00e+00	0	42	0	1665138688	38	4150
2026-01-24 04:32:14.52	353.02	38.36	-34.4	-35.3	23.4	0.00e+00	0	42	0	1670381568	38	4146
2026-01-24 04:32:15.66	352.76	38.61	-34.5	-35.3	23.4	0.00e+00	0	42	0	1678770176	38	4165
2026-01-24 04:32:16.51	352.57	38.80	-34.8	-35.6	23.1	0.00e+00	0	42	0	1685061632	39	4075
2026-01-24 04:32:17.65	352.30	39.05	-34.6	-35.4	23.2	0.00e+00	0	42	0	1693450240	39	4000
2026-01-24 04:32:18.60	352.08	39.25	-34.7	-35.5	23.1	0.00e+00	0	42	0	1699741696	39	4023
2026-01-24 04:32:19.75	351.81	39.51	-34.7	-35.5	23.2	0.00e+00	0	42	0	1708130304	39	4033
2026-01-24 04:32:20.63	351.59	39.70	-34.6	-35.4	23.2	0.00e+00	0	42	0	1714421760	39	3993
2026-01-24 04:32:21.77	351.31	39.95	-34.9	-35.7	23.0	0.00e+00	0	42	0	1722810368	39	4118
2026-01-24 04:32:22.62	351.10	40.14	-34.8	-35.6	23.1	0.00e+00	0	42	0	1729101824	39	4082
2026-01-24 04:32:23.76	350.81	40.40	-34.8	-35.6	23.1	0.00e+00	0	42	0	1737490432	39	4085
2026-01-24 04:32:24.61	350.60	40.59	-34.9	-35.7	23.0	0.00e+00	0	42	0	1743781888	39	4138
2026-01-24 04:32:25.75	350.30	40.84	-34.9	-35.7	23.0	0.00e+00	0	42	0	1752170496	39	4141
2026-01-24 04:32:26.81	350.02	41.08	-34.8	-35.7	23.1	0.00e+00	0	42	0	1759510528	39	4108
2026-01-24 04:32:27.88	349.74	41.33	-34.8	-35.7	23.1	0.00e+00	0	42	0	1766850560	39	4104
2026-01-24 04:32:28.74	349.50	41.52	-34.8	-35.6	23.2	0.00e+00	0	42	0	1773142016	39	4066
2026-01-24 04:32:29.87	349.19	41.78	-34.8	-35.6	23.1	0.00e+00	0	42	0	1781530624	39	4072
2026-01-24 04:32:30.73	348.95	41.98	-34.8	-35.7	23.0	0.00e+00	0	42	0	1787822080	39	4108
2026-01-24 04:32:31.86	348.63	42.23	-34.8	-35.6	23.1	0.00e+00	0	42	0	1796210688	39	4080
2026-01-24 04:32:32.72	348.39	42.43	-34.5	-35.3	23.3	0.00e+00	0	42	0	1802502144	39	3958
2026-01-24 04:32:33.86	348.06	42.69	-34.2	-35.0	23.6	0.00e+00	0	42	0	1810890752	39	3819
2026-01-24 04:32:34.71	347.80	42.89	-34.4	-35.2	23.5	0.00e+00	0	42	0	1816133632	39	3886
2026-01-24 04:32:35.87	347.46	43.16	-34.3	-35.1	23.5	0.00e+00	0	42	0	1824522240	39	3867
2026-01-24 04:32:36.73	347.20	43.36	-34.3	-35.1	23.6	0.00e+00	0	42	0	1830813696	39	3854
2026-01-24 04:32:37.87	346.84	43.62	-34.3	-35.2	23.5	0.00e+00	0	42	0	1839202304	38	4107
2026-01-24 04:32:38.72	346.58	43.82	-34.4	-35.2	23.5	0.00e+00	0	42	0	1845493760	38	4114
2026-01-24 04:32:39.86	346.22	44.09	-34.4	-35.2	23.5	0.00e+00	0	42	0	1853882368	38	4135
2026-01-24 04:32:40.71	345.94	44.29	-34.5	-35.3	23.4	0.00e+00	0	42	0	1860173824	38	4187
2026-01-24 04:32:41.85	345.57	44.55	-34.6	-35.5	23.3	0.00e+00	0	42	0	1867513856	38	4245
2026-01-24 04:32:42.79	345.26	44.77	-34.9	-35.7	23.0	0.00e+00	0	42	0	1874853888	39	4141
2026-01-24 04:32:43.96	344.86	45.05	-34.6	-35.4	23.3	0.00e+00	0	42	0	1883242496	39	4004
2026-01-24 04:32:44.81	344.57	45.25	-34.8	-35.6	23.1	0.00e+00	0	42	0	1889533952	39	4085
2026-01-24 04:32:45.95	344.17	45.52	-34.7	-35.5	23.2	0.00e+00	0	42	0	1897922560	39	4043
2026-01-24 04:32:46.80	343.87	45.72	-34.7	-35.6	23.2	0.00e+00	0	42	0	1904214016	39	4052
2026-01-24 04:32:47.94	343.46	45.98	-34.3	-35.1	23.6	0.00e+00	0	42	0	1911554048	39	3854
2026-01-24 04:32:48.79	343.15	46.19	-34.5	-35.4	23.4	0.00e+00	0	42	0	1917845504	39	3961
2026-01-24 04:32:49.92	342.74	46.45	-34.7	-35.5	23.2	0.00e+00	0	42	0	1926234112	39	4020
2026-01-24 04:32:50.78	342.41	46.65	-34.6	-35.4	23.3	0.00e+00	0	42	0	1932525568	39	4004
2026-01-24 04:32:51.91	341.98	46.92	-34.9	-35.7	23.0	0.00e+00	0	42	0	1940914176	39	4136
2026-01-24 04:32:52.76	341.66	47.12	-34.9	-35.8	23.0	0.00e+00	0	42	0	1947205632	39	4146
2026-01-24 04:32:53.90	341.21	47.39	-35.5	-36.4	22.3	0.00e+00	0	42	0	1955594240	40	4225
2026-01-24 04:32:54.75	340.87	47.59	-35.7	-36.5	22.3	0.00e+00	0	42	0	1960837120	40	4291
2026-01-24 04:32:56.02	340.36	47.89	-35.7	-36.6	22.2	0.00e+00	0	42	0	1970274304	41	4085
2026-01-24 04:32:56.82	340.03	48.08	-35.8	-36.7	22.1	0.00e+00	0	42	0	1976565760	41	4109
2026-01-24 04:32:57.96	339.55	48.34	-36.0	-36.9	22.0	0.00e+00	0	42	0	1984954368	41	4200
2026-01-24 04:32:58.81	339.19	48.54	-35.6	-36.5	22.3	0.00e+00	0	42	0	1990197248	41	4005
2026-01-24 04:33:00.14	338.62	48.85	-35.8	-36.6	22.2	0.00e+00	0	42	0	1999634432	41	4084
2026-01-24 04:33:00.85	338.31	49.02	-35.8	-36.7	22.1	0.00e+00	0	42	0	2004877312	41	4111
2026-01-24 04:33:02.13	337.74	49.32	-35.8	-36.7	22.1	0.00e+00	0	42	0	2014314496	41	4120
2026-01-24 04:33:02.87	337.40	49.49	-36.1	-37.0	21.8	0.00e+00	0	42	0	2019557376	41	4291
2026-01-24 04:33:04.15	336.82	49.78	-36.2	-37.1	21.8	0.00e+00	0	42	0	2028994560	42	4063
2026-01-24 04:33:04.89	336.47	49.95	-36.3	-37.2	21.7	0.00e+00	0	42	0	2034237440	42	4109
2026-01-24 04:33:06.17	335.87	50.25	-36.1	-37.0	21.9	0.00e+00	0	42	0	2043674624	42	4008
2026-01-24 04:33:06.89	335.52	50.41	-36.2	-37.1	21.8	0.00e+00	0	42	0	2048917504	42	4061
2026-01-24 04:33:08.17	334.90	50.70	-36.1	-37.0	21.8	0.00e+00	0	42	0	2058354688	42	4039
2026-01-24 04:33:08.97	334.50	50.88	-36.0	-36.9	21.8	0.00e+00	0	42	0	2063597568	41	4218
2026-01-24 04:33:10.16	333.90	51.15	-35.9	-36.8	22.0	0.00e+00	0	42	0	2073034752	41	4166
2026-01-24 04:33:11.02	333.46	51.34	-36.0	-36.8	22.0	0.00e+00	0	42	0	2078277632	41	4190
2026-01-24 04:33:12.16	332.87	51.60	-36.0	-36.8	22.0	0.00e+00	0	42	0	2086666240	41	4183
2026-01-24 04:33:13.30	332.27	51.85	-36.0	-36.8	22.0	0.00e+00	0	42	0	2095054848	41	4175
2026-01-24 04:33:14.32	331.73	52.07	-36.2	-37.1	21.7	0.00e+00	0	42	0	2102394880	41	4308
2026-01-24 04:33:15.32	331.18	52.29	-36.0	-36.9	22.0	0.00e+00	0	42	0	2109734912	42	3974
2026-01-24 04:33:16.31	330.64	52.50	-36.0	-36.9	22.0	0.00e+00	0	42	0	2117074944	42	3974
2026-01-24 04:33:17.30	330.08	52.71	-35.9	-36.8	22.0	0.00e+00	0	42	0	2124414976	42	3947
2026-01-24 04:33:18.30	329.51	52.92	-36.1	-37.0	21.9	0.00e+00	0	42	0	2131755008	42	4026
2026-01-24 04:33:19.30	328.94	53.13	-36.3	-37.3	21.6	0.00e+00	0	42	0	2138046464	42	4149
2026-01-24 04:33:20.29	328.36	53.34	-36.3	-37.3	21.7	0.00e+00	0	42	0	2145386496	42	4147
2026-01-24 04:33:21.29	327.77	53.54	-36.6	-37.5	21.4	0.00e+00	0	42	0	2152726528	42	4267
2026-01-24 04:33:22.28	327.17	53.75	-36.6	-37.5	21.4	0.00e+00	0	42	0	2160066560	42	4257
2026-01-24 04:33:23.27	326.57	53.94	-36.3	-37.2	21.7	0.00e+00	0	42	0	2167406592	42	4113
2026-01-24 04:33:24.27	325.95	54.14	-36.0	-36.9	21.9	0.00e+00	0	42	0	2174746624	42	3977
2026-01-24 04:33:25.26	325.33	54.34	-35.8	-36.6	22.2	0.00e+00	0	42	0	2181038080	42	3866
2026-01-24 04:33:26.27	324.69	54.53	-35.7	-36.6	22.2	0.00e+00	0	42	0	2188378112	42	3859
2026-01-24 04:33:27.26	324.05	54.72	-35.8	-36.6	22.1	0.00e+00	0	42	0	2195718144	42	3860
2026-01-24 04:33:28.26	323.40	54.90	-35.8	-36.7	22.1	0.00e+00	0	42	0	2203058176	42	3894
2026-01-24 04:33:29.35	322.67	55.10	-35.6	-36.5	22.2	0.00e+00	0	42	0	2211446784	42	3787
2026-01-24 04:33:30.23	322.08	55.26	-35.7	-36.5	22.2	0.00e+00	0	42	0	2217738240	41	4031
2026-01-24 04:33:31.37	321.31	55.46	-35.7	-36.6	22.2	0.00e+00	0	42	0	2225078272	41	4058
2026-01-24 04:33:32.22	320.73	55.61	-35.7	-36.6	22.2	0.00e+00	0	42	0	2231369728	41	4068
2026-01-24 04:33:33.36	319.93	55.81	-35.8	-36.7	22.1	0.00e+00	0	42	0	2239758336	41	4107
2026-01-24 04:33:34.21	319.33	55.95	-35.7	-36.5	22.2	0.00e+00	0	42	0	2246049792	41	4049
2026-01-24 04:33:35.35	318.52	56.13	-35.7	-36.5	22.2	0.00e+00	0	42	0	2254438400	41	4045
2026-01-24 04:33:36.20	317.91	56.27	-35.5	-36.4	22.4	0.00e+00	0	42	0	2260729856	41	3981
2026-01-24 04:33:37.34	317.08	56.44	-35.5	-36.4	22.4	0.00e+00	0	42	0	2268069888	41	3963
2026-01-24 04:33:38.19	316.45	56.57	-35.5	-36.4	22.4	0.00e+00	0	42	0	2274361344	41	3960
2026-01-24 04:33:39.33	315.60	56.74	-35.6	-36.5	22.3	0.00e+00	0	42	0	2282749952	41	4023
2026-01-24 04:33:40.18	314.96	56.86	-35.6	-36.4	22.3	0.00e+00	0	42	0	2289041408	41	3994
2026-01-24 04:33:41.32	314.10	57.02	-35.9	-36.7	22.1	0.00e+00	0	42	0	2297430016	41	4137
2026-01-24 04:33:42.17	313.44	57.13	-35.9	-36.7	22.0	0.00e+00	0	42	0	2303721472	41	4142
2026-01-24 04:33:43.31	312.56	57.27	-35.8	-36.6	22.2	0.00e+00	0	42	0	2312110080	41	4090
2026-01-24 04:33:44.16	311.89	57.38	-36.0	-36.9	21.8	0.00e+00	0	42	0	2318401536	41	4224
2026-01-24 04:33:45.41	310.91	57.53	-35.5	-36.4	22.4	0.00e+00	0	42	0	2326790144	41	3979
2026-01-24 04:33:46.26	310.23	57.62	-35.5	-36.4	22.4	0.00e+00	0	42	0	2333081600	41	3978
2026-01-24 04:33:47.40	309.31	57.75	-35.7	-36.6	22.2	0.00e+00	0	42	0	2341470208	41	4069
2026-01-24 04:33:48.25	308.62	57.83	-36.1	-37.0	21.3	0.00e+00	0	42	0	2347761664	41	4259
2026-01-24 04:33:49.39	307.69	57.95	-36.4	-37.3	20.6	0.00e+00	0	42	0	2355101696	42	4172
2026-01-24 04:33:50.24	306.99	58.02	-36.3	-37.2	21.2	0.00e+00	0	42	0	2361393152	42	4125
2026-01-24 04:33:51.58	305.88	58.14	-35.8	-36.7	22.2	0.00e+00	0	42	0	2371878912	42	3872
2026-01-24 04:33:52.29	305.29	58.20	-35.7	-36.6	22.2	0.00e+00	0	42	0	2376073216	42	3843
2026-01-24 04:33:53.57	304.22	58.29	-35.7	-36.6	22.2	0.00e+00	0	42	0	2385510400	41	4068
2026-01-24 04:33:54.30	303.60	58.34	-35.8	-36.7	22.2	0.00e+00	0	42	0	2390753280	41	4107
2026-01-24 04:33:55.58	302.52	58.43	-36.1	-37.0	21.8	0.00e+00	0	42	0	2400190464	41	4264
2026-01-24 04:33:56.32	301.89	58.47	-36.2	-37.1	21.7	0.00e+00	0	42	0	2405433344	41	4308
2026-01-24 04:33:57.60	300.80	58.53	-36.2	-37.0	21.8	0.00e+00	0	42	0	2414870528	41	4286
2026-01-24 04:33:58.31	300.19	58.57	-36.2	-37.1	21.7	0.00e+00	0	42	0	2420113408	41	4306
2026-01-24 04:33:59.58	299.09	58.62	-36.3	-37.2	21.7	0.00e+00	0	42	0	2429550592	42	4105
2026-01-24 04:34:00.31	298.46	58.64	-36.2	-37.1	21.8	0.00e+00	0	42	0	2434793472	42	4060
2026-01-24 04:34:01.59	297.36	58.68	-36.1	-37.0	21.9	0.00e+00	0	42	0	2443182080	42	4007
2026-01-24 04:34:02.30	296.74	58.69	-35.9	-36.8	22.0	0.00e+00	0	42	0	2449473536	42	3936
2026-01-24 04:34:03.58	295.63	58.71	-36.0	-36.8	22.0	0.00e+00	0	42	0	2457862144	42	3952
2026-01-24 04:34:04.30	295.00	58.72	-36.3	-37.2	21.6	0.00e+00	0	42	0	2463105024	42	4127
2026-01-24 04:34:05.58	293.89	58.73	-36.5	-37.4	21.4	0.00e+00	0	42	0	2472542208	42	4234
2026-01-24 04:34:06.29	293.27	58.72	-36.3	-37.2	21.7	0.00e+00	0	42	0	2477785088	42	4118
2026-01-24 04:34:07.68	292.07	58.71	-36.1	-37.0	21.9	0.00e+00	0	42	0	2487222272	42	4009
2026-01-24 04:34:08.39	291.45	58.70	-35.8	-36.7	22.2	0.00e+00	0	42	0	2492465152	42	3873
2026-01-24 04:34:09.67	290.34	58.67	-35.7	-36.6	22.2	0.00e+00	0	42	0	2501902336	42	3832
2026-01-24 04:34:10.38	289.72	58.65	-35.8	-36.7	22.1	0.00e+00	0	42	0	2507145216	42	3883
2026-01-24 04:34:11.66	288.62	58.61	-35.8	-36.7	22.1	0.00e+00	0	42	0	2516582400	42	3890
2026-01-24 04:34:12.37	288.01	58.58	-35.8	-36.6	22.2	0.00e+00	0	42	0	2521825280	42	3866
2026-01-24 04:34:13.66	286.90	58.52	-35.7	-36.6	22.2	0.00e+00	0	42	0	2531262464	42	3845
2026-01-24 04:34:14.38	286.28	58.49	-35.9	-36.7	22.1	0.00e+00	0	42	0	2535456768	42	3900
2026-01-24 04:34:15.66	285.19	58.41	-35.9	-36.8	22.0	0.00e+00	0	42	0	2544893952	42	3946
2026-01-24 04:34:16.40	284.57	58.37	-36.0	-36.8	22.0	0.00e+00	0	42	0	2551185408	42	3952
2026-01-24 04:34:17.68	283.49	58.28	-36.1	-37.0	21.9	0.00e+00	0	42	0	2559574016	42	4030
2026-01-24 04:34:18.41	282.87	58.23	-36.0	-36.9	21.9	0.00e+00	0	42	0	2564816896	42	3984
2026-01-24 04:34:19.69	281.80	58.12	-36.3	-37.3	21.7	0.00e+00	0	42	0	2574254080	42	4146
2026-01-24 04:34:20.59	281.06	58.04	-36.4	-37.3	21.6	0.00e+00	0	42	0	2580545536	42	4158
2026-01-24 04:34:21.99	279.91	57.91	-36.1	-37.0	21.9	0.00e+00	0	42	0	2591031296	42	4033
2026-01-24 04:34:22.70	279.33	57.85	-36.3	-37.2	21.7	0.00e+00	0	42	0	2596274176	42	4111
2026-01-24 04:34:24.20	278.11	57.69	-36.2	-37.1	21.8	0.00e+00	0	42	0	2606759936	42	4072
2026-01-24 04:34:24.91	277.54	57.61	-36.4	-37.3	21.6	0.00e+00	0	42	0	2612002816	42	4148
2026-01-24 04:34:26.25	276.48	57.46	-36.4	-37.3	21.6	0.00e+00	0	42	0	2621440000	42	4153
2026-01-24 04:34:26.96	275.92	57.37	-36.4	-37.3	21.6	0.00e+00	0	42	0	2626682880	42	4161
2026-01-24 04:34:28.24	274.92	57.21	-36.1	-36.9	21.9	0.00e+00	0	42	0	2636120064	42	4003
2026-01-24 04:34:28.97	274.35	57.12	-35.8	-36.6	22.2	0.00e+00	0	42	0	2641362944	42	3854
2026-01-24 04:34:30.24	273.38	56.95	-35.7	-36.5	22.3	0.00e+00	0	42	0	2650800128	42	3811
2026-01-24 04:34:30.96	272.83	56.85	-35.5	-36.4	22.3	0.00e+00	0	42	0	2656043008	41	3979
2026-01-24 04:34:32.24	271.87	56.66	-35.6	-36.4	22.2	0.00e+00	0	42	0	2664431616	41	4000
2026-01-24 04:34:32.98	271.32	56.55	-35.4	-36.2	22.5	0.00e+00	0	42	0	2670723072	41	3897
2026-01-24 04:34:34.26	270.38	56.36	-35.5	-36.3	22.4	0.00e+00	0	42	0	2679111680	41	3947
2026-01-24 04:34:34.98	269.85	56.25	-35.6	-36.4	22.3	0.00e+00	0	42	0	2684354560	41	3990
2026-01-24 04:34:36.26	268.93	56.04	-35.7	-36.5	22.2	0.00e+00	0	42	0	2693791744	41	4029
2026-01-24 04:34:36.97	268.43	55.92	-35.7	-36.6	22.2	0.00e+00	0	42	0	2699034624	41	4077
2026-01-24 04:34:38.25	267.53	55.71	-35.7	-36.5	22.3	0.00e+00	0	42	0	2708471808	41	4043
2026-01-24 04:34:38.97	267.03	55.59	-35.5	-36.4	22.4	0.00e+00	0	42	0	2713714688	41	3978
2026-01-24 04:34:40.25	266.15	55.36	-35.4	-36.2	22.6	0.00e+00	0	42	0	2723151872	41	3909
2026-01-24 04:34:40.98	265.66	55.23	-35.5	-36.3	22.5	0.00e+00	0	42	0	2728394752	41	3947
2026-01-24 04:34:42.26	264.80	55.00	-35.4	-36.2	22.5	0.00e+00	0	42	0	2737831936	41	3910
2026-01-24 04:34:43.11	264.24	54.84	-35.6	-36.5	22.3	0.00e+00	0	42	0	2743074816	41	4005
2026-01-24 04:34:44.25	263.50	54.63	-35.8	-36.7	22.1	0.00e+00	0	42	0	2751463424	41	4134
2026-01-24 04:34:45.10	262.95	54.46	-35.7	-36.6	22.3	0.00e+00	0	42	0	2757754880	41	4063
2026-01-24 04:34:46.24	262.23	54.24	-35.5	-36.3	22.5	0.00e+00	0	42	0	2766143488	41	3950
2026-01-24 04:34:47.09	261.70	54.07	-35.4	-36.3	22.5	0.00e+00	0	42	0	2772434944	41	3924
2026-01-24 04:34:48.23	261.00	53.85	-35.7	-36.5	22.2	0.00e+00	0	42	0	2780823552	41	4046
2026-01-24 04:34:49.08	260.48	53.68	-35.8	-36.7	22.1	0.00e+00	0	42	0	2786066432	41	4115
2026-01-24 04:34:50.22	259.80	53.44	-35.9	-36.8	22.0	0.00e+00	0	42	0	2794455040	41	4178
2026-01-24 04:34:51.07	259.30	53.27	-36.1	-36.9	21.9	0.00e+00	0	42	0	2800746496	41	4242
2026-01-24 04:34:52.21	258.63	53.03	-35.9	-36.8	22.0	0.00e+00	0	42	0	2809135104	41	4184
2026-01-24 04:34:53.06	258.14	52.85	-35.7	-36.6	22.1	0.00e+00	0	42	0	2815426560	41	4076
2026-01-24 04:34:54.37	257.40	52.57	-35.7	-36.6	22.2	0.00e+00	0	42	0	2824863744	41	4058
2026-01-24 04:34:55.08	257.01	52.42	-35.6	-36.4	22.4	0.00e+00	0	42	0	2830106624	41	3986
2026-01-24 04:34:56.58	256.18	52.09	-35.8	-36.7	22.1	0.00e+00	0	42	0	2840592384	41	4130
2026-01-24 04:34:57.29	255.80	51.94	-35.7	-36.6	22.2	0.00e+00	0	42	0	2845835264	41	4058
2026-01-24 04:34:58.65	255.08	51.64	-35.6	-36.4	22.2	0.00e+00	0	42	0	2855272448	41	3997
2026-01-24 04:34:59.36	254.71	51.48	-35.6	-36.4	22.4	0.00e+00	0	42	0	2860515328	41	3985
2026-01-24 04:35:00.72	254.01	51.17	-35.4	-36.2	22.5	0.00e+00	0	42	0	2871001088	41	3913
2026-01-24 04:35:01.43	253.65	51.01	-35.5	-36.3	22.5	0.00e+00	0	42	0	2875195392	41	3947
2026-01-24 04:35:02.77	252.98	50.71	-35.6	-36.5	22.3	0.00e+00	0	42	0	2885681152	41	4013
2026-01-24 04:35:03.48	252.63	50.55	-35.6	-36.5	22.3	0.00e+00	0	42	0	2889875456	41	4014
2026-01-24 04:35:04.76	252.01	50.26	-35.5	-36.3	22.5	0.00e+00	0	42	0	2899312640	41	3944
2026-01-24 04:35:05.48	251.67	50.09	-35.4	-36.3	22.5	0.00e+00	0	42	0	2904555520	41	3917
2026-01-24 04:35:06.76	251.07	49.80	-35.4	-36.3	22.5	0.00e+00	0	42	0	2913992704	41	3916
2026-01-24 04:35:07.47	250.74	49.63	-35.5	-36.3	22.5	0.00e+00	0	42	0	2919235584	41	3950
2026-01-24 04:35:08.75	250.15	49.33	-35.8	-36.6	21.9	0.00e+00	0	42	0	2928672768	41	4087
2026-01-24 04:35:09.47	249.83	49.17	-35.9	-36.7	22.1	0.00e+00	0	42	0	2933915648	41	4141
2026-01-24 04:35:10.75	249.27	48.87	-35.8	-36.7	22.1	0.00e+00	0	42	0	2943352832	41	4113
2026-01-24 04:35:11.48	248.95	48.70	-35.6	-36.5	22.3	0.00e+00	0	42	0	2948595712	41	4027
2026-01-24 04:35:12.76	248.40	48.40	-35.4	-36.3	22.5	0.00e+00	0	42	0	2958032896	41	3933
2026-01-24 04:35:13.49	248.09	48.22	-35.4	-36.2	22.5	0.00e+00	0	42	0	2962227200	41	3894
2026-01-24 04:35:14.76	247.56	47.93	-35.1	-35.9	22.8	0.00e+00	0	42	0	2971664384	40	3990
2026-01-24 04:35:15.51	247.26	47.75	-34.8	-35.6	23.1	0.00e+00	0	42	0	2976907264	40	3866
2026-01-24 04:35:16.78	246.74	47.45	-34.6	-35.4	23.2	0.00e+00	0	42	0	2986344448	40	3768
2026-01-24 04:35:17.49	246.46	47.28	-34.7	-35.5	23.1	0.00e+00	0	42	0	2991587328	40	3820
2026-01-24 04:35:18.77	245.96	46.98	-35.0	-35.8	22.9	0.00e+00	0	42	0	3001024512	40	3926
2026-01-24 04:35:19.49	245.68	46.81	-35.0	-35.8	22.8	0.00e+00	0	42	0	3006267392	40	3927
2026-01-24 04:35:20.77	245.20	46.50	-35.1	-36.0	22.8	0.00e+00	0	42	0	3015704576	40	4020
2026-01-24 04:35:21.68	244.86	46.29	-34.8	-35.7	23.0	0.00e+00	0	42	0	3021996032	40	3872
2026-01-24 04:35:22.68	244.49	46.05	-34.6	-35.4	23.2	0.00e+00	0	42	0	3029336064	40	3774
2026-01-24 04:35:23.67	244.13	45.82	-34.6	-35.4	23.3	0.00e+00	0	42	0	3036676096	39	3999
2026-01-24 04:35:24.67	243.78	45.58	-34.7	-35.5	23.2	0.00e+00	0	42	0	3042967552	39	4031
2026-01-24 04:35:25.66	243.43	45.35	-34.7	-35.6	23.2	0.00e+00	0	42	0	3050307584	39	4056
2026-01-24 04:35:26.66	243.08	45.11	-34.8	-35.6	23.1	0.00e+00	0	42	0	3057647616	39	4086
2026-01-24 04:35:27.65	242.74	44.88	-34.6	-35.4	23.2	0.00e+00	0	42	0	3064987648	39	4004
2026-01-24 04:35:28.65	242.41	44.64	-34.5	-35.3	23.4	0.00e+00	0	42	0	3072327680	39	3946
2026-01-24 04:35:29.64	242.08	44.41	-34.5	-35.3	23.4	0.00e+00	0	42	0	3079667712	39	3916
2026-01-24 04:35:30.64	241.75	44.17	-34.6	-35.4	23.4	0.00e+00	0	42	0	3085959168	39	3976
2026-01-24 04:35:31.74	241.40	43.92	-34.7	-35.5	23.2	0.00e+00	0	42	0	3094347776	39	4034
2026-01-24 04:35:32.63	241.12	43.71	-35.0	-35.8	23.0	0.00e+00	0	42	0	3100639232	39	4170
2026-01-24 04:35:33.77	240.76	43.44	-34.8	-35.6	23.2	0.00e+00	0	42	0	3109027840	39	4072
2026-01-24 04:35:34.70	240.48	43.23	-34.9	-35.7	23.1	0.00e+00	0	42	0	3115319296	39	4118
2026-01-24 04:35:35.86	240.13	42.96	-35.0	-35.8	23.0	0.00e+00	0	42	0	3124756480	39	4168
2026-01-24 04:35:36.75	239.86	42.75	-34.8	-35.7	23.1	0.00e+00	0	42	0	3131047936	39	4100
2026-01-24 04:35:37.88	239.53	42.49	-34.8	-35.6	23.1	0.00e+00	0	42	0	3138387968	39	4071
2026-01-24 04:35:38.80	239.26	42.27	-34.7	-35.5	23.2	0.00e+00	0	42	0	3145728000	39	4050
2026-01-24 04:35:39.97	238.93	42.01	-34.7	-35.5	23.2	0.00e+00	0	42	0	3154116608	39	4023
2026-01-24 04:35:40.82	238.69	41.81	-34.9	-35.7	23.0	0.00e+00	0	42	0	3160408064	39	4124
2026-01-24 04:35:41.96	238.37	41.55	-34.9	-35.8	23.0	0.00e+00	0	42	0	3168796672	39	4148
2026-01-24 04:35:42.81	238.14	41.35	-34.9	-35.8	23.0	0.00e+00	0	42	0	3174039552	39	4158
2026-01-24 04:35:43.95	237.84	41.10	-34.8	-35.6	23.1	0.00e+00	0	42	0	3182428160	39	4088
2026-01-24 04:35:44.80	237.61	40.90	-34.7	-35.5	23.2	0.00e+00	0	42	0	3188719616	39	4037
2026-01-24 04:35:45.94	237.31	40.64	-34.5	-35.3	23.4	0.00e+00	0	42	0	3197108224	39	3938
2026-01-24 04:35:46.79	237.09	40.45	-34.5	-35.3	23.4	0.00e+00	0	42	0	3203399680	39	3956
2026-01-24 04:35:47.93	236.80	40.20	-34.6	-35.5	23.3	0.00e+00	0	42	0	3210739712	39	4006
2026-01-24 04:35:48.78	236.59	40.01	-34.6	-35.4	23.2	0.00e+00	0	42	0	3217031168	39	4003
2026-01-24 04:35:49.92	236.31	39.75	-34.8	-35.6	23.1	0.00e+00	0	42	0	3225419776	39	4067
2026-01-24 04:35:50.77	236.10	39.56	-34.9	-35.7	22.9	0.00e+00	0	42	0	3231711232	39	4120
2026-01-24 04:35:51.91	235.82	39.31	-34.6	-35.4	23.3	0.00e+00	0	42	0	3240099840	39	3994
2026-01-24 04:35:52.76	235.62	39.12	-34.6	-35.4	23.3	0.00e+00	0	42	0	3246391296	39	3995
2026-01-24 04:35:54.06	235.32	38.84	-34.3	-35.1	23.4	0.00e+00	0	42	0	3255828480	39	3858
2026-01-24 04:35:54.77	235.15	38.68	-34.2	-35.0	23.7	0.00e+00	0	42	0	3261071360	39	3814
2026-01-24 04:35:56.27	234.81	38.36	-34.3	-35.1	23.5	0.00e+00	0	42	0	3271557120	39	3851
2026-01-24 04:35:56.98	234.65	38.20	-34.3	-35.1	23.6	0.00e+00	0	42	0	3276800000	39	3862
2026-01-24 04:35:58.26	234.37	37.92	-34.5	-35.4	23.4	0.00e+00	0	42	0	3286237184	39	3964
2026-01-24 04:35:58.99	234.21	37.77	-34.6	-35.4	23.3	0.00e+00	0	42	0	3291480064	39	3975
2026-01-24 04:36:00.27	233.93	37.49	-34.5	-35.3	23.4	0.00e+00	0	42	0	3300917248	39	3949
2026-01-24 04:36:00.98	233.78	37.34	-34.5	-35.3	23.3	0.00e+00	0	42	0	3305111552	39	3929
2026-01-24 04:36:02.26	233.51	37.07	-34.5	-35.3	23.4	0.00e+00	0	42	0	3314548736	39	3933
2026-01-24 04:36:02.97	233.37	36.92	-34.5	-35.3	23.4	0.00e+00	0	42	0	3319791616	39	3925
2026-01-24 04:36:04.25	233.11	36.65	-34.6	-35.4	23.3	0.00e+00	0	42	0	3329228800	39	3986
2026-01-24 04:36:05.04	232.95	36.48	-34.5	-35.4	23.3	0.00e+00	0	42	0	3334471680	39	3967
2026-01-24 04:36:06.30	232.70	36.22	-34.7	-35.5	23.2	0.00e+00	0	42	0	3343908864	39	4034
2026-01-24 04:36:07.08	232.54	36.06	-34.6	-35.4	23.2	0.00e+00	0	42	0	3349151744	39	3995
2026-01-24 04:36:08.62	232.24	35.74	-34.7	-35.5	23.3	0.00e+00	0	42	0	3360686080	39	4013
2026-01-24 04:36:09.33	232.11	35.60	-34.3	-35.1	23.5	0.00e+00	0	42	0	3365928960	39	3865
2026-01-24 04:36:10.61	231.87	35.33	-34.1	-34.9	23.7	0.00e+00	0	42	0	3375366144	39	3746
2026-01-24 04:36:11.34	231.73	35.19	-34.1	-34.8	23.7	0.00e+00	0	42	0	3380609024	38	3957
2026-01-24 04:36:12.72	231.48	34.91	-34.0	-34.8	23.8	0.00e+00	0	42	0	3390046208	38	3928
2026-01-24 04:36:13.44	231.35	34.76	-34.0	-34.8	23.8	0.00e+00	0	42	0	3395289088	38	3935
2026-01-24 04:36:14.78	231.11	34.49	-34.1	-34.9	23.7	0.00e+00	0	42	0	3404726272	38	3981
2026-01-24 04:36:15.49	230.98	34.35	-34.2	-35.0	23.7	0.00e+00	0	42	0	3409969152	38	4010
2026-01-24 04:36:16.78	230.76	34.09	-34.2	-35.0	23.6	0.00e+00	0	42	0	3419406336	38	4030
2026-01-24 04:36:17.50	230.63	33.95	-34.2	-35.0	23.6	0.00e+00	0	42	0	3424649216	38	4023
2026-01-24 04:36:18.77	230.42	33.70	-34.3	-35.1	23.6	0.00e+00	0	42	0	3434086400	38	4068
2026-01-24 04:36:19.49	230.30	33.56	-34.3	-35.1	23.6	0.00e+00	0	42	0	3439329280	38	4063
2026-01-24 04:36:20.76	230.09	33.31	-34.2	-35.0	23.6	0.00e+00	0	42	0	3448766464	38	4029
2026-01-24 04:36:21.47	229.97	33.18	-34.2	-35.0	23.6	0.00e+00	0	42	0	3452960768	38	4012
2026-01-24 04:36:22.75	229.76	32.93	-34.2	-35.1	23.5	0.00e+00	0	42	0	3462397952	38	4053
2026-01-24 04:36:23.48	229.65	32.79	-34.4	-35.2	23.5	0.00e+00	0	42	0	3467640832	38	4110
2026-01-24 04:36:24.75	229.44	32.55	-34.5	-35.3	23.3	0.00e+00	0	42	0	3477078016	38	4174
2026-01-24 04:36:25.46	229.33	32.41	-34.5	-35.3	23.2	0.00e+00	0	42	0	3482320896	38	4175
2026-01-24 04:36:26.74	229.14	32.17	-34.6	-35.4	23.3	0.00e+00	0	42	0	3491758080	38	4200
2026-01-24 04:36:27.45	229.03	32.04	-34.5	-35.3	23.3	0.00e+00	0	42	0	3497000960	38	4176
2026-01-24 04:36:28.73	228.83	31.80	-34.5	-35.3	23.3	0.00e+00	0	42	0	3505389568	38	4178
2026-01-24 04:36:29.70	228.69	31.62	-34.5	-35.3	23.3	0.00e+00	0	42	0	3512729600	38	4181
2026-01-24 04:36:30.69	228.54	31.43	-34.4	-35.2	23.5	0.00e+00	0	42	0	3520069632	38	4112
2026-01-24 04:36:31.68	228.40	31.25	-34.3	-35.2	23.5	0.00e+00	0	42	0	3527409664	38	4109
2026-01-24 04:36:32.68	228.25	31.07	-34.4	-35.2	23.4	0.00e+00	0	42	0	3534749696	38	4122
2026-01-24 04:36:33.68	228.11	30.88	-34.4	-35.2	23.4	0.00e+00	0	42	0	3541041152	38	4131
2026-01-24 04:36:34.67	227.97	30.71	-34.5	-35.3	23.4	0.00e+00	0	42	0	3548381184	38	4175
2026-01-24 04:36:35.67	227.83	30.52	-34.5	-35.3	23.3	0.00e+00	0	42	0	3555721216	38	4170
2026-01-24 04:36:36.66	227.70	30.35	-34.4	-35.2	23.4	0.00e+00	0	42	0	3563061248	38	4135
2026-01-24 04:36:37.72	227.55	30.16	-34.4	-35.2	23.4	0.00e+00	0	42	0	3570401280	38	4138
2026-01-24 04:36:38.65	227.43	29.99	-34.4	-35.2	23.4	0.00e+00	0	42	0	3577741312	38	4131
2026-01-24 04:36:39.77	227.28	29.79	-34.3	-35.1	23.5	0.00e+00	0	42	0	3585081344	38	4079
2026-01-24 04:36:40.62	227.17	29.65	-34.2	-34.9	23.6	0.00e+00	0	42	0	3591372800	38	4001
2026-01-24 04:36:41.76	227.02	29.45	-34.2	-35.0	23.6	0.00e+00	0	42	0	3599761408	38	4042
2026-01-24 04:36:42.61	226.91	29.30	-34.3	-35.1	23.5	0.00e+00	0	42	0	3606052864	38	4057
2026-01-24 04:36:43.75	226.76	29.10	-34.3	-35.1	23.5	0.00e+00	0	42	0	3614441472	38	4081
2026-01-24 04:36:44.60	226.66	28.95	-34.5	-35.3	23.4	0.00e+00	0	42	0	3620732928	38	4153
2026-01-24 04:36:45.73	226.52	28.76	-34.4	-35.3	23.4	0.00e+00	0	42	0	3628072960	38	4148
2026-01-24 04:36:46.59	226.41	28.61	-34.5	-35.3	23.3	0.00e+00	0	42	0	3634364416	38	4171
2026-01-24 04:36:47.72	226.27	28.42	-34.6	-35.5	23.2	0.00e+00	0	42	0	3642753024	38	4248
2026-01-24 04:36:48.57	226.17	28.28	-34.6	-35.4	23.2	0.00e+00	0	43	0	3649044480	38	4236
2026-01-24 04:36:49.71	226.03	28.09	-34.6	-35.4	23.2	0.00e+00	0	42	0	3657433088	38	4222
2026-01-24 04:36:50.57	225.93	27.94	-34.6	-35.4	23.2	0.00e+00	0	42	0	3663724544	38	4224
2026-01-24 04:36:51.70	225.80	27.76	-34.5	-35.4	23.3	0.00e+00	0	42	0	3672113152	38	4200
2026-01-24 04:36:52.56	225.70	27.61	-34.6	-35.4	23.1	0.00e+00	0	42	0	3678404608	38	4209
2026-01-24 04:36:53.69	225.57	27.43	-34.6	-35.4	23.2	0.00e+00	0	42	0	3685744640	38	4221
2026-01-24 04:36:54.54	225.48	27.29	-34.6	-35.4	23.2	0.00e+00	0	42	0	3692036096	38	4220
2026-01-24 04:36:55.68	225.35	27.10	-34.7	-35.5	23.2	0.00e+00	0	42	0	3700424704	38	4279
2026-01-24 04:36:56.53	225.25	26.97	-34.7	-35.6	23.1	0.00e+00	0	42	0	3706716160	39	4061
2026-01-24 04:36:57.67	225.13	26.78	-34.9	-35.7	22.9	0.00e+00	0	42	0	3715104768	39	4127
2026-01-24 04:36:58.52	225.04	26.65	-34.9	-35.7	23.0	0.00e+00	0	42	0	3721396224	39	4129
2026-01-24 04:36:59.66	224.91	26.47	-34.8	-35.7	23.0	0.00e+00	0	42	0	3728736256	39	4108
2026-01-24 04:37:00.51	224.82	26.33	-34.9	-35.7	23.0	0.00e+00	0	42	0	3735027712	39	4136
2026-01-24 04:37:01.65	224.70	26.15	-35.0	-35.8	22.9	0.00e+00	0	42	0	3743416320	39	4181
2026-01-24 04:37:02.72	224.59	25.98	-34.8	-35.6	23.1	0.00e+00	0	42	0	3750756352	39	4090
2026-01-24 04:37:03.75	224.49	25.82	-34.7	-35.6	23.1	0.00e+00	0	42	0	3758096384	39	4062
2026-01-24 04:37:04.74	224.38	25.67	-34.7	-35.5	23.1	0.00e+00	0	42	0	3765436416	39	4036
2026-01-24 04:37:06.01	224.26	25.47	-34.7	-35.6	23.1	0.00e+00	0	42	0	3774873600	39	4054
2026-01-24 04:37:06.73	224.18	25.36	-34.7	-35.5	23.1	0.00e+00	0	42	0	3780116480	39	4041
2026-01-24 04:37:08.01	224.06	25.17	-34.5	-35.3	23.4	0.00e+00	0	42	0	3789553664	39	3921
2026-01-24 04:37:08.74	223.99	25.06	-34.4	-35.2	23.4	0.00e+00	0	42	0	3794796544	39	3881
2026-01-24 04:37:10.02	223.86	24.86	-34.4	-35.2	23.4	0.00e+00	0	42	0	3804233728	39	3899
2026-01-24 04:37:10.73	223.79	24.76	-34.4	-35.2	23.4	0.00e+00	0	42	0	3808428032	39	3881
2026-01-24 04:37:12.00	223.67	24.57	-34.4	-35.2	23.4	0.00e+00	0	42	0	3817865216	39	3909
2026-01-24 04:37:12.73	223.60	24.46	-34.4	-35.2	23.4	0.00e+00	0	42	0	3823108096	39	3891
2026-01-24 04:37:14.01	223.49	24.27	-34.4	-35.2	23.4	0.00e+00	0	42	0	3832545280	39	3906
2026-01-24 04:37:14.73	223.42	24.16	-34.5	-35.3	23.3	0.00e+00	0	42	0	3837788160	39	3950
2026-01-24 04:37:16.17	223.29	23.95	-34.5	-35.3	23.3	0.00e+00	0	42	0	3848273920	39	3938
2026-01-24 04:37:16.88	223.22	23.85	-34.5	-35.4	23.3	0.00e+00	0	42	0	3853516800	39	3963
2026-01-24 04:37:18.15	223.11	23.66	-34.7	-35.5	23.1	0.00e+00	0	42	0	3862953984	39	4024
2026-01-24 04:37:18.87	223.04	23.56	-34.7	-35.6	23.1	0.00e+00	0	42	0	3868196864	39	4052
2026-01-24 04:37:20.27	222.92	23.36	-34.8	-35.7	23.0	0.00e+00	0	42	0	3877634048	39	4103
2026-01-24 04:37:20.98	222.86	23.26	-34.9	-35.7	22.9	0.00e+00	0	42	0	3882876928	39	4132
2026-01-24 04:37:22.27	222.75	23.07	-34.9	-35.8	22.9	0.00e+00	0	42	0	3892314112	39	4149
2026-01-24 04:37:22.98	222.69	22.97	-35.0	-35.8	22.8	0.00e+00	0	42	0	3897556992	39	4177
2026-01-24 04:37:24.26	222.58	22.79	-35.1	-35.9	22.7	0.00e+00	0	42	0	3906994176	39	4233
2026-01-24 04:37:25.00	222.52	22.69	-35.1	-35.9	22.7	0.00e+00	0	42	0	3912237056	39	4240
2026-01-24 04:37:26.28	222.41	22.51	-35.1	-36.0	22.7	0.00e+00	0	42	0	3921674240	39	4250
2026-01-24 04:37:27.00	222.35	22.41	-35.2	-36.0	22.6	0.00e+00	0	42	0	3926917120	39	4290
2026-01-24 04:37:28.28	222.25	22.24	-35.2	-36.0	22.6	0.00e+00	0	42	0	3935305728	40	4027
2026-01-24 04:37:29.01	222.19	22.14	-35.1	-36.0	22.6	0.00e+00	0	42	0	3940548608	40	4011
2026-01-24 04:37:30.29	222.09	21.96	-35.2	-36.0	22.6	0.00e+00	0	42	0	3949985792	40	4049
2026-01-24 04:37:31.01	222.03	21.86	-35.1	-36.0	22.6	0.00e+00	0	42	0	3955228672	40	4020
2026-01-24 04:37:32.29	221.93	21.69	-35.2	-36.0	22.6	0.00e+00	0	43	0	3964665856	40	4040
2026-01-24 04:37:33.00	221.87	21.59	-35.2	-36.0	22.5	0.00e+00	0	42	0	3969908736	40	4048
2026-01-24 04:37:34.28	221.77	21.42	-35.1	-36.0	22.6	0.00e+00	0	42	0	3979345920	40	4022
2026-01-24 04:37:35.12	221.71	21.31	-35.2	-36.0	22.6	0.00e+00	0	42	0	3984588800	40	4041
2026-01-24 04:37:36.25	221.62	21.16	-35.1	-36.0	22.6	0.00e+00	0	42	0	3992977408	40	4014
2026-01-24 04:37:37.11	221.56	21.05	-35.2	-36.1	22.5	0.00e+00	0	42	0	3999268864	40	4055
2026-01-24 04:37:38.61	221.45	20.85	-35.1	-36.0	22.6	0.00e+00	0	42	0	4010803200	40	4022
2026-01-24 04:37:39.73	221.36	20.71	-35.1	-36.0	22.6	0.00e+00	0	42	0	4018143232	40	4024
2026-01-24 04:37:40.58	221.30	20.60	-35.3	-36.1	22.4	0.00e+00	0	42	0	4024434688	40	4086
2026-01-24 04:37:41.72	221.22	20.45	-35.2	-36.1	22.5	0.00e+00	0	42	0	4032823296	40	4067
2026-01-24 04:37:42.57	221.16	20.34	-35.2	-36.1	22.5	0.00e+00	0	42	0	4039114752	40	4070
2026-01-24 04:37:43.71	221.08	20.19	-35.3	-36.1	22.4	0.00e+00	0	42	0	4047503360	40	4089
2026-01-24 04:37:44.57	221.02	20.08	-35.3	-36.1	22.4	0.00e+00	0	42	0	4053794816	40	4082
2026-01-24 04:37:45.70	220.94	19.94	-35.3	-36.1	22.5	0.00e+00	0	42	0	4061134848	40	4090
2026-01-24 04:37:46.56	220.88	19.83	-35.3	-36.2	22.4	0.00e+00	0	42	0	4067426304	40	4115
2026-01-24 04:37:47.69	220.80	19.69	-35.4	-36.3	22.3	0.00e+00	0	42	0	4075814912	40	4165
2026-01-24 04:37:48.63	220.74	19.57	-35.5	-36.3	22.3	0.00e+00	0	42	0	4082106368	40	4181
2026-01-24 04:37:49.62	220.67	19.45	-35.5	-36.4	22.3	0.00e+00	0	42	0	4089446400	40	4196
2026-01-24 04:37:50.62	220.60	19.33	-35.5	-36.3	22.3	0.00e+00	0	42	0	4096786432	40	4181
2026-01-24 04:37:51.61	220.54	19.20	-35.6	-36.5	22.1	0.00e+00	0	42	0	4104126464	40	4247
2026-01-24 04:37:52.61	220.47	19.08	-35.7	-36.5	22.1	0.00e+00	0	42	0	4111466496	40	4277
2026-01-24 04:37:53.61	220.41	18.96	-35.7	-36.5	22.1	0.00e+00	0	42	0	4118806528	40	4280
2026-01-24 04:37:54.95	220.32	18.80	-35.7	-36.6	22.0	0.00e+00	0	42	0	4128243712	40	4300
2026-01-24 04:37:55.69	220.27	18.71	-35.8	-36.7	21.9	0.00e+00	0	42	0	4133486592	41	4105
2026-01-24 04:37:56.97	220.19	18.55	-35.9	-36.8	21.8	0.00e+00	0	42	0	4142923776	41	4171
2026-01-24 04:37:57.71	220.14	18.47	-36.0	-36.8	21.8	0.00e+00	0	42	0	4148166656	41	4185
2026-01-24 04:37:58.99	220.06	18.31	-36.1	-37.0	21.6	0.00e+00	0	42	0	4157603840	41	4252
2026-01-24 04:37:59.70	220.02	18.23	-36.1	-37.0	21.7	0.00e+00	0	42	0	4162846720	41	4254
2026-01-24 04:38:00.98	219.94	18.08	-36.1	-37.0	21.6	0.00e+00	0	42	0	4171235328	41	4268
2026-01-24 04:38:01.71	219.90	17.99	-36.1	-37.0	21.6	0.00e+00	0	42	0	4177526784	41	4274
2026-01-24 04:38:02.99	219.82	17.84	-36.2	-37.1	21.6	0.00e+00	0	42	0	4185915392	41	4298
2026-01-24 04:38:03.71	219.77	17.76	-36.2	-37.1	21.5	0.00e+00	0	42	0	4191158272	41	4328
2026-01-24 04:38:04.99	219.70	17.61	-36.2	-37.2	21.5	0.00e+00	0	42	0	4200595456	42	4102
2026-01-24 04:38:05.70	219.66	17.53	-36.3	-37.2	21.3	0.00e+00	0	42	0	4205838336	42	4143
2026-01-24 04:38:07.07	219.58	17.37	-36.5	-37.4	21.3	0.00e+00	0	42	0	4215275520	42	4220
2026-01-24 04:38:07.78	219.53	17.29	-36.4	-37.3	21.4	0.00e+00	0	42	0	4220518400	42	4166
2026-01-24 04:38:09.06	219.46	17.14	-36.4	-37.3	21.4	0.00e+00	0	42	0	4229955584	42	4177
2026-01-24 04:38:09.77	219.42	17.06	-36.4	-37.4	21.3	0.00e+00	0	42	0	4235198464	42	4196
2026-01-24 04:38:11.05	219.35	16.92	-36.5	-37.4	21.2	0.00e+00	0	42	0	4244635648	42	4234
2026-01-24 04:38:11.76	219.31	16.84	-36.4	-37.3	21.4	0.00e+00	0	42	0	4249878528	42	4163
2026-01-24 04:38:13.04	219.24	16.69	-36.3	-37.2	21.5	0.00e+00	0	42	0	4258267136	42	4112
2026-01-24 04:38:13.75	219.20	16.62	-36.4	-37.3	21.4	0.00e+00	0	42	0	4264558592	42	4155
2026-01-24 04:38:15.30	219.11	16.44	-36.3	-37.2	21.4	0.00e+00	0	42	0	4275044352	42	4125
2026-01-24 04:38:16.01	219.07	16.37	-36.3	-37.2	21.5	0.00e+00	0	42	0	4280287232	42	4127
2026-01-24 04:38:17.32	219.00	16.22	-36.4	-37.3	21.3	0.00e+00	0	42	0	4289724416	42	4175
2026-01-24 04:38:18.03	218.96	16.14	-36.4	-37.3	21.3	0.00e+00	0	42	0	4294967296	42	4171
2026-01-24 04:38:19.31	218.89	16.00	-36.3	-37.2	21.4	0.00e+00	0	42	0	4304404480	42	4120
2026-01-24 04:38:20.04	218.86	15.92	-36.2	-37.1	21.5	0.00e+00	0	42	0	4309647360	42	4086
2026-01-24 04:38:21.32	218.79	15.79	-36.4	-37.3	21.4	0.00e+00	0	42	0	4319084544	42	4156
2026-01-24 04:38:22.04	218.75	15.71	-36.5	-37.4	21.3	0.00e+00	0	42	0	4323278848	42	4206
2026-01-24 04:38:23.32	218.68	15.57	-36.4	-37.2	21.4	0.00e+00	0	42	0	4332716032	42	4145
2026-01-24 04:38:24.05	218.65	15.49	-36.4	-37.3	21.3	0.00e+00	0	42	0	4337958912	42	4164
2026-01-24 04:38:25.32	218.58	15.36	-36.5	-37.4	21.3	0.00e+00	0	42	0	4347396096	42	4200
2026-01-24 04:38:26.11	218.54	15.28	-36.4	-37.3	21.3	0.00e+00	0	42	0	4353687552	42	4174
2026-01-24 04:38:27.30	218.48	15.15	-36.5	-37.4	21.3	0.00e+00	0	42	0	4361027584	42	4200
2026-01-24 04:38:28.15	218.44	15.06	-36.6	-37.5	21.2	0.00e+00	0	42	0	4367319040	42	4247
2026-01-24 04:38:29.28	218.38	14.94	-36.6	-37.5	21.1	0.00e+00	0	42	0	4375707648	42	4289
2026-01-24 04:38:30.14	218.34	14.85	-36.6	-37.5	21.2	0.00e+00	0	42	0	4381999104	42	4263
2026-01-24 04:38:31.28	218.29	14.73	-36.6	-37.6	21.1	0.00e+00	0	42	0	4390387712	42	4296
2026-01-24 04:38:32.13	218.25	14.65	-36.7	-37.6	21.1	0.00e+00	0	42	0	4396679168	42	4307
2026-01-24 04:38:33.27	218.19	14.53	-36.8	-37.7	21.0	0.00e+00	0	42	0	4405067776	42	4377
2026-01-24 04:38:34.12	218.15	14.44	-36.8	-37.7	21.0	0.00e+00	0	42	0	4411359232	42	4357
2026-01-24 04:38:35.32	218.09	14.32	-36.8	-37.8	20.9	0.00e+00	0	42	0	4419747840	43	4161
2026-01-24 04:38:36.17	218.05	14.23	-36.9	-37.9	20.8	0.00e+00	0	42	0	4426039296	43	4206
2026-01-24 04:38:37.31	218.00	14.12	-36.8	-37.8	20.9	0.00e+00	0	42	0	4434427904	43	4148
2026-01-24 04:38:38.16	217.96	14.03	-36.9	-37.8	20.8	0.00e+00	0	42	0	4439670784	43	4181
2026-01-24 04:38:39.30	217.91	13.92	-36.9	-37.8	20.8	0.00e+00	0	42	0	4448059392	43	4170
2026-01-24 04:38:40.15	217.87	13.83	-36.9	-37.8	20.9	0.00e+00	0	42	0	4454350848	43	4162
2026-01-24 04:38:41.29	217.82	13.72	-36.9	-37.9	20.8	0.00e+00	0	42	0	4462739456	43	4206
2026-01-24 04:38:42.22	217.78	13.63	-37.1	-38.0	20.6	0.00e+00	0	42	0	4469030912	43	4271
2026-01-24 04:38:43.38	217.72	13.51	-37.1	-38.0	20.7	0.00e+00	0	42	0	4477419520	43	4268
2026-01-24 04:38:44.24	217.69	13.43	-37.0	-37.9	20.7	0.00e+00	0	42	0	4483710976	43	4229
2026-01-24 04:38:45.38	217.64	13.32	-37.0	-37.9	20.8	0.00e+00	0	42	0	4492099584	43	4225
2026-01-24 04:38:46.23	217.60	13.23	-37.1	-38.0	20.6	0.00e+00	0	42	0	4498391040	43	4277
2026-01-24 04:38:47.37	217.55	13.12	-37.2	-38.1	20.5	0.00e+00	0	42	0	4506779648	43	4324
2026-01-24 04:38:48.22	217.51	13.04	-37.1	-38.0	20.7	0.00e+00	0	42	0	4513071104	43	4263
2026-01-24 04:38:49.36	217.46	12.93	-37.1	-38.1	20.6	0.00e+00	0	42	0	4521459712	43	4293
2026-01-24 04:38:50.21	217.43	12.85	-37.2	-38.2	20.5	0.00e+00	0	42	0	4526702592	43	4352
2026-01-24 04:38:51.35	217.38	12.74	-37.2	-38.1	20.5	0.00e+00	0	42	0	4535091200	43	4319
2026-01-24 04:38:52.20	217.34	12.66	-37.2	-38.2	20.5	0.00e+00	0	42	0	4541382656	43	4346
2026-01-24 04:38:53.34	217.30	12.55	-37.2	-38.1	20.5	0.00e+00	0	42	0	4549771264	43	4326
2026-01-24 04:38:54.19	217.26	12.47	-37.2	-38.2	20.5	0.00e+00	0	42	0	4556062720	43	4345
2026-01-24 04:38:55.33	217.21	12.36	-37.4	-38.4	20.4	0.00e+00	0	42	0	4564451328	44	4204
2026-01-24 04:38:56.18	217.18	12.28	-37.5	-38.5	20.3	0.00e+00	0	42	0	4569694208	44	4246
2026-01-24 04:38:57.32	217.13	12.17	-37.5	-38.5	20.3	0.00e+00	0	42	0	4578082816	44	4273
2026-01-24 04:38:58.17	217.10	12.10	-37.6	-38.6	20.2	0.00e+00	0	42	0	4584374272	44	4299
2026-01-24 04:38:59.50	217.04	11.97	-37.6	-38.6	20.2	0.00e+00	0	42	0	4593811456	44	4308
2026-01-24 04:39:00.21	217.02	11.91	-37.7	-38.7	20.1	0.00e+00	0	42	0	4599054336	44	4363
2026-01-24 04:39:01.49	216.97	11.79	-37.7	-38.6	20.1	0.00e+00	0	42	0	4608491520	44	4338
2026-01-24 04:39:02.21	216.94	11.72	-37.7	-38.7	20.0	0.00e+00	0	42	0	4613734400	44	4361
2026-01-24 04:39:03.49	216.89	11.60	-37.8	-38.8	20.0	0.00e+00	0	42	0	4623171584	45	4153
2026-01-24 04:39:04.23	216.86	11.54	-37.8	-38.8	20.0	0.00e+00	0	42	0	4628414464	45	4176
2026-01-24 04:39:05.51	216.81	11.42	-37.9	-38.9	19.8	0.00e+00	0	42	0	4637851648	45	4234
2026-01-24 04:39:06.23	216.78	11.35	-37.9	-38.9	19.9	0.00e+00	0	42	0	4643094528	45	4218
2026-01-24 04:39:07.51	216.73	11.24	-37.9	-38.9	19.9	0.00e+00	0	42	0	4652531712	45	4230
2026-01-24 04:39:08.23	216.71	11.17	-37.9	-38.9	19.9	0.00e+00	0	42	0	4656726016	45	4240
2026-01-24 04:39:09.50	216.66	11.06	-38.0	-39.0	19.7	0.00e+00	0	42	0	4666163200	45	4276
2026-01-24 04:39:10.23	216.63	11.00	-38.1	-39.1	19.7	0.00e+00	0	42	0	4671406080	45	4329
2026-01-24 04:39:11.50	216.59	10.88	-38.1	-39.1	19.7	0.00e+00	0	42	0	4680843264	45	4309
2026-01-24 04:39:12.24	216.56	10.82	-38.1	-39.1	19.7	0.00e+00	0	42	0	4686086144	45	4302
2026-01-24 04:39:13.52	216.51	10.70	-38.1	-39.1	19.6	0.00e+00	0	42	0	4695523328	45	4330
2026-01-24 04:39:14.23	216.49	10.64	-38.1	-39.1	19.6	0.00e+00	0	42	0	4700766208	45	4328
2026-01-24 04:39:15.51	216.44	10.53	-38.1	-39.2	19.6	0.00e+00	0	42	0	4710203392	45	4347
