passes_logs/2026/01/24/T1/T1__20260124_064939_KHAYYAM_rec.log

#Pass ID: 20260124_064939_KHAYYAM
#Satellite: KHAYYAM
#Configuration: KHAYYAM_480M
#almurnet v.1.7.20251203
#Start time: 2026-01-24 06:49:40

#Version: 2.0.20230620
#Station: T1
#Location: 37.570604 lon 55.790049 lat
#TLE: 1 53370U 22096A   26023.62012604  .00008987  00000+0  36588-3 0  9995
#TLE: 2 53370  97.3551 290.4757 0001913 108.0149 252.1298 15.24719440192559

#Time	Az	El	Level	Level2	SNR	BER	BlckErr	Temp	State	Recorded	gain1	gain2
2026-01-24 06:49:40.82	123.28	5.10	-50.9	-55.6	3.6	0.00e+00	0	40	0	0	73	24573
2026-01-24 06:49:41.81	123.18	5.17	-50.8	-55.5	3.7	0.00e+00	0	40	104	0	72	25938
2026-01-24 06:49:42.80	123.08	5.25	-50.8	-55.5	3.7	0.00e+00	0	40	104	0	72	25854
2026-01-24 06:49:43.79	122.98	5.32	-50.8	-55.5	3.7	0.00e+00	0	40	104	0	72	25873
2026-01-24 06:49:44.79	122.88	5.39	-50.8	-55.5	3.7	0.00e+00	0	40	104	0	72	25822
2026-01-24 06:49:45.78	122.77	5.46	-50.8	-55.5	3.7	0.00e+00	0	41	104	0	72	25845
2026-01-24 06:49:46.77	122.67	5.54	-50.8	-55.5	3.7	0.00e+00	0	40	104	0	72	25896
2026-01-24 06:49:47.77	122.56	5.61	-50.8	-55.5	3.7	0.00e+00	0	41	104	0	72	25963
2026-01-24 06:49:48.76	122.46	5.68	-50.8	-55.5	3.7	0.00e+00	0	41	104	0	72	25834
2026-01-24 06:49:49.75	122.35	5.76	-50.8	-55.5	3.7	0.00e+00	0	41	104	0	72	25949
2026-01-24 06:49:50.75	122.25	5.83	-50.8	-55.5	3.7	0.00e+00	0	41	104	0	72	25924
2026-01-24 06:49:51.74	122.14	5.91	-50.8	-55.5	3.7	0.00e+00	0	41	104	0	72	25838
2026-01-24 06:49:52.74	122.03	5.98	-50.8	-55.5	3.7	0.00e+00	0	41	104	0	72	25825
2026-01-24 06:49:53.73	121.92	6.05	-50.8	-55.5	3.7	0.00e+00	0	41	104	0	72	25879
2026-01-24 06:49:54.72	121.81	6.13	-50.8	-55.5	3.7	0.00e+00	0	41	104	0	72	25874
2026-01-24 06:49:55.72	121.70	6.20	-50.8	-55.5	3.7	0.00e+00	0	41	104	0	72	25955
2026-01-24 06:49:56.71	121.59	6.28	-50.8	-55.5	3.7	0.00e+00	0	41	104	0	72	25762
2026-01-24 06:49:57.71	121.48	6.35	-50.8	-55.5	3.7	0.00e+00	0	41	104	0	72	25834
2026-01-24 06:49:58.70	121.37	6.43	-50.8	-55.5	3.7	0.00e+00	0	41	104	0	72	25759
2026-01-24 06:49:59.69	121.25	6.51	-50.8	-55.5	3.7	0.00e+00	0	41	104	0	72	25779
2026-01-24 06:50:00.69	121.14	6.58	-50.8	-55.5	3.7	0.00e+00	0	42	104	0	72	25848
2026-01-24 06:50:01.68	121.02	6.66	-50.8	-55.5	3.7	0.00e+00	0	42	104	0	72	25880
2026-01-24 06:50:02.67	120.91	6.73	-50.8	-55.5	3.7	0.00e+00	0	41	104	0	72	25832
2026-01-24 06:50:03.67	120.79	6.81	-50.8	-55.5	3.7	0.00e+00	0	42	104	0	72	25895
2026-01-24 06:50:04.66	120.68	6.89	-50.8	-55.5	3.7	0.00e+00	0	42	104	0	72	25862
2026-01-24 06:50:05.65	120.56	6.96	-50.8	-55.5	3.7	0.00e+00	0	42	104	0	72	25838
2026-01-24 06:50:06.65	120.44	7.04	-50.8	-55.5	3.7	0.00e+00	0	42	104	0	72	25905
2026-01-24 06:50:07.64	120.32	7.12	-50.8	-55.5	3.7	0.00e+00	0	42	104	0	72	25779
2026-01-24 06:50:08.63	120.20	7.20	-50.8	-55.5	3.7	0.00e+00	0	42	104	0	72	25828
2026-01-24 06:50:09.63	120.08	7.28	-50.8	-55.5	3.7	0.00e+00	0	42	104	0	72	25782
2026-01-24 06:50:10.62	119.96	7.35	-50.8	-55.5	3.7	0.00e+00	0	42	104	0	72	25811
2026-01-24 06:50:11.61	119.83	7.43	-50.8	-55.5	3.7	0.00e+00	0	42	104	0	72	25828
2026-01-24 06:50:12.61	119.71	7.51	-50.8	-55.5	3.7	0.00e+00	0	42	104	0	72	25849
2026-01-24 06:50:13.60	119.58	7.59	-50.8	-55.5	3.7	0.00e+00	0	42	104	0	72	25844
2026-01-24 06:50:14.59	119.46	7.67	-50.8	-55.5	3.7	0.00e+00	0	42	104	0	72	25874
2026-01-24 06:50:15.59	119.33	7.75	-50.8	-55.5	3.7	0.00e+00	0	43	104	0	72	25901
2026-01-24 06:50:16.58	119.21	7.83	-50.8	-55.5	3.7	0.00e+00	0	42	104	0	72	25836
2026-01-24 06:50:17.57	119.08	7.91	-50.8	-55.5	3.7	0.00e+00	0	43	104	0	72	25817
2026-01-24 06:50:18.57	118.95	7.99	-50.8	-55.5	3.7	0.00e+00	0	42	104	0	72	25808
2026-01-24 06:50:19.56	118.82	8.07	-50.8	-55.5	3.7	0.00e+00	0	42	104	0	72	25738
2026-01-24 06:50:20.55	118.69	8.15	-50.8	-55.4	3.7	0.00e+00	0	42	104	0	72	25576
2026-01-24 06:50:21.55	118.55	8.23	-50.7	-55.4	3.7	0.00e+00	0	43	104	0	72	25396
2026-01-24 06:50:22.54	118.42	8.31	-50.6	-55.2	3.7	0.00e+00	0	43	104	0	72	24885
2026-01-24 06:50:23.53	118.29	8.39	-50.6	-55.0	3.7	0.00e+00	0	43	104	0	72	24428
2026-01-24 06:50:24.53	118.15	8.47	-50.5	-54.9	3.7	0.00e+00	0	43	104	0	72	24006
2026-01-24 06:50:25.52	118.02	8.55	-50.5	-54.8	3.7	0.00e+00	0	43	104	0	72	23936
2026-01-24 06:50:26.51	117.88	8.63	-50.5	-54.9	3.7	0.00e+00	0	43	104	0	72	24004
2026-01-24 06:50:27.51	117.74	8.72	-50.6	-55.0	3.7	0.00e+00	0	43	104	0	72	24434
2026-01-24 06:50:28.50	117.61	8.80	-50.7	-55.2	3.7	0.00e+00	0	43	104	0	72	24909
2026-01-24 06:50:29.49	117.47	8.88	-50.7	-55.4	3.7	0.00e+00	0	43	104	0	72	25390
2026-01-24 06:50:30.49	117.33	8.96	-50.8	-55.4	3.7	0.00e+00	0	43	104	0	72	25537
2026-01-24 06:50:31.48	117.18	9.05	-50.8	-55.5	3.7	0.00e+00	0	43	104	0	72	25755
2026-01-24 06:50:32.52	117.04	9.13	-50.9	-55.5	3.7	0.00e+00	0	43	104	0	72	25786
2026-01-24 06:50:33.52	116.89	9.22	-51.0	-55.6	3.7	0.00e+00	0	43	104	0	72	26248
2026-01-24 06:50:34.51	116.75	9.30	-50.9	-55.6	3.7	0.00e+00	0	43	104	0	72	26117
2026-01-24 06:50:35.51	116.60	9.38	-51.0	-55.7	3.7	0.00e+00	0	43	104	0	72	26372
2026-01-24 06:50:36.50	116.45	9.47	-51.3	-55.7	3.7	0.00e+00	0	43	104	0	73	25048
2026-01-24 06:50:37.50	116.30	9.55	-51.2	-55.7	3.7	0.00e+00	0	43	104	0	73	24959
2026-01-24 06:50:38.49	116.16	9.64	-51.1	-55.7	3.7	0.00e+00	0	43	104	0	73	25057
2026-01-24 06:50:39.49	116.01	9.72	-51.4	-55.9	3.7	0.00e+00	0	43	104	0	73	25474
2026-01-24 06:50:40.48	115.85	9.81	-51.5	-55.8	3.7	0.00e+00	0	43	104	0	73	25347
2026-01-24 06:50:41.48	115.70	9.89	-51.5	-55.9	3.7	0.00e+00	0	43	104	0	73	25600
2026-01-24 06:50:42.47	115.55	9.98	-51.5	-56.0	3.7	0.00e+00	0	43	104	0	73	25780
2026-01-24 06:50:43.46	115.39	10.06	-51.5	-56.0	3.7	0.00e+00	0	43	104	0	73	25781
2026-01-24 06:50:44.46	115.24	10.15	-51.4	-55.9	3.7	0.00e+00	0	43	104	0	73	25638
2026-01-24 06:50:45.45	115.08	10.24	-51.4	-55.9	3.7	0.00e+00	0	43	104	0	73	25550
2026-01-24 06:50:46.45	114.92	10.32	-51.5	-56.0	3.7	0.00e+00	0	43	104	0	73	25823
2026-01-24 06:50:47.46	114.76	10.41	-51.4	-55.9	3.7	0.00e+00	0	43	104	0	73	25663
2026-01-24 06:50:48.45	114.60	10.50	-51.3	-55.9	3.7	0.00e+00	0	44	104	0	73	25443
2026-01-24 06:50:49.45	114.44	10.59	-51.3	-55.9	3.7	0.00e+00	0	44	104	0	73	25454
2026-01-24 06:50:50.44	114.28	10.67	-51.4	-56.0	3.7	0.00e+00	0	44	104	0	73	25743
2026-01-24 06:50:51.44	114.11	10.76	-51.4	-56.0	3.7	0.00e+00	0	43	104	0	73	25736
2026-01-24 06:50:52.43	113.95	10.85	-51.3	-56.0	3.7	0.00e+00	0	43	104	0	73	25717
2026-01-24 06:50:53.43	113.78	10.94	-51.4	-55.9	3.7	0.00e+00	0	43	104	0	73	25659
2026-01-24 06:50:54.42	113.61	11.03	-51.4	-56.0	3.7	0.00e+00	0	44	104	0	73	25709
2026-01-24 06:50:55.42	113.44	11.11	-51.5	-56.0	3.7	0.00e+00	0	44	104	0	73	25851
2026-01-24 06:50:56.41	113.27	11.20	-51.5	-56.1	3.7	0.00e+00	0	44	104	0	73	25982
2026-01-24 06:50:57.41	113.10	11.29	-51.6	-56.1	3.7	0.00e+00	0	43	104	0	73	26151
2026-01-24 06:50:58.40	112.93	11.38	-51.6	-56.1	3.7	0.00e+00	0	44	104	0	73	26091
2026-01-24 06:50:59.40	112.75	11.47	-51.6	-56.1	3.7	0.00e+00	0	44	104	0	73	26261
2026-01-24 06:51:00.39	112.58	11.56	-51.4	-56.0	3.7	0.00e+00	0	44	104	0	73	25875
2026-01-24 06:51:01.39	112.40	11.65	-51.3	-56.0	3.7	0.00e+00	0	44	104	0	73	25692
2026-01-24 06:51:02.38	112.22	11.74	-51.5	-56.1	3.7	0.00e+00	0	44	104	0	73	26100
2026-01-24 06:51:03.38	112.04	11.83	-51.2	-55.9	3.7	0.00e+00	0	44	104	0	73	25519
2026-01-24 06:51:04.37	111.86	11.92	-51.2	-55.9	3.7	0.00e+00	0	44	104	0	73	25488
2026-01-24 06:51:05.50	111.65	12.02	-51.1	-55.8	3.7	0.00e+00	0	44	104	0	73	25320
2026-01-24 06:51:06.35	111.50	12.10	-51.0	-55.8	3.7	0.00e+00	0	44	104	0	73	25291
2026-01-24 06:51:07.49	111.28	12.21	-51.3	-55.9	3.7	0.00e+00	0	44	104	0	73	25631
2026-01-24 06:51:08.34	111.12	12.28	-51.2	-55.8	3.7	0.00e+00	0	44	104	0	73	25253
2026-01-24 06:51:09.48	110.91	12.39	-51.3	-56.0	3.7	0.00e+00	0	44	104	0	73	25696
2026-01-24 06:51:10.33	110.75	12.47	-51.3	-56.0	3.7	0.00e+00	0	44	104	0	73	25778
2026-01-24 06:51:11.47	110.53	12.57	-51.3	-56.0	3.7	0.00e+00	0	44	104	0	73	25726
2026-01-24 06:51:12.32	110.36	12.65	-51.5	-56.0	3.7	0.00e+00	0	44	104	0	73	25895
2026-01-24 06:51:13.46	110.14	12.76	-51.5	-56.1	3.7	0.00e+00	0	44	104	0	73	25992
2026-01-24 06:51:14.31	109.97	12.84	-51.3	-56.0	3.7	0.00e+00	0	44	104	0	73	25773
2026-01-24 06:51:15.45	109.75	12.94	-51.5	-56.1	3.7	0.00e+00	0	44	104	0	73	26150
2026-01-24 06:51:16.30	109.58	13.02	-51.6	-56.2	3.7	0.00e+00	0	44	104	0	73	26307
2026-01-24 06:51:17.47	109.34	13.13	-51.7	-56.2	3.7	0.00e+00	0	44	104	0	74	25093
2026-01-24 06:51:18.32	109.17	13.21	-51.7	-56.2	3.7	0.00e+00	0	44	104	0	74	24995
2026-01-24 06:51:19.46	108.94	13.32	-51.7	-56.3	3.7	0.00e+00	0	44	104	0	74	25125
2026-01-24 06:51:20.31	108.76	13.40	-51.8	-56.3	3.7	0.00e+00	0	44	104	0	74	25254
2026-01-24 06:51:21.45	108.53	13.51	-51.8	-56.3	3.7	0.00e+00	0	44	104	0	74	25102
2026-01-24 06:51:22.30	108.35	13.59	-51.8	-56.3	3.7	0.00e+00	0	44	104	0	74	25245
2026-01-24 06:51:23.44	108.11	13.69	-51.8	-56.3	3.7	0.00e+00	0	44	104	0	74	25192
2026-01-24 06:51:24.29	107.93	13.78	-51.7	-56.2	3.7	0.00e+00	0	44	104	0	74	24956
2026-01-24 06:51:25.43	107.68	13.88	-51.6	-56.1	3.7	0.00e+00	0	44	104	0	74	24701
2026-01-24 06:51:26.28	107.50	13.96	-51.7	-56.3	3.7	0.00e+00	0	44	104	0	74	25104
2026-01-24 06:51:27.42	107.25	14.07	-51.5	-56.0	3.7	0.00e+00	0	44	104	0	74	24500
2026-01-24 06:51:28.27	107.07	14.15	-51.3	-56.0	3.7	0.00e+00	0	44	104	0	74	24397
2026-01-24 06:51:29.41	106.82	14.26	-51.3	-55.9	3.7	0.00e+00	0	44	104	0	74	24134
2026-01-24 06:51:30.26	106.63	14.34	-51.3	-55.9	3.7	0.00e+00	0	44	104	0	74	24196
2026-01-24 06:51:31.40	106.37	14.45	-51.4	-56.0	3.7	0.00e+00	0	44	104	0	74	24356
2026-01-24 06:51:32.25	106.18	14.53	-51.5	-56.1	3.7	0.00e+00	0	44	104	0	74	24775
2026-01-24 06:51:33.39	105.92	14.64	-51.5	-56.0	3.7	0.00e+00	0	44	104	0	74	24505
2026-01-24 06:51:34.24	105.73	14.73	-51.5	-56.1	3.7	0.00e+00	0	44	104	0	74	24674
2026-01-24 06:51:35.38	105.46	14.83	-51.6	-56.2	3.7	0.00e+00	0	45	104	0	74	24822
2026-01-24 06:51:36.23	105.26	14.92	-51.4	-56.1	3.7	0.00e+00	0	44	104	0	74	24758
2026-01-24 06:51:37.37	105.00	15.03	-51.5	-56.1	3.6	0.00e+00	0	44	104	0	74	24751
2026-01-24 06:51:38.22	104.79	15.11	-51.5	-56.2	3.7	0.00e+00	0	44	104	0	74	24860
2026-01-24 06:51:39.36	104.52	15.22	-51.7	-56.2	3.7	0.00e+00	0	44	104	0	74	24914
2026-01-24 06:51:40.21	104.32	15.30	-51.6	-56.2	3.7	0.00e+00	0	44	104	0	74	24929
2026-01-24 06:51:41.35	104.04	15.41	-51.7	-56.2	3.7	0.00e+00	0	44	104	0	74	24916
2026-01-24 06:51:42.20	103.84	15.49	-51.7	-56.2	3.7	0.00e+00	0	44	104	0	74	24845
2026-01-24 06:51:43.34	103.56	15.60	-51.7	-56.2	3.7	0.00e+00	0	44	104	0	74	24823
2026-01-24 06:51:44.19	103.34	15.69	-51.7	-56.2	3.7	0.00e+00	0	44	104	0	74	25038
2026-01-24 06:51:45.34	103.06	15.80	-51.7	-56.2	3.7	0.00e+00	0	44	104	0	74	24991
2026-01-24 06:51:46.19	102.84	15.88	-51.6	-56.1	3.7	0.00e+00	0	44	104	0	74	24798
2026-01-24 06:51:47.33	102.56	15.99	-51.7	-56.2	3.7	0.00e+00	0	44	104	0	74	25022
2026-01-24 06:51:48.18	102.34	16.07	-51.8	-56.3	3.6	0.00e+00	0	44	104	0	74	25220
2026-01-24 06:51:49.32	102.04	16.18	-51.8	-56.2	3.7	0.00e+00	0	45	104	0	74	25048
2026-01-24 06:51:50.17	101.82	16.26	-51.8	-56.3	3.7	0.00e+00	0	44	104	0	74	25103
2026-01-24 06:51:51.51	101.47	16.39	-51.7	-56.2	3.7	0.00e+00	0	45	104	0	74	24822
2026-01-24 06:51:52.23	101.28	16.46	-51.7	-56.1	3.7	0.00e+00	0	44	104	0	74	24623
2026-01-24 06:51:53.52	100.94	16.59	-51.8	-56.2	3.7	0.00e+00	0	45	104	0	74	24879
2026-01-24 06:51:54.23	100.75	16.66	-51.7	-56.2	3.7	0.00e+00	0	44	104	0	74	24889
2026-01-24 06:51:55.51	100.41	16.78	-51.8	-56.1	3.7	0.00e+00	0	44	104	0	74	24795
2026-01-24 06:51:56.22	100.21	16.85	-51.7	-56.1	3.7	0.00e+00	0	45	104	0	74	24545
2026-01-24 06:51:57.50	99.86	16.97	-51.6	-56.0	3.7	0.00e+00	0	45	104	0	74	24489
2026-01-24 06:51:58.21	99.67	17.04	-51.7	-56.0	3.7	0.00e+00	0	45	104	0	74	24499
2026-01-24 06:51:59.49	99.31	17.16	-51.7	-56.1	3.7	0.00e+00	0	45	104	0	74	24760
2026-01-24 06:52:00.20	99.11	17.23	-51.8	-56.2	3.7	0.00e+00	0	45	104	0	74	24920
2026-01-24 06:52:01.48	98.75	17.35	-51.8	-56.2	3.7	0.00e+00	0	44	104	0	74	25021
2026-01-24 06:52:02.21	98.54	17.42	-51.8	-56.2	3.7	0.00e+00	0	44	104	0	74	24920
2026-01-24 06:52:03.49	98.18	17.55	-51.8	-56.3	3.7	0.00e+00	0	44	104	0	74	25107
2026-01-24 06:52:04.21	97.97	17.62	-51.7	-56.1	3.7	0.00e+00	0	45	104	0	74	24680
2026-01-24 06:52:05.49	97.60	17.74	-51.7	-56.2	3.7	0.00e+00	0	44	104	0	74	25002
2026-01-24 06:52:06.21	97.39	17.81	-51.7	-56.2	3.7	0.00e+00	0	45	104	0	74	24924
2026-01-24 06:52:07.57	96.99	17.94	-51.6	-56.2	3.7	0.00e+00	0	45	104	0	74	25047
2026-01-24 06:52:08.28	96.77	18.00	-51.7	-56.3	3.7	0.00e+00	0	45	104	0	74	25225
2026-01-24 06:52:09.56	96.39	18.12	-51.7	-56.2	3.7	0.00e+00	0	45	104	0	74	24935
2026-01-24 06:52:10.28	96.17	18.19	-51.7	-56.2	3.7	0.00e+00	0	45	104	0	74	25023
2026-01-24 06:52:11.55	95.79	18.31	-51.5	-56.0	3.7	0.00e+00	0	45	104	0	74	24252
2026-01-24 06:52:12.28	95.56	18.38	-51.5	-56.1	3.7	0.00e+00	0	45	104	0	74	24538
2026-01-24 06:52:13.56	95.17	18.50	-51.6	-56.0	3.7	0.00e+00	0	45	104	0	74	24457
2026-01-24 06:52:14.29	94.94	18.57	-51.5	-55.9	3.7	0.00e+00	0	45	104	0	74	24186
2026-01-24 06:52:15.56	94.55	18.68	-51.8	-56.2	3.7	0.00e+00	0	45	104	0	74	24868
2026-01-24 06:52:16.28	94.32	18.75	-51.6	-56.1	3.7	0.00e+00	0	45	104	0	74	24739
2026-01-24 06:52:17.56	93.91	18.87	-51.5	-56.1	3.7	0.00e+00	0	45	104	0	74	24644
2026-01-24 06:52:18.29	93.68	18.94	-51.5	-56.1	3.7	0.00e+00	0	45	104	0	74	24655
2026-01-24 06:52:19.57	93.27	19.05	-51.5	-56.1	3.7	0.00e+00	0	45	104	0	74	24723
2026-01-24 06:52:20.28	93.04	19.12	-51.7	-56.2	3.7	0.00e+00	0	45	104	0	74	24896
2026-01-24 06:52:21.56	92.62	19.23	-51.7	-56.2	3.7	0.00e+00	0	44	104	0	74	24985
2026-01-24 06:52:22.28	92.39	19.30	-51.7	-56.2	3.7	0.00e+00	0	45	104	0	74	24863
2026-01-24 06:52:23.56	91.96	19.41	-51.7	-56.3	3.7	0.00e+00	0	45	104	0	74	25128
2026-01-24 06:52:24.29	91.72	19.48	-51.5	-56.2	3.7	0.00e+00	0	45	104	0	74	24896
2026-01-24 06:52:25.61	91.28	19.59	-51.4	-56.1	3.7	0.00e+00	0	45	104	0	74	24613
2026-01-24 06:52:26.32	91.04	19.66	-51.4	-56.1	3.7	0.00e+00	0	45	104	0	74	24653
2026-01-24 06:52:27.66	90.58	19.77	-51.1	-55.4	3.7	0.00e+00	0	45	104	0	74	22707
2026-01-24 06:52:28.37	90.34	19.84	-51.0	-55.0	3.7	0.00e+00	0	45	104	0	74	21841
2026-01-24 06:52:29.72	89.88	19.95	-51.0	-55.0	3.7	0.00e+00	0	45	104	0	73	23015
2026-01-24 06:52:30.43	89.63	20.01	-51.0	-55.2	3.7	0.00e+00	0	45	104	0	73	23451
2026-01-24 06:52:31.77	89.16	20.13	-50.9	-55.4	3.7	0.00e+00	0	45	104	0	73	24101
2026-01-24 06:52:32.48	88.91	20.19	-51.0	-55.6	3.7	0.00e+00	0	45	104	0	73	24706
2026-01-24 06:52:33.84	88.43	20.30	-51.3	-56.0	3.7	0.00e+00	0	45	104	0	73	25897
2026-01-24 06:52:34.55	88.18	20.36	-51.3	-56.1	3.7	0.00e+00	0	45	104	0	73	26069
2026-01-24 06:52:35.83	87.72	20.47	-51.4	-56.1	3.7	0.00e+00	0	45	104	0	73	26225
2026-01-24 06:52:36.54	87.47	20.52	-51.4	-56.1	3.7	0.00e+00	0	45	104	0	73	26200
2026-01-24 06:52:37.82	87.00	20.63	-51.4	-56.1	3.7	0.00e+00	0	45	104	0	73	26197
2026-01-24 06:52:38.54	86.74	20.68	-51.2	-56.0	3.7	0.00e+00	0	45	104	0	73	25875
2026-01-24 06:52:39.82	86.27	20.79	-50.6	-55.6	3.7	0.00e+00	0	45	104	0	73	24658
2026-01-24 06:52:40.55	86.00	20.84	-50.6	-55.6	3.7	0.00e+00	0	45	104	0	73	24659
2026-01-24 06:52:41.83	85.53	20.94	-50.7	-55.7	3.7	0.00e+00	0	45	104	0	73	24841
2026-01-24 06:52:42.54	85.26	21.00	-50.9	-55.8	3.7	0.00e+00	0	45	104	0	73	25099
2026-01-24 06:52:43.82	84.78	21.10	-51.1	-56.0	3.7	0.00e+00	0	45	104	0	73	25967
2026-01-24 06:52:44.56	84.50	21.15	-51.0	-56.1	3.7	0.00e+00	0	45	104	0	73	26024
2026-01-24 06:52:45.84	84.02	21.25	-50.8	-56.0	3.7	0.00e+00	0	45	104	0	73	25745
2026-01-24 06:52:46.60	83.73	21.30	-50.6	-55.8	3.7	0.00e+00	0	45	104	0	73	25362
2026-01-24 06:52:47.88	83.24	21.40	-50.8	-55.7	3.7	0.00e+00	0	45	104	0	73	24875
2026-01-24 06:52:48.59	82.97	21.45	-51.0	-55.8	3.7	0.00e+00	0	45	104	0	73	25304
2026-01-24 06:52:49.87	82.47	21.54	-50.9	-55.8	3.7	0.00e+00	0	45	104	0	73	25174
2026-01-24 06:52:50.74	82.13	21.60	-51.1	-56.0	3.7	0.00e+00	0	45	104	0	73	25851
2026-01-24 06:52:51.87	81.69	21.67	-51.2	-56.0	3.7	0.00e+00	0	45	104	0	73	25953
2026-01-24 06:52:52.72	81.35	21.73	-50.9	-55.9	3.7	0.00e+00	0	45	104	0	73	25457
2026-01-24 06:52:53.86	80.90	21.81	-51.0	-55.9	3.7	0.00e+00	0	45	104	0	73	25568
2026-01-24 06:52:54.71	80.56	21.86	-51.0	-56.0	3.7	0.00e+00	0	45	104	0	73	25858
2026-01-24 06:52:55.85	80.11	21.94	-51.4	-56.2	3.7	0.00e+00	0	45	104	0	73	26513
2026-01-24 06:52:56.71	79.76	21.99	-51.9	-56.4	3.7	0.00e+00	0	45	104	0	74	25543
2026-01-24 06:52:57.84	79.31	22.06	-51.8	-56.4	3.7	0.00e+00	0	45	104	0	74	25426
2026-01-24 06:52:58.70	78.96	22.11	-51.9	-56.4	3.7	0.00e+00	0	45	104	0	74	25572
2026-01-24 06:52:59.83	78.50	22.18	-51.7	-56.3	3.7	0.00e+00	0	45	104	0	74	25330
2026-01-24 06:53:00.68	78.16	22.23	-51.8	-56.4	3.7	0.00e+00	0	45	104	0	74	25505
2026-01-24 06:53:01.82	77.69	22.29	-51.7	-56.4	3.7	0.00e+00	0	45	104	0	74	25424
2026-01-24 06:53:02.68	77.33	22.34	-51.9	-56.5	3.7	0.00e+00	0	45	104	0	74	25717
2026-01-24 06:53:03.81	76.87	22.40	-51.5	-56.2	3.7	0.00e+00	0	45	104	0	74	24985
2026-01-24 06:53:04.67	76.51	22.45	-51.3	-56.1	3.7	0.00e+00	0	45	104	0	74	24694
2026-01-24 06:53:05.80	76.04	22.51	-51.3	-56.1	3.7	0.00e+00	0	45	104	0	74	24665
2026-01-24 06:53:06.66	75.68	22.55	-51.4	-56.3	3.7	0.00e+00	0	45	104	0	74	25101
2026-01-24 06:53:07.79	75.21	22.61	-51.8	-56.4	3.7	0.00e+00	0	45	104	0	74	25664
2026-01-24 06:53:08.65	74.84	22.65	-52.0	-56.4	3.7	0.00e+00	0	45	104	0	74	25510
2026-01-24 06:53:09.78	74.37	22.70	-52.0	-56.4	3.7	0.00e+00	0	45	104	0	74	25511
2026-01-24 06:53:10.64	74.00	22.74	-51.9	-56.3	3.7	0.00e+00	0	45	104	0	74	25190
2026-01-24 06:53:11.78	73.52	22.79	-51.8	-56.3	3.7	0.00e+00	0	45	104	0	74	25204
2026-01-24 06:53:12.63	73.16	22.83	-51.9	-56.4	3.7	0.00e+00	0	45	104	0	74	25604
2026-01-24 06:53:13.77	72.67	22.87	-51.9	-56.4	3.7	0.00e+00	0	45	104	0	74	25580
2026-01-24 06:53:14.62	72.30	22.91	-52.0	-56.5	3.7	0.00e+00	0	45	104	0	74	25872
2026-01-24 06:53:15.76	71.81	22.95	-52.0	-56.5	3.7	0.00e+00	0	45	104	0	74	25875
2026-01-24 06:53:16.61	71.45	22.98	-52.0	-56.4	3.7	0.00e+00	0	45	104	0	74	25532
2026-01-24 06:53:17.75	70.95	23.02	-52.0	-56.4	3.7	0.00e+00	0	45	104	0	74	25418
2026-01-24 06:53:18.60	70.59	23.05	-51.9	-56.3	3.7	0.00e+00	0	45	104	0	74	25226
2026-01-24 06:53:19.73	70.10	23.08	-51.8	-56.3	3.7	0.00e+00	0	45	104	0	74	25223
2026-01-24 06:53:20.59	69.72	23.11	-51.9	-56.4	3.7	0.00e+00	0	45	104	0	74	25553
2026-01-24 06:53:21.72	69.23	23.14	-51.9	-56.4	3.7	0.00e+00	0	45	104	0	74	25607
2026-01-24 06:53:22.58	68.85	23.17	-52.0	-56.5	3.7	0.00e+00	0	45	104	0	74	25730
2026-01-24 06:53:23.71	68.36	23.20	-52.0	-56.5	3.7	0.00e+00	0	45	104	0	74	25924
2026-01-24 06:53:24.57	67.98	23.22	-52.0	-56.5	3.7	0.00e+00	0	45	104	0	74	25856
2026-01-24 06:53:25.70	67.48	23.24	-52.0	-56.4	3.7	0.00e+00	0	45	104	0	74	25650
2026-01-24 06:53:26.56	67.10	23.26	-52.0	-56.5	3.7	0.00e+00	0	45	104	0	74	25752
2026-01-24 06:53:27.69	66.61	23.28	-52.1	-56.5	3.7	0.00e+00	0	45	104	0	74	25970
2026-01-24 06:53:28.54	66.23	23.30	-51.9	-56.5	3.7	0.00e+00	0	45	104	0	74	25762
2026-01-24 06:53:29.68	65.73	23.32	-51.8	-56.4	3.7	0.00e+00	0	45	104	0	74	25635
2026-01-24 06:53:30.53	65.35	23.33	-51.8	-56.4	3.7	0.00e+00	0	45	104	0	74	25673
2026-01-24 06:53:31.67	64.85	23.34	-52.0	-56.5	3.7	0.00e+00	0	45	104	0	74	25945
2026-01-24 06:53:32.65	64.41	23.35	-52.1	-56.5	3.7	0.00e+00	0	45	104	0	74	25935
2026-01-24 06:53:33.83	63.89	23.36	-52.1	-56.5	3.7	0.00e+00	0	45	104	0	74	25947
2026-01-24 06:53:34.72	63.50	23.37	-51.9	-56.4	3.7	0.00e+00	0	45	104	0	74	25519
2026-01-24 06:53:35.86	62.99	23.38	-51.8	-56.2	3.7	0.00e+00	0	45	104	0	74	25020
2026-01-24 06:53:36.71	62.61	23.38	-51.8	-56.1	3.7	0.00e+00	0	45	104	0	74	24674
2026-01-24 06:53:37.85	62.11	23.38	-51.8	-56.1	3.7	0.00e+00	0	45	104	0	74	24786
2026-01-24 06:53:38.70	61.73	23.38	-51.7	-56.1	3.7	0.00e+00	0	45	104	0	74	24660
2026-01-24 06:53:39.83	61.23	23.38	-51.6	-56.3	3.7	0.00e+00	0	45	104	0	74	25108
2026-01-24 06:53:40.68	60.85	23.38	-51.9	-56.5	3.7	0.00e+00	0	45	104	0	74	25774
2026-01-24 06:53:41.82	60.34	23.38	-51.9	-56.5	3.7	0.00e+00	0	45	104	0	74	25709
2026-01-24 06:53:42.67	59.97	23.37	-52.0	-56.5	3.7	0.00e+00	0	45	104	0	74	25827
2026-01-24 06:53:43.81	59.46	23.36	-51.7	-56.3	3.7	0.00e+00	0	45	104	0	74	25293
2026-01-24 06:53:44.66	59.08	23.36	-51.4	-56.1	3.7	0.00e+00	0	45	104	0	74	24766
2026-01-24 06:53:45.80	58.58	23.34	-51.5	-56.2	3.7	0.00e+00	0	45	104	0	74	24935
2026-01-24 06:53:46.65	58.20	23.33	-51.4	-56.0	3.7	0.00e+00	0	45	104	0	74	24396
2026-01-24 06:53:47.88	57.66	23.32	-51.4	-55.6	3.7	0.00e+00	0	45	104	0	74	23168
2026-01-24 06:53:48.73	57.28	23.30	-51.3	-55.2	3.7	0.00e+00	0	45	104	0	74	22268
2026-01-24 06:53:49.92	56.76	23.28	-51.3	-55.2	3.7	0.00e+00	0	45	104	0	74	22205
2026-01-24 06:53:50.77	56.38	23.27	-51.3	-55.2	3.7	0.00e+00	0	45	104	0	74	22348
2026-01-24 06:53:51.90	55.89	23.24	-51.4	-55.5	3.7	0.00e+00	0	45	104	0	74	23128
2026-01-24 06:53:52.76	55.51	23.22	-51.6	-56.0	3.7	0.00e+00	0	45	104	0	74	24272
2026-01-24 06:53:53.90	55.01	23.20	-51.8	-56.2	3.7	0.00e+00	0	45	104	0	74	25051
2026-01-24 06:53:54.75	54.64	23.17	-52.0	-56.4	3.7	0.00e+00	0	45	104	0	74	25410
2026-01-24 06:53:56.08	54.06	23.14	-51.9	-56.4	3.7	0.00e+00	0	45	104	0	74	25611
2026-01-24 06:53:56.79	53.75	23.12	-51.5	-56.1	3.7	0.00e+00	0	45	104	0	74	24782
2026-01-24 06:53:58.07	53.19	23.08	-51.4	-56.0	3.7	0.00e+00	0	45	104	0	74	24262
2026-01-24 06:53:58.79	52.88	23.06	-51.7	-56.2	3.7	0.00e+00	0	45	104	0	74	24831
2026-01-24 06:54:00.07	52.33	23.01	-51.6	-55.7	3.7	0.00e+00	0	45	104	0	74	23485
2026-01-24 06:54:00.89	51.97	22.99	-51.6	-55.7	3.7	0.00e+00	0	45	104	0	74	23486
2026-01-24 06:54:02.03	51.48	22.94	-51.6	-55.9	3.7	0.00e+00	0	45	104	0	74	24107
2026-01-24 06:54:02.88	51.12	22.91	-51.6	-56.0	3.7	0.00e+00	0	45	104	0	74	24367
2026-01-24 06:54:04.02	50.63	22.87	-51.4	-55.8	3.7	0.00e+00	0	45	104	0	74	23903
2026-01-24 06:54:04.87	50.27	22.83	-51.4	-55.9	3.7	0.00e+00	0	45	104	0	74	24142
2026-01-24 06:54:06.01	49.78	22.78	-51.4	-55.6	3.7	0.00e+00	0	45	104	0	74	23199
2026-01-24 06:54:06.86	49.42	22.75	-51.7	-56.2	3.7	0.00e+00	0	45	104	0	74	24926
2026-01-24 06:54:08.00	48.94	22.70	-51.6	-55.9	3.7	0.00e+00	0	45	104	0	74	24077
2026-01-24 06:54:08.85	48.58	22.66	-51.7	-56.0	3.7	0.00e+00	0	45	104	0	74	24284
2026-01-24 06:54:10.10	48.06	22.60	-51.7	-56.1	3.7	0.00e+00	0	45	104	0	74	24631
2026-01-24 06:54:10.95	47.70	22.55	-51.7	-56.1	3.7	0.00e+00	0	45	104	0	74	24775
2026-01-24 06:54:12.09	47.23	22.50	-51.8	-56.2	3.7	0.00e+00	0	45	104	0	74	24908
2026-01-24 06:54:12.94	46.87	22.45	-51.8	-56.1	3.7	0.00e+00	0	45	104	0	74	24785
2026-01-24 06:54:14.08	46.40	22.39	-51.9	-56.4	3.7	0.00e+00	0	45	104	0	74	25496
2026-01-24 06:54:14.93	46.05	22.34	-51.9	-56.3	3.7	0.00e+00	0	45	104	0	74	25355
2026-01-24 06:54:16.06	45.59	22.28	-51.9	-56.4	3.7	0.00e+00	0	45	104	0	74	25608
2026-01-24 06:54:16.92	45.24	22.23	-51.9	-56.4	3.7	0.00e+00	0	45	104	0	74	25477
2026-01-24 06:54:18.05	44.78	22.17	-51.3	-55.5	3.7	0.00e+00	0	45	104	0	74	22929
2026-01-24 06:54:18.91	44.43	22.12	-51.6	-55.8	3.7	0.00e+00	0	45	104	0	74	23865
2026-01-24 06:54:20.04	43.97	22.05	-51.4	-55.6	3.7	0.00e+00	0	45	104	0	74	23200
2026-01-24 06:54:20.90	43.63	21.99	-51.7	-56.0	3.7	0.00e+00	0	45	104	0	74	24395
2026-01-24 06:54:22.03	43.18	21.92	-51.5	-56.0	3.7	0.00e+00	0	45	104	0	74	24357
2026-01-24 06:54:22.88	42.84	21.87	-51.4	-55.9	3.7	0.00e+00	0	45	104	0	74	24104
2026-01-24 06:54:24.02	42.39	21.79	-51.5	-55.9	3.7	0.00e+00	0	45	104	0	74	24152
2026-01-24 06:54:24.88	42.05	21.74	-51.6	-56.1	3.7	0.00e+00	0	45	104	0	74	24642
2026-01-24 06:54:26.07	41.58	21.66	-51.8	-56.3	3.7	0.00e+00	0	45	104	0	74	25132
2026-01-24 06:54:26.93	41.25	21.60	-51.6	-55.8	3.7	0.00e+00	0	45	104	0	74	23831
2026-01-24 06:54:28.13	40.78	21.52	-51.7	-56.0	3.7	0.00e+00	0	45	104	0	74	24351
2026-01-24 06:54:28.98	40.45	21.46	-51.9	-56.2	3.7	0.00e+00	0	45	104	0	74	25078
2026-01-24 06:54:30.12	40.02	21.37	-51.4	-55.3	3.7	0.00e+00	0	45	104	0	74	22388
2026-01-24 06:54:30.97	39.69	21.31	-51.5	-55.5	3.7	0.00e+00	0	45	104	0	74	23032
2026-01-24 06:54:32.11	39.26	21.23	-51.0	-54.8	3.7	0.00e+00	0	45	104	0	74	21155
2026-01-24 06:54:33.02	38.92	21.16	-51.0	-54.7	3.7	0.00e+00	0	45	104	0	74	20904
2026-01-24 06:54:34.02	38.54	21.09	-51.1	-54.8	3.7	0.00e+00	0	45	104	0	74	21191
2026-01-24 06:54:35.01	38.17	21.01	-50.9	-54.5	3.7	0.00e+00	0	45	104	0	73	21615
2026-01-24 06:54:36.01	37.80	20.93	-50.5	-53.9	3.7	0.00e+00	0	45	104	0	73	20390
2026-01-24 06:54:37.00	37.43	20.86	-50.3	-53.6	3.7	0.00e+00	0	45	104	0	72	20644
2026-01-24 06:54:38.00	37.07	20.78	-50.4	-53.7	3.7	0.00e+00	0	45	104	0	72	20920
2026-01-24 06:54:38.99	36.71	20.70	-50.8	-54.2	3.7	0.00e+00	0	45	104	0	72	22319
2026-01-24 06:54:39.99	36.34	20.62	-51.3	-55.2	3.7	0.00e+00	0	45	104	0	73	23555
2026-01-24 06:54:40.98	35.99	20.54	-50.6	-54.1	3.7	0.00e+00	0	45	104	0	73	20767
2026-01-24 06:54:41.97	35.63	20.46	-51.8	-56.3	3.7	0.00e+00	0	45	104	0	74	25207
2026-01-24 06:54:42.97	35.28	20.38	-51.8	-56.2	3.7	0.00e+00	0	45	104	0	74	24893
2026-01-24 06:54:43.97	34.92	20.30	-51.4	-55.6	3.7	0.00e+00	0	45	104	0	74	23253
2026-01-24 06:54:44.96	34.57	20.21	-51.1	-55.0	3.7	0.00e+00	0	45	104	0	74	21656
2026-01-24 06:54:45.95	34.23	20.13	-51.3	-55.4	3.7	0.00e+00	0	45	104	0	74	22829
2026-01-24 06:54:46.95	33.88	20.05	-51.0	-55.0	3.7	0.00e+00	0	45	104	0	74	21613
2026-01-24 06:54:47.94	33.54	19.96	-50.9	-55.1	3.7	0.00e+00	0	45	104	0	73	23332
2026-01-24 06:54:48.93	33.20	19.88	-50.4	-55.1	3.7	0.00e+00	0	45	104	0	72	24756
2026-01-24 06:54:49.93	32.86	19.79	-49.6	-53.5	3.7	0.00e+00	0	45	104	0	71	21694
2026-01-24 06:54:50.92	32.52	19.70	-50.2	-54.9	3.7	0.00e+00	0	45	104	0	71	25439
2026-01-24 06:54:51.92	32.19	19.62	-49.1	-52.1	3.9	0.00e+00	0	45	104	0	70	19480
2026-01-24 06:54:52.94	31.85	19.53	-49.5	-52.3	3.9	0.00e+00	0	45	104	0	70	20067
2026-01-24 06:54:53.97	31.50	19.44	-50.4	-53.6	3.8	0.00e+00	0	45	104	0	71	21947
2026-01-24 06:54:54.99	31.17	19.35	-51.2	-55.1	3.7	0.00e+00	0	45	104	0	73	23321
2026-01-24 06:54:55.99	30.84	19.26	-51.5	-55.6	3.7	0.00e+00	0	45	104	0	73	24705
2026-01-24 06:54:56.98	30.52	19.17	-51.3	-55.4	3.7	0.00e+00	0	45	104	0	73	24146
2026-01-24 06:54:57.98	30.20	19.08	-51.5	-55.7	3.7	0.00e+00	0	45	104	0	73	24967
2026-01-24 06:54:58.97	29.88	18.99	-50.8	-54.7	3.7	0.00e+00	0	45	104	0	73	22112
2026-01-24 06:54:59.97	29.56	18.90	-51.2	-55.9	3.7	0.00e+00	0	45	104	0	73	25462
2026-01-24 06:55:00.96	29.25	18.81	-50.9	-55.1	3.7	0.00e+00	0	45	104	0	73	23410
2026-01-24 06:55:01.96	28.94	18.71	-51.0	-55.2	3.7	0.00e+00	0	45	104	0	73	23547
2026-01-24 06:55:02.95	28.63	18.62	-51.0	-55.0	3.7	0.00e+00	0	45	104	0	73	23147
2026-01-24 06:55:03.94	28.32	18.53	-50.8	-54.5	3.7	0.00e+00	0	45	104	0	73	21695
2026-01-24 06:55:04.94	28.01	18.44	-50.6	-54.0	3.7	0.00e+00	0	45	104	0	73	20578
2026-01-24 06:55:05.93	27.71	18.35	-50.6	-54.1	3.7	0.00e+00	0	45	104	0	73	20836
2026-01-24 06:55:06.98	27.39	18.25	-50.8	-55.3	3.7	0.00e+00	0	45	104	0	73	23825
2026-01-24 06:55:07.93	27.11	18.16	-50.2	-55.1	3.7	0.00e+00	0	45	104	0	72	24616
2026-01-24 06:55:08.92	26.81	18.07	-50.6	-54.8	3.7	0.00e+00	0	45	104	0	72	23725
2026-01-24 06:55:09.91	26.52	17.97	-50.4	-55.0	3.7	0.00e+00	0	45	104	0	72	24507
2026-01-24 06:55:10.91	26.23	17.88	-50.2	-55.1	3.7	0.00e+00	0	45	104	0	72	24540
2026-01-24 06:55:11.91	25.93	17.78	-49.9	-55.0	3.7	0.00e+00	0	45	104	0	71	25784
2026-01-24 06:55:12.90	25.65	17.69	-49.4	-54.8	3.7	0.00e+00	0	45	104	0	70	26756
2026-01-24 06:55:13.90	25.36	17.60	-49.0	-54.5	3.7	0.00e+00	0	45	104	0	70	25968
2026-01-24 06:55:14.89	25.08	17.50	-49.2	-54.6	3.7	0.00e+00	0	45	104	0	69	27559
2026-01-24 06:55:15.89	24.79	17.41	-49.8	-55.0	3.7	0.00e+00	0	45	104	0	70	27365
2026-01-24 06:55:16.88	24.52	17.31	-50.8	-55.7	3.7	0.00e+00	0	45	104	0	72	26337
2026-01-24 06:55:17.88	24.24	17.22	-50.0	-55.2	3.7	0.00e+00	0	45	104	0	71	26465
2026-01-24 06:55:18.87	23.96	17.12	-50.9	-55.8	3.7	0.00e+00	0	45	104	0	72	26695
2026-01-24 06:55:19.87	23.69	17.03	-51.2	-55.8	3.7	0.00e+00	0	45	104	0	73	25344
2026-01-24 06:55:20.94	23.39	16.92	-50.3	-55.1	3.7	0.00e+00	0	45	104	0	72	24678
2026-01-24 06:55:21.82	23.16	16.84	-50.9	-55.7	3.7	0.00e+00	0	45	104	0	72	26546
2026-01-24 06:55:22.96	22.85	16.73	-50.1	-54.7	3.7	0.00e+00	0	45	104	0	72	23577
2026-01-24 06:55:23.81	22.62	16.65	-50.1	-54.8	3.7	0.00e+00	0	45	104	0	72	23829
2026-01-24 06:55:24.95	22.32	16.54	-50.0	-54.8	3.7	0.00e+00	0	45	104	0	72	23844
2026-01-24 06:55:25.81	22.10	16.46	-50.0	-54.9	3.7	0.00e+00	0	45	104	0	71	25570
2026-01-24 06:55:26.94	21.80	16.35	-50.1	-55.0	3.7	0.00e+00	0	45	104	0	71	25778
2026-01-24 06:55:27.79	21.58	16.27	-50.2	-55.2	3.7	0.00e+00	0	45	104	0	71	26420
2026-01-24 06:55:28.93	21.29	16.16	-50.0	-55.0	3.7	0.00e+00	0	45	104	0	71	25856
2026-01-24 06:55:29.78	21.07	16.07	-49.9	-54.7	3.7	0.00e+00	0	45	104	0	71	25013
2026-01-24 06:55:30.92	20.78	15.96	-50.5	-55.4	3.7	0.00e+00	0	45	104	0	71	26914
2026-01-24 06:55:31.77	20.57	15.88	-50.2	-54.9	3.7	0.00e+00	0	45	104	0	71	25409
2026-01-24 06:55:33.02	20.26	15.76	-50.3	-54.7	3.7	0.00e+00	0	45	104	0	71	24943
2026-01-24 06:55:33.87	20.05	15.68	-50.6	-55.0	3.7	0.00e+00	0	46	104	0	71	25736
2026-01-24 06:55:35.00	19.77	15.57	-50.6	-55.3	3.7	0.00e+00	0	45	104	0	72	25355
2026-01-24 06:55:35.86	19.56	15.49	-50.6	-55.4	3.7	0.00e+00	0	45	104	0	72	25654
2026-01-24 06:55:37.15	19.25	15.37	-50.0	-55.2	3.7	0.00e+00	0	45	104	0	71	26384
2026-01-24 06:55:38.27	18.98	15.26	-48.9	-53.8	3.7	0.00e+00	0	45	104	0	69	25243
2026-01-24 06:55:39.13	18.78	15.18	-48.7	-54.2	3.7	0.00e+00	0	45	104	0	69	26401
2026-01-24 06:55:40.26	18.51	15.07	-48.9	-53.8	3.7	0.00e+00	0	45	104	0	69	25378
2026-01-24 06:55:41.12	18.31	14.99	-48.9	-54.4	3.7	0.00e+00	0	45	104	0	69	27036
2026-01-24 06:55:42.30	18.04	14.87	-49.7	-54.9	3.7	0.00e+00	0	45	104	0	69	28771
2026-01-24 06:55:43.16	17.84	14.79	-50.1	-55.2	3.7	0.00e+00	0	45	104	0	70	27899
2026-01-24 06:55:44.29	17.58	14.68	-50.7	-55.4	3.7	0.00e+00	0	45	104	0	72	25656
2026-01-24 06:55:45.14	17.39	14.60	-51.3	-55.8	3.7	0.00e+00	0	45	104	0	73	25265
2026-01-24 06:55:46.41	17.11	14.48	-51.7	-56.2	3.7	0.00e+00	0	45	104	0	74	24929
2026-01-24 06:55:47.19	16.93	14.41	-51.8	-56.3	3.7	0.00e+00	0	45	104	0	74	25179
2026-01-24 06:55:48.41	16.66	14.29	-51.6	-56.2	3.7	0.00e+00	0	45	104	0	74	24835
2026-01-24 06:55:49.26	16.48	14.21	-51.8	-56.3	3.7	0.00e+00	0	45	104	0	74	25199
2026-01-24 06:55:50.40	16.23	14.10	-51.0	-55.8	3.7	0.00e+00	0	45	104	0	74	23860
2026-01-24 06:55:51.26	16.04	14.02	-50.8	-55.5	3.7	0.00e+00	0	45	104	0	73	24334
2026-01-24 06:55:52.58	15.76	13.90	-50.2	-55.2	3.7	0.00e+00	0	45	104	0	70	28082
2026-01-24 06:55:53.29	15.61	13.83	-50.5	-55.4	3.7	0.00e+00	0	45	104	0	72	25557
2026-01-24 06:55:54.57	15.34	13.71	-48.7	-54.3	3.7	0.00e+00	0	45	104	0	69	26646
2026-01-24 06:55:55.28	15.19	13.64	-48.3	-54.0	3.7	0.00e+00	0	45	104	0	68	27432
2026-01-24 06:55:56.56	14.93	13.52	-47.6	-53.6	3.7	0.00e+00	0	45	104	0	67	27551
2026-01-24 06:55:57.27	14.78	13.45	-47.7	-53.6	3.7	0.00e+00	0	45	104	0	67	27613
2026-01-24 06:55:58.55	14.52	13.33	-47.7	-53.6	3.7	0.00e+00	0	45	104	0	67	27632
2026-01-24 06:55:59.26	14.38	13.27	-47.8	-53.7	3.7	0.00e+00	0	45	104	0	67	27937
2026-01-24 06:56:00.54	14.12	13.15	-47.7	-53.6	3.7	0.00e+00	0	45	104	0	67	27653
2026-01-24 06:56:01.27	13.97	13.08	-47.6	-53.6	3.7	0.00e+00	0	45	104	0	67	27698
2026-01-24 06:56:02.55	13.72	12.96	-47.4	-53.5	3.7	0.00e+00	0	45	104	0	66	28868
2026-01-24 06:56:03.26	13.58	12.90	-47.8	-53.6	3.7	0.00e+00	0	45	104	0	66	29453
2026-01-24 06:56:04.54	13.33	12.78	-47.7	-53.6	3.7	0.00e+00	0	45	104	0	66	29202
2026-01-24 06:56:05.25	13.19	12.71	-47.7	-53.6	3.7	0.00e+00	0	45	104	0	66	29312
2026-01-24 06:56:06.53	12.95	12.60	-48.0	-53.8	3.7	0.00e+00	0	45	104	0	66	29963
2026-01-24 06:56:07.26	12.81	12.53	-48.3	-54.1	3.7	0.00e+00	0	45	104	0	67	29164
2026-01-24 06:56:08.54	12.57	12.41	-50.4	-55.4	3.7	0.00e+00	0	45	104	0	71	27190
2026-01-24 06:56:09.26	12.43	12.34	-50.3	-55.4	3.7	0.00e+00	0	45	104	0	71	27009
2026-01-24 06:56:10.76	12.15	12.21	-50.4	-55.2	3.7	0.00e+00	0	45	104	0	71	26580
2026-01-24 06:56:11.47	12.02	12.14	-50.3	-55.2	3.7	0.00e+00	0	45	104	0	71	26571
2026-01-24 06:56:12.75	11.79	12.03	-50.0	-55.2	3.7	0.00e+00	0	45	104	0	71	26442
2026-01-24 06:56:13.46	11.66	11.96	-49.7	-55.1	3.7	0.00e+00	0	45	104	0	71	26064
2026-01-24 06:56:14.74	11.43	11.85	-49.2	-54.8	3.7	0.00e+00	0	45	104	0	70	26629
2026-01-24 06:56:15.45	11.30	11.78	-49.0	-54.7	3.7	0.00e+00	0	45	104	0	70	26347
2026-01-24 06:56:16.73	11.07	11.67	-49.3	-54.8	3.7	0.00e+00	0	45	104	0	70	26847
2026-01-24 06:56:17.44	10.95	11.60	-49.6	-55.0	3.7	0.00e+00	0	45	104	0	70	27355
2026-01-24 06:56:18.72	10.73	11.49	-47.2	-53.3	3.7	0.00e+00	0	45	104	0	66	28384
2026-01-24 06:56:19.51	10.59	11.42	-46.7	-53.0	3.8	0.00e+00	0	45	104	0	65	29044
2026-01-24 06:56:20.65	10.39	11.32	-47.1	-53.4	3.7	0.00e+00	0	45	104	0	65	30244
2026-01-24 06:56:21.50	10.25	11.24	-46.9	-53.2	3.7	0.00e+00	0	45	104	0	65	29598
2026-01-24 06:56:22.64	10.05	11.14	-47.1	-53.4	3.7	0.00e+00	0	45	104	0	65	30453
2026-01-24 06:56:23.49	9.91	11.07	-47.0	-53.4	3.7	0.00e+00	0	46	104	0	65	30199
2026-01-24 06:56:24.63	9.72	10.96	-46.8	-53.2	3.7	0.00e+00	0	45	104	0	65	29728
2026-01-24 06:56:25.80	9.53	10.86	-45.9	-52.4	3.8	0.00e+00	0	45	104	0	63	30438
2026-01-24 06:56:26.84	9.36	10.77	-47.0	-53.4	3.7	0.00e+00	0	45	104	0	64	32053
2026-01-24 06:56:27.77	9.20	10.69	-45.9	-52.5	3.8	0.00e+00	0	45	104	0	63	30615
2026-01-24 06:56:28.76	9.04	10.60	-45.4	-52.0	3.9	0.00e+00	0	45	104	0	62	30638
2026-01-24 06:56:29.76	8.88	10.52	-45.3	-51.9	3.9	0.00e+00	0	45	104	0	62	30293
2026-01-24 06:56:30.75	8.73	10.43	-45.4	-52.0	3.8	0.00e+00	0	45	104	0	62	30776
2026-01-24 06:56:31.75	8.57	10.34	-45.7	-52.2	3.8	0.00e+00	0	45	104	0	62	31405
2026-01-24 06:56:32.75	8.41	10.26	-46.1	-52.5	3.8	0.00e+00	0	45	104	0	62	32453
2026-01-24 06:56:33.74	8.26	10.17	-46.6	-52.8	3.7	0.00e+00	0	45	104	0	64	29944
2026-01-24 06:56:34.73	8.10	10.09	-46.8	-52.9	3.7	0.00e+00	0	45	104	0	64	30489
2026-01-24 06:56:35.73	7.95	10.00	-46.1	-52.4	3.7	0.00e+00	0	45	104	0	64	28739
2026-01-24 06:56:36.72	7.80	9.92	-47.1	-53.3	3.7	0.00e+00	0	45	104	0	64	31731
2026-01-24 06:56:37.80	7.64	9.82	-47.1	-53.3	3.7	0.00e+00	0	45	104	0	65	29982
2026-01-24 06:56:38.65	7.51	9.75	-47.8	-53.8	3.7	0.00e+00	0	46	104	0	66	29935
2026-01-24 06:56:39.99	7.31	9.64	-47.0	-53.1	3.7	0.00e+00	0	45	104	0	66	27698
2026-01-24 06:56:40.71	7.20	9.58	-47.4	-53.6	3.7	0.00e+00	0	45	104	0	65	31013
2026-01-24 06:56:41.99	7.01	9.47	-47.8	-54.0	3.7	0.00e+00	0	45	104	0	66	30537
2026-01-24 06:56:42.71	6.91	9.41	-47.8	-53.7	3.7	0.00e+00	0	46	104	0	66	29680
2026-01-24 06:56:43.99	6.72	9.30	-47.9	-53.8	3.7	0.00e+00	0	45	104	0	66	29980
2026-01-24 06:56:44.70	6.62	9.24	-48.1	-53.9	3.7	0.00e+00	0	45	104	0	66	30356
2026-01-24 06:56:45.98	6.44	9.14	-48.6	-54.1	3.7	0.00e+00	0	45	104	0	67	29256
2026-01-24 06:56:46.71	6.34	9.08	-48.8	-54.3	3.7	0.00e+00	0	45	104	0	68	28266
2026-01-24 06:56:47.98	6.16	8.97	-47.8	-54.0	3.7	0.00e+00	0	45	104	0	67	28942
2026-01-24 06:56:48.69	6.06	8.91	-46.8	-53.1	3.7	0.00e+00	0	45	104	0	65	29452
2026-01-24 06:56:49.97	5.88	8.81	-48.8	-54.5	3.7	0.00e+00	0	45	104	0	69	27485
2026-01-24 06:56:50.68	5.78	8.75	-48.9	-54.3	3.7	0.00e+00	0	45	104	0	69	26800
2026-01-24 06:56:51.96	5.61	8.64	-51.0	-55.5	3.7	0.00e+00	0	45	104	0	72	25851
2026-01-24 06:56:52.68	5.51	8.58	-51.3	-55.8	3.7	0.00e+00	0	45	104	0	74	23918
2026-01-24 06:56:53.96	5.34	8.48	-50.5	-55.7	3.7	0.00e+00	0	45	104	0	72	26369
2026-01-24 06:56:54.67	5.24	8.42	-51.2	-56.0	3.7	0.00e+00	0	45	104	0	74	24288
2026-01-24 06:56:55.94	5.08	8.32	-51.7	-56.2	3.7	0.00e+00	0	45	104	0	74	25063
2026-01-24 06:56:56.67	4.98	8.26	-51.8	-56.5	3.7	0.00e+00	0	45	104	0	75	24383
2026-01-24 06:56:57.94	4.81	8.16	-50.8	-56.0	3.7	0.00e+00	0	45	104	0	73	25766
2026-01-24 06:56:58.65	4.72	8.10	-51.4	-56.2	3.7	0.00e+00	0	45	104	0	73	26444
2026-01-24 06:56:59.93	4.56	8.00	-52.1	-56.8	3.7	0.00e+00	0	45	104	0	74	26632
2026-01-24 06:57:00.64	4.46	7.94	-52.3	-57.0	3.7	0.00e+00	0	45	104	0	75	25725
2026-01-24 06:57:01.92	4.30	7.84	-52.0	-56.7	3.7	0.00e+00	0	45	104	0	75	24885
2026-01-24 06:57:02.63	4.21	7.78	-51.7	-56.6	3.7	0.00e+00	0	46	104	0	75	24758
2026-01-24 06:57:03.91	4.05	7.68	-51.8	-56.6	3.7	0.00e+00	0	45	104	0	74	26075
2026-01-24 06:57:04.61	3.96	7.63	-52.1	-56.8	3.7	0.00e+00	0	45	104	0	75	25187
2026-01-24 06:57:05.89	3.81	7.53	-51.7	-56.6	3.7	0.00e+00	0	45	104	0	75	24720
2026-01-24 06:57:06.60	3.72	7.47	-52.3	-56.9	3.6	0.00e+00	0	45	104	0	75	25435
2026-01-24 06:57:07.88	3.56	7.37	-52.4	-57.0	3.7	0.00e+00	0	45	104	0	75	25710
2026-01-24 06:57:08.59	3.48	7.31	-52.1	-56.8	3.7	0.00e+00	0	45	104	0	75	25325
2026-01-24 06:57:09.87	3.32	7.21	-52.5	-57.0	3.7	0.00e+00	0	45	104	0	75	25816
2026-01-24 06:57:10.58	3.24	7.16	-52.1	-56.8	3.7	0.00e+00	0	45	104	0	75	25269
2026-01-24 06:57:11.86	3.09	7.06	-52.4	-56.8	3.7	0.00e+00	0	45	104	0	75	25122
2026-01-24 06:57:12.58	3.00	7.00	-52.1	-56.6	3.7	0.00e+00	0	45	104	0	75	24642
2026-01-24 06:57:13.86	2.85	6.91	-51.8	-56.2	3.7	0.00e+00	0	45	104	0	74	25000
2026-01-24 06:57:14.58	2.77	6.85	-51.9	-56.3	3.7	0.00e+00	0	45	104	0	74	25299
2026-01-24 06:57:15.87	2.62	6.75	-51.7	-56.3	3.7	0.00e+00	0	45	104	0	74	25102
2026-01-24 06:57:16.58	2.54	6.70	-51.7	-56.3	3.7	0.00e+00	0	45	104	0	74	25121
2026-01-24 06:57:17.87	2.39	6.60	-51.7	-56.3	3.7	0.00e+00	0	45	104	0	74	25141
2026-01-24 06:57:18.58	2.31	6.54	-51.7	-56.2	3.7	0.00e+00	0	45	104	0	74	25050
2026-01-24 06:57:19.88	2.17	6.45	-51.7	-56.3	3.7	0.00e+00	0	45	104	0	74	25205
2026-01-24 06:57:20.59	2.09	6.39	-51.7	-56.3	3.7	0.00e+00	0	45	104	0	74	25161
2026-01-24 06:57:21.88	1.94	6.30	-51.7	-56.3	3.7	0.00e+00	0	45	104	0	74	25180
2026-01-24 06:57:22.60	1.86	6.24	-51.7	-56.2	3.7	0.00e+00	0	45	104	0	74	25066
2026-01-24 06:57:23.88	1.72	6.15	-51.7	-56.2	3.7	0.00e+00	0	45	104	0	74	25058
2026-01-24 06:57:24.60	1.65	6.09	-51.7	-56.2	3.7	0.00e+00	0	45	104	0	74	25076
2026-01-24 06:57:25.88	1.51	6.00	-51.7	-56.3	3.7	0.00e+00	0	45	104	0	74	25111
2026-01-24 06:57:26.61	1.43	5.94	-51.7	-56.3	3.7	0.00e+00	0	45	104	0	74	25096
2026-01-24 06:57:27.89	1.29	5.85	-51.7	-56.3	3.7	0.00e+00	0	45	104	0	74	25122
2026-01-24 06:57:28.61	1.22	5.79	-51.7	-56.2	3.7	0.00e+00	0	45	104	0	74	24972
2026-01-24 06:57:29.89	1.08	5.70	-51.7	-56.2	3.7	0.00e+00	0	45	104	0	74	25002
2026-01-24 06:57:30.62	1.01	5.65	-51.7	-56.2	3.7	0.00e+00	0	45	104	0	74	25087
2026-01-24 06:57:31.90	0.88	5.55	-51.7	-56.2	3.7	0.00e+00	0	45	104	0	74	25050
2026-01-24 06:57:32.63	0.80	5.50	-51.7	-56.2	3.7	0.00e+00	0	45	104	0	74	25071
2026-01-24 06:57:33.92	0.67	5.41	-51.7	-56.2	3.7	0.00e+00	0	45	104	0	74	25061
2026-01-24 06:57:34.63	0.60	5.35	-51.7	-56.2	3.7	0.00e+00	0	45	104	0	74	25025
2026-01-24 06:57:35.91	0.47	5.26	-51.7	-56.2	3.7	0.00e+00	0	45	104	0	74	25068
2026-01-24 06:57:36.63	0.40	5.21	-51.7	-56.2	3.7	0.00e+00	0	45	104	0	74	25083
2026-01-24 06:57:37.91	0.27	5.12	-51.7	-56.2	3.7	0.00e+00	0	46	104	0	74	25008
2026-01-24 06:57:38.64	0.20	5.06	-51.7	-56.2	3.7	0.00e+00	0	45	104	0	74	25056
2026-01-24 06:57:39.92	0.07	4.97	-51.7	-56.2	3.7	0.00e+00	0	45	104	0	74	25082

#Closed at: 2026-01-24 06:57:40
#Recorded file [0 MB]: D:/Data/31040_260124_094940.dat