passes_logs/2026/01/24/T1/T1__20260124_101749_NOAA_20_JPSS-1_rec.log

#Pass ID: 20260124_101749_NOAA 20 (JPSS-1)
#Satellite: NOAA 20 (JPSS-1)
#Configuration: NOAA 20
#almurnet v.1.7.20251203
#Start time: 2026-01-24 10:17:49

#Version: 2.0.20230620
#Station: T1
#Location: 37.570604 lon 55.790049 lat
#TLE: 1 43013U 17073A   26023.57676825  .00000205  00000+0  11821-3 0  9990
#TLE: 2 43013  98.7645 324.4259 0001147  27.0566 333.0670 14.19539368423954

#Time	Az	El	Level	Level2	SNR	BER	BlckErr	Temp	State	Recorded	gain1	gain2
2026-01-24 10:17:49.78	171.79	5.02	-49.5	-65.0	3.8	1.49e+00	0	35	0	0	70	21731
2026-01-24 10:17:50.77	171.81	5.09	-45.2	-64.5	3.8	1.49e+00	0	35	104	0	61	34348
2026-01-24 10:17:51.76	171.83	5.16	-45.2	-64.5	3.8	1.49e+00	0	35	104	0	61	34290
2026-01-24 10:17:52.76	171.85	5.23	-45.2	-64.5	3.8	1.49e+00	0	35	104	0	61	34279
2026-01-24 10:17:53.76	171.87	5.30	-45.2	-64.4	3.8	1.49e+00	0	35	104	0	61	33983
2026-01-24 10:17:54.76	171.90	5.37	-45.1	-64.3	3.8	1.49e+00	0	35	104	0	61	33692
2026-01-24 10:17:55.76	171.92	5.44	-45.1	-64.3	3.8	1.49e+00	0	35	104	0	61	33608
2026-01-24 10:17:56.76	171.94	5.52	-45.2	-64.3	3.8	1.49e+00	0	35	104	0	61	33499
2026-01-24 10:17:57.76	171.96	5.59	-45.1	-64.2	3.8	1.49e+00	0	36	104	0	61	33183
2026-01-24 10:17:58.76	171.99	5.66	-45.2	-64.2	3.8	1.49e+00	0	36	104	0	61	33033
2026-01-24 10:17:59.75	172.01	5.73	-45.1	-64.1	3.8	1.49e+00	0	35	104	0	61	32840
2026-01-24 10:18:00.74	172.03	5.81	-45.1	-64.0	3.8	1.49e+00	0	36	104	0	61	32337
2026-01-24 10:18:01.74	172.05	5.88	-45.1	-63.9	3.8	1.49e+00	0	36	104	0	61	32160
2026-01-24 10:18:02.74	172.08	5.95	-45.1	-63.9	3.8	1.49e+00	0	36	104	0	61	31811
2026-01-24 10:18:03.74	172.10	6.03	-45.1	-63.8	3.8	1.49e+00	0	36	104	0	61	31707
2026-01-24 10:18:04.74	172.12	6.10	-45.1	-63.9	3.8	1.49e+00	0	36	104	0	61	31819
2026-01-24 10:18:05.74	172.15	6.18	-45.2	-63.9	3.8	1.49e+00	0	36	104	0	61	32027
2026-01-24 10:18:06.74	172.17	6.25	-45.2	-64.0	3.8	1.49e+00	0	36	104	0	61	32538
2026-01-24 10:18:07.74	172.19	6.32	-45.2	-64.2	3.8	1.49e+00	0	36	104	0	61	33154
2026-01-24 10:18:08.73	172.22	6.40	-45.1	-64.4	3.8	1.49e+00	0	36	104	0	61	33731
2026-01-24 10:18:09.73	172.24	6.47	-45.2	-64.5	3.8	1.49e+00	0	36	104	0	61	34194
2026-01-24 10:18:10.73	172.27	6.55	-45.1	-64.6	3.8	1.49e+00	0	36	104	0	61	34582
2026-01-24 10:18:11.72	172.29	6.62	-45.2	-64.5	3.8	1.49e+00	0	36	104	0	61	34478
2026-01-24 10:18:12.72	172.31	6.70	-45.2	-64.5	3.8	1.49e+00	0	36	104	0	61	34088
2026-01-24 10:18:13.72	172.34	6.78	-45.1	-64.3	3.8	1.49e+00	0	36	104	0	61	33426
2026-01-24 10:18:14.72	172.36	6.85	-45.2	-64.1	3.8	1.49e+00	0	36	104	0	61	32575
2026-01-24 10:18:15.71	172.39	6.93	-45.1	-63.8	3.8	1.49e+00	0	36	104	0	61	31681
2026-01-24 10:18:16.70	172.41	7.00	-45.1	-63.6	3.8	1.49e+00	0	36	104	0	61	30791
2026-01-24 10:18:17.70	172.44	7.08	-45.1	-63.3	3.8	1.49e+00	0	36	104	0	61	29844
2026-01-24 10:18:18.70	172.46	7.16	-45.1	-62.9	3.9	1.49e+00	0	36	104	0	61	28391
2026-01-24 10:18:19.69	172.48	7.23	-45.1	-62.5	3.8	1.49e+00	0	36	104	0	61	27138
2026-01-24 10:18:20.69	172.51	7.31	-45.1	-61.5	4.1	1.49e+00	0	36	104	0	61	24366
2026-01-24 10:18:21.69	172.53	7.39	-45.0	-60.5	4.3	1.36e+00	0	36	0	0	61	21720
2026-01-24 10:18:22.67	172.56	7.47	-45.0	-59.4	4.8	9.51e-01	0	37	0	1048576	61	19016
2026-01-24 10:18:23.66	172.58	7.54	-44.9	-58.1	5.5	6.21e-01	0	36	0	3145728	61	16467
2026-01-24 10:18:24.65	172.61	7.62	-44.8	-56.9	6.4	3.63e-01	0	36	0	5242880	61	14335
2026-01-24 10:18:25.65	172.64	7.70	-44.7	-55.8	7.4	1.39e-01	0	36	0	7340032	61	12567
2026-01-24 10:18:26.65	172.66	7.78	-44.6	-54.8	8.3	6.31e-02	0	36	0	8388608	61	11260
2026-01-24 10:18:27.65	172.69	7.86	-44.5	-54.0	9.2	3.30e-02	0	37	0	10485760	61	10210
2026-01-24 10:18:28.65	172.71	7.94	-44.4	-53.4	9.8	1.48e-02	0	37	0	12582912	60	10064
2026-01-24 10:18:29.65	172.74	8.02	-44.3	-53.0	10.2	6.06e-03	0	36	0	14680064	60	9640
2026-01-24 10:18:30.64	172.77	8.10	-44.2	-52.7	10.6	4.07e-03	0	36	0	16777216	60	9320
2026-01-24 10:18:31.64	172.79	8.18	-44.2	-52.4	10.8	2.85e-03	0	37	0	17825792	60	9065
2026-01-24 10:18:32.64	172.82	8.26	-44.2	-52.6	10.4	2.84e-03	0	37	0	19922944	60	9254
2026-01-24 10:18:33.64	172.84	8.34	-44.2	-52.8	10.4	3.72e-03	0	36	0	22020096	60	9478
2026-01-24 10:18:34.64	172.87	8.42	-44.4	-53.3	9.9	6.00e-03	0	37	0	24117248	60	10050
2026-01-24 10:18:35.64	172.90	8.50	-44.5	-54.0	9.2	1.25e-02	0	37	0	26214400	60	10863
2026-01-24 10:18:36.63	172.93	8.58	-44.6	-54.9	8.2	3.95e-02	0	36	0	27262976	60	12088
2026-01-24 10:18:37.63	172.95	8.66	-44.7	-56.2	7.1	9.03e-02	0	37	0	29360128	60	13943
2026-01-24 10:18:38.63	172.98	8.74	-44.9	-57.5	6.0	2.24e-01	0	37	0	31457280	60	16299
2026-01-24 10:18:39.62	173.01	8.82	-45.0	-59.1	5.0	6.16e-01	0	37	0	33554432	60	19456
2026-01-24 10:18:40.62	173.03	8.91	-45.0	-60.9	4.2	1.11e+00	0	37	0	34603008	60	23877
2026-01-24 10:18:41.61	173.06	8.99	-45.0	-62.3	3.9	1.45e+00	0	37	104	34603008	60	28268
2026-01-24 10:18:42.61	173.09	9.07	-44.7	-58.2	4.4	1.49e+00	0	37	104	34603008	60	17561
2026-01-24 10:18:43.60	173.12	9.15	-44.9	-61.8	4.0	5.69e-01	0	37	0	35651584	60	26495
2026-01-24 10:18:44.60	173.15	9.24	-44.9	-61.8	3.9	1.49e+00	0	37	104	35651584	61	25014
2026-01-24 10:18:45.60	173.17	9.32	-44.4	-52.5	10.4	6.80e-01	0	37	0	36700160	60	9120
2026-01-24 10:18:46.59	173.20	9.41	-44.8	-61.4	4.1	2.14e-01	0	37	0	37748736	60	25359
2026-01-24 10:18:47.59	173.23	9.49	-44.9	-56.3	4.7	1.49e+00	0	37	104	37748736	60	14196
2026-01-24 10:18:48.58	173.26	9.57	-44.3	-49.1	14.2	1.98e-05	0	37	0	37748736	60	6134
2026-01-24 10:18:49.58	173.29	9.66	-44.3	-48.9	14.6	0.00e+00	0	37	0	39845888	60	6022
2026-01-24 10:18:50.58	173.32	9.74	-44.5	-49.2	14.1	7.00e-07	0	37	0	41943040	60	6212
2026-01-24 10:18:51.58	173.35	9.83	-44.6	-49.5	13.9	2.20e-06	0	37	0	44040192	60	6441
2026-01-24 10:18:52.58	173.38	9.92	-44.2	-48.7	14.7	1.50e-06	0	37	0	46137344	60	5883
2026-01-24 10:18:53.58	173.41	10.00	-43.8	-47.8	15.5	0.00e+00	0	37	0	47185920	59	5632
2026-01-24 10:18:54.58	173.44	10.09	-43.6	-47.8	15.7	0.00e+00	0	37	0	49283072	59	5597
2026-01-24 10:18:55.57	173.47	10.17	-43.2	-47.1	16.3	0.00e+00	0	37	0	51380224	58	5499
2026-01-24 10:18:56.57	173.50	10.26	-42.8	-46.6	16.7	0.00e+00	0	37	0	53477376	57	5524
2026-01-24 10:18:57.57	173.53	10.35	-42.7	-46.4	17.0	0.00e+00	0	37	0	55574528	57	5374
2026-01-24 10:18:58.57	173.56	10.44	-42.5	-46.3	17.1	0.00e+00	0	37	0	56623104	57	5325
2026-01-24 10:18:59.56	173.59	10.52	-42.5	-46.4	17.0	0.00e+00	0	37	0	58720256	57	5342
2026-01-24 10:19:00.56	173.62	10.61	-42.4	-46.2	17.2	0.00e+00	0	37	0	60817408	56	5570
2026-01-24 10:19:01.56	173.65	10.70	-42.3	-46.1	17.3	0.00e+00	0	37	0	62914560	56	5487
2026-01-24 10:19:02.55	173.68	10.79	-42.4	-46.1	17.3	0.00e+00	0	37	0	63963136	56	5479
2026-01-24 10:19:03.55	173.71	10.88	-42.4	-46.0	17.4	0.00e+00	0	37	0	66060288	56	5464
2026-01-24 10:19:04.55	173.74	10.97	-42.3	-46.0	17.4	0.00e+00	0	37	0	68157440	56	5451
2026-01-24 10:19:05.54	173.77	11.06	-42.3	-46.0	17.4	0.00e+00	0	37	0	70254592	56	5436
2026-01-24 10:19:06.54	173.80	11.15	-42.4	-46.0	17.4	0.00e+00	0	37	0	72351744	56	5432
2026-01-24 10:19:07.54	173.84	11.24	-42.4	-46.0	17.4	0.00e+00	0	37	0	73400320	56	5449
2026-01-24 10:19:08.54	173.87	11.33	-42.4	-45.9	17.5	0.00e+00	0	37	0	75497472	56	5376
2026-01-24 10:19:09.54	173.90	11.42	-42.6	-45.9	17.5	0.00e+00	0	37	0	77594624	56	5373
2026-01-24 10:19:10.53	173.93	11.51	-42.5	-45.8	17.6	0.00e+00	0	37	0	79691776	56	5294
2026-01-24 10:19:11.53	173.96	11.60	-42.6	-46.0	17.5	0.00e+00	0	37	0	81788928	56	5404
2026-01-24 10:19:12.53	174.00	11.69	-42.7	-45.7	17.7	0.00e+00	0	37	0	82837504	56	5248
2026-01-24 10:19:13.53	174.03	11.78	-42.9	-45.8	17.7	0.00e+00	0	37	0	84934656	56	5280
2026-01-24 10:19:14.53	174.06	11.88	-42.8	-45.6	17.8	0.00e+00	0	37	0	87031808	56	5216
2026-01-24 10:19:15.53	174.10	11.97	-42.9	-45.7	17.7	0.00e+00	0	37	0	89128960	56	5251
2026-01-24 10:19:16.52	174.13	12.06	-43.0	-45.7	17.7	0.00e+00	0	37	0	90177536	56	5259
2026-01-24 10:19:17.51	174.16	12.16	-43.1	-45.8	17.7	0.00e+00	0	37	0	92274688	56	5297
2026-01-24 10:19:18.51	174.20	12.25	-43.1	-45.8	17.7	0.00e+00	0	37	0	94371840	56	5284
2026-01-24 10:19:19.51	174.23	12.35	-42.9	-45.6	17.9	0.00e+00	0	37	0	96468992	56	5163
2026-01-24 10:19:20.50	174.27	12.44	-42.9	-45.5	18.0	0.00e+00	0	37	0	98566144	56	5117
2026-01-24 10:19:21.50	174.30	12.53	-43.0	-45.6	17.9	0.00e+00	0	37	0	99614720	56	5169
2026-01-24 10:19:22.49	174.33	12.63	-43.0	-45.6	17.9	0.00e+00	0	37	0	101711872	56	5160
2026-01-24 10:19:23.49	174.37	12.73	-42.9	-45.4	18.0	0.00e+00	0	37	0	103809024	56	5096
2026-01-24 10:19:24.49	174.40	12.82	-42.9	-45.5	18.0	0.00e+00	0	37	0	105906176	56	5120
2026-01-24 10:19:25.49	174.44	12.92	-42.9	-45.4	18.1	0.00e+00	0	37	0	106954752	56	5074
2026-01-24 10:19:26.49	174.48	13.02	-42.8	-45.4	18.1	0.00e+00	0	37	0	109051904	56	5057
2026-01-24 10:19:27.49	174.51	13.11	-42.9	-45.4	18.1	0.00e+00	0	37	0	111149056	56	5069
2026-01-24 10:19:28.49	174.55	13.21	-42.8	-45.3	18.2	0.00e+00	0	37	0	113246208	56	4984
2026-01-24 10:19:29.48	174.58	13.31	-42.7	-45.2	18.3	0.00e+00	0	37	0	115343360	56	4962
2026-01-24 10:19:30.48	174.62	13.41	-42.9	-45.4	18.1	0.00e+00	0	37	0	116391936	56	5069
2026-01-24 10:19:31.48	174.66	13.51	-42.7	-45.2	18.3	0.00e+00	0	38	0	118489088	56	4931
2026-01-24 10:19:32.48	174.69	13.61	-42.8	-45.3	18.2	0.00e+00	0	37	0	120586240	56	5020
2026-01-24 10:19:33.48	174.73	13.71	-42.6	-45.2	18.3	0.00e+00	0	37	0	122683392	56	4937
2026-01-24 10:19:34.47	174.77	13.81	-42.6	-45.2	18.3	0.00e+00	0	37	0	124780544	56	4936
2026-01-24 10:19:35.47	174.81	13.91	-42.6	-45.2	18.3	0.00e+00	0	37	0	125829120	56	4941
2026-01-24 10:19:36.46	174.84	14.01	-42.7	-45.3	18.2	0.00e+00	0	38	0	127926272	56	4995
2026-01-24 10:19:37.46	174.88	14.11	-42.7	-45.3	18.2	0.00e+00	0	37	0	130023424	56	5004
2026-01-24 10:19:38.46	174.92	14.21	-42.8	-45.4	18.1	0.00e+00	0	37	0	132120576	56	5080
2026-01-24 10:19:39.45	174.96	14.31	-42.7	-45.3	18.2	0.00e+00	0	37	0	133169152	56	5027
2026-01-24 10:19:40.45	175.00	14.41	-42.7	-45.2	18.3	0.00e+00	0	37	0	135266304	56	4982
2026-01-24 10:19:41.44	175.03	14.52	-42.7	-45.3	18.3	0.00e+00	0	37	0	137363456	56	4989
2026-01-24 10:19:42.44	175.07	14.62	-42.7	-45.3	18.3	0.00e+00	0	38	0	139460608	56	4993
2026-01-24 10:19:43.43	175.11	14.72	-42.7	-45.3	18.2	0.00e+00	0	37	0	141557760	56	5020
2026-01-24 10:19:44.43	175.15	14.83	-42.8	-45.4	18.1	0.00e+00	0	37	0	142606336	56	5079
2026-01-24 10:19:45.42	175.19	14.93	-42.8	-45.4	18.1	0.00e+00	0	37	0	144703488	56	5070
2026-01-24 10:19:46.42	175.23	15.04	-42.8	-45.4	18.1	0.00e+00	0	37	0	146800640	56	5095
2026-01-24 10:19:47.41	175.27	15.14	-42.8	-45.4	18.2	0.00e+00	0	37	0	148897792	56	5060
2026-01-24 10:19:48.42	175.31	15.25	-42.9	-45.5	18.1	0.00e+00	0	37	0	149946368	56	5131
2026-01-24 10:19:49.41	175.36	15.35	-42.9	-45.5	18.0	0.00e+00	0	37	0	152043520	56	5148
2026-01-24 10:19:50.41	175.40	15.46	-42.8	-45.4	18.1	0.00e+00	0	37	0	154140672	56	5082
2026-01-24 10:19:51.40	175.44	15.57	-42.9	-45.5	18.1	0.00e+00	0	37	0	156237824	56	5139
2026-01-24 10:19:52.40	175.48	15.68	-42.9	-45.5	18.0	0.00e+00	0	38	0	158334976	56	5141
2026-01-24 10:19:53.39	175.52	15.78	-43.0	-45.6	18.0	0.00e+00	0	38	0	159383552	56	5177
2026-01-24 10:19:54.39	175.56	15.89	-43.0	-45.6	18.0	0.00e+00	0	38	0	161480704	56	5202
2026-01-24 10:19:55.38	175.61	16.00	-43.0	-45.5	18.0	0.00e+00	0	37	0	163577856	56	5159
2026-01-24 10:19:56.38	175.65	16.11	-43.0	-45.6	18.0	0.00e+00	0	38	0	165675008	56	5172
2026-01-24 10:19:57.37	175.69	16.22	-43.0	-45.6	18.0	0.00e+00	0	38	0	166723584	56	5196
2026-01-24 10:19:58.37	175.74	16.33	-43.1	-45.7	17.9	0.00e+00	0	37	0	168820736	56	5243
2026-01-24 10:19:59.36	175.78	16.44	-43.2	-45.8	17.8	0.00e+00	0	38	0	170917888	57	5029
2026-01-24 10:20:00.36	175.82	16.55	-43.1	-45.7	17.9	0.00e+00	0	38	0	173015040	57	4947
2026-01-24 10:20:01.36	175.87	16.67	-43.2	-45.8	17.8	0.00e+00	0	38	0	175112192	57	5008
2026-01-24 10:20:02.36	175.91	16.78	-43.2	-45.9	17.7	0.00e+00	0	38	0	176160768	57	5046
2026-01-24 10:20:03.36	175.96	16.89	-43.2	-45.8	17.7	0.00e+00	0	38	0	178257920	57	5038
2026-01-24 10:20:04.36	176.00	17.01	-43.3	-45.9	17.7	0.00e+00	0	37	0	180355072	57	5087
2026-01-24 10:20:05.36	176.05	17.12	-43.3	-46.0	17.6	0.00e+00	0	38	0	182452224	57	5136
2026-01-24 10:20:06.36	176.10	17.24	-43.4	-46.1	17.5	0.00e+00	0	38	0	183500800	57	5210
2026-01-24 10:20:07.36	176.14	17.35	-43.5	-46.2	17.4	0.00e+00	0	38	0	185597952	57	5248
2026-01-24 10:20:08.35	176.19	17.47	-43.5	-46.2	17.4	0.00e+00	0	37	0	187695104	57	5269
2026-01-24 10:20:09.35	176.24	17.58	-43.6	-46.4	17.3	0.00e+00	0	38	0	189792256	57	5348
2026-01-24 10:20:10.35	176.28	17.70	-43.7	-46.4	17.2	0.00e+00	0	37	0	191889408	57	5400
2026-01-24 10:20:11.34	176.33	17.82	-43.6	-46.3	17.3	0.00e+00	0	38	0	192937984	57	5318
2026-01-24 10:20:12.34	176.38	17.94	-43.7	-46.5	17.2	0.00e+00	0	37	0	195035136	58	5156
2026-01-24 10:20:13.34	176.43	18.05	-43.6	-46.4	17.2	0.00e+00	0	38	0	197132288	58	5093
2026-01-24 10:20:14.33	176.48	18.17	-43.7	-46.5	17.2	0.00e+00	0	38	0	199229440	58	5146
2026-01-24 10:20:15.33	176.53	18.29	-43.7	-46.5	17.2	0.00e+00	0	38	0	201326592	58	5130
2026-01-24 10:20:16.33	176.58	18.41	-43.6	-46.4	17.2	0.00e+00	0	38	0	202375168	58	5084
2026-01-24 10:20:17.33	176.63	18.53	-43.7	-46.5	17.2	0.00e+00	0	38	0	204472320	58	5130
2026-01-24 10:20:18.32	176.68	18.65	-43.8	-46.6	17.1	0.00e+00	0	38	0	206569472	58	5178
2026-01-24 10:20:19.32	176.73	18.78	-43.8	-46.7	17.0	0.00e+00	0	37	0	208666624	58	5232
2026-01-24 10:20:20.32	176.78	18.90	-43.7	-46.5	17.2	0.00e+00	0	38	0	210763776	58	5121
2026-01-24 10:20:21.32	176.83	19.02	-43.8	-46.6	17.1	0.00e+00	0	37	0	211812352	58	5174
2026-01-24 10:20:22.32	176.88	19.15	-43.8	-46.6	17.1	0.00e+00	0	38	0	213909504	58	5191
2026-01-24 10:20:23.32	176.93	19.27	-43.8	-46.6	17.1	0.00e+00	0	37	0	216006656	58	5211
2026-01-24 10:20:24.31	176.99	19.40	-43.8	-46.6	17.1	0.00e+00	0	38	0	218103808	58	5194
2026-01-24 10:20:25.31	177.04	19.52	-43.8	-46.5	17.2	0.00e+00	0	38	0	219152384	58	5149
2026-01-24 10:20:26.31	177.09	19.65	-43.7	-46.5	17.2	0.00e+00	0	38	0	221249536	58	5122
2026-01-24 10:20:27.31	177.15	19.77	-43.8	-46.6	17.1	0.00e+00	0	38	0	223346688	58	5169
2026-01-24 10:20:28.30	177.20	19.90	-43.7	-46.5	17.2	0.00e+00	0	38	0	225443840	58	5115
2026-01-24 10:20:29.30	177.26	20.03	-43.8	-46.6	17.1	0.00e+00	0	38	0	227540992	58	5186
2026-01-24 10:20:30.30	177.31	20.16	-43.8	-46.6	17.1	0.00e+00	0	37	0	228589568	58	5195
2026-01-24 10:20:31.30	177.37	20.29	-43.8	-46.5	17.2	0.00e+00	0	38	0	230686720	58	5155
2026-01-24 10:20:32.29	177.42	20.42	-43.8	-46.6	17.2	0.00e+00	0	38	0	232783872	58	5177
2026-01-24 10:20:33.29	177.48	20.55	-43.8	-46.5	17.2	0.00e+00	0	38	0	234881024	58	5143
2026-01-24 10:20:34.29	177.54	20.68	-43.8	-46.6	17.2	0.00e+00	0	38	0	235929600	58	5169
2026-01-24 10:20:35.28	177.59	20.81	-43.8	-46.6	17.1	0.00e+00	0	37	0	238026752	58	5185
2026-01-24 10:20:36.28	177.65	20.94	-43.8	-46.6	17.1	0.00e+00	0	38	0	240123904	58	5209
2026-01-24 10:20:37.28	177.71	21.08	-43.8	-46.6	17.1	0.00e+00	0	38	0	242221056	58	5184
2026-01-24 10:20:38.28	177.77	21.21	-43.7	-46.5	17.2	0.00e+00	0	38	0	244318208	58	5135
2026-01-24 10:20:39.27	177.83	21.34	-43.8	-46.5	17.2	0.00e+00	0	38	0	245366784	58	5139
2026-01-24 10:20:40.27	177.89	21.48	-43.7	-46.4	17.4	0.00e+00	0	38	0	247463936	58	5052
2026-01-24 10:20:41.26	177.95	21.62	-43.7	-46.3	17.4	0.00e+00	0	38	0	249561088	58	5041
2026-01-24 10:20:42.25	178.01	21.75	-43.6	-46.3	17.4	0.00e+00	0	38	0	251658240	58	5007
2026-01-24 10:20:43.24	178.07	21.89	-43.7	-46.4	17.3	0.00e+00	0	38	0	252706816	58	5085
2026-01-24 10:20:44.24	178.13	22.03	-43.6	-46.3	17.4	0.00e+00	0	38	0	254803968	58	5024
2026-01-24 10:20:45.23	178.19	22.16	-43.6	-46.4	17.4	0.00e+00	0	38	0	256901120	58	5050
2026-01-24 10:20:46.23	178.25	22.30	-43.6	-46.2	17.5	0.00e+00	0	38	0	258998272	58	4976
2026-01-24 10:20:47.23	178.32	22.44	-43.6	-46.2	17.5	0.00e+00	0	38	0	261095424	58	4962
2026-01-24 10:20:48.23	178.38	22.59	-43.5	-46.1	17.7	0.00e+00	0	38	0	262144000	58	4895
2026-01-24 10:20:49.22	178.45	22.73	-43.5	-46.1	17.6	0.00e+00	0	38	0	264241152	58	4910
2026-01-24 10:20:50.22	178.51	22.87	-43.5	-46.2	17.6	0.00e+00	0	38	0	266338304	58	4933
2026-01-24 10:20:51.22	178.58	23.01	-43.5	-46.2	17.6	0.00e+00	0	38	0	268435456	58	4948
2026-01-24 10:20:52.21	178.64	23.16	-43.6	-46.3	17.5	0.00e+00	0	38	0	270532608	58	5022
2026-01-24 10:20:53.21	178.71	23.30	-43.5	-46.2	17.6	0.00e+00	0	38	0	271581184	58	4971
2026-01-24 10:20:54.22	178.78	23.45	-43.5	-46.2	17.6	0.00e+00	0	38	0	273678336	58	4929
2026-01-24 10:20:55.21	178.85	23.59	-43.5	-46.1	17.7	0.00e+00	0	38	0	275775488	58	4887
2026-01-24 10:20:56.21	178.91	23.74	-43.4	-46.0	17.7	0.00e+00	0	38	0	277872640	58	4857
2026-01-24 10:20:57.21	178.98	23.89	-43.3	-45.9	17.8	0.00e+00	0	38	0	279969792	58	4795
2026-01-24 10:20:58.21	179.05	24.04	-43.4	-46.0	17.8	0.00e+00	0	38	0	281018368	58	4819
2026-01-24 10:20:59.21	179.12	24.19	-43.4	-46.1	17.7	0.00e+00	0	38	0	283115520	58	4871
2026-01-24 10:21:00.21	179.19	24.34	-43.3	-45.9	17.8	0.00e+00	0	38	0	285212672	58	4793
2026-01-24 10:21:01.20	179.27	24.49	-43.3	-45.9	17.9	0.00e+00	0	38	0	287309824	58	4770
2026-01-24 10:21:02.21	179.34	24.65	-43.3	-45.9	17.5	0.00e+00	0	38	0	288358400	58	4799
2026-01-24 10:21:03.20	179.41	24.80	-43.3	-45.9	17.9	0.00e+00	0	38	0	290455552	58	4783
2026-01-24 10:21:04.20	179.49	24.95	-43.4	-46.0	17.8	0.00e+00	0	38	0	292552704	58	4848
2026-01-24 10:21:05.20	179.56	25.11	-43.4	-46.0	17.7	0.00e+00	0	38	0	294649856	58	4867
2026-01-24 10:21:06.20	179.64	25.26	-43.4	-46.0	17.8	0.00e+00	0	38	0	296747008	58	4860
2026-01-24 10:21:07.20	179.71	25.42	-43.6	-46.2	17.6	0.00e+00	0	38	0	297795584	58	4944
2026-01-24 10:21:08.20	179.79	25.58	-43.6	-46.3	17.6	0.00e+00	0	38	0	299892736	58	4989
2026-01-24 10:21:09.19	179.87	25.73	-43.8	-46.5	17.3	0.00e+00	0	38	0	301989888	58	5119
2026-01-24 10:21:10.19	179.94	25.89	-43.7	-46.4	17.4	0.00e+00	0	38	0	304087040	58	5066
2026-01-24 10:21:11.19	180.02	26.05	-43.8	-46.5	17.3	0.00e+00	0	38	0	305135616	58	5127
2026-01-24 10:21:12.19	180.10	26.21	-43.9	-46.6	17.2	0.00e+00	0	38	0	307232768	58	5193
2026-01-24 10:21:13.19	180.18	26.38	-43.8	-46.5	17.4	0.00e+00	0	38	0	309329920	58	5105
2026-01-24 10:21:14.18	180.26	26.54	-44.0	-46.7	17.2	0.00e+00	0	38	0	311427072	58	5234
2026-01-24 10:21:15.18	180.35	26.70	-43.9	-46.6	17.2	0.00e+00	0	38	0	313524224	58	5178
2026-01-24 10:21:16.18	180.43	26.87	-43.9	-46.6	17.2	0.00e+00	0	38	0	314572800	58	5199
2026-01-24 10:21:17.18	180.51	27.03	-43.9	-46.6	17.2	0.00e+00	0	38	0	316669952	58	5218
2026-01-24 10:21:18.18	180.60	27.20	-44.1	-46.9	17.0	0.00e+00	0	38	0	318767104	58	5341
2026-01-24 10:21:19.18	180.68	27.37	-43.9	-46.6	17.2	0.00e+00	0	38	0	320864256	58	5207
2026-01-24 10:21:20.18	180.77	27.54	-44.0	-46.8	17.1	0.00e+00	0	38	0	322961408	58	5294
2026-01-24 10:21:21.18	180.86	27.71	-44.1	-46.8	17.0	0.00e+00	0	38	0	324009984	58	5312
2026-01-24 10:21:22.18	180.94	27.88	-44.2	-46.9	16.9	0.00e+00	0	38	0	326107136	59	5086
2026-01-24 10:21:23.19	181.03	28.05	-44.2	-46.9	16.9	0.00e+00	0	38	0	328204288	59	5094
2026-01-24 10:21:24.19	181.12	28.22	-44.2	-47.0	16.8	0.00e+00	0	38	0	330301440	59	5158
2026-01-24 10:21:25.19	181.22	28.40	-44.4	-47.3	16.6	0.00e+00	0	38	0	331350016	59	5314
2026-01-24 10:21:26.19	181.31	28.57	-44.2	-47.1	16.8	0.00e+00	0	38	0	333447168	59	5182
2026-01-24 10:21:27.19	181.40	28.75	-44.0	-46.8	17.1	0.00e+00	0	38	0	335544320	59	5014
2026-01-24 10:21:28.19	181.49	28.93	-44.1	-46.9	16.9	0.00e+00	0	38	0	337641472	59	5095
2026-01-24 10:21:29.19	181.59	29.10	-44.0	-46.8	17.0	0.00e+00	0	38	0	339738624	59	5027
2026-01-24 10:21:30.19	181.68	29.28	-44.1	-46.8	17.0	0.00e+00	0	38	0	340787200	59	5029
2026-01-24 10:21:31.19	181.78	29.46	-44.0	-46.7	17.1	0.00e+00	0	38	0	342884352	59	4970
2026-01-24 10:21:32.19	181.88	29.64	-44.0	-46.8	17.1	0.00e+00	0	38	0	344981504	59	4994
2026-01-24 10:21:33.19	181.98	29.83	-44.1	-46.9	16.9	0.00e+00	0	38	0	347078656	59	5091
2026-01-24 10:21:34.19	182.08	30.01	-44.3	-47.1	16.8	0.00e+00	0	38	0	349175808	59	5179
2026-01-24 10:21:35.19	182.18	30.19	-44.3	-47.2	16.7	0.00e+00	0	38	0	350224384	59	5226
2026-01-24 10:21:36.19	182.28	30.38	-44.4	-47.3	16.5	0.00e+00	0	38	0	352321536	59	5319
2026-01-24 10:21:37.19	182.39	30.57	-44.6	-47.5	16.4	0.00e+00	0	38	0	354418688	59	5442
2026-01-24 10:21:38.19	182.49	30.75	-44.6	-47.7	16.3	0.00e+00	0	38	0	356515840	60	5223
2026-01-24 10:21:39.19	182.60	30.94	-44.6	-47.6	16.3	0.00e+00	0	38	0	358612992	60	5203
2026-01-24 10:21:40.20	182.70	31.13	-44.8	-47.9	16.0	0.00e+00	0	38	0	359661568	60	5371
2026-01-24 10:21:41.20	182.81	31.33	-44.8	-47.9	16.0	0.00e+00	0	38	0	361758720	60	5350
2026-01-24 10:21:42.20	182.92	31.52	-44.8	-47.9	16.0	0.00e+00	0	38	0	363855872	60	5392
2026-01-24 10:21:43.20	183.03	31.71	-44.8	-47.8	16.1	0.00e+00	0	38	0	365953024	60	5307
2026-01-24 10:21:44.20	183.14	31.91	-44.9	-48.0	16.0	0.00e+00	0	38	0	367001600	60	5409
2026-01-24 10:21:45.21	183.26	32.10	-45.0	-48.0	15.9	0.00e+00	0	38	0	369098752	60	5450
2026-01-24 10:21:46.21	183.37	32.30	-45.0	-48.2	15.8	0.00e+00	0	38	0	371195904	60	5540
2026-01-24 10:21:47.21	183.49	32.50	-45.1	-48.3	15.7	0.00e+00	0	38	0	373293056	60	5599
2026-01-24 10:21:48.21	183.61	32.70	-45.1	-48.2	15.8	0.00e+00	0	38	0	375390208	60	5556
2026-01-24 10:21:49.21	183.73	32.90	-45.0	-48.1	15.9	0.00e+00	0	38	0	376438784	60	5474
2026-01-24 10:21:50.22	183.85	33.10	-45.0	-48.2	15.8	0.00e+00	0	38	0	378535936	60	5541
2026-01-24 10:21:51.22	183.97	33.30	-44.9	-48.0	16.0	0.00e+00	0	38	0	380633088	60	5424
2026-01-24 10:21:52.22	184.09	33.51	-44.8	-47.8	16.2	0.00e+00	0	38	0	382730240	60	5280
2026-01-24 10:21:53.23	184.22	33.72	-44.7	-47.6	16.4	0.00e+00	0	38	0	384827392	60	5190
2026-01-24 10:21:54.23	184.34	33.92	-44.6	-47.5	16.4	0.00e+00	0	38	0	385875968	60	5156
2026-01-24 10:21:55.23	184.47	34.13	-44.5	-47.4	16.6	0.00e+00	0	38	0	387973120	60	5047
2026-01-24 10:21:56.23	184.60	34.34	-44.5	-47.4	16.6	0.00e+00	0	38	0	390070272	60	5051
2026-01-24 10:21:57.24	184.73	34.55	-44.5	-47.4	16.6	0.00e+00	0	38	0	392167424	60	5044
2026-01-24 10:21:58.24	184.87	34.76	-44.5	-47.4	16.6	0.00e+00	0	38	0	394264576	60	5075
2026-01-24 10:21:59.24	185.00	34.98	-44.4	-47.4	16.6	0.00e+00	0	38	0	395313152	60	5060
2026-01-24 10:22:00.24	185.14	35.19	-44.4	-47.3	16.6	0.00e+00	0	38	0	397410304	60	5000
2026-01-24 10:22:01.24	185.28	35.41	-44.5	-47.4	16.6	0.00e+00	0	38	0	399507456	60	5059
2026-01-24 10:22:02.25	185.42	35.63	-44.5	-47.4	16.5	0.00e+00	0	38	0	401604608	60	5099
2026-01-24 10:22:03.25	185.56	35.84	-44.6	-47.6	16.4	0.00e+00	0	38	0	403701760	60	5164
2026-01-24 10:22:04.24	185.70	36.06	-44.7	-47.7	16.3	0.00e+00	0	38	0	404750336	60	5239
2026-01-24 10:22:05.24	185.85	36.28	-44.8	-47.8	16.2	0.00e+00	0	38	0	406847488	60	5288
2026-01-24 10:22:06.24	185.99	36.50	-45.1	-48.3	15.7	0.00e+00	0	38	0	408944640	60	5608
2026-01-24 10:22:07.24	186.14	36.73	-45.1	-48.2	15.8	0.00e+00	0	38	0	411041792	60	5568
2026-01-24 10:22:08.25	186.29	36.95	-45.1	-48.3	15.7	0.00e+00	0	38	0	412090368	60	5633
2026-01-24 10:22:09.25	186.45	37.18	-45.2	-48.5	15.6	0.00e+00	0	38	0	414187520	61	5410
2026-01-24 10:22:10.25	186.60	37.41	-45.3	-48.6	15.4	0.00e+00	0	38	0	416284672	61	5476
2026-01-24 10:22:11.25	186.76	37.64	-45.5	-48.9	15.3	0.00e+00	0	38	0	418381824	61	5657
2026-01-24 10:22:12.24	186.92	37.86	-45.6	-48.9	15.1	0.00e+00	0	38	0	420478976	61	5712
2026-01-24 10:22:13.25	187.08	38.10	-45.7	-49.1	15.0	0.00e+00	0	38	0	421527552	62	5482
2026-01-24 10:22:14.25	187.25	38.33	-45.8	-49.3	14.7	0.00e+00	0	38	0	423624704	62	5635
2026-01-24 10:22:15.25	187.41	38.56	-46.1	-49.8	14.2	1.50e-06	0	38	0	425721856	62	5941
2026-01-24 10:22:16.25	187.58	38.80	-46.2	-49.9	14.0	7.00e-07	0	38	0	427819008	63	5716
2026-01-24 10:22:17.26	187.75	39.04	-46.3	-50.1	13.9	2.20e-06	0	38	0	429916160	63	5823
2026-01-24 10:22:18.26	187.93	39.28	-46.2	-50.0	14.1	3.00e-06	0	38	0	430964736	63	5729
2026-01-24 10:22:19.26	188.10	39.52	-46.3	-50.0	14.0	1.50e-06	0	38	0	433061888	63	5740
2026-01-24 10:22:20.25	188.28	39.75	-46.1	-49.7	14.3	4.50e-06	0	38	0	435159040	63	5589
2026-01-24 10:22:21.25	188.46	40.00	-45.9	-49.4	14.6	0.00e+00	0	38	0	437256192	63	5370
2026-01-24 10:22:22.26	188.65	40.24	-46.0	-49.5	14.5	0.00e+00	0	38	0	439353344	63	5460
2026-01-24 10:22:23.26	188.84	40.49	-46.1	-49.7	14.3	1.50e-06	0	38	0	440401920	63	5580
2026-01-24 10:22:24.26	189.02	40.73	-46.0	-49.6	14.3	7.00e-07	0	38	0	442499072	63	5513
2026-01-24 10:22:25.27	189.22	40.98	-46.2	-49.9	14.1	7.00e-07	0	38	0	444596224	63	5694
2026-01-24 10:22:26.27	189.41	41.23	-46.2	-49.9	14.1	3.80e-06	0	38	0	446693376	63	5693
2026-01-24 10:22:27.27	189.61	41.48	-46.1	-49.8	14.3	2.20e-06	0	38	0	448790528	63	5620
2026-01-24 10:22:28.27	189.81	41.73	-46.0	-49.5	14.6	0.00e+00	0	38	0	449839104	63	5450
2026-01-24 10:22:29.28	190.02	41.99	-45.6	-49.0	15.1	7.00e-07	0	38	0	451936256	63	5110
2026-01-24 10:22:30.28	190.23	42.24	-45.4	-48.6	15.4	0.00e+00	0	38	0	454033408	62	5171
2026-01-24 10:22:31.28	190.44	42.50	-45.1	-48.1	15.9	0.00e+00	0	38	0	456130560	62	4926
2026-01-24 10:22:32.29	190.66	42.76	-45.1	-48.3	15.8	0.00e+00	0	38	0	457179136	62	5007
2026-01-24 10:22:33.29	190.87	43.02	-45.2	-48.4	15.7	0.00e+00	0	38	0	459276288	62	5055
2026-01-24 10:22:34.29	191.09	43.28	-45.2	-48.3	15.7	0.00e+00	0	38	0	461373440	62	5038
2026-01-24 10:22:35.29	191.32	43.54	-45.1	-48.2	15.8	0.00e+00	0	38	0	463470592	62	4975
2026-01-24 10:22:36.29	191.55	43.80	-45.1	-48.1	15.9	0.00e+00	0	38	0	465567744	62	4917
2026-01-24 10:22:37.29	191.78	44.06	-44.9	-47.9	16.2	0.00e+00	0	38	0	466616320	61	5056
2026-01-24 10:22:38.29	192.02	44.33	-44.7	-47.6	16.4	0.00e+00	0	38	0	468713472	61	4911
2026-01-24 10:22:39.29	192.26	44.59	-44.7	-47.6	16.4	0.00e+00	0	38	0	470810624	61	4923
2026-01-24 10:22:40.29	192.50	44.86	-44.9	-47.9	16.1	0.00e+00	0	38	0	472907776	61	5072
2026-01-24 10:22:41.29	192.75	45.13	-45.0	-48.1	16.0	0.00e+00	0	38	0	475004928	61	5171
2026-01-24 10:22:42.29	193.00	45.40	-45.2	-48.4	15.6	0.00e+00	0	38	0	476053504	61	5402
2026-01-24 10:22:43.29	193.26	45.67	-45.4	-48.7	15.4	0.00e+00	0	38	0	478150656	61	5533
2026-01-24 10:22:44.29	193.52	45.94	-45.4	-48.8	15.3	0.00e+00	0	38	0	480247808	61	5617
2026-01-24 10:22:45.29	193.78	46.22	-45.1	-48.3	15.8	0.00e+00	0	38	0	482344960	61	5314
2026-01-24 10:22:46.30	194.05	46.50	-45.1	-48.3	15.7	0.00e+00	0	38	0	484442112	61	5324
2026-01-24 10:22:47.30	194.33	46.77	-44.8	-47.7	16.3	0.00e+00	0	38	0	485490688	61	4982
2026-01-24 10:22:48.30	194.61	47.05	-45.0	-48.0	16.0	0.00e+00	0	38	0	487587840	61	5148
2026-01-24 10:22:49.30	194.89	47.33	-45.2	-48.2	15.8	0.00e+00	0	38	0	489684992	61	5276
2026-01-24 10:22:50.30	195.18	47.60	-45.1	-48.1	15.9	0.00e+00	0	38	0	491782144	61	5206
2026-01-24 10:22:51.30	195.48	47.88	-45.0	-48.1	16.0	0.00e+00	0	38	0	492830720	61	5175
2026-01-24 10:22:52.30	195.78	48.17	-45.0	-48.1	16.0	0.00e+00	0	38	0	494927872	61	5181
2026-01-24 10:22:53.30	196.08	48.45	-44.6	-47.6	16.4	0.00e+00	0	38	0	497025024	61	4900
2026-01-24 10:22:54.30	196.39	48.73	-44.7	-47.7	16.4	0.00e+00	0	38	0	499122176	61	4942
2026-01-24 10:22:55.30	196.71	49.02	-44.5	-47.4	16.6	0.00e+00	0	38	0	501219328	60	5074
2026-01-24 10:22:56.30	197.03	49.30	-44.6	-47.5	16.6	0.00e+00	0	38	0	502267904	60	5123
2026-01-24 10:22:57.30	197.36	49.59	-44.4	-47.2	16.8	0.00e+00	0	38	0	504365056	60	4946
2026-01-24 10:22:58.31	197.70	49.88	-43.8	-46.4	17.5	0.00e+00	0	38	0	506462208	59	4804
2026-01-24 10:22:59.30	198.03	50.16	-43.2	-45.7	18.3	0.00e+00	0	38	0	508559360	58	4684
2026-01-24 10:23:00.30	198.38	50.45	-43.0	-45.4	18.5	0.00e+00	0	38	0	510656512	57	4810
2026-01-24 10:23:01.30	198.73	50.74	-42.9	-45.3	18.6	0.00e+00	0	38	0	511705088	57	4758
2026-01-24 10:23:02.30	199.09	51.03	-42.4	-44.7	19.2	0.00e+00	0	38	0	513802240	56	4689
2026-01-24 10:23:03.30	199.46	51.32	-42.0	-44.2	19.7	0.00e+00	0	38	0	515899392	56	4413
2026-01-24 10:23:04.31	199.84	51.61	-41.3	-43.4	20.3	0.00e+00	0	38	0	517996544	54	4495
2026-01-24 10:23:05.31	200.22	51.90	-40.9	-42.9	20.6	0.00e+00	0	38	0	520093696	53	4543
2026-01-24 10:23:06.31	200.61	52.19	-40.7	-42.7	20.9	0.00e+00	0	38	0	521142272	53	4435
2026-01-24 10:23:07.32	201.01	52.49	-40.3	-42.3	21.3	0.00e+00	0	38	0	523239424	52	4459
2026-01-24 10:23:08.32	201.42	52.78	-40.2	-42.1	21.4	0.00e+00	0	38	0	525336576	52	4371
2026-01-24 10:23:09.31	201.83	53.07	-40.2	-42.1	21.4	0.00e+00	0	38	0	527433728	52	4364
2026-01-24 10:23:10.31	202.25	53.36	-40.1	-42.1	21.5	0.00e+00	0	38	0	529530880	52	4349
2026-01-24 10:23:11.32	202.68	53.66	-40.2	-42.1	21.4	0.00e+00	0	38	0	530579456	52	4380
2026-01-24 10:23:12.32	203.12	53.95	-40.3	-42.2	21.3	0.00e+00	0	38	0	532676608	52	4419
2026-01-24 10:23:13.32	203.57	54.24	-40.0	-41.9	21.6	0.00e+00	0	38	0	534773760	52	4278
2026-01-24 10:23:14.32	204.02	54.54	-40.1	-42.1	21.5	0.00e+00	0	38	0	536870912	51	4616
2026-01-24 10:23:15.31	204.49	54.83	-40.5	-42.5	21.2	0.00e+00	0	38	0	537919488	51	4829
2026-01-24 10:23:16.32	204.97	55.12	-40.6	-42.6	21.0	0.00e+00	0	38	0	540016640	52	4605
2026-01-24 10:23:17.32	205.45	55.41	-40.7	-42.7	20.9	0.00e+00	0	38	0	542113792	52	4695
2026-01-24 10:23:18.32	205.95	55.70	-40.9	-42.9	20.7	0.00e+00	0	38	0	544210944	52	4810
2026-01-24 10:23:19.32	206.45	55.99	-41.4	-43.5	20.2	0.00e+00	0	38	0	546308096	53	4861
2026-01-24 10:23:20.33	206.97	56.29	-42.0	-44.2	19.5	0.00e+00	0	38	0	547356672	54	4947
2026-01-24 10:23:21.32	207.49	56.57	-42.5	-44.8	19.0	0.00e+00	0	38	0	549453824	55	5005
2026-01-24 10:23:22.33	208.04	56.87	-42.4	-44.7	19.0	0.00e+00	0	38	0	551550976	55	4970
2026-01-24 10:23:23.33	208.59	57.15	-42.6	-44.9	18.9	0.00e+00	0	38	0	553648128	55	5049
2026-01-24 10:23:24.33	209.15	57.44	-42.6	-44.9	18.9	0.00e+00	0	38	0	555745280	55	5075
2026-01-24 10:23:25.33	209.72	57.73	-43.3	-45.8	18.2	0.00e+00	0	38	0	556793856	57	5005
2026-01-24 10:23:26.33	210.31	58.01	-43.3	-45.8	18.2	0.00e+00	0	38	0	558891008	57	5001
2026-01-24 10:23:27.33	210.90	58.29	-43.4	-45.9	18.1	0.00e+00	0	38	0	560988160	57	5073
2026-01-24 10:23:28.33	211.51	58.57	-43.5	-46.1	17.9	0.00e+00	0	38	0	563085312	57	5165
2026-01-24 10:23:29.34	212.14	58.86	-43.7	-46.3	17.7	0.00e+00	0	38	0	564133888	58	5025
2026-01-24 10:23:30.34	212.78	59.13	-43.4	-45.9	18.0	0.00e+00	0	38	0	566231040	58	4790
2026-01-24 10:23:31.34	213.43	59.41	-42.9	-45.3	18.6	0.00e+00	0	38	0	568328192	57	4752
2026-01-24 10:23:32.34	214.09	59.68	-42.9	-45.4	18.6	0.00e+00	0	38	0	570425344	57	4783
2026-01-24 10:23:33.34	214.77	59.95	-43.3	-45.9	18.1	0.00e+00	0	38	0	572522496	57	5076
2026-01-24 10:23:34.35	215.47	60.22	-43.4	-46.0	18.0	0.00e+00	0	38	0	573571072	57	5131
2026-01-24 10:23:35.35	216.17	60.49	-43.0	-45.4	18.6	0.00e+00	0	38	0	575668224	57	4777
2026-01-24 10:23:36.35	216.89	60.75	-42.6	-44.9	19.0	0.00e+00	0	38	0	577765376	57	4526
2026-01-24 10:23:37.35	217.63	61.01	-42.7	-45.0	19.0	0.00e+00	0	38	0	579862528	57	4551
2026-01-24 10:23:38.36	218.39	61.27	-42.2	-44.4	19.5	0.00e+00	0	38	0	581959680	56	4529
2026-01-24 10:23:39.35	219.15	61.52	-42.6	-44.8	19.1	0.00e+00	0	38	0	583008256	56	4750
2026-01-24 10:23:40.35	219.93	61.77	-42.6	-44.9	19.1	0.00e+00	0	38	0	585105408	56	4787
2026-01-24 10:23:41.35	220.73	62.02	-42.5	-44.8	19.2	0.00e+00	0	38	0	587202560	56	4728
2026-01-24 10:23:42.35	221.54	62.26	-42.0	-44.2	19.6	0.00e+00	0	38	0	589299712	56	4424
2026-01-24 10:23:43.35	222.37	62.50	-41.7	-43.9	19.8	0.00e+00	0	38	0	591396864	55	4521
2026-01-24 10:23:44.35	223.22	62.74	-42.2	-44.5	19.3	0.00e+00	0	38	0	592445440	55	4822
2026-01-24 10:23:45.35	224.08	62.96	-42.5	-44.9	18.9	0.00e+00	0	38	0	594542592	55	5058
2026-01-24 10:23:46.35	224.96	63.19	-42.4	-44.8	19.0	0.00e+00	0	38	0	596639744	55	4991
2026-01-24 10:23:47.35	225.85	63.41	-42.0	-44.2	19.5	0.00e+00	0	38	0	598736896	55	4704
2026-01-24 10:23:48.35	226.77	63.62	-41.8	-44.1	19.6	0.00e+00	0	38	0	599785472	55	4602
2026-01-24 10:23:49.35	227.69	63.83	-42.0	-44.3	19.4	0.00e+00	0	38	0	601882624	55	4730
2026-01-24 10:23:50.35	228.64	64.04	-42.6	-44.9	18.8	0.00e+00	0	38	0	603979776	55	5099
2026-01-24 10:23:51.35	229.60	64.24	-43.1	-45.6	18.4	0.00e+00	0	38	0	606076928	56	5183
2026-01-24 10:23:52.35	230.58	64.43	-42.8	-45.2	18.8	0.00e+00	0	38	0	608174080	57	4653
2026-01-24 10:23:53.36	231.58	64.61	-42.4	-44.7	19.2	0.00e+00	0	38	0	609222656	56	4677
2026-01-24 10:23:54.36	232.59	64.79	-42.5	-44.8	19.1	0.00e+00	0	38	0	611319808	56	4724
2026-01-24 10:23:55.36	233.62	64.97	-42.9	-45.3	18.6	0.00e+00	0	38	0	613416960	56	5000
2026-01-24 10:23:56.36	234.66	65.13	-43.3	-45.7	18.2	0.00e+00	0	38	0	615514112	57	4982
2026-01-24 10:23:57.36	235.72	65.29	-43.4	-45.9	18.0	0.00e+00	0	38	0	617611264	57	5058
2026-01-24 10:23:58.36	236.79	65.44	-43.3	-45.7	18.3	0.00e+00	0	38	0	618659840	57	4976
2026-01-24 10:23:59.36	237.88	65.58	-43.4	-45.9	18.1	0.00e+00	0	38	0	620756992	57	5058
2026-01-24 10:24:00.36	238.97	65.72	-43.6	-46.2	17.7	0.00e+00	0	38	0	622854144	58	4946
2026-01-24 10:24:01.36	240.09	65.85	-44.0	-46.6	17.4	0.00e+00	0	38	0	624951296	58	5190
2026-01-24 10:24:02.36	241.21	65.97	-43.8	-46.4	17.6	0.00e+00	0	38	0	627048448	58	5062
2026-01-24 10:24:03.36	242.35	66.08	-43.8	-46.3	17.6	0.00e+00	0	38	0	628097024	58	5041
2026-01-24 10:24:04.36	243.50	66.18	-44.5	-47.3	16.7	0.00e+00	0	38	0	630194176	59	5308
2026-01-24 10:24:05.37	244.67	66.28	-44.6	-47.5	16.5	0.00e+00	0	38	0	632291328	60	5140
2026-01-24 10:24:06.37	245.84	66.36	-44.5	-47.4	16.7	0.00e+00	0	38	0	634388480	60	5062
2026-01-24 10:24:07.37	247.01	66.44	-44.4	-47.3	16.8	0.00e+00	0	38	0	636485632	60	5014
2026-01-24 10:24:08.37	248.20	66.51	-44.6	-47.5	16.5	0.00e+00	0	38	0	637534208	60	5139
2026-01-24 10:24:09.37	249.39	66.57	-45.0	-48.1	15.9	0.00e+00	0	38	0	639631360	60	5504
2026-01-24 10:24:10.37	250.59	66.62	-45.2	-48.4	15.6	0.00e+00	0	38	0	641728512	61	5358
2026-01-24 10:24:11.37	251.79	66.66	-44.7	-47.7	16.3	0.00e+00	0	38	0	643825664	61	4941
2026-01-24 10:24:12.37	253.00	66.69	-44.0	-46.5	17.3	0.00e+00	0	38	0	644874240	59	4855
2026-01-24 10:24:13.37	254.21	66.71	-43.7	-46.3	17.7	0.00e+00	0	38	0	646971392	59	4712
2026-01-24 10:24:14.37	255.42	66.72	-44.1	-46.8	17.2	0.00e+00	0	38	0	649068544	59	5017
2026-01-24 10:24:15.38	256.65	66.73	-44.5	-47.4	16.6	0.00e+00	0	38	0	651165696	59	5364
2026-01-24 10:24:16.38	257.86	66.72	-44.2	-47.0	17.0	0.00e+00	0	38	0	653262848	59	5124
2026-01-24 10:24:17.38	259.07	66.70	-43.8	-46.5	17.5	0.00e+00	0	38	0	654311424	59	4822
2026-01-24 10:24:18.39	260.29	66.68	-43.9	-46.6	17.4	0.00e+00	0	38	0	656408576	59	4904
2026-01-24 10:24:19.39	261.50	66.64	-44.2	-46.9	17.1	0.00e+00	0	38	0	658505728	59	5099
2026-01-24 10:24:20.38	262.69	66.60	-44.0	-46.8	17.2	0.00e+00	0	38	0	660602880	59	4996
2026-01-24 10:24:21.39	263.89	66.55	-43.0	-45.5	18.5	0.00e+00	0	38	0	662700032	58	4553
2026-01-24 10:24:22.39	265.08	66.48	-42.9	-45.2	18.7	0.00e+00	0	38	0	663748608	57	4702
2026-01-24 10:24:23.38	266.25	66.41	-43.7	-46.2	17.8	0.00e+00	0	38	0	665845760	58	4962
2026-01-24 10:24:24.38	267.43	66.33	-44.5	-47.3	16.6	0.00e+00	0	38	0	667942912	59	5327
2026-01-24 10:24:25.38	268.59	66.24	-43.7	-46.3	17.6	0.00e+00	0	38	0	670040064	59	4750
2026-01-24 10:24:26.38	269.74	66.14	-42.7	-45.0	18.7	0.00e+00	0	38	0	672137216	57	4598
2026-01-24 10:24:27.38	270.89	66.04	-42.9	-45.2	18.7	0.00e+00	0	38	0	673185792	57	4698
2026-01-24 10:24:28.38	272.02	65.92	-43.9	-46.5	17.5	0.00e+00	0	38	0	675282944	58	5156
2026-01-24 10:24:29.38	273.14	65.80	-44.5	-47.4	16.7	0.00e+00	0	38	0	677380096	59	5343
2026-01-24 10:24:30.38	274.25	65.67	-44.4	-47.2	16.8	0.00e+00	0	38	0	679477248	59	5231
2026-01-24 10:24:31.39	275.35	65.53	-43.7	-46.4	17.7	0.00e+00	0	38	0	680525824	59	4764
2026-01-24 10:24:32.39	276.43	65.38	-43.7	-46.3	17.7	0.00e+00	0	38	0	682622976	59	4732
2026-01-24 10:24:33.39	277.49	65.23	-44.3	-47.1	16.9	0.00e+00	0	38	0	684720128	59	5204
2026-01-24 10:24:34.39	278.54	65.07	-43.6	-46.1	17.9	0.00e+00	0	38	0	686817280	59	4639
2026-01-24 10:24:35.39	279.58	64.90	-42.9	-45.3	18.6	0.00e+00	0	38	0	688914432	57	4707
2026-01-24 10:24:36.40	280.61	64.72	-42.8	-45.1	18.9	0.00e+00	0	38	0	689963008	57	4621
2026-01-24 10:24:37.40	281.61	64.54	-43.4	-45.9	18.1	0.00e+00	0	38	0	692060160	57	5067
2026-01-24 10:24:38.40	282.59	64.36	-42.6	-44.9	19.0	0.00e+00	0	38	0	694157312	57	4517
2026-01-24 10:24:39.40	283.57	64.16	-41.6	-43.7	20.0	0.00e+00	0	38	0	696254464	55	4433
2026-01-24 10:24:40.40	284.52	63.96	-40.7	-42.7	20.9	0.00e+00	0	38	0	698351616	53	4411
2026-01-24 10:24:41.41	285.47	63.75	-40.3	-42.3	21.3	0.00e+00	0	38	0	699400192	52	4487
2026-01-24 10:24:42.40	286.38	63.55	-40.9	-43.0	20.6	0.00e+00	0	38	0	701497344	52	4853
2026-01-24 10:24:43.41	287.29	63.33	-40.8	-42.9	20.7	0.00e+00	0	38	0	703594496	52	4810
2026-01-24 10:24:44.41	288.18	63.11	-39.5	-41.4	22.0	0.00e+00	0	38	0	705691648	51	4277
2026-01-24 10:24:45.41	289.05	62.88	-38.4	-40.2	23.2	0.00e+00	0	38	0	706740224	48	4400
2026-01-24 10:24:46.41	289.90	62.65	-38.7	-40.5	22.9	0.00e+00	0	38	0	708837376	48	4585
2026-01-24 10:24:47.42	290.75	62.41	-39.2	-41.1	22.4	0.00e+00	0	38	0	710934528	49	4601
2026-01-24 10:24:48.42	291.57	62.17	-39.1	-40.9	22.6	0.00e+00	0	38	0	713031680	49	4521
2026-01-24 10:24:49.42	292.38	61.93	-39.0	-40.8	22.6	0.00e+00	0	38	0	715128832	49	4475
2026-01-24 10:24:50.42	293.17	61.68	-39.3	-41.1	22.4	0.00e+00	0	38	0	717225984	49	4637
2026-01-24 10:24:51.42	293.94	61.43	-39.7	-41.6	22.0	0.00e+00	0	38	0	718274560	49	4878
2026-01-24 10:24:52.43	294.71	61.17	-40.2	-42.1	21.5	0.00e+00	0	38	0	720371712	51	4644
2026-01-24 10:24:53.43	295.45	60.92	-40.8	-42.8	20.8	0.00e+00	0	38	0	722468864	52	4749
2026-01-24 10:24:54.42	296.18	60.66	-41.0	-43.1	20.5	0.00e+00	0	38	0	724566016	52	4881
2026-01-24 10:24:55.43	296.90	60.39	-40.8	-42.9	20.8	0.00e+00	0	38	0	725614592	52	4761
2026-01-24 10:24:56.43	297.60	60.13	-41.4	-43.5	20.2	0.00e+00	0	38	0	727711744	53	4856
2026-01-24 10:24:57.43	298.28	59.86	-42.4	-44.7	19.1	0.00e+00	0	38	0	729808896	55	4939
2026-01-24 10:24:58.43	298.95	59.59	-42.8	-45.1	18.8	0.00e+00	0	38	0	731906048	56	4907
2026-01-24 10:24:59.43	299.61	59.31	-42.2	-44.4	19.5	0.00e+00	0	38	0	734003200	56	4532
2026-01-24 10:25:00.43	300.25	59.04	-42.2	-44.4	19.5	0.00e+00	0	38	0	735051776	56	4513
2026-01-24 10:25:01.43	300.88	58.76	-42.2	-44.4	19.5	0.00e+00	0	38	0	737148928	56	4519
2026-01-24 10:25:02.43	301.50	58.48	-42.2	-44.5	19.4	0.00e+00	0	38	0	739246080	56	4553
2026-01-24 10:25:03.43	302.10	58.20	-42.1	-44.4	19.5	0.00e+00	0	38	0	741343232	56	4501
2026-01-24 10:25:04.43	302.69	57.92	-42.1	-44.3	19.6	0.00e+00	0	38	0	743440384	56	4454
2026-01-24 10:25:05.43	303.27	57.63	-41.3	-43.4	20.2	0.00e+00	0	38	0	744488960	54	4542
2026-01-24 10:25:06.43	303.84	57.35	-40.8	-42.9	20.7	0.00e+00	0	38	0	746586112	53	4511
2026-01-24 10:25:07.43	304.39	57.06	-40.9	-42.9	20.7	0.00e+00	0	38	0	748683264	53	4530
2026-01-24 10:25:08.43	304.94	56.78	-41.0	-43.1	20.6	0.00e+00	0	38	0	750780416	53	4609
2026-01-24 10:25:09.43	305.47	56.49	-40.4	-42.4	21.2	0.00e+00	0	38	0	751828992	52	4500
2026-01-24 10:25:10.43	305.99	56.20	-40.1	-42.0	21.6	0.00e+00	0	38	0	753926144	51	4583
2026-01-24 10:25:11.43	306.50	55.91	-39.9	-41.8	21.8	0.00e+00	0	38	0	756023296	51	4458
2026-01-24 10:25:12.43	307.00	55.62	-39.5	-41.4	22.1	0.00e+00	0	38	0	758120448	51	4283
2026-01-24 10:25:13.43	307.49	55.33	-39.5	-41.4	22.1	0.00e+00	0	38	0	760217600	50	4524
2026-01-24 10:25:14.43	307.98	55.04	-39.6	-41.5	22.0	0.00e+00	0	38	0	761266176	50	4588
2026-01-24 10:25:15.43	308.45	54.75	-40.1	-42.1	21.5	0.00e+00	0	38	0	763363328	50	4884
2026-01-24 10:25:16.43	308.91	54.46	-39.8	-41.8	21.8	0.00e+00	0	38	0	765460480	50	4713
2026-01-24 10:25:17.43	309.36	54.16	-39.8	-41.8	21.8	0.00e+00	0	38	0	767557632	50	4714
2026-01-24 10:25:18.43	309.80	53.87	-39.9	-41.8	21.7	0.00e+00	0	38	0	769654784	50	4738
2026-01-24 10:25:19.43	310.24	53.58	-40.2	-42.2	21.4	0.00e+00	0	38	0	770703360	51	4652
2026-01-24 10:25:20.44	310.67	53.29	-40.3	-42.2	21.4	0.00e+00	0	38	0	772800512	51	4700
2026-01-24 10:25:21.43	311.08	53.00	-40.6	-42.6	21.0	0.00e+00	0	38	0	774897664	51	4917
2026-01-24 10:25:22.44	311.50	52.70	-41.2	-43.3	20.4	0.00e+00	0	38	0	776994816	52	5011
2026-01-24 10:25:23.44	311.90	52.41	-41.9	-44.2	19.6	0.00e+00	0	38	0	779091968	54	4935
2026-01-24 10:25:24.44	312.29	52.12	-42.2	-44.5	19.3	0.00e+00	0	38	0	780140544	54	5110
2026-01-24 10:25:25.44	312.68	51.83	-42.0	-44.3	19.4	0.00e+00	0	38	0	782237696	55	4721
2026-01-24 10:25:26.45	313.06	51.54	-42.1	-44.4	19.3	0.00e+00	0	38	0	784334848	55	4794
2026-01-24 10:25:27.45	313.43	51.25	-42.7	-45.1	18.6	0.00e+00	0	38	0	786432000	55	5196
2026-01-24 10:25:28.45	313.79	50.96	-43.2	-45.7	18.3	0.00e+00	0	38	0	787480576	57	4945
2026-01-24 10:25:29.45	314.15	50.67	-43.4	-46.0	18.0	0.00e+00	0	38	0	789577728	57	5110
2026-01-24 10:25:30.45	314.50	50.39	-43.9	-46.6	17.5	0.00e+00	0	38	0	791674880	58	5165
2026-01-24 10:25:31.45	314.85	50.10	-44.5	-47.4	16.6	0.00e+00	0	38	0	793772032	59	5384
2026-01-24 10:25:32.46	315.19	49.81	-44.6	-47.6	16.4	0.00e+00	0	38	0	795869184	60	5175
2026-01-24 10:25:33.46	315.52	49.53	-44.3	-47.2	16.8	0.00e+00	0	38	0	796917760	60	4942
2026-01-24 10:25:34.46	315.85	49.24	-44.4	-47.3	16.6	0.00e+00	0	38	0	799014912	60	5010
2026-01-24 10:25:35.46	316.16	48.96	-45.4	-48.8	15.3	0.00e+00	0	38	0	801112064	61	5644
2026-01-24 10:25:36.45	316.48	48.68	-46.0	-49.8	14.3	2.20e-06	0	38	0	803209216	62	5958
2026-01-24 10:25:37.45	316.78	48.40	-45.8	-49.6	14.4	2.20e-06	0	38	0	805306368	62	5828
2026-01-24 10:25:38.46	317.09	48.12	-45.1	-48.5	15.4	0.00e+00	0	38	0	806354944	62	5150
2026-01-24 10:25:39.46	317.39	47.84	-45.1	-48.5	15.6	0.00e+00	0	38	0	808452096	62	5136
2026-01-24 10:25:40.46	317.68	47.56	-45.6	-49.2	14.9	0.00e+00	0	38	0	810549248	62	5536
2026-01-24 10:25:41.46	317.97	47.28	-45.8	-49.6	14.4	3.00e-06	0	38	0	812646400	62	5821
2026-01-24 10:25:42.46	318.25	47.00	-45.2	-48.5	15.5	7.00e-07	0	38	0	813694976	62	5123
2026-01-24 10:25:43.46	318.53	46.73	-44.3	-47.2	16.8	0.00e+00	0	38	0	815792128	60	4945
2026-01-24 10:25:44.46	318.80	46.46	-44.2	-47.0	17.0	0.00e+00	0	38	0	817889280	60	4815
2026-01-24 10:25:45.46	319.07	46.18	-44.2	-47.0	17.0	0.00e+00	0	38	0	819986432	60	4855
2026-01-24 10:25:46.47	319.33	45.91	-44.6	-47.6	16.4	0.00e+00	0	38	0	822083584	60	5176
2026-01-24 10:25:47.47	319.59	45.64	-44.5	-47.4	16.6	0.00e+00	0	38	0	824180736	60	5052
2026-01-24 10:25:48.47	319.85	45.37	-44.2	-47.0	17.0	0.00e+00	0	38	0	825229312	60	4822
2026-01-24 10:25:49.47	320.10	45.10	-43.9	-46.6	17.3	0.00e+00	0	38	0	827326464	59	4921
2026-01-24 10:25:50.48	320.34	44.83	-43.3	-45.9	18.0	0.00e+00	0	38	0	829423616	58	4781
2026-01-24 10:25:51.47	320.58	44.57	-42.6	-45.1	18.8	0.00e+00	0	38	0	831520768	57	4599
2026-01-24 10:25:52.48	320.82	44.30	-42.2	-44.5	19.4	0.00e+00	0	38	0	832569344	56	4553
2026-01-24 10:25:53.48	321.06	44.04	-41.8	-44.0	19.6	0.00e+00	0	38	0	834666496	55	4586
2026-01-24 10:25:54.48	321.29	43.78	-41.6	-43.8	19.8	0.00e+00	0	38	0	836763648	55	4451
2026-01-24 10:25:55.49	321.52	43.51	-41.7	-43.9	19.8	0.00e+00	0	38	0	838860800	55	4497
2026-01-24 10:25:56.49	321.74	43.25	-42.6	-45.0	18.7	0.00e+00	0	38	0	840957952	55	5157
2026-01-24 10:25:57.49	321.96	43.00	-43.9	-46.7	17.2	0.00e+00	0	38	0	842006528	58	5251
2026-01-24 10:25:58.49	322.18	42.74	-44.0	-46.9	17.0	0.00e+00	0	38	0	844103680	59	5055
2026-01-24 10:25:59.49	322.39	42.48	-42.8	-45.3	18.5	0.00e+00	0	38	0	846200832	57	4746
2026-01-24 10:26:00.49	322.60	42.23	-41.4	-43.5	20.0	0.00e+00	0	38	0	848297984	54	4587
2026-01-24 10:26:01.49	322.81	41.98	-40.7	-42.7	20.8	0.00e+00	0	38	0	850395136	53	4431
2026-01-24 10:26:02.50	323.01	41.72	-40.6	-42.6	20.9	0.00e+00	0	38	0	851443712	53	4362
2026-01-24 10:26:03.50	323.21	41.47	-40.8	-42.8	20.7	0.00e+00	0	38	0	853540864	52	4757
2026-01-24 10:26:04.50	323.41	41.22	-41.8	-44.0	19.7	0.00e+00	0	38	0	855638016	54	4831
2026-01-24 10:26:05.50	323.60	40.98	-42.9	-45.4	18.5	0.00e+00	0	38	0	857735168	56	5061
2026-01-24 10:26:06.50	323.80	40.73	-43.8	-46.5	17.4	0.00e+00	0	38	0	858783744	58	5144
2026-01-24 10:26:07.50	323.98	40.49	-43.8	-46.6	17.3	0.00e+00	0	38	0	860880896	58	5191
2026-01-24 10:26:08.51	324.17	40.24	-43.3	-45.8	18.0	0.00e+00	0	38	0	862978048	58	4744
2026-01-24 10:26:09.51	324.36	40.00	-42.7	-45.1	18.7	0.00e+00	0	38	0	865075200	57	4632
2026-01-24 10:26:10.50	324.53	39.76	-42.8	-45.2	18.6	0.00e+00	0	38	0	867172352	57	4700
2026-01-24 10:26:11.51	324.71	39.52	-42.1	-44.4	19.4	0.00e+00	0	38	0	868220928	56	4521
2026-01-24 10:26:12.51	324.89	39.28	-41.6	-43.8	19.8	0.00e+00	0	38	0	870318080	55	4473
2026-01-24 10:26:13.51	325.06	39.05	-41.7	-44.0	19.7	0.00e+00	0	38	0	872415232	55	4551
2026-01-24 10:26:14.51	325.23	38.81	-42.3	-44.7	19.0	0.00e+00	0	38	0	874512384	55	4960
2026-01-24 10:26:15.51	325.40	38.58	-43.0	-45.7	18.1	0.00e+00	0	38	0	876609536	56	5270
2026-01-24 10:26:16.51	325.57	38.34	-43.6	-46.6	17.3	0.00e+00	0	38	0	877658112	57	5484
2026-01-24 10:26:17.51	325.73	38.11	-43.9	-47.0	17.0	0.00e+00	0	38	0	879755264	58	5435
2026-01-24 10:26:18.51	325.89	37.88	-43.4	-46.2	17.7	0.00e+00	0	38	0	881852416	58	4943
2026-01-24 10:26:19.51	326.05	37.66	-42.5	-45.0	18.8	0.00e+00	0	38	0	883949568	57	4585
2026-01-24 10:26:20.51	326.21	37.43	-41.4	-43.6	20.0	0.00e+00	0	38	0	886046720	54	4648
2026-01-24 10:26:21.51	326.36	37.20	-41.0	-43.1	20.4	0.00e+00	0	38	0	887095296	54	4386
2026-01-24 10:26:22.51	326.51	36.98	-40.8	-42.9	20.6	0.00e+00	0	38	0	889192448	53	4528
2026-01-24 10:26:23.51	326.66	36.76	-40.9	-43.0	20.6	0.00e+00	0	38	0	891289600	53	4561
2026-01-24 10:26:24.51	326.81	36.53	-41.5	-43.7	19.9	0.00e+00	0	38	0	893386752	53	4974
2026-01-24 10:26:25.52	326.96	36.31	-42.2	-44.6	19.1	0.00e+00	0	38	0	895483904	55	4888
2026-01-24 10:26:26.52	327.11	36.09	-43.1	-45.7	18.2	0.00e+00	0	38	0	896532480	56	5223
2026-01-24 10:26:27.52	327.25	35.87	-43.5	-46.3	17.7	0.00e+00	0	38	0	898629632	57	5297
2026-01-24 10:26:28.52	327.39	35.66	-43.7	-46.6	17.4	0.00e+00	0	38	0	900726784	58	5172
2026-01-24 10:26:29.52	327.53	35.44	-43.7	-46.6	17.3	0.00e+00	0	38	0	902823936	58	5203
2026-01-24 10:26:30.52	327.67	35.23	-43.5	-46.3	17.6	0.00e+00	0	38	0	904921088	58	5005
2026-01-24 10:26:31.52	327.80	35.02	-43.3	-46.0	17.9	0.00e+00	0	38	0	905969664	58	4830
2026-01-24 10:26:32.53	327.94	34.80	-42.8	-45.3	18.5	0.00e+00	0	38	0	908066816	57	4759
2026-01-24 10:26:33.53	328.07	34.59	-42.7	-45.1	18.7	0.00e+00	0	38	0	910163968	57	4630
2026-01-24 10:26:34.53	328.20	34.38	-42.3	-44.7	19.1	0.00e+00	0	38	0	912261120	56	4671
2026-01-24 10:26:35.53	328.33	34.18	-42.2	-44.6	19.3	0.00e+00	0	38	0	913309696	56	4608
2026-01-24 10:26:36.53	328.46	33.97	-42.3	-44.7	19.1	0.00e+00	0	38	0	915406848	56	4669
2026-01-24 10:26:37.53	328.58	33.76	-42.4	-44.7	19.1	0.00e+00	0	38	0	917504000	56	4705
2026-01-24 10:26:38.53	328.71	33.56	-42.8	-45.2	18.6	0.00e+00	0	38	0	919601152	56	4964
2026-01-24 10:26:39.53	328.83	33.36	-43.1	-45.6	18.3	0.00e+00	0	38	0	921698304	56	5172
2026-01-24 10:26:40.53	328.95	33.16	-43.5	-46.1	17.8	0.00e+00	0	38	0	922746880	57	5196
2026-01-24 10:26:41.53	329.07	32.95	-43.5	-46.2	17.7	0.00e+00	0	38	0	924844032	57	5236
2026-01-24 10:26:42.53	329.19	32.76	-43.5	-46.2	17.7	0.00e+00	0	38	0	926941184	57	5219
2026-01-24 10:26:43.54	329.31	32.56	-43.6	-46.3	17.5	0.00e+00	0	38	0	929038336	57	5315
2026-01-24 10:26:44.54	329.43	32.36	-43.6	-46.3	17.6	0.00e+00	0	38	0	931135488	57	5299
2026-01-24 10:26:45.54	329.54	32.16	-43.6	-46.4	17.5	0.00e+00	0	38	0	932184064	57	5349
2026-01-24 10:26:46.54	329.65	31.97	-44.0	-46.8	17.1	0.00e+00	0	38	0	934281216	58	5320
2026-01-24 10:26:47.54	329.77	31.78	-44.2	-47.1	16.7	0.00e+00	0	38	0	936378368	59	5214
2026-01-24 10:26:48.54	329.88	31.58	-44.3	-47.4	16.5	0.00e+00	0	38	0	938475520	59	5383
2026-01-24 10:26:49.54	329.99	31.39	-44.6	-47.9	16.0	0.00e+00	0	38	0	939524096	59	5693
2026-01-24 10:26:50.54	330.09	31.20	-44.7	-48.3	15.7	0.00e+00	0	38	0	941621248	60	5612
2026-01-24 10:26:51.54	330.20	31.01	-44.6	-48.1	15.8	0.00e+00	0	38	0	943718400	60	5524
2026-01-24 10:26:52.55	330.31	30.83	-44.4	-48.0	15.9	0.00e+00	0	38	0	945815552	60	5425
2026-01-24 10:26:53.55	330.41	30.64	-44.2	-47.5	16.3	0.00e+00	0	38	0	947912704	60	5154
2026-01-24 10:26:54.55	330.52	30.45	-44.1	-47.3	16.6	0.00e+00	0	38	0	948961280	60	4985
2026-01-24 10:26:55.55	330.62	30.27	-43.9	-46.9	17.0	0.00e+00	0	38	0	951058432	59	5055
2026-01-24 10:26:56.55	330.72	30.09	-43.6	-46.4	17.5	0.00e+00	0	38	0	953155584	59	4764
2026-01-24 10:26:57.55	330.82	29.90	-43.5	-46.1	17.7	0.00e+00	0	38	0	955252736	58	4920
2026-01-24 10:26:58.55	330.92	29.72	-43.5	-46.1	17.8	0.00e+00	0	38	0	957349888	58	4895
2026-01-24 10:26:59.56	331.02	29.54	-43.5	-46.1	17.7	0.00e+00	0	38	0	958398464	58	4919
2026-01-24 10:27:00.56	331.11	29.36	-43.7	-46.4	17.5	0.00e+00	0	38	0	960495616	58	5046
2026-01-24 10:27:01.56	331.21	29.18	-43.8	-46.6	17.3	0.00e+00	0	38	0	962592768	58	5169
2026-01-24 10:27:02.57	331.31	29.01	-44.0	-46.8	17.1	0.00e+00	0	38	0	964689920	58	5288
2026-01-24 10:27:03.57	331.40	28.83	-43.9	-46.8	17.1	0.00e+00	0	38	0	966787072	58	5298
2026-01-24 10:27:04.57	331.49	28.66	-44.1	-47.0	16.9	0.00e+00	0	38	0	967835648	58	5444
2026-01-24 10:27:05.57	331.58	28.48	-43.9	-46.9	17.0	0.00e+00	0	38	0	969932800	58	5367
2026-01-24 10:27:06.57	331.68	28.31	-43.8	-46.9	17.0	0.00e+00	0	38	0	972029952	58	5353
2026-01-24 10:27:07.57	331.77	28.14	-43.8	-46.9	17.0	0.00e+00	0	38	0	974127104	58	5366
2026-01-24 10:27:08.57	331.85	27.97	-43.7	-46.7	17.1	0.00e+00	0	38	0	976224256	58	5269
2026-01-24 10:27:09.57	331.94	27.80	-43.5	-46.5	17.3	0.00e+00	0	38	0	977272832	58	5155
2026-01-24 10:27:10.57	332.03	27.63	-43.3	-46.3	17.5	0.00e+00	0	38	0	979369984	58	5035
2026-01-24 10:27:11.57	332.12	27.46	-43.4	-46.3	17.5	0.00e+00	0	38	0	981467136	58	5039
2026-01-24 10:27:12.57	332.20	27.29	-43.4	-46.3	17.5	0.00e+00	0	38	0	983564288	58	5017
2026-01-24 10:27:13.57	332.29	27.13	-43.0	-45.8	18.0	0.00e+00	0	38	0	984612864	58	4710
2026-01-24 10:27:14.58	332.37	26.96	-42.9	-45.6	18.2	0.00e+00	0	38	0	986710016	57	4877
2026-01-24 10:27:15.58	332.45	26.80	-42.8	-45.4	18.4	0.00e+00	0	38	0	988807168	57	4767
2026-01-24 10:27:16.58	332.54	26.63	-42.7	-45.2	18.6	0.00e+00	0	38	0	990904320	57	4684
2026-01-24 10:27:17.59	332.62	26.47	-42.5	-45.0	18.8	0.00e+00	0	38	0	993001472	57	4556
2026-01-24 10:27:18.59	332.70	26.31	-42.5	-44.9	18.8	0.00e+00	0	38	0	994050048	57	4537
2026-01-24 10:27:19.59	332.78	26.15	-42.6	-45.0	18.7	0.00e+00	0	38	0	996147200	57	4596
2026-01-24 10:27:20.59	332.86	25.99	-42.6	-45.0	18.8	0.00e+00	0	38	0	998244352	57	4553
2026-01-24 10:27:21.59	332.94	25.83	-42.7	-45.1	18.7	0.00e+00	0	38	0	1000341504	57	4627
2026-01-24 10:27:22.59	333.02	25.67	-42.8	-45.2	18.6	0.00e+00	0	38	0	1002438656	57	4690
2026-01-24 10:27:23.59	333.09	25.52	-42.9	-45.3	18.4	0.00e+00	0	38	0	1003487232	57	4756
2026-01-24 10:27:24.59	333.17	25.36	-43.0	-45.5	18.2	0.00e+00	0	38	0	1005584384	57	4865
2026-01-24 10:27:25.59	333.24	25.21	-43.0	-45.7	18.1	0.00e+00	0	38	0	1007681536	57	4931
2026-01-24 10:27:26.59	333.32	25.05	-43.1	-45.8	18.0	0.00e+00	0	38	0	1009778688	57	5001
2026-01-24 10:27:27.60	333.39	24.90	-43.2	-45.9	17.9	0.00e+00	0	38	0	1011875840	57	5055
2026-01-24 10:27:28.60	333.47	24.75	-43.1	-45.8	18.0	0.00e+00	0	38	0	1012924416	57	5007
2026-01-24 10:27:29.60	333.54	24.59	-43.0	-45.7	18.1	0.00e+00	0	38	0	1015021568	57	4935
2026-01-24 10:27:30.60	333.61	24.44	-42.9	-45.5	18.3	0.00e+00	0	38	0	1017118720	57	4858
2026-01-24 10:27:31.60	333.68	24.29	-42.9	-45.5	18.3	0.00e+00	0	38	0	1019215872	57	4830
2026-01-24 10:27:32.60	333.76	24.14	-42.6	-45.2	18.6	0.00e+00	0	38	0	1020264448	57	4673
2026-01-24 10:27:33.60	333.83	24.00	-42.5	-45.0	18.7	0.00e+00	0	38	0	1022361600	57	4595
2026-01-24 10:27:34.61	333.90	23.85	-42.3	-44.8	18.9	0.00e+00	0	38	0	1024458752	56	4746
2026-01-24 10:27:35.61	333.96	23.70	-42.0	-44.4	19.3	0.00e+00	0	38	0	1026555904	56	4532
2026-01-24 10:27:36.61	334.03	23.55	-41.8	-44.2	19.3	0.00e+00	0	38	0	1028653056	55	4676
2026-01-24 10:27:37.61	334.10	23.41	-41.8	-44.2	19.3	0.00e+00	0	38	0	1029701632	55	4693
2026-01-24 10:27:38.61	334.17	23.27	-41.7	-44.1	19.4	0.00e+00	0	38	0	1031798784	55	4643
2026-01-24 10:27:39.62	334.24	23.12	-41.5	-43.8	19.7	0.00e+00	0	38	0	1033895936	55	4485
2026-01-24 10:27:40.62	334.30	22.98	-41.4	-43.6	19.9	0.00e+00	0	38	0	1035993088	54	4627
2026-01-24 10:27:41.62	334.37	22.84	-41.3	-43.6	19.9	0.00e+00	0	38	0	1038090240	54	4609
2026-01-24 10:27:42.62	334.43	22.69	-41.3	-43.5	20.0	0.00e+00	0	38	0	1039138816	54	4592
2026-01-24 10:27:43.62	334.50	22.55	-41.4	-43.6	19.9	0.00e+00	0	38	0	1041235968	54	4637
2026-01-24 10:27:44.62	334.56	22.41	-41.4	-43.6	19.9	0.00e+00	0	38	0	1043333120	54	4620
2026-01-24 10:27:45.62	334.62	22.27	-41.5	-43.7	19.8	0.00e+00	0	38	0	1045430272	54	4666
2026-01-24 10:27:46.62	334.69	22.14	-41.6	-43.8	19.7	0.00e+00	0	38	0	1047527424	54	4745
2026-01-24 10:27:47.62	334.75	22.00	-41.7	-44.0	19.6	0.00e+00	0	38	0	1048576000	54	4842
2026-01-24 10:27:48.62	334.81	21.86	-41.7	-44.1	19.5	0.00e+00	0	38	0	1050673152	54	4886
2026-01-24 10:27:49.62	334.87	21.73	-41.7	-44.1	19.5	0.00e+00	0	38	0	1052770304	54	4883
2026-01-24 10:27:50.63	334.93	21.59	-41.8	-44.2	19.3	0.00e+00	0	38	0	1054867456	54	4963
2026-01-24 10:27:51.63	334.99	21.45	-41.9	-44.3	19.2	0.00e+00	0	38	0	1056964608	54	5034
2026-01-24 10:27:52.63	335.05	21.32	-42.0	-44.4	19.1	0.00e+00	0	38	0	1058013184	54	5098
2026-01-24 10:27:53.64	335.11	21.19	-42.0	-44.5	19.0	0.00e+00	0	38	0	1060110336	54	5138
2026-01-24 10:27:54.64	335.17	21.05	-42.1	-44.7	18.9	0.00e+00	0	38	0	1062207488	54	5219
2026-01-24 10:27:55.64	335.23	20.92	-42.1	-44.7	18.9	0.00e+00	0	38	0	1064304640	54	5236
2026-01-24 10:27:56.64	335.29	20.79	-42.0	-44.6	18.9	0.00e+00	0	38	0	1065353216	54	5203
2026-01-24 10:27:57.64	335.35	20.66	-42.0	-44.6	19.0	0.00e+00	0	38	0	1067450368	54	5202
2026-01-24 10:27:58.64	335.40	20.53	-42.0	-44.6	19.0	0.00e+00	0	38	0	1069547520	54	5162
2026-01-24 10:27:59.64	335.46	20.40	-42.0	-44.5	18.7	0.00e+00	0	38	0	1071644672	54	5155
2026-01-24 10:28:00.64	335.52	20.27	-41.9	-44.4	19.2	0.00e+00	0	38	0	1073741824	54	5052
2026-01-24 10:28:01.64	335.57	20.14	-41.9	-44.4	19.2	0.00e+00	0	38	0	1074790400	54	5054
2026-01-24 10:28:02.64	335.63	20.01	-41.8	-44.2	19.3	0.00e+00	0	38	0	1076887552	54	4951
2026-01-24 10:28:03.64	335.68	19.89	-41.7	-44.1	19.4	0.00e+00	0	38	0	1078984704	54	4895
2026-01-24 10:28:04.65	335.74	19.76	-41.7	-44.1	19.4	0.00e+00	0	38	0	1081081856	54	4911
2026-01-24 10:28:05.65	335.79	19.63	-41.6	-44.0	19.5	0.00e+00	0	38	0	1083179008	54	4844
2026-01-24 10:28:06.65	335.84	19.51	-41.6	-44.0	19.5	0.00e+00	0	38	0	1084227584	54	4855
2026-01-24 10:28:07.65	335.90	19.39	-41.5	-43.9	19.6	0.00e+00	0	38	0	1086324736	54	4813
2026-01-24 10:28:08.65	335.95	19.26	-41.4	-43.9	19.6	0.00e+00	0	38	0	1088421888	54	4761
2026-01-24 10:28:09.65	336.00	19.14	-41.4	-43.8	19.7	0.00e+00	0	38	0	1090519040	54	4734
2026-01-24 10:28:10.65	336.05	19.02	-41.4	-43.9	19.6	0.00e+00	0	38	0	1091567616	54	4768
2026-01-24 10:28:11.65	336.11	18.89	-41.4	-43.8	19.7	0.00e+00	0	38	0	1093664768	54	4750
2026-01-24 10:28:12.65	336.16	18.77	-41.4	-43.8	19.7	0.00e+00	0	38	0	1095761920	54	4743
2026-01-24 10:28:13.65	336.21	18.65	-41.6	-44.0	19.5	0.00e+00	0	38	0	1097859072	54	4832
2026-01-24 10:28:14.65	336.26	18.53	-41.6	-44.1	19.5	0.00e+00	0	38	0	1099956224	54	4872
2026-01-24 10:28:15.65	336.31	18.41	-41.7	-44.1	19.5	0.00e+00	0	38	0	1101004800	54	4873
2026-01-24 10:28:16.65	336.36	18.29	-41.8	-44.2	19.3	0.00e+00	0	38	0	1103101952	54	4951
2026-01-24 10:28:17.65	336.41	18.17	-41.8	-44.1	19.4	0.00e+00	0	38	0	1105199104	54	4921
2026-01-24 10:28:18.65	336.46	18.06	-41.9	-44.3	19.2	0.00e+00	0	38	0	1107296256	54	4993
2026-01-24 10:28:19.65	336.51	17.94	-41.9	-44.3	19.2	0.00e+00	0	38	0	1109393408	54	4997
2026-01-24 10:28:20.65	336.56	17.82	-42.0	-44.4	19.1	0.00e+00	0	38	0	1110441984	54	5075
2026-01-24 10:28:21.65	336.60	17.70	-42.1	-44.5	19.0	0.00e+00	0	38	0	1112539136	54	5134
2026-01-24 10:28:22.65	336.65	17.59	-42.1	-44.5	19.0	0.00e+00	0	38	0	1114636288	54	5122
2026-01-24 10:28:23.65	336.70	17.47	-42.2	-44.6	18.9	0.00e+00	0	38	0	1116733440	55	4918
2026-01-24 10:28:24.65	336.75	17.36	-42.2	-44.7	18.9	0.00e+00	0	38	0	1118830592	55	4927
2026-01-24 10:28:25.65	336.79	17.24	-42.2	-44.7	18.8	0.00e+00	0	38	0	1119879168	55	4936
2026-01-24 10:28:26.65	336.84	17.13	-42.3	-44.8	18.7	0.00e+00	0	38	0	1121976320	55	5006
2026-01-24 10:28:27.65	336.88	17.02	-42.3	-44.8	18.7	0.00e+00	0	38	0	1124073472	55	5010
2026-01-24 10:28:28.65	336.93	16.90	-42.3	-44.9	18.7	0.00e+00	0	38	0	1126170624	55	5044
2026-01-24 10:28:29.65	336.98	16.79	-42.4	-44.9	18.6	0.00e+00	0	38	0	1127219200	55	5070
2026-01-24 10:28:30.65	337.02	16.68	-42.4	-45.0	18.6	0.00e+00	0	38	0	1129316352	55	5104
2026-01-24 10:28:31.65	337.07	16.57	-42.3	-44.9	18.7	0.00e+00	0	38	0	1131413504	55	5042
2026-01-24 10:28:32.65	337.11	16.46	-42.4	-44.9	18.6	0.00e+00	0	38	0	1133510656	55	5091
2026-01-24 10:28:33.65	337.15	16.35	-42.4	-45.0	18.5	0.00e+00	0	38	0	1135607808	55	5116
2026-01-24 10:28:34.65	337.20	16.24	-42.4	-44.9	18.6	0.00e+00	0	38	0	1136656384	55	5067
2026-01-24 10:28:35.65	337.24	16.13	-42.5	-45.0	18.5	0.00e+00	0	38	0	1138753536	55	5116
2026-01-24 10:28:36.65	337.29	16.02	-42.5	-45.0	18.4	0.00e+00	0	38	0	1140850688	55	5110
2026-01-24 10:28:37.66	337.33	15.91	-42.5	-45.0	18.5	0.00e+00	0	38	0	1142947840	55	5108
2026-01-24 10:28:38.66	337.37	15.80	-42.6	-45.0	18.5	0.00e+00	0	38	0	1145044992	55	5156
2026-01-24 10:28:39.66	337.42	15.70	-42.5	-44.9	18.6	0.00e+00	0	38	0	1146093568	55	5065
2026-01-24 10:28:40.66	337.46	15.59	-42.5	-45.0	18.5	0.00e+00	0	38	0	1148190720	55	5141
2026-01-24 10:28:41.67	337.50	15.48	-42.5	-45.0	18.5	0.00e+00	0	38	0	1150287872	55	5139
2026-01-24 10:28:42.67	337.54	15.38	-42.5	-45.1	18.4	0.00e+00	0	38	0	1152385024	55	5173
2026-01-24 10:28:43.67	337.58	15.27	-42.4	-45.0	18.4	0.00e+00	0	38	0	1154482176	55	5157
2026-01-24 10:28:44.67	337.62	15.16	-42.5	-45.1	18.4	0.00e+00	0	38	0	1155530752	55	5205
2026-01-24 10:28:45.67	337.67	15.06	-42.4	-45.1	18.4	0.00e+00	0	38	0	1157627904	55	5200
2026-01-24 10:28:46.67	337.71	14.96	-42.5	-45.2	18.2	0.00e+00	0	38	0	1159725056	55	5270
2026-01-24 10:28:47.68	337.75	14.85	-42.4	-45.2	18.3	0.00e+00	0	38	0	1161822208	55	5265
2026-01-24 10:28:48.68	337.79	14.75	-42.4	-45.2	18.2	0.00e+00	0	38	0	1163919360	55	5274
2026-01-24 10:28:49.68	337.83	14.64	-42.4	-45.2	18.3	0.00e+00	0	38	0	1164967936	55	5243
2026-01-24 10:28:50.68	337.87	14.54	-42.4	-45.3	18.2	0.00e+00	0	38	0	1167065088	55	5300
2026-01-24 10:28:51.68	337.91	14.44	-42.5	-45.3	18.1	0.00e+00	0	38	0	1169162240	55	5326
2026-01-24 10:28:52.69	337.95	14.34	-42.5	-45.3	18.1	0.00e+00	0	38	0	1171259392	55	5322
2026-01-24 10:28:53.69	337.98	14.24	-42.5	-45.4	18.1	0.00e+00	0	38	0	1172307968	55	5363
2026-01-24 10:28:54.69	338.02	14.13	-42.7	-45.5	17.9	0.00e+00	0	38	0	1174405120	55	5464
2026-01-24 10:28:55.68	338.06	14.04	-42.6	-45.5	17.9	0.00e+00	0	38	0	1176502272	55	5446
2026-01-24 10:28:56.69	338.10	13.93	-42.8	-45.8	17.9	0.00e+00	0	38	0	1178599424	56	5295
2026-01-24 10:28:57.68	338.14	13.84	-42.9	-45.9	17.7	0.00e+00	0	38	0	1180696576	56	5377
2026-01-24 10:28:58.69	338.18	13.74	-42.9	-45.9	17.7	0.00e+00	0	37	0	1181745152	56	5372
2026-01-24 10:28:59.69	338.21	13.64	-43.0	-46.1	17.6	0.00e+00	0	38	0	1183842304	56	5466
2026-01-24 10:29:00.69	338.25	13.54	-42.9	-46.0	17.6	0.00e+00	0	38	0	1185939456	56	5438
2026-01-24 10:29:01.69	338.29	13.44	-42.9	-46.2	17.4	0.00e+00	0	38	0	1188036608	56	5540
2026-01-24 10:29:02.69	338.33	13.34	-42.9	-46.1	17.5	0.00e+00	0	38	0	1190133760	56	5522
2026-01-24 10:29:03.69	338.36	13.25	-42.9	-46.2	17.4	0.00e+00	0	38	0	1191182336	56	5560
2026-01-24 10:29:04.69	338.40	13.15	-42.9	-46.2	17.4	0.00e+00	0	38	0	1193279488	56	5566
2026-01-24 10:29:05.70	338.44	13.05	-42.9	-46.3	17.4	0.00e+00	0	38	0	1195376640	56	5594
2026-01-24 10:29:06.70	338.47	12.95	-43.0	-46.4	17.3	0.00e+00	0	38	0	1197473792	56	5658
2026-01-24 10:29:07.70	338.51	12.86	-42.9	-46.3	17.3	0.00e+00	0	38	0	1199570944	56	5633
2026-01-24 10:29:08.70	338.54	12.76	-43.1	-46.4	17.2	0.00e+00	0	38	0	1200619520	56	5704
2026-01-24 10:29:09.70	338.58	12.67	-43.2	-46.5	17.2	0.00e+00	0	38	0	1202716672	56	5735
2026-01-24 10:29:10.70	338.61	12.57	-43.3	-46.6	17.1	0.00e+00	0	38	0	1204813824	57	5468
2026-01-24 10:29:11.70	338.65	12.48	-43.4	-46.6	17.0	0.00e+00	0	38	0	1206910976	57	5491
2026-01-24 10:29:12.71	338.68	12.38	-43.5	-46.7	17.0	0.00e+00	0	38	0	1207959552	57	5530
2026-01-24 10:29:13.70	338.72	12.29	-43.4	-46.5	17.1	0.00e+00	0	38	0	1210056704	57	5439
2026-01-24 10:29:14.71	338.75	12.20	-43.5	-46.6	17.0	0.00e+00	0	38	0	1212153856	57	5472
