passes_logs/2026/01/24/T1/T1__20260124_092738_NOAA_21_JPSS-2_rec.log

#Pass ID: 20260124_092738_NOAA 21 (JPSS-2)
#Satellite: NOAA 21 (JPSS-2)
#Configuration: NOAA 21
#almurnet v.1.7.20251203
#Start time: 2026-01-24 09:27:39

#Version: 2.0.20230620
#Station: T1
#Location: 37.570604 lon 55.790049 lat
#TLE: 1 54234U 22150A   26023.61190495  .00000215  00000+0  12293-3 0  9993
#TLE: 2 54234  98.7508 324.4078 0000700 226.6110 133.5008 14.19538339166032

#Time	Az	El	Level	Level2	SNR	BER	BlckErr	Temp	State	Recorded	gain1	gain2
2026-01-24 09:27:39.25	145.64	5.06	-48.3	-61.4	3.8	1.49e+00	0	38	0	0	68	15951
2026-01-24 09:27:40.24	145.61	5.13	-48.3	-61.2	3.8	1.49e+00	0	38	104	0	68	15746
2026-01-24 09:27:41.24	145.59	5.20	-48.3	-61.3	3.8	1.49e+00	0	38	104	0	68	15807
2026-01-24 09:27:42.24	145.56	5.27	-48.3	-61.3	3.8	1.49e+00	0	39	104	0	68	15801
2026-01-24 09:27:43.23	145.54	5.34	-48.3	-61.3	3.8	1.49e+00	0	38	104	0	68	15822
2026-01-24 09:27:44.23	145.52	5.42	-48.3	-61.3	3.8	1.49e+00	0	39	104	0	68	15847
2026-01-24 09:27:45.22	145.49	5.49	-48.3	-61.3	3.8	1.49e+00	0	39	104	0	68	15865
2026-01-24 09:27:46.21	145.47	5.56	-48.3	-61.3	3.8	1.49e+00	0	39	104	0	68	15842
2026-01-24 09:27:47.21	145.44	5.63	-48.3	-61.2	3.8	1.49e+00	0	39	104	0	68	15669
2026-01-24 09:27:48.21	145.42	5.70	-48.3	-61.1	3.8	1.49e+00	0	39	104	0	68	15500
2026-01-24 09:27:49.20	145.39	5.78	-48.2	-60.9	3.8	1.49e+00	0	39	104	0	68	15144
2026-01-24 09:27:50.19	145.37	5.85	-48.2	-60.8	3.8	1.49e+00	0	39	104	0	68	14917
2026-01-24 09:27:51.19	145.34	5.92	-48.2	-60.6	3.8	1.49e+00	0	39	104	0	68	14655
2026-01-24 09:27:52.19	145.32	6.00	-48.2	-60.4	3.8	1.49e+00	0	39	104	0	68	14338
2026-01-24 09:27:53.18	145.29	6.07	-48.2	-60.4	3.8	1.49e+00	0	39	104	0	68	14334
2026-01-24 09:27:54.17	145.27	6.14	-48.2	-60.4	3.8	1.49e+00	0	39	104	0	68	14339
2026-01-24 09:27:55.17	145.24	6.22	-48.2	-60.4	3.8	1.49e+00	0	39	104	0	68	14348
2026-01-24 09:27:56.16	145.22	6.29	-48.2	-60.7	3.8	1.49e+00	0	39	104	0	68	14728
2026-01-24 09:27:57.16	145.19	6.36	-48.2	-60.9	3.8	1.49e+00	0	39	104	0	68	15172
2026-01-24 09:27:58.15	145.16	6.44	-48.3	-61.2	3.8	1.49e+00	0	39	104	0	68	15713
2026-01-24 09:27:59.15	145.14	6.51	-48.3	-61.5	3.8	1.49e+00	0	39	104	0	68	16263
2026-01-24 09:28:00.14	145.11	6.59	-48.3	-61.7	3.8	1.49e+00	0	39	104	0	68	16517
2026-01-24 09:28:01.14	145.08	6.66	-48.3	-61.8	3.8	1.49e+00	0	39	104	0	68	16739
2026-01-24 09:28:02.13	145.06	6.74	-48.3	-61.6	3.8	1.49e+00	0	39	104	0	68	16477
2026-01-24 09:28:03.12	145.03	6.81	-48.3	-61.4	3.8	1.49e+00	0	39	104	0	68	16087
2026-01-24 09:28:04.12	145.00	6.89	-48.2	-61.1	3.8	1.49e+00	0	39	104	0	68	15456
2026-01-24 09:28:05.11	144.98	6.96	-48.2	-60.8	3.8	1.49e+00	0	39	104	0	68	14948
2026-01-24 09:28:06.11	144.95	7.04	-48.2	-60.4	3.8	1.49e+00	0	39	104	0	68	14371
2026-01-24 09:28:07.10	144.92	7.12	-48.1	-60.0	3.8	1.49e+00	0	39	104	0	68	13717
2026-01-24 09:28:08.10	144.89	7.19	-48.1	-59.1	4.0	1.49e+00	0	39	104	0	68	12365
2026-01-24 09:28:09.09	144.87	7.27	-48.0	-58.3	4.1	1.47e+00	0	39	104	0	68	11250
2026-01-24 09:28:10.08	144.84	7.35	-47.7	-57.0	4.5	1.44e+00	0	39	104	0	67	10255
2026-01-24 09:28:11.08	144.81	7.42	-47.5	-55.7	5.2	1.35e+00	0	39	104	0	66	9326
2026-01-24 09:28:12.08	144.78	7.50	-47.1	-54.2	6.2	3.64e-01	0	39	0	0	66	7885
2026-01-24 09:28:13.07	144.75	7.58	-46.7	-52.9	7.4	1.43e-01	0	39	0	0	65	7122
2026-01-24 09:28:14.07	144.73	7.66	-46.2	-51.4	8.8	3.75e-02	0	39	0	0	64	6404
2026-01-24 09:28:15.06	144.70	7.73	-45.7	-50.2	10.1	1.21e-02	0	39	0	0	63	5918
2026-01-24 09:28:16.06	144.67	7.81	-45.1	-49.1	11.3	2.04e-03	0	39	0	0	62	5465
2026-01-24 09:28:17.06	144.64	7.89	-44.6	-48.2	12.2	3.52e-04	0	39	0	0	61	5236
2026-01-24 09:28:18.05	144.61	7.97	-44.2	-47.6	12.8	7.93e-05	0	39	0	0	60	5177
2026-01-24 09:28:19.05	144.58	8.05	-43.8	-46.9	13.5	1.75e-05	0	39	0	0	59	5079
2026-01-24 09:28:20.04	144.55	8.13	-43.5	-46.4	14.0	6.80e-06	0	39	0	0	59	4787
2026-01-24 09:28:21.03	144.52	8.21	-43.4	-46.3	14.2	1.50e-06	0	39	0	0	58	4993
2026-01-24 09:28:22.03	144.49	8.29	-43.3	-46.1	14.3	0.00e+00	0	39	0	0	58	4899
2026-01-24 09:28:23.03	144.46	8.37	-43.4	-46.3	14.2	7.00e-07	0	39	0	0	58	4998
2026-01-24 09:28:24.02	144.43	8.45	-43.6	-46.5	13.9	7.00e-07	0	39	0	0	58	5146
2026-01-24 09:28:25.01	144.40	8.53	-43.9	-47.0	13.5	6.10e-06	0	39	0	0	58	5412
2026-01-24 09:28:26.01	144.37	8.61	-44.3	-47.6	12.8	4.80e-05	0	39	0	0	59	5514
2026-01-24 09:28:27.01	144.34	8.69	-44.8	-48.6	11.8	2.75e-04	0	39	0	0	60	5802
2026-01-24 09:28:28.00	144.31	8.77	-45.3	-49.5	10.9	1.76e-03	0	39	0	0	61	6103
2026-01-24 09:28:28.99	144.28	8.85	-45.9	-50.8	9.6	6.61e-03	0	39	0	0	62	6653
2026-01-24 09:28:29.99	144.24	8.93	-46.5	-52.1	8.2	3.98e-02	0	39	0	0	63	7352
2026-01-24 09:28:30.98	144.21	9.02	-47.0	-53.8	6.5	1.66e-01	0	39	0	0	64	8400
2026-01-24 09:28:31.98	144.18	9.10	-43.0	-45.6	14.8	3.00e-06	0	39	0	0	58	4634
2026-01-24 09:28:32.98	144.15	9.18	-44.2	-47.4	13.1	1.44e-05	0	39	0	0	59	5395
2026-01-24 09:28:33.97	144.12	9.26	-48.0	-60.6	3.8	5.76e-01	0	39	104	0	66	16405
2026-01-24 09:28:34.96	144.08	9.35	-46.3	-51.7	8.7	1.14e+00	0	39	0	0	64	6574
2026-01-24 09:28:35.96	144.05	9.43	-42.9	-45.5	15.1	3.00e-06	0	39	0	0	57	4818
2026-01-24 09:28:36.95	144.02	9.51	-42.9	-45.4	15.1	0.00e+00	0	39	0	0	57	4793
2026-01-24 09:28:37.95	143.99	9.60	-42.5	-45.0	15.5	0.00e+00	0	39	0	0	57	4559
2026-01-24 09:28:38.94	143.95	9.68	-41.7	-43.9	16.4	0.00e+00	0	39	0	0	55	4526
2026-01-24 09:28:39.93	143.92	9.77	-41.1	-43.2	17.1	0.00e+00	0	39	0	0	54	4434
2026-01-24 09:28:40.93	143.89	9.85	-40.7	-42.7	17.6	0.00e+00	0	39	0	0	53	4424
2026-01-24 09:28:41.92	143.85	9.93	-40.4	-42.4	17.9	0.00e+00	0	39	0	0	52	4507
2026-01-24 09:28:42.92	143.82	10.02	-40.2	-42.1	18.2	0.00e+00	0	39	0	0	52	4386
2026-01-24 09:28:43.91	143.78	10.11	-40.2	-42.2	18.1	0.00e+00	0	39	0	0	52	4409
2026-01-24 09:28:44.91	143.75	10.19	-40.2	-42.1	18.2	0.00e+00	0	39	0	0	52	4374
2026-01-24 09:28:45.90	143.71	10.28	-40.2	-42.1	18.2	0.00e+00	0	39	0	0	52	4352
2026-01-24 09:28:46.90	143.68	10.36	-40.2	-42.1	18.2	0.00e+00	0	39	0	0	52	4386
2026-01-24 09:28:47.89	143.64	10.45	-40.1	-42.0	18.3	0.00e+00	0	39	0	0	52	4339
2026-01-24 09:28:48.89	143.61	10.54	-40.0	-41.9	18.5	0.00e+00	0	39	0	0	51	4528
2026-01-24 09:28:49.88	143.57	10.62	-40.0	-41.9	18.5	0.00e+00	0	39	0	0	51	4525
2026-01-24 09:28:50.88	143.54	10.71	-40.1	-42.0	18.5	0.00e+00	0	39	0	0	51	4555
2026-01-24 09:28:51.87	143.50	10.80	-39.9	-41.8	18.6	0.00e+00	0	39	0	0	51	4456
2026-01-24 09:28:52.87	143.47	10.89	-39.9	-41.8	18.6	0.00e+00	0	39	0	0	51	4469
2026-01-24 09:28:53.86	143.43	10.98	-40.1	-42.0	18.4	0.00e+00	0	39	0	0	51	4570
2026-01-24 09:28:54.86	143.39	11.07	-39.9	-41.7	18.7	0.00e+00	0	39	0	0	51	4436
2026-01-24 09:28:55.85	143.36	11.16	-39.8	-41.6	18.8	0.00e+00	0	39	0	0	51	4376
2026-01-24 09:28:56.85	143.32	11.24	-39.8	-41.7	18.8	0.00e+00	0	39	0	0	51	4394
2026-01-24 09:28:57.85	143.28	11.34	-39.7	-41.5	18.9	0.00e+00	0	39	0	0	51	4311
2026-01-24 09:28:58.84	143.24	11.42	-39.8	-41.7	18.7	0.00e+00	0	39	0	0	51	4407
2026-01-24 09:28:59.83	143.21	11.51	-39.6	-41.4	19.0	0.00e+00	0	39	0	0	51	4288
2026-01-24 09:29:00.83	143.17	11.61	-39.6	-41.4	19.0	0.00e+00	0	39	0	0	51	4278
2026-01-24 09:29:01.82	143.13	11.70	-39.6	-41.4	19.0	0.00e+00	0	39	0	0	51	4282
2026-01-24 09:29:02.82	143.09	11.79	-39.6	-41.4	19.0	0.00e+00	0	39	0	0	51	4257
2026-01-24 09:29:03.81	143.05	11.88	-39.5	-41.3	19.1	0.00e+00	0	39	0	0	50	4447
2026-01-24 09:29:04.80	143.01	11.97	-39.5	-41.3	19.2	0.00e+00	0	39	0	0	50	4451
2026-01-24 09:29:05.80	142.97	12.06	-39.6	-41.4	19.1	0.00e+00	0	39	0	0	50	4501
2026-01-24 09:29:06.79	142.93	12.16	-39.4	-41.2	19.2	0.00e+00	0	39	0	0	50	4407
2026-01-24 09:29:07.78	142.89	12.25	-39.3	-41.1	19.3	0.00e+00	0	39	0	0	50	4347
2026-01-24 09:29:08.78	142.85	12.34	-39.4	-41.2	19.3	0.00e+00	0	39	0	0	50	4414
2026-01-24 09:29:09.77	142.81	12.44	-39.3	-41.1	19.3	0.00e+00	0	39	0	0	50	4362
2026-01-24 09:29:10.76	142.77	12.53	-39.2	-41.0	19.4	0.00e+00	0	39	0	0	50	4321
2026-01-24 09:29:11.76	142.73	12.62	-39.3	-41.0	19.4	0.00e+00	0	39	0	0	50	4334
2026-01-24 09:29:12.76	142.69	12.72	-39.2	-41.0	19.4	0.00e+00	0	39	0	0	50	4301
2026-01-24 09:29:13.75	142.65	12.81	-39.2	-40.9	19.5	0.00e+00	0	39	0	0	50	4276
2026-01-24 09:29:14.74	142.61	12.91	-39.2	-40.9	19.5	0.00e+00	0	39	0	0	50	4291
2026-01-24 09:29:15.74	142.56	13.01	-39.1	-40.8	19.5	0.00e+00	0	39	0	0	50	4241
2026-01-24 09:29:16.73	142.52	13.10	-39.1	-40.9	19.5	0.00e+00	0	39	0	0	50	4266
2026-01-24 09:29:17.73	142.48	13.20	-39.1	-40.9	19.5	0.00e+00	0	39	0	0	50	4247
2026-01-24 09:29:18.73	142.43	13.30	-39.1	-40.8	19.5	0.00e+00	0	39	0	0	50	4242
2026-01-24 09:29:19.72	142.39	13.39	-39.1	-40.8	19.6	0.00e+00	0	39	0	0	50	4220
2026-01-24 09:29:20.71	142.35	13.49	-39.0	-40.8	19.6	0.00e+00	0	39	0	0	50	4214
2026-01-24 09:29:21.71	142.30	13.59	-39.1	-40.8	19.5	0.00e+00	0	40	0	0	50	4240
2026-01-24 09:29:22.71	142.26	13.69	-39.1	-40.8	19.5	0.00e+00	0	39	0	0	50	4238
2026-01-24 09:29:23.70	142.21	13.78	-39.1	-40.8	19.5	0.00e+00	0	39	0	0	50	4239
2026-01-24 09:29:24.69	142.17	13.88	-39.1	-40.9	19.2	0.00e+00	0	39	0	0	50	4245
2026-01-24 09:29:25.68	142.12	13.98	-39.1	-40.8	19.6	0.00e+00	0	39	0	0	50	4229
2026-01-24 09:29:26.68	142.08	14.08	-39.1	-40.8	19.5	0.00e+00	0	39	0	0	50	4232
2026-01-24 09:29:27.68	142.03	14.18	-39.1	-40.9	19.5	0.00e+00	0	39	0	0	50	4248
2026-01-24 09:29:28.67	141.99	14.28	-39.2	-41.0	19.4	0.00e+00	0	39	0	0	50	4295
2026-01-24 09:29:29.67	141.94	14.39	-39.0	-40.8	19.6	0.00e+00	0	39	0	0	50	4203
2026-01-24 09:29:30.66	141.89	14.49	-39.2	-40.9	19.4	0.00e+00	0	39	0	0	50	4287
2026-01-24 09:29:31.66	141.85	14.59	-39.2	-40.9	19.4	0.00e+00	0	39	0	0	50	4278
2026-01-24 09:29:32.65	141.80	14.69	-39.1	-40.9	19.5	0.00e+00	0	39	0	0	50	4265
2026-01-24 09:29:33.65	141.75	14.79	-39.2	-41.0	19.4	0.00e+00	0	39	0	0	50	4308
2026-01-24 09:29:34.64	141.70	14.90	-39.3	-41.0	19.3	0.00e+00	0	39	0	0	50	4330
2026-01-24 09:29:35.64	141.65	15.00	-39.2	-41.0	19.4	0.00e+00	0	39	0	0	50	4313
2026-01-24 09:29:36.63	141.60	15.10	-39.3	-41.1	19.3	0.00e+00	0	39	0	0	50	4351
2026-01-24 09:29:37.63	141.55	15.21	-39.2	-41.0	19.4	0.00e+00	0	39	0	0	50	4307
2026-01-24 09:29:38.62	141.51	15.31	-39.4	-41.2	19.2	0.00e+00	0	39	0	0	50	4401
2026-01-24 09:29:39.61	141.46	15.42	-39.4	-41.2	19.2	0.00e+00	0	39	0	0	50	4399
2026-01-24 09:29:40.60	141.41	15.52	-39.4	-41.2	19.2	0.00e+00	0	39	0	0	50	4396
2026-01-24 09:29:41.60	141.35	15.63	-39.3	-41.1	19.3	0.00e+00	0	39	0	0	50	4376
2026-01-24 09:29:42.60	141.30	15.74	-39.4	-41.2	19.3	0.00e+00	0	39	0	0	50	4396
2026-01-24 09:29:43.59	141.25	15.84	-39.3	-41.1	19.3	0.00e+00	0	39	0	0	50	4371
2026-01-24 09:29:44.59	141.20	15.95	-39.4	-41.1	19.3	0.00e+00	0	39	0	0	50	4390
2026-01-24 09:29:45.58	141.15	16.06	-39.4	-41.2	19.2	0.00e+00	0	39	0	0	50	4429
2026-01-24 09:29:46.57	141.09	16.17	-39.5	-41.3	19.1	0.00e+00	0	39	0	0	50	4460
2026-01-24 09:29:47.57	141.04	16.28	-39.5	-41.3	19.1	0.00e+00	0	39	0	0	50	4477
2026-01-24 09:29:48.57	140.99	16.39	-39.5	-41.3	19.1	0.00e+00	0	39	0	0	50	4480
2026-01-24 09:29:49.56	140.93	16.50	-39.5	-41.3	19.2	0.00e+00	0	39	0	0	50	4449
2026-01-24 09:29:50.55	140.88	16.61	-39.4	-41.2	19.2	0.00e+00	0	39	0	0	50	4428
2026-01-24 09:29:51.55	140.82	16.72	-39.4	-41.2	19.3	0.00e+00	0	40	0	0	50	4428
2026-01-24 09:29:52.55	140.77	16.83	-39.4	-41.2	19.3	0.00e+00	0	40	0	0	50	4414
2026-01-24 09:29:53.54	140.71	16.94	-39.4	-41.2	19.3	0.00e+00	0	39	0	0	50	4432
2026-01-24 09:29:54.53	140.66	17.05	-39.5	-41.3	19.2	0.00e+00	0	39	0	0	50	4487
2026-01-24 09:29:55.53	140.60	17.17	-39.5	-41.3	19.3	0.00e+00	0	39	0	0	50	4447
2026-01-24 09:29:56.52	140.54	17.28	-39.5	-41.3	19.3	0.00e+00	0	39	0	0	50	4442
2026-01-24 09:29:57.52	140.49	17.39	-39.4	-41.2	19.3	0.00e+00	0	39	0	0	50	4420
2026-01-24 09:29:58.52	140.43	17.51	-39.4	-41.1	19.3	0.00e+00	0	39	0	0	50	4390
2026-01-24 09:29:59.51	140.37	17.62	-39.4	-41.2	19.3	0.00e+00	0	39	0	0	50	4402
2026-01-24 09:30:00.50	140.31	17.74	-39.4	-41.2	19.3	0.00e+00	0	39	0	0	50	4392
2026-01-24 09:30:01.50	140.25	17.85	-39.4	-41.2	19.3	0.00e+00	0	39	0	0	50	4420
2026-01-24 09:30:02.49	140.19	17.97	-39.5	-41.3	19.2	0.00e+00	0	39	0	0	50	4456
2026-01-24 09:30:03.49	140.13	18.08	-39.6	-41.4	19.1	0.00e+00	0	39	0	0	50	4517
2026-01-24 09:30:04.48	140.07	18.20	-39.6	-41.4	19.1	0.00e+00	0	39	0	0	50	4539
2026-01-24 09:30:05.47	140.01	18.32	-39.6	-41.4	19.1	0.00e+00	0	39	0	0	50	4530
2026-01-24 09:30:06.46	139.95	18.44	-39.6	-41.4	19.2	0.00e+00	0	39	0	0	50	4510
2026-01-24 09:30:07.46	139.89	18.56	-39.6	-41.4	19.1	0.00e+00	0	39	0	0	50	4526
2026-01-24 09:30:08.46	139.82	18.68	-39.6	-41.4	19.1	0.00e+00	0	39	0	0	50	4506
2026-01-24 09:30:09.45	139.76	18.79	-39.5	-41.3	19.2	0.00e+00	0	39	0	0	50	4487
2026-01-24 09:30:10.44	139.70	18.91	-39.6	-41.4	19.1	0.00e+00	0	39	0	0	50	4544
2026-01-24 09:30:11.44	139.63	19.04	-39.6	-41.4	19.1	0.00e+00	0	39	0	0	50	4519
2026-01-24 09:30:12.44	139.57	19.16	-39.7	-41.5	19.1	0.00e+00	0	39	0	0	50	4552
2026-01-24 09:30:13.43	139.50	19.28	-39.5	-41.3	19.2	0.00e+00	0	39	0	0	50	4479
2026-01-24 09:30:14.42	139.44	19.40	-39.4	-41.2	19.2	0.00e+00	0	39	0	0	50	4438
2026-01-24 09:30:15.42	139.37	19.53	-39.5	-41.3	19.2	0.00e+00	0	39	0	0	50	4466
2026-01-24 09:30:16.41	139.30	19.65	-39.4	-41.2	19.2	0.00e+00	0	39	0	0	50	4430
2026-01-24 09:30:17.41	139.23	19.77	-39.4	-41.2	19.3	0.00e+00	0	39	0	0	50	4412
2026-01-24 09:30:18.41	139.17	19.90	-39.5	-41.3	19.2	0.00e+00	0	39	0	0	50	4448
2026-01-24 09:30:19.40	139.10	20.02	-39.3	-41.1	19.4	0.00e+00	0	39	0	0	50	4359
2026-01-24 09:30:20.39	139.03	20.15	-39.2	-41.0	19.5	0.00e+00	0	39	0	0	50	4298
2026-01-24 09:30:21.39	138.96	20.28	-39.2	-41.0	19.5	0.00e+00	0	39	0	0	50	4316
2026-01-24 09:30:22.39	138.89	20.40	-39.1	-40.8	19.7	0.00e+00	0	39	0	0	50	4213
2026-01-24 09:30:23.38	138.82	20.53	-39.1	-40.8	19.6	0.00e+00	0	39	0	0	50	4227
2026-01-24 09:30:24.37	138.75	20.66	-39.0	-40.7	19.8	0.00e+00	0	39	0	0	50	4167
2026-01-24 09:30:25.37	138.67	20.79	-38.9	-40.6	19.9	0.00e+00	0	39	0	0	49	4371
2026-01-24 09:30:26.36	138.60	20.92	-38.8	-40.5	19.9	0.00e+00	0	39	0	0	49	4331
2026-01-24 09:30:27.36	138.53	21.05	-38.7	-40.4	20.0	0.00e+00	0	39	0	0	49	4266
2026-01-24 09:30:28.36	138.45	21.18	-38.8	-40.5	20.0	0.00e+00	0	39	0	0	49	4303
2026-01-24 09:30:29.35	138.38	21.31	-38.6	-40.3	20.1	0.00e+00	0	39	0	0	49	4201
2026-01-24 09:30:30.35	138.30	21.45	-38.5	-40.1	20.3	0.00e+00	0	39	0	0	48	4377
2026-01-24 09:30:31.34	138.23	21.58	-38.4	-40.1	20.3	0.00e+00	0	39	0	0	48	4346
2026-01-24 09:30:32.34	138.15	21.71	-38.3	-39.9	20.4	0.00e+00	0	39	0	0	48	4276
2026-01-24 09:30:33.33	138.07	21.85	-38.3	-40.0	20.4	0.00e+00	0	39	0	0	48	4318
2026-01-24 09:30:34.33	137.99	21.98	-38.3	-40.0	20.4	0.00e+00	0	39	0	0	48	4320
2026-01-24 09:30:35.32	137.91	22.12	-38.3	-40.0	20.4	0.00e+00	0	39	0	0	48	4298
2026-01-24 09:30:36.31	137.83	22.25	-38.3	-40.0	20.4	0.00e+00	0	39	0	0	48	4318
2026-01-24 09:30:37.31	137.75	22.39	-38.3	-40.0	20.4	0.00e+00	0	40	0	0	48	4316
2026-01-24 09:30:38.30	137.67	22.53	-38.1	-39.8	20.6	0.00e+00	0	39	0	0	48	4205
2026-01-24 09:30:39.30	137.59	22.66	-37.9	-39.5	20.6	0.00e+00	0	39	0	0	47	4327
2026-01-24 09:30:40.29	137.51	22.80	-37.9	-39.5	20.5	0.00e+00	0	39	0	0	47	4339
2026-01-24 09:30:41.28	137.42	22.94	-37.9	-39.5	20.5	0.00e+00	0	39	0	0	47	4339
2026-01-24 09:30:42.28	137.34	23.08	-37.9	-39.6	20.5	0.00e+00	0	39	0	0	47	4358
2026-01-24 09:30:43.27	137.26	23.22	-37.9	-39.6	20.5	0.00e+00	0	39	0	0	47	4357
2026-01-24 09:30:44.27	137.17	23.36	-37.9	-39.6	20.5	0.00e+00	0	39	0	0	47	4352
2026-01-24 09:30:45.26	137.08	23.51	-38.0	-39.7	20.4	0.00e+00	0	39	0	0	47	4394
2026-01-24 09:30:46.26	137.00	23.65	-38.0	-39.6	20.5	0.00e+00	0	39	0	0	47	4381
2026-01-24 09:30:47.26	136.91	23.79	-38.0	-39.6	20.5	0.00e+00	0	39	0	0	47	4380
2026-01-24 09:30:48.25	136.82	23.94	-38.0	-39.6	20.5	0.00e+00	0	39	0	0	47	4378
2026-01-24 09:30:49.24	136.73	24.08	-38.1	-39.8	20.4	0.00e+00	0	39	0	0	47	4459
2026-01-24 09:30:50.24	136.64	24.23	-38.1	-39.7	20.5	0.00e+00	0	39	0	0	47	4438
2026-01-24 09:30:51.23	136.55	24.38	-38.2	-39.8	20.4	0.00e+00	0	39	0	0	47	4486
2026-01-24 09:30:52.23	136.45	24.52	-38.1	-39.8	20.4	0.00e+00	0	39	0	0	47	4449
2026-01-24 09:30:53.22	136.36	24.67	-38.1	-39.8	20.4	0.00e+00	0	39	0	0	47	4475
2026-01-24 09:30:54.22	136.26	24.82	-38.1	-39.8	20.4	0.00e+00	0	39	0	0	47	4448
2026-01-24 09:30:55.21	136.17	24.97	-38.2	-39.9	20.3	0.00e+00	0	39	0	0	47	4494
2026-01-24 09:30:56.20	136.07	25.12	-38.3	-39.9	20.3	0.00e+00	0	39	0	0	47	4538
2026-01-24 09:30:57.20	135.98	25.27	-38.2	-39.9	20.3	0.00e+00	0	39	0	0	47	4516
2026-01-24 09:30:58.20	135.88	25.42	-38.2	-39.8	20.4	0.00e+00	0	39	0	0	47	4493
2026-01-24 09:30:59.19	135.78	25.58	-38.2	-39.9	20.4	0.00e+00	0	39	0	0	47	4513
2026-01-24 09:31:00.19	135.68	25.73	-38.3	-40.0	20.2	0.00e+00	0	39	0	0	47	4557
2026-01-24 09:31:01.18	135.58	25.88	-38.4	-40.1	20.1	0.00e+00	0	39	0	0	47	4622
2026-01-24 09:31:02.17	135.48	26.04	-38.6	-40.2	20.0	0.00e+00	0	39	0	0	47	4703
2026-01-24 09:31:03.17	135.37	26.19	-38.6	-40.3	20.0	0.00e+00	0	39	0	0	47	4713
2026-01-24 09:31:04.16	135.27	26.35	-38.7	-40.4	19.8	0.00e+00	0	39	0	0	47	4784
2026-01-24 09:31:05.15	135.17	26.51	-38.9	-40.6	19.8	0.00e+00	0	39	0	0	48	4650
2026-01-24 09:31:06.15	135.06	26.67	-39.0	-40.7	19.8	0.00e+00	0	39	0	0	48	4676
2026-01-24 09:31:07.15	134.95	26.83	-39.1	-40.8	19.7	0.00e+00	0	40	0	0	48	4742
2026-01-24 09:31:08.14	134.84	26.99	-39.0	-40.8	19.7	0.00e+00	0	39	0	0	48	4711
2026-01-24 09:31:09.14	134.73	27.15	-39.1	-40.9	19.6	0.00e+00	0	40	0	0	48	4763
2026-01-24 09:31:10.13	134.62	27.31	-39.1	-40.8	19.7	0.00e+00	0	39	0	0	48	4723
2026-01-24 09:31:11.12	134.51	27.47	-39.1	-40.9	19.7	0.00e+00	0	39	0	0	48	4772
2026-01-24 09:31:12.12	134.40	27.63	-39.1	-40.8	19.8	0.00e+00	0	39	0	0	48	4714
2026-01-24 09:31:13.12	134.28	27.80	-39.1	-40.9	19.7	0.00e+00	0	39	0	0	48	4777
2026-01-24 09:31:14.11	134.17	27.96	-39.0	-40.7	19.9	0.00e+00	0	39	0	0	48	4669
2026-01-24 09:31:15.11	134.05	28.13	-39.0	-40.7	19.8	0.00e+00	0	39	0	0	48	4688
2026-01-24 09:31:16.10	133.93	28.30	-39.0	-40.7	19.8	0.00e+00	0	40	0	0	48	4700
2026-01-24 09:31:17.10	133.81	28.46	-39.0	-40.7	19.9	0.00e+00	0	39	0	0	48	4695
2026-01-24 09:31:18.09	133.69	28.63	-39.0	-40.7	19.9	0.00e+00	0	39	0	0	48	4660
2026-01-24 09:31:19.09	133.57	28.80	-39.0	-40.7	19.9	0.00e+00	0	39	0	0	48	4655
2026-01-24 09:31:20.08	133.45	28.97	-38.9	-40.6	19.9	0.00e+00	0	39	0	0	48	4611
2026-01-24 09:31:21.08	133.32	29.14	-38.8	-40.5	20.0	0.00e+00	0	39	0	0	48	4580
2026-01-24 09:31:22.07	133.20	29.31	-38.9	-40.5	20.0	0.00e+00	0	39	0	0	48	4597
2026-01-24 09:31:23.07	133.07	29.49	-38.9	-40.6	19.9	0.00e+00	0	39	0	0	48	4634
2026-01-24 09:31:24.06	132.94	29.66	-38.9	-40.6	19.9	0.00e+00	0	39	0	0	48	4605
2026-01-24 09:31:25.06	132.81	29.84	-38.9	-40.6	19.8	0.00e+00	0	39	0	0	48	4647
2026-01-24 09:31:26.05	132.68	30.01	-39.0	-40.7	19.8	0.00e+00	0	39	0	0	48	4685
2026-01-24 09:31:27.05	132.55	30.19	-39.0	-40.8	19.7	0.00e+00	0	39	0	0	48	4717
2026-01-24 09:31:28.04	132.41	30.36	-39.0	-40.7	19.8	0.00e+00	0	39	0	0	48	4696
2026-01-24 09:31:29.04	132.28	30.54	-39.0	-40.8	19.8	0.00e+00	0	39	0	0	48	4721
2026-01-24 09:31:30.03	132.14	30.72	-38.9	-40.6	19.9	0.00e+00	0	39	0	0	48	4634
2026-01-24 09:31:31.02	132.00	30.90	-38.9	-40.7	19.9	0.00e+00	0	39	0	0	48	4655
2026-01-24 09:31:32.02	131.86	31.08	-38.9	-40.6	20.0	0.00e+00	0	39	0	0	48	4629
2026-01-24 09:31:33.02	131.72	31.27	-38.8	-40.5	20.1	0.00e+00	0	39	0	0	48	4571
2026-01-24 09:31:34.01	131.58	31.45	-38.8	-40.5	20.1	0.00e+00	0	39	0	0	48	4555
2026-01-24 09:31:35.00	131.43	31.63	-38.8	-40.4	20.1	0.00e+00	0	39	0	0	48	4533
2026-01-24 09:31:36.00	131.28	31.82	-38.8	-40.5	20.0	0.00e+00	0	39	0	0	48	4570
2026-01-24 09:31:36.99	131.13	32.00	-38.9	-40.6	19.6	0.00e+00	0	39	0	0	48	4618
2026-01-24 09:31:37.99	130.98	32.19	-39.0	-40.7	19.7	0.00e+00	0	39	0	0	48	4660
2026-01-24 09:31:38.98	130.83	32.38	-39.2	-41.0	19.5	0.00e+00	0	39	0	0	49	4562
2026-01-24 09:31:39.97	130.68	32.56	-39.3	-41.0	19.4	0.00e+00	0	39	0	0	49	4592
2026-01-24 09:31:40.97	130.52	32.75	-39.4	-41.2	19.4	0.00e+00	0	39	0	0	49	4663
2026-01-24 09:31:41.96	130.36	32.94	-39.4	-41.2	19.4	0.00e+00	0	40	0	0	49	4667
2026-01-24 09:31:42.96	130.20	33.14	-39.5	-41.3	19.4	0.00e+00	0	39	0	0	49	4707
2026-01-24 09:31:43.95	130.04	33.33	-39.6	-41.4	19.3	0.00e+00	0	39	0	0	49	4763
2026-01-24 09:31:44.94	129.88	33.52	-39.7	-41.5	19.1	0.00e+00	0	39	0	0	50	4582
2026-01-24 09:31:45.94	129.71	33.72	-39.7	-41.5	19.3	0.00e+00	0	39	0	0	50	4549
2026-01-24 09:31:46.93	129.55	33.91	-39.9	-41.7	19.1	0.00e+00	0	39	0	0	50	4690
2026-01-24 09:31:47.93	129.38	34.11	-39.9	-41.7	19.1	0.00e+00	0	39	0	0	50	4692
2026-01-24 09:31:48.92	129.21	34.30	-39.8	-41.6	19.2	0.00e+00	0	39	0	0	50	4622
2026-01-24 09:31:49.92	129.03	34.50	-39.7	-41.5	19.3	0.00e+00	0	39	0	0	50	4556
2026-01-24 09:31:50.91	128.86	34.70	-39.7	-41.5	19.3	0.00e+00	0	39	0	0	50	4561
2026-01-24 09:31:51.91	128.68	34.90	-39.7	-41.5	19.2	0.00e+00	0	39	0	0	50	4569
2026-01-24 09:31:52.90	128.50	35.10	-39.8	-41.6	19.1	0.00e+00	0	39	0	0	50	4613
2026-01-24 09:31:53.90	128.31	35.30	-39.9	-41.7	19.0	0.00e+00	0	39	0	0	50	4675
2026-01-24 09:31:54.89	128.13	35.51	-40.1	-42.0	18.8	0.00e+00	0	39	0	0	50	4820
2026-01-24 09:31:55.88	127.94	35.71	-40.2	-42.0	18.7	0.00e+00	0	39	0	0	51	4583
2026-01-24 09:31:56.88	127.75	35.91	-40.2	-42.1	18.7	0.00e+00	0	39	0	0	51	4603
2026-01-24 09:31:57.87	127.56	36.12	-40.3	-42.2	18.6	0.00e+00	0	39	0	0	51	4669
2026-01-24 09:31:58.87	127.37	36.33	-40.3	-42.1	18.6	0.00e+00	0	39	0	0	51	4637
2026-01-24 09:31:59.86	127.17	36.53	-40.2	-42.1	18.6	0.00e+00	0	39	0	0	51	4601
2026-01-24 09:32:00.86	126.97	36.74	-40.3	-42.1	18.6	0.00e+00	0	39	0	0	51	4624
2026-01-24 09:32:01.85	126.77	36.95	-40.3	-42.2	18.5	0.00e+00	0	39	0	0	51	4670
2026-01-24 09:32:02.84	126.56	37.16	-40.3	-42.1	18.7	0.00e+00	0	39	0	0	51	4617
2026-01-24 09:32:03.84	126.36	37.37	-40.4	-42.2	18.5	0.00e+00	0	39	0	0	51	4693
2026-01-24 09:32:04.83	126.15	37.58	-40.5	-42.3	18.4	0.00e+00	0	39	0	0	51	4751
2026-01-24 09:32:05.82	125.93	37.79	-40.4	-42.2	18.5	0.00e+00	0	39	0	0	51	4704
2026-01-24 09:32:06.81	125.72	38.01	-40.6	-42.4	18.3	0.00e+00	0	39	0	0	51	4807
2026-01-24 09:32:07.81	125.50	38.22	-40.5	-42.4	18.3	0.00e+00	0	39	0	0	51	4786
2026-01-24 09:32:08.80	125.28	38.44	-40.6	-42.5	18.2	0.00e+00	0	39	0	0	51	4854
2026-01-24 09:32:09.80	125.05	38.66	-40.7	-42.6	18.2	0.00e+00	0	39	0	0	51	4877
2026-01-24 09:32:10.79	124.83	38.87	-40.5	-42.4	18.2	0.00e+00	0	39	0	0	52	4526
2026-01-24 09:32:11.79	124.59	39.09	-40.5	-42.4	18.2	0.00e+00	0	39	0	0	52	4539
2026-01-24 09:32:12.79	124.36	39.31	-40.6	-42.5	18.1	0.00e+00	0	39	0	0	52	4580
2026-01-24 09:32:13.78	124.12	39.53	-40.8	-42.7	18.0	0.00e+00	0	39	0	0	52	4693
2026-01-24 09:32:14.77	123.88	39.75	-41.0	-42.9	17.8	0.00e+00	0	39	0	0	52	4802
2026-01-24 09:32:15.77	123.64	39.97	-40.9	-42.9	17.8	0.00e+00	0	39	0	0	52	4773
2026-01-24 09:32:16.76	123.39	40.19	-40.8	-42.7	18.1	0.00e+00	0	39	0	0	52	4674
2026-01-24 09:32:17.76	123.14	40.42	-40.7	-42.6	18.2	0.00e+00	0	39	0	0	52	4624
2026-01-24 09:32:18.75	122.89	40.64	-40.6	-42.5	18.3	0.00e+00	0	39	0	0	52	4568
2026-01-24 09:32:19.75	122.63	40.87	-40.6	-42.5	18.2	0.00e+00	0	39	0	0	52	4595
2026-01-24 09:32:20.74	122.37	41.09	-40.6	-42.5	18.3	0.00e+00	0	39	0	0	52	4596
2026-01-24 09:32:21.73	122.10	41.32	-40.6	-42.4	18.4	0.00e+00	0	39	0	0	52	4539
2026-01-24 09:32:22.73	121.83	41.54	-40.7	-42.6	18.2	0.00e+00	0	39	0	0	52	4628
2026-01-24 09:32:23.72	121.56	41.77	-40.8	-42.7	18.1	0.00e+00	0	39	0	0	52	4692
2026-01-24 09:32:24.72	121.28	42.00	-40.9	-42.9	18.0	0.00e+00	0	39	0	0	52	4760
2026-01-24 09:32:25.71	121.01	42.23	-41.3	-43.3	17.6	0.00e+00	0	39	0	0	53	4722
2026-01-24 09:32:26.70	120.72	42.46	-41.3	-43.3	17.6	0.00e+00	0	39	0	0	53	4712
2026-01-24 09:32:27.70	120.43	42.69	-41.5	-43.6	17.3	0.00e+00	0	39	0	0	53	4894
2026-01-24 09:32:28.69	120.14	42.92	-41.5	-43.5	17.4	0.00e+00	0	39	0	0	53	4842
2026-01-24 09:32:29.69	119.84	43.15	-41.3	-43.3	17.5	0.00e+00	0	39	0	0	53	4749
2026-01-24 09:32:30.68	119.54	43.38	-41.0	-42.9	17.9	0.00e+00	0	39	0	0	53	4521
2026-01-24 09:32:31.67	119.24	43.61	-41.0	-43.0	17.9	0.00e+00	0	39	0	0	53	4551
2026-01-24 09:32:32.67	118.93	43.84	-41.0	-43.0	17.9	0.00e+00	0	39	0	0	53	4563
2026-01-24 09:32:33.66	118.61	44.08	-41.3	-43.3	17.6	0.00e+00	0	39	0	0	53	4714
2026-01-24 09:32:34.65	118.29	44.31	-41.5	-43.5	17.3	0.00e+00	0	39	0	0	53	4846
2026-01-24 09:32:35.65	117.97	44.54	-41.8	-43.9	17.0	0.00e+00	0	39	0	0	54	4785
2026-01-24 09:32:36.64	117.64	44.78	-41.8	-43.9	16.9	0.00e+00	0	39	0	0	54	4786
2026-01-24 09:32:37.64	117.30	45.01	-41.7	-43.8	17.1	0.00e+00	0	39	0	0	54	4741
2026-01-24 09:32:38.64	116.96	45.25	-41.5	-43.5	17.4	0.00e+00	0	39	0	0	54	4551
2026-01-24 09:32:39.63	116.62	45.48	-41.3	-43.3	17.5	0.00e+00	0	39	0	0	54	4468
2026-01-24 09:32:40.63	116.27	45.72	-41.2	-43.1	17.6	0.00e+00	0	39	0	0	54	4359
2026-01-24 09:32:41.62	115.92	45.95	-41.2	-43.2	17.6	0.00e+00	0	39	0	0	54	4394
2026-01-24 09:32:42.62	115.56	46.19	-41.5	-43.5	17.2	0.00e+00	0	39	0	0	54	4593
2026-01-24 09:32:43.61	115.19	46.42	-41.4	-43.5	17.3	0.00e+00	0	39	0	0	54	4555
2026-01-24 09:32:44.60	114.82	46.66	-41.5	-43.5	17.3	0.00e+00	0	39	0	0	54	4564
2026-01-24 09:32:45.60	114.44	46.89	-41.4	-43.4	17.4	0.00e+00	0	39	0	0	54	4501
2026-01-24 09:32:46.59	114.06	47.13	-41.3	-43.3	17.5	0.00e+00	0	39	0	0	54	4484
2026-01-24 09:32:47.59	113.67	47.36	-41.2	-43.2	17.6	0.00e+00	0	39	0	0	54	4420
2026-01-24 09:32:48.59	113.28	47.60	-41.3	-43.3	17.5	0.00e+00	0	39	0	0	54	4490
2026-01-24 09:32:49.58	112.88	47.83	-41.4	-43.4	17.4	0.00e+00	0	39	0	0	54	4507
2026-01-24 09:32:50.57	112.47	48.07	-41.4	-43.4	17.5	0.00e+00	0	39	0	0	54	4532
2026-01-24 09:32:51.56	112.06	48.30	-41.4	-43.4	17.4	0.00e+00	0	39	0	0	54	4543
2026-01-24 09:32:52.56	111.64	48.54	-41.5	-43.5	17.5	0.00e+00	0	39	0	0	54	4562
2026-01-24 09:32:53.56	111.22	48.77	-41.6	-43.7	17.2	0.00e+00	0	39	0	0	54	4656
2026-01-24 09:32:54.55	110.79	49.00	-41.8	-44.0	16.9	0.00e+00	0	39	0	0	54	4845
2026-01-24 09:32:55.54	110.35	49.23	-41.8	-43.9	16.9	0.00e+00	0	39	0	0	54	4811
2026-01-24 09:32:56.54	109.90	49.47	-41.5	-43.5	17.3	0.00e+00	0	39	0	0	54	4592
2026-01-24 09:32:57.54	109.45	49.70	-41.4	-43.4	17.5	0.00e+00	0	39	0	0	54	4503
2026-01-24 09:32:58.53	108.99	49.93	-41.0	-43.0	17.8	0.00e+00	0	39	0	0	54	4317
2026-01-24 09:32:59.52	108.53	50.16	-41.2	-43.2	17.5	0.00e+00	0	39	0	0	53	4691
2026-01-24 09:33:00.52	108.05	50.39	-41.5	-43.7	17.1	0.00e+00	0	39	0	0	53	4960
2026-01-24 09:33:01.51	107.57	50.61	-41.4	-43.5	17.3	0.00e+00	0	39	0	0	53	4845
2026-01-24 09:33:02.50	107.09	50.84	-41.1	-43.1	17.7	0.00e+00	0	39	0	0	53	4638
2026-01-24 09:33:03.50	106.59	51.06	-40.7	-42.7	18.1	0.00e+00	0	39	0	0	53	4398
2026-01-24 09:33:04.49	106.09	51.29	-40.5	-42.4	18.4	0.00e+00	0	39	0	0	52	4518
2026-01-24 09:33:05.48	105.58	51.51	-40.5	-42.4	18.3	0.00e+00	0	39	0	0	52	4512
2026-01-24 09:33:06.48	105.06	51.73	-40.5	-42.5	18.2	0.00e+00	0	39	0	0	52	4548
2026-01-24 09:33:07.47	104.54	51.95	-40.8	-42.8	17.9	0.00e+00	0	39	0	0	52	4745
2026-01-24 09:33:08.47	104.01	52.17	-40.6	-42.5	18.3	0.00e+00	0	39	0	0	52	4576
2026-01-24 09:33:09.46	103.47	52.39	-40.4	-42.2	18.5	0.00e+00	0	39	0	0	52	4420
2026-01-24 09:33:10.46	102.92	52.60	-40.2	-42.1	18.7	0.00e+00	0	39	0	0	52	4353
2026-01-24 09:33:11.45	102.36	52.82	-40.3	-42.1	18.5	0.00e+00	0	39	0	0	52	4389
2026-01-24 09:33:12.45	101.79	53.03	-40.4	-42.3	18.5	0.00e+00	0	39	0	0	52	4487
2026-01-24 09:33:13.44	101.22	53.24	-40.1	-42.0	18.9	0.00e+00	0	39	0	0	52	4300
2026-01-24 09:33:14.44	100.64	53.44	-40.1	-41.9	18.9	0.00e+00	0	39	0	0	52	4288
2026-01-24 09:33:15.43	100.05	53.65	-39.8	-41.6	19.3	0.00e+00	0	39	0	0	51	4362
2026-01-24 09:33:16.42	99.45	53.85	-39.8	-41.5	19.3	0.00e+00	0	39	0	0	51	4331
2026-01-24 09:33:17.42	98.84	54.05	-39.5	-41.3	19.5	0.00e+00	0	39	0	0	51	4214
2026-01-24 09:33:18.42	98.23	54.25	-39.6	-41.4	19.3	0.00e+00	0	39	0	0	51	4259
2026-01-24 09:33:19.41	97.60	54.44	-39.5	-41.2	19.5	0.00e+00	0	39	0	0	50	4432
2026-01-24 09:33:20.40	96.98	54.64	-39.3	-41.0	19.7	0.00e+00	0	39	0	0	50	4302
2026-01-24 09:33:21.40	96.33	54.83	-39.2	-40.9	19.6	0.00e+00	0	39	0	0	50	4287
2026-01-24 09:33:22.39	95.69	55.01	-39.1	-40.8	19.5	0.00e+00	0	39	0	0	50	4226
2026-01-24 09:33:23.39	95.02	55.20	-39.2	-41.0	19.3	0.00e+00	0	39	0	0	50	4327
2026-01-24 09:33:24.39	94.35	55.38	-39.4	-41.2	19.2	0.00e+00	0	39	0	0	50	4393
2026-01-24 09:33:25.38	93.68	55.55	-39.5	-41.3	19.3	0.00e+00	0	39	0	0	50	4466
2026-01-24 09:33:26.38	92.99	55.73	-39.4	-41.1	19.6	0.00e+00	0	39	0	0	50	4374
2026-01-24 09:33:27.37	92.31	55.90	-39.4	-41.2	19.6	0.00e+00	0	39	0	0	50	4419
2026-01-24 09:33:28.37	91.60	56.06	-39.5	-41.3	19.5	0.00e+00	0	39	0	0	50	4457
2026-01-24 09:33:29.36	90.90	56.23	-39.3	-41.1	19.7	0.00e+00	0	39	0	0	50	4365
2026-01-24 09:33:30.36	90.18	56.39	-39.4	-41.2	19.6	0.00e+00	0	39	0	0	50	4406
2026-01-24 09:33:31.35	89.45	56.54	-39.1	-40.8	20.0	0.00e+00	0	39	0	0	50	4207
2026-01-24 09:33:32.35	88.72	56.69	-39.0	-40.7	19.8	0.00e+00	0	39	0	0	50	4186
2026-01-24 09:33:33.34	87.98	56.84	-38.9	-40.6	19.9	0.00e+00	0	39	0	0	49	4348
2026-01-24 09:33:34.34	87.23	56.98	-38.8	-40.6	20.0	0.00e+00	0	39	0	0	49	4350
2026-01-24 09:33:35.33	86.47	57.12	-38.8	-40.5	19.9	0.00e+00	0	39	0	0	49	4334
2026-01-24 09:33:36.32	85.71	57.25	-38.8	-40.5	19.8	0.00e+00	0	39	0	0	49	4331
2026-01-24 09:33:37.32	84.94	57.38	-38.7	-40.5	19.8	0.00e+00	0	39	0	0	49	4295
2026-01-24 09:33:38.32	84.16	57.50	-38.6	-40.3	20.0	0.00e+00	0	39	0	0	49	4234
2026-01-24 09:33:39.31	83.37	57.62	-38.7	-40.4	20.1	0.00e+00	0	39	0	0	49	4273
2026-01-24 09:33:40.30	82.59	57.74	-38.9	-40.7	19.9	0.00e+00	0	39	0	0	49	4393
2026-01-24 09:33:41.29	81.79	57.84	-38.9	-40.6	20.0	0.00e+00	0	39	0	0	49	4361
2026-01-24 09:33:42.29	80.98	57.95	-38.8	-40.5	20.0	0.00e+00	0	39	0	0	49	4333
2026-01-24 09:33:43.29	80.16	58.05	-39.3	-41.1	19.6	0.00e+00	0	39	0	0	49	4613
2026-01-24 09:33:44.28	79.35	58.14	-39.2	-41.0	19.8	0.00e+00	0	39	0	0	49	4557
2026-01-24 09:33:45.27	78.53	58.23	-39.0	-40.7	20.0	0.00e+00	0	39	0	0	49	4415
2026-01-24 09:33:46.27	77.70	58.31	-38.7	-40.4	20.4	0.00e+00	0	39	0	0	49	4260
2026-01-24 09:33:47.26	76.87	58.39	-38.7	-40.4	20.4	0.00e+00	0	39	0	0	49	4260
2026-01-24 09:33:48.26	76.03	58.46	-38.9	-40.6	20.2	0.00e+00	0	39	0	0	49	4379
2026-01-24 09:33:49.25	75.19	58.53	-38.9	-40.6	20.2	0.00e+00	0	39	0	0	49	4378
2026-01-24 09:33:50.25	74.34	58.59	-38.7	-40.4	20.4	0.00e+00	0	39	0	0	49	4246
2026-01-24 09:33:51.24	73.49	58.64	-38.7	-40.4	20.4	0.00e+00	0	39	0	0	49	4254
2026-01-24 09:33:52.24	72.64	58.69	-39.0	-40.8	20.1	0.00e+00	0	39	0	0	49	4443
2026-01-24 09:33:53.23	71.78	58.73	-38.9	-40.6	20.2	0.00e+00	0	39	0	0	49	4375
2026-01-24 09:33:54.22	70.93	58.77	-38.7	-40.4	20.3	0.00e+00	0	39	0	0	49	4251
2026-01-24 09:33:55.22	70.06	58.80	-38.8	-40.4	20.0	0.00e+00	0	39	0	0	49	4280
2026-01-24 09:33:56.21	69.21	58.82	-38.8	-40.5	20.0	0.00e+00	0	39	0	0	49	4318
2026-01-24 09:33:57.21	68.34	58.84	-38.7	-40.4	20.2	0.00e+00	0	39	0	0	49	4260
2026-01-24 09:33:58.21	67.47	58.86	-38.5	-40.1	20.5	0.00e+00	0	39	0	0	48	4365
2026-01-24 09:33:59.20	66.61	58.86	-38.4	-40.0	20.3	0.00e+00	0	39	0	0	48	4309
2026-01-24 09:34:00.19	65.75	58.86	-38.7	-40.4	19.9	0.00e+00	0	39	0	0	48	4524
2026-01-24 09:34:01.19	64.87	58.86	-38.8	-40.5	20.0	0.00e+00	0	39	0	0	48	4575
2026-01-24 09:34:02.18	64.01	58.85	-38.6	-40.3	20.3	0.00e+00	0	39	0	0	48	4462
2026-01-24 09:34:03.17	63.15	58.83	-38.5	-40.2	20.4	0.00e+00	0	39	0	0	48	4397
2026-01-24 09:34:04.17	62.29	58.81	-38.7	-40.3	20.3	0.00e+00	0	39	0	0	48	4481
2026-01-24 09:34:05.16	61.43	58.78	-39.1	-40.8	20.0	0.00e+00	0	39	0	0	48	4722
2026-01-24 09:34:06.16	60.57	58.74	-39.2	-40.9	19.9	0.00e+00	0	39	0	0	49	4532
2026-01-24 09:34:07.15	59.71	58.70	-38.9	-40.6	20.2	0.00e+00	0	39	0	0	49	4367
2026-01-24 09:34:08.14	58.87	58.65	-38.7	-40.4	20.3	0.00e+00	0	39	0	0	49	4245
2026-01-24 09:34:09.14	58.01	58.60	-38.6	-40.2	20.2	0.00e+00	0	39	0	0	49	4176
2026-01-24 09:34:10.13	57.17	58.54	-38.9	-40.6	20.0	0.00e+00	0	39	0	0	49	4354
2026-01-24 09:34:11.13	56.32	58.48	-38.9	-40.6	19.9	0.00e+00	0	39	0	0	49	4370
2026-01-24 09:34:12.12	55.49	58.41	-39.3	-41.0	19.6	0.00e+00	0	39	0	0	49	4564
2026-01-24 09:34:13.11	54.66	58.33	-39.3	-41.0	19.7	0.00e+00	0	39	0	0	49	4570
2026-01-24 09:34:14.11	53.82	58.25	-39.2	-40.9	19.8	0.00e+00	0	39	0	0	49	4540
2026-01-24 09:34:15.11	53.00	58.16	-39.3	-41.0	19.8	0.00e+00	0	39	0	0	49	4558
2026-01-24 09:34:16.11	52.17	58.07	-38.9	-40.5	19.9	0.00e+00	0	39	0	0	49	4321
2026-01-24 09:34:17.10	51.37	57.97	-39.1	-40.8	19.8	0.00e+00	0	39	0	0	49	4464
2026-01-24 09:34:18.10	50.56	57.87	-39.3	-41.0	19.7	0.00e+00	0	39	0	0	49	4566
2026-01-24 09:34:19.09	49.76	57.76	-39.5	-41.3	19.5	0.00e+00	0	39	0	0	49	4720
2026-01-24 09:34:20.09	48.96	57.65	-39.1	-40.8	20.0	0.00e+00	0	39	0	0	49	4481
2026-01-24 09:34:21.09	48.17	57.53	-39.0	-40.7	20.1	0.00e+00	0	39	0	0	49	4422
2026-01-24 09:34:22.09	47.39	57.41	-38.9	-40.6	20.2	0.00e+00	0	39	0	0	49	4349
2026-01-24 09:34:23.08	46.62	57.28	-39.0	-40.6	20.2	0.00e+00	0	39	0	0	49	4380
2026-01-24 09:34:24.08	45.85	57.15	-39.3	-41.1	19.9	0.00e+00	0	39	0	0	49	4607
2026-01-24 09:34:25.08	45.09	57.01	-39.4	-41.1	19.8	0.00e+00	0	39	0	0	49	4635
2026-01-24 09:34:26.07	44.34	56.87	-39.5	-41.2	19.7	0.00e+00	0	39	0	0	49	4685
2026-01-24 09:34:27.07	43.60	56.72	-39.4	-41.1	19.8	0.00e+00	0	39	0	0	49	4607
2026-01-24 09:34:28.07	42.86	56.57	-39.3	-41.0	19.9	0.00e+00	0	39	0	0	49	4547
2026-01-24 09:34:29.06	42.14	56.42	-39.1	-40.7	20.1	0.00e+00	0	39	0	0	49	4434
2026-01-24 09:34:30.06	41.42	56.26	-39.1	-40.7	20.1	0.00e+00	0	39	0	0	49	4441
2026-01-24 09:34:31.06	40.70	56.10	-39.5	-41.2	19.6	0.00e+00	0	39	0	0	49	4701
2026-01-24 09:34:32.05	40.01	55.94	-39.9	-41.7	19.1	0.00e+00	0	39	0	0	50	4685
2026-01-24 09:34:33.05	39.31	55.77	-39.8	-41.6	19.2	0.00e+00	0	39	0	0	50	4631
2026-01-24 09:34:34.05	38.62	55.59	-39.7	-41.4	19.4	0.00e+00	0	39	0	0	50	4545
2026-01-24 09:34:35.05	37.94	55.42	-39.6	-41.3	19.6	0.00e+00	0	39	0	0	50	4470
2026-01-24 09:34:36.05	37.27	55.24	-39.6	-41.3	19.6	0.00e+00	0	39	0	0	50	4474
2026-01-24 09:34:37.04	36.62	55.05	-39.7	-41.4	19.5	0.00e+00	0	39	0	0	50	4520
2026-01-24 09:34:38.04	35.96	54.87	-40.3	-42.1	18.7	0.00e+00	0	39	0	0	51	4637
2026-01-24 09:34:39.04	35.32	54.68	-40.6	-42.5	18.2	0.00e+00	0	39	0	0	52	4569
2026-01-24 09:34:40.03	34.69	54.49	-40.0	-41.8	18.8	0.00e+00	0	39	0	0	52	4234
2026-01-24 09:34:41.03	34.06	54.29	-39.7	-41.5	19.3	0.00e+00	0	39	0	0	51	4307
2026-01-24 09:34:42.03	33.44	54.10	-39.9	-41.7	19.2	0.00e+00	0	39	0	0	51	4417
2026-01-24 09:34:43.03	32.83	53.89	-40.6	-42.5	18.5	0.00e+00	0	39	0	0	51	4829
2026-01-24 09:34:44.02	32.24	53.69	-41.3	-43.3	17.7	0.00e+00	0	39	0	0	53	4749
2026-01-24 09:34:45.02	31.64	53.49	-42.0	-44.2	16.9	0.00e+00	0	39	0	0	54	4933
2026-01-24 09:34:46.02	31.06	53.28	-41.7	-43.8	17.2	0.00e+00	0	39	0	0	54	4732
2026-01-24 09:34:47.02	30.48	53.07	-40.9	-42.8	18.1	0.00e+00	0	39	0	0	53	4485
2026-01-24 09:34:48.02	29.91	52.86	-40.0	-41.8	18.9	0.00e+00	0	39	0	0	52	4230
2026-01-24 09:34:49.02	29.35	52.65	-39.6	-41.3	19.5	0.00e+00	0	39	0	0	51	4228
2026-01-24 09:34:50.01	28.81	52.43	-39.5	-41.2	19.6	0.00e+00	0	39	0	0	50	4428
2026-01-24 09:34:51.01	28.26	52.22	-40.6	-42.5	18.4	0.00e+00	0	39	0	0	52	4573
2026-01-24 09:34:52.01	27.73	52.00	-41.9	-44.1	16.9	0.00e+00	0	39	0	0	54	4891
2026-01-24 09:34:53.01	27.20	51.78	-42.0	-44.2	16.5	0.00e+00	0	39	0	0	55	4685
2026-01-24 09:34:54.01	26.68	51.56	-40.9	-42.9	17.5	0.00e+00	0	39	0	0	53	4517
2026-01-24 09:34:55.01	26.17	51.33	-40.6	-42.6	17.8	0.00e+00	0	39	0	0	53	4345
2026-01-24 09:34:56.01	25.66	51.11	-40.5	-42.5	17.9	0.00e+00	0	39	0	0	53	4294
2026-01-24 09:34:57.01	25.16	50.88	-40.6	-42.6	17.9	0.00e+00	0	39	0	0	53	4358
2026-01-24 09:34:58.00	24.68	50.66	-40.7	-42.6	17.9	0.00e+00	0	39	0	0	53	4359
2026-01-24 09:34:59.00	24.20	50.43	-40.7	-42.6	18.1	0.00e+00	0	39	0	0	53	4373
2026-01-24 09:35:00.00	23.72	50.20	-41.2	-43.2	17.6	0.00e+00	0	39	0	0	53	4698
2026-01-24 09:35:00.99	23.26	49.98	-41.9	-44.0	16.9	0.00e+00	0	39	0	0	54	4836
2026-01-24 09:35:01.99	22.80	49.74	-41.8	-43.9	16.7	0.00e+00	0	39	0	0	54	4770
2026-01-24 09:35:02.99	22.34	49.51	-41.3	-43.3	17.3	0.00e+00	0	39	0	0	54	4457
2026-01-24 09:35:03.99	21.90	49.28	-40.5	-42.4	18.2	0.00e+00	0	39	0	0	53	4268
2026-01-24 09:35:04.99	21.46	49.05	-40.4	-42.3	18.5	0.00e+00	0	39	0	0	52	4442
2026-01-24 09:35:05.98	21.03	48.82	-40.8	-42.8	18.1	0.00e+00	0	39	0	0	52	4723
2026-01-24 09:35:06.98	20.60	48.58	-41.5	-43.6	17.4	0.00e+00	0	39	0	0	53	4886
2026-01-24 09:35:07.98	20.18	48.35	-41.8	-43.8	17.2	0.00e+00	0	39	0	0	54	4752
2026-01-24 09:35:08.98	19.77	48.11	-41.8	-43.9	17.1	0.00e+00	0	39	0	0	54	4785
2026-01-24 09:35:09.97	19.36	47.88	-41.9	-44.0	16.9	0.00e+00	0	39	0	0	54	4867
2026-01-24 09:35:10.97	18.96	47.65	-41.6	-43.7	17.2	0.00e+00	0	39	0	0	54	4686
2026-01-24 09:35:11.96	18.57	47.41	-41.0	-43.0	17.8	0.00e+00	0	39	0	0	54	4304
2026-01-24 09:35:12.96	18.18	47.18	-40.7	-42.6	18.2	0.00e+00	0	39	0	0	53	4362
2026-01-24 09:35:13.96	17.79	46.94	-40.0	-41.7	19.1	0.00e+00	0	39	0	0	51	4434
2026-01-24 09:35:14.96	17.42	46.71	-40.6	-42.4	18.5	0.00e+00	0	39	0	0	51	4808
2026-01-24 09:35:15.95	17.05	46.47	-41.6	-43.6	17.4	0.00e+00	0	39	0	0	53	4888
2026-01-24 09:35:16.95	16.68	46.24	-42.4	-44.6	16.5	0.00e+00	0	39	0	0	55	4871
2026-01-24 09:35:17.94	16.32	46.00	-43.1	-45.5	15.5	0.00e+00	0	39	0	0	56	5111
2026-01-24 09:35:18.94	15.97	45.77	-43.0	-45.3	15.5	0.00e+00	0	39	0	0	57	4751
2026-01-24 09:35:19.94	15.62	45.53	-42.6	-44.8	16.0	0.00e+00	0	39	0	0	57	4480
2026-01-24 09:35:20.94	15.27	45.30	-42.1	-44.3	16.5	0.00e+00	0	39	0	0	56	4466
2026-01-24 09:35:21.94	14.93	45.06	-41.5	-43.5	17.1	0.00e+00	0	39	0	0	55	4320
2026-01-24 09:35:22.93	14.60	44.83	-40.6	-42.5	18.1	0.00e+00	0	39	0	0	53	4303
2026-01-24 09:35:23.93	14.27	44.60	-40.3	-42.1	18.6	0.00e+00	0	39	0	0	52	4355
2026-01-24 09:35:24.93	13.94	44.36	-40.1	-41.9	18.9	0.00e+00	0	39	0	0	52	4274
2026-01-24 09:35:25.92	13.63	44.13	-40.9	-42.8	18.1	0.00e+00	0	39	0	0	52	4756
2026-01-24 09:35:26.92	13.31	43.90	-42.4	-44.6	16.5	0.00e+00	0	39	0	0	55	4895
2026-01-24 09:35:27.92	13.00	43.66	-43.6	-46.2	14.8	0.00e+00	0	39	0	0	57	5256
2026-01-24 09:35:28.91	12.70	43.43	-43.3	-45.9	14.4	7.00e-07	0	39	0	0	58	4760
2026-01-24 09:35:29.91	12.39	43.20	-42.2	-44.4	15.6	0.00e+00	0	39	0	0	56	4533
2026-01-24 09:35:30.91	12.09	42.97	-41.5	-43.5	16.5	0.00e+00	0	39	0	0	54	4598
2026-01-24 09:35:31.91	11.80	42.74	-41.1	-43.0	17.3	0.00e+00	0	39	0	0	54	4332
2026-01-24 09:35:32.90	11.51	42.51	-41.1	-43.0	17.6	0.00e+00	0	39	0	0	54	4326
2026-01-24 09:35:33.90	11.23	42.28	-41.5	-43.6	17.2	0.00e+00	0	39	0	0	54	4628
2026-01-24 09:35:34.90	10.95	42.05	-41.9	-44.1	16.9	0.00e+00	0	39	0	0	54	4876
2026-01-24 09:35:35.90	10.67	41.83	-42.0	-44.2	16.8	0.00e+00	0	39	0	0	54	4980
2026-01-24 09:35:36.90	10.40	41.60	-42.0	-44.2	16.8	0.00e+00	0	39	0	0	54	4958
2026-01-24 09:35:37.89	10.13	41.37	-41.9	-44.1	16.9	0.00e+00	0	39	0	0	54	4903
2026-01-24 09:35:38.89	9.86	41.15	-41.7	-43.9	17.1	0.00e+00	0	39	0	0	54	4794
2026-01-24 09:35:39.89	9.60	40.92	-41.5	-43.7	17.3	0.00e+00	0	39	0	0	54	4654
2026-01-24 09:35:40.89	9.34	40.70	-41.4	-43.4	17.5	0.00e+00	0	39	0	0	54	4529
2026-01-24 09:35:41.89	9.09	40.47	-41.0	-43.0	17.7	0.00e+00	0	39	0	0	54	4322
2026-01-24 09:35:42.89	8.84	40.25	-40.5	-42.3	18.2	0.00e+00	0	39	0	0	52	4484
2026-01-24 09:35:43.88	8.59	40.03	-40.1	-41.9	18.7	0.00e+00	0	39	0	0	52	4277
2026-01-24 09:35:44.88	8.35	39.81	-39.9	-41.7	18.9	0.00e+00	0	39	0	0	51	4403
2026-01-24 09:35:45.88	8.11	39.59	-39.7	-41.5	19.2	0.00e+00	0	39	0	0	51	4297
2026-01-24 09:35:46.88	7.87	39.37	-40.6	-42.5	18.4	0.00e+00	0	39	0	0	51	4838
2026-01-24 09:35:47.88	7.64	39.15	-41.1	-43.1	17.7	0.00e+00	0	39	0	0	52	4892
2026-01-24 09:35:48.88	7.41	38.93	-41.9	-44.1	16.9	0.00e+00	0	39	0	0	54	4888
2026-01-24 09:35:49.88	7.18	38.71	-42.4	-44.7	16.3	0.00e+00	0	39	0	0	55	4951
2026-01-24 09:35:50.88	6.95	38.49	-42.0	-44.2	16.7	0.00e+00	0	39	0	0	55	4700
2026-01-24 09:35:51.88	6.73	38.28	-41.4	-43.5	17.4	0.00e+00	0	39	0	0	54	4571
2026-01-24 09:35:52.87	6.51	38.07	-41.0	-43.0	17.9	0.00e+00	0	39	0	0	54	4316
2026-01-24 09:35:53.87	6.30	37.85	-40.8	-42.8	18.0	0.00e+00	0	39	0	0	53	4453
2026-01-24 09:35:54.87	6.08	37.64	-40.6	-42.4	18.4	0.00e+00	0	39	0	0	53	4288
2026-01-24 09:35:55.86	5.88	37.43	-40.3	-42.2	18.6	0.00e+00	0	39	0	0	52	4395
2026-01-24 09:35:56.86	5.67	37.22	-40.2	-42.0	18.7	0.00e+00	0	39	0	0	52	4325
2026-01-24 09:35:57.86	5.46	37.01	-39.7	-41.5	19.2	0.00e+00	0	39	0	0	51	4310
2026-01-24 09:35:58.86	5.26	36.80	-39.4	-41.1	19.4	0.00e+00	0	39	0	0	50	4374
2026-01-24 09:35:59.85	5.06	36.59	-39.2	-40.9	19.5	0.00e+00	0	39	0	0	50	4290
2026-01-24 09:36:00.85	4.86	36.38	-39.2	-40.9	19.5	0.00e+00	0	39	0	0	50	4287
2026-01-24 09:36:01.84	4.67	36.18	-39.1	-40.9	19.7	0.00e+00	0	39	0	0	50	4257
2026-01-24 09:36:02.84	4.48	35.97	-39.3	-41.1	19.6	0.00e+00	0	39	0	0	50	4355
2026-01-24 09:36:03.83	4.29	35.77	-39.5	-41.3	19.5	0.00e+00	0	39	0	0	50	4466
2026-01-24 09:36:04.83	4.10	35.57	-40.0	-41.9	18.9	0.00e+00	0	39	0	0	50	4766
2026-01-24 09:36:05.83	3.92	35.36	-40.3	-42.2	18.6	0.00e+00	0	39	0	0	51	4694
2026-01-24 09:36:06.83	3.74	35.16	-40.6	-42.6	18.3	0.00e+00	0	39	0	0	51	4875
2026-01-24 09:36:07.83	3.56	34.96	-40.5	-42.5	18.4	0.00e+00	0	39	0	0	51	4830
2026-01-24 09:36:08.82	3.38	34.76	-40.3	-42.3	18.5	0.00e+00	0	39	0	0	51	4712
2026-01-24 09:36:09.82	3.20	34.56	-40.2	-42.1	18.7	0.00e+00	0	39	0	0	51	4612
2026-01-24 09:36:10.82	3.03	34.37	-39.8	-41.6	19.1	0.00e+00	0	39	0	0	51	4373
2026-01-24 09:36:11.82	2.86	34.17	-39.7	-41.5	19.1	0.00e+00	0	39	0	0	51	4298
2026-01-24 09:36:12.81	2.69	33.97	-39.3	-41.0	19.5	0.00e+00	0	39	0	0	50	4334
2026-01-24 09:36:13.81	2.52	33.78	-39.2	-41.0	19.5	0.00e+00	0	39	0	0	50	4312
2026-01-24 09:36:14.81	2.36	33.58	-39.3	-41.1	19.4	0.00e+00	0	39	0	0	50	4351
2026-01-24 09:36:15.80	2.20	33.39	-39.4	-41.2	19.2	0.00e+00	0	39	0	0	50	4432
2026-01-24 09:36:16.80	2.03	33.20	-39.5	-41.3	19.2	0.00e+00	0	39	0	0	50	4490
2026-01-24 09:36:17.80	1.87	33.01	-39.7	-41.5	19.0	0.00e+00	0	39	0	0	50	4587
2026-01-24 09:36:18.79	1.72	32.82	-39.7	-41.6	18.9	0.00e+00	0	39	0	0	50	4612
2026-01-24 09:36:19.79	1.56	32.63	-39.7	-41.5	19.0	0.00e+00	0	39	0	0	50	4577
2026-01-24 09:36:20.79	1.41	32.44	-39.6	-41.5	19.0	0.00e+00	0	39	0	0	50	4563
2026-01-24 09:36:21.79	1.26	32.25	-39.6	-41.4	19.1	0.00e+00	0	39	0	0	50	4526
2026-01-24 09:36:22.79	1.11	32.07	-39.3	-41.1	19.4	0.00e+00	0	39	0	0	50	4380
2026-01-24 09:36:23.78	0.96	31.88	-39.2	-41.0	19.5	0.00e+00	0	39	0	0	50	4298
2026-01-24 09:36:24.78	0.81	31.70	-39.0	-40.8	19.7	0.00e+00	0	39	0	0	50	4215
2026-01-24 09:36:25.78	0.67	31.52	-39.0	-40.7	19.8	0.00e+00	0	39	0	0	50	4167
2026-01-24 09:36:26.77	0.52	31.33	-38.9	-40.6	19.8	0.00e+00	0	39	0	0	49	4356
2026-01-24 09:36:27.77	0.38	31.15	-38.8	-40.5	19.9	0.00e+00	0	39	0	0	49	4316
2026-01-24 09:36:28.76	0.24	30.97	-38.9	-40.7	19.7	0.00e+00	0	39	0	0	49	4395
2026-01-24 09:36:29.76	0.10	30.79	-38.8	-40.6	19.8	0.00e+00	0	39	0	0	49	4360
2026-01-24 09:36:30.75	359.97	30.62	-38.9	-40.6	19.7	0.00e+00	0	39	0	0	49	4386
2026-01-24 09:36:31.75	359.83	30.44	-38.9	-40.6	19.7	0.00e+00	0	39	0	0	49	4390
2026-01-24 09:36:32.75	359.70	30.26	-39.1	-40.8	19.5	0.00e+00	0	39	0	0	49	4481
2026-01-24 09:36:33.74	359.57	30.08	-39.1	-40.9	19.4	0.00e+00	0	39	0	0	49	4518
2026-01-24 09:36:34.74	359.44	29.91	-39.4	-41.2	19.2	0.00e+00	0	39	0	0	49	4682
2026-01-24 09:36:35.74	359.31	29.73	-39.5	-41.3	19.2	0.00e+00	0	39	0	0	49	4710
2026-01-24 09:36:36.74	359.18	29.56	-39.5	-41.3	19.2	0.00e+00	0	39	0	0	49	4714
2026-01-24 09:36:37.74	359.05	29.39	-39.5	-41.3	19.2	0.00e+00	0	39	0	0	49	4720
2026-01-24 09:36:38.73	358.93	29.22	-39.5	-41.3	19.2	0.00e+00	0	39	0	0	49	4718
2026-01-24 09:36:39.73	358.80	29.05	-39.4	-41.2	19.3	0.00e+00	0	39	0	0	49	4687
2026-01-24 09:36:40.73	358.68	28.88	-39.6	-41.4	19.1	0.00e+00	0	39	0	0	49	4771
2026-01-24 09:36:41.73	358.56	28.71	-39.6	-41.4	19.1	0.00e+00	0	39	0	0	49	4783
2026-01-24 09:36:42.72	358.44	28.54	-39.6	-41.4	19.1	0.00e+00	0	39	0	0	49	4802
2026-01-24 09:36:43.71	358.32	28.37	-39.6	-41.4	19.1	0.00e+00	0	39	0	0	50	4530
2026-01-24 09:36:44.71	358.20	28.21	-39.6	-41.4	19.1	0.00e+00	0	39	0	0	50	4509
2026-01-24 09:36:45.70	358.09	28.04	-39.6	-41.4	19.0	0.00e+00	0	39	0	0	50	4526
2026-01-24 09:36:46.70	357.97	27.88	-39.5	-41.3	19.1	0.00e+00	0	39	0	0	50	4466
2026-01-24 09:36:47.69	357.86	27.72	-39.4	-41.2	19.3	0.00e+00	0	39	0	0	50	4406
2026-01-24 09:36:48.69	357.75	27.55	-39.1	-40.9	19.5	0.00e+00	0	39	0	0	50	4248
2026-01-24 09:36:49.69	357.64	27.39	-39.0	-40.7	19.7	0.00e+00	0	39	0	0	50	4183
2026-01-24 09:36:50.68	357.53	27.23	-39.0	-40.7	19.7	0.00e+00	0	39	0	0	49	4415
2026-01-24 09:36:51.68	357.42	27.07	-38.8	-40.5	19.9	0.00e+00	0	39	0	0	49	4320
2026-01-24 09:36:52.68	357.31	26.91	-38.3	-40.0	20.4	0.00e+00	0	39	0	0	48	4296
2026-01-24 09:36:53.68	357.20	26.75	-37.9	-39.5	20.6	0.00e+00	0	39	0	0	47	4336
2026-01-24 09:36:54.67	357.10	26.59	-37.8	-39.5	20.6	0.00e+00	0	39	0	0	47	4310
2026-01-24 09:36:55.67	356.99	26.43	-37.9	-39.5	20.7	0.00e+00	0	39	0	0	47	4321
2026-01-24 09:36:56.67	356.89	26.28	-37.7	-39.4	20.8	0.00e+00	0	39	0	0	47	4261
2026-01-24 09:36:57.67	356.79	26.12	-37.8	-39.4	20.8	0.00e+00	0	39	0	0	47	4275
2026-01-24 09:36:58.67	356.69	25.97	-37.8	-39.5	20.7	0.00e+00	0	39	0	0	47	4311
2026-01-24 09:36:59.67	356.58	25.81	-37.8	-39.5	20.7	0.00e+00	0	39	0	0	47	4306
2026-01-24 09:37:00.67	356.49	25.66	-38.0	-39.7	20.5	0.00e+00	0	39	0	0	47	4398
2026-01-24 09:37:01.66	356.39	25.51	-37.9	-39.5	20.7	0.00e+00	0	39	0	0	47	4327
2026-01-24 09:37:02.66	356.29	25.36	-38.0	-39.6	20.6	0.00e+00	0	39	0	0	47	4377
2026-01-24 09:37:03.66	356.19	25.20	-38.0	-39.6	20.6	0.00e+00	0	39	0	0	47	4386
2026-01-24 09:37:04.66	356.10	25.05	-38.1	-39.8	20.4	0.00e+00	0	39	0	0	47	4473
2026-01-24 09:37:05.66	356.00	24.90	-38.1	-39.8	20.4	0.00e+00	0	39	0	0	47	4477
2026-01-24 09:37:06.65	355.91	24.76	-38.2	-39.9	20.3	0.00e+00	0	39	0	0	47	4525
2026-01-24 09:37:07.65	355.82	24.61	-38.3	-40.1	20.2	0.00e+00	0	39	0	0	47	4606
2026-01-24 09:37:08.65	355.72	24.46	-38.3	-40.1	20.2	0.00e+00	0	39	0	0	47	4611
2026-01-24 09:37:09.64	355.63	24.32	-38.4	-40.1	20.1	0.00e+00	0	39	0	0	47	4650
2026-01-24 09:37:10.65	355.54	24.17	-38.4	-40.2	20.0	0.00e+00	0	39	0	0	47	4666
2026-01-24 09:37:11.64	355.45	24.03	-38.5	-40.3	19.9	0.00e+00	0	39	0	0	47	4718
2026-01-24 09:37:12.64	355.37	23.88	-38.5	-40.3	19.9	0.00e+00	0	39	0	0	47	4733
2026-01-24 09:37:13.64	355.28	23.74	-38.6	-40.4	19.7	0.00e+00	0	39	0	0	47	4807
2026-01-24 09:37:14.64	355.19	23.59	-38.8	-40.6	19.7	0.00e+00	0	39	0	0	48	4631
2026-01-24 09:37:15.64	355.10	23.45	-38.8	-40.6	19.8	0.00e+00	0	39	0	0	48	4615
2026-01-24 09:37:16.64	355.02	23.31	-38.9	-40.7	19.7	0.00e+00	0	39	0	0	48	4657
2026-01-24 09:37:17.64	354.93	23.17	-39.0	-40.8	19.6	0.00e+00	0	39	0	0	48	4729
2026-01-24 09:37:18.63	354.85	23.03	-38.9	-40.7	19.7	0.00e+00	0	39	0	0	48	4660
2026-01-24 09:37:19.63	354.77	22.89	-38.9	-40.6	19.7	0.00e+00	0	39	0	0	48	4651
2026-01-24 09:37:20.62	354.69	22.75	-39.0	-40.8	19.6	0.00e+00	0	39	0	0	48	4711
2026-01-24 09:37:21.62	354.61	22.61	-38.9	-40.7	19.6	0.00e+00	0	39	0	0	48	4654
2026-01-24 09:37:22.62	354.53	22.48	-38.9	-40.7	19.6	0.00e+00	0	39	0	0	48	4652
2026-01-24 09:37:23.62	354.45	22.34	-39.0	-40.8	19.5	0.00e+00	0	39	0	0	48	4712
2026-01-24 09:37:24.62	354.37	22.20	-38.9	-40.7	19.6	0.00e+00	0	39	0	0	48	4697
2026-01-24 09:37:25.61	354.29	22.07	-38.9	-40.7	19.6	0.00e+00	0	39	0	0	48	4666
2026-01-24 09:37:26.60	354.21	21.94	-39.0	-40.8	19.5	0.00e+00	0	39	0	0	48	4730
2026-01-24 09:37:27.60	354.13	21.80	-39.0	-40.7	19.6	0.00e+00	0	39	0	0	48	4703
2026-01-24 09:37:28.59	354.06	21.67	-38.9	-40.7	19.6	0.00e+00	0	39	0	0	48	4680
2026-01-24 09:37:29.58	353.98	21.54	-39.0	-40.7	19.6	0.00e+00	0	39	0	0	48	4692
2026-01-24 09:37:30.58	353.91	21.41	-39.0	-40.7	19.6	0.00e+00	0	39	0	0	48	4703
2026-01-24 09:37:31.57	353.83	21.28	-38.8	-40.5	19.8	0.00e+00	0	39	0	0	48	4598
2026-01-24 09:37:32.56	353.76	21.15	-38.8	-40.5	19.8	0.00e+00	0	39	0	0	48	4572
2026-01-24 09:37:33.56	353.69	21.02	-38.7	-40.4	19.8	0.00e+00	0	39	0	0	48	4518
2026-01-24 09:37:34.55	353.62	20.89	-38.6	-40.3	20.0	0.00e+00	0	39	0	0	48	4466
2026-01-24 09:37:35.54	353.55	20.76	-38.5	-40.2	20.1	0.00e+00	0	39	0	0	48	4423
2026-01-24 09:37:36.54	353.47	20.63	-38.6	-40.3	19.9	0.00e+00	0	39	0	0	48	4479
2026-01-24 09:37:37.54	353.40	20.50	-38.5	-40.2	20.1	0.00e+00	0	39	0	0	48	4415
2026-01-24 09:37:38.53	353.33	20.38	-38.5	-40.3	20.0	0.00e+00	0	39	0	0	48	4444
2026-01-24 09:37:39.52	353.27	20.25	-38.4	-40.2	20.1	0.00e+00	0	39	0	0	48	4399
2026-01-24 09:37:40.52	353.20	20.13	-38.4	-40.2	20.1	0.00e+00	0	39	0	0	48	4405
2026-01-24 09:37:41.51	353.13	20.00	-38.5	-40.2	20.0	0.00e+00	0	39	0	0	48	4441
2026-01-24 09:37:42.51	353.06	19.88	-38.6	-40.3	19.9	0.00e+00	0	39	0	0	48	4474
2026-01-24 09:37:43.50	353.00	19.75	-38.6	-40.4	19.9	0.00e+00	0	39	0	0	48	4501
2026-01-24 09:37:44.49	352.93	19.63	-38.6	-40.4	19.8	0.00e+00	0	39	0	0	48	4518
2026-01-24 09:37:45.49	352.86	19.51	-38.7	-40.5	19.7	0.00e+00	0	39	0	0	48	4571
2026-01-24 09:37:46.48	352.80	19.39	-38.8	-40.6	19.7	0.00e+00	0	39	0	0	48	4614
2026-01-24 09:37:47.48	352.73	19.26	-38.8	-40.6	19.6	0.00e+00	0	39	0	0	48	4627
2026-01-24 09:37:48.47	352.67	19.14	-38.8	-40.6	19.7	0.00e+00	0	39	0	0	48	4623
2026-01-24 09:37:49.46	352.61	19.02	-38.8	-40.7	19.6	0.00e+00	0	39	0	0	48	4670
2026-01-24 09:37:50.46	352.54	18.90	-39.0	-40.8	19.5	0.00e+00	0	39	0	0	48	4727
2026-01-24 09:37:51.45	352.48	18.78	-39.0	-40.9	19.4	0.00e+00	0	39	0	0	48	4771
2026-01-24 09:37:52.45	352.42	18.66	-39.0	-40.8	19.4	0.00e+00	0	39	0	0	48	4752
2026-01-24 09:37:53.44	352.36	18.55	-38.9	-40.7	19.5	0.00e+00	0	39	0	0	48	4695
2026-01-24 09:37:54.43	352.30	18.43	-38.9	-40.8	19.5	0.00e+00	0	39	0	0	48	4708
2026-01-24 09:37:55.43	352.24	18.31	-38.9	-40.7	19.5	0.00e+00	0	39	0	0	48	4695
2026-01-24 09:37:56.42	352.18	18.20	-38.9	-40.7	19.5	0.00e+00	0	39	0	0	48	4703
2026-01-24 09:37:57.41	352.12	18.08	-38.9	-40.7	19.5	0.00e+00	0	39	0	0	48	4680
2026-01-24 09:37:58.41	352.06	17.96	-39.0	-40.8	19.4	0.00e+00	0	39	0	0	48	4734
2026-01-24 09:37:59.40	352.00	17.85	-38.8	-40.7	19.5	0.00e+00	0	39	0	0	48	4657
2026-01-24 09:38:00.40	351.94	17.73	-38.9	-40.8	19.4	0.00e+00	0	39	0	0	48	4728
2026-01-24 09:38:01.39	351.89	17.62	-38.9	-40.7	19.4	0.00e+00	0	39	0	0	48	4704
2026-01-24 09:38:02.38	351.83	17.51	-39.0	-40.8	19.4	0.00e+00	0	39	0	0	48	4751
2026-01-24 09:38:03.38	351.77	17.39	-39.0	-40.8	19.4	0.00e+00	0	39	0	0	48	4723
2026-01-24 09:38:04.37	351.72	17.28	-39.0	-40.8	19.3	0.00e+00	0	39	0	0	48	4747
2026-01-24 09:38:05.36	351.66	17.17	-39.0	-40.8	19.4	0.00e+00	0	39	0	0	48	4748
2026-01-24 09:38:06.36	351.61	17.06	-39.1	-40.9	19.3	0.00e+00	0	39	0	0	48	4762
2026-01-24 09:38:07.35	351.55	16.95	-39.2	-41.0	19.2	0.00e+00	0	39	0	0	48	4826
2026-01-24 09:38:08.34	351.50	16.84	-39.2	-41.1	19.1	0.00e+00	0	39	0	0	49	4602
2026-01-24 09:38:09.34	351.44	16.73	-39.2	-41.0	19.2	0.00e+00	0	39	0	0	49	4593
2026-01-24 09:38:10.33	351.39	16.62	-39.3	-41.1	19.1	0.00e+00	0	39	0	0	49	4627
2026-01-24 09:38:11.32	351.34	16.51	-39.2	-41.1	19.1	0.00e+00	0	39	0	0	49	4615
2026-01-24 09:38:12.32	351.28	16.40	-39.4	-41.3	19.0	0.00e+00	0	39	0	0	49	4719
2026-01-24 09:38:13.31	351.23	16.29	-39.4	-41.3	18.9	0.00e+00	0	39	0	0	49	4737
2026-01-24 09:38:14.31	351.18	16.18	-39.4	-41.4	18.9	0.00e+00	0	39	0	0	49	4791
2026-01-24 09:38:15.30	351.13	16.07	-39.5	-41.4	18.8	0.00e+00	0	39	0	0	49	4804
2026-01-24 09:38:16.30	351.08	15.97	-39.4	-41.4	18.9	0.00e+00	0	39	0	0	49	4779
2026-01-24 09:38:17.29	351.03	15.86	-39.4	-41.4	18.8	0.00e+00	0	39	0	0	49	4802
2026-01-24 09:38:18.29	350.98	15.75	-39.6	-41.5	18.7	0.00e+00	0	39	0	0	49	4864
2026-01-24 09:38:19.28	350.93	15.65	-39.6	-41.6	18.7	0.00e+00	0	39	0	0	49	4885
2026-01-24 09:38:20.27	350.88	15.54	-39.6	-41.6	18.7	0.00e+00	0	39	0	0	49	4882
2026-01-24 09:38:21.27	350.83	15.44	-39.7	-41.6	18.7	0.00e+00	0	39	0	0	49	4903
2026-01-24 09:38:22.26	350.78	15.34	-39.7	-41.7	18.6	0.00e+00	0	39	0	0	50	4660
2026-01-24 09:38:23.25	350.73	15.23	-39.8	-41.7	18.6	0.00e+00	0	39	0	0	50	4694
2026-01-24 09:38:24.25	350.68	15.13	-39.8	-41.7	18.6	0.00e+00	0	39	0	0	50	4695
2026-01-24 09:38:25.24	350.64	15.02	-39.6	-41.6	18.7	0.00e+00	0	39	0	0	50	4617
2026-01-24 09:38:26.24	350.59	14.92	-39.6	-41.6	18.7	0.00e+00	0	39	0	0	50	4613
2026-01-24 09:38:27.23	350.54	14.82	-39.7	-41.7	18.5	0.00e+00	0	39	0	0	50	4695
2026-01-24 09:38:28.22	350.50	14.72	-39.8	-41.8	18.5	0.00e+00	0	39	0	0	50	4725
2026-01-24 09:38:29.22	350.45	14.62	-39.7	-41.7	18.5	0.00e+00	0	39	0	0	50	4691
2026-01-24 09:38:30.21	350.40	14.52	-39.7	-41.8	18.5	0.00e+00	0	39	0	0	50	4723
2026-01-24 09:38:31.20	350.36	14.42	-39.7	-41.7	18.5	0.00e+00	0	39	0	0	50	4682
2026-01-24 09:38:32.20	350.31	14.31	-39.7	-41.8	18.5	0.00e+00	0	39	0	0	50	4708
2026-01-24 09:38:33.19	350.27	14.21	-39.5	-41.5	18.7	0.00e+00	0	39	0	0	50	4572
2026-01-24 09:38:34.19	350.22	14.11	-39.5	-41.4	18.8	0.00e+00	0	39	0	0	50	4529
2026-01-24 09:38:35.18	350.18	14.02	-39.5	-41.4	18.8	0.00e+00	0	39	0	0	50	4533
2026-01-24 09:38:36.18	350.13	13.92	-39.4	-41.4	18.8	0.00e+00	0	39	0	0	50	4512
2026-01-24 09:38:37.17	350.09	13.82	-39.5	-41.4	18.7	0.00e+00	0	39	0	0	50	4536
2026-01-24 09:38:38.16	350.05	13.72	-39.5	-41.4	18.7	0.00e+00	0	39	0	0	50	4542
2026-01-24 09:38:39.16	350.00	13.62	-39.5	-41.4	18.7	0.00e+00	0	39	0	0	50	4533
2026-01-24 09:38:40.15	349.96	13.53	-39.5	-41.4	18.7	0.00e+00	0	39	0	0	50	4542
2026-01-24 09:38:41.15	349.92	13.43	-39.5	-41.4	18.8	0.00e+00	0	39	0	0	50	4525
2026-01-24 09:38:42.14	349.88	13.33	-39.6	-41.5	18.6	0.00e+00	0	39	0	0	50	4598
2026-01-24 09:38:43.13	349.84	13.24	-39.6	-41.5	18.6	0.00e+00	0	39	0	0	50	4593
2026-01-24 09:38:44.13	349.79	13.14	-39.6	-41.6	18.6	0.00e+00	0	39	0	0	50	4605
2026-01-24 09:38:45.12	349.75	13.05	-39.5	-41.5	18.6	0.00e+00	0	39	0	0	50	4590
2026-01-24 09:38:46.11	349.71	12.95	-39.5	-41.5	18.6	0.00e+00	0	39	0	0	50	4592
2026-01-24 09:38:47.11	349.67	12.86	-39.3	-41.4	18.7	0.00e+00	0	39	0	0	50	4541
2026-01-24 09:38:48.10	349.63	12.76	-39.2	-41.4	18.7	0.00e+00	0	39	0	0	50	4537
2026-01-24 09:38:49.10	349.59	12.67	-39.1	-41.4	18.7	0.00e+00	0	39	0	0	50	4543
2026-01-24 09:38:50.09	349.55	12.57	-39.1	-41.4	18.7	0.00e+00	0	39	0	0	50	4540
2026-01-24 09:38:51.08	349.51	12.48	-39.1	-41.5	18.7	0.00e+00	0	39	0	0	50	4552
2026-01-24 09:38:52.08	349.47	12.39	-39.1	-41.5	18.7	0.00e+00	0	39	0	0	50	4561
2026-01-24 09:38:53.07	349.43	12.30	-39.2	-41.5	18.7	0.00e+00	0	39	0	0	50	4566
2026-01-24 09:38:54.07	349.39	12.20	-39.2	-41.5	18.7	0.00e+00	0	39	0	0	50	4571
2026-01-24 09:38:55.06	349.36	12.11	-39.2	-41.5	18.6	0.00e+00	0	39	0	0	50	4592
2026-01-24 09:38:56.06	349.32	12.02	-39.2	-41.5	18.7	0.00e+00	0	39	0	0	50	4572
2026-01-24 09:38:57.05	349.28	11.93	-39.3	-41.6	18.6	0.00e+00	0	39	0	0	50	4621
2026-01-24 09:38:58.04	349.24	11.84	-39.4	-41.6	18.6	0.00e+00	0	39	0	0	50	4648
2026-01-24 09:38:59.04	349.20	11.75	-39.4	-41.7	18.5	0.00e+00	0	39	0	0	50	4660
2026-01-24 09:39:00.03	349.17	11.66	-39.4	-41.6	18.6	0.00e+00	0	39	0	0	50	4624
2026-01-24 09:39:01.03	349.13	11.57	-39.3	-41.5	18.6	0.00e+00	0	39	0	0	50	4596
2026-01-24 09:39:02.02	349.09	11.48	-39.4	-41.6	18.5	0.00e+00	0	39	0	0	50	4648
2026-01-24 09:39:03.02	349.06	11.39	-39.3	-41.6	18.6	0.00e+00	0	39	0	0	50	4607
2026-01-24 09:39:04.01	349.02	11.30	-39.4	-41.7	18.5	0.00e+00	0	39	0	0	50	4677
2026-01-24 09:39:05.00	348.98	11.21	-39.3	-41.6	18.5	0.00e+00	0	39	0	0	50	4637
2026-01-24 09:39:06.00	348.95	11.12	-39.3	-41.6	18.6	0.00e+00	0	39	0	0	50	4615
2026-01-24 09:39:06.99	348.91	11.03	-39.4	-41.8	18.4	0.00e+00	0	39	0	0	50	4724
2026-01-24 09:39:07.99	348.88	10.94	-39.3	-41.7	18.4	0.00e+00	0	39	0	0	50	4691
2026-01-24 09:39:08.98	348.84	10.86	-39.3	-41.7	18.4	0.00e+00	0	39	0	0	50	4698
2026-01-24 09:39:09.98	348.81	10.77	-39.3	-41.9	18.3	0.00e+00	0	39	0	0	50	4762
2026-01-24 09:39:10.97	348.77	10.68	-39.3	-41.8	18.3	0.00e+00	0	39	0	0	50	4727
2026-01-24 09:39:11.96	348.74	10.60	-39.3	-41.9	18.2	0.00e+00	0	39	0	0	50	4773
2026-01-24 09:39:12.96	348.71	10.51	-39.4	-42.0	18.1	0.00e+00	0	39	0	0	50	4857
2026-01-24 09:39:13.95	348.67	10.42	-39.3	-42.1	18.0	0.00e+00	0	39	0	0	50	4894
2026-01-24 09:39:14.95	348.64	10.34	-39.2	-42.0	18.1	0.00e+00	0	39	0	0	50	4834
2026-01-24 09:39:15.94	348.60	10.25	-39.3	-42.0	18.0	0.00e+00	0	39	0	0	50	4861
2026-01-24 09:39:16.94	348.57	10.17	-39.2	-41.9	18.1	0.00e+00	0	39	0	0	50	4803
2026-01-24 09:39:17.93	348.54	10.08	-39.2	-42.0	18.0	0.00e+00	0	39	0	0	50	4852
2026-01-24 09:39:18.92	348.51	10.00	-39.3	-42.1	18.0	0.00e+00	0	39	0	0	50	4888
2026-01-24 09:39:19.92	348.47	9.91	-39.4	-42.1	17.9	0.00e+00	0	39	0	0	50	4925
2026-01-24 09:39:20.91	348.44	9.83	-39.5	-42.2	17.9	0.00e+00	0	39	0	0	50	4941
2026-01-24 09:39:21.91	348.41	9.75	-39.5	-42.2	17.9	0.00e+00	0	39	0	0	50	4933
2026-01-24 09:39:22.90	348.38	9.66	-39.5	-42.1	17.9	0.00e+00	0	39	0	0	50	4905
2026-01-24 09:39:23.89	348.35	9.58	-39.5	-42.1	17.9	0.00e+00	0	39	0	0	50	4904
2026-01-24 09:39:24.89	348.31	9.50	-39.7	-42.2	17.8	0.00e+00	0	39	0	0	50	4945
2026-01-24 09:39:25.88	348.28	9.41	-39.7	-42.2	17.8	0.00e+00	0	39	0	0	50	4964
2026-01-24 09:39:26.88	348.25	9.33	-39.7	-42.1	17.8	0.00e+00	0	39	0	0	50	4906
2026-01-24 09:39:27.87	348.22	9.25	-39.8	-42.2	17.7	0.00e+00	0	39	0	0	50	4958
2026-01-24 09:39:28.87	348.19	9.17	-39.8	-42.2	17.7	0.00e+00	0	39	0	0	50	4974
2026-01-24 09:39:29.86	348.16	9.08	-39.8	-42.3	17.6	0.00e+00	0	39	0	0	50	5003
2026-01-24 09:39:30.86	348.13	9.00	-42.3	-46.9	13.6	0.00e+00	0	39	0	0	55	6395
2026-01-24 09:39:31.85	348.10	8.92	-47.2	-61.6	3.8	1.49e+00	0	39	104	0	64	20557
2026-01-24 09:39:32.85	348.07	8.84	-47.0	-61.7	3.8	1.49e+00	0	39	104	0	66	18666
2026-01-24 09:39:33.84	348.04	8.76	-48.5	-61.8	3.8	1.49e+00	0	39	104	0	67	17746
2026-01-24 09:39:34.83	348.01	8.68	-49.0	-62.1	3.8	1.49e+00	0	39	104	0	68	17358
2026-01-24 09:39:35.83	347.98	8.60	-48.2	-62.0	3.8	1.49e+00	0	39	104	0	67	18150
2026-01-24 09:39:36.82	347.95	8.52	-48.8	-62.2	3.8	1.49e+00	0	39	104	0	68	17567
2026-01-24 09:39:37.82	347.92	8.44	-48.6	-62.2	3.8	1.49e+00	0	39	104	0	68	17606
2026-01-24 09:39:38.81	347.89	8.36	-48.7	-62.3	3.8	1.49e+00	0	39	104	0	68	17790
2026-01-24 09:39:39.81	347.86	8.28	-48.4	-62.3	3.8	1.49e+00	0	39	104	0	68	17725
2026-01-24 09:39:40.80	347.84	8.20	-49.2	-62.3	3.8	1.49e+00	0	39	104	0	69	16770
2026-01-24 09:39:41.80	347.81	8.12	-49.1	-62.3	3.8	1.49e+00	0	39	104	0	69	16749
2026-01-24 09:39:42.79	347.78	8.05	-49.0	-62.3	3.8	1.49e+00	0	39	104	0	69	16762
2026-01-24 09:39:43.79	347.75	7.97	-49.2	-62.3	3.8	1.49e+00	0	39	104	0	69	16838
2026-01-24 09:39:44.78	347.72	7.89	-49.2	-62.3	3.8	1.49e+00	0	39	104	0	69	16787
2026-01-24 09:39:45.78	347.70	7.81	-49.2	-62.3	3.8	1.49e+00	0	39	104	0	69	16820
2026-01-24 09:39:46.77	347.67	7.73	-49.1	-62.3	3.8	1.49e+00	0	39	104	0	69	16833
2026-01-24 09:39:47.77	347.64	7.66	-49.1	-62.3	3.8	1.49e+00	0	39	104	0	69	16874
2026-01-24 09:39:48.76	347.61	7.58	-49.1	-62.3	3.8	1.49e+00	0	39	104	0	69	16850
2026-01-24 09:39:49.76	347.59	7.50	-49.1	-62.4	3.8	1.49e+00	0	39	104	0	69	16898
2026-01-24 09:39:50.75	347.56	7.43	-49.2	-62.4	3.8	1.49e+00	0	39	104	0	69	16894
2026-01-24 09:39:51.75	347.53	7.35	-49.3	-62.3	3.8	1.49e+00	0	39	104	0	69	16818
2026-01-24 09:39:52.74	347.51	7.27	-49.2	-62.3	3.8	1.49e+00	0	39	104	0	69	16854
2026-01-24 09:39:53.73	347.48	7.20	-49.4	-62.3	3.8	1.49e+00	0	39	104	0	69	16824
2026-01-24 09:39:54.73	347.45	7.12	-49.3	-62.3	3.8	1.49e+00	0	39	104	0	69	16848
2026-01-24 09:39:55.72	347.43	7.05	-49.3	-62.3	3.8	1.49e+00	0	39	104	0	69	16808
2026-01-24 09:39:56.72	347.40	6.97	-49.3	-62.3	3.8	1.49e+00	0	39	104	0	69	16818
2026-01-24 09:39:57.71	347.38	6.90	-49.1	-62.3	3.8	1.49e+00	0	39	104	0	69	16829
2026-01-24 09:39:58.71	347.35	6.82	-49.1	-62.3	3.8	1.49e+00	0	39	104	0	69	16799
2026-01-24 09:39:59.70	347.33	6.75	-49.1	-62.3	3.8	1.49e+00	0	39	104	0	69	16778
2026-01-24 09:40:00.70	347.30	6.67	-49.1	-62.3	3.8	1.49e+00	0	39	104	0	69	16748
2026-01-24 09:40:01.69	347.28	6.60	-49.1	-62.3	3.8	1.49e+00	0	39	104	0	69	16718
2026-01-24 09:40:02.69	347.25	6.52	-49.1	-62.2	3.8	1.49e+00	0	39	104	0	69	16657
2026-01-24 09:40:03.68	347.23	6.45	-49.1	-62.3	3.8	1.49e+00	0	39	104	0	69	16737
2026-01-24 09:40:04.68	347.20	6.37	-49.1	-62.3	3.8	1.49e+00	0	39	104	0	69	16743
2026-01-24 09:40:05.67	347.18	6.30	-49.1	-62.3	3.8	1.49e+00	0	39	104	0	69	16778
2026-01-24 09:40:06.66	347.15	6.23	-49.1	-62.2	3.8	1.49e+00	0	39	104	0	69	16683
2026-01-24 09:40:07.66	347.13	6.16	-49.1	-62.3	3.8	1.49e+00	0	39	104	0	69	16755
2026-01-24 09:40:08.66	347.10	6.08	-49.1	-62.3	3.8	1.49e+00	0	39	104	0	69	16720
2026-01-24 09:40:09.65	347.08	6.01	-49.1	-62.3	3.8	1.49e+00	0	39	104	0	69	16730
2026-01-24 09:40:10.64	347.06	5.94	-49.1	-62.3	3.8	1.49e+00	0	39	104	0	69	16729
