passes_logs/2026/01/24/T1/T1__20260124_091850_FENGYUN_3D_rec.log

#Pass ID: 20260124_091850_FENGYUN 3D
#Satellite: FENGYUN 3D
#Configuration: FENGYUN 3D
#almurnet v.1.7.20251203
#Start time: 2026-01-24 09:18:51

#Version: 2.0.20230620
#Station: T1
#Location: 37.570604 lon 55.790049 lat
#TLE: 1 43010U 17072A   26023.60174628  .00000324  00000+0  17481-3 0  9994
#TLE: 2 43010  98.9958 355.5514 0002482  93.7422 266.4037 14.19699955424476

#Time	Az	El	Level	Level2	SNR	BER	BlckErr	Temp	State	Recorded	gain1	gain2
2026-01-24 09:18:51.08	72.23	5.04	-48.1	-60.2	3.8	8.47e-01	0	38	0	0	68	13980
2026-01-24 09:18:52.07	72.11	5.08	-48.1	-60.2	3.8	8.47e-01	0	38	104	0	68	13964
2026-01-24 09:18:53.06	71.99	5.12	-48.1	-60.2	3.8	8.47e-01	0	38	104	0	68	13944
2026-01-24 09:18:54.06	71.86	5.16	-48.1	-60.2	3.8	8.48e-01	0	38	104	0	68	13888
2026-01-24 09:18:55.05	71.74	5.20	-48.1	-60.1	3.8	8.46e-01	0	38	104	0	68	13877
2026-01-24 09:18:56.05	71.62	5.24	-48.1	-60.2	3.8	8.47e-01	0	38	104	0	68	13935
2026-01-24 09:18:57.05	71.49	5.29	-48.1	-60.2	3.8	8.47e-01	0	38	104	0	68	13985
2026-01-24 09:18:58.05	71.36	5.33	-48.1	-60.1	3.8	8.48e-01	0	38	104	0	68	13867
2026-01-24 09:18:59.04	71.24	5.37	-48.1	-60.2	3.8	8.47e-01	0	38	104	0	68	13891
2026-01-24 09:19:00.04	71.11	5.41	-48.1	-60.1	3.8	8.47e-01	0	38	104	0	68	13884
2026-01-24 09:19:01.04	70.99	5.45	-48.1	-60.1	3.8	8.48e-01	0	38	104	0	68	13812
2026-01-24 09:19:02.04	70.86	5.49	-48.0	-60.2	3.8	8.47e-01	0	38	104	0	68	13922
2026-01-24 09:19:03.04	70.73	5.53	-48.0	-60.1	3.8	8.46e-01	0	38	104	0	68	13875
2026-01-24 09:19:04.04	70.61	5.57	-48.0	-60.1	3.8	8.47e-01	0	38	104	0	68	13825
2026-01-24 09:19:05.04	70.48	5.61	-48.0	-60.1	3.8	8.46e-01	0	38	104	0	68	13777
2026-01-24 09:19:06.03	70.35	5.66	-48.0	-60.1	3.8	8.46e-01	0	38	104	0	68	13785
2026-01-24 09:19:07.03	70.22	5.70	-48.0	-60.1	3.8	8.48e-01	0	38	104	0	68	13756
2026-01-24 09:19:08.03	70.09	5.74	-48.0	-60.0	3.8	8.47e-01	0	38	104	0	68	13715
2026-01-24 09:19:09.03	69.96	5.78	-48.0	-60.0	3.8	8.46e-01	0	38	104	0	68	13708
2026-01-24 09:19:10.02	69.83	5.82	-48.0	-60.0	3.8	8.47e-01	0	38	104	0	68	13725
2026-01-24 09:19:11.02	69.70	5.86	-48.0	-60.1	3.8	8.47e-01	0	39	104	0	68	13823
2026-01-24 09:19:12.02	69.57	5.90	-48.0	-60.1	3.8	8.46e-01	0	39	104	0	68	13831
2026-01-24 09:19:13.02	69.44	5.94	-48.0	-60.1	3.8	8.46e-01	0	39	104	0	68	13838
2026-01-24 09:19:14.02	69.31	5.98	-48.0	-60.1	3.8	8.45e-01	0	39	104	0	68	13832
2026-01-24 09:19:15.02	69.18	6.02	-48.0	-60.2	3.8	8.47e-01	0	39	104	0	68	13895
2026-01-24 09:19:16.02	69.05	6.06	-48.0	-60.1	3.8	8.47e-01	0	39	104	0	68	13841
2026-01-24 09:19:17.01	68.92	6.10	-48.0	-60.1	3.8	8.45e-01	0	39	104	0	68	13759
2026-01-24 09:19:18.01	68.78	6.14	-48.0	-60.1	3.8	8.47e-01	0	38	104	0	68	13789
2026-01-24 09:19:19.01	68.65	6.18	-48.0	-60.1	3.8	8.47e-01	0	39	104	0	68	13765
2026-01-24 09:19:20.01	68.52	6.22	-48.0	-60.1	3.8	8.47e-01	0	39	104	0	68	13796
2026-01-24 09:19:21.01	68.38	6.26	-48.0	-60.1	3.8	8.47e-01	0	39	104	0	68	13869
2026-01-24 09:19:22.00	68.25	6.30	-48.0	-60.1	3.8	8.47e-01	0	39	104	0	68	13846
2026-01-24 09:19:23.00	68.11	6.34	-48.0	-60.1	3.8	8.47e-01	0	39	104	0	68	13849
2026-01-24 09:19:23.99	67.98	6.38	-48.0	-60.1	3.8	8.46e-01	0	39	104	0	68	13824
2026-01-24 09:19:24.99	67.84	6.42	-48.0	-60.1	3.8	8.47e-01	0	39	104	0	68	13843
2026-01-24 09:19:25.99	67.71	6.46	-48.0	-60.1	3.8	8.47e-01	0	39	104	0	68	13746
2026-01-24 09:19:26.99	67.57	6.50	-48.0	-60.1	3.8	8.48e-01	0	39	104	0	68	13783
2026-01-24 09:19:27.98	67.44	6.54	-48.0	-60.1	3.8	8.46e-01	0	39	104	0	68	13789
2026-01-24 09:19:28.98	67.30	6.57	-48.0	-60.1	3.8	8.48e-01	0	39	104	0	68	13763
2026-01-24 09:19:29.98	67.16	6.61	-48.0	-60.1	3.8	8.47e-01	0	39	104	0	68	13787
2026-01-24 09:19:30.98	67.03	6.65	-48.0	-60.1	3.8	8.47e-01	0	39	104	0	68	13760
2026-01-24 09:19:31.97	66.89	6.69	-48.0	-60.1	3.8	8.46e-01	0	39	104	0	68	13749
2026-01-24 09:19:32.97	66.75	6.73	-48.0	-60.1	3.8	8.46e-01	0	39	104	0	68	13735
2026-01-24 09:19:33.97	66.61	6.77	-48.0	-60.1	3.8	8.47e-01	0	39	104	0	68	13735
2026-01-24 09:19:34.97	66.47	6.81	-48.0	-60.1	3.8	8.47e-01	0	39	104	0	68	13744
2026-01-24 09:19:35.97	66.33	6.84	-48.0	-60.1	3.8	8.48e-01	0	39	104	0	68	13857
2026-01-24 09:19:36.96	66.19	6.88	-48.0	-60.1	3.8	8.47e-01	0	39	104	0	68	13782
2026-01-24 09:19:37.96	66.05	6.92	-48.0	-60.1	3.8	8.46e-01	0	39	104	0	68	13790
2026-01-24 09:19:38.96	65.91	6.96	-48.0	-60.1	3.8	8.47e-01	0	39	104	0	68	13766
2026-01-24 09:19:39.96	65.77	7.00	-48.0	-60.1	3.8	8.45e-01	0	39	104	0	68	13727
2026-01-24 09:19:40.96	65.63	7.04	-48.0	-60.1	3.8	8.47e-01	0	40	104	0	68	13773
2026-01-24 09:19:41.95	65.49	7.07	-48.0	-60.1	3.8	8.48e-01	0	39	104	0	68	13772
2026-01-24 09:19:42.95	65.35	7.11	-48.0	-60.1	3.8	8.47e-01	0	39	104	0	68	13827
2026-01-24 09:19:43.95	65.21	7.15	-48.0	-60.1	3.8	8.48e-01	0	39	104	0	68	13752
2026-01-24 09:19:44.95	65.06	7.19	-48.0	-60.1	3.8	8.47e-01	0	39	104	0	68	13733
2026-01-24 09:19:45.95	64.92	7.22	-48.0	-60.1	3.8	8.46e-01	0	39	104	0	68	13762
2026-01-24 09:19:46.95	64.78	7.26	-48.0	-60.0	3.8	8.46e-01	0	39	104	0	68	13724
2026-01-24 09:19:47.94	64.63	7.30	-48.0	-60.0	3.8	8.46e-01	0	39	104	0	68	13705
2026-01-24 09:19:48.94	64.49	7.33	-48.0	-60.0	3.8	8.48e-01	0	39	104	0	68	13686
2026-01-24 09:19:49.94	64.34	7.37	-48.0	-60.0	3.8	8.47e-01	0	39	104	0	68	13684
2026-01-24 09:19:50.94	64.20	7.41	-48.1	-60.0	3.8	8.47e-01	0	39	104	0	68	13699
2026-01-24 09:19:51.94	64.05	7.44	-48.1	-60.0	3.8	8.47e-01	0	39	104	0	68	13706
2026-01-24 09:19:52.93	63.91	7.48	-48.1	-60.0	3.8	8.46e-01	0	39	104	0	68	13591
2026-01-24 09:19:53.93	63.76	7.52	-48.2	-59.9	3.8	8.46e-01	0	40	104	0	68	13523
2026-01-24 09:19:54.93	63.62	7.55	-48.2	-59.8	3.8	8.46e-01	0	39	104	0	68	13386
2026-01-24 09:19:55.92	63.47	7.59	-48.2	-59.8	3.8	8.47e-01	0	39	104	0	68	13408
2026-01-24 09:19:56.92	63.32	7.62	-48.2	-59.9	3.8	8.47e-01	0	39	104	0	68	13487
2026-01-24 09:19:57.92	63.18	7.66	-48.3	-60.0	3.8	8.47e-01	0	39	104	0	68	13576
2026-01-24 09:19:58.92	63.03	7.70	-48.3	-60.1	3.8	8.47e-01	0	39	104	0	68	13772
2026-01-24 09:19:59.92	62.88	7.73	-48.3	-60.1	3.8	8.47e-01	0	39	104	0	68	13858
2026-01-24 09:20:00.91	62.73	7.77	-48.3	-60.1	3.8	8.48e-01	0	40	104	0	68	13876
2026-01-24 09:20:01.91	62.58	7.80	-48.3	-60.1	3.8	8.47e-01	0	40	104	0	68	13849
2026-01-24 09:20:02.91	62.43	7.84	-48.3	-60.1	3.8	8.48e-01	0	39	104	0	68	13782
2026-01-24 09:20:03.91	62.28	7.87	-48.3	-60.0	3.8	8.47e-01	0	39	104	0	68	13658
2026-01-24 09:20:04.91	62.13	7.91	-48.3	-59.9	3.8	8.47e-01	0	39	104	0	68	13558
2026-01-24 09:20:05.91	61.98	7.94	-48.3	-59.9	3.8	8.47e-01	0	40	104	0	68	13514
2026-01-24 09:20:06.90	61.83	7.98	-48.3	-60.0	3.8	8.48e-01	0	39	104	0	68	13576
2026-01-24 09:20:07.90	61.68	8.01	-48.3	-60.1	3.8	8.46e-01	0	39	104	0	68	13868
2026-01-24 09:20:08.90	61.53	8.05	-48.4	-60.3	3.8	8.48e-01	0	39	104	0	68	14056
2026-01-24 09:20:09.90	61.38	8.08	-48.4	-60.3	3.8	8.46e-01	0	40	104	0	68	14201
2026-01-24 09:20:10.90	61.23	8.12	-48.4	-60.4	3.8	8.46e-01	0	40	104	0	68	14215
2026-01-24 09:20:11.90	61.07	8.15	-48.4	-60.3	3.8	8.46e-01	0	40	104	0	68	14092
2026-01-24 09:20:12.90	60.92	8.18	-48.4	-60.0	3.8	8.47e-01	0	39	104	0	68	13591
2026-01-24 09:20:13.89	60.77	8.22	-48.4	-59.5	3.8	8.46e-01	0	39	104	0	68	12913
2026-01-24 09:20:14.89	60.61	8.25	-48.3	-59.1	3.8	8.46e-01	0	40	104	0	68	12331
2026-01-24 09:20:15.89	60.46	8.28	-48.3	-59.0	3.8	8.47e-01	0	40	104	0	68	12110
2026-01-24 09:20:16.89	60.30	8.32	-48.4	-59.2	3.8	8.47e-01	0	40	104	0	68	12390
2026-01-24 09:20:17.89	60.15	8.35	-48.4	-59.6	3.8	8.46e-01	0	40	104	0	68	13022
2026-01-24 09:20:18.89	59.99	8.38	-48.5	-60.1	3.8	8.47e-01	0	40	104	0	68	13813
2026-01-24 09:20:19.89	59.84	8.42	-48.5	-60.4	3.8	8.46e-01	0	40	104	0	68	14281
2026-01-24 09:20:20.89	59.68	8.45	-48.5	-60.5	3.8	8.47e-01	0	40	104	0	68	14392
2026-01-24 09:20:21.88	59.53	8.48	-48.5	-60.2	3.8	8.47e-01	0	40	104	0	68	13946
2026-01-24 09:20:22.88	59.37	8.51	-48.4	-59.3	3.8	8.46e-01	0	40	104	0	68	12598
2026-01-24 09:20:23.88	59.21	8.54	-48.2	-58.1	3.9	8.45e-01	0	40	104	0	68	10923
2026-01-24 09:20:24.88	59.06	8.58	-48.0	-56.9	4.2	8.37e-01	0	40	0	0	68	9527
2026-01-24 09:20:25.88	58.90	8.61	-48.1	-57.0	4.2	8.36e-01	0	40	0	0	68	9674
2026-01-24 09:20:26.88	58.74	8.64	-48.4	-59.1	3.8	8.45e-01	0	40	104	0	68	12352
2026-01-24 09:20:27.88	58.58	8.67	-48.5	-59.9	3.8	8.46e-01	0	40	104	0	68	13558
2026-01-24 09:20:28.87	58.42	8.70	-47.3	-54.0	5.6	8.31e-01	0	40	0	0	66	7653
2026-01-24 09:20:29.87	58.27	8.73	-45.1	-49.1	10.2	2.39e-02	0	40	0	5242880	62	5475
2026-01-24 09:20:30.87	58.11	8.76	-42.9	-45.7	13.6	1.65e-04	0	40	0	10485760	57	4958
2026-01-24 09:20:31.87	57.95	8.80	-40.8	-43.2	15.9	0.00e+00	0	40	0	16777216	53	4683
2026-01-24 09:20:32.86	57.79	8.83	-39.9	-42.1	17.1	0.00e+00	0	40	0	22020096	51	4603
2026-01-24 09:20:33.86	57.63	8.86	-39.3	-41.5	17.7	0.00e+00	0	40	0	27262976	50	4558
2026-01-24 09:20:34.86	57.47	8.89	-39.6	-41.8	17.4	0.00e+00	0	40	0	33554432	50	4716
2026-01-24 09:20:35.86	57.30	8.92	-40.4	-42.7	16.6	0.00e+00	0	40	0	38797312	51	4941
2026-01-24 09:20:36.86	57.14	8.95	-41.8	-44.4	14.8	0.00e+00	0	40	0	44040192	54	5076
2026-01-24 09:20:37.86	56.98	8.98	-43.9	-47.1	12.3	4.34e-05	0	40	0	50331648	58	5493
2026-01-24 09:20:38.86	56.82	9.01	-45.8	-50.2	9.0	1.56e-02	0	40	0	55574528	62	6273
2026-01-24 09:20:39.86	56.66	9.04	-40.3	-42.5	16.7	7.88e-04	0	40	0	60817408	52	4571
2026-01-24 09:20:40.85	56.50	9.06	-44.7	-48.2	11.2	3.68e-04	0	40	0	67108864	59	5877
2026-01-24 09:20:41.85	56.33	9.09	-47.7	-55.9	4.6	1.68e-01	0	40	0	72351744	66	9508
2026-01-24 09:20:42.85	56.17	9.12	-41.3	-43.7	15.6	7.72e-02	0	40	0	75497472	54	4683
2026-01-24 09:20:43.85	56.00	9.15	-47.6	-55.1	5.0	1.03e-01	0	40	0	80740352	65	9271
2026-01-24 09:20:44.85	55.84	9.18	-42.0	-44.6	14.8	1.08e-01	0	39	0	83886080	56	4602
2026-01-24 09:20:45.85	55.68	9.21	-41.1	-43.5	15.8	0.00e+00	0	40	0	89128960	54	4563
2026-01-24 09:20:46.85	55.51	9.24	-40.7	-43.0	16.2	0.00e+00	0	40	0	94371840	53	4579
2026-01-24 09:20:47.85	55.35	9.26	-40.7	-43.0	16.2	0.00e+00	0	40	0	100663296	53	4565
2026-01-24 09:20:48.84	55.18	9.29	-40.8	-43.1	16.1	0.00e+00	0	40	0	105906176	53	4620
2026-01-24 09:20:49.84	55.02	9.32	-40.6	-42.9	16.3	0.00e+00	0	40	0	111149056	53	4523
2026-01-24 09:20:50.84	54.85	9.35	-40.1	-42.3	16.9	0.00e+00	0	40	0	117440512	52	4467
2026-01-24 09:20:51.84	54.68	9.37	-39.5	-41.6	17.6	0.00e+00	0	40	0	122683392	51	4378
2026-01-24 09:20:52.84	54.52	9.40	-39.1	-41.1	18.1	0.00e+00	0	40	0	128974848	50	4372
2026-01-24 09:20:53.83	54.35	9.43	-38.6	-40.6	18.5	0.00e+00	0	40	0	134217728	49	4380
2026-01-24 09:20:54.83	54.18	9.45	-38.3	-40.3	18.8	0.00e+00	0	40	0	139460608	48	4478
2026-01-24 09:20:55.83	54.02	9.48	-38.2	-40.1	19.0	0.00e+00	0	40	0	144703488	48	4381
2026-01-24 09:20:56.83	53.85	9.51	-38.1	-40.1	19.1	0.00e+00	0	40	0	150994944	48	4349
2026-01-24 09:20:57.82	53.68	9.53	-38.2	-40.2	18.9	0.00e+00	0	40	0	156237824	48	4427
2026-01-24 09:20:58.81	53.52	9.56	-38.2	-40.2	18.9	0.00e+00	0	40	0	161480704	48	4415
2026-01-24 09:20:59.82	53.34	9.58	-38.3	-40.3	18.9	0.00e+00	0	40	0	167772160	48	4442
2026-01-24 09:21:00.82	53.18	9.61	-38.2	-40.1	19.0	0.00e+00	0	40	0	173015040	48	4386
2026-01-24 09:21:01.81	53.01	9.63	-38.3	-40.3	18.9	0.00e+00	0	40	0	179306496	48	4464
2026-01-24 09:21:02.81	52.84	9.66	-38.1	-40.1	19.0	0.00e+00	0	40	0	184549376	48	4372
2026-01-24 09:21:03.81	52.67	9.68	-38.2	-40.2	19.0	0.00e+00	0	40	0	189792256	48	4404
2026-01-24 09:21:04.80	52.50	9.71	-38.3	-40.3	18.8	0.00e+00	0	40	0	196083712	48	4464
2026-01-24 09:21:05.80	52.33	9.73	-38.2	-40.2	19.0	0.00e+00	0	40	0	201326592	48	4404
2026-01-24 09:21:06.80	52.16	9.75	-38.2	-40.2	19.0	0.00e+00	0	40	0	206569472	48	4417
2026-01-24 09:21:07.80	51.99	9.78	-38.2	-40.2	19.0	0.00e+00	0	40	0	212860928	48	4398
2026-01-24 09:21:08.80	51.82	9.80	-38.1	-40.1	19.1	0.00e+00	0	40	0	218103808	48	4360
2026-01-24 09:21:09.80	51.64	9.82	-37.9	-39.9	19.1	0.00e+00	0	40	0	223346688	47	4513
2026-01-24 09:21:10.79	51.47	9.85	-37.9	-39.8	19.1	0.00e+00	0	40	0	229638144	47	4492
2026-01-24 09:21:11.79	51.30	9.87	-37.9	-39.9	19.1	0.00e+00	0	40	0	234881024	47	4506
2026-01-24 09:21:12.79	51.13	9.89	-37.8	-39.8	19.1	0.00e+00	0	40	0	241172480	47	4459
2026-01-24 09:21:13.78	50.96	9.91	-37.8	-39.8	19.1	0.00e+00	0	40	0	246415360	47	4460
2026-01-24 09:21:14.78	50.78	9.94	-37.9	-39.9	19.0	0.00e+00	0	40	0	251658240	47	4535
2026-01-24 09:21:15.77	50.61	9.96	-37.8	-39.8	19.1	0.00e+00	0	40	0	256901120	47	4472
2026-01-24 09:21:16.77	50.44	9.98	-37.9	-39.9	19.1	0.00e+00	0	40	0	263192576	47	4520
2026-01-24 09:21:17.77	50.27	10.00	-37.9	-39.9	19.1	0.00e+00	0	40	0	268435456	47	4510
2026-01-24 09:21:18.77	50.09	10.02	-37.9	-39.9	19.1	0.00e+00	0	40	0	273678336	47	4507
2026-01-24 09:21:19.77	49.92	10.04	-38.1	-40.0	19.3	0.00e+00	0	40	0	279969792	47	4561
2026-01-24 09:21:20.76	49.74	10.06	-38.2	-40.1	19.2	0.00e+00	0	40	0	285212672	47	4612
2026-01-24 09:21:21.76	49.57	10.08	-38.1	-40.0	19.2	0.00e+00	0	40	0	291504128	47	4575
2026-01-24 09:21:22.75	49.40	10.10	-38.1	-40.0	19.2	0.00e+00	0	40	0	296747008	47	4572
2026-01-24 09:21:23.75	49.22	10.12	-38.2	-40.1	19.2	0.00e+00	0	40	0	301989888	47	4618
2026-01-24 09:21:24.75	49.05	10.14	-38.2	-40.1	19.1	0.00e+00	0	40	0	308281344	47	4633
2026-01-24 09:21:25.75	48.87	10.16	-38.1	-40.0	19.3	0.00e+00	0	40	0	313524224	47	4554
2026-01-24 09:21:26.75	48.69	10.18	-38.0	-39.9	19.3	0.00e+00	0	40	0	318767104	47	4505
2026-01-24 09:21:27.74	48.52	10.20	-37.9	-39.7	19.5	0.00e+00	0	40	0	325058560	47	4436
2026-01-24 09:21:28.74	48.34	10.22	-37.8	-39.6	19.5	0.00e+00	0	40	0	330301440	47	4389
2026-01-24 09:21:29.73	48.17	10.24	-37.8	-39.6	19.5	0.00e+00	0	40	0	335544320	47	4384
2026-01-24 09:21:30.73	47.99	10.26	-37.8	-39.6	19.5	0.00e+00	0	40	0	341835776	47	4382
2026-01-24 09:21:31.72	47.82	10.28	-37.8	-39.6	19.5	0.00e+00	0	40	0	347078656	47	4386
2026-01-24 09:21:32.72	47.64	10.29	-37.6	-39.5	19.6	0.00e+00	0	40	0	352321536	47	4309
2026-01-24 09:21:33.72	47.46	10.31	-37.5	-39.4	19.7	0.00e+00	0	40	0	358612992	47	4251
2026-01-24 09:21:34.71	47.28	10.33	-37.6	-39.5	19.6	0.00e+00	0	40	0	363855872	47	4299
2026-01-24 09:21:35.71	47.11	10.35	-37.6	-39.5	19.6	0.00e+00	0	40	0	369098752	47	4306
2026-01-24 09:21:36.71	46.93	10.36	-37.5	-39.3	19.8	0.00e+00	0	40	0	375390208	47	4237
2026-01-24 09:21:37.71	46.75	10.38	-37.5	-39.4	19.7	0.00e+00	0	40	0	380633088	47	4256
2026-01-24 09:21:38.71	46.57	10.40	-37.6	-39.4	19.6	0.00e+00	0	40	0	385875968	47	4287
2026-01-24 09:21:39.71	46.39	10.41	-37.7	-39.6	19.5	0.00e+00	0	40	0	392167424	47	4352
2026-01-24 09:21:40.71	46.21	10.43	-37.7	-39.6	19.5	0.00e+00	0	40	0	397410304	47	4346
2026-01-24 09:21:41.70	46.04	10.44	-37.7	-39.6	19.4	0.00e+00	0	40	0	403701760	47	4366
2026-01-24 09:21:42.70	45.86	10.46	-37.7	-39.5	19.5	0.00e+00	0	40	0	408944640	47	4337
2026-01-24 09:21:43.70	45.68	10.47	-37.5	-39.3	19.7	0.00e+00	0	40	0	414187520	47	4240
2026-01-24 09:21:44.70	45.50	10.49	-37.6	-39.4	19.6	0.00e+00	0	40	0	420478976	46	4531
2026-01-24 09:21:45.69	45.32	10.50	-37.5	-39.4	19.6	0.00e+00	0	40	0	425721856	46	4525
2026-01-24 09:21:46.69	45.14	10.52	-37.4	-39.3	19.7	0.00e+00	0	40	0	430964736	46	4454
2026-01-24 09:21:47.69	44.96	10.53	-37.6	-39.4	19.6	0.00e+00	0	40	0	437256192	46	4533
2026-01-24 09:21:48.69	44.78	10.54	-37.6	-39.4	19.6	0.00e+00	0	40	0	442499072	46	4525
2026-01-24 09:21:49.69	44.60	10.56	-37.6	-39.4	19.6	0.00e+00	0	40	0	447741952	46	4519
2026-01-24 09:21:50.69	44.42	10.57	-37.5	-39.3	19.7	0.00e+00	0	40	0	454033408	46	4481
2026-01-24 09:21:51.68	44.24	10.58	-37.5	-39.3	19.8	0.00e+00	0	40	0	459276288	46	4462
2026-01-24 09:21:52.68	44.06	10.60	-37.5	-39.3	19.7	0.00e+00	0	40	0	465567744	46	4470
2026-01-24 09:21:53.67	43.88	10.61	-37.3	-39.2	19.8	0.00e+00	0	40	0	470810624	46	4403
2026-01-24 09:21:54.67	43.70	10.62	-37.3	-39.2	19.9	0.00e+00	0	40	0	476053504	46	4396
2026-01-24 09:21:55.67	43.51	10.63	-37.4	-39.3	19.8	0.00e+00	0	40	0	481296384	46	4455
2026-01-24 09:21:56.66	43.33	10.64	-37.4	-39.3	19.8	0.00e+00	0	40	0	487587840	46	4457
2026-01-24 09:21:57.66	43.15	10.66	-37.5	-39.3	19.8	0.00e+00	0	40	0	492830720	46	4472
2026-01-24 09:21:58.66	42.97	10.67	-37.5	-39.4	19.7	0.00e+00	0	40	0	498073600	46	4511
2026-01-24 09:21:59.66	42.79	10.68	-37.5	-39.4	19.7	0.00e+00	0	40	0	504365056	46	4507
2026-01-24 09:22:00.66	42.61	10.69	-37.7	-39.5	19.6	0.00e+00	0	40	0	509607936	46	4588
2026-01-24 09:22:01.65	42.43	10.70	-37.5	-39.4	19.8	0.00e+00	0	40	0	515899392	46	4506
2026-01-24 09:22:02.65	42.24	10.71	-37.6	-39.5	19.7	0.00e+00	0	40	0	521142272	46	4556
2026-01-24 09:22:03.65	42.06	10.72	-37.5	-39.4	19.8	0.00e+00	0	40	0	526385152	46	4496
2026-01-24 09:22:04.65	41.88	10.73	-37.6	-39.5	19.7	0.00e+00	0	40	0	532676608	46	4561
2026-01-24 09:22:05.65	41.69	10.74	-37.6	-39.5	19.7	0.00e+00	0	40	0	537919488	46	4549
2026-01-24 09:22:06.65	41.51	10.74	-37.7	-39.5	19.7	0.00e+00	0	40	0	543162368	46	4588
2026-01-24 09:22:07.65	41.33	10.75	-37.7	-39.6	19.6	0.00e+00	0	40	0	549453824	46	4616
2026-01-24 09:22:08.65	41.15	10.76	-37.8	-39.7	19.5	0.00e+00	0	40	0	554696704	46	4656
2026-01-24 09:22:09.65	40.96	10.77	-37.8	-39.7	19.5	0.00e+00	0	40	0	560988160	46	4672
2026-01-24 09:22:10.64	40.78	10.78	-37.9	-39.7	19.5	0.00e+00	0	40	0	566231040	46	4700
2026-01-24 09:22:11.64	40.60	10.78	-37.8	-39.7	19.5	0.00e+00	0	40	0	571473920	46	4705
2026-01-24 09:22:12.64	40.41	10.79	-37.9	-39.8	19.4	0.00e+00	0	40	0	577765376	46	4728
2026-01-24 09:22:13.64	40.23	10.80	-37.9	-39.8	19.4	0.00e+00	0	40	0	583008256	46	4757
2026-01-24 09:22:14.63	40.05	10.80	-37.9	-39.8	19.5	0.00e+00	0	40	0	588251136	46	4716
2026-01-24 09:22:15.63	39.86	10.81	-38.0	-39.9	19.4	0.00e+00	0	40	0	593494016	46	4766
2026-01-24 09:22:16.63	39.68	10.82	-37.9	-39.8	19.4	0.00e+00	0	40	0	599785472	46	4745
2026-01-24 09:22:17.62	39.50	10.82	-37.9	-39.8	19.5	0.00e+00	0	40	0	605028352	46	4711
2026-01-24 09:22:18.62	39.31	10.83	-37.8	-39.7	19.6	0.00e+00	0	40	0	611319808	46	4658
2026-01-24 09:22:19.61	39.13	10.83	-37.7	-39.5	19.7	0.00e+00	0	40	0	616562688	46	4589
2026-01-24 09:22:20.61	38.95	10.84	-37.7	-39.6	19.7	0.00e+00	0	40	0	621805568	46	4616
2026-01-24 09:22:21.61	38.76	10.84	-37.5	-39.4	19.9	0.00e+00	0	40	0	628097024	46	4507
2026-01-24 09:22:22.61	38.58	10.85	-37.5	-39.4	19.9	0.00e+00	0	40	0	633339904	46	4503
2026-01-24 09:22:23.60	38.40	10.85	-37.4	-39.2	20.0	0.00e+00	0	40	0	638582784	46	4426
2026-01-24 09:22:24.61	38.21	10.86	-37.2	-39.1	20.2	0.00e+00	0	40	0	644874240	46	4341
2026-01-24 09:22:25.60	38.03	10.86	-37.2	-39.1	20.2	0.00e+00	0	40	0	650117120	46	4358
2026-01-24 09:22:26.60	37.84	10.86	-37.4	-39.3	20.0	0.00e+00	0	40	0	655360000	46	4444
2026-01-24 09:22:27.60	37.66	10.86	-37.3	-39.2	20.1	0.00e+00	0	40	0	661651456	46	4395
2026-01-24 09:22:28.59	37.48	10.87	-37.4	-39.3	20.0	0.00e+00	0	40	0	666894336	46	4457
2026-01-24 09:22:29.59	37.29	10.87	-37.5	-39.3	20.0	0.00e+00	0	40	0	673185792	46	4474
2026-01-24 09:22:30.58	37.11	10.87	-37.5	-39.3	20.0	0.00e+00	0	40	0	678428672	46	4466
2026-01-24 09:22:31.58	36.92	10.87	-37.5	-39.4	19.9	0.00e+00	0	40	0	683671552	46	4497
2026-01-24 09:22:32.58	36.74	10.87	-37.5	-39.3	20.0	0.00e+00	0	40	0	689963008	46	4484
2026-01-24 09:22:33.58	36.55	10.88	-37.6	-39.5	19.8	0.00e+00	0	40	0	695205888	46	4566
2026-01-24 09:22:34.57	36.37	10.88	-37.6	-39.5	19.8	0.00e+00	0	40	0	700448768	46	4584
2026-01-24 09:22:35.57	36.19	10.88	-37.6	-39.5	19.8	0.00e+00	0	40	0	705691648	46	4551
2026-01-24 09:22:36.57	36.00	10.88	-37.6	-39.5	19.8	0.00e+00	0	40	0	711983104	46	4580
2026-01-24 09:22:37.57	35.82	10.88	-37.6	-39.5	19.8	0.00e+00	0	40	0	717225984	46	4582
2026-01-24 09:22:38.57	35.63	10.88	-37.8	-39.6	19.7	0.00e+00	0	40	0	723517440	46	4650
2026-01-24 09:22:39.57	35.45	10.88	-37.8	-39.7	19.6	0.00e+00	0	40	0	728760320	46	4687
2026-01-24 09:22:40.57	35.26	10.88	-37.9	-39.8	19.5	0.00e+00	0	40	0	734003200	46	4727
2026-01-24 09:22:41.57	35.08	10.88	-37.9	-39.7	19.6	0.00e+00	0	40	0	740294656	46	4702
2026-01-24 09:22:42.56	34.90	10.87	-37.9	-39.8	19.5	0.00e+00	0	40	0	745537536	46	4710
2026-01-24 09:22:43.56	34.71	10.87	-37.9	-39.8	19.5	0.00e+00	0	40	0	750780416	46	4739
2026-01-24 09:22:44.56	34.53	10.87	-37.8	-39.7	19.6	0.00e+00	0	40	0	757071872	46	4691
2026-01-24 09:22:45.55	34.34	10.87	-37.8	-39.6	19.7	0.00e+00	0	40	0	762314752	46	4644
2026-01-24 09:22:46.55	34.16	10.87	-37.7	-39.6	19.7	0.00e+00	0	40	0	767557632	46	4614
2026-01-24 09:22:47.55	33.98	10.86	-37.8	-39.6	19.7	0.00e+00	0	40	0	773849088	46	4647
2026-01-24 09:22:48.55	33.79	10.86	-37.7	-39.6	19.7	0.00e+00	0	40	0	779091968	46	4619
2026-01-24 09:22:49.55	33.61	10.86	-37.7	-39.5	19.8	0.00e+00	0	40	0	785383424	46	4579
2026-01-24 09:22:50.55	33.42	10.85	-37.4	-39.3	20.0	0.00e+00	0	40	0	790626304	46	4453
2026-01-24 09:22:51.55	33.24	10.85	-37.2	-39.0	20.3	0.00e+00	0	40	0	795869184	46	4320
2026-01-24 09:22:52.54	33.06	10.84	-37.2	-39.0	20.3	0.00e+00	0	40	0	802160640	46	4324
2026-01-24 09:22:53.54	32.87	10.84	-37.2	-39.0	20.3	0.00e+00	0	40	0	807403520	46	4314
2026-01-24 09:22:54.53	32.69	10.84	-37.2	-39.0	20.3	0.00e+00	0	40	0	812646400	46	4316
2026-01-24 09:22:55.53	32.51	10.83	-37.3	-39.1	20.1	0.00e+00	0	40	0	817889280	46	4389
2026-01-24 09:22:56.53	32.32	10.82	-37.2	-39.1	20.2	0.00e+00	0	40	0	824180736	46	4358
2026-01-24 09:22:57.53	32.14	10.82	-37.3	-39.2	20.2	0.00e+00	0	40	0	829423616	46	4398
2026-01-24 09:22:58.53	31.95	10.81	-37.4	-39.3	20.0	0.00e+00	0	40	0	835715072	46	4462
2026-01-24 09:22:59.52	31.77	10.81	-37.3	-39.1	20.1	0.00e+00	0	40	0	840957952	46	4387
2026-01-24 09:23:00.53	31.59	10.80	-37.3	-39.1	20.2	0.00e+00	0	40	0	846200832	46	4381
2026-01-24 09:23:01.52	31.40	10.79	-37.3	-39.1	20.2	0.00e+00	0	40	0	852492288	46	4349
2026-01-24 09:23:02.52	31.22	10.79	-37.3	-39.2	20.2	0.00e+00	0	40	0	857735168	46	4392
2026-01-24 09:23:03.52	31.04	10.78	-37.3	-39.1	20.2	0.00e+00	0	40	0	862978048	46	4376
2026-01-24 09:23:04.52	30.85	10.77	-37.4	-39.3	20.1	0.00e+00	0	40	0	869269504	46	4444
2026-01-24 09:23:05.52	30.67	10.76	-37.6	-39.4	19.9	0.00e+00	0	40	0	874512384	46	4513
2026-01-24 09:23:06.52	30.49	10.76	-37.6	-39.5	19.9	0.00e+00	0	40	0	879755264	46	4554
2026-01-24 09:23:07.51	30.31	10.75	-37.8	-39.6	19.7	0.00e+00	0	40	0	886046720	46	4637
2026-01-24 09:23:08.51	30.12	10.74	-37.9	-39.8	19.6	0.00e+00	0	40	0	891289600	46	4711
2026-01-24 09:23:09.51	29.94	10.73	-37.9	-39.8	19.5	0.00e+00	0	40	0	897581056	46	4750
2026-01-24 09:23:10.50	29.76	10.72	-38.0	-39.9	19.4	0.00e+00	0	40	0	902823936	46	4789
2026-01-24 09:23:11.50	29.58	10.71	-37.9	-39.8	19.6	0.00e+00	0	40	0	908066816	46	4727
2026-01-24 09:23:12.50	29.40	10.70	-37.8	-39.7	19.6	0.00e+00	0	40	0	914358272	46	4698
2026-01-24 09:23:13.50	29.21	10.69	-37.8	-39.7	19.7	0.00e+00	0	40	0	919601152	46	4676
2026-01-24 09:23:14.50	29.03	10.68	-37.8	-39.7	19.7	0.00e+00	0	40	0	924844032	46	4665
2026-01-24 09:23:15.50	28.85	10.67	-37.6	-39.5	19.8	0.00e+00	0	40	0	931135488	46	4570
2026-01-24 09:23:16.49	28.67	10.66	-37.6	-39.4	19.9	0.00e+00	0	40	0	936378368	46	4531
2026-01-24 09:23:17.49	28.49	10.65	-37.6	-39.4	19.9	0.00e+00	0	40	0	941621248	46	4540
2026-01-24 09:23:18.49	28.31	10.64	-37.7	-39.6	19.8	0.00e+00	0	40	0	947912704	46	4610
2026-01-24 09:23:19.49	28.12	10.62	-37.6	-39.4	19.9	0.00e+00	0	40	0	953155584	46	4543
2026-01-24 09:23:20.49	27.94	10.61	-37.6	-39.5	19.9	0.00e+00	0	40	0	959447040	46	4548
2026-01-24 09:23:21.49	27.76	10.60	-37.6	-39.4	20.0	0.00e+00	0	40	0	964689920	46	4527
2026-01-24 09:23:22.48	27.58	10.59	-37.6	-39.4	19.9	0.00e+00	0	40	0	969932800	46	4541
2026-01-24 09:23:23.48	27.40	10.58	-37.6	-39.4	20.0	0.00e+00	0	40	0	975175680	46	4530
2026-01-24 09:23:24.48	27.22	10.56	-37.6	-39.5	19.9	0.00e+00	0	40	0	981467136	46	4578
2026-01-24 09:23:25.47	27.04	10.55	-37.6	-39.5	19.9	0.00e+00	0	40	0	986710016	46	4571
2026-01-24 09:23:26.47	26.86	10.54	-37.7	-39.6	19.8	0.00e+00	0	40	0	991952896	46	4625
2026-01-24 09:23:27.47	26.68	10.52	-37.8	-39.7	19.7	0.00e+00	0	40	0	998244352	46	4661
2026-01-24 09:23:28.46	26.50	10.51	-37.9	-39.8	19.6	0.00e+00	0	40	0	1003487232	46	4709
2026-01-24 09:23:29.45	26.33	10.49	-37.8	-39.8	19.7	0.00e+00	0	40	0	1009778688	46	4713
2026-01-24 09:23:30.45	26.15	10.48	-37.9	-39.9	19.5	0.00e+00	0	40	0	1015021568	46	4765
2026-01-24 09:23:31.45	25.97	10.46	-37.9	-39.8	19.6	0.00e+00	0	40	0	1020264448	46	4754
2026-01-24 09:23:32.45	25.79	10.45	-38.0	-39.9	19.5	0.00e+00	0	40	0	1026555904	46	4802
2026-01-24 09:23:33.45	25.61	10.43	-37.9	-39.9	19.6	0.00e+00	0	40	0	1031798784	46	4763
2026-01-24 09:23:34.45	25.43	10.42	-38.0	-39.9	19.5	0.00e+00	0	40	0	1037041664	46	4792
2026-01-24 09:23:35.44	25.25	10.40	-38.0	-39.9	19.5	0.00e+00	0	40	0	1043333120	46	4778
2026-01-24 09:23:36.44	25.08	10.39	-38.0	-39.9	19.5	0.00e+00	0	40	0	1048576000	46	4782
2026-01-24 09:23:37.44	24.90	10.37	-38.1	-40.0	19.4	0.00e+00	0	40	0	1053818880	46	4842
2026-01-24 09:23:38.44	24.72	10.35	-38.1	-40.0	19.4	0.00e+00	0	40	0	1060110336	46	4852
2026-01-24 09:23:39.43	24.54	10.33	-38.1	-40.0	19.4	0.00e+00	0	40	0	1065353216	46	4846
2026-01-24 09:23:40.43	24.37	10.32	-38.1	-40.0	19.5	0.00e+00	0	40	0	1070596096	46	4834
2026-01-24 09:23:41.43	24.19	10.30	-38.0	-39.9	19.5	0.00e+00	0	40	0	1076887552	46	4779
2026-01-24 09:23:42.43	24.01	10.28	-37.9	-39.8	19.6	0.00e+00	0	40	0	1082130432	46	4752
2026-01-24 09:23:43.43	23.83	10.26	-38.0	-39.9	19.5	0.00e+00	0	40	0	1087373312	46	4793
2026-01-24 09:23:44.42	23.66	10.25	-38.0	-39.9	19.5	0.00e+00	0	40	0	1093664768	46	4783
2026-01-24 09:23:45.42	23.48	10.23	-38.1	-40.0	19.5	0.00e+00	0	40	0	1098907648	46	4828
2026-01-24 09:23:46.42	23.31	10.21	-38.0	-39.9	19.5	0.00e+00	0	40	0	1105199104	46	4765
2026-01-24 09:23:47.41	23.13	10.19	-38.0	-39.9	19.5	0.00e+00	0	40	0	1110441984	46	4783
2026-01-24 09:23:48.41	22.96	10.17	-37.8	-39.7	19.7	0.00e+00	0	40	0	1115684864	46	4688
2026-01-24 09:23:49.41	22.78	10.15	-37.8	-39.7	19.7	0.00e+00	0	40	0	1121976320	46	4695
2026-01-24 09:23:50.41	22.61	10.13	-37.7	-39.6	19.8	0.00e+00	0	40	0	1127219200	46	4635
2026-01-24 09:23:51.41	22.43	10.11	-37.7	-39.7	19.7	0.00e+00	0	40	0	1132462080	46	4681
2026-01-24 09:23:52.41	22.26	10.09	-37.7	-39.7	19.7	0.00e+00	0	40	0	1138753536	46	4680
2026-01-24 09:23:53.40	22.08	10.07	-37.7	-39.7	19.7	0.00e+00	0	40	0	1143996416	46	4701
2026-01-24 09:23:54.40	21.91	10.05	-37.7	-39.7	19.7	0.00e+00	0	40	0	1149239296	46	4680
2026-01-24 09:23:55.40	21.73	10.03	-37.7	-39.7	19.7	0.00e+00	0	40	0	1155530752	46	4701
2026-01-24 09:23:56.40	21.56	10.01	-37.7	-39.8	19.7	0.00e+00	0	40	0	1160773632	46	4712
2026-01-24 09:23:57.40	21.39	9.99	-37.8	-39.8	19.6	0.00e+00	0	40	0	1167065088	46	4748
2026-01-24 09:23:58.40	21.21	9.97	-37.8	-39.9	19.5	0.00e+00	0	40	0	1172307968	46	4761
2026-01-24 09:23:59.40	21.04	9.94	-37.7	-39.7	19.7	0.00e+00	0	40	0	1177550848	46	4705
2026-01-24 09:24:00.39	20.87	9.92	-37.7	-39.7	19.7	0.00e+00	0	40	0	1183842304	46	4679
2026-01-24 09:24:01.39	20.70	9.90	-37.8	-39.8	19.6	0.00e+00	0	40	0	1189085184	46	4747
2026-01-24 09:24:02.39	20.52	9.88	-37.9	-39.9	19.5	0.00e+00	0	40	0	1194328064	46	4774
2026-01-24 09:24:03.39	20.35	9.85	-38.0	-40.0	19.4	0.00e+00	0	40	0	1200619520	46	4860
2026-01-24 09:24:04.39	20.18	9.83	-38.0	-40.0	19.5	0.00e+00	0	40	0	1205862400	46	4823
2026-01-24 09:24:05.39	20.01	9.81	-37.9	-39.9	19.5	0.00e+00	0	40	0	1211105280	46	4796
2026-01-24 09:24:06.38	19.84	9.79	-37.9	-39.9	19.5	0.00e+00	0	40	0	1217396736	46	4766
2026-01-24 09:24:07.38	19.67	9.76	-38.0	-40.0	19.4	0.00e+00	0	40	0	1222639616	46	4819
2026-01-24 09:24:08.38	19.50	9.74	-37.9	-39.8	19.6	0.00e+00	0	40	0	1228931072	46	4750
2026-01-24 09:24:09.38	19.33	9.71	-38.0	-39.9	19.5	0.00e+00	0	40	0	1234173952	46	4804
2026-01-24 09:24:10.38	19.16	9.69	-38.0	-39.9	19.5	0.00e+00	0	40	0	1239416832	46	4786
2026-01-24 09:24:11.38	18.99	9.67	-38.0	-39.9	19.5	0.00e+00	0	40	0	1245708288	46	4798
2026-01-24 09:24:12.38	18.82	9.64	-38.0	-39.9	19.5	0.00e+00	0	40	0	1250951168	46	4784
2026-01-24 09:24:13.38	18.65	9.62	-38.0	-39.9	19.5	0.00e+00	0	40	0	1256194048	46	4803
2026-01-24 09:24:14.38	18.48	9.59	-38.0	-39.9	19.5	0.00e+00	0	40	0	1261436928	46	4796
2026-01-24 09:24:15.38	18.31	9.57	-37.9	-39.8	19.6	0.00e+00	0	40	0	1267728384	46	4747
2026-01-24 09:24:16.37	18.15	9.54	-38.0	-39.9	19.6	0.00e+00	0	40	0	1272971264	46	4762
2026-01-24 09:24:17.37	17.98	9.51	-38.0	-39.9	19.4	0.00e+00	0	40	0	1279262720	46	4810
2026-01-24 09:24:18.37	17.81	9.49	-38.0	-39.9	19.5	0.00e+00	0	40	0	1284505600	46	4784
2026-01-24 09:24:19.36	17.65	9.46	-38.0	-40.0	19.4	0.00e+00	0	40	0	1289748480	46	4825
2026-01-24 09:24:20.36	17.48	9.44	-38.0	-39.9	19.5	0.00e+00	0	40	0	1296039936	46	4809
2026-01-24 09:24:21.37	17.31	9.41	-38.0	-40.0	19.4	0.00e+00	0	40	0	1301282816	46	4849
2026-01-24 09:24:22.36	17.15	9.38	-38.1	-40.0	19.4	0.00e+00	0	40	0	1306525696	46	4861
2026-01-24 09:24:23.36	16.98	9.36	-38.1	-40.0	19.3	0.00e+00	0	40	0	1312817152	46	4867
2026-01-24 09:24:24.36	16.81	9.33	-38.0	-40.0	19.4	0.00e+00	0	40	0	1318060032	46	4851
2026-01-24 09:24:25.35	16.65	9.30	-38.1	-40.1	19.3	0.00e+00	0	40	0	1323302912	46	4901
2026-01-24 09:24:26.35	16.48	9.27	-38.1	-40.2	19.2	0.00e+00	0	40	0	1329594368	46	4952
2026-01-24 09:24:27.35	16.32	9.25	-38.3	-40.4	19.0	0.00e+00	0	40	0	1334837248	47	4786
2026-01-24 09:24:28.35	16.16	9.22	-38.3	-40.4	19.0	0.00e+00	0	40	0	1341128704	47	4811
2026-01-24 09:24:29.35	15.99	9.19	-38.4	-40.5	18.9	0.00e+00	0	40	0	1346371584	47	4842
2026-01-24 09:24:30.35	15.83	9.16	-38.5	-40.6	18.8	0.00e+00	0	40	0	1351614464	47	4911
2026-01-24 09:24:31.35	15.66	9.13	-38.4	-40.5	18.3	0.00e+00	0	40	0	1357905920	47	4826
2026-01-24 09:24:32.34	15.50	9.10	-38.5	-40.6	18.9	0.00e+00	0	40	0	1363148800	47	4873
2026-01-24 09:24:33.34	15.34	9.08	-38.5	-40.6	18.8	0.00e+00	0	40	0	1368391680	47	4886
2026-01-24 09:24:34.34	15.18	9.05	-38.5	-40.6	18.8	0.00e+00	0	40	0	1374683136	47	4899
2026-01-24 09:24:35.34	15.01	9.02	-38.7	-40.8	18.6	0.00e+00	0	40	0	1379926016	47	4998
2026-01-24 09:24:36.34	14.85	8.99	-47.3	-59.3	3.8	8.25e-01	0	40	104	1384120320	65	15006
2026-01-24 09:24:37.34	14.69	8.96	-49.1	-61.2	3.8	8.47e-01	0	40	104	1384120320	68	15634
2026-01-24 09:24:38.34	14.53	8.93	-48.5	-61.2	3.8	8.46e-01	0	40	104	1384120320	67	16544
2026-01-24 09:24:39.34	14.37	8.90	-49.0	-61.4	3.8	8.47e-01	0	40	104	1384120320	68	15992
2026-01-24 09:24:40.34	14.21	8.87	-48.8	-61.4	3.8	8.47e-01	0	40	104	1384120320	68	16102
2026-01-24 09:24:41.34	14.05	8.84	-49.0	-61.5	3.8	8.47e-01	0	40	104	1384120320	68	16245
2026-01-24 09:24:42.34	13.89	8.81	-49.3	-61.6	3.8	8.48e-01	0	40	104	1384120320	69	15425
2026-01-24 09:24:43.34	13.73	8.78	-48.7	-61.6	3.8	8.47e-01	0	40	104	1384120320	69	15460
2026-01-24 09:24:44.34	13.57	8.74	-49.2	-61.6	3.8	8.47e-01	0	40	104	1384120320	69	15558
2026-01-24 09:24:45.34	13.41	8.71	-49.5	-61.7	3.8	8.48e-01	0	40	104	1384120320	69	15619
2026-01-24 09:24:46.34	13.25	8.68	-49.1	-61.7	3.8	8.47e-01	0	40	104	1384120320	69	15630
2026-01-24 09:24:47.33	13.10	8.65	-49.4	-61.7	3.8	8.46e-01	0	40	104	1384120320	69	15632
2026-01-24 09:24:48.34	12.94	8.62	-49.4	-61.7	3.8	8.47e-01	0	40	104	1384120320	69	15683
2026-01-24 09:24:49.33	12.78	8.59	-49.4	-61.7	3.8	8.47e-01	0	40	104	1384120320	69	15744
2026-01-24 09:24:50.33	12.62	8.56	-49.5	-61.8	3.8	8.46e-01	0	40	104	1384120320	69	15772
2026-01-24 09:24:51.33	12.47	8.52	-49.4	-61.8	3.8	8.46e-01	0	40	104	1384120320	69	15761
2026-01-24 09:24:52.32	12.31	8.49	-49.7	-61.8	3.8	8.47e-01	0	40	104	1384120320	70	14882
2026-01-24 09:24:53.32	12.16	8.46	-49.6	-61.7	3.8	8.48e-01	0	40	104	1384120320	70	14838
2026-01-24 09:24:54.32	12.00	8.43	-49.5	-61.7	3.8	8.47e-01	0	40	104	1384120320	70	14857
2026-01-24 09:24:55.32	11.85	8.39	-49.6	-61.7	3.8	8.47e-01	0	40	104	1384120320	70	14839
2026-01-24 09:24:56.32	11.69	8.36	-49.5	-61.7	3.8	8.46e-01	0	40	104	1384120320	70	14832
2026-01-24 09:24:57.32	11.54	8.33	-49.6	-61.7	3.8	8.47e-01	0	40	104	1384120320	70	14733
2026-01-24 09:24:58.32	11.38	8.30	-49.5	-61.7	3.8	8.47e-01	0	40	104	1384120320	70	14778
2026-01-24 09:24:59.32	11.23	8.26	-49.3	-61.7	3.8	8.46e-01	0	40	104	1384120320	70	14788
2026-01-24 09:25:00.32	11.08	8.23	-49.4	-61.7	3.8	8.48e-01	0	40	104	1384120320	70	14803
2026-01-24 09:25:01.32	10.92	8.20	-49.3	-61.7	3.8	8.47e-01	0	40	104	1384120320	70	14726
2026-01-24 09:25:02.31	10.77	8.16	-49.3	-61.7	3.8	8.48e-01	0	40	104	1384120320	70	14728
2026-01-24 09:25:03.31	10.62	8.13	-49.3	-61.6	3.8	8.47e-01	0	40	104	1384120320	70	14680
2026-01-24 09:25:04.30	10.47	8.09	-49.3	-61.6	3.8	8.47e-01	0	40	104	1384120320	70	14673
2026-01-24 09:25:05.31	10.31	8.06	-49.3	-61.6	3.8	8.46e-01	0	40	104	1384120320	70	14708
2026-01-24 09:25:06.30	10.17	8.03	-49.3	-61.6	3.8	8.47e-01	0	40	104	1384120320	70	14698
2026-01-24 09:25:07.30	10.01	7.99	-49.3	-61.6	3.8	8.46e-01	0	40	104	1384120320	70	14626
2026-01-24 09:25:08.30	9.86	7.96	-49.3	-61.6	3.8	8.48e-01	0	40	104	1384120320	70	14672
2026-01-24 09:25:09.30	9.71	7.92	-49.3	-61.6	3.8	8.46e-01	0	40	104	1384120320	70	14638
2026-01-24 09:25:10.29	9.57	7.89	-49.3	-61.6	3.8	8.47e-01	0	40	104	1384120320	70	14626
2026-01-24 09:25:11.29	9.42	7.85	-49.3	-61.7	3.8	8.47e-01	0	40	104	1384120320	70	14713
2026-01-24 09:25:12.29	9.27	7.82	-49.3	-61.6	3.8	8.47e-01	0	40	104	1384120320	70	14670
2026-01-24 09:25:13.29	9.12	7.78	-49.3	-61.6	3.8	8.46e-01	0	40	104	1384120320	70	14618
2026-01-24 09:25:14.29	8.97	7.75	-49.3	-61.6	3.8	8.48e-01	0	40	104	1384120320	70	14698
2026-01-24 09:25:15.29	8.82	7.71	-49.3	-61.6	3.8	8.47e-01	0	40	104	1384120320	70	14704
2026-01-24 09:25:16.28	8.68	7.68	-49.3	-61.7	3.8	8.47e-01	0	40	104	1384120320	70	14719
2026-01-24 09:25:17.28	8.53	7.64	-49.3	-61.6	3.8	8.47e-01	0	40	104	1384120320	70	14655
2026-01-24 09:25:18.28	8.38	7.60	-49.3	-61.6	3.8	8.47e-01	0	40	104	1384120320	70	14652
2026-01-24 09:25:19.27	8.24	7.57	-49.3	-61.6	3.8	8.46e-01	0	40	104	1384120320	70	14615
2026-01-24 09:25:20.27	8.09	7.53	-49.3	-61.6	3.8	8.48e-01	0	40	104	1384120320	70	14605
2026-01-24 09:25:21.27	7.94	7.50	-49.3	-61.6	3.8	8.48e-01	0	40	104	1384120320	70	14612
2026-01-24 09:25:22.26	7.80	7.46	-49.3	-61.6	3.8	8.48e-01	0	40	104	1384120320	70	14621
2026-01-24 09:25:23.26	7.66	7.42	-49.3	-61.6	3.8	8.46e-01	0	40	104	1384120320	70	14645
2026-01-24 09:25:24.26	7.51	7.39	-49.3	-61.7	3.8	8.47e-01	0	40	104	1384120320	70	14716
2026-01-24 09:25:25.26	7.37	7.35	-49.3	-61.5	3.8	8.46e-01	0	40	104	1384120320	70	14534
2026-01-24 09:25:26.26	7.22	7.31	-49.3	-61.6	3.8	8.47e-01	0	40	104	1384120320	70	14699
2026-01-24 09:25:27.25	7.08	7.28	-49.3	-61.6	3.8	8.46e-01	0	40	104	1384120320	70	14600
2026-01-24 09:25:28.25	6.94	7.24	-49.3	-61.6	3.8	8.47e-01	0	40	104	1384120320	70	14686
2026-01-24 09:25:29.25	6.79	7.20	-49.3	-61.6	3.8	8.47e-01	0	40	104	1384120320	70	14588
2026-01-24 09:25:30.25	6.65	7.16	-49.3	-61.5	3.8	8.47e-01	0	40	104	1384120320	70	14527
2026-01-24 09:25:31.25	6.51	7.13	-49.3	-61.6	3.8	8.47e-01	0	40	104	1384120320	70	14622
2026-01-24 09:25:32.25	6.37	7.09	-49.3	-61.6	3.8	8.47e-01	0	40	104	1384120320	70	14644
2026-01-24 09:25:33.24	6.23	7.05	-49.3	-61.6	3.8	8.47e-01	0	40	104	1384120320	70	14583
2026-01-24 09:25:34.24	6.09	7.01	-49.3	-61.6	3.8	8.46e-01	0	40	104	1384120320	70	14581
2026-01-24 09:25:35.24	5.95	6.98	-49.3	-61.6	3.8	8.46e-01	0	40	104	1384120320	70	14653
2026-01-24 09:25:36.24	5.81	6.94	-49.3	-61.6	3.8	8.48e-01	0	40	104	1384120320	70	14562
2026-01-24 09:25:37.24	5.67	6.90	-49.3	-61.6	3.8	8.47e-01	0	40	104	1384120320	70	14573
2026-01-24 09:25:38.24	5.53	6.86	-49.3	-61.6	3.8	8.48e-01	0	40	104	1384120320	70	14602
2026-01-24 09:25:39.23	5.39	6.82	-49.3	-61.6	3.8	8.47e-01	0	40	104	1384120320	70	14570
2026-01-24 09:25:40.23	5.25	6.78	-49.3	-61.6	3.8	8.47e-01	0	40	104	1384120320	70	14633
2026-01-24 09:25:41.23	5.11	6.75	-49.3	-61.6	3.8	8.48e-01	0	40	104	1384120320	70	14635
2026-01-24 09:25:42.23	4.98	6.71	-49.3	-61.6	3.8	8.47e-01	0	40	104	1384120320	70	14606
2026-01-24 09:25:43.22	4.84	6.67	-49.3	-61.6	3.8	8.47e-01	0	40	104	1384120320	70	14576
2026-01-24 09:25:44.22	4.70	6.63	-49.2	-61.6	3.8	8.48e-01	0	40	104	1384120320	70	14549
2026-01-24 09:25:45.22	4.57	6.59	-49.3	-61.6	3.8	8.48e-01	0	40	104	1384120320	70	14580
2026-01-24 09:25:46.22	4.43	6.55	-49.2	-61.6	3.8	8.46e-01	0	40	104	1384120320	70	14585
2026-01-24 09:25:47.22	4.29	6.51	-49.2	-61.6	3.8	8.47e-01	0	40	104	1384120320	70	14582
2026-01-24 09:25:48.22	4.16	6.47	-49.3	-61.6	3.8	8.46e-01	0	40	104	1384120320	70	14647
2026-01-24 09:25:49.21	4.02	6.43	-49.3	-61.6	3.8	8.47e-01	0	40	104	1384120320	70	14583
2026-01-24 09:25:50.21	3.89	6.40	-49.2	-61.6	3.8	8.46e-01	0	40	104	1384120320	70	14599
2026-01-24 09:25:51.21	3.75	6.36	-49.3	-61.6	3.8	8.47e-01	0	40	104	1384120320	70	14545
2026-01-24 09:25:52.20	3.62	6.32	-49.3	-61.6	3.8	8.47e-01	0	40	104	1384120320	70	14561
2026-01-24 09:25:53.20	3.49	6.28	-49.3	-61.6	3.8	8.47e-01	0	40	104	1384120320	70	14572
2026-01-24 09:25:54.20	3.35	6.24	-49.3	-61.6	3.8	8.47e-01	0	40	104	1384120320	70	14606
2026-01-24 09:25:55.20	3.22	6.20	-49.3	-61.6	3.8	8.47e-01	0	40	104	1384120320	70	14557
2026-01-24 09:25:56.19	3.09	6.16	-49.3	-61.6	3.8	8.46e-01	0	40	104	1384120320	70	14604
2026-01-24 09:25:57.19	2.96	6.12	-49.2	-61.6	3.8	8.47e-01	0	40	104	1384120320	70	14633
2026-01-24 09:25:58.18	2.83	6.08	-49.2	-61.5	3.8	8.46e-01	0	40	104	1384120320	69	15382
2026-01-24 09:25:59.18	2.69	6.04	-49.2	-61.6	3.8	8.48e-01	0	40	104	1384120320	69	15449
2026-01-24 09:26:00.17	2.57	6.00	-49.2	-61.6	3.8	8.47e-01	0	40	104	1384120320	69	15419
2026-01-24 09:26:01.17	2.43	5.96	-49.2	-61.6	3.8	8.46e-01	0	40	104	1384120320	69	15410
2026-01-24 09:26:02.16	2.31	5.92	-49.2	-61.6	3.8	8.46e-01	0	40	104	1384120320	69	15452
2026-01-24 09:26:03.15	2.18	5.88	-49.2	-61.6	3.8	8.48e-01	0	40	104	1384120320	69	15421
2026-01-24 09:26:04.15	2.05	5.84	-49.2	-61.6	3.8	8.47e-01	0	40	104	1384120320	69	15443
2026-01-24 09:26:05.14	1.92	5.80	-49.2	-61.5	3.8	8.46e-01	0	40	104	1384120320	69	15361
2026-01-24 09:26:06.14	1.79	5.76	-49.2	-61.5	3.8	8.46e-01	0	40	104	1384120320	69	15371
2026-01-24 09:26:07.14	1.66	5.72	-49.2	-61.6	3.8	8.47e-01	0	40	104	1384120320	69	15420
2026-01-24 09:26:08.13	1.53	5.68	-49.2	-61.5	3.8	8.46e-01	0	40	104	1384120320	69	15398
2026-01-24 09:26:09.13	1.41	5.63	-49.2	-61.6	3.8	8.46e-01	0	40	104	1384120320	69	15420
2026-01-24 09:26:10.13	1.28	5.59	-49.2	-61.6	3.8	8.47e-01	0	40	104	1384120320	69	15456
2026-01-24 09:26:11.12	1.15	5.55	-49.2	-61.6	3.8	8.47e-01	0	40	104	1384120320	69	15403
2026-01-24 09:26:12.12	1.03	5.51	-49.2	-61.6	3.8	8.47e-01	0	40	104	1384120320	69	15432
2026-01-24 09:26:13.11	0.90	5.47	-49.2	-61.6	3.8	8.
