passes_logs/2026/01/24/T1/T1__20260124_225041_KHAYYAM_rec.log

#Pass ID: 20260124_225041_KHAYYAM
#Satellite: KHAYYAM
#Configuration: KHAYYAM_480M
#almurnet v.1.7.20251203
#Start time: 2026-01-24 22:50:40

#Version: 2.0.20230620
#Station: T1
#Location: 37.570604 lon 55.790049 lat
#TLE: 1 53370U 22096A   26024.53891351  .00009807  00000+0  39879-3 0  9998
#TLE: 2 53370  97.3549 291.3780 0001977 107.4992 252.6462 15.24736514192695

#Time	Az	El	Level	Level2	SNR	BER	BlckErr	Temp	State	Recorded	gain1	gain2
2026-01-24 22:50:40.54	352.48	4.98	-49.2	-55.1	3.5	0.00e+00	0	40	0	0	68	30928
2026-01-24 22:50:41.53	352.34	5.04	-50.1	-55.8	3.7	0.00e+00	0	40	104	0	70	29924
2026-01-24 22:50:42.53	352.20	5.10	-50.1	-55.8	3.7	0.00e+00	0	40	104	0	70	29868
2026-01-24 22:50:43.52	352.06	5.16	-50.1	-55.7	3.7	0.00e+00	0	40	104	0	70	29806
2026-01-24 22:50:44.51	351.92	5.22	-50.1	-55.8	3.7	0.00e+00	0	40	104	0	70	29968
2026-01-24 22:50:45.51	351.78	5.28	-50.1	-55.8	3.7	0.00e+00	0	41	104	0	70	29937
2026-01-24 22:50:46.50	351.63	5.34	-50.1	-55.8	3.7	0.00e+00	0	41	104	0	70	30015
2026-01-24 22:50:47.49	351.49	5.40	-50.1	-55.8	3.7	0.00e+00	0	41	104	0	70	29859
2026-01-24 22:50:48.48	351.35	5.46	-50.1	-55.8	3.7	0.00e+00	0	41	104	0	70	29898
2026-01-24 22:50:49.48	351.20	5.52	-50.1	-55.8	3.7	0.00e+00	0	41	104	0	70	29939
2026-01-24 22:50:50.47	351.05	5.58	-50.1	-55.8	3.7	0.00e+00	0	41	104	0	70	29938
2026-01-24 22:50:51.46	350.90	5.64	-50.1	-55.8	3.7	0.00e+00	0	41	104	0	70	29827
2026-01-24 22:50:52.46	350.76	5.70	-50.1	-55.8	3.7	0.00e+00	0	41	104	0	70	29856
2026-01-24 22:50:53.45	350.61	5.76	-50.1	-55.8	3.7	0.00e+00	0	41	104	0	70	29838
2026-01-24 22:50:54.44	350.46	5.82	-50.1	-55.8	3.7	0.00e+00	0	41	104	0	70	29858
2026-01-24 22:50:55.44	350.31	5.88	-50.1	-55.8	3.7	0.00e+00	0	41	104	0	70	29962
2026-01-24 22:50:56.43	350.15	5.95	-50.1	-55.8	3.7	0.00e+00	0	41	104	0	70	29844
2026-01-24 22:50:57.42	350.00	6.01	-50.1	-55.7	3.7	0.00e+00	0	42	104	0	70	29771
2026-01-24 22:50:58.42	349.85	6.07	-50.1	-55.8	3.7	0.00e+00	0	42	104	0	70	29882
2026-01-24 22:50:59.41	349.69	6.13	-50.1	-55.8	3.7	0.00e+00	0	42	104	0	70	29884
2026-01-24 22:51:00.40	349.54	6.19	-50.1	-55.8	3.7	0.00e+00	0	42	104	0	70	29933
2026-01-24 22:51:01.40	349.38	6.25	-50.1	-55.8	3.7	0.00e+00	0	42	104	0	70	29849
2026-01-24 22:51:02.39	349.23	6.31	-50.1	-55.8	3.7	0.00e+00	0	42	104	0	70	29919
2026-01-24 22:51:03.38	349.07	6.37	-50.1	-55.8	3.7	0.00e+00	0	42	104	0	70	29833
2026-01-24 22:51:04.38	348.91	6.43	-50.1	-55.8	3.7	0.00e+00	0	42	104	0	70	29862
2026-01-24 22:51:05.37	348.75	6.49	-50.1	-55.8	3.7	0.00e+00	0	42	104	0	70	29896
2026-01-24 22:51:06.36	348.59	6.55	-50.1	-55.8	3.7	0.00e+00	0	42	104	0	70	29929
2026-01-24 22:51:07.36	348.43	6.61	-50.1	-55.7	3.7	0.00e+00	0	42	104	0	70	29729
2026-01-24 22:51:08.35	348.27	6.67	-50.1	-55.8	3.7	0.00e+00	0	42	104	0	70	29826
2026-01-24 22:51:09.34	348.11	6.74	-50.1	-55.7	3.7	0.00e+00	0	42	104	0	70	29742
2026-01-24 22:51:10.34	347.94	6.80	-50.1	-55.8	3.7	0.00e+00	0	42	104	0	70	29868
2026-01-24 22:51:11.33	347.78	6.86	-50.1	-55.8	3.7	0.00e+00	0	43	104	0	70	29874
2026-01-24 22:51:12.32	347.61	6.92	-50.1	-55.7	3.7	0.00e+00	0	43	104	0	70	29795
2026-01-24 22:51:13.32	347.45	6.98	-50.1	-55.8	3.7	0.00e+00	0	43	104	0	70	29857
2026-01-24 22:51:14.31	347.28	7.04	-50.1	-55.8	3.7	0.00e+00	0	43	104	0	70	29850
2026-01-24 22:51:15.30	347.11	7.10	-50.1	-55.7	3.7	0.00e+00	0	43	104	0	70	29819
2026-01-24 22:51:16.30	346.94	7.16	-50.1	-55.8	3.7	0.00e+00	0	43	104	0	70	29942
2026-01-24 22:51:17.29	346.77	7.22	-50.1	-55.8	3.7	0.00e+00	0	43	104	0	70	29946
2026-01-24 22:51:18.28	346.60	7.28	-50.1	-55.8	3.7	0.00e+00	0	43	104	0	70	29849
2026-01-24 22:51:19.27	346.43	7.35	-50.1	-55.8	3.7	0.00e+00	0	43	104	0	70	29894
2026-01-24 22:51:20.27	346.26	7.41	-50.1	-55.8	3.7	0.00e+00	0	43	104	0	70	29839
2026-01-24 22:51:21.26	346.08	7.47	-50.1	-55.7	3.7	0.00e+00	0	43	104	0	70	29822
2026-01-24 22:51:22.25	345.91	7.53	-50.1	-55.8	3.7	0.00e+00	0	43	104	0	70	29902
2026-01-24 22:51:23.25	345.73	7.59	-50.1	-55.8	3.7	0.00e+00	0	43	104	0	70	29942
2026-01-24 22:51:24.24	345.56	7.65	-50.1	-55.8	3.7	0.00e+00	0	43	104	0	70	29825
2026-01-24 22:51:25.24	345.38	7.71	-50.1	-55.8	3.7	0.00e+00	0	43	104	0	70	29913
2026-01-24 22:51:26.23	345.20	7.77	-50.1	-55.7	3.7	0.00e+00	0	43	104	0	70	29743
2026-01-24 22:51:27.22	345.02	7.83	-50.1	-55.8	3.7	0.00e+00	0	43	104	0	70	29882
2026-01-24 22:51:28.21	344.84	7.89	-50.1	-55.8	3.7	0.00e+00	0	43	104	0	70	29851
2026-01-24 22:51:29.21	344.66	7.96	-50.1	-55.8	3.7	0.00e+00	0	43	104	0	70	29842
2026-01-24 22:51:30.20	344.48	8.02	-50.1	-55.7	3.7	0.00e+00	0	43	104	0	70	29820
2026-01-24 22:51:31.19	344.29	8.08	-50.1	-55.8	3.7	0.00e+00	0	43	104	0	70	29901
2026-01-24 22:51:32.19	344.11	8.14	-50.1	-55.8	3.7	0.00e+00	0	44	104	0	70	29841
2026-01-24 22:51:33.18	343.92	8.20	-50.1	-55.8	3.7	0.00e+00	0	43	104	0	70	29921
2026-01-24 22:51:34.17	343.74	8.26	-50.1	-55.7	3.7	0.00e+00	0	44	104	0	70	29809
2026-01-24 22:51:35.17	343.55	8.32	-50.1	-55.8	3.7	0.00e+00	0	44	104	0	70	29852
2026-01-24 22:51:36.16	343.36	8.38	-50.1	-55.7	3.7	0.00e+00	0	44	104	0	70	29761
2026-01-24 22:51:37.15	343.17	8.44	-50.1	-55.8	3.7	0.00e+00	0	44	104	0	70	29938
2026-01-24 22:51:38.15	342.98	8.50	-50.1	-55.8	3.7	0.00e+00	0	44	104	0	70	29873
2026-01-24 22:51:39.14	342.79	8.56	-50.1	-55.7	3.7	0.00e+00	0	44	104	0	70	29758
2026-01-24 22:51:40.13	342.60	8.62	-50.1	-55.8	3.7	0.00e+00	0	44	104	0	70	29906
2026-01-24 22:51:41.13	342.41	8.68	-50.1	-55.7	3.7	0.00e+00	0	44	104	0	70	29784
2026-01-24 22:51:42.12	342.21	8.74	-50.1	-55.8	3.7	0.00e+00	0	44	104	0	70	29888
2026-01-24 22:51:43.11	342.02	8.80	-50.1	-55.7	3.7	0.00e+00	0	44	104	0	70	29753
2026-01-24 22:51:44.11	341.82	8.86	-50.1	-55.8	3.7	0.00e+00	0	44	104	0	70	29886
2026-01-24 22:51:45.10	341.62	8.92	-50.1	-55.8	3.7	0.00e+00	0	44	104	0	70	29936
2026-01-24 22:51:46.09	341.43	8.98	-50.1	-55.8	3.7	0.00e+00	0	44	104	0	70	29867
2026-01-24 22:51:47.09	341.22	9.04	-50.1	-55.8	3.7	0.00e+00	0	44	104	0	70	29878
2026-01-24 22:51:48.08	341.02	9.10	-50.6	-56.1	3.7	0.00e+00	0	44	104	0	71	29249
2026-01-24 22:51:49.08	340.82	9.16	-51.2	-56.6	3.7	0.00e+00	0	44	104	0	73	27633
2026-01-24 22:51:50.07	340.62	9.22	-51.2	-56.3	3.7	0.00e+00	0	44	104	0	73	26877
2026-01-24 22:51:51.07	340.41	9.28	-51.0	-56.4	3.7	0.00e+00	0	44	104	0	73	27033
2026-01-24 22:51:52.06	340.21	9.34	-51.1	-56.4	3.7	0.00e+00	0	44	104	0	73	26981
2026-01-24 22:51:53.06	340.00	9.40	-51.0	-56.2	3.7	0.00e+00	0	44	104	0	73	26573
2026-01-24 22:51:54.05	339.80	9.46	-51.2	-56.5	3.7	0.00e+00	0	44	104	0	73	27515
2026-01-24 22:51:55.05	339.59	9.52	-50.0	-55.6	3.7	0.00e+00	0	44	104	0	72	26142
2026-01-24 22:51:56.04	339.38	9.58	-50.0	-55.6	3.7	0.00e+00	0	44	104	0	71	27642
2026-01-24 22:51:57.04	339.17	9.64	-48.1	-54.3	3.7	0.00e+00	0	44	104	0	68	28361
2026-01-24 22:51:58.03	338.96	9.70	-49.5	-55.3	3.7	0.00e+00	0	44	104	0	69	30060
2026-01-24 22:51:59.03	338.74	9.75	-49.0	-54.9	3.7	0.00e+00	0	44	104	0	68	30310
2026-01-24 22:52:00.02	338.53	9.81	-48.5	-54.5	3.7	0.00e+00	0	44	104	0	68	29057
2026-01-24 22:52:01.02	338.32	9.87	-48.8	-54.8	3.7	0.00e+00	0	44	104	0	68	29952
2026-01-24 22:52:02.01	338.10	9.93	-48.6	-54.6	3.7	0.00e+00	0	44	104	0	68	29470
2026-01-24 22:52:03.01	337.88	9.99	-48.2	-54.4	3.7	0.00e+00	0	44	104	0	68	28674
2026-01-24 22:52:04.01	337.66	10.05	-47.6	-53.8	3.7	0.00e+00	0	44	104	0	67	28465
2026-01-24 22:52:05.00	337.45	10.10	-47.2	-53.5	3.8	0.00e+00	0	45	104	0	66	29082
2026-01-24 22:52:06.00	337.22	10.16	-47.1	-53.5	3.8	0.00e+00	0	44	104	0	66	28966
2026-01-24 22:52:06.99	337.00	10.22	-47.6	-53.9	3.8	0.00e+00	0	44	104	0	66	30195
2026-01-24 22:52:07.99	336.78	10.28	-48.5	-54.6	3.7	0.00e+00	0	44	104	0	67	31058
2026-01-24 22:52:08.99	336.56	10.33	-47.6	-53.8	3.7	0.00e+00	0	44	104	0	67	28435
2026-01-24 22:52:09.98	336.33	10.39	-48.5	-54.6	3.7	0.00e+00	0	44	104	0	67	30887
2026-01-24 22:52:10.97	336.11	10.45	-49.3	-55.0	3.7	0.00e+00	0	44	104	0	69	29136
2026-01-24 22:52:11.97	335.88	10.50	-51.4	-56.4	3.7	0.00e+00	0	44	104	0	73	26984
2026-01-24 22:52:12.96	335.65	10.56	-49.7	-55.4	3.7	0.00e+00	0	44	104	0	71	26929
2026-01-24 22:52:13.96	335.42	10.62	-50.6	-56.0	3.7	0.00e+00	0	44	104	0	71	28865
2026-01-24 22:52:14.96	335.19	10.67	-51.2	-56.3	3.7	0.00e+00	0	45	104	0	73	26778
2026-01-24 22:52:15.95	334.96	10.73	-51.5	-56.5	3.7	0.00e+00	0	44	104	0	73	27216
2026-01-24 22:52:16.94	334.73	10.78	-51.3	-56.3	3.7	0.00e+00	0	45	104	0	73	26739
2026-01-24 22:52:17.94	334.50	10.84	-50.9	-56.1	3.7	0.00e+00	0	44	104	0	73	26043
2026-01-24 22:52:18.93	334.26	10.90	-51.0	-56.0	3.7	0.00e+00	0	45	104	0	73	25867
2026-01-24 22:52:19.93	334.03	10.95	-51.1	-56.2	3.7	0.00e+00	0	45	104	0	73	26558
2026-01-24 22:52:20.92	333.79	11.00	-51.3	-56.3	3.7	0.00e+00	0	45	104	0	73	26622
2026-01-24 22:52:21.91	333.55	11.06	-51.1	-56.1	3.7	0.00e+00	0	45	104	0	73	26240
2026-01-24 22:52:22.91	333.31	11.11	-51.1	-56.3	3.7	0.00e+00	0	45	104	0	73	26599
2026-01-24 22:52:23.90	333.08	11.17	-51.0	-56.2	3.7	0.00e+00	0	45	104	0	73	26545
2026-01-24 22:52:24.90	332.83	11.22	-51.1	-56.3	3.7	0.00e+00	0	45	104	0	73	26751
2026-01-24 22:52:25.89	332.59	11.27	-51.2	-56.4	3.7	0.00e+00	0	45	104	0	73	26926
2026-01-24 22:52:26.89	332.35	11.33	-51.4	-56.5	3.7	0.00e+00	0	45	104	0	73	27370
2026-01-24 22:52:27.88	332.10	11.38	-51.5	-56.5	3.7	0.00e+00	0	45	104	0	73	27263
2026-01-24 22:52:28.88	331.86	11.43	-51.8	-56.4	3.7	0.00e+00	0	45	104	0	74	25415
2026-01-24 22:52:29.87	331.61	11.49	-51.9	-56.5	3.7	0.00e+00	0	45	104	0	74	25724
2026-01-24 22:52:30.87	331.36	11.54	-51.8	-56.3	3.7	0.00e+00	0	45	104	0	74	25283
2026-01-24 22:52:31.86	331.12	11.59	-51.2	-56.1	3.7	0.00e+00	0	45	104	0	74	24752
2026-01-24 22:52:32.86	330.86	11.64	-51.6	-56.3	3.7	0.00e+00	0	45	104	0	74	25270
2026-01-24 22:52:33.85	330.61	11.69	-51.2	-56.2	3.7	0.00e+00	0	45	104	0	74	25043
2026-01-24 22:52:34.85	330.36	11.74	-51.1	-56.1	3.7	0.00e+00	0	45	104	0	73	26155
2026-01-24 22:52:35.84	330.11	11.79	-51.3	-56.4	3.7	0.00e+00	0	45	104	0	73	26906
2026-01-24 22:52:36.84	329.85	11.84	-51.2	-56.2	3.7	0.00e+00	0	45	104	0	73	26364
2026-01-24 22:52:37.83	329.60	11.89	-51.0	-56.1	3.7	0.00e+00	0	45	104	0	73	26150
2026-01-24 22:52:38.82	329.34	11.94	-51.3	-56.4	3.7	0.00e+00	0	45	104	0	73	27043
2026-01-24 22:52:39.82	329.09	11.99	-51.8	-56.7	3.7	0.00e+00	0	45	104	0	74	26320
2026-01-24 22:52:40.82	328.83	12.04	-51.3	-56.3	3.7	0.00e+00	0	45	104	0	74	25334
2026-01-24 22:52:41.81	328.57	12.09	-51.9	-56.6	3.7	0.00e+00	0	45	104	0	74	26016
2026-01-24 22:52:42.81	328.31	12.14	-51.9	-56.8	3.7	0.00e+00	0	45	104	0	74	26813
2026-01-24 22:52:43.80	328.05	12.19	-50.4	-55.9	3.7	0.00e+00	0	45	104	0	72	26917
2026-01-24 22:52:44.79	327.78	12.23	-51.1	-56.4	3.7	0.00e+00	0	45	104	0	72	28537
2026-01-24 22:52:45.79	327.52	12.28	-49.8	-55.4	3.7	0.00e+00	0	45	104	0	71	26895
2026-01-24 22:52:46.78	327.26	12.33	-50.1	-55.5	3.7	0.00e+00	0	45	104	0	71	27318
2026-01-24 22:52:47.77	326.99	12.37	-49.9	-55.4	3.7	0.00e+00	0	45	104	0	71	27016
2026-01-24 22:52:48.77	326.72	12.42	-49.5	-55.2	3.7	0.00e+00	0	45	104	0	71	26579
2026-01-24 22:52:49.76	326.46	12.46	-49.0	-54.9	3.7	0.00e+00	0	45	104	0	70	27125
2026-01-24 22:52:50.76	326.19	12.51	-48.7	-54.7	3.7	0.00e+00	0	45	104	0	69	28039
2026-01-24 22:52:51.75	325.92	12.55	-48.7	-54.7	3.7	0.00e+00	0	45	104	0	69	27903
2026-01-24 22:52:52.75	325.64	12.60	-48.7	-54.8	3.7	0.00e+00	0	45	104	0	69	28223
2026-01-24 22:52:53.74	325.37	12.64	-48.7	-54.7	3.7	0.00e+00	0	45	104	0	69	27836
2026-01-24 22:52:54.74	325.10	12.69	-48.8	-54.7	3.7	0.00e+00	0	45	104	0	69	27939
2026-01-24 22:52:55.73	324.83	12.73	-48.8	-54.7	3.7	0.00e+00	0	45	104	0	69	28076
2026-01-24 22:52:56.72	324.55	12.77	-50.1	-55.6	3.7	0.00e+00	0	45	104	0	70	29228
2026-01-24 22:52:57.72	324.28	12.81	-49.6	-55.3	3.7	0.00e+00	0	45	104	0	71	26722
2026-01-24 22:52:58.71	324.00	12.85	-50.5	-55.9	3.7	0.00e+00	0	45	104	0	71	28628
2026-01-24 22:52:59.71	323.72	12.90	-50.5	-55.8	3.7	0.00e+00	0	45	104	0	72	26615
2026-01-24 22:53:00.70	323.44	12.94	-51.3	-56.2	3.7	0.00e+00	0	45	104	0	73	26436
2026-01-24 22:53:01.70	323.16	12.98	-52.0	-56.6	3.7	0.00e+00	0	45	104	0	74	26234
2026-01-24 22:53:02.69	322.88	13.02	-52.1	-56.7	3.7	0.00e+00	0	45	104	0	74	26368
2026-01-24 22:53:03.69	322.60	13.05	-51.6	-56.5	3.7	0.00e+00	0	45	104	0	74	25709
2026-01-24 22:53:04.68	322.32	13.09	-51.2	-56.3	3.7	0.00e+00	0	45	104	0	74	25221
2026-01-24 22:53:05.68	322.03	13.13	-51.2	-56.3	3.7	0.00e+00	0	45	104	0	74	25220
2026-01-24 22:53:06.67	321.75	13.17	-50.9	-56.1	3.7	0.00e+00	0	45	104	0	73	26232
2026-01-24 22:53:07.67	321.46	13.21	-50.5	-55.9	3.7	0.00e+00	0	45	104	0	73	25502
2026-01-24 22:53:08.66	321.18	13.24	-50.7	-56.0	3.7	0.00e+00	0	45	104	0	72	27477
2026-01-24 22:53:09.66	320.89	13.28	-50.4	-55.8	3.7	0.00e+00	0	45	104	0	72	26665
2026-01-24 22:53:10.65	320.60	13.31	-50.3	-55.6	3.7	0.00e+00	0	45	104	0	72	26109
2026-01-24 22:53:11.65	320.31	13.35	-50.6	-55.7	3.7	0.00e+00	0	45	104	0	72	26540
2026-01-24 22:53:12.64	320.03	13.38	-50.9	-55.9	3.7	0.00e+00	0	45	104	0	72	27128
2026-01-24 22:53:13.64	319.73	13.42	-51.4	-56.4	3.7	0.00e+00	0	45	104	0	73	26896
2026-01-24 22:53:14.63	319.45	13.45	-51.8	-56.6	3.7	0.00e+00	0	45	104	0	74	26269
2026-01-24 22:53:15.63	319.15	13.48	-51.6	-56.4	3.7	0.00e+00	0	45	104	0	74	25442
2026-01-24 22:53:16.62	318.86	13.52	-51.8	-56.6	3.7	0.00e+00	0	45	104	0	74	26220
2026-01-24 22:53:17.62	318.57	13.55	-52.0	-56.7	3.7	0.00e+00	0	45	104	0	74	26569
2026-01-24 22:53:18.61	318.27	13.58	-51.9	-56.7	3.7	0.00e+00	0	45	104	0	74	26471
2026-01-24 22:53:19.61	317.98	13.61	-51.7	-56.6	3.7	0.00e+00	0	45	104	0	74	26271
2026-01-24 22:53:20.60	317.68	13.64	-50.5	-55.9	3.7	0.00e+00	0	45	104	0	73	25630
2026-01-24 22:53:21.60	317.38	13.67	-50.5	-55.9	3.7	0.00e+00	0	45	104	0	72	27012
2026-01-24 22:53:22.59	317.09	13.70	-50.1	-55.6	3.7	0.00e+00	0	45	104	0	72	26190
2026-01-24 22:53:23.58	316.79	13.72	-50.7	-56.0	3.7	0.00e+00	0	45	104	0	72	27415
2026-01-24 22:53:24.58	316.49	13.75	-51.8	-56.6	3.7	0.00e+00	0	45	104	0	74	26221
2026-01-24 22:53:25.57	316.19	13.78	-51.7	-56.6	3.7	0.00e+00	0	45	104	0	74	26242
2026-01-24 22:53:26.57	315.89	13.80	-51.9	-56.7	3.7	0.00e+00	0	45	104	0	74	26369
2026-01-24 22:53:27.56	315.59	13.83	-52.1	-56.8	3.7	0.00e+00	0	45	104	0	74	26804
2026-01-24 22:53:28.56	315.29	13.86	-51.5	-56.5	3.7	0.00e+00	0	45	104	0	74	25693
2026-01-24 22:53:29.55	314.99	13.88	-51.4	-56.3	3.7	0.00e+00	0	45	104	0	74	25316
2026-01-24 22:53:30.55	314.69	13.90	-51.5	-56.4	3.7	0.00e+00	0	45	104	0	74	25467
2026-01-24 22:53:31.54	314.38	13.93	-51.4	-56.4	3.7	0.00e+00	0	45	104	0	74	25417
2026-01-24 22:53:32.54	314.08	13.95	-51.2	-56.2	3.7	0.00e+00	0	45	104	0	74	24954
2026-01-24 22:53:33.54	313.77	13.97	-51.5	-56.4	3.7	0.00e+00	0	45	104	0	74	25565
2026-01-24 22:53:34.53	313.47	13.99	-51.3	-56.3	3.7	0.00e+00	0	45	104	0	74	25330
2026-01-24 22:53:35.52	313.17	14.01	-51.3	-56.4	3.7	0.00e+00	0	45	104	0	74	25429
2026-01-24 22:53:36.52	312.86	14.03	-51.8	-56.6	3.7	0.00e+00	0	45	104	0	74	25982
2026-01-24 22:53:37.51	312.55	14.05	-51.6	-56.4	3.7	0.00e+00	0	45	104	0	74	25615
2026-01-24 22:53:38.51	312.25	14.07	-51.2	-56.2	3.7	0.00e+00	0	45	104	0	74	24827
2026-01-24 22:53:39.50	311.94	14.09	-51.6	-56.4	3.7	0.00e+00	0	45	104	0	74	25633
2026-01-24 22:53:40.50	311.63	14.10	-51.9	-56.6	3.7	0.00e+00	0	45	104	0	74	26203
2026-01-24 22:53:41.49	311.33	14.12	-51.7	-56.5	3.7	0.00e+00	0	45	104	0	74	25843
2026-01-24 22:53:42.49	311.02	14.13	-51.8	-56.6	3.7	0.00e+00	0	45	104	0	74	26202
2026-01-24 22:53:43.48	310.71	14.15	-51.2	-56.1	3.7	0.00e+00	0	45	104	0	74	24575
2026-01-24 22:53:44.48	310.40	14.16	-51.4	-56.3	3.7	0.00e+00	0	45	104	0	74	25314
2026-01-24 22:53:45.47	310.09	14.18	-51.6	-56.5	3.7	0.00e+00	0	45	104	0	74	25863
2026-01-24 22:53:46.46	309.78	14.19	-51.7	-56.4	3.7	0.00e+00	0	45	104	0	74	25663
2026-01-24 22:53:47.46	309.47	14.20	-51.6	-56.4	3.7	0.00e+00	0	45	104	0	74	25589
2026-01-24 22:53:48.45	309.16	14.21	-52.3	-56.8	3.7	0.00e+00	0	45	104	0	75	25349
2026-01-24 22:53:49.45	308.85	14.22	-52.3	-56.9	3.7	0.00e+00	0	45	104	0	75	25397
2026-01-24 22:53:50.44	308.54	14.23	-52.3	-56.9	3.7	0.00e+00	0	45	104	0	75	25552
2026-01-24 22:53:51.44	308.23	14.24	-52.3	-56.8	3.7	0.00e+00	0	45	104	0	75	25332
2026-01-24 22:53:52.43	307.92	14.25	-51.8	-56.4	3.7	0.00e+00	0	45	104	0	75	24222
2026-01-24 22:53:53.43	307.60	14.26	-51.8	-56.4	3.7	0.00e+00	0	45	104	0	75	24087
2026-01-24 22:53:54.42	307.29	14.27	-51.9	-56.4	3.7	0.00e+00	0	45	104	0	75	24024
2026-01-24 22:53:55.41	306.98	14.27	-52.3	-56.7	3.7	0.00e+00	0	45	104	0	75	24901
2026-01-24 22:53:56.41	306.67	14.28	-52.3	-56.6	3.7	0.00e+00	0	46	104	0	75	24667
2026-01-24 22:53:57.40	306.36	14.28	-52.3	-56.5	3.7	0.00e+00	0	45	104	0	75	24516
2026-01-24 22:53:58.40	306.04	14.29	-52.2	-56.7	3.7	0.00e+00	0	45	104	0	75	24871
2026-01-24 22:53:59.39	305.73	14.29	-52.1	-56.6	3.7	0.00e+00	0	45	104	0	75	24658
2026-01-24 22:54:00.39	305.42	14.29	-52.0	-56.5	3.7	0.00e+00	0	45	104	0	75	24458
2026-01-24 22:54:01.38	305.10	14.30	-52.1	-56.6	3.7	0.00e+00	0	45	104	0	75	24647
2026-01-24 22:54:02.38	304.79	14.30	-52.0	-56.5	3.7	0.00e+00	0	45	104	0	75	24518
2026-01-24 22:54:03.37	304.48	14.30	-51.9	-56.5	3.7	0.00e+00	0	46	104	0	75	24497
2026-01-24 22:54:04.37	304.16	14.30	-52.2	-56.7	3.7	0.00e+00	0	45	104	0	75	24829
2026-01-24 22:54:05.36	303.85	14.30	-52.2	-56.7	3.7	0.00e+00	0	45	104	0	75	24824
2026-01-24 22:54:06.36	303.54	14.29	-52.2	-56.5	3.7	0.00e+00	0	45	104	0	75	24346
2026-01-24 22:54:07.35	303.23	14.29	-52.4	-56.7	3.7	0.00e+00	0	46	104	0	75	24958
2026-01-24 22:54:08.35	302.91	14.29	-52.3	-56.5	3.7	0.00e+00	0	45	104	0	75	24519
2026-01-24 22:54:09.34	302.60	14.28	-52.3	-56.5	3.7	0.00e+00	0	45	104	0	75	24307
2026-01-24 22:54:10.33	302.29	14.28	-52.4	-56.7	3.7	0.00e+00	0	45	104	0	75	25034
2026-01-24 22:54:11.33	301.98	14.27	-52.4	-56.7	3.7	0.00e+00	0	45	104	0	75	25017
2026-01-24 22:54:12.32	301.67	14.27	-52.4	-56.7	3.7	0.00e+00	0	45	104	0	75	25044
2026-01-24 22:54:13.32	301.35	14.26	-52.4	-56.7	3.7	0.00e+00	0	45	104	0	75	25019
2026-01-24 22:54:14.31	301.04	14.25	-52.3	-56.8	3.7	0.00e+00	0	45	104	0	75	25152
2026-01-24 22:54:15.31	300.73	14.25	-52.4	-56.8	3.7	0.00e+00	0	45	104	0	75	25227
2026-01-24 22:54:16.30	300.42	14.24	-52.3	-56.7	3.7	0.00e+00	0	45	104	0	75	24822
2026-01-24 22:54:17.30	300.10	14.23	-52.3	-56.7	3.7	0.00e+00	0	45	104	0	75	24986
2026-01-24 22:54:18.29	299.79	14.22	-52.2	-56.6	3.7	0.00e+00	0	45	104	0	75	24620
2026-01-24 22:54:19.28	299.49	14.21	-52.1	-56.4	3.7	0.00e+00	0	45	104	0	75	23985
2026-01-24 22:54:20.28	299.17	14.19	-52.0	-56.3	3.7	0.00e+00	0	45	104	0	75	23719
2026-01-24 22:54:21.28	298.86	14.18	-52.0	-56.3	3.7	0.00e+00	0	45	104	0	75	23910
2026-01-24 22:54:22.27	298.55	14.17	-51.9	-56.2	3.7	0.00e+00	0	45	104	0	75	23576
2026-01-24 22:54:23.27	298.24	14.15	-52.2	-56.4	3.7	0.00e+00	0	45	104	0	75	24219
2026-01-24 22:54:24.26	297.93	14.14	-52.3	-56.6	3.7	0.00e+00	0	45	104	0	75	24565
2026-01-24 22:54:25.26	297.62	14.12	-52.3	-56.6	3.7	0.00e+00	0	45	104	0	75	24746
2026-01-24 22:54:26.25	297.32	14.11	-52.0	-56.4	3.7	0.00e+00	0	45	104	0	75	24076
2026-01-24 22:54:27.25	297.01	14.09	-52.0	-56.0	3.6	0.00e+00	0	45	104	0	75	23106
2026-01-24 22:54:28.24	296.70	14.07	-51.8	-56.0	3.7	0.00e+00	0	46	104	0	75	22890
2026-01-24 22:54:29.24	296.39	14.06	-51.8	-55.9	3.7	0.00e+00	0	45	104	0	75	22839
2026-01-24 22:54:30.23	296.08	14.04	-52.0	-56.2	3.7	0.00e+00	0	45	104	0	75	23623
2026-01-24 22:54:31.23	295.78	14.02	-52.3	-56.5	3.7	0.00e+00	0	45	104	0	75	24382
2026-01-24 22:54:32.22	295.47	14.00	-52.4	-56.5	3.7	0.00e+00	0	45	104	0	75	24504
2026-01-24 22:54:33.22	295.16	13.98	-52.3	-56.4	3.7	0.00e+00	0	46	104	0	75	24071
2026-01-24 22:54:34.21	294.86	13.96	-51.8	-55.6	3.7	0.00e+00	0	45	104	0	75	22058
2026-01-24 22:54:35.21	294.56	13.93	-52.2	-56.4	3.7	0.00e+00	0	45	104	0	75	24041
2026-01-24 22:54:36.20	294.25	13.91	-51.9	-55.8	3.7	0.00e+00	0	45	104	0	75	22385
2026-01-24 22:54:37.19	293.95	13.89	-52.3	-56.6	3.7	0.00e+00	0	46	104	0	75	24759
2026-01-24 22:54:38.19	293.65	13.86	-52.1	-56.2	3.7	0.00e+00	0	45	104	0	75	23661
2026-01-24 22:54:39.18	293.35	13.84	-52.2	-56.3	3.7	0.00e+00	0	45	104	0	75	23923
2026-01-24 22:54:40.18	293.04	13.81	-52.4	-56.5	3.7	0.00e+00	0	45	104	0	75	24454
2026-01-24 22:54:41.17	292.74	13.79	-52.5	-56.7	3.7	0.00e+00	0	46	104	0	75	25043
2026-01-24 22:54:42.17	292.44	13.76	-52.5	-56.7	3.7	0.00e+00	0	45	104	0	75	25045
2026-01-24 22:54:43.16	292.14	13.73	-52.4	-56.6	3.7	0.00e+00	0	45	104	0	75	24759
2026-01-24 22:54:44.16	291.84	13.71	-52.6	-56.9	3.7	0.00e+00	0	45	104	0	75	25662
2026-01-24 22:54:45.15	291.55	13.68	-52.0	-55.8	3.7	0.00e+00	0	45	104	0	75	22418
2026-01-24 22:54:46.15	291.25	13.65	-51.7	-55.2	3.7	0.00e+00	0	45	104	0	75	21087
2026-01-24 22:54:47.14	290.95	13.62	-51.2	-54.5	3.7	0.00e+00	0	45	104	0	74	20491
2026-01-24 22:54:48.13	290.66	13.59	-51.0	-54.2	3.7	0.00e+00	0	45	104	0	74	19805
2026-01-24 22:54:49.13	290.36	13.56	-50.9	-54.0	3.7	0.00e+00	0	45	104	0	73	20629
2026-01-24 22:54:50.13	290.06	13.53	-50.8	-54.1	3.7	0.00e+00	0	45	104	0	73	20818
2026-01-24 22:54:51.12	289.77	13.49	-51.3	-55.0	3.7	0.00e+00	0	45	104	0	73	23024
2026-01-24 22:54:52.12	289.48	13.46	-52.3	-56.8	3.7	0.00e+00	0	45	104	0	75	25353
2026-01-24 22:54:53.11	289.19	13.43	-52.5	-57.0	3.7	0.00e+00	0	45	104	0	75	25688
2026-01-24 22:54:54.11	288.89	13.39	-52.3	-56.7	3.7	0.00e+00	0	45	104	0	75	24839
2026-01-24 22:54:55.10	288.60	13.36	-52.5	-57.0	3.7	0.00e+00	0	45	104	0	75	25927
2026-01-24 22:54:56.09	288.31	13.33	-52.4	-56.8	3.7	0.00e+00	0	46	104	0	75	25195
2026-01-24 22:54:57.09	288.02	13.29	-52.2	-56.5	3.7	0.00e+00	0	45	104	0	75	24292
2026-01-24 22:54:58.09	287.73	13.25	-52.2	-56.5	3.7	0.00e+00	0	45	104	0	75	24320
2026-01-24 22:54:59.08	287.45	13.22	-52.1	-56.6	3.7	0.00e+00	0	45	104	0	75	24553
2026-01-24 22:55:00.07	287.16	13.18	-52.0	-56.5	3.7	0.00e+00	0	45	104	0	75	24326
2026-01-24 22:55:01.07	286.88	13.14	-51.8	-56.0	3.7	0.00e+00	0	45	104	0	75	22991
2026-01-24 22:55:02.06	286.59	13.10	-51.9	-56.3	3.7	0.00e+00	0	45	104	0	75	23898
2026-01-24 22:55:03.06	286.31	13.07	-51.7	-56.0	3.7	0.00e+00	0	45	104	0	75	23098
2026-01-24 22:55:04.05	286.02	13.03	-52.2	-56.8	3.7	0.00e+00	0	45	104	0	75	25119
2026-01-24 22:55:05.04	285.74	12.99	-52.2	-56.5	3.7	0.00e+00	0	45	104	0	75	24461
2026-01-24 22:55:06.04	285.46	12.95	-52.2	-56.8	3.7	0.00e+00	0	45	104	0	75	25212
2026-01-24 22:55:07.03	285.18	12.91	-52.2	-56.8	3.7	0.00e+00	0	45	104	0	75	25303
2026-01-24 22:55:08.03	284.90	12.87	-52.3	-56.8	3.7	0.00e+00	0	45	104	0	75	25290
2026-01-24 22:55:09.02	284.62	12.82	-52.2	-56.5	3.7	0.00e+00	0	45	104	0	75	24455
2026-01-24 22:55:10.02	284.34	12.78	-52.5	-57.0	3.7	0.00e+00	0	45	104	0	75	25742
2026-01-24 22:55:11.01	284.07	12.74	-52.5	-56.8	3.7	0.00e+00	0	45	104	0	75	25345
2026-01-24 22:55:12.01	283.79	12.70	-52.5	-57.0	3.7	0.00e+00	0	45	104	0	75	25858
2026-01-24 22:55:13.01	283.52	12.65	-52.3	-56.7	3.7	0.00e+00	0	45	104	0	75	24924
2026-01-24 22:55:14.00	283.24	12.61	-52.4	-57.0	3.7	0.00e+00	0	45	104	0	75	25761
2026-01-24 22:55:15.00	282.97	12.57	-52.2	-56.6	3.7	0.00e+00	0	45	104	0	75	24770
2026-01-24 22:55:15.99	282.70	12.52	-52.5	-57.1	3.7	0.00e+00	0	45	104	0	75	25977
2026-01-24 22:55:16.99	282.43	12.48	-52.4	-56.9	3.7	0.00e+00	0	45	104	0	75	25427
2026-01-24 22:55:17.98	282.16	12.43	-52.4	-56.8	3.7	0.00e+00	0	45	104	0	75	25325
2026-01-24 22:55:18.98	281.89	12.38	-52.3	-56.8	3.7	0.00e+00	0	45	104	0	75	25151
2026-01-24 22:55:19.97	281.62	12.34	-52.5	-57.0	3.7	0.00e+00	0	45	104	0	75	25933
2026-01-24 22:55:20.97	281.36	12.29	-52.2	-56.6	3.7	0.00e+00	0	46	104	0	75	24769
2026-01-24 22:55:21.97	281.09	12.24	-51.7	-56.2	3.7	0.00e+00	0	45	104	0	75	23667
2026-01-24 22:55:22.96	280.83	12.20	-52.0	-56.4	3.7	0.00e+00	0	46	104	0	75	24063
2026-01-24 22:55:23.96	280.56	12.15	-51.7	-56.3	3.7	0.00e+00	0	46	104	0	75	23857
2026-01-24 22:55:24.95	280.30	12.10	-52.1	-56.8	3.7	0.00e+00	0	46	104	0	75	25256
2026-01-24 22:55:25.95	280.04	12.05	-52.4	-57.0	3.7	0.00e+00	0	45	104	0	75	25874
2026-01-24 22:55:26.94	279.78	12.00	-52.2	-56.8	3.7	0.00e+00	0	46	104	0	75	25370
2026-01-24 22:55:27.94	279.52	11.95	-52.1	-56.7	3.7	0.00e+00	0	45	104	0	75	25021
2026-01-24 22:55:28.93	279.26	11.90	-51.7	-56.1	3.7	0.00e+00	0	45	104	0	75	23349
2026-01-24 22:55:29.93	279.00	11.85	-51.6	-56.1	3.7	0.00e+00	0	46	104	0	75	23296
2026-01-24 22:55:30.92	278.75	11.80	-51.7	-56.4	3.7	0.00e+00	0	45	104	0	75	24107
2026-01-24 22:55:31.92	278.49	11.75	-51.9	-56.7	3.7	0.00e+00	0	45	104	0	75	24906
2026-01-24 22:55:32.91	278.24	11.70	-51.9	-56.7	3.7	0.00e+00	0	46	104	0	75	24869
2026-01-24 22:55:33.91	277.98	11.65	-51.7	-56.3	3.7	0.00e+00	0	45	104	0	75	23951
2026-01-24 22:55:34.90	277.73	11.60	-52.0	-56.7	3.7	0.00e+00	0	45	104	0	75	25004
2026-01-24 22:55:35.89	277.48	11.55	-51.7	-56.1	3.7	0.00e+00	0	46	104	0	75	23201
2026-01-24 22:55:36.89	277.23	11.49	-51.7	-55.8	3.7	0.00e+00	0	46	104	0	75	22604
2026-01-24 22:55:37.88	276.99	11.44	-51.8	-55.8	3.7	0.00e+00	0	45	104	0	75	22432
2026-01-24 22:55:38.88	276.74	11.39	-51.8	-56.0	3.7	0.00e+00	0	46	104	0	75	23037
2026-01-24 22:55:39.87	276.49	11.34	-51.8	-56.2	3.7	0.00e+00	0	46	104	0	75	23676
2026-01-24 22:55:40.87	276.25	11.28	-51.7	-56.5	3.7	0.00e+00	0	46	104	0	75	24245
2026-01-24 22:55:41.86	276.00	11.23	-51.9	-56.5	3.7	0.00e+00	0	45	104	0	75	24423
2026-01-24 22:55:42.86	275.76	11.17	-52.1	-56.6	3.7	0.00e+00	0	46	104	0	75	24702
2026-01-24 22:55:43.85	275.52	11.12	-52.0	-56.2	3.7	0.00e+00	0	45	104	0	75	23683
2026-01-24 22:55:44.85	275.28	11.07	-52.1	-56.5	3.7	0.00e+00	0	45	104	0	75	24472
2026-01-24 22:55:45.84	275.04	11.01	-51.9	-56.1	3.7	0.00e+00	0	46	104	0	75	23400
2026-01-24 22:55:46.84	274.80	10.96	-51.8	-56.1	3.7	0.00e+00	0	46	104	0	75	23178
2026-01-24 22:55:47.83	274.56	10.90	-51.8	-56.0	3.7	0.00e+00	0	46	104	0	75	23068
2026-01-24 22:55:48.83	274.32	10.85	-51.9	-56.0	3.7	0.00e+00	0	46	104	0	75	22892
2026-01-24 22:55:49.82	274.09	10.79	-51.7	-56.2	3.7	0.00e+00	0	45	104	0	75	23532
2026-01-24 22:55:50.82	273.85	10.73	-51.5	-55.9	3.7	0.00e+00	0	45	104	0	75	22863
2026-01-24 22:55:51.81	273.62	10.68	-51.7	-56.4	3.7	0.00e+00	0	46	104	0	74	25431
2026-01-24 22:55:52.81	273.39	10.62	-51.5	-56.2	3.7	0.00e+00	0	45	104	0	74	24946
2026-01-24 22:55:53.80	273.16	10.57	-51.6	-56.2	3.7	0.00e+00	0	46	104	0	74	25009
2026-01-24 22:55:54.80	272.93	10.51	-51.6	-56.3	3.7	0.00e+00	0	45	104	0	74	25282
2026-01-24 22:55:55.79	272.70	10.45	-51.8	-56.5	3.7	0.00e+00	0	46	104	0	74	25843
2026-01-24 22:55:56.79	272.47	10.39	-51.8	-56.7	3.7	0.00e+00	0	46	104	0	74	26406
2026-01-24 22:55:57.78	272.25	10.34	-51.6	-56.8	3.7	0.00e+00	0	45	104	0	74	26747
2026-01-24 22:55:58.77	272.02	10.28	-51.4	-56.6	3.7	0.00e+00	0	45	104	0	74	26262
2026-01-24 22:55:59.77	271.80	10.22	-51.9	-56.4	3.7	0.00e+00	0	45	104	0	74	25434
2026-01-24 22:56:00.77	271.57	10.16	-51.9	-56.2	3.7	0.00e+00	0	45	104	0	74	24986
2026-01-24 22:56:01.76	271.35	10.11	-51.9	-56.4	3.7	0.00e+00	0	45	104	0	74	25656
2026-01-24 22:56:02.76	271.13	10.05	-51.9	-56.3	3.7	0.00e+00	0	46	104	0	74	25102
2026-01-24 22:56:03.75	270.91	9.99	-52.0	-56.3	3.7	0.00e+00	0	45	104	0	74	25186
2026-01-24 22:56:04.75	270.69	9.93	-52.0	-56.3	3.7	0.00e+00	0	46	104	0	74	25235
2026-01-24 22:56:05.74	270.48	9.87	-51.9	-56.2	3.7	0.00e+00	0	46	104	0	74	25076
2026-01-24 22:56:06.74	270.26	9.81	-52.0	-56.3	3.7	0.00e+00	0	46	104	0	74	25352
2026-01-24 22:56:07.73	270.04	9.76	-51.9	-56.3	3.7	0.00e+00	0	45	104	0	74	25137
2026-01-24 22:56:08.73	269.83	9.70	-52.1	-56.5	3.7	0.00e+00	0	46	104	0	74	25803
2026-01-24 22:56:09.72	269.62	9.64	-52.0	-56.5	3.7	0.00e+00	0	46	104	0	74	25941
2026-01-24 22:56:10.72	269.40	9.58	-51.9	-56.6	3.7	0.00e+00	0	46	104	0	74	26165
2026-01-24 22:56:11.72	269.19	9.52	-51.9	-56.5	3.7	0.00e+00	0	46	104	0	74	25882
2026-01-24 22:56:12.71	268.98	9.46	-51.6	-56.4	3.7	0.00e+00	0	46	104	0	74	25604
2026-01-24 22:56:13.71	268.77	9.40	-51.9	-56.7	3.7	0.00e+00	0	45	104	0	74	26334
2026-01-24 22:56:14.70	268.56	9.34	-51.9	-56.6	3.7	0.00e+00	0	46	104	0	74	26131
2026-01-24 22:56:15.70	268.36	9.28	-51.9	-56.6	3.7	0.00e+00	0	46	104	0	74	26202
2026-01-24 22:56:16.70	268.15	9.22	-52.0	-56.6	3.7	0.00e+00	0	46	104	0	74	26206
2026-01-24 22:56:17.69	267.94	9.16	-52.1	-56.7	3.7	0.00e+00	0	46	104	0	74	26343
2026-01-24 22:56:18.69	267.74	9.10	-52.1	-56.6	3.7	0.00e+00	0	46	104	0	74	26048
2026-01-24 22:56:19.69	267.54	9.04	-52.2	-56.7	3.7	0.00e+00	0	46	104	0	74	26392
2026-01-24 22:56:20.68	267.34	8.98	-52.2	-56.8	3.6	0.00e+00	0	45	104	0	75	25320
2026-01-24 22:56:21.67	267.14	8.92	-52.1	-56.5	3.7	0.00e+00	0	46	104	0	75	24339
2026-01-24 22:56:22.67	266.94	8.86	-52.3	-56.8	3.7	0.00e+00	0	46	104	0	75	25114
2026-01-24 22:56:23.66	266.74	8.80	-52.5	-57.1	3.7	0.00e+00	0	46	104	0	75	26112
2026-01-24 22:56:24.65	266.54	8.74	-52.7	-57.3	3.7	0.00e+00	0	46	104	0	76	25372
2026-01-24 22:56:25.65	266.34	8.68	-52.7	-57.3	3.7	0.00e+00	0	45	104	0	76	25207
2026-01-24 22:56:26.64	266.15	8.62	-52.9	-57.3	3.7	0.00e+00	0	45	104	0	76	25295
2026-01-24 22:56:27.63	265.96	8.56	-52.9	-57.6	3.7	0.00e+00	0	46	104	0	76	26030
2026-01-24 22:56:28.63	265.76	8.49	-52.9	-57.5	3.7	0.00e+00	0	46	104	0	76	25839
2026-01-24 22:56:29.62	265.57	8.43	-52.6	-57.3	3.7	0.00e+00	0	45	104	0	76	25109
2026-01-24 22:56:30.61	265.38	8.37	-52.7	-57.4	3.7	0.00e+00	0	46	104	0	76	25625
2026-01-24 22:56:31.61	265.19	8.31	-52.6	-57.4	3.7	0.00e+00	0	46	104	0	76	25537
2026-01-24 22:56:32.60	265.00	8.25	-52.5	-57.3	3.7	0.00e+00	0	45	104	0	76	25219
2026-01-24 22:56:33.59	264.81	8.19	-52.5	-57.3	3.7	0.00e+00	0	45	104	0	76	25161
2026-01-24 22:56:34.59	264.62	8.13	-52.5	-57.2	3.7	0.00e+00	0	46	104	0	76	25086
2026-01-24 22:56:35.58	264.44	8.07	-52.5	-57.3	3.7	0.00e+00	0	45	104	0	76	25123
2026-01-24 22:56:36.57	264.25	8.01	-5
