passes_logs/2026/01/24/T1/T1__20260124_011733_NOAA_21_JPSS-2_rec.log

#Pass ID: 20260124_011733_NOAA 21 (JPSS-2)
#Satellite: NOAA 21 (JPSS-2)
#Configuration: NOAA 21
#almurnet v.1.7.20251203
#Start time: 2026-01-24 01:17:33

#Version: 2.0.20230620
#Station: T1
#Location: 37.570604 lon 55.790049 lat
#TLE: 1 54234U 22150A   26022.90705406  .00000208  00000+0  11937-3 0  9994
#TLE: 2 54234  98.7507 323.7115 0000669 231.3756 128.7360 14.19537879165931

#Time	Az	El	Level	Level2	SNR	BER	BlckErr	Temp	State	Recorded	gain1	gain2
2026-01-24 01:17:33.90	6.94	5.00	-47.5	-61.3	3.8	1.49e+00	0	37	0	0	66	17789
2026-01-24 01:17:34.89	6.86	5.06	-46.4	-60.9	3.8	1.49e+00	0	37	104	0	64	19050
2026-01-24 01:17:35.88	6.78	5.12	-46.3	-60.9	3.8	1.49e+00	0	37	104	0	64	19072
2026-01-24 01:17:36.88	6.71	5.18	-46.3	-60.9	3.8	1.49e+00	0	37	104	0	64	19091
2026-01-24 01:17:37.87	6.63	5.25	-46.3	-60.9	3.8	1.49e+00	0	37	104	0	64	19132
2026-01-24 01:17:38.86	6.55	5.31	-46.3	-60.9	3.8	1.49e+00	0	37	104	0	64	19145
2026-01-24 01:17:39.86	6.47	5.37	-46.3	-61.0	3.8	1.49e+00	0	37	104	0	64	19202
2026-01-24 01:17:40.85	6.40	5.43	-46.3	-60.9	3.8	1.49e+00	0	38	104	0	64	19060
2026-01-24 01:17:41.84	6.32	5.49	-46.3	-60.9	3.8	1.49e+00	0	37	104	0	64	19110
2026-01-24 01:17:42.84	6.24	5.55	-46.3	-60.9	3.8	1.49e+00	0	37	104	0	64	19131
2026-01-24 01:17:43.83	6.16	5.61	-46.3	-60.9	3.8	1.49e+00	0	37	104	0	64	19150
2026-01-24 01:17:44.83	6.08	5.68	-46.3	-60.9	3.8	1.49e+00	0	38	104	0	64	19072
2026-01-24 01:17:45.82	6.00	5.74	-46.3	-60.9	3.8	1.49e+00	0	37	104	0	64	19167
2026-01-24 01:17:46.81	5.92	5.80	-46.3	-60.9	3.8	1.49e+00	0	38	104	0	64	19162
2026-01-24 01:17:47.81	5.84	5.86	-46.3	-61.0	3.8	1.49e+00	0	37	104	0	64	19183
2026-01-24 01:17:48.80	5.76	5.92	-46.3	-60.9	3.8	1.49e+00	0	37	104	0	64	19164
2026-01-24 01:17:49.79	5.68	5.99	-46.3	-61.0	3.8	1.49e+00	0	37	104	0	64	19199
2026-01-24 01:17:50.78	5.60	6.05	-46.3	-61.0	3.8	1.49e+00	0	38	104	0	64	19216
2026-01-24 01:17:51.78	5.51	6.11	-46.3	-61.0	3.8	1.49e+00	0	37	104	0	64	19171
2026-01-24 01:17:52.77	5.43	6.17	-46.3	-60.9	3.8	1.49e+00	0	38	104	0	64	19148
2026-01-24 01:17:53.76	5.35	6.24	-46.3	-60.9	3.8	1.49e+00	0	37	104	0	64	19013
2026-01-24 01:17:54.76	5.27	6.30	-46.3	-60.9	3.8	1.49e+00	0	38	104	0	64	19058
2026-01-24 01:17:55.75	5.18	6.36	-46.3	-60.9	3.8	1.49e+00	0	38	104	0	64	18965
2026-01-24 01:17:56.74	5.10	6.43	-46.3	-60.8	3.8	1.49e+00	0	37	104	0	64	18934
2026-01-24 01:17:57.74	5.02	6.49	-46.3	-60.8	3.8	1.49e+00	0	38	104	0	64	18896
2026-01-24 01:17:58.73	4.93	6.55	-46.3	-60.9	3.8	1.49e+00	0	38	104	0	64	18978
2026-01-24 01:17:59.72	4.85	6.61	-46.3	-60.9	3.8	1.49e+00	0	38	104	0	64	18964
2026-01-24 01:18:00.72	4.76	6.68	-46.3	-60.9	3.8	1.49e+00	0	38	104	0	64	19090
2026-01-24 01:18:01.71	4.67	6.74	-46.3	-60.9	3.8	1.49e+00	0	38	104	0	64	19120
2026-01-24 01:18:02.70	4.59	6.80	-46.3	-60.9	3.8	1.49e+00	0	38	104	0	64	19106
2026-01-24 01:18:03.70	4.50	6.87	-46.3	-61.0	3.8	1.49e+00	0	38	104	0	64	19280
2026-01-24 01:18:04.69	4.42	6.93	-46.3	-60.9	3.8	1.49e+00	0	38	104	0	64	19150
2026-01-24 01:18:05.68	4.33	7.00	-46.3	-60.9	3.8	1.49e+00	0	38	104	0	64	19122
2026-01-24 01:18:06.68	4.24	7.06	-46.3	-60.9	3.8	1.49e+00	0	38	104	0	64	19057
2026-01-24 01:18:07.67	4.15	7.12	-46.3	-60.8	3.8	1.49e+00	0	38	104	0	64	18924
2026-01-24 01:18:08.66	4.06	7.19	-46.3	-60.8	3.8	1.49e+00	0	38	104	0	64	18754
2026-01-24 01:18:09.66	3.97	7.25	-46.3	-60.7	3.8	1.49e+00	0	38	104	0	64	18580
2026-01-24 01:18:10.65	3.89	7.32	-46.3	-60.6	3.8	1.49e+00	0	38	104	0	64	18425
2026-01-24 01:18:11.64	3.80	7.38	-46.3	-60.4	3.8	1.49e+00	0	38	104	0	64	18031
2026-01-24 01:18:12.64	3.70	7.44	-46.3	-60.2	3.8	1.49e+00	0	38	104	0	64	17646
2026-01-24 01:18:13.63	3.61	7.51	-46.3	-60.0	3.8	1.49e+00	0	38	104	0	64	17220
2026-01-24 01:18:14.62	3.52	7.57	-46.2	-59.8	3.8	1.49e+00	0	38	104	0	64	16728
2026-01-24 01:18:15.62	3.43	7.64	-46.2	-59.5	3.8	1.49e+00	0	38	104	0	64	16160
2026-01-24 01:18:16.59	3.34	7.70	-46.2	-59.2	3.8	1.49e+00	0	37	104	0	64	15620
2026-01-24 01:18:17.58	3.25	7.77	-46.2	-58.9	3.8	1.48e+00	0	38	104	0	64	15223
2026-01-24 01:18:18.58	3.16	7.83	-46.2	-58.5	3.9	1.48e+00	0	38	104	0	64	14506
2026-01-24 01:18:19.57	3.06	7.90	-46.2	-58.6	4.0	1.48e+00	0	38	104	0	64	14616
2026-01-24 01:18:20.56	2.97	7.96	-46.2	-59.2	3.8	1.49e+00	0	38	104	0	64	15667
2026-01-24 01:18:21.56	2.88	8.03	-46.2	-59.6	3.8	1.49e+00	0	38	104	0	64	16421
2026-01-24 01:18:22.55	2.78	8.09	-46.3	-60.0	3.8	1.49e+00	0	38	104	0	64	17243
2026-01-24 01:18:23.54	2.69	8.16	-46.3	-60.4	3.8	1.49e+00	0	38	104	0	64	18046
2026-01-24 01:18:24.54	2.59	8.22	-46.3	-60.7	3.8	1.49e+00	0	38	104	0	64	18711
2026-01-24 01:18:25.53	2.50	8.29	-46.3	-60.8	3.8	1.49e+00	0	38	104	0	64	18866
2026-01-24 01:18:26.53	2.40	8.36	-46.3	-60.3	3.8	1.49e+00	0	38	104	0	64	17824
2026-01-24 01:18:27.52	2.30	8.42	-46.1	-58.0	4.1	1.49e+00	0	38	104	0	64	13639
2026-01-24 01:18:28.51	2.21	8.49	-45.9	-55.1	5.2	1.05e+00	0	38	0	0	63	10354
2026-01-24 01:18:29.51	2.11	8.55	-45.3	-52.2	7.5	1.64e-01	0	38	0	0	62	7846
2026-01-24 01:18:30.50	2.01	8.62	-44.4	-49.7	10.0	1.25e-02	0	38	0	0	60	6583
2026-01-24 01:18:31.49	1.91	8.68	-43.6	-47.7	12.0	4.78e-04	0	38	0	0	59	5574
2026-01-24 01:18:32.49	1.81	8.75	-42.7	-46.3	13.5	3.58e-05	0	38	0	0	57	5291
2026-01-24 01:18:33.48	1.71	8.82	-42.1	-45.2	14.6	2.20e-06	0	38	0	0	56	4974
2026-01-24 01:18:34.48	1.61	8.88	-41.5	-44.4	15.3	0.00e+00	0	38	0	0	55	4762
2026-01-24 01:18:35.47	1.51	8.95	-41.2	-44.0	15.6	0.00e+00	0	38	0	0	54	4867
2026-01-24 01:18:36.46	1.41	9.02	-41.3	-44.2	15.5	0.00e+00	0	38	0	0	54	4939
2026-01-24 01:18:37.46	1.31	9.08	-41.9	-44.9	14.8	0.00e+00	0	38	0	0	54	5389
2026-01-24 01:18:38.45	1.21	9.15	-41.7	-44.8	14.9	2.20e-06	0	38	0	0	55	4990
2026-01-24 01:18:39.45	1.11	9.22	-41.2	-44.1	15.6	0.00e+00	0	38	0	0	54	4885
2026-01-24 01:18:40.44	1.00	9.29	-44.0	-48.3	11.6	3.58e-04	0	38	0	0	58	6275
2026-01-24 01:18:41.44	0.90	9.35	-42.0	-45.2	14.4	6.99e-02	0	38	0	0	56	4976
2026-01-24 01:18:42.43	0.80	9.42	-39.4	-41.7	17.9	0.00e+00	0	38	0	0	50	4702
2026-01-24 01:18:43.43	0.69	9.49	-39.4	-41.8	17.8	0.00e+00	0	38	0	0	50	4718
2026-01-24 01:18:44.42	0.59	9.55	-39.2	-41.5	18.1	0.00e+00	0	38	0	0	50	4554
2026-01-24 01:18:45.41	0.48	9.62	-39.1	-41.3	18.3	0.00e+00	0	38	0	0	50	4462
2026-01-24 01:18:46.40	0.38	9.69	-39.0	-41.2	18.3	0.00e+00	0	38	0	0	50	4426
2026-01-24 01:18:47.40	0.27	9.76	-39.1	-41.2	18.4	0.00e+00	0	38	0	0	50	4425
2026-01-24 01:18:48.39	0.16	9.82	-39.1	-41.2	18.4	0.00e+00	0	38	0	0	50	4413
2026-01-24 01:18:49.39	0.05	9.89	-39.1	-41.2	18.4	0.00e+00	0	38	0	0	50	4393
2026-01-24 01:18:50.38	359.95	9.96	-39.0	-41.1	18.5	0.00e+00	0	38	0	0	50	4343
2026-01-24 01:18:51.38	359.84	10.03	-39.1	-41.2	18.4	0.00e+00	0	38	0	0	50	4401
2026-01-24 01:18:52.37	359.73	10.10	-39.1	-41.2	18.5	0.00e+00	0	38	0	0	50	4402
2026-01-24 01:18:53.37	359.62	10.17	-39.2	-41.3	18.4	0.00e+00	0	38	0	0	50	4443
2026-01-24 01:18:54.36	359.51	10.23	-39.2	-41.3	18.4	0.00e+00	0	38	0	0	50	4446
2026-01-24 01:18:55.36	359.40	10.30	-39.1	-41.2	18.5	0.00e+00	0	38	0	0	50	4412
2026-01-24 01:18:56.35	359.29	10.37	-38.9	-40.9	18.7	0.00e+00	0	38	0	0	49	4533
2026-01-24 01:18:57.35	359.17	10.44	-38.9	-40.9	18.7	0.00e+00	0	38	0	0	49	4508
2026-01-24 01:18:58.34	359.06	10.51	-38.7	-40.7	18.9	0.00e+00	0	38	0	0	49	4432
2026-01-24 01:18:59.34	358.95	10.58	-38.7	-40.7	18.9	0.00e+00	0	38	0	0	49	4440
2026-01-24 01:19:00.33	358.84	10.65	-38.6	-40.6	19.1	0.00e+00	0	38	0	0	49	4345
2026-01-24 01:19:01.33	358.72	10.71	-38.6	-40.5	19.1	0.00e+00	0	38	0	0	49	4327
2026-01-24 01:19:02.32	358.61	10.78	-38.5	-40.5	19.1	0.00e+00	0	38	0	0	49	4325
2026-01-24 01:19:03.31	358.49	10.85	-38.5	-40.5	19.1	0.00e+00	0	38	0	0	49	4318
2026-01-24 01:19:04.31	358.38	10.92	-38.5	-40.5	19.1	0.00e+00	0	38	0	0	49	4334
2026-01-24 01:19:05.30	358.26	10.99	-38.5	-40.5	19.1	0.00e+00	0	38	0	0	49	4320
2026-01-24 01:19:06.30	358.14	11.06	-38.4	-40.4	19.1	0.00e+00	0	38	0	0	48	4539
2026-01-24 01:19:07.29	358.03	11.13	-38.5	-40.5	19.0	0.00e+00	0	38	0	0	48	4594
2026-01-24 01:19:08.29	357.91	11.20	-38.5	-40.6	19.0	0.00e+00	0	38	0	0	48	4604
2026-01-24 01:19:09.28	357.79	11.27	-38.5	-40.5	19.1	0.00e+00	0	38	0	0	48	4582
2026-01-24 01:19:10.28	357.67	11.34	-38.6	-40.7	19.0	0.00e+00	0	38	0	0	48	4654
2026-01-24 01:19:11.27	357.55	11.41	-38.5	-40.6	19.0	0.00e+00	0	38	0	0	48	4639
2026-01-24 01:19:12.27	357.43	11.48	-38.4	-40.5	19.2	0.00e+00	0	38	0	0	48	4557
2026-01-24 01:19:13.31	357.31	11.55	-38.4	-40.5	19.1	0.00e+00	0	38	0	0	48	4593
2026-01-24 01:19:14.26	357.19	11.62	-38.4	-40.5	19.1	0.00e+00	0	38	0	0	48	4593
2026-01-24 01:19:15.26	357.07	11.69	-38.4	-40.5	19.2	0.00e+00	0	38	0	0	48	4570
2026-01-24 01:19:16.41	356.93	11.77	-38.4	-40.5	19.1	0.00e+00	0	38	0	0	48	4590
2026-01-24 01:19:17.31	356.81	11.83	-38.3	-40.4	19.3	0.00e+00	0	38	0	0	48	4498
2026-01-24 01:19:18.33	356.69	11.90	-38.3	-40.4	19.2	0.00e+00	0	38	0	0	48	4519
2026-01-24 01:19:19.33	356.56	11.97	-38.4	-40.5	19.2	0.00e+00	0	38	0	0	48	4550
2026-01-24 01:19:20.32	356.44	12.04	-38.4	-40.5	19.1	0.00e+00	0	38	0	0	48	4578
2026-01-24 01:19:21.31	356.31	12.11	-38.4	-40.6	19.0	0.00e+00	0	38	0	0	48	4630
2026-01-24 01:19:22.31	356.19	12.19	-38.5	-40.7	18.9	0.00e+00	0	38	0	0	48	4678
2026-01-24 01:19:23.31	356.06	12.26	-38.3	-40.5	19.2	0.00e+00	0	38	0	0	48	4563
2026-01-24 01:19:24.30	355.93	12.33	-38.4	-40.6	19.1	0.00e+00	0	38	0	0	48	4601
2026-01-24 01:19:25.29	355.80	12.40	-38.3	-40.6	19.1	0.00e+00	0	38	0	0	48	4603
2026-01-24 01:19:26.29	355.67	12.47	-38.3	-40.5	19.2	0.00e+00	0	38	0	0	48	4595
2026-01-24 01:19:27.28	355.55	12.54	-38.3	-40.5	19.3	0.00e+00	0	38	0	0	48	4549
2026-01-24 01:19:28.28	355.42	12.61	-38.2	-40.4	19.3	0.00e+00	0	38	0	0	48	4516
2026-01-24 01:19:29.27	355.29	12.68	-38.3	-40.5	19.3	0.00e+00	0	38	0	0	48	4551
2026-01-24 01:19:30.26	355.15	12.75	-38.2	-40.4	19.3	0.00e+00	0	38	0	0	48	4515
2026-01-24 01:19:31.26	355.02	12.82	-38.1	-40.2	19.5	0.00e+00	0	38	0	0	48	4399
2026-01-24 01:19:32.25	354.89	12.89	-38.2	-40.2	19.5	0.00e+00	0	38	0	0	48	4441
2026-01-24 01:19:33.36	354.74	12.97	-38.2	-40.2	19.5	0.00e+00	0	38	0	0	48	4407
2026-01-24 01:19:34.21	354.63	13.03	-38.2	-40.2	19.5	0.00e+00	0	38	0	0	48	4418
2026-01-24 01:19:35.57	354.44	13.13	-38.3	-40.3	19.4	0.00e+00	0	38	0	0	48	4456
2026-01-24 01:19:36.28	354.35	13.18	-38.3	-40.4	19.3	0.00e+00	0	38	0	0	48	4510
2026-01-24 01:19:37.56	354.17	13.27	-38.4	-40.4	19.3	0.00e+00	0	38	0	0	48	4500
2026-01-24 01:19:38.28	354.07	13.32	-38.5	-40.5	19.2	0.00e+00	0	38	0	0	48	4584
2026-01-24 01:19:39.56	353.89	13.42	-38.5	-40.4	19.3	0.00e+00	0	38	0	0	48	4516
2026-01-24 01:19:40.27	353.80	13.47	-38.5	-40.4	19.4	0.00e+00	0	38	0	0	48	4503
2026-01-24 01:19:41.55	353.62	13.56	-38.5	-40.4	19.3	0.00e+00	0	38	0	0	48	4521
2026-01-24 01:19:42.27	353.52	13.61	-38.5	-40.4	19.4	0.00e+00	0	38	0	0	48	4515
2026-01-24 01:19:43.55	353.34	13.70	-38.5	-40.3	19.4	0.00e+00	0	38	0	0	48	4487
2026-01-24 01:19:44.28	353.23	13.76	-38.4	-40.3	19.5	0.00e+00	0	38	0	0	48	4446
2026-01-24 01:19:45.56	353.05	13.85	-38.4	-40.3	19.4	0.00e+00	0	38	0	0	48	4470
2026-01-24 01:19:46.29	352.95	13.90	-38.5	-40.4	19.4	0.00e+00	0	38	0	0	48	4497
2026-01-24 01:19:47.57	352.76	13.99	-38.3	-40.2	19.5	0.00e+00	0	38	0	0	48	4410
2026-01-24 01:19:48.28	352.66	14.04	-38.3	-40.2	19.5	0.00e+00	0	38	0	0	48	4399
2026-01-24 01:19:49.56	352.47	14.14	-38.5	-40.4	19.3	0.00e+00	0	38	0	0	48	4505
2026-01-24 01:19:50.27	352.37	14.19	-38.5	-40.3	19.4	0.00e+00	0	38	0	0	48	4461
2026-01-24 01:19:51.63	352.17	14.29	-38.5	-40.3	19.4	0.00e+00	0	38	0	0	48	4450
2026-01-24 01:19:52.34	352.07	14.34	-38.5	-40.3	19.4	0.00e+00	0	38	0	0	48	4475
2026-01-24 01:19:53.72	351.86	14.44	-38.5	-40.4	19.3	0.00e+00	0	38	0	0	48	4499
2026-01-24 01:19:54.43	351.76	14.49	-38.5	-40.3	19.4	0.00e+00	0	38	0	0	48	4493
2026-01-24 01:19:55.74	351.56	14.58	-38.6	-40.4	19.3	0.00e+00	0	38	0	0	48	4540
2026-01-24 01:19:56.45	351.45	14.63	-38.5	-40.4	19.4	0.00e+00	0	38	0	0	48	4518
2026-01-24 01:19:57.75	351.26	14.73	-38.5	-40.4	19.4	0.00e+00	0	38	0	0	48	4516
2026-01-24 01:19:58.46	351.15	14.78	-38.6	-40.5	19.2	0.00e+00	0	38	0	0	48	4591
2026-01-24 01:19:59.73	350.95	14.87	-38.5	-40.4	19.4	0.00e+00	0	38	0	0	48	4498
2026-01-24 01:20:00.45	350.84	14.92	-38.5	-40.4	19.4	0.00e+00	0	38	0	0	48	4516
2026-01-24 01:20:01.72	350.65	15.02	-38.6	-40.5	19.2	0.00e+00	0	38	0	0	48	4547
2026-01-24 01:20:02.45	350.53	15.07	-38.6	-40.5	19.2	0.00e+00	0	38	0	0	48	4579
2026-01-24 01:20:03.73	350.33	15.16	-38.8	-40.7	19.0	0.00e+00	0	38	0	0	48	4667
2026-01-24 01:20:04.48	350.22	15.22	-38.8	-40.7	19.0	0.00e+00	0	38	0	0	48	4687
2026-01-24 01:20:05.76	350.02	15.31	-38.9	-40.8	19.0	0.00e+00	0	38	0	0	48	4743
2026-01-24 01:20:06.50	349.90	15.36	-38.9	-40.8	19.0	0.00e+00	0	38	0	0	48	4751
2026-01-24 01:20:07.78	349.69	15.45	-38.9	-40.8	19.0	0.00e+00	0	38	0	0	48	4738
2026-01-24 01:20:08.60	349.56	15.51	-38.9	-40.8	19.0	0.00e+00	0	38	0	0	48	4750
2026-01-24 01:20:10.05	349.33	15.62	-38.8	-40.7	19.1	0.00e+00	0	38	0	0	48	4695
2026-01-24 01:20:10.76	349.22	15.67	-38.8	-40.7	19.1	0.00e+00	0	38	0	0	48	4674
2026-01-24 01:20:12.25	348.97	15.78	-38.8	-40.7	19.1	0.00e+00	0	38	0	0	48	4698
2026-01-24 01:20:12.96	348.86	15.83	-38.8	-40.8	19.0	0.00e+00	0	38	0	0	48	4719
2026-01-24 01:20:14.24	348.65	15.92	-38.9	-40.8	19.0	0.00e+00	0	38	0	0	48	4733
2026-01-24 01:20:15.27	348.48	16.00	-38.9	-40.8	19.0	0.00e+00	0	38	0	0	48	4744
2026-01-24 01:20:16.26	348.31	16.07	-38.9	-40.8	19.0	0.00e+00	0	38	0	0	48	4736
2026-01-24 01:20:17.26	348.15	16.14	-38.8	-40.7	19.1	0.00e+00	0	38	0	0	48	4693
2026-01-24 01:20:18.25	347.98	16.21	-38.8	-40.8	19.0	0.00e+00	0	38	0	0	48	4717
2026-01-24 01:20:19.25	347.81	16.28	-38.9	-40.8	19.0	0.00e+00	0	38	0	0	48	4757
2026-01-24 01:20:20.25	347.64	16.35	-38.8	-40.6	19.2	0.00e+00	0	38	0	0	48	4648
2026-01-24 01:20:21.24	347.48	16.43	-38.8	-40.7	19.2	0.00e+00	0	38	0	0	48	4653
2026-01-24 01:20:22.25	347.30	16.50	-38.7	-40.6	19.2	0.00e+00	0	38	0	0	48	4640
2026-01-24 01:20:23.25	347.13	16.57	-38.7	-40.6	19.2	0.00e+00	0	38	0	0	48	4638
2026-01-24 01:20:24.29	346.95	16.64	-38.7	-40.6	19.2	0.00e+00	0	38	0	0	48	4626
2026-01-24 01:20:25.25	346.79	16.71	-38.6	-40.5	19.2	0.00e+00	0	38	0	0	48	4583
2026-01-24 01:20:26.33	346.60	16.79	-38.6	-40.6	19.2	0.00e+00	0	38	0	0	48	4629
2026-01-24 01:20:27.21	346.44	16.85	-38.6	-40.6	19.2	0.00e+00	0	38	0	0	48	4633
2026-01-24 01:20:28.35	346.24	16.94	-38.3	-40.3	19.5	0.00e+00	0	38	0	0	48	4469
2026-01-24 01:20:29.20	346.09	17.00	-38.3	-40.3	19.5	0.00e+00	0	38	0	0	48	4474
2026-01-24 01:20:30.56	345.85	17.09	-38.3	-40.4	19.5	0.00e+00	0	38	0	0	48	4501
2026-01-24 01:20:31.27	345.72	17.14	-38.3	-40.3	19.5	0.00e+00	0	38	0	0	48	4452
2026-01-24 01:20:32.54	345.50	17.23	-38.3	-40.2	19.6	0.00e+00	0	38	0	0	48	4401
2026-01-24 01:20:33.27	345.36	17.29	-38.4	-40.2	19.5	0.00e+00	0	38	0	0	48	4426
2026-01-24 01:20:34.55	345.13	17.38	-38.3	-40.2	19.6	0.00e+00	0	38	0	0	48	4392
2026-01-24 01:20:35.27	345.00	17.43	-38.4	-40.2	19.5	0.00e+00	0	38	0	0	48	4422
2026-01-24 01:20:36.55	344.77	17.52	-38.4	-40.2	19.6	0.00e+00	0	38	0	0	48	4395
2026-01-24 01:20:37.28	344.63	17.57	-38.3	-40.1	19.7	0.00e+00	0	38	0	0	48	4357
2026-01-24 01:20:38.55	344.40	17.66	-38.4	-40.2	19.6	0.00e+00	0	38	0	0	48	4395
2026-01-24 01:20:39.28	344.26	17.71	-38.2	-40.0	19.8	0.00e+00	0	38	0	0	48	4333
2026-01-24 01:20:40.56	344.02	17.80	-38.1	-39.9	19.9	0.00e+00	0	38	0	0	48	4263
2026-01-24 01:20:41.28	343.89	17.85	-38.0	-39.8	19.9	0.00e+00	0	38	0	0	48	4231
2026-01-24 01:20:42.56	343.65	17.94	-38.0	-39.8	19.8	0.00e+00	0	38	0	0	47	4478
2026-01-24 01:20:43.30	343.51	18.00	-38.1	-39.9	19.7	0.00e+00	0	38	0	0	47	4504
2026-01-24 01:20:44.58	343.27	18.09	-38.2	-40.0	19.5	0.00e+00	0	38	0	0	47	4591
2026-01-24 01:20:45.30	343.13	18.14	-38.4	-40.2	19.4	0.00e+00	0	38	0	0	47	4680
2026-01-24 01:20:46.58	342.88	18.22	-38.5	-40.3	19.4	0.00e+00	0	38	0	0	47	4738
2026-01-24 01:20:47.31	342.74	18.28	-38.5	-40.2	19.4	0.00e+00	0	38	0	0	47	4703
2026-01-24 01:20:48.59	342.49	18.36	-38.3	-40.1	19.6	0.00e+00	0	38	0	0	47	4631
2026-01-24 01:20:49.58	342.30	18.43	-38.3	-40.0	19.6	0.00e+00	0	38	0	0	47	4593
2026-01-24 01:20:50.58	342.11	18.50	-38.2	-40.0	19.7	0.00e+00	0	38	0	0	47	4557
2026-01-24 01:20:51.57	341.91	18.57	-38.0	-39.8	19.9	0.00e+00	0	38	0	0	47	4454
2026-01-24 01:20:52.57	341.71	18.64	-38.1	-39.9	19.8	0.00e+00	0	38	0	0	47	4500
2026-01-24 01:20:53.56	341.52	18.71	-38.2	-40.0	19.6	0.00e+00	0	38	0	0	47	4570
2026-01-24 01:20:54.56	341.32	18.78	-38.1	-39.9	19.8	0.00e+00	0	38	0	0	47	4502
2026-01-24 01:20:55.55	341.12	18.84	-38.2	-39.9	19.7	0.00e+00	0	38	0	0	47	4526
2026-01-24 01:20:56.54	340.92	18.91	-38.1	-39.8	19.8	0.00e+00	0	38	0	0	47	4485
2026-01-24 01:20:57.54	340.72	18.98	-38.3	-40.1	19.6	0.00e+00	0	38	0	0	47	4600
2026-01-24 01:20:58.53	340.52	19.05	-38.0	-39.8	19.8	0.00e+00	0	38	0	0	47	4454
2026-01-24 01:20:59.53	340.31	19.11	-38.1	-39.8	19.8	0.00e+00	0	38	0	0	47	4487
2026-01-24 01:21:00.52	340.11	19.18	-38.0	-39.8	19.8	0.00e+00	0	38	0	0	47	4465
2026-01-24 01:21:01.52	339.91	19.25	-38.0	-39.8	19.8	0.00e+00	0	38	0	0	47	4451
2026-01-24 01:21:02.51	339.70	19.31	-38.0	-39.8	19.7	0.00e+00	0	38	0	0	47	4478
2026-01-24 01:21:03.50	339.50	19.38	-38.0	-39.9	19.6	0.00e+00	0	38	0	0	47	4515
2026-01-24 01:21:04.49	339.29	19.45	-38.1	-40.0	19.5	0.00e+00	0	38	0	0	47	4584
2026-01-24 01:21:05.49	339.08	19.51	-38.2	-40.1	19.5	0.00e+00	0	38	0	0	47	4608
2026-01-24 01:21:06.48	338.87	19.58	-38.2	-40.1	19.5	0.00e+00	0	38	0	0	47	4603
2026-01-24 01:21:07.48	338.66	19.64	-38.3	-40.1	19.5	0.00e+00	0	38	0	0	47	4639
2026-01-24 01:21:08.47	338.45	19.71	-38.2	-40.0	19.7	0.00e+00	0	38	0	0	47	4549
2026-01-24 01:21:09.46	338.24	19.77	-37.9	-39.7	19.9	0.00e+00	0	38	0	0	47	4407
2026-01-24 01:21:10.46	338.03	19.84	-38.0	-39.8	19.8	0.00e+00	0	38	0	0	47	4450
2026-01-24 01:21:11.45	337.82	19.90	-37.9	-39.7	19.8	0.00e+00	0	38	0	0	47	4437
2026-01-24 01:21:12.44	337.60	19.97	-37.9	-39.7	19.8	0.00e+00	0	38	0	0	47	4438
2026-01-24 01:21:13.44	337.39	20.03	-37.8	-39.7	19.9	0.00e+00	0	38	0	0	47	4431
2026-01-24 01:21:14.43	337.17	20.10	-37.8	-39.7	19.9	0.00e+00	0	38	0	0	47	4426
2026-01-24 01:21:15.43	336.95	20.16	-37.9	-39.8	19.9	0.00e+00	0	38	0	0	47	4449
2026-01-24 01:21:16.42	336.73	20.22	-37.7	-39.5	20.0	0.00e+00	0	38	0	0	47	4329
2026-01-24 01:21:17.42	336.51	20.29	-37.7	-39.5	20.1	0.00e+00	0	38	0	0	47	4333
2026-01-24 01:21:18.41	336.30	20.35	-37.7	-39.5	20.1	0.00e+00	0	38	0	0	47	4309
2026-01-24 01:21:19.41	336.07	20.41	-37.8	-39.6	20.0	0.00e+00	0	38	0	0	47	4352
2026-01-24 01:21:20.40	335.85	20.47	-37.7	-39.5	20.0	0.00e+00	0	38	0	0	47	4322
2026-01-24 01:21:21.40	335.63	20.53	-37.6	-39.4	20.1	0.00e+00	0	38	0	0	47	4248
2026-01-24 01:21:22.39	335.41	20.60	-37.7	-39.5	20.0	0.00e+00	0	38	0	0	47	4321
2026-01-24 01:21:23.39	335.18	20.66	-37.6	-39.4	20.1	0.00e+00	0	38	0	0	47	4290
2026-01-24 01:21:24.39	334.95	20.72	-37.7	-39.5	20.1	0.00e+00	0	38	0	0	47	4321
2026-01-24 01:21:25.38	334.73	20.78	-37.7	-39.5	20.1	0.00e+00	0	38	0	0	47	4339
2026-01-24 01:21:26.37	334.50	20.84	-37.7	-39.5	20.0	0.00e+00	0	38	0	0	47	4307
2026-01-24 01:21:27.37	334.27	20.90	-37.8	-39.5	20.0	0.00e+00	0	38	0	0	47	4328
2026-01-24 01:21:28.37	334.04	20.96	-37.7	-39.5	20.1	0.00e+00	0	38	0	0	47	4305
2026-01-24 01:21:29.37	333.81	21.02	-37.8	-39.6	20.0	0.00e+00	0	38	0	0	47	4357
2026-01-24 01:21:30.36	333.58	21.08	-37.8	-39.5	20.1	0.00e+00	0	38	0	0	47	4324
2026-01-24 01:21:31.35	333.35	21.14	-37.9	-39.6	20.0	0.00e+00	0	38	0	0	47	4374
2026-01-24 01:21:32.49	333.08	21.20	-37.8	-39.6	20.1	0.00e+00	0	38	0	0	47	4349
2026-01-24 01:21:33.35	332.88	21.25	-37.8	-39.6	20.0	0.00e+00	0	38	0	0	47	4345
2026-01-24 01:21:34.69	332.57	21.33	-37.8	-39.6	20.1	0.00e+00	0	38	0	0	47	4341
2026-01-24 01:21:35.40	332.40	21.37	-37.8	-39.5	20.1	0.00e+00	0	38	0	0	47	4318
2026-01-24 01:21:36.68	332.09	21.44	-37.7	-39.5	20.2	0.00e+00	0	38	0	0	47	4303
2026-01-24 01:21:37.41	331.92	21.48	-37.6	-39.4	20.2	0.00e+00	0	38	0	0	47	4284
2026-01-24 01:21:38.68	331.62	21.55	-37.5	-39.3	20.3	0.00e+00	0	38	0	0	47	4216
2026-01-24 01:21:39.42	331.44	21.60	-37.5	-39.3	20.0	0.00e+00	0	38	0	0	47	4232
2026-01-24 01:21:40.70	331.13	21.67	-37.5	-39.3	20.3	0.00e+00	0	38	0	0	47	4203
2026-01-24 01:21:41.47	330.94	21.71	-37.5	-39.2	20.4	0.00e+00	0	38	0	0	46	4426
2026-01-24 01:21:42.75	330.63	21.78	-37.4	-39.1	20.4	0.00e+00	0	38	0	0	46	4385
2026-01-24 01:21:43.48	330.45	21.82	-37.5	-39.2	20.3	0.00e+00	0	38	0	0	46	4409
2026-01-24 01:21:44.76	330.14	21.89	-37.5	-39.2	20.3	0.00e+00	0	38	0	0	46	4424
2026-01-24 01:21:45.56	329.94	21.93	-37.5	-39.2	20.3	0.00e+00	0	38	0	0	46	4404
2026-01-24 01:21:46.70	329.66	21.99	-37.4	-39.1	20.4	0.00e+00	0	38	0	0	46	4383
2026-01-24 01:21:47.55	329.45	22.03	-37.5	-39.2	20.3	0.00e+00	0	38	0	0	46	4402
2026-01-24 01:21:48.69	329.17	22.09	-37.5	-39.2	20.3	0.00e+00	0	38	0	0	46	4431
2026-01-24 01:21:49.81	328.89	22.15	-37.6	-39.3	20.1	0.00e+00	0	38	0	0	46	4491
2026-01-24 01:21:50.83	328.64	22.20	-37.8	-39.5	19.9	0.00e+00	0	38	0	0	46	4558
2026-01-24 01:21:51.83	328.39	22.25	-37.9	-39.6	19.9	0.00e+00	0	38	0	0	46	4627
2026-01-24 01:21:52.82	328.14	22.30	-37.9	-39.7	19.8	0.00e+00	0	38	0	0	46	4665
2026-01-24 01:21:53.82	327.88	22.35	-38.0	-39.7	19.9	0.00e+00	0	38	0	0	46	4677
2026-01-24 01:21:54.82	327.63	22.40	-37.8	-39.6	20.0	0.00e+00	0	38	0	0	46	4618
2026-01-24 01:21:55.81	327.38	22.44	-37.7	-39.5	20.1	0.00e+00	0	38	0	0	46	4558
2026-01-24 01:21:56.80	327.13	22.49	-37.8	-39.6	20.0	0.00e+00	0	38	0	0	46	4607
2026-01-24 01:21:57.80	326.87	22.54	-37.8	-39.6	20.1	0.00e+00	0	38	0	0	46	4626
2026-01-24 01:21:58.79	326.62	22.59	-37.6	-39.4	20.2	0.00e+00	0	38	0	0	46	4545
2026-01-24 01:21:59.79	326.36	22.63	-37.6	-39.4	20.2	0.00e+00	0	38	0	0	46	4522
2026-01-24 01:22:00.78	326.11	22.68	-37.6	-39.4	20.2	0.00e+00	0	37	0	0	46	4534
2026-01-24 01:22:01.78	325.85	22.72	-37.5	-39.2	20.3	0.00e+00	0	38	0	0	46	4436
2026-01-24 01:22:02.84	325.57	22.77	-37.4	-39.1	20.5	0.00e+00	0	38	0	0	46	4376
2026-01-24 01:22:03.69	325.35	22.81	-37.4	-39.1	20.4	0.00e+00	0	38	0	0	46	4378
2026-01-24 01:22:04.83	325.05	22.85	-37.3	-39.0	20.5	0.00e+00	0	38	0	0	46	4317
2026-01-24 01:22:05.68	324.83	22.89	-37.3	-39.0	20.5	0.00e+00	0	38	0	0	46	4304
2026-01-24 01:22:06.82	324.53	22.94	-37.4	-39.2	20.3	0.00e+00	0	38	0	0	46	4400
2026-01-24 01:22:07.68	324.31	22.97	-37.5	-39.3	20.2	0.00e+00	0	38	0	0	46	4448
2026-01-24 01:22:08.81	324.01	23.02	-37.7	-39.5	20.1	0.00e+00	0	38	0	0	46	4579
2026-01-24 01:22:09.66	323.78	23.06	-37.7	-39.4	20.2	0.00e+00	0	38	0	0	46	4527
2026-01-24 01:22:10.80	323.48	23.10	-37.6	-39.3	20.2	0.00e+00	0	38	0	0	46	4491
2026-01-24 01:22:11.65	323.26	23.13	-37.6	-39.4	20.2	0.00e+00	0	38	0	0	46	4511
2026-01-24 01:22:12.78	322.96	23.18	-37.6	-39.4	20.2	0.00e+00	0	38	0	0	46	4538
2026-01-24 01:22:13.64	322.73	23.21	-37.6	-39.4	20.1	0.00e+00	0	38	0	0	46	4529
2026-01-24 01:22:14.88	322.39	23.26	-37.5	-39.3	20.2	0.00e+00	0	38	0	0	46	4464
2026-01-24 01:22:15.73	322.17	23.29	-37.6	-39.3	20.2	0.00e+00	0	38	0	0	46	4493
2026-01-24 01:22:16.87	321.86	23.33	-37.6	-39.4	20.2	0.00e+00	0	38	0	0	46	4495
2026-01-24 01:22:17.72	321.63	23.36	-37.6	-39.3	20.3	0.00e+00	0	38	0	0	46	4457
2026-01-24 01:22:18.98	321.29	23.40	-37.7	-39.4	20.2	0.00e+00	0	38	0	0	46	4532
2026-01-24 01:22:19.76	321.08	23.43	-37.6	-39.4	20.2	0.00e+00	0	38	0	0	46	4532
2026-01-24 01:22:21.04	320.73	23.47	-37.6	-39.5	20.2	0.00e+00	0	38	0	0	46	4552
2026-01-24 01:22:21.77	320.53	23.50	-37.5	-39.4	20.3	0.00e+00	0	38	0	0	46	4496
2026-01-24 01:22:23.05	320.18	23.54	-37.5	-39.3	20.3	0.00e+00	0	38	0	0	46	4473
2026-01-24 01:22:23.78	319.98	23.56	-37.6	-39.4	20.3	0.00e+00	0	38	0	0	46	4512
2026-01-24 01:22:25.06	319.63	23.60	-37.5	-39.2	20.4	0.00e+00	0	38	0	0	46	4414
2026-01-24 01:22:25.81	319.43	23.62	-37.5	-39.2	20.4	0.00e+00	0	38	0	0	46	4418
2026-01-24 01:22:27.09	319.07	23.66	-37.5	-39.2	20.4	0.00e+00	0	38	0	0	46	4405
2026-01-24 01:22:27.86	318.86	23.68	-37.4	-39.1	20.4	0.00e+00	0	38	0	0	46	4365
2026-01-24 01:22:29.14	318.51	23.72	-37.6	-39.3	20.2	0.00e+00	0	38	0	0	46	4469
2026-01-24 01:22:29.87	318.31	23.74	-37.6	-39.4	20.1	0.00e+00	0	38	0	0	46	4499
2026-01-24 01:22:31.15	317.95	23.77	-37.8	-39.5	19.9	0.00e+00	0	38	0	0	46	4584
2026-01-24 01:22:31.97	317.73	23.79	-37.8	-39.5	20.1	0.00e+00	0	38	0	0	46	4577
2026-01-24 01:22:33.10	317.41	23.82	-37.7	-39.5	20.1	0.00e+00	0	38	0	0	46	4570
2026-01-24 01:22:33.96	317.17	23.84	-37.9	-39.6	20.0	0.00e+00	0	38	0	0	46	4646
2026-01-24 01:22:35.09	316.86	23.87	-37.8	-39.5	20.1	0.00e+00	0	38	0	0	46	4594
2026-01-24 01:22:36.22	316.54	23.90	-37.6	-39.3	20.3	0.00e+00	0	38	0	0	46	4481
2026-01-24 01:22:37.07	316.30	23.92	-37.6	-39.3	20.3	0.00e+00	0	38	0	0	46	4471
2026-01-24 01:22:38.21	315.98	23.94	-37.7	-39.4	20.3	0.00e+00	0	38	0	0	46	4514
2026-01-24 01:22:39.06	315.75	23.96	-37.8	-39.5	20.2	0.00e+00	0	38	0	0	46	4554
2026-01-24 01:22:40.20	315.43	23.98	-37.7	-39.4	20.2	0.00e+00	0	38	0	0	46	4509
2026-01-24 01:22:41.05	315.19	24.00	-37.6	-39.3	20.3	0.00e+00	0	38	0	0	46	4461
2026-01-24 01:22:42.19	314.87	24.02	-37.4	-39.1	20.5	0.00e+00	0	38	0	0	46	4354
2026-01-24 01:22:43.04	314.63	24.03	-37.4	-39.1	20.5	0.00e+00	0	38	0	0	46	4344
2026-01-24 01:22:44.18	314.30	24.05	-37.4	-39.1	20.5	0.00e+00	0	38	0	0	46	4355
2026-01-24 01:22:45.03	314.06	24.07	-37.3	-38.9	20.6	0.00e+00	0	38	0	0	46	4277
2026-01-24 01:22:46.16	313.74	24.09	-37.2	-38.9	20.6	0.00e+00	0	38	0	0	46	4256
2026-01-24 01:22:47.02	313.50	24.10	-37.3	-39.0	20.5	0.00e+00	0	38	0	0	46	4315
2026-01-24 01:22:48.15	313.18	24.11	-37.1	-38.8	20.6	0.00e+00	0	38	0	0	46	4217
2026-01-24 01:22:49.01	312.94	24.13	-37.0	-38.6	20.7	0.00e+00	0	38	0	0	45	4391
2026-01-24 01:22:50.14	312.62	24.14	-37.0	-38.6	20.8	0.00e+00	0	38	0	0	45	4384
2026-01-24 01:22:51.14	312.33	24.15	-37.0	-38.6	20.7	0.00e+00	0	38	0	0	45	4391
2026-01-24 01:22:52.32	312.00	24.17	-37.1	-38.8	20.6	0.00e+00	0	38	0	0	45	4479
2026-01-24 01:22:53.20	311.75	24.17	-37.2	-38.8	20.6	0.00e+00	0	38	0	0	45	4490
2026-01-24 01:22:54.53	311.37	24.19	-37.3	-39.0	20.6	0.00e+00	0	38	0	0	45	4555
2026-01-24 01:22:55.24	311.16	24.19	-37.3	-39.0	20.6	0.00e+00	0	38	0	0	45	4561
2026-01-24 01:22:56.75	310.73	24.20	-37.4	-39.1	20.5	0.00e+00	0	38	0	0	45	4600
2026-01-24 01:22:57.46	310.53	24.21	-37.3	-39.0	20.6	0.00e+00	0	38	0	0	45	4550
2026-01-24 01:22:58.74	310.17	24.22	-37.5	-39.1	20.4	0.00e+00	0	38	0	0	45	4640
2026-01-24 01:22:59.45	309.96	24.22	-37.5	-39.1	20.4	0.00e+00	0	38	0	0	45	4643
2026-01-24 01:23:00.73	309.60	24.23	-37.5	-39.2	20.3	0.00e+00	0	38	0	0	45	4672
2026-01-24 01:23:01.46	309.39	24.23	-37.5	-39.2	20.2	0.00e+00	0	38	0	0	45	4697
2026-01-24 01:23:02.74	309.02	24.23	-37.6	-39.3	20.3	0.00e+00	0	38	0	0	45	4714
2026-01-24 01:23:03.45	308.82	24.24	-37.6	-39.3	20.3	0.00e+00	0	38	0	0	45	4724
2026-01-24 01:23:04.73	308.45	24.24	-37.7	-39.4	20.2	0.00e+00	0	38	0	0	46	4494
2026-01-24 01:23:05.44	308.25	24.24	-37.6	-39.3	20.3	0.00e+00	0	38	0	0	46	4453
2026-01-24 01:23:06.72	307.88	24.24	-37.7	-39.3	20.3	0.00e+00	0	38	0	0	46	4488
2026-01-24 01:23:07.51	307.66	24.24	-37.7	-39.3	20.2	0.00e+00	0	38	0	0	46	4485
2026-01-24 01:23:08.68	307.32	24.24	-37.6	-39.2	20.3	0.00e+00	0	38	0	0	46	4437
2026-01-24 01:23:09.54	307.08	24.23	-37.6	-39.3	20.3	0.00e+00	0	38	0	0	46	4448
2026-01-24 01:23:10.67	306.76	24.23	-37.6	-39.3	20.3	0.00e+00	0	38	0	0	46	4445
2026-01-24 01:23:11.53	306.51	24.23	-37.6	-39.3	20.3	0.00e+00	0	38	0	0	46	4462
2026-01-24 01:23:12.67	306.18	24.22	-37.7	-39.4	20.2	0.00e+00	0	38	0	0	46	4502
2026-01-24 01:23:13.85	305.85	24.22	-37.7	-39.4	20.1	0.00e+00	0	38	0	0	46	4500
2026-01-24 01:23:14.70	305.60	24.21	-37.8	-39.5	20.0	0.00e+00	0	38	0	0	46	4557
2026-01-24 01:23:15.84	305.28	24.20	-37.7	-39.4	20.2	0.00e+00	0	38	0	0	46	4504
2026-01-24 01:23:16.69	305.04	24.20	-37.8	-39.5	20.1	0.00e+00	0	38	0	0	46	4546
2026-01-24 01:23:17.83	304.71	24.19	-37.8	-39.5	20.1	0.00e+00	0	38	0	0	46	4565
2026-01-24 01:23:18.68	304.47	24.18	-37.7	-39.4	20.2	0.00e+00	0	38	0	0	46	4514
2026-01-24 01:23:19.82	304.14	24.17	-37.8	-39.4	20.2	0.00e+00	0	38	0	0	46	4540
2026-01-24 01:23:20.67	303.90	24.16	-37.6	-39.3	20.3	0.00e+00	0	38	0	0	46	4474
2026-01-24 01:23:21.90	303.55	24.14	-37.7	-39.3	20.2	0.00e+00	0	38	0	0	46	4492
2026-01-24 01:23:22.75	303.31	24.13	-37.6	-39.3	20.2	0.00e+00	0	38	0	0	46	4447
2026-01-24 01:23:23.89	302.99	24.12	-37.6	-39.3	20.3	0.00e+00	0	38	0	0	46	4444
2026-01-24 01:23:24.74	302.75	24.11	-37.6	-39.2	20.4	0.00e+00	0	38	0	0	46	4426
2026-01-24 01:23:25.88	302.42	24.09	-37.5	-39.2	20.4	0.00e+00	0	38	0	0	46	4411
2026-01-24 01:23:26.73	302.18	24.08	-37.6	-39.2	20.4	0.00e+00	0	38	0	0	46	4427
2026-01-24 01:23:28.07	301.80	24.06	-37.5	-39.2	20.4	0.00e+00	0	38	0	0	46	4394
2026-01-24 01:23:28.78	301.60	24.04	-37.4	-39.0	20.5	0.00e+00	0	38	0	0	46	4339
2026-01-24 01:23:30.26	301.18	24.02	-37.4	-39.0	20.5	0.00e+00	0	38	0	0	46	4322
2026-01-24 01:23:30.97	300.98	24.00	-37.4	-39.1	20.5	0.00e+00	0	38	0	0	46	4359
2026-01-24 01:23:32.25	300.62	23.98	-37.4	-39.0	20.5	0.00e+00	0	38	0	0	46	4338
2026-01-24 01:23:32.98	300.42	23.96	-37.3	-39.0	20.6	0.00e+00	0	38	0	0	46	4310
2026-01-24 01:23:34.26	300.06	23.94	-37.2	-38.9	20.7	0.00e+00	0	38	0	0	46	4260
2026-01-24 01:23:34.98	299.86	23.92	-37.3	-39.0	20.5	0.00e+00	0	38	0	0	46	4310
2026-01-24 01:23:36.26	299.50	23.89	-37.4	-39.0	20.5	0.00e+00	0	38	0	0	46	4316
2026-01-24 01:23:36.99	299.29	23.88	-37.3	-38.9	20.5	0.00e+00	0	38	0	0	46	4277
2026-01-24 01:23:38.26	298.94	23.85	-37.2	-38.8	20.6	0.00e+00	0	38	0	0	46	4221
2026-01-24 01:23:38.99	298.74	23.83	-37.3	-38.9	20.6	0.00e+00	0	38	0	0	46	4271
2026-01-24 01:23:40.27	298.38	23.80	-37.4	-39.0	20.5	0.00e+00	0	38	0	0	46	4322
2026-01-24 01:23:41.01	298.17	23.78	-37.4	-39.0	20.5	0.00e+00	0	38	0	0	46	4321
2026-01-24 01:23:42.29	297.82	23.74	-37.4	-39.0	20.5	0.00e+00	0	38	0	0	46	4333
2026-01-24 01:23:43.05	297.61	23.72	-37.4	-39.0	20.5	0.00e+00	0	38	0	0	46	4336
2026-01-24 01:23:44.63	297.17	23.68	-37.3	-39.0	20.5	0.00e+00	0	38	0	0	46	4294
2026-01-24 01:23:45.27	296.99	23.66	-37.3	-38.9	20.5	0.00e+00	0	38	0	0	46	4290
2026-01-24 01:23:46.69	296.60	23.62	-37.5	-39.1	20.5	0.00e+00	0	38	0	0	46	4374
2026-01-24 01:23:47.67	296.33	23.59	-37.5	-39.2	20.4	0.00e+00	0	38	0	0	46	4399
2026-01-24 01:23:48.67	296.06	23.56	-37.6	-39.3	20.3	0.00e+00	0	38	0	0	46	4462
2026-01-24 01:23:49.66	295.79	23.53	-37.7	-39.4	20.3	0.00e+00	0	38	0	0	46	4495
2026-01-24 01:23:50.66	295.52	23.49	-37.8	-39.5	20.2	0.00e+00	0	38	0	0	46	4552
2026-01-24 01:23:51.65	295.25	23.46	-37.8	-39.5	20.2	0.00e+00	0	38	0	0	46	4549
2026-01-24 01:23:52.64	294.98	23.43	-37.9	-39.5	20.1	0.00e+00	0	38	0	0	46	4597
2026-01-24 01:23:53.64	294.70	23.39	-37.9	-39.6	20.0	0.00e+00	0	38	0	0	46	4646
2026-01-24 01:23:54.63	294.44	23.36	-37.8	-39.4	20.2	0.00e+00	0	38	0	0	46	4543
2026-01-24 01:23:55.72	294.14	23.32	-37.8	-39.5	20.3	0.00e+00	0	38	0	0	46	4549
2026-01-24 01:23:56.60	293.90	23.29	-37.7	-39.4	20.3	0.00e+00	0	38	0	0	46	4517
2026-01-24 01:23:57.91	293.55	23.24	-37.7	-39.4	20.3	0.00e+00	0	38	0	0	46	4519
2026-01-24 01:23:58.62	293.36	23.21	-37.6	-39.3	20.4	0.00e+00	0	38	0	0	46	4474
2026-01-24 01:23:59.90	293.02	23.16	-37.5	-39.2	20.5	0.00e+00	0	38	0	0	46	4403
2026-01-24 01:24:00.61	292.83	23.14	-37.4	-39.1	20.6	0.00e+00	0	38	0	0	46	4351
2026-01-24 01:24:01.89	292.49	23.09	-37.4	-39.0	20.6	0.00e+00	0	38	0	0	46	4308
2026-01-24 01:24:02.60	292.30	23.06	-37.5	-39.1	20.5	0.00e+00	0	38	0	0	46	4367
2026-01-24 01:24:03.88	291.96	23.01	-37.6	-39.3	20.4	0.00e+00	0	38	0	0	46	4446
2026-01-24 01:24:04.60	291.77	22.98	-37.7	-39.4	20.2	0.00e+00	0	38	0	0	46	4526
2026-01-24 01:24:05.88	291.43	22.92	-37.9	-39.6	20.1	0.00e+00	0	38	0	0	46	4601
2026-01-24 01:24:06.61	291.24	22.89	-37.8	-39.5	20.2	0.00e+00	0	38	0	0	46	4550
2026-01-24 01:24:07.89	290.91	22.84	-37.8	-39.5	20.1	0.00e+00	0	38	0	0	46	4593
2026-01-24 01:24:08.60	290.72	22.81	-37.8	-39.5	20.1	0.00e+00	0	38	0	0	46	4590
2026-01-24 01:24:09.88	290.39	22.75	-37.7	-39.4	20.2	0.00e+00	0	38	0	0	46	4514
2026-01-24 01:24:10.59	290.20	22.72	-37.8	-39.4	20.1	0.00e+00	0	38	0	0	46	4542
2026-01-24 01:24:11.87	289.87	22.66	-37.7	-39.4	20.2	0.00e+00	0	38	0	0	46	4520
2026-01-24 01:24:12.61	289.68	22.63	-37.8	-39.5	20.1	0.00e+00	0	38	0	0	46	4554
2026-01-24 01:24:13.89	289.35	22.57	-37.8	-39.4	20.1	0.00e+00	0	38	0	0	46	4543
2026-01-24 01:24:14.60	289.17	22.53	-37.8	-39.5	20.0	0.00e+00	0	38	0	0	46	4595
2026-01-24 01:24:15.88	288.84	22.47	-37.9	-39.7	19.9	0.00e+00	0	38	0	0	46	4653
2026-01-24 01:24:16.61	288.65	22.44	-38.0	-39.8	19.8	0.00e+00	0	38	0	0	46	4708
2026-01-24 01:24:17.89	288.33	22.38	-38.0	-39.8	19.8	0.00e+00	0	38	0	0	46	4710
2026-01-24 01:24:18.60	288.15	22.34	-37.9	-39.6	19.9	0.00e+00	0	38	0	0	46	4641
2026-01-24 01:24:20.18	287.75	22.26	-37.9	-39.6	19.8	0.00e+00	0	38	0	0	46	4639
2026-01-24 01:24:20.84	287.58	22.23	-38.0	-39.7	19.7	0.00e+00	0	38	0	0	46	4659
2026-01-24 01:24:22.37	287.20	22.15	-38.1	-39.8	19.7	0.00e+00	0	38	0	0	46	4715
2026-01-24 01:24:23.08	287.02	22.12	-38.0	-39.7	19.8	0.00e+00	0	38	0	0	46	4655
2026-01-24 01:24:24.36	286.70	22.05	-37.9	-39.6	19.9	0.00e+00	0	38	0	0	46	4644
2026-01-24 01:24:25.08	286.52	22.01	-38.0	-39.7	19.9	0.00e+00	0	38	0	0	46	4676
2026-01-24 01:24:26.36	286.20	21.95	-38.0	-39.8	19.9	0.00e+00	0	38	0	0	46	4709
2026-01-24 01:24:27.07	286.03	21.91	-37.9	-39.7	19.9	0.00e+00	0	38	0	0	46	4661
2026-01-24 01:24:28.40	285.70	21.84	-38.1	-39.9	19.7	0.00e+00	0	38	0	0	46	4770
2026-01-24 01:24:29.11	285.53	21.80	-38.3	-40.1	19.5	0.00e+00	0	38	0	0	47	4616
2026-01-24 01:24:30.45	285.20	21.73	-38.5	-40.3	19.3	0.00e+00	0	38	0	0	47	4716
2026-01-24 01:24:31.16	285.03	21.69	-38.5	-40.3	19.3	0.00e+00	0	38	0	0	47	4732
2026-01-24 01:24:32.44	284.72	21.62	-38.5	-40.3	19.2	0.00e+00	0	38	0	0	47	4751
2026-01-24 01:24:33.17	284.54	21.58	-38.5	-40.3	19.3	0.00e+00	0	38	0	0	47	4729
2026-01-24 01:24:34.54	284.21	21.50	-38.5	-40.2	19.3	0.00e+00	0	38	0	0	47	4701
2026-01-24 01:24:35.25	284.04	21.46	-38.4	-40.2	19.4	0.00e+00	0	38	0	0	47	4679
2026-01-24 01:24:36.61	283.72	21.38	-38.1	-39.8	19.8	0.00e+00	0	38	0	0	47	4467
2026-01-24 01:24:37.32	283.55	21.34	-38.1	-39.8	19.8	0.00e+00	0	38	0	0	47	4474
2026-01-24 01:24:38.66	283.23	21.27	-38.1	-39.9	19.7	0.00e+00	0	38	0	0	47	4498
2026-01-24 01:24:39.37	283.06	21.22	-38.2	-39.9	19.6	0.00e+00	0	38	0	0	47	4545
2026-01-24 01:24:40.73	282.74	21.14	-38.4	-40.1	19.4	0.00e+00	0	38	0	0	47	4639
2026-01-24 01:24:41.44	282.58	21.10	-38.3	-40.1	19.3	0.00e+00	0	38	0	0	47	4636
2026-01-24 01:24:42.76	282.27	21.02	-38.4	-40.2	19.3	0.00e+00	0	38	0	0	47	4667
2026-01-24 01:24:43.47	282.10	20.98	-38.4	-40.2	19.3	0.00e+00	0	38	0	0	47	4676
2026-01-24 01:24:44.77	281.80	20.90	-38.4	-40.2	19.3	0.00e+00	0	38	0	0	47	4670
2026-01-24 01:24:45.48	281.64	20.86	-38.3	-40.1	19.4	0.00e+00	0	38	0	0	47	4613
2026-01-24 01:24:46.76	281.34	20.78	-38.1	-39.9	19.6	0.00e+00	0	38	0	0	47	4500
2026-01-24 01:24:47.48	281.18	20.74	-38.1	-39.8	19.7	0.00e+00	0	38	0	0	47	4463
2026-01-24 01:24:48.76	280.89	20.66	-38.0	-39.7	19.8	0.00e+00	0	38	0	0	47	4412
2026-01-24 01:24:49.47	280.73	20.62	-38.0	-39.7	19.8	0.00e+00	0	38	0	0	47	4429
2026-01-24 01:24:50.75	280.44	20.54	-38.1	-39.8	19.8	0.00e+00	0	38	0	0	47	4451
2026-01-24 01:24:51.48	280.27	20.49	-37.9	-39.6	19.9	0.00e+00	0	38	0	0	47	4377
2026-01-24 01:24:52.75	279.99	20.41	-37.8	-39.5	20.0	0.00e+00	0	38	0	0	47	4318
2026-01-24 01:24:53.58	279.80	20.36	-37.9	-39.6	19.9	0.00e+00	0	38	0	0	47	4354
2026-01-24 01:24:54.71	279.55	20.29	-37.9	-39.6	19.9	0.00e+00	0	38	0	0	47	4386
2026-01-24 01:24:55.57	279.36	20.24	-37.9	-39.6	19.9	0.00e+00	0	38	0	0	47	4367
2026-01-24 01:24:57.07	279.03	20.14	-37.9	-39.6	20.0	0.00e+00	0	38	0	0	47	4349
2026-01-24 01:24:57.78	278.87	20.09	-37.9	-39.6	20.0	0.00e+00	0	38	0	0	47	4363
2026-01-24 01:24:59.06	278.59	20.01	-37.8	-39.5	20.1	0.00e+00	0	38	0	0	47	4329
2026-01-24 01:24:59.78	278.44	19.96	-37.8	-39.5	20.1	0.00e+00	0	38	0	0	47	4324
2026-01-24 01:25:01.06	278.16	19.88	-37.9	-39.7	20.0	0.00e+00	0	38	0	0	47	4394
2026-01-24 01:25:01.88	277.98	19.83	-38.1	-39.8	19.8	0.00e+00	0	38	0	0	47	4487
2026-01-24 01:25:03.01	277.74	19.75	-38.1	-39.8	19.8	0.00e+00	0	38	0	0	47	4481
2026-01-24 01:25:03.87	277.56	19.70	-38.1	-39.8	19.9	0.00e+00	0	38	0	0	47	4462
2026-01-24 01:25:05.00	277.32	19.62	-38.0	-39.7	19.9	0.00e+00	0	38	0	0	47	4426
2026-01-24 01:25:05.85	277.14	19.57	-38.1	-39.8	19.8	0.00e+00	0	38	0	0	47	4455
2026-01-24 01:25:06.99	276.89	19.49	-38.0	-39.7	19.9	0.00e+00	0	38	0	0	47	4417
2026-01-24 01:25:07.85	276.71	19.43	-37.9	-39.6	20.0	0.00e+00	0	38	0	0	47	4367
2026-01-24 01:25:08.98	276.48	19.36	-37.9	-39.7	19.9	0.00e+00	0	38	0	0	47	4393
2026-01-24 01:25:09.83	276.30	19.30	-37.9	-39.6	20.0	0.00e+00	0	38	0	0	47	4383
2026-01-24 01:25:11.02	276.05	19.22	-38.0	-39.7	20.0	0.00e+00	0	38	0	0	47	4399
2026-01-24 01:25:11.87	275.88	19.16	-38.1	-39.8	19.8	0.00e+00	0	38	0	0	47	4490
2026-01-24 01:25:13.06	275.63	19.08	-38.4	-40.1	19.6	0.00e+00	0	38	0	0	47	4636
2026-01-24 01:25:13.91	275.46	19.03	-38.6	-40.3	19.4	0.00e+00	0	38	0	0	47	4747
2026-01-24 01:25:15.11	275.22	18.94	-38.8	-40.6	19.3	0.00e+00	0	38	0	0	48	4626
2026-01-24 01:25:16.39	274.96	18.86	-38.9	-40.7	19.2	0.00e+00	0	38	0	0	48	4672
2026-01-24 01:25:17.10	274.81	18.81	-38.9	-40.7	19.2	0.00e+00	0	38	0	0	48	4669
2026-01-24 01:25:18.38	274.56	18.72	-38.8	-40.7	19.2	0.00e+00	0	38	0	0	48	4653
2026-01-24 01:25:19.09	274.41	18.67	-38.6	-40.4	19.4	0.00e+00	0	38	0	0	48	4512
2026-01-24 01:25:20.46	274.14	18.58	-38.2	-39.9	19.7	0.00e+00	0	38	0	0	48	4287
2026-01-24 01:25:21.18	274.00	18.53	-38.2	-39.9	19.8	0.00e+00	0	38	0	0	48	4271
2026-01-24 01:25:22.50	273.74	18.43	-37.9	-39.7	19.9	0.00e+00	0	38	0	0	47	4406
2026-01-24 01:25:23.21	273.60	18.39	-37.8	-39.6	19.9	0.00e+00	0	38	0	0	47	4344
2026-01-24 01:25:24.49	273.35	18.30	-37.8	-39.5	19.9	0.00e+00	0	38	0	0	47	4336
2026-01-24 01:25:25.20	273.21	18.25	-37.8	-39.5	20.0	0.00e+00	0	38	0	0	47	4322
2026-01-24 01:25:26.49	272.96	18.16	-37.8	-39.5	19.9	0.00e+00	0	38	0	0	47	4327
2026-01-24 01:25:27.23	272.82	18.10	-37.8	-39.5	19.9	0.00e+00	0	38	0	0	47	4303
2026-01-24 01:25:28.51	272.57	18.01	-37.8	-39.5	19.9	0.00e+00	0	38	0	0	47	4302
2026-01-24 01:25:29.23	272.44	17.96	-37.7	-39.4	19.9	0.00e+00	0	38	0	0	47	4267
2026-01-24 01:25:30.51	272.19	17.87	-37.8	-39.5	19.8	0.00e+00	0	38	0	0	47	4299
2026-01-24 01:25:31.22	272.06	17.82	-37.8	-39.5	19.8	0.00e+00	0	38	0	0	47	4316
2026-01-24 01:25:32.50	271.82	17.73	-38.0	-39.7	19.7	0.00e+00	0	38	0	0	47	4400
2026-01-24 01:25:33.21	271.69	17.68	-38.1	-39.8	19.6	0.00e+00	0	38	0	0	47	4488
2026-01-24 01:25:34.49	271.45	17.59	-38.4	-40.1	19.4	0.00e+00	0	38	0	0	47	4636
2026-01-24 01:25:35.25	271.31	17.54	-38.5	-40.3	19.2	0.00e+00	0	38	0	0	47	4718
2026-01-24 01:25:36.53	271.07	17.45	-38.7	-40.5	19.0	0.00e+00	0	38	0	0	47	4836
2026-01-24 01:25:37.25	270.94	17.40	-38.8	-40.6	19.1	0.00e+00	0	38	0	0	48	4623
2026-01-24 01:25:38.53	270.71	17.30	-38.8	-40.7	19.0	0.00e+00	0	38	0	0	48	4659
2026-01-24 01:25:39.24	270.58	17.25	-38.8	-40.6	19.1	0.00e+00	0	38	0	0	48	4619
2026-01-24 01:25:40.52	270.34	17.16	-38.5	-40.3	19.3	0.00e+00	0	38	0	0	48	4474
2026-01-24 01:25:41.24	270.21	17.11	-38.5	-40.2	19.4	0.00e+00	0	38	0	0	48	4437
2026-01-24 01:25:42.63	269.97	17.01	-38.3	-40.1	19.6	0.00e+00	0	38	0	0	48	4341
2026-01-24 01:25:43.34	269.84	16.96	-38.3	-40.0	19.6	0.00e+00	0	38	0	0	48	4334
2026-01-24 01:25:44.62	269.61	16.87	-38.1	-39.7	19.9	0.00e+00	0	38	0	0	48	4192
2026-01-24 01:25:45.66	269.43	16.79	-37.8	-39.5	20.0	0.00e+00	0	38	0	0	47	4330
2026-01-24 01:25:46.96	269.20	16.70	-37.8	-39.5	20.0	0.00e+00	0	38	0	0	47	4328
2026-01-24 01:25:47.69	269.07	16.65	-37.9	-39.6	19.8	0.00e+00	0	38	0	0	47	4385
2026-01-24 01:25:49.27	268.80	16.53	-37.8	-39.5	19.9	0.00e+00	0	38	0	0	47	4312
2026-01-24 01:25:49.90	268.69	16.49	-37.6	-39.3	20.1	0.00e+00	0	38	0	0	47	4231
2026-01-24 01:25:51.40	268.43	16.38	-37.6	-39.3	20.1	0.00e+00	0	38	0	0	47	4228
2026-01-24 01:25:52.11	268.31	16.33	-37.7	-39.4	20.0	0.00e+00	0	38	0	0	47	4247
2026-01-24 01:25:53.39	268.09	16.23	-37.8	-39.5	19.8	0.00e+00	0	38	0	0	47	4302
2026-01-24 01:25:54.10	267.97	16.18	-37.9	-39.7	19.6	0.00e+00	0	38	0	0	47	4408
2026-01-24 01:25:55.38	267.76	16.09	-38.2	-39.9	19.3	0.00e+00	0	38	0	0	47	4541
2026-01-24 01:25:56.09	267.64	16.04	-38.3	-40.1	19.3	0.00e+00	0	38	0	0	47	4613
2026-01-24 01:25:57.53	267.40	15.93	-38.4	-40.2	19.2	0.00e+00	0	38	0	0	47	4677
2026-01-24 01:25:58.24	267.28	15.88	-38.5	-40.3	19.2	0.00e+00	0	38	0	0	47	4725
2026-01-24 01:25:59.52	267.07	15.79	-38.6	-40.5	19.1	0.00e+00	0	38	0	0	47	4824
2026-01-24 01:26:00.23	266.95	15.74	-38.8	-40.6	19.2	0.00e+00	0	38	0	0	48	4632
2026-01-24 01:26:01.51	266.74	15.65	-39.0	-40.8	19.0	0.00e+00	0	38	0	0	48	4731
2026-01-24 01:26:02.24	266.62	15.59	-39.0	-40.8	18.9	0.00e+00	0	38	0	0	48	4737
2026-01-24 01:26:03.51	266.42	15.50	-39.0	-40.8	18.9	0.00e+00	0	38	0	0	48	4742
2026-01-24 01:26:04.24	266.30	15.45	-39.0	-40.8	19.0	0.00e+00	0	38	0	0	48	4748
2026-01-24 01:26:05.52	266.09	15.35	-38.9	-40.7	19.1	0.00e+00	0	38	0	0	48	4696
2026-01-24 01:26:06.23	265.98	15.30	-38.9	-40.7	19.1	0.00e+00	0	38	0	0	48	4669
2026-01-24 01:26:07.51	265.78	15.21	-38.8	-40.6	19.1	0.00e+00	0	38	0	0	48	4629
2026-01-24 01:26:08.22	265.67	15.16	-38.7	-40.4	19.3	0.00e+00	0	38	0	0	48	4526
2026-01-24 01:26:09.50	265.47	15.07	-38.2	-39.9	19.7	0.00e+00	0	38	0	0	48	4285
2026-01-24 01:26:10.24	265.35	15.01	-38.3	-40.0	19.7	0.00e+00	0	38	0	0	48	4311
2026-01-24 01:26:11.51	265.15	14.92	-38.4	-40.1	19.5	0.00e+00	0	38	0	0	48	4371
2026-01-24 01:26:12.24	265.04	14.87	-38.5	-40.2	19.4	0.00e+00	0	38	0	0	48	4414
2026-01-24 01:26:13.52	264.84	14.77	-38.5	-40.3	19.3	0.00e+00	0	38	0	0	48	4450
2026-01-24 01:26:14.24	264.73	14.72	-38.7	-40.4	19.2	0.00e+00	0	38	0	0	48	4542
2026-01-24 01:26:15.55	264.53	14.63	-38.9	-40.8	18.9	0.00e+00	0	38	0	0	48	4717
2026-01-24 01:26:16.26	264.42	14.57	-39.0	-40.9	18.8	0.00e+00	0	38	0	0	48	4770
2026-01-24 01:26:17.54	264.23	14.48	-39.1	-41.0	18.8	0.00e+00	0	38	0	0	48	4836
2026-01-24 01:26:18.25	264.12	14.43	-39.0	-40.9	18.9	0.00e+00	0	38	0	0	48	4779
2026-01-24 01:26:19.66	263.91	14.33	-38.9	-40.7	19.1	0.00e+00	0	38	0	0	48	4663
2026-01-24 01:26:20.63	263.77	14.26	-38.7	-40.5	19.3	0.00e+00	0	38	0	0	48	4566
2026-01-24 01:26:21.93	263.58	14.16	-38.6	-40.4	19.4	0.00e+00	0	38	0	0	48	4509
2026-01-24 01:26:22.65	263.47	14.11	-38.6	-40.4	19.4	0.00e+00	0	38	0	0	48	4508
2026-01-24 01:26:24.25	263.24	13.99	-38.4	-40.2	19.6	0.00e+00	0	38	0	0	48	4422
2026-01-24 01:26:24.82	263.15	13.95	-38.5	-40.3	19.5	0.00e+00	0	38	0	0	48	4444
2026-01-24 01:26:26.52	262.91	13.83	-38.3	-40.1	19.5	0.00e+00	0	38	0	0	48	4352
2026-01-24 01:26:27.09	262.82	13.79	-38.4	-40.1	19.4	0.00e+00	0	38	0	0	48	4388
2026-01-24 01:26:28.80	262.58	13.66	-38.4	-40.2	19.3	0.00e+00	0	38	0	0	48	4399
2026-01-24 01:26:29.36	262.50	13.62	-38.6	-40.3	19.2	0.00e+00	0	38	0	0	48	4481
2026-01-24 01:26:31.07	262.26	13.50	-38.8	-40.6	19.0	0.00e+00	0	38	0	0	48	4642
2026-01-24 01:26:31.64	262.18	13.46	-39.0	-40.8	18.9	0.00e+00	0	38	0	0	48	4751
2026-01-24 01:26:33.45	261.92	13.33	-39.2	-41.1	18.7	0.00e+00	0	38	0	0	49	4617
2026-01-24 01:26:34.02	261.85	13.29	-39.2	-41.1	18.7	0.00e+00	0	38	0	0	49	4622
2026-01-24 01:26:35.71	261.61	13.17	-39.3	-41.2	18.7	0.00e+00	0	38	0	0	49	4659
2026-01-24 01:26:36.43	261.51	13.11	-39.2	-41.1	18.8	0.00e+00	0	38	0	0	49	4620
2026-01-24 01:26:37.71	261.34	13.02	-39.3	-41.2	18.7	0.00e+00	0	38	0	0	49	4684
2026-01-24 01:26:38.65	261.21	12.96	-39.3	-41.2	18.7	0.00e+00	0	38	0	0	49	4674
2026-01-24 01:26:39.95	261.03	12.86	-39.2	-41.1	18.8	0.00e+00	0	38	0	0	49	4615
2026-01-24 01:26:40.66	260.94	12.81	-39.2	-41.1	18.7	0.00e+00	0	38	0	0	49	4614
2026-01-24 01:26:41.94	260.77	12.72	-39.1	-41.0	18.7	0.00e+00	0	38	0	0	49	4578
2026-01-24 01:26:42.68	260.67	12.67	-39.1	-41.0	18.6	0.00e+00	0	38	0	0	49	4584
2026-01-24 01:26:43.96	260.50	12.57	-39.1	-41.0	18.6	0.00e+00	0	38	0	0	49	4585
2026-01-24 01:26:44.70	260.40	12.52	-39.1	-41.0	18.5	0.00e+00	0	38	0	0	49	4570
2026-01-24 01:26:45.97	260.23	12.43	-39.0	-40.9	18.7	0.00e+00	0	38	0	0	49	4507
2026-01-24 01:26:46.68	260.14	12.38	-39.1	-40.9	18.6	0.00e+00	0	38	0	0	49	4521
2026-01-24 01:26:47.96	259.98	12.29	-39.2	-41.1	18.5	0.00e+00	0	38	0	0	49	4600
2026-01-24 01:26:48.69	259.88	12.24	-39.2	-41.1	18.5	0.00e+00	0	38	0	0	49	4607
2026-01-24 01:26:50.11	259.70	12.14	-39.2	-41.1	18.5	0.00e+00	0	38	0	0	49	4642
2026-01-24 01:26:50.82	259.61	12.09	-39.3	-41.2	18.5	0.00e+00	0	38	0	0	49	4658
2026-01-24 01:26:52.16	259.44	11.99	-39.4	-41.3	18.5	0.00e+00	0	38	0	0	49	4709
2026-01-24 01:26:52.87	259.35	11.94	-39.4	-41.3	18.2	0.00e+00	0	38	0	0	49	4756
2026-01-24 01:26:54.23	259.17	11.84	-39.4	-41.3	18.5	0.00e+00	0	38	0	0	49	4716
2026-01-24 01:26:54.94	259.09	11.79	-39.3	-41.3	18.5	0.00e+00	0	38	0	0	49	4707
2026-01-24 01:26:56.22	258.93	11.70	-39.4	-41.3	18.5	0.00e+00	0	38	0	0	49	4710
2026-01-24 01:26:56.96	258.83	11.65	-39.4	-41.3	18.4	0.00e+00	0	38	0	0	49	4731
2026-01-24 01:26:58.24	258.68	11.56	-39.4	-41.3	18.3	0.00e+00	0	38	0	0	49	4735
2026-01-24 01:26:58.96	258.59	11.51	-39.4	-41.3	18.3	0.00e+00	0	38	0	0	49	4746
2026-01-24 01:27:00.24	258.43	11.42	-39.3	-41.2	18.4	0.00e+00	0	38	0	0	49	4655
2026-01-24 01:27:00.97	258.34	11.37	-39.3	-41.1	18.4	0.00e+00	0	38	0	0	49	4633
2026-01-24 01:27:02.25	258.19	11.28	-39.2	-41.0	18.4	0.00e+00	0	38	0	0	49	4585
2026-01-24 01:27:02.96	258.10	11.23	-39.2	-41.0	18.5	0.00e+00	0	38	0	0	49	4576
2026-01-24 01:27:04.24	257.95	11.14	-39.1	-40.9	18.5	0.00e+00	0	38	0	0	49	4543
2026-01-24 01:27:04.96	257.86	11.09	-39.2	-41.0	18.5	0.00e+00	0	38	0	0	49	4586
2026-01-24 01:27:06.24	257.71	11.00	-39.2	-41.1	18.4	0.00e+00	0	38	0	0	49	4626
2026-01-24 01:27:06.97	257.62	10.95	-39.3	-41.2	18.4	0.00e+00	0	38	0	0	49	4672
2026-01-24 01:27:08.25	257.47	10.86	-39.4	-41.3	18.3	0.00e+00	0	38	0	0	49	4742
2026-01-24 01:27:08.96	257.39	10.81	-39.5	-41.4	18.2	0.00e+00	0	38	0	0	49	4793
2026-01-24 01:27:10.24	257.24	10.72	-39.6	-41.6	18.1	0.00e+00	0	38	0	0	49	4890
2026-01-24 01:27:10.97	257.15	10.67	-39.7	-41.7	18.0	0.00e+00	0	38	0	0	50	4678
2026-01-24 01:27:12.25	257.01	10.58	-39.9	-41.9	17.8	0.00e+00	0	38	0	0	50	4779
2026-01-24 01:27:12.96	256.92	10.53	-39.9	-41.9	17.8	0.00e+00	0	38	0	0	50	4803
2026-01-24 01:27:14.24	256.78	10.44	-40.0	-42.0	17.7	0.00e+00	0	38	0	0	50	4853
2026-01-24 01:27:14.95	256.70	10.39	-40.1	-42.1	17.6	0.00e+00	0	38	0	0	50	4887
2026-01-24 01:27:16.23	256.55	10.30	-40.1	-42.1	17.6	0.00e+00	0	38	0	0	50	4907
2026-01-24 01:27:16.94	256.47	10.25	-40.0	-42.1	17.6	0.00e+00	0	38	0	0	50	4872
2026-01-24 01:27:18.22	256.33	10.16	-39.8	-41.8	17.8	0.00e+00	0	38	0	0	50	4736
2026-01-24 01:27:18.94	256.25	10.11	-39.7	-41.6	18.0	0.00e+00	0	38	0	0	50	4638
2026-01-24 01:27:20.22	256.11	10.03	-39.6	-41.6	18.0	0.00e+00	0	38	0	0	50	4608
2026-01-24 01:27:20.93	256.03	9.98	-39.6	-41.6	18.0	0.00e+00	0	38	0	0	50	4615
2026-01-24 01:27:22.21	255.89	9.89	-39.7	-41.6	18.0	0.00e+00	0	38	0	0	50	4642
2026-01-24 01:27:22.92	255.81	9.84	-39.6	-41.5	18.1	0.00e+00	0	38	0	0	50	4562
2026-01-24 01:27:24.21	255.67	9.75	-39.4	-41.4	18.2	0.00e+00	0	38	0	0	50	4494
2026-01-24 01:27:24.92	255.59	9.70	-39.4	-41.3	18.3	0.00e+00	0	38	0	0	50	4445
2026-01-24 01:27:26.21	255.45	9.62	-39.4	-41.4	18.2	0.00e+00	0	38	0	0	50	4496
2026-01-24 01:27:26.92	255.37	9.57	-39.5	-41.4	18.2	0.00e+00	0	38	0	0	50	4543
2026-01-24 01:27:28.20	255.24	9.48	-39.7	-41.6	18.1	0.00e+00	0	38	0	0	50	4621
2026-01-24 01:27:28.93	255.16	9.43	-39.7	-41.7	18.0	0.00e+00	0	38	0	0	50	4664
2026-01-24 01:27:30.21	255.02	9.34	-39.8	-41.8	17.9	0.00e+00	0	38	0	0	50	4738
2026-01-24 01:27:30.92	254.95	9.30	-39.9	-41.9	17.7	0.00e+00	0	38	0	0	50	4812
2026-01-24 01:27:32.20	254.82	9.21	-40.1	-42.1	17.5	0.00e+00	0	38	0	0	50	4919
2026-01-24 01:27:32.93	254.74	9.16	-40.2	-42.3	17.4	0.00e+00	0	38	0	0	51	4706
2026-01-24 01:27:34.20	254.61	9.07	-40.3	-42.4	17.2	0.00e+00	0	38	0	0	51	4786
2026-01-24 01:27:34.98	254.53	9.02	-40.3	-42.4	17.2	0.00e+00	0	38	0	0	51	4793
2026-01-24 01:27:36.26	254.39	8.93	-48.0	-61.0	3.8	1.49e+00	0	38	104	0	66	17140
2026-01-24 01:27:37.04	254.31	8.88	-48.2	-61.2	3.8	1.49e+00	0	38	104	0	67	16567
2026-01-24 01:27:38.29	254.19	8.80	-48.3	-61.4	3.8	1.49e+00	0	38	104	0	67	17012
2026-01-24 01:27:39.20	254.09	8.74	-48.4	-61.5	3.8	1.49e+00	0	38	104	0	67	17088
2026-01-24 01:27:40.37	253.98	8.66	-48.5	-61.6	3.8	1.49e+00	0	38	104	0	67	17343
2026-01-24 01:27:41.25	253.89	8.60	-48.6	-61.6	3.8	1.49e+00	0	38	104	0	67	17351
2026-01-24 01:27:42.56	253.76	8.51	-48.7	-61.6	3.8	1.49e+00	0	38	104	0	67	17447
2026-01-24 01:27:43.27	253.69	8.46	-48.7	-61.7	3.8	1.49e+00	0	38	104	0	67	17489
2026-01-24 01:27:44.77	253.54	8.37	-48.8	-61.8	3.8	1.49e+00	0	38	104	0	68	16856
2026-01-24 01:27:45.48	253.47	8.32	-48.9	-61.9	3.8	1.49e+00	0	38	104	0	68	16911
2026-01-24 01:27:46.82	253.34	8.23	-48.9	-61.9	3.8	1.49e+00	0	38	104	0	68	16931
2026-01-24 01:27:47.53	253.27	8.18	-48.9	-61.9	3.8	1.49e+00	0	38	104	0	68	16919
2026-01-24 01:27:48.81	253.14	8.10	-48.7	-61.9	3.8	1.49e+00	0	38	104	0	68	16943
2026-01-24 01:27:49.52	253.07	8.05	-48.7	-61.9	3.8	1.49e+00	0	38	104	0	68	16934
2026-01-24 01:27:50.80	252.95	7.97	-48.6	-61.9	3.8	1.49e+00	0	38	104	0	68	16933
2026-01-24 01:27:51.50	252.88	7.92	-48.6	-61.9	3.8	1.49e+00	0	38	104	0	68	16977
2026-01-24 01:27:52.81	252.76	7.83	-48.8	-61.9	3.8	1.49e+00	0	38	104	0	68	16947
2026-01-24 01:27:53.52	252.69	7.79	-48.7	-61.9	3.8	1.49e+00	0	38	104	0	68	16928
2026-01-24 01:27:54.80	252.57	7.70	-48.7	-61.9	3.8	1.49e+00	0	38	104	0	68	16927
2026-01-24 01:27:55.51	252.50	7.66	-48.8	-61.8	3.8	1.49e+00	0	38	104	0	68	16841
2026-01-24 01:27:56.79	252.38	7.57	-48.7	-61.8	3.8	1.49e+00	0	38	104	0	68	16834
2026-01-24 01:27:57.49	252.32	7.53	-48.6	-61.8	3.8	1.49e+00	0	38	104	0	68	16735
2026-01-24 01:27:58.79	252.20	7.44	-48.6	-61.8	3.8	1.49e+00	0	38	104	0	68	16697
2026-01-24 01:27:59.50	252.13	7.40	-48.6	-61.7	3.8	1.49e+00	0	38	104	0	68	16621
2026-01-24 01:28:00.77	252.02	7.31	-48.6	-61.7	3.8	1.49e+00	0	38	104	0	68	16646
2026-01-24 01:28:01.48	251.95	7.27	-48.6	-61.7	3.8	1.49e+00	0	38	104	0	68	16670
2026-01-24 01:28:02.76	251.83	7.18	-48.6	-61.7	3.8	1.49e+00	0	38	104	0	68	16652
2026-01-24 01:28:03.47	251.77	7.14	-48.6	-61.7	3.8	1.49e+00	0	38	104	0	68	16642
2026-01-24 01:28:04.75	251.65	7.05	-48.6	-61.7	3.8	1.49e+00	0	38	104	0	68	16607
2026-01-24 01:28:05.46	251.59	7.01	-48.6	-61.7	3.8	1.49e+00	0	38	104	0	68	16585
2026-01-24 01:28:06.73	251.48	6.93	-48.6	-61.7	3.8	1.49e+00	0	38	104	0	68	16634
2026-01-24 01:28:07.44	251.41	6.88	-48.6	-61.8	3.8	1.49e+00	0	38	104	0	68	16696
2026-01-24 01:28:08.72	251.30	6.80	-48.6	-61.7	3.8	1.49e+00	0	38	104	0	68	16612
2026-01-24 01:28:09.43	251.24	6.75	-48.6	-61.7	3.8	1.49e+00	0	38	104	0	68	16662
2026-01-24 01:28:10.71	251.13	6.67	-48.6	-61.7	3.8	1.49e+00	0	38	104	0	68	16631
2026-01-24 01:28:11.42	251.06	6.63	-48.6	-61.7	3.8	1.49e+00	0	38	104	0	68	16613
2026-01-24 01:28:12.69	250.95	6.54	-48.6	-61.7	3.8	1.49e+00	0	38	104	0	68	16687
2026-01-24 01:28:13.42	250.89	6.50	-48.6	-61.7	3.8	1.49e+00	0	38	104	0	68	16643
2026-01-24 01:28:14.70	250.78	6.42	-48.6	-61.7	3.8	1.49e+00	0	38	104	0	68	16649
2026-01-24 01:28:15.41	250.72	6.37	-48.6	-61.7	3.8	1.49e+00	0	38	104	0	68	16593
2026-01-24 01:28:16.68	250.61	6.29	-48.6	-61.7	3.8	1.49e+00	0	38	104	0	68	16584
2026-01-24 01:28:17.39	250.55	6.25	-48.6	-61.7	3.8	1.49e+00	0	38	104	0	68	16619
2026-01-24 01:28:18.67	250.44	6.16	-48.6	-61.7	3.8	1.49e+00	0	38	104	0	68	16615
2026-01-24 01:28:19.38	250.38	6.12	-48.6	-61.7	3.8	1.49e+00	0	38	104	0	68	16621
2026-01-24 01:28:20.66	250.27	6.04	-48.6	-61.7	3.8	1.49e+00	0	38	104	0	68	16608
2026-01-24 01:28:21.37	250.21	5.99	-48.6	-61.7	3.8	1.49e+00	0	38	104	0	68	16565
2026-01-24 01:28:22.65	250.11	5.91	-48.6	-61.7	3.8	1.49e+00	0	38	104	0	68	16620
2026-01-24 01:28:23.35	250.05	5.87	-48.6	-61.7	3.8	1.49e+00	0	38	104	0	68	16613
2026-01-24 01:28:24.63	249.94	5.79	-48.6	-61.7	3.8	1.49e+00	0	38	104	0	68	16626
2026-01-24 01:28:25.35	249.88	5.74	-48.6	-61.7	3.8	1.49e+00	0	38	104	0	68	16587
2026-01-24 01:28:26.63	249.78	5.66	-48.6	-61.7	3.8	1.49e+00	0	38	104	0	68	16593
2026-01-24 01:28:27.34	249.72	5.62	-48.6	-61.7	3.8	1.49e+00	0	38	104	0	68	16538
2026-01-24 01:28:28.62	249.62	5.54	-48.6	-61.7	3.8	1.49e+00	0	38	104	0	68	16575
2026-01-24 01:28:29.33	249.56	5.49	-48.6	-61.7	3.8	1.49e+00	0	38	104	0	68	16628
2026-01-24 01:28:30.61	249.46	5.42	-48.6	-61.7	3.8	1.49e+00	0	38	104	0	68	16605
2026-01-24 01:28:31.32	249.40	5.37	-48.6	-61.7	3.8	1.49e+00	0	38	104	0	68	16528
2026-01-24 01:28:32.60	249.30	5.29	-48.6	-61.7	3.8	1.49e+00	0	38	104	0	68	16576
2026-01-24 01:28:33.30	249.24	5.25	-48.6	-61.7	3.8	1.49e+00	0	38	104	0	68	16626
2026-01-24 01:28:34.58	249.14	5.17	-48.6	-61.7	3.8	1.49e+00	0	38	104	0	68	16575
2026-01-24 01:28:35.29	249.09	5.13	-48.6	-61.7	3.8	1.49e+00	0	38	104	0	68	16607
2026-01-24 01:28:36.57	248.99	5.05	-48.6	-61.7	3.8	1.49e+00	0	38	104	0	68	16559
2026-01-24 01:28:37.29	248.93	5.00	-48.6	-61.7	3.8	1.49e+00	0	38	104	0	68	16584

#Closed at: 2026-01-24 01:28:38
#Recorded file [0 MB]: D:/Data/31040_260124_041733.dat