passes_logs/2026/01/24/T1/T1__20260124_165600_FENGYUN_3G_rec.log

#Pass ID: 20260124_165600_FENGYUN 3G
#Satellite: FENGYUN 3G
#Configuration: FENGYUN 3G
#almurnet v.1.7.20251203
#Start time: 2026-01-24 16:56:00

#Version: 2.0.20230620
#Station: T1
#Location: 37.570604 lon 55.790049 lat
#TLE: 1 56232U 23055A   26024.24521059  .00049620  00000+0  74824-3 0  9993
#TLE: 2 56232  49.9947   8.2107 0004117  75.2128 284.9296 15.54221826157636

#Time	Az	El	Level	Level2	SNR	BER	BlckErr	Temp	State	Recorded	gain1	gain2
2026-01-24 16:56:00.66	191.83	5.09	-48.4	-67.5	3.8	8.47e-01	0	38	0	0	68	32465
2026-01-24 16:56:01.64	191.66	5.15	-44.3	-67.0	3.8	8.37e-01	0	38	104	0	60	48216
2026-01-24 16:56:02.64	191.48	5.20	-44.2	-66.9	3.8	8.47e-01	0	38	104	0	60	48078
2026-01-24 16:56:03.63	191.31	5.26	-44.2	-66.9	3.8	8.46e-01	0	38	104	0	60	48126
2026-01-24 16:56:04.63	191.14	5.32	-44.1	-67.0	3.8	8.46e-01	0	38	104	0	60	48214
2026-01-24 16:56:05.62	190.96	5.37	-44.1	-66.9	3.8	8.47e-01	0	38	104	0	60	48105
2026-01-24 16:56:06.61	190.79	5.42	-44.2	-66.9	3.8	8.45e-01	0	38	104	0	60	48074
2026-01-24 16:56:07.61	190.61	5.48	-44.2	-66.9	3.8	8.45e-01	0	38	104	0	60	48023
2026-01-24 16:56:08.60	190.43	5.54	-44.2	-66.9	3.8	8.47e-01	0	38	104	0	60	47942
2026-01-24 16:56:09.59	190.25	5.59	-44.1	-66.9	3.8	8.47e-01	0	38	104	0	60	48013
2026-01-24 16:56:10.58	190.07	5.65	-44.2	-66.9	3.8	8.47e-01	0	38	104	0	60	48023
2026-01-24 16:56:11.58	189.89	5.70	-44.2	-66.9	3.8	8.48e-01	0	38	104	0	60	48086
2026-01-24 16:56:12.57	189.71	5.76	-44.2	-66.9	3.8	8.48e-01	0	39	104	0	60	47866
2026-01-24 16:56:13.56	189.53	5.81	-44.1	-66.9	3.8	8.48e-01	0	39	104	0	60	47833
2026-01-24 16:56:14.56	189.34	5.87	-44.2	-66.9	3.8	8.46e-01	0	38	104	0	60	47747
2026-01-24 16:56:15.55	189.16	5.92	-44.1	-66.8	3.8	8.46e-01	0	39	104	0	60	47560
2026-01-24 16:56:16.54	188.97	5.98	-44.2	-66.9	3.8	8.46e-01	0	39	104	0	60	47608
2026-01-24 16:56:17.54	188.79	6.03	-44.1	-66.8	3.8	8.48e-01	0	39	104	0	60	47408
2026-01-24 16:56:18.53	188.60	6.08	-44.1	-66.9	3.8	8.47e-01	0	39	104	0	60	47670
2026-01-24 16:56:19.52	188.41	6.14	-44.2	-66.9	3.8	8.47e-01	0	39	104	0	60	47802
2026-01-24 16:56:20.52	188.22	6.19	-44.1	-66.9	3.8	8.47e-01	0	39	104	0	60	47841
2026-01-24 16:56:21.51	188.03	6.25	-44.0	-66.8	3.8	8.47e-01	0	39	104	0	60	47507
2026-01-24 16:56:22.50	187.84	6.30	-44.0	-66.8	3.8	8.46e-01	0	39	104	0	60	47297
2026-01-24 16:56:23.50	187.65	6.36	-44.1	-66.7	3.8	8.46e-01	0	39	104	0	60	46789
2026-01-24 16:56:24.49	187.45	6.41	-44.1	-66.7	3.8	8.48e-01	0	39	104	0	60	46626
2026-01-24 16:56:25.48	187.26	6.47	-44.0	-66.6	3.8	8.46e-01	0	39	104	0	60	46370
2026-01-24 16:56:26.48	187.06	6.52	-44.0	-66.7	3.8	8.46e-01	0	39	104	0	60	46588
2026-01-24 16:56:27.47	186.87	6.58	-44.3	-66.8	3.8	8.48e-01	0	39	104	0	59	50081
2026-01-24 16:56:28.46	186.67	6.63	-44.4	-66.9	3.8	8.46e-01	0	39	104	0	59	50427
2026-01-24 16:56:29.46	186.47	6.68	-44.4	-66.9	3.8	8.46e-01	0	39	104	0	59	50632
2026-01-24 16:56:30.45	186.27	6.74	-44.4	-66.9	3.8	8.47e-01	0	39	104	0	59	50978
2026-01-24 16:56:31.44	186.07	6.79	-44.4	-67.0	3.8	8.47e-01	0	39	104	0	59	51219
2026-01-24 16:56:32.44	185.87	6.85	-44.4	-67.0	3.8	8.47e-01	0	39	104	0	59	51435
2026-01-24 16:56:33.43	185.67	6.90	-44.4	-67.0	3.8	8.47e-01	0	39	104	0	59	51431
2026-01-24 16:56:34.42	185.46	6.95	-44.4	-67.0	3.8	8.47e-01	0	39	104	0	59	51496
2026-01-24 16:56:35.42	185.26	7.01	-44.4	-67.0	3.8	8.47e-01	0	39	104	0	59	51367
2026-01-24 16:56:36.41	185.05	7.06	-44.4	-67.0	3.8	8.47e-01	0	39	104	0	59	51133
2026-01-24 16:56:37.40	184.84	7.12	-44.4	-66.9	3.8	8.48e-01	0	39	104	0	59	50678
2026-01-24 16:56:38.40	184.63	7.17	-44.4	-66.8	3.8	8.48e-01	0	39	104	0	59	50138
2026-01-24 16:56:39.39	184.43	7.22	-44.4	-66.7	3.8	8.47e-01	0	39	104	0	59	49416
2026-01-24 16:56:40.38	184.22	7.28	-44.4	-66.7	3.8	8.46e-01	0	39	104	0	59	49580
2026-01-24 16:56:41.38	184.00	7.33	-44.3	-66.7	3.8	8.46e-01	0	39	104	0	59	49574
2026-01-24 16:56:42.37	183.79	7.38	-44.4	-66.7	3.8	8.46e-01	0	39	104	0	59	49589
2026-01-24 16:56:43.36	183.58	7.44	-44.4	-66.8	3.8	8.46e-01	0	39	104	0	59	50066
2026-01-24 16:56:44.36	183.36	7.49	-44.4	-66.8	3.8	8.46e-01	0	39	104	0	59	50258
2026-01-24 16:56:45.35	183.15	7.54	-44.4	-66.9	3.8	8.46e-01	0	39	104	0	59	50910
2026-01-24 16:56:46.34	182.93	7.59	-44.4	-67.0	3.8	8.46e-01	0	39	104	0	59	51195
2026-01-24 16:56:47.34	182.71	7.65	-44.4	-67.0	3.8	8.47e-01	0	40	104	0	59	51250
2026-01-24 16:56:48.33	182.49	7.70	-44.4	-67.0	3.8	8.47e-01	0	39	104	0	59	51064
2026-01-24 16:56:49.32	182.28	7.75	-44.4	-67.0	3.8	8.47e-01	0	39	104	0	59	51351
2026-01-24 16:56:50.32	182.05	7.80	-44.3	-67.0	3.8	8.46e-01	0	40	104	0	59	51385
2026-01-24 16:56:51.31	181.83	7.85	-44.3	-66.8	3.8	8.46e-01	0	40	104	0	59	50407
2026-01-24 16:56:52.30	181.61	7.91	-44.3	-66.6	3.8	8.47e-01	0	40	104	0	59	48717
2026-01-24 16:56:53.30	181.38	7.96	-44.3	-66.4	3.8	8.47e-01	0	40	104	0	59	47812
2026-01-24 16:56:54.29	181.16	8.01	-44.3	-66.5	3.8	8.47e-01	0	39	104	0	59	48237
2026-01-24 16:56:55.28	180.93	8.06	-44.3	-66.8	3.8	8.46e-01	0	40	104	0	59	49842
2026-01-24 16:56:56.28	180.70	8.11	-44.3	-67.0	3.8	8.48e-01	0	40	104	0	59	51284
2026-01-24 16:56:57.27	180.48	8.16	-44.3	-66.9	3.8	8.48e-01	0	40	104	0	59	50785
2026-01-24 16:56:58.26	180.25	8.21	-44.3	-66.4	3.8	8.46e-01	0	40	104	0	59	47912
2026-01-24 16:56:59.25	180.02	8.26	-44.3	-65.8	3.8	8.46e-01	0	40	104	0	59	44761
2026-01-24 16:57:00.25	179.78	8.31	-44.3	-65.4	3.8	8.46e-01	0	40	104	0	59	42426
2026-01-24 16:57:01.24	179.55	8.36	-44.3	-65.3	3.8	8.46e-01	0	40	104	0	59	42337
2026-01-24 16:57:02.24	179.31	8.41	-44.4	-65.9	3.8	8.47e-01	0	40	104	0	59	45258
2026-01-24 16:57:03.23	179.08	8.46	-44.3	-66.7	3.8	8.46e-01	0	40	104	0	59	49291
2026-01-24 16:57:04.22	178.84	8.51	-44.3	-66.2	3.8	8.46e-01	0	40	104	0	59	46751
2026-01-24 16:57:05.22	178.60	8.56	-44.4	-64.0	3.9	8.47e-01	0	40	104	0	59	36406
2026-01-24 16:57:06.21	178.37	8.61	-44.2	-62.2	4.6	8.36e-01	0	40	0	0	59	29625
2026-01-24 16:57:07.20	178.13	8.66	-44.3	-61.9	4.8	8.36e-01	0	40	0	0	59	28671
2026-01-24 16:57:08.19	177.89	8.71	-44.3	-63.9	4.1	8.03e-01	0	40	0	0	59	35719
2026-01-24 16:57:09.19	177.64	8.76	-44.4	-66.6	3.8	8.42e-01	0	40	104	0	59	48772
2026-01-24 16:57:10.18	177.40	8.81	-44.4	-65.2	3.9	8.42e-01	0	40	104	0	59	41520
2026-01-24 16:57:11.17	177.16	8.85	-44.3	-62.2	4.6	8.46e-01	0	40	0	0	59	29525
2026-01-24 16:57:12.17	176.91	8.90	-44.3	-61.5	5.0	8.05e-01	0	40	0	0	59	27235
2026-01-24 16:57:13.16	176.66	8.95	-44.3	-62.5	4.5	8.05e-01	0	40	0	0	59	30629
2026-01-24 16:57:14.15	176.42	9.00	-44.3	-62.4	4.5	7.99e-01	0	40	0	0	59	30199
2026-01-24 16:57:15.15	176.17	9.04	-44.3	-60.5	5.4	8.07e-01	0	40	0	0	59	24274
2026-01-24 16:57:16.14	175.92	9.09	-44.1	-57.2	8.7	8.07e-01	0	40	0	0	59	16603
2026-01-24 16:57:17.14	175.67	9.14	-44.0	-62.3	4.7	2.47e-01	0	40	0	0	59	29932
2026-01-24 16:57:18.13	175.42	9.18	-44.0	-58.7	7.0	6.40e-01	0	40	0	0	59	19810
2026-01-24 16:57:19.12	175.16	9.23	-43.0	-49.3	17.1	6.40e-01	0	40	0	0	57	7458
2026-01-24 16:57:20.12	174.91	9.28	-44.5	-64.7	3.8	6.45e-02	0	40	104	0	59	39211
2026-01-24 16:57:21.12	174.65	9.32	-42.9	-49.1	16.9	6.30e-01	0	40	0	0	57	7322
2026-01-24 16:57:22.11	174.40	9.37	-42.6	-48.0	17.9	6.30e-01	0	40	0	0	56	6832
2026-01-24 16:57:23.11	174.14	9.41	-41.9	-46.1	19.8	5.70e-06	0	40	0	0	55	5848
2026-01-24 16:57:24.10	173.88	9.46	-41.7	-45.8	19.7	0.00e+00	0	40	0	0	55	5628
2026-01-24 16:57:25.10	173.62	9.50	-40.9	-44.3	21.3	0.00e+00	0	40	0	0	53	5285
2026-01-24 16:57:26.10	173.36	9.54	-40.3	-43.3	22.3	0.00e+00	0	40	0	0	52	5039
2026-01-24 16:57:27.09	173.09	9.59	-40.0	-42.9	22.9	0.00e+00	0	40	0	0	51	5042
2026-01-24 16:57:28.08	172.83	9.63	-39.9	-42.8	23.0	0.00e+00	0	40	0	0	51	4988
2026-01-24 16:57:29.08	172.57	9.67	-39.7	-42.5	23.2	0.00e+00	0	40	0	0	51	4854
2026-01-24 16:57:30.07	172.30	9.72	-39.5	-42.3	23.5	0.00e+00	0	40	0	0	51	4737
2026-01-24 16:57:31.07	172.04	9.76	-39.3	-42.1	23.7	0.00e+00	0	40	0	0	50	4886
2026-01-24 16:57:32.06	171.77	9.80	-39.2	-42.0	23.8	0.00e+00	0	40	0	0	50	4830
2026-01-24 16:57:33.06	171.50	9.84	-39.0	-41.8	24.0	0.00e+00	0	40	0	0	50	4715
2026-01-24 16:57:34.05	171.23	9.88	-39.0	-41.7	24.1	0.00e+00	0	40	0	0	49	4959
2026-01-24 16:57:35.05	170.96	9.92	-39.1	-41.9	23.8	0.00e+00	0	40	0	0	49	5081
2026-01-24 16:57:36.04	170.69	9.97	-39.0	-41.8	24.0	0.00e+00	0	40	0	0	49	5006
2026-01-24 16:57:37.03	170.42	10.01	-39.0	-41.8	24.0	0.00e+00	0	40	0	0	49	5026
2026-01-24 16:57:38.03	170.14	10.04	-38.8	-41.5	24.2	0.00e+00	0	40	0	0	49	4851
2026-01-24 16:57:39.02	169.87	10.08	-38.7	-41.4	24.3	0.00e+00	0	40	0	0	49	4781
2026-01-24 16:57:40.02	169.59	10.12	-38.8	-41.5	24.3	0.00e+00	0	40	0	0	49	4830
2026-01-24 16:57:41.01	169.32	10.16	-38.7	-41.4	24.4	0.00e+00	0	40	0	0	49	4774
2026-01-24 16:57:42.01	169.04	10.20	-38.6	-41.2	24.5	0.00e+00	0	40	0	0	49	4687
2026-01-24 16:57:43.00	168.76	10.24	-38.7	-41.4	24.4	0.00e+00	0	40	0	0	49	4777
2026-01-24 16:57:44.00	168.48	10.27	-38.9	-41.6	24.2	0.00e+00	0	40	0	0	49	4888
2026-01-24 16:57:44.99	168.21	10.31	-39.1	-41.8	16.8	0.00e+00	0	40	0	0	49	4987
2026-01-24 16:57:45.99	167.92	10.35	-39.0	-41.6	24.2	0.00e+00	0	40	0	0	49	4873
2026-01-24 16:57:46.98	167.64	10.38	-39.0	-41.6	24.2	0.00e+00	0	40	0	0	49	4871
2026-01-24 16:57:47.98	167.36	10.42	-39.1	-41.6	24.2	0.00e+00	0	40	0	0	49	4894
2026-01-24 16:57:48.97	167.07	10.45	-39.4	-41.8	24.0	0.00e+00	0	40	0	0	49	5041
2026-01-24 16:57:49.96	166.79	10.49	-39.7	-42.2	23.5	0.00e+00	0	40	0	0	50	4958
2026-01-24 16:57:50.96	166.50	10.52	-39.7	-42.2	23.6	0.00e+00	0	40	0	0	50	4965
2026-01-24 16:57:51.95	166.22	10.56	-39.9	-42.4	23.5	0.00e+00	0	40	0	0	50	5049
2026-01-24 16:57:52.95	165.93	10.59	-39.9	-42.4	23.5	0.00e+00	0	40	0	0	50	5058
2026-01-24 16:57:53.94	165.64	10.62	-40.0	-42.4	23.4	0.00e+00	0	40	0	0	51	4794
2026-01-24 16:57:54.94	165.35	10.66	-40.1	-42.5	23.4	3.29e-03	0	40	0	0	51	4840
2026-01-24 16:57:55.93	165.06	10.69	-40.0	-42.4	23.4	0.00e+00	0	41	0	0	51	4813
2026-01-24 16:57:56.93	164.77	10.72	-40.0	-42.5	23.4	0.00e+00	0	40	0	0	51	4830
2026-01-24 16:57:57.93	164.48	10.75	-39.9	-42.3	23.5	3.93e-03	0	40	0	0	51	4756
2026-01-24 16:57:58.92	164.19	10.78	-40.0	-42.4	23.5	0.00e+00	0	40	0	0	51	4802
2026-01-24 16:57:59.91	163.90	10.81	-39.9	-42.3	23.6	0.00e+00	0	40	0	0	51	4742
2026-01-24 16:58:00.91	163.60	10.84	-40.0	-42.4	23.4	0.00e+00	0	40	0	0	51	4812
2026-01-24 16:58:01.90	163.31	10.87	-39.9	-42.3	23.6	0.00e+00	0	40	0	0	51	4727
2026-01-24 16:58:02.90	163.01	10.90	-40.0	-42.4	23.4	0.00e+00	0	40	0	0	51	4784
2026-01-24 16:58:03.89	162.72	10.92	-39.9	-42.3	23.5	0.00e+00	0	40	0	0	51	4748
2026-01-24 16:58:04.89	162.42	10.95	-39.8	-42.2	23.6	0.00e+00	0	40	0	0	51	4657
2026-01-24 16:58:05.88	162.12	10.98	-39.8	-42.1	23.5	0.00e+00	0	40	0	0	51	4640
2026-01-24 16:58:06.88	161.82	11.00	-39.7	-42.0	23.8	0.00e+00	0	40	0	0	51	4571
2026-01-24 16:58:07.87	161.52	11.03	-39.5	-41.8	24.0	0.00e+00	0	40	0	0	51	4479
2026-01-24 16:58:08.86	161.22	11.05	-39.4	-41.7	24.1	0.00e+00	0	40	0	0	50	4676
2026-01-24 16:58:09.86	160.92	11.08	-39.5	-41.8	24.0	0.00e+00	0	40	0	0	50	4723
2026-01-24 16:58:10.85	160.62	11.10	-39.4	-41.7	24.0	0.00e+00	0	40	0	0	50	4662
2026-01-24 16:58:11.85	160.32	11.12	-39.4	-41.6	24.2	0.00e+00	0	40	0	0	50	4647
2026-01-24 16:58:12.84	160.02	11.15	-39.4	-41.7	24.1	0.00e+00	0	40	0	0	50	4690
2026-01-24 16:58:13.84	159.71	11.17	-39.4	-41.7	24.1	0.00e+00	0	40	0	0	50	4674
2026-01-24 16:58:14.84	159.41	11.19	-39.5	-41.8	24.0	2.37e-03	0	40	0	0	50	4759
2026-01-24 16:58:15.83	159.11	11.21	-39.6	-41.9	23.9	2.37e-03	0	40	0	0	50	4782
2026-01-24 16:58:16.82	158.80	11.23	-39.5	-41.8	24.0	0.00e+00	0	40	0	0	50	4739
2026-01-24 16:58:17.82	158.50	11.25	-39.4	-41.7	24.1	5.38e-03	0	40	0	0	50	4681
2026-01-24 16:58:18.81	158.19	11.27	-39.7	-42.0	23.9	5.38e-03	0	40	0	0	50	4848
2026-01-24 16:58:19.81	157.88	11.29	-39.6	-41.9	23.9	0.00e+00	0	40	0	0	50	4783
2026-01-24 16:58:20.80	157.58	11.31	-39.5	-41.8	24.0	6.19e-03	0	40	0	0	50	4756
2026-01-24 16:58:21.80	157.27	11.33	-39.5	-41.8	24.0	6.19e-03	0	40	0	0	50	4714
2026-01-24 16:58:22.79	156.96	11.34	-39.4	-41.7	24.0	0.00e+00	0	40	0	0	50	4705
2026-01-24 16:58:23.78	156.66	11.36	-39.5	-41.8	24.0	3.83e-03	0	40	0	0	50	4711
2026-01-24 16:58:24.78	156.34	11.37	-39.5	-41.8	24.0	3.83e-03	0	40	0	0	50	4747
2026-01-24 16:58:25.78	156.03	11.39	-39.2	-41.5	24.3	0.00e+00	0	40	0	0	50	4569
2026-01-24 16:58:26.77	155.73	11.40	-39.0	-41.3	24.5	3.05e-03	0	40	0	0	50	4466
2026-01-24 16:58:27.77	155.41	11.42	-38.9	-41.2	24.6	0.00e+00	0	40	0	0	49	4663
2026-01-24 16:58:28.76	155.11	11.43	-38.6	-40.8	24.9	0.00e+00	0	40	0	0	49	4445
2026-01-24 16:58:29.76	154.79	11.44	-38.3	-40.4	25.3	6.40e-05	0	41	0	0	48	4533
2026-01-24 16:58:30.75	154.48	11.45	-38.4	-40.6	25.1	0.00e+00	0	41	0	0	48	4625
2026-01-24 16:58:31.74	154.17	11.47	-38.5	-40.7	25.0	0.00e+00	0	41	0	0	48	4703
2026-01-24 16:58:32.74	153.86	11.48	-38.5	-40.7	25.0	0.00e+00	0	40	0	0	48	4682
2026-01-24 16:58:33.73	153.55	11.49	-38.4	-40.6	25.1	0.00e+00	0	40	0	0	48	4621
2026-01-24 16:58:34.73	153.24	11.50	-38.5	-40.6	25.1	0.00e+00	0	40	0	0	48	4637
2026-01-24 16:58:35.72	152.93	11.50	-38.5	-40.7	25.1	0.00e+00	0	40	0	0	48	4673
2026-01-24 16:58:36.71	152.61	11.51	-38.5	-40.7	18.3	0.00e+00	0	40	0	0	48	4678
2026-01-24 16:58:37.71	152.30	11.52	-38.7	-41.0	24.8	0.00e+00	0	40	0	0	48	4818
2026-01-24 16:58:38.70	151.99	11.53	-39.0	-41.3	24.5	0.00e+00	0	40	0	0	48	4989
2026-01-24 16:58:39.70	151.67	11.53	-39.0	-41.2	24.4	0.00e+00	0	40	0	0	48	4972
2026-01-24 16:58:40.69	151.36	11.54	-39.0	-41.2	24.6	0.00e+00	0	40	0	0	48	4954
2026-01-24 16:58:41.69	151.05	11.54	-39.0	-41.2	24.6	0.00e+00	0	40	0	0	48	4958
2026-01-24 16:58:42.68	150.73	11.55	-39.0	-41.2	24.5	0.00e+00	0	40	0	0	48	4964
2026-01-24 16:58:43.68	150.42	11.55	-39.0	-41.2	24.3	0.00e+00	0	40	0	0	48	4983
2026-01-24 16:58:44.67	150.11	11.55	-39.0	-41.2	24.6	0.00e+00	0	40	0	0	48	4957
2026-01-24 16:58:45.67	149.79	11.55	-39.1	-41.3	24.4	0.00e+00	0	41	0	0	48	5039
2026-01-24 16:58:46.66	149.48	11.56	-38.8	-41.0	24.8	0.00e+00	0	40	0	0	48	4842
2026-01-24 16:58:47.66	149.16	11.56	-38.8	-41.0	24.7	0.00e+00	0	40	0	0	48	4854
2026-01-24 16:58:48.65	148.85	11.56	-38.5	-40.7	25.0	0.00e+00	0	40	0	0	48	4668
2026-01-24 16:58:49.65	148.54	11.56	-38.5	-40.6	25.1	0.00e+00	0	40	0	0	48	4628
2026-01-24 16:58:50.64	148.22	11.55	-38.4	-40.5	25.1	0.00e+00	0	40	0	0	48	4594
2026-01-24 16:58:51.63	147.91	11.55	-38.5	-40.6	25.1	0.00e+00	0	40	0	0	48	4637
2026-01-24 16:58:52.63	147.60	11.55	-38.3	-40.5	25.2	0.00e+00	0	41	0	0	48	4555
2026-01-24 16:58:53.62	147.28	11.55	-38.5	-40.7	25.0	0.00e+00	0	41	0	0	48	4669
2026-01-24 16:58:54.62	146.97	11.54	-38.9	-41.1	24.6	0.00e+00	0	40	0	0	48	4904
2026-01-24 16:58:55.61	146.66	11.54	-38.9	-41.1	24.6	0.00e+00	0	40	0	0	48	4916
2026-01-24 16:58:56.61	146.34	11.53	-38.8	-41.1	24.7	0.00e+00	0	40	0	0	48	4886
2026-01-24 16:58:57.60	146.03	11.53	-38.6	-40.8	24.8	0.00e+00	0	40	0	0	48	4741
2026-01-24 16:58:58.60	145.71	11.52	-38.4	-40.6	25.1	0.00e+00	0	40	0	0	48	4624
2026-01-24 16:58:59.59	145.40	11.51	-38.3	-40.5	25.1	0.00e+00	0	41	0	0	48	4578
2026-01-24 16:59:00.59	145.09	11.51	-38.3	-40.4	25.2	0.00e+00	0	41	0	0	48	4530
2026-01-24 16:59:01.58	144.78	11.50	-38.4	-40.5	25.1	0.00e+00	0	40	0	0	48	4581
2026-01-24 16:59:02.58	144.47	11.49	-38.5	-40.7	25.0	0.00e+00	0	41	0	0	48	4664
2026-01-24 16:59:03.57	144.15	11.48	-38.4	-40.6	25.1	0.00e+00	0	41	0	0	48	4624
2026-01-24 16:59:04.57	143.84	11.47	-38.5	-40.7	25.0	0.00e+00	0	40	0	0	48	4661
2026-01-24 16:59:05.56	143.53	11.46	-38.8	-40.9	24.8	0.00e+00	0	41	0	0	48	4807
2026-01-24 16:59:06.56	143.22	11.45	-39.0	-41.3	24.4	0.00e+00	0	40	0	0	48	5001
2026-01-24 16:59:07.56	142.91	11.44	-39.1	-41.3	24.5	0.00e+00	0	40	0	0	48	4999
2026-01-24 16:59:08.55	142.60	11.42	-39.1	-41.3	24.4	0.00e+00	0	40	0	0	48	5040
2026-01-24 16:59:09.54	142.29	11.41	-39.2	-41.4	24.3	0.00e+00	0	40	0	0	49	4812
2026-01-24 16:59:10.54	141.98	11.39	-38.9	-41.1	24.6	0.00e+00	0	40	0	0	49	4634
2026-01-24 16:59:11.53	141.67	11.38	-38.8	-41.1	24.7	0.00e+00	0	40	0	0	49	4601
2026-01-24 16:59:12.53	141.36	11.36	-38.8	-41.0	24.7	0.00e+00	0	41	0	0	49	4580
2026-01-24 16:59:13.52	141.06	11.35	-38.9	-41.1	24.7	0.00e+00	0	41	0	0	49	4622
2026-01-24 16:59:14.52	140.75	11.33	-39.0	-41.2	24.6	0.00e+00	0	40	0	0	49	4685
2026-01-24 16:59:15.51	140.44	11.32	-39.3	-41.6	24.1	0.00e+00	0	41	0	0	49	4910
2026-01-24 16:59:16.51	140.13	11.30	-39.4	-41.6	24.1	0.00e+00	0	40	0	0	49	4917
2026-01-24 16:59:17.50	139.83	11.28	-39.3	-41.5	24.2	0.00e+00	0	41	0	0	49	4857
2026-01-24 16:59:18.50	139.52	11.26	-39.8	-42.1	23.7	0.00e+00	0	40	0	0	50	4889
2026-01-24 16:59:19.49	139.22	11.24	-39.8	-42.2	23.6	0.00e+00	0	41	0	0	50	4938
2026-01-24 16:59:20.48	138.91	11.22	-39.8	-42.2	23.7	0.00e+00	0	41	0	0	50	4956
2026-01-24 16:59:21.48	138.61	11.20	-40.1	-42.5	23.3	0.00e+00	0	41	0	0	50	5151
2026-01-24 16:59:22.48	138.30	11.18	-40.0	-42.3	23.5	0.00e+00	0	40	0	0	50	5029
2026-01-24 16:59:23.47	138.00	11.16	-39.8	-42.2	23.7	0.00e+00	0	41	0	0	50	4937
2026-01-24 16:59:24.47	137.70	11.13	-39.8	-42.2	23.7	0.00e+00	0	40	0	0	50	4933
2026-01-24 16:59:25.46	137.40	11.11	-39.6	-41.9	23.9	0.00e+00	0	41	0	0	50	4768
2026-01-24 16:59:26.46	137.10	11.09	-39.6	-42.0	23.8	0.00e+00	0	41	0	0	50	4831
2026-01-24 16:59:27.45	136.80	11.06	-39.6	-41.9	23.8	0.00e+00	0	40	0	0	50	4801
2026-01-24 16:59:28.45	136.50	11.04	-39.9	-42.3	23.5	0.00e+00	0	41	0	0	50	4998
2026-01-24 16:59:29.44	136.20	11.01	-40.2	-42.6	23.2	0.00e+00	0	41	0	0	51	4925
2026-01-24 16:59:30.44	135.90	10.99	-40.4	-42.9	23.0	0.00e+00	0	41	0	0	51	5075
2026-01-24 16:59:31.43	135.60	10.96	-40.3	-42.8	23.0	0.00e+00	0	41	0	0	51	5035
2026-01-24 16:59:32.43	135.30	10.93	-40.4	-42.9	22.9	0.00e+00	0	41	0	0	51	5092
2026-01-24 16:59:33.42	135.01	10.91	-40.3	-42.7	23.0	0.00e+00	0	41	0	0	51	4979
2026-01-24 16:59:34.42	134.71	10.88	-40.0	-42.4	23.4	0.00e+00	0	41	0	0	51	4777
2026-01-24 16:59:35.41	134.42	10.85	-39.9	-42.3	23.5	0.00e+00	0	41	0	0	51	4721
2026-01-24 16:59:36.41	134.12	10.82	-39.9	-42.2	23.5	0.00e+00	0	41	0	0	51	4699
2026-01-24 16:59:37.40	133.83	10.79	-39.8	-42.2	23.6	0.00e+00	0	41	0	0	51	4694
2026-01-24 16:59:38.40	133.54	10.76	-40.1	-42.5	23.3	0.00e+00	0	41	0	0	51	4851
2026-01-24 16:59:39.40	133.25	10.73	-40.2	-42.7	23.1	0.00e+00	0	41	0	0	51	4941
2026-01-24 16:59:40.39	132.96	10.70	-40.2	-42.6	23.2	0.00e+00	0	41	0	0	51	4899
2026-01-24 16:59:41.38	132.67	10.67	-40.2	-42.7	23.1	0.00e+00	0	41	0	0	51	4932
2026-01-24 16:59:42.38	132.38	10.64	-39.9	-42.3	23.4	0.00e+00	0	41	0	0	51	4718
2026-01-24 16:59:43.37	132.09	10.60	-39.8	-42.2	23.5	0.00e+00	0	40	0	0	51	4660
2026-01-24 16:59:44.37	131.80	10.57	-39.4	-41.7	24.0	0.00e+00	0	40	0	0	50	4701
2026-01-24 16:59:45.36	131.52	10.54	-39.4	-41.7	24.0	0.00e+00	0	40	0	0	50	4690
2026-01-24 16:59:46.36	131.23	10.50	-39.2	-41.5	24.2	0.00e+00	0	40	0	0	50	4561
2026-01-24 16:59:47.35	130.95	10.47	-39.1	-41.4	24.3	0.00e+00	0	40	0	0	50	4522
2026-01-24 16:59:48.34	130.67	10.44	-39.3	-41.6	24.2	0.00e+00	0	40	0	0	50	4605
2026-01-24 16:59:49.34	130.38	10.40	-39.6	-42.0	23.8	0.00e+00	0	41	0	0	50	4835
2026-01-24 16:59:50.33	130.10	10.36	-39.8	-42.1	23.7	0.00e+00	0	41	0	0	50	4919
2026-01-24 16:59:51.32	129.83	10.33	-40.0	-42.4	23.3	0.00e+00	0	40	0	0	50	5089
2026-01-24 16:59:52.32	129.54	10.29	-40.2	-42.6	23.1	0.00e+00	0	41	0	0	51	4923
2026-01-24 16:59:53.31	129.27	10.26	-40.2	-42.7	23.1	0.00e+00	0	40	0	0	51	4936
2026-01-24 16:59:54.31	128.99	10.22	-40.2	-42.6	23.1	0.00e+00	0	41	0	0	51	4912
2026-01-24 16:59:55.30	128.71	10.18	-40.1	-42.6	23.1	0.00e+00	0	41	0	0	51	4891
2026-01-24 16:59:56.29	128.44	10.14	-39.7	-42.1	23.6	0.00e+00	0	41	0	0	51	4625
2026-01-24 16:59:57.29	128.16	10.10	-39.1	-41.4	23.0	0.00e+00	0	41	0	0	50	4527
2026-01-24 16:59:58.28	127.89	10.06	-38.8	-41.1	24.6	0.00e+00	0	41	0	0	49	4615
2026-01-24 16:59:59.28	127.61	10.02	-39.0	-41.3	24.3	0.00e+00	0	41	0	0	49	4743
2026-01-24 17:00:00.28	127.34	9.98	-39.0	-41.3	24.4	0.00e+00	0	40	0	0	49	4716
2026-01-24 17:00:01.27	127.07	9.94	-39.1	-41.4	24.2	0.00e+00	0	40	0	0	49	4781
2026-01-24 17:00:02.27	126.80	9.90	-39.4	-41.7	24.0	0.00e+00	0	41	0	0	49	4947
2026-01-24 17:00:03.26	126.53	9.86	-39.7	-42.1	23.7	0.00e+00	0	41	0	0	50	4878
2026-01-24 17:00:04.26	126.26	9.82	-40.0	-42.4	23.3	0.00e+00	0	40	0	0	50	5087
2026-01-24 17:00:05.25	126.00	9.78	-40.2	-42.6	23.1	0.00e+00	0	40	0	0	51	4905
2026-01-24 17:00:06.24	125.73	9.74	-40.3	-42.8	22.9	0.00e+00	0	41	0	0	51	5002
2026-01-24 17:00:07.24	125.47	9.70	-40.4	-42.9	22.8	0.00e+00	0	41	0	0	51	5054
2026-01-24 17:00:08.24	125.20	9.65	-40.3	-42.8	22.9	0.00e+00	0	40	0	0	51	4996
2026-01-24 17:00:09.23	124.94	9.61	-40.3	-42.8	22.9	0.00e+00	0	41	0	0	51	5033
2026-01-24 17:00:10.23	124.68	9.57	-40.3	-42.8	22.9	0.00e+00	0	41	0	0	51	4985
2026-01-24 17:00:11.23	124.42	9.52	-40.3	-42.7	23.1	0.00e+00	0	41	0	0	51	4958
2026-01-24 17:00:12.22	124.16	9.48	-40.4	-42.8	22.9	0.00e+00	0	41	0	0	51	5036
2026-01-24 17:00:13.22	123.90	9.43	-40.3	-42.7	23.0	0.00e+00	0	41	0	0	51	4964
2026-01-24 17:00:14.21	123.64	9.39	-40.0	-42.4	23.3	0.00e+00	0	41	0	0	51	4797
2026-01-24 17:00:15.21	123.39	9.35	-39.9	-42.3	23.4	0.00e+00	0	41	0	0	51	4717
2026-01-24 17:00:16.20	123.13	9.30	-40.0	-42.4	23.3	0.00e+00	0	41	0	0	51	4775
2026-01-24 17:00:17.20	122.88	9.25	-40.1	-42.6	23.1	0.00e+00	0	41	0	0	51	4897
2026-01-24 17:00:18.19	122.63	9.21	-40.3	-42.8	22.9	0.00e+00	0	41	0	0	51	4985
2026-01-24 17:00:19.19	122.37	9.16	-40.4	-42.9	22.7	0.00e+00	0	41	0	0	51	5100
2026-01-24 17:00:20.18	122.12	9.12	-40.5	-43.0	22.6	0.00e+00	0	41	0	0	51	5146
2026-01-24 17:00:21.17	121.88	9.07	-40.5	-43.1	22.6	0.00e+00	0	40	0	0	51	5171
2026-01-24 17:00:22.17	121.63	9.02	-40.2	-42.7	22.9	0.00e+00	0	41	0	0	51	4958
2026-01-24 17:00:23.16	121.38	8.98	-48.0	-65.0	3.3	0.00e+00	0	41	104	0	66	27362
2026-01-24 17:00:24.15	121.13	8.93	-48.2	-66.2	3.8	0.00e+00	0	41	104	0	67	29663
2026-01-24 17:00:25.15	120.89	8.88	-48.5	-67.1	3.8	7.72e-01	0	41	104	0	67	32587
2026-01-24 17:00:26.14	120.65	8.83	-48.5	-67.3	3.8	8.46e-01	0	41	104	0	67	33592
2026-01-24 17:00:27.13	120.40	8.79	-48.6	-67.4	3.8	8.46e-01	0	41	104	0	67	33988
2026-01-24 17:00:28.13	120.16	8.74	-48.8	-67.6	3.8	8.46e-01	0	41	104	0	68	32866
2026-01-24 17:00:29.12	119.92	8.69	-48.8	-67.7	3.8	8.47e-01	0	40	104	0	68	32931
2026-01-24 17:00:30.11	119.68	8.64	-48.9	-67.7	3.8	8.47e-01	0	41	104	0	68	33042
2026-01-24 17:00:31.11	119.44	8.59	-48.7	-67.7	3.8	8.47e-01	0	41	104	0	68	33194
2026-01-24 17:00:32.10	119.21	8.54	-48.9	-67.7	3.8	8.46e-01	0	41	104	0	68	33276
2026-01-24 17:00:33.09	118.97	8.49	-48.9	-67.8	3.8	8.47e-01	0	41	104	0	68	33314
2026-01-24 17:00:34.09	118.73	8.44	-48.6	-67.8	3.8	8.47e-01	0	41	104	0	68	33503
2026-01-24 17:00:35.08	118.50	8.39	-48.6	-67.8	3.8	8.47e-01	0	41	104	0	68	33549
2026-01-24 17:00:36.08	118.27	8.34	-48.6	-67.8	3.8	8.47e-01	0	41	104	0	68	33588
2026-01-24 17:00:37.07	118.04	8.29	-48.7	-67.8	3.8	8.47e-01	0	41	104	0	68	33622
2026-01-24 17:00:38.06	117.81	8.24	-48.8	-67.8	3.8	8.46e-01	0	41	104	0	68	33693
2026-01-24 17:00:39.06	117.58	8.19	-48.8	-67.9	3.8	8.45e-01	0	41	104	0	68	33723
2026-01-24 17:00:40.05	117.35	8.14	-48.7	-67.8	3.8	8.45e-01	0	41	104	0	68	33639
2026-01-24 17:00:41.04	117.12	8.09	-48.7	-67.9	3.8	8.48e-01	0	41	104	0	68	33713
2026-01-24 17:00:42.03	116.90	8.04	-48.8	-67.9	3.8	8.47e-01	0	41	104	0	68	33756
2026-01-24 17:00:43.03	116.67	7.99	-48.8	-67.9	3.8	8.47e-01	0	41	104	0	68	33773
2026-01-24 17:00:44.02	116.45	7.94	-48.8	-67.8	3.8	8.47e-01	0	41	104	0	68	33674
2026-01-24 17:00:45.01	116.23	7.89	-48.8	-67.8	3.8	8.47e-01	0	41	104	0	68	33609
2026-01-24 17:00:46.01	116.00	7.83	-48.8	-67.8	3.8	8.47e-01	0	41	104	0	68	33606
2026-01-24 17:00:47.00	115.78	7.78	-48.8	-67.8	3.8	8.46e-01	0	41	104	0	68	33574
2026-01-24 17:00:47.99	115.56	7.73	-48.8	-67.8	3.8	8.46e-01	0	41	104	0	68	33621
2026-01-24 17:00:48.99	115.35	7.68	-48.8	-67.8	3.8	8.46e-01	0	41	104	0	68	33545
2026-01-24 17:00:49.98	115.13	7.63	-48.8	-67.8	3.8	8.46e-01	0	41	104	0	68	33573
2026-01-24 17:00:50.97	114.91	7.57	-48.8	-67.8	3.8	8.47e-01	0	41	104	0	68	33512
2026-01-24 17:00:51.97	114.70	7.52	-48.8	-67.8	3.8	8.47e-01	0	41	104	0	68	33522
2026-01-24 17:00:52.96	114.48	7.47	-48.8	-67.8	3.8	8.47e-01	0	41	104	0	68	33447
2026-01-24 17:00:53.95	114.27	7.42	-48.8	-67.8	3.8	8.47e-01	0	41	104	0	68	33433
2026-01-24 17:00:54.95	114.06	7.36	-48.7	-67.8	3.8	8.47e-01	0	41	104	0	68	33443
2026-01-24 17:00:55.94	113.85	7.31	-48.7	-67.8	3.8	8.47e-01	0	41	104	0	68	33410
2026-01-24 17:00:56.93	113.64	7.26	-48.8	-67.8	3.8	8.47e-01	0	41	104	0	68	33505
2026-01-24 17:00:57.93	113.43	7.20	-48.7	-67.8	3.8	8.46e-01	0	41	104	0	68	33436
2026-01-24 17:00:58.92	113.22	7.15	-48.8	-67.8	3.8	8.46e-01	0	41	104	0	68	33409
2026-01-24 17:00:59.91	113.02	7.10	-48.8	-67.8	3.8	8.47e-01	0	41	104	0	68	33462
2026-01-24 17:01:00.90	112.81	7.04	-48.7	-67.8	3.8	8.47e-01	0	41	104	0	68	33479
2026-01-24 17:01:01.90	112.61	6.99	-48.7	-67.8	3.8	8.47e-01	0	41	104	0	68	33442
2026-01-24 17:01:02.89	112.40	6.94	-48.7	-67.8	3.8	8.47e-01	0	41	104	0	68	33393
2026-01-24 17:01:03.88	112.20	6.88	-48.7	-67.8	3.8	8.47e-01	0	41	104	0	68	33340
2026-01-24 17:01:04.88	112.00	6.83	-48.7	-67.8	3.8	8.47e-01	0	41	104	0	68	33434
2026-01-24 17:01:05.87	111.80	6.78	-48.7	-67.8	3.8	8.46e-01	0	41	104	0	68	33366
2026-01-24 17:01:06.86	111.60	6.72	-48.7	-67.8	3.8	8.48e-01	0	41	104	0	68	33388
2026-01-24 17:01:07.86	111.40	6.67	-48.7	-67.8	3.8	8.48e-01	0	41	104	0	68	33343
2026-01-24 17:01:08.85	111.21	6.61	-48.7	-67.7	3.8	8.47e-01	0	41	104	0	68	33306
2026-01-24 17:01:09.84	111.01	6.56	-48.7	-67.8	3.8	8.47e-01	0	41	104	0	68	33378
2026-01-24 17:01:10.84	110.81	6.51	-48.7	-67.8	3.8	8.47e-01	0	41	104	0	68	33358
2026-01-24 17:01:11.83	110.62	6.45	-48.7	-67.8	3.8	8.46e-01	0	41	104	0	68	33357
2026-01-24 17:01:12.82	110.43	6.40	-48.7	-67.8	3.8	8.48e-01	0	41	104	0	68	33435
2026-01-24 17:01:13.81	110.24	6.34	-48.7	-67.7	3.8	8.48e-01	0	41	104	0	68	33272
2026-01-24 17:01:14.81	110.05	6.29	-48.7	-67.7	3.8	8.47e-01	0	41	104	0	68	33271
2026-01-24 17:01:15.80	109.86	6.23	-48.7	-67.8	3.8	8.47e-01	0	41	104	0	68	33324
2026-01-24 17:01:16.79	109.67	6.18	-48.7	-67.8	3.8	8.47e-01	0	41	104	0	68	33350
2026-01-24 17:01:17.79	109.48	6.12	-48.7	-67.8	3.8	8.47e-01	0	41	104	0	68	33340
2026-01-24 17:01:18.78	109.29	6.07	-48.7	-67.7	3.8	8.47e-01	0	41	104	0	68	33294
2026-01-24 17:01:19.77	109.11	6.02	-48.7	-67.8	3.8	8.48e-01	0	41	104	0	68	33317
2026-01-24 17:01:20.76	108.92	5.96	-48.7	-67.8	3.8	8.48e-01	0	41	104	0	68	33325
2026-01-24 17:01:21.76	108.74	5.91	-48.7	-67.8	3.8	8.47e-01	0	41	104	0	68	33339
2026-01-24 17:01:22.75	108.56	5.85	-48.7	-67.7	3.8	8.48e-01	0	41	104	0	68	33233
2026-01-24 17:01:23.74	108.37	5.80	-48.7	-67.7	3.8	8.48e-01	0	41	104	0	68	33256
2026-01-24 17:01:24.74	108.19	5.74	-48.7	-67.8	3.8	8.46e-01	0	41	104	0	68	33339
2026-01-24 17:01:25.73	108.01	5.69	-48.7	-67.7	3.8	8.46e-01	0	41	104	0	68	33210
2026-01-24 17:01:26.73	107.83	5.63	-48.7	-67.7	3.8	8.46e-01	0	41	104	0	68	33214
2026-01-24 17:01:27.72	107.65	5.58	-48.7	-67.8	3.8	8.47e-01	0	41	104	0	68	33341
2026-01-24 17:01:28.71	107.48	5.52	-48.7	-67.7	3.8	8.46e-01	0	41	104	0	68	33274
2026-01-24 17:01:29.70	107.30	5.47	-48.7	-67.7	3.8	8.46e-01	0	41	104	0	68	33295
2026-01-24 17:01:30.70	107.13	5.41	-48.7	-67.8	3.8	8.47e-01	0	41	104	0	68	33322
2026-01-24 17:01:31.69	106.95	5.36	-48.7	-67.7	3.8	8.48e-01	0	41	104	0	68	33253
2026-01-24 17:01:32.68	106.78	5.30	-48.7	-67.7	3.8	8.48e-01	0	41	104	0	68	33208
2026-01-24 17:01:33.68	106.61	5.25	-48.7	-67.7	3.8	8.47e-01	0	41	104	0	68	33270
2026-01-24 17:01:34.67	106.44	5.19	-48.7	-67.7	3.8	8.47e-01	0	41	104	0	68	33224
2026-01-24 17:01:35.66	106.27	5.14	-48.7	-67.7	3.8	8.47e-01	0	41	104	0	68	33133
2026-01-24 17:01:36.66	106.09	5.08	-48.7	-67.7	3.8	8.47e-01	0	41	104	0	68	33175
2026-01-24 17:01:37.65	105.93	5.03	-48.7	-67.7	3.8	8.46e-01	0	41	104	0	68	33231
2026-01-24 17:01:38.64	105.76	4.97	-48.7	-67.7	3.8	8.47e-01	0	41	104	0	68	33291
2026-01-24 17:01:39.64	105.59	4.92	-48.7	-67.7	3.8	8.47e-01	0	41	104	0	68	33219

#Closed at: 2026-01-24 17:01:40
#Recorded file [0 MB]: D:/Data/31040_260124_195600.dat