passes_logs/2026/01/24/T1/T1__20260124_020815_NOAA_20_JPSS-1_rec.log

#Pass ID: 20260124_020815_NOAA 20 (JPSS-1)
#Satellite: NOAA 20 (JPSS-1)
#Configuration: NOAA 20
#almurnet v.1.7.20251203
#Start time: 2026-01-24 02:08:15

#Version: 2.0.20230620
#Station: T1
#Location: 37.570604 lon 55.790049 lat
#TLE: 1 43013U 17073A   26022.94240312  .00000200  00000+0  11574-3 0  9998
#TLE: 2 43013  98.7645 323.7982 0001179  28.0279 332.0961 14.19539020423863

#Time	Az	El	Level	Level2	SNR	BER	BlckErr	Temp	State	Recorded	gain1	gain2
2026-01-24 02:08:15.96	1.99	5.03	-49.3	-64.7	3.8	1.49e+00	0	35	0	0	69	22137
2026-01-24 02:08:16.95	1.88	5.08	-46.4	-64.2	3.8	1.49e+00	0	35	104	0	64	27926
2026-01-24 02:08:17.94	1.77	5.12	-46.1	-64.2	3.8	1.49e+00	0	35	104	0	64	27794
2026-01-24 02:08:18.94	1.66	5.17	-46.0	-64.2	3.8	1.49e+00	0	35	104	0	64	27816
2026-01-24 02:08:19.93	1.55	5.22	-46.1	-64.2	3.8	1.49e+00	0	35	104	0	64	27851
2026-01-24 02:08:20.92	1.44	5.27	-46.1	-64.2	3.8	1.49e+00	0	35	104	0	64	27847
2026-01-24 02:08:21.92	1.32	5.32	-46.1	-64.2	3.8	1.49e+00	0	35	104	0	64	27806
2026-01-24 02:08:22.91	1.21	5.36	-46.1	-64.2	3.8	1.49e+00	0	35	104	0	64	27768
2026-01-24 02:08:23.90	1.10	5.41	-46.1	-64.2	3.8	1.49e+00	0	35	104	0	64	27876
2026-01-24 02:08:24.90	0.98	5.46	-46.1	-64.2	3.8	1.49e+00	0	35	104	0	64	27826
2026-01-24 02:08:25.89	0.87	5.51	-46.1	-64.2	3.8	1.49e+00	0	35	104	0	64	27884
2026-01-24 02:08:26.88	0.76	5.55	-46.1	-64.2	3.8	1.49e+00	0	35	104	0	64	27838
2026-01-24 02:08:27.88	0.64	5.60	-46.1	-64.2	3.8	1.49e+00	0	35	104	0	64	27813
2026-01-24 02:08:28.87	0.53	5.65	-46.1	-64.2	3.8	1.49e+00	0	35	104	0	64	27863
2026-01-24 02:08:29.86	0.41	5.70	-46.1	-64.2	3.8	1.49e+00	0	35	104	0	64	27839
2026-01-24 02:08:30.85	0.30	5.74	-46.1	-64.2	3.8	1.49e+00	0	35	104	0	64	27782
2026-01-24 02:08:31.85	0.18	5.79	-46.1	-64.2	3.8	1.49e+00	0	35	104	0	64	27842
2026-01-24 02:08:32.84	0.06	5.84	-46.1	-64.2	3.8	1.49e+00	0	35	104	0	64	27870
2026-01-24 02:08:33.84	359.95	5.89	-46.1	-64.2	3.8	1.49e+00	0	35	104	0	64	27885
2026-01-24 02:08:34.83	359.83	5.94	-46.1	-64.2	3.8	1.49e+00	0	35	104	0	64	27823
2026-01-24 02:08:35.82	359.71	5.98	-46.1	-64.2	3.8	1.49e+00	0	35	104	0	64	27856
2026-01-24 02:08:36.81	359.59	6.03	-46.1	-64.2	3.8	1.49e+00	0	36	104	0	64	27867
2026-01-24 02:08:37.81	359.48	6.08	-46.1	-64.2	3.8	1.49e+00	0	35	104	0	64	27824
2026-01-24 02:08:38.80	359.36	6.12	-46.1	-64.2	3.8	1.49e+00	0	36	104	0	64	28024
2026-01-24 02:08:39.79	359.24	6.17	-46.1	-64.2	3.8	1.49e+00	0	36	104	0	64	27846
2026-01-24 02:08:40.79	359.12	6.22	-46.1	-64.2	3.8	1.49e+00	0	35	104	0	64	27853
2026-01-24 02:08:41.78	359.00	6.27	-46.1	-64.2	3.8	1.49e+00	0	36	104	0	64	27906
2026-01-24 02:08:42.77	358.88	6.31	-46.1	-64.2	3.8	1.49e+00	0	36	104	0	64	27890
2026-01-24 02:08:43.77	358.76	6.36	-46.1	-64.2	3.8	1.49e+00	0	36	104	0	64	27896
2026-01-24 02:08:44.76	358.64	6.41	-46.1	-64.2	3.8	1.49e+00	0	36	104	0	64	27864
2026-01-24 02:08:45.75	358.51	6.46	-46.1	-64.2	3.8	1.49e+00	0	36	104	0	64	27854
2026-01-24 02:08:46.75	358.39	6.50	-46.1	-64.2	3.8	1.49e+00	0	36	104	0	64	27825
2026-01-24 02:08:47.74	358.27	6.55	-46.1	-64.2	3.8	1.49e+00	0	36	104	0	64	27839
2026-01-24 02:08:48.74	358.15	6.60	-46.1	-64.2	3.8	1.49e+00	0	36	104	0	64	27810
2026-01-24 02:08:49.73	358.02	6.64	-46.1	-64.2	3.8	1.49e+00	0	36	104	0	64	27848
2026-01-24 02:08:50.72	357.90	6.69	-46.1	-64.2	3.8	1.49e+00	0	36	104	0	64	27844
2026-01-24 02:08:51.72	357.77	6.74	-46.1	-64.2	3.8	1.49e+00	0	36	104	0	64	27771
2026-01-24 02:08:52.71	357.65	6.79	-46.1	-64.2	3.8	1.49e+00	0	36	104	0	64	27854
2026-01-24 02:08:53.71	357.52	6.83	-46.1	-64.1	3.8	1.49e+00	0	36	104	0	64	27655
2026-01-24 02:08:54.70	357.40	6.88	-46.1	-64.2	3.8	1.49e+00	0	36	104	0	64	27714
2026-01-24 02:08:55.69	357.27	6.93	-46.1	-64.2	3.8	1.49e+00	0	36	104	0	64	27760
2026-01-24 02:08:56.69	357.15	6.97	-46.1	-64.2	3.8	1.49e+00	0	36	104	0	64	27721
2026-01-24 02:08:57.68	357.02	7.02	-46.1	-64.2	3.8	1.49e+00	0	36	104	0	64	27736
2026-01-24 02:08:58.67	356.89	7.07	-46.1	-64.2	3.8	1.49e+00	0	36	104	0	64	27794
2026-01-24 02:08:59.67	356.77	7.11	-46.1	-64.2	3.8	1.49e+00	0	36	104	0	64	27787
2026-01-24 02:09:00.66	356.64	7.16	-46.1	-64.2	3.8	1.49e+00	0	36	104	0	64	27841
2026-01-24 02:09:01.65	356.51	7.21	-46.1	-64.2	3.8	1.49e+00	0	36	104	0	64	27834
2026-01-24 02:09:02.65	356.38	7.25	-46.1	-64.2	3.8	1.49e+00	0	36	104	0	64	27833
2026-01-24 02:09:03.64	356.25	7.30	-46.1	-64.2	3.8	1.49e+00	0	36	104	0	64	27865
2026-01-24 02:09:04.63	356.12	7.34	-46.1	-64.2	3.8	1.49e+00	0	36	104	0	64	27833
2026-01-24 02:09:05.63	355.99	7.39	-46.1	-64.2	3.8	1.49e+00	0	36	104	0	64	27821
2026-01-24 02:09:06.62	355.86	7.44	-46.1	-64.2	3.8	1.49e+00	0	36	104	0	64	27832
2026-01-24 02:09:07.62	355.73	7.48	-46.1	-64.2	3.8	1.49e+00	0	36	104	0	64	27751
2026-01-24 02:09:08.61	355.60	7.53	-46.1	-64.2	3.8	1.49e+00	0	36	104	0	64	27774
2026-01-24 02:09:09.60	355.47	7.58	-46.2	-64.2	3.8	1.49e+00	0	36	104	0	64	27819
2026-01-24 02:09:10.60	355.33	7.62	-46.2	-64.2	3.8	1.49e+00	0	36	104	0	64	27743
2026-01-24 02:09:11.59	355.20	7.67	-46.2	-64.1	3.8	1.49e+00	0	36	104	0	64	27649
2026-01-24 02:09:12.58	355.07	7.71	-46.2	-64.1	3.8	1.49e+00	0	36	104	0	64	27617
2026-01-24 02:09:13.58	354.94	7.76	-46.2	-64.1	3.8	1.49e+00	0	36	104	0	64	27505
2026-01-24 02:09:14.57	354.80	7.81	-46.2	-64.0	3.8	1.49e+00	0	36	104	0	64	27307
2026-01-24 02:09:15.56	354.67	7.85	-46.2	-63.9	3.8	1.49e+00	0	37	104	0	64	27061
2026-01-24 02:09:16.56	354.53	7.90	-46.2	-63.9	3.8	1.49e+00	0	36	104	0	64	26964
2026-01-24 02:09:17.55	354.40	7.94	-46.2	-63.9	3.8	1.49e+00	0	37	104	0	64	27046
2026-01-24 02:09:18.54	354.26	7.99	-46.2	-64.0	3.8	1.49e+00	0	36	104	0	64	27333
2026-01-24 02:09:19.54	354.13	8.03	-46.2	-64.1	3.8	1.49e+00	0	36	104	0	64	27457
2026-01-24 02:09:20.53	353.99	8.08	-46.1	-64.1	3.8	1.49e+00	0	36	104	0	64	27595
2026-01-24 02:09:21.52	353.85	8.12	-46.1	-64.2	3.8	1.49e+00	0	36	104	0	64	27707
2026-01-24 02:09:22.52	353.72	8.17	-46.1	-64.1	3.8	1.49e+00	0	36	104	0	64	27698
2026-01-24 02:09:23.51	353.58	8.21	-46.2	-64.2	3.8	1.49e+00	0	37	104	0	64	27777
2026-01-24 02:09:24.51	353.44	8.26	-46.1	-64.1	3.8	1.49e+00	0	36	104	0	64	27639
2026-01-24 02:09:25.50	353.30	8.30	-46.2	-64.0	3.8	1.49e+00	0	37	104	0	64	27152
2026-01-24 02:09:26.49	353.16	8.35	-46.2	-63.7	3.8	1.49e+00	0	37	104	0	64	26173
2026-01-24 02:09:27.48	353.02	8.39	-46.1	-63.2	3.8	1.49e+00	0	37	104	0	64	24894
2026-01-24 02:09:28.48	352.88	8.44	-46.2	-62.8	3.8	1.49e+00	0	37	104	0	64	23748
2026-01-24 02:09:29.47	352.74	8.48	-46.1	-62.6	3.8	1.49e+00	0	37	104	0	64	23090
2026-01-24 02:09:30.47	352.60	8.53	-46.1	-62.4	3.8	1.49e+00	0	37	104	0	64	22561
2026-01-24 02:09:31.46	352.46	8.57	-46.1	-62.2	3.8	1.49e+00	0	37	104	0	64	22221
2026-01-24 02:09:32.45	352.32	8.62	-46.1	-62.1	3.8	1.49e+00	0	37	104	0	64	21826
2026-01-24 02:09:33.45	352.18	8.66	-46.1	-61.8	3.8	1.48e+00	0	37	104	0	64	21097
2026-01-24 02:09:34.44	352.03	8.70	-46.1	-61.4	4.0	1.48e+00	0	37	0	0	64	20097
2026-01-24 02:09:35.43	351.89	8.75	-46.0	-60.8	4.1	1.45e+00	0	36	0	0	64	18785
2026-01-24 02:09:36.43	351.75	8.79	-46.0	-59.8	4.5	1.27e+00	0	37	0	0	64	16728
2026-01-24 02:09:37.42	351.60	8.84	-46.0	-58.3	5.2	7.83e-01	0	37	0	2097152	63	14966
2026-01-24 02:09:38.41	351.46	8.88	-45.8	-56.4	6.6	3.91e-01	0	37	0	4194304	63	11987
2026-01-24 02:09:39.41	351.31	8.92	-45.5	-54.3	8.6	1.21e-01	0	37	0	5242880	63	9418
2026-01-24 02:09:40.40	351.17	8.97	-45.0	-52.2	10.8	6.08e-03	0	37	0	7340032	62	7818
2026-01-24 02:09:41.39	351.02	9.01	-44.4	-50.4	12.7	3.64e-04	0	37	0	9437184	60	7130
2026-01-24 02:09:42.38	350.88	9.05	-44.1	-49.4	13.8	1.29e-05	0	37	0	11534336	60	6364
2026-01-24 02:09:43.51	350.71	9.10	-45.1	-51.4	11.8	4.73e-05	0	37	0	13631488	60	8002
2026-01-24 02:09:44.42	350.58	9.14	-44.8	-50.6	12.2	1.87e-02	0	37	0	14680064	61	6949
2026-01-24 02:09:45.42	350.43	9.19	-44.4	-49.4	13.8	0.00e+00	0	37	0	16777216	59	6778
2026-01-24 02:09:46.41	350.28	9.23	-44.2	-49.3	13.4	2.55e-02	0	37	0	18874368	60	6275
2026-01-24 02:09:47.41	350.13	9.27	-43.2	-47.2	15.8	0.00e+00	0	37	0	20971520	57	5894
2026-01-24 02:09:48.40	349.98	9.31	-42.9	-46.6	16.4	0.00e+00	0	37	0	23068672	57	5500
2026-01-24 02:09:49.40	349.83	9.36	-43.0	-46.6	16.4	0.00e+00	0	37	0	24117248	57	5520
2026-01-24 02:09:50.39	349.68	9.40	-43.0	-46.6	16.5	0.00e+00	0	37	0	26214400	57	5502
2026-01-24 02:09:51.39	349.53	9.44	-42.9	-46.6	16.5	0.00e+00	0	37	0	28311552	57	5465
2026-01-24 02:09:52.39	349.38	9.49	-42.8	-46.4	16.7	0.00e+00	0	37	0	30408704	57	5356
2026-01-24 02:09:53.38	349.23	9.53	-42.8	-46.4	16.7	0.00e+00	0	37	0	31457280	57	5357
2026-01-24 02:09:54.38	349.08	9.57	-42.6	-46.3	16.7	0.00e+00	0	37	0	33554432	57	5308
2026-01-24 02:09:55.37	348.93	9.61	-42.6	-46.3	16.7	0.00e+00	0	37	0	35651584	57	5335
2026-01-24 02:09:56.37	348.77	9.65	-42.5	-46.3	16.8	0.00e+00	0	37	0	37748736	57	5280
2026-01-24 02:09:57.36	348.62	9.69	-42.1	-46.0	17.0	0.00e+00	0	37	0	39845888	56	5433
2026-01-24 02:09:58.45	348.45	9.74	-42.0	-46.0	17.0	0.00e+00	0	37	0	40894464	56	5423
2026-01-24 02:09:59.34	348.31	9.78	-41.8	-46.0	16.9	0.00e+00	0	37	0	42991616	55	5735
2026-01-24 02:10:00.47	348.14	9.82	-41.6	-46.0	16.9	0.00e+00	0	37	0	45088768	55	5746
2026-01-24 02:10:01.33	348.00	9.86	-41.7	-46.0	16.9	0.00e+00	0	37	0	47185920	55	5765
2026-01-24 02:10:02.47	347.83	9.91	-41.6	-45.9	17.0	0.00e+00	0	37	0	49283072	55	5661
2026-01-24 02:10:03.32	347.69	9.94	-41.7	-45.9	17.0	0.00e+00	0	37	0	50331648	55	5670
2026-01-24 02:10:04.45	347.52	9.99	-41.7	-45.8	17.1	0.00e+00	0	37	0	52428800	55	5644
2026-01-24 02:10:05.31	347.38	10.02	-41.7	-45.7	17.2	0.00e+00	0	37	0	54525952	55	5554
2026-01-24 02:10:06.44	347.20	10.07	-41.7	-45.5	17.3	0.00e+00	0	37	0	56623104	55	5454
2026-01-24 02:10:07.29	347.07	10.10	-41.7	-45.5	17.4	0.00e+00	0	37	0	57671680	55	5428
2026-01-24 02:10:08.43	346.89	10.15	-41.6	-45.5	17.3	0.00e+00	0	37	0	59768832	55	5452
2026-01-24 02:10:09.28	346.75	10.18	-41.7	-45.6	17.3	0.00e+00	0	37	0	61865984	55	5508
2026-01-24 02:10:10.42	346.57	10.23	-41.8	-45.7	17.2	0.00e+00	0	37	0	63963136	55	5572
2026-01-24 02:10:11.27	346.43	10.26	-41.8	-45.7	17.1	0.00e+00	0	37	0	65011712	55	5580
2026-01-24 02:10:12.52	346.23	10.31	-41.8	-45.5	17.4	0.00e+00	0	37	0	68157440	55	5460
2026-01-24 02:10:13.37	346.09	10.35	-41.8	-45.5	17.4	0.00e+00	0	37	0	69206016	55	5415
2026-01-24 02:10:14.51	345.91	10.39	-41.9	-45.5	17.3	0.00e+00	0	37	0	71303168	55	5442
2026-01-24 02:10:15.36	345.77	10.43	-41.8	-45.4	17.5	0.00e+00	0	37	0	73400320	55	5360
2026-01-24 02:10:16.62	345.57	10.48	-41.7	-45.5	17.5	0.00e+00	0	37	0	75497472	55	5417
2026-01-24 02:10:17.44	345.43	10.51	-41.6	-45.4	17.5	0.00e+00	0	37	0	76546048	55	5376
2026-01-24 02:10:18.58	345.25	10.55	-41.5	-45.4	17.5	0.00e+00	0	37	0	79691776	55	5368
2026-01-24 02:10:19.43	345.11	10.58	-41.4	-45.4	17.5	0.00e+00	0	37	0	80740352	54	5680
2026-01-24 02:10:20.57	344.92	10.63	-41.5	-45.3	17.7	0.00e+00	0	37	0	82837504	54	5597
2026-01-24 02:10:21.42	344.78	10.66	-41.5	-45.3	17.7	0.00e+00	0	37	0	84934656	54	5603
2026-01-24 02:10:22.56	344.59	10.70	-41.6	-45.3	17.6	0.00e+00	0	37	0	87031808	54	5617
2026-01-24 02:10:23.41	344.45	10.74	-41.7	-45.1	17.8	0.00e+00	0	37	0	88080384	54	5511
2026-01-24 02:10:24.55	344.26	10.78	-41.8	-45.0	17.9	0.00e+00	0	37	0	90177536	54	5462
2026-01-24 02:10:25.40	344.12	10.81	-41.9	-45.0	17.9	0.00e+00	0	37	0	92274688	54	5447
2026-01-24 02:10:26.54	343.93	10.85	-42.0	-45.1	17.9	0.00e+00	0	37	0	94371840	54	5472
2026-01-24 02:10:27.39	343.79	10.89	-42.0	-45.1	17.8	0.00e+00	0	37	0	95420416	54	5497
2026-01-24 02:10:28.53	343.60	10.93	-42.0	-45.2	17.8	0.00e+00	0	37	0	97517568	54	5562
2026-01-24 02:10:29.38	343.46	10.96	-42.0	-45.2	17.7	0.00e+00	0	37	0	99614720	54	5583
2026-01-24 02:10:30.52	343.26	11.00	-42.1	-45.3	17.6	0.00e+00	0	37	0	101711872	54	5634
2026-01-24 02:10:31.37	343.12	11.03	-42.2	-45.4	17.6	0.00e+00	0	37	0	102760448	54	5668
2026-01-24 02:10:32.51	342.93	11.07	-42.2	-45.4	17.5	0.00e+00	0	37	0	104857600	55	5359
2026-01-24 02:10:33.37	342.78	11.11	-42.3	-45.4	17.5	0.00e+00	0	37	0	106954752	55	5401
2026-01-24 02:10:34.50	342.59	11.15	-42.3	-45.5	17.5	0.00e+00	0	37	0	109051904	55	5411
2026-01-24 02:10:35.36	342.44	11.18	-42.4	-45.6	17.4	0.00e+00	0	37	0	110100480	55	5468
2026-01-24 02:10:36.50	342.25	11.22	-42.3	-45.4	17.6	0.00e+00	0	37	0	113246208	55	5343
2026-01-24 02:10:37.35	342.10	11.25	-42.3	-45.3	17.6	0.00e+00	0	37	0	114294784	55	5328
2026-01-24 02:10:38.49	341.90	11.29	-42.4	-45.4	17.6	0.00e+00	0	37	0	116391936	55	5357
2026-01-24 02:10:39.34	341.76	11.32	-42.4	-45.4	17.6	0.00e+00	0	37	0	118489088	55	5372
2026-01-24 02:10:40.48	341.56	11.36	-42.5	-45.6	17.4	0.00e+00	0	37	0	120586240	55	5506
2026-01-24 02:10:41.33	341.41	11.39	-42.5	-45.7	17.3	0.00e+00	0	37	0	121634816	55	5531
2026-01-24 02:10:42.47	341.21	11.43	-42.5	-45.6	17.3	0.00e+00	0	37	0	123731968	55	5505
2026-01-24 02:10:43.33	341.07	11.46	-42.6	-45.7	17.2	0.00e+00	0	37	0	125829120	55	5571
2026-01-24 02:10:44.48	340.86	11.50	-42.7	-45.6	17.3	0.00e+00	0	37	0	127926272	55	5516
2026-01-24 02:10:45.33	340.72	11.52	-42.9	-45.9	17.3	0.00e+00	0	37	0	128974848	56	5345
2026-01-24 02:10:46.47	340.52	11.56	-42.9	-45.9	17.2	0.00e+00	0	37	0	131072000	56	5371
2026-01-24 02:10:47.32	340.37	11.59	-43.0	-46.0	17.2	0.00e+00	0	37	0	133169152	56	5413
2026-01-24 02:10:48.46	340.17	11.63	-42.7	-45.8	17.3	0.00e+00	0	37	0	135266304	56	5312
2026-01-24 02:10:49.31	340.02	11.66	-42.6	-45.8	17.3	0.00e+00	0	37	0	137363456	56	5334
2026-01-24 02:10:50.45	339.81	11.69	-42.4	-45.7	17.4	0.00e+00	0	37	0	138412032	56	5275
2026-01-24 02:10:51.30	339.66	11.72	-42.3	-45.5	17.6	0.00e+00	0	37	0	140509184	56	5137
2026-01-24 02:10:52.44	339.46	11.76	-42.5	-45.7	17.5	0.00e+00	0	37	0	142606336	56	5219
2026-01-24 02:10:53.29	339.31	11.79	-42.5	-45.5	17.6	0.00e+00	0	37	0	144703488	56	5154
2026-01-24 02:10:54.43	339.11	11.82	-42.6	-45.5	17.6	0.00e+00	0	37	0	146800640	56	5112
2026-01-24 02:10:55.28	338.95	11.85	-42.7	-45.5	17.6	0.00e+00	0	37	0	147849216	56	5156
2026-01-24 02:10:56.42	338.75	11.88	-42.7	-45.6	17.6	0.00e+00	0	37	0	149946368	56	5189
2026-01-24 02:10:57.27	338.60	11.91	-42.7	-45.7	17.5	0.00e+00	0	37	0	152043520	56	5221
2026-01-24 02:10:58.41	338.39	11.95	-42.6	-45.6	17.5	0.00e+00	0	37	0	154140672	56	5217
2026-01-24 02:10:59.26	338.24	11.97	-42.4	-45.6	17.6	0.00e+00	0	37	0	155189248	56	5185
2026-01-24 02:11:00.40	338.03	12.01	-42.3	-45.6	17.6	0.00e+00	0	37	0	157286400	56	5191
2026-01-24 02:11:01.25	337.88	12.03	-42.3	-45.7	17.5	0.00e+00	0	37	0	159383552	56	5223
2026-01-24 02:11:02.39	337.67	12.07	-42.2	-45.5	17.6	0.00e+00	0	37	0	161480704	56	5134
2026-01-24 02:11:03.25	337.51	12.09	-42.2	-45.4	17.7	0.00e+00	0	37	0	162529280	56	5085
2026-01-24 02:11:04.38	337.31	12.12	-42.3	-45.4	17.7	0.00e+00	0	37	0	164626432	56	5083
2026-01-24 02:11:05.24	337.15	12.15	-42.3	-45.4	17.7	0.00e+00	0	37	0	166723584	56	5070
2026-01-24 02:11:06.37	336.94	12.18	-42.3	-45.5	17.7	0.00e+00	0	37	0	168820736	56	5108
2026-01-24 02:11:07.23	336.79	12.21	-42.3	-45.4	17.7	0.00e+00	0	37	0	170917888	56	5089
2026-01-24 02:11:08.65	336.53	12.25	-42.4	-45.6	17.6	0.00e+00	0	37	0	173015040	56	5173
2026-01-24 02:11:09.36	336.39	12.27	-42.4	-45.5	17.6	0.00e+00	0	37	0	174063616	56	5143
2026-01-24 02:11:10.65	336.16	12.30	-42.5	-45.5	17.6	0.00e+00	0	37	0	177209344	56	5153
2026-01-24 02:11:11.36	336.02	12.32	-42.5	-45.5	17.7	0.00e+00	0	37	0	178257920	56	5112
2026-01-24 02:11:12.64	335.79	12.36	-42.6	-45.4	17.7	0.00e+00	0	37	0	180355072	56	5085
2026-01-24 02:11:13.35	335.66	12.38	-42.6	-45.4	17.8	0.00e+00	0	37	0	181403648	56	5084
2026-01-24 02:11:14.63	335.42	12.41	-42.8	-45.4	17.7	0.00e+00	0	37	0	184549376	56	5098
2026-01-24 02:11:15.39	335.28	12.43	-42.7	-45.3	17.8	0.00e+00	0	37	0	185597952	56	5026
2026-01-24 02:11:16.67	335.04	12.46	-42.6	-45.3	17.9	0.00e+00	0	37	0	187695104	56	4988
2026-01-24 02:11:17.49	334.88	12.49	-42.7	-45.4	17.8	0.00e+00	0	37	0	189792256	56	5058
2026-01-24 02:11:18.62	334.67	12.52	-42.6	-45.4	17.8	0.00e+00	0	37	0	191889408	56	5043
2026-01-24 02:11:19.48	334.51	12.54	-42.6	-45.3	17.8	0.00e+00	0	37	0	192937984	56	5021
2026-01-24 02:11:20.61	334.30	12.57	-42.6	-45.4	17.8	0.00e+00	0	37	0	195035136	56	5046
2026-01-24 02:11:21.72	334.09	12.59	-42.5	-45.1	18.0	0.00e+00	0	37	0	197132288	56	4914
2026-01-24 02:11:22.74	333.90	12.62	-42.5	-45.2	18.0	0.00e+00	0	37	0	199229440	56	4927
2026-01-24 02:11:23.74	333.71	12.64	-42.6	-45.2	17.9	0.00e+00	0	37	0	201326592	56	4961
2026-01-24 02:11:24.94	333.48	12.67	-42.6	-45.2	17.9	0.00e+00	0	37	0	203423744	56	4959
2026-01-24 02:11:25.82	333.31	12.69	-42.5	-45.1	18.0	0.00e+00	0	37	0	205520896	56	4919
2026-01-24 02:11:27.11	333.07	12.72	-42.6	-45.2	18.0	0.00e+00	0	37	0	207618048	56	4950
2026-01-24 02:11:27.83	332.93	12.74	-42.6	-45.3	17.9	0.00e+00	0	37	0	208666624	56	4987
2026-01-24 02:11:29.10	332.69	12.77	-42.5	-45.2	17.9	0.00e+00	0	37	0	211812352	56	4958
2026-01-24 02:11:29.85	332.55	12.78	-42.6	-45.2	17.8	0.00e+00	0	38	0	212860928	56	4971
2026-01-24 02:11:31.13	332.30	12.81	-42.5	-45.1	18.0	0.00e+00	0	37	0	214958080	56	4918
2026-01-24 02:11:31.84	332.16	12.83	-42.6	-45.3	17.9	0.00e+00	0	37	0	217055232	56	5003
2026-01-24 02:11:33.12	331.92	12.86	-42.6	-45.2	17.9	0.00e+00	0	37	0	219152384	56	4979
2026-01-24 02:11:33.86	331.78	12.87	-42.7	-45.3	17.9	0.00e+00	0	37	0	220200960	56	4993
2026-01-24 02:11:35.14	331.53	12.90	-42.8	-45.4	17.8	0.00e+00	0	37	0	222298112	56	5045
2026-01-24 02:11:35.86	331.39	12.91	-42.8	-45.4	17.7	0.00e+00	0	37	0	224395264	56	5084
2026-01-24 02:11:37.14	331.14	12.94	-42.9	-45.5	17.6	0.00e+00	0	37	0	226492416	56	5139
2026-01-24 02:11:37.85	331.01	12.95	-43.0	-45.7	17.5	0.00e+00	0	37	0	227540992	56	5230
2026-01-24 02:11:39.13	330.76	12.98	-42.9	-45.7	17.5	0.00e+00	0	37	0	230686720	56	5231
2026-01-24 02:11:39.86	330.62	12.99	-42.9	-45.7	17.4	0.00e+00	0	37	0	231735296	56	5260
2026-01-24 02:11:41.14	330.37	13.02	-43.1	-45.9	17.3	0.00e+00	0	37	0	233832448	56	5371
2026-01-24 02:11:41.86	330.23	13.03	-43.1	-45.9	17.3	0.00e+00	0	37	0	234881024	56	5376
2026-01-24 02:11:43.14	329.98	13.06	-43.1	-45.8	17.3	0.00e+00	0	37	0	238026752	56	5327
2026-01-24 02:11:43.96	329.82	13.07	-43.1	-45.8	17.4	0.00e+00	0	37	0	239075328	56	5327
2026-01-24 02:11:45.10	329.60	13.09	-43.1	-45.8	17.3	0.00e+00	0	37	0	241172480	56	5337
2026-01-24 02:11:46.11	329.40	13.11	-43.0	-45.8	17.4	0.00e+00	0	37	0	243269632	56	5286
2026-01-24 02:11:47.28	329.17	13.13	-43.1	-46.0	17.2	0.00e+00	0	37	0	245366784	56	5404
2026-01-24 02:11:48.13	329.01	13.14	-43.0	-45.9	17.3	0.00e+00	0	37	0	247463936	56	5345
2026-01-24 02:11:49.27	328.78	13.16	-43.0	-45.9	17.3	0.00e+00	0	37	0	249561088	56	5364
2026-01-24 02:11:50.12	328.62	13.18	-43.2	-46.0	17.2	0.00e+00	0	37	0	250609664	56	5449
2026-01-24 02:11:51.26	328.39	13.19	-43.2	-46.0	17.1	0.00e+00	0	37	0	252706816	57	5150
2026-01-24 02:11:52.11	328.23	13.21	-43.2	-46.0	17.2	0.00e+00	0	37	0	254803968	57	5138
2026-01-24 02:11:53.25	328.00	13.22	-43.1	-45.9	17.2	0.00e+00	0	37	0	256901120	57	5065
2026-01-24 02:11:54.10	327.83	13.24	-43.1	-45.9	17.3	0.00e+00	0	37	0	257949696	57	5052
2026-01-24 02:11:55.24	327.61	13.25	-43.1	-45.9	17.2	0.00e+00	0	37	0	260046848	57	5080
2026-01-24 02:11:56.09	327.44	13.27	-42.9	-45.8	17.3	0.00e+00	0	37	0	262144000	57	5018
2026-01-24 02:11:57.23	327.21	13.28	-42.8	-45.7	17.5	0.00e+00	0	37	0	264241152	57	4962
2026-01-24 02:11:58.08	327.05	13.29	-42.7	-45.6	17.5	0.00e+00	0	37	0	265289728	57	4925
2026-01-24 02:11:59.22	326.82	13.31	-42.7	-45.6	17.6	0.00e+00	0	37	0	268435456	57	4921
2026-01-24 02:12:00.07	326.65	13.32	-42.7	-45.6	17.6	0.00e+00	0	37	0	269484032	57	4917
2026-01-24 02:12:01.32	326.40	13.34	-42.7	-45.6	17.6	0.00e+00	0	37	0	271581184	57	4894
2026-01-24 02:12:02.17	326.24	13.35	-42.8	-45.7	17.5	0.00e+00	0	37	0	273678336	57	4947
2026-01-24 02:12:03.38	326.00	13.36	-42.6	-45.5	17.7	0.00e+00	0	37	0	275775488	57	4836
2026-01-24 02:12:04.24	325.82	13.37	-42.6	-45.6	17.6	0.00e+00	0	37	0	276824064	57	4876
2026-01-24 02:12:05.43	325.59	13.38	-42.6	-45.6	17.5	0.00e+00	0	37	0	279969792	57	4908
2026-01-24 02:12:06.29	325.42	13.39	-42.5	-45.5	17.7	0.00e+00	0	37	0	281018368	57	4826
2026-01-24 02:12:07.42	325.19	13.41	-42.5	-45.6	17.6	0.00e+00	0	37	0	283115520	57	4877
2026-01-24 02:12:08.28	325.02	13.41	-42.5	-45.5	17.7	0.00e+00	0	37	0	285212672	56	5110
2026-01-24 02:12:09.42	324.79	13.43	-42.5	-45.5	17.7	0.00e+00	0	37	0	287309824	56	5105
2026-01-24 02:12:10.27	324.62	13.43	-42.5	-45.5	17.7	0.00e+00	0	37	0	288358400	56	5147
2026-01-24 02:12:11.61	324.35	13.45	-42.6	-45.6	17.6	0.00e+00	0	37	0	291504128	56	5181
2026-01-24 02:12:12.32	324.21	13.45	-42.6	-45.5	17.7	0.00e+00	0	37	0	292552704	56	5133
2026-01-24 02:12:13.60	323.95	13.46	-42.6	-45.4	17.8	0.00e+00	0	37	0	294649856	56	5081
2026-01-24 02:12:14.31	323.81	13.47	-42.7	-45.5	17.7	0.00e+00	0	37	0	296747008	56	5138
2026-01-24 02:12:15.59	323.56	13.48	-42.8	-45.6	17.6	0.00e+00	0	37	0	298844160	56	5162
2026-01-24 02:12:16.31	323.41	13.48	-42.8	-45.4	17.7	0.00e+00	0	37	0	299892736	56	5092
2026-01-24 02:12:17.59	323.15	13.49	-42.8	-45.5	17.8	0.00e+00	0	37	0	301989888	56	5104
2026-01-24 02:12:18.43	322.99	13.50	-42.9	-45.5	17.7	0.00e+00	0	37	0	304087040	56	5128
2026-01-24 02:12:19.56	322.76	13.51	-42.8	-45.4	17.8	0.00e+00	0	37	0	306184192	56	5076
2026-01-24 02:12:20.41	322.59	13.51	-42.7	-45.3	17.9	0.00e+00	0	37	0	307232768	56	5006
2026-01-24 02:12:21.55	322.36	13.52	-42.7	-45.3	17.9	0.00e+00	0	37	0	309329920	56	5025
2026-01-24 02:12:22.40	322.19	13.52	-42.8	-45.4	17.8	0.00e+00	0	37	0	311427072	56	5076
2026-01-24 02:12:23.54	321.96	13.53	-42.7	-45.4	17.8	0.00e+00	0	37	0	313524224	56	5054
2026-01-24 02:12:24.39	321.79	13.53	-42.7	-45.3	17.7	0.00e+00	0	37	0	314572800	56	5039
2026-01-24 02:12:25.53	321.56	13.54	-42.5	-45.2	18.0	0.00e+00	0	37	0	317718528	56	4949
2026-01-24 02:12:26.38	321.39	13.54	-42.5	-45.2	17.9	0.00e+00	0	37	0	318767104	56	4970
2026-01-24 02:12:27.52	321.16	13.55	-42.6	-45.3	17.9	0.00e+00	0	37	0	320864256	56	5000
2026-01-24 02:12:28.37	320.99	13.55	-42.6	-45.3	17.9	0.00e+00	0	37	0	322961408	56	5013
2026-01-24 02:12:29.50	320.76	13.55	-42.6	-45.3	17.8	0.00e+00	0	37	0	325058560	56	5016
2026-01-24 02:12:30.36	320.58	13.55	-42.5	-45.2	17.9	0.00e+00	0	37	0	326107136	56	4946
2026-01-24 02:12:31.49	320.36	13.56	-42.6	-45.3	17.9	0.00e+00	0	37	0	328204288	56	4993
2026-01-24 02:12:32.34	320.19	13.56	-42.5	-45.2	17.9	0.00e+00	0	37	0	330301440	56	4968
2026-01-24 02:12:33.48	319.96	13.56	-42.5	-45.2	17.9	0.00e+00	0	37	0	332398592	56	4975
2026-01-24 02:12:34.33	319.78	13.56	-42.5	-45.2	17.9	0.00e+00	0	37	0	333447168	56	4975
2026-01-24 02:12:35.47	319.55	13.56	-42.5	-45.2	17.9	0.00e+00	0	37	0	335544320	56	4977
2026-01-24 02:12:36.32	319.38	13.56	-42.6	-45.3	17.9	0.00e+00	0	37	0	337641472	56	4993
2026-01-24 02:12:37.46	319.15	13.56	-42.7	-45.4	17.9	0.00e+00	0	37	0	339738624	56	5053
2026-01-24 02:12:38.31	318.98	13.56	-42.6	-45.3	17.9	0.00e+00	0	37	0	340787200	56	5004
2026-01-24 02:12:39.45	318.75	13.56	-42.7	-45.3	17.9	0.00e+00	0	37	0	342884352	56	5019
2026-01-24 02:12:40.31	318.58	13.56	-42.7	-45.3	17.9	0.00e+00	0	38	0	344981504	56	5008
2026-01-24 02:12:41.44	318.35	13.56	-42.6	-45.2	17.9	0.00e+00	0	38	0	347078656	56	4980
2026-01-24 02:12:42.30	318.18	13.56	-42.7	-45.3	17.9	0.00e+00	0	37	0	348127232	56	4989
2026-01-24 02:12:43.53	317.93	13.56	-42.7	-45.2	17.9	0.00e+00	0	37	0	351272960	56	4970
2026-01-24 02:12:44.38	317.76	13.55	-42.7	-45.3	17.9	0.00e+00	0	37	0	352321536	56	5000
2026-01-24 02:12:45.52	317.53	13.55	-42.8	-45.4	17.8	0.00e+00	0	37	0	354418688	56	5059
2026-01-24 02:12:46.37	317.36	13.55	-42.8	-45.4	17.8	0.00e+00	0	37	0	356515840	56	5052
2026-01-24 02:12:47.51	317.13	13.54	-42.8	-45.4	17.7	0.00e+00	0	37	0	358612992	56	5099
2026-01-24 02:12:48.36	316.95	13.54	-42.6	-45.3	17.8	0.00e+00	0	37	0	359661568	56	5016
2026-01-24 02:12:49.50	316.72	13.54	-42.6	-45.3	17.9	0.00e+00	0	37	0	361758720	56	4986
2026-01-24 02:12:50.36	316.55	13.53	-42.6	-45.3	17.9	0.00e+00	0	37	0	363855872	56	5029
2026-01-24 02:12:51.50	316.32	13.53	-42.6	-45.3	17.9	0.00e+00	0	37	0	365953024	56	5029
2026-01-24 02:12:52.35	316.15	13.52	-42.5	-45.2	17.9	0.00e+00	0	37	0	367001600	56	4977
2026-01-24 02:12:53.49	315.92	13.52	-42.4	-45.1	18.1	0.00e+00	0	37	0	370147328	56	4876
2026-01-24 02:12:54.34	315.75	13.51	-42.5	-45.2	18.0	0.00e+00	0	37	0	371195904	56	4933
2026-01-24 02:12:55.48	315.52	13.51	-42.7	-45.2	17.9	0.00e+00	0	38	0	373293056	56	4978
2026-01-24 02:12:56.33	315.35	13.50	-42.7	-45.3	17.9	0.00e+00	0	37	0	375390208	56	4988
2026-01-24 02:12:57.52	315.11	13.49	-42.8	-45.4	17.8	0.00e+00	0	37	0	377487360	56	5062
2026-01-24 02:12:58.37	314.94	13.49	-42.8	-45.5	17.7	0.00e+00	0	37	0	378535936	56	5109
2026-01-24 02:12:59.50	314.71	13.48	-43.0	-45.7	17.5	0.00e+00	0	37	0	380633088	56	5235
2026-01-24 02:13:00.35	314.54	13.47	-43.1	-45.9	17.3	0.00e+00	0	37	0	382730240	56	5378
2026-01-24 02:13:01.61	314.29	13.46	-43.1	-45.9	17.3	0.00e+00	0	37	0	384827392	56	5367
2026-01-24 02:13:02.40	314.13	13.45	-43.2	-46.0	17.1	0.00e+00	0	37	0	385875968	57	5159
2026-01-24 02:13:03.60	313.89	13.44	-43.3	-46.1	17.0	0.00e+00	0	37	0	389021696	57	5197
2026-01-24 02:13:04.46	313.72	13.43	-43.3	-46.1	17.0	0.00e+00	0	37	0	390070272	57	5211
2026-01-24 02:13:05.59	313.49	13.42	-43.3	-46.2	17.0	0.00e+00	0	37	0	392167424	57	5230
2026-01-24 02:13:06.44	313.32	13.42	-43.3	-46.2	17.0	0.00e+00	0	37	0	394264576	57	5223
2026-01-24 02:13:07.58	313.10	13.40	-43.4	-46.2	16.9	0.00e+00	0	37	0	396361728	57	5265
2026-01-24 02:13:08.44	312.92	13.39	-43.4	-46.2	16.9	0.00e+00	0	37	0	397410304	57	5255
2026-01-24 02:13:09.57	312.70	13.38	-43.4	-46.2	17.0	0.00e+00	0	38	0	399507456	57	5268
2026-01-24 02:13:10.42	312.53	13.37	-43.3	-46.1	17.0	0.00e+00	0	37	0	401604608	57	5185
2026-01-24 02:13:11.56	312.30	13.36	-43.3	-46.1	17.0	0.00e+00	0	37	0	403701760	57	5208
2026-01-24 02:13:12.41	312.13	13.35	-43.2	-46.0	17.2	0.00e+00	0	38	0	404750336	57	5131
2026-01-24 02:13:13.55	311.91	13.34	-43.3	-46.1	17.1	0.00e+00	0	38	0	406847488	57	5192
2026-01-24 02:13:14.40	311.74	13.32	-43.4	-46.2	16.9	0.00e+00	0	37	0	408944640	57	5248
2026-01-24 02:13:15.54	311.51	13.31	-43.4	-46.3	16.9	0.00e+00	0	37	0	411041792	57	5289
2026-01-24 02:13:16.40	311.34	13.30	-43.4	-46.3	16.9	0.00e+00	0	37	0	412090368	57	5292
2026-01-24 02:13:17.53	311.12	13.28	-43.4	-46.3	16.9	0.00e+00	0	37	0	415236096	57	5299
2026-01-24 02:13:18.38	310.95	13.27	-43.5	-46.3	16.9	0.00e+00	0	37	0	416284672	57	5315
2026-01-24 02:13:19.52	310.72	13.25	-43.5	-46.4	16.8	0.00e+00	0	37	0	418381824	57	5357
2026-01-24 02:13:20.37	310.56	13.24	-43.5	-46.3	16.9	0.00e+00	0	37	0	420478976	57	5322
2026-01-24 02:13:21.62	310.31	13.22	-43.4	-46.2	16.9	0.00e+00	0	37	0	422576128	57	5261
2026-01-24 02:13:22.47	310.14	13.21	-43.4	-46.2	16.9	0.00e+00	0	37	0	423624704	57	5263
2026-01-24 02:13:23.61	309.92	13.19	-43.4	-46.3	16.9	0.00e+00	0	37	0	425721856	57	5287
2026-01-24 02:13:24.46	309.75	13.18	-43.3	-46.2	17.0	0.00e+00	0	37	0	427819008	57	5230
2026-01-24 02:13:25.60	309.53	13.16	-43.4	-46.2	16.9	0.00e+00	0	37	0	429916160	57	5277
2026-01-24 02:13:26.46	309.36	13.15	-43.4	-46.2	16.9	0.00e+00	0	37	0	430964736	57	5247
2026-01-24 02:13:27.60	309.13	13.13	-43.4	-46.3	16.8	0.00e+00	0	38	0	433061888	57	5303
2026-01-24 02:13:28.45	308.97	13.11	-43.5	-46.4	16.8	0.00e+00	0	37	0	435159040	57	5362
2026-01-24 02:13:29.59	308.74	13.09	-43.4	-46.2	16.9	0.00e+00	0	37	0	437256192	57	5279
2026-01-24 02:13:30.60	308.55	13.07	-43.5	-46.3	16.8	0.00e+00	0	37	0	439353344	57	5328
2026-01-24 02:13:31.77	308.32	13.05	-43.4	-46.3	16.9	0.00e+00	0	37	0	441450496	57	5286
2026-01-24 02:13:32.62	308.15	13.04	-43.3	-46.2	17.0	0.00e+00	0	37	0	443547648	57	5226
2026-01-24 02:13:33.98	307.89	13.01	-43.3	-46.1	17.0	0.00e+00	0	37	0	445644800	57	5183
2026-01-24 02:13:34.69	307.75	13.00	-43.4	-46.2	16.9	0.00e+00	0	37	0	446693376	57	5268
2026-01-24 02:13:36.17	307.46	12.97	-43.2	-45.8	17.3	0.00e+00	0	37	0	449839104	57	5020
2026-01-24 02:13:36.88	307.32	12.96	-43.2	-45.8	17.3	0.00e+00	0	38	0	450887680	57	5030
2026-01-24 02:13:38.24	307.06	12.93	-43.2	-45.9	17.2	0.00e+00	0	38	0	454033408	57	5077
2026-01-24 02:13:38.95	306.92	12.91	-43.3	-46.0	17.1	0.00e+00	0	37	0	455081984	57	5134
2026-01-24 02:13:40.28	306.67	12.89	-43.4	-46.2	17.0	0.00e+00	0	38	0	457179136	57	5245
2026-01-24 02:13:40.99	306.53	12.87	-43.4	-46.2	17.0	0.00e+00	0	37	0	458227712	57	5257
2026-01-24 02:13:42.27	306.28	12.84	-43.5	-46.3	16.8	0.00e+00	0	37	0	461373440	57	5326
2026-01-24 02:13:42.98	306.15	12.83	-43.5	-46.4	16.8	0.00e+00	0	37	0	462422016	57	5346
2026-01-24 02:13:44.26	305.90	12.80	-43.5	-46.3	16.8	0.00e+00	0	37	0	464519168	57	5306
2026-01-24 02:13:44.97	305.77	12.78	-43.6	-46.4	16.8	0.00e+00	0	37	0	466616320	57	5377
2026-01-24 02:13:46.25	305.52	12.76	-43.4	-46.2	16.9	0.00e+00	0	37	0	468713472	57	5257
2026-01-24 02:13:46.96	305.39	12.74	-43.4	-46.2	17.0	0.00e+00	0	37	0	469762048	57	5238
2026-01-24 02:13:48.24	305.14	12.71	-43.5	-46.2	16.9	0.00e+00	0	37	0	471859200	57	5272
2026-01-24 02:13:48.95	305.01	12.69	-43.3	-46.1	17.0	0.00e+00	0	38	0	473956352	57	5191
2026-01-24 02:13:50.22	304.77	12.66	-43.3	-46.0	17.1	0.00e+00	0	38	0	476053504	57	5143
2026-01-24 02:13:50.94	304.63	12.65	-43.3	-46.1	17.0	0.00e+00	0	37	0	477102080	57	5197
2026-01-24 02:13:52.21	304.39	12.61	-43.4	-46.2	16.9	0.00e+00	0	37	0	480247808	57	5266
2026-01-24 02:13:53.08	304.22	12.59	-43.4	-46.3	16.9	0.00e+00	0	37	0	481296384	57	5307
2026-01-24 02:13:54.54	303.95	12.56	-43.6	-46.4	16.7	0.00e+00	0	38	0	484442112	57	5378
2026-01-24 02:13:55.25	303.81	12.54	-43.6	-46.5	16.6	0.00e+00	0	37	0	485490688	57	5423
2026-01-24 02:13:56.53	303.57	12.51	-43.6	-46.5	16.6	0.00e+00	0	37	0	487587840	57	5448
2026-01-24 02:13:57.24	303.44	12.49	-43.7	-46.6	16.6	0.00e+00	0	37	0	489684992	57	5470
2026-01-24 02:13:58.52	303.20	12.45	-43.7	-46.6	16.6	0.00e+00	0	37	0	491782144	58	5187
2026-01-24 02:13:59.25	303.06	12.44	-43.7	-46.6	16.5	0.00e+00	0	37	0	492830720	58	5213
2026-01-24 02:14:00.53	302.82	12.40	-43.7	-46.6	16.5	0.00e+00	0	37	0	494927872	58	5202
2026-01-24 02:14:01.24	302.69	12.38	-43.8	-46.7	16.5	0.00e+00	0	37	0	497025024	58	5219
2026-01-24 02:14:02.52	302.45	12.35	-43.8	-46.8	16.4	0.00e+00	0	38	0	499122176	58	5281
2026-01-24 02:14:03.23	302.32	12.33	-43.8	-46.7	16.5	0.00e+00	0	38	0	500170752	58	5221
2026-01-24 02:14:04.51	302.08	12.29	-43.7	-46.5	16.6	0.00e+00	0	38	0	502267904	58	5159
2026-01-24 02:14:05.25	301.95	12.27	-43.6	-46.4	16.7	0.00e+00	0	37	0	504365056	58	5097
2026-01-24 02:14:06.53	301.71	12.24	-43.6	-46.4	16.7	0.00e+00	0	37	0	506462208	58	5086
2026-01-24 02:14:07.24	301.58	12.22	-43.6	-46.4	16.7	0.00e+00	0	37	0	507510784	58	5059
2026-01-24 02:14:08.64	301.32	12.18	-43.6	-46.4	16.8	0.00e+00	0	37	0	510656512	58	5053
2026-01-24 02:14:09.36	301.19	12.16	-43.5	-46.3	16.8	0.00e+00	0	37	0	511705088	58	5005
2026-01-24 02:14:10.63	300.96	12.12	-43.6	-46.4	16.7	0.00e+00	0	37	0	513802240	58	5078
2026-01-24 02:14:11.36	300.82	12.10	-43.7	-46.5	16.6	0.00e+00	0	38	0	515899392	58	5138
2026-01-24 02:14:12.75	300.57	12.06	-43.8	-46.7	16.5	0.00e+00	0	37	0	517996544	58	5244
2026-01-24 02:14:13.46	300.44	12.03	-43.9	-46.8	16.4	0.00e+00	0	38	0	520093696	58	5308
2026-01-24 02:14:14.74	300.21	12.00	-43.9	-46.9	16.3	0.00e+00	0	37	0	522190848	58	5355
2026-01-24 02:14:15.47	300.08	11.97	-43.9	-46.9	16.2	0.00e+00	0	37	0	523239424	58	5362
2026-01-24 02:14:16.74	299.85	11.93	-43.8	-46.8	16.3	0.00e+00	0	37	0	525336576	58	5299
2026-01-24 02:14:17.47	299.72	11.91	-43.8	-46.7	16.4	0.00e+00	0	37	0	527433728	58	5269
2026-01-24 02:14:18.75	299.48	11.87	-43.7	-46.5	16.6	0.00e+00	0	38	0	529530880	58	5141
2026-01-24 02:14:19.47	299.36	11.85	-43.6	-46.5	16.7	0.00e+00	0	38	0	530579456	58	5106
2026-01-24 02:14:20.75	299.13	11.81	-43.5	-46.3	16.9	0.00e+00	0	38	0	533725184	58	5012
2026-01-24 02:14:21.46	299.00	11.79	-43.5	-46.3	16.8	0.00e+00	0	38	0	534773760	58	5024
2026-01-24 02:14:22.74	298.77	11.74	-43.4	-46.2	16.9	0.00e+00	0	37	0	536870912	58	4939
2026-01-24 02:14:23.48	298.64	11.72	-43.4	-46.1	17.0	0.00e+00	0	38	0	537919488	58	4879
2026-01-24 02:14:24.76	298.41	11.68	-43.4	-46.2	16.9	0.00e+00	0	38	0	541065216	58	4948
2026-01-24 02:14:25.47	298.28	11.66	-43.4	-46.2	17.0	0.00e+00	0	37	0	542113792	58	4951
2026-01-24 02:14:26.77	298.05	11.61	-43.4	-46.1	16.9	0.00e+00	0	37	0	544210944	58	4925
2026-01-24 02:14:27.48	297.93	11.59	-43.5	-46.2	16.9	0.00e+00	0	37	0	546308096	58	4971
2026-01-24 02:14:28.76	297.70	11.55	-43.4	-46.1	17.0	0.00e+00	0	38	0	548405248	58	4926
2026-01-24 02:14:29.50	297.57	11.52	-43.3	-46.1	17.0	0.00e+00	0	37	0	549453824	58	4884
2026-01-24 02:14:30.78	297.35	11.48	-43.5	-46.2	16.9	0.00e+00	0	37	0	551550976	58	4970
2026-01-24 02:14:31.51	297.22	11.45	-43.4	-46.2	17.0	0.00e+00	0	37	0	553648128	58	4939
2026-01-24 02:14:32.79	297.00	11.41	-43.4	-46.1	17.0	0.00e+00	0	38	0	555745280	58	4897
2026-01-24 02:14:33.50	296.87	11.38	-43.3	-46.0	17.1	0.00e+00	0	37	0	556793856	58	4859
2026-01-24 02:14:34.78	296.65	11.34	-43.3	-46.0	17.1	0.00e+00	0	37	0	559939584	58	4828
2026-01-24 02:14:35.50	296.53	11.32	-43.3	-46.0	17.1	0.00e+00	0	38	0	560988160	58	4832
2026-01-24 02:14:36.78	296.31	11.27	-43.2	-45.9	17.2	0.00e+00	0	37	0	563085312	58	4799
2026-01-24 02:14:37.59	296.17	11.24	-43.2	-45.8	17.3	0.00e+00	0	37	0	565182464	58	4749
2026-01-24 02:14:38.72	295.97	11.20	-43.2	-45.9	17.2	0.00e+00	0	37	0	567279616	58	4761
2026-01-24 02:14:39.58	295.82	11.17	-43.2	-45.9	17.2	0.00e+00	0	37	0	568328192	58	4796
2026-01-24 02:14:40.71	295.63	11.13	-43.3	-46.0	17.1	0.00e+00	0	38	0	570425344	58	4857
2026-01-24 02:14:41.82	295.44	11.09	-43.3	-46.0	17.1	0.00e+00	0	37	0	572522496	58	4862
2026-01-24 02:14:42.84	295.27	11.05	-43.2	-45.9	17.2	0.00e+00	0	37	0	574619648	58	4811
2026-01-24 02:14:43.84	295.10	11.02	-43.3	-46.0	17.1	0.00e+00	0	37	0	576716800	58	4854
2026-01-24 02:14:44.84	294.93	10.98	-43.3	-46.1	17.1	0.00e+00	0	38	0	578813952	58	4880
2026-01-24 02:14:45.83	294.76	10.94	-43.3	-46.1	17.1	0.00e+00	0	38	0	579862528	58	4872
2026-01-24 02:14:46.82	294.59	10.91	-43.3	-46.0	17.1	0.00e+00	0	37	0	581959680	58	4868
2026-01-24 02:14:47.82	294.43	10.87	-43.3	-46.0	17.1	0.00e+00	0	37	0	584056832	58	4868
2026-01-24 02:14:48.81	294.26	10.83	-43.3	-46.0	17.2	0.00e+00	0	37	0	586153984	58	4824
2026-01-24 02:14:49.81	294.09	10.79	-43.2	-45.9	17.2	0.00e+00	0	37	0	587202560	58	4785
2026-01-24 02:14:50.80	293.93	10.76	-43.2	-45.9	17.2	0.00e+00	0	38	0	589299712	58	4796
2026-01-24 02:14:51.79	293.76	10.72	-43.2	-45.9	17.3	0.00e+00	0	37	0	591396864	58	4773
2026-01-24 02:14:52.87	293.58	10.68	-43.2	-45.8	17.3	0.00e+00	0	37	0	593494016	58	4754
2026-01-24 02:14:53.77	293.43	10.64	-43.1	-45.7	17.4	0.00e+00	0	37	0	595591168	58	4689
2026-01-24 02:14:54.87	293.25	10.60	-43.1	-45.8	17.3	0.00e+00	0	37	0	597688320	58	4724
2026-01-24 02:14:55.72	293.11	10.57	-43.2	-45.8	17.3	0.00e+00	0	37	0	598736896	58	4741
2026-01-24 02:14:56.86	292.92	10.52	-43.2	-45.9	17.2	0.00e+00	0	37	0	600834048	58	4773
2026-01-24 02:14:57.71	292.79	10.49	-43.3	-46.0	17.1	0.00e+00	0	37	0	602931200	58	4842
2026-01-24 02:14:58.85	292.60	10.45	-43.4	-46.2	16.9	0.00e+00	0	37	0	605028352	58	4958
2026-01-24 02:14:59.70	292.46	10.41	-43.5	-46.3	16.8	0.00e+00	0	38	0	606076928	58	5023
2026-01-24 02:15:00.84	292.28	10.37	-43.7	-46.5	16.6	0.00e+00	0	37	0	608174080	58	5136
2026-01-24 02:15:01.69	292.14	10.33	-43.8	-46.7	16.4	0.00e+00	0	37	0	610271232	58	5243
2026-01-24 02:15:02.83	291.95	10.29	-43.8	-46.8	16.4	0.00e+00	0	37	0	612368384	58	5285
2026-01-24 02:15:03.68	291.82	10.25	-43.8	-46.7	16.4	0.00e+00	0	37	0	613416960	58	5260
2026-01-24 02:15:04.82	291.63	10.21	-43.8	-46.8	16.3	0.00e+00	0	37	0	615514112	58	5293
2026-01-24 02:15:05.67	291.50	10.17	-43.8	-46.7	16.4	0.00e+00	0	37	0	617611264	58	5263
2026-01-24 02:15:06.81	291.31	10.13	-43.8	-46.7	16.3	0.00e+00	0	37	0	619708416	58	5269
2026-01-24 02:15:07.66	291.18	10.09	-43.8	-46.7	16.4	0.00e+00	0	37	0	620756992	58	5247
2026-01-24 02:15:08.96	290.97	10.04	-43.9	-46.8	16.3	0.00e+00	0	37	0	623902720	58	5304
2026-01-24 02:15:09.67	290.86	10.01	-43.8	-46.8	16.3	0.00e+00	0	37	0	624951296	58	5287
2026-01-24 02:15:11.15	290.63	9.95	-44.0	-47.0	16.1	0.00e+00	0	37	0	628097024	58	5414
2026-01-24 02:15:12.15	290.47	9.91	-44.1	-47.1	16.0	0.00e+00	0	37	0	629145600	58	5490
2026-01-24 02:15:13.47	290.26	9.86	-44.1	-47.1	16.0	0.00e+00	0	37	0	632291328	58	5522
2026-01-24 02:15:14.18	290.15	9.83	-44.2	-47.2	15.9	0.00e+00	0	37	0	633339904	59	5269
2026-01-24 02:15:15.84	289.89	9.76	-44.3	-47.5	15.6	0.00e+00	0	37	0	636485632	59	5405
2026-01-24 02:15:16.41	289.80	9.73	-44.4	-47.6	15.5	0.00e+00	0	37	0	637534208	59	5474
2026-01-24 02:15:18.11	289.54	9.66	-44.5	-47.8	15.3	0.00e+00	0	37	0	640679936	59	5594
2026-01-24 02:15:18.75	289.44	9.64	-44.5	-47.8	15.3	0.00e+00	0	37	0	641728512	59	5616
2026-01-24 02:15:20.26	289.21	9.57	-44.6	-47.8	15.2	0.00e+00	0	37	0	644874240	59	5645
2026-01-24 02:15:20.97	289.10	9.54	-44.6	-47.9	15.2	0.00e+00	0	37	0	645922816	59	5666
2026-01-24 02:15:22.25	288.90	9.49	-44.6	-47.9	15.1	0.00e+00	0	37	0	648019968	59	5714
2026-01-24 02:15:22.96	288.80	9.46	-44.6	-47.8	15.2	0.00e+00	0	38	0	650117120	59	5656
2026-01-24 02:15:24.24	288.60	9.40	-44.5	-47.8	15.3	0.00e+00	0	37	0	652214272	59	5594
2026-01-24 02:15:24.96	288.49	9.37	-44.5	-47.8	15.3	0.00e+00	0	37	0	653262848	59	5638
2026-01-24 02:15:26.24	288.30	9.32	-44.5	-47.8	15.3	0.00e+00	0	37	0	656408576	59	5639
2026-01-24 02:15:26.96	288.19	9.29	-44.6	-47.9	15.1	0.00e+00	0	37	0	657457152	59	5719
2026-01-24 02:15:28.24	288.00	9.23	-44.6	-48.0	15.0	0.00e+00	0	37	0	659554304	60	5448
2026-01-24 02:15:28.95	287.89	9.20	-44.7	-48.2	14.9	0.00e+00	0	37	0	660602880	60	5549
2026-01-24 02:15:30.23	287.70	9.14	-44.8	-48.3	14.9	0.00e+00	0	37	0	663748608	60	5595
2026-01-24 02:15:30.94	287.59	9.11	-44.8	-48.3	14.9	0.00e+00	0	37	0	664797184	60	5600
2026-01-24 02:15:32.27	287.40	9.06	-44.8	-48.3	14.8	0.00e+00	0	37	0	666894336	60	5640
2026-01-24 02:15:32.98	287.29	9.02	-44.9	-48.4	14.7	0.00e+00	0	37	0	668991488	60	5691
2026-01-24 02:15:34.26	287.10	8.97	-49.2	-64.0	3.8	3.78e-01	0	37	104	670040064	68	21632
2026-01-24 02:15:34.97	287.00	8.94	-49.4	-64.5	3.8	1.49e+00	0	37	104	670040064	69	21738
2026-01-24 02:15:36.25	286.81	8.88	-49.4	-64.7	3.8	1.49e+00	0	37	104	670040064	69	22224
2026-01-24 02:15:36.96	286.71	8.85	-49.6	-64.8	3.8	1.49e+00	0	37	104	670040064	69	22508
2026-01-24 02:15:38.23	286.52	8.79	-49.7	-64.9	3.8	1.49e+00	0	37	104	670040064	69	22696
2026-01-24 02:15:38.94	286.42	8.76	-49.7	-65.0	3.8	1.49e+00	0	37	104	670040064	70	21525
2026-01-24 02:15:40.22	286.23	8.70	-49.6	-65.0	3.8	1.49e+00	0	37	104	670040064	70	21639
2026-01-24 02:15:40.98	286.12	8.67	-49.7	-65.0	3.8	1.49e+00	0	38	104	670040064	70	21674
2026-01-24 02:15:42.26	285.94	8.61	-49.8	-65.0	3.8	1.49e+00	0	37	104	670040064	70	21659
2026-01-24 02:15:43.04	285.83	8.58	-49.8	-65.1	3.8	1.49e+00	0	37	104	670040064	70	21820
2026-01-24 02:15:44.32	285.64	8.52	-49.9	-65.1	3.8	1.49e+00	0	38	104	670040064	70	21787
2026-01-24 02:15:45.11	285.53	8.49	-49.9	-65.1	3.8	1.49e+00	0	37	104	670040064	70	21813
2026-01-24 02:15:46.37	285.35	8.43	-49.8	-65.1	3.8	1.49e+00	0	37	104	670040064	70	21814
2026-01-24 02:15:47.22	285.23	8.39	-49.7	-65.1	3.8	1.49e+00	0	37	104	670040064	70	21881
2026-01-24 02:15:48.58	285.04	8.33	-49.7	-65.1	3.8	1.49e+00	0	38	104	670040064	70	21823
2026-01-24 02:15:49.29	284.94	8.30	-49.7	-65.1	3.8	1.49e+00	0	37	104	670040064	70	21786
2026-01-24 02:15:50.79	284.73	8.23	-49.7	-65.1	3.8	1.49e+00	0	38	104	670040064	70	21764
2026-01-24 02:15:51.50	284.63	8.20	-49.7	-65.1	3.8	1.49e+00	0	38	104	670040064	70	21811
2026-01-24 02:15:52.84	284.44	8.14	-49.7	-65.0	3.8	1.49e+00	0	38	104	670040064	70	21719
2026-01-24 02:15:53.54	284.35	8.10	-49.7	-65.0	3.8	1.49e+00	0	38	104	670040064	70	21752
2026-01-24 02:15:54.87	284.16	8.04	-49.7	-65.0	3.8	1.49e+00	0	37	104	670040064	70	21653
2026-01-24 02:15:55.58	284.06	8.01	-49.6	-65.0	3.8	1.49e+00	0	38	104	670040064	70	21551
2026-01-24 02:15:56.86	283.89	7.95	-49.6	-65.0	3.8	1.49e+00	0	38	104	670040064	70	21581
2026-01-24 02:15:57.57	283.79	7.92	-49.6	-65.0	3.8	1.49e+00	0	38	104	670040064	70	21556
2026-01-24 02:15:58.85	283.62	7.86	-49.6	-65.0	3.8	1.49e+00	0	38	104	670040064	70	21540
2026-01-24 02:15:59.56	283.52	7.83	-49.6	-65.0	3.8	1.49e+00	0	38	104	670040064	70	21534
2026-01-24 02:16:00.83	283.35	7.77	-49.6	-64.9	3.8	1.49e+00	0	37	104	670040064	70	21470
2026-01-24 02:16:01.54	283.25	7.74	-49.6	-64.9	3.8	1.49e+00	0	38	104	670040064	70	21429
2026-01-24 02:16:02.82	283.08	7.68	-49.6	-64.9	3.8	1.49e+00	0	38	104	670040064	70	21489
2026-01-24 02:16:03.53	282.98	7.64	-49.6	-65.0	3.8	1.49e+00	0	38	104	670040064	70	21513
2026-01-24 02:16:04.81	282.81	7.59	-49.6	-64.9	3.8	1.49e+00	0	38	104	670040064	70	21505
2026-01-24 02:16:05.52	282.72	7.55	-49.6	-64.9	3.8	1.49e+00	0	38	104	670040064	70	21473
2026-01-24 02:16:06.79	282.55	7.49	-49.6	-64.9	3.8	1.49e+00	0	38	104	670040064	70	21497
2026-01-24 02:16:07.50	282.45	7.46	-49.6	-64.9	3.8	1.49e+00	0	37	104	670040064	70	21495
2026-01-24 02:16:08.78	282.28	7.40	-49.6	-64.9	3.8	1.49e+00	0	38	104	670040064	70	21437
2026-01-24 02:16:09.51	282.19	7.37	-49.6	-64.9	3.8	1.49e+00	0	38	104	670040064	70	21500
2026-01-24 02:16:10.78	282.02	7.31	-49.6	-65.0	3.8	1.49e+00	0	38	104	670040064	70	21546
2026-01-24 02:16:11.49	281.93	7.27	-49.6	-64.9	3.8	1.49e+00	0	38	104	670040064	70	21455
2026-01-24 02:16:12.77	281.76	7.21	-49.6	-64.9	3.8	1.49e+00	0	37	104	670040064	70	21436
2026-01-24 02:16:13.48	281.67	7.18	-49.6	-64.9	3.8	1.49e+00	0	38	104	670040064	70	21410
2026-01-24 02:16:14.76	281.50	7.12	-49.6	-64.9	3.8	1.49e+00	0	37	104	670040064	70	21392
2026-01-24 02:16:15.50	281.41	7.09	-49.6	-64.9	3.8	1.49e+00	0	38	104	670040064	70	21436
2026-01-24 02:16:16.77	281.24	7.03	-49.6	-64.9	3.8	1.49e+00	0	38	104	670040064	70	21436
2026-01-24 02:16:17.48	281.15	6.99	-49.6	-64.9	3.8	1.49e+00	0	37	104	670040064	70	21382
2026-01-24 02:16:18.76	280.99	6.93	-49.6	-64.9	3.8	1.49e+00	0	38	104	670040064	70	21332
2026-01-24 02:16:19.48	280.90	6.90	-49.6	-64.9	3.8	1.49e+00	0	38	104	670040064	70	21402
2026-01-24 02:16:20.76	280.73	6.84	-49.6	-64.9	3.8	1.49e+00	0	38	104	670040064	70	21357
2026-01-24 02:16:21.49	280.64	6.80	-49.6	-64.9	3.8	1.49e+00	0	38	104	670040064	70	21355
2026-01-24 02:16:22.76	280.48	6.74	-49.6	-64.9	3.8	1.49e+00	0	38	104	670040064	70	21318
2026-01-24 02:16:23.47	280.39	6.71	-49.6	-64.9	3.8	1.49e+00	0	37	104	670040064	70	21339
2026-01-24 02:16:24.75	280.23	6.65	-49.6	-64.9	3.8	1.49e+00	0	37	104	670040064	70	21407
2026-01-24 02:16:25.46	280.14	6.62	-49.5	-64.9	3.8	1.49e+00	0	37	104	670040064	70	21370
2026-01-24 02:16:26.74	279.98	6.56	-49.6	-64.9	3.8	1.49e+00	0	38	104	670040064	70	21334
2026-01-24 02:16:27.45	279.89	6.52	-49.6	-64.9	3.8	1.49e+00	0	38	104	670040064	70	21332
2026-01-24 02:16:28.74	279.73	6.46	-49.6	-64.9	3.8	1.49e+00	0	38	104	670040064	70	21356
2026-01-24 02:16:29.45	279.64	6.43	-49.6	-64.9	3.8	1.49e+00	0	38	104	670040064	70	21336
2026-01-24 02:16:30.73	279.49	6.37	-49.5	-64.9	3.8	1.49e+00	0	38	104	670040064	70	21341
2026-01-24 02:16:31.44	279.40	6.33	-49.5	-64.9	3.8	1.49e+00	0	37	104	670040064	70	21340
2026-01-24 02:16:32.71	279.24	6.27	-49.5	-64.9	3.8	1.49e+00	0	38	104	670040064	70	21364
2026-01-24 02:16:33.44	279.16	6.24	-49.6	-64.9	3.8	1.49e+00	0	38	104	670040064	70	21321
2026-01-24 02:16:34.71	279.00	6.18	-49.6	-64.9	3.8	1.49e+00	0	37	104	670040064	70	21302
2026-01-24 02:16:35.42	278.92	6.14	-49.6	-64.9	3.8	1.49e+00	0	38	104	670040064	70	21315
2026-01-24 02:16:36.72	278.76	6.08	-49.5	-64.9	3.8	1.49e+00	0	38	104	670040064	70	21360
2026-01-24 02:16:37.42	278.67	6.05	-49.5	-64.9	3.8	1.49e+00	0	38	104	670040064	70	21373
2026-01-24 02:16:38.70	278.52	5.98	-49.5	-64.8	3.8	1.49e+00	0	38	104	670040064	70	21192
2026-01-24 02:16:39.41	278.44	5.95	-49.5	-64.9	3.8	1.49e+00	0	37	104	670040064	70	21298
2026-01-24 02:16:40.70	278.28	5.89	-49.5	-64.9	3.8	1.49e+00	0	37	104	670040064	70	21328
2026-01-24 02:16:41.41	278.20	5.85	-49.5	-64.9	3.8	1.49e+00	0	37	104	670040064	70	21314
2026-01-24 02:16:42.71	278.04	5.79	-49.5	-64.9	3.8	1.49e+00	0	38	104	670040064	70	21309
2026-01-24 02:16:43.42	277.96	5.76	-49.6	-64.9	3.8	1.49e+00	0	38	104	670040064	70	21334
2026-01-24 02:16:44.69	277.81	5.70	-49.6	-64.9	3.8	1.49e+00	0	38	104	670040064	70	21317
2026-01-24 02:16:45.40	277.73	5.66	-49.5	-64.9	3.8	1.49e+00	0	37	104	670040064	70	21395
2026-01-24 02:16:46.68	277.58	5.60	-49.6	-64.9	3.8	1.49e+00	0	38	104	670040064	70	21404
2026-01-24 02:16:47.39	277.50	5.57	-49.6	-64.9	3.8	1.49e+00	0	37	104	670040064	70	21304
2026-01-24 02:16:48.67	277.35	5.51	-49.6	-64.9	3.8	1.49e+00	0	38	104	670040064	70	21348
2026-01-24 02:16:49.38	277.27	5.47	-49.6	-64.9	3.8	1.49e+00	0	38	104	670040064	70	21343
2026-01-24 02:16:50.66	277.12	5.41	-49.5	-64.9	3.8	1.49e+00	0	38	104	670040064	70	21364
2026-01-24 02:16:51.37	277.04	5.38	-49.5	-64.9	3.8	1.49e+00	0	38	104	670040064	70	21344
2026-01-24 02:16:52.64	276.89	5.31	-49.6	-64.9	3.8	1.49e+00	0	38	104	670040064	70	21316
2026-01-24 02:16:53.35	276.81	5.28	-49.5	-64.9	3.8	1.49e+00	0	38	104	670040064	70	21321
2026-01-24 02:16:54.65	276.66	5.22	-49.5	-64.9	3.8	1.49e+00	0	38	104	670040064	70	21302
2026-01-24 02:16:55.36	276.58	5.18	-49.5	-64.8	3.8	1.49e+00	0	38	104	670040064	70	21241
2026-01-24 02:16:56.63	276.44	5.12	-49.5	-64.9	3.8	1.49e+00	0	38	104	670040064	70	21321
2026-01-24 02:16:57.34	276.36	5.09	-49.5	-64.9	3.8	1.49e+00	0	38	104	670040064	70	21311
2026-01-24 02:16:58.62	276.22	5.03	-49.5	-64.8	3.8	1.49e+00	0	38	104	670040064	70	21259
2026-01-24 02:16:59.33	276.14	4.99	-49.6	-64.8	3.8	1.49e+00	0	38	104	670040064	70	21234

#Closed at: 2026-01-24 02:17:00
#Recorded file [670 MB]: D:/Data/31040_260124_050815.dat