passes_logs/2026/01/24/T1/T1__20260124_002718_NOAA_20_JPSS-1_rec.log

#Pass ID: 20260124_002718_NOAA 20 (JPSS-1)
#Satellite: NOAA 20 (JPSS-1)
#Configuration: NOAA 20
#almurnet v.1.7.20251203
#Start time: 2026-01-24 00:27:19

#Version: 2.0.20230620
#Station: T1
#Location: 37.570604 lon 55.790049 lat
#TLE: 1 43013U 17073A   26022.94240312  .00000200  00000+0  11574-3 0  9998
#TLE: 2 43013  98.7645 323.7982 0001179  28.0279 332.0961 14.19539020423863

#Time	Az	El	Level	Level2	SNR	BER	BlckErr	Temp	State	Recorded	gain1	gain2
2026-01-24 00:27:19.41	11.64	5.07	-44.4	-63.4	3.8	1.49e+00	0	36	0	0	60	31834
2026-01-24 00:27:20.40	11.60	5.13	-44.4	-63.4	3.8	1.49e+00	0	36	104	0	60	31835
2026-01-24 00:27:21.39	11.57	5.20	-44.4	-63.4	3.8	1.49e+00	0	36	104	0	60	31835
2026-01-24 00:27:22.38	11.53	5.27	-44.4	-63.3	3.8	1.49e+00	0	36	104	0	60	31739
2026-01-24 00:27:23.38	11.49	5.34	-44.4	-63.4	3.8	1.49e+00	0	36	104	0	60	31838
2026-01-24 00:27:24.37	11.46	5.41	-44.4	-63.4	3.8	1.49e+00	0	36	104	0	60	31834
2026-01-24 00:27:25.36	11.42	5.48	-44.4	-63.3	3.8	1.49e+00	0	36	104	0	60	31805
2026-01-24 00:27:26.35	11.38	5.55	-44.4	-63.3	3.8	1.49e+00	0	36	104	0	60	31750
2026-01-24 00:27:27.35	11.35	5.62	-44.4	-63.3	3.8	1.49e+00	0	36	104	0	60	31719
2026-01-24 00:27:28.34	11.31	5.69	-44.4	-63.3	3.8	1.49e+00	0	36	104	0	60	31702
2026-01-24 00:27:29.33	11.27	5.76	-44.4	-63.3	3.8	1.49e+00	0	36	104	0	60	31646
2026-01-24 00:27:30.33	11.23	5.83	-44.4	-63.3	3.8	1.49e+00	0	36	104	0	60	31679
2026-01-24 00:27:31.32	11.19	5.90	-44.4	-63.3	3.8	1.49e+00	0	36	104	0	60	31773
2026-01-24 00:27:32.31	11.16	5.97	-44.4	-63.3	3.8	1.49e+00	0	36	104	0	60	31604
2026-01-24 00:27:33.31	11.12	6.04	-44.4	-63.3	3.8	1.49e+00	0	37	104	0	60	31650
2026-01-24 00:27:34.30	11.08	6.12	-44.4	-63.3	3.8	1.49e+00	0	36	104	0	60	31554
2026-01-24 00:27:35.29	11.04	6.19	-44.4	-63.3	3.8	1.49e+00	0	36	104	0	60	31531
2026-01-24 00:27:36.29	11.00	6.26	-44.4	-63.2	3.8	1.49e+00	0	37	104	0	60	31353
2026-01-24 00:27:37.28	10.96	6.33	-44.4	-63.1	3.8	1.49e+00	0	36	104	0	60	31076
2026-01-24 00:27:38.27	10.92	6.40	-44.4	-63.0	3.8	1.49e+00	0	36	104	0	60	30725
2026-01-24 00:27:39.27	10.88	6.47	-44.4	-62.8	3.8	1.49e+00	0	36	104	0	60	29981
2026-01-24 00:27:40.26	10.84	6.55	-44.4	-62.6	3.8	1.49e+00	0	37	104	0	60	29184
2026-01-24 00:27:41.25	10.80	6.62	-44.4	-62.3	3.8	1.49e+00	0	36	104	0	60	28290
2026-01-24 00:27:42.25	10.76	6.69	-44.4	-62.0	3.8	1.49e+00	0	36	104	0	60	27141
2026-01-24 00:27:43.24	10.72	6.76	-44.4	-61.7	3.8	1.49e+00	0	37	104	0	60	26157
2026-01-24 00:27:44.23	10.68	6.84	-44.3	-61.4	3.8	1.49e+00	0	37	104	0	60	25430
2026-01-24 00:27:45.23	10.64	6.91	-44.3	-61.1	3.8	1.49e+00	0	36	104	0	60	24681
2026-01-24 00:27:46.22	10.59	6.98	-44.3	-61.0	4.0	1.48e+00	0	37	104	0	60	24233
2026-01-24 00:27:47.21	10.55	7.06	-44.3	-61.0	3.8	1.48e+00	0	37	104	0	60	24393
2026-01-24 00:27:48.21	10.51	7.13	-44.3	-61.1	3.8	1.48e+00	0	37	104	0	60	24665
2026-01-24 00:27:49.20	10.47	7.21	-44.3	-61.4	3.8	1.49e+00	0	37	104	0	60	25313
2026-01-24 00:27:50.19	10.43	7.28	-44.4	-61.6	3.8	1.49e+00	0	37	104	0	60	26084
2026-01-24 00:27:51.18	10.38	7.35	-44.4	-62.0	3.8	1.49e+00	0	37	104	0	60	27202
2026-01-24 00:27:52.18	10.34	7.43	-44.4	-62.3	3.8	1.49e+00	0	37	104	0	60	28315
2026-01-24 00:27:53.17	10.30	7.50	-44.4	-62.7	3.8	1.49e+00	0	37	104	0	60	29524
2026-01-24 00:27:54.16	10.25	7.58	-44.4	-63.0	3.8	1.49e+00	0	37	104	0	60	30493
2026-01-24 00:27:55.16	10.21	7.65	-44.4	-63.2	3.8	1.49e+00	0	37	104	0	60	31310
2026-01-24 00:27:56.15	10.17	7.73	-44.4	-63.3	3.8	1.49e+00	0	37	104	0	60	31655
2026-01-24 00:27:57.14	10.12	7.81	-44.4	-63.2	3.8	1.49e+00	0	37	104	0	60	31161
2026-01-24 00:27:58.14	10.08	7.88	-44.4	-62.5	3.8	1.49e+00	0	37	104	0	60	28937
2026-01-24 00:27:59.13	10.03	7.96	-44.3	-61.2	3.8	1.49e+00	0	37	104	0	60	24836
2026-01-24 00:28:00.12	9.99	8.03	-44.3	-59.2	4.4	1.39e+00	0	37	0	0	60	19830
2026-01-24 00:28:01.12	9.94	8.11	-44.2	-57.1	5.4	7.65e-01	0	37	0	1048576	60	15577
2026-01-24 00:28:02.11	9.90	8.19	-44.0	-55.3	6.7	3.28e-01	0	37	0	3145728	60	12651
2026-01-24 00:28:03.10	9.85	8.26	-44.0	-53.6	8.3	1.19e-01	0	37	0	5242880	59	10988
2026-01-24 00:28:04.09	9.81	8.34	-43.8	-52.1	9.9	1.56e-02	0	37	0	7340032	59	9263
2026-01-24 00:28:05.09	9.76	8.42	-43.5	-50.9	11.2	3.18e-03	0	37	0	8388608	59	7995
2026-01-24 00:28:06.08	9.71	8.50	-43.2	-49.8	12.3	5.31e-04	0	37	0	10485760	58	7529
2026-01-24 00:28:07.07	9.67	8.57	-42.9	-49.0	13.1	4.50e-05	0	37	0	12582912	57	7235
2026-01-24 00:28:08.06	9.62	8.65	-42.7	-48.4	13.7	6.10e-06	0	37	0	14680064	57	6759
2026-01-24 00:28:09.06	9.57	8.73	-42.5	-48.1	14.1	4.50e-06	0	37	0	15728640	57	6496
2026-01-24 00:28:10.05	9.52	8.81	-42.5	-47.9	14.2	3.00e-06	0	37	0	17825792	57	6408
2026-01-24 00:28:11.04	9.48	8.89	-42.5	-48.0	14.2	7.00e-07	0	37	0	19922944	56	6813
2026-01-24 00:28:12.03	9.43	8.97	-42.6	-48.3	13.9	2.20e-06	0	37	0	22020096	56	7056
2026-01-24 00:28:13.03	9.38	9.05	-42.8	-48.8	13.4	3.80e-06	0	37	0	24117248	56	7468
2026-01-24 00:28:14.02	9.33	9.12	-43.2	-49.7	12.5	2.59e-05	0	37	0	25165824	56	8307
2026-01-24 00:28:15.08	9.28	9.21	-44.3	-55.3	6.7	7.10e-02	0	37	0	27262976	59	13338
2026-01-24 00:28:15.95	9.24	9.28	-41.5	-45.9	16.0	8.70e-04	0	37	0	29360128	55	5701
2026-01-24 00:28:17.26	9.17	9.39	-40.9	-44.5	17.4	0.00e+00	0	37	0	31457280	53	5460
2026-01-24 00:28:17.97	9.13	9.44	-43.7	-52.6	9.5	2.31e-03	0	37	0	32505856	58	10393
2026-01-24 00:28:19.24	9.07	9.55	-40.8	-44.5	17.5	7.00e-07	0	37	0	35651584	53	5412
2026-01-24 00:28:19.97	9.03	9.61	-40.8	-44.3	17.7	0.00e+00	0	37	0	36700160	53	5321
2026-01-24 00:28:21.25	8.97	9.71	-40.8	-44.3	17.7	0.00e+00	0	37	0	38797312	53	5319
2026-01-24 00:28:21.96	8.93	9.77	-40.8	-44.4	17.7	0.00e+00	0	37	0	40894464	53	5341
2026-01-24 00:28:23.24	8.86	9.87	-40.9	-44.3	17.8	0.00e+00	0	37	0	42991616	53	5287
2026-01-24 00:28:23.95	8.83	9.93	-40.9	-44.2	17.8	0.00e+00	0	37	0	44040192	53	5268
2026-01-24 00:28:25.22	8.76	10.04	-40.9	-44.3	17.8	0.00e+00	0	37	0	46137344	53	5287
2026-01-24 00:28:25.93	8.72	10.10	-40.9	-44.2	17.8	0.00e+00	0	37	0	48234496	53	5265
2026-01-24 00:28:27.21	8.66	10.20	-40.9	-44.2	17.8	0.00e+00	0	38	0	50331648	53	5247
2026-01-24 00:28:28.08	8.61	10.27	-41.0	-44.2	17.8	0.00e+00	0	37	0	52428800	53	5254
2026-01-24 00:28:29.50	8.53	10.39	-41.0	-44.2	17.9	0.00e+00	0	37	0	54525952	53	5231
2026-01-24 00:28:30.21	8.49	10.45	-41.0	-44.2	17.9	0.00e+00	0	38	0	55574528	53	5227
2026-01-24 00:28:31.49	8.42	10.56	-41.1	-44.2	17.8	0.00e+00	0	37	0	58720256	53	5270
2026-01-24 00:28:32.23	8.38	10.62	-41.1	-44.3	17.7	0.00e+00	0	38	0	59768832	53	5322
2026-01-24 00:28:33.75	8.30	10.75	-41.1	-44.3	17.7	0.00e+00	0	37	0	62914560	53	5309
2026-01-24 00:28:34.46	8.26	10.81	-41.0	-44.1	17.9	0.00e+00	0	37	0	63963136	53	5213
2026-01-24 00:28:35.74	8.19	10.92	-41.0	-44.0	18.1	0.00e+00	0	38	0	66060288	53	5143
2026-01-24 00:28:36.45	8.15	10.98	-41.0	-44.0	18.0	0.00e+00	0	37	0	67108864	53	5134
2026-01-24 00:28:37.73	8.08	11.09	-41.1	-44.1	18.0	0.00e+00	0	38	0	70254592	53	5171
2026-01-24 00:28:38.44	8.04	11.15	-41.1	-44.1	18.0	0.00e+00	0	38	0	71303168	53	5165
2026-01-24 00:28:39.72	7.96	11.26	-41.1	-44.0	18.1	0.00e+00	0	38	0	73400320	53	5112
2026-01-24 00:28:40.44	7.92	11.33	-41.1	-44.0	18.1	0.00e+00	0	37	0	75497472	53	5137
2026-01-24 00:28:41.72	7.85	11.44	-41.0	-43.9	18.1	0.00e+00	0	38	0	77594624	53	5096
2026-01-24 00:28:42.50	7.80	11.51	-41.1	-44.0	18.1	0.00e+00	0	38	0	78643200	53	5114
2026-01-24 00:28:43.78	7.73	11.62	-41.0	-43.9	18.2	0.00e+00	0	38	0	81788928	53	5053
2026-01-24 00:28:44.56	7.68	11.69	-41.1	-44.0	18.1	0.00e+00	0	38	0	82837504	53	5101
2026-01-24 00:28:45.73	7.61	11.79	-41.1	-44.0	18.1	0.00e+00	0	38	0	84934656	53	5130
2026-01-24 00:28:46.59	7.56	11.87	-41.1	-44.0	18.1	0.00e+00	0	38	0	87031808	53	5115
2026-01-24 00:28:48.07	7.47	12.00	-41.1	-43.9	18.2	0.00e+00	0	38	0	89128960	53	5052
2026-01-24 00:28:48.78	7.43	12.06	-41.1	-43.9	18.2	0.00e+00	0	38	0	91226112	53	5042
2026-01-24 00:28:50.06	7.35	12.18	-41.1	-43.9	18.2	0.00e+00	0	37	0	93323264	53	5070
2026-01-24 00:28:50.78	7.30	12.24	-41.0	-43.9	18.2	0.00e+00	0	38	0	94371840	53	5059
2026-01-24 00:28:52.06	7.22	12.36	-41.0	-43.8	18.2	0.00e+00	0	38	0	96468992	53	5018
2026-01-24 00:28:52.78	7.18	12.42	-41.0	-43.7	18.3	0.00e+00	0	38	0	98566144	53	4983
2026-01-24 00:28:54.06	7.10	12.54	-41.1	-43.9	18.2	0.00e+00	0	38	0	100663296	53	5064
2026-01-24 00:28:54.77	7.05	12.60	-41.0	-43.8	18.3	0.00e+00	0	38	0	101711872	53	5024
2026-01-24 00:28:56.05	6.97	12.72	-41.1	-43.9	18.2	0.00e+00	0	38	0	104857600	53	5053
2026-01-24 00:28:56.76	6.93	12.78	-41.1	-43.9	18.2	0.00e+00	0	38	0	105906176	53	5042
2026-01-24 00:28:58.06	6.84	12.90	-40.9	-43.6	18.5	0.00e+00	0	38	0	108003328	53	4895
2026-01-24 00:28:58.77	6.80	12.97	-40.9	-43.6	18.5	0.00e+00	0	38	0	109051904	53	4906
2026-01-24 00:29:00.12	6.71	13.09	-40.9	-43.6	18.5	0.00e+00	0	38	0	112197632	53	4914
2026-01-24 00:29:00.83	6.66	13.16	-40.9	-43.6	18.5	0.00e+00	0	38	0	113246208	53	4891
2026-01-24 00:29:02.18	6.57	13.28	-40.8	-43.5	18.6	0.00e+00	0	38	0	116391936	53	4835
2026-01-24 00:29:03.14	6.51	13.37	-40.8	-43.5	18.6	0.00e+00	0	38	0	117440512	53	4856
2026-01-24 00:29:04.45	6.42	13.50	-40.9	-43.6	18.5	0.00e+00	0	38	0	120586240	53	4896
2026-01-24 00:29:05.19	6.37	13.57	-40.9	-43.5	18.5	0.00e+00	0	38	0	121634816	53	4865
2026-01-24 00:29:06.47	6.28	13.69	-40.8	-43.5	18.7	0.00e+00	0	38	0	123731968	53	4819
2026-01-24 00:29:07.26	6.23	13.76	-40.9	-43.6	18.5	0.00e+00	0	38	0	125829120	53	4892
2026-01-24 00:29:08.77	6.12	13.91	-40.9	-43.5	18.6	0.00e+00	0	38	0	127926272	53	4851
2026-01-24 00:29:09.49	6.07	13.97	-40.9	-43.6	18.6	0.00e+00	0	38	0	130023424	53	4877
2026-01-24 00:29:10.76	5.98	14.10	-40.8	-43.4	18.8	0.00e+00	0	38	0	132120576	53	4769
2026-01-24 00:29:11.49	5.93	14.17	-40.9	-43.5	18.7	0.00e+00	0	38	0	133169152	53	4822
2026-01-24 00:29:12.77	5.84	14.29	-40.9	-43.4	18.7	0.00e+00	0	38	0	135266304	53	4807
2026-01-24 00:29:13.49	5.79	14.36	-40.8	-43.4	18.7	0.00e+00	0	38	0	137363456	53	4785
2026-01-24 00:29:14.77	5.70	14.48	-40.9	-43.5	18.6	0.00e+00	0	38	0	139460608	53	4829
2026-01-24 00:29:15.48	5.65	14.55	-41.0	-43.6	18.6	0.00e+00	0	38	0	140509184	53	4878
2026-01-24 00:29:16.76	5.55	14.68	-40.9	-43.5	18.6	0.00e+00	0	38	0	143654912	53	4847
2026-01-24 00:29:17.49	5.50	14.75	-40.9	-43.5	18.6	0.00e+00	0	38	0	144703488	53	4829
2026-01-24 00:29:18.77	5.40	14.88	-40.8	-43.4	18.8	0.00e+00	0	38	0	146800640	53	4766
2026-01-24 00:29:19.48	5.35	14.95	-40.9	-43.4	18.7	0.00e+00	0	38	0	147849216	53	4790
2026-01-24 00:29:20.76	5.25	15.07	-41.0	-43.5	18.6	0.00e+00	0	38	0	150994944	53	4833
2026-01-24 00:29:21.48	5.20	15.15	-40.9	-43.4	18.8	0.00e+00	0	38	0	152043520	53	4803
2026-01-24 00:29:22.75	5.10	15.27	-40.9	-43.4	18.8	0.00e+00	0	38	0	154140672	53	4778
2026-01-24 00:29:23.78	5.02	15.38	-40.9	-43.3	18.8	0.00e+00	0	38	0	156237824	53	4754
2026-01-24 00:29:24.77	4.95	15.48	-40.8	-43.3	18.9	0.00e+00	0	38	0	158334976	53	4726
2026-01-24 00:29:25.77	4.87	15.58	-41.0	-43.4	18.7	0.00e+00	0	38	0	160432128	53	4812
2026-01-24 00:29:26.76	4.79	15.68	-41.0	-43.4	18.7	0.00e+00	0	38	0	162529280	53	4812
2026-01-24 00:29:27.75	4.71	15.78	-40.9	-43.3	18.8	0.00e+00	0	38	0	163577856	53	4755
2026-01-24 00:29:28.75	4.63	15.88	-40.8	-43.3	18.9	0.00e+00	0	38	0	165675008	53	4709
2026-01-24 00:29:29.74	4.55	15.98	-40.9	-43.3	18.8	0.00e+00	0	38	0	167772160	53	4752
2026-01-24 00:29:30.74	4.47	16.09	-41.0	-43.4	18.7	0.00e+00	0	38	0	169869312	53	4804
2026-01-24 00:29:31.73	4.39	16.19	-40.9	-43.3	18.9	0.00e+00	0	38	0	170917888	53	4743
2026-01-24 00:29:32.72	4.31	16.29	-40.9	-43.3	18.9	0.00e+00	0	38	0	173015040	53	4734
2026-01-24 00:29:33.72	4.23	16.39	-41.0	-43.4	18.8	0.00e+00	0	38	0	175112192	53	4770
2026-01-24 00:29:34.71	4.14	16.50	-40.9	-43.3	18.9	0.00e+00	0	38	0	177209344	53	4749
2026-01-24 00:29:35.70	4.06	16.60	-41.0	-43.4	18.8	0.00e+00	0	38	0	178257920	53	4766
2026-01-24 00:29:36.70	3.98	16.71	-41.0	-43.4	18.8	0.00e+00	0	38	0	180355072	53	4766
2026-01-24 00:29:37.69	3.89	16.81	-41.0	-43.4	18.8	0.00e+00	0	38	0	182452224	53	4782
2026-01-24 00:29:38.69	3.81	16.92	-41.1	-43.5	18.7	0.00e+00	0	38	0	184549376	53	4823
2026-01-24 00:29:39.68	3.72	17.02	-41.0	-43.4	18.8	0.00e+00	0	38	0	186646528	53	4808
2026-01-24 00:29:40.68	3.63	17.13	-41.0	-43.4	18.8	0.00e+00	0	38	0	187695104	53	4791
2026-01-24 00:29:41.67	3.55	17.24	-41.1	-43.5	18.7	0.00e+00	0	38	0	189792256	53	4850
2026-01-24 00:29:42.67	3.46	17.34	-41.0	-43.5	18.7	0.00e+00	0	38	0	191889408	53	4844
2026-01-24 00:29:43.66	3.37	17.45	-41.0	-43.5	18.7	0.00e+00	0	38	0	193986560	53	4858
2026-01-24 00:29:44.66	3.28	17.56	-41.0	-43.5	18.7	0.00e+00	0	38	0	196083712	53	4835
2026-01-24 00:29:45.65	3.19	17.67	-41.1	-43.6	18.7	0.00e+00	0	38	0	197132288	53	4884
2026-01-24 00:29:46.65	3.10	17.78	-41.1	-43.6	18.6	0.00e+00	0	38	0	199229440	53	4919
2026-01-24 00:29:47.64	3.01	17.88	-41.0	-43.6	18.6	0.00e+00	0	38	0	201326592	53	4889
2026-01-24 00:29:48.64	2.92	17.99	-41.0	-43.5	18.7	0.00e+00	0	38	0	203423744	53	4829
2026-01-24 00:29:49.90	2.80	18.13	-41.0	-43.5	18.7	0.00e+00	0	38	0	205520896	53	4837
2026-01-24 00:29:50.63	2.73	18.21	-41.0	-43.6	18.6	0.00e+00	0	38	0	206569472	53	4881
2026-01-24 00:29:52.24	2.58	18.39	-41.1	-43.7	18.5	0.00e+00	0	38	0	209715200	53	4973
2026-01-24 00:29:53.09	2.50	18.49	-41.2	-43.7	18.5	0.00e+00	0	38	0	211812352	53	4981
2026-01-24 00:29:54.23	2.39	18.62	-41.2	-43.8	18.4	0.00e+00	0	38	0	213909504	53	5032
2026-01-24 00:29:55.08	2.31	18.71	-41.2	-43.8	18.4	0.00e+00	0	38	0	214958080	53	5031
2026-01-24 00:29:56.22	2.20	18.84	-41.4	-44.0	18.3	0.00e+00	0	38	0	217055232	53	5102
2026-01-24 00:29:57.07	2.11	18.94	-41.4	-44.0	18.2	0.00e+00	0	38	0	219152384	53	5158
2026-01-24 00:29:58.20	2.00	19.07	-41.5	-44.1	18.1	0.00e+00	0	38	0	221249536	53	5215
2026-01-24 00:29:59.06	1.92	19.17	-41.6	-44.2	18.0	0.00e+00	0	38	0	222298112	54	4976
2026-01-24 00:30:00.34	1.79	19.31	-41.7	-44.3	18.0	0.00e+00	0	38	0	225443840	54	5015
2026-01-24 00:30:01.05	1.71	19.40	-41.6	-44.2	18.1	0.00e+00	0	38	0	226492416	54	4941
2026-01-24 00:30:02.33	1.58	19.54	-41.6	-44.2	18.1	0.00e+00	0	38	0	228589568	54	4940
2026-01-24 00:30:03.05	1.51	19.63	-41.6	-44.1	18.1	0.00e+00	0	38	0	229638144	54	4918
2026-01-24 00:30:04.33	1.38	19.78	-41.7	-44.3	18.0	0.00e+00	0	38	0	232783872	54	4985
2026-01-24 00:30:05.09	1.30	19.87	-41.7	-44.3	18.0	0.00e+00	0	38	0	233832448	54	5030
2026-01-24 00:30:06.37	1.16	20.02	-41.8	-44.4	17.9	0.00e+00	0	38	0	235929600	54	5059
2026-01-24 00:30:07.08	1.08	20.10	-41.7	-44.3	18.0	0.00e+00	0	38	0	238026752	54	5020
2026-01-24 00:30:08.36	0.95	20.25	-41.7	-44.3	18.1	0.00e+00	0	38	0	240123904	54	5001
2026-01-24 00:30:09.07	0.87	20.34	-41.8	-44.4	18.0	0.00e+00	0	38	0	241172480	54	5053
2026-01-24 00:30:10.35	0.73	20.49	-41.8	-44.5	17.9	0.00e+00	0	38	0	243269632	54	5102
2026-01-24 00:30:11.06	0.65	20.57	-41.7	-44.4	17.9	0.00e+00	0	38	0	245366784	54	5056
2026-01-24 00:30:12.34	0.51	20.73	-41.9	-44.6	17.7	0.00e+00	0	38	0	247463936	54	5188
2026-01-24 00:30:13.05	0.43	20.81	-41.9	-44.6	17.7	0.00e+00	0	38	0	248512512	54	5184
2026-01-24 00:30:14.33	0.29	20.97	-41.9	-44.7	17.6	0.00e+00	0	38	0	251658240	54	5231
2026-01-24 00:30:15.05	0.21	21.06	-41.9	-44.7	17.7	0.00e+00	0	38	0	252706816	54	5247
2026-01-24 00:30:16.33	0.06	21.21	-42.0	-44.7	17.6	0.00e+00	0	38	0	254803968	54	5273
2026-01-24 00:30:17.04	359.98	21.30	-42.1	-44.9	17.5	0.00e+00	0	38	0	255852544	54	5346
2026-01-24 00:30:18.34	359.83	21.46	-42.0	-44.8	17.6	0.00e+00	0	38	0	258998272	54	5291
2026-01-24 00:30:19.05	359.74	21.55	-42.0	-44.8	17.5	0.00e+00	0	38	0	260046848	54	5304
2026-01-24 00:30:20.33	359.59	21.71	-42.1	-44.8	17.6	0.00e+00	0	38	0	262144000	54	5313
2026-01-24 00:30:21.05	359.50	21.80	-42.1	-44.8	17.6	0.00e+00	0	38	0	264241152	54	5297
2026-01-24 00:30:22.33	359.35	21.96	-42.1	-44.8	17.5	0.00e+00	0	38	0	266338304	55	5018
2026-01-24 00:30:23.04	359.26	22.05	-42.1	-44.8	17.5	0.00e+00	0	38	0	267386880	55	4984
2026-01-24 00:30:24.32	359.11	22.21	-42.1	-44.8	17.5	0.00e+00	0	38	0	269484032	55	5028
2026-01-24 00:30:25.03	359.02	22.30	-42.2	-44.9	17.5	0.00e+00	0	38	0	271581184	55	5063
2026-01-24 00:30:26.31	358.86	22.46	-42.0	-44.7	17.6	0.00e+00	0	38	0	273678336	55	4975
2026-01-24 00:30:27.04	358.77	22.55	-42.0	-44.7	17.6	0.00e+00	0	38	0	274726912	55	4955
2026-01-24 00:30:28.32	358.61	22.72	-42.0	-44.7	17.6	0.00e+00	0	38	0	277872640	55	4973
2026-01-24 00:30:29.03	358.52	22.81	-42.0	-44.7	17.7	0.00e+00	0	38	0	278921216	55	4968
2026-01-24 00:30:30.31	358.35	22.97	-42.1	-44.9	17.5	0.00e+00	0	38	0	281018368	55	5042
2026-01-24 00:30:31.03	358.26	23.07	-42.2	-45.0	17.4	0.00e+00	0	38	0	282066944	55	5105
2026-01-24 00:30:32.31	358.09	23.23	-42.1	-44.9	17.4	0.00e+00	0	38	0	285212672	55	5075
2026-01-24 00:30:33.04	358.00	23.33	-42.2	-45.0	17.3	0.00e+00	0	38	0	286261248	55	5126
2026-01-24 00:30:34.32	357.83	23.50	-42.3	-45.2	17.2	0.00e+00	0	38	0	288358400	55	5224
2026-01-24 00:30:35.04	357.73	23.59	-42.3	-45.1	17.3	0.00e+00	0	38	0	290455552	55	5182
2026-01-24 00:30:36.32	357.56	23.76	-42.3	-45.1	17.3	0.00e+00	0	38	0	292552704	55	5177
2026-01-24 00:30:37.08	357.45	23.86	-42.3	-45.2	17.2	0.00e+00	0	38	0	293601280	55	5252
2026-01-24 00:30:38.64	357.24	24.07	-42.3	-45.1	17.3	0.00e+00	0	38	0	296747008	55	5173
2026-01-24 00:30:39.35	357.14	24.16	-42.2	-44.9	17.5	0.00e+00	0	38	0	297795584	55	5081
2026-01-24 00:30:40.63	356.96	24.33	-42.2	-44.9	17.5	0.00e+00	0	38	0	300941312	55	5085
2026-01-24 00:30:41.34	356.86	24.43	-42.3	-45.0	17.4	0.00e+00	0	38	0	301989888	55	5129
2026-01-24 00:30:42.74	356.66	24.62	-42.3	-45.0	17.4	0.00e+00	0	38	0	304087040	55	5153
2026-01-24 00:30:43.46	356.55	24.72	-42.3	-45.1	17.3	0.00e+00	0	38	0	306184192	55	5166
2026-01-24 00:30:44.83	356.35	24.90	-42.4	-45.1	17.2	0.00e+00	0	38	0	308281344	55	5211
2026-01-24 00:30:45.54	356.25	25.00	-42.4	-45.1	17.3	0.00e+00	0	38	0	309329920	55	5200
2026-01-24 00:30:46.82	356.06	25.18	-42.4	-45.2	17.3	0.00e+00	0	38	0	312475648	55	5224
2026-01-24 00:30:47.56	355.95	25.28	-42.4	-45.2	17.2	0.00e+00	0	38	0	313524224	55	5270
2026-01-24 00:30:48.84	355.75	25.45	-42.3	-45.1	17.3	0.00e+00	0	38	0	315621376	55	5195
2026-01-24 00:30:49.55	355.64	25.55	-42.4	-45.2	17.2	0.00e+00	0	38	0	316669952	55	5230
2026-01-24 00:30:50.83	355.45	25.73	-42.2	-45.0	17.4	0.00e+00	0	38	0	319815680	55	5126
2026-01-24 00:30:51.55	355.34	25.83	-42.2	-45.0	17.4	0.00e+00	0	38	0	320864256	55	5133
2026-01-24 00:30:52.83	355.14	26.01	-42.1	-44.8	17.6	0.00e+00	0	38	0	322961408	55	5029
2026-01-24 00:30:53.56	355.02	26.11	-42.2	-44.9	17.5	0.00e+00	0	38	0	325058560	55	5089
2026-01-24 00:30:54.84	354.82	26.29	-42.2	-45.0	17.4	0.00e+00	0	38	0	327155712	55	5128
2026-01-24 00:30:55.55	354.70	26.39	-42.3	-45.0	17.4	0.00e+00	0	38	0	328204288	55	5148
2026-01-24 00:30:56.83	354.49	26.58	-42.4	-45.2	17.3	0.00e+00	0	38	0	331350016	55	5227
2026-01-24 00:30:57.55	354.38	26.68	-42.4	-45.2	17.3	0.00e+00	0	38	0	332398592	55	5243
2026-01-24 00:30:58.83	354.16	26.86	-42.4	-45.1	17.3	0.00e+00	0	38	0	334495744	55	5218
2026-01-24 00:30:59.56	354.04	26.97	-42.3	-45.0	17.4	0.00e+00	0	38	0	335544320	55	5139
2026-01-24 00:31:00.84	353.83	27.15	-42.3	-45.0	17.5	0.00e+00	0	38	0	338690048	55	5102
2026-01-24 00:31:01.56	353.70	27.26	-42.4	-45.0	17.4	0.00e+00	0	38	0	339738624	55	5148
2026-01-24 00:31:02.84	353.48	27.44	-42.1	-44.7	17.7	0.00e+00	0	38	0	341835776	55	4958
2026-01-24 00:31:03.57	353.36	27.55	-42.0	-44.6	17.8	0.00e+00	0	38	0	343932928	55	4873
2026-01-24 00:31:04.85	353.13	27.73	-42.1	-44.7	17.8	0.00e+00	0	38	0	346030080	55	4942
2026-01-24 00:31:05.58	353.00	27.84	-41.9	-44.5	18.0	0.00e+00	0	38	0	347078656	55	4827
2026-01-24 00:31:06.85	352.78	28.03	-42.0	-44.6	17.8	0.00e+00	0	38	0	349175808	55	4909
2026-01-24 00:31:07.58	352.65	28.14	-42.0	-44.5	17.9	0.00e+00	0	38	0	351272960	55	4858
2026-01-24 00:31:08.86	352.41	28.32	-42.0	-44.6	17.9	0.00e+00	0	38	0	353370112	55	4882
2026-01-24 00:31:09.57	352.28	28.43	-42.0	-44.6	17.8	0.00e+00	0	38	0	354418688	55	4907
2026-01-24 00:31:10.85	352.05	28.62	-42.0	-44.6	17.9	0.00e+00	0	38	0	357564416	55	4892
2026-01-24 00:31:11.69	351.89	28.75	-42.1	-44.7	17.8	0.00e+00	0	38	0	358612992	55	4934
2026-01-24 00:31:13.11	351.62	28.96	-42.2	-44.9	17.6	0.00e+00	0	38	0	361758720	55	5055
2026-01-24 00:31:13.82	351.49	29.07	-42.2	-44.9	17.7	0.00e+00	0	38	0	362807296	55	5045
2026-01-24 00:31:15.10	351.24	29.26	-42.2	-44.9	17.5	0.00e+00	0	38	0	364904448	55	5078
2026-01-24 00:31:15.81	351.10	29.37	-42.2	-45.0	17.6	0.00e+00	0	38	0	367001600	55	5108
2026-01-24 00:31:17.09	350.85	29.56	-42.2	-44.9	17.5	0.00e+00	0	38	0	369098752	55	5072
2026-01-24 00:31:17.81	350.71	29.67	-42.2	-44.9	17.5	0.00e+00	0	38	0	370147328	55	5089
2026-01-24 00:31:19.09	350.45	29.86	-42.2	-45.0	17.5	0.00e+00	0	38	0	372244480	55	5117
2026-01-24 00:31:19.80	350.31	29.97	-42.2	-45.0	17.5	0.00e+00	0	38	0	374341632	55	5102
2026-01-24 00:31:21.08	350.05	30.17	-42.4	-45.1	17.3	0.00e+00	0	38	0	376438784	55	5209
2026-01-24 00:31:21.81	349.90	30.28	-42.5	-45.2	17.3	0.00e+00	0	38	0	377487360	55	5259
2026-01-24 00:31:23.09	349.63	30.48	-42.6	-45.3	17.1	0.00e+00	0	38	0	379584512	55	5325
2026-01-24 00:31:23.81	349.48	30.59	-42.7	-45.5	17.0	0.00e+00	0	38	0	381681664	55	5419
2026-01-24 00:31:25.09	349.21	30.79	-42.9	-45.7	16.9	0.00e+00	0	38	0	383778816	56	5259
2026-01-24 00:31:25.80	349.05	30.90	-42.9	-45.8	16.8	0.00e+00	0	38	0	384827392	56	5332
2026-01-24 00:31:27.08	348.78	31.10	-43.0	-46.0	16.7	0.00e+00	0	38	0	387973120	56	5421
2026-01-24 00:31:27.79	348.62	31.21	-43.0	-46.0	16.6	0.00e+00	0	38	0	389021696	56	5441
2026-01-24 00:31:29.17	348.32	31.42	-43.1	-46.2	16.5	0.00e+00	0	38	0	391118848	56	5558
2026-01-24 00:31:29.88	348.16	31.54	-43.2	-46.2	16.4	0.00e+00	0	38	0	393216000	57	5263
2026-01-24 00:31:31.16	347.87	31.74	-43.3	-46.4	16.3	0.00e+00	0	38	0	395313152	57	5346
2026-01-24 00:31:31.87	347.71	31.85	-43.4	-46.5	16.2	0.00e+00	0	38	0	396361728	57	5433
2026-01-24 00:31:33.15	347.42	32.05	-43.5	-46.7	15.9	0.00e+00	0	38	0	398458880	57	5562
2026-01-24 00:31:33.86	347.25	32.16	-43.4	-46.5	16.1	0.00e+00	0	38	0	400556032	57	5429
2026-01-24 00:31:35.14	346.95	32.36	-43.6	-46.9	15.8	0.00e+00	0	38	0	402653184	57	5663
2026-01-24 00:31:35.85	346.78	32.48	-43.6	-46.9	15.8	0.00e+00	0	38	0	403701760	57	5657
2026-01-24 00:31:37.12	346.48	32.68	-43.4	-46.7	16.0	0.00e+00	0	38	0	406847488	57	5558
2026-01-24 00:31:37.91	346.29	32.80	-43.4	-46.8	15.8	0.00e+00	0	38	0	407896064	57	5629
2026-01-24 00:31:39.13	345.99	33.00	-43.2	-46.5	16.1	0.00e+00	0	38	0	409993216	57	5448
2026-01-24 00:31:39.98	345.78	33.13	-43.2	-46.6	16.1	0.00e+00	0	38	0	412090368	57	5469
2026-01-24 00:31:41.12	345.50	33.32	-43.1	-46.3	16.3	0.00e+00	0	38	0	414187520	57	5334
2026-01-24 00:31:41.97	345.29	33.45	-43.1	-46.4	16.3	0.00e+00	0	38	0	415236096	57	5360
2026-01-24 00:31:43.11	345.00	33.64	-43.3	-46.6	16.2	0.00e+00	0	38	0	417333248	57	5473
2026-01-24 00:31:43.96	344.78	33.77	-43.4	-46.6	16.0	0.00e+00	0	38	0	419430400	57	5515
2026-01-24 00:31:45.09	344.49	33.95	-43.6	-46.8	15.8	7.00e-07	0	38	0	421527552	57	5642
2026-01-24 00:31:45.95	344.26	34.09	-43.7	-46.9	15.8	0.00e+00	0	38	0	422576128	57	5658
2026-01-24 00:31:47.08	343.97	34.27	-43.7	-46.9	15.8	0.00e+00	0	38	0	424673280	58	5389
2026-01-24 00:31:47.94	343.74	34.41	-43.7	-47.0	15.7	0.00e+00	0	38	0	426770432	58	5435
2026-01-24 00:31:49.07	343.43	34.60	-43.8	-47.0	15.7	0.00e+00	0	38	0	428867584	58	5431
2026-01-24 00:31:49.92	343.20	34.73	-43.8	-47.0	15.7	0.00e+00	0	38	0	429916160	58	5459
2026-01-24 00:31:51.06	342.89	34.92	-43.6	-46.7	16.0	0.00e+00	0	38	0	433061888	58	5228
2026-01-24 00:31:51.91	342.65	35.05	-43.7	-46.9	15.8	0.00e+00	0	38	0	434110464	58	5344
2026-01-24 00:31:53.05	342.33	35.24	-43.7	-46.8	15.9	0.00e+00	0	38	0	436207616	58	5314
2026-01-24 00:31:53.90	342.09	35.38	-43.6	-46.8	15.9	0.00e+00	0	38	0	438304768	58	5311
2026-01-24 00:31:55.04	341.77	35.56	-43.5	-46.8	15.9	0.00e+00	0	38	0	440401920	58	5331
2026-01-24 00:31:55.89	341.52	35.70	-43.3	-46.5	16.2	0.00e+00	0	38	0	441450496	58	5114
2026-01-24 00:31:57.03	341.19	35.88	-43.2	-46.4	16.2	0.00e+00	0	38	0	443547648	58	5098
2026-01-24 00:31:57.88	340.94	36.02	-42.9	-46.0	16.7	0.00e+00	0	38	0	445644800	57	5114
2026-01-24 00:31:59.02	340.60	36.20	-43.0	-46.1	16.6	0.00e+00	0	38	0	447741952	57	5204
2026-01-24 00:31:59.87	340.34	36.34	-43.0	-46.1	16.6	0.00e+00	0	38	0	448790528	57	5192
2026-01-24 00:32:01.01	340.00	36.52	-43.0	-46.1	16.6	0.00e+00	0	38	0	450887680	57	5166
2026-01-24 00:32:01.86	339.74	36.66	-43.2	-46.2	16.5	0.00e+00	0	38	0	452984832	57	5242
2026-01-24 00:32:03.00	339.39	36.84	-43.1	-46.0	16.7	0.00e+00	0	38	0	455081984	57	5104
2026-01-24 00:32:03.85	339.12	36.98	-43.1	-45.9	16.8	0.00e+00	0	38	0	456130560	57	5092
2026-01-24 00:32:04.99	338.76	37.16	-43.2	-46.0	16.7	0.00e+00	0	38	0	458227712	57	5157
2026-01-24 00:32:05.84	338.49	37.30	-43.3	-46.2	16.5	0.00e+00	0	38	0	460324864	57	5276
2026-01-24 00:32:07.10	338.08	37.50	-43.2	-46.1	16.6	0.00e+00	0	38	0	462422016	57	5177
2026-01-24 00:32:07.86	337.84	37.62	-43.1	-46.0	16.7	0.00e+00	0	38	0	464519168	57	5126
2026-01-24 00:32:09.14	337.41	37.83	-42.8	-45.5	17.2	0.00e+00	0	38	0	466616320	57	4831
2026-01-24 00:32:09.85	337.18	37.94	-42.9	-45.7	17.0	0.00e+00	0	38	0	467664896	57	4935
2026-01-24 00:32:11.13	336.75	38.15	-43.0	-45.8	16.8	0.00e+00	0	38	0	469762048	57	5022
2026-01-24 00:32:11.84	336.51	38.26	-43.1	-46.1	16.5	0.00e+00	0	38	0	471859200	57	5166
2026-01-24 00:32:13.12	336.07	38.46	-43.2	-46.1	16.6	0.00e+00	0	38	0	473956352	57	5182
2026-01-24 00:32:13.84	335.82	38.57	-43.1	-46.0	16.7	0.00e+00	0	38	0	475004928	57	5144
2026-01-24 00:32:15.12	335.38	38.78	-43.0	-45.9	16.8	0.00e+00	0	38	0	478150656	57	5086
2026-01-24 00:32:15.83	335.13	38.89	-42.9	-45.8	16.9	0.00e+00	0	38	0	479199232	57	5001
2026-01-24 00:32:17.11	334.67	39.09	-43.2	-46.2	16.6	0.00e+00	0	38	0	481296384	57	5231
2026-01-24 00:32:17.83	334.41	39.20	-43.2	-46.1	16.6	0.00e+00	0	38	0	482344960	57	5216
2026-01-24 00:32:19.11	333.95	39.40	-43.1	-45.9	16.7	0.00e+00	0	38	0	485490688	57	5090
2026-01-24 00:32:19.83	333.69	39.51	-43.0	-45.8	16.9	0.00e+00	0	38	0	486539264	57	5012
2026-01-24 00:32:21.10	333.22	39.70	-42.9	-45.7	17.0	0.00e+00	0	38	0	488636416	57	4964
2026-01-24 00:32:22.07	332.86	39.85	-43.1	-46.1	16.6	0.00e+00	0	38	0	490733568	57	5170
2026-01-24 00:32:23.38	332.36	40.05	-43.5	-46.7	16.0	0.00e+00	0	38	0	492830720	57	5585
2026-01-24 00:32:24.09	332.09	40.16	-43.7	-46.9	15.8	0.00e+00	0	38	0	494927872	57	5707
2026-01-24 00:32:25.73	331.46	40.41	-43.6	-46.9	15.8	0.00e+00	0	38	0	498073600	58	5392
2026-01-24 00:32:26.30	331.24	40.49	-43.6	-46.9	15.8	0.00e+00	0	38	0	498073600	58	5384
2026-01-24 00:32:28.00	330.57	40.74	-43.4	-46.7	16.0	0.00e+00	0	38	0	502267904	58	5245
2026-01-24 00:32:28.57	330.34	40.83	-43.5	-46.8	15.9	0.00e+00	0	38	0	503316480	58	5292
2026-01-24 00:32:30.28	329.65	41.08	-43.7	-47.1	15.7	0.00e+00	0	38	0	506462208	58	5480
2026-01-24 00:32:30.85	329.42	41.16	-43.6	-47.0	15.7	0.00e+00	0	38	0	507510784	58	5414
2026-01-24 00:32:32.55	328.73	41.40	-43.2	-46.3	16.4	0.00e+00	0	38	0	510656512	58	5000
2026-01-24 00:32:33.11	328.49	41.48	-42.9	-45.7	16.9	0.00e+00	0	38	0	511705088	57	4980
2026-01-24 00:32:34.82	327.78	41.73	-42.4	-45.0	17.7	0.00e+00	0	38	0	514850816	56	4828
2026-01-24 00:32:35.39	327.54	41.81	-42.3	-44.8	17.8	0.00e+00	0	38	0	515899392	56	4756
2026-01-24 00:32:37.10	326.81	42.04	-41.7	-44.1	18.3	0.00e+00	0	38	0	519045120	55	4645
2026-01-24 00:32:37.95	326.44	42.16	-41.6	-44.0	18.4	0.00e+00	0	38	0	520093696	55	4586
2026-01-24 00:32:39.09	325.94	42.31	-41.6	-44.1	18.4	0.00e+00	0	38	0	522190848	55	4608
2026-01-24 00:32:39.94	325.57	42.43	-41.5	-44.0	18.4	0.00e+00	0	38	0	524288000	55	4572
2026-01-24 00:32:41.14	325.04	42.59	-41.4	-43.9	18.6	0.00e+00	0	38	0	526385152	54	4772
2026-01-24 00:32:42.42	324.47	42.75	-41.1	-43.5	19.0	0.00e+00	0	38	0	528482304	54	4577
2026-01-24 00:32:43.14	324.14	42.85	-41.2	-43.6	18.9	0.00e+00	0	38	0	530579456	54	4619
2026-01-24 00:32:44.43	323.56	43.01	-41.1	-43.5	19.0	0.00e+00	0	38	0	532676608	54	4570
2026-01-24 00:32:45.15	323.23	43.10	-41.2	-43.6	18.9	0.00e+00	0	38	0	533725184	54	4612
2026-01-24 00:32:46.45	322.63	43.27	-41.1	-43.5	18.9	0.00e+00	0	38	0	536870912	54	4577
2026-01-24 00:32:47.16	322.30	43.35	-41.1	-43.4	19.0	0.00e+00	0	38	0	537919488	54	4534
2026-01-24 00:32:48.44	321.70	43.51	-41.2	-43.6	18.9	0.00e+00	0	38	0	540016640	54	4635
2026-01-24 00:32:49.16	321.36	43.59	-41.2	-43.5	18.9	0.00e+00	0	38	0	541065216	54	4588
2026-01-24 00:32:50.44	320.75	43.74	-40.9	-43.2	19.2	0.00e+00	0	38	0	544210944	53	4695
2026-01-24 00:32:51.15	320.41	43.83	-40.9	-43.2	19.2	0.00e+00	0	38	0	545259520	53	4691
2026-01-24 00:32:52.62	319.70	43.99	-40.9	-43.2	19.2	0.00e+00	0	38	0	548405248	53	4697
2026-01-24 00:32:53.33	319.35	44.07	-41.1	-43.4	19.0	0.00e+00	0	38	0	549453824	53	4785
2026-01-24 00:32:54.62	318.72	44.21	-41.3	-43.7	18.8	0.00e+00	0	38	0	551550976	53	4952
2026-01-24 00:32:55.33	318.37	44.29	-41.6	-44.0	18.5	0.00e+00	0	38	0	552599552	53	5122
2026-01-24 00:32:56.73	317.67	44.43	-42.2	-44.8	17.7	0.00e+00	0	38	0	555745280	55	5008
2026-01-24 00:32:57.45	317.31	44.51	-42.3	-45.0	17.6	0.00e+00	0	38	0	556793856	55	5103
2026-01-24 00:32:58.77	316.64	44.64	-42.2	-44.9	17.6	0.00e+00	0	38	0	559939584	55	5054
2026-01-24 00:32:59.48	316.28	44.71	-42.2	-44.8	17.7	0.00e+00	0	38	0	560988160	55	5039
2026-01-24 00:33:00.76	315.63	44.83	-42.3	-45.0	17.4	0.00e+00	0	38	0	563085312	55	5112
2026-01-24 00:33:01.50	315.25	44.90	-42.2	-44.9	17.6	0.00e+00	0	38	0	564133888	55	5055
2026-01-24 00:33:02.77	314.59	45.02	-42.4	-45.1	17.4	0.00e+00	0	38	0	567279616	55	5174
2026-01-24 00:33:03.50	314.21	45.08	-42.4	-45.1	17.4	0.00e+00	0	38	0	568328192	55	5187
2026-01-24 00:33:04.78	313.54	45.19	-42.4	-45.1	17.3	0.00e+00	0	38	0	570425344	55	5210
2026-01-24 00:33:05.49	313.17	45.25	-42.5	-45.2	17.3	0.00e+00	0	38	0	572522496	55	5274
2026-01-24 00:33:06.77	312.49	45.36	-42.5	-45.2	17.2	0.00e+00	0	38	0	574619648	55	5278
2026-01-24 00:33:07.51	312.10	45.42	-42.6	-45.4	17.1	0.00e+00	0	38	0	575668224	55	5391
2026-01-24 00:33:08.79	311.42	45.51	-42.8	-45.6	17.2	0.00e+00	0	38	0	577765376	56	5166
2026-01-24 00:33:09.52	311.03	45.57	-42.9	-45.7	17.0	0.00e+00	0	38	0	579862528	56	5238
2026-01-24 00:33:10.79	310.34	45.66	-42.9	-45.6	17.0	0.00e+00	0	38	0	581959680	56	5207
2026-01-24 00:33:11.61	309.90	45.71	-42.8	-45.5	17.2	0.00e+00	0	38	0	584056832	56	5137
2026-01-24 00:33:13.05	309.12	45.81	-42.9	-45.7	17.0	0.00e+00	0	38	0	586153984	56	5225
2026-01-24 00:33:13.76	308.73	45.85	-43.0	-45.8	16.9	0.00e+00	0	38	0	587202560	56	5309
2026-01-24 00:33:15.04	308.03	45.93	-43.3	-46.3	16.4	0.00e+00	0	38	0	590348288	57	5316
2026-01-24 00:33:15.77	307.63	45.97	-43.6	-46.7	16.1	0.00e+00	0	38	0	591396864	57	5529
2026-01-24 00:33:17.05	306.92	46.04	-43.5	-46.6	16.0	0.00e+00	0	38	0	593494016	57	5521
2026-01-24 00:33:17.77	306.52	46.07	-43.6	-46.7	16.0	0.00e+00	0	38	0	595591168	57	5586
2026-01-24 00:33:19.05	305.81	46.13	-43.5	-46.5	16.2	0.00e+00	0	38	0	597688320	57	5435
2026-01-24 00:33:19.78	305.40	46.17	-43.5	-46.5	16.2	0.00e+00	0	38	0	598736896	57	5452
2026-01-24 00:33:21.06	304.69	46.22	-43.6	-46.6	16.1	0.00e+00	0	38	0	600834048	57	5476
2026-01-24 00:33:21.78	304.28	46.25	-43.3	-46.3	16.3	0.00e+00	0	38	0	602931200	57	5290
2026-01-24 00:33:23.07	303.56	46.29	-43.2	-46.0	16.6	0.00e+00	0	38	0	605028352	57	5150
2026-01-24 00:33:23.78	303.16	46.32	-43.3	-46.3	16.4	0.00e+00	0	38	0	606076928	57	5283
2026-01-24 00:33:25.15	302.38	46.36	-43.5	-46.5	16.2	0.00e+00	0	38	0	609222656	57	5415
2026-01-24 00:33:25.86	301.98	46.38	-43.8	-46.9	15.8	0.00e+00	0	38	0	610271232	58	5355
2026-01-24 00:33:27.22	301.21	46.41	-43.8	-47.0	15.6	0.00e+00	0	38	0	612368384	58	5430
2026-01-24 00:33:27.93	300.81	46.42	-43.8	-47.0	15.7	0.00e+00	0	38	0	614465536	58	5446
2026-01-24 00:33:29.21	300.08	46.44	-43.6	-46.7	16.0	0.00e+00	0	38	0	616562688	58	5236
2026-01-24 00:33:29.92	299.68	46.45	-43.6	-46.6	16.1	0.00e+00	0	38	0	617611264	58	5187
2026-01-24 00:33:31.20	298.95	46.47	-43.8	-46.9	15.8	0.00e+00	0	38	0	620756992	58	5399
2026-01-24 00:33:31.91	298.55	46.47	-44.0	-47.2	15.5	0.00e+00	0	38	0	621805568	58	5529
2026-01-24 00:33:33.19	297.82	46.48	-43.7	-46.7	15.9	0.00e+00	0	38	0	623902720	58	5261
2026-01-24 00:33:33.90	297.41	46.48	-43.8	-46.9	15.9	0.00e+00	0	38	0	624951296	58	5347
2026-01-24 00:33:35.18	296.68	46.48	-43.7	-46.7	15.9	0.00e+00	0	38	0	628097024	58	5269
2026-01-24 00:33:35.90	296.27	46.47	-43.6	-46.6	16.1	0.00e+00	0	38	0	629145600	58	5169
2026-01-24 00:33:37.18	295.55	46.46	-43.4	-46.2	16.5	0.00e+00	0	38	0	631242752	58	4980
2026-01-24 00:33:37.91	295.13	46.46	-43.3	-46.1	16.6	0.00e+00	0	38	0	633339904	58	4892
2026-01-24 00:33:39.18	294.41	46.44	-43.4	-46.3	16.5	0.00e+00	0	38	0	635437056	58	5001
2026-01-24 00:33:39.89	294.01	46.43	-43.3	-46.2	16.5	0.00e+00	0	38	0	636485632	58	4972
2026-01-24 00:33:41.17	293.28	46.40	-43.4	-46.3	16.3	0.00e+00	0	38	0	638582784	58	5037
2026-01-24 00:33:41.90	292.87	46.38	-43.5	-46.4	16.4	0.00e+00	0	38	0	640679936	58	5051
2026-01-24 00:33:43.18	292.14	46.35	-43.6	-46.6	16.1	0.00e+00	0	38	0	642777088	58	5199
2026-01-24 00:33:43.89	291.74	46.33	-43.6	-46.6	16.1	0.00e+00	0	38	0	643825664	58	5204
2026-01-24 00:33:45.19	291.01	46.29	-43.5	-46.5	16.2	0.00e+00	0	38	0	646971392	58	5131
2026-01-24 00:33:45.90	290.61	46.26	-43.7	-46.7	16.0	0.00e+00	0	38	0	648019968	58	5270
2026-01-24 00:33:47.22	289.87	46.21	-43.5	-46.5	16.3	0.00e+00	0	38	0	650117120	58	5106
2026-01-24 00:33:47.93	289.47	46.18	-43.3	-46.2	16.4	0.00e+00	0	38	0	651165696	58	4972
2026-01-24 00:33:49.29	288.71	46.12	-43.4	-46.4	16.3	0.00e+00	0	38	0	654311424	58	5042
2026-01-24 00:33:50.00	288.32	46.09	-43.7	-46.7	16.0	0.00e+00	0	38	0	655360000	58	5241
2026-01-24 00:33:51.28	287.61	46.02	-43.9	-46.9	15.8	0.00e+00	0	38	0	657457152	58	5397
2026-01-24 00:33:51.99	287.21	45.98	-44.0	-47.1	15.6	0.00e+00	0	38	0	659554304	58	5515
2026-01-24 00:33:53.27	286.51	45.91	-44.5	-48.0	14.8	0.00e+00	0	38	0	661651456	59	5727
2026-01-24 00:33:53.99	286.11	45.87	-44.7	-48.3	14.4	0.00e+00	0	38	0	662700032	60	5622
2026-01-24 00:33:55.26	285.42	45.79	-44.5	-48.0	14.8	1.50e-06	0	38	0	665845760	60	5434
2026-01-24 00:33:55.97	285.03	45.75	-44.0	-47.2	15.5	0.00e+00	0	38	0	666894336	60	4937
2026-01-24 00:33:57.26	284.33	45.66	-43.7	-46.7	16.0	4.11e-05	0	38	0	668991488	58	5233
2026-01-24 00:33:57.97	283.95	45.61	-43.9	-46.9	15.8	0.00e+00	0	38	0	670040064	58	5402
2026-01-24 00:33:59.24	283.27	45.52	-44.0	-47.2	15.6	0.00e+00	0	38	0	673185792	58	5542
2026-01-24 00:33:59.96	282.88	45.46	-44.2	-47.4	15.3	0.00e+00	0	38	0	674234368	59	5383
2026-01-24 00:34:01.23	282.21	45.36	-44.2	-47.5	15.1	0.00e+00	0	38	0	676331520	59	5451
2026-01-24 00:34:01.96	281.82	45.30	-44.1	-47.3	15.4	0.00e+00	0	38	0	678428672	59	5286
2026-01-24 00:34:03.24	281.14	45.20	-43.8	-46.9	15.7	0.00e+00	0	38	0	680525824	59	5060
2026-01-24 00:34:03.95	280.77	45.14	-43.7	-46.7	16.0	0.00e+00	0	38	0	681574400	59	4939
2026-01-24 00:34:05.23	280.10	45.02	-43.5	-46.4	16.3	0.00e+00	0	38	0	683671552	59	4788
2026-01-24 00:34:05.95	279.73	44.96	-43.5	-46.5	16.2	0.00e+00	0	38	0	685768704	59	4818
2026-01-24 00:34:07.23	279.07	44.84	-43.5	-46.5	16.3	0.00e+00	0	38	0	687865856	58	5136
2026-01-24 00:34:07.94	278.71	44.77	-43.4	-46.4	16.3	0.00e+00	0	38	0	688914432	58	5077
2026-01-24 00:34:09.22	278.05	44.65	-43.1	-45.9	16.7	0.00e+00	0	38	0	692060160	57	5096
2026-01-24 00:34:09.93	277.69	44.58	-42.4	-45.4	17.2	0.00e+00	0	38	0	693108736	57	4806
2026-01-24 00:34:11.21	277.05	44.45	-42.5	-45.1	17.6	0.00e+00	0	38	0	695205888	56	4903
2026-01-24 00:34:11.92	276.70	44.37	-42.3	-44.8	17.9	0.00e+00	0	38	0	696254464	56	4722
2026-01-24 00:34:13.20	276.06	44.24	-42.3	-44.9	17.8	0.00e+00	0	38	0	699400192	56	4795
2026-01-24 00:34:14.02	275.66	44.15	-42.4	-45.0	17.7	0.00e+00	0	38	0	700448768	56	4819
2026-01-24 00:34:15.16	275.10	44.02	-42.4	-45.0	17.7	0.00e+00	0	38	0	702545920	56	4850
2026-01-24 00:34:16.01	274.68	43.93	-42.4	-44.9	17.8	0.00e+00	0	38	0	704643072	56	4796
2026-01-24 00:34:17.15	274.13	43.80	-42.2	-44.7	17.9	0.00e+00	0	38	0	706740224	56	4662
2026-01-24 00:34:18.00	273.72	43.70	-41.8	-44.2	18.3	0.00e+00	0	38	0	707788800	55	4677
2026-01-24 00:34:19.13	273.19	43.56	-41.5	-43.9	18.6	0.00e+00	0	38	0	709885952	55	4507
2026-01-24 00:34:19.99	272.78	43.46	-41.3	-43.6	18.9	0.00e+00	0	38	0	711983104	54	4611
2026-01-24 00:34:21.13	272.25	43.32	-41.0	-43.3	19.1	0.00e+00	0	38	0	714080256	54	4468
2026-01-24 00:34:21.98	271.85	43.22	-41.0	-43.3	19.1	0.00e+00	0	38	0	715128832	53	4724
2026-01-24 00:34:23.11	271.33	43.08	-40.9	-43.2	19.3	0.00e+00	0	38	0	717225984	53	4664
2026-01-24 00:34:23.97	270.93	42.97	-40.9	-43.2	19.2	0.00e+00	0	38	0	719323136	53	4681
2026-01-24 00:34:25.11	270.42	42.82	-40.8	-43.1	19.3	0.00e+00	0	38	0	721420288	53	4648
2026-01-24 00:34:25.96	270.03	42.71	-40.8	-43.1	19.4	0.00e+00	0	38	0	723517440	53	4608
2026-01-24 00:34:27.09	269.53	42.56	-40.4	-42.6	19.8	0.00e+00	0	38	0	724566016	52	4629
2026-01-24 00:34:28.06	269.10	42.43	-40.0	-42.1	20.3	0.00e+00	0	38	0	726663168	51	4617
2026-01-24 00:34:29.05	268.66	42.30	-39.7	-41.8	20.7	0.00e+00	0	38	0	728760320	51	4460
2026-01-24 00:34:30.05	268.22	42.16	-39.7	-41.7	20.7	0.00e+00	0	38	0	730857472	51	4417
2026-01-24 00:34:31.05	267.79	42.03	-39.7	-41.7	20.7	0.00e+00	0	38	0	732954624	51	4426
2026-01-24 00:34:32.04	267.37	41.89	-39.6	-41.6	20.8	0.00e+00	0	38	0	734003200	51	4376
2026-01-24 00:34:33.04	266.94	41.75	-39.9	-41.9	20.5	0.00e+00	0	38	0	736100352	51	4538
2026-01-24 00:34:34.03	266.52	41.61	-39.9	-42.1	20.4	0.00e+00	0	38	0	738197504	51	4603
2026-01-24 00:34:35.02	266.11	41.47	-40.0	-42.1	20.3	0.00e+00	0	38	0	740294656	51	4632
2026-01-24 00:34:36.02	265.70	41.32	-40.1	-42.2	20.2	0.00e+00	0	38	0	741343232	51	4681
2026-01-24 00:34:37.01	265.29	41.18	-40.0	-42.1	20.4	0.00e+00	0	38	0	743440384	51	4605
2026-01-24 00:34:38.01	264.88	41.04	-39.9	-42.0	20.5	0.00e+00	0	38	0	745537536	51	4570
2026-01-24 00:34:39.00	264.48	40.89	-40.0	-42.1	20.3	0.00e+00	0	38	0	747634688	51	4618
2026-01-24 00:34:39.99	264.09	40.74	-40.1	-42.2	20.3	0.00e+00	0	38	0	749731840	51	4677
2026-01-24 00:34:40.99	263.69	40.60	-39.8	-42.0	20.5	0.00e+00	0	38	0	750780416	51	4554
2026-01-24 00:34:41.99	263.30	40.45	-39.8	-41.9	20.5	0.00e+00	0	38	0	752877568	51	4534
2026-01-24 00:34:42.98	262.91	40.30	-39.9	-42.1	20.4	0.00e+00	0	38	0	754974720	51	4603
2026-01-24 00:34:43.97	262.53	40.15	-40.1	-42.3	20.2	0.00e+00	0	38	0	757071872	51	4729
2026-01-24 00:34:44.97	262.15	40.00	-39.9	-42.0	20.4	0.00e+00	0	38	0	759169024	51	4586
2026-01-24 00:34:45.96	261.78	39.84	-40.1	-42.2	20.2	0.00e+00	0	38	0	760217600	51	4676
2026-01-24 00:34:46.96	261.40	39.69	-40.1	-42.2	20.2	0.00e+00	0	38	0	762314752	51	4700
2026-01-24 00:34:47.95	261.04	39.54	-40.1	-42.2	20.3	0.00e+00	0	38	0	764411904	51	4673
2026-01-24 00:34:48.95	260.67	39.38	-39.9	-42.1	20.4	0.00e+00	0	38	0	766509056	51	4604
2026-01-24 00:34:49.94	260.31	39.23	-39.9	-42.1	20.4	0.00e+00	0	38	0	767557632	51	4605
2026-01-24 00:34:50.94	259.95	39.07	-40.0	-42.1	20.3	0.00e+00	0	38	0	769654784	51	4632
2026-01-24 00:34:51.93	259.59	38.92	-40.2	-42.3	20.2	0.00e+00	0	38	0	771751936	51	4724
2026-01-24 00:34:52.93	259.24	38.76	-40.2	-42.4	20.1	0.00e+00	0	38	0	773849088	51	4761
2026-01-24 00:34:53.92	258.89	38.60	-40.3	-42.5	20.0	0.00e+00	0	38	0	775946240	51	4825
2026-01-24 00:34:54.92	258.55	38.45	-40.4	-42.5	19.9	0.00e+00	0	38	0	776994816	51	4865
2026-01-24 00:34:55.91	258.21	38.29	-40.4	-42.6	19.9	0.00e+00	0	38	0	779091968	51	4885
2026-01-24 00:34:56.91	257.87	38.13	-40.5	-42.7	19.8	0.00e+00	0	38	0	781189120	51	4930
2026-01-24 00:34:57.90	257.53	37.97	-40.5	-42.7	19.7	0.00e+00	0	38	0	783286272	51	4959
2026-01-24 00:34:58.90	257.20	37.81	-40.7	-42.9	19.6	0.00e+00	0	38	0	784334848	51	5061
2026-01-24 00:34:59.89	256.87	37.65	-40.8	-43.0	19.4	0.00e+00	0	38	0	786432000	52	4845
2026-01-24 00:35:00.89	256.54	37.49	-40.9	-43.2	19.2	0.00e+00	0	38	0	788529152	52	4948
2026-01-24 00:35:01.88	256.22	37.33	-41.1	-43.4	19.0	0.00e+00	0	38	0	790626304	52	5079
2026-01-24 00:35:02.88	255.90	37.17	-41.1	-43.4	19.0	0.00e+00	0	38	0	792723456	53	4781
2026-01-24 00:35:03.87	255.59	37.01	-41.0	-43.3	19.1	0.00e+00	0	38	0	793772032	53	4734
2026-01-24 00:35:04.87	255.27	36.85	-41.0	-43.3	19.1	0.00e+00	0	38	0	795869184	53	4741
2026-01-24 00:35:05.86	254.97	36.69	-40.9	-43.2	19.2	0.00e+00	0	38	0	797966336	53	4684
2026-01-24 00:35:06.85	254.66	36.53	-41.1	-43.3	19.1	0.00e+00	0	38	0	800063488	53	4754
2026-01-24 00:35:07.94	254.33	36.35	-41.3	-43.6	18.8	0.00e+00	0	38	0	802160640	53	4899
2026-01-24 00:35:08.84	254.06	36.21	-41.6	-44.0	18.4	0.00e+00	0	38	0	803209216	53	5123
2026-01-24 00:35:09.89	253.74	36.04	-41.7	-44.2	18.3	0.00e+00	0	38	0	805306368	54	4948
2026-01-24 00:35:10.86	253.45	35.88	-42.2	-44.8	17.6	0.00e+00	0	38	0	807403520	55	5000
2026-01-24 00:35:11.85	253.16	35.72	-42.5	-45.2	17.3	0.00e+00	0	38	0	809500672	55	5224
2026-01-24 00:35:12.85	252.87	35.56	-42.7	-45.4	17.0	0.00e+00	0	38	0	810549248	55	5386
2026-01-24 00:35:13.84	252.59	35.40	-42.6	-45.2	17.4	0.00e+00	0	38	0	812646400	56	4965
2026-01-24 00:35:14.83	252.31	35.24	-42.4	-45.0	17.6	0.00e+00	0	38	0	814743552	56	4827
2026-01-24 00:35:15.82	252.03	35.08	-42.5	-45.1	17.5	0.00e+00	0	38	0	816840704	56	4896
2026-01-24 00:35:16.82	251.75	34.91	-42.6	-45.2	17.4	0.00e+00	0	38	0	817889280	56	4961
2026-01-24 00:35:17.81	251.48	34.75	-42.9	-45.6	17.0	0.00e+00	0	38	0	819986432	56	5207
2026-01-24 00:35:18.81	251.20	34.59	-43.4	-46.3	16.3	0.00e+00	0	38	0	822083584	57	5310
2026-01-24 00:35:19.85	250.92	34.42	-43.7	-46.7	15.9	0.00e+00	0	38	0	824180736	58	5248
2026-01-24 00:35:20.83	250.66	34.26	-43.9	-47.0	15.6	0.00e+00	0	38	0	826277888	58	5450
2026-01-24 00:35:21.89	250.38	34.09	-44.0	-47.2	15.4	0.00e+00	0	38	0	827326464	58	5576
2026-01-24 00:35:22.79	250.14	33.95	-44.0	-47.2	15.3	0.00e+00	0	38	0	829423616	58	5584
2026-01-24 00:35:24.06	249.81	33.74	-43.9	-47.0	15.6	0.00e+00	0	38	0	831520768	58	5445
2026-01-24 00:35:24.78	249.62	33.63	-43.8	-46.9	15.8	0.00e+00	0	38	0	833617920	58	5352
2026-01-24 00:35:26.26	249.25	33.39	-44.0	-47.1	15.5	0.00e+00	0	38	0	835715072	58	5507
2026-01-24 00:35:26.97	249.07	33.27	-44.2	-47.4	15.2	0.00e+00	0	38	0	837812224	59	5363
2026-01-24 00:35:28.25	248.75	33.07	-44.2	-47.5	15.2	0.00e+00	0	38	0	839909376	59	5434
2026-01-24 00:35:28.96	248.57	32.95	-44.3	-47.7	14.9	0.00e+00	0	38	0	840957952	59	5565
2026-01-24 00:35:30.24	248.26	32.75	-44.4	-47.8	14.8	0.00e+00	0	38	0	843055104	59	5607
2026-01-24 00:35:30.97	248.08	32.63	-44.5	-48.1	14.6	0.00e+00	0	38	0	845152256	59	5795
2026-01-24 00:35:32.25	247.78	32.43	-44.6	-48.1	14.4	0.00e+00	0	38	0	847249408	59	5828
2026-01-24 00:35:32.96	247.61	32.32	-44.7	-48.3	14.3	7.00e-07	0	38	0	848297984	59	5947
2026-01-24 00:35:34.25	247.31	32.11	-44.2	-47.5	15.1	0.00e+00	0	38	0	851443712	59	5451
2026-01-24 00:35:34.96	247.14	32.00	-44.2	-47.5	15.1	0.00e+00	0	38	0	852492288	59	5426
2026-01-24 00:35:36.24	246.85	31.79	-43.9	-47.0	15.6	0.00e+00	0	38	0	854589440	59	5149
2026-01-24 00:35:36.97	246.68	31.68	-43.8	-46.9	15.7	0.00e+00	0	38	0	855638016	59	5075
2026-01-24 00:35:38.25	246.39	31.48	-43.8	-46.9	15.7	0.00e+00	0	38	0	858783744	59	5083
2026-01-24 00:35:39.10	246.20	31.34	-44.0	-47.1	15.5	0.00e+00	0	38	0	859832320	59	5194
2026-01-24 00:35:40.24	245.95	31.16	-44.0	-47.1	15.5	0.00e+00	0	38	0	861929472	59	5214
2026-01-24 00:35:41.30	245.72	31.00	-44.2	-47.5	15.1	1.50e-06	0	38	0	864026624	59	5429
2026-01-24 00:35:42.15	245.53	30.87	-44.1	-47.3	15.3	0.00e+00	0	38	0	866123776	59	5321
2026-01-24 00:35:43.29	245.29	30.69	-43.9	-47.1	15.5	0.00e+00	0	38	0	868220928	59	5213
2026-01-24 00:35:44.14	245.11	30.56	-44.0	-47.2	15.4	0.00e+00	0	38	0	869269504	59	5243
2026-01-24 00:35:45.28	244.86	30.38	-43.9	-47.1	15.5	0.00e+00	0	38	0	871366656	59	5174
2026-01-24 00:35:46.13	244.69	30.25	-44.0	-47.2	15.4	0.00e+00	0	38	0	873463808	59	5245
2026-01-24 00:35:47.26	244.45	30.07	-44.0	-47.2	15.5	0.00e+00	0	38	0	875560960	59	5225
2026-01-24 00:35:48.12	244.28	29.94	-43.8	-46.9	15.7	0.00e+00	0	38	0	876609536	59	5074
2026-01-24 00:35:49.41	244.02	29.74	-43.5	-46.5	16.1	0.00e+00	0	38	0	879755264	59	4825
2026-01-24 00:35:50.12	243.87	29.63	-43.7	-46.7	15.9	0.00e+00	0	38	0	880803840	59	4951
2026-01-24 00:35:51.40	243.62	29.44	-43.4	-46.3	16.3	0.00e+00	0	38	0	882900992	58	5009
2026-01-24 00:35:52.11	243.48	29.33	-43.3	-46.2	16.5	0.00e+00	0	38	0	884998144	58	4927
2026-01-24 00:35:53.66	243.18	29.10	-43.3	-46.2	16.4	0.00e+00	0	38	0	887095296	58	4965
2026-01-24 00:35:54.37	243.04	28.99	-43.3	-46.1	16.5	0.00e+00	0	38	0	889192448	58	4911
2026-01-24 00:35:55.66	242.79	28.79	-43.3	-46.2	16.5	0.00e+00	0	38	0	891289600	58	4936
2026-01-24 00:35:56.37	242.66	28.69	-43.2	-46.1	16.5	0.00e+00	0	38	0	892338176	58	4893
2026-01-24 00:35:57.78	242.40	28.48	-43.1	-46.0	16.7	0.00e+00	0	38	0	895483904	58	4815
2026-01-24 00:35:58.49	242.26	28.37	-43.1	-45.9	16.7	2.74e-05	0	38	0	896532480	58	4778
2026-01-24 00:35:59.76	242.03	28.18	-43.1	-45.9	16.8	0.00e+00	0	38	0	898629632	58	4767
2026-01-24 00:36:00.48	241.90	28.07	-42.9	-45.7	16.8	0.00e+00	0	38	0	900726784	57	4970
2026-01-24 00:36:01.75	241.67	27.89	-42.8	-45.5	17.0	0.00e+00	0	38	0	902823936	57	4854
2026-01-24 00:36:02.48	241.54	27.78	-42.8	-45.5	17.1	0.00e+00	0	38	0	903872512	57	4848
2026-01-24 00:36:03.76	241.31	27.59	-42.8	-45.6	17.0	0.00e+00	0	38	0	905969664	57	4911
2026-01-24 00:36:04.47	241.19	27.49	-42.9	-45.6	17.0	0.00e+00	0	38	0	908066816	57	4912
2026-01-24 00:36:05.75	240.97	27.30	-42.7	-45.4	17.1	0.00e+00	0	38	0	910163968	57	4813
2026-01-24 00:36:06.49	240.84	27.19	-42.7	-45.5	17.1	0.00e+00	0	38	0	911212544	57	4816
2026-01-24 00:36:07.77	240.62	27.01	-42.7	-45.5	17.1	0.00e+00	0	38	0	914358272	57	4815
2026-01-24 00:36:08.61	240.48	26.88	-42.7	-45.3	17.2	0.00e+00	0	38	0	915406848	57	4745
2026-01-24 00:36:09.74	240.29	26.72	-42.6	-45.3	17.3	0.00e+00	0	38	0	917504000	57	4726
2026-01-24 00:36:10.59	240.15	26.60	-42.7	-45.3	17.2	0.00e+00	0	38	0	919601152	57	4750
2026-01-24 00:36:12.16	239.89	26.38	-42.7	-45.3	17.2	0.00e+00	0	38	0	921698304	57	4758
2026-01-24 00:36:12.79	239.79	26.29	-42.6	-45.2	17.3	0.00e+00	0	38	0	922746880	57	4697
2026-01-24 00:36:14.26	239.55	26.08	-42.6	-45.2	17.3	0.00e+00	0	38	0	925892608	56	4958
2026-01-24 00:36:14.97	239.44	25.98	-42.7	-45.3	17.2	0.00e+00	0	38	0	926941184	56	5023
2026-01-24 00:36:16.25	239.24	25.80	-42.8	-45.5	17.1	0.00e+00	0	38	0	930086912	56	5133
2026-01-24 00:36:16.96	239.13	25.70	-42.8	-45.5	17.0	0.00e+00	0	38	0	931135488	56	5156
2026-01-24 00:36:18.24	238.93	25.52	-42.9	-45.6	17.0	0.00e+00	0	38	0	933232640	56	5179
2026-01-24 00:36:18.95	238.82	25.42	-42.8	-45.5	17.1	0.00e+00	0	38	0	934281216	56	5151
2026-01-24 00:36:20.23	238.62	25.24	-42.7	-45.3	17.2	0.00e+00	0	38	0	937426944	56	5037
2026-01-24 00:36:20.94	238.52	25.14	-42.5	-45.1	17.4	0.00e+00	0	38	0	938475520	56	4916
2026-01-24 00:36:22.22	238.32	24.97	-42.2	-44.7	17.8	0.00e+00	0	38	0	940572672	56	4675
2026-01-24 00:36:22.94	238.22	24.87	-42.2	-44.7	17.8	0.00e+00	0	38	0	942669824	56	4680
2026-01-24 00:36:24.22	238.03	24.69	-42.1	-44.7	17.8	0.00e+00	0	38	0	944766976	56	4663
2026-01-24 00:36:24.95	237.92	24.59	-42.1	-44.6	17.9	0.00e+00	0	38	0	945815552	56	4648
2026-01-24 00:36:26.23	237.74	24.42	-41.8	-44.3	18.0	0.00e+00	0	38	0	948961280	55	4738
2026-01-24 00:36:26.94	237.64	24.32	-41.9	-44.4	18.0	0.00e+00	0	38	0	950009856	55	4782
2026-01-24 00:36:28.22	237.45	24.15	-41.7	-44.2	18.2	0.00e+00	0	38	0	952107008	55	4687
2026-01-24 00:36:28.96	237.35	24.05	-41.8	-44.3	18.1	0.00e+00	0	38	0	953155584	55	4722
2026-01-24 00:36:30.24	237.17	23.88	-41.9	-44.4	18.0	0.00e+00	0	38	0	956301312	55	4798
2026-01-24 00:36:30.96	237.07	23.78	-42.2	-44.8	17.6	0.00e+00	0	38	0	957349888	55	5005
2026-01-24 00:36:32.24	236.90	23.61	-42.1	-44.7	17.6	0.00e+00	0	38	0	959447040	55	4968
2026-01-24 00:36:32.96	236.80	23.52	-42.3	-44.9	17.4	0.00e+00	0	38	0	961544192	55	5079
2026-01-24 00:36:34.24	236.63	23.35	-42.4	-45.1	17.3	0.00e+00	0	38	0	963641344	55	5163
2026-01-24 00:36:34.96	236.53	23.25	-42.5	-45.2	17.2	0.00e+00	0	38	0	964689920	55	5252
2026-01-24 00:36:36.24	236.36	23.09	-42.4	-45.1	17.3	0.00e+00	0	38	0	966787072	55	5172
2026-01-24 00:36:37.09	236.25	22.98	-42.4	-45.1	17.2	0.00e+00	0	38	0	968884224	55	5198
2026-01-24 00:36:38.53	236.06	22.79	-42.3	-44.9	17.4	0.00e+00	0	38	0	972029952	55	5095
2026-01-24 00:36:39.24	235.97	22.70	-42.2	-44.9	17.5	0.00e+00	0	38	0	973078528	55	5074
2026-01-24 00:36:40.52	235.81	22.53	-42.3	-45.0	17.4	0.00e+00	0	38	0	975175680	55	5120
2026-01-24 00:36:41.24	235.71	22.44	-42.3	-45.0	17.4	0.00e+00	0	38	0	976224256	55	5124
2026-01-24 00:36:42.52	235.55	22.28	-42.4	-45.1	17.3	0.00e+00	0	38	0	979369984	55	5170
2026-01-24 00:36:43.25	235.46	22.18	-42.4	-45.1	17.3	0.00e+00	0	38	0	980418560	55	5168
2026-01-24 00:36:44.86	235.26	21.98	-42.3	-45.1	17.3	0.00e+00	0	38	0	983564288	55	5164
2026-01-24 00:36:45.43	235.19	21.91	-42.3	-45.0	17.4	0.00e+00	0	38	0	984612864	55	5104
2026-01-24 00:36:47.13	234.99	21.70	-42.2	-44.9	17.4	0.00e+00	0	38	0	987758592	55	5079
2026-01-24 00:36:47.70	234.92	21.62	-42.2	-44.9	17.4	0.00e+00	0	38	0	988807168	55	5066
2026-01-24 00:36:49.41	234.72	21.41	-42.0	-44.6	17.8	0.00e+00	0	38	0	991952896	55	4872
2026-01-24 00:36:49.97	234.65	21.34	-42.0	-44.6	17.8	0.00e+00	0	38	0	993001472	55	4878
2026-01-24 00:36:51.68	234.45	21.13	-42.0	-44.6	17.7	0.00e+00	0	38	0	996147200	55	4899
2026-01-24 00:36:52.42	234.36	21.04	-42.0	-44.6	17.7	0.00e+00	0	38	0	997195776	55	4924
2026-01-24 00:36:53.70	234.22	20.88	-42.1	-44.8	17.5	0.00e+00	0	38	0	1000341504	55	4995
2026-01-24 00:36:54.41	234.14	20.80	-42.2	-44.9	17.4	0.00e+00	0	38	0	1001390080	55	5070
2026-01-24 00:36:55.69	233.99	20.64	-42.2	-44.8	17.5	0.00e+00	0	38	0	1003487232	55	5037
2026-01-24 00:36:56.40	233.91	20.55	-42.2	-44.8	17.5	0.00e+00	0	38	0	1004535808	55	5024
2026-01-24 00:36:57.76	233.76	20.39	-42.2	-44.9	17.5	0.00e+00	0	38	0	1007681536	55	5052
2026-01-24 00:36:58.47	233.68	20.31	-42.1	-44.8	17.5	0.00e+00	0	38	0	1008730112	55	5011
2026-01-24 00:36:59.75	233.54	20.15	-42.2	-44.9	17.4	0.00e+00	0	38	0	1010827264	55	5052
2026-01-24 00:37:00.46	233.47	20.07	-42.3	-45.0	17.4	0.00e+00	0	38	0	1012924416	55	5105
2026-01-24 00:37:01.73	233.33	19.92	-42.1	-44.7	17.6	0.00e+00	0	38	0	1015021568	55	4966
2026-01-24 00:37:02.46	233.25	19.83	-42.0	-44.7	17.7	0.00e+00	0	38	0	1016070144	55	4927
2026-01-24 00:37:03.74	233.12	19.68	-42.1	-44.7	17.6	0.00e+00	0	38	0	1019215872	55	4939
2026-01-24 00:37:04.48	233.04	19.59	-42.0	-44.6	17.7	0.00e+00	0	38	0	1020264448	55	4871
2026-01-24 00:37:05.76	232.91	19.44	-41.9	-44.4	17.9	0.00e+00	0	38	0	1022361600	55	4803
2026-01-24 00:37:06.48	232.83	19.36	-41.9	-44.5	17.8	0.00e+00	0	38	0	1024458752	55	4817
2026-01-24 00:37:07.76	232.70	19.21	-41.9	-44.4	17.8	0.00e+00	0	38	0	1026555904	55	4804
2026-01-24 00:37:08.60	232.61	19.11	-41.9	-44.5	17.8	0.00e+00	0	38	0	1027604480	55	4845
2026-01-24 00:37:10.05	232.47	18.95	-42.0	-44.5	17.7	0.00e+00	0	38	0	1030750208	55	4848
2026-01-24 00:37:10.76	232.40	18.87	-42.0	-44.6	17.6	0.00e+00	0	38	0	1031798784	55	4910
2026-01-24 00:37:12.25	232.25	18.70	-42.2	-44.8	17.4	0.00e+00	0	38	0	1034944512	55	5019
2026-01-24 00:37:12.96	232.18	18.62	-42.2	-44.8	17.5	0.00e+00	0	38	0	1035993088	55	5014
2026-01-24 00:37:14.24	232.05	18.47	-42.3	-45.0	17.3	0.00e+00	0	38	0	1038090240	55	5136
2026-01-24 00:37:14.95	231.99	18.39	-42.4	-45.1	17.2	0.00e+00	0	38	0	1040187392	55	5176
2026-01-24 00:37:16.23	231.86	18.25	-42.5	-45.3	17.0	0.00e+00	0	38	0	1042284544	55	5311
2026-01-24 00:37:16.94	231.79	18.17	-42.5	-45.3	17.0	0.00e+00	0	38	0	1043333120	55	5304
2026-01-24 00:37:18.22	231.67	18.03	-42.5	-45.2	17.0	0.00e+00	0	38	0	1046478848	55	5273
2026-01-24 00:37:18.94	231.61	17.95	-42.5	-45.3	17.0	0.00e+00	0	38	0	1047527424	55	5292
2026-01-24 00:37:20.22	231.49	17.80	-42.3	-45.0	17.2	0.00e+00	0	38	0	1049624576	55	5151
2026-01-24 00:37:20.95	231.42	17.72	-42.4	-45.1	17.1	0.00e+00	0	38	0	1050673152	55	5197
2026-01-24 00:37:22.23	231.30	17.58	-42.3	-45.0	17.2	0.00e+00	0	38	0	1053818880	55	5126
2026-01-24 00:37:22.94	231.24	17.51	-42.3	-45.0	17.3	0.00e+00	0	38	0	1054867456	55	5111
2026-01-24 00:37:24.22	231.12	17.37	-42.1	-44.7	17.5	0.00e+00	0	38	0	1056964608	55	4962
2026-01-24 00:37:24.93	231.06	17.29	-42.1	-44.8	17.5	0.00e+00	0	38	0	1059061760	55	5000
2026-01-24 00:37:26.21	230.94	17.15	-42.1	-44.7	17.5	0.00e+00	0	38	0	1061158912	55	4977
2026-01-24 00:37:27.16	230.86	17.05	-42.2	-44.8	17.4	0.00e+00	0	38	0	1063256064	55	5028
2026-01-24 00:37:28.47	230.74	16.91	-42.3	-45.0	17.3	0.00e+00	0	38	0	1065353216	55	5106
2026-01-24 00:37:29.21	230.68	16.83	-42.3	-45.0	17.2	0.00e+00	0	38	0	1066401792	55	5133
2026-01-24 00:37:30.49	230.57	16.69	-42.4	-45.1	17.1	0.00e+00	0	38	0	1068498944	55	5192
2026-01-24 00:37:31.24	230.50	16.61	-42.5	-45.3	17.0	0.00e+00	0	38	0	1070596096	55	5296
2026-01-24 00:37:32.52	230.39	16.48	-42.5	-45.3	17.0	0.00e+00	0	38	0	1072693248	55	5284
2026-01-24 00:37:33.25	230.33	16.40	-42.5	-45.3	16.9	0.00e+00	0	38	0	1073741824	55	5310
2026-01-24 00:37:34.53	230.22	16.27	-42.6	-45.3	16.9	0.00e+00	0	38	0	1076887552	55	5335
2026-01-24 00:37:35.25	230.16	16.19	-42.6	-45.3	16.9	0.00e+00	0	38	0	1077936128	55	5332
2026-01-24 00:37:36.53	230.06	16.06	-42.6	-45.4	16.8	0.00e+00	0	38	0	1080033280	55	5363
2026-01-24 00:37:37.26	230.00	15.98	-42.5	-45.3	16.8	0.00e+00	0	38	0	1082130432	55	5335
2026-01-24 00:37:38.54	229.89	15.85	-42.5	-45.2	16.9	0.00e+00	0	38	0	1084227584	55	5275
2026-01-24 00:37:39.25	229.84	15.78	-42.4	-45.2	17.0	0.00e+00	0	38	0	1085276160	55	5230
2026-01-24 00:37:40.53	229.73	15.65	-42.4	-45.2	17.0	0.00e+00	0	38	0	1087373312	55	5230
2026-01-24 00:37:41.24	229.68	15.57	-42.4	-45.2	17.0	0.00e+00	0	38	0	1089470464	55	5245
2026-01-24 00:37:42.72	229.56	15.42	-42.4	-45.1	17.1	0.00e+00	0	38	0	1091567616	55	5197
2026-01-24 00:37:43.43	229.50	15.35	-42.3	-45.1	17.1	0.00e+00	0	38	0	1093664768	55	5178
2026-01-24 00:37:44.77	229.40	15.22	-42.5	-45.2	16.9	0.00e+00	0	38	0	1095761920	55	5268
2026-01-24 00:37:45.48	229.34	15.14	-42.5	-45.3	16.9	0.00e+00	0	38	0	1096810496	55	5287
2026-01-24 00:37:46.76	229.24	15.02	-42.5	-45.2	16.9	0.00e+00	0	38	0	1099956224	55	5266
2026-01-24 00:37:47.49	229.19	14.94	-42.5	-45.4	16.8	0.00e+00	0	38	0	1101004800	55	5341
2026-01-24 00:37:48.77	229.09	14.82	-42.6	-45.4	16.8	0.00e+00	0	38	0	1103101952	55	5384
2026-01-24 00:37:49.49	229.04	14.74	-42.6	-45.5	16.7	0.00e+00	0	38	0	1104150528	55	5404
2026-01-24 00:37:50.77	228.94	14.62	-42.9	-45.8	16.5	0.00e+00	0	38	0	1107296256	56	5298
2026-01-24 00:37:51.48	228.89	14.55	-42.8	-45.7	16.7	0.00e+00	0	38	0	1108344832	56	5230
2026-01-24 00:37:52.76	228.79	14.42	-42.9	-45.8	16.5	0.00e+00	0	38	0	1110441984	56	5294
2026-01-24 00:37:53.47	228.74	14.35	-42.9	-45.8	16.5	0.00e+00	0	38	0	1112539136	56	5338
2026-01-24 00:37:54.75	228.65	14.23	-42.9	-45.8	16.5	0.00e+00	0	38	0	1114636288	56	5310
2026-01-24 00:37:55.48	228.59	14.16	-43.0	-45.9	16.4	0.00e+00	0	38	0	1115684864	56	5373
2026-01-24 00:37:56.76	228.50	14.03	-43.0	-45.9	16.4	0.00e+00	0	38	0	1117782016	56	5394
2026-01-24 00:37:57.47	228.45	13.97	-43.0	-45.9	16.4	0.00e+00	0	38	0	1119879168	56	5396
2026-01-24 00:37:58.75	228.36	13.84	-43.1	-46.0	16.3	0.00e+00	0	38	0	1121976320	56	5450
2026-01-24 00:37:59.47	228.31	13.77	-43.0	-46.0	16.3	0.00e+00	0	38	0	1123024896	56	5435
2026-01-24 00:38:00.74	228.22	13.65	-43.1	-46.0	16.3	0.00e+00	0	38	0	1126170624	56	5460
2026-01-24 00:38:01.69	228.15	13.56	-43.1	-46.1	16.2	0.00e+00	0	38	0	1127219200	56	5485
2026-01-24 00:38:02.69	228.09	13.47	-43.1	-46.1	16.0	0.00e+00	0	38	0	1129316352	56	5495
2026-01-24 00:38:03.68	228.02	13.37	-43.1	-46.0	16.2	0.00e+00	0	38	0	1131413504	56	5451
2026-01-24 00:38:04.68	227.95	13.28	-43.1	-46.1	16.2	0.00e+00	0	38	0	1133510656	56	5483
2026-01-24 00:38:05.67	227.88	13.19	-43.0	-45.9	16.3	0.00e+00	0	38	0	1134559232	56	5396
2026-01-24 00:38:06.66	227.82	13.09	-43.1	-46.1	16.2	0.00e+00	0	38	0	1136656384	56	5490
2026-01-24 00:38:07.66	227.75	13.00	-43.2	-46.2	16.1	0.00e+00	0	38	0	1138753536	56	5543
2026-01-24 00:38:08.65	227.68	12.91	-43.1	-46.0	16.2	0.00e+00	0	38	0	1140850688	57	5137
2026-01-24 00:38:09.65	227.62	12.82	-43.1	-46.1	16.2	0.00e+00	0	38	0	1141899264	57	5176
2026-01-24 00:38:10.64	227.55	12.72	-43.1	-46.1	16.1	0.00e+00	0	38	0	1143996416	57	5199
2026-01-24 00:38:11.63	227.49	12.63	-43.2	-46.2	16.1	0.00e+00	0	38	0	1146093568	57	5226
2026-01-24 00:38:12.63	227.42	12.54	-43.1	-46.1	16.2	0.00e+00	0	38	0	1148190720	57	5179
2026-01-24 00:38:13.62	227.36	12.45	-43.2	-46.2	16.1	0.00e+00	0	38	0	1150287872	57	5233
2026-01-24 00:38:14.62	227.29	12.36	-43.2	-46.2	16.1	0.00e+00	0	38	0	1151336448	57	5245
2026-01-24 00:38:15.62	227.23	12.27	-43.2	-46.2	16.0	0.00e+00	0	38	0	1153433600	57	5270
2026-01-24 00:38:16.96	227.15	12.15	-43.2	-46.2	16.0	0.00e+00	0	38	0	1155530752	57	5258
2026-01-24 00:38:17.71	227.10	12.08	-43.1	-46.1	16.1	0.00e+00	0	38	0	1157627904	57	5201
2026-01-24 00:38:18.99	227.02	11.97	-43.2	-46.2	16.0	0.00e+00	0	38	0	1159725056	57	5245
2026-01-24 00:38:19.70	226.98	11.90	-43.2	-46.2	16.0	0.00e+00	0	38	0	1160773632	57	5267
2026-01-24 00:38:20.98	226.90	11.79	-43.2	-46.2	16.0	0.00e+00	0	38	0	1163919360	57	5278
2026-01-24 00:38:21.69	226.85	11.73	-43.3	-46.4	15.8	0.00e+00	0	38	0	1164967936	57	5351
2026-01-24 00:38:22.97	226.78	11.61	-43.2	-46.3	15.9	0.00e+00	0	38	0	1167065088	57	5287
2026-01-24 00:38:23.69	226.73	11.55	-43.2	-46.3	15.9	0.00e+00	0	38	0	1169162240	57	5297
2026-01-24 00:38:24.96	226.66	11.44	-43.2	-46.3	15.9	0.00e+00	0	38	0	1171259392	57	5292
2026-01-24 00:38:25.69	226.61	11.37	-43.2	-46.3	15.9	0.00e+00	0	38	0	1172307968	57	5316
2026-01-24 00:38:26.97	226.54	11.26	-43.2	-46.3	15.9	0.00e+00	0	38	0	1174405120	57	5329
2026-01-24 00:38:27.68	226.49	11.20	-43.3	-46.4	15.8	0.00e+00	0	38	0	1176502272	57	5376
2026-01-24 00:38:28.96	226.42	11.09	-43.4	-46.5	15.6	0.00e+00	0	38	0	1178599424	57	5456
2026-01-24 00:38:29.68	226.38	11.03	-43.4	-46.5	15.6	0.00e+00	0	38	0	1179648000	57	5440
2026-01-24 00:38:30.96	226.30	10.92	-43.5	-46.6	15.5	0.00e+00	0	38	0	1182793728	57	5517
2026-01-24 00:38:31.69	226.26	10.85	-43.5	-46.6	15.5	0.00e+00	0	38	0	1183842304	57	5523
2026-01-24 00:38:32.97	226.19	10.74	-43.5	-46.6	15.5	0.00e+00	0	38	0	1185939456	57	5527
2026-01-24 00:38:33.70	226.15	10.68	-43.6	-46.8	15.4	0.00e+00	0	38	0	1186988032	57	5617
2026-01-24 00:38:34.98	226.07	10.57	-43.4	-46.6	15.5	0.00e+00	0	38	0	1190133760	57	5493
2026-01-24 00:38:35.69	226.04	10.51	-43.6	-46.8	15.4	0.00e+00	0	38	0	1191182336	57	5605
2026-01-24 00:38:36.97	225.96	10.40	-43.6	-46.9	15.2	0.00e+00	0	38	0	1193279488	57	5695
2026-01-24 00:38:37.69	225.92	10.34	-43.6	-46.9	15.2	0.00e+00	0	38	0	1195376640	57	5687
2026-01-24 00:38:38.97	225.85	10.23	-43.7	-47.0	15.2	0.00e+00	0	38	0	1197473792	58	5419
2026-01-24 00:38:39.69	225.81	10.17	-43.7	-47.0	15.1	0.00e+00	0	38	0	1198522368	58	5450
2026-01-24 00:38:40.97	225.74	10.07	-43.8	-47.1	15.0	0.00e+00	0	38	0	1200619520	58	5512
2026-01-24 00:38:41.70	225.70	10.01	-43.7	-47.0	15.1	0.00e+00	0	38	0	1202716672	58	5458
2026-01-24 00:38:42.97	225.64	9.90	-43.7	-47.0	15.1	0.00e+00	0	38	0	1204813824	58	5463
2026-01-24 00:38:43.68	225.60	9.84	-43.8	-47.2	14.9	0.00e+00	0	38	0	1205862400	58	5568
2026-01-24 00:38:44.96	225.53	9.74	-43.8	-47.2	14.8	0.00e+00	0	38	0	1209008128	58	5575
2026-01-24 00:38:45.67	225.49	9.68	-43.7	-47.1	15.0	7.00e-07	0	38	0	1210056704	58	5512
2026-01-24 00:38:46.95	225.43	9.57	-43.6	-47.0	15.1	0.00e+00	0	38	0	1212153856	58	5444
2026-01-24 00:38:47.66	225.39	9.51	-43.6	-47.0	15.1	0.00e+00	0	38	0	1213202432	58	5439
2026-01-24 00:38:49.23	225.31	9.39	-43.5	-46.9	15.2	0.00e+00	0	38	0	1216348160	58	5351
2026-01-24 00:38:49.84	225.28	9.34	-43.5	-46.8	15.2	0.00e+00	0	38	0	1217396736	58	5330
2026-01-24 00:38:51.41	225.20	9.21	-43.5	-46.8	15.2	0.00e+00	0	38	0	1220542464	58	5331
2026-01-24 00:38:52.04	225.16	9.16	-43.5	-46.9	15.2	0.00e+00	0	38	0	1221591040	58	5344
2026-01-24 00:38:53.56	225.09	9.03	-43.9	-47.4	14.8	0.00e+00	0	38	0	1224736768	58	5667
2026-01-24 00:38:54.27	225.05	8.98	-48.1	-63.2	3.8	4.91e-01	0	38	104	1225785344	66	22172
2026-01-24 00:38:55.54	224.99	8.88	-48.2	-63.5	3.8	1.49e+00	0	38	104	1225785344	67	21727
2026-01-24 00:38:56.25	224.95	8.82	-48.4	-63.6	3.8	1.49e+00	0	38	104	1225785344	67	21820
2026-01-24 00:38:57.53	224.89	8.72	-48.4	-63.8	3.8	1.49e+00	0	38	104	1225785344	67	22276
2026-01-24 00:38:58.26	224.85	8.66	-48.5	-63.8	3.8	1.49e+00	0	38	104	1225785344	67	22281
