passes_logs/2026/01/24/T1/T1__20260124_013631_AQUA_rec.log

#Pass ID: 20260124_013631_AQUA
#Satellite: AQUA
#Configuration: AQUA
#almurnet v.1.7.20251203
#Start time: 2026-01-24 01:36:31

#Version: 2.0.20230620
#Station: T1
#Location: 37.570604 lon 55.790049 lat
#TLE: 1 27424U 02022A   26022.96978264  .00001879  00000+0  38593-3 0  9993
#TLE: 2 27424  98.4100 349.5315 0001958  69.4371  21.4765 14.61848807262053

#Time	Az	El	Level	Level2	SNR	BER	BlckErr	Temp	State	Recorded	gain1	gain2
2026-01-24 01:36:31.08	13.89	4.98	-46.1	-70.1	3.8	7.47e-01	0	35	0	0	64	55176
2026-01-24 01:36:32.07	13.88	5.05	-48.5	-69.9	3.8	7.44e-01	0	35	104	0	67	45177
2026-01-24 01:36:33.06	13.87	5.12	-48.5	-69.9	3.8	7.47e-01	0	35	104	0	67	45194
2026-01-24 01:36:34.06	13.86	5.20	-48.5	-69.9	3.8	7.47e-01	0	35	104	0	67	45297
2026-01-24 01:36:35.05	13.85	5.27	-48.5	-69.9	3.8	7.46e-01	0	35	104	0	67	45311
2026-01-24 01:36:36.04	13.84	5.35	-48.5	-69.9	3.8	7.47e-01	0	35	104	0	67	45407
2026-01-24 01:36:37.04	13.83	5.42	-48.5	-69.9	3.8	7.45e-01	0	35	104	0	67	45395
2026-01-24 01:36:38.03	13.82	5.50	-48.5	-70.0	3.8	7.45e-01	0	35	104	0	67	45484
2026-01-24 01:36:39.02	13.80	5.57	-48.5	-70.0	3.8	7.47e-01	0	35	104	0	67	45511
2026-01-24 01:36:40.01	13.79	5.65	-48.5	-70.0	3.8	7.48e-01	0	35	104	0	67	45582
2026-01-24 01:36:41.01	13.78	5.73	-48.5	-70.0	3.8	7.45e-01	0	36	104	0	67	45664
2026-01-24 01:36:42.00	13.77	5.80	-48.5	-70.0	3.8	7.44e-01	0	36	104	0	67	45811
2026-01-24 01:36:42.99	13.76	5.88	-48.5	-70.0	3.8	7.47e-01	0	35	104	0	67	45817
2026-01-24 01:36:43.99	13.74	5.96	-48.5	-70.0	3.8	7.46e-01	0	36	104	0	67	45805
2026-01-24 01:36:44.98	13.73	6.03	-48.5	-70.0	3.8	7.49e-01	0	35	104	0	67	45847
2026-01-24 01:36:45.97	13.72	6.11	-48.5	-70.0	3.8	7.48e-01	0	36	104	0	67	45898
2026-01-24 01:36:46.96	13.71	6.19	-48.5	-70.0	3.8	7.46e-01	0	36	104	0	67	45853
2026-01-24 01:36:47.96	13.70	6.27	-48.5	-70.0	3.8	7.46e-01	0	36	104	0	67	45774
2026-01-24 01:36:48.95	13.68	6.34	-48.5	-70.0	3.8	7.45e-01	0	36	104	0	67	45649
2026-01-24 01:36:49.94	13.67	6.42	-48.5	-70.0	3.8	7.48e-01	0	36	104	0	67	45500
2026-01-24 01:36:50.94	13.66	6.50	-48.5	-69.9	3.8	7.49e-01	0	36	104	0	67	45041
2026-01-24 01:36:51.93	13.64	6.58	-48.5	-69.8	3.8	7.45e-01	0	36	104	0	67	44718
2026-01-24 01:36:52.92	13.63	6.66	-48.5	-69.7	3.8	7.44e-01	0	36	104	0	67	44174
2026-01-24 01:36:53.92	13.62	6.74	-48.5	-69.6	3.8	7.45e-01	0	36	104	0	67	43663
2026-01-24 01:36:54.91	13.61	6.82	-48.5	-69.5	3.8	7.45e-01	0	36	104	0	67	43292
2026-01-24 01:36:55.90	13.59	6.90	-48.5	-69.4	3.8	7.44e-01	0	36	104	0	67	42871
2026-01-24 01:36:56.90	13.58	6.98	-48.5	-69.4	3.8	7.46e-01	0	36	104	0	67	42656
2026-01-24 01:36:57.89	13.56	7.06	-48.5	-69.4	3.8	7.47e-01	0	36	104	0	67	42616
2026-01-24 01:36:58.88	13.55	7.14	-48.5	-69.4	3.8	7.45e-01	0	36	104	0	67	42486
2026-01-24 01:36:59.88	13.54	7.22	-48.5	-69.3	3.8	7.47e-01	0	36	104	0	67	42415
2026-01-24 01:37:00.87	13.52	7.30	-48.5	-69.3	3.8	7.48e-01	0	36	104	0	67	42388
2026-01-24 01:37:01.86	13.51	7.38	-48.5	-69.3	3.8	7.47e-01	0	36	104	0	67	42183
2026-01-24 01:37:02.86	13.50	7.47	-48.5	-69.3	3.8	7.45e-01	0	36	104	0	67	41978
2026-01-24 01:37:03.85	13.48	7.55	-48.5	-69.1	3.8	7.47e-01	0	36	104	0	67	41270
2026-01-24 01:37:04.84	13.47	7.63	-48.4	-68.9	3.8	7.45e-01	0	36	104	0	67	40296
2026-01-24 01:37:05.84	13.45	7.71	-48.4	-68.6	3.8	7.46e-01	0	36	104	0	67	39069
2026-01-24 01:37:06.83	13.44	7.80	-48.3	-68.3	3.8	7.47e-01	0	36	104	0	67	37381
2026-01-24 01:37:07.82	13.42	7.88	-48.3	-67.7	3.8	7.41e-01	0	36	104	0	67	34946
2026-01-24 01:37:08.82	13.41	7.96	-48.2	-67.0	3.8	7.48e-01	0	36	104	0	67	32387
2026-01-24 01:37:09.81	13.39	8.05	-48.0	-66.2	3.8	7.44e-01	0	36	104	0	67	29397
2026-01-24 01:37:10.81	13.38	8.13	-47.7	-65.1	3.8	7.46e-01	0	36	104	0	67	26152
2026-01-24 01:37:11.80	13.36	8.22	-47.5	-64.1	3.8	7.45e-01	0	36	104	0	67	23272
2026-01-24 01:37:12.79	13.35	8.30	-47.2	-63.2	3.8	7.41e-01	0	36	104	0	66	22153
2026-01-24 01:37:13.78	13.33	8.39	-46.8	-62.2	3.8	7.46e-01	0	36	104	0	65	20906
2026-01-24 01:37:14.78	13.32	8.47	-46.5	-61.3	3.8	7.49e-01	0	36	104	0	65	18825
2026-01-24 01:37:15.77	13.30	8.56	-46.2	-60.7	3.8	7.44e-01	0	36	104	0	64	18578
2026-01-24 01:37:16.76	13.29	8.64	-46.0	-60.1	3.8	7.43e-01	0	36	104	0	63	18474
2026-01-24 01:37:17.76	13.27	8.73	-45.8	-59.7	3.8	7.47e-01	0	36	104	0	63	17590
2026-01-24 01:37:18.75	13.26	8.82	-45.6	-59.4	3.8	7.48e-01	0	36	104	0	63	16927
2026-01-24 01:37:19.74	13.24	8.91	-45.5	-59.2	3.8	7.47e-01	0	36	104	0	62	17511
2026-01-24 01:37:20.73	13.22	8.99	-45.6	-59.3	3.8	7.44e-01	0	36	104	0	62	17713
2026-01-24 01:37:21.73	13.21	9.08	-45.4	-59.0	3.8	7.46e-01	0	37	104	0	62	17084
2026-01-24 01:37:22.93	13.19	9.19	-47.9	-66.2	3.8	7.48e-01	0	37	104	0	66	31387
2026-01-24 01:37:23.81	13.17	9.27	-43.8	-56.5	3.8	7.42e-01	0	36	104	0	59	15323
2026-01-24 01:37:24.95	13.15	9.37	-44.3	-57.2	3.8	7.45e-01	0	36	104	0	59	16539
2026-01-24 01:37:25.87	13.14	9.45	-45.7	-59.6	3.8	7.47e-01	0	36	104	0	61	19467
2026-01-24 01:37:26.86	13.12	9.54	-43.1	-55.6	3.8	7.48e-01	0	37	104	0	58	14627
2026-01-24 01:37:27.85	13.10	9.63	-42.8	-55.2	3.8	7.46e-01	0	37	104	0	57	14764
2026-01-24 01:37:28.85	13.09	9.72	-42.9	-55.3	3.8	7.47e-01	0	37	104	0	57	15001
2026-01-24 01:37:29.84	13.07	9.81	-42.9	-55.2	3.8	7.51e-01	0	36	104	0	57	14807
2026-01-24 01:37:30.84	13.05	9.91	-42.7	-55.0	3.8	7.44e-01	0	37	104	0	57	14540
2026-01-24 01:37:31.83	13.03	10.00	-42.8	-55.1	3.8	7.47e-01	0	36	104	0	57	14628
2026-01-24 01:37:32.82	13.01	10.09	-47.5	-64.6	3.8	7.52e-01	0	37	104	0	65	27521
2026-01-24 01:37:33.82	13.00	10.18	-44.2	-57.4	3.8	7.45e-01	0	37	104	0	60	15988
2026-01-24 01:37:34.81	12.98	10.27	-44.6	-57.9	3.8	7.46e-01	0	36	104	0	60	16940
2026-01-24 01:37:35.81	12.96	10.37	-42.9	-55.3	3.8	7.43e-01	0	37	104	0	57	15036
2026-01-24 01:37:36.85	12.94	10.47	-42.7	-55.1	3.8	7.46e-01	0	37	104	0	57	14648
2026-01-24 01:37:37.84	12.92	10.56	-42.7	-55.2	3.8	7.47e-01	0	37	104	0	57	14769
2026-01-24 01:37:38.84	12.90	10.65	-42.5	-55.0	3.8	7.48e-01	0	37	104	0	57	14382
2026-01-24 01:37:39.94	12.88	10.76	-42.4	-54.7	3.8	7.46e-01	0	37	104	0	56	14762
2026-01-24 01:37:40.83	12.86	10.84	-42.6	-55.0	3.8	7.45e-01	0	37	104	0	56	15333
2026-01-24 01:37:41.96	12.84	10.95	-47.8	-65.6	3.7	7.49e-01	0	37	104	0	66	29287
2026-01-24 01:37:42.82	12.83	11.04	-44.4	-57.5	3.9	7.45e-01	0	37	104	0	60	16232
2026-01-24 01:37:43.96	12.80	11.15	-45.3	-59.6	3.7	7.44e-01	0	37	104	0	61	19472
2026-01-24 01:37:44.81	12.79	11.23	-43.2	-55.7	3.8	7.45e-01	0	37	104	0	58	14871
2026-01-24 01:37:45.95	12.76	11.34	-42.8	-55.2	3.8	7.43e-01	0	37	104	0	57	14849
2026-01-24 01:37:46.80	12.75	11.43	-42.8	-55.2	3.8	7.44e-01	0	37	104	0	57	14766
2026-01-24 01:37:47.93	12.72	11.54	-42.6	-54.9	3.8	7.52e-01	0	37	104	0	57	14248
2026-01-24 01:37:48.79	12.70	11.62	-42.6	-55.0	3.8	7.46e-01	0	37	104	0	57	14399
2026-01-24 01:37:49.92	12.68	11.74	-42.4	-54.8	3.8	7.45e-01	0	37	104	0	56	14962
2026-01-24 01:37:50.78	12.66	11.82	-47.1	-63.0	3.8	7.47e-01	0	37	104	0	64	24314
2026-01-24 01:37:51.91	12.64	11.94	-45.6	-59.2	3.9	7.45e-01	0	37	104	0	63	16562
2026-01-24 01:37:52.82	12.62	12.03	-44.7	-58.2	3.8	7.50e-01	0	37	104	0	60	17568
2026-01-24 01:37:53.83	12.60	12.13	-44.0	-56.7	3.8	7.47e-01	0	37	104	0	59	15739
2026-01-24 01:37:54.82	12.58	12.23	-43.4	-46.6	22.5	6.03e-01	0	37	0	1048576	58	5205
2026-01-24 01:37:55.82	12.55	12.33	-43.5	-46.8	22.5	6.05e-01	0	37	0	2621440	58	5310
2026-01-24 01:37:56.82	12.53	12.44	-43.5	-46.7	22.4	6.04e-01	0	37	0	4718592	58	5229
2026-01-24 01:37:57.81	12.51	12.54	-42.8	-45.8	23.3	6.02e-01	0	37	0	6291456	57	4992
2026-01-24 01:37:58.81	12.49	12.64	-42.2	-45.1	24.0	6.03e-01	0	37	0	8388608	56	4875
2026-01-24 01:37:59.80	12.46	12.75	-41.8	-44.6	24.3	6.04e-01	0	37	0	9961472	55	4910
2026-01-24 01:38:00.80	12.44	12.85	-41.6	-44.4	24.6	6.07e-01	0	37	0	12058624	55	4769
2026-01-24 01:38:01.79	12.42	12.95	-41.5	-44.3	24.7	6.03e-01	0	37	0	14155776	54	4992
2026-01-24 01:38:02.79	12.39	13.06	-41.3	-44.0	24.9	6.04e-01	0	37	0	15728640	54	4851
2026-01-24 01:38:03.78	12.37	13.17	-41.3	-44.0	24.9	6.06e-01	0	37	0	17825792	54	4863
2026-01-24 01:38:04.78	12.35	13.27	-41.4	-44.1	24.8	6.02e-01	0	37	0	19398656	54	4900
2026-01-24 01:38:05.85	12.32	13.39	-41.2	-43.9	24.4	6.04e-01	0	37	0	21495808	54	4804
2026-01-24 01:38:06.74	12.30	13.48	-41.2	-43.9	25.0	6.03e-01	0	37	0	23068672	54	4811
2026-01-24 01:38:08.08	12.27	13.63	-41.2	-43.9	25.0	6.04e-01	0	37	0	25690112	54	4775
2026-01-24 01:38:08.79	12.25	13.71	-41.3	-44.0	25.0	6.04e-01	0	37	0	27262976	54	4821
2026-01-24 01:38:10.07	12.22	13.85	-41.2	-43.8	25.1	6.04e-01	0	37	0	29360128	54	4750
2026-01-24 01:38:10.79	12.20	13.93	-41.3	-43.9	25.0	6.04e-01	0	37	0	30932992	54	4796
2026-01-24 01:38:12.07	12.17	14.07	-41.1	-43.7	25.2	6.06e-01	0	37	0	33030144	54	4688
2026-01-24 01:38:12.80	12.15	14.15	-41.2	-43.8	25.2	6.03e-01	0	37	0	34603008	54	4713
2026-01-24 01:38:14.08	12.12	14.29	-41.3	-43.9	24.0	6.04e-01	0	37	0	36700160	54	4777
2026-01-24 01:38:14.79	12.10	14.37	-41.2	-43.8	25.2	6.04e-01	0	37	0	38273024	54	4719
2026-01-24 01:38:16.07	12.06	14.52	-41.0	-43.6	25.3	6.06e-01	0	37	0	40894464	54	4636
2026-01-24 01:38:16.89	12.04	14.61	-41.0	-43.6	25.3	6.06e-01	0	37	0	42467328	54	4637
2026-01-24 01:38:18.03	12.01	14.74	-41.0	-43.6	25.3	6.04e-01	0	37	0	44564480	54	4635
2026-01-24 01:38:18.88	11.99	14.84	-41.0	-43.6	25.3	6.05e-01	0	37	0	46137344	54	4643
2026-01-24 01:38:20.02	11.96	14.97	-40.9	-43.5	25.3	6.01e-01	0	37	0	48234496	53	4860
2026-01-24 01:38:20.87	11.93	15.07	-40.9	-43.6	25.4	6.04e-01	0	37	0	49807360	53	4871
2026-01-24 01:38:22.00	11.90	15.20	-40.9	-43.6	25.3	6.06e-01	0	37	0	51904512	53	4884
2026-01-24 01:38:22.86	11.88	15.30	-40.9	-43.6	25.3	6.06e-01	0	37	0	53477376	53	4903
2026-01-24 01:38:24.00	11.84	15.43	-40.9	-43.6	25.3	6.04e-01	0	37	0	55574528	53	4914
2026-01-24 01:38:24.85	11.82	15.54	-41.0	-43.8	25.2	6.02e-01	0	37	0	57147392	53	5009
2026-01-24 01:38:25.99	11.79	15.67	-41.1	-43.9	25.1	6.02e-01	0	37	0	59244544	53	5058
2026-01-24 01:38:26.84	11.76	15.77	-41.0	-43.8	25.2	6.05e-01	0	37	0	60817408	53	5003
2026-01-24 01:38:27.98	11.73	15.91	-41.0	-43.8	25.1	6.05e-01	0	37	0	62914560	53	5000
2026-01-24 01:38:28.83	11.70	16.01	-40.9	-43.8	25.0	6.04e-01	0	37	0	64487424	53	4986
2026-01-24 01:38:29.97	11.67	16.15	-41.1	-43.9	24.8	6.04e-01	0	37	0	66584576	53	5074
2026-01-24 01:38:30.83	11.64	16.26	-41.0	-43.9	25.1	6.06e-01	0	37	0	68157440	53	5055
2026-01-24 01:38:31.96	11.61	16.40	-41.1	-43.9	25.0	6.04e-01	0	37	0	70254592	53	5095
2026-01-24 01:38:32.82	11.58	16.50	-40.9	-43.9	25.1	6.07e-01	0	37	0	72351744	53	5077
2026-01-24 01:38:33.96	11.54	16.64	-41.0	-44.0	25.0	6.03e-01	0	37	0	74448896	53	5101
2026-01-24 01:38:34.81	11.52	16.75	-41.0	-43.9	25.0	6.04e-01	0	37	0	76021760	53	5096
2026-01-24 01:38:35.95	11.48	16.89	-41.0	-43.9	25.0	6.02e-01	0	37	0	78118912	53	5091
2026-01-24 01:38:36.80	11.45	17.00	-40.9	-43.9	25.1	6.02e-01	0	37	0	79691776	53	5076
2026-01-24 01:38:37.93	11.42	17.14	-40.9	-43.9	25.1	6.05e-01	0	37	0	81788928	53	5048
2026-01-24 01:38:38.78	11.39	17.25	-40.9	-43.9	25.1	6.02e-01	0	37	0	83361792	53	5058
2026-01-24 01:38:39.92	11.35	17.40	-41.0	-43.9	25.0	6.02e-01	0	37	0	85458944	53	5081
2026-01-24 01:38:40.77	11.32	17.51	-40.9	-43.8	25.2	6.04e-01	0	37	0	87031808	53	4992
2026-01-24 01:38:41.96	11.28	17.66	-40.8	-43.7	25.2	6.06e-01	0	37	0	89128960	53	4952
2026-01-24 01:38:42.81	11.25	17.78	-40.8	-43.7	25.2	6.02e-01	0	37	0	90701824	53	4958
2026-01-24 01:38:44.01	11.21	17.93	-40.8	-43.7	25.2	6.03e-01	0	37	0	93323264	53	4945
2026-01-24 01:38:44.86	11.18	18.05	-40.7	-43.6	25.3	6.04e-01	0	37	0	94896128	53	4893
2026-01-24 01:38:46.00	11.14	18.20	-40.8	-43.7	25.2	6.02e-01	0	37	0	96993280	53	4966
2026-01-24 01:38:46.85	11.11	18.31	-40.8	-43.7	25.2	6.03e-01	0	37	0	98566144	53	4971
2026-01-24 01:38:47.99	11.07	18.47	-40.8	-43.7	25.2	6.03e-01	0	37	0	100663296	53	4979
2026-01-24 01:38:48.84	11.04	18.58	-40.8	-43.6	25.2	6.04e-01	0	37	0	102236160	53	4918
2026-01-24 01:38:49.98	11.00	18.74	-40.7	-43.6	25.3	6.04e-01	0	37	0	104333312	53	4879
2026-01-24 01:38:50.83	10.96	18.85	-40.8	-43.6	25.3	6.03e-01	0	37	0	105906176	53	4894
2026-01-24 01:38:51.97	10.92	19.01	-40.7	-43.6	25.4	6.03e-01	0	37	0	108003328	53	4876
2026-01-24 01:38:52.82	10.89	19.13	-40.8	-43.6	25.4	6.04e-01	0	37	0	109576192	53	4923
2026-01-24 01:38:53.95	10.85	19.29	-40.9	-43.7	25.2	6.05e-01	0	37	0	111673344	53	4983
2026-01-24 01:38:54.80	10.81	19.41	-41.0	-43.8	25.2	6.05e-01	0	37	0	113246208	53	5024
2026-01-24 01:38:55.94	10.77	19.57	-41.0	-43.9	25.1	6.03e-01	0	37	0	115343360	53	5054
2026-01-24 01:38:56.79	10.73	19.69	-41.2	-44.0	25.0	6.06e-01	0	37	0	116916224	53	5133
2026-01-24 01:38:57.93	10.69	19.85	-41.3	-44.0	24.9	6.03e-01	0	37	0	119013376	53	5159
2026-01-24 01:38:58.79	10.65	19.97	-41.3	-44.0	25.0	6.05e-01	0	37	0	120586240	53	5143
2026-01-24 01:39:00.00	10.60	20.15	-41.4	-44.1	24.9	6.03e-01	0	37	0	123207680	53	5186
2026-01-24 01:39:00.86	10.57	20.28	-41.4	-44.1	24.9	6.04e-01	0	37	0	124780544	53	5177
2026-01-24 01:39:02.07	10.52	20.45	-41.4	-44.1	25.0	6.02e-01	0	37	0	126877696	53	5198
2026-01-24 01:39:02.93	10.48	20.58	-41.4	-44.1	24.9	6.04e-01	0	37	0	128450560	53	5172
2026-01-24 01:39:04.07	10.43	20.75	-41.3	-44.1	25.1	6.02e-01	0	37	0	130547712	53	5165
2026-01-24 01:39:04.92	10.39	20.88	-41.4	-44.1	25.0	6.04e-01	0	37	0	132120576	53	5187
2026-01-24 01:39:06.06	10.34	21.05	-41.3	-44.0	25.0	6.05e-01	0	37	0	134217728	53	5139
2026-01-24 01:39:07.02	10.30	21.19	-41.2	-43.9	25.2	6.05e-01	0	37	0	136314880	53	5079
2026-01-24 01:39:08.01	10.26	21.35	-41.2	-44.0	25.1	6.04e-01	0	37	0	137887744	53	5110
2026-01-24 01:39:09.01	10.21	21.50	-41.2	-44.0	25.1	6.06e-01	0	37	0	139984896	53	5102
2026-01-24 01:39:10.00	10.17	21.65	-41.2	-44.0	25.0	6.04e-01	0	37	0	142082048	53	5107
2026-01-24 01:39:10.99	10.12	21.81	-41.3	-44.1	25.0	6.03e-01	0	37	0	143654912	53	5174
2026-01-24 01:39:11.99	10.07	21.96	-41.4	-44.2	23.9	6.03e-01	0	37	0	145752064	53	5236
2026-01-24 01:39:12.98	10.03	22.12	-41.3	-44.1	25.0	6.04e-01	0	37	0	147324928	53	5168
2026-01-24 01:39:13.98	9.98	22.28	-41.3	-44.0	25.0	6.04e-01	0	37	0	149422080	53	5159
2026-01-24 01:39:14.97	9.93	22.44	-41.3	-44.1	25.0	6.05e-01	0	37	0	150994944	53	5179
2026-01-24 01:39:15.96	9.88	22.60	-41.2	-43.9	25.2	6.03e-01	0	37	0	153092096	53	5057
2026-01-24 01:39:16.96	9.83	22.76	-41.4	-44.0	25.1	6.07e-01	0	37	0	154664960	53	5121
2026-01-24 01:39:17.95	9.78	22.92	-41.5	-44.0	25.0	6.04e-01	0	37	0	156762112	53	5150
2026-01-24 01:39:18.95	9.73	23.08	-41.3	-43.8	25.2	6.04e-01	0	37	0	158859264	53	5018
2026-01-24 01:39:19.94	9.68	23.25	-41.3	-43.8	25.3	6.03e-01	0	37	0	160432128	53	5001
2026-01-24 01:39:20.94	9.63	23.41	-41.2	-43.7	25.4	6.04e-01	0	37	0	162529280	53	4935
2026-01-24 01:39:21.93	9.58	23.58	-41.3	-43.7	25.4	6.05e-01	0	37	0	164102144	53	4950
2026-01-24 01:39:22.93	9.52	23.75	-41.4	-43.8	25.3	6.04e-01	0	37	0	166199296	53	4993
2026-01-24 01:39:23.92	9.47	23.92	-41.4	-43.8	25.3	6.05e-01	0	37	0	167772160	53	5040
2026-01-24 01:39:24.92	9.41	24.09	-41.5	-43.9	25.2	6.02e-01	0	37	0	169869312	53	5063
2026-01-24 01:39:25.91	9.36	24.26	-41.6	-43.9	25.1	6.04e-01	0	37	0	171442176	53	5089
2026-01-24 01:39:26.91	9.30	24.43	-41.6	-44.0	25.1	6.04e-01	0	37	0	173539328	53	5123
2026-01-24 01:39:27.90	9.25	24.60	-41.6	-43.9	25.1	6.06e-01	0	37	0	175636480	54	4809
2026-01-24 01:39:28.90	9.19	24.78	-41.6	-43.9	25.1	6.07e-01	0	37	0	177209344	54	4808
2026-01-24 01:39:29.89	9.13	24.96	-41.7	-44.1	24.9	6.05e-01	0	37	0	179306496	54	4872
2026-01-24 01:39:30.89	9.07	25.13	-41.7	-44.1	25.0	6.05e-01	0	37	0	180879360	54	4881
2026-01-24 01:39:31.88	9.01	25.31	-41.7	-44.0	25.1	6.02e-01	0	37	0	182976512	54	4865
2026-01-24 01:39:32.96	8.95	25.51	-41.8	-44.2	25.0	6.04e-01	0	37	0	185073664	54	4932
2026-01-24 01:39:33.81	8.90	25.66	-41.7	-44.1	25.1	6.04e-01	0	37	0	186646528	54	4877
2026-01-24 01:39:34.95	8.83	25.87	-41.6	-44.0	24.8	6.04e-01	0	37	0	188743680	54	4860
2026-01-24 01:39:35.80	8.77	26.03	-41.5	-43.9	25.3	6.02e-01	0	37	0	190316544	54	4769
2026-01-24 01:39:36.94	8.70	26.24	-41.3	-43.7	25.4	6.04e-01	0	37	0	192413696	54	4681
2026-01-24 01:39:37.79	8.64	26.40	-41.3	-43.7	25.5	6.06e-01	0	37	0	193986560	54	4696
2026-01-24 01:39:38.93	8.57	26.62	-41.3	-43.7	25.5	6.05e-01	0	37	0	196083712	54	4653
2026-01-24 01:39:39.78	8.51	26.78	-41.4	-43.7	25.4	6.07e-01	0	37	0	197656576	54	4705
2026-01-24 01:39:40.92	8.44	27.00	-41.3	-43.7	25.4	6.04e-01	0	37	0	199753728	54	4698
2026-01-24 01:39:41.77	8.38	27.16	-41.3	-43.7	25.3	6.06e-01	0	37	0	201326592	54	4700
2026-01-24 01:39:42.91	8.30	27.38	-41.3	-43.7	25.4	6.05e-01	0	37	0	203423744	54	4681
2026-01-24 01:39:43.76	8.24	27.55	-41.3	-43.7	25.4	6.05e-01	0	37	0	204996608	54	4701
2026-01-24 01:39:44.90	8.16	27.78	-41.2	-43.6	25.5	6.05e-01	0	37	0	207093760	54	4642
2026-01-24 01:39:45.75	8.10	27.94	-41.2	-43.6	25.5	6.02e-01	0	37	0	208666624	54	4643
2026-01-24 01:39:47.08	8.00	28.21	-41.1	-43.5	25.6	6.05e-01	0	37	0	211288064	54	4559
2026-01-24 01:39:47.79	7.95	28.36	-41.1	-43.5	25.6	6.04e-01	0	37	0	212860928	54	4588
2026-01-24 01:39:49.07	7.86	28.62	-41.0	-43.4	25.7	6.03e-01	0	37	0	214958080	54	4516
2026-01-24 01:39:49.78	7.80	28.76	-40.9	-43.2	25.8	6.02e-01	0	37	0	216530944	53	4699
2026-01-24 01:39:51.06	7.70	29.03	-40.9	-43.3	25.8	6.06e-01	0	37	0	218628096	53	4711
2026-01-24 01:39:51.77	7.65	29.17	-40.9	-43.2	25.8	6.03e-01	0	37	0	220200960	53	4693
2026-01-24 01:39:53.05	7.55	29.44	-40.9	-43.2	25.8	6.05e-01	0	37	0	222822400	53	4700
2026-01-24 01:39:53.76	7.49	29.59	-40.9	-43.3	25.8	6.04e-01	0	37	0	223870976	53	4712
2026-01-24 01:39:55.04	7.39	29.87	-41.0	-43.4	25.7	6.04e-01	0	37	0	226492416	53	4804
2026-01-24 01:39:55.75	7.33	30.02	-40.9	-43.3	25.8	6.06e-01	0	37	0	227540992	53	4750
2026-01-24 01:39:57.03	7.22	30.30	-40.8	-43.2	25.9	6.01e-01	0	37	0	230162432	53	4687
2026-01-24 01:39:57.75	7.16	30.46	-40.7	-43.1	25.9	6.05e-01	0	37	0	231211008	53	4637
2026-01-24 01:39:59.03	7.05	30.74	-40.6	-43.0	26.0	6.03e-01	0	37	0	233832448	53	4584
2026-01-24 01:39:59.75	6.99	30.90	-40.5	-42.9	26.2	6.04e-01	0	37	0	234881024	53	4517
2026-01-24 01:40:01.03	6.87	31.18	-40.6	-43.0	26.1	6.04e-01	0	37	0	237502464	53	4573
2026-01-24 01:40:01.76	6.81	31.35	-40.8	-43.1	26.0	6.03e-01	0	37	0	239075328	53	4642
2026-01-24 01:40:03.27	6.67	31.69	-41.1	-43.5	25.6	6.04e-01	0	37	0	241696768	53	4838
2026-01-24 01:40:04.27	6.58	31.92	-41.1	-43.5	25.7	6.06e-01	0	37	0	243793920	53	4819
2026-01-24 01:40:05.27	6.48	32.15	-41.2	-43.5	25.7	6.06e-01	0	37	0	245366784	53	4839
2026-01-24 01:40:06.26	6.39	32.38	-41.0	-43.3	25.7	6.04e-01	0	37	0	247463936	53	4759
2026-01-24 01:40:07.26	6.29	32.62	-40.9	-43.2	25.9	6.05e-01	0	37	0	249036800	53	4683
2026-01-24 01:40:08.25	6.19	32.85	-41.1	-43.4	25.6	6.05e-01	0	37	0	251133952	53	4813
2026-01-24 01:40:09.25	6.09	33.09	-41.1	-43.5	25.6	6.03e-01	0	37	0	252706816	53	4843
2026-01-24 01:40:10.24	5.99	33.33	-41.2	-43.6	25.5	6.01e-01	0	37	0	254803968	53	4890
2026-01-24 01:40:11.24	5.89	33.57	-41.2	-43.6	25.5	6.07e-01	0	38	0	256901120	53	4914
2026-01-24 01:40:12.23	5.78	33.82	-41.3	-43.6	25.5	6.04e-01	0	37	0	258473984	53	4926
2026-01-24 01:40:13.23	5.67	34.06	-41.3	-43.7	25.5	6.03e-01	0	37	0	260571136	53	4972
2026-01-24 01:40:14.22	5.57	34.31	-41.5	-44.0	25.3	6.04e-01	0	37	0	262144000	53	5121
2026-01-24 01:40:15.22	5.46	34.56	-41.7	-44.3	25.0	6.06e-01	0	37	0	264241152	53	5283
2026-01-24 01:40:16.21	5.34	34.81	-41.8	-44.4	24.8	6.03e-01	0	37	0	265814016	54	5096
2026-01-24 01:40:17.21	5.23	35.07	-41.7	-44.4	24.8	6.06e-01	0	37	0	267911168	54	5093
2026-01-24 01:40:18.20	5.12	35.32	-41.6	-44.3	25.0	6.06e-01	0	37	0	269484032	54	5002
2026-01-24 01:40:19.19	5.00	35.58	-41.6	-44.4	24.9	6.03e-01	0	37	0	271581184	54	5058
2026-01-24 01:40:20.19	4.88	35.84	-41.7	-44.5	24.8	6.04e-01	0	37	0	273678336	54	5124
2026-01-24 01:40:21.18	4.76	36.10	-42.0	-44.9	24.4	6.02e-01	0	37	0	275251200	54	5358
2026-01-24 01:40:22.18	4.63	36.36	-42.2	-45.1	24.3	6.04e-01	0	37	0	277348352	55	5161
2026-01-24 01:40:23.17	4.51	36.63	-42.4	-45.1	24.1	6.05e-01	0	37	0	278921216	55	5215
2026-01-24 01:40:24.17	4.38	36.90	-42.3	-44.9	24.4	6.05e-01	0	37	0	281018368	55	5082
2026-01-24 01:40:25.16	4.25	37.17	-42.2	-44.8	24.4	6.07e-01	0	37	0	282591232	55	5037
2026-01-24 01:40:26.16	4.12	37.44	-42.4	-45.0	24.4	6.04e-01	0	37	0	284688384	55	5106
2026-01-24 01:40:27.18	3.98	37.73	-42.9	-45.4	24.0	6.03e-01	0	37	0	286261248	56	5078
2026-01-24 01:40:28.18	3.84	38.00	-43.2	-45.8	23.6	6.04e-01	0	37	0	288358400	57	5037
2026-01-24 01:40:29.17	3.70	38.28	-43.4	-46.1	23.4	6.06e-01	0	37	0	290455552	57	5164
2026-01-24 01:40:30.24	3.55	38.59	-43.5	-46.2	23.2	6.04e-01	0	37	0	292552704	57	5279
2026-01-24 01:40:31.13	3.42	38.84	-43.3	-46.0	23.5	6.04e-01	0	37	0	294125568	57	5118
2026-01-24 01:40:32.44	3.22	39.22	-43.2	-45.9	23.5	6.06e-01	0	37	0	296222720	57	5086
2026-01-24 01:40:33.15	3.11	39.42	-43.2	-45.9	23.6	6.05e-01	0	37	0	297795584	57	5080
2026-01-24 01:40:34.63	2.88	39.86	-43.2	-46.0	23.5	6.06e-01	0	37	0	300417024	57	5105
2026-01-24 01:40:35.34	2.77	40.07	-43.8	-46.6	22.4	6.03e-01	0	37	0	301989888	58	5211
2026-01-24 01:40:36.62	2.57	40.45	-43.7	-46.5	22.9	6.07e-01	0	37	0	304087040	58	5155
2026-01-24 01:40:37.33	2.45	40.66	-43.3	-46.1	23.3	6.07e-01	0	37	0	305659904	58	4872
2026-01-24 01:40:38.74	2.21	41.09	-43.3	-46.1	23.4	6.02e-01	0	37	0	308281344	58	4904
2026-01-24 01:40:39.72	2.04	41.39	-43.3	-46.0	23.5	6.05e-01	0	37	0	309854208	58	4853
2026-01-24 01:40:40.71	1.87	41.70	-42.5	-45.1	24.4	6.06e-01	0	37	0	311951360	57	4599
2026-01-24 01:40:41.71	1.69	42.01	-42.3	-44.8	24.7	6.04e-01	0	37	0	313524224	56	4706
2026-01-24 01:40:42.71	1.51	42.32	-42.6	-45.1	24.3	6.04e-01	0	37	0	315621376	56	4921
2026-01-24 01:40:43.70	1.33	42.63	-42.7	-45.3	24.1	6.04e-01	0	37	0	317718528	56	5012
2026-01-24 01:40:44.70	1.14	42.95	-42.3	-44.9	24.5	6.04e-01	0	38	0	319291392	56	4778
2026-01-24 01:40:45.69	0.95	43.27	-42.1	-44.7	24.8	6.04e-01	0	37	0	321388544	56	4654
2026-01-24 01:40:46.69	0.75	43.59	-42.0	-44.5	24.9	6.03e-01	0	37	0	322961408	56	4586
2026-01-24 01:40:47.73	0.54	43.93	-41.8	-44.4	24.9	6.06e-01	0	37	0	325058560	55	4771
2026-01-24 01:40:48.75	0.33	44.27	-41.8	-44.4	24.9	6.06e-01	0	37	0	327155712	55	4778
2026-01-24 01:40:49.78	0.11	44.61	-42.1	-44.6	24.6	6.07e-01	0	37	0	328728576	55	4919
2026-01-24 01:40:50.78	359.89	44.94	-41.9	-44.5	24.8	6.04e-01	0	38	0	330825728	55	4833
2026-01-24 01:40:51.85	359.66	45.30	-41.7	-44.2	25.0	6.04e-01	0	37	0	332922880	55	4697
2026-01-24 01:40:52.74	359.46	45.60	-41.7	-44.2	25.0	6.06e-01	0	37	0	334495744	55	4675
2026-01-24 01:40:53.87	359.20	45.99	-41.9	-44.4	24.9	6.02e-01	0	37	0	336592896	55	4778
2026-01-24 01:40:54.73	359.00	46.28	-41.7	-44.1	25.1	6.03e-01	0	37	0	338165760	55	4643
2026-01-24 01:40:56.09	358.67	46.75	-41.6	-44.0	25.3	6.03e-01	0	37	0	340787200	54	4823
2026-01-24 01:40:56.79	358.49	47.00	-41.7	-44.2	25.1	6.03e-01	0	37	0	341835776	54	4929
2026-01-24 01:40:58.07	358.17	47.45	-42.0	-44.4	24.9	6.03e-01	0	37	0	344457216	54	5060
2026-01-24 01:40:58.79	357.98	47.70	-42.0	-44.4	24.9	6.05e-01	0	37	0	346030080	54	5054
2026-01-24 01:41:00.06	357.65	48.15	-41.7	-44.2	25.0	6.05e-01	0	38	0	348127232	54	4927
2026-01-24 01:41:00.78	357.45	48.41	-41.8	-44.2	25.1	6.03e-01	0	37	0	349700096	54	4935
2026-01-24 01:41:02.06	357.10	48.87	-42.0	-44.5	24.8	6.04e-01	0	37	0	351797248	54	5123
2026-01-24 01:41:02.79	356.89	49.14	-41.8	-44.1	25.2	6.05e-01	0	37	0	353370112	54	4923
2026-01-24 01:41:04.07	356.51	49.61	-42.0	-44.4	24.9	6.05e-01	0	38	0	355467264	54	5080
2026-01-24 01:41:04.80	356.30	49.88	-42.2	-44.6	24.7	6.05e-01	0	38	0	357040128	55	4916
2026-01-24 01:41:06.07	355.91	50.35	-41.4	-43.7	25.4	6.01e-01	0	38	0	359661568	54	4693
2026-01-24 01:41:06.78	355.68	50.61	-41.0	-43.3	25.9	6.05e-01	0	37	0	360710144	54	4458
2026-01-24 01:41:08.08	355.26	51.10	-41.6	-43.9	25.3	6.05e-01	0	37	0	363331584	54	4794
2026-01-24 01:41:08.79	355.03	51.37	-41.6	-44.0	25.2	6.04e-01	0	37	0	364380160	54	4853
2026-01-24 01:41:10.16	354.56	51.89	-41.0	-43.3	25.9	6.04e-01	0	38	0	367001600	54	4478
2026-01-24 01:41:10.87	354.32	52.16	-40.9	-43.2	26.0	6.06e-01	0	37	0	368574464	53	4679
2026-01-24 01:41:12.15	353.86	52.65	-41.0	-43.4	25.9	6.05e-01	0	37	0	370671616	53	4774
2026-01-24 01:41:12.86	353.60	52.92	-40.9	-43.2	25.9	6.02e-01	0	37	0	372244480	53	4685
2026-01-24 01:41:14.24	353.07	53.46	-41.0	-43.3	25.9	6.02e-01	0	37	0	374865920	53	4746
2026-01-24 01:41:14.95	352.80	53.73	-40.9	-43.2	26.0	6.04e-01	0	37	0	375914496	53	4664
2026-01-24 01:41:16.23	352.29	54.23	-40.5	-42.7	26.4	6.04e-01	0	37	0	378535936	53	4420
2026-01-24 01:41:16.97	351.98	54.52	-40.5	-42.7	26.4	6.03e-01	0	38	0	380108800	53	4440
2026-01-24 01:41:18.25	351.44	55.03	-41.1	-43.3	25.8	6.03e-01	0	37	0	382205952	53	4757
2026-01-24 01:41:18.96	351.13	55.31	-41.0	-43.2	25.9	6.02e-01	0	37	0	383778816	53	4688
2026-01-24 01:41:20.24	350.56	55.82	-41.1	-43.4	25.8	6.05e-01	0	38	0	385875968	53	4779
2026-01-24 01:41:20.95	350.23	56.10	-41.2	-43.5	25.7	6.06e-01	0	37	0	387448832	53	4851
2026-01-24 01:41:22.23	349.62	56.61	-41.5	-43.9	25.4	6.03e-01	0	38	0	390070272	53	5071
2026-01-24 01:41:22.94	349.27	56.89	-41.4	-43.8	25.4	6.04e-01	0	37	0	391118848	53	5028
2026-01-24 01:41:24.22	348.63	57.41	-41.6	-44.0	25.2	6.04e-01	0	37	0	393216000	53	5112
2026-01-24 01:41:24.94	348.26	57.70	-41.7	-44.2	25.1	6.05e-01	0	37	0	394788864	54	4952
2026-01-24 01:41:26.21	347.58	58.21	-41.7	-44.3	25.0	6.04e-01	0	37	0	397410304	54	5007
2026-01-24 01:41:27.07	347.10	58.56	-41.7	-44.3	24.9	6.05e-01	0	37	0	398983168	54	5040
2026-01-24 01:41:28.50	346.29	59.13	-41.8	-44.3	25.0	6.01e-01	0	37	0	401604608	54	5036
2026-01-24 01:41:29.21	345.87	59.42	-42.3	-44.8	24.5	6.06e-01	0	37	0	402653184	55	5020
2026-01-24 01:41:30.49	345.09	59.94	-41.9	-44.4	24.9	6.02e-01	0	37	0	405274624	55	4762
2026-01-24 01:41:31.20	344.64	60.22	-42.0	-44.5	24.8	6.04e-01	0	37	0	406847488	55	4855
2026-01-24 01:41:32.78	343.61	60.86	-42.7	-45.3	24.1	6.04e-01	0	37	0	409468928	55	5330
2026-01-24 01:41:33.44	343.16	61.12	-42.7	-45.2	24.3	6.06e-01	0	37	0	411041792	56	4951
2026-01-24 01:41:34.86	342.17	61.69	-42.5	-45.0	24.4	6.02e-01	0	38	0	413663232	56	4837
2026-01-24 01:41:35.57	341.65	61.98	-42.9	-45.5	24.0	6.03e-01	0	37	0	414711808	56	5139
2026-01-24 01:41:36.85	340.69	62.49	-43.0	-45.7	23.8	6.05e-01	0	37	0	417333248	57	4938
2026-01-24 01:41:37.56	340.14	62.77	-42.7	-45.3	24.2	6.03e-01	0	37	0	418381824	57	4758
2026-01-24 01:41:38.84	339.12	63.27	-43.2	-45.8	23.7	6.04e-01	0	38	0	421003264	57	4999
2026-01-24 01:41:39.56	338.52	63.55	-43.7	-46.3	23.3	6.04e-01	0	37	0	422051840	57	5338
2026-01-24 01:41:40.84	337.43	64.05	-43.3	-45.8	23.7	6.04e-01	0	37	0	424673280	58	4740
2026-01-24 01:41:41.56	336.79	64.33	-43.4	-46.0	23.5	6.06e-01	0	38	0	426246144	58	4854
2026-01-24 01:41:42.84	335.62	64.81	-43.9	-46.9	22.7	6.07e-01	0	37	0	428343296	58	5348
2026-01-24 01:41:43.56	334.94	65.08	-44.0	-47.1	22.4	6.03e-01	0	37	0	429916160	58	5510
2026-01-24 01:41:44.84	333.69	65.56	-43.8	-46.8	22.9	6.05e-01	0	38	0	432013312	58	5290
2026-01-24 01:41:45.57	332.95	65.83	-44.4	-47.4	22.2	6.04e-01	0	37	0	433586176	59	5368
2026-01-24 01:41:46.85	331.61	66.29	-44.4	-47.3	22.1	6.04e-01	0	37	0	435683328	60	5012
2026-01-24 01:41:47.64	330.75	66.58	-44.4	-47.4	22.1	6.04e-01	0	38	0	437256192	60	5079
2026-01-24 01:41:48.81	329.44	66.99	-44.8	-48.0	21.6	6.03e-01	0	37	0	439353344	60	5407
2026-01-24 01:41:49.82	328.27	67.33	-45.0	-48.1	21.3	6.04e-01	0	37	0	441450496	61	5199
2026-01-24 01:41:50.82	327.06	67.67	-45.2	-48.4	21.2	6.05e-01	0	37	0	443547648	61	5364
2026-01-24 01:41:51.81	325.84	67.99	-44.8	-48.0	21.5	6.03e-01	0	37	0	445120512	61	5116
2026-01-24 01:41:52.81	324.56	68.31	-45.2	-48.6	21.0	6.05e-01	0	38	0	447217664	61	5484
2026-01-24 01:41:53.80	323.25	68.62	-44.4	-47.3	22.2	6.03e-01	0	37	0	448790528	60	5028
2026-01-24 01:41:54.80	321.89	68.92	-45.3	-48.6	21.0	6.03e-01	0	38	0	450887680	61	5478
2026-01-24 01:41:55.79	320.49	69.20	-44.6	-47.5	21.9	6.02e-01	0	38	0	452460544	61	4848
2026-01-24 01:41:56.79	319.05	69.48	-44.9	-48.1	21.5	6.02e-01	0	37	0	454557696	61	5200
2026-01-24 01:41:57.78	317.57	69.75	-45.0	-48.4	21.1	6.05e-01	0	37	0	456130560	61	5352
2026-01-24 01:41:58.77	316.06	70.00	-44.4	-47.5	22.0	6.02e-01	0	37	0	458227712	60	5129
2026-01-24 01:41:59.81	314.43	70.25	-44.9	-48.2	21.4	6.03e-01	0	38	0	460324864	60	5544
2026-01-24 01:42:00.85	312.75	70.49	-45.0	-48.1	21.5	6.05e-01	0	37	0	462422016	60	5485
2026-01-24 01:42:01.88	311.04	70.71	-45.1	-48.4	21.1	6.03e-01	0	38	0	463994880	61	5348
2026-01-24 01:42:02.87	309.37	70.90	-44.9	-48.1	21.4	6.05e-01	0	37	0	466092032	61	5214
2026-01-24 01:42:03.87	307.64	71.08	-45.5	-48.9	20.6	6.03e-01	0	38	0	467664896	61	5721
2026-01-24 01:42:04.94	305.75	71.26	-45.2	-48.4	21.1	6.04e-01	0	38	0	469762048	61	5376
2026-01-24 01:42:05.83	304.15	71.39	-45.2	-48.6	21.0	6.02e-01	0	37	0	471334912	61	5470
2026-01-24 01:42:06.96	302.09	71.54	-45.0	-48.5	21.1	6.06e-01	0	37	0	473432064	61	5414
2026-01-24 01:42:07.82	300.49	71.63	-46.0	-49.9	19.7	6.05e-01	0	38	0	475004928	62	6010
2026-01-24 01:42:08.95	298.38	71.74	-44.0	-46.8	22.8	6.02e-01	0	37	0	477626368	59	4992
2026-01-24 01:42:09.81	296.75	71.81	-44.7	-47.8	21.7	6.03e-01	0	37	0	479199232	60	5314
2026-01-24 01:42:10.94	294.60	71.87	-44.9	-48.1	21.4	6.05e-01	0	37	0	481296384	61	5172
2026-01-24 01:42:11.79	292.97	71.91	-44.1	-46.9	22.6	6.03e-01	0	37	0	482869248	60	4795
2026-01-24 01:42:12.93	290.77	71.93	-44.7	-47.8	21.7	6.04e-01	0	37	0	484966400	60	5335
2026-01-24 01:42:13.78	289.14	71.93	-44.7	-47.8	21.7	6.03e-01	0	37	0	486539264	60	5308
2026-01-24 01:42:14.92	286.94	71.91	-44.7	-47.8	21.8	6.03e-01	0	37	0	488636416	60	5284
2026-01-24 01:42:15.77	285.31	71.87	-44.7	-47.8	21.8	6.06e-01	0	37	0	490209280	60	5283
2026-01-24 01:42:16.94	283.08	71.81	-45.3	-48.8	20.9	6.03e-01	0	37	0	492306432	61	5601
2026-01-24 01:42:17.80	281.45	71.74	-45.2	-48.7	20.8	6.04e-01	0	38	0	493879296	61	5552
2026-01-24 01:42:19.00	279.21	71.63	-44.4	-47.4	22.1	6.02e-01	0	37	0	495976448	60	5073
2026-01-24 01:42:19.85	277.63	71.53	-45.5	-49.0	20.5	6.03e-01	0	37	0	498073600	61	5742
2026-01-24 01:42:21.04	275.46	71.37	-44.8	-47.8	21.7	6.04e-01	0	37	0	500170752	61	5022
2026-01-24 01:42:21.89	273.94	71.24	-44.7	-47.7	21.8	6.03e-01	0	37	0	501743616	61	4983
2026-01-24 01:42:23.03	271.93	71.05	-45.2	-48.7	20.9	6.04e-01	0	37	0	503840768	61	5542
2026-01-24 01:42:23.88	270.46	70.90	-45.0	-48.4	21.2	6.02e-01	0	37	0	505413632	61	5349
2026-01-24 01:42:25.02	268.54	70.67	-45.0	-48.2	21.3	6.04e-01	0	37	0	507510784	61	5257
2026-01-24 01:42:25.88	267.12	70.49	-46.0	-49.6	20.1	6.05e-01	0	37	0	509083648	62	5845
2026-01-24 01:42:27.01	265.29	70.23	-45.3	-48.7	20.9	6.04e-01	0	37	0	511180800	62	5242
2026-01-24 01:42:27.87	263.94	70.02	-45.1	-48.5	21.2	6.05e-01	0	37	0	512753664	62	5114
2026-01-24 01:42:29.01	262.19	69.73	-46.0	-49.9	19.8	6.05e-01	0	37	0	514850816	62	6025
2026-01-24 01:42:29.86	260.93	69.50	-45.9	-49.6	20.0	6.02e-01	0	37	0	516423680	62	5790
2026-01-24 01:42:31.00	259.27	69.18	-45.6	-49.4	20.2	6.06e-01	0	37	0	518520832	62	5692
2026-01-24 01:42:31.85	258.08	68.94	-45.7	-49.7	20.0	6.02e-01	0	37	0	520093696	62	5863
2026-01-24 01:42:32.99	256.52	68.60	-45.9	-49.5	20.0	6.06e-01	0	37	0	522715136	62	5745
2026-01-24 01:42:33.84	255.40	68.33	-46.0	-49.6	19.8	6.05e-01	0	37	0	524288000	63	5501
2026-01-24 01:42:34.97	253.95	67.97	-45.8	-49.4	20.2	6.05e-01	0	37	0	526385152	63	5371
2026-01-24 01:42:35.83	252.88	67.69	-45.9	-49.7	19.9	6.03e-01	0	37	0	527958016	63	5533
2026-01-24 01:42:36.96	251.52	67.31	-46.3	-50.1	19.5	6.03e-01	0	38	0	530055168	63	5842
2026-01-24 01:42:37.81	250.53	67.02	-45.7	-49.1	20.5	6.05e-01	0	37	0	531628032	63	5209
2026-01-24 01:42:38.95	249.25	66.62	-45.8	-49.5	20.1	6.03e-01	0	37	0	533725184	63	5448
2026-01-24 01:42:39.80	248.32	66.31	-45.4	-48.9	20.6	6.05e-01	0	37	0	535298048	62	5360
2026-01-24 01:42:40.94	247.12	65.90	-45.4	-48.7	20.9	6.05e-01	0	37	0	537395200	62	5277
2026-01-24 01:42:41.79	246.26	65.59	-46.1	-49.7	19.9	6.03e-01	0	37	0	538968064	62	5915
2026-01-24 01:42:42.92	245.14	65.17	-45.4	-48.8	20.8	6.04e-01	0	37	0	541065216	62	5292
2026-01-24 01:42:43.78	244.32	64.84	-45.2	-48.3	21.2	6.05e-01	0	37	0	542638080	62	5037
2026-01-24 01:42:44.91	243.28	64.41	-44.5	-47.4	22.0	6.04e-01	0	38	0	544735232	61	4781
2026-01-24 01:42:45.77	242.51	64.08	-45.2	-48.5	21.1	6.05e-01	0	37	0	546308096	61	5425
2026-01-24 01:42:47.03	241.43	63.59	-44.5	-47.5	21.8	6.03e-01	0	37	0	548929536	61	4821
2026-01-24 01:42:47.82	240.77	63.28	-43.7	-46.4	23.2	6.04e-01	0	37	0	549978112	59	4780
2026-01-24 01:42:49.02	239.81	62.81	-44.3	-47.3	22.4	6.04e-01	0	37	0	552599552	59	5305
2026-01-24 01:42:49.87	239.15	62.47	-44.3	-47.2	22.4	6.02e-01	0	37	0	554172416	59	5256
2026-01-24 01:42:51.10	238.23	61.98	-43.9	-46.6	22.9	6.03e-01	0	37	0	556269568	59	4915
2026-01-24 01:42:51.96	237.60	61.64	-43.6	-46.2	23.4	6.05e-01	0	37	0	557842432	59	4661
2026-01-24 01:42:53.09	236.81	61.18	-43.7	-46.4	23.2	6.03e-01	0	37	0	559939584	59	4801
2026-01-24 01:42:54.42	235.91	60.65	-43.7	-46.4	23.1	6.05e-01	0	37	0	562561024	59	4802
2026-01-24 01:42:55.13	235.45	60.36	-43.6	-46.3	23.3	6.04e-01	0	37	0	564133888	59	4740
2026-01-24 01:42:56.41	234.64	59.84	-42.8	-45.3	24.2	6.07e-01	0	37	0	566231040	57	4734
2026-01-24 01:42:57.12	234.20	59.56	-42.9	-45.5	24.1	6.04e-01	0	37	0	567803904	57	4820
2026-01-24 01:42:58.40	233.44	59.04	-43.2	-46.1	23.5	6.02e-01	0	38	0	569901056	57	5182
2026-01-24 01:42:59.11	233.03	58.75	-43.1	-45.9	23.5	6.03e-01	0	37	0	571473920	57	5098
2026-01-24 01:43:00.39	232.32	58.23	-42.3	-44.8	24.5	6.05e-01	0	37	0	574095360	56	4747
2026-01-24 01:43:01.10	231.94	57.95	-42.5	-45.0	24.5	6.04e-01	0	37	0	575143936	56	4859
2026-01-24 01:43:02.38	231.26	57.43	-42.4	-45.0	24.4	6.05e-01	0	37	0	577765376	56	4829
2026-01-24 01:43:03.11	230.89	57.13	-42.0	-44.5	25.0	6.08e-01	0	37	0	578813952	56	4550
2026-01-24 01:43:04.39	230.26	56.62	-42.1	-44.5	24.9	6.05e-01	0	37	0	581435392	56	4567
2026-01-24 01:43:05.10	229.92	56.34	-41.6	-43.9	25.3	6.04e-01	0	37	0	582483968	55	4514
2026-01-24 01:43:06.65	229.19	55.72	-41.5	-43.8	25.4	6.02e-01	0	37	0	585629696	54	4750
2026-01-24 01:43:07.36	228.88	55.43	-41.6	-43.9	25.4	6.05e-01	0	37	0	586678272	54	4790
2026-01-24 01:43:08.75	228.27	54.88	-41.5	-43.8	25.4	6.04e-01	0	37	0	589299712	54	4745
2026-01-24 01:43:09.46	227.97	54.60	-40.8	-43.0	26.1	6.02e-01	0	38	0	590872576	53	4568
2026-01-24 01:43:10.77	227.43	54.08	-41.0	-43.2	25.8	6.04e-01	0	37	0	593494016	53	4704
2026-01-24 01:43:11.48	227.14	53.81	-40.8	-43.0	26.1	6.05e-01	0	37	0	594542592	53	4551
2026-01-24 01:43:12.76	226.64	53.31	-41.0	-43.2	25.9	6.06e-01	0	38	0	597164032	53	4670
2026-01-24 01:43:13.48	226.37	53.03	-40.6	-42.8	26.3	6.04e-01	0	37	0	598212608	53	4465
2026-01-24 01:43:14.76	225.90	52.53	-40.8	-43.0	26.1	6.05e-01	0	37	0	600834048	53	4584
2026-01-24 01:43:15.47	225.64	52.26	-40.6	-42.8	26.2	6.02e-01	0	38	0	601882624	53	4493
2026-01-24 01:43:16.75	225.19	51.77	-40.4	-42.6	26.4	6.05e-01	0	37	0	604504064	52	4645
2026-01-24 01:43:17.49	224.94	51.49	-40.7	-43.0	26.1	6.02e-01	0	37	0	606076928	52	4850
2026-01-24 01:43:18.77	224.51	51.00	-41.1	-43.5	25.7	6.04e-01	0	37	0	608174080	52	5118
2026-01-24 01:43:19.50	224.28	50.73	-41.4	-43.8	25.4	6.02e-01	0	37	0	609746944	53	5007
2026-01-24 01:43:20.78	223.87	50.25	-41.1	-43.4	25.8	6.04e-01	0	37	0	611844096	53	4786
2026-01-24 01:43:21.50	223.65	49.98	-41.1	-43.4	25.7	6.05e-01	0	38	0	613416960	53	4784
2026-01-24 01:43:22.78	223.27	49.51	-41.4	-43.7	25.4	6.04e-01	0	37	0	615514112	53	4976
2026-01-24 01:43:23.52	223.05	49.23	-41.2	-43.5	25.6	6.03e-01	0	37	0	617086976	53	4817
2026-01-24 01:43:24.80	222.68	48.77	-41.6	-43.9	25.3	6.02e-01	0	37	0	619708416	53	5060
2026-01-24 01:43:25.51	222.48	48.51	-41.7	-44.0	25.1	6.03e-01	0	38	0	620756992	54	4865
2026-01-24 01:43:26.79	222.14	48.05	-41.7	-44.0	25.2	6.03e-01	0	37	0	623378432	54	4841
2026-01-24 01:43:27.50	221.95	47.79	-41.5	-43.8	25.4	6.04e-01	0	37	0	624427008	54	4730
2026-01-24 01:43:28.79	221.61	47.34	-41.3	-43.6	25.6	6.05e-01	0	37	0	627048448	54	4611
2026-01-24 01:43:29.51	221.43	47.08	-41.3	-43.6	25.6	6.04e-01	0	37	0	628621312	54	4630
2026-01-24 01:43:30.79	221.11	46.63	-41.5	-43.8	25.3	6.04e-01	0	37	0	630718464	54	4729
2026-01-24 01:43:31.50	220.94	46.39	-41.5	-43.8	25.3	6.04e-01	0	37	0	632291328	54	4731
2026-01-24 01:43:32.78	220.63	45.94	-41.6	-43.9	25.3	6.03e-01	0	37	0	634388480	54	4806
2026-01-24 01:43:33.52	220.46	45.69	-41.8	-44.2	25.0	6.04e-01	0	37	0	635961344	54	4942
2026-01-24 01:43:34.80	220.17	45.25	-41.6	-44.0	25.2	6.04e-01	0	37	0	638582784	54	4821
2026-01-24 01:43:35.52	220.01	45.01	-41.7	-44.0	25.2	6.05e-01	0	37	0	639631360	54	4855
2026-01-24 01:43:36.80	219.73	44.58	-41.4	-43.7	25.4	6.05e-01	0	37	0	642252800	54	4687
2026-01-24 01:43:37.51	219.58	44.35	-41.3	-43.6	25.6	6.01e-01	0	37	0	643301376	54	4624
2026-01-24 01:43:38.78	219.32	43.93	-41.4	-43.7	25.5	6.05e-01	0	37	0	645922816	54	4703
2026-01-24 01:43:39.51	219.17	43.69	-41.6	-44.0	25.2	6.05e-01	0	37	0	646971392	54	4833
2026-01-24 01:43:40.79	218.91	43.27	-41.9	-44.3	24.9	6.06e-01	0	37	0	649592832	54	5006
2026-01-24 01:43:41.55	218.76	43.02	-41.9	-44.3	24.9	6.01e-01	0	37	0	651165696	54	5032
2026-01-24 01:43:42.83	218.52	42.61	-42.0	-44.4	24.8	6.03e-01	0	37	0	653262848	54	5063
2026-01-24 01:43:43.60	218.38	42.37	-42.0	-44.3	24.9	6.03e-01	0	37	0	654835712	54	5037
2026-01-24 01:43:44.88	218.14	41.97	-42.1	-44.4	24.8	6.03e-01	0	37	0	656932864	54	5082
2026-01-24 01:43:45.67	218.00	41.72	-42.1	-44.5	24.8	6.04e-01	0	37	0	658505728	54	5107
2026-01-24 01:43:47.18	217.73	41.25	-42.4	-44.8	24.4	6.02e-01	0	37	0	661651456	55	4999
2026-01-24 01:43:47.89	217.61	41.03	-42.4	-44.9	24.4	6.04e-01	0	37	0	662700032	55	5050
2026-01-24 01:43:49.17	217.40	40.64	-42.9	-45.4	24.0	6.05e-01	0	37	0	665321472	56	5054
2026-01-24 01:43:49.88	217.28	40.43	-43.0	-45.5	23.9	6.06e-01	0	37	0	666894336	56	5118
2026-01-24 01:43:51.16	217.07	40.05	-43.1	-45.6	23.7	6.04e-01	0	37	0	668991488	56	5202
2026-01-24 01:43:51.88	216.96	39.83	-43.1	-45.6	23.7	6.03e-01	0	37	0	670564352	56	5200
2026-01-24 01:43:53.15	216.76	39.46	-43.4	-46.1	23.3	6.03e-01	0	37	0	672661504	57	5198
2026-01-24 01:43:53.89	216.64	39.24	-43.4	-46.2	23.2	6.04e-01	0	37	0	674234368	57	5236
2026-01-24 01:43:55.17	216.45	38.87	-43.2	-45.9	23.4	6.03e-01	0	37	0	676331520	57	5060
2026-01-24 01:43:55.88	216.35	38.66	-43.0	-45.6	23.6	6.05e-01	0	37	0	677904384	57	4922
2026-01-24 01:43:57.16	216.16	38.30	-43.0	-45.6	23.7	6.04e-01	0	37	0	680001536	57	4902
2026-01-24 01:43:57.87	216.06	38.10	-43.2	-45.8	23.5	6.01e-01	0	37	0	681574400	57	5034
2026-01-24 01:43:59.15	215.88	37.74	-43.3	-46.0	23.3	6.05e-01	0	37	0	684195840	57	5159
2026-01-24 01:43:59.86	215.78	37.54	-43.3	-46.0	23.4	6.03e-01	0	37	0	685244416	57	5158
2026-01-24 01:44:01.14	215.61	37.19	-43.0	-45.7	23.7	6.06e-01	0	37	0	687865856	57	4939
2026-01-24 01:44:02.22	215.47	36.89	-43.0	-45.6	23.8	6.02e-01	0	37	0	689963008	57	4913
2026-01-24 01:44:03.07	215.36	36.66	-42.9	-45.5	23.9	6.03e-01	0	37	0	691535872	57	4826
2026-01-24 01:44:04.21	215.21	36.35	-42.8	-45.4	24.0	6.03e-01	0	37	0	693633024	57	4793
2026-01-24 01:44:05.06	215.10	36.13	-42.8	-45.4	24.0	6.04e-01	0	38	0	695205888	57	4805
2026-01-24 01:44:06.20	214.96	35.82	-42.6	-45.1	24.2	6.02e-01	0	37	0	697303040	57	4633
2026-01-24 01:44:07.05	214.86	35.60	-42.5	-45.0	24.4	6.07e-01	0	37	0	698875904	56	4828
2026-01-24 01:44:08.19	214.72	35.30	-42.2	-44.7	24.7	6.04e-01	0	37	0	700973056	56	4665
2026-01-24 01:44:09.04	214.62	35.08	-42.2	-44.7	24.7	6.05e-01	0	37	0	702545920	56	4658
2026-01-24 01:44:10.18	214.49	34.79	-42.1	-44.6	24.7	6.06e-01	0	38	0	704643072	56	4622
2026-01-24 01:44:11.15	214.38	34.54	-42.1	-44.6	24.7	6.05e-01	0	37	0	706740224	56	4601
2026-01-24 01:44:12.14	214.27	34.29	-41.7	-44.1	25.0	6.03e-01	0	37	0	708313088	55	4629
2026-01-24 01:44:13.13	214.16	34.05	-41.7	-44.0	25.2	6.05e-01	0	37	0	710410240	55	4594
2026-01-24 01:44:14.13	214.05	33.80	-41.7	-44.0	25.2	6.06e-01	0	37	0	711983104	55	4574
2026-01-24 01:44:15.12	213.95	33.55	-41.5	-43.8	25.4	6.06e-01	0	37	0	714080256	55	4484
2026-01-24 01:44:16.42	213.81	33.24	-41.5	-43.8	25.4	6.02e-01	0	37	0	716177408	55	4483
2026-01-24 01:44:17.16	213.74	33.06	-41.5	-43.8	25.4	6.04e-01	0	37	0	717750272	55	4474
2026-01-24 01:44:18.75	213.58	32.67	-41.3	-43.6	25.6	6.05e-01	0	37	0	720896000	54	4624
2026-01-24 01:44:19.34	213.52	32.53	-41.3	-43.6	25.5	6.05e-01	0	37	0	721944576	54	4633
2026-01-24 01:44:20.90	213.36	32.17	-41.4	-43.7	25.4	6.03e-01	0	37	0	724566016	54	4695
2026-01-24 01:44:21.55	213.30	32.01	-41.3	-43.6	25.5	6.03e-01	0	37	0	726138880	54	4645
2026-01-24 01:44:22.97	213.17	31.69	-41.3	-43.6	25.5	6.04e-01	0	37	0	728760320	54	4647
2026-01-24 01:44:23.68	213.10	31.52	-41.3	-43.6	25.5	6.04e-01	0	37	0	729808896	54	4623
2026-01-24 01:44:24.96	212.98	31.23	-41.0	-43.3	25.8	6.04e-01	0	37	0	732430336	54	4464
2026-01-24 01:44:25.67	212.92	31.07	-41.0	-43.3	25.8	6.04e-01	0	37	0	733478912	54	4479
2026-01-24 01:44:26.94	212.81	30.78	-41.0	-43.3	25.7	6.03e-01	0	37	0	736100352	53	4746
2026-01-24 01:44:27.67	212.74	30.62	-41.1	-43.4	25.8	6.04e-01	0	37	0	737673216	53	4777
2026-01-24 01:44:28.95	212.63	30.34	-40.9	-43.1	26.0	6.05e-01	0	37	0	739770368	53	4642
2026-01-24 01:44:29.66	212.57	30.18	-40.9	-43.2	25.9	6.06e-01	0	37	0	741343232	53	4666
2026-01-24 01:44:31.16	212.44	29.86	-40.9	-43.1	26.0	6.05e-01	0	37	0	743964672	53	4626
2026-01-24 01:44:31.87	212.39	29.70	-40.9	-43.1	25.9	6.05e-01	0	37	0	745537536	53	4642
2026-01-24 01:44:33.15	212.28	29.43	-41.0	-43.3	25.8	6.04e-01	0	37	0	747634688	53	4722
2026-01-24 01:44:33.87	212.22	29.28	-41.1	-43.4	25.7	6.02e-01	0	37	0	749207552	53	4761
2026-01-24 01:44:35.27	212.11	28.98	-41.3	-43.6	25.6	6.04e-01	0	38	0	751828992	53	4889
2026-01-24 01:44:35.98	212.06	28.84	-41.2	-43.5	25.6	6.04e-01	0	37	0	752877568	53	4840
2026-01-24 01:44:37.25	211.96	28.57	-41.2	-43.5	25.6	6.00e-01	0	37	0	755499008	53	4864
2026-01-24 01:44:37.97	211.91	28.42	-41.2	-43.6	24.7	6.02e-01	0	37	0	756547584	53	4874
2026-01-24 01:44:39.24	211.81	28.17	-41.3	-43.6	25.5	6.02e-01	0	37	0	759169024	53	4926
2026-01-24 01:44:39.95	211.76	28.02	-41.4	-43.8	25.3	6.02e-01	0	37	0	760741888	53	5007
2026-01-24 01:44:41.23	211.66	27.76	-41.5	-43.9	25.2	6.04e-01	0	37	0	762839040	53	5076
2026-01-24 01:44:41.95	211.61	27.62	-41.5	-43.9	25.3	6.07e-01	0	37	0	764411904	53	5042
2026-01-24 01:44:43.22	211.52	27.37	-41.6	-43.9	25.2	6.04e-01	0	37	0	766509056	53	5072
2026-01-24 01:44:44.01	211.47	27.21	-41.6	-44.0	25.1	6.04e-01	0	37	0	768081920	53	5105
2026-01-24 01:44:45.18	211.39	26.99	-41.5	-43.8	25.2	6.05e-01	0	38	0	770179072	53	5023
2026-01-24 01:44:46.03	211.33	26.82	-41.5	-43.9	25.3	6.03e-01	0	37	0	771751936	53	5063
2026-01-24 01:44:47.17	211.25	26.60	-41.6	-44.0	25.1	6.03e-01	0	37	0	773849088	53	5111
2026-01-24 01:44:48.02	211.20	26.44	-41.6	-44.0	25.0	6.03e-01	0	37	0	775421952	53	5147
2026-01-24 01:44:49.16	211.12	26.22	-41.8	-44.2	25.0	6.03e-01	0	38	0	777519104	54	4942
2026-01-24 01:44:50.30	211.05	26.01	-41.7	-44.1	25.0	6.04e-01	0	37	0	780140544	54	4916
2026-01-24 01:44:51.32	210.98	25.82	-41.9	-44.3	24.9	6.03e-01	0	37	0	781713408	54	5015
2026-01-24 01:44:52.32	210.92	25.64	-41.7	-44.2	25.0	6.02e-01	0	37	0	783810560	54	4935
2026-01-24 01:44:53.31	210.86	25.45	-41.7	-44.1	25.0	6.02e-01	0	37	0	785383424	54	4886
2026-01-24 01:44:54.31	210.80	25.27	-41.7	-44.1	25.1	6.02e-01	0	38	0	787480576	54	4876
2026-01-24 01:44:55.31	210.74	25.09	-41.5	-43.9	25.2	6.03e-01	0	37	0	789053440	54	4790
2026-01-24 01:44:56.30	210.68	24.91	-41.6	-44.0	25.2	6.02e-01	0	37	0	791150592	54	4831
2026-01-24 01:44:57.30	210.62	24.73	-41.6	-44.0	25.2	6.03e-01	0	38	0	793247744	54	4847
2026-01-24 01:44:58.29	210.56	24.56	-41.6	-44.0	25.1	6.04e-01	0	37	0	794820608	54	4845
2026-01-24 01:44:59.29	210.50	24.38	-41.8	-44.2	25.0	6.04e-01	0	37	0	796917760	54	4934
2026-01-24 01:45:00.28	210.45	24.21	-41.9	-44.3	24.9	6.04e-01	0	37	0	798490624	54	5001
2026-01-24 01:45:01.27	210.39	24.04	-41.9	-44.3	24.9	6.01e-01	0	37	0	800587776	54	5001
2026-01-24 01:45:02.27	210.33	23.87	-41.9	-44.3	24.9	6.04e-01	0	38	0	802160640	54	5015
2026-01-24 01:45:03.30	210.28	23.69	-41.9	-44.3	24.9	6.03e-01	0	37	0	804257792	54	5028
2026-01-24 01:45:04.29	210.22	23.52	-41.9	-44.3	24.8	6.06e-01	0	37	0	806354944	54	5032
2026-01-24 01:45:05.35	210.17	23.34	-41.8	-44.2	24.9	6.04e-01	0	38	0	807927808	54	4954
2026-01-24 01:45:06.26	210.12	23.19	-41.8	-44.3	24.9	6.04e-01	0	37	0	810024960	54	4990
2026-01-24 01:45:07.38	210.06	23.01	-41.7	-44.1	25.0	6.02e-01	0	37	0	812122112	54	4917
2026-01-24 01:45:08.24	210.01	22.86	-41.7	-44.2	25.0	6.03e-01	0	37	0	813694976	54	4941
2026-01-24 01:45:09.37	209.96	22.68	-41.7	-44.1	25.0	6.03e-01	0	37	0	815792128	54	4901
2026-01-24 01:45:10.23	209.91	22.54	-41.7	-44.1	25.0	6.05e-01	0	37	0	817364992	54	4924
2026-01-24 01:45:11.36	209.86	22.35	-41.8	-44.2	24.8	6.03e-01	0	37	0	819462144	54	4982
2026-01-24 01:45:12.22	209.81	22.22	-41.9	-44.4	24.7	6.03e-01	0	37	0	821035008	54	5094
2026-01-24 01:45:13.35	209.76	22.04	-42.0	-44.6	24.6	6.02e-01	0	37	0	823132160	54	5167
2026-01-24 01:45:14.21	209.72	21.90	-42.1	-44.7	24.5	6.05e-01	0	37	0	824705024	54	5220
2026-01-24 01:45:15.34	209.66	21.72	-42.0	-44.6	24.5	6.05e-01	0	37	0	826802176	54	5165
2026-01-24 01:45:16.20	209.62	21.59	-42.0	-44.5	24.6	6.05e-01	0	37	0	828375040	54	5117
2026-01-24 01:45:17.33	209.57	21.41	-42.1	-44.6	24.5	6.05e-01	0	37	0	830472192	54	5187
2026-01-24 01:45:18.19	209.53	21.28	-42.0	-44.5	24.6	6.00e-01	0	37	0	832045056	54	5148
2026-01-24 01:45:19.34	209.48	21.10	-42.0	-44.5	24.6	6.01e-01	0	37	0	834142208	54	5133
2026-01-24 01:45:20.20	209.44	20.97	-42.0	-44.5	24.6	6.05e-01	0	37	0	835715072	54	5117
2026-01-24 01:45:21.40	209.38	20.79	-42.0	-44.4	24.7	6.03e-01	0	37	0	838336512	54	5073
2026-01-24 01:45:22.25	209.35	20.66	-41.9	-44.4	24.7	6.05e-01	0	37	0	839909376	54	5049
2026-01-24 01:45:23.39	209.30	20.49	-42.0	-44.4	24.7	6.01e-01	0	37	0	842006528	54	5078
2026-01-24 01:45:24.24	209.26	20.36	-41.9	-44.4	24.7	6.05e-01	0	37	0	843579392	54	5046
2026-01-24 01:45:25.38	209.21	20.20	-41.9	-44.4	24.8	6.04e-01	0	37	0	845676544	54	5047
2026-01-24 01:45:26.23	209.18	20.07	-41.9	-44.4	24.7	6.02e-01	0	37	0	847249408	54	5069
2026-01-24 01:45:27.37	209.13	19.90	-42.0	-44.4	24.7	6.07e-01	0	37	0	849346560	54	5088
2026-01-24 01:45:28.22	209.09	19.78	-41.9	-44.4	24.7	6.04e-01	0	38	0	850919424	54	5045
2026-01-24 01:45:29.36	209.05	19.62	-41.8	-44.2	24.8	6.05e-01	0	38	0	853016576	54	4962
2026-01-24 01:45:30.21	209.01	19.50	-41.8	-44.3	24.8	6.04e-01	0	37	0	854589440	54	4987
2026-01-24 01:45:31.35	208.97	19.33	-41.8	-44.2	24.8	6.06e-01	0	37	0	856686592	54	4963
2026-01-24 01:45:32.21	208.93	19.21	-41.8	-44.2	24.8	6.01e-01	0	37	0	858259456	54	4963
2026-01-24 01:45:33.34	208.89	19.05	-41.8	-44.3	24.8	6.05e-01	0	38	0	860356608	54	4991
2026-01-24 01:45:34.19	208.85	18.93	-41.8	-44.3	24.8	6.05e-01	0	37	0	862453760	54	5017
2026-01-24 01:45:35.33	208.81	18.78	-41.9	-44.4	24.7	6.04e-01	0	37	0	864026624	54	5055
2026-01-24 01:45:36.18	208.78	18.66	-42.0	-44.5	24.6	6.04e-01	0	37	0	866123776	54	5117
2026-01-24 01:45:37.32	208.73	18.50	-42.1	-44.6	24.5	6.05e-01	0	37	0	868220928	54	5169
2026-01-24 01:45:38.17	208.70	18.39	-42.0	-44.5	24.6	6.04e-01	0	37	0	869793792	54	5125
2026-01-24 01:45:39.42	208.66	18.22	-42.0	-44.5	24.6	6.04e-01	0	38	0	871890944	54	5122
2026-01-24 01:45:40.27	208.62	18.10	-42.1	-44.6	24.5	6.03e-01	0	38	0	873463808	54	5174
2026-01-24 01:45:41.41	208.58	17.95	-42.1	-44.6	24.4	6.03e-01	0	37	0	875560960	54	5207
2026-01-24 01:45:42.26	208.55	17.84	-42.1	-44.6	24.4	6.04e-01	0	37	0	877133824	54	5208
2026-01-24 01:45:43.52	208.51	17.67	-42.1	-44.6	24.4	6.03e-01	0	37	0	879755264	54	5213
2026-01-24 01:45:44.33	208.48	17.56	-42.1	-44.6	24.4	6.02e-01	0	37	0	881328128	54	5210
2026-01-24 01:45:45.46	208.44	17.42	-42.0	-44.5	24.5	6.03e-01	0	37	0	883425280	54	5152
2026-01-24 01:45:46.31	208.41	17.31	-42.0	-44.5	24.5	6.02e-01	0	37	0	884998144	54	5134
2026-01-24 01:45:47.45	208.37	17.16	-42.0	-44.5	24.5	6.02e-01	0	37	0	887095296	54	5121
2026-01-24 01:45:48.37	208.34	17.04	-41.9	-44.4	24.6	6.03e-01	0	38	0	888668160	54	5097
2026-01-24 01:45:49.37	208.31	16.91	-41.9	-44.4	24.6	6.03e-01	0	37	0	890765312	54	5077
2026-01-24 01:45:50.36	208.27	16.79	-41.9	-44.4	24.6	6.06e-01	0	37	0	892338176	54	5063
2026-01-24 01:45:51.35	208.24	16.66	-42.0	-44.5	24.5	6.04e-01	0	37	0	894435328	54	5102
2026-01-24 01:45:52.35	208.21	16.54	-41.8	-44.3	24.7	6.03e-01	0	38	0	896008192	54	5025
2026-01-24 01:45:53.34	208.18	16.41	-41.9	-44.3	24.6	6.03e-01	0	37	0	898105344	54	5041
2026-01-24 01:45:54.34	208.15	16.29	-41.8	-44.3	24.7	6.04e-01	0	37	0	900202496	54	5018
2026-01-24 01:45:55.33	208.11	16.17	-41.8	-44.3	24.7	6.06e-01	0	37	0	901775360	54	5001
2026-01-24 01:45:56.33	208.08	16.04	-41.9	-44.3	24.6	6.06e-01	0	37	0	903872512	54	5035
2026-01-24 01:45:57.33	208.05	15.92	-41.9	-44.3	24.5	6.04e-01	0	37	0	905445376	54	5023
2026-01-24 01:45:58.32	208.02	15.80	-41.7	-44.2	24.8	6.03e-01	0	38	0	907542528	54	4941
2026-01-24 01:45:59.31	207.99	15.68	-41.7	-44.1	24.8	6.04e-01	0	37	0	909115392	54	4896
2026-01-24 01:46:00.36	207.96	15.55	-41.6	-44.1	24.9	6.03e-01	0	37	0	911212544	54	4884
2026-01-24 01:46:01.38	207.93	15.43	-41.7	-44.1	24.7	6.06e-01	0	38	0	913309696	54	4917
2026-01-24 01:46:02.38	207.90	15.31	-41.6	-44.1	24.8	6.07e-01	0	37	0	914882560	54	4883
2026-01-24 01:46:03.37	207.87	15.20	-41.6	-44.1	24.8	6.05e-01	0	38	0	916979712	54	4873
2026-01-24 01:46:04.46	207.84	15.07	-41.7	-44.1	24.8	6.04e-01	0	38	0	919076864	54	4910
2026-01-24 01:46:05.34	207.81	14.96	-41.7	-44.2	24.8	6.04e-01	0	38	0	920649728	54	4945
2026-01-24 01:46:06.48	207.78	14.83	-41.8	-44.2	24.7	6.05e-01	0	37	0	922746880	54	4982
2026-01-24 01:46:07.33	207.76	14.73	-41.8	-44.2	24.7	6.03e-01	0	38	0	924319744	54	4972
2026-01-24 01:46:08.47	207.73	14.60	-41.7	-44.2	24.7	6.05e-01	0	37	0	926416896	54	4944
2026-01-24 01:46:09.32	207.70	14.50	-41.8	-44.2	24.7	6.03e-01	0	37	0	927989760	54	4979
2026-01-24 01:46:10.46	207.67	14.37	-41.8	-44.3	24.6	6.05e-01	0	38	0	930086912	54	5019
2026-01-24 01:46:11.31	207.65	14.28	-41.8	-44.3	24.6	6.07e-01	0	38	0	931659776	54	5029
2026-01-24 01:46:12.45	207.62	14.15	-41.8	-44.2	24.7	6.00e-01	0	38	0	933756928	54	4959
2026-01-24 01:46:13.30	207.59	14.05	-41.7	-44.2	24.7	6.05e-01	0	37	0	935329792	54	4957
2026-01-24 01:46:14.44	207.56	13.93	-41.8	-44.2	24.7	6.02e-01	0	38	0	937426944	54	4968
2026-01-24 01:46:15.29	207.54	13.83	-41.8	-44.3	24.7	6.03e-01	0	38	0	939524096	54	5003
2026-01-24 01:46:16.43	207.51	13.71	-41.8	-44.3	24.5	6.04e-01	0	37	0	941096960	54	5039
2026-01-24 01:46:17.28	207.49	13.61	-41.8	-44.4	24.6	6.03e-01	0	37	0	942669824	54	5045
2026-01-24 01:46:18.42	207.46	13.49	-41.9	-44.4	24.6	6.05e-01	0	38	0	945291264	54	5059
2026-01-24 01:46:19.27	207.44	13.39	-41.9	-44.4	24.5	6.04e-01	0	37	0	946864128	54	5093
2026-01-24 01:46:20.50	207.41	13.26	-41.9	-44.4	24.5	6.03e-01	0	38	0	948961280	54	5091
2026-01-24 01:46:21.36	207.39	13.17	-42.0	-44.5	24.4	6.05e-01	0	38	0	950534144	54	5130
2026-01-24 01:46:22.49	207.36	13.05	-42.0	-44.5	24.4	6.04e-01	0	37	0	952631296	54	5134
2026-01-24 01:46:23.36	207.34	12.95	-42.0	-44.5	24.3	6.04e-01	0	37	0	954204160	54	5154
2026-01-24 01:46:24.50	207.31	12.83	-42.0	-44.5	24.4	6.04e-01	0	37	0	956301312	54	5145
2026-01-24 01:46:25.35	207.29	12.74	-42.0	-44.5	24.3	6.05e-01	0	37	0	957874176	54	5144
2026-01-24 01:46:26.49	207.26	12.62	-42.0	-44.6	24.3	6.05e-01	0	37	0	960495616	54	5178
2026-01-24 01:46:27.34	207.24	12.53	-41.9	-44.4	24.5	6.04e-01	0	38	0	962068480	54	5086
2026-01-24 01:46:28.48	207.21	12.41	-42.0	-44.5	24.4	6.06e-01	0	37	0	964165632	54	5151
2026-01-24 01:46:29.33	207.19	12.33	-42.0	-44.5	24.3	6.04e-01	0	37	0	965738496	54	5154
2026-01-24 01:46:30.47	207.17	12.21	-42.0	-44.5	24.4	6.06e-01	0	38	0	967835648	54	5120
2026-01-24 01:46:31.32	207.15	12.12	-42.0	-44.5	24.4	6.05e-01	0	38	0	969408512	54	5123
2026-01-24 01:46:32.46	207.12	12.00	-42.0	-44.6	24.3	6.04e-01	0	38	0	971505664	54	5162
2026-01-24 01:46:33.31	207.10	11.92	-42.0	-44.5	24.4	6.02e-01	0	37	0	973078528	54	5138
2026-01-24 01:46:34.44	207.08	11.80	-42.0	-44.5	24.3	6.04e-01	0	37	0	975175680	54	5136
2026-01-24 01:46:35.30	207.06	11.72	-42.0	-44.5	24.3	6.04e-01	0	37	0	976748544	54	5147
2026-01-24 01:46:36.62	207.03	11.58	-42.0	-44.6	24.3	6.03e-01	0	37	0	979369984	54	5162
2026-01-24 01:46:37.33	207.01	11.51	-42.0	-44.6	24.3	6.02e-01	0	37	0	980418560	54	5169
2026-01-24 01:46:38.61	206.99	11.38	-42.0	-44.6	24.2	6.05e-01	0	37	0	983040000	54	5195
2026-01-24 01:46:39.35	206.97	11.31	-42.1	-44.7	24.2	6.04e-01	0	38	0	984612864	54	5268
2026-01-24 01:46:40.63	206.94	11.18	-42.2	-44.8	24.0	6.02e-01	0	37	0	986710016	55	5036
2026-01-24 01:46:41.34	206.93	11.11	-42.1	-44.8	24.1	6.03e-01	0	38	0	988282880	55	4984
2026-01-24 01:46:42.62	206.90	10.99	-42.2	-44.8	24.0	6.06e-01	0	37	0	990380032	55	5019
2026-01-24 01:46:43.33	206.89	10.92	-42.2	-44.8	24.0	6.02e-01	0	38	0	991952896	55	5006
2026-01-24 01:46:44.61	206.86	10.80	-42.1	-44.8	24.0	6.05e-01	0	38	0	994050048	55	5008
2026-01-24 01:46:45.48	206.84	10.71	-42.1	-44.8	24.0	6.05e-01	0	38	0	995622912	55	5010
2026-01-24 01:46:46.62	206.82	10.60	-42.2	-44.9	23.9	6.06e-01	0	37	0	997720064	55	5053
2026-01-24 01:46:47.66	206.80	10.50	-42.2	-44.9	23.9	6.07e-01	0	37	0	999817216	55	5084
2026-01-24 01:46:48.81	206.78	10.39	-42.2	-44.9	23.9	6.02e-01	0	38	0	1001914368	55	5074
2026-01-24 01:46:49.71	206.76	10.31	-42.2	-44.9	23.9	6.07e-01	0	38	0	1004011520	55	5066
2026-01-24 01:46:50.93	206.73	10.19	-42.2	-44.9	23.9	6.03e-01	0	38	0	1006108672	55	5078
2026-01-24 01:46:51.78	206.72	10.11	-42.2	-44.9	23.9	6.03e-01	0	37	0	1007681536	55	5089
2026-01-24 01:46:52.92	206.70	10.01	-42.1	-44.8	24.0	6.05e-01	0	37	0	1009778688	55	5004
2026-01-24 01:46:53.82	206.68	9.92	-42.1	-44.9	23.9	6.02e-01	0	38	0	1011351552	55	5047
2026-01-24 01:46:55.05	206.66	9.81	-42.2	-44.9	23.9	6.04e-01	0	37	0	1013972992	55	5068
2026-01-24 01:46:55.90	206.64	9.73	-42.2	-44.9	23.9	6.03e-01	0	37	0	1015545856	55	5075
2026-01-24 01:46:57.04	206.62	9.62	-42.2	-45.0	23.8	6.05e-01	0	37	0	1017643008	55	5113
2026-01-24 01:46:57.89	206.60	9.55	-42.3	-45.0	23.7	6.02e-01	0	37	0	1019215872	55	5147
2026-01-24 01:46:59.03	206.58	9.44	-42.3	-45.1	23.7	6.05e-01	0	38	0	1021313024	55	5164
2026-01-24 01:46:59.88	206.57	9.37	-42.2	-45.0	23.8	6.04e-01	0	38	0	1022885888	55	5119
2026-01-24 01:47:00.99	206.55	9.26	-42.2	-45.0	23.7	6.06e-01	0	38	0	1024983040	55	5147
2026-01-24 01:47:01.84	206.53	9.19	-42.3	-45.1	23.2	6.04e-01	0	38	0	1026555904	55	5209
2026-01-24 01:47:02.98	206.51	9.09	-42.2	-45.1	23.7	6.05e-01	0	38	0	1028653056	55	5168
2026-01-24 01:47:03.83	206.50	9.01	-47.8	-55.2	16.3	6.03e-01	0	37	0	1030225920	65	9367
2026-01-24 01:47:04.96	206.48	8.91	-50.0	-69.8	3.8	7.42e-01	0	38	104	1030225920	70	37437
2026-01-24 01:47:05.81	206.46	8.83	-50.1	-70.4	3.8	7.43e-01	0	37	104	1030225920	71	37845
2026-01-24 01:47:06.95	206.44	8.73	-50.1	-70.6	3.8	7.42e-01	0	38	104	1030225920	71	38886
2026-01-24 01:47:07.80	206.43	8.66	-50.3	-70.7	3.8	7.46e-01	0	37	104	1030225920	71	39238
2026-01-24 01:47:08.94	206.41	8.56	-50.3	-70.7	3.8	7.48e-01	0	38	104	1030225920	71	39574
2026-01-24 01:47:09.79	206.39	8.48	-50.6	-70.8	3.8	7.43e-01	0	38	104	1030225920	71	39811
2026-01-24 01:47:10.92	206.37	8.38	-50.3	-70.8	3.8	7.48e-01	0	38	104	1030225920	71	39955
2026-01-24 01:47:11.77	206.36	8.31	-50.8	-70.8	3.8	7.46e-01	0	38	104	1030225920	72	37618
2026-01-24 01:47:12.91	206.34	8.21	-50.8	-70.8	3.8	7.48e-01	0	38	104	1030225920	72	37666
2026-01-24 01:47:13.76	206.33	8.14	-50.8	-70.8	3.8	7.48e-01	0	38	104	1030225920	72	37803
2026-01-24 01:47:14.90	206.31	8.04	-50.5	-70.9	3.8	7.45e-01	0	38	104	1030225920	72	37815
2026-01-24 01:47:15.75	206.30	7.97	-50.0	-70.9	3.8	7.46e-01	0	38	104	1030225920	72	37861
2026-01-24 01:47:16.88	206.28	7.87	-50.8	-70.9	3.8	7.42e-01	0	38	104	1030225920	72	37841
2026-01-24 01:47:17.73	206.26	7.80	-50.7	-70.9	3.8	7.50e-01	0	38	104	1030225920	72	37855
2026-01-24 01:47:18.87	206.25	7.70	-49.7	-70.9	3.7	7.45e-01	0	38	104	1030225920	71	40277
2026-01-24 01:47:19.72	206.23	7.63	-50.5	-70.9	3.8	7.47e-01	0	38	104	1030225920	71	40130
2026-01-24 01:47:20.85	206.21	7.54	-50.1	-70.8	3.8	7.44e-01	0	38	104	1030225920	72	37751
2026-01-24 01:47:21.71	206.20	7.47	-50.1	-70.8	3.8	7.46e-01	0	38	104	1030225920	72	37746
2026-01-24 01:47:22.84	206.18	7.37	-49.9	-70.9	3.8	7.45e-01	0	38	104	1030225920	71	40123
2026-01-24 01:47:23.69	206.17	7.30	-50.1	-70.9	3.8	7.44e-01	0	38	104	1030225920	71	40060
2026-01-24 01:47:24.83	206.15	7.21	-50.2	-70.8	3.8	7.47e-01	0	38	104	1030225920	71	39872
2026-01-24 01:47:25.68	206.14	7.14	-50.2	-70.8	3.8	7.47e-01	0	38	104	1030225920	71	39945
2026-01-24 01:47:26.82	206.12	7.04	-50.2	-70.8	3.8	7.45e-01	0	38	104	1030225920	71	39797
2026-01-24 01:47:27.67	206.11	6.97	-50.2	-70.8	3.8	7.48e-01	0	38	104	1030225920	71	39801
2026-01-24 01:47:28.80	206.09	6.88	-50.2	-70.8	3.8	7.48e-01	0	38	104	1030225920	71	39784
2026-01-24 01:47:29.66	206.08	6.81	-50.1	-70.8	3.8	7.45e-01	0	38	104	1030225920	71	39785
2026-01-24 01:47:30.79	206.07	6.72	-50.1	-70.8	3.8	7.47e-01	0	38	104	1030225920	71	39710
2026-01-24 01:47:31.64	206.05	6.65	-50.1	-70.8	3.8	7.46e-01	0	38	104	1030225920	71	39838
2026-01-24 01:47:32.78	206.04	6.56	-50.1	-70.8	3.8	7.44e-01	0	38	104	1030225920	71	39770
2026-01-24 01:47:33.63	206.03	6.49	-50.1	-70.8	3.8	7.48e-01	0	38	104	1030225920	71	39682
2026-01-24 01:47:34.77	206.01	6.40	-50.1	-70.8	3.8	7.46e-01	0	38	104	1030225920	71	39699
2026-01-24 01:47:35.62	206.00	6.33	-50.1	-70.8	3.8	7.47e-01	0	37	104	1030225920	71	39716
2026-01-24 01:47:36.75	205.98	6.24	-50.1	-70.8	3.8	7.49e-01	0	37	104	1030225920	71	39698
2026-01-24 01:47:37.61	205.97	6.18	-50.1	-70.8	3.8	7.48e-01	0	38	104	1030225920	71	39769
2026-01-24 01:47:38.74	205.95	6.09	-50.1	-70.8	3.8	7.47e-01	0	38	104	1030225920	71	39705
2026-01-24 01:47:39.59	205.94	6.02	-50.1	-70.8	3.8	7.45e-01	0	37	104	1030225920	71	39656
2026-01-24 01:47:40.73	205.93	5.93	-50.1	-70.8	3.8	7.45e-01	0	38	104	1030225920	71	39711
2026-01-24 01:47:41.58	205.92	5.86	-50.1	-70.8	3.8	7.44e-01	0	37	104	1030225920	71	39681
2026-01-24 01:47:42.71	205.90	5.78	-50.1	-70.8	3.8	7.45e-01	0	38	104	1030225920	71	39679
2026-01-24 01:47:43.57	205.89	5.71	-50.1	-70.8	3.8	7.43e-01	0	38	104	1030225920	71	39712
2026-01-24 01:47:44.70	205.87	5.62	-50.1	-70.8	3.8	7.45e-01	0	38	104	1030225920	71	39727
2026-01-24 01:47:45.55	205.86	5.56	-50.1	-70.8	3.8	7.46e-01	0	38	104	1030225920	71	39697
2026-01-24 01:47:46.69	205.85	5.47	-50.1	-70.7	3.8	7.46e-01	0	37	104	1030225920	71	39580
2026-01-24 01:47:47.54	205.84	5.40	-50.1	-70.8	3.8	7.46e-01	0	38	104	1030225920	71	39658
2026-01-24 01:47:48.67	205.82	5.32	-50.1	-70.8	3.8	7.48e-01	0	38	104	1030225920	71	39665
2026-01-24 01:47:49.52	205.81	5.25	-50.1	-70.8	3.8	7.45e-01	0	38	104	1030225920	71	39632
2026-01-24 01:47:50.66	205.80	5.17	-50.1	-70.8	3.8	7.45e-01	0	38	104	1030225920	71	39705
2026-01-24 01:47:51.51	205.79	5.10	-50.1	-70.8	3.8	7.44e-01	0	38	104	1030225920	71	39639
2026-01-24 01:47:52.65	205.77	5.02	-50.1	-70.8	3.8	7.45e-01	0	38	104	1030225920	71	39661
2026-01-24 01:47:53.50	205.76	4.95	-50.1	-70.8	3.8	7.46e-01	0	38	104	1030225920	71	39654

#Closed at: 2026-01-24 01:47:54
#Recorded file [1030 MB]: D:/Data/31040_260124_043631.dat