passes_logs/2026/01/24/T1/T1__20260124_060832_FENGYUN_3E_rec.log

#Pass ID: 20260124_060832_FENGYUN 3E
#Satellite: FENGYUN 3E
#Configuration: FENGYUN 3E
#almurnet v.1.7.20251203
#Start time: 2026-01-24 06:08:33

#Version: 2.0.20230620
#Station: T1
#Location: 37.570604 lon 55.790049 lat
#TLE: 1 49008U 21062A   26023.60278097 -.00000097  00000+0 -24964-4 0  9990
#TLE: 2 49008  98.7490  28.6300 0002358 120.0933 240.0477 14.19886577236062

#Time	Az	El	Level	Level2	SNR	BER	BlckErr	Temp	State	Recorded	gain1	gain2
2026-01-24 06:08:33.25	3.55	5.02	-47.7	-59.4	3.8	8.45e-01	0	35	0	0	65	14047
2026-01-24 06:08:34.24	3.45	5.08	-42.8	-59.0	3.8	8.46e-01	0	36	104	0	54	25434
2026-01-24 06:08:35.24	3.35	5.13	-42.8	-59.0	3.8	8.47e-01	0	36	104	0	55	24116
2026-01-24 06:08:36.23	3.25	5.18	-42.8	-59.0	3.8	8.48e-01	0	36	104	0	55	23965
2026-01-24 06:08:37.22	3.15	5.23	-42.8	-59.1	3.8	8.47e-01	0	36	104	0	55	24257
2026-01-24 06:08:38.22	3.05	5.29	-42.8	-59.0	3.8	8.47e-01	0	36	104	0	55	24022
2026-01-24 06:08:39.21	2.95	5.34	-42.8	-59.0	3.8	8.46e-01	0	36	104	0	55	24078
2026-01-24 06:08:40.21	2.84	5.39	-42.8	-59.0	3.8	8.47e-01	0	36	104	0	55	24037
2026-01-24 06:08:41.20	2.74	5.45	-42.8	-59.0	3.8	8.47e-01	0	36	104	0	55	24112
2026-01-24 06:08:42.20	2.64	5.50	-42.8	-59.0	3.8	8.48e-01	0	36	104	0	55	24098
2026-01-24 06:08:43.20	2.53	5.55	-42.7	-59.0	3.8	8.46e-01	0	36	104	0	55	23923
2026-01-24 06:08:44.19	2.43	5.60	-42.8	-59.0	3.8	8.47e-01	0	36	104	0	55	23949
2026-01-24 06:08:45.19	2.32	5.66	-42.7	-59.0	3.8	8.47e-01	0	36	104	0	55	24029
2026-01-24 06:08:46.18	2.22	5.71	-42.8	-59.0	3.8	8.46e-01	0	36	104	0	55	24038
2026-01-24 06:08:47.18	2.11	5.76	-42.8	-59.0	3.8	8.47e-01	0	36	104	0	55	24003
2026-01-24 06:08:48.18	2.01	5.82	-42.8	-59.1	3.8	8.46e-01	0	36	104	0	55	24196
2026-01-24 06:08:49.17	1.90	5.87	-42.8	-59.0	3.8	8.47e-01	0	36	104	0	55	24013
2026-01-24 06:08:50.17	1.79	5.92	-42.8	-59.0	3.8	8.47e-01	0	36	104	0	55	23925
2026-01-24 06:08:51.16	1.69	5.98	-42.8	-59.0	3.8	8.47e-01	0	36	104	0	55	24028
2026-01-24 06:08:52.16	1.58	6.03	-42.8	-59.0	3.8	8.47e-01	0	36	104	0	55	23962
2026-01-24 06:08:53.15	1.47	6.08	-42.8	-59.0	3.8	8.47e-01	0	36	104	0	55	24006
2026-01-24 06:08:54.15	1.36	6.14	-42.8	-59.0	3.8	8.48e-01	0	36	104	0	55	24012
2026-01-24 06:08:55.14	1.25	6.19	-42.8	-59.0	3.8	8.47e-01	0	36	104	0	55	23871
2026-01-24 06:08:56.14	1.14	6.24	-42.8	-59.0	3.8	8.46e-01	0	37	104	0	55	24093
2026-01-24 06:08:57.14	1.03	6.29	-42.8	-59.0	3.8	8.46e-01	0	36	104	0	55	24075
2026-01-24 06:08:58.13	0.92	6.35	-42.8	-59.0	3.8	8.47e-01	0	36	104	0	55	24037
2026-01-24 06:08:59.13	0.81	6.40	-42.8	-59.0	3.8	8.47e-01	0	37	104	0	55	23934
2026-01-24 06:09:00.12	0.70	6.45	-42.8	-59.0	3.8	8.47e-01	0	37	104	0	55	23959
2026-01-24 06:09:01.12	0.59	6.51	-42.8	-58.9	3.8	8.47e-01	0	37	104	0	55	23762
2026-01-24 06:09:02.12	0.48	6.56	-42.9	-59.0	3.8	8.47e-01	0	37	104	0	55	23945
2026-01-24 06:09:03.12	0.36	6.61	-42.8	-59.0	3.8	8.47e-01	0	37	104	0	55	24010
2026-01-24 06:09:04.11	0.25	6.67	-42.9	-59.0	3.8	8.46e-01	0	37	104	0	55	23983
2026-01-24 06:09:05.11	0.14	6.72	-42.8	-59.0	3.8	8.47e-01	0	37	104	0	55	23964
2026-01-24 06:09:06.10	0.03	6.77	-42.8	-59.0	3.8	8.46e-01	0	37	104	0	55	23913
2026-01-24 06:09:07.10	359.91	6.83	-42.8	-59.0	3.8	8.47e-01	0	37	104	0	55	24039
2026-01-24 06:09:08.09	359.80	6.88	-42.8	-59.0	3.8	8.47e-01	0	37	104	0	55	24090
2026-01-24 06:09:09.09	359.68	6.93	-42.8	-59.0	3.8	8.47e-01	0	37	104	0	55	24109
2026-01-24 06:09:10.08	359.57	6.99	-42.8	-59.0	3.8	8.47e-01	0	37	104	0	55	23975
2026-01-24 06:09:11.08	359.45	7.04	-42.8	-59.0	3.8	8.47e-01	0	37	104	0	55	24005
2026-01-24 06:09:12.07	359.34	7.09	-42.8	-59.0	3.8	8.47e-01	0	37	104	0	55	23919
2026-01-24 06:09:13.07	359.22	7.15	-42.8	-58.9	3.8	8.47e-01	0	37	104	0	55	23798
2026-01-24 06:09:14.06	359.10	7.20	-42.8	-59.0	3.8	8.47e-01	0	37	104	0	55	23871
2026-01-24 06:09:15.06	358.98	7.25	-42.8	-58.9	3.8	8.47e-01	0	37	104	0	55	23805
2026-01-24 06:09:16.06	358.87	7.31	-42.8	-59.0	3.8	8.47e-01	0	37	104	0	55	23940
2026-01-24 06:09:17.05	358.75	7.36	-42.8	-59.0	3.8	8.47e-01	0	37	104	0	55	23943
2026-01-24 06:09:18.05	358.63	7.41	-42.8	-59.0	3.8	8.47e-01	0	37	104	0	55	23961
2026-01-24 06:09:19.04	358.51	7.46	-42.8	-59.0	3.8	8.47e-01	0	37	104	0	55	24089
2026-01-24 06:09:20.04	358.39	7.52	-42.8	-59.0	3.8	8.47e-01	0	37	104	0	55	24060
2026-01-24 06:09:21.03	358.27	7.57	-42.9	-58.9	3.8	8.47e-01	0	37	104	0	55	23815
2026-01-24 06:09:22.03	358.15	7.62	-42.9	-59.0	3.8	8.46e-01	0	37	104	0	55	23935
2026-01-24 06:09:23.02	358.03	7.68	-42.9	-59.0	3.8	8.46e-01	0	37	104	0	55	24103
2026-01-24 06:09:24.02	357.91	7.73	-42.9	-59.0	3.8	8.47e-01	0	37	104	0	55	23980
2026-01-24 06:09:25.01	357.79	7.78	-42.9	-58.9	3.8	8.49e-01	0	37	104	0	55	23696
2026-01-24 06:09:26.01	357.66	7.84	-42.9	-58.7	3.8	8.46e-01	0	37	104	0	55	23152
2026-01-24 06:09:27.00	357.54	7.89	-42.8	-58.7	3.8	8.46e-01	0	37	104	0	55	23049
2026-01-24 06:09:28.00	357.42	7.94	-42.8	-58.8	3.8	8.46e-01	0	37	104	0	55	23327
2026-01-24 06:09:29.00	357.29	8.00	-42.8	-58.8	3.8	8.47e-01	0	37	104	0	55	23510
2026-01-24 06:09:29.99	357.17	8.05	-42.8	-58.9	3.8	8.47e-01	0	37	104	0	55	23689
2026-01-24 06:09:30.99	357.04	8.10	-42.8	-58.8	3.8	8.47e-01	0	37	104	0	55	23563
2026-01-24 06:09:31.99	356.92	8.16	-42.8	-58.6	3.8	8.47e-01	0	37	104	0	55	22982
2026-01-24 06:09:32.98	356.79	8.21	-42.8	-58.2	3.8	8.46e-01	0	37	104	0	55	21806
2026-01-24 06:09:33.98	356.67	8.26	-42.8	-57.7	3.8	8.46e-01	0	37	104	0	55	20766
2026-01-24 06:09:34.97	356.54	8.31	-42.7	-57.2	3.9	8.47e-01	0	38	104	0	55	19591
2026-01-24 06:09:35.97	356.41	8.37	-42.8	-56.8	3.9	8.45e-01	0	37	104	0	55	18718
2026-01-24 06:09:36.96	356.28	8.42	-42.7	-56.5	3.8	8.46e-01	0	37	104	0	55	18052
2026-01-24 06:09:37.96	356.16	8.47	-42.7	-55.9	4.1	8.43e-01	0	37	0	0	55	16846
2026-01-24 06:09:38.96	356.03	8.53	-42.7	-55.2	4.3	8.35e-01	0	38	0	0	55	15491
2026-01-24 06:09:39.95	355.90	8.58	-42.6	-54.5	4.5	8.25e-01	0	38	0	0	55	14240
2026-01-24 06:09:40.95	355.77	8.63	-42.5	-53.3	5.1	7.82e-01	0	38	0	0	55	12439
2026-01-24 06:09:41.95	355.64	8.68	-42.3	-51.9	6.1	4.07e-01	0	38	0	2097152	55	10605
2026-01-24 06:09:42.95	355.51	8.74	-42.1	-50.4	7.4	1.59e-01	0	37	0	8388608	55	8868
2026-01-24 06:09:43.94	355.38	8.79	-41.7	-48.4	9.3	4.11e-02	0	38	0	15728640	54	7516
2026-01-24 06:09:44.94	355.24	8.84	-41.2	-46.8	11.0	3.33e-03	0	38	0	23068672	53	6592
2026-01-24 06:09:45.94	355.11	8.90	-40.6	-45.2	12.7	2.18e-04	0	38	0	30408704	52	5792
2026-01-24 06:09:46.93	354.98	8.95	-40.2	-44.0	14.0	4.50e-06	0	37	0	37748736	51	5376
2026-01-24 06:09:47.93	354.85	9.00	-39.6	-43.0	15.1	0.00e+00	0	38	0	45088768	50	5049
2026-01-24 06:09:48.93	354.71	9.05	-39.5	-42.6	15.4	1.10e-06	0	38	0	52428800	49	5159
2026-01-24 06:09:49.93	354.58	9.11	-43.9	-54.2	4.8	3.37e-01	0	38	0	58720256	57	12249
2026-01-24 06:09:50.93	354.44	9.16	-37.5	-39.6	18.2	0.00e+00	0	37	0	63963136	45	4546
2026-01-24 06:09:51.93	354.31	9.21	-40.2	-43.4	14.7	0.00e+00	0	38	0	71303168	49	5642
2026-01-24 06:09:52.94	354.17	9.26	-37.3	-39.2	18.5	0.00e+00	0	38	0	78643200	45	4386
2026-01-24 06:09:53.94	354.03	9.32	-37.1	-39.0	18.7	0.00e+00	0	37	0	85983232	45	4271
2026-01-24 06:09:54.94	353.90	9.37	-37.1	-38.9	18.8	0.00e+00	0	38	0	93323264	45	4239
2026-01-24 06:09:55.94	353.76	9.42	-37.2	-39.0	18.7	0.00e+00	0	37	0	99614720	45	4286
2026-01-24 06:09:56.94	353.62	9.47	-37.3	-39.2	18.6	0.00e+00	0	37	0	106954752	45	4344
2026-01-24 06:09:57.94	353.48	9.53	-37.2	-39.1	18.7	0.00e+00	0	38	0	114294784	45	4296
2026-01-24 06:09:58.95	353.34	9.58	-37.2	-39.0	18.8	0.00e+00	0	38	0	121634816	45	4248
2026-01-24 06:09:59.95	353.20	9.63	-37.2	-39.0	18.8	0.00e+00	0	38	0	128974848	45	4256
2026-01-24 06:10:00.94	353.06	9.68	-37.1	-38.8	19.0	0.00e+00	0	38	0	136314880	45	4165
2026-01-24 06:10:01.95	352.92	9.74	-37.2	-38.8	19.0	0.00e+00	0	38	0	143654912	44	4419
2026-01-24 06:10:02.95	352.78	9.79	-37.3	-38.9	19.0	0.00e+00	0	37	0	150994944	44	4455
2026-01-24 06:10:03.95	352.64	9.84	-37.2	-38.8	19.0	0.00e+00	0	38	0	157286400	44	4422
2026-01-24 06:10:04.95	352.50	9.89	-37.3	-38.8	19.0	0.00e+00	0	38	0	165675008	44	4419
2026-01-24 06:10:05.96	352.35	9.94	-37.2	-38.7	19.1	0.00e+00	0	38	0	173015040	44	4362
2026-01-24 06:10:06.95	352.21	10.00	-37.2	-38.7	19.2	0.00e+00	0	38	0	179306496	44	4342
2026-01-24 06:10:07.96	352.07	10.05	-37.1	-38.5	19.3	0.00e+00	0	38	0	186646528	44	4289
2026-01-24 06:10:08.96	351.92	10.10	-37.1	-38.6	19.3	0.00e+00	0	38	0	193986560	44	4320
2026-01-24 06:10:09.96	351.78	10.15	-37.0	-38.5	19.4	0.00e+00	0	38	0	201326592	44	4267
2026-01-24 06:10:10.96	351.63	10.20	-37.0	-38.5	19.4	0.00e+00	0	38	0	208666624	44	4268
2026-01-24 06:10:11.96	351.49	10.25	-37.0	-38.5	19.3	0.00e+00	0	38	0	216006656	44	4270
2026-01-24 06:10:12.96	351.34	10.31	-36.9	-38.5	19.4	0.00e+00	0	38	0	223346688	44	4253
2026-01-24 06:10:13.96	351.19	10.36	-36.9	-38.6	19.3	0.00e+00	0	38	0	230686720	44	4295
2026-01-24 06:10:14.97	351.04	10.41	-36.8	-38.6	19.3	0.00e+00	0	38	0	238026752	44	4297
2026-01-24 06:10:15.97	350.90	10.46	-36.9	-38.7	19.2	0.00e+00	0	38	0	244318208	44	4365
2026-01-24 06:10:16.97	350.75	10.51	-36.7	-38.5	19.4	0.00e+00	0	38	0	251658240	44	4268
2026-01-24 06:10:17.97	350.60	10.56	-36.8	-38.6	19.3	0.00e+00	0	38	0	258998272	44	4304
2026-01-24 06:10:18.97	350.45	10.61	-36.7	-38.5	19.4	0.00e+00	0	38	0	266338304	44	4263
2026-01-24 06:10:19.98	350.30	10.66	-36.9	-38.6	19.3	0.00e+00	0	38	0	273678336	44	4315
2026-01-24 06:10:20.98	350.15	10.71	-37.0	-38.7	19.2	0.00e+00	0	38	0	281018368	44	4375
2026-01-24 06:10:21.98	350.00	10.77	-37.0	-38.7	19.1	0.00e+00	0	38	0	288358400	44	4377
2026-01-24 06:10:22.98	349.84	10.82	-37.1	-38.7	19.2	0.00e+00	0	38	0	295698432	44	4373
2026-01-24 06:10:23.98	349.69	10.87	-37.2	-38.8	19.1	0.00e+00	0	38	0	301989888	44	4426
2026-01-24 06:10:24.98	349.54	10.92	-37.3	-38.8	19.0	0.00e+00	0	38	0	309329920	44	4421
2026-01-24 06:10:25.98	349.39	10.97	-37.3	-38.8	19.1	0.00e+00	0	38	0	316669952	44	4395
2026-01-24 06:10:26.99	349.23	11.02	-37.3	-38.7	19.2	0.00e+00	0	38	0	324009984	44	4381
2026-01-24 06:10:27.99	349.08	11.07	-37.2	-38.7	19.2	0.00e+00	0	38	0	331350016	44	4346
2026-01-24 06:10:28.99	348.92	11.12	-37.2	-38.6	19.3	0.00e+00	0	38	0	338690048	44	4295
2026-01-24 06:10:29.99	348.76	11.17	-37.1	-38.5	19.4	0.00e+00	0	38	0	346030080	44	4248
2026-01-24 06:10:30.99	348.61	11.22	-37.1	-38.5	19.4	0.00e+00	0	38	0	353370112	44	4254
2026-01-24 06:10:31.99	348.45	11.27	-37.0	-38.4	19.5	0.00e+00	0	38	0	360710144	44	4198
2026-01-24 06:10:32.99	348.30	11.32	-36.9	-38.3	19.6	0.00e+00	0	38	0	367001600	44	4157
2026-01-24 06:10:33.99	348.14	11.37	-36.9	-38.2	19.7	0.00e+00	0	38	0	374341632	44	4143
2026-01-24 06:10:34.99	347.98	11.42	-36.9	-38.2	19.7	0.00e+00	0	38	0	381681664	44	4118
2026-01-24 06:10:35.99	347.82	11.46	-36.8	-38.2	19.7	0.00e+00	0	38	0	389021696	44	4105
2026-01-24 06:10:36.99	347.66	11.51	-36.8	-38.2	19.7	0.00e+00	0	38	0	396361728	44	4099
2026-01-24 06:10:37.99	347.50	11.56	-36.8	-38.1	19.8	0.00e+00	0	38	0	403701760	44	4089
2026-01-24 06:10:38.99	347.34	11.61	-36.8	-38.2	19.7	0.00e+00	0	38	0	411041792	44	4114
2026-01-24 06:10:39.99	347.18	11.66	-36.9	-38.2	19.7	0.00e+00	0	38	0	418381824	44	4137
2026-01-24 06:10:41.00	347.02	11.71	-36.8	-38.2	19.7	0.00e+00	0	38	0	425721856	44	4109
2026-01-24 06:10:42.00	346.86	11.76	-36.9	-38.2	19.7	0.00e+00	0	38	0	432013312	44	4126
2026-01-24 06:10:43.00	346.69	11.81	-37.0	-38.3	19.6	0.00e+00	0	38	0	440401920	44	4150
2026-01-24 06:10:44.00	346.53	11.85	-37.1	-38.3	19.6	0.00e+00	0	38	0	447741952	44	4181
2026-01-24 06:10:45.01	346.36	11.90	-37.1	-38.3	19.6	0.00e+00	0	38	0	454033408	44	4183
2026-01-24 06:10:46.01	346.20	11.95	-37.1	-38.2	19.7	0.00e+00	0	38	0	461373440	44	4145
2026-01-24 06:10:47.01	346.04	12.00	-37.0	-38.1	19.8	0.00e+00	0	38	0	468713472	44	4063
2026-01-24 06:10:48.01	345.87	12.05	-37.0	-38.1	19.8	0.00e+00	0	38	0	476053504	44	4087
2026-01-24 06:10:49.00	345.71	12.09	-36.9	-38.0	19.9	0.00e+00	0	38	0	483393536	44	4015
2026-01-24 06:10:50.00	345.54	12.14	-36.8	-37.9	20.0	0.00e+00	0	38	0	490733568	44	3993
2026-01-24 06:10:51.00	345.37	12.19	-36.7	-37.8	20.1	0.00e+00	0	38	0	498073600	44	3953
2026-01-24 06:10:52.00	345.20	12.24	-36.7	-37.8	20.1	0.00e+00	0	38	0	505413632	44	3939
2026-01-24 06:10:53.00	345.04	12.28	-36.7	-37.8	20.1	0.00e+00	0	38	0	511705088	44	3951
2026-01-24 06:10:54.00	344.87	12.33	-36.6	-37.7	20.2	0.00e+00	0	38	0	519045120	44	3904
2026-01-24 06:10:55.00	344.70	12.38	-36.5	-37.7	20.1	0.00e+00	0	38	0	526385152	43	4114
2026-01-24 06:10:56.00	344.53	12.42	-36.4	-37.5	20.2	0.00e+00	0	38	0	533725184	43	4047
2026-01-24 06:10:57.01	344.36	12.47	-36.5	-37.6	20.1	0.00e+00	0	38	0	541065216	43	4095
2026-01-24 06:10:58.01	344.19	12.52	-36.6	-37.7	20.0	0.00e+00	0	38	0	548405248	43	4129
2026-01-24 06:10:59.01	344.02	12.56	-36.7	-37.8	20.0	0.00e+00	0	38	0	555745280	43	4174
2026-01-24 06:11:00.01	343.84	12.61	-36.7	-37.8	20.0	0.00e+00	0	38	0	563085312	43	4169
2026-01-24 06:11:01.02	343.67	12.65	-36.6	-37.7	20.0	0.00e+00	0	38	0	570425344	43	4119
2026-01-24 06:11:02.01	343.50	12.70	-36.6	-37.7	20.1	0.00e+00	0	38	0	576716800	43	4117
2026-01-24 06:11:03.02	343.32	12.74	-36.6	-37.7	20.0	0.00e+00	0	38	0	584056832	43	4139
2026-01-24 06:11:04.02	343.15	12.79	-36.6	-37.7	20.0	0.00e+00	0	38	0	591396864	43	4145
2026-01-24 06:11:05.02	342.97	12.84	-36.6	-37.7	20.0	0.00e+00	0	38	0	598736896	43	4143
2026-01-24 06:11:06.02	342.80	12.88	-36.6	-37.7	20.1	0.00e+00	0	38	0	606076928	43	4128
2026-01-24 06:11:07.03	342.62	12.92	-36.6	-37.7	20.1	0.00e+00	0	38	0	613416960	43	4121
2026-01-24 06:11:08.03	342.45	12.97	-36.5	-37.6	20.1	0.00e+00	0	38	0	620756992	43	4087
2026-01-24 06:11:09.03	342.27	13.01	-36.5	-37.7	20.1	0.00e+00	0	38	0	628097024	43	4101
2026-01-24 06:11:10.04	342.09	13.06	-36.6	-37.7	20.1	0.00e+00	0	38	0	635437056	43	4118
2026-01-24 06:11:11.04	341.91	13.10	-36.5	-37.6	20.1	0.00e+00	0	38	0	641728512	43	4083
2026-01-24 06:11:12.04	341.73	13.15	-36.5	-37.6	20.2	0.00e+00	0	38	0	649068544	43	4060
2026-01-24 06:11:13.04	341.55	13.19	-36.4	-37.5	20.2	0.00e+00	0	38	0	656408576	43	4030
2026-01-24 06:11:14.04	341.37	13.23	-36.5	-37.6	20.1	0.00e+00	0	38	0	663748608	43	4080
2026-01-24 06:11:15.04	341.19	13.28	-36.3	-37.5	20.3	0.00e+00	0	38	0	671088640	43	4006
2026-01-24 06:11:16.05	341.01	13.32	-36.2	-37.3	20.5	0.00e+00	0	38	0	678428672	43	3928
2026-01-24 06:11:17.04	340.83	13.36	-36.2	-37.3	20.4	0.00e+00	0	38	0	685768704	43	3943
2026-01-24 06:11:18.04	340.65	13.40	-36.3	-37.3	20.4	0.00e+00	0	38	0	693108736	43	3957
2026-01-24 06:11:19.04	340.47	13.45	-36.3	-37.3	20.4	0.00e+00	0	38	0	699400192	43	3954
2026-01-24 06:11:20.05	340.28	13.49	-36.3	-37.3	20.5	0.00e+00	0	38	0	706740224	43	3931
2026-01-24 06:11:21.05	340.10	13.53	-36.2	-37.2	20.6	0.00e+00	0	38	0	715128832	43	3875
2026-01-24 06:11:22.05	339.92	13.57	-36.2	-37.2	20.5	0.00e+00	0	38	0	721420288	43	3885
2026-01-24 06:11:23.05	339.73	13.61	-36.1	-37.2	20.6	0.00e+00	0	38	0	728760320	43	3869
2026-01-24 06:11:24.05	339.55	13.65	-36.2	-37.2	20.5	0.00e+00	0	38	0	736100352	43	3912
2026-01-24 06:11:25.05	339.36	13.69	-36.2	-37.3	20.5	0.00e+00	0	38	0	743440384	43	3923
2026-01-24 06:11:26.05	339.18	13.74	-36.2	-37.4	20.4	0.00e+00	0	38	0	750780416	43	3965
2026-01-24 06:11:27.05	338.99	13.78	-36.2	-37.4	20.3	0.00e+00	0	38	0	758120448	43	3975
2026-01-24 06:11:28.05	338.80	13.82	-36.3	-37.4	20.3	0.00e+00	0	38	0	764411904	43	3995
2026-01-24 06:11:29.06	338.61	13.86	-36.3	-37.3	20.4	0.00e+00	0	38	0	772800512	43	3950
2026-01-24 06:11:30.06	338.43	13.90	-36.2	-37.3	20.4	0.00e+00	0	38	0	780140544	43	3941
2026-01-24 06:11:31.06	338.24	13.94	-36.2	-37.3	20.5	0.00e+00	0	38	0	786432000	43	3939
2026-01-24 06:11:32.06	338.05	13.98	-36.1	-37.2	20.6	0.00e+00	0	38	0	793772032	43	3876
2026-01-24 06:11:33.07	337.86	14.01	-36.1	-37.2	20.5	0.00e+00	0	38	0	801112064	43	3887
2026-01-24 06:11:34.07	337.67	14.05	-36.1	-37.1	20.6	0.00e+00	0	38	0	808452096	42	4094
2026-01-24 06:11:35.07	337.48	14.09	-36.1	-37.2	20.6	0.00e+00	0	38	0	815792128	42	4108
2026-01-24 06:11:36.07	337.29	14.13	-36.2	-37.2	20.5	0.00e+00	0	38	0	823132160	42	4145
2026-01-24 06:11:37.07	337.09	14.17	-36.3	-37.3	20.5	0.00e+00	0	38	0	830472192	42	4176
2026-01-24 06:11:38.08	336.90	14.21	-36.2	-37.3	20.5	0.00e+00	0	38	0	837812224	42	4146
2026-01-24 06:11:39.08	336.71	14.24	-36.2	-37.2	20.6	0.00e+00	0	38	0	845152256	42	4112
2026-01-24 06:11:40.07	336.52	14.28	-36.3	-37.3	20.5	0.00e+00	0	38	0	851443712	42	4150
2026-01-24 06:11:41.08	336.32	14.32	-36.2	-37.2	20.6	0.00e+00	0	38	0	858783744	42	4105
2026-01-24 06:11:42.08	336.13	14.35	-36.2	-37.2	20.6	0.00e+00	0	38	0	866123776	42	4121
2026-01-24 06:11:43.08	335.93	14.39	-36.2	-37.2	20.6	0.00e+00	0	38	0	873463808	42	4118
2026-01-24 06:11:44.08	335.74	14.43	-36.2	-37.2	20.6	0.00e+00	0	38	0	880803840	42	4136
2026-01-24 06:11:45.08	335.54	14.46	-36.2	-37.2	20.6	0.00e+00	0	38	0	888143872	42	4101
2026-01-24 06:11:46.08	335.35	14.50	-36.2	-37.2	20.6	0.00e+00	0	38	0	895483904	42	4107
2026-01-24 06:11:47.08	335.15	14.53	-36.1	-37.1	20.6	0.00e+00	0	38	0	902823936	42	4097
2026-01-24 06:11:48.09	334.95	14.57	-35.9	-36.9	20.8	0.00e+00	0	38	0	909115392	42	3997
2026-01-24 06:11:49.08	334.76	14.60	-36.0	-37.0	20.8	0.00e+00	0	38	0	916455424	42	4027
2026-01-24 06:11:50.09	334.56	14.64	-35.9	-36.9	20.8	0.00e+00	0	38	0	923795456	42	3990
2026-01-24 06:11:51.09	334.36	14.67	-35.9	-36.9	20.9	0.00e+00	0	38	0	931135488	42	3990
2026-01-24 06:11:52.09	334.16	14.71	-36.0	-37.0	20.8	0.00e+00	0	38	0	938475520	42	4013
2026-01-24 06:11:53.09	333.96	14.74	-35.9	-36.9	20.9	0.00e+00	0	38	0	945815552	42	3973
2026-01-24 06:11:54.09	333.76	14.77	-35.9	-36.9	20.9	0.00e+00	0	38	0	953155584	42	3980
2026-01-24 06:11:55.09	333.56	14.81	-36.0	-37.0	20.8	0.00e+00	0	38	0	960495616	42	4028
2026-01-24 06:11:56.09	333.36	14.84	-36.1	-37.1	20.7	0.00e+00	0	38	0	967835648	42	4055
2026-01-24 06:11:57.10	333.16	14.87	-36.1	-37.0	20.7	0.00e+00	0	38	0	974127104	42	4039
2026-01-24 06:11:58.10	332.96	14.90	-36.1	-37.1	20.7	0.00e+00	0	38	0	981467136	42	4052
2026-01-24 06:11:59.10	332.75	14.93	-36.1	-37.1	20.7	0.00e+00	0	38	0	989855744	42	4059
2026-01-24 06:12:00.11	332.55	14.97	-36.0	-37.0	20.8	0.00e+00	0	38	0	996147200	42	4009
2026-01-24 06:12:01.11	332.35	15.00	-35.9	-36.9	20.8	0.00e+00	0	38	0	1003487232	42	3993
2026-01-24 06:12:02.10	332.15	15.03	-36.0	-37.0	20.8	0.00e+00	0	38	0	1010827264	42	4012
2026-01-24 06:12:03.11	331.94	15.06	-35.9	-36.9	20.8	0.00e+00	0	38	0	1018167296	42	3982
2026-01-24 06:12:04.11	331.74	15.09	-36.0	-37.0	20.8	0.00e+00	0	38	0	1025507328	42	4016
2026-01-24 06:12:05.11	331.53	15.12	-36.0	-37.0	20.8	0.00e+00	0	38	0	1032847360	42	4035
2026-01-24 06:12:06.11	331.33	15.15	-35.9	-36.8	20.9	0.00e+00	0	38	0	1040187392	42	3944
2026-01-24 06:12:07.11	331.12	15.18	-35.9	-36.8	20.9	0.00e+00	0	38	0	1047527424	42	3956
2026-01-24 06:12:08.11	330.92	15.20	-36.0	-36.9	20.8	0.00e+00	0	38	0	1053818880	42	4001
2026-01-24 06:12:09.11	330.71	15.23	-35.9	-36.8	20.9	0.00e+00	0	38	0	1061158912	42	3946
2026-01-24 06:12:10.11	330.50	15.26	-35.9	-36.8	20.9	0.00e+00	0	38	0	1068498944	42	3948
2026-01-24 06:12:11.12	330.29	15.29	-35.9	-36.9	20.9	0.00e+00	0	38	0	1075838976	42	3962
2026-01-24 06:12:12.12	330.09	15.32	-35.9	-36.8	20.9	0.00e+00	0	38	0	1083179008	42	3949
2026-01-24 06:12:13.12	329.88	15.34	-35.9	-36.9	20.9	0.00e+00	0	38	0	1090519040	42	3966
2026-01-24 06:12:14.12	329.67	15.37	-35.9	-36.9	20.9	0.00e+00	0	38	0	1097859072	42	3962
2026-01-24 06:12:15.12	329.46	15.40	-36.0	-36.9	20.9	0.00e+00	0	38	0	1105199104	42	3988
2026-01-24 06:12:16.13	329.25	15.42	-36.0	-36.9	20.9	0.00e+00	0	38	0	1112539136	42	3982
2026-01-24 06:12:17.12	329.04	15.45	-35.8	-36.7	21.0	0.00e+00	0	38	0	1118830592	42	3899
2026-01-24 06:12:18.13	328.83	15.47	-35.7	-36.7	21.1	0.00e+00	0	38	0	1126170624	42	3883
2026-01-24 06:12:19.13	328.62	15.50	-35.6	-36.6	21.2	0.00e+00	0	38	0	1133510656	42	3829
2026-01-24 06:12:20.13	328.41	15.52	-35.5	-36.5	21.3	0.00e+00	0	38	0	1140850688	41	4016
2026-01-24 06:12:21.13	328.20	15.55	-35.4	-36.3	21.4	0.00e+00	0	38	0	1148190720	41	3958
2026-01-24 06:12:22.13	327.99	15.57	-35.3	-36.3	21.4	0.00e+00	0	38	0	1155530752	41	3927
2026-01-24 06:12:23.14	327.78	15.59	-35.4	-36.3	21.4	0.00e+00	0	38	0	1162870784	41	3935
2026-01-24 06:12:24.14	327.57	15.62	-35.3	-36.3	21.4	0.00e+00	0	38	0	1170210816	41	3926
2026-01-24 06:12:25.14	327.35	15.64	-35.4	-36.3	21.4	0.00e+00	0	38	0	1177550848	41	3958
2026-01-24 06:12:26.14	327.14	15.66	-35.5	-36.5	21.3	0.00e+00	0	38	0	1183842304	41	4014
2026-01-24 06:12:27.15	326.93	15.68	-35.5	-36.5	21.3	0.00e+00	0	38	0	1191182336	41	4007
2026-01-24 06:12:28.15	326.71	15.71	-35.6	-36.5	21.2	0.00e+00	0	38	0	1198522368	41	4042
2026-01-24 06:12:29.15	326.50	15.73	-35.6	-36.5	21.2	0.00e+00	0	38	0	1205862400	41	4034
2026-01-24 06:12:30.15	326.29	15.75	-35.6	-36.6	21.1	0.00e+00	0	38	0	1213202432	41	4076
2026-01-24 06:12:31.15	326.07	15.77	-35.6	-36.6	21.2	0.00e+00	0	38	0	1220542464	41	4062
2026-01-24 06:12:32.15	325.86	15.79	-35.7	-36.7	21.0	0.00e+00	0	38	0	1227882496	41	4125
2026-01-24 06:12:33.15	325.65	15.81	-35.5	-36.6	21.2	0.00e+00	0	38	0	1235222528	41	4053
2026-01-24 06:12:34.15	325.43	15.83	-35.4	-36.5	21.3	0.00e+00	0	38	0	1242562560	41	4008
2026-01-24 06:12:35.15	325.22	15.85	-35.4	-36.5	21.3	0.00e+00	0	38	0	1249902592	41	4009
2026-01-24 06:12:36.16	325.00	15.86	-35.5	-36.5	21.3	0.00e+00	0	38	0	1257242624	41	4006
2026-01-24 06:12:37.16	324.78	15.88	-35.5	-36.4	21.3	0.00e+00	0	38	0	1263534080	41	3995
2026-01-24 06:12:38.15	324.57	15.90	-35.5	-36.4	21.3	0.00e+00	0	38	0	1270874112	41	3986
2026-01-24 06:12:39.16	324.35	15.92	-35.4	-36.3	21.4	0.00e+00	0	38	0	1278214144	41	3941
2026-01-24 06:12:40.15	324.14	15.93	-35.2	-36.1	21.6	0.00e+00	0	38	0	1285554176	41	3840
2026-01-24 06:12:41.15	323.92	15.95	-35.1	-35.9	21.7	0.00e+00	0	38	0	1292894208	40	4001
2026-01-24 06:12:42.15	323.70	15.97	-35.1	-36.0	21.7	0.00e+00	0	38	0	1300234240	40	4021
2026-01-24 06:12:43.15	323.49	15.98	-35.2	-36.1	21.6	0.00e+00	0	38	0	1307574272	40	4060
2026-01-24 06:12:44.15	323.27	16.00	-35.1	-36.0	21.7	0.00e+00	0	38	0	1314914304	40	4008
2026-01-24 06:12:45.15	323.05	16.01	-35.2	-36.1	21.6	0.00e+00	0	38	0	1322254336	40	4056
2026-01-24 06:12:46.16	322.83	16.03	-35.1	-36.0	21.7	0.00e+00	0	38	0	1328545792	40	4009
2026-01-24 06:12:47.16	322.61	16.04	-35.2	-36.1	21.6	0.00e+00	0	38	0	1335885824	40	4057
2026-01-24 06:12:48.16	322.40	16.05	-35.3	-36.2	21.5	0.00e+00	0	38	0	1343225856	40	4123
2026-01-24 06:12:49.16	322.18	16.07	-35.3	-36.3	21.5	0.00e+00	0	38	0	1350565888	40	4151
2026-01-24 06:12:50.15	321.96	16.08	-35.4	-36.3	21.4	0.00e+00	0	38	0	1357905920	40	4188
2026-01-24 06:12:51.16	321.74	16.09	-35.4	-36.4	21.4	0.00e+00	0	38	0	1365245952	40	4215
2026-01-24 06:12:52.16	321.52	16.10	-35.4	-36.4	21.3	0.00e+00	0	38	0	1372585984	40	4211
2026-01-24 06:12:53.16	321.30	16.12	-35.5	-36.4	21.3	0.00e+00	0	38	0	1379926016	40	4213
2026-01-24 06:12:54.16	321.08	16.13	-35.5	-36.4	21.3	0.00e+00	0	38	0	1387266048	40	4238
2026-01-24 06:12:55.16	320.86	16.14	-35.3	-36.3	21.4	0.00e+00	0	38	0	1393557504	40	4156
2026-01-24 06:12:56.15	320.65	16.15	-35.4	-36.4	21.3	0.00e+00	0	38	0	1400897536	40	4210
2026-01-24 06:12:57.16	320.42	16.16	-35.3	-36.2	21.5	0.00e+00	0	38	0	1408237568	40	4143
2026-01-24 06:12:58.16	320.20	16.17	-35.1	-36.0	21.7	0.00e+00	0	38	0	1415577600	40	4033
2026-01-24 06:12:59.16	319.98	16.18	-35.1	-36.0	21.7	0.00e+00	0	38	0	1422917632	40	4010
2026-01-24 06:13:00.16	319.76	16.18	-35.1	-36.0	21.7	0.00e+00	0	38	0	1430257664	40	4019
2026-01-24 06:13:01.16	319.54	16.19	-35.1	-36.0	21.7	0.00e+00	0	38	0	1437597696	40	4031
2026-01-24 06:13:02.15	319.33	16.20	-35.1	-36.0	21.7	0.00e+00	0	38	0	1444937728	40	4028
2026-01-24 06:13:03.16	319.10	16.21	-35.1	-36.0	21.7	0.00e+00	0	38	0	1451229184	40	4046
2026-01-24 06:13:04.15	318.89	16.21	-35.1	-36.0	21.7	0.00e+00	0	38	0	1458569216	40	4030
2026-01-24 06:13:05.16	318.66	16.22	-35.2	-36.1	21.6	0.00e+00	0	38	0	1465909248	40	4061
2026-01-24 06:13:06.16	318.44	16.23	-35.1	-36.0	21.7	0.00e+00	0	38	0	1473249280	40	4013
2026-01-24 06:13:07.16	318.22	16.23	-35.2	-36.1	21.6	0.00e+00	0	38	0	1480589312	40	4088
2026-01-24 06:13:08.16	318.00	16.24	-35.1	-36.0	21.7	0.00e+00	0	38	0	1487929344	40	4024
2026-01-24 06:13:09.16	317.78	16.24	-35.0	-35.9	21.8	0.00e+00	0	38	0	1495269376	40	3967
2026-01-24 06:13:10.16	317.56	16.25	-34.9	-35.9	21.8	0.00e+00	0	38	0	1502609408	40	3961
2026-01-24 06:13:11.16	317.34	16.25	-34.9	-35.8	21.9	0.00e+00	0	38	0	1509949440	40	3950
2026-01-24 06:13:12.16	317.11	16.25	-35.0	-35.9	21.8	0.00e+00	0	38	0	1516240896	40	3980
2026-01-24 06:13:13.17	316.89	16.26	-35.1	-36.0	21.7	0.00e+00	0	38	0	1523580928	40	4029
2026-01-24 06:13:14.17	316.67	16.26	-35.1	-36.0	21.7	0.00e+00	0	38	0	1530920960	40	4029
2026-01-24 06:13:15.17	316.45	16.26	-35.2	-36.2	21.6	0.00e+00	0	38	0	1538260992	40	4104
2026-01-24 06:13:16.17	316.23	16.26	-35.3	-36.2	21.5	0.00e+00	0	38	0	1545601024	40	4119
2026-01-24 06:13:17.18	316.00	16.26	-35.4	-36.3	21.4	0.00e+00	0	38	0	1552941056	40	4176
2026-01-24 06:13:18.18	315.78	16.27	-35.4	-36.3	21.4	0.00e+00	0	38	0	1560281088	40	4181
2026-01-24 06:13:19.18	315.56	16.27	-35.5	-36.4	21.3	0.00e+00	0	38	0	1567621120	40	4217
2026-01-24 06:13:20.18	315.34	16.27	-35.6	-36.5	21.2	0.00e+00	0	38	0	1574961152	40	4290
2026-01-24 06:13:21.18	315.12	16.26	-35.5	-36.4	21.3	0.00e+00	0	38	0	1581252608	40	4219
2026-01-24 06:13:22.18	314.90	16.26	-35.4	-36.4	21.4	0.00e+00	0	38	0	1588592640	40	4206
2026-01-24 06:13:23.19	314.67	16.26	-35.5	-36.5	21.3	0.00e+00	0	38	0	1595932672	40	4255
2026-01-24 06:13:24.19	314.45	16.26	-35.6	-36.5	21.2	0.00e+00	0	38	0	1603272704	40	4270
2026-01-24 06:13:25.19	314.23	16.26	-35.6	-36.6	21.2	0.00e+00	0	38	0	1610612736	40	4302
2026-01-24 06:13:26.19	314.01	16.26	-35.7	-36.6	21.1	0.00e+00	0	38	0	1617952768	40	4326
2026-01-24 06:13:27.19	313.79	16.25	-35.7	-36.6	21.2	0.00e+00	0	38	0	1625292800	41	4071
2026-01-24 06:13:28.19	313.57	16.25	-35.6	-36.6	21.2	0.00e+00	0	38	0	1632632832	41	4055
2026-01-24 06:13:29.19	313.34	16.25	-35.6	-36.5	21.2	0.00e+00	0	38	0	1638924288	41	4046
2026-01-24 06:13:30.20	313.12	16.24	-35.6	-36.5	21.2	0.00e+00	0	38	0	1646264320	41	4047
2026-01-24 06:13:31.20	312.90	16.24	-35.6	-36.5	21.2	0.00e+00	0	38	0	1653604352	41	4028
2026-01-24 06:13:32.20	312.68	16.23	-35.4	-36.3	21.4	0.00e+00	0	38	0	1660944384	41	3946
2026-01-24 06:13:33.20	312.46	16.23	-35.4	-36.3	21.4	0.00e+00	0	38	0	1668284416	41	3943
2026-01-24 06:13:34.20	312.24	16.22	-35.4	-36.3	21.4	0.00e+00	0	38	0	1675624448	41	3931
2026-01-24 06:13:35.20	312.02	16.21	-35.4	-36.4	21.4	0.00e+00	0	38	0	1682964480	41	3959
2026-01-24 06:13:36.21	311.79	16.21	-35.3	-36.2	21.5	0.00e+00	0	38	0	1690304512	41	3892
2026-01-24 06:13:37.20	311.57	16.20	-35.2	-36.1	21.6	0.00e+00	0	38	0	1697644544	41	3852
2026-01-24 06:13:38.20	311.35	16.19	-35.2	-36.1	21.6	0.00e+00	0	38	0	1704984576	41	3837
2026-01-24 06:13:39.21	311.13	16.18	-35.2	-36.1	21.7	0.00e+00	0	38	0	1712324608	41	3827
2026-01-24 06:13:40.21	310.91	16.17	-35.3	-36.2	21.5	0.00e+00	0	38	0	1719664640	41	3875
2026-01-24 06:13:41.21	310.69	16.16	-35.3	-36.2	21.5	0.00e+00	0	38	0	1725956096	41	3890
2026-01-24 06:13:42.21	310.47	16.15	-35.3	-36.2	21.5	0.00e+00	0	38	0	1733296128	41	3872
2026-01-24 06:13:43.22	310.25	16.14	-35.3	-36.2	21.5	0.00e+00	0	38	0	1740636160	41	3902
2026-01-24 06:13:44.22	310.03	16.13	-35.3	-36.2	21.5	0.00e+00	0	38	0	1747976192	41	3900
2026-01-24 06:13:45.22	309.81	16.12	-35.3	-36.2	21.5	0.00e+00	0	38	0	1755316224	41	3895
2026-01-24 06:13:46.22	309.59	16.11	-35.3	-36.2	21.5	0.00e+00	0	38	0	1762656256	41	3887
2026-01-24 06:13:47.22	309.37	16.10	-35.1	-36.1	21.6	0.00e+00	0	38	0	1769996288	41	3825
2026-01-24 06:13:48.22	309.15	16.09	-35.2	-36.1	21.6	0.00e+00	0	38	0	1777336320	41	3835
2026-01-24 06:13:49.22	308.93	16.08	-35.1	-36.0	21.7	0.00e+00	0	38	0	1783627776	40	4023
2026-01-24 06:13:50.22	308.71	16.06	-35.1	-36.0	21.7	0.00e+00	0	38	0	1790967808	40	4045
2026-01-24 06:13:51.23	308.49	16.05	-35.1	-36.0	21.7	0.00e+00	0	38	0	1798307840	40	4042
2026-01-24 06:13:52.23	308.28	16.04	-35.2	-36.1	21.6	0.00e+00	0	38	0	1805647872	40	4090
2026-01-24 06:13:53.23	308.06	16.02	-35.4	-36.2	21.5	0.00e+00	0	38	0	1812987904	40	4138
2026-01-24 06:13:54.23	307.84	16.01	-35.3	-36.2	21.5	0.00e+00	0	38	0	1820327936	40	4134
2026-01-24 06:13:55.23	307.62	15.99	-35.3	-36.2	21.6	0.00e+00	0	38	0	1827667968	40	4106
2026-01-24 06:13:56.24	307.40	15.98	-35.4	-36.3	21.4	0.00e+00	0	38	0	1835008000	40	4175
2026-01-24 06:13:57.24	307.19	15.96	-35.5	-36.4	21.4	0.00e+00	0	38	0	1842348032	40	4208
2026-01-24 06:13:58.24	306.97	15.94	-35.5	-36.4	21.3	0.00e+00	0	38	0	1848639488	40	4240
2026-01-24 06:13:59.24	306.75	15.93	-35.6	-36.5	21.3	0.00e+00	0	38	0	1855979520	40	4268
2026-01-24 06:14:00.25	306.53	15.91	-35.6	-36.5	21.2	0.00e+00	0	38	0	1863319552	40	4276
2026-01-24 06:14:01.25	306.32	15.89	-35.6	-36.5	21.3	0.00e+00	0	38	0	1870659584	40	4252
2026-01-24 06:14:02.25	306.10	15.88	-35.6	-36.5	21.2	0.00e+00	0	38	0	1877999616	40	4270
2026-01-24 06:14:03.25	305.88	15.86	-35.6	-36.5	21.3	0.00e+00	0	38	0	1885339648	40	4249
2026-01-24 06:14:04.25	305.67	15.84	-35.6	-36.5	21.2	0.00e+00	0	38	0	1892679680	40	4291
2026-01-24 06:14:05.25	305.45	15.82	-35.6	-36.5	21.2	0.00e+00	0	38	0	1900019712	40	4252
2026-01-24 06:14:06.26	305.24	15.80	-35.6	-36.6	21.2	0.00e+00	0	38	0	1907359744	40	4302
2026-01-24 06:14:07.25	305.02	15.78	-35.6	-36.5	21.2	0.00e+00	0	38	0	1914699776	40	4267
2026-01-24 06:14:08.26	304.81	15.76	-35.5	-36.4	21.3	0.00e+00	0	38	0	1922039808	40	4219
2026-01-24 06:14:09.26	304.59	15.74	-35.6	-36.6	21.2	0.00e+00	0	38	0	1929379840	40	4296
2026-01-24 06:14:10.26	304.38	15.72	-35.7	-36.7	21.1	0.00e+00	0	38	0	1935671296	40	4344
2026-01-24 06:14:11.26	304.17	15.70	-35.7	-36.7	21.1	0.00e+00	0	38	0	1943011328	40	4354
2026-01-24 06:14:12.26	303.95	15.68	-35.7	-36.6	21.1	0.00e+00	0	38	0	1950351360	41	4087
2026-01-24 06:14:13.26	303.74	15.65	-35.7	-36.6	21.1	0.00e+00	0	38	0	1957691392	41	4071
2026-01-24 06:14:14.26	303.53	15.63	-35.7	-36.6	21.1	0.00e+00	0	38	0	1965031424	41	4064
2026-01-24 06:14:15.26	303.32	15.61	-35.7	-36.6	21.1	0.00e+00	0	38	0	1972371456	41	4096
2026-01-24 06:14:16.26	303.10	15.59	-35.7	-36.6	21.1	0.00e+00	0	38	0	1979711488	41	4070
2026-01-24 06:14:17.26	302.89	15.56	-35.7	-36.6	21.2	0.00e+00	0	38	0	1987051520	41	4065
2026-01-24 06:14:18.26	302.68	15.54	-35.7	-36.6	21.1	0.00e+00	0	38	0	1993342976	41	4093
2026-01-24 06:14:19.27	302.47	15.51	-35.7	-36.7	21.1	0.00e+00	0	38	0	2000683008	41	4102
2026-01-24 06:14:20.27	302.26	15.49	-35.8	-36.7	21.0	0.00e+00	0	38	0	2008023040	41	4117
2026-01-24 06:14:21.27	302.05	15.46	-35.8	-36.7	21.0	0.00e+00	0	38	0	2015363072	41	4129
2026-01-24 06:14:22.27	301.84	15.44	-35.8	-36.7	21.0	0.00e+00	0	38	0	2022703104	41	4123
2026-01-24 06:14:23.27	301.63	15.41	-35.8	-36.7	21.1	0.00e+00	0	38	0	2030043136	41	4123
2026-01-24 06:14:24.28	301.42	15.39	-35.8	-36.7	21.1	0.00e+00	0	38	0	2037383168	41	4109
2026-01-24 06:14:25.28	301.21	15.36	-35.7	-36.6	21.1	0.00e+00	0	38	0	2044723200	41	4089
2026-01-24 06:14:26.28	301.00	15.33	-35.8	-36.7	21.1	0.00e+00	0	38	0	2052063232	41	4105
2026-01-24 06:14:27.28	300.79	15.31	-35.9	-36.8	20.9	0.00e+00	0	38	0	2058354688	41	4166
2026-01-24 06:14:28.28	300.58	15.28	-35.9	-36.8	20.9	0.00e+00	0	38	0	2065694720	41	4177
2026-01-24 06:14:29.28	300.38	15.25	-35.8	-36.8	21.0	0.00e+00	0	38	0	2073034752	41	4147
2026-01-24 06:14:30.28	300.17	15.22	-35.8	-36.8	21.0	0.00e+00	0	38	0	2080374784	41	4147
2026-01-24 06:14:31.28	299.96	15.19	-35.8	-36.7	21.0	0.00e+00	0	38	0	2087714816	41	4128
2026-01-24 06:14:32.28	299.76	15.16	-35.8	-36.7	21.0	0.00e+00	0	38	0	2095054848	41	4128
2026-01-24 06:14:33.29	299.55	15.13	-35.8	-36.7	21.1	0.00e+00	0	38	0	2102394880	41	4103
2026-01-24 06:14:34.29	299.34	15.11	-35.6	-36.5	21.2	0.00e+00	0	38	0	2109734912	41	4039
2026-01-24 06:14:35.29	299.14	15.08	-35.7	-36.6	21.2	0.00e+00	0	38	0	2116026368	41	4083
2026-01-24 06:14:36.29	298.93	15.05	-35.8	-36.7	21.1	0.00e+00	0	38	0	2123366400	41	4104
2026-01-24 06:14:37.29	298.73	15.01	-35.8	-36.7	21.0	0.00e+00	0	38	0	2130706432	41	4126
2026-01-24 06:14:38.29	298.53	14.98	-35.9	-36.8	20.9	0.00e+00	0	38	0	2138046464	41	4169
2026-01-24 06:14:39.29	298.32	14.95	-35.9	-36.8	20.9	0.00e+00	0	38	0	2145386496	41	4172
2026-01-24 06:14:40.29	298.12	14.92	-36.0	-37.0	20.8	0.00e+00	0	38	0	2152726528	41	4256
2026-01-24 06:14:41.29	297.92	14.89	-36.1	-37.0	20.7	0.00e+00	0	38	0	2160066560	41	4285
2026-01-24 06:14:42.30	297.71	14.86	-36.2	-37.1	20.6	0.00e+00	0	38	0	2167406592	41	4322
2026-01-24 06:14:43.30	297.51	14.82	-36.3	-37.2	20.6	0.00e+00	0	38	0	2174746624	41	4371
2026-01-24 06:14:44.30	297.31	14.79	-36.2	-37.1	20.6	0.00e+00	0	38	0	2181038080	42	4095
2026-01-24 06:14:45.30	297.11	14.76	-36.0	-36.9	20.8	0.00e+00	0	38	0	2188378112	42	3992
2026-01-24 06:14:46.29	296.91	14.73	-36.0	-36.9	20.9	0.00e+00	0	38	0	2195718144	42	3974
2026-01-24 06:14:47.30	296.71	14.69	-36.1	-37.0	20.8	0.00e+00	0	38	0	2203058176	42	4035
2026-01-24 06:14:48.30	296.51	14.66	-36.0	-36.9	20.9	0.00e+00	0	38	0	2210398208	42	3993
2026-01-24 06:14:49.30	296.31	14.62	-36.0	-37.0	20.8	0.00e+00	0	38	0	2217738240	42	4013
2026-01-24 06:14:50.30	296.12	14.59	-36.0	-36.9	20.9	0.00e+00	0	38	0	2225078272	42	3996
2026-01-24 06:14:51.30	295.92	14.55	-36.1	-37.0	20.8	0.00e+00	0	38	0	2232418304	42	4022
2026-01-24 06:14:52.30	295.72	14.52	-36.1	-37.0	20.7	0.00e+00	0	38	0	2239758336	42	4044
2026-01-24 06:14:53.30	295.52	14.48	-36.1	-37.0	20.7	0.00e+00	0	38	0	2246049792	42	4042
2026-01-24 06:14:54.30	295.33	14.45	-36.1	-37.0	20.7	0.00e+00	0	38	0	2254438400	42	4050
2026-01-24 06:14:55.30	295.13	14.41	-36.2	-37.2	20.6	0.00e+00	0	38	0	2260729856	42	4100
2026-01-24 06:14:56.30	294.94	14.37	-36.2	-37.1	20.7	0.00e+00	0	38	0	2268069888	42	4067
2026-01-24 06:14:57.30	294.74	14.34	-36.2	-37.2	20.6	0.00e+00	0	38	0	2275409920	42	4106
2026-01-24 06:14:58.31	294.54	14.30	-36.3	-37.2	20.6	0.00e+00	0	38	0	2282749952	42	4133
2026-01-24 06:14:59.31	294.35	14.26	-36.2	-37.2	20.6	0.00e+00	0	38	0	2290089984	42	4110
2026-01-24 06:15:00.32	294.16	14.23	-36.1	-37.1	20.7	0.00e+00	0	38	0	2297430016	42	4061
2026-01-24 06:15:01.32	293.96	14.19	-36.1	-37.0	20.8	0.00e+00	0	38	0	2304770048	42	4041
2026-01-24 06:15:02.32	293.77	14.15	-36.0	-36.9	20.8	0.00e+00	0	38	0	2312110080	42	3998
2026-01-24 06:15:03.32	293.58	14.11	-36.1	-37.0	20.8	0.00e+00	0	38	0	2319450112	42	4019
2026-01-24 06:15:04.32	293.39	14.07	-36.0	-37.0	20.8	0.00e+00	0	38	0	2325741568	42	4008
2026-01-24 06:15:05.32	293.20	14.04	-35.9	-36.9	20.9	0.00e+00	0	38	0	2333081600	42	3960
2026-01-24 06:15:06.32	293.00	14.00	-36.0	-36.9	20.9	0.00e+00	0	38	0	2340421632	42	3978
2026-01-24 06:15:07.32	292.81	13.96	-36.1	-37.0	20.8	0.00e+00	0	38	0	2347761664	42	4022
2026-01-24 06:15:08.33	292.62	13.92	-36.2	-37.1	20.7	0.00e+00	0	38	0	2355101696	42	4072
2026-01-24 06:15:09.33	292.43	13.88	-36.2	-37.1	20.7	0.00e+00	0	38	0	2362441728	42	4077
2026-01-24 06:15:10.33	292.25	13.84	-36.2	-37.2	20.6	0.00e+00	0	38	0	2369781760	42	4110
2026-01-24 06:15:11.33	292.06	13.80	-36.4	-37.3	20.5	0.00e+00	0	38	0	2377121792	42	4178
2026-01-24 06:15:12.33	291.87	13.76	-36.4	-37.3	20.5	0.00e+00	0	38	0	2384461824	42	4176
2026-01-24 06:15:13.33	291.68	13.72	-36.5	-37.4	20.4	0.00e+00	0	38	0	2390753280	42	4228
2026-01-24 06:15:14.34	291.50	13.68	-36.4	-37.4	20.4	0.00e+00	0	38	0	2398093312	42	4213
2026-01-24 06:15:15.34	291.31	13.63	-36.3	-37.3	20.5	0.00e+00	0	38	0	2405433344	42	4147
2026-01-24 06:15:16.34	291.12	13.59	-36.3	-37.3	20.6	0.00e+00	0	38	0	2412773376	42	4152
2026-01-24 06:15:17.34	290.94	13.55	-36.3	-37.3	20.5	0.00e+00	0	38	0	2420113408	42	4151
2026-01-24 06:15:18.34	290.75	13.51	-36.4	-37.4	20.5	0.00e+00	0	38	0	2427453440	42	4196
2026-01-24 06:15:19.34	290.57	13.47	-36.4	-37.3	20.5	0.00e+00	0	38	0	2434793472	42	4166
2026-01-24 06:15:20.34	290.39	13.43	-36.4	-37.3	20.5	0.00e+00	0	38	0	2442133504	42	4191
2026-01-24 06:15:21.34	290.20	13.38	-36.5	-37.4	20.3	0.00e+00	0	38	0	2449473536	42	4238
2026-01-24 06:15:22.33	290.02	13.34	-36.5	-37.4	20.3	0.00e+00	0	38	0	2455764992	42	4232
2026-01-24 06:15:23.33	289.84	13.30	-36.4	-37.4	20.4	0.00e+00	0	38	0	2463105024	42	4222
2026-01-24 06:15:24.33	289.66	13.25	-36.5	-37.5	20.3	0.00e+00	0	38	0	2470445056	42	4269
2026-01-24 06:15:25.33	289.48	13.21	-36.5	-37.5	20.2	0.00e+00	0	38	0	2477785088	42	4268
2026-01-24 06:15:26.33	289.30	13.17	-36.5	-37.5	20.3	0.00e+00	0	38	0	2485125120	42	4267
2026-01-24 06:15:27.34	289.12	13.12	-36.5	-37.5	20.3	0.00e+00	0	38	0	2492465152	42	4267
2026-01-24 06:15:28.34	288.94	13.08	-36.5	-37.5	20.3	0.00e+00	0	38	0	2499805184	42	4273
2026-01-24 06:15:29.34	288.76	13.04	-36.6	-37.6	20.3	0.00e+00	0	38	0	2507145216	42	4300
2026-01-24 06:15:30.34	288.58	12.99	-36.6	-37.6	20.3	0.00e+00	0	38	0	2513436672	42	4311
2026-01-24 06:15:31.33	288.41	12.95	-36.6	-37.6	20.2	0.00e+00	0	38	0	2520776704	42	4323
2026-01-24 06:15:32.34	288.23	12.90	-36.6	-37.5	20.3	0.00e+00	0	38	0	2528116736	42	4291
2026-01-24 06:15:33.34	288.05	12.86	-36.6	-37.6	20.3	0.00e+00	0	38	0	2535456768	42	4300
2026-01-24 06:15:34.34	287.88	12.81	-36.6	-37.5	20.3	0.00e+00	0	38	0	2542796800	42	4274
2026-01-24 06:15:35.34	287.70	12.77	-36.6	-37.6	20.3	0.00e+00	0	38	0	2550136832	42	4307
2026-01-24 06:15:36.34	287.53	12.72	-36.6	-37.6	20.2	0.00e+00	0	38	0	2557476864	42	4313
2026-01-24 06:15:37.34	287.35	12.68	-36.7	-37.6	20.2	0.00e+00	0	38	0	2564816896	42	4334
2026-01-24 06:15:38.34	287.18	12.63	-36.6	-37.6	20.2	0.00e+00	0	38	0	2572156928	42	4313
2026-01-24 06:15:39.35	287.01	12.58	-36.7	-37.7	20.2	0.00e+00	0	38	0	2578448384	42	4361
2026-01-24 06:15:40.35	286.83	12.54	-36.7	-37.7	20.2	0.00e+00	0	38	0	2585788416	43	4105
2026-01-24 06:15:41.35	286.66	12.49	-36.8	-37.8	20.1	0.00e+00	0	38	0	2593128448	43	4148
2026-01-24 06:15:42.35	286.49	12.45	-36.6	-37.5	20.2	0.00e+00	0	38	0	2600468480	43	4050
2026-01-24 06:15:43.36	286.32	12.40	-36.6	-37.6	20.2	0.00e+00	0	38	0	2607808512	43	4065
2026-01-24 06:15:44.36	286.15	12.35	-36.5	-37.5	20.3	0.00e+00	0	38	0	2615148544	43	4019
2026-01-24 06:15:45.36	285.98	12.31	-36.5	-37.5	20.3	0.00e+00	0	38	0	2622488576	43	4030
2026-01-24 06:15:46.36	285.81	12.26	-36.5	-37.5	20.4	0.00e+00	0	38	0	2629828608	43	4013
2026-01-24 06:15:47.36	285.64	12.21	-36.4	-37.3	20.4	0.00e+00	0	38	0	2637168640	43	3956
2026-01-24 06:15:48.37	285.47	12.16	-36.4	-37.3	20.5	0.00e+00	0	38	0	2644508672	43	3936
2026-01-24 06:15:49.37	285.30	12.12	-36.4	-37.3	20.5	0.00e+00	0	38	0	2651848704	43	3953
2026-01-24 06:15:50.37	285.13	12.07	-36.3	-37.2	20.6	0.00e+00	0	38	0	2659188736	43	3910
2026-01-24 06:15:51.37	284.97	12.02	-36.4	-37.3	20.5	0.00e+00	0	38	0	2665480192	43	3953
2026-01-24 06:15:52.36	284.80	11.97	-36.4	-37.3	20.5	0.00e+00	0	38	0	2672820224	43	3939
2026-01-24 06:15:53.36	284.64	11.93	-36.5	-37.5	20.4	0.00e+00	0	38	0	2680160256	43	4006
2026-01-24 06:15:54.36	284.47	11.88	-36.5	-37.5	20.3	0.00e+00	0	38	0	2687500288	43	4023
2026-01-24 06:15:55.36	284.31	11.83	-36.6	-37.6	20.2	0.00e+00	0	38	0	2694840320	43	4078
2026-01-24 06:15:56.36	284.14	11.78	-36.7	-37.7	20.2	0.00e+00	0	38	0	2702180352	43	4117
2026-01-24 06:15:57.36	283.98	11.73	-36.8	-37.8	20.0	0.00e+00	0	38	0	2709520384	43	4158
2026-01-24 06:15:58.36	283.82	11.68	-36.8	-37.8	20.0	0.00e+00	0	38	0	2716860416	43	4154
2026-01-24 06:15:59.36	283.66	11.63	-36.9	-37.9	20.0	0.00e+00	0	38	0	2723151872	43	4210
2026-01-24 06:16:00.37	283.49	11.58	-37.0	-38.0	19.8	0.00e+00	0	38	0	2730491904	43	4280
2026-01-24 06:16:01.37	283.33	11.54	-37.0	-38.0	19.9	0.00e+00	0	38	0	2737831936	43	4251
2026-01-24 06:16:02.37	283.17	11.49	-37.0	-37.9	19.9	0.00e+00	0	38	0	2745171968	43	4236
2026-01-24 06:16:03.37	283.01	11.44	-36.8	-37.8	20.0	0.00e+00	0	38	0	2752512000	43	4171
2026-01-24 06:16:04.37	282.85	11.39	-36.9	-37.9	19.9	0.00e+00	0	38	0	2759852032	43	4219
2026-01-24 06:16:05.37	282.69	11.34	-37.0	-37.9	19.9	0.00e+00	0	38	0	2767192064	43	4236
2026-01-24 06:16:06.37	282.54	11.29	-36.9	-37.9	19.9	0.00e+00	0	38	0	2774532096	43	4235
2026-01-24 06:16:07.37	282.38	11.24	-36.9	-37.9	19.9	0.00e+00	0	38	0	2781872128	43	4234
2026-01-24 06:16:08.37	282.22	11.19	-37.0	-38.0	19.9	0.00e+00	0	38	0	2788163584	43	4260
2026-01-24 06:16:09.37	282.06	11.14	-36.9	-37.9	20.0	0.00e+00	0	38	0	2795503616	43	4214
2026-01-24 06:16:10.37	281.91	11.09	-36.9	-37.9	19.9	0.00e+00	0	38	0	2802843648	43	4233
2026-01-24 06:16:11.37	281.75	11.04	-36.8	-37.8	20.1	0.00e+00	0	38	0	2810183680	43	4158
2026-01-24 06:16:12.37	281.60	10.99	-36.8	-37.7	20.1	0.00e+00	0	38	0	2817523712	43	4135
2026-01-24 06:16:13.37	281.44	10.94	-36.8	-37.8	20.0	0.00e+00	0	38	0	2824863744	43	4168
2026-01-24 06:16:14.37	281.29	10.89	-36.8	-37.8	20.0	0.00e+00	0	38	0	2832203776	43	4153
2026-01-24 06:16:15.38	281.13	10.84	-36.9	-37.9	19.9	0.00e+00	0	38	0	2839543808	43	4208
2026-01-24 06:16:16.38	280.98	10.79	-36.8	-37.7	20.1	0.00e+00	0	38	0	2845835264	43	4140
2026-01-24 06:16:17.38	280.83	10.74	-36.9	-37.8	20.0	0.00e+00	0	38	0	2853175296	43	4186
2026-01-24 06:16:18.38	280.68	10.68	-37.0	-37.9	19.9	0.00e+00	0	38	0	2860515328	43	4233
2026-01-24 06:16:19.38	280.52	10.63	-37.0	-38.0	19.9	0.00e+00	0	38	0	2867855360	43	4244
2026-01-24 06:16:20.38	280.37	10.58	-37.1	-38.1	19.7	0.00e+00	0	38	0	2875195392	43	4302
2026-01-24 06:16:21.38	280.22	10.53	-37.1	-38.1	19.7	0.00e+00	0	38	0	2882535424	43	4321
2026-01-24 06:16:22.38	280.07	10.48	-37.1	-38.1	19.7	0.00e+00	0	38	0	2889875456	43	4326
2026-01-24 06:16:23.38	279.92	10.43	-37.1	-38.1	19.7	0.00e+00	0	38	0	2897215488	43	4316
2026-01-24 06:16:24.38	279.78	10.38	-37.2	-38.2	19.6	0.00e+00	0	38	0	2904555520	43	4351
2026-01-24 06:16:25.39	279.63	10.33	-37.1	-38.1	19.7	0.00e+00	0	38	0	2910846976	43	4336
2026-01-24 06:16:26.39	279.48	10.27	-37.1	-38.1	19.7	0.00e+00	0	38	0	2918187008	43	4336
2026-01-24 06:16:27.39	279.33	10.22	-37.2	-38.2	19.6	0.00e+00	0	38	0	2925527040	43	4389
2026-01-24 06:16:28.39	279.18	10.17	-37.2	-38.2	19.6	0.00e+00	0	38	0	2932867072	43	4386
2026-01-24 06:16:29.40	279.04	10.12	-37.2	-38.2	19.6	0.00e+00	0	39	0	2940207104	43	4380
2026-01-24 06:16:30.40	278.89	10.07	-37.2	-38.2	19.5	0.00e+00	0	38	0	2947547136	43	4384
2026-01-24 06:16:31.40	278.75	10.01	-37.2	-38.2	19.6	0.00e+00	0	38	0	2954887168	43	4387
2026-01-24 06:16:32.40	278.60	9.96	-37.5	-38.5	19.5	0.00e+00	0	38	0	2962227200	44	4256
2026-01-24 06:16:33.40	278.46	9.91	-37.5	-38.5	19.5	0.00e+00	0	38	0	2969567232	44	4256
2026-01-24 06:16:34.40	278.31	9.86	-37.5	-38.5	19.4	0.00e+00	0	38	0	2976907264	44	4273
2026-01-24 06:16:35.41	278.17	9.81	-37.4	-38.4	19.5	0.00e+00	0	38	0	2984247296	44	4230
2026-01-24 06:16:36.41	278.03	9.75	-37.4	-38.4	19.6	0.00e+00	0	38	0	2991587328	44	4201
2026-01-24 06:16:37.41	277.89	9.70	-37.4	-38.4	19.5	0.00e+00	0	38	0	2997878784	44	4227
2026-01-24 06:16:38.41	277.74	9.65	-37.4	-38.5	19.5	0.00e+00	0	38	0	3005218816	44	4245
2026-01-24 06:16:39.42	277.60	9.60	-37.4	-38.4	19.5	0.00e+00	0	38	0	3012558848	44	4232
2026-01-24 06:16:40.42	277.46	9.54	-37.4	-38.5	19.5	0.00e+00	0	38	0	3019898880	44	4246
2026-01-24 06:16:41.42	277.32	9.49	-37.5	-38.5	19.4	0.00e+00	0	38	0	3027238912	44	4284
2026-01-24 06:16:42.42	277.18	9.44	-37.5	-38.5	19.4	0.00e+00	0	38	0	3034578944	44	4284
2026-01-24 06:16:43.42	277.04	9.39	-37.5	-38.5	19.4	0.00e+00	0	38	0	3041918976	44	4264
2026-01-24 06:16:44.42	276.91	9.33	-37.5	-38.5	19.4	0.00e+00	0	38	0	3049259008	44	4266
2026-01-24 06:16:45.42	276.77	9.28	-37.5	-38.5	19.4	0.00e+00	0	38	0	3055550464	44	4274
2026-01-24 06:16:46.43	276.63	9.23	-37.5	-38.5	19.4	0.00e+00	0	38	0	3062890496	44	4276
2026-01-24 06:16:47.42	276.49	9.18	-37.5	-38.5	19.4	0.00e+00	0	38	0	3070230528	44	4279
2026-01-24 06:16:48.43	276.36	9.12	-37.5	-38.5	19.4	0.00e+00	0	38	0	3077570560	44	4261
2026-01-24 06:16:49.42	276.22	9.07	-37.6	-38.6	19.3	0.00e+00	0	38	0	3084910592	44	4330
2026-01-24 06:16:50.42	276.09	9.02	-37.9	-38.9	19.0	0.00e+00	0	38	0	3092250624	45	4221
2026-01-24 06:16:51.42	275.95	8.96	-48.6	-59.1	3.8	8.46e-01	0	38	104	3095396352	66	12827
2026-01-24 06:16:52.42	275.82	8.91	-48.8	-59.6	3.8	8.47e-01	0	38	104	3095396352	67	12898
2026-01-24 06:16:53.41	275.68	8.86	-48.8	-59.7	3.8	8.46e-01	0	38	104	3095396352	67	13079
2026-01-24 06:16:54.41	275.55	8.81	-49.1	-59.9	3.8	8.48e-01	0	38	104	3095396352	67	13283
2026-01-24 06:16:55.40	275.42	8.75	-49.1	-59.9	3.8	8.48e-01	0	38	104	3095396352	67	13387
2026-01-24 06:16:56.40	275.29	8.70	-49.2	-60.0	3.8	8.47e-01	0	38	104	3095396352	67	13457
2026-01-24 06:16:57.40	275.16	8.65	-49.2	-60.0	3.8	8.46e-01	0	38	104	3095396352	67	13497
2026-01-24 06:16:58.40	275.02	8.59	-49.4	-60.2	3.8	8.48e-01	0	38	104	3095396352	68	12981
2026-01-24 06:16:59.39	274.89	8.54	-49.5	-60.2	3.8	8.47e-01	0	38	104	3095396352	68	13109
2026-01-24 06:17:00.39	274.76	8.49	-49.5	-60.2	3.8	8.48e-01	0	38	104	3095396352	68	13068
2026-01-24 06:17:01.38	274.64	8.44	-49.5	-60.2	3.8	8.48e-01	0	38	104	3095396352	68	13042
2026-01-24 06:17:02.38	274.51	8.38	-49.5	-60.2	3.8	8.46e-01	0	38	104	3095396352	68	13108
2026-01-24 06:17:03.37	274.38	8.33	-49.3	-60.2	3.8	8.47e-01	0	38	104	3095396352	68	13088
2026-01-24 06:17:04.37	274.25	8.28	-49.2	-60.2	3.8	8.47e-01	0	38	104	3095396352	68	13047
2026-01-24 06:17:05.37	274.12	8.22	-49.2	-60.3	3.8	8.47e-01	0	38	104	3095396352	68	13134
2026-01-24 06:17:06.36	274.00	8.17	-49.3	-60.3	3.8	8.46e-01	0	38	104	3095396352	68	13132
2026-01-24 06:17:07.36	273.87	8.12	-49.4	-60.2	3.8	8.47e-01	0	38	104	3095396352	68	13069
2026-01-24 06:17:08.36	273.74	8.06	-49.3	-60.2	3.8	8.47e-01	0	38	104	3095396352	68	13101
2026-01-24 06:17:09.35	273.62	8.01	-49.4	-60.2	3.8	8.46e-01	0	38	104	3095396352	68	13027
2026-01-24 06:17:10.35	273.49	7.96	-49.3	-60.2	3.8	8.48e-01	0	38	104	3095396352	68	12977
2026-01-24 06:17:11.35	273.37	7.90	-49.2	-60.2	3.8	8.46e-01	0	38	104	3095396352	68	13005
2026-01-24 06:17:12.34	273.24	7.85	-49.2	-60.1	3.8	8.47e-01	0	39	104	3095396352	68	12945
2026-01-24 06:17:13.34	273.12	7.80	-49.2	-60.1	3.8	8.47e-01	0	38	104	3095396352	68	12947
2026-01-24 06:17:14.33	273.00	7.74	-49.2	-60.1	3.8	8.48e-01	0	38	104	3095396352	68	12911
2026-01-24 06:17:15.33	272.87	7.69	-49.2	-60.1	3.8	8.46e-01	0	38	104	3095396352	68	12938
2026-01-24 06:17:16.33	272.75	7.64	-49.2	-60.0	3.8	8.46e-01	0	38	104	3095396352	68	12794
2026-01-24 06:17:17.32	272.63	7.58	-49.1	-60.1	3.8	8.48e-01	0	38	104	3095396352	68	12873
2026-01-24 06:17:18.32	272.51	7.53	-49.2	-60.1	3.8	8.48e-01	0	38	104	3095396352	68	12846
2026-01-24 06:17:19.32	272.39	7.48	-49.2	-60.1	3.8	8.48e-01	0	38	104	3095396352	68	12959
2026-01-24 06:17:20.31	272.27	7.42	-49.1	-60.1	3.8	8.48e-01	0	38	104	3095396352	68	12901
2026-01-24 06:17:21.31	272.14	7.37	-49.2	-60.1	3.8	8.46e-01	0	38	104	3095396352	68	12897
2026-01-24 06:17:22.30	272.03	7.32	-49.1	-60.1	3.8	8.47e-01	0	38	104	3095396352	68	12927
2026-01-24 06:17:23.30	271.91	7.26	-49.1	-60.0	3.8	8.47e-01	0	38	104	3095396352	68	12788
2026-01-24 06:17:24.29	271.79	7.21	-49.1	-60.1	3.8	8.46e-01	0	38	104	3095396352	68	12928
2026-01-24 06:17:25.29	271.67	7.16	-49.1	-60.1	3.8	8.46e-01	0	39	104	3095396352	68	12820
2026-01-24 06:17:26.28	271.55	7.10	-49.1	-60.1	3.8	8.48e-01	0	38	104	3095396352	68	12831
2026-01-24 06:17:27.28	271.43	7.05	-49.1	-60.1	3.8	8.47e-01	0	38	104	3095396352	68	12906
2026-01-24 06:17:28.28	271.32	7.00	-49.1	-60.1	3.8	8.47e-01	0	38	104	3095396352	68	12849
2026-01-24 06:17:29.27	271.20	6.94	-49.1	-60.1	3.8	8.47e-01	0	38	104	3095396352	68	12820
2026-01-24 06:17:30.27	271.08	6.89	-49.1	-60.0	3.8	8.47e-01	0	38	104	3095396352	68	12748
2026-01-24 06:17:31.27	270.97	6.84	-49.1	-60.1	3.8	8.47e-01	0	38	104	3095396352	68	12817
2026-01-24 06:17:32.26	270.85	6.78	-49.1	-60.0	3.8	8.47e-01	0	38	104	3095396352	68	12753
2026-01-24 06:17:33.26	270.74	6.73	-49.1	-60.1	3.8	8.47e-01	0	38	104	3095396352	68	12811
2026-01-24 06:17:34.25	270.62	6.68	-49.1	-60.1	3.8	8.47e-01	0	38	104	3095396352	68	12865
2026-01-24 06:17:35.25	270.51	6.62	-49.1	-60.0	3.8	8.47e-01	0	38	104	3095396352	68	12755
2026-01-24 06:17:36.24	270.40	6.57	-49.1	-60.1	3.8	8.48e-01	0	38	104	3095396352	68	12894
2026-01-24 06:17:37.24	270.28	6.52	-49.1	-60.0	3.8	8.47e-01	0	38	104	3095396352	68	12763
2026-01-24 06:17:38.23	270.17	6.46	-49.1	-60.1	3.8	8.46e-01	0	38	104	3095396352	68	12913
2026-01-24 06:17:39.23	270.06	6.41	-49.1	-60.1	3.8	8.47e-01	0	38	104	3095396352	68	12811
2026-01-24 06:17:40.23	269.95	6.36	-49.1	-60.0	3.8	8.47e-01	0	38	104	3095396352	68	12788
2026-01-24 06:17:41.22	269.84	6.30	-49.1	-60.1	3.8	8.47e-01	0	38	104	3095396352	68	12843
2026-01-24 06:17:42.22	269.72	6.25	-49.1	-60.1	3.8	8.46e-01	0	38	104	3095396352	68	12860
2026-01-24 06:17:43.21	269.61	6.20	-49.1	-60.0	3.8	8.46e-01	0	38	104	3095396352	68	12776
2026-01-24 06:17:44.21	269.50	6.14	-49.1	-60.0	3.8	8.46e-01	0	38	104	3095396352	68	12801
2026-01-24 06:17:45.20	269.39	6.09	-49.1	-60.1	3.8	8.47e-01	0	38	104	3095396352	68	12851
2026-01-24 06:17:46.20	269.28	6.04	-49.1	-60.1	3.8	8.47e-01	0	38	104	3095396352	68	12815
2026-01-24 06:17:47.20	269.17	5.98	-49.1	-60.1	3.8	8.47e-01	0	38	104	3095396352	68	12872
2026-01-24 06:17:48.19	269.07	5.93	-49.1	-60.0	3.8	8.46e-01	0	38	104	3095396352	68	12719
2026-01-24 06:17:49.19	268.96	5.88	-49.1	-60.0	3.8	8.45e-01	0	38	104	3095396352	68	12810
2026-01-24 06:17:50.18	268.85	5.82	-49.1	-60.0	3.8	8.46e-01	0	38	104	3095396352	68	12780
2026-01-24 06:17:51.18	268.74	5.77	-49.1	-60.0	3.8	8.47e-01	0	39	104	3095396352	68	12775
2026-01-24 06:17:52.18	268.64	5.72	-49.1	-60.0	3.8	8.46e-01	0	38	104	3095396352	68	12790
2026-01-24 06:17:53.17	268.53	5.66	-49.1	-60.0	3.8	8.47e-01	0	38	104	3095396352	68	12794
2026-01-24 06:17:54.17	268.42	5.61	-49.1	-60.0	3.8	8.47e-01	0	38	104	3095396352	68	12734
2026-01-24 06:17:55.17	268.32	5.56	-49.1	-60.0	3.8	8.47e-01	0	39	104	3095396352	68	12738
2026-01-24 06:17:56.16	268.21	5.51	-49.1	-60.0	3.8	8.47e-01	0	38	104	3095396352	68	12765
2026-01-24 06:17:57.16	268.11	5.45	-49.1	-60.0	3.8	8.47e-01	0	38	104	3095396352	68	12760
2026-01-24 06:17:58.15	268.00	5.40	-49.1	-60.0	3.8	8.47e-01	0	38	104	3095396352	68	12740
2026-01-24 06:17:59.15	267.90	5.35	-49.1	-60.0	3.8	8.47e-01	0	38	104	3095396352	68	12769
2026-01-24 06:18:00.15	267.79	5.29	-49.1	-60.1	3.8	8.48e-01	0	38	104	3095396352	68	12837
2026-01-24 06:18:01.14	267.69	5.24	-49.1	-60.0	3.8	8.46e-01	0	38	104	3095396352	68	12668
2026-01-24 06:18:02.14	267.59	5.19	-49.1	-60.0	3.8	8.45e-01	0	38	104	3095396352	68	12795
2026-01-24 06:18:03.13	267.48	5.13	-49.1	-60.0	3.8	8.46e-01	0	38	104	3095396352	68	12759
2026-01-24 06:18:04.13	267.38	5.08	-49.1	-60.0	3.8	8.47e-01	0	38	104	3095396352	68	12734
2026-01-24 06:18:05.12	267.28	5.03	-49.1	-60.1	3.8	8.48e-01	0	38	104	3095396352	68	12813
2026-01-24 06:18:06.12	267.18	4.97	-49.1	-60.0	3.8	8.47e-01	0	38	104	3095396352	68	12806

#Closed at: 2026-01-24 06:18:07
#Recorded file [3095 MB]: D:/Data/31040_260124_090833.dat