passes_logs/2026/01/24/T1/T1__20260124_083834_NOAA_20_JPSS-1_rec.log

#Pass ID: 20260124_083834_NOAA 20 (JPSS-1)
#Satellite: NOAA 20 (JPSS-1)
#Configuration: NOAA 20
#almurnet v.1.7.20251203
#Start time: 2026-01-24 08:38:35

#Version: 2.0.20230620
#Station: T1
#Location: 37.570604 lon 55.790049 lat
#TLE: 1 43013U 17073A   26023.57676825  .00000205  00000+0  11821-3 0  9990
#TLE: 2 43013  98.7645 324.4259 0001147  27.0566 333.0670 14.19539368423954

#Time	Az	El	Level	Level2	SNR	BER	BlckErr	Temp	State	Recorded	gain1	gain2
2026-01-24 08:38:35.50	119.57	5.10	-48.0	-63.1	3.8	1.49e+00	0	39	0	0	68	19529
2026-01-24 08:38:36.50	119.50	5.16	-48.1	-63.1	3.8	1.49e+00	0	39	104	0	68	19614
2026-01-24 08:38:37.49	119.44	5.23	-48.0	-63.1	3.8	1.49e+00	0	39	104	0	68	19539
2026-01-24 08:38:38.49	119.37	5.29	-48.0	-63.2	3.8	1.49e+00	0	39	104	0	68	19626
2026-01-24 08:38:39.49	119.30	5.36	-48.0	-63.1	3.8	1.49e+00	0	39	104	0	68	19539
2026-01-24 08:38:40.49	119.24	5.42	-48.0	-63.1	3.8	1.49e+00	0	39	104	0	68	19587
2026-01-24 08:38:41.48	119.17	5.49	-48.0	-63.1	3.8	1.49e+00	0	39	104	0	68	19509
2026-01-24 08:38:42.48	119.10	5.55	-48.0	-63.1	3.8	1.49e+00	0	39	104	0	68	19541
2026-01-24 08:38:43.48	119.03	5.62	-48.0	-63.1	3.8	1.49e+00	0	39	104	0	68	19543
2026-01-24 08:38:44.48	118.96	5.68	-48.0	-63.1	3.8	1.49e+00	0	39	104	0	68	19511
2026-01-24 08:38:45.47	118.90	5.75	-48.0	-63.1	3.8	1.49e+00	0	39	104	0	68	19442
2026-01-24 08:38:46.47	118.83	5.82	-48.0	-63.1	3.8	1.49e+00	0	39	104	0	68	19473
2026-01-24 08:38:47.46	118.76	5.88	-48.0	-63.1	3.8	1.49e+00	0	39	104	0	68	19499
2026-01-24 08:38:48.46	118.69	5.95	-48.0	-63.1	3.8	1.49e+00	0	39	104	0	68	19501
2026-01-24 08:38:49.46	118.62	6.01	-48.0	-63.1	3.8	1.49e+00	0	39	104	0	68	19491
2026-01-24 08:38:50.46	118.55	6.08	-48.0	-63.1	3.8	1.49e+00	0	39	104	0	68	19453
2026-01-24 08:38:51.46	118.48	6.15	-48.0	-63.1	3.8	1.49e+00	0	39	104	0	68	19574
2026-01-24 08:38:52.46	118.40	6.22	-48.0	-63.1	3.8	1.49e+00	0	39	104	0	68	19514
2026-01-24 08:38:53.45	118.33	6.28	-48.0	-63.1	3.8	1.49e+00	0	39	104	0	68	19610
2026-01-24 08:38:54.45	118.26	6.35	-48.0	-63.1	3.8	1.49e+00	0	39	104	0	68	19548
2026-01-24 08:38:55.45	118.19	6.42	-48.0	-63.1	3.8	1.49e+00	0	40	104	0	68	19479
2026-01-24 08:38:56.45	118.12	6.48	-48.0	-63.1	3.8	1.49e+00	0	39	104	0	68	19431
2026-01-24 08:38:57.44	118.05	6.55	-48.0	-63.0	3.8	1.49e+00	0	39	104	0	68	19357
2026-01-24 08:38:58.44	117.97	6.62	-48.0	-63.0	3.8	1.49e+00	0	40	104	0	68	19313
2026-01-24 08:38:59.43	117.90	6.69	-48.0	-63.0	3.8	1.49e+00	0	40	104	0	68	19309
2026-01-24 08:39:00.43	117.83	6.75	-48.0	-63.0	3.8	1.49e+00	0	40	104	0	68	19379
2026-01-24 08:39:01.42	117.75	6.82	-48.0	-63.0	3.8	1.49e+00	0	40	104	0	68	19238
2026-01-24 08:39:02.42	117.68	6.89	-48.0	-63.0	3.8	1.49e+00	0	40	104	0	68	19191
2026-01-24 08:39:03.41	117.60	6.96	-48.0	-63.0	3.8	1.49e+00	0	40	104	0	68	19284
2026-01-24 08:39:04.41	117.53	7.03	-48.0	-63.0	3.8	1.49e+00	0	40	104	0	68	19373
2026-01-24 08:39:05.41	117.45	7.10	-48.0	-63.0	3.8	1.49e+00	0	40	104	0	68	19310
2026-01-24 08:39:06.41	117.38	7.16	-48.0	-63.0	3.8	1.49e+00	0	40	104	0	68	19374
2026-01-24 08:39:07.41	117.30	7.23	-48.0	-62.9	3.8	1.49e+00	0	40	104	0	68	19109
2026-01-24 08:39:08.41	117.22	7.30	-48.0	-62.8	3.8	1.49e+00	0	40	104	0	68	18758
2026-01-24 08:39:09.40	117.15	7.37	-48.0	-62.6	3.8	1.49e+00	0	40	104	0	68	18383
2026-01-24 08:39:10.40	117.07	7.44	-48.0	-62.4	3.8	1.49e+00	0	40	104	0	68	17890
2026-01-24 08:39:11.40	116.99	7.51	-48.0	-62.2	3.8	1.49e+00	0	40	104	0	68	17609
2026-01-24 08:39:12.40	116.91	7.58	-47.8	-62.0	3.8	1.49e+00	0	40	104	0	67	18194
2026-01-24 08:39:13.40	116.83	7.65	-47.8	-61.8	3.8	1.49e+00	0	40	104	0	67	17767
2026-01-24 08:39:14.40	116.75	7.72	-47.7	-61.0	3.8	1.49e+00	0	40	104	0	67	16179
2026-01-24 08:39:15.40	116.68	7.79	-47.6	-59.0	4.3	1.42e+00	0	40	0	0	67	12894
2026-01-24 08:39:16.39	116.60	7.86	-47.3	-56.5	5.5	7.82e-01	0	40	0	1048576	66	10255
2026-01-24 08:39:17.39	116.52	7.93	-46.7	-54.0	7.5	2.72e-01	0	40	0	3145728	65	8163
2026-01-24 08:39:18.39	116.43	8.00	-46.1	-52.0	9.6	2.28e-02	0	40	0	5242880	64	6838
2026-01-24 08:39:19.38	116.35	8.07	-45.6	-50.6	11.2	3.01e-03	0	40	0	7340032	63	6147
2026-01-24 08:39:20.38	116.27	8.14	-45.0	-49.3	12.5	4.39e-04	0	40	0	8388608	62	5647
2026-01-24 08:39:21.38	116.19	8.21	-44.5	-48.4	13.5	5.26e-05	0	40	0	10485760	61	5382
2026-01-24 08:39:22.38	116.11	8.28	-44.1	-47.7	14.2	2.20e-06	0	40	0	12582912	60	5279
2026-01-24 08:39:23.38	116.03	8.36	-43.8	-47.2	14.7	0.00e+00	0	40	0	14680064	59	5227
2026-01-24 08:39:24.37	115.94	8.43	-43.5	-46.8	15.1	0.00e+00	0	40	0	16777216	59	5012
2026-01-24 08:39:25.37	115.86	8.50	-43.5	-46.7	15.2	0.00e+00	0	40	0	17825792	58	5242
2026-01-24 08:39:26.37	115.78	8.57	-43.7	-47.0	14.9	7.00e-07	0	40	0	19922944	58	5419
2026-01-24 08:39:27.37	115.69	8.64	-44.1	-47.7	14.2	7.00e-07	0	40	0	22020096	58	5878
2026-01-24 08:39:28.37	115.61	8.71	-44.7	-48.7	13.2	1.29e-05	0	40	0	24117248	59	6208
2026-01-24 08:39:29.37	115.52	8.79	-45.4	-50.1	11.7	2.44e-04	0	40	0	26214400	61	6562
2026-01-24 08:39:30.37	115.44	8.86	-46.2	-52.0	9.8	3.12e-03	0	40	0	27262976	62	7648
2026-01-24 08:39:31.36	115.35	8.93	-46.8	-54.1	7.5	3.05e-02	0	41	0	29360128	64	8718
2026-01-24 08:39:32.36	115.26	9.00	-47.3	-56.4	5.7	3.05e-01	0	40	0	31457280	65	10698
2026-01-24 08:39:33.36	115.18	9.07	-47.2	-56.0	5.9	8.00e-01	0	40	0	33554432	65	10188
2026-01-24 08:39:34.35	115.09	9.15	-47.2	-56.2	5.7	4.79e-01	0	40	0	34603008	65	10521
2026-01-24 08:39:35.35	115.00	9.22	-47.4	-57.5	5.0	3.09e-01	0	41	0	36700160	65	12108
2026-01-24 08:39:36.34	114.91	9.29	-47.3	-57.5	4.1	1.47e+00	0	41	104	37748736	65	12233
2026-01-24 08:39:37.34	114.83	9.37	-46.4	-52.5	9.6	2.54e-03	0	40	0	38797312	63	7634
2026-01-24 08:39:38.34	114.74	9.44	-47.8	-61.3	3.8	1.37e+00	0	41	104	38797312	66	17843
2026-01-24 08:39:39.33	114.65	9.51	-46.0	-51.5	10.4	4.59e-03	0	41	0	39845888	63	6852
2026-01-24 08:39:40.33	114.56	9.59	-46.1	-51.7	10.2	5.49e-03	0	41	0	40894464	63	7006
2026-01-24 08:39:41.32	114.47	9.66	-45.9	-51.5	10.5	6.99e-03	0	41	0	42991616	63	6812
2026-01-24 08:39:42.32	114.38	9.73	-46.0	-51.5	10.4	5.66e-03	0	41	0	45088768	63	6836
2026-01-24 08:39:43.31	114.29	9.81	-45.8	-51.0	10.9	3.33e-03	0	41	0	47185920	63	6458
2026-01-24 08:39:44.31	114.19	9.88	-45.7	-50.8	11.3	2.26e-03	0	41	0	48234496	63	6275
2026-01-24 08:39:45.30	114.10	9.96	-45.5	-50.4	11.5	2.09e-03	0	41	0	50331648	63	6059
2026-01-24 08:39:46.30	114.01	10.03	-45.6	-50.6	11.4	1.64e-03	0	40	0	52428800	63	6137
2026-01-24 08:39:47.30	113.92	10.11	-45.6	-50.6	11.4	9.63e-04	0	41	0	54525952	63	6164
2026-01-24 08:39:48.29	113.82	10.18	-45.7	-50.7	11.3	9.98e-04	0	41	0	56623104	63	6244
2026-01-24 08:39:49.29	113.73	10.25	-45.7	-50.9	11.1	1.41e-03	0	41	0	57671680	63	6365
2026-01-24 08:39:50.28	113.63	10.33	-45.8	-51.0	11.0	1.29e-03	0	41	0	59768832	63	6428
2026-01-24 08:39:51.28	113.54	10.40	-45.7	-50.8	11.2	1.12e-03	0	41	0	61865984	63	6290
2026-01-24 08:39:52.28	113.44	10.48	-45.7	-50.7	11.4	7.72e-04	0	41	0	63963136	62	6577
2026-01-24 08:39:53.27	113.35	10.56	-45.5	-50.3	11.8	4.97e-04	0	41	0	65011712	62	6277
2026-01-24 08:39:54.27	113.25	10.63	-45.4	-50.1	11.9	3.31e-04	0	41	0	67108864	62	6180
2026-01-24 08:39:55.27	113.15	10.71	-45.4	-50.0	12.1	2.42e-04	0	41	0	69206016	62	6074
2026-01-24 08:39:56.26	113.05	10.78	-45.4	-49.9	12.1	1.64e-04	0	41	0	71303168	62	6051
2026-01-24 08:39:57.26	112.96	10.86	-45.4	-50.1	12.0	2.53e-04	0	41	0	73400320	62	6151
2026-01-24 08:39:58.25	112.86	10.93	-45.3	-49.9	12.2	1.33e-04	0	41	0	74448896	62	5998
2026-01-24 08:39:59.25	112.76	11.01	-45.1	-49.5	12.6	7.93e-05	0	41	0	76546048	61	6076
2026-01-24 08:40:00.25	112.66	11.09	-44.9	-49.2	12.9	6.63e-05	0	41	0	78643200	61	5868
2026-01-24 08:40:01.25	112.56	11.17	-44.8	-48.9	13.2	2.67e-05	0	41	0	80740352	61	5682
2026-01-24 08:40:02.24	112.46	11.24	-44.7	-48.7	13.3	1.06e-05	0	41	0	81788928	61	5580
2026-01-24 08:40:03.24	112.36	11.32	-44.5	-48.5	13.6	1.06e-05	0	41	0	83886080	60	5741
2026-01-24 08:40:04.24	112.25	11.40	-44.6	-48.7	13.4	1.83e-05	0	41	0	85983232	60	5878
2026-01-24 08:40:05.23	112.15	11.47	-44.5	-48.4	13.7	1.22e-05	0	41	0	88080384	60	5684
2026-01-24 08:40:06.22	112.05	11.55	-44.0	-47.7	14.4	7.00e-07	0	41	0	90177536	60	5233
2026-01-24 08:40:07.22	111.94	11.63	-43.7	-47.0	15.1	0.00e+00	0	41	0	91226112	59	5148
2026-01-24 08:40:08.22	111.84	11.71	-43.5	-46.7	15.5	0.00e+00	0	41	0	93323264	58	5219
2026-01-24 08:40:09.22	111.73	11.78	-43.4	-46.5	15.6	0.00e+00	0	41	0	95420416	58	5150
2026-01-24 08:40:10.21	111.63	11.86	-43.3	-46.4	15.7	0.00e+00	0	41	0	97517568	58	5071
2026-01-24 08:40:11.21	111.52	11.94	-43.1	-46.1	16.0	0.00e+00	0	41	0	99614720	58	4907
2026-01-24 08:40:12.21	111.42	12.02	-43.1	-46.2	16.0	0.00e+00	0	41	0	100663296	58	4932
2026-01-24 08:40:13.21	111.31	12.10	-43.1	-46.2	15.9	0.00e+00	0	41	0	102760448	58	4939
2026-01-24 08:40:14.20	111.20	12.18	-43.2	-46.2	15.9	0.00e+00	0	41	0	104857600	58	4967
2026-01-24 08:40:15.20	111.09	12.26	-43.2	-46.3	15.8	0.00e+00	0	41	0	106954752	58	5024
2026-01-24 08:40:16.20	110.98	12.34	-43.2	-46.3	15.8	0.00e+00	0	41	0	108003328	58	5022
2026-01-24 08:40:17.19	110.88	12.41	-43.1	-46.1	16.0	0.00e+00	0	41	0	110100480	58	4925
2026-01-24 08:40:18.19	110.77	12.49	-42.8	-45.6	16.5	0.00e+00	0	41	0	112197632	57	4907
2026-01-24 08:40:19.19	110.65	12.57	-42.6	-45.4	16.8	0.00e+00	0	41	0	114294784	57	4762
2026-01-24 08:40:20.19	110.54	12.65	-42.6	-45.4	16.7	0.00e+00	0	41	0	116391936	57	4797
2026-01-24 08:40:21.18	110.43	12.73	-42.8	-45.6	16.5	0.00e+00	0	41	0	117440512	57	4925
2026-01-24 08:40:22.18	110.32	12.81	-43.0	-45.9	16.2	0.00e+00	0	41	0	119537664	57	5066
2026-01-24 08:40:23.18	110.20	12.89	-43.0	-45.9	16.3	0.00e+00	0	41	0	121634816	57	5076
2026-01-24 08:40:24.18	110.09	12.97	-42.8	-45.6	16.6	0.00e+00	0	41	0	123731968	57	4881
2026-01-24 08:40:25.17	109.98	13.05	-42.6	-45.4	16.8	0.00e+00	0	41	0	125829120	57	4791
2026-01-24 08:40:26.17	109.86	13.13	-42.7	-45.5	16.6	0.00e+00	0	41	0	126877696	57	4862
2026-01-24 08:40:27.16	109.75	13.21	-42.6	-45.4	16.8	0.00e+00	0	41	0	128974848	57	4773
2026-01-24 08:40:28.16	109.63	13.30	-42.8	-45.6	16.5	0.00e+00	0	41	0	131072000	57	4924
2026-01-24 08:40:29.15	109.51	13.38	-42.8	-45.6	16.6	0.00e+00	0	41	0	133169152	57	4892
2026-01-24 08:40:30.15	109.40	13.46	-42.8	-45.7	16.5	0.00e+00	0	41	0	134217728	57	4949
2026-01-24 08:40:31.15	109.28	13.54	-42.8	-45.6	16.6	0.00e+00	0	41	0	136314880	57	4909
2026-01-24 08:40:32.14	109.16	13.62	-42.7	-45.5	16.7	0.00e+00	0	41	0	138412032	57	4829
2026-01-24 08:40:33.14	109.04	13.70	-42.6	-45.4	16.8	0.00e+00	0	41	0	140509184	57	4792
2026-01-24 08:40:34.14	108.92	13.78	-42.6	-45.4	16.8	0.00e+00	0	41	0	142606336	57	4780
2026-01-24 08:40:35.14	108.80	13.87	-42.5	-45.2	16.9	0.00e+00	0	41	0	143654912	57	4697
2026-01-24 08:40:36.13	108.68	13.95	-42.7	-45.5	16.7	0.00e+00	0	41	0	145752064	57	4827
2026-01-24 08:40:37.13	108.55	14.03	-42.8	-45.6	16.6	0.00e+00	0	41	0	147849216	57	4901
2026-01-24 08:40:38.12	108.43	14.11	-42.8	-45.6	16.6	0.00e+00	0	41	0	149946368	57	4908
2026-01-24 08:40:39.12	108.31	14.20	-42.6	-45.4	16.8	0.00e+00	0	41	0	150994944	57	4801
2026-01-24 08:40:40.12	108.18	14.28	-42.6	-45.4	16.8	0.00e+00	0	41	0	153092096	57	4805
2026-01-24 08:40:41.11	108.06	14.36	-42.6	-45.4	16.8	0.00e+00	0	41	0	155189248	57	4781
2026-01-24 08:40:42.11	107.93	14.44	-42.4	-45.1	17.2	0.00e+00	0	41	0	157286400	56	4881
2026-01-24 08:40:43.11	107.80	14.53	-42.3	-45.0	17.2	0.00e+00	0	41	0	159383552	56	4851
2026-01-24 08:40:44.11	107.68	14.61	-42.4	-45.0	17.2	0.00e+00	0	41	0	160432128	56	4866
2026-01-24 08:40:45.11	107.55	14.69	-42.3	-45.0	17.3	0.00e+00	0	41	0	162529280	56	4852
2026-01-24 08:40:46.11	107.42	14.78	-42.4	-45.1	17.1	0.00e+00	0	41	0	164626432	56	4917
2026-01-24 08:40:47.11	107.29	14.86	-42.4	-45.2	17.1	0.00e+00	0	41	0	166723584	56	4951
2026-01-24 08:40:48.11	107.16	14.95	-42.4	-45.2	17.1	0.00e+00	0	41	0	168820736	56	4941
2026-01-24 08:40:49.12	107.03	15.03	-42.4	-45.1	17.2	0.00e+00	0	41	0	169869312	56	4896
2026-01-24 08:40:50.12	106.89	15.12	-42.2	-44.9	17.4	0.00e+00	0	41	0	171966464	56	4767
2026-01-24 08:40:51.11	106.76	15.20	-42.2	-44.8	17.5	0.00e+00	0	41	0	174063616	56	4715
2026-01-24 08:40:52.12	106.63	15.29	-42.3	-45.0	17.2	0.00e+00	0	41	0	176160768	56	4841
2026-01-24 08:40:53.12	106.49	15.37	-42.6	-45.4	16.9	0.00e+00	0	41	0	178257920	56	5060
2026-01-24 08:40:54.12	106.36	15.46	-42.5	-45.3	17.0	0.00e+00	0	41	0	179306496	56	5019
2026-01-24 08:40:55.12	106.22	15.54	-42.4	-45.0	17.2	0.00e+00	0	41	0	181403648	56	4866
2026-01-24 08:40:56.13	106.08	15.63	-42.3	-45.0	17.3	0.00e+00	0	41	0	183500800	56	4824
2026-01-24 08:40:57.13	105.94	15.71	-42.3	-45.0	17.3	0.00e+00	0	41	0	185597952	56	4840
2026-01-24 08:40:58.13	105.81	15.80	-42.3	-45.0	17.3	0.00e+00	0	41	0	186646528	56	4823
2026-01-24 08:40:59.13	105.67	15.88	-42.2	-44.8	17.5	0.00e+00	0	41	0	188743680	56	4732
2026-01-24 08:41:00.14	105.53	15.97	-42.1	-44.7	17.5	0.00e+00	0	41	0	190840832	56	4698
2026-01-24 08:41:01.14	105.38	16.06	-41.7	-44.2	17.9	0.00e+00	0	41	0	192937984	55	4689
2026-01-24 08:41:02.14	105.24	16.14	-41.6	-44.1	18.0	0.00e+00	0	41	0	195035136	55	4631
2026-01-24 08:41:03.14	105.10	16.23	-41.7	-44.2	17.9	0.00e+00	0	41	0	196083712	55	4704
2026-01-24 08:41:04.14	104.96	16.31	-41.7	-44.3	17.9	0.00e+00	0	41	0	198180864	55	4716
2026-01-24 08:41:05.14	104.81	16.40	-41.9	-44.4	17.7	0.00e+00	0	41	0	200278016	55	4814
2026-01-24 08:41:06.14	104.67	16.49	-41.8	-44.3	17.8	0.00e+00	0	41	0	202375168	55	4727
2026-01-24 08:41:07.14	104.52	16.57	-41.7	-44.3	17.9	0.00e+00	0	41	0	204472320	55	4712
2026-01-24 08:41:08.15	104.37	16.66	-41.9	-44.4	17.7	0.00e+00	0	41	0	205520896	55	4803
2026-01-24 08:41:09.14	104.23	16.75	-41.8	-44.4	17.8	0.00e+00	0	41	0	207618048	55	4760
2026-01-24 08:41:10.14	104.08	16.83	-41.8	-44.4	17.7	0.00e+00	0	41	0	209715200	55	4792
2026-01-24 08:41:11.14	103.93	16.92	-41.9	-44.5	17.7	0.00e+00	0	41	0	211812352	55	4834
2026-01-24 08:41:12.14	103.78	17.01	-42.0	-44.5	17.6	0.00e+00	0	41	0	212860928	55	4867
2026-01-24 08:41:13.15	103.63	17.10	-42.0	-44.7	17.5	0.00e+00	0	41	0	214958080	55	4930
2026-01-24 08:41:14.14	103.48	17.18	-41.9	-44.5	17.6	0.00e+00	0	41	0	217055232	55	4861
2026-01-24 08:41:15.14	103.32	17.27	-41.9	-44.4	17.8	0.00e+00	0	41	0	219152384	55	4790
2026-01-24 08:41:16.15	103.17	17.36	-41.8	-44.3	17.9	0.00e+00	0	41	0	221249536	55	4731
2026-01-24 08:41:17.14	103.01	17.44	-41.7	-44.2	17.9	0.00e+00	0	41	0	222298112	55	4705
2026-01-24 08:41:18.14	102.86	17.53	-41.9	-44.5	17.8	0.00e+00	0	41	0	224395264	55	4827
2026-01-24 08:41:19.14	102.70	17.62	-42.0	-44.5	17.7	0.00e+00	0	41	0	226492416	55	4855
2026-01-24 08:41:20.14	102.55	17.71	-42.0	-44.5	17.8	0.00e+00	0	41	0	228589568	55	4846
2026-01-24 08:41:21.14	102.39	17.80	-41.9	-44.4	17.9	0.00e+00	0	41	0	230686720	55	4768
2026-01-24 08:41:22.14	102.23	17.88	-41.9	-44.5	17.9	0.00e+00	0	41	0	231735296	55	4823
2026-01-24 08:41:23.14	102.07	17.97	-41.9	-44.4	17.9	0.00e+00	0	41	0	233832448	55	4803
2026-01-24 08:41:24.15	101.90	18.06	-42.1	-44.7	17.6	0.00e+00	0	41	0	235929600	55	4969
2026-01-24 08:41:25.14	101.74	18.15	-42.1	-44.6	17.7	0.00e+00	0	41	0	238026752	55	4917
2026-01-24 08:41:26.15	101.58	18.24	-41.9	-44.4	18.0	0.00e+00	0	41	0	240123904	55	4780
2026-01-24 08:41:27.15	101.42	18.33	-41.9	-44.3	18.0	0.00e+00	0	41	0	241172480	55	4758
2026-01-24 08:41:28.15	101.25	18.42	-42.1	-44.6	17.8	0.00e+00	0	41	0	243269632	55	4886
2026-01-24 08:41:29.15	101.08	18.50	-42.1	-44.7	17.7	0.00e+00	0	41	0	245366784	55	4959
2026-01-24 08:41:30.15	100.92	18.59	-42.2	-44.7	17.7	0.00e+00	0	41	0	247463936	55	4982
2026-01-24 08:41:31.15	100.75	18.68	-42.2	-44.8	17.6	0.00e+00	0	41	0	248512512	55	5030
2026-01-24 08:41:32.15	100.58	18.77	-42.1	-44.7	17.8	0.00e+00	0	41	0	250609664	55	4951
2026-01-24 08:41:33.15	100.41	18.86	-42.3	-44.9	17.5	0.00e+00	0	41	0	252706816	55	5062
2026-01-24 08:41:34.15	100.24	18.95	-42.4	-45.0	17.4	0.00e+00	0	41	0	254803968	55	5154
2026-01-24 08:41:35.16	100.07	19.04	-42.5	-45.2	17.2	0.00e+00	0	41	0	256901120	55	5256
2026-01-24 08:41:36.16	99.89	19.13	-42.6	-45.2	17.3	0.00e+00	0	41	0	257949696	55	5264
2026-01-24 08:41:37.16	99.72	19.22	-42.4	-45.1	17.4	0.00e+00	0	41	0	260046848	55	5167
2026-01-24 08:41:38.16	99.54	19.31	-42.3	-44.9	17.6	0.00e+00	0	41	0	262144000	55	5081
2026-01-24 08:41:39.16	99.37	19.39	-42.3	-44.9	17.5	0.00e+00	0	41	0	264241152	55	5098
2026-01-24 08:41:40.17	99.19	19.48	-42.5	-45.1	17.4	0.00e+00	0	41	0	266338304	55	5195
2026-01-24 08:41:41.16	99.01	19.57	-42.3	-45.0	17.6	0.00e+00	0	41	0	267386880	55	5109
2026-01-24 08:41:42.16	98.83	19.66	-42.2	-44.8	17.7	0.00e+00	0	41	0	269484032	55	5022
2026-01-24 08:41:43.16	98.65	19.75	-42.2	-44.7	17.8	0.00e+00	0	41	0	271581184	55	4975
2026-01-24 08:41:44.16	98.47	19.84	-42.2	-44.8	17.7	0.00e+00	0	41	0	273678336	55	5022
2026-01-24 08:41:45.16	98.29	19.93	-42.3	-44.9	17.6	0.00e+00	0	41	0	275775488	55	5089
2026-01-24 08:41:46.16	98.10	20.02	-42.3	-44.9	17.6	0.00e+00	0	41	0	276824064	55	5090
2026-01-24 08:41:47.16	97.92	20.11	-42.1	-44.6	17.9	0.00e+00	0	41	0	278921216	55	4926
2026-01-24 08:41:48.16	97.73	20.20	-42.0	-44.5	18.0	0.00e+00	0	41	0	281018368	55	4831
2026-01-24 08:41:49.16	97.55	20.29	-42.0	-44.5	18.0	0.00e+00	0	41	0	283115520	55	4866
2026-01-24 08:41:50.16	97.36	20.38	-42.1	-44.7	17.8	0.00e+00	0	41	0	285212672	55	4955
2026-01-24 08:41:51.16	97.17	20.47	-42.2	-44.8	17.7	0.00e+00	0	41	0	286261248	55	5020
2026-01-24 08:41:52.16	96.98	20.56	-42.2	-44.7	17.9	0.00e+00	0	41	0	288358400	55	4948
2026-01-24 08:41:53.17	96.79	20.65	-42.2	-44.8	17.8	0.00e+00	0	41	0	290455552	55	5002
2026-01-24 08:41:54.17	96.60	20.74	-42.2	-44.8	17.8	0.00e+00	0	41	0	292552704	55	4987
2026-01-24 08:41:55.17	96.40	20.82	-42.2	-44.8	17.8	0.00e+00	0	41	0	293601280	55	5000
2026-01-24 08:41:56.17	96.21	20.91	-42.2	-44.8	17.8	0.00e+00	0	41	0	295698432	55	4985
2026-01-24 08:41:57.17	96.01	21.00	-42.3	-44.8	17.8	0.00e+00	0	41	0	297795584	55	5006
2026-01-24 08:41:58.17	95.81	21.09	-42.0	-44.5	18.1	0.00e+00	0	41	0	299892736	55	4840
2026-01-24 08:41:59.18	95.61	21.18	-41.9	-44.4	18.2	0.00e+00	0	41	0	301989888	55	4775
2026-01-24 08:42:00.17	95.42	21.27	-41.9	-44.4	18.2	0.00e+00	0	41	0	303038464	55	4782
2026-01-24 08:42:01.18	95.22	21.36	-41.8	-44.2	18.3	0.00e+00	0	41	0	305135616	55	4693
2026-01-24 08:42:02.18	95.01	21.45	-41.7	-44.2	18.4	0.00e+00	0	41	0	307232768	55	4675
2026-01-24 08:42:03.18	94.81	21.54	-41.7	-44.1	18.4	0.00e+00	0	41	0	309329920	55	4647
2026-01-24 08:42:04.18	94.61	21.63	-41.7	-44.1	18.4	0.00e+00	0	41	0	311427072	55	4636
2026-01-24 08:42:05.19	94.40	21.72	-41.8	-44.2	18.3	0.00e+00	0	41	0	312475648	55	4699
2026-01-24 08:42:06.18	94.20	21.80	-41.7	-44.1	18.5	0.00e+00	0	41	0	314572800	55	4638
2026-01-24 08:42:07.19	93.99	21.89	-41.7	-44.1	18.5	0.00e+00	0	41	0	316669952	55	4635
2026-01-24 08:42:08.19	93.78	21.98	-41.7	-44.1	18.5	0.00e+00	0	41	0	318767104	55	4638
2026-01-24 08:42:09.19	93.57	22.07	-41.5	-43.9	18.7	0.00e+00	0	41	0	320864256	55	4520
2026-01-24 08:42:10.19	93.36	22.16	-41.6	-43.9	18.7	0.00e+00	0	41	0	321912832	55	4536
2026-01-24 08:42:11.20	93.14	22.25	-41.4	-43.7	18.8	0.00e+00	0	41	0	324009984	54	4700
2026-01-24 08:42:12.19	92.93	22.34	-41.2	-43.5	19.0	0.00e+00	0	41	0	326107136	54	4589
2026-01-24 08:42:13.19	92.72	22.42	-41.0	-43.2	19.3	0.00e+00	0	41	0	328204288	54	4441
2026-01-24 08:42:14.19	92.50	22.51	-41.0	-43.3	19.2	0.00e+00	0	41	0	329252864	53	4725
2026-01-24 08:42:15.19	92.28	22.60	-41.0	-43.2	19.3	0.00e+00	0	41	0	331350016	53	4698
2026-01-24 08:42:16.18	92.07	22.68	-41.0	-43.2	19.3	0.00e+00	0	41	0	333447168	53	4688
2026-01-24 08:42:17.19	91.85	22.77	-41.1	-43.3	19.2	0.00e+00	0	41	0	335544320	53	4754
2026-01-24 08:42:18.18	91.63	22.86	-41.1	-43.4	19.2	0.00e+00	0	41	0	337641472	53	4761
2026-01-24 08:42:19.19	91.40	22.95	-41.2	-43.5	19.0	0.00e+00	0	41	0	338690048	53	4845
2026-01-24 08:42:20.18	91.18	23.03	-41.1	-43.4	19.1	0.00e+00	0	41	0	340787200	53	4783
2026-01-24 08:42:21.18	90.96	23.12	-41.0	-43.3	19.2	0.00e+00	0	41	0	342884352	53	4723
2026-01-24 08:42:22.18	90.73	23.21	-40.9	-43.1	19.4	0.00e+00	0	41	0	344981504	53	4627
2026-01-24 08:42:23.19	90.50	23.29	-41.0	-43.3	19.2	0.00e+00	0	41	0	347078656	53	4724
2026-01-24 08:42:24.19	90.27	23.38	-40.8	-43.0	19.5	0.00e+00	0	41	0	348127232	53	4591
2026-01-24 08:42:25.18	90.05	23.46	-40.7	-42.9	19.6	0.00e+00	0	41	0	350224384	53	4537
2026-01-24 08:42:26.18	89.82	23.55	-40.8	-43.1	19.4	0.00e+00	0	41	0	352321536	53	4620
2026-01-24 08:42:27.18	89.58	23.64	-40.7	-43.0	19.5	0.00e+00	0	41	0	354418688	53	4564
2026-01-24 08:42:28.18	89.35	23.72	-40.8	-43.1	19.4	0.00e+00	0	41	0	355467264	53	4625
2026-01-24 08:42:29.18	89.12	23.81	-40.9	-43.2	19.3	0.00e+00	0	41	0	357564416	53	4663
2026-01-24 08:42:30.18	88.88	23.89	-40.8	-43.1	19.4	0.00e+00	0	41	0	359661568	53	4626
2026-01-24 08:42:31.18	88.64	23.97	-40.9	-43.2	19.3	0.00e+00	0	41	0	361758720	53	4690
2026-01-24 08:42:32.19	88.40	24.06	-41.0	-43.3	19.2	0.00e+00	0	41	0	363855872	53	4727
2026-01-24 08:42:33.18	88.16	24.14	-41.1	-43.4	19.1	0.00e+00	0	41	0	364904448	53	4784
2026-01-24 08:42:34.19	87.92	24.23	-41.0	-43.3	19.2	0.00e+00	0	41	0	367001600	53	4739
2026-01-24 08:42:35.19	87.68	24.31	-41.0	-43.3	19.2	0.00e+00	0	41	0	369098752	53	4740
2026-01-24 08:42:36.19	87.43	24.39	-41.2	-43.6	18.9	0.00e+00	0	41	0	371195904	53	4911
2026-01-24 08:42:37.20	87.19	24.48	-41.1	-43.4	19.1	0.00e+00	0	41	0	373293056	53	4811
2026-01-24 08:42:38.20	86.94	24.56	-41.0	-43.4	19.1	0.00e+00	0	41	0	374341632	53	4763
2026-01-24 08:42:39.20	86.69	24.64	-41.0	-43.4	19.1	0.00e+00	0	41	0	376438784	53	4763
2026-01-24 08:42:40.20	86.44	24.72	-41.1	-43.4	19.1	0.00e+00	0	41	0	378535936	53	4782
2026-01-24 08:42:41.20	86.19	24.81	-41.1	-43.5	19.0	0.00e+00	0	41	0	380633088	53	4825
2026-01-24 08:42:42.20	85.94	24.89	-41.1	-43.5	19.0	0.00e+00	0	41	0	382730240	53	4846
2026-01-24 08:42:43.20	85.69	24.97	-41.3	-43.7	18.8	0.00e+00	0	41	0	383778816	53	4935
2026-01-24 08:42:44.21	85.43	25.05	-41.1	-43.5	19.0	0.00e+00	0	41	0	385875968	53	4836
2026-01-24 08:42:45.20	85.18	25.13	-41.1	-43.5	19.0	0.00e+00	0	41	0	387973120	53	4842
2026-01-24 08:42:46.20	84.92	25.21	-41.1	-43.5	19.0	0.00e+00	0	41	0	390070272	53	4843
2026-01-24 08:42:47.20	84.67	25.29	-41.2	-43.6	18.9	0.00e+00	0	41	0	391118848	53	4895
2026-01-24 08:42:48.20	84.41	25.36	-41.3	-43.7	18.8	0.00e+00	0	41	0	393216000	53	4951
2026-01-24 08:42:49.20	84.15	25.44	-41.3	-43.8	18.8	0.00e+00	0	41	0	395313152	53	5002
2026-01-24 08:42:50.21	83.88	25.52	-41.5	-44.0	18.5	0.00e+00	0	41	0	397410304	53	5155
2026-01-24 08:42:51.21	83.62	25.60	-41.4	-43.9	18.7	0.00e+00	0	41	0	399507456	53	5043
2026-01-24 08:42:52.21	83.35	25.68	-41.5	-44.0	18.6	0.00e+00	0	41	0	400556032	53	5107
2026-01-24 08:42:53.21	83.09	25.75	-41.5	-44.0	18.5	0.00e+00	0	41	0	402653184	53	5133
2026-01-24 08:42:54.21	82.82	25.83	-41.7	-44.2	18.4	0.00e+00	0	41	0	404750336	53	5228
2026-01-24 08:42:55.22	82.55	25.91	-41.6	-44.1	18.4	0.00e+00	0	41	0	406847488	54	4904
2026-01-24 08:42:56.22	82.28	25.98	-41.5	-44.0	18.6	0.00e+00	0	41	0	408944640	54	4837
2026-01-24 08:42:57.22	82.01	26.06	-41.4	-43.8	18.7	0.00e+00	0	41	0	409993216	54	4734
2026-01-24 08:42:58.21	81.74	26.13	-41.3	-43.6	18.9	0.00e+00	0	41	0	412090368	54	4650
2026-01-24 08:42:59.21	81.47	26.20	-41.2	-43.5	19.0	0.00e+00	0	41	0	414187520	54	4580
2026-01-24 08:43:00.21	81.19	26.28	-41.2	-43.5	19.0	0.00e+00	0	41	0	416284672	54	4567
2026-01-24 08:43:01.21	80.92	26.35	-41.1	-43.4	19.1	0.00e+00	0	41	0	418381824	54	4526
2026-01-24 08:43:02.21	80.64	26.42	-41.1	-43.4	19.1	0.00e+00	0	41	0	419430400	54	4502
2026-01-24 08:43:03.22	80.36	26.49	-41.1	-43.4	19.1	0.00e+00	0	41	0	421527552	54	4530
2026-01-24 08:43:04.22	80.08	26.56	-41.2	-43.5	19.0	0.00e+00	0	41	0	423624704	54	4584
2026-01-24 08:43:05.22	79.80	26.63	-41.1	-43.4	19.1	0.00e+00	0	41	0	425721856	54	4534
2026-01-24 08:43:06.22	79.52	26.70	-41.2	-43.5	19.0	0.00e+00	0	41	0	427819008	54	4583
2026-01-24 08:43:07.22	79.23	26.77	-41.3	-43.7	18.9	0.00e+00	0	41	0	428867584	54	4683
2026-01-24 08:43:08.22	78.95	26.84	-41.4	-43.8	18.8	0.00e+00	0	41	0	430964736	54	4717
2026-01-24 08:43:09.22	78.66	26.91	-41.4	-43.8	18.8	0.00e+00	0	41	0	433061888	54	4729
2026-01-24 08:43:10.22	78.37	26.98	-41.5	-43.9	18.7	0.00e+00	0	41	0	435159040	54	4781
2026-01-24 08:43:11.23	78.08	27.05	-41.5	-43.9	18.7	0.00e+00	0	41	0	436207616	54	4763
2026-01-24 08:43:12.23	77.79	27.11	-41.5	-43.8	18.8	0.00e+00	0	41	0	438304768	54	4742
2026-01-24 08:43:13.23	77.50	27.18	-41.4	-43.7	18.9	0.00e+00	0	41	0	440401920	54	4673
2026-01-24 08:43:14.23	77.21	27.24	-41.3	-43.6	18.9	0.00e+00	0	41	0	442499072	54	4617
2026-01-24 08:43:15.23	76.92	27.31	-41.5	-43.8	18.7	0.00e+00	0	42	0	444596224	54	4740
2026-01-24 08:43:16.23	76.62	27.37	-41.6	-44.0	18.6	0.00e+00	0	41	0	445644800	54	4828
2026-01-24 08:43:17.23	76.33	27.43	-41.6	-44.0	18.5	0.00e+00	0	41	0	447741952	54	4867
2026-01-24 08:43:18.23	76.03	27.49	-41.6	-44.0	18.5	0.00e+00	0	41	0	449839104	54	4822
2026-01-24 08:43:19.23	75.73	27.56	-41.6	-44.0	18.6	0.00e+00	0	41	0	451936256	54	4832
2026-01-24 08:43:20.24	75.43	27.62	-41.7	-44.1	18.5	0.00e+00	0	41	0	454033408	54	4905
2026-01-24 08:43:21.23	75.13	27.68	-41.7	-44.1	18.6	0.00e+00	0	41	0	455081984	54	4873
2026-01-24 08:43:22.23	74.83	27.74	-41.7	-44.1	18.5	0.00e+00	0	41	0	457179136	54	4903
2026-01-24 08:43:23.23	74.53	27.79	-41.7	-44.2	18.4	0.00e+00	0	41	0	459276288	54	4930
2026-01-24 08:43:24.23	74.23	27.85	-41.9	-44.3	18.3	0.00e+00	0	41	0	461373440	54	5019
2026-01-24 08:43:25.23	73.92	27.91	-42.0	-44.4	18.2	0.00e+00	0	41	0	462422016	54	5097
2026-01-24 08:43:26.23	73.62	27.96	-42.1	-44.6	18.0	0.00e+00	0	41	0	464519168	54	5179
2026-01-24 08:43:27.23	73.31	28.02	-42.2	-44.7	17.8	0.00e+00	0	41	0	466616320	55	4970
2026-01-24 08:43:28.23	73.00	28.07	-42.3	-44.9	17.7	0.00e+00	0	41	0	468713472	55	5071
2026-01-24 08:43:29.23	72.69	28.13	-42.4	-45.0	17.6	0.00e+00	0	41	0	470810624	55	5144
2026-01-24 08:43:30.23	72.38	28.18	-42.4	-45.0	17.6	0.00e+00	0	41	0	471859200	55	5106
2026-01-24 08:43:31.23	72.07	28.23	-42.4	-44.9	17.7	0.00e+00	0	42	0	473956352	55	5086
2026-01-24 08:43:32.23	71.76	28.28	-42.3	-44.8	17.8	0.00e+00	0	42	0	476053504	55	5023
2026-01-24 08:43:33.23	71.45	28.33	-42.3	-44.9	17.7	0.00e+00	0	41	0	478150656	55	5047
2026-01-24 08:43:34.23	71.14	28.38	-42.4	-45.0	17.6	0.00e+00	0	41	0	480247808	55	5137
2026-01-24 08:43:35.23	70.82	28.43	-42.4	-45.0	17.6	0.00e+00	0	41	0	481296384	55	5150
2026-01-24 08:43:36.24	70.50	28.48	-42.4	-45.0	17.5	0.00e+00	0	41	0	483393536	55	5151
2026-01-24 08:43:37.24	70.19	28.53	-42.3	-44.9	17.7	0.00e+00	0	41	0	485490688	55	5059
2026-01-24 08:43:38.24	69.87	28.57	-42.3	-44.9	17.7	0.00e+00	0	41	0	487587840	55	5047
2026-01-24 08:43:39.24	69.55	28.62	-42.4	-45.0	17.6	0.00e+00	0	41	0	489684992	55	5149
2026-01-24 08:43:40.25	69.23	28.66	-42.5	-45.1	17.5	0.00e+00	0	41	0	490733568	55	5191
2026-01-24 08:43:41.24	68.91	28.70	-42.5	-45.1	17.5	0.00e+00	0	41	0	492830720	55	5207
2026-01-24 08:43:42.24	68.59	28.75	-42.6	-45.2	17.4	0.00e+00	0	41	0	494927872	55	5241
2026-01-24 08:43:43.25	68.26	28.79	-42.5	-45.2	17.4	0.00e+00	0	41	0	497025024	55	5227
2026-01-24 08:43:44.25	67.94	28.83	-42.4	-44.9	17.6	0.00e+00	0	41	0	498073600	55	5078
2026-01-24 08:43:45.25	67.62	28.87	-42.4	-45.0	17.6	0.00e+00	0	41	0	500170752	55	5131
2026-01-24 08:43:46.25	67.29	28.91	-42.4	-44.9	17.7	0.00e+00	0	41	0	502267904	55	5081
2026-01-24 08:43:47.25	66.97	28.94	-42.4	-44.9	17.6	0.00e+00	0	41	0	504365056	55	5087
2026-01-24 08:43:48.25	66.64	28.98	-42.7	-45.3	17.3	0.00e+00	0	41	0	506462208	55	5327
2026-01-24 08:43:49.25	66.32	29.02	-43.1	-45.8	17.0	0.00e+00	0	41	0	507510784	56	5299
2026-01-24 08:43:50.25	65.99	29.05	-43.0	-45.8	17.1	0.00e+00	0	41	0	509607936	56	5282
2026-01-24 08:43:51.26	65.66	29.08	-43.0	-45.7	17.1	0.00e+00	0	41	0	511705088	56	5230
2026-01-24 08:43:52.26	65.33	29.12	-43.1	-45.8	17.0	0.00e+00	0	41	0	513802240	56	5310
2026-01-24 08:43:53.26	65.00	29.15	-43.1	-45.8	17.0	0.00e+00	0	41	0	515899392	56	5319
2026-01-24 08:43:54.26	64.67	29.18	-43.2	-45.9	16.9	0.00e+00	0	41	0	516947968	56	5391
2026-01-24 08:43:55.26	64.34	29.21	-43.1	-45.9	16.9	0.00e+00	0	41	0	519045120	57	5056
2026-01-24 08:43:56.26	64.01	29.24	-43.4	-46.2	16.6	0.00e+00	0	41	0	521142272	57	5244
2026-01-24 08:43:57.26	63.68	29.26	-43.4	-46.2	16.6	0.00e+00	0	41	0	523239424	57	5251
2026-01-24 08:43:58.26	63.35	29.29	-43.4	-46.2	16.6	0.00e+00	0	41	0	525336576	57	5254
2026-01-24 08:43:59.26	63.01	29.31	-43.4	-46.2	16.6	0.00e+00	0	41	0	526385152	57	5276
2026-01-24 08:44:00.26	62.68	29.34	-43.3	-46.1	16.7	0.00e+00	0	41	0	528482304	57	5209
2026-01-24 08:44:01.26	62.35	29.36	-43.3	-46.1	16.7	0.00e+00	0	41	0	530579456	57	5211
2026-01-24 08:44:02.27	62.01	29.38	-43.4	-46.2	16.6	0.00e+00	0	41	0	532676608	57	5265
2026-01-24 08:44:03.27	61.68	29.40	-43.3	-46.2	16.6	0.00e+00	0	41	0	534773760	57	5230
2026-01-24 08:44:04.27	61.34	29.42	-43.4	-46.2	16.6	0.00e+00	0	42	0	535822336	57	5271
2026-01-24 08:44:05.27	61.01	29.44	-43.3	-46.1	16.7	0.00e+00	0	41	0	537919488	57	5192
2026-01-24 08:44:06.27	60.67	29.46	-43.6	-46.5	16.3	0.00e+00	0	41	0	540016640	57	5460
2026-01-24 08:44:07.27	60.33	29.48	-43.8	-46.9	15.9	0.00e+00	0	41	0	542113792	58	5362
2026-01-24 08:44:08.28	59.99	29.49	-43.8	-46.8	16.1	0.00e+00	0	41	0	543162368	58	5292
2026-01-24 08:44:09.28	59.66	29.51	-43.6	-46.6	16.3	0.00e+00	0	41	0	545259520	58	5165
2026-01-24 08:44:10.27	59.32	29.52	-43.3	-46.2	16.7	0.00e+00	0	41	0	547356672	58	4937
2026-01-24 08:44:11.27	58.99	29.53	-43.4	-46.3	16.6	0.00e+00	0	41	0	549453824	58	4999
2026-01-24 08:44:12.28	58.65	29.54	-43.4	-46.3	16.5	0.00e+00	0	41	0	551550976	58	5022
2026-01-24 08:44:13.27	58.31	29.55	-43.5	-46.3	16.5	0.00e+00	0	41	0	552599552	58	5039
2026-01-24 08:44:14.28	57.97	29.56	-43.4	-46.3	16.4	0.00e+00	0	41	0	554696704	58	5040
2026-01-24 08:44:15.28	57.63	29.57	-43.4	-46.3	16.6	0.00e+00	0	41	0	556793856	58	5010
2026-01-24 08:44:16.28	57.30	29.58	-43.5	-46.5	16.4	0.00e+00	0	41	0	558891008	58	5101
2026-01-24 08:44:17.28	56.96	29.58	-43.4	-46.3	16.5	0.00e+00	0	41	0	560988160	58	5038
2026-01-24 08:44:18.29	56.62	29.59	-43.4	-46.3	16.5	0.00e+00	0	42	0	562036736	58	5017
2026-01-24 08:44:19.29	56.28	29.59	-43.2	-46.0	16.9	0.00e+00	0	41	0	564133888	58	4853
2026-01-24 08:44:20.29	55.94	29.59	-43.2	-46.0	16.8	0.00e+00	0	41	0	566231040	58	4816
2026-01-24 08:44:21.29	55.60	29.59	-43.3	-46.1	16.8	0.00e+00	0	41	0	568328192	58	4895
2026-01-24 08:44:22.29	55.26	29.59	-43.3	-46.1	16.7	0.00e+00	0	42	0	570425344	58	4898
2026-01-24 08:44:23.29	54.92	29.59	-43.1	-45.8	17.0	0.00e+00	0	42	0	571473920	58	4757
2026-01-24 08:44:24.29	54.58	29.59	-43.2	-46.0	16.9	0.00e+00	0	41	0	573571072	58	4815
2026-01-24 08:44:25.29	54.25	29.58	-42.9	-45.6	17.2	0.00e+00	0	41	0	575668224	57	4897
2026-01-24 08:44:26.29	53.91	29.58	-42.8	-45.5	17.3	0.00e+00	0	42	0	577765376	57	4848
2026-01-24 08:44:27.29	53.57	29.57	-42.8	-45.5	17.3	0.00e+00	0	41	0	578813952	57	4844
2026-01-24 08:44:28.29	53.23	29.57	-42.9	-45.6	17.3	0.00e+00	0	41	0	580911104	57	4888
2026-01-24 08:44:29.28	52.90	29.56	-42.8	-45.5	17.3	0.00e+00	0	41	0	583008256	57	4838
2026-01-24 08:44:30.29	52.56	29.55	-42.7	-45.4	17.4	0.00e+00	0	41	0	585105408	57	4790
2026-01-24 08:44:31.29	52.22	29.54	-42.5	-45.1	17.7	0.00e+00	0	41	0	587202560	57	4626
2026-01-24 08:44:32.29	51.88	29.53	-42.4	-45.0	17.8	0.00e+00	0	41	0	588251136	56	4848
2026-01-24 08:44:33.29	51.55	29.52	-42.4	-44.9	18.0	0.00e+00	0	41	0	590348288	56	4782
2026-01-24 08:44:34.29	51.21	29.50	-42.4	-45.0	17.8	0.00e+00	0	41	0	592445440	56	4833
2026-01-24 08:44:35.30	50.87	29.49	-42.6	-45.2	17.7	0.00e+00	0	41	0	594542592	56	4935
2026-01-24 08:44:36.30	50.53	29.47	-42.7	-45.4	17.5	0.00e+00	0	41	0	596639744	56	5061
2026-01-24 08:44:37.30	50.20	29.46	-42.8	-45.4	17.4	0.00e+00	0	41	0	597688320	56	5087
2026-01-24 08:44:38.30	49.86	29.44	-42.8	-45.4	17.4	0.00e+00	0	41	0	599785472	56	5094
2026-01-24 08:44:39.31	49.52	29.42	-42.7	-45.3	17.6	0.00e+00	0	41	0	601882624	56	4999
2026-01-24 08:44:40.30	49.19	29.40	-42.4	-44.9	17.9	0.00e+00	0	42	0	603979776	56	4795
2026-01-24 08:44:41.31	48.86	29.38	-42.3	-44.8	18.0	0.00e+00	0	42	0	606076928	56	4743
2026-01-24 08:44:42.31	48.52	29.36	-42.4	-44.9	17.9	0.00e+00	0	42	0	607125504	56	4811
2026-01-24 08:44:43.31	48.19	29.33	-42.5	-45.0	17.8	0.00e+00	0	42	0	609222656	56	4846
2026-01-24 08:44:44.31	47.86	29.31	-42.6	-45.2	17.8	0.00e+00	0	41	0	611319808	56	4932
2026-01-24 08:44:45.31	47.52	29.28	-42.5	-45.1	17.8	0.00e+00	0	41	0	613416960	56	4879
2026-01-24 08:44:46.31	47.19	29.26	-42.3	-44.9	18.0	0.00e+00	0	42	0	615514112	56	4761
2026-01-24 08:44:47.31	46.86	29.23	-42.4	-44.9	17.9	0.00e+00	0	41	0	616562688	56	4798
2026-01-24 08:44:48.31	46.53	29.20	-42.5	-45.0	17.9	0.00e+00	0	41	0	618659840	56	4843
2026-01-24 08:44:49.31	46.20	29.17	-42.5	-45.1	17.8	0.00e+00	0	41	0	620756992	56	4882
2026-01-24 08:44:50.32	45.87	29.14	-42.5	-45.0	17.8	0.00e+00	0	41	0	622854144	56	4861
2026-01-24 08:44:51.32	45.54	29.11	-42.4	-44.9	17.9	0.00e+00	0	41	0	623902720	56	4783
2026-01-24 08:44:52.32	45.21	29.08	-42.3	-44.8	18.0	0.00e+00	0	41	0	625999872	56	4715
2026-01-24 08:44:53.32	44.89	29.04	-42.2	-44.6	18.2	0.00e+00	0	42	0	628097024	56	4649
2026-01-24 08:44:54.32	44.56	29.01	-42.2	-44.7	18.1	0.00e+00	0	41	0	630194176	56	4698
2026-01-24 08:44:55.32	44.23	28.97	-42.3	-44.8	18.0	0.00e+00	0	42	0	632291328	56	4724
2026-01-24 08:44:56.32	43.91	28.94	-42.3	-44.8	18.1	0.00e+00	0	42	0	633339904	56	4723
2026-01-24 08:44:57.32	43.58	28.90	-42.3	-44.9	18.0	0.00e+00	0	42	0	635437056	56	4762
2026-01-24 08:44:58.32	43.26	28.86	-42.5	-45.0	17.8	0.00e+00	0	41	0	637534208	56	4865
2026-01-24 08:44:59.32	42.94	28.82	-42.6	-45.2	17.6	0.00e+00	0	41	0	639631360	56	4960
2026-01-24 08:45:00.32	42.62	28.78	-42.8	-45.4	17.4	0.00e+00	0	42	0	641728512	56	5085
2026-01-24 08:45:01.32	42.30	28.74	-43.0	-45.7	17.2	0.00e+00	0	41	0	642777088	56	5243
2026-01-24 08:45:02.32	41.98	28.70	-43.1	-45.8	17.0	0.00e+00	0	41	0	644874240	56	5320
2026-01-24 08:45:03.33	41.65	28.65	-43.1	-45.9	17.0	0.00e+00	0	42	0	646971392	56	5356
2026-01-24 08:45:04.32	41.34	28.61	-43.1	-45.8	17.0	0.00e+00	0	42	0	649068544	57	5036
2026-01-24 08:45:05.33	41.02	28.56	-43.2	-46.0	16.8	0.00e+00	0	41	0	650117120	57	5125
2026-01-24 08:45:06.33	40.70	28.52	-43.3	-46.1	16.8	0.00e+00	0	41	0	652214272	57	5185
2026-01-24 08:45:07.33	40.39	28.47	-43.3	-46.1	16.8	0.00e+00	0	41	0	654311424	57	5182
2026-01-24 08:45:08.34	40.07	28.42	-43.3	-46.1	16.7	0.00e+00	0	42	0	656408576	57	5209
2026-01-24 08:45:09.34	39.75	28.37	-43.3	-46.1	16.8	0.00e+00	0	42	0	658505728	57	5165
2026-01-24 08:45:10.34	39.44	28.32	-43.3	-46.1	16.7	0.00e+00	0	41	0	659554304	57	5173
2026-01-24 08:45:11.34	39.13	28.27	-43.5	-46.3	16.5	0.00e+00	0	41	0	661651456	57	5334
2026-01-24 08:45:12.34	38.82	28.22	-43.6	-46.5	16.3	0.00e+00	0	41	0	663748608	57	5440
2026-01-24 08:45:13.34	38.51	28.17	-43.4	-46.3	16.6	0.00e+00	0	41	0	665845760	57	5291
2026-01-24 08:45:14.34	38.20	28.12	-43.4	-46.2	16.7	0.00e+00	0	42	0	667942912	57	5247
2026-01-24 08:45:15.34	37.89	28.06	-43.4	-46.2	16.7	0.00e+00	0	41	0	668991488	57	5237
2026-01-24 08:45:16.34	37.59	28.01	-43.4	-46.2	16.6	0.00e+00	0	42	0	671088640	57	5263
2026-01-24 08:45:17.35	37.28	27.95	-43.5	-46.4	16.5	0.00e+00	0	41	0	673185792	57	5349
2026-01-24 08:45:18.35	36.97	27.90	-43.5	-46.4	16.4	0.00e+00	0	41	0	675282944	57	5365
2026-01-24 08:45:19.35	36.67	27.84	-43.7	-46.7	16.2	0.00e+00	0	41	0	677380096	58	5220
2026-01-24 08:45:20.35	36.37	27.78	-43.6	-46.6	16.3	0.00e+00	0	41	0	678428672	58	5172
2026-01-24 08:45:21.36	36.06	27.72	-43.6	-46.6	16.3	0.00e+00	0	41	0	680525824	58	5165
2026-01-24 08:45:22.36	35.76	27.66	-43.7	-46.6	16.2	0.00e+00	0	41	0	682622976	58	5216
2026-01-24 08:45:23.36	35.46	27.60	-43.6	-46.5	16.3	0.00e+00	0	42	0	684720128	58	5132
2026-01-24 08:45:24.36	35.17	27.54	-43.4	-46.3	16.6	0.00e+00	0	41	0	686817280	58	5005
2026-01-24 08:45:25.36	34.87	27.48	-43.5	-46.3	16.5	0.00e+00	0	41	0	687865856	58	5032
2026-01-24 08:45:26.37	34.57	27.42	-43.3	-46.1	16.7	0.00e+00	0	41	0	689963008	58	4926
2026-01-24 08:45:27.37	34.28	27.36	-43.2	-46.0	16.8	0.00e+00	0	42	0	692060160	58	4830
2026-01-24 08:45:28.37	33.98	27.29	-43.2	-46.0	16.8	0.00e+00	0	42	0	694157312	58	4840
2026-01-24 08:45:29.37	33.69	27.23	-43.2	-46.0	16.8	0.00e+00	0	41	0	695205888	58	4827
2026-01-24 08:45:30.37	33.40	27.16	-43.2	-46.0	16.9	0.00e+00	0	41	0	697303040	58	4826
2026-01-24 08:45:31.37	33.11	27.10	-43.1	-45.9	16.9	0.00e+00	0	41	0	699400192	58	4806
2026-01-24 08:45:32.37	32.82	27.03	-43.1	-45.9	17.0	0.00e+00	0	41	0	701497344	58	4763
2026-01-24 08:45:33.38	32.53	26.96	-43.0	-45.8	17.0	0.00e+00	0	42	0	703594496	58	4741
2026-01-24 08:45:34.38	32.25	26.90	-43.1	-45.8	17.0	0.00e+00	0	42	0	704643072	58	4756
2026-01-24 08:45:35.38	31.96	26.83	-43.0	-45.7	17.1	0.00e+00	0	41	0	706740224	58	4698
2026-01-24 08:45:36.38	31.68	26.76	-42.8	-45.5	17.3	0.00e+00	0	42	0	708837376	57	4820
2026-01-24 08:45:37.38	31.40	26.69	-42.7	-45.4	17.4	0.00e+00	0	42	0	710934528	57	4771
2026-01-24 08:45:38.38	31.12	26.62	-42.6	-45.2	17.6	0.00e+00	0	41	0	713031680	57	4661
2026-01-24 08:45:39.38	30.84	26.55	-42.6	-45.2	17.6	0.00e+00	0	41	0	714080256	57	4687
2026-01-24 08:45:40.38	30.56	26.48	-42.4	-45.0	17.8	0.00e+00	0	42	0	716177408	56	4864
2026-01-24 08:45:41.38	30.28	26.41	-42.5	-45.1	17.7	0.00e+00	0	42	0	718274560	56	4898
2026-01-24 08:45:42.38	30.01	26.34	-42.6	-45.3	17.6	0.00e+00	0	41	0	720371712	56	4985
2026-01-24 08:45:43.38	29.73	26.26	-42.7	-45.5	17.4	0.00e+00	0	41	0	722468864	56	5116
2026-01-24 08:45:44.38	29.46	26.19	-42.7	-45.4	17.4	0.00e+00	0	42	0	723517440	56	5063
2026-01-24 08:45:45.38	29.19	26.12	-42.7	-45.4	17.5	0.00e+00	0	41	0	725614592	56	5049
2026-01-24 08:45:46.38	28.92	26.04	-42.6	-45.3	17.5	0.00e+00	0	41	0	727711744	56	5014
2026-01-24 08:45:47.38	28.65	25.97	-42.5	-45.0	17.8	0.00e+00	0	41	0	729808896	56	4866
2026-01-24 08:45:48.38	28.38	25.89	-42.5	-45.0	17.8	0.00e+00	0	41	0	730857472	56	4870
2026-01-24 08:45:49.38	28.11	25.82	-42.5	-45.0	17.7	0.00e+00	0	41	0	732954624	56	4869
2026-01-24 08:45:50.38	27.85	25.74	-42.4	-44.9	17.9	0.00e+00	0	42	0	735051776	56	4783
2026-01-24 08:45:51.39	27.58	25.67	-42.2	-44.7	18.1	0.00e+00	0	42	0	737148928	56	4663
2026-01-24 08:45:52.39	27.32	25.59	-42.1	-44.6	18.2	0.00e+00	0	41	0	739246080	56	4612
2026-01-24 08:45:53.39	27.05	25.51	-42.1	-44.5	18.3	0.00e+00	0	42	0	740294656	56	4573
2026-01-24 08:45:54.39	26.79	25.43	-42.1	-44.6	18.2	0.00e+00	0	41	0	742391808	56	4637
2026-01-24 08:45:55.39	26.53	25.36	-42.0	-44.5	18.3	0.00e+00	0	41	0	744488960	56	4574
2026-01-24 08:45:56.39	26.28	25.28	-42.0	-44.5	18.3	0.00e+00	0	42	0	746586112	56	4560
2026-01-24 08:45:57.40	26.02	25.20	-42.0	-44.5	18.3	0.00e+00	0	42	0	748683264	56	4575
2026-01-24 08:45:58.40	25.76	25.12	-42.0	-44.5	18.3	0.00e+00	0	41	0	749731840	56	4568
2026-01-24 08:45:59.40	25.51	25.04	-41.7	-44.2	18.5	0.00e+00	0	41	0	751828992	55	4652
2026-01-24 08:46:00.40	25.26	24.96	-41.7	-44.1	18.5	0.00e+00	0	41	0	753926144	55	4634
2026-01-24 08:46:01.40	25.00	24.88	-41.6	-44.0	18.6	0.00e+00	0	41	0	756023296	55	4576
2026-01-24 08:46:02.40	24.75	24.80	-41.5	-43.9	18.7	0.00e+00	0	41	0	758120448	55	4514
2026-01-24 08:46:03.40	24.51	24.71	-41.3	-43.7	18.9	0.00e+00	0	42	0	759169024	54	4686
2026-01-24 08:46:04.41	24.26	24.63	-41.3	-43.7	18.9	0.00e+00	0	41	0	761266176	54	4674
2026-01-24 08:46:05.41	24.01	24.55	-41.3	-43.8	18.8	0.00e+00	0	41	0	763363328	54	4721
2026-01-24 08:46:06.41	23.76	24.47	-41.2	-43.7	18.9	0.00e+00	0	41	0	765460480	54	4678
2026-01-24 08:46:07.41	23.52	24.39	-41.3	-43.8	18.8	0.00e+00	0	41	0	767557632	54	4743
2026-01-24 08:46:08.41	23.28	24.30	-41.3	-43.7	18.9	0.00e+00	0	41	0	768606208	54	4696
2026-01-24 08:46:09.40	23.04	24.22	-41.1	-43.5	19.1	0.00e+00	0	41	0	770703360	54	4555
2026-01-24 08:46:10.40	22.80	24.14	-40.9	-43.2	19.3	0.00e+00	0	42	0	772800512	53	4704
2026-01-24 08:46:11.40	22.56	24.05	-40.9	-43.3	19.3	0.00e+00	0	41	0	774897664	53	4706
2026-01-24 08:46:12.40	22.33	23.97	-40.7	-43.0	19.5	0.00e+00	0	41	0	775946240	53	4591
2026-01-24 08:46:13.40	22.09	23.89	-40.7	-43.0	19.6	0.00e+00	0	41	0	778043392	53	4555
2026-01-24 08:46:14.40	21.85	23.80	-40.5	-42.8	19.7	0.00e+00	0	42	0	780140544	53	4463
2026-01-24 08:46:15.40	21.62	23.72	-40.5	-42.7	19.8	0.00e+00	0	41	0	782237696	52	4674
2026-01-24 08:46:16.40	21.39	23.63	-40.5	-42.8	19.8	0.00e+00	0	42	0	784334848	52	4709
2026-01-24 08:46:17.39	21.16	23.55	-40.5	-42.7	19.8	0.00e+00	0	41	0	785383424	52	4681
2026-01-24 08:46:18.40	20.93	23.46	-40.5	-42.8	19.7	0.00e+00	0	42	0	787480576	52	4716
2026-01-24 08:46:19.40	20.70	23.38	-40.7	-42.9	19.6	0.00e+00	0	42	0	789577728	52	4781
2026-01-24 08:46:20.40	20.47	23.29	-40.6	-42.9	19.7	0.00e+00	0	42	0	791674880	52	4783
2026-01-24 08:46:21.40	20.25	23.20	-40.7	-42.9	19.6	0.00e+00	0	41	0	792723456	52	4813
2026-01-24 08:46:22.40	20.02	23.12	-40.5	-42.7	19.8	0.00e+00	0	42	0	794820608	52	4687
2026-01-24 08:46:23.40	19.80	23.03	-40.2	-42.4	20.1	0.00e+00	0	41	0	796917760	52	4512
2026-01-24 08:46:24.40	19.58	22.95	-40.1	-42.3	20.2	0.00e+00	0	42	0	799014912	52	4456
2026-01-24 08:46:25.40	19.36	22.86	-40.0	-42.2	20.4	0.00e+00	0	41	0	801112064	51	4655
2026-01-24 08:46:26.40	19.14	22.77	-39.9	-42.0	20.5	0.00e+00	0	41	0	802160640	51	4596
2026-01-24 08:46:27.40	18.92	22.69	-39.9	-41.9	20.6	0.00e+00	0	41	0	804257792	51	4544
2026-01-24 08:46:28.40	18.70	22.60	-39.8	-41.9	20.6	0.00e+00	0	41	0	806354944	51	4519
2026-01-24 08:46:29.41	18.49	22.51	-39.8	-41.9	20.6	0.00e+00	0	42	0	808452096	51	4542
2026-01-24 08:46:30.41	18.27	22.42	-39.8	-42.0	20.6	0.00e+00	0	41	0	810549248	51	4551
2026-01-24 08:46:31.41	18.06	22.34	-39.9	-42.1	20.5	0.00e+00	0	41	0	811597824	51	4626
2026-01-24 08:46:32.41	17.85	22.25	-39.9	-42.1	20.5	0.00e+00	0	42	0	813694976	51	4599
2026-01-24 08:46:33.42	17.63	22.16	-39.9	-42.1	20.5	0.00e+00	0	41	0	815792128	51	4625
2026-01-24 08:46:34.42	17.42	22.07	-39.9	-42.1	20.4	0.00e+00	0	41	0	817889280	51	4618
2026-01-24 08:46:35.42	17.22	21.98	-40.1	-42.2	20.3	0.00e+00	0	42	0	819986432	51	4680
2026-01-24 08:46:36.42	17.01	21.90	-39.8	-41.9	20.7	0.00e+00	0	42	0	821035008	51	4509
2026-01-24 08:46:37.42	16.80	21.81	-39.8	-41.9	20.6	0.00e+00	0	42	0	823132160	51	4529
2026-01-24 08:46:38.42	16.60	21.72	-39.8	-41.9	20.6	0.00e+00	0	42	0	825229312	51	4514
2026-01-24 08:46:39.42	16.40	21.63	-39.8	-41.9	20.6	0.00e+00	0	42	0	827326464	51	4537
2026-01-24 08:46:40.42	16.19	21.54	-39.9	-42.0	20.5	0.00e+00	0	42	0	829423616	51	4569
2026-01-24 08:46:41.43	15.99	21.45	-39.9	-42.1	20.5	0.00e+00	0	42	0	830472192	51	4612
2026-01-24 08:46:42.43	15.79	21.36	-40.0	-42.2	20.2	0.00e+00	0	41	0	832569344	51	4653
2026-01-24 08:46:43.43	15.59	21.28	-40.0	-42.2	20.4	0.00e+00	0	42	0	834666496	51	4655
2026-01-24 08:46:44.43	15.39	21.19	-40.2	-42.4	20.2	0.00e+00	0	42	0	836763648	51	4777
2026-01-24 08:46:45.43	15.20	21.10	-40.2	-42.4	20.2	0.00e+00	0	41	0	837812224	51	4768
2026-01-24 08:46:46.43	15.00	21.01	-40.3	-42.5	20.1	0.00e+00	0	41	0	839909376	51	4819
2026-01-24 08:46:47.43	14.81	20.92	-40.1	-42.2	20.3	0.00e+00	0	42	0	842006528	51	4699
2026-01-24 08:46:48.44	14.61	20.83	-40.1	-42.3	20.3	0.00e+00	0	41	0	844103680	51	4716
2026-01-24 08:46:49.44	14.42	20.74	-40.2	-42.3	20.2	0.00e+00	0	41	0	846200832	51	4736
2026-01-24 08:46:50.44	14.23	20.65	-40.2	-42.3	20.2	0.00e+00	0	42	0	847249408	51	4745
2026-01-24 08:46:51.44	14.04	20.56	-40.3	-42.4	20.1	0.00e+00	0	42	0	849346560	51	4804
2026-01-24 08:46:52.44	13.85	20.48	-40.4	-42.5	20.1	0.00e+00	0	41	0	851443712	51	4841
2026-01-24 08:46:53.44	13.66	20.39	-40.5	-42.6	19.9	0.00e+00	0	42	0	853540864	51	4905
2026-01-24 08:46:54.44	13.48	20.30	-40.4	-42.6	20.0	0.00e+00	0	42	0	855638016	51	4898
2026-01-24 08:46:55.44	13.29	20.21	-40.5	-42.6	19.9	0.00e+00	0	42	0	856686592	51	4922
2026-01-24 08:46:56.44	13.11	20.12	-40.4	-42.6	20.0	0.00e+00	0	42	0	858783744	51	4888
2026-01-24 08:46:57.44	12.92	20.03	-40.4	-42.6	20.0	0.00e+00	0	42	0	860880896	51	4907
2026-01-24 08:46:58.44	12.74	19.94	-40.4	-42.6	19.9	0.00e+00	0	42	0	862978048	51	4907
2026-01-24 08:46:59.44	12.56	19.85	-40.5	-42.9	19.7	0.00e+00	0	42	0	865075200	51	5045
2026-01-24 08:47:00.42	12.38	19.77	-40.5	-42.9	19.7	0.00e+00	0	41	0	866123776	51	5065
2026-01-24 08:47:01.42	12.20	19.68	-40.6	-43.0	19.6	0.00e+00	0	42	0	868220928	51	5147
2026-01-24 08:47:02.42	12.03	19.59	-40.7	-43.1	19.4	0.00e+00	0	41	0	870318080	52	4925
2026-01-24 08:47:03.42	11.85	19.50	-40.8	-43.2	19.4	0.00e+00	0	41	0	872415232	52	4945
2026-01-24 08:47:04.42	11.67	19.41	-40.8	-43.2	19.3	0.00e+00	0	42	0	873463808	52	4963
2026-01-24 08:47:05.42	11.50	19.32	-40.9	-43.3	19.0	0.00e+00	0	41	0	875560960	52	5039
2026-01-24 08:47:06.43	11.32	19.23	-41.0	-43.4	19.1	0.00e+00	0	41	0	877658112	52	5067
2026-01-24 08:47:07.42	11.15	19.14	-40.9	-43.3	19.2	0.00e+00	0	41	0	879755264	52	5017
2026-01-24 08:47:08.42	10.98	19.06	-40.9	-43.4	19.2	0.00e+00	0	41	0	881852416	52	5053
2026-01-24 08:47:09.42	10.81	18.97	-40.9	-43.5	19.1	0.00e+00	0	42	0	882900992	52	5106
2026-01-24 08:47:10.42	10.64	18.88	-40.9	-43.5	19.1	0.00e+00	0	42	0	884998144	52	5108
2026-01-24 08:47:11.43	10.47	18.79	-41.0	-43.5	19.0	0.00e+00	0	41	0	887095296	52	5157
2026-01-24 08:47:12.43	10.30	18.70	-41.0	-43.6	18.9	0.00e+00	0	42	0	889192448	52	5177
2026-01-24 08:47:13.43	10.14	18.61	-41.1	-43.6	18.9	0.00e+00	0	42	0	891289600	52	5196
2026-01-24 08:47:14.43	9.97	18.52	-41.2	-43.8	18.8	0.00e+00	0	41	0	892338176	53	4995
2026-01-24 08:47:15.43	9.81	18.44	-41.2	-43.8	18.7	0.00e+00	0	42	0	894435328	53	5010
2026-01-24 08:47:16.43	9.64	18.35	-41.2	-43.7	18.8	0.00e+00	0	41	0	896532480	53	4969
2026-01-24 08:47:17.43	9.48	18.26	-41.3	-43.8	18.7	0.00e+00	0	41	0	898629632	53	5027
2026-01-24 08:47:18.44	9.32	18.17	-41.3	-43.9	18.6	0.00e+00	0	42	0	899678208	53	5064
2026-01-24 08:47:19.43	9.16	18.08	-41.3	-43.9	18.6	0.00e+00	0	41	0	901775360	53	5051
2026-01-24 08:47:20.44	9.00	18.00	-41.3	-43.9	18.6	0.00e+00	0	41	0	903872512	53	5054
2026-01-24 08:47:21.44	8.84	17.91	-41.2	-43.8	18.7	0.00e+00	0	42	0	905969664	53	5034
2026-01-24 08:47:22.44	8.68	17.82	-41.2	-43.9	18.6	0.00e+00	0	41	0	908066816	53	5075
2026-01-24 08:47:23.44	8.52	17.73	-41.2	-43.8	18.6	0.00e+00	0	41	0	909115392	53	5040
2026-01-24 08:47:24.44	8.37	17.64	-41.2	-43.9	18.6	0.00e+00	0	41	0	911212544	53	5066
2026-01-24 08:47:25.44	8.21	17.56	-41.4	-44.0	18.5	0.00e+00	0	42	0	913309696	53	5134
2026-01-24 08:47:26.44	8.06	17.47	-41.4	-44.0	18.5	0.00e+00	0	42	0	915406848	53	5137
2026-01-24 08:47:27.43	7.90	17.38	-41.6	-44.1	18.4	0.00e+00	0	41	0	917504000	53	5197
2026-01-24 08:47:28.43	7.75	17.30	-41.6	-44.1	18.4	0.00e+00	0	41	0	918552576	53	5216
2026-01-24 08:47:29.44	7.60	17.21	-41.6	-44.1	18.4	0.00e+00	0	42	0	920649728	53	5181
2026-01-24 08:47:30.44	7.45	17.12	-41.6	-44.2	18.3	0.00e+00	0	41	0	922746880	53	5224
2026-01-24 08:47:31.44	7.30	17.04	-41.5	-44.1	18.4	0.00e+00	0	42	0	924844032	53	5170
2026-01-24 08:47:32.44	7.15	16.95	-41.5	-44.1	18.4	0.00e+00	0	42	0	926941184	53	5176
2026-01-24 08:47:33.44	7.00	16.86	-41.6	-44.2	18.3	0.00e+00	0	41	0	927989760	53	5263
2026-01-24 08:47:34.44	6.85	16.78	-41.5	-44.1	18.3	0.00e+00	0	42	0	930086912	53	5218
2026-01-24 08:47:35.44	6.71	16.69	-41.7	-44.4	18.1	0.00e+00	0	42	0	932184064	54	5060
2026-01-24 08:47:36.44	6.56	16.60	-41.7	-44.4	18.1	0.00e+00	0	42	0	934281216	54	5070
2026-01-24 08:47:37.44	6.42	16.52	-41.8	-44.5	18.0	0.00e+00	0	42	0	935329792	54	5136
2026-01-24 08:47:38.44	6.27	16.43	-41.9	-44.6	17.9	0.00e+00	0	42	0	937426944	54	5190
2026-01-24 08:47:39.44	6.13	16.34	-42.0	-44.7	17.8	0.00e+00	0	41	0	939524096	54	5250
2026-01-24 08:47:40.44	5.99	16.26	-42.0	-44.8	17.7	0.00e+00	0	41	0	941621248	54	5312
2026-01-24 08:47:41.44	5.85	16.17	-41.9	-44.7	17.9	0.00e+00	0	42	0	943718400	54	5253
2026-01-24 08:47:42.44	5.71	16.09	-41.9	-44.7	17.8	0.00e+00	0	41	0	944766976	54	5243
2026-01-24 08:47:43.44	5.57	16.00	-41.9	-44.7	17.8	0.00e+00	0	41	0	946864128	54	5221
2026-01-24 08:47:44.44	5.43	15.92	-42.0	-44.8	17.7	0.00e+00	0	42	0	948961280	54	5320
2026-01-24 08:47:45.45	5.29	15.83	-42.0	-44.7	17.8	0.00e+00	0	42	0	951058432	54	5264
2026-01-24 08:47:46.45	5.15	15.75	-42.2	-44.9	17.5	0.00e+00	0	42	0	953155584	55	5099
2026-01-24 08:47:47.45	5.02	15.66	-42.0	-44.7	17.8	0.00e+00	0	42	0	954204160	55	4946
2026-01-24 08:47:48.45	4.88	15.58	-42.2	-44.9	17.6	0.00e+00	0	42	0	956301312	55	5083
2026-01-24 08:47:49.46	4.74	15.49	-42.2	-44.9	17.6	0.00e+00	0	42	0	958398464	55	5098
2026-01-24 08:47:50.46	4.61	15.41	-42.2	-45.0	17.5	0.00e+00	0	41	0	960495616	55	5135
2026-01-24 08:47:51.46	4.48	15.32	-42.2	-45.0	17.4	0.00e+00	0	42	0	962592768	55	5150
2026-01-24 08:47:52.46	4.34	15.24	-42.2	-45.1	17.4	0.00e+00	0	42	0	963641344	55	5188
2026-01-24 08:47:53.47	4.21	15.15	-42.3	-45.1	17.3	0.00e+00	0	42	0	965738496	55	5212
2026-01-24 08:47:54.47	4.08	15.07	-42.3	-45.1	17.4	0.00e+00	0	42	0	967835648	55	5205
2026-01-24 08:47:55.47	3.95	14.99	-42.3	-45.1	17.3	0.00e+00	0	42	0	969932800	55	5212
2026-01-24 08:47:56.47	3.82	14.90	-42.3	-45.2	17.3	0.00e+00	0	42	0	972029952	55	5226
2026-01-24 08:47:57.47	3.69	14.82	-42.3	-45.1	17.3	0.00e+00	0	42	0	973078528	55	5184
2026-01-24 08:47:58.47	3.56	14.73	-42.3	-45.1	17.4	0.00e+00	0	42	0	975175680	55	5176
2026-01-24 08:47:59.47	3.44	14.65	-42.3	-45.2	17.3	0.00e+00	0	42	0	977272832	55	5226
2026-01-24 08:48:00.48	3.31	14.57	-42.3	-45.2	17.3	0.00e+00	0	42	0	979369984	55	5264
2026-01-24 08:48:01.48	3.18	14.48	-42.3	-45.3	17.3	0.00e+00	0	41	0	980418560	55	5283
2026-01-24 08:48:02.48	3.06	14.40	-42.4	-45.4	17.2	0.00e+00	0	42	0	982515712	55	5365
2026-01-24 08:48:03.48	2.93	14.32	-42.3	-45.4	17.2	0.00e+00	0	42	0	984612864	55	5342
2026-01-24 08:48:04.48	2.81	14.24	-42.5	-45.6	17.0	0.00e+00	0	42	0	986710016	55	5494
2026-01-24 08:48:05.48	2.69	14.15	-42.4	-45.4	17.2	0.00e+00	0	42	0	988807168	55	5358
2026-01-24 08:48:06.48	2.56	14.07	-42.5	-45.5	17.1	0.00e+00	0	42	0	989855744	55	5438
2026-01-24 08:48:07.48	2.44	13.99	-42.5	-45.3	17.3	0.00e+00	0	42	0	991952896	55	5323
2026-01-24 08:48:08.48	2.32	13.91	-42.6	-45.4	17.2	0.00e+00	0	42	0	994050048	55	5357
2026-01-24 08:48:09.48	2.20	13.83	-42.5	-45.3	17.3	0.00e+00	0	42	0	996147200	55	5303
2026-01-24 08:48:10.48	2.08	13.74	-42.5	-45.3	17.3	0.00e+00	0	42	0	998244352	55	5293
2026-01-24 08:48:11.49	1.96	13.66	-42.5	-45.3	17.3	0.00e+00	0	42	0	999292928	55	5282
2026-01-24 08:48:12.49	1.84	13.58	-42.5	-45.3	17.3	0.00e+00	0	42	0	1001390080	55	5321
2026-01-24 08:48:13.49	1.73	13.50	-42.4	-45.2	17.4	0.00e+00	0	42	0	1003487232	55	5231
2026-01-24 08:48:14.49	1.61	13.42	-42.5	-45.3	17.3	0.00e+00	0	41	0	1005584384	55	5327
2026-01-24 08:48:15.49	1.49	13.34	-42.5	-45.4	17.2	0.00e+00	0	41	0	1007681536	55	5346
2026-01-24 08:48:16.48	1.38	13.26	-42.5	-45.4	17.1	0.00e+00	0	42	0	1008730112	55	5389
2026-01-24 08:48:17.49	1.26	13.18	-42.9	-45.8	16.9	0.00e+00	0	42	0	1010827264	56	5321
2026-01-24 08:48:18.48	1.15	13.10	-42.9	-45.9	16.9	0.00e+00	0	42	0	1012924416	56	5351
2026-01-24 08:48:19.48	1.04	13.02	-43.1	-46.1	16.7	0.00e+00	0	42	0	1015021568	56	5472
2026-01-24 08:48:20.49	0.92	12.93	-43.1	-46.1	16.6	0.00e+00	0	42	0	1016070144	56	5500
2026-01-24 08:48:21.49	0.81	12.85	-43.2	-46.2	16.5	0.00e+00	0	42	0	1018167296	56	5569
2026-01-24 08:48:22.48	0.70	12.78	-43.3	-46.3	16.4	0.00e+00	0	42	0	1020264448	57	5321
2026-01-24 08:48:23.48	0.59	12.70	-43.2	-46.3	16.5	0.00e+00	0	42	0	1022361600	57	5293
2026-01-24 08:48:24.48	0.48	12.62	-43.2	-46.3	16.4	0.00e+00	0	42	0	1024458752	57	5331
2026-01-24 08:48:25.48	0.37	12.54	-43.0	-46.2	16.5	0.00e+00	0	42	0	1025507328	57	5279
2026-01-24 08:48:26.48	0.26	12.46	-42.9	-46.2	16.5	0.00e+00	0	42	0	1027604480	57	5254
2026-01-24 08:48:27.48	0.15	12.38	-42.9	-46.4	16.4	0.00e+00	0	42	0	1029701632	57	5346
2026-01-24 08:48:28.49	0.04	12.30	-42.9	-46.3	16.5	0.00e+00	0	41	0	1031798784	57	5282
2026-01-24 08:48:29.49	359.93	12.22	-43.1	-46.4	16.3	0.00e+00	0	42	0	1033895936	57	5359
2026-01-24 08:48:30.49	359.83	12.14	-43.1	-46.3	16.4	0.00e+00	0	41	0	1034944512	57	5316
2026-01-24 08:48:31.48	359.72	12.06	-43.1	-46.3	16.4	0.00e+00	0	42	0	1037041664	57	5297
2026-01-24 08:48:32.48	359.62	11.99	-43.2	-46.3	16.4	0.00e+00	0	41	0	1039138816	57	5333
2026-01-24 08:48:33.49	359.51	11.91	-43.4	-46.5	16.2	0.00e+00	0	41	0	1041235968	57	5437
2026-01-24 08:48:34.49	359.41	11.83	-43.4	-46.5	16.2	0.00e+00	0	41	0	1042284544	57	5464
2026-01-24 08:48:35.48	359.30	11.75	-43.4	-46.6	16.1	0.00e+00	0	41	0	1044381696	57	5502
2026-01-24 08:48:36.48	359.20	11.67	-43.5	-46.7	16.0	0.00e+00	0	41	0	1046478848	57	5572
2026-01-24 08:48:37.48	359.10	11.60	-43.5	-46.8	15.9	0.00e+00	0	42	0	1048576000	57	5646
2026-01-24 08:48:38.48	359.00	11.52	-43.4	-46.8	15.9	0.00e+00	0	42	0	1050673152	57	5642
2026-01-24 08:48:39.48	358.89	11.44	-43.4	-46.8	15.9	0.00e+00	0	42	0	1051721728	57	5618
2026-01-24 08:48:40.49	358.79	11.36	-43.2	-46.7	16.0	0.00e+00	0	42	0	1053818880	57	5543
2026-01-24 08:48:41.49	358.69	11.29	-43.2	-46.8	15.9	0.00e+00	0	41	0	1055916032	57	5629
2026-01-24 08:48:42.49	358.59	11.21	-43.2	-46.7	16.0	0.00e+00	0	41	0	1058013184	57	5570
2026-01-24 08:48:43.49	358.49	11.13	-43.1	-46.6	16.1	0.00e+00	0	42	0	1060110336	57	5496
2026-01-24 08:48:44.49	358.39	11.06	-43.0	-46.4	16.2	0.00e+00	0	42	0	1061158912	57	5393
2026-01-24 08:48:45.49	358.29	10.98	-43.0	-46.4	16.3	0.00e+00	0	42	0	1063256064	57	5348
2026-01-24 08:48:46.48	358.20	10.90	-43.0	-46.4	16.2	0.00e+00	0	42	0	1065353216	57	5381
2026-01-24 08:48:47.48	358.10	10.83	-43.0	-46.3	16.4	0.00e+00	0	42	0	1067450368	57	5303
2026-01-24 08:48:48.48	358.00	10.75	-43.1	-46.3	16.3	0.00e+00	0	42	0	1069547520	57	5330
2026-01-24 08:48:49.48	357.91	10.68	-43.2	-46.4	16.3	0.00e+00	0	42	0	1070596096	57	5369
2026-01-24 08:48:50.49	357.81	10.60	-43.2	-46.4	16.3	0.00e+00	0	41	0	1072693248	57	5380
2026-01-24 08:48:51.49	357.71	10.53	-43.3	-46.5	16.2	0.00e+00	0	42	0	1074790400	57	5430
2026-01-24 08:48:52.49	357.62	10.45	-43.3	-46.5	16.1	0.00e+00	0	42	0	1076887552	57	5454
2026-01-24 08:48:53.49	357.53	10.38	-43.2	-46.5	16.1	0.00e+00	0	42	0	1078984704	57	5456
2026-01-24 08:48:54.49	357.43	10.30	-43.2	-46.7	15.9	0.00e+00	0	41	0	1080033280	57	5566
2026-01-24 08:48:55.49	357.34	10.23	-43.2	-46.8	15.8	0.00e+00	0	42	0	1082130432	57	5652
2026-01-24 08:48:56.50	357.24	10.15	-43.0	-46.6	16.0	0.00e+00	0	42	0	1084227584	57	5490
2026-01-24 08:48:57.50	357.15	10.08	-43.0	-46.7	15.9	0.00e+00	0	42	0	1086324736	57	5587
2026-01-24 08:48:58.50	357.06	10.00	-42.9	-46.8	15.8	0.00e+00	0	42	0	1087373312	57	5620
2026-01-24 08:48:59.50	356.97	9.93	-42.8	-46.8	15.8	0.00e+00	0	42	0	1089470464	57	5648
2026-01-24 08:49:00.50	356.88	9.85	-42.7	-46.8	15.9	0.00e+00	0	42	0	1091567616	57	5604
2026-01-24 08:49:01.50	356.79	9.78	-42.6	-46.9	15.8	0.00e+00	0	42	0	1093664768	57	5672
2026-01-24 08:49:02.50	356.70	9.71	-42.5	-47.0	15.6	0.00e+00	0	42	0	1095761920	56	6079
2026-01-24 08:49:03.50	356.61	9.63	-42.4	-47.1	15.6	0.00e+00	0	42	0	1096810496	56	6137
2026-01-24 08:49:04.50	356.52	9.56	-42.1	-47.1	15.5	0.00e+00	0	42	0	1098907648	56	6168
2026-01-24 08:49:05.51	356.43	9.48	-41.7	-47.0	15.4	0.00e+00	0	42	0	1101004800	55	6479
2026-01-24 08:49:06.51	356.34	9.41	-41.4	-47.1	15.3	0.00e+00	0	42	0	1103101952	54	6959
2026-01-24 08:49:07.51	356.26	9.34	-41.3	-47.5	14.9	0.00e+00	0	42	0	1105199104	54	7280
2026-01-24 08:49:08.51	356.17	9.26	-41.1	-47.3	15.1	0.00e+00	0	42	0	1106247680	54	7089
2026-01-24 08:49:09.51	356.08	9.19	-41.1	-47.5	14.9	0.00e+00	0	42	0	1108344832	54	7280
2026-01-24 08:49:10.51	356.00	9.12	-41.1	-47.5	14.9	0.00e+00	0	42	0	1110441984	54	7238
2026-01-24 08:49:11.51	355.91	9.05	-41.2	-47.5	14.8	7.00e-07	0	42	0	1112539136	54	7274
2026-01-24 08:49:12.51	355.82	8.97	-41.4	-48.4	14.1	0.00e+00	0	42	0	1114636288	54	8060
2026-01-24 08:49:13.51	355.74	8.90	-46.9	-63.8	3.8	1.10e+00	0	42	104	1114636288	64	26609
2026-01-24 08:49:14.50	355.66	8.83	-47.9	-63.9	3.8	1.49e+00	0	42	104	1114636288	67	22761
2026-01-24 08:49:15.50	355.57	8.76	-48.2	-64.0	3.8	1.49e+00	0	41	104	1114636288	67	22976
2026-01-24 08:49:16.50	355.49	8.69	-48.6	-64.1	3.8	1.49e+00	0	41	104	1114636288	67	23221
2026-01-24 08:49:17.49	355.41	8.62	-48.9	-64.3	3.8	1.49e+00	0	42	104	1114636288	68	22483
2026-01-24 08:49:18.49	355.32	8.55	-48.7	-64.3	3.8	1.49e+00	0	42	104	1114636288	68	22512
2026-01-24 08:49:19.48	355.24	8.48	-49.1	-64.4	3.8	1.49e+00	0	42	104	1114636288	68	22738
2026-01-24 08:49:20.48	355.16	8.40	-49.0	-64.4	3.8	1.49e+00	0	42	104	1114636288	69	21494
2026-01-24 08:49:21.47	355.08	8.33	-48.7	-64.5	3.8	1.49e+00	0	41	104	1114636288	69	21562
2026-01-24 08:49:22.47	355.00	8.26	-48.8	-64.5	3.8	1.49e+00	0	42	104	1114636288	69	21611
2026-01-24 08:49:23.46	354.92	8.19	-49.3	-64.5	3.8	1.49e+00	0	42	104	1114636288	69	21625
2026-01-24 08:49:24.46	354.84	8.12	-49.1	-64.5	3.8	1.49e+00	0	42	104	1114636288	69	21617
2026-01-24 08:49:25.45	354.76	8.05	-49.0	-64.5	3.8	1.49e+00	0	42	104	1114636288	69	21732
2026-01-24 08:49:26.45	354.68	7.98	-49.2	-64.5	3.8	1.49e+00	0	42	104	1114636288	69	21685
2026-01-24 08:49:27.44	354.60	7.91	-49.3	-64.5	3.8	1.49e+00	0	42	104	1114636288	69	21740
2026-01-24 08:49:28.44	354.52	7.84	-49.3	-64.6	3.8	1.49e+00	0	42	104	1114636288	69	21800
2026-01-24 08:49:29.44	354.44	7.77	-49.2	-64.5	3.8	1.49e+00	0	42	104	1114636288	69	21734
2026-01-24 08:49:30.43	354.37	7.70	-48.9	-64.5	3.8	1.49e+00	0	42	104	1114636288	69	21732
2026-01-24 08:49:31.43	354.29	7.63	-49.4	-64.6	3.8	1.49e+00	0	42	104	1114636288	69	21780
2026-01-24 08:49:32.43	354.21	7.57	-49.4	-64.6	3.8	1.49e+00	0	41	104	1114636288	69	21815
2026-01-24 08:49:33.43	354.14	7.50	-49.4	-64.6	3.8	1.49e+00	0	42	104	1114636288	69	21769
2026-01-24 08:49:34.42	354.06	7.43	-49.4	-64.6	3.8	1.49e+00	0	42	104	1114636288	69	21815
2026-01-24 08:49:35.42	353.98	7.36	-49.3	-64.6	3.8	1.49e+00	0	42	104	1114636288	69	21859
2026-01-24 08:49:36.43	353.91	7.29	-49.4	-64.6	3.8	1.49e+00	0	42	104	1114636288	69	21866
2026-01-24 08:49:37.42	353.83	7.22	-49.3	-64.5	3.8	1.49e+00	0	42	104	1114636288	69	21749
2026-01-24 08:49:38.42	353.76	7.15	-49.3	-64.6	3.8	1.49e+00	0	41	104	1114636288	69	21824
2026-01-24 08:49:39.42	353.68	7.08	-49.3	-64.6	3.8	1.49e+00	0	42	104	1114636288	69	21800
2026-01-24 08:49:40.41	353.61	7.02	-49.1	-64.6	3.8	1.49e+00	0	42	104	1114636288	69	21845
2026-01-24 08:49:41.41	353.54	6.95	-49.2	-64.6	3.8	1.49e+00	0	42	104	1114636288	69	21868
2026-01-24 08:49:42.40	353.47	6.88	-49.1	-64.5	3.8	1.49e+00	0	42	104	1114636288	69	21731
2026-01-24 08:49:43.40	353.39	6.81	-49.1	-64.5	3.8	1.49e+00	0	42	104	1114636288	69	21738
2026-01-24 08:49:44.40	353.32	6.74	-49.1	-64.5	3.8	1.49e+00	0	42	104	1114636288	69	21695
2026-01-24 08:49:45.39	353.25	6.68	-49.1	-64.5	3.8	1.49e+00	0	42	104	1114636288	69	21702
2026-01-24 08:49:46.39	353.18	6.61	-49.1	-64.5	3.8	1.49e+00	0	42	104	1114636288	69	21691
2026-01-24 08:49:47.38	353.11	6.54	-49.1	-64.5	3.8	1.49e+00	0	42	104	1114636288	69	21676
2026-01-24 08:49:48.38	353.03	6.48	-49.1	-64.5	3.8	1.49e+00	0	42	104	1114636288	69	21714
2026-01-24 08:49:49.38	352.96	6.41	-49.1	-64.5	3.8	1.49e+00	0	42	104	1114636288	69	21727
2026-01-24 08:49:50.37	352.89	6.34	-49.1	-64.5	3.8	1.49e+00	0	42	104	1114636288	69	21725
2026-01-24 08:49:51.37	352.82	6.28	-49.1	-64.6	3.8	1.49e+00	0	42	104	1114636288	69	21792
2026-01-24 08:49:52.37	352.75	6.21	-49.1	-64.5	3.8	1.49e+00	0	42	104	1114636288	69	21719
2026-01-24 08:49:53.36	352.68	6.14	-49.1	-64.5	3.8	1.49e+00	0	42	104	1114636288	69	21717
2026-01-24 08:49:54.36	352.62	6.08	-49.1	-64.5	3.8	1.49e+00	0	42	104	1114636288	69	21624
2026-01-24 08:49:55.35	352.55	6.01	-49.1	-64.5	3.8	1.49e+00	0	42	104	1114636288	69	21738
2026-01-24 08:49:56.35	352.48	5.94	-49.1	-64.5	3.8	1.49e+00	0	42	104	1114636288	69	21702
2026-01-24 08:49:57.35	352.41	5.88	-49.1	-64.5	3.8	1.49e+00	0	42	104	1114636288	69	21578
2026-01-24 08:49:58.35	352.34	5.81	-49.1	-64.5	3.8	1.49e+00	0	42	104	1114636288	69	21743
2026-01-24 08:49:59.35	352.27	5.75	-49.1	-64.5	3.8	1.49e+00	0	42	104	1114636288	69	21740
2026-01-24 08:50:00.35	352.21	5.68	-49.1	-64.5	3.8	1.49e+00	0	42	104	1114636288	69	21649
2026-01-24 08:50:01.35	352.14	5.62	-49.1	-64.5	3.8	1.49e+00	0	42	104	1114636288	69	21754
2026-01-24 08:50:02.34	352.07	5.55	-49.1	-64.5	3.8	1.49e+00	0	42	104	1114636288	69	21651
2026-01-24 08:50:03.33	352.01	5.49	-49.1	-64.5	3.8	1.49e+00	0	42	104	1114636288	69	21675
2026-01-24 08:50:04.33	351.94	5.42	-49.1	-64.5	3.8	1.49e+00	0	42	104	1114636288	69	21626
2026-01-24 08:50:05.32	351.88	5.36	-49.1	-64.5	3.8	1.49e+00	0	42	104	1114636288	69	21629
2026-01-24 08:50:06.32	351.81	5.29	-49.1	-64.6	3.8	1.49e+00	0	42	104	1114636288	69	21765
