passes_logs/2026/01/24/T1/T1__20260124_231807_NOAA_21_JPSS-2_rec.log

#Pass ID: 20260124_231807_NOAA 21 (JPSS-2)
#Satellite: NOAA 21 (JPSS-2)
#Configuration: NOAA 21
#almurnet v.1.7.20251203
#Start time: 2026-01-24 23:18:08

#Version: 2.0.20230620
#Station: T1
#Location: 37.570604 lon 55.790049 lat
#TLE: 1 54234U 22150A   26024.45772595  .00000201  00000+0  11607-3 0  9996
#TLE: 2 54234  98.7508 325.2435 0000728 220.7365 139.3757 14.19538765166156

#Time	Az	El	Level	Level2	SNR	BER	BlckErr	Temp	State	Recorded	gain1	gain2
2026-01-24 23:18:08.67	19.06	5.12	-46.8	-61.6	3.8	1.49e+00	0	35	0	0	65	19595
2026-01-24 23:18:09.65	19.09	5.19	-46.8	-61.5	3.8	1.49e+00	0	35	104	0	64	20486
2026-01-24 23:18:10.65	19.11	5.26	-46.8	-61.5	3.8	1.49e+00	0	35	104	0	64	20478
2026-01-24 23:18:11.64	19.14	5.33	-46.8	-61.5	3.8	1.49e+00	0	35	104	0	64	20433
2026-01-24 23:18:12.64	19.16	5.40	-46.8	-61.5	3.8	1.49e+00	0	35	104	0	64	20355
2026-01-24 23:18:13.63	19.19	5.47	-46.8	-61.5	3.8	1.49e+00	0	35	104	0	64	20402
2026-01-24 23:18:14.62	19.22	5.54	-46.8	-61.5	3.8	1.49e+00	0	35	104	0	64	20367
2026-01-24 23:18:15.62	19.24	5.61	-46.8	-61.5	3.8	1.49e+00	0	35	104	0	64	20416
2026-01-24 23:18:16.61	19.27	5.68	-46.8	-61.5	3.8	1.49e+00	0	35	104	0	64	20486
2026-01-24 23:18:17.60	19.29	5.75	-46.8	-61.6	3.8	1.49e+00	0	36	104	0	64	20581
2026-01-24 23:18:18.60	19.32	5.83	-46.8	-61.6	3.8	1.49e+00	0	35	104	0	64	20691
2026-01-24 23:18:19.59	19.34	5.90	-46.8	-61.6	3.8	1.49e+00	0	36	104	0	64	20703
2026-01-24 23:18:20.58	19.37	5.97	-46.8	-61.6	3.8	1.49e+00	0	36	104	0	64	20763
2026-01-24 23:18:21.58	19.40	6.04	-46.8	-61.7	3.8	1.49e+00	0	36	104	0	64	20876
2026-01-24 23:18:22.57	19.42	6.11	-46.8	-61.7	3.8	1.49e+00	0	36	104	0	64	20920
2026-01-24 23:18:23.54	19.45	6.19	-46.8	-61.7	3.8	1.49e+00	0	36	104	0	64	20990
2026-01-24 23:18:24.54	19.48	6.26	-46.8	-61.8	3.8	1.49e+00	0	36	104	0	64	21030
2026-01-24 23:18:25.53	19.50	6.33	-46.8	-61.8	3.8	1.49e+00	0	36	104	0	64	21094
2026-01-24 23:18:26.52	19.53	6.40	-46.8	-61.7	3.8	1.49e+00	0	36	104	0	64	20999
2026-01-24 23:18:27.52	19.56	6.48	-46.8	-61.7	3.8	1.49e+00	0	36	104	0	64	20787
2026-01-24 23:18:28.51	19.58	6.55	-46.8	-61.6	3.8	1.49e+00	0	36	104	0	64	20621
2026-01-24 23:18:29.50	19.61	6.63	-46.8	-61.4	3.8	1.49e+00	0	36	104	0	64	20291
2026-01-24 23:18:30.50	19.64	6.70	-46.8	-61.2	3.8	1.49e+00	0	36	104	0	64	19813
2026-01-24 23:18:31.49	19.66	6.77	-46.7	-61.0	3.8	1.49e+00	0	36	104	0	64	19374
2026-01-24 23:18:32.48	19.69	6.85	-46.7	-60.7	3.8	1.49e+00	0	36	104	0	64	18724
2026-01-24 23:18:33.48	19.72	6.92	-46.7	-60.5	3.8	1.49e+00	0	36	104	0	64	18298
2026-01-24 23:18:34.47	19.75	7.00	-46.7	-60.2	3.8	1.49e+00	0	36	104	0	64	17565
2026-01-24 23:18:35.46	19.77	7.07	-46.7	-59.9	3.8	1.49e+00	0	36	104	0	64	16982
2026-01-24 23:18:36.46	19.80	7.15	-46.6	-59.7	3.9	1.48e+00	0	36	104	0	64	16593
2026-01-24 23:18:37.45	19.83	7.22	-46.6	-59.0	3.9	1.48e+00	0	36	104	0	64	15344
2026-01-24 23:18:38.44	19.86	7.30	-46.6	-59.2	3.9	1.48e+00	0	36	104	0	64	15691
2026-01-24 23:18:39.43	19.89	7.38	-46.6	-58.6	4.1	1.47e+00	0	36	104	0	64	14552
2026-01-24 23:18:40.43	19.92	7.45	-46.6	-58.4	4.1	1.47e+00	0	36	104	0	64	14248
2026-01-24 23:18:41.42	19.94	7.53	-46.6	-58.3	4.2	1.47e+00	0	36	104	0	64	14145
2026-01-24 23:18:42.41	19.97	7.61	-46.5	-58.2	4.2	1.47e+00	0	36	104	0	64	14022
2026-01-24 23:18:43.41	20.00	7.68	-46.5	-58.7	3.9	1.47e+00	0	36	104	0	64	14834
2026-01-24 23:18:44.40	20.03	7.76	-46.6	-58.7	3.9	1.47e+00	0	36	104	0	64	14805
2026-01-24 23:18:45.39	20.06	7.84	-46.6	-58.2	4.2	1.46e+00	0	36	104	0	64	14007
2026-01-24 23:18:46.39	20.09	7.91	-46.6	-58.2	4.2	1.47e+00	0	36	104	0	64	13950
2026-01-24 23:18:47.38	20.12	7.99	-46.5	-58.1	4.2	1.46e+00	0	36	104	0	64	13826
2026-01-24 23:18:48.37	20.15	8.07	-46.5	-58.2	3.9	1.46e+00	0	36	104	0	64	14030
2026-01-24 23:18:49.37	20.18	8.15	-46.5	-58.4	3.9	1.45e+00	0	36	104	0	64	14355
2026-01-24 23:18:50.36	20.21	8.23	-46.5	-57.5	4.4	1.45e+00	0	36	104	0	64	12949
2026-01-24 23:18:51.35	20.24	8.31	-46.4	-57.2	4.5	1.25e+00	0	36	104	0	64	12423
2026-01-24 23:18:52.35	20.27	8.39	-46.4	-56.7	4.7	1.03e+00	0	37	104	0	64	11770
2026-01-24 23:18:53.34	20.30	8.46	-46.3	-55.9	5.2	6.78e-01	0	37	0	0	64	10760
2026-01-24 23:18:54.33	20.33	8.54	-46.1	-55.1	5.7	4.68e-01	0	37	0	0	64	9827
2026-01-24 23:18:55.33	20.36	8.62	-46.0	-54.2	6.4	2.82e-01	0	37	0	0	64	8823
2026-01-24 23:18:56.32	20.39	8.70	-45.9	-53.4	7.1	1.53e-01	0	37	0	0	63	8536
2026-01-24 23:18:57.31	20.42	8.78	-45.7	-52.6	7.9	9.13e-02	0	37	0	0	63	7794
2026-01-24 23:18:58.31	20.45	8.87	-45.5	-51.9	8.6	4.44e-02	0	37	0	0	62	7571
2026-01-24 23:18:59.30	20.48	8.95	-45.2	-51.1	9.4	1.92e-02	0	37	0	0	62	6956
2026-01-24 23:19:00.29	20.51	9.03	-45.4	-51.4	9.2	1.10e-02	0	37	0	0	62	7199
2026-01-24 23:19:01.29	20.54	9.11	-46.6	-55.9	5.2	7.27e-01	0	37	0	0	63	11328
2026-01-24 23:19:02.28	20.57	9.19	-45.9	-53.0	7.5	2.55e-01	0	37	0	0	63	8085
2026-01-24 23:19:03.28	20.61	9.27	-45.2	-51.9	8.8	8.28e-03	0	37	0	0	61	8043
2026-01-24 23:19:04.27	20.64	9.35	-46.1	-56.7	4.1	1.45e+00	0	37	104	0	63	12395
2026-01-24 23:19:05.26	20.67	9.44	-41.4	-44.1	16.3	0.00e+00	0	37	0	0	54	4913
2026-01-24 23:19:06.26	20.70	9.52	-41.4	-44.1	16.3	0.00e+00	0	36	0	0	54	4900
2026-01-24 23:19:07.25	20.73	9.60	-41.2	-43.8	16.7	0.00e+00	0	37	0	0	54	4738
2026-01-24 23:19:08.25	20.77	9.69	-41.1	-43.7	16.8	0.00e+00	0	37	0	0	54	4652
2026-01-24 23:19:09.24	20.80	9.77	-40.9	-43.4	17.1	0.00e+00	0	37	0	0	53	4774
2026-01-24 23:19:10.24	20.83	9.85	-40.5	-42.8	17.7	0.00e+00	0	37	0	0	53	4478
2026-01-24 23:19:11.23	20.86	9.94	-40.4	-42.7	17.8	0.00e+00	0	37	0	0	52	4661
2026-01-24 23:19:12.22	20.90	10.02	-40.3	-42.6	17.9	0.00e+00	0	37	0	0	52	4619
2026-01-24 23:19:13.22	20.93	10.11	-40.1	-42.4	18.1	0.00e+00	0	37	0	0	52	4500
2026-01-24 23:19:14.21	20.96	10.19	-40.2	-42.4	18.1	0.00e+00	0	37	0	0	52	4520
2026-01-24 23:19:15.21	21.00	10.28	-40.1	-42.3	18.2	0.00e+00	0	37	0	0	52	4469
2026-01-24 23:19:16.20	21.03	10.36	-40.0	-42.2	18.2	0.00e+00	0	37	0	0	52	4428
2026-01-24 23:19:17.19	21.07	10.45	-40.0	-42.2	18.3	0.00e+00	0	37	0	0	51	4702
2026-01-24 23:19:18.19	21.10	10.53	-40.1	-42.4	18.2	0.00e+00	0	37	0	0	51	4777
2026-01-24 23:19:19.18	21.13	10.62	-40.1	-42.3	18.2	0.00e+00	0	37	0	0	51	4747
2026-01-24 23:19:20.18	21.17	10.71	-40.0	-42.2	18.3	0.00e+00	0	37	0	0	51	4692
2026-01-24 23:19:21.17	21.20	10.79	-40.1	-42.2	18.4	0.00e+00	0	37	0	0	51	4699
2026-01-24 23:19:22.17	21.24	10.88	-40.1	-42.2	18.3	0.00e+00	0	37	0	0	51	4690
2026-01-24 23:19:23.16	21.27	10.97	-40.0	-42.1	18.4	0.00e+00	0	37	0	0	51	4632
2026-01-24 23:19:24.16	21.31	11.06	-40.0	-42.1	18.4	0.00e+00	0	37	0	0	51	4650
2026-01-24 23:19:25.15	21.34	11.14	-40.0	-42.1	18.5	0.00e+00	0	37	0	0	51	4619
2026-01-24 23:19:26.15	21.38	11.23	-40.0	-42.1	18.4	0.00e+00	0	37	0	0	51	4629
2026-01-24 23:19:27.15	21.42	11.32	-39.9	-42.0	18.6	0.00e+00	0	37	0	0	51	4555
2026-01-24 23:19:28.14	21.45	11.41	-39.8	-41.9	18.7	0.00e+00	0	37	0	0	51	4524
2026-01-24 23:19:29.14	21.49	11.50	-39.8	-41.9	18.7	0.00e+00	0	37	0	0	51	4495
2026-01-24 23:19:30.13	21.52	11.59	-39.9	-41.9	18.6	0.00e+00	0	37	0	0	51	4535
2026-01-24 23:19:31.12	21.56	11.68	-39.9	-42.0	18.6	0.00e+00	0	37	0	0	51	4562
2026-01-24 23:19:32.12	21.60	11.77	-39.8	-41.8	18.7	0.00e+00	0	37	0	0	51	4483
2026-01-24 23:19:33.11	21.63	11.86	-39.7	-41.7	18.8	0.00e+00	0	37	0	0	51	4438
2026-01-24 23:19:34.11	21.67	11.95	-39.8	-41.8	18.8	0.00e+00	0	37	0	0	51	4478
2026-01-24 23:19:35.10	21.71	12.05	-39.8	-41.7	18.8	0.00e+00	0	37	0	0	51	4440
2026-01-24 23:19:36.09	21.75	12.14	-39.7	-41.7	18.9	0.00e+00	0	37	0	0	51	4409
2026-01-24 23:19:37.09	21.78	12.23	-39.9	-41.8	18.7	0.00e+00	0	37	0	0	51	4492
2026-01-24 23:19:38.08	21.82	12.32	-39.8	-41.8	18.8	0.00e+00	0	37	0	0	51	4478
2026-01-24 23:19:39.07	21.86	12.41	-39.7	-41.7	18.9	0.00e+00	0	37	0	0	51	4425
2026-01-24 23:19:40.07	21.90	12.51	-39.7	-41.6	18.9	0.00e+00	0	37	0	0	51	4391
2026-01-24 23:19:41.06	21.94	12.60	-39.8	-41.7	18.9	0.00e+00	0	37	0	0	51	4402
2026-01-24 23:19:42.06	21.97	12.70	-39.7	-41.6	19.0	0.00e+00	0	37	0	0	51	4371
2026-01-24 23:19:43.05	22.01	12.79	-39.6	-41.5	19.0	0.00e+00	0	37	0	0	51	4334
2026-01-24 23:19:44.05	22.05	12.88	-39.7	-41.6	19.0	0.00e+00	0	37	0	0	51	4360
2026-01-24 23:19:45.04	22.09	12.98	-39.7	-41.6	19.0	0.00e+00	0	37	0	0	51	4360
2026-01-24 23:19:46.03	22.13	13.07	-39.8	-41.7	18.9	0.00e+00	0	37	0	0	51	4401
2026-01-24 23:19:47.03	22.17	13.17	-39.6	-41.5	19.1	0.00e+00	0	37	0	0	51	4298
2026-01-24 23:19:48.02	22.21	13.27	-39.6	-41.4	19.2	0.00e+00	0	37	0	0	51	4254
2026-01-24 23:19:49.02	22.25	13.36	-39.6	-41.4	19.1	0.00e+00	0	37	0	0	51	4279
2026-01-24 23:19:50.01	22.29	13.46	-39.6	-41.4	19.2	0.00e+00	0	37	0	0	51	4257
2026-01-24 23:19:51.01	22.33	13.56	-39.6	-41.4	19.2	0.00e+00	0	37	0	0	51	4272
2026-01-24 23:19:52.00	22.38	13.65	-39.5	-41.3	19.2	0.00e+00	0	37	0	0	51	4225
2026-01-24 23:19:53.00	22.42	13.75	-39.5	-41.3	19.2	0.00e+00	0	37	0	0	51	4231
2026-01-24 23:19:53.99	22.46	13.85	-39.5	-41.3	19.2	0.00e+00	0	37	0	0	51	4225
2026-01-24 23:19:54.99	22.50	13.95	-39.5	-41.3	19.2	0.00e+00	0	37	0	0	51	4221
2026-01-24 23:19:55.98	22.54	14.05	-39.5	-41.3	19.2	0.00e+00	0	37	0	0	51	4228
2026-01-24 23:19:56.98	22.58	14.15	-39.5	-41.3	19.3	0.00e+00	0	37	0	0	51	4208
2026-01-24 23:19:57.97	22.63	14.25	-39.5	-41.3	19.3	0.00e+00	0	37	0	0	50	4454
2026-01-24 23:19:58.97	22.67	14.35	-39.5	-41.3	19.3	0.00e+00	0	37	0	0	50	4450
2026-01-24 23:19:59.96	22.71	14.45	-39.3	-41.1	19.4	0.00e+00	0	37	0	0	50	4383
2026-01-24 23:20:00.96	22.76	14.55	-39.4	-41.2	19.4	0.00e+00	0	37	0	0	50	4393
2026-01-24 23:20:01.95	22.80	14.65	-39.4	-41.2	19.4	0.00e+00	0	37	0	0	50	4402
2026-01-24 23:20:02.95	22.84	14.75	-39.3	-41.1	19.4	0.00e+00	0	37	0	0	50	4388
2026-01-24 23:20:03.94	22.89	14.86	-39.3	-41.1	19.5	0.00e+00	0	37	0	0	50	4346
2026-01-24 23:20:04.94	22.93	14.96	-39.3	-41.1	19.5	0.00e+00	0	37	0	0	50	4365
2026-01-24 23:20:05.93	22.98	15.06	-39.2	-41.0	19.6	0.00e+00	0	37	0	0	50	4310
2026-01-24 23:20:06.92	23.02	15.16	-39.2	-41.0	19.6	0.00e+00	0	37	0	0	50	4300
2026-01-24 23:20:07.92	23.07	15.27	-39.3	-41.1	19.5	0.00e+00	0	37	0	0	50	4348
2026-01-24 23:20:08.92	23.11	15.37	-39.2	-41.0	19.5	0.00e+00	0	37	0	0	50	4313
2026-01-24 23:20:09.91	23.16	15.48	-39.2	-41.0	19.6	0.00e+00	0	37	0	0	50	4322
2026-01-24 23:20:10.91	23.21	15.58	-39.3	-41.2	19.4	0.00e+00	0	37	0	0	50	4402
2026-01-24 23:20:11.90	23.25	15.69	-39.4	-41.3	19.4	0.00e+00	0	37	0	0	50	4442
2026-01-24 23:20:12.90	23.30	15.80	-39.4	-41.2	19.4	0.00e+00	0	37	0	0	50	4421
2026-01-24 23:20:13.89	23.35	15.90	-39.3	-41.2	19.5	0.00e+00	0	37	0	0	50	4392
2026-01-24 23:20:14.89	23.39	16.01	-39.3	-41.1	19.5	0.00e+00	0	37	0	0	50	4359
2026-01-24 23:20:15.88	23.44	16.12	-39.3	-41.1	19.5	0.00e+00	0	37	0	0	50	4353
2026-01-24 23:20:16.87	23.49	16.23	-39.2	-41.1	19.6	0.00e+00	0	37	0	0	50	4350
2026-01-24 23:20:17.87	23.54	16.33	-39.4	-41.2	19.5	0.00e+00	0	37	0	0	50	4407
2026-01-24 23:20:18.86	23.59	16.44	-39.4	-41.2	19.4	0.00e+00	0	37	0	0	50	4427
2026-01-24 23:20:19.86	23.64	16.55	-39.3	-41.2	19.5	0.00e+00	0	37	0	0	50	4395
2026-01-24 23:20:20.85	23.69	16.66	-39.4	-41.2	19.5	0.00e+00	0	37	0	0	50	4416
2026-01-24 23:20:21.85	23.74	16.77	-39.5	-41.3	19.4	0.00e+00	0	37	0	0	50	4471
2026-01-24 23:20:22.84	23.78	16.88	-39.4	-41.2	19.4	0.00e+00	0	37	0	0	50	4441
2026-01-24 23:20:23.84	23.84	17.00	-39.4	-41.2	19.4	0.00e+00	0	37	0	0	50	4430
2026-01-24 23:20:24.83	23.89	17.11	-39.4	-41.2	19.4	0.00e+00	0	37	0	0	50	4428
2026-01-24 23:20:25.82	23.94	17.22	-39.5	-41.3	19.4	0.00e+00	0	37	0	0	50	4446
2026-01-24 23:20:26.82	23.99	17.33	-39.4	-41.2	19.4	0.00e+00	0	37	0	0	50	4432
2026-01-24 23:20:27.81	24.04	17.45	-39.5	-41.3	19.4	0.00e+00	0	37	0	0	50	4447
2026-01-24 23:20:28.80	24.09	17.56	-39.4	-41.2	19.5	0.00e+00	0	37	0	0	50	4416
2026-01-24 23:20:29.80	24.14	17.67	-39.5	-41.3	19.4	0.00e+00	0	37	0	0	50	4444
2026-01-24 23:20:30.79	24.20	17.79	-39.6	-41.4	19.3	0.00e+00	0	37	0	0	50	4513
2026-01-24 23:20:31.79	24.25	17.91	-39.6	-41.4	19.3	0.00e+00	0	37	0	0	50	4511
2026-01-24 23:20:32.78	24.30	18.02	-39.6	-41.3	19.4	0.00e+00	0	37	0	0	50	4492
2026-01-24 23:20:33.78	24.36	18.14	-39.6	-41.4	19.3	0.00e+00	0	37	0	0	50	4542
2026-01-24 23:20:34.77	24.41	18.25	-39.6	-41.5	19.2	0.00e+00	0	37	0	0	50	4548
2026-01-24 23:20:35.76	24.47	18.37	-39.6	-41.4	19.3	0.00e+00	0	37	0	0	50	4530
2026-01-24 23:20:36.76	24.52	18.49	-39.6	-41.4	19.3	0.00e+00	0	37	0	0	50	4504
2026-01-24 23:20:37.76	24.58	18.61	-39.6	-41.5	19.3	0.00e+00	0	37	0	0	50	4547
2026-01-24 23:20:38.75	24.63	18.73	-39.6	-41.5	19.2	0.00e+00	0	37	0	0	50	4552
2026-01-24 23:20:39.75	24.69	18.85	-39.6	-41.5	19.2	0.00e+00	0	37	0	0	50	4547
2026-01-24 23:20:40.74	24.75	18.97	-39.6	-41.5	19.2	0.00e+00	0	37	0	0	50	4557
2026-01-24 23:20:41.74	24.80	19.09	-39.6	-41.5	19.2	0.00e+00	0	37	0	0	50	4546
2026-01-24 23:20:42.73	24.86	19.21	-39.5	-41.4	19.3	0.00e+00	0	37	0	0	50	4502
2026-01-24 23:20:43.72	24.92	19.33	-39.5	-41.3	19.3	0.00e+00	0	37	0	0	50	4485
2026-01-24 23:20:44.72	24.98	19.46	-39.5	-41.3	19.3	0.00e+00	0	37	0	0	50	4489
2026-01-24 23:20:45.71	25.04	19.58	-39.5	-41.3	19.3	0.00e+00	0	37	0	0	50	4478
2026-01-24 23:20:46.71	25.10	19.70	-39.5	-41.4	19.3	0.00e+00	0	37	0	0	50	4495
2026-01-24 23:20:47.70	25.16	19.83	-39.4	-41.2	19.4	0.00e+00	0	37	0	0	50	4431
2026-01-24 23:20:48.69	25.22	19.95	-39.2	-41.1	19.5	0.00e+00	0	37	0	0	50	4350
2026-01-24 23:20:49.69	25.28	20.08	-39.2	-41.1	19.6	0.00e+00	0	37	0	0	50	4349
2026-01-24 23:20:50.68	25.34	20.20	-39.1	-40.9	19.7	0.00e+00	0	37	0	0	50	4277
2026-01-24 23:20:51.68	25.40	20.33	-39.1	-40.8	19.8	0.00e+00	0	37	0	0	50	4242
2026-01-24 23:20:52.67	25.46	20.46	-39.0	-40.8	19.8	0.00e+00	0	37	0	0	50	4222
2026-01-24 23:20:53.67	25.52	20.59	-38.8	-40.6	20.0	0.00e+00	0	37	0	0	49	4369
2026-01-24 23:20:54.66	25.59	20.72	-38.8	-40.5	20.0	0.00e+00	0	37	0	0	49	4332
2026-01-24 23:20:55.65	25.65	20.84	-38.7	-40.5	20.1	0.00e+00	0	37	0	0	49	4307
2026-01-24 23:20:56.65	25.72	20.98	-38.6	-40.4	20.2	0.00e+00	0	37	0	0	49	4253
2026-01-24 23:20:57.64	25.78	21.11	-38.6	-40.3	20.2	0.00e+00	0	37	0	0	49	4228
2026-01-24 23:20:58.64	25.84	21.24	-38.5	-40.2	20.3	0.00e+00	0	37	0	0	48	4419
2026-01-24 23:20:59.63	25.91	21.37	-38.3	-40.0	20.5	0.00e+00	0	37	0	0	48	4302
2026-01-24 23:21:00.63	25.98	21.50	-38.3	-40.0	20.5	0.00e+00	0	37	0	0	48	4300
2026-01-24 23:21:01.62	26.04	21.63	-38.2	-39.9	20.7	0.00e+00	0	37	0	0	48	4244
2026-01-24 23:21:02.62	26.11	21.77	-38.2	-39.8	20.7	0.00e+00	0	37	0	0	48	4225
2026-01-24 23:21:03.61	26.18	21.90	-38.1	-39.8	20.7	0.00e+00	0	37	0	0	48	4194
2026-01-24 23:21:04.61	26.25	22.04	-38.1	-39.7	20.8	0.00e+00	0	37	0	0	48	4184
2026-01-24 23:21:05.60	26.32	22.17	-38.1	-39.7	20.8	0.00e+00	0	37	0	0	48	4163
2026-01-24 23:21:06.59	26.38	22.31	-38.1	-39.7	20.8	0.00e+00	0	37	0	0	48	4177
2026-01-24 23:21:07.59	26.46	22.45	-38.0	-39.6	20.9	0.00e+00	0	37	0	0	48	4129
2026-01-24 23:21:08.59	26.53	22.59	-37.8	-39.4	20.8	0.00e+00	0	37	0	0	47	4263
2026-01-24 23:21:09.58	26.60	22.73	-37.8	-39.4	20.8	0.00e+00	0	37	0	0	47	4290
2026-01-24 23:21:10.57	26.67	22.87	-37.9	-39.6	20.7	0.00e+00	0	37	0	0	47	4342
2026-01-24 23:21:11.57	26.74	23.01	-37.9	-39.5	20.8	0.00e+00	0	37	0	0	47	4337
2026-01-24 23:21:12.56	26.81	23.15	-37.9	-39.5	20.7	0.00e+00	0	37	0	0	47	4340
2026-01-24 23:21:13.56	26.89	23.29	-37.9	-39.5	20.8	0.00e+00	0	37	0	0	47	4331
2026-01-24 23:21:14.55	26.96	23.43	-38.0	-39.6	20.7	0.00e+00	0	37	0	0	47	4381
2026-01-24 23:21:15.55	27.04	23.58	-37.9	-39.5	20.7	0.00e+00	0	37	0	0	47	4328
2026-01-24 23:21:16.54	27.11	23.72	-37.9	-39.6	20.6	0.00e+00	0	37	0	0	47	4357
2026-01-24 23:21:17.54	27.19	23.86	-38.0	-39.6	20.6	0.00e+00	0	37	0	0	47	4391
2026-01-24 23:21:18.53	27.27	24.01	-38.1	-39.8	20.5	0.00e+00	0	37	0	0	47	4449
2026-01-24 23:21:19.52	27.34	24.15	-38.1	-39.8	20.5	0.00e+00	0	37	0	0	47	4466
2026-01-24 23:21:20.52	27.42	24.30	-38.2	-39.9	20.5	0.00e+00	0	37	0	0	47	4503
2026-01-24 23:21:21.51	27.50	24.45	-38.2	-39.9	20.4	0.00e+00	0	37	0	0	47	4507
2026-01-24 23:21:22.51	27.58	24.60	-38.3	-40.0	20.3	0.00e+00	0	37	0	0	47	4564
2026-01-24 23:21:23.50	27.66	24.75	-38.3	-40.0	20.3	0.00e+00	0	37	0	0	47	4562
2026-01-24 23:21:24.50	27.74	24.90	-38.4	-40.1	20.2	0.00e+00	0	37	0	0	47	4617
2026-01-24 23:21:25.49	27.82	25.05	-38.6	-40.3	20.0	0.00e+00	0	37	0	0	47	4713
2026-01-24 23:21:26.49	27.91	25.20	-38.6	-40.2	20.1	0.00e+00	0	37	0	0	47	4703
2026-01-24 23:21:27.48	27.99	25.35	-38.6	-40.3	20.0	0.00e+00	0	37	0	0	47	4738
2026-01-24 23:21:28.47	28.07	25.51	-38.7	-40.4	20.1	0.00e+00	0	37	0	0	48	4529
2026-01-24 23:21:29.47	28.16	25.66	-38.7	-40.4	20.1	0.00e+00	0	37	0	0	48	4513
2026-01-24 23:21:30.46	28.24	25.82	-38.9	-40.6	20.0	0.00e+00	0	37	0	0	48	4602
2026-01-24 23:21:31.46	28.33	25.97	-38.8	-40.5	20.0	0.00e+00	0	37	0	0	48	4591
2026-01-24 23:21:32.45	28.42	26.13	-39.0	-40.7	19.9	0.00e+00	0	37	0	0	48	4665
2026-01-24 23:21:33.44	28.51	26.29	-39.0	-40.7	19.9	0.00e+00	0	37	0	0	48	4656
2026-01-24 23:21:34.43	28.60	26.44	-39.1	-40.8	19.8	0.00e+00	0	37	0	0	48	4722
2026-01-24 23:21:35.43	28.69	26.60	-39.1	-40.9	19.8	0.00e+00	0	37	0	0	48	4788
2026-01-24 23:21:36.42	28.78	26.76	-39.2	-41.0	19.7	0.00e+00	0	37	0	0	49	4565
2026-01-24 23:21:37.42	28.87	26.93	-39.3	-41.1	19.6	0.00e+00	0	37	0	0	49	4604
2026-01-24 23:21:38.41	28.96	27.09	-39.4	-41.2	19.4	0.00e+00	0	37	0	0	49	4682
2026-01-24 23:21:39.41	29.05	27.25	-39.5	-41.3	19.3	0.00e+00	0	37	0	0	49	4729
2026-01-24 23:21:40.40	29.15	27.41	-39.7	-41.5	19.1	0.00e+00	0	37	0	0	49	4860
2026-01-24 23:21:41.40	29.24	27.58	-39.5	-41.3	19.3	0.00e+00	0	37	0	0	50	4493
2026-01-24 23:21:42.39	29.34	27.75	-39.5	-41.4	19.3	0.00e+00	0	37	0	0	50	4495
2026-01-24 23:21:43.39	29.44	27.91	-39.5	-41.3	19.3	0.00e+00	0	37	0	0	50	4482
2026-01-24 23:21:44.38	29.54	28.08	-39.4	-41.2	19.4	0.00e+00	0	37	0	0	50	4429
2026-01-24 23:21:45.38	29.64	28.25	-39.6	-41.4	19.3	0.00e+00	0	37	0	0	50	4494
2026-01-24 23:21:46.37	29.74	28.42	-39.5	-41.2	19.4	0.00e+00	0	37	0	0	50	4420
2026-01-24 23:21:47.36	29.84	28.59	-39.4	-41.1	19.6	0.00e+00	0	37	0	0	50	4370
2026-01-24 23:21:48.36	29.94	28.76	-39.5	-41.2	19.4	0.00e+00	0	37	0	0	50	4440
2026-01-24 23:21:49.35	30.04	28.93	-39.4	-41.1	19.6	0.00e+00	0	37	0	0	50	4380
2026-01-24 23:21:50.35	30.15	29.11	-39.4	-41.2	19.6	0.00e+00	0	37	0	0	50	4404
2026-01-24 23:21:51.34	30.25	29.28	-39.3	-41.0	19.7	0.00e+00	0	37	0	0	50	4337
2026-01-24 23:21:52.34	30.36	29.46	-39.1	-40.9	19.9	0.00e+00	0	37	0	0	50	4259
2026-01-24 23:21:53.33	30.47	29.63	-39.2	-40.9	19.8	0.00e+00	0	37	0	0	50	4270
2026-01-24 23:21:54.32	30.57	29.81	-39.2	-41.0	19.8	0.00e+00	0	37	0	0	50	4316
2026-01-24 23:21:55.32	30.68	29.99	-39.2	-40.9	19.9	0.00e+00	0	37	0	0	50	4265
2026-01-24 23:21:56.32	30.80	30.17	-39.4	-41.1	19.7	0.00e+00	0	37	0	0	50	4379
2026-01-24 23:21:57.31	30.91	30.35	-39.2	-40.9	19.9	0.00e+00	0	37	0	0	50	4267
2026-01-24 23:21:58.30	31.02	30.53	-39.1	-40.9	19.9	0.00e+00	0	37	0	0	50	4250
2026-01-24 23:21:59.30	31.14	30.71	-39.0	-40.8	19.9	0.00e+00	0	37	0	0	50	4198
2026-01-24 23:22:00.29	31.25	30.89	-39.0	-40.8	19.9	0.00e+00	0	37	0	0	50	4211
2026-01-24 23:22:01.29	31.37	31.08	-39.1	-40.8	19.9	0.00e+00	0	37	0	0	50	4224
2026-01-24 23:22:02.28	31.49	31.26	-39.0	-40.7	20.0	0.00e+00	0	37	0	0	50	4183
2026-01-24 23:22:03.28	31.61	31.45	-39.1	-40.8	19.9	0.00e+00	0	37	0	0	50	4202
2026-01-24 23:22:04.27	31.73	31.64	-39.2	-40.9	19.8	0.00e+00	0	37	0	0	50	4271
2026-01-24 23:22:05.27	31.85	31.83	-39.0	-40.7	20.0	0.00e+00	0	37	0	0	50	4193
2026-01-24 23:22:06.26	31.98	32.02	-39.1	-40.8	20.0	0.00e+00	0	37	0	0	50	4197
2026-01-24 23:22:07.25	32.10	32.21	-39.1	-40.8	19.9	0.00e+00	0	37	0	0	50	4232
2026-01-24 23:22:08.25	32.23	32.40	-39.2	-40.9	19.8	0.00e+00	0	37	0	0	50	4268
2026-01-24 23:22:09.24	32.36	32.59	-39.3	-41.0	19.7	0.00e+00	0	37	0	0	50	4331
2026-01-24 23:22:10.24	32.49	32.79	-39.2	-40.9	19.9	0.00e+00	0	37	0	0	50	4289
2026-01-24 23:22:11.24	32.62	32.99	-39.3	-41.1	19.8	0.00e+00	0	37	0	0	50	4345
2026-01-24 23:22:12.23	32.75	33.18	-39.4	-41.2	19.7	0.00e+00	0	37	0	0	50	4404
2026-01-24 23:22:13.23	32.89	33.38	-39.4	-41.2	19.6	0.00e+00	0	37	0	0	50	4419
2026-01-24 23:22:14.22	33.02	33.58	-39.5	-41.2	19.5	0.00e+00	0	37	0	0	50	4439
2026-01-24 23:22:15.21	33.16	33.78	-39.5	-41.2	19.6	0.00e+00	0	37	0	0	50	4418
2026-01-24 23:22:16.21	33.30	33.98	-39.6	-41.3	19.5	0.00e+00	0	37	0	0	50	4472
2026-01-24 23:22:17.20	33.44	34.18	-39.7	-41.5	19.4	0.00e+00	0	37	0	0	50	4548
2026-01-24 23:22:18.20	33.59	34.38	-39.8	-41.6	19.3	0.00e+00	0	37	0	0	50	4630
2026-01-24 23:22:19.19	33.73	34.59	-40.0	-41.8	19.1	0.00e+00	0	37	0	0	50	4746
2026-01-24 23:22:20.19	33.88	34.79	-40.2	-42.0	18.9	0.00e+00	0	37	0	0	51	4586
2026-01-24 23:22:21.18	34.03	35.00	-40.4	-42.3	18.6	0.00e+00	0	38	0	0	51	4716
2026-01-24 23:22:22.18	34.18	35.21	-40.7	-42.6	18.4	0.00e+00	0	37	0	0	51	4891
2026-01-24 23:22:23.17	34.33	35.42	-40.8	-42.7	18.2	0.00e+00	0	37	0	0	52	4701
2026-01-24 23:22:24.17	34.48	35.63	-40.9	-42.9	18.0	0.00e+00	0	37	0	0	52	4804
2026-01-24 23:22:25.16	34.64	35.84	-41.1	-43.1	17.8	0.00e+00	0	37	0	0	52	4924
2026-01-24 23:22:26.16	34.80	36.05	-41.2	-43.2	17.7	0.00e+00	0	38	0	0	53	4679
2026-01-24 23:22:27.15	34.96	36.27	-41.2	-43.2	17.7	0.00e+00	0	37	0	0	53	4695
2026-01-24 23:22:28.14	35.12	36.48	-41.3	-43.3	17.7	0.00e+00	0	37	0	0	53	4728
2026-01-24 23:22:29.14	35.28	36.70	-41.2	-43.3	17.7	0.00e+00	0	37	0	0	53	4711
2026-01-24 23:22:30.13	35.45	36.91	-41.2	-43.2	17.8	0.00e+00	0	37	0	0	53	4657
2026-01-24 23:22:31.13	35.62	37.13	-41.1	-43.1	17.8	0.00e+00	0	37	0	0	53	4627
2026-01-24 23:22:32.12	35.79	37.35	-41.0	-43.0	17.9	0.00e+00	0	37	0	0	53	4549
2026-01-24 23:22:33.12	35.96	37.58	-41.0	-43.0	17.9	0.00e+00	0	37	0	0	53	4550
2026-01-24 23:22:34.11	36.13	37.80	-41.1	-43.0	17.9	0.00e+00	0	37	0	0	53	4589
2026-01-24 23:22:35.10	36.31	38.02	-41.0	-43.0	18.0	0.00e+00	0	37	0	0	53	4563
2026-01-24 23:22:36.10	36.49	38.24	-41.0	-42.9	18.0	0.00e+00	0	37	0	0	53	4531
2026-01-24 23:22:37.09	36.67	38.47	-41.1	-43.1	17.8	0.00e+00	0	37	0	0	53	4633
2026-01-24 23:22:38.09	36.86	38.70	-41.1	-43.0	17.9	0.00e+00	0	37	0	0	53	4594
2026-01-24 23:22:39.08	37.05	38.92	-41.0	-42.9	18.0	0.00e+00	0	37	0	0	53	4532
2026-01-24 23:22:40.08	37.24	39.16	-40.8	-42.7	18.2	0.00e+00	0	37	0	0	53	4394
2026-01-24 23:22:41.07	37.43	39.38	-40.7	-42.6	18.3	0.00e+00	0	37	0	0	53	4346
2026-01-24 23:22:42.07	37.63	39.62	-40.8	-42.7	18.2	0.00e+00	0	37	0	0	53	4394
2026-01-24 23:22:43.06	37.82	39.85	-40.6	-42.5	18.3	0.00e+00	0	37	0	0	53	4325
2026-01-24 23:22:44.06	38.02	40.09	-40.5	-42.3	18.5	0.00e+00	0	37	0	0	53	4239
2026-01-24 23:22:45.05	38.23	40.32	-40.7	-42.5	18.4	0.00e+00	0	37	0	0	53	4331
2026-01-24 23:22:46.05	38.44	40.56	-40.9	-42.9	18.1	0.00e+00	0	37	0	0	53	4494
2026-01-24 23:22:47.04	38.64	40.79	-40.8	-42.7	18.2	0.00e+00	0	37	0	0	53	4431
2026-01-24 23:22:48.04	38.86	41.03	-41.0	-43.0	18.0	0.00e+00	0	37	0	0	53	4571
2026-01-24 23:22:49.03	39.07	41.27	-41.0	-42.9	18.1	0.00e+00	0	37	0	0	53	4514
2026-01-24 23:22:50.03	39.29	41.52	-40.8	-42.7	18.2	0.00e+00	0	37	0	0	53	4423
2026-01-24 23:22:51.02	39.51	41.76	-40.8	-42.7	18.3	0.00e+00	0	37	0	0	53	4399
2026-01-24 23:22:52.02	39.74	42.00	-40.7	-42.5	18.4	0.00e+00	0	37	0	0	53	4328
2026-01-24 23:22:53.02	39.97	42.25	-40.6	-42.4	18.4	0.00e+00	0	37	0	0	53	4284
2026-01-24 23:22:54.01	40.20	42.49	-41.0	-42.9	17.9	0.00e+00	0	37	0	0	53	4514
2026-01-24 23:22:55.00	40.44	42.74	-41.3	-43.3	17.6	0.00e+00	0	37	0	0	53	4716
2026-01-24 23:22:56.00	40.68	42.99	-41.7	-43.7	17.3	0.00e+00	0	37	0	0	53	4962
2026-01-24 23:22:56.99	40.92	43.24	-41.8	-43.9	17.2	0.00e+00	0	37	0	0	54	4782
2026-01-24 23:22:57.99	41.17	43.49	-42.0	-44.1	16.9	0.00e+00	0	37	0	0	54	4893
2026-01-24 23:22:58.98	41.42	43.74	-42.3	-44.5	16.6	0.00e+00	0	37	0	0	55	4824
2026-01-24 23:22:59.98	41.68	43.99	-42.5	-44.8	16.2	0.00e+00	0	37	0	0	55	5002
2026-01-24 23:23:00.97	41.93	44.24	-42.9	-45.3	15.9	0.00e+00	0	37	0	0	56	5015
2026-01-24 23:23:01.97	42.20	44.50	-42.8	-45.2	16.0	0.00e+00	0	37	0	0	56	4950
2026-01-24 23:23:02.96	42.46	44.75	-42.7	-45.0	16.1	0.00e+00	0	37	0	0	56	4836
2026-01-24 23:23:03.96	42.74	45.01	-42.6	-44.8	16.2	0.00e+00	0	37	0	0	56	4755
2026-01-24 23:23:04.95	43.01	45.27	-42.5	-44.8	16.3	0.00e+00	0	37	0	0	56	4717
2026-01-24 23:23:05.94	43.29	45.52	-42.5	-44.8	16.3	0.00e+00	0	37	0	0	56	4723
2026-01-24 23:23:06.94	43.58	45.78	-42.7	-45.1	16.0	0.00e+00	0	37	0	0	56	4871
2026-01-24 23:23:07.93	43.87	46.04	-43.0	-45.4	15.7	0.00e+00	0	37	0	0	56	5087
2026-01-24 23:23:08.93	44.16	46.31	-42.9	-45.3	15.8	0.00e+00	0	37	0	0	56	5013
2026-01-24 23:23:09.92	44.46	46.57	-42.5	-44.8	16.2	0.00e+00	0	37	0	0	56	4749
2026-01-24 23:23:10.91	44.76	46.83	-42.0	-44.1	16.9	0.00e+00	0	37	0	0	56	4381
2026-01-24 23:23:11.91	45.07	47.09	-41.1	-43.0	17.7	0.00e+00	0	37	0	0	54	4334
2026-01-24 23:23:12.90	45.38	47.36	-40.7	-42.6	18.0	0.00e+00	0	37	0	0	53	4372
2026-01-24 23:23:13.90	45.71	47.62	-40.6	-42.4	18.2	0.00e+00	0	37	0	0	53	4287
2026-01-24 23:23:14.89	46.03	47.89	-40.5	-42.3	18.4	0.00e+00	0	37	0	0	53	4235
2026-01-24 23:23:15.89	46.36	48.15	-40.5	-42.3	18.4	0.00e+00	0	37	0	0	52	4484
2026-01-24 23:23:16.88	46.70	48.42	-40.6	-42.5	18.3	0.00e+00	0	37	0	0	52	4568
2026-01-24 23:23:17.88	47.04	48.69	-40.8	-42.7	18.1	0.00e+00	0	37	0	0	52	4700
2026-01-24 23:23:18.87	47.39	48.96	-41.1	-43.1	17.8	0.00e+00	0	37	0	0	52	4877
2026-01-24 23:23:19.87	47.74	49.23	-41.1	-43.1	17.8	0.00e+00	0	37	0	0	53	4631
2026-01-24 23:23:20.87	48.11	49.50	-41.3	-43.3	17.7	0.00e+00	0	37	0	0	53	4708
2026-01-24 23:23:21.86	48.47	49.77	-41.3	-43.3	17.5	0.00e+00	0	37	0	0	53	4750
2026-01-24 23:23:22.86	48.85	50.04	-41.2	-43.2	17.6	0.00e+00	0	37	0	0	53	4671
2026-01-24 23:23:23.85	49.22	50.31	-41.1	-43.1	17.6	0.00e+00	0	37	0	0	53	4640
2026-01-24 23:23:24.85	49.61	50.58	-41.0	-43.0	17.8	0.00e+00	0	37	0	0	53	4566
2026-01-24 23:23:25.84	50.01	50.85	-40.8	-42.8	18.0	0.00e+00	0	37	0	0	53	4448
2026-01-24 23:23:26.84	50.41	51.12	-40.8	-42.8	18.1	0.00e+00	0	37	0	0	53	4442
2026-01-24 23:23:27.83	50.81	51.39	-40.7	-42.6	18.3	0.00e+00	0	38	0	0	53	4391
2026-01-24 23:23:28.83	51.23	51.66	-40.6	-42.5	18.3	0.00e+00	0	37	0	0	53	4336
2026-01-24 23:23:29.82	51.65	51.93	-40.7	-42.6	18.2	0.00e+00	0	37	0	0	53	4383
2026-01-24 23:23:30.82	52.09	52.20	-40.8	-42.7	18.1	0.00e+00	0	37	0	0	53	4426
2026-01-24 23:23:31.81	52.52	52.47	-40.6	-42.5	18.4	0.00e+00	0	37	0	0	53	4325
2026-01-24 23:23:32.81	52.97	52.75	-40.3	-42.2	18.7	0.00e+00	0	37	0	0	52	4417
2026-01-24 23:23:33.80	53.42	53.02	-40.0	-41.8	19.1	0.00e+00	0	37	0	0	52	4203
2026-01-24 23:23:34.80	53.89	53.29	-39.6	-41.3	19.6	0.00e+00	0	37	0	0	51	4224
2026-01-24 23:23:35.79	54.36	53.56	-39.5	-41.2	19.8	0.00e+00	0	37	0	0	50	4409
2026-01-24 23:23:36.79	54.84	53.83	-39.4	-41.1	19.7	0.00e+00	0	37	0	0	50	4388
2026-01-24 23:23:37.78	55.33	54.09	-39.5	-41.3	19.6	0.00e+00	0	37	0	0	50	4453
2026-01-24 23:23:38.78	55.83	54.36	-39.6	-41.3	19.5	0.00e+00	0	37	0	0	50	4486
2026-01-24 23:23:39.77	56.34	54.63	-39.5	-41.2	19.7	0.00e+00	0	37	0	0	50	4425
2026-01-24 23:23:40.77	56.86	54.90	-39.0	-40.7	20.2	0.00e+00	0	37	0	0	50	4170
2026-01-24 23:23:41.76	57.38	55.16	-38.6	-40.2	20.4	0.00e+00	0	37	0	0	49	4186
2026-01-24 23:23:42.76	57.92	55.42	-38.6	-40.3	20.4	0.00e+00	0	37	0	0	49	4196
2026-01-24 23:23:43.75	58.47	55.69	-38.6	-40.3	20.3	0.00e+00	0	37	0	0	49	4215
2026-01-24 23:23:44.75	59.03	55.95	-38.9	-40.5	20.1	0.00e+00	0	37	0	0	49	4326
2026-01-24 23:23:45.74	59.59	56.21	-39.1	-40.8	19.9	0.00e+00	0	37	0	0	49	4446
2026-01-24 23:23:46.73	60.17	56.47	-39.3	-41.0	19.5	0.00e+00	0	37	0	0	49	4574
2026-01-24 23:23:47.73	60.76	56.72	-39.2	-40.9	19.5	0.00e+00	0	37	0	0	49	4525
2026-01-24 23:23:48.73	61.37	56.98	-39.1	-40.8	19.6	0.00e+00	0	37	0	0	49	4454
2026-01-24 23:23:49.72	61.98	57.23	-39.1	-40.8	19.8	0.00e+00	0	37	0	0	49	4487
2026-01-24 23:23:50.72	62.60	57.49	-38.8	-40.5	20.2	0.00e+00	0	37	0	0	49	4325
2026-01-24 23:23:51.71	63.23	57.73	-38.8	-40.4	20.3	0.00e+00	0	37	0	0	49	4285
2026-01-24 23:23:52.70	63.88	57.98	-38.7	-40.3	20.4	0.00e+00	0	37	0	0	49	4216
2026-01-24 23:23:53.70	64.54	58.23	-38.8	-40.5	20.2	0.00e+00	0	37	0	0	49	4297
2026-01-24 23:23:54.69	65.21	58.47	-38.8	-40.5	20.0	0.00e+00	0	37	0	0	49	4319
2026-01-24 23:23:55.69	65.89	58.71	-38.9	-40.6	20.1	0.00e+00	0	37	0	0	49	4371
2026-01-24 23:23:56.69	66.59	58.95	-38.7	-40.4	20.4	0.00e+00	0	37	0	0	49	4253
2026-01-24 23:23:57.68	67.30	59.18	-38.3	-39.9	20.7	0.00e+00	0	37	0	0	48	4278
2026-01-24 23:23:58.67	68.01	59.41	-38.1	-39.7	20.8	0.00e+00	0	37	0	0	48	4190
2026-01-24 23:23:59.67	68.75	59.64	-38.2	-39.8	20.8	0.00e+00	0	37	0	0	48	4209
2026-01-24 23:24:00.67	69.50	59.86	-38.4	-40.1	20.6	0.00e+00	0	37	0	0	48	4358
2026-01-24 23:24:01.66	70.25	60.08	-38.3	-40.0	20.8	0.00e+00	0	37	0	0	48	4299
2026-01-24 23:24:02.65	71.02	60.30	-38.0	-39.6	21.2	0.00e+00	0	37	0	0	48	4127
2026-01-24 23:24:03.65	71.81	60.51	-37.7	-39.3	21.3	0.00e+00	0	37	0	0	47	4207
2026-01-24 23:24:04.64	72.60	60.72	-37.5	-39.1	21.4	0.00e+00	0	37	0	0	47	4102
2026-01-24 23:24:05.64	73.42	60.92	-37.5	-39.1	21.4	0.00e+00	0	37	0	0	46	4342
2026-01-24 23:24:06.63	74.24	61.12	-37.6	-39.2	21.3	0.00e+00	0	37	0	0	46	4396
2026-01-24 23:24:07.62	75.07	61.32	-37.8	-39.4	21.1	0.00e+00	0	37	0	0	46	4522
2026-01-24 23:24:08.62	75.92	61.51	-37.7	-39.3	21.0	0.00e+00	0	37	0	0	46	4485
2026-01-24 23:24:09.61	76.78	61.69	-37.7	-39.3	20.9	0.00e+00	0	37	0	0	46	4471
2026-01-24 23:24:10.60	77.65	61.87	-37.7	-39.4	21.1	0.00e+00	0	37	0	0	46	4495
2026-01-24 23:24:11.60	78.55	62.05	-37.6	-39.2	21.2	0.00e+00	0	37	0	0	46	4409
2026-01-24 23:24:12.59	79.44	62.22	-37.8	-39.4	21.0	0.00e+00	0	37	0	0	46	4502
2026-01-24 23:24:13.59	80.36	62.38	-38.1	-39.8	20.7	0.00e+00	0	37	0	0	46	4720
2026-01-24 23:24:14.58	81.28	62.54	-38.4	-40.1	20.5	0.00e+00	0	37	0	0	47	4607
2026-01-24 23:24:15.57	82.22	62.69	-38.3	-40.0	20.6	0.00e+00	0	37	0	0	47	4583
2026-01-24 23:24:16.57	83.17	62.84	-38.3	-39.9	20.7	0.00e+00	0	37	0	0	47	4532
2026-01-24 23:24:17.56	84.12	62.98	-37.9	-39.5	20.9	0.00e+00	0	37	0	0	47	4335
2026-01-24 23:24:18.56	85.10	63.11	-37.8	-39.4	20.8	0.00e+00	0	37	0	0	47	4266
2026-01-24 23:24:19.55	86.08	63.24	-38.0	-39.7	20.8	0.00e+00	0	37	0	0	47	4393
2026-01-24 23:24:20.54	87.07	63.36	-37.9	-39.6	20.9	0.00e+00	0	37	0	0	47	4344
2026-01-24 23:24:21.54	88.07	63.47	-37.7	-39.2	21.1	0.00e+00	0	37	0	0	47	4193
2026-01-24 23:24:22.53	89.08	63.58	-37.5	-39.1	21.1	0.00e+00	0	37	0	0	46	4345
2026-01-24 23:24:23.53	90.11	63.68	-37.6	-39.2	21.0	0.00e+00	0	37	0	0	46	4416
2026-01-24 23:24:24.52	91.13	63.77	-37.5	-39.1	21.3	0.00e+00	0	37	0	0	46	4341
2026-01-24 23:24:25.52	92.17	63.85	-37.3	-38.9	21.5	0.00e+00	0	38	0	0	46	4257
2026-01-24 23:24:26.51	93.21	63.93	-37.8	-39.5	20.9	0.00e+00	0	37	0	0	46	4549
2026-01-24 23:24:27.51	94.27	64.00	-38.4	-40.2	20.4	0.00e+00	0	37	0	0	47	4652
2026-01-24 23:24:28.50	95.32	64.06	-38.4	-40.1	20.6	0.00e+00	0	37	0	0	47	4626
2026-01-24 23:24:29.50	96.39	64.12	-38.1	-39.8	20.7	0.00e+00	0	37	0	0	47	4458
2026-01-24 23:24:30.49	97.45	64.16	-37.9	-39.5	20.6	0.00e+00	0	37	0	0	47	4317
2026-01-24 23:24:31.49	98.52	64.20	-37.8	-39.5	20.9	0.00e+00	0	37	0	0	47	4301
2026-01-24 23:24:32.48	99.59	64.23	-37.8	-39.5	21.1	0.00e+00	0	37	0	0	47	4305
2026-01-24 23:24:33.48	100.67	64.25	-37.8	-39.4	21.2	0.00e+00	0	37	0	0	47	4281
2026-01-24 23:24:34.47	101.74	64.27	-37.7	-39.3	21.1	0.00e+00	0	37	0	0	47	4209
2026-01-24 23:24:35.47	102.83	64.27	-37.7	-39.3	21.1	0.00e+00	0	37	0	0	47	4208
2026-01-24 23:24:36.46	103.90	64.27	-37.4	-39.0	21.5	0.00e+00	0	37	0	0	46	4310
2026-01-24 23:24:37.46	104.99	64.26	-37.5	-39.1	21.5	0.00e+00	0	37	0	0	46	4376
2026-01-24 23:24:38.45	106.06	64.24	-38.2	-39.8	20.9	0.00e+00	0	37	0	0	47	4478
2026-01-24 23:24:39.45	107.14	64.21	-38.9	-40.6	20.4	0.00e+00	0	37	0	0	48	4633
2026-01-24 23:24:40.44	108.21	64.18	-39.0	-40.7	20.3	0.00e+00	0	37	0	0	49	4407
2026-01-24 23:24:41.44	109.28	64.14	-38.3	-39.9	21.0	0.00e+00	0	37	0	0	48	4269
2026-01-24 23:24:42.43	110.34	64.09	-37.8	-39.4	21.2	0.00e+00	0	37	0	0	47	4264
2026-01-24 23:24:43.43	111.40	64.03	-37.3	-38.8	21.7	0.00e+00	0	38	0	0	46	4220
2026-01-24 23:24:44.42	112.45	63.96	-37.5	-39.1	21.5	0.00e+00	0	38	0	0	46	4356
2026-01-24 23:24:45.42	113.51	63.89	-37.8	-39.4	21.2	0.00e+00	0	37	0	0	46	4545
2026-01-24 23:24:46.41	114.54	63.81	-38.0	-39.7	21.0	0.00e+00	0	37	0	0	46	4654
2026-01-24 23:24:47.40	115.57	63.72	-37.8	-39.4	21.0	0.00e+00	0	38	0	0	46	4533
2026-01-24 23:24:48.40	116.60	63.63	-37.7	-39.3	21.1	0.00e+00	0	37	0	0	46	4493
2026-01-24 23:24:49.39	117.61	63.52	-37.8	-39.4	21.1	0.00e+00	0	38	0	0	46	4522
2026-01-24 23:24:50.39	118.63	63.41	-38.1	-39.8	21.0	0.00e+00	0	37	0	0	46	4710
2026-01-24 23:24:51.38	119.62	63.30	-38.3	-39.9	20.8	0.00e+00	0	37	0	0	47	4538
2026-01-24 23:24:52.38	120.61	63.17	-38.2	-39.8	20.8	0.00e+00	0	37	0	0	47	4473
2026-01-24 23:24:53.37	121.59	63.04	-38.2	-39.8	20.6	0.00e+00	0	37	0	0	47	4484
2026-01-24 23:24:54.37	122.56	62.90	-38.0	-39.7	20.6	0.00e+00	0	37	0	0	47	4410
2026-01-24 23:24:55.36	123.51	62.76	-37.7	-39.2	21.3	0.00e+00	0	37	0	0	47	4190
2026-01-24 23:24:56.36	124.46	62.61	-37.7	-39.2	21.3	0.00e+00	0	37	0	0	47	4186
2026-01-24 23:24:57.36	125.39	62.45	-38.0	-39.6	21.0	0.00e+00	0	37	0	0	47	4382
2026-01-24 23:24:58.35	126.31	62.29	-38.8	-40.5	20.4	0.00e+00	0	37	0	0	48	4560
2026-01-24 23:24:59.34	127.21	62.12	-38.3	-39.9	20.9	0.00e+00	0	38	0	0	48	4285
2026-01-24 23:25:00.34	128.11	61.95	-37.7	-39.2	21.2	0.00e+00	0	37	0	0	47	4189
2026-01-24 23:25:01.33	128.99	61.77	-37.8	-39.4	20.9	0.00e+00	0	38	0	0	47	4279
2026-01-24 23:25:02.33	129.86	61.59	-38.1	-39.7	20.9	0.00e+00	0	37	0	0	47	4396
2026-01-24 23:25:03.32	130.72	61.40	-38.9	-40.6	20.4	0.00e+00	0	37	0	0	48	4609
2026-01-24 23:25:04.32	131.57	61.21	-39.5	-41.2	19.8	0.00e+00	0	37	0	0	49	4695
2026-01-24 23:25:05.31	132.39	61.01	-40.1	-42.0	19.1	0.00e+00	0	37	0	0	50	4842
2026-01-24 23:25:06.31	133.21	60.80	-39.4	-41.1	19.9	0.00e+00	0	38	0	0	50	4370
2026-01-24 23:25:07.30	134.01	60.60	-38.4	-40.0	20.8	0.00e+00	0	37	0	0	48	4319
2026-01-24 23:25:08.29	134.80	60.39	-38.3	-39.9	20.8	0.00e+00	0	38	0	0	48	4275
2026-01-24 23:25:09.29	135.58	60.17	-39.0	-40.7	20.2	0.00e+00	0	37	0	0	48	4670
2026-01-24 23:25:10.28	136.35	59.95	-39.7	-41.4	19.6	0.00e+00	0	38	0	0	50	4540
2026-01-24 23:25:11.28	137.10	59.73	-40.0	-41.8	19.2	0.00e+00	0	38	0	0	50	4750
2026-01-24 23:25:12.27	137.84	59.50	-40.0	-41.8	19.1	0.00e+00	0	38	0	0	51	4493
2026-01-24 23:25:13.27	138.57	59.27	-39.6	-41.4	19.3	0.00e+00	0	37	0	0	51	4246
2026-01-24 23:25:14.26	139.28	59.04	-38.4	-40.0	20.7	0.00e+00	0	38	0	0	48	4319
2026-01-24 23:25:15.26	139.99	58.80	-37.5	-39.0	21.2	0.00e+00	0	38	0	0	47	4093
2026-01-24 23:25:16.25	140.67	58.56	-37.9	-39.5	21.1	0.00e+00	0	37	0	0	46	4591
2026-01-24 23:25:17.25	141.35	58.32	-39.0	-40.7	20.3	0.00e+00	0	37	0	0	48	4655
2026-01-24 23:25:18.25	142.02	58.08	-40.0	-41.8	19.3	0.00e+00	0	38	0	0	50	4745
2026-01-24 23:25:19.24	142.67	57.83	-39.8	-41.6	19.1	0.00e+00	0	38	0	0	51	4356
2026-01-24 23:25:20.23	143.31	57.58	-38.9	-40.6	19.4	0.00e+00	0	37	0	0	49	4345
2026-01-24 23:25:21.22	143.94	57.33	-38.2	-39.8	20.4	0.00e+00	0	37	0	0	48	4216
2026-01-24 23:25:22.22	144.56	57.08	-38.1	-39.7	20.8	0.00e+00	0	38	0	0	48	4188
2026-01-24 23:25:23.21	145.16	56.82	-38.4	-40.1	20.7	0.00e+00	0	38	0	0	48	4341
2026-01-24 23:25:24.21	145.76	56.56	-39.4	-41.1	19.9	0.00e+00	0	38	0	0	49	4613
2026-01-24 23:25:25.20	146.34	56.31	-40.5	-42.3	18.8	0.00e+00	0	37	0	0	51	4755
2026-01-24 23:25:26.20	146.92	56.04	-40.8	-42.7	18.4	0.00e+00	0	38	0	0	52	4676
2026-01-24 23:25:27.19	147.48	55.78	-40.7	-42.7	18.3	0.00e+00	0	38	0	0	53	4405
2026-01-24 23:25:28.18	148.03	55.52	-39.5	-41.3	19.6	0.00e+00	0	37	0	0	51	4194
2026-01-24 23:25:29.18	148.58	55.26	-38.7	-40.3	20.4	0.00e+00	0	37	0	0	49	4240
2026-01-24 23:25:30.17	149.11	54.99	-38.7	-40.3	20.5	0.00e+00	0	37	0	0	49	4223
2026-01-24 23:25:31.17	149.63	54.72	-39.6	-41.3	19.7	0.00e+00	0	37	0	0	49	4734
2026-01-24 23:25:32.16	150.14	54.46	-40.3	-42.1	18.9	0.00e+00	0	38	0	0	51	4602
2026-01-24 23:25:33.16	150.65	54.19	-40.4	-42.2	18.8	0.00e+00	0	37	0	0	51	4667
2026-01-24 23:25:34.15	151.14	53.92	-40.6	-42.4	18.7	0.00e+00	0	37	0	0	51	4811
2026-01-24 23:25:35.14	151.62	53.65	-40.6	-42.5	18.4	0.00e+00	0	38	0	0	52	4585
2026-01-24 23:25:36.14	152.10	53.38	-40.1	-41.9	18.8	0.00e+00	0	37	0	0	52	4284
2026-01-24 23:25:37.13	152.57	53.11	-39.6	-41.3	19.2	0.00e+00	0	37	0	0	51	4225
2026-01-24 23:25:38.13	153.03	52.84	-39.3	-41.0	19.6	0.00e+00	0	37	0	0	50	4292
2026-01-24 23:25:39.12	153.48	52.57	-39.2	-40.8	19.9	0.00e+00	0	37	0	0	50	4229
2026-01-24 23:25:40.12	153.93	52.29	-39.6	-41.3	19.7	0.00e+00	0	37	0	0	50	4473
2026-01-24 23:25:41.11	154.36	52.02	-40.5	-42.4	18.7	0.00e+00	0	37	0	0	51	4785
2026-01-24 23:25:42.11	154.79	51.75	-41.2	-43.1	17.9	0.00e+00	0	38	0	0	53	4649
2026-01-24 23:25:43.10	155.21	51.48	-41.4	-43.4	17.3	0.00e+00	0	37	0	0	53	4785
2026-01-24 23:25:44.10	155.62	51.20	-41.8	-44.0	16.3	0.00e+00	0	37	0	0	54	4840
2026-01-24 23:25:45.09	156.02	50.93	-41.8	-44.0	16.7	0.00e+00	0	37	0	0	54	4826
2026-01-24 23:25:46.09	156.42	50.66	-41.2	-43.2	17.7	0.00e+00	0	38	0	0	54	4392
2026-01-24 23:25:47.08	156.81	50.39	-40.7	-42.6	18.4	0.00e+00	0	37	0	0	53	4364
2026-01-24 23:25:48.08	157.20	50.11	-40.8	-42.7	18.3	0.00e+00	0	37	0	0	53	4410
2026-01-24 23:25:49.07	157.57	49.84	-41.1	-43.0	18.0	0.00e+00	0	37	0	0	53	4586
2026-01-24 23:25:50.06	157.94	49.57	-41.1	-43.0	18.0	0.00e+00	0	37	0	0	53	4577
2026-01-24 23:25:51.06	158.31	49.30	-41.2	-43.2	18.0	0.00e+00	0	38	0	0	53	4662
2026-01-24 23:25:52.05	158.66	49.03	-41.8	-43.9	17.3	0.00e+00	0	37	0	0	54	4762
2026-01-24 23:25:53.05	159.01	48.76	-41.8	-43.9	17.2	0.00e+00	0	37	0	0	54	4802
2026-01-24 23:25:54.04	159.36	48.49	-41.4	-43.4	17.7	0.00e+00	0	38	0	0	54	4510
2026-01-24 23:25:55.04	159.70	48.22	-40.8	-42.7	18.3	0.00e+00	0	38	0	0	53	4425
2026-01-24 23:25:56.03	160.03	47.96	-40.1	-41.8	19.1	0.00e+00	0	37	0	0	52	4236
2026-01-24 23:25:57.02	160.36	47.69	-40.0	-41.8	19.2	0.00e+00	0	37	0	0	51	4446
2026-01-24 23:25:58.02	160.68	47.42	-40.9	-42.7	18.1	0.00e+00	0	37	0	0	52	4695
2026-01-24 23:25:59.01	161.00	47.16	-41.8	-43.9	17.2	0.00e+00	0	37	0	0	54	4760
2026-01-24 23:26:00.01	161.31	46.89	-41.9	-44.0	17.0	0.00e+00	0	37	0	0	54	4837
2026-01-24 23:26:01.00	161.62	46.63	-41.9	-44.1	16.8	0.00e+00	0	37	0	0	54	4872
2026-01-24 23:26:02.00	161.92	46.36	-41.7	-43.7	17.1	0.00e+00	0	37	0	0	54	4698
2026-01-24 23:26:02.99	162.22	46.10	-41.6	-43.6	17.3	0.00e+00	0	37	0	0	54	4642
2026-01-24 23:26:03.98	162.51	45.84	-41.7	-43.7	17.2	0.00e+00	0	37	0	0	54	4692
2026-01-24 23:26:04.98	162.80	45.58	-41.6	-43.7	17.3	0.00e+00	0	37	0	0	54	4654
2026-01-24 23:26:05.97	163.08	45.32	-41.7	-43.8	17.1	0.00e+00	0	37	0	0	54	4755
2026-01-24 23:26:06.97	163.36	45.06	-41.8	-44.0	16.9	0.00e+00	0	37	0	0	54	4835
2026-01-24 23:26:07.96	163.63	44.80	-42.2	-44.4	16.6	0.00e+00	0	37	0	0	55	4791
2026-01-24 23:26:08.96	163.90	44.55	-41.9	-44.0	17.0	0.00e+00	0	37	0	0	55	4589
2026-01-24 23:26:09.95	164.16	44.29	-41.7	-43.7	17.3	0.00e+00	0	37	0	0	55	4428
2026-01-24 23:26:10.95	164.43	44.03	-41.6	-43.6	17.4	0.00e+00	0	37	0	0	55	4357
2026-01-24 23:26:11.94	164.68	43.78	-41.9	-44.0	16.9	0.00e+00	0	38	0	0	55	4566
2026-01-24 23:26:12.94	164.94	43.53	-42.2	-44.4	16.5	0.00e+00	0	37	0	0	55	4790
2026-01-24 23:26:13.93	165.18	43.28	-42.2	-44.4	16.5	0.00e+00	0	38	0	0	55	4794
2026-01-24 23:26:14.93	165.43	43.02	-41.8	-43.9	17.1	0.00e+00	0	37	0	0	55	4501
2026-01-24 23:26:15.92	165.67	42.78	-41.2	-43.1	18.0	0.00e+00	0	37	0	0	54	4359
2026-01-24 23:26:16.92	165.91	42.53	-41.0	-42.9	18.1	0.00e+00	0	37	0	0	54	4275
2026-01-24 23:26:17.91	166.14	42.28	-40.9	-42.8	18.2	0.00e+00	0	37	0	0	53	4456
2026-01-24 23:26:18.90	166.37	42.03	-40.9	-42.8	18.1	0.00e+00	0	37	0	0	53	4486
2026-01-24 23:26:19.90	166.60	41.79	-41.1	-43.0	17.9	0.00e+00	0	38	0	0	53	4596
2026-01-24 23:26:20.89	166.82	41.54	-41.0	-42.9	18.0	0.00e+00	0	38	0	0	53	4541
2026-01-24 23:26:21.89	167.05	41.30	-40.9	-42.8	18.1	0.00e+00	0	37	0	0	53	4461
2026-01-24 23:26:22.88	167.26	41.06	-41.0	-42.9	17.9	0.00e+00	0	37	0	0	53	4525
2026-01-24 23:26:23.87	167.47	40.82	-41.4	-43.4	17.5	0.00e+00	0	37	0	0	53	4780
2026-01-24 23:26:24.87	167.69	40.58	-41.4	-43.5	17.5	0.00e+00	0	37	0	0	53	4825
2026-01-24 23:26:25.86	167.89	40.34	-41.4	-43.4	17.6	0.00e+00	0	37	0	0	53	4808
2026-01-24 23:26:26.86	168.10	40.10	-41.1	-43.1	17.9	0.00e+00	0	37	0	0	53	4602
2026-01-24 23:26:27.85	168.30	39.87	-41.0	-43.0	18.0	0.00e+00	0	37	0	0	53	4550
2026-01-24 23:26:28.84	168.50	39.63	-41.2	-43.2	17.7	0.00e+00	0	37	0	0	53	4675
2026-01-24 23:26:29.84	168.70	39.40	-41.5	-43.5	17.4	0.00e+00	0	37	0	0	53	4829
2026-01-24 23:26:30.83	168.89	39.17	-41.8	-43.8	17.1	0.00e+00	0	37	0	0	54	4740
2026-01-24 23:26:31.83	169.08	38.94	-41.7	-43.7	17.3	0.00e+00	0	37	0	0	54	4674
2026-01-24 23:26:32.82	169.27	38.71	-41.4	-43.4	17.7	0.00e+00	0	37	0	0	54	4507
2026-01-24 23:26:33.82	169.46	38.48	-41.2	-43.1	17.9	0.00e+00	0	38	0	0	54	4390
2026-01-24 23:26:34.81	169.64	38.25	-41.0	-42.9	18.1	0.00e+00	0	37	0	0	53	4509
2026-01-24 23:26:35.81	169.82	38.02	-41.1	-43.0	18.0	0.00e+00	0	37	0	0	53	4581
2026-01-24 23:26:36.80	170.00	37.80	-41.1	-43.1	17.8	0.00e+00	0	38	0	0	53	4599
2026-01-24 23:26:37.79	170.18	37.58	-41.0	-43.0	17.8	0.00e+00	0	37	0	0	53	4574
2026-01-24 23:26:38.79	170.35	37.35	-40.9	-42.9	17.7	0.00e+00	0	37	0	0	53	4523
2026-01-24 23:26:39.79	170.52	37.13	-40.8	-42.7	17.7	0.00e+00	0	37	0	0	53	4424
2026-01-24 23:26:40.78	170.69	36.91	-40.5	-42.4	18.1	0.00e+00	0	38	0	0	53	4264
2026-01-24 23:26:41.78	170.86	36.69	-40.1	-42.0	18.6	0.00e+00	0	37	0	0	52	4321
2026-01-24 23:26:42.77	171.02	36.47	-40.0	-41.8	19.0	0.00e+00	0	37	0	0	51	4458
2026-01-24 23:26:43.77	171.19	36.26	-39.9	-41.7	19.1	0.00e+00	0	37	0	0	51	4410
2026-01-24 23:26:44.76	171.35	36.04	-39.8	-41.6	19.2	0.00e+00	0	37	0	0	51	4368
2026-01-24 23:26:45.76	171.51	35.83	-39.6	-41.4	19.5	0.00e+00	0	37	0	0	51	4253
2026-01-24 23:26:46.76	171.66	35.61	-39.6	-41.3	19.5	0.00e+00	0	37	0	0	51	4234
2026-01-24 23:26:47.75	171.82	35.40	-39.7	-41.5	19.4	0.00e+00	0	38	0	0	51	4305
2026-01-24 23:26:48.75	171.97	35.19	-39.9	-41.7	19.2	0.00e+00	0	37	0	0	51	4412
2026-01-24 23:26:49.74	172.12	34.98	-40.0	-41.8	19.2	0.00e+00	0	37	0	0	51	4468
2026-01-24 23:26:50.74	172.27	34.77	-40.0	-41.8	19.2	0.00e+00	0	38	0	0	51	4469
2026-01-24 23:26:51.73	172.42	34.56	-40.0	-41.8	19.2	0.00e+00	0	37	0	0	51	4475
2026-01-24 23:26:52.72	172.56	34.36	-40.0	-41.8	19.2	0.00e+00	0	37	0	0	51	4449
2026-01-24 23:26:53.72	172.71	34.15	-40.0	-41.7	19.3	0.00e+00	0	38	0	0	51	4428
2026-01-24 23:26:54.71	172.85	33.95	-40.3	-42.1	18.9	0.00e+00	0	37	0	0	51	4639
2026-01-24 23:26:55.71	172.99	33.75	-40.6	-42.5	18.6	0.00e+00	0	37	0	0	51	4828
2026-01-24 23:26:56.71	173.13	33.54	-40.7	-42.6	18.4	0.00e+00	0	37	0	0	52	4630
2026-01-24 23:26:57.70	173.26	33.35	-40.7	-42.6	18.3	0.00e+00	0	37	0	0	52	4649
2026-01-24 23:26:58.69	173.40	33.15	-40.6	-42.5	18.3	0.00e+00	0	37	0	0	52	4593
2026-01-24 23:26:59.69	173.53	32.95	-40.4	-42.3	18.5	0.00e+00	0	37	0	0	52	4488
2026-01-24 23:27:00.68	173.66	32.75	-40.4	-42.3	18.5	0.00e+00	0	37	0	0	52	4451
2026-01-24 23:27:01.68	173.80	32.56	-40.1	-41.9	18.8	0.00e+00	0	37	0	0	52	4289
2026-01-24 23:27:02.67	173.92	32.36	-39.8	-41.6	19.1	0.00e+00	0	38	0	0	51	4373
2026-01-24 23:27:03.67	174.05	32.17	-39.4	-41.1	19.6	0.00e+00	0	38	0	0	50	4363
2026-01-24 23:27:04.66	174.18	31.98	-39.3	-41.0	19.7	0.00e+00	0	37	0	0	50	4297
2026-01-24 23:27:05.66	174.30	31.78	-39.1	-40.8	19.9	0.00e+00	0	37	0	0	50	4204
2026-01-24 23:27:06.65	174.43	31.59	-39.2	-41.0	19.8	0.00e+00	0	38	0	0	50	4294
2026-01-24 23:27:07.65	174.55	31.40	-39.0	-40.8	20.0	0.00e+00	0	38	0	0	50	4194
2026-01-24 23:27:08.64	174.67	31.22	-39.0	-40.7	20.1	0.00e+00	0	38	0	0	50	4164
2026-01-24 23:27:09.64	174.79	31.03	-39.1	-40.8	20.1	0.00e+00	0	37	0	0	50	4201
2026-01-24 23:27:10.63	174.90	30.84	-39.0	-40.7	20.2	0.00e+00	0	38	0	0	50	4174
2026-01-24 23:27:11.63	175.02	30.66	-39.1	-40.8	20.1	0.00e+00	0	37	0	0	50	4211
2026-01-24 23:27:12.62	175.14	30.47	-39.0	-40.7	20.2	0.00e+00	0	38	0	0	50	4167
2026-01-24 23:27:13.61	175.25	30.29	-39.0	-40.7	20.2	0.00e+00	0	38	0	0	50	4174
2026-01-24 23:27:14.61	175.36	30.11	-39.1	-40.8	20.1	0.00e+00	0	38	0	0	50	4231
2026-01-24 23:27:15.60	175.47	29.93	-39.2	-40.9	20.1	0.00e+00	0	37	0	0	50	4262
2026-01-24 23:27:16.60	175.58	29.75	-39.2	-40.9	20.0	0.00e+00	0	37	0	0	50	4276
2026-01-24 23:27:17.59	175.69	29.57	-39.3	-41.1	19.9	0.00e+00	0	37	0	0	50	4345
2026-01-24 23:27:18.59	175.80	29.39	-39.6	-41.3	19.7	0.00e+00	0	38	0	0	50	4468
2026-01-24 23:27:19.58	175.91	29.22	-39.8	-41.5	19.5	0.00e+00	0	38	0	0	50	4584
2026-01-24 23:27:20.58	176.01	29.04	-39.9	-41.6	19.4	0.00e+00	0	37	0	0	50	4642
2026-01-24 23:27:21.57	176.12	28.87	-40.0	-41.8	19.2	0.00e+00	0	38	0	0	50	4727
2026-01-24 23:27:22.57	176.22	28.69	-40.0	-41.8	19.2	0.00e+00	0	38	0	0	50	4735
2026-01-24 23:27:23.56	176.32	28.52	-40.0	-41.9	19.1	0.00e+00	0	38	0	0	50	4761
2026-01-24 23:27:24.56	176.43	28.35	-40.0	-41.8	19.1	0.00e+00	0	38	0	0	50	4736
2026-01-24 23:27:25.55	176.52	28.18	-40.0	-41.9	19.1	0.00e+00	0	38	0	0	50	4766
2026-01-24 23:27:26.55	176.62	28.01	-39.9	-41.7	19.2	0.00e+00	0	38	0	0	50	4700
2026-01-24 23:27:27.54	176.72	27.84	-39.9	-41.7	19.2	0.00e+00	0	38	0	0	50	4701
2026-01-24 23:27:28.54	176.82	27.67	-39.9	-41.7	19.2	0.00e+00	0	38	0	0	50	4668
2026-01-24 23:27:29.53	176.92	27.50	-39.9	-41.7	19.2	0.00e+00	0	37	0	0	50	4659
2026-01-24 23:27:30.53	177.01	27.34	-39.6	-41.4	19.4	0.00e+00	0	38	0	0	50	4530
2026-01-24 23:27:31.52	177.11	27.17	-39.6	-41.4	19.5	0.00e+00	0	37	0	0	50	4503
2026-01-24 23:27:32.52	177.20	27.01	-39.7	-41.5	19.3	0.00e+00	0	38	0	0	50	4573
2026-01-24 23:27:33.51	177.29	26.84	-39.6	-41.4	19.4	0.00e+00	0	38	0	0	50	4511
2026-01-24 23:27:34.50	177.38	26.68	-39.6	-41.3	19.5	0.00e+00	0	38	0	0	50	4466
2026-01-24 23:27:35.50	177.47	26.52	-39.4	-41.1	19.7	0.00e+00	0	37	0	0	50	4377
2026-01-24 23:27:36.49	177.56	26.36	-39.1	-40.7	20.1	0.00e+00	0	37	0	0	50	4189
2026-01-24 23:27:37.49	177.65	26.20	-38.9	-40.5	20.2	0.00e+00	0	38	0	0	49	4335
2026-01-24 23:27:38.48	177.74	26.04	-38.7	-40.4	20.3	0.00e+00	0	38	0	0	49	4250
2026-01-24 23:27:39.47	177.83	25.88	-38.4	-40.0	20.6	0.00e+00	0	37	0	0	48	4339
2026-01-24 23:27:40.47	177.91	25.73	-38.3	-39.9	20.3	0.00e+00	0	37	0	0	48	4266
2026-01-24 23:27:41.46	178.00	25.57	-38.3	-39.9	20.7	0.00e+00	0	38	0	0	48	4252
2026-01-24 23:27:42.46	178.09	25.41	-38.2	-39.8	20.8	0.00e+00	0	38	0	0	48	4217
2026-01-24 23:27:43.45	178.17	25.26	-38.2	-39.8	20.8	0.00e+00	0	37	0	0	48	4237
2026-01-24 23:27:44.45	178.25	25.11	-38.3	-39.9	20.7	0.00e+00	0	38	0	0	48	4261
2026-01-24 23:27:45.44	178.33	24.95	-38.4	-40.0	20.6	0.00e+00	0	37	0	0	48	4334
2026-01-24 23:27:46.44	178.42	24.80	-38.5	-40.1	20.6	0.00e+00	0	38	0	0	48	4378
2026-01-24 23:27:47.43	178.50	24.65	-38.6	-40.2	20.6	0.00e+00	0	38	0	0	48	4420
2026-01-24 23:27:48.43	178.58	24.50	-38.7	-40.3	20.5	0.00e+00	0	38	0	0	48	4481
2026-01-24 23:27:49.42	178.66	24.35	-38.7	-40.3	20.5	0.00e+00	0	38	0	0	48	4473
2026-01-24 23:27:50.41	178.74	24.20	-38.7	-40.4	20.5	0.00e+00	0	37	0	0	48	4504
2026-01-24 23:27:51.41	178.81	24.05	-38.8	-40.5	20.4	0.00e+00	0	37	0	0	48	4552
2026-01-24 23:27:52.41	178.89	23.91	-38.9	-40.6	20.3	0.00e+00	0	38	0	0	48	4603
2026-01-24 23:27:53.40	178.97	23.76	-38.7	-40.4	20.4	0.00e+00	0	38	0	0	48	4524
2026-01-24 23:27:54.39	179.04	23.61	-38.9	-40.5	20.3	0.00e+00	0	38	0	0	48	4587
2026-01-24 23:27:55.39	179.12	23.47	-38.9	-40.6	20.2	0.00e+00	0	38	0	0	48	4623
2026-01-24 23:27:56.38	179.19	23.33	-39.0	-40.7	20.1	0.00e+00	0	37	0	0	48	4684
2026-01-24 23:27:57.38	179.27	23.18	-39.0	-40.7	20.1	0.00e+00	0	37	0	0	48	4687
2026-01-24 23:27:58.37	179.34	23.04	-39.0	-40.7	20.1	0.00e+00	0	38	0	0	48	4663
2026-01-24 23:27:59.37	179.42	22.90	-39.1	-40.8	20.0	0.00e+00	0	38	0	0	48	4721
2026-01-24 23:28:00.37	179.49	22.75	-39.1	-40.8	20.0	0.00e+00	0	38	0	0	48	4759
2026-01-24 23:28:01.36	179.56	22.61	-39.0	-40.7	20.0	0.00e+00	0	38	0	0	48	4687
2026-01-24 23:28:02.36	179.63	22.47	-39.1	-40.8	20.0	0.00e+00	0	38	0	0	48	4717
2026-01-24 23:28:03.35	179.70	22.34	-39.2	-40.9	19.8	0.00e+00	0	38	0	0	49	4530
2026-01-24 23:28:04.34	179.77	22.20	-39.1	-40.9	19.9	0.00e+00	0	37	0	0	49	4503
2026-01-24 23:28:05.34	179.84	22.06	-39.1	-40.8	20.0	0.00e+00	0	37	0	0	49	4452
2026-01-24 23:28:06.33	179.91	21.92	-39.2	-40.9	19.9	0.00e+00	0	38	0	0	49	4503
2026-01-24 23:28:07.33	179.98	21.79	-39.2	-40.9	19.9	0.00e+00	0	37	0	0	49	4542
2026-01-24 23:28:08.32	180.04	21.65	-39.2	-40.9	19.9	0.00e+00	0	37	0	0	49	4544
2026-01-24 23:28:09.31	180.11	21.52	-39.1	-40.8	20.0	0.00e+00	0	37	0	0	49	4487
2026-01-24 23:28:10.31	180.18	21.38	-39.1	-40.8	20.0	0.00e+00	0	37	0	0	49	4457
2026-01-24 23:28:11.30	180.24	21.25	-39.0	-40.8	20.0	0.00e+00	0	37	0	0	49	4442
2026-01-24 23:28:12.29	180.31	21.12	-39.0	-40.7	20.0	0.00e+00	0	38	0	0	49	4440
2026-01-24 23:28:13.29	180.37	20.98	-39.0	-40.8	20.0	0.00e+00	0	37	0	0	49	4445
2026-01-24 23:28:14.28	180.44	20.85	-39.0	-40.7	20.1	0.00e+00	0	37	0	0	49	4399
2026-01-24 23:28:15.28	180.50	20.72	-39.0	-40.7	20.0	0.00e+00	0	37	0	0	49	4427
2026-01-24 23:28:16.27	180.56	20.59	-39.1	-40.8	19.9	0.00e+00	0	37	0	0	49	4463
2026-01-24 23:28:17.27	180.63	20.46	-39.0	-40.7	20.0	0.00e+00	0	38	0	0	49	4433
2026-01-24 23:28:18.26	180.69	20.33	-39.1	-40.9	19.9	0.00e+00	0	37	0	0	49	4496
2026-01-24 23:28:19.26	180.75	20.20	-39.2	-41.0	19.7	0.00e+00	0	37	0	0	49	4558
2026-01-24 23:28:20.25	180.81	20.08	-39.1	-40.8	19.9	0.00e+00	0	38	0	0	49	4491
2026-01-24 23:28:21.25	180.87	19.95	-39.2	-41.0	19.7	0.00e+00	0	37	0	0	49	4552
2026-01-24 23:28:22.24	180.93	19.82	-39.1	-40.9	19.8	0.00e+00	0	37	0	0	49	4527
2026-01-24 23:28:23.24	180.99	19.70	-39.2	-41.0	19.7	0.00e+00	0	37	0	0	49	4551
2026-01-24 23:28:24.23	181.05	19.57	-39.3	-41.1	19.6	0.00e+00	0	38	0	0	49	4605
2026-01-24 23:28:25.23	181.11	19.45	-39.2	-41.0	19.7	0.00e+00	0	38	0	0	49	4554
2026-01-24 23:28:26.22	181.17	19.32	-39.2	-41.0	19.7	0.00e+00	0	37	0	0	49	4563
2026-01-24 23:28:27.22	181.23	19.20	-39.3	-41.0	19.6	0.00e+00	0	38	0	0	49	4595
2026-01-24 23:28:28.21	181.28	19.08	-39.2	-40.9	19.7	0.00e+00	0	37	0	0	49	4535
2026-01-24 23:28:29.21	181.34	18.95	-39.1	-40.9	19.7	0.00e+00	0	37	0	0	49	4510
2026-01-24 23:28:30.20	181.40	18.83	-39.1	-40.8	19.7	0.00e+00	0	38	0	0	49	4492
2026-01-24 23:28:31.20	181.45	18.71	-39.2	-40.9	19.6	0.00e+00	0	38	0	0	49	4513
2026-01-24 23:28:32.19	181.51	18.59	-39.1	-40.8	19.7	0.00e+00	0	38	0	0	49	4485
2026-01-24 23:28:33.19	181.56	18.47	-39.2	-40.9	19.6	0.00e+00	0	38	0	0	49	4532
2026-01-24 23:28:34.19	181.62	18.35	-39.1	-40.8	19.7	0.00e+00	0	38	0	0	49	4480
2026-01-24 23:28:35.18	181.67	18.23	-39.2	-40.9	19.6	0.00e+00	0	38	0	0	49	4522
2026-01-24 23:28:36.17	181.73	18.11	-39.2	-40.9	19.6	0.00e+00	0	37	0	0	49	4535
2026-01-24 23:28:37.17	181.78	18.00	-39.2	-41.0	19.6	0.00e+00	0	38	0	0	49	4546
2026-01-24 23:28:38.17	181.84	17.88	-39.3	-41.0	19.5	0.00e+00	0	37	0	0	49	4581
2026-01-24 23:28:39.16	181.89	17.76	-39.2	-41.0	19.6	0.00e+00	0	37	0	0	49	4547
2026-01-24 23:28:40.16	181.94	17.65	-39.3	-41.0	19.6	0.00e+00	0	38	0	0	49	4579
2026-01-24 23:28:41.15	181.99	17.53	-39.4	-41.1	19.5	0.00e+00	0	37	0	0	49	4649
2026-01-24 23:28:42.14	182.05	17.42	-39.3	-41.1	19.6	0.00e+00	0	37	0	0	49	4617
2026-01-24 23:28:43.14	182.10	17.30	-39.3	-41.1	19.5	0.00e+00	0	38	0	0	49	4630
2026-01-24 23:28:44.13	182.15	17.19	-39.4	-41.2	19.5	0.00e+00	0	37	0	0	49	4660
2026-01-24 23:28:45.13	182.20	17.07	-39.4	-41.2	19.5	0.00e+00	0	37	0	0	49	4678
2026-01-24 23:28:46.12	182.25	16.96	-39.5	-41.2	19.5	0.00e+00	0	37	0	0	49	4699
2026-01-24 23:28:47.12	182.30	16.85	-39.4	-41.2	19.5	0.00e+00	0	37	0	0	49	4696
2026-01-24 23:28:48.11	182.35	16.74	-39.5	-41.2	19.5	0.00e+00	0	37	0	0	49	4700
2026-01-24 23:28:49.11	182.40	16.62	-39.4	-41.1	19.6	0.00e+00	0	37	0	0	49	4644
2026-01-24 23:28:50.10	182.45	16.51	-39.4	-41.2	19.6	0.00e+00	0	38	0	0	49	4675
2026-01-24 23:28:51.09	182.50	16.40	-39.5	-41.3	19.5	0.00e+00	0	37	0	0	49	4708
2026-01-24 23:28:52.09	182.54	16.29	-39.5	-41.2	19.5	0.00e+00	0	38	0	0	49	4705
2026-01-24 23:28:53.08	182.59	16.18	-39.5	-41.2	19.5	0.00e+00	0	38	0	0	49	4698
2026-01-24 23:28:54.08	182.64	16.07	-39.5	-41.3	19.5	0.00e+00	0	38	0	0	49	4742
2026-01-24 23:28:55.07	182.69	15.96	-39.5	-41.3	19.4	0.00e+00	0	38	0	0	49	4747
2026-01-24 23:28:56.07	182.74	15.86	-39.6	-41.5	19.3	0.00e+00	0	37	0	0	49	4822
2026-01-24 23:28:57.07	182.78	15.75	-39.5	-41.3	19.4	0.00e+00	0	37	0	0	49	4753
2026-01-24 23:28:58.06	182.83	15.64	-39.5	-41.4	19.4	0.00e+00	0	38	0	0	49	4764
2026-01-24 23:28:59.06	182.87	15.53	-39.6	-41.4	19.3	0.00e+00	0	37	0	0	49	4807
2026-01-24 23:29:00.05	182.92	15.43	-39.6	-41.5	19.3	0.00e+00	0	37	0	0	49	4820
2026-01-24 23:29:01.05	182.97	15.32	-39.6	-41.5	19.3	0.00e+00	0	37	0	0	49	4829
2026-01-24 23:29:02.04	183.01	15.22	-39.6	-41.5	19.3	0.00e+00	0	38	0	0	50	4575
2026-01-24 23:29:03.04	183.06	15.11	-39.7	-41.6	19.1	0.00e+00	0	37	0	0	50	4626
2026-01-24 23:29:04.03	183.10	15.01	-39.8	-41.7	19.1	0.00e+00	0	37	0	0	50	4664
2026-01-24 23:29:05.03	183.15	14.90	-39.8	-41.7	19.1	0.00e+00	0	38	0	0	50	4653
2026-01-24 23:29:06.02	183.19	14.80	-39.9	-41.8	18.9	0.00e+00	0	37	0	0	50	4742
2026-01-24 23:29:07.02	183.23	14.69	-39.9	-41.8	18.9	0.00e+00	0	38	0	0	50	4745
2026-01-24 23:29:08.01	183.28	14.59	-39.9	-41.8	18.9	0.00e+00	0	38	0	0	50	4747
2026-01-24 23:29:09.01	183.32	14.49	-39.8	-41.7	19.0	0.00e+00	0	38	0	0	50	4686
2026-01-24 23:29:10.00	183.36	14.39	-39.9	-41.8	18.9	0.00e+00	0	38	0	0	50	4722
2026-01-24 23:29:11.00	183.41	14.28	-40.0	-41.9	18.8	0.00e+00	0	37	0	0	50	4792
2026-01-24 23:29:11.99	183.45	14.18	-40.0	-41.9	18.8	0.00e+00	0	37	0	0	50	4810
2026-01-24 23:29:12.99	183.49	14.08	-40.1	-42.1	18.7	0.00e+00	0	37	0	0	50	4875
2026-01-24 23:29:13.98	183.53	13.98	-40.2	-42.1	18.6	0.00e+00	0	37	0	0	50	4922
2026-01-24 23:29:14.97	183.57	13.88	-40.2	-42.2	18.5	0.00e+00	0	37	0	0	51	4700
2026-01-24 23:29:15.97	183.62	13.78	-40.3	-42.3	18.4	0.00e+00	0	37	0	0	51	4749
2026-01-24 23:29:16.96	183.66	13.68	-40.2	-42.2	18.5	0.00e+00	0	37	0	0	51	4664
2026-01-24 23:29:17.96	183.70	13.58	-40.3	-42.3	18.5	0.00e+00	0	38	0	0	51	4716
2026-01-24 23:29:18.96	183.74	13.49	-40.3	-42.3	18.4	0.00e+00	0	37	0	0	51	4748
2026-01-24 23:29:19.95	183.78	13.39	-40.4	-42.4	18.4	0.00e+00	0	37	0	0	51	4785
2026-01-24 23:29:20.95	183.82	13.29	-40.3	-42.4	18.4	0.00e+00	0	37	0	0	51	4771
2026-01-24 23:29:21.94	183.86	13.19	-40.4	-42.5	18.3	0.00e+00	0	38	0	0	51	4824
2026-01-24 23:29:22.94	183.90	13.10	-40.4	-42.4	18.3	0.00e+00	0	37	0	0	51	4787
2026-01-24 23:29:23.93	183.94	13.00	-40.4	-42.4	18.3	0.00e+00	0	37	0	0	51	4806
2026-01-24 23:29:24.93	183.98	12.90	-40.4	-42.4	18.3	0.00e+00	0	37	0	0	51	4809
2026-01-24 23:29:25.92	184.02	12.81	-40.4	-42.4	18.3	0.00e+00	0	37	0	0	51	4795
2026-01-24 23:29:26.92	184.05	12.71	-40.4	-42.5	18.3	0.00e+00	0	37	0	0	51	4816
2026-01-24 23:29:27.91	184.09	12.62	-40.5	-42.5	18.3	0.00e+00	0	37	0	0	51	4834
2026-01-24 23:29:28.91	184.13	12.52	-40.3	-42.3	18.4	0.00e+00	0	38	0	0	51	4745
2026-01-24 23:29:29.91	184.17	12.43	-40.4	-42.4	18.4	0.00e+00	0	38	0	0	51	4766
2026-01-24 23:29:30.90	184.21	12.33	-40.4	-42.4	18.2	0.00e+00	0	37	0	0	51	4805
2026-01-24 23:29:31.89	184.24	12.24	-40.3	-42.3	18.3	0.00e+00	0	38	0	0	51	4753
2026-01-24 23:29:32.89	184.28	12.15	-40.4	-42.4	18.3	0.00e+00	0	37	0	0	51	4780
2026-01-24 23:29:33.88	184.32	12.05	-40.4	-42.5	18.2	0.00e+00	0	37	0	0	51	4821
2026-01-24 23:29:34.88	184.36	11.96	-40.3	-42.3	18.3	0.00e+00	0	37	0	0	51	4752
2026-01-24 23:29:35.87	184.39	11.87	-40.4	-42.4	18.2	0.00e+00	0	38	0	0	51	4813
2026-01-24 23:29:36.87	184.43	11.78	-40.4	-42.5	18.2	0.00e+00	0	37	0	0	51	4832
2026-01-24 23:29:37.86	184.46	11.68	-40.5	-42.5	18.1	0.00e+00	0	37	0	0	51	4843
2026-01-24 23:29:38.86	184.50	11.59	-40.4	-42.4	18.2	0.00e+00	0	37	0	0	51	4811
2026-01-24 23:29:39.85	184.54	11.50	-40.5	-42.5	18.1	0.00e+00	0	38	0	0	51	4847
2026-01-24 23:29:40.85	184.57	11.41	-40.6	-42.7	18.0	0.00e+00	0	37	0	0	51	4928
2026-01-24 23:29:41.84	184.61	11.32	-40.5	-42.6	18.0	0.00e+00	0	37	0	0	51	4881
2026-01-24 23:29:42.83	184.64	11.23	-40.5	-42.5	18.1	0.00e+00	0	37	0	0	51	4849
2026-01-24 23:29:43.83	184.68	11.14	-40.6	-42.6	18.0	0.00e+00	0	37	0	0	51	4903
2026-01-24 23:29:44.82	184.71	11.05	-40.6	-42.7	17.9	0.00e+00	0	37	0	0	51	4952
2026-01-24 23:29:45.82	184.75	10.96	-40.7	-42.7	17.7	0.00e+00	0	37	0	0	52	4698
2026-01-24 23:29:46.81	184.78	10.87	-40.6	-42.6	17.8	0.00e+00	0	38	0	0	52	4630
2026-01-24 23:29:47.81	184.82	10.79	-40.5	-42.5	17.9	0.00e+00	0	37	0	0	52	4577
2026-01-24 23:29:48.80	184.85	10.70	-40.6	-42.6	17.8	0.00e+00	0	37	0	0	52	4634
2026-01-24 23:29:49.79	184.88	10.61	-40.4	-42.5	18.0	0.00e+00	0	37	0	0	52	4550
2026-01-24 23:29:50.79	184.92	10.52	-40.5	-42.5	17.9	0.00e+00	0	37	0	0	52	4579
2026-01-24 23:29:51.78	184.95	10.44	-40.5	-42.5	17.8	0.00e+00	0	38	0	0	52	4594
2026-01-24 23:29:52.78	184.99	10.35	-40.5	-42.5	17.8	0.00e+00	0	38	0	0	52	4585
2026-01-24 23:29:53.77	185.02	10.26	-40.5	-42.6	17.8	0.00e+00	0	38	0	0	52	4617
2026-01-24 23:29:54.76	185.05	10.18	-40.5	-42.6	17.8	0.00e+00	0	37	0	0	52	4599
2026-01-24 23:29:55.76	185.08	10.09	-40.5	-42.5	17.8	0.00e+00	0	38	0	0	52	4593
2026-01-24 23:29:56.75	185.12	10.00	-40.5	-42.6	17.8	0.00e+00	0	37	0	0	52	4601
2026-01-24 23:29:57.74	185.15	9.92	-40.5	-42.6	17.7	0.00e+00	0	37	0	0	52	4636
2026-01-24 23:29:58.74	185.18	9.83	-40.5	-42.6	17.7	0.00e+00	0	37	0	0	52	4631
2026-01-24 23:29:59.73	185.21	9.75	-40.5	-42.6	17.8	0.00e+00	0	37	0	0	52	4603
2026-01-24 23:30:00.73	185.25	9.66	-40.5	-42.6	17.8	0.00e+00	0	38	0	0	52	4609
2026-01-24 23:30:01.73	185.28	9.58	-40.5	-42.6	17.8	0.00e+00	0	37	0	0	52	4609
2026-01-24 23:30:02.72	185.31	9.50	-40.6	-42.7	17.7	0.00e+00	0	38	0	0	52	4655
2026-01-24 23:30:03.71	185.34	9.41	-40.6	-42.7	17.6	0.00e+00	0	37	0	0	52	4679
2026-01-24 23:30:04.71	185.37	9.33	-40.5	-42.6	17.7	0.00e+00	0	37	0	0	52	4628
2026-01-24 23:30:05.70	185.40	9.25	-40.6	-42.7	17.7	0.00e+00	0	38	0	0	52	4660
2026-01-24 23:30:06.70	185.43	9.16	-40.6	-42.6	17.7	0.00e+00	0	37	0	0	52	4641
2026-01-24 23:30:07.69	185.46	9.08	-40.6	-42.7	17.6	0.00e+00	0	38	0	0	52	4676
2026-01-24 23:30:08.69	185.50	9.00	-42.7	-45.3	15.3	0.00e+00	0	38	0	0	55	5323
2026-01-24 23:30:09.68	185.53	8.92	-48.4	-61.6	3.8	1.49e+00	0	38	104	0	67	17365
2026-01-24 23:30:10.67	185.56	8.84	-48.4	-62.1	3.8	1.49e+00	0	38	104	0	68	17449
2026-01-24 23:30:11.66	185.59	8.75	-48.7	-62.4	3.8	1.49e+00	0	37	104	0	68	17981
2026-01-24 23:30:12.66	185.62	8.67	-49.1	-62.5	3.8	1.49e+00	0	38	104	0	68	18179
2026-01-24 23:30:13.65	185.65	8.59	-49.5	-62.5	3.8	1.49e+00	0	37	104	0	69	17236
2026-01-24 23:30:14.65	185.68	8.51	-49.5	-62.6	3.8	1.49e+00	0	37	104	0	69	17284
2026-01-24 23:30:15.64	185.71	8.43	-49.5	-62.6	3.8	1.49e+00	0	38	104	0	69	17368
2026-01-24 23:30:16.63	185.73	8.35	-49.6	-62.6	3.8	1.49e+00	0	38	104	0	69	17468
2026-01-24 23:30:17.63	185.76	8.27	-49.6	-62.6	3.8	1.49e+00	0	37	104	0	69	17402
2026-01-24 23:30:18.62	185.79	8.19	-49.7	-62.6	3.8	1.49e+00	0	37	104	0	69	17429
2026-01-24 23:30:19.61	185.82	8.11	-49.7	-62.7	3.8	1.49e+00	0	38	104	0	70	16541
2026-01-24 23:30:20.60	185.85	8.03	-49.7	-62.7	3.8	1.49e+00	0	37	104	0	70	16574
2026-01-24 23:30:21.60	185.88	7.95	-49.6	-62.7	3.8	1.49e+00	0	37	104	0	70	16558
2026-01-24 23:30:22.59	185.91	7.87	-49.7	-62.7	3.8	1.49e+00	0	37	104	0	70	16541
2026-01-24 23:30:23.59	185.94	7.80	-49.4	-62.7	3.8	1.49e+00	0	37	104	0	70	16549
2026-01-24 23:30:24.58	185.96	7.72	-49.8	-62.7	3.8	1.49e+00	0	38	104	0	70	16578
2026-01-24 23:30:25.57	185.99	7.64	-49.6	-62.7	3.8	1.49e+00	0	37	104	0	70	16596
2026-01-24 23:30:26.56	186.02	7.56	-49.6	-62.7	3.8	1.49e+00	0	38	104	0	70	16544
2026-01-24 23:30:27.56	186.05	7.48	-49.6	-62.7	3.8	1.49e+00	0	37	104	0	70	16540
2026-01-24 23:30:28.55	186.08	7.41	-49.7	-62.7	3.8	1.49e+00	0	38	104	0	70	16596
2026-01-24 23:30:29.54	186.10	7.33	-49.8	-62.7	3.8	1.49e+00	0	38	104	0	70	16557
2026-01-24 23:30:30.54	186.13	7.25	-49.6	-62.7	3.8	1.49e+00	0	38	104	0	70	16539
2026-01-24 23:30:31.53	186.16	7.18	-49.7	-62.7	3.8	1.49e+00	0	37	104	0	70	16596
2026-01-24 23:30:32.52	186.19	7.10	-49.6	-62.7	3.8	1.49e+00	0	37	104	0	70	16552
2026-01-24 23:30:33.52	186.21	7.02	-49.5	-62.7	3.8	1.49e+00	0	38	104	0	70	16588
2026-01-24 23:30:34.51	186.24	6.95	-49.5	-62.6	3.8	1.49e+00	0	37	104	0	70	16496
2026-01-24 23:30:35.50	186.27	6.87	-49.4	-62.6	3.8	1.49e+00	0	38	104	0	70	16483
2026-01-24 23:30:36.50	186.29	6.80	-49.4	-62.6	3.8	1.49e+00	0	38	104	0	70	16501
2026-01-24 23:30:37.49	186.32	6.72	-49.4	-62.6	3.8	1.49e+00	0	38	104	0	70	16425
2026-01-24 23:30:38.49	186.35	6.65	-49.4	-62.6	3.8	1.49e+00	0	37	104	0	70	16411
2026-01-24 23:30:39.48	186.37	6.57	-49.4	-62.6	3.8	1.49e+00	0	38	104	0	70	16438
2026-01-24 23:30:40.47	186.40	6.50	-49.4	-62.6	3.8	1.49e+00	0	38	104	0	70	16387
2026-01-24 23:30:41.46	186.43	6.42	-49.4	-62.6	3.8	1.49e+00	0	38	104	0	70	16427
