passes_logs/2026/01/24/T1/T1__20260124_000639_SUOMI_NPP_rec.log

#Pass ID: 20260124_000639_SUOMI NPP
#Satellite: SUOMI NPP
#Configuration: NPP
#almurnet v.1.7.20251203
#Start time: 2026-01-24 00:06:40

#Version: 2.0.20230620
#Station: T1
#Location: 37.570604 lon 55.790049 lat
#TLE: 1 37849U 11061A   26022.92790088  .00000200  00000+0  11571-3 0  9994
#TLE: 2 37849  98.7820 324.9085 0002258  50.1112 310.0263 14.19528452737839

#Time	Az	El	Level	Level2	SNR	BER	BlckErr	Temp	State	Recorded	gain1	gain2
2026-01-24 00:06:40.24	14.20	5.05	-47.6	-63.2	3.8	1.49e+00	0	35	0	0	65	23548
2026-01-24 00:06:41.23	14.18	5.12	-47.6	-63.2	3.8	1.49e+00	0	36	104	0	67	20812
2026-01-24 00:06:42.23	14.17	5.19	-47.6	-63.2	3.8	1.49e+00	0	35	104	0	67	20889
2026-01-24 00:06:43.22	14.15	5.26	-47.6	-63.2	3.8	1.49e+00	0	36	104	0	66	22111
2026-01-24 00:06:44.21	14.14	5.33	-47.6	-63.2	3.8	1.49e+00	0	36	104	0	66	22221
2026-01-24 00:06:45.21	14.12	5.41	-47.6	-63.2	3.8	1.49e+00	0	36	104	0	66	22188
2026-01-24 00:06:46.20	14.11	5.48	-47.6	-63.3	3.8	1.49e+00	0	36	104	0	66	22269
2026-01-24 00:06:47.19	14.09	5.55	-47.6	-63.3	3.8	1.49e+00	0	36	104	0	66	22287
2026-01-24 00:06:48.19	14.08	5.62	-47.6	-63.3	3.8	1.49e+00	0	36	104	0	66	22292
2026-01-24 00:06:49.18	14.06	5.69	-47.6	-63.3	3.8	1.49e+00	0	36	104	0	66	22346
2026-01-24 00:06:50.17	14.05	5.76	-47.6	-63.3	3.8	1.49e+00	0	36	104	0	66	22366
2026-01-24 00:06:51.16	14.03	5.84	-47.6	-63.3	3.8	1.49e+00	0	36	104	0	66	22314
2026-01-24 00:06:52.16	14.02	5.91	-47.6	-63.3	3.8	1.49e+00	0	36	104	0	66	22366
2026-01-24 00:06:53.15	14.00	5.98	-47.6	-63.3	3.8	1.49e+00	0	36	104	0	66	22294
2026-01-24 00:06:54.14	13.99	6.06	-47.6	-63.3	3.8	1.49e+00	0	36	104	0	66	22298
2026-01-24 00:06:55.14	13.97	6.13	-47.6	-63.2	3.8	1.49e+00	0	36	104	0	66	22027
2026-01-24 00:06:56.13	13.96	6.20	-47.3	-63.2	3.8	1.49e+00	0	36	104	0	66	22024
2026-01-24 00:06:57.12	13.94	6.28	-47.6	-63.1	3.8	1.49e+00	0	36	104	0	66	21910
2026-01-24 00:06:58.12	13.92	6.35	-47.6	-63.0	3.8	1.49e+00	0	36	104	0	66	21654
2026-01-24 00:06:59.11	13.91	6.42	-47.5	-63.0	3.8	1.49e+00	0	36	104	0	66	21516
2026-01-24 00:07:00.10	13.89	6.50	-47.6	-62.8	3.8	1.49e+00	0	36	104	0	66	21181
2026-01-24 00:07:01.09	13.88	6.57	-47.6	-62.8	3.8	1.49e+00	0	36	104	0	66	21092
2026-01-24 00:07:02.09	13.86	6.65	-47.5	-62.7	3.8	1.49e+00	0	36	104	0	66	20792
2026-01-24 00:07:03.08	13.84	6.72	-47.6	-62.7	3.8	1.49e+00	0	36	104	0	66	20778
2026-01-24 00:07:04.07	13.83	6.80	-47.5	-62.6	3.8	1.49e+00	0	36	104	0	66	20766
2026-01-24 00:07:05.06	13.81	6.87	-47.6	-62.6	3.8	1.49e+00	0	37	104	0	66	20707
2026-01-24 00:07:06.06	13.79	6.95	-47.5	-62.7	3.8	1.49e+00	0	37	104	0	66	20881
2026-01-24 00:07:07.05	13.78	7.02	-47.6	-62.8	3.8	1.49e+00	0	37	104	0	66	21118
2026-01-24 00:07:08.04	13.76	7.10	-47.6	-62.9	3.8	1.49e+00	0	37	104	0	66	21304
2026-01-24 00:07:09.04	13.74	7.18	-47.6	-63.0	3.8	1.49e+00	0	37	104	0	66	21552
2026-01-24 00:07:10.03	13.73	7.25	-47.6	-63.0	3.8	1.49e+00	0	37	104	0	66	21643
2026-01-24 00:07:11.02	13.71	7.33	-47.6	-63.0	3.8	1.49e+00	0	37	104	0	66	21747
2026-01-24 00:07:12.02	13.69	7.41	-47.6	-63.1	3.8	1.49e+00	0	37	104	0	66	21804
2026-01-24 00:07:13.01	13.67	7.48	-47.6	-62.8	3.8	1.49e+00	0	37	104	0	66	21235
2026-01-24 00:07:14.00	13.66	7.56	-47.6	-62.6	3.8	1.49e+00	0	37	104	0	66	20699
2026-01-24 00:07:14.99	13.64	7.64	-47.5	-62.2	3.8	1.49e+00	0	37	104	0	66	19705
2026-01-24 00:07:15.99	13.62	7.72	-47.5	-61.6	3.8	1.49e+00	0	37	104	0	66	18396
2026-01-24 00:07:16.98	13.60	7.80	-47.4	-60.6	4.0	1.48e+00	0	37	104	0	66	16438
2026-01-24 00:07:17.97	13.58	7.87	-47.4	-59.5	4.3	1.41e+00	0	37	0	0	66	14434
2026-01-24 00:07:18.96	13.57	7.95	-47.2	-58.2	4.7	1.13e+00	0	37	0	1048576	66	12467
2026-01-24 00:07:19.96	13.55	8.03	-47.1	-57.1	5.3	5.75e-01	0	37	0	3145728	66	10967
2026-01-24 00:07:20.95	13.53	8.11	-46.9	-55.6	6.4	3.24e-01	0	37	0	5242880	65	9790
2026-01-24 00:07:21.95	13.51	8.19	-46.6	-54.5	7.4	1.67e-01	0	37	0	6291456	65	8579
2026-01-24 00:07:22.94	13.49	8.27	-46.4	-53.4	8.4	7.83e-02	0	37	0	8388608	64	8083
2026-01-24 00:07:23.93	13.47	8.35	-46.0	-52.4	9.5	1.79e-02	0	37	0	10485760	64	7128
2026-01-24 00:07:24.92	13.45	8.43	-45.8	-51.6	10.4	6.75e-03	0	37	0	12582912	63	6937
2026-01-24 00:07:25.92	13.43	8.51	-45.6	-51.1	10.9	3.65e-03	0	37	0	13631488	63	6533
2026-01-24 00:07:26.91	13.41	8.59	-45.3	-50.4	11.7	9.88e-04	0	37	0	15728640	62	6385
2026-01-24 00:07:27.90	13.40	8.67	-45.3	-50.2	11.8	3.50e-04	0	37	0	17825792	62	6262
2026-01-24 00:07:28.90	13.38	8.75	-45.0	-49.7	12.4	1.81e-04	0	37	0	19922944	62	5882
2026-01-24 00:07:29.89	13.36	8.83	-44.9	-49.6	12.6	1.07e-04	0	37	0	22020096	61	6144
2026-01-24 00:07:30.88	13.34	8.91	-44.9	-49.5	12.6	8.77e-05	0	37	0	23068672	61	6100
2026-01-24 00:07:31.88	13.32	9.00	-45.0	-49.7	12.4	9.15e-05	0	37	0	25165824	61	6236
2026-01-24 00:07:32.87	13.30	9.08	-45.3	-50.4	11.7	2.37e-04	0	37	0	27262976	61	6744
2026-01-24 00:07:33.87	13.28	9.16	-45.5	-50.7	11.5	5.30e-04	0	37	0	29360128	61	6996
2026-01-24 00:07:34.86	13.26	9.24	-46.3	-53.0	9.5	2.31e-03	0	37	0	30408704	63	8151
2026-01-24 00:07:35.86	13.23	9.33	-47.0	-56.7	5.7	7.36e-02	0	37	0	32505856	64	11737
2026-01-24 00:07:36.87	13.21	9.41	-42.9	-46.1	15.9	8.68e-02	0	37	0	34603008	57	5187
2026-01-24 00:07:37.88	13.19	9.50	-42.7	-45.8	16.3	0.00e+00	0	37	0	36700160	57	5019
2026-01-24 00:07:38.89	13.17	9.58	-42.5	-45.6	16.5	0.00e+00	0	37	0	38797312	57	4892
2026-01-24 00:07:39.89	13.15	9.67	-42.5	-45.5	16.6	0.00e+00	0	37	0	39845888	57	4833
2026-01-24 00:07:40.94	13.13	9.76	-42.4	-45.3	16.8	0.00e+00	0	37	0	41943040	56	5041
2026-01-24 00:07:41.85	13.11	9.83	-42.3	-45.3	16.9	0.00e+00	0	37	0	44040192	56	4995
2026-01-24 00:07:42.86	13.09	9.92	-42.3	-45.2	16.9	0.00e+00	0	37	0	46137344	56	4945
2026-01-24 00:07:43.85	13.06	10.00	-42.4	-45.3	16.8	0.00e+00	0	38	0	48234496	56	5026
2026-01-24 00:07:44.85	13.04	10.09	-42.3	-45.2	16.9	0.00e+00	0	38	0	49283072	56	4979
2026-01-24 00:07:45.84	13.02	10.18	-42.2	-45.1	17.0	0.00e+00	0	38	0	51380224	56	4882
2026-01-24 00:07:46.84	13.00	10.26	-42.3	-45.3	16.9	0.00e+00	0	37	0	53477376	56	4999
2026-01-24 00:07:47.83	12.98	10.35	-42.1	-44.9	17.2	0.00e+00	0	37	0	55574528	56	4811
2026-01-24 00:07:48.83	12.95	10.44	-42.0	-44.8	17.2	0.00e+00	0	37	0	56623104	56	4747
2026-01-24 00:07:49.82	12.93	10.52	-41.9	-44.9	17.1	0.00e+00	0	37	0	58720256	55	5044
2026-01-24 00:07:50.82	12.91	10.61	-41.8	-44.7	17.3	0.00e+00	0	37	0	60817408	55	4944
2026-01-24 00:07:51.83	12.88	10.70	-41.9	-44.8	17.2	0.00e+00	0	37	0	62914560	55	5013
2026-01-24 00:07:52.86	12.86	10.79	-41.9	-44.8	17.2	0.00e+00	0	37	0	65011712	55	5010
2026-01-24 00:07:53.85	12.84	10.88	-41.8	-44.6	17.4	0.00e+00	0	37	0	66060288	55	4891
2026-01-24 00:07:54.93	12.81	10.97	-41.6	-44.4	17.5	0.00e+00	0	38	0	68157440	55	4804
2026-01-24 00:07:55.81	12.79	11.05	-41.7	-44.5	17.4	0.00e+00	0	38	0	70254592	55	4863
2026-01-24 00:07:56.95	12.76	11.16	-41.6	-44.4	17.6	0.00e+00	0	38	0	72351744	55	4786
2026-01-24 00:07:57.80	12.74	11.23	-41.8	-44.6	17.4	0.00e+00	0	38	0	74448896	55	4922
2026-01-24 00:07:58.93	12.72	11.33	-41.7	-44.6	17.3	0.00e+00	0	37	0	75497472	55	4911
2026-01-24 00:07:59.79	12.70	11.41	-41.6	-44.5	17.5	0.00e+00	0	37	0	77594624	55	4820
2026-01-24 00:08:00.93	12.67	11.52	-41.7	-44.5	17.5	0.00e+00	0	37	0	79691776	55	4864
2026-01-24 00:08:01.78	12.65	11.59	-41.6	-44.4	17.4	0.00e+00	0	37	0	81788928	55	4802
2026-01-24 00:08:02.91	12.62	11.70	-41.5	-44.3	17.7	0.00e+00	0	38	0	83886080	55	4726
2026-01-24 00:08:03.76	12.60	11.78	-41.4	-44.2	17.8	0.00e+00	0	38	0	84934656	54	4929
2026-01-24 00:08:04.90	12.57	11.88	-41.4	-44.2	17.8	0.00e+00	0	37	0	87031808	54	4954
2026-01-24 00:08:05.75	12.55	11.96	-41.5	-44.3	17.7	0.00e+00	0	38	0	89128960	54	5018
2026-01-24 00:08:06.89	12.52	12.07	-41.4	-44.2	17.8	0.00e+00	0	37	0	91226112	54	4973
2026-01-24 00:08:07.75	12.49	12.15	-41.4	-44.2	17.8	0.00e+00	0	37	0	92274688	54	4976
2026-01-24 00:08:08.92	12.46	12.26	-41.4	-44.2	17.8	0.00e+00	0	37	0	94371840	54	4957
2026-01-24 00:08:09.77	12.44	12.34	-41.3	-44.1	17.9	0.00e+00	0	38	0	96468992	54	4897
2026-01-24 00:08:10.97	12.41	12.45	-41.2	-44.0	18.0	0.00e+00	0	37	0	98566144	54	4820
2026-01-24 00:08:11.82	12.39	12.53	-41.2	-43.9	18.1	0.00e+00	0	38	0	100663296	54	4786
2026-01-24 00:08:13.02	12.36	12.65	-41.3	-44.0	18.1	0.00e+00	0	38	0	102760448	54	4833
2026-01-24 00:08:13.88	12.33	12.73	-41.2	-44.0	18.0	0.00e+00	0	38	0	103809024	54	4816
2026-01-24 00:08:15.01	12.30	12.84	-41.2	-44.0	18.0	0.00e+00	0	38	0	105906176	54	4825
2026-01-24 00:08:15.87	12.28	12.92	-41.3	-44.0	18.0	0.00e+00	0	38	0	108003328	54	4840
2026-01-24 00:08:17.00	12.25	13.03	-41.1	-43.9	18.1	0.00e+00	0	38	0	110100480	54	4763
2026-01-24 00:08:17.86	12.22	13.11	-41.2	-43.8	18.2	0.00e+00	0	38	0	111149056	54	4751
2026-01-24 00:08:18.99	12.19	13.22	-41.1	-43.8	18.2	0.00e+00	0	38	0	113246208	54	4722
2026-01-24 00:08:19.85	12.17	13.31	-41.2	-43.9	18.1	0.00e+00	0	38	0	115343360	54	4792
2026-01-24 00:08:20.99	12.13	13.42	-41.1	-43.8	18.2	0.00e+00	0	38	0	117440512	54	4740
2026-01-24 00:08:21.84	12.11	13.50	-41.2	-43.9	18.1	0.00e+00	0	38	0	118489088	54	4774
2026-01-24 00:08:22.98	12.08	13.62	-41.2	-43.8	18.2	0.00e+00	0	38	0	120586240	54	4730
2026-01-24 00:08:23.83	12.05	13.70	-41.1	-43.8	18.3	0.00e+00	0	38	0	122683392	54	4710
2026-01-24 00:08:25.02	12.02	13.82	-41.1	-43.7	18.3	0.00e+00	0	38	0	124780544	54	4665
2026-01-24 00:08:25.87	11.99	13.90	-41.1	-43.7	18.3	0.00e+00	0	38	0	126877696	54	4660
2026-01-24 00:08:27.01	11.96	14.02	-41.1	-43.7	18.4	0.00e+00	0	38	0	128974848	54	4656
2026-01-24 00:08:27.86	11.93	14.11	-41.0	-43.6	18.3	0.00e+00	0	38	0	130023424	54	4650
2026-01-24 00:08:29.11	11.89	14.23	-41.0	-43.6	18.3	0.00e+00	0	38	0	132120576	53	4902
2026-01-24 00:08:29.96	11.87	14.32	-40.9	-43.5	18.5	0.00e+00	0	38	0	134217728	53	4837
2026-01-24 00:08:31.10	11.83	14.44	-41.0	-43.6	18.4	0.00e+00	0	38	0	136314880	53	4878
2026-01-24 00:08:31.95	11.81	14.52	-41.0	-43.6	18.4	6.56e-05	0	38	0	137363456	53	4895
2026-01-24 00:08:33.08	11.77	14.64	-40.9	-43.5	18.5	0.00e+00	0	38	0	140509184	53	4816
2026-01-24 00:08:33.93	11.74	14.73	-40.8	-43.4	18.6	0.00e+00	0	38	0	141557760	53	4766
2026-01-24 00:08:35.07	11.71	14.85	-40.7	-43.2	18.8	0.00e+00	0	38	0	143654912	53	4678
2026-01-24 00:08:35.92	11.68	14.94	-40.7	-43.1	18.9	0.00e+00	0	38	0	145752064	53	4649
2026-01-24 00:08:37.06	11.64	15.06	-40.6	-43.1	18.9	0.00e+00	0	38	0	147849216	53	4615
2026-01-24 00:08:37.91	11.62	15.14	-40.6	-43.1	18.9	0.00e+00	0	38	0	148897792	53	4604
2026-01-24 00:08:39.05	11.58	15.27	-40.5	-42.9	19.0	0.00e+00	0	38	0	150994944	53	4541
2026-01-24 00:08:39.90	11.55	15.36	-40.5	-42.9	19.0	0.00e+00	0	38	0	153092096	52	4811
2026-01-24 00:08:41.04	11.51	15.48	-40.4	-42.8	19.2	0.00e+00	0	38	0	155189248	52	4715
2026-01-24 00:08:41.89	11.48	15.57	-40.4	-42.8	19.2	0.00e+00	0	38	0	156237824	52	4724
2026-01-24 00:08:43.03	11.44	15.69	-40.3	-42.7	19.3	0.00e+00	0	38	0	158334976	52	4675
2026-01-24 00:08:43.88	11.42	15.78	-40.2	-42.6	19.3	0.00e+00	0	38	0	160432128	52	4635
2026-01-24 00:08:45.11	11.37	15.92	-40.1	-42.5	19.4	0.00e+00	0	38	0	162529280	52	4562
2026-01-24 00:08:45.97	11.34	16.01	-40.1	-42.5	19.4	0.00e+00	0	38	0	164626432	52	4579
2026-01-24 00:08:47.10	11.30	16.14	-40.1	-42.6	19.4	0.00e+00	0	38	0	166723584	52	4600
2026-01-24 00:08:47.95	11.27	16.23	-40.0	-42.4	19.6	0.00e+00	0	38	0	167772160	52	4530
2026-01-24 00:08:49.09	11.23	16.35	-40.0	-42.4	19.6	0.00e+00	0	38	0	169869312	51	4773
2026-01-24 00:08:50.00	11.20	16.46	-40.1	-42.5	19.5	0.00e+00	0	38	0	171966464	51	4842
2026-01-24 00:08:51.00	11.16	16.57	-40.0	-42.4	19.6	0.00e+00	0	38	0	174063616	51	4789
2026-01-24 00:08:51.99	11.13	16.68	-40.1	-42.5	19.5	0.00e+00	0	38	0	175112192	51	4845
2026-01-24 00:08:52.99	11.09	16.79	-40.1	-42.5	19.6	0.00e+00	0	38	0	177209344	51	4834
2026-01-24 00:08:53.98	11.05	16.90	-40.1	-42.5	19.5	0.00e+00	0	38	0	179306496	51	4849
2026-01-24 00:08:54.98	11.02	17.02	-40.0	-42.4	19.6	0.00e+00	0	38	0	181403648	51	4788
2026-01-24 00:08:55.97	10.98	17.13	-40.1	-42.5	19.6	0.00e+00	0	38	0	182452224	51	4818
2026-01-24 00:08:56.97	10.94	17.24	-40.2	-42.6	19.4	0.00e+00	0	38	0	184549376	51	4902
2026-01-24 00:08:57.96	10.90	17.36	-40.2	-42.6	19.5	0.00e+00	0	38	0	186646528	51	4901
2026-01-24 00:08:58.96	10.87	17.47	-40.1	-42.5	19.5	0.00e+00	0	38	0	188743680	51	4866
2026-01-24 00:08:59.95	10.83	17.59	-40.2	-42.6	19.4	0.00e+00	0	38	0	190840832	51	4921
2026-01-24 00:09:00.95	10.79	17.71	-40.2	-42.7	19.4	0.00e+00	0	38	0	191889408	51	4938
2026-01-24 00:09:01.94	10.75	17.82	-40.2	-42.6	19.4	0.00e+00	0	38	0	193986560	51	4908
2026-01-24 00:09:02.94	10.71	17.94	-40.2	-42.7	19.3	0.00e+00	0	38	0	196083712	51	4936
2026-01-24 00:09:03.93	10.67	18.06	-40.1	-42.5	19.6	0.00e+00	0	38	0	198180864	51	4835
2026-01-24 00:09:04.93	10.63	18.18	-40.1	-42.5	19.6	0.00e+00	0	38	0	200278016	51	4829
2026-01-24 00:09:05.93	10.59	18.30	-40.1	-42.6	19.5	0.00e+00	0	38	0	201326592	51	4884
2026-01-24 00:09:06.92	10.55	18.41	-40.0	-42.5	19.6	0.00e+00	0	38	0	203423744	51	4821
2026-01-24 00:09:07.91	10.50	18.53	-40.1	-42.5	19.5	6.10e-06	0	38	0	205520896	51	4863
2026-01-24 00:09:08.91	10.46	18.66	-40.1	-42.5	19.6	0.00e+00	0	38	0	207618048	51	4838
2026-01-24 00:09:09.90	10.42	18.78	-40.1	-42.5	19.6	0.00e+00	0	38	0	208666624	51	4837
2026-01-24 00:09:10.90	10.38	18.90	-40.1	-42.5	19.5	5.03e-05	0	38	0	210763776	51	4852
2026-01-24 00:09:11.89	10.33	19.02	-39.9	-42.3	19.7	0.00e+00	0	38	0	212860928	51	4752
2026-01-24 00:09:12.89	10.29	19.14	-40.0	-42.4	19.7	0.00e+00	0	38	0	214958080	51	4779
2026-01-24 00:09:13.93	10.25	19.27	-40.0	-42.5	19.6	0.00e+00	0	38	0	217055232	51	4817
2026-01-24 00:09:14.89	10.20	19.39	-39.9	-42.3	19.8	0.00e+00	0	38	0	218103808	51	4708
2026-01-24 00:09:15.89	10.16	19.52	-40.0	-42.5	19.6	0.00e+00	0	38	0	220200960	51	4827
2026-01-24 00:09:16.88	10.11	19.64	-40.1	-42.5	19.5	0.00e+00	0	38	0	222298112	51	4842
2026-01-24 00:09:17.88	10.07	19.77	-40.1	-42.5	19.6	0.00e+00	0	38	0	224395264	51	4819
2026-01-24 00:09:18.87	10.02	19.90	-40.1	-42.5	19.6	0.00e+00	0	38	0	225443840	51	4849
2026-01-24 00:09:19.87	9.98	20.02	-40.0	-42.3	19.7	0.00e+00	0	38	0	227540992	51	4731
2026-01-24 00:09:20.86	9.93	20.15	-40.1	-42.5	19.6	1.64e-04	0	38	0	229638144	51	4825
2026-01-24 00:09:21.85	9.88	20.28	-40.1	-42.5	19.6	0.00e+00	0	38	0	231735296	51	4821
2026-01-24 00:09:22.85	9.84	20.41	-40.0	-42.4	19.7	0.00e+00	0	38	0	233832448	51	4776
2026-01-24 00:09:23.84	9.79	20.54	-40.2	-42.5	19.6	2.36e-04	0	38	0	234881024	51	4837
2026-01-24 00:09:24.84	9.74	20.67	-40.1	-42.4	19.7	0.00e+00	0	38	0	236978176	51	4783
2026-01-24 00:09:25.83	9.69	20.80	-40.0	-42.3	19.8	0.00e+00	0	38	0	239075328	51	4726
2026-01-24 00:09:26.83	9.64	20.93	-40.0	-42.2	19.8	0.00e+00	0	38	0	241172480	51	4693
2026-01-24 00:09:27.86	9.59	21.07	-39.9	-42.2	19.9	0.00e+00	0	38	0	243269632	51	4652
2026-01-24 00:09:28.85	9.54	21.20	-40.0	-42.3	19.8	0.00e+00	0	38	0	244318208	51	4713
2026-01-24 00:09:29.85	9.49	21.34	-40.0	-42.3	19.8	0.00e+00	0	38	0	246415360	51	4720
2026-01-24 00:09:30.84	9.44	21.47	-39.9	-42.1	20.0	0.00e+00	0	38	0	248512512	51	4604
2026-01-24 00:09:31.83	9.39	21.60	-40.1	-42.3	19.8	0.00e+00	0	38	0	250609664	51	4733
2026-01-24 00:09:32.83	9.33	21.74	-40.1	-42.4	19.7	0.00e+00	0	38	0	251658240	51	4782
2026-01-24 00:09:33.83	9.28	21.88	-40.1	-42.3	19.7	4.50e-05	0	38	0	253755392	51	4752
2026-01-24 00:09:34.82	9.23	22.01	-40.0	-42.3	19.8	0.00e+00	0	38	0	255852544	51	4719
2026-01-24 00:09:35.82	9.18	22.15	-40.0	-42.3	19.8	0.00e+00	0	38	0	257949696	51	4713
2026-01-24 00:09:36.81	9.12	22.29	-40.3	-42.7	19.4	0.00e+00	0	38	0	260046848	51	4970
2026-01-24 00:09:37.81	9.07	22.43	-40.3	-42.7	19.4	0.00e+00	0	38	0	261095424	51	4944
2026-01-24 00:09:38.80	9.01	22.57	-40.3	-42.6	19.6	0.00e+00	0	38	0	263192576	51	4885
2026-01-24 00:09:39.88	8.95	22.72	-40.6	-43.0	19.2	0.00e+00	0	38	0	265289728	51	5118
2026-01-24 00:09:40.73	8.90	22.84	-40.6	-43.0	19.1	0.00e+00	0	38	0	267386880	51	5121
2026-01-24 00:09:41.87	8.84	23.01	-40.5	-42.9	19.2	0.00e+00	0	38	0	269484032	51	5079
2026-01-24 00:09:42.72	8.79	23.13	-40.3	-42.6	19.5	0.00e+00	0	38	0	270532608	51	4926
2026-01-24 00:09:43.85	8.72	23.29	-39.9	-42.2	19.9	0.00e+00	0	38	0	272629760	51	4689
2026-01-24 00:09:44.71	8.67	23.42	-40.1	-42.5	19.7	0.00e+00	0	38	0	274726912	51	4818
2026-01-24 00:09:45.84	8.61	23.58	-40.1	-42.4	19.7	0.00e+00	0	38	0	276824064	51	4766
2026-01-24 00:09:46.70	8.56	23.71	-39.8	-42.0	20.1	0.00e+00	0	38	0	277872640	51	4570
2026-01-24 00:09:47.83	8.49	23.88	-40.1	-42.4	19.7	0.00e+00	0	38	0	279969792	51	4787
2026-01-24 00:09:48.68	8.43	24.00	-40.1	-42.3	19.8	0.00e+00	0	38	0	282066944	51	4740
2026-01-24 00:09:49.82	8.36	24.18	-40.2	-42.4	19.7	0.00e+00	0	38	0	284164096	51	4813
2026-01-24 00:09:50.67	8.31	24.30	-40.4	-42.7	19.5	7.17e-05	0	38	0	285212672	51	4961
2026-01-24 00:09:51.81	8.24	24.48	-40.1	-42.2	19.8	0.00e+00	0	38	0	287309824	51	4697
2026-01-24 00:09:52.66	8.19	24.60	-40.4	-42.6	19.6	0.00e+00	0	38	0	289406976	51	4898
2026-01-24 00:09:53.79	8.11	24.78	-40.6	-42.9	19.3	0.00e+00	0	38	0	291504128	51	5047
2026-01-24 00:09:54.69	8.06	24.92	-40.4	-42.6	19.5	0.00e+00	0	38	0	292552704	52	4637
2026-01-24 00:09:55.95	7.97	25.11	-41.0	-43.3	18.9	0.00e+00	0	38	0	295698432	52	5008
2026-01-24 00:09:56.73	7.92	25.23	-41.1	-43.4	18.7	0.00e+00	0	38	0	296747008	52	5092
2026-01-24 00:09:58.20	7.82	25.46	-41.1	-43.5	18.7	0.00e+00	0	38	0	299892736	53	4845
2026-01-24 00:09:58.91	7.77	25.57	-41.2	-43.6	18.6	0.00e+00	0	38	0	300941312	53	4903
2026-01-24 00:10:00.24	7.68	25.78	-41.0	-43.4	18.8	0.00e+00	0	38	0	303038464	53	4772
2026-01-24 00:10:00.95	7.63	25.90	-40.9	-43.3	18.9	0.00e+00	0	38	0	305135616	53	4710
2026-01-24 00:10:02.23	7.54	26.10	-40.9	-43.2	18.7	0.00e+00	0	38	0	307232768	53	4702
2026-01-24 00:10:02.94	7.49	26.22	-41.1	-43.4	18.8	0.00e+00	0	38	0	308281344	53	4800
2026-01-24 00:10:04.22	7.40	26.42	-41.2	-43.6	18.6	0.00e+00	0	38	0	311427072	53	4915
2026-01-24 00:10:04.94	7.35	26.54	-41.0	-43.4	18.8	0.00e+00	0	38	0	312475648	53	4769
2026-01-24 00:10:06.23	7.26	26.75	-41.4	-43.9	18.3	0.00e+00	0	38	0	314572800	53	5042
2026-01-24 00:10:06.94	7.20	26.87	-41.5	-44.0	18.2	0.00e+00	0	38	0	315621376	53	5111
2026-01-24 00:10:08.22	7.11	27.08	-41.7	-44.2	18.1	0.00e+00	0	38	0	318767104	54	4976
2026-01-24 00:10:08.97	7.05	27.21	-42.0	-44.6	17.7	0.00e+00	0	38	0	319815680	54	5194
2026-01-24 00:10:10.25	6.95	27.42	-41.9	-44.5	17.7	0.00e+00	0	38	0	321912832	54	5135
2026-01-24 00:10:10.98	6.90	27.55	-42.3	-45.0	17.4	0.00e+00	0	38	0	324009984	55	5105
2026-01-24 00:10:12.26	6.80	27.76	-42.3	-45.0	17.3	0.00e+00	0	38	0	326107136	55	5118
2026-01-24 00:10:12.97	6.74	27.88	-42.2	-44.8	17.4	0.00e+00	0	38	0	327155712	55	5029
2026-01-24 00:10:14.25	6.64	28.10	-42.1	-44.7	17.6	0.00e+00	0	38	0	330301440	55	4963
2026-01-24 00:10:14.99	6.58	28.23	-42.1	-44.7	17.6	0.00e+00	0	38	0	331350016	55	4969
2026-01-24 00:10:16.27	6.47	28.45	-42.0	-44.7	17.6	0.00e+00	0	38	0	333447168	55	4975
2026-01-24 00:10:16.98	6.41	28.58	-41.9	-44.6	17.7	0.00e+00	0	38	0	334495744	55	4884
2026-01-24 00:10:18.26	6.31	28.80	-42.1	-44.8	17.5	0.00e+00	0	38	0	337641472	55	4986
2026-01-24 00:10:18.97	6.25	28.93	-41.9	-44.5	17.8	0.00e+00	0	38	0	338690048	55	4834
2026-01-24 00:10:20.26	6.14	29.16	-41.9	-44.5	17.7	0.00e+00	0	38	0	340787200	55	4869
2026-01-24 00:10:20.97	6.08	29.29	-41.9	-44.5	17.8	0.00e+00	0	38	0	341835776	55	4860
2026-01-24 00:10:22.25	5.96	29.52	-42.1	-44.7	17.6	0.00e+00	0	38	0	344981504	55	4949
2026-01-24 00:10:22.97	5.90	29.65	-42.3	-45.0	17.3	0.00e+00	0	38	0	346030080	55	5140
2026-01-24 00:10:24.25	5.79	29.88	-43.0	-45.9	16.8	0.00e+00	0	38	0	348127232	56	5343
2026-01-24 00:10:24.96	5.72	30.01	-42.9	-45.8	16.7	0.00e+00	0	38	0	350224384	56	5300
2026-01-24 00:10:26.24	5.60	30.25	-43.1	-46.0	16.5	0.00e+00	0	38	0	352321536	57	5156
2026-01-24 00:10:26.96	5.54	30.38	-43.3	-46.4	16.1	1.50e-06	0	38	0	353370112	57	5394
2026-01-24 00:10:28.23	5.42	30.62	-43.3	-46.4	16.1	0.00e+00	0	38	0	355467264	57	5391
2026-01-24 00:10:28.96	5.35	30.75	-43.3	-46.5	16.1	0.00e+00	0	38	0	357564416	57	5405
2026-01-24 00:10:30.24	5.23	31.00	-43.1	-46.1	16.4	0.00e+00	0	38	0	359661568	57	5207
2026-01-24 00:10:30.96	5.15	31.13	-43.5	-46.7	15.8	0.00e+00	0	38	0	360710144	57	5570
2026-01-24 00:10:32.24	5.03	31.38	-43.1	-46.3	16.2	0.00e+00	0	38	0	363855872	57	5282
2026-01-24 00:10:32.95	4.96	31.51	-43.4	-46.6	15.9	0.00e+00	0	38	0	364904448	57	5485
2026-01-24 00:10:34.26	4.83	31.77	-43.9	-47.4	15.2	0.00e+00	0	38	0	367001600	58	5677
2026-01-24 00:10:34.97	4.75	31.90	-44.1	-47.6	15.0	0.00e+00	0	38	0	369098752	58	5791
2026-01-24 00:10:36.25	4.62	32.16	-43.8	-47.1	15.5	0.00e+00	0	38	0	371195904	58	5506
2026-01-24 00:10:36.96	4.55	32.30	-44.1	-47.5	15.1	0.00e+00	0	38	0	372244480	59	5449
2026-01-24 00:10:38.24	4.41	32.55	-43.8	-46.9	15.6	0.00e+00	0	38	0	374341632	59	5070
2026-01-24 00:10:38.95	4.33	32.69	-44.0	-47.3	15.3	0.00e+00	0	38	0	376438784	59	5299
2026-01-24 00:10:40.23	4.19	32.95	-44.0	-47.2	15.3	0.00e+00	0	38	0	378535936	59	5278
2026-01-24 00:10:40.96	4.11	33.09	-43.7	-46.8	15.7	0.00e+00	0	38	0	379584512	59	5016
2026-01-24 00:10:42.24	3.97	33.35	-44.0	-47.2	15.4	0.00e+00	0	38	0	381681664	59	5242
2026-01-24 00:10:42.96	3.89	33.50	-44.1	-47.3	15.3	0.00e+00	0	38	0	383778816	59	5335
2026-01-24 00:10:44.24	3.74	33.76	-43.9	-47.1	15.5	0.00e+00	0	38	0	385875968	59	5204
2026-01-24 00:10:44.95	3.66	33.91	-44.4	-47.9	14.7	0.00e+00	0	38	0	386924544	59	5657
2026-01-24 00:10:46.23	3.51	34.18	-44.2	-47.6	14.9	0.00e+00	0	38	0	390070272	59	5523
2026-01-24 00:10:47.12	3.40	34.36	-44.2	-47.6	15.0	0.00e+00	0	38	0	391118848	59	5512
2026-01-24 00:10:48.25	3.27	34.60	-44.4	-48.0	14.5	0.00e+00	0	38	0	393216000	59	5741
2026-01-24 00:10:49.10	3.16	34.78	-44.0	-47.3	15.2	0.00e+00	0	38	0	395313152	59	5336
2026-01-24 00:10:50.24	3.02	35.03	-43.7	-46.9	15.7	7.00e-07	0	38	0	397410304	59	5057
2026-01-24 00:10:51.09	2.91	35.21	-43.2	-46.2	16.3	0.00e+00	0	38	0	398458880	58	4954
2026-01-24 00:10:52.23	2.77	35.45	-42.9	-45.9	16.6	0.00e+00	0	38	0	400556032	57	5059
2026-01-24 00:10:53.08	2.66	35.64	-42.9	-45.8	16.6	0.00e+00	0	38	0	402653184	57	5030
2026-01-24 00:10:54.22	2.51	35.89	-43.1	-46.3	16.2	0.00e+00	0	38	0	404750336	57	5297
2026-01-24 00:10:55.07	2.39	36.07	-43.7	-47.2	15.4	0.00e+00	0	38	0	405798912	57	5870
2026-01-24 00:10:56.30	2.23	36.35	-44.0	-47.7	14.9	0.00e+00	0	38	0	408944640	58	5864
2026-01-24 00:10:57.15	2.11	36.54	-44.0	-47.8	14.8	0.00e+00	0	38	0	409993216	59	5625
2026-01-24 00:10:58.29	1.95	36.79	-44.3	-48.2	14.5	1.50e-06	0	38	0	412090368	59	5911
2026-01-24 00:10:59.14	1.83	36.98	-44.5	-48.4	14.2	3.00e-06	0	38	0	414187520	59	6038
2026-01-24 00:11:00.28	1.67	37.24	-44.4	-48.3	14.2	2.20e-06	0	38	0	416284672	59	5986
2026-01-24 00:11:01.13	1.55	37.43	-43.9	-47.2	15.3	0.00e+00	0	38	0	417333248	59	5278
2026-01-24 00:11:02.27	1.38	37.70	-43.7	-47.0	15.6	0.00e+00	0	38	0	419430400	59	5101
2026-01-24 00:11:03.12	1.25	37.89	-43.7	-46.8	15.7	0.00e+00	0	38	0	421527552	59	5007
2026-01-24 00:11:04.26	1.08	38.16	-43.7	-46.7	15.9	0.00e+00	0	38	0	423624704	58	5255
2026-01-24 00:11:05.11	0.95	38.36	-43.5	-46.5	16.1	0.00e+00	0	38	0	424673280	58	5120
2026-01-24 00:11:06.24	0.77	38.62	-43.8	-46.8	15.8	0.00e+00	0	38	0	426770432	58	5289
2026-01-24 00:11:07.10	0.64	38.82	-44.3	-47.6	15.0	0.00e+00	0	38	0	428867584	59	5484
2026-01-24 00:11:08.23	0.46	39.09	-44.2	-47.5	15.1	0.00e+00	0	38	0	430964736	59	5451
2026-01-24 00:11:09.09	0.32	39.30	-44.2	-47.6	15.1	0.00e+00	0	38	0	432013312	59	5467
2026-01-24 00:11:10.22	0.13	39.57	-44.2	-47.6	15.0	7.00e-07	0	38	0	435159040	59	5500
2026-01-24 00:11:11.08	359.99	39.78	-44.2	-47.7	14.9	0.00e+00	0	38	0	436207616	59	5536
2026-01-24 00:11:12.21	359.79	40.05	-44.3	-47.7	15.0	0.00e+00	0	38	0	438304768	59	5585
2026-01-24 00:11:13.07	359.64	40.26	-44.0	-47.3	15.3	0.00e+00	0	38	0	440401920	59	5315
2026-01-24 00:11:14.20	359.45	40.54	-44.2	-47.7	14.9	0.00e+00	0	38	0	442499072	59	5580
2026-01-24 00:11:15.06	359.29	40.75	-44.1	-47.6	15.1	0.00e+00	0	38	0	443547648	59	5466
2026-01-24 00:11:16.20	359.09	41.04	-43.9	-47.2	15.4	0.00e+00	0	38	0	445644800	59	5245
2026-01-24 00:11:17.05	358.93	41.25	-43.6	-46.7	15.9	0.00e+00	0	38	0	447741952	59	4958
2026-01-24 00:11:18.18	358.72	41.53	-43.4	-46.4	16.2	0.00e+00	0	38	0	449839104	58	5099
2026-01-24 00:11:19.04	358.56	41.75	-43.1	-45.9	16.7	0.00e+00	0	38	0	450887680	58	4805
2026-01-24 00:11:20.17	358.34	42.04	-42.9	-45.6	16.8	0.00e+00	0	38	0	452984832	57	4886
2026-01-24 00:11:21.13	358.15	42.28	-43.1	-45.9	16.6	0.00e+00	0	38	0	455081984	57	5063
2026-01-24 00:11:22.13	357.95	42.54	-42.9	-45.6	17.0	0.00e+00	0	38	0	457179136	57	4895
2026-01-24 00:11:23.12	357.75	42.79	-42.9	-45.6	17.0	0.00e+00	0	38	0	459276288	57	4908
2026-01-24 00:11:24.12	357.54	43.05	-42.9	-45.7	16.9	0.00e+00	0	38	0	460324864	57	4936
2026-01-24 00:11:25.11	357.34	43.31	-43.3	-46.3	16.3	0.00e+00	0	38	0	462422016	57	5294
2026-01-24 00:11:26.44	357.05	43.66	-42.6	-45.4	17.1	0.00e+00	0	38	0	465567744	56	5073
2026-01-24 00:11:27.18	356.89	43.86	-42.5	-45.2	17.4	0.00e+00	0	38	0	466616320	56	4962
2026-01-24 00:11:28.46	356.61	44.20	-42.2	-44.9	17.7	0.00e+00	0	38	0	468713472	56	4760
2026-01-24 00:11:29.18	356.45	44.39	-42.2	-44.9	17.6	0.00e+00	0	38	0	469762048	56	4778
2026-01-24 00:11:30.46	356.15	44.73	-41.9	-44.5	17.8	0.00e+00	0	38	0	472907776	55	4859
2026-01-24 00:11:31.20	355.98	44.93	-41.5	-44.0	18.3	0.00e+00	0	38	0	473956352	54	4854
2026-01-24 00:11:32.48	355.68	45.28	-42.0	-44.7	17.7	0.00e+00	0	38	0	476053504	54	5229
2026-01-24 00:11:33.20	355.51	45.47	-41.8	-44.4	17.9	0.00e+00	0	38	0	478150656	55	4790
2026-01-24 00:11:34.48	355.19	45.82	-42.6	-45.4	17.1	0.00e+00	0	38	0	480247808	55	5402
2026-01-24 00:11:35.19	355.02	46.02	-42.9	-45.8	16.8	0.00e+00	0	38	0	481296384	56	5333
2026-01-24 00:11:36.47	354.69	46.37	-42.6	-45.3	17.3	0.00e+00	0	38	0	483393536	56	5016
2026-01-24 00:11:37.20	354.50	46.57	-42.2	-44.8	17.7	0.00e+00	0	38	0	485490688	56	4723
2026-01-24 00:11:38.55	354.15	46.95	-41.4	-43.8	18.4	0.00e+00	0	38	0	487587840	54	4754
2026-01-24 00:11:39.26	353.96	47.15	-41.7	-44.2	18.2	0.00e+00	0	38	0	488636416	54	4938
2026-01-24 00:11:40.54	353.61	47.51	-41.9	-44.5	17.9	0.00e+00	0	38	0	491782144	54	5114
2026-01-24 00:11:41.25	353.41	47.71	-41.8	-44.4	18.0	0.00e+00	0	38	0	492830720	54	5056
2026-01-24 00:11:42.53	353.05	48.07	-42.4	-45.1	17.3	0.00e+00	0	38	0	494927872	55	5202
2026-01-24 00:11:43.26	352.84	48.27	-42.0	-44.5	17.9	0.00e+00	0	38	0	497025024	55	4859
2026-01-24 00:11:44.54	352.46	48.64	-41.8	-44.4	18.0	0.00e+00	0	38	0	499122176	55	4771
2026-01-24 00:11:45.25	352.25	48.84	-41.5	-43.9	18.4	0.00e+00	0	38	0	500170752	54	4790
2026-01-24 00:11:46.53	351.86	49.21	-41.4	-43.8	18.6	0.00e+00	0	38	0	502267904	54	4714
2026-01-24 00:11:47.25	351.63	49.42	-41.0	-43.3	19.0	0.00e+00	0	38	0	504365056	54	4458
2026-01-24 00:11:48.82	351.14	49.87	-41.1	-43.5	18.8	0.00e+00	0	38	0	507510784	53	4822
2026-01-24 00:11:49.53	350.90	50.08	-40.3	-42.5	19.7	0.00e+00	0	38	0	508559360	52	4558
2026-01-24 00:11:50.81	350.48	50.45	-40.1	-42.3	19.9	0.00e+00	0	38	0	510656512	52	4447
2026-01-24 00:11:51.55	350.23	50.66	-40.4	-42.6	19.8	0.00e+00	0	38	0	511705088	51	4891
2026-01-24 00:11:52.83	349.79	51.04	-40.0	-42.1	20.2	0.00e+00	0	38	0	514850816	51	4603
2026-01-24 00:11:53.54	349.54	51.25	-40.3	-42.4	19.9	0.00e+00	0	38	0	515899392	51	4784
2026-01-24 00:11:54.82	349.08	51.62	-40.5	-42.7	19.6	0.00e+00	0	38	0	517996544	51	4937
2026-01-24 00:11:55.54	348.82	51.83	-40.6	-42.8	19.6	0.00e+00	0	38	0	520093696	51	4992
2026-01-24 00:11:56.82	348.34	52.21	-40.4	-42.6	19.6	0.00e+00	0	38	0	522190848	52	4637
2026-01-24 00:11:57.53	348.07	52.42	-40.6	-42.9	19.3	0.00e+00	0	38	0	523239424	52	4794
2026-01-24 00:11:58.81	347.57	52.80	-40.7	-42.9	19.3	0.00e+00	0	38	0	525336576	52	4810
2026-01-24 00:11:59.72	347.21	53.07	-41.2	-43.6	18.8	0.00e+00	0	38	0	527433728	53	4872
2026-01-24 00:12:00.99	346.70	53.45	-42.0	-44.6	17.7	0.00e+00	0	38	0	529530880	55	4892
2026-01-24 00:12:01.78	346.37	53.68	-42.0	-44.6	17.8	0.00e+00	0	38	0	531628032	55	4872
2026-01-24 00:12:02.96	345.87	54.03	-41.6	-44.1	18.4	0.00e+00	0	38	0	533725184	54	4871
2026-01-24 00:12:03.81	345.50	54.28	-41.2	-43.5	18.9	0.00e+00	0	38	0	534773760	54	4574
2026-01-24 00:12:04.95	345.00	54.62	-41.8	-44.3	18.0	0.00e+00	0	38	0	536870912	54	5000
2026-01-24 00:12:05.80	344.62	54.88	-42.0	-44.5	17.9	0.00e+00	0	38	0	538968064	54	5159
2026-01-24 00:12:06.94	344.09	55.21	-43.0	-45.8	16.8	0.00e+00	0	38	0	541065216	56	5328
2026-01-24 00:12:07.80	343.69	55.47	-42.7	-45.4	17.2	0.00e+00	0	38	0	542113792	56	5057
2026-01-24 00:12:08.93	343.15	55.81	-42.2	-44.8	17.7	0.00e+00	0	38	0	545259520	56	4735
2026-01-24 00:12:09.79	342.73	56.06	-42.4	-45.1	17.5	0.00e+00	0	38	0	546308096	56	4908
2026-01-24 00:12:10.92	342.16	56.39	-42.5	-45.3	17.3	0.00e+00	0	38	0	548405248	56	4988
2026-01-24 00:12:11.78	341.72	56.65	-42.7	-45.4	17.2	0.00e+00	0	38	0	550502400	56	5100
2026-01-24 00:12:12.93	341.12	56.99	-42.8	-45.6	17.1	0.00e+00	0	38	0	552599552	56	5166
2026-01-24 00:12:13.79	340.66	57.24	-42.3	-45.0	17.6	0.00e+00	0	38	0	553648128	56	4821
2026-01-24 00:12:14.92	340.04	57.57	-42.2	-44.7	17.8	0.00e+00	0	38	0	555745280	56	4705
2026-01-24 00:12:15.78	339.56	57.82	-41.8	-44.4	18.0	0.00e+00	0	38	0	557842432	55	4779
2026-01-24 00:12:17.04	338.84	58.19	-41.7	-44.2	18.1	0.00e+00	0	38	0	559939584	55	4691
2026-01-24 00:12:17.75	338.43	58.39	-41.7	-44.2	18.2	1.29e-05	0	38	0	560988160	54	4966
2026-01-24 00:12:19.03	337.67	58.76	-42.0	-44.6	17.8	0.00e+00	0	38	0	564133888	54	5201
2026-01-24 00:12:19.75	337.23	58.96	-42.1	-44.6	17.7	0.00e+00	0	38	0	565182464	55	4917
2026-01-24 00:12:21.03	336.43	59.33	-42.8	-45.6	17.1	0.00e+00	0	38	0	567279616	56	5189
2026-01-24 00:12:21.75	335.97	59.53	-42.3	-45.0	17.6	3.20e-05	0	38	0	568328192	56	4820
2026-01-24 00:12:23.03	335.14	59.89	-41.6	-44.0	18.3	0.00e+00	0	38	0	571473920	55	4597
2026-01-24 00:12:23.75	334.66	60.09	-41.9	-44.4	18.0	0.00e+00	0	38	0	572522496	54	5062
2026-01-24 00:12:25.04	333.79	60.45	-41.5	-43.9	18.5	0.00e+00	0	38	0	574619648	54	4764
2026-01-24 00:12:25.75	333.29	60.64	-40.9	-43.2	19.1	0.00e+00	0	38	0	576716800	53	4668
2026-01-24 00:12:27.03	332.39	60.99	-40.3	-42.5	19.8	0.00e+00	0	38	0	578813952	52	4547
2026-01-24 00:12:27.77	331.85	61.19	-40.1	-42.2	20.1	0.00e+00	0	38	0	579862528	51	4670
2026-01-24 00:12:29.05	330.90	61.52	-39.9	-42.0	20.2	0.00e+00	0	38	0	581959680	51	4583
2026-01-24 00:12:29.77	330.36	61.71	-40.2	-42.3	20.1	0.00e+00	0	38	0	584056832	51	4708
2026-01-24 00:12:31.15	329.29	62.07	-40.2	-42.3	19.9	8.39e-05	0	38	0	586153984	51	4717
2026-01-24 00:12:31.86	328.73	62.25	-40.2	-42.3	19.9	0.00e+00	0	38	0	588251136	51	4716
2026-01-24 00:12:33.14	327.70	62.57	-40.5	-42.7	19.6	0.00e+00	0	39	0	590348288	51	4955
2026-01-24 00:12:34.18	326.84	62.83	-40.7	-43.0	19.2	0.00e+00	0	38	0	592445440	52	4852
2026-01-24 00:12:35.13	326.03	63.06	-40.6	-42.9	19.3	0.00e+00	0	38	0	593494016	52	4789
2026-01-24 00:12:36.12	325.18	63.29	-40.9	-43.3	19.1	0.00e+00	0	38	0	595591168	52	4986
2026-01-24 00:12:37.11	324.31	63.52	-40.5	-42.8	19.5	0.00e+00	0	38	0	597688320	52	4719
2026-01-24 00:12:38.11	323.42	63.75	-40.2	-42.3	20.0	0.00e+00	0	38	0	599785472	51	4727
2026-01-24 00:12:39.10	322.51	63.97	-40.7	-42.9	19.4	0.00e+00	0	38	0	601882624	52	4803
2026-01-24 00:12:40.10	321.58	64.19	-40.9	-43.3	19.1	0.00e+00	0	38	0	602931200	52	4985
2026-01-24 00:12:41.09	320.65	64.40	-40.5	-42.7	19.6	0.00e+00	0	38	0	605028352	53	4415
2026-01-24 00:12:42.14	319.63	64.61	-40.1	-42.1	20.1	0.00e+00	0	38	0	607125504	51	4648
2026-01-24 00:12:43.11	318.68	64.80	-39.5	-41.5	20.7	0.00e+00	0	38	0	609222656	50	4575
2026-01-24 00:12:44.19	317.60	65.01	-39.9	-42.0	20.4	7.00e-07	0	38	0	611319808	50	4829
2026-01-24 00:12:45.04	316.73	65.17	-40.5	-42.7	19.7	0.00e+00	0	38	0	612368384	51	4933
2026-01-24 00:12:46.18	315.56	65.38	-41.8	-44.3	18.0	0.00e+00	0	38	0	614465536	54	5002
2026-01-24 00:12:47.16	314.52	65.55	-41.9	-44.4	17.9	0.00e+00	0	38	0	616562688	55	4792
2026-01-24 00:12:48.15	313.47	65.71	-41.7	-44.0	18.3	0.00e+00	0	38	0	618659840	55	4596
2026-01-24 00:12:49.35	312.17	65.90	-42.3	-44.9	17.4	0.00e+00	0	38	0	620756992	55	5071
2026-01-24 00:12:50.23	311.20	66.03	-43.1	-46.0	16.6	0.00e+00	0	38	0	621805568	57	5143
2026-01-24 00:12:51.55	309.72	66.22	-41.5	-43.9	18.4	0.00e+00	0	38	0	624951296	55	4542
2026-01-24 00:12:52.26	308.92	66.31	-41.2	-43.6	18.7	0.00e+00	0	38	0	625999872	54	4599
2026-01-24 00:12:53.54	307.45	66.47	-41.8	-44.4	17.9	0.00e+00	0	38	0	628097024	54	5080
2026-01-24 00:12:54.25	306.63	66.55	-41.8	-44.4	18.0	0.00e+00	0	38	0	630194176	54	5049
2026-01-24 00:12:55.54	305.12	66.69	-42.0	-44.5	17.8	0.00e+00	0	38	0	632291328	54	5133
2026-01-24 00:12:56.25	304.28	66.76	-41.1	-43.4	18.9	0.00e+00	0	38	0	633339904	54	4514
2026-01-24 00:12:57.53	302.75	66.87	-40.4	-42.5	19.7	0.00e+00	0	38	0	635437056	52	4552
2026-01-24 00:12:58.26	301.88	66.93	-40.6	-42.8	19.4	0.00e+00	0	38	0	637534208	52	4722
2026-01-24 00:12:59.54	300.32	67.02	-40.9	-43.1	19.1	0.00e+00	0	38	0	639631360	53	4650
2026-01-24 00:13:00.28	299.42	67.07	-40.2	-42.2	19.9	0.00e+00	0	38	0	640679936	52	4421
2026-01-24 00:13:01.56	297.85	67.13	-40.3	-42.4	19.9	0.00e+00	0	38	0	643825664	51	4785
2026-01-24 00:13:02.27	296.98	67.16	-41.1	-43.3	19.0	0.00e+00	0	38	0	644874240	52	5032
2026-01-24 00:13:03.55	295.40	67.20	-40.9	-43.2	19.1	0.00e+00	0	38	0	646971392	53	4683
2026-01-24 00:13:04.26	294.52	67.22	-40.6	-42.8	19.4	0.00e+00	0	38	0	648019968	53	4490
2026-01-24 00:13:05.54	292.93	67.24	-40.6	-42.9	19.3	0.00e+00	0	38	0	651165696	53	4497
2026-01-24 00:13:06.28	292.01	67.24	-40.9	-43.2	19.1	0.00e+00	0	38	0	652214272	53	4690
2026-01-24 00:13:07.56	290.42	67.23	-41.4	-43.8	18.6	0.00e+00	0	38	0	654311424	53	5022
2026-01-24 00:13:08.30	289.51	67.22	-41.8	-44.3	18.1	0.00e+00	0	38	0	656408576	54	5031
2026-01-24 00:13:09.57	287.94	67.18	-41.1	-43.4	18.9	0.00e+00	0	38	0	658505728	54	4527
2026-01-24 00:13:10.31	287.02	67.16	-41.1	-43.5	18.9	7.00e-07	0	38	0	659554304	53	4815
2026-01-24 00:13:11.59	285.45	67.10	-41.4	-43.8	18.6	0.00e+00	0	38	0	662700032	53	4990
2026-01-24 00:13:12.42	284.43	67.05	-41.5	-43.9	18.4	0.00e+00	0	38	0	663748608	54	4766
2026-01-24 00:13:13.55	283.06	66.98	-41.7	-44.4	18.0	0.00e+00	0	38	0	665845760	54	5099
2026-01-24 00:13:14.40	282.04	66.91	-41.8	-44.2	18.1	0.00e+00	0	38	0	667942912	54	4964
2026-01-24 00:13:15.54	280.67	66.82	-41.9	-44.4	18.1	0.00e+00	0	38	0	670040064	54	5047
2026-01-24 00:13:16.39	279.66	66.74	-41.5	-43.9	18.5	0.00e+00	0	38	0	671088640	54	4780
2026-01-24 00:13:17.53	278.32	66.62	-41.5	-43.8	18.6	0.00e+00	0	38	0	673185792	54	4750
2026-01-24 00:13:18.38	277.33	66.52	-42.1	-44.6	17.8	0.00e+00	0	38	0	675282944	54	5196
2026-01-24 00:13:19.52	276.01	66.39	-42.8	-45.5	17.2	0.00e+00	0	38	0	677380096	56	5153
2026-01-24 00:13:20.37	275.04	66.28	-42.7	-45.4	17.2	0.00e+00	0	38	0	678428672	56	5074
2026-01-24 00:13:21.51	273.76	66.12	-42.8	-45.5	17.1	0.00e+00	0	38	0	680525824	56	5150
2026-01-24 00:13:22.36	272.81	66.00	-42.9	-45.6	17.0	0.00e+00	0	38	0	682622976	56	5204
2026-01-24 00:13:23.50	271.56	65.83	-42.1	-44.5	18.0	1.50e-06	0	38	0	684720128	56	4581
2026-01-24 00:13:24.35	270.64	65.69	-41.4	-43.8	18.6	0.00e+00	0	38	0	685768704	54	4727
2026-01-24 00:13:25.60	269.31	65.48	-41.1	-43.4	18.9	0.00e+00	0	38	0	688914432	53	4787
2026-01-24 00:13:26.45	268.42	65.33	-40.1	-42.3	19.9	0.00e+00	0	38	0	689963008	52	4449
2026-01-24 00:13:27.59	267.25	65.13	-39.5	-41.5	20.8	0.00e+00	0	38	0	692060160	50	4571
2026-01-24 00:13:28.44	266.38	64.97	-40.4	-42.5	19.8	0.00e+00	0	38	0	694157312	51	4861
2026-01-24 00:13:29.57	265.26	64.75	-39.7	-41.7	20.5	0.00e+00	0	38	0	696254464	51	4430
2026-01-24 00:13:30.43	264.41	64.57	-39.0	-41.0	21.0	0.00e+00	0	38	0	697303040	50	4308
2026-01-24 00:13:31.57	263.32	64.34	-39.4	-41.4	20.7	0.00e+00	0	38	0	699400192	50	4545
2026-01-24 00:13:32.42	262.51	64.15	-39.3	-41.2	20.9	0.00e+00	0	38	0	701497344	50	4427
2026-01-24 00:13:33.55	261.47	63.91	-38.6	-40.5	21.5	0.00e+00	0	38	0	703594496	48	4569
2026-01-24 00:13:34.41	260.68	63.72	-38.8	-40.7	21.4	0.00e+00	0	38	0	704643072	48	4681
2026-01-24 00:13:35.55	259.66	63.45	-39.8	-42.0	20.4	0.00e+00	0	38	0	706740224	50	4824
2026-01-24 00:13:36.40	258.92	63.26	-40.5	-42.7	19.6	1.50e-06	0	38	0	708837376	51	4977
2026-01-24 00:13:37.54	257.94	62.98	-41.8	-44.4	18.0	0.00e+00	0	38	0	710934528	54	5076
2026-01-24 00:13:38.39	257.23	62.78	-41.1	-43.4	19.0	0.00e+00	0	38	0	711983104	54	4513
2026-01-24 00:13:39.52	256.30	62.50	-40.6	-42.8	19.5	0.00e+00	0	38	0	715128832	53	4465
2026-01-24 00:13:40.37	255.61	62.28	-41.0	-43.4	19.0	0.00e+00	0	38	0	716177408	52	5049
2026-01-24 00:13:41.53	254.69	61.99	-40.5	-42.7	19.5	0.00e+00	0	38	0	718274560	53	4436
2026-01-24 00:13:42.38	254.03	61.77	-40.3	-42.4	19.7	0.00e+00	0	38	0	720371712	52	4537
2026-01-24 00:13:43.58	253.13	61.45	-41.2	-43.6	18.9	0.00e+00	0	38	0	722468864	53	4889
2026-01-24 00:13:44.43	252.50	61.23	-42.4	-45.0	17.4	0.00e+00	0	38	0	723517440	55	5133
2026-01-24 00:13:45.64	251.62	60.90	-42.5	-45.1	17.5	0.00e+00	0	38	0	725614592	56	4900
2026-01-24 00:13:46.49	251.02	60.67	-42.3	-44.8	17.8	0.00e+00	0	38	0	727711744	56	4726
2026-01-24 00:13:47.62	250.23	60.36	-42.8	-45.4	17.2	0.00e+00	0	38	0	729808896	56	5086
2026-01-24 00:13:48.47	249.65	60.13	-42.2	-44.7	17.9	0.00e+00	0	38	0	731906048	56	4661
2026-01-24 00:13:49.61	248.90	59.81	-41.3	-43.7	18.7	3.12e-05	0	38	0	734003200	54	4652
2026-01-24 00:13:50.46	248.34	59.57	-41.4	-43.7	18.8	0.00e+00	0	38	0	735051776	54	4653
2026-01-24 00:13:51.60	247.62	59.25	-42.3	-44.8	17.6	0.00e+00	0	38	0	737148928	55	5038
2026-01-24 00:13:52.55	247.03	58.98	-43.0	-45.8	16.9	0.00e+00	0	38	0	739246080	56	5283
2026-01-24 00:13:53.54	246.42	58.69	-43.7	-46.8	15.9	0.00e+00	0	38	0	741343232	58	5283
2026-01-24 00:13:54.54	245.83	58.40	-43.8	-46.9	15.8	0.00e+00	0	38	0	742391808	59	5051
2026-01-24 00:13:55.53	245.25	58.12	-42.7	-45.4	17.2	0.00e+00	0	38	0	744488960	57	4770
2026-01-24 00:13:56.53	244.68	57.83	-42.6	-45.2	17.3	0.00e+00	0	38	0	746586112	56	4973
2026-01-24 00:13:57.52	244.12	57.54	-43.8	-46.9	15.7	0.00e+00	0	38	0	748683264	58	5350
2026-01-24 00:13:58.52	243.58	57.24	-44.0	-47.3	15.5	0.00e+00	0	38	0	749731840	59	5284
2026-01-24 00:13:59.51	243.05	56.95	-43.2	-46.0	16.4	0.00e+00	0	38	0	751828992	58	4868
2026-01-24 00:14:00.50	242.53	56.66	-42.6	-45.1	17.5	0.00e+00	0	38	0	753926144	56	4917
2026-01-24 00:14:01.50	242.02	56.36	-42.2	-44.7	17.9	0.00e+00	0	38	0	756023296	56	4675
2026-01-24 00:14:02.49	241.52	56.07	-41.7	-44.1	18.3	0.00e+00	0	38	0	758120448	55	4633
2026-01-24 00:14:03.49	241.03	55.77	-42.1	-44.7	17.9	0.00e+00	0	38	0	759169024	55	4928
2026-01-24 00:14:04.48	240.55	55.48	-41.2	-43.6	18.8	0.00e+00	0	38	0	761266176	54	4609
2026-01-24 00:14:05.48	240.08	55.18	-41.0	-43.3	19.1	0.00e+00	0	38	0	763363328	53	4730
2026-01-24 00:14:06.48	239.62	54.88	-41.8	-44.3	18.1	0.00e+00	0	38	0	765460480	54	5013
2026-01-24 00:14:07.47	239.17	54.59	-41.3	-43.7	18.8	0.00e+00	0	39	0	767557632	54	4665
2026-01-24 00:14:08.47	238.73	54.29	-40.9	-43.1	19.2	0.00e+00	0	38	0	768606208	53	4615
2026-01-24 00:14:09.46	238.30	54.00	-41.2	-43.6	18.8	0.00e+00	0	38	0	770703360	53	4896
2026-01-24 00:14:10.46	237.88	53.70	-42.1	-44.7	17.8	0.00e+00	0	38	0	772800512	54	5255
2026-01-24 00:14:11.45	237.47	53.40	-41.9	-44.5	18.0	0.00e+00	0	38	0	774897664	54	5142
2026-01-24 00:14:12.45	237.06	53.10	-41.9	-44.5	18.0	0.00e+00	0	38	0	775946240	54	5123
2026-01-24 00:14:13.44	236.66	52.81	-42.6	-45.4	17.1	0.00e+00	0	38	0	778043392	55	5366
2026-01-24 00:14:14.43	236.28	52.52	-42.4	-45.1	17.5	0.00e+00	0	38	0	780140544	56	4875
2026-01-24 00:14:15.46	235.88	52.21	-41.3	-43.7	18.6	0.00e+00	0	38	0	782237696	54	4692
2026-01-24 00:14:16.49	235.50	51.91	-41.2	-43.6	18.8	0.00e+00	0	38	0	784334848	54	4601
2026-01-24 00:14:17.48	235.13	51.61	-41.4	-43.7	18.6	0.00e+00	0	38	0	785383424	53	4979
2026-01-24 00:14:18.47	234.77	51.32	-41.6	-44.1	18.3	0.00e+00	0	38	0	787480576	54	4879
2026-01-24 00:14:19.47	234.42	51.03	-41.5	-43.8	18.5	0.00e+00	0	38	0	789577728	54	4756
2026-01-24 00:14:20.47	234.07	50.73	-41.4	-43.7	18.6	0.00e+00	0	38	0	791674880	54	4702
2026-01-24 00:14:21.46	233.74	50.44	-41.5	-43.8	18.5	0.00e+00	0	38	0	793772032	54	4750
2026-01-24 00:14:22.45	233.41	50.16	-42.0	-44.5	17.9	0.00e+00	0	38	0	794820608	55	4817
2026-01-24 00:14:23.45	233.08	49.86	-42.5	-45.2	17.3	0.00e+00	0	38	0	796917760	55	5223
2026-01-24 00:14:24.44	232.76	49.58	-42.9	-45.6	17.0	0.00e+00	0	38	0	799014912	56	5202
2026-01-24 00:14:25.44	232.45	49.29	-43.2	-46.0	16.6	0.00e+00	0	38	0	801112064	57	5141
2026-01-24 00:14:26.43	232.14	49.00	-42.5	-45.1	17.5	0.00e+00	0	38	0	802160640	57	4608
2026-01-24 00:14:27.43	231.84	48.71	-41.3	-43.6	18.7	0.00e+00	0	38	0	804257792	54	4600
2026-01-24 00:14:28.43	231.54	48.43	-40.9	-43.1	19.2	0.00e+00	0	38	0	806354944	53	4632
2026-01-24 00:14:29.42	231.25	48.15	-41.2	-43.6	18.8	0.00e+00	0	38	0	808452096	53	4872
2026-01-24 00:14:30.42	230.97	47.86	-41.9	-44.4	18.0	0.00e+00	0	38	0	810549248	54	5086
2026-01-24 00:14:31.41	230.69	47.58	-41.2	-43.5	18.9	0.00e+00	0	38	0	811597824	54	4547
2026-01-24 00:14:32.40	230.41	47.30	-40.4	-42.5	19.7	0.00e+00	0	38	0	813694976	52	4578
2026-01-24 00:14:33.40	230.14	47.02	-41.1	-43.5	18.8	0.00e+00	0	38	0	815792128	52	5132
2026-01-24 00:14:34.39	229.88	46.74	-42.1	-44.7	17.7	0.00e+00	0	38	0	817889280	55	4978
2026-01-24 00:14:35.50	229.59	46.43	-43.5	-46.6	16.1	0.00e+00	0	38	0	819986432	57	5525
2026-01-24 00:14:36.35	229.37	46.20	-43.7	-46.9	15.8	0.00e+00	0	38	0	821035008	57	5710
2026-01-24 00:14:37.73	229.02	45.82	-44.3	-47.9	14.8	7.00e-07	0	38	0	824180736	59	5693
2026-01-24 00:14:38.44	228.84	45.62	-43.8	-47.0	15.6	0.00e+00	0	38	0	825229312	59	5155
2026-01-24 00:14:39.72	228.53	45.27	-42.7	-45.3	17.2	0.00e+00	0	38	0	827326464	57	4747
2026-01-24 00:14:40.44	228.36	45.08	-42.9	-45.6	16.9	0.00e+00	0	38	0	828375040	57	4891
2026-01-24 00:14:41.72	228.06	44.73	-43.0	-45.8	16.9	0.00e+00	0	38	0	831520768	57	4986
2026-01-24 00:14:42.46	227.89	44.53	-43.3	-46.2	16.4	0.00e+00	0	38	0	832569344	57	5227
2026-01-24 00:14:43.74	227.60	44.19	-42.7	-45.4	17.1	0.00e+00	0	38	0	834666496	57	4801
2026-01-24 00:14:44.46	227.44	44.00	-42.2	-44.8	17.8	0.00e+00	0	38	0	836763648	56	4707
2026-01-24 00:14:45.73	227.16	43.66	-41.6	-44.0	18.4	1.40e-04	0	38	0	838860800	55	4554
2026-01-24 00:14:46.46	227.00	43.46	-41.6	-44.0	18.4	0.00e+00	0	38	0	839909376	55	4573
2026-01-24 00:14:47.73	226.73	43.13	-41.1	-43.4	18.9	9.90e-06	0	38	0	842006528	54	4513
2026-01-24 00:14:48.46	226.58	42.94	-40.9	-43.2	19.1	0.00e+00	0	38	0	844103680	53	4665
2026-01-24 00:14:49.74	226.32	42.61	-41.6	-43.9	18.4	0.00e+00	0	38	0	846200832	53	5074
2026-01-24 00:14:50.45	226.17	42.42	-41.5	-43.8	18.5	0.00e+00	0	38	0	847249408	53	5004
2026-01-24 00:14:51.77	225.91	42.08	-43.4	-46.2	16.3	0.00e+00	0	38	0	850395136	57	5259
2026-01-24 00:14:52.48	225.77	41.90	-44.2	-47.5	15.2	0.00e+00	0	38	0	851443712	59	5404
2026-01-24 00:14:53.76	225.53	41.58	-44.9	-48.7	13.9	5.30e-06	0	38	0	853540864	60	5860
2026-01-24 00:14:54.47	225.39	41.40	-44.4	-47.9	14.8	2.20e-06	0	38	0	855638016	60	5354
2026-01-24 00:14:55.75	225.15	41.07	-45.2	-49.1	13.7	4.11e-05	0	38	0	857735168	61	5825
2026-01-24 00:14:56.48	225.02	40.89	-45.0	-48.8	13.9	6.02e-05	0	38	0	858783744	61	5634
2026-01-24 00:14:57.75	224.79	40.58	-45.0	-48.7	14.0	1.50e-06	0	38	0	860880896	61	5556
2026-01-24 00:14:58.48	224.66	40.39	-43.3	-46.2	16.3	7.00e-07	0	38	0	862978048	58	4937
2026-01-24 00:14:59.76	224.44	40.08	-42.6	-45.2	17.4	0.00e+00	0	38	0	865075200	57	4657
2026-01-24 00:15:00.50	224.31	39.90	-42.2	-44.7	17.9	1.43e-04	0	38	0	866123776	56	4658
2026-01-24 00:15:01.78	224.09	39.59	-42.1	-44.6	18.0	0.00e+00	0	38	0	869269504	56	4605
2026-01-24 00:15:02.49	223.97	39.42	-41.8	-44.2	18.2	0.00e+00	0	38	0	870318080	55	4662
2026-01-24 00:15:03.76	223.76	39.11	-42.6	-45.2	17.2	0.00e+00	0	38	0	872415232	55	5277
2026-01-24 00:15:04.48	223.65	38.94	-42.6	-45.2	17.4	6.86e-05	0	38	0	873463808	56	4974
2026-01-24 00:15:05.76	223.44	38.63	-42.8	-45.5	17.0	0.00e+00	0	38	0	876609536	56	5124
2026-01-24 00:15:06.67	223.30	38.42	-43.4	-46.4	16.2	0.00e+00	0	38	0	877658112	57	5361
2026-01-24 00:15:07.95	223.10	38.12	-44.2	-47.4	15.2	0.00e+00	0	38	0	880803840	59	5401
2026-01-24 00:15:08.72	222.98	37.94	-44.6	-48.0	14.6	2.49e-04	0	38	0	881852416	59	5764
2026-01-24 00:15:10.27	222.75	37.58	-44.5	-47.9	14.7	0.00e+00	0	38	0	884998144	60	5369
2026-01-24 00:15:10.98	222.65	37.42	-44.4	-47.7	14.8	7.00e-07	0	38	0	886046720	60	5275
2026-01-24 00:15:12.27	222.46	37.12	-44.4	-47.6	15.0	0.00e+00	0	38	0	888143872	59	5522
2026-01-24 00:15:12.98	222.36	36.96	-44.3	-47.7	14.9	1.26e-04	0	38	0	890241024	59	5537
2026-01-24 00:15:14.28	222.17	36.67	-45.0	-48.8	14.0	0.00e+00	0	38	0	892338176	60	5965
2026-01-24 00:15:14.99	222.07	36.51	-45.1	-48.9	13.7	8.30e-06	0	38	0	893386752	61	5721
2026-01-24 00:15:16.27	221.90	36.22	-44.5	-47.9	14.7	7.00e-07	0	38	0	896532480	60	5382
2026-01-24 00:15:16.99	221.80	36.06	-44.1	-47.5	15.1	7.00e-07	0	38	0	897581056	60	5139
2026-01-24 00:15:18.27	221.63	35.78	-44.0	-47.2	15.4	0.00e+00	0	38	0	899678208	59	5240
2026-01-24 00:15:18.98	221.53	35.62	-43.6	-46.6	16.0	0.00e+00	0	38	0	900726784	59	4904
2026-01-24 00:15:20.26	221.37	35.34	-43.3	-46.1	16.4	0.00e+00	0	38	0	903872512	58	4914
2026-01-24 00:15:21.11	221.26	35.16	-43.3	-46.2	16.4	0.00e+00	0	38	0	904921088	58	4934
2026-01-24 00:15:22.25	221.12	34.91	-42.5	-45.1	17.4	0.00e+00	0	38	0	907018240	56	4922
2026-01-24 00:15:23.10	221.01	34.73	-42.1	-44.6	17.9	0.00e+00	0	38	0	909115392	56	4609
2026-01-24 00:15:24.24	220.87	34.49	-41.5	-43.9	18.4	0.00e+00	0	38	0	911212544	54	4777
2026-01-24 00:15:25.09	220.76	34.31	-41.7	-44.1	18.2	2.23e-04	0	38	0	912261120	54	4908
2026-01-24 00:15:26.23	220.63	34.07	-42.3	-44.9	17.5	8.23e-05	0	38	0	914358272	55	5057
2026-01-24 00:15:27.08	220.53	33.89	-43.0	-45.8	16.7	0.00e+00	0	38	0	916455424	56	5337
2026-01-24 00:15:28.22	220.39	33.66	-44.3	-47.6	14.9	0.00e+00	0	38	0	918552576	59	5518
2026-01-24 00:15:29.07	220.30	33.48	-44.4	-47.9	14.7	0.00e+00	0	38	0	919601152	59	5662
2026-01-24 00:15:30.27	220.16	33.23	-44.0	-47.2	15.3	7.55e-05	0	38	0	922746880	59	5274
2026-01-24 00:15:31.12	220.06	33.06	-43.5	-46.5	16.1	0.00e+00	0	38	0	923795456	58	5123
2026-01-24 00:15:32.26	219.94	32.83	-43.2	-46.1	16.4	0.00e+00	0	38	0	925892608	58	4884
2026-01-24 00:15:33.12	219.84	32.66	-43.3	-46.1	16.4	0.00e+00	0	38	0	927989760	58	4920
2026-01-24 00:15:34.25	219.72	32.43	-43.7	-46.8	15.7	0.00e+00	0	38	0	930086912	58	5333
2026-01-24 00:15:35.10	219.63	32.26	-43.6	-46.7	15.7	4.42e-05	0	38	0	931135488	58	5276
2026-01-24 00:15:36.24	219.51	32.04	-43.4	-46.4	16.2	0.00e+00	0	38	0	933232640	58	5066
2026-01-24 00:15:37.09	219.42	31.87	-43.1	-45.9	16.6	0.00e+00	0	38	0	935329792	58	4811
2026-01-24 00:15:38.44	219.28	31.60	-42.7	-45.4	17.1	4.50e-05	0	38	0	937426944	56	5059
2026-01-24 00:15:39.15	219.21	31.47	-42.3	-44.9	17.6	3.27e-04	0	38	0	938475520	56	4774
2026-01-24 00:15:40.43	219.08	31.22	-42.3	-45.0	17.5	0.00e+00	0	38	0	941621248	56	4818
2026-01-24 00:15:41.15	219.01	31.08	-42.4	-45.0	17.4	0.00e+00	0	38	0	942669824	56	4859
2026-01-24 00:15:42.75	218.85	30.78	-43.0	-45.8	16.7	2.04e-04	0	38	0	945815552	56	5328
2026-01-24 00:15:43.32	218.80	30.67	-42.9	-45.7	16.8	2.37e-04	0	38	0	946864128	56	5246
2026-01-24 00:15:45.02	218.64	30.35	-42.9	-45.7	16.9	0.00e+00	0	38	0	950009856	57	4930
2026-01-24 00:15:45.59	218.58	30.24	-43.0	-45.8	16.7	0.00e+00	0	38	0	951058432	57	5032
2026-01-24 00:15:47.30	218.42	29.93	-43.0	-45.8	16.6	2.20e-04	0	38	0	954204160	57	5036
2026-01-24 00:15:47.87	218.37	29.82	-43.4	-46.4	16.2	2.43e-04	0	38	0	955252736	57	5371
2026-01-24 00:15:49.57	218.22	29.51	-44.2	-47.5	15.1	0.00e+00	0	38	0	958398464	58	5769
2026-01-24 00:15:50.14	218.17	29.41	-44.6	-48.2	14.3	0.00e+00	0	38	0	959447040	59	5919
2026-01-24 00:15:51.84	218.02	29.10	-45.4	-49.6	12.9	2.68e-04	0	38	0	962592768	61	6184
2026-01-24 00:15:52.41	217.97	29.00	-45.6	-50.1	12.5	6.02e-05	0	38	0	963641344	61	6533
2026-01-24 00:15:54.12	217.82	28.69	-45.2	-49.3	13.3	2.89e-05	0	38	0	966787072	62	5627
2026-01-24 00:15:54.68	217.78	28.60	-45.0	-48.8	13.7	2.13e-05	0	38	0	967835648	61	5644
2026-01-24 00:15:56.39	217.63	28.29	-44.5	-48.0	14.6	0.00e+00	0	38	0	970981376	60	5421
2026-01-24 00:15:56.96	217.59	28.20	-44.2	-47.5	15.0	0.00e+00	0	38	0	972029952	60	5155
2026-01-24 00:15:58.68	217.45	27.90	-43.9	-46.9	15.6	0.00e+00	0	38	0	975175680	59	5096
2026-01-24 00:15:59.25	217.40	27.80	-43.8	-46.9	15.6	0.00e+00	0	38	0	976224256	59	5051
2026-01-24 00:16:00.95	217.27	27.51	-44.0	-47.1	15.4	0.00e+00	0	38	0	979369984	59	5217
2026-01-24 00:16:01.52	217.22	27.41	-43.8	-46.9	15.6	0.00e+00	0	38	0	980418560	59	5083
2026-01-24 00:16:03.23	217.09	27.12	-43.6	-46.6	15.9	0.00e+00	0	38	0	983564288	58	5210
2026-01-24 00:16:03.79	217.05	27.03	-43.1	-45.9	16.6	0.00e+00	0	38	0	984612864	58	4792
2026-01-24 00:16:05.50	216.92	26.75	-42.8	-45.5	16.9	0.00e+00	0	38	0	987758592	57	4859
2026-01-24 00:16:06.06	216.88	26.65	-42.7	-45.4	17.1	0.00e+00	0	38	0	989855744	57	4787
2026-01-24 00:16:07.77	216.75	26.37	-42.5	-45.2	17.3	0.00e+00	0	38	0	993001472	56	4958
2026-01-24 00:16:08.34	216.71	26.28	-42.6	-45.3	17.1	0.00e+00	0	38	0	994050048	56	4997
2026-01-24 00:16:10.04	216.59	26.00	-42.6	-45.3	17.1	0.00e+00	0	38	0	997195776	56	5024
2026-01-24 00:16:10.61	216.55	25.91	-42.6	-45.4	17.0	0.00e+00	0	38	0	998244352	56	5070
2026-01-24 00:16:12.49	216.41	25.61	-43.1	-46.0	16.4	0.00e+00	0	38	0	1001390080	56	5437
2026-01-24 00:16:13.06	216.37	25.52	-42.9	-45.9	16.6	2.04e-04	0	38	0	1002438656	56	5344
2026-01-24 00:16:14.76	216.26	25.25	-43.2	-46.3	16.1	0.00e+00	0	38	0	1005584384	57	5290
2026-01-24 00:16:15.46	216.21	25.14	-43.4	-46.6	15.9	0.00e+00	0	38	0	1006632960	57	5465
2026-01-24 00:16:16.88	216.12	24.92	-43.5	-46.6	15.8	0.00e+00	0	38	0	1009778688	57	5519
2026-01-24 00:16:17.59	216.07	24.81	-43.3	-46.4	16.1	2.84e-04	0	38	0	1010827264	57	5370
2026-01-24 00:16:18.87	215.98	24.61	-43.7	-46.9	15.6	0.00e+00	0	38	0	1012924416	58	5350
2026-01-24 00:16:19.70	215.93	24.49	-43.6	-46.7	15.7	0.00e+00	0	38	0	1015021568	58	5265
2026-01-24 00:16:20.84	215.86	24.31	-44.0	-47.3	15.3	0.00e+00	0	38	0	1017118720	58	5602
2026-01-24 00:16:21.70	215.80	24.18	-44.1	-47.5	15.0	1.81e-04	0	38	0	1018167296	59	5461
2026-01-24 00:16:22.83	215.73	24.01	-44.1	-47.5	14.9	0.00e+00	0	38	0	1021313024	59	5452
2026-01-24 00:16:23.69	215.68	23.88	-44.3	-47.7	14.7	0.00e+00	0	38	0	1022361600	59	5565
2026-01-24 00:16:24.82	215.61	23.71	-44.1	-47.5	15.0	0.00e+00	0	38	0	1024458752	59	5435
2026-01-24 00:16:25.68	215.56	23.59	-44.0	-47.3	15.2	0.00e+00	0	38	0	1026555904	59	5326
2026-01-24 00:16:26.81	215.49	23.42	-43.9	-47.2	15.3	0.00e+00	0	38	0	1028653056	59	5246
2026-01-24 00:16:27.67	215.44	23.29	-43.8	-47.1	15.4	0.00e+00	0	38	0	1029701632	59	5172
2026-01-24 00:16:28.92	215.36	23.11	-43.4	-46.5	16.0	0.00e+00	0	38	0	1031798784	58	5116
2026-01-24 00:16:29.77	215.31	22.99	-43.5	-46.5	16.0	0.00e+00	0	38	0	1033895936	58	5159
2026-01-24 00:16:30.99	215.24	22.81	-43.3	-46.3	16.2	0.00e+00	0	38	0	1035993088	58	5004
2026-01-24 00:16:31.84	215.19	22.69	-42.8	-45.6	16.9	0.00e+00	0	38	0	1038090240	57	4894
2026-01-24 00:16:33.09	215.12	22.51	-42.8	-45.6	16.8	0.00e+00	0	38	0	1040187392	57	4913
2026-01-24 00:16:33.94	215.07	22.39	-42.7	-45.5	16.9	0.00e+00	0	38	0	1041235968	57	4834
2026-01-24 00:16:35.07	215.01	22.23	-42.2	-44.7	17.7	0.00e+00	0	38	0	1043333120	56	4702
2026-01-24 00:16:35.92	214.96	22.11	-42.2	-44.8	17.6	0.00e+00	0	38	0	1045430272	56	4718
2026-01-24 00:16:37.06	214.90	21.95	-41.9	-44.4	17.8	0.00e+00	0	38	0	1047527424	55	4801
2026-01-24 00:16:37.91	214.86	21.84	-41.8	-44.3	17.9	0.00e+00	0	38	0	1049624576	55	4723
2026-01-24 00:16:39.05	214.79	21.68	-41.5	-44.0	18.2	0.00e+00	0	38	0	1051721728	55	4572
2026-01-24 00:16:39.91	214.75	21.56	-41.5	-43.9	18.2	9.90e-06	0	38	0	1052770304	55	4541
2026-01-24 00:16:41.04	214.69	21.41	-41.6	-44.0	18.2	0.00e+00	0	38	0	1054867456	54	4856
2026-01-24 00:16:41.90	214.64	21.29	-41.6	-44.0	18.1	0.00e+00	0	38	0	1056964608	54	4870
2026-01-24 00:16:43.03	214.59	21.14	-41.7	-44.1	18.1	0.00e+00	0	38	0	1059061760	54	4920
2026-01-24 00:16:43.88	214.54	21.02	-41.6	-44.1	18.1	1.40e-04	0	38	0	1060110336	54	4874
2026-01-24 00:16:45.02	214.48	20.87	-41.7	-44.2	18.0	0.00e+00	0	38	0	1062207488	54	4944
2026-01-24 00:16:45.87	214.44	20.76	-41.8	-44.3	17.9	0.00e+00	0	38	0	1064304640	54	5006
2026-01-24 00:16:47.01	214.38	20.61	-41.7	-44.3	17.9	0.00e+00	0	38	0	1066401792	54	4998
2026-01-24 00:16:47.86	214.34	20.49	-41.9	-44.4	17.7	0.00e+00	0	38	0	1067450368	54	5096
2026-01-24 00:16:49.00	214.29	20.34	-41.9	-44.5	17.7	0.00e+00	0	38	0	1069547520	54	5126
2026-01-24 00:16:49.85	214.25	20.23	-42.2	-44.9	17.3	0.00e+00	0	38	0	1071644672	55	5070
2026-01-24 00:16:51.09	214.19	20.07	-42.5	-45.3	16.9	0.00e+00	0	38	0	1073741824	55	5339
2026-01-24 00:16:51.94	214.14	19.96	-42.6	-45.4	16.8	0.00e+00	0	38	0	1075838976	55	5367
2026-01-24 00:16:53.11	214.09	19.81	-42.9	-45.7	16.7	0.00e+00	0	38	0	1077936128	56	5279
2026-01-24 00:16:53.96	214.05	19.70	-42.9	-45.8	16.6	0.00e+00	0	38	0	1078984704	56	5324
2026-01-24 00:16:55.10	214.00	19.56	-43.1	-46.0	16.4	0.00e+00	0	38	0	1081081856	56	5459
2026-01-24 00:16:55.95	213.96	19.45	-42.9	-45.8	16.6	0.00e+00	0	38	0	1083179008	56	5317
2026-01-24 00:16:57.08	213.91	19.31	-42.9	-45.8	16.7	0.00e+00	0	38	0	1085276160	56	5302
2026-01-24 00:16:57.94	213.87	19.20	-43.1	-46.0	16.3	0.00e+00	0	38	0	1086324736	56	5461
2026-01-24 00:16:59.07	213.82	19.06	-42.9	-45.7	16.7	0.00e+00	0	38	0	1088421888	56	5278
2026-01-24 00:17:00.10	213.77	18.93	-42.8	-45.6	16.7	0.00e+00	0	38	0	1090519040	56	5211
2026-01-24 00:17:01.27	213.72	18.79	-42.9	-45.8	16.5	0.00e+00	0	38	0	1092616192	56	5333
2026-01-24 00:17:02.12	213.68	18.68	-42.9	-45.8	16.6	0.00e+00	0	38	0	1094713344	56	5306
2026-01-24 00:17:03.46	213.62	18.52	-42.8	-45.6	16.8	0.00e+00	0	38	0	1096810496	56	5201
2026-01-24 00:17:04.17	213.59	18.43	-42.8	-45.6	16.8	0.00e+00	0	38	0	1097859072	56	5192
2026-01-24 00:17:05.45	213.54	18.28	-43.3	-46.3	16.1	0.00e+00	0	38	0	1101004800	57	5322
2026-01-24 00:17:06.18	213.51	18.19	-43.2	-46.2	16.1	0.00e+00	0	38	0	1102053376	57	5228
2026-01-24 00:17:07.79	213.44	18.00	-43.6	-46.7	15.7	0.00e+00	0	38	0	1105199104	57	5574
2026-01-24 00:17:08.39	213.42	17.92	-43.6	-46.8	15.6	0.00e+00	0	38	0	1106247680	57	5611
2026-01-24 00:17:09.95	213.35	17.74	-43.9	-47.1	15.3	0.00e+00	0	38	0	1109393408	58	5511
2026-01-24 00:17:10.58	213.33	17.67	-43.8	-47.0	15.4	0.00e+00	0	38	0	1110441984	58	5437
2026-01-24 00:17:12.09	213.27	17.49	-44.0	-47.3	15.1	0.00e+00	0	38	0	1113587712	58	5593
2026-01-24 00:17:12.80	213.24	17.41	-43.8	-47.0	15.3	0.00e+00	0	38	0	1114636288	58	5461
2026-01-24 00:17:14.09	213.19	17.26	-43.6	-46.7	15.7	0.00e+00	0	38	0	1116733440	58	5253
2026-01-24 00:17:14.81	213.16	17.17	-43.6	-46.7	15.6	0.00e+00	0	38	0	1117782016	58	5222
2026-01-24 00:17:16.09	213.11	17.02	-43.4	-46.3	16.0	0.00e+00	0	38	0	1120927744	58	5028
2026-01-24 00:17:16.80	213.08	16.94	-43.1	-46.0	16.3	0.00e+00	0	38	0	1121976320	58	4865
2026-01-24 00:17:18.16	213.03	16.79	-42.7	-45.4	16.9	0.00e+00	0	38	0	1124073472	57	4796
2026-01-24 00:17:18.87	213.00	16.71	-42.5	-45.2	17.1	0.00e+00	0	38	0	1126170624	57	4662
2026-01-24 00:17:20.18	212.95	16.56	-42.6	-45.3	17.0	0.00e+00	0	38	0	1128267776	56	4991
2026-01-24 00:17:20.90	212.93	16.48	-42.3	-45.0	17.3	0.00e+00	0	38	0	1129316352	56	4818
2026-01-24 00:17:22.24	212.88	16.33	-42.2	-44.8	17.5	0.00e+00	0	38	0	1132462080	56	4731
2026-01-24 00:17:22.95	212.85	16.25	-41.9	-44.4	17.6	0.00e+00	0	38	0	1133510656	55	4803
2026-01-24 00:17:24.29	212.80	16.10	-41.4	-43.8	18.2	0.00e+00	0	38	0	1135607808	54	4745
2026-01-24 00:17:25.00	212.78	16.02	-41.3	-43.7	18.4	0.00e+00	0	38	0	1137704960	54	4664
2026-01-24 00:17:26.28	212.73	15.88	-41.4	-43.8	18.2	0.00e+00	0	38	0	1139802112	54	4740
2026-01-24 00:17:26.99	212.70	15.80	-41.4	-43.8	18.2	0.00e+00	0	38	0	1140850688	54	4751
2026-01-24 00:17:28.27	212.66	15.66	-41.4	-43.8	18.2	1.15e-04	0	38	0	1143996416	54	4757
2026-01-24 00:17:28.98	212.63	15.59	-41.5	-44.0	18.1	0.00e+00	0	38	0	1145044992	54	4817
2026-01-24 00:17:30.26	212.59	15.45	-41.5	-44.1	18.0	0.00e+00	0	38	0	1147142144	54	4887
2026-01-24 00:17:31.00	212.56	15.37	-41.5	-44.0	18.0	0.00e+00	0	38	0	1148190720	54	4827
2026-01-24 00:17:32.28	212.52	15.23	-41.8	-44.4	17.6	0.00e+00	0	38	0	1151336448	54	5070
2026-01-24 00:17:33.01	212.50	15.15	-41.8	-44.7	17.3	0.00e+00	0	38	0	1152385024	54	5251
2026-01-24 00:17:34.29	212.45	15.02	-42.1	-44.8	17.3	0.00e+00	0	38	0	1154482176	54	5313
2026-01-24 00:17:35.08	212.43	14.93	-42.2	-45.0	17.1	0.00e+00	0	38	0	1156579328	55	5124
2026-01-24 00:17:36.58	212.38	14.78	-42.4	-45.2	16.8	5.79e-05	0	38	0	1158676480	55	5279
2026-01-24 00:17:37.29	212.35	14.70	-42.6	-45.4	16.6	0.00e+00	0	38	0	1160773632	55	5387
2026-01-24 00:17:38.72	212.31	14.55	-42.5	-45.3	16.7	0.00e+00	0	38	0	1162870784	55	5309
2026-01-24 00:17:39.43	212.28	14.48	-42.7	-45.6	16.5	0.00e+00	0	38	0	1163919360	55	5488
2026-01-24 00:17:40.78	212.24	14.34	-43.0	-45.9	16.3	3.12e-05	0	38	0	1167065088	56	5383
2026-01-24 00:17:41.49	212.22	14.27	-42.8	-45.7	16.5	0.00e+00	0	38	0	1168113664	56	5258
2026-01-24 00:17:42.78	212.18	14.13	-43.1	-46.1	16.2	0.00e+00	0	38	0	1170210816	56	5468
2026-01-24 00:17:43.49	212.15	14.06	-43.1	-46.1	16.2	0.00e+00	0	38	0	1172307968	56	5475
2026-01-24 00:17:44.77	212.11	13.93	-43.0	-45.9	16.3	0.00e+00	0	38	0	1174405120	56	5394
2026-01-24 00:17:45.48	212.09	13.86	-43.1	-46.1	16.2	8.31e-05	0	38	0	1175453696	56	5467
2026-01-24 00:17:46.76	212.05	13.73	-42.9	-45.8	16.4	1.44e-05	0	38	0	1178599424	56	5338
2026-01-24 00:17:47.47	212.03	13.66	-42.8	-45.7	16.6	0.00e+00	0	38	0	1179648000	56	5243
2026-01-24 00:17:48.74	211.99	13.53	-42.8	-45.7	16.5	0.00e+00	0	38	0	1181745152	56	5277
2026-01-24 00:17:49.45	211.97	13.46	-42.7	-45.5	16.7	1.83e-05	0	38	0	1182793728	56	5138
2026-01-24 00:17:50.73	211.93	13.33	-42.8	-45.7	16.5	0.00e+00	0	39	0	1185939456	56	5261
2026-01-24 00:17:51.60	211.91	13.25	-42.7	-45.6	16.6	0.00e+00	0	38	0	1186988032	56	5186
2026-01-24 00:17:53.02	211.87	13.11	-42.6	-45.4	16.8	0.00e+00	0	38	0	1190133760	56	5043
2026-01-24 00:17:53.73	211.84	13.04	-42.5	-45.3	16.9	3.96e-05	0	38	0	1191182336	56	5021
2026-01-24 00:17:55.18	211.80	12.90	-42.4	-45.2	17.0	0.00e+00	0	38	0	1194328064	56	4937
2026-01-24 00:17:55.89	211.78	12.83	-42.4	-45.1	17.1	0.00e+00	0	38	0	1195376640	56	4897
2026-01-24 00:17:57.17	211.75	12.70	-42.5	-45.2	17.0	0.00e+00	0	38	0	1197473792	56	4953
2026-01-24 00:17:58.31	211.71	12.59	-42.5	-45.2	17.0	0.00e+00	0	38	0	1199570944	56	4965
2026-01-24 00:17:59.16	211.69	12.51	-42.5	-45.3	16.9	0.00e+00	0	38	0	1201668096	56	4987
2026-01-24 00:18:00.30	211.66	12.40	-42.5	-45.3	16.9	0.00e+00	0	38	0	1203765248	56	5024
2026-01-24 00:18:01.15	211.63	12.32	-42.6	-45.3	16.9	0.00e+00	0	38	0	1204813824	56	5030
2026-01-24 00:18:02.28	211.60	12.22	-42.7	-45.4	16.7	5.72e-05	0	38	0	1206910976	56	5100
2026-01-24 00:18:03.14	211.58	12.13	-42.6	-45.4	16.8	0.00e+00	0	38	0	1209008128	56	5075
2026-01-24 00:18:04.43	211.55	12.01	-42.7	-45.6	16.6	0.00e+00	0	38	0	1211105280	56	5164
2026-01-24 00:18:05.14	211.53	11.95	-42.9	-45.8	16.4	0.00e+00	0	38	0	1212153856	56	5318
2026-01-24 00:18:06.64	211.49	11.81	-42.8	-45.6	16.6	0.00e+00	0	38	0	1215299584	56	5189
2026-01-24 00:18:07.36	211.47	11.74	-42.8	-45.6	16.5	0.00e+00	0	38	0	1216348160	56	5199
2026-01-24 00:18:08.63	211.43	11.62	-42.9	-45.8	16.4	0.00e+00	0	38	0	1219493888	56	5292
2026-01-24 00:18:09.66	211.41	11.53	-42.8	-45.7	16.5	0.00e+00	0	38	0	1221591040	56	5248
2026-01-24 00:18:10.66	211.38	11.43	-43.1	-46.0	16.1	0.00e+00	0	38	0	1222639616	56	5450
2026-01-24 00:18:11.65	211.36	11.34	-43.1	-46.1	16.1	0.00e+00	0	38	0	1224736768	56	5480
2026-01-24 00:18:12.65	211.33	11.25	-42.8	-45.7	16.4	2.54e-04	0	38	0	1226833920	56	5277
2026-01-24 00:18:13.64	211.31	11.16	-43.0	-45.9	16.2	0.00e+00	0	38	0	1228931072	56	5377
2026-01-24 00:18:14.64	211.28	11.07	-42.9	-45.9	16.2	0.00e+00	0	38	0	1229979648	56	5355
2026-01-24 00:18:15.63	211.26	10.98	-42.9	-45.8	16.3	2.62e-04	0	38	0	1232076800	56	5316
2026-01-24 00:18:16.61	211.23	10.89	-43.0	-45.9	16.2	0.00e+00	0	38	0	1234173952	56	5367
2026-01-24 00:18:17.73	211.20	10.79	-43.2	-46.2	15.9	0.00e+00	0	38	0	1236271104	56	5572
2026-01-24 00:18:18.61	211.18	10.72	-43.0	-46.0	16.1	0.00e+00	0	38	0	1238368256	57	5104
2026-01-24 00:18:19.75	211.15	10.61	-43.0	-46.0	16.1	0.00e+00	0	38	0	1240465408	57	5124
