passes_logs/2026/01/24/T1/T1__20260124_120059_NOAA_20_JPSS-1_rec.log

#Pass ID: 20260124_120059_NOAA 20 (JPSS-1)
#Satellite: NOAA 20 (JPSS-1)
#Configuration: NOAA 20
#almurnet v.1.7.20251203
#Start time: 2026-01-24 12:00:58

#Version: 2.0.20230620
#Station: T1
#Location: 37.570604 lon 55.790049 lat
#TLE: 1 43013U 17073A   26023.57676825  .00000205  00000+0  11821-3 0  9990
#TLE: 2 43013  98.7645 324.4259 0001147  27.0566 333.0670 14.19539368423954

#Time	Az	El	Level	Level2	SNR	BER	BlckErr	Temp	State	Recorded	gain1	gain2
2026-01-24 12:00:58.99	231.86	4.99	-48.5	-63.6	3.8	1.49e+00	0	34	0	0	68	20722
2026-01-24 12:00:59.98	231.97	5.04	-48.4	-63.6	3.8	1.49e+00	0	35	104	0	68	20653
2026-01-24 12:01:00.97	232.08	5.09	-48.4	-63.6	3.8	1.49e+00	0	35	104	0	68	20658
2026-01-24 12:01:01.97	232.20	5.13	-48.4	-63.6	3.8	1.49e+00	0	35	104	0	68	20693
2026-01-24 12:01:02.96	232.31	5.18	-48.4	-63.6	3.8	1.49e+00	0	35	104	0	68	20646
2026-01-24 12:01:03.95	232.43	5.23	-48.4	-63.6	3.8	1.49e+00	0	35	104	0	68	20707
2026-01-24 12:01:04.95	232.54	5.27	-48.4	-63.6	3.8	1.49e+00	0	35	104	0	68	20705
2026-01-24 12:01:05.94	232.66	5.32	-48.4	-63.6	3.8	1.49e+00	0	35	104	0	68	20665
2026-01-24 12:01:06.93	232.77	5.37	-48.4	-63.6	3.8	1.49e+00	0	35	104	0	68	20546
2026-01-24 12:01:07.93	232.89	5.42	-48.4	-63.6	3.8	1.49e+00	0	35	104	0	68	20558
2026-01-24 12:01:08.92	233.01	5.46	-48.4	-63.6	3.8	1.49e+00	0	35	104	0	68	20649
2026-01-24 12:01:09.91	233.12	5.51	-48.4	-63.6	3.8	1.49e+00	0	35	104	0	68	20674
2026-01-24 12:01:10.91	233.24	5.56	-48.4	-63.6	3.8	1.49e+00	0	35	104	0	68	20588
2026-01-24 12:01:11.90	233.36	5.60	-48.4	-63.6	3.8	1.49e+00	0	35	104	0	68	20624
2026-01-24 12:01:12.89	233.48	5.65	-48.4	-63.6	3.8	1.49e+00	0	35	104	0	68	20614
2026-01-24 12:01:13.88	233.60	5.70	-48.4	-63.6	3.8	1.49e+00	0	35	104	0	68	20596
2026-01-24 12:01:14.88	233.72	5.74	-48.4	-63.6	3.8	1.49e+00	0	35	104	0	68	20579
2026-01-24 12:01:15.87	233.83	5.79	-48.4	-63.6	3.8	1.49e+00	0	35	104	0	68	20590
2026-01-24 12:01:16.86	233.95	5.84	-48.4	-63.6	3.8	1.49e+00	0	35	104	0	68	20620
2026-01-24 12:01:17.86	234.08	5.88	-48.4	-63.6	3.8	1.49e+00	0	35	104	0	68	20610
2026-01-24 12:01:18.85	234.20	5.93	-48.4	-63.6	3.8	1.49e+00	0	35	104	0	68	20635
2026-01-24 12:01:19.84	234.32	5.98	-48.4	-63.6	3.8	1.49e+00	0	35	104	0	68	20595
2026-01-24 12:01:20.84	234.44	6.03	-48.4	-63.5	3.8	1.49e+00	0	35	104	0	68	20529
2026-01-24 12:01:21.83	234.56	6.07	-48.4	-63.6	3.8	1.49e+00	0	35	104	0	68	20571
2026-01-24 12:01:22.82	234.68	6.12	-48.4	-63.6	3.8	1.49e+00	0	35	104	0	68	20551
2026-01-24 12:01:23.82	234.80	6.17	-48.4	-63.6	3.8	1.49e+00	0	36	104	0	68	20575
2026-01-24 12:01:24.81	234.93	6.21	-48.4	-63.6	3.8	1.49e+00	0	36	104	0	68	20620
2026-01-24 12:01:25.80	235.05	6.26	-48.4	-63.5	3.8	1.49e+00	0	36	104	0	68	20509
2026-01-24 12:01:26.80	235.17	6.31	-48.4	-63.5	3.8	1.49e+00	0	36	104	0	68	20409
2026-01-24 12:01:27.79	235.30	6.35	-48.4	-63.5	3.8	1.49e+00	0	36	104	0	68	20479
2026-01-24 12:01:28.78	235.42	6.40	-48.4	-63.5	3.8	1.49e+00	0	36	104	0	68	20401
2026-01-24 12:01:29.78	235.55	6.45	-48.4	-63.5	3.8	1.49e+00	0	36	104	0	68	20407
2026-01-24 12:01:30.77	235.67	6.49	-48.4	-63.5	3.8	1.49e+00	0	36	104	0	68	20399
2026-01-24 12:01:31.76	235.80	6.54	-48.4	-63.5	3.8	1.49e+00	0	36	104	0	68	20373
2026-01-24 12:01:32.76	235.92	6.58	-48.4	-63.5	3.8	1.49e+00	0	36	104	0	68	20407
2026-01-24 12:01:33.75	236.05	6.63	-48.4	-63.5	3.8	1.49e+00	0	36	104	0	68	20391
2026-01-24 12:01:34.74	236.17	6.68	-48.4	-63.5	3.8	1.49e+00	0	36	104	0	68	20391
2026-01-24 12:01:35.74	236.30	6.72	-48.4	-63.5	3.8	1.49e+00	0	36	104	0	68	20346
2026-01-24 12:01:36.73	236.43	6.77	-48.4	-63.5	3.8	1.49e+00	0	36	104	0	68	20399
2026-01-24 12:01:37.72	236.56	6.82	-48.4	-63.5	3.8	1.49e+00	0	36	104	0	68	20468
2026-01-24 12:01:38.72	236.68	6.86	-48.4	-63.5	3.8	1.49e+00	0	36	104	0	68	20490
2026-01-24 12:01:39.71	236.81	6.91	-48.4	-63.6	3.8	1.49e+00	0	36	104	0	68	20584
2026-01-24 12:01:40.71	236.94	6.96	-48.4	-63.5	3.8	1.49e+00	0	36	104	0	68	20507
2026-01-24 12:01:41.70	237.07	7.00	-48.4	-63.5	3.8	1.49e+00	0	36	104	0	68	20394
2026-01-24 12:01:42.69	237.20	7.05	-48.4	-63.5	3.8	1.49e+00	0	36	104	0	68	20405
2026-01-24 12:01:43.68	237.33	7.09	-48.4	-63.5	3.8	1.49e+00	0	36	104	0	68	20401
2026-01-24 12:01:44.68	237.46	7.14	-48.4	-63.5	3.8	1.49e+00	0	36	104	0	68	20399
2026-01-24 12:01:45.67	237.59	7.19	-48.4	-63.5	3.8	1.49e+00	0	36	104	0	68	20440
2026-01-24 12:01:46.66	237.72	7.23	-48.4	-63.5	3.8	1.49e+00	0	36	104	0	68	20434
2026-01-24 12:01:47.66	237.86	7.28	-48.4	-63.5	3.8	1.49e+00	0	36	104	0	68	20377
2026-01-24 12:01:48.65	237.99	7.32	-48.4	-63.4	3.8	1.49e+00	0	36	104	0	68	20167
2026-01-24 12:01:49.64	238.12	7.37	-48.4	-63.3	3.8	1.49e+00	0	36	104	0	68	19874
2026-01-24 12:01:50.64	238.25	7.41	-48.4	-63.2	3.8	1.49e+00	0	36	104	0	68	19777
2026-01-24 12:01:51.63	238.39	7.46	-48.4	-63.2	3.8	1.49e+00	0	36	104	0	68	19771
2026-01-24 12:01:52.62	238.52	7.51	-48.4	-63.3	3.8	1.49e+00	0	36	104	0	68	19958
2026-01-24 12:01:53.62	238.65	7.55	-48.4	-63.4	3.8	1.49e+00	0	36	104	0	68	20261
2026-01-24 12:01:54.61	238.79	7.60	-48.4	-63.5	3.8	1.49e+00	0	36	104	0	68	20417
2026-01-24 12:01:55.60	238.92	7.64	-48.4	-63.6	3.8	1.49e+00	0	36	104	0	68	20560
2026-01-24 12:01:56.60	239.06	7.69	-48.4	-63.6	3.8	1.49e+00	0	36	104	0	68	20562
2026-01-24 12:01:57.59	239.19	7.73	-48.4	-63.5	3.8	1.49e+00	0	36	104	0	68	20439
2026-01-24 12:01:58.58	239.33	7.78	-48.4	-63.4	3.8	1.49e+00	0	36	104	0	68	20288
2026-01-24 12:01:59.58	239.47	7.82	-48.4	-63.5	3.8	1.49e+00	0	37	104	0	68	20373
2026-01-24 12:02:00.57	239.60	7.87	-48.4	-63.5	3.8	1.49e+00	0	36	104	0	68	20333
2026-01-24 12:02:01.56	239.74	7.91	-48.4	-63.5	3.8	1.49e+00	0	36	104	0	68	20421
2026-01-24 12:02:02.56	239.88	7.96	-48.4	-63.5	3.8	1.49e+00	0	36	104	0	68	20474
2026-01-24 12:02:03.55	240.02	8.00	-48.4	-63.6	3.8	1.49e+00	0	36	104	0	68	20576
2026-01-24 12:02:04.54	240.16	8.05	-48.4	-63.5	3.8	1.49e+00	0	36	104	0	68	20377
2026-01-24 12:02:05.53	240.29	8.09	-48.4	-63.5	3.8	1.49e+00	0	36	104	0	68	20447
2026-01-24 12:02:06.53	240.43	8.14	-48.4	-63.5	3.8	1.49e+00	0	37	104	0	68	20471
2026-01-24 12:02:07.52	240.57	8.18	-48.4	-63.3	3.8	1.49e+00	0	36	104	0	68	19994
2026-01-24 12:02:08.51	240.71	8.23	-48.3	-62.5	3.8	1.49e+00	0	37	104	0	68	18290
2026-01-24 12:02:09.50	240.85	8.27	-48.2	-61.3	3.8	1.49e+00	0	36	104	0	68	15936
2026-01-24 12:02:10.50	241.00	8.32	-48.2	-60.6	4.1	1.47e+00	0	37	104	0	68	14599
2026-01-24 12:02:11.49	241.14	8.36	-48.2	-61.1	3.8	1.47e+00	0	36	104	0	68	15465
2026-01-24 12:02:12.48	241.28	8.41	-48.3	-62.7	3.8	1.49e+00	0	37	104	0	68	18624
2026-01-24 12:02:13.48	241.42	8.45	-48.3	-63.1	3.8	1.49e+00	0	37	104	0	68	19581
2026-01-24 12:02:14.47	241.56	8.49	-47.8	-57.9	4.9	1.46e+00	0	36	0	0	67	11338
2026-01-24 12:02:15.46	241.71	8.54	-46.7	-53.1	8.9	2.88e-01	0	36	0	2097152	65	7354
2026-01-24 12:02:16.46	241.85	8.58	-45.4	-49.7	12.5	1.08e-03	0	37	0	3145728	62	5917
2026-01-24 12:02:17.45	241.99	8.63	-44.1	-47.5	14.7	3.80e-06	0	36	0	5242880	60	5157
2026-01-24 12:02:18.44	242.14	8.67	-43.3	-46.3	16.0	0.00e+00	0	36	0	7340032	58	4988
2026-01-24 12:02:19.44	242.28	8.71	-42.9	-45.7	16.6	0.00e+00	0	37	0	9437184	57	4963
2026-01-24 12:02:20.43	242.43	8.76	-42.8	-45.6	16.7	0.00e+00	0	37	0	10485760	57	4892
2026-01-24 12:02:21.42	242.57	8.80	-43.2	-46.2	16.1	0.00e+00	0	37	0	12582912	57	5253
2026-01-24 12:02:22.41	242.72	8.85	-43.9	-47.3	15.1	0.00e+00	0	37	0	14680064	58	5598
2026-01-24 12:02:23.41	242.87	8.89	-44.9	-48.9	13.4	1.50e-06	0	37	0	16777216	60	6035
2026-01-24 12:02:24.40	243.01	8.93	-45.9	-50.9	11.4	2.10e-04	0	37	0	18874368	62	6737
2026-01-24 12:02:25.39	243.16	8.98	-46.7	-53.0	9.1	5.43e-03	0	37	0	19922944	64	7634
2026-01-24 12:02:26.39	243.31	9.02	-47.1	-54.5	7.5	5.45e-02	0	37	0	22020096	64	9141
2026-01-24 12:02:27.38	243.46	9.06	-46.7	-53.1	8.8	7.89e-02	0	37	0	24117248	64	7724
2026-01-24 12:02:28.37	243.61	9.10	-46.1	-51.4	11.0	4.34e-05	0	37	0	26214400	62	7168
2026-01-24 12:02:29.37	243.76	9.15	-47.7	-57.8	4.9	5.51e-01	0	37	0	27262976	66	11933
2026-01-24 12:02:30.36	243.90	9.19	-47.2	-54.9	6.8	7.18e-01	0	37	0	29360128	66	8551
2026-01-24 12:02:31.36	244.06	9.23	-46.5	-52.4	9.7	1.01e-02	0	37	0	31457280	63	7569
2026-01-24 12:02:32.35	244.21	9.28	-46.4	-52.1	10.0	5.12e-03	0	37	0	33554432	63	7360
2026-01-24 12:02:33.34	244.36	9.32	-46.2	-51.6	10.5	8.07e-03	0	37	0	35651584	63	6954
2026-01-24 12:02:34.34	244.51	9.36	-45.7	-50.4	11.9	7.03e-04	0	37	0	36700160	63	5996
2026-01-24 12:02:35.34	244.66	9.40	-45.2	-49.4	12.9	1.20e-04	0	37	0	38797312	62	5689
2026-01-24 12:02:36.33	244.81	9.45	-44.9	-48.8	13.5	2.44e-05	0	37	0	40894464	61	5621
2026-01-24 12:02:37.33	244.97	9.49	-44.2	-47.7	14.6	2.20e-06	0	37	0	42991616	60	5253
2026-01-24 12:02:38.32	245.12	9.53	-43.8	-47.0	15.3	0.00e+00	0	37	0	44040192	59	5140
2026-01-24 12:02:39.31	245.27	9.57	-43.3	-46.4	16.0	0.00e+00	0	37	0	46137344	58	5051
2026-01-24 12:02:40.31	245.43	9.62	-43.4	-46.4	15.9	0.00e+00	0	37	0	48234496	58	5056
2026-01-24 12:02:41.30	245.58	9.66	-43.2	-46.2	16.1	0.00e+00	0	37	0	50331648	58	4954
2026-01-24 12:02:42.30	245.74	9.70	-43.0	-45.9	16.4	0.00e+00	0	37	0	52428800	58	4799
2026-01-24 12:02:43.29	245.89	9.74	-42.8	-45.6	16.8	0.00e+00	0	37	0	53477376	57	4877
2026-01-24 12:02:44.29	246.05	9.78	-42.6	-45.3	17.0	0.00e+00	0	37	0	55574528	57	4755
2026-01-24 12:02:45.29	246.20	9.82	-42.7	-45.6	16.8	0.00e+00	0	37	0	57671680	57	4872
2026-01-24 12:02:46.28	246.36	9.86	-42.7	-45.5	16.8	0.00e+00	0	37	0	59768832	57	4859
2026-01-24 12:02:47.28	246.52	9.91	-42.5	-45.3	17.1	0.00e+00	0	37	0	60817408	57	4712
2026-01-24 12:02:48.27	246.67	9.95	-42.5	-45.2	17.2	0.00e+00	0	37	0	62914560	56	4950
2026-01-24 12:02:49.27	246.83	9.99	-42.5	-45.2	17.1	0.00e+00	0	37	0	65011712	56	4972
2026-01-24 12:02:50.26	246.99	10.03	-42.5	-45.3	17.1	0.00e+00	0	37	0	67108864	56	4998
2026-01-24 12:02:51.26	247.15	10.07	-42.4	-45.2	17.2	0.00e+00	0	37	0	69206016	56	4927
2026-01-24 12:02:52.25	247.31	10.11	-42.4	-45.1	17.3	0.00e+00	0	37	0	70254592	56	4902
2026-01-24 12:02:53.25	247.47	10.15	-42.4	-45.0	17.3	0.00e+00	0	37	0	72351744	56	4858
2026-01-24 12:02:54.24	247.63	10.19	-42.5	-45.2	17.2	0.00e+00	0	37	0	74448896	56	4933
2026-01-24 12:02:55.24	247.79	10.23	-42.4	-45.2	17.2	0.00e+00	0	37	0	76546048	56	4929
2026-01-24 12:02:56.23	247.95	10.27	-42.5	-45.1	17.2	0.00e+00	0	37	0	77594624	56	4924
2026-01-24 12:02:57.23	248.11	10.31	-42.5	-45.2	17.2	0.00e+00	0	37	0	79691776	56	4955
2026-01-24 12:02:58.22	248.27	10.35	-42.6	-45.3	17.1	0.00e+00	0	37	0	81788928	56	5006
2026-01-24 12:02:59.21	248.43	10.39	-42.6	-45.3	17.0	0.00e+00	0	37	0	83886080	56	5041
2026-01-24 12:03:00.21	248.60	10.43	-42.7	-45.5	16.9	0.00e+00	0	37	0	85983232	56	5123
2026-01-24 12:03:01.20	248.76	10.47	-42.8	-45.5	16.9	0.00e+00	0	37	0	87031808	56	5151
2026-01-24 12:03:02.20	248.92	10.51	-42.8	-45.6	16.8	0.00e+00	0	37	0	89128960	56	5183
2026-01-24 12:03:03.19	249.09	10.55	-42.8	-45.6	16.8	0.00e+00	0	37	0	91226112	56	5182
2026-01-24 12:03:04.18	249.25	10.58	-42.8	-45.6	16.8	0.00e+00	0	37	0	93323264	56	5185
2026-01-24 12:03:05.18	249.41	10.62	-42.8	-45.6	16.8	0.00e+00	0	37	0	94371840	56	5164
2026-01-24 12:03:06.17	249.58	10.66	-42.7	-45.5	16.9	0.00e+00	0	37	0	96468992	56	5152
2026-01-24 12:03:07.17	249.75	10.70	-42.8	-45.6	16.8	0.00e+00	0	37	0	98566144	56	5182
2026-01-24 12:03:08.16	249.91	10.74	-42.8	-45.7	16.7	0.00e+00	0	37	0	100663296	56	5226
2026-01-24 12:03:09.16	250.08	10.78	-42.8	-45.6	16.8	0.00e+00	0	37	0	102760448	56	5180
2026-01-24 12:03:10.15	250.24	10.81	-42.7	-45.5	16.9	0.00e+00	0	37	0	103809024	56	5144
2026-01-24 12:03:11.15	250.41	10.85	-42.8	-45.7	16.8	0.00e+00	0	37	0	105906176	56	5221
2026-01-24 12:03:12.14	250.58	10.89	-42.8	-45.6	16.8	0.00e+00	0	37	0	108003328	56	5213
2026-01-24 12:03:13.14	250.75	10.93	-42.8	-45.7	16.8	0.00e+00	0	37	0	110100480	56	5221
2026-01-24 12:03:14.13	250.91	10.96	-43.0	-45.8	16.6	0.00e+00	0	37	0	111149056	56	5312
2026-01-24 12:03:15.13	251.08	11.00	-43.0	-45.9	16.5	0.00e+00	0	37	0	113246208	56	5382
2026-01-24 12:03:16.12	251.25	11.04	-43.0	-45.9	16.5	0.00e+00	0	37	0	115343360	56	5357
2026-01-24 12:03:17.11	251.42	11.08	-43.0	-45.9	16.5	0.00e+00	0	37	0	117440512	56	5395
2026-01-24 12:03:18.11	251.59	11.11	-43.1	-46.0	16.4	0.00e+00	0	37	0	119537664	56	5413
2026-01-24 12:03:19.11	251.76	11.15	-43.1	-46.0	16.4	0.00e+00	0	37	0	120586240	56	5440
2026-01-24 12:03:20.10	251.93	11.18	-43.0	-45.9	16.6	0.00e+00	0	37	0	122683392	56	5349
2026-01-24 12:03:21.09	252.10	11.22	-42.9	-45.8	16.7	0.00e+00	0	37	0	124780544	56	5305
2026-01-24 12:03:22.09	252.28	11.26	-42.9	-45.8	16.6	0.00e+00	0	37	0	126877696	56	5323
2026-01-24 12:03:23.08	252.45	11.29	-43.0	-45.9	16.5	0.00e+00	0	37	0	128974848	56	5392
2026-01-24 12:03:24.08	252.62	11.33	-43.1	-46.0	16.5	0.00e+00	0	37	0	130023424	56	5432
2026-01-24 12:03:25.07	252.79	11.36	-43.1	-46.0	16.4	0.00e+00	0	37	0	132120576	56	5429
2026-01-24 12:03:26.07	252.97	11.40	-43.1	-46.0	16.4	0.00e+00	0	37	0	134217728	56	5428
2026-01-24 12:03:27.06	253.14	11.43	-43.1	-46.1	16.3	0.00e+00	0	37	0	136314880	56	5478
2026-01-24 12:03:28.06	253.32	11.47	-43.2	-46.1	16.4	0.00e+00	0	37	0	137363456	56	5484
2026-01-24 12:03:29.05	253.49	11.50	-43.2	-46.2	16.3	0.00e+00	0	37	0	139460608	57	5221
2026-01-24 12:03:30.05	253.66	11.54	-43.1	-46.1	16.4	0.00e+00	0	37	0	141557760	57	5166
2026-01-24 12:03:31.04	253.84	11.57	-43.1	-46.0	16.4	0.00e+00	0	37	0	143654912	57	5134
2026-01-24 12:03:32.03	254.01	11.61	-43.0	-46.0	16.5	0.00e+00	0	37	0	145752064	57	5102
2026-01-24 12:03:33.03	254.19	11.64	-43.0	-45.9	16.6	0.00e+00	0	37	0	146800640	57	5073
2026-01-24 12:03:34.02	254.37	11.67	-42.9	-45.8	16.7	0.00e+00	0	37	0	148897792	57	4990
2026-01-24 12:03:35.01	254.54	11.71	-42.8	-45.6	16.8	0.00e+00	0	37	0	150994944	57	4904
2026-01-24 12:03:36.01	254.72	11.74	-42.8	-45.6	16.8	0.00e+00	0	37	0	153092096	57	4917
2026-01-24 12:03:37.00	254.90	11.77	-42.8	-45.6	16.8	0.00e+00	0	37	0	154140672	57	4907
2026-01-24 12:03:38.00	255.08	11.81	-42.9	-45.7	16.7	0.00e+00	0	37	0	156237824	57	4972
2026-01-24 12:03:38.99	255.25	11.84	-42.9	-45.7	16.7	0.00e+00	0	37	0	158334976	57	4977
2026-01-24 12:03:39.98	255.43	11.87	-42.9	-45.7	16.8	0.00e+00	0	37	0	160432128	57	4951
2026-01-24 12:03:40.98	255.61	11.90	-42.9	-45.8	16.7	0.00e+00	0	37	0	162529280	57	5007
2026-01-24 12:03:41.97	255.79	11.94	-43.0	-45.9	16.5	0.00e+00	0	37	0	163577856	57	5089
2026-01-24 12:03:42.97	255.97	11.97	-43.1	-46.0	16.5	0.00e+00	0	37	0	165675008	57	5119
2026-01-24 12:03:43.96	256.15	12.00	-43.1	-46.1	16.4	0.00e+00	0	37	0	167772160	57	5172
2026-01-24 12:03:44.96	256.33	12.03	-43.2	-46.1	16.3	0.00e+00	0	37	0	169869312	57	5216
2026-01-24 12:03:45.95	256.51	12.06	-43.2	-46.2	16.2	0.00e+00	0	37	0	170917888	57	5272
2026-01-24 12:03:46.95	256.70	12.09	-43.2	-46.2	16.2	0.00e+00	0	37	0	173015040	57	5269
2026-01-24 12:03:47.95	256.88	12.12	-43.3	-46.3	16.2	0.00e+00	0	37	0	175112192	57	5282
2026-01-24 12:03:48.94	257.06	12.15	-43.1	-46.1	16.3	0.00e+00	0	37	0	177209344	57	5184
2026-01-24 12:03:49.94	257.24	12.18	-43.1	-46.0	16.4	0.00e+00	0	37	0	179306496	57	5132
2026-01-24 12:03:50.93	257.42	12.21	-43.1	-46.1	16.4	0.00e+00	0	37	0	180355072	57	5176
2026-01-24 12:03:51.93	257.61	12.24	-43.1	-46.0	16.5	0.00e+00	0	37	0	182452224	57	5122
2026-01-24 12:03:52.92	257.79	12.27	-43.1	-46.1	16.4	0.00e+00	0	37	0	184549376	57	5166
2026-01-24 12:03:53.92	257.98	12.30	-43.1	-46.0	16.4	0.00e+00	0	37	0	186646528	57	5145
2026-01-24 12:03:54.91	258.16	12.33	-43.0	-45.9	16.5	0.00e+00	0	37	0	187695104	57	5071
2026-01-24 12:03:55.91	258.35	12.36	-43.0	-45.8	16.7	0.00e+00	0	37	0	189792256	57	5031
2026-01-24 12:03:56.90	258.53	12.39	-43.0	-45.9	16.5	0.00e+00	0	37	0	191889408	57	5092
2026-01-24 12:03:57.90	258.72	12.42	-43.1	-46.0	16.5	0.00e+00	0	37	0	193986560	57	5137
2026-01-24 12:03:58.89	258.90	12.45	-43.1	-46.0	16.4	0.00e+00	0	37	0	196083712	57	5152
2026-01-24 12:03:59.89	259.09	12.47	-43.1	-46.1	16.4	0.00e+00	0	37	0	197132288	57	5188
2026-01-24 12:04:00.88	259.27	12.50	-43.2	-46.2	16.3	0.00e+00	0	37	0	199229440	57	5223
2026-01-24 12:04:01.88	259.46	12.53	-43.2	-46.3	16.2	0.00e+00	0	37	0	201326592	57	5287
2026-01-24 12:04:02.87	259.65	12.56	-43.2	-46.3	16.2	0.00e+00	0	37	0	203423744	57	5288
2026-01-24 12:04:03.87	259.83	12.58	-43.3	-46.4	16.1	0.00e+00	0	37	0	204472320	57	5364
2026-01-24 12:04:04.87	260.02	12.61	-43.2	-46.3	16.2	0.00e+00	0	37	0	206569472	57	5290
2026-01-24 12:04:05.86	260.21	12.64	-43.3	-46.3	16.1	0.00e+00	0	37	0	208666624	57	5336
2026-01-24 12:04:06.85	260.40	12.66	-43.1	-46.1	16.3	0.00e+00	0	37	0	210763776	57	5194
2026-01-24 12:04:07.85	260.59	12.69	-43.1	-46.0	16.5	0.00e+00	0	37	0	212860928	57	5141
2026-01-24 12:04:08.84	260.78	12.72	-42.9	-45.8	16.6	0.00e+00	0	37	0	213909504	57	5028
2026-01-24 12:04:09.83	260.96	12.74	-42.9	-45.8	16.7	0.00e+00	0	37	0	216006656	57	4999
2026-01-24 12:04:10.83	261.15	12.77	-42.7	-45.6	16.9	0.00e+00	0	37	0	218103808	57	4875
2026-01-24 12:04:11.82	261.34	12.79	-42.7	-45.5	17.0	0.00e+00	0	37	0	220200960	57	4827
2026-01-24 12:04:12.81	261.53	12.82	-42.6	-45.4	17.1	0.00e+00	0	37	0	221249536	57	4785
2026-01-24 12:04:13.81	261.72	12.84	-42.6	-45.3	17.2	0.00e+00	0	37	0	223346688	57	4741
2026-01-24 12:04:14.80	261.91	12.86	-42.6	-45.3	17.2	0.00e+00	0	37	0	225443840	57	4735
2026-01-24 12:04:15.80	262.11	12.89	-42.6	-45.4	17.1	0.00e+00	0	37	0	227540992	57	4761
2026-01-24 12:04:16.79	262.30	12.91	-42.7	-45.5	17.0	0.00e+00	0	37	0	229638144	57	4819
2026-01-24 12:04:17.79	262.49	12.94	-42.7	-45.4	17.0	0.00e+00	0	37	0	230686720	57	4814
2026-01-24 12:04:18.79	262.68	12.96	-42.7	-45.4	17.0	0.00e+00	0	37	0	232783872	57	4811
2026-01-24 12:04:19.78	262.87	12.98	-42.6	-45.4	17.0	0.00e+00	0	37	0	234881024	57	4795
2026-01-24 12:04:20.78	263.07	13.00	-42.6	-45.4	17.1	0.00e+00	0	37	0	236978176	57	4780
2026-01-24 12:04:21.77	263.26	13.03	-42.7	-45.5	16.9	0.00e+00	0	37	0	238026752	57	4844
2026-01-24 12:04:22.77	263.45	13.05	-42.5	-45.3	17.1	0.00e+00	0	37	0	240123904	57	4755
2026-01-24 12:04:23.76	263.65	13.07	-42.5	-45.2	17.2	0.00e+00	0	37	0	242221056	56	4971
2026-01-24 12:04:24.76	263.84	13.09	-42.4	-45.1	17.4	0.00e+00	0	37	0	244318208	56	4919
2026-01-24 12:04:25.75	264.03	13.11	-42.4	-45.1	17.4	0.00e+00	0	37	0	246415360	56	4882
2026-01-24 12:04:26.74	264.23	13.13	-42.4	-45.0	17.5	0.00e+00	0	37	0	247463936	56	4864
2026-01-24 12:04:27.74	264.42	13.15	-42.3	-44.9	17.6	0.00e+00	0	37	0	249561088	56	4780
2026-01-24 12:04:28.74	264.62	13.17	-42.2	-44.9	17.6	0.00e+00	0	37	0	251658240	56	4762
2026-01-24 12:04:29.73	264.81	13.19	-42.3	-44.9	17.6	0.00e+00	0	37	0	253755392	56	4770
2026-01-24 12:04:30.73	265.01	13.21	-42.2	-44.8	17.7	0.00e+00	0	37	0	254803968	56	4730
2026-01-24 12:04:31.72	265.20	13.23	-42.3	-44.9	17.6	0.00e+00	0	37	0	256901120	56	4781
2026-01-24 12:04:32.71	265.40	13.25	-42.6	-45.3	17.3	0.00e+00	0	37	0	258998272	56	5011
2026-01-24 12:04:33.71	265.60	13.27	-42.5	-45.3	17.3	0.00e+00	0	37	0	261095424	56	4987
2026-01-24 12:04:34.70	265.79	13.29	-42.6	-45.3	17.1	0.00e+00	0	37	0	263192576	56	5016
2026-01-24 12:04:35.70	265.99	13.31	-42.7	-45.4	17.0	0.00e+00	0	37	0	264241152	56	5099
2026-01-24 12:04:36.69	266.18	13.33	-42.8	-45.6	16.9	0.00e+00	0	37	0	266338304	56	5165
2026-01-24 12:04:37.69	266.38	13.34	-42.9	-45.7	16.7	0.00e+00	0	37	0	268435456	56	5248
2026-01-24 12:04:38.68	266.58	13.36	-42.9	-45.7	16.7	0.00e+00	0	37	0	270532608	56	5258
2026-01-24 12:04:39.67	266.77	13.38	-43.0	-45.9	16.6	0.00e+00	0	37	0	271581184	56	5349
2026-01-24 12:04:40.67	266.97	13.40	-43.0	-45.9	16.6	0.00e+00	0	37	0	273678336	56	5359
2026-01-24 12:04:41.66	267.17	13.41	-43.0	-46.0	16.5	0.00e+00	0	37	0	275775488	56	5404
2026-01-24 12:04:42.66	267.37	13.43	-43.0	-45.9	16.6	0.00e+00	0	37	0	277872640	56	5363
2026-01-24 12:04:43.65	267.57	13.44	-42.9	-45.8	16.7	0.00e+00	0	37	0	279969792	56	5315
2026-01-24 12:04:44.65	267.77	13.46	-42.9	-45.8	16.6	0.00e+00	0	37	0	281018368	56	5328
2026-01-24 12:04:45.64	267.96	13.48	-42.9	-45.8	16.7	0.00e+00	0	37	0	283115520	56	5300
2026-01-24 12:04:46.64	268.16	13.49	-43.0	-45.9	16.6	0.00e+00	0	37	0	285212672	56	5360
2026-01-24 12:04:47.63	268.36	13.50	-43.0	-45.9	16.5	0.00e+00	0	37	0	287309824	56	5387
2026-01-24 12:04:48.63	268.56	13.52	-43.1	-46.0	16.5	0.00e+00	0	37	0	288358400	56	5423
2026-01-24 12:04:49.62	268.76	13.53	-43.1	-46.1	16.3	0.00e+00	0	37	0	290455552	56	5492
2026-01-24 12:04:50.62	268.96	13.55	-43.1	-46.1	16.3	0.00e+00	0	37	0	292552704	57	5186
2026-01-24 12:04:51.61	269.16	13.56	-43.1	-46.1	16.3	0.00e+00	0	37	0	294649856	57	5201
2026-01-24 12:04:52.61	269.36	13.57	-43.1	-46.1	16.4	0.00e+00	0	37	0	296747008	57	5183
2026-01-24 12:04:53.60	269.56	13.59	-43.1	-46.0	16.4	0.00e+00	0	37	0	297795584	57	5128
2026-01-24 12:04:54.60	269.76	13.60	-43.1	-46.0	16.5	0.00e+00	0	37	0	299892736	57	5117
2026-01-24 12:04:55.59	269.96	13.61	-43.1	-46.1	16.3	0.00e+00	0	37	0	301989888	57	5174
2026-01-24 12:04:56.59	270.16	13.62	-43.2	-46.2	16.3	0.00e+00	0	37	0	304087040	57	5235
2026-01-24 12:04:57.59	270.36	13.63	-43.1	-46.0	16.4	0.00e+00	0	37	0	305135616	57	5152
2026-01-24 12:04:58.58	270.56	13.65	-43.0	-46.0	16.5	0.00e+00	0	37	0	307232768	57	5126
2026-01-24 12:04:59.57	270.76	13.66	-43.1	-46.1	16.4	0.00e+00	0	37	0	309329920	57	5179
2026-01-24 12:05:00.57	270.96	13.67	-43.0	-45.9	16.5	0.00e+00	0	37	0	311427072	57	5082
2026-01-24 12:05:01.56	271.16	13.68	-43.0	-45.9	16.5	0.00e+00	0	37	0	313524224	57	5075
2026-01-24 12:05:02.56	271.37	13.69	-43.0	-45.9	16.5	0.00e+00	0	37	0	314572800	57	5064
2026-01-24 12:05:03.55	271.57	13.70	-42.9	-45.7	16.7	0.00e+00	0	37	0	316669952	57	4955
2026-01-24 12:05:04.55	271.77	13.71	-42.8	-45.7	16.8	0.00e+00	0	37	0	318767104	57	4928
2026-01-24 12:05:05.54	271.97	13.72	-42.9	-45.7	16.7	0.00e+00	0	37	0	320864256	57	4965
2026-01-24 12:05:06.54	272.17	13.72	-42.9	-45.7	16.7	0.00e+00	0	37	0	321912832	57	4978
2026-01-24 12:05:07.53	272.37	13.73	-42.8	-45.6	16.8	0.00e+00	0	37	0	324009984	57	4912
2026-01-24 12:05:08.53	272.58	13.74	-42.8	-45.6	16.7	0.00e+00	0	37	0	326107136	57	4926
2026-01-24 12:05:09.52	272.78	13.75	-42.8	-45.7	16.8	0.00e+00	0	37	0	328204288	57	4937
2026-01-24 12:05:10.52	272.98	13.76	-42.9	-45.8	16.7	0.00e+00	0	37	0	330301440	57	4987
2026-01-24 12:05:11.52	273.19	13.76	-42.8	-45.7	16.7	0.00e+00	0	37	0	331350016	57	4956
2026-01-24 12:05:12.51	273.39	13.77	-42.9	-45.7	16.7	0.00e+00	0	37	0	333447168	57	4961
2026-01-24 12:05:13.51	273.59	13.78	-42.8	-45.7	16.8	0.00e+00	0	37	0	335544320	57	4939
2026-01-24 12:05:14.50	273.79	13.78	-42.7	-45.5	16.9	0.00e+00	0	37	0	337641472	57	4860
2026-01-24 12:05:15.50	274.00	13.79	-42.7	-45.5	16.9	0.00e+00	0	37	0	339738624	57	4845
2026-01-24 12:05:16.49	274.20	13.79	-42.7	-45.5	16.9	0.00e+00	0	37	0	340787200	57	4851
2026-01-24 12:05:17.49	274.40	13.80	-42.7	-45.5	16.9	0.00e+00	0	37	0	342884352	57	4850
2026-01-24 12:05:18.48	274.60	13.80	-42.6	-45.3	17.1	0.00e+00	0	37	0	344981504	57	4759
2026-01-24 12:05:19.47	274.80	13.81	-42.5	-45.3	17.1	0.00e+00	0	37	0	347078656	57	4713
2026-01-24 12:05:20.47	275.01	13.81	-42.5	-45.2	17.2	0.00e+00	0	37	0	348127232	57	4680
2026-01-24 12:05:21.46	275.21	13.81	-42.6	-45.3	17.1	0.00e+00	0	37	0	350224384	57	4729
2026-01-24 12:05:22.46	275.41	13.82	-42.5	-45.2	17.2	0.00e+00	0	37	0	352321536	57	4672
2026-01-24 12:05:23.45	275.62	13.82	-42.5	-45.3	17.2	0.00e+00	0	37	0	354418688	56	4993
2026-01-24 12:05:24.45	275.82	13.82	-42.6	-45.4	17.0	0.00e+00	0	37	0	356515840	56	5060
2026-01-24 12:05:25.44	276.02	13.83	-42.6	-45.4	17.0	0.00e+00	0	37	0	357564416	56	5051
2026-01-24 12:05:26.44	276.23	13.83	-42.6	-45.4	17.1	0.00e+00	0	37	0	359661568	56	5048
2026-01-24 12:05:27.43	276.43	13.83	-42.6	-45.4	17.0	0.00e+00	0	37	0	361758720	56	5075
2026-01-24 12:05:28.43	276.63	13.83	-42.7	-45.4	17.0	0.00e+00	0	37	0	363855872	56	5085
2026-01-24 12:05:29.43	276.84	13.83	-42.5	-45.2	17.2	0.00e+00	0	37	0	364904448	56	4978
2026-01-24 12:05:30.42	277.04	13.83	-42.4	-45.1	17.3	0.00e+00	0	37	0	367001600	56	4905
2026-01-24 12:05:31.42	277.24	13.83	-42.4	-45.1	17.4	0.00e+00	0	37	0	369098752	56	4879
2026-01-24 12:05:32.41	277.45	13.83	-42.3	-45.0	17.5	0.00e+00	0	37	0	371195904	56	4825
2026-01-24 12:05:33.41	277.65	13.83	-42.1	-44.8	17.7	0.00e+00	0	37	0	373293056	56	4708
2026-01-24 12:05:34.40	277.85	13.83	-42.1	-44.7	17.7	0.00e+00	0	37	0	374341632	56	4675
2026-01-24 12:05:35.40	278.06	13.83	-42.1	-44.7	17.7	0.00e+00	0	37	0	376438784	56	4702
2026-01-24 12:05:36.39	278.26	13.83	-42.2	-44.8	17.6	0.00e+00	0	37	0	378535936	56	4753
2026-01-24 12:05:37.39	278.46	13.83	-42.2	-44.8	17.6	0.00e+00	0	37	0	380633088	56	4726
2026-01-24 12:05:38.38	278.67	13.83	-42.2	-44.8	17.6	0.00e+00	0	37	0	381681664	56	4716
2026-01-24 12:05:39.38	278.87	13.83	-42.1	-44.7	17.7	0.00e+00	0	37	0	383778816	56	4690
2026-01-24 12:05:40.37	279.07	13.82	-42.1	-44.7	17.6	0.00e+00	0	37	0	385875968	56	4702
2026-01-24 12:05:41.37	279.28	13.82	-42.1	-44.7	17.7	0.00e+00	0	37	0	387973120	56	4688
2026-01-24 12:05:42.37	279.48	13.82	-42.1	-44.8	17.6	0.00e+00	0	37	0	390070272	56	4709
2026-01-24 12:05:43.36	279.68	13.81	-42.0	-44.6	17.8	0.00e+00	0	37	0	391118848	56	4631
2026-01-24 12:05:44.35	279.88	13.81	-41.7	-44.3	17.9	0.00e+00	0	37	0	393216000	55	4710
2026-01-24 12:05:45.35	280.09	13.81	-41.6	-44.1	18.1	0.00e+00	0	37	0	395313152	55	4629
2026-01-24 12:05:46.34	280.29	13.80	-41.6	-44.0	18.2	0.00e+00	0	37	0	397410304	55	4597
2026-01-24 12:05:47.34	280.49	13.80	-41.5	-44.0	18.2	0.00e+00	0	37	0	398458880	55	4588
2026-01-24 12:05:48.33	280.70	13.79	-41.5	-43.9	18.3	0.00e+00	0	37	0	400556032	55	4545
2026-01-24 12:05:49.32	280.90	13.79	-41.6	-44.1	18.1	0.00e+00	0	37	0	402653184	55	4618
2026-01-24 12:05:50.32	281.10	13.78	-41.6	-44.1	18.1	0.00e+00	0	37	0	404750336	55	4636
2026-01-24 12:05:51.31	281.30	13.77	-41.8	-44.3	17.9	0.00e+00	0	37	0	406847488	55	4730
2026-01-24 12:05:52.31	281.50	13.77	-41.7	-44.3	17.9	0.00e+00	0	37	0	407896064	55	4708
2026-01-24 12:05:53.30	281.71	13.76	-41.7	-44.2	18.0	0.00e+00	0	37	0	409993216	55	4662
2026-01-24 12:05:54.29	281.91	13.75	-41.7	-44.3	17.9	0.00e+00	0	37	0	412090368	55	4730
2026-01-24 12:05:55.29	282.11	13.75	-41.8	-44.3	17.9	0.00e+00	0	37	0	414187520	55	4746
2026-01-24 12:05:56.28	282.31	13.74	-41.7	-44.2	18.0	0.00e+00	0	37	0	415236096	55	4684
2026-01-24 12:05:57.28	282.51	13.73	-41.5	-44.0	18.2	0.00e+00	0	37	0	417333248	55	4555
2026-01-24 12:05:58.27	282.71	13.72	-41.5	-44.0	18.2	0.00e+00	0	37	0	419430400	54	4833
2026-01-24 12:05:59.27	282.92	13.71	-41.6	-44.0	18.2	0.00e+00	0	37	0	421527552	54	4850
2026-01-24 12:06:00.26	283.12	13.70	-41.6	-44.1	18.1	0.00e+00	0	37	0	423624704	54	4893
2026-01-24 12:06:01.26	283.32	13.69	-41.5	-43.9	18.3	0.00e+00	0	37	0	424673280	54	4795
2026-01-24 12:06:02.25	283.52	13.68	-41.5	-43.9	18.3	0.00e+00	0	37	0	426770432	54	4792
2026-01-24 12:06:03.25	283.72	13.67	-41.5	-43.9	18.3	0.00e+00	0	37	0	428867584	54	4801
2026-01-24 12:06:04.24	283.92	13.66	-41.5	-44.0	18.2	0.00e+00	0	37	0	430964736	54	4832
2026-01-24 12:06:05.24	284.12	13.65	-41.4	-43.8	18.4	0.00e+00	0	37	0	432013312	54	4758
2026-01-24 12:06:06.23	284.32	13.64	-41.4	-43.8	18.4	0.00e+00	0	37	0	434110464	54	4749
2026-01-24 12:06:07.23	284.52	13.63	-41.3	-43.8	18.4	0.00e+00	0	37	0	436207616	54	4716
2026-01-24 12:06:08.22	284.72	13.62	-41.3	-43.7	18.5	0.00e+00	0	37	0	438304768	54	4663
2026-01-24 12:06:09.22	284.92	13.61	-41.3	-43.7	18.5	0.00e+00	0	37	0	440401920	54	4660
2026-01-24 12:06:10.21	285.12	13.60	-41.4	-43.8	18.4	0.00e+00	0	37	0	441450496	54	4757
2026-01-24 12:06:11.21	285.32	13.58	-41.5	-44.0	18.3	0.00e+00	0	37	0	443547648	54	4830
2026-01-24 12:06:12.20	285.52	13.57	-41.6	-44.1	18.1	0.00e+00	0	37	0	445644800	54	4897
2026-01-24 12:06:13.20	285.72	13.56	-41.6	-44.1	18.1	0.00e+00	0	37	0	447741952	54	4920
2026-01-24 12:06:14.19	285.92	13.54	-41.7	-44.2	18.0	0.00e+00	0	37	0	449839104	54	4960
2026-01-24 12:06:15.19	286.12	13.53	-41.7	-44.3	17.9	0.00e+00	0	37	0	450887680	54	4999
2026-01-24 12:06:16.19	286.32	13.51	-41.7	-44.2	18.0	0.00e+00	0	37	0	452984832	54	4954
2026-01-24 12:06:17.18	286.52	13.50	-41.6	-44.1	18.1	0.00e+00	0	37	0	455081984	54	4904
2026-01-24 12:06:18.17	286.72	13.49	-41.7	-44.1	18.0	0.00e+00	0	37	0	457179136	54	4926
2026-01-24 12:06:19.17	286.92	13.47	-41.6	-44.1	18.0	0.00e+00	0	37	0	458227712	54	4923
2026-01-24 12:06:20.16	287.11	13.46	-41.7	-44.3	18.0	0.00e+00	0	37	0	460324864	54	4992
2026-01-24 12:06:21.15	287.31	13.44	-41.7	-44.3	18.0	0.00e+00	0	37	0	462422016	54	4988
2026-01-24 12:06:22.15	287.51	13.42	-41.9	-44.4	17.8	0.00e+00	0	37	0	464519168	54	5078
2026-01-24 12:06:23.15	287.71	13.41	-41.9	-44.4	17.8	0.00e+00	0	37	0	466616320	54	5088
2026-01-24 12:06:24.14	287.90	13.39	-41.9	-44.5	17.7	0.00e+00	0	37	0	467664896	54	5117
2026-01-24 12:06:25.14	288.10	13.37	-41.9	-44.4	17.8	0.00e+00	0	37	0	469762048	54	5085
2026-01-24 12:06:26.13	288.30	13.36	-41.7	-44.3	17.9	0.00e+00	0	37	0	471859200	54	4986
2026-01-24 12:06:27.13	288.50	13.34	-41.6	-44.1	18.0	0.00e+00	0	37	0	473956352	54	4925
2026-01-24 12:06:28.12	288.69	13.32	-41.5	-44.0	18.1	0.00e+00	0	37	0	475004928	54	4862
2026-01-24 12:06:29.12	288.89	13.30	-41.6	-44.1	18.1	0.00e+00	0	37	0	477102080	54	4887
2026-01-24 12:06:30.11	289.08	13.29	-41.6	-44.1	18.1	0.00e+00	0	37	0	479199232	54	4876
2026-01-24 12:06:31.10	289.28	13.27	-41.7	-44.2	17.9	0.00e+00	0	37	0	481296384	54	4967
2026-01-24 12:06:32.10	289.47	13.25	-41.8	-44.3	17.9	0.00e+00	0	37	0	483393536	54	5024
2026-01-24 12:06:33.09	289.67	13.23	-41.9	-44.5	17.7	0.00e+00	0	37	0	484442112	54	5115
2026-01-24 12:06:34.09	289.86	13.21	-42.0	-44.6	17.6	0.00e+00	0	37	0	486539264	54	5162
2026-01-24 12:06:35.08	290.06	13.19	-42.1	-44.7	17.5	0.00e+00	0	37	0	488636416	54	5276
2026-01-24 12:06:36.08	290.25	13.17	-42.2	-44.9	17.3	0.00e+00	0	37	0	490733568	55	5050
2026-01-24 12:06:37.07	290.45	13.15	-42.1	-44.7	17.5	0.00e+00	0	37	0	491782144	55	4963
2026-01-24 12:06:38.06	290.64	13.13	-42.1	-44.8	17.4	0.00e+00	0	37	0	493879296	55	4995
2026-01-24 12:06:39.06	290.83	13.11	-42.0	-44.6	17.5	0.00e+00	0	37	0	495976448	55	4906
2026-01-24 12:06:40.06	291.03	13.09	-41.9	-44.5	17.7	0.00e+00	0	37	0	498073600	55	4838
2026-01-24 12:06:41.06	291.22	13.07	-41.8	-44.4	17.8	0.00e+00	0	37	0	500170752	55	4772
2026-01-24 12:06:42.05	291.41	13.04	-41.8	-44.3	17.8	0.00e+00	0	37	0	501219328	55	4748
2026-01-24 12:06:43.05	291.61	13.02	-41.7	-44.3	17.8	0.00e+00	0	37	0	503316480	55	4716
2026-01-24 12:06:44.04	291.80	13.00	-41.7	-44.2	18.0	0.00e+00	0	37	0	505413632	55	4661
2026-01-24 12:06:45.04	291.99	12.98	-41.6	-44.1	18.0	0.00e+00	0	37	0	507510784	55	4650
2026-01-24 12:06:46.04	292.18	12.95	-41.5	-44.0	18.1	0.00e+00	0	37	0	508559360	55	4557
2026-01-24 12:06:47.03	292.37	12.93	-41.5	-43.9	18.2	0.00e+00	0	37	0	510656512	55	4539
2026-01-24 12:06:48.03	292.57	12.91	-41.4	-43.9	18.3	0.00e+00	0	37	0	512753664	54	4769
2026-01-24 12:06:49.02	292.76	12.88	-41.3	-43.8	18.3	0.00e+00	0	37	0	514850816	54	4722
2026-01-24 12:06:50.02	292.95	12.86	-41.4	-43.8	18.3	0.00e+00	0	37	0	516947968	54	4752
2026-01-24 12:06:51.02	293.14	12.84	-41.4	-43.8	18.3	0.00e+00	0	37	0	517996544	54	4746
2026-01-24 12:06:52.01	293.33	12.81	-41.4	-43.9	18.2	0.00e+00	0	37	0	520093696	54	4775
2026-01-24 12:06:53.01	293.52	12.79	-41.5	-44.0	18.1	0.00e+00	0	37	0	522190848	54	4825
2026-01-24 12:06:54.00	293.71	12.76	-41.6	-44.1	18.0	0.00e+00	0	37	0	524288000	54	4905
2026-01-24 12:06:55.00	293.89	12.74	-41.6	-44.2	17.9	0.00e+00	0	37	0	526385152	54	4929
2026-01-24 12:06:55.99	294.08	12.71	-41.6	-44.2	17.9	0.00e+00	0	37	0	527433728	54	4935
2026-01-24 12:06:56.99	294.27	12.69	-41.8	-44.3	17.8	0.00e+00	0	37	0	529530880	54	5017
2026-01-24 12:06:57.99	294.46	12.66	-41.8	-44.4	17.7	0.00e+00	0	37	0	531628032	54	5053
2026-01-24 12:06:58.98	294.65	12.63	-41.7	-44.2	17.9	0.00e+00	0	37	0	533725184	54	4971
2026-01-24 12:06:59.97	294.83	12.61	-41.7	-44.2	18.0	0.00e+00	0	37	0	534773760	54	4939
2026-01-24 12:07:00.97	295.02	12.58	-41.7	-44.2	17.9	0.00e+00	0	37	0	536870912	54	4956
2026-01-24 12:07:01.96	295.21	12.55	-41.7	-44.2	17.9	0.00e+00	0	37	0	538968064	54	4980
2026-01-24 12:07:02.96	295.39	12.53	-41.6	-44.2	17.9	0.00e+00	0	37	0	541065216	54	4929
2026-01-24 12:07:03.95	295.58	12.50	-41.5	-44.1	18.0	0.00e+00	0	37	0	543162368	54	4871
2026-01-24 12:07:04.95	295.77	12.47	-41.5	-44.0	18.1	0.00e+00	0	37	0	544210944	54	4820
2026-01-24 12:07:05.94	295.95	12.44	-41.4	-43.9	18.2	0.00e+00	0	37	0	546308096	54	4796
2026-01-24 12:07:06.93	296.13	12.42	-41.5	-44.0	18.1	0.00e+00	0	37	0	548405248	54	4841
2026-01-24 12:07:07.93	296.32	12.39	-41.6	-44.1	18.0	0.00e+00	0	37	0	550502400	54	4909
2026-01-24 12:07:08.92	296.50	12.36	-41.6	-44.2	17.9	0.00e+00	0	37	0	551550976	54	4934
2026-01-24 12:07:09.92	296.69	12.33	-41.6	-44.1	18.0	0.00e+00	0	37	0	553648128	54	4916
2026-01-24 12:07:10.91	296.87	12.30	-41.7	-44.2	17.8	0.00e+00	0	37	0	555745280	54	4980
2026-01-24 12:07:11.91	297.05	12.27	-41.7	-44.3	17.8	0.00e+00	0	37	0	557842432	54	4987
2026-01-24 12:07:12.90	297.24	12.24	-41.7	-44.2	17.8	0.00e+00	0	37	0	559939584	54	4981
2026-01-24 12:07:13.90	297.42	12.21	-41.8	-44.4	17.7	0.00e+00	0	37	0	560988160	54	5053
2026-01-24 12:07:14.89	297.60	12.18	-41.9	-44.5	17.6	0.00e+00	0	37	0	563085312	54	5141
2026-01-24 12:07:15.89	297.78	12.15	-42.0	-44.6	17.5	0.00e+00	0	37	0	565182464	54	5211
2026-01-24 12:07:16.88	297.96	12.12	-42.0	-44.6	17.5	0.00e+00	0	37	0	567279616	54	5201
2026-01-24 12:07:17.88	298.14	12.09	-41.9	-44.6	17.4	0.00e+00	0	37	0	568328192	54	5180
2026-01-24 12:07:18.87	298.32	12.06	-41.9	-44.5	17.6	0.00e+00	0	37	0	570425344	54	5140
2026-01-24 12:07:19.87	298.50	12.03	-41.9	-44.5	17.6	0.00e+00	0	37	0	572522496	54	5126
2026-01-24 12:07:20.86	298.68	12.00	-41.9	-44.6	17.5	0.00e+00	0	37	0	574619648	54	5162
2026-01-24 12:07:21.86	298.86	11.97	-41.9	-44.5	17.6	0.00e+00	0	37	0	576716800	54	5122
2026-01-24 12:07:22.86	299.04	11.93	-41.9	-44.5	17.6	0.00e+00	0	37	0	577765376	54	5123
2026-01-24 12:07:23.85	299.22	11.90	-41.9	-44.6	17.5	0.00e+00	0	37	0	579862528	54	5174
2026-01-24 12:07:24.84	299.40	11.87	-41.9	-44.5	17.5	0.00e+00	0	37	0	581959680	54	5151
2026-01-24 12:07:25.84	299.58	11.84	-41.9	-44.5	17.5	0.00e+00	0	37	0	584056832	54	5131
2026-01-24 12:07:26.84	299.76	11.81	-41.9	-44.5	17.6	0.00e+00	0	37	0	585105408	54	5126
2026-01-24 12:07:27.83	299.93	11.77	-41.9	-44.5	17.6	0.00e+00	0	37	0	587202560	54	5127
2026-01-24 12:07:28.82	300.11	11.74	-41.9	-44.5	17.6	0.00e+00	0	37	0	589299712	54	5131
2026-01-24 12:07:29.82	300.29	11.71	-41.9	-44.5	17.5	0.00e+00	0	37	0	591396864	54	5145
2026-01-24 12:07:30.82	300.46	11.67	-41.9	-44.5	17.6	0.00e+00	0	37	0	593494016	54	5114
2026-01-24 12:07:31.81	300.64	11.64	-41.9	-44.5	17.5	0.00e+00	0	37	0	594542592	54	5140
2026-01-24 12:07:32.81	300.81	11.61	-42.0	-44.7	17.4	0.00e+00	0	37	0	596639744	54	5223
2026-01-24 12:07:33.80	300.99	11.57	-42.1	-44.7	17.3	0.00e+00	0	37	0	598736896	54	5273
2026-01-24 12:07:34.80	301.16	11.54	-42.0	-44.7	17.3	0.00e+00	0	37	0	600834048	54	5254
2026-01-24 12:07:35.79	301.34	11.50	-42.2	-44.9	17.1	0.00e+00	0	37	0	601882624	55	5065
2026-01-24 12:07:36.78	301.51	11.47	-42.3	-45.0	17.0	0.00e+00	0	37	0	603979776	55	5138
2026-01-24 12:07:37.78	301.68	11.44	-42.4	-45.2	16.8	0.00e+00	0	37	0	606076928	55	5241
2026-01-24 12:07:38.77	301.85	11.40	-42.5	-45.3	16.8	0.00e+00	0	37	0	608174080	55	5290
2026-01-24 12:07:39.77	302.03	11.37	-42.5	-45.3	16.7	0.00e+00	0	37	0	610271232	55	5315
2026-01-24 12:07:40.76	302.20	11.33	-42.6	-45.4	16.6	0.00e+00	0	37	0	611319808	55	5366
2026-01-24 12:07:41.76	302.37	11.30	-42.7	-45.5	16.5	0.00e+00	0	37	0	613416960	55	5457
2026-01-24 12:07:42.75	302.54	11.26	-42.9	-45.9	16.4	0.00e+00	0	37	0	615514112	56	5351
2026-01-24 12:07:43.74	302.71	11.22	-43.1	-46.1	16.2	0.00e+00	0	37	0	617611264	56	5468
2026-01-24 12:07:44.74	302.88	11.19	-43.1	-46.1	16.1	0.00e+00	0	37	0	618659840	56	5501
2026-01-24 12:07:45.73	303.05	11.15	-43.2	-46.3	15.9	0.00e+00	0	37	0	620756992	57	5284
2026-01-24 12:07:46.73	303.22	11.12	-43.2	-46.3	15.9	0.00e+00	0	37	0	622854144	57	5313
2026-01-24 12:07:47.72	303.39	11.08	-43.4	-46.6	15.7	0.00e+00	0	37	0	624951296	57	5489
2026-01-24 12:07:48.72	303.56	11.04	-43.5	-46.7	15.5	0.00e+00	0	37	0	627048448	57	5548
2026-01-24 12:07:49.71	303.73	11.01	-43.4	-46.6	15.6	0.00e+00	0	37	0	628097024	57	5519
2026-01-24 12:07:50.71	303.90	10.97	-43.5	-46.7	15.5	0.00e+00	0	37	0	630194176	57	5551
2026-01-24 12:07:51.70	304.06	10.93	-43.4	-46.6	15.6	0.00e+00	0	37	0	632291328	57	5475
2026-01-24 12:07:52.70	304.23	10.90	-43.4	-46.5	15.7	0.00e+00	0	37	0	634388480	57	5426
2026-01-24 12:07:53.69	304.40	10.86	-43.2	-46.3	15.9	0.00e+00	0	37	0	635437056	57	5302
2026-01-24 12:07:54.68	304.56	10.82	-43.2	-46.3	15.9	0.00e+00	0	37	0	637534208	57	5293
2026-01-24 12:07:55.68	304.73	10.78	-43.3	-46.4	15.8	0.00e+00	0	37	0	639631360	57	5392
2026-01-24 12:07:56.67	304.89	10.75	-43.3	-46.5	15.7	0.00e+00	0	37	0	641728512	57	5406
2026-01-24 12:07:57.67	305.06	10.71	-43.5	-46.7	15.6	0.00e+00	0	37	0	643825664	57	5531
2026-01-24 12:07:58.67	305.22	10.67	-43.5	-46.7	15.5	0.00e+00	0	37	0	644874240	57	5569
2026-01-24 12:07:59.66	305.39	10.63	-43.6	-46.9	15.3	0.00e+00	0	37	0	646971392	57	5674
2026-01-24 12:08:00.65	305.55	10.59	-43.8	-47.2	15.1	0.00e+00	0	37	0	649068544	58	5540
2026-01-24 12:08:01.65	305.71	10.56	-43.9	-47.3	14.9	0.00e+00	0	37	0	651165696	58	5609
2026-01-24 12:08:02.65	305.88	10.52	-44.0	-47.4	14.8	0.00e+00	0	37	0	652214272	58	5712
2026-01-24 12:08:03.64	306.04	10.48	-44.0	-47.5	14.7	0.00e+00	0	37	0	654311424	58	5745
2026-01-24 12:08:04.63	306.20	10.44	-44.1	-47.7	14.5	7.00e-07	0	37	0	656408576	58	5892
2026-01-24 12:08:05.63	306.36	10.40	-44.2	-47.8	14.4	7.00e-07	0	37	0	658505728	59	5628
2026-01-24 12:08:06.62	306.52	10.36	-44.4	-48.1	14.1	1.50e-06	0	37	0	660602880	59	5805
2026-01-24 12:08:07.62	306.69	10.32	-44.5	-48.3	13.9	2.20e-06	0	37	0	661651456	59	5936
2026-01-24 12:08:08.61	306.84	10.28	-44.7	-48.7	13.5	3.80e-06	0	37	0	663748608	60	5867
2026-01-24 12:08:09.61	307.01	10.24	-44.8	-48.9	13.3	1.67e-05	0	37	0	665845760	60	6029
2026-01-24 12:08:10.60	307.16	10.20	-44.8	-49.0	13.2	2.28e-05	0	37	0	667942912	60	6085
2026-01-24 12:08:11.59	307.32	10.16	-44.9	-49.1	13.2	2.13e-05	0	37	0	668991488	60	6136
2026-01-24 12:08:12.59	307.48	10.12	-44.8	-49.0	13.2	2.97e-05	0	37	0	671088640	60	6094
2026-01-24 12:08:13.58	307.64	10.08	-44.7	-48.8	13.4	1.44e-05	0	37	0	673185792	60	5924
2026-01-24 12:08:14.58	307.80	10.04	-44.6	-48.6	13.6	1.06e-05	0	37	0	675282944	60	5823
2026-01-24 12:08:15.57	307.95	10.00	-44.5	-48.4	13.7	9.90e-06	0	37	0	677380096	60	5720
2026-01-24 12:08:16.57	308.11	9.96	-44.4	-48.2	14.0	3.80e-06	0	37	0	678428672	60	5543
2026-01-24 12:08:17.56	308.27	9.92	-44.3	-48.0	14.2	0.00e+00	0	37	0	680525824	60	5449
2026-01-24 12:08:18.56	308.42	9.88	-44.3	-48.0	14.1	2.20e-06	0	37	0	682622976	60	5450
2026-01-24 12:08:19.55	308.58	9.84	-44.3	-48.1	14.1	1.50e-06	0	37	0	684720128	60	5471
2026-01-24 12:08:20.55	308.74	9.80	-44.1	-47.9	14.3	7.00e-07	0	37	0	685768704	60	5370
2026-01-24 12:08:21.54	308.89	9.76	-44.2	-48.1	14.1	3.80e-06	0	37	0	687865856	60	5473
2026-01-24 12:08:22.54	309.05	9.72	-44.2	-48.0	14.2	1.50e-06	0	37	0	689963008	60	5457
2026-01-24 12:08:23.53	309.20	9.67	-44.2	-48.0	14.2	7.00e-07	0	37	0	692060160	60	5441
2026-01-24 12:08:24.52	309.35	9.63	-44.1	-48.0	14.2	1.50e-06	0	37	0	694157312	60	5428
2026-01-24 12:08:25.52	309.51	9.59	-44.1	-48.1	14.1	3.00e-06	0	37	0	695205888	60	5490
2026-01-24 12:08:26.51	309.66	9.55	-44.2	-48.2	14.0	0.00e+00	0	37	0	697303040	60	5575
2026-01-24 12:08:27.51	309.81	9.51	-44.4	-48.5	13.7	5.30e-06	0	37	0	699400192	60	5736
2026-01-24 12:08:28.50	309.96	9.47	-44.5	-48.6	13.6	4.50e-06	0	37	0	701497344	60	5795
2026-01-24 12:08:29.50	310.11	9.43	-44.6	-48.7	13.4	7.60e-06	0	37	0	702545920	60	5900
2026-01-24 12:08:30.49	310.26	9.38	-44.6	-48.7	13.4	1.44e-05	0	37	0	704643072	60	5889
2026-01-24 12:08:31.49	310.42	9.34	-44.6	-48.7	13.5	1.06e-05	0	37	0	706740224	60	5868
2026-01-24 12:08:32.49	310.57	9.30	-44.6	-48.8	13.3	1.75e-05	0	37	0	708837376	60	5956
2026-01-24 12:08:33.48	310.72	9.26	-44.7	-48.8	13.3	1.60e-05	0	37	0	710934528	60	5938
2026-01-24 12:08:34.48	310.87	9.21	-44.6	-48.6	13.5	1.98e-05	0	37	0	711983104	60	5832
2026-01-24 12:08:35.47	311.01	9.17	-44.3	-48.2	13.9	2.20e-06	0	37	0	714080256	60	5559
2026-01-24 12:08:36.47	311.16	9.13	-44.2	-48.0	14.1	3.00e-06	0	37	0	716177408	60	5452
2026-01-24 12:08:37.47	311.31	9.09	-44.2	-48.0	14.2	7.00e-07	0	37	0	718274560	60	5439
2026-01-24 12:08:38.46	311.46	9.04	-44.2	-48.0	14.1	0.00e+00	0	37	0	719323136	60	5463
2026-01-24 12:08:39.46	311.61	9.00	-44.5	-48.5	13.8	3.00e-06	0	37	0	721420288	60	5725
2026-01-24 12:08:40.45	311.75	8.96	-47.8	-63.4	3.8	1.11e+00	0	37	104	722468864	66	22535
2026-01-24 12:08:41.44	311.90	8.91	-48.1	-63.5	3.8	1.49e+00	0	38	104	722468864	67	21729
2026-01-24 12:08:42.44	312.04	8.87	-48.2	-63.7	3.8	1.49e+00	0	37	104	722468864	67	22085
2026-01-24 12:08:43.43	312.19	8.83	-48.5	-63.8	3.8	1.49e+00	0	37	104	722468864	67	22362
2026-01-24 12:08:44.42	312.33	8.79	-48.5	-63.8	3.8	1.49e+00	0	37	104	722468864	67	22518
2026-01-24 12:08:45.42	312.48	8.74	-48.5	-63.9	3.8	1.49e+00	0	38	104	722468864	67	22575
2026-01-24 12:08:46.41	312.62	8.70	-48.9	-64.1	3.8	1.49e+00	0	38	104	722468864	68	21819
2026-01-24 12:08:47.40	312.77	8.65	-48.8	-64.1	3.8	1.49e+00	0	37	104	722468864	68	21915
2026-01-24 12:08:48.40	312.91	8.61	-49.0	-64.1	3.8	1.49e+00	0	37	104	722468864	68	21970
2026-01-24 12:08:49.39	313.05	8.57	-48.9	-64.1	3.8	1.49e+00	0	37	104	722468864	68	21895
2026-01-24 12:08:50.38	313.19	8.52	-49.0	-64.2	3.8	1.49e+00	0	38	104	722468864	68	22016
2026-01-24 12:08:51.38	313.34	8.48	-48.9	-64.2	3.8	1.49e+00	0	37	104	722468864	68	22038
2026-01-24 12:08:52.37	313.48	8.44	-48.7	-64.2	3.8	1.49e+00	0	37	104	722468864	68	22051
2026-01-24 12:08:53.36	313.62	8.39	-49.0	-64.2	3.8	1.49e+00	0	37	104	722468864	68	22062
2026-01-24 12:08:54.35	313.76	8.35	-48.9	-64.2	3.8	1.49e+00	0	37	104	722468864	68	22222
2026-01-24 12:08:55.35	313.90	8.30	-48.9	-64.2	3.8	1.49e+00	0	37	104	722468864	68	22052
2026-01-24 12:08:56.34	314.04	8.26	-48.8	-64.2	3.8	1.49e+00	0	37	104	722468864	68	22101
2026-01-24 12:08:57.33	314.18	8.22	-48.8	-64.2	3.8	1.49e+00	0	37	104	722468864	68	22029
2026-01-24 12:08:58.32	314.32	8.17	-48.7	-64.2	3.8	1.49e+00	0	37	104	722468864	68	22034
2026-01-24 12:08:59.32	314.46	8.13	-48.7	-64.1	3.8	1.49e+00	0	37	104	722468864	68	22002
2026-01-24 12:09:00.31	314.60	8.08	-48.7	-64.1	3.8	1.49e+00	0	37	104	722468864	68	21980
2026-01-24 12:09:01.30	314.73	8.04	-48.6	-64.1	3.8	1.49e+00	0	38	104	722468864	68	21781
2026-01-24 12:09:02.30	314.87	7.99	-48.6	-64.1	3.8	1.49e+00	0	37	104	722468864	68	21845
2026-01-24 12:09:03.29	315.01	7.95	-48.6	-64.1	3.8	1.49e+00	0	37	104	722468864	68	21831
2026-01-24 12:09:04.28	315.14	7.91	-48.6	-64.1	3.8	1.49e+00	0	37	104	722468864	68	21901
2026-01-24 12:09:05.28	315.28	7.86	-48.6	-64.1	3.8	1.49e+00	0	37	104	722468864	68	21834
2026-01-24 12:09:06.27	315.42	7.82	-48.6	-64.1	3.8	1.49e+00	0	37	104	722468864	68	21821
2026-01-24 12:09:07.26	315.55	7.77	-48.6	-64.1	3.8	1.49e+00	0	37	104	722468864	68	21878
2026-01-24 12:09:08.26	315.69	7.73	-48.6	-64.1	3.8	1.49e+00	0	37	104	722468864	68	21822
2026-01-24 12:09:09.25	315.82	7.68	-48.6	-64.1	3.8	1.49e+00	0	37	104	722468864	68	21858
2026-01-24 12:09:10.24	315.96	7.64	-48.6	-64.1	3.8	1.49e+00	0	37	104	722468864	68	21761
2026-01-24 12:09:11.23	316.09	7.59	-48.5	-64.1	3.8	1.49e+00	0	37	104	722468864	68	21759
2026-01-24 12:09:12.23	316.22	7.55	-48.6	-64.1	3.8	1.49e+00	0	37	104	722468864	68	21815
2026-01-24 12:09:13.22	316.36	7.50	-48.6	-64.1	3.8	1.49e+00	0	37	104	722468864	68	21809
2026-01-24 12:09:14.21	316.49	7.46	-48.6	-64.1	3.8	1.49e+00	0	37	104	722468864	68	21865
2026-01-24 12:09:15.21	316.62	7.41	-48.6	-64.1	3.8	1.49e+00	0	37	104	722468864	68	21813
2026-01-24 12:09:16.20	316.75	7.37	-48.6	-64.1	3.8	1.49e+00	0	37	104	722468864	68	21783
2026-01-24 12:09:17.19	316.88	7.32	-48.6	-64.1	3.8	1.49e+00	0	37	104	722468864	68	21771
2026-01-24 12:09:18.19	317.02	7.28	-48.6	-64.1	3.8	1.49e+00	0	37	104	722468864	68	21832
2026-01-24 12:09:19.18	317.15	7.23	-48.6	-64.1	3.8	1.49e+00	0	37	104	722468864	68	21818
2026-01-24 12:09:20.17	317.28	7.19	-48.6	-64.1	3.8	1.49e+00	0	37	104	722468864	68	21831
2026-01-24 12:09:21.17	317.41	7.14	-48.6	-64.0	3.8	1.49e+00	0	37	104	722468864	68	21687
2026-01-24 12:09:22.16	317.54	7.09	-48.6	-64.0	3.8	1.49e+00	0	38	104	722468864	68	21719
2026-01-24 12:09:23.15	317.66	7.05	-48.6	-64.1	3.8	1.49e+00	0	37	104	722468864	68	21802
2026-01-24 12:09:24.14	317.79	7.00	-48.6	-64.1	3.8	1.49e+00	0	37	104	722468864	68	21799
2026-01-24 12:09:25.14	317.92	6.96	-48.6	-64.1	3.8	1.49e+00	0	37	104	722468864	68	21770
2026-01-24 12:09:26.13	318.05	6.91	-48.6	-64.1	3.8	1.49e+00	0	37	104	722468864	68	21770
2026-01-24 12:09:27.12	318.18	6.87	-48.6	-64.1	3.8	1.49e+00	0	37	104	722468864	68	21776
2026-01-24 12:09:28.11	318.30	6.82	-48.6	-64.1	3.8	1.49e+00	0	37	104	722468864	68	21788
2026-01-24 12:09:29.11	318.43	6.77	-48.6	-64.0	3.8	1.49e+00	0	37	104	722468864	68	21700
2026-01-24 12:09:30.10	318.56	6.73	-48.6	-64.1	3.8	1.49e+00	0	37	104	722468864	68	21798
2026-01-24 12:09:31.09	318.68	6.68	-48.6	-64.0	3.8	1.49e+00	0	37	104	722468864	68	21638
2026-01-24 12:09:32.09	318.81	6.64	-48.6	-64.1	3.8	1.49e+00	0	37	104	722468864	68	21769
2026-01-24 12:09:33.08	318.93	6.59	-48.6	-64.0	3.8	1.49e+00	0	37	104	722468864	68	21718
2026-01-24 12:09:34.07	319.06	6.55	-48.6	-64.0	3.8	1.49e+00	0	37	104	722468864	68	21687
2026-01-24 12:09:35.07	319.18	6.50	-48.6	-64.1	3.8	1.49e+00	0	37	104	722468864	68	21769
2026-01-24 12:09:36.06	319.31	6.45	-48.6	-64.0	3.8	1.49e+00	0	37	104	722468864	68	21753
2026-01-24 12:09:37.05	319.43	6.41	-48.6	-64.0	3.8	1.49e+00	0	37	104	722468864	68	21752
2026-01-24 12:09:38.04	319.55	6.36	-48.6	-64.0	3.8	1.49e+00	0	37	104	722468864	68	21719
2026-01-24 12:09:39.04	319.68	6.32	-48.6	-64.1	3.8	1.49e+00	0	37	104	722468864	68	21799
2026-01-24 12:09:40.03	319.80	6.27	-48.6	-64.1	3.8	1.49e+00	0	37	104	722468864	68	21797
2026-01-24 12:09:41.02	319.92	6.22	-48.6	-64.1	3.8	1.49e+00	0	37	104	722468864	68	21784
2026-01-24 12:09:42.02	320.04	6.18	-48.6	-64.0	3.8	1.49e+00	0	37	104	722468864	68	21702
2026-01-24 12:09:43.01	320.17	6.13	-48.6	-64.0	3.8	1.49e+00	0	37	104	722468864	68	21726
2026-01-24 12:09:44.00	320.29	6.09	-48.6	-64.0	3.8	1.49e+00	0	37	104	722468864	68	21653
2026-01-24 12:09:45.00	320.41	6.04	-48.6	-64.0	3.8	1.49e+00	0	37	104	722468864	68	21735
2026-01-24 12:09:45.99	320.53	5.99	-48.6	-64.0	3.8	1.49e+00	0	37	104	722468864	68	21716
2026-01-24 12:09:46.98	320.65	5.95	-48.6	-64.0	3.8	1.49e+00	0	37	104	722468864	68	21730
2026-01-24 12:09:47.97	320.77	5.90	-48.6	-64.1	3.8	1.49e+00	0	37	104	722468864	68	21775
2026-01-24 12:09:48.97	320.89	5.85	-48.6	-64.1	3.8	1.49e+00	0	37	104	722468864	68	21833
2026-01-24 12:09:49.96	321.01	5.81	-48.6	-64.0	3.8	1.49e+00	0	37	104	722468864	68	21731
2026-01-24 12:09:50.95	321.12	5.76	-48.6	-64.0	3.8	1.49e+00	0	37	104	722468864	68	21752
2026-01-24 12:09:51.95	321.24	5.71	-48.6	-64.0	3.8	1.49e+00	0	37	104	722468864	68	21709
2026-01-24 12:09:52.94	321.36	5.67	-48.6	-64.1	3.8	1.49e+00	0	37	104	722468864	68	21793
2026-01-24 12:09:53.93	321.48	5.62	-48.6	-64.0	3.8	1.49e+00	0	38	104	722468864	68	21750
2026-01-24 12:09:54.93	321.60	5.58	-48.6	-64.1	3.8	1.49e+00	0	37	104	722468864	68	21776
2026-01-24 12:09:55.92	321.71	5.53	-48.6	-64.1	3.8	1.49e+00	0	37	104	722468864	68	21815
2026-01-24 12:09:56.91	321.83	5.48	-48.6	-64.0	3.8	1.49e+00	0	37	104	722468864	68	21729
2026-01-24 12:09:57.91	321.94	5.44	-48.6	-64.1	3.8	1.49e+00	0	37	104	722468864	68	21804
2026-01-24 12:09:58.90	322.06	5.39	-48.6	-64.1	3.8	1.49e+00	0	37	104	722468864	68	21836
2026-01-24 12:09:59.89	322.18	5.34	-48.6	-64.1	3.8	1.49e+00	0	37	104	722468864	68	21797
2026-01-24 12:10:00.88	322.29	5.30	-48.6	-64.1	3.8	1.49e+00	0	37	104	722468864	68	21766
2026-01-24 12:10:01.88	322.41	5.25	-48.6	-64.1	3.8	1.49e+00	0	37	104	722468864	68	21785
2026-01-24 12:10:02.87	322.52	5.20	-48.6	-64.0	3.8	1.49e+00	0	38	104	722468864	68	21710
2026-01-24 12:10:03.86	322.63	5.16	-48.6	-64.1	3.8	1.49e+00	0	37	104	722468864	68	21824
2026-01-24 12:10:04.86	322.75	5.11	-48.6	-64.1	3.8	1.49e+00	0	37	104	722468864	68	21814
2026-01-24 12:10:05.85	322.86	5.07	-48.6	-64.0	3.8	1.49e+00	0	37	104	722468864	68	21729
2026-01-24 12:10:06.84	322.97	5.02	-48.6	-64.1	3.8	1.49e+00	0	37	104	722468864	68	21794
2026-01-24 12:10:07.83	323.08	4.97	-48.6	-64.0	3.8	1.49e+00	0	38	104	722468864	68	21717

#Closed at: 2026-01-24 12:10:08
#Recorded file [722 MB]: D:/Data/31040_260124_150058.dat