passes_logs/2026/01/24/T1/T1__20260124_095712_SUOMI_NPP_rec.log

#Pass ID: 20260124_095712_SUOMI NPP
#Satellite: SUOMI NPP
#Configuration: NPP
#almurnet v.1.7.20251203
#Start time: 2026-01-24 09:57:13

#Version: 2.0.20230620
#Station: T1
#Location: 37.570604 lon 55.790049 lat
#TLE: 1 37849U 11061A   26023.63275593  .00000212  00000+0  12133-3 0  9990
#TLE: 2 37849  98.7820 325.6074 0002234  48.9695 311.1673 14.19528901737937

#Time	Az	El	Level	Level2	SNR	BER	BlckErr	Temp	State	Recorded	gain1	gain2
2026-01-24 09:57:13.54	158.63	5.06	-48.6	-63.7	3.8	1.49e+00	0	35	0	0	68	20986
2026-01-24 09:57:14.53	158.63	5.13	-48.5	-63.6	3.8	1.49e+00	0	36	104	0	69	19579
2026-01-24 09:57:15.53	158.63	5.20	-48.5	-63.6	3.8	1.49e+00	0	36	104	0	69	19589
2026-01-24 09:57:16.52	158.63	5.27	-48.5	-63.7	3.8	1.49e+00	0	36	104	0	69	19633
2026-01-24 09:57:17.52	158.63	5.35	-48.5	-63.7	3.8	1.49e+00	0	36	104	0	69	19681
2026-01-24 09:57:18.51	158.63	5.42	-48.5	-63.7	3.8	1.49e+00	0	36	104	0	69	19830
2026-01-24 09:57:19.50	158.63	5.49	-48.5	-63.8	3.8	1.49e+00	0	36	104	0	69	19908
2026-01-24 09:57:20.50	158.62	5.56	-48.5	-63.8	3.8	1.49e+00	0	36	104	0	69	19955
2026-01-24 09:57:21.49	158.62	5.64	-48.5	-63.8	3.8	1.49e+00	0	36	104	0	69	19903
2026-01-24 09:57:22.49	158.62	5.71	-48.5	-63.7	3.8	1.49e+00	0	36	104	0	69	19810
2026-01-24 09:57:23.49	158.62	5.78	-48.5	-63.6	3.8	1.49e+00	0	36	104	0	69	19600
2026-01-24 09:57:24.48	158.62	5.86	-48.5	-63.5	3.8	1.49e+00	0	36	104	0	69	19241
2026-01-24 09:57:25.48	158.62	5.93	-48.5	-63.3	3.8	1.49e+00	0	36	104	0	69	18795
2026-01-24 09:57:26.47	158.62	6.00	-48.5	-63.1	3.8	1.49e+00	0	36	104	0	69	18337
2026-01-24 09:57:27.47	158.62	6.08	-48.5	-62.9	3.8	1.49e+00	0	36	104	0	69	17947
2026-01-24 09:57:28.46	158.61	6.15	-48.5	-62.8	3.8	1.49e+00	0	36	104	0	68	18816
2026-01-24 09:57:29.45	158.61	6.23	-48.5	-62.7	3.8	1.49e+00	0	36	104	0	68	18526
2026-01-24 09:57:30.45	158.61	6.30	-48.5	-62.6	3.8	1.49e+00	0	36	104	0	68	18385
2026-01-24 09:57:31.44	158.61	6.38	-48.5	-62.7	3.8	1.49e+00	0	36	104	0	68	18642
2026-01-24 09:57:32.44	158.61	6.45	-48.5	-62.8	3.8	1.49e+00	0	36	104	0	68	18885
2026-01-24 09:57:33.43	158.61	6.53	-48.5	-62.9	3.8	1.49e+00	0	36	104	0	68	19138
2026-01-24 09:57:34.43	158.60	6.61	-48.5	-63.2	3.8	1.49e+00	0	36	104	0	68	19707
2026-01-24 09:57:35.42	158.60	6.68	-48.5	-63.3	3.8	1.49e+00	0	36	104	0	68	20057
2026-01-24 09:57:36.41	158.60	6.76	-48.5	-63.6	3.8	1.49e+00	0	36	104	0	68	20572
2026-01-24 09:57:37.41	158.60	6.83	-48.5	-63.7	3.8	1.49e+00	0	36	104	0	68	20800
2026-01-24 09:57:38.41	158.60	6.91	-48.5	-63.8	3.8	1.49e+00	0	36	104	0	68	21044
2026-01-24 09:57:39.40	158.60	6.99	-48.5	-63.8	3.8	1.49e+00	0	37	104	0	68	21028
2026-01-24 09:57:40.39	158.59	7.07	-48.5	-63.8	3.8	1.49e+00	0	37	104	0	68	21135
2026-01-24 09:57:41.39	158.59	7.14	-48.5	-63.8	3.8	1.49e+00	0	37	104	0	68	21065
2026-01-24 09:57:42.38	158.59	7.22	-48.5	-63.7	3.8	1.49e+00	0	37	104	0	68	20842
2026-01-24 09:57:43.38	158.59	7.30	-48.5	-63.5	3.8	1.49e+00	0	37	104	0	68	20408
2026-01-24 09:57:44.37	158.59	7.38	-48.5	-63.0	3.8	1.49e+00	0	37	104	0	68	19369
2026-01-24 09:57:45.37	158.59	7.46	-48.4	-62.3	3.8	1.49e+00	0	37	104	0	68	17804
2026-01-24 09:57:46.36	158.58	7.53	-48.4	-61.2	4.0	1.48e+00	0	37	104	0	68	15695
2026-01-24 09:57:47.35	158.58	7.61	-48.3	-60.0	4.3	1.41e+00	0	37	0	0	68	13642
2026-01-24 09:57:48.35	158.58	7.69	-48.2	-58.7	4.7	1.14e+00	0	37	0	1048576	68	11817
2026-01-24 09:57:49.34	158.58	7.77	-47.8	-57.2	5.5	7.10e-01	0	37	0	3145728	67	10481
2026-01-24 09:57:50.33	158.58	7.85	-47.6	-56.1	6.3	3.45e-01	0	37	0	4194304	67	9270
2026-01-24 09:57:51.33	158.57	7.93	-47.4	-55.2	7.0	1.91e-01	0	37	0	6291456	66	8856
2026-01-24 09:57:52.33	158.57	8.01	-47.2	-54.4	7.9	1.05e-01	0	37	0	8388608	66	8054
2026-01-24 09:57:53.32	158.57	8.09	-47.1	-53.8	8.4	5.15e-02	0	37	0	10485760	66	7514
2026-01-24 09:57:54.31	158.57	8.17	-46.9	-53.3	8.9	3.38e-02	0	37	0	12582912	65	7539
2026-01-24 09:57:55.31	158.57	8.25	-46.8	-53.0	9.3	2.18e-02	0	37	0	13631488	65	7251
2026-01-24 09:57:56.30	158.56	8.33	-46.8	-53.0	9.3	1.92e-02	0	37	0	15728640	65	7223
2026-01-24 09:57:57.30	158.56	8.42	-46.7	-52.9	9.4	1.63e-02	0	37	0	17825792	65	7160
2026-01-24 09:57:58.29	158.56	8.50	-46.9	-53.3	8.9	2.18e-02	0	37	0	19922944	65	7492
2026-01-24 09:57:59.29	158.56	8.58	-47.0	-53.6	8.7	2.94e-02	0	37	0	20971520	65	7731
2026-01-24 09:58:00.28	158.56	8.66	-47.1	-54.2	8.1	4.06e-02	0	37	0	23068672	65	8285
2026-01-24 09:58:01.27	158.55	8.74	-47.3	-54.9	7.4	9.89e-02	0	37	0	25165824	65	8985
2026-01-24 09:58:02.27	158.55	8.83	-47.6	-55.9	6.4	1.67e-01	0	37	0	27262976	65	10134
2026-01-24 09:58:03.26	158.55	8.91	-47.8	-57.0	5.7	2.85e-01	0	37	0	29360128	66	10834
2026-01-24 09:58:04.26	158.55	8.99	-47.9	-58.2	4.9	6.60e-01	0	37	0	30408704	66	12434
2026-01-24 09:58:05.25	158.54	9.08	-48.1	-59.2	4.5	9.86e-01	0	37	0	32505856	66	13975
2026-01-24 09:58:06.24	158.54	9.16	-48.2	-59.8	4.3	1.00e+00	0	37	0	34603008	66	14882
2026-01-24 09:58:07.24	158.54	9.25	-48.3	-62.2	3.8	1.48e+00	0	37	104	34603008	67	18617
2026-01-24 09:58:08.23	158.54	9.33	-47.3	-54.7	7.5	1.93e-01	0	37	0	34603008	66	8339
2026-01-24 09:58:09.23	158.54	9.42	-45.5	-49.9	12.8	8.69e-05	0	37	0	36700160	62	6018
2026-01-24 09:58:10.22	158.53	9.50	-48.3	-62.3	3.8	1.06e+00	0	37	104	37748736	67	18914
2026-01-24 09:58:11.21	158.53	9.59	-45.1	-49.1	13.4	3.99e-01	0	37	0	37748736	62	5486
2026-01-24 09:58:12.21	158.53	9.67	-44.9	-48.8	13.9	6.80e-06	0	37	0	39845888	61	5624
2026-01-24 09:58:13.20	158.53	9.76	-44.6	-48.3	14.3	3.00e-06	0	37	0	41943040	61	5318
2026-01-24 09:58:14.20	158.52	9.84	-44.9	-48.9	13.7	2.20e-06	0	37	0	44040192	61	5665
2026-01-24 09:58:15.19	158.52	9.93	-44.9	-48.8	13.7	2.20e-06	0	37	0	46137344	61	5617
2026-01-24 09:58:16.18	158.52	10.02	-44.7	-48.5	14.1	3.21e-02	0	37	0	47185920	61	5435
2026-01-24 09:58:17.17	158.51	10.10	-44.6	-48.3	14.2	5.30e-06	0	37	0	49283072	61	5334
2026-01-24 09:58:18.17	158.51	10.19	-44.5	-48.2	14.3	7.00e-07	0	37	0	51380224	61	5274
2026-01-24 09:58:19.16	158.51	10.28	-44.4	-48.0	14.6	2.83e-02	0	37	0	53477376	60	5410
2026-01-24 09:58:20.16	158.51	10.37	-44.2	-47.7	15.0	0.00e+00	0	37	0	54525952	60	5222
2026-01-24 09:58:21.15	158.50	10.46	-44.0	-47.2	15.4	7.00e-07	0	37	0	56623104	59	5251
2026-01-24 09:58:22.15	158.50	10.54	-44.0	-47.3	15.2	1.79e-03	0	37	0	58720256	59	5326
2026-01-24 09:58:23.14	158.50	10.63	-43.9	-47.1	15.5	0.00e+00	0	37	0	60817408	59	5165
2026-01-24 09:58:24.14	158.49	10.72	-43.5	-46.6	16.0	0.00e+00	0	37	0	62914560	59	4897
2026-01-24 09:58:25.13	158.49	10.81	-43.6	-46.6	15.9	2.43e-02	0	37	0	63963136	59	4907
2026-01-24 09:58:26.12	158.49	10.90	-43.5	-46.5	16.1	0.00e+00	0	37	0	66060288	58	5151
2026-01-24 09:58:27.12	158.49	10.99	-43.5	-46.5	16.1	0.00e+00	0	37	0	68157440	58	5120
2026-01-24 09:58:28.11	158.48	11.08	-43.4	-46.4	16.2	2.39e-02	0	37	0	70254592	58	5048
2026-01-24 09:58:29.10	158.48	11.17	-43.3	-46.3	16.3	0.00e+00	0	37	0	71303168	58	4984
2026-01-24 09:58:30.10	158.48	11.27	-43.4	-46.4	16.2	0.00e+00	0	37	0	73400320	58	5064
2026-01-24 09:58:31.09	158.47	11.36	-43.4	-46.4	16.2	0.00e+00	0	37	0	75497472	58	5050
2026-01-24 09:58:32.09	158.47	11.45	-43.4	-46.3	16.3	0.00e+00	0	37	0	77594624	58	5022
2026-01-24 09:58:33.08	158.47	11.54	-43.5	-46.5	16.1	0.00e+00	0	37	0	79691776	58	5145
2026-01-24 09:58:34.07	158.46	11.63	-43.4	-46.3	16.3	0.00e+00	0	37	0	80740352	58	5010
2026-01-24 09:58:35.07	158.46	11.73	-43.3	-46.2	16.4	0.00e+00	0	38	0	82837504	58	4965
2026-01-24 09:58:36.06	158.46	11.82	-43.1	-46.0	16.6	0.00e+00	0	37	0	84934656	58	4843
2026-01-24 09:58:37.05	158.45	11.91	-43.1	-46.0	16.6	0.00e+00	0	38	0	87031808	58	4846
2026-01-24 09:58:38.05	158.45	12.01	-43.2	-46.1	16.5	0.00e+00	0	37	0	88080384	58	4907
2026-01-24 09:58:39.04	158.45	12.10	-43.2	-46.1	16.5	0.00e+00	0	38	0	90177536	58	4882
2026-01-24 09:58:40.03	158.44	12.20	-43.1	-45.9	16.7	0.00e+00	0	37	0	92274688	58	4794
2026-01-24 09:58:41.03	158.44	12.29	-43.1	-46.0	16.6	0.00e+00	0	37	0	94371840	58	4829
2026-01-24 09:58:42.02	158.44	12.39	-43.1	-46.0	16.6	8.64e-04	0	38	0	96468992	58	4835
2026-01-24 09:58:43.01	158.43	12.48	-43.1	-45.9	16.7	0.00e+00	0	38	0	97517568	58	4782
2026-01-24 09:58:44.01	158.43	12.58	-43.0	-45.8	16.8	0.00e+00	0	38	0	99614720	57	5010
2026-01-24 09:58:45.00	158.43	12.68	-42.9	-45.7	16.9	9.44e-03	0	38	0	101711872	57	4937
2026-01-24 09:58:46.00	158.42	12.78	-42.8	-45.5	17.1	0.00e+00	0	38	0	103809024	57	4851
2026-01-24 09:58:46.99	158.42	12.87	-42.9	-45.7	16.9	0.00e+00	0	38	0	104857600	57	4927
2026-01-24 09:58:47.99	158.41	12.97	-42.7	-45.4	17.1	8.36e-03	0	38	0	106954752	57	4806
2026-01-24 09:58:48.98	158.41	13.07	-42.7	-45.4	17.2	0.00e+00	0	38	0	109051904	57	4766
2026-01-24 09:58:49.98	158.41	13.17	-42.6	-45.3	17.3	0.00e+00	0	38	0	111149056	57	4717
2026-01-24 09:58:50.97	158.40	13.27	-42.6	-45.3	17.3	8.12e-03	0	38	0	113246208	57	4711
2026-01-24 09:58:51.96	158.40	13.37	-42.5	-45.2	17.3	0.00e+00	0	38	0	114294784	57	4686
2026-01-24 09:58:52.96	158.39	13.47	-42.6	-45.3	17.2	0.00e+00	0	38	0	116391936	57	4723
2026-01-24 09:58:53.95	158.39	13.57	-42.4	-45.1	17.5	9.19e-03	0	38	0	118489088	56	4884
2026-01-24 09:58:54.94	158.39	13.67	-42.5	-45.1	17.4	0.00e+00	0	38	0	120586240	56	4911
2026-01-24 09:58:55.94	158.38	13.77	-42.4	-45.0	17.5	0.00e+00	0	38	0	121634816	56	4870
2026-01-24 09:58:56.93	158.38	13.87	-42.3	-44.9	17.6	0.00e+00	0	38	0	123731968	56	4803
2026-01-24 09:58:57.92	158.37	13.97	-42.4	-45.0	17.5	0.00e+00	0	38	0	125829120	56	4816
2026-01-24 09:58:58.92	158.37	14.08	-42.3	-44.9	17.6	0.00e+00	0	38	0	127926272	56	4772
2026-01-24 09:58:59.91	158.36	14.18	-42.2	-44.7	17.8	0.00e+00	0	38	0	130023424	56	4704
2026-01-24 09:59:00.91	158.36	14.28	-42.2	-44.7	17.8	0.00e+00	0	38	0	131072000	56	4665
2026-01-24 09:59:01.90	158.36	14.39	-42.1	-44.5	17.9	0.00e+00	0	38	0	133169152	56	4597
2026-01-24 09:59:02.90	158.35	14.49	-42.1	-44.6	17.9	0.00e+00	0	38	0	135266304	56	4605
2026-01-24 09:59:03.89	158.35	14.60	-42.2	-44.8	17.7	0.00e+00	0	38	0	137363456	56	4713
2026-01-24 09:59:04.88	158.34	14.70	-42.1	-44.6	15.2	0.00e+00	0	38	0	138412032	56	4647
2026-01-24 09:59:05.88	158.34	14.81	-42.0	-44.5	17.9	0.00e+00	0	38	0	140509184	56	4595
2026-01-24 09:59:06.87	158.33	14.91	-42.0	-44.5	17.8	0.00e+00	0	38	0	142606336	56	4591
2026-01-24 09:59:07.87	158.33	15.02	-41.7	-44.3	17.9	0.00e+00	0	38	0	144703488	55	4713
2026-01-24 09:59:08.86	158.32	15.13	-41.6	-44.1	17.9	0.00e+00	0	38	0	146800640	55	4646
2026-01-24 09:59:09.85	158.32	15.23	-41.5	-44.1	18.0	0.00e+00	0	38	0	147849216	54	4880
2026-01-24 09:59:10.85	158.31	15.34	-41.4	-44.0	18.0	0.00e+00	0	38	0	149946368	54	4822
2026-01-24 09:59:11.84	158.31	15.45	-41.4	-43.9	18.0	0.00e+00	0	38	0	152043520	54	4790
2026-01-24 09:59:12.84	158.30	15.56	-41.4	-43.9	18.0	0.00e+00	0	38	0	154140672	54	4794
2026-01-24 09:59:13.83	158.30	15.67	-41.3	-43.9	18.0	0.00e+00	0	38	0	155189248	54	4781
2026-01-24 09:59:14.83	158.29	15.78	-41.3	-43.9	18.0	0.00e+00	0	38	0	157286400	54	4806
2026-01-24 09:59:15.82	158.29	15.89	-41.3	-43.8	18.1	0.00e+00	0	38	0	159383552	54	4740
2026-01-24 09:59:16.81	158.28	16.00	-41.3	-43.8	18.1	0.00e+00	0	38	0	161480704	54	4748
2026-01-24 09:59:17.81	158.28	16.11	-41.3	-43.8	18.1	0.00e+00	0	38	0	163577856	54	4749
2026-01-24 09:59:18.80	158.27	16.22	-41.2	-43.7	18.2	0.00e+00	0	38	0	164626432	54	4672
2026-01-24 09:59:19.79	158.27	16.34	-41.1	-43.6	18.3	0.00e+00	0	38	0	166723584	54	4639
2026-01-24 09:59:20.79	158.26	16.45	-41.0	-43.5	18.4	0.00e+00	0	38	0	168820736	54	4575
2026-01-24 09:59:21.78	158.25	16.56	-41.0	-43.4	18.5	0.00e+00	0	38	0	170917888	54	4527
2026-01-24 09:59:22.78	158.25	16.68	-41.0	-43.5	18.4	0.00e+00	0	38	0	171966464	54	4560
2026-01-24 09:59:23.77	158.24	16.79	-40.9	-43.3	18.6	0.00e+00	0	38	0	174063616	53	4744
2026-01-24 09:59:24.76	158.24	16.91	-40.9	-43.3	18.6	0.00e+00	0	38	0	176160768	53	4729
2026-01-24 09:59:25.76	158.23	17.02	-40.9	-43.3	18.6	0.00e+00	0	38	0	178257920	53	4722
2026-01-24 09:59:26.75	158.23	17.14	-40.8	-43.1	18.8	0.00e+00	0	38	0	180355072	53	4629
2026-01-24 09:59:27.75	158.22	17.26	-40.8	-43.2	18.7	0.00e+00	0	38	0	181403648	53	4660
2026-01-24 09:59:28.74	158.21	17.37	-40.7	-43.0	18.8	0.00e+00	0	38	0	183500800	53	4585
2026-01-24 09:59:29.73	158.21	17.49	-40.6	-42.9	18.9	0.00e+00	0	38	0	185597952	53	4541
2026-01-24 09:59:30.72	158.20	17.61	-40.7	-43.1	18.8	0.00e+00	0	38	0	187695104	53	4615
2026-01-24 09:59:31.72	158.19	17.73	-40.7	-43.1	18.8	0.00e+00	0	38	0	188743680	53	4610
2026-01-24 09:59:32.71	158.19	17.85	-40.8	-43.2	18.8	0.00e+00	0	38	0	190840832	53	4653
2026-01-24 09:59:33.71	158.18	17.97	-40.8	-43.2	18.8	0.00e+00	0	38	0	192937984	53	4660
2026-01-24 09:59:34.70	158.18	18.09	-40.8	-43.2	18.7	0.00e+00	0	38	0	195035136	53	4666
2026-01-24 09:59:35.69	158.17	18.21	-40.8	-43.2	18.7	0.00e+00	0	38	0	197132288	53	4679
2026-01-24 09:59:36.69	158.16	18.33	-40.8	-43.2	18.7	0.00e+00	0	38	0	198180864	53	4691
2026-01-24 09:59:37.68	158.16	18.45	-41.0	-43.4	18.6	0.00e+00	0	38	0	200278016	53	4769
2026-01-24 09:59:38.68	158.15	18.58	-41.1	-43.5	18.4	0.00e+00	0	38	0	202375168	53	4839
2026-01-24 09:59:39.67	158.14	18.70	-41.0	-43.4	18.5	0.00e+00	0	38	0	204472320	53	4797
2026-01-24 09:59:40.66	158.13	18.83	-41.0	-43.4	18.5	0.00e+00	0	38	0	205520896	53	4786
2026-01-24 09:59:41.66	158.13	18.95	-40.9	-43.3	18.6	0.00e+00	0	38	0	207618048	53	4722
2026-01-24 09:59:42.66	158.12	19.08	-41.0	-43.5	18.5	0.00e+00	0	38	0	209715200	53	4838
2026-01-24 09:59:43.65	158.11	19.20	-40.9	-43.4	18.6	0.00e+00	0	38	0	211812352	53	4771
2026-01-24 09:59:44.64	158.11	19.33	-41.0	-43.4	18.5	0.00e+00	0	38	0	213909504	53	4814
2026-01-24 09:59:45.64	158.10	19.46	-40.8	-43.2	18.7	0.00e+00	0	38	0	214958080	53	4694
2026-01-24 09:59:46.63	158.09	19.59	-40.8	-43.2	18.8	0.00e+00	0	38	0	217055232	53	4668
2026-01-24 09:59:47.62	158.08	19.72	-40.7	-43.1	18.8	0.00e+00	0	38	0	219152384	53	4628
2026-01-24 09:59:48.62	158.08	19.85	-40.8	-43.2	18.8	0.00e+00	0	38	0	221249536	53	4670
2026-01-24 09:59:49.61	158.07	19.98	-40.7	-43.0	18.9	0.00e+00	0	38	0	222298112	53	4581
2026-01-24 09:59:50.60	158.06	20.11	-40.8	-43.2	18.7	0.00e+00	0	38	0	224395264	53	4678
2026-01-24 09:59:51.60	158.05	20.24	-41.0	-43.4	18.6	0.00e+00	0	38	0	226492416	53	4788
2026-01-24 09:59:52.59	158.04	20.37	-41.0	-43.5	18.5	0.00e+00	0	38	0	228589568	53	4843
2026-01-24 09:59:53.59	158.04	20.50	-41.1	-43.5	18.5	0.00e+00	0	38	0	229638144	53	4857
2026-01-24 09:59:54.58	158.03	20.64	-41.2	-43.8	18.2	0.00e+00	0	38	0	231735296	53	4984
2026-01-24 09:59:55.58	158.02	20.77	-41.2	-43.7	18.3	0.00e+00	0	38	0	233832448	53	4967
2026-01-24 09:59:56.57	158.01	20.91	-41.3	-43.8	18.2	0.00e+00	0	38	0	235929600	53	5004
2026-01-24 09:59:57.57	158.00	21.05	-41.4	-44.0	18.1	0.00e+00	0	38	0	238026752	53	5108
2026-01-24 09:59:58.56	157.99	21.18	-41.4	-44.0	18.0	0.00e+00	0	38	0	239075328	53	5133
2026-01-24 09:59:59.55	157.99	21.32	-41.4	-43.9	18.1	0.00e+00	0	38	0	241172480	53	5099
2026-01-24 10:00:00.55	157.98	21.46	-41.4	-44.0	18.0	0.00e+00	0	38	0	243269632	53	5156
2026-01-24 10:00:01.54	157.97	21.60	-41.4	-44.0	18.0	0.00e+00	0	38	0	245366784	53	5152
2026-01-24 10:00:02.54	157.96	21.74	-41.5	-44.1	18.0	0.00e+00	0	38	0	246415360	53	5184
2026-01-24 10:00:03.53	157.95	21.88	-41.3	-43.8	18.2	0.00e+00	0	38	0	248512512	53	5010
2026-01-24 10:00:04.53	157.94	22.02	-41.3	-43.8	18.2	0.00e+00	0	38	0	250609664	53	5015
2026-01-24 10:00:05.52	157.93	22.16	-41.3	-43.8	18.2	0.00e+00	0	38	0	252706816	53	5001
2026-01-24 10:00:06.52	157.92	22.30	-41.2	-43.7	18.4	0.00e+00	0	38	0	254803968	53	4932
2026-01-24 10:00:07.51	157.91	22.45	-41.1	-43.5	18.6	0.00e+00	0	38	0	255852544	53	4829
2026-01-24 10:00:08.50	157.90	22.59	-41.2	-43.6	18.4	0.00e+00	0	38	0	257949696	53	4926
2026-01-24 10:00:09.50	157.89	22.74	-41.1	-43.6	18.4	0.00e+00	0	38	0	260046848	53	4876
2026-01-24 10:00:10.49	157.88	22.88	-41.3	-43.8	18.3	0.00e+00	0	38	0	262144000	53	4987
2026-01-24 10:00:11.49	157.87	23.03	-41.2	-43.6	18.4	0.00e+00	0	38	0	263192576	53	4908
2026-01-24 10:00:12.48	157.86	23.18	-41.1	-43.4	18.5	0.00e+00	0	38	0	265289728	53	4814
2026-01-24 10:00:13.47	157.85	23.33	-41.2	-43.7	18.4	0.00e+00	0	38	0	267386880	53	4942
2026-01-24 10:00:14.47	157.84	23.48	-41.0	-43.4	18.6	0.00e+00	0	38	0	269484032	53	4794
2026-01-24 10:00:15.46	157.83	23.63	-40.8	-43.1	18.9	0.00e+00	0	38	0	271581184	53	4616
2026-01-24 10:00:16.45	157.82	23.78	-40.9	-43.2	18.8	0.00e+00	0	38	0	272629760	53	4686
2026-01-24 10:00:17.45	157.81	23.93	-41.0	-43.4	18.6	0.00e+00	0	38	0	274726912	53	4789
2026-01-24 10:00:18.44	157.80	24.08	-40.9	-43.2	18.8	0.00e+00	0	38	0	276824064	53	4693
2026-01-24 10:00:19.43	157.79	24.24	-40.7	-43.0	19.0	0.00e+00	0	38	0	278921216	53	4577
2026-01-24 10:00:20.43	157.78	24.39	-40.7	-42.9	19.1	0.00e+00	0	38	0	279969792	53	4543
2026-01-24 10:00:21.42	157.77	24.55	-41.1	-43.4	18.6	0.00e+00	0	38	0	282066944	53	4811
2026-01-24 10:00:22.41	157.75	24.71	-40.9	-43.3	18.8	0.00e+00	0	38	0	284164096	53	4708
2026-01-24 10:00:23.41	157.74	24.86	-40.8	-43.1	18.9	0.00e+00	0	38	0	286261248	53	4619
2026-01-24 10:00:24.40	157.73	25.02	-40.9	-43.3	18.8	0.00e+00	0	38	0	288358400	53	4718
2026-01-24 10:00:25.39	157.72	25.18	-41.0	-43.3	18.5	0.00e+00	0	38	0	289406976	53	4755
2026-01-24 10:00:26.39	157.71	25.34	-40.9	-43.3	18.7	0.00e+00	0	38	0	291504128	53	4718
2026-01-24 10:00:27.38	157.70	25.50	-41.0	-43.3	18.7	0.00e+00	0	38	0	293601280	53	4733
2026-01-24 10:00:28.38	157.68	25.67	-40.8	-43.1	18.9	0.00e+00	0	38	0	295698432	53	4639
2026-01-24 10:00:29.37	157.67	25.83	-40.9	-43.2	18.8	0.00e+00	0	38	0	296747008	52	4962
2026-01-24 10:00:30.37	157.66	26.00	-40.8	-43.1	19.0	0.00e+00	0	38	0	298844160	52	4893
2026-01-24 10:00:31.36	157.64	26.16	-40.5	-42.8	19.2	0.00e+00	0	38	0	300941312	52	4725
2026-01-24 10:00:32.36	157.63	26.33	-40.5	-42.8	19.2	0.00e+00	0	38	0	303038464	52	4713
2026-01-24 10:00:33.35	157.62	26.50	-40.5	-42.8	19.2	0.00e+00	0	38	0	305135616	52	4735
2026-01-24 10:00:34.34	157.60	26.66	-40.7	-43.0	19.1	0.00e+00	0	38	0	306184192	52	4833
2026-01-24 10:00:35.34	157.59	26.84	-40.9	-43.2	18.8	0.00e+00	0	38	0	308281344	52	4945
2026-01-24 10:00:36.33	157.58	27.01	-41.2	-43.6	18.4	0.00e+00	0	38	0	310378496	53	4925
2026-01-24 10:00:37.33	157.56	27.18	-41.4	-43.8	18.3	0.00e+00	0	38	0	312475648	53	5041
2026-01-24 10:00:38.32	157.55	27.35	-41.5	-44.1	18.0	0.00e+00	0	38	0	313524224	53	5160
2026-01-24 10:00:39.32	157.54	27.53	-41.8	-44.4	17.8	0.00e+00	0	38	0	315621376	54	5047
2026-01-24 10:00:40.31	157.52	27.70	-41.9	-44.5	17.7	0.00e+00	0	38	0	317718528	54	5111
2026-01-24 10:00:41.31	157.51	27.88	-41.8	-44.4	17.8	0.00e+00	0	38	0	319815680	54	5100
2026-01-24 10:00:42.30	157.49	28.06	-41.8	-44.4	17.8	0.00e+00	0	38	0	321912832	54	5068
2026-01-24 10:00:43.29	157.48	28.23	-41.8	-44.4	17.7	0.00e+00	0	38	0	322961408	54	5087
2026-01-24 10:00:44.29	157.46	28.41	-41.7	-44.2	17.9	0.00e+00	0	38	0	325058560	54	4973
2026-01-24 10:00:45.28	157.45	28.59	-41.4	-43.9	18.2	0.00e+00	0	38	0	327155712	54	4791
2026-01-24 10:00:46.28	157.43	28.78	-41.8	-44.5	17.7	0.00e+00	0	38	0	329252864	54	5127
2026-01-24 10:00:47.27	157.41	28.96	-41.9	-44.5	17.5	0.00e+00	0	38	0	331350016	54	5151
2026-01-24 10:00:48.26	157.40	29.14	-42.0	-44.8	17.4	0.00e+00	0	38	0	332398592	54	5280
2026-01-24 10:00:49.26	157.38	29.33	-42.3	-45.1	17.1	0.00e+00	0	38	0	334495744	55	5169
2026-01-24 10:00:50.26	157.37	29.52	-42.4	-45.2	17.0	0.00e+00	0	38	0	336592896	55	5249
2026-01-24 10:00:51.25	157.35	29.71	-42.4	-45.2	16.8	0.00e+00	0	38	0	338690048	55	5230
2026-01-24 10:00:52.25	157.33	29.90	-42.9	-45.9	16.5	0.00e+00	0	38	0	339738624	56	5349
2026-01-24 10:00:53.24	157.31	30.09	-42.4	-45.3	17.1	0.00e+00	0	38	0	341835776	56	4984
2026-01-24 10:00:54.23	157.30	30.28	-42.7	-45.6	16.8	0.00e+00	0	38	0	343932928	56	5185
2026-01-24 10:00:55.23	157.28	30.47	-42.8	-45.8	16.5	0.00e+00	0	38	0	346030080	56	5333
2026-01-24 10:00:56.22	157.26	30.67	-42.5	-45.4	17.0	0.00e+00	0	38	0	348127232	56	5085
2026-01-24 10:00:57.21	157.24	30.86	-42.5	-45.4	16.9	0.00e+00	0	38	0	349175808	56	5081
2026-01-24 10:00:58.21	157.22	31.06	-42.6	-45.5	16.8	0.00e+00	0	38	0	351272960	56	5120
2026-01-24 10:00:59.20	157.21	31.26	-42.7	-45.7	16.7	0.00e+00	0	38	0	353370112	56	5224
2026-01-24 10:01:00.20	157.19	31.46	-43.1	-46.2	16.2	0.00e+00	0	38	0	355467264	57	5258
2026-01-24 10:01:01.19	157.17	31.66	-43.2	-46.3	16.0	0.00e+00	0	38	0	356515840	57	5302
2026-01-24 10:01:02.19	157.15	31.86	-43.8	-47.3	15.1	0.00e+00	0	38	0	358612992	58	5624
2026-01-24 10:01:03.18	157.13	32.07	-44.3	-47.9	14.6	0.00e+00	0	38	0	360710144	59	5687
2026-01-24 10:01:04.18	157.11	32.27	-44.0	-47.4	15.0	7.00e-07	0	38	0	362807296	59	5402
2026-01-24 10:01:05.17	157.09	32.48	-44.5	-48.1	14.3	1.50e-06	0	38	0	364904448	59	5824
2026-01-24 10:01:06.16	157.07	32.69	-44.3	-47.7	14.5	7.00e-07	0	38	0	365953024	59	5576
2026-01-24 10:01:07.16	157.05	32.90	-44.4	-47.9	14.5	7.00e-07	0	38	0	368050176	59	5685
2026-01-24 10:01:08.15	157.02	33.11	-44.2	-47.7	14.8	0.00e+00	0	38	0	370147328	59	5569
2026-01-24 10:01:09.15	157.00	33.32	-44.1	-47.6	14.8	7.00e-07	0	38	0	372244480	60	5208
2026-01-24 10:01:10.14	156.98	33.54	-44.5	-48.3	14.0	0.00e+00	0	38	0	373293056	60	5629
2026-01-24 10:01:11.13	156.96	33.75	-44.3	-47.9	14.7	0.00e+00	0	38	0	375390208	60	5363
2026-01-24 10:01:12.13	156.94	33.97	-44.0	-47.4	15.1	0.00e+00	0	38	0	377487360	59	5362
2026-01-24 10:01:13.12	156.91	34.19	-44.0	-47.4	15.0	0.00e+00	0	38	0	379584512	59	5364
2026-01-24 10:01:14.12	156.89	34.41	-43.7	-46.9	15.5	0.00e+00	0	38	0	381681664	59	5061
2026-01-24 10:01:15.11	156.87	34.63	-43.2	-46.2	16.3	0.00e+00	0	38	0	382730240	58	4949
2026-01-24 10:01:16.10	156.84	34.85	-42.3	-45.0	17.4	0.00e+00	0	38	0	384827392	56	4820
2026-01-24 10:01:17.10	156.82	35.08	-41.8	-44.3	17.9	0.00e+00	0	38	0	386924544	55	4757
2026-01-24 10:01:18.10	156.79	35.31	-41.8	-44.3	17.9	0.00e+00	0	38	0	389021696	55	4709
2026-01-24 10:01:19.09	156.77	35.54	-41.7	-44.2	18.0	0.00e+00	0	38	0	390070272	54	4941
2026-01-24 10:01:20.08	156.74	35.77	-41.5	-43.9	18.3	0.00e+00	0	38	0	392167424	54	4799
2026-01-24 10:01:21.07	156.72	36.00	-41.7	-44.1	18.1	0.00e+00	0	38	0	394264576	54	4916
2026-01-24 10:01:22.07	156.69	36.23	-41.7	-44.1	18.1	0.00e+00	0	38	0	396361728	54	4926
2026-01-24 10:01:23.06	156.66	36.46	-41.1	-43.5	18.8	0.00e+00	0	38	0	398458880	54	4571
2026-01-24 10:01:24.06	156.63	36.70	-41.2	-43.5	18.7	0.00e+00	0	38	0	399507456	54	4584
2026-01-24 10:01:25.05	156.61	36.94	-40.9	-43.2	19.0	0.00e+00	0	38	0	401604608	53	4685
2026-01-24 10:01:26.04	156.58	37.18	-40.4	-42.5	19.6	0.00e+00	0	38	0	403701760	52	4598
2026-01-24 10:01:27.04	156.55	37.42	-40.1	-42.3	19.9	0.00e+00	0	38	0	405798912	52	4462
2026-01-24 10:01:28.04	156.52	37.67	-40.5	-42.7	19.5	0.00e+00	0	38	0	406847488	51	4959
2026-01-24 10:01:29.03	156.49	37.91	-40.1	-42.2	20.0	0.00e+00	0	38	0	408944640	51	4699
2026-01-24 10:01:30.03	156.46	38.16	-40.2	-42.3	20.0	0.00e+00	0	38	0	411041792	51	4752
2026-01-24 10:01:31.02	156.43	38.41	-40.3	-42.5	19.7	0.00e+00	0	38	0	413138944	52	4583
2026-01-24 10:01:32.02	156.40	38.66	-40.7	-43.0	19.3	0.00e+00	0	38	0	415236096	52	4829
2026-01-24 10:01:33.01	156.37	38.91	-40.9	-43.1	19.2	0.00e+00	0	38	0	416284672	52	4910
2026-01-24 10:01:34.01	156.34	39.17	-40.6	-42.8	19.5	0.00e+00	0	38	0	418381824	52	4719
2026-01-24 10:01:35.00	156.30	39.43	-40.8	-43.0	19.4	0.00e+00	0	38	0	420478976	52	4828
2026-01-24 10:01:36.00	156.27	39.69	-40.5	-42.7	19.6	0.00e+00	0	38	0	422576128	52	4661
2026-01-24 10:01:36.99	156.24	39.94	-40.4	-42.6	19.7	0.00e+00	0	38	0	423624704	52	4611
2026-01-24 10:01:37.99	156.20	40.21	-40.6	-42.8	19.5	0.00e+00	0	38	0	425721856	52	4732
2026-01-24 10:01:38.98	156.17	40.47	-40.7	-42.9	19.4	0.00e+00	0	38	0	427819008	52	4777
2026-01-24 10:01:39.97	156.13	40.74	-40.5	-42.6	19.6	0.00e+00	0	38	0	429916160	52	4642
2026-01-24 10:01:40.97	156.09	41.01	-40.4	-42.5	19.8	0.00e+00	0	38	0	432013312	52	4595
2026-01-24 10:01:41.96	156.06	41.28	-40.8	-43.0	19.4	0.00e+00	0	38	0	433061888	52	4854
2026-01-24 10:01:42.96	156.02	41.55	-41.2	-43.5	18.8	0.00e+00	0	38	0	435159040	53	4850
2026-01-24 10:01:43.95	155.98	41.82	-40.8	-43.0	19.3	0.00e+00	0	38	0	437256192	53	4575
2026-01-24 10:01:44.95	155.94	42.10	-41.6	-43.9	18.5	0.00e+00	0	38	0	439353344	53	5062
2026-01-24 10:01:45.94	155.90	42.38	-41.7	-44.1	18.4	0.00e+00	0	38	0	440401920	54	4898
2026-01-24 10:01:46.93	155.86	42.66	-41.5	-43.8	18.6	0.00e+00	0	38	0	442499072	54	4744
2026-01-24 10:01:47.93	155.82	42.94	-41.4	-43.7	18.7	0.00e+00	0	38	0	444596224	54	4660
2026-01-24 10:01:48.92	155.78	43.22	-41.7	-44.2	18.4	0.00e+00	0	38	0	446693376	54	4932
2026-01-24 10:01:49.91	155.73	43.51	-41.9	-44.3	18.2	0.00e+00	0	38	0	448790528	54	5028
2026-01-24 10:01:50.91	155.69	43.80	-42.1	-44.7	18.0	0.00e+00	0	38	0	449839104	54	5219
2026-01-24 10:01:51.90	155.65	44.09	-42.6	-45.3	17.3	0.00e+00	0	38	0	451936256	55	5300
2026-01-24 10:01:52.90	155.60	44.39	-43.0	-45.7	17.2	0.00e+00	0	38	0	454033408	56	5230
2026-01-24 10:01:53.89	155.55	44.68	-43.2	-45.9	17.0	0.00e+00	0	38	0	456130560	57	5091
2026-01-24 10:01:54.89	155.51	44.98	-42.9	-45.5	17.3	0.00e+00	0	38	0	457179136	57	4864
2026-01-24 10:01:55.88	155.46	45.28	-42.6	-45.1	17.6	0.00e+00	0	38	0	459276288	57	4636
2026-01-24 10:01:56.87	155.41	45.58	-42.6	-45.1	17.7	0.00e+00	0	38	0	461373440	56	4888
2026-01-24 10:01:57.87	155.36	45.88	-42.7	-45.3	17.6	0.00e+00	0	38	0	463470592	56	4987
2026-01-24 10:01:58.86	155.31	46.19	-43.4	-46.2	16.7	0.00e+00	0	38	0	465567744	57	5234
2026-01-24 10:01:59.85	155.25	46.50	-44.0	-47.0	15.9	0.00e+00	0	38	0	466616320	58	5441
2026-01-24 10:02:00.85	155.20	46.81	-44.5	-47.7	15.3	0.00e+00	0	38	0	468713472	59	5570
2026-01-24 10:02:01.84	155.14	47.12	-44.9	-48.5	14.6	0.00e+00	0	38	0	470810624	60	5728
2026-01-24 10:02:02.83	155.09	47.44	-44.5	-47.7	15.2	0.00e+00	0	38	0	472907776	60	5272
2026-01-24 10:02:03.83	155.03	47.76	-44.0	-47.1	15.9	0.00e+00	0	38	0	473956352	60	4883
2026-01-24 10:02:04.82	154.97	48.07	-43.6	-46.5	16.1	0.00e+00	0	38	0	476053504	59	4845
2026-01-24 10:02:05.82	154.91	48.40	-43.8	-46.7	16.2	0.00e+00	0	38	0	478150656	58	5271
2026-01-24 10:02:06.81	154.85	48.72	-43.7	-46.6	16.3	0.00e+00	0	38	0	480247808	58	5204
2026-01-24 10:02:07.80	154.79	49.05	-42.9	-45.5	17.3	0.00e+00	0	38	0	482344960	57	4855
2026-01-24 10:02:08.80	154.73	49.38	-42.8	-45.4	17.5	0.00e+00	0	38	0	483393536	57	4766
2026-01-24 10:02:09.79	154.66	49.71	-42.4	-45.0	17.9	0.00e+00	0	38	0	485490688	56	4822
2026-01-24 10:02:10.79	154.59	50.05	-42.1	-44.5	18.3	0.00e+00	0	38	0	487587840	56	4572
2026-01-24 10:02:11.78	154.53	50.38	-41.6	-43.9	18.7	0.00e+00	0	38	0	489684992	55	4515
2026-01-24 10:02:12.78	154.46	50.73	-41.3	-43.5	19.2	0.00e+00	0	38	0	490733568	54	4587
2026-01-24 10:02:13.77	154.38	51.07	-41.0	-43.2	19.4	0.00e+00	0	38	0	492830720	54	4422
2026-01-24 10:02:14.77	154.31	51.41	-41.2	-43.4	19.2	0.00e+00	0	38	0	494927872	54	4532
2026-01-24 10:02:15.76	154.24	51.76	-41.6	-44.0	18.7	0.00e+00	0	38	0	497025024	54	4847
2026-01-24 10:02:16.76	154.16	52.11	-41.6	-44.0	18.7	0.00e+00	0	38	0	499122176	54	4863
2026-01-24 10:02:17.75	154.08	52.46	-41.6	-44.0	18.8	0.00e+00	0	38	0	500170752	54	4839
2026-01-24 10:02:18.75	154.00	52.82	-41.8	-44.1	18.6	0.00e+00	0	38	0	502267904	54	4926
2026-01-24 10:02:19.74	153.92	53.17	-42.7	-45.3	17.6	0.00e+00	0	38	0	504365056	55	5295
2026-01-24 10:02:20.73	153.83	53.53	-43.1	-45.8	17.3	0.00e+00	0	38	0	506462208	57	5025
2026-01-24 10:02:21.72	153.74	53.89	-42.5	-45.0	18.0	0.00e+00	0	38	0	507510784	56	4817
2026-01-24 10:02:22.72	153.65	54.26	-41.6	-43.9	18.9	0.00e+00	0	38	0	509607936	55	4529
2026-01-24 10:02:23.71	153.56	54.62	-40.9	-43.0	19.6	0.00e+00	0	38	0	511705088	53	4588
2026-01-24 10:02:24.71	153.47	54.99	-41.1	-43.2	19.7	0.00e+00	0	38	0	513802240	53	4683
2026-01-24 10:02:25.70	153.37	55.36	-41.4	-43.6	19.3	0.00e+00	0	38	0	515899392	53	4885
2026-01-24 10:02:26.70	153.27	55.74	-42.1	-44.5	18.5	0.00e+00	0	38	0	516947968	55	4852
2026-01-24 10:02:27.69	153.17	56.11	-42.2	-44.7	18.4	0.00e+00	0	38	0	519045120	55	4932
2026-01-24 10:02:28.69	153.06	56.50	-42.0	-44.3	18.8	0.00e+00	0	38	0	521142272	55	4717
2026-01-24 10:02:29.68	152.95	56.88	-42.0	-44.3	18.9	0.00e+00	0	38	0	523239424	54	4988
2026-01-24 10:02:30.67	152.84	57.26	-42.5	-44.9	18.2	0.00e+00	0	38	0	524288000	55	5094
2026-01-24 10:02:31.67	152.73	57.65	-43.5	-46.1	17.3	0.00e+00	0	38	0	526385152	57	5210
2026-01-24 10:02:32.66	152.61	58.03	-44.4	-47.5	16.0	0.00e+00	0	38	0	528482304	59	5403
2026-01-24 10:02:33.66	152.49	58.43	-44.3	-47.3	16.3	0.00e+00	0	38	0	530579456	60	4994
2026-01-24 10:02:34.65	152.36	58.82	-43.7	-46.4	17.0	0.00e+00	0	38	0	532676608	59	4780
2026-01-24 10:02:35.65	152.23	59.22	-43.9	-46.7	16.8	0.00e+00	0	38	0	533725184	59	4969
2026-01-24 10:02:36.64	152.10	59.62	-44.0	-46.8	16.6	0.00e+00	0	38	0	535822336	59	5034
2026-01-24 10:02:37.63	151.96	60.02	-44.0	-46.8	16.5	0.00e+00	0	38	0	537919488	59	5028
2026-01-24 10:02:38.63	151.82	60.42	-44.0	-47.0	16.5	0.00e+00	0	38	0	540016640	59	5102
2026-01-24 10:02:39.62	151.67	60.83	-44.1	-47.1	16.4	0.00e+00	0	38	0	541065216	59	5160
2026-01-24 10:02:40.61	151.52	61.23	-44.4	-47.4	16.2	0.00e+00	0	38	0	543162368	59	5368
2026-01-24 10:02:41.61	151.36	61.65	-44.3	-47.3	16.2	0.00e+00	0	38	0	545259520	59	5320
2026-01-24 10:02:42.60	151.20	62.06	-43.8	-46.6	16.8	0.00e+00	0	38	0	547356672	59	4918
2026-01-24 10:02:43.59	151.03	62.47	-42.8	-45.3	18.2	0.00e+00	0	38	0	549453824	57	4755
2026-01-24 10:02:44.59	150.86	62.89	-41.7	-44.0	19.2	0.00e+00	0	38	0	550502400	55	4547
2026-01-24 10:02:45.58	150.68	63.31	-41.4	-43.6	19.6	0.00e+00	0	38	0	552599552	54	4634
2026-01-24 10:02:46.58	150.49	63.74	-41.2	-43.5	19.8	0.00e+00	0	38	0	554696704	53	4815
2026-01-24 10:02:47.57	150.29	64.16	-40.7	-42.7	20.4	0.00e+00	0	38	0	556793856	53	4441
2026-01-24 10:02:48.57	150.09	64.59	-40.5	-42.5	20.7	0.00e+00	0	38	0	557842432	52	4575
2026-01-24 10:02:49.56	149.88	65.02	-40.6	-42.7	20.5	0.00e+00	0	38	0	559939584	52	4669
2026-01-24 10:02:50.56	149.66	65.45	-41.2	-43.3	19.9	0.00e+00	0	38	0	562036736	53	4756
2026-01-24 10:02:51.55	149.44	65.88	-42.1	-44.4	19.0	0.00e+00	0	38	0	564133888	55	4799
2026-01-24 10:02:52.55	149.20	66.32	-43.0	-45.6	18.1	0.00e+00	0	38	0	566231040	56	5190
2026-01-24 10:02:53.54	148.95	66.75	-44.0	-46.9	16.8	0.00e+00	0	38	0	567279616	58	5380
2026-01-24 10:02:54.53	148.70	67.19	-44.4	-47.4	16.4	0.00e+00	0	38	0	569376768	59	5347
2026-01-24 10:02:55.52	148.43	67.63	-44.4	-47.2	16.8	0.00e+00	0	38	0	571473920	60	4969
2026-01-24 10:02:56.52	148.15	68.07	-44.7	-47.7	16.1	0.00e+00	0	38	0	573571072	60	5253
2026-01-24 10:02:57.52	147.86	68.52	-45.9	-49.6	14.2	0.00e+00	0	38	0	574619648	62	5806
2026-01-24 10:02:58.51	147.55	68.96	-45.9	-49.5	14.3	7.60e-06	0	38	0	576716800	63	5447
2026-01-24 10:02:59.51	147.23	69.42	-44.7	-47.7	16.2	0.00e+00	0	38	0	578813952	61	4952
2026-01-24 10:03:00.50	146.90	69.86	-44.4	-47.3	16.5	0.00e+00	0	38	0	580911104	60	4999
2026-01-24 10:03:01.49	146.54	70.31	-44.4	-47.2	16.5	0.00e+00	0	38	0	583008256	59	5238
2026-01-24 10:03:02.49	146.17	70.76	-44.6	-47.5	16.3	0.00e+00	0	38	0	584056832	60	5156
2026-01-24 10:03:03.48	145.78	71.22	-44.0	-46.8	17.0	0.00e+00	0	38	0	586153984	59	5000
2026-01-24 10:03:04.48	145.37	71.67	-42.1	-44.3	19.2	0.00e+00	0	38	0	588251136	56	4493
2026-01-24 10:03:05.47	144.94	72.13	-40.8	-42.8	20.2	0.00e+00	0	38	0	590348288	53	4493
2026-01-24 10:03:06.47	144.48	72.58	-40.9	-43.0	20.2	0.00e+00	0	38	0	591396864	52	4844
2026-01-24 10:03:07.46	144.00	73.04	-41.3	-43.4	19.9	0.00e+00	0	38	0	593494016	53	4812
2026-01-24 10:03:08.46	143.49	73.50	-41.9	-44.3	19.0	0.00e+00	0	38	0	595591168	54	5005
2026-01-24 10:03:09.45	142.95	73.95	-41.8	-44.1	19.2	0.00e+00	0	38	0	597688320	55	4639
2026-01-24 10:03:10.44	142.38	74.41	-42.5	-45.0	18.4	0.00e+00	0	38	0	599785472	55	5137
2026-01-24 10:03:11.44	141.76	74.87	-44.0	-46.8	17.0	0.00e+00	0	38	0	600834048	58	5336
2026-01-24 10:03:12.44	141.11	75.33	-45.0	-48.3	15.6	0.00e+00	0	38	0	602931200	60	5610
2026-01-24 10:03:13.43	140.42	75.79	-44.5	-47.5	16.2	0.00e+00	0	38	0	605028352	61	4846
2026-01-24 10:03:14.43	139.67	76.24	-44.0	-46.7	17.0	0.00e+00	0	38	0	607125504	59	4974
2026-01-24 10:03:15.42	138.88	76.70	-45.7	-49.3	14.6	0.00e+00	0	38	0	608174080	61	5988
2026-01-24 10:03:16.41	138.02	77.15	-46.2	-50.0	13.5	1.06e-05	0	38	0	610271232	63	5769
2026-01-24 10:03:17.41	137.10	77.61	-44.4	-47.3	16.4	7.00e-07	0	38	0	612368384	60	4998
2026-01-24 10:03:18.40	136.11	78.05	-45.5	-49.0	14.7	0.00e+00	0	38	0	614465536	61	5733
2026-01-24 10:03:19.39	135.05	78.50	-45.8	-49.6	13.7	2.20e-06	0	38	0	616562688	62	5848
2026-01-24 10:03:20.39	133.88	78.95	-45.3	-48.6	15.1	3.00e-06	0	38	0	617611264	61	5510
2026-01-24 10:03:21.38	132.63	79.39	-45.5	-49.1	14.7	0.00e+00	0	38	0	619708416	61	5800
2026-01-24 10:03:22.38	131.25	79.83	-46.0	-49.9	13.6	7.60e-06	0	38	0	621805568	63	5671
2026-01-24 10:03:23.37	129.77	80.26	-44.4	-47.4	16.2	0.00e+00	0	38	0	623902720	60	5052
2026-01-24 10:03:24.36	128.14	80.68	-44.7	-47.9	15.5	0.00e+00	0	38	0	624951296	60	5395
2026-01-24 10:03:25.36	126.34	81.10	-44.3	-47.5	15.9	0.00e+00	0	38	0	627048448	60	5123
2026-01-24 10:03:26.35	124.38	81.51	-42.1	-44.4	18.8	0.00e+00	0	38	0	629145600	56	4523
2026-01-24 10:03:27.34	122.23	81.90	-41.0	-43.2	19.6	0.00e+00	0	38	0	631242752	54	4420
2026-01-24 10:03:28.34	119.82	82.29	-41.8	-44.3	18.7	0.00e+00	0	38	0	632291328	54	4993
2026-01-24 10:03:29.33	117.19	82.66	-40.7	-42.9	19.9	0.00e+00	0	38	0	634388480	53	4497
2026-01-24 10:03:30.32	114.29	83.02	-40.6	-42.7	20.0	0.00e+00	0	38	0	636485632	52	4681
2026-01-24 10:03:31.32	111.04	83.36	-41.6	-43.9	19.0	0.00e+00	0	38	0	638582784	53	5082
2026-01-24 10:03:32.31	107.50	83.67	-41.6	-43.9	18.9	0.00e+00	0	38	0	640679936	54	4787
2026-01-24 10:03:33.30	103.60	83.96	-41.5	-43.8	19.1	0.00e+00	0	38	0	641728512	54	4758
2026-01-24 10:03:34.30	99.28	84.21	-41.3	-43.6	19.2	0.00e+00	0	38	0	643825664	54	4622
2026-01-24 10:03:35.29	94.64	84.44	-41.3	-43.6	19.2	0.00e+00	0	38	0	645922816	54	4631
2026-01-24 10:03:36.28	89.65	84.62	-41.8	-44.3	18.6	0.00e+00	0	38	0	648019968	54	4987
2026-01-24 10:03:37.28	84.30	84.76	-42.1	-44.5	18.3	0.00e+00	0	38	0	649068544	55	4839
2026-01-24 10:03:38.27	78.76	84.85	-40.6	-42.7	19.8	0.00e+00	0	38	0	651165696	53	4414
2026-01-24 10:03:39.26	73.08	84.89	-41.1	-43.4	19.4	0.00e+00	0	38	0	653262848	53	4765
2026-01-24 10:03:40.26	67.30	84.88	-41.8	-44.2	18.7	0.00e+00	0	38	0	655360000	55	4663
2026-01-24 10:03:41.25	61.66	84.82	-40.2	-42.3	20.3	0.00e+00	0	38	0	657457152	52	4463
2026-01-24 10:03:42.24	56.20	84.71	-40.5	-42.6	20.0	0.00e+00	0	38	0	658505728	52	4609
2026-01-24 10:03:43.24	50.96	84.56	-43.1	-45.9	17.3	0.00e+00	0	38	0	660602880	56	5356
2026-01-24 10:03:44.23	46.09	84.36	-42.6	-45.2	17.9	0.00e+00	0	38	0	662700032	57	4676
2026-01-24 10:03:45.22	41.58	84.13	-42.7	-45.2	17.8	0.00e+00	0	38	0	664797184	57	4695
2026-01-24 10:03:46.22	37.41	83.86	-43.1	-45.7	17.1	0.00e+00	0	38	0	665845760	57	4967
2026-01-24 10:03:47.21	33.64	83.56	-40.9	-43.0	19.6	0.00e+00	0	38	0	667942912	53	4589
2026-01-24 10:03:48.21	30.19	83.24	-41.1	-43.3	19.4	0.00e+00	0	38	0	670040064	53	4733
2026-01-24 10:03:49.20	27.09	82.89	-41.3	-43.6	19.1	0.00e+00	0	38	0	672137216	53	4891
2026-01-24 10:03:50.19	24.29	82.53	-41.5	-43.8	19.0	0.00e+00	0	38	0	674234368	53	5025
2026-01-24 10:03:51.19	21.73	82.15	-42.9	-45.5	17.5	0.00e+00	0	38	0	675282944	56	5124
2026-01-24 10:03:52.18	19.44	81.76	-43.4	-46.2	16.8	0.00e+00	0	38	0	677380096	57	5266
2026-01-24 10:03:53.18	17.34	81.36	-43.6	-46.3	16.7	0.00e+00	0	38	0	679477248	57	5335
2026-01-24 10:03:54.17	15.45	80.95	-44.8	-48.3	14.9	0.00e+00	0	38	0	681574400	60	5597
2026-01-24 10:03:55.17	13.71	80.53	-43.9	-46.8	16.2	0.00e+00	0	38	0	682622976	59	5014
2026-01-24 10:03:56.16	12.14	80.10	-43.6	-46.3	16.7	0.00e+00	0	38	0	684720128	58	5013
2026-01-24 10:03:57.16	10.68	79.66	-44.7	-48.1	15.2	0.00e+00	0	38	0	686817280	60	5481
2026-01-24 10:03:58.15	9.36	79.23	-44.5	-47.6	15.5	0.00e+00	0	38	0	688914432	60	5213
2026-01-24 10:03:59.14	8.15	78.79	-45.9	-50.2	13.1	0.00e+00	0	38	0	691011584	62	6258
2026-01-24 10:04:00.14	7.02	78.34	-45.4	-49.6	13.7	8.92e-05	0	38	0	692060160	62	5793
2026-01-24 10:04:01.13	5.99	77.89	-42.8	-45.4	17.5	0.00e+00	0	38	0	694157312	57	4791
2026-01-24 10:04:02.13	5.02	77.44	-41.5	-43.7	19.0	0.00e+00	0	38	0	696254464	55	4415
2026-01-24 10:04:03.12	4.13	76.99	-42.0	-44.4	18.4	0.00e+00	0	38	0	698351616	54	5065
2026-01-24 10:04:04.11	3.30	76.54	-42.4	-44.9	18.0	0.00e+00	0	38	0	699400192	55	5053
2026-01-24 10:04:05.11	2.52	76.08	-42.7	-45.2	17.8	0.00e+00	0	38	0	701497344	56	4955
2026-01-24 10:04:06.10	1.80	75.63	-43.3	-46.1	17.0	0.00e+00	0	38	0	703594496	57	5165
2026-01-24 10:04:07.10	1.12	75.17	-41.5	-43.8	19.0	0.00e+00	0	38	0	705691648	55	4459
2026-01-24 10:04:08.09	0.48	74.71	-42.1	-44.4	18.5	0.00e+00	0	38	0	707788800	54	5087
2026-01-24 10:04:09.09	359.88	74.25	-42.7	-45.3	17.7	0.00e+00	0	38	0	708837376	55	5323
2026-01-24 10:04:10.09	359.32	73.79	-42.4	-44.9	18.0	0.00e+00	0	38	0	710934528	56	4778
2026-01-24 10:04:11.08	358.79	73.34	-40.9	-43.1	19.6	0.00e+00	0	38	0	713031680	53	4637
2026-01-24 10:04:12.08	358.29	72.88	-40.8	-42.9	19.8	0.00e+00	0	38	0	715128832	53	4530
2026-01-24 10:04:13.07	357.82	72.43	-41.1	-43.3	19.5	0.00e+00	0	38	0	717225984	53	4724
2026-01-24 10:04:14.07	357.37	71.97	-42.2	-44.7	18.1	0.00e+00	0	38	0	718274560	55	4954
2026-01-24 10:04:15.06	356.95	71.52	-43.1	-45.8	17.2	0.00e+00	0	38	0	720371712	57	5022
2026-01-24 10:04:16.06	356.54	71.06	-44.0	-47.0	16.1	0.00e+00	0	38	0	722468864	58	5440
2026-01-24 10:04:17.05	356.16	70.61	-44.7	-48.0	15.2	0.00e+00	0	38	0	724566016	60	5463
2026-01-24 10:04:18.04	355.80	70.16	-44.1	-47.1	16.1	0.00e+00	0	38	0	725614592	59	5189
2026-01-24 10:04:19.04	355.45	69.71	-43.1	-45.7	17.4	0.00e+00	0	38	0	727711744	58	4658
2026-01-24 10:04:20.03	355.13	69.27	-42.8	-45.3	17.7	0.00e+00	0	38	0	729808896	57	4757
2026-01-24 10:04:21.02	354.81	68.82	-42.6	-45.1	18.0	0.00e+00	0	38	0	731906048	56	4893
2026-01-24 10:04:22.02	354.51	68.38	-43.0	-45.6	17.4	0.00e+00	0	38	0	734003200	56	5208
2026-01-24 10:04:23.01	354.22	67.94	-44.8	-48.1	15.2	0.00e+00	0	38	0	735051776	60	5526
2026-01-24 10:04:24.01	353.95	67.49	-43.9	-46.8	16.3	0.00e+00	0	38	0	737148928	59	4998
2026-01-24 10:04:25.00	353.69	67.06	-43.3	-45.9	17.2	0.00e+00	0	38	0	739246080	58	4811
2026-01-24 10:04:26.00	353.43	66.62	-43.6	-46.4	16.7	0.00e+00	0	38	0	741343232	58	5063
2026-01-24 10:04:26.99	353.19	66.18	-43.9	-47.0	16.1	0.00e+00	0	38	0	742391808	59	5105
2026-01-24 10:04:27.99	352.96	65.75	-43.2	-46.0	17.1	0.00e+00	0	38	0	744488960	58	4836
2026-01-24 10:04:28.98	352.74	65.32	-43.0	-45.7	17.4	0.00e+00	0	38	0	746586112	57	4931
2026-01-24 10:04:29.98	352.52	64.89	-43.8	-46.7	16.4	0.00e+00	0	38	0	748683264	58	5230
2026-01-24 10:04:30.97	352.31	64.46	-43.5	-46.4	16.8	0.00e+00	0	38	0	750780416	58	5072
2026-01-24 10:04:31.97	352.11	64.03	-43.7	-46.7	16.6	0.00e+00	0	38	0	751828992	58	5258
2026-01-24 10:04:32.96	351.92	63.61	-43.8	-46.8	16.4	0.00e+00	0	38	0	753926144	58	5313
2026-01-24 10:04:33.96	351.74	63.19	-43.4	-46.3	16.9	0.00e+00	0	38	0	756023296	58	4999
2026-01-24 10:04:34.95	351.56	62.77	-42.3	-44.9	18.1	0.00e+00	0	38	0	758120448	56	4796
2026-01-24 10:04:35.95	351.39	62.36	-41.6	-44.0	18.8	0.00e+00	0	38	0	759169024	55	4581
2026-01-24 10:04:36.94	351.22	61.94	-40.7	-42.9	19.8	0.00e+00	0	38	0	761266176	53	4537
2026-01-24 10:04:37.94	351.06	61.53	-39.6	-41.6	21.0	0.00e+00	0	38	0	763363328	51	4379
2026-01-24 10:04:38.93	350.91	61.12	-40.0	-42.0	20.5	0.00e+00	0	38	0	765460480	51	4588
2026-01-24 10:04:39.92	350.76	60.72	-40.7	-42.8	19.9	0.00e+00	0	38	0	767557632	52	4755
2026-01-24 10:04:40.91	350.61	60.32	-40.9	-43.1	19.6	0.00e+00	0	38	0	768606208	52	4914
2026-01-24 10:04:41.91	350.47	59.91	-40.8	-42.9	19.8	0.00e+00	0	38	0	770703360	52	4809
2026-01-24 10:04:42.90	350.34	59.51	-40.1	-42.1	20.5	0.00e+00	0	38	0	772800512	52	4385
2026-01-24 10:04:43.90	350.20	59.12	-40.0	-42.0	20.7	0.00e+00	0	38	0	774897664	51	4563
2026-01-24 10:04:44.89	350.08	58.72	-40.8	-43.0	19.7	0.00e+00	0	38	0	775946240	52	4824
2026-01-24 10:04:45.89	349.95	58.33	-42.3	-44.8	18.1	0.00e+00	0	38	0	778043392	55	5014
2026-01-24 10:04:46.88	349.83	57.94	-43.1	-45.8	17.1	0.00e+00	0	38	0	780140544	57	5001
2026-01-24 10:04:47.88	349.71	57.55	-42.1	-44.5	18.4	0.00e+00	0	38	0	782237696	56	4596
2026-01-24 10:04:48.87	349.60	57.17	-41.5	-43.8	19.0	0.00e+00	0	38	0	784334848	55	4449
2026-01-24 10:04:49.86	349.49	56.79	-41.2	-43.4	19.3	0.00e+00	0	38	0	785383424	54	4519
2026-01-24 10:04:50.86	349.38	56.41	-41.2	-43.5	19.3	0.00e+00	0	38	0	787480576	53	4826
2026-01-24 10:04:51.85	349.28	56.03	-41.4	-43.6	19.1	0.00e+00	0	38	0	789577728	53	4908
2026-01-24 10:04:52.85	349.18	55.65	-41.1	-43.3	19.5	0.00e+00	0	38	0	791674880	53	4745
2026-01-24 10:04:53.84	349.08	55.28	-40.6	-42.7	20.0	0.00e+00	0	38	0	792723456	53	4429
2026-01-24 10:04:54.84	348.98	54.91	-40.5	-42.7	20.0	0.00e+00	0	38	0	794820608	52	4652
2026-01-24 10:04:55.83	348.89	54.55	-40.6	-42.7	20.0	0.00e+00	0	38	0	796917760	52	4684
2026-01-24 10:04:56.82	348.80	54.18	-41.1	-43.3	19.5	0.00e+00	0	38	0	799014912	53	4725
2026-01-24 10:04:57.81	348.71	53.82	-42.2	-44.7	18.2	0.00e+00	0	38	0	801112064	55	4949
2026-01-24 10:04:58.81	348.62	53.46	-42.6	-45.1	18.0	0.00e+00	0	38	0	802160640	56	4891
2026-01-24 10:04:59.80	348.54	53.11	-41.6	-43.9	18.8	0.00e+00	0	38	0	804257792	55	4515
2026-01-24 10:05:00.80	348.46	52.75	-41.3	-43.7	19.1	0.00e+00	0	38	0	806354944	54	4654
2026-01-24 10:05:01.80	348.38	52.39	-42.9	-45.6	17.5	0.00e+00	0	38	0	808452096	56	5201
2026-01-24 10:05:02.79	348.30	52.05	-43.6	-46.5	16.7	0.00e+00	0	38	0	809500672	57	5445
2026-01-24 10:05:03.79	348.22	51.70	-44.6	-48.1	15.0	0.00e+00	0	38	0	811597824	60	5470
2026-01-24 10:05:04.78	348.15	51.35	-44.4	-47.8	15.4	0.00e+00	0	38	0	813694976	60	5285
2026-01-24 10:05:05.78	348.08	51.01	-45.0	-48.6	14.6	0.00e+00	0	38	0	815792128	60	5854
2026-01-24 10:05:06.77	348.01	50.67	-43.3	-46.1	17.1	0.00e+00	0	38	0	817889280	58	4877
2026-01-24 10:05:07.77	347.94	50.33	-43.3	-46.0	17.1	0.00e+00	0	38	0	818937856	58	4857
2026-01-24 10:05:08.76	347.87	50.00	-43.6	-46.5	16.7	0.00e+00	0	38	0	821035008	58	5136
2026-01-24 10:05:09.76	347.80	49.66	-44.6	-47.9	15.3	0.00e+00	0	38	0	823132160	60	5391
2026-01-24 10:05:10.75	347.74	49.34	-44.0	-47.0	16.1	0.00e+00	0	38	0	825229312	59	5115
2026-01-24 10:05:11.75	347.68	49.01	-44.2	-47.4	15.7	0.00e+00	0	38	0	826277888	59	5355
2026-01-24 10:05:12.74	347.62	48.68	-45.4	-49.3	13.9	7.00e-07	0	38	0	828375040	61	5946
2026-01-24 10:05:13.73	347.56	48.36	-46.4	-51.5	11.7	3.71e-04	0	38	0	830472192	63	6864
2026-01-24 10:05:14.73	347.50	48.04	-46.0	-50.6	12.5	1.11e-03	0	38	0	832569344	64	5855
2026-01-24 10:05:15.72	347.44	47.72	-44.5	-47.9	15.3	3.00e-06	0	38	0	834666496	61	5069
2026-01-24 10:05:16.72	347.38	47.40	-43.3	-46.0	17.2	0.00e+00	0	38	0	835715072	58	4821
2026-01-24 10:05:17.71	347.33	47.09	-42.3	-44.7	18.3	0.00e+00	0	38	0	837812224	56	4703
2026-01-24 10:05:18.70	347.27	46.78	-42.0	-44.3	18.5	0.00e+00	0	38	0	839909376	55	4752
2026-01-24 10:05:19.70	347.22	46.47	-42.5	-45.1	17.8	0.00e+00	0	38	0	842006528	55	5164
2026-01-24 10:05:20.69	347.17	46.16	-43.4	-46.1	17.0	0.00e+00	0	38	0	843055104	57	5207
2026-01-24 10:05:21.69	347.12	45.86	-44.0	-47.1	16.1	0.00e+00	0	38	0	845152256	58	5465
2026-01-24 10:05:22.68	347.07	45.56	-45.7	-49.9	13.5	0.00e+00	0	38	0	847249408	61	6389
2026-01-24 10:05:23.68	347.02	45.25	-46.8	-52.9	9.9	4.48e-04	0	38	0	849346560	64	7619
2026-01-24 10:05:24.67	346.97	44.96	-47.2	-54.5	8.7	1.50e-02	0	38	0	851443712	64	9095
2026-01-24 10:05:25.66	346.92	44.66	-46.0	-50.9	12.4	7.18e-03	0	38	0	852492288	63	6360
2026-01-24 10:05:26.66	346.88	44.37	-45.1	-49.0	14.1	1.22e-05	0	38	0	854589440	62	5460
2026-01-24 10:05:27.65	346.83	44.08	-43.5	-46.5	16.6	0.00e+00	0	38	0	856686592	59	4819
2026-01-24 10:05:28.64	346.79	43.79	-43.1	-46.0	17.1	0.00e+00	0	38	0	858783744	58	4825
2026-01-24 10:05:29.64	346.75	43.50	-43.0	-45.8	17.4	0.00e+00	0	38	0	859832320	57	4984
2026-01-24 10:05:30.63	346.70	43.22	-43.6	-46.5	16.6	0.00e+00	0	38	0	861929472	58	5156
2026-01-24 10:05:31.63	346.66	42.93	-43.9	-46.9	16.2	0.00e+00	0	38	0	864026624	58	5374
2026-01-24 10:05:32.63	346.62	42.65	-44.3	-47.6	15.6	0.00e+00	0	38	0	866123776	59	5492
2026-01-24 10:05:33.62	346.58	42.37	-45.2	-49.1	14.1	0.00e+00	0	38	0	868220928	61	5845
2026-01-24 10:05:34.61	346.54	42.10	-46.3	-51.3	11.8	9.76e-05	0	38	0	869269504	63	6699
2026-01-24 10:05:35.61	346.50	41.82	-46.7	-52.5	10.5	2.69e-03	0	38	0	871366656	64	7273
2026-01-24 10:05:36.60	346.47	41.55	-46.4	-51.8	11.3	6.18e-03	0	38	0	873463808	64	6667
2026-01-24 10:05:37.60	346.43	41.28	-46.4	-51.7	11.3	2.63e-03	0	38	0	875560960	64	6597
2026-01-24 10:05:38.59	346.39	41.01	-45.5	-49.6	13.5	1.63e-04	0	38	0	876609536	63	5492
2026-01-24 10:05:39.59	346.36	40.74	-44.4	-47.7	15.3	2.20e-06	0	38	0	878706688	60	5252
2026-01-24 10:05:40.58	346.32	40.48	-43.1	-45.9	17.2	0.00e+00	0	38	0	880803840	58	4770
2026-01-24 10:05:41.58	346.29	40.22	-42.8	-45.4	17.6	0.00e+00	0	38	0	882900992	57	4789
2026-01-24 10:05:42.57	346.25	39.96	-42.0	-44.3	18.6	0.00e+00	0	38	0	884998144	56	4485
2026-01-24 10:05:43.57	346.22	39.70	-42.3	-44.8	18.2	0.00e+00	0	38	0	886046720	55	4987
2026-01-24 10:05:44.56	346.19	39.44	-43.3	-46.0	17.2	0.00e+00	0	38	0	888143872	57	5130
2026-01-24 10:05:45.56	346.15	39.19	-44.5	-47.6	15.5	0.00e+00	0	38	0	890241024	59	5480
2026-01-24 10:05:46.55	346.12	38.93	-45.3	-49.0	14.2	0.00e+00	0	38	0	892338176	61	5747
2026-01-24 10:05:47.54	346.09	38.68	-45.5	-49.5	13.7	0.00e+00	0	38	0	893386752	61	6086
2026-01-24 10:05:48.54	346.06	38.43	-45.6	-49.7	13.5	3.80e-06	0	38	0	895483904	61	6225
2026-01-24 10:05:49.53	346.03	38.19	-45.1	-48.9	14.2	7.00e-07	0	38	0	897581056	62	5400
2026-01-24 10:05:50.52	346.00	37.94	-45.4	-49.7	13.5	4.50e-06	0	38	0	899678208	62	5885
2026-01-24 10:05:51.52	345.97	37.70	-44.9	-49.1	14.0	1.14e-05	0	38	0	901775360	61	5846
2026-01-24 10:05:52.52	345.94	37.45	-44.2	-47.9	15.2	0.00e+00	0	38	0	902823936	60	5357
2026-01-24 10:05:53.51	345.92	37.21	-44.0	-47.5	15.6	0.00e+00	0	38	0	904921088	59	5406
2026-01-24 10:05:54.51	345.89	36.97	-44.0	-47.4	15.7	0.00e+00	0	38	0	907018240	59	5349
2026-01-24 10:05:55.50	345.86	36.74	-42.9	-46.4	16.4	0.00e+00	0	38	0	909115392	58	5064
2026-01-24 10:05:56.50	345.83	36.50	-43.3	-46.3	16.8	0.00e+00	0	38	0	910163968	58	5004
2026-01-24 10:05:57.49	345.81	36.27	-43.4	-46.3	16.8	0.00e+00	0	38	0	912261120	58	5013
2026-01-24 10:05:58.48	345.78	36.04	-43.0	-45.7	17.3	0.00e+00	0	38	0	914358272	58	4682
2026-01-24 10:05:59.48	345.76	35.81	-43.3	-46.1	16.9	0.00e+00	0	38	0	916455424	57	5185
2026-01-24 10:06:00.47	345.73	35.58	-43.3	-46.1	16.9	0.00e+00	0	38	0	918552576	57	5192
2026-01-24 10:06:01.47	345.71	35.35	-44.0	-47.1	16.1	0.00e+00	0	38	0	919601152	58	5472
2026-01-24 10:06:02.46	345.68	35.12	-43.6	-46.6	16.5	0.00e+00	0	38	0	921698304	59	4878
2026-01-24 10:06:03.46	345.66	34.90	-44.7	-48.2	14.9	0.00e+00	0	38	0	923795456	60	5587
2026-01-24 10:06:04.45	345.64	34.68	-45.5	-49.6	13.5	1.50e-06	0	38	0	925892608	61	6168
2026-01-24 10:06:05.44	345.61	34.46	-45.9	-50.4	12.7	1.52e-05	0	38	0	926941184	62	6372
2026-01-24 10:06:06.44	345.59	34.24	-46.8	-52.4	10.6	2.21e-03	0	38	0	929038336	64	7155
2026-01-24 10:06:07.43	345.57	34.02	-46.8	-52.7	10.3	5.82e-03	0	38	0	931135488	64	7412
2026-01-24 10:06:08.43	345.55	33.80	-46.6	-52.6	10.5	7.01e-03	0	38	0	933232640	64	7310
2026-01-24 10:06:09.42	345.52	33.59	-46.0	-51.0	12.1	2.30e-03	0	38	0	935329792	63	6451
2026-01-24 10:06:10.42	345.50	33.38	-45.7	-50.5	12.6	3.96e-05	0	38	0	936378368	62	6480
2026-01-24 10:06:11.41	345.48	33.17	-44.7	-48.7	14.5	4.50e-06	0	38	0	938475520	60	5883
2026-01-24 10:06:12.40	345.46	32.96	-43.7	-47.0	16.1	0.00e+00	0	38	0	940572672	59	5141
2026-01-24 10:06:13.40	345.44	32.75	-43.4	-46.6	16.0	0.00e+00	0	38	0	942669824	58	5189
2026-01-24 10:06:14.39	345.42	32.54	-43.3	-46.3	16.7	0.00e+00	0	38	0	943718400	58	5023
2026-01-24 10:06:15.39	345.40	32.33	-43.3	-46.4	16.7	0.00e+00	0	38	0	945815552	58	5043
2026-01-24 10:06:16.38	345.38	32.13	-43.9	-47.1	16.0	0.00e+00	0	38	0	947912704	58	5496
2026-01-24 10:06:17.38	345.36	31.93	-44.1	-47.3	15.8	0.00e+00	0	38	0	950009856	58	5628
2026-01-24 10:06:18.37	345.34	31.73	-43.8	-46.8	16.2	0.00e+00	0	38	0	952107008	59	5010
2026-01-24 10:06:19.36	345.32	31.53	-44.0	-47.1	16.0	0.00e+00	0	38	0	953155584	59	5201
2026-01-24 10:06:20.36	345.31	31.33	-43.9	-46.9	16.2	0.00e+00	0	38	0	955252736	59	5056
2026-01-24 10:06:21.35	345.29	31.13	-43.7	-46.7	16.3	0.00e+00	0	38	0	957349888	59	4977
2026-01-24 10:06:22.34	345.27	30.93	-43.7	-46.7	16.4	0.00e+00	0	38	0	959447040	59	4945
2026-01-24 10:06:23.34	345.25	30.74	-43.7	-46.7	16.3	0.00e+00	0	38	0	960495616	59	4965
2026-01-24 10:06:24.33	345.23	30.55	-43.9	-47.0	16.1	0.00e+00	0	38	0	962592768	59	5138
2026-01-24 10:06:25.33	345.22	30.35	-44.2	-47.5	15.6	0.00e+00	0	38	0	964689920	59	5416
2026-01-24 10:06:26.32	345.20	30.16	-44.7	-48.1	15.0	0.00e+00	0	38	0	966787072	60	5512
2026-01-24 10:06:27.32	345.18	29.97	-45.1	-48.8	14.3	0.00e+00	0	38	0	968884224	60	5972
2026-01-24 10:06:28.31	345.17	29.78	-45.4	-49.5	13.6	4.50e-06	0	38	0	969932800	61	6073
2026-01-24 10:06:29.31	345.15	29.60	-45.4	-49.8	13.3	1.22e-05	0	38	0	972029952	61	6309
2026-01-24 10:06:30.30	345.14	29.41	-45.5	-50.0	13.1	8.30e-06	0	38	0	974127104	61	6440
2026-01-24 10:06:31.29	345.12	29.23	-45.3	-49.8	13.4	1.37e-05	0	38	0	976224256	61	6279
2026-01-24 10:06:32.29	345.10	29.04	-44.8	-48.9	14.3	7.60e-06	0	38	0	977272832	61	5666
2026-01-24 10:06:33.28	345.09	28.86	-44.4	-48.3	14.8	7.00e-07	0	38	0	979369984	60	5613
2026-01-24 10:06:34.28	345.07	28.68	-44.1	-47.7	15.4	0.00e+00	0	38	0	981467136	59	5552
2026-01-24 10:06:35.27	345.06	28.50	-43.6	-46.7	16.3	0.00e+00	0	38	0	983564288	59	4980
2026-01-24 10:06:36.26	345.04	28.32	-43.4	-46.3	16.8	0.00e+00	0	38	0	985661440	58	5004
2026-01-24 10:06:37.26	345.03	28.14	-43.1	-45.9	17.1	0.00e+00	0	38	0	986710016	58	4779
2026-01-24 10:06:38.25	345.02	27.97	-42.9	-45.6	17.4	0.00e+00	0	38	0	988807168	57	4883
2026-01-24 10:06:39.25	345.00	27.79	-42.6	-45.1	17.8	0.00e+00	0	38	0	990904320	57	4632
2026-01-24 10:06:40.24	344.99	27.62	-42.4	-44.9	18.1	0.00e+00	0	38	0	993001472	56	4768
2026-01-24 10:06:41.23	344.97	27.44	-42.1	-44.6	18.3	0.00e+00	0	38	0	994050048	56	4633
2026-01-24 10:06:42.23	344.96	27.27	-41.7	-44.2	18.6	0.00e+00	0	38	0	996147200	55	4655
2026-01-24 10:06:43.22	344.95	27.10	-42.0	-44.6	18.2	0.00e+00	0	38	0	998244352	55	4879
2026-01-24 10:06:44.21	344.93	26.93	-41.7	-44.3	18.4	0.00e+00	0	38	0	1000341504	55	4718
2026-01-24 10:06:45.21	344.92	26.76	-41.7	-44.2	18.5	0.00e+00	0	38	0	1002438656	55	4705
2026-01-24 10:06:46.20	344.91	26.59	-41.9	-44.5	18.3	0.00e+00	0	38	0	1003487232	55	4819
2026-01-24 10:06:47.19	344.90	26.43	-41.9	-44.5	18.3	0.00e+00	0	38	0	1005584384	55	4839
2026-01-24 10:06:48.19	344.88	26.26	-41.9	-44.5	18.3	0.00e+00	0	38	0	1007681536	55	4843
2026-01-24 10:06:49.18	344.87	26.10	-42.2	-44.8	18.0	0.00e+00	0	38	0	1009778688	55	5007
2026-01-24 10:06:50.18	344.86	25.93	-42.5	-45.1	17.8	0.00e+00	0	38	0	1010827264	55	5203
2026-01-24 10:06:51.17	344.85	25.77	-42.6	-45.2	17.8	0.00e+00	0	38	0	1012924416	56	4936
2026-01-24 10:06:52.17	344.84	25.61	-43.2	-46.0	17.0	0.00e+00	0	38	0	1015021568	57	5148
2026-01-24 10:06:53.16	344.82	25.45	-43.3	-46.2	16.9	0.00e+00	0	38	0	1017118720	57	5225
2026-01-24 10:06:54.16	344.81	25.29	-43.4	-46.4	16.7	0.00e+00	0	38	0	1019215872	57	5366
2026-01-24 10:06:55.15	344.80	25.13	-43.6	-46.7	16.4	0.00e+00	0	38	0	1020264448	58	5268
2026-01-24 10:06:56.14	344.79	24.97	-43.6	-46.8	16.3	0.00e+00	0	38	0	1022361600	58	5311
2026-01-24 10:06:57.14	344.78	24.81	-43.7	-47.0	16.2	0.00e+00	0	38	0	1024458752	58	5427
2026-01-24 10:06:58.13	344.77	24.66	-43.4	-46.6	16.4	0.00e+00	0	38	0	1026555904	58	5215
2026-01-24 10:06:59.12	344.76	24.50	-43.4	-46.6	16.5	0.00e+00	0	38	0	1027604480	58	5173
2026-01-24 10:07:00.12	344.75	24.35	-43.1	-46.3	16.8	0.00e+00	0	38	0	1029701632	58	4985
2026-01-24 10:07:01.11	344.74	24.20	-42.9	-46.0	17.0	0.00e+00	0	38	0	1031798784	57	5103
2026-01-24 10:07:02.10	344.73	24.04	-42.6	-45.5	17.4	0.00e+00	0	38	0	1033895936	57	4853
2026-01-24 10:07:03.10	344.72	23.89	-42.4	-45.1	17.8	0.00e+00	0	38	0	1035993088	56	4894
2026-01-24 10:07:04.09	344.71	23.74	-42.3	-44.9	18.0	0.00e+00	0	38	0	1037041664	56	4812
2026-01-24 10:07:05.09	344.70	23.59	-42.2	-44.8	18.1	0.00e+00	0	38	0	1039138816	56	4731
2026-01-24 10:07:06.08	344.69	23.44	-41.8	-44.3	18.4	0.00e+00	0	38	0	1041235968	55	4747
2026-01-24 10:07:07.08	344.68	23.29	-42.0	-44.6	18.2	0.00e+00	0	38	0	1043333120	55	4886
2026-01-24 10:07:08.07	344.67	23.15	-41.9	-44.5	18.2	0.00e+00	0	38	0	1044381696	55	4844
2026-01-24 10:07:09.07	344.66	23.00	-41.7	-44.3	18.4	0.00e+00	0	38	0	1046478848	55	4709
2026-01-24 10:07:10.06	344.65	22.85	-41.8	-44.5	18.3	0.00e+00	0	38	0	1048576000	55	4820
2026-01-24 10:07:11.06	344.64	22.71	-41.6	-44.2	18.5	0.00e+00	0	38	0	1050673152	54	4968
2026-01-24 10:07:12.05	344.63	22.57	-41.4	-44.1	18.6	0.00e+00	0	38	0	1052770304	54	4875
2026-01-24 10:07:13.05	344.62	22.42	-41.1	-43.7	18.9	0.00e+00	0	38	0	1053818880	54	4685
2026-01-24 10:07:14.04	344.61	22.28	-40.9	-43.4	19.2	0.00e+00	0	38	0	1055916032	53	4797
2026-01-24 10:07:15.04	344.61	22.14	-40.7	-43.2	19.4	0.00e+00	0	38	0	1058013184	53	4685
2026-01-24 10:07:16.03	344.60	22.00	-40.5	-42.9	19.7	0.00e+00	0	38	0	1060110336	52	4787
2026-01-24 10:07:17.03	344.59	21.86	-40.3	-42.6	19.9	0.00e+00	0	38	0	1061158912	52	4637
2026-01-24 10:07:18.02	344.58	21.72	-40.4	-42.7	19.9	0.00e+00	0	38	0	1063256064	52	4663
2026-01-24 10:07:19.02	344.57	21.58	-40.2	-42.4	20.1	0.00e+00	0	38	0	1065353216	52	4515
2026-01-24 10:07:20.01	344.56	21.44	-40.2	-42.3	20.2	0.00e+00	0	38	0	1067450368	52	4488
2026-01-24 10:07:21.01	344.56	21.30	-40.4	-42.6	20.0	0.00e+00	0	38	0	1069547520	52	4608
2026-01-24 10:07:22.00	344.55	21.17	-40.6	-42.7	19.8	0.00e+00	0	38	0	1070596096	52	4700
2026-01-24 10:07:23.00	344.54	21.03	-40.7	-42.8	19.7	0.00e+00	0	38	0	1072693248	52	4748
2026-01-24 10:07:23.99	344.53	20.90	-41.0	-43.3	19.3	0.00e+00	0	38	0	1074790400	52	5002
2026-01-24 10:07:24.98	344.53	20.76	-41.0	-43.2	19.4	0.00e+00	0	38	0	1076887552	52	4975
2026-01-24 10:07:25.98	344.52	20.63	-41.0	-43.3	19.3	0.00e+00	0	38	0	1077936128	52	5024
2026-01-24 10:07:26.97	344.51	20.50	-41.4	-43.8	18.9	0.00e+00	0	38	0	1080033280	53	4988
2026-01-24 10:07:27.97	344.50	20.37	-41.4	-43.9	18.7	0.00e+00	0	38	0	1082130432	53	5050
2026-01-24 10:07:28.96	344.50	20.24	-41.9	-44.4	18.3	0.00e+00	0	38	0	1084227584	54	5084
2026-01-24 10:07:29.96	344.49	20.10	-42.1	-44.7	18.1	0.00e+00	0	38	0	1086324736	54	5228
2026-01-24 10:07:30.95	344.48	19.98	-42.0	-44.6	18.1	0.00e+00	0	38	0	1087373312	55	4886
2026-01-24 10:07:31.94	344.48	19.85	-42.2	-44.8	17.9	0.00e+00	0	38	0	1089470464	55	5014
2026-01-24 10:07:32.94	344.47	19.72	-42.5	-45.2	17.6	0.00e+00	0	38	0	1091567616	55	5222
2026-01-24 10:07:33.93	344.46	19.59	-42.5	-45.1	17.6	0.00e+00	0	38	0	1093664768	55	5193
2026-01-24 10:07:34.93	344.46	19.46	-42.8	-45.5	17.4	0.00e+00	0	38	0	1094713344	56	5113
2026-01-24 10:07:35.92	344.45	19.34	-43.0	-45.7	17.2	0.00e+00	0	38	0	1096810496	56	5274
2026-01-24 10:07:36.92	344.44	19.21	-43.0	-45.8	17.1	0.00e+00	0	38	0	1098907648	56	5281
2026-01-24 10:07:37.92	344.44	19.08	-43.1	-45.9	17.0	0.00e+00	0	38	0	1101004800	56	5355
2026-01-24 10:07:38.91	344.43	18.96	-43.1	-46.0	16.9	0.00e+00	0	38	0	1103101952	57	5132
2026-01-24 10:07:39.91	344.42	18.84	-43.1	-46.0	16.9	0.00e+00	0	38	0	1104150528	57	5128
2026-01-24 10:07:40.90	344.42	18.71	-43.3	-46.3	16.7	0.00e+00	0	38	0	1106247680	57	5285
2026-01-24 10:07:41.89	344.41	18.59	-43.3	-46.4	16.5	0.00e+00	0	38	0	1108344832	57	5358
2026-01-24 10:07:42.89	344.41	18.47	-43.1	-46.1	16.8	0.00e+00	0	38	0	1110441984	57	5216
2026-01-24 10:07:43.88	344.40	18.35	-43.1	-46.3	16.6	0.00e+00	0	38	0	1111490560	57	5299
2026-01-24 10:07:44.88	344.39	18.22	-43.3	-46.5	16.4	0.00e+00	0	38	0	1113587712	57	5446
2026-01-24 10:07:45.87	344.39	18.10	-43.2	-46.4	16.5	0.00e+00	0	38	0	1115684864	57	5379
2026-01-24 10:07:46.87	344.38	17.98	-43.2	-46.4	16.5	0.00e+00	0	38	0	1117782016	57	5365
2026-01-24 10:07:47.86	344.38	17.87	-43.2	-46.4	16.5	0.00e+00	0	38	0	1119879168	57	5350
2026-01-24 10:07:48.86	344.37	17.75	-43.1	-46.1	16.7	0.00e+00	0	38	0	1120927744	57	5200
2026-01-24 10:07:49.85	344.37	17.63	-43.2	-46.3	16.6	0.00e+00	0	38	0	1123024896	57	5285
2026-01-24 10:07:50.84	344.36	17.51	-43.0	-45.8	17.0	0.00e+00	0	38	0	1125122048	57	5033
2026-01-24 10:07:51.84	344.36	17.39	-43.0	-45.8	17.1	0.00e+00	0	38	0	1127219200	57	4985
2026-01-24 10:07:52.83	344.35	17.28	-43.0	-45.7	17.1	0.00e+00	0	38	0	1128267776	57	4976
2026-01-24 10:07:53.82	344.34	17.16	-42.9	-45.7	17.2	0.00e+00	0	38	0	1130364928	57	4956
2026-01-24 10:07:54.82	344.34	17.05	-43.0	-45.8	17.1	0.00e+00	0	38	0	1132462080	57	5013
2026-01-24 10:07:55.81	344.33	16.93	-42.8	-45.7	17.2	0.00e+00	0	38	0	1134559232	57	4946
2026-01-24 10:07:56.81	344.33	16.82	-42.8	-45.7	17.2	0.00e+00	0	38	0	1136656384	57	4948
2026-01-24 10:07:57.80	344.32	16.71	-42.8	-45.8	17.0	0.00e+00	0	38	0	1137704960	57	5001
2026-01-24 10:07:58.79	344.32	16.59	-42.6	-45.7	17.1	0.00e+00	0	38	0	1139802112	57	4947
2026-01-24 10:07:59.79	344.32	16.48	-42.5	-45.6	17.2	0.00e+00	0	38	0	1141899264	57	4906
2026-01-24 10:08:00.78	344.31	16.37	-42.4	-45.7	17.2	0.00e+00	0	38	0	1143996416	56	5240
2026-01-24 10:08:01.77	344.31	16.26	-42.5	-45.9	17.0	0.00e+00	0	38	0	1145044992	56	5346
2026-01-24 10:08:02.77	344.30	16.15	-42.4	-45.8	17.1	0.00e+00	0	38	0	1147142144	56	5300
2026-01-24 10:08:03.76	344.30	16.04	-42.5	-45.9	16.9	0.00e+00	0	38	0	1149239296	56	5377
2026-01-24 10:08:04.75	344.29	15.93	-42.6	-46.0	17.0	0.00e+00	0	38	0	1151336448	56	5409
2026-01-24 10:08:05.75	344.29	15.82	-42.8	-46.2	16.7	0.00e+00	0	38	0	1153433600	56	5533
2026-01-24 10:08:06.74	344.28	15.71	-42.9	-46.3	16.5	0.00e+00	0	38	0	1154482176	56	5638
2026-01-24 10:08:07.74	344.28	15.60	-42.9	-46.2	16.7	0.00e+00	0	38	0	1156579328	56	5541
2026-01-24 10:08:08.73	344.28	15.49	-43.2	-46.6	16.4	0.00e+00	0	38	0	1158676480	57	5517
2026-01-24 10:08:09.73	344.27	15.38	-43.1	-46.3	16.6	0.00e+00	0	38	0	1160773632	57	5337
2026-01-24 10:08:10.72	344.27	15.28	-43.2	-46.4	16.4	0.00e+00	0	38	0	1161822208	57	5396
2026-01-24 10:08:11.72	344.26	15.17	-43.3	-46.6	16.3	0.00e+00	0	38	0	1163919360	57	5479
2026-01-24 10:08:12.71	344.26	15.06	-43.4	-46.8	16.1	0.00e+00	0	38	0	1166016512	57	5596
2026-01-24 10:08:13.71	344.26	14.96	-43.3	-46.6	16.2	0.00e+00	0	38	0	1168113664	57	5512
2026-01-24 10:08:14.70	344.25	14.85	-43.4	-46.8	16.1	0.00e+00	0	38	0	1170210816	57	5609
2026-01-24 10:08:15.69	344.25	14.75	-43.3	-46.7	16.1	0.00e+00	0	38	0	1171259392	57	5584
2026-01-24 10:08:16.69	344.24	14.64	-43.3	-46.8	16.0	0.00e+00	0	38	0	1173356544	57	5653
2026-01-24 10:08:17.68	344.24	14.54	-43.3	-47.0	15.9	0.00e+00	0	38	0	1175453696	57	5745
2026-01-24 10:08:18.68	344.24	14.44	-43.2	-46.8	16.0	0.00e+00	0	38	0	1177550848	57	5655
2026-01-24 10:08:19.67	344.23	14.33	-43.2	-46.9	15.9	0.00e+00	0	38	0	1178599424	57	5695
2026-01-24 10:08:20.67	344.23	14.23	-43.1	-46.9	16.0	0.00e+00	0	38	0	1180696576	57	5659
2026-01-24 10:08:21.66	344.23	14.13	-42.9	-46.4	16.3	0.00e+00	0	38	0	1182793728	57	5401
2026-01-24 10:08:22.66	344.22	14.03	-43.2	-46.9	15.9	0.00e+00	0	38	0	1184890880	57	5712
2026-01-24 10:08:23.65	344.22	13.92	-43.1	-46.7	16.1	0.00e+00	0	38	0	1186988032	57	5592
2026-01-24 10:08:24.64	344.22	13.82	-43.0	-46.7	16.1	0.00e+00	0	38	0	1188036608	57	5573
2026-01-24 10:08:25.64	344.21	13.72	-43.0	-46.7	16.2	0.00e+00	0	38	0	1190133760	57	5537
2026-01-24 10:08:26.63	344.21	13.62	-43.1	-46.7	16.1	0.00e+00	0	38	0	1192230912	57	5542
2026-01-24 10:08:27.63	344.21	13.52	-43.1	-46.6	16.2	0.00e+00	0	38	0	1194328064	57	5521
2026-01-24 10:08:28.62	344.20	13.42	-43.1	-46.6	16.2	0.00e+00	0	38	0	1195376640	57	5496
2026-01-24 10:08:29.62	344.20	13.33	-43.0	-46.4	16.4	0.00e+00	0	38	0	1197473792	57	5389
2026-01-24 10:08:30.61	344.20	13.23	-43.1	-46.6	16.3	0.00e+00	0	38	0	1199570944	57	5470
2026-01-24 10:08:31.60	344.20	13.13	-43.1	-46.5	16.3	0.00e+00	0	38	0	1201668096	57	5439
2026-01-24 10:08:32.60	344.19	13.03	-43.1	-46.6	16.2	0.00e+00	0	38	0	1203765248	57	5474
2026-01-24 10:08:33.59	344.19	12.93	-43.0	-46.3	16.5	0.00e+00	0	38	0	1204813824	57	5287
2026-01-24 10:08:34.59	344.19	12.84	-42.9	-46.2	16.6	0.00e+00	0	38	0	1206910976	57	5265
2026-01-24 10:08:35.58	344.18	12.74	-42.8	-46.1	16.7	0.00e+00	0	38	0	1209008128	57	5185
