passes_logs/2026/01/24/T1/T1__20260124_124824_AQUA_rec.log

#Pass ID: 20260124_124824_AQUA
#Satellite: AQUA
#Configuration: AQUA
#almurnet v.1.7.20251203
#Start time: 2026-01-24 12:48:23

#Version: 2.0.20230620
#Station: T1
#Location: 37.570604 lon 55.790049 lat
#TLE: 1 27424U 02022A   26023.58972979  .00001888  00000+0  38753-3 0  9997
#TLE: 2 27424  98.4100 350.1620 0001948  68.5331  43.0280 14.61852003262140

#Time	Az	El	Level	Level2	SNR	BER	BlckErr	Temp	State	Recorded	gain1	gain2
2026-01-24 12:48:23.81	199.48	4.99	-48.1	-70.2	3.8	7.47e-01	0	40	0	0	68	44104
2026-01-24 12:48:24.80	199.56	5.05	-48.0	-69.9	3.8	7.42e-01	0	40	104	0	66	47770
2026-01-24 12:48:25.80	199.64	5.12	-47.9	-69.8	3.8	7.44e-01	0	40	104	0	66	47354
2026-01-24 12:48:26.79	199.72	5.19	-48.0	-69.7	3.8	7.45e-01	0	40	104	0	66	47026
2026-01-24 12:48:27.78	199.79	5.25	-47.9	-69.7	3.8	7.47e-01	0	40	104	0	66	46940
2026-01-24 12:48:28.78	199.87	5.32	-48.0	-69.7	3.8	7.44e-01	0	40	104	0	66	46831
2026-01-24 12:48:29.77	199.95	5.39	-47.9	-69.8	3.8	7.48e-01	0	40	104	0	66	47507
2026-01-24 12:48:30.76	200.03	5.46	-48.0	-69.9	3.8	7.45e-01	0	40	104	0	66	48059
2026-01-24 12:48:31.75	200.11	5.53	-48.0	-70.0	3.8	7.46e-01	0	40	104	0	66	48509
2026-01-24 12:48:32.75	200.19	5.59	-47.9	-70.0	3.8	7.44e-01	0	40	104	0	66	48663
2026-01-24 12:48:33.74	200.27	5.66	-47.9	-70.0	3.8	7.46e-01	0	40	104	0	66	48456
2026-01-24 12:48:34.74	200.35	5.73	-47.9	-70.0	3.8	7.43e-01	0	40	104	0	66	48504
2026-01-24 12:48:35.73	200.44	5.80	-47.9	-70.0	3.8	7.43e-01	0	40	104	0	66	48611
2026-01-24 12:48:36.72	200.52	5.87	-48.0	-70.1	3.8	7.46e-01	0	40	104	0	66	48717
2026-01-24 12:48:37.71	200.60	5.94	-48.0	-70.0	3.8	7.47e-01	0	40	104	0	66	48374
2026-01-24 12:48:38.71	200.68	6.01	-47.9	-69.7	3.8	7.45e-01	0	40	104	0	66	46730
2026-01-24 12:48:39.70	200.76	6.07	-47.9	-69.1	3.8	7.45e-01	0	40	104	0	66	43882
2026-01-24 12:48:40.69	200.85	6.14	-47.9	-68.4	3.8	7.45e-01	0	40	104	0	66	40392
2026-01-24 12:48:41.69	200.93	6.21	-47.9	-67.6	4.0	7.40e-01	0	40	104	0	66	36875
2026-01-24 12:48:42.68	201.02	6.28	-47.9	-67.4	3.9	7.43e-01	0	40	104	0	66	35938
2026-01-24 12:48:43.67	201.10	6.35	-47.9	-67.5	3.8	7.44e-01	0	40	104	0	66	36470
2026-01-24 12:48:44.66	201.19	6.42	-47.9	-67.6	4.0	7.39e-01	0	40	104	0	66	36760
2026-01-24 12:48:45.66	201.27	6.49	-47.9	-68.2	3.8	7.46e-01	0	40	104	0	66	39256
2026-01-24 12:48:46.65	201.36	6.56	-47.9	-68.5	3.8	7.46e-01	0	40	104	0	66	40599
2026-01-24 12:48:47.64	201.44	6.63	-47.9	-68.5	3.8	7.42e-01	0	40	104	0	66	40572
2026-01-24 12:48:48.64	201.53	6.71	-47.9	-68.1	3.8	7.46e-01	0	40	104	0	66	38939
2026-01-24 12:48:49.63	201.62	6.78	-47.9	-67.6	4.0	7.38e-01	0	40	104	0	66	36815
2026-01-24 12:48:50.62	201.71	6.85	-47.9	-67.8	3.9	7.46e-01	0	40	104	0	66	37752
2026-01-24 12:48:51.62	201.79	6.92	-47.9	-67.8	3.8	7.44e-01	0	40	104	0	66	37615
2026-01-24 12:48:52.61	201.88	6.99	-48.0	-68.1	3.9	7.49e-01	0	40	104	0	66	38929
2026-01-24 12:48:53.61	201.97	7.06	-47.9	-68.5	3.8	7.44e-01	0	40	104	0	66	40693
2026-01-24 12:48:54.60	202.06	7.13	-47.9	-69.1	3.8	7.41e-01	0	40	104	0	66	43453
2026-01-24 12:48:55.59	202.15	7.20	-48.0	-69.4	3.8	7.45e-01	0	40	104	0	66	45398
2026-01-24 12:48:56.58	202.24	7.28	-47.9	-69.1	3.8	7.45e-01	0	40	104	0	66	43531
2026-01-24 12:48:57.58	202.33	7.35	-47.9	-67.1	4.0	7.37e-01	0	40	104	0	66	34503
2026-01-24 12:48:58.57	202.42	7.42	-47.9	-64.6	4.9	7.09e-01	0	40	0	0	66	26131
2026-01-24 12:48:59.56	202.52	7.49	-47.8	-63.0	6.0	6.86e-01	0	40	0	524288	66	21582
2026-01-24 12:49:00.56	202.61	7.57	-47.7	-62.3	6.5	6.70e-01	0	40	0	2097152	66	20060
2026-01-24 12:49:01.55	202.70	7.64	-47.8	-63.1	5.9	6.90e-01	0	40	0	4194304	66	21912
2026-01-24 12:49:02.54	202.79	7.71	-47.9	-66.1	3.9	7.40e-01	0	40	104	4718592	66	30984
2026-01-24 12:49:03.54	202.89	7.79	-47.9	-69.8	3.8	7.47e-01	0	40	104	4718592	66	47414
2026-01-24 12:49:04.53	202.98	7.86	-47.8	-64.0	4.2	7.35e-01	0	40	104	4718592	66	24212
2026-01-24 12:49:05.52	203.08	7.93	-47.3	-57.6	11.1	6.19e-01	0	40	0	5767168	66	11679
2026-01-24 12:49:06.52	203.17	8.01	-46.4	-53.3	15.5	6.04e-01	0	40	0	7864320	64	7943
2026-01-24 12:49:07.51	203.27	8.08	-45.6	-50.9	18.1	6.07e-01	0	40	0	9437184	63	6373
2026-01-24 12:49:08.50	203.37	8.15	-44.5	-48.7	20.2	6.06e-01	0	40	0	11534336	61	5565
2026-01-24 12:49:09.49	203.46	8.23	-43.8	-47.5	21.5	6.08e-01	0	40	0	13107200	59	5444
2026-01-24 12:49:10.49	203.56	8.30	-43.4	-46.8	22.2	6.07e-01	0	40	0	15204352	58	5320
2026-01-24 12:49:11.48	203.66	8.38	-43.0	-46.2	22.7	6.07e-01	0	40	0	17301504	58	4979
2026-01-24 12:49:12.48	203.76	8.45	-43.0	-46.3	22.7	6.06e-01	0	40	0	18874368	58	5027
2026-01-24 12:49:13.47	203.86	8.53	-43.4	-46.8	22.3	6.08e-01	0	40	0	20971520	58	5316
2026-01-24 12:49:14.46	203.96	8.60	-44.0	-47.8	21.3	6.10e-01	0	40	0	22544384	58	5975
2026-01-24 12:49:15.46	204.06	8.68	-44.6	-48.9	20.1	6.07e-01	0	40	0	24641536	60	6057
2026-01-24 12:49:16.45	204.16	8.75	-45.3	-50.5	18.6	6.08e-01	0	40	0	26214400	61	6807
2026-01-24 12:49:17.44	204.26	8.83	-46.2	-52.6	16.5	6.05e-01	0	40	0	28311552	63	7730
2026-01-24 12:49:18.43	204.36	8.91	-46.7	-54.6	14.4	6.10e-01	0	40	0	29884416	64	9266
2026-01-24 12:49:19.43	204.46	8.98	-47.1	-56.8	12.1	6.14e-01	0	40	0	31981568	64	11891
2026-01-24 12:49:20.42	204.56	9.06	-47.3	-58.2	10.6	6.19e-01	0	40	0	34078720	65	13131
2026-01-24 12:49:21.42	204.67	9.14	-47.0	-56.2	12.4	6.11e-01	0	40	0	35651584	65	10457
2026-01-24 12:49:22.41	204.77	9.21	-46.9	-55.5	14.1	6.10e-01	0	40	0	37748736	64	10217
2026-01-24 12:49:23.41	204.88	9.29	-47.3	-60.1	8.3	6.39e-01	0	40	0	39321600	65	16356
2026-01-24 12:49:24.40	204.98	9.37	-46.5	-54.0	14.4	6.06e-01	0	40	0	41418752	65	8133
2026-01-24 12:49:25.40	205.09	9.44	-45.9	-51.8	17.1	6.07e-01	0	40	0	42991616	63	7063
2026-01-24 12:49:26.39	205.19	9.52	-45.7	-51.2	17.9	6.08e-01	0	40	0	45088768	63	6614
2026-01-24 12:49:27.39	205.30	9.60	-44.9	-49.5	19.6	6.07e-01	0	40	0	46661632	61	6103
2026-01-24 12:49:28.38	205.41	9.68	-44.2	-48.3	20.7	6.07e-01	0	40	0	48758784	60	5614
2026-01-24 12:49:29.38	205.52	9.76	-44.2	-47.9	21.3	6.07e-01	0	40	0	50855936	59	5685
2026-01-24 12:49:30.37	205.63	9.83	-43.7	-47.2	22.0	6.08e-01	0	40	0	52428800	59	5250
2026-01-24 12:49:31.37	205.74	9.91	-43.3	-46.5	22.6	6.08e-01	0	40	0	54525952	58	5130
2026-01-24 12:49:32.36	205.85	9.99	-43.0	-45.9	23.2	6.06e-01	0	40	0	56098816	58	4804
2026-01-24 12:49:33.36	205.96	10.07	-42.9	-45.8	23.4	6.06e-01	0	40	0	58195968	57	5004
2026-01-24 12:49:34.35	206.07	10.15	-42.9	-45.8	23.4	6.07e-01	0	40	0	59768832	57	5017
2026-01-24 12:49:35.35	206.18	10.23	-42.9	-45.8	23.4	6.07e-01	0	40	0	61865984	57	5003
2026-01-24 12:49:36.34	206.29	10.31	-42.8	-45.7	23.4	6.07e-01	0	40	0	63438848	57	4959
2026-01-24 12:49:37.33	206.41	10.39	-42.7	-45.5	23.6	6.06e-01	0	40	0	65536000	57	4848
2026-01-24 12:49:38.33	206.52	10.47	-42.5	-45.3	23.8	6.06e-01	0	40	0	67633152	57	4724
2026-01-24 12:49:39.32	206.63	10.55	-42.7	-45.5	23.6	6.08e-01	0	40	0	69206016	57	4839
2026-01-24 12:49:40.32	206.75	10.63	-42.7	-45.4	23.7	6.07e-01	0	40	0	71303168	57	4801
2026-01-24 12:49:41.31	206.87	10.71	-42.6	-45.3	23.6	6.08e-01	0	40	0	72876032	57	4758
2026-01-24 12:49:42.31	206.98	10.79	-42.6	-45.4	23.8	6.05e-01	0	40	0	74973184	57	4772
2026-01-24 12:49:43.30	207.10	10.87	-42.7	-45.5	23.6	6.08e-01	0	40	0	76546048	57	4837
2026-01-24 12:49:44.30	207.22	10.95	-42.6	-45.3	23.8	6.08e-01	0	40	0	78643200	57	4746
2026-01-24 12:49:45.29	207.34	11.03	-42.7	-45.4	23.7	6.05e-01	0	40	0	80216064	57	4814
2026-01-24 12:49:46.28	207.45	11.11	-42.6	-45.3	23.8	6.09e-01	0	40	0	82313216	57	4723
2026-01-24 12:49:47.28	207.58	11.19	-42.6	-45.2	23.9	6.07e-01	0	40	0	84410368	57	4689
2026-01-24 12:49:48.27	207.70	11.28	-42.6	-45.3	23.9	6.07e-01	0	40	0	85983232	57	4718
2026-01-24 12:49:49.27	207.82	11.36	-42.6	-45.3	23.9	6.07e-01	0	40	0	88080384	57	4719
2026-01-24 12:49:50.27	207.94	11.44	-42.6	-45.3	23.8	6.05e-01	0	40	0	89653248	57	4714
2026-01-24 12:49:51.26	208.06	11.52	-42.6	-45.2	23.9	6.09e-01	0	40	0	91750400	57	4667
2026-01-24 12:49:52.26	208.19	11.61	-42.6	-45.2	23.9	6.04e-01	0	40	0	93323264	57	4701
2026-01-24 12:49:53.25	208.31	11.69	-42.6	-45.2	23.9	6.07e-01	0	40	0	95420416	57	4695
2026-01-24 12:49:54.25	208.44	11.77	-42.5	-45.1	24.0	6.08e-01	0	40	0	96993280	57	4645
2026-01-24 12:49:55.24	208.56	11.86	-42.5	-45.1	24.1	6.04e-01	0	40	0	99090432	57	4620
2026-01-24 12:49:56.24	208.69	11.94	-42.5	-45.1	24.1	6.08e-01	0	40	0	101187584	56	4880
2026-01-24 12:49:57.24	208.82	12.02	-42.6	-45.1	24.1	6.09e-01	0	40	0	102760448	56	4925
2026-01-24 12:49:58.23	208.94	12.11	-42.5	-45.1	24.1	6.06e-01	0	40	0	104857600	56	4881
2026-01-24 12:49:59.22	209.07	12.19	-42.5	-45.0	24.1	6.06e-01	0	40	0	106430464	56	4859
2026-01-24 12:50:00.22	209.20	12.27	-42.5	-45.1	24.1	6.06e-01	0	40	0	108527616	56	4871
2026-01-24 12:50:01.22	209.33	12.36	-42.4	-44.9	24.3	6.07e-01	0	40	0	110624768	56	4774
2026-01-24 12:50:02.21	209.46	12.44	-42.4	-44.9	24.3	6.06e-01	0	40	0	112197632	56	4765
2026-01-24 12:50:03.21	209.60	12.53	-42.3	-44.8	24.3	6.07e-01	0	40	0	113770496	56	4753
2026-01-24 12:50:04.20	209.73	12.61	-42.4	-44.8	24.4	6.06e-01	0	40	0	115867648	56	4757
2026-01-24 12:50:05.20	209.86	12.70	-42.4	-44.9	24.3	6.05e-01	0	40	0	117964800	56	4792
2026-01-24 12:50:06.19	210.00	12.78	-42.5	-44.9	24.2	6.04e-01	0	40	0	119537664	56	4811
2026-01-24 12:50:07.19	210.13	12.87	-42.4	-44.9	24.3	6.08e-01	0	40	0	121634816	56	4790
2026-01-24 12:50:08.18	210.27	12.96	-42.5	-45.0	24.2	6.05e-01	0	40	0	123207680	56	4828
2026-01-24 12:50:09.18	210.40	13.04	-42.5	-45.0	24.2	6.07e-01	0	40	0	125304832	56	4866
2026-01-24 12:50:10.17	210.54	13.13	-42.6	-45.1	24.2	6.07e-01	0	40	0	127401984	56	4884
2026-01-24 12:50:11.17	210.68	13.22	-42.3	-44.8	24.4	6.06e-01	0	40	0	128974848	56	4724
2026-01-24 12:50:12.16	210.82	13.30	-42.4	-44.9	24.3	6.06e-01	0	40	0	131072000	56	4770
2026-01-24 12:50:13.16	210.96	13.39	-42.4	-44.9	24.3	6.07e-01	0	40	0	132644864	56	4793
2026-01-24 12:50:14.15	211.10	13.48	-42.4	-44.9	24.3	6.08e-01	0	40	0	134742016	56	4795
2026-01-24 12:50:15.15	211.24	13.56	-42.4	-44.9	24.3	6.06e-01	0	40	0	136314880	56	4789
2026-01-24 12:50:16.14	211.39	13.65	-42.4	-44.8	24.4	6.04e-01	0	40	0	138412032	56	4745
2026-01-24 12:50:17.13	211.53	13.74	-42.3	-44.7	24.5	6.07e-01	0	40	0	139984896	56	4702
2026-01-24 12:50:18.13	211.67	13.83	-42.3	-44.8	24.4	6.07e-01	0	40	0	142082048	56	4739
2026-01-24 12:50:19.12	211.82	13.91	-42.4	-44.9	24.4	6.07e-01	0	40	0	144179200	56	4773
2026-01-24 12:50:20.12	211.97	14.00	-42.3	-44.8	24.4	6.06e-01	0	40	0	145752064	56	4743
2026-01-24 12:50:21.11	212.11	14.09	-42.4	-44.9	24.3	6.08e-01	0	40	0	147849216	56	4777
2026-01-24 12:50:22.11	212.26	14.18	-42.3	-44.8	24.4	6.06e-01	0	40	0	149422080	56	4737
2026-01-24 12:50:23.10	212.41	14.27	-42.3	-44.8	24.5	6.06e-01	0	40	0	151519232	56	4731
2026-01-24 12:50:24.09	212.56	14.36	-42.2	-44.8	24.5	6.06e-01	0	40	0	153092096	56	4714
2026-01-24 12:50:25.09	212.71	14.45	-42.2	-44.7	24.5	6.05e-01	0	40	0	155189248	56	4703
2026-01-24 12:50:26.09	212.86	14.53	-42.3	-44.9	24.4	6.07e-01	0	40	0	156762112	56	4782
2026-01-24 12:50:27.08	213.01	14.62	-42.4	-45.0	24.3	6.07e-01	0	40	0	158859264	56	4827
2026-01-24 12:50:28.08	213.17	14.71	-42.2	-44.8	24.5	6.07e-01	0	40	0	160956416	56	4710
2026-01-24 12:50:29.07	213.32	14.80	-42.1	-44.6	24.6	6.07e-01	0	40	0	162529280	56	4634
2026-01-24 12:50:30.07	213.48	14.89	-42.2	-44.7	24.6	6.06e-01	0	40	0	164626432	56	4659
2026-01-24 12:50:31.06	213.64	14.98	-42.3	-44.7	24.5	6.06e-01	0	40	0	166199296	56	4697
2026-01-24 12:50:32.06	213.79	15.07	-42.2	-44.7	24.6	6.05e-01	0	40	0	168296448	56	4674
2026-01-24 12:50:33.06	213.95	15.17	-42.3	-44.8	24.5	6.06e-01	0	40	0	169869312	56	4732
2026-01-24 12:50:34.05	214.11	15.26	-42.2	-44.7	24.6	6.07e-01	0	40	0	171966464	56	4652
2026-01-24 12:50:35.05	214.27	15.35	-42.2	-44.7	24.5	6.05e-01	0	40	0	173539328	56	4677
2026-01-24 12:50:36.05	214.44	15.44	-42.2	-44.6	24.6	6.07e-01	0	40	0	175636480	56	4634
2026-01-24 12:50:37.04	214.60	15.53	-42.2	-44.6	24.6	6.06e-01	0	40	0	177733632	56	4647
2026-01-24 12:50:38.03	214.76	15.62	-42.3	-44.8	24.5	6.07e-01	0	40	0	179306496	56	4716
2026-01-24 12:50:39.03	214.93	15.71	-42.2	-44.6	24.6	6.06e-01	0	40	0	181403648	56	4640
2026-01-24 12:50:40.03	215.09	15.81	-42.1	-44.6	24.6	6.09e-01	0	40	0	182976512	56	4639
2026-01-24 12:50:41.02	215.26	15.90	-42.1	-44.7	24.6	6.07e-01	0	40	0	185073664	56	4657
2026-01-24 12:50:42.02	215.43	15.99	-42.2	-44.8	24.5	6.06e-01	0	40	0	186646528	56	4713
2026-01-24 12:50:43.01	215.60	16.08	-42.3	-44.9	24.4	6.05e-01	0	40	0	188743680	56	4763
2026-01-24 12:50:44.01	215.77	16.17	-42.2	-44.7	24.5	6.05e-01	0	40	0	190316544	56	4699
2026-01-24 12:50:45.00	215.94	16.27	-42.1	-44.6	24.7	6.07e-01	0	40	0	192413696	56	4608
2026-01-24 12:50:45.99	216.11	16.36	-41.8	-44.3	24.9	6.05e-01	0	40	0	194510848	55	4725
2026-01-24 12:50:46.99	216.28	16.45	-42.0	-44.4	24.8	6.06e-01	0	40	0	196083712	55	4798
2026-01-24 12:50:47.98	216.46	16.55	-41.9	-44.3	24.8	6.06e-01	0	40	0	198180864	55	4749
2026-01-24 12:50:48.98	216.64	16.64	-42.0	-44.5	24.8	6.05e-01	0	40	0	199753728	55	4818
2026-01-24 12:50:49.97	216.81	16.73	-42.0	-44.4	24.7	6.05e-01	0	40	0	201850880	55	4809
2026-01-24 12:50:50.97	216.99	16.83	-41.9	-44.4	24.8	6.05e-01	0	40	0	203423744	55	4795
2026-01-24 12:50:51.96	217.17	16.92	-41.9	-44.4	24.8	6.05e-01	0	40	0	205520896	55	4774
2026-01-24 12:50:52.96	217.35	17.01	-41.8	-44.3	24.9	6.06e-01	0	40	0	207093760	55	4729
2026-01-24 12:50:53.95	217.53	17.11	-41.9	-44.4	24.8	6.06e-01	0	40	0	209190912	55	4767
2026-01-24 12:50:54.95	217.71	17.20	-41.9	-44.4	24.8	6.06e-01	0	40	0	211288064	55	4776
2026-01-24 12:50:55.94	217.90	17.30	-42.0	-44.4	24.8	6.04e-01	0	40	0	212860928	55	4797
2026-01-24 12:50:56.94	218.08	17.39	-42.0	-44.4	24.8	6.07e-01	0	40	0	214958080	55	4778
2026-01-24 12:50:57.93	218.27	17.48	-41.9	-44.3	24.9	6.06e-01	0	40	0	216530944	55	4708
2026-01-24 12:50:58.93	218.46	17.58	-41.7	-44.1	25.0	6.06e-01	0	40	0	218628096	55	4641
2026-01-24 12:50:59.92	218.64	17.67	-41.8	-44.2	24.9	6.06e-01	0	40	0	220200960	55	4701
2026-01-24 12:51:00.91	218.83	17.77	-41.9	-44.3	24.9	6.08e-01	0	40	0	222298112	55	4735
2026-01-24 12:51:01.91	219.03	17.86	-41.8	-44.3	24.9	6.07e-01	0	40	0	223870976	55	4720
2026-01-24 12:51:02.90	219.22	17.96	-41.8	-44.3	24.9	6.08e-01	0	40	0	225968128	55	4736
2026-01-24 12:51:03.90	219.41	18.05	-41.8	-44.2	25.0	6.07e-01	0	40	0	228065280	55	4691
2026-01-24 12:51:04.89	219.60	18.15	-41.8	-44.2	25.0	6.05e-01	0	40	0	229638144	55	4697
2026-01-24 12:51:05.89	219.80	18.24	-41.9	-44.3	24.8	6.06e-01	0	40	0	231735296	55	4741
2026-01-24 12:51:06.88	220.00	18.34	-41.8	-44.3	24.9	6.05e-01	0	40	0	233308160	55	4723
2026-01-24 12:51:07.88	220.20	18.44	-41.8	-44.2	25.0	6.06e-01	0	40	0	235405312	55	4672
2026-01-24 12:51:08.87	220.40	18.53	-41.8	-44.2	25.0	6.07e-01	0	40	0	236978176	55	4674
2026-01-24 12:51:09.87	220.60	18.63	-41.8	-44.2	25.0	6.07e-01	0	40	0	239075328	55	4681
2026-01-24 12:51:10.86	220.80	18.72	-41.8	-44.2	25.0	6.07e-01	0	40	0	240648192	55	4695
2026-01-24 12:51:11.86	221.01	18.82	-41.9	-44.3	24.9	6.07e-01	0	40	0	242745344	55	4734
2026-01-24 12:51:12.85	221.21	18.91	-41.9	-44.3	24.9	6.05e-01	0	40	0	244842496	55	4722
2026-01-24 12:51:13.85	221.42	19.01	-41.8	-44.2	25.0	6.07e-01	0	40	0	246415360	55	4692
2026-01-24 12:51:14.85	221.63	19.11	-41.9	-44.3	25.0	6.08e-01	0	40	0	248512512	55	4723
2026-01-24 12:51:15.84	221.84	19.20	-41.9	-44.3	24.9	6.07e-01	0	40	0	250085376	55	4758
2026-01-24 12:51:16.83	222.05	19.30	-42.0	-44.4	24.9	6.08e-01	0	40	0	252182528	55	4763
2026-01-24 12:51:17.83	222.26	19.40	-42.0	-44.4	24.9	6.04e-01	0	40	0	253755392	55	4779
2026-01-24 12:51:18.82	222.47	19.49	-42.0	-44.3	24.9	6.06e-01	0	40	0	255852544	55	4758
2026-01-24 12:51:19.82	222.69	19.59	-42.0	-44.3	24.9	6.05e-01	0	40	0	257949696	55	4754
2026-01-24 12:51:20.81	222.90	19.68	-41.9	-44.2	25.0	6.05e-01	0	40	0	259522560	55	4704
2026-01-24 12:51:21.80	223.12	19.78	-41.9	-44.3	25.0	6.07e-01	0	40	0	261619712	55	4728
2026-01-24 12:51:22.80	223.34	19.88	-42.0	-44.3	24.9	6.06e-01	0	40	0	263192576	55	4751
2026-01-24 12:51:23.79	223.56	19.97	-42.0	-44.4	24.9	6.09e-01	0	40	0	265289728	55	4781
2026-01-24 12:51:24.79	223.78	20.07	-42.0	-44.4	24.8	6.07e-01	0	40	0	266862592	55	4773
2026-01-24 12:51:25.78	224.00	20.16	-42.1	-44.5	24.8	6.07e-01	0	40	0	268959744	55	4821
2026-01-24 12:51:26.78	224.23	20.26	-42.1	-44.5	24.8	6.04e-01	0	40	0	270532608	55	4844
2026-01-24 12:51:27.77	224.45	20.36	-42.1	-44.6	24.7	6.06e-01	0	40	0	272629760	55	4882
2026-01-24 12:51:28.77	224.68	20.45	-41.9	-44.3	25.0	6.07e-01	0	40	0	274726912	55	4736
2026-01-24 12:51:29.76	224.91	20.55	-41.9	-44.3	25.0	6.06e-01	0	40	0	276299776	55	4708
2026-01-24 12:51:30.75	225.14	20.65	-41.9	-44.3	24.9	6.06e-01	0	40	0	278396928	55	4747
2026-01-24 12:51:31.75	225.37	20.74	-41.9	-44.3	25.0	6.05e-01	0	40	0	279969792	55	4720
2026-01-24 12:51:32.74	225.61	20.84	-41.9	-44.3	25.0	6.08e-01	0	40	0	282066944	55	4726
2026-01-24 12:51:33.74	225.84	20.93	-42.0	-44.4	24.9	6.08e-01	0	40	0	283639808	55	4768
2026-01-24 12:51:34.73	226.08	21.03	-42.0	-44.4	24.8	6.06e-01	0	40	0	285736960	55	4794
2026-01-24 12:51:35.73	226.32	21.13	-42.1	-44.5	24.8	6.06e-01	0	40	0	287309824	55	4832
2026-01-24 12:51:36.72	226.56	21.22	-42.2	-44.6	24.7	6.06e-01	0	40	0	289406976	55	4878
2026-01-24 12:51:37.72	226.80	21.32	-42.1	-44.5	24.8	6.07e-01	0	40	0	291504128	55	4821
2026-01-24 12:51:38.72	227.04	21.41	-42.1	-44.5	24.8	6.07e-01	0	40	0	293076992	55	4859
2026-01-24 12:51:39.71	227.29	21.51	-42.1	-44.5	24.8	6.06e-01	0	40	0	295174144	55	4834
2026-01-24 12:51:40.71	227.53	21.61	-42.0	-44.4	24.9	6.08e-01	0	40	0	296747008	55	4773
2026-01-24 12:51:41.70	227.78	21.70	-42.0	-44.4	24.9	6.06e-01	0	40	0	298844160	55	4774
2026-01-24 12:51:42.70	228.03	21.80	-42.2	-44.6	24.7	6.07e-01	0	40	0	300417024	55	4881
2026-01-24 12:51:43.69	228.28	21.89	-42.1	-44.5	24.7	6.04e-01	0	40	0	302514176	55	4865
2026-01-24 12:51:44.69	228.53	21.99	-42.1	-44.5	24.7	6.08e-01	0	40	0	304087040	55	4858
2026-01-24 12:51:45.68	228.78	22.08	-42.0	-44.4	24.9	6.04e-01	0	40	0	306184192	55	4781
2026-01-24 12:51:46.68	229.04	22.18	-42.1	-44.5	24.8	6.03e-01	0	40	0	308281344	55	4851
2026-01-24 12:51:47.67	229.30	22.27	-42.2	-44.6	24.7	6.07e-01	0	40	0	309854208	55	4895
2026-01-24 12:51:48.67	229.56	22.36	-42.0	-44.4	24.8	6.06e-01	0	40	0	311951360	55	4801
2026-01-24 12:51:49.66	229.82	22.46	-42.1	-44.5	24.8	6.09e-01	0	40	0	313524224	55	4838
2026-01-24 12:51:50.66	230.08	22.55	-42.2	-44.6	24.7	6.06e-01	0	40	0	315621376	55	4913
2026-01-24 12:51:51.65	230.34	22.64	-42.2	-44.6	24.7	6.06e-01	0	40	0	317194240	55	4908
2026-01-24 12:51:52.65	230.61	22.74	-42.2	-44.6	24.7	6.06e-01	0	40	0	319291392	55	4899
2026-01-24 12:51:53.64	230.87	22.83	-42.1	-44.6	24.8	6.06e-01	0	40	0	320864256	55	4871
2026-01-24 12:51:54.64	231.14	22.92	-42.2	-44.7	24.7	6.06e-01	0	40	0	322961408	55	4935
2026-01-24 12:51:55.63	231.41	23.02	-42.1	-44.5	24.8	6.06e-01	0	40	0	325058560	55	4852
2026-01-24 12:51:56.63	231.68	23.11	-42.2	-44.6	24.7	6.05e-01	0	40	0	326631424	55	4896
2026-01-24 12:51:57.62	231.96	23.20	-42.1	-44.5	24.8	6.07e-01	0	40	0	328728576	55	4825
2026-01-24 12:51:58.62	232.23	23.29	-42.2	-44.6	24.6	6.06e-01	0	40	0	330301440	55	4922
2026-01-24 12:51:59.61	232.51	23.38	-42.2	-44.6	24.7	6.05e-01	0	40	0	332398592	55	4886
2026-01-24 12:52:00.61	232.79	23.48	-42.2	-44.7	24.6	6.07e-01	0	40	0	333971456	55	4939
2026-01-24 12:52:01.60	233.06	23.57	-42.2	-44.6	24.7	6.08e-01	0	40	0	336068608	55	4923
2026-01-24 12:52:02.60	233.35	23.66	-42.1	-44.6	24.7	6.07e-01	0	40	0	338165760	55	4905
2026-01-24 12:52:03.59	233.63	23.75	-42.2	-44.8	24.6	6.07e-01	0	40	0	339738624	55	4992
2026-01-24 12:52:04.59	233.92	23.84	-42.3	-44.8	24.5	6.08e-01	0	40	0	341835776	55	5020
2026-01-24 12:52:05.58	234.20	23.93	-42.2	-44.7	24.6	6.06e-01	0	40	0	343408640	55	4953
2026-01-24 12:52:06.58	234.49	24.02	-42.3	-44.9	24.5	6.06e-01	0	40	0	345505792	55	5059
2026-01-24 12:52:07.57	234.78	24.10	-42.4	-45.0	24.3	6.07e-01	0	40	0	347078656	55	5152
2026-01-24 12:52:08.56	235.07	24.19	-42.4	-44.9	24.4	6.08e-01	0	40	0	349175808	55	5075
2026-01-24 12:52:09.56	235.36	24.28	-42.4	-44.9	24.4	6.06e-01	0	40	0	350748672	55	5081
2026-01-24 12:52:10.55	235.66	24.37	-42.4	-45.0	24.4	6.05e-01	0	40	0	352845824	55	5111
2026-01-24 12:52:11.55	235.95	24.45	-42.3	-44.7	24.6	6.05e-01	0	40	0	354942976	55	4980
2026-01-24 12:52:12.54	236.25	24.54	-42.2	-44.7	24.6	6.04e-01	0	40	0	356515840	55	4953
2026-01-24 12:52:13.54	236.55	24.63	-42.3	-44.7	24.6	6.06e-01	0	40	0	358612992	55	4982
2026-01-24 12:52:14.53	236.85	24.71	-42.3	-44.8	24.6	6.05e-01	0	40	0	360185856	55	5006
2026-01-24 12:52:15.53	237.16	24.80	-42.3	-44.8	24.5	6.06e-01	0	40	0	362283008	55	5012
2026-01-24 12:52:16.53	237.46	24.88	-42.4	-44.8	24.5	6.07e-01	0	40	0	363855872	55	5040
2026-01-24 12:52:17.52	237.77	24.96	-42.4	-44.9	24.4	6.07e-01	0	40	0	365953024	55	5100
2026-01-24 12:52:18.52	238.08	25.05	-42.3	-44.8	24.5	6.07e-01	0	40	0	368050176	55	5027
2026-01-24 12:52:19.51	238.39	25.13	-42.2	-44.7	24.7	6.06e-01	0	40	0	369623040	55	4931
2026-01-24 12:52:20.51	238.70	25.21	-42.2	-44.6	24.8	6.06e-01	0	40	0	371720192	55	4883
2026-01-24 12:52:21.50	239.01	25.29	-42.3	-44.7	24.6	6.08e-01	0	40	0	373293056	55	4957
2026-01-24 12:52:22.50	239.33	25.38	-42.3	-44.8	24.6	6.06e-01	0	40	0	375390208	55	4995
2026-01-24 12:52:23.49	239.64	25.46	-42.3	-44.7	24.7	6.07e-01	0	40	0	376963072	55	4930
2026-01-24 12:52:24.49	239.96	25.54	-42.2	-44.6	24.7	6.06e-01	0	40	0	379060224	55	4892
2026-01-24 12:52:25.48	240.28	25.62	-42.3	-44.8	24.6	6.09e-01	0	40	0	380633088	55	4991
2026-01-24 12:52:26.48	240.60	25.69	-42.2	-44.7	24.7	6.04e-01	0	40	0	382730240	55	4927
2026-01-24 12:52:27.47	240.93	25.77	-42.2	-44.7	24.7	6.08e-01	0	40	0	384827392	55	4939
2026-01-24 12:52:28.47	241.25	25.85	-42.2	-44.6	24.7	6.05e-01	0	40	0	386400256	55	4913
2026-01-24 12:52:29.46	241.58	25.93	-42.2	-44.7	24.7	6.06e-01	0	40	0	388497408	55	4930
2026-01-24 12:52:30.46	241.91	26.00	-42.3	-44.8	24.6	6.06e-01	0	40	0	390070272	55	5010
2026-01-24 12:52:31.45	242.23	26.08	-42.4	-44.8	24.6	6.05e-01	0	40	0	392167424	55	5025
2026-01-24 12:52:32.45	242.57	26.15	-42.3	-44.7	24.6	6.07e-01	0	40	0	393740288	55	4968
2026-01-24 12:52:33.44	242.90	26.22	-42.3	-44.7	24.7	6.06e-01	0	40	0	395837440	55	4954
2026-01-24 12:52:34.43	243.23	26.30	-42.3	-44.7	24.6	6.05e-01	0	40	0	397410304	55	4960
2026-01-24 12:52:35.43	243.57	26.37	-42.3	-44.7	24.7	6.06e-01	0	40	0	399507456	55	4957
2026-01-24 12:52:36.42	243.90	26.44	-42.5	-45.0	24.5	6.08e-01	0	40	0	401604608	55	5117
2026-01-24 12:52:37.42	244.24	26.51	-42.6	-45.0	24.4	6.05e-01	0	40	0	403177472	55	5140
2026-01-24 12:52:38.41	244.58	26.58	-42.6	-45.0	24.4	6.07e-01	0	40	0	405274624	55	5134
2026-01-24 12:52:39.41	244.93	26.65	-42.3	-44.8	24.6	6.07e-01	0	40	0	406847488	55	4988
2026-01-24 12:52:40.40	245.27	26.72	-42.4	-44.8	24.5	6.06e-01	0	40	0	408944640	55	5040
2026-01-24 12:52:41.39	245.61	26.78	-42.2	-44.6	24.7	6.06e-01	0	40	0	410517504	55	4903
2026-01-24 12:52:42.39	245.96	26.85	-42.0	-44.4	24.9	6.06e-01	0	40	0	412614656	55	4805
2026-01-24 12:52:43.39	246.31	26.91	-42.1	-44.5	24.8	6.06e-01	0	40	0	414187520	55	4866
2026-01-24 12:52:44.38	246.65	26.98	-42.2	-44.7	24.7	6.08e-01	0	40	0	416284672	55	4932
2026-01-24 12:52:45.38	247.01	27.04	-42.1	-44.6	24.8	6.07e-01	0	40	0	418381824	55	4898
2026-01-24 12:52:46.37	247.36	27.10	-42.2	-44.6	24.7	6.08e-01	0	40	0	419954688	55	4922
2026-01-24 12:52:47.37	247.71	27.16	-42.2	-44.6	24.7	6.05e-01	0	40	0	422051840	55	4917
2026-01-24 12:52:48.36	248.07	27.22	-42.1	-44.6	24.7	6.06e-01	0	40	0	423624704	55	4898
2026-01-24 12:52:49.36	248.42	27.28	-42.0	-44.5	24.8	6.04e-01	0	40	0	425721856	55	4841
2026-01-24 12:52:50.35	248.78	27.34	-42.1	-44.6	24.8	6.07e-01	0	40	0	427294720	55	4888
2026-01-24 12:52:51.35	249.14	27.40	-42.1	-44.5	24.9	6.06e-01	0	40	0	429391872	55	4846
2026-01-24 12:52:52.34	249.50	27.46	-42.1	-44.5	24.9	6.08e-01	0	40	0	430964736	55	4832
2026-01-24 12:52:53.34	249.86	27.51	-42.2	-44.6	24.6	6.05e-01	0	40	0	433061888	55	4905
2026-01-24 12:52:54.33	250.22	27.57	-42.0	-44.4	24.9	6.07e-01	0	40	0	435159040	55	4778
2026-01-24 12:52:55.33	250.59	27.62	-41.9	-44.3	25.0	6.07e-01	0	40	0	436731904	55	4756
2026-01-24 12:52:56.33	250.95	27.67	-42.0	-44.5	24.9	6.04e-01	0	40	0	438829056	55	4831
2026-01-24 12:52:57.32	251.32	27.72	-41.9	-44.4	25.0	6.06e-01	0	40	0	440401920	55	4760
2026-01-24 12:52:58.32	251.69	27.77	-42.0	-44.4	24.9	6.07e-01	0	40	0	442499072	55	4781
2026-01-24 12:52:59.31	252.05	27.82	-42.2	-44.6	24.8	6.07e-01	0	40	0	444071936	55	4876
2026-01-24 12:53:00.30	252.42	27.87	-42.1	-44.5	24.9	6.06e-01	0	40	0	446169088	55	4855
2026-01-24 12:53:01.29	252.79	27.91	-42.0	-44.3	25.0	6.07e-01	0	40	0	447741952	55	4756
2026-01-24 12:53:02.29	253.16	27.96	-42.0	-44.4	24.9	6.07e-01	0	40	0	449839104	55	4798
2026-01-24 12:53:03.29	253.54	28.00	-41.9	-44.3	24.9	6.05e-01	0	40	0	451936256	55	4754
2026-01-24 12:53:04.28	253.91	28.05	-42.0	-44.4	25.0	6.07e-01	0	40	0	453509120	55	4780
2026-01-24 12:53:05.27	254.28	28.09	-41.9	-44.3	25.0	6.05e-01	0	40	0	455606272	55	4735
2026-01-24 12:53:06.27	254.66	28.13	-42.0	-44.4	24.9	6.07e-01	0	40	0	457179136	55	4791
2026-01-24 12:53:07.26	255.04	28.17	-41.9	-44.3	25.1	6.06e-01	0	40	0	459276288	55	4725
2026-01-24 12:53:08.26	255.42	28.20	-42.0	-44.3	25.0	6.09e-01	0	40	0	460849152	55	4756
2026-01-24 12:53:09.25	255.79	28.24	-41.9	-44.4	25.0	6.05e-01	0	40	0	462946304	55	4761
2026-01-24 12:53:10.25	256.17	28.28	-41.8	-44.2	25.2	6.04e-01	0	40	0	464519168	55	4666
2026-01-24 12:53:11.24	256.55	28.31	-41.8	-44.2	25.1	6.07e-01	0	40	0	466616320	55	4676
2026-01-24 12:53:12.24	256.94	28.34	-41.8	-44.2	25.1	6.07e-01	0	40	0	468713472	55	4678
2026-01-24 12:53:13.23	257.32	28.38	-41.9	-44.3	25.0	6.07e-01	0	40	0	470286336	55	4733
2026-01-24 12:53:14.22	257.70	28.41	-41.9	-44.2	25.1	6.05e-01	0	40	0	472383488	55	4693
2026-01-24 12:53:15.22	258.08	28.44	-41.7	-44.0	25.3	6.09e-01	0	40	0	473956352	55	4567
2026-01-24 12:53:16.21	258.46	28.46	-41.7	-44.1	25.3	6.09e-01	0	40	0	476053504	55	4608
2026-01-24 12:53:17.21	258.85	28.49	-41.7	-44.1	25.2	6.04e-01	0	41	0	477626368	55	4649
2026-01-24 12:53:18.20	259.23	28.51	-41.7	-44.1	25.3	6.06e-01	0	40	0	479723520	55	4606
2026-01-24 12:53:19.20	259.62	28.54	-41.8	-44.2	25.1	6.05e-01	0	40	0	481296384	55	4674
2026-01-24 12:53:20.19	260.01	28.56	-41.7	-44.0	25.2	6.06e-01	0	40	0	483393536	55	4598
2026-01-24 12:53:21.19	260.39	28.58	-41.7	-44.1	25.2	6.07e-01	0	40	0	485490688	55	4629
2026-01-24 12:53:22.18	260.78	28.60	-41.7	-44.1	25.2	6.04e-01	0	40	0	487063552	55	4644
2026-01-24 12:53:23.18	261.17	28.62	-41.6	-44.0	25.3	6.04e-01	0	40	0	489160704	55	4558
2026-01-24 12:53:24.17	261.56	28.64	-41.7	-44.1	25.2	6.05e-01	0	40	0	490733568	55	4625
2026-01-24 12:53:25.17	261.95	28.65	-41.8	-44.1	25.1	6.04e-01	0	40	0	492830720	55	4637
2026-01-24 12:53:26.16	262.33	28.67	-41.8	-44.2	25.1	6.07e-01	0	40	0	494403584	55	4685
2026-01-24 12:53:27.16	262.73	28.68	-41.6	-44.0	25.3	6.05e-01	0	40	0	496500736	55	4573
2026-01-24 12:53:28.15	263.11	28.69	-41.6	-44.1	25.3	6.07e-01	0	40	0	498073600	55	4604
2026-01-24 12:53:29.15	263.50	28.70	-41.5	-43.9	25.4	6.05e-01	0	40	0	500170752	55	4527
2026-01-24 12:53:30.14	263.89	28.71	-41.5	-43.9	25.4	6.05e-01	0	40	0	502267904	54	4803
2026-01-24 12:53:31.14	264.29	28.72	-41.6	-44.0	25.3	6.06e-01	0	40	0	503840768	54	4827
2026-01-24 12:53:32.13	264.67	28.72	-41.7	-44.1	25.2	6.07e-01	0	40	0	505937920	54	4883
2026-01-24 12:53:33.12	265.06	28.73	-41.6	-43.9	25.4	6.06e-01	0	40	0	507510784	54	4805
2026-01-24 12:53:34.12	265.46	28.73	-41.8	-44.1	25.3	6.05e-01	0	40	0	509607936	55	4647
2026-01-24 12:53:35.12	265.85	28.73	-41.6	-44.0	25.4	6.05e-01	0	40	0	511180800	54	4836
2026-01-24 12:53:36.11	266.24	28.74	-41.5	-43.9	25.3	6.06e-01	0	40	0	513277952	54	4776
2026-01-24 12:53:37.11	266.63	28.73	-41.4	-43.7	25.5	6.05e-01	0	40	0	514850816	54	4667
2026-01-24 12:53:38.10	267.02	28.73	-41.4	-43.8	25.5	6.07e-01	0	40	0	516947968	54	4710
2026-01-24 12:53:39.10	267.41	28.73	-41.5	-43.8	25.4	6.05e-01	0	40	0	519045120	54	4754
2026-01-24 12:53:40.09	267.80	28.72	-41.5	-43.8	25.4	6.06e-01	0	40	0	520617984	54	4720
2026-01-24 12:53:41.09	268.19	28.72	-41.6	-43.9	25.3	6.06e-01	0	40	0	522715136	54	4810
2026-01-24 12:53:42.09	268.58	28.71	-41.5	-43.8	25.4	6.05e-01	0	40	0	524288000	54	4742
2026-01-24 12:53:43.08	268.97	28.70	-41.3	-43.7	25.5	6.07e-01	0	40	0	526385152	54	4659
2026-01-24 12:53:44.07	269.36	28.69	-41.3	-43.7	25.5	6.07e-01	0	40	0	527958016	54	4659
2026-01-24 12:53:45.07	269.75	28.68	-41.5	-43.8	25.4	6.08e-01	0	40	0	530055168	54	4729
2026-01-24 12:53:46.06	270.14	28.66	-41.6	-43.9	25.3	6.07e-01	0	40	0	531628032	54	4794
2026-01-24 12:53:47.06	270.53	28.65	-41.4	-43.7	25.5	6.06e-01	0	40	0	533725184	54	4668
2026-01-24 12:53:48.05	270.91	28.63	-41.5	-43.8	25.4	6.08e-01	0	40	0	535822336	54	4721
2026-01-24 12:53:49.05	271.30	28.62	-41.5	-43.8	25.4	6.05e-01	0	40	0	537395200	54	4734
2026-01-24 12:53:50.05	271.69	28.60	-41.6	-44.0	25.2	6.05e-01	0	40	0	539492352	54	4828
2026-01-24 12:53:51.04	272.08	28.58	-41.6	-43.9	25.3	6.05e-01	0	40	0	541065216	54	4807
2026-01-24 12:53:52.03	272.46	28.56	-41.6	-43.9	25.4	6.07e-01	0	40	0	543162368	54	4787
2026-01-24 12:53:53.03	272.85	28.53	-41.5	-43.8	25.4	6.06e-01	0	40	0	544735232	54	4744
2026-01-24 12:53:54.03	273.24	28.51	-41.4	-43.7	25.5	6.05e-01	0	40	0	546832384	54	4689
2026-01-24 12:53:55.02	273.62	28.48	-41.5	-43.8	25.4	6.05e-01	0	40	0	548929536	54	4728
2026-01-24 12:53:56.02	274.01	28.46	-41.3	-43.6	25.6	6.07e-01	0	40	0	550502400	54	4642
2026-01-24 12:53:57.01	274.39	28.43	-41.3	-43.6	25.6	6.05e-01	0	40	0	552599552	54	4629
2026-01-24 12:53:58.01	274.77	28.40	-41.5	-43.8	25.5	6.06e-01	0	40	0	554172416	54	4729
2026-01-24 12:53:59.00	275.15	28.37	-41.4	-43.7	25.5	6.06e-01	0	40	0	556269568	54	4669
2026-01-24 12:54:00.00	275.54	28.34	-41.4	-43.7	25.5	6.06e-01	0	40	0	557842432	54	4696
2026-01-24 12:54:00.99	275.91	28.30	-41.4	-43.6	25.6	6.06e-01	0	40	0	559939584	54	4647
2026-01-24 12:54:01.99	276.30	28.27	-41.3	-43.6	25.7	6.08e-01	0	40	0	562036736	54	4605
2026-01-24 12:54:02.99	276.68	28.23	-41.4	-43.7	25.5	6.07e-01	0	40	0	563609600	54	4689
2026-01-24 12:54:03.98	277.05	28.20	-41.3	-43.6	25.6	6.06e-01	0	40	0	565706752	54	4617
2026-01-24 12:54:04.98	277.43	28.16	-41.2	-43.5	25.7	6.07e-01	0	40	0	567279616	54	4577
2026-01-24 12:54:05.97	277.80	28.12	-41.4	-43.7	25.6	6.07e-01	0	40	0	569376768	54	4663
2026-01-24 12:54:06.97	278.18	28.08	-41.3	-43.6	25.6	6.05e-01	0	40	0	570949632	54	4642
2026-01-24 12:54:07.96	278.55	28.04	-41.3	-43.6	25.7	6.06e-01	0	40	0	573046784	54	4609
2026-01-24 12:54:08.96	278.93	27.99	-41.3	-43.6	25.6	6.05e-01	0	40	0	574619648	54	4637
2026-01-24 12:54:09.95	279.30	27.95	-41.3	-43.7	25.6	6.07e-01	0	40	0	576716800	54	4658
2026-01-24 12:54:10.94	279.67	27.91	-41.3	-43.7	25.6	6.06e-01	0	40	0	578813952	54	4653
2026-01-24 12:54:11.94	280.04	27.86	-41.5	-43.8	25.4	6.05e-01	0	40	0	580386816	54	4737
2026-01-24 12:54:12.93	280.40	27.81	-41.4	-43.6	25.6	6.05e-01	0	40	0	582483968	54	4647
2026-01-24 12:54:13.93	280.77	27.76	-41.2	-43.5	25.8	6.05e-01	0	40	0	584056832	54	4567
2026-01-24 12:54:14.92	281.14	27.71	-41.3	-43.6	25.7	6.05e-01	0	40	0	586153984	54	4603
2026-01-24 12:54:15.92	281.50	27.66	-41.4	-43.7	25.6	6.06e-01	0	40	0	587726848	54	4662
2026-01-24 12:54:16.91	281.87	27.61	-41.4	-43.7	25.6	6.07e-01	0	40	0	589824000	54	4677
2026-01-24 12:54:17.91	282.23	27.56	-41.3	-43.6	25.6	6.05e-01	0	40	0	591396864	54	4626
2026-01-24 12:54:18.90	282.59	27.50	-41.4	-43.6	25.6	6.07e-01	0	40	0	593494016	54	4648
2026-01-24 12:54:19.89	282.95	27.45	-41.3	-43.6	25.6	6.06e-01	0	40	0	595591168	54	4636
2026-01-24 12:54:20.89	283.31	27.39	-41.2	-43.5	25.8	6.07e-01	0	40	0	597164032	54	4569
2026-01-24 12:54:21.88	283.66	27.33	-41.5	-43.8	25.5	6.05e-01	0	40	0	599261184	54	4740
2026-01-24 12:54:22.88	284.02	27.28	-41.4	-43.7	25.5	6.06e-01	0	40	0	600834048	54	4682
2026-01-24 12:54:23.87	284.38	27.22	-41.3	-43.5	25.7	6.03e-01	0	40	0	602931200	54	4588
2026-01-24 12:54:24.87	284.73	27.16	-41.4	-43.7	25.6	6.06e-01	0	40	0	604504064	54	4670
2026-01-24 12:54:25.86	285.08	27.10	-41.4	-43.7	25.5	6.08e-01	0	40	0	606601216	54	4690
2026-01-24 12:54:26.86	285.43	27.03	-41.5	-43.7	25.5	6.05e-01	0	40	0	608174080	54	4696
2026-01-24 12:54:27.85	285.78	26.97	-41.3	-43.6	25.6	6.05e-01	0	40	0	610271232	54	4613
2026-01-24 12:54:28.85	286.13	26.91	-41.3	-43.6	25.7	6.06e-01	0	40	0	612368384	54	4604
2026-01-24 12:54:29.84	286.47	26.84	-41.4	-43.7	25.6	6.07e-01	0	40	0	613941248	54	4670
2026-01-24 12:54:30.84	286.82	26.77	-41.4	-43.7	25.5	6.05e-01	0	40	0	616038400	54	4687
2026-01-24 12:54:31.83	287.16	26.71	-41.5	-43.8	25.5	6.08e-01	0	40	0	617611264	54	4707
2026-01-24 12:54:32.83	287.51	26.64	-41.4	-43.7	25.5	6.06e-01	0	40	0	619708416	54	4675
2026-01-24 12:54:33.82	287.84	26.57	-41.5	-43.8	25.3	6.06e-01	0	40	0	621281280	54	4746
2026-01-24 12:54:34.82	288.19	26.50	-41.4	-43.7	25.5	6.05e-01	0	40	0	623378432	54	4684
2026-01-24 12:54:35.81	288.52	26.43	-41.4	-43.6	25.5	6.07e-01	0	40	0	624951296	54	4642
2026-01-24 12:54:36.81	288.86	26.36	-41.4	-43.7	25.5	6.08e-01	0	40	0	627048448	54	4681
2026-01-24 12:54:37.80	289.19	26.29	-41.5	-43.8	25.4	6.07e-01	0	40	0	629145600	54	4708
2026-01-24 12:54:38.80	289.53	26.22	-41.4	-43.7	25.5	6.05e-01	0	40	0	630718464	54	4681
2026-01-24 12:54:39.79	289.85	26.14	-41.5	-43.7	25.5	6.07e-01	0	40	0	632815616	54	4699
2026-01-24 12:54:40.79	290.19	26.07	-41.4	-43.7	25.5	6.07e-01	0	40	0	634388480	54	4663
2026-01-24 12:54:41.78	290.51	26.00	-41.4	-43.7	25.5	6.06e-01	0	40	0	636485632	54	4691
2026-01-24 12:54:42.78	290.84	25.92	-41.3	-43.6	25.6	6.06e-01	0	40	0	638058496	54	4645
2026-01-24 12:54:43.77	291.16	25.84	-41.3	-43.7	25.5	6.08e-01	0	40	0	640155648	54	4676
2026-01-24 12:54:44.77	291.49	25.77	-41.5	-43.9	25.3	6.06e-01	0	40	0	642252800	54	4798
2026-01-24 12:54:45.76	291.81	25.69	-41.4	-43.8	25.4	6.04e-01	0	40	0	643825664	54	4733
2026-01-24 12:54:46.75	292.13	25.61	-41.4	-43.8	25.4	6.07e-01	0	40	0	645922816	54	4723
2026-01-24 12:54:47.75	292.45	25.53	-41.5	-43.8	25.4	6.07e-01	0	40	0	647495680	54	4756
2026-01-24 12:54:48.75	292.76	25.45	-41.4	-43.7	25.5	6.05e-01	0	40	0	649592832	54	4667
2026-01-24 12:54:49.74	293.08	25.37	-41.5	-43.8	25.4	6.08e-01	0	40	0	651165696	54	4729
2026-01-24 12:54:50.74	293.39	25.29	-41.5	-43.8	25.4	6.05e-01	0	40	0	653262848	54	4755
2026-01-24 12:54:51.73	293.70	25.21	-41.4	-43.7	25.4	6.07e-01	0	40	0	654835712	54	4692
2026-01-24 12:54:52.72	294.01	25.13	-41.5	-43.8	25.3	6.05e-01	0	40	0	656932864	54	4739
2026-01-24 12:54:53.72	294.32	25.05	-41.5	-43.8	25.3	6.06e-01	0	40	0	659030016	54	4755
2026-01-24 12:54:54.71	294.63	24.97	-41.5	-43.8	25.3	6.05e-01	0	40	0	660602880	54	4733
2026-01-24 12:54:55.71	294.93	24.88	-41.6	-43.9	25.3	6.07e-01	0	40	0	662700032	54	4794
2026-01-24 12:54:56.70	295.23	24.80	-41.5	-43.8	25.3	6.06e-01	0	40	0	664272896	54	4736
2026-01-24 12:54:57.70	295.54	24.71	-41.5	-43.8	25.4	6.07e-01	0	40	0	666370048	54	4721
2026-01-24 12:54:58.69	295.84	24.63	-41.5	-43.8	25.4	6.08e-01	0	40	0	667942912	54	4711
2026-01-24 12:54:59.69	296.13	24.54	-41.4	-43.7	25.5	6.06e-01	0	40	0	670040064	54	4691
2026-01-24 12:55:00.68	296.43	24.46	-41.4	-43.8	25.4	6.06e-01	0	40	0	671612928	54	4715
2026-01-24 12:55:01.68	296.73	24.37	-41.4	-43.8	25.4	6.06e-01	0	40	0	673710080	54	4715
2026-01-24 12:55:02.67	297.02	24.28	-41.5	-43.8	25.4	6.05e-01	0	40	0	675807232	54	4720
2026-01-24 12:55:03.67	297.31	24.20	-41.6	-43.9	25.3	6.04e-01	0	40	0	677380096	54	4802
2026-01-24 12:55:04.66	297.60	24.11	-41.5	-43.8	25.4	6.05e-01	0	40	0	679477248	54	4748
2026-01-24 12:55:05.66	297.89	24.02	-41.3	-43.6	25.5	6.07e-01	0	40	0	681050112	54	4643
2026-01-24 12:55:06.65	298.17	23.93	-41.4	-43.8	25.4	6.05e-01	0	40	0	683147264	54	4732
2026-01-24 12:55:07.65	298.46	23.84	-41.4	-43.7	25.5	6.06e-01	0	40	0	684720128	54	4700
2026-01-24 12:55:08.64	298.74	23.75	-41.4	-43.7	25.5	6.06e-01	0	40	0	686817280	54	4666
2026-01-24 12:55:09.64	299.03	23.66	-41.5	-43.9	25.4	6.06e-01	0	40	0	688390144	54	4778
2026-01-24 12:55:10.63	299.30	23.58	-41.6	-43.9	25.3	6.06e-01	0	40	0	690487296	54	4807
2026-01-24 12:55:11.63	299.58	23.48	-41.5	-43.8	25.3	6.06e-01	0	40	0	692584448	54	4743
2026-01-24 12:55:12.62	299.86	23.39	-41.5	-43.9	25.3	6.06e-01	0	40	0	694157312	54	4767
2026-01-24 12:55:13.62	300.14	23.30	-41.4	-43.7	25.5	6.06e-01	0	40	0	696254464	54	4677
2026-01-24 12:55:14.61	300.41	23.21	-41.3	-43.6	25.5	6.06e-01	0	40	0	697827328	54	4641
2026-01-24 12:55:15.61	300.68	23.12	-41.4	-43.7	25.5	6.06e-01	0	40	0	699924480	54	4665
2026-01-24 12:55:16.60	300.95	23.03	-41.4	-43.7	25.5	6.06e-01	0	40	0	701497344	54	4679
2026-01-24 12:55:17.59	301.22	22.94	-41.4	-43.7	25.5	6.06e-01	0	40	0	703594496	54	4676
2026-01-24 12:55:18.59	301.49	22.85	-41.4	-43.7	25.4	6.06e-01	0	40	0	705167360	54	4703
2026-01-24 12:55:19.58	301.75	22.75	-41.5	-43.8	25.4	6.05e-01	0	40	0	707264512	54	4743
2026-01-24 12:55:20.57	302.01	22.66	-41.5	-43.9	25.3	6.05e-01	0	40	0	709361664	54	4785
2026-01-24 12:55:21.57	302.27	22.57	-41.5	-43.9	25.3	6.07e-01	0	40	0	710934528	54	4773
2026-01-24 12:55:22.56	302.53	22.48	-41.4	-43.7	25.4	6.06e-01	0	40	0	713031680	54	4694
2026-01-24 12:55:23.56	302.79	22.38	-41.5	-43.8	25.3	6.07e-01	0	40	0	714604544	54	4759
2026-01-24 12:55:24.55	303.05	22.29	-41.4	-43.7	25.5	6.07e-01	0	40	0	716701696	54	4665
2026-01-24 12:55:25.55	303.31	22.19	-41.4	-43.7	25.5	6.06e-01	0	40	0	718274560	54	4668
2026-01-24 12:55:26.54	303.56	22.10	-41.4	-43.7	25.5	6.06e-01	0	40	0	720371712	54	4685
2026-01-24 12:55:27.54	303.81	22.01	-41.4	-43.7	25.4	6.06e-01	0	40	0	721944576	54	4687
2026-01-24 12:55:28.53	304.06	21.91	-41.3	-43.6	25.5	6.03e-01	0	40	0	724041728	54	4631
2026-01-24 12:55:29.53	304.31	21.82	-41.3	-43.6	25.6	6.08e-01	0	40	0	726138880	54	4625
2026-01-24 12:55:30.52	304.56	21.72	-41.3	-43.7	25.5	6.07e-01	0	40	0	727711744	54	4664
2026-01-24 12:55:31.52	304.81	21.63	-41.3	-43.6	25.5	6.06e-01	0	40	0	729808896	54	4613
2026-01-24 12:55:32.51	305.05	21.53	-41.4	-43.8	25.4	6.05e-01	0	40	0	731381760	54	4706
2026-01-24 12:55:33.50	305.29	21.44	-41.4	-43.8	25.3	6.04e-01	0	40	0	733478912	54	4740
2026-01-24 12:55:34.50	305.53	21.35	-41.4	-43.8	25.3	6.06e-01	0	40	0	735051776	54	4739
2026-01-24 12:55:35.49	305.77	21.25	-41.3	-43.7	25.5	6.06e-01	0	40	0	737148928	54	4658
2026-01-24 12:55:36.49	306.01	21.15	-41.3	-43.7	25.5	6.06e-01	0	40	0	738721792	54	4661
2026-01-24 12:55:37.48	306.25	21.06	-41.2	-43.5	25.6	6.04e-01	0	40	0	740818944	54	4594
2026-01-24 12:55:38.48	306.48	20.96	-41.1	-43.4	25.7	6.07e-01	0	40	0	742916096	54	4541
2026-01-24 12:55:39.47	306.72	20.87	-41.1	-43.5	25.6	6.05e-01	0	40	0	744488960	54	4551
2026-01-24 12:55:40.47	306.95	20.77	-41.3	-43.6	25.6	6.07e-01	0	40	0	746586112	54	4622
2026-01-24 12:55:41.46	307.18	20.68	-41.4	-43.7	25.4	6.06e-01	0	40	0	748158976	54	4700
2026-01-24 12:55:42.46	307.41	20.58	-41.3	-43.7	25.5	6.05e-01	0	40	0	750256128	54	4673
2026-01-24 12:55:43.45	307.64	20.49	-41.4	-43.7	25.4	6.06e-01	0	40	0	751828992	54	4683
2026-01-24 12:55:44.45	307.87	20.39	-41.4	-43.8	25.3	6.07e-01	0	41	0	753926144	54	4732
2026-01-24 12:55:45.45	308.09	20.30	-41.5	-43.9	25.3	6.04e-01	0	40	0	755499008	54	4760
2026-01-24 12:55:46.44	308.31	20.20	-41.3	-43.7	25.4	6.06e-01	0	40	0	757596160	54	4656
2026-01-24 12:55:47.43	308.54	20.11	-41.3	-43.6	25.5	6.06e-01	0	40	0	759693312	54	4611
2026-01-24 12:55:48.43	308.76	20.01	-41.1	-43.4	25.7	6.06e-01	0	40	0	761266176	54	4535
2026-01-24 12:55:49.42	308.98	19.92	-41.2	-43.5	25.5	6.06e-01	0	40	0	763363328	54	4587
2026-01-24 12:55:50.41	309.19	19.82	-41.2	-43.6	25.5	6.06e-01	0	40	0	764936192	54	4603
2026-01-24 12:55:51.41	309.41	19.72	-41.2	-43.5	25.6	6.06e-01	0	40	0	767033344	54	4596
2026-01-24 12:55:52.40	309.62	19.63	-41.2	-43.5	25.5	6.05e-01	0	40	0	768606208	54	4578
2026-01-24 12:55:53.40	309.84	19.53	-41.2	-43.6	25.5	6.07e-01	0	40	0	770703360	54	4599
2026-01-24 12:55:54.39	310.05	19.44	-41.1	-43.5	25.6	6.07e-01	0	40	0	772276224	54	4547
2026-01-24 12:55:55.39	310.26	19.34	-41.1	-43.5	25.6	6.06e-01	0	40	0	774373376	54	4558
2026-01-24 12:55:56.38	310.47	19.25	-41.1	-43.5	25.6	6.05e-01	0	40	0	776470528	54	4573
2026-01-24 12:55:57.38	310.68	19.15	-41.0	-43.5	25.6	6.06e-01	0	40	0	778043392	54	4549
2026-01-24 12:55:58.37	310.89	19.06	-41.0	-43.5	25.6	6.04e-01	0	40	0	780140544	54	4573
2026-01-24 12:55:59.37	311.09	18.96	-41.1	-43.5	25.5	6.03e-01	0	40	0	781713408	54	4593
2026-01-24 12:56:00.36	311.30	18.87	-41.1	-43.5	25.5	6.04e-01	0	40	0	783810560	54	4589
2026-01-24 12:56:01.35	311.50	18.77	-41.1	-43.5	25.5	6.05e-01	0	40	0	785383424	54	4565
2026-01-24 12:56:02.35	311.70	18.68	-41.1	-43.5	25.6	6.06e-01	0	40	0	787480576	54	4578
2026-01-24 12:56:03.35	311.90	18.58	-41.2	-43.5	25.5	6.05e-01	0	40	0	789053440	54	4579
2026-01-24 12:56:04.34	312.10	18.49	-41.1	-43.4	25.6	6.07e-01	0	41	0	791150592	54	4530
2026-01-24 12:56:05.34	312.30	18.39	-41.1	-43.4	25.5	6.07e-01	0	40	0	793247744	54	4540
2026-01-24 12:56:06.33	312.50	18.30	-41.1	-43.5	25.5	6.06e-01	0	40	0	794820608	54	4547
2026-01-24 12:56:07.33	312.69	18.20	-41.1	-43.4	25.6	6.06e-01	0	40	0	796917760	54	4540
2026-01-24 12:56:08.32	312.88	18.11	-41.0	-43.4	25.6	6.06e-01	0	40	0	798490624	54	4507
2026-01-24 12:56:09.31	313.08	18.01	-41.1	-43.5	25.5	6.07e-01	0	40	0	800587776	54	4551
2026-01-24 12:56:10.31	313.27	17.92	-41.0	-43.4	25.5	6.06e-01	0	40	0	802160640	54	4525
2026-01-24 12:56:11.30	313.46	17.83	-41.1	-43.5	25.5	6.05e-01	0	40	0	804257792	54	4548
2026-01-24 12:56:12.30	313.65	17.73	-40.9	-43.3	25.6	6.05e-01	0	40	0	805830656	53	4752
2026-01-24 12:56:13.30	313.84	17.64	-40.9	-43.3	25.6	6.07e-01	0	40	0	807927808	53	4755
2026-01-24 12:56:14.29	314.02	17.54	-41.0	-43.4	25.6	6.07e-01	0	40	0	810024960	53	4776
2026-01-24 12:56:15.29	314.21	17.45	-41.0	-43.4	25.6	6.06e-01	0	40	0	811597824	53	4801
2026-01-24 12:56:16.28	314.39	17.36	-41.0	-43.4	25.6	6.05e-01	0	40	0	813694976	53	4777
2026-01-24 12:56:17.28	314.58	17.26	-41.2	-43.6	25.5	6.05e-01	0	40	0	815267840	53	4881
2026-01-24 12:56:18.27	314.76	17.17	-41.1	-43.5	25.5	6.07e-01	0	41	0	817364992	53	4846
2026-01-24 12:56:19.27	314.94	17.08	-41.2	-43.6	25.4	6.06e-01	0	40	0	819462144	53	4903
2026-01-24 12:56:20.27	315.12	16.98	-41.2	-43.6	25.4	6.07e-01	0	40	0	821035008	53	4886
2026-01-24 12:56:21.26	315.30	16.89	-41.1	-43.5	25.5	6.04e-01	0	40	0	822607872	53	4868
2026-01-24 12:56:22.25	315.47	16.80	-41.0	-43.4	25.6	6.07e-01	0	40	0	824705024	53	4787
2026-01-24 12:56:23.25	315.65	16.71	-41.1	-43.5	25.6	6.06e-01	0	40	0	826802176	53	4828
2026-01-24 12:56:24.24	315.82	16.61	-41.0	-43.3	25.5	6.06e-01	0	40	0	828375040	53	4753
2026-01-24 12:56:25.24	316.00	16.52	-41.0	-43.3	25.7	6.05e-01	0	40	0	830472192	53	4721
2026-01-24 12:56:26.23	316.17	16.43	-41.0	-43.4	25.6	6.04e-01	0	40	0	832045056	53	4764
2026-01-24 12:56:27.23	316.34	16.34	-41.0	-43.4	25.6	6.04e-01	0	40	0	834142208	53	4779
2026-01-24 12:56:28.22	316.51	16.25	-40.9	-43.3	25.7	6.04e-01	0	40	0	836239360	53	4741
2026-01-24 12:56:29.21	316.68	16.15	-40.9	-43.4	25.6	6.05e-01	0	40	0	837812224	53	4793
2026-01-24 12:56:30.21	316.85	16.06	-41.0	-43.6	25.4	6.06e-01	0	40	0	839909376	53	4895
2026-01-24 12:56:31.20	317.02	15.97	-40.8	-43.5	25.5	6.05e-01	0	40	0	841482240	53	4850
2026-01-24 12:56:32.20	317.19	15.88	-40.8	-43.5	25.5	6.05e-01	0	40	0	843579392	53	4846
2026-01-24 12:56:33.19	317.35	15.79	-40.8	-43.5	25.4	6.03e-01	0	40	0	845152256	53	4859
2026-01-24 12:56:34.19	317.52	15.70	-40.9	-43.5	25.4	6.06e-01	0	40	0	847249408	53	4862
2026-01-24 12:56:35.18	317.68	15.61	-41.0	-43.5	25.4	6.05e-01	0	40	0	848822272	53	4862
2026-01-24 12:56:36.18	317.84	15.52	-41.2	-43.7	25.4	6.06e-01	0	40	0	850919424	53	4930
2026-01-24 12:56:37.17	318.00	15.43	-41.2	-43.6	25.4	6.07e-01	0	40	0	853016576	53	4906
2026-01-24 12:56:38.16	318.16	15.34	-41.2	-43.6	25.3	6.07e-01	0	40	0	854589440	53	4919
2026-01-24 12:56:39.16	318.32	15.25	-41.1	-43.6	25.4	6.04e-01	0	40	0	856686592	53	4876
2026-01-24 12:56:40.16	318.48	15.16	-41.1	-43.5	25.5	6.06e-01	0	40	0	858259456	53	4834
2026-01-24 12:56:41.15	318.64	15.07	-41.1	-43.5	25.4	6.06e-01	0	40	0	860356608	53	4866
2026-01-24 12:56:42.15	318.79	14.98	-41.0	-43.5	25.5	6.03e-01	0	40	0	861929472	53	4837
2026-01-24 12:56:43.14	318.95	14.89	-41.1	-43.6	25.4	6.07e-01	0	40	0	864026624	53	4873
2026-01-24 12:56:44.14	319.10	14.80	-41.2	-43.6	25.3	6.06e-01	0	40	0	865599488	53	4922
2026-01-24 12:56:45.13	319.26	14.71	-41.2	-43.7	25.3	6.05e-01	0	40	0	867696640	53	4959
2026-01-24 12:56:46.13	319.41	14.62	-41.2	-43.7	25.3	6.06e-01	0	41	0	869793792	53	4969
2026-01-24 12:56:47.12	319.56	14.53	-41.2	-43.7	25.3	6.06e-01	0	40	0	871366656	53	4935
2026-01-24 12:56:48.12	319.71	14.44	-41.1	-43.6	25.3	6.05e-01	0	40	0	873463808	53	4913
2026-01-24 12:56:49.11	319.86	14.36	-41.2	-43.7	25.2	6.06e-01	0	40	0	875036672	53	4964
2026-01-24 12:56:50.11	320.01	14.27	-41.3	-43.8	25.0	6.04e-01	0	40	0	877133824	53	5035
2026-01-24 12:56:51.10	320.16	14.18	-41.2	-43.7	25.2	6.06e-01	0	40	0	878706688	53	4964
2026-01-24 12:56:52.10	320.30	14.09	-41.3	-43.8	25.1	6.05e-01	0	40	0	880803840	53	5000
2026-01-24 12:56:53.09	320.45	14.01	-41.3	-43.8	25.1	6.07e-01	0	40	0	882376704	53	4995
2026-01-24 12:56:54.09	320.60	13.92	-41.3	-43.9	25.1	6.07e-01	0	40	0	884473856	53	5044
2026-01-24 12:56:55.08	320.74	13.83	-41.3	-43.8	25.1	6.07e-01	0	40	0	886571008	53	5010
2026-01-24 12:56:56.08	320.88	13.74	-41.3	-43.8	25.1	6.07e-01	0	40	0	888143872	53	5013
2026-01-24 12:56:57.07	321.02	13.66	-41.2	-43.7	25.2	6.06e-01	0	40	0	890241024	53	4944
2026-01-24 12:56:58.07	321.17	13.57	-41.1	-43.6	25.3	6.06e-01	0	40	0	891813888	53	4897
2026-01-24 12:56:59.06	321.31	13.49	-41.2	-43.8	25.1	6.06e-01	0	40	0	893911040	53	4991
2026-01-24 12:57:00.06	321.45	13.40	-41.2	-43.7	25.2	6.07e-01	0	40	0	895483904	53	4955
2026-01-24 12:57:01.05	321.59	13.31	-41.3	-43.8	25.0	6.06e-01	0	40	0	897581056	53	5014
2026-01-24 12:57:02.04	321.72	13.23	-41.3	-43.8	25.0	6.06e-01	0	40	0	899153920	53	5037
2026-01-24 12:57:03.04	321.86	13.14	-41.2	-43.7	25.1	6.05e-01	0	40	0	901251072	53	4949
2026-01-24 12:57:04.03	322.00	13.06	-41.4	-43.8	25.1	6.07e-01	0	40	0	903348224	53	5034
2026-01-24 12:57:05.03	322.13	12.97	-41.4	-43.8	25.1	6.06e-01	0	41	0	904921088	53	5040
2026-01-24 12:57:06.02	322.27	12.89	-41.4	-43.9	25.0	6.05e-01	0	40	0	907018240	53	5067
2026-01-24 12:57:07.01	322.40	12.80	-41.5	-44.0	24.9	6.05e-01	0	40	0	908591104	53	5112
2026-01-24 12:57:08.01	322.54	12.72	-41.6	-44.1	24.8	6.08e-01	0	41	0	910688256	53	5165
2026-01-24 12:57:09.00	322.67	12.63	-41.8	-44.2	24.8	6.07e-01	0	40	0	912261120	54	4947
2026-01-24 12:57:10.00	322.80	12.55	-41.7	-44.2	24.7	6.05e-01	0	40	0	914358272	54	4938
2026-01-24 12:57:10.99	322.93	12.47	-41.6	-44.1	24.9	6.07e-01	0	41	0	915931136	54	4884
2026-01-24 12:57:11.99	323.06	12.38	-41.5	-44.1	24.8	6.06e-01	0	41	0	918028288	54	4907
2026-01-24 12:57:12.98	323.19	12.30	-41.4	-44.1	24.8	6.05e-01	0	40	0	920125440	54	4916
2026-01-24 12:57:13.98	323.32	12.22	-41.3	-44.1	24.8	6.03e-01	0	40	0	921698304	54	4889
2026-01-24 12:57:14.98	323.45	12.13	-41.2	-44.2	24.7	6.05e-01	0	40	0	923795456	54	4933
2026-01-24 12:57:15.97	323.57	12.05	-41.1	-44.1	24.8	6.06e-01	0	40	0	925368320	54	4892
2026-01-24 12:57:16.97	323.70	11.97	-41.1	-44.1	24.8	6.08e-01	0	40	0	927465472	54	4892
2026-01-24 12:57:17.96	323.83	11.88	-41.1	-44.2	24.8	6.08e-01	0	40	0	929038336	54	4952
2026-01-24 12:57:18.95	323.95	11.80	-41.0	-44.0	24.8	6.07e-01	0	40	0	931135488	54	4870
2026-01-24 12:57:19.95	324.08	11.72	-41.0	-44.1	24.8	6.03e-01	0	41	0	932708352	54	4892
2026-01-24 12:57:20.95	324.20	11.64	-41.1	-44.1	24.7	6.08e-01	0	40	0	934805504	54	4918
2026-01-24 12:57:21.94	324.32	11.56	-41.1	-44.1	24.7	6.07e-01	0	40	0	936902656	54	4901
2026-01-24 12:57:22.94	324.45	11.47	-41.1	-44.1	24.8	6.06e-01	0	40	0	938475520	54	4911
2026-01-24 12:57:23.93	324.57	11.39	-41.2	-44.2	24.7	6.07e-01	0	40	0	940572672	54	4957
2026-01-24 12:57:24.93	324.69	11.31	-41.3	-44.3	24.6	6.05e-01	0	40	0	942145536	54	5012
2026-01-24 12:57:25.93	324.81	11.23	-41.4	-44.4	24.5	6.07e-01	0	41	0	944242688	54	5048
2026-01-24 12:57:26.92	324.93	11.15	-41.5	-44.4	24.4	6.08e-01	0	40	0	945815552	54	5092
2026-01-24 12:57:27.92	325.05	11.07	-41.5	-44.5	24.4	6.07e-01	0	41	0	947912704	54	5116
2026-01-24 12:57:28.91	325.16	10.99	-41.4	-44.4	24.5	6.05e-01	0	40	0	950009856	54	5042
2026-01-24 12:57:29.91	325.28	10.91	-41.5	-44.4	24.4	6.06e-01	0	40	0	951582720	54	5089
2026-01-24 12:57:30.91	325.40	10.83	-41.5	-44.5	24.4	6.08e-01	0	40	0	953679872	54	5124
2026-01-24 12:57:31.90	325.51	10.75	-41.4	-44.4	24.5	6.05e-01	0	40	0	955252736	54	5053
2026-01-24 12:57:32.90	325.63	10.67	-41.6	-44.6	24.2	6.07e-01	0	40	0	957349888	54	5196
2026-01-24 12:57:33.89	325.74	10.59	-41.5	-44.6	24.3	6.05e-01	0	40	0	958922752	54	5168
2026-01-24 12:57:34.89	325.86	10.51	-41.6	-44.6	24.2	6.03e-01	0	40	0	961019904	54	5186
2026-01-24 12:57:35.88	325.97	10.43	-41.5	-44.6	24.3	6.06e-01	0	40	0	962592768	54	5176
2026-01-24 12:57:36.88	326.08	10.35	-41.6	-44.6	24.2	6.09e-01	0	40	0	964689920	54	5198
2026-01-24 12:57:37.87	326.20	10.27	-41.5	-44.5	24.4	6.07e-01	0	41	0	966787072	54	5107
2026-01-24 12:57:38.86	326.31	10.20	-41.6	-44.5	24.3	6.06e-01	0	40	0	968359936	54	5126
2026-01-24 12:57:39.86	326.42	10.12	-41.8	-44.5	24.3	6.06e-01	0	40	0	970457088	54	5153
2026-01-24 12:57:40.85	326.53	10.04	-41.9	-44.6	24.3	6.07e-01	0	40	0	972029952	54	5166
2026-01-24 12:57:41.85	326.64	9.96	-42.0	-44.6	24.2	6.07e-01	0	40	0	974127104	54	5193
2026-01-24 12:57:42.84	326.75	9.88	-42.1	-44.6	24.2	6.07e-01	0	41	0	975699968	54	5204
2026-01-24 12:57:43.84	326.86	9.81	-42.1	-44.7	24.1	6.08e-01	0	40	0	977797120	54	5232
2026-01-24 12:57:44.84	326.96	9.73	-42.2	-44.7	24.0	6.09e-01	0	40	0	979369984	54	5277
2026-01-24 12:57:45.83	327.07	9.65	-42.2	-44.9	24.0	6.06e-01	0	40	0	981467136	55	5052
2026-01-24 12:57:46.83	327.18	9.57	-42.2	-44.9	24.0	6.06e-01	0	40	0	983564288	55	5042
2026-01-24 12:57:47.82	327.28	9.50	-42.0	-44.7	24.0	6.07e-01	0	40	0	985137152	55	4982
2026-01-24 12:57:48.82	327.39	9.42	-42.1	-44.9	23.9	6.07e-01	0	40	0	987234304	55	5064
2026-01-24 12:57:49.81	327.50	9.34	-42.1	-44.9	23.9	6.04e-01	0	40	0	988807168	55	5072
2026-01-24 12:57:50.81	327.60	9.27	-42.1	-45.0	23.8	6.07e-01	0	40	0	990904320	55	5134
2026-01-24 12:57:51.80	327.70	9.19	-42.2	-45.2	23.6	6.07e-01	0	40	0	992477184	55	5234
2026-01-24 12:57:52.80	327.81	9.12	-42.1	-45.0	23.7	6.06e-01	0	40	0	994574336	55	5131
2026-01-24 12:57:53.79	327.91	9.04	-42.2	-45.2	23.5	6.07e-01	0	40	0	996147200	55	5244
2026-01-24 12:57:54.79	328.01	8.96	-46.1	-51.5	19.2	6.06e-01	0	40	0	998244352	62	7231
2026-01-24 12:57:55.78	328.11	8.89	-47.2	-69.5	3.8	7.48e-01	0	40	104	998768640	66	45750
2026-01-24 12:57:56.78	328.21	8.81	-50.1	-69.8	3.9	7.44e-01	0	40	104	998768640	70	37477
2026-01-24 12:57:57.77	328.31	8.74	-49.2	-70.5	3.8	7.45e-01	0	40	104	998768640	69	43286
2026-01-24 12:57:58.76	328.41	8.67	-48.8	-70.7	3.8	7.47e-01	0	40	104	998768640	68	46677
2026-01-24 12:57:59.75	328.51	8.59	-49.3	-70.8	3.8	7.44e-01	0	40	104	998768640	69	44892
2026-01-24 12:58:00.75	328.61	8.52	-49.9	-70.8	3.8	7.44e-01	0	40	104	998768640	70	42095
2026-01-24 12:58:01.74	328.71	8.44	-49.0	-71.1	3.8	7.47e-01	0	41	104	998768640	68	48742
2026-01-24 12:58:02.73	328.81	8.37	-50.1	-70.9	3.8	7.47e-01	0	41	104	998768640	71	40229
2026-01-24 12:58:03.73	328.91	8.29	-49.9	-70.9	3.8	7.44e-01	0	40	104	998768640	71	40458
2026-01-24 12:58:04.72	329.00	8.22	-49.7	-71.0	3.8	7.45e-01	0	41	104	998768640	71	40623
2026-01-24 12:58:05.71	329.10	8.15	-50.4	-71.0	3.8	7.46e-01	0	41	104	998768640	71	40717
2026-01-24 12:58:06.71	329.19	8.07	-50.5	-71.0	3.8	7.45e-01	0	41	104	998768640	71	40797
2026-01-24 12:58:07.70	329.29	8.00	-50.5	-71.0	3.8	7.41e-01	0	41	104	998768640	71	40896
2026-01-24 12:58:08.69	329.38	7.93	-50.7	-71.0	3.8	7.47e-01	0	40	104	998768640	71	40956
2026-01-24 12:58:09.69	329.48	7.86	-50.5	-71.0	3.8	7.43e-01	0	41	104	998768640	72	38542
2026-01-24 12:58:10.68	329.57	7.78	-50.5	-71.0	3.8	7.46e-01	0	41	104	998768640	72	38525
2026-01-24 12:58:11.67	329.67	7.71	-50.9	-71.0	3.8	7.44e-01	0	41	104	998768640	72	38591
2026-01-24 12:58:12.66	329.76	7.64	-50.7	-71.0	3.8	7.44e-01	0	41	104	998768640	72	38493
2026-01-24 12:58:13.66	329.85	7.57	-50.8	-71.0	3.8	7.48e-01	0	40	104	998768640	72	38340
2026-01-24 12:58:14.65	329.94	7.50	-50.7	-71.0	3.8	7.48e-01	0	40	104	998768640	72	38280
2026-01-24 12:58:15.64	330.03	7.42	-50.3	-71.0	3.8	7.48e-01	0	41	104	998768640	71	40819
2026-01-24 12:58:16.63	330.12	7.35	-50.2	-71.0	3.8	7.46e-01	0	41	104	998768640	71	40606
2026-01-24 12:58:17.63	330.22	7.28	-50.1	-70.9	3.8	7.45e-01	0	41	104	998768640	71	40468
2026-01-24 12:58:18.62	330.31	7.21	-50.1	-70.9	3.8	7.46e-01	0	40	104	998768640	71	40481
2026-01-24 12:58:19.61	330.39	7.14	-50.1	-70.9	3.8	7.48e-01	0	41	104	998768640	71	40437
2026-01-24 12:58:20.61	330.48	7.07	-50.2	-70.9	3.8	7.50e-01	0	41	104	998768640	71	40509
2026-01-24 12:58:21.60	330.57	7.00	-50.1	-70.9	3.8	7.46e-01	0	40	104	998768640	71	40468
2026-01-24 12:58:22.60	330.66	6.93	-50.1	-70.9	3.8	7.44e-01	0	41	104	998768640	71	40447
2026-01-24 12:58:23.59	330.75	6.86	-50.1	-70.9	3.8	7.48e-01	0	41	104	998768640	71	40393
2026-01-24 12:58:24.58	330.84	6.79	-50.1	-70.9	3.8	7.44e-01	0	41	104	998768640	71	40464
2026-01-24 12:58:25.57	330.92	6.72	-50.2	-70.9	3.8	7.48e-01	0	40	104	998768640	71	40459
2026-01-24 12:58:26.57	331.01	6.65	-50.2	-70.9	3.8	7.47e-01	0	41	104	998768640	71	40418
2026-01-24 12:58:27.56	331.10	6.58	-50.2	-70.9	3.8	7.49e-01	0	41	104	998768640	71	40460
2026-01-24 12:58:28.55	331.18	6.51	-50.2	-70.9	3.8	7.49e-01	0	41	104	998768640	71	40453
2026-01-24 12:58:29.55	331.27	6.44	-50.2	-70.9	3.8	7.46e-01	0	41	104	998768640	71	40468
2026-01-24 12:58:30.54	331.35	6.37	-50.2	-70.9	3.8	7.45e-01	0	41	104	998768640	71	40484
2026-01-24 12:58:31.53	331.44	6.30	-50.1	-70.9	3.8	7.46e-01	0	41	104	998768640	71	40372
2026-01-24 12:58:32.53	331.52	6.23	-50.1	-70.9	3.8	7.46e-01	0	41	104	998768640	71	40376
2026-01-24 12:58:33.52	331.60	6.16	-50.1	-70.9	3.8	7.43e-01	0	41	104	998768640	71	40405
2026-01-24 12:58:34.51	331.69	6.10	-50.1	-70.9	3.8	7.49e-01	0	41	104	998768640	71	40375
2026-01-24 12:58:35.51	331.77	6.03	-50.1	-70.9	3.8	7.48e-01	0	41	104	998768640	71	40403
2026-01-24 12:58:36.50	331.85	5.96	-50.2	-70.9	3.8	7.48e-01	0	41	104	998768640	71	40408
2026-01-24 12:58:37.49	331.93	5.89	-50.1	-70.9	3.8	7.46e-01	0	41	104	998768640	71	40342
2026-01-24 12:58:38.49	332.02	5.82	-50.1	-70.9	3.8	7.43e-01	0	41	104	998768640	71	40339
2026-01-24 12:58:39.48	332.10	5.75	-50.1	-70.9	3.8	7.48e-01	0	41	104	998768640	71	40349
2026-01-24 12:58:40.47	332.18	5.69	-50.1	-70.9	3.8	7.45e-01	0	41	104	998768640	71	40422
2026-01-24 12:58:41.46	332.26	5.62	-50.1	-70.9	3.8	7.45e-01	0	41	104	998768640	71	40456
2026-01-24 12:58:42.46	332.34	5.55	-50.1	-70.9	3.8	7.45e-01	0	41	104	998768640	71	40297
2026-01-24 12:58:43.45	332.42	5.49	-50.1	-70.9	3.8	7.44e-01	0	41	104	998768640	71	40379
2026-01-24 12:58:44.44	332.50	5.42	-50.1	-70.9	3.8	7.48e-01	0	41	104	998768640	71	40339
2026-01-24 12:58:45.44	332.58	5.35	-50.1	-70.9	3.8	7.45e-01	0	41	104	998768640	71	40346
2026-01-24 12:58:46.43	332.65	5.29	-50.1	-70.9	3.8	7.45e-01	0	41	104	998768640	71	40399
2026-01-24 12:58:47.42	332.73	5.22	-50.1	-70.9	3.8	7.45e-01	0	41	104	998768640	71	40308
2026-01-24 12:58:48.42	332.81	5.15	-50.2	-70.9	3.8	7.45e-01	0	41	104	998768640	71	40327
2026-01-24 12:58:49.41	332.89	5.09	-50.1	-70.9	3.8	7.44e-01	0	41	104	998768640	71	40302
2026-01-24 12:58:50.40	332.96	5.02	-50.1	-70.9	3.8	7.48e-01	0	41	104	998768640	71	40285
2026-01-24 12:58:51.40	333.04	4.95	-50.1	-70.9	3.8	7.45e-01	0	40	104	998768640	71	40345

#Closed at: 2026-01-24 12:58:52
#Recorded file [998 MB]: D:/Data/31040_260124_154823.dat