passes_logs/2026/01/24/T1/T1__20260124_222819_NOAA_20_JPSS-1_rec.log

#Pass ID: 20260124_222819_NOAA 20 (JPSS-1)
#Satellite: NOAA 20 (JPSS-1)
#Configuration: NOAA 20
#almurnet v.1.7.20251203
#Start time: 2026-01-24 22:28:19

#Version: 2.0.20230620
#Station: T1
#Location: 37.570604 lon 55.790049 lat
#TLE: 1 43013U 17073A   26024.42258823  .00000183  00000+0  10747-3 0  9990
#TLE: 2 43013  98.7646 325.2629 0001105  25.8644 334.2587 14.19539754424075

#Time	Az	El	Level	Level2	SNR	BER	BlckErr	Temp	State	Recorded	gain1	gain2
2026-01-24 22:28:19.69	26.32	5.01	-47.7	-63.2	3.8	1.49e+00	0	36	0	0	67	20906
2026-01-24 22:28:20.68	26.39	5.08	-47.7	-63.2	3.8	1.49e+00	0	36	104	0	66	22080
2026-01-24 22:28:21.68	26.46	5.14	-47.7	-63.1	3.8	1.49e+00	0	36	104	0	66	21999
2026-01-24 22:28:22.67	26.53	5.20	-47.7	-63.2	3.8	1.49e+00	0	36	104	0	66	22138
2026-01-24 22:28:23.66	26.60	5.26	-47.7	-63.2	3.8	1.49e+00	0	36	104	0	66	22121
2026-01-24 22:28:24.66	26.67	5.33	-47.7	-63.2	3.8	1.49e+00	0	36	104	0	66	22091
2026-01-24 22:28:25.65	26.74	5.39	-47.6	-63.2	3.8	1.49e+00	0	36	104	0	66	22135
2026-01-24 22:28:26.64	26.82	5.45	-47.7	-63.1	3.8	1.49e+00	0	36	104	0	66	21990
2026-01-24 22:28:27.64	26.89	5.52	-47.6	-63.2	3.8	1.49e+00	0	36	104	0	66	22019
2026-01-24 22:28:28.63	26.96	5.58	-47.7	-63.1	3.8	1.49e+00	0	36	104	0	66	21921
2026-01-24 22:28:29.62	27.03	5.64	-47.7	-63.2	3.8	1.49e+00	0	36	104	0	66	22032
2026-01-24 22:28:30.62	27.11	5.71	-47.7	-63.1	3.8	1.49e+00	0	36	104	0	66	21938
2026-01-24 22:28:31.61	27.18	5.77	-47.7	-63.1	3.8	1.49e+00	0	36	104	0	66	21840
2026-01-24 22:28:32.61	27.26	5.83	-47.6	-63.1	3.8	1.49e+00	0	36	104	0	66	21970
2026-01-24 22:28:33.60	27.33	5.90	-47.6	-63.1	3.8	1.49e+00	0	36	104	0	66	21990
2026-01-24 22:28:34.59	27.41	5.96	-47.7	-63.1	3.8	1.49e+00	0	36	104	0	66	21894
2026-01-24 22:28:35.59	27.48	6.03	-47.7	-63.1	3.8	1.49e+00	0	36	104	0	66	21934
2026-01-24 22:28:36.58	27.56	6.09	-47.6	-63.1	3.8	1.49e+00	0	37	104	0	66	22002
2026-01-24 22:28:37.57	27.63	6.15	-47.6	-63.1	3.8	1.49e+00	0	37	104	0	66	21997
2026-01-24 22:28:38.57	27.71	6.22	-47.6	-63.2	3.8	1.49e+00	0	36	104	0	66	22009
2026-01-24 22:28:39.56	27.78	6.28	-47.6	-63.2	3.8	1.49e+00	0	37	104	0	66	22055
2026-01-24 22:28:40.55	27.86	6.35	-47.6	-63.2	3.8	1.49e+00	0	37	104	0	66	22056
2026-01-24 22:28:41.55	27.94	6.41	-47.7	-63.1	3.8	1.49e+00	0	37	104	0	66	21987
2026-01-24 22:28:42.54	28.02	6.48	-47.6	-63.1	3.8	1.49e+00	0	37	104	0	66	21962
2026-01-24 22:28:43.53	28.09	6.54	-47.6	-63.1	3.8	1.49e+00	0	37	104	0	66	21962
2026-01-24 22:28:44.53	28.17	6.61	-47.7	-63.1	3.8	1.49e+00	0	37	104	0	66	21939
2026-01-24 22:28:45.52	28.25	6.67	-47.6	-63.1	3.8	1.49e+00	0	37	104	0	66	21908
2026-01-24 22:28:46.51	28.33	6.74	-47.6	-63.1	3.8	1.49e+00	0	37	104	0	66	21841
2026-01-24 22:28:47.50	28.41	6.80	-47.6	-63.1	3.8	1.49e+00	0	37	104	0	66	21802
2026-01-24 22:28:48.50	28.49	6.87	-47.6	-63.1	3.8	1.49e+00	0	37	104	0	66	21768
2026-01-24 22:28:49.49	28.57	6.93	-47.6	-63.1	3.8	1.49e+00	0	37	104	0	66	21764
2026-01-24 22:28:50.49	28.65	7.00	-47.6	-63.1	3.8	1.49e+00	0	37	104	0	66	21809
2026-01-24 22:28:51.48	28.73	7.07	-47.6	-63.1	3.8	1.49e+00	0	37	104	0	66	21855
2026-01-24 22:28:52.47	28.81	7.13	-47.6	-63.0	3.8	1.49e+00	0	37	104	0	66	21710
2026-01-24 22:28:53.47	28.89	7.20	-47.6	-63.0	3.8	1.49e+00	0	37	104	0	66	21582
2026-01-24 22:28:54.46	28.97	7.27	-47.6	-62.9	3.8	1.49e+00	0	37	104	0	66	21472
2026-01-24 22:28:55.45	29.05	7.33	-47.6	-62.9	3.8	1.49e+00	0	37	104	0	66	21403
2026-01-24 22:28:56.45	29.13	7.40	-47.6	-62.9	3.8	1.49e+00	0	37	104	0	66	21300
2026-01-24 22:28:57.44	29.22	7.47	-47.6	-62.9	3.8	1.49e+00	0	37	104	0	66	21317
2026-01-24 22:28:58.43	29.30	7.53	-47.6	-63.0	3.8	1.49e+00	0	37	104	0	66	21539
2026-01-24 22:28:59.42	29.38	7.60	-47.6	-63.0	3.8	1.49e+00	0	37	104	0	66	21666
2026-01-24 22:29:00.42	29.47	7.67	-47.6	-63.0	3.8	1.49e+00	0	37	104	0	66	21747
2026-01-24 22:29:01.41	29.55	7.73	-47.6	-63.1	3.8	1.49e+00	0	37	104	0	66	21828
2026-01-24 22:29:02.40	29.63	7.80	-47.6	-63.1	3.8	1.49e+00	0	37	104	0	66	21888
2026-01-24 22:29:03.40	29.72	7.87	-47.6	-63.1	3.8	1.49e+00	0	37	104	0	66	21816
2026-01-24 22:29:04.39	29.80	7.94	-47.6	-63.1	3.8	1.49e+00	0	37	104	0	66	21851
2026-01-24 22:29:05.38	29.89	8.01	-47.6	-63.0	3.8	1.49e+00	0	37	104	0	66	21704
2026-01-24 22:29:06.38	29.97	8.07	-47.6	-63.0	3.8	1.49e+00	0	38	104	0	66	21642
2026-01-24 22:29:07.37	30.06	8.14	-47.6	-63.0	3.8	1.49e+00	0	37	104	0	66	21587
2026-01-24 22:29:08.36	30.15	8.21	-47.6	-62.9	3.8	1.49e+00	0	37	104	0	66	21444
2026-01-24 22:29:09.36	30.23	8.28	-47.6	-62.9	3.8	1.49e+00	0	38	104	0	66	21279
2026-01-24 22:29:10.35	30.32	8.35	-47.6	-62.7	3.8	1.49e+00	0	37	104	0	66	20885
2026-01-24 22:29:11.34	30.41	8.42	-47.6	-62.6	3.8	1.49e+00	0	38	104	0	66	20666
2026-01-24 22:29:12.34	30.50	8.48	-47.6	-62.4	3.8	1.49e+00	0	38	104	0	66	20270
2026-01-24 22:29:13.33	30.58	8.55	-47.6	-62.2	3.8	1.49e+00	0	38	104	0	66	19748
2026-01-24 22:29:14.32	30.67	8.62	-47.6	-61.9	3.8	1.49e+00	0	38	104	0	66	19139
2026-01-24 22:29:15.32	30.76	8.69	-47.5	-61.3	3.8	1.49e+00	0	37	104	0	66	17836
2026-01-24 22:29:16.31	30.85	8.76	-47.5	-60.2	4.0	1.48e+00	0	38	0	0	66	15618
2026-01-24 22:29:17.30	30.94	8.83	-47.3	-58.6	4.5	1.38e+00	0	38	0	0	66	12968
2026-01-24 22:29:18.30	31.03	8.90	-47.1	-56.7	5.5	5.97e-01	0	38	0	2097152	66	10533
2026-01-24 22:29:19.29	31.12	8.97	-46.7	-54.9	6.9	2.56e-01	0	38	0	4194304	65	9035
2026-01-24 22:29:20.28	31.21	9.04	-46.4	-53.5	8.3	8.72e-02	0	38	0	5242880	64	8142
2026-01-24 22:29:21.28	31.31	9.11	-46.6	-54.4	7.5	7.08e-02	0	38	0	7340032	64	8988
2026-01-24 22:29:22.27	31.40	9.18	-47.2	-58.0	4.7	1.39e+00	0	38	0	8388608	65	12920
2026-01-24 22:29:23.27	31.49	9.25	-45.7	-51.4	11.0	1.74e-03	0	38	0	10485760	62	7131
2026-01-24 22:29:24.26	31.58	9.32	-47.2	-61.2	3.8	1.24e+00	0	38	104	11534336	65	18620
2026-01-24 22:29:25.26	31.68	9.39	-47.2	-57.8	4.8	8.00e-01	0	38	0	11534336	65	12650
2026-01-24 22:29:26.26	31.77	9.46	-47.2	-57.8	4.9	7.58e-01	0	38	0	13631488	65	12570
2026-01-24 22:29:27.25	31.87	9.53	-47.1	-57.9	4.8	6.56e-01	0	38	0	15728640	65	12776
2026-01-24 22:29:28.25	31.96	9.61	-47.0	-57.4	5.0	7.10e-01	0	38	0	16777216	65	12022
2026-01-24 22:29:29.24	32.06	9.68	-46.8	-56.5	5.6	7.38e-01	0	38	0	18874368	65	10864
2026-01-24 22:29:30.24	32.15	9.75	-46.4	-54.6	7.1	2.59e-01	0	38	0	20971520	64	9266
2026-01-24 22:29:31.23	32.25	9.82	-45.2	-50.5	11.6	5.31e-03	0	38	0	23068672	62	6435
2026-01-24 22:29:32.23	32.35	9.89	-47.3	-59.3	4.3	3.19e-01	0	38	0	24117248	65	14966
2026-01-24 22:29:33.22	32.44	9.96	-46.9	-57.5	4.9	1.20e+00	0	38	0	25165824	65	12195
2026-01-24 22:29:34.22	32.54	10.03	-43.3	-46.7	15.4	1.22e-05	0	38	0	27262976	58	5248
2026-01-24 22:29:35.21	32.64	10.11	-43.4	-46.9	15.3	0.00e+00	0	38	0	29360128	58	5382
2026-01-24 22:29:36.21	32.74	10.18	-43.5	-46.9	15.2	0.00e+00	0	38	0	30408704	58	5388
2026-01-24 22:29:37.20	32.84	10.25	-43.4	-46.8	15.3	0.00e+00	0	38	0	32505856	58	5326
2026-01-24 22:29:38.20	32.94	10.32	-43.1	-46.3	15.9	0.00e+00	0	38	0	34603008	58	5020
2026-01-24 22:29:39.19	33.03	10.40	-43.2	-46.4	15.8	0.00e+00	0	38	0	36700160	58	5047
2026-01-24 22:29:40.19	33.14	10.47	-43.0	-46.1	16.1	0.00e+00	0	38	0	38797312	57	5161
2026-01-24 22:29:41.18	33.24	10.54	-42.7	-45.7	16.5	0.00e+00	0	38	0	39845888	57	4956
2026-01-24 22:29:42.18	33.34	10.62	-42.7	-45.6	16.6	0.00e+00	0	38	0	41943040	57	4926
2026-01-24 22:29:43.17	33.44	10.69	-42.5	-45.4	16.7	0.00e+00	0	38	0	44040192	57	4810
2026-01-24 22:29:44.17	33.54	10.76	-42.7	-45.6	16.6	0.00e+00	0	38	0	46137344	56	5177
2026-01-24 22:29:45.16	33.64	10.84	-42.5	-45.3	16.8	0.00e+00	0	38	0	47185920	56	5028
2026-01-24 22:29:46.15	33.75	10.91	-42.7	-45.5	16.7	0.00e+00	0	38	0	49283072	56	5158
2026-01-24 22:29:47.15	33.85	10.98	-42.3	-45.0	17.2	0.00e+00	0	38	0	51380224	56	4842
2026-01-24 22:29:48.14	33.95	11.06	-42.1	-44.8	17.4	0.00e+00	0	38	0	53477376	56	4721
2026-01-24 22:29:49.14	34.06	11.13	-42.1	-44.8	17.3	0.00e+00	0	38	0	55574528	56	4749
2026-01-24 22:29:50.13	34.16	11.20	-42.1	-44.8	17.4	0.00e+00	0	38	0	56623104	56	4729
2026-01-24 22:29:51.13	34.27	11.28	-42.2	-44.9	17.2	0.00e+00	0	38	0	58720256	56	4800
2026-01-24 22:29:52.12	34.38	11.35	-42.1	-44.9	17.3	0.00e+00	0	38	0	60817408	56	4767
2026-01-24 22:29:53.12	34.48	11.43	-42.0	-44.7	17.5	0.00e+00	0	38	0	62914560	56	4675
2026-01-24 22:29:54.11	34.59	11.50	-41.8	-44.4	17.6	0.00e+00	0	38	0	65011712	55	4795
2026-01-24 22:29:55.11	34.70	11.58	-41.7	-44.4	17.6	0.00e+00	0	38	0	66060288	55	4776
2026-01-24 22:29:56.10	34.81	11.65	-41.7	-44.2	17.7	0.00e+00	0	38	0	68157440	55	4705
2026-01-24 22:29:57.10	34.92	11.73	-41.7	-44.3	17.7	0.00e+00	0	38	0	70254592	55	4730
2026-01-24 22:29:58.09	35.03	11.80	-41.8	-44.4	17.6	0.00e+00	0	38	0	72351744	55	4789
2026-01-24 22:29:59.09	35.14	11.88	-41.8	-44.5	17.5	0.00e+00	0	38	0	73400320	55	4851
2026-01-24 22:30:00.09	35.25	11.96	-41.8	-44.4	17.6	0.00e+00	0	38	0	75497472	55	4804
2026-01-24 22:30:01.08	35.36	12.03	-41.8	-44.5	17.6	0.00e+00	0	38	0	77594624	55	4816
2026-01-24 22:30:02.08	35.47	12.11	-41.7	-44.4	17.8	0.00e+00	0	38	0	79691776	55	4761
2026-01-24 22:30:03.07	35.58	12.18	-41.6	-44.2	17.8	0.00e+00	0	38	0	81788928	55	4669
2026-01-24 22:30:04.07	35.70	12.26	-41.5	-44.2	17.9	0.00e+00	0	38	0	82837504	55	4656
2026-01-24 22:30:05.06	35.81	12.34	-41.4	-44.1	18.0	0.00e+00	0	38	0	84934656	54	4884
2026-01-24 22:30:06.05	35.92	12.41	-41.5	-44.1	17.9	0.00e+00	0	38	0	87031808	54	4914
2026-01-24 22:30:07.05	36.04	12.49	-41.5	-44.1	18.0	0.00e+00	0	38	0	89128960	54	4890
2026-01-24 22:30:08.04	36.15	12.56	-41.5	-44.1	17.9	0.00e+00	0	38	0	90177536	54	4897
2026-01-24 22:30:09.04	36.27	12.64	-41.5	-44.1	17.9	0.00e+00	0	38	0	92274688	54	4899
2026-01-24 22:30:10.03	36.38	12.72	-41.6	-44.2	17.8	0.00e+00	0	38	0	94371840	54	4967
2026-01-24 22:30:11.03	36.50	12.80	-41.7	-44.3	17.8	0.00e+00	0	38	0	96468992	54	5016
2026-01-24 22:30:12.02	36.62	12.87	-41.7	-44.3	17.7	0.00e+00	0	38	0	98566144	54	5041
2026-01-24 22:30:13.02	36.74	12.95	-41.8	-44.4	17.7	0.00e+00	0	38	0	99614720	54	5059
2026-01-24 22:30:14.01	36.85	13.03	-41.8	-44.4	17.7	0.00e+00	0	38	0	101711872	54	5091
2026-01-24 22:30:15.01	36.97	13.11	-42.0	-44.6	17.5	0.00e+00	0	38	0	103809024	54	5212
2026-01-24 22:30:16.00	37.09	13.18	-41.9	-44.6	17.5	0.00e+00	0	38	0	105906176	54	5165
2026-01-24 22:30:17.00	37.21	13.26	-41.9	-44.6	17.5	0.00e+00	0	38	0	106954752	54	5160
2026-01-24 22:30:17.99	37.33	13.34	-42.0	-44.6	17.5	0.00e+00	0	38	0	109051904	54	5207
2026-01-24 22:30:18.98	37.45	13.42	-41.9	-44.5	17.6	0.00e+00	0	38	0	111149056	54	5151
2026-01-24 22:30:19.98	37.58	13.50	-41.9	-44.5	17.5	0.00e+00	0	38	0	113246208	54	5155
2026-01-24 22:30:20.97	37.70	13.58	-41.8	-44.3	17.8	0.00e+00	0	38	0	115343360	54	5021
2026-01-24 22:30:21.97	37.82	13.65	-41.7	-44.2	17.9	0.00e+00	0	38	0	116391936	54	4964
2026-01-24 22:30:22.97	37.95	13.73	-41.6	-44.1	18.0	0.00e+00	0	38	0	118489088	54	4914
2026-01-24 22:30:23.96	38.07	13.81	-41.6	-44.1	17.9	0.00e+00	0	38	0	120586240	54	4913
2026-01-24 22:30:24.96	38.20	13.89	-41.6	-44.1	18.0	0.00e+00	0	38	0	122683392	54	4889
2026-01-24 22:30:25.95	38.32	13.97	-41.6	-44.2	17.9	0.00e+00	0	38	0	123731968	54	4939
2026-01-24 22:30:26.95	38.45	14.05	-41.6	-44.2	17.9	0.00e+00	0	38	0	125829120	54	4939
2026-01-24 22:30:27.94	38.58	14.13	-41.7	-44.3	17.8	0.00e+00	0	38	0	127926272	54	5018
2026-01-24 22:30:28.94	38.71	14.21	-41.7	-44.3	17.8	0.00e+00	0	38	0	130023424	54	5017
2026-01-24 22:30:29.93	38.83	14.29	-41.6	-44.2	17.9	0.00e+00	0	38	0	132120576	54	4942
2026-01-24 22:30:30.93	38.96	14.37	-41.7	-44.2	17.9	0.00e+00	0	38	0	133169152	54	4967
2026-01-24 22:30:31.93	39.10	14.45	-41.7	-44.2	17.9	0.00e+00	0	38	0	135266304	54	4957
2026-01-24 22:30:32.92	39.23	14.53	-41.6	-44.0	18.1	0.00e+00	0	38	0	137363456	54	4870
2026-01-24 22:30:33.92	39.36	14.61	-41.6	-44.0	18.1	0.00e+00	0	38	0	139460608	54	4864
2026-01-24 22:30:34.91	39.49	14.69	-41.4	-43.9	18.3	0.00e+00	0	38	0	140509184	54	4761
2026-01-24 22:30:35.91	39.62	14.77	-41.4	-43.8	18.3	0.00e+00	0	38	0	142606336	54	4753
2026-01-24 22:30:36.90	39.76	14.85	-41.4	-43.8	18.4	0.00e+00	0	38	0	144703488	54	4738
2026-01-24 22:30:37.90	39.89	14.93	-41.4	-43.8	18.3	0.00e+00	0	38	0	146800640	54	4721
2026-01-24 22:30:38.89	40.02	15.01	-41.4	-43.8	18.2	0.00e+00	0	38	0	148897792	54	4753
2026-01-24 22:30:39.89	40.16	15.10	-41.4	-43.9	18.3	0.00e+00	0	38	0	149946368	54	4771
2026-01-24 22:30:40.88	40.30	15.18	-41.4	-43.8	18.3	0.00e+00	0	38	0	152043520	54	4743
2026-01-24 22:30:41.88	40.43	15.26	-41.4	-43.9	18.2	0.00e+00	0	38	0	154140672	54	4774
2026-01-24 22:30:42.87	40.57	15.34	-41.5	-44.0	18.1	0.00e+00	0	38	0	156237824	54	4836
2026-01-24 22:30:43.87	40.71	15.42	-41.4	-43.9	18.2	0.00e+00	0	38	0	157286400	54	4808
2026-01-24 22:30:44.86	40.85	15.50	-41.4	-43.9	18.2	0.00e+00	0	38	0	159383552	54	4808
2026-01-24 22:30:45.85	40.99	15.58	-41.5	-44.0	18.2	0.00e+00	0	38	0	161480704	54	4818
2026-01-24 22:30:46.85	41.13	15.67	-41.5	-44.0	18.1	0.00e+00	0	38	0	163577856	54	4847
2026-01-24 22:30:47.84	41.27	15.75	-41.5	-44.0	18.2	0.00e+00	0	38	0	165675008	54	4850
2026-01-24 22:30:48.84	41.41	15.83	-41.4	-43.8	18.3	0.00e+00	0	38	0	166723584	54	4740
2026-01-24 22:30:49.83	41.55	15.91	-41.3	-43.7	18.4	0.00e+00	0	38	0	168820736	54	4704
2026-01-24 22:30:50.83	41.70	16.00	-41.3	-43.7	18.4	0.00e+00	0	38	0	170917888	54	4702
2026-01-24 22:30:51.82	41.84	16.08	-41.2	-43.6	18.6	0.00e+00	0	38	0	173015040	54	4650
2026-01-24 22:30:52.82	41.99	16.16	-41.2	-43.6	18.5	0.00e+00	0	38	0	174063616	54	4651
2026-01-24 22:30:53.81	42.13	16.24	-41.2	-43.6	18.5	0.00e+00	0	38	0	176160768	54	4651
2026-01-24 22:30:54.80	42.28	16.33	-41.1	-43.5	18.6	0.00e+00	0	38	0	178257920	54	4593
2026-01-24 22:30:55.80	42.43	16.41	-41.2	-43.6	18.5	0.00e+00	0	38	0	180355072	54	4604
2026-01-24 22:30:56.80	42.58	16.49	-41.1	-43.5	18.6	0.00e+00	0	38	0	182452224	54	4553
2026-01-24 22:30:57.79	42.73	16.57	-41.1	-43.5	18.7	0.00e+00	0	38	0	183500800	54	4567
2026-01-24 22:30:58.78	42.88	16.66	-41.1	-43.5	18.7	0.00e+00	0	38	0	185597952	54	4566
2026-01-24 22:30:59.78	43.03	16.74	-41.1	-43.5	18.6	0.00e+00	0	38	0	187695104	54	4555
2026-01-24 22:31:00.77	43.18	16.82	-41.0	-43.4	18.8	0.00e+00	0	38	0	189792256	54	4499
2026-01-24 22:31:01.77	43.33	16.91	-41.0	-43.3	18.8	0.00e+00	0	38	0	190840832	53	4749
2026-01-24 22:31:02.76	43.48	16.99	-41.0	-43.4	18.8	0.00e+00	0	38	0	192937984	53	4769
2026-01-24 22:31:03.76	43.64	17.08	-41.0	-43.4	18.7	0.00e+00	0	38	0	195035136	53	4780
2026-01-24 22:31:04.75	43.79	17.16	-41.0	-43.3	18.8	0.00e+00	0	38	0	197132288	53	4734
2026-01-24 22:31:05.75	43.95	17.24	-41.0	-43.3	18.8	0.00e+00	0	38	0	199229440	53	4743
2026-01-24 22:31:06.74	44.11	17.33	-40.9	-43.3	18.9	0.00e+00	0	38	0	200278016	53	4717
2026-01-24 22:31:07.74	44.26	17.41	-41.0	-43.3	18.8	0.00e+00	0	38	0	202375168	53	4754
2026-01-24 22:31:08.73	44.42	17.50	-41.0	-43.3	18.8	0.00e+00	0	38	0	204472320	53	4740
2026-01-24 22:31:09.73	44.58	17.58	-41.0	-43.3	18.8	0.00e+00	0	38	0	206569472	53	4736
2026-01-24 22:31:10.72	44.74	17.66	-40.8	-43.1	19.0	0.00e+00	0	38	0	207618048	53	4633
2026-01-24 22:31:11.72	44.90	17.75	-40.8	-43.2	19.0	0.00e+00	0	38	0	209715200	53	4661
2026-01-24 22:31:12.71	45.06	17.83	-40.8	-43.1	19.0	0.00e+00	0	38	0	211812352	53	4624
2026-01-24 22:31:13.71	45.23	17.92	-40.8	-43.1	19.0	0.00e+00	0	38	0	213909504	53	4640
2026-01-24 22:31:14.70	45.39	18.00	-40.8	-43.1	19.1	0.00e+00	0	38	0	216006656	53	4627
2026-01-24 22:31:15.70	45.55	18.09	-40.8	-43.1	19.0	0.00e+00	0	38	0	217055232	53	4634
2026-01-24 22:31:16.69	45.72	18.17	-40.7	-43.0	19.2	0.00e+00	0	38	0	219152384	53	4573
2026-01-24 22:31:17.69	45.89	18.26	-40.7	-43.0	19.2	0.00e+00	0	38	0	221249536	53	4550
2026-01-24 22:31:18.68	46.05	18.34	-40.7	-43.0	19.2	0.00e+00	0	38	0	223346688	53	4565
2026-01-24 22:31:19.68	46.22	18.43	-40.8	-43.1	19.1	0.00e+00	0	38	0	224395264	53	4626
2026-01-24 22:31:20.67	46.39	18.51	-40.7	-43.0	19.2	0.00e+00	0	38	0	226492416	53	4551
2026-01-24 22:31:21.67	46.56	18.60	-40.6	-42.9	19.2	0.00e+00	0	38	0	228589568	53	4527
2026-01-24 22:31:22.66	46.73	18.68	-40.7	-43.0	19.2	0.00e+00	0	38	0	230686720	53	4558
2026-01-24 22:31:23.66	46.90	18.77	-40.6	-42.8	19.4	0.00e+00	0	38	0	232783872	53	4473
2026-01-24 22:31:24.65	47.08	18.85	-40.6	-42.9	19.3	0.00e+00	0	38	0	233832448	53	4507
2026-01-24 22:31:25.64	47.25	18.94	-40.7	-43.0	19.2	0.00e+00	0	38	0	235929600	53	4576
2026-01-24 22:31:26.64	47.42	19.02	-40.6	-42.9	19.2	0.00e+00	0	38	0	238026752	53	4527
2026-01-24 22:31:27.63	47.60	19.11	-40.6	-42.8	19.3	0.00e+00	0	38	0	240123904	53	4478
2026-01-24 22:31:28.63	47.78	19.20	-40.5	-42.7	19.4	0.00e+00	0	38	0	241172480	53	4429
2026-01-24 22:31:29.62	47.95	19.28	-40.5	-42.8	19.4	0.00e+00	0	38	0	243269632	53	4451
2026-01-24 22:31:30.62	48.13	19.37	-40.7	-43.0	19.2	0.00e+00	0	38	0	245366784	53	4561
2026-01-24 22:31:31.61	48.31	19.45	-40.6	-42.8	19.3	0.00e+00	0	38	0	247463936	53	4492
2026-01-24 22:31:32.61	48.49	19.54	-40.7	-42.9	19.2	0.00e+00	0	38	0	249561088	53	4539
2026-01-24 22:31:33.60	48.67	19.62	-40.6	-42.8	19.4	0.00e+00	0	38	0	250609664	53	4475
2026-01-24 22:31:34.59	48.85	19.71	-40.5	-42.7	19.4	0.00e+00	0	38	0	252706816	53	4413
2026-01-24 22:31:35.59	49.04	19.79	-40.5	-42.7	19.4	0.00e+00	0	38	0	254803968	52	4685
2026-01-24 22:31:36.58	49.22	19.88	-40.5	-42.7	19.4	0.00e+00	0	38	0	256901120	52	4703
2026-01-24 22:31:37.58	49.41	19.97	-40.5	-42.8	19.4	0.00e+00	0	38	0	257949696	52	4715
2026-01-24 22:31:38.57	49.59	20.05	-40.4	-42.6	19.6	0.00e+00	0	38	0	260046848	52	4617
2026-01-24 22:31:39.57	49.78	20.14	-40.3	-42.6	19.6	0.00e+00	0	38	0	262144000	52	4606
2026-01-24 22:31:40.56	49.97	20.22	-40.3	-42.5	19.7	0.00e+00	0	38	0	264241152	52	4556
2026-01-24 22:31:41.55	50.16	20.31	-40.3	-42.5	19.6	0.00e+00	0	38	0	266338304	52	4580
2026-01-24 22:31:42.55	50.35	20.39	-40.2	-42.4	19.7	0.00e+00	0	38	0	267386880	52	4515
2026-01-24 22:31:43.55	50.54	20.48	-40.1	-42.3	19.9	0.00e+00	0	39	0	269484032	52	4461
2026-01-24 22:31:44.54	50.73	20.56	-40.2	-42.3	19.8	0.00e+00	0	38	0	271581184	52	4489
2026-01-24 22:31:45.53	50.93	20.65	-40.2	-42.4	19.8	0.00e+00	0	38	0	273678336	52	4531
2026-01-24 22:31:46.53	51.12	20.74	-40.3	-42.5	19.7	0.00e+00	0	38	0	274726912	52	4552
2026-01-24 22:31:47.52	51.32	20.82	-40.3	-42.5	19.6	0.00e+00	0	38	0	276824064	52	4591
2026-01-24 22:31:48.52	51.52	20.91	-40.5	-42.7	19.5	0.00e+00	0	38	0	278921216	52	4701
2026-01-24 22:31:49.51	51.71	20.99	-40.5	-42.8	19.4	0.00e+00	0	38	0	281018368	52	4738
2026-01-24 22:31:50.51	51.91	21.08	-40.4	-42.6	19.6	0.00e+00	0	38	0	283115520	52	4629
2026-01-24 22:31:51.50	52.11	21.16	-40.3	-42.5	19.7	0.00e+00	0	38	0	284164096	52	4591
2026-01-24 22:31:52.49	52.31	21.25	-40.3	-42.5	19.6	0.00e+00	0	38	0	286261248	52	4591
2026-01-24 22:31:53.49	52.51	21.33	-40.2	-42.4	19.8	0.00e+00	0	38	0	288358400	52	4537
2026-01-24 22:31:54.48	52.72	21.42	-40.2	-42.5	19.7	0.00e+00	0	38	0	290455552	52	4547
2026-01-24 22:31:55.48	52.92	21.50	-40.3	-42.5	19.7	0.00e+00	0	38	0	291504128	52	4571
2026-01-24 22:31:56.47	53.13	21.59	-40.3	-42.5	19.7	0.00e+00	0	38	0	293601280	52	4572
2026-01-24 22:31:57.47	53.34	21.67	-40.3	-42.5	19.7	0.00e+00	0	38	0	295698432	52	4563
2026-01-24 22:31:58.46	53.54	21.76	-40.4	-42.6	19.6	0.00e+00	0	38	0	297795584	52	4616
2026-01-24 22:31:59.46	53.75	21.84	-40.4	-42.6	19.6	0.00e+00	0	38	0	299892736	52	4627
2026-01-24 22:32:00.45	53.96	21.93	-40.4	-42.6	19.6	0.00e+00	0	38	0	300941312	52	4643
2026-01-24 22:32:01.45	54.17	22.01	-40.4	-42.6	19.6	0.00e+00	0	38	0	303038464	52	4619
2026-01-24 22:32:02.44	54.38	22.10	-40.2	-42.4	19.7	0.00e+00	0	38	0	305135616	52	4538
2026-01-24 22:32:03.44	54.60	22.18	-40.3	-42.5	19.7	0.00e+00	0	38	0	307232768	52	4588
2026-01-24 22:32:04.43	54.81	22.26	-40.3	-42.5	19.7	0.00e+00	0	38	0	309329920	52	4559
2026-01-24 22:32:05.43	55.03	22.35	-40.3	-42.5	19.7	0.00e+00	0	38	0	310378496	52	4573
2026-01-24 22:32:06.42	55.24	22.43	-40.0	-42.2	20.0	0.00e+00	0	38	0	312475648	52	4419
2026-01-24 22:32:07.41	55.46	22.51	-40.1	-42.2	20.0	0.00e+00	0	38	0	314572800	52	4429
2026-01-24 22:32:08.41	55.68	22.60	-40.2	-42.4	19.9	0.00e+00	0	38	0	316669952	52	4500
2026-01-24 22:32:09.41	55.90	22.68	-40.2	-42.3	19.9	0.00e+00	0	38	0	317718528	52	4474
2026-01-24 22:32:10.40	56.12	22.77	-40.2	-42.4	19.8	0.00e+00	0	38	0	319815680	52	4524
2026-01-24 22:32:11.40	56.35	22.85	-40.2	-42.4	19.8	0.00e+00	0	38	0	321912832	52	4541
2026-01-24 22:32:12.39	56.57	22.93	-40.3	-42.5	19.7	0.00e+00	0	38	0	324009984	52	4576
2026-01-24 22:32:13.38	56.79	23.01	-40.4	-42.6	19.6	0.00e+00	0	38	0	326107136	52	4620
2026-01-24 22:32:14.38	57.02	23.10	-40.5	-42.7	19.5	0.00e+00	0	38	0	327155712	52	4683
2026-01-24 22:32:15.38	57.25	23.18	-40.4	-42.6	19.6	0.00e+00	0	38	0	329252864	52	4642
2026-01-24 22:32:16.37	57.48	23.26	-40.5	-42.7	19.5	0.00e+00	0	38	0	331350016	52	4692
2026-01-24 22:32:17.37	57.71	23.34	-40.5	-42.8	19.5	0.00e+00	0	38	0	333447168	52	4723
2026-01-24 22:32:18.36	57.94	23.43	-40.5	-42.7	19.5	0.00e+00	0	38	0	334495744	52	4700
2026-01-24 22:32:19.35	58.17	23.51	-40.6	-42.8	19.4	0.00e+00	0	38	0	336592896	52	4731
2026-01-24 22:32:20.35	58.40	23.59	-40.6	-42.9	19.3	0.00e+00	0	38	0	338690048	52	4794
2026-01-24 22:32:21.34	58.64	23.67	-40.7	-43.0	19.2	0.00e+00	0	38	0	340787200	52	4861
2026-01-24 22:32:22.34	58.87	23.75	-40.9	-43.2	19.1	0.00e+00	0	38	0	342884352	52	4950
2026-01-24 22:32:23.34	59.11	23.83	-40.9	-43.3	19.0	0.00e+00	0	38	0	343932928	52	5000
2026-01-24 22:32:24.33	59.35	23.91	-41.0	-43.3	18.9	0.00e+00	0	38	0	346030080	52	5040
2026-01-24 22:32:25.33	59.59	23.99	-41.0	-43.4	18.9	0.00e+00	0	38	0	348127232	52	5084
2026-01-24 22:32:26.32	59.83	24.07	-41.1	-43.5	18.8	0.00e+00	0	38	0	350224384	52	5124
2026-01-24 22:32:27.32	60.07	24.15	-41.1	-43.5	18.8	0.00e+00	0	38	0	351272960	52	5118
2026-01-24 22:32:28.31	60.31	24.23	-41.2	-43.5	18.7	0.00e+00	0	38	0	353370112	53	4862
2026-01-24 22:32:29.31	60.56	24.31	-41.1	-43.4	18.9	0.00e+00	0	38	0	355467264	53	4785
2026-01-24 22:32:30.30	60.80	24.39	-41.0	-43.4	18.9	0.00e+00	0	38	0	357564416	53	4772
2026-01-24 22:32:31.30	61.05	24.47	-40.9	-43.2	19.1	0.00e+00	0	38	0	359661568	53	4664
2026-01-24 22:32:32.29	61.30	24.55	-40.9	-43.2	19.1	0.00e+00	0	38	0	360710144	53	4690
2026-01-24 22:32:33.29	61.55	24.62	-41.0	-43.3	19.0	0.00e+00	0	38	0	362807296	53	4730
2026-01-24 22:32:34.28	61.79	24.70	-41.1	-43.5	18.9	0.00e+00	0	38	0	364904448	53	4818
2026-01-24 22:32:35.27	62.04	24.78	-41.2	-43.6	18.7	0.00e+00	0	39	0	367001600	53	4911
2026-01-24 22:32:36.27	62.30	24.86	-41.3	-43.8	18.6	0.00e+00	0	38	0	368050176	53	4987
2026-01-24 22:32:37.27	62.55	24.93	-41.5	-43.9	18.5	0.00e+00	0	38	0	370147328	53	5068
2026-01-24 22:32:38.26	62.81	25.01	-41.6	-44.1	18.3	0.00e+00	0	38	0	372244480	53	5193
2026-01-24 22:32:39.25	63.06	25.08	-41.7	-44.2	18.2	0.00e+00	0	38	0	374341632	54	4963
2026-01-24 22:32:40.25	63.32	25.16	-41.7	-44.2	18.2	0.00e+00	0	38	0	376438784	54	4961
2026-01-24 22:32:41.24	63.58	25.23	-41.7	-44.2	18.2	0.00e+00	0	38	0	377487360	54	4930
2026-01-24 22:32:42.24	63.84	25.31	-41.7	-44.2	18.2	0.00e+00	0	38	0	379584512	54	4955
2026-01-24 22:32:43.23	64.10	25.38	-41.8	-44.3	18.1	0.00e+00	0	38	0	381681664	54	5024
2026-01-24 22:32:44.23	64.36	25.46	-41.9	-44.3	18.0	0.00e+00	0	38	0	383778816	54	5037
2026-01-24 22:32:45.22	64.62	25.53	-41.8	-44.3	18.1	0.00e+00	0	38	0	384827392	54	5014
2026-01-24 22:32:46.22	64.89	25.60	-41.9	-44.4	18.0	0.00e+00	0	38	0	386924544	54	5090
2026-01-24 22:32:47.21	65.16	25.68	-42.0	-44.5	17.9	0.00e+00	0	38	0	389021696	54	5133
2026-01-24 22:32:48.21	65.42	25.75	-42.0	-44.5	17.9	0.00e+00	0	38	0	391118848	54	5137
2026-01-24 22:32:49.20	65.69	25.82	-42.1	-44.6	17.8	0.00e+00	0	39	0	393216000	54	5207
2026-01-24 22:32:50.20	65.96	25.89	-42.2	-44.8	17.6	0.00e+00	0	38	0	394264576	55	5040
2026-01-24 22:32:51.19	66.23	25.96	-42.4	-45.0	17.4	0.00e+00	0	38	0	396361728	55	5159
2026-01-24 22:32:52.19	66.50	26.03	-42.4	-45.1	17.3	0.00e+00	0	38	0	398458880	55	5192
2026-01-24 22:32:53.18	66.78	26.10	-42.5	-45.2	17.2	0.00e+00	0	38	0	400556032	55	5235
2026-01-24 22:32:54.18	67.05	26.17	-42.6	-45.3	17.2	0.00e+00	0	38	0	401604608	55	5298
2026-01-24 22:32:55.17	67.32	26.24	-42.5	-45.2	17.3	0.00e+00	0	38	0	403701760	55	5249
2026-01-24 22:32:56.17	67.60	26.31	-42.5	-45.2	17.2	0.00e+00	0	38	0	405798912	55	5236
2026-01-24 22:32:57.16	67.88	26.37	-42.6	-45.3	17.1	0.00e+00	0	38	0	407896064	55	5301
2026-01-24 22:32:58.15	68.16	26.44	-42.6	-45.3	17.1	0.00e+00	0	38	0	409993216	55	5332
2026-01-24 22:32:59.15	68.44	26.51	-42.9	-45.6	17.0	0.00e+00	0	38	0	411041792	56	5209
2026-01-24 22:33:00.14	68.72	26.57	-42.9	-45.7	16.9	0.00e+00	0	38	0	413138944	56	5255
2026-01-24 22:33:01.14	69.00	26.64	-43.0	-45.8	16.8	0.00e+00	0	38	0	415236096	56	5299
2026-01-24 22:33:02.13	69.28	26.70	-43.1	-45.9	16.7	0.00e+00	0	38	0	417333248	56	5369
2026-01-24 22:33:03.13	69.57	26.77	-43.1	-45.9	16.7	0.00e+00	0	38	0	418381824	56	5343
2026-01-24 22:33:04.12	69.85	26.83	-42.9	-45.7	16.9	0.00e+00	0	38	0	420478976	56	5234
2026-01-24 22:33:05.12	70.14	26.90	-43.1	-45.9	16.7	0.00e+00	0	38	0	422576128	56	5375
2026-01-24 22:33:06.11	70.43	26.96	-43.0	-45.8	16.8	0.00e+00	0	38	0	424673280	56	5309
2026-01-24 22:33:07.10	70.72	27.02	-43.0	-45.8	16.8	0.00e+00	0	38	0	426770432	56	5295
2026-01-24 22:33:08.10	71.01	27.08	-43.1	-45.9	16.7	0.00e+00	0	38	0	427819008	56	5378
2026-01-24 22:33:09.09	71.30	27.14	-43.2	-46.0	16.6	0.00e+00	0	38	0	429916160	56	5437
2026-01-24 22:33:10.09	71.59	27.20	-43.1	-46.0	16.6	0.00e+00	0	38	0	432013312	57	5108
2026-01-24 22:33:11.08	71.88	27.26	-43.1	-46.0	16.6	0.00e+00	0	38	0	434110464	57	5131
2026-01-24 22:33:12.08	72.18	27.32	-43.1	-46.0	16.6	0.00e+00	0	38	0	435159040	57	5106
2026-01-24 22:33:13.07	72.47	27.38	-43.1	-46.0	16.6	0.00e+00	0	38	0	437256192	57	5116
2026-01-24 22:33:14.07	72.77	27.44	-42.9	-45.6	17.0	0.00e+00	0	38	0	439353344	57	4905
2026-01-24 22:33:15.06	73.07	27.49	-42.7	-45.4	17.2	0.00e+00	0	38	0	441450496	57	4805
2026-01-24 22:33:16.06	73.37	27.55	-42.9	-45.6	17.0	0.00e+00	0	38	0	443547648	57	4881
2026-01-24 22:33:17.05	73.67	27.60	-43.0	-45.8	16.8	0.00e+00	0	38	0	444596224	57	5035
2026-01-24 22:33:18.04	73.97	27.66	-43.2	-46.1	16.5	0.00e+00	0	38	0	446693376	57	5181
2026-01-24 22:33:19.04	74.27	27.71	-43.5	-46.5	16.1	0.00e+00	0	38	0	448790528	57	5434
2026-01-24 22:33:20.03	74.57	27.76	-43.8	-47.0	15.7	0.00e+00	0	38	0	450887680	58	5404
2026-01-24 22:33:21.03	74.88	27.82	-44.0	-47.1	15.5	0.00e+00	0	38	0	451936256	58	5525
2026-01-24 22:33:22.02	75.18	27.87	-44.2	-47.4	15.0	0.00e+00	0	38	0	454033408	59	5388
2026-01-24 22:33:23.02	75.49	27.92	-44.2	-47.5	15.1	0.00e+00	0	38	0	456130560	59	5454
2026-01-24 22:33:24.01	75.79	27.97	-44.1	-47.4	15.2	0.00e+00	0	38	0	458227712	59	5369
2026-01-24 22:33:25.01	76.10	28.02	-44.1	-47.3	15.3	0.00e+00	0	38	0	460324864	59	5338
2026-01-24 22:33:26.00	76.41	28.07	-44.0	-47.3	15.4	7.00e-07	0	38	0	461373440	59	5290
2026-01-24 22:33:27.00	76.72	28.11	-44.0	-47.2	15.4	0.00e+00	0	38	0	463470592	59	5244
2026-01-24 22:33:28.00	77.03	28.16	-43.9	-47.2	15.5	0.00e+00	0	38	0	465567744	59	5227
2026-01-24 22:33:28.99	77.34	28.21	-43.9	-47.0	15.6	0.00e+00	0	38	0	467664896	59	5131
2026-01-24 22:33:29.98	77.65	28.25	-43.7	-46.8	15.9	0.00e+00	0	38	0	468713472	59	5000
2026-01-24 22:33:30.98	77.97	28.30	-43.7	-46.7	15.9	0.00e+00	0	39	0	470810624	59	4970
2026-01-24 22:33:31.97	78.28	28.34	-43.5	-46.6	16.0	0.00e+00	0	39	0	472907776	59	4872
2026-01-24 22:33:32.97	78.59	28.38	-43.4	-46.3	16.3	0.00e+00	0	38	0	475004928	58	5026
2026-01-24 22:33:33.96	78.91	28.42	-43.3	-46.2	16.5	0.00e+00	0	38	0	477102080	58	4933
2026-01-24 22:33:34.96	79.23	28.46	-43.3	-46.2	16.4	0.00e+00	0	38	0	478150656	58	4968
2026-01-24 22:33:35.95	79.54	28.50	-43.4	-46.3	16.3	0.00e+00	0	38	0	480247808	58	5034
2026-01-24 22:33:36.94	79.86	28.54	-43.5	-46.5	16.1	0.00e+00	0	39	0	482344960	58	5142
2026-01-24 22:33:37.94	80.18	28.58	-43.8	-47.0	15.7	0.00e+00	0	38	0	484442112	58	5406
2026-01-24 22:33:38.93	80.50	28.62	-44.0	-47.3	15.4	0.00e+00	0	38	0	485490688	58	5617
2026-01-24 22:33:39.93	80.82	28.66	-44.2	-47.5	15.1	0.00e+00	0	38	0	487587840	58	5769
2026-01-24 22:33:40.92	81.14	28.69	-44.1	-47.4	15.2	0.00e+00	0	38	0	489684992	58	5687
2026-01-24 22:33:41.92	81.46	28.73	-44.1	-47.4	15.2	0.00e+00	0	38	0	491782144	58	5717
2026-01-24 22:33:42.91	81.78	28.76	-43.9	-47.2	15.5	0.00e+00	0	38	0	493879296	58	5546
2026-01-24 22:33:43.91	82.11	28.79	-43.9	-47.3	15.4	0.00e+00	0	38	0	494927872	58	5599
2026-01-24 22:33:44.90	82.43	28.82	-43.9	-47.3	15.5	0.00e+00	0	38	0	497025024	58	5594
2026-01-24 22:33:45.90	82.75	28.85	-43.7	-47.0	15.7	0.00e+00	0	38	0	499122176	58	5421
2026-01-24 22:33:46.89	83.08	28.88	-43.6	-46.7	16.0	0.00e+00	0	38	0	501219328	58	5275
2026-01-24 22:33:47.89	83.40	28.91	-43.4	-46.5	16.2	0.00e+00	0	38	0	502267904	58	5118
2026-01-24 22:33:48.88	83.73	28.94	-43.2	-46.2	16.5	0.00e+00	0	38	0	504365056	58	4951
2026-01-24 22:33:49.88	84.06	28.97	-43.2	-46.1	16.5	0.00e+00	0	39	0	506462208	58	4925
2026-01-24 22:33:50.87	84.38	28.99	-43.1	-46.0	16.7	0.00e+00	0	38	0	508559360	58	4860
2026-01-24 22:33:51.86	84.71	29.02	-43.2	-46.2	16.5	0.00e+00	0	38	0	510656512	58	4947
2026-01-24 22:33:52.86	85.04	29.04	-43.2	-46.2	16.5	0.00e+00	0	39	0	511705088	58	4953
2026-01-24 22:33:53.86	85.37	29.07	-43.3	-46.3	16.4	0.00e+00	0	39	0	513802240	58	4990
2026-01-24 22:33:54.85	85.70	29.09	-43.4	-46.4	16.3	0.00e+00	0	38	0	515899392	58	5093
2026-01-24 22:33:55.84	86.02	29.11	-43.4	-46.5	16.2	0.00e+00	0	38	0	517996544	58	5125
2026-01-24 22:33:56.84	86.36	29.13	-43.4	-46.5	16.3	0.00e+00	0	39	0	519045120	58	5114
2026-01-24 22:33:57.83	86.68	29.15	-43.2	-46.2	16.4	0.00e+00	0	38	0	521142272	58	4953
2026-01-24 22:33:58.83	87.02	29.17	-42.8	-45.7	16.9	0.00e+00	0	38	0	523239424	57	4938
2026-01-24 22:33:59.83	87.35	29.19	-42.8	-45.6	17.1	0.00e+00	0	38	0	525336576	57	4898
2026-01-24 22:34:00.82	87.68	29.20	-42.7	-45.5	17.2	0.00e+00	0	38	0	527433728	57	4830
2026-01-24 22:34:01.82	88.01	29.22	-42.7	-45.4	17.3	0.00e+00	0	39	0	528482304	57	4801
2026-01-24 22:34:02.81	88.34	29.23	-43.0	-45.9	16.8	0.00e+00	0	39	0	530579456	57	5074
2026-01-24 22:34:03.80	88.67	29.24	-43.3	-46.3	16.4	0.00e+00	0	39	0	532676608	57	5293
2026-01-24 22:34:04.80	89.01	29.26	-43.6	-46.7	16.0	0.00e+00	0	38	0	534773760	57	5550
2026-01-24 22:34:05.79	89.34	29.27	-43.6	-46.7	16.0	0.00e+00	0	38	0	535822336	58	5220
2026-01-24 22:34:06.79	89.68	29.28	-43.7	-46.7	16.0	0.00e+00	0	38	0	537919488	58	5261
2026-01-24 22:34:07.78	90.01	29.29	-43.4	-46.4	16.3	0.00e+00	0	39	0	540016640	58	5063
2026-01-24 22:34:08.78	90.34	29.29	-43.0	-45.9	16.8	0.00e+00	0	38	0	542113792	58	4786
2026-01-24 22:34:09.77	90.67	29.30	-42.6	-45.3	17.4	0.00e+00	0	38	0	544210944	57	4752
2026-01-24 22:34:10.77	91.01	29.31	-42.3	-44.9	17.8	0.00e+00	0	38	0	545259520	56	4796
2026-01-24 22:34:11.76	91.34	29.31	-42.3	-44.9	17.8	0.00e+00	0	38	0	547356672	56	4782
2026-01-24 22:34:12.76	91.68	29.32	-42.6	-45.2	17.6	0.00e+00	0	39	0	549453824	56	4927
2026-01-24 22:34:13.75	92.01	29.32	-42.6	-45.2	17.5	0.00e+00	0	38	0	551550976	56	4939
2026-01-24 22:34:14.75	92.35	29.32	-42.8	-45.6	17.2	0.00e+00	0	39	0	553648128	56	5168
2026-01-24 22:34:15.74	92.68	29.32	-42.9	-45.7	17.1	0.00e+00	0	39	0	554696704	56	5265
2026-01-24 22:34:16.74	93.01	29.32	-43.0	-45.9	16.9	0.00e+00	0	38	0	556793856	56	5351
2026-01-24 22:34:17.73	93.35	29.32	-43.1	-46.0	16.7	0.00e+00	0	38	0	558891008	56	5447
2026-01-24 22:34:18.73	93.68	29.32	-43.0	-45.9	16.9	0.00e+00	0	38	0	560988160	56	5363
2026-01-24 22:34:19.72	94.02	29.31	-42.9	-45.7	17.1	0.00e+00	0	38	0	562036736	56	5220
2026-01-24 22:34:20.72	94.35	29.31	-42.5	-45.1	17.6	0.00e+00	0	38	0	564133888	56	4913
2026-01-24 22:34:21.71	94.68	29.30	-42.4	-45.0	17.8	0.00e+00	0	38	0	566231040	56	4818
2026-01-24 22:34:22.71	95.02	29.30	-42.5	-45.1	17.7	0.00e+00	0	38	0	568328192	56	4886
2026-01-24 22:34:23.70	95.35	29.29	-42.8	-45.5	17.4	0.00e+00	0	39	0	570425344	56	5106
2026-01-24 22:34:24.69	95.68	29.28	-43.1	-45.9	17.0	0.00e+00	0	38	0	571473920	56	5341
2026-01-24 22:34:25.69	96.02	29.27	-43.4	-46.3	16.6	0.00e+00	0	38	0	573571072	57	5303
2026-01-24 22:34:26.68	96.35	29.26	-43.8	-46.9	16.0	0.00e+00	0	39	0	575668224	58	5351
2026-01-24 22:34:27.68	96.68	29.25	-44.1	-47.2	15.6	0.00e+00	0	39	0	577765376	58	5590
2026-01-24 22:34:28.67	97.01	29.23	-44.0	-47.1	15.6	0.00e+00	0	39	0	578813952	58	5520
2026-01-24 22:34:29.67	97.35	29.22	-43.8	-46.9	15.9	0.00e+00	0	38	0	580911104	58	5363
2026-01-24 22:34:30.66	97.68	29.21	-43.5	-46.4	16.4	0.00e+00	0	38	0	583008256	58	5072
2026-01-24 22:34:31.66	98.01	29.19	-43.4	-46.2	16.6	0.00e+00	0	38	0	585105408	58	4967
2026-01-24 22:34:32.65	98.34	29.17	-43.1	-45.9	16.9	0.00e+00	0	38	0	587202560	58	4776
2026-01-24 22:34:33.64	98.67	29.15	-43.2	-46.0	16.8	0.00e+00	0	38	0	588251136	58	4845
2026-01-24 22:34:34.64	99.00	29.14	-43.6	-46.6	16.3	0.00e+00	0	38	0	590348288	58	5168
2026-01-24 22:34:35.64	99.34	29.12	-44.1	-47.3	15.5	0.00e+00	0	38	0	592445440	58	5649
2026-01-24 22:34:36.63	99.67	29.09	-44.6	-48.1	14.8	0.00e+00	0	38	0	594542592	59	5808
2026-01-24 22:34:37.63	100.00	29.07	-44.8	-48.6	14.3	0.00e+00	0	38	0	595591168	60	5823
2026-01-24 22:34:38.62	100.32	29.05	-44.7	-48.3	14.5	3.00e-06	0	38	0	597688320	60	5650
2026-01-24 22:34:39.61	100.65	29.03	-44.3	-47.7	15.0	0.00e+00	0	38	0	599785472	60	5277
2026-01-24 22:34:40.61	100.98	29.00	-44.4	-47.8	15.1	0.00e+00	0	38	0	601882624	60	5286
2026-01-24 22:34:41.60	101.31	28.97	-44.4	-47.7	15.1	0.00e+00	0	38	0	603979776	60	5250
2026-01-24 22:34:42.60	101.64	28.95	-44.2	-47.4	15.4	0.00e+00	0	38	0	605028352	60	5046
2026-01-24 22:34:43.59	101.96	28.92	-44.2	-47.3	15.4	0.00e+00	0	38	0	607125504	60	5039
2026-01-24 22:34:44.59	102.29	28.89	-44.3	-47.6	15.2	0.00e+00	0	38	0	609222656	60	5169
2026-01-24 22:34:45.58	102.61	28.86	-43.9	-46.9	15.9	0.00e+00	0	38	0	611319808	59	5062
2026-01-24 22:34:46.58	102.94	28.83	-43.7	-46.6	16.2	0.00e+00	0	38	0	612368384	59	4902
2026-01-24 22:34:47.57	103.26	28.80	-43.4	-46.2	16.6	0.00e+00	0	39	0	614465536	58	4975
2026-01-24 22:34:48.56	103.58	28.77	-43.3	-46.1	16.7	0.00e+00	0	38	0	616562688	58	4910
2026-01-24 22:34:49.56	103.91	28.73	-43.5	-46.5	16.3	0.00e+00	0	38	0	618659840	58	5104
2026-01-24 22:34:50.55	104.23	28.70	-43.8	-46.9	15.9	0.00e+00	0	39	0	620756992	58	5360
2026-01-24 22:34:51.54	104.55	28.66	-44.1	-47.3	15.5	0.00e+00	0	38	0	621805568	58	5642
2026-01-24 22:34:52.54	104.87	28.63	-44.1	-47.3	15.5	0.00e+00	0	38	0	623902720	58	5628
2026-01-24 22:34:53.53	105.19	28.59	-43.8	-46.9	15.9	0.00e+00	0	38	0	625999872	58	5377
2026-01-24 22:34:54.53	105.51	28.55	-43.3	-46.2	16.6	0.00e+00	0	38	0	628097024	58	4960
2026-01-24 22:34:55.52	105.83	28.51	-43.2	-46.0	16.8	0.00e+00	0	38	0	629145600	58	4859
2026-01-24 22:34:56.52	106.15	28.47	-42.9	-45.6	17.2	0.00e+00	0	38	0	631242752	57	4908
2026-01-24 22:34:57.51	106.46	28.43	-42.7	-45.4	17.4	0.00e+00	0	38	0	633339904	57	4792
2026-01-24 22:34:58.51	106.78	28.39	-42.6	-45.3	17.5	0.00e+00	0	38	0	635437056	57	4713
2026-01-24 22:34:59.50	107.10	28.35	-42.3	-44.9	17.8	0.00e+00	0	38	0	637534208	56	4801
2026-01-24 22:35:00.49	107.41	28.30	-42.1	-44.7	18.1	0.00e+00	0	39	0	638582784	56	4657
2026-01-24 22:35:01.49	107.72	28.26	-42.1	-44.7	18.1	0.00e+00	0	39	0	640679936	56	4678
2026-01-24 22:35:02.48	108.04	28.21	-42.3	-44.9	17.9	0.00e+00	0	39	0	642777088	56	4793
2026-01-24 22:35:03.48	108.35	28.17	-42.3	-44.9	17.9	0.00e+00	0	38	0	644874240	56	4761
2026-01-24 22:35:04.47	108.66	28.12	-42.3	-44.9	17.9	0.00e+00	0	38	0	645922816	56	4786
2026-01-24 22:35:05.47	108.97	28.07	-42.5	-45.1	17.7	0.00e+00	0	39	0	648019968	56	4909
2026-01-24 22:35:06.46	109.28	28.03	-42.6	-45.2	17.5	0.00e+00	0	38	0	650117120	56	4974
2026-01-24 22:35:07.46	109.59	27.98	-42.7	-45.3	17.5	0.00e+00	0	38	0	652214272	56	5029
2026-01-24 22:35:08.45	109.90	27.93	-42.7	-45.3	17.4	0.00e+00	0	38	0	654311424	56	5036
2026-01-24 22:35:09.45	110.21	27.88	-42.6	-45.2	17.6	0.00e+00	0	38	0	655360000	56	4937
2026-01-24 22:35:10.44	110.51	27.82	-42.1	-44.6	18.2	0.00e+00	0	38	0	657457152	56	4615
2026-01-24 22:35:11.44	110.82	27.77	-41.8	-44.2	18.4	0.00e+00	0	38	0	659554304	55	4680
2026-01-24 22:35:12.43	111.12	27.72	-41.6	-44.0	18.5	0.00e+00	0	38	0	661651456	55	4587
2026-01-24 22:35:13.43	111.42	27.67	-41.6	-44.0	18.6	0.00e+00	0	38	0	662700032	55	4567
2026-01-24 22:35:14.42	111.72	27.61	-41.6	-44.0	18.5	0.00e+00	0	38	0	664797184	55	4594
2026-01-24 22:35:15.42	112.03	27.56	-41.6	-44.0	18.5	0.00e+00	0	38	0	666894336	55	4598
2026-01-24 22:35:16.41	112.32	27.50	-41.8	-44.3	18.3	0.00e+00	0	38	0	668991488	55	4724
2026-01-24 22:35:17.41	112.62	27.44	-42.0	-44.5	18.1	0.00e+00	0	39	0	671088640	55	4868
2026-01-24 22:35:18.40	112.92	27.39	-42.4	-45.0	17.6	0.00e+00	0	38	0	672137216	55	5142
2026-01-24 22:35:19.40	113.22	27.33	-42.5	-45.2	17.4	0.00e+00	0	38	0	674234368	55	5259
2026-01-24 22:35:20.39	113.51	27.27	-42.7	-45.4	17.2	0.00e+00	0	38	0	676331520	55	5376
2026-01-24 22:35:21.39	113.81	27.21	-42.7	-45.4	17.3	0.00e+00	0	38	0	678428672	56	5094
2026-01-24 22:35:22.38	114.10	27.15	-42.8	-45.5	17.3	0.00e+00	0	38	0	679477248	56	5114
2026-01-24 22:35:23.38	114.39	27.09	-42.8	-45.5	17.3	0.00e+00	0	38	0	681574400	56	5122
2026-01-24 22:35:24.37	114.68	27.03	-42.8	-45.5	17.3	0.00e+00	0	38	0	683671552	56	5151
2026-01-24 22:35:25.37	114.98	26.96	-42.9	-45.6	17.2	0.00e+00	0	38	0	685768704	56	5195
2026-01-24 22:35:26.36	115.26	26.90	-42.8	-45.5	17.3	0.00e+00	0	38	0	687865856	56	5114
2026-01-24 22:35:27.35	115.55	26.84	-42.6	-45.3	17.5	0.00e+00	0	38	0	688914432	56	4996
2026-01-24 22:35:28.35	115.84	26.77	-42.6	-45.2	17.5	0.00e+00	0	38	0	691011584	56	4967
2026-01-24 22:35:29.34	116.12	26.71	-42.6	-45.3	17.5	0.00e+00	0	38	0	693108736	56	4998
2026-01-24 22:35:30.34	116.41	26.65	-42.4	-45.0	17.8	0.00e+00	0	38	0	695205888	56	4825
2026-01-24 22:35:31.33	116.69	26.58	-42.4	-45.0	17.8	0.00e+00	0	38	0	696254464	56	4818
2026-01-24 22:35:32.33	116.98	26.51	-42.6	-45.2	17.6	0.00e+00	0	38	0	698351616	56	4971
2026-01-24 22:35:33.32	117.26	26.45	-42.8	-45.4	17.3	0.00e+00	0	38	0	700448768	56	5100
2026-01-24 22:35:34.32	117.54	26.38	-42.8	-45.4	17.4	0.00e+00	0	38	0	702545920	56	5090
2026-01-24 22:35:35.31	117.81	26.31	-42.9	-45.6	17.2	0.00e+00	0	38	0	704643072	56	5170
2026-01-24 22:35:36.30	118.09	26.24	-42.9	-45.6	17.1	0.00e+00	0	38	0	705691648	56	5218
2026-01-24 22:35:37.30	118.37	26.17	-42.9	-45.7	17.1	0.00e+00	0	38	0	707788800	56	5251
2026-01-24 22:35:38.29	118.64	26.10	-43.0	-45.8	17.0	0.00e+00	0	38	0	709885952	56	5310
2026-01-24 22:35:39.29	118.92	26.03	-42.9	-45.7	17.1	0.00e+00	0	38	0	711983104	56	5245
2026-01-24 22:35:40.28	119.19	25.96	-42.8	-45.5	17.2	0.00e+00	0	38	0	713031680	56	5145
2026-01-24 22:35:41.28	119.46	25.89	-42.7	-45.4	17.4	0.00e+00	0	38	0	715128832	56	5068
2026-01-24 22:35:42.27	119.73	25.82	-42.7	-45.3	17.5	0.00e+00	0	38	0	717225984	56	4994
2026-01-24 22:35:43.26	120.00	25.75	-42.6	-45.1	17.6	0.00e+00	0	38	0	719323136	56	4915
2026-01-24 22:35:44.26	120.27	25.68	-42.5	-45.0	17.7	0.00e+00	0	38	0	721420288	56	4868
2026-01-24 22:35:45.25	120.54	25.60	-42.4	-44.9	17.8	0.00e+00	0	38	0	722468864	56	4788
2026-01-24 22:35:46.25	120.80	25.53	-42.2	-44.7	17.9	0.00e+00	0	38	0	724566016	56	4703
2026-01-24 22:35:47.24	121.07	25.46	-42.1	-44.6	18.1	0.00e+00	0	38	0	726663168	56	4618
2026-01-24 22:35:48.24	121.33	25.38	-42.0	-44.5	18.3	0.00e+00	0	38	0	728760320	56	4558
2026-01-24 22:35:49.23	121.59	25.31	-41.5	-43.9	18.6	0.00e+00	0	38	0	729808896	55	4516
2026-01-24 22:35:50.23	121.85	25.23	-41.5	-43.9	18.7	0.00e+00	0	38	0	731906048	54	4763
2026-01-24 22:35:51.22	122.11	25.16	-41.7	-44.1	18.5	0.00e+00	0	38	0	734003200	54	4879
2026-01-24 22:35:52.21	122.37	25.08	-41.7	-44.1	18.4	0.00e+00	0	38	0	736100352	54	4923
2026-01-24 22:35:53.21	122.63	25.01	-42.1	-44.6	17.9	0.00e+00	0	38	0	738197504	54	5218
2026-01-24 22:35:54.21	122.89	24.93	-42.1	-44.6	17.9	0.00e+00	0	38	0	739246080	54	5201
2026-01-24 22:35:55.20	123.14	24.85	-42.0	-44.5	18.1	0.00e+00	0	38	0	741343232	54	5128
2026-01-24 22:35:56.20	123.40	24.78	-41.6	-44.0	18.6	0.00e+00	0	38	0	743440384	54	4815
2026-01-24 22:35:57.19	123.65	24.70	-41.6	-43.9	18.6	0.00e+00	0	38	0	745537536	54	4809
2026-01-24 22:35:58.19	123.90	24.62	-41.6	-44.0	18.6	0.00e+00	0	38	0	746586112	54	4822
2026-01-24 22:35:59.18	124.15	24.54	-41.7	-44.1	18.4	0.00e+00	0	38	0	748683264	54	4919
2026-01-24 22:36:00.18	124.40	24.46	-41.9	-44.4	18.1	0.00e+00	0	39	0	750780416	54	5084
2026-01-24 22:36:01.18	124.65	24.38	-41.9	-44.4	18.2	0.00e+00	0	38	0	752877568	54	5051
2026-01-24 22:36:02.17	124.89	24.30	-42.0	-44.4	18.1	0.00e+00	0	38	0	754974720	54	5091
2026-01-24 22:36:03.17	125.14	24.22	-41.6	-44.1	18.5	0.00e+00	0	38	0	756023296	54	4882
2026-01-24 22:36:04.16	125.38	24.14	-41.6	-44.0	18.6	0.00e+00	0	39	0	758120448	54	4837
2026-01-24 22:36:05.16	125.63	24.06	-41.8	-44.3	18.3	0.00e+00	0	38	0	760217600	54	4989
2026-01-24 22:36:06.16	125.87	23.98	-42.1	-44.7	17.9	0.00e+00	0	38	0	762314752	54	5236
2026-01-24 22:36:07.15	126.11	23.90	-42.3	-44.9	17.7	0.00e+00	0	38	0	764411904	55	5091
2026-01-24 22:36:08.15	126.35	23.82	-42.3	-44.9	17.6	0.00e+00	0	39	0	765460480	55	5090
2026-01-24 22:36:09.14	126.58	23.74	-42.3	-45.0	17.6	0.00e+00	0	38	0	767557632	55	5106
2026-01-24 22:36:10.14	126.82	23.66	-42.1	-44.6	17.9	0.00e+00	0	38	0	769654784	55	4914
2026-01-24 22:36:11.13	127.06	23.58	-41.8	-44.3	18.2	0.00e+00	0	38	0	771751936	55	4730
2026-01-24 22:36:12.13	127.29	23.49	-41.9	-44.4	18.1	0.00e+00	0	38	0	772800512	55	4782
2026-01-24 22:36:13.12	127.52	23.41	-42.1	-44.7	17.9	0.00e+00	0	38	0	774897664	55	4975
2026-01-24 22:36:14.12	127.76	23.33	-42.6	-45.3	17.3	0.00e+00	0	38	0	776994816	55	5301
2026-01-24 22:36:15.11	127.99	23.25	-43.2	-46.1	16.7	0.00e+00	0	38	0	779091968	56	5488
2026-01-24 22:36:16.11	128.22	23.16	-43.2	-46.0	16.7	0.00e+00	0	38	0	781189120	57	5151
2026-01-24 22:36:17.10	128.45	23.08	-43.0	-45.8	17.0	0.00e+00	0	38	0	782237696	57	4995
2026-01-24 22:36:18.10	128.67	23.00	-42.7	-45.3	17.4	0.00e+00	0	38	0	784334848	57	4728
2026-01-24 22:36:19.10	128.90	22.91	-42.7	-45.3	17.4	0.00e+00	0	38	0	786432000	57	4737
2026-01-24 22:36:20.09	129.12	22.83	-42.8	-45.5	17.3	0.00e+00	0	38	0	788529152	57	4819
2026-01-24 22:36:21.09	129.35	22.75	-42.9	-45.5	17.2	0.00e+00	0	38	0	789577728	57	4869
2026-01-24 22:36:22.08	129.57	22.66	-43.0	-45.7	17.0	0.00e+00	0	38	0	791674880	57	4973
2026-01-24 22:36:23.08	129.79	22.58	-43.2	-46.0	16.7	0.00e+00	0	38	0	793772032	57	5154
2026-01-24 22:36:24.07	130.01	22.50	-42.9	-45.6	17.1	0.00e+00	0	38	0	795869184	57	4922
2026-01-24 22:36:25.07	130.23	22.41	-42.3	-44.9	17.8	0.00e+00	0	38	0	797966336	56	4775
2026-01-24 22:36:26.06	130.45	22.33	-42.0	-44.5	18.2	0.00e+00	0	39	0	799014912	56	4551
2026-01-24 22:36:27.06	130.67	22.24	-41.6	-44.0	18.4	0.00e+00	0	38	0	801112064	55	4585
2026-01-24 22:36:28.05	130.88	22.16	-41.5	-43.9	18.6	0.00e+00	0	38	0	803209216	55	4495
2026-01-24 22:36:29.05	131.10	22.07	-41.5	-43.9	18.6	0.00e+00	0	38	0	805306368	54	4788
2026-01-24 22:36:30.04	131.31	21.99	-41.9	-44.4	18.1	0.00e+00	0	38	0	806354944	54	5070
2026-01-24 22:36:31.04	131.52	21.90	-42.3	-45.0	17.6	0.00e+00	0	38	0	808452096	55	5125
2026-01-24 22:36:32.03	131.73	21.82	-42.6	-45.3	17.2	0.00e+00	0	38	0	810549248	55	5311
2026-01-24 22:36:33.02	131.94	21.73	-42.5	-45.2	17.3	0.00e+00	0	38	0	812646400	55	5250
2026-01-24 22:36:34.02	132.15	21.65	-42.5	-45.2	17.4	0.00e+00	0	38	0	814743552	55	5223
2026-01-24 22:36:35.01	132.36	21.56	-42.2	-44.8	17.7	0.00e+00	0	38	0	815792128	55	4988
2026-01-24 22:36:36.01	132.57	21.47	-42.1	-44.6	17.9	0.00e+00	0	38	0	817889280	55	4910
2026-01-24 22:36:37.00	132.77	21.39	-42.2	-44.7	17.7	0.00e+00	0	39	0	819986432	55	4970
2026-01-24 22:36:38.00	132.97	21.30	-42.5	-45.1	17.4	0.00e+00	0	38	0	822083584	55	5203
2026-01-24 22:36:38.99	133.18	21.22	-42.9	-45.7	17.0	0.00e+00	0	38	0	823132160	56	5239
2026-01-24 22:36:39.99	133.38	21.13	-43.1	-45.9	16.8	0.00e+00	0	39	0	825229312	56	5355
2026-01-24 22:36:40.98	133.58	21.05	-43.0	-45.8	16.9	0.00e+00	0	38	0	827326464	56	5304
2026-01-24 22:36:41.97	133.78	20.96	-42.7	-45.4	17.3	0.00e+00	0	38	0	829423616	56	5091
2026-01-24 22:36:42.97	133.98	20.87	-42.6	-45.2	17.5	0.00e+00	0	38	0	831520768	56	4965
2026-01-24 22:36:43.96	134.18	20.79	-41.8	-44.2	18.2	0.00e+00	0	38	0	832569344	55	4703
2026-01-24 22:36:44.96	134.37	20.70	-41.4	-43.8	18.6	0.00e+00	0	38	0	834666496	54	4758
2026-01-24 22:36:45.95	134.57	20.62	-41.5	-44.0	18.5	0.00e+00	0	38	0	836763648	54	4818
2026-01-24 22:36:46.95	134.76	20.53	-41.7	-44.2	18.3	0.00e+00	0	38	0	838860800	54	4942
2026-01-24 22:36:47.94	134.96	20.44	-41.8	-44.3	18.2	0.00e+00	0	38	0	839909376	54	4994
2026-01-24 22:36:48.94	135.15	20.36	-42.0	-44.5	18.0	0.00e+00	0	38	0	842006528	54	5138
2026-01-24 22:36:49.93	135.34	20.27	-41.9	-44.5	18.0	0.00e+00	0	38	0	844103680	54	5105
2026-01-24 22:36:50.93	135.53	20.18	-41.7	-44.2	18.3	0.00e+00	0	38	0	846200832	54	4942
2026-01-24 22:36:51.92	135.72	20.10	-41.6	-44.0	18.4	0.00e+00	0	38	0	848297984	54	4868
2026-01-24 22:36:52.92	135.91	20.01	-41.5	-43.9	18.5	0.00e+00	0	38	0	849346560	54	4797
2026-01-24 22:36:53.92	136.10	19.92	-41.5	-43.9	18.6	0.00e+00	0	38	0	851443712	54	4795
2026-01-24 22:36:54.91	136.28	19.84	-41.5	-43.9	18.5	0.00e+00	0	38	0	853540864	54	4788
2026-01-24 22:36:55.91	136.47	19.75	-41.6	-43.9	18.5	0.00e+00	0	38	0	855638016	54	4814
2026-01-24 22:36:56.90	136.65	19.67	-41.7	-44.2	18.3	0.00e+00	0	38	0	857735168	54	4940
2026-01-24 22:36:57.90	136.84	19.58	-41.7	-44.2	18.3	0.00e+00	0	38	0	858783744	54	4943
2026-01-24 22:36:58.89	137.02	19.49	-41.8	-44.3	18.2	0.00e+00	0	38	0	860880896	54	5001
2026-01-24 22:36:59.89	137.20	19.41	-41.8	-44.2	18.3	0.00e+00	0	38	0	862978048	54	4960
2026-01-24 22:37:00.89	137.38	19.32	-41.7	-44.1	18.4	0.00e+00	0	38	0	865075200	54	4904
2026-01-24 22:37:01.88	137.56	19.23	-41.6	-44.0	18.5	0.00e+00	0	38	0	866123776	54	4835
2026-01-24 22:37:02.88	137.74	19.15	-41.5	-43.9	18.6	0.00e+00	0	38	0	868220928	54	4789
2026-01-24 22:37:03.87	137.91	19.06	-41.5	-43.9	18.6	0.00e+00	0	38	0	870318080	54	4769
2026-01-24 22:37:04.87	138.09	18.97	-41.3	-43.7	18.8	0.00e+00	0	38	0	872415232	54	4664
2026-01-24 22:37:05.86	138.26	18.89	-41.3	-43.7	18.8	0.00e+00	0	38	0	874512384	54	4683
2026-01-24 22:37:06.86	138.44	18.80	-41.1	-43.5	18.9	0.00e+00	0	38	0	875560960	54	4570
2026-01-24 22:37:07.85	138.61	18.72	-41.0	-43.3	19.1	0.00e+00	0	38	0	877658112	54	4486
2026-01-24 22:37:08.84	138.78	18.63	-40.9	-43.1	19.3	0.00e+00	0	38	0	879755264	53	4647
2026-01-24 22:37:09.84	138.96	18.54	-40.8	-43.1	19.3	0.00e+00	0	38	0	881852416	53	4617
2026-01-24 22:37:10.84	139.13	18.46	-40.9	-43.2	19.2	0.00e+00	0	38	0	882900992	53	4668
2026-01-24 22:37:11.83	139.30	18.37	-40.7	-43.0	19.4	0.00e+00	0	38	0	884998144	53	4549
2026-01-24 22:37:12.83	139.47	18.29	-40.6	-42.8	19.6	0.00e+00	0	39	0	887095296	53	4482
2026-01-24 22:37:13.82	139.63	18.20	-40.7	-43.0	19.4	0.00e+00	0	38	0	889192448	53	4549
2026-01-24 22:37:14.82	139.80	18.11	-40.8	-43.1	19.3	0.00e+00	0	38	0	891289600	53	4630
2026-01-24 22:37:15.81	139.97	18.03	-40.9	-43.2	19.2	0.00e+00	0	38	0	892338176	53	4673
2026-01-24 22:37:16.80	140.13	17.94	-41.0	-43.3	19.1	0.00e+00	0	38	0	894435328	53	4748
2026-01-24 22:37:17.80	140.29	17.86	-41.2	-43.5	18.5	0.00e+00	0	38	0	896532480	53	4866
2026-01-24 22:37:18.79	140.46	17.77	-41.3	-43.7	18.8	0.00e+00	0	39	0	898629632	53	4936
2026-01-24 22:37:19.79	140.62	17.69	-41.4	-43.8	18.6	0.00e+00	0	38	0	899678208	53	5003
2026-01-24 22:37:20.78	140.78	17.60	-41.5	-43.9	18.5	0.00e+00	0	38	0	901775360	53	5045
2026-01-24 22:37:21.77	140.94	17.52	-41.4	-43.8	18.6	0.00e+00	0	38	0	903872512	53	5008
2026-01-24 22:37:22.77	141.10	17.43	-41.4	-43.8	18.6	0.00e+00	0	38	0	905969664	53	5026
2026-01-24 22:37:23.76	141.26	17.35	-41.5	-43.9	18.5	0.00e+00	0	39	0	908066816	53	5069
2026-01-24 22:37:24.76	141.42	17.26	-41.3	-43.6	18.8	0.00e+00	0	38	0	909115392	53	4921
2026-01-24 22:37:25.75	141.57	17.18	-41.2	-43.6	18.8	0.00e+00	0	39	0	911212544	53	4908
2026-01-24 22:37:26.75	141.73	17.09	-41.1	-43.5	18.9	0.00e+00	0	38	0	913309696	53	4821
2026-01-24 22:37:27.75	141.89	17.01	-41.0	-43.4	19.0	0.00e+00	0	38	0	915406848	53	4774
2026-01-24 22:37:28.74	142.04	16.92	-41.1	-43.5	18.9	0.00e+00	0	38	0	916455424	53	4835
2026-01-24 22:37:29.74	142.20	16.84	-41.1	-43.5	18.9	0.00e+00	0	38	0	918552576	53	4823
2026-01-24 22:37:30.73	142.35	16.76	-40.9	-43.2	19.1	0.00e+00	0	38	0	920649728	53	4704
2026-01-24 22:37:31.73	142.50	16.67	-41.0	-43.4	19.0	0.00e+00	0	38	0	922746880	53	4800
2026-01-24 22:37:32.72	142.65	16.59	-41.2	-43.6	18.9	0.00e+00	0	38	0	924844032	53	4881
2026-01-24 22:37:33.72	142.80	16.50	-41.3	-43.7	18.7	0.00e+00	0	38	0	925892608	53	4977
2026-01-24 22:37:34.71	142.95	16.42	-41.4	-43.9	18.5	0.00e+00	0	38	0	927989760	53	5094
2026-01-24 22:37:35.71	143.10	16.33	-41.4	-43.9	18.5	0.00e+00	0	38	0	930086912	53	5091
2026-01-24 22:37:36.70	143.25	16.25	-41.5	-44.0	18.4	0.00e+00	0	38	0	932184064	53	5130
2026-01-24 22:37:37.69	143.39	16.17	-41.3	-43.8	18.7	0.00e+00	0	39	0	933232640	53	4994
2026-01-24 22:37:38.69	143.54	16.08	-41.4	-43.9	18.5	0.00e+00	0	38	0	935329792	53	5056
2026-01-24 22:37:39.68	143.69	16.00	-41.6	-44.1	18.3	0.00e+00	0	38	0	937426944	53	5216
2026-01-24 22:37:40.68	143.83	15.92	-41.6	-44.1	18.4	0.00e+00	0	38	0	939524096	54	4888
2026-01-24 22:37:41.67	143.97	15.84	-41.7	-44.2	18.3	0.00e+00	0	38	0	941621248	54	4930
2026-01-24 22:37:42.67	144.12	15.75	-41.9	-44.4	18.1	0.00e+00	0	38	0	942669824	54	5077
2026-01-24 22:37:43.66	144.26	15.67	-42.0	-44.6	17.9	0.00e+00	0	38	0	944766976	54	5164
2026-01-24 22:37:44.66	144.40	15.59	-42.2	-44.8	17.7	0.00e+00	0	38	0	946864128	54	5290
2026-01-24 22:37:45.65	144.54	15.50	-42.2	-44.8	17.7	0.00e+00	0	38	0	948961280	55	4986
2026-01-24 22:37:46.65	144.68	15.42	-42.1	-44.7	17.8	0.00e+00	0	39	0	950009856	55	4949
2026-01-24 22:37:47.65	144.82	15.34	-42.3	-44.9	17.6	0.00e+00	0	39	0	952107008	55	5060
2026-01-24 22:37:48.64	144.96	15.26	-42.2	-44.7	17.8	0.00e+00	0	38	0	954204160	55	4983
2026-01-24 22:37:49.63	145.10	15.17	-42.2	-44.7	17.8	0.00e+00	0	38	0	956301312	55	4974
2026-01-24 22:37:50.63	145.24	15.09	-42.2	-44.8	17.7	0.00e+00	0	39	0	958398464	55	5011
2026-01-24 22:37:51.62	145.37	15.01	-42.2	-44.8	17.7	0.00e+00	0	38	0	959447040	55	5040
2026-01-24 22:37:52.62	145.51	14.93	-42.3	-45.0	17.6	0.00e+00	0	38	0	961544192	55	5113
2026-01-24 22:37:53.62	145.64	14.85	-42.4	-45.1	17.4	0.00e+00	0	38	0	963641344	55	5195
2026-01-24 22:37:54.61	145.78	14.76	-42.4	-45.0	17.5	0.00e+00	0	38	0	965738496	55	5142
2026-01-24 22:37:55.60	145.91	14.68	-42.5	-45.2	17.3	0.00e+00	0	38	0	966787072	55	5238
2026-01-24 22:37:56.60	146.04	14.60	-42.6	-45.3	17.2	0.00e+00	0	39	0	968884224	55	5315
2026-01-24 22:37:57.59	146.18	14.52	-42.7	-45.4	17.1	0.00e+00	0	38	0	970981376	55	5402
2026-01-24 22:37:58.59	146.31	14.44	-43.0	-45.8	16.9	0.00e+00	0	38	0	973078528	56	5315
2026-01-24 22:37:59.58	146.44	14.36	-43.0	-45.8	16.9	0.00e+00	0	38	0	975175680	56	5295
2026-01-24 22:38:00.58	146.57	14.28	-42.9	-45.8	16.9	0.00e+00	0	38	0	976224256	56	5303
2026-01-24 22:38:01.57	146.70	14.20	-43.0	-45.9	16.8	0.00e+00	0	38	0	978321408	56	5388
2026-01-24 22:38:02.57	146.83	14.12	-43.0	-45.9	16.8	0.00e+00	0	38	0	980418560	56	5382
2026-01-24 22:38:03.56	146.96	14.04	-43.0	-46.0	16.7	0.00e+00	0	38	0	982515712	56	5431
2026-01-24 22:38:04.55	147.08	13.96	-42.9	-45.8	16.9	0.00e+00	0	38	0	983564288	56	5290
2026-01-24 22:38:05.55	147.21	13.88	-42.9	-45.8	16.9	0.00e+00	0	38	0	985661440	56	5324
2026-01-24 22:38:06.54	147.33	13.80	-42.9	-45.8	17.0	0.00e+00	0	38	0	987758592	56	5281
2026-01-24 22:38:07.54	147.46	13.72	-42.8	-45.5	17.2	0.00e+00	0	38	0	989855744	56	5149
2026-01-24 22:38:08.53	147.58	13.64	-42.7	-45.5	17.2	0.00e+00	0	38	0	991952896	56	5117
2026-01-24 22:38:09.53	147.71	13.56	-42.7	-45.5	17.2	0.00e+00	0	38	0	993001472	56	5105
2026-01-24 22:38:10.52	147.83	13.48	-42.7	-45.3	17.3	0.00e+00	0	38	0	995098624	56	5032
2026-01-24 22:38:11.52	147.96	13.40	-42.6	-45.3	17.4	0.00e+00	0	39	0	997195776	56	5003
2026-01-24 22:38:12.51	148.08	13.32	-42.5	-45.1	17.5	0.00e+00	0	39	0	999292928	56	4916
2026-01-24 22:38:13.50	148.20	13.24	-42.6	-45.2	17.5	0.00e+00	0	39	0	1001390080	56	4971
2026-01-24 22:38:14.50	148.32	13.16	-42.5	-45.2	17.5	0.00e+00	0	38	0	1002438656	56	4947
2026-01-24 22:38:15.49	148.44	13.08	-42.5	-45.2	17.4	0.00e+00	0	39	0	1004535808	56	4983
2026-01-24 22:38:16.49	148.56	13.00	-42.6	-45.4	17.3	0.00e+00	0	38	0	1006632960	56	5054
2026-01-24 22:38:17.48	148.68	12.93	-42.7	-45.6	17.2	0.00e+00	0	38	0	1008730112	56	5160
2026-01-24 22:38:18.48	148.80	12.85	-42.9	-45.8	16.9	0.00e+00	0	38	0	1009778688	56	5286
2026-01-24 22:38:19.47	148.92	12.77	-43.0	-45.8	16.9	0.00e+00	0	38	0	1011875840	56	5329
2026-01-24 22:38:20.47	149.03	12.69	-43.1	-46.0	16.8	0.00e+00	0	39	0	1013972992	56	5414
2026-01-24 22:38:21.46	149.15	12.61	-43.2	-46.0	16.7	0.00e+00	0	38	0	1016070144	56	5462
2026-01-24 22:38:22.46	149.27	12.54	-43.2	-46.1	16.6	0.00e+00	0	39	0	1018167296	57	5208
2026-01-24 22:38:23.45	149.38	12.46	-43.1	-45.8	16.9	0.00e+00	0	38	0	1019215872	57	5039
2026-01-24 22:38:24.45	149.50	12.38	-43.0	-45.7	17.0	0.00e+00	0	38	0	1021313024	57	4969
2026-01-24 22:38:25.44	149.61	12.30	-42.9	-45.6	17.2	0.00e+00	0	39	0	1023410176	57	4897
2026-01-24 22:38:26.43	149.72	12.23	-42.8	-45.5	17.3	0.00e+00	0	38	0	1025507328	57	4854
2026-01-24 22:38:27.43	149.84	12.15	-42.6	-45.3	17.5	0.00e+00	0	38	0	1026555904	57	4736
2026-01-24 22:38:28.43	149.95	12.07	-42.4	-45.1	17.7	0.00e+00	0	38	0	1028653056	56	4880
2026-01-24 22:38:29.42	150.06	12.00	-42.3	-44.9	17.9	0.00e+00	0	38	0	1030750208	56	4810
2026-01-24 22:38:30.42	150.17	11.92	-42.4	-45.0	17.8	0.00e+00	0	38	0	1032847360	56	4862
2026-01-24 22:38:31.41	150.28	11.84	-42.4	-45.1	17.7	0.00e+00	0	38	0	1034944512	56	4874
2026-01-24 22:38:32.40	150.39	11.77	-42.5	-45.2	17.6	0.00e+00	0	39	0	1035993088	56	4965
2026-01-24 22:38:33.40	150.50	11.69	-42.5	-45.2	17.6	0.00e+00	0	38	0	1038090240	56	4977
2026-01-24 22:38:34.40	150.61	11.61	-42.6	-45.3	17.5	0.00e+00	0	38	0	1040187392	56	5011
2026-01-24 22:38:35.39	150.72	11.54	-42.7	-45.4	17.4	0.00e+00	0	39	0	1042284544	56	5084
2026-01-24 22:38:36.39	150.83	11.46	-42.8	-45.6	17.2	0.00e+00	0	39	0	1043333120	56	5194
2026-01-24 22:38:37.38	150.94	11.39	-43.0	-45.8	17.1	0.00e+00	0	38	0	1045430272	56	5303
2026-01-24 22:38:38.38	151.05	11.31	-43.1	-45.9	16.0	0.00e+00	0	39	0	1047527424	56	5374
2026-01-24 22:38:39.37	151.15	11.24	-43.2	-46.0	16.9	0.00e+00	0	39	0	1049624576	56	5420
2026-01-24 22:38:40.37	151.26	11.16	-43.1	-45.8	17.0	0.00e+00	0	38	0	1051721728	56	5335
2026-01-24 22:38:41.36	151.36	11.09	-43.0	-45.8	17.0	0.00e+00	0	38	0	1052770304	56	5324
2026-01-24 22:38:42.36	151.47	11.01	-43.0	-45.8	17.0	0.00e+00	0	38	0	1054867456	56	5329
2026-01-24 22:38:43.35	151.57	10.94	-43.0	-45.8	17.0	0.00e+00	0	38	0	1056964608	56	5320
2026-01-24 22:38:44.35	151.68	10.86	-43.0	-45.8	17.1	9.90e-06	0	38	0	1059061760	56	5302
2026-01-24 22:38:45.34	151.78	10.79	-43.0	-45.8	17.1	0.00e+00	0	38	0	1060110336	56	5311
2026-01-24 22:38:46.34	151.88	10.71	-42.8	-45.6	17.3	0.00e+00	0	38	0	1062207488	56	5179
2026-01-24 22:38:47.33	151.99	10.64	-42.6	-45.4	17.5	0.00e+00	0	39	0	1064304640	56	5052
2026-01-24 22:38:48.33	152.09	10.56	-42.6	-45.3	17.5	0.00e+00	0	39	0	1066401792	56	5029
2026-01-24 22:38:49.32	152.19	10.49	-42.6	-45.3	17.6	0.00e+00	0	39	0	1068498944	56	4986
2026-01-24 22:38:50.32	152.29	10.42	-42.6	-45.3	17.5	1.35e-03	0	39	0	1069547520	56	5013
2026-01-24 22:38:51.31	152.39	10.34	-42.7	-45.4	17.5	0.00e+00	0	39	0	1071644672	56	5044
2026-01-24 22:38:52.31	152.49	10.27	-42.7	-45.4	17.4	0.00e+00	0	38	0	1073741824	56	5081
2026-01-24 22:38:53.30	152.59	10.20	-42.8	-45.5	17.3	7.00e-07	0	38	0	1075838976	56	5148
2026-01-24 22:38:54.30	152.69	10.12	-42.9	-45.7	17.2	0.00e+00	0	38	0	1076887552	56	5234
2026-01-24 22:38:55.29	152.79	10.05	-42.9	-45.7	17.1	0.00e+00	0	39	0	1078984704	56	5262
2026-01-24 22:38:56.29	152.89	9.98	-42.9	-45.8	17.1	0.00e+00	0	38	0	1081081856	56	5298
2026-01-24 22:38:57.28	152.98	9.91	-43.0	-45.9	16.9	0.00e+00	0	38	0	1083179008	56	5382
2026-01-24 22:38:58.28	153.08	9.83	-43.0	-45.9	17.0	0.00e+00	0	38	0	1085276160	56	5357
2026-01-24 22:38:59.27	153.18	9.76	-43.0	-46.0	16.8	0.00e+00	0	38	0	1086324736	56	5440
2026-01-24 22:39:00.27	153.28	9.69	-43.0	-46.0	16.8	0.00e+00	0	38	0	1088421888	56	5406
2026-01-24 22:39:01.26	153.37	9.62	-43.0	-46.0	16.7	0.00e+00	0	38	0	1090519040	56	5443
2026-01-24 22:39:02.25	153.47	9.54	-43.1	-46.1	16.7	0.00e+00	0	38	0	1092616192	56	5511
2026-01-24 22:39:03.25	153.56	9.47	-42.9	-45.8	17.0	0.00e+00	0	38	0	1093664768	56	5319
2026-01-24 22:39:04.25	153.66	9.40	-42.9	-45.8	16.1	0.00e+00	0	38	0	1095761920	56	5295
2026-01-24 22:39:05.24	153.75	9.33	-43.0	-45.8	17.0	0.00e+00	0	38	0	1097859072	56	5311
2026-01-24 22:39:06.24	153.84	9.26	-43.0	-45.8	17.0	0.00e+00	0	38	0	1099956224	56	5292
2026-01-24 22:39:07.23	153.94	9.19	-43.0	-45.7	17.1	0.00e+00	0	38	0	1102053376	56	5266
2026-01-24 22:39:08.22	154.03	9.12	-42.9	-45.7	17.1	0.00e+00	0	38	0	1103101952	56	5237
2026-01-24 22:39:09.22	154.12	9.04	-43.0	-45.8	17.0	0.00e+00	0	38	0	1105199104	56	5293
2026-01-24 22:39:10.21	154.21	8.97	-48.4	-62.6	3.8	6.50e-01	0	38	104	1106247680	67	19509
2026-01-24 22:39:11.20	154.30	8.90	-48.8	-64.3	3.8	1.49e+00	0	38	104	1106247680	68	22320
2026-01-24 22:39:12.20	154.39	8.83	-49.3	-64.5	3.8	1.49e+00	0	38	104	1106247680	69	21741
2026-01-24 22:39:13.19	154.48	8.76	-49.4	-64.6	3.8	1.49e+00	0	38	104	1106247680	69	21937
2026-01-24 22:39:14.18	154.57	8.69	-48.9	-64.7	3.8	1.49e+00	0	38	104	1106247680	69	22120
2026-01-24 22:39:15.18	154.66	8.62	-49.2	-64.8	3.8	1.49e+00	0	38	104	1106247680	69	22376
2026-01-24 22:39:16.17	154.75	8.55	-49.6	-64.8	3.8	1.49e+00	0	38	104	1106247680	69	22481
2026-01-24 22:39:17.16	154.84	8.48	-49.6	-64.9	3.8	1.49e+00	0	38	104	1106247680	69	22523
2026-01-24 22:39:18.16	154.93	8.41	-49.7	-64.9	3.8	1.49e+00	0	38	104	1106247680	70	21370
2026-01-24 22:39:19.15	155.02	8.34	-49.6	-64.9	3.8	1.49e+00	0	39	104	1106247680	70	21413
2026-01-24 22:39:20.14	155.11	8.27	-49.5	-64.9	3.8	1.49e+00	0	38	104	1106247680	70	21448
2026-01-24 22:39:21.14	155.19	8.20	-49.8	-65.0	3.8	1.49e+00	0	38	104	1106247680	70	21587
2026-01-24 22:39:22.13	155.28	8.14	-49.8	-65.0	3.8	1.49e+00	0	38	104	1106247680	70	21602
2026-01-24 22:39:23.12	155.37	8.07	-49.8	-65.0	3.8	1.49e+00	0	39	104	1106247680	70	21646
2026-01-24 22:39:24.12	155.45	8.00	-49.8	-65.1	3.8	1.49e+00	0	38	104	1106247680	70	21761
2026-01-24 22:39:25.11	155.54	7.93	-49.8	-65.0	3.8	1.49e+00	0	39	104	1106247680	70	21661
2026-01-24 22:39:26.10	155.62	7.86	-49.9	-65.0	3.8	1.49e+00	0	39	104	1106247680	70	21732
2026-01-24 22:39:27.10	155.71	7.79	-49.9	-65.0	3.8	1.49e+00	0	38	104	1106247680	70	21752
2026-01-24 22:39:28.09	155.79	7.72	-49.5	-65.0	3.8	1.49e+00	0	38	104	1106247680	70	21690
2026-01-24 22:39:29.08	155.88	7.66	-49.7	-65.0	3.8	1.49e+00	0	38	104	1106247680	70	21717
2026-01-24 22:39:30.08	155.96	7.59	-49.8	-65.0	3.8	1.49e+00	0	38	104	1106247680	70	21701
2026-01-24 22:39:31.07	156.04	7.52	-49.8	-65.0	3.8	1.49e+00	0	38	104	1106247680	70	21714
2026-01-24 22:39:32.06	156.13	7.45	-49.7	-65.0	3.8	1.49e+00	0	38	104	1106247680	70	21732
2026-01-24 22:39:33.06	156.21	7.38	-49.5	-65.0	3.8	1.49e+00	0	38	104	1106247680	70	21665
2026-01-24 22:39:34.05	156.29	7.32	-49.6	-65.0	3.8	1.49e+00	0	38	104	1106247680	70	21602
2026-01-24 22:39:35.04	156.37	7.25	-49.6	-65.0	3.8	1.49e+00	0	38	104	1106247680	70	21572
2026-01-24 22:39:36.04	156.45	7.18	-49.6	-65.0	3.8	1.49e+00	0	39	104	1106247680	70	21625
2026-01-24 22:39:37.03	156.54	7.11	-49.6	-65.0	3.8	1.49e+00	0	38	104	1106247680	70	21587
2026-01-24 22:39:38.02	156.62	7.05	-49.5	-64.9	3.8	1.49e+00	0	38	104	1106247680	70	21450
2026-01-24 22:39:39.01	156.70	6.98	-49.5	-65.0	3.8	1.49e+00	0	38	104	1106247680	70	21612
2026-01-24 22:39:40.01	156.78	6.91	-49.5	-65.0	3.8	1.49e+00	0	38	104	1106247680	70	21543
2026-01-24 22:39:41.00	156.86	6.85	-49.5	-65.0	3.8	1.49e+00	0	38	104	1106247680	70	21593
2026-01-24 22:39:41.99	156.93	6.78	-49.5	-64.9	3.8	1.49e+00	0	38	104	1106247680	70	21448
2026-01-24 22:39:42.99	157.01	6.71	-49.5	-65.0	3.8	1.49e+00	0	38	104	1106247680	70	21539
2026-01-24 22:39:43.98	157.09	6.65	-49.5	-65.0	3.8	1.49e+00	0	39	104	1106247680	70	21534
2026-01-24 22:39:44.97	157.17	6.58	-49.5	-64.9	3.8	1.49e+00	0	38	104	1106247680	70	21493
2026-01-24 22:39:45.96	157.25	6.52	-49.5	-65.0	3.8	1.49e+00	0	38	104	1106247680	70	21518
2026-01-24 22:39:46.96	157.33	6.45	-49.5	-64.9	3.8	1.49e+00	0	38	104	1106247680	70	21423
2026-01-24 22:39:47.95	157.40	6.38	-49.5	-64.9	3.8	1.49e+00	0	38	104	1106247680	70	21422
