passes_logs/2026/01/24/T1/T1__20260124_123506_FENGYUN_3D_rec.log

#Pass ID: 20260124_123506_FENGYUN 3D
#Satellite: FENGYUN 3D
#Configuration: FENGYUN 3D
#almurnet v.1.7.20251203
#Start time: 2026-01-24 12:35:07

#Version: 2.0.20230620
#Station: T1
#Location: 37.570604 lon 55.790049 lat
#TLE: 1 43010U 17072A   26023.60174628  .00000324  00000+0  17481-3 0  9994
#TLE: 2 43010  98.9958 355.5514 0002482  93.7422 266.4037 14.19699955424476

#Time	Az	El	Level	Level2	SNR	BER	BlckErr	Temp	State	Recorded	gain1	gain2
2026-01-24 12:35:07.94	178.95	5.12	-47.4	-60.3	3.8	8.47e-01	0	36	0	0	66	15777
2026-01-24 12:35:08.93	178.99	5.19	-45.5	-59.5	3.8	8.47e-01	0	36	104	0	61	19178
2026-01-24 12:35:09.92	179.02	5.26	-45.5	-59.3	3.8	8.47e-01	0	37	104	0	61	18833
2026-01-24 12:35:10.92	179.06	5.33	-45.4	-59.3	3.8	8.48e-01	0	36	104	0	61	18900
2026-01-24 12:35:11.91	179.09	5.40	-45.5	-59.3	3.8	8.47e-01	0	37	104	0	61	18823
2026-01-24 12:35:12.90	179.13	5.47	-45.5	-59.3	3.8	8.46e-01	0	36	104	0	61	18930
2026-01-24 12:35:13.90	179.16	5.54	-45.5	-59.4	3.8	8.47e-01	0	36	104	0	61	19014
2026-01-24 12:35:14.89	179.20	5.61	-45.5	-59.5	3.8	8.47e-01	0	36	104	0	61	19259
2026-01-24 12:35:15.88	179.24	5.68	-45.5	-59.7	3.8	8.47e-01	0	37	104	0	61	19682
2026-01-24 12:35:16.88	179.27	5.75	-45.5	-59.7	3.8	8.45e-01	0	37	104	0	61	19730
2026-01-24 12:35:17.87	179.31	5.82	-45.5	-59.8	3.8	8.47e-01	0	37	104	0	61	20029
2026-01-24 12:35:18.86	179.35	5.90	-45.5	-59.9	3.8	8.46e-01	0	37	104	0	61	20100
2026-01-24 12:35:19.86	179.38	5.97	-45.5	-59.9	3.8	8.48e-01	0	37	104	0	61	20153
2026-01-24 12:35:20.85	179.42	6.04	-45.5	-59.9	3.8	8.47e-01	0	37	104	0	61	20104
2026-01-24 12:35:21.84	179.46	6.11	-45.5	-59.8	3.8	8.46e-01	0	37	104	0	61	20002
2026-01-24 12:35:22.84	179.49	6.18	-45.5	-59.7	3.8	8.47e-01	0	37	104	0	61	19715
2026-01-24 12:35:23.83	179.53	6.26	-45.4	-59.4	3.8	8.46e-01	0	37	104	0	61	19139
2026-01-24 12:35:24.82	179.57	6.33	-45.4	-59.0	3.8	8.47e-01	0	37	104	0	61	18220
2026-01-24 12:35:25.81	179.61	6.40	-45.3	-58.5	3.8	8.46e-01	0	37	104	0	61	17179
2026-01-24 12:35:26.81	179.65	6.48	-45.3	-57.9	3.9	8.46e-01	0	37	104	0	61	15945
2026-01-24 12:35:27.80	179.68	6.55	-45.3	-57.2	4.0	8.44e-01	0	37	0	0	61	14767
2026-01-24 12:35:28.79	179.72	6.62	-45.2	-56.7	4.1	8.41e-01	0	37	0	0	61	14033
2026-01-24 12:35:29.79	179.76	6.70	-45.2	-56.4	4.2	8.37e-01	0	37	0	0	61	13557
2026-01-24 12:35:30.78	179.80	6.77	-45.2	-56.5	4.2	8.38e-01	0	37	0	0	61	13686
2026-01-24 12:35:31.77	179.84	6.84	-45.3	-57.1	4.0	8.41e-01	0	37	0	0	61	14706
2026-01-24 12:35:32.77	179.88	6.92	-45.4	-58.1	3.8	8.45e-01	0	37	104	0	61	16415
2026-01-24 12:35:33.76	179.92	6.99	-45.4	-59.2	3.8	8.47e-01	0	37	104	0	61	18604
2026-01-24 12:35:34.75	179.96	7.07	-45.5	-59.4	3.8	8.46e-01	0	37	104	0	61	19021
2026-01-24 12:35:35.75	180.00	7.14	-45.3	-57.4	3.9	8.46e-01	0	37	104	0	61	15193
2026-01-24 12:35:36.74	180.04	7.22	-45.0	-54.4	5.1	7.93e-01	0	37	0	0	61	10666
2026-01-24 12:35:37.73	180.07	7.29	-44.3	-51.3	7.4	2.28e-01	0	37	0	3145728	60	7979
2026-01-24 12:35:38.73	180.12	7.37	-43.6	-48.9	9.8	3.25e-02	0	37	0	9437184	59	6350
2026-01-24 12:35:39.72	180.16	7.45	-42.5	-46.6	12.2	7.98e-04	0	37	0	14680064	57	5501
2026-01-24 12:35:40.71	180.20	7.52	-41.4	-45.0	13.7	4.34e-05	0	38	0	19922944	54	5416
2026-01-24 12:35:41.71	180.24	7.60	-40.5	-43.6	15.1	0.00e+00	0	37	0	26214400	53	4901
2026-01-24 12:35:42.70	180.28	7.68	-39.7	-42.6	16.2	0.00e+00	0	38	0	31457280	51	4879
2026-01-24 12:35:43.69	180.32	7.75	-39.1	-41.8	17.0	0.00e+00	0	38	0	36700160	50	4708
2026-01-24 12:35:44.68	180.36	7.83	-38.7	-41.2	17.5	0.00e+00	0	38	0	42991616	49	4683
2026-01-24 12:35:45.68	180.40	7.91	-38.4	-40.8	17.9	0.00e+00	0	38	0	48234496	48	4745
2026-01-24 12:35:46.67	180.44	7.98	-38.1	-40.5	18.2	0.00e+00	0	38	0	53477376	48	4549
2026-01-24 12:35:47.67	180.49	8.06	-38.1	-40.5	18.2	0.00e+00	0	37	0	59768832	48	4582
2026-01-24 12:35:48.66	180.53	8.14	-38.4	-40.8	17.9	0.00e+00	0	38	0	65011712	48	4730
2026-01-24 12:35:49.65	180.57	8.22	-38.8	-41.3	17.4	0.00e+00	0	38	0	70254592	48	5001
2026-01-24 12:35:50.65	180.61	8.30	-39.1	-41.8	17.0	0.00e+00	0	38	0	76546048	48	5285
2026-01-24 12:35:51.64	180.66	8.37	-39.8	-42.6	16.2	0.00e+00	0	38	0	81788928	50	5183
2026-01-24 12:35:52.63	180.70	8.45	-40.4	-43.5	15.3	0.00e+00	0	38	0	87031808	51	5418
2026-01-24 12:35:53.62	180.74	8.53	-41.2	-44.6	14.1	1.10e-06	0	38	0	93323264	52	5800
2026-01-24 12:35:54.62	180.79	8.61	-42.0	-45.9	12.8	4.46e-05	0	38	0	98566144	54	6020
2026-01-24 12:35:55.61	180.83	8.69	-42.9	-47.4	11.4	5.17e-04	0	38	0	103809024	56	6408
2026-01-24 12:35:56.60	180.87	8.77	-43.6	-48.9	9.8	7.63e-03	0	38	0	110100480	57	7197
2026-01-24 12:35:57.59	180.92	8.85	-44.2	-50.6	8.1	4.13e-02	0	38	0	115343360	59	7761
2026-01-24 12:35:58.59	180.96	8.93	-44.7	-52.0	6.8	1.81e-01	0	38	0	120586240	59	9141
2026-01-24 12:35:59.58	181.01	9.01	-44.8	-53.4	5.7	3.74e-01	0	38	0	126877696	60	10069
2026-01-24 12:36:00.58	181.05	9.09	-44.9	-53.6	5.5	7.43e-01	0	38	0	127926272	60	10366
2026-01-24 12:36:01.57	181.10	9.17	-43.8	-49.2	9.5	2.18e-01	0	38	0	133169152	59	6581
2026-01-24 12:36:02.56	181.14	9.26	-45.1	-54.4	5.2	6.25e-03	0	38	0	139460608	60	11350
2026-01-24 12:36:03.56	181.19	9.34	-44.9	-53.9	5.3	8.28e-01	0	38	0	139460608	61	10060
2026-01-24 12:36:04.55	181.23	9.42	-43.8	-48.9	9.9	2.08e-01	0	38	0	144703488	59	6369
2026-01-24 12:36:05.55	181.28	9.50	-42.9	-47.2	11.8	1.53e-03	0	38	0	149946368	57	5868
2026-01-24 12:36:06.54	181.33	9.58	-42.6	-46.5	12.4	8.62e-04	0	38	0	155189248	57	5420
2026-01-24 12:36:07.54	181.37	9.67	-42.7	-46.4	12.4	5.83e-05	0	38	0	160432128	56	5710
2026-01-24 12:36:08.53	181.42	9.75	-42.4	-45.9	13.0	1.92e-04	0	38	0	166723584	56	5395
2026-01-24 12:36:09.53	181.47	9.83	-42.5	-45.9	13.0	1.18e-04	0	38	0	171966464	56	5386
2026-01-24 12:36:10.52	181.51	9.92	-42.4	-45.7	13.3	1.71e-05	0	38	0	178257920	56	5222
2026-01-24 12:36:11.52	181.56	10.00	-41.8	-44.7	14.1	6.80e-06	0	38	0	183500800	55	4958
2026-01-24 12:36:12.51	181.61	10.08	-40.8	-43.3	15.4	1.10e-06	0	38	0	188743680	53	4756
2026-01-24 12:36:13.51	181.66	10.17	-40.9	-43.4	15.3	0.00e+00	0	38	0	195035136	53	4800
2026-01-24 12:36:14.50	181.71	10.25	-40.7	-43.2	15.7	0.00e+00	0	38	0	200278016	52	4929
2026-01-24 12:36:15.49	181.76	10.34	-40.0	-42.3	16.4	0.00e+00	0	38	0	205520896	52	4470
2026-01-24 12:36:16.49	181.80	10.42	-39.4	-41.7	17.2	0.00e+00	0	38	0	210763776	50	4663
2026-01-24 12:36:17.48	181.85	10.51	-38.7	-40.9	17.9	0.00e+00	0	38	0	217055232	49	4494
2026-01-24 12:36:18.48	181.90	10.59	-38.0	-40.1	18.7	0.00e+00	0	38	0	222298112	48	4345
2026-01-24 12:36:19.47	181.95	10.68	-37.5	-39.5	19.0	0.00e+00	0	38	0	228589568	47	4317
2026-01-24 12:36:20.46	182.00	10.77	-37.3	-39.3	19.2	0.00e+00	0	38	0	233832448	46	4472
2026-01-24 12:36:21.46	182.05	10.85	-37.3	-39.3	19.2	0.00e+00	0	38	0	239075328	46	4483
2026-01-24 12:36:22.46	182.10	10.94	-37.1	-39.1	19.4	0.00e+00	0	38	0	245366784	46	4350
2026-01-24 12:36:23.45	182.15	11.03	-37.1	-39.1	19.4	0.00e+00	0	38	0	250609664	46	4353
2026-01-24 12:36:24.44	182.21	11.11	-37.2	-39.2	19.4	0.00e+00	0	38	0	255852544	46	4392
2026-01-24 12:36:25.44	182.26	11.20	-37.1	-39.1	19.4	0.00e+00	0	38	0	261095424	46	4352
2026-01-24 12:36:26.43	182.31	11.29	-37.0	-39.0	19.5	0.00e+00	0	38	0	267386880	45	4547
2026-01-24 12:36:27.43	182.36	11.38	-37.0	-39.0	19.5	0.00e+00	0	38	0	272629760	45	4565
2026-01-24 12:36:28.42	182.41	11.47	-36.9	-39.0	19.5	0.00e+00	0	38	0	278921216	45	4549
2026-01-24 12:36:29.41	182.47	11.55	-36.8	-38.8	19.6	0.00e+00	0	38	0	284164096	45	4489
2026-01-24 12:36:30.41	182.52	11.64	-36.7	-38.7	19.8	0.00e+00	0	38	0	289406976	45	4418
2026-01-24 12:36:31.41	182.57	11.73	-36.7	-38.6	19.8	0.00e+00	0	38	0	295698432	45	4383
2026-01-24 12:36:32.40	182.63	11.82	-36.6	-38.6	19.8	0.00e+00	0	38	0	300941312	45	4373
2026-01-24 12:36:33.40	182.68	11.91	-36.6	-38.5	19.9	0.00e+00	0	38	0	306184192	45	4327
2026-01-24 12:36:34.39	182.73	12.00	-36.7	-38.6	19.9	0.00e+00	0	38	0	312475648	45	4381
2026-01-24 12:36:35.39	182.79	12.10	-36.7	-38.6	19.9	0.00e+00	0	38	0	317718528	45	4372
2026-01-24 12:36:36.38	182.84	12.19	-36.6	-38.5	20.0	0.00e+00	0	38	0	322961408	45	4318
2026-01-24 12:36:37.38	182.90	12.28	-36.4	-38.4	20.1	0.00e+00	0	38	0	329252864	44	4495
2026-01-24 12:36:38.38	182.95	12.37	-36.5	-38.4	20.1	0.00e+00	0	39	0	334495744	44	4528
2026-01-24 12:36:39.37	183.01	12.46	-36.5	-38.4	20.0	0.00e+00	0	38	0	339738624	44	4545
2026-01-24 12:36:40.37	183.07	12.56	-36.5	-38.4	20.1	0.00e+00	0	38	0	346030080	44	4514
2026-01-24 12:36:41.36	183.12	12.65	-36.7	-38.6	19.9	0.00e+00	0	38	0	351272960	44	4631
2026-01-24 12:36:42.36	183.18	12.74	-36.5	-38.4	20.0	0.00e+00	0	38	0	356515840	44	4545
2026-01-24 12:36:43.35	183.24	12.83	-36.5	-38.5	20.0	0.00e+00	0	38	0	362807296	44	4552
2026-01-24 12:36:44.34	183.29	12.93	-36.5	-38.4	20.0	0.00e+00	0	38	0	368050176	44	4539
2026-01-24 12:36:45.34	183.35	13.02	-36.4	-38.3	20.1	0.00e+00	0	38	0	373293056	44	4481
2026-01-24 12:36:46.33	183.41	13.12	-36.4	-38.3	20.1	0.00e+00	0	38	0	379584512	44	4462
2026-01-24 12:36:47.33	183.47	13.21	-36.4	-38.3	20.1	0.00e+00	0	38	0	384827392	44	4473
2026-01-24 12:36:48.32	183.53	13.31	-36.4	-38.4	20.1	0.00e+00	0	38	0	390070272	44	4495
2026-01-24 12:36:49.32	183.59	13.40	-36.4	-38.3	20.1	0.00e+00	0	38	0	396361728	44	4470
2026-01-24 12:36:50.31	183.65	13.50	-36.2	-38.2	20.3	0.00e+00	0	38	0	401604608	44	4405
2026-01-24 12:36:51.31	183.71	13.59	-36.4	-38.3	20.2	0.00e+00	0	38	0	406847488	44	4459
2026-01-24 12:36:52.30	183.77	13.69	-36.4	-38.3	20.2	0.00e+00	0	39	0	413138944	44	4460
2026-01-24 12:36:53.30	183.83	13.79	-36.2	-38.1	20.3	0.00e+00	0	38	0	418381824	44	4387
2026-01-24 12:36:54.29	183.89	13.88	-36.2	-38.1	20.3	0.00e+00	0	39	0	423624704	44	4358
2026-01-24 12:36:55.29	183.95	13.98	-36.2	-38.1	20.3	0.00e+00	0	39	0	429916160	44	4384
2026-01-24 12:36:56.28	184.01	14.08	-36.2	-38.1	20.3	0.00e+00	0	38	0	435159040	44	4371
2026-01-24 12:36:57.28	184.07	14.18	-36.1	-38.0	20.5	0.00e+00	0	39	0	440401920	44	4305
2026-01-24 12:36:58.27	184.14	14.28	-36.1	-38.0	20.5	0.00e+00	0	38	0	446693376	44	4294
2026-01-24 12:36:59.27	184.20	14.38	-36.0	-37.9	20.5	0.00e+00	0	39	0	451936256	44	4280
2026-01-24 12:37:00.26	184.26	14.47	-36.0	-37.9	20.5	0.00e+00	0	39	0	457179136	44	4259
2026-01-24 12:37:01.26	184.33	14.58	-35.9	-37.8	20.5	0.00e+00	0	39	0	463470592	43	4444
2026-01-24 12:37:02.25	184.39	14.67	-35.7	-37.6	20.7	0.00e+00	0	39	0	468713472	43	4344
2026-01-24 12:37:03.25	184.46	14.78	-35.7	-37.5	20.7	0.00e+00	0	39	0	473956352	43	4328
2026-01-24 12:37:04.24	184.52	14.88	-35.7	-37.5	20.8	0.00e+00	0	39	0	480247808	43	4339
2026-01-24 12:37:05.24	184.59	14.98	-35.7	-37.5	20.8	0.00e+00	0	39	0	485490688	43	4332
2026-01-24 12:37:06.23	184.65	15.08	-35.6	-37.4	20.8	0.00e+00	0	39	0	490733568	43	4287
2026-01-24 12:37:07.23	184.72	15.18	-35.6	-37.4	20.8	0.00e+00	0	39	0	497025024	43	4267
2026-01-24 12:37:08.22	184.79	15.28	-35.7	-37.5	20.8	0.00e+00	0	39	0	502267904	43	4310
2026-01-24 12:37:09.22	184.85	15.39	-35.6	-37.4	20.8	0.00e+00	0	39	0	507510784	43	4287
2026-01-24 12:37:10.21	184.92	15.49	-35.6	-37.5	20.8	0.00e+00	0	39	0	513802240	43	4295
2026-01-24 12:37:11.21	184.99	15.60	-35.7	-37.5	20.8	0.00e+00	0	39	0	519045120	43	4330
2026-01-24 12:37:12.20	185.06	15.70	-35.6	-37.4	20.8	0.00e+00	0	39	0	525336576	43	4291
2026-01-24 12:37:13.20	185.13	15.80	-35.7	-37.5	20.8	0.00e+00	0	39	0	530579456	43	4335
2026-01-24 12:37:14.19	185.20	15.91	-35.7	-37.5	20.8	0.00e+00	0	39	0	535822336	43	4331
2026-01-24 12:37:15.18	185.27	16.01	-35.5	-37.4	20.9	0.00e+00	0	38	0	541065216	43	4253
2026-01-24 12:37:16.18	185.34	16.12	-35.6	-37.4	20.9	0.00e+00	0	39	0	547356672	43	4283
2026-01-24 12:37:17.17	185.41	16.23	-35.6	-37.5	20.8	0.00e+00	0	39	0	552599552	43	4300
2026-01-24 12:37:18.17	185.48	16.33	-35.4	-37.3	21.0	0.00e+00	0	39	0	557842432	42	4460
2026-01-24 12:37:19.16	185.55	16.44	-35.3	-37.2	21.1	0.00e+00	0	39	0	564133888	42	4399
2026-01-24 12:37:20.16	185.62	16.55	-35.3	-37.2	21.1	0.00e+00	0	39	0	569376768	42	4400
2026-01-24 12:37:21.15	185.70	16.65	-35.3	-37.2	21.1	0.00e+00	0	39	0	575668224	42	4406
2026-01-24 12:37:22.14	185.77	16.76	-35.2	-37.0	21.2	0.00e+00	0	39	0	580911104	42	4337
2026-01-24 12:37:23.14	185.84	16.87	-35.2	-37.0	21.2	0.00e+00	0	39	0	586153984	42	4325
2026-01-24 12:37:24.13	185.92	16.98	-35.2	-37.1	21.2	0.00e+00	0	39	0	591396864	42	4364
2026-01-24 12:37:25.13	185.99	17.09	-35.2	-37.1	21.2	0.00e+00	0	39	0	597688320	42	4351
2026-01-24 12:37:26.12	186.07	17.20	-35.2	-37.1	21.2	0.00e+00	0	39	0	602931200	42	4360
2026-01-24 12:37:27.12	186.14	17.31	-35.1	-36.9	21.3	0.00e+00	0	39	0	608174080	42	4278
2026-01-24 12:37:28.11	186.22	17.42	-35.1	-36.9	21.3	0.00e+00	0	39	0	614465536	42	4279
2026-01-24 12:37:29.10	186.30	17.53	-35.1	-37.0	21.3	0.00e+00	0	39	0	619708416	42	4297
2026-01-24 12:37:30.10	186.38	17.65	-35.0	-36.9	21.4	0.00e+00	0	39	0	625999872	42	4258
2026-01-24 12:37:31.09	186.45	17.76	-35.1	-36.9	21.3	0.00e+00	0	39	0	631242752	42	4260
2026-01-24 12:37:32.09	186.53	17.87	-35.0	-36.9	21.3	0.00e+00	0	39	0	636485632	42	4259
2026-01-24 12:37:33.08	186.61	17.98	-34.9	-36.7	21.5	0.00e+00	0	39	0	641728512	41	4437
2026-01-24 12:37:34.08	186.69	18.10	-34.9	-36.7	21.5	0.00e+00	0	39	0	648019968	41	4426
2026-01-24 12:37:35.07	186.77	18.21	-34.9	-36.7	21.5	0.00e+00	0	39	0	653262848	41	4402
2026-01-24 12:37:36.07	186.85	18.33	-34.9	-36.7	21.5	0.00e+00	0	39	0	658505728	41	4440
2026-01-24 12:37:37.06	186.93	18.44	-34.8	-36.6	21.6	0.00e+00	0	39	0	664797184	41	4360
2026-01-24 12:37:38.05	187.02	18.56	-34.8	-36.6	21.6	0.00e+00	0	39	0	670040064	41	4366
2026-01-24 12:37:39.05	187.10	18.68	-34.8	-36.6	21.6	0.00e+00	0	39	0	676331520	41	4373
2026-01-24 12:37:40.04	187.18	18.79	-34.7	-36.6	21.6	0.00e+00	0	39	0	681574400	41	4341
2026-01-24 12:37:41.04	187.27	18.91	-34.7	-36.6	21.6	0.00e+00	0	39	0	686817280	41	4341
2026-01-24 12:37:42.03	187.35	19.03	-34.7	-36.6	21.6	0.00e+00	0	39	0	692060160	41	4344
2026-01-24 12:37:43.03	187.44	19.15	-34.7	-36.6	21.7	0.00e+00	0	39	0	698351616	41	4343
2026-01-24 12:37:44.02	187.52	19.26	-34.8	-36.6	21.6	0.00e+00	0	39	0	703594496	41	4388
2026-01-24 12:37:45.02	187.61	19.38	-34.8	-36.6	21.6	0.00e+00	0	39	0	708837376	41	4369
2026-01-24 12:37:46.01	187.70	19.50	-34.8	-36.6	21.6	0.00e+00	0	39	0	715128832	41	4377
2026-01-24 12:37:47.01	187.78	19.62	-34.9	-36.7	21.5	0.00e+00	0	39	0	720371712	41	4417
2026-01-24 12:37:48.00	187.87	19.74	-34.8	-36.6	21.6	0.00e+00	0	39	0	726663168	41	4384
2026-01-24 12:37:49.00	187.96	19.87	-34.8	-36.6	21.6	0.00e+00	0	39	0	731906048	41	4370
2026-01-24 12:37:50.00	188.05	19.99	-34.7	-36.5	21.7	0.00e+00	0	39	0	737148928	41	4334
2026-01-24 12:37:50.99	188.14	20.11	-34.7	-36.5	21.7	0.00e+00	0	39	0	742391808	41	4318
2026-01-24 12:37:51.98	188.23	20.23	-34.7	-36.5	21.7	0.00e+00	0	39	0	748683264	41	4306
2026-01-24 12:37:52.98	188.33	20.36	-34.6	-36.4	21.8	0.00e+00	0	39	0	753926144	41	4281
2026-01-24 12:37:53.97	188.42	20.48	-34.5	-36.2	22.0	0.00e+00	0	39	0	759169024	40	4438
2026-01-24 12:37:54.97	188.51	20.61	-34.4	-36.2	22.0	0.00e+00	0	39	0	765460480	40	4416
2026-01-24 12:37:55.96	188.61	20.73	-34.5	-36.3	21.9	0.00e+00	0	39	0	770703360	40	4467
2026-01-24 12:37:56.96	188.70	20.86	-34.5	-36.3	21.9	0.00e+00	0	39	0	776994816	40	4478
2026-01-24 12:37:57.95	188.80	20.98	-34.4	-36.2	22.0	0.00e+00	0	39	0	782237696	40	4421
2026-01-24 12:37:58.95	188.89	21.11	-34.5	-36.2	22.0	0.00e+00	0	39	0	787480576	40	4436
2026-01-24 12:37:59.94	188.99	21.24	-34.5	-36.3	22.0	0.00e+00	0	39	0	792723456	40	4442
2026-01-24 12:38:00.93	189.09	21.37	-34.4	-36.2	22.1	0.00e+00	0	39	0	799014912	40	4402
2026-01-24 12:38:01.93	189.19	21.49	-34.3	-36.1	22.1	0.00e+00	0	39	0	804257792	40	4373
2026-01-24 12:38:02.92	189.29	21.62	-34.4	-36.2	22.0	0.00e+00	0	39	0	809500672	40	4419
2026-01-24 12:38:03.92	189.39	21.75	-34.4	-36.2	22.1	0.00e+00	0	39	0	815792128	40	4395
2026-01-24 12:38:04.92	189.49	21.88	-34.3	-36.1	22.1	0.00e+00	0	39	0	821035008	40	4350
2026-01-24 12:38:05.91	189.59	22.02	-34.2	-36.0	22.2	0.00e+00	0	39	0	827326464	40	4317
2026-01-24 12:38:06.90	189.69	22.15	-34.2	-35.9	22.2	0.00e+00	0	39	0	832569344	40	4288
2026-01-24 12:38:07.90	189.80	22.28	-34.2	-35.9	22.3	0.00e+00	0	39	0	837812224	40	4276
2026-01-24 12:38:08.90	189.90	22.41	-34.2	-35.9	22.3	0.00e+00	0	39	0	844103680	40	4280
2026-01-24 12:38:09.89	190.01	22.54	-34.2	-35.9	22.2	0.00e+00	0	39	0	849346560	40	4280
2026-01-24 12:38:10.89	190.11	22.68	-34.2	-35.9	22.3	0.00e+00	0	39	0	854589440	40	4275
2026-01-24 12:38:11.88	190.22	22.81	-34.1	-35.8	22.4	0.00e+00	0	39	0	859832320	40	4219
2026-01-24 12:38:12.88	190.33	22.95	-34.1	-35.9	22.3	0.00e+00	0	39	0	866123776	40	4264
2026-01-24 12:38:13.87	190.44	23.08	-34.2	-35.9	22.3	0.00e+00	0	39	0	871366656	40	4281
2026-01-24 12:38:14.87	190.55	23.22	-34.1	-35.9	22.3	0.00e+00	0	39	0	877658112	40	4262
2026-01-24 12:38:15.86	190.66	23.36	-34.2	-36.0	22.2	0.00e+00	0	39	0	882900992	40	4294
2026-01-24 12:38:16.86	190.77	23.50	-34.2	-36.0	22.2	0.00e+00	0	39	0	888143872	40	4320
2026-01-24 12:38:17.85	190.88	23.63	-34.3	-36.1	22.2	0.00e+00	0	39	0	894435328	40	4349
2026-01-24 12:38:18.85	191.00	23.77	-34.2	-35.9	22.3	0.00e+00	0	39	0	899678208	40	4279
2026-01-24 12:38:19.84	191.11	23.91	-34.2	-36.0	22.3	0.00e+00	0	39	0	904921088	40	4305
2026-01-24 12:38:20.84	191.23	24.05	-34.1	-35.8	22.3	0.00e+00	0	39	0	911212544	40	4237
2026-01-24 12:38:21.83	191.34	24.19	-34.3	-36.0	22.2	0.00e+00	0	39	0	916455424	40	4325
2026-01-24 12:38:22.83	191.46	24.33	-34.1	-35.9	22.3	0.00e+00	0	39	0	921698304	40	4256
2026-01-24 12:38:23.82	191.58	24.48	-34.2	-35.9	22.3	0.00e+00	0	39	0	927989760	40	4266
2026-01-24 12:38:24.82	191.70	24.62	-34.0	-35.7	22.4	0.00e+00	0	39	0	933232640	40	4179
2026-01-24 12:38:25.81	191.82	24.76	-34.1	-35.8	22.4	0.00e+00	0	39	0	938475520	39	4468
2026-01-24 12:38:26.80	191.94	24.91	-34.0	-35.7	22.5	0.00e+00	0	39	0	944766976	39	4426
2026-01-24 12:38:27.80	192.07	25.05	-34.0	-35.7	22.5	0.00e+00	0	39	0	950009856	39	4427
2026-01-24 12:38:28.79	192.19	25.20	-33.9	-35.6	22.6	0.00e+00	0	39	0	955252736	39	4373
2026-01-24 12:38:29.79	192.31	25.34	-33.8	-35.6	22.6	0.00e+00	0	39	0	961544192	39	4345
2026-01-24 12:38:30.78	192.44	25.49	-33.7	-35.4	22.7	0.00e+00	0	39	0	966787072	39	4289
2026-01-24 12:38:31.78	192.57	25.64	-33.6	-35.3	22.8	0.00e+00	0	39	0	972029952	39	4224
2026-01-24 12:38:32.77	192.70	25.78	-33.6	-35.4	22.8	0.00e+00	0	39	0	978321408	39	4252
2026-01-24 12:38:33.77	192.83	25.93	-33.7	-35.4	22.7	0.00e+00	0	39	0	983564288	39	4277
2026-01-24 12:38:34.76	192.96	26.08	-33.6	-35.4	22.8	0.00e+00	0	39	0	988807168	39	4245
2026-01-24 12:38:35.76	193.09	26.23	-33.7	-35.4	22.7	0.00e+00	0	39	0	995098624	39	4267
2026-01-24 12:38:36.75	193.22	26.38	-33.7	-35.5	22.7	0.00e+00	0	39	0	1000341504	39	4301
2026-01-24 12:38:37.75	193.36	26.53	-33.7	-35.4	22.7	0.00e+00	0	39	0	1005584384	39	4289
2026-01-24 12:38:38.74	193.49	26.69	-33.8	-35.5	22.6	0.00e+00	0	39	0	1011875840	39	4331
2026-01-24 12:38:39.73	193.63	26.84	-33.8	-35.5	22.6	0.00e+00	0	39	0	1017118720	39	4333
2026-01-24 12:38:40.73	193.77	26.99	-33.7	-35.4	22.7	0.00e+00	0	39	0	1022361600	39	4281
2026-01-24 12:38:41.72	193.91	27.15	-33.7	-35.5	22.6	0.00e+00	0	39	0	1028653056	39	4304
2026-01-24 12:38:42.72	194.05	27.30	-33.7	-35.4	22.7	0.00e+00	0	39	0	1033895936	39	4268
2026-01-24 12:38:43.71	194.19	27.46	-33.7	-35.4	22.7	0.00e+00	0	39	0	1039138816	39	4265
2026-01-24 12:38:44.71	194.34	27.61	-33.8	-35.5	22.6	0.00e+00	0	39	0	1045430272	39	4326
2026-01-24 12:38:45.70	194.48	27.77	-33.8	-35.5	22.6	0.00e+00	0	39	0	1050673152	39	4316
2026-01-24 12:38:46.70	194.63	27.93	-33.8	-35.6	22.6	0.00e+00	0	39	0	1055916032	39	4345
2026-01-24 12:38:47.69	194.78	28.09	-33.7	-35.4	22.7	0.00e+00	0	39	0	1062207488	39	4279
2026-01-24 12:38:48.69	194.93	28.25	-33.6	-35.4	22.8	0.00e+00	0	39	0	1067450368	39	4244
2026-01-24 12:38:49.68	195.08	28.40	-33.7	-35.4	22.8	0.00e+00	0	39	0	1072693248	39	4279
2026-01-24 12:38:50.68	195.23	28.57	-33.6	-35.3	22.9	0.00e+00	0	39	0	1078984704	39	4207
2026-01-24 12:38:51.67	195.38	28.73	-33.6	-35.3	22.9	0.00e+00	0	39	0	1084227584	39	4208
2026-01-24 12:38:52.67	195.54	28.89	-33.5	-35.2	22.9	0.00e+00	0	39	0	1089470464	39	4192
2026-01-24 12:38:53.66	195.69	29.05	-33.6	-35.4	22.8	0.00e+00	0	39	0	1095761920	39	4243
2026-01-24 12:38:54.65	195.85	29.21	-33.7	-35.4	22.7	0.00e+00	0	39	0	1101004800	39	4259
2026-01-24 12:38:55.65	196.01	29.38	-33.7	-35.5	22.7	0.00e+00	0	39	0	1106247680	39	4306
2026-01-24 12:38:56.64	196.17	29.54	-33.8	-35.6	22.6	0.00e+00	0	39	0	1112539136	39	4357
2026-01-24 12:38:57.63	196.34	29.71	-33.8	-35.6	22.6	0.00e+00	0	39	0	1117782016	39	4349
2026-01-24 12:38:58.63	196.50	29.87	-33.8	-35.5	22.7	0.00e+00	0	39	0	1123024896	39	4309
2026-01-24 12:38:59.62	196.67	30.04	-33.9	-35.6	22.6	0.00e+00	0	39	0	1129316352	39	4382
2026-01-24 12:39:00.62	196.84	30.21	-33.9	-35.7	22.5	0.00e+00	0	39	0	1134559232	39	4392
2026-01-24 12:39:01.61	197.01	30.38	-33.9	-35.6	22.6	0.00e+00	0	39	0	1139802112	39	4374
2026-01-24 12:39:02.61	197.18	30.55	-33.8	-35.6	22.6	0.00e+00	0	39	0	1146093568	39	4357
2026-01-24 12:39:03.60	197.35	30.72	-33.5	-35.2	22.9	0.00e+00	0	39	0	1151336448	39	4185
2026-01-24 12:39:04.59	197.53	30.89	-33.3	-35.0	23.1	0.00e+00	0	39	0	1156579328	38	4294
2026-01-24 12:39:05.59	197.70	31.06	-33.2	-34.9	23.3	0.00e+00	0	39	0	1162870784	38	4249
2026-01-24 12:39:06.59	197.88	31.23	-33.1	-34.8	23.3	0.00e+00	0	39	0	1168113664	38	4214
2026-01-24 12:39:07.58	198.06	31.40	-33.2	-34.8	23.3	0.00e+00	0	39	0	1173356544	38	4233
2026-01-24 12:39:08.58	198.25	31.58	-33.4	-35.1	23.1	0.00e+00	0	39	0	1179648000	38	4347
2026-01-24 12:39:09.57	198.43	31.75	-33.5	-35.1	23.0	0.00e+00	0	39	0	1184890880	38	4388
2026-01-24 12:39:10.57	198.62	31.93	-33.5	-35.2	23.0	0.00e+00	0	39	0	1190133760	38	4422
2026-01-24 12:39:11.56	198.81	32.10	-33.6	-35.3	22.9	0.00e+00	0	39	0	1196425216	38	4449
2026-01-24 12:39:12.56	199.00	32.28	-33.6	-35.3	22.9	0.00e+00	0	39	0	1201668096	38	4481
2026-01-24 12:39:13.55	199.19	32.45	-33.6	-35.3	22.9	0.00e+00	0	39	0	1206910976	38	4487
2026-01-24 12:39:14.55	199.39	32.63	-33.6	-35.3	22.9	0.00e+00	0	39	0	1213202432	38	4456
2026-01-24 12:39:15.54	199.58	32.81	-33.6	-35.4	22.8	0.00e+00	0	39	0	1218445312	38	4505
2026-01-24 12:39:16.54	199.78	32.99	-33.5	-35.2	23.0	0.00e+00	0	39	0	1223688192	38	4436
2026-01-24 12:39:17.53	199.98	33.17	-33.6	-35.3	22.9	0.00e+00	0	39	0	1229979648	38	4480
2026-01-24 12:39:18.52	200.18	33.35	-33.5	-35.2	23.0	0.00e+00	0	39	0	1235222528	38	4418
2026-01-24 12:39:19.52	200.39	33.53	-33.4	-35.1	23.1	0.00e+00	0	39	0	1240465408	38	4366
2026-01-24 12:39:20.51	200.60	33.71	-33.1	-34.8	23.3	0.00e+00	0	39	0	1246756864	38	4229
2026-01-24 12:39:21.51	200.81	33.90	-33.1	-34.8	23.4	0.00e+00	0	39	0	1251999744	38	4207
2026-01-24 12:39:22.50	201.02	34.08	-33.2	-34.8	23.3	0.00e+00	0	39	0	1257242624	38	4242
2026-01-24 12:39:23.50	201.23	34.26	-33.1	-34.8	23.3	0.00e+00	0	39	0	1263534080	38	4230
2026-01-24 12:39:24.49	201.45	34.45	-33.1	-34.8	23.4	0.00e+00	0	39	0	1268776960	38	4214
2026-01-24 12:39:25.49	201.67	34.63	-33.2	-34.9	23.2	0.00e+00	0	39	0	1274019840	38	4275
2026-01-24 12:39:26.48	201.89	34.82	-33.3	-35.0	23.2	0.00e+00	0	39	0	1280311296	38	4306
2026-01-24 12:39:27.48	202.12	35.00	-33.3	-35.0	23.1	0.00e+00	0	39	0	1285554176	38	4302
2026-01-24 12:39:28.48	202.35	35.19	-33.3	-35.0	23.2	0.00e+00	0	39	0	1290797056	38	4321
2026-01-24 12:39:29.47	202.57	35.38	-33.3	-35.0	23.2	0.00e+00	0	39	0	1297088512	38	4325
2026-01-24 12:39:30.46	202.81	35.57	-33.0	-34.7	23.4	0.00e+00	0	39	0	1302331392	38	4173
2026-01-24 12:39:31.46	203.04	35.76	-32.9	-34.6	23.5	0.00e+00	0	39	0	1308622848	37	4371
2026-01-24 12:39:32.45	203.28	35.94	-33.0	-34.7	23.4	0.00e+00	0	39	0	1313865728	37	4396
2026-01-24 12:39:33.45	203.52	36.14	-33.0	-34.7	23.4	0.00e+00	0	39	0	1319108608	37	4429
2026-01-24 12:39:34.44	203.76	36.32	-33.0	-34.7	23.4	0.00e+00	0	39	0	1325400064	37	4424
2026-01-24 12:39:35.44	204.01	36.52	-33.0	-34.7	23.4	0.00e+00	0	39	0	1330642944	37	4405
2026-01-24 12:39:36.43	204.26	36.71	-33.1	-34.8	23.3	0.00e+00	0	39	0	1335885824	37	4474
2026-01-24 12:39:37.43	204.51	36.90	-33.2	-34.9	23.2	0.00e+00	0	39	0	1341128704	37	4497
2026-01-24 12:39:38.42	204.76	37.09	-33.1	-34.8	23.3	0.00e+00	0	39	0	1347420160	37	4487
2026-01-24 12:39:39.42	205.02	37.29	-33.2	-34.9	23.2	0.00e+00	0	39	0	1352663040	37	4500
2026-01-24 12:39:40.41	205.28	37.48	-33.2	-34.9	23.2	0.00e+00	0	39	0	1358954496	37	4538
2026-01-24 12:39:41.41	205.55	37.67	-33.3	-35.0	23.1	0.00e+00	0	39	0	1364197376	37	4577
2026-01-24 12:39:42.40	205.81	37.87	-33.3	-35.0	23.2	0.00e+00	0	39	0	1369440256	37	4555
2026-01-24 12:39:43.40	206.08	38.06	-33.4	-35.1	23.1	0.00e+00	0	39	0	1375731712	37	4601
2026-01-24 12:39:44.39	206.35	38.26	-33.2	-34.9	23.3	0.00e+00	0	39	0	1380974592	37	4534
2026-01-24 12:39:45.38	206.63	38.45	-33.3	-35.0	23.3	0.00e+00	0	39	0	1386217472	37	4552
2026-01-24 12:39:46.38	206.91	38.65	-33.2	-34.9	23.3	0.00e+00	0	39	0	1391460352	37	4531
2026-01-24 12:39:47.38	207.19	38.85	-33.2	-34.9	23.3	0.00e+00	0	39	0	1397751808	37	4511
2026-01-24 12:39:48.37	207.48	39.04	-33.2	-34.9	23.4	0.00e+00	0	39	0	1402994688	37	4509
2026-01-24 12:39:49.37	207.77	39.24	-33.3	-35.0	23.3	0.00e+00	0	39	0	1409286144	37	4583
2026-01-24 12:39:50.36	208.06	39.44	-33.2	-34.9	23.3	0.00e+00	0	39	0	1414529024	37	4516
2026-01-24 12:39:51.35	208.36	39.64	-33.2	-34.9	23.3	0.00e+00	0	39	0	1419771904	37	4511
2026-01-24 12:39:52.35	208.66	39.84	-33.2	-34.9	23.3	0.00e+00	0	39	0	1426063360	37	4501
2026-01-24 12:39:53.34	208.96	40.03	-33.2	-34.9	23.3	0.00e+00	0	39	0	1431306240	37	4513
2026-01-24 12:39:54.34	209.27	40.23	-33.1	-34.8	23.4	0.00e+00	0	39	0	1436549120	37	4480
2026-01-24 12:39:55.33	209.58	40.43	-33.2	-34.9	23.3	0.00e+00	0	39	0	1441792000	37	4526
2026-01-24 12:39:56.33	209.90	40.63	-33.2	-34.9	23.3	0.00e+00	0	39	0	1448083456	37	4506
2026-01-24 12:39:57.32	210.22	40.83	-33.2	-34.9	23.3	0.00e+00	0	39	0	1453326336	37	4535
2026-01-24 12:39:58.31	210.54	41.03	-33.3	-35.0	23.3	0.00e+00	0	39	0	1459617792	37	4550
2026-01-24 12:39:59.31	210.87	41.23	-33.2	-34.9	23.3	0.00e+00	0	39	0	1464860672	37	4517
2026-01-24 12:40:00.31	211.20	41.43	-33.2	-34.9	23.3	0.00e+00	0	39	0	1470103552	37	4538
2026-01-24 12:40:01.30	211.53	41.63	-33.2	-34.9	23.3	0.00e+00	0	39	0	1476395008	37	4533
2026-01-24 12:40:02.30	211.87	41.83	-33.4	-35.1	23.2	0.00e+00	0	39	0	1481637888	37	4610
2026-01-24 12:40:03.30	212.22	42.03	-33.4	-35.2	23.1	0.00e+00	0	39	0	1486880768	37	4653
2026-01-24 12:40:04.29	212.56	42.23	-33.3	-35.0	23.1	0.00e+00	0	39	0	1493172224	37	4594
2026-01-24 12:40:05.29	212.92	42.43	-33.3	-35.0	23.3	0.00e+00	0	39	0	1498415104	37	4547
2026-01-24 12:40:06.28	213.27	42.63	-33.4	-35.1	23.2	0.00e+00	0	39	0	1503657984	37	4633
2026-01-24 12:40:07.28	213.63	42.83	-33.4	-35.1	23.2	0.00e+00	0	39	0	1509949440	37	4608
2026-01-24 12:40:08.27	214.00	43.02	-33.5	-35.2	23.1	0.00e+00	0	39	0	1515192320	37	4656
2026-01-24 12:40:09.27	214.37	43.22	-33.4	-35.1	23.1	0.00e+00	0	39	0	1520435200	37	4617
2026-01-24 12:40:10.27	214.74	43.42	-33.3	-35.0	23.2	0.00e+00	0	39	0	1526726656	37	4565
2026-01-24 12:40:11.26	215.12	43.62	-33.4	-35.1	23.1	0.00e+00	0	39	0	1531969536	37	4628
2026-01-24 12:40:12.25	215.50	43.82	-33.4	-35.2	23.1	0.00e+00	0	39	0	1537212416	37	4654
2026-01-24 12:40:13.25	215.89	44.01	-33.5	-35.3	23.0	0.00e+00	0	39	0	1543503872	37	4707
2026-01-24 12:40:14.24	216.28	44.21	-33.4	-35.1	23.1	0.00e+00	0	39	0	1548746752	37	4637
2026-01-24 12:40:15.24	216.68	44.41	-33.5	-35.2	23.1	0.00e+00	0	39	0	1553989632	37	4654
2026-01-24 12:40:16.23	217.08	44.60	-33.4	-35.1	23.1	0.00e+00	0	39	0	1560281088	37	4633
2026-01-24 12:40:17.22	217.49	44.80	-33.5	-35.2	23.0	0.00e+00	0	39	0	1565523968	37	4696
2026-01-24 12:40:18.22	217.90	44.99	-33.7	-35.4	22.8	0.00e+00	0	39	0	1570766848	38	4526
2026-01-24 12:40:19.21	218.31	45.19	-33.7	-35.5	22.8	0.00e+00	0	39	0	1577058304	38	4552
2026-01-24 12:40:20.21	218.74	45.38	-33.9	-35.6	22.7	0.00e+00	0	40	0	1582301184	38	4642
2026-01-24 12:40:21.20	219.16	45.57	-33.9	-35.7	22.6	0.00e+00	0	39	0	1587544064	38	4681
2026-01-24 12:40:22.20	219.60	45.76	-33.9	-35.7	22.7	0.00e+00	0	39	0	1593835520	38	4669
2026-01-24 12:40:23.19	220.03	45.95	-33.8	-35.5	22.9	0.00e+00	0	39	0	1599078400	38	4548
2026-01-24 12:40:24.19	220.48	46.14	-33.6	-35.2	23.2	0.00e+00	0	39	0	1604321280	38	4428
2026-01-24 12:40:25.18	220.93	46.33	-33.4	-35.1	23.3	0.00e+00	0	40	0	1610612736	38	4366
2026-01-24 12:40:26.18	221.38	46.52	-33.7	-35.4	23.0	0.00e+00	0	39	0	1615855616	38	4503
2026-01-24 12:40:27.17	221.84	46.71	-33.8	-35.5	22.9	0.00e+00	0	39	0	1621098496	38	4571
2026-01-24 12:40:28.16	222.30	46.89	-33.7	-35.4	22.9	0.00e+00	0	39	0	1627389952	38	4544
2026-01-24 12:40:29.16	222.77	47.08	-33.6	-35.2	23.1	0.00e+00	0	39	0	1632632832	38	4432
2026-01-24 12:40:30.15	223.25	47.26	-33.4	-35.1	23.3	0.00e+00	0	39	0	1637875712	38	4356
2026-01-24 12:40:31.15	223.73	47.44	-33.5	-35.2	23.2	0.00e+00	0	39	0	1644167168	38	4406
2026-01-24 12:40:32.14	224.21	47.62	-33.5	-35.2	23.1	0.00e+00	0	39	0	1649410048	38	4393
2026-01-24 12:40:33.14	224.71	47.80	-33.4	-35.1	23.2	0.00e+00	0	40	0	1654652928	38	4375
2026-01-24 12:40:34.13	225.20	47.98	-33.5	-35.2	23.2	0.00e+00	0	39	0	1660944384	38	4405
2026-01-24 12:40:35.13	225.71	48.15	-33.6	-35.3	23.0	0.00e+00	0	39	0	1666187264	38	4475
2026-01-24 12:40:36.12	226.21	48.33	-33.9	-35.6	22.8	0.00e+00	0	40	0	1671430144	38	4638
2026-01-24 12:40:37.12	226.73	48.50	-33.8	-35.6	22.8	0.00e+00	0	39	0	1677721600	38	4603
2026-01-24 12:40:38.11	227.25	48.67	-33.6	-35.3	23.1	0.00e+00	0	40	0	1682964480	38	4483
2026-01-24 12:40:39.11	227.78	48.84	-33.6	-35.3	23.2	0.00e+00	0	39	0	1688207360	38	4448
2026-01-24 12:40:40.10	228.31	49.01	-33.4	-35.1	23.3	0.00e+00	0	39	0	1694498816	38	4353
2026-01-24 12:40:41.10	228.85	49.17	-33.4	-35.1	23.3	0.00e+00	0	40	0	1699741696	38	4360
2026-01-24 12:40:42.09	229.39	49.33	-33.8	-35.5	23.0	0.00e+00	0	39	0	1706033152	38	4548
2026-01-24 12:40:43.09	229.94	49.49	-33.9	-35.7	22.8	0.00e+00	0	39	0	1711276032	38	4673
2026-01-24 12:40:44.08	230.49	49.65	-33.9	-35.7	22.8	0.00e+00	0	39	0	1716518912	38	4652
2026-01-24 12:40:45.08	231.05	49.81	-33.9	-35.6	22.8	0.00e+00	0	39	0	1721761792	38	4646
2026-01-24 12:40:46.07	231.62	49.96	-33.8	-35.5	22.9	0.00e+00	0	39	0	1728053248	38	4574
2026-01-24 12:40:47.07	232.19	50.11	-33.8	-35.4	22.9	0.00e+00	0	39	0	1733296128	38	4542
2026-01-24 12:40:48.06	232.76	50.26	-33.9	-35.6	22.9	0.00e+00	0	39	0	1738539008	38	4619
2026-01-24 12:40:49.06	233.35	50.41	-33.9	-35.7	22.8	0.00e+00	0	39	0	1744830464	38	4661
2026-01-24 12:40:50.05	233.94	50.55	-34.0	-35.8	22.7	0.00e+00	0	39	0	1750073344	38	4711
2026-01-24 12:40:51.05	234.53	50.69	-33.9	-35.6	22.8	0.00e+00	0	39	0	1756364800	38	4623
2026-01-24 12:40:52.04	235.13	50.83	-34.0	-35.7	22.8	0.00e+00	0	39	0	1761607680	38	4690
2026-01-24 12:40:53.04	235.74	50.97	-33.9	-35.6	22.8	0.00e+00	0	39	0	1766850560	38	4632
2026-01-24 12:40:54.03	236.34	51.10	-33.6	-35.4	23.0	0.00e+00	0	39	0	1772093440	38	4497
2026-01-24 12:40:55.03	236.96	51.23	-33.5	-35.2	23.2	0.00e+00	0	39	0	1778384896	38	4408
2026-01-24 12:40:56.02	237.58	51.35	-33.9	-35.6	22.9	0.00e+00	0	39	0	1783627776	38	4632
2026-01-24 12:40:57.02	238.21	51.48	-34.3	-36.0	22.4	0.00e+00	0	39	0	1788870656	39	4598
2026-01-24 12:40:58.01	238.83	51.60	-34.0	-35.8	22.6	0.00e+00	0	39	0	1795162112	39	4457
2026-01-24 12:40:59.01	239.47	51.71	-33.8	-35.5	22.8	0.00e+00	0	39	0	1800404992	39	4326
2026-01-24 12:41:00.00	240.11	51.82	-33.9	-35.6	22.7	0.00e+00	0	39	0	1806696448	39	4379
2026-01-24 12:41:01.00	240.76	51.94	-34.0	-35.7	22.7	0.00e+00	0	39	0	1811939328	39	4433
2026-01-24 12:41:02.00	241.41	52.04	-34.0	-35.7	22.7	0.00e+00	0	39	0	1817182208	39	4409
2026-01-24 12:41:02.99	242.06	52.14	-33.9	-35.6	22.8	0.00e+00	0	39	0	1822425088	39	4344
2026-01-24 12:41:03.98	242.72	52.24	-34.2	-36.0	22.5	0.00e+00	0	39	0	1828716544	39	4552
2026-01-24 12:41:04.98	243.39	52.34	-34.0	-35.8	22.7	0.00e+00	0	39	0	1833959424	39	4447
2026-01-24 12:41:05.97	244.05	52.43	-33.9	-35.6	22.9	0.00e+00	0	39	0	1839202304	39	4358
2026-01-24 12:41:06.97	244.72	52.52	-33.9	-35.7	22.8	0.00e+00	0	39	0	1845493760	39	4395
2026-01-24 12:41:07.96	245.40	52.60	-34.0	-35.8	22.7	0.00e+00	0	39	0	1850736640	39	4447
2026-01-24 12:41:08.96	246.08	52.68	-33.9	-35.6	22.9	0.00e+00	0	39	0	1857028096	39	4347
2026-01-24 12:41:09.95	246.76	52.76	-34.1	-35.8	22.7	0.00e+00	0	39	0	1862270976	39	4459
2026-01-24 12:41:10.95	247.45	52.83	-34.0	-35.7	22.7	0.00e+00	0	40	0	1867513856	39	4408
2026-01-24 12:41:11.94	248.13	52.90	-34.0	-35.7	22.7	0.00e+00	0	39	0	1873805312	39	4406
2026-01-24 12:41:12.94	248.83	52.96	-34.0	-35.7	22.7	0.00e+00	0	40	0	1879048192	39	4413
2026-01-24 12:41:13.93	249.52	53.02	-34.2	-35.9	22.6	0.00e+00	0	39	0	1884291072	39	4510
2026-01-24 12:41:14.93	250.22	53.08	-34.2	-35.9	22.6	0.00e+00	0	39	0	1889533952	39	4516
2026-01-24 12:41:15.92	250.92	53.13	-34.1	-35.8	22.7	0.00e+00	0	40	0	1895825408	39	4459
2026-01-24 12:41:16.92	251.62	53.17	-34.2	-35.9	22.6	0.00e+00	0	39	0	1901068288	39	4506
2026-01-24 12:41:17.91	252.33	53.22	-34.1	-35.9	22.6	0.00e+00	0	39	0	1907359744	39	4496
2026-01-24 12:41:18.90	253.03	53.26	-33.7	-35.4	23.0	0.00e+00	0	40	0	1912602624	39	4245
2026-01-24 12:41:19.90	253.74	53.29	-33.7	-35.4	23.1	0.00e+00	0	39	0	1917845504	39	4266
2026-01-24 12:41:20.90	254.45	53.32	-34.2	-35.9	22.6	0.00e+00	0	39	0	1924136960	39	4524
2026-01-24 12:41:21.89	255.16	53.34	-34.4	-36.1	22.4	0.00e+00	0	39	0	1929379840	39	4648
2026-01-24 12:41:22.89	255.88	53.37	-34.4	-36.1	22.3	0.00e+00	0	39	0	1934622720	39	4638
2026-01-24 12:41:23.88	256.59	53.38	-34.4	-36.2	22.2	0.00e+00	0	39	0	1939865600	39	4678
2026-01-24 12:41:24.87	257.30	53.39	-34.5	-36.3	22.1	0.00e+00	0	39	0	1946157056	39	4718
2026-01-24 12:41:25.87	258.02	53.40	-34.4	-36.1	22.3	0.00e+00	0	39	0	1951399936	39	4628
2026-01-24 12:41:26.86	258.73	53.40	-34.1	-35.8	22.6	0.00e+00	0	39	0	1957691392	39	4493
2026-01-24 12:41:27.86	259.45	53.40	-34.2	-35.9	22.5	0.00e+00	0	39	0	1962934272	39	4544
2026-01-24 12:41:28.85	260.16	53.40	-34.5	-36.2	22.2	0.00e+00	0	39	0	1968177152	39	4704
2026-01-24 12:41:29.84	260.87	53.39	-34.5	-36.3	22.2	0.00e+00	0	39	0	1974468608	39	4738
2026-01-24 12:41:30.84	261.58	53.37	-34.4	-36.1	22.4	0.00e+00	0	39	0	1979711488	39	4615
2026-01-24 12:41:31.84	262.30	53.35	-34.2	-35.9	22.6	0.00e+00	0	39	0	1984954368	39	4537
2026-01-24 12:41:32.83	263.01	53.33	-34.3	-36.0	22.4	0.00e+00	0	39	0	1990197248	39	4594
2026-01-24 12:41:33.83	263.72	53.30	-34.3	-36.1	22.4	0.00e+00	0	39	0	1996488704	39	4612
2026-01-24 12:41:34.82	264.43	53.27	-34.1	-35.8	22.6	0.00e+00	0	39	0	2001731584	39	4484
2026-01-24 12:41:35.82	265.14	53.23	-34.0	-35.8	22.7	0.00e+00	0	39	0	2008023040	39	4443
2026-01-24 12:41:36.81	265.84	53.19	-34.0	-35.7	22.7	0.00e+00	0	39	0	2013265920	39	4431
2026-01-24 12:41:37.81	266.55	53.15	-34.2	-35.9	22.6	0.00e+00	0	39	0	2018508800	39	4525
2026-01-24 12:41:38.80	267.24	53.10	-34.2	-35.9	22.5	0.00e+00	0	39	0	2024800256	39	4536
2026-01-24 12:41:39.80	267.94	53.04	-33.9	-35.6	22.8	0.00e+00	0	40	0	2030043136	39	4377
2026-01-24 12:41:40.80	268.64	52.98	-33.9	-35.5	22.9	0.00e+00	0	40	0	2035286016	39	4332
2026-01-24 12:41:41.79	269.33	52.92	-34.2	-35.9	22.6	0.00e+00	0	39	0	2040528896	39	4503
2026-01-24 12:41:42.78	270.02	52.86	-34.6	-36.4	22.1	0.00e+00	0	40	0	2046820352	39	4785
2026-01-24 12:41:43.78	270.71	52.79	-34.3	-36.0	22.4	0.00e+00	0	39	0	2052063232	39	4582
2026-01-24 12:41:44.77	271.39	52.71	-34.1	-35.8	22.6	0.00e+00	0	40	0	2058354688	39	4466
2026-01-24 12:41:45.77	272.07	52.63	-34.0	-35.7	22.7	0.00e+00	0	40	0	2063597568	39	4429
2026-01-24 12:41:46.77	272.75	52.55	-34.4	-36.2	22.3	0.00e+00	0	39	0	2068840448	39	4671
2026-01-24 12:41:47.76	273.42	52.47	-34.2	-35.9	22.5	0.00e+00	0	40	0	2075131904	39	4529
2026-01-24 12:41:48.76	274.09	52.37	-34.2	-35.9	22.5	0.00e+00	0	40	0	2080374784	39	4537
2026-01-24 12:41:49.76	274.76	52.28	-34.3	-36.0	22.4	0.00e+00	0	39	0	2085617664	39	4588
2026-01-24 12:41:50.75	275.42	52.18	-34.3	-36.0	22.4	0.00e+00	0	40	0	2091909120	39	4591
2026-01-24 12:41:51.74	276.07	52.08	-34.1	-35.8	22.6	0.00e+00	0	39	0	2097152000	39	4452
2026-01-24 12:41:52.74	276.72	51.98	-34.0	-35.8	22.6	0.00e+00	0	39	0	2103443456	39	4451
2026-01-24 12:41:53.74	277.37	51.87	-34.0	-35.7	22.7	0.00e+00	0	40	0	2108686336	39	4416
2026-01-24 12:41:54.73	278.01	51.76	-34.0	-35.8	22.7	0.00e+00	0	40	0	2113929216	39	4443
2026-01-24 12:41:55.73	278.65	51.64	-33.7	-35.4	22.9	0.00e+00	0	39	0	2119172096	39	4288
2026-01-24 12:41:56.73	279.28	51.52	-33.7	-35.4	23.0	0.00e+00	0	39	0	2125463552	39	4268
2026-01-24 12:41:57.72	279.91	51.40	-33.8	-35.5	22.9	0.00e+00	0	40	0	2130706432	39	4307
2026-01-24 12:41:58.71	280.53	51.28	-33.9	-35.6	22.8	0.00e+00	0	40	0	2135949312	39	4356
2026-01-24 12:41:59.71	281.14	51.15	-33.9	-35.6	22.8	0.00e+00	0	40	0	2142240768	39	4381
2026-01-24 12:42:00.70	281.75	51.02	-33.8	-35.5	22.9	0.00e+00	0	39	0	2147483648	39	4329
2026-01-24 12:42:01.70	282.36	50.89	-33.8	-35.5	22.9	0.00e+00	0	40	0	2153775104	39	4324
2026-01-24 12:42:02.69	282.96	50.75	-33.7	-35.4	23.0	0.00e+00	0	39	0	2159017984	39	4264
2026-01-24 12:42:03.69	283.56	50.61	-33.5	-35.2	23.1	0.00e+00	0	39	0	2164260864	39	4175
2026-01-24 12:42:04.68	284.14	50.47	-33.9	-35.7	22.7	0.00e+00	0	39	0	2169503744	39	4398
2026-01-24 12:42:05.68	284.73	50.32	-34.1	-35.8	22.6	0.00e+00	0	40	0	2175795200	39	4490
2026-01-24 12:42:06.67	285.30	50.18	-33.7	-35.4	22.9	0.00e+00	0	39	0	2181038080	39	4275
2026-01-24 12:42:07.67	285.88	50.03	-33.6	-35.3	23.1	0.00e+00	0	40	0	2186280960	39	4202
2026-01-24 12:42:08.66	286.44	49.88	-33.8	-35.5	23.0	0.00e+00	0	40	0	2192572416	39	4305
2026-01-24 12:42:09.66	287.01	49.72	-33.6	-35.3	23.2	0.00e+00	0	39	0	2197815296	39	4197
2026-01-24 12:42:10.65	287.56	49.56	-33.5	-35.1	23.3	0.00e+00	0	40	0	2204106752	38	4387
2026-01-24 12:42:11.65	288.11	49.40	-33.6	-35.3	23.2	0.00e+00	0	40	0	2209349632	38	4465
2026-01-24 12:42:12.65	288.66	49.24	-33.6	-35.3	23.1	0.00e+00	0	39	0	2214592512	38	4482
2026-01-24 12:42:13.64	289.20	49.08	-33.7	-35.4	23.5	0.00e+00	0	39	0	2220883968	38	4502
2026-01-24 12:42:14.64	289.73	48.91	-33.5	-35.1	23.7	0.00e+00	0	40	0	2226126848	38	4361
2026-01-24 12:42:15.63	290.26	48.75	-33.4	-35.0	23.8	0.00e+00	0	40	0	2231369728	38	4327
2026-01-24 12:42:16.63	290.78	48.58	-33.4	-35.0	23.8	0.00e+00	0	40	0	2236612608	38	4314
2026-01-24 12:42:17.63	291.30	48.40	-33.6	-35.2	23.6	0.00e+00	0	40	0	2242904064	38	4432
2026-01-24 12:42:18.62	291.81	48.23	-33.9	-35.6	23.4	0.00e+00	0	40	0	2248146944	38	4601
2026-01-24 12:42:19.62	292.31	48.06	-33.8	-35.5	23.4	0.00e+00	0	40	0	2254438400	38	4547
2026-01-24 12:42:20.61	292.81	47.88	-33.5	-35.1	23.7	0.00e+00	0	39	0	2259681280	38	4384
2026-01-24 12:42:21.61	293.30	47.70	-33.3	-34.9	23.9	0.00e+00	0	40	0	2264924160	38	4284
2026-01-24 12:42:22.60	293.79	47.53	-33.6	-35.2	23.7	0.00e+00	0	39	0	2271215616	38	4393
2026-01-24 12:42:23.60	294.27	47.34	-33.7	-35.4	23.5	0.00e+00	0	39	0	2276458496	38	4509
2026-01-24 12:42:24.59	294.75	47.16	-33.9	-35.6	23.3	0.00e+00	0	40	0	2281701376	38	4603
2026-01-24 12:42:25.59	295.22	46.98	-33.8	-35.4	23.4	0.00e+00	0	39	0	2286944256	38	4544
2026-01-24 12:42:26.58	295.68	46.80	-33.6	-35.2	23.6	0.00e+00	0	40	0	2293235712	38	4428
2026-01-24 12:42:27.57	296.14	46.61	-33.7	-35.3	23.6	0.00e+00	0	40	0	2298478592	38	4468
2026-01-24 12:42:28.57	296.60	46.42	-33.8	-35.5	23.4	0.00e+00	0	40	0	2304770048	38	4560
2026-01-24 12:42:29.57	297.05	46.24	-33.9	-35.6	23.3	0.00e+00	0	40	0	2310012928	38	4604
2026-01-24 12:42:30.56	297.49	46.05	-34.0	-35.6	23.3	0.00e+00	0	39	0	2315255808	38	4644
2026-01-24 12:42:31.55	297.93	45.86	-33.9	-35.5	23.4	0.00e+00	0	40	0	2321547264	38	4586
2026-01-24 12:42:32.55	298.36	45.67	-33.7	-35.3	23.5	0.00e+00	0	39	0	2326790144	38	4491
2026-01-24 12:42:33.54	298.79	45.48	-33.7	-35.3	23.6	0.00e+00	0	39	0	2332033024	38	4459
2026-01-24 12:42:34.54	299.22	45.28	-33.7	-35.4	23.5	0.00e+00	0	40	0	2337275904	38	4498
2026-01-24 12:42:35.53	299.63	45.09	-33.8	-35.4	23.5	0.00e+00	0	40	0	2343567360	38	4505
2026-01-24 12:42:36.53	300.05	44.90	-33.8	-35.4	23.5	0.00e+00	0	39	0	2348810240	38	4522
2026-01-24 12:42:37.52	300.45	44.70	-33.8	-35.4	23.4	0.00e+00	0	39	0	2355101696	38	4536
2026-01-24 12:42:38.52	300.86	44.51	-33.6	-35.2	23.6	0.00e+00	0	40	0	2360344576	38	4436
2026-01-24 12:42:39.51	301.26	44.31	-33.6	-35.2	23.6	0.00e+00	0	39	0	2365587456	38	4436
2026-01-24 12:42:40.51	301.65	44.12	-33.5	-35.2	23.7	0.00e+00	0	40	0	2371878912	38	4394
2026-01-24 12:42:41.50	302.04	43.92	-33.6	-35.2	23.6	0.00e+00	0	40	0	2377121792	38	4425
2026-01-24 12:42:42.49	302.42	43.73	-33.7	-35.3	23.5	0.00e+00	0	40	0	2382364672	38	4491
2026-01-24 12:42:43.49	302.80	43.53	-33.7	-35.4	23.5	0.00e+00	0	39	0	2387607552	38	4509
2026-01-24 12:42:44.48	303.17	43.33	-33.8	-35.5	23.4	0.00e+00	0	40	0	2393899008	38	4557
2026-01-24 12:42:45.48	303.55	43.13	-33.6	-35.3	23.6	0.00e+00	0	40	0	2399141888	38	4446
2026-01-24 12:42:46.47	303.91	42.94	-33.3	-34.9	23.8	0.00e+00	0	40	0	2405433344	38	4286
2026-01-24 12:42:47.47	304.27	42.74	-33.3	-34.9	23.9	0.00e+00	0	40	0	2410676224	38	4283
2026-01-24 12:42:48.46	304.63	42.54	-33.5	-35.1	23.7	0.00e+00	0	39	0	2415919104	38	4366
2026-01-24 12:42:49.46	304.98	42.34	-33.5	-35.1	23.8	0.00e+00	0	40	0	2422210560	38	4359
2026-01-24 12:42:50.46	305.33	42.14	-33.5	-35.2	23.7	0.00e+00	0	40	0	2427453440	38	4402
2026-01-24 12:42:51.45	305.68	41.94	-33.5	-35.2	23.6	0.00e+00	0	39	0	2432696320	38	4395
2026-01-24 12:42:52.44	306.01	41.75	-33.4	-35.0	23.8	0.00e+00	0	39	0	2438987776	38	4324
2026-01-24 12:42:53.44	306.35	41.55	-33.3	-34.9	23.9	0.00e+00	0	40	0	2444230656	38	4266
2026-01-24 12:42:54.43	306.68	41.35	-33.3	-34.9	23.9	0.00e+00	0	40	0	2449473536	38	4274
2026-01-24 12:42:55.43	307.01	41.15	-33.3	-35.0	23.8	0.00e+00	0	40	0	2455764992	38	4301
2026-01-24 12:42:56.42	307.33	40.95	-33.3	-34.9	23.9	0.00e+00	0	40	0	2461007872	38	4259
2026-01-24 12:42:57.42	307.66	40.75	-33.2	-34.8	23.9	0.00e+00	0	39	0	2466250752	38	4227
2026-01-24 12:42:58.41	307.97	40.56	-33.2	-34.8	23.9	0.00e+00	0	39	0	2472542208	38	4232
2026-01-24 12:42:59.41	308.28	40.36	-33.1	-34.7	24.1	0.00e+00	0	40	0	2477785088	38	4163
2026-01-24 12:43:00.40	308.59	40.16	-33.1	-34.7	24.1	0.00e+00	0	40	0	2483027968	38	4151
2026-01-24 12:43:01.40	308.90	39.96	-33.1	-34.7	24.0	0.00e+00	0	40	0	2489319424	38	4191
2026-01-24 12:43:02.39	309.20	39.77	-33.1	-34.7	24.1	0.00e+00	0	40	0	2494562304	38	4165
2026-01-24 12:43:03.39	309.50	39.57	-33.1	-34.7	24.0	0.00e+00	0	40	0	2499805184	38	4177
2026-01-24 12:43:04.38	309.79	39.37	-33.2	-34.8	24.0	0.00e+00	0	40	0	2506096640	38	4201
2026-01-24 12:43:05.37	310.08	39.18	-33.2	-34.8	24.0	0.00e+00	0	39	0	2511339520	38	4208
2026-01-24 12:43:06.37	310.37	38.98	-33.2	-34.8	24.0	0.00e+00	0	40	0	2516582400	38	4239
2026-01-24 12:43:07.36	310.65	38.78	-33.2	-34.9	23.9	0.00e+00	0	39	0	2522873856	38	4257
2026-01-24 12:43:08.36	310.93	38.59	-33.2	-34.8	23.9	0.00e+00	0	39	0	2528116736	38	4219
2026-01-24 12:43:09.35	311.21	38.39	-33.1	-34.7	24.0	0.00e+00	0	40	0	2533359616	38	4186
2026-01-24 12:43:10.35	311.48	38.20	-33.1	-34.7	24.0	0.00e+00	0	40	0	2539651072	38	4158
2026-01-24 12:43:11.34	311.75	38.00	-33.0	-34.6	24.1	0.00e+00	0	40	0	2544893952	38	4129
2026-01-24 12:43:12.34	312.02	37.81	-32.9	-34.5	24.2	0.00e+00	0	40	0	2550136832	37	4328
2026-01-24 12:43:13.33	312.28	37.62	-33.0	-34.6	24.1	0.00e+00	0	40	0	2556428288	37	4362
2026-01-24 12:43:14.32	312.54	37.43	-33.0	-34.6	24.1	0.00e+00	0	40	0	2561671168	37	4381
2026-01-24 12:43:15.32	312.80	37.23	-33.2	-34.8	23.9	0.00e+00	0	40	0	2566914048	37	4466
2026-01-24 12:43:16.31	313.06	37.04	-33.1	-34.7	24.0	0.00e+00	0	40	0	2573205504	37	4441
2026-01-24 12:43:17.31	313.31	36.85	-33.1	-34.7	24.0	0.00e+00	0	40	0	2578448384	37	4429
2026-01-24 12:43:18.30	313.56	36.66	-33.1	-34.7	24.1	0.00e+00	0	40	0	2583691264	37	4407
2026-01-24 12:43:19.30	313.81	36.47	-33.0	-34.6	24.1	0.00e+00	0	40	0	2589982720	37	4386
2026-01-24 12:43:20.29	314.05	36.28	-32.8	-34.4	24.3	0.00e+00	0	39	0	2595225600	37	4259
2026-01-24 12:43:21.29	314.29	36.09	-32.9	-34.5	24.2	0.00e+00	0	40	0	2600468480	37	4298
2026-01-24 12:43:22.28	314.53	35.90	-32.9	-34.5	24.2	0.00e+00	0	40	0	2606759936	37	4315
2026-01-24 12:43:23.27	314.77	35.71	-33.0	-34.6	24.1	0.00e+00	0	40	0	2612002816	37	4376
2026-01-24 12:43:24.27	315.00	35.53	-33.1	-34.7	24.0	0.00e+00	0	40	0	2617245696	37	4440
2026-01-24 12:43:25.26	315.23	35.34	-33.2	-34.8	23.9	0.00e+00	0	40	0	2623537152	37	4493
2026-01-24 12:43:26.26	315.46	35.15	-33.2	-34.8	23.9	0.00e+00	0	40	0	2628780032	37	4487
2026-01-24 12:43:27.25	315.68	34.97	-33.2	-34.8	23.9	0.00e+00	0	40	0	2634022912	37	4479
2026-01-24 12:43:28.25	315.91	34.78	-33.2	-34.8	23.9	0.00e+00	0	40	0	2640314368	37	4469
2026-01-24 12:43:29.24	316.13	34.60	-33.1	-34.7	24.0	0.00e+00	0	40	0	2645557248	37	4436
2026-01-24 12:43:30.24	316.34	34.41	-33.1	-34.7	24.0	0.00e+00	0	40	0	2650800128	37	4418
2026-01-24 12:43:31.23	316.56	34.23	-33.1	-34.7	24.0	0.00e+00	0	40	0	2657091584	37	4435
2026-01-24 12:43:32.23	316.77	34.05	-33.1	-34.7	24.0	0.00e+00	0	40	0	2662334464	37	4426
2026-01-24 12:43:33.23	316.99	33.87	-33.1	-34.8	24.0	0.00e+00	0	39	0	2667577344	37	4445
2026-01-24 12:43:34.22	317.19	33.69	-33.1	-34.8	24.0	0.00e+00	0	40	0	2673868800	37	4445
2026-01-24 12:43:35.22	317.40	33.50	-33.2	-34.8	23.9	0.00e+00	0	40	0	2679111680	37	4478
2026-01-24 12:43:36.21	317.60	33.33	-33.2	-34.8	23.7	0.00e+00	0	40	0	2684354560	37	4490
2026-01-24 12:43:37.21	317.81	33.15	-33.2	-34.8	23.9	0.00e+00	0	40	0	2690646016	37	4478
2026-01-24 12:43:38.20	318.01	32.97	-33.2	-34.8	23.9	0.00e+00	0	40	0	2695888896	37	4484
2026-01-24 12:43:39.19	318.20	32.79	-33.2	-34.8	23.9	0.00e+00	0	40	0	2702180352	37	4483
2026-01-24 12:43:40.19	318.40	32.61	-33.1	-34.8	23.9	0.00e+00	0	40	0	2707423232	37	4467
2026-01-24 12:43:41.18	318.59	32.44	-33.2	-34.8	23.9	0.00e+00	0	40	0	2712666112	37	4472
2026-01-24 12:43:42.18	318.78	32.26	-33.3	-34.9	23.8	0.00e+00	0	39	0	2717908992	37	4532
2026-01-24 12:43:43.17	318.97	32.09	-33.3	-34.9	23.8	0.00e+00	0	39	0	2724200448	37	4521
2026-01-24 12:43:44.17	319.16	31.91	-33.4	-35.0	23.7	0.00e+00	0	40	0	2729443328	37	4575
2026-01-24 12:43:45.16	319.34	31.74	-33.5	-35.1	23.6	0.00e+00	0	40	0	2734686208	37	4624
2026-01-24 12:43:46.16	319.53	31.57	-33.6	-35.3	23.5	0.00e+00	0	40	0	2740977664	37	4716
2026-01-24 12:43:47.15	319.71	31.39	-33.7	-35.4	23.4	0.00e+00	0	40	0	2746220544	38	4512
2026-01-24 12:43:48.15	319.89	31.22	-33.8	-35.5	23.4	0.00e+00	0	40	0	2752512000	38	4546
2026-01-24 12:43:49.14	320.07	31.05	-33.8	-35.5	23.3	0.00e+00	0	40	0	2757754880	38	4553
2026-01-24 12:43:50.13	320.24	30.88	-33.8	-35.4	23.4	0.00e+00	0	40	0	2762997760	38	4528
2026-01-24 12:43:51.13	320.42	30.71	-33.7	-35.4	23.4	0.00e+00	0	40	0	2768240640	38	4517
2026-01-24 12:43:52.12	320.59	30.54	-33.8	-35.4	23.4	0.00e+00	0	40	0	2774532096	38	4540
2026-01-24 12:43:53.12	320.76	30.38	-33.7	-35.3	23.4	0.00e+00	0	40	0	2779774976	38	4491
2026-01-24 12:43:54.11	320.93	30.21	-33.6	-35.2	23.5	0.00e+00	0	40	0	2785017856	38	4440
2026-01-24 12:43:55.11	321.10	30.04	-33.6	-35.2	23.5	0.00e+00	0	40	0	2791309312	38	4420
2026-01-24 12:43:56.10	321.26	29.88	-33.5	-35.1	23.6	0.00e+00	0	40	0	2796552192	38	4385
2026-01-24 12:43:57.10	321.43	29.71	-33.5	-35.1	23.6	0.00e+00	0	40	0	2802843648	38	4368
2026-01-24 12:43:58.09	321.59	29.55	-33.5	-35.1	23.7	0.00e+00	0	40	0	2808086528	38	4369
2026-01-24 12:43:59.09	321.75	29.38	-33.5	-35.1	23.6	0.00e+00	0	40	0	2813329408	38	4377
2026-01-24 12:44:00.08	321.91	29.22	-33.4	-35.1	23.6	0.00e+00	0	40	0	2818572288	38	4359
2026-01-24 12:44:01.08	322.07	29.06	-33.5	-35.2	23.6	0.00e+00	0	39	0	2824863744	38	4396
2026-01-24 12:44:02.07	322.22	28.90	-33.6	-35.3	23.5	0.00e+00	0	40	0	2830106624	38	4467
2026-01-24 12:44:03.07	322.38	28.74	-33.5	-35.2	23.5	0.00e+00	0	40	0	2835349504	38	4415
2026-01-24 12:44:04.06	322.53	28.58	-33.7	-35.4	23.4	0.00e+00	0	40	0	2841640960	38	4505
2026-01-24 12:44:05.05	322.68	28.42	-33.6	-35.3	23.5	0.00e+00	0	40	0	2846883840	38	4463
2026-01-24 12:44:06.05	322.83	28.26	-33.6	-35.2	23.5	0.00e+00	0	40	0	2853175296	38	4436
2026-01-24 12:44:07.04	322.98	28.10	-33.6	-35.2	23.5	0.00e+00	0	40	0	2858418176	38	4431
2026-01-24 12:44:08.04	323.13	27.94	-33.6	-35.2	23.5	0.00e+00	0	40	0	2863661056	38	4434
2026-01-24 12:44:09.03	323.27	27.79	-33.5	-35.2	23.6	0.00e+00	0	40	0	2868903936	38	4422
2026-01-24 12:44:10.03	323.42	27.63	-33.5	-35.2	23.5	0.00e+00	0	40	0	2875195392	38	4419
2026-01-24 12:44:11.02	323.56	27.48	-33.5	-35.2	23.5	0.00e+00	0	40	0	2880438272	38	4411
2026-01-24 12:44:12.02	323.70	27.32	-33.5	-35.2	23.5	0.00e+00	0	40	0	2885681152	38	4426
2026-01-24 12:44:13.01	323.84	27.17	-33.6	-35.3	23.5	0.00e+00	0	40	0	2891972608	38	4471
2026-01-24 12:44:14.01	323.98	27.02	-33.4	-35.1	23.7	0.00e+00	0	40	0	2897215488	38	4353
2026-01-24 12:44:15.00	324.12	26.86	-33.5	-35.1	23.6	0.00e+00	0	40	0	2903506944	38	4384
2026-01-24 12:44:16.00	324.26	26.71	-33.5	-35.1	23.6	0.00e+00	0	40	0	2908749824	38	4371
2026-01-24 12:44:16.99	324.39	26.56	-33.5	-35.1	23.6	0.00e+00	0	40	0	2913992704	38	4382
2026-01-24 12:44:17.99	324.53	26.41	-33.5	-35.2	23.6	0.00e+00	0	40	0	2919235584	38	4394
2026-01-24 12:44:18.98	324.66	26.26	-33.6	-35.3	23.4	0.00e+00	0	40	0	2925527040	38	4461
2026-01-24 12:44:19.98	324.79	26.11	-33.5	-35.2	23.5	0.00e+00	0	40	0	2930769920	38	4427
2026-01-24 12:44:20.97	324.92	25.97	-33.6	-35.3	23.4	0.00e+00	0	40	0	2936012800	38	4457
2026-01-24 12:44:21.97	325.05	25.82	-33.5	-35.2	23.5	0.00e+00	0	40	0	2942304256	38	4416
2026-01-24 12:44:22.97	325.18	25.67	-33.6	-35.3	23.4	0.00e+00	0	40	0	2947547136	38	4475
2026-01-24 12:44:23.96	325.31	25.52	-33.6	-35.2	23.5	0.00e+00	0	40	0	2953838592	38	4435
2026-01-24 12:44:24.96	325.43	25.38	-33.5	-35.2	23.5	0.00e+00	0	40	0	2959081472	38	4394
2026-01-24 12:44:25.95	325.56	25.23	-33.5	-35.2	23.5	0.00e+00	0	40	0	2964324352	38	4402
2026-01-24 12:44:26.95	325.68	25.09	-33.6	-35.2	23.5	0.00e+00	0	40	0	2970615808	38	4408
2026-01-24 12:44:27.94	325.81	24.95	-33.6	-35.2	23.5	0.00e+00	0	40	0	2975858688	38	4438
2026-01-24 12:44:28.94	325.93	24.80	-33.7	-35.3	23.4	0.00e+00	0	40	0	2981101568	38	4459
2026-01-24 12:44:29.93	326.05	24.66	-33.8	-35.5	23.2	0.00e+00	0	40	0	2987393024	38	4575
2026-01-24 12:44:30.93	326.17	24.52	-33.9	-35.6	23.2	0.00e+00	0	40	0	2992635904	38	4616
2026-01-24 12:44:31.92	326.29	24.38	-34.0	-35.6	23.1	0.00e+00	0	40	0	2997878784	38	4651
2026-01-24 12:44:32.92	326.40	24.24	-34.1	-35.7	23.0	0.00e+00	0	40	0	3004170240	38	4704
2026-01-24 12:44:33.91	326.52	24.10	-34.1	-35.8	22.9	0.00e+00	0	40	0	3009413120	38	4754
2026-01-24 12:44:34.91	326.64	23.96	-34.2	-36.0	22.8	0.00e+00	0	40	0	3014656000	39	4551
2026-01-24 12:44:35.90	326.75	23.82	-34.2	-35.9	22.9	0.00e+00	0	40	0	3020947456	39	4529
2026-01-24 12:44:36.90	326.86	23.68	-34.3	-36.0	22.8	0.00e+00	0	40	0	3026190336	39	4576
2026-01-24 12:44:37.89	326.98	23.55	-34.3	-36.0	22.8	0.00e+00	0	40	0	3031433216	39	4582
2026-01-24 12:44:38.88	327.09	23.41	-34.2	-36.0	22.8	0.00e+00	0	40	0	3037724672	39	4568
2026-01-24 12:44:39.88	327.20	23.27	-34.3	-36.0	22.8	0.00e+00	0	40	0	3042967552	39	4570
2026-01-24 12:44:40.87	327.31	23.14	-34.2	-36.0	22.8	0.00e+00	0	40	0	3048210432	39	4554
2026-01-24 12:44:41.87	327.42	23.00	-34.3	-36.0	22.8	0.00e+00	0	40	0	3054501888	39	4568
2026-01-24 12:44:42.86	327.52	22.87	-34.2	-35.9	22.9	0.00e+00	0	40	0	3059744768	39	4504
2026-01-24 12:44:43.86	327.63	22.74	-34.2	-35.9	22.8	0.00e+00	0	40	0	3064987648	39	4531
2026-01-24 12:44:44.85	327.74	22.60	-34.3	-35.9	22.8	0.00e+00	0	40	0	3071279104	39	4535
2026-01-24 12:44:45.85	327.84	22.47	-34.2	-35.9	22.9	0.00e+00	0	40	0	3076521984	39	4504
2026-01-24 12:44:46.84	327.95	22.34	-34.1	-35.8	22.9	0.00e+00	0	40	0	3081764864	39	4470
2026-01-24 12:44:47.83	328.05	22.21	-34.2	-35.9	22.9	0.00e+00	0	40	0	3088056320	39	4511
2026-01-24 12:44:48.83	328.15	22.08	-34.3	-36.0	22.8	0.00e+00	0	40	0	3093299200	39	4559
2026-01-24 12:44:49.82	328.25	21.95	-34.4	-36.1	22.7	0.00e+00	0	40	0	3098542080	39	4612
2026-01-24 12:44:50.82	328.36	21.82	-34.4	-36.1	22.7	0.00e+00	0	40	0	3104833536	39	4630
2026-01-24 12:44:51.81	328.46	21.69	-34.6	-36.3	22.5	0.00e+00	0	40	0	3110076416	39	4720
2026-01-24 12:44:52.81	328.56	21.56	-34.5	-36.2	22.5	0.00e+00	0	40	0	3115319296	39	4681
2026-01-24 12:44:53.80	328.65	21.43	-34.5	-36.3	22.5	0.00e+00	0	40	0	3121610752	39	4707
2026-01-24 12:44:54.80	328.75	21.31	-34.6	-36.3	22.5	0.00e+00	0	40	0	3126853632	39	4735
2026-01-24 12:44:55.79	328.85	21.18	-34.6	-36.3	22.4	0.00e+00	0	40	0	3132096512	39	4759
2026-01-24 12:44:56.79	328.95	21.05	-34.7	-36.4	22.3	0.00e+00	0	40	0	3138387968	40	4521
2026-01-24 12:44:57.78	329.04	20.93	-34.6	-36.3	22.4	0.00e+00	0	40	0	3143630848	40	4468
2026-01-24 12:44:58.78	329.14	20.80	-34.7	-36.4	22.3	0.00e+00	0	40	0	3148873728	40	4508
2026-01-24 12:44:59.77	329.23	20.68	-34.6	-36.3	22.4	0.00e+00	0	40	0	3155165184	40	4456
2026-01-24 12:45:00.76	329.32	20.56	-34.6	-36.3	22.4	0.00e+00	0	40	0	3160408064	40	4487
2026-01-24 12:45:01.76	329.42	20.43	-34.6	-36.3	22.4	0.00e+00	0	40	0	3165650944	40	4456
2026-01-24 12:45:02.75	329.51	20.31	-34.6	-36.3	22.4	0.00e+00	0	40	0	3171942400	40	4477
2026-01-24 12:45:03.75	329.60	20.19	-34.7	-36.4	22.3	0.00e+00	0	40	0	3177185280	40	4540
2026-01-24 12:45:04.74	329.69	20.07	-34.7	-36.4	22.3	0.00e+00	0	40	0	3182428160	40	4507
2026-01-24 12:45:05.74	329.78	19.95	-34.7	-36.4	22.3	0.00e+00	0	40	0	3188719616	40	4535
2026-01-24 12:45:06.73	329.87	19.83	-34.6	-36.3	22.4	0.00e+00	0	40	0	3193962496	40	4470
2026-01-24 12:45:07.72	329.96	19.71	-34.6	-36.3	22.4	0.00e+00	0	40	0	3199205376	40	4470
2026-01-24 12:45:08.72	330.05	19.59	-34.7	-36.4	22.3	0.00e+00	0	40	0	3205496832	40	4515
2026-01-24 12:45:09.71	330.13	19.47	-34.7	-36.4	22.3	0.00e+00	0	40	0	3210739712	40	4512
2026-01-24 12:45:10.70	330.22	19.35	-34.7	-36.4	22.2	0.00e+00	0	40	0	3215982592	40	4543
2026-01-24 12:45:11.70	330.31	19.23	-34.8	-36.5	22.2	0.00e+00	0	40	0	3222274048	40	4574
2026-01-24 12:45:12.70	330.39	19.11	-34.8	-36.5	22.2	0.00e+00	0	40	0	3227516928	40	4571
2026-01-24 12:45:13.69	330.48	19.00	-34.9	-36.6	22.1	0.00e+00	0	40	0	3232759808	40	4627
2026-01-24 12:45:14.69	330.56	18.88	-34.9	-36.7	22.1	0.00e+00	0	40	0	3239051264	40	4652
2026-01-24 12:45:15.68	330.65	18.76	-35.0	-36.7	22.0	0.00e+00	0	40	0	3244294144	40	4662
2026-01-24 12:45:16.67	330.73	18.65	-35.0	-36.7	22.0	0.00e+00	0	40	0	3249537024	40	4690
2026-01-24 12:45:17.67	330.81	18.53	-35.1	-36.8	21.9	0.00e+00	0	40	0	3255828480	40	4752
2026-01-24 12:45:18.66	330.89	18.42	-35.2	-36.9	21.8	0.00e+00	0	40	0	3261071360	41	4534
2026-01-24 12:45:19.66	330.97	18.30	-35.1	-36.9	21.8	0.00e+00	0	40	0	3266314240	41	4502
2026-01-24 12:45:20.65	331.06	18.19	-35.2	-36.9	21.8	0.00e+00	0	40	0	3272605696	41	4535
2026-01-24 12:45:21.65	331.14	18.08	-35.2	-36.9	21.8	0.00e+00	0	40	0	3277848576	41	4517
2026-01-24 12:45:22.64	331.21	17.97	-35.2	-36.9	21.7	0.00e+00	0	40	0	3283091456	41	4541
2026-01-24 12:45:23.64	331.29	17.85	-35.3	-37.1	21.6	0.00e+00	0	40	0	3289382912	41	4615
2026-01-24 12:45:24.63	331.37	17.74	-35.3	-37.0	21.7	0.00e+00	0	40	0	3294625792	41	4568
2026-01-24 12:45:25.63	331.45	17.63	-35.3	-37.1	21.6	0.00e+00	0	40	0	3299868672	41	4626
2026-01-24 12:45:26.62	331.53	17.52	-35.3	-37.1	21.6	0.00e+00	0	40	0	3306160128	41	4621
2026-01-24 12:45:27.62	331.60	17.41	-35.2	-37.0	21.7	0.00e+00	0	40	0	3311403008	41	4552
2026-01-24 12:45:28.61	331.68	17.30	-35.3	-37.0	21.6	0.00e+00	0	40	0	3316645888	41	4593
2026-01-24 12:45:29.61	331.76	17.19	-35.3	-37.1	21.6	0.00e+00	0	40	0	3322937344	41	4619
2026-01-24 12:45:30.60	331.83	17.08	-35.4	-37.2	21.6	0.00e+00	0	40	0	3328180224	41	4661
2026-01-24 12:45:31.60	331.91	16.97	-35.4	-37.2	21.5	0.00e+00	0	40	0	3333423104	41	4670
2026-01-24 12:45:32.59	331.98	16.86	-35.4	-37.2	21.5	0.00e+00	0	40	0	3339714560	41	4683
2026-01-24 12:45:33.59	332.06	16.76	-35.5	-37.3	21.4	0.00e+00	0	40	0	3344957440	41	4720
2026-01-24 12:45:34.58	332.13	16.65	-35.5	-37.3	21.4	0.00e+00	0	40	0	3350200320	41	4731
2026-01-24 12:45:35.58	332.20	16.54	-35.6	-37.4	21.4	0.00e+00	0	40	0	3356491776	41	4760
2026-01-24 12:45:36.57	332.27	16.44	-35.6	-37.4	21.3	0.00e+00	0	40	0	3361734656	41	4776
2026-01-24 12:45:37.56	332.34	16.33	-35.7	-37.5	21.2	0.00e+00	0	40	0	3366977536	42	4568
2026-01-24 12:45:38.56	332.42	16.22	-35.8	-37.6	21.2	0.00e+00	0	40	0	3373268992	42	4606
2026-01-24 12:45:39.56	332.49	16.12	-35.8	-37.6	21.1	0.00e+00	0	40	0	3378511872	42	4640
2026-01-24 12:45:40.55	332.56	16.01	-35.8	-37.6	21.1	0.00e+00	0	40	0	3383754752	42	4642
2026-01-24 12:45:41.55	332.63	15.91	-35.9	-37.7	21.1	0.00e+00	0	40	0	3390046208	42	4666
2026-01-24 12:45:42.54	332.70	15.81	-35.9	-37.7	21.0	0.00e+00	0	40	0	3395289088	42	4678
2026-01-24 12:45:43.54	332.77	15.70	-36.0	-37.8	21.0	0.00e+00	0	40	0	3400531968	42	4708
2026-01-24 12:45:44.53	332.83	15.60	-36.0	-37.8	20.9	0.00e+00	0	40	0	3406823424	42	4736
2026-01-24 12:45:45.53	332.90	15.50	-36.0	-37.8	20.9	0.00e+00	0	40	0	3412066304	42	4722
2026-01-24 12:45:46.52	332.97	15.39	-36.1	-37.9	20.9	0.00e+00	0	40	0	3417309184	42	4774
2026-01-24 12:45:47.52	333.04	15.29	-36.1	-37.9	20.8	0.00e+00	0	40	0	3423600640	42	4806
2026-01-24 12:45:48.51	333.10	15.19	-36.1	-37.9	20.8	0.00e+00	0	40	0	3428843520	43	4516
2026-01-24 12:45:49.51	333.17	15.09	-36.1	-37.9	20.8	0.00e+00	0	40	0	3435134976	43	4539
2026-01-24 12:45:50.50	333.24	14.99	-36.1	-37.9	20.8	0.00e+00	0	40	0	3440377856	43	4529
2026-01-24 12:45:51.50	333.30	14.89	-36.2	-38.0	20.7	0.00e+00	0	40	0	3445620736	43	4577
2026-01-24 12:45:52.49	333.37	14.79	-36.2	-38.0	20.7	0.00e+00	0	40	0	3451912192	43	4574
2026-01-24 12:45:53.49	333.43	14.69	-36.2	-38.0	20.7	0.00e+00	0	40	0	3457155072	43	4591
2026-01-24 12:45:54.48	333.50	14.59	-36.3	-38.1	20.7	0.00e+00	0	40	0	3462397952	43	4619
2026-01-24 12:45:55.48	333.56	14.49	-36.3	-38.1	20.6	0.00e+00	0	40	0	3467640832	43	4635
2026-01-24 12:45:56.47	333.62	14.39	-36.3	-38.1	20.6	0.00e+00	0	40	0	3473932288	43	4610
2026-01-24 12:45:57.46	333.69	14.30	-36.4	-38.2	20.5	0.00e+00	0	40	0	3479175168	43	4667
2026-01-24 12:45:58.46	333.75	14.20	-36.3	-38.1	20.6	0.00e+00	0	40	0	3485466624	43	4633
2026-01-24 12:45:59.45	333.81	14.10	-36.3	-38.1	20.5	0.00e+00	0	40	0	3490709504	43	4650
2026-01-24 12:46:00.45	333.88	14.00	-36.3	-38.2	20.5	0.00e+00	0	40	0	3495952384	43	4660
2026-01-24 12:46:01.45	333.94	13.91	-36.5	-38.3	20.4	0.00e+00	0	40	0	3502243840	43	4730
2026-01-24 12:46:02.44	334.00	13.81	-36.5	-38.3	20.4	0.00e+00	0	40	0	3507486720	43	4751
2026-01-24 12:46:03.44	334.06	13.71	-36.5	-38.3	20.4	0.00e+00	0	40	0	3512729600	43	4754
2026-01-24 12:46:04.43	334.12	13.62	-36.5	-38.3	20.4	0.00e+00	0	40	0	3517972480	43	4736
2026-01-24 12:46:05.43	334.18	13.52	-36.5	-38.3	20.4	0.00e+00	0	40	0	3524263936	43	4745
2026-01-24 12:46:06.42	334.24	13.43	-36.6	-38.5	20.2	0.00e+00	0	40	0	3529506816	43	4832
2026-01-24 12:46:07.42	334.30	13.33	-36.5	-38.4	20.3	0.00e+00	0	40	0	3535798272	43	4787
2026-01-24 12:46:08.41	334.36	13.24	-36.5	-38.3	20.3	0.00e+00	0	40	0	3541041152	43	4757
2026-01-24 12:46:09.41	334.42	13.15	-36.6	-38.5	20.3	0.00e+00	0	40	0	3546284032	43	4818
2026-01-24 12:46:10.40	334.48	13.05	-36.5	-38.4	20.3	0.00e+00	0	40	0	3552575488	43	4779
2026-01-24 12:46:11.40	334.53	12.96	-36.5	-38.4	20.3	0.00e+00	0	40	0	3557818368	43	4777
2026-01-24 12:46:12.39	334.59	12.87	-36.6	-38.4	20.2	0.00e+00	0	40	0	3563061248	43	4805
2026-01-24 12:46:13.39	334.65	12.77	-36.5	-38.4	20.3	0.00e+00	0	40	0	3568304128	43	4763
2026-01-24 12:46:14.38	334.71	12.68	-36.6	-38.5	20.2	0.00e+00	0	40	0	3574595584	43	4820
2026-01-24 12:46:15.38	334.76	12.59	-36.6	-38.5	20.2	0.00e+00	0	40	0	3579838464	43	4821
2026-01-24 12:46:16.37	334.82	12.50	-36.6	-38.5	20.2	0.00e+00	0	40	0	3586129920	43	4827
2026-01-24 12:46:17.36	334.88	12.41	-36.9	-38.7	20.1	0.00e+00	0	40	0	3591372800	44	4678
2026-01-24 12:46:18.36	334.93	12.32	-36.8	-38.6	20.2	0.00e+00	0	40	0	3596615680	44	4649
2026-01-24 12:46:19.35	334.99	12.23	-36.9	-38.7	20.1	0.00e+00	0	40	0	3602907136	44	4669
2026-01-24 12:46:20.35	335.04	12.14	-36.9	-38.7	20.1	0.00e+00	0	40	0	3608150016	44	4675
2026-01-24 12:46:21.35	335.10	12.05	-36.9	-38.8	20.0	0.00e+00	0	40	0	3613392896	44	4721
2026-01-24 12:46:22.34	335.15	11.96	-36.9	-38.7	20.1	0.00e+00	0	40	0	3619684352	44	4681
2026-01-24 12:46:23.34	335.21	11.87	-36.9	-38.7	20.1	0.00e+00	0	40	0	3624927232	44	4699
2026-01-24 12:46:24.33	335.26	11.78	-36.9	-38.8	20.1	0.00e+00	0	40	0	3630170112	44	4712
2026-01-24 12:46:25.33	335.31	11.69	-36.8	-38.7	20.1	0.00e+00	0	40	0	3636461568	44	4659
