passes_logs/2026/01/24/T1/T1__20260124_160024_FENGYUN_3E_rec.log

#Pass ID: 20260124_160024_FENGYUN 3E
#Satellite: FENGYUN 3E
#Configuration: FENGYUN 3E
#almurnet v.1.7.20251203
#Start time: 2026-01-24 16:00:26

#Version: 2.0.20230620
#Station: T1
#Location: 37.570604 lon 55.790049 lat
#TLE: 1 49008U 21062A   26024.23699167 -.00000179  00000+0 -63840-4 0  9992
#TLE: 2 49008  98.7493  29.2570 0002404 119.1229 241.0188 14.19886095236155

#Time	Az	El	Level	Level2	SNR	BER	BlckErr	Temp	State	Recorded	gain1	gain2
2026-01-24 16:00:26.29	220.54	5.08	-48.7	-59.4	3.8	8.47e-01	0	35	0	0	68	11886
2026-01-24 16:00:27.28	220.64	5.13	-48.6	-59.4	3.8	8.47e-01	0	35	104	0	68	11932
2026-01-24 16:00:28.27	220.74	5.19	-48.6	-59.5	3.8	8.47e-01	0	35	104	0	68	11992
2026-01-24 16:00:29.27	220.84	5.24	-48.6	-59.4	3.8	8.47e-01	0	35	104	0	68	11873
2026-01-24 16:00:30.26	220.94	5.29	-48.6	-59.4	3.8	8.48e-01	0	35	104	0	68	11859
2026-01-24 16:00:31.25	221.05	5.35	-48.6	-59.4	3.8	8.46e-01	0	35	104	0	68	11824
2026-01-24 16:00:32.25	221.15	5.40	-48.6	-59.4	3.8	8.48e-01	0	35	104	0	68	11869
2026-01-24 16:00:33.24	221.25	5.46	-48.6	-59.4	3.8	8.47e-01	0	35	104	0	68	11920
2026-01-24 16:00:34.23	221.35	5.51	-48.6	-59.4	3.8	8.46e-01	0	35	104	0	68	11838
2026-01-24 16:00:35.23	221.45	5.57	-48.6	-59.4	3.8	8.47e-01	0	35	104	0	68	11910
2026-01-24 16:00:36.22	221.56	5.62	-48.6	-59.4	3.8	8.48e-01	0	35	104	0	68	11841
2026-01-24 16:00:37.21	221.66	5.67	-48.6	-59.4	3.8	8.46e-01	0	35	104	0	68	11868
2026-01-24 16:00:38.21	221.76	5.73	-48.6	-59.4	3.8	8.47e-01	0	35	104	0	68	11871
2026-01-24 16:00:39.20	221.87	5.78	-48.6	-59.4	3.8	8.46e-01	0	35	104	0	68	11877
2026-01-24 16:00:40.19	221.97	5.84	-48.6	-59.4	3.8	8.47e-01	0	36	104	0	68	11848
2026-01-24 16:00:41.18	222.08	5.89	-48.6	-59.4	3.8	8.48e-01	0	36	104	0	68	11870
2026-01-24 16:00:42.18	222.18	5.95	-48.6	-59.4	3.8	8.47e-01	0	35	104	0	68	11890
2026-01-24 16:00:43.17	222.29	6.00	-48.6	-59.4	3.8	8.47e-01	0	36	104	0	68	11874
2026-01-24 16:00:44.16	222.39	6.06	-48.6	-59.4	3.8	8.48e-01	0	36	104	0	68	11843
2026-01-24 16:00:45.16	222.50	6.11	-48.6	-59.4	3.8	8.47e-01	0	36	104	0	68	11930
2026-01-24 16:00:46.15	222.61	6.16	-48.6	-59.3	3.8	8.48e-01	0	36	104	0	68	11800
2026-01-24 16:00:47.14	222.71	6.22	-48.6	-59.4	3.8	8.47e-01	0	36	104	0	68	11921
2026-01-24 16:00:48.14	222.82	6.27	-48.6	-59.4	3.8	8.47e-01	0	36	104	0	68	11888
2026-01-24 16:00:49.13	222.93	6.33	-48.6	-59.4	3.8	8.46e-01	0	36	104	0	68	11858
2026-01-24 16:00:50.12	223.04	6.38	-48.6	-59.3	3.8	8.47e-01	0	36	104	0	68	11792
2026-01-24 16:00:51.11	223.14	6.44	-48.6	-59.2	3.8	8.47e-01	0	36	104	0	68	11656
2026-01-24 16:00:52.11	223.25	6.49	-48.6	-59.3	3.8	8.47e-01	0	36	104	0	68	11731
2026-01-24 16:00:53.10	223.36	6.55	-48.6	-59.3	3.8	8.47e-01	0	36	104	0	68	11735
2026-01-24 16:00:54.09	223.47	6.60	-48.6	-59.2	3.8	8.47e-01	0	36	104	0	68	11616
2026-01-24 16:00:55.09	223.58	6.66	-48.6	-59.1	3.8	8.47e-01	0	36	104	0	68	11493
2026-01-24 16:00:56.08	223.69	6.71	-48.4	-58.9	3.8	8.47e-01	0	36	104	0	67	11836
2026-01-24 16:00:57.07	223.80	6.77	-48.4	-58.8	3.8	8.47e-01	0	36	104	0	67	11758
2026-01-24 16:00:58.07	223.92	6.82	-48.4	-58.8	3.8	8.47e-01	0	36	104	0	67	11750
2026-01-24 16:00:59.06	224.03	6.88	-48.4	-58.9	3.8	8.46e-01	0	36	104	0	67	11901
2026-01-24 16:01:00.05	224.14	6.93	-48.4	-59.0	3.8	8.47e-01	0	36	104	0	67	12089
2026-01-24 16:01:01.05	224.25	6.99	-48.4	-59.1	3.8	8.47e-01	0	36	104	0	67	12168
2026-01-24 16:01:02.04	224.37	7.04	-48.4	-59.2	3.8	8.46e-01	0	36	104	0	67	12284
2026-01-24 16:01:03.03	224.48	7.10	-48.4	-59.2	3.8	8.46e-01	0	36	104	0	67	12285
2026-01-24 16:01:04.03	224.59	7.16	-48.4	-59.1	3.8	8.46e-01	0	36	104	0	67	12134
2026-01-24 16:01:05.02	224.71	7.21	-48.4	-59.0	3.8	8.47e-01	0	36	104	0	67	11990
2026-01-24 16:01:06.01	224.82	7.27	-48.4	-58.9	3.8	8.48e-01	0	36	104	0	67	11931
2026-01-24 16:01:07.00	224.94	7.32	-48.4	-58.8	3.8	8.47e-01	0	37	104	0	67	11720
2026-01-24 16:01:08.00	225.05	7.38	-48.4	-58.9	3.8	8.47e-01	0	37	104	0	67	11826
2026-01-24 16:01:08.99	225.17	7.43	-48.4	-58.9	3.8	8.47e-01	0	36	104	0	67	11884
2026-01-24 16:01:09.98	225.28	7.49	-48.4	-58.8	3.8	8.47e-01	0	37	104	0	67	11699
2026-01-24 16:01:10.98	225.40	7.54	-48.4	-58.7	3.8	8.47e-01	0	37	104	0	67	11590
2026-01-24 16:01:11.97	225.52	7.60	-48.4	-58.6	3.8	8.46e-01	0	37	104	0	67	11544
2026-01-24 16:01:12.96	225.64	7.65	-48.4	-58.6	3.8	8.46e-01	0	36	104	0	67	11499
2026-01-24 16:01:13.96	225.75	7.71	-48.4	-58.6	3.8	8.47e-01	0	37	104	0	67	11483
2026-01-24 16:01:14.95	225.87	7.76	-48.4	-58.8	3.8	8.46e-01	0	37	104	0	67	11733
2026-01-24 16:01:15.94	225.99	7.82	-48.4	-59.0	3.8	8.47e-01	0	37	104	0	67	12068
2026-01-24 16:01:16.93	226.11	7.87	-48.4	-59.0	3.8	8.46e-01	0	37	104	0	67	12038
2026-01-24 16:01:17.93	226.23	7.93	-48.3	-58.3	3.8	8.46e-01	0	37	104	0	67	11035
2026-01-24 16:01:18.92	226.35	7.99	-48.1	-56.9	3.8	8.46e-01	0	37	104	0	67	9482
2026-01-24 16:01:19.92	226.47	8.04	-47.9	-55.7	4.2	8.41e-01	0	37	0	0	66	8754
2026-01-24 16:01:20.91	226.59	8.10	-47.9	-55.5	4.2	8.34e-01	0	37	0	0	66	8557
2026-01-24 16:01:21.90	226.71	8.15	-48.1	-56.8	3.8	8.44e-01	0	37	104	0	66	9892
2026-01-24 16:01:22.90	226.84	8.21	-48.4	-58.9	3.8	8.46e-01	0	37	104	0	66	12645
2026-01-24 16:01:23.89	226.96	8.26	-48.2	-57.6	3.8	8.47e-01	0	37	104	0	66	10806
2026-01-24 16:01:24.88	227.08	8.32	-46.9	-51.8	6.3	7.14e-01	0	37	0	0	64	6226
2026-01-24 16:01:25.87	227.21	8.37	-44.8	-47.5	10.6	6.32e-03	0	37	0	7340032	60	4786
2026-01-24 16:01:26.87	227.33	8.43	-42.4	-44.1	13.9	2.17e-05	0	37	0	14680064	55	4337
2026-01-24 16:01:27.86	227.45	8.49	-40.5	-41.9	16.2	0.00e+00	0	37	0	22020096	51	4218
2026-01-24 16:01:28.85	227.58	8.54	-39.2	-40.3	17.8	0.00e+00	0	37	0	29360128	49	3945
2026-01-24 16:01:29.85	227.70	8.60	-38.1	-39.1	18.7	0.00e+00	0	37	0	36700160	47	3867
2026-01-24 16:01:30.84	227.83	8.65	-37.9	-39.0	18.9	0.00e+00	0	37	0	42991616	46	4017
2026-01-24 16:01:31.83	227.96	8.71	-37.9	-38.9	18.9	0.00e+00	0	37	0	50331648	46	3994
2026-01-24 16:01:32.83	228.08	8.76	-38.4	-39.5	18.4	0.00e+00	0	37	0	57671680	46	4257
2026-01-24 16:01:33.82	228.21	8.82	-39.5	-40.7	17.5	0.00e+00	0	37	0	65011712	48	4368
2026-01-24 16:01:34.81	228.34	8.88	-40.7	-42.0	16.1	0.00e+00	0	37	0	72351744	50	4538
2026-01-24 16:01:35.81	228.47	8.93	-42.1	-43.8	14.2	1.10e-06	0	37	0	79691776	53	4698
2026-01-24 16:01:36.80	228.59	8.99	-43.8	-46.0	12.0	1.51e-04	0	37	0	87031808	57	4812
2026-01-24 16:01:37.79	228.72	9.04	-45.3	-48.2	9.8	5.15e-03	0	37	0	93323264	59	5514
2026-01-24 16:01:38.79	228.85	9.10	-45.8	-49.3	8.8	2.48e-02	0	37	0	100663296	61	5572
2026-01-24 16:01:39.78	228.98	9.15	-41.9	-43.6	14.5	1.35e-04	0	37	0	108003328	54	4292
2026-01-24 16:01:40.77	229.11	9.21	-46.7	-51.2	7.0	7.50e-03	0	37	0	115343360	62	6499
2026-01-24 16:01:41.77	229.25	9.27	-46.3	-50.4	7.7	9.13e-02	0	37	0	122683392	63	5615
2026-01-24 16:01:42.77	229.38	9.32	-41.4	-42.9	15.2	5.70e-06	0	37	0	130023424	53	4241
2026-01-24 16:01:43.76	229.51	9.38	-41.0	-42.5	15.6	1.10e-06	0	37	0	137363456	52	4267
2026-01-24 16:01:44.75	229.64	9.43	-40.9	-42.4	15.7	0.00e+00	0	37	0	143654912	52	4207
2026-01-24 16:01:45.75	229.78	9.49	-40.4	-41.7	16.5	0.00e+00	0	37	0	150994944	51	4122
2026-01-24 16:01:46.74	229.91	9.54	-40.5	-41.8	16.4	0.00e+00	0	37	0	158334976	51	4179
2026-01-24 16:01:47.74	230.04	9.60	-40.6	-42.0	16.3	0.00e+00	0	37	0	165675008	51	4247
2026-01-24 16:01:48.73	230.18	9.66	-40.4	-41.8	16.5	0.00e+00	0	37	0	173015040	51	4150
2026-01-24 16:01:49.72	230.31	9.71	-39.6	-40.8	17.4	0.00e+00	0	37	0	180355072	50	3935
2026-01-24 16:01:50.72	230.45	9.77	-38.6	-39.7	18.5	0.00e+00	0	37	0	186646528	48	3889
2026-01-24 16:01:51.71	230.58	9.82	-38.7	-39.8	18.2	0.00e+00	0	37	0	193986560	47	4161
2026-01-24 16:01:52.71	230.72	9.88	-38.6	-39.7	18.2	0.00e+00	0	37	0	201326592	47	4145
2026-01-24 16:01:53.71	230.86	9.93	-38.3	-39.4	18.6	0.00e+00	0	37	0	208666624	47	3989
2026-01-24 16:01:54.70	231.00	9.99	-38.2	-39.3	18.7	0.00e+00	0	37	0	216006656	46	4158
2026-01-24 16:01:55.69	231.13	10.04	-37.9	-39.0	19.0	0.00e+00	0	37	0	222298112	46	4023
2026-01-24 16:01:56.69	231.27	10.10	-37.7	-38.8	19.2	0.00e+00	0	37	0	229638144	46	3922
2026-01-24 16:01:57.68	231.41	10.16	-37.7	-38.8	19.2	0.00e+00	0	37	0	236978176	46	3915
2026-01-24 16:01:58.68	231.55	10.21	-37.8	-38.9	19.1	0.00e+00	0	37	0	244318208	46	3983
2026-01-24 16:01:59.67	231.69	10.27	-37.8	-38.9	19.1	0.00e+00	0	37	0	251658240	46	3989
2026-01-24 16:02:00.67	231.83	10.32	-37.4	-38.4	19.6	0.00e+00	0	37	0	258998272	45	3973
2026-01-24 16:02:01.66	231.97	10.38	-37.2	-38.2	19.8	0.00e+00	0	37	0	266338304	45	3905
2026-01-24 16:02:02.66	232.12	10.43	-37.4	-38.4	19.6	0.00e+00	0	37	0	273678336	45	3972
2026-01-24 16:02:03.65	232.26	10.49	-37.1	-38.1	19.8	0.00e+00	0	37	0	281018368	45	3860
2026-01-24 16:02:04.65	232.40	10.54	-37.0	-38.0	20.0	0.00e+00	0	37	0	287309824	44	4028
2026-01-24 16:02:05.64	232.54	10.60	-37.1	-38.1	19.9	0.00e+00	0	37	0	294649856	44	4052
2026-01-24 16:02:06.63	232.69	10.65	-37.0	-38.0	20.0	0.00e+00	0	37	0	301989888	44	4038
2026-01-24 16:02:07.63	232.83	10.71	-37.0	-38.0	20.0	0.00e+00	0	37	0	309329920	44	4006
2026-01-24 16:02:08.63	232.98	10.76	-37.0	-38.0	20.0	0.00e+00	0	37	0	316669952	44	4017
2026-01-24 16:02:09.62	233.12	10.82	-37.0	-38.0	19.9	0.00e+00	0	37	0	324009984	44	4047
2026-01-24 16:02:10.62	233.27	10.88	-37.1	-38.1	19.9	0.00e+00	0	37	0	330301440	44	4067
2026-01-24 16:02:11.62	233.42	10.93	-37.0	-38.0	20.0	0.00e+00	0	37	0	337641472	44	4010
2026-01-24 16:02:12.61	233.56	10.99	-36.9	-37.9	20.1	0.00e+00	0	37	0	344981504	44	3989
2026-01-24 16:02:13.60	233.71	11.04	-36.9	-37.8	20.1	0.00e+00	0	37	0	352321536	44	3952
2026-01-24 16:02:14.60	233.86	11.10	-36.8	-37.8	20.2	0.00e+00	0	37	0	359661568	44	3921
2026-01-24 16:02:15.59	234.01	11.15	-36.8	-37.7	20.2	0.00e+00	0	37	0	365953024	44	3912
2026-01-24 16:02:16.59	234.16	11.21	-36.7	-37.7	20.3	0.00e+00	0	37	0	373293056	44	3878
2026-01-24 16:02:17.58	234.31	11.26	-36.7	-37.7	20.3	0.00e+00	0	37	0	380633088	44	3875
2026-01-24 16:02:18.58	234.46	11.31	-36.9	-37.8	20.1	0.00e+00	0	37	0	387973120	44	3957
2026-01-24 16:02:19.57	234.61	11.37	-36.7	-37.7	20.3	0.00e+00	0	37	0	395313152	44	3892
2026-01-24 16:02:20.57	234.76	11.42	-36.7	-37.6	20.4	0.00e+00	0	37	0	402653184	44	3863
2026-01-24 16:02:21.56	234.91	11.48	-36.6	-37.6	20.4	0.00e+00	0	37	0	409993216	44	3842
2026-01-24 16:02:22.55	235.06	11.53	-36.7	-37.6	20.4	0.00e+00	0	37	0	417333248	44	3864
2026-01-24 16:02:23.55	235.22	11.59	-36.7	-37.6	20.3	0.00e+00	0	37	0	424673280	44	3868
2026-01-24 16:02:24.54	235.37	11.64	-36.5	-37.5	20.4	0.00e+00	0	37	0	430964736	43	4008
2026-01-24 16:02:25.54	235.52	11.70	-36.5	-37.4	20.4	0.00e+00	0	37	0	438304768	43	4001
2026-01-24 16:02:26.53	235.68	11.75	-36.6	-37.5	20.3	0.00e+00	0	37	0	445644800	43	4039
2026-01-24 16:02:27.53	235.83	11.80	-36.5	-37.5	20.4	0.00e+00	0	37	0	452984832	43	4021
2026-01-24 16:02:28.52	235.99	11.86	-36.5	-37.5	20.4	0.00e+00	0	37	0	460324864	43	4011
2026-01-24 16:02:29.52	236.15	11.91	-36.6	-37.5	20.3	0.00e+00	0	37	0	467664896	43	4047
2026-01-24 16:02:30.51	236.30	11.97	-36.6	-37.5	20.3	0.00e+00	0	37	0	473956352	43	4027
2026-01-24 16:02:31.51	236.46	12.02	-36.7	-37.6	20.3	0.00e+00	0	37	0	481296384	43	4087
2026-01-24 16:02:32.50	236.62	12.07	-36.5	-37.4	20.4	0.00e+00	0	37	0	488636416	43	3999
2026-01-24 16:02:33.49	236.77	12.13	-36.5	-37.4	20.4	0.00e+00	0	37	0	495976448	43	4002
2026-01-24 16:02:34.49	236.93	12.18	-36.4	-37.4	20.5	0.00e+00	0	37	0	503316480	43	3975
2026-01-24 16:02:35.49	237.10	12.24	-36.5	-37.5	20.4	0.00e+00	0	37	0	509607936	43	4033
2026-01-24 16:02:36.48	237.25	12.29	-36.5	-37.5	20.4	0.00e+00	0	37	0	516947968	43	4012
2026-01-24 16:02:37.48	237.42	12.34	-36.3	-37.2	20.6	0.00e+00	0	37	0	524288000	43	3909
2026-01-24 16:02:38.47	237.58	12.40	-36.3	-37.2	20.7	0.00e+00	0	37	0	531628032	43	3885
2026-01-24 16:02:39.47	237.74	12.45	-36.4	-37.4	20.5	0.00e+00	0	37	0	538968064	43	3974
2026-01-24 16:02:40.46	237.90	12.50	-36.4	-37.3	20.6	0.00e+00	0	37	0	546308096	43	3933
2026-01-24 16:02:41.46	238.07	12.56	-36.1	-37.0	20.8	0.00e+00	0	37	0	553648128	43	3799
2026-01-24 16:02:42.45	238.23	12.61	-36.2	-37.1	20.8	0.00e+00	0	37	0	560988160	43	3833
2026-01-24 16:02:43.45	238.39	12.66	-36.2	-37.1	20.8	0.00e+00	0	37	0	568328192	43	3845
2026-01-24 16:02:44.44	238.56	12.71	-36.2	-37.2	20.7	0.00e+00	0	37	0	574619648	43	3876
2026-01-24 16:02:45.44	238.72	12.77	-36.2	-37.1	20.8	0.00e+00	0	37	0	581959680	43	3844
2026-01-24 16:02:46.43	238.89	12.82	-36.1	-37.1	20.8	0.00e+00	0	37	0	589299712	43	3831
2026-01-24 16:02:47.43	239.06	12.87	-36.3	-37.2	20.7	0.00e+00	0	37	0	596639744	42	4113
2026-01-24 16:02:48.42	239.22	12.92	-36.2	-37.1	20.8	0.00e+00	0	37	0	603979776	42	4082
2026-01-24 16:02:49.41	239.39	12.98	-36.1	-37.0	20.8	0.00e+00	0	37	0	611319808	42	4045
2026-01-24 16:02:50.41	239.56	13.03	-36.1	-37.0	20.9	0.00e+00	0	37	0	617611264	42	4026
2026-01-24 16:02:51.40	239.73	13.08	-36.1	-37.1	20.8	0.00e+00	0	37	0	624951296	42	4064
2026-01-24 16:02:52.40	239.90	13.13	-36.1	-37.1	20.9	0.00e+00	0	37	0	632291328	42	4053
2026-01-24 16:02:53.39	240.07	13.18	-36.1	-37.0	20.9	0.00e+00	0	37	0	639631360	42	4035
2026-01-24 16:02:54.39	240.24	13.24	-36.1	-37.0	20.9	0.00e+00	0	37	0	646971392	42	4035
2026-01-24 16:02:55.38	240.41	13.29	-36.2	-37.1	20.8	0.00e+00	0	37	0	653262848	42	4073
2026-01-24 16:02:56.38	240.58	13.34	-36.0	-37.0	20.9	0.00e+00	0	37	0	660602880	42	4009
2026-01-24 16:02:57.37	240.75	13.39	-36.1	-37.0	20.8	0.00e+00	0	37	0	667942912	42	4031
2026-01-24 16:02:58.37	240.93	13.44	-36.1	-37.0	20.9	0.00e+00	0	37	0	675282944	42	4042
2026-01-24 16:02:59.36	241.10	13.49	-36.0	-37.0	20.9	0.00e+00	0	37	0	682622976	42	4019
2026-01-24 16:03:00.36	241.27	13.54	-36.1	-37.0	20.9	0.00e+00	0	37	0	689963008	42	4022
2026-01-24 16:03:01.35	241.45	13.59	-36.2	-37.1	20.8	0.00e+00	0	37	0	697303040	42	4077
2026-01-24 16:03:02.35	241.62	13.64	-36.2	-37.2	20.8	0.00e+00	0	37	0	704643072	42	4100
2026-01-24 16:03:03.34	241.80	13.69	-36.2	-37.1	20.8	0.00e+00	0	37	0	710934528	42	4096
2026-01-24 16:03:04.34	241.98	13.74	-36.2	-37.2	20.7	0.00e+00	0	37	0	718274560	42	4121
2026-01-24 16:03:05.33	242.15	13.79	-36.2	-37.1	20.8	0.00e+00	0	37	0	725614592	42	4083
2026-01-24 16:03:06.33	242.33	13.85	-36.1	-37.1	20.8	0.00e+00	0	37	0	732954624	42	4052
2026-01-24 16:03:07.32	242.51	13.89	-36.1	-37.0	20.9	0.00e+00	0	37	0	740294656	42	4040
2026-01-24 16:03:08.32	242.69	13.94	-36.0	-36.9	21.0	0.00e+00	0	37	0	747634688	42	3996
2026-01-24 16:03:09.31	242.87	13.99	-36.0	-36.9	21.0	0.00e+00	0	37	0	754974720	42	3989
2026-01-24 16:03:10.31	243.05	14.04	-36.0	-36.9	21.0	0.00e+00	0	37	0	761266176	42	3994
2026-01-24 16:03:11.30	243.23	14.09	-36.0	-36.9	21.0	0.00e+00	0	37	0	768606208	42	3972
2026-01-24 16:03:12.30	243.41	14.14	-36.0	-36.9	21.0	0.00e+00	0	37	0	775946240	42	3986
2026-01-24 16:03:13.29	243.59	14.19	-36.1	-37.0	20.9	0.00e+00	0	37	0	783286272	42	4033
2026-01-24 16:03:14.29	243.77	14.24	-36.0	-37.0	21.0	0.00e+00	0	37	0	790626304	42	4012
2026-01-24 16:03:15.28	243.95	14.29	-36.0	-36.9	21.0	0.00e+00	0	37	0	796917760	42	3995
2026-01-24 16:03:16.28	244.14	14.34	-35.9	-36.9	21.0	0.00e+00	0	37	0	804257792	42	3966
2026-01-24 16:03:17.27	244.32	14.38	-36.1	-37.0	20.9	0.00e+00	0	37	0	811597824	42	4032
2026-01-24 16:03:18.27	244.51	14.43	-36.0	-37.0	21.0	0.00e+00	0	37	0	818937856	42	4006
2026-01-24 16:03:19.26	244.69	14.48	-35.8	-36.7	21.2	0.00e+00	0	37	0	826277888	42	3872
2026-01-24 16:03:20.26	244.88	14.53	-35.6	-36.5	21.4	0.00e+00	0	37	0	833617920	41	4033
2026-01-24 16:03:21.25	245.06	14.58	-35.8	-36.7	21.2	0.00e+00	0	37	0	840957952	41	4107
2026-01-24 16:03:22.25	245.25	14.62	-35.7	-36.6	21.2	0.00e+00	0	37	0	848297984	41	4088
2026-01-24 16:03:23.24	245.44	14.67	-35.7	-36.6	21.3	0.00e+00	0	37	0	854589440	41	4083
2026-01-24 16:03:24.24	245.63	14.72	-35.8	-36.7	21.2	0.00e+00	0	37	0	861929472	41	4120
2026-01-24 16:03:25.23	245.81	14.76	-35.9	-36.8	21.1	0.00e+00	0	37	0	869269504	41	4181
2026-01-24 16:03:26.22	246.00	14.81	-35.7	-36.6	21.2	0.00e+00	0	37	0	876609536	41	4095
2026-01-24 16:03:27.22	246.19	14.86	-35.9	-36.8	21.1	0.00e+00	0	37	0	883949568	41	4160
2026-01-24 16:03:28.21	246.38	14.90	-35.7	-36.6	21.3	0.00e+00	0	37	0	891289600	41	4089
2026-01-24 16:03:29.21	246.57	14.95	-35.7	-36.7	21.2	0.00e+00	0	37	0	898629632	41	4099
2026-01-24 16:03:30.20	246.76	14.99	-35.8	-36.7	21.2	0.00e+00	0	37	0	904921088	41	4108
2026-01-24 16:03:31.20	246.96	15.04	-35.8	-36.7	21.2	0.00e+00	0	37	0	912261120	41	4125
2026-01-24 16:03:32.19	247.15	15.09	-35.7	-36.7	21.2	0.00e+00	0	37	0	919601152	41	4102
2026-01-24 16:03:33.18	247.34	15.13	-35.7	-36.6	21.3	0.00e+00	0	37	0	926941184	41	4084
2026-01-24 16:03:34.18	247.54	15.18	-35.7	-36.6	21.3	0.00e+00	0	38	0	934281216	41	4067
2026-01-24 16:03:35.17	247.73	15.22	-35.7	-36.6	21.3	0.00e+00	0	37	0	940572672	41	4058
2026-01-24 16:03:36.17	247.93	15.26	-35.7	-36.6	21.3	0.00e+00	0	38	0	947912704	41	4075
2026-01-24 16:03:37.16	248.12	15.31	-35.6	-36.5	21.3	0.00e+00	0	37	0	955252736	41	4041
2026-01-24 16:03:38.16	248.32	15.35	-35.5	-36.4	21.5	0.00e+00	0	37	0	962592768	41	3990
2026-01-24 16:03:39.15	248.51	15.40	-35.5	-36.4	21.4	0.00e+00	0	37	0	969932800	41	4004
2026-01-24 16:03:40.15	248.71	15.44	-35.5	-36.4	21.5	0.00e+00	0	37	0	977272832	41	3976
2026-01-24 16:03:41.14	248.91	15.48	-35.4	-36.3	21.6	0.00e+00	0	37	0	983564288	41	3932
2026-01-24 16:03:42.14	249.11	15.53	-35.4	-36.3	21.6	0.00e+00	0	37	0	990904320	41	3951
2026-01-24 16:03:43.13	249.30	15.57	-35.5	-36.4	21.5	0.00e+00	0	37	0	998244352	41	3979
2026-01-24 16:03:44.13	249.50	15.61	-35.5	-36.4	21.4	0.00e+00	0	37	0	1005584384	41	4002
2026-01-24 16:03:45.12	249.70	15.65	-35.5	-36.4	21.5	0.00e+00	0	37	0	1012924416	41	3984
2026-01-24 16:03:46.12	249.90	15.69	-35.6	-36.5	21.4	0.00e+00	0	37	0	1020264448	41	4042
2026-01-24 16:03:47.11	250.10	15.74	-35.4	-36.3	21.6	0.00e+00	0	38	0	1027604480	41	3936
2026-01-24 16:03:48.11	250.31	15.78	-35.5	-36.4	21.5	0.00e+00	0	37	0	1034944512	41	3996
2026-01-24 16:03:49.10	250.51	15.82	-35.5	-36.4	21.5	0.00e+00	0	37	0	1042284544	41	3990
2026-01-24 16:03:50.10	250.71	15.86	-35.5	-36.4	21.5	0.00e+00	0	37	0	1048576000	41	3962
2026-01-24 16:03:51.09	250.91	15.90	-35.5	-36.4	21.5	0.00e+00	0	37	0	1055916032	41	3976
2026-01-24 16:03:52.09	251.12	15.94	-35.6	-36.5	21.4	0.00e+00	0	37	0	1063256064	41	4033
2026-01-24 16:03:53.09	251.32	15.98	-35.6	-36.5	21.4	0.00e+00	0	37	0	1070596096	41	4044
2026-01-24 16:03:54.08	251.53	16.02	-35.7	-36.7	21.2	0.00e+00	0	37	0	1077936128	41	4100
2026-01-24 16:03:55.07	251.73	16.06	-35.7	-36.6	21.3	0.00e+00	0	37	0	1084227584	41	4086
2026-01-24 16:03:56.07	251.94	16.10	-35.6	-36.5	21.4	0.00e+00	0	37	0	1091567616	41	4015
2026-01-24 16:03:57.06	252.14	16.14	-35.6	-36.5	21.4	0.00e+00	0	37	0	1098907648	41	4032
2026-01-24 16:03:58.06	252.35	16.18	-35.5	-36.4	21.5	0.00e+00	0	37	0	1106247680	41	3990
2026-01-24 16:03:59.05	252.56	16.22	-35.5	-36.4	21.5	0.00e+00	0	37	0	1113587712	41	3977
2026-01-24 16:04:00.05	252.77	16.25	-35.5	-36.4	21.5	0.00e+00	0	37	0	1120927744	41	3968
2026-01-24 16:04:01.04	252.97	16.29	-35.4	-36.3	21.5	0.00e+00	0	37	0	1127219200	41	3948
2026-01-24 16:04:02.03	253.18	16.33	-35.4	-36.3	21.6	0.00e+00	0	37	0	1134559232	41	3920
2026-01-24 16:04:03.03	253.39	16.37	-35.4	-36.3	21.6	0.00e+00	0	38	0	1141899264	41	3914
2026-01-24 16:04:04.02	253.60	16.40	-35.4	-36.3	21.6	0.00e+00	0	37	0	1149239296	41	3937
2026-01-24 16:04:05.02	253.81	16.44	-35.5	-36.4	21.5	0.00e+00	0	38	0	1156579328	41	3965
2026-01-24 16:04:06.01	254.02	16.48	-35.5	-36.4	21.5	0.00e+00	0	38	0	1163919360	41	3985
2026-01-24 16:04:07.01	254.23	16.51	-35.5	-36.4	21.5	0.00e+00	0	37	0	1171259392	41	3982
2026-01-24 16:04:08.00	254.45	16.55	-35.5	-36.4	21.5	0.00e+00	0	37	0	1178599424	41	3966
2026-01-24 16:04:09.00	254.66	16.58	-35.4	-36.3	21.6	0.00e+00	0	38	0	1185939456	41	3931
2026-01-24 16:04:09.99	254.87	16.62	-35.3	-36.2	21.7	0.00e+00	0	38	0	1192230912	41	3901
2026-01-24 16:04:10.99	255.08	16.65	-35.3	-36.2	21.7	0.00e+00	0	37	0	1199570944	41	3893
2026-01-24 16:04:11.98	255.30	16.69	-35.3	-36.2	21.7	0.00e+00	0	37	0	1206910976	41	3899
2026-01-24 16:04:12.98	255.51	16.72	-35.3	-36.2	21.7	0.00e+00	0	38	0	1214251008	41	3896
2026-01-24 16:04:13.97	255.73	16.75	-35.2	-36.0	21.9	0.00e+00	0	37	0	1221591040	41	3813
2026-01-24 16:04:14.97	255.94	16.79	-35.3	-36.1	21.7	0.00e+00	0	37	0	1227882496	41	3857
2026-01-24 16:04:15.96	256.16	16.82	-35.3	-36.2	21.7	0.00e+00	0	38	0	1235222528	41	3877
2026-01-24 16:04:16.96	256.37	16.85	-35.3	-36.2	21.7	0.00e+00	0	37	0	1242562560	41	3888
2026-01-24 16:04:17.95	256.59	16.88	-35.3	-36.2	21.8	0.00e+00	0	38	0	1249902592	41	3869
2026-01-24 16:04:18.94	256.81	16.92	-35.2	-36.1	21.8	0.00e+00	0	38	0	1257242624	41	3829
2026-01-24 16:04:19.94	257.02	16.95	-35.2	-36.1	21.8	0.00e+00	0	38	0	1264582656	41	3834
2026-01-24 16:04:20.93	257.24	16.98	-35.1	-36.0	21.9	0.00e+00	0	38	0	1270874112	41	3806
2026-01-24 16:04:21.93	257.46	17.01	-35.1	-36.0	21.9	0.00e+00	0	38	0	1278214144	41	3794
2026-01-24 16:04:22.93	257.68	17.04	-35.2	-36.1	21.8	0.00e+00	0	37	0	1285554176	40	4062
2026-01-24 16:04:23.92	257.90	17.07	-35.2	-36.1	21.8	0.00e+00	0	37	0	1292894208	40	4070
2026-01-24 16:04:24.91	258.12	17.10	-35.1	-36.0	21.9	0.00e+00	0	38	0	1300234240	40	4026
2026-01-24 16:04:25.91	258.34	17.13	-35.2	-36.0	21.8	0.00e+00	0	37	0	1307574272	40	4051
2026-01-24 16:04:26.90	258.56	17.16	-35.2	-36.1	21.8	0.00e+00	0	37	0	1314914304	40	4057
2026-01-24 16:04:27.90	258.78	17.19	-35.2	-36.0	21.8	0.00e+00	0	38	0	1322254336	40	4047
2026-01-24 16:04:28.90	259.00	17.22	-35.2	-36.0	21.8	0.00e+00	0	38	0	1329594368	40	4049
2026-01-24 16:04:29.89	259.22	17.24	-35.2	-36.1	21.8	0.00e+00	0	37	0	1335885824	40	4053
2026-01-24 16:04:30.88	259.44	17.27	-35.3	-36.2	21.7	0.00e+00	0	38	0	1343225856	40	4115
2026-01-24 16:04:31.88	259.67	17.30	-35.2	-36.1	21.8	0.00e+00	0	37	0	1350565888	40	4083
2026-01-24 16:04:32.88	259.89	17.33	-35.1	-36.0	21.9	0.00e+00	0	38	0	1357905920	40	4015
2026-01-24 16:04:33.87	260.11	17.35	-35.1	-36.0	21.9	0.00e+00	0	37	0	1365245952	40	4028
2026-01-24 16:04:34.87	260.34	17.38	-35.1	-35.9	21.9	0.00e+00	0	37	0	1371537408	40	4004
2026-01-24 16:04:35.86	260.56	17.40	-35.0	-35.9	22.0	0.00e+00	0	37	0	1378877440	40	3981
2026-01-24 16:04:36.86	260.78	17.43	-35.0	-35.9	22.0	0.00e+00	0	38	0	1386217472	40	3985
2026-01-24 16:04:37.85	261.01	17.45	-35.0	-35.9	22.0	0.00e+00	0	37	0	1393557504	40	3996
2026-01-24 16:04:38.84	261.23	17.48	-35.1	-36.0	21.9	0.00e+00	0	38	0	1400897536	40	4039
2026-01-24 16:04:39.84	261.46	17.50	-35.2	-36.1	21.8	0.00e+00	0	37	0	1408237568	40	4075
2026-01-24 16:04:40.83	261.68	17.53	-35.2	-36.1	21.8	0.00e+00	0	37	0	1414529024	40	4054
2026-01-24 16:04:41.83	261.91	17.55	-35.3	-36.2	21.7	0.00e+00	0	38	0	1421869056	40	4104
2026-01-24 16:04:42.82	262.13	17.57	-35.2	-36.1	21.8	0.00e+00	0	38	0	1429209088	40	4077
2026-01-24 16:04:43.82	262.36	17.59	-35.3	-36.2	21.8	0.00e+00	0	38	0	1436549120	40	4102
2026-01-24 16:04:44.81	262.59	17.62	-35.3	-36.2	21.8	0.00e+00	0	38	0	1443889152	40	4109
2026-01-24 16:04:45.80	262.81	17.64	-35.3	-36.2	21.8	0.00e+00	0	38	0	1451229184	40	4102
2026-01-24 16:04:46.80	263.04	17.66	-35.3	-36.2	21.7	0.00e+00	0	38	0	1458569216	40	4131
2026-01-24 16:04:47.79	263.27	17.68	-35.3	-36.2	21.7	0.00e+00	0	38	0	1464860672	40	4106
2026-01-24 16:04:48.79	263.50	17.70	-35.4	-36.3	21.7	0.00e+00	0	38	0	1472200704	40	4155
2026-01-24 16:04:49.78	263.73	17.72	-35.5	-36.4	21.6	0.00e+00	0	38	0	1479540736	40	4210
2026-01-24 16:04:50.78	263.96	17.74	-35.6	-36.5	21.5	0.00e+00	0	38	0	1486880768	40	4261
2026-01-24 16:04:51.77	264.18	17.76	-35.6	-36.5	21.4	0.00e+00	0	38	0	1494220800	40	4286
2026-01-24 16:04:52.76	264.41	17.78	-35.6	-36.5	21.4	0.00e+00	0	38	0	1501560832	40	4283
2026-01-24 16:04:53.76	264.64	17.79	-35.5	-36.4	21.5	0.00e+00	0	37	0	1508900864	40	4226
2026-01-24 16:04:54.75	264.87	17.81	-35.3	-36.2	21.7	0.00e+00	0	38	0	1515192320	40	4143
2026-01-24 16:04:55.75	265.10	17.83	-35.2	-36.1	21.8	0.00e+00	0	37	0	1522532352	40	4055
2026-01-24 16:04:56.74	265.33	17.85	-35.1	-36.0	21.9	0.00e+00	0	38	0	1529872384	40	4020
2026-01-24 16:04:57.74	265.56	17.86	-34.9	-35.8	22.1	0.00e+00	0	37	0	1537212416	40	3942
2026-01-24 16:04:58.73	265.79	17.88	-34.8	-35.7	22.2	0.00e+00	0	38	0	1544552448	40	3878
2026-01-24 16:04:59.73	266.03	17.89	-34.8	-35.7	22.1	0.00e+00	0	38	0	1551892480	40	3886
2026-01-24 16:05:00.72	266.26	17.91	-34.8	-35.7	22.2	0.00e+00	0	37	0	1558183936	40	3890
2026-01-24 16:05:01.72	266.49	17.92	-34.9	-35.8	22.1	0.00e+00	0	37	0	1565523968	40	3938
2026-01-24 16:05:02.71	266.72	17.94	-34.9	-35.8	22.1	0.00e+00	0	38	0	1572864000	40	3945
2026-01-24 16:05:03.71	266.95	17.95	-35.0	-35.9	21.9	0.00e+00	0	38	0	1580204032	40	3994
2026-01-24 16:05:04.70	267.18	17.96	-35.0	-35.9	22.0	0.00e+00	0	38	0	1587544064	40	3959
2026-01-24 16:05:05.70	267.42	17.98	-35.1	-36.0	21.9	0.00e+00	0	38	0	1594884096	40	4007
2026-01-24 16:05:06.69	267.65	17.99	-35.2	-36.1	21.8	0.00e+00	0	37	0	1601175552	40	4068
2026-01-24 16:05:07.69	267.88	18.00	-35.2	-36.1	21.8	0.00e+00	0	38	0	1608515584	40	4074
2026-01-24 16:05:08.68	268.11	18.01	-35.1	-36.0	21.9	0.00e+00	0	38	0	1615855616	40	4048
2026-01-24 16:05:09.68	268.35	18.02	-35.1	-36.0	21.9	0.00e+00	0	37	0	1623195648	40	4032
2026-01-24 16:05:10.67	268.58	18.04	-35.1	-36.0	21.9	0.00e+00	0	38	0	1630535680	40	4010
2026-01-24 16:05:11.67	268.81	18.05	-35.1	-36.0	21.9	0.00e+00	0	37	0	1637875712	40	4012
2026-01-24 16:05:12.66	269.05	18.06	-35.1	-36.0	21.9	0.00e+00	0	38	0	1645215744	40	4008
2026-01-24 16:05:13.65	269.28	18.06	-35.0	-35.9	22.0	0.00e+00	0	38	0	1652555776	40	3985
2026-01-24 16:05:14.65	269.51	18.07	-35.0	-35.9	22.0	0.00e+00	0	37	0	1658847232	40	3980
2026-01-24 16:05:15.65	269.75	18.08	-35.1	-36.0	21.9	0.00e+00	0	38	0	1666187264	40	4026
2026-01-24 16:05:16.64	269.98	18.09	-35.1	-36.0	21.9	0.00e+00	0	38	0	1673527296	40	4012
2026-01-24 16:05:17.64	270.22	18.10	-35.2	-36.0	21.8	0.00e+00	0	38	0	1680867328	40	4050
2026-01-24 16:05:18.63	270.45	18.10	-35.2	-36.1	21.8	0.00e+00	0	38	0	1688207360	40	4054
2026-01-24 16:05:19.63	270.68	18.11	-35.0	-35.9	22.0	0.00e+00	0	37	0	1695547392	40	3978
2026-01-24 16:05:20.62	270.92	18.12	-34.9	-35.8	22.1	0.00e+00	0	37	0	1701838848	40	3944
2026-01-24 16:05:21.62	271.15	18.12	-35.0	-35.9	22.0	0.00e+00	0	37	0	1709178880	40	3970
2026-01-24 16:05:22.61	271.39	18.13	-35.0	-35.8	22.1	0.00e+00	0	37	0	1716518912	40	3953
2026-01-24 16:05:23.61	271.62	18.13	-35.0	-35.9	22.0	0.00e+00	0	37	0	1723858944	40	3979
2026-01-24 16:05:24.60	271.86	18.14	-35.0	-35.9	22.0	0.00e+00	0	38	0	1731198976	40	3987
2026-01-24 16:05:25.60	272.09	18.14	-35.1	-36.0	21.9	0.00e+00	0	38	0	1738539008	40	4008
2026-01-24 16:05:26.59	272.33	18.14	-35.1	-36.0	21.9	0.00e+00	0	37	0	1744830464	40	4012
2026-01-24 16:05:27.58	272.56	18.15	-35.0	-35.9	22.0	0.00e+00	0	38	0	1752170496	40	3985
2026-01-24 16:05:28.58	272.79	18.15	-35.1	-36.0	21.9	0.00e+00	0	37	0	1759510528	40	4019
2026-01-24 16:05:29.58	273.03	18.15	-35.1	-36.0	22.0	0.00e+00	0	37	0	1766850560	40	4005
2026-01-24 16:05:30.57	273.26	18.15	-35.1	-36.0	21.9	0.00e+00	0	37	0	1774190592	40	4038
2026-01-24 16:05:31.57	273.50	18.15	-35.2	-36.1	21.8	0.00e+00	0	37	0	1781530624	40	4060
2026-01-24 16:05:32.56	273.73	18.15	-35.1	-36.0	21.9	0.00e+00	0	38	0	1788870656	40	4013
2026-01-24 16:05:33.56	273.97	18.15	-35.0	-35.9	22.0	0.00e+00	0	38	0	1796210688	40	3968
2026-01-24 16:05:34.55	274.20	18.15	-34.9	-35.8	22.1	0.00e+00	0	38	0	1802502144	40	3920
2026-01-24 16:05:35.55	274.44	18.15	-34.8	-35.7	22.2	0.00e+00	0	37	0	1809842176	40	3877
2026-01-24 16:05:36.54	274.67	18.15	-34.8	-35.7	22.2	0.00e+00	0	37	0	1817182208	40	3878
2026-01-24 16:05:37.54	274.91	18.15	-34.7	-35.6	22.3	0.00e+00	0	37	0	1824522240	40	3846
2026-01-24 16:05:38.53	275.14	18.15	-34.8	-35.6	22.2	0.00e+00	0	37	0	1831862272	40	3866
2026-01-24 16:05:39.53	275.38	18.14	-34.8	-35.6	22.2	0.00e+00	0	37	0	1839202304	40	3857
2026-01-24 16:05:40.52	275.61	18.14	-34.8	-35.7	22.2	0.00e+00	0	37	0	1845493760	40	3879
2026-01-24 16:05:41.52	275.85	18.14	-34.8	-35.7	22.2	0.00e+00	0	37	0	1852833792	40	3884
2026-01-24 16:05:42.51	276.08	18.13	-34.8	-35.7	22.2	0.00e+00	0	38	0	1860173824	40	3890
2026-01-24 16:05:43.50	276.32	18.13	-34.8	-35.7	22.2	0.00e+00	0	37	0	1867513856	40	3872
2026-01-24 16:05:44.50	276.55	18.12	-34.8	-35.7	22.2	0.00e+00	0	37	0	1874853888	40	3884
2026-01-24 16:05:45.49	276.78	18.12	-34.9	-35.8	22.1	0.00e+00	0	37	0	1881145344	40	3932
2026-01-24 16:05:46.49	277.02	18.11	-35.1	-36.0	21.9	0.00e+00	0	38	0	1888485376	40	4006
2026-01-24 16:05:47.48	277.25	18.10	-35.2	-36.0	21.8	0.00e+00	0	37	0	1895825408	40	4044
2026-01-24 16:05:48.48	277.49	18.10	-35.3	-36.1	21.8	0.00e+00	0	38	0	1903165440	40	4096
2026-01-24 16:05:49.47	277.72	18.09	-35.3	-36.2	21.7	0.00e+00	0	38	0	1910505472	40	4142
2026-01-24 16:05:50.47	277.96	18.08	-35.4	-36.3	21.7	0.00e+00	0	37	0	1917845504	40	4152
2026-01-24 16:05:51.46	278.19	18.07	-35.4	-36.3	21.6	0.00e+00	0	37	0	1925185536	40	4148
2026-01-24 16:05:52.46	278.42	18.06	-35.2	-36.1	21.8	0.00e+00	0	38	0	1932525568	40	4076
2026-01-24 16:05:53.45	278.65	18.06	-35.2	-36.1	21.8	0.00e+00	0	38	0	1939865600	40	4087
2026-01-24 16:05:54.45	278.89	18.05	-35.2	-36.1	21.8	0.00e+00	0	38	0	1946157056	40	4056
2026-01-24 16:05:55.44	279.12	18.04	-35.2	-36.0	21.8	0.00e+00	0	38	0	1953497088	40	4047
2026-01-24 16:05:56.44	279.35	18.02	-35.1	-36.0	21.9	0.00e+00	0	38	0	1960837120	40	4028
2026-01-24 16:05:57.43	279.59	18.01	-35.3	-36.2	21.8	0.00e+00	0	38	0	1968177152	40	4102
2026-01-24 16:05:58.42	279.82	18.00	-35.2	-36.1	21.8	0.00e+00	0	37	0	1975517184	40	4066
2026-01-24 16:05:59.42	280.05	17.99	-35.2	-36.1	21.8	0.00e+00	0	37	0	1982857216	40	4060
2026-01-24 16:06:00.41	280.28	17.98	-35.2	-36.1	21.7	0.00e+00	0	38	0	1989148672	40	4088
2026-01-24 16:06:01.41	280.52	17.96	-35.2	-36.1	21.8	0.00e+00	0	37	0	1996488704	40	4059
2026-01-24 16:06:02.40	280.75	17.95	-35.1	-36.0	21.9	0.00e+00	0	38	0	2003828736	40	4024
2026-01-24 16:06:03.40	280.98	17.94	-35.2	-36.1	21.8	0.00e+00	0	38	0	2011168768	40	4052
2026-01-24 16:06:04.40	281.21	17.92	-35.3	-36.2	21.7	0.00e+00	0	37	0	2018508800	40	4116
2026-01-24 16:06:05.39	281.44	17.91	-35.4	-36.3	21.6	0.00e+00	0	38	0	2024800256	40	4159
2026-01-24 16:06:06.39	281.67	17.89	-35.5	-36.4	21.5	0.00e+00	0	38	0	2032140288	40	4213
2026-01-24 16:06:07.38	281.90	17.88	-35.3	-36.2	21.7	0.00e+00	0	37	0	2039480320	40	4141
2026-01-24 16:06:08.38	282.13	17.86	-35.1	-36.0	21.8	0.00e+00	0	37	0	2046820352	40	4031
2026-01-24 16:06:09.37	282.36	17.85	-35.2	-36.1	21.8	0.00e+00	0	37	0	2054160384	40	4069
2026-01-24 16:06:10.37	282.59	17.83	-35.2	-36.1	21.8	0.00e+00	0	37	0	2061500416	40	4063
2026-01-24 16:06:11.36	282.82	17.81	-35.2	-36.1	21.9	0.00e+00	0	38	0	2068840448	40	4052
2026-01-24 16:06:12.36	283.05	17.79	-35.2	-36.0	21.8	0.00e+00	0	38	0	2076180480	40	4043
2026-01-24 16:06:13.36	283.28	17.78	-35.2	-36.1	21.5	0.00e+00	0	38	0	2083520512	40	4071
2026-01-24 16:06:14.35	283.51	17.76	-35.2	-36.1	21.8	0.00e+00	0	37	0	2089811968	40	4075
2026-01-24 16:06:15.35	283.74	17.74	-35.3	-36.2	21.8	0.00e+00	0	37	0	2097152000	40	4103
2026-01-24 16:06:16.34	283.97	17.72	-35.2	-36.1	21.8	0.00e+00	0	37	0	2104492032	40	4053
2026-01-24 16:06:17.34	284.20	17.70	-35.2	-36.1	21.8	0.00e+00	0	38	0	2111832064	40	4071
2026-01-24 16:06:18.33	284.42	17.68	-35.3	-36.2	21.8	0.00e+00	0	37	0	2119172096	40	4099
2026-01-24 16:06:19.32	284.65	17.66	-35.3	-36.3	21.6	0.00e+00	0	37	0	2126512128	40	4147
2026-01-24 16:06:20.32	284.88	17.64	-35.4	-36.3	21.6	0.00e+00	0	37	0	2132803584	40	4186
2026-01-24 16:06:21.31	285.10	17.62	-35.4	-36.3	21.6	0.00e+00	0	37	0	2140143616	40	4156
2026-01-24 16:06:22.31	285.33	17.59	-35.4	-36.3	21.6	0.00e+00	0	38	0	2147483648	40	4182
2026-01-24 16:06:23.30	285.56	17.57	-35.4	-36.3	21.6	0.00e+00	0	38	0	2154823680	40	4183
2026-01-24 16:06:24.30	285.78	17.55	-35.4	-36.2	21.6	0.00e+00	0	38	0	2162163712	40	4135
2026-01-24 16:06:25.29	286.01	17.53	-35.3	-36.2	21.8	0.00e+00	0	37	0	2168455168	40	4109
2026-01-24 16:06:26.28	286.23	17.50	-35.3	-36.2	21.7	0.00e+00	0	37	0	2175795200	40	4131
2026-01-24 16:06:27.28	286.46	17.48	-35.3	-36.1	21.8	0.00e+00	0	37	0	2183135232	40	4087
2026-01-24 16:06:28.27	286.68	17.45	-35.2	-36.1	21.8	0.00e+00	0	38	0	2190475264	40	4056
2026-01-24 16:06:29.26	286.90	17.43	-35.3	-36.1	21.7	0.00e+00	0	37	0	2197815296	40	4092
2026-01-24 16:06:30.26	287.13	17.40	-35.4	-36.3	21.7	0.00e+00	0	38	0	2205155328	40	4148
2026-01-24 16:06:31.26	287.35	17.38	-35.4	-36.2	21.7	0.00e+00	0	37	0	2212495360	40	4140
2026-01-24 16:06:32.25	287.58	17.35	-35.4	-36.3	21.6	0.00e+00	0	38	0	2219835392	40	4171
2026-01-24 16:06:33.25	287.80	17.33	-35.4	-36.3	21.6	0.00e+00	0	38	0	2227175424	40	4186
2026-01-24 16:06:34.24	288.02	17.30	-35.4	-36.3	21.6	0.00e+00	0	37	0	2233466880	40	4151
2026-01-24 16:06:35.24	288.24	17.27	-35.4	-36.3	21.6	0.00e+00	0	37	0	2240806912	40	4163
2026-01-24 16:06:36.23	288.46	17.25	-35.5	-36.4	21.5	0.00e+00	0	38	0	2248146944	40	4226
2026-01-24 16:06:37.23	288.69	17.22	-35.4	-36.2	21.6	0.00e+00	0	37	0	2255486976	40	4144
2026-01-24 16:06:38.22	288.91	17.19	-35.3	-36.2	21.7	0.00e+00	0	38	0	2262827008	40	4122
2026-01-24 16:06:39.21	289.12	17.16	-35.3	-36.2	21.6	0.00e+00	0	38	0	2270167040	40	4132
2026-01-24 16:06:40.21	289.34	17.13	-35.3	-36.2	21.7	0.00e+00	0	38	0	2276458496	40	4122
2026-01-24 16:06:41.21	289.57	17.10	-35.4	-36.3	21.6	0.00e+00	0	38	0	2283798528	40	4158
2026-01-24 16:06:42.20	289.78	17.07	-35.3	-36.2	21.6	0.00e+00	0	38	0	2291138560	40	4123
2026-01-24 16:06:43.20	290.00	17.04	-35.4	-36.2	21.7	0.00e+00	0	37	0	2298478592	40	4139
2026-01-24 16:06:44.19	290.22	17.01	-35.3	-36.2	21.7	0.00e+00	0	37	0	2305818624	40	4128
2026-01-24 16:06:45.19	290.44	16.98	-35.4	-36.3	21.5	0.00e+00	0	37	0	2312110080	40	4152
2026-01-24 16:06:46.18	290.65	16.95	-35.5	-36.3	21.6	0.00e+00	0	37	0	2319450112	40	4191
2026-01-24 16:06:47.17	290.87	16.92	-35.4	-36.3	21.6	0.00e+00	0	38	0	2326790144	40	4188
2026-01-24 16:06:48.17	291.09	16.89	-35.6	-36.5	21.4	0.00e+00	0	37	0	2334130176	40	4252
2026-01-24 16:06:49.16	291.30	16.86	-35.6	-36.5	21.4	0.00e+00	0	37	0	2341470208	40	4282
2026-01-24 16:06:50.16	291.52	16.82	-35.7	-36.6	21.3	0.00e+00	0	38	0	2348810240	40	4334
2026-01-24 16:06:51.15	291.73	16.79	-35.7	-36.6	21.3	0.00e+00	0	37	0	2356150272	40	4334
2026-01-24 16:06:52.15	291.95	16.76	-35.8	-36.7	21.2	0.00e+00	0	38	0	2363490304	41	4128
2026-01-24 16:06:53.14	292.16	16.73	-35.8	-36.7	21.2	0.00e+00	0	38	0	2369781760	41	4104
2026-01-24 16:06:54.14	292.38	16.69	-35.7	-36.6	21.3	0.00e+00	0	37	0	2377121792	41	4063
2026-01-24 16:06:55.13	292.59	16.66	-35.6	-36.5	21.4	0.00e+00	0	38	0	2384461824	41	4032
2026-01-24 16:06:56.13	292.80	16.62	-35.7	-36.6	21.3	0.00e+00	0	38	0	2391801856	41	4054
2026-01-24 16:06:57.13	293.01	16.59	-35.6	-36.5	21.4	0.00e+00	0	37	0	2399141888	41	4032
2026-01-24 16:06:58.12	293.22	16.55	-35.7	-36.6	21.3	0.00e+00	0	37	0	2406481920	41	4065
2026-01-24 16:06:59.12	293.44	16.52	-35.6	-36.5	21.4	0.00e+00	0	37	0	2413821952	41	4034
2026-01-24 16:07:00.11	293.65	16.48	-35.7	-36.6	21.3	0.00e+00	0	38	0	2420113408	41	4080
2026-01-24 16:07:01.10	293.86	16.45	-35.7	-36.6	21.3	0.00e+00	0	38	0	2427453440	41	4068
2026-01-24 16:07:02.10	294.07	16.41	-35.7	-36.6	21.2	0.00e+00	0	38	0	2434793472	41	4059
2026-01-24 16:07:03.09	294.27	16.37	-35.6	-36.5	21.4	0.00e+00	0	38	0	2442133504	41	4044
2026-01-24 16:07:04.09	294.48	16.34	-35.6	-36.6	21.3	0.00e+00	0	37	0	2449473536	41	4053
2026-01-24 16:07:05.08	294.69	16.30	-35.6	-36.5	21.4	0.00e+00	0	38	0	2455764992	41	4039
2026-01-24 16:07:06.08	294.90	16.26	-35.6	-36.5	21.3	0.00e+00	0	37	0	2463105024	41	4029
2026-01-24 16:07:07.07	295.11	16.22	-35.7	-36.7	21.2	0.00e+00	0	37	0	2470445056	41	4102
2026-01-24 16:07:08.07	295.31	16.19	-35.8	-36.7	21.2	0.00e+00	0	38	0	2477785088	41	4138
2026-01-24 16:07:09.06	295.52	16.15	-35.8	-36.7	21.2	0.00e+00	0	38	0	2485125120	41	4125
2026-01-24 16:07:10.06	295.73	16.11	-35.7	-36.6	21.3	0.00e+00	0	38	0	2492465152	41	4088
2026-01-24 16:07:11.05	295.93	16.07	-35.7	-36.7	21.2	0.00e+00	0	37	0	2499805184	41	4105
2026-01-24 16:07:12.05	296.13	16.03	-35.7	-36.6	21.3	0.00e+00	0	38	0	2507145216	41	4061
2026-01-24 16:07:13.05	296.34	15.99	-35.8	-36.7	21.2	0.00e+00	0	38	0	2514485248	41	4113
2026-01-24 16:07:14.04	296.54	15.95	-35.7	-36.6	21.3	0.00e+00	0	37	0	2520776704	41	4080
2026-01-24 16:07:15.04	296.75	15.91	-35.8	-36.7	21.2	0.00e+00	0	38	0	2528116736	41	4112
2026-01-24 16:07:16.03	296.95	15.87	-35.9	-36.8	21.1	0.00e+00	0	38	0	2535456768	41	4168
2026-01-24 16:07:17.03	297.15	15.83	-35.9	-36.8	21.0	0.00e+00	0	38	0	2542796800	41	4178
2026-01-24 16:07:18.03	297.35	15.79	-35.9	-36.8	21.0	0.00e+00	0	37	0	2550136832	41	4182
2026-01-24 16:07:19.02	297.55	15.75	-36.0	-36.9	20.9	0.00e+00	0	38	0	2557476864	41	4232
2026-01-24 16:07:20.02	297.75	15.71	-36.1	-37.0	20.9	0.00e+00	0	38	0	2563768320	41	4275
2026-01-24 16:07:21.01	297.95	15.66	-36.1	-37.1	20.8	0.00e+00	0	37	0	2571108352	41	4311
2026-01-24 16:07:22.01	298.15	15.62	-36.2	-37.1	20.8	0.00e+00	0	38	0	2578448384	41	4327
2026-01-24 16:07:23.00	298.35	15.58	-36.3	-37.2	20.7	0.00e+00	0	38	0	2585788416	42	4125
2026-01-24 16:07:24.00	298.55	15.54	-36.3	-37.3	20.6	0.00e+00	0	38	0	2593128448	42	4161
2026-01-24 16:07:25.00	298.75	15.49	-36.4	-37.4	20.6	0.00e+00	0	38	0	2600468480	42	4214
2026-01-24 16:07:25.99	298.94	15.45	-36.5	-37.5	20.5	0.00e+00	0	38	0	2606759936	42	4246
2026-01-24 16:07:26.98	299.14	15.41	-36.3	-37.3	20.6	0.00e+00	0	37	0	2614099968	42	4165
2026-01-24 16:07:27.98	299.34	15.37	-36.4	-37.3	20.6	0.00e+00	0	38	0	2621440000	42	4185
2026-01-24 16:07:28.97	299.53	15.32	-36.4	-37.3	20.6	0.00e+00	0	38	0	2628780032	42	4188
2026-01-24 16:07:29.97	299.73	15.28	-36.2	-37.2	20.7	0.00e+00	0	38	0	2636120064	42	4121
2026-01-24 16:07:30.97	299.92	15.23	-36.2	-37.2	20.8	0.00e+00	0	38	0	2643460096	42	4113
2026-01-24 16:07:31.96	300.11	15.19	-36.1	-37.1	20.8	0.00e+00	0	38	0	2650800128	42	4062
2026-01-24 16:07:32.96	300.31	15.15	-36.2	-37.1	20.7	0.00e+00	0	38	0	2658140160	42	4092
2026-01-24 16:07:33.95	300.50	15.10	-36.2	-37.1	20.8	0.00e+00	0	37	0	2664431616	42	4081
2026-01-24 16:07:34.95	300.69	15.06	-36.3	-37.3	20.6	0.00e+00	0	38	0	2671771648	42	4163
2026-01-24 16:07:35.94	300.88	15.01	-36.2	-37.2	20.7	0.00e+00	0	38	0	2679111680	42	4114
2026-01-24 16:07:36.94	301.07	14.97	-36.2	-37.2	20.7	0.00e+00	0	38	0	2686451712	42	4107
2026-01-24 16:07:37.93	301.26	14.92	-36.3	-37.3	20.7	0.00e+00	0	37	0	2693791744	42	4149
2026-01-24 16:07:38.93	301.45	14.87	-36.5	-37.4	20.5	0.00e+00	0	37	0	2701131776	42	4224
2026-01-24 16:07:39.92	301.64	14.83	-36.4	-37.3	20.6	0.00e+00	0	37	0	2707423232	42	4189
2026-01-24 16:07:40.92	301.83	14.78	-36.3	-37.2	20.7	0.00e+00	0	38	0	2714763264	42	4132
2026-01-24 16:07:41.91	302.02	14.74	-36.3	-37.2	20.6	0.00e+00	0	38	0	2722103296	42	4137
2026-01-24 16:07:42.91	302.21	14.69	-36.3	-37.2	20.7	0.00e+00	0	38	0	2729443328	42	4142
2026-01-24 16:07:43.90	302.39	14.64	-36.3	-37.2	20.7	0.00e+00	0	38	0	2736783360	42	4130
2026-01-24 16:07:44.90	302.58	14.60	-36.3	-37.2	20.7	0.00e+00	0	37	0	2744123392	42	4115
2026-01-24 16:07:45.89	302.76	14.55	-36.3	-37.3	20.6	0.00e+00	0	37	0	2750414848	42	4156
2026-01-24 16:07:46.88	302.95	14.50	-36.4	-37.4	20.5	0.00e+00	0	38	0	2757754880	42	4206
2026-01-24 16:07:47.88	303.13	14.45	-36.5	-37.4	20.4	0.00e+00	0	37	0	2765094912	42	4238
2026-01-24 16:07:48.88	303.32	14.41	-36.4	-37.4	20.5	0.00e+00	0	38	0	2772434944	42	4210
2026-01-24 16:07:49.87	303.50	14.36	-36.6	-37.5	20.4	0.00e+00	0	38	0	2779774976	42	4280
2026-01-24 16:07:50.87	303.68	14.31	-36.6	-37.6	20.3	0.00e+00	0	38	0	2787115008	42	4315
2026-01-24 16:07:51.86	303.86	14.26	-36.5	-37.4	20.4	0.00e+00	0	37	0	2794455040	42	4241
2026-01-24 16:07:52.86	304.05	14.21	-36.5	-37.5	20.4	0.00e+00	0	38	0	2801795072	42	4270
2026-01-24 16:07:53.85	304.23	14.16	-36.5	-37.5	20.4	0.00e+00	0	37	0	2808086528	42	4251
2026-01-24 16:07:54.85	304.41	14.12	-36.5	-37.5	20.4	0.00e+00	0	38	0	2815426560	42	4259
2026-01-24 16:07:55.84	304.59	14.07	-36.5	-37.5	20.4	0.00e+00	0	37	0	2822766592	42	4268
2026-01-24 16:07:56.83	304.76	14.02	-36.6	-37.5	20.4	0.00e+00	0	37	0	2830106624	42	4284
2026-01-24 16:07:57.83	304.94	13.97	-36.6	-37.5	20.4	0.00e+00	0	38	0	2837446656	42	4285
2026-01-24 16:07:58.82	305.12	13.92	-36.5	-37.5	20.4	0.00e+00	0	38	0	2843738112	42	4264
2026-01-24 16:07:59.82	305.30	13.87	-36.5	-37.4	20.5	0.00e+00	0	37	0	2851078144	42	4228
2026-01-24 16:08:00.82	305.48	13.82	-36.4	-37.3	20.6	0.00e+00	0	37	0	2858418176	42	4181
2026-01-24 16:08:01.81	305.65	13.77	-36.4	-37.3	20.6	0.00e+00	0	38	0	2865758208	42	4175
2026-01-24 16:08:02.81	305.83	13.72	-36.4	-37.3	20.6	0.00e+00	0	37	0	2873098240	42	4192
2026-01-24 16:08:03.80	306.00	13.67	-36.5	-37.5	20.5	0.00e+00	0	38	0	2880438272	42	4243
2026-01-24 16:08:04.80	306.18	13.62	-36.6	-37.5	20.4	0.00e+00	0	37	0	2887778304	42	4281
2026-01-24 16:08:05.79	306.35	13.57	-36.6	-37.6	20.3	0.00e+00	0	37	0	2894069760	42	4308
2026-01-24 16:08:06.78	306.53	13.52	-36.8	-37.7	20.2	0.00e+00	0	38	0	2901409792	42	4388
2026-01-24 16:08:07.78	306.70	13.47	-36.8	-37.8	20.1	0.00e+00	0	38	0	2908749824	43	4163
2026-01-24 16:08:08.77	306.87	13.42	-36.9	-37.8	20.0	0.00e+00	0	38	0	2916089856	43	4191
2026-01-24 16:08:09.77	307.04	13.37	-36.8	-37.8	20.1	0.00e+00	0	38	0	2923429888	43	4181
2026-01-24 16:08:10.77	307.21	13.32	-37.0	-38.0	20.0	0.00e+00	0	37	0	2930769920	43	4247
2026-01-24 16:08:11.76	307.38	13.27	-36.9	-37.9	20.0	0.00e+00	0	38	0	2938109952	43	4205
2026-01-24 16:08:12.76	307.56	13.21	-37.0	-38.0	19.9	0.00e+00	0	38	0	2945449984	43	4246
2026-01-24 16:08:13.75	307.72	13.16	-37.0	-37.9	19.9	0.00e+00	0	38	0	2951741440	43	4238
2026-01-24 16:08:14.75	307.89	13.11	-36.9	-37.9	20.0	0.00e+00	0	37	0	2959081472	43	4234
2026-01-24 16:08:15.74	308.06	13.06	-36.9	-37.9	19.9	0.00e+00	0	38	0	2966421504	43	4235
2026-01-24 16:08:16.74	308.23	13.01	-37.0	-38.0	19.9	0.00e+00	0	38	0	2973761536	43	4256
2026-01-24 16:08:17.73	308.40	12.96	-36.9	-38.0	19.9	0.00e+00	0	38	0	2981101568	43	4246
2026-01-24 16:08:18.73	308.56	12.91	-36.9	-37.9	19.9	0.00e+00	0	37	0	2987393024	43	4226
2026-01-24 16:08:19.72	308.73	12.85	-37.0	-38.0	19.8	0.00e+00	0	37	0	2994733056	43	4283
2026-01-24 16:08:20.72	308.89	12.80	-37.1	-38.1	19.8	0.00e+00	0	37	0	3002073088	43	4304
2026-01-24 16:08:21.71	309.06	12.75	-37.2	-38.2	19.7	0.00e+00	0	38	0	3009413120	43	4380
2026-01-24 16:08:22.71	309.22	12.70	-37.1	-38.1	19.8	0.00e+00	0	37	0	3016753152	43	4330
2026-01-24 16:08:23.71	309.39	12.64	-37.1	-38.1	19.7	0.00e+00	0	37	0	3024093184	43	4340
2026-01-24 16:08:24.70	309.55	12.59	-37.1	-38.1	19.8	0.00e+00	0	38	0	3031433216	43	4312
2026-01-24 16:08:25.69	309.71	12.54	-37.0	-38.0	19.8	0.00e+00	0	37	0	3037724672	43	4288
2026-01-24 16:08:26.69	309.87	12.49	-37.0	-38.1	19.8	0.00e+00	0	38	0	3045064704	43	4305
2026-01-24 16:08:27.69	310.04	12.43	-37.1	-38.1	19.8	0.00e+00	0	37	0	3052404736	43	4326
2026-01-24 16:08:28.68	310.20	12.38	-37.0	-38.0	19.9	0.00e+00	0	37	0	3059744768	43	4261
2026-01-24 16:08:29.68	310.36	12.33	-36.9	-37.9	19.8	0.00e+00	0	38	0	3067084800	43	4242
2026-01-24 16:08:30.67	310.52	12.28	-36.9	-38.0	19.9	0.00e+00	0	38	0	3074424832	43	4246
2026-01-24 16:08:31.67	310.68	12.22	-37.0	-38.0	19.9	0.00e+00	0	38	0	3081764864	43	4265
2026-01-24 16:08:32.66	310.83	12.17	-37.0	-38.0	19.8	0.00e+00	0	37	0	3089104896	43	4283
2026-01-24 16:08:33.66	310.99	12.12	-37.1	-38.1	19.7	0.00e+00	0	38	0	3095396352	43	4322
2026-01-24 16:08:34.65	311.15	12.06	-37.1	-38.1	19.8	0.00e+00	0	38	0	3102736384	43	4308
2026-01-24 16:08:35.65	311.31	12.01	-37.1	-38.1	19.7	0.00e+00	0	38	0	3110076416	43	4333
2026-01-24 16:08:36.64	311.46	11.96	-37.1	-38.2	19.6	0.00e+00	0	38	0	3117416448	43	4363
2026-01-24 16:08:37.63	311.62	11.90	-37.2	-38.3	19.6	0.00e+00	0	38	0	3124756480	43	4393
2026-01-24 16:08:38.63	311.77	11.85	-37.2	-38.3	19.5	0.00e+00	0	37	0	3131047936	43	4418
2026-01-24 16:08:39.63	311.93	11.79	-37.4	-38.5	19.5	0.00e+00	0	38	0	3138387968	44	4277
2026-01-24 16:08:40.62	312.08	11.74	-37.6	-38.7	19.4	0.00e+00	0	38	0	3145728000	44	4342
2026-01-24 16:08:41.62	312.24	11.69	-37.5	-38.6	19.5	0.00e+00	0	37	0	3153068032	44	4293
2026-01-24 16:08:42.61	312.39	11.63	-37.5	-38.5	19.5	0.00e+00	0	38	0	3160408064	44	4268
2026-01-24 16:08:43.60	312.54	11.58	-37.5	-38.5	19.5	0.00e+00	0	37	0	3167748096	44	4275
2026-01-24 16:08:44.60	312.69	11.53	-37.5	-38.5	19.5	0.00e+00	0	37	0	3175088128	44	4289
2026-01-24 16:08:45.59	312.85	11.47	-37.5	-38.5	19.5	0.00e+00	0	38	0	3182428160	44	4275
2026-01-24 16:08:46.59	313.00	11.42	-37.5	-38.5	19.5	0.00e+00	0	38	0	3188719616	44	4274
2026-01-24 16:08:47.59	313.15	11.36	-37.5	-38.6	19.4	0.00e+00	0	37	0	3196059648	44	4293
2026-01-24 16:08:48.58	313.30	11.31	-37.3	-38.4	19.6	0.00e+00	0	38	0	3203399680	44	4203
2026-01-24 16:08:49.57	313.45	11.25	-37.2	-38.2	19.8	0.00e+00	0	38	0	3210739712	44	4137
2026-01-24 16:08:50.57	313.60	11.20	-37.2	-38.2	19.8	0.00e+00	0	37	0	3218079744	44	4121
2026-01-24 16:08:51.56	313.74	11.15	-37.1	-38.1	19.9	0.00e+00	0	37	0	3225419776	44	4097
2026-01-24 16:08:52.56	313.89	11.09	-37.2	-38.2	19.8	0.00e+00	0	37	0	3232759808	44	4099
2026-01-24 16:08:53.56	314.04	11.04	-37.1	-38.1	19.8	0.00e+00	0	37	0	3239051264	44	4090
2026-01-24 16:08:54.55	314.19	10.98	-37.1	-38.1	19.9	0.00e+00	0	38	0	3246391296	44	4061
2026-01-24 16:08:55.55	314.33	10.93	-37.0	-38.0	20.0	0.00e+00	0	37	0	3253731328	44	4037
2026-01-24 16:08:56.54	314.48	10.87	-37.2	-38.2	19.8	0.00e+00	0	38	0	3261071360	44	4110
2026-01-24 16:08:57.54	314.62	10.82	-37.2	-38.2	19.8	0.00e+00	0	38	0	3268411392	44	4124
2026-01-24 16:08:58.53	314.77	10.76	-37.2	-38.2	19.7	0.00e+00	0	38	0	3274702848	44	4135
2026-01-24 16:08:59.53	314.91	10.71	-37.3	-38.3	19.6	0.00e+00	0	38	0	3282042880	44	4181
2026-01-24 16:09:00.52	315.05	10.65	-37.5	-38.6	19.4	0.00e+00	0	37	0	3289382912	44	4301
2026-01-24 16:09:01.52	315.20	10.60	-37.5	-38.5	19.4	0.00e+00	0	37	0	3296722944	44	4288
2026-01-24 16:09:02.51	315.34	10.55	-37.6	-38.6	19.3	0.00e+00	0	37	0	3304062976	44	4327
2026-01-24 16:09:03.50	315.48	10.49	-37.7	-38.8	19.2	0.00e+00	0	37	0	3311403008	44	4405
2026-01-24 16:09:04.50	315.62	10.44	-37.8	-38.9	19.1	0.00e+00	0	38	0	3318743040	45	4197
2026-01-24 16:09:05.49	315.76	10.38	-37.8	-38.9	19.0	0.00e+00	0	38	0	3325034496	45	4234
2026-01-24 16:09:06.49	315.90	10.33	-37.9	-39.1	18.9	0.00e+00	0	38	0	3332374528	45	4302
2026-01-24 16:09:07.48	316.04	10.27	-37.9	-39.1	18.9	0.00e+00	0	38	0	3339714560	45	4293
2026-01-24 16:09:08.47	316.18	10.22	-37.9	-39.1	18.9	0.00e+00	0	38	0	3347054592	45	4301
2026-01-24 16:09:09.47	316.32	10.16	-38.0	-39.1	18.8	0.00e+00	0	38	0	3354394624	45	4317
2026-01-24 16:09:10.46	316.46	10.11	-37.8	-38.9	19.0	0.00e+00	0	38	0	3361734656	45	4232
2026-01-24 16:09:11.46	316.60	10.05	-37.9	-38.9	19.0	0.00e+00	0	37	0	3369074688	45	4238
2026-01-24 16:09:12.45	316.73	10.00	-37.9	-38.9	19.0	0.00e+00	0	38	0	3376414720	45	4242
2026-01-24 16:09:13.45	316.87	9.94	-37.9	-39.0	18.9	0.00e+00	0	37	0	3382706176	45	4280
2026-01-24 16:09:14.44	317.01	9.89	-38.0	-39.1	18.8	0.00e+00	0	37	0	3390046208	45	4304
2026-01-24 16:09:15.44	317.14	9.83	-37.7	-38.8	19.2	0.00e+00	0	37	0	3397386240	45	4147
2026-01-24 16:09:16.43	317.28	9.78	-37.6	-38.7	19.3	0.00e+00	0	38	0	3404726272	45	4117
2026-01-24 16:09:17.43	317.41	9.72	-37.6	-38.6	19.3	0.00e+00	0	38	0	3412066304	45	4097
2026-01-24 16:09:18.42	317.55	9.67	-37.6	-38.7	19.3	0.00e+00	0	37	0	3418357760	45	4102
2026-01-24 16:09:19.42	317.68	9.61	-37.5	-38.5	19.4	0.00e+00	0	38	0	3425697792	45	4032
2026-01-24 16:09:20.41	317.82	9.56	-37.4	-38.5	19.4	0.00e+00	0	37	0	3433037824	45	4027
2026-01-24 16:09:21.40	317.95	9.50	-37.5	-38.6	19.3	0.00e+00	0	38	0	3440377856	45	4053
2026-01-24 16:09:22.40	318.08	9.45	-37.5	-38.5	19.3	0.00e+00	0	37	0	3447717888	45	4039
2026-01-24 16:09:23.39	318.21	9.39	-37.6	-38.7	19.2	0.00e+00	0	38	0	3455057920	45	4118
2026-01-24 16:09:24.39	318.34	9.34	-37.5	-38.6	19.3	0.00e+00	0	38	0	3461349376	45	4086
2026-01-24 16:09:25.38	318.47	9.28	-37.6	-38.7	19.2	0.00e+00	0	38	0	3468689408	45	4104
2026-01-24 16:09:26.38	318.61	9.23	-37.6	-38.6	19.2	0.00e+00	0	38	0	3476029440	45	4098
2026-01-24 16:09:27.38	318.74	9.17	-37.7	-38.8	19.1	0.00e+00	0	38	0	3483369472	45	4162
2026-01-24 16:09:28.37	318.87	9.11	-37.8	-39.0	18.9	0.00e+00	0	38	0	3490709504	45	4250
2026-01-24 16:09:29.37	319.00	9.06	-37.8	-39.0	18.9	0.00e+00	0	38	0	3498049536	45	4282
2026-01-24 16:09:30.36	319.12	9.00	-37.9	-39.1	18.7	0.00e+00	0	38	0	3505389568	45	4333
2026-01-24 16:09:31.35	319.25	8.95	-48.4	-59.1	3.8	8.46e-01	0	37	104	3508535296	66	12858
2026-01-24 16:09:32.35	319.38	8.89	-48.6	-59.5	3.8	8.46e-01	0	38	104	3508535296	66	13495
2026-01-24 16:09:33.34	319.51	8.84	-48.6	-59.7	3.8	8.46e-01	0	38	104	3508535296	66	13769
2026-01-24 16:09:34.33	319.63	8.78	-48.7	-59.8	3.8	8.46e-01	0	38	104	3508535296	67	13183
2026-01-24 16:09:35.33	319.76	8.73	-49.1	-59.8	3.8	8.46e-01	0	38	104	3508535296	67	13225
2026-01-24 16:09:36.32	319.88	8.67	-49.0	-60.0	3.8	8.46e-01	0	38	104	3508535296	67	13432
2026-01-24 16:09:37.31	320.01	8.62	-49.1	-60.0	3.8	8.46e-01	0	37	104	3508535296	67	13448
2026-01-24 16:09:38.31	320.13	8.56	-48.8	-60.0	3.8	8.46e-01	0	38	104	3508535296	67	13526
2026-01-24 16:09:39.30	320.26	8.51	-49.0	-60.0	3.8	8.46e-01	0	38	104	3508535296	67	13541
2026-01-24 16:09:40.29	320.38	8.45	-49.1	-60.1	3.8	8.47e-01	0	38	104	3508535296	67	13609
2026-01-24 16:09:41.28	320.50	8.40	-49.3	-60.1	3.8	8.47e-01	0	38	104	3508535296	67	13573
2026-01-24 16:09:42.28	320.63	8.34	-49.2	-60.2	3.8	8.47e-01	0	38	104	3508535296	68	13011
2026-01-24 16:09:43.27	320.75	8.29	-49.3	-60.2	3.8	8.46e-01	0	38	104	3508535296	68	12994
2026-01-24 16:09:44.26	320.87	8.23	-49.5	-60.2	3.8	8.47e-01	0	38	104	3508535296	68	13065
2026-01-24 16:09:45.26	320.99	8.18	-49.4	-60.2	3.8	8.48e-01	0	38	104	3508535296	68	13062
2026-01-24 16:09:46.25	321.11	8.12	-49.5	-60.2	3.8	8.47e-01	0	38	104	3508535296	68	13031
2026-01-24 16:09:47.24	321.24	8.07	-49.4	-60.2	3.8	8.47e-01	0	38	104	3508535296	68	13031
2026-01-24 16:09:48.24	321.36	8.01	-49.3	-60.1	3.8	8.47e-01	0	38	104	3508535296	68	12946
2026-01-24 16:09:49.23	321.48	7.96	-49.3	-60.2	3.8	8.47e-01	0	38	104	3508535296	68	12986
2026-01-24 16:09:50.23	321.60	7.90	-49.2	-60.2	3.8	8.46e-01	0	38	104	3508535296	68	13025
2026-01-24 16:09:51.22	321.71	7.85	-49.2	-60.1	3.8	8.47e-01	0	38	104	3508535296	68	12927
2026-01-24 16:09:52.21	321.83	7.79	-49.2	-60.2	3.8	8.48e-01	0	38	104	3508535296	68	12980
2026-01-24 16:09:53.20	321.95	7.74	-49.2	-60.1	3.8	8.46e-01	0	38	104	3508535296	68	12927
2026-01-24 16:09:54.20	322.07	7.68	-49.1	-60.1	3.8	8.49e-01	0	38	104	3508535296	68	12929
2026-01-24 16:09:55.19	322.19	7.63	-49.2	-60.1	3.8	8.46e-01	0	38	104	3508535296	68	12918
2026-01-24 16:09:56.18	322.30	7.58	-49.1	-60.1	3.8	8.47e-01	0	38	104	3508535296	68	12935
2026-01-24 16:09:57.18	322.42	7.52	-49.1	-60.1	3.8	8.47e-01	0	38	104	3508535296	68	12886
2026-01-24 16:09:58.17	322.54	7.47	-49.1	-60.2	3.8	8.46e-01	0	38	104	3508535296	68	12964
2026-01-24 16:09:59.16	322.65	7.41	-49.1	-60.1	3.8	8.47e-01	0	38	104	3508535296	68	12915
2026-01-24 16:10:00.15	322.76	7.36	-49.1	-60.1	3.8	8.47e-01	0	38	104	3508535296	68	12853
2026-01-24 16:10:01.15	322.88	7.30	-49.1	-60.2	3.8	8.47e-01	0	38	104	3508535296	68	12968
2026-01-24 16:10:02.14	322.99	7.25	-49.1	-60.1	3.8	8.47e-01	0	38	104	3508535296	68	12920
2026-01-24 16:10:03.13	323.11	7.19	-49.1	-60.1	3.8	8.48e-01	0	38	104	3508535296	68	12849
2026-01-24 16:10:04.13	323.22	7.14	-49.1	-60.1	3.8	8.47e-01	0	38	104	3508535296	68	12936
2026-01-24 16:10:05.12	323.33	7.08	-49.1	-60.1	3.8	8.47e-01	0	38	104	3508535296	68	12898
2026-01-24 16:10:06.12	323.45	7.03	-49.1	-60.1	3.8	8.46e-01	0	38	104	3508535296	68	12858
2026-01-24 16:10:07.11	323.56	6.97	-49.1	-60.1	3.8	8.47e-01	0	37	104	3508535296	68	12864
2026-01-24 16:10:08.10	323.67	6.92	-49.1	-60.1	3.8	8.47e-01	0	38	104	3508535296	68	12861
2026-01-24 16:10:09.09	323.78	6.86	-49.1	-60.1	3.8	8.47e-01	0	38	104	3508535296	68	12895
2026-01-24 16:10:10.09	323.89	6.81	-49.1	-60.1	3.8	8.46e-01	0	38	104	3508535296	68	12882
2026-01-24 16:10:11.08	324.01	6.76	-49.1	-60.0	3.8	8.47e-01	0	38	104	3508535296	68	12768
2026-01-24 16:10:12.07	324.12	6.70	-49.1	-60.1	3.8	8.46e-01	0	38	104	3508535296	68	12880
2026-01-24 16:10:13.07	324.23	6.65	-49.1	-60.1	3.8	8.47e-01	0	38	104	3508535296	68	12864
2026-01-24 16:10:14.06	324.33	6.59	-49.1	-60.1	3.8	8.46e-01	0	38	104	3508535296	68	12842
2026-01-24 16:10:15.05	324.44	6.54	-49.1	-60.1	3.8	8.47e-01	0	38	104	3508535296	68	12858
2026-01-24 16:10:16.05	324.55	6.48	-49.1	-60.1	3.8	8.47e-01	0	38	104	3508535296	68	12943
2026-01-24 16:10:17.04	324.66	6.43	-49.1	-60.0	3.8	8.47e-01	0	38	104	3508535296	68	12807
2026-01-24 16:10:18.03	324.77	6.38	-49.1	-60.0	3.8	8.48e-01	0	38	104	3508535296	68	12764
2026-01-24 16:10:19.02	324.88	6.32	-49.1	-60.0	3.8	8.47e-01	0	38	104	3508535296	68	12761
2026-01-24 16:10:20.02	324.98	6.27	-49.1	-60.0	3.8	8.47e-01	0	38	104	3508535296	68	12785
2026-01-24 16:10:21.01	325.09	6.21	-49.1	-60.1	3.8	8.48e-01	0	38	104	3508535296	68	12836
2026-01-24 16:10:22.00	325.20	6.16	-49.1	-60.1	3.8	8.47e-01	0	38	104	3508535296	68	12835
2026-01-24 16:10:23.00	325.30	6.10	-49.1	-60.0	3.8	8.48e-01	0	38	104	3508535296	68	12703
2026-01-24 16:10:23.99	325.41	6.05	-49.1	-60.1	3.8	8.47e-01	0	38	104	3508535296	68	12922
2026-01-24 16:10:24.98	325.51	6.00	-49.1	-60.0	3.8	8.48e-01	0	38	104	3508535296	68	12809
2026-01-24 16:10:25.98	325.62	5.94	-49.1	-60.0	3.8	8.46e-01	0	38	104	3508535296	68	12804
2026-01-24 16:10:26.97	325.72	5.89	-49.1	-60.1	3.8	8.47e-01	0	38	104	3508535296	68	12811
2026-01-24 16:10:27.96	325.83	5.84	-49.1	-60.1	3.8	8.48e-01	0	38	104	3508535296	68	12837
2026-01-24 16:10:28.95	325.93	5.78	-49.1	-60.0	3.8	8.48e-01	0	38	104	3508535296	68	12731
2026-01-24 16:10:29.95	326.03	5.73	-49.1	-60.1	3.8	8.49e-01	0	38	104	3508535296	68	12876
2026-01-24 16:10:30.94	326.14	5.67	-49.1	-60.1	3.8	8.47e-01	0	38	104	3508535296	68	12863
2026-01-24 16:10:31.93	326.24	5.62	-49.1	-60.0	3.8	8.47e-01	0	38	104	3508535296	68	12810
2026-01-24 16:10:32.93	326.34	5.57	-49.1	-60.0	3.8	8.47e-01	0	38	104	3508535296	68	12787
2026-01-24 16:10:33.92	326.44	5.51	-49.1	-60.1	3.8	8.47e-01	0	38	104	3508535296	68	12863
2026-01-24 16:10:34.91	326.55	5.46	-49.1	-60.1	3.8	8.46e-01	0	38	104	3508535296	68	12818
2026-01-24 16:10:35.91	326.65	5.41	-49.1	-60.0	3.8	8.46e-01	0	38	104	3508535296	68	12783
2026-01-24 16:10:36.90	326.75	5.35	-49.1	-60.0	3.8	8.47e-01	0	38	104	3508535296	68	12770
2026-01-24 16:10:37.89	326.85	5.30	-49.1	-60.0	3.8	8.48e-01	0	38	104	3508535296	68	12732
2026-01-24 16:10:38.89	326.95	5.24	-49.1	-60.0	3.8	8.46e-01	0	38	104	3508535296	68	12698
2026-01-24 16:10:39.88	327.05	5.19	-49.1	-60.0	3.8	8.47e-01	0	38	104	3508535296	68	12756
2026-01-24 16:10:40.87	327.15	5.14	-49.1	-60.0	3.8	8.48e-01	0	38	104	3508535296	68	12786
2026-01-24 16:10:41.87	327.25	5.08	-49.1	-60.0	3.8	8.48e-01	0	38	104	3508535296	68	12801
2026-01-24 16:10:42.86	327.35	5.03	-49.1	-60.0	3.8	8.46e-01	0	38	104	3508535296	68	12759
2026-01-24 16:10:43.85	327.44	4.98	-49.1	-60.0	3.8	8.47e-01	0	38	104	3508535296	68	12791

#Closed at: 2026-01-24 16:10:44
#Recorded file [3508 MB]: D:/Data/31040_260124_190026.dat