passes_logs/2026/01/24/T1/T1__20260124_074957_NOAA_21_JPSS-2_rec.log

#Pass ID: 20260124_074957_NOAA 21 (JPSS-2)
#Satellite: NOAA 21 (JPSS-2)
#Configuration: NOAA 21
#almurnet v.1.7.20251203
#Start time: 2026-01-24 07:49:56

#Version: 2.0.20230620
#Station: T1
#Location: 37.570604 lon 55.790049 lat
#TLE: 1 54234U 22150A   26023.61190495  .00000215  00000+0  12293-3 0  9993
#TLE: 2 54234  98.7508 324.4078 0000700 226.6110 133.5008 14.19538339166032

#Time	Az	El	Level	Level2	SNR	BER	BlckErr	Temp	State	Recorded	gain1	gain2
2026-01-24 07:49:56.87	92.91	4.99	-47.6	-60.8	3.8	1.49e+00	0	35	0	0	66	16718
2026-01-24 07:49:57.87	92.81	5.05	-47.5	-60.7	3.8	1.49e+00	0	35	104	0	67	15738
2026-01-24 07:49:58.86	92.71	5.10	-47.5	-60.8	3.8	1.49e+00	0	35	104	0	67	15768
2026-01-24 07:49:59.86	92.60	5.15	-47.5	-60.8	3.8	1.49e+00	0	35	104	0	67	15782
2026-01-24 07:50:00.86	92.50	5.21	-47.5	-60.7	3.8	1.49e+00	0	35	104	0	67	15726
2026-01-24 07:50:01.86	92.40	5.26	-47.5	-60.8	3.8	1.49e+00	0	35	104	0	67	15776
2026-01-24 07:50:02.86	92.29	5.31	-47.5	-60.8	3.8	1.49e+00	0	35	104	0	67	15777
2026-01-24 07:50:03.85	92.19	5.37	-47.5	-60.8	3.8	1.49e+00	0	35	104	0	67	15799
2026-01-24 07:50:04.85	92.09	5.42	-47.5	-60.8	3.8	1.49e+00	0	36	104	0	67	15765
2026-01-24 07:50:05.85	91.98	5.47	-47.5	-60.7	3.8	1.49e+00	0	36	104	0	67	15696
2026-01-24 07:50:06.85	91.88	5.53	-47.5	-60.7	3.8	1.49e+00	0	36	104	0	67	15648
2026-01-24 07:50:07.85	91.77	5.58	-47.5	-60.7	3.8	1.49e+00	0	36	104	0	67	15677
2026-01-24 07:50:08.84	91.67	5.63	-47.5	-60.7	3.8	1.49e+00	0	36	104	0	67	15582
2026-01-24 07:50:09.84	91.56	5.69	-47.5	-60.7	3.8	1.49e+00	0	36	104	0	67	15586
2026-01-24 07:50:10.84	91.45	5.74	-47.5	-60.6	3.8	1.49e+00	0	35	104	0	67	15541
2026-01-24 07:50:11.84	91.35	5.79	-47.5	-60.7	3.8	1.49e+00	0	36	104	0	67	15601
2026-01-24 07:50:12.84	91.24	5.85	-47.5	-60.6	3.8	1.49e+00	0	36	104	0	67	15506
2026-01-24 07:50:13.84	91.13	5.90	-47.5	-60.6	3.8	1.49e+00	0	36	104	0	67	15560
2026-01-24 07:50:14.83	91.02	5.95	-47.5	-60.7	3.8	1.49e+00	0	36	104	0	67	15608
2026-01-24 07:50:15.83	90.92	6.01	-47.5	-60.7	3.8	1.49e+00	0	36	104	0	67	15613
2026-01-24 07:50:16.83	90.81	6.06	-47.5	-60.7	3.8	1.49e+00	0	36	104	0	67	15601
2026-01-24 07:50:17.83	90.70	6.11	-47.5	-60.7	3.8	1.49e+00	0	36	104	0	67	15600
2026-01-24 07:50:18.83	90.59	6.17	-47.5	-60.6	3.8	1.49e+00	0	36	104	0	67	15579
2026-01-24 07:50:19.83	90.48	6.22	-47.5	-60.7	3.8	1.49e+00	0	36	104	0	67	15583
2026-01-24 07:50:20.83	90.37	6.27	-47.5	-60.6	3.8	1.49e+00	0	36	104	0	67	15564
2026-01-24 07:50:21.82	90.26	6.33	-47.5	-60.7	3.8	1.49e+00	0	36	104	0	67	15588
2026-01-24 07:50:22.82	90.15	6.38	-47.5	-60.7	3.8	1.49e+00	0	36	104	0	67	15590
2026-01-24 07:50:23.82	90.03	6.43	-47.5	-60.7	3.8	1.49e+00	0	36	104	0	67	15640
2026-01-24 07:50:24.81	89.92	6.49	-47.5	-60.7	3.8	1.49e+00	0	36	104	0	67	15652
2026-01-24 07:50:25.81	89.81	6.54	-47.5	-60.7	3.8	1.49e+00	0	36	104	0	67	15607
2026-01-24 07:50:26.81	89.70	6.59	-47.5	-60.7	3.8	1.49e+00	0	36	104	0	67	15624
2026-01-24 07:50:27.80	89.58	6.65	-47.5	-60.6	3.8	1.49e+00	0	36	104	0	67	15575
2026-01-24 07:50:28.80	89.47	6.70	-47.5	-60.6	3.8	1.49e+00	0	36	104	0	67	15433
2026-01-24 07:50:29.80	89.36	6.76	-47.5	-60.5	3.8	1.49e+00	0	36	104	0	67	15393
2026-01-24 07:50:30.80	89.24	6.81	-47.5	-60.4	3.8	1.49e+00	0	36	104	0	67	15151
2026-01-24 07:50:31.80	89.13	6.86	-47.5	-60.4	3.8	1.49e+00	0	36	104	0	67	15061
2026-01-24 07:50:32.80	89.01	6.92	-47.5	-60.3	3.8	1.49e+00	0	36	104	0	66	15817
2026-01-24 07:50:33.79	88.89	6.97	-47.5	-60.3	3.8	1.49e+00	0	36	104	0	66	15763
2026-01-24 07:50:34.79	88.78	7.02	-47.5	-60.3	3.8	1.49e+00	0	37	104	0	66	15843
2026-01-24 07:50:35.79	88.66	7.08	-47.5	-60.4	3.8	1.49e+00	0	36	104	0	66	15947
2026-01-24 07:50:36.78	88.54	7.13	-47.5	-60.4	3.8	1.49e+00	0	37	104	0	66	15969
2026-01-24 07:50:37.78	88.43	7.18	-47.5	-60.5	3.8	1.49e+00	0	36	104	0	66	16129
2026-01-24 07:50:38.78	88.31	7.24	-47.5	-60.4	3.8	1.49e+00	0	37	104	0	66	16042
2026-01-24 07:50:39.77	88.19	7.29	-47.5	-60.4	3.8	1.49e+00	0	37	104	0	66	16034
2026-01-24 07:50:40.77	88.07	7.34	-47.5	-60.2	3.8	1.49e+00	0	37	104	0	66	15732
2026-01-24 07:50:41.77	87.95	7.40	-47.4	-60.0	3.8	1.49e+00	0	37	104	0	66	15260
2026-01-24 07:50:42.76	87.83	7.45	-47.4	-59.7	3.8	1.49e+00	0	37	104	0	66	14804
2026-01-24 07:50:43.76	87.71	7.50	-47.4	-59.4	3.8	1.49e+00	0	37	104	0	66	14324
2026-01-24 07:50:44.76	87.59	7.56	-47.4	-59.2	3.8	1.49e+00	0	37	104	0	66	14042
2026-01-24 07:50:45.76	87.47	7.61	-47.4	-59.2	3.8	1.49e+00	0	37	104	0	66	13970
2026-01-24 07:50:46.76	87.35	7.66	-47.4	-59.2	3.9	1.49e+00	0	37	104	0	66	13923
2026-01-24 07:50:47.76	87.22	7.72	-47.4	-59.6	3.8	1.49e+00	0	37	104	0	66	14630
2026-01-24 07:50:48.75	87.10	7.77	-47.4	-59.9	3.8	1.49e+00	0	37	104	0	66	15129
2026-01-24 07:50:49.75	86.98	7.83	-47.4	-60.0	3.8	1.49e+00	0	37	104	0	66	15292
2026-01-24 07:50:50.75	86.86	7.88	-47.4	-60.1	3.8	1.49e+00	0	37	104	0	66	15418
2026-01-24 07:50:51.75	86.73	7.93	-47.4	-59.8	3.8	1.49e+00	0	37	104	0	66	14881
2026-01-24 07:50:52.74	86.61	7.99	-47.4	-59.3	3.8	1.49e+00	0	37	104	0	66	14058
2026-01-24 07:50:53.74	86.48	8.04	-47.3	-58.1	3.9	1.49e+00	0	37	104	0	66	12329
2026-01-24 07:50:54.73	86.36	8.09	-47.2	-57.8	3.9	1.47e+00	0	37	104	0	66	11954
2026-01-24 07:50:55.73	86.23	8.15	-47.2	-57.8	3.9	1.47e+00	0	37	104	0	66	11896
2026-01-24 07:50:56.73	86.11	8.20	-47.3	-58.2	4.0	1.48e+00	0	37	104	0	66	12416
2026-01-24 07:50:57.73	85.98	8.25	-47.4	-60.1	3.8	1.49e+00	0	37	104	0	66	15488
2026-01-24 07:50:58.73	85.85	8.31	-47.4	-59.5	3.8	1.49e+00	0	37	104	0	66	14470
2026-01-24 07:50:59.72	85.72	8.36	-46.7	-54.4	5.4	7.16e-01	0	37	0	0	65	8519
2026-01-24 07:51:00.72	85.60	8.41	-45.4	-50.4	9.0	8.08e-02	0	37	0	0	63	6029
2026-01-24 07:51:01.72	85.47	8.47	-43.8	-47.2	12.3	6.58e-04	0	37	0	0	59	5255
2026-01-24 07:51:02.71	85.34	8.52	-42.3	-45.0	14.6	7.00e-07	0	37	0	0	56	4837
2026-01-24 07:51:03.71	85.21	8.57	-40.9	-43.2	16.3	0.00e+00	0	37	0	0	53	4661
2026-01-24 07:51:04.71	85.08	8.62	-40.1	-42.2	17.2	0.00e+00	0	37	0	0	52	4428
2026-01-24 07:51:05.71	84.95	8.68	-39.9	-41.9	17.6	0.00e+00	0	37	0	0	51	4530
2026-01-24 07:51:06.71	84.82	8.73	-40.1	-42.1	17.4	0.00e+00	0	37	0	0	51	4644
2026-01-24 07:51:07.71	84.68	8.78	-40.6	-42.9	16.6	0.00e+00	0	37	0	0	52	4762
2026-01-24 07:51:08.70	84.55	8.84	-41.6	-44.1	15.4	0.00e+00	0	37	0	0	53	5161
2026-01-24 07:51:09.70	84.42	8.89	-43.2	-46.2	13.5	7.60e-06	0	37	0	0	56	5552
2026-01-24 07:51:10.70	84.29	8.94	-44.7	-48.7	10.8	5.23e-04	0	37	0	0	59	6233
2026-01-24 07:51:11.69	84.15	9.00	-46.0	-51.7	7.8	3.76e-02	0	37	0	0	62	7437
2026-01-24 07:51:12.69	84.02	9.05	-45.9	-52.0	7.8	4.32e-02	0	37	0	0	62	7660
2026-01-24 07:51:13.69	83.89	9.10	-45.6	-51.1	8.4	8.75e-02	0	37	0	0	63	6521
2026-01-24 07:51:14.69	83.75	9.15	-46.8	-55.2	5.1	2.99e-01	0	37	0	0	64	9861
2026-01-24 07:51:15.69	83.61	9.21	-43.3	-46.5	13.0	1.32e+00	0	37	0	0	58	5149
2026-01-24 07:51:16.69	83.48	9.26	-46.7	-54.7	5.5	2.39e-03	0	37	0	0	64	9304
2026-01-24 07:51:17.69	83.34	9.31	-44.2	-48.1	11.3	1.06e+00	0	37	104	0	60	5487
2026-01-24 07:51:18.69	83.20	9.37	-41.7	-44.2	15.2	0.00e+00	0	37	0	0	55	4698
2026-01-24 07:51:19.69	83.07	9.42	-40.7	-42.9	16.5	0.00e+00	0	37	0	0	53	4517
2026-01-24 07:51:20.69	82.93	9.47	-40.3	-42.4	17.1	0.00e+00	0	37	0	0	52	4494
2026-01-24 07:51:21.69	82.79	9.52	-40.4	-42.6	16.9	0.00e+00	0	37	0	0	52	4615
2026-01-24 07:51:22.68	82.65	9.58	-40.1	-42.3	17.2	0.00e+00	0	37	0	0	52	4442
2026-01-24 07:51:23.68	82.51	9.63	-40.1	-42.2	17.2	0.00e+00	0	37	0	0	52	4421
2026-01-24 07:51:24.68	82.37	9.68	-40.0	-42.1	17.3	0.00e+00	0	37	0	0	52	4379
2026-01-24 07:51:25.68	82.23	9.73	-40.1	-42.2	17.3	0.00e+00	0	37	0	0	51	4679
2026-01-24 07:51:26.68	82.09	9.79	-40.0	-42.0	17.5	0.00e+00	0	37	0	0	51	4595
2026-01-24 07:51:27.68	81.95	9.84	-40.0	-42.1	17.4	0.00e+00	0	38	0	0	51	4624
2026-01-24 07:51:28.68	81.80	9.89	-40.1	-42.2	17.3	0.00e+00	0	37	0	0	51	4700
2026-01-24 07:51:29.68	81.66	9.94	-40.0	-42.0	17.5	0.00e+00	0	37	0	0	51	4596
2026-01-24 07:51:30.68	81.52	9.99	-39.8	-41.9	17.7	0.00e+00	0	37	0	0	51	4507
2026-01-24 07:51:31.67	81.37	10.05	-39.8	-41.8	17.7	0.00e+00	0	37	0	0	51	4474
2026-01-24 07:51:32.67	81.23	10.10	-39.8	-41.8	17.8	0.00e+00	0	37	0	0	51	4453
2026-01-24 07:51:33.67	81.09	10.15	-39.7	-41.7	17.8	0.00e+00	0	37	0	0	51	4439
2026-01-24 07:51:34.66	80.94	10.20	-39.7	-41.7	17.9	0.00e+00	0	38	0	0	51	4404
2026-01-24 07:51:35.66	80.80	10.25	-39.8	-41.8	17.8	0.00e+00	0	38	0	0	51	4467
2026-01-24 07:51:36.66	80.65	10.31	-39.7	-41.7	17.8	0.00e+00	0	37	0	0	51	4431
2026-01-24 07:51:37.66	80.50	10.36	-39.9	-41.9	17.7	0.00e+00	0	37	0	0	51	4520
2026-01-24 07:51:38.66	80.35	10.41	-39.8	-41.8	17.7	0.00e+00	0	38	0	0	51	4477
2026-01-24 07:51:39.65	80.21	10.46	-39.8	-41.8	17.8	0.00e+00	0	38	0	0	51	4486
2026-01-24 07:51:40.65	80.06	10.51	-39.8	-41.8	17.8	0.00e+00	0	38	0	0	51	4467
2026-01-24 07:51:41.65	79.91	10.56	-39.8	-41.8	17.8	0.00e+00	0	38	0	0	51	4477
2026-01-24 07:51:42.65	79.76	10.61	-39.8	-41.7	17.8	0.00e+00	0	38	0	0	51	4440
2026-01-24 07:51:43.65	79.61	10.66	-39.7	-41.6	18.0	0.00e+00	0	37	0	0	51	4374
2026-01-24 07:51:44.64	79.46	10.72	-39.7	-41.6	17.9	0.00e+00	0	38	0	0	51	4385
2026-01-24 07:51:45.64	79.31	10.77	-39.6	-41.6	18.0	0.00e+00	0	38	0	0	51	4355
2026-01-24 07:51:46.64	79.16	10.82	-39.6	-41.6	18.0	0.00e+00	0	37	0	0	51	4349
2026-01-24 07:51:47.64	79.00	10.87	-39.6	-41.5	18.1	0.00e+00	0	38	0	0	51	4325
2026-01-24 07:51:48.64	78.85	10.92	-39.4	-41.3	18.3	0.00e+00	0	38	0	0	50	4468
2026-01-24 07:51:49.64	78.70	10.97	-39.4	-41.3	18.3	0.00e+00	0	37	0	0	50	4491
2026-01-24 07:51:50.64	78.54	11.02	-39.3	-41.2	18.4	0.00e+00	0	37	0	0	50	4411
2026-01-24 07:51:51.63	78.39	11.07	-39.4	-41.3	18.3	0.00e+00	0	38	0	0	50	4465
2026-01-24 07:51:52.64	78.23	11.12	-39.3	-41.1	18.4	0.00e+00	0	38	0	0	50	4383
2026-01-24 07:51:53.63	78.08	11.17	-39.2	-41.0	18.5	0.00e+00	0	38	0	0	50	4320
2026-01-24 07:51:54.64	77.92	11.22	-39.2	-41.1	18.4	0.00e+00	0	38	0	0	50	4344
2026-01-24 07:51:55.64	77.77	11.27	-39.2	-41.1	18.4	0.00e+00	0	38	0	0	50	4355
2026-01-24 07:51:56.63	77.61	11.32	-39.3	-41.2	18.3	0.00e+00	0	38	0	0	50	4425
2026-01-24 07:51:57.63	77.45	11.37	-39.4	-41.4	18.2	0.00e+00	0	38	0	0	50	4503
2026-01-24 07:51:58.63	77.29	11.42	-39.4	-41.3	18.2	0.00e+00	0	38	0	0	50	4477
2026-01-24 07:51:59.63	77.14	11.47	-39.5	-41.4	18.1	0.00e+00	0	38	0	0	50	4520
2026-01-24 07:52:00.63	76.98	11.52	-39.5	-41.4	18.1	0.00e+00	0	38	0	0	50	4533
2026-01-24 07:52:01.63	76.82	11.57	-39.7	-41.6	18.0	0.00e+00	0	38	0	0	50	4628
2026-01-24 07:52:02.62	76.66	11.62	-39.5	-41.5	18.1	0.00e+00	0	38	0	0	50	4558
2026-01-24 07:52:03.62	76.50	11.67	-39.3	-41.2	18.3	0.00e+00	0	38	0	0	50	4421
2026-01-24 07:52:04.62	76.34	11.72	-39.3	-41.2	18.4	0.00e+00	0	38	0	0	50	4395
2026-01-24 07:52:05.62	76.17	11.76	-39.2	-41.1	18.5	0.00e+00	0	37	0	0	50	4373
2026-01-24 07:52:06.62	76.01	11.81	-39.3	-41.1	18.5	0.00e+00	0	38	0	0	50	4376
2026-01-24 07:52:07.62	75.85	11.86	-39.1	-41.0	18.6	0.00e+00	0	38	0	0	50	4309
2026-01-24 07:52:08.62	75.68	11.91	-39.2	-41.1	18.5	0.00e+00	0	37	0	0	50	4362
2026-01-24 07:52:09.61	75.52	11.96	-39.2	-41.1	18.5	0.00e+00	0	38	0	0	50	4355
2026-01-24 07:52:10.61	75.36	12.01	-39.2	-41.0	18.6	0.00e+00	0	38	0	0	50	4336
2026-01-24 07:52:11.61	75.19	12.05	-39.1	-40.9	18.6	0.00e+00	0	38	0	0	50	4291
2026-01-24 07:52:12.61	75.02	12.10	-39.1	-40.9	18.6	0.00e+00	0	38	0	0	50	4275
2026-01-24 07:52:13.61	74.86	12.15	-39.0	-40.9	18.7	0.00e+00	0	38	0	0	50	4253
2026-01-24 07:52:14.61	74.69	12.20	-39.1	-40.9	18.6	0.00e+00	0	38	0	0	50	4285
2026-01-24 07:52:15.60	74.53	12.24	-39.1	-40.9	18.7	0.00e+00	0	38	0	0	50	4284
2026-01-24 07:52:16.60	74.36	12.29	-38.9	-40.7	18.8	0.00e+00	0	38	0	0	49	4434
2026-01-24 07:52:17.60	74.19	12.34	-38.8	-40.6	18.9	0.00e+00	0	38	0	0	49	4389
2026-01-24 07:52:18.59	74.02	12.39	-38.9	-40.8	18.8	0.00e+00	0	38	0	0	49	4448
2026-01-24 07:52:19.59	73.85	12.43	-39.0	-40.8	18.8	0.00e+00	0	38	0	0	49	4487
2026-01-24 07:52:20.59	73.68	12.48	-39.0	-40.8	18.7	0.00e+00	0	38	0	0	49	4475
2026-01-24 07:52:21.59	73.51	12.53	-39.0	-40.8	18.8	0.00e+00	0	38	0	0	49	4459
2026-01-24 07:52:22.58	73.34	12.57	-39.0	-40.9	18.7	0.00e+00	0	38	0	0	49	4494
2026-01-24 07:52:23.58	73.17	12.62	-38.9	-40.8	18.8	0.00e+00	0	38	0	0	49	4456
2026-01-24 07:52:24.58	73.00	12.66	-38.9	-40.8	18.8	0.00e+00	0	38	0	0	49	4453
2026-01-24 07:52:25.58	72.82	12.71	-38.8	-40.6	19.0	0.00e+00	0	38	0	0	49	4383
2026-01-24 07:52:26.58	72.65	12.76	-38.7	-40.5	19.1	0.00e+00	0	38	0	0	49	4337
2026-01-24 07:52:27.58	72.48	12.80	-38.7	-40.5	19.0	0.00e+00	0	38	0	0	49	4329
2026-01-24 07:52:28.58	72.30	12.85	-38.8	-40.6	18.9	0.00e+00	0	38	0	0	49	4364
2026-01-24 07:52:29.58	72.13	12.89	-38.9	-40.7	18.9	0.00e+00	0	38	0	0	49	4401
2026-01-24 07:52:30.57	71.95	12.94	-38.8	-40.6	18.9	0.00e+00	0	38	0	0	49	4368
2026-01-24 07:52:31.57	71.78	12.98	-38.9	-40.7	18.8	0.00e+00	0	38	0	0	49	4422
2026-01-24 07:52:32.57	71.60	13.03	-38.9	-40.8	18.7	0.00e+00	0	38	0	0	49	4462
2026-01-24 07:52:33.57	71.42	13.07	-38.9	-40.7	18.8	0.00e+00	0	38	0	0	49	4434
2026-01-24 07:52:34.57	71.24	13.12	-38.9	-40.7	18.8	0.00e+00	0	38	0	0	49	4420
2026-01-24 07:52:35.57	71.07	13.16	-38.9	-40.8	18.8	0.00e+00	0	38	0	0	49	4449
2026-01-24 07:52:36.56	70.89	13.20	-39.0	-40.9	18.7	0.00e+00	0	38	0	0	49	4499
2026-01-24 07:52:37.56	70.71	13.25	-39.1	-40.9	18.6	0.00e+00	0	38	0	0	49	4527
2026-01-24 07:52:38.56	70.53	13.29	-39.1	-41.0	18.6	0.00e+00	0	38	0	0	49	4566
2026-01-24 07:52:39.56	70.35	13.33	-39.2	-41.1	18.5	0.00e+00	0	38	0	0	49	4612
2026-01-24 07:52:40.55	70.17	13.38	-39.2	-41.1	18.5	0.00e+00	0	38	0	0	49	4599
2026-01-24 07:52:41.55	69.99	13.42	-39.2	-41.1	18.5	0.00e+00	0	38	0	0	49	4638
2026-01-24 07:52:42.54	69.81	13.46	-39.2	-41.0	18.6	0.00e+00	0	38	0	0	49	4586
2026-01-24 07:52:43.54	69.63	13.50	-39.2	-41.0	18.6	0.00e+00	0	38	0	0	49	4578
2026-01-24 07:52:44.54	69.44	13.55	-39.2	-41.1	18.6	0.00e+00	0	38	0	0	49	4607
2026-01-24 07:52:45.54	69.26	13.59	-39.0	-40.9	18.7	0.00e+00	0	38	0	0	49	4505
2026-01-24 07:52:46.54	69.07	13.63	-38.8	-40.6	19.0	0.00e+00	0	38	0	0	49	4386
2026-01-24 07:52:47.54	68.89	13.67	-38.8	-40.6	19.0	0.00e+00	0	38	0	0	49	4360
2026-01-24 07:52:48.53	68.71	13.71	-38.9	-40.7	18.9	0.00e+00	0	38	0	0	49	4401
2026-01-24 07:52:49.53	68.52	13.75	-38.8	-40.6	18.9	0.00e+00	0	38	0	0	49	4384
2026-01-24 07:52:50.53	68.33	13.80	-38.9	-40.7	18.9	0.00e+00	0	38	0	0	49	4422
2026-01-24 07:52:51.53	68.15	13.84	-39.0	-40.8	18.8	0.00e+00	0	38	0	0	49	4467
2026-01-24 07:52:52.53	67.96	13.88	-38.9	-40.8	18.9	0.00e+00	0	38	0	0	49	4444
2026-01-24 07:52:53.53	67.77	13.92	-38.9	-40.7	18.9	0.00e+00	0	38	0	0	49	4438
2026-01-24 07:52:54.53	67.58	13.96	-38.9	-40.7	18.9	0.00e+00	0	38	0	0	49	4410
2026-01-24 07:52:55.53	67.40	14.00	-38.9	-40.8	18.9	0.00e+00	0	38	0	0	49	4455
2026-01-24 07:52:56.52	67.21	14.04	-39.0	-40.8	18.8	0.00e+00	0	38	0	0	49	4472
2026-01-24 07:52:57.52	67.02	14.07	-39.0	-40.8	18.8	0.00e+00	0	38	0	0	49	4475
2026-01-24 07:52:58.52	66.83	14.11	-39.0	-40.8	18.8	0.00e+00	0	38	0	0	49	4484
2026-01-24 07:52:59.52	66.64	14.15	-39.0	-40.8	18.8	0.00e+00	0	38	0	0	49	4482
2026-01-24 07:53:00.52	66.45	14.19	-38.9	-40.8	18.9	0.00e+00	0	38	0	0	49	4445
2026-01-24 07:53:01.52	66.25	14.23	-39.0	-40.8	18.8	0.00e+00	0	38	0	0	49	4493
2026-01-24 07:53:02.52	66.06	14.27	-39.0	-40.8	18.8	0.00e+00	0	38	0	0	49	4489
2026-01-24 07:53:03.51	65.87	14.30	-39.0	-40.8	18.8	0.00e+00	0	38	0	0	49	4489
2026-01-24 07:53:04.52	65.68	14.34	-39.0	-40.8	18.8	0.00e+00	0	38	0	0	49	4467
2026-01-24 07:53:05.51	65.48	14.38	-39.0	-40.9	18.8	0.00e+00	0	38	0	0	49	4496
2026-01-24 07:53:06.51	65.29	14.42	-39.0	-40.9	18.7	0.00e+00	0	38	0	0	49	4509
2026-01-24 07:53:07.50	65.10	14.45	-39.0	-40.8	18.5	0.00e+00	0	38	0	0	49	4482
2026-01-24 07:53:08.50	64.90	14.49	-39.0	-40.9	18.8	0.00e+00	0	38	0	0	49	4499
2026-01-24 07:53:09.50	64.71	14.52	-39.0	-40.8	18.8	0.00e+00	0	38	0	0	49	4483
2026-01-24 07:53:10.50	64.51	14.56	-39.0	-40.8	18.9	0.00e+00	0	38	0	0	49	4469
2026-01-24 07:53:11.50	64.31	14.60	-38.9	-40.7	19.0	0.00e+00	0	38	0	0	49	4405
2026-01-24 07:53:12.50	64.12	14.63	-38.8	-40.6	19.0	0.00e+00	0	38	0	0	49	4391
2026-01-24 07:53:13.49	63.92	14.67	-38.7	-40.5	19.1	0.00e+00	0	38	0	0	49	4326
2026-01-24 07:53:14.49	63.72	14.70	-38.6	-40.4	19.2	0.00e+00	0	38	0	0	49	4273
2026-01-24 07:53:15.49	63.52	14.74	-38.6	-40.4	19.2	0.00e+00	0	38	0	0	49	4254
2026-01-24 07:53:16.49	63.32	14.77	-38.7	-40.5	19.1	0.00e+00	0	38	0	0	49	4310
2026-01-24 07:53:17.49	63.13	14.80	-38.8	-40.6	19.0	0.00e+00	0	38	0	0	49	4344
2026-01-24 07:53:18.48	62.93	14.84	-38.7	-40.5	19.1	0.00e+00	0	38	0	0	49	4306
2026-01-24 07:53:19.48	62.73	14.87	-38.7	-40.6	19.1	0.00e+00	0	38	0	0	49	4344
2026-01-24 07:53:20.48	62.53	14.90	-38.8	-40.6	19.1	0.00e+00	0	38	0	0	49	4354
2026-01-24 07:53:21.48	62.33	14.93	-38.8	-40.6	19.1	0.00e+00	0	38	0	0	49	4350
2026-01-24 07:53:22.48	62.12	14.97	-38.6	-40.4	19.2	0.00e+00	0	38	0	0	49	4278
2026-01-24 07:53:23.48	61.92	15.00	-38.6	-40.4	19.2	0.00e+00	0	38	0	0	49	4275
2026-01-24 07:53:24.48	61.72	15.03	-38.7	-40.5	19.2	0.00e+00	0	38	0	0	49	4303
2026-01-24 07:53:25.48	61.52	15.06	-38.8	-40.6	19.1	0.00e+00	0	38	0	0	49	4354
2026-01-24 07:53:26.48	61.31	15.09	-38.6	-40.4	19.2	0.00e+00	0	38	0	0	49	4281
2026-01-24 07:53:27.47	61.11	15.12	-38.7	-40.5	19.2	0.00e+00	0	38	0	0	49	4294
2026-01-24 07:53:28.47	60.91	15.15	-38.6	-40.4	19.2	0.00e+00	0	38	0	0	49	4281
2026-01-24 07:53:29.47	60.70	15.18	-38.6	-40.4	19.2	0.00e+00	0	38	0	0	49	4271
2026-01-24 07:53:30.47	60.50	15.21	-38.6	-40.4	19.3	0.00e+00	0	38	0	0	49	4262
2026-01-24 07:53:31.46	60.29	15.24	-38.8	-40.6	19.1	0.00e+00	0	38	0	0	49	4348
2026-01-24 07:53:32.47	60.09	15.27	-38.7	-40.5	19.1	0.00e+00	0	38	0	0	49	4317
2026-01-24 07:53:33.47	59.88	15.30	-38.7	-40.6	19.1	0.00e+00	0	38	0	0	49	4341
2026-01-24 07:53:34.46	59.67	15.33	-38.8	-40.6	19.1	0.00e+00	0	38	0	0	49	4385
2026-01-24 07:53:35.46	59.47	15.36	-38.7	-40.5	19.1	0.00e+00	0	38	0	0	49	4324
2026-01-24 07:53:36.46	59.26	15.38	-38.7	-40.4	19.2	0.00e+00	0	38	0	0	49	4290
2026-01-24 07:53:37.46	59.05	15.41	-38.7	-40.4	19.2	0.00e+00	0	38	0	0	49	4284
2026-01-24 07:53:38.46	58.84	15.44	-38.7	-40.5	19.2	0.00e+00	0	38	0	0	49	4306
2026-01-24 07:53:39.46	58.64	15.46	-38.6	-40.3	19.3	0.00e+00	0	38	0	0	49	4233
2026-01-24 07:53:40.45	58.43	15.49	-38.5	-40.3	19.3	0.00e+00	0	38	0	0	49	4217
2026-01-24 07:53:41.45	58.22	15.52	-38.4	-40.1	19.5	0.00e+00	0	38	0	0	48	4376
2026-01-24 07:53:42.45	58.01	15.54	-38.4	-40.2	19.5	0.00e+00	0	38	0	0	48	4403
2026-01-24 07:53:43.45	57.80	15.57	-38.5	-40.3	19.4	0.00e+00	0	38	0	0	48	4450
2026-01-24 07:53:44.45	57.59	15.59	-38.6	-40.4	19.2	0.00e+00	0	38	0	0	48	4513
2026-01-24 07:53:45.45	57.38	15.62	-38.7	-40.5	19.2	0.00e+00	0	38	0	0	48	4548
2026-01-24 07:53:46.44	57.17	15.64	-38.5	-40.3	19.4	0.00e+00	0	38	0	0	48	4444
2026-01-24 07:53:47.44	56.96	15.66	-38.5	-40.3	19.3	0.00e+00	0	38	0	0	48	4450
2026-01-24 07:53:48.44	56.75	15.69	-38.5	-40.2	19.4	0.00e+00	0	38	0	0	48	4415
2026-01-24 07:53:49.43	56.54	15.71	-38.5	-40.2	19.4	0.00e+00	0	38	0	0	48	4426
2026-01-24 07:53:50.43	56.32	15.73	-38.4	-40.1	19.5	0.00e+00	0	38	0	0	48	4372
2026-01-24 07:53:51.43	56.11	15.75	-38.3	-40.1	19.5	0.00e+00	0	38	0	0	48	4352
2026-01-24 07:53:52.42	55.90	15.78	-38.4	-40.1	19.5	0.00e+00	0	38	0	0	48	4381
2026-01-24 07:53:53.42	55.69	15.80	-38.4	-40.1	19.5	0.00e+00	0	38	0	0	48	4365
2026-01-24 07:53:54.42	55.47	15.82	-38.4	-40.1	19.5	0.00e+00	0	38	0	0	48	4364
2026-01-24 07:53:55.42	55.26	15.84	-38.5	-40.2	19.4	0.00e+00	0	38	0	0	48	4440
2026-01-24 07:53:56.42	55.05	15.86	-38.5	-40.3	19.3	0.00e+00	0	38	0	0	48	4453
2026-01-24 07:53:57.41	54.83	15.88	-38.6	-40.4	19.3	0.00e+00	0	38	0	0	48	4507
2026-01-24 07:53:58.41	54.62	15.90	-38.6	-40.4	19.3	0.00e+00	0	38	0	0	48	4512
2026-01-24 07:53:59.41	54.40	15.92	-38.6	-40.4	19.2	0.00e+00	0	38	0	0	48	4529
2026-01-24 07:54:00.41	54.19	15.94	-38.6	-40.3	19.3	0.00e+00	0	38	0	0	48	4486
2026-01-24 07:54:01.40	53.98	15.96	-38.5	-40.3	19.4	0.00e+00	0	38	0	0	48	4473
2026-01-24 07:54:02.40	53.76	15.97	-38.5	-40.2	19.5	0.00e+00	0	38	0	0	48	4431
2026-01-24 07:54:03.40	53.54	15.99	-38.4	-40.1	19.5	0.00e+00	0	38	0	0	48	4384
2026-01-24 07:54:04.39	53.33	16.01	-38.3	-40.1	19.6	0.00e+00	0	38	0	0	48	4346
2026-01-24 07:54:05.40	53.11	16.02	-38.2	-40.0	19.6	0.00e+00	0	38	0	0	48	4306
2026-01-24 07:54:06.39	52.90	16.04	-38.3	-40.0	19.6	0.00e+00	0	38	0	0	48	4338
2026-01-24 07:54:07.39	52.68	16.06	-38.2	-39.9	19.7	0.00e+00	0	38	0	0	48	4269
2026-01-24 07:54:08.39	52.46	16.07	-38.2	-39.9	19.7	0.00e+00	0	38	0	0	48	4276
2026-01-24 07:54:09.38	52.25	16.09	-38.2	-39.9	19.7	0.00e+00	0	38	0	0	48	4283
2026-01-24 07:54:10.38	52.03	16.10	-38.2	-39.9	19.7	0.00e+00	0	38	0	0	48	4266
2026-01-24 07:54:11.38	51.81	16.12	-38.3	-40.1	19.5	0.00e+00	0	38	0	0	48	4341
2026-01-24 07:54:12.38	51.59	16.13	-38.4	-40.2	19.4	0.00e+00	0	38	0	0	48	4395
2026-01-24 07:54:13.38	51.37	16.14	-38.5	-40.3	19.3	0.00e+00	0	38	0	0	48	4471
2026-01-24 07:54:14.37	51.16	16.16	-38.6	-40.4	19.2	0.00e+00	0	38	0	0	48	4516
2026-01-24 07:54:15.37	50.94	16.17	-38.8	-40.6	19.0	0.00e+00	0	38	0	0	48	4611
2026-01-24 07:54:16.37	50.72	16.18	-38.9	-40.7	18.9	0.00e+00	0	38	0	0	48	4673
2026-01-24 07:54:17.37	50.50	16.19	-38.8	-40.7	19.0	0.00e+00	0	38	0	0	48	4662
2026-01-24 07:54:18.37	50.28	16.20	-38.8	-40.6	19.1	0.00e+00	0	38	0	0	48	4616
2026-01-24 07:54:19.37	50.06	16.22	-38.7	-40.5	19.1	0.00e+00	0	38	0	0	48	4598
2026-01-24 07:54:20.36	49.85	16.23	-38.8	-40.6	19.1	0.00e+00	0	38	0	0	48	4613
2026-01-24 07:54:21.36	49.63	16.24	-38.8	-40.6	19.0	0.00e+00	0	38	0	0	48	4638
2026-01-24 07:54:22.35	49.41	16.25	-38.9	-40.7	19.0	0.00e+00	0	38	0	0	48	4657
2026-01-24 07:54:23.35	49.19	16.26	-38.8	-40.6	19.1	0.00e+00	0	38	0	0	48	4600
2026-01-24 07:54:24.35	48.97	16.26	-38.8	-40.6	19.1	0.00e+00	0	38	0	0	48	4612
2026-01-24 07:54:25.34	48.75	16.27	-38.9	-40.7	19.0	0.00e+00	0	38	0	0	48	4658
2026-01-24 07:54:26.34	48.53	16.28	-39.0	-40.8	19.0	0.00e+00	0	38	0	0	48	4714
2026-01-24 07:54:27.34	48.31	16.29	-39.0	-40.9	18.9	0.00e+00	0	38	0	0	48	4769
2026-01-24 07:54:28.34	48.09	16.30	-39.0	-40.8	18.9	0.00e+00	0	38	0	0	48	4756
2026-01-24 07:54:29.34	47.87	16.30	-38.8	-40.6	19.1	0.00e+00	0	38	0	0	48	4646
2026-01-24 07:54:30.34	47.65	16.31	-38.7	-40.5	19.2	0.00e+00	0	38	0	0	48	4557
2026-01-24 07:54:31.34	47.43	16.31	-38.6	-40.4	19.3	0.00e+00	0	39	0	0	48	4512
2026-01-24 07:54:32.34	47.21	16.32	-38.7	-40.5	19.2	0.00e+00	0	38	0	0	48	4576
2026-01-24 07:54:33.34	46.99	16.33	-38.6	-40.4	19.3	0.00e+00	0	38	0	0	48	4515
2026-01-24 07:54:34.33	46.77	16.33	-38.6	-40.4	19.3	0.00e+00	0	39	0	0	48	4500
2026-01-24 07:54:35.33	46.55	16.33	-38.5	-40.3	19.3	0.00e+00	0	38	0	0	48	4471
2026-01-24 07:54:36.33	46.32	16.34	-38.6	-40.4	19.2	0.00e+00	0	38	0	0	48	4515
2026-01-24 07:54:37.33	46.10	16.34	-38.8	-40.6	19.1	0.00e+00	0	38	0	0	48	4602
2026-01-24 07:54:38.33	45.88	16.34	-38.8	-40.5	19.1	0.00e+00	0	38	0	0	48	4597
2026-01-24 07:54:39.32	45.66	16.35	-38.8	-40.6	19.2	0.00e+00	0	38	0	0	48	4603
2026-01-24 07:54:40.32	45.44	16.35	-38.8	-40.6	19.1	0.00e+00	0	38	0	0	48	4614
2026-01-24 07:54:41.32	45.22	16.35	-38.9	-40.7	19.0	0.00e+00	0	38	0	0	48	4693
2026-01-24 07:54:42.32	45.00	16.35	-38.9	-40.7	19.0	0.00e+00	0	38	0	0	48	4689
2026-01-24 07:54:43.31	44.78	16.35	-38.9	-40.7	19.0	0.00e+00	0	38	0	0	48	4692
2026-01-24 07:54:44.31	44.56	16.35	-38.9	-40.7	19.0	0.00e+00	0	38	0	0	48	4666
2026-01-24 07:54:45.31	44.34	16.35	-38.8	-40.6	19.1	0.00e+00	0	38	0	0	48	4651
2026-01-24 07:54:46.31	44.12	16.35	-38.7	-40.5	19.2	0.00e+00	0	38	0	0	48	4568
2026-01-24 07:54:47.31	43.89	16.35	-38.6	-40.4	19.3	0.00e+00	0	38	0	0	48	4513
2026-01-24 07:54:48.31	43.67	16.35	-38.7	-40.4	19.3	0.00e+00	0	38	0	0	48	4532
2026-01-24 07:54:49.30	43.45	16.35	-38.6	-40.3	19.3	0.00e+00	0	38	0	0	48	4473
2026-01-24 07:54:50.30	43.23	16.34	-38.5	-40.2	19.4	0.00e+00	0	38	0	0	48	4437
2026-01-24 07:54:51.30	43.01	16.34	-38.5	-40.2	19.5	0.00e+00	0	39	0	0	48	4416
2026-01-24 07:54:52.29	42.79	16.34	-38.4	-40.2	19.4	0.00e+00	0	38	0	0	48	4411
2026-01-24 07:54:53.29	42.57	16.34	-38.5	-40.2	19.4	0.00e+00	0	38	0	0	48	4426
2026-01-24 07:54:54.28	42.35	16.33	-38.4	-40.2	19.5	0.00e+00	0	38	0	0	48	4397
2026-01-24 07:54:55.28	42.13	16.33	-38.4	-40.1	19.5	0.00e+00	0	38	0	0	48	4380
2026-01-24 07:54:56.28	41.91	16.32	-38.5	-40.3	19.4	0.00e+00	0	38	0	0	48	4458
2026-01-24 07:54:57.28	41.69	16.32	-38.5	-40.3	19.4	0.00e+00	0	38	0	0	48	4448
2026-01-24 07:54:58.28	41.47	16.31	-38.5	-40.3	19.4	0.00e+00	0	38	0	0	48	4450
2026-01-24 07:54:59.28	41.25	16.30	-38.6	-40.3	19.4	0.00e+00	0	38	0	0	48	4481
2026-01-24 07:55:00.28	41.03	16.30	-38.6	-40.4	19.4	0.00e+00	0	38	0	0	48	4506
2026-01-24 07:55:01.28	40.81	16.29	-38.5	-40.3	19.5	0.00e+00	0	38	0	0	48	4443
2026-01-24 07:55:02.28	40.59	16.28	-38.5	-40.2	19.5	0.00e+00	0	38	0	0	48	4421
2026-01-24 07:55:03.27	40.37	16.28	-38.5	-40.2	19.4	0.00e+00	0	38	0	0	48	4434
2026-01-24 07:55:04.27	40.15	16.27	-38.5	-40.2	19.5	0.00e+00	0	39	0	0	48	4412
2026-01-24 07:55:05.27	39.93	16.26	-38.5	-40.2	19.5	0.00e+00	0	39	0	0	48	4435
2026-01-24 07:55:06.26	39.71	16.25	-38.4	-40.1	19.5	0.00e+00	0	38	0	0	48	4391
2026-01-24 07:55:07.26	39.49	16.24	-38.5	-40.3	19.4	0.00e+00	0	38	0	0	48	4446
2026-01-24 07:55:08.26	39.27	16.23	-38.4	-40.1	19.6	0.00e+00	0	38	0	0	48	4364
2026-01-24 07:55:09.26	39.05	16.22	-38.4	-40.2	19.5	0.00e+00	0	38	0	0	48	4394
2026-01-24 07:55:10.26	38.83	16.21	-38.4	-40.1	19.6	0.00e+00	0	38	0	0	48	4367
2026-01-24 07:55:11.26	38.62	16.20	-38.4	-40.2	19.5	0.00e+00	0	38	0	0	48	4396
2026-01-24 07:55:12.26	38.40	16.19	-38.5	-40.2	19.5	0.00e+00	0	38	0	0	48	4428
2026-01-24 07:55:13.25	38.18	16.17	-38.7	-40.5	19.2	0.00e+00	0	38	0	0	48	4560
2026-01-24 07:55:14.25	37.96	16.16	-38.6	-40.4	19.3	0.00e+00	0	38	0	0	48	4527
2026-01-24 07:55:15.24	37.75	16.15	-38.8	-40.6	19.1	0.00e+00	0	38	0	0	48	4606
2026-01-24 07:55:16.24	37.53	16.14	-38.7	-40.5	19.2	0.00e+00	0	38	0	0	48	4593
2026-01-24 07:55:17.23	37.31	16.12	-38.7	-40.5	19.2	0.00e+00	0	38	0	0	48	4560
2026-01-24 07:55:18.23	37.09	16.11	-38.7	-40.5	19.2	0.00e+00	0	38	0	0	48	4574
2026-01-24 07:55:19.23	36.88	16.09	-38.7	-40.5	19.3	0.00e+00	0	38	0	0	48	4551
2026-01-24 07:55:20.23	36.66	16.08	-38.5	-40.2	19.5	0.00e+00	0	38	0	0	48	4428
2026-01-24 07:55:21.22	36.44	16.06	-38.5	-40.2	19.5	0.00e+00	0	38	0	0	48	4422
2026-01-24 07:55:22.22	36.23	16.05	-38.4	-40.2	19.6	0.00e+00	0	38	0	0	48	4407
2026-01-24 07:55:23.22	36.01	16.03	-38.5	-40.3	19.5	0.00e+00	0	38	0	0	48	4452
2026-01-24 07:55:24.22	35.79	16.01	-38.6	-40.3	19.4	0.00e+00	0	38	0	0	48	4489
2026-01-24 07:55:25.21	35.58	16.00	-38.7	-40.5	19.3	0.00e+00	0	38	0	0	48	4558
2026-01-24 07:55:26.21	35.36	15.98	-38.8	-40.6	19.1	0.00e+00	0	38	0	0	48	4635
2026-01-24 07:55:27.21	35.15	15.96	-38.8	-40.6	19.1	0.00e+00	0	38	0	0	48	4632
2026-01-24 07:55:28.20	34.94	15.94	-38.8	-40.7	19.1	0.00e+00	0	38	0	0	48	4660
2026-01-24 07:55:29.20	34.72	15.93	-38.8	-40.6	19.1	0.00e+00	0	38	0	0	48	4637
2026-01-24 07:55:30.20	34.51	15.91	-38.7	-40.5	19.2	0.00e+00	0	38	0	0	48	4593
2026-01-24 07:55:31.20	34.29	15.89	-38.7	-40.5	19.3	0.00e+00	0	39	0	0	48	4547
2026-01-24 07:55:32.20	34.08	15.87	-38.5	-40.3	19.4	0.00e+00	0	38	0	0	48	4446
2026-01-24 07:55:33.19	33.87	15.85	-38.5	-40.3	19.4	0.00e+00	0	38	0	0	48	4458
2026-01-24 07:55:34.19	33.65	15.83	-38.5	-40.3	19.4	0.00e+00	0	38	0	0	48	4443
2026-01-24 07:55:35.19	33.44	15.81	-38.5	-40.2	19.5	0.00e+00	0	38	0	0	48	4430
2026-01-24 07:55:36.19	33.23	15.78	-38.5	-40.2	19.5	0.00e+00	0	39	0	0	48	4437
2026-01-24 07:55:37.19	33.01	15.76	-38.5	-40.2	19.5	0.00e+00	0	38	0	0	48	4421
2026-01-24 07:55:38.19	32.80	15.74	-38.5	-40.3	19.4	0.00e+00	0	39	0	0	48	4443
2026-01-24 07:55:39.19	32.59	15.72	-38.4	-40.2	19.5	0.00e+00	0	39	0	0	48	4418
2026-01-24 07:55:40.19	32.38	15.70	-38.5	-40.3	19.4	0.00e+00	0	38	0	0	48	4450
2026-01-24 07:55:41.19	32.17	15.67	-38.4	-40.2	19.4	0.00e+00	0	38	0	0	48	4425
2026-01-24 07:55:42.18	31.96	15.65	-38.5	-40.3	19.4	0.00e+00	0	38	0	0	48	4443
2026-01-24 07:55:43.18	31.75	15.63	-38.5	-40.4	19.3	0.00e+00	0	38	0	0	48	4497
2026-01-24 07:55:44.18	31.54	15.60	-38.5	-40.3	19.4	0.00e+00	0	38	0	0	48	4468
2026-01-24 07:55:45.18	31.33	15.58	-38.5	-40.3	19.3	0.00e+00	0	39	0	0	48	4480
2026-01-24 07:55:46.18	31.12	15.55	-38.3	-40.1	19.6	0.00e+00	0	39	0	0	48	4360
2026-01-24 07:55:47.17	30.91	15.53	-38.3	-40.1	19.6	0.00e+00	0	38	0	0	48	4344
2026-01-24 07:55:48.17	30.70	15.50	-38.3	-40.0	19.6	0.00e+00	0	39	0	0	48	4337
2026-01-24 07:55:49.17	30.49	15.47	-38.3	-40.0	19.6	0.00e+00	0	38	0	0	48	4312
2026-01-24 07:55:50.17	30.28	15.45	-38.3	-40.1	19.6	0.00e+00	0	38	0	0	48	4350
2026-01-24 07:55:51.17	30.07	15.42	-38.4	-40.1	19.5	0.00e+00	0	38	0	0	48	4387
2026-01-24 07:55:52.17	29.87	15.39	-38.5	-40.2	19.4	0.00e+00	0	39	0	0	48	4441
2026-01-24 07:55:53.17	29.66	15.37	-38.5	-40.2	19.5	0.00e+00	0	38	0	0	48	4421
2026-01-24 07:55:54.17	29.45	15.34	-38.4	-40.1	19.5	0.00e+00	0	38	0	0	48	4380
2026-01-24 07:55:55.16	29.25	15.31	-38.5	-40.3	19.4	0.00e+00	0	38	0	0	48	4454
2026-01-24 07:55:56.16	29.04	15.28	-38.5	-40.3	19.4	0.00e+00	0	38	0	0	48	4466
2026-01-24 07:55:57.16	28.84	15.25	-38.6	-40.4	19.3	0.00e+00	0	38	0	0	48	4499
2026-01-24 07:55:58.16	28.63	15.22	-38.5	-40.4	19.3	0.00e+00	0	38	0	0	48	4498
2026-01-24 07:55:59.15	28.43	15.20	-38.5	-40.4	19.3	0.00e+00	0	38	0	0	48	4506
2026-01-24 07:56:00.15	28.23	15.17	-38.6	-40.4	19.2	0.00e+00	0	38	0	0	48	4540
2026-01-24 07:56:01.15	28.02	15.14	-38.5	-40.4	19.2	0.00e+00	0	39	0	0	48	4507
2026-01-24 07:56:02.14	27.82	15.11	-38.4	-40.3	19.3	0.00e+00	0	38	0	0	48	4477
2026-01-24 07:56:03.14	27.62	15.07	-38.4	-40.3	19.4	0.00e+00	0	39	0	0	48	4448
2026-01-24 07:56:04.14	27.42	15.04	-38.3	-40.2	19.4	0.00e+00	0	38	0	0	48	4401
2026-01-24 07:56:05.13	27.22	15.01	-38.4	-40.2	19.4	0.00e+00	0	38	0	0	48	4416
2026-01-24 07:56:06.13	27.01	14.98	-38.4	-40.2	19.4	0.00e+00	0	38	0	0	48	4432
2026-01-24 07:56:07.13	26.81	14.95	-38.4	-40.2	19.4	0.00e+00	0	38	0	0	48	4425
2026-01-24 07:56:08.13	26.61	14.92	-38.4	-40.2	19.5	0.00e+00	0	38	0	0	48	4399
2026-01-24 07:56:09.12	26.41	14.88	-38.5	-40.3	19.4	0.00e+00	0	39	0	0	48	4468
2026-01-24 07:56:10.12	26.21	14.85	-38.5	-40.3	19.3	0.00e+00	0	39	0	0	48	4487
2026-01-24 07:56:11.12	26.01	14.82	-38.6	-40.4	19.2	0.00e+00	0	39	0	0	48	4528
2026-01-24 07:56:12.12	25.81	14.78	-38.7	-40.6	19.1	0.00e+00	0	38	0	0	48	4606
2026-01-24 07:56:13.12	25.62	14.75	-38.7	-40.5	19.1	0.00e+00	0	38	0	0	48	4568
2026-01-24 07:56:14.12	25.42	14.72	-38.7	-40.5	19.1	0.00e+00	0	39	0	0	48	4587
2026-01-24 07:56:15.12	25.22	14.68	-38.7	-40.5	19.1	0.00e+00	0	38	0	0	48	4571
2026-01-24 07:56:16.12	25.02	14.65	-38.7	-40.6	19.0	0.00e+00	0	39	0	0	48	4608
2026-01-24 07:56:17.12	24.83	14.61	-38.7	-40.6	19.1	0.00e+00	0	39	0	0	48	4602
2026-01-24 07:56:18.11	24.63	14.58	-38.6	-40.5	19.1	0.00e+00	0	39	0	0	48	4561
2026-01-24 07:56:19.11	24.44	14.54	-38.7	-40.5	19.1	0.00e+00	0	39	0	0	48	4598
2026-01-24 07:56:20.11	24.24	14.50	-38.7	-40.5	19.1	0.00e+00	0	39	0	0	48	4595
2026-01-24 07:56:21.11	24.05	14.47	-38.6	-40.5	19.2	0.00e+00	0	39	0	0	48	4558
2026-01-24 07:56:22.11	23.85	14.43	-38.6	-40.5	19.2	0.00e+00	0	38	0	0	48	4564
2026-01-24 07:56:23.11	23.66	14.40	-38.6	-40.4	19.2	0.00e+00	0	39	0	0	48	4538
2026-01-24 07:56:24.11	23.47	14.36	-38.6	-40.5	19.2	0.00e+00	0	39	0	0	48	4547
2026-01-24 07:56:25.11	23.27	14.32	-38.7	-40.6	19.1	0.00e+00	0	39	0	0	48	4599
2026-01-24 07:56:26.10	23.08	14.28	-38.7	-40.6	19.1	0.00e+00	0	38	0	0	48	4605
2026-01-24 07:56:27.10	22.89	14.25	-38.8	-40.6	19.0	0.00e+00	0	39	0	0	48	4644
2026-01-24 07:56:28.10	22.70	14.21	-38.7	-40.6	19.0	0.00e+00	0	39	0	0	48	4616
2026-01-24 07:56:29.10	22.51	14.17	-38.6	-40.5	19.1	0.00e+00	0	39	0	0	48	4557
2026-01-24 07:56:30.09	22.32	14.13	-38.4	-40.5	19.1	0.00e+00	0	38	0	0	48	4548
2026-01-24 07:56:31.08	22.13	14.09	-37.8	-40.4	18.9	0.00e+00	0	39	0	0	47	4776
2026-01-24 07:56:32.08	21.94	14.05	-37.3	-40.4	18.8	0.00e+00	0	39	0	0	46	5085
2026-01-24 07:56:33.07	21.76	14.01	-37.2	-40.5	18.6	0.00e+00	0	39	0	0	46	5118
2026-01-24 07:56:34.07	21.57	13.98	-37.6	-40.6	18.6	0.00e+00	0	39	0	0	46	5177
2026-01-24 07:56:35.07	21.38	13.94	-38.2	-40.6	18.7	0.00e+00	0	39	0	0	47	4902
2026-01-24 07:56:36.07	21.19	13.90	-38.6	-40.6	18.8	0.00e+00	0	38	0	0	47	4923
2026-01-24 07:56:37.07	21.01	13.86	-38.8	-40.7	18.9	0.00e+00	0	39	0	0	48	4667
2026-01-24 07:56:38.07	20.82	13.81	-38.8	-40.7	18.9	0.00e+00	0	39	0	0	48	4691
2026-01-24 07:56:39.07	20.63	13.77	-38.8	-40.8	18.8	0.00e+00	0	39	0	0	48	4718
2026-01-24 07:56:40.07	20.45	13.73	-38.6	-40.5	19.1	0.00e+00	0	39	0	0	48	4565
2026-01-24 07:56:41.06	20.27	13.69	-38.4	-40.4	19.2	0.00e+00	0	39	0	0	48	4495
2026-01-24 07:56:42.06	20.08	13.65	-38.3	-40.2	19.4	0.00e+00	0	39	0	0	48	4435
2026-01-24 07:56:43.06	19.90	13.61	-38.3	-40.2	19.4	0.00e+00	0	39	0	0	48	4421
2026-01-24 07:56:44.05	19.72	13.57	-38.3	-40.2	19.4	0.00e+00	0	39	0	0	48	4400
2026-01-24 07:56:45.05	19.53	13.53	-38.4	-40.2	19.3	0.00e+00	0	39	0	0	48	4435
2026-01-24 07:56:46.05	19.35	13.48	-38.4	-40.3	19.3	0.00e+00	0	39	0	0	48	4442
2026-01-24 07:56:47.05	19.17	13.44	-38.5	-40.4	19.2	0.00e+00	0	39	0	0	48	4520
2026-01-24 07:56:48.05	18.99	13.40	-38.7	-40.5	19.1	0.00e+00	0	39	0	0	48	4582
2026-01-24 07:56:49.05	18.81	13.35	-38.7	-40.6	19.0	0.00e+00	0	39	0	0	48	4611
2026-01-24 07:56:50.04	18.63	13.31	-38.9	-40.7	18.9	0.00e+00	0	39	0	0	48	4688
2026-01-24 07:56:51.04	18.45	13.27	-38.9	-40.8	18.8	0.00e+00	0	39	0	0	48	4711
2026-01-24 07:56:52.04	18.27	13.23	-39.0	-40.9	18.7	0.00e+00	0	39	0	0	48	4772
2026-01-24 07:56:53.04	18.09	13.18	-38.9	-40.8	18.8	0.00e+00	0	39	0	0	48	4715
2026-01-24 07:56:54.03	17.92	13.14	-38.9	-40.7	18.9	0.00e+00	0	39	0	0	48	4680
2026-01-24 07:56:55.03	17.74	13.09	-38.9	-40.7	18.9	0.00e+00	0	39	0	0	48	4673
2026-01-24 07:56:56.03	17.56	13.05	-38.9	-40.7	18.9	0.00e+00	0	39	0	0	48	4690
2026-01-24 07:56:57.03	17.39	13.01	-38.8	-40.7	19.0	0.00e+00	0	39	0	0	48	4657
2026-01-24 07:56:58.03	17.21	12.96	-38.8	-40.6	19.0	0.00e+00	0	39	0	0	48	4650
2026-01-24 07:56:59.03	17.04	12.92	-38.9	-40.8	18.9	0.00e+00	0	38	0	0	48	4712
2026-01-24 07:57:00.03	16.86	12.87	-38.9	-40.8	18.8	0.00e+00	0	39	0	0	48	4754
2026-01-24 07:57:01.02	16.69	12.83	-39.0	-41.0	18.7	0.00e+00	0	39	0	0	48	4830
2026-01-24 07:57:02.02	16.52	12.78	-39.1	-41.2	18.6	0.00e+00	0	39	0	0	48	4927
2026-01-24 07:57:03.02	16.34	12.73	-39.1	-41.2	18.5	0.00e+00	0	39	0	0	48	4952
2026-01-24 07:57:04.01	16.17	12.69	-39.2	-41.3	18.3	0.00e+00	0	39	0	0	49	4758
2026-01-24 07:57:05.01	16.00	12.64	-39.2	-41.3	18.3	0.00e+00	0	39	0	0	49	4758
2026-01-24 07:57:06.01	15.83	12.60	-39.1	-41.3	18.4	0.00e+00	0	38	0	0	49	4706
2026-01-24 07:57:07.00	15.66	12.55	-39.1	-41.3	18.4	0.00e+00	0	39	0	0	49	4710
2026-01-24 07:57:08.00	15.49	12.51	-39.1	-41.2	18.4	0.00e+00	0	38	0	0	49	4686
2026-01-24 07:57:09.00	15.32	12.46	-39.1	-41.2	18.4	0.00e+00	0	39	0	0	49	4679
2026-01-24 07:57:10.00	15.15	12.41	-38.9	-41.0	18.6	0.00e+00	0	39	0	0	49	4559
2026-01-24 07:57:11.00	14.98	12.37	-38.9	-41.0	18.5	0.00e+00	0	39	0	0	49	4583
2026-01-24 07:57:12.00	14.82	12.32	-38.7	-40.8	18.7	0.00e+00	0	39	0	0	49	4492
2026-01-24 07:57:13.00	14.65	12.27	-38.8	-40.9	18.7	0.00e+00	0	39	0	0	49	4512
2026-01-24 07:57:13.99	14.48	12.22	-38.8	-40.9	18.7	0.00e+00	0	39	0	0	49	4507
2026-01-24 07:57:14.99	14.32	12.18	-38.8	-40.9	18.7	0.00e+00	0	38	0	0	49	4506
2026-01-24 07:57:15.99	14.15	12.13	-38.8	-40.8	18.8	0.00e+00	0	39	0	0	49	4457
2026-01-24 07:57:16.99	13.99	12.08	-38.9	-40.9	18.7	0.00e+00	0	39	0	0	49	4502
2026-01-24 07:57:17.99	13.82	12.03	-38.9	-40.8	18.7	0.00e+00	0	39	0	0	49	4462
2026-01-24 07:57:18.99	13.66	11.99	-38.8	-40.7	18.9	0.00e+00	0	39	0	0	49	4392
2026-01-24 07:57:19.98	13.49	11.94	-38.9	-40.7	18.8	0.00e+00	0	39	0	0	49	4440
2026-01-24 07:57:20.98	13.33	11.89	-38.9	-40.8	18.7	0.00e+00	0	39	0	0	49	4488
2026-01-24 07:57:21.98	13.17	11.84	-39.0	-40.9	18.6	0.00e+00	0	39	0	0	49	4505
2026-01-24 07:57:22.98	13.01	11.79	-39.1	-41.1	18.5	0.00e+00	0	39	0	0	49	4601
2026-01-24 07:57:23.97	12.85	11.74	-39.2	-41.2	18.3	0.00e+00	0	39	0	0	49	4679
2026-01-24 07:57:24.97	12.69	11.70	-39.3	-41.3	18.2	0.00e+00	0	39	0	0	49	4725
2026-01-24 07:57:25.98	12.52	11.65	-39.3	-41.3	18.1	0.00e+00	0	39	0	0	49	4738
2026-01-24 07:57:26.97	12.37	11.60	-39.4	-41.4	18.0	0.00e+00	0	39	0	0	49	4794
2026-01-24 07:57:27.97	12.21	11.55	-39.4	-41.5	18.0	0.00e+00	0	39	0	0	49	4824
2026-01-24 07:57:28.97	12.05	11.50	-39.4	-41.4	18.1	0.00e+00	0	39	0	0	49	4794
2026-01-24 07:57:29.97	11.89	11.45	-39.4	-41.4	18.1	0.00e+00	0	39	0	0	49	4808
2026-01-24 07:57:30.97	11.73	11.40	-39.2	-41.3	18.2	0.00e+00	0	39	0	0	49	4708
2026-01-24 07:57:31.97	11.58	11.35	-39.1	-41.3	18.2	0.00e+00	0	39	0	0	49	4733
2026-01-24 07:57:32.97	11.42	11.30	-39.2	-41.4	18.1	0.00e+00	0	39	0	0	49	4806
2026-01-24 07:57:33.97	11.26	11.25	-39.2	-41.4	18.1	0.00e+00	0	39	0	0	49	4802
2026-01-24 07:57:34.96	11.11	11.20	-39.2	-41.4	18.1	0.00e+00	0	39	0	0	49	4804
2026-01-24 07:57:35.96	10.95	11.15	-39.2	-41.5	18.1	0.00e+00	0	39	0	0	49	4827
2026-01-24 07:57:36.96	10.80	11.10	-39.2	-41.5	18.1	0.00e+00	0	39	0	0	49	4825
2026-01-24 07:57:37.96	10.65	11.05	-39.2	-41.5	18.1	0.00e+00	0	39	0	0	49	4820
2026-01-24 07:57:38.96	10.49	11.00	-39.3	-41.7	18.0	0.00e+00	0	39	0	0	49	4928
2026-01-24 07:57:39.97	10.34	10.95	-39.3	-41.6	18.1	0.00e+00	0	39	0	0	49	4874
2026-01-24 07:57:40.96	10.19	10.90	-39.3	-41.6	18.0	0.00e+00	0	39	0	0	49	4888
2026-01-24 07:57:41.96	10.04	10.85	-39.3	-41.7	17.9	0.00e+00	0	39	0	0	49	4973
2026-01-24 07:57:42.96	9.88	10.80	-39.1	-41.6	18.0	0.00e+00	0	39	0	0	49	4900
2026-01-24 07:57:43.96	9.73	10.75	-39.0	-41.6	18.1	0.00e+00	0	39	0	0	49	4874
2026-01-24 07:57:44.96	9.58	10.70	-39.0	-41.6	18.0	0.00e+00	0	39	0	0	49	4897
2026-01-24 07:57:45.96	9.43	10.65	-39.0	-41.7	18.0	0.00e+00	0	39	0	0	49	4933
2026-01-24 07:57:46.96	9.28	10.59	-39.1	-41.7	18.0	0.00e+00	0	39	0	0	49	4935
2026-01-24 07:57:47.96	9.14	10.54	-39.2	-41.8	17.9	0.00e+00	0	39	0	0	49	4990
2026-01-24 07:57:48.95	8.99	10.49	-39.2	-41.8	17.8	0.00e+00	0	39	0	0	49	5034
2026-01-24 07:57:49.95	8.84	10.44	-39.3	-41.8	17.8	0.00e+00	0	39	0	0	49	5024
2026-01-24 07:57:50.95	8.70	10.39	-39.4	-41.8	17.8	0.00e+00	0	39	0	0	49	5006
2026-01-24 07:57:51.95	8.55	10.34	-39.5	-41.9	17.7	0.00e+00	0	39	0	0	49	5052
2026-01-24 07:57:52.95	8.40	10.29	-39.4	-41.8	17.8	0.00e+00	0	39	0	0	49	4998
2026-01-24 07:57:53.94	8.26	10.24	-39.3	-41.6	17.9	0.00e+00	0	39	0	0	49	4899
2026-01-24 07:57:54.94	8.11	10.18	-39.3	-41.6	18.0	0.00e+00	0	39	0	0	49	4886
2026-01-24 07:57:55.94	7.97	10.13	-39.3	-41.5	18.0	0.00e+00	0	39	0	0	49	4868
2026-01-24 07:57:56.94	7.83	10.08	-39.1	-41.3	18.2	0.00e+00	0	39	0	0	49	4717
2026-01-24 07:57:57.94	7.68	10.03	-39.2	-41.3	18.2	0.00e+00	0	39	0	0	49	4739
2026-01-24 07:57:58.94	7.54	9.98	-39.1	-41.3	18.3	0.00e+00	0	39	0	0	49	4711
2026-01-24 07:57:59.94	7.40	9.92	-39.2	-41.3	18.2	0.00e+00	0	39	0	0	49	4724
2026-01-24 07:58:00.94	7.26	9.87	-39.3	-41.4	18.1	0.00e+00	0	39	0	0	49	4795
2026-01-24 07:58:01.94	7.12	9.82	-39.2	-41.2	18.3	0.00e+00	0	39	0	0	49	4685
2026-01-24 07:58:02.93	6.98	9.77	-39.3	-41.3	18.3	0.00e+00	0	39	0	0	49	4740
2026-01-24 07:58:03.93	6.84	9.72	-39.4	-41.4	18.1	0.00e+00	0	39	0	0	49	4798
2026-01-24 07:58:04.92	6.70	9.66	-39.3	-41.4	18.2	0.00e+00	0	39	0	0	49	4791
2026-01-24 07:58:05.91	6.56	9.61	-39.3	-41.3	18.2	0.00e+00	0	39	0	0	49	4756
2026-01-24 07:58:06.92	6.42	9.56	-39.4	-41.5	18.0	0.00e+00	0	39	0	0	49	4864
2026-01-24 07:58:07.91	6.28	9.51	-39.3	-41.5	18.0	0.00e+00	0	39	0	0	49	4865
2026-01-24 07:58:08.92	6.14	9.45	-39.2	-41.4	18.1	0.00e+00	0	39	0	0	49	4812
2026-01-24 07:58:09.91	6.01	9.40	-39.2	-41.5	18.0	0.00e+00	0	39	0	0	49	4819
2026-01-24 07:58:10.91	5.87	9.35	-39.1	-41.4	18.1	0.00e+00	0	39	0	0	49	4782
2026-01-24 07:58:11.90	5.74	9.30	-39.2	-41.5	18.0	0.00e+00	0	39	0	0	49	4829
2026-01-24 07:58:12.90	5.60	9.25	-39.2	-41.4	18.1	0.00e+00	0	39	0	0	49	4804
2026-01-24 07:58:13.90	5.47	9.19	-39.3	-41.5	18.0	0.00e+00	0	39	0	0	49	4837
2026-01-24 07:58:14.89	5.33	9.14	-39.2	-41.4	18.1	0.00e+00	0	39	0	0	49	4776
2026-01-24 07:58:15.90	5.20	9.09	-39.4	-41.6	17.9	0.00e+00	0	39	0	0	49	4876
2026-01-24 07:58:16.89	5.07	9.03	-39.3	-41.4	18.1	0.00e+00	0	39	0	0	49	4806
2026-01-24 07:58:17.89	4.93	8.98	-44.0	-48.7	11.2	0.00e+00	0	39	0	0	58	6646
2026-01-24 07:58:18.89	4.80	8.93	-46.9	-60.8	3.8	1.49e+00	0	39	104	0	64	18769
2026-01-24 07:58:19.89	4.67	8.88	-47.4	-61.1	3.8	1.49e+00	0	39	104	0	65	18500
2026-01-24 07:58:20.88	4.54	8.82	-47.0	-61.3	3.8	1.49e+00	0	39	104	0	66	17719
2026-01-24 07:58:21.88	4.41	8.77	-47.4	-61.3	3.8	1.49e+00	0	39	104	0	65	18934
2026-01-24 07:58:22.88	4.28	8.72	-48.4	-61.4	3.8	1.49e+00	0	39	104	0	67	16968
2026-01-24 07:58:23.88	4.15	8.66	-48.1	-61.5	3.8	1.49e+00	0	39	104	0	67	17121
2026-01-24 07:58:24.88	4.02	8.61	-48.2	-61.5	3.8	1.49e+00	0	39	104	0	67	17175
2026-01-24 07:58:25.88	3.89	8.56	-48.0	-61.5	3.8	1.49e+00	0	39	104	0	67	17262
2026-01-24 07:58:26.88	3.76	8.50	-48.6	-61.6	3.8	1.49e+00	0	39	104	0	67	17330
2026-01-24 07:58:27.87	3.63	8.45	-48.4	-61.6	3.8	1.49e+00	0	39	104	0	67	17317
2026-01-24 07:58:28.87	3.50	8.40	-48.2	-61.6	3.8	1.49e+00	0	39	104	0	67	17450
2026-01-24 07:58:29.87	3.38	8.35	-48.5	-61.6	3.8	1.49e+00	0	39	104	0	67	17405
2026-01-24 07:58:30.87	3.25	8.29	-48.6	-61.6	3.8	1.49e+00	0	39	104	0	67	17428
2026-01-24 07:58:31.87	3.12	8.24	-48.4	-61.6	3.8	1.49e+00	0	39	104	0	67	17363
2026-01-24 07:58:32.86	3.00	8.19	-48.6	-61.6	3.8	1.49e+00	0	39	104	0	67	17462
2026-01-24 07:58:33.86	2.87	8.13	-48.3	-61.6	3.8	1.49e+00	0	39	104	0	67	17411
2026-01-24 07:58:34.86	2.75	8.08	-48.5	-61.6	3.8	1.49e+00	0	39	104	0	67	17415
2026-01-24 07:58:35.86	2.62	8.03	-48.6	-61.6	3.8	1.49e+00	0	39	104	0	67	17465
2026-01-24 07:58:36.85	2.50	7.97	-48.6	-61.8	3.8	1.49e+00	0	39	104	0	68	16849
2026-01-24 07:58:37.85	2.38	7.92	-48.9	-61.8	3.8	1.49e+00	0	39	104	0	68	16836
2026-01-24 07:58:38.85	2.25	7.87	-48.9	-61.8	3.8	1.49e+00	0	39	104	0	68	16794
2026-01-24 07:58:39.85	2.13	7.81	-48.9	-61.8	3.8	1.49e+00	0	39	104	0	68	16751
2026-01-24 07:58:40.85	2.01	7.76	-48.7	-61.8	3.8	1.49e+00	0	39	104	0	68	16816
2026-01-24 07:58:41.85	1.89	7.71	-48.8	-61.8	3.8	1.49e+00	0	39	104	0	68	16812
2026-01-24 07:58:42.85	1.77	7.65	-48.8	-61.8	3.8	1.49e+00	0	39	104	0	68	16755
2026-01-24 07:58:43.84	1.65	7.60	-48.8	-61.8	3.8	1.49e+00	0	39	104	0	68	16763
2026-01-24 07:58:44.84	1.53	7.55	-48.6	-61.8	3.8	1.49e+00	0	39	104	0	68	16817
2026-01-24 07:58:45.84	1.41	7.49	-48.7	-61.8	3.8	1.49e+00	0	39	104	0	68	16810
2026-01-24 07:58:46.83	1.29	7.44	-48.6	-61.8	3.8	1.49e+00	0	39	104	0	68	16733
2026-01-24 07:58:47.83	1.17	7.39	-48.6	-61.8	3.8	1.49e+00	0	39	104	0	68	16773
2026-01-24 07:58:48.82	1.05	7.33	-48.6	-61.7	3.8	1.49e+00	0	39	104	0	68	16694
2026-01-24 07:58:49.82	0.93	7.28	-48.6	-61.8	3.8	1.49e+00	0	39	104	0	68	16735
2026-01-24 07:58:50.81	0.82	7.23	-48.6	-61.7	3.8	1.49e+00	0	39	104	0	68	16684
2026-01-24 07:58:51.81	0.70	7.17	-48.6	-61.8	3.8	1.49e+00	0	39	104	0	68	16701
2026-01-24 07:58:52.81	0.58	7.12	-48.6	-61.7	3.8	1.49e+00	0	39	104	0	68	16669
2026-01-24 07:58:53.81	0.47	7.07	-48.6	-61.8	3.8	1.49e+00	0	39	104	0	68	16744
2026-01-24 07:58:54.81	0.35	7.01	-48.6	-61.7	3.8	1.49e+00	0	39	104	0	68	16689
2026-01-24 07:58:55.81	0.24	6.96	-48.6	-61.7	3.8	1.49e+00	0	39	104	0	68	16626
2026-01-24 07:58:56.80	0.12	6.91	-48.6	-61.7	3.8	1.49e+00	0	39	104	0	68	16659
2026-01-24 07:58:57.80	0.01	6.85	-48.6	-61.7	3.8	1.49e+00	0	39	104	0	68	16685
2026-01-24 07:58:58.80	359.89	6.80	-48.6	-61.7	3.8	1.49e+00	0	39	104	0	68	16667
2026-01-24 07:58:59.80	359.78	6.75	-48.6	-61.7	3.8	1.49e+00	0	39	104	0	68	16661
2026-01-24 07:59:00.79	359.67	6.69	-48.6	-61.7	3.8	1.49e+00	0	39	104	0	68	16641
2026-01-24 07:59:01.79	359.56	6.64	-48.6	-61.7	3.8	1.49e+00	0	39	104	0	68	16669
2026-01-24 07:59:02.79	359.44	6.59	-48.6	-61.7	3.8	1.49e+00	0	39	104	0	68	16601
2026-01-24 07:59:03.79	359.33	6.53	-48.6	-61.7	3.8	1.49e+00	0	39	104	0	68	16661
2026-01-24 07:59:04.79	359.22	6.48	-48.6	-61.7	3.8	1.49e+00	0	39	104	0	68	16642
2026-01-24 07:59:05.78	359.11	6.43	-48.6	-61.7	3.8	1.49e+00	0	39	104	0	68	16620
2026-01-24 07:59:06.78	359.00	6.37	-48.6	-61.7	3.8	1.49e+00	0	39	104	0	68	16683
2026-01-24 07:59:07.78	358.89	6.32	-48.6	-61.7	3.8	1.49e+00	0	39	104	0	68	16601
2026-01-24 07:59:08.77	358.78	6.27	-48.6	-61.7	3.8	1.49e+00	0	39	104	0	68	16654
2026-01-24 07:59:09.77	358.67	6.21	-48.6	-61.8	3.8	1.49e+00	0	39	104	0	68	16700
2026-01-24 07:59:10.77	358.56	6.16	-48.6	-61.7	3.8	1.49e+00	0	39	104	0	68	16601
2026-01-24 07:59:11.77	358.45	6.11	-48.6	-61.7	3.8	1.49e+00	0	39	104	0	68	16676
2026-01-24 07:59:12.76	358.35	6.05	-48.6	-61.7	3.8	1.49e+00	0	39	104	0	68	16610
2026-01-24 07:59:13.76	358.24	6.00	-48.6	-61.7	3.8	1.49e+00	0	39	104	0	68	16664
2026-01-24 07:59:14.76	358.13	5.95	-48.6	-61.7	3.8	1.49e+00	0	39	104	0	68	16578
2026-01-24 07:59:15.75	358.02	5.89	-48.6	-61.7	3.8	1.49e+00	0	39	104	0	68	16627
2026-01-24 07:59:16.75	357.92	5.84	-48.6	-61.7	3.8	1.49e+00	0	39	104	0	68	16602
2026-01-24 07:59:17.75	357.81	5.79	-48.6	-61.7	3.8	1.49e+00	0	39	104	0	68	16569
2026-01-24 07:59:18.74	357.71	5.73	-48.6	-61.7	3.8	1.49e+00	0	39	104	0	68	16606
2026-01-24 07:59:19.74	357.60	5.68	-48.6	-61.7	3.8	1.49e+00	0	39	104	0	68	16621
2026-01-24 07:59:20.74	357.50	5.63	-48.6	-61.7	3.8	1.49e+00	0	39	104	0	68	16664
2026-01-24 07:59:21.74	357.39	5.57	-48.6	-61.7	3.8	1.49e+00	0	39	104	0	68	16541
2026-01-24 07:59:22.73	357.29	5.52	-48.6	-61.7	3.8	1.49e+00	0	39	104	0	68	16627
2026-01-24 07:59:23.73	357.18	5.47	-48.6	-61.7	3.8	1.49e+00	0	39	104	0	68	16652
2026-01-24 07:59:24.73	357.08	5.42	-48.6	-61.7	3.8	1.49e+00	0	39	104	0	68	16614
2026-01-24 07:59:25.73	356.98	5.36	-48.6	-61.7	3.8	1.49e+00	0	39	104	0	68	16554
2026-01-24 07:59:26.72	356.88	5.31	-48.6	-61.7	3.8	1.49e+00	0	39	104	0	68	16608
2026-01-24 07:59:27.72	356.77	5.26	-48.6	-61.7	3.8	1.49e+00	0	39	104	0	68	16566
2026-01-24 07:59:28.72	356.67	5.20	-48.6	-61.7	3.8	1.49e+00	0	39	104	0	68	16557
2026-01-24 07:59:29.71	356.57	5.15	-48.6	-61.7	3.8	1.49e+00	0	39	104	0	68	16634
2026-01-24 07:59:30.71	356.47	5.10	-48.6	-61.7	3.8	1.49e+00	0	39	104	0	68	16591
2026-01-24 07:59:31.71	356.37	5.04	-48.6	-61.7	3.8	1.49e+00	0	39	104	0	68	16546
2026-01-24 07:59:32.70	356.27	4.99	-48.6	-61.7	3.8	1.49e+00	0	39	104	0	68	16596

#Closed at: 2026-01-24 07:59:33
#Recorded file [0 MB]: D:/Data/31040_260124_104956.dat