passes_logs/2026/01/24/T1/T1__20260124_111023_AQUA_rec.log

#Pass ID: 20260124_111023_AQUA
#Satellite: AQUA
#Configuration: AQUA
#almurnet v.1.7.20251203
#Start time: 2026-01-24 11:10:24

#Version: 2.0.20230620
#Station: T1
#Location: 37.570604 lon 55.790049 lat
#TLE: 1 27424U 02022A   26023.58972979  .00001888  00000+0  38753-3 0  9997
#TLE: 2 27424  98.4100 350.1620 0001948  68.5331  43.0280 14.61852003262140

#Time	Az	El	Level	Level2	SNR	BER	BlckErr	Temp	State	Recorded	gain1	gain2
2026-01-24 11:10:24.99	143.42	5.11	-50.4	-70.5	3.8	7.46e-01	0	35	0	0	71	38559
2026-01-24 11:10:25.98	143.38	5.19	-50.4	-70.0	3.8	7.43e-01	0	35	104	0	71	36115
2026-01-24 11:10:26.97	143.35	5.26	-50.4	-69.7	3.8	7.44e-01	0	35	104	0	71	34896
2026-01-24 11:10:27.96	143.31	5.33	-50.4	-69.3	3.8	7.47e-01	0	35	104	0	71	33659
2026-01-24 11:10:28.96	143.28	5.41	-50.4	-69.0	3.8	7.44e-01	0	35	104	0	71	32298
2026-01-24 11:10:29.95	143.24	5.48	-50.4	-68.7	3.8	7.42e-01	0	35	104	0	71	31344
2026-01-24 11:10:30.94	143.21	5.56	-50.4	-68.4	3.8	7.42e-01	0	35	104	0	71	30321
2026-01-24 11:10:31.94	143.17	5.63	-50.4	-68.1	3.8	7.43e-01	0	35	104	0	71	29148
2026-01-24 11:10:32.93	143.14	5.71	-50.4	-67.9	4.0	7.41e-01	0	35	104	0	71	28464
2026-01-24 11:10:33.92	143.10	5.78	-50.4	-67.3	4.1	7.34e-01	0	35	104	0	71	26631
2026-01-24 11:10:34.92	143.07	5.86	-50.4	-67.2	4.1	7.35e-01	0	36	104	0	71	26213
2026-01-24 11:10:35.91	143.03	5.94	-50.4	-67.4	4.2	7.45e-01	0	36	104	0	71	26778
2026-01-24 11:10:36.90	142.99	6.01	-50.3	-66.6	4.3	7.31e-01	0	36	104	0	71	24676
2026-01-24 11:10:37.90	142.96	6.09	-50.3	-66.5	3.9	7.43e-01	0	36	104	0	71	24320
2026-01-24 11:10:38.89	142.92	6.17	-50.3	-66.6	4.2	7.39e-01	0	36	104	0	71	24559
2026-01-24 11:10:39.88	142.88	6.24	-50.3	-66.0	4.5	7.22e-01	0	36	104	0	71	22940
2026-01-24 11:10:40.87	142.85	6.32	-50.3	-66.0	4.5	7.24e-01	0	36	104	0	71	22999
2026-01-24 11:10:41.87	142.81	6.40	-50.3	-66.4	4.4	7.26e-01	0	36	104	0	71	23857
2026-01-24 11:10:42.86	142.77	6.48	-50.3	-67.2	3.8	7.43e-01	0	36	104	0	71	26360
2026-01-24 11:10:43.85	142.73	6.55	-50.4	-67.9	4.0	7.43e-01	0	36	104	0	71	28521
2026-01-24 11:10:44.85	142.69	6.63	-50.4	-68.9	3.8	7.44e-01	0	36	104	0	71	32006
2026-01-24 11:10:45.84	142.66	6.71	-50.4	-69.9	3.8	7.43e-01	0	36	104	0	71	35794
2026-01-24 11:10:46.83	142.62	6.79	-50.4	-70.5	3.8	7.45e-01	0	36	104	0	71	38409
2026-01-24 11:10:47.83	142.58	6.87	-50.4	-70.0	3.8	7.47e-01	0	36	104	0	71	36335
2026-01-24 11:10:48.82	142.54	6.95	-50.4	-68.7	3.8	7.44e-01	0	36	104	0	71	31107
2026-01-24 11:10:49.81	142.50	7.03	-50.3	-66.6	4.4	7.30e-01	0	36	104	0	71	24482
2026-01-24 11:10:50.81	142.46	7.11	-50.3	-65.7	4.0	7.38e-01	0	36	104	0	71	22048
2026-01-24 11:10:51.80	142.42	7.19	-50.2	-64.0	5.6	6.96e-01	0	36	0	0	71	18297
2026-01-24 11:10:52.79	142.38	7.27	-50.1	-63.0	6.4	6.79e-01	0	36	0	1572864	71	16242
2026-01-24 11:10:53.79	142.34	7.35	-50.1	-62.0	7.2	6.57e-01	0	36	0	3670016	71	14445
2026-01-24 11:10:54.78	142.30	7.43	-49.9	-60.9	8.3	6.45e-01	0	36	0	5242880	71	12694
2026-01-24 11:10:55.77	142.26	7.51	-49.7	-59.4	9.8	6.27e-01	0	36	0	7340032	71	10689
2026-01-24 11:10:56.76	142.22	7.59	-49.4	-57.6	11.7	6.15e-01	0	36	0	8912896	70	9245
2026-01-24 11:10:57.76	142.18	7.67	-48.8	-55.6	13.8	6.09e-01	0	36	0	11010048	69	7741
2026-01-24 11:10:58.75	142.13	7.76	-48.2	-53.9	15.6	6.08e-01	0	36	0	13107200	68	6740
2026-01-24 11:10:59.74	142.09	7.84	-47.5	-52.3	17.1	6.07e-01	0	36	0	14680064	67	5956
2026-01-24 11:11:00.74	142.05	7.92	-46.8	-51.1	18.3	6.07e-01	0	36	0	16777216	65	5801
2026-01-24 11:11:01.73	142.01	8.00	-46.2	-50.0	19.4	6.07e-01	0	36	0	18350080	64	5421
2026-01-24 11:11:02.72	141.96	8.09	-45.7	-49.2	20.2	6.07e-01	0	36	0	20447232	63	5272
2026-01-24 11:11:03.72	141.92	8.17	-45.3	-48.7	20.7	6.07e-01	0	36	0	22020096	62	5227
2026-01-24 11:11:04.71	141.88	8.26	-45.1	-48.3	21.1	6.07e-01	0	36	0	24117248	62	5029
2026-01-24 11:11:05.70	141.83	8.34	-45.1	-48.3	21.1	6.06e-01	0	36	0	25690112	62	5011
2026-01-24 11:11:06.70	141.79	8.42	-45.2	-48.4	21.0	6.09e-01	0	36	0	27787264	62	5099
2026-01-24 11:11:07.69	141.75	8.51	-45.5	-48.9	20.6	6.07e-01	0	37	0	29360128	62	5380
2026-01-24 11:11:08.68	141.70	8.59	-46.0	-49.6	19.9	6.07e-01	0	36	0	31457280	62	5832
2026-01-24 11:11:09.68	141.66	8.68	-46.5	-50.6	19.0	6.08e-01	0	36	0	33554432	63	6134
2026-01-24 11:11:10.67	141.61	8.76	-47.2	-51.7	17.8	6.06e-01	0	37	0	35127296	64	6634
2026-01-24 11:11:11.66	141.57	8.85	-48.0	-53.4	16.1	6.07e-01	0	36	0	37224448	66	7141
2026-01-24 11:11:12.66	141.52	8.94	-48.6	-55.2	14.3	6.10e-01	0	36	0	38797312	67	8306
2026-01-24 11:11:13.65	141.47	9.02	-49.3	-57.2	12.3	6.12e-01	0	37	0	40894464	69	9387
2026-01-24 11:11:14.64	141.43	9.11	-46.5	-50.7	18.2	6.07e-01	0	37	0	42991616	65	5585
2026-01-24 11:11:15.64	141.38	9.20	-48.6	-55.0	15.1	6.12e-01	0	37	0	44564480	67	8120
2026-01-24 11:11:16.63	141.33	9.28	-49.4	-57.6	11.8	6.14e-01	0	37	0	46137344	70	9232
2026-01-24 11:11:17.63	141.29	9.37	-47.0	-51.8	17.1	6.06e-01	0	37	0	48234496	66	5938
2026-01-24 11:11:18.62	141.24	9.46	-49.8	-60.6	9.8	6.37e-01	0	37	0	50331648	70	13095
2026-01-24 11:11:19.62	141.19	9.55	-47.9	-54.8	13.0	6.09e-01	0	37	0	50331648	68	7471
2026-01-24 11:11:20.61	141.14	9.64	-45.3	-48.9	20.5	6.08e-01	0	36	0	52428800	62	5400
2026-01-24 11:11:21.61	141.09	9.73	-45.0	-48.5	21.0	6.06e-01	0	36	0	54001664	61	5438
2026-01-24 11:11:22.60	141.04	9.82	-44.7	-48.1	21.4	6.06e-01	0	37	0	56098816	61	5168
2026-01-24 11:11:23.60	140.99	9.91	-44.6	-47.8	21.6	6.07e-01	0	37	0	57671680	61	5024
2026-01-24 11:11:24.59	140.94	10.00	-44.2	-47.3	22.2	6.08e-01	0	37	0	59768832	60	4994
2026-01-24 11:11:25.59	140.89	10.09	-44.1	-47.1	22.5	6.04e-01	0	37	0	61341696	59	5164
2026-01-24 11:11:26.58	140.84	10.18	-44.1	-47.0	22.7	6.05e-01	0	37	0	63438848	59	5129
2026-01-24 11:11:27.58	140.79	10.27	-44.1	-47.0	22.6	6.04e-01	0	37	0	65536000	59	5131
2026-01-24 11:11:28.57	140.74	10.36	-43.9	-46.8	22.8	6.05e-01	0	36	0	67108864	59	5012
2026-01-24 11:11:29.57	140.69	10.46	-43.9	-46.7	22.9	6.08e-01	0	37	0	69206016	59	4947
2026-01-24 11:11:30.56	140.64	10.55	-43.3	-46.0	23.5	6.06e-01	0	37	0	70778880	58	4858
2026-01-24 11:11:31.55	140.58	10.64	-43.1	-45.7	23.9	6.07e-01	0	37	0	72876032	58	4660
2026-01-24 11:11:32.55	140.53	10.73	-43.0	-45.6	24.0	6.05e-01	0	37	0	74448896	58	4615
2026-01-24 11:11:33.55	140.48	10.83	-42.9	-45.4	24.1	6.08e-01	0	37	0	76546048	57	4811
2026-01-24 11:11:34.54	140.43	10.92	-42.9	-45.4	24.2	6.07e-01	0	37	0	78118912	57	4806
2026-01-24 11:11:35.54	140.37	11.02	-42.9	-45.4	24.2	6.08e-01	0	37	0	80216064	57	4778
2026-01-24 11:11:36.53	140.32	11.11	-43.0	-45.5	24.1	6.06e-01	0	37	0	82313216	57	4848
2026-01-24 11:11:37.53	140.26	11.21	-42.9	-45.4	24.2	6.08e-01	0	37	0	83886080	57	4788
2026-01-24 11:11:38.52	140.21	11.30	-42.7	-45.2	24.3	6.06e-01	0	37	0	85983232	57	4678
2026-01-24 11:11:39.51	140.15	11.40	-42.7	-45.2	24.4	6.06e-01	0	37	0	87556096	57	4683
2026-01-24 11:11:40.51	140.10	11.49	-42.8	-45.3	24.3	6.06e-01	0	37	0	89653248	57	4717
2026-01-24 11:11:41.50	140.04	11.59	-42.7	-45.1	24.4	6.05e-01	0	37	0	91226112	57	4640
2026-01-24 11:11:42.50	139.98	11.69	-42.6	-45.0	24.6	6.08e-01	0	37	0	93323264	57	4575
2026-01-24 11:11:43.49	139.93	11.78	-42.5	-45.0	24.6	6.04e-01	0	37	0	95420416	57	4554
2026-01-24 11:11:44.49	139.87	11.88	-42.5	-44.9	24.6	6.07e-01	0	37	0	96993280	57	4538
2026-01-24 11:11:45.48	139.81	11.98	-42.5	-45.0	24.6	6.08e-01	0	37	0	99090432	57	4547
2026-01-24 11:11:46.48	139.75	12.08	-42.5	-44.9	24.7	6.05e-01	0	37	0	100663296	56	4793
2026-01-24 11:11:47.47	139.69	12.18	-42.5	-44.9	24.7	6.09e-01	0	37	0	102760448	56	4808
2026-01-24 11:11:48.47	139.63	12.28	-42.6	-45.0	24.6	6.08e-01	0	37	0	104333312	56	4836
2026-01-24 11:11:49.46	139.57	12.38	-42.6	-45.0	24.6	6.08e-01	0	37	0	106430464	56	4861
2026-01-24 11:11:50.46	139.51	12.48	-42.5	-44.9	24.7	6.07e-01	0	37	0	108003328	56	4808
2026-01-24 11:11:51.45	139.45	12.58	-42.5	-45.0	24.7	6.07e-01	0	37	0	110100480	56	4832
2026-01-24 11:11:52.45	139.39	12.68	-42.6	-45.0	24.6	6.05e-01	0	37	0	112197632	56	4862
2026-01-24 11:11:53.44	139.33	12.78	-42.5	-44.9	24.7	6.05e-01	0	37	0	113770496	56	4776
2026-01-24 11:11:54.44	139.27	12.89	-42.4	-44.8	24.8	6.08e-01	0	37	0	115867648	56	4728
2026-01-24 11:11:55.43	139.20	12.99	-42.4	-44.8	24.8	6.07e-01	0	37	0	117440512	56	4743
2026-01-24 11:11:56.43	139.14	13.09	-42.5	-44.8	24.8	6.07e-01	0	37	0	119537664	56	4759
2026-01-24 11:11:57.42	139.08	13.19	-42.5	-44.9	24.7	6.07e-01	0	37	0	121110528	56	4797
2026-01-24 11:11:58.42	139.01	13.30	-42.5	-44.9	24.7	6.08e-01	0	37	0	123207680	56	4805
2026-01-24 11:11:59.41	138.95	13.40	-42.5	-44.9	24.6	6.08e-01	0	37	0	125304832	56	4792
2026-01-24 11:12:00.41	138.88	13.51	-42.5	-44.9	24.7	6.07e-01	0	37	0	126877696	56	4769
2026-01-24 11:12:01.40	138.82	13.61	-42.5	-44.9	24.7	6.07e-01	0	37	0	128974848	56	4770
2026-01-24 11:12:02.40	138.75	13.72	-42.4	-44.8	24.7	6.05e-01	0	37	0	130547712	56	4749
2026-01-24 11:12:03.39	138.69	13.82	-42.5	-44.9	24.7	6.09e-01	0	37	0	132644864	56	4795
2026-01-24 11:12:04.39	138.62	13.93	-42.5	-44.9	24.7	6.07e-01	0	37	0	134217728	56	4773
2026-01-24 11:12:05.38	138.55	14.04	-42.4	-44.8	24.7	6.05e-01	0	37	0	136314880	56	4740
2026-01-24 11:12:06.38	138.48	14.15	-42.5	-44.9	24.8	6.07e-01	0	37	0	137887744	56	4772
2026-01-24 11:12:07.37	138.41	14.25	-42.5	-44.9	24.7	6.05e-01	0	37	0	139984896	56	4771
2026-01-24 11:12:08.37	138.34	14.36	-42.4	-44.8	24.8	6.08e-01	0	37	0	142082048	56	4754
2026-01-24 11:12:09.36	138.27	14.47	-42.3	-44.7	25.0	6.06e-01	0	37	0	143654912	56	4660
2026-01-24 11:12:10.36	138.20	14.58	-42.2	-44.6	25.0	6.05e-01	0	37	0	145752064	56	4623
2026-01-24 11:12:11.35	138.13	14.69	-42.2	-44.6	25.0	6.06e-01	0	37	0	147324928	56	4611
2026-01-24 11:12:12.34	138.06	14.80	-42.1	-44.5	25.2	6.05e-01	0	37	0	149422080	56	4566
2026-01-24 11:12:13.34	137.99	14.92	-42.1	-44.5	25.1	6.04e-01	0	37	0	150994944	56	4566
2026-01-24 11:12:14.33	137.92	15.03	-42.2	-44.5	25.1	6.06e-01	0	37	0	153092096	56	4597
2026-01-24 11:12:15.33	137.84	15.14	-42.2	-44.6	25.1	6.06e-01	0	37	0	154664960	56	4605
2026-01-24 11:12:16.32	137.77	15.25	-42.2	-44.5	25.2	6.06e-01	0	37	0	156762112	56	4582
2026-01-24 11:12:17.32	137.69	15.37	-42.2	-44.5	25.1	6.05e-01	0	37	0	158859264	56	4593
2026-01-24 11:12:18.31	137.62	15.48	-42.2	-44.6	25.1	6.05e-01	0	37	0	160432128	56	4623
2026-01-24 11:12:19.30	137.54	15.59	-42.2	-44.5	25.1	6.09e-01	0	37	0	162529280	56	4591
2026-01-24 11:12:20.30	137.46	15.71	-42.1	-44.5	25.2	6.08e-01	0	37	0	164102144	56	4571
2026-01-24 11:12:21.29	137.39	15.82	-42.3	-44.7	25.0	6.06e-01	0	37	0	166199296	56	4665
2026-01-24 11:12:22.29	137.31	15.94	-42.2	-44.6	25.1	6.04e-01	0	37	0	167772160	56	4630
2026-01-24 11:12:23.28	137.23	16.06	-42.2	-44.5	25.2	6.06e-01	0	37	0	169869312	56	4593
2026-01-24 11:12:24.28	137.15	16.17	-42.1	-44.5	25.2	6.06e-01	0	37	0	171442176	56	4568
2026-01-24 11:12:25.27	137.07	16.29	-42.1	-44.5	25.2	6.06e-01	0	37	0	173539328	56	4578
2026-01-24 11:12:26.27	136.99	16.41	-42.1	-44.5	25.2	6.04e-01	0	37	0	175636480	56	4557
2026-01-24 11:12:27.26	136.91	16.53	-42.1	-44.5	25.2	6.06e-01	0	37	0	177209344	56	4558
2026-01-24 11:12:28.26	136.83	16.65	-42.2	-44.5	25.1	6.04e-01	0	37	0	179306496	56	4591
2026-01-24 11:12:29.25	136.74	16.77	-42.1	-44.5	25.2	6.08e-01	0	37	0	180879360	56	4552
2026-01-24 11:12:30.25	136.66	16.89	-42.2	-44.6	25.1	6.05e-01	0	37	0	182976512	56	4608
2026-01-24 11:12:31.24	136.58	17.01	-42.2	-44.5	25.2	6.07e-01	0	37	0	184549376	56	4590
2026-01-24 11:12:32.24	136.49	17.13	-42.3	-44.6	25.1	6.08e-01	0	37	0	186646528	56	4627
2026-01-24 11:12:33.23	136.41	17.26	-42.3	-44.6	25.1	6.07e-01	0	37	0	188219392	56	4636
2026-01-24 11:12:34.23	136.32	17.38	-42.3	-44.7	25.1	6.07e-01	0	37	0	190316544	56	4656
2026-01-24 11:12:35.22	136.23	17.50	-42.2	-44.6	25.1	6.06e-01	0	37	0	192413696	56	4605
2026-01-24 11:12:36.22	136.14	17.63	-42.2	-44.5	25.2	6.05e-01	0	37	0	193986560	56	4556
2026-01-24 11:12:37.21	136.05	17.75	-42.2	-44.5	25.2	6.08e-01	0	37	0	196083712	56	4586
2026-01-24 11:12:38.21	135.96	17.88	-42.1	-44.5	25.2	6.05e-01	0	37	0	197656576	56	4555
2026-01-24 11:12:39.20	135.87	18.00	-42.1	-44.5	25.2	6.04e-01	0	37	0	199753728	56	4552
2026-01-24 11:12:40.20	135.78	18.13	-42.1	-44.4	25.2	6.05e-01	0	37	0	201326592	56	4523
2026-01-24 11:12:41.19	135.69	18.26	-42.1	-44.5	25.2	6.06e-01	0	37	0	203423744	56	4557
2026-01-24 11:12:42.19	135.60	18.39	-42.1	-44.4	25.2	6.07e-01	0	37	0	204996608	56	4537
2026-01-24 11:12:43.18	135.50	18.52	-42.1	-44.5	25.2	6.08e-01	0	37	0	207093760	56	4552
2026-01-24 11:12:44.17	135.41	18.65	-42.2	-44.6	25.1	6.08e-01	0	37	0	209190912	56	4605
2026-01-24 11:12:45.17	135.31	18.78	-42.2	-44.5	25.2	6.05e-01	0	37	0	210763776	56	4568
2026-01-24 11:12:46.16	135.22	18.91	-42.2	-44.5	25.2	6.06e-01	0	37	0	212860928	56	4594
2026-01-24 11:12:47.16	135.12	19.04	-42.1	-44.4	25.2	6.07e-01	0	37	0	214433792	56	4545
2026-01-24 11:12:48.15	135.02	19.17	-42.2	-44.5	25.2	6.07e-01	0	37	0	216530944	56	4584
2026-01-24 11:12:49.15	134.92	19.30	-42.2	-44.6	25.1	6.07e-01	0	37	0	218103808	56	4615
2026-01-24 11:12:50.14	134.82	19.44	-42.2	-44.6	25.1	6.07e-01	0	37	0	220200960	56	4628
2026-01-24 11:12:51.14	134.72	19.57	-42.3	-44.7	25.1	6.05e-01	0	37	0	221773824	56	4652
2026-01-24 11:12:52.13	134.62	19.71	-42.2	-44.6	25.1	6.04e-01	0	37	0	223870976	56	4617
2026-01-24 11:12:53.12	134.51	19.84	-42.2	-44.6	25.2	6.08e-01	0	37	0	225968128	56	4606
2026-01-24 11:12:54.12	134.41	19.98	-42.3	-44.7	25.0	6.07e-01	0	37	0	227540992	56	4665
2026-01-24 11:12:55.11	134.31	20.12	-42.3	-44.7	25.1	6.06e-01	0	37	0	229638144	56	4673
2026-01-24 11:12:56.11	134.20	20.25	-42.4	-44.8	25.0	6.05e-01	0	37	0	231211008	56	4725
2026-01-24 11:12:57.11	134.09	20.39	-42.3	-44.7	24.9	6.03e-01	0	37	0	233308160	56	4689
2026-01-24 11:12:58.10	133.98	20.53	-42.4	-44.8	25.0	6.06e-01	0	37	0	234881024	56	4715
2026-01-24 11:12:59.10	133.87	20.67	-42.4	-44.8	24.9	6.07e-01	0	37	0	236978176	56	4733
2026-01-24 11:13:00.09	133.76	20.81	-42.3	-44.7	25.1	6.04e-01	0	37	0	239075328	56	4657
2026-01-24 11:13:01.09	133.65	20.96	-42.3	-44.7	25.1	6.08e-01	0	37	0	240648192	56	4671
2026-01-24 11:13:02.08	133.54	21.10	-42.5	-44.9	24.9	6.06e-01	0	37	0	242745344	56	4773
2026-01-24 11:13:03.08	133.43	21.24	-42.5	-44.9	24.9	6.06e-01	0	37	0	244318208	56	4765
2026-01-24 11:13:04.07	133.31	21.39	-42.5	-44.8	24.9	6.07e-01	0	37	0	246415360	56	4753
2026-01-24 11:13:05.07	133.19	21.53	-42.5	-44.8	24.9	6.05e-01	0	37	0	247988224	56	4754
2026-01-24 11:13:06.06	133.08	21.68	-42.5	-44.8	24.9	6.10e-01	0	37	0	250085376	56	4750
2026-01-24 11:13:07.06	132.96	21.82	-42.5	-44.9	24.9	6.05e-01	0	37	0	251658240	56	4771
2026-01-24 11:13:08.06	132.84	21.97	-42.5	-44.9	24.8	6.07e-01	0	37	0	253755392	56	4801
2026-01-24 11:13:09.05	132.72	22.12	-42.5	-44.9	24.9	6.06e-01	0	37	0	255852544	56	4785
2026-01-24 11:13:10.05	132.60	22.27	-42.5	-44.9	24.9	6.07e-01	0	37	0	257425408	56	4770
2026-01-24 11:13:11.04	132.47	22.42	-42.5	-44.9	24.9	6.07e-01	0	37	0	259522560	56	4786
2026-01-24 11:13:12.04	132.35	22.57	-42.4	-44.9	24.9	6.07e-01	0	37	0	261095424	56	4761
2026-01-24 11:13:13.04	132.22	22.72	-42.4	-44.8	25.0	6.05e-01	0	37	0	263192576	56	4715
2026-01-24 11:13:14.03	132.09	22.87	-42.4	-44.8	24.9	6.08e-01	0	37	0	264765440	56	4759
2026-01-24 11:13:15.03	131.96	23.03	-42.5	-44.9	24.8	6.08e-01	0	37	0	266862592	56	4802
2026-01-24 11:13:16.02	131.84	23.18	-42.4	-44.8	25.0	6.08e-01	0	37	0	268435456	56	4732
2026-01-24 11:13:17.02	131.70	23.33	-42.3	-44.7	25.0	6.05e-01	0	37	0	270532608	56	4691
2026-01-24 11:13:18.01	131.57	23.49	-42.4	-44.7	25.0	6.06e-01	0	37	0	272629760	56	4702
2026-01-24 11:13:19.00	131.44	23.64	-42.3	-44.7	25.1	6.05e-01	0	37	0	274202624	56	4675
2026-01-24 11:13:20.00	131.30	23.80	-42.4	-44.7	25.0	6.06e-01	0	37	0	276299776	56	4705
2026-01-24 11:13:20.99	131.17	23.96	-42.5	-44.9	24.9	6.08e-01	0	37	0	277872640	56	4765
2026-01-24 11:13:21.99	131.03	24.12	-42.4	-44.8	24.8	6.07e-01	0	37	0	279969792	56	4725
2026-01-24 11:13:22.98	130.89	24.28	-42.6	-45.0	24.5	6.05e-01	0	37	0	281542656	56	4824
2026-01-24 11:13:23.98	130.75	24.44	-42.6	-45.0	24.8	6.06e-01	0	37	0	283639808	56	4835
2026-01-24 11:13:24.97	130.60	24.60	-42.7	-45.1	24.7	6.06e-01	0	37	0	285212672	56	4872
2026-01-24 11:13:25.96	130.46	24.76	-42.6	-45.0	24.8	6.07e-01	0	37	0	287309824	56	4823
2026-01-24 11:13:26.96	130.31	24.93	-42.5	-44.8	24.1	6.05e-01	0	37	0	289406976	56	4749
2026-01-24 11:13:27.95	130.17	25.09	-42.3	-44.6	25.1	6.06e-01	0	37	0	290979840	56	4646
2026-01-24 11:13:28.95	130.01	25.26	-42.3	-44.7	25.1	6.06e-01	0	37	0	293076992	56	4652
2026-01-24 11:13:29.94	129.86	25.42	-42.0	-44.3	25.4	6.07e-01	0	37	0	294649856	56	4484
2026-01-24 11:13:30.94	129.71	25.59	-42.0	-44.4	25.4	6.06e-01	0	37	0	296747008	56	4501
2026-01-24 11:13:31.93	129.56	25.76	-42.1	-44.5	25.3	6.05e-01	0	37	0	298319872	56	4564
2026-01-24 11:13:32.93	129.40	25.93	-42.2	-44.7	25.1	6.07e-01	0	37	0	300417024	56	4663
2026-01-24 11:13:33.93	129.24	26.10	-42.4	-44.9	24.9	6.06e-01	0	37	0	301989888	56	4767
2026-01-24 11:13:34.92	129.08	26.27	-42.4	-44.9	24.8	6.09e-01	0	37	0	304087040	56	4806
2026-01-24 11:13:35.92	128.92	26.44	-42.4	-44.9	24.7	6.06e-01	0	37	0	306184192	56	4789
2026-01-24 11:13:36.91	128.76	26.61	-42.4	-44.9	24.1	6.05e-01	0	37	0	307757056	56	4788
2026-01-24 11:13:37.91	128.59	26.79	-42.4	-44.8	24.1	6.08e-01	0	37	0	309854208	56	4717
2026-01-24 11:13:38.91	128.42	26.96	-42.3	-44.6	25.1	6.06e-01	0	37	0	311427072	56	4627
2026-01-24 11:13:39.90	128.25	27.14	-42.2	-44.5	24.5	6.06e-01	0	37	0	313524224	56	4597
2026-01-24 11:13:40.89	128.08	27.31	-42.2	-44.5	20.7	6.06e-01	0	37	0	315621376	56	4562
2026-01-24 11:13:41.89	127.91	27.49	-42.1	-44.4	15.9	6.07e-01	0	37	0	317194240	56	4539
2026-01-24 11:13:42.88	127.74	27.67	-41.9	-44.1	13.8	6.08e-01	0	37	0	318767104	55	4641
2026-01-24 11:13:43.88	127.56	27.85	-41.7	-43.9	13.7	6.05e-01	0	37	0	320864256	55	4532
2026-01-24 11:13:44.87	127.38	28.03	-41.7	-44.0	16.1	6.05e-01	0	37	0	322961408	55	4558
2026-01-24 11:13:45.87	127.20	28.21	-41.8	-44.1	22.3	6.07e-01	0	37	0	324534272	55	4612
2026-01-24 11:13:46.86	127.01	28.39	-41.8	-44.1	25.4	6.05e-01	0	37	0	326631424	55	4646
2026-01-24 11:13:47.86	126.83	28.57	-41.8	-44.2	25.4	6.07e-01	0	37	0	328204288	55	4654
2026-01-24 11:13:48.86	126.64	28.76	-41.5	-43.8	24.8	6.05e-01	0	37	0	330301440	55	4471
2026-01-24 11:13:49.85	126.45	28.94	-41.4	-43.7	25.2	6.06e-01	0	37	0	332398592	54	4676
2026-01-24 11:13:50.85	126.25	29.13	-41.4	-43.7	25.8	6.04e-01	0	37	0	333971456	54	4678
2026-01-24 11:13:51.84	126.06	29.32	-41.5	-43.7	25.8	6.07e-01	0	37	0	335544320	54	4690
2026-01-24 11:13:52.84	125.86	29.50	-41.5	-43.7	25.8	6.05e-01	0	37	0	337641472	54	4693
2026-01-24 11:13:53.83	125.66	29.69	-41.6	-43.8	25.7	6.07e-01	0	37	0	339738624	54	4748
2026-01-24 11:13:54.83	125.46	29.88	-41.7	-43.9	25.6	6.04e-01	0	37	0	341311488	54	4811
2026-01-24 11:13:55.82	125.26	30.07	-41.8	-44.0	25.5	6.05e-01	0	37	0	343408640	54	4870
2026-01-24 11:13:56.81	125.05	30.26	-41.6	-43.9	25.6	6.07e-01	0	37	0	344981504	54	4790
2026-01-24 11:13:57.81	124.84	30.46	-41.5	-43.8	25.7	6.03e-01	0	37	0	347078656	54	4728
2026-01-24 11:13:58.80	124.63	30.65	-41.4	-43.7	25.8	6.07e-01	0	37	0	349175808	54	4667
2026-01-24 11:13:59.80	124.41	30.84	-41.5	-43.7	25.7	6.06e-01	0	37	0	350748672	54	4695
2026-01-24 11:14:00.79	124.19	31.04	-41.3	-43.6	25.9	6.07e-01	0	37	0	352845824	54	4609
2026-01-24 11:14:01.79	123.97	31.24	-41.3	-43.5	25.9	6.07e-01	0	37	0	354418688	54	4595
2026-01-24 11:14:02.78	123.75	31.43	-41.5	-43.7	25.8	6.05e-01	0	37	0	356515840	54	4695
2026-01-24 11:14:03.78	123.52	31.63	-41.7	-44.0	25.5	6.06e-01	0	37	0	358088704	54	4861
2026-01-24 11:14:04.77	123.29	31.83	-41.9	-44.3	25.3	6.07e-01	0	37	0	360185856	54	5001
2026-01-24 11:14:05.77	123.06	32.03	-41.8	-44.1	25.4	6.08e-01	0	37	0	361758720	54	4895
2026-01-24 11:14:06.76	122.83	32.23	-41.7	-44.0	25.5	6.07e-01	0	37	0	363855872	54	4857
2026-01-24 11:14:07.76	122.59	32.44	-41.4	-43.7	25.8	6.07e-01	0	37	0	365953024	54	4661
2026-01-24 11:14:08.75	122.35	32.64	-41.2	-43.6	25.9	6.07e-01	0	37	0	367525888	54	4603
2026-01-24 11:14:09.75	122.10	32.84	-41.4	-43.7	25.7	6.03e-01	0	37	0	369623040	54	4696
2026-01-24 11:14:10.74	121.85	33.05	-41.8	-44.3	25.3	6.06e-01	0	37	0	371195904	54	4996
2026-01-24 11:14:11.74	121.60	33.25	-41.9	-44.4	25.2	6.07e-01	0	37	0	373293056	54	5045
2026-01-24 11:14:12.73	121.35	33.46	-42.0	-44.4	25.1	6.05e-01	0	37	0	374865920	54	5084
2026-01-24 11:14:13.73	121.09	33.67	-41.8	-44.1	25.4	6.07e-01	0	37	0	376963072	54	4910
2026-01-24 11:14:14.72	120.83	33.87	-41.8	-44.1	25.3	6.07e-01	0	37	0	378535936	54	4916
2026-01-24 11:14:15.72	120.56	34.08	-41.8	-44.1	25.4	6.03e-01	0	37	0	380633088	54	4891
2026-01-24 11:14:16.72	120.29	34.29	-41.9	-44.2	25.3	6.07e-01	0	37	0	382730240	54	4963
2026-01-24 11:14:17.71	120.02	34.50	-42.0	-44.3	25.2	6.05e-01	0	37	0	384303104	54	5006
2026-01-24 11:14:18.71	119.75	34.72	-42.0	-44.4	25.1	6.07e-01	0	37	0	386400256	54	5052
2026-01-24 11:14:19.70	119.47	34.93	-42.1	-44.5	25.0	6.07e-01	0	37	0	387973120	54	5108
2026-01-24 11:14:20.70	119.18	35.14	-42.3	-44.7	24.8	6.07e-01	0	38	0	390070272	55	4947
2026-01-24 11:14:21.70	118.90	35.35	-42.4	-44.8	24.6	6.07e-01	0	37	0	391643136	55	5025
2026-01-24 11:14:22.69	118.61	35.57	-42.4	-44.9	24.6	6.06e-01	0	37	0	393740288	55	5042
2026-01-24 11:14:23.68	118.31	35.78	-42.5	-44.9	24.5	6.06e-01	0	37	0	395313152	55	5082
2026-01-24 11:14:24.68	118.01	36.00	-42.3	-44.7	24.6	6.05e-01	0	37	0	397410304	55	4968
2026-01-24 11:14:25.67	117.71	36.21	-42.3	-44.7	24.7	6.07e-01	0	37	0	399507456	55	4963
2026-01-24 11:14:26.67	117.40	36.43	-42.2	-44.7	24.7	6.06e-01	0	37	0	401080320	55	4932
2026-01-24 11:14:27.67	117.09	36.65	-42.4	-44.8	24.6	6.07e-01	0	37	0	403177472	55	5028
2026-01-24 11:14:28.66	116.78	36.87	-43.1	-45.7	23.9	6.04e-01	0	37	0	404750336	56	5239
2026-01-24 11:14:29.66	116.46	37.09	-43.3	-45.9	23.7	6.06e-01	0	37	0	406847488	57	5062
2026-01-24 11:14:30.65	116.13	37.31	-43.0	-45.5	24.0	6.08e-01	0	37	0	408420352	57	4860
2026-01-24 11:14:31.65	115.80	37.53	-43.0	-45.6	24.0	6.07e-01	0	37	0	410517504	57	4914
2026-01-24 11:14:32.64	115.47	37.75	-42.9	-45.5	24.0	6.04e-01	0	37	0	412090368	57	4837
2026-01-24 11:14:33.63	115.13	37.96	-43.1	-45.8	23.8	6.04e-01	0	37	0	414187520	57	5006
2026-01-24 11:14:34.63	114.79	38.19	-43.6	-46.4	23.3	6.05e-01	0	37	0	416284672	57	5389
2026-01-24 11:14:35.62	114.44	38.41	-44.0	-46.8	22.8	6.04e-01	0	37	0	417857536	58	5303
2026-01-24 11:14:36.62	114.09	38.63	-43.3	-45.9	23.6	6.05e-01	0	37	0	419954688	58	4814
2026-01-24 11:14:37.61	113.73	38.85	-42.8	-45.3	24.2	6.08e-01	0	37	0	421527552	57	4720
2026-01-24 11:14:38.61	113.37	39.07	-42.7	-45.1	24.4	6.08e-01	0	37	0	423624704	57	4651
2026-01-24 11:14:39.60	113.00	39.30	-43.0	-45.5	24.1	6.06e-01	0	37	0	425197568	57	4838
2026-01-24 11:14:40.60	112.63	39.52	-43.4	-46.0	23.6	6.08e-01	0	37	0	427294720	57	5158
2026-01-24 11:14:41.59	112.25	39.74	-43.6	-46.3	23.2	6.07e-01	0	37	0	429391872	58	5041
2026-01-24 11:14:42.59	111.87	39.96	-43.1	-45.7	23.9	6.07e-01	0	37	0	430964736	58	4663
2026-01-24 11:14:43.58	111.48	40.19	-43.1	-45.6	23.9	6.04e-01	0	37	0	433061888	58	4619
2026-01-24 11:14:44.58	111.08	40.41	-42.8	-45.3	24.3	6.10e-01	0	37	0	434634752	57	4714
2026-01-24 11:14:45.57	110.69	40.63	-43.1	-45.7	23.9	6.03e-01	0	37	0	436731904	57	4934
2026-01-24 11:14:46.57	110.28	40.85	-43.5	-46.2	23.4	6.04e-01	0	37	0	438304768	57	5230
2026-01-24 11:14:47.56	109.87	41.08	-43.1	-45.7	23.8	6.03e-01	0	37	0	440401920	57	4957
2026-01-24 11:14:48.56	109.45	41.30	-42.6	-45.0	24.5	6.04e-01	0	37	0	441974784	57	4587
2026-01-24 11:14:49.55	109.03	41.52	-42.5	-44.9	24.6	6.05e-01	0	37	0	444071936	56	4812
2026-01-24 11:14:50.55	108.60	41.74	-42.6	-45.1	24.4	6.08e-01	0	37	0	446169088	56	4878
2026-01-24 11:14:51.54	108.17	41.96	-43.0	-45.6	24.0	6.06e-01	0	37	0	447741952	56	5191
2026-01-24 11:14:52.54	107.72	42.18	-43.1	-45.6	23.9	6.06e-01	0	37	0	449839104	56	5204
2026-01-24 11:14:53.53	107.28	42.40	-42.4	-44.9	24.6	6.04e-01	0	37	0	451411968	56	4761
2026-01-24 11:14:54.53	106.82	42.62	-42.4	-44.9	24.6	6.05e-01	0	37	0	453509120	56	4761
2026-01-24 11:14:55.53	106.36	42.84	-42.6	-45.1	24.4	6.06e-01	0	37	0	455081984	56	4919
2026-01-24 11:14:56.52	105.89	43.06	-42.6	-45.1	24.4	6.08e-01	0	37	0	457179136	56	4882
2026-01-24 11:14:57.52	105.42	43.28	-42.5	-45.0	24.5	6.07e-01	0	37	0	458752000	56	4841
2026-01-24 11:14:58.51	104.94	43.49	-42.5	-45.2	24.3	6.05e-01	0	37	0	460849152	56	4949
2026-01-24 11:14:59.51	104.45	43.71	-42.1	-44.6	24.8	6.09e-01	0	37	0	462946304	56	4627
2026-01-24 11:15:00.50	103.96	43.92	-42.3	-44.8	24.7	6.07e-01	0	37	0	464519168	56	4747
2026-01-24 11:15:01.50	103.46	44.14	-42.4	-44.9	24.6	6.08e-01	0	37	0	466616320	56	4781
2026-01-24 11:15:02.49	102.96	44.35	-42.8	-45.3	24.3	6.07e-01	0	37	0	468189184	56	5001
2026-01-24 11:15:03.49	102.44	44.56	-42.7	-45.2	24.3	6.07e-01	0	37	0	470286336	56	4969
2026-01-24 11:15:04.48	101.92	44.77	-42.8	-45.3	24.2	6.07e-01	0	37	0	471859200	56	5040
2026-01-24 11:15:05.47	101.40	44.97	-42.4	-44.9	24.6	6.06e-01	0	37	0	473956352	56	4795
2026-01-24 11:15:06.47	100.86	45.18	-42.6	-45.0	24.5	6.06e-01	0	37	0	475529216	56	4865
2026-01-24 11:15:07.46	100.33	45.39	-42.7	-45.2	24.3	6.06e-01	0	37	0	477626368	56	4946
2026-01-24 11:15:08.46	99.77	45.59	-42.1	-44.5	24.9	6.06e-01	0	37	0	479723520	56	4589
2026-01-24 11:15:09.45	99.22	45.79	-42.5	-45.0	24.5	6.06e-01	0	37	0	481296384	56	4865
2026-01-24 11:15:10.45	98.66	45.99	-42.7	-45.3	24.3	6.08e-01	0	37	0	483393536	56	4991
2026-01-24 11:15:11.44	98.09	46.18	-42.5	-45.0	24.5	6.03e-01	0	37	0	484966400	56	4819
2026-01-24 11:15:12.44	97.51	46.38	-42.3	-44.8	24.7	6.06e-01	0	37	0	487063552	56	4711
2026-01-24 11:15:13.43	96.93	46.57	-42.4	-44.9	24.6	6.07e-01	0	37	0	488636416	56	4799
2026-01-24 11:15:14.42	96.34	46.76	-42.6	-45.2	24.4	6.06e-01	0	37	0	490733568	56	4951
2026-01-24 11:15:15.42	95.74	46.95	-42.6	-45.1	24.5	6.05e-01	0	37	0	492306432	56	4872
2026-01-24 11:15:16.41	95.13	47.13	-42.7	-45.2	24.4	6.04e-01	0	37	0	494403584	56	4958
2026-01-24 11:15:17.41	94.52	47.32	-42.6	-45.2	24.4	6.08e-01	0	37	0	496500736	56	4945
2026-01-24 11:15:18.40	93.90	47.50	-42.8	-45.4	24.1	6.07e-01	0	37	0	498073600	56	5076
2026-01-24 11:15:19.40	93.27	47.67	-42.6	-45.2	24.3	6.08e-01	0	37	0	500170752	56	4971
2026-01-24 11:15:20.39	92.64	47.85	-42.5	-45.1	24.4	6.07e-01	0	37	0	501743616	56	4887
2026-01-24 11:15:21.39	91.99	48.02	-43.1	-45.7	23.9	6.06e-01	0	37	0	503840768	56	5267
2026-01-24 11:15:22.38	91.35	48.18	-42.9	-45.4	24.2	6.07e-01	0	37	0	505413632	57	4776
2026-01-24 11:15:23.38	90.69	48.35	-42.2	-44.6	24.8	6.06e-01	0	37	0	507510784	56	4641
2026-01-24 11:15:24.37	90.03	48.51	-42.4	-45.0	24.6	6.06e-01	0	37	0	509083648	56	4816
2026-01-24 11:15:25.37	89.35	48.67	-42.6	-45.2	24.3	6.06e-01	0	37	0	511180800	56	4950
2026-01-24 11:15:26.37	88.67	48.82	-42.4	-44.9	24.6	6.06e-01	0	37	0	513277952	56	4787
2026-01-24 11:15:27.36	87.99	48.97	-42.3	-44.8	24.7	6.06e-01	0	37	0	514850816	56	4734
2026-01-24 11:15:28.35	87.30	49.11	-42.2	-44.7	24.8	6.07e-01	0	37	0	516947968	56	4696
2026-01-24 11:15:29.35	86.60	49.26	-42.6	-45.3	24.2	6.08e-01	0	38	0	518520832	56	5011
2026-01-24 11:15:30.34	85.90	49.39	-42.4	-45.0	24.5	6.08e-01	0	37	0	520617984	56	4837
2026-01-24 11:15:31.34	85.19	49.53	-42.0	-44.5	25.0	6.09e-01	0	37	0	522190848	56	4549
2026-01-24 11:15:32.33	84.48	49.66	-42.3	-44.9	24.6	6.06e-01	0	37	0	524288000	55	5057
2026-01-24 11:15:33.33	83.75	49.78	-42.5	-45.1	24.4	6.07e-01	0	37	0	525860864	56	4889
2026-01-24 11:15:34.33	83.02	49.90	-42.0	-44.5	25.0	6.06e-01	0	37	0	527958016	56	4568
2026-01-24 11:15:35.32	82.29	50.02	-42.1	-44.6	24.9	6.06e-01	0	37	0	530055168	56	4626
2026-01-24 11:15:36.32	81.55	50.13	-42.2	-44.7	24.8	6.06e-01	0	37	0	531628032	56	4685
2026-01-24 11:15:37.31	80.80	50.23	-42.4	-44.9	24.6	6.04e-01	0	37	0	533725184	56	4782
2026-01-24 11:15:38.31	80.05	50.34	-42.2	-44.6	24.9	6.09e-01	0	37	0	535298048	56	4634
2026-01-24 11:15:39.30	79.30	50.43	-42.2	-44.6	24.9	6.07e-01	0	37	0	537395200	56	4629
2026-01-24 11:15:40.29	78.54	50.52	-42.5	-45.0	24.5	6.07e-01	0	38	0	539492352	56	4843
2026-01-24 11:15:41.29	77.78	50.61	-42.3	-44.7	24.8	6.05e-01	0	37	0	541065216	56	4680
2026-01-24 11:15:42.28	77.01	50.69	-42.1	-44.5	25.0	6.07e-01	0	37	0	542638080	56	4565
2026-01-24 11:15:43.28	76.23	50.76	-42.1	-44.5	25.0	6.07e-01	0	38	0	544735232	56	4580
2026-01-24 11:15:44.27	75.46	50.83	-42.4	-44.8	24.7	6.07e-01	0	37	0	546832384	56	4734
2026-01-24 11:15:45.27	74.68	50.90	-42.2	-44.6	24.9	6.07e-01	0	37	0	548405248	56	4621
2026-01-24 11:15:46.26	73.90	50.96	-42.2	-44.6	24.9	6.06e-01	0	37	0	550502400	56	4633
2026-01-24 11:15:47.26	73.11	51.01	-42.2	-44.6	24.9	6.07e-01	0	37	0	552075264	56	4638
2026-01-24 11:15:48.25	72.33	51.06	-42.5	-44.9	24.6	6.06e-01	0	37	0	554172416	56	4780
2026-01-24 11:15:49.25	71.53	51.10	-42.4	-44.8	24.7	6.07e-01	0	37	0	556269568	56	4742
2026-01-24 11:15:50.24	70.74	51.14	-42.2	-44.6	24.9	6.05e-01	0	37	0	557842432	56	4636
2026-01-24 11:15:51.24	69.94	51.17	-42.1	-44.4	25.1	6.06e-01	0	37	0	559415296	56	4543
2026-01-24 11:15:52.23	69.15	51.20	-42.0	-44.3	25.2	6.05e-01	0	37	0	561512448	56	4470
2026-01-24 11:15:53.23	68.35	51.22	-41.8	-44.1	25.3	6.04e-01	0	37	0	563609600	55	4623
2026-01-24 11:15:54.22	67.55	51.23	-41.7	-44.0	25.3	6.06e-01	0	37	0	565182464	55	4588
2026-01-24 11:15:55.22	66.75	51.24	-41.8	-44.1	25.4	6.06e-01	0	37	0	567279616	55	4599
2026-01-24 11:15:56.21	65.96	51.24	-41.8	-44.2	25.2	6.08e-01	0	37	0	568852480	55	4659
2026-01-24 11:15:57.21	65.15	51.24	-41.9	-44.2	25.1	6.08e-01	0	37	0	570949632	55	4686
2026-01-24 11:15:58.20	64.36	51.23	-41.6	-43.9	25.5	6.07e-01	0	37	0	573046784	55	4495
2026-01-24 11:15:59.20	63.56	51.21	-41.7	-44.0	25.4	6.06e-01	0	37	0	574619648	55	4587
2026-01-24 11:16:00.20	62.75	51.19	-41.8	-44.1	25.3	6.05e-01	0	37	0	576716800	55	4620
2026-01-24 11:16:01.19	61.96	51.16	-41.9	-44.2	25.2	6.06e-01	0	37	0	578289664	55	4676
2026-01-24 11:16:02.19	61.16	51.13	-41.7	-44.0	25.4	6.05e-01	0	37	0	580386816	55	4567
2026-01-24 11:16:03.18	60.38	51.09	-41.9	-44.2	25.2	6.05e-01	0	37	0	581959680	55	4690
2026-01-24 11:16:04.18	59.58	51.05	-41.9	-44.2	25.2	6.05e-01	0	37	0	584056832	55	4665
2026-01-24 11:16:05.17	58.80	51.00	-41.9	-44.2	25.2	6.06e-01	0	37	0	585629696	55	4668
2026-01-24 11:16:06.17	58.01	50.95	-41.9	-44.3	25.2	6.05e-01	0	37	0	587726848	55	4708
2026-01-24 11:16:07.16	57.23	50.89	-42.2	-44.6	24.9	6.07e-01	0	37	0	589824000	55	4872
2026-01-24 11:16:08.16	56.45	50.82	-42.3	-44.7	24.8	6.09e-01	0	37	0	591396864	55	4941
2026-01-24 11:16:09.15	55.68	50.75	-42.2	-44.6	24.9	6.06e-01	0	37	0	593494016	55	4890
2026-01-24 11:16:10.14	54.91	50.67	-42.1	-44.5	25.0	6.07e-01	0	37	0	595066880	55	4815
2026-01-24 11:16:11.14	54.14	50.59	-41.9	-44.3	25.1	6.04e-01	0	37	0	597164032	55	4713
2026-01-24 11:16:12.13	53.38	50.51	-41.9	-44.3	25.1	6.06e-01	0	37	0	598736896	55	4741
2026-01-24 11:16:13.13	52.62	50.41	-41.3	-43.6	25.6	6.06e-01	0	37	0	600834048	54	4643
2026-01-24 11:16:14.12	51.87	50.32	-41.3	-43.6	25.7	6.06e-01	0	37	0	602406912	54	4650
2026-01-24 11:16:15.11	51.13	50.21	-41.7	-44.1	25.3	6.07e-01	0	37	0	604504064	54	4903
2026-01-24 11:16:16.11	50.38	50.11	-41.7	-44.0	25.4	6.07e-01	0	37	0	606601216	54	4831
2026-01-24 11:16:17.10	49.65	50.00	-41.6	-43.9	25.5	6.07e-01	0	37	0	608174080	54	4780
2026-01-24 11:16:18.10	48.91	49.88	-41.5	-43.8	25.6	6.05e-01	0	37	0	610271232	54	4711
2026-01-24 11:16:19.10	48.18	49.76	-41.7	-44.0	25.4	6.05e-01	0	37	0	611844096	54	4843
2026-01-24 11:16:20.09	47.47	49.63	-41.7	-44.1	25.3	6.08e-01	0	37	0	613941248	54	4892
2026-01-24 11:16:21.08	46.75	49.50	-41.4	-43.8	25.6	6.06e-01	0	37	0	615514112	54	4707
2026-01-24 11:16:22.08	46.04	49.37	-41.6	-43.9	25.5	6.06e-01	0	37	0	617611264	54	4776
2026-01-24 11:16:23.07	45.35	49.23	-41.9	-44.2	25.2	6.07e-01	0	37	0	619184128	54	4964
2026-01-24 11:16:24.07	44.65	49.09	-41.7	-44.0	25.4	6.06e-01	0	38	0	621281280	54	4839
2026-01-24 11:16:25.06	43.96	48.94	-41.6	-43.9	25.5	6.06e-01	0	38	0	623378432	54	4793
2026-01-24 11:16:26.06	43.28	48.79	-41.7	-44.1	25.3	6.05e-01	0	37	0	624951296	54	4907
2026-01-24 11:16:27.05	42.61	48.64	-41.8	-44.2	25.1	6.07e-01	0	37	0	627048448	54	4949
2026-01-24 11:16:28.05	41.93	48.48	-41.8	-44.2	25.2	6.06e-01	0	37	0	628621312	54	4977
2026-01-24 11:16:29.04	41.28	48.32	-41.4	-43.7	25.6	6.07e-01	0	37	0	630718464	54	4663
2026-01-24 11:16:30.04	40.62	48.16	-41.3	-43.6	25.8	6.04e-01	0	37	0	632291328	54	4627
2026-01-24 11:16:31.03	39.98	47.99	-41.7	-44.1	25.3	6.05e-01	0	37	0	634388480	54	4872
2026-01-24 11:16:32.03	39.33	47.82	-41.4	-43.7	25.6	6.06e-01	0	37	0	635961344	54	4669
2026-01-24 11:16:33.02	38.71	47.65	-41.3	-43.5	25.8	6.07e-01	0	37	0	638058496	54	4586
2026-01-24 11:16:34.02	38.08	47.47	-41.4	-43.6	25.7	6.04e-01	0	37	0	640155648	54	4637
2026-01-24 11:16:35.01	37.46	47.29	-41.6	-43.9	25.5	6.05e-01	0	37	0	641728512	54	4784
2026-01-24 11:16:36.01	36.85	47.11	-41.5	-43.8	25.6	6.06e-01	0	37	0	643825664	54	4718
2026-01-24 11:16:37.00	36.25	46.92	-41.5	-43.8	25.5	6.07e-01	0	37	0	645398528	54	4736
2026-01-24 11:16:38.00	35.65	46.74	-41.3	-43.6	25.6	6.06e-01	0	37	0	647495680	54	4649
2026-01-24 11:16:39.00	35.06	46.54	-41.2	-43.5	25.8	6.06e-01	0	37	0	649068544	54	4566
2026-01-24 11:16:39.99	34.48	46.35	-41.4	-43.9	25.4	6.05e-01	0	37	0	651165696	54	4763
2026-01-24 11:16:40.99	33.90	46.16	-41.6	-44.1	25.2	6.06e-01	0	37	0	652738560	54	4890
2026-01-24 11:16:41.98	33.34	45.96	-41.0	-43.3	25.9	6.05e-01	0	37	0	654835712	54	4478
2026-01-24 11:16:42.98	32.77	45.76	-41.4	-43.8	25.6	6.04e-01	0	37	0	656932864	54	4741
2026-01-24 11:16:43.97	32.22	45.56	-41.5	-43.8	25.5	6.09e-01	0	38	0	658505728	54	4751
2026-01-24 11:16:44.97	31.68	45.36	-41.7	-44.2	25.2	6.07e-01	0	37	0	660602880	54	4935
2026-01-24 11:16:45.96	31.14	45.16	-41.4	-43.8	25.5	6.06e-01	0	37	0	662175744	54	4744
2026-01-24 11:16:46.96	30.61	44.95	-41.2	-43.6	25.6	6.03e-01	0	37	0	664272896	54	4636
2026-01-24 11:16:47.95	30.09	44.74	-41.1	-43.5	25.8	6.08e-01	0	37	0	665845760	54	4563
2026-01-24 11:16:48.95	29.57	44.53	-41.5	-43.9	25.4	6.07e-01	0	37	0	667942912	54	4777
2026-01-24 11:16:49.94	29.06	44.33	-41.4	-43.8	25.5	6.06e-01	0	37	0	669515776	54	4734
2026-01-24 11:16:50.93	28.56	44.12	-41.4	-43.8	25.6	6.05e-01	0	37	0	671612928	54	4707
2026-01-24 11:16:51.93	28.06	43.90	-41.3	-43.7	25.7	6.07e-01	0	37	0	673710080	54	4658
2026-01-24 11:16:52.92	27.57	43.69	-41.7	-44.1	25.3	6.06e-01	0	37	0	675282944	54	4926
2026-01-24 11:16:53.92	27.08	43.47	-41.6	-44.1	25.3	6.05e-01	0	37	0	677380096	54	4877
2026-01-24 11:16:54.92	26.60	43.26	-41.4	-43.9	25.4	6.08e-01	0	37	0	678952960	54	4783
2026-01-24 11:16:55.91	26.14	43.04	-41.5	-44.0	25.3	6.05e-01	0	37	0	681050112	54	4842
2026-01-24 11:16:56.90	25.68	42.83	-41.6	-44.0	25.3	6.05e-01	0	37	0	682622976	54	4842
2026-01-24 11:16:57.90	25.22	42.61	-41.7	-44.2	25.2	6.04e-01	0	38	0	684720128	54	4930
2026-01-24 11:16:58.89	24.77	42.39	-42.1	-44.5	24.9	6.07e-01	0	37	0	686817280	54	5143
2026-01-24 11:16:59.89	24.32	42.17	-42.1	-44.5	24.9	6.06e-01	0	37	0	688390144	54	5150
2026-01-24 11:17:00.89	23.88	41.95	-42.2	-44.7	24.7	6.05e-01	0	37	0	690487296	55	4935
2026-01-24 11:17:01.88	23.45	41.73	-42.2	-44.6	24.7	6.06e-01	0	37	0	692060160	55	4924
2026-01-24 11:17:02.88	23.02	41.51	-42.2	-44.7	24.7	6.08e-01	0	37	0	694157312	55	4929
2026-01-24 11:17:03.87	22.60	41.29	-42.4	-44.9	24.5	6.07e-01	0	37	0	695730176	55	5085
2026-01-24 11:17:04.87	22.18	41.06	-42.5	-45.0	24.5	6.07e-01	0	37	0	697827328	55	5110
2026-01-24 11:17:05.86	21.78	40.84	-42.8	-45.4	24.2	6.07e-01	0	37	0	699400192	56	5055
2026-01-24 11:17:06.86	21.37	40.62	-42.9	-45.5	24.1	6.06e-01	0	37	0	701497344	56	5115
2026-01-24 11:17:07.85	20.98	40.40	-42.8	-45.5	24.1	6.06e-01	0	37	0	703594496	56	5111
2026-01-24 11:17:08.85	20.58	40.18	-42.6	-45.2	24.3	6.06e-01	0	37	0	705167360	56	4980
2026-01-24 11:17:09.84	20.20	39.96	-43.0	-45.7	23.9	6.05e-01	0	37	0	707264512	56	5258
2026-01-24 11:17:10.84	19.81	39.73	-43.5	-46.3	22.9	6.07e-01	0	38	0	708837376	57	5315
2026-01-24 11:17:11.84	19.44	39.51	-42.8	-45.4	24.0	6.06e-01	0	38	0	710934528	57	4807
2026-01-24 11:17:12.83	19.07	39.29	-42.7	-45.3	24.2	6.06e-01	0	37	0	712507392	57	4718
2026-01-24 11:17:13.83	18.70	39.07	-42.9	-45.6	23.9	6.06e-01	0	38	0	714604544	57	4899
2026-01-24 11:17:14.82	18.34	38.85	-42.9	-45.5	24.0	6.04e-01	0	37	0	716177408	57	4870
2026-01-24 11:17:15.82	17.99	38.63	-42.8	-45.5	24.1	6.07e-01	0	37	0	718274560	57	4826
2026-01-24 11:17:16.81	17.64	38.41	-43.2	-46.0	23.6	6.05e-01	0	37	0	720371712	57	5143
2026-01-24 11:17:17.81	17.29	38.19	-42.8	-45.7	23.8	6.08e-01	0	37	0	721944576	57	4934
2026-01-24 11:17:18.80	16.95	37.97	-42.5	-45.3	24.2	6.05e-01	0	38	0	724041728	57	4722
2026-01-24 11:17:19.80	16.61	37.75	-42.9	-45.7	23.8	6.08e-01	0	37	0	725614592	57	4966
2026-01-24 11:17:20.80	16.28	37.53	-43.3	-46.2	23.4	6.06e-01	0	38	0	727711744	57	5264
2026-01-24 11:17:21.79	15.95	37.31	-42.9	-45.6	23.8	6.06e-01	0	37	0	729284608	57	4917
2026-01-24 11:17:22.78	15.63	37.09	-42.6	-45.2	24.3	6.07e-01	0	38	0	731381760	57	4658
2026-01-24 11:17:23.78	15.31	36.87	-42.9	-45.5	24.0	6.08e-01	0	38	0	732954624	57	4863
2026-01-24 11:17:24.78	15.00	36.66	-43.4	-46.1	23.5	6.08e-01	0	38	0	735051776	57	5209
2026-01-24 11:17:25.77	14.69	36.44	-42.7	-45.3	24.2	6.07e-01	0	38	0	737148928	57	4728
2026-01-24 11:17:26.76	14.39	36.23	-42.6	-45.1	24.2	6.06e-01	0	38	0	738721792	57	4644
2026-01-24 11:17:27.76	14.08	36.01	-43.0	-45.6	23.9	6.06e-01	0	37	0	740818944	57	4893
2026-01-24 11:17:28.75	13.79	35.80	-43.0	-45.6	23.9	6.05e-01	0	37	0	742391808	57	4898
2026-01-24 11:17:29.75	13.49	35.58	-42.7	-45.2	24.2	6.07e-01	0	37	0	744488960	57	4701
2026-01-24 11:17:30.74	13.21	35.37	-42.7	-45.2	24.3	6.06e-01	0	37	0	746586112	57	4700
2026-01-24 11:17:31.74	12.92	35.16	-43.1	-45.8	23.8	6.03e-01	0	38	0	748158976	57	4989
2026-01-24 11:17:32.73	12.64	34.95	-43.1	-45.8	23.7	6.06e-01	0	37	0	749731840	57	5013
2026-01-24 11:17:33.72	12.36	34.74	-42.1	-44.5	24.9	6.06e-01	0	37	0	751828992	56	4581
2026-01-24 11:17:34.72	12.09	34.52	-41.8	-44.1	25.2	6.05e-01	0	38	0	753926144	55	4632
2026-01-24 11:17:35.71	11.82	34.32	-42.2	-44.6	24.8	6.05e-01	0	37	0	755499008	55	4926
2026-01-24 11:17:36.71	11.55	34.11	-42.2	-44.9	24.5	6.08e-01	0	38	0	757596160	55	5045
2026-01-24 11:17:37.70	11.29	33.90	-41.8	-44.4	24.9	6.06e-01	0	37	0	759169024	55	4793
2026-01-24 11:17:38.70	11.03	33.69	-41.6	-44.2	25.1	6.05e-01	0	37	0	761266176	55	4657
2026-01-24 11:17:39.69	10.78	33.49	-41.5	-44.1	25.2	6.07e-01	0	38	0	763363328	55	4622
2026-01-24 11:17:40.68	10.52	33.28	-41.5	-44.1	25.2	6.05e-01	0	37	0	764936192	54	4882
2026-01-24 11:17:41.68	10.27	33.08	-41.5	-44.1	25.2	6.06e-01	0	38	0	766509056	54	4898
2026-01-24 11:17:42.67	10.03	32.87	-41.6	-44.1	25.2	6.04e-01	0	38	0	768606208	54	4910
2026-01-24 11:17:43.67	9.78	32.67	-41.6	-44.1	25.2	6.07e-01	0	37	0	770703360	54	4897
2026-01-24 11:17:44.67	9.54	32.47	-41.6	-44.1	25.3	6.07e-01	0	38	0	772276224	54	4885
2026-01-24 11:17:45.66	9.31	32.27	-41.6	-44.1	25.2	6.05e-01	0	38	0	774373376	54	4917
2026-01-24 11:17:46.66	9.07	32.07	-41.5	-43.9	25.4	6.05e-01	0	37	0	775946240	54	4782
2026-01-24 11:17:47.65	8.84	31.87	-41.3	-43.6	25.6	6.06e-01	0	37	0	778043392	54	4633
2026-01-24 11:17:48.65	8.61	31.67	-41.4	-43.8	25.5	6.06e-01	0	38	0	780140544	54	4731
2026-01-24 11:17:49.64	8.39	31.47	-41.6	-44.1	25.2	6.07e-01	0	37	0	781713408	54	4874
2026-01-24 11:17:50.63	8.17	31.28	-41.6	-44.0	25.2	6.05e-01	0	38	0	783286272	54	4848
2026-01-24 11:17:51.63	7.95	31.08	-41.4	-43.8	25.4	6.05e-01	0	37	0	785383424	54	4709
2026-01-24 11:17:52.62	7.73	30.89	-41.3	-43.7	25.5	6.06e-01	0	37	0	787480576	54	4699
2026-01-24 11:17:53.62	7.52	30.69	-41.2	-43.6	25.6	6.06e-01	0	38	0	789053440	54	4614
2026-01-24 11:17:54.62	7.30	30.50	-41.0	-43.4	25.8	6.06e-01	0	37	0	791150592	54	4534
2026-01-24 11:17:55.61	7.10	30.31	-41.1	-43.5	25.7	6.07e-01	0	38	0	792723456	54	4595
2026-01-24 11:17:56.61	6.89	30.12	-41.2	-43.7	25.6	6.07e-01	0	38	0	794820608	54	4661
2026-01-24 11:17:57.60	6.69	29.93	-41.2	-43.5	25.7	6.06e-01	0	37	0	796917760	54	4594
2026-01-24 11:17:58.59	6.49	29.74	-41.1	-43.4	25.8	6.06e-01	0	38	0	798490624	54	4529
2026-01-24 11:17:59.59	6.29	29.55	-41.2	-43.5	25.7	6.05e-01	0	37	0	800587776	54	4584
2026-01-24 11:18:00.58	6.09	29.37	-41.3	-43.7	25.6	6.08e-01	0	37	0	802160640	54	4668
2026-01-24 11:18:01.58	5.90	29.18	-41.3	-43.7	25.5	6.07e-01	0	37	0	804257792	54	4674
2026-01-24 11:18:02.57	5.71	29.00	-41.2	-43.5	25.6	6.08e-01	0	37	0	805830656	54	4590
2026-01-24 11:18:03.57	5.52	28.81	-41.2	-43.5	25.6	6.05e-01	0	37	0	807927808	54	4579
2026-01-24 11:18:04.56	5.33	28.63	-41.2	-43.6	25.6	6.08e-01	0	37	0	809500672	54	4605
2026-01-24 11:18:05.56	5.14	28.45	-41.5	-43.8	25.4	6.04e-01	0	37	0	811597824	54	4758
2026-01-24 11:18:06.55	4.96	28.27	-41.7	-44.1	25.2	6.05e-01	0	37	0	813694976	54	4908
2026-01-24 11:18:07.55	4.78	28.08	-41.6	-44.0	25.2	6.06e-01	0	37	0	815267840	54	4836
2026-01-24 11:18:08.54	4.60	27.91	-41.5	-43.9	25.3	6.05e-01	0	38	0	817364992	54	4791
2026-01-24 11:18:09.54	4.43	27.73	-41.6	-44.0	25.2	6.07e-01	0	37	0	818937856	54	4845
2026-01-24 11:18:10.53	4.25	27.55	-41.6	-43.9	25.3	6.05e-01	0	38	0	821035008	54	4802
2026-01-24 11:18:11.53	4.08	27.37	-41.5	-43.9	25.3	6.05e-01	0	37	0	822607872	54	4791
2026-01-24 11:18:12.52	3.91	27.20	-41.6	-43.9	25.3	6.07e-01	0	37	0	824705024	54	4800
2026-01-24 11:18:13.52	3.74	27.02	-41.6	-44.0	25.0	6.05e-01	0	37	0	826277888	54	4816
2026-01-24 11:18:14.51	3.58	26.85	-41.6	-43.9	25.3	6.05e-01	0	37	0	828375040	54	4807
2026-01-24 11:18:15.50	3.41	26.68	-41.6	-44.0	25.2	6.05e-01	0	37	0	830472192	54	4819
2026-01-24 11:18:16.50	3.25	26.51	-41.6	-44.0	25.2	6.06e-01	0	37	0	832045056	54	4836
2026-01-24 11:18:17.49	3.09	26.34	-41.7	-44.1	25.1	6.05e-01	0	37	0	834142208	54	4899
2026-01-24 11:18:18.49	2.93	26.17	-41.7	-44.1	25.1	6.05e-01	0	37	0	835715072	54	4895
2026-01-24 11:18:19.48	2.78	26.00	-41.7	-44.1	25.1	6.07e-01	0	37	0	837812224	54	4925
2026-01-24 11:18:20.48	2.62	25.83	-41.7	-44.1	25.1	6.05e-01	0	37	0	839385088	54	4906
2026-01-24 11:18:21.47	2.47	25.66	-41.6	-43.9	25.3	6.06e-01	0	38	0	841482240	54	4809
2026-01-24 11:18:22.45	2.32	25.50	-41.6	-44.0	25.2	6.07e-01	0	37	0	843055104	54	4820
2026-01-24 11:18:23.44	2.17	25.34	-41.6	-44.1	25.2	6.06e-01	0	37	0	845152256	54	4872
2026-01-24 11:18:24.44	2.02	25.17	-41.8	-44.3	24.9	6.07e-01	0	37	0	847249408	54	5006
2026-01-24 11:18:25.43	1.87	25.01	-41.8	-44.4	24.8	6.08e-01	0	38	0	848822272	54	5076
2026-01-24 11:18:26.43	1.73	24.84	-41.9	-44.5	24.7	6.06e-01	0	37	0	850919424	54	5124
2026-01-24 11:18:27.42	1.58	24.68	-41.9	-44.5	24.7	6.07e-01	0	37	0	852492288	54	5110
2026-01-24 11:18:28.41	1.44	24.52	-41.8	-44.4	24.8	6.06e-01	0	37	0	854589440	54	5049
2026-01-24 11:18:29.41	1.30	24.36	-41.7	-44.2	25.0	6.07e-01	0	37	0	856162304	54	4941
2026-01-24 11:18:30.40	1.16	24.20	-41.6	-44.1	25.1	6.05e-01	0	37	0	858259456	54	4873
2026-01-24 11:18:31.40	1.03	24.05	-41.6	-44.0	25.1	6.07e-01	0	37	0	859832320	54	4866
2026-01-24 11:18:32.39	0.89	23.89	-41.6	-44.0	25.2	6.08e-01	0	38	0	861929472	54	4859
2026-01-24 11:18:33.39	0.75	23.73	-41.6	-44.1	25.1	6.05e-01	0	38	0	864026624	54	4901
2026-01-24 11:18:34.38	0.62	23.58	-41.6	-44.1	25.0	6.06e-01	0	38	0	865599488	54	4906
2026-01-24 11:18:35.38	0.49	23.42	-41.6	-44.1	25.0	6.05e-01	0	37	0	867696640	54	4913
2026-01-24 11:18:36.37	0.36	23.27	-41.6	-44.2	25.0	6.06e-01	0	37	0	869269504	54	4930
2026-01-24 11:18:37.36	0.23	23.12	-41.6	-44.2	25.0	6.06e-01	0	37	0	871366656	54	4950
2026-01-24 11:18:38.36	0.10	22.96	-41.7	-44.3	24.8	6.07e-01	0	37	0	872939520	54	5038
2026-01-24 11:18:39.35	359.98	22.81	-41.7	-44.3	24.8	6.06e-01	0	38	0	875036672	54	5036
2026-01-24 11:18:40.35	359.85	22.66	-41.9	-44.5	24.7	6.06e-01	0	37	0	876609536	54	5127
2026-01-24 11:18:41.34	359.73	22.51	-41.9	-44.5	24.7	6.07e-01	0	37	0	878706688	54	5114
2026-01-24 11:18:42.34	359.61	22.36	-42.0	-44.6	24.6	6.06e-01	0	37	0	880803840	54	5176
2026-01-24 11:18:43.34	359.48	22.21	-41.9	-44.4	24.7	6.08e-01	0	38	0	882376704	54	5081
2026-01-24 11:18:44.33	359.36	22.07	-41.9	-44.4	24.8	6.08e-01	0	37	0	884473856	54	5068
2026-01-24 11:18:45.32	359.25	21.92	-41.9	-44.4	24.8	6.07e-01	0	38	0	886046720	54	5070
2026-01-24 11:18:46.32	359.13	21.77	-41.9	-44.4	24.7	6.07e-01	0	37	0	888143872	54	5074
2026-01-24 11:18:47.31	359.01	21.63	-41.7	-44.3	24.9	6.06e-01	0	37	0	889716736	54	5002
2026-01-24 11:18:48.31	358.90	21.49	-41.8	-44.4	24.8	6.07e-01	0	37	0	891813888	54	5054
2026-01-24 11:18:49.30	358.78	21.34	-41.8	-44.3	24.8	6.04e-01	0	37	0	893386752	54	5033
2026-01-24 11:18:50.30	358.67	21.20	-41.8	-44.3	24.9	6.06e-01	0	37	0	895483904	54	4993
2026-01-24 11:18:51.29	358.56	21.06	-41.8	-44.3	24.8	6.07e-01	0	38	0	897581056	54	5035
2026-01-24 11:18:52.29	358.45	20.92	-41.8	-44.3	24.9	6.07e-01	0	37	0	899153920	54	5003
2026-01-24 11:18:53.28	358.34	20.78	-41.9	-44.4	24.8	6.09e-01	0	37	0	901251072	54	5046
2026-01-24 11:18:54.28	358.23	20.64	-41.7	-44.2	24.9	6.07e-01	0	37	0	902823936	54	4942
2026-01-24 11:18:55.27	358.12	20.50	-41.6	-44.2	25.0	6.09e-01	0	38	0	904921088	54	4933
2026-01-24 11:18:56.27	358.02	20.36	-41.7	-44.3	24.9	6.07e-01	0	37	0	906493952	54	5007
2026-01-24 11:18:57.26	357.91	20.22	-41.6	-44.1	25.0	6.06e-01	0	37	0	908591104	54	4898
2026-01-24 11:18:58.26	357.81	20.09	-41.7	-44.2	24.9	6.08e-01	0	37	0	910163968	54	4942
2026-01-24 11:18:59.25	357.70	19.95	-41.7	-44.2	24.9	6.06e-01	0	37	0	912261120	54	4967
2026-01-24 11:19:00.25	357.60	19.81	-41.8	-44.2	24.9	6.04e-01	0	38	0	914358272	54	4971
2026-01-24 11:19:01.24	357.50	19.68	-41.8	-44.3	24.9	6.08e-01	0	38	0	915931136	54	4984
2026-01-24 11:19:02.24	357.40	19.55	-41.9	-44.4	24.8	6.07e-01	0	37	0	918028288	54	5067
2026-01-24 11:19:03.23	357.30	19.41	-41.9	-44.4	24.7	6.09e-01	0	37	0	919601152	54	5070
2026-01-24 11:19:04.23	357.20	19.28	-41.9	-44.4	24.7	6.07e-01	0	37	0	921698304	54	5089
2026-01-24 11:19:05.22	357.10	19.15	-41.7	-44.3	24.8	6.05e-01	0	37	0	923271168	54	5006
2026-01-24 11:19:06.22	357.01	19.02	-41.6	-44.3	24.8	6.06e-01	0	37	0	925368320	54	5030
2026-01-24 11:19:07.21	356.91	18.89	-41.5	-44.3	24.9	6.06e-01	0	37	0	926941184	54	4997
2026-01-24 11:19:08.21	356.82	18.76	-41.5	-44.3	24.8	6.07e-01	0	37	0	929038336	54	5000
2026-01-24 11:19:09.20	356.72	18.63	-41.5	-44.3	24.8	6.06e-01	0	37	0	931135488	54	5013
2026-01-24 11:19:10.20	356.63	18.50	-41.6	-44.3	24.9	6.05e-01	0	37	0	932708352	54	5000
2026-01-24 11:19:11.19	356.54	18.37	-41.6	-44.2	24.9	6.06e-01	0	37	0	934805504	54	4933
2026-01-24 11:19:12.18	356.45	18.25	-41.6	-44.1	25.0	6.05e-01	0	37	0	936378368	54	4924
2026-01-24 11:19:13.18	356.36	18.12	-41.7	-44.2	24.9	6.05e-01	0	37	0	938475520	54	4955
2026-01-24 11:19:14.17	356.27	17.99	-41.6	-44.1	25.0	6.05e-01	0	37	0	940048384	54	4917
2026-01-24 11:19:15.17	356.18	17.87	-41.6	-44.2	24.9	6.04e-01	0	37	0	942145536	54	4941
2026-01-24 11:19:16.16	356.09	17.74	-41.5	-44.1	25.0	6.05e-01	0	37	0	943718400	54	4901
2026-01-24 11:19:17.16	356.00	17.62	-41.5	-44.2	24.9	6.07e-01	0	38	0	945815552	54	4939
2026-01-24 11:19:18.15	355.92	17.50	-41.5	-44.2	24.9	6.05e-01	0	37	0	947912704	54	4946
2026-01-24 11:19:19.14	355.83	17.37	-41.5	-44.3	24.8	6.05e-01	0	37	0	949485568	54	4991
2026-01-24 11:19:20.14	355.75	17.25	-41.7	-44.4	24.7	6.04e-01	0	37	0	951582720	54	5044
2026-01-24 11:19:21.13	355.66	17.13	-41.5	-44.1	24.9	6.05e-01	0	38	0	953155584	54	4903
2026-01-24 11:19:22.13	355.58	17.01	-41.6	-44.1	24.9	6.06e-01	0	38	0	955252736	54	4907
2026-01-24 11:19:23.12	355.49	16.89	-41.6	-44.1	25.0	6.07e-01	0	37	0	956825600	54	4910
2026-01-24 11:19:24.12	355.41	16.77	-41.5	-44.1	25.0	6.08e-01	0	37	0	958922752	54	4903
2026-01-24 11:19:25.11	355.33	16.65	-41.5	-44.1	25.0	6.07e-01	0	37	0	960495616	54	4895
2026-01-24 11:19:26.11	355.25	16.53	-41.6	-44.2	24.8	6.06e-01	0	37	0	962592768	54	4939
2026-01-24 11:19:27.10	355.17	16.41	-41.7	-44.2	24.8	6.07e-01	0	37	0	964689920	54	4983
2026-01-24 11:19:28.10	355.09	16.30	-41.6	-44.2	24.9	6.06e-01	0	37	0	966262784	54	4972
2026-01-24 11:19:29.10	355.01	16.18	-41.6	-44.2	24.9	6.09e-01	0	37	0	968359936	54	4979
2026-01-24 11:19:30.09	354.94	16.06	-41.7	-44.4	24.7	6.08e-01	0	37	0	969932800	54	5063
2026-01-24 11:19:31.09	354.86	15.95	-41.7	-44.4	24.7	6.06e-01	0	37	0	972029952	54	5056
2026-01-24 11:19:32.08	354.78	15.83	-41.8	-44.5	24.7	6.07e-01	0	37	0	973602816	54	5133
2026-01-24 11:19:33.08	354.71	15.72	-41.8	-44.6	24.5	6.08e-01	0	37	0	975699968	54	5164
2026-01-24 11:19:34.07	354.63	15.60	-41.8	-44.4	24.7	6.04e-01	0	37	0	977797120	54	5067
2026-01-24 11:19:35.07	354.56	15.49	-41.7	-44.3	24.7	6.07e-01	0	37	0	979369984	54	5016
2026-01-24 11:19:36.06	354.48	15.38	-41.8	-44.4	24.7	6.04e-01	0	37	0	981467136	54	5047
2026-01-24 11:19:37.05	354.41	15.27	-41.8	-44.4	24.7	6.08e-01	0	37	0	983040000	54	5081
2026-01-24 11:19:38.05	354.34	15.15	-41.8	-44.4	24.7	6.03e-01	0	37	0	985137152	54	5072
2026-01-24 11:19:39.04	354.26	15.04	-41.8	-44.4	24.6	6.01e-01	0	38	0	986710016	54	5088
2026-01-24 11:19:40.04	354.19	14.93	-41.6	-44.2	24.8	6.04e-01	0	37	0	988807168	54	4961
2026-01-24 11:19:41.03	354.12	14.82	-41.7	-44.4	24.6	6.02e-01	0	38	0	990380032	54	5062
2026-01-24 11:19:42.03	354.05	14.71	-41.8	-44.4	24.7	6.02e-01	0	38	0	992477184	54	5090
2026-01-24 11:19:43.02	353.98	14.60	-41.8	-44.4	24.7	6.04e-01	0	38	0	994574336	54	5075
2026-01-24 11:19:44.02	353.91	14.49	-41.7	-44.3	24.8	6.02e-01	0	37	0	996147200	54	5024
2026-01-24 11:19:45.01	353.84	14.38	-41.7	-44.2	24.8	6.02e-01	0	37	0	998244352	54	4954
2026-01-24 11:19:46.01	353.78	14.28	-41.7	-44.3	24.8	6.03e-01	0	38	0	999817216	54	4989
2026-01-24 11:19:47.00	353.71	14.17	-41.8	-44.3	24.8	6.00e-01	0	37	0	1001914368	54	5020
2026-01-24 11:19:47.99	353.64	14.06	-41.7	-44.3	24.8	6.04e-01	0	37	0	1003487232	54	5018
2026-01-24 11:19:48.99	353.58	13.96	-41.8	-44.4	24.7	6.02e-01	0	37	0	1005584384	54	5045
2026-01-24 11:19:49.98	353.51	13.85	-41.7	-44.3	24.8	6.03e-01	0	38	0	1007157248	54	5032
2026-01-24 11:19:50.98	353.44	13.74	-41.7	-44.3	24.7	6.04e-01	0	37	0	1009254400	54	5023
2026-01-24 11:19:51.97	353.38	13.64	-41.7	-44.3	24.7	6.00e-01	0	37	0	1011351552	54	5040
2026-01-24 11:19:52.97	353.32	13.54	-41.7	-44.3	24.7	6.05e-01	0	38	0	1012924416	54	5033
2026-01-24 11:19:53.96	353.25	13.43	-41.6	-44.3	24.7	6.02e-01	0	38	0	1015021568	54	5028
2026-01-24 11:19:54.96	353.19	13.33	-41.5	-44.3	24.7	6.03e-01	0	38	0	1016594432	54	5015
2026-01-24 11:19:55.95	353.13	13.23	-41.4	-44.3	24.7	6.03e-01	0	37	0	1018691584	54	5022
2026-01-24 11:19:56.95	353.06	13.12	-41.1	-44.4	24.7	6.04e-01	0	38	0	1020264448	54	5046
2026-01-24 11:19:57.94	353.00	13.02	-40.9	-44.3	24.6	6.03e-01	0	38	0	1022361600	53	5334
2026-01-24 11:19:58.94	352.94	12.92	-40.7	-44.3	24.7	6.02e-01	0	37	0	1023934464	53	5312
2026-01-24 11:19:59.93	352.88	12.82	-40.7	-44.3	24.7	6.04e-01	0	37	0	1026031616	53	5326
2026-01-24 11:20:00.93	352.82	12.72	-40.7	-44.4	24.5	6.04e-01	0	38	0	1028128768	53	5367
2026-01-24 11:20:01.92	352.76	12.62	-40.7	-44.4	24.5	6.02e-01	0	38	0	1029701632	53	5391
2026-01-24 11:20:02.92	352.70	12.51	-40.7	-44.5	24.5	6.02e-01	0	38	0	1031798784	53	5409
2026-01-24 11:20:03.91	352.64	12.42	-40.7	-44.5	24.5	6.05e-01	0	38	0	1033371648	53	5411
2026-01-24 11:20:04.91	352.58	12.32	-40.8	-44.5	24.5	6.04e-01	0	37	0	1035468800	53	5405
2026-01-24 11:20:05.90	352.52	12.22	-41.0	-44.5	24.4	6.02e-01	0	37	0	1037041664	53	5449
2026-01-24 11:20:06.90	352.47	12.12	-41.1	-44.7	24.4	6.01e-01	0	37	0	1039138816	53	5535
2026-01-24 11:20:07.89	352.41	12.02	-41.2	-44.7	24.3	6.02e-01	0	38	0	1041235968	53	5538
2026-01-24 11:20:08.89	352.35	11.92	-41.3	-44.7	24.3	6.02e-01	0	38	0	1042808832	53	5571
2026-01-24 11:20:09.88	352.30	11.83	-41.3	-44.7	24.3	6.04e-01	0	38	0	1044905984	53	5557
2026-01-24 11:20:10.88	352.24	11.73	-41.4	-44.9	24.1	6.03e-01	0	37	0	1046478848	53	5668
2026-01-24 11:20:11.87	352.19	11.63	-41.4	-44.8	24.1	6.02e-01	0	38	0	1048576000	53	5647
2026-01-24 11:20:12.86	352.13	11.54	-41.3	-44.9	24.0	6.03e-01	0	37	0	1050148864	53	5695
2026-01-24 11:20:13.86	352.08	11.44	-41.2	-45.0	24.0	6.03e-01	0	37	0	1052246016	53	5740
2026-01-24 11:20:14.85	352.02	11.35	-40.9	-44.9	24.0	6.00e-01	0	37	0	1053818880	53	5688
2026-01-24 11:20:15.85	351.97	11.25	-40.5	-44.9	24.1	6.02e-01	0	38	0	1055916032	53	5672
2026-01-24 11:20:16.85	351.91	11.16	-40.3	-44.9	24.0	6.01e-01	0	37	0	1058013184	52	5997
2026-01-24 11:20:17.84	351.86	11.06	-40.0	-45.0	23.9	6.00e-01	0	37	0	1059586048	51	6423
2026-01-24 11:20:18.84	351.81	10.97	-40.0	-45.0	24.0	6.03e-01	0	37	0	1061683200	51	6453
2026-01-24 11:20:19.83	351.76	10.88	-40.0	-45.1	23.8	6.02e-01	0	37	0	1063256064	51	6513
2026-01-24 11:20:20.83	351.70	10.78	-39.7	-45.0	24.0	6.00e-01	0	37	0	1065353216	51	6442
2026-01-24 11:20:21.82	351.65	10.69	-39.7	-45.0	23.9	6.05e-01	0	37	0	1066926080	51	6455
2026-01-24 11:20:22.82	351.60	10.60	-39.6	-45.1	23.8	6.02e-01	0	37	0	1069023232	51	6526
2026-01-24 11:20:23.81	351.55	10.51	-39.7	-45.0	23.8	6.02e-01	0	38	0	1070596096	51	6494
2026-01-24 11:20:24.80	351.50	10.42	-40.1	-45.1	23.8	6.07e-01	0	37	0	1072693248	51	6541
2026-01-24 11:20:25.80	351.45	10.32	-40.1	-45.0	23.9	6.00e-01	0	38	0	1074790400	51	6465
2026-01-24 11:20:26.79	351.40	10.23	-40.6	-45.1	23.9	6.03e-01	0	38	0	1076363264	51	6515
2026-01-24 11:20:27.79	351.35	10.14	-41.0	-45.1	23.8	6.04e-01	0	38	0	1078460416	52	6156
2026-01-24 11:20:28.79	351.30	10.05	-41.0	-45.1	23.8	6.03e-01	0	37	0	1080033280	52	6142
2026-01-24 11:20:29.78	351.26	9.96	-41.2	-45.2	23.7	6.03e-01	0	38	0	1082130432	53	5868
2026-01-24 11:20:30.77	351.21	9.87	-41.2	-45.1	23.8	6.03e-01	0	37	0	1083703296	53	5791
2026-01-24 11:20:31.77	351.16	9.78	-41.1	-45.1	23.7	6.02e-01	0	38	0	1085800448	53	5844
2026-01-24 11:20:32.77	351.11	9.70	-41.1	-45.2	23.7	6.02e-01	0	37	0	1087373312	53	5857
2026-01-24 11:20:33.76	351.06	9.61	-41.2	-45.2	23.7	6.06e-01	0	38	0	1089470464	53	5899
2026-01-24 11:20:34.75	351.02	9.52	-41.2	-45.3	23.5	6.06e-01	0	37	0	1091567616	53	5960
2026-01-24 11:20:35.75	350.97	9.43	-41.0	-45.2	23.6	6.04e-01	0	38	0	1093140480	53	5909
2026-01-24 11:20:36.74	350.93	9.34	-41.1	-45.3	23.6	6.04e-01	0	37	0	1095237632	53	5935
2026-01-24 11:20:37.74	350.88	9.26	-41.1	-45.2	23.7	6.05e-01	0	38	0	1096810496	53	5879
2026-01-24 11:20:38.74	350.83	9.17	-41.1	-45.3	23.5	6.00e-01	0	38	0	1098907648	53	5942
2026-01-24 11:20:39.73	350.79	9.08	-41.1	-45.2	23.6	6.04e-01	0	37	0	1100480512	53	5918
2026-01-24 11:20:40.73	350.74	9.00	-43.9	-50.4	19.7	6.04e-01	0	38	0	1102577664	58	8082
2026-01-24 11:20:41.72	350.70	8.91	-45.3	-69.9	3.8	7.48e-01	0	38	104	1103101952	62	60017
2026-01-24 11:20:42.71	350.65	8.83	-49.3	-70.3	3.8	7.46e-01	0	37	104	1103101952	69	42366
2026-01-24 11:20:43.71	350.61	8.74	-47.3	-70.3	3.8	7.49e-01	0	38	104	1103101952	66	50031
2026-01-24 11:20:44.70	350.57	8.66	-50.0	-70.6	3.9	7.44e-01	0	38	104	1103101952	71	39108
2026-01-24 11:20:45.69	350.52	8.57	-48.5	-70.6	3.8	7.47e-01	0	37	104	1103101952	67	49184
2026-01-24 11:20:46.69	350.48	8.49	-50.2	-70.9	3.8	7.43e-01	0	37	104	1103101952	71	40404
2026-01-24 11:20:47.68	350.44	8.40	-49.9	-70.9	3.8	7.46e-01	0	37	104	1103101952	71	40052
2026-01-24 11:20:48.67	350.40	8.32	-49.1	-70.9	3.7	7.46e-01	0	38	104	1103101952	70	42634
2026-01-24 11:20:49.67	350.35	8.24	-49.9	-70.9	3.8	7.44e-01	0	37	104	1103101952	71	40275
2026-01-24 11:20:50.66	350.31	8.15	-50.7	-71.4	3.9	7.47e-01	0	37	104	1103101952	71	42714
2026-01-24 11:20:51.65	350.27	8.07	-50.1	-70.9	3.8	7.45e-01	0	37	104	1103101952	72	38028
2026-01-24 11:20:52.65	350.23	7.99	-49.3	-70.9	3.8	7.44e-01	0	38	104	1103101952	70	42875
2026-01-24 11:20:53.64	350.19	7.91	-50.4	-71.0	3.8	7.44e-01	0	38	104	1103101952	71	40623
2026-01-24 11:20:54.63	350.15	7.83	-50.6	-71.0	3.8	7.46e-01	0	38	104	1103101952	71	40785
2026-01-24 11:20:55.63	350.11	7.74	-49.9	-71.0	3.7	7.44e-01	0	38	104	1103101952	71	40689
2026-01-24 11:20:56.62	350.07	7.66	-50.7	-71.1	3.8	7.44e-01	0	38	104	1103101952	72	38708
2026-01-24 11:20:57.61	350.03	7.58	-49.6	-71.0	3.8	7.49e-01	0	38	104	1103101952	71	40809
2026-01-24 11:20:58.60	349.99	7.50	-50.4	-71.0	3.8	7.47e-01	0	38	104	1103101952	71	40807
2026-01-24 11:20:59.60	349.95	7.42	-50.3	-71.0	3.8	7.48e-01	0	38	104	1103101952	72	38286
2026-01-24 11:21:00.59	349.91	7.34	-50.2	-71.0	3.8	7.45e-01	0	38	104	1103101952	71	40875
2026-01-24 11:21:01.58	349.87	7.26	-50.8	-71.0	3.8	7.44e-01	0	38	104	1103101952	72	38459
2026-01-24 11:21:02.58	349.83	7.18	-51.0	-71.0	3.8	7.46e-01	0	38	104	1103101952	72	38456
2026-01-24 11:21:03.57	349.79	7.10	-51.0	-71.0	3.8	7.42e-01	0	38	104	1103101952	72	38356
2026-01-24 11:21:04.56	349.75	7.02	-50.3	-71.0	3.8	7.47e-01	0	38	104	1103101952	72	38377
2026-01-24 11:21:05.56	349.72	6.94	-50.8	-71.0	3.8	7.48e-01	0	37	104	1103101952	72	38292
2026-01-24 11:21:06.55	349.68	6.87	-50.6	-71.0	3.8	7.48e-01	0	37	104	1103101952	72	38318
2026-01-24 11:21:07.54	349.64	6.79	-50.6	-70.9	3.8	7.48e-01	0	37	104	1103101952	72	38234
2026-01-24 11:21:08.54	349.60	6.71	-50.2	-71.0	3.8	7.47e-01	0	37	104	1103101952	71	40770
2026-01-24 11:21:09.53	349.57	6.63	-50.2	-71.0	3.8	7.45e-01	0	38	104	1103101952	71	40589
2026-01-24 11:21:10.52	349.53	6.55	-50.2	-71.0	3.8	7.45e-01	0	38	104	1103101952	71	40556
2026-01-24 11:21:11.52	349.49	6.48	-50.2	-71.0	3.8	7.49e-01	0	37	104	1103101952	71	40519
2026-01-24 11:21:12.51	349.46	6.40	-50.2	-70.9	3.8	7.45e-01	0	38	104	1103101952	71	40490
2026-01-24 11:21:13.50	349.42	6.32	-50.2	-70.9	3.8	7.44e-01	0	38	104	1103101952	71	40432
2026-01-24 11:21:14.49	349.39	6.25	-50.2	-70.9	3.8	7.43e-01	0	38	104	1103101952	71	40370
2026-01-24 11:21:15.49	349.35	6.17	-50.2	-70.9	3.8	7.45e-01	0	38	104	1103101952	71	40461
2026-01-24 11:21:16.48	349.31	6.09	-50.2	-70.9	3.8	7.45e-01	0	38	104	1103101952	71	40374
2026-01-24 11:21:17.47	349.28	6.02	-50.1	-70.9	3.8	7.47e-01	0	37	104	1103101952	71	40454
2026-01-24 11:21:18.46	349.25	5.94	-50.2	-70.9	3.8	7.45e-01	0	38	104	1103101952	71	40361
2026-01-24 11:21:19.46	349.21	5.87	-50.2	-70.9	3.8	7.46e-01	0	38	104	1103101952	71	40287
2026-01-24 11:21:20.45	349.18	5.79	-50.2	-70.9	3.8	7.48e-01	0	38	104	1103101952	71	40319
2026-01-24 11:21:21.44	349.14	5.72	-50.1	-70.9	3.8	7.46e-01	0	38	104	1103101952	71	40369
2026-01-24 11:21:22.44	349.11	5.64	-50.1	-70.9	3.8	7.45e-01	0	38	104	1103101952	71	40261
2026-01-24 11:21:23.43	349.07	5.57	-50.1	-70.9	3.8	7.49e-01	0	38	104	1103101952	71	40233
2026-01-24 11:21:24.42	349.04	5.49	-50.1	-70.9	3.8	7.47e-01	0	37	104	1103101952	71	40363
2026-01-24 11:21:25.42	349.01	5.42	-50.1	-70.9	3.8	7.45e-01	0	38	104	1103101952	71	40308
2026-01-24 11:21:26.41	348.97	5.34	-50.1	-70.9	3.8	7.46e-01	0	38	104	1103101952	71	40319
2026-01-24 11:21:27.40	348.94	5.27	-50.1	-70.9	3.8	7.47e-01	0	38	104	1103101952	71	40289
2026-01-24 11:21:28.40	348.91	5.20	-50.2	-70.9	3.8	7.47e-01	0	38	104	1103101952	71	40298
2026-01-24 11:21:29.39	348.88	5.12	-50.1	-70.9	3.8	7.45e-01	0	38	104	1103101952	71	40335
2026-01-24 11:21:30.38	348.84	5.05	-50.1	-70.9	3.8	7.46e-01	0	38	104	1103101952	71	40298
2026-01-24 11:21:31.37	348.81	4.98	-50.2	-70.9	3.8	7.46e-01	0	37	104	1103101952	71	40304

#Closed at: 2026-01-24 11:21:32
#Recorded file [1103 MB]: D:/Data/31040_260124_141024.dat