passes_logs/2026/01/24/T1/T1__20260124_220802_SUOMI_NPP_rec.log

#Pass ID: 20260124_220802_SUOMI NPP
#Satellite: SUOMI NPP
#Configuration: NPP
#almurnet v.1.7.20251203
#Start time: 2026-01-24 22:08:02

#Version: 2.0.20230620
#Station: T1
#Location: 37.570604 lon 55.790049 lat
#TLE: 1 37849U 11061A   26024.54906732  .00000185  00000+0  10878-3 0  9990
#TLE: 2 37849  98.7821 326.5159 0002200  47.3746 312.7615 14.19529340738061

#Time	Az	El	Level	Level2	SNR	BER	BlckErr	Temp	State	Recorded	gain1	gain2
2026-01-24 22:08:02.13	31.25	5.00	-48.1	-63.4	3.8	1.49e+00	0	37	0	0	68	20143
2026-01-24 22:08:03.12	31.34	5.05	-48.0	-63.2	3.8	1.49e+00	0	37	104	0	66	22047
2026-01-24 22:08:04.11	31.43	5.11	-48.0	-63.2	3.8	1.49e+00	0	37	104	0	66	22133
2026-01-24 22:08:05.11	31.53	5.16	-48.0	-63.2	3.8	1.49e+00	0	37	104	0	66	22111
2026-01-24 22:08:06.10	31.62	5.22	-47.9	-63.1	3.8	1.49e+00	0	37	104	0	66	21986
2026-01-24 22:08:07.09	31.72	5.27	-48.0	-63.2	3.8	1.49e+00	0	38	104	0	66	22085
2026-01-24 22:08:08.09	31.81	5.33	-47.9	-63.2	3.8	1.49e+00	0	38	104	0	66	22036
2026-01-24 22:08:09.08	31.91	5.38	-48.0	-63.2	3.8	1.49e+00	0	38	104	0	66	22088
2026-01-24 22:08:10.07	32.00	5.44	-47.9	-63.2	3.8	1.49e+00	0	38	104	0	66	22060
2026-01-24 22:08:11.07	32.10	5.50	-47.9	-63.2	3.8	1.49e+00	0	38	104	0	66	22137
2026-01-24 22:08:12.06	32.19	5.55	-47.9	-63.2	3.8	1.49e+00	0	38	104	0	66	22111
2026-01-24 22:08:13.05	32.29	5.61	-47.9	-63.2	3.8	1.49e+00	0	38	104	0	66	22119
2026-01-24 22:08:14.05	32.39	5.66	-47.9	-63.2	3.8	1.49e+00	0	38	104	0	66	22113
2026-01-24 22:08:15.04	32.48	5.72	-47.9	-63.2	3.8	1.49e+00	0	38	104	0	66	22058
2026-01-24 22:08:16.03	32.58	5.78	-47.9	-63.2	3.8	1.49e+00	0	38	104	0	66	22011
2026-01-24 22:08:17.03	32.68	5.83	-47.9	-63.2	3.8	1.49e+00	0	38	104	0	66	22010
2026-01-24 22:08:18.02	32.78	5.89	-47.9	-63.2	3.8	1.49e+00	0	38	104	0	66	22095
2026-01-24 22:08:19.01	32.88	5.94	-47.9	-63.2	3.8	1.49e+00	0	38	104	0	66	22071
2026-01-24 22:08:20.01	32.98	6.00	-47.9	-63.2	3.8	1.49e+00	0	38	104	0	66	22083
2026-01-24 22:08:21.00	33.08	6.06	-47.9	-63.2	3.8	1.49e+00	0	38	104	0	66	22082
2026-01-24 22:08:21.99	33.18	6.11	-47.9	-63.2	3.8	1.49e+00	0	38	104	0	66	22017
2026-01-24 22:08:22.99	33.28	6.17	-47.9	-63.2	3.8	1.49e+00	0	38	104	0	66	22014
2026-01-24 22:08:23.98	33.38	6.23	-47.9	-63.1	3.8	1.49e+00	0	38	104	0	66	21981
2026-01-24 22:08:24.97	33.48	6.28	-47.9	-63.2	3.8	1.49e+00	0	38	104	0	66	22050
2026-01-24 22:08:25.97	33.58	6.34	-47.9	-63.1	3.8	1.49e+00	0	38	104	0	66	21943
2026-01-24 22:08:26.96	33.68	6.40	-47.9	-63.1	3.8	1.49e+00	0	39	104	0	66	21876
2026-01-24 22:08:27.95	33.78	6.45	-47.9	-63.1	3.8	1.49e+00	0	38	104	0	66	21812
2026-01-24 22:08:28.94	33.89	6.51	-47.9	-63.1	3.8	1.49e+00	0	38	104	0	66	21846
2026-01-24 22:08:29.94	33.99	6.57	-47.9	-63.1	3.8	1.49e+00	0	38	104	0	66	21878
2026-01-24 22:08:30.93	34.09	6.62	-47.9	-63.1	3.8	1.49e+00	0	38	104	0	66	21899
2026-01-24 22:08:31.93	34.20	6.68	-47.9	-63.1	3.8	1.49e+00	0	38	104	0	66	21873
2026-01-24 22:08:32.92	34.30	6.74	-47.9	-63.1	3.8	1.49e+00	0	38	104	0	66	21808
2026-01-24 22:08:33.91	34.40	6.79	-47.9	-63.1	3.8	1.49e+00	0	38	104	0	66	21889
2026-01-24 22:08:34.91	34.51	6.85	-47.9	-63.1	3.8	1.49e+00	0	38	104	0	66	21855
2026-01-24 22:08:35.90	34.61	6.91	-47.9	-63.1	3.8	1.49e+00	0	39	104	0	66	21973
2026-01-24 22:08:36.89	34.72	6.97	-47.9	-63.1	3.8	1.49e+00	0	38	104	0	66	21989
2026-01-24 22:08:37.89	34.83	7.02	-47.9	-63.1	3.8	1.49e+00	0	38	104	0	66	21970
2026-01-24 22:08:38.88	34.93	7.08	-47.9	-63.1	3.8	1.49e+00	0	38	104	0	66	21946
2026-01-24 22:08:39.87	35.04	7.14	-47.9	-63.1	3.8	1.49e+00	0	38	104	0	66	21941
2026-01-24 22:08:40.87	35.15	7.19	-47.9	-63.1	3.8	1.49e+00	0	39	104	0	66	21978
2026-01-24 22:08:41.86	35.25	7.25	-47.9	-63.1	3.8	1.49e+00	0	39	104	0	66	21959
2026-01-24 22:08:42.85	35.36	7.31	-47.9	-63.1	3.8	1.49e+00	0	39	104	0	66	21857
2026-01-24 22:08:43.84	35.47	7.37	-47.9	-63.0	3.8	1.49e+00	0	38	104	0	66	21653
2026-01-24 22:08:44.84	35.58	7.42	-47.9	-63.0	3.8	1.49e+00	0	39	104	0	66	21575
2026-01-24 22:08:45.83	35.69	7.48	-47.9	-63.0	3.8	1.49e+00	0	39	104	0	66	21512
2026-01-24 22:08:46.82	35.80	7.54	-47.9	-62.9	3.8	1.49e+00	0	39	104	0	66	21447
2026-01-24 22:08:47.82	35.91	7.60	-47.9	-62.9	3.8	1.49e+00	0	39	104	0	66	21436
2026-01-24 22:08:48.81	36.02	7.65	-47.9	-62.9	3.8	1.49e+00	0	39	104	0	66	21401
2026-01-24 22:08:49.80	36.13	7.71	-47.9	-62.8	3.8	1.49e+00	0	39	104	0	66	21129
2026-01-24 22:08:50.79	36.24	7.77	-47.9	-62.7	3.8	1.49e+00	0	39	104	0	66	21010
2026-01-24 22:08:51.79	36.35	7.83	-47.9	-62.6	3.8	1.49e+00	0	39	104	0	66	20680
2026-01-24 22:08:52.78	36.46	7.89	-47.9	-62.6	3.8	1.49e+00	0	39	104	0	66	20684
2026-01-24 22:08:53.77	36.58	7.94	-47.9	-62.6	3.8	1.49e+00	0	39	104	0	66	20708
2026-01-24 22:08:54.77	36.69	8.00	-47.9	-62.7	3.8	1.49e+00	0	39	104	0	66	20961
2026-01-24 22:08:55.76	36.80	8.06	-47.9	-62.9	3.8	1.49e+00	0	39	104	0	66	21358
2026-01-24 22:08:56.75	36.92	8.12	-47.9	-63.0	3.8	1.49e+00	0	39	104	0	66	21679
2026-01-24 22:08:57.75	37.03	8.18	-47.9	-63.0	3.8	1.49e+00	0	39	104	0	66	21732
2026-01-24 22:08:58.74	37.15	8.23	-47.9	-63.1	3.8	1.49e+00	0	39	104	0	66	21851
2026-01-24 22:08:59.73	37.26	8.29	-47.9	-63.1	3.8	1.49e+00	0	39	104	0	66	21826
2026-01-24 22:09:00.73	37.38	8.35	-47.9	-63.1	3.8	1.49e+00	0	39	104	0	66	21897
2026-01-24 22:09:01.72	37.49	8.41	-47.9	-63.1	3.8	1.49e+00	0	39	104	0	66	21778
2026-01-24 22:09:02.71	37.61	8.47	-47.9	-63.0	3.8	1.49e+00	0	39	104	0	66	21523
2026-01-24 22:09:03.71	37.73	8.52	-47.9	-62.8	3.8	1.49e+00	0	39	104	0	66	21145
2026-01-24 22:09:04.70	37.85	8.58	-47.9	-62.7	3.8	1.49e+00	0	39	104	0	66	20836
2026-01-24 22:09:05.69	37.96	8.64	-47.9	-62.5	3.8	1.49e+00	0	39	104	0	66	20377
2026-01-24 22:09:06.69	38.08	8.70	-47.9	-62.3	3.8	1.49e+00	0	39	104	0	66	19890
2026-01-24 22:09:07.68	38.20	8.76	-47.8	-61.9	3.8	1.49e+00	0	39	104	0	66	19166
2026-01-24 22:09:08.67	38.32	8.82	-47.8	-61.2	3.8	1.49e+00	0	39	104	0	66	17645
2026-01-24 22:09:09.66	38.44	8.87	-47.7	-59.6	4.2	1.49e+00	0	39	104	0	66	14688
2026-01-24 22:09:10.66	38.56	8.93	-47.4	-57.4	5.1	1.14e+00	0	39	0	1048576	66	11354
2026-01-24 22:09:11.65	38.68	8.99	-47.1	-55.3	6.6	2.94e-01	0	39	0	3145728	66	8867
2026-01-24 22:09:12.65	38.80	9.05	-46.0	-51.5	10.5	6.63e-02	0	39	0	4194304	63	6814
2026-01-24 22:09:13.64	38.92	9.11	-47.4	-56.9	5.7	1.49e-03	0	39	0	6291456	65	11365
2026-01-24 22:09:14.64	39.05	9.17	-46.5	-53.1	8.4	1.47e+00	0	39	0	6291456	65	7316
2026-01-24 22:09:15.63	39.17	9.23	-47.3	-56.3	6.0	7.08e-02	0	39	0	7340032	65	10615
2026-01-24 22:09:16.62	39.29	9.29	-45.9	-51.3	10.4	5.55e-01	0	39	0	9437184	63	6670
2026-01-24 22:09:17.62	39.42	9.34	-43.9	-47.5	14.5	1.50e-06	0	39	0	11534336	59	5403
2026-01-24 22:09:18.61	39.54	9.40	-43.7	-47.0	15.0	0.00e+00	0	39	0	13631488	59	5124
2026-01-24 22:09:19.61	39.66	9.46	-43.1	-46.2	15.7	0.00e+00	0	39	0	15728640	58	4950
2026-01-24 22:09:20.60	39.79	9.52	-42.9	-45.8	16.2	0.00e+00	0	39	0	16777216	57	5039
2026-01-24 22:09:21.60	39.92	9.58	-42.9	-45.8	16.2	0.00e+00	0	39	0	18874368	57	5036
2026-01-24 22:09:22.59	40.04	9.64	-42.9	-45.9	16.1	0.00e+00	0	39	0	20971520	57	5060
2026-01-24 22:09:23.58	40.17	9.70	-42.7	-45.6	16.4	0.00e+00	0	39	0	23068672	57	4883
2026-01-24 22:09:24.58	40.29	9.76	-42.6	-45.5	16.5	0.00e+00	0	39	0	24117248	57	4840
2026-01-24 22:09:25.58	40.42	9.82	-42.6	-45.4	16.5	0.00e+00	0	39	0	26214400	57	4806
2026-01-24 22:09:26.57	40.55	9.87	-42.5	-45.3	16.7	0.00e+00	0	39	0	28311552	56	5032
2026-01-24 22:09:27.56	40.68	9.93	-42.5	-45.4	16.7	0.00e+00	0	39	0	30408704	56	5051
2026-01-24 22:09:28.56	40.81	9.99	-42.7	-45.5	16.4	0.00e+00	0	39	0	32505856	56	5157
2026-01-24 22:09:29.55	40.94	10.05	-42.5	-45.3	16.8	0.00e+00	0	39	0	33554432	56	5003
2026-01-24 22:09:30.55	41.07	10.11	-42.4	-45.2	16.8	0.00e+00	0	39	0	35651584	56	4983
2026-01-24 22:09:31.54	41.20	10.17	-42.5	-45.3	16.7	0.00e+00	0	39	0	37748736	56	5021
2026-01-24 22:09:32.54	41.33	10.23	-42.5	-45.3	16.7	0.00e+00	0	39	0	39845888	56	5005
2026-01-24 22:09:33.53	41.46	10.29	-42.5	-45.3	16.7	0.00e+00	0	39	0	40894464	56	5000
2026-01-24 22:09:34.53	41.59	10.35	-42.4	-45.2	16.8	0.00e+00	0	39	0	42991616	56	4941
2026-01-24 22:09:35.52	41.73	10.41	-42.5	-45.3	16.7	0.00e+00	0	39	0	45088768	56	5034
2026-01-24 22:09:36.51	41.86	10.47	-42.3	-45.1	16.9	0.00e+00	0	39	0	47185920	56	4925
2026-01-24 22:09:37.51	41.99	10.52	-42.2	-45.0	16.9	0.00e+00	0	39	0	49283072	56	4843
2026-01-24 22:09:38.51	42.13	10.58	-42.3	-45.1	16.9	0.00e+00	0	39	0	50331648	56	4916
2026-01-24 22:09:39.50	42.26	10.64	-42.2	-44.9	17.1	0.00e+00	0	39	0	52428800	56	4808
2026-01-24 22:09:40.49	42.40	10.70	-42.2	-45.0	17.1	0.00e+00	0	39	0	54525952	56	4838
2026-01-24 22:09:41.49	42.53	10.76	-42.2	-44.9	17.1	0.00e+00	0	39	0	56623104	56	4812
2026-01-24 22:09:42.48	42.67	10.82	-42.2	-45.0	17.1	0.00e+00	0	39	0	57671680	56	4825
2026-01-24 22:09:43.48	42.81	10.88	-42.2	-44.9	17.1	0.00e+00	0	39	0	59768832	56	4796
2026-01-24 22:09:44.48	42.95	10.94	-42.2	-45.0	17.1	0.00e+00	0	39	0	61865984	56	4838
2026-01-24 22:09:45.47	43.08	11.00	-42.2	-44.9	17.2	0.00e+00	0	39	0	63963136	56	4767
2026-01-24 22:09:46.47	43.22	11.06	-42.1	-44.8	17.2	0.00e+00	0	39	0	66060288	56	4735
2026-01-24 22:09:47.46	43.36	11.12	-42.2	-44.9	17.1	0.00e+00	0	39	0	67108864	56	4782
2026-01-24 22:09:48.46	43.50	11.18	-42.2	-45.0	17.1	0.00e+00	0	39	0	69206016	56	4817
2026-01-24 22:09:49.45	43.64	11.24	-42.2	-44.8	17.2	0.00e+00	0	39	0	71303168	56	4757
2026-01-24 22:09:50.45	43.78	11.29	-42.4	-45.2	16.9	0.00e+00	0	39	0	73400320	56	4936
2026-01-24 22:09:51.45	43.92	11.35	-42.4	-45.1	16.9	0.00e+00	0	39	0	75497472	56	4918
2026-01-24 22:09:52.44	44.06	11.41	-42.6	-45.4	16.7	0.00e+00	0	39	0	76546048	56	5060
2026-01-24 22:09:53.43	44.21	11.47	-42.7	-45.5	16.5	0.00e+00	0	39	0	78643200	56	5144
2026-01-24 22:09:54.43	44.35	11.53	-42.8	-45.7	16.4	0.00e+00	0	39	0	80740352	56	5224
2026-01-24 22:09:55.43	44.49	11.59	-42.5	-45.3	16.8	0.00e+00	0	39	0	82837504	56	5004
2026-01-24 22:09:56.42	44.64	11.65	-42.6	-45.5	16.7	0.00e+00	0	39	0	83886080	56	5129
2026-01-24 22:09:57.41	44.78	11.71	-42.6	-45.4	16.8	0.00e+00	0	40	0	85983232	56	5046
2026-01-24 22:09:58.41	44.93	11.77	-42.4	-45.2	16.9	0.00e+00	0	39	0	88080384	56	4940
2026-01-24 22:09:59.41	45.07	11.83	-42.4	-45.2	16.9	0.00e+00	0	39	0	90177536	56	4961
2026-01-24 22:10:00.40	45.22	11.89	-42.2	-44.9	17.1	0.00e+00	0	39	0	92274688	56	4808
2026-01-24 22:10:01.39	45.37	11.94	-42.2	-44.9	17.1	0.00e+00	0	39	0	93323264	56	4798
2026-01-24 22:10:02.39	45.51	12.00	-42.1	-44.7	17.3	0.00e+00	0	39	0	95420416	56	4680
2026-01-24 22:10:03.38	45.66	12.06	-42.2	-44.8	17.2	0.00e+00	0	39	0	97517568	56	4759
2026-01-24 22:10:04.38	45.81	12.12	-42.1	-44.8	17.2	0.00e+00	0	39	0	99614720	56	4742
2026-01-24 22:10:05.37	45.96	12.18	-42.2	-44.9	17.2	0.00e+00	0	39	0	100663296	56	4773
2026-01-24 22:10:06.37	46.11	12.24	-42.2	-44.9	17.2	0.00e+00	0	39	0	102760448	56	4777
2026-01-24 22:10:07.36	46.26	12.30	-42.1	-44.7	17.3	0.00e+00	0	39	0	104857600	56	4705
2026-01-24 22:10:08.36	46.41	12.36	-41.9	-44.6	17.3	0.00e+00	0	39	0	106954752	55	4886
2026-01-24 22:10:09.35	46.56	12.42	-41.8	-44.4	17.5	0.00e+00	0	39	0	109051904	55	4786
2026-01-24 22:10:10.35	46.71	12.47	-41.7	-44.2	17.7	0.00e+00	0	39	0	110100480	55	4693
2026-01-24 22:10:11.34	46.87	12.53	-41.5	-44.0	17.9	0.00e+00	0	39	0	112197632	54	4816
2026-01-24 22:10:12.33	47.02	12.59	-41.3	-43.8	18.1	0.00e+00	0	39	0	114294784	54	4710
2026-01-24 22:10:13.33	47.17	12.65	-41.1	-43.6	18.3	0.00e+00	0	39	0	116391936	54	4603
2026-01-24 22:10:14.32	47.33	12.71	-41.2	-43.6	18.2	0.00e+00	0	39	0	117440512	54	4624
2026-01-24 22:10:15.32	47.48	12.77	-41.1	-43.5	18.4	0.00e+00	0	39	0	119537664	54	4575
2026-01-24 22:10:16.32	47.64	12.83	-41.2	-43.7	18.2	0.00e+00	0	39	0	121634816	54	4670
2026-01-24 22:10:17.31	47.80	12.88	-41.3	-43.8	18.1	0.00e+00	0	39	0	123731968	54	4731
2026-01-24 22:10:18.31	47.95	12.94	-41.3	-43.8	18.1	0.00e+00	0	39	0	125829120	54	4708
2026-01-24 22:10:19.30	48.11	13.00	-41.5	-44.0	18.0	0.00e+00	0	39	0	126877696	54	4834
2026-01-24 22:10:20.30	48.27	13.06	-41.6	-44.1	17.7	0.00e+00	0	39	0	128974848	54	4913
2026-01-24 22:10:21.29	48.43	13.12	-41.5	-44.1	17.8	0.00e+00	0	39	0	131072000	54	4891
2026-01-24 22:10:22.29	48.59	13.18	-41.6	-44.1	17.8	0.00e+00	0	39	0	133169152	54	4897
2026-01-24 22:10:23.28	48.75	13.23	-41.6	-44.1	17.8	0.00e+00	0	39	0	134217728	54	4918
2026-01-24 22:10:24.28	48.91	13.29	-41.6	-44.2	17.8	0.00e+00	0	39	0	136314880	54	4956
2026-01-24 22:10:25.27	49.07	13.35	-41.4	-43.9	18.0	0.00e+00	0	39	0	138412032	54	4792
2026-01-24 22:10:26.27	49.23	13.41	-41.3	-43.8	18.1	0.00e+00	0	39	0	140509184	54	4731
2026-01-24 22:10:27.26	49.39	13.47	-41.2	-43.7	18.2	0.00e+00	0	39	0	142606336	54	4675
2026-01-24 22:10:28.25	49.55	13.52	-41.1	-43.6	18.3	0.00e+00	0	39	0	143654912	54	4599
2026-01-24 22:10:29.25	49.72	13.58	-41.1	-43.6	18.3	0.00e+00	0	39	0	145752064	54	4602
2026-01-24 22:10:30.24	49.88	13.64	-41.2	-43.6	18.3	0.00e+00	0	39	0	147849216	54	4635
2026-01-24 22:10:31.24	50.05	13.70	-41.1	-43.5	18.4	0.00e+00	0	39	0	149946368	54	4589
2026-01-24 22:10:32.23	50.21	13.75	-41.1	-43.6	18.3	0.00e+00	0	39	0	150994944	54	4606
2026-01-24 22:10:33.23	50.38	13.81	-41.2	-43.6	18.3	0.00e+00	0	39	0	153092096	54	4634
2026-01-24 22:10:34.22	50.55	13.87	-41.1	-43.5	18.4	0.00e+00	0	39	0	155189248	54	4588
2026-01-24 22:10:35.22	50.71	13.93	-41.1	-43.5	18.3	0.00e+00	0	40	0	157286400	54	4598
2026-01-24 22:10:36.21	50.88	13.98	-41.1	-43.5	18.4	0.00e+00	0	39	0	159383552	54	4586
2026-01-24 22:10:37.20	51.05	14.04	-41.1	-43.6	18.3	0.00e+00	0	39	0	160432128	54	4617
2026-01-24 22:10:38.20	51.22	14.10	-41.2	-43.7	18.3	0.00e+00	0	39	0	162529280	54	4673
2026-01-24 22:10:39.19	51.39	14.15	-41.3	-43.8	18.2	0.00e+00	0	40	0	164626432	54	4710
2026-01-24 22:10:40.19	51.56	14.21	-41.4	-43.9	18.0	0.00e+00	0	39	0	166723584	54	4804
2026-01-24 22:10:41.18	51.73	14.27	-41.4	-43.9	18.0	0.00e+00	0	39	0	167772160	54	4776
2026-01-24 22:10:42.18	51.90	14.32	-41.5	-44.0	18.0	0.00e+00	0	39	0	169869312	54	4838
2026-01-24 22:10:43.17	52.07	14.38	-41.5	-44.0	18.0	0.00e+00	0	39	0	171966464	54	4859
2026-01-24 22:10:44.17	52.25	14.44	-41.4	-43.9	18.0	0.00e+00	0	40	0	174063616	54	4807
2026-01-24 22:10:45.16	52.42	14.49	-41.3	-43.8	18.1	0.00e+00	0	39	0	176160768	54	4737
2026-01-24 22:10:46.16	52.60	14.55	-41.2	-43.7	18.2	0.00e+00	0	39	0	177209344	54	4681
2026-01-24 22:10:47.15	52.77	14.60	-41.3	-43.9	18.1	0.00e+00	0	39	0	179306496	54	4760
2026-01-24 22:10:48.15	52.95	14.66	-41.1	-43.6	18.3	0.00e+00	0	39	0	181403648	54	4615
2026-01-24 22:10:49.14	53.12	14.71	-41.3	-43.7	18.1	0.00e+00	0	39	0	183500800	54	4703
2026-01-24 22:10:50.14	53.30	14.77	-41.3	-43.7	18.2	0.00e+00	0	39	0	185597952	54	4705
2026-01-24 22:10:51.13	53.48	14.83	-41.4	-43.9	18.0	0.00e+00	0	39	0	186646528	54	4782
2026-01-24 22:10:52.13	53.66	14.88	-41.5	-44.1	17.9	0.00e+00	0	39	0	188743680	54	4890
2026-01-24 22:10:53.12	53.83	14.94	-41.7	-44.3	17.7	0.00e+00	0	39	0	190840832	54	5026
2026-01-24 22:10:54.12	54.01	14.99	-41.8	-44.5	17.5	0.00e+00	0	39	0	192937984	54	5111
2026-01-24 22:10:55.12	54.20	15.05	-41.8	-44.4	17.6	0.00e+00	0	39	0	193986560	54	5091
2026-01-24 22:10:56.11	54.38	15.10	-41.8	-44.4	17.6	0.00e+00	0	39	0	196083712	54	5082
2026-01-24 22:10:57.10	54.56	15.16	-41.8	-44.4	17.6	0.00e+00	0	39	0	198180864	54	5073
2026-01-24 22:10:58.09	54.74	15.21	-41.8	-44.4	17.6	0.00e+00	0	39	0	200278016	54	5058
2026-01-24 22:10:59.09	54.92	15.27	-41.7	-44.2	17.7	0.00e+00	0	39	0	202375168	54	4983
2026-01-24 22:11:00.08	55.10	15.32	-41.9	-44.5	17.5	0.00e+00	0	39	0	203423744	54	5108
2026-01-24 22:11:01.08	55.29	15.37	-41.9	-44.6	17.4	0.00e+00	0	39	0	205520896	54	5175
2026-01-24 22:11:02.07	55.47	15.43	-41.9	-44.6	17.4	0.00e+00	0	39	0	207618048	54	5165
2026-01-24 22:11:03.07	55.66	15.48	-42.2	-44.9	17.1	0.00e+00	0	39	0	209715200	55	5073
2026-01-24 22:11:04.06	55.84	15.53	-42.2	-44.9	17.1	0.00e+00	0	39	0	210763776	55	5095
2026-01-24 22:11:05.06	56.03	15.59	-42.2	-44.9	17.1	0.00e+00	0	39	0	212860928	55	5072
2026-01-24 22:11:06.05	56.22	15.64	-42.3	-45.0	17.0	0.00e+00	0	39	0	214958080	55	5133
2026-01-24 22:11:07.05	56.41	15.69	-42.4	-45.1	16.9	0.00e+00	0	39	0	217055232	55	5215
2026-01-24 22:11:08.04	56.59	15.75	-42.1	-44.8	17.2	0.00e+00	0	39	0	219152384	55	5022
2026-01-24 22:11:09.04	56.79	15.80	-42.2	-44.9	17.2	0.00e+00	0	40	0	220200960	55	5045
2026-01-24 22:11:10.03	56.97	15.85	-42.2	-44.8	17.2	0.00e+00	0	39	0	222298112	55	5032
2026-01-24 22:11:11.02	57.16	15.91	-42.1	-44.7	17.3	0.00e+00	0	40	0	224395264	55	4975
2026-01-24 22:11:12.02	57.36	15.96	-42.1	-44.8	17.2	0.00e+00	0	39	0	226492416	55	4993
2026-01-24 22:11:13.01	57.55	16.01	-42.2	-44.9	17.1	0.00e+00	0	39	0	227540992	55	5053
2026-01-24 22:11:14.01	57.74	16.06	-42.2	-44.9	17.0	0.00e+00	0	39	0	229638144	55	5099
2026-01-24 22:11:15.00	57.93	16.11	-42.1	-44.8	17.2	0.00e+00	0	39	0	231735296	55	4993
2026-01-24 22:11:16.00	58.13	16.16	-42.1	-44.7	17.3	0.00e+00	0	39	0	233832448	55	4973
2026-01-24 22:11:16.99	58.32	16.22	-42.2	-44.9	17.1	0.00e+00	0	39	0	235929600	55	5060
2026-01-24 22:11:17.99	58.52	16.27	-42.3	-45.1	17.0	0.00e+00	0	40	0	236978176	55	5173
2026-01-24 22:11:18.98	58.71	16.32	-42.4	-45.2	16.9	0.00e+00	0	39	0	239075328	55	5229
2026-01-24 22:11:19.98	58.91	16.37	-42.5	-45.3	16.8	0.00e+00	0	39	0	241172480	55	5297
2026-01-24 22:11:20.97	59.11	16.42	-42.5	-45.2	16.8	0.00e+00	0	40	0	243269632	55	5272
2026-01-24 22:11:21.97	59.30	16.47	-42.3	-45.0	17.0	0.00e+00	0	39	0	244318208	55	5152
2026-01-24 22:11:22.96	59.50	16.52	-42.3	-45.0	17.0	0.00e+00	0	39	0	246415360	55	5131
2026-01-24 22:11:23.96	59.70	16.57	-42.1	-44.8	17.2	0.00e+00	0	39	0	248512512	55	5015
2026-01-24 22:11:24.95	59.90	16.62	-42.2	-44.9	17.2	0.00e+00	0	39	0	250609664	55	5047
2026-01-24 22:11:25.95	60.10	16.67	-42.4	-45.2	16.8	0.00e+00	0	39	0	252706816	55	5261
2026-01-24 22:11:26.95	60.30	16.72	-42.9	-45.8	16.5	0.00e+00	0	39	0	253755392	56	5285
2026-01-24 22:11:27.94	60.51	16.77	-42.8	-45.8	16.5	0.00e+00	0	39	0	255852544	56	5289
2026-01-24 22:11:28.94	60.71	16.81	-42.9	-45.9	16.3	0.00e+00	0	39	0	257949696	56	5356
2026-01-24 22:11:29.93	60.91	16.86	-42.9	-45.9	16.4	0.00e+00	0	39	0	260046848	56	5344
2026-01-24 22:11:30.93	61.12	16.91	-42.9	-45.8	16.4	0.00e+00	0	40	0	261095424	56	5308
2026-01-24 22:11:31.93	61.32	16.96	-42.9	-45.8	16.5	0.00e+00	0	39	0	263192576	56	5300
2026-01-24 22:11:32.92	61.52	17.01	-42.4	-45.1	17.1	0.00e+00	0	39	0	265289728	56	4925
2026-01-24 22:11:33.92	61.73	17.05	-42.4	-45.2	17.1	0.00e+00	0	39	0	267386880	56	4929
2026-01-24 22:11:34.91	61.94	17.10	-42.3	-45.0	17.2	0.00e+00	0	39	0	269484032	56	4859
2026-01-24 22:11:35.91	62.14	17.15	-42.3	-45.0	17.2	0.00e+00	0	39	0	270532608	56	4825
2026-01-24 22:11:36.90	62.35	17.19	-42.4	-45.1	17.0	0.00e+00	0	39	0	272629760	56	4920
2026-01-24 22:11:37.90	62.56	17.24	-42.4	-45.1	17.1	0.00e+00	0	39	0	274726912	56	4889
2026-01-24 22:11:38.89	62.77	17.29	-42.6	-45.4	16.9	0.00e+00	0	39	0	276824064	56	5049
2026-01-24 22:11:39.89	62.98	17.33	-42.4	-45.1	17.1	0.00e+00	0	39	0	277872640	56	4905
2026-01-24 22:11:40.88	63.19	17.38	-42.2	-44.8	17.4	0.00e+00	0	39	0	279969792	56	4731
2026-01-24 22:11:41.88	63.40	17.42	-41.8	-44.3	17.7	0.00e+00	0	39	0	282066944	55	4749
2026-01-24 22:11:42.87	63.61	17.47	-41.9	-44.5	17.5	0.00e+00	0	39	0	284164096	55	4829
2026-01-24 22:11:43.87	63.82	17.51	-42.0	-44.5	17.5	0.00e+00	0	39	0	286261248	55	4869
2026-01-24 22:11:44.86	64.03	17.56	-42.0	-44.6	17.5	0.00e+00	0	39	0	287309824	55	4892
2026-01-24 22:11:45.86	64.25	17.60	-42.1	-44.8	17.2	0.00e+00	0	39	0	289406976	55	4994
2026-01-24 22:11:46.85	64.46	17.65	-42.4	-45.1	17.0	0.00e+00	0	39	0	291504128	55	5198
2026-01-24 22:11:47.85	64.67	17.69	-42.3	-44.9	17.2	0.00e+00	0	39	0	293601280	55	5094
2026-01-24 22:11:48.84	64.89	17.73	-42.0	-44.7	17.4	0.00e+00	0	39	0	294649856	55	4934
2026-01-24 22:11:49.84	65.10	17.77	-41.7	-44.2	17.8	0.00e+00	0	39	0	296747008	55	4698
2026-01-24 22:11:50.83	65.32	17.82	-41.5	-43.9	18.1	0.00e+00	0	39	0	298844160	55	4530
2026-01-24 22:11:51.83	65.54	17.86	-41.3	-43.7	18.3	0.00e+00	0	39	0	300941312	54	4661
2026-01-24 22:11:52.82	65.75	17.90	-41.1	-43.5	18.6	0.00e+00	0	39	0	303038464	54	4546
2026-01-24 22:11:53.82	65.97	17.94	-41.3	-43.6	18.3	0.00e+00	0	39	0	304087040	54	4651
2026-01-24 22:11:54.81	66.19	17.98	-41.4	-43.9	18.2	0.00e+00	0	39	0	306184192	54	4771
2026-01-24 22:11:55.81	66.41	18.02	-41.6	-44.1	17.9	0.00e+00	0	39	0	308281344	54	4912
2026-01-24 22:11:56.80	66.63	18.07	-41.7	-44.2	17.9	0.00e+00	0	39	0	310378496	54	4957
2026-01-24 22:11:57.80	66.85	18.11	-41.8	-44.3	17.8	0.00e+00	0	39	0	311427072	54	5015
2026-01-24 22:11:58.79	67.07	18.15	-41.6	-44.1	17.9	0.00e+00	0	39	0	313524224	54	4913
2026-01-24 22:11:59.79	67.29	18.18	-41.6	-44.2	17.9	0.00e+00	0	39	0	315621376	54	4935
2026-01-24 22:12:00.78	67.51	18.22	-41.4	-43.9	18.2	0.00e+00	0	39	0	317718528	54	4777
2026-01-24 22:12:01.78	67.73	18.26	-41.5	-44.0	18.1	0.00e+00	0	39	0	319815680	54	4828
2026-01-24 22:12:02.77	67.96	18.30	-41.6	-44.1	18.0	0.00e+00	0	39	0	320864256	54	4871
2026-01-24 22:12:03.76	68.18	18.34	-41.5	-43.9	18.1	0.00e+00	0	40	0	322961408	54	4784
2026-01-24 22:12:04.76	68.40	18.38	-41.4	-43.8	18.2	0.00e+00	0	39	0	325058560	54	4755
2026-01-24 22:12:05.75	68.63	18.41	-41.1	-43.4	18.6	0.00e+00	0	39	0	327155712	54	4530
2026-01-24 22:12:06.75	68.85	18.45	-41.1	-43.5	18.6	0.00e+00	0	39	0	328204288	54	4547
2026-01-24 22:12:07.74	69.08	18.49	-40.8	-43.0	19.0	0.00e+00	0	39	0	330301440	53	4597
2026-01-24 22:12:08.74	69.31	18.52	-40.7	-42.9	19.0	0.00e+00	0	39	0	332398592	53	4534
2026-01-24 22:12:09.73	69.53	18.56	-40.6	-42.8	19.2	0.00e+00	0	40	0	334495744	53	4478
2026-01-24 22:12:10.73	69.76	18.60	-40.7	-43.0	19.0	0.00e+00	0	39	0	336592896	53	4581
2026-01-24 22:12:11.72	69.99	18.63	-40.9	-43.2	18.8	0.00e+00	0	39	0	337641472	53	4685
2026-01-24 22:12:12.72	70.22	18.66	-41.1	-43.4	18.6	0.00e+00	0	39	0	339738624	53	4806
2026-01-24 22:12:13.71	70.44	18.70	-41.2	-43.6	18.4	0.00e+00	0	39	0	341835776	53	4903
2026-01-24 22:12:14.71	70.67	18.73	-41.0	-43.3	18.7	0.00e+00	0	39	0	343932928	53	4738
2026-01-24 22:12:15.70	70.90	18.77	-41.0	-43.4	18.6	0.00e+00	0	39	0	344981504	53	4770
2026-01-24 22:12:16.70	71.13	18.80	-40.8	-43.1	18.9	0.00e+00	0	39	0	347078656	53	4641
2026-01-24 22:12:17.69	71.36	18.83	-40.9	-43.2	18.8	0.00e+00	0	39	0	349175808	53	4690
2026-01-24 22:12:18.69	71.60	18.86	-41.0	-43.3	18.7	0.00e+00	0	39	0	351272960	53	4738
2026-01-24 22:12:19.68	71.83	18.90	-41.0	-43.4	18.7	0.00e+00	0	39	0	353370112	53	4789
2026-01-24 22:12:20.68	72.06	18.93	-41.0	-43.3	18.7	0.00e+00	0	39	0	354418688	53	4752
2026-01-24 22:12:21.67	72.29	18.96	-40.9	-43.2	18.8	0.00e+00	0	39	0	356515840	53	4704
2026-01-24 22:12:22.67	72.53	18.99	-40.9	-43.2	18.8	0.00e+00	0	39	0	358612992	53	4679
2026-01-24 22:12:23.66	72.76	19.02	-40.8	-43.1	18.9	0.00e+00	0	39	0	360710144	53	4648
2026-01-24 22:12:24.66	72.99	19.05	-41.0	-43.3	18.7	0.00e+00	0	40	0	361758720	53	4723
2026-01-24 22:12:25.66	73.23	19.08	-40.9	-43.3	18.8	0.00e+00	0	39	0	363855872	53	4710
2026-01-24 22:12:26.65	73.46	19.11	-41.2	-43.6	18.5	0.00e+00	0	39	0	365953024	53	4885
2026-01-24 22:12:27.64	73.70	19.14	-41.2	-43.6	18.4	0.00e+00	0	39	0	368050176	53	4906
2026-01-24 22:12:28.64	73.93	19.16	-41.0	-43.4	18.7	0.00e+00	0	40	0	370147328	53	4772
2026-01-24 22:12:29.64	74.17	19.19	-40.8	-43.1	18.9	0.00e+00	0	39	0	371195904	53	4616
2026-01-24 22:12:30.63	74.41	19.22	-40.7	-43.0	19.0	0.00e+00	0	40	0	373293056	53	4571
2026-01-24 22:12:31.63	74.65	19.25	-40.7	-43.0	19.1	0.00e+00	0	39	0	375390208	53	4549
2026-01-24 22:12:32.62	74.88	19.27	-40.9	-43.3	18.8	0.00e+00	0	39	0	377487360	53	4711
2026-01-24 22:12:33.62	75.12	19.30	-41.0	-43.4	18.6	0.00e+00	0	39	0	378535936	53	4777
2026-01-24 22:12:34.61	75.36	19.32	-41.4	-43.9	18.2	0.00e+00	0	39	0	380633088	53	5052
2026-01-24 22:12:35.61	75.60	19.35	-41.7	-44.1	17.9	0.00e+00	0	40	0	382730240	54	4920
2026-01-24 22:12:36.60	75.84	19.37	-41.6	-44.1	18.0	0.00e+00	0	39	0	384827392	54	4890
2026-01-24 22:12:37.59	76.07	19.40	-41.6	-44.1	18.0	0.00e+00	0	39	0	386924544	54	4922
2026-01-24 22:12:38.59	76.32	19.42	-41.6	-44.1	18.0	0.00e+00	0	39	0	387973120	54	4903
2026-01-24 22:12:39.58	76.55	19.44	-41.8	-44.3	17.8	0.00e+00	0	39	0	390070272	54	5022
2026-01-24 22:12:40.58	76.80	19.46	-41.9	-44.5	17.6	0.00e+00	0	39	0	392167424	54	5146
2026-01-24 22:12:41.57	77.04	19.49	-42.0	-44.7	17.5	0.00e+00	0	39	0	394264576	54	5226
2026-01-24 22:12:42.57	77.28	19.51	-42.2	-44.9	17.2	0.00e+00	0	39	0	395313152	55	5062
2026-01-24 22:12:43.56	77.52	19.53	-42.0	-44.6	17.5	0.00e+00	0	39	0	397410304	55	4915
2026-01-24 22:12:44.55	77.76	19.55	-41.8	-44.4	17.7	0.00e+00	0	40	0	399507456	55	4762
2026-01-24 22:12:45.55	78.00	19.57	-41.7	-44.2	17.8	0.00e+00	0	39	0	401604608	55	4690
2026-01-24 22:12:46.54	78.24	19.59	-41.5	-44.0	18.1	0.00e+00	0	39	0	403701760	54	4833
2026-01-24 22:12:47.54	78.49	19.61	-41.5	-43.9	18.2	0.00e+00	0	39	0	404750336	54	4789
2026-01-24 22:12:48.53	78.73	19.63	-41.5	-44.0	18.1	0.00e+00	0	39	0	406847488	54	4837
2026-01-24 22:12:49.53	78.98	19.65	-41.5	-43.9	18.1	0.00e+00	0	39	0	408944640	54	4805
2026-01-24 22:12:50.52	79.22	19.66	-41.5	-43.9	18.1	0.00e+00	0	39	0	411041792	54	4808
2026-01-24 22:12:51.51	79.46	19.68	-41.4	-43.8	18.2	0.00e+00	0	39	0	413138944	54	4759
2026-01-24 22:12:52.51	79.71	19.70	-41.2	-43.7	18.4	0.00e+00	0	39	0	414187520	54	4652
2026-01-24 22:12:53.50	79.95	19.71	-41.2	-43.6	18.5	0.00e+00	0	39	0	416284672	54	4620
2026-01-24 22:12:54.50	80.20	19.73	-41.3	-43.7	18.4	0.00e+00	0	39	0	418381824	54	4668
2026-01-24 22:12:55.49	80.44	19.74	-41.4	-43.9	18.2	0.00e+00	0	39	0	420478976	54	4760
2026-01-24 22:12:56.49	80.69	19.76	-41.4	-43.9	18.2	0.00e+00	0	39	0	421527552	54	4776
2026-01-24 22:12:57.48	80.93	19.77	-41.7	-44.2	17.9	0.00e+00	0	39	0	423624704	54	4969
2026-01-24 22:12:58.48	81.18	19.79	-41.8	-44.5	17.7	0.00e+00	0	39	0	425721856	54	5104
2026-01-24 22:12:59.47	81.42	19.80	-42.0	-44.7	17.5	0.00e+00	0	39	0	427819008	54	5250
2026-01-24 22:13:00.47	81.67	19.81	-42.0	-44.8	17.3	0.00e+00	0	39	0	429916160	54	5285
2026-01-24 22:13:01.46	81.91	19.82	-42.2	-44.9	17.2	0.00e+00	0	39	0	430964736	54	5399
2026-01-24 22:13:02.46	82.16	19.84	-42.0	-44.7	17.4	0.00e+00	0	39	0	433061888	55	4959
2026-01-24 22:13:03.45	82.41	19.85	-42.0	-44.8	17.4	0.00e+00	0	39	0	435159040	55	4988
2026-01-24 22:13:04.45	82.66	19.86	-42.2	-44.9	17.2	0.00e+00	0	39	0	437256192	55	5076
2026-01-24 22:13:05.44	82.90	19.87	-42.1	-44.7	17.4	0.00e+00	0	40	0	438304768	55	4972
2026-01-24 22:13:06.44	83.15	19.88	-42.0	-44.7	17.5	0.00e+00	0	39	0	440401920	55	4928
2026-01-24 22:13:07.44	83.40	19.89	-41.7	-44.3	17.8	0.00e+00	0	39	0	442499072	55	4732
2026-01-24 22:13:08.43	83.65	19.89	-41.6	-44.1	17.9	0.00e+00	0	40	0	444596224	55	4637
2026-01-24 22:13:09.43	83.89	19.90	-41.5	-44.0	18.1	0.00e+00	0	39	0	446693376	54	4827
2026-01-24 22:13:10.42	84.14	19.91	-41.5	-44.0	18.0	0.00e+00	0	40	0	447741952	54	4864
2026-01-24 22:13:11.41	84.39	19.92	-41.8	-44.4	17.7	0.00e+00	0	40	0	449839104	54	5071
2026-01-24 22:13:12.41	84.64	19.92	-41.8	-44.5	17.6	0.00e+00	0	39	0	451936256	54	5137
2026-01-24 22:13:13.40	84.88	19.93	-42.0	-44.7	17.4	0.00e+00	0	39	0	454033408	54	5266
2026-01-24 22:13:14.40	85.13	19.93	-42.0	-44.7	17.5	0.00e+00	0	39	0	455081984	54	5220
2026-01-24 22:13:15.39	85.38	19.94	-41.9	-44.6	17.6	0.00e+00	0	39	0	457179136	54	5169
2026-01-24 22:13:16.39	85.63	19.94	-41.7	-44.2	17.9	0.00e+00	0	39	0	459276288	54	4976
2026-01-24 22:13:17.38	85.88	19.95	-41.8	-44.4	17.7	0.00e+00	0	39	0	461373440	54	5087
2026-01-24 22:13:18.38	86.13	19.95	-41.9	-44.5	17.6	0.00e+00	0	39	0	463470592	54	5146
2026-01-24 22:13:19.37	86.37	19.95	-42.0	-44.8	17.4	0.00e+00	0	39	0	464519168	54	5310
2026-01-24 22:13:20.37	86.62	19.95	-42.3	-45.2	16.9	0.00e+00	0	39	0	466616320	55	5254
2026-01-24 22:13:21.36	86.87	19.95	-42.4	-45.3	16.9	0.00e+00	0	39	0	468713472	55	5331
2026-01-24 22:13:22.35	87.12	19.96	-42.1	-44.9	17.2	0.00e+00	0	39	0	470810624	55	5065
2026-01-24 22:13:23.35	87.37	19.96	-41.9	-44.5	17.5	0.00e+00	0	40	0	471859200	55	4859
2026-01-24 22:13:24.35	87.62	19.96	-42.0	-44.6	17.5	0.00e+00	0	39	0	473956352	55	4912
2026-01-24 22:13:25.34	87.87	19.96	-41.9	-44.6	17.5	0.00e+00	0	39	0	476053504	55	4874
2026-01-24 22:13:26.34	88.12	19.95	-42.1	-44.7	17.4	0.00e+00	0	39	0	478150656	55	4956
2026-01-24 22:13:27.33	88.36	19.95	-42.1	-44.8	17.4	0.00e+00	0	40	0	480247808	55	5017
2026-01-24 22:13:28.33	88.61	19.95	-42.2	-44.9	17.2	0.00e+00	0	39	0	481296384	55	5079
2026-01-24 22:13:29.32	88.86	19.95	-42.1	-44.7	17.4	0.00e+00	0	39	0	483393536	55	4972
2026-01-24 22:13:30.32	89.11	19.94	-41.9	-44.6	17.5	0.00e+00	0	40	0	485490688	55	4885
2026-01-24 22:13:31.31	89.36	19.94	-41.8	-44.4	17.7	0.00e+00	0	40	0	487587840	55	4799
2026-01-24 22:13:32.31	89.61	19.94	-41.5	-44.1	18.0	0.00e+00	0	39	0	488636416	55	4607
2026-01-24 22:13:33.30	89.85	19.93	-41.6	-44.1	17.9	0.00e+00	0	39	0	490733568	55	4651
2026-01-24 22:13:34.30	90.10	19.93	-41.4	-43.8	18.2	0.00e+00	0	39	0	492830720	54	4745
2026-01-24 22:13:35.29	90.35	19.92	-41.3	-43.8	18.3	0.00e+00	0	39	0	494927872	54	4707
2026-01-24 22:13:36.28	90.60	19.91	-41.3	-43.7	18.4	0.00e+00	0	39	0	497025024	54	4675
2026-01-24 22:13:37.28	90.85	19.91	-41.4	-43.9	18.2	0.00e+00	0	40	0	498073600	54	4760
2026-01-24 22:13:38.27	91.09	19.90	-41.5	-44.0	18.1	0.00e+00	0	39	0	500170752	54	4844
2026-01-24 22:13:39.27	91.34	19.89	-41.5	-44.0	18.0	0.00e+00	0	39	0	502267904	54	4844
2026-01-24 22:13:40.26	91.59	19.88	-41.7	-44.2	17.9	0.00e+00	0	39	0	504365056	54	4961
2026-01-24 22:13:41.26	91.84	19.87	-41.7	-44.3	17.8	0.00e+00	0	39	0	505413632	54	5025
2026-01-24 22:13:42.26	92.09	19.86	-41.8	-44.4	17.7	0.00e+00	0	39	0	507510784	54	5060
2026-01-24 22:13:43.25	92.33	19.85	-41.8	-44.3	17.7	0.00e+00	0	39	0	509607936	54	5038
2026-01-24 22:13:44.25	92.58	19.84	-41.8	-44.4	17.7	0.00e+00	0	39	0	511705088	54	5063
2026-01-24 22:13:45.24	92.83	19.83	-41.6	-44.2	18.0	0.00e+00	0	40	0	513802240	54	4930
2026-01-24 22:13:46.24	93.07	19.82	-41.5	-43.9	18.2	0.00e+00	0	39	0	514850816	54	4790
2026-01-24 22:13:47.23	93.32	19.81	-41.6	-44.1	18.0	0.00e+00	0	40	0	516947968	54	4882
2026-01-24 22:13:48.23	93.57	19.80	-41.5	-44.0	18.1	0.00e+00	0	40	0	519045120	54	4821
2026-01-24 22:13:49.22	93.81	19.78	-41.5	-44.0	18.0	0.00e+00	0	39	0	521142272	54	4846
2026-01-24 22:13:50.22	94.06	19.77	-41.6	-44.1	18.0	0.00e+00	0	39	0	522190848	54	4900
2026-01-24 22:13:51.21	94.30	19.75	-41.6	-44.1	18.0	0.00e+00	0	39	0	524288000	54	4875
2026-01-24 22:13:52.21	94.55	19.74	-41.7	-44.2	17.9	0.00e+00	0	39	0	526385152	54	4955
2026-01-24 22:13:53.21	94.80	19.72	-41.7	-44.2	17.9	0.00e+00	0	39	0	528482304	54	4947
2026-01-24 22:13:54.20	95.04	19.71	-41.6	-44.1	18.0	0.00e+00	0	39	0	530579456	54	4881
2026-01-24 22:13:55.19	95.28	19.69	-41.2	-43.6	18.4	0.00e+00	0	39	0	531628032	54	4623
2026-01-24 22:13:56.19	95.53	19.68	-41.2	-43.6	18.5	0.00e+00	0	39	0	533725184	54	4637
2026-01-24 22:13:57.18	95.77	19.66	-41.2	-43.6	18.4	0.00e+00	0	39	0	535822336	54	4633
2026-01-24 22:13:58.18	96.02	19.64	-41.4	-43.9	18.2	0.00e+00	0	39	0	537919488	54	4774
2026-01-24 22:13:59.17	96.26	19.62	-41.6	-44.0	18.0	0.00e+00	0	39	0	538968064	54	4868
2026-01-24 22:14:00.17	96.51	19.60	-41.6	-44.1	18.0	0.00e+00	0	40	0	541065216	54	4893
2026-01-24 22:14:01.16	96.75	19.58	-41.7	-44.2	17.8	0.00e+00	0	39	0	543162368	54	4968
2026-01-24 22:14:02.16	96.99	19.56	-41.6	-44.1	17.9	0.00e+00	0	39	0	545259520	54	4881
2026-01-24 22:14:03.15	97.23	19.54	-41.6	-44.0	18.0	0.00e+00	0	39	0	547356672	54	4857
2026-01-24 22:14:04.15	97.48	19.52	-41.6	-44.1	18.0	0.00e+00	0	39	0	548405248	54	4907
2026-01-24 22:14:05.14	97.72	19.50	-41.7	-44.3	17.7	0.00e+00	0	39	0	550502400	54	5011
2026-01-24 22:14:06.14	97.96	19.48	-42.1	-44.8	17.4	0.00e+00	0	39	0	552599552	54	5289
2026-01-24 22:14:07.13	98.20	19.46	-42.3	-45.0	17.1	0.00e+00	0	39	0	554696704	55	5135
2026-01-24 22:14:08.13	98.44	19.44	-42.3	-45.0	17.1	0.00e+00	0	40	0	555745280	55	5147
2026-01-24 22:14:09.12	98.68	19.41	-42.2	-44.9	17.1	0.00e+00	0	39	0	557842432	55	5099
2026-01-24 22:14:10.11	98.92	19.39	-41.9	-44.6	17.5	0.00e+00	0	39	0	559939584	55	4880
2026-01-24 22:14:11.11	99.16	19.36	-41.6	-44.1	17.9	0.00e+00	0	40	0	562036736	55	4645
2026-01-24 22:14:12.10	99.40	19.34	-41.3	-43.7	18.3	0.00e+00	0	39	0	564133888	54	4695
2026-01-24 22:14:13.10	99.64	19.31	-41.2	-43.6	18.5	0.00e+00	0	40	0	565182464	54	4602
2026-01-24 22:14:14.09	99.88	19.29	-41.3	-43.7	18.4	0.00e+00	0	39	0	567279616	54	4662
2026-01-24 22:14:15.09	100.12	19.26	-41.3	-43.7	18.3	0.00e+00	0	39	0	569376768	54	4668
2026-01-24 22:14:16.08	100.35	19.24	-41.5	-43.9	18.1	0.00e+00	0	39	0	571473920	54	4802
2026-01-24 22:14:17.07	100.59	19.21	-41.6	-44.1	18.0	0.00e+00	0	39	0	572522496	54	4884
2026-01-24 22:14:18.07	100.83	19.18	-41.5	-43.9	18.1	0.00e+00	0	39	0	574619648	54	4811
2026-01-24 22:14:19.06	101.07	19.16	-41.1	-43.5	18.5	0.00e+00	0	39	0	576716800	54	4579
2026-01-24 22:14:20.06	101.30	19.13	-41.0	-43.4	18.6	0.00e+00	0	40	0	578813952	53	4766
2026-01-24 22:14:21.06	101.54	19.10	-40.9	-43.2	18.6	0.00e+00	0	39	0	580911104	53	4686
2026-01-24 22:14:22.05	101.77	19.07	-40.9	-43.2	18.7	0.00e+00	0	39	0	581959680	53	4681
2026-01-24 22:14:23.05	102.01	19.04	-41.0	-43.3	18.6	0.00e+00	0	39	0	584056832	53	4746
2026-01-24 22:14:24.04	102.24	19.01	-41.2	-43.6	18.4	0.00e+00	0	39	0	586153984	53	4888
2026-01-24 22:14:25.03	102.48	18.98	-41.2	-43.6	18.4	0.00e+00	0	39	0	588251136	53	4898
2026-01-24 22:14:26.03	102.71	18.95	-41.3	-43.7	18.3	0.00e+00	0	39	0	589299712	53	4968
2026-01-24 22:14:27.02	102.94	18.92	-41.2	-43.6	18.4	0.00e+00	0	39	0	591396864	53	4892
2026-01-24 22:14:28.02	103.18	18.89	-41.1	-43.4	18.5	0.00e+00	0	39	0	593494016	53	4811
2026-01-24 22:14:29.01	103.41	18.85	-40.9	-43.3	18.7	0.00e+00	0	39	0	595591168	53	4719
2026-01-24 22:14:30.00	103.64	18.82	-40.8	-43.1	18.8	0.00e+00	0	40	0	597688320	53	4648
2026-01-24 22:14:31.00	103.87	18.79	-40.7	-43.0	19.0	0.00e+00	0	39	0	598736896	53	4566
2026-01-24 22:14:31.99	104.10	18.75	-40.6	-42.9	19.0	0.00e+00	0	39	0	600834048	53	4528
2026-01-24 22:14:32.99	104.33	18.72	-40.7	-43.0	18.9	0.00e+00	0	39	0	602931200	53	4598
2026-01-24 22:14:33.98	104.56	18.69	-40.8	-43.2	18.8	0.00e+00	0	39	0	605028352	53	4657
2026-01-24 22:14:34.98	104.79	18.65	-41.0	-43.3	18.6	0.00e+00	0	39	0	606076928	53	4753
2026-01-24 22:14:35.97	105.02	18.62	-40.9	-43.2	18.7	0.00e+00	0	39	0	608174080	53	4700
2026-01-24 22:14:36.97	105.25	18.58	-41.0	-43.4	18.6	0.00e+00	0	39	0	610271232	53	4785
2026-01-24 22:14:37.96	105.48	18.55	-40.8	-43.1	18.8	0.00e+00	0	39	0	612368384	53	4628
2026-01-24 22:14:38.95	105.70	18.51	-40.8	-43.1	18.8	0.00e+00	0	39	0	614465536	53	4640
2026-01-24 22:14:39.95	105.93	18.47	-40.9	-43.2	18.7	0.00e+00	0	39	0	615514112	53	4677
2026-01-24 22:14:40.94	106.16	18.44	-41.0	-43.3	18.7	0.00e+00	0	39	0	617611264	53	4746
2026-01-24 22:14:41.94	106.38	18.40	-41.2	-43.6	18.3	0.00e+00	0	39	0	619708416	53	4921
2026-01-24 22:14:42.93	106.61	18.36	-41.4	-43.9	18.1	0.00e+00	0	39	0	621805568	53	5060
2026-01-24 22:14:43.93	106.83	18.32	-41.6	-44.1	17.9	0.00e+00	0	39	0	622854144	53	5199
2026-01-24 22:14:44.92	107.05	18.29	-41.5	-44.0	18.0	0.00e+00	0	40	0	624951296	53	5119
2026-01-24 22:14:45.92	107.28	18.25	-41.3	-43.8	18.2	0.00e+00	0	39	0	627048448	53	5023
2026-01-24 22:14:46.91	107.50	18.21	-41.2	-43.7	18.3	0.00e+00	0	39	0	629145600	53	4959
2026-01-24 22:14:47.90	107.72	18.17	-41.1	-43.6	18.4	0.00e+00	0	39	0	631242752	53	4892
2026-01-24 22:14:48.90	107.95	18.13	-41.2	-43.7	18.3	0.00e+00	0	39	0	632291328	53	4965
2026-01-24 22:14:49.90	108.17	18.09	-41.2	-43.7	18.2	0.00e+00	0	40	0	634388480	53	4976
2026-01-24 22:14:50.89	108.39	18.05	-41.1	-43.5	18.5	0.00e+00	0	40	0	636485632	53	4846
2026-01-24 22:14:51.89	108.61	18.01	-41.1	-43.5	18.5	0.00e+00	0	40	0	638582784	53	4841
2026-01-24 22:14:52.88	108.83	17.97	-41.2	-43.6	18.4	0.00e+00	0	40	0	639631360	53	4893
2026-01-24 22:14:53.88	109.05	17.92	-41.3	-43.8	18.2	0.00e+00	0	39	0	641728512	53	4995
2026-01-24 22:14:54.88	109.27	17.88	-41.8	-44.4	17.7	0.00e+00	0	39	0	643825664	54	5067
2026-01-24 22:14:55.87	109.48	17.84	-41.8	-44.4	17.6	0.00e+00	0	39	0	645922816	54	5078
2026-01-24 22:14:56.87	109.70	17.80	-42.1	-44.7	17.3	0.00e+00	0	40	0	648019968	54	5264
2026-01-24 22:14:57.86	109.92	17.75	-41.9	-44.5	17.6	0.00e+00	0	40	0	649068544	54	5107
2026-01-24 22:14:58.86	110.13	17.71	-41.8	-44.4	17.6	0.00e+00	0	39	0	651165696	54	5083
2026-01-24 22:14:59.85	110.35	17.67	-41.7	-44.2	17.8	0.00e+00	0	39	0	653262848	54	4980
2026-01-24 22:15:00.85	110.56	17.62	-41.8	-44.4	17.6	0.00e+00	0	39	0	655360000	54	5075
2026-01-24 22:15:01.84	110.78	17.58	-41.9	-44.5	17.5	0.00e+00	0	39	0	657457152	54	5122
2026-01-24 22:15:02.84	110.99	17.53	-42.0	-44.7	17.3	0.00e+00	0	39	0	658505728	54	5247
2026-01-24 22:15:03.83	111.20	17.49	-42.1	-44.8	17.2	0.00e+00	0	39	0	660602880	55	5028
2026-01-24 22:15:04.83	111.42	17.45	-42.0	-44.6	17.4	0.00e+00	0	39	0	662700032	55	4903
2026-01-24 22:15:05.82	111.63	17.40	-41.9	-44.5	17.6	0.00e+00	0	39	0	664797184	55	4825
2026-01-24 22:15:06.82	111.84	17.35	-42.0	-44.6	17.4	0.00e+00	0	39	0	665845760	55	4896
2026-01-24 22:15:07.81	112.05	17.31	-41.8	-44.4	17.6	0.00e+00	0	39	0	667942912	55	4813
2026-01-24 22:15:08.81	112.26	17.26	-42.0	-44.6	17.4	0.00e+00	0	39	0	670040064	55	4908
2026-01-24 22:15:09.80	112.47	17.22	-42.0	-44.6	17.4	0.00e+00	0	39	0	672137216	55	4901
2026-01-24 22:15:10.80	112.68	17.17	-42.2	-44.9	17.1	0.00e+00	0	40	0	674234368	55	5062
2026-01-24 22:15:11.80	112.89	17.12	-42.5	-45.3	16.7	0.00e+00	0	39	0	675282944	55	5335
2026-01-24 22:15:12.79	113.09	17.07	-42.3	-45.1	17.0	0.00e+00	0	39	0	677380096	55	5172
2026-01-24 22:15:13.79	113.30	17.03	-42.6	-45.4	16.7	0.00e+00	0	39	0	679477248	55	5376
2026-01-24 22:15:14.78	113.51	16.98	-42.6	-45.4	16.7	0.00e+00	0	39	0	681574400	55	5360
2026-01-24 22:15:15.77	113.71	16.93	-42.4	-45.2	16.9	0.00e+00	0	39	0	682622976	55	5227
2026-01-24 22:15:16.77	113.92	16.88	-42.3	-45.1	16.9	0.00e+00	0	39	0	684720128	55	5177
2026-01-24 22:15:17.76	114.12	16.83	-42.2	-44.9	17.1	0.00e+00	0	39	0	686817280	55	5055
2026-01-24 22:15:18.76	114.33	16.79	-42.3	-45.0	17.0	0.00e+00	0	39	0	688914432	55	5122
2026-01-24 22:15:19.75	114.53	16.74	-42.2	-44.9	17.1	0.00e+00	0	39	0	691011584	55	5090
2026-01-24 22:15:20.75	114.73	16.69	-42.2	-44.9	17.1	0.00e+00	0	39	0	692060160	55	5083
2026-01-24 22:15:21.74	114.93	16.64	-42.3	-45.1	17.0	0.00e+00	0	39	0	694157312	55	5161
2026-01-24 22:15:22.74	115.13	16.59	-42.3	-45.0	17.1	0.00e+00	0	39	0	696254464	55	5102
2026-01-24 22:15:23.73	115.33	16.54	-42.2	-44.9	17.1	0.00e+00	0	39	0	698351616	55	5070
2026-01-24 22:15:24.72	115.53	16.49	-42.1	-44.8	17.2	0.00e+00	0	39	0	699400192	55	4995
2026-01-24 22:15:25.72	115.73	16.44	-42.0	-44.5	17.5	0.00e+00	0	39	0	701497344	55	4869
2026-01-24 22:15:26.71	115.93	16.39	-42.1	-44.7	17.3	0.00e+00	0	39	0	703594496	55	4936
2026-01-24 22:15:27.71	116.13	16.34	-41.9	-44.4	17.6	0.00e+00	0	39	0	705691648	55	4795
2026-01-24 22:15:28.70	116.32	16.29	-42.1	-44.8	17.3	0.00e+00	0	39	0	707788800	55	4984
2026-01-24 22:15:29.70	116.52	16.23	-42.3	-45.0	17.0	0.00e+00	0	39	0	708837376	55	5155
2026-01-24 22:15:30.69	116.72	16.18	-42.9	-45.7	16.6	0.00e+00	0	39	0	710934528	56	5277
2026-01-24 22:15:31.69	116.91	16.13	-43.2	-46.2	16.1	0.00e+00	0	39	0	713031680	57	5258
2026-01-24 22:15:32.68	117.11	16.08	-43.3	-46.3	16.0	0.00e+00	0	39	0	715128832	57	5308
2026-01-24 22:15:33.68	117.30	16.03	-43.2	-46.2	16.1	0.00e+00	0	40	0	716177408	57	5242
2026-01-24 22:15:34.67	117.49	15.97	-43.2	-46.2	16.1	0.00e+00	0	39	0	718274560	57	5245
2026-01-24 22:15:35.67	117.69	15.92	-42.9	-45.8	16.5	0.00e+00	0	39	0	720371712	57	4998
2026-01-24 22:15:36.66	117.88	15.87	-42.8	-45.7	16.6	0.00e+00	0	40	0	722468864	57	4934
2026-01-24 22:15:37.66	118.07	15.82	-42.8	-45.6	16.7	0.00e+00	0	40	0	724566016	57	4900
2026-01-24 22:15:38.65	118.26	15.76	-42.9	-45.7	16.5	0.00e+00	0	40	0	725614592	57	4983
2026-01-24 22:15:39.65	118.45	15.71	-42.8	-45.6	16.7	0.00e+00	0	40	0	727711744	57	4892
2026-01-24 22:15:40.64	118.64	15.66	-42.6	-45.3	17.0	0.00e+00	0	39	0	729808896	57	4744
2026-01-24 22:15:41.64	118.83	15.60	-42.6	-45.4	16.8	0.00e+00	0	40	0	731906048	57	4792
2026-01-24 22:15:42.64	119.02	15.55	-42.6	-45.3	17.0	0.00e+00	0	39	0	734003200	56	5018
2026-01-24 22:15:43.63	119.20	15.49	-42.4	-45.1	17.2	0.00e+00	0	40	0	735051776	56	4890
2026-01-24 22:15:44.63	119.39	15.44	-42.4	-45.0	17.3	0.00e+00	0	39	0	737148928	56	4855
2026-01-24 22:15:45.62	119.58	15.39	-42.1	-44.7	17.6	0.00e+00	0	39	0	739246080	56	4662
2026-01-24 22:15:46.62	119.76	15.33	-42.2	-44.8	17.4	0.00e+00	0	39	0	741343232	56	4753
2026-01-24 22:15:47.62	119.95	15.28	-42.2	-44.8	17.5	0.00e+00	0	39	0	742391808	56	4735
2026-01-24 22:15:48.61	120.13	15.22	-42.2	-44.9	17.4	0.00e+00	0	39	0	744488960	56	4763
2026-01-24 22:15:49.61	120.31	15.17	-42.4	-45.1	17.3	0.00e+00	0	39	0	746586112	56	4877
2026-01-24 22:15:50.60	120.50	15.11	-42.5	-45.2	17.1	0.00e+00	0	39	0	748683264	56	4973
2026-01-24 22:15:51.60	120.68	15.06	-42.5	-45.2	17.1	0.00e+00	0	39	0	750780416	56	4955
2026-01-24 22:15:52.59	120.86	15.00	-42.3	-45.0	17.3	0.00e+00	0	39	0	751828992	56	4845
2026-01-24 22:15:53.59	121.04	14.95	-42.4	-45.1	17.2	0.00e+00	0	39	0	753926144	56	4881
2026-01-24 22:15:54.58	121.22	14.89	-42.3	-45.0	17.3	0.00e+00	0	39	0	756023296	56	4838
2026-01-24 22:15:55.57	121.40	14.83	-42.4	-45.1	17.3	0.00e+00	0	39	0	758120448	56	4921
2026-01-24 22:15:56.57	121.58	14.78	-42.6	-45.4	17.0	0.00e+00	0	39	0	759169024	56	5061
2026-01-24 22:15:57.56	121.76	14.72	-42.5	-45.3	17.1	0.00e+00	0	39	0	761266176	56	4990
2026-01-24 22:15:58.56	121.93	14.67	-42.8	-45.5	16.8	0.00e+00	0	40	0	763363328	56	5158
2026-01-24 22:15:59.55	122.11	14.61	-42.8	-45.6	16.8	0.00e+00	0	39	0	765460480	56	5166
2026-01-24 22:16:00.55	122.29	14.55	-42.6	-45.3	17.0	0.00e+00	0	39	0	767557632	56	5006
2026-01-24 22:16:01.54	122.46	14.50	-42.6	-45.3	17.0	0.00e+00	0	39	0	768606208	56	5008
2026-01-24 22:16:02.54	122.64	14.44	-42.5	-45.2	17.1	0.00e+00	0	39	0	770703360	56	4966
2026-01-24 22:16:03.53	122.81	14.38	-42.4	-45.0	17.3	0.00e+00	0	39	0	772800512	56	4854
2026-01-24 22:16:04.53	122.98	14.33	-42.4	-45.1	17.3	0.00e+00	0	39	0	774897664	56	4882
2026-01-24 22:16:05.52	123.16	14.27	-42.3	-45.0	17.3	0.00e+00	0	40	0	775946240	56	4829
2026-01-24 22:16:06.52	123.33	14.21	-42.5	-45.2	17.2	0.00e+00	0	39	0	778043392	56	4932
2026-01-24 22:16:07.51	123.50	14.16	-42.8	-45.6	16.8	0.00e+00	0	39	0	780140544	56	5202
2026-01-24 22:16:08.51	123.67	14.10	-42.7	-45.4	16.9	0.00e+00	0	39	0	782237696	56	5099
2026-01-24 22:16:09.50	123.84	14.04	-42.6	-45.3	17.1	0.00e+00	0	39	0	784334848	56	4998
2026-01-24 22:16:10.50	124.01	13.98	-42.3	-45.0	17.3	0.00e+00	0	39	0	785383424	56	4827
2026-01-24 22:16:11.49	124.18	13.93	-42.2	-44.8	17.5	0.00e+00	0	39	0	787480576	56	4720
2026-01-24 22:16:12.49	124.35	13.87	-42.0	-44.6	17.7	0.00e+00	0	39	0	789577728	56	4619
2026-01-24 22:16:13.48	124.52	13.81	-41.7	-44.2	17.9	0.00e+00	0	39	0	791674880	55	4688
2026-01-24 22:16:14.48	124.69	13.75	-41.7	-44.2	17.9	0.00e+00	0	39	0	792723456	55	4666
2026-01-24 22:16:15.47	124.85	13.69	-41.7	-44.2	18.0	0.00e+00	0	39	0	794820608	55	4659
2026-01-24 22:16:16.47	125.02	13.64	-41.9	-44.5	17.6	0.00e+00	0	39	0	796917760	55	4852
2026-01-24 22:16:17.46	125.18	13.58	-42.0	-44.6	17.5	0.00e+00	0	39	0	799014912	55	4922
2026-01-24 22:16:18.46	125.35	13.52	-42.4	-45.2	17.0	0.00e+00	0	39	0	801112064	55	5223
2026-01-24 22:16:19.45	125.51	13.46	-42.9	-45.8	16.6	0.00e+00	0	39	0	802160640	56	5299
2026-01-24 22:16:20.44	125.67	13.40	-43.0	-45.9	16.5	0.00e+00	0	39	0	804257792	56	5344
2026-01-24 22:16:21.44	125.84	13.35	-43.0	-46.0	16.4	0.00e+00	0	39	0	806354944	56	5408
2026-01-24 22:16:22.43	126.00	13.29	-42.7	-45.5	16.8	0.00e+00	0	39	0	808452096	56	5152
2026-01-24 22:16:23.43	126.16	13.23	-42.6	-45.3	17.1	0.00e+00	0	39	0	809500672	56	5010
2026-01-24 22:16:24.42	126.32	13.17	-42.3	-45.0	17.3	0.00e+00	0	39	0	811597824	56	4819
2026-01-24 22:16:25.42	126.48	13.11	-41.8	-44.3	17.8	0.00e+00	0	39	0	813694976	55	4748
2026-01-24 22:16:26.41	126.64	13.05	-41.7	-44.2	17.9	0.00e+00	0	39	0	815792128	55	4653
2026-01-24 22:16:27.41	126.80	12.99	-41.5	-44.0	18.1	0.00e+00	0	39	0	817889280	54	4820
2026-01-24 22:16:28.40	126.96	12.94	-41.2	-43.6	18.5	0.00e+00	0	39	0	818937856	54	4599
2026-01-24 22:16:29.40	127.12	12.88	-41.4	-43.8	18.2	0.00e+00	0	39	0	821035008	54	4749
2026-01-24 22:16:30.39	127.27	12.82	-41.6	-44.1	18.0	0.00e+00	0	39	0	823132160	54	4913
2026-01-24 22:16:31.39	127.43	12.76	-41.5	-44.0	18.1	0.00e+00	0	40	0	825229312	54	4839
2026-01-24 22:16:32.38	127.59	12.70	-41.7	-44.2	17.9	0.00e+00	0	39	0	826277888	54	4942
2026-01-24 22:16:33.38	127.74	12.64	-41.5	-44.0	18.1	0.00e+00	0	39	0	828375040	54	4828
2026-01-24 22:16:34.37	127.90	12.58	-41.4	-43.9	18.1	0.00e+00	0	39	0	830472192	54	4802
2026-01-24 22:16:35.36	128.05	12.52	-41.6	-44.2	17.9	0.00e+00	0	39	0	832569344	54	4932
2026-01-24 22:16:36.36	128.20	12.46	-41.5	-44.0	18.0	0.00e+00	0	39	0	834666496	54	4855
2026-01-24 22:16:37.35	128.36	12.40	-41.6	-44.2	17.9	0.00e+00	0	39	0	835715072	54	4932
2026-01-24 22:16:38.35	128.51	12.34	-41.6	-44.2	17.8	0.00e+00	0	39	0	837812224	54	4979
2026-01-24 22:16:39.34	128.66	12.28	-41.8	-44.4	17.7	0.00e+00	0	39	0	839909376	54	5091
2026-01-24 22:16:40.34	128.81	12.23	-42.1	-44.8	17.3	0.00e+00	0	39	0	842006528	54	5324
2026-01-24 22:16:41.33	128.96	12.17	-42.1	-44.9	17.2	0.00e+00	0	39	0	843055104	54	5369
2026-01-24 22:16:42.33	129.11	12.11	-42.4	-45.2	16.9	0.00e+00	0	39	0	845152256	55	5250
2026-01-24 22:16:43.32	129.26	12.05	-42.6	-45.5	16.6	0.00e+00	0	39	0	847249408	55	5415
2026-01-24 22:16:44.31	129.41	11.99	-42.9	-45.8	16.5	0.00e+00	0	39	0	849346560	56	5305
2026-01-24 22:16:45.31	129.56	11.93	-42.7	-45.6	16.7	0.00e+00	0	39	0	851443712	56	5165
2026-01-24 22:16:46.30	129.71	11.87	-42.6	-45.4	16.8	0.00e+00	0	39	0	852492288	56	5078
2026-01-24 22:16:47.30	129.85	11.81	-42.4	-45.1	17.1	0.00e+00	0	39	0	854589440	56	4919
2026-01-24 22:16:48.29	130.00	11.75	-42.5	-45.2	17.0	0.00e+00	0	39	0	856686592	56	4953
2026-01-24 22:16:49.29	130.15	11.69	-42.4	-45.2	17.0	0.00e+00	0	39	0	858783744	56	4939
2026-01-24 22:16:50.28	130.29	11.63	-42.5	-45.2	17.0	0.00e+00	0	39	0	859832320	56	4959
2026-01-24 22:16:51.28	130.44	11.57	-42.6	-45.4	16.8	0.00e+00	0	39	0	861929472	56	5079
2026-01-24 22:16:52.27	130.58	11.51	-42.6	-45.5	16.8	0.00e+00	0	39	0	864026624	56	5101
2026-01-24 22:16:53.26	130.72	11.45	-42.8	-45.7	16.6	0.00e+00	0	39	0	866123776	56	5223
2026-01-24 22:16:54.26	130.87	11.39	-42.6	-45.4	16.8	0.00e+00	0	39	0	868220928	56	5092
2026-01-24 22:16:55.25	131.01	11.33	-42.6	-45.3	16.9	0.00e+00	0	39	0	869269504	56	5039
2026-01-24 22:16:56.24	131.15	11.27	-42.4	-45.2	17.0	0.00e+00	0	39	0	871366656	56	4931
2026-01-24 22:16:57.24	131.29	11.21	-42.2	-44.9	17.3	0.00e+00	0	39	0	873463808	56	4785
2026-01-24 22:16:58.23	131.43	11.15	-42.2	-44.9	17.3	0.00e+00	0	39	0	875560960	56	4777
2026-01-24 22:16:59.23	131.57	11.09	-42.1	-44.8	17.4	0.00e+00	0	39	0	876609536	56	4712
2026-01-24 22:17:00.22	131.71	11.03	-41.8	-44.4	17.6	0.00e+00	0	39	0	878706688	55	4768
2026-01-24 22:17:01.22	131.85	10.97	-41.5	-44.0	17.9	0.00e+00	0	39	0	880803840	55	4598
2026-01-24 22:17:02.21	131.99	10.91	-41.4	-43.9	18.0	0.00e+00	0	39	0	882900992	54	4790
2026-01-24 22:17:03.21	132.13	10.85	-41.6	-44.2	17.7	0.00e+00	0	40	0	884998144	54	4970
2026-01-24 22:17:04.20	132.27	10.79	-41.8	-44.4	17.5	0.00e+00	0	39	0	886046720	54	5080
2026-01-24 22:17:05.19	132.40	10.73	-41.8	-44.4	17.5	0.00e+00	0	39	0	888143872	54	5092
2026-01-24 22:17:06.19	132.54	10.67	-42.0	-44.7	17.2	0.00e+00	0	39	0	890241024	54	5243
2026-01-24 22:17:07.18	132.67	10.62	-42.0	-44.8	17.1	0.00e+00	0	39	0	892338176	54	5284
2026-01-24 22:17:08.18	132.81	10.56	-42.0	-44.7	17.2	0.00e+00	0	39	0	893386752	54	5249
2026-01-24 22:17:09.17	132.95	10.50	-42.2	-44.9	16.9	0.00e+00	0	39	0	895483904	55	5091
2026-01-24 22:17:10.17	133.08	10.44	-42.1	-44.8	17.1	0.00e+00	0	39	0	897581056	55	4999
2026-01-24 22:17:11.16	133.21	10.38	-42.1	-44.8	17.1	0.00e+00	0	39	0	899678208	55	5026
2026-01-24 22:17:12.16	133.35	10.32	-42.2	-44.9	17.0	0.00e+00	0	39	0	901775360	55	5066
2026-01-24 22:17:13.15	133.48	10.26	-42.2	-44.9	16.9	0.00e+00	0	39	0	902823936	55	5080
2026-01-24 22:17:14.14	133.61	10.20	-42.2	-45.0	16.9	0.00e+00	0	39	0	904921088	55	5114
2026-01-24 22:17:15.14	133.74	10.14	-42.4	-45.3	16.6	0.00e+00	0	39	0	907018240	55	5297
2026-01-24 22:17:16.13	133.87	10.08	-42.6	-45.5	16.4	0.00e+00	0	39	0	909115392	55	5416
2026-01-24 22:17:17.13	134.01	10.02	-42.9	-45.9	16.1	0.00e+00	0	39	0	910163968	56	5366
2026-01-24 22:17:18.12	134.13	9.96	-42.9	-45.9	16.1	0.00e+00	0	39	0	912261120	56	5352
2026-01-24 22:17:19.12	134.27	9.90	-42.9	-46.0	16.1	0.00e+00	0	39	0	914358272	56	5406
2026-01-24 22:17:20.11	134.39	9.84	-42.9	-45.9	16.0	0.00e+00	0	39	0	916455424	56	5389
2026-01-24 22:17:21.11	134.52	9.78	-42.7	-45.6	16.4	0.00e+00	0	39	0	918552576	56	5175
2026-01-24 22:17:22.10	134.65	9.72	-42.5	-45.3	16.6	0.00e+00	0	39	0	919601152	56	5034
2026-01-24 22:17:23.10	134.78	9.66	-42.3	-45.1	16.8	0.00e+00	0	39	0	921698304	56	4893
2026-01-24 22:17:24.09	134.91	9.60	-42.3	-45.1	16.8	0.00e+00	0	39	0	923795456	56	4892
2026-01-24 22:17:25.09	135.03	9.54	-42.2	-45.0	16.9	0.00e+00	0	39	0	925892608	56	4816
2026-01-24 22:17:26.08	135.16	9.48	-42.1	-44.8	17.1	0.00e+00	0	39	0	926941184	56	4723
2026-01-24 22:17:27.08	135.28	9.42	-41.6	-44.2	17.5	0.00e+00	0	39	0	929038336	55	4662
2026-01-24 22:17:28.07	135.41	9.36	-41.5	-44.1	17.6	0.00e+00	0	39	0	931135488	54	4882
2026-01-24 22:17:29.07	135.53	9.30	-41.4	-44.0	17.7	0.00e+00	0	39	0	933232640	54	4836
2026-01-24 22:17:30.06	135.66	9.24	-41.4	-44.0	17.7	0.00e+00	0	39	0	935329792	54	4825
2026-01-24 22:17:31.06	135.78	9.18	-41.8	-44.4	17.3	0.00e+00	0	39	0	936378368	54	5091
2026-01-24 22:17:32.05	135.90	9.12	-42.0	-44.8	17.0	0.00e+00	0	39	0	938475520	54	5286
2026-01-24 22:17:33.05	136.03	9.06	-42.3	-45.1	16.6	0.00e+00	0	39	0	940572672	55	5194
2026-01-24 22:17:34.04	136.15	9.01	-42.5	-45.5	16.2	0.00e+00	0	39	0	942669824	55	5432
2026-01-24 22:17:35.04	136.27	8.95	-47.9	-61.8	3.8	3.06e-04	0	39	104	943718400	66	18923
2026-01-24 22:17:36.03	136.39	8.89	-48.3	-63.4	3.8	1.49e+00	0	39	104	943718400	67	21463
2026-01-24 22:17:37.02	136.51	8.83	-48.4	-63.5	3.8	1.49e+00	0	40	104	943718400	67	21738
2026-01-24 22:17:38.02	136.63	8.77	-48.5	-63.7	3.8	1.49e+00	0	39	104	943718400	67	22094
2026-01-24 22:17:39.01	136.75	8.71	-48.3	-63.7	3.8	1.49e+00	0	39	104	943718400	67	22044
2026-01-24 22:17:40.00	136.87	8.65	-48.5	-63.7	3.8	1.49e+00	0	39	104	943718400	67	22197
2026-01-24 22:17:41.00	136.99	8.59	-48.6	-63.8	3.8	1.49e+00	0	39	104	943718400	67	22351
2026-01-24 22:17:41.99	137.11	8.53	-48.5	-63.8	3.8	1.49e+00	0	39	104	943718400	67	22429
2026-01-24 22:17:42.98	137.23	8.47	-48.8	-64.0	3.8	1.49e+00	0	39	104	943718400	68	21746
2026-01-24 22:17:43.97	137.34	8.42	-48.7	-64.0	3.8	1.49e+00	0	40	104	943718400	68	21676
2026-01-24 22:17:44.97	137.46	8.36	-48.9	-64.0	3.8	1.49e+00	0	39	104	943718400	68	21700
2026-01-24 22:17:45.96	137.58	8.30	-48.9	-64.1	3.8	1.49e+00	0	39	104	943718400	68	21805
2026-01-24 22:17:46.95	137.69	8.24	-48.7	-64.1	3.8	1.49e+00	0	39	104	943718400	68	21800
2026-01-24 22:17:47.95	137.81	8.18	-48.6	-64.1	3.8	1.49e+00	0	39	104	943718400	68	21956
2026-01-24 22:17:48.94	137.92	8.12	-48.9	-64.1	3.8	1.49e+00	0	39	104	943718400	68	21911
2026-01-24 22:17:49.94	138.04	8.06	-48.7	-64.2	3.8	1.49e+00	0	39	104	943718400	68	22013
2026-01-24 22:17:50.93	138.15	8.00	-48.6	-64.2	3.8	1.49e+00	0	39	104	943718400	68	22009
2026-01-24 22:17:51.92	138.27	7.95	-48.6	-64.1	3.8	1.49e+00	0	39	104	943718400	68	21899
2026-01-24 22:17:52.92	138.38	7.89	-48.6	-64.1	3.8	1.49e+00	0	39	104	943718400	68	21954
2026-01-24 22:17:53.91	138.49	7.83	-48.7	-64.2	3.8	1.49e+00	0	39	104	943718400	68	22064
2026-01-24 22:17:54.90	138.60	7.77	-48.7	-64.1	3.8	1.49e+00	0	39	104	943718400	68	21978
2026-01-24 22:17:55.90	138.72	7.71	-48.7	-64.1	3.8	1.49e+00	0	39	104	943718400	68	21892
2026-01-24 22:17:56.89	138.83	7.65	-48.7	-64.1	3.8	1.49e+00	0	39	104	943718400	68	21884
2026-01-24 22:17:57.88	138.94	7.59	-48.7	-64.1	3.8	1.49e+00	0	39	104	943718400	68	21769
2026-01-24 22:17:58.88	139.05	7.54	-48.7	-64.1	3.8	1.49e+00	0	39	104	943718400	68	21802
2026-01-24 22:17:59.87	139.16	7.48	-48.7	-64.1	3.8	1.49e+00	0	39	104	943718400	68	21837
2026-01-24 22:18:00.86	139.27	7.42	-48.7	-64.1	3.8	1.49e+00	0	39	104	943718400	68	21825
2026-01-24 22:18:01.85	139.38	7.36	-48.7	-64.1	3.8	1.49e+00	0	39	104	943718400	68	21843
2026-01-24 22:18:02.85	139.49	7.30	-48.6	-64.1	3.8	1.49e+00	0	39	104	943718400	68	21837
2026-01-24 22:18:03.84	139.60	7.25	-48.6	-64.0	3.8	1.49e+00	0	39	104	943718400	68	21720
2026-01-24 22:18:04.83	139.71	7.19	-48.6	-64.1	3.8	1.49e+00	0	39	104	943718400	68	21781
2026-01-24 22:18:05.83	139.81	7.13	-48.6	-64.1	3.8	1.49e+00	0	39	104	943718400	68	21806
2026-01-24 22:18:06.82	139.92	7.07	-48.6	-64.0	3.8	1.49e+00	0	39	104	943718400	68	21742
2026-01-24 22:18:07.81	140.03	7.01	-48.6	-64.0	3.8	1.49e+00	0	39	104	943718400	68	21709
2026-01-24 22:18:08.80	140.13	6.96	-48.6	-64.1	3.8	1.49e+00	0	39	104	943718400	68	21792
2026-01-24 22:18:09.80	140.24	6.90	-48.6	-64.0	3.8	1.49e+00	0	39	104	943718400	68	21684
2026-01-24 22:18:10.79	140.35	6.84	-48.6	-64.0	3.8	1.49e+00	0	39	104	943718400	68	21717
2026-01-24 22:18:11.78	140.45	6.78	-48.6	-64.0	3.8	1.49e+00	0	39	104	943718400	68	21743
2026-01-24 22:18:12.78	140.56	6.72	-48.6	-64.0	3.8	1.49e+00	0	39	104	943718400	68	21732
2026-01-24 22:18:13.77	140.66	6.67	-48.6	-64.1	3.8	1.49e+00	0	39	104	943718400	68	21757
2026-01-24 22:18:14.76	140.76	6.61	-48.6	-64.0	3.8	1.49e+00	0	39	104	943718400	68	21681
2026-01-24 22:18:15.76	140.87	6.55	-48.6	-64.0	3.8	1.49e+00	0	40	104	943718400	68	21684
2026-01-24 22:18:16.75	140.97	6.49	-48.6	-64.1	3.8	1.49e+00	0	39	104	943718400	68	21809
2026-01-24 22:18:17.74	141.07	6.44	-48.6	-64.0	3.8	1.49e+00	0	40	104	943718400	68	21697
2026-01-24 22:18:18.73	141.18	6.38	-48.6	-64.0	3.8	1.49e+00	0	40	104	943718400	68	21685
2026-01-24 22:18:19.73	141.28	6.32	-48.6	-64.0	3.8	1.49e+00	0	39	104	943718400	68	21567
2026-01-24 22:18:20.72	141.38	6.27	-48.6	-64.0	3.8	1.49e+00	0	39	104	943718400	68	21615
2026-01-24 22:18:21.71	141.48	6.21	-48.6	-64.0	3.8	1.49e+00	0	39	104	943718400	68	21678
2026-01-24 22:18:22.70	141.58	6.15	-48.6	-64.0	3.8	1.49e+00	0	39	104	943718400	68	21644
2026-01-24 22:18:23.68	141.68	6.09	-48.6	-64.0	3.8	1.49e+00	0	39	104	943718400	68	21616
2026-01-24 22:18:24.67	141.78	6.04	-48.6	-64.0	3.8	1.49e+00	0	39	104	943718400	68	21629
2026-01-24 22:18:25.67	141.88	5.98	-48.6	-64.0	3.8	1.49e+00	0	39	104	943718400	68	21659
2026-01-24 22:18:26.66	141.98	5.92	-48.6	-64.0	3.8	1.49e+00	0	39	104	943718400	68	21648
2026-01-24 22:18:27.65	142.08	5.87	-48.6	-64.0	3.8	1.49e+00	0	39	104	943718400	68	21647
2026-01-24 22:18:28.64	142.18	5.81	-48.6	-64.0	3.8	1.49e+00	0	39	104	943718400	68	21622
2026-01-24 22:18:29.64	142.28	5.75	-48.6	-64.0	3.8	1.49e+00	0	39	104	943718400	68	21612
2026-01-24 22:18:30.63	142.37	5.70	-48.6	-64.0	3.8	1.49e+00	0	39	104	943718400	68	21667
2026-01-24 22:18:31.62	142.47	5.64	-48.6	-64.0	3.8	1.49e+00	0	39	104	943718400	68	21622
2026-01-24 22:18:32.62	142.57	5.58	-48.6	-64.0	3.8	1.49e+00	0	39	104	943718400	68	21675
2026-01-24 22:18:33.61	142.67	5.53	-48.6	-64.0	3.8	1.49e+00	0	39	104	943718400	68	21605
2026-01-24 22:18:34.60	142.76	5.47	-48.6	-64.0	3.8	1.49e+00	0	39	104	943718400	68	21683
2026-01-24 22:18:35.60	142.86	5.41	-48.6	-64.0	3.8	1.49e+00	0	39	104	943718400	68	21629
2026-01-24 22:18:36.59	142.96	5.36	-48.6	-64.0	3.8	1.49e+00	0	39	104	943718400	68	21622
2026-01-24 22:18:37.58	143.05	5.30	-48.6	-64.0	3.8	1.49e+00	0	39	104	943718400	68	21642
2026-01-24 22:18:38.57	143.15	5.25	-48.6	-64.0	3.8	1.49e+00	0	39	104	943718400	68	21667
2026-01-24 22:18:39.57	143.24	5.19	-48.6	-64.0	3.8	1.49e+00	0	39	104	943718400	68	21669
2026-01-24 22:18:40.56	143.33	5.13	-48.6	-64.0	3.8	1.49e+00	0	39	104	943718400	68	21707
2026-01-24 22:18:41.55	143.43	5.08	-48.6	-64.0	3.8	1.49e+00	0	39	104	943718400	68	21612
2026-01-24 22:18:42.55	143.52	5.02	-48.6	-64.0	3.8	1.49e+00	0	39	104	943718400	68	21621
2026-01-24 22:18:43.54	143.62	4.96	-48.6	-64.0	3.8	1.49e+00	0	39	104	943718400	68	21559

#Closed at: 2026-01-24 22:18:44
#Recorded file [943 MB]: D:/Data/31040_260125_010802.dat