passes_logs/2026/01/25/T1/T1__20260125_014917_NOAA_20_JPSS-1_rec.log

#Pass ID: 20260125_014917_NOAA 20 (JPSS-1)
#Satellite: NOAA 20 (JPSS-1)
#Configuration: NOAA 20
#almurnet v.1.7.20251203
#Start time: 2026-01-25 01:49:18

#Version: 2.0.20230620
#Station: T1
#Location: 37.570604 lon 55.790049 lat
#TLE: 1 43013U 17073A   26024.42258823  .00000183  00000+0  10747-3 0  9990
#TLE: 2 43013  98.7646 325.2629 0001105  25.8644 334.2587 14.19539754424075

#Time	Az	El	Level	Level2	SNR	BER	BlckErr	Temp	State	Recorded	gain1	gain2
2026-01-25 01:49:18.40	3.88	5.06	-44.5	-63.5	3.7	1.49e+00	0	39	0	0	60	32342
2026-01-25 01:49:19.39	3.78	5.11	-43.1	-63.4	3.8	1.49e+00	0	39	104	0	56	40229
2026-01-25 01:49:20.38	3.68	5.17	-43.1	-63.4	3.8	1.49e+00	0	39	104	0	56	40215
2026-01-25 01:49:21.38	3.58	5.22	-43.1	-63.5	3.8	1.49e+00	0	39	104	0	56	40525
2026-01-25 01:49:22.37	3.48	5.27	-43.1	-63.4	3.8	1.49e+00	0	39	104	0	56	40327
2026-01-25 01:49:23.36	3.38	5.33	-43.1	-63.4	3.8	1.49e+00	0	39	104	0	56	40364
2026-01-25 01:49:24.36	3.28	5.38	-43.1	-63.4	3.8	1.49e+00	0	39	104	0	56	40345
2026-01-25 01:49:25.35	3.18	5.43	-43.1	-63.4	3.8	1.49e+00	0	39	104	0	56	40378
2026-01-25 01:49:26.34	3.08	5.49	-43.1	-63.4	3.8	1.49e+00	0	39	104	0	56	40412
2026-01-25 01:49:27.33	2.98	5.54	-43.1	-63.4	3.8	1.49e+00	0	39	104	0	56	40315
2026-01-25 01:49:28.33	2.88	5.59	-43.1	-63.4	3.8	1.49e+00	0	39	104	0	56	40275
2026-01-25 01:49:29.32	2.78	5.65	-43.1	-63.4	3.8	1.49e+00	0	40	104	0	56	40062
2026-01-25 01:49:30.31	2.67	5.70	-43.1	-63.4	3.8	1.49e+00	0	39	104	0	56	40241
2026-01-25 01:49:31.31	2.57	5.76	-43.1	-63.4	3.8	1.49e+00	0	39	104	0	56	40219
2026-01-25 01:49:32.30	2.47	5.81	-43.1	-63.4	3.8	1.49e+00	0	39	104	0	56	40195
2026-01-25 01:49:33.29	2.36	5.86	-43.1	-63.4	3.8	1.49e+00	0	39	104	0	56	40172
2026-01-25 01:49:34.29	2.26	5.92	-43.1	-63.4	3.8	1.49e+00	0	39	104	0	56	40292
2026-01-25 01:49:35.28	2.15	5.97	-43.1	-63.4	3.8	1.49e+00	0	39	104	0	56	40322
2026-01-25 01:49:36.27	2.05	6.02	-43.1	-63.4	3.8	1.49e+00	0	40	104	0	56	40392
2026-01-25 01:49:37.27	1.94	6.08	-43.1	-63.4	3.8	1.49e+00	0	40	104	0	56	40331
2026-01-25 01:49:38.26	1.84	6.13	-43.1	-63.4	3.8	1.49e+00	0	40	104	0	56	40321
2026-01-25 01:49:39.25	1.73	6.19	-43.1	-63.4	3.8	1.49e+00	0	40	104	0	56	40327
2026-01-25 01:49:40.25	1.62	6.24	-43.1	-63.4	3.8	1.49e+00	0	40	104	0	56	40385
2026-01-25 01:49:41.24	1.52	6.29	-43.1	-63.4	3.8	1.49e+00	0	40	104	0	56	40329
2026-01-25 01:49:42.23	1.41	6.35	-43.1	-63.4	3.8	1.49e+00	0	40	104	0	56	40369
2026-01-25 01:49:43.22	1.30	6.40	-43.2	-63.4	3.8	1.49e+00	0	40	104	0	56	40332
2026-01-25 01:49:44.22	1.19	6.46	-43.2	-63.4	3.8	1.49e+00	0	40	104	0	56	40487
2026-01-25 01:49:45.21	1.08	6.51	-43.2	-63.4	3.8	1.49e+00	0	40	104	0	56	40289
2026-01-25 01:49:46.20	0.97	6.56	-43.2	-63.4	3.8	1.49e+00	0	40	104	0	56	40213
2026-01-25 01:49:47.20	0.86	6.62	-43.2	-63.4	3.8	1.49e+00	0	40	104	0	56	40313
2026-01-25 01:49:48.19	0.75	6.67	-43.2	-63.4	3.8	1.49e+00	0	40	104	0	57	38051
2026-01-25 01:49:49.18	0.64	6.73	-43.1	-63.4	3.8	1.49e+00	0	40	104	0	57	37984
2026-01-25 01:49:50.18	0.53	6.78	-43.1	-63.4	3.8	1.49e+00	0	40	104	0	57	38107
2026-01-25 01:49:51.17	0.42	6.83	-43.1	-63.4	3.8	1.49e+00	0	40	104	0	57	38073
2026-01-25 01:49:52.16	0.31	6.89	-43.1	-63.4	3.8	1.49e+00	0	40	104	0	57	38046
2026-01-25 01:49:53.15	0.20	6.94	-43.1	-63.4	3.8	1.49e+00	0	40	104	0	57	38034
2026-01-25 01:49:54.15	0.09	7.00	-43.1	-63.4	3.8	1.49e+00	0	40	104	0	57	38048
2026-01-25 01:49:55.14	359.97	7.05	-43.1	-63.4	3.8	1.49e+00	0	40	104	0	57	38117
2026-01-25 01:49:56.13	359.86	7.10	-43.1	-63.4	3.8	1.49e+00	0	40	104	0	57	38075
2026-01-25 01:49:57.13	359.74	7.16	-43.1	-63.4	3.8	1.49e+00	0	40	104	0	57	37895
2026-01-25 01:49:58.12	359.63	7.21	-43.1	-63.4	3.8	1.49e+00	0	40	104	0	57	38028
2026-01-25 01:49:59.11	359.52	7.27	-43.1	-63.4	3.8	1.49e+00	0	40	104	0	57	38109
2026-01-25 01:50:00.11	359.40	7.32	-43.1	-63.4	3.8	1.49e+00	0	40	104	0	57	38059
2026-01-25 01:50:01.10	359.29	7.37	-43.1	-63.4	3.8	1.49e+00	0	40	104	0	57	37943
2026-01-25 01:50:02.09	359.17	7.43	-43.1	-63.4	3.8	1.49e+00	0	40	104	0	57	38076
2026-01-25 01:50:03.09	359.05	7.48	-43.1	-63.4	3.8	1.49e+00	0	40	104	0	57	38028
2026-01-25 01:50:04.08	358.94	7.54	-43.1	-63.4	3.8	1.49e+00	0	40	104	0	57	38023
2026-01-25 01:50:05.07	358.82	7.59	-43.1	-63.4	3.8	1.49e+00	0	40	104	0	57	38061
2026-01-25 01:50:06.07	358.70	7.65	-43.1	-63.4	3.8	1.49e+00	0	40	104	0	57	38125
2026-01-25 01:50:07.06	358.58	7.70	-43.1	-63.4	3.8	1.49e+00	0	40	104	0	57	37973
2026-01-25 01:50:08.05	358.46	7.75	-43.1	-63.4	3.8	1.49e+00	0	40	104	0	57	37953
2026-01-25 01:50:09.05	358.34	7.81	-43.1	-63.4	3.8	1.49e+00	0	40	104	0	57	37815
2026-01-25 01:50:10.04	358.22	7.86	-43.1	-63.3	3.8	1.49e+00	0	40	104	0	57	37668
2026-01-25 01:50:11.03	358.10	7.92	-43.2	-63.3	3.8	1.49e+00	0	41	104	0	57	37626
2026-01-25 01:50:12.02	357.98	7.97	-43.1	-63.3	3.8	1.49e+00	0	40	104	0	57	37807
2026-01-25 01:50:13.02	357.86	8.02	-43.1	-63.3	3.8	1.49e+00	0	40	104	0	57	37780
2026-01-25 01:50:14.01	357.74	8.08	-43.1	-63.3	3.8	1.49e+00	0	40	104	0	57	37560
2026-01-25 01:50:15.00	357.62	8.13	-43.1	-63.2	3.8	1.49e+00	0	40	104	0	57	37165
2026-01-25 01:50:16.00	357.50	8.19	-43.1	-63.0	3.8	1.49e+00	0	40	104	0	57	36389
2026-01-25 01:50:16.99	357.37	8.24	-43.1	-62.8	3.8	1.49e+00	0	41	104	0	57	35319
2026-01-25 01:50:17.99	357.25	8.30	-43.1	-62.6	3.8	1.49e+00	0	40	104	0	57	34583
2026-01-25 01:50:18.98	357.13	8.35	-43.1	-62.4	3.8	1.49e+00	0	40	104	0	57	33984
2026-01-25 01:50:19.97	357.00	8.40	-43.1	-62.3	3.8	1.49e+00	0	41	104	0	57	33421
2026-01-25 01:50:20.96	356.88	8.46	-43.1	-62.2	3.8	1.49e+00	0	41	104	0	57	33047
2026-01-25 01:50:21.96	356.75	8.51	-43.1	-61.9	3.8	1.49e+00	0	41	104	0	57	32027
2026-01-25 01:50:22.95	356.63	8.57	-43.1	-61.5	3.8	1.49e+00	0	41	104	0	57	30550
2026-01-25 01:50:23.94	356.50	8.62	-43.1	-60.6	4.0	1.49e+00	0	41	104	0	57	27643
2026-01-25 01:50:24.94	356.37	8.67	-43.0	-59.4	4.3	1.38e+00	0	41	0	0	57	24067
2026-01-25 01:50:25.93	356.24	8.73	-42.9	-57.9	5.0	9.26e-01	0	41	0	1048576	57	20196
2026-01-25 01:50:26.92	356.12	8.78	-42.8	-56.1	6.1	5.01e-01	0	41	0	3145728	57	16500
2026-01-25 01:50:27.92	355.99	8.84	-42.7	-54.5	7.5	1.34e-01	0	41	0	5242880	57	13689
2026-01-25 01:50:28.91	355.86	8.89	-42.6	-53.1	8.9	4.33e-02	0	41	0	7340032	57	11567
2026-01-25 01:50:29.90	355.73	8.94	-42.4	-52.0	10.0	1.32e-02	0	41	0	8388608	56	10893
2026-01-25 01:50:30.90	355.60	9.00	-42.3	-51.2	10.8	4.38e-03	0	41	0	10485760	56	9928
2026-01-25 01:50:31.89	355.47	9.05	-42.3	-51.0	11.1	1.68e-03	0	41	0	12582912	56	9659
2026-01-25 01:50:32.89	355.34	9.10	-44.6	-59.8	4.3	2.00e-01	0	41	0	14680064	59	22378
2026-01-25 01:50:33.88	355.21	9.16	-40.8	-47.5	14.5	5.96e-01	0	41	0	14680064	53	7681
2026-01-25 01:50:34.88	355.08	9.21	-41.8	-50.8	11.2	0.00e+00	0	41	0	16777216	54	10619
2026-01-25 01:50:35.87	354.94	9.27	-40.8	-47.1	14.9	1.50e-06	0	41	0	18874368	53	7323
2026-01-25 01:50:36.86	354.81	9.32	-40.8	-46.8	15.2	0.00e+00	0	41	0	19922944	53	7057
2026-01-25 01:50:37.86	354.68	9.37	-40.8	-46.8	15.2	0.00e+00	0	41	0	22020096	53	7069
2026-01-25 01:50:38.86	354.54	9.43	-40.7	-46.6	15.3	0.00e+00	0	41	0	24117248	53	6958
2026-01-25 01:50:39.85	354.41	9.48	-40.8	-46.7	15.3	0.00e+00	0	41	0	26214400	53	6987
2026-01-25 01:50:40.84	354.28	9.53	-40.9	-46.7	15.3	0.00e+00	0	41	0	27262976	53	6964
2026-01-25 01:50:41.84	354.14	9.59	-40.9	-46.7	15.3	0.00e+00	0	41	0	29360128	53	6962
2026-01-25 01:50:42.83	354.00	9.64	-41.0	-46.6	15.4	0.00e+00	0	41	0	31457280	53	6945
2026-01-25 01:50:43.83	353.87	9.70	-41.3	-46.6	15.4	0.00e+00	0	41	0	33554432	53	6895
2026-01-25 01:50:44.82	353.73	9.75	-41.3	-46.6	15.5	0.00e+00	0	41	0	35651584	53	6888
2026-01-25 01:50:45.82	353.59	9.80	-41.5	-46.6	15.5	0.00e+00	0	41	0	36700160	53	6880
2026-01-25 01:50:46.82	353.45	9.86	-41.5	-46.5	15.5	0.00e+00	0	41	0	38797312	53	6850
2026-01-25 01:50:47.81	353.32	9.91	-41.5	-46.4	15.7	0.00e+00	0	41	0	40894464	53	6725
2026-01-25 01:50:48.81	353.18	9.96	-41.7	-46.3	15.8	0.00e+00	0	41	0	42991616	54	6291
2026-01-25 01:50:49.80	353.04	10.02	-41.7	-46.3	15.8	0.00e+00	0	41	0	44040192	54	6321
2026-01-25 01:50:50.80	352.90	10.07	-42.0	-46.6	15.4	0.00e+00	0	41	0	46137344	54	6560
2026-01-25 01:50:51.79	352.76	10.12	-42.0	-46.6	15.5	0.00e+00	0	41	0	48234496	54	6556
2026-01-25 01:50:52.79	352.61	10.18	-41.9	-46.6	15.5	0.00e+00	0	41	0	50331648	54	6498
2026-01-25 01:50:53.78	352.47	10.23	-42.0	-46.7	15.4	0.00e+00	0	41	0	52428800	54	6632
2026-01-25 01:50:54.78	352.33	10.28	-41.7	-46.7	15.5	0.00e+00	0	41	0	53477376	54	6582
2026-01-25 01:50:55.78	352.19	10.33	-41.5	-46.7	15.5	0.00e+00	0	41	0	55574528	54	6593
2026-01-25 01:50:56.77	352.04	10.39	-41.4	-46.8	15.4	0.00e+00	0	41	0	57671680	54	6672
2026-01-25 01:50:57.77	351.90	10.44	-41.2	-46.7	15.4	0.00e+00	0	41	0	59768832	54	6603
2026-01-25 01:50:58.76	351.76	10.49	-41.1	-46.7	15.4	0.00e+00	0	41	0	61865984	54	6634
2026-01-25 01:50:59.76	351.61	10.55	-41.0	-46.6	15.5	0.00e+00	0	41	0	62914560	54	6553
2026-01-25 01:51:00.75	351.47	10.60	-41.0	-46.7	15.4	0.00e+00	0	41	0	65011712	53	6994
2026-01-25 01:51:01.75	351.32	10.65	-41.0	-46.8	15.3	0.00e+00	0	41	0	67108864	53	7066
2026-01-25 01:51:02.74	351.17	10.70	-40.9	-46.6	15.5	0.00e+00	0	41	0	69206016	53	6939
2026-01-25 01:51:03.74	351.03	10.76	-41.0	-46.7	15.4	0.00e+00	0	41	0	70254592	53	7006
2026-01-25 01:51:04.73	350.88	10.81	-41.2	-46.9	15.2	0.00e+00	0	41	0	72351744	53	7144
2026-01-25 01:51:05.72	350.73	10.86	-41.3	-46.9	15.2	0.00e+00	0	41	0	74448896	53	7175
2026-01-25 01:51:06.72	350.58	10.91	-41.5	-46.9	15.1	0.00e+00	0	41	0	76546048	53	7196
2026-01-25 01:51:07.71	350.43	10.96	-41.8	-46.7	15.4	0.00e+00	0	41	0	78643200	54	6635
2026-01-25 01:51:08.71	350.28	11.02	-41.9	-46.7	15.4	0.00e+00	0	41	0	79691776	54	6646
2026-01-25 01:51:09.70	350.13	11.07	-42.0	-46.6	15.5	7.00e-07	0	41	0	81788928	54	6570
2026-01-25 01:51:10.70	349.98	11.12	-42.2	-46.6	15.6	0.00e+00	0	41	0	83886080	54	6503
2026-01-25 01:51:11.69	349.83	11.17	-42.4	-46.8	15.4	0.00e+00	0	41	0	85983232	55	6333
2026-01-25 01:51:12.69	349.68	11.22	-42.5	-47.0	15.2	0.00e+00	0	41	0	87031808	55	6428
2026-01-25 01:51:13.69	349.53	11.27	-42.4	-46.7	15.5	0.00e+00	0	41	0	89128960	55	6234
2026-01-25 01:51:14.68	349.37	11.33	-42.4	-46.7	15.5	0.00e+00	0	41	0	91226112	55	6211
2026-01-25 01:51:15.67	349.22	11.38	-42.4	-46.6	15.5	0.00e+00	0	41	0	93323264	55	6199
2026-01-25 01:51:16.67	349.07	11.43	-42.5	-46.9	15.4	0.00e+00	0	41	0	95420416	55	6351
2026-01-25 01:51:17.66	348.91	11.48	-42.5	-46.9	15.3	0.00e+00	0	41	0	96468992	55	6358
2026-01-25 01:51:18.66	348.76	11.53	-42.6	-46.9	15.2	0.00e+00	0	41	0	98566144	55	6409
2026-01-25 01:51:19.65	348.60	11.58	-42.5	-46.8	15.4	0.00e+00	0	41	0	100663296	55	6325
2026-01-25 01:51:20.65	348.44	11.63	-42.4	-46.7	15.5	0.00e+00	0	41	0	102760448	55	6220
2026-01-25 01:51:21.64	348.29	11.68	-42.3	-46.6	15.6	0.00e+00	0	41	0	103809024	55	6157
2026-01-25 01:51:22.63	348.13	11.73	-42.2	-46.5	15.7	0.00e+00	0	41	0	105906176	55	6098
2026-01-25 01:51:23.63	347.97	11.78	-42.1	-46.4	15.7	0.00e+00	0	41	0	108003328	55	6044
2026-01-25 01:51:24.62	347.82	11.83	-42.1	-46.6	15.6	0.00e+00	0	41	0	110100480	55	6152
2026-01-25 01:51:25.62	347.66	11.89	-42.1	-46.4	15.8	0.00e+00	0	41	0	112197632	55	6020
2026-01-25 01:51:26.61	347.50	11.94	-42.0	-46.1	16.1	0.00e+00	0	41	0	113246208	55	5842
2026-01-25 01:51:27.61	347.34	11.99	-42.3	-46.2	15.9	0.00e+00	0	41	0	115343360	55	5883
2026-01-25 01:51:28.61	347.17	12.04	-42.4	-46.2	16.0	0.00e+00	0	41	0	117440512	55	5883
2026-01-25 01:51:29.60	347.01	12.09	-42.4	-46.0	16.2	0.00e+00	0	41	0	119537664	55	5757
2026-01-25 01:51:30.59	346.85	12.14	-42.4	-45.9	16.3	0.00e+00	0	41	0	120586240	55	5715
2026-01-25 01:51:31.59	346.69	12.19	-42.6	-46.0	16.2	0.00e+00	0	41	0	122683392	55	5726
2026-01-25 01:51:32.58	346.53	12.23	-42.8	-46.0	16.3	0.00e+00	0	41	0	124780544	56	5460
2026-01-25 01:51:33.58	346.36	12.28	-42.8	-46.0	16.3	0.00e+00	0	41	0	126877696	56	5428
2026-01-25 01:51:34.57	346.20	12.33	-42.8	-46.0	16.4	0.00e+00	0	41	0	128974848	56	5408
2026-01-25 01:51:35.57	346.03	12.38	-42.6	-45.8	16.6	0.00e+00	0	41	0	130023424	56	5294
2026-01-25 01:51:36.56	345.87	12.43	-42.6	-45.8	16.6	0.00e+00	0	41	0	132120576	56	5309
2026-01-25 01:51:37.56	345.70	12.48	-42.5	-45.8	16.7	0.00e+00	0	41	0	134217728	56	5285
2026-01-25 01:51:38.55	345.54	12.53	-42.4	-45.6	16.8	0.00e+00	0	41	0	136314880	56	5193
2026-01-25 01:51:39.54	345.37	12.58	-42.2	-45.4	17.0	0.00e+00	0	41	0	137363456	56	5082
2026-01-25 01:51:40.54	345.20	12.63	-42.0	-45.1	17.2	0.00e+00	0	41	0	139460608	56	4914
2026-01-25 01:51:41.53	345.04	12.67	-41.8	-45.0	17.3	0.00e+00	0	41	0	141557760	55	5132
2026-01-25 01:51:42.53	344.87	12.72	-41.8	-45.1	17.2	0.00e+00	0	41	0	143654912	55	5176
2026-01-25 01:51:43.52	344.70	12.77	-41.8	-45.0	17.3	0.00e+00	0	41	0	145752064	55	5116
2026-01-25 01:51:44.52	344.53	12.82	-41.8	-44.9	17.3	0.00e+00	0	41	0	146800640	55	5088
2026-01-25 01:51:45.51	344.36	12.87	-41.8	-44.9	17.4	0.00e+00	0	41	0	148897792	55	5063
2026-01-25 01:51:46.50	344.19	12.91	-41.9	-45.0	17.3	0.00e+00	0	41	0	150994944	55	5103
2026-01-25 01:51:47.50	344.02	12.96	-41.9	-45.0	17.2	0.00e+00	0	41	0	153092096	55	5141
2026-01-25 01:51:48.49	343.85	13.01	-41.9	-45.0	17.2	0.00e+00	0	41	0	154140672	55	5132
2026-01-25 01:51:49.49	343.67	13.05	-41.8	-44.8	17.4	0.00e+00	0	41	0	156237824	55	5033
2026-01-25 01:51:50.48	343.50	13.10	-41.8	-44.9	17.4	0.00e+00	0	41	0	158334976	55	5067
2026-01-25 01:51:51.48	343.33	13.15	-41.7	-44.9	17.4	0.00e+00	0	41	0	160432128	55	5044
2026-01-25 01:51:52.47	343.15	13.19	-41.6	-44.8	17.5	0.00e+00	0	41	0	162529280	55	5003
2026-01-25 01:51:53.47	342.98	13.24	-41.6	-44.8	17.4	0.00e+00	0	41	0	163577856	55	5017
2026-01-25 01:51:54.46	342.80	13.29	-41.6	-44.7	17.5	0.00e+00	0	41	0	165675008	55	4965
2026-01-25 01:51:55.46	342.63	13.33	-41.6	-44.7	17.5	0.00e+00	0	41	0	167772160	55	4943
2026-01-25 01:51:56.45	342.45	13.38	-41.5	-44.6	17.7	0.00e+00	0	41	0	169869312	55	4872
2026-01-25 01:51:57.45	342.27	13.42	-41.5	-44.4	17.8	0.00e+00	0	41	0	170917888	55	4792
2026-01-25 01:51:58.44	342.10	13.47	-41.5	-44.4	17.9	0.00e+00	0	41	0	173015040	54	5061
2026-01-25 01:51:59.44	341.92	13.52	-41.3	-44.3	18.0	0.00e+00	0	41	0	175112192	54	4984
2026-01-25 01:52:00.43	341.74	13.56	-41.2	-44.1	18.1	0.00e+00	0	41	0	177209344	54	4903
2026-01-25 01:52:01.42	341.56	13.60	-41.2	-44.3	18.0	0.00e+00	0	41	0	179306496	54	4991
2026-01-25 01:52:02.42	341.38	13.65	-41.2	-44.2	18.1	0.00e+00	0	41	0	180355072	54	4932
2026-01-25 01:52:03.41	341.20	13.69	-41.3	-44.2	18.1	0.00e+00	0	41	0	182452224	54	4948
2026-01-25 01:52:04.41	341.02	13.74	-41.4	-44.3	18.0	0.00e+00	0	41	0	184549376	54	5000
2026-01-25 01:52:05.40	340.84	13.78	-41.4	-44.1	18.2	0.00e+00	0	41	0	186646528	54	4889
2026-01-25 01:52:06.40	340.66	13.83	-41.3	-44.0	18.3	0.00e+00	0	41	0	187695104	54	4821
2026-01-25 01:52:07.39	340.47	13.87	-41.3	-43.9	18.4	0.00e+00	0	41	0	189792256	54	4788
2026-01-25 01:52:08.39	340.29	13.91	-41.3	-43.9	18.4	0.00e+00	0	41	0	191889408	54	4787
2026-01-25 01:52:09.38	340.11	13.96	-41.2	-43.9	18.4	0.00e+00	0	41	0	193986560	54	4761
2026-01-25 01:52:10.37	339.92	14.00	-41.0	-43.9	18.4	0.00e+00	0	41	0	196083712	54	4769
2026-01-25 01:52:11.37	339.74	14.04	-40.9	-43.8	18.4	0.00e+00	0	41	0	197132288	53	5036
2026-01-25 01:52:12.36	339.55	14.08	-40.9	-44.0	18.3	0.00e+00	0	41	0	199229440	53	5102
2026-01-25 01:52:13.36	339.37	14.13	-40.9	-43.9	18.3	0.00e+00	0	41	0	201326592	53	5100
2026-01-25 01:52:14.35	339.18	14.17	-41.0	-43.9	18.3	0.00e+00	0	41	0	203423744	53	5075
2026-01-25 01:52:15.35	338.99	14.21	-41.1	-44.0	18.2	0.00e+00	0	41	0	204472320	53	5119
2026-01-25 01:52:16.34	338.81	14.25	-41.2	-44.0	18.2	0.00e+00	0	41	0	206569472	53	5154
2026-01-25 01:52:17.33	338.62	14.29	-41.2	-44.1	18.2	0.00e+00	0	41	0	208666624	53	5170
2026-01-25 01:52:18.33	338.43	14.34	-41.3	-44.1	18.2	0.00e+00	0	41	0	210763776	53	5181
2026-01-25 01:52:19.32	338.24	14.38	-41.4	-44.3	18.0	0.00e+00	0	41	0	212860928	53	5297
2026-01-25 01:52:20.32	338.05	14.42	-41.4	-44.4	17.9	0.00e+00	0	41	0	213909504	53	5350
2026-01-25 01:52:21.31	337.86	14.46	-41.4	-44.4	17.8	0.00e+00	0	41	0	216006656	53	5383
2026-01-25 01:52:22.31	337.67	14.50	-41.5	-44.6	17.7	0.00e+00	0	41	0	218103808	53	5513
2026-01-25 01:52:23.30	337.48	14.54	-41.5	-44.5	17.7	0.00e+00	0	41	0	220200960	53	5456
2026-01-25 01:52:24.30	337.29	14.58	-41.6	-44.6	17.7	0.00e+00	0	41	0	221249536	53	5469
2026-01-25 01:52:25.29	337.10	14.62	-41.5	-44.3	18.0	0.00e+00	0	41	0	223346688	53	5288
2026-01-25 01:52:26.29	336.91	14.66	-41.6	-44.3	18.0	0.00e+00	0	41	0	225443840	53	5289
2026-01-25 01:52:27.28	336.71	14.69	-41.5	-44.1	18.2	0.00e+00	0	41	0	227540992	53	5187
2026-01-25 01:52:28.28	336.52	14.73	-41.5	-44.0	18.2	0.00e+00	0	41	0	229638144	53	5146
2026-01-25 01:52:29.27	336.33	14.77	-41.6	-44.2	18.0	0.00e+00	0	41	0	230686720	54	4952
2026-01-25 01:52:30.27	336.13	14.81	-41.6	-44.2	18.1	0.00e+00	0	41	0	232783872	54	4942
2026-01-25 01:52:31.26	335.94	14.85	-41.6	-44.2	18.1	0.00e+00	0	41	0	234881024	54	4948
2026-01-25 01:52:32.26	335.74	14.88	-41.5	-44.2	18.1	0.00e+00	0	41	0	236978176	54	4927
2026-01-25 01:52:33.25	335.54	14.92	-41.5	-44.2	18.1	0.00e+00	0	41	0	239075328	54	4936
2026-01-25 01:52:34.25	335.35	14.96	-41.3	-44.0	18.3	0.00e+00	0	41	0	240123904	54	4833
2026-01-25 01:52:35.25	335.15	15.00	-41.3	-43.9	18.4	0.00e+00	0	41	0	242221056	54	4793
2026-01-25 01:52:36.24	334.95	15.03	-41.2	-43.7	18.5	0.00e+00	0	41	0	244318208	54	4705
2026-01-25 01:52:37.24	334.75	15.07	-41.2	-43.7	18.5	0.00e+00	0	41	0	246415360	54	4683
2026-01-25 01:52:38.24	334.55	15.10	-41.2	-43.8	18.5	0.00e+00	0	41	0	247463936	54	4731
2026-01-25 01:52:39.23	334.35	15.14	-41.2	-43.8	18.5	0.00e+00	0	41	0	249561088	54	4714
2026-01-25 01:52:40.23	334.15	15.18	-41.1	-43.6	18.7	0.00e+00	0	41	0	251658240	54	4632
2026-01-25 01:52:41.22	333.95	15.21	-41.2	-43.6	18.6	0.00e+00	0	41	0	253755392	54	4641
2026-01-25 01:52:42.21	333.76	15.24	-41.2	-43.7	18.6	0.00e+00	0	41	0	255852544	54	4691
2026-01-25 01:52:43.21	333.55	15.28	-41.0	-43.4	18.8	0.00e+00	0	41	0	256901120	53	4789
2026-01-25 01:52:44.20	333.35	15.31	-40.9	-43.4	18.9	0.00e+00	0	41	0	258998272	53	4782
2026-01-25 01:52:45.20	333.15	15.35	-40.8	-43.3	19.0	0.00e+00	0	41	0	261095424	53	4707
2026-01-25 01:52:46.19	332.95	15.38	-40.8	-43.2	18.9	0.00e+00	0	41	0	263192576	53	4687
2026-01-25 01:52:47.19	332.74	15.41	-40.8	-43.3	18.9	0.00e+00	0	41	0	264241152	53	4738
2026-01-25 01:52:48.18	332.54	15.45	-40.9	-43.3	18.9	0.00e+00	0	41	0	266338304	53	4755
2026-01-25 01:52:49.18	332.34	15.48	-41.0	-43.4	18.8	0.00e+00	0	41	0	268435456	53	4807
2026-01-25 01:52:50.17	332.13	15.51	-40.9	-43.4	18.8	0.00e+00	0	41	0	270532608	53	4765
2026-01-25 01:52:51.16	331.93	15.54	-40.8	-43.2	19.0	0.00e+00	0	41	0	272629760	53	4699
2026-01-25 01:52:52.16	331.72	15.57	-40.8	-43.3	19.1	0.00e+00	0	41	0	273678336	53	4714
2026-01-25 01:52:53.15	331.52	15.60	-40.8	-43.2	19.0	0.00e+00	0	41	0	275775488	53	4702
2026-01-25 01:52:54.14	331.31	15.64	-40.7	-43.2	19.1	0.00e+00	0	41	0	277872640	53	4652
2026-01-25 01:52:55.14	331.11	15.67	-40.8	-43.3	18.9	0.00e+00	0	41	0	279969792	53	4720
2026-01-25 01:52:56.13	330.90	15.70	-40.9	-43.4	18.9	0.00e+00	0	41	0	281018368	53	4767
2026-01-25 01:52:57.13	330.69	15.73	-40.8	-43.2	19.0	0.00e+00	0	41	0	283115520	53	4676
2026-01-25 01:52:58.12	330.49	15.76	-40.9	-43.3	18.9	0.00e+00	0	41	0	285212672	53	4745
2026-01-25 01:52:59.11	330.28	15.78	-40.8	-43.2	19.0	0.00e+00	0	41	0	287309824	53	4685
2026-01-25 01:53:00.11	330.07	15.81	-41.0	-43.4	18.9	0.00e+00	0	41	0	289406976	53	4760
2026-01-25 01:53:01.10	329.86	15.84	-40.9	-43.3	19.0	0.00e+00	0	41	0	290455552	53	4731
2026-01-25 01:53:02.10	329.65	15.87	-40.9	-43.2	19.0	0.00e+00	0	41	0	292552704	53	4693
2026-01-25 01:53:03.09	329.44	15.90	-40.8	-43.2	19.1	0.00e+00	0	41	0	294649856	53	4670
2026-01-25 01:53:04.09	329.23	15.92	-41.0	-43.4	18.9	0.00e+00	0	41	0	296747008	53	4768
2026-01-25 01:53:05.08	329.02	15.95	-41.1	-43.5	18.6	0.00e+00	0	41	0	297795584	53	4816
2026-01-25 01:53:06.08	328.81	15.98	-41.2	-43.6	18.6	0.00e+00	0	41	0	299892736	53	4896
2026-01-25 01:53:07.08	328.60	16.00	-41.3	-43.8	18.5	0.00e+00	0	41	0	301989888	53	5015
2026-01-25 01:53:08.07	328.39	16.03	-41.2	-43.7	18.5	0.00e+00	0	41	0	304087040	53	4962
2026-01-25 01:53:09.07	328.17	16.06	-41.2	-43.8	18.5	0.00e+00	0	41	0	306184192	53	4988
2026-01-25 01:53:10.06	327.96	16.08	-41.0	-43.6	18.6	0.00e+00	0	41	0	307232768	53	4890
2026-01-25 01:53:11.05	327.75	16.11	-40.9	-43.5	18.8	0.00e+00	0	41	0	309329920	53	4837
2026-01-25 01:53:12.05	327.54	16.13	-40.8	-43.4	18.8	0.00e+00	0	41	0	311427072	53	4789
2026-01-25 01:53:13.04	327.32	16.15	-40.9	-43.5	18.7	0.00e+00	0	41	0	313524224	53	4851
2026-01-25 01:53:14.04	327.11	16.18	-41.0	-43.6	18.7	0.00e+00	0	41	0	314572800	53	4876
2026-01-25 01:53:15.03	326.90	16.20	-41.1	-43.6	18.6	0.00e+00	0	41	0	316669952	53	4915
2026-01-25 01:53:16.03	326.68	16.22	-41.1	-43.6	18.6	0.00e+00	0	41	0	318767104	53	4923
2026-01-25 01:53:17.02	326.47	16.25	-41.1	-43.7	18.6	0.00e+00	0	41	0	320864256	53	4954
2026-01-25 01:53:18.02	326.25	16.27	-41.1	-43.7	18.6	0.00e+00	0	41	0	322961408	53	4935
2026-01-25 01:53:19.01	326.04	16.29	-41.1	-43.7	18.6	0.00e+00	0	41	0	324009984	53	4967
2026-01-25 01:53:20.00	325.82	16.31	-41.0	-43.7	18.5	0.00e+00	0	41	0	326107136	53	4956
2026-01-25 01:53:21.00	325.60	16.33	-41.0	-43.8	18.5	0.00e+00	0	41	0	328204288	53	4987
2026-01-25 01:53:21.99	325.39	16.35	-40.9	-43.7	18.5	0.00e+00	0	41	0	330301440	53	4969
2026-01-25 01:53:22.99	325.17	16.37	-41.0	-43.7	18.6	0.00e+00	0	41	0	331350016	53	4966
2026-01-25 01:53:23.98	324.96	16.39	-41.2	-43.8	18.5	0.00e+00	0	41	0	333447168	53	5039
2026-01-25 01:53:24.98	324.74	16.41	-41.3	-44.0	18.3	0.00e+00	0	41	0	335544320	53	5123
2026-01-25 01:53:25.97	324.52	16.43	-41.5	-44.1	18.2	0.00e+00	0	41	0	337641472	53	5204
2026-01-25 01:53:26.97	324.30	16.45	-41.6	-44.2	18.1	0.00e+00	0	41	0	339738624	53	5252
2026-01-25 01:53:27.96	324.08	16.47	-41.8	-44.4	18.0	0.00e+00	0	41	0	340787200	54	5044
2026-01-25 01:53:28.95	323.87	16.49	-41.8	-44.3	18.0	0.00e+00	0	41	0	342884352	54	5005
2026-01-25 01:53:29.95	323.65	16.50	-41.8	-44.3	18.0	0.00e+00	0	42	0	344981504	54	5008
2026-01-25 01:53:30.94	323.43	16.52	-41.8	-44.3	18.1	0.00e+00	0	41	0	347078656	54	5015
2026-01-25 01:53:31.94	323.21	16.54	-41.6	-44.2	18.1	0.00e+00	0	41	0	348127232	54	4943
2026-01-25 01:53:32.93	322.99	16.55	-41.6	-44.2	18.1	0.00e+00	0	41	0	350224384	54	4963
2026-01-25 01:53:33.93	322.77	16.57	-41.4	-44.0	18.3	0.00e+00	0	41	0	352321536	54	4848
2026-01-25 01:53:34.92	322.55	16.58	-41.3	-43.9	18.4	0.00e+00	0	41	0	354418688	54	4784
2026-01-25 01:53:35.92	322.33	16.60	-41.4	-44.0	18.3	0.00e+00	0	41	0	356515840	54	4825
2026-01-25 01:53:36.91	322.11	16.61	-41.2	-43.8	18.5	0.00e+00	0	41	0	357564416	54	4711
2026-01-25 01:53:37.91	321.89	16.63	-41.2	-43.8	18.5	0.00e+00	0	41	0	359661568	54	4716
2026-01-25 01:53:38.90	321.67	16.64	-41.3	-43.9	18.5	0.00e+00	0	41	0	361758720	54	4776
2026-01-25 01:53:39.90	321.45	16.65	-41.3	-43.9	18.3	0.00e+00	0	42	0	363855872	54	4785
2026-01-25 01:53:40.89	321.23	16.66	-41.4	-44.0	18.4	0.00e+00	0	41	0	364904448	54	4838
2026-01-25 01:53:41.89	321.01	16.68	-41.5	-44.1	18.2	0.00e+00	0	41	0	367001600	54	4900
2026-01-25 01:53:42.88	320.79	16.69	-41.5	-44.1	18.2	0.00e+00	0	41	0	369098752	54	4892
2026-01-25 01:53:43.88	320.56	16.70	-41.5	-44.1	18.2	0.00e+00	0	41	0	371195904	54	4898
2026-01-25 01:53:44.87	320.34	16.71	-41.7	-44.3	18.0	0.00e+00	0	41	0	373293056	54	5024
2026-01-25 01:53:45.87	320.12	16.72	-41.7	-44.4	17.9	0.00e+00	0	41	0	374341632	54	5048
2026-01-25 01:53:46.87	319.90	16.73	-41.7	-44.4	17.9	0.00e+00	0	41	0	376438784	54	5097
2026-01-25 01:53:47.86	319.67	16.74	-41.8	-44.5	17.9	0.00e+00	0	41	0	378535936	54	5142
2026-01-25 01:53:48.86	319.45	16.75	-41.8	-44.6	17.8	0.00e+00	0	41	0	380633088	54	5164
2026-01-25 01:53:49.85	319.23	16.76	-41.9	-44.6	17.7	0.00e+00	0	41	0	381681664	54	5174
2026-01-25 01:53:50.85	319.01	16.77	-41.9	-44.6	17.7	0.00e+00	0	41	0	383778816	54	5189
2026-01-25 01:53:51.84	318.78	16.78	-41.9	-44.6	17.7	0.00e+00	0	41	0	385875968	54	5194
2026-01-25 01:53:52.84	318.56	16.78	-41.9	-44.6	17.7	0.00e+00	0	41	0	387973120	54	5181
2026-01-25 01:53:53.83	318.34	16.79	-41.9	-44.6	17.8	0.00e+00	0	41	0	390070272	54	5174
2026-01-25 01:53:54.82	318.12	16.80	-41.9	-44.6	17.7	0.00e+00	0	41	0	391118848	54	5206
2026-01-25 01:53:55.82	317.89	16.80	-41.8	-44.5	17.9	0.00e+00	0	41	0	393216000	54	5129
2026-01-25 01:53:56.81	317.67	16.81	-41.7	-44.5	17.9	0.00e+00	0	41	0	395313152	54	5128
2026-01-25 01:53:57.81	317.44	16.81	-41.7	-44.6	17.8	0.00e+00	0	42	0	397410304	54	5177
2026-01-25 01:53:58.80	317.22	16.82	-41.5	-44.4	18.0	0.00e+00	0	41	0	398458880	54	5050
2026-01-25 01:53:59.80	317.00	16.82	-41.6	-44.4	17.9	0.00e+00	0	41	0	400556032	54	5069
2026-01-25 01:54:00.79	316.77	16.83	-41.7	-44.4	17.9	0.00e+00	0	42	0	402653184	54	5098
2026-01-25 01:54:01.78	316.55	16.83	-41.7	-44.4	18.0	0.00e+00	0	41	0	404750336	54	5053
2026-01-25 01:54:02.78	316.33	16.83	-41.7	-44.3	18.0	0.00e+00	0	42	0	406847488	54	5037
2026-01-25 01:54:03.78	316.10	16.84	-41.8	-44.5	17.9	0.00e+00	0	41	0	407896064	54	5103
2026-01-25 01:54:04.77	315.88	16.84	-41.8	-44.4	18.0	0.00e+00	0	42	0	409993216	54	5045
2026-01-25 01:54:05.77	315.65	16.84	-41.7	-44.3	18.0	0.00e+00	0	41	0	412090368	54	4999
2026-01-25 01:54:06.76	315.43	16.84	-41.7	-44.3	18.0	0.00e+00	0	41	0	414187520	54	4987
2026-01-25 01:54:07.75	315.21	16.84	-41.6	-44.2	18.1	0.00e+00	0	41	0	416284672	54	4968
2026-01-25 01:54:08.75	314.98	16.84	-41.6	-44.3	18.1	0.00e+00	0	42	0	417333248	54	4991
2026-01-25 01:54:09.75	314.76	16.84	-41.7	-44.4	18.0	0.00e+00	0	42	0	419430400	54	5043
2026-01-25 01:54:10.74	314.54	16.84	-41.7	-44.3	18.0	0.00e+00	0	41	0	421527552	54	5013
2026-01-25 01:54:11.73	314.31	16.84	-41.8	-44.4	17.9	0.00e+00	0	41	0	423624704	54	5070
2026-01-25 01:54:12.73	314.09	16.84	-41.8	-44.4	17.9	0.00e+00	0	41	0	424673280	54	5084
2026-01-25 01:54:13.72	313.87	16.84	-41.9	-44.6	17.7	0.00e+00	0	41	0	426770432	54	5164
2026-01-25 01:54:14.72	313.64	16.84	-42.0	-44.7	17.6	0.00e+00	0	41	0	428867584	54	5246
2026-01-25 01:54:15.71	313.42	16.83	-42.1	-44.8	17.3	0.00e+00	0	41	0	430964736	54	5336
2026-01-25 01:54:16.71	313.19	16.83	-42.2	-44.9	17.4	0.00e+00	0	42	0	433061888	55	5086
2026-01-25 01:54:17.70	312.97	16.83	-42.2	-44.9	17.4	0.00e+00	0	42	0	434110464	55	5096
2026-01-25 01:54:18.70	312.75	16.82	-42.1	-44.8	17.5	0.00e+00	0	42	0	436207616	55	5006
2026-01-25 01:54:19.69	312.52	16.82	-42.0	-44.6	17.7	0.00e+00	0	41	0	438304768	55	4892
2026-01-25 01:54:20.68	312.30	16.81	-42.0	-44.6	17.7	0.00e+00	0	41	0	440401920	55	4911
2026-01-25 01:54:21.68	312.08	16.81	-42.0	-44.6	17.7	0.00e+00	0	42	0	441450496	55	4908
2026-01-25 01:54:22.67	311.85	16.80	-41.9	-44.4	17.9	0.00e+00	0	41	0	443547648	55	4813
2026-01-25 01:54:23.67	311.63	16.79	-41.7	-44.2	18.1	0.00e+00	0	42	0	445644800	55	4699
2026-01-25 01:54:24.67	311.40	16.79	-41.8	-44.4	18.0	0.00e+00	0	41	0	447741952	55	4766
2026-01-25 01:54:25.66	311.18	16.78	-41.8	-44.3	18.0	0.00e+00	0	41	0	449839104	55	4741
2026-01-25 01:54:26.66	310.96	16.77	-41.8	-44.3	18.0	0.00e+00	0	42	0	450887680	55	4747
2026-01-25 01:54:27.65	310.74	16.76	-41.7	-44.3	18.0	0.00e+00	0	42	0	452984832	55	4746
2026-01-25 01:54:28.65	310.51	16.76	-41.7	-44.3	18.0	0.00e+00	0	42	0	455081984	55	4758
2026-01-25 01:54:29.64	310.29	16.75	-41.8	-44.5	17.8	0.00e+00	0	42	0	457179136	55	4834
2026-01-25 01:54:30.64	310.07	16.74	-41.8	-44.4	17.9	0.00e+00	0	42	0	458227712	55	4814
2026-01-25 01:54:31.63	309.85	16.73	-41.8	-44.3	17.9	0.00e+00	0	42	0	460324864	55	4759
2026-01-25 01:54:32.62	309.62	16.72	-41.8	-44.3	18.0	0.00e+00	0	42	0	462422016	55	4746
2026-01-25 01:54:33.62	309.40	16.71	-41.9	-44.4	17.9	0.00e+00	0	42	0	464519168	55	4810
2026-01-25 01:54:34.61	309.18	16.70	-41.8	-44.4	17.9	0.00e+00	0	41	0	466616320	55	4789
2026-01-25 01:54:35.61	308.96	16.68	-41.9	-44.4	17.9	0.00e+00	0	42	0	467664896	55	4809
2026-01-25 01:54:36.60	308.74	16.67	-41.9	-44.4	17.9	0.00e+00	0	41	0	469762048	55	4798
2026-01-25 01:54:37.60	308.51	16.66	-41.9	-44.5	17.9	0.00e+00	0	41	0	471859200	55	4824
2026-01-25 01:54:38.59	308.29	16.65	-41.9	-44.4	17.9	0.00e+00	0	41	0	473956352	55	4809
2026-01-25 01:54:39.59	308.07	16.63	-41.7	-44.2	18.1	0.00e+00	0	41	0	475004928	55	4676
2026-01-25 01:54:40.58	307.85	16.62	-41.6	-44.1	18.2	0.00e+00	0	42	0	477102080	55	4611
2026-01-25 01:54:41.58	307.63	16.61	-41.6	-44.1	18.2	0.00e+00	0	42	0	479199232	55	4605
2026-01-25 01:54:42.57	307.41	16.59	-41.7	-44.2	18.1	0.00e+00	0	41	0	481296384	55	4661
2026-01-25 01:54:43.57	307.19	16.58	-41.6	-44.1	18.2	0.00e+00	0	41	0	483393536	55	4621
2026-01-25 01:54:44.56	306.97	16.56	-41.7	-44.2	18.1	0.00e+00	0	41	0	484442112	55	4681
2026-01-25 01:54:45.56	306.75	16.55	-41.7	-44.2	18.2	0.00e+00	0	42	0	486539264	55	4665
2026-01-25 01:54:46.56	306.53	16.53	-41.7	-44.2	18.1	0.00e+00	0	42	0	488636416	55	4656
2026-01-25 01:54:47.55	306.31	16.51	-41.7	-44.2	18.2	0.00e+00	0	41	0	490733568	55	4666
2026-01-25 01:54:48.54	306.09	16.50	-41.6	-44.1	18.2	0.00e+00	0	42	0	491782144	55	4609
2026-01-25 01:54:49.54	305.87	16.48	-41.5	-44.0	18.4	0.00e+00	0	42	0	493879296	55	4557
2026-01-25 01:54:50.54	305.65	16.46	-41.4	-43.9	18.4	0.00e+00	0	42	0	495976448	54	4783
2026-01-25 01:54:51.53	305.44	16.44	-41.4	-43.9	18.4	0.00e+00	0	42	0	498073600	54	4772
2026-01-25 01:54:52.53	305.22	16.42	-41.5	-43.9	18.4	0.00e+00	0	42	0	500170752	54	4809
2026-01-25 01:54:53.52	305.00	16.40	-41.4	-43.9	18.4	0.00e+00	0	41	0	501219328	54	4792
2026-01-25 01:54:54.52	304.78	16.38	-41.5	-44.0	18.3	0.00e+00	0	41	0	503316480	54	4835
2026-01-25 01:54:55.51	304.57	16.36	-41.4	-43.9	18.5	0.00e+00	0	42	0	505413632	54	4762
2026-01-25 01:54:56.50	304.35	16.34	-41.4	-43.8	18.5	0.00e+00	0	42	0	507510784	54	4739
2026-01-25 01:54:57.50	304.13	16.32	-41.3	-43.8	18.5	0.00e+00	0	42	0	508559360	54	4727
2026-01-25 01:54:58.49	303.92	16.30	-41.4	-43.8	18.5	0.00e+00	0	42	0	510656512	54	4731
2026-01-25 01:54:59.49	303.70	16.28	-41.4	-43.8	18.5	0.00e+00	0	42	0	512753664	54	4747
2026-01-25 01:55:00.48	303.49	16.26	-41.4	-43.9	18.5	0.00e+00	0	42	0	514850816	54	4773
2026-01-25 01:55:01.48	303.27	16.24	-41.3	-43.7	18.6	0.00e+00	0	42	0	516947968	54	4654
2026-01-25 01:55:02.47	303.06	16.21	-41.3	-43.7	18.6	0.00e+00	0	42	0	517996544	54	4669
2026-01-25 01:55:03.47	302.84	16.19	-41.3	-43.7	18.6	0.00e+00	0	41	0	520093696	54	4676
2026-01-25 01:55:04.46	302.63	16.17	-41.4	-43.8	18.5	0.00e+00	0	42	0	522190848	54	4713
2026-01-25 01:55:05.46	302.41	16.14	-41.4	-43.8	18.5	0.00e+00	0	41	0	524288000	54	4719
2026-01-25 01:55:06.45	302.20	16.12	-41.4	-43.8	18.5	0.00e+00	0	42	0	525336576	54	4754
2026-01-25 01:55:07.45	301.98	16.09	-41.5	-43.9	18.4	0.00e+00	0	42	0	527433728	54	4782
2026-01-25 01:55:08.44	301.77	16.07	-41.5	-43.9	18.4	0.00e+00	0	41	0	529530880	54	4777
2026-01-25 01:55:09.44	301.56	16.04	-41.5	-44.0	18.4	0.00e+00	0	41	0	531628032	54	4842
2026-01-25 01:55:10.43	301.35	16.02	-41.5	-43.9	18.4	0.00e+00	0	41	0	533725184	54	4786
2026-01-25 01:55:11.42	301.14	15.99	-41.6	-44.1	18.3	0.00e+00	0	42	0	534773760	54	4876
2026-01-25 01:55:12.42	300.92	15.97	-41.6	-44.1	18.3	0.00e+00	0	42	0	536870912	54	4877
2026-01-25 01:55:13.42	300.71	15.94	-41.6	-44.1	18.2	0.00e+00	0	41	0	538968064	54	4911
2026-01-25 01:55:14.41	300.50	15.91	-41.8	-44.3	18.1	0.00e+00	0	42	0	541065216	54	4996
2026-01-25 01:55:15.40	300.29	15.89	-41.8	-44.4	18.0	0.00e+00	0	41	0	542113792	54	5057
2026-01-25 01:55:16.40	300.08	15.86	-41.9	-44.4	17.9	0.00e+00	0	42	0	544210944	54	5080
2026-01-25 01:55:17.39	299.87	15.83	-41.9	-44.4	17.9	0.00e+00	0	42	0	546308096	54	5074
2026-01-25 01:55:18.39	299.66	15.80	-41.9	-44.5	17.9	0.00e+00	0	41	0	548405248	54	5107
2026-01-25 01:55:19.38	299.45	15.77	-41.8	-44.3	18.0	0.00e+00	0	42	0	550502400	54	5017
2026-01-25 01:55:20.38	299.24	15.74	-41.8	-44.4	18.0	0.00e+00	0	41	0	551550976	54	5046
2026-01-25 01:55:21.37	299.04	15.71	-41.8	-44.3	18.0	0.00e+00	0	41	0	553648128	54	5006
2026-01-25 01:55:22.37	298.83	15.68	-41.8	-44.3	18.1	0.00e+00	0	41	0	555745280	54	5022
2026-01-25 01:55:23.36	298.62	15.65	-41.9	-44.4	17.9	0.00e+00	0	41	0	557842432	54	5083
2026-01-25 01:55:24.36	298.42	15.62	-41.9	-44.5	17.8	0.00e+00	0	42	0	558891008	54	5134
2026-01-25 01:55:25.36	298.21	15.59	-42.0	-44.5	17.8	0.00e+00	0	42	0	560988160	54	5139
2026-01-25 01:55:26.35	298.00	15.56	-42.0	-44.5	17.7	0.00e+00	0	41	0	563085312	54	5152
2026-01-25 01:55:27.35	297.80	15.53	-42.0	-44.5	17.8	0.00e+00	0	42	0	565182464	54	5158
2026-01-25 01:55:28.34	297.59	15.50	-42.0	-44.6	17.7	0.00e+00	0	42	0	567279616	54	5197
2026-01-25 01:55:29.34	297.39	15.46	-42.1	-44.7	17.6	0.00e+00	0	42	0	568328192	54	5240
2026-01-25 01:55:30.33	297.18	15.43	-42.1	-44.7	17.6	0.00e+00	0	41	0	570425344	54	5250
2026-01-25 01:55:31.33	296.98	15.40	-42.2	-44.8	17.6	0.00e+00	0	41	0	572522496	54	5291
2026-01-25 01:55:32.32	296.78	15.36	-42.2	-44.8	17.5	0.00e+00	0	42	0	574619648	55	5007
2026-01-25 01:55:33.32	296.57	15.33	-42.2	-44.9	17.4	0.00e+00	0	41	0	575668224	55	5074
2026-01-25 01:55:34.31	296.37	15.30	-42.2	-44.9	17.5	0.00e+00	0	41	0	577765376	55	5049
2026-01-25 01:55:35.30	296.17	15.26	-42.2	-44.9	17.4	0.00e+00	0	42	0	579862528	55	5086
2026-01-25 01:55:36.30	295.97	15.23	-42.2	-44.9	17.4	0.00e+00	0	41	0	581959680	55	5068
2026-01-25 01:55:37.29	295.77	15.19	-42.1	-44.7	17.6	0.00e+00	0	41	0	584056832	55	4940
2026-01-25 01:55:38.29	295.57	15.16	-41.9	-44.5	17.8	0.00e+00	0	42	0	585105408	55	4835
2026-01-25 01:55:39.28	295.37	15.12	-41.9	-44.5	17.9	0.00e+00	0	42	0	587202560	55	4819
2026-01-25 01:55:40.28	295.17	15.09	-41.9	-44.4	17.9	0.00e+00	0	42	0	589299712	55	4811
2026-01-25 01:55:41.27	294.97	15.05	-41.9	-44.4	17.9	0.00e+00	0	41	0	591396864	55	4766
2026-01-25 01:55:42.27	294.77	15.01	-41.8	-44.3	18.0	0.00e+00	0	41	0	592445440	55	4707
2026-01-25 01:55:43.26	294.57	14.98	-41.6	-44.0	18.3	0.00e+00	0	42	0	594542592	55	4596
2026-01-25 01:55:44.25	294.38	14.94	-41.6	-44.1	18.2	0.00e+00	0	41	0	596639744	55	4616
2026-01-25 01:55:45.25	294.18	14.90	-41.7	-44.2	18.2	0.00e+00	0	42	0	598736896	55	4656
2026-01-25 01:55:46.24	293.98	14.87	-41.8	-44.3	18.0	0.00e+00	0	41	0	600834048	55	4736
2026-01-25 01:55:47.24	293.79	14.83	-41.9	-44.4	17.9	0.00e+00	0	41	0	601882624	55	4789
2026-01-25 01:55:48.24	293.59	14.79	-41.9	-44.4	17.9	0.00e+00	0	42	0	603979776	55	4814
2026-01-25 01:55:49.23	293.39	14.75	-42.0	-44.5	17.8	0.00e+00	0	42	0	606076928	55	4854
2026-01-25 01:55:50.22	293.20	14.71	-41.9	-44.4	17.9	0.00e+00	0	42	0	608174080	55	4795
2026-01-25 01:55:51.22	293.01	14.67	-41.8	-44.4	18.0	0.00e+00	0	41	0	609222656	55	4762
2026-01-25 01:55:52.21	292.81	14.64	-41.7	-44.2	18.1	0.00e+00	0	42	0	611319808	55	4691
2026-01-25 01:55:53.21	292.62	14.60	-41.7	-44.1	18.2	0.00e+00	0	42	0	613416960	55	4648
2026-01-25 01:55:54.20	292.43	14.56	-41.6	-44.1	18.2	0.00e+00	0	41	0	615514112	55	4628
2026-01-25 01:55:55.20	292.23	14.52	-41.6	-44.1	18.3	0.00e+00	0	41	0	617611264	55	4606
2026-01-25 01:55:56.19	292.04	14.48	-41.6	-44.0	18.3	0.00e+00	0	42	0	618659840	55	4587
2026-01-25 01:55:57.19	291.85	14.44	-41.6	-44.1	18.3	0.00e+00	0	42	0	620756992	55	4607
2026-01-25 01:55:58.18	291.66	14.40	-41.7	-44.1	18.2	0.00e+00	0	41	0	622854144	55	4636
2026-01-25 01:55:59.18	291.47	14.35	-41.7	-44.2	18.1	0.00e+00	0	41	0	624951296	55	4664
2026-01-25 01:56:00.17	291.28	14.31	-41.7	-44.2	18.2	0.00e+00	0	42	0	625999872	55	4652
2026-01-25 01:56:01.17	291.09	14.27	-41.8	-44.3	18.0	0.00e+00	0	42	0	628097024	55	4737
2026-01-25 01:56:02.16	290.91	14.23	-41.8	-44.3	18.0	0.00e+00	0	41	0	630194176	55	4734
2026-01-25 01:56:03.16	290.72	14.19	-41.8	-44.4	18.0	0.00e+00	0	41	0	632291328	55	4760
2026-01-25 01:56:04.16	290.53	14.15	-41.8	-44.3	18.0	0.00e+00	0	42	0	634388480	55	4751
2026-01-25 01:56:05.15	290.34	14.10	-41.7	-44.2	18.1	0.00e+00	0	42	0	635437056	55	4698
2026-01-25 01:56:06.15	290.16	14.06	-41.8	-44.3	18.0	0.00e+00	0	42	0	637534208	55	4716
2026-01-25 01:56:07.14	289.97	14.02	-41.8	-44.3	18.0	0.00e+00	0	41	0	639631360	55	4722
2026-01-25 01:56:08.13	289.79	13.98	-41.7	-44.2	18.1	0.00e+00	0	41	0	641728512	55	4698
2026-01-25 01:56:09.13	289.60	13.93	-41.7	-44.2	18.1	0.00e+00	0	41	0	642777088	55	4677
2026-01-25 01:56:10.12	289.42	13.89	-41.7	-44.2	18.1	0.00e+00	0	42	0	644874240	55	4676
2026-01-25 01:56:11.12	289.23	13.85	-41.7	-44.2	18.1	0.00e+00	0	42	0	646971392	55	4673
2026-01-25 01:56:12.11	289.05	13.80	-41.7	-44.2	18.1	0.00e+00	0	42	0	649068544	55	4682
2026-01-25 01:56:13.11	288.87	13.76	-41.7	-44.2	18.1	0.00e+00	0	42	0	651165696	55	4665
2026-01-25 01:56:14.11	288.69	13.71	-41.7	-44.2	18.1	0.00e+00	0	42	0	652214272	55	4697
2026-01-25 01:56:15.10	288.51	13.67	-41.7	-44.2	18.1	0.00e+00	0	42	0	654311424	55	4694
2026-01-25 01:56:16.10	288.32	13.62	-41.9	-44.4	17.9	0.00e+00	0	42	0	656408576	55	4797
2026-01-25 01:56:17.09	288.14	13.58	-42.0	-44.5	17.8	0.00e+00	0	42	0	658505728	55	4863
2026-01-25 01:56:18.09	287.96	13.53	-42.1	-44.6	17.7	0.00e+00	0	42	0	659554304	55	4912
2026-01-25 01:56:19.08	287.79	13.49	-42.2	-44.7	17.6	0.00e+00	0	42	0	661651456	55	4980
2026-01-25 01:56:20.08	287.61	13.44	-42.2	-44.9	17.5	0.00e+00	0	42	0	663748608	55	5048
2026-01-25 01:56:21.07	287.43	13.40	-42.3	-44.9	17.4	0.00e+00	0	42	0	665845760	55	5092
2026-01-25 01:56:22.07	287.25	13.35	-42.3	-44.9	17.4	0.00e+00	0	42	0	667942912	55	5086
2026-01-25 01:56:23.06	287.08	13.31	-42.2	-44.9	17.4	0.00e+00	0	42	0	668991488	55	5049
2026-01-25 01:56:24.06	286.90	13.26	-42.2	-44.9	17.4	0.00e+00	0	42	0	671088640	55	5057
2026-01-25 01:56:25.05	286.72	13.21	-42.3	-45.0	17.4	0.00e+00	0	42	0	673185792	55	5110
2026-01-25 01:56:26.05	286.55	13.17	-42.3	-45.0	17.3	0.00e+00	0	42	0	675282944	55	5132
2026-01-25 01:56:27.04	286.37	13.12	-42.4	-45.1	17.1	0.00e+00	0	42	0	677380096	55	5213
2026-01-25 01:56:28.04	286.20	13.07	-42.5	-45.3	17.1	0.00e+00	0	42	0	678428672	55	5284
2026-01-25 01:56:29.03	286.03	13.03	-42.6	-45.4	17.0	0.00e+00	0	41	0	680525824	55	5347
2026-01-25 01:56:30.02	285.85	12.98	-42.8	-45.7	16.8	0.00e+00	0	42	0	682622976	56	5232
2026-01-25 01:56:31.02	285.68	12.93	-42.9	-45.8	16.7	0.00e+00	0	42	0	684720128	56	5309
2026-01-25 01:56:32.01	285.51	12.89	-42.9	-45.8	16.7	0.00e+00	0	42	0	685768704	56	5283
2026-01-25 01:56:33.01	285.34	12.84	-43.0	-45.9	16.6	0.00e+00	0	42	0	687865856	56	5361
2026-01-25 01:56:34.00	285.17	12.79	-43.1	-46.0	16.5	0.00e+00	0	42	0	689963008	56	5436
2026-01-25 01:56:35.00	285.00	12.74	-43.0	-45.9	16.6	0.00e+00	0	42	0	692060160	56	5370
2026-01-25 01:56:35.99	284.83	12.69	-43.0	-45.8	16.7	0.00e+00	0	42	0	694157312	56	5337
2026-01-25 01:56:36.99	284.66	12.64	-43.0	-45.9	16.6	0.00e+00	0	42	0	695205888	56	5381
2026-01-25 01:56:37.98	284.49	12.60	-43.0	-45.9	16.5	0.00e+00	0	42	0	697303040	56	5392
2026-01-25 01:56:38.98	284.32	12.55	-43.1	-46.1	16.4	0.00e+00	0	42	0	699400192	56	5489
2026-01-25 01:56:39.98	284.15	12.50	-43.2	-46.2	16.3	0.00e+00	0	42	0	701497344	57	5262
2026-01-25 01:56:40.97	283.99	12.45	-43.4	-46.4	16.1	0.00e+00	0	42	0	702545920	57	5368
2026-01-25 01:56:41.96	283.82	12.40	-43.5	-46.6	15.9	0.00e+00	0	42	0	704643072	57	5475
2026-01-25 01:56:42.96	283.65	12.35	-43.6	-46.7	15.7	0.00e+00	0	42	0	706740224	57	5592
2026-01-25 01:56:43.95	283.49	12.30	-43.7	-46.9	15.6	0.00e+00	0	42	0	708837376	58	5347
2026-01-25 01:56:44.95	283.32	12.25	-43.8	-46.9	15.5	0.00e+00	0	42	0	710934528	58	5390
2026-01-25 01:56:45.94	283.16	12.20	-43.7	-46.8	15.7	0.00e+00	0	42	0	711983104	58	5290
2026-01-25 01:56:46.94	283.00	12.15	-43.7	-46.8	15.7	0.00e+00	0	42	0	714080256	58	5309
2026-01-25 01:56:47.93	282.83	12.10	-43.7	-46.8	15.6	0.00e+00	0	42	0	716177408	58	5333
2026-01-25 01:56:48.93	282.67	12.05	-43.5	-46.6	15.8	0.00e+00	0	42	0	718274560	58	5208
2026-01-25 01:56:49.92	282.51	12.00	-43.5	-46.5	15.9	0.00e+00	0	42	0	719323136	58	5151
2026-01-25 01:56:50.91	282.35	11.95	-43.5	-46.6	15.9	0.00e+00	0	41	0	721420288	58	5196
2026-01-25 01:56:51.91	282.19	11.90	-43.6	-46.7	15.8	0.00e+00	0	42	0	723517440	58	5248
2026-01-25 01:56:52.91	282.03	11.85	-43.8	-47.0	15.5	0.00e+00	0	41	0	725614592	58	5434
2026-01-25 01:56:53.90	281.87	11.80	-43.8	-47.0	15.5	0.00e+00	0	42	0	727711744	58	5434
2026-01-25 01:56:54.90	281.71	11.75	-43.9	-47.2	15.3	0.00e+00	0	42	0	728760320	58	5532
2026-01-25 01:56:55.90	281.55	11.70	-44.0	-47.3	15.1	0.00e+00	0	41	0	730857472	58	5651
2026-01-25 01:56:56.89	281.39	11.65	-44.1	-47.4	15.1	0.00e+00	0	42	0	732954624	58	5704
2026-01-25 01:56:57.88	281.24	11.60	-44.1	-47.4	15.0	0.00e+00	0	42	0	735051776	58	5715
2026-01-25 01:56:58.88	281.08	11.55	-44.1	-47.5	15.0	0.00e+00	0	42	0	736100352	58	5731
2026-01-25 01:56:59.87	280.92	11.50	-44.1	-47.4	15.0	0.00e+00	0	42	0	738197504	58	5718
2026-01-25 01:57:00.87	280.77	11.45	-44.1	-47.4	15.0	7.00e-07	0	41	0	740294656	58	5707
2026-01-25 01:57:01.86	280.61	11.39	-44.0	-47.4	15.1	0.00e+00	0	42	0	742391808	58	5678
2026-01-25 01:57:02.85	280.46	11.34	-44.1	-47.5	14.9	0.00e+00	0	42	0	744488960	58	5766
2026-01-25 01:57:03.85	280.30	11.29	-43.9	-47.2	15.2	0.00e+00	0	42	0	745537536	58	5577
2026-01-25 01:57:04.84	280.15	11.24	-43.8	-47.1	15.3	0.00e+00	0	42	0	747634688	58	5523
2026-01-25 01:57:05.84	280.00	11.19	-43.8	-47.2	15.3	0.00e+00	0	42	0	749731840	58	5542
2026-01-25 01:57:06.83	279.84	11.14	-43.8	-47.1	15.3	0.00e+00	0	41	0	751828992	58	5485
2026-01-25 01:57:07.83	279.69	11.08	-43.8	-47.1	15.3	0.00e+00	0	42	0	752877568	58	5523
2026-01-25 01:57:08.83	279.54	11.03	-43.9	-47.2	15.3	0.00e+00	0	42	0	754974720	58	5535
2026-01-25 01:57:09.82	279.39	10.98	-43.9	-47.2	15.2	0.00e+00	0	42	0	757071872	58	5586
2026-01-25 01:57:10.82	279.24	10.93	-43.9	-47.2	15.2	0.00e+00	0	42	0	759169024	58	5578
2026-01-25 01:57:11.81	279.09	10.88	-44.0	-47.3	15.1	0.00e+00	0	42	0	761266176	58	5655
2026-01-25 01:57:12.81	278.94	10.82	-44.1	-47.4	15.0	0.00e+00	0	42	0	762314752	58	5720
2026-01-25 01:57:13.80	278.79	10.77	-44.1	-47.4	15.0	0.00e+00	0	42	0	764411904	58	5715
2026-01-25 01:57:14.80	278.64	10.72	-44.1	-47.5	14.9	0.00e+00	0	42	0	766509056	58	5742
2026-01-25 01:57:15.79	278.50	10.67	-44.0	-47.4	15.1	0.00e+00	0	42	0	768606208	58	5659
2026-01-25 01:57:16.79	278.35	10.61	-44.0	-47.3	15.2	0.00e+00	0	42	0	769654784	58	5603
2026-01-25 01:57:17.78	278.20	10.56	-43.9	-47.2	15.2	0.00e+00	0	42	0	771751936	58	5535
2026-01-25 01:57:18.78	278.06	10.51	-43.9	-47.2	15.2	0.00e+00	0	41	0	773849088	58	5579
2026-01-25 01:57:19.77	277.91	10.45	-43.9	-47.2	15.2	0.00e+00	0	42	0	775946240	58	5578
2026-01-25 01:57:20.77	277.76	10.40	-43.9	-47.2	15.3	0.00e+00	0	42	0	778043392	58	5533
2026-01-25 01:57:21.76	277.62	10.35	-43.8	-47.1	15.3	0.00e+00	0	42	0	779091968	58	5506
2026-01-25 01:57:22.76	277.48	10.30	-43.9	-47.2	15.3	0.00e+00	0	42	0	781189120	58	5532
2026-01-25 01:57:23.75	277.33	10.24	-43.7	-47.0	15.4	0.00e+00	0	42	0	783286272	58	5449
2026-01-25 01:57:24.75	277.19	10.19	-43.7	-47.0	15.4	0.00e+00	0	42	0	785383424	58	5451
2026-01-25 01:57:25.74	277.05	10.14	-43.7	-47.0	15.4	0.00e+00	0	42	0	786432000	58	5428
2026-01-25 01:57:26.73	276.91	10.08	-43.7	-46.9	15.5	0.00e+00	0	42	0	788529152	58	5375
2026-01-25 01:57:27.73	276.77	10.03	-43.6	-46.9	15.6	0.00e+00	0	42	0	790626304	58	5341
2026-01-25 01:57:28.72	276.63	9.98	-43.6	-46.8	15.6	0.00e+00	0	42	0	792723456	58	5300
2026-01-25 01:57:29.72	276.48	9.92	-43.6	-46.8	15.6	0.00e+00	0	42	0	794820608	58	5291
2026-01-25 01:57:30.71	276.35	9.87	-43.5	-46.7	15.7	0.00e+00	0	41	0	795869184	58	5223
2026-01-25 01:57:31.71	276.21	9.82	-43.5	-46.6	15.8	0.00e+00	0	42	0	797966336	58	5160
2026-01-25 01:57:32.70	276.07	9.76	-43.4	-46.5	15.8	0.00e+00	0	42	0	800063488	58	5143
2026-01-25 01:57:33.70	275.93	9.71	-43.4	-46.5	15.9	0.00e+00	0	42	0	802160640	58	5138
2026-01-25 01:57:34.69	275.79	9.66	-43.3	-46.4	15.9	0.00e+00	0	42	0	803209216	58	5086
2026-01-25 01:57:35.68	275.66	9.60	-43.3	-46.4	15.9	0.00e+00	0	42	0	805306368	58	5087
2026-01-25 01:57:36.68	275.52	9.55	-43.3	-46.5	15.9	0.00e+00	0	42	0	807403520	58	5131
2026-01-25 01:57:37.67	275.38	9.49	-43.3	-46.4	15.9	0.00e+00	0	42	0	809500672	58	5071
2026-01-25 01:57:38.67	275.25	9.44	-43.2	-46.4	16.0	0.00e+00	0	42	0	811597824	58	5056
2026-01-25 01:57:39.66	275.11	9.39	-43.4	-46.6	15.8	0.00e+00	0	42	0	812646400	58	5175
2026-01-25 01:57:40.66	274.98	9.33	-43.3	-46.5	15.8	0.00e+00	0	42	0	814743552	58	5121
2026-01-25 01:57:41.65	274.84	9.28	-43.2	-46.4	16.0	0.00e+00	0	42	0	816840704	58	5051
2026-01-25 01:57:42.64	274.71	9.23	-43.2	-46.3	16.0	0.00e+00	0	42	0	818937856	58	5040
2026-01-25 01:57:43.64	274.58	9.17	-43.2	-46.3	16.0	0.00e+00	0	42	0	819986432	58	5031
2026-01-25 01:57:44.63	274.44	9.12	-43.1	-46.1	16.2	0.00e+00	0	41	0	822083584	58	4897
2026-01-25 01:57:45.63	274.31	9.06	-43.0	-46.0	16.3	0.00e+00	0	42	0	824180736	58	4844
2026-01-25 01:57:46.62	274.18	9.01	-43.7	-47.0	15.5	0.00e+00	0	42	0	826277888	57	5787
2026-01-25 01:57:47.62	274.05	8.96	-48.3	-63.6	3.8	1.09e+00	0	42	104	826277888	67	21772
2026-01-25 01:57:48.61	273.92	8.90	-48.5	-63.8	3.8	1.49e+00	0	42	104	826277888	67	22321
2026-01-25 01:57:49.60	273.79	8.85	-48.6	-63.9	3.8	1.49e+00	0	42	104	826277888	67	22571
2026-01-25 01:57:50.60	273.66	8.79	-48.9	-64.1	3.8	1.49e+00	0	42	104	826277888	68	21930
2026-01-25 01:57:51.59	273.53	8.74	-48.9	-64.2	3.8	1.49e+00	0	42	104	826277888	68	22107
2026-01-25 01:57:52.58	273.40	8.69	-49.0	-64.2	3.8	1.49e+00	0	42	104	826277888	68	22244
2026-01-25 01:57:53.57	273.28	8.63	-49.0	-64.3	3.8	1.49e+00	0	42	104	826277888	68	22325
2026-01-25 01:57:54.57	273.15	8.58	-49.1	-64.3	3.8	1.49e+00	0	42	104	826277888	68	22314
2026-01-25 01:57:55.56	273.02	8.52	-49.1	-64.3	3.8	1.49e+00	0	42	104	826277888	68	22362
2026-01-25 01:57:56.55	272.89	8.47	-49.1	-64.3	3.8	1.49e+00	0	42	104	826277888	68	22358
2026-01-25 01:57:57.54	272.77	8.42	-49.1	-64.3	3.8	1.49e+00	0	42	104	826277888	68	22483
2026-01-25 01:57:58.54	272.64	8.36	-49.1	-64.3	3.8	1.49e+00	0	42	104	826277888	68	22494
2026-01-25 01:57:59.53	272.52	8.31	-49.0	-64.3	3.8	1.49e+00	0	42	104	826277888	68	22473
2026-01-25 01:58:00.52	272.39	8.25	-48.9	-64.3	3.8	1.49e+00	0	42	104	826277888	68	22485
2026-01-25 01:58:01.52	272.27	8.20	-48.9	-64.4	3.8	1.49e+00	0	42	104	826277888	68	22527
2026-01-25 01:58:02.51	272.15	8.14	-48.9	-64.4	3.8	1.49e+00	0	42	104	826277888	68	22558
2026-01-25 01:58:03.50	272.02	8.09	-49.0	-64.4	3.8	1.49e+00	0	42	104	826277888	68	22546
2026-01-25 01:58:04.49	271.90	8.04	-49.0	-64.3	3.8	1.49e+00	0	41	104	826277888	68	22455
2026-01-25 01:58:05.49	271.78	7.98	-49.0	-64.3	3.8	1.49e+00	0	42	104	826277888	68	22482
2026-01-25 01:58:06.48	271.66	7.93	-48.9	-64.3	3.8	1.49e+00	0	42	104	826277888	68	22372
2026-01-25 01:58:07.48	271.53	7.87	-48.8	-64.3	3.8	1.49e+00	0	42	104	826277888	68	22384
2026-01-25 01:58:08.47	271.41	7.82	-48.8	-64.3	3.8	1.49e+00	0	42	104	826277888	68	22374
2026-01-25 01:58:09.46	271.29	7.76	-48.8	-64.2	3.8	1.49e+00	0	42	104	826277888	68	22221
2026-01-25 01:58:10.45	271.17	7.71	-48.8	-64.2	3.8	1.49e+00	0	42	104	826277888	68	22233
2026-01-25 01:58:11.45	271.05	7.66	-48.8	-64.3	3.8	1.49e+00	0	42	104	826277888	68	22277
2026-01-25 01:58:12.44	270.93	7.60	-48.8	-64.2	3.8	1.49e+00	0	42	104	826277888	68	22244
2026-01-25 01:58:13.43	270.82	7.55	-48.8	-64.2	3.8	1.49e+00	0	42	104	826277888	68	22176
2026-01-25 01:58:14.42	270.70	7.49	-48.8	-64.2	3.8	1.49e+00	0	42	104	826277888	68	22233
2026-01-25 01:58:15.42	270.58	7.44	-48.8	-64.2	3.8	1.49e+00	0	42	104	826277888	68	22147
2026-01-25 01:58:16.41	270.46	7.38	-48.8	-64.2	3.8	1.49e+00	0	42	104	826277888	68	22139
2026-01-25 01:58:17.40	270.35	7.33	-48.8	-64.2	3.8	1.49e+00	0	42	104	826277888	68	22150
2026-01-25 01:58:18.40	270.23	7.28	-48.8	-64.2	3.8	1.49e+00	0	42	104	826277888	68	22172
2026-01-25 01:58:19.39	270.11	7.22	-48.8	-64.2	3.8	1.49e+00	0	42	104	826277888	68	22204
2026-01-25 01:58:20.38	270.00	7.17	-48.8	-64.2	3.8	1.49e+00	0	42	104	826277888	68	22162
2026-01-25 01:58:21.37	269.88	7.11	-48.8	-64.2	3.8	1.49e+00	0	42	104	826277888	68	22126
2026-01-25 01:58:22.37	269.77	7.06	-48.8	-64.2	3.8	1.49e+00	0	42	104	826277888	68	22169
2026-01-25 01:58:23.36	269.65	7.00	-48.8	-64.2	3.8	1.49e+00	0	42	104	826277888	68	22149
2026-01-25 01:58:24.35	269.54	6.95	-48.8	-64.2	3.8	1.49e+00	0	42	104	826277888	68	22159
2026-01-25 01:58:25.35	269.43	6.90	-48.8	-64.2	3.8	1.49e+00	0	42	104	826277888	68	22238
2026-01-25 01:58:26.34	269.31	6.84	-48.8	-64.2	3.8	1.49e+00	0	42	104	826277888	68	22179
2026-01-25 01:58:27.33	269.20	6.79	-48.8	-64.2	3.8	1.49e+00	0	42	104	826277888	68	22129
2026-01-25 01:58:28.33	269.09	6.73	-48.8	-64.2	3.8	1.49e+00	0	42	104	826277888	68	22140
2026-01-25 01:58:29.32	268.98	6.68	-48.8	-64.2	3.8	1.49e+00	0	42	104	826277888	68	22116
2026-01-25 01:58:30.31	268.87	6.62	-48.8	-64.2	3.8	1.49e+00	0	42	104	826277888	68	22076
2026-01-25 01:58:31.31	268.76	6.57	-48.8	-64.2	3.8	1.49e+00	0	42	104	826277888	68	22028
2026-01-25 01:58:32.30	268.65	6.52	-48.8	-64.2	3.8	1.49e+00	0	42	104	826277888	68	22129
2026-01-25 01:58:33.29	268.54	6.46	-48.8	-64.2	3.8	1.49e+00	0	42	104	826277888	68	22166
2026-01-25 01:58:34.28	268.43	6.41	-48.8	-64.2	3.8	1.49e+00	0	42	104	826277888	68	22031
2026-01-25 01:58:35.28	268.32	6.35	-48.8	-64.2	3.8	1.49e+00	0	42	104	826277888	68	22038
2026-01-25 01:58:36.27	268.21	6.30	-48.8	-64.2	3.8	1.49e+00	0	42	104	826277888	68	22076
2026-01-25 01:58:37.26	268.10	6.25	-48.8	-64.2	3.8	1.49e+00	0	42	104	826277888	68	22221
2026-01-25 01:58:38.25	267.99	6.19	-48.8	-64.2	3.8	1.49e+00	0	42	104	826277888	68	22165
2026-01-25 01:58:39.25	267.88	6.14	-48.8	-64.2	3.8	1.49e+00	0	42	104	826277888	68	22154
2026-01-25 01:58:40.24	267.78	6.08	-48.8	-64.2	3.8	1.49e+00	0	42	104	826277888	68	22133
2026-01-25 01:58:41.23	267.67	6.03	-48.8	-64.2	3.8	1.49e+00	0	42	104	826277888	68	22152
2026-01-25 01:58:42.23	267.56	5.98	-48.8	-64.2	3.8	1.49e+00	0	42	104	826277888	68	22187
2026-01-25 01:58:43.22	267.46	5.92	-48.8	-64.2	3.8	1.49e+00	0	42	104	826277888	68	22130
2026-01-25 01:58:44.21	267.35	5.87	-48.8	-64.2	3.8	1.49e+00	0	42	104	826277888	68	22079
2026-01-25 01:58:45.21	267.25	5.81	-48.8	-64.2	3.8	1.49e+00	0	42	104	826277888	68	22087
2026-01-25 01:58:46.20	267.14	5.76	-48.8	-64.2	3.8	1.49e+00	0	42	104	826277888	68	22152
2026-01-25 01:58:47.19	267.04	5.71	-48.8	-64.2	3.8	1.49e+00	0	42	104	826277888	68	22088
2026-01-25 01:58:48.18	266.94	5.65	-48.8	-64.2	3.8	1.49e+00	0	42	104	826277888	68	22084
2026-01-25 01:58:49.18	266.83	5.60	-48.8	-64.1	3.8	1.49e+00	0	42	104	826277888	68	21995
2026-01-25 01:58:50.17	266.73	5.55	-48.8	-64.2	3.8	1.49e+00	0	42	104	826277888	68	22063
2026-01-25 01:58:51.16	266.63	5.49	-48.8	-64.2	3.8	1.49e+00	0	42	104	826277888	68	22088
2026-01-25 01:58:52.16	266.52	5.44	-48.8	-64.2	3.8	1.49e+00	0	42	104	826277888	68	22096
2026-01-25 01:58:53.15	266.42	5.38	-48.8	-64.2	3.8	1.49e+00	0	42	104	826277888	68	22098
2026-01-25 01:58:54.14	266.32	5.33	-48.8	-64.2	3.8	1.49e+00	0	42	104	826277888	68	22073
2026-01-25 01:58:55.13	266.22	5.28	-48.8	-64.2	3.8	1.49e+00	0	42	104	826277888	68	22033
2026-01-25 01:58:56.13	266.12	5.22	-48.8	-64.2	3.8	1.49e+00	0	42	104	826277888	68	22100
2026-01-25 01:58:57.12	266.02	5.17	-48.7	-64.1	3.8	1.49e+00	0	42	104	826277888	68	21989
2026-01-25 01:58:58.11	265.92	5.12	-48.8	-64.2	3.8	1.49e+00	0	42	104	826277888	68	22114
2026-01-25 01:58:59.11	265.82	5.06	-48.8	-64.2	3.8	1.49e+00	0	42	104	826277888	68	22069
2026-01-25 01:59:00.10	265.72	5.01	-48.8	-64.2	3.8	1.49e+00	0	42	104	826277888	68	22143
2026-01-25 01:59:01.09	265.62	4.96	-48.8	-64.2	3.8	1.49e+00	0	42	104	826277888	68	22089

#Closed at: 2026-01-25 01:59:02
#Recorded file [826 MB]: D:/Data/31040_260125_044918.dat