passes_logs/2026/01/25/T1/T1__20260125_205050_FENGYUN_3G_rec.log

#Pass ID: 20260125_205050_FENGYUN 3G
#Satellite: FENGYUN 3G
#Configuration: FENGYUN 3G
#almurnet v.1.7.20251203
#Start time: 2026-01-25 20:50:51

#Version: 2.0.20230620
#Station: T1
#Location: 37.570604 lon 55.790049 lat
#TLE: 1 56232U 23055A   26025.14527328  .00046082  00000+0  69370-3 0  9997
#TLE: 2 56232  49.9948   3.5622 0004071  80.7231 279.4197 15.54300718157774

#Time	Az	El	Level	Level2	SNR	BER	BlckErr	Temp	State	Recorded	gain1	gain2
2026-01-25 20:50:51.92	258.72	5.08	-47.4	-66.9	3.8	8.45e-01	0	35	0	0	66	34004
2026-01-25 20:50:52.91	258.60	5.15	-47.4	-67.0	3.8	8.38e-01	0	35	104	0	66	34311
2026-01-25 20:50:53.90	258.47	5.21	-47.4	-67.0	3.8	8.46e-01	0	35	104	0	66	34200
2026-01-25 20:50:54.90	258.35	5.28	-47.4	-67.0	3.8	8.46e-01	0	35	104	0	66	34199
2026-01-25 20:50:55.89	258.22	5.35	-47.4	-67.0	3.8	8.46e-01	0	35	104	0	66	34353
2026-01-25 20:50:56.88	258.10	5.42	-47.4	-66.9	3.8	8.48e-01	0	35	104	0	66	34057
2026-01-25 20:50:57.88	257.97	5.49	-47.4	-66.9	3.8	8.47e-01	0	35	104	0	66	33913
2026-01-25 20:50:58.87	257.84	5.56	-47.4	-66.8	3.8	8.47e-01	0	35	104	0	66	33469
2026-01-25 20:50:59.86	257.71	5.63	-47.4	-66.7	3.8	8.46e-01	0	35	104	0	66	33283
2026-01-25 20:51:00.86	257.58	5.70	-47.4	-66.6	3.8	8.48e-01	0	35	104	0	66	32882
2026-01-25 20:51:01.85	257.45	5.77	-47.4	-66.6	3.8	8.48e-01	0	35	104	0	66	32855
2026-01-25 20:51:02.84	257.32	5.84	-47.3	-66.7	3.8	8.46e-01	0	35	104	0	66	33180
2026-01-25 20:51:03.84	257.19	5.91	-47.3	-66.8	3.8	8.47e-01	0	35	104	0	66	33375
2026-01-25 20:51:04.83	257.06	5.98	-47.3	-66.8	3.8	8.47e-01	0	35	104	0	66	33569
2026-01-25 20:51:05.82	256.92	6.05	-47.3	-66.9	3.8	8.47e-01	0	35	104	0	66	33815
2026-01-25 20:51:06.81	256.79	6.13	-47.3	-66.9	3.8	8.47e-01	0	35	104	0	66	33822
2026-01-25 20:51:07.81	256.65	6.20	-47.3	-66.8	3.8	8.47e-01	0	35	104	0	66	33635
2026-01-25 20:51:08.80	256.52	6.27	-47.3	-66.8	3.8	8.47e-01	0	36	104	0	66	33618
2026-01-25 20:51:09.80	256.38	6.34	-47.3	-66.8	3.8	8.47e-01	0	35	104	0	66	33561
2026-01-25 20:51:10.79	256.24	6.41	-47.3	-66.8	3.8	8.48e-01	0	36	104	0	66	33629
2026-01-25 20:51:11.78	256.10	6.48	-47.3	-66.9	3.8	8.48e-01	0	35	104	0	66	33867
2026-01-25 20:51:12.78	255.96	6.56	-47.3	-66.9	3.8	8.48e-01	0	36	104	0	66	34057
2026-01-25 20:51:13.77	255.82	6.63	-47.3	-67.0	3.8	8.46e-01	0	36	104	0	66	34091
2026-01-25 20:51:14.76	255.68	6.70	-47.3	-67.0	3.8	8.46e-01	0	36	104	0	66	34213
2026-01-25 20:51:15.76	255.53	6.77	-47.3	-66.9	3.8	8.47e-01	0	36	104	0	66	34001
2026-01-25 20:51:16.75	255.39	6.85	-47.3	-66.9	3.8	8.47e-01	0	36	104	0	66	33718
2026-01-25 20:51:17.74	255.24	6.92	-47.3	-66.8	3.8	8.47e-01	0	36	104	0	66	33491
2026-01-25 20:51:18.74	255.09	6.99	-47.3	-66.7	3.8	8.48e-01	0	36	104	0	66	33127
2026-01-25 20:51:19.73	254.95	7.07	-47.3	-66.7	3.8	8.47e-01	0	36	104	0	66	32931
2026-01-25 20:51:20.72	254.80	7.14	-47.3	-66.7	3.8	8.47e-01	0	36	104	0	66	33057
2026-01-25 20:51:21.71	254.65	7.22	-47.3	-66.7	3.8	8.47e-01	0	36	104	0	66	33238
2026-01-25 20:51:22.71	254.50	7.29	-47.3	-66.9	3.8	8.48e-01	0	36	104	0	66	33945
2026-01-25 20:51:23.70	254.35	7.36	-47.3	-66.9	3.8	8.48e-01	0	36	104	0	66	34038
2026-01-25 20:51:24.70	254.19	7.44	-47.3	-66.9	3.8	8.47e-01	0	36	104	0	66	33962
2026-01-25 20:51:25.69	254.04	7.51	-47.3	-66.9	3.8	8.47e-01	0	36	104	0	66	33890
2026-01-25 20:51:26.68	253.88	7.59	-47.3	-66.9	3.8	8.47e-01	0	36	104	0	66	33744
2026-01-25 20:51:27.68	253.72	7.66	-47.3	-66.9	3.8	8.48e-01	0	36	104	0	66	33853
2026-01-25 20:51:28.67	253.57	7.74	-47.3	-66.9	3.8	8.46e-01	0	36	104	0	66	33938
2026-01-25 20:51:29.66	253.41	7.81	-47.3	-66.9	3.8	8.46e-01	0	36	104	0	66	33876
2026-01-25 20:51:30.66	253.25	7.89	-47.3	-66.8	3.8	8.47e-01	0	36	104	0	66	33358
2026-01-25 20:51:31.65	253.09	7.97	-47.3	-66.4	3.8	8.47e-01	0	36	104	0	66	31945
2026-01-25 20:51:32.64	252.93	8.04	-47.3	-65.8	3.8	8.48e-01	0	36	104	0	66	29856
2026-01-25 20:51:33.64	252.76	8.12	-47.3	-65.3	3.8	8.48e-01	0	36	104	0	66	28310
2026-01-25 20:51:34.63	252.60	8.19	-47.3	-65.1	3.9	8.47e-01	0	36	104	0	66	27689
2026-01-25 20:51:35.62	252.43	8.27	-47.3	-65.5	3.8	8.46e-01	0	36	104	0	66	28818
2026-01-25 20:51:36.62	252.26	8.35	-47.3	-66.1	3.8	8.46e-01	0	36	104	0	66	31079
2026-01-25 20:51:37.61	252.09	8.42	-47.3	-66.6	3.8	8.47e-01	0	36	104	0	66	32912
2026-01-25 20:51:38.60	251.93	8.50	-47.3	-66.6	3.8	8.47e-01	0	36	104	0	66	32864
2026-01-25 20:51:39.60	251.75	8.58	-47.3	-66.4	3.8	8.47e-01	0	36	104	0	66	31875
2026-01-25 20:51:40.59	251.58	8.66	-47.2	-65.7	3.8	8.48e-01	0	36	104	0	66	29437
2026-01-25 20:51:41.58	251.41	8.73	-47.2	-62.6	4.4	8.46e-01	0	36	0	0	66	20753
2026-01-25 20:51:42.58	251.23	8.81	-46.9	-58.3	7.2	8.46e-01	0	36	0	0	65	13397
2026-01-25 20:51:43.57	251.06	8.89	-46.3	-54.7	10.9	5.11e-01	0	36	0	0	64	9321
2026-01-25 20:51:44.56	250.88	8.97	-45.6	-52.0	13.8	9.92e-03	0	36	0	0	63	7287
2026-01-25 20:51:45.56	250.70	9.05	-44.6	-49.3	16.8	9.92e-03	0	36	0	0	60	6287
2026-01-25 20:51:46.55	250.52	9.12	-46.2	-52.4	14.3	3.40e-06	0	36	0	0	62	8072
2026-01-25 20:51:47.54	250.34	9.20	-45.3	-50.5	14.9	1.03e-03	0	36	0	0	62	6440
2026-01-25 20:51:48.54	250.16	9.28	-42.4	-45.5	20.0	1.03e-03	0	36	0	0	56	5138
2026-01-25 20:51:49.53	249.97	9.36	-45.0	-49.6	17.4	6.98e-05	0	36	0	0	60	6557
2026-01-25 20:51:50.53	249.79	9.44	-45.1	-49.9	15.0	4.06e-02	0	36	0	0	62	6000
2026-01-25 20:51:51.52	249.60	9.52	-42.2	-45.1	21.0	4.06e-02	0	36	0	0	56	4906
2026-01-25 20:51:52.52	249.41	9.60	-42.1	-44.9	21.1	1.44e-02	0	36	0	0	56	4813
2026-01-25 20:51:53.51	249.22	9.68	-41.2	-43.9	21.9	0.00e+00	0	36	0	0	54	4781
2026-01-25 20:51:54.50	249.03	9.76	-40.6	-43.1	22.7	0.00e+00	0	36	0	0	53	4641
2026-01-25 20:51:55.50	248.84	9.84	-40.5	-43.1	22.7	0.00e+00	0	36	0	0	52	4884
2026-01-25 20:51:56.50	248.64	9.92	-40.1	-42.6	23.2	0.00e+00	0	36	0	0	52	4604
2026-01-25 20:51:57.49	248.45	10.00	-40.1	-42.5	23.4	0.00e+00	0	36	0	0	51	4867
2026-01-25 20:51:58.49	248.25	10.08	-40.0	-42.4	23.4	0.00e+00	0	36	0	0	51	4799
2026-01-25 20:51:59.48	248.05	10.16	-39.6	-42.0	23.8	0.00e+00	0	36	0	0	51	4565
2026-01-25 20:52:00.48	247.85	10.24	-39.4	-41.7	24.1	0.00e+00	0	37	0	0	50	4696
2026-01-25 20:52:01.47	247.65	10.32	-39.3	-41.7	24.1	0.00e+00	0	36	0	0	50	4665
2026-01-25 20:52:02.47	247.45	10.40	-39.4	-41.7	24.1	0.00e+00	0	36	0	0	50	4690
2026-01-25 20:52:03.46	247.24	10.48	-39.3	-41.7	24.1	0.00e+00	0	37	0	0	50	4673
2026-01-25 20:52:04.45	247.04	10.56	-39.5	-41.8	24.0	0.00e+00	0	36	0	0	50	4753
2026-01-25 20:52:05.48	246.82	10.65	-39.5	-41.8	24.0	0.00e+00	0	37	0	0	50	4723
2026-01-25 20:52:06.48	246.61	10.73	-39.4	-41.7	24.1	0.00e+00	0	36	0	0	50	4671
2026-01-25 20:52:07.47	246.40	10.81	-39.1	-41.4	24.4	0.00e+00	0	37	0	0	50	4522
2026-01-25 20:52:08.47	246.19	10.89	-39.1	-41.4	24.5	0.00e+00	0	36	0	0	50	4506
2026-01-25 20:52:09.46	245.98	10.97	-39.0	-41.3	24.5	0.00e+00	0	36	0	0	50	4481
2026-01-25 20:52:10.46	245.76	11.06	-38.7	-40.9	24.8	0.00e+00	0	37	0	0	49	4520
2026-01-25 20:52:11.46	245.54	11.14	-38.6	-40.9	25.0	0.00e+00	0	36	0	0	49	4496
2026-01-25 20:52:12.45	245.32	11.22	-38.5	-40.6	25.1	0.00e+00	0	37	0	0	48	4640
2026-01-25 20:52:13.45	245.10	11.30	-38.4	-40.5	25.3	0.00e+00	0	37	0	0	48	4577
2026-01-25 20:52:14.44	244.88	11.38	-38.5	-40.7	25.1	0.00e+00	0	36	0	0	48	4653
2026-01-25 20:52:15.44	244.65	11.47	-38.7	-40.8	25.0	0.00e+00	0	37	0	0	48	4744
2026-01-25 20:52:16.43	244.43	11.55	-38.8	-41.0	24.8	0.00e+00	0	37	0	0	48	4821
2026-01-25 20:52:17.43	244.20	11.63	-38.8	-41.0	24.8	0.00e+00	0	37	0	0	48	4821
2026-01-25 20:52:18.42	243.97	11.71	-38.7	-40.9	24.8	0.00e+00	0	37	0	0	48	4799
2026-01-25 20:52:19.42	243.74	11.80	-38.8	-40.9	24.9	0.00e+00	0	37	0	0	48	4814
2026-01-25 20:52:20.41	243.51	11.88	-38.7	-40.9	25.0	0.00e+00	0	37	0	0	48	4760
2026-01-25 20:52:21.41	243.27	11.96	-38.5	-40.7	25.1	0.00e+00	0	37	0	0	48	4668
2026-01-25 20:52:22.45	243.03	12.05	-38.4	-40.6	25.2	0.00e+00	0	36	0	0	48	4602
2026-01-25 20:52:23.47	242.78	12.13	-38.2	-40.4	25.4	0.00e+00	0	37	0	0	48	4496
2026-01-25 20:52:24.47	242.54	12.22	-38.2	-40.4	25.4	0.00e+00	0	37	0	0	48	4495
2026-01-25 20:52:25.47	242.30	12.30	-38.2	-40.3	25.4	0.00e+00	0	37	0	0	48	4468
2026-01-25 20:52:26.46	242.06	12.38	-38.2	-40.4	25.4	0.00e+00	0	37	0	0	48	4526
2026-01-25 20:52:27.46	241.81	12.47	-38.5	-40.7	25.1	0.00e+00	0	37	0	0	48	4691
2026-01-25 20:52:28.45	241.56	12.55	-38.7	-40.9	24.9	0.00e+00	0	37	0	0	48	4786
2026-01-25 20:52:29.44	241.32	12.63	-38.7	-40.9	24.9	0.00e+00	0	37	0	0	48	4797
2026-01-25 20:52:30.44	241.06	12.71	-38.6	-40.8	25.0	0.00e+00	0	37	0	0	48	4754
2026-01-25 20:52:31.43	240.81	12.80	-38.6	-40.8	25.0	0.00e+00	0	37	0	0	48	4721
2026-01-25 20:52:32.43	240.56	12.88	-38.5	-40.6	25.1	0.00e+00	0	37	0	0	48	4643
2026-01-25 20:52:33.42	240.30	12.96	-38.4	-40.6	25.2	0.00e+00	0	37	0	0	48	4623
2026-01-25 20:52:34.42	240.04	13.05	-38.3	-40.4	25.4	0.00e+00	0	36	0	0	48	4528
2026-01-25 20:52:35.41	239.78	13.13	-38.1	-40.3	25.4	0.00e+00	0	36	0	0	48	4443
2026-01-25 20:52:36.41	239.52	13.21	-37.8	-40.0	25.7	0.00e+00	0	37	0	0	47	4547
2026-01-25 20:52:37.40	239.26	13.29	-37.7	-39.8	25.8	0.00e+00	0	37	0	0	47	4492
2026-01-25 20:52:38.40	238.99	13.38	-38.1	-40.2	25.5	0.00e+00	0	37	0	0	47	4693
2026-01-25 20:52:39.39	238.72	13.46	-38.2	-40.4	25.4	0.00e+00	0	37	0	0	47	4779
2026-01-25 20:52:40.39	238.45	13.54	-38.1	-40.3	25.5	0.00e+00	0	37	0	0	47	4713
2026-01-25 20:52:41.38	238.18	13.62	-38.1	-40.2	25.5	0.00e+00	0	37	0	0	47	4700
2026-01-25 20:52:42.46	237.88	13.71	-38.2	-40.4	25.4	0.00e+00	0	37	0	0	47	4765
2026-01-25 20:52:43.31	237.65	13.78	-38.1	-40.3	25.5	0.00e+00	0	37	0	0	47	4710
2026-01-25 20:52:44.45	237.33	13.88	-38.0	-40.2	25.6	0.00e+00	0	37	0	0	47	4658
2026-01-25 20:52:45.30	237.09	13.95	-38.2	-40.3	25.5	0.00e+00	0	37	0	0	47	4734
2026-01-25 20:52:46.44	236.77	14.04	-38.0	-40.2	25.6	0.00e+00	0	37	0	0	47	4655
2026-01-25 20:52:47.29	236.52	14.11	-38.0	-40.1	25.7	0.00e+00	0	37	0	0	47	4628
2026-01-25 20:52:48.43	236.20	14.20	-37.7	-39.8	25.9	0.00e+00	0	37	0	0	47	4472
2026-01-25 20:52:49.28	235.95	14.27	-37.7	-39.8	26.0	0.00e+00	0	37	0	0	47	4460
2026-01-25 20:52:50.42	235.62	14.36	-37.4	-39.5	26.2	0.00e+00	0	37	0	0	46	4560
2026-01-25 20:52:51.27	235.37	14.43	-37.3	-39.4	26.3	0.00e+00	0	37	0	0	46	4505
2026-01-25 20:52:52.41	235.03	14.53	-37.4	-39.5	26.2	0.00e+00	0	37	0	0	46	4583
2026-01-25 20:52:53.26	234.78	14.59	-37.6	-39.7	26.1	0.00e+00	0	37	0	0	46	4669
2026-01-25 20:52:54.40	234.44	14.69	-37.7	-39.9	25.9	0.00e+00	0	37	0	0	46	4771
2026-01-25 20:52:55.25	234.18	14.75	-37.8	-40.0	25.8	0.00e+00	0	37	0	0	46	4834
2026-01-25 20:52:56.39	233.83	14.85	-37.9	-40.0	25.8	0.00e+00	0	37	0	0	46	4839
2026-01-25 20:52:57.29	233.56	14.92	-37.9	-40.0	25.7	0.00e+00	0	37	0	0	46	4860
2026-01-25 20:52:58.56	233.17	15.02	-37.8	-40.0	25.7	0.00e+00	0	37	0	0	46	4817
2026-01-25 20:52:59.28	232.94	15.07	-37.7	-39.8	25.9	0.00e+00	0	37	0	0	46	4744
2026-01-25 20:53:00.55	232.55	15.17	-37.6	-39.7	26.0	0.00e+00	0	37	0	0	46	4698
2026-01-25 20:53:01.28	232.32	15.23	-37.5	-39.6	26.2	0.00e+00	0	37	0	0	46	4603
2026-01-25 20:53:02.56	231.91	15.33	-37.4	-39.5	26.2	0.00e+00	0	37	0	0	46	4585
2026-01-25 20:53:03.28	231.68	15.39	-37.2	-39.3	26.5	0.00e+00	0	37	0	0	46	4442
2026-01-25 20:53:04.57	231.27	15.49	-37.2	-39.3	26.4	0.00e+00	0	37	0	0	46	4465
2026-01-25 20:53:05.29	231.03	15.54	-37.3	-39.3	26.4	0.00e+00	0	37	0	0	46	4469
2026-01-25 20:53:06.57	230.62	15.64	-37.3	-39.3	26.4	0.00e+00	0	37	0	0	46	4474
2026-01-25 20:53:07.31	230.38	15.70	-37.3	-39.4	26.3	0.00e+00	0	37	0	0	46	4522
2026-01-25 20:53:08.59	229.95	15.79	-37.6	-39.7	26.1	0.00e+00	0	37	0	0	46	4689
2026-01-25 20:53:09.31	229.71	15.85	-37.8	-40.0	25.9	0.00e+00	0	37	0	0	46	4822
2026-01-25 20:53:10.59	229.29	15.94	-37.9	-40.0	25.9	0.00e+00	0	37	0	0	46	4831
2026-01-25 20:53:11.30	229.05	16.00	-37.8	-39.9	26.0	0.00e+00	0	37	0	0	46	4765
2026-01-25 20:53:12.58	228.62	16.09	-37.5	-39.6	26.1	0.00e+00	0	37	0	0	46	4617
2026-01-25 20:53:13.29	228.37	16.14	-37.2	-39.2	26.5	0.00e+00	0	37	0	0	46	4417
2026-01-25 20:53:14.65	227.91	16.24	-36.8	-38.8	26.9	0.00e+00	0	37	0	0	45	4464
2026-01-25 20:53:15.36	227.66	16.29	-36.7	-38.7	26.9	0.00e+00	0	37	0	0	45	4430
2026-01-25 20:53:16.64	227.22	16.39	-36.7	-38.8	26.9	0.00e+00	0	37	0	0	45	4443
2026-01-25 20:53:17.35	226.97	16.44	-36.9	-39.0	26.7	0.00e+00	0	37	0	0	45	4549
2026-01-25 20:53:18.63	226.52	16.53	-36.7	-38.7	26.9	0.00e+00	0	37	0	0	45	4406
2026-01-25 20:53:19.34	226.27	16.58	-36.5	-38.5	27.0	0.00e+00	0	37	0	0	45	4310
2026-01-25 20:53:20.62	225.82	16.66	-36.5	-38.5	27.1	0.00e+00	0	37	0	0	45	4310
2026-01-25 20:53:21.35	225.56	16.71	-36.5	-38.5	27.1	0.00e+00	0	37	0	0	45	4305
2026-01-25 20:53:22.63	225.10	16.80	-36.5	-38.4	27.1	0.00e+00	0	37	0	0	44	4536
2026-01-25 20:53:23.35	224.84	16.85	-36.4	-38.4	27.1	0.00e+00	0	37	0	0	44	4537
2026-01-25 20:53:24.63	224.37	16.93	-36.3	-38.3	27.3	0.00e+00	0	37	0	0	44	4474
2026-01-25 20:53:25.34	224.12	16.98	-36.3	-38.3	27.3	0.00e+00	0	37	0	0	44	4454
2026-01-25 20:53:26.67	223.63	17.07	-36.5	-38.4	27.2	0.00e+00	0	37	0	0	44	4532
2026-01-25 20:53:27.65	223.27	17.13	-36.7	-38.7	27.0	0.00e+00	0	37	0	0	44	4652
2026-01-25 20:53:28.98	222.77	17.21	-36.8	-38.8	26.9	0.00e+00	0	37	0	0	44	4714
2026-01-25 20:53:29.69	222.51	17.26	-36.9	-38.9	26.8	0.00e+00	0	37	0	0	44	4796
2026-01-25 20:53:30.98	222.02	17.34	-36.8	-38.8	26.9	0.00e+00	0	37	0	0	44	4729
2026-01-25 20:53:31.69	221.75	17.38	-36.9	-38.9	26.8	0.00e+00	0	37	0	0	44	4781
2026-01-25 20:53:33.00	221.26	17.46	-36.9	-38.9	26.7	0.00e+00	0	37	0	0	44	4790
2026-01-25 20:53:33.71	220.99	17.50	-36.8	-38.8	26.8	0.00e+00	0	37	0	0	44	4755
2026-01-25 20:53:35.00	220.49	17.58	-36.7	-38.7	26.9	0.00e+00	0	37	0	0	44	4667
2026-01-25 20:53:35.71	220.22	17.62	-36.7	-38.7	26.9	0.00e+00	0	37	0	0	44	4692
2026-01-25 20:53:37.01	219.72	17.69	-36.7	-38.7	26.9	0.00e+00	0	37	0	0	44	4691
2026-01-25 20:53:37.72	219.44	17.73	-36.8	-38.9	26.8	0.00e+00	0	37	0	0	44	4765
2026-01-25 20:53:39.00	218.94	17.80	-36.6	-38.6	27.0	0.00e+00	0	37	0	0	44	4624
2026-01-25 20:53:39.71	218.66	17.84	-36.6	-38.6	27.0	0.00e+00	0	37	0	0	44	4630
2026-01-25 20:53:40.99	218.16	17.91	-36.8	-38.8	26.9	0.00e+00	0	37	0	0	44	4707
2026-01-25 20:53:41.70	217.88	17.94	-36.4	-38.3	27.2	0.00e+00	0	37	0	0	44	4489
2026-01-25 20:53:43.15	217.30	18.02	-36.1	-38.1	27.4	0.00e+00	0	37	0	0	44	4366
2026-01-25 20:53:43.86	217.02	18.05	-36.1	-38.0	27.5	0.00e+00	0	37	0	0	44	4339
2026-01-25 20:53:45.18	216.49	18.11	-35.7	-37.6	27.7	0.00e+00	0	37	0	0	43	4380
2026-01-25 20:53:45.89	216.20	18.15	-35.7	-37.7	27.7	0.00e+00	0	37	0	0	43	4408
2026-01-25 20:53:47.23	215.66	18.21	-35.6	-37.5	27.8	0.00e+00	0	37	0	0	43	4334
2026-01-25 20:53:47.94	215.38	18.24	-35.7	-37.7	27.7	0.00e+00	0	37	0	0	43	4405
2026-01-25 20:53:49.22	214.86	18.30	-35.7	-37.6	27.7	0.00e+00	0	37	0	0	43	4386
2026-01-25 20:53:50.30	214.41	18.34	-35.6	-37.5	27.6	0.00e+00	0	37	0	0	43	4322
2026-01-25 20:53:51.16	214.06	18.38	-36.0	-37.9	27.4	0.00e+00	0	37	0	0	43	4538
2026-01-25 20:53:52.30	213.59	18.42	-36.0	-37.9	27.4	0.00e+00	0	37	0	0	43	4538
2026-01-25 20:53:53.15	213.24	18.46	-35.8	-37.8	27.5	0.00e+00	0	37	0	0	43	4460
2026-01-25 20:53:54.32	212.76	18.50	-35.9	-37.9	27.5	0.00e+00	0	37	0	0	43	4498
2026-01-25 20:53:55.17	212.41	18.53	-35.7	-37.7	27.7	0.00e+00	0	37	0	0	43	4404
2026-01-25 20:53:56.37	211.91	18.58	-35.5	-37.5	27.8	0.00e+00	0	37	0	0	43	4305
2026-01-25 20:53:57.22	211.55	18.60	-35.5	-37.4	27.8	0.00e+00	0	37	0	0	42	4541
2026-01-25 20:53:58.44	211.04	18.64	-35.3	-37.2	28.0	0.00e+00	0	37	0	0	42	4407
2026-01-25 20:53:59.29	210.68	18.67	-35.2	-37.1	28.1	0.00e+00	0	37	0	0	42	4361
2026-01-25 20:54:00.43	210.20	18.71	-35.2	-37.1	28.1	0.00e+00	0	37	0	0	42	4371
2026-01-25 20:54:01.28	209.85	18.73	-35.3	-37.2	28.1	0.00e+00	0	37	0	0	42	4412
2026-01-25 20:54:02.42	209.36	18.76	-35.6	-37.6	27.7	0.00e+00	0	37	0	0	42	4616
2026-01-25 20:54:03.27	209.00	18.78	-35.6	-37.5	27.8	0.00e+00	0	37	0	0	42	4575
2026-01-25 20:54:04.41	208.52	18.81	-35.6	-37.5	27.8	0.00e+00	0	37	0	0	42	4570
2026-01-25 20:54:05.26	208.16	18.83	-35.8	-37.7	27.6	0.00e+00	0	37	0	0	42	4696
2026-01-25 20:54:06.40	207.67	18.86	-35.8	-37.7	27.6	0.00e+00	0	37	0	0	42	4696
2026-01-25 20:54:07.26	207.30	18.88	-35.8	-37.7	27.7	0.00e+00	0	37	0	0	42	4688
2026-01-25 20:54:08.39	206.82	18.90	-35.8	-37.8	27.6	0.00e+00	0	37	0	0	42	4726
2026-01-25 20:54:09.25	206.45	18.91	-35.7	-37.7	27.7	0.00e+00	0	37	0	0	42	4664
2026-01-25 20:54:10.38	205.97	18.93	-35.8	-37.8	27.6	0.00e+00	0	37	0	0	42	4712
2026-01-25 20:54:11.23	205.60	18.95	-35.9	-37.9	27.5	0.00e+00	0	37	0	0	42	4772
2026-01-25 20:54:12.37	205.11	18.96	-35.8	-37.7	27.6	0.00e+00	0	37	0	0	42	4698
2026-01-25 20:54:13.22	204.75	18.97	-35.9	-37.8	27.6	0.00e+00	0	37	0	0	42	4748
2026-01-25 20:54:14.41	204.23	18.99	-35.9	-37.9	27.5	0.00e+00	0	37	0	0	42	4788
2026-01-25 20:54:15.26	203.87	18.99	-35.9	-37.9	27.5	0.00e+00	0	37	0	0	42	4768
2026-01-25 20:54:16.40	203.38	19.00	-36.0	-37.9	27.5	0.00e+00	0	37	0	0	42	4804
2026-01-25 20:54:17.25	203.01	19.01	-35.9	-37.9	27.4	0.00e+00	0	37	0	0	42	4767
2026-01-25 20:54:18.39	202.52	19.02	-35.7	-37.6	27.6	0.00e+00	0	37	0	0	42	4643
2026-01-25 20:54:19.24	202.15	19.02	-35.6	-37.6	27.7	0.00e+00	0	37	0	0	42	4614
2026-01-25 20:54:20.38	201.66	19.02	-35.6	-37.6	27.7	0.00e+00	0	37	0	0	42	4611
2026-01-25 20:54:21.23	201.29	19.02	-35.8	-37.8	27.6	0.00e+00	0	37	0	0	42	4728
2026-01-25 20:54:22.37	200.79	19.02	-35.6	-37.5	27.8	0.00e+00	0	37	0	0	42	4581
2026-01-25 20:54:23.22	200.43	19.02	-35.6	-37.6	27.7	0.00e+00	0	37	0	0	42	4616
2026-01-25 20:54:24.36	199.93	19.02	-35.5	-37.4	27.8	0.00e+00	0	37	0	0	42	4544
2026-01-25 20:54:25.21	199.57	19.02	-35.6	-37.6	27.7	0.00e+00	0	37	0	0	42	4599
2026-01-25 20:54:26.35	199.07	19.01	-35.5	-37.5	27.8	0.00e+00	0	37	0	0	42	4553
2026-01-25 20:54:27.21	198.70	19.00	-35.6	-37.5	27.7	0.00e+00	0	37	0	0	42	4598
2026-01-25 20:54:28.34	198.21	18.99	-35.7	-37.7	27.7	0.00e+00	0	37	0	0	42	4655
2026-01-25 20:54:29.20	197.84	18.99	-35.9	-37.8	27.6	0.00e+00	0	37	0	0	42	4758
2026-01-25 20:54:30.33	197.36	18.97	-36.1	-38.1	27.3	0.00e+00	0	37	0	0	43	4633
2026-01-25 20:54:31.19	196.99	18.96	-36.2	-38.2	27.2	0.00e+00	0	37	0	0	43	4665
2026-01-25 20:54:32.52	196.41	18.94	-36.1	-38.1	27.3	0.00e+00	0	37	0	0	43	4622
2026-01-25 20:54:33.22	196.11	18.93	-35.9	-37.9	27.4	0.00e+00	0	37	0	0	43	4528
2026-01-25 20:54:34.75	195.46	18.91	-35.6	-37.6	27.7	0.00e+00	0	37	0	0	43	4357
2026-01-25 20:54:35.65	195.07	18.89	-35.2	-37.2	28.0	0.00e+00	0	37	0	0	42	4405
2026-01-25 20:54:37.07	194.46	18.86	-35.1	-37.0	28.2	0.00e+00	0	37	0	0	42	4319
2026-01-25 20:54:37.78	194.16	18.84	-35.1	-37.0	28.2	0.00e+00	0	37	0	0	42	4333
2026-01-25 20:54:39.06	193.62	18.81	-35.5	-37.5	27.8	0.00e+00	0	37	0	0	42	4556
2026-01-25 20:54:39.79	193.31	18.80	-35.8	-37.7	27.7	0.00e+00	0	37	0	0	42	4698
2026-01-25 20:54:41.07	192.76	18.76	-36.1	-38.1	27.3	0.00e+00	0	37	0	0	42	4899
2026-01-25 20:54:41.80	192.45	18.74	-36.2	-38.2	27.2	0.00e+00	0	37	0	0	43	4690
2026-01-25 20:54:43.07	191.92	18.71	-36.3	-38.3	27.2	0.00e+00	0	37	0	0	43	4713
2026-01-25 20:54:43.92	191.56	18.68	-36.3	-38.3	27.2	0.00e+00	0	37	0	0	43	4712
2026-01-25 20:54:45.06	191.08	18.65	-36.0	-37.9	27.4	0.00e+00	0	37	0	0	43	4534
2026-01-25 20:54:45.92	190.72	18.62	-35.9	-37.8	27.5	0.00e+00	0	37	0	0	43	4483
2026-01-25 20:54:47.05	190.25	18.58	-35.3	-37.3	28.0	0.00e+00	0	37	0	0	42	4453
2026-01-25 20:54:47.90	189.89	18.55	-35.2	-37.1	28.1	0.00e+00	0	37	0	0	42	4362
2026-01-25 20:54:49.04	189.42	18.51	-35.1	-37.0	28.2	0.00e+00	0	37	0	0	42	4325
2026-01-25 20:54:49.90	189.06	18.48	-35.1	-37.1	28.2	0.00e+00	0	37	0	0	42	4359
2026-01-25 20:54:51.04	188.59	18.43	-35.7	-37.7	27.7	0.00e+00	0	37	0	0	42	4658
2026-01-25 20:54:51.89	188.24	18.40	-36.0	-38.0	27.4	0.00e+00	0	37	0	0	42	4859
2026-01-25 20:54:53.03	187.77	18.35	-36.1	-38.1	27.3	0.00e+00	0	37	0	0	42	4898
2026-01-25 20:54:53.88	187.42	18.32	-36.0	-38.0	27.4	0.00e+00	0	37	0	0	42	4862
2026-01-25 20:54:55.01	186.96	18.27	-35.8	-37.8	27.5	0.00e+00	0	37	0	0	42	4733
2026-01-25 20:54:55.87	186.61	18.23	-35.6	-37.6	27.8	0.00e+00	0	37	0	0	42	4618
2026-01-25 20:54:57.00	186.16	18.18	-35.7	-37.7	27.6	0.00e+00	0	37	0	0	42	4661
2026-01-25 20:54:57.86	185.81	18.14	-35.6	-37.6	27.7	0.00e+00	0	37	0	0	42	4604
2026-01-25 20:54:58.99	185.36	18.08	-35.6	-37.6	27.7	0.00e+00	0	37	0	0	42	4617
2026-01-25 20:54:59.84	185.01	18.04	-35.7	-37.6	27.6	0.00e+00	0	37	0	0	42	4651
2026-01-25 20:55:00.98	184.56	17.99	-35.8	-37.8	27.5	0.00e+00	0	37	0	0	42	4716
2026-01-25 20:55:01.84	184.22	17.94	-35.8	-37.8	27.5	0.00e+00	0	37	0	0	42	4718
2026-01-25 20:55:02.97	183.77	17.88	-36.2	-38.2	27.2	0.00e+00	0	37	0	0	42	4956
2026-01-25 20:55:03.83	183.43	17.84	-36.2	-38.2	27.2	0.00e+00	0	37	0	0	43	4700
2026-01-25 20:55:04.96	182.99	17.78	-36.2	-38.2	27.2	0.00e+00	0	37	0	0	43	4697
2026-01-25 20:55:05.82	182.65	17.73	-36.2	-38.1	27.3	0.00e+00	0	37	0	0	43	4651
2026-01-25 20:55:06.95	182.21	17.67	-36.2	-38.1	27.3	0.00e+00	0	37	0	0	43	4646
2026-01-25 20:55:07.81	181.88	17.62	-35.9	-37.9	27.5	0.00e+00	0	37	0	0	43	4531
2026-01-25 20:55:08.94	181.45	17.55	-35.9	-37.9	27.5	0.00e+00	0	37	0	0	43	4495
2026-01-25 20:55:09.80	181.12	17.50	-36.1	-38.1	27.3	0.00e+00	0	37	0	0	43	4638
2026-01-25 20:55:10.93	180.69	17.44	-36.6	-38.6	26.9	0.00e+00	0	37	0	0	43	4889
2026-01-25 20:55:11.78	180.36	17.39	-36.5	-38.6	26.9	1.56e-03	0	37	0	0	43	4877
2026-01-25 20:55:12.92	179.93	17.32	-36.5	-38.5	26.9	0.00e+00	0	37	0	0	43	4838
2026-01-25 20:55:13.78	179.61	17.26	-36.2	-38.2	27.1	0.00e+00	0	37	0	0	43	4700
2026-01-25 20:55:14.91	179.19	17.19	-36.0	-38.0	27.3	0.00e+00	0	37	0	0	43	4567
2026-01-25 20:55:15.77	178.87	17.14	-35.9	-37.9	27.5	0.00e+00	0	37	0	0	43	4494
2026-01-25 20:55:16.91	178.44	17.06	-36.1	-38.1	27.3	0.00e+00	0	37	0	0	43	4603
2026-01-25 20:55:17.76	178.13	17.01	-36.3	-38.3	27.0	0.00e+00	0	37	0	0	43	4739
2026-01-25 20:55:19.10	177.64	16.92	-36.5	-38.5	27.0	0.00e+00	0	37	0	0	43	4839
2026-01-25 20:55:19.81	177.38	16.87	-36.7	-38.7	26.8	0.00e+00	0	37	0	0	43	4943
2026-01-25 20:55:21.09	176.92	16.79	-36.9	-38.9	26.7	0.00e+00	0	37	0	0	44	4810
2026-01-25 20:55:21.82	176.66	16.74	-36.9	-39.0	26.7	0.00e+00	0	37	0	0	44	4831
2026-01-25 20:55:23.10	176.20	16.65	-37.0	-39.1	26.6	0.00e+00	0	37	0	0	44	4888
2026-01-25 20:55:23.84	175.94	16.60	-37.1	-39.1	26.6	0.00e+00	0	37	0	0	44	4907
2026-01-25 20:55:25.12	175.48	16.51	-37.2	-39.3	26.4	0.00e+00	0	37	0	0	44	4984
2026-01-25 20:55:25.83	175.23	16.46	-37.2	-39.2	26.4	0.00e+00	0	37	0	0	45	4699
2026-01-25 20:55:27.11	174.79	16.37	-37.3	-39.4	26.3	0.00e+00	0	37	0	0	45	4796
2026-01-25 20:55:27.89	174.52	16.31	-37.4	-39.5	26.2	0.00e+00	0	37	0	0	45	4818
2026-01-25 20:55:29.17	174.07	16.22	-37.2	-39.3	26.4	0.00e+00	0	37	0	0	45	4718
2026-01-25 20:55:29.88	173.83	16.17	-37.1	-39.2	26.4	0.00e+00	0	37	0	0	45	4684
2026-01-25 20:55:31.16	173.39	16.07	-37.1	-39.2	26.4	0.00e+00	0	37	0	0	45	4658
2026-01-25 20:55:31.87	173.15	16.02	-36.9	-39.0	26.6	0.00e+00	0	37	0	0	45	4575
2026-01-25 20:55:33.15	172.72	15.93	-36.9	-39.0	26.6	0.00e+00	0	37	0	0	45	4557
2026-01-25 20:55:33.88	172.48	15.87	-37.0	-39.0	26.6	0.00e+00	0	37	0	0	45	4581
2026-01-25 20:55:35.16	172.05	15.78	-37.2	-39.3	26.4	0.00e+00	0	37	0	0	45	4712
2026-01-25 20:55:35.87	171.82	15.72	-37.1	-39.1	26.5	0.00e+00	0	37	0	0	45	4638
2026-01-25 20:55:37.25	171.36	15.62	-36.9	-39.0	26.6	0.00e+00	0	37	0	0	45	4573
2026-01-25 20:55:37.96	171.13	15.56	-37.0	-39.1	26.5	0.00e+00	0	37	0	0	45	4609
2026-01-25 20:55:39.24	170.72	15.46	-37.0	-39.1	26.5	0.00e+00	0	37	0	0	45	4617
2026-01-25 20:55:39.96	170.49	15.41	-37.1	-39.1	26.4	0.00e+00	0	37	0	0	45	4645
2026-01-25 20:55:41.24	170.08	15.31	-37.1	-39.2	26.5	0.00e+00	0	37	0	0	45	4659
2026-01-25 20:55:41.97	169.85	15.25	-37.1	-39.1	26.4	0.00e+00	0	37	0	0	45	4648
2026-01-25 20:55:43.24	169.44	15.15	-37.2	-39.3	26.4	0.00e+00	0	37	0	0	45	4706
2026-01-25 20:55:43.98	169.21	15.09	-37.3	-39.4	26.3	0.00e+00	0	37	0	0	45	4778
2026-01-25 20:55:45.26	168.81	14.99	-37.5	-39.6	26.0	0.00e+00	0	37	0	0	45	4919
2026-01-25 20:55:46.01	168.58	14.93	-37.5	-39.6	26.0	0.00e+00	0	37	0	0	45	4914
2026-01-25 20:55:47.29	168.19	14.83	-37.5	-39.6	26.0	0.00e+00	0	37	0	0	45	4903
2026-01-25 20:55:48.01	167.97	14.77	-37.4	-39.5	26.1	0.00e+00	0	37	0	0	45	4870
2026-01-25 20:55:49.29	167.58	14.67	-37.6	-39.7	25.9	0.00e+00	0	37	0	0	45	4962
2026-01-25 20:55:50.11	167.34	14.60	-37.6	-39.7	25.9	0.00e+00	0	37	0	0	45	4963
2026-01-25 20:55:51.25	167.00	14.51	-37.6	-39.7	25.9	0.00e+00	0	37	0	0	45	4936
2026-01-25 20:55:52.10	166.74	14.44	-37.6	-39.7	25.9	0.00e+00	0	37	0	0	45	4942
2026-01-25 20:55:53.24	166.41	14.35	-37.5	-39.6	26.1	0.00e+00	0	37	0	0	45	4898
2026-01-25 20:55:54.09	166.16	14.28	-37.4	-39.5	26.1	0.00e+00	0	37	0	0	45	4851
2026-01-25 20:55:55.23	165.83	14.19	-37.5	-39.6	26.0	0.00e+00	0	37	0	0	45	4880
2026-01-25 20:55:56.08	165.58	14.12	-37.4	-39.5	25.9	0.00e+00	0	37	0	0	45	4852
2026-01-25 20:55:57.22	165.26	14.02	-37.6	-39.7	25.8	0.00e+00	0	37	0	0	46	4699
2026-01-25 20:55:58.07	165.02	13.95	-37.8	-39.9	25.7	9.27e-04	0	37	0	0	46	4797
2026-01-25 20:55:59.24	164.69	13.86	-38.0	-40.1	25.5	9.27e-04	0	37	0	0	46	4911
2026-01-25 20:56:00.09	164.45	13.79	-38.0	-40.1	25.5	0.00e+00	0	37	0	0	46	4920
2026-01-25 20:56:01.29	164.12	13.69	-37.9	-40.0	25.6	9.89e-04	0	37	0	0	46	4852
2026-01-25 20:56:02.14	163.88	13.62	-37.9	-40.0	25.7	9.89e-04	0	37	0	0	46	4849
2026-01-25 20:56:03.34	163.55	13.52	-37.9	-40.0	25.6	0.00e+00	0	37	0	0	46	4846
2026-01-25 20:56:04.19	163.32	13.45	-37.9	-40.0	25.7	5.70e-06	0	37	0	0	46	4857
2026-01-25 20:56:05.33	163.01	13.35	-37.9	-40.0	25.7	0.00e+00	0	37	0	0	46	4836
2026-01-25 20:56:06.18	162.79	13.28	-37.9	-40.1	25.5	0.00e+00	0	37	0	0	46	4895
2026-01-25 20:56:07.51	162.43	13.17	-38.2	-40.3	25.4	0.00e+00	0	37	0	0	46	5035
2026-01-25 20:56:08.22	162.25	13.11	-38.2	-40.4	25.2	0.00e+00	0	37	0	0	47	4812
2026-01-25 20:56:09.50	161.91	13.00	-38.2	-40.4	25.2	0.00e+00	0	37	0	0	47	4802
2026-01-25 20:56:10.29	161.70	12.94	-38.2	-40.4	25.3	0.00e+00	0	37	0	0	47	4799
2026-01-25 20:56:11.48	161.40	12.84	-38.1	-40.3	25.3	0.00e+00	0	37	0	0	47	4727
2026-01-25 20:56:12.33	161.18	12.77	-38.0	-40.2	25.4	0.00e+00	0	37	0	0	47	4682
2026-01-25 20:56:13.47	160.89	12.67	-38.0	-40.2	25.5	0.00e+00	0	37	0	0	47	4654
2026-01-25 20:56:14.32	160.68	12.60	-37.9	-40.0	25.6	0.00e+00	0	37	0	0	47	4579
2026-01-25 20:56:15.46	160.39	12.51	-37.8	-40.0	25.6	0.00e+00	0	37	0	0	47	4566
2026-01-25 20:56:16.31	160.18	12.44	-38.0	-40.2	25.4	0.00e+00	0	37	0	0	47	4675
2026-01-25 20:56:17.45	159.90	12.34	-38.2	-40.4	25.2	0.00e+00	0	37	0	0	47	4783
2026-01-25 20:56:18.30	159.69	12.27	-38.3	-40.6	25.1	1.15e-03	0	37	0	0	47	4874
2026-01-25 20:56:19.44	159.41	12.17	-38.4	-40.6	25.0	1.15e-03	0	37	0	0	47	4917
2026-01-25 20:56:20.29	159.21	12.10	-38.4	-40.6	25.0	0.00e+00	0	37	0	0	48	4623
2026-01-25 20:56:21.51	158.92	12.00	-38.5	-40.7	25.0	4.94e-03	0	37	0	0	48	4659
2026-01-25 20:56:22.36	158.71	11.93	-38.5	-40.7	24.9	4.94e-03	0	37	0	0	48	4684
2026-01-25 20:56:23.50	158.45	11.84	-38.5	-40.7	24.9	0.00e+00	0	37	0	0	48	4673
2026-01-25 20:56:24.35	158.25	11.77	-38.6	-40.8	24.9	5.43e-03	0	37	0	0	48	4716
2026-01-25 20:56:25.49	157.98	11.67	-38.5	-40.7	25.0	5.43e-03	0	37	0	0	48	4677
2026-01-25 20:56:26.34	157.79	11.60	-38.5	-40.6	25.0	0.00e+00	0	37	0	0	48	4644
2026-01-25 20:56:27.48	157.53	11.51	-38.5	-40.7	24.9	4.59e-03	0	37	0	0	48	4679
2026-01-25 20:56:28.34	157.33	11.43	-38.5	-40.7	24.9	4.59e-03	0	37	0	0	48	4688
2026-01-25 20:56:29.47	157.08	11.34	-38.6	-40.8	24.9	4.65e-04	0	37	0	0	48	4719
2026-01-25 20:56:30.33	156.88	11.27	-38.4	-40.6	25.0	3.41e-03	0	37	0	0	48	4637
2026-01-25 20:56:31.46	156.63	11.18	-38.6	-40.8	24.6	3.24e-03	0	37	0	0	48	4742
2026-01-25 20:56:32.32	156.44	11.10	-38.7	-40.9	24.7	3.24e-03	0	37	0	0	48	4794
2026-01-25 20:56:33.46	156.19	11.01	-38.7	-40.9	24.7	0.00e+00	0	37	0	0	48	4786
2026-01-25 20:56:34.31	156.01	10.94	-38.7	-40.9	24.0	2.16e-03	0	37	0	0	48	4800
2026-01-25 20:56:35.53	155.75	10.84	-38.8	-41.0	24.6	2.16e-03	0	37	0	0	48	4864
2026-01-25 20:56:36.38	155.56	10.77	-38.9	-41.2	24.5	0.00e+00	0	37	0	0	48	4944
2026-01-25 20:56:37.59	155.31	10.67	-39.0	-41.3	24.4	0.00e+00	0	37	0	0	48	4992
2026-01-25 20:56:38.45	155.13	10.60	-39.1	-41.4	24.2	0.00e+00	0	37	0	0	49	4809
2026-01-25 20:56:39.58	154.89	10.51	-39.3	-41.6	24.1	0.00e+00	0	37	0	0	49	4897
2026-01-25 20:56:40.44	154.71	10.44	-39.3	-41.7	24.0	0.00e+00	0	37	0	0	49	4928
2026-01-25 20:56:41.58	154.48	10.34	-39.4	-41.8	23.8	0.00e+00	0	37	0	0	49	5014
2026-01-25 20:56:42.43	154.30	10.27	-39.3	-41.7	24.0	0.00e+00	0	37	0	0	49	4933
2026-01-25 20:56:43.57	154.07	10.18	-39.4	-41.8	23.9	0.00e+00	0	37	0	0	49	5026
2026-01-25 20:56:44.42	153.90	10.11	-39.4	-41.8	23.7	0.00e+00	0	37	0	0	49	5041
2026-01-25 20:56:45.56	153.68	10.02	-39.6	-42.0	23.7	0.00e+00	0	37	0	0	49	5112
2026-01-25 20:56:46.41	153.51	9.95	-39.6	-42.1	23.5	0.00e+00	0	37	0	0	49	5162
2026-01-25 20:56:47.55	153.28	9.86	-39.5	-41.9	23.7	0.00e+00	0	37	0	0	49	5065
2026-01-25 20:56:48.40	153.12	9.79	-39.3	-41.7	23.9	0.00e+00	0	37	0	0	49	4970
2026-01-25 20:56:49.54	152.90	9.70	-39.2	-41.6	24.0	0.00e+00	0	37	0	0	49	4873
2026-01-25 20:56:50.39	152.73	9.63	-39.1	-41.5	24.1	0.00e+00	0	37	0	0	49	4818
2026-01-25 20:56:51.53	152.51	9.54	-39.2	-41.5	24.0	0.00e+00	0	37	0	0	49	4857
2026-01-25 20:56:52.38	152.35	9.47	-39.2	-41.5	24.1	0.00e+00	0	37	0	0	49	4843
2026-01-25 20:56:53.52	152.14	9.38	-39.1	-41.4	24.1	0.00e+00	0	37	0	0	49	4809
2026-01-25 20:56:54.37	151.98	9.31	-39.1	-41.4	16.5	0.00e+00	0	37	0	0	49	4814
2026-01-25 20:56:55.51	151.77	9.22	-39.2	-41.6	24.0	4.50e-06	0	37	0	0	49	4888
2026-01-25 20:56:56.36	151.61	9.15	-39.3	-41.7	23.9	0.00e+00	0	37	0	0	49	4927
2026-01-25 20:56:57.50	151.40	9.06	-39.4	-41.8	23.7	0.00e+00	0	37	0	0	49	5029
2026-01-25 20:56:58.35	151.25	9.00	-39.8	-42.2	23.3	2.79e-03	0	37	0	0	50	4980
2026-01-25 20:56:59.48	151.05	8.91	-47.8	-65.7	3.8	3.22e-03	0	37	104	0	66	29504
2026-01-25 20:57:00.34	150.89	8.84	-48.0	-67.0	3.8	3.
