passes_logs/2026/01/25/T1/T1__20260125_104924_NOAA_21_JPSS-2_rec.log

#Pass ID: 20260125_104924_NOAA 21 (JPSS-2)
#Satellite: NOAA 21 (JPSS-2)
#Configuration: NOAA 21
#almurnet v.1.7.20251203
#Start time: 2026-01-25 10:49:26

#Version: 2.0.20230620
#Station: T1
#Location: 37.570604 lon 55.790049 lat
#TLE: 1 54234U 22150A   26024.45772595  .00000201  00000+0  11607-3 0  9996
#TLE: 2 54234  98.7508 325.2435 0000728 220.7365 139.3757 14.19538765166156

#Time	Az	El	Level	Level2	SNR	BER	BlckErr	Temp	State	Recorded	gain1	gain2
2026-01-25 10:49:26.78	188.93	5.16	-47.2	-61.6	3.8	1.49e+00	0	39	0	0	66	18454
2026-01-25 10:49:27.77	188.98	5.23	-47.2	-61.4	3.8	1.49e+00	0	39	104	0	65	19023
2026-01-25 10:49:28.76	189.03	5.30	-47.2	-61.3	3.8	1.49e+00	0	39	104	0	65	18878
2026-01-25 10:49:29.76	189.08	5.36	-47.2	-61.2	3.8	1.49e+00	0	39	104	0	65	18576
2026-01-25 10:49:30.75	189.14	5.43	-47.2	-61.1	3.8	1.49e+00	0	39	104	0	65	18486
2026-01-25 10:49:31.75	189.19	5.50	-47.2	-61.0	3.8	1.49e+00	0	39	104	0	65	18272
2026-01-25 10:49:32.74	189.24	5.57	-47.0	-61.1	3.8	1.49e+00	0	39	104	0	65	18334
2026-01-25 10:49:33.73	189.29	5.64	-47.2	-61.1	3.8	1.49e+00	0	39	104	0	65	18449
2026-01-25 10:49:34.73	189.35	5.71	-47.1	-61.2	3.8	1.49e+00	0	39	104	0	65	18526
2026-01-25 10:49:35.72	189.40	5.77	-47.2	-61.2	3.8	1.49e+00	0	39	104	0	65	18606
2026-01-25 10:49:36.71	189.45	5.84	-47.2	-61.2	3.8	1.49e+00	0	39	104	0	65	18577
2026-01-25 10:49:37.71	189.51	5.91	-47.1	-61.2	3.8	1.49e+00	0	39	104	0	65	18559
2026-01-25 10:49:38.70	189.56	5.98	-47.2	-61.1	3.8	1.49e+00	0	39	104	0	65	18500
2026-01-25 10:49:39.70	189.61	6.05	-47.1	-61.0	3.8	1.49e+00	0	39	104	0	65	18213
2026-01-25 10:49:40.69	189.67	6.12	-47.2	-61.0	3.8	1.49e+00	0	39	104	0	65	18239
2026-01-25 10:49:41.68	189.72	6.19	-47.1	-60.8	3.8	1.49e+00	0	39	104	0	65	17809
2026-01-25 10:49:42.68	189.78	6.26	-47.2	-61.0	3.8	1.49e+00	0	39	104	0	65	18197
2026-01-25 10:49:43.67	189.83	6.33	-47.1	-60.7	3.8	1.49e+00	0	39	104	0	65	17520
2026-01-25 10:49:44.66	189.89	6.40	-47.2	-61.0	3.8	1.49e+00	0	39	104	0	65	18178
2026-01-25 10:49:45.66	189.94	6.47	-47.2	-61.0	3.8	1.49e+00	0	39	104	0	65	18203
2026-01-25 10:49:46.65	190.00	6.54	-47.2	-61.0	3.8	1.49e+00	0	40	104	0	65	18103
2026-01-25 10:49:47.64	190.06	6.62	-47.2	-61.2	3.8	1.49e+00	0	39	104	0	65	18585
2026-01-25 10:49:48.64	190.11	6.69	-47.2	-61.2	3.8	1.49e+00	0	39	104	0	65	18678
2026-01-25 10:49:49.63	190.17	6.76	-47.2	-61.2	3.8	1.49e+00	0	39	104	0	65	18612
2026-01-25 10:49:50.62	190.23	6.83	-47.2	-61.1	3.8	1.49e+00	0	39	104	0	65	18397
2026-01-25 10:49:51.62	190.28	6.90	-47.2	-60.7	3.8	1.49e+00	0	40	104	0	65	17675
2026-01-25 10:49:52.61	190.34	6.97	-47.1	-60.1	3.8	1.49e+00	0	39	104	0	65	16425
2026-01-25 10:49:53.60	190.40	7.04	-47.1	-59.3	4.0	1.49e+00	0	39	104	0	65	14965
2026-01-25 10:49:54.59	190.46	7.12	-47.1	-59.3	3.9	1.48e+00	0	39	104	0	65	14962
2026-01-25 10:49:55.59	190.51	7.19	-47.1	-59.6	3.8	1.48e+00	0	39	104	0	65	15549
2026-01-25 10:49:56.58	190.57	7.26	-47.1	-60.0	3.8	1.49e+00	0	39	104	0	65	16246
2026-01-25 10:49:57.58	190.63	7.33	-47.2	-60.7	3.8	1.49e+00	0	40	104	0	65	17657
2026-01-25 10:49:58.57	190.69	7.41	-47.2	-61.5	3.8	1.49e+00	0	39	104	0	65	19346
2026-01-25 10:49:59.56	190.75	7.48	-47.1	-60.9	3.8	1.49e+00	0	39	104	0	65	18095
2026-01-25 10:50:00.56	190.81	7.55	-46.9	-57.7	4.1	1.48e+00	0	39	104	0	65	12399
2026-01-25 10:50:01.55	190.87	7.63	-46.4	-54.3	6.1	5.52e-01	0	39	0	0	64	8880
2026-01-25 10:50:02.54	190.93	7.70	-45.6	-51.4	8.9	6.76e-02	0	40	0	0	63	6767
2026-01-25 10:50:03.54	190.99	7.78	-44.6	-49.0	11.4	2.46e-03	0	39	0	0	61	5732
2026-01-25 10:50:04.53	191.05	7.85	-43.7	-47.2	13.2	4.50e-05	0	39	0	0	59	5243
2026-01-25 10:50:05.53	191.11	7.92	-42.7	-45.7	14.7	7.00e-07	0	39	0	0	57	4963
2026-01-25 10:50:06.52	191.17	8.00	-41.7	-44.4	15.9	0.00e+00	0	39	0	0	55	4769
2026-01-25 10:50:07.52	191.24	8.07	-41.2	-43.7	16.6	0.00e+00	0	40	0	0	54	4654
2026-01-25 10:50:08.51	191.30	8.15	-40.6	-43.0	17.2	0.00e+00	0	39	0	0	53	4553
2026-01-25 10:50:09.50	191.36	8.22	-40.6	-42.9	17.3	0.00e+00	0	40	0	0	53	4505
2026-01-25 10:50:10.50	191.42	8.30	-40.6	-42.9	17.3	0.00e+00	0	40	0	0	53	4497
2026-01-25 10:50:11.49	191.48	8.37	-40.8	-43.1	17.1	0.00e+00	0	39	0	0	53	4622
2026-01-25 10:50:12.48	191.55	8.45	-41.2	-43.6	16.6	0.00e+00	0	39	0	0	53	4916
2026-01-25 10:50:13.48	191.61	8.52	-41.7	-44.4	15.9	0.00e+00	0	39	0	0	54	5066
2026-01-25 10:50:14.47	191.68	8.60	-42.4	-45.3	14.9	0.00e+00	0	40	0	0	55	5339
2026-01-25 10:50:15.46	191.74	8.68	-43.4	-46.7	13.7	7.00e-07	0	40	0	0	57	5552
2026-01-25 10:50:16.46	191.80	8.75	-44.2	-48.1	12.3	6.40e-05	0	40	0	0	59	5811
2026-01-25 10:50:17.45	191.87	8.83	-44.9	-49.6	10.8	1.49e-03	0	40	0	0	60	6514
2026-01-25 10:50:18.44	191.93	8.91	-45.5	-51.2	9.1	1.59e-02	0	39	0	0	61	7451
2026-01-25 10:50:19.44	192.00	8.98	-46.1	-52.9	7.5	8.72e-02	0	40	0	0	62	8481
2026-01-25 10:50:20.43	192.07	9.06	-46.2	-53.5	6.9	2.05e-01	0	40	0	0	63	8617
2026-01-25 10:50:21.43	192.13	9.14	-45.2	-50.5	9.7	7.08e-02	0	40	0	0	62	6458
2026-01-25 10:50:22.42	192.20	9.22	-45.3	-50.7	9.8	3.16e-04	0	40	0	0	61	7034
2026-01-25 10:50:23.42	192.27	9.29	-46.6	-55.9	5.0	1.08e+00	0	39	104	0	64	10697
2026-01-25 10:50:24.42	192.33	9.37	-44.7	-49.2	11.0	2.87e-02	0	40	0	0	61	5917
2026-01-25 10:50:25.41	192.40	9.45	-43.7	-47.2	13.3	1.98e-05	0	39	0	0	58	5543
2026-01-25 10:50:26.41	192.47	9.53	-43.5	-46.9	13.6	7.60e-06	0	40	0	0	58	5400
2026-01-25 10:50:27.40	192.54	9.61	-43.2	-46.4	14.3	1.50e-06	0	40	0	0	57	5342
2026-01-25 10:50:28.40	192.61	9.69	-43.0	-46.0	14.5	1.50e-06	0	40	0	0	57	5121
2026-01-25 10:50:29.47	192.68	9.77	-43.1	-46.2	14.3	0.00e+00	0	40	0	0	57	5241
2026-01-25 10:50:30.33	192.74	9.84	-42.9	-45.8	14.6	0.00e+00	0	39	0	0	57	5013
2026-01-25 10:50:31.68	192.83	9.95	-42.9	-45.8	14.6	0.00e+00	0	40	0	0	57	4994
2026-01-25 10:50:32.39	192.88	10.01	-42.7	-45.5	14.9	7.00e-07	0	40	0	0	57	4867
2026-01-25 10:50:33.67	192.97	10.11	-42.4	-45.0	15.4	0.00e+00	0	40	0	0	56	4868
2026-01-25 10:50:34.40	193.03	10.17	-42.4	-45.1	15.4	0.00e+00	0	40	0	0	56	4878
2026-01-25 10:50:35.68	193.12	10.27	-42.4	-45.0	15.4	0.00e+00	0	40	0	0	56	4854
2026-01-25 10:50:36.42	193.17	10.33	-41.8	-44.2	16.0	0.00e+00	0	40	0	0	55	4688
2026-01-25 10:50:37.70	193.26	10.44	-41.8	-44.2	16.1	0.00e+00	0	40	0	0	55	4694
2026-01-25 10:50:38.48	193.32	10.50	-41.8	-44.3	16.0	0.00e+00	0	40	0	0	55	4732
2026-01-25 10:50:39.76	193.41	10.61	-41.9	-44.4	15.9	0.00e+00	0	39	0	0	55	4795
2026-01-25 10:50:40.47	193.47	10.66	-41.6	-44.0	16.3	0.00e+00	0	40	0	0	54	4869
2026-01-25 10:50:41.74	193.56	10.77	-41.3	-43.7	16.6	0.00e+00	0	40	0	0	54	4652
2026-01-25 10:50:42.47	193.61	10.83	-41.4	-43.8	16.5	0.00e+00	0	40	0	0	54	4721
2026-01-25 10:50:43.75	193.71	10.94	-41.3	-43.6	16.7	0.00e+00	0	40	0	0	54	4622
2026-01-25 10:50:44.70	193.78	11.02	-41.1	-43.3	16.8	0.00e+00	0	40	0	0	54	4492
2026-01-25 10:50:45.69	193.86	11.10	-41.5	-43.8	16.4	0.00e+00	0	39	0	0	54	4739
2026-01-25 10:50:46.69	193.93	11.18	-41.4	-43.8	16.5	0.00e+00	0	40	0	0	54	4732
2026-01-25 10:50:47.69	194.01	11.27	-41.2	-43.5	16.6	0.00e+00	0	40	0	0	54	4558
2026-01-25 10:50:48.68	194.09	11.35	-41.4	-43.7	16.5	0.00e+00	0	40	0	0	54	4694
2026-01-25 10:50:49.68	194.16	11.43	-40.9	-43.1	17.0	0.00e+00	0	40	0	0	53	4635
2026-01-25 10:50:50.67	194.24	11.52	-40.8	-43.0	17.1	0.00e+00	0	40	0	0	53	4570
2026-01-25 10:50:51.66	194.32	11.60	-40.7	-43.0	17.2	0.00e+00	0	40	0	0	53	4549
2026-01-25 10:50:52.66	194.40	11.69	-40.4	-42.5	17.6	0.00e+00	0	40	0	0	52	4568
2026-01-25 10:50:53.75	194.48	11.78	-40.5	-42.7	17.4	0.00e+00	0	40	0	0	52	4659
2026-01-25 10:50:54.60	194.55	11.85	-40.1	-42.3	17.8	0.00e+00	0	40	0	0	52	4446
2026-01-25 10:50:55.74	194.64	11.95	-40.0	-42.1	18.0	0.00e+00	0	39	0	0	51	4606
2026-01-25 10:50:56.70	194.72	12.03	-40.1	-42.1	18.0	0.00e+00	0	40	0	0	51	4634
2026-01-25 10:50:57.87	194.81	12.13	-39.9	-42.0	18.1	0.00e+00	0	40	0	0	51	4552
2026-01-25 10:50:58.76	194.88	12.21	-39.8	-41.8	18.4	0.00e+00	0	40	0	0	51	4463
2026-01-25 10:51:00.07	194.99	12.33	-39.7	-41.6	18.6	0.00e+00	0	40	0	0	51	4367
2026-01-25 10:51:00.78	195.05	12.39	-39.7	-41.6	18.6	0.00e+00	0	40	0	0	51	4378
2026-01-25 10:51:02.06	195.16	12.50	-39.8	-41.7	18.5	0.00e+00	0	40	0	0	51	4439
2026-01-25 10:51:02.79	195.22	12.56	-39.7	-41.6	18.6	0.00e+00	0	40	0	0	51	4359
2026-01-25 10:51:04.06	195.32	12.68	-39.3	-41.2	18.9	0.00e+00	0	40	0	0	50	4412
2026-01-25 10:51:04.79	195.38	12.74	-39.3	-41.1	19.0	0.00e+00	0	40	0	0	50	4382
2026-01-25 10:51:06.07	195.49	12.85	-39.3	-41.2	18.9	0.00e+00	0	40	0	0	50	4408
2026-01-25 10:51:06.78	195.55	12.92	-39.2	-41.1	19.0	0.00e+00	0	40	0	0	50	4363
2026-01-25 10:51:08.06	195.66	13.03	-39.1	-41.0	18.7	0.00e+00	0	40	0	0	50	4330
2026-01-25 10:51:08.78	195.72	13.09	-39.1	-41.0	18.5	0.00e+00	0	40	0	0	50	4332
2026-01-25 10:51:10.06	195.84	13.21	-38.9	-41.0	17.4	0.00e+00	0	40	0	0	49	4586
2026-01-25 10:51:10.77	195.90	13.27	-38.7	-41.0	16.1	0.00e+00	0	40	0	0	49	4590
2026-01-25 10:51:12.05	196.01	13.39	-38.5	-40.9	15.5	0.00e+00	0	40	0	0	48	4802
2026-01-25 10:51:12.79	196.07	13.46	-38.4	-40.9	15.0	0.00e+00	0	40	0	0	48	4803
2026-01-25 10:51:14.15	196.20	13.58	-37.4	-40.7	12.3	2.21e-05	0	39	0	0	46	5258
2026-01-25 10:51:14.86	196.26	13.64	-36.6	-40.6	10.6	1.50e-03	0	39	0	0	45	5477
2026-01-25 10:51:16.13	196.37	13.76	-36.0	-40.6	9.4	1.33e-02	0	40	0	0	44	5801
2026-01-25 10:51:17.17	196.47	13.86	-35.3	-40.4	8.4	3.94e-02	0	40	0	0	42	6353
2026-01-25 10:51:18.45	196.58	13.97	-34.5	-40.1	7.4	1.04e-01	0	40	0	0	40	6949
2026-01-25 10:51:19.16	196.65	14.04	-34.0	-40.0	7.0	1.41e-01	0	40	0	0	40	6838
2026-01-25 10:51:20.44	196.77	14.16	-34.1	-40.0	6.9	1.65e-01	0	40	0	0	39	7273
2026-01-25 10:51:21.15	196.83	14.22	-34.0	-40.1	6.9	1.52e-01	0	40	0	0	39	7296
2026-01-25 10:51:22.43	196.95	14.34	-37.0	-47.1	4.1	1.45e+00	0	40	104	0	44	12269
2026-01-25 10:51:23.14	197.02	14.41	-43.1	-54.1	3.9	1.49e+00	0	40	104	0	58	12354
2026-01-25 10:51:24.42	197.14	14.53	-34.0	-44.8	3.9	1.49e+00	0	40	104	0	40	11835
2026-01-25 10:51:25.16	197.21	14.60	-37.6	-44.1	6.3	3.22e-01	0	40	0	0	45	8226
2026-01-25 10:51:26.44	197.33	14.72	-37.8	-43.8	7.0	2.49e-01	0	40	0	0	46	7502
2026-01-25 10:51:27.16	197.40	14.79	-38.5	-44.0	7.7	1.28e-01	0	40	0	0	47	7224
2026-01-25 10:51:28.44	197.52	14.91	-40.3	-43.0	14.3	2.51e-05	0	40	0	0	51	5158
2026-01-25 10:51:29.18	197.60	14.98	-40.3	-42.5	16.9	0.00e+00	0	40	0	0	51	4835
2026-01-25 10:51:30.46	197.72	15.10	-39.9	-42.0	17.3	0.00e+00	0	40	0	0	51	4572
2026-01-25 10:51:31.19	197.79	15.17	-40.0	-42.1	17.1	0.00e+00	0	40	0	0	51	4640
2026-01-25 10:51:32.47	197.92	15.29	-39.9	-42.1	17.2	0.00e+00	0	40	0	0	51	4599
2026-01-25 10:51:33.18	197.99	15.36	-39.7	-41.7	17.7	0.00e+00	0	40	0	0	51	4431
2026-01-25 10:51:34.73	198.15	15.51	-39.6	-41.6	18.3	0.00e+00	0	40	0	0	51	4367
2026-01-25 10:51:35.44	198.22	15.58	-39.7	-41.7	18.4	0.00e+00	0	40	0	0	51	4401
2026-01-25 10:51:36.72	198.35	15.71	-39.5	-41.4	18.8	0.00e+00	0	40	0	0	51	4243
2026-01-25 10:51:37.43	198.42	15.78	-39.4	-41.3	18.8	0.00e+00	0	40	0	0	50	4457
2026-01-25 10:51:38.71	198.55	15.90	-39.4	-41.3	18.8	0.00e+00	0	40	0	0	50	4445
2026-01-25 10:51:39.42	198.63	15.97	-39.5	-41.4	18.7	0.00e+00	0	40	0	0	50	4505
2026-01-25 10:51:40.70	198.76	16.10	-39.5	-41.4	18.7	0.00e+00	0	40	0	0	50	4521
2026-01-25 10:51:41.42	198.84	16.17	-39.5	-41.4	18.7	0.00e+00	0	40	0	0	50	4508
2026-01-25 10:51:42.70	198.97	16.30	-39.6	-41.4	18.7	0.00e+00	0	40	0	0	50	4531
2026-01-25 10:51:43.49	199.06	16.37	-39.6	-41.5	18.6	0.00e+00	0	40	0	0	50	4573
2026-01-25 10:51:44.77	199.19	16.50	-39.8	-41.7	18.5	0.00e+00	0	40	0	0	50	4672
2026-01-25 10:51:45.49	199.27	16.57	-39.7	-41.6	18.6	0.00e+00	0	40	0	0	50	4638
2026-01-25 10:51:46.77	199.41	16.70	-39.8	-41.6	18.7	0.00e+00	0	40	0	0	50	4646
2026-01-25 10:51:47.48	199.49	16.77	-39.8	-41.7	18.6	0.00e+00	0	40	0	0	50	4665
2026-01-25 10:51:48.76	199.63	16.90	-39.7	-41.5	18.7	0.00e+00	0	40	0	0	50	4591
2026-01-25 10:51:49.47	199.71	16.98	-39.7	-41.6	18.7	0.00e+00	0	40	0	0	50	4621
2026-01-25 10:51:50.75	199.85	17.11	-39.7	-41.6	18.6	0.00e+00	0	40	0	0	50	4605
2026-01-25 10:51:51.48	199.93	17.18	-39.6	-41.5	18.6	0.00e+00	0	40	0	0	50	4573
2026-01-25 10:51:52.76	200.07	17.31	-39.7	-41.6	18.6	0.00e+00	0	40	0	0	50	4624
2026-01-25 10:51:53.48	200.16	17.39	-39.7	-41.6	18.6	0.00e+00	0	40	0	0	50	4642
2026-01-25 10:51:54.76	200.30	17.52	-39.7	-41.6	18.7	0.00e+00	0	40	0	0	50	4610
2026-01-25 10:51:55.47	200.38	17.59	-39.8	-41.7	18.6	0.00e+00	0	40	0	0	50	4660
2026-01-25 10:51:56.75	200.53	17.72	-39.6	-41.5	18.7	0.00e+00	0	40	0	0	50	4583
2026-01-25 10:51:57.48	200.62	17.80	-39.7	-41.6	18.6	0.00e+00	0	40	0	0	50	4647
2026-01-25 10:51:58.76	200.77	17.93	-39.8	-41.7	18.5	0.00e+00	0	40	0	0	50	4692
2026-01-25 10:51:59.47	200.85	18.01	-39.8	-41.7	18.6	0.00e+00	0	40	0	0	50	4681
2026-01-25 10:52:00.74	201.00	18.14	-39.9	-41.9	18.4	0.00e+00	0	40	0	0	50	4760
2026-01-25 10:52:01.49	201.09	18.22	-39.8	-41.7	18.6	0.00e+00	0	39	0	0	50	4705
2026-01-25 10:52:02.77	201.25	18.36	-39.7	-41.6	18.7	0.00e+00	0	40	0	0	50	4623
2026-01-25 10:52:03.62	201.35	18.45	-39.7	-41.6	18.7	0.00e+00	0	40	0	0	50	4604
2026-01-25 10:52:04.76	201.49	18.57	-39.6	-41.5	18.8	0.00e+00	0	39	0	0	50	4549
2026-01-25 10:52:05.85	201.62	18.68	-39.6	-41.4	18.8	0.00e+00	0	40	0	0	50	4545
2026-01-25 10:52:06.70	201.73	18.78	-39.6	-41.4	18.8	0.00e+00	0	40	0	0	50	4531
2026-01-25 10:52:07.84	201.87	18.90	-39.6	-41.4	18.9	0.00e+00	0	39	0	0	50	4510
2026-01-25 10:52:08.70	201.98	18.99	-39.4	-41.2	19.0	0.00e+00	0	40	0	0	50	4432
2026-01-25 10:52:09.83	202.12	19.11	-39.3	-41.1	19.2	0.00e+00	0	40	0	0	50	4347
2026-01-25 10:52:10.69	202.23	19.21	-39.2	-41.0	19.3	0.00e+00	0	40	0	0	50	4299
2026-01-25 10:52:11.90	202.39	19.34	-39.3	-41.1	17.9	0.00e+00	0	40	0	0	50	4348
2026-01-25 10:52:12.76	202.50	19.43	-39.3	-41.0	19.2	0.00e+00	0	39	0	0	50	4324
2026-01-25 10:52:13.99	202.66	19.57	-39.1	-40.9	19.4	0.00e+00	0	40	0	0	50	4263
2026-01-25 10:52:14.84	202.77	19.66	-39.2	-40.9	19.4	0.00e+00	0	40	0	0	50	4284
2026-01-25 10:52:15.98	202.92	19.79	-39.1	-40.8	19.4	0.00e+00	0	40	0	0	50	4216
2026-01-25 10:52:16.83	203.03	19.88	-39.0	-40.7	19.5	0.00e+00	0	40	0	0	50	4176
2026-01-25 10:52:17.97	203.19	20.01	-38.8	-40.5	19.7	0.00e+00	0	40	0	0	49	4329
2026-01-25 10:52:18.82	203.30	20.10	-38.7	-40.4	19.8	0.00e+00	0	40	0	0	49	4283
2026-01-25 10:52:19.96	203.46	20.23	-38.6	-40.3	19.9	0.00e+00	0	40	0	0	49	4207
2026-01-25 10:52:20.81	203.57	20.32	-38.6	-40.3	19.9	0.00e+00	0	40	0	0	49	4208
2026-01-25 10:52:21.94	203.73	20.45	-38.5	-40.2	20.0	0.00e+00	0	40	0	0	49	4164
2026-01-25 10:52:22.80	203.85	20.55	-38.3	-40.0	20.1	0.00e+00	0	40	0	0	48	4309
2026-01-25 10:52:23.94	204.01	20.68	-38.4	-40.1	20.0	0.00e+00	0	40	0	0	48	4366
2026-01-25 10:52:24.79	204.13	20.77	-38.4	-40.1	20.1	0.00e+00	0	40	0	0	48	4347
2026-01-25 10:52:25.92	204.29	20.90	-38.3	-39.9	20.2	0.00e+00	0	40	0	0	48	4288
2026-01-25 10:52:26.78	204.41	21.00	-38.2	-39.9	20.2	0.00e+00	0	40	0	0	48	4274
2026-01-25 10:52:27.91	204.57	21.13	-38.2	-39.9	20.2	0.00e+00	0	40	0	0	48	4254
2026-01-25 10:52:28.76	204.69	21.23	-38.2	-39.9	20.2	0.00e+00	0	40	0	0	48	4263
2026-01-25 10:52:29.90	204.86	21.36	-38.2	-39.8	20.3	0.00e+00	0	40	0	0	48	4236
2026-01-25 10:52:30.75	204.99	21.45	-38.2	-39.8	20.3	0.00e+00	0	40	0	0	48	4219
2026-01-25 10:52:31.89	205.15	21.59	-38.1	-39.8	20.3	0.00e+00	0	40	0	0	48	4218
2026-01-25 10:52:32.74	205.28	21.68	-38.1	-39.8	20.3	0.00e+00	0	40	0	0	48	4204
2026-01-25 10:52:33.88	205.45	21.82	-38.0	-39.7	20.4	0.00e+00	0	40	0	0	48	4160
2026-01-25 10:52:34.73	205.58	21.92	-37.9	-39.5	20.4	0.00e+00	0	40	0	0	47	4328
2026-01-25 10:52:36.09	205.79	22.08	-37.9	-39.5	20.4	0.00e+00	0	40	0	0	47	4320
2026-01-25 10:52:36.80	205.90	22.16	-37.8	-39.5	20.4	0.00e+00	0	40	0	0	47	4292
2026-01-25 10:52:38.08	206.09	22.31	-37.8	-39.4	20.5	0.00e+00	0	40	0	0	47	4265
2026-01-25 10:52:38.79	206.21	22.39	-37.7	-39.3	20.5	0.00e+00	0	39	0	0	47	4221
2026-01-25 10:52:40.07	206.41	22.55	-37.6	-39.2	20.6	0.00e+00	0	40	0	0	47	4190
2026-01-25 10:52:40.78	206.52	22.63	-37.6	-39.2	20.6	0.00e+00	0	40	0	0	47	4180
2026-01-25 10:52:42.06	206.72	22.78	-37.6	-39.3	20.6	0.00e+00	0	40	0	0	47	4203
2026-01-25 10:52:42.80	206.84	22.87	-37.8	-39.4	20.5	0.00e+00	0	40	0	0	47	4283
2026-01-25 10:52:44.08	207.05	23.02	-37.8	-39.4	20.5	0.00e+00	0	40	0	0	47	4288
2026-01-25 10:52:44.81	207.17	23.11	-37.8	-39.4	20.5	0.00e+00	0	40	0	0	47	4267
2026-01-25 10:52:46.08	207.38	23.26	-37.7	-39.3	20.7	0.00e+00	0	40	0	0	47	4238
2026-01-25 10:52:47.10	207.54	23.39	-37.7	-39.4	20.7	0.00e+00	0	40	0	0	47	4243
2026-01-25 10:52:48.09	207.71	23.51	-37.7	-39.4	20.7	0.00e+00	0	40	0	0	47	4248
2026-01-25 10:52:49.09	207.88	23.63	-37.7	-39.4	20.7	0.00e+00	0	40	0	0	47	4243
2026-01-25 10:52:50.08	208.05	23.75	-37.7	-39.3	20.7	0.00e+00	0	40	0	0	47	4238
2026-01-25 10:52:51.08	208.22	23.87	-37.8	-39.4	20.6	0.00e+00	0	40	0	0	47	4284
2026-01-25 10:52:52.07	208.39	23.99	-37.9	-39.5	20.5	0.00e+00	0	39	0	0	47	4338
2026-01-25 10:52:53.07	208.56	24.12	-37.9	-39.5	20.5	0.00e+00	0	40	0	0	47	4333
2026-01-25 10:52:54.06	208.73	24.24	-37.9	-39.6	20.5	0.00e+00	0	40	0	0	47	4343
2026-01-25 10:52:55.06	208.91	24.36	-38.0	-39.7	20.2	0.00e+00	0	40	0	0	47	4429
2026-01-25 10:52:56.05	209.08	24.48	-38.1	-39.8	20.3	0.00e+00	0	40	0	0	47	4459
2026-01-25 10:52:57.04	209.26	24.61	-38.2	-39.9	20.2	0.00e+00	0	40	0	0	47	4515
2026-01-25 10:52:58.04	209.44	24.73	-38.2	-39.9	20.2	0.00e+00	0	40	0	0	47	4507
2026-01-25 10:52:59.03	209.62	24.85	-38.2	-39.9	20.2	0.00e+00	0	40	0	0	47	4500
2026-01-25 10:53:00.03	209.80	24.98	-38.2	-40.0	20.2	0.00e+00	0	40	0	0	47	4548
2026-01-25 10:53:01.02	209.98	25.10	-38.3	-40.0	20.2	0.00e+00	0	40	0	0	47	4553
2026-01-25 10:53:02.01	210.17	25.23	-38.3	-40.0	20.1	0.00e+00	0	40	0	0	47	4594
2026-01-25 10:53:03.01	210.36	25.35	-38.4	-40.1	20.1	0.00e+00	0	40	0	0	47	4624
2026-01-25 10:53:04.00	210.54	25.48	-38.3	-40.0	20.2	0.00e+00	0	40	0	0	47	4580
2026-01-25 10:53:05.00	210.73	25.60	-38.3	-40.0	20.2	0.00e+00	0	40	0	0	47	4565
2026-01-25 10:53:05.99	210.92	25.73	-38.4	-40.1	20.1	0.00e+00	0	40	0	0	47	4612
2026-01-25 10:53:06.99	211.11	25.85	-38.3	-40.0	20.2	0.00e+00	0	40	0	0	47	4597
2026-01-25 10:53:07.99	211.31	25.98	-38.3	-40.0	20.2	0.00e+00	0	40	0	0	47	4576
2026-01-25 10:53:08.98	211.50	26.11	-38.5	-40.2	20.0	0.00e+00	0	40	0	0	47	4664
2026-01-25 10:53:09.98	211.70	26.23	-38.5	-40.2	19.9	0.00e+00	0	40	0	0	47	4704
2026-01-25 10:53:10.97	211.90	26.36	-38.5	-40.2	19.9	0.00e+00	0	40	0	0	47	4682
2026-01-25 10:53:11.97	212.10	26.49	-38.6	-40.3	19.8	0.00e+00	0	40	0	0	47	4732
2026-01-25 10:53:12.96	212.30	26.62	-38.6	-40.4	19.7	0.00e+00	0	39	0	0	47	4764
2026-01-25 10:53:13.96	212.50	26.74	-38.8	-40.5	19.8	0.00e+00	0	40	0	0	48	4571
2026-01-25 10:53:14.95	212.70	26.87	-38.9	-40.6	19.7	0.00e+00	0	40	0	0	48	4618
2026-01-25 10:53:15.95	212.91	27.00	-38.9	-40.6	19.7	0.00e+00	0	40	0	0	48	4645
2026-01-25 10:53:16.94	213.12	27.13	-39.2	-41.0	19.4	0.00e+00	0	40	0	0	49	4566
2026-01-25 10:53:17.94	213.33	27.26	-39.4	-41.2	19.3	0.00e+00	0	40	0	0	49	4669
2026-01-25 10:53:18.93	213.54	27.39	-39.4	-41.2	19.3	0.00e+00	0	39	0	0	49	4683
2026-01-25 10:53:19.93	213.75	27.51	-39.5	-41.3	19.2	0.00e+00	0	40	0	0	49	4741
2026-01-25 10:53:20.97	213.98	27.65	-39.5	-41.3	19.2	0.00e+00	0	40	0	0	49	4740
2026-01-25 10:53:21.92	214.18	27.77	-39.5	-41.3	19.2	0.00e+00	0	40	0	0	49	4719
2026-01-25 10:53:22.91	214.40	27.90	-39.6	-41.4	19.1	0.00e+00	0	40	0	0	49	4799
2026-01-25 10:53:23.91	214.62	28.03	-39.6	-41.4	19.1	0.00e+00	0	39	0	0	49	4786
2026-01-25 10:53:24.90	214.84	28.16	-39.7	-41.5	19.1	0.00e+00	0	40	0	0	50	4573
2026-01-25 10:53:25.90	215.06	28.29	-39.6	-41.5	19.1	0.00e+00	0	39	0	0	50	4546
2026-01-25 10:53:26.89	215.29	28.42	-39.7	-41.5	19.1	0.00e+00	0	40	0	0	50	4576
2026-01-25 10:53:27.89	215.51	28.55	-39.7	-41.5	19.0	0.00e+00	0	40	0	0	50	4594
2026-01-25 10:53:28.88	215.74	28.68	-39.6	-41.4	19.2	0.00e+00	0	40	0	0	50	4527
2026-01-25 10:53:29.88	215.97	28.81	-39.5	-41.3	19.2	0.00e+00	0	39	0	0	50	4484
2026-01-25 10:53:30.87	216.20	28.94	-39.5	-41.3	19.2	0.00e+00	0	39	0	0	50	4484
2026-01-25 10:53:31.86	216.44	29.07	-39.5	-41.3	19.3	0.00e+00	0	39	0	0	50	4445
2026-01-25 10:53:32.86	216.67	29.21	-39.4	-41.2	19.4	0.00e+00	0	40	0	0	50	4402
2026-01-25 10:53:33.85	216.91	29.34	-39.4	-41.2	19.4	0.00e+00	0	40	0	0	50	4425
2026-01-25 10:53:34.86	217.15	29.47	-39.3	-41.1	19.5	0.00e+00	0	40	0	0	50	4376
2026-01-25 10:53:35.88	217.40	29.60	-39.2	-40.9	19.6	0.00e+00	0	40	0	0	50	4285
2026-01-25 10:53:36.87	217.64	29.73	-39.1	-40.8	19.7	0.00e+00	0	40	0	0	50	4241
2026-01-25 10:53:37.96	217.91	29.88	-39.1	-40.8	19.8	0.00e+00	0	40	0	0	50	4227
2026-01-25 10:53:38.85	218.13	30.00	-39.2	-40.9	19.7	0.00e+00	0	40	0	0	50	4286
2026-01-25 10:53:39.99	218.42	30.15	-39.2	-40.9	19.7	0.00e+00	0	39	0	0	50	4273
2026-01-25 10:53:40.84	218.63	30.26	-39.2	-41.0	19.6	0.00e+00	0	40	0	0	50	4293
2026-01-25 10:53:41.98	218.92	30.41	-39.2	-40.9	19.7	0.00e+00	0	40	0	0	50	4275
2026-01-25 10:53:42.84	219.14	30.52	-39.2	-40.9	19.7	0.00e+00	0	40	0	0	50	4271
2026-01-25 10:53:43.97	219.43	30.67	-39.1	-40.8	19.8	0.00e+00	0	40	0	0	50	4237
2026-01-25 10:53:44.82	219.66	30.78	-39.0	-40.7	19.9	0.00e+00	0	40	0	0	49	4407
2026-01-25 10:53:45.96	219.96	30.93	-38.9	-40.6	20.0	0.00e+00	0	39	0	0	49	4379
2026-01-25 10:53:46.82	220.18	31.05	-39.0	-40.7	19.9	0.00e+00	0	40	0	0	49	4425
2026-01-25 10:53:47.95	220.49	31.20	-39.0	-40.7	19.9	0.00e+00	0	40	0	0	49	4433
2026-01-25 10:53:48.81	220.72	31.31	-39.0	-40.7	19.9	0.00e+00	0	40	0	0	49	4438
2026-01-25 10:53:49.94	221.02	31.46	-39.0	-40.7	20.0	0.00e+00	0	39	0	0	49	4439
2026-01-25 10:53:50.80	221.26	31.57	-39.0	-40.7	19.9	0.00e+00	0	40	0	0	49	4429
2026-01-25 10:53:52.01	221.59	31.73	-39.0	-40.7	19.9	0.00e+00	0	40	0	0	49	4423
2026-01-25 10:53:52.87	221.83	31.84	-39.1	-40.8	19.8	0.00e+00	0	40	0	0	49	4479
2026-01-25 10:53:54.05	222.16	32.00	-39.2	-41.0	19.7	0.00e+00	0	40	0	0	49	4554
2026-01-25 10:53:54.91	222.40	32.11	-39.4	-41.2	19.5	0.00e+00	0	40	0	0	49	4661
2026-01-25 10:53:56.04	222.73	32.26	-39.6	-41.4	19.3	0.00e+00	0	40	0	0	49	4765
2026-01-25 10:53:56.90	222.97	32.37	-39.7	-41.5	19.1	0.00e+00	0	40	0	0	50	4589
2026-01-25 10:53:58.03	223.30	32.52	-39.7	-41.5	19.2	0.00e+00	0	40	0	0	50	4561
2026-01-25 10:53:58.88	223.55	32.63	-39.7	-41.4	19.2	0.00e+00	0	40	0	0	50	4542
2026-01-25 10:54:00.02	223.88	32.78	-39.6	-41.4	19.3	0.00e+00	0	40	0	0	50	4528
2026-01-25 10:54:00.87	224.13	32.89	-39.6	-41.4	19.3	0.00e+00	0	40	0	0	50	4516
2026-01-25 10:54:02.01	224.47	33.03	-39.6	-41.4	19.4	0.00e+00	0	40	0	0	50	4514
2026-01-25 10:54:02.86	224.73	33.14	-39.7	-41.4	19.4	0.00e+00	0	40	0	0	50	4531
2026-01-25 10:54:04.00	225.08	33.29	-39.8	-41.6	19.2	0.00e+00	0	39	0	0	50	4614
2026-01-25 10:54:04.85	225.34	33.40	-39.8	-41.6	19.1	0.00e+00	0	39	0	0	50	4630
2026-01-25 10:54:06.00	225.69	33.55	-40.0	-41.8	18.9	0.00e+00	0	39	0	0	50	4750
2026-01-25 10:54:06.86	225.96	33.66	-40.0	-41.9	18.9	0.00e+00	0	40	0	0	50	4763
2026-01-25 10:54:07.99	226.31	33.80	-40.0	-41.9	18.9	0.00e+00	0	40	0	0	50	4773
2026-01-25 10:54:08.85	226.58	33.91	-40.1	-42.0	18.8	0.00e+00	0	40	0	0	50	4838
2026-01-25 10:54:10.11	226.98	34.07	-40.2	-42.0	18.8	0.00e+00	0	40	0	0	50	4837
2026-01-25 10:54:10.91	227.24	34.17	-40.2	-42.0	18.8	0.00e+00	0	40	0	0	51	4595
2026-01-25 10:54:12.05	227.60	34.31	-40.4	-42.3	18.6	0.00e+00	0	40	0	0	51	4717
2026-01-25 10:54:12.90	227.88	34.42	-40.5	-42.3	18.5	0.00e+00	0	40	0	0	51	4758
2026-01-25 10:54:14.04	228.25	34.56	-40.5	-42.4	18.5	0.00e+00	0	40	0	0	51	4796
2026-01-25 10:54:14.89	228.53	34.67	-40.5	-42.4	18.5	0.00e+00	0	40	0	0	51	4789
2026-01-25 10:54:16.03	228.91	34.81	-40.4	-42.3	18.7	0.00e+00	0	39	0	0	51	4746
2026-01-25 10:54:16.88	229.20	34.91	-40.5	-42.3	18.6	0.00e+00	0	39	0	0	51	4757
2026-01-25 10:54:18.01	229.58	35.05	-40.3	-42.2	18.7	0.00e+00	0	39	0	0	51	4677
2026-01-25 10:54:18.87	229.87	35.15	-40.4	-42.3	18.6	0.00e+00	0	39	0	0	51	4745
2026-01-25 10:54:20.01	230.26	35.29	-40.5	-42.4	18.5	0.00e+00	0	40	0	0	51	4809
2026-01-25 10:54:20.86	230.55	35.39	-40.6	-42.6	18.3	0.00e+00	0	40	0	0	52	4599
2026-01-25 10:54:21.99	230.94	35.53	-40.5	-42.4	18.4	0.00e+00	0	39	0	0	52	4529
2026-01-25 10:54:22.85	231.24	35.63	-40.6	-42.5	18.3	0.00e+00	0	39	0	0	52	4554
2026-01-25 10:54:24.00	231.65	35.76	-40.6	-42.5	18.4	0.00e+00	0	40	0	0	52	4563
2026-01-25 10:54:24.85	231.95	35.86	-40.6	-42.5	18.4	0.00e+00	0	39	0	0	52	4564
2026-01-25 10:54:25.99	232.36	36.00	-40.8	-42.7	18.2	0.00e+00	0	39	0	0	52	4667
2026-01-25 10:54:26.84	232.66	36.10	-40.8	-42.7	18.2	0.00e+00	0	40	0	0	52	4701
2026-01-25 10:54:28.12	233.13	36.24	-40.9	-42.8	18.1	0.00e+00	0	39	0	0	52	4751
2026-01-25 10:54:29.25	233.54	36.37	-40.7	-42.6	18.3	0.00e+00	0	39	0	0	52	4625
2026-01-25 10:54:30.11	233.86	36.47	-40.7	-42.6	18.4	0.00e+00	0	39	0	0	52	4602
2026-01-25 10:54:31.24	234.27	36.59	-40.8	-42.7	18.3	0.00e+00	0	39	0	0	52	4660
2026-01-25 10:54:32.10	234.59	36.69	-40.8	-42.8	18.3	0.00e+00	0	39	0	0	52	4714
2026-01-25 10:54:33.23	235.02	36.81	-41.0	-42.9	18.1	0.00e+00	0	39	0	0	52	4791
2026-01-25 10:54:34.09	235.34	36.91	-41.1	-43.1	17.9	0.00e+00	0	39	0	0	52	4893
2026-01-25 10:54:35.22	235.77	37.03	-41.0	-43.0	18.0	0.00e+00	0	39	0	0	52	4826
2026-01-25 10:54:36.07	236.10	37.12	-41.0	-43.0	18.0	0.00e+00	0	40	0	0	52	4823
2026-01-25 10:54:37.31	236.58	37.25	-41.0	-43.0	18.0	0.00e+00	0	39	0	0	52	4816
2026-01-25 10:54:38.16	236.90	37.34	-40.8	-42.7	18.2	0.00e+00	0	39	0	0	52	4658
2026-01-25 10:54:39.30	237.35	37.46	-40.8	-42.7	18.3	0.00e+00	0	40	0	0	52	4654
2026-01-25 10:54:40.15	237.68	37.55	-40.8	-42.7	18.2	0.00e+00	0	39	0	0	52	4688
2026-01-25 10:54:41.29	238.13	37.66	-41.0	-42.9	18.0	0.00e+00	0	39	0	0	52	4773
2026-01-25 10:54:42.14	238.47	37.75	-41.0	-42.9	18.0	0.00e+00	0	39	0	0	52	4794
2026-01-25 10:54:43.48	239.01	37.88	-41.1	-43.1	17.9	0.00e+00	0	40	0	0	52	4883
2026-01-25 10:54:44.19	239.29	37.95	-41.2	-43.2	17.8	0.00e+00	0	39	0	0	52	4927
2026-01-25 10:54:45.66	239.89	38.09	-41.1	-43.1	17.8	0.00e+00	0	40	0	0	53	4624
2026-01-25 10:54:46.37	240.18	38.16	-41.0	-43.0	17.9	0.00e+00	0	40	0	0	53	4566
2026-01-25 10:54:47.65	240.70	38.28	-40.8	-42.7	18.1	0.00e+00	0	40	0	0	53	4435
2026-01-25 10:54:48.66	241.12	38.37	-40.9	-42.8	18.1	0.00e+00	0	39	0	0	53	4458
2026-01-25 10:54:49.96	241.66	38.48	-40.9	-42.8	18.1	0.00e+00	0	40	0	0	53	4465
2026-01-25 10:54:50.70	241.97	38.55	-40.9	-42.9	18.1	0.00e+00	0	40	0	0	53	4498
2026-01-25 10:54:51.98	242.50	38.66	-41.0	-42.9	18.1	0.00e+00	0	39	0	0	53	4537
2026-01-25 10:54:52.70	242.81	38.72	-40.9	-42.8	18.2	0.00e+00	0	39	0	0	53	4467
2026-01-25 10:54:53.98	243.35	38.83	-41.2	-43.2	17.8	0.00e+00	0	40	0	0	53	4660
2026-01-25 10:54:54.69	243.65	38.89	-41.4	-43.4	17.6	0.00e+00	0	40	0	0	53	4778
2026-01-25 10:54:55.97	244.20	38.99	-41.5	-43.6	17.4	0.00e+00	0	39	0	0	53	4879
2026-01-25 10:54:56.68	244.50	39.05	-41.5	-43.5	17.5	0.00e+00	0	40	0	0	53	4848
2026-01-25 10:54:58.04	245.09	39.16	-41.2	-43.2	17.8	0.00e+00	0	39	0	0	53	4673
2026-01-25 10:54:58.75	245.40	39.21	-41.1	-43.1	18.0	0.00e+00	0	40	0	0	53	4610
2026-01-25 10:55:00.03	245.96	39.30	-41.1	-43.0	17.9	0.00e+00	0	39	0	0	53	4597
2026-01-25 10:55:00.75	246.27	39.36	-41.4	-43.4	17.6	0.00e+00	0	39	0	0	53	4769
2026-01-25 10:55:02.02	246.83	39.45	-41.5	-43.5	17.5	0.00e+00	0	40	0	0	53	4870
2026-01-25 10:55:02.74	247.15	39.50	-41.5	-43.5	17.5	0.00e+00	0	40	0	0	53	4840
2026-01-25 10:55:04.01	247.72	39.58	-41.3	-43.2	17.8	0.00e+00	0	39	0	0	53	4701
2026-01-25 10:55:04.72	248.03	39.63	-41.2	-43.1	17.8	0.00e+00	0	39	0	0	53	4644
2026-01-25 10:55:06.00	248.60	39.71	-41.1	-43.0	18.0	0.00e+00	0	39	0	0	53	4578
2026-01-25 10:55:06.71	248.92	39.76	-41.2	-43.1	17.9	0.00e+00	0	40	0	0	53	4641
2026-01-25 10:55:07.99	249.50	39.83	-41.3	-43.3	17.7	0.00e+00	0	39	0	0	53	4739
2026-01-25 10:55:08.70	249.82	39.87	-41.4	-43.4	17.6	0.00e+00	0	39	0	0	53	4812
2026-01-25 10:55:09.98	250.40	39.95	-41.5	-43.5	17.5	0.00e+00	0	39	0	0	53	4867
2026-01-25 10:55:10.70	250.73	39.99	-41.6	-43.6	17.4	0.00e+00	0	39	0	0	53	4919
2026-01-25 10:55:12.02	251.33	40.06	-41.7	-43.7	17.3	0.00e+00	0	40	0	0	54	4700
2026-01-25 10:55:12.73	251.66	40.09	-41.6	-43.7	17.3	0.00e+00	0	40	0	0	54	4677
2026-01-25 10:55:14.01	252.25	40.15	-41.4	-43.4	17.6	0.00e+00	0	40	0	0	54	4516
2026-01-25 10:55:14.72	252.57	40.19	-41.3	-43.3	17.7	0.00e+00	0	40	0	0	54	4467
2026-01-25 10:55:16.00	253.17	40.24	-41.3	-43.2	17.9	0.00e+00	0	39	0	0	54	4424
2026-01-25 10:55:16.71	253.50	40.28	-41.5	-43.5	17.6	0.00e+00	0	39	0	0	54	4574
2026-01-25 10:55:17.99	254.09	40.33	-41.7	-43.8	17.2	0.00e+00	0	39	0	0	54	4738
2026-01-25 10:55:18.70	254.42	40.36	-41.8	-43.9	17.2	0.00e+00	0	39	0	0	54	4768
2026-01-25 10:55:19.98	255.02	40.40	-41.5	-43.5	17.5	0.00e+00	0	40	0	0	54	4589
2026-01-25 10:55:20.71	255.36	40.43	-41.2	-43.2	17.8	0.00e+00	0	39	0	0	54	4413
2026-01-25 10:55:21.98	255.96	40.47	-41.2	-43.1	17.9	0.00e+00	0	39	0	0	54	4388
2026-01-25 10:55:22.71	256.30	40.49	-41.1	-43.1	17.9	0.00e+00	0	40	0	0	54	4347
2026-01-25 10:55:23.99	256.90	40.53	-41.4	-43.4	17.6	0.00e+00	0	39	0	0	54	4526
2026-01-25 10:55:24.70	257.24	40.55	-41.4	-43.3	17.7	0.00e+00	0	40	0	0	54	4486
2026-01-25 10:55:25.98	257.84	40.58	-41.3	-43.2	17.8	0.00e+00	0	39	0	0	54	4435
2026-01-25 10:55:26.70	258.18	40.59	-41.0	-42.9	18.1	0.00e+00	0	40	0	0	54	4285
2026-01-25 10:55:28.06	258.82	40.62	-41.3	-43.2	17.8	0.00e+00	0	39	0	0	54	4430
2026-01-25 10:55:28.77	259.16	40.63	-41.4	-43.4	17.6	0.00e+00	0	39	0	0	54	4501
2026-01-25 10:55:30.05	259.77	40.65	-41.7	-43.7	17.3	0.00e+00	0	39	0	0	54	4679
2026-01-25 10:55:30.79	260.12	40.66	-41.6	-43.7	17.4	0.00e+00	0	39	0	0	54	4660
2026-01-25 10:55:32.18	260.78	40.68	-41.8	-43.9	17.2	0.00e+00	0	39	0	0	54	4796
2026-01-25 10:55:33.18	261.26	40.69	-42.0	-44.2	16.9	0.00e+00	0	39	0	0	54	4933
2026-01-25 10:55:34.17	261.73	40.69	-42.1	-44.2	16.8	0.00e+00	0	39	0	0	54	4958
2026-01-25 10:55:35.17	262.20	40.70	-42.2	-44.4	16.6	0.00e+00	0	39	0	0	55	4766
2026-01-25 10:55:36.16	262.67	40.70	-41.9	-44.1	16.9	0.00e+00	0	39	0	0	55	4608
2026-01-25 10:55:37.16	263.15	40.70	-41.7	-43.8	17.2	0.00e+00	0	39	0	0	55	4476
2026-01-25 10:55:38.15	263.62	40.70	-41.6	-43.7	17.3	0.00e+00	0	39	0	0	55	4412
2026-01-25 10:55:39.15	264.10	40.69	-41.8	-43.9	17.2	0.00e+00	0	40	0	0	55	4502
2026-01-25 10:55:40.15	264.57	40.69	-42.0	-44.1	17.0	0.00e+00	0	39	0	0	55	4634
2026-01-25 10:55:41.14	265.04	40.68	-42.0	-44.1	17.0	0.00e+00	0	39	0	0	55	4606
2026-01-25 10:55:42.14	265.52	40.67	-41.9	-44.0	17.1	0.00e+00	0	39	0	0	55	4552
2026-01-25 10:55:43.13	265.99	40.65	-41.8	-43.9	17.2	0.00e+00	0	39	0	0	55	4498
2026-01-25 10:55:44.13	266.46	40.64	-41.6	-43.7	17.4	0.00e+00	0	39	0	0	55	4418
2026-01-25 10:55:45.12	266.93	40.62	-41.8	-43.9	17.1	0.00e+00	0	39	0	0	55	4531
2026-01-25 10:55:46.12	267.40	40.60	-42.0	-44.1	16.9	0.00e+00	0	39	0	0	55	4614
2026-01-25 10:55:47.11	267.87	40.58	-41.9	-44.0	17.1	0.00e+00	0	39	0	0	55	4554
2026-01-25 10:55:48.11	268.34	40.56	-41.8	-43.8	17.2	0.00e+00	0	39	0	0	55	4481
2026-01-25 10:55:49.10	268.81	40.53	-41.8	-43.9	17.1	0.00e+00	0	39	0	0	55	4500
2026-01-25 10:55:50.10	269.28	40.50	-41.7	-43.7	17.3	0.00e+00	0	39	0	0	55	4435
2026-01-25 10:55:51.09	269.74	40.47	-41.5	-43.6	17.3	0.00e+00	0	40	0	0	55	4353
2026-01-25 10:55:52.09	270.21	40.44	-41.8	-43.9	17.0	0.00e+00	0	39	0	0	55	4543
2026-01-25 10:55:53.08	270.68	40.41	-41.7	-43.8	17.2	0.00e+00	0	39	0	0	55	4454
2026-01-25 10:55:54.08	271.14	40.37	-41.3	-43.2	17.8	0.00e+00	0	39	0	0	54	4439
2026-01-25 10:55:55.07	271.60	40.33	-41.3	-43.3	17.7	0.00e+00	0	40	0	0	54	4450
2026-01-25 10:55:56.06	272.06	40.29	-41.4	-43.3	17.6	0.00e+00	0	39	0	0	54	4484
2026-01-25 10:55:57.15	272.57	40.25	-41.5	-43.5	17.6	0.00e+00	0	39	0	0	54	4550
2026-01-25 10:55:58.04	272.98	40.21	-41.5	-43.5	17.5	0.00e+00	0	39	0	0	54	4574
2026-01-25 10:55:59.18	273.51	40.15	-41.5	-43.5	17.6	0.00e+00	0	39	0	0	54	4562
2026-01-25 10:56:00.03	273.90	40.11	-41.3	-43.3	17.7	0.00e+00	0	40	0	0	54	4463
2026-01-25 10:56:01.17	274.42	40.06	-41.8	-43.8	17.2	0.00e+00	0	39	0	0	54	4747
2026-01-25 10:56:02.02	274.81	40.01	-41.9	-44.0	17.0	0.00e+00	0	39	0	0	54	4857
2026-01-25 10:56:03.16	275.32	39.95	-41.7	-43.7	17.3	0.00e+00	0	39	0	0	54	4694
2026-01-25 10:56:04.01	275.71	39.90	-41.6	-43.6	17.5	0.00e+00	0	39	0	0	54	4612
2026-01-25 10:56:05.15	276.23	39.84	-41.4	-43.4	17.7	0.00e+00	0	40	0	0	54	4511
2026-01-25 10:56:06.00	276.61	39.78	-41.6	-43.6	17.5	0.00e+00	0	39	0	0	54	4628
2026-01-25 10:56:07.14	277.12	39.71	-41.4	-43.4	17.6	0.00e+00	0	39	0	0	54	4527
2026-01-25 10:56:08.29	277.63	39.64	-41.5	-43.6	17.5	0.00e+00	0	39	0	0	54	4624
2026-01-25 10:56:09.32	278.09	39.57	-41.6	-43.6	17.5	0.00e+00	0	39	0	0	54	4622
2026-01-25 10:56:10.31	278.53	39.51	-41.6	-43.6	17.4	0.00e+00	0	40	0	0	54	4625
2026-01-25 10:56:11.31	278.97	39.44	-41.7	-43.7	17.4	0.00e+00	0	40	0	0	54	4679
2026-01-25 10:56:12.30	279.41	39.37	-41.6	-43.6	17.5	0.00e+00	0	39	0	0	54	4643
2026-01-25 10:56:13.30	279.84	39.30	-41.3	-43.3	17.8	0.00e+00	0	39	0	0	54	4454
2026-01-25 10:56:14.29	280.27	39.22	-40.9	-42.7	18.3	0.00e+00	0	39	0	0	53	4431
2026-01-25 10:56:15.29	280.71	39.15	-41.1	-43.0	18.0	0.00e+00	0	39	0	0	53	4590
2026-01-25 10:56:16.28	281.14	39.07	-41.4	-43.4	17.6	0.00e+00	0	39	0	0	53	4811
2026-01-25 10:56:17.28	281.56	38.99	-41.4	-43.4	17.7	0.00e+00	0	39	0	0	53	4766
2026-01-25 10:56:18.27	281.99	38.91	-41.0	-42.9	18.2	0.00e+00	0	39	0	0	53	4509
2026-01-25 10:56:19.27	282.41	38.83	-40.6	-42.4	18.6	0.00e+00	0	39	0	0	53	4262
2026-01-25 10:56:20.26	282.83	38.75	-40.3	-42.1	18.8	0.00e+00	0	39	0	0	52	4371
2026-01-25 10:56:21.26	283.25	38.66	-40.0	-41.8	19.0	0.00e+00	0	39	0	0	52	4231
2026-01-25 10:56:22.25	283.67	38.57	-40.2	-42.0	18.9	0.00e+00	0	39	0	0	52	4325
2026-01-25 10:56:23.24	284.08	38.49	-40.3	-42.1	18.9	0.00e+00	0	39	0	0	52	4348
2026-01-25 10:56:24.24	284.49	38.40	-40.5	-42.3	18.7	0.00e+00	0	40	0	0	52	4467
2026-01-25 10:56:25.44	284.99	38.29	-41.0	-42.9	18.0	0.00e+00	0	39	0	0	52	4794
2026-01-25 10:56:26.32	285.35	38.21	-41.2	-43.2	17.8	0.00e+00	0	39	0	0	53	4668
2026-01-25 10:56:27.63	285.88	38.08	-41.2	-43.2	17.6	0.00e+00	0	39	0	0	53	4689
2026-01-25 10:56:28.34	286.17	38.02	-41.2	-43.2	17.6	0.00e+00	0	40	0	0	53	4669
2026-01-25 10:56:29.84	286.77	37.87	-40.6	-42.4	18.4	0.00e+00	0	39	0	0	53	4279
2026-01-25 10:56:30.56	287.06	37.80	-40.5	-42.3	18.5	0.00e+00	0	39	0	0	52	4463
2026-01-25 10:56:31.84	287.57	37.67	-40.5	-42.3	18.4	0.00e+00	0	39	0	0	52	4481
2026-01-25 10:56:32.55	287.85	37.60	-40.5	-42.4	18.4	0.00e+00	0	39	0	0	52	4501
2026-01-25 10:56:33.83	288.35	37.47	-40.6	-42.4	18.5	0.00e+00	0	39	0	0	52	4531
2026-01-25 10:56:34.54	288.62	37.40	-40.6	-42.5	18.4	0.00e+00	0	40	0	0	52	4569
2026-01-25 10:56:35.82	289.12	37.27	-40.6	-42.5	18.5	0.00e+00	0	39	0	0	52	4577
2026-01-25 10:56:36.53	289.39	37.19	-40.5	-42.4	18.5	0.00e+00	0	39	0	0	52	4506
2026-01-25 10:56:37.81	289.88	37.06	-40.3	-42.2	18.7	0.00e+00	0	40	0	0	52	4405
2026-01-25 10:56:38.52	290.15	36.98	-40.4	-42.2	18.6	0.00e+00	0	39	0	0	52	4428
2026-01-25 10:56:39.80	290.63	36.84	-40.2	-42.0	18.7	0.00e+00	0	39	0	0	52	4316
2026-01-25 10:56:40.70	290.97	36.74	-40.3	-42.1	18.5	0.00e+00	0	40	0	0	52	4358
2026-01-25 10:56:42.07	291.48	36.59	-40.7	-42.6	18.2	0.00e+00	0	39	0	0	52	4603
2026-01-25 10:56:42.78	291.74	36.51	-40.9	-42.8	18.1	0.00e+00	0	39	0	0	52	4720
2026-01-25 10:56:44.06	292.21	36.37	-40.7	-42.6	18.3	0.00e+00	0	40	0	0	52	4634
2026-01-25 10:56:44.77	292.47	36.29	-40.8	-42.7	18.3	0.00e+00	0	39	0	0	52	4666
2026-01-25 10:56:46.05	292.93	36.14	-40.5	-42.4	18.4	0.00e+00	0	40	0	0	52	4497
2026-01-25 10:56:46.76	293.19	36.06	-40.4	-42.3	18.4	0.00e+00	0	39	0	0	52	4463
2026-01-25 10:56:48.04	293.65	35.92	-40.4	-42.2	18.6	0.00e+00	0	40	0	0	52	4439
2026-01-25 10:56:48.76	293.90	35.83	-40.2	-42.0	18.7	0.00e+00	0	39	0	0	52	4334
2026-01-25 10:56:50.03	294.35	35.68	-40.2	-42.0	18.7	0.00e+00	0	39	0	0	52	4322
2026-01-25 10:56:50.76	294.60	35.60	-40.4	-42.2	18.5	0.00e+00	0	39	0	0	52	4440
2026-01-25 10:56:52.07	295.06	35.44	-40.6	-42.5	18.4	0.00e+00	0	39	0	0	52	4575
2026-01-25 10:56:52.78	295.30	35.36	-40.4	-42.3	18.6	0.00e+00	0	39	0	0	52	4477
2026-01-25 10:56:54.14	295.77	35.19	-40.3	-42.2	18.7	0.00e+00	0	39	0	0	52	4414
2026-01-25 10:56:54.85	296.01	35.11	-40.2	-42.1	18.8	0.00e+00	0	39	0	0	52	4351
2026-01-25 10:56:56.13	296.44	34.95	-40.2	-42.0	18.8	0.00e+00	0	39	0	0	52	4327
2026-01-25 10:56:57.17	296.79	34.83	-40.4	-42.3	18.6	0.00e+00	0	39	0	0	52	4465
2026-01-25 10:56:58.47	297.22	34.67	-40.5	-42.4	18.5	0.00e+00	0	39	0	0	52	4526
2026-01-25 10:56:59.21	297.46	34.58	-40.5	-42.3	18.6	0.00e+00	0	39	0	0	52	4489
2026-01-25 10:57:00.49	297.88	34.42	-40.5	-42.3	18.6	0.00e+00	0	39	0	0	52	4481
2026-01-25 10:57:01.28	298.13	34.32	-40.4	-42.3	18.7	0.00e+00	0	39	0	0	52	4462
2026-01-25 10:57:02.49	298.52	34.17	-40.6	-42.5	18.5	0.00e+00	0	39	0	0	52	4559
2026-01-25 10:57:03.34	298.79	34.06	-40.6	-42.5	18.5	0.00e+00	0	39	0	0	52	4585
2026-01-25 10:57:04.48	299.15	33.92	-40.4	-42.3	18.7	0.00e+00	0	39	0	0	52	4472
2026-01-25 10:57:05.33	299.42	33.81	-40.2	-42.0	18.9	0.00e+00	0	39	0	0	52	4335
2026-01-25 10:57:06.47	299.77	33.67	-40.2	-42.0	18.9	0.00e+00	0	39	0	0	52	4340
2026-01-25 10:57:07.32	300.03	33.56	-40.1	-41.9	18.9	0.00e+00	0	39	0	0	52	4290
2026-01-25 10:57:08.46	300.38	33.41	-40.1	-41.9	19.0	0.00e+00	0	40	0	0	52	4249
2026-01-25 10:57:09.31	300.64	33.31	-40.2	-42.0	18.9	0.00e+00	0	39	0	0	52	4327
2026-01-25 10:57:10.45	300.99	33.16	-40.1	-41.9	19.0	0.00e+00	0	39	0	0	52	4272
2026-01-25 10:57:11.30	301.24	33.05	-40.0	-41.8	19.1	0.00e+00	0	39	0	0	52	4233
2026-01-25 10:57:12.44	301.58	32.91	-39.8	-41.6	19.4	0.00e+00	0	39	0	0	51	4358
2026-01-25 10:57:13.29	301.83	32.80	-39.8	-41.6	19.4	0.00e+00	0	39	0	0	51	4358
2026-01-25 10:57:14.43	302.16	32.65	-39.8	-41.6	19.4	0.00e+00	0	39	0	0	51	4376
2026-01-25 10:57:15.29	302.41	32.54	-39.8	-41.6	19.4	0.00e+00	0	39	0	0	51	4347
2026-01-25 10:57:16.43	302.74	32.39	-39.8	-41.7	19.3	0.00e+00	0	39	0	0	51	4392
2026-01-25 10:57:17.28	302.99	32.28	-39.6	-41.4	19.5	0.00e+00	0	39	0	0	51	4267
2026-01-25 10:57:18.42	303.31	32.13	-39.7	-41.4	19.5	0.00e+00	0	39	0	0	51	4288
2026-01-25 10:57:19.27	303.55	32.02	-39.6	-41.3	19.5	0.00e+00	0	39	0	0	51	4223
2026-01-25 10:57:20.41	303.87	31.87	-39.7	-41.4	19.5	0.00e+00	0	39	0	0	51	4271
2026-01-25 10:57:21.26	304.10	31.76	-39.8	-41.6	19.3	0.00e+00	0	39	0	0	51	4383
2026-01-25 10:57:22.51	304.44	31.60	-39.8	-41.6	19.4	0.00e+00	0	39	0	0	51	4346
2026-01-25 10:57:23.36	304.68	31.49	-39.6	-41.4	19.5	0.00e+00	0	39	0	0	51	4266
2026-01-25 10:57:24.58	305.01	31.33	-39.7	-41.5	19.4	0.00e+00	0	39	0	0	51	4314
2026-01-25 10:57:25.43	305.23	31.22	-39.8	-41.6	19.3	0.00e+00	0	39	0	0	51	4363
2026-01-25 10:57:26.63	305.55	31.06	-39.9	-41.7	19.1	0.00e+00	0	39	0	0	51	4422
2026-01-25 10:57:27.48	305.78	30.95	-40.0	-41.8	19.1	0.00e+00	0	39	0	0	51	4490
2026-01-25 10:57:28.62	306.07	30.80	-40.1	-42.0	19.0	0.00e+00	0	39	0	0	51	4549
2026-01-25 10:57:29.47	306.30	30.69	-40.1	-41.9	19.0	0.00e+00	0	39	0	0	51	4541
2026-01-25 10:57:30.61	306.59	30.54	-40.0	-41.8	19.1	0.00e+00	0	39	0	0	51	4474
2026-01-25 10:57:31.46	306.81	30.43	-40.0	-41.8	19.1	0.00e+00	0	39	0	0	51	4482
2026-01-25 10:57:32.60	307.09	30.28	-40.1	-41.9	19.0	0.00e+00	0	39	0	0	51	4504
2026-01-25 10:57:33.46	307.31	30.16	-40.1	-41.9	19.1	0.00e+00	0	39	0	0	51	4502
2026-01-25 10:57:34.59	307.59	30.02	-40.1	-41.9	19.0	0.00e+00	0	39	0	0	51	4514
2026-01-25 10:57:35.45	307.81	29.90	-40.1	-41.9	19.0	0.00e+00	0	39	0	0	51	4508
2026-01-25 10:57:36.59	308.09	29.75	-40.1	-41.9	19.0	0.00e+00	0	39	0	0	51	4538
2026-01-25 10:57:37.44	308.29	29.64	-40.1	-41.9	19.0	0.00e+00	0	39	0	0	51	4540
2026-01-25 10:57:38.58	308.57	29.49	-39.9	-41.7	19.2	0.00e+00	0	39	0	0	51	4439
2026-01-25 10:57:39.43	308.77	29.38	-39.8	-41.6	19.3	0.00e+00	0	39	0	0	51	4365
2026-01-25 10:57:40.57	309.04	29.23	-39.8	-41.6	19.3	0.00e+00	0	39	0	0	51	4388
2026-01-25 10:57:41.42	309.24	29.12	-39.8	-41.6	19.3	0.00e+00	0	39	0	0	51	4368
2026-01-25 10:57:42.62	309.52	28.97	-39.6	-41.4	19.5	0.00e+00	0	39	0	0	51	4271
2026-01-25 10:57:43.47	309.72	28.86	-39.6	-41.4	19.6	0.00e+00	0	39	0	0	51	4245
2026-01-25 10:57:44.61	309.98	28.71	-39.6	-41.4	19.6	0.00e+00	0	39	0	0	51	4247
2026-01-25 10:57:45.46	310.18	28.60	-39.6	-41.4	19.6	0.00e+00	0	39	0	0	51	4259
2026-01-25 10:57:46.60	310.44	28.45	-39.7	-41.5	19.4	0.00e+00	0	39	0	0	51	4295
2026-01-25 10:57:47.45	310.63	28.34	-39.6	-41.4	19.5	0.00e+00	0	39	0	0	51	4243
2026-01-25 10:57:48.59	310.88	28.19	-39.5	-41.3	19.6	0.00e+00	0	39	0	0	51	4222
2026-01-25 10:57:49.44	311.07	28.08	-39.5	-41.3	19.6	0.00e+00	0	39	0	0	51	4211
2026-01-25 10:57:50.58	311.32	27.93	-39.5	-41.2	19.6	0.00e+00	0	39	0	0	51	4188
2026-01-25 10:57:51.43	311.50	27.82	-39.2	-40.9	19.8	0.00e+00	0	39	0	0	50	4243
2026-01-25 10:57:52.56	311.75	27.68	-38.9	-40.6	20.1	0.00e+00	0	39	0	0	49	4381
2026-01-25 10:57:53.42	311.93	27.56	-38.9	-40.6	20.2	0.00e+00	0	39	0	0	49	4366
2026-01-25 10:57:54.56	312.18	27.42	-39.0	-40.7	20.1	0.00e+00	0	39	0	0	49	4417
2026-01-25 10:57:55.41	312.35	27.31	-39.0	-40.7	20.1	0.00e+00	0	39	0	0	49	4420
2026-01-25 10:57:56.58	312.60	27.16	-39.1	-40.8	20.0	0.00e+00	0	39	0	0	49	4454
2026-01-25 10:57:57.43	312.78	27.05	-39.0	-40.7	20.0	0.00e+00	0	39	0	0	49	4437
2026-01-25 10:57:58.57	313.01	26.90	-38.9	-40.6	20.1	0.00e+00	0	39	0	0	49	4376
2026-01-25 10:57:59.42	313.19	26.80	-38.9	-40.6	20.1	0.00e+00	0	40	0	0	49	4385
2026-01-25 10:58:00.55	313.41	26.65	-38.7	-40.5	20.2	0.00e+00	0	39	0	0	49	4327
2026-01-25 10:58:01.41	313.59	26.54	-38.7	-40.5	20.2	0.00e+00	0	39	0	0	49	4312
2026-01-25 10:58:02.54	313.81	26.40	-38.7	-40.5	20.2	0.00e+00	0	39	0	0	49	4319
2026-01-25 10:58:03.39	313.98	26.29	-38.8	-40.6	20.1	0.00e+00	0	39	0	0	49	4364
2026-01-25 10:58:04.53	314.21	26.15	-38.6	-40.4	20.4	0.00e+00	0	39	0	0	49	4246
2026-01-25 10:58:05.39	314.37	26.04	-38.6	-40.3	20.4	0.00e+00	0	39	0	0	49	4240
2026-01-25 10:58:06.52	314.59	25.90	-38.6	-40.3	20.5	0.00e+00	0	40	0	0	49	4207
2026-01-25 10:58:07.38	314.76	25.79	-38.7	-40.4	20.4	0.00e+00	0	39	0	0	49	4263
2026-01-25 10:58:08.51	314.97	25.65	-38.7	-40.4	20.3	0.00e+00	0	39	0	0	49	4275
2026-01-25 10:58:09.37	315.14	25.54	-38.7	-40.4	20.3	0.00e+00	0	39	0	0	49	4284
2026-01-25 10:58:10.50	315.35	25.40	-38.7	-40.4	20.4	0.00e+00	0	39	0	0	49	4266
2026-01-25 10:58:11.36	315.51	25.29	-38.6	-40.3	20.4	0.00e+00	0	39	0	0	49	4233
2026-01-25 10:58:12.54	315.73	25.14	-38.6	-40.3	20.5	0.00e+00	0	39	0	0	49	4215
2026-01-25 10:58:13.39	315.88	25.04	-38.7	-40.4	20.4	0.00e+00	0	39	0	0	49	4257
2026-01-25 10:58:14.61	316.10	24.89	-38.6	-40.3	20.4	0.00e+00	0	39	0	0	49	4229
2026-01-25 10:58:15.46	316.26	24.78	-38.6	-40.3	20.5	0.00e+00	0	40	0	0	49	4198
2026-01-25 10:58:16.60	316.46	24.64	-38.7	-40.4	20.3	0.00e+00	0	39	0	0	49	4265
2026-01-25 10:58:17.45	316.61	24.54	-38.8	-40.5	20.2	0.00e+00	0	39	0	0	49	4297
2026-01-25 10:58:18.59	316.82	24.40	-38.7	-40.4	20.2	0.00e+00	0	39	0	0	49	4270
2026-01-25 10:58:19.44	316.96	24.29	-38.9	-40.6	20.1	0.00e+00	0	39	0	0	49	4357
2026-01-25 10:58:20.58	317.16	24.15	-38.8	-40.5	20.2	0.00e+00	0	39	0	0	49	4332
2026-01-25 10:58:21.43	317.31	24.05	-38.9	-40.7	20.1	0.00e+00	0	39	0	0	49	4393
2026-01-25 10:58:22.57	317.50	23.91	-38.8	-40.5	20.2	0.00e+00	0	39	0	0	49	4324
2026-01-25 10:58:23.42	317.65	23.81	-38.8	-40.5	20.3	0.00e+00	0	39	0	0	49	4303
2026-01-25 10:58:24.56	317.84	23.67	-38.7	-40.4	20.4	0.00e+00	0	40	0	0	49	4251
2026-01-25 10:58:25.41	317.98	23.57	-38.7	-40.4	20.3	0.00e+00	0	39	0	0	49	4279
2026-01-25 10:58:26.55	318.17	23.43	-38.8	-40.5	20.2	0.00e+00	0	39	0	0	49	4323
2026-01-25 10:58:27.40	318.31	23.33	-39.0	-40.7	20.0	0.00e+00	0	39	0	0	49	4423
2026-01-25 10:58:28.54	318.50	23.19	-39.0	-40.8	20.0	0.00e+00	0	39	0	0	49	4467
2026-01-25 10:58:29.39	318.64	23.09	-39.1	-40.9	19.9	0.00e+00	0	39	0	0	49	4522
2026-01-25 10:58:30.53	318.82	22.96	-39.3	-41.1	19.8	0.00e+00	0	40	0	0	49	4599
2026-01-25 10:58:31.38	318.96	22.86	-39.2	-41.0	19.8	0.00e+00	0	39	0	0	49	4567
2026-01-25 10:58:32.61	319.15	22.71	-39.2	-41.0	19.8	0.00e+00	0	39	0	0	49	4571
2026-01-25 10:58:33.47	319.29	22.61	-39.2	-41.0	19.8	0.00e+00	0	39	0	0	49	4571
2026-01-25 10:58:34.60	319.47	22.48	-39.3	-41.2	19.7	0.00e+00	0	39	0	0	49	4662
2026-01-25 10:58:35.46	319.60	22.38	-39.4	-41.2	19.6	0.00e+00	0	39	0	0	49	4695
2026-01-25 10:58:36.59	319.77	22.24	-39.5	-41.4	19.5	0.00e+00	0	39	0	0	49	4802
2026-01-25 10:58:37.45	319.91	22.14	-39.5	-41.4	19.5	0.00e+00	0	39	0	0	49	4765
2026-01-25 10:58:38.58	320.08	22.01	-39.6	-41.5	19.4	0.00e+00	0	39	0	0	49	4827
2026-01-25 10:58:39.43	320.21	21.91	-39.6	-41.5	19.4	0.00e+00	0	39	0	0	49	4838
2026-01-25 10:58:40.57	320.38	21.78	-39.5	-41.4	19.5	0.00e+00	0	39	0	0	50	4504
2026-01-25 10:58:41.42	320.50	21.68	-39.4	-41.2	19.6	0.00e+00	0	39	0	0	50	4439
2026-01-25 10:58:42.56	320.67	21.55	-39.4	-41.2	19.7	0.00e+00	0	39	0	0	50	4396
2026-01-25 10:58:43.41	320.80	21.46	-39.4	-41.2	19.7	0.00e+00	0	39	0	0	50	4406
2026-01-25 10:58:44.55	320.96	21.33	-39.5	-41.4	19.5	0.00e+00	0	39	0	0	50	4496
2026-01-25 10:58:45.40	321.09	21.23	-39.4	-41.3	19.6	0.00e+00	0	39	0	0	50	4449
2026-01-25 10:58:46.54	321.25	21.10	-39.5	-41.3	19.5	0.00e+00	0	39	0	0	50	4475
2026-01-25 10:58:47.39	321.37	21.00	-39.4	-41.3	19.6	0.00e+00	0	39	0	0	50	4449
2026-01-25 10:58:48.52	321.53	20.88	-39.5	-41.4	19.6	0.00e+00	0	39	0	0	50	4494
2026-01-25 10:58:49.38	321.65	20.78	-39.5	-41.3	19.6	0.00e+00	0	39	0	0	50	4473
2026-01-25 10:58:50.51	321.81	20.65	-39.2	-41.0	19.9	0.00e+00	0	39	0	0	50	4294
2026-01-25 10:58:51.36	321.93	20.56	-39.1	-40.8	20.0	0.00e+00	0	39	0	0	50	4229
2026-01-25 10:58:52.50	322.09	20.43	-39.0	-40.8	20.0	0.00e+00	0	39	0	0	50	4214
2026-01-25 10:58:53.35	322.20	20.34	-39.0	-40.7	20.0	0.00e+00	0	39	0	0	50	4172
2026-01-25 10:58:54.49	322.36	20.21	-39.0	-40.7	20.0	0.00e+00	0	39	0	0	50	4185
2026-01-25 10:58:55.35	322.47	20.12	-39.0	-40.7	20.0	0.00e+00	0	39	0	0	50	4190
2026-01-25 10:58:56.70	322.65	19.97	-39.1	-40.9	19.9	0.00e+00	0	39	0	0	50	4256
2026-01-25 10:58:57.42	322.75	19.89	-39.0	-40.8	20.0	0.00e+00	0	39	0	0	50	4209
2026-01-25 10:58:58.70	322.92	19.75	-39.0	-40.7	20.0	0.00e+00	0	39	0	0	49	4440
2026-01-25 10:58:59.41	323.01	19.67	-39.0	-40.7	20.0	0.00e+00	0	39	0	0	49	4439
2026-01-25 10:59:00.69	323.18	19.53	-39.0	-40.7	20.1	0.00e+00	0	39	0	0	49	4428
2026-01-25 10:59:01.42	323.27	19.45	-39.0	-40.7	20.1	0.00e+00	0	39	0	0	49	4439
2026-01-25 10:59:02.70	323.44	19.31	-38.9	-40.7	20.1	0.00e+00	0	39	0	0	49	4415
2026-01-25 10:59:03.41	323.53	19.24	-39.1	-40.8	20.0	0.00e+00	0	39	0	0	49	4475
2026-01-25 10:59:04.69	323.69	19.10	-39.0	-40.8	20.0	0.00e+00	0	39	0	0	49	4466
2026-01-25 10:59:05.65	323.81	19.00	-39.1	-40.9	19.9	0.00e+00	0	39	0	0	49	4498
2026-01-25 10:59:06.94	323.97	18.86	-39.1	-40.9	19.9	0.00e+00	0	39	0	0	49	4498
2026-01-25 10:59:07.70	324.06	18.78	-39.1	-40.9	19.9	0.00e+00	0	39	0	0	49	4502
2026-01-25 10:59:08.98	324.22	18.64	-39.2	-41.0	19.8	0.00e+00	0	39	0	0	49	4553
2026-01-25 10:59:09.70	324.31	18.57	-39.3	-41.0	19.8	0.00e+00	0	39	0	0	49	4593
2026-01-25 10:59:10.98	324.47	18.43	-39.3	-41.0	19.8	0.00e+00	0	39	0	0	49	4563
2026-01-25 10:59:11.72	324.55	18.35	-39.3	-41.0	19.8	0.00e+00	0	39	0	0	49	4569
2026-01-25 10:59:13.00	324.71	18.22	-39.3	-41.0	19.8	0.00e+00	0	39	0	0	49	4581
2026-01-25 10:59:13.72	324.79	18.15	-39.2	-40.9	19.9	0.00e+00	0	39	0	0	49	4505
2026-01-25 10:59:15.00	324.95	18.01	-39.2	-40.9	19.9	0.00e+00	0	39	0	0	49	4524
2026-01-25 10:59:15.71	325.03	17.94	-39.2	-40.9	19.9	0.00e+00	0	39	0	0	49	4521
2026-01-25 10:59:17.07	325.19	17.80	-39.2	-40.9	19.8	0.00e+00	0	39	0	0	49	4534
2026-01-25 10:59:17.78	325.27	17.73	-39.2	-40.9	19.9	0.00e+00	0	39	0	0	49	4517
2026-01-25 10:59:19.06	325.42	17.59	-39.2	-40.9	19.8	0.00e+00	0	39	0	0	49	4539
2026-01-25 10:59:19.78	325.50	17.52	-39.2	-41.0	19.8	0.00e+00	0	39	0	0	49	4565
2026-01-25 10:59:21.16	325.66	17.38	-39.3	-41.2	19.7	0.00e+00	0	39	0	0	49	4660
2026-01-25 10:59:21.87	325.74	17.31	-39.2	-41.1	19.7	0.00e+00	0	39	0	0	49	4629
2026-01-25 10:59:23.15	325.88	17.18	-39.2	-41.2	19.7	0.00e+00	0	39	0	0	49	4654
2026-01-25 10:59:23.86	325.96	17.11	-39.3	-41.2	19.7	0.00e+00	0	39	0	0	49	4669
2026-01-25 10:59:25.27	326.11	16.96	-39.3	-41.2	19.6	0.00e+00	0	39	0	0	49	4675
2026-01-25 10:59:25.98	326.19	16.89	-39.3	-41.2	19.6	0.00e+00	0	39	0	0	49	4685
2026-01-25 10:59:27.26	326.33	16.76	-39.4	-41.3	19.6	0.00e+00	0	39	0	0	49	4709
2026-01-25 10:59:27.99	326.41	16.69	-39.5	-41.4	19.5	0.00e+00	0	39	0	0	49	4762
2026-01-25 10:59:29.27	326.55	16.56	-39.5	-41.3	19.5	0.00e+00	0	40	0	0	49	4743
2026-01-25 10:59:29.99	326.63	16.49	-39.6	-41.5	19.3	0.00e+00	0	39	0	0	49	4819
2026-01-25 10:59:31.27	326.76	16.37	-39.6	-41.5	19.3	0.00e+00	0	39	0	0	49	4831
2026-01-25 10:59:32.00	326.84	16.29	-39.7	-41.6	19.3	0.00e+00	0	39	0	0	49	4874
2026-01-25 10:59:33.28	326.97	16.17	-39.7	-41.6	19.2	0.00e+00	0	39	0	0	50	4629
2026-01-25 10:59:33.99	327.05	16.10	-39.7	-41.7	19.1	0.00e+00	0	39	0	0	50	4658
2026-01-25 10:59:35.27	327.18	15.97	-39.7	-41.6	19.2	0.00e+00	0	39	0	0	50	4644
2026-01-25 10:59:36.12	327.27	15.89	-39.8	-41.7	19.1	0.00e+00	0	39	0	0	50	4688
2026-01-25 10:59:37.26	327.39	15.78	-39.9	-41.8	19.0	0.00e+00	0	39	0	0	50	4753
2026-01-25 10:59:38.11	327.47	15.70	-39.8	-41.8	19.1	0.00e+00	0	39	0	0	50	4719
2026-01-25 10:59:39.25	327.59	15.59	-39.9	-41.8	19.0	0.00e+00	0	39	0	0	50	4751
2026-01-25 10:59:40.11	327.67	15.51	-39.9	-41.8	19.1	0.00e+00	0	39	0	0	50	4717
2026-01-25 10:59:41.24	327.79	15.40	-40.0	-41.9	18.9	0.00e+00	0	39	0	0	50	4793
2026-01-25 10:59:42.09	327.87	15.32	-39.9	-41.8	19.0	0.00e+00	0	39	0	0	50	4738
2026-01-25 10:59:43.32	327.99	15.20	-40.0	-41.8	19.0	0.00e+00	0	40	0	0	50	4750
2026-01-25 10:59:44.18	328.08	15.12	-40.0	-41.8	19.0	0.00e+00	0	39	0	0	50	4752
2026-01-25 10:59:45.31	328.19	15.01	-40.0	-41.9	19.0	0.00e+00	0	39	0	0	50	4778
2026-01-25 10:59:46.17	328.27	14.93	-40.1	-41.9	19.0	0.00e+00	0	39	0	0	50	4793
2026-01-25 10:59:47.43	328.39	14.81	-40.1	-41.9	19.0	0.00e+00	0	39	0	0	50	4797
2026-01-25 10:59:48.23	328.47	14.74	-40.1	-41.9	18.9	0.00e+00	0	39	0	0	50	4813
2026-01-25 10:59:49.37	328.58	14.63	-40.1	-41.9	18.5	0.00e+00	0	39	0	0	50	4788
2026-01-25 10:59:50.22	328.66	14.55	-40.1	-41.9	19.0	0.00e+00	0	39	0	0	50	4808
2026-01-25 10:59:51.36	328.77	14.45	-40.1	-41.9	18.9	0.00e+00	0	39	0	0	51	4544
2026-01-25 10:59:52.21	328.85	14.37	-40.0	-41.9	18.7	0.00e+00	0	39	0	0	51	4518
2026-01-25 10:59:53.63	328.98	14.24	-40.1	-41.9	19.0	0.00e+00	0	39	0	0	51	4544
2026-01-25 10:59:54.34	329.04	14.17	-40.0	-41.9	19.0	0.00e+00	0	39	0	0	51	4511
2026-01-25 10:59:55.62	329.16	14.06	-40.2	-42.1	18.8	0.00e+00	0	39	0	0	51	4603
2026-01-25 10:59:56.35	329.23	13.99	-40.1	-42.0	18.9	0.00e+00	0	39	0	0	51	4569
2026-01-25 10:59:57.63	329.34	13.87	-40.2	-42.0	18.8	0.00e+00	0	39	0	0	51	4598
2026-01-25 10:59:58.36	329.41	13.81	-40.1	-42.0	18.9	0.00e+00	0	39	0	0	51	4556
2026-01-25 10:59:59.63	329.52	13.69	-40.2	-42.1	18.8	0.00e+00	0	39	0	0	51	4628
2026-01-25 11:00:00.36	329.59	13.63	-40.2	-42.1	18.8	0.00e+00	0	39	0	0	51	4608
2026-01-25 11:00:01.64	329.70	13.51	-40.2	-42.1	18.7	0.00e+00	0	39	0	0	51	4618
2026-01-25 11:00:02.35	329.76	13.45	-40.3	-42.1	18.7	0.00e+00	0	39	0	0	51	4648
2026-01-25 11:00:03.63	329.88	13.33	-40.3	-42.1	18.7	0.00e+00	0	39	0	0	51	4640
2026-01-25 11:00:04.34	329.94	13.27	-40.3	-42.2	18.6	0.00e+00	0	39	0	0	51	4671
2026-01-25 11:00:05.62	330.05	13.16	-40.3	-42.2	18.6	0.00e+00	0	39	0	0	51	4686
2026-01-25 11:00:06.35	330.11	13.09	-40.3	-42.2	18.5	0.00e+00	0	39	0	0	51	4694
2026-01-25 11:00:07.76	330.23	12.97	-40.3	-42.2	18.6	0.00e+00	0	39	0	0	51	4658
2026-01-25 11:00:08.47	330.29	12.90	-40.3	-42.3	18.5	0.00e+00	0	39	0	0	51	4708
2026-01-25 11:00:09.84	330.41	12.78	-40.3	-42.2	18.5	0.00e+00	0	39	0	0	51	4698
2026-01-25 11:00:10.55	330.47	12.72	-40.3	-42.3	18.4	0.00e+00	0	39	0	0	51	4713
2026-01-25 11:00:11.83	330.58	12.61	-40.4	-42.3	18.4	0.00e+00	0	39	0	0	51	4743
2026-01-25 11:00:12.55	330.64	12.55	-40.4	-42.3	18.4	0.00e+00	0	39	0	0	51	4757
2026-01-25 11:00:13.83	330.74	12.44	-40.4	-42.3	18.4	0.00e+00	0	39	0	0	51	4744
2026-01-25 11:00:14.54	330.80	12.38	-40.4	-42.3	18.4	0.00e+00	0	39	0	0	51	4734
2026-01-25 11:00:15.82	330.90	12.27	-40.4	-42.3	18.4	0.00e+00	0	39	0	0	51	4757
2026-01-25 11:00:16.53	330.96	12.21	-40.4	-42.3	18.4	0.00e+00	0	39	0	0	51	4732
2026-01-25 11:00:17.80	331.07	12.10	-40.4	-42.3	18.5	0.00e+00	0	39	0	0	51	4736
2026-01-25 11:00:18.51	331.12	12.04	-40.4	-42.3	18.5	0.00e+00	0	39	0	0	51	4725
2026-01-25 11:00:19.79	331.22	11.93	-40.4	-42.3	18.5	0.00e+00	0	39	0	0	51	4722
2026-01-25 11:00:20.66	331.29	11.85	-40.4	-42.3	18.5	0.00e+00	0	39	0	0	51	4728
2026-01-25 11:00:22.11	331.41	11.73	-40.3	-42.2	18.5	0.00e+00	0	39	0	0	51	4701
2026-01-25 11:00:22.82	331.46	11.67	-40.4	-42.3	18.6	0.00e+00	0	39	0	0	51	4708
2026-01-25 11:00:24.10	331.56	11.56	-40.3	-42.2	18.5	0.00e+00	0	39	0	0	51	4701
2026-01-25 11:00:24.81	331.62	11.50	-40.3	-42.2	18.5	0.00e+00	0	39	0	0	51	4705
2026-01-25 11:00:26.09	331.72	11.40	-40.4	-42.4	18.4	0.00e+00	0	39	0	0	51	4764
2026-01-25 11:00:26.91	331.78	11.33	-40.4	-42.3	18.5	0.00e+00	0	39	0	0	51	4744
2026-01-25 11:00:28.05	331.87	11.23	-40.4	-42.4	18.5	0.00e+00	0	39	0	0	51	4763
2026-01-25 11:00:28.90	331.93	11.16	-40.4	-42.3	18.5	0.00e+00	0	39	0	0	51	4733
2026-01-25 11:00:30.04	332.02	11.07	-40.4	-42.4	18.4	0.00e+00	0	39	0	0	51	4765
2026-01-25 11:00:30.89	332.08	11.00	-40.4	-42.3	18.5	0.00e+00	0	39	0	0	51	4740
2026-01-25 11:00:32.03	332.17	10.91	-40.4	-42.3	18.4	0.00e+00	0	39	0	0	51	4759
2026-01-25 11:00:32.88	332.23	10.84	-40.4	-42.4	18.4	0.00e+00	0	39	0	0	51	4763
2026-01-25 11:00:34.02	332.32	10.74	-40.5	-42.5	18.3	0.00e+00	0	39	0	0	51	4827
2026-01-25 11:00:34.87	332.38	10.67	-40.6	-42.6	18.2	0.00e+00	0	39	0	0	51	4878
2026-01-25 11:00:36.10	332.47	10.57	-40.6	-42.6	18.2	0.00e+00	0	39	0	0	51	4914
2026-01-25 11:00:36.96	332.53	10.50	-40.6	-42.7	18.1	0.00e+00	0	39	0	0	52	4653
2026-01-25 11:00:38.10	332.62	10.41	-40.7	-42.7	18.0	0.00e+00	0	39	0	0	52	4687
2026-01-25 11:00:39.42	332.71	10.31	-40.8	-42.9	17.9	0.00e+00	0	39	0	0	52	4764
2026-01-25 11:00:40.13	332.76	10.25	-40.8	-42.9	17.8	0.00e+00	0	39	0	0	52	4772
2026-01-25 11:00:41.42	332.85	10.15	-40.9	-43.0	17.7	0.00e+00	0	39	0	0	52	4860
2026-01-25 11:00:42.13	332.90	10.09	-41.0	-43.1	17.6	0.00e+00	0	39	0	0	52	4900
2026-01-25 11:00:43.45	333.00	9.98	-41.0	-43.2	17.6	0.00e+00	0	39	0	0	52	4933
2026-01-25 11:00:44.16	333.05	9.93	-41.1	-43.3	17.4	0.00e+00	0	39	0	0	52	5010
2026-01-25 11:00:45.44	333.14	9.83	-41.2	-43.4	17.4	0.00e+00	0	39	0	0	53	4762
2026-01-25 11:00:46.15	333.19	9.77	-41.1	-43.3	17.4	0.00e+00	0	39	0	0	53	4732
2026-01-25 11:00:47.43	333.28	9.67	-41.1	-43.3	17.4	0.00e+00	0	39	0	0	53	4721
2026-01-25 11:00:48.16	333.33	9.61	-41.2	-43.4	17.3	0.00e+00	0	39	0	0	53	4781
2026-01-25 11:00:49.44	333.41	9.51	-41.1	-43.3	17.4	0.00e+00	0	39	0	0	53	4746
2026-01-25 11:00:50.15	333.46	9.46	-41.1	-43.3	17.4	0.00e+00	0	39	0	0	53	4750
2026-01-25 11:00:51.43	333.55	9.36	-41.1	-43.3	17.4	0.00e+00	0	39	0	0	53	4722
2026-01-25 11:00:52.16	333.60	9.30	-41.1	-43.3	17.4	0.00e+00	0	39	0	0	53	4744
2026-01-25 11:00:53.77	333.71	9.18	-41.1	-43.3	17.4	0.00e+00	0	39	0	0	53	4717
2026-01-25 11:00:54.34	333.74	9.13	-41.1	-43.3	17.4	0.00e+00	0	39	0	0	53	4731
2026-01-25 11:00:56.04	333.86	9.00	-41.1	-43.3	17.4	0.00e+00	0	39	0	0	53	4714
2026-01-25 11:00:56.61	333.90	8.96	-42.2	-44.7	16.1	0.00e+00	0	39	0	0	55	4974
2026-01-25 11:00:58.31	334.01	8.83	-48.7	-62.3	3.8	1.49e+00	0	39	104	0	68	17834
2026-01-25 11:00:58.88	334.04	8.78	-49.1	-62.4	3.8	1.49e+00	0	39	104	0	68	17943
2026-01-25 11:01:00.58	334.15	8.66	-49.1	-62.7	3.8	1.49e+00	0	39	104	0	68	18589
2026-01-25 11:01:01.15	334.19	8.61	-48.6	-62.7	3.8	1.49e+00	0	39	104	0	69	17609
2026-01-25 11:01:02.95	334.31	8.48	-48.7	-62.8	3.8	1.49e+00	0	39	104	0	69	17785
2026-01-25 11:01:03.51	334.34	8.43	-49.2	-62.8	3.8	1.49e+00	0	39	104	0	69	17840
2026-01-25 11:01:05.22	334.45	8.31	-48.4	-62.9	3.8	1.49e+00	0	39	104	0	68	19004
2026-01-25 11:01:05.92	334.50	8.25	-49.7	-62.9	3.8	1.49e+00	0	39	104	0	70	16913
2026-01-25 11:01:07.20	334.58	8.16	-49.7	-62.9	3.8	1.49e+00	0	39	104	0	70	17036
2026-01-25 11:01:08.13	334.63	8.09	-49.8	-62.9	3.8	1.49e+00	0	39	104	0	70	16948
2026-01-25 11:01:09.43	334.72	7.99	-49.5	-62.9	3.8	1.49e+00	0	39	104	0	70	16989
2026-01-25 11:01:10.17	334.76	7.94	-49.6	-62.9	3.8	1.49e+00	0	39	104	0	70	16991
2026-01-25 11:01:11.76	334.86	7.82	-49.8	-62.9	3.8	1.49e+00	0	39	104	0	70	17063
2026-01-25 11:01:12.34	334.89	7.78	-49.9	-62.9	3.8	1.49e+00	0	39	104	0	70	17010
2026-01-25 11:01:14.09	335.00	7.65	-49.8	-62.9	3.8	1.49e+00	0	39	104	0	70	16976
2026-01-25 11:01:14.66	335.04	7.61	-49.9	-62.9	3.8	1.49e+00	0	39	104	0	70	16940
2026-01-25 11:01:16.36	335.14	7.48	-49.8	-62.8	3.8	1.49e+00	0	39	104	0	70	16850
2026-01-25 11:01:16.93	335.17	7.44	-49.7	-62.8	3.8	1.49e+00	0	39	104	0	70	16825
2026-01-25 11:01:18.63	335.27	7.32	-49.7	-62.8	3.8	1.49e+00	0	39	104	0	70	16789
2026-01-25 11:01:19.20	335.31	7.28	-49.4	-62.8	3.8	1.49e+00	0	39	104	0	70	16778
2026-01-25 11:01:20.90	335.41	7.16	-49.5	-62.8	3.8	1.49e+00	0	39	104	0	70	16770
2026-01-25 11:01:21.47	335.44	7.11	-49.5	-62.8	3.8	1.49e+00	0	39	104	0	70	16717
2026-01-25 11:01:23.17	335.54	6.99	-49.5	-62.8	3.8	1.49e+00	0	39	104	0	70	16706
2026-01-25 11:01:23.74	335.57	6.95	-49.5	-62.8	3.8	1.49e+00	0	39	104	0	70	16740
2026-01-25 11:01:25.44	335.67	6.83	-49.5	-62.7	3.8	1.49e+00	0	39	104	0	70	16682
2026-01-25 11:01:26.01	335.71	6.79	-49.5	-62.7	3.8	1.49e+00	0	39	104	0	70	16626
2026-01-25 11:01:27.71	335.80	6.67	-49.5	-62.7	3.8	1.49e+00	0	39	104	0	70	16687
2026-01-25 11:01:28.28	335.83	6.63	-49.5	-62.8	3.8	1.49e+00	0	39	104	0	70	16776
2026-01-25 11:01:29.98	335.93	6.51	-49.5	-62.7	3.8	1.49e+00	0	39	104	0	70	16658
2026-01-25 11:01:30.55	335.96	6.47	-49.5	-62.7	3.8	1.49e+00	0	39	104	0	70	16637
2026-01-25 11:01:32.26	336.06	6.35	-49.5	-62.7	3.8	1.49e+00	0	39	104	0	70	16644
2026-01-25 11:01:32.82	336.09	6.31	-49.5	-62.7	3.8	1.49e+00	0	39	104	0	70	16601
2026-01-25 11:01:34.53	336.19	6.19	-49.5	-62.8	3.8	1.49e+00	0	39	104	0	70	16718
2026-01-25 11:01:35.09	336.22	6.15	-49.5	-62.7	3.8	1.49e+00	0	39	104	0	70	16619
2026-01-25 11:01:36.80	336.31	6.03	-49.5	-62.7	3.8	1.49e+00	0	40	104	0	70	16633
2026-01-25 11:01:37.36	336.34	6.00	-49.5	-62.7	3.8	1.49e+00	0	39	104	0	70	16622
2026-01-25 11:01:39.07	336.43	5.88	-49.5	-62.7	3.8	1.49e+00	0	39	104	0	70	16644
2026-01-25 11:01:39.63	336.46	5.84	-49.5	-62.7	3.8	1.49e+00	0	39	104	0	70	16621
2026-01-25 11:01:41.34	336.56	5.72	-49.5	-62.7	3.8	1.49e+00	0	39	104	0	70	16661
2026-01-25 11:01:41.90	336.59	5.68	-49.5	-62.7	3.8	1.49e+00	0	39	104	0	70	16653
2026-01-25 11:01:43.61	336.68	5.57	-49.5	-62.7	3.8	1.49e+00	0	39	104	0	70	16672
2026-01-25 11:01:44.17	336.71	5.53	-49.5	-62.7	3.8	1.49e+00	0	39	104	0	70	16655
2026-01-25 11:01:45.88	336.80	5.41	-49.5	-62.7	3.8	1.49e+00	0	39	104	0	70	16673
2026-01-25 11:01:46.45	336.83	5.37	-49.5	-62.7	3.8	1.49e+00	0	39	104	0	70	16674
2026-01-25 11:01:48.15	336.92	5.26	-49.5	-62.8	3.8	1.49e+00	0	39	104	0	70	16719
2026-01-25 11:01:48.72	336.95	5.22	-49.5	-62.7	3.8	1.49e+00	0	39	104	0	70	16672
2026-01-25 11:01:50.42	337.04	5.11	-49.5	-62.7	3.8	1.49e+00	0	39	104	0	70	16638
2026-01-25 11:01:50.99	337.07	5.07	-49.5	-62.8	3.8	1.49e+00	0	39	104	0	70	16727
2026-01-25 11:01:52.69	337.15	4.95	-49.5	-62.8	3.8	1.49e+00	0	39	104	0	70	16729

#Closed at: 2026-01-25 11:01:53
#Recorded file [0 MB]: D:/Data/31040_260125_134926.dat