passes_logs/2026/01/25/T1/T1__20260125_220943_NOAA_20_JPSS-1_rec.log

#Pass ID: 20260125_220943_NOAA 20 (JPSS-1)
#Satellite: NOAA 20 (JPSS-1)
#Configuration: NOAA 20
#almurnet v.1.7.20251203
#Start time: 2026-01-25 22:09:45

#Version: 2.0.20230620
#Station: T1
#Location: 37.570604 lon 55.790049 lat
#TLE: 1 43013U 17073A   26025.47986292  .00000161  00000+0  97249-4 0  9993
#TLE: 2 43013  98.7646 326.3091 0001052  24.2709 335.8516 14.19540188424225

#Time	Az	El	Level	Level2	SNR	BER	BlckErr	Temp	State	Recorded	gain1	gain2
2026-01-25 22:09:45.04	30.02	5.12	-47.6	-63.0	3.8	1.49e+00	0	36	0	0	66	21690
2026-01-25 22:09:46.03	30.11	5.17	-47.6	-63.0	3.8	1.49e+00	0	36	104	0	66	21665
2026-01-25 22:09:47.02	30.19	5.23	-47.6	-63.0	3.8	1.49e+00	0	36	104	0	66	21537
2026-01-25 22:09:48.02	30.28	5.29	-47.6	-63.0	3.8	1.49e+00	0	36	104	0	66	21715
2026-01-25 22:09:49.01	30.37	5.35	-47.6	-63.0	3.8	1.49e+00	0	36	104	0	66	21622
2026-01-25 22:09:50.00	30.46	5.40	-47.6	-62.9	3.8	1.49e+00	0	37	104	0	66	21496
2026-01-25 22:09:51.00	30.55	5.46	-47.6	-63.0	3.8	1.49e+00	0	36	104	0	66	21567
2026-01-25 22:09:51.99	30.64	5.52	-47.6	-63.0	3.8	1.49e+00	0	36	104	0	66	21577
2026-01-25 22:09:52.98	30.73	5.58	-47.6	-63.0	3.8	1.49e+00	0	37	104	0	66	21590
2026-01-25 22:09:53.97	30.82	5.64	-47.6	-63.0	3.8	1.49e+00	0	37	104	0	66	21549
2026-01-25 22:09:54.97	30.91	5.69	-47.6	-62.9	3.8	1.49e+00	0	36	104	0	66	21481
2026-01-25 22:09:55.96	31.00	5.75	-47.6	-63.0	3.8	1.49e+00	0	37	104	0	66	21603
2026-01-25 22:09:56.95	31.10	5.81	-47.6	-63.0	3.8	1.49e+00	0	36	104	0	66	21554
2026-01-25 22:09:57.95	31.19	5.87	-47.6	-63.0	3.8	1.49e+00	0	37	104	0	66	21576
2026-01-25 22:09:58.94	31.28	5.93	-47.6	-63.0	3.8	1.49e+00	0	37	104	0	66	21512
2026-01-25 22:09:59.93	31.37	5.99	-47.6	-62.9	3.8	1.49e+00	0	37	104	0	66	21499
2026-01-25 22:10:00.92	31.47	6.04	-47.6	-62.9	3.8	1.49e+00	0	37	104	0	66	21441
2026-01-25 22:10:01.92	31.56	6.10	-47.6	-62.9	3.8	1.49e+00	0	37	104	0	66	21426
2026-01-25 22:10:02.91	31.66	6.16	-47.6	-62.9	3.8	1.49e+00	0	37	104	0	66	21413
2026-01-25 22:10:03.90	31.75	6.22	-47.6	-62.9	3.8	1.49e+00	0	37	104	0	66	21377
2026-01-25 22:10:04.90	31.84	6.28	-47.6	-62.9	3.8	1.49e+00	0	37	104	0	66	21419
2026-01-25 22:10:05.89	31.94	6.34	-47.6	-62.9	3.8	1.49e+00	0	37	104	0	66	21297
2026-01-25 22:10:06.88	32.03	6.40	-47.6	-62.9	3.8	1.49e+00	0	37	104	0	66	21313
2026-01-25 22:10:07.88	32.13	6.46	-47.6	-62.9	3.8	1.49e+00	0	37	104	0	66	21298
2026-01-25 22:10:08.87	32.23	6.52	-47.6	-62.9	3.8	1.49e+00	0	37	104	0	66	21374
2026-01-25 22:10:09.86	32.32	6.57	-47.6	-62.9	3.8	1.49e+00	0	37	104	0	66	21371
2026-01-25 22:10:10.86	32.42	6.63	-47.6	-62.9	3.8	1.49e+00	0	37	104	0	66	21310
2026-01-25 22:10:11.85	32.52	6.69	-47.6	-62.9	3.8	1.49e+00	0	37	104	0	66	21382
2026-01-25 22:10:12.84	32.62	6.75	-47.6	-62.9	3.8	1.49e+00	0	37	104	0	66	21448
2026-01-25 22:10:13.84	32.71	6.81	-47.6	-63.0	3.8	1.49e+00	0	37	104	0	66	21512
2026-01-25 22:10:14.83	32.81	6.87	-47.6	-62.9	3.8	1.49e+00	0	37	104	0	66	21418
2026-01-25 22:10:15.82	32.91	6.93	-47.6	-62.9	3.8	1.49e+00	0	37	104	0	66	21424
2026-01-25 22:10:16.82	33.01	6.99	-47.6	-62.9	3.8	1.49e+00	0	37	104	0	66	21395
2026-01-25 22:10:17.81	33.11	7.05	-47.6	-62.9	3.8	1.49e+00	0	37	104	0	66	21314
2026-01-25 22:10:18.80	33.21	7.11	-47.6	-62.8	3.8	1.49e+00	0	37	104	0	66	21176
2026-01-25 22:10:19.80	33.31	7.17	-47.6	-62.8	3.8	1.49e+00	0	37	104	0	66	21047
2026-01-25 22:10:20.79	33.41	7.23	-47.6	-62.8	3.8	1.49e+00	0	38	104	0	66	21068
2026-01-25 22:10:21.78	33.51	7.29	-47.6	-62.8	3.8	1.49e+00	0	37	104	0	66	21020
2026-01-25 22:10:22.78	33.61	7.35	-47.6	-62.8	3.8	1.49e+00	0	37	104	0	66	21037
2026-01-25 22:10:23.77	33.72	7.41	-47.6	-62.8	3.8	1.49e+00	0	38	104	0	66	21099
2026-01-25 22:10:24.76	33.82	7.47	-47.6	-62.8	3.8	1.49e+00	0	37	104	0	66	21120
2026-01-25 22:10:25.75	33.92	7.53	-47.6	-62.8	3.8	1.49e+00	0	38	104	0	66	21042
2026-01-25 22:10:26.75	34.02	7.59	-47.6	-62.7	3.8	1.49e+00	0	38	104	0	66	20955
2026-01-25 22:10:27.74	34.13	7.65	-47.6	-62.6	3.8	1.49e+00	0	38	104	0	66	20739
2026-01-25 22:10:28.73	34.23	7.71	-47.5	-62.6	3.8	1.49e+00	0	38	104	0	66	20642
2026-01-25 22:10:29.73	34.34	7.77	-47.6	-62.6	3.8	1.49e+00	0	38	104	0	66	20563
2026-01-25 22:10:30.72	34.44	7.83	-47.6	-62.6	3.8	1.49e+00	0	38	104	0	66	20758
2026-01-25 22:10:31.71	34.55	7.89	-47.6	-62.7	3.8	1.49e+00	0	38	104	0	66	20922
2026-01-25 22:10:32.71	34.65	7.96	-47.6	-62.8	3.8	1.49e+00	0	38	104	0	66	21126
2026-01-25 22:10:33.70	34.76	8.02	-47.6	-62.9	3.8	1.49e+00	0	38	104	0	66	21338
2026-01-25 22:10:34.69	34.86	8.08	-47.6	-62.9	3.8	1.49e+00	0	38	104	0	66	21343
2026-01-25 22:10:35.69	34.97	8.14	-47.6	-62.9	3.8	1.49e+00	0	38	104	0	66	21465
2026-01-25 22:10:36.68	35.08	8.20	-47.6	-62.9	3.8	1.49e+00	0	38	104	0	66	21469
2026-01-25 22:10:37.67	35.19	8.26	-47.6	-62.9	3.8	1.49e+00	0	38	104	0	66	21443
2026-01-25 22:10:38.67	35.30	8.32	-47.6	-62.9	3.8	1.49e+00	0	38	104	0	66	21383
2026-01-25 22:10:39.66	35.40	8.38	-47.6	-62.9	3.8	1.49e+00	0	38	104	0	66	21316
2026-01-25 22:10:40.65	35.51	8.44	-47.6	-62.8	3.8	1.49e+00	0	38	104	0	66	21214
2026-01-25 22:10:41.65	35.62	8.51	-47.6	-62.8	3.8	1.49e+00	0	38	104	0	66	21020
2026-01-25 22:10:42.64	35.73	8.57	-47.6	-62.6	3.8	1.49e+00	0	38	104	0	66	20773
2026-01-25 22:10:43.63	35.84	8.63	-47.6	-62.6	3.8	1.49e+00	0	38	104	0	66	20545
2026-01-25 22:10:44.63	35.95	8.69	-47.6	-62.5	3.8	1.49e+00	0	38	104	0	66	20351
2026-01-25 22:10:45.62	36.07	8.75	-47.5	-62.0	3.8	1.49e+00	0	38	104	0	66	19202
2026-01-25 22:10:46.61	36.18	8.81	-47.4	-60.7	3.8	1.49e+00	0	38	104	0	66	16525
2026-01-25 22:10:47.61	36.29	8.88	-47.2	-58.3	4.6	1.30e+00	0	38	0	0	66	12564
2026-01-25 22:10:48.60	36.40	8.94	-46.9	-55.7	6.1	5.41e-01	0	38	0	2097152	65	9919
2026-01-25 22:10:49.60	36.52	9.00	-46.4	-53.5	8.1	1.60e-01	0	38	0	3145728	64	8139
2026-01-25 22:10:50.59	36.63	9.06	-46.2	-52.9	8.8	3.41e-02	0	38	0	5242880	64	7574
2026-01-25 22:10:51.59	36.74	9.12	-46.9	-56.1	6.1	7.79e-02	0	38	0	7340032	64	10945
2026-01-25 22:10:52.58	36.86	9.19	-46.0	-52.6	8.8	9.75e-01	0	38	0	9437184	64	7293
2026-01-25 22:10:53.58	36.97	9.25	-46.6	-54.1	8.0	4.29e-04	0	38	0	10485760	63	9195
2026-01-25 22:10:54.57	37.09	9.31	-44.6	-48.9	12.7	3.42e-01	0	38	0	12582912	61	5703
2026-01-25 22:10:55.57	37.21	9.37	-43.2	-46.4	15.6	0.00e+00	0	38	0	14680064	58	5075
2026-01-25 22:10:56.56	37.32	9.44	-43.1	-46.3	15.7	0.00e+00	0	38	0	16777216	58	5013
2026-01-25 22:10:57.56	37.44	9.50	-42.9	-45.9	16.1	0.00e+00	0	38	0	17825792	57	5083
2026-01-25 22:10:58.55	37.56	9.56	-42.6	-45.6	16.3	0.00e+00	0	38	0	19922944	57	4913
2026-01-25 22:10:59.55	37.68	9.62	-42.6	-45.5	16.4	0.00e+00	0	38	0	22020096	57	4847
2026-01-25 22:11:00.54	37.79	9.69	-42.6	-45.6	16.4	0.00e+00	0	38	0	24117248	57	4873
2026-01-25 22:11:01.54	37.91	9.75	-42.5	-45.4	16.6	0.00e+00	0	38	0	25165824	57	4785
2026-01-25 22:11:02.53	38.03	9.81	-42.4	-45.3	16.7	0.00e+00	0	38	0	27262976	56	5000
2026-01-25 22:11:03.53	38.15	9.87	-42.4	-45.3	16.7	0.00e+00	0	38	0	29360128	56	5012
2026-01-25 22:11:04.52	38.27	9.94	-42.5	-45.4	16.6	0.00e+00	0	38	0	31457280	56	5062
2026-01-25 22:11:05.52	38.39	10.00	-42.6	-45.6	16.4	0.00e+00	0	38	0	33554432	56	5166
2026-01-25 22:11:06.51	38.52	10.06	-42.4	-45.4	16.5	0.00e+00	0	38	0	34603008	56	5083
2026-01-25 22:11:07.51	38.64	10.13	-42.4	-45.3	16.7	0.00e+00	0	38	0	36700160	56	5025
2026-01-25 22:11:08.50	38.76	10.19	-42.3	-45.2	16.8	0.00e+00	0	38	0	38797312	56	4965
2026-01-25 22:11:09.50	38.88	10.25	-42.3	-45.2	16.8	0.00e+00	0	38	0	40894464	56	4953
2026-01-25 22:11:10.49	39.01	10.31	-42.2	-45.1	16.9	0.00e+00	0	38	0	41943040	56	4900
2026-01-25 22:11:11.49	39.13	10.38	-42.3	-45.1	16.9	0.00e+00	0	38	0	44040192	56	4918
2026-01-25 22:11:12.49	39.26	10.44	-42.2	-45.0	17.0	0.00e+00	0	38	0	46137344	56	4836
2026-01-25 22:11:13.48	39.38	10.50	-42.1	-44.9	17.1	0.00e+00	0	38	0	48234496	56	4789
2026-01-25 22:11:14.48	39.51	10.57	-42.1	-44.9	17.1	0.00e+00	0	38	0	50331648	56	4796
2026-01-25 22:11:15.47	39.63	10.63	-42.1	-44.9	17.1	0.00e+00	0	38	0	51380224	56	4778
2026-01-25 22:11:16.47	39.76	10.69	-42.2	-45.0	17.1	0.00e+00	0	38	0	53477376	56	4821
2026-01-25 22:11:17.46	39.89	10.76	-42.2	-44.9	17.1	0.00e+00	0	38	0	55574528	56	4783
2026-01-25 22:11:18.46	40.02	10.82	-42.2	-45.0	17.1	0.00e+00	0	38	0	57671680	56	4831
2026-01-25 22:11:19.45	40.14	10.88	-42.2	-45.0	17.0	0.00e+00	0	38	0	58720256	56	4819
2026-01-25 22:11:20.45	40.27	10.95	-42.2	-45.0	17.0	0.00e+00	0	38	0	60817408	56	4862
2026-01-25 22:11:21.44	40.40	11.01	-42.3	-45.1	17.0	0.00e+00	0	39	0	62914560	56	4883
2026-01-25 22:11:22.43	40.53	11.08	-42.3	-45.1	16.9	0.00e+00	0	39	0	65011712	56	4921
2026-01-25 22:11:23.43	40.66	11.14	-42.4	-45.2	16.9	0.00e+00	0	38	0	67108864	56	4945
2026-01-25 22:11:24.43	40.79	11.20	-42.3	-45.1	17.0	0.00e+00	0	38	0	68157440	56	4914
2026-01-25 22:11:25.42	40.93	11.27	-42.4	-45.2	16.9	0.00e+00	0	38	0	70254592	56	4933
2026-01-25 22:11:26.41	41.06	11.33	-42.3	-45.1	17.0	0.00e+00	0	39	0	72351744	56	4882
2026-01-25 22:11:27.47	41.20	11.40	-42.3	-45.1	17.0	0.00e+00	0	39	0	74448896	56	4872
2026-01-25 22:11:28.34	41.32	11.45	-42.3	-45.0	17.0	0.00e+00	0	38	0	75497472	56	4861
2026-01-25 22:11:29.48	41.47	11.53	-42.1	-44.9	17.2	0.00e+00	0	38	0	77594624	56	4773
2026-01-25 22:11:30.33	41.58	11.58	-42.2	-44.9	17.1	0.00e+00	0	39	0	79691776	56	4798
2026-01-25 22:11:31.47	41.74	11.65	-42.2	-44.9	17.2	0.00e+00	0	39	0	81788928	56	4782
2026-01-25 22:11:32.32	41.85	11.71	-42.2	-44.9	17.2	0.00e+00	0	38	0	82837504	56	4771
2026-01-25 22:11:33.46	42.01	11.78	-42.1	-44.8	17.2	0.00e+00	0	39	0	84934656	56	4752
2026-01-25 22:11:34.31	42.13	11.84	-42.1	-44.8	17.3	0.00e+00	0	38	0	87031808	56	4720
2026-01-25 22:11:35.44	42.28	11.91	-42.1	-44.8	17.3	0.00e+00	0	38	0	89128960	56	4710
2026-01-25 22:11:36.30	42.40	11.97	-42.1	-44.8	17.3	0.00e+00	0	38	0	91226112	56	4718
2026-01-25 22:11:37.43	42.56	12.04	-42.2	-44.9	17.2	0.00e+00	0	38	0	93323264	56	4773
2026-01-25 22:11:38.29	42.68	12.09	-42.1	-44.8	17.2	0.00e+00	0	38	0	94371840	56	4743
2026-01-25 22:11:39.43	42.84	12.17	-42.1	-44.8	17.3	0.00e+00	0	39	0	96468992	56	4748
2026-01-25 22:11:40.28	42.96	12.22	-42.1	-44.8	17.2	0.00e+00	0	38	0	98566144	56	4753
2026-01-25 22:11:41.51	43.13	12.30	-42.1	-44.9	17.2	0.00e+00	0	38	0	100663296	56	4762
2026-01-25 22:11:42.36	43.25	12.36	-42.1	-44.8	17.3	0.00e+00	0	39	0	101711872	56	4741
2026-01-25 22:11:43.58	43.43	12.43	-42.0	-44.7	17.4	0.00e+00	0	39	0	104857600	56	4668
2026-01-25 22:11:44.43	43.55	12.49	-42.0	-44.6	17.4	0.00e+00	0	39	0	105906176	56	4646
2026-01-25 22:11:45.64	43.72	12.57	-41.8	-44.4	17.5	0.00e+00	0	39	0	108003328	55	4771
2026-01-25 22:11:46.50	43.85	12.62	-41.8	-44.4	17.5	0.00e+00	0	39	0	110100480	55	4797
2026-01-25 22:11:47.64	44.01	12.70	-41.6	-44.1	17.8	0.00e+00	0	39	0	112197632	55	4645
2026-01-25 22:11:48.49	44.14	12.75	-41.6	-44.1	17.8	0.00e+00	0	39	0	113246208	55	4638
2026-01-25 22:11:49.63	44.31	12.83	-41.6	-44.2	17.7	0.00e+00	0	38	0	115343360	55	4677
2026-01-25 22:11:50.48	44.43	12.88	-41.5	-44.1	17.8	0.00e+00	0	39	0	117440512	55	4625
2026-01-25 22:11:51.62	44.60	12.95	-41.6	-44.2	17.8	0.00e+00	0	39	0	119537664	55	4652
2026-01-25 22:11:52.47	44.73	13.01	-41.5	-44.0	17.9	0.00e+00	0	39	0	120586240	55	4598
2026-01-25 22:11:53.61	44.90	13.08	-41.6	-44.2	17.8	0.00e+00	0	39	0	123731968	55	4660
2026-01-25 22:11:54.46	45.02	13.14	-41.6	-44.2	17.7	0.00e+00	0	39	0	124780544	55	4654
2026-01-25 22:11:55.60	45.19	13.21	-41.6	-44.2	17.8	0.00e+00	0	39	0	126877696	55	4669
2026-01-25 22:11:56.69	45.36	13.28	-41.7	-44.2	17.7	0.00e+00	0	39	0	128974848	55	4704
2026-01-25 22:11:57.72	45.51	13.35	-41.7	-44.3	17.6	0.00e+00	0	39	0	131072000	55	4741
2026-01-25 22:11:58.71	45.67	13.41	-41.6	-44.2	17.8	0.00e+00	0	39	0	133169152	55	4664
2026-01-25 22:11:59.93	45.85	13.49	-41.6	-44.1	17.8	0.00e+00	0	39	0	135266304	55	4626
2026-01-25 22:12:00.78	45.98	13.55	-41.5	-44.1	17.9	0.00e+00	0	39	0	136314880	55	4603
2026-01-25 22:12:02.17	46.20	13.63	-41.7	-44.2	17.7	0.00e+00	0	39	0	139460608	55	4698
2026-01-25 22:12:02.88	46.31	13.68	-41.7	-44.3	17.7	0.00e+00	0	39	0	140509184	55	4715
2026-01-25 22:12:04.16	46.51	13.76	-41.7	-44.3	17.6	0.00e+00	0	39	0	142606336	55	4753
2026-01-25 22:12:04.87	46.62	13.81	-41.8	-44.4	17.6	0.00e+00	0	39	0	144703488	55	4808
2026-01-25 22:12:06.15	46.82	13.89	-41.7	-44.4	17.6	0.00e+00	0	39	0	146800640	55	4775
2026-01-25 22:12:06.88	46.93	13.94	-41.7	-44.4	17.6	0.00e+00	0	39	0	147849216	55	4766
2026-01-25 22:12:08.16	47.14	14.02	-41.8	-44.5	17.5	0.00e+00	0	38	0	150994944	55	4826
2026-01-25 22:12:08.88	47.25	14.07	-41.9	-44.6	17.4	0.00e+00	0	39	0	152043520	55	4887
2026-01-25 22:12:10.16	47.46	14.15	-41.8	-44.4	17.6	0.00e+00	0	39	0	154140672	55	4790
2026-01-25 22:12:11.04	47.60	14.21	-41.7	-44.3	17.7	0.00e+00	0	39	0	156237824	55	4721
2026-01-25 22:12:12.18	47.78	14.28	-41.6	-44.2	17.8	0.00e+00	0	39	0	158334976	55	4681
2026-01-25 22:12:13.04	47.92	14.33	-41.6	-44.2	17.8	0.00e+00	0	39	0	159383552	55	4686
2026-01-25 22:12:14.17	48.10	14.41	-41.7	-44.3	17.7	0.00e+00	0	39	0	161480704	55	4706
2026-01-25 22:12:15.03	48.24	14.46	-41.6	-44.1	17.8	0.00e+00	0	39	0	163577856	55	4638
2026-01-25 22:12:16.16	48.43	14.53	-41.5	-44.0	17.9	0.00e+00	0	39	0	165675008	55	4598
2026-01-25 22:12:17.40	48.63	14.61	-41.5	-44.0	18.0	0.00e+00	0	39	0	167772160	54	4838
2026-01-25 22:12:18.25	48.77	14.67	-41.5	-44.0	18.0	0.00e+00	0	39	0	169869312	54	4839
2026-01-25 22:12:19.39	48.96	14.74	-41.5	-44.1	17.9	0.00e+00	0	39	0	171966464	54	4877
2026-01-25 22:12:20.24	49.11	14.80	-41.3	-43.8	18.2	0.00e+00	0	39	0	173015040	54	4753
2026-01-25 22:12:21.38	49.30	14.87	-41.2	-43.7	18.3	0.00e+00	0	39	0	175112192	54	4672
2026-01-25 22:12:22.23	49.44	14.92	-41.2	-43.6	18.4	0.00e+00	0	39	0	177209344	54	4633
2026-01-25 22:12:23.37	49.63	15.00	-41.2	-43.7	18.3	0.00e+00	0	39	0	179306496	54	4653
2026-01-25 22:12:24.22	49.78	15.05	-41.0	-43.4	18.5	0.00e+00	0	39	0	180355072	54	4537
2026-01-25 22:12:25.35	49.97	15.12	-40.9	-43.3	18.7	0.00e+00	0	39	0	182452224	53	4720
2026-01-25 22:12:26.21	50.12	15.18	-40.9	-43.3	18.6	0.00e+00	0	39	0	184549376	53	4735
2026-01-25 22:12:27.42	50.32	15.25	-40.8	-43.2	18.8	0.00e+00	0	39	0	186646528	53	4663
2026-01-25 22:12:28.28	50.47	15.31	-40.7	-43.0	18.9	0.00e+00	0	39	0	187695104	53	4583
2026-01-25 22:12:29.49	50.68	15.38	-40.6	-43.0	19.0	0.00e+00	0	39	0	190840832	53	4556
2026-01-25 22:12:30.35	50.83	15.44	-40.7	-43.1	18.9	0.00e+00	0	39	0	191889408	53	4618
2026-01-25 22:12:31.49	51.03	15.51	-40.6	-42.9	19.0	0.00e+00	0	39	0	193986560	53	4525
2026-01-25 22:12:32.34	51.18	15.56	-40.5	-42.9	19.1	0.00e+00	0	39	0	196083712	53	4499
2026-01-25 22:12:33.48	51.38	15.64	-40.6	-43.0	19.0	0.00e+00	0	39	0	198180864	53	4555
2026-01-25 22:12:34.33	51.53	15.69	-40.5	-42.8	19.2	0.00e+00	0	39	0	199229440	52	4719
2026-01-25 22:12:35.67	51.77	15.77	-40.4	-42.7	19.3	0.00e+00	0	39	0	202375168	52	4684
2026-01-25 22:12:36.38	51.90	15.82	-40.5	-42.8	19.2	0.00e+00	0	39	0	203423744	52	4719
2026-01-25 22:12:37.68	52.13	15.90	-40.4	-42.7	19.2	0.00e+00	0	39	0	205520896	52	4704
2026-01-25 22:12:38.39	52.26	15.94	-40.4	-42.6	19.3	0.00e+00	0	39	0	207618048	52	4649
2026-01-25 22:12:39.67	52.49	16.02	-40.3	-42.6	19.4	0.00e+00	0	39	0	209715200	52	4618
2026-01-25 22:12:40.38	52.62	16.07	-40.3	-42.6	19.3	0.00e+00	0	39	0	210763776	52	4630
2026-01-25 22:12:41.66	52.85	16.15	-40.4	-42.7	19.2	0.00e+00	0	39	0	212860928	52	4675
2026-01-25 22:12:42.40	52.99	16.19	-40.4	-42.7	19.2	0.00e+00	0	39	0	214958080	52	4681
2026-01-25 22:12:43.68	53.22	16.27	-40.4	-42.8	19.2	0.00e+00	0	39	0	217055232	52	4722
2026-01-25 22:12:44.39	53.35	16.32	-40.5	-42.8	19.2	0.00e+00	0	39	0	218103808	52	4730
2026-01-25 22:12:45.67	53.59	16.39	-40.4	-42.7	19.2	0.00e+00	0	39	0	221249536	52	4692
2026-01-25 22:12:46.39	53.72	16.44	-40.4	-42.7	19.3	0.00e+00	0	39	0	222298112	52	4688
2026-01-25 22:12:47.67	53.96	16.52	-40.3	-42.6	19.3	0.00e+00	0	39	0	224395264	52	4630
2026-01-25 22:12:48.38	54.09	16.56	-40.3	-42.6	19.3	0.00e+00	0	39	0	225443840	52	4631
2026-01-25 22:12:49.66	54.33	16.64	-40.4	-42.7	19.2	0.00e+00	0	39	0	228589568	52	4685
2026-01-25 22:12:50.37	54.47	16.68	-40.4	-42.7	19.3	0.00e+00	0	39	0	229638144	52	4677
2026-01-25 22:12:51.74	54.73	16.77	-40.4	-42.7	19.3	0.00e+00	0	39	0	232783872	52	4681
2026-01-25 22:12:52.46	54.86	16.81	-40.6	-42.9	19.1	0.00e+00	0	39	0	233832448	52	4769
2026-01-25 22:12:53.73	55.11	16.89	-40.7	-43.0	19.0	0.00e+00	0	39	0	235929600	52	4860
2026-01-25 22:12:54.45	55.25	16.93	-40.8	-43.2	18.8	0.00e+00	0	39	0	236978176	52	4972
2026-01-25 22:12:55.72	55.49	17.01	-40.9	-43.3	18.7	0.00e+00	0	39	0	240123904	52	5004
2026-01-25 22:12:56.43	55.63	17.05	-41.0	-43.4	18.6	0.00e+00	0	39	0	241172480	52	5069
2026-01-25 22:12:57.71	55.88	17.13	-40.9	-43.3	18.7	0.00e+00	0	39	0	243269632	52	4985
2026-01-25 22:12:58.44	56.02	17.17	-40.9	-43.3	18.7	0.00e+00	0	39	0	244318208	52	5021
2026-01-25 22:12:59.72	56.27	17.25	-41.0	-43.4	18.6	0.00e+00	0	39	0	247463936	52	5050
2026-01-25 22:13:00.48	56.42	17.29	-40.8	-43.2	18.8	0.00e+00	0	39	0	248512512	52	4960
2026-01-25 22:13:01.76	56.67	17.37	-40.9	-43.2	18.8	0.00e+00	0	39	0	250609664	52	4964
2026-01-25 22:13:02.51	56.82	17.41	-40.9	-43.2	18.8	0.00e+00	0	39	0	252706816	52	4963
2026-01-25 22:13:03.79	57.07	17.49	-40.9	-43.3	18.7	0.00e+00	0	39	0	254803968	52	4989
2026-01-25 22:13:04.52	57.22	17.53	-41.0	-43.4	18.6	0.00e+00	0	39	0	255852544	52	5051
2026-01-25 22:13:05.80	57.47	17.60	-41.1	-43.4	18.5	0.00e+00	0	39	0	258998272	52	5099
2026-01-25 22:13:06.62	57.64	17.65	-41.1	-43.6	18.5	0.00e+00	0	39	0	260046848	52	5165
2026-01-25 22:13:07.75	57.87	17.72	-41.2	-43.7	18.4	0.00e+00	0	39	0	262144000	53	4933
2026-01-25 22:13:08.61	58.04	17.77	-41.2	-43.6	18.4	0.00e+00	0	39	0	264241152	53	4903
2026-01-25 22:13:09.75	58.27	17.83	-41.3	-43.8	18.3	0.00e+00	0	39	0	266338304	53	4987
2026-01-25 22:13:10.60	58.45	17.88	-41.2	-43.7	18.4	0.00e+00	0	39	0	267386880	53	4940
2026-01-25 22:13:11.74	58.68	17.95	-41.3	-43.8	18.3	0.00e+00	0	39	0	269484032	53	4998
2026-01-25 22:13:12.59	58.86	18.00	-41.3	-43.8	18.2	0.00e+00	0	39	0	271581184	53	5017
2026-01-25 22:13:13.73	59.09	18.06	-41.5	-43.9	18.1	0.00e+00	0	39	0	273678336	53	5099
2026-01-25 22:13:14.58	59.27	18.11	-41.5	-44.0	18.0	0.00e+00	0	39	0	274726912	53	5128
2026-01-25 22:13:15.71	59.50	18.17	-41.5	-44.1	18.0	0.00e+00	0	39	0	276824064	53	5178
2026-01-25 22:13:16.56	59.68	18.22	-41.6	-44.1	17.9	0.00e+00	0	39	0	278921216	53	5185
2026-01-25 22:13:17.70	59.92	18.28	-41.7	-44.3	17.7	0.00e+00	0	39	0	281018368	54	5026
2026-01-25 22:13:18.63	60.11	18.34	-41.8	-44.4	17.7	0.00e+00	0	39	0	283115520	54	5067
2026-01-25 22:13:19.63	60.32	18.39	-41.9	-44.5	17.5	0.00e+00	0	39	0	284164096	54	5156
2026-01-25 22:13:20.62	60.53	18.45	-41.9	-44.6	17.4	0.00e+00	0	39	0	286261248	54	5201
2026-01-25 22:13:21.84	60.79	18.51	-42.1	-44.8	17.3	0.00e+00	0	39	0	288358400	54	5287
2026-01-25 22:13:22.74	60.98	18.56	-42.1	-44.9	17.2	0.00e+00	0	39	0	290455552	54	5343
2026-01-25 22:13:23.86	61.22	18.62	-42.2	-44.9	17.2	0.00e+00	0	39	0	292552704	54	5361
2026-01-25 22:13:24.71	61.41	18.67	-42.2	-44.9	17.2	0.00e+00	0	39	0	293601280	55	5044
2026-01-25 22:13:26.10	61.71	18.74	-42.2	-44.9	17.2	0.00e+00	0	39	0	296747008	55	5055
2026-01-25 22:13:26.81	61.86	18.78	-42.2	-45.0	17.1	0.00e+00	0	39	0	297795584	55	5116
2026-01-25 22:13:28.09	62.14	18.85	-42.3	-45.1	17.0	0.00e+00	0	39	0	299892736	55	5199
2026-01-25 22:13:29.27	62.39	18.91	-42.4	-45.2	16.9	0.00e+00	0	39	0	303038464	55	5261
2026-01-25 22:13:30.13	62.58	18.96	-42.5	-45.4	16.7	0.00e+00	0	39	0	304087040	55	5346
2026-01-25 22:13:31.26	62.83	19.02	-42.5	-45.4	16.7	0.00e+00	0	39	0	306184192	55	5346
2026-01-25 22:13:32.11	63.02	19.06	-42.4	-45.2	16.8	0.00e+00	0	39	0	308281344	55	5269
2026-01-25 22:13:33.32	63.28	19.12	-42.3	-45.1	17.0	0.00e+00	0	39	0	310378496	55	5162
2026-01-25 22:13:34.17	63.47	19.17	-42.1	-44.9	17.2	0.00e+00	0	39	0	311427072	55	5045
2026-01-25 22:13:35.30	63.72	19.22	-42.0	-44.6	17.4	0.00e+00	0	39	0	313524224	55	4925
2026-01-25 22:13:36.16	63.92	19.27	-41.9	-44.5	17.6	0.00e+00	0	39	0	315621376	55	4839
2026-01-25 22:13:37.29	64.17	19.32	-41.8	-44.4	17.7	0.00e+00	0	39	0	317718528	55	4807
2026-01-25 22:13:38.15	64.36	19.37	-41.9	-44.5	17.6	0.00e+00	0	39	0	318767104	55	4832
2026-01-25 22:13:39.47	64.66	19.43	-42.0	-44.6	17.5	0.00e+00	0	39	0	321912832	55	4906
2026-01-25 22:13:40.18	64.82	19.47	-42.0	-44.7	17.4	0.00e+00	0	39	0	322961408	55	4938
2026-01-25 22:13:41.46	65.11	19.53	-42.1	-44.8	17.3	0.00e+00	0	39	0	325058560	55	5017
2026-01-25 22:13:42.17	65.27	19.57	-42.1	-44.8	17.3	0.00e+00	0	39	0	327155712	55	5017
2026-01-25 22:13:43.45	65.56	19.63	-42.1	-44.8	17.2	0.00e+00	0	39	0	329252864	55	5033
2026-01-25 22:13:44.18	65.73	19.66	-42.2	-44.8	17.2	0.00e+00	0	39	0	330301440	55	5041
2026-01-25 22:13:45.46	66.03	19.72	-42.0	-44.6	17.4	0.00e+00	0	39	0	333447168	55	4914
2026-01-25 22:13:46.18	66.19	19.76	-41.9	-44.6	17.5	0.00e+00	0	39	0	334495744	55	4890
2026-01-25 22:13:47.46	66.49	19.82	-41.9	-44.6	17.5	0.00e+00	0	39	0	336592896	55	4893
2026-01-25 22:13:48.18	66.65	19.85	-42.0	-44.7	17.4	0.00e+00	0	39	0	337641472	55	4938
2026-01-25 22:13:49.46	66.95	19.91	-41.9	-44.6	17.5	0.00e+00	0	39	0	340787200	55	4882
2026-01-25 22:13:50.18	67.12	19.94	-41.8	-44.4	17.6	0.00e+00	0	39	0	341835776	55	4811
2026-01-25 22:13:51.54	67.44	20.00	-41.8	-44.4	17.7	0.00e+00	0	39	0	343932928	55	4799
2026-01-25 22:13:52.25	67.60	20.04	-41.8	-44.4	17.7	0.00e+00	0	39	0	346030080	55	4805
2026-01-25 22:13:53.53	67.91	20.09	-41.8	-44.4	17.7	0.00e+00	0	39	0	348127232	55	4781
2026-01-25 22:13:54.25	68.08	20.13	-41.8	-44.4	17.7	0.00e+00	0	39	0	349175808	55	4786
2026-01-25 22:13:55.64	68.40	20.19	-41.8	-44.3	17.8	0.00e+00	0	39	0	352321536	55	4747
2026-01-25 22:13:56.35	68.57	20.22	-41.8	-44.3	17.8	0.00e+00	0	39	0	353370112	55	4741
2026-01-25 22:13:57.63	68.88	20.27	-41.9	-44.5	17.6	0.00e+00	0	39	0	355467264	55	4831
2026-01-25 22:13:58.34	69.05	20.30	-41.9	-44.5	17.6	0.00e+00	0	39	0	357564416	55	4833
2026-01-25 22:13:59.74	69.38	20.36	-41.9	-44.5	17.5	0.00e+00	0	39	0	359661568	55	4850
2026-01-25 22:14:00.46	69.56	20.39	-41.8	-44.4	17.7	0.00e+00	0	39	0	360710144	55	4789
2026-01-25 22:14:01.74	69.86	20.44	-41.8	-44.4	17.7	0.00e+00	0	39	0	363855872	55	4772
2026-01-25 22:14:02.45	70.03	20.47	-41.7	-44.2	17.9	0.00e+00	0	39	0	364904448	55	4696
2026-01-25 22:14:03.73	70.34	20.52	-41.5	-44.0	18.1	0.00e+00	0	39	0	367001600	55	4567
2026-01-25 22:14:04.44	70.52	20.55	-41.4	-43.8	18.2	0.00e+00	0	39	0	368050176	54	4751
2026-01-25 22:14:05.71	70.83	20.60	-41.3	-43.8	18.3	0.00e+00	0	39	0	371195904	54	4718
2026-01-25 22:14:06.42	71.00	20.63	-41.2	-43.6	18.5	0.00e+00	0	39	0	372244480	54	4638
2026-01-25 22:14:07.70	71.31	20.68	-41.2	-43.6	18.5	0.00e+00	0	39	0	374341632	54	4618
2026-01-25 22:14:08.41	71.48	20.71	-41.2	-43.7	18.4	0.00e+00	0	39	0	376438784	54	4670
2026-01-25 22:14:09.69	71.80	20.76	-41.3	-43.8	18.3	0.00e+00	0	39	0	378535936	54	4735
2026-01-25 22:14:10.51	72.00	20.79	-41.3	-43.8	18.3	0.00e+00	0	39	0	379584512	54	4733
2026-01-25 22:14:11.65	72.28	20.83	-41.4	-43.9	18.2	0.00e+00	0	39	0	381681664	54	4778
2026-01-25 22:14:12.50	72.49	20.86	-41.4	-43.9	18.3	0.00e+00	0	39	0	383778816	54	4766
2026-01-25 22:14:13.64	72.78	20.90	-41.3	-43.7	18.3	0.00e+00	0	39	0	385875968	54	4704
2026-01-25 22:14:14.49	72.99	20.93	-41.1	-43.5	18.6	0.00e+00	0	39	0	386924544	54	4577
2026-01-25 22:14:15.63	73.27	20.97	-41.0	-43.4	17.3	0.00e+00	0	39	0	389021696	54	4528
2026-01-25 22:14:16.81	73.56	21.01	-41.0	-43.4	18.7	0.00e+00	0	39	0	392167424	54	4510
2026-01-25 22:14:17.67	73.78	21.04	-40.9	-43.3	18.8	0.00e+00	0	39	0	393216000	53	4724
2026-01-25 22:14:18.81	74.07	21.08	-40.9	-43.3	18.7	0.00e+00	0	39	0	395313152	53	4726
2026-01-25 22:14:19.66	74.28	21.10	-41.0	-43.4	18.5	0.00e+00	0	39	0	397410304	53	4806
2026-01-25 22:14:20.80	74.57	21.14	-41.0	-43.4	18.6	0.00e+00	0	39	0	399507456	53	4786
2026-01-25 22:14:21.65	74.78	21.17	-41.0	-43.4	18.7	0.00e+00	0	39	0	400556032	53	4803
2026-01-25 22:14:22.79	75.07	21.20	-41.0	-43.3	18.7	0.00e+00	0	39	0	402653184	53	4745
2026-01-25 22:14:23.64	75.28	21.23	-41.0	-43.4	18.6	0.00e+00	0	39	0	404750336	53	4797
2026-01-25 22:14:24.87	75.60	21.27	-41.1	-43.6	18.5	0.00e+00	0	39	0	406847488	53	4876
2026-01-25 22:14:25.73	75.82	21.29	-41.2	-43.7	18.4	0.00e+00	0	39	0	407896064	53	4943
2026-01-25 22:14:26.86	76.10	21.32	-41.2	-43.6	18.5	0.00e+00	0	39	0	411041792	53	4901
2026-01-25 22:14:27.72	76.32	21.35	-41.2	-43.6	18.5	0.00e+00	0	39	0	412090368	53	4906
2026-01-25 22:14:28.85	76.61	21.38	-41.1	-43.6	18.5	0.00e+00	0	39	0	414187520	53	4883
2026-01-25 22:14:29.71	76.83	21.40	-41.2	-43.7	18.4	0.00e+00	0	39	0	416284672	53	4952
2026-01-25 22:14:30.84	77.12	21.43	-41.3	-43.8	18.4	0.00e+00	0	39	0	418381824	53	4989
2026-01-25 22:14:31.70	77.34	21.46	-41.5	-44.0	18.1	0.00e+00	0	39	0	419430400	53	5132
2026-01-25 22:14:32.83	77.63	21.49	-41.6	-44.2	18.0	0.00e+00	0	39	0	421527552	53	5219
2026-01-25 22:14:33.68	77.85	21.51	-41.7	-44.3	17.8	0.00e+00	0	39	0	423624704	54	4995
2026-01-25 22:14:34.82	78.15	21.53	-41.9	-44.5	17.6	0.00e+00	0	39	0	425721856	54	5110
2026-01-25 22:14:35.68	78.37	21.56	-41.9	-44.6	17.6	0.00e+00	0	39	0	426770432	54	5162
2026-01-25 22:14:36.82	78.67	21.58	-42.0	-44.6	17.5	0.00e+00	0	39	0	428867584	54	5201
2026-01-25 22:14:37.67	78.89	21.60	-41.9	-44.6	17.6	0.00e+00	0	39	0	430964736	54	5171
2026-01-25 22:14:38.81	79.18	21.63	-41.8	-44.5	17.7	0.00e+00	0	39	0	433061888	54	5102
2026-01-25 22:14:39.66	79.40	21.65	-41.6	-44.2	17.9	0.00e+00	0	39	0	434110464	54	4943
2026-01-25 22:14:40.79	79.70	21.67	-41.5	-44.0	18.1	0.00e+00	0	39	0	437256192	54	4849
2026-01-25 22:14:41.65	79.92	21.69	-41.5	-44.0	18.1	0.00e+00	0	39	0	438304768	54	4844
2026-01-25 22:14:42.79	80.22	21.71	-41.3	-43.7	18.5	0.00e+00	0	39	0	440401920	54	4668
2026-01-25 22:14:43.64	80.44	21.73	-41.3	-43.7	18.4	0.00e+00	0	39	0	442499072	54	4676
2026-01-25 22:14:45.01	80.80	21.75	-41.5	-44.0	18.1	0.00e+00	0	39	0	444596224	54	4864
2026-01-25 22:14:45.72	80.99	21.77	-41.6	-44.2	17.9	0.00e+00	0	39	0	445644800	54	4953
2026-01-25 22:14:47.00	81.32	21.79	-41.7	-44.4	17.8	0.00e+00	0	39	0	448790528	54	5046
2026-01-25 22:14:47.73	81.52	21.80	-41.7	-44.4	17.8	0.00e+00	0	39	0	449839104	54	5054
2026-01-25 22:14:49.01	81.85	21.82	-41.9	-44.6	17.6	0.00e+00	0	39	0	451936256	54	5205
2026-01-25 22:14:49.74	82.05	21.83	-41.9	-44.6	17.6	0.00e+00	0	39	0	452984832	54	5164
2026-01-25 22:14:51.02	82.38	21.85	-41.8	-44.4	17.7	0.00e+00	0	39	0	456130560	54	5086
2026-01-25 22:14:51.73	82.57	21.86	-41.8	-44.4	17.7	0.00e+00	0	39	0	457179136	54	5081
2026-01-25 22:14:53.01	82.91	21.88	-41.6	-44.3	17.9	0.00e+00	0	39	0	459276288	54	4989
2026-01-25 22:14:53.74	83.10	21.89	-41.5	-44.1	18.0	0.00e+00	0	39	0	461373440	54	4895
2026-01-25 22:14:55.02	83.44	21.91	-41.4	-44.0	18.1	0.00e+00	0	39	0	463470592	54	4838
2026-01-25 22:14:55.74	83.63	21.92	-41.5	-44.1	18.1	0.00e+00	0	39	0	464519168	54	4882
2026-01-25 22:14:57.02	83.97	21.93	-41.3	-43.8	18.3	0.00e+00	0	39	0	466616320	54	4755
2026-01-25 22:14:57.75	84.16	21.94	-41.4	-44.0	18.1	0.00e+00	0	39	0	468713472	54	4870
2026-01-25 22:14:59.04	84.51	21.95	-41.7	-44.4	17.8	0.00e+00	0	39	0	470810624	54	5046
2026-01-25 22:14:59.75	84.70	21.96	-41.7	-44.3	17.8	0.00e+00	0	39	0	471859200	54	5035
2026-01-25 22:15:01.03	85.04	21.97	-41.6	-44.3	17.9	0.00e+00	0	39	0	475004928	54	4984
2026-01-25 22:15:01.76	85.23	21.98	-41.5	-44.2	18.0	0.00e+00	0	39	0	476053504	54	4933
2026-01-25 22:15:03.15	85.60	21.99	-41.4	-44.0	18.1	0.00e+00	0	39	0	478150656	54	4841
2026-01-25 22:15:03.86	85.79	21.99	-41.5	-44.0	18.1	0.00e+00	0	39	0	480247808	54	4861
2026-01-25 22:15:05.14	86.13	22.00	-41.4	-43.9	18.2	0.00e+00	0	39	0	482344960	54	4804
2026-01-25 22:15:06.18	86.41	22.01	-41.3	-43.8	18.4	0.00e+00	0	39	0	484442112	54	4720
2026-01-25 22:15:07.49	86.76	22.02	-41.0	-43.4	18.7	0.00e+00	0	39	0	486539264	54	4539
2026-01-25 22:15:08.20	86.95	22.02	-40.9	-43.3	18.8	0.00e+00	0	39	0	487587840	53	4742
2026-01-25 22:15:09.83	87.38	22.02	-40.8	-43.2	18.9	0.00e+00	0	39	0	490733568	53	4691
2026-01-25 22:15:10.40	87.53	22.03	-40.8	-43.3	18.8	0.00e+00	0	39	0	491782144	53	4727
2026-01-25 22:15:12.10	87.99	22.03	-41.2	-43.7	18.4	0.00e+00	0	39	0	494927872	53	4960
2026-01-25 22:15:12.72	88.15	22.03	-41.4	-43.9	18.2	0.00e+00	0	40	0	497025024	53	5056
2026-01-25 22:15:14.28	88.57	22.03	-41.5	-44.1	18.1	0.00e+00	0	39	0	499122176	53	5177
2026-01-25 22:15:14.99	88.76	22.03	-41.7	-44.3	17.9	0.00e+00	0	39	0	501219328	53	5280
2026-01-25 22:15:16.27	89.10	22.03	-41.6	-44.2	17.9	0.00e+00	0	39	0	503316480	53	5276
2026-01-25 22:15:16.98	89.29	22.03	-41.7	-44.3	17.8	0.00e+00	0	39	0	504365056	53	5302
2026-01-25 22:15:18.26	89.63	22.03	-41.8	-44.4	17.7	0.00e+00	0	39	0	506462208	54	5087
2026-01-25 22:15:18.97	89.82	22.03	-41.7	-44.4	17.8	0.00e+00	0	39	0	508559360	54	5064
2026-01-25 22:15:20.25	90.16	22.02	-41.8	-44.5	17.7	0.00e+00	0	39	0	510656512	54	5111
2026-01-25 22:15:20.96	90.35	22.02	-41.9	-44.5	17.6	0.00e+00	0	39	0	511705088	54	5156
2026-01-25 22:15:22.24	90.70	22.02	-41.7	-44.3	17.9	0.00e+00	0	39	0	514850816	54	4984
2026-01-25 22:15:22.95	90.88	22.01	-41.5	-44.1	18.0	0.00e+00	0	39	0	515899392	54	4885
2026-01-25 22:15:24.23	91.23	22.01	-41.5	-44.1	18.1	0.00e+00	0	39	0	517996544	54	4887
2026-01-25 22:15:24.96	91.42	22.00	-41.6	-44.1	18.0	0.00e+00	0	39	0	519045120	54	4912
2026-01-25 22:15:26.24	91.76	21.99	-41.6	-44.1	18.0	0.00e+00	0	39	0	522190848	54	4909
2026-01-25 22:15:26.95	91.95	21.99	-41.7	-44.3	17.9	0.00e+00	0	39	0	523239424	54	4989
2026-01-25 22:15:28.32	92.32	21.98	-41.8	-44.3	17.8	0.00e+00	0	39	0	525336576	54	5040
2026-01-25 22:15:29.03	92.51	21.97	-42.0	-44.6	17.5	0.00e+00	0	39	0	527433728	54	5212
2026-01-25 22:15:30.31	92.85	21.96	-42.0	-44.6	17.5	0.00e+00	0	39	0	529530880	54	5215
2026-01-25 22:15:31.02	93.03	21.95	-42.0	-44.7	17.4	0.00e+00	0	39	0	530579456	54	5269
2026-01-25 22:15:32.30	93.37	21.94	-41.8	-44.4	17.7	0.00e+00	0	39	0	533725184	54	5087
2026-01-25 22:15:33.03	93.57	21.93	-41.7	-44.3	17.8	0.00e+00	0	39	0	534773760	54	5027
2026-01-25 22:15:34.31	93.91	21.92	-41.5	-43.9	18.2	0.00e+00	0	39	0	536870912	54	4810
2026-01-25 22:15:35.02	94.10	21.91	-41.5	-43.9	18.2	0.00e+00	0	39	0	537919488	54	4811
2026-01-25 22:15:36.30	94.44	21.89	-41.4	-43.9	18.2	0.00e+00	0	39	0	541065216	54	4767
2026-01-25 22:15:37.01	94.62	21.88	-41.3	-43.8	18.3	0.00e+00	0	39	0	542113792	54	4751
2026-01-25 22:15:38.29	94.96	21.86	-41.3	-43.7	18.4	0.00e+00	0	39	0	544210944	54	4691
2026-01-25 22:15:39.00	95.15	21.85	-41.2	-43.7	18.4	0.00e+00	0	39	0	546308096	54	4671
2026-01-25 22:15:40.28	95.49	21.83	-41.2	-43.7	18.4	0.00e+00	0	39	0	548405248	54	4670
2026-01-25 22:15:41.02	95.68	21.82	-41.2	-43.6	18.5	0.00e+00	0	39	0	549453824	54	4618
2026-01-25 22:15:42.30	96.02	21.80	-41.1	-43.5	18.6	0.00e+00	0	39	0	551550976	54	4560
2026-01-25 22:15:43.20	96.26	21.79	-41.0	-43.4	18.7	0.00e+00	0	39	0	553648128	54	4519
2026-01-25 22:15:44.23	96.53	21.77	-41.0	-43.4	18.7	0.00e+00	0	39	0	555745280	54	4524
2026-01-25 22:15:45.22	96.79	21.75	-41.0	-43.4	18.7	0.00e+00	0	39	0	557842432	54	4515
2026-01-25 22:15:46.22	97.05	21.73	-41.0	-43.4	18.8	0.00e+00	0	39	0	558891008	53	4760
2026-01-25 22:15:47.21	97.31	21.71	-40.9	-43.3	18.8	0.00e+00	0	39	0	560988160	53	4712
2026-01-25 22:15:48.21	97.57	21.69	-40.8	-43.2	18.9	0.00e+00	0	39	0	563085312	53	4673
2026-01-25 22:15:49.20	97.83	21.67	-40.9	-43.3	18.8	0.00e+00	0	39	0	565182464	53	4709
2026-01-25 22:15:50.20	98.09	21.65	-40.7	-43.0	19.0	0.00e+00	0	39	0	567279616	53	4591
2026-01-25 22:15:51.19	98.35	21.63	-40.7	-43.0	19.0	0.00e+00	0	39	0	568328192	53	4589
2026-01-25 22:15:52.25	98.63	21.60	-40.8	-43.1	18.9	0.00e+00	0	39	0	570425344	53	4641
2026-01-25 22:15:53.16	98.86	21.58	-40.9	-43.3	18.8	0.00e+00	0	39	0	572522496	53	4710
2026-01-25 22:15:54.28	99.15	21.56	-41.1	-43.5	18.5	0.00e+00	0	39	0	574619648	53	4855
2026-01-25 22:15:55.14	99.38	21.54	-41.2	-43.6	18.5	0.00e+00	0	39	0	575668224	53	4903
2026-01-25 22:15:56.28	99.67	21.51	-41.2	-43.7	18.4	0.00e+00	0	39	0	577765376	53	4952
2026-01-25 22:15:57.13	99.89	21.49	-41.3	-43.7	18.4	0.00e+00	0	39	0	579862528	53	4966
2026-01-25 22:15:58.55	100.26	21.45	-41.1	-43.5	18.5	0.00e+00	0	39	0	583008256	53	4853
2026-01-25 22:15:59.26	100.44	21.43	-40.9	-43.2	18.8	0.00e+00	0	39	0	584056832	53	4664
2026-01-25 22:16:00.75	100.82	21.39	-40.6	-42.9	19.1	0.00e+00	0	39	0	586153984	53	4527
2026-01-25 22:16:01.73	101.08	21.36	-40.6	-42.9	19.2	0.00e+00	0	39	0	588251136	53	4519
2026-01-25 22:16:02.72	101.33	21.34	-40.4	-42.7	19.4	0.00e+00	0	39	0	590348288	52	4667
2026-01-25 22:16:03.72	101.58	21.31	-40.0	-42.2	19.8	0.00e+00	0	39	0	592445440	52	4424
2026-01-25 22:16:04.71	101.84	21.28	-39.9	-42.0	20.0	0.00e+00	0	39	0	594542592	51	4586
2026-01-25 22:16:05.71	102.09	21.25	-39.8	-41.9	20.2	0.00e+00	0	39	0	595591168	51	4523
2026-01-25 22:16:06.70	102.34	21.22	-40.0	-42.1	20.0	0.00e+00	0	39	0	597688320	51	4634
2026-01-25 22:16:07.70	102.60	21.19	-40.0	-42.1	19.9	0.00e+00	0	39	0	599785472	51	4647
2026-01-25 22:16:08.74	102.86	21.15	-40.2	-42.4	19.7	0.00e+00	0	39	0	601882624	51	4790
2026-01-25 22:16:09.72	103.11	21.12	-40.4	-42.6	19.5	0.00e+00	0	39	0	602931200	51	4900
2026-01-25 22:16:10.71	103.36	21.09	-40.6	-42.9	19.2	0.00e+00	0	39	0	605028352	51	5085
2026-01-25 22:16:11.71	103.61	21.06	-40.6	-42.9	19.2	0.00e+00	0	39	0	607125504	51	5091
2026-01-25 22:16:12.70	103.86	21.02	-40.6	-42.9	19.2	0.00e+00	0	39	0	609222656	51	5047
2026-01-25 22:16:13.69	104.11	20.99	-40.5	-42.8	19.3	0.00e+00	0	39	0	611319808	51	5018
2026-01-25 22:16:14.69	104.36	20.96	-40.5	-42.8	19.3	0.00e+00	0	39	0	612368384	51	5018
2026-01-25 22:16:15.69	104.61	20.92	-40.5	-42.8	19.2	0.00e+00	0	39	0	614465536	51	5039
2026-01-25 22:16:16.68	104.85	20.89	-40.4	-42.7	19.4	0.00e+00	0	39	0	616562688	51	4956
2026-01-25 22:16:17.68	105.10	20.85	-40.4	-42.7	19.4	0.00e+00	0	39	0	618659840	51	4951
2026-01-25 22:16:18.67	105.35	20.81	-40.4	-42.6	19.5	0.00e+00	0	39	0	619708416	51	4917
2026-01-25 22:16:19.67	105.59	20.78	-40.5	-42.8	19.4	0.00e+00	0	39	0	621805568	51	4997
2026-01-25 22:16:20.66	105.84	20.74	-40.0	-42.2	19.9	0.00e+00	0	39	0	623902720	51	4686
2026-01-25 22:16:21.66	106.09	20.70	-39.8	-41.9	20.1	0.00e+00	0	39	0	625999872	51	4534
2026-01-25 22:16:22.65	106.33	20.66	-39.8	-41.9	20.2	0.00e+00	0	39	0	628097024	51	4518
2026-01-25 22:16:23.65	106.57	20.63	-39.7	-41.9	20.1	0.00e+00	0	39	0	629145600	51	4515
2026-01-25 22:16:24.69	106.83	20.58	-39.8	-41.9	20.1	0.00e+00	0	39	0	631242752	51	4540
2026-01-25 22:16:25.65	107.06	20.55	-39.8	-42.0	20.1	0.00e+00	0	39	0	633339904	51	4555
2026-01-25 22:16:26.76	107.33	20.50	-39.7	-41.8	20.3	0.00e+00	0	39	0	635437056	51	4443
2026-01-25 22:16:27.63	107.54	20.47	-39.7	-41.8	20.3	0.00e+00	0	40	0	636485632	51	4466
2026-01-25 22:16:28.94	107.86	20.41	-39.9	-42.0	20.1	0.00e+00	0	39	0	639631360	51	4578
2026-01-25 22:16:29.65	108.03	20.38	-39.9	-42.1	20.0	0.00e+00	0	39	0	640679936	51	4629
2026-01-25 22:16:30.93	108.34	20.33	-40.1	-42.3	19.7	0.00e+00	0	40	0	642777088	51	4753
2026-01-25 22:16:31.66	108.51	20.30	-40.3	-42.6	19.5	0.00e+00	0	40	0	644874240	51	4886
2026-01-25 22:16:32.94	108.82	20.24	-40.4	-42.7	19.4	0.00e+00	0	39	0	646971392	51	4970
2026-01-25 22:16:33.73	109.01	20.21	-40.5	-42.8	19.3	0.00e+00	0	40	0	648019968	51	4991
2026-01-25 22:16:34.93	109.29	20.16	-40.5	-42.8	19.2	0.00e+00	0	39	0	651165696	52	4741
2026-01-25 22:16:35.78	109.50	20.12	-40.5	-42.8	19.2	0.00e+00	0	39	0	652214272	52	4741
2026-01-25 22:16:36.92	109.77	20.07	-40.5	-42.7	19.3	0.00e+00	0	39	0	654311424	52	4692
2026-01-25 22:16:37.77	109.97	20.03	-40.4	-42.7	19.3	0.00e+00	0	40	0	656408576	52	4677
2026-01-25 22:16:38.91	110.23	19.98	-40.4	-42.6	19.4	0.00e+00	0	39	0	658505728	52	4639
2026-01-25 22:16:39.76	110.43	19.94	-40.4	-42.7	19.4	0.00e+00	0	39	0	659554304	52	4658
2026-01-25 22:16:40.89	110.70	19.89	-40.1	-42.3	19.7	0.00e+00	0	39	0	661651456	52	4459
2026-01-25 22:16:41.75	110.90	19.85	-40.0	-42.2	19.8	0.00e+00	0	39	0	663748608	52	4398
2026-01-25 22:16:42.98	111.18	19.79	-40.0	-42.1	19.9	0.00e+00	0	39	0	665845760	51	4635
2026-01-25 22:16:43.83	111.38	19.75	-40.0	-42.2	19.9	0.00e+00	0	39	0	666894336	51	4663
2026-01-25 22:16:44.97	111.65	19.70	-40.1	-42.3	19.8	0.00e+00	0	39	0	668991488	51	4753
2026-01-25 22:16:45.82	111.84	19.65	-40.4	-42.6	19.4	0.00e+00	0	39	0	671088640	51	4920
2026-01-25 22:16:46.96	112.10	19.60	-40.6	-42.9	19.1	0.00e+00	0	39	0	673185792	52	4811
2026-01-25 22:16:47.81	112.30	19.56	-40.9	-43.3	18.7	0.00e+00	0	39	0	675282944	52	5009
2026-01-25 22:16:48.94	112.56	19.50	-41.2	-43.7	18.4	0.00e+00	0	40	0	677380096	53	4943
2026-01-25 22:16:49.80	112.75	19.46	-41.3	-43.8	18.3	0.00e+00	0	39	0	678428672	53	5003
2026-01-25 22:16:50.93	113.01	19.40	-41.4	-43.9	18.0	0.00e+00	0	39	0	680525824	53	5070
2026-01-25 22:16:51.79	113.20	19.36	-41.4	-43.9	18.1	0.00e+00	0	39	0	682622976	53	5088
2026-01-25 22:16:52.92	113.46	19.30	-41.5	-44.1	17.9	0.00e+00	0	40	0	684720128	53	5185
2026-01-25 22:16:53.77	113.65	19.26	-41.5	-44.0	17.9	0.00e+00	0	39	0	685768704	53	5139
2026-01-25 22:16:54.91	113.90	19.20	-41.6	-44.2	17.9	0.00e+00	0	40	0	687865856	53	5252
2026-01-25 22:16:55.76	114.09	19.16	-41.6	-44.2	17.9	0.00e+00	0	39	0	689963008	53	5242
2026-01-25 22:16:56.90	114.35	19.10	-41.4	-43.9	18.1	0.00e+00	0	39	0	692060160	53	5096
2026-01-25 22:16:57.76	114.54	19.06	-41.3	-43.8	18.2	0.00e+00	0	39	0	693108736	53	4998
2026-01-25 22:16:58.89	114.79	19.00	-41.2	-43.6	18.4	0.00e+00	0	40	0	695205888	53	4890
2026-01-25 22:16:59.81	114.99	18.95	-41.2	-43.6	18.4	0.00e+00	0	40	0	697303040	53	4880
2026-01-25 22:17:00.98	115.25	18.89	-41.0	-43.4	18.6	0.00e+00	0	39	0	699400192	53	4808
2026-01-25 22:17:01.83	115.43	18.84	-41.0	-43.4	18.6	0.00e+00	0	39	0	701497344	53	4766
2026-01-25 22:17:02.97	115.68	18.78	-40.8	-43.1	18.9	0.00e+00	0	39	0	703594496	53	4643
2026-01-25 22:17:03.82	115.87	18.73	-40.9	-43.3	18.8	0.00e+00	0	39	0	704643072	53	4711
2026-01-25 22:17:04.96	116.11	18.67	-41.1	-43.5	18.5	0.00e+00	0	40	0	706740224	53	4840
2026-01-25 22:17:05.81	116.30	18.63	-41.2	-43.7	18.4	0.00e+00	0	40	0	708837376	53	4937
2026-01-25 22:17:06.95	116.54	18.56	-41.3	-43.8	18.2	0.00e+00	0	39	0	710934528	53	5035
2026-01-25 22:17:07.80	116.72	18.52	-41.4	-44.0	18.1	0.00e+00	0	40	0	711983104	53	5101
2026-01-25 22:17:08.94	116.97	18.45	-41.5	-44.1	17.9	0.00e+00	0	40	0	714080256	53	5172
2026-01-25 22:17:09.80	117.15	18.41	-41.6	-44.2	17.9	0.00e+00	0	39	0	716177408	53	5221
2026-01-25 22:17:10.94	117.39	18.34	-41.6	-44.2	17.8	0.00e+00	0	40	0	718274560	53	5266
2026-01-25 22:17:11.79	117.57	18.29	-41.6	-44.2	17.8	0.00e+00	0	40	0	719323136	54	4963
2026-01-25 22:17:13.01	117.83	18.23	-41.6	-44.1	17.9	0.00e+00	0	40	0	722468864	54	4898
2026-01-25 22:17:13.86	118.01	18.18	-41.6	-44.1	17.9	0.00e+00	0	40	0	723517440	54	4903
2026-01-25 22:17:15.08	118.26	18.11	-41.2	-43.6	18.4	0.00e+00	0	39	0	725614592	54	4634
2026-01-25 22:17:15.93	118.44	18.06	-40.8	-43.2	18.8	0.00e+00	0	40	0	727711744	53	4679
2026-01-25 22:17:17.07	118.68	18.00	-40.7	-43.1	18.9	0.00e+00	0	39	0	729808896	53	4599
2026-01-25 22:17:17.92	118.85	17.95	-40.7	-43.0	18.9	0.00e+00	0	39	0	730857472	53	4597
2026-01-25 22:17:19.06	119.09	17.88	-40.8	-43.1	18.8	0.00e+00	0	39	0	732954624	53	4646
2026-01-25 22:17:19.91	119.26	17.83	-40.9	-43.3	18.7	0.00e+00	0	39	0	735051776	53	4723
2026-01-25 22:17:21.05	119.49	17.77	-41.1	-43.5	18.5	0.00e+00	0	39	0	737148928	53	4826
2026-01-25 22:17:21.90	119.67	17.72	-41.1	-43.5	18.5	0.00e+00	0	39	0	739246080	53	4838
2026-01-25 22:17:23.04	119.90	17.65	-41.1	-43.5	18.5	0.00e+00	0	40	0	741343232	53	4836
2026-01-25 22:17:23.89	120.07	17.60	-41.1	-43.6	18.4	0.00e+00	0	40	0	742391808	53	4872
2026-01-25 22:17:25.03	120.30	17.53	-40.9	-43.3	18.7	0.00e+00	0	39	0	744488960	53	4728
2026-01-25 22:17:25.88	120.47	17.48	-40.9	-43.2	18.8	0.00e+00	0	39	0	746586112	53	4689
2026-01-25 22:17:27.02	120.70	17.41	-41.0	-43.3	18.6	0.00e+00	0	39	0	748683264	53	4752
2026-01-25 22:17:27.87	120.87	17.36	-41.0	-43.4	18.6	0.00e+00	0	39	0	749731840	53	4785
2026-01-25 22:17:29.00	121.09	17.30	-41.2	-43.7	18.3	0.00e+00	0	40	0	751828992	53	4931
2026-01-25 22:17:29.86	121.26	17.24	-41.3	-43.8	18.2	0.00e+00	0	40	0	753926144	53	5032
2026-01-25 22:17:31.00	121.49	17.18	-41.4	-44.0	18.0	0.00e+00	0	40	0	756023296	53	5105
2026-01-25 22:17:31.85	121.65	17.13	-41.5	-44.0	18.0	0.00e+00	0	39	0	757071872	53	5148
2026-01-25 22:17:32.98	121.87	17.06	-41.4	-44.0	18.0	0.00e+00	0	39	0	759169024	53	5117
2026-01-25 22:17:33.84	122.04	17.00	-41.5	-44.1	17.9	0.00e+00	0	39	0	761266176	53	5188
2026-01-25 22:17:34.98	122.26	16.94	-41.6	-44.1	17.9	0.00e+00	0	39	0	763363328	53	5204
2026-01-25 22:17:35.83	122.43	16.88	-41.4	-44.0	18.0	0.00e+00	0	39	0	764411904	53	5112
2026-01-25 22:17:36.97	122.64	16.81	-41.5	-44.0	18.0	0.00e+00	0	39	0	766509056	53	5143
2026-01-25 22:17:37.82	122.81	16.76	-41.5	-44.1	17.9	0.00e+00	0	39	0	768606208	53	5166
2026-01-25 22:17:38.96	123.02	16.69	-41.6	-44.2	17.8	0.00e+00	0	39	0	770703360	53	5272
2026-01-25 22:17:39.81	123.19	16.64	-41.5	-44.0	18.0	0.00e+00	0	40	0	772800512	53	5141
2026-01-25 22:17:40.95	123.40	16.57	-41.3	-43.8	18.2	0.00e+00	0	40	0	774897664	53	4994
2026-01-25 22:17:41.80	123.56	16.52	-41.1	-43.5	18.5	0.00e+00	0	40	0	775946240	53	4840
2026-01-25 22:17:42.94	123.78	16.45	-40.9	-43.2	18.7	0.00e+00	0	39	0	778043392	53	4693
2026-01-25 22:17:43.79	123.94	16.39	-40.8	-43.2	18.8	0.00e+00	0	40	0	780140544	53	4656
2026-01-25 22:17:45.01	124.16	16.32	-40.9	-43.3	18.7	0.00e+00	0	39	0	782237696	53	4722
2026-01-25 22:17:45.86	124.32	16.27	-41.0	-43.4	18.6	0.00e+00	0	39	0	783286272	53	4783
2026-01-25 22:17:47.08	124.55	16.19	-41.4	-43.9	18.1	0.00e+00	0	40	0	786432000	53	5067
2026-01-25 22:17:47.93	124.70	16.14	-41.6	-44.1	17.8	0.00e+00	0	40	0	787480576	53	5217
2026-01-25 22:17:49.07	124.91	16.06	-41.8	-44.4	17.6	0.00e+00	0	40	0	789577728	54	5064
2026-01-25 22:17:49.92	125.07	16.01	-41.7	-44.3	17.7	0.00e+00	0	39	0	791674880	54	5008
2026-01-25 22:17:51.06	125.27	15.94	-41.6	-44.1	17.9	0.00e+00	0	40	0	793772032	54	4907
2026-01-25 22:17:51.91	125.43	15.89	-41.6	-44.1	17.9	0.00e+00	0	39	0	794820608	54	4919
2026-01-25 22:17:53.05	125.63	15.81	-41.7	-44.2	17.9	0.00e+00	0	39	0	796917760	54	4963
2026-01-25 22:17:53.90	125.78	15.76	-41.5	-44.0	18.0	0.00e+00	0	39	0	799014912	54	4825
2026-01-25 22:17:55.04	125.99	15.69	-41.2	-43.6	18.4	0.00e+00	0	40	0	801112064	54	4614
2026-01-25 22:17:55.89	126.14	15.63	-41.1	-43.5	18.5	0.00e+00	0	40	0	802160640	54	4569
2026-01-25 22:17:57.03	126.34	15.56	-41.3	-43.8	18.1	0.00e+00	0	40	0	804257792	54	4742
2026-01-25 22:17:57.88	126.49	15.51	-41.5	-44.0	18.0	0.00e+00	0	40	0	806354944	54	4840
2026-01-25 22:17:59.01	126.69	15.44	-41.5	-44.1	17.9	0.00e+00	0	39	0	808452096	54	4896
2026-01-25 22:17:59.87	126.84	15.38	-41.4	-44.0	18.0	0.00e+00	0	40	0	809500672	54	4822
2026-01-25 22:18:01.00	127.04	15.31	-41.2	-43.6	18.3	0.00e+00	0	39	0	811597824	54	4643
2026-01-25 22:18:01.86	127.19	15.25	-41.1	-43.5	18.5	0.00e+00	0	39	0	813694976	54	4571
2026-01-25 22:18:03.09	127.40	15.18	-41.0	-43.4	18.6	0.00e+00	0	39	0	815792128	54	4512
2026-01-25 22:18:03.94	127.55	15.12	-41.0	-43.4	18.6	0.00e+00	0	40	0	817889280	54	4531
2026-01-25 22:18:05.08	127.74	15.05	-41.0	-43.4	18.5	0.00e+00	0	40	0	819986432	54	4539
2026-01-25 22:18:05.93	127.89	14.99	-41.0	-43.4	18.5	0.00e+00	0	40	0	821035008	54	4533
2026-01-25 22:18:07.07	128.08	14.92	-41.3	-43.8	18.2	0.00e+00	0	40	0	823132160	54	4706
2026-01-25 22:18:07.93	128.23	14.86	-41.5	-44.0	18.0	0.00e+00	0	40	0	825229312	54	4839
2026-01-25 22:18:09.06	128.42	14.79	-41.6	-44.2	17.8	0.00e+00	0	39	0	827326464	54	4957
2026-01-25 22:18:10.03	128.58	14.73	-41.8	-44.4	17.6	0.00e+00	0	40	0	829423616	54	5066
2026-01-25 22:18:11.02	128.75	14.67	-41.6	-44.2	17.8	0.00e+00	0	40	0	830472192	54	4959
2026-01-25 22:18:12.01	128.91	14.60	-41.4	-44.0	18.0	0.00e+00	0	40	0	832569344	54	4835
2026-01-25 22:18:13.01	129.08	14.54	-41.4	-43.9	18.1	0.00e+00	0	40	0	834666496	54	4774
2026-01-25 22:18:14.00	129.24	14.47	-41.3	-43.8	18.2	0.00e+00	0	40	0	836763648	54	4746
2026-01-25 22:18:15.00	129.40	14.41	-41.2	-43.7	18.2	0.00e+00	0	40	0	838860800	54	4690
2026-01-25 22:18:15.99	129.57	14.34	-41.3	-43.8	18.2	0.00e+00	0	40	0	839909376	54	4710
2026-01-25 22:18:16.99	129.73	14.28	-41.5	-44.0	17.9	0.00e+00	0	40	0	842006528	54	4857
2026-01-25 22:18:17.98	129.89	14.22	-41.6	-44.2	17.8	0.00e+00	0	40	0	844103680	54	4963
2026-01-25 22:18:18.98	130.05	14.15	-41.7	-44.4	17.6	0.00e+00	0	40	0	846200832	54	5046
2026-01-25 22:18:19.97	130.21	14.09	-41.8	-44.5	17.5	0.00e+00	0	40	0	847249408	54	5120
2026-01-25 22:18:20.97	130.37	14.02	-41.8	-44.5	17.5	0.00e+00	0	40	0	849346560	54	5131
2026-01-25 22:18:21.96	130.53	13.96	-41.8	-44.5	17.5	0.00e+00	0	40	0	851443712	54	5134
2026-01-25 22:18:22.96	130.69	13.89	-41.7	-44.3	17.6	0.00e+00	0	40	0	853540864	54	5025
2026-01-25 22:18:23.95	130.85	13.83	-41.7	-44.3	17.7	0.00e+00	0	40	0	855638016	54	5014
2026-01-25 22:18:24.93	131.00	13.76	-41.6	-44.2	17.7	0.00e+00	0	39	0	856686592	54	4981
2026-01-25 22:18:25.92	131.16	13.70	-41.4	-43.9	18.0	0.00e+00	0	40	0	858783744	54	4790
2026-01-25 22:18:26.92	131.31	13.63	-41.4	-43.9	18.1	0.00e+00	0	39	0	860880896	54	4790
2026-01-25 22:18:27.91	131.47	13.57	-41.5	-44.1	17.8	0.00e+00	0	40	0	862978048	54	4918
2026-01-25 22:18:28.91	131.62	13.50	-41.7	-44.4	17.5	0.00e+00	0	40	0	864026624	54	5093
2026-01-25 22:18:29.90	131.77	13.44	-41.9	-44.6	17.4	0.00e+00	0	39	0	866123776	54	5182
2026-01-25 22:18:30.90	131.93	13.37	-41.9	-44.7	17.3	0.00e+00	0	40	0	868220928	54	5241
2026-01-25 22:18:31.89	132.08	13.31	-42.0	-44.8	17.2	0.00e+00	0	40	0	870318080	54	5299
2026-01-25 22:18:32.89	132.23	13.24	-42.0	-44.8	17.2	0.00e+00	0	40	0	872415232	54	5301
2026-01-25 22:18:33.88	132.38	13.18	-42.0	-44.7	17.2	0.00e+00	0	40	0	873463808	54	5279
2026-01-25 22:18:34.88	132.53	13.12	-41.8	-44.4	17.5	0.00e+00	0	40	0	875560960	54	5097
2026-01-25 22:18:35.87	132.68	13.05	-41.6	-44.3	17.6	0.00e+00	0	40	0	877658112	54	4998
2026-01-25 22:18:36.87	132.83	12.99	-41.7	-44.4	17.6	0.00e+00	0	40	0	879755264	54	5063
2026-01-25 22:18:37.86	132.98	12.92	-41.6	-44.2	17.7	0.00e+00	0	40	0	880803840	54	4979
2026-01-25 22:18:38.85	133.13	12.86	-41.6	-44.2	17.7	0.00e+00	0	40	0	882900992	54	4950
2026-01-25 22:18:39.85	133.27	12.79	-41.8	-44.5	17.5	0.00e+00	0	40	0	884998144	54	5109
2026-01-25 22:18:40.85	133.42	12.73	-41.9	-44.5	17.4	0.00e+00	0	40	0	887095296	54	5155
2026-01-25 22:18:41.84	133.57	12.66	-42.0	-44.7	17.2	0.00e+00	0	40	0	889192448	54	5252
2026-01-25 22:18:42.84	133.71	12.60	-42.1	-44.8	17.1	0.00e+00	0	40	0	890241024	54	5311
2026-01-25 22:18:43.83	133.86	12.53	-42.1	-44.9	17.1	0.00e+00	0	40	0	892338176	54	5349
2026-01-25 22:18:44.82	134.00	12.47	-42.1	-44.8	17.1	0.00e+00	0	40	0	894435328	54	5327
2026-01-25 22:18:45.82	134.14	12.40	-41.9	-44.6	17.3	0.00e+00	0	40	0	896532480	54	5218
2026-01-25 22:18:46.81	134.29	12.34	-41.9	-44.6	17.3	0.00e+00	0	40	0	897581056	54	5189
2026-01-25 22:18:47.89	134.44	12.27	-41.8	-44.4	17.5	0.00e+00	0	40	0	899678208	54	5093
2026-01-25 22:18:48.77	134.57	12.21	-41.8	-44.4	17.5	0.00e+00	0	40	0	901775360	54	5085
2026-01-25 22:18:50.10	134.75	12.12	-42.0	-44.7	17.2	0.00e+00	0	40	0	903872512	54	5243
2026-01-25 22:18:50.81	134.85	12.08	-42.1	-44.9	17.0	0.00e+00	0	40	0	905969664	54	5359
2026-01-25 22:18:52.09	135.03	11.99	-42.2	-45.0	16.9	0.00e+00	0	40	0	908066816	55	5138
2026-01-25 22:18:52.81	135.14	11.95	-42.3	-45.2	16.7	0.00e+00	0	40	0	909115392	55	5238
2026-01-25 22:18:54.09	135.31	11.86	-42.5	-45.4	16.5	0.00e+00	0	40	0	911212544	55	5373
2026-01-25 22:18:54.80	135.41	11.82	-42.5	-45.5	16.4	0.00e+00	0	40	0	913309696	55	5412
2026-01-25 22:18:56.08	135.59	11.73	-42.6	-45.5	16.3	0.00e+00	0	40	0	915406848	55	5459
2026-01-25 22:18:56.79	135.69	11.69	-42.5	-45.5	16.4	0.00e+00	0	40	0	916455424	55	5407
2026-01-25 22:18:58.07	135.86	11.60	-42.4	-45.3	16.5	0.00e+00	0	40	0	919601152	55	5322
2026-01-25 22:18:58.78	135.96	11.56	-42.4	-45.3	16.6	0.00e+00	0	40	0	920649728	55	5307
2026-01-25 22:19:00.06	136.13	11.48	-42.2	-45.0	16.9	0.00e+00	0	40	0	922746880	55	5124
2026-01-25 22:19:00.77	136.23	11.43	-42.2	-45.0	16.9	0.00e+00	0	40	0	923795456	55	5114
2026-01-25 22:19:02.13	136.41	11.34	-42.0	-44.8	17.1	0.00e+00	0	40	0	926941184	55	5002
2026-01-25 22:19:02.84	136.51	11.30	-42.0	-44.7	17.1	0.00e+00	0	40	0	927989760	55	4976
2026-01-25 22:19:04.12	136.68	11.21	-42.0	-44.7	17.1	0.00e+00	0	40	0	930086912	55	4970
2026-01-25 22:19:05.16	136.81	11.14	-42.0	-44.7	17.1	0.00e+00	0	40	0	932184064	55	4945
2026-01-25 22:19:06.47	136.99	11.06	-41.9	-44.6	17.2	0.00e+00	0	40	0	935329792	55	4909
2026-01-25 22:19:07.19	137.08	11.01	-42.0	-44.7	17.1	0.00e+00	0	40	0	936378368	55	4959
2026-01-25 22:19:08.47	137.25	10.93	-42.0	-44.8	17.0	0.00e+00	0	40	0	938475520	55	5002
2026-01-25 22:19:09.19	137.34	10.88	-42.0	-44.8	17.0	0.00e+00	0	40	0	939524096	55	5015
2026-01-25 22:19:10.47	137.51	10.80	-42.2	-45.0	16.8	0.00e+00	0	40	0	942669824	55	5113
2026-01-25 22:19:11.18	137.60	10.76	-42.1	-44.9	16.9	0.00e+00	0	40	0	943718400	55	5091
2026-01-25 22:19:12.46	137.77	10.67	-42.2	-45.1	16.7	0.00e+00	0	40	0	945815552	55	5177
2026-01-25 22:19:13.17	137.86	10.63	-42.3	-45.2	16.6	0.00e+00	0	40	0	947912704	55	5220
2026-01-25 22:19:14.52	138.03	10.54	-42.3	-45.1	16.7	0.00e+00	0	40	0	950009856	55	5192
2026-01-25 22:19:15.23	138.12	10.50	-42.3	-45.2	16.7	0.00e+00	0	40	0	951058432	55	5256
2026-01-25 22:19:16.51	138.28	10.41	-42.4	-45.3	16.5	0.00e+00	0	40	0	953155584	55	5319
2026-01-25 22:19:17.23	138.37	10.37	-42.5	-45.5	16.3	0.00e+00	0	40	0	955252736	55	5412
2026-01-25 22:19:18.51	138.53	10.28	-42.6	-45.6	16.2	0.00e+00	0	40	0	957349888	55	5480
2026-01-25 22:19:19.23	138.62	10.24	-42.8	-45.8	16.2	0.00e+00	0	40	0	958398464	56	5307
2026-01-25 22:19:20.50	138.78	10.16	-42.9	-46.0	16.0	0.00e+00	0	39	0	961544192	56	5431
2026-01-25 22:19:21.21	138.87	10.11	-42.9	-46.0	16.0	0.00e+00	0	40	0	962592768	56	5420
2026-01-25 22:19:22.73	139.06	10.01	-43.0	-46.1	15.9	0.00e+00	0	40	0	965738496	56	5476
2026-01-25 22:19:23.44	139.14	9.97	-42.9	-46.0	16.0	0.00e+00	0	40	0	966787072	56	5430
2026-01-25 22:19:24.72	139.30	9.89	-42.8	-45.8	16.1	0.00e+00	0	40	0	968884224	56	5316
2026-01-25 22:19:25.45	139.39	9.84	-42.8	-45.9	16.0	0.00e+00	0	40	0	969932800	56	5371
2026-01-25 22:19:26.73	139.54	9.76	-42.7	-45.8	16.1	0.00e+00	0	40	0	973078528	56	5295
2026-01-25 22:19:27.48	139.63	9.71	-42.6	-45.6	16.3	0.00e+00	0	40	0	974127104	56	5179
2026-01-25 22:19:28.76	139.79	9.63	-42.7	-45.7	16.2	0.00e+00	0	40	0	976224256	56	5233
2026-01-25 22:19:29.50	139.88	9.58	-42.6	-45.6	16.3	0.00e+00	0	40	0	978321408	56	5199
2026-01-25 22:19:30.78	140.03	9.50	-42.6	-45.6	16.3	0.00e+00	0	40	0	980418560	56	5195
2026-01-25 22:19:31.49	140.11	9.46	-42.8	-45.8	16.1	0.00e+00	0	40	0	981467136	56	5313
2026-01-25 22:19:32.77	140.26	9.37	-42.8	-45.8	16.1	0.00e+00	0	40	0	984612864	56	5306
2026-01-25 22:19:33.48	140.35	9.33	-42.9	-46.0	15.9	0.00e+00	0	40	0	985661440	56	5413
2026-01-25 22:19:34.76	140.50	9.25	-43.1	-46.2	15.7	0.00e+00	0	40	0	987758592	56	5580
2026-01-25 22:19:35.50	140.58	9.20	-43.0	-46.2	15.6	0.00e+00	0	40	0	988807168	56	5579
2026-01-25 22:19:36.78	140.73	9.12	-43.3	-46.6	15.2	0.00e+00	0	40	0	991952896	57	5503
2026-01-25 22:19:37.51	140.82	9.07	-43.2	-46.6	15.3	0.00e+00	0	40	0	993001472	57	5466
2026-01-25 22:19:38.78	140.96	8.99	-46.8	-55.0	7.4	1.50e-06	0	40	0	995098624	64	9673
2026-01-25 22:19:39.49	141.05	8.95	-48.0	-63.2	3.8	7.58e-01	0	40	104	996147200	66	22166
2026-01-25 22:19:40.77	141.19	8.87	-48.1	-63.4	3.8	1.49e+00	0	40	104	996147200	66	22715
2026-01-25 22:19:41.48	141.27	8.82	-48.2	-63.5	3.8	1.49e+00	0	40	104	996147200	67	21563
2026-01-25 22:19:42.76	141.42	8.74	-48.4	-63.6	3.8	1.49e+00	0	40	104	996147200	67	21788
2026-01-25 22:19:43.49	141.50	8.70	-48.3	-63.6	3.8	1.49e+00	0	40	104	996147200	67	21875
2026-01-25 22:19:44.76	141.64	8.62	-48.5	-63.7	3.8	1.49e+00	0	40	104	996147200	67	22015
2026-01-25 22:19:45.47	141.72	8.57	-48.4	-63.7	3.8	1.49e+00	0	40	104	996147200	67	22073
2026-01-25 22:19:46.75	141.86	8.49	-48.5	-63.7	3.8	1.49e+00	0	40	104	996147200	67	22117
2026-01-25 22:19:47.47	141.94	8.45	-48.2	-63.7	3.8	1.49e+00	0	40	104	996147200	67	22204
2026-01-25 22:19:48.75	142.09	8.37	-48.5	-63.7	3.8	1.49e+00	0	40	104	996147200	67	22201
2026-01-25 22:19:49.46	142.16	8.32	-48.4	-63.7	3.8	1.49e+00	0	40	104	996147200	67	22233
2026-01-25 22:19:50.74	142.30	8.24	-48.5	-63.8	3.8	1.49e+00	0	40	104	996147200	67	22311
2026-01-25 22:19:51.45	142.38	8.20	-48.6	-63.8	3.8	1.49e+00	0	40	104	996147200	67	22359
2026-01-25 22:19:52.72	142.52	8.12	-48.3	-63.8	3.8	1.49e+00	0	40	104	996147200	67	22500
2026-01-25 22:19:53.43	142.60	8.08	-48.4	-63.8	3.8	1.49e+00	0	40	104	996147200	67	22486
2026-01-25 22:19:54.71	142.73	8.00	-48.4	-63.9	3.8	1.49e+00	0	40	104	996147200	67	22563
2026-01-25 22:19:55.42	142.81	7.95	-48.3	-63.8	3.8	1.49e+00	0	40	104	996147200	67	22457
2026-01-25 22:19:56.73	142.95	7.87	-48.5	-63.8	3.8	1.49e+00	0	40	104	996147200	67	22519
2026-01-25 22:19:57.44	143.03	7.83	-48.1	-63.8	3.8	1.49e+00	0	40	104	996147200	67	22406
2026-01-25 22:19:58.81	143.17	7.74	-48.4	-63.8	3.8	1.49e+00	0	40	104	996147200	67	22365
2026-01-25 22:19:59.52	143.25	7.70	-48.4	-63.8	3.8	1.49e+00	0	40	104	996147200	67	22311
2026-01-25 22:20:00.85	143.39	7.62	-48.4	-63.8	3.8	1.49e+00	0	40	104	996147200	67	22330
2026-01-25 22:20:01.56	143.46	7.57	-48.4	-63.7	3.8	1.49e+00	0	40	104	996147200	67	22239
2026-01-25 22:20:02.83	143.59	7.50	-48.4	-63.8	3.8	1.49e+00	0	40	104	996147200	67	22290
2026-01-25 22:20:03.55	143.67	7.45	-48.4	-63.7	3.8	1.49e+00	0	40	104	996147200	67	22245
2026-01-25 22:20:04.82	143.80	7.37	-48.4	-63.8	3.8	1.49e+00	0	40	104	996147200	67	22295
2026-01-25 22:20:05.55	143.88	7.33	-48.4	-63.7	3.8	1.49e+00	0	40	104	996147200	67	22224
2026-01-25 22:20:06.82	144.01	7.25	-48.4	-63.7	3.8	1.49e+00	0	40	104	996147200	67	22220
2026-01-25 22:20:07.55	144.08	7.21	-48.4	-63.8	3.8	1.49e+00	0	40	104	996147200	67	22278
2026-01-25 22:20:08.83	144.21	7.13	-48.4	-63.7	3.8	1.49e+00	0	40	104	996147200	67	22256
2026-01-25 22:20:09.54	144.28	7.09	-48.4	-63.8	3.8	1.49e+00	0	40	104	996147200	67	22276
2026-01-25 22:20:10.81	144.41	7.01	-48.4	-63.7	3.8	1.49e+00	0	40	104	996147200	67	22245
2026-01-25 22:20:11.52	144.48	6.96	-48.4	-63.7	3.8	1.49e+00	0	40	104	996147200	67	22223
2026-01-25 22:20:12.80	144.61	6.89	-48.4	-63.8	3.8	1.49e+00	0	40	104	996147200	67	22277
2026-01-25 22:20:13.51	144.68	6.84	-48.3	-63.7	3.8	1.49e+00	0	40	104	996147200	67	22232
2026-01-25 22:20:14.79	144.81	6.77	-48.3	-63.7	3.8	1.49e+00	0	40	104	996147200	67	22204
2026-01-25 22:20:15.50	144.88	6.72	-48.4	-63.7	3.8	1.49e+00	0	40	104	996147200	67	22238
2026-01-25 22:20:16.77	145.00	6.65	-48.4	-63.8	3.8	1.49e+00	0	40	104	996147200	67	22312
2026-01-25 22:20:17.48	145.07	6.60	-48.3	-63.7	3.8	1.49e+00	0	40	104	996147200	67	22186
2026-01-25 22:20:18.76	145.20	6.53	-48.3	-63.7	3.8	1.49e+00	0	40	104	996147200	67	22203
2026-01-25 22:20:19.47	145.27	6.48	-48.3	-63.7	3.8	1.49e+00	0	40	104	996147200	67	22169
2026-01-25 22:20:20.74	145.39	6.41	-48.3	-63.7	3.8	1.49e+00	0	40	104	996147200	67	22224
2026-01-25 22:20:21.45	145.46	6.36	-48.3	-63.7	3.8	1.49e+00	0	40	104	996147200	67	22204
2026-01-25 22:20:22.73	145.58	6.29	-48.3	-63.7	3.8	1.49e+00	0	40	104	996147200	67	22194
2026-01-25 22:20:23.46	145.65	6.24	-48.3	-63.7	3.8	1.49e+00	0	40	104	996147200	67	22173
2026-01-25 22:20:24.73	145.77	6.17	-48.3	-63.7	3.8	1.49e+00	0	40	104	996147200	67	22153
2026-01-25 22:20:25.44	145.84	6.12	-48.3	-63.7	3.8	1.49e+00	0	40	104	996147200	67	22192
2026-01-25 22:20:26.72	145.96	6.05	-48.3	-63.7	3.8	1.49e+00	0	40	104	996147200	67	22217
2026-01-25 22:20:27.43	146.03	6.01	-48.3	-63.8	3.8	1.49e+00	0	40	104	996147200	67	22281
2026-01-25 22:20:28.71	146.15	5.93	-48.3	-63.7	3.8	1.49e+00	0	40	104	996147200	67	22128
2026-01-25 22:20:29.42	146.22	5.89	-48.3	-63.7	3.8	1.49e+00	0	40	104	996147200	67	22197
2026-01-25 22:20:30.69	146.34	5.81	-48.3	-63.7	3.8	1.49e+00	0	40	104	996147200	67	22161
2026-01-25 22:20:31.41	146.40	5.77	-48.3	-63.7	3.8	1.49e+00	0	40	104	996147200	67	22167
2026-01-25 22:20:32.68	146.52	5.69	-48.3	-63.7	3.8	1.49e+00	0	40	104	996147200	67	22186
2026-01-25 22:20:33.39	146.59	5.65	-48.3	-63.7	3.8	1.49e+00	0	40	104	996147200	67	22225
2026-01-25 22:20:34.67	146.70	5.57	-48.3	-63.7	3.8	1.49e+00	0	40	104	996147200	67	22117
2026-01-25 22:20:35.39	146.77	5.53	-48.3	-63.7	3.8	1.49e+00	0	40	104	996147200	67	22068
2026-01-25 22:20:36.67	146.89	5.46	-48.3	-63.7	3.8	1.49e+00	0	40	104	996147200	67	22105
2026-01-25 22:20:37.40	146.95	5.41	-48.3	-63.7	3.8	1.49e+00	0	40	104	996147200	67	22105
2026-01-25 22:20:38.67	147.07	5.34	-48.3	-63.7	3.8	1.49e+00	0	40	104	996147200	67	22135
2026-01-25 22:20:39.40	147.13	5.30	-48.3	-63.7	3.8	1.49e+00	0	40	104	996147200	67	22120
2026-01-25 22:20:40.68	147.25	5.22	-48.3	-63.7	3.8	1.49e+00	0	40	104	996147200	67	22159
2026-01-25 22:20:41.39	147.31	5.18	-48.3	-63.7	3.8	1.49e+00	0	40	104	996147200	67	22127
2026-01-25 22:20:42.67	147.43	5.10	-48.3	-63.7	3.8	1.49e+00	0	40	104	996147200	67	22154
2026-01-25 22:20:43.38	147.49	5.06	-48.3	-63.7	3.8	1.49e+00	0	40	104	996147200	67	22108
2026-01-25 22:20:44.67	147.60	4.99	-48.3	-63.7	3.8	1.49e+00	0	40	104	996147200	67	22097

#Closed at: 2026-01-25 22:20:45
#Recorded file [996 MB]: D:/Data/31040_260126_010945.dat