passes_logs/2026/01/25/T1/T1__20260125_012832_SUOMI_NPP_rec.log

#Pass ID: 20260125_012832_SUOMI NPP
#Satellite: SUOMI NPP
#Configuration: NPP
#almurnet v.1.7.20251203
#Start time: 2026-01-25 01:28:34

#Version: 2.0.20230620
#Station: T1
#Location: 37.570604 lon 55.790049 lat
#TLE: 1 37849U 11061A   26024.54906732  .00000185  00000+0  10878-3 0  9990
#TLE: 2 37849  98.7821 326.5159 0002200  47.3746 312.7615 14.19529340738061

#Time	Az	El	Level	Level2	SNR	BER	BlckErr	Temp	State	Recorded	gain1	gain2
2026-01-25 01:28:34.12	6.26	5.12	-47.5	-63.5	3.8	1.49e+00	0	38	0	0	66	22870
2026-01-25 01:28:35.11	6.17	5.18	-46.1	-63.3	3.8	1.49e+00	0	39	104	0	63	26545
2026-01-25 01:28:36.10	6.09	5.24	-46.1	-63.3	3.8	1.49e+00	0	39	104	0	63	26739
2026-01-25 01:28:37.10	6.01	5.30	-46.0	-63.3	3.8	1.49e+00	0	39	104	0	63	26690
2026-01-25 01:28:38.09	5.93	5.36	-46.1	-63.3	3.8	1.49e+00	0	39	104	0	63	26706
2026-01-25 01:28:39.08	5.85	5.42	-46.1	-63.3	3.8	1.49e+00	0	39	104	0	63	26700
2026-01-25 01:28:40.07	5.76	5.48	-46.1	-63.3	3.8	1.49e+00	0	39	104	0	63	26737
2026-01-25 01:28:41.07	5.68	5.54	-46.1	-63.4	3.8	1.49e+00	0	39	104	0	63	26785
2026-01-25 01:28:42.06	5.60	5.61	-46.1	-63.4	3.8	1.49e+00	0	39	104	0	63	26795
2026-01-25 01:28:43.06	5.51	5.67	-46.1	-63.3	3.8	1.49e+00	0	39	104	0	63	26742
2026-01-25 01:28:44.05	5.43	5.73	-46.0	-63.3	3.8	1.49e+00	0	39	104	0	63	26677
2026-01-25 01:28:45.04	5.34	5.79	-46.1	-63.4	3.8	1.49e+00	0	39	104	0	63	26779
2026-01-25 01:28:46.03	5.26	5.85	-46.1	-63.4	3.8	1.49e+00	0	39	104	0	63	26789
2026-01-25 01:28:47.03	5.17	5.91	-46.1	-63.3	3.8	1.49e+00	0	39	104	0	63	26716
2026-01-25 01:28:48.02	5.09	5.97	-46.1	-63.4	3.8	1.49e+00	0	39	104	0	63	26805
2026-01-25 01:28:49.01	5.00	6.03	-46.1	-63.4	3.8	1.49e+00	0	39	104	0	63	26884
2026-01-25 01:28:50.01	4.91	6.09	-46.1	-63.4	3.8	1.49e+00	0	39	104	0	63	26857
2026-01-25 01:28:51.00	4.83	6.15	-46.1	-63.4	3.8	1.49e+00	0	39	104	0	63	26804
2026-01-25 01:28:51.99	4.74	6.21	-46.1	-63.4	3.8	1.49e+00	0	39	104	0	63	26820
2026-01-25 01:28:52.99	4.65	6.27	-46.1	-63.3	3.8	1.49e+00	0	39	104	0	63	26737
2026-01-25 01:28:53.98	4.56	6.34	-46.1	-63.3	3.8	1.49e+00	0	39	104	0	63	26755
2026-01-25 01:28:54.97	4.47	6.40	-46.1	-63.3	3.8	1.49e+00	0	39	104	0	63	26576
2026-01-25 01:28:55.97	4.38	6.46	-46.1	-63.3	3.8	1.49e+00	0	39	104	0	63	26693
2026-01-25 01:28:56.96	4.29	6.52	-46.1	-63.3	3.8	1.49e+00	0	39	104	0	63	26592
2026-01-25 01:28:57.95	4.20	6.58	-46.1	-63.3	3.8	1.49e+00	0	39	104	0	63	26579
2026-01-25 01:28:58.95	4.11	6.64	-46.0	-63.3	3.8	1.49e+00	0	39	104	0	63	26724
2026-01-25 01:28:59.94	4.02	6.71	-46.1	-63.4	3.8	1.49e+00	0	39	104	0	63	26811
2026-01-25 01:29:00.93	3.93	6.77	-46.0	-63.4	3.8	1.49e+00	0	39	104	0	63	26768
2026-01-25 01:29:01.93	3.84	6.83	-46.1	-63.4	3.8	1.49e+00	0	39	104	0	63	26822
2026-01-25 01:29:02.92	3.75	6.89	-46.0	-63.4	3.8	1.49e+00	0	40	104	0	63	26882
2026-01-25 01:29:03.91	3.66	6.95	-46.1	-63.4	3.8	1.49e+00	0	39	104	0	63	26891
2026-01-25 01:29:04.91	3.56	7.02	-46.0	-63.4	3.8	1.49e+00	0	40	104	0	63	26796
2026-01-25 01:29:05.90	3.47	7.08	-46.0	-63.4	3.8	1.49e+00	0	40	104	0	63	26862
2026-01-25 01:29:06.89	3.38	7.14	-46.0	-63.3	3.8	1.49e+00	0	40	104	0	63	26728
2026-01-25 01:29:07.88	3.28	7.20	-46.0	-63.3	3.8	1.49e+00	0	40	104	0	63	26628
2026-01-25 01:29:08.88	3.19	7.27	-46.0	-63.3	3.8	1.49e+00	0	40	104	0	63	26505
2026-01-25 01:29:09.87	3.10	7.33	-46.0	-63.2	3.8	1.49e+00	0	40	104	0	63	26401
2026-01-25 01:29:10.86	3.00	7.39	-46.0	-63.2	3.8	1.49e+00	0	40	104	0	63	26353
2026-01-25 01:29:11.86	2.90	7.45	-46.0	-63.1	3.8	1.49e+00	0	40	104	0	63	26153
2026-01-25 01:29:12.85	2.81	7.52	-46.0	-63.1	3.8	1.49e+00	0	40	104	0	63	25929
2026-01-25 01:29:13.84	2.71	7.58	-46.0	-63.0	3.8	1.49e+00	0	40	104	0	63	25562
2026-01-25 01:29:14.83	2.62	7.64	-46.0	-62.8	3.8	1.49e+00	0	40	104	0	63	25233
2026-01-25 01:29:15.83	2.52	7.71	-46.0	-62.7	3.8	1.49e+00	0	40	104	0	63	24798
2026-01-25 01:29:16.82	2.42	7.77	-46.0	-62.5	3.8	1.49e+00	0	40	104	0	63	24394
2026-01-25 01:29:17.81	2.32	7.83	-46.0	-62.4	3.8	1.49e+00	0	40	104	0	63	24099
2026-01-25 01:29:18.81	2.22	7.89	-46.0	-62.4	3.8	1.49e+00	0	40	104	0	63	23943
2026-01-25 01:29:19.80	2.12	7.96	-46.0	-62.5	3.8	1.49e+00	0	40	104	0	63	24379
2026-01-25 01:29:20.79	2.03	8.02	-46.0	-62.7	3.8	1.49e+00	0	40	104	0	63	24836
2026-01-25 01:29:21.79	1.92	8.09	-46.0	-62.9	3.8	1.49e+00	0	40	104	0	63	25410
2026-01-25 01:29:22.78	1.82	8.15	-46.0	-63.2	3.8	1.49e+00	0	40	104	0	63	26232
2026-01-25 01:29:23.77	1.72	8.21	-46.0	-63.3	3.8	1.49e+00	0	40	104	0	63	26500
2026-01-25 01:29:24.77	1.62	8.28	-46.0	-63.2	3.8	1.49e+00	0	40	104	0	63	26305
2026-01-25 01:29:25.76	1.52	8.34	-46.0	-62.7	3.8	1.49e+00	0	40	104	0	63	24945
2026-01-25 01:29:26.75	1.42	8.40	-45.9	-61.4	3.8	1.49e+00	0	40	104	0	63	21317
2026-01-25 01:29:27.75	1.32	8.47	-45.8	-59.1	4.4	1.44e+00	0	40	0	0	63	16485
2026-01-25 01:29:28.74	1.21	8.53	-45.6	-56.9	5.5	8.48e-01	0	40	0	1048576	63	12745
2026-01-25 01:29:29.73	1.11	8.60	-45.4	-54.9	7.1	2.08e-01	0	40	0	3145728	62	10761
2026-01-25 01:29:30.73	1.00	8.66	-45.0	-53.2	8.8	6.54e-02	0	40	0	5242880	62	8830
2026-01-25 01:29:31.72	0.90	8.72	-44.7	-51.8	10.2	1.46e-02	0	40	0	7340032	61	7935
2026-01-25 01:29:32.71	0.79	8.79	-44.3	-50.7	11.3	1.79e-03	0	40	0	8388608	60	7434
2026-01-25 01:29:33.71	0.69	8.85	-44.2	-50.2	11.9	6.00e-04	0	40	0	10485760	60	7003
2026-01-25 01:29:34.70	0.58	8.92	-44.0	-49.8	12.2	2.27e-04	0	40	0	12582912	60	6702
2026-01-25 01:29:35.69	0.48	8.98	-44.1	-50.0	12.1	2.01e-04	0	40	0	14680064	60	6878
2026-01-25 01:29:36.69	0.37	9.05	-44.3	-50.6	11.5	6.52e-04	0	40	0	16777216	60	7292
2026-01-25 01:29:37.68	0.26	9.11	-44.5	-50.3	11.8	7.62e-04	0	40	0	17825792	60	7086
2026-01-25 01:29:38.68	0.15	9.18	-44.6	-51.3	10.8	5.29e-04	0	40	0	19922944	60	7930
2026-01-25 01:29:39.67	0.04	9.24	-46.2	-57.0	5.7	1.51e-01	0	41	0	22020096	63	12840
2026-01-25 01:29:40.67	359.94	9.31	-43.7	-48.5	13.5	2.73e-01	0	40	0	24117248	59	6095
2026-01-25 01:29:41.66	359.83	9.37	-42.6	-46.4	15.5	0.00e+00	0	40	0	25165824	57	5356
2026-01-25 01:29:42.66	359.72	9.44	-42.6	-46.2	15.8	0.00e+00	0	41	0	27262976	57	5251
2026-01-25 01:29:43.66	359.60	9.50	-42.6	-46.2	15.8	0.00e+00	0	40	0	29360128	57	5239
2026-01-25 01:29:44.65	359.49	9.57	-42.7	-46.2	15.7	0.00e+00	0	40	0	31457280	57	5279
2026-01-25 01:29:45.65	359.38	9.63	-42.7	-46.2	15.8	0.00e+00	0	41	0	33554432	57	5225
2026-01-25 01:29:46.64	359.27	9.70	-42.8	-46.3	15.7	0.00e+00	0	40	0	34603008	57	5337
2026-01-25 01:29:47.64	359.16	9.76	-42.8	-46.4	15.6	0.00e+00	0	41	0	36700160	57	5342
2026-01-25 01:29:48.63	359.04	9.83	-42.8	-46.2	15.8	0.00e+00	0	40	0	38797312	57	5264
2026-01-25 01:29:49.62	358.93	9.89	-42.8	-46.2	15.8	0.00e+00	0	40	0	40894464	57	5264
2026-01-25 01:29:50.62	358.81	9.96	-42.8	-46.3	15.8	0.00e+00	0	40	0	42991616	57	5281
2026-01-25 01:29:51.61	358.70	10.03	-42.8	-46.2	15.8	0.00e+00	0	40	0	44040192	57	5271
2026-01-25 01:29:52.61	358.58	10.09	-42.9	-46.4	15.7	0.00e+00	0	40	0	46137344	57	5346
2026-01-25 01:29:53.60	358.47	10.16	-42.9	-46.4	15.6	0.00e+00	0	40	0	48234496	57	5399
2026-01-25 01:29:54.60	358.35	10.22	-43.0	-46.6	15.5	0.00e+00	0	41	0	50331648	57	5467
2026-01-25 01:29:55.59	358.24	10.29	-43.0	-46.6	15.4	0.00e+00	0	40	0	51380224	57	5515
2026-01-25 01:29:56.59	358.12	10.35	-42.9	-46.5	15.5	0.00e+00	0	40	0	53477376	57	5412
2026-01-25 01:29:57.58	358.00	10.42	-43.1	-46.9	15.2	0.00e+00	0	41	0	55574528	57	5659
2026-01-25 01:29:58.58	357.88	10.49	-42.9	-46.6	15.4	0.00e+00	0	41	0	57671680	57	5521
2026-01-25 01:29:59.57	357.76	10.55	-43.1	-46.9	15.1	0.00e+00	0	40	0	59768832	57	5695
2026-01-25 01:30:00.57	357.64	10.62	-43.0	-46.8	15.3	0.00e+00	0	41	0	60817408	57	5633
2026-01-25 01:30:01.56	357.52	10.69	-42.7	-46.5	15.6	7.00e-07	0	41	0	62914560	57	5403
2026-01-25 01:30:02.56	357.40	10.75	-42.8	-46.5	15.6	0.00e+00	0	41	0	65011712	57	5450
2026-01-25 01:30:03.55	357.28	10.82	-42.6	-46.3	15.7	0.00e+00	0	41	0	67108864	57	5339
2026-01-25 01:30:04.55	357.16	10.88	-42.6	-46.4	15.6	0.00e+00	0	41	0	68157440	57	5386
2026-01-25 01:30:05.54	357.03	10.95	-42.7	-46.6	15.6	0.00e+00	0	41	0	70254592	57	5473
2026-01-25 01:30:06.54	356.91	11.02	-42.5	-46.2	15.9	0.00e+00	0	41	0	72351744	56	5553
2026-01-25 01:30:07.53	356.79	11.08	-42.4	-46.1	15.9	0.00e+00	0	40	0	74448896	56	5480
2026-01-25 01:30:08.53	356.66	11.15	-42.7	-46.6	15.6	0.00e+00	0	41	0	76546048	56	5807
2026-01-25 01:30:09.52	356.54	11.22	-42.7	-46.5	15.6	0.00e+00	0	41	0	77594624	56	5780
2026-01-25 01:30:10.52	356.41	11.28	-42.8	-46.7	15.4	0.00e+00	0	41	0	79691776	56	5895
2026-01-25 01:30:11.52	356.28	11.35	-42.8	-46.7	15.4	0.00e+00	0	41	0	81788928	56	5923
2026-01-25 01:30:12.51	356.16	11.42	-42.5	-46.3	15.8	0.00e+00	0	41	0	83886080	56	5640
2026-01-25 01:30:13.50	356.03	11.48	-42.5	-46.3	15.8	0.00e+00	0	41	0	84934656	56	5637
2026-01-25 01:30:14.50	355.90	11.55	-42.4	-46.1	16.0	0.00e+00	0	40	0	87031808	56	5504
2026-01-25 01:30:15.49	355.78	11.62	-42.2	-45.9	16.1	0.00e+00	0	41	0	89128960	56	5402
2026-01-25 01:30:16.49	355.65	11.69	-42.2	-46.1	16.1	0.00e+00	0	41	0	91226112	56	5490
2026-01-25 01:30:17.48	355.52	11.75	-41.8	-45.5	16.4	0.00e+00	0	41	0	93323264	55	5421
2026-01-25 01:30:18.48	355.39	11.82	-41.9	-45.6	16.3	0.00e+00	0	41	0	94371840	55	5477
2026-01-25 01:30:19.47	355.26	11.89	-41.8	-45.5	16.5	0.00e+00	0	41	0	96468992	55	5420
2026-01-25 01:30:20.47	355.12	11.95	-41.7	-45.4	16.6	0.00e+00	0	41	0	98566144	55	5358
2026-01-25 01:30:21.46	354.99	12.02	-41.7	-45.4	16.5	0.00e+00	0	41	0	100663296	55	5400
2026-01-25 01:30:22.46	354.86	12.09	-41.8	-45.5	16.5	0.00e+00	0	41	0	101711872	55	5454
2026-01-25 01:30:23.45	354.73	12.16	-41.7	-45.5	16.4	0.00e+00	0	41	0	103809024	55	5456
2026-01-25 01:30:24.45	354.59	12.22	-41.8	-45.5	16.4	0.00e+00	0	41	0	105906176	55	5461
2026-01-25 01:30:25.45	354.46	12.29	-41.7	-45.4	16.5	0.00e+00	0	41	0	108003328	55	5370
2026-01-25 01:30:26.44	354.32	12.36	-41.6	-45.4	16.6	0.00e+00	0	41	0	110100480	55	5356
2026-01-25 01:30:27.43	354.19	12.42	-41.6	-45.3	16.7	0.00e+00	0	41	0	111149056	55	5320
2026-01-25 01:30:28.43	354.05	12.49	-41.3	-44.9	17.1	0.00e+00	0	41	0	113246208	54	5382
2026-01-25 01:30:29.42	353.91	12.56	-41.2	-44.9	17.1	0.00e+00	0	41	0	115343360	54	5344
2026-01-25 01:30:30.42	353.77	12.63	-41.3	-44.9	17.0	0.00e+00	0	41	0	117440512	54	5395
2026-01-25 01:30:31.41	353.64	12.69	-41.2	-44.8	17.2	0.00e+00	0	41	0	118489088	54	5289
2026-01-25 01:30:32.41	353.50	12.76	-41.2	-44.8	17.2	0.00e+00	0	41	0	120586240	54	5307
2026-01-25 01:30:33.40	353.36	12.83	-41.4	-45.0	16.9	0.00e+00	0	41	0	122683392	54	5447
2026-01-25 01:30:34.40	353.22	12.90	-41.4	-45.1	16.9	0.00e+00	0	41	0	124780544	54	5496
2026-01-25 01:30:35.39	353.07	12.96	-41.5	-45.0	16.9	0.00e+00	0	41	0	126877696	54	5457
2026-01-25 01:30:36.38	352.93	13.03	-41.4	-45.0	17.0	0.00e+00	0	41	0	127926272	54	5450
2026-01-25 01:30:37.38	352.79	13.10	-41.6	-45.2	16.8	0.00e+00	0	41	0	130023424	54	5552
2026-01-25 01:30:38.38	352.65	13.17	-41.8	-45.2	16.7	0.00e+00	0	41	0	132120576	54	5588
2026-01-25 01:30:39.37	352.50	13.23	-41.7	-45.2	16.8	0.00e+00	0	41	0	134217728	54	5531
2026-01-25 01:30:40.37	352.36	13.30	-41.7	-45.0	17.0	0.00e+00	0	41	0	136314880	54	5414
2026-01-25 01:30:41.37	352.21	13.37	-41.7	-44.8	17.2	0.00e+00	0	41	0	137363456	54	5281
2026-01-25 01:30:42.36	352.07	13.44	-41.8	-44.9	17.0	0.00e+00	0	41	0	139460608	54	5387
2026-01-25 01:30:43.35	351.92	13.50	-41.8	-44.8	17.2	0.00e+00	0	41	0	141557760	54	5321
2026-01-25 01:30:44.35	351.77	13.57	-41.8	-44.8	17.2	0.00e+00	0	41	0	143654912	54	5319
2026-01-25 01:30:45.34	351.63	13.64	-41.8	-44.9	17.1	0.00e+00	0	41	0	144703488	54	5389
2026-01-25 01:30:46.34	351.48	13.71	-42.0	-45.2	16.7	0.00e+00	0	41	0	146800640	54	5590
2026-01-25 01:30:47.33	351.33	13.78	-42.0	-45.3	16.7	0.00e+00	0	41	0	148897792	54	5646
2026-01-25 01:30:48.33	351.18	13.84	-42.1	-45.5	16.5	0.00e+00	0	41	0	150994944	55	5427
2026-01-25 01:30:49.32	351.03	13.91	-42.3	-45.7	16.3	0.00e+00	0	41	0	153092096	55	5563
2026-01-25 01:30:50.32	350.88	13.98	-42.3	-45.8	16.3	0.00e+00	0	41	0	154140672	55	5623
2026-01-25 01:30:51.31	350.72	14.05	-42.2	-45.7	16.4	0.00e+00	0	41	0	156237824	55	5536
2026-01-25 01:30:52.31	350.57	14.11	-42.2	-45.5	16.6	0.00e+00	0	41	0	158334976	55	5414
2026-01-25 01:30:53.30	350.42	14.18	-42.0	-45.2	16.9	0.00e+00	0	41	0	160432128	55	5242
2026-01-25 01:30:54.30	350.26	14.25	-42.1	-45.3	16.7	0.00e+00	0	41	0	161480704	55	5297
2026-01-25 01:30:55.29	350.11	14.32	-42.1	-45.3	16.7	0.00e+00	0	41	0	163577856	55	5323
2026-01-25 01:30:56.28	349.95	14.38	-42.1	-45.3	16.7	0.00e+00	0	41	0	165675008	55	5339
2026-01-25 01:30:57.28	349.80	14.45	-42.1	-45.4	16.6	0.00e+00	0	41	0	167772160	55	5399
2026-01-25 01:30:58.27	349.64	14.52	-42.1	-45.5	16.6	0.00e+00	0	41	0	169869312	55	5409
2026-01-25 01:30:59.27	349.48	14.58	-42.2	-45.6	16.5	0.00e+00	0	41	0	170917888	55	5493
2026-01-25 01:31:00.26	349.32	14.65	-42.3	-45.6	16.5	0.00e+00	0	40	0	173015040	55	5499
2026-01-25 01:31:01.25	349.17	14.72	-42.2	-45.5	16.6	0.00e+00	0	41	0	175112192	55	5405
2026-01-25 01:31:02.25	349.00	14.79	-42.4	-45.6	16.4	0.00e+00	0	41	0	177209344	55	5506
2026-01-25 01:31:03.24	348.84	14.85	-42.3	-45.5	16.5	0.00e+00	0	41	0	178257920	55	5432
2026-01-25 01:31:04.24	348.68	14.92	-42.3	-45.5	16.6	0.00e+00	0	41	0	180355072	55	5411
2026-01-25 01:31:05.23	348.52	14.99	-42.3	-45.6	16.5	0.00e+00	0	41	0	182452224	55	5466
2026-01-25 01:31:06.22	348.36	15.05	-42.5	-46.0	16.1	0.00e+00	0	41	0	184549376	55	5746
2026-01-25 01:31:07.22	348.19	15.12	-42.5	-45.9	16.2	0.00e+00	0	41	0	186646528	55	5686
2026-01-25 01:31:08.21	348.03	15.19	-42.5	-46.1	16.1	0.00e+00	0	41	0	187695104	55	5790
2026-01-25 01:31:09.21	347.86	15.25	-42.8	-46.4	15.9	0.00e+00	0	41	0	189792256	56	5666
2026-01-25 01:31:10.20	347.70	15.32	-42.7	-46.3	15.9	0.00e+00	0	41	0	191889408	56	5646
2026-01-25 01:31:11.20	347.53	15.39	-42.7	-46.4	15.9	0.00e+00	0	41	0	193986560	56	5698
2026-01-25 01:31:12.20	347.36	15.46	-42.6	-46.3	15.9	0.00e+00	0	41	0	195035136	56	5624
2026-01-25 01:31:13.19	347.20	15.52	-42.4	-45.9	16.4	0.00e+00	0	41	0	197132288	56	5364
2026-01-25 01:31:14.19	347.03	15.59	-42.4	-45.9	16.2	0.00e+00	0	41	0	199229440	56	5382
2026-01-25 01:31:15.18	346.86	15.65	-42.2	-45.6	16.6	0.00e+00	0	41	0	201326592	56	5210
2026-01-25 01:31:16.18	346.69	15.72	-42.2	-45.5	16.7	0.00e+00	0	41	0	203423744	56	5159
2026-01-25 01:31:17.18	346.51	15.79	-42.2	-45.4	16.8	0.00e+00	0	41	0	204472320	56	5089
2026-01-25 01:31:18.17	346.34	15.85	-42.3	-45.5	16.7	0.00e+00	0	41	0	206569472	56	5153
2026-01-25 01:31:19.17	346.17	15.92	-42.3	-45.5	16.8	0.00e+00	0	41	0	208666624	56	5113
2026-01-25 01:31:20.16	345.99	15.99	-42.3	-45.5	16.8	0.00e+00	0	41	0	210763776	56	5116
2026-01-25 01:31:21.16	345.82	16.05	-42.6	-45.9	16.3	0.00e+00	0	41	0	211812352	56	5367
2026-01-25 01:31:22.15	345.65	16.12	-42.7	-46.2	16.0	0.00e+00	0	41	0	213909504	56	5542
2026-01-25 01:31:23.15	345.47	16.18	-42.5	-46.0	16.3	0.00e+00	0	41	0	216006656	56	5426
2026-01-25 01:31:24.14	345.29	16.25	-42.4	-46.0	16.2	0.00e+00	0	41	0	218103808	56	5452
2026-01-25 01:31:25.14	345.11	16.32	-41.8	-45.3	16.7	0.00e+00	0	41	0	220200960	55	5338
2026-01-25 01:31:26.14	344.93	16.38	-41.8	-45.3	16.8	0.00e+00	0	41	0	221249536	55	5315
2026-01-25 01:31:27.13	344.76	16.45	-41.7	-45.2	16.9	0.00e+00	0	41	0	223346688	55	5236
2026-01-25 01:31:28.13	344.58	16.51	-41.8	-45.2	16.9	0.00e+00	0	41	0	225443840	55	5238
2026-01-25 01:31:29.12	344.40	16.58	-42.0	-45.3	16.8	0.00e+00	0	41	0	227540992	55	5304
2026-01-25 01:31:30.12	344.21	16.64	-42.3	-45.5	16.6	0.00e+00	0	41	0	228589568	55	5451
2026-01-25 01:31:31.11	344.03	16.71	-42.5	-45.8	16.4	0.00e+00	0	41	0	230686720	55	5594
2026-01-25 01:31:32.11	343.85	16.77	-42.8	-46.0	16.3	0.00e+00	0	41	0	232783872	56	5459
2026-01-25 01:31:33.10	343.66	16.84	-43.1	-46.5	15.7	0.00e+00	0	41	0	234881024	56	5776
2026-01-25 01:31:34.10	343.48	16.90	-43.1	-46.5	15.8	0.00e+00	0	41	0	236978176	57	5448
2026-01-25 01:31:35.09	343.29	16.97	-43.0	-46.4	15.8	0.00e+00	0	41	0	238026752	57	5392
2026-01-25 01:31:36.08	343.11	17.03	-42.9	-46.3	15.9	0.00e+00	0	41	0	240123904	57	5333
2026-01-25 01:31:37.08	342.92	17.09	-42.7	-46.1	16.2	0.00e+00	0	41	0	242221056	57	5205
2026-01-25 01:31:38.07	342.73	17.16	-42.3	-45.6	16.6	0.00e+00	0	41	0	244318208	56	5193
2026-01-25 01:31:39.07	342.54	17.22	-42.1	-45.3	17.0	0.00e+00	0	41	0	245366784	56	5014
2026-01-25 01:31:40.06	342.35	17.28	-42.0	-45.0	17.2	0.00e+00	0	41	0	247463936	56	4870
2026-01-25 01:31:41.06	342.16	17.35	-42.1	-45.2	17.0	0.00e+00	0	41	0	249561088	55	5233
2026-01-25 01:31:42.05	341.97	17.41	-42.0	-45.0	17.2	0.00e+00	0	41	0	251658240	55	5102
2026-01-25 01:31:43.05	341.78	17.47	-41.9	-44.8	17.3	0.00e+00	0	41	0	253755392	55	5023
2026-01-25 01:31:44.04	341.59	17.54	-42.0	-45.0	17.1	0.00e+00	0	41	0	254803968	55	5125
2026-01-25 01:31:45.04	341.39	17.60	-41.8	-44.7	17.4	0.00e+00	0	41	0	256901120	55	4968
2026-01-25 01:31:46.03	341.20	17.66	-41.7	-44.6	17.4	0.00e+00	0	41	0	258998272	55	4913
2026-01-25 01:31:47.03	341.00	17.73	-41.6	-44.6	17.5	0.00e+00	0	41	0	261095424	55	4885
2026-01-25 01:31:48.02	340.81	17.79	-41.5	-44.4	17.7	0.00e+00	0	41	0	263192576	54	5062
2026-01-25 01:31:49.02	340.61	17.85	-41.4	-44.3	17.8	0.00e+00	0	41	0	264241152	54	5037
2026-01-25 01:31:50.02	340.41	17.91	-41.4	-44.3	17.7	0.00e+00	0	41	0	266338304	54	5018
2026-01-25 01:31:51.01	340.21	17.97	-41.5	-44.4	17.7	0.00e+00	0	41	0	268435456	54	5047
2026-01-25 01:31:52.00	340.01	18.03	-41.6	-44.4	17.7	0.00e+00	0	41	0	270532608	54	5061
2026-01-25 01:31:53.00	339.81	18.10	-41.6	-44.4	17.6	0.00e+00	0	41	0	271581184	54	5079
2026-01-25 01:31:53.99	339.61	18.16	-41.4	-44.1	17.9	0.00e+00	0	41	0	273678336	54	4907
2026-01-25 01:31:54.99	339.41	18.22	-41.2	-43.9	18.1	0.00e+00	0	41	0	275775488	54	4777
2026-01-25 01:31:55.98	339.21	18.28	-41.1	-43.8	18.2	0.00e+00	0	41	0	277872640	54	4734
2026-01-25 01:31:56.98	339.00	18.34	-40.9	-43.5	18.4	0.00e+00	0	41	0	279969792	53	4869
2026-01-25 01:31:57.97	338.80	18.40	-40.7	-43.4	18.5	0.00e+00	0	41	0	281018368	53	4783
2026-01-25 01:31:58.97	338.59	18.46	-40.8	-43.5	18.5	0.00e+00	0	41	0	283115520	53	4857
2026-01-25 01:31:59.96	338.39	18.52	-40.8	-43.5	18.5	0.00e+00	0	41	0	285212672	53	4860
2026-01-25 01:32:00.96	338.18	18.58	-41.0	-43.8	18.2	0.00e+00	0	41	0	287309824	53	5009
2026-01-25 01:32:01.95	337.97	18.64	-41.1	-43.9	18.2	0.00e+00	0	41	0	288358400	53	5067
2026-01-25 01:32:02.95	337.76	18.70	-41.2	-44.0	18.1	0.00e+00	0	41	0	290455552	53	5126
2026-01-25 01:32:03.94	337.55	18.75	-40.9	-43.6	18.4	0.00e+00	0	41	0	292552704	53	4885
2026-01-25 01:32:04.93	337.35	18.81	-40.9	-43.5	18.5	0.00e+00	0	41	0	294649856	53	4839
2026-01-25 01:32:05.93	337.13	18.87	-40.4	-42.8	19.1	0.00e+00	0	41	0	296747008	52	4735
2026-01-25 01:32:06.93	336.92	18.93	-40.3	-42.8	19.1	0.00e+00	0	41	0	297795584	52	4730
2026-01-25 01:32:07.92	336.71	18.99	-40.0	-42.5	19.4	0.00e+00	0	41	0	299892736	52	4598
2026-01-25 01:32:08.92	336.49	19.04	-40.2	-42.7	19.2	0.00e+00	0	41	0	301989888	52	4705
2026-01-25 01:32:09.91	336.28	19.10	-40.2	-42.9	19.0	0.00e+00	0	41	0	304087040	52	4802
2026-01-25 01:32:10.91	336.06	19.16	-40.4	-43.1	18.8	0.00e+00	0	41	0	305135616	52	4924
2026-01-25 01:32:11.90	335.85	19.21	-40.5	-43.2	18.7	0.00e+00	0	41	0	307232768	52	4981
2026-01-25 01:32:12.89	335.63	19.27	-40.7	-43.5	18.5	0.00e+00	0	41	0	309329920	52	5117
2026-01-25 01:32:13.89	335.42	19.33	-40.8	-43.5	18.5	0.00e+00	0	41	0	311427072	52	5126
2026-01-25 01:32:14.89	335.20	19.38	-40.7	-43.4	18.5	0.00e+00	0	41	0	313524224	52	5097
2026-01-25 01:32:15.88	334.98	19.44	-40.7	-43.4	18.6	0.00e+00	0	41	0	314572800	52	5065
2026-01-25 01:32:16.88	334.76	19.49	-40.5	-43.2	18.8	0.00e+00	0	41	0	316669952	52	4975
2026-01-25 01:32:17.87	334.54	19.55	-40.4	-43.1	18.9	0.00e+00	0	41	0	318767104	52	4889
2026-01-25 01:32:18.87	334.31	19.60	-40.3	-43.1	18.9	0.00e+00	0	41	0	320864256	52	4886
2026-01-25 01:32:19.87	334.09	19.66	-40.4	-43.2	18.8	0.00e+00	0	41	0	321912832	52	4960
2026-01-25 01:32:20.86	333.87	19.71	-40.5	-43.3	18.6	0.00e+00	0	41	0	324009984	52	5007
2026-01-25 01:32:21.86	333.64	19.76	-40.6	-43.4	18.6	0.00e+00	0	41	0	326107136	52	5060
2026-01-25 01:32:22.85	333.42	19.81	-40.6	-43.2	18.7	0.00e+00	0	41	0	328204288	52	4979
2026-01-25 01:32:23.85	333.19	19.87	-40.6	-43.3	18.7	0.00e+00	0	41	0	330301440	52	5004
2026-01-25 01:32:24.84	332.97	19.92	-40.5	-43.1	18.9	0.00e+00	0	41	0	331350016	52	4887
2026-01-25 01:32:25.84	332.74	19.97	-40.2	-42.6	19.3	0.00e+00	0	41	0	333447168	52	4644
2026-01-25 01:32:26.83	332.51	20.02	-40.2	-42.6	19.3	0.00e+00	0	41	0	335544320	52	4629
2026-01-25 01:32:27.83	332.28	20.07	-40.1	-42.5	19.4	0.00e+00	0	41	0	337641472	52	4574
2026-01-25 01:32:28.83	332.05	20.13	-40.2	-42.6	19.5	0.00e+00	0	41	0	338690048	52	4606
2026-01-25 01:32:29.82	331.82	20.18	-40.3	-42.7	19.3	0.00e+00	0	41	0	340787200	52	4680
2026-01-25 01:32:30.82	331.59	20.23	-40.4	-42.9	19.1	0.00e+00	0	41	0	342884352	52	4807
2026-01-25 01:32:31.81	331.36	20.27	-40.3	-42.8	19.2	0.00e+00	0	41	0	344981504	52	4732
2026-01-25 01:32:32.80	331.13	20.32	-40.2	-42.8	19.2	0.00e+00	0	41	0	347078656	52	4715
2026-01-25 01:32:33.80	330.90	20.37	-40.1	-42.6	19.5	0.00e+00	0	41	0	348127232	51	4880
2026-01-25 01:32:34.79	330.66	20.42	-39.7	-42.1	19.8	0.00e+00	0	41	0	350224384	51	4643
2026-01-25 01:32:35.79	330.43	20.47	-39.7	-42.1	19.9	0.00e+00	0	41	0	352321536	51	4611
2026-01-25 01:32:36.78	330.19	20.52	-39.6	-41.9	20.0	0.00e+00	0	41	0	354418688	51	4540
2026-01-25 01:32:37.78	329.96	20.56	-39.6	-42.0	19.9	0.00e+00	0	41	0	355467264	51	4559
2026-01-25 01:32:38.77	329.72	20.61	-39.9	-42.3	19.7	0.00e+00	0	41	0	357564416	51	4720
2026-01-25 01:32:39.77	329.48	20.66	-40.1	-42.5	19.5	0.00e+00	0	41	0	359661568	51	4825
2026-01-25 01:32:40.76	329.24	20.70	-40.3	-42.7	19.4	0.00e+00	0	41	0	361758720	51	4964
2026-01-25 01:32:41.75	329.01	20.75	-40.2	-42.6	19.4	0.00e+00	0	41	0	363855872	51	4905
2026-01-25 01:32:42.75	328.76	20.79	-40.2	-42.7	19.4	0.00e+00	0	41	0	364904448	51	4929
2026-01-25 01:32:43.74	328.53	20.84	-40.2	-42.6	19.5	0.00e+00	0	41	0	367001600	51	4875
2026-01-25 01:32:44.74	328.28	20.88	-40.1	-42.5	19.6	0.00e+00	0	41	0	369098752	51	4836
2026-01-25 01:32:45.73	328.04	20.92	-40.1	-42.4	19.7	0.00e+00	0	41	0	371195904	51	4802
2026-01-25 01:32:46.73	327.80	20.97	-40.3	-42.6	19.4	0.00e+00	0	41	0	372244480	51	4918
2026-01-25 01:32:47.72	327.56	21.01	-40.4	-42.7	19.3	0.00e+00	0	41	0	374341632	51	4972
2026-01-25 01:32:48.72	327.31	21.05	-40.5	-42.9	19.3	0.00e+00	0	41	0	376438784	51	5058
2026-01-25 01:32:49.71	327.07	21.09	-40.6	-43.0	19.1	0.00e+00	0	41	0	378535936	51	5121
2026-01-25 01:32:50.70	326.82	21.13	-40.6	-43.0	19.1	0.00e+00	0	41	0	380633088	51	5114
2026-01-25 01:32:51.70	326.58	21.18	-40.4	-42.8	19.3	0.00e+00	0	41	0	381681664	51	4997
2026-01-25 01:32:52.69	326.33	21.22	-40.2	-42.6	19.5	0.00e+00	0	41	0	383778816	51	4873
2026-01-25 01:32:53.69	326.08	21.26	-40.0	-42.3	19.7	0.00e+00	0	41	0	385875968	51	4743
2026-01-25 01:32:54.68	325.84	21.29	-39.9	-42.3	19.8	0.00e+00	0	41	0	387973120	51	4715
2026-01-25 01:32:55.68	325.59	21.33	-39.8	-42.2	19.9	0.00e+00	0	41	0	389021696	51	4679
2026-01-25 01:32:56.67	325.34	21.37	-39.7	-42.1	19.9	0.00e+00	0	41	0	391118848	51	4613
2026-01-25 01:32:57.67	325.09	21.41	-39.9	-42.2	19.8	0.00e+00	0	41	0	393216000	51	4677
2026-01-25 01:32:58.66	324.84	21.45	-39.9	-42.2	19.8	0.00e+00	0	41	0	395313152	51	4697
2026-01-25 01:32:59.66	324.59	21.48	-40.0	-42.4	19.7	0.00e+00	0	41	0	397410304	51	4776
2026-01-25 01:33:00.65	324.34	21.52	-40.0	-42.3	19.8	0.00e+00	0	41	0	398458880	51	4731
2026-01-25 01:33:01.65	324.08	21.55	-39.9	-42.3	19.8	0.00e+00	0	41	0	400556032	51	4723
2026-01-25 01:33:02.64	323.83	21.59	-39.9	-42.3	19.8	0.00e+00	0	41	0	402653184	51	4719
2026-01-25 01:33:03.64	323.58	21.62	-39.8	-42.1	20.0	0.00e+00	0	41	0	404750336	51	4628
2026-01-25 01:33:04.64	323.32	21.66	-40.0	-42.3	19.8	0.00e+00	0	41	0	405798912	51	4714
2026-01-25 01:33:05.63	323.07	21.69	-39.8	-42.1	20.0	0.00e+00	0	41	0	407896064	51	4624
2026-01-25 01:33:06.63	322.81	21.72	-40.0	-42.3	19.8	0.00e+00	0	41	0	409993216	51	4726
2026-01-25 01:33:07.62	322.56	21.76	-40.0	-42.3	19.7	0.00e+00	0	41	0	412090368	51	4734
2026-01-25 01:33:08.62	322.30	21.79	-40.3	-42.8	19.3	0.00e+00	0	41	0	414187520	51	4990
2026-01-25 01:33:09.61	322.04	21.82	-40.6	-43.1	18.9	0.00e+00	0	41	0	415236096	52	4925
2026-01-25 01:33:10.61	321.79	21.85	-40.8	-43.4	18.7	0.00e+00	0	41	0	417333248	52	5098
2026-01-25 01:33:11.60	321.53	21.88	-41.0	-43.7	18.4	0.00e+00	0	41	0	419430400	52	5265
2026-01-25 01:33:12.60	321.27	21.91	-41.0	-43.7	18.5	0.00e+00	0	41	0	421527552	52	5221
2026-01-25 01:33:13.59	321.01	21.94	-41.2	-43.9	18.3	0.00e+00	0	41	0	422576128	52	5362
2026-01-25 01:33:14.58	320.75	21.96	-41.3	-44.0	18.2	0.00e+00	0	41	0	424673280	53	5110
2026-01-25 01:33:15.58	320.49	21.99	-41.6	-44.5	17.8	0.00e+00	0	41	0	426770432	53	5413
2026-01-25 01:33:16.58	320.23	22.02	-41.6	-44.6	17.6	0.00e+00	0	41	0	428867584	53	5474
2026-01-25 01:33:17.57	319.97	22.05	-41.7	-44.8	17.5	0.00e+00	0	41	0	430964736	54	5294
2026-01-25 01:33:18.57	319.71	22.07	-41.5	-44.5	17.6	0.00e+00	0	41	0	432013312	54	5137
2026-01-25 01:33:19.56	319.45	22.10	-41.5	-44.3	17.7	0.00e+00	0	41	0	434110464	54	5037
2026-01-25 01:33:20.55	319.19	22.12	-41.5	-44.4	17.8	0.00e+00	0	41	0	436207616	54	5053
2026-01-25 01:33:21.55	318.93	22.14	-41.3	-44.1	18.1	0.00e+00	0	41	0	438304768	54	4882
2026-01-25 01:33:22.54	318.66	22.17	-41.2	-43.8	18.3	0.00e+00	0	41	0	439353344	54	4739
2026-01-25 01:33:23.54	318.40	22.19	-40.9	-43.5	18.7	0.00e+00	0	41	0	441450496	53	4821
2026-01-25 01:33:24.53	318.14	22.21	-40.8	-43.4	18.7	0.00e+00	0	41	0	443547648	53	4772
2026-01-25 01:33:25.53	317.87	22.23	-40.9	-43.4	18.6	0.00e+00	0	41	0	445644800	53	4813
2026-01-25 01:33:26.52	317.61	22.25	-41.1	-43.7	18.3	0.00e+00	0	41	0	447741952	53	4980
2026-01-25 01:33:27.52	317.34	22.27	-41.4	-44.2	18.0	0.00e+00	0	41	0	448790528	53	5224
2026-01-25 01:33:28.51	317.08	22.29	-41.4	-44.1	18.0	0.00e+00	0	41	0	450887680	53	5216
2026-01-25 01:33:29.51	316.81	22.31	-41.5	-44.2	17.9	0.00e+00	0	41	0	452984832	53	5279
2026-01-25 01:33:30.50	316.55	22.33	-41.7	-44.5	17.6	0.00e+00	0	41	0	455081984	54	5143
2026-01-25 01:33:31.50	316.28	22.35	-41.7	-44.6	17.6	0.00e+00	0	41	0	456130560	54	5165
2026-01-25 01:33:32.49	316.02	22.37	-41.5	-44.4	17.8	0.00e+00	0	41	0	458227712	54	5042
2026-01-25 01:33:33.49	315.75	22.38	-41.5	-44.2	17.9	0.00e+00	0	41	0	460324864	54	4978
2026-01-25 01:33:34.48	315.48	22.40	-41.3	-44.0	18.2	0.00e+00	0	41	0	462422016	54	4832
2026-01-25 01:33:35.48	315.22	22.41	-41.1	-43.7	18.5	0.00e+00	0	41	0	464519168	54	4676
2026-01-25 01:33:36.47	314.95	22.43	-41.2	-43.8	18.4	0.00e+00	0	41	0	465567744	54	4754
2026-01-25 01:33:37.47	314.68	22.44	-41.4	-44.0	18.2	0.00e+00	0	41	0	467664896	54	4850
2026-01-25 01:33:38.46	314.41	22.45	-41.6	-44.2	17.9	0.00e+00	0	41	0	469762048	54	4983
2026-01-25 01:33:39.46	314.15	22.47	-42.0	-44.8	17.4	0.00e+00	0	41	0	471859200	54	5310
2026-01-25 01:33:40.45	313.88	22.48	-42.0	-44.9	17.3	0.00e+00	0	41	0	472907776	54	5341
2026-01-25 01:33:41.45	313.61	22.49	-42.0	-44.8	17.3	0.00e+00	0	42	0	475004928	55	5035
2026-01-25 01:33:42.45	313.34	22.50	-41.6	-44.4	17.7	0.00e+00	0	41	0	477102080	55	4785
2026-01-25 01:33:43.44	313.07	22.51	-41.5	-44.1	18.0	0.00e+00	0	41	0	479199232	54	4926
2026-01-25 01:33:44.44	312.80	22.52	-41.3	-44.0	18.1	0.00e+00	0	41	0	481296384	54	4847
2026-01-25 01:33:45.43	312.53	22.53	-41.4	-44.1	18.1	0.00e+00	0	41	0	482344960	54	4871
2026-01-25 01:33:46.43	312.26	22.53	-41.7	-44.6	17.6	0.00e+00	0	41	0	484442112	54	5182
2026-01-25 01:33:47.42	311.99	22.54	-41.8	-44.8	17.5	0.00e+00	0	41	0	486539264	54	5288
2026-01-25 01:33:48.42	311.72	22.55	-42.1	-45.2	17.0	0.00e+00	0	41	0	488636416	54	5563
2026-01-25 01:33:49.41	311.46	22.55	-42.5	-45.7	16.6	0.00e+00	0	41	0	489684992	55	5561
2026-01-25 01:33:50.41	311.18	22.56	-42.9	-46.3	16.1	0.00e+00	0	41	0	491782144	56	5641
2026-01-25 01:33:51.40	310.92	22.56	-43.2	-46.6	15.8	0.00e+00	0	41	0	493879296	56	5847
2026-01-25 01:33:52.40	310.65	22.56	-43.3	-46.8	15.5	0.00e+00	0	41	0	495976448	57	5643
2026-01-25 01:33:53.39	310.38	22.57	-43.2	-46.6	15.7	0.00e+00	0	41	0	498073600	57	5517
2026-01-25 01:33:54.39	310.11	22.57	-42.8	-46.0	16.4	0.00e+00	0	41	0	499122176	57	5110
2026-01-25 01:33:55.38	309.84	22.57	-42.6	-45.6	16.7	0.00e+00	0	41	0	501219328	57	4916
2026-01-25 01:33:56.38	309.57	22.57	-42.3	-45.2	17.1	0.00e+00	0	41	0	503316480	56	4976
2026-01-25 01:33:57.37	309.30	22.57	-42.0	-44.8	17.4	0.00e+00	0	41	0	505413632	56	4750
2026-01-25 01:33:58.36	309.03	22.57	-41.5	-44.2	18.0	0.00e+00	0	41	0	506462208	55	4660
2026-01-25 01:33:59.36	308.76	22.57	-41.2	-43.8	18.3	0.00e+00	0	41	0	508559360	54	4745
2026-01-25 01:34:00.35	308.49	22.57	-41.1	-43.6	18.4	0.00e+00	0	41	0	510656512	53	4918
2026-01-25 01:34:01.35	308.22	22.57	-41.0	-43.5	18.5	0.00e+00	0	41	0	512753664	53	4855
2026-01-25 01:34:02.34	307.95	22.56	-41.2	-43.9	18.2	0.00e+00	0	41	0	514850816	53	5055
2026-01-25 01:34:03.34	307.68	22.56	-41.3	-44.0	18.0	0.00e+00	0	41	0	515899392	53	5156
2026-01-25 01:34:04.34	307.41	22.55	-41.4	-44.1	18.0	0.00e+00	0	41	0	517996544	53	5206
2026-01-25 01:34:05.33	307.14	22.55	-41.4	-44.1	18.0	0.00e+00	0	41	0	520093696	53	5174
2026-01-25 01:34:06.33	306.87	22.54	-41.2	-43.8	18.3	0.00e+00	0	41	0	522190848	53	5013
2026-01-25 01:34:07.32	306.60	22.54	-41.1	-43.6	18.5	0.00e+00	0	41	0	524288000	53	4917
2026-01-25 01:34:08.31	306.33	22.53	-41.0	-43.5	18.5	0.00e+00	0	41	0	525336576	53	4842
2026-01-25 01:34:09.31	306.06	22.52	-41.0	-43.5	18.5	0.00e+00	0	41	0	527433728	53	4864
2026-01-25 01:34:10.31	305.79	22.51	-41.2	-43.9	18.2	0.00e+00	0	41	0	529530880	53	5058
2026-01-25 01:34:11.30	305.52	22.50	-41.2	-43.8	18.3	0.00e+00	0	41	0	531628032	53	5019
2026-01-25 01:34:12.30	305.25	22.49	-41.3	-44.0	18.1	0.00e+00	0	41	0	532676608	53	5127
2026-01-25 01:34:13.29	304.98	22.48	-41.2	-43.9	18.3	0.00e+00	0	41	0	534773760	53	5052
2026-01-25 01:34:14.29	304.71	22.47	-41.3	-43.9	18.2	0.00e+00	0	41	0	536870912	53	5098
2026-01-25 01:34:15.28	304.45	22.46	-41.3	-44.0	18.2	0.00e+00	0	41	0	538968064	53	5105
2026-01-25 01:34:16.28	304.18	22.45	-41.4	-44.0	18.1	0.00e+00	0	41	0	541065216	53	5144
2026-01-25 01:34:17.27	303.91	22.43	-41.3	-43.8	18.3	0.00e+00	0	41	0	542113792	53	5027
2026-01-25 01:34:18.27	303.64	22.42	-41.1	-43.6	18.5	0.00e+00	0	41	0	544210944	53	4879
2026-01-25 01:34:19.26	303.38	22.40	-40.8	-43.2	18.9	0.00e+00	0	41	0	546308096	53	4686
2026-01-25 01:34:20.25	303.11	22.39	-40.7	-43.1	18.9	0.00e+00	0	41	0	548405248	53	4638
2026-01-25 01:34:21.25	302.84	22.37	-40.8	-43.2	18.8	0.00e+00	0	41	0	549453824	53	4690
2026-01-25 01:34:22.25	302.57	22.36	-40.9	-43.4	18.7	0.00e+00	0	41	0	551550976	53	4776
2026-01-25 01:34:23.24	302.31	22.34	-41.2	-43.7	18.5	0.00e+00	0	41	0	553648128	53	4963
2026-01-25 01:34:24.24	302.04	22.32	-41.0	-43.5	18.6	0.00e+00	0	41	0	555745280	53	4863
2026-01-25 01:34:25.23	301.78	22.30	-40.8	-43.2	18.9	0.00e+00	0	41	0	557842432	53	4661
2026-01-25 01:34:26.23	301.51	22.28	-40.3	-42.6	19.3	0.00e+00	0	41	0	558891008	52	4614
2026-01-25 01:34:27.23	301.25	22.26	-40.3	-42.5	19.5	0.00e+00	0	41	0	560988160	52	4585
2026-01-25 01:34:28.22	300.98	22.24	-40.3	-42.5	19.6	0.00e+00	0	41	0	563085312	52	4560
2026-01-25 01:34:29.21	300.72	22.22	-40.5	-42.8	19.3	0.00e+00	0	41	0	565182464	52	4734
2026-01-25 01:34:30.21	300.45	22.20	-40.4	-42.7	19.4	0.00e+00	0	41	0	566231040	52	4671
2026-01-25 01:34:31.20	300.19	22.18	-40.5	-42.8	19.4	0.00e+00	0	41	0	568328192	52	4710
2026-01-25 01:34:32.20	299.93	22.15	-40.4	-42.6	19.5	0.00e+00	0	41	0	570425344	52	4628
2026-01-25 01:34:33.19	299.67	22.13	-40.3	-42.5	19.7	0.00e+00	0	41	0	572522496	52	4554
2026-01-25 01:34:34.19	299.40	22.11	-40.0	-42.1	20.0	0.00e+00	0	41	0	574619648	52	4378
2026-01-25 01:34:35.18	299.14	22.08	-40.1	-42.3	19.9	0.00e+00	0	41	0	575668224	51	4722
2026-01-25 01:34:36.17	298.88	22.06	-40.2	-42.4	19.8	0.00e+00	0	41	0	577765376	51	4785
2026-01-25 01:34:37.17	298.62	22.03	-40.0	-42.2	20.0	0.00e+00	0	41	0	579862528	51	4667
2026-01-25 01:34:38.16	298.36	22.00	-40.2	-42.3	19.8	0.00e+00	0	41	0	581959680	51	4747
2026-01-25 01:34:39.16	298.10	21.98	-40.2	-42.4	19.8	0.00e+00	0	41	0	583008256	51	4803
2026-01-25 01:34:40.15	297.84	21.95	-40.3	-42.5	19.7	0.00e+00	0	41	0	585105408	51	4823
2026-01-25 01:34:41.15	297.58	21.92	-40.4	-42.7	19.6	0.00e+00	0	41	0	587202560	51	4927
2026-01-25 01:34:42.14	297.32	21.89	-40.5	-42.8	19.4	0.00e+00	0	41	0	589299712	51	4996
2026-01-25 01:34:43.14	297.06	21.86	-40.4	-42.7	19.5	0.00e+00	0	41	0	591396864	52	4671
2026-01-25 01:34:44.13	296.80	21.83	-40.3	-42.5	19.5	0.00e+00	0	41	0	592445440	52	4596
2026-01-25 01:34:45.12	296.55	21.80	-40.2	-42.3	19.7	0.00e+00	0	41	0	594542592	52	4481
2026-01-25 01:34:46.12	296.29	21.77	-40.1	-42.3	19.8	0.00e+00	0	41	0	596639744	52	4464
2026-01-25 01:34:47.11	296.04	21.74	-40.0	-42.2	19.9	0.00e+00	0	41	0	598736896	52	4393
2026-01-25 01:34:48.11	295.78	21.70	-39.9	-42.0	20.1	0.00e+00	0	41	0	599785472	51	4584
2026-01-25 01:34:49.10	295.52	21.67	-39.9	-42.0	20.1	0.00e+00	0	41	0	601882624	51	4598
2026-01-25 01:34:50.10	295.27	21.64	-40.0	-42.1	20.1	0.00e+00	0	41	0	603979776	51	4615
2026-01-25 01:34:51.09	295.02	21.60	-39.9	-42.0	20.2	0.00e+00	0	41	0	606076928	51	4554
2026-01-25 01:34:52.09	294.76	21.57	-40.0	-42.2	20.0	0.00e+00	0	41	0	608174080	51	4657
2026-01-25 01:34:53.08	294.51	21.53	-40.3	-42.5	19.7	0.00e+00	0	41	0	609222656	51	4815
2026-01-25 01:34:54.07	294.26	21.50	-40.6	-42.8	19.4	0.00e+00	0	41	0	611319808	51	5015
2026-01-25 01:34:55.07	294.01	21.46	-40.7	-43.0	19.2	0.00e+00	0	41	0	613416960	52	4818
2026-01-25 01:34:56.06	293.76	21.42	-41.1	-43.4	18.8	0.00e+00	0	41	0	615514112	52	5090
2026-01-25 01:34:57.06	293.50	21.39	-41.1	-43.4	18.8	0.00e+00	0	41	0	616562688	52	5059
2026-01-25 01:34:58.05	293.25	21.35	-41.1	-43.5	18.7	0.00e+00	0	41	0	618659840	52	5113
2026-01-25 01:34:59.05	293.00	21.31	-40.9	-43.2	19.0	0.00e+00	0	41	0	620756992	53	4689
2026-01-25 01:35:00.04	292.76	21.27	-41.0	-43.4	18.8	0.00e+00	0	41	0	622854144	53	4762
2026-01-25 01:35:01.04	292.51	21.23	-40.8	-43.0	19.1	0.00e+00	0	41	0	624951296	53	4583
2026-01-25 01:35:02.03	292.26	21.19	-40.9	-43.2	19.0	0.00e+00	0	41	0	625999872	53	4652
2026-01-25 01:35:03.02	292.02	21.15	-41.0	-43.3	18.9	0.00e+00	0	41	0	628097024	53	4733
2026-01-25 01:35:04.02	291.77	21.11	-41.3	-43.7	18.5	0.00e+00	0	41	0	630194176	53	4961
2026-01-25 01:35:05.01	291.52	21.07	-41.4	-43.8	18.4	0.00e+00	0	41	0	632291328	53	5022
2026-01-25 01:35:06.01	291.28	21.03	-41.6	-44.1	18.2	0.00e+00	0	41	0	633339904	53	5160
2026-01-25 01:35:07.00	291.03	20.98	-41.9	-44.4	17.9	0.00e+00	0	41	0	635437056	54	5077
2026-01-25 01:35:08.00	290.79	20.94	-42.1	-44.7	17.6	0.00e+00	0	41	0	637534208	54	5223
2026-01-25 01:35:08.99	290.55	20.90	-42.1	-44.7	17.6	0.00e+00	0	41	0	639631360	54	5272
2026-01-25 01:35:09.99	290.31	20.85	-42.5	-45.2	17.1	0.00e+00	0	41	0	641728512	55	5242
2026-01-25 01:35:10.98	290.06	20.81	-42.5	-45.2	17.1	0.00e+00	0	41	0	642777088	55	5274
2026-01-25 01:35:11.98	289.82	20.76	-42.5	-45.2	17.1	0.00e+00	0	41	0	644874240	55	5260
2026-01-25 01:35:12.97	289.58	20.72	-42.7	-45.5	16.9	0.00e+00	0	41	0	646971392	55	5418
2026-01-25 01:35:13.97	289.34	20.67	-42.6	-45.3	17.2	0.00e+00	0	41	0	649068544	56	4994
2026-01-25 01:35:14.96	289.11	20.63	-42.5	-45.1	17.3	0.00e+00	0	41	0	650117120	56	4901
2026-01-25 01:35:15.96	288.87	20.58	-42.1	-44.7	17.8	0.00e+00	0	41	0	652214272	56	4661
2026-01-25 01:35:16.95	288.63	20.53	-42.1	-44.6	17.8	0.00e+00	0	41	0	654311424	56	4624
2026-01-25 01:35:17.95	288.39	20.49	-41.6	-44.0	18.2	0.00e+00	0	41	0	656408576	55	4594
2026-01-25 01:35:18.94	288.16	20.44	-41.7	-44.1	18.2	0.00e+00	0	41	0	658505728	55	4626
2026-01-25 01:35:19.94	287.92	20.39	-41.8	-44.3	17.9	0.00e+00	0	41	0	659554304	55	4714
2026-01-25 01:35:20.93	287.69	20.34	-41.8	-44.3	17.9	0.00e+00	0	41	0	661651456	55	4748
2026-01-25 01:35:21.93	287.46	20.29	-41.8	-44.3	18.0	0.00e+00	0	41	0	663748608	55	4734
2026-01-25 01:35:22.92	287.22	20.24	-41.8	-44.3	18.0	0.00e+00	0	41	0	665845760	55	4743
2026-01-25 01:35:23.92	286.99	20.19	-41.7	-44.1	18.1	0.00e+00	0	41	0	667942912	55	4648
2026-01-25 01:35:24.91	286.76	20.14	-41.7	-44.1	18.1	0.00e+00	0	41	0	668991488	55	4629
2026-01-25 01:35:25.91	286.53	20.09	-41.4	-43.7	18.5	0.00e+00	0	41	0	671088640	54	4699
2026-01-25 01:35:26.90	286.30	20.04	-41.1	-43.4	18.8	0.00e+00	0	41	0	673185792	54	4501
2026-01-25 01:35:27.90	286.07	19.99	-41.1	-43.4	18.8	0.00e+00	0	41	0	675282944	53	4783
2026-01-25 01:35:28.89	285.84	19.94	-40.7	-42.9	19.2	0.00e+00	0	41	0	676331520	53	4522
2026-01-25 01:35:29.89	285.61	19.88	-40.6	-42.8	19.3	0.00e+00	0	41	0	678428672	53	4477
2026-01-25 01:35:30.88	285.39	19.83	-40.5	-42.7	19.4	0.00e+00	0	41	0	680525824	52	4681
2026-01-25 01:35:31.88	285.16	19.78	-40.6	-42.8	19.3	0.00e+00	0	41	0	682622976	52	4726
2026-01-25 01:35:32.87	284.94	19.73	-40.9	-43.2	19.0	0.00e+00	0	41	0	684720128	52	4943
2026-01-25 01:35:33.87	284.71	19.67	-41.0	-43.3	18.9	0.00e+00	0	41	0	685768704	52	5001
2026-01-25 01:35:34.86	284.49	19.62	-41.1	-43.5	18.7	0.00e+00	0	41	0	687865856	53	4818
2026-01-25 01:35:35.86	284.27	19.56	-41.4	-43.8	18.4	0.00e+00	0	41	0	689963008	53	5033
2026-01-25 01:35:36.85	284.05	19.51	-41.8	-44.3	18.0	0.00e+00	0	41	0	692060160	54	5023
2026-01-25 01:35:37.85	283.82	19.45	-42.2	-44.8	17.5	0.00e+00	0	41	0	693108736	55	5029
2026-01-25 01:35:38.84	283.60	19.40	-42.4	-45.1	17.2	0.00e+00	0	41	0	695205888	55	5181
2026-01-25 01:35:39.84	283.38	19.34	-42.9	-45.7	16.8	0.00e+00	0	41	0	697303040	56	5244
2026-01-25 01:35:40.83	283.17	19.29	-42.8	-45.5	16.9	0.00e+00	0	41	0	699400192	56	5156
2026-01-25 01:35:41.83	282.95	19.23	-42.6	-45.4	17.0	0.00e+00	0	41	0	701497344	56	5066
2026-01-25 01:35:42.82	282.73	19.18	-42.6	-45.4	17.0	0.00e+00	0	41	0	702545920	56	5069
2026-01-25 01:35:43.82	282.51	19.12	-42.7	-45.6	16.9	0.00e+00	0	41	0	704643072	56	5177
2026-01-25 01:35:44.81	282.30	19.06	-42.8	-45.7	16.8	0.00e+00	0	41	0	706740224	56	5263
2026-01-25 01:35:45.81	282.08	19.00	-43.2	-46.3	16.2	0.00e+00	0	41	0	708837376	57	5315
2026-01-25 01:35:46.80	281.87	18.95	-43.6	-46.8	15.7	0.00e+00	0	41	0	709885952	58	5326
2026-01-25 01:35:47.80	281.66	18.89	-44.0	-47.4	15.2	0.00e+00	0	41	0	711983104	58	5682
2026-01-25 01:35:48.79	281.45	18.83	-44.2	-47.6	15.0	7.00e-07	0	41	0	714080256	59	5520
2026-01-25 01:35:49.79	281.23	18.77	-44.2	-47.7	14.9	0.00e+00	0	41	0	716177408	59	5529
2026-01-25 01:35:50.78	281.02	18.71	-44.3	-47.8	14.8	0.00e+00	0	41	0	718274560	59	5602
2026-01-25 01:35:51.78	280.81	18.65	-43.7	-47.0	15.5	0.00e+00	0	42	0	719323136	59	5112
2026-01-25 01:35:52.77	280.61	18.60	-43.4	-46.4	16.1	0.00e+00	0	41	0	721420288	58	5099
2026-01-25 01:35:53.77	280.40	18.54	-43.0	-46.0	16.5	0.00e+00	0	41	0	723517440	58	4847
2026-01-25 01:35:54.77	280.19	18.48	-42.6	-45.4	17.0	0.00e+00	0	41	0	725614592	57	4792
2026-01-25 01:35:55.76	279.98	18.42	-42.1	-44.6	17.7	0.00e+00	0	41	0	726663168	56	4645
2026-01-25 01:35:56.76	279.78	18.36	-41.5	-44.0	18.2	0.00e+00	0	41	0	728760320	55	4554
2026-01-25 01:35:57.75	279.57	18.29	-41.3	-43.7	18.5	0.00e+00	0	41	0	730857472	54	4704
2026-01-25 01:35:58.75	279.37	18.23	-41.1	-43.4	18.8	0.00e+00	0	41	0	732954624	54	4515
2026-01-25 01:35:59.75	279.16	18.17	-41.1	-43.4	18.8	0.00e+00	0	41	0	735051776	54	4510
2026-01-25 01:36:00.74	278.96	18.11	-41.1	-43.4	18.8	0.00e+00	0	41	0	736100352	53	4765
2026-01-25 01:36:01.74	278.76	18.05	-41.1	-43.4	18.7	0.00e+00	0	41	0	738197504	53	4791
2026-01-25 01:36:02.73	278.56	17.99	-41.0	-43.4	18.8	0.00e+00	0	41	0	740294656	53	4764
2026-01-25 01:36:03.73	278.36	17.93	-41.3	-43.6	18.5	0.00e+00	0	41	0	742391808	53	4926
2026-01-25 01:36:04.72	278.16	17.87	-41.4	-43.8	18.3	0.00e+00	0	41	0	744488960	53	5024
2026-01-25 01:36:05.72	277.96	17.80	-41.6	-44.0	18.2	0.00e+00	0	41	0	745537536	53	5147
2026-01-25 01:36:06.71	277.77	17.74	-41.4	-43.8	18.4	0.00e+00	0	41	0	747634688	53	5004
2026-01-25 01:36:07.71	277.57	17.68	-41.3	-43.7	18.4	0.00e+00	0	41	0	749731840	53	4956
2026-01-25 01:36:08.71	277.37	17.61	-40.9	-43.2	18.9	0.00e+00	0	41	0	751828992	53	4689
2026-01-25 01:36:09.70	277.18	17.55	-40.7	-43.0	19.2	0.00e+00	0	41	0	752877568	53	4555
2026-01-25 01:36:10.70	276.98	17.49	-40.7	-43.0	19.1	0.00e+00	0	41	0	754974720	53	4580
2026-01-25 01:36:11.69	276.79	17.43	-40.8	-43.1	19.0	0.00e+00	0	41	0	757071872	53	4610
2026-01-25 01:36:12.68	276.60	17.36	-41.0	-43.3	18.8	0.00e+00	0	41	0	759169024	53	4735
2026-01-25 01:36:13.68	276.40	17.30	-41.4	-43.8	18.4	0.00e+00	0	41	0	761266176	53	5013
2026-01-25 01:36:14.67	276.21	17.24	-41.8	-44.3	17.9	0.00e+00	0	41	0	762314752	54	4997
2026-01-25 01:36:15.67	276.02	17.17	-42.1	-44.7	17.5	0.00e+00	0	41	0	764411904	55	4965
2026-01-25 01:36:16.66	275.84	17.11	-42.5	-45.3	17.0	0.00e+00	0	41	0	766509056	55	5293
2026-01-25 01:36:17.66	275.65	17.04	-42.9	-45.7	16.7	0.00e+00	0	41	0	768606208	56	5277
2026-01-25 01:36:18.65	275.46	16.98	-42.9	-45.8	16.7	0.00e+00	0	41	0	769654784	56	5288
2026-01-25 01:36:19.64	275.27	16.91	-42.9	-45.7	16.7	0.00e+00	0	41	0	771751936	56	5261
2026-01-25 01:36:20.64	275.09	16.85	-42.8	-45.5	16.9	0.00e+00	0	41	0	773849088	56	5142
2026-01-25 01:36:21.63	274.90	16.79	-42.6	-45.3	17.1	0.00e+00	0	41	0	775946240	56	5016
2026-01-25 01:36:22.63	274.72	16.72	-42.3	-45.0	17.5	0.00e+00	0	41	0	778043392	56	4816
2026-01-25 01:36:23.62	274.53	16.66	-42.2	-44.8	17.6	0.00e+00	0	41	0	779091968	56	4754
2026-01-25 01:36:24.62	274.35	16.59	-42.2	-44.7	17.7	0.00e+00	0	41	0	781189120	56	4689
2026-01-25 01:36:25.61	274.17	16.52	-42.1	-44.6	17.7	0.00e+00	0	41	0	783286272	56	4649
2026-01-25 01:36:26.61	273.99	16.46	-41.8	-44.3	17.9	0.00e+00	0	41	0	785383424	55	4732
2026-01-25 01:36:27.60	273.81	16.39	-41.7	-44.2	18.0	0.00e+00	0	42	0	786432000	55	4683
2026-01-25 01:36:28.60	273.63	16.33	-41.7	-44.2	18.0	0.00e+00	0	41	0	788529152	55	4677
2026-01-25 01:36:29.59	273.45	16.26	-41.6	-44.1	18.1	0.00e+00	0	41	0	790626304	54	4910
2026-01-25 01:36:30.58	273.27	16.20	-41.5	-44.0	18.2	0.00e+00	0	41	0	792723456	54	4830
2026-01-25 01:36:31.58	273.09	16.13	-41.4	-43.8	18.4	0.00e+00	0	41	0	794820608	54	4753
2026-01-25 01:36:32.57	272.92	16.06	-41.4	-43.9	18.2	0.00e+00	0	42	0	795869184	54	4802
2026-01-25 01:36:33.57	272.74	16.00	-41.8	-44.3	17.9	0.00e+00	0	41	0	797966336	54	5023
2026-01-25 01:36:34.57	272.57	15.93	-42.0	-44.6	17.6	0.00e+00	0	41	0	800063488	54	5197
2026-01-25 01:36:35.56	272.39	15.87	-42.3	-45.0	17.2	0.00e+00	0	41	0	802160640	55	5121
2026-01-25 01:36:36.56	272.22	15.80	-42.5	-45.3	16.9	0.00e+00	0	41	0	803209216	55	5327
2026-01-25 01:36:37.55	272.05	15.73	-42.8	-45.6	16.9	0.00e+00	0	41	0	805306368	56	5171
2026-01-25 01:36:38.54	271.88	15.67	-42.6	-45.3	17.1	0.00e+00	0	41	0	807403520	56	5013
2026-01-25 01:36:39.54	271.70	15.60	-42.4	-45.1	17.4	0.00e+00	0	41	0	809500672	56	4894
2026-01-25 01:36:40.53	271.53	15.53	-42.2	-44.9	17.5	0.00e+00	0	41	0	811597824	56	4765
2026-01-25 01:36:41.53	271.36	15.47	-42.0	-44.6	17.8	0.00e+00	0	41	0	812646400	56	4600
2026-01-25 01:36:42.52	271.20	15.40	-41.7	-44.2	17.9	0.00e+00	0	41	0	814743552	55	4701
2026-01-25 01:36:43.52	271.03	15.33	-41.7	-44.3	17.9	0.00e+00	0	41	0	816840704	55	4728
2026-01-25 01:36:44.51	270.86	15.27	-41.7	-44.3	17.9	0.00e+00	0	41	0	818937856	55	4731
2026-01-25 01:36:45.51	270.69	15.20	-41.8	-44.4	17.8	0.00e+00	0	41	0	819986432	55	4768
2026-01-25 01:36:46.50	270.53	15.13	-41.9	-44.6	17.6	0.00e+00	0	41	0	822083584	55	4914
2026-01-25 01:36:47.50	270.36	15.06	-42.1	-44.8	17.5	0.00e+00	0	41	0	824180736	55	5020
2026-01-25 01:36:48.49	270.20	15.00	-42.0	-44.7	17.5	0.00e+00	0	41	0	826277888	55	4940
2026-01-25 01:36:49.49	270.03	14.93	-42.0	-44.6	17.6	0.00e+00	0	41	0	828375040	55	4916
2026-01-25 01:36:50.48	269.87	14.86	-42.1	-44.7	17.5	0.00e+00	0	41	0	829423616	55	4956
2026-01-25 01:36:51.48	269.71	14.79	-42.1	-44.8	17.4	0.00e+00	0	41	0	831520768	55	4990
2026-01-25 01:36:52.47	269.55	14.73	-41.8	-44.4	17.8	0.00e+00	0	41	0	833617920	55	4796
2026-01-25 01:36:53.46	269.39	14.66	-41.9	-44.5	17.7	0.00e+00	0	41	0	835715072	55	4860
2026-01-25 01:36:54.46	269.23	14.59	-41.5	-44.0	18.1	0.00e+00	0	41	0	836763648	55	4590
2026-01-25 01:36:55.45	269.07	14.53	-41.5	-43.9	18.2	0.00e+00	0	41	0	838860800	54	4806
2026-01-25 01:36:56.45	268.91	14.46	-41.3	-43.7	18.4	0.00e+00	0	41	0	840957952	54	4687
2026-01-25 01:36:57.44	268.75	14.39	-41.1	-43.5	18.6	0.00e+00	0	41	0	843055104	54	4580
2026-01-25 01:36:58.44	268.60	14.32	-41.1	-43.5	18.6	0.00e+00	0	42	0	845152256	54	4554
2026-01-25 01:36:59.43	268.44	14.25	-41.1	-43.5	18.6	0.00e+00	0	41	0	846200832	54	4578
2026-01-25 01:37:00.43	268.29	14.19	-41.2	-43.6	18.5	0.00e+00	0	41	0	848297984	54	4644
2026-01-25 01:37:01.42	268.13	14.12	-41.1	-43.4	18.7	0.00e+00	0	41	0	850395136	54	4532
2026-01-25 01:37:02.42	267.98	14.05	-41.0	-43.3	18.8	0.00e+00	0	42	0	852492288	53	4728
2026-01-25 01:37:03.41	267.82	13.98	-40.8	-43.1	18.9	0.00e+00	0	41	0	853540864	53	4626
2026-01-25 01:37:04.41	267.67	13.92	-40.7	-43.0	19.0	0.00e+00	0	41	0	855638016	53	4571
2026-01-25 01:37:05.40	267.52	13.85	-40.2	-42.5	19.5	0.00e+00	0	41	0	857735168	52	4548
2026-01-25 01:37:06.40	267.37	13.78	-40.2	-42.4	19.6	0.00e+00	0	41	0	859832320	52	4515
2026-01-25 01:37:07.40	267.22	13.71	-40.1	-42.3	19.7	0.00e+00	0	42	0	861929472	52	4457
2026-01-25 01:37:08.39	267.07	13.64	-40.1	-42.3	19.6	0.00e+00	0	41	0	862978048	52	4479
2026-01-25 01:37:09.39	266.92	13.58	-40.2	-42.4	19.5	0.00e+00	0	41	0	865075200	52	4545
2026-01-25 01:37:10.38	266.77	13.51	-40.3	-42.6	19.4	0.00e+00	0	41	0	867172352	52	4602
2026-01-25 01:37:11.38	266.62	13.44	-40.6	-42.9	19.1	0.00e+00	0	42	0	869269504	52	4779
2026-01-25 01:37:12.37	266.48	13.37	-40.9	-43.2	18.9	0.00e+00	0	41	0	870318080	52	4949
2026-01-25 01:37:13.37	266.33	13.31	-41.1	-43.5	18.6	0.00e+00	0	41	0	872415232	52	5132
2026-01-25 01:37:14.36	266.18	13.24	-41.1	-43.5	18.6	0.00e+00	0	41	0	874512384	52	5112
2026-01-25 01:37:15.36	266.04	13.17	-41.3	-43.7	18.4	0.00e+00	0	41	0	876609536	53	4966
2026-01-25 01:37:16.35	265.89	13.10	-41.4	-43.9	18.2	0.00e+00	0	41	0	878706688	53	5049
2026-01-25 01:37:17.35	265.75	13.03	-41.5	-43.9	18.1	0.00e+00	0	41	0	879755264	53	5100
2026-01-25 01:37:18.34	265.61	12.97	-41.5	-44.0	18.1	0.00e+00	0	41	0	881852416	53	5146
2026-01-25 01:37:19.34	265.46	12.90	-41.4	-43.9	18.2	0.00e+00	0	42	0	883949568	53	5047
2026-01-25 01:37:20.33	265.32	12.83	-41.4	-43.8	18.2	0.00e+00	0	41	0	886046720	53	5033
2026-01-25 01:37:21.33	265.18	12.76	-41.2	-43.6	18.4	0.00e+00	0	41	0	887095296	53	4881
2026-01-25 01:37:22.32	265.04	12.70	-41.1	-43.5	18.5	0.00e+00	0	42	0	889192448	53	4827
2026-01-25 01:37:23.31	264.90	12.63	-41.0	-43.4	18.6	0.00e+00	0	41	0	891289600	53	4767
2026-01-25 01:37:24.31	264.76	12.56	-40.8	-43.1	18.9	0.00e+00	0	41	0	893386752	53	4613
2026-01-25 01:37:25.31	264.62	12.49	-40.8	-43.1	18.9	0.00e+00	0	41	0	895483904	53	4605
2026-01-25 01:37:26.30	264.49	12.43	-40.6	-42.9	19.1	0.00e+00	0	41	0	896532480	53	4505
2026-01-25 01:37:27.29	264.35	12.36	-40.7	-43.0	19.0	0.00e+00	0	41	0	898629632	53	4576
2026-01-25 01:37:28.29	264.21	12.29	-40.9	-43.3	18.7	0.00e+00	0	41	0	900726784	53	4730
2026-01-25 01:37:29.29	264.08	12.22	-41.0	-43.4	18.6	0.00e+00	0	41	0	902823936	53	4777
2026-01-25 01:37:30.28	263.94	12.16	-41.0	-43.4	18.6	0.00e+00	0	41	0	903872512	53	4799
2026-01-25 01:37:31.27	263.81	12.09	-41.2	-43.7	18.3	0.00e+00	0	41	0	905969664	53	4950
2026-01-25 01:37:32.27	263.67	12.02	-41.4	-43.9	18.1	0.00e+00	0	41	0	908066816	53	5075
2026-01-25 01:37:33.26	263.54	11.95	-41.3	-43.8	18.2	0.00e+00	0	41	0	910163968	53	5034
2026-01-25 01:37:34.26	263.41	11.89	-41.5	-44.1	17.9	0.00e+00	0	41	0	912261120	53	5187
2026-01-25 01:37:35.25	263.28	11.82	-41.7	-44.3	17.7	0.00e+00	0	41	0	913309696	54	5031
2026-01-25 01:37:36.25	263.14	11.75	-41.8	-44.5	17.6	0.00e+00	0	41	0	915406848	54	5107
2026-01-25 01:37:37.25	263.01	11.68	-41.9	-44.5	17.6	0.00e+00	0	42	0	917504000	54	5154
2026-01-25 01:37:38.24	262.88	11.62	-41.8	-44.5	17.5	0.00e+00	0	41	0	919601152	54	5135
2026-01-25 01:37:39.24	262.75	11.55	-41.8	-44.5	17.5	0.00e+00	0	41	0	920649728	54	5134
2026-01-25 01:37:40.23	262.62	11.48	-41.9	-44.5	17.5	0.00e+00	0	42	0	922746880	54	5153
2026-01-25 01:37:41.22	262.50	11.42	-42.0	-44.7	17.4	0.00e+00	0	41	0	924844032	54	5270
2026-01-25 01:37:42.22	262.37	11.35	-41.8	-44.4	17.7	0.00e+00	0	41	0	926941184	54	5045
2026-01-25 01:37:43.21	262.24	11.28	-41.6	-44.1	17.7	0.00e+00	0	41	0	929038336	54	4887
2026-01-25 01:37:44.21	262.11	11.21	-41.4	-43.9	18.1	0.00e+00	0	41	0	930086912	54	4781
2026-01-25 01:37:45.20	261.99	11.15	-41.0	-43.3	18.6	0.00e+00	0	42	0	932184064	54	4485
2026-01-25 01:37:46.20	261.86	11.08	-40.6	-42.9	18.9	0.00e+00	0	42	0	934281216	53	4536
2026-01-25 01:37:47.19	261.74	11.01	-40.6	-42.9	19.0	0.00e+00	0	41	0	936378368	53	4533
2026-01-25 01:37:48.19	261.61	10.95	-40.6	-42.9	19.0	0.00e+00	0	41	0	937426944	53	4535
2026-01-25 01:37:49.18	261.49	10.88	-40.6	-42.9	19.0	0.00e+00	0	42	0	939524096	53	4512
2026-01-25 01:37:50.18	261.36	10.81	-41.0	-43.4	18.6	0.00e+00	0	41	0	941621248	53	4782
2026-01-25 01:37:51.17	261.24	10.75	-41.2	-43.6	18.3	0.00e+00	0	41	0	943718400	53	4897
2026-01-25 01:37:52.17	261.12	10.68	-41.3	-43.8	18.1	0.00e+00	0	42	0	945815552	53	5030
2026-01-25 01:37:53.16	261.00	10.61	-41.7	-44.3	17.7	0.00e+00	0	41	0	946864128	54	5020
2026-01-25 01:37:54.16	260.88	10.55	-41.9	-44.6	17.4	0.00e+00	0	42	0	948961280	54	5197
2026-01-25 01:37:55.15	260.76	10.48	-42.1	-44.9	17.1	0.00e+00	0	42	0	951058432	54	5351
2026-01-25 01:37:56.15	260.64	10.41	-42.3	-45.1	16.9	0.00e+00	0	41	0	953155584	55	5184
2026-01-25 01:37:57.14	260.52	10.35	-42.3	-45.1	16.9	0.00e+00	0	41	0	954204160	55	5193
2026-01-25 01:37:58.14	260.40	10.28	-42.2	-45.0	17.0	0.00e+00	0	41	0	956301312	55	5143
2026-01-25 01:37:59.14	260.28	10.22	-42.1	-44.9	17.1	0.00e+00	0	42	0	958398464	55	5051
2026-01-25 01:38:00.13	260.16	10.15	-42.1	-44.9	17.1	0.00e+00	0	41	0	960495616	55	5061
2026-01-25 01:38:01.13	260.05	10.08	-42.0	-44.7	17.3	0.00e+00	0	41	0	962592768	55	4972
2026-01-25 01:38:02.12	259.93	10.02	-42.1	-44.8	17.2	0.00e+00	0	41	0	963641344	55	5022
2026-01-25 01:38:03.12	259.81	9.95	-41.8	-44.5	17.4	0.00e+00	0	41	0	965738496	55	4866
2026-01-25 01:38:04.11	259.70	9.89	-41.7	-44.4	17.6	0.00e+00	0	41	0	967835648	55	4777
2026-01-25 01:38:05.11	259.58	9.82	-41.9	-44.6	17.4	0.00e+00	0	42	0	969932800	55	4877
2026-01-25 01:38:06.10	259.47	9.75	-41.8	-44.5	17.5	0.00e+00	0	42	0	970981376	55	4815
2026-01-25 01:38:07.10	259.35	9.69	-41.9	-44.6	17.3	0.00e+00	0	42	0	973078528	55	4899
2026-01-25 01:38:08.09	259.24	9.62	-41.7	-44.4	17.5	0.00e+00	0	41	0	975175680	55	4782
2026-01-25 01:38:09.09	259.13	9.56	-42.1	-44.8	17.0	0.00e+00	0	42	0	977272832	55	5027
2026-01-25 01:38:10.08	259.02	9.49	-42.0	-44.6	17.3	0.00e+00	0	41	0	979369984	55	4923
2026-01-25 01:38:11.08	258.90	9.43	-42.0	-44.7	17.2	0.00e+00	0	41	0	980418560	55	4952
2026-01-25 01:38:12.07	258.79	9.36	-42.1	-44.8	17.1	0.00e+00	0	42	0	982515712	55	4986
2026-01-25 01:38:13.07	258.68	9.30	-42.0	-44.7	17.2	0.00e+00	0	42	0	984612864	55	4933
2026-01-25 01:38:14.06	258.57	9.23	-42.1	-44.8	17.1	0.00e+00	0	41	0	986710016	55	5020
2026-01-25 01:38:15.06	258.46	9.17	-42.2	-44.9	17.0	0.00e+00	0	42	0	987758592	55	5096
2026-01-25 01:38:16.05	258.35	9.10	-42.3	-45.1	16.8	0.00e+00	0	41	0	989855744	55	5197
2026-01-25 01:38:17.05	258.24	9.04	-42.2	-44.9	17.0	0.00e+00	0	42	0	991952896	55	5077
2026-01-25 01:38:18.04	258.13	8.97	-48.0	-62.5	3.8	1.67e-05	0	41	104	993001472	66	20457
2026-01-25 01:38:19.03	258.03	8.91	-48.3	-63.6	3.8	1.49e+00	0	42	104	993001472	67	21838
2026-01-25 01:38:20.03	257.92	8.84	-48.4	-63.8	3.8	1.49e+00	0	41	104	993001472	67	22385
2026-01-25 01:38:21.02	257.81	8.78	-48.6	-63.9	3.8	1.49e+00	0	42	104	993001472	67	22552
2026-01-25 01:38:22.01	257.71	8.71	-48.8	-64.1	3.8	1.49e+00	0	41	104	993001472	68	21897
2026-01-25 01:38:23.01	257.60	8.65	-48.9	-64.2	3.8	1.49e+00	0	41	104	993001472	68	22055
2026-01-25 01:38:24.00	257.49	8.58	-48.9	-64.2	3.8	1.49e+00	0	41	104	993001472	68	22145
2026-01-25 01:38:24.99	257.39	8.52	-49.0	-64.2	3.8	1.49e+00	0	41	104	993001472	68	22255
2026-01-25 01:38:25.99	257.29	8.45	-49.0	-64.3	3.8	1.49e+00	0	42	104	993001472	68	22328
2026-01-25 01:38:26.98	257.18	8.39	-49.0	-64.3	3.8	1.49e+00	0	42	104	993001472	68	22322
2026-01-25 01:38:27.97	257.08	8.33	-49.0	-64.3	3.8	1.49e+00	0	42	104	993001472	68	22368
2026-01-25 01:38:28.97	256.97	8.26	-49.0	-64.3	3.8	1.49e+00	0	42	104	993001472	68	22379
2026-01-25 01:38:29.96	256.87	8.20	-48.9	-64.3	3.8	1.49e+00	0	42	104	993001472	68	22300
2026-01-25 01:38:30.95	256.77	8.14	-48.8	-64.3	3.8	1.49e+00	0	42	104	993001472	68	22401
2026-01-25 01:38:31.95	256.67	8.07	-48.9	-64.3	3.8	1.49e+00	0	42	104	993001472	68	22453
2026-01-25 01:38:32.94	256.57	8.01	-48.8	-64.3	3.8	1.49e+00	0	42	104	993001472	68	22465
2026-01-25 01:38:33.93	256.47	7.94	-48.9	-64.3	3.8	1.49e+00	0	42	104	993001472	68	22453
2026-01-25 01:38:34.93	256.37	7.88	-49.0	-64.3	3.8	1.49e+00	0	42	104	993001472	68	22486
2026-01-25 01:38:35.92	256.27	7.82	-49.0	-64.3	3.8	1.49e+00	0	41	104	993001472	68	22438
2026-01-25 01:38:36.91	256.17	7.75	-48.9	-64.3	3.8	1.49e+00	0	42	104	993001472	68	22367
2026-01-25 01:38:37.91	256.07	7.69	-48.9	-64.3	3.8	1.49e+00	0	42	104	993001472	68	22393
2026-01-25 01:38:38.90	255.97	7.63	-48.8	-64.3	3.8	1.49e+00	0	42	104	993001472	68	22295
2026-01-25 01:38:39.89	255.87	7.56	-48.8	-64.2	3.8	1.49e+00	0	42	104	993001472	68	22203
2026-01-25 01:38:40.89	255.77	7.50	-48.8	-64.2	3.8	1.49e+00	0	42	104	993001472	68	22110
2026-01-25 01:38:41.88	255.68	7.44	-48.8	-64.2	3.8	1.49e+00	0	42	104	993001472	68	22233
2026-01-25 01:38:42.87	255.58	7.37	-48.8	-64.2	3.8	1.49e+00	0	42	104	993001472	68	22142
2026-01-25 01:38:43.87	255.48	7.31	-48.7	-64.2	3.8	1.49e+00	0	41	104	993001472	68	22126
2026-01-25 01:38:44.86	255.39	7.25	-48.8	-64.2	3.8	1.49e+00	0	42	104	993001472	68	22147
2026-01-25 01:38:45.85	255.29	7.19	-48.8	-64.2	3.8	1.49e+00	0	42	104	993001472	68	22139
2026-01-25 01:38:46.85	255.20	7.12	-48.7	-64.2	3.8	1.49e+00	0	41	104	993001472	68	22127
2026-01-25 01:38:47.84	255.10	7.06	-48.7	-64.2	3.8	1.49e+00	0	42	104	993001472	68	22051
2026-01-25 01:38:48.83	255.01	7.00	-48.7	-64.2	3.8	1.49e+00	0	41	104	993001472	68	22094
2026-01-25 01:38:49.82	254.92	6.94	-48.7	-64.2	3.8	1.49e+00	0	42	104	993001472	68	22120
2026-01-25 01:38:50.82	254.82	6.87	-48.7	-64.2	3.8	1.49e+00	0	42	104	993001472	68	22018
2026-01-25 01:38:51.81	254.73	6.81	-48.7	-64.2	3.8	1.49e+00	0	42	104	993001472	68	22036
2026-01-25 01:38:52.80	254.64	6.75	-48.7	-64.2	3.8	1.49e+00	0	42	104	993001472	68	22057
2026-01-25 01:38:53.80	254.54	6.69	-48.7	-64.1	3.8	1.49e+00	0	42	104	993001472	68	22000
2026-01-25 01:38:54.79	254.45	6.63	-48.7	-64.2	3.8	1.49e+00	0	42	104	993001472	68	22071
2026-01-25 01:38:55.78	254.36	6.56	-48.7	-64.2	3.8	1.49e+00	0	42	104	993001472	68	22042
2026-01-25 01:38:56.78	254.27	6.50	-48.7	-64.2	3.8	1.49e+00	0	42	104	993001472	68	22075
2026-01-25 01:38:57.77	254.18	6.44	-48.7	-64.2	3.8	1.49e+00	0	42	104	993001472	68	22119
2026-01-25 01:38:58.76	254.09	6.38	-48.7	-64.2	3.8	1.49e+00	0	41	104	993001472	68	22031
2026-01-25 01:38:59.76	254.00	6.32	-48.7	-64.1	3.8	1.49e+00	0	41	104	993001472	68	21990
2026-01-25 01:39:00.75	253.91	6.26	-48.7	-64.2	3.8	1.49e+00	0	42	104	993001472	68	22040
2026-01-25 01:39:01.74	253.82	6.19	-48.7	-64.2	3.8	1.49e+00	0	42	104	993001472	68	22107
2026-01-25 01:39:02.73	253.73	6.13	-48.7	-64.1	3.8	1.49e+00	0	42	104	993001472	68	21993
2026-01-25 01:39:03.73	253.64	6.07	-48.7	-64.1	3.8	1.49e+00	0	42	104	993001472	68	21994
2026-01-25 01:39:04.72	253.56	6.01	-48.7	-64.2	3.8	1.49e+00	0	42	104	993001472	68	22008
2026-01-25 01:39:05.71	253.47	5.95	-48.7	-64.1	3.8	1.49e+00	0	41	104	993001472	68	22002
2026-01-25 01:39:06.71	253.38	5.89	-48.7	-64.2	3.8	1.49e+00	0	41	104	993001472	68	22010
2026-01-25 01:39:07.70	253.29	5.83	-48.7	-64.2	3.8	1.49e+00	0	42	104	993001472	68	22062
2026-01-25 01:39:08.69	253.21	5.77	-48.7	-64.2	3.8	1.49e+00	0	42	104	993001472	68	22046
2026-01-25 01:39:09.68	253.12	5.71	-48.7	-64.1	3.8	1.49e+00	0	42	104	993001472	68	21990
2026-01-25 01:39:10.68	253.04	5.64	-48.7	-64.1	3.8	1.49e+00	0	42	104	993001472	68	21985
2026-01-25 01:39:11.67	252.95	5.58	-48.7	-64.1	3.8	1.49e+00	0	42	104	993001472	68	21960
2026-01-25 01:39:12.66	252.87	5.52	-48.7	-64.1	3.8	1.49e+00	0	42	104	993001472	68	21960
2026-01-25 01:39:13.65	252.78	5.46	-48.7	-64.1	3.8	1.49e+00	0	42	104	993001472	68	22006
2026-01-25 01:39:14.65	252.70	5.40	-48.7	-64.2	3.8	1.49e+00	0	42	104	993001472	68	22021
2026-01-25 01:39:15.64	252.61	5.34	-48.7	-64.2	3.8	1.49e+00	0	42	104	993001472	68	22016
2026-01-25 01:39:16.63	252.53	5.28	-48.7	-64.1	3.8	1.49e+00	0	42	104	993001472	68	21956
2026-01-25 01:39:17.63	252.45	5.22	-48.7	-64.2	3.8	1.49e+00	0	42	104	993001472	68	22024
2026-01-25 01:39:18.62	252.36	5.16	-48.7	-64.1	3.8	1.49e+00	0	42	104	993001472	68	21942
2026-01-25 01:39:19.61	252.28	5.10	-48.7	-64.2	3.8	1.49e+00	0	42	104	993001472	68	22014
2026-01-25 01:39:20.60	252.20	5.04	-48.7	-64.2	3.8	1.49e+00	0	42	104	993001472	68	22010
2026-01-25 01:39:21.60	252.12	4.98	-48.7	-64.1	3.8	1.49e+00	0	42	104	993001472	68	21952

#Closed at: 2026-01-25 01:39:22
#Recorded file [993 MB]: D:/Data/31040_260125_042834.dat