passes_logs/2026/01/25/T1/T1__20260125_132748_AQUA_rec.log

#Pass ID: 20260125_132748_AQUA
#Satellite: AQUA
#Configuration: AQUA
#almurnet v.1.7.20251203
#Start time: 2026-01-25 13:27:48

#Version: 2.0.20230620
#Station: T1
#Location: 37.570604 lon 55.790049 lat
#TLE: 1 27424U 02022A   26025.22169280  .00001965  00000+0  40301-3 0  9991
#TLE: 2 27424  98.4099 351.8218 0001902  66.1120 348.8694 14.61858181262382

#Time	Az	El	Level	Level2	SNR	BER	BlckErr	Temp	State	Recorded	gain1	gain2
2026-01-25 13:27:48.53	225.20	5.03	-49.8	-70.4	3.8	7.46e-01	0	36	0	0	71	37837
2026-01-25 13:27:49.52	225.32	5.08	-49.7	-70.3	3.8	7.46e-01	0	36	104	0	70	39907
2026-01-25 13:27:50.52	225.44	5.13	-49.8	-70.3	3.8	7.47e-01	0	36	104	0	70	39936
2026-01-25 13:27:51.51	225.56	5.19	-49.7	-70.3	3.8	7.45e-01	0	36	104	0	70	39820
2026-01-25 13:27:52.51	225.68	5.24	-49.7	-70.3	3.8	7.44e-01	0	36	104	0	70	39833
2026-01-25 13:27:53.51	225.81	5.29	-49.7	-70.3	3.8	7.46e-01	0	36	104	0	70	39679
2026-01-25 13:27:54.50	225.93	5.35	-49.8	-70.3	3.8	7.44e-01	0	36	104	0	70	39617
2026-01-25 13:27:55.50	226.05	5.40	-49.7	-70.2	3.8	7.46e-01	0	36	104	0	70	39340
2026-01-25 13:27:56.50	226.18	5.45	-49.7	-70.1	3.8	7.46e-01	0	36	104	0	70	39098
2026-01-25 13:27:57.49	226.30	5.51	-49.7	-70.1	3.8	7.46e-01	0	36	104	0	70	38919
2026-01-25 13:27:58.49	226.43	5.56	-49.7	-70.1	3.8	7.46e-01	0	36	104	0	70	39013
2026-01-25 13:27:59.49	226.55	5.61	-49.7	-70.2	3.8	7.47e-01	0	36	104	0	70	39181
2026-01-25 13:28:00.48	226.68	5.67	-49.7	-70.2	3.8	7.45e-01	0	36	104	0	70	39252
2026-01-25 13:28:01.48	226.80	5.72	-49.7	-70.2	3.8	7.46e-01	0	36	104	0	70	39530
2026-01-25 13:28:02.48	226.93	5.78	-49.7	-70.3	3.8	7.48e-01	0	36	104	0	70	39690
2026-01-25 13:28:03.47	227.06	5.83	-49.7	-70.3	3.8	7.44e-01	0	36	104	0	70	39830
2026-01-25 13:28:04.47	227.19	5.88	-49.7	-70.3	3.8	7.46e-01	0	36	104	0	70	39846
2026-01-25 13:28:05.46	227.32	5.94	-49.7	-70.3	3.8	7.45e-01	0	36	104	0	70	39844
2026-01-25 13:28:06.46	227.44	5.99	-49.7	-70.3	3.8	7.49e-01	0	36	104	0	70	39793
2026-01-25 13:28:07.45	227.57	6.04	-49.7	-70.3	3.8	7.45e-01	0	37	104	0	70	39813
2026-01-25 13:28:08.45	227.70	6.10	-49.7	-70.3	3.8	7.47e-01	0	36	104	0	70	39815
2026-01-25 13:28:09.45	227.84	6.15	-49.7	-70.3	3.8	7.48e-01	0	37	104	0	70	39886
2026-01-25 13:28:10.44	227.97	6.21	-49.7	-70.3	3.8	7.43e-01	0	36	104	0	70	39792
2026-01-25 13:28:11.44	228.10	6.26	-49.7	-70.2	3.8	7.46e-01	0	37	104	0	70	39551
2026-01-25 13:28:12.43	228.23	6.31	-49.7	-70.2	3.8	7.46e-01	0	37	104	0	70	39376
2026-01-25 13:28:13.43	228.36	6.37	-49.7	-70.1	3.8	7.47e-01	0	37	104	0	70	39042
2026-01-25 13:28:14.42	228.49	6.42	-49.7	-70.0	3.8	7.48e-01	0	37	104	0	70	38677
2026-01-25 13:28:15.42	228.63	6.47	-49.7	-70.0	3.8	7.47e-01	0	37	104	0	70	38627
2026-01-25 13:28:16.42	228.76	6.53	-49.7	-70.0	3.8	7.44e-01	0	37	104	0	70	38524
2026-01-25 13:28:17.42	228.90	6.58	-49.7	-70.0	3.8	7.44e-01	0	37	104	0	70	38548
2026-01-25 13:28:18.41	229.03	6.64	-49.7	-70.0	3.8	7.49e-01	0	37	104	0	70	38352
2026-01-25 13:28:19.41	229.17	6.69	-49.7	-70.0	3.8	7.43e-01	0	37	104	0	70	38440
2026-01-25 13:28:20.41	229.31	6.74	-49.7	-70.0	3.8	7.45e-01	0	37	104	0	70	38512
2026-01-25 13:28:21.40	229.44	6.80	-49.7	-70.0	3.8	7.49e-01	0	37	104	0	70	38492
2026-01-25 13:28:22.40	229.58	6.85	-49.7	-69.9	3.8	7.48e-01	0	37	104	0	70	38228
2026-01-25 13:28:23.40	229.72	6.91	-49.7	-69.9	3.8	7.45e-01	0	37	104	0	70	38046
2026-01-25 13:28:24.39	229.86	6.96	-49.7	-69.9	3.8	7.45e-01	0	37	104	0	70	37891
2026-01-25 13:28:25.39	230.00	7.01	-49.7	-69.7	3.8	7.44e-01	0	37	104	0	70	37130
2026-01-25 13:28:26.39	230.14	7.07	-49.7	-69.7	3.8	7.47e-01	0	37	104	0	70	37177
2026-01-25 13:28:27.39	230.28	7.12	-49.7	-69.8	3.8	7.47e-01	0	37	104	0	70	37774
2026-01-25 13:28:28.39	230.42	7.17	-49.7	-70.0	3.8	7.46e-01	0	37	104	0	70	38526
2026-01-25 13:28:29.38	230.56	7.23	-49.7	-69.9	3.8	7.44e-01	0	37	104	0	70	38099
2026-01-25 13:28:30.38	230.70	7.28	-49.7	-69.5	3.8	7.42e-01	0	37	104	0	70	36323
2026-01-25 13:28:31.38	230.84	7.34	-49.7	-68.8	3.8	7.48e-01	0	37	104	0	70	33517
2026-01-25 13:28:32.37	230.98	7.39	-49.7	-68.5	3.8	7.46e-01	0	37	104	0	70	32310
2026-01-25 13:28:33.37	231.13	7.44	-49.7	-68.7	3.8	7.43e-01	0	37	104	0	70	33045
2026-01-25 13:28:34.36	231.27	7.50	-49.7	-69.3	3.8	7.47e-01	0	37	104	0	70	35534
2026-01-25 13:28:35.36	231.42	7.55	-49.7	-70.1	3.8	7.44e-01	0	37	104	0	70	38804
2026-01-25 13:28:36.35	231.56	7.60	-49.7	-70.2	3.8	7.46e-01	0	37	104	0	70	39443
2026-01-25 13:28:37.35	231.71	7.66	-49.7	-69.9	3.8	7.49e-01	0	37	104	0	70	38049
2026-01-25 13:28:38.34	231.85	7.71	-49.7	-69.6	3.8	7.43e-01	0	37	104	0	70	36625
2026-01-25 13:28:39.34	232.00	7.76	-49.7	-69.4	3.8	7.43e-01	0	37	104	0	70	36073
2026-01-25 13:28:40.34	232.15	7.82	-49.7	-69.5	3.8	7.45e-01	0	37	104	0	70	36133
2026-01-25 13:28:41.34	232.30	7.87	-49.7	-69.7	3.8	7.46e-01	0	37	104	0	70	37146
2026-01-25 13:28:42.33	232.44	7.92	-49.7	-69.8	3.8	7.46e-01	0	37	104	0	70	37675
2026-01-25 13:28:43.33	232.59	7.98	-49.7	-69.7	3.8	7.45e-01	0	38	104	0	70	37088
2026-01-25 13:28:44.33	232.74	8.03	-49.7	-69.3	3.8	7.47e-01	0	38	104	0	70	35355
2026-01-25 13:28:45.33	232.89	8.09	-49.7	-69.2	3.8	7.48e-01	0	37	104	0	70	35045
2026-01-25 13:28:46.32	233.04	8.14	-49.7	-69.6	3.8	7.47e-01	0	38	104	0	70	36921
2026-01-25 13:28:47.32	233.20	8.19	-49.7	-69.8	3.8	7.47e-01	0	38	104	0	70	37634
2026-01-25 13:28:48.32	233.35	8.24	-49.7	-68.0	3.9	7.42e-01	0	38	104	0	70	30620
2026-01-25 13:28:49.32	233.50	8.30	-49.6	-65.3	4.0	7.19e-01	0	37	104	0	70	22290
2026-01-25 13:28:50.31	233.65	8.35	-49.6	-64.6	5.1	7.12e-01	0	37	0	0	70	20619
2026-01-25 13:28:51.31	233.81	8.40	-49.6	-67.3	3.8	7.44e-01	0	38	104	0	70	28238
2026-01-25 13:28:52.30	233.96	8.46	-49.7	-69.1	3.9	7.44e-01	0	38	104	0	70	34708
2026-01-25 13:28:53.30	234.12	8.51	-49.2	-60.2	8.5	6.40e-01	0	38	0	0	70	12469
2026-01-25 13:28:54.30	234.27	8.56	-48.0	-54.5	14.5	6.09e-01	0	38	0	2097152	68	7244
2026-01-25 13:28:55.29	234.43	8.62	-46.2	-50.7	18.3	6.06e-01	0	38	0	3670016	64	5873
2026-01-25 13:28:56.29	234.58	8.67	-45.1	-48.6	20.4	6.07e-01	0	38	0	5767168	62	5201
2026-01-25 13:28:57.29	234.74	8.72	-44.3	-47.5	21.6	6.08e-01	0	38	0	7340032	60	5135
2026-01-25 13:28:58.29	234.90	8.78	-44.1	-47.3	21.8	6.06e-01	0	38	0	9437184	60	5004
2026-01-25 13:28:59.28	235.06	8.83	-44.6	-47.9	21.2	6.06e-01	0	38	0	11534336	60	5360
2026-01-25 13:29:00.28	235.22	8.88	-45.3	-49.1	20.1	6.06e-01	0	38	0	13107200	61	5805
2026-01-25 13:29:01.28	235.38	8.93	-46.4	-50.9	18.3	6.07e-01	0	38	0	15204352	63	6363
2026-01-25 13:29:02.27	235.54	8.99	-47.5	-53.3	15.9	6.07e-01	0	38	0	16777216	65	7499
2026-01-25 13:29:03.27	235.70	9.04	-48.3	-55.8	13.2	6.10e-01	0	38	0	18874368	67	8952
2026-01-25 13:29:04.27	235.86	9.09	-48.3	-55.7	13.3	6.08e-01	0	38	0	20447232	67	8774
2026-01-25 13:29:05.27	236.02	9.14	-46.7	-51.4	17.9	6.07e-01	0	38	0	22544384	64	6390
2026-01-25 13:29:06.28	236.19	9.20	-49.1	-59.9	8.9	6.36e-01	0	38	0	24641536	68	13416
2026-01-25 13:29:07.28	236.35	9.25	-48.6	-56.4	11.8	6.11e-01	0	38	0	26214400	69	8497
2026-01-25 13:29:08.28	236.52	9.30	-45.6	-49.3	19.8	6.07e-01	0	38	0	28311552	62	5647
2026-01-25 13:29:09.29	236.68	9.35	-45.2	-48.7	20.4	6.07e-01	0	38	0	29884416	62	5231
2026-01-25 13:29:10.28	236.85	9.41	-45.0	-48.5	20.7	6.08e-01	0	38	0	31981568	62	5124
2026-01-25 13:29:11.29	237.02	9.46	-44.6	-47.8	21.2	6.08e-01	0	38	0	34078720	61	5031
2026-01-25 13:29:12.29	237.18	9.51	-44.2	-47.3	21.8	6.07e-01	0	38	0	35651584	60	5014
2026-01-25 13:29:13.29	237.35	9.56	-44.1	-47.1	22.2	6.06e-01	0	38	0	37748736	59	5169
2026-01-25 13:29:14.29	237.52	9.61	-44.0	-47.0	22.2	6.08e-01	0	38	0	39321600	59	5132
2026-01-25 13:29:15.29	237.69	9.67	-43.6	-46.4	22.8	6.09e-01	0	38	0	41418752	59	4806
2026-01-25 13:29:16.29	237.86	9.72	-43.3	-46.1	23.1	6.06e-01	0	38	0	42991616	58	4883
2026-01-25 13:29:17.29	238.03	9.77	-43.2	-45.9	23.3	6.07e-01	0	38	0	45088768	58	4795
2026-01-25 13:29:18.29	238.20	9.82	-43.2	-45.8	23.4	6.06e-01	0	38	0	47185920	58	4749
2026-01-25 13:29:19.29	238.37	9.87	-43.1	-45.7	23.5	6.05e-01	0	38	0	48758784	58	4678
2026-01-25 13:29:20.30	238.55	9.92	-43.1	-45.8	23.5	6.06e-01	0	38	0	50855936	58	4710
2026-01-25 13:29:21.29	238.72	9.97	-43.0	-45.7	23.5	6.06e-01	0	38	0	52428800	58	4653
2026-01-25 13:29:22.30	238.89	10.03	-43.1	-45.7	23.5	6.07e-01	0	38	0	54525952	58	4700
2026-01-25 13:29:23.30	239.07	10.08	-43.0	-45.7	23.5	6.06e-01	0	38	0	56098816	58	4679
2026-01-25 13:29:24.30	239.24	10.13	-43.1	-45.7	23.5	6.07e-01	0	38	0	58195968	58	4701
2026-01-25 13:29:25.30	239.42	10.18	-43.1	-45.7	23.3	6.08e-01	0	38	0	60293120	58	4669
2026-01-25 13:29:26.30	239.59	10.23	-43.1	-45.7	23.5	6.07e-01	0	38	0	61865984	58	4702
2026-01-25 13:29:27.30	239.77	10.28	-43.1	-45.7	23.5	6.06e-01	0	38	0	63963136	58	4665
2026-01-25 13:29:28.30	239.95	10.33	-42.9	-45.5	23.7	6.06e-01	0	38	0	65536000	57	4837
2026-01-25 13:29:29.30	240.12	10.38	-43.0	-45.6	23.6	6.08e-01	0	38	0	67633152	57	4918
2026-01-25 13:29:30.31	240.30	10.43	-43.1	-45.8	23.5	6.08e-01	0	38	0	69206016	57	4995
2026-01-25 13:29:31.30	240.48	10.48	-42.9	-45.5	23.7	6.05e-01	0	38	0	71303168	57	4839
2026-01-25 13:29:32.31	240.66	10.53	-42.9	-45.5	23.7	6.07e-01	0	38	0	73400320	57	4852
2026-01-25 13:29:33.31	240.84	10.58	-42.9	-45.4	23.8	6.07e-01	0	38	0	74973184	57	4810
2026-01-25 13:29:34.31	241.02	10.63	-42.8	-45.4	23.8	6.04e-01	0	38	0	77070336	57	4788
2026-01-25 13:29:35.31	241.21	10.68	-42.9	-45.5	23.7	6.07e-01	0	38	0	78643200	57	4848
2026-01-25 13:29:36.32	241.39	10.73	-42.9	-45.5	23.7	6.06e-01	0	38	0	80740352	57	4858
2026-01-25 13:29:37.32	241.57	10.78	-42.9	-45.6	23.5	6.05e-01	0	38	0	82837504	57	4911
2026-01-25 13:29:38.32	241.76	10.83	-43.0	-45.7	23.5	6.06e-01	0	38	0	84410368	57	4939
2026-01-25 13:29:39.32	241.94	10.88	-42.7	-45.4	23.7	6.06e-01	0	38	0	86507520	57	4803
2026-01-25 13:29:40.32	242.13	10.93	-42.7	-45.4	23.8	6.06e-01	0	38	0	88080384	57	4775
2026-01-25 13:29:41.32	242.31	10.98	-42.7	-45.4	23.6	6.07e-01	0	38	0	90177536	57	4803
2026-01-25 13:29:42.32	242.50	11.02	-42.7	-45.5	23.7	6.08e-01	0	38	0	91750400	57	4830
2026-01-25 13:29:43.32	242.69	11.07	-42.7	-45.4	23.8	6.08e-01	0	38	0	93847552	57	4772
2026-01-25 13:29:44.32	242.87	11.12	-42.7	-45.4	23.8	6.05e-01	0	38	0	95944704	57	4786
2026-01-25 13:29:45.32	243.06	11.17	-42.8	-45.4	23.8	6.04e-01	0	38	0	97517568	57	4786
2026-01-25 13:29:46.32	243.25	11.22	-42.8	-45.4	23.9	6.06e-01	0	38	0	99614720	57	4764
2026-01-25 13:29:47.31	243.44	11.27	-42.7	-45.3	23.9	6.04e-01	0	38	0	101187584	57	4735
2026-01-25 13:29:48.31	243.63	11.31	-42.7	-45.3	23.9	6.03e-01	0	38	0	103284736	57	4725
2026-01-25 13:29:49.31	243.82	11.36	-42.8	-45.3	23.8	6.07e-01	0	38	0	104857600	57	4743
2026-01-25 13:29:50.32	244.01	11.41	-42.7	-45.3	23.9	6.06e-01	0	38	0	106954752	57	4722
2026-01-25 13:29:51.31	244.20	11.46	-42.7	-45.3	23.9	6.06e-01	0	38	0	109051904	57	4710
2026-01-25 13:29:52.32	244.40	11.50	-42.6	-45.1	24.1	6.07e-01	0	38	0	110624768	57	4639
2026-01-25 13:29:53.32	244.59	11.55	-42.5	-45.0	24.2	6.05e-01	0	38	0	112721920	57	4581
2026-01-25 13:29:54.32	244.78	11.60	-42.6	-45.1	24.1	6.08e-01	0	38	0	114294784	57	4636
2026-01-25 13:29:55.32	244.98	11.64	-42.6	-45.2	24.0	6.07e-01	0	38	0	116391936	57	4679
2026-01-25 13:29:56.32	245.17	11.69	-42.5	-45.1	24.2	6.08e-01	0	38	0	117964800	57	4602
2026-01-25 13:29:57.33	245.37	11.74	-42.5	-45.0	24.0	6.07e-01	0	38	0	120061952	56	4865
2026-01-25 13:29:58.32	245.57	11.78	-42.5	-45.1	24.1	6.06e-01	0	38	0	122159104	56	4890
2026-01-25 13:29:59.33	245.77	11.83	-42.5	-45.2	24.0	6.07e-01	0	38	0	123731968	56	4945
2026-01-25 13:30:00.33	245.96	11.87	-42.6	-45.2	24.0	6.06e-01	0	38	0	125829120	56	4980
2026-01-25 13:30:01.33	246.16	11.92	-42.6	-45.2	24.0	6.07e-01	0	38	0	127401984	56	4968
2026-01-25 13:30:02.32	246.36	11.96	-42.7	-45.3	24.0	6.06e-01	0	38	0	129499136	56	4999
2026-01-25 13:30:03.32	246.56	12.01	-42.5	-45.1	24.2	6.07e-01	0	38	0	131596288	56	4874
2026-01-25 13:30:04.31	246.76	12.05	-42.4	-44.9	24.3	6.08e-01	0	38	0	133169152	56	4809
2026-01-25 13:30:05.31	246.96	12.10	-42.5	-45.0	24.2	6.05e-01	0	38	0	135266304	56	4864
2026-01-25 13:30:06.31	247.16	12.14	-42.6	-45.2	24.0	6.07e-01	0	38	0	136839168	56	4953
2026-01-25 13:30:07.30	247.36	12.18	-42.5	-45.0	24.2	6.07e-01	0	38	0	138936320	56	4861
2026-01-25 13:30:08.36	247.58	12.23	-42.6	-45.2	24.1	6.06e-01	0	38	0	141033472	56	4932
2026-01-25 13:30:09.26	247.76	12.27	-42.6	-45.1	24.1	6.07e-01	0	38	0	142606336	56	4905
2026-01-25 13:30:10.35	247.98	12.32	-42.5	-45.0	24.2	6.05e-01	0	38	0	144703488	56	4834
2026-01-25 13:30:11.20	248.16	12.35	-42.5	-45.0	24.2	6.05e-01	0	38	0	146276352	56	4861
2026-01-25 13:30:12.34	248.39	12.40	-42.5	-45.0	24.3	6.08e-01	0	38	0	148373504	56	4847
2026-01-25 13:30:13.19	248.57	12.44	-42.5	-45.0	24.2	6.06e-01	0	38	0	149946368	56	4835
2026-01-25 13:30:14.33	248.80	12.49	-42.6	-45.1	24.2	6.07e-01	0	38	0	152043520	56	4895
2026-01-25 13:30:15.18	248.98	12.52	-42.5	-45.1	24.2	6.06e-01	0	38	0	153616384	56	4876
2026-01-25 13:30:16.32	249.22	12.57	-42.5	-45.0	24.2	6.09e-01	0	39	0	155713536	56	4865
2026-01-25 13:30:17.17	249.39	12.61	-42.4	-44.9	24.3	6.07e-01	0	38	0	157286400	56	4808
2026-01-25 13:30:18.31	249.63	12.65	-42.6	-45.2	24.1	6.07e-01	0	38	0	159383552	56	4961
2026-01-25 13:30:19.16	249.81	12.69	-42.5	-45.1	24.1	6.06e-01	0	38	0	160956416	56	4910
2026-01-25 13:30:20.30	250.05	12.74	-42.5	-45.1	24.1	6.07e-01	0	38	0	163053568	56	4894
2026-01-25 13:30:21.15	250.23	12.77	-42.4	-45.0	24.2	6.08e-01	0	38	0	164626432	56	4827
2026-01-25 13:30:22.42	250.50	12.82	-42.4	-45.0	24.2	6.05e-01	0	38	0	167247872	56	4859
2026-01-25 13:30:23.13	250.65	12.85	-42.6	-45.2	24.0	6.05e-01	0	38	0	168296448	56	4964
2026-01-25 13:30:24.61	250.96	12.91	-42.5	-45.0	24.2	6.07e-01	0	38	0	171442176	56	4866
2026-01-25 13:30:25.33	251.12	12.94	-42.5	-45.0	24.2	6.08e-01	0	38	0	172490752	56	4842
2026-01-25 13:30:26.61	251.39	12.99	-42.4	-44.9	24.3	6.05e-01	0	39	0	175112192	56	4799
2026-01-25 13:30:27.66	251.62	13.03	-42.5	-45.0	24.2	6.06e-01	0	38	0	177209344	56	4850
2026-01-25 13:30:28.83	251.87	13.07	-42.4	-45.0	24.3	6.05e-01	0	38	0	179306496	56	4818
2026-01-25 13:30:29.69	252.05	13.11	-42.4	-44.9	24.3	6.05e-01	0	38	0	180879360	56	4800
2026-01-25 13:30:30.82	252.30	13.15	-42.4	-44.9	24.4	6.06e-01	0	38	0	182976512	56	4791
2026-01-25 13:30:31.67	252.48	13.18	-42.4	-44.9	24.3	6.07e-01	0	38	0	184549376	56	4812
2026-01-25 13:30:32.81	252.73	13.22	-42.4	-44.9	24.4	6.06e-01	0	38	0	186646528	56	4762
2026-01-25 13:30:33.67	252.92	13.26	-42.3	-44.8	24.4	6.08e-01	0	38	0	188219392	56	4735
2026-01-25 13:30:34.80	253.17	13.30	-42.3	-44.8	24.5	6.07e-01	0	38	0	190316544	56	4714
2026-01-25 13:30:35.65	253.35	13.33	-42.3	-44.7	24.5	6.08e-01	0	38	0	191889408	56	4695
2026-01-25 13:30:36.82	253.61	13.37	-42.3	-44.8	24.4	6.05e-01	0	38	0	193986560	56	4739
2026-01-25 13:30:37.68	253.80	13.40	-42.3	-44.8	24.5	6.06e-01	0	38	0	195559424	56	4736
2026-01-25 13:30:38.81	254.05	13.44	-42.3	-44.9	24.4	6.07e-01	0	38	0	197656576	56	4773
2026-01-25 13:30:39.67	254.24	13.47	-42.2	-44.8	24.5	6.08e-01	0	39	0	199753728	56	4740
2026-01-25 13:30:40.99	254.54	13.52	-42.1	-44.7	24.6	6.04e-01	0	39	0	201850880	56	4668
2026-01-25 13:30:41.70	254.69	13.54	-42.1	-44.7	24.5	6.05e-01	0	38	0	203423744	56	4696
2026-01-25 13:30:43.16	255.02	13.59	-42.1	-44.7	24.5	6.06e-01	0	38	0	206045184	56	4685
2026-01-25 13:30:43.87	255.18	13.62	-42.1	-44.7	24.6	6.04e-01	0	38	0	207618048	56	4671
2026-01-25 13:30:45.26	255.49	13.66	-42.1	-44.7	24.5	6.07e-01	0	38	0	210239488	56	4691
2026-01-25 13:30:45.97	255.65	13.69	-42.1	-44.7	24.6	6.05e-01	0	38	0	211288064	56	4675
2026-01-25 13:30:47.31	255.95	13.73	-42.2	-44.7	24.5	6.05e-01	0	38	0	213909504	56	4703
2026-01-25 13:30:48.02	256.11	13.76	-42.2	-44.7	24.6	6.05e-01	0	38	0	214958080	56	4684
2026-01-25 13:30:49.30	256.40	13.80	-42.1	-44.7	24.5	6.06e-01	0	39	0	217579520	56	4681
2026-01-25 13:30:50.01	256.57	13.82	-42.2	-44.8	24.5	6.06e-01	0	38	0	219152384	56	4729
2026-01-25 13:30:51.29	256.86	13.86	-42.2	-44.7	24.5	6.05e-01	0	38	0	221249536	56	4700
2026-01-25 13:30:52.00	257.02	13.88	-42.3	-44.8	24.5	6.08e-01	0	38	0	222822400	56	4748
2026-01-25 13:30:53.30	257.32	13.92	-42.3	-44.8	24.5	6.07e-01	0	38	0	224919552	56	4749
2026-01-25 13:30:54.01	257.48	13.94	-42.3	-44.8	24.3	6.06e-01	0	39	0	226492416	56	4728
2026-01-25 13:30:55.29	257.77	13.98	-42.3	-44.7	24.5	6.09e-01	0	38	0	228589568	56	4701
2026-01-25 13:30:56.02	257.94	14.00	-42.3	-44.7	24.5	6.07e-01	0	38	0	230162432	56	4696
2026-01-25 13:30:57.30	258.24	14.04	-42.3	-44.8	24.5	6.05e-01	0	38	0	232783872	56	4706
2026-01-25 13:30:58.01	258.40	14.06	-42.3	-44.8	24.5	6.06e-01	0	38	0	233832448	56	4713
2026-01-25 13:30:59.29	258.70	14.10	-42.3	-44.9	24.4	6.04e-01	0	39	0	236453888	56	4772
2026-01-25 13:31:00.00	258.86	14.12	-42.4	-45.0	24.3	6.05e-01	0	38	0	237502464	56	4829
2026-01-25 13:31:01.28	259.16	14.15	-42.1	-44.7	24.6	6.06e-01	0	38	0	240123904	56	4661
2026-01-25 13:31:02.01	259.33	14.17	-42.2	-44.7	24.5	6.06e-01	0	38	0	241172480	56	4690
2026-01-25 13:31:03.29	259.63	14.21	-42.2	-44.8	24.4	6.06e-01	0	39	0	243793920	56	4754
2026-01-25 13:31:04.00	259.79	14.23	-42.2	-44.9	24.4	6.08e-01	0	39	0	245366784	56	4771
2026-01-25 13:31:05.29	260.10	14.26	-42.0	-44.6	24.6	6.08e-01	0	38	0	247463936	56	4629
2026-01-25 13:31:06.00	260.26	14.28	-42.1	-44.7	24.6	6.06e-01	0	39	0	249036800	56	4657
2026-01-25 13:31:07.28	260.56	14.31	-42.0	-44.6	24.6	6.06e-01	0	38	0	251133952	56	4610
2026-01-25 13:31:08.00	260.73	14.33	-42.1	-44.6	24.6	6.04e-01	0	39	0	252706816	56	4643
2026-01-25 13:31:09.28	261.04	14.36	-42.2	-44.7	24.6	6.07e-01	0	39	0	254803968	56	4672
2026-01-25 13:31:09.99	261.20	14.38	-42.2	-44.6	24.6	6.07e-01	0	39	0	256376832	56	4651
2026-01-25 13:31:11.27	261.51	14.41	-42.1	-44.6	23.9	6.05e-01	0	39	0	258998272	56	4634
2026-01-25 13:31:11.99	261.68	14.43	-42.2	-44.6	24.6	6.06e-01	0	38	0	260046848	56	4644
2026-01-25 13:31:13.27	261.98	14.46	-42.1	-44.6	24.6	6.05e-01	0	39	0	262668288	56	4618
2026-01-25 13:31:14.18	262.20	14.48	-42.1	-44.6	24.3	6.06e-01	0	39	0	264241152	56	4643
2026-01-25 13:31:15.50	262.51	14.51	-42.0	-44.5	24.7	6.07e-01	0	38	0	266862592	56	4585
2026-01-25 13:31:16.21	262.68	14.52	-42.0	-44.5	24.7	6.08e-01	0	38	0	267911168	56	4570
2026-01-25 13:31:17.49	262.99	14.55	-42.0	-44.5	24.7	6.06e-01	0	39	0	270532608	56	4593
2026-01-25 13:31:18.21	263.16	14.56	-42.0	-44.5	24.7	6.06e-01	0	39	0	271581184	56	4591
2026-01-25 13:31:19.49	263.47	14.59	-42.0	-44.5	24.6	6.06e-01	0	38	0	274202624	55	4845
2026-01-25 13:31:20.20	263.64	14.60	-42.0	-44.6	24.6	6.06e-01	0	39	0	275775488	55	4888
2026-01-25 13:31:21.48	263.94	14.63	-41.9	-44.5	24.7	6.05e-01	0	39	0	277872640	55	4820
2026-01-25 13:31:22.20	264.12	14.64	-41.9	-44.4	24.7	6.07e-01	0	39	0	279445504	55	4811
2026-01-25 13:31:23.48	264.43	14.67	-42.0	-44.5	24.7	6.08e-01	0	39	0	281542656	55	4828
2026-01-25 13:31:24.19	264.60	14.68	-42.0	-44.5	24.6	6.05e-01	0	38	0	283115520	55	4849
2026-01-25 13:31:25.47	264.91	14.70	-42.1	-44.5	24.6	6.06e-01	0	39	0	285212672	55	4865
2026-01-25 13:31:26.18	265.08	14.72	-42.1	-44.5	24.7	6.05e-01	0	39	0	286785536	55	4869
2026-01-25 13:31:27.57	265.42	14.74	-42.2	-44.8	23.5	6.06e-01	0	39	0	289406976	55	4984
2026-01-25 13:31:28.28	265.59	14.75	-42.2	-44.8	24.6	6.07e-01	0	39	0	290455552	55	4988
2026-01-25 13:31:29.56	265.90	14.77	-41.9	-44.4	24.8	6.07e-01	0	39	0	293076992	55	4770
2026-01-25 13:31:30.27	266.07	14.78	-42.0	-44.5	24.6	6.08e-01	0	39	0	294125568	55	4841
2026-01-25 13:31:31.55	266.38	14.80	-42.0	-44.5	24.6	6.05e-01	0	39	0	296747008	55	4841
2026-01-25 13:31:32.26	266.56	14.81	-42.0	-44.5	24.7	6.06e-01	0	39	0	298319872	55	4832
2026-01-25 13:31:33.54	266.87	14.83	-42.1	-44.6	24.6	6.07e-01	0	39	0	300417024	55	4888
2026-01-25 13:31:34.27	267.05	14.84	-42.0	-44.5	24.6	6.07e-01	0	39	0	301989888	55	4865
2026-01-25 13:31:35.55	267.36	14.86	-42.0	-44.5	24.6	6.07e-01	0	39	0	304087040	55	4844
2026-01-25 13:31:36.27	267.53	14.87	-42.0	-44.5	24.7	6.06e-01	0	39	0	305659904	55	4855
2026-01-25 13:31:37.55	267.85	14.88	-42.0	-44.5	24.7	6.05e-01	0	39	0	308281344	55	4830
2026-01-25 13:31:38.28	268.03	14.89	-42.0	-44.5	24.7	6.09e-01	0	39	0	309329920	55	4843
2026-01-25 13:31:39.56	268.34	14.91	-41.9	-44.4	24.8	6.07e-01	0	38	0	311951360	55	4785
2026-01-25 13:31:40.28	268.52	14.91	-41.9	-44.4	24.7	6.06e-01	0	39	0	312999936	55	4802
2026-01-25 13:31:41.56	268.83	14.93	-42.0	-44.5	24.7	6.06e-01	0	39	0	315621376	55	4820
2026-01-25 13:31:42.29	269.01	14.93	-42.0	-44.5	24.7	6.06e-01	0	39	0	317194240	55	4815
2026-01-25 13:31:43.61	269.33	14.95	-42.1	-44.6	24.6	6.06e-01	0	39	0	319291392	55	4892
2026-01-25 13:31:44.32	269.51	14.95	-42.0	-44.5	24.7	6.07e-01	0	39	0	320864256	55	4830
2026-01-25 13:31:45.60	269.82	14.96	-42.1	-44.6	24.6	6.06e-01	0	39	0	322961408	55	4872
2026-01-25 13:31:46.33	270.00	14.97	-42.0	-44.4	24.7	6.07e-01	0	39	0	324534272	55	4807
2026-01-25 13:31:47.73	270.35	14.98	-41.9	-44.4	24.8	6.05e-01	0	39	0	327155712	55	4803
2026-01-25 13:31:48.44	270.52	14.99	-42.1	-44.6	24.6	6.05e-01	0	38	0	328728576	55	4880
2026-01-25 13:31:49.72	270.84	15.00	-41.9	-44.4	24.8	6.03e-01	0	39	0	330825728	55	4779
2026-01-25 13:31:50.44	271.02	15.00	-41.9	-44.3	24.8	6.08e-01	0	39	0	332398592	55	4749
2026-01-25 13:31:51.71	271.33	15.01	-42.0	-44.5	24.7	6.07e-01	0	39	0	334495744	55	4818
2026-01-25 13:31:52.44	271.51	15.01	-42.0	-44.5	24.7	6.06e-01	0	39	0	336068608	55	4848
2026-01-25 13:31:53.72	271.83	15.02	-42.1	-44.5	24.6	6.07e-01	0	38	0	338165760	55	4860
2026-01-25 13:31:54.44	272.00	15.02	-42.1	-44.5	24.6	6.08e-01	0	39	0	339738624	55	4854
2026-01-25 13:31:55.72	272.32	15.03	-42.0	-44.5	24.7	6.05e-01	0	39	0	341835776	55	4816
2026-01-25 13:31:56.43	272.50	15.03	-42.1	-44.5	24.7	6.09e-01	0	39	0	343408640	55	4870
2026-01-25 13:31:57.72	272.81	15.03	-42.0	-44.5	24.7	6.07e-01	0	39	0	346030080	55	4825
2026-01-25 13:31:58.44	272.99	15.03	-41.9	-44.4	24.7	6.08e-01	0	38	0	347078656	55	4796
2026-01-25 13:31:59.72	273.31	15.04	-41.8	-44.3	24.8	6.05e-01	0	39	0	349700096	55	4732
2026-01-25 13:32:00.43	273.48	15.04	-41.8	-44.3	24.9	6.08e-01	0	39	0	350748672	55	4715
2026-01-25 13:32:01.74	273.81	15.04	-42.0	-44.4	24.7	6.06e-01	0	39	0	353370112	55	4812
2026-01-25 13:32:02.45	273.98	15.04	-42.0	-44.4	24.8	6.06e-01	0	39	0	354942976	55	4797
2026-01-25 13:32:03.73	274.30	15.04	-41.9	-44.3	24.8	6.06e-01	0	39	0	357040128	55	4759
2026-01-25 13:32:04.44	274.48	15.04	-41.9	-44.3	24.8	6.06e-01	0	39	0	358612992	55	4739
2026-01-25 13:32:05.72	274.79	15.04	-41.9	-44.4	24.7	6.07e-01	0	39	0	360710144	55	4791
2026-01-25 13:32:06.43	274.97	15.04	-41.9	-44.4	24.7	6.06e-01	0	39	0	362283008	55	4792
2026-01-25 13:32:07.73	275.29	15.03	-41.9	-44.3	24.8	6.07e-01	0	39	0	364380160	55	4752
2026-01-25 13:32:08.44	275.47	15.03	-41.8	-44.2	24.9	6.06e-01	0	39	0	365953024	55	4679
2026-01-25 13:32:09.72	275.78	15.03	-41.9	-44.3	24.8	6.07e-01	0	39	0	368574464	55	4756
2026-01-25 13:32:10.45	275.96	15.03	-42.1	-44.5	24.6	6.07e-01	0	39	0	369623040	55	4842
2026-01-25 13:32:11.73	276.28	15.02	-42.0	-44.5	24.6	6.06e-01	0	39	0	372244480	55	4841
2026-01-25 13:32:12.45	276.46	15.02	-42.0	-44.4	24.7	6.06e-01	0	39	0	373293056	55	4802
2026-01-25 13:32:13.73	276.77	15.01	-41.9	-44.3	24.7	6.05e-01	0	39	0	375914496	55	4759
2026-01-25 13:32:14.45	276.95	15.01	-41.9	-44.3	24.8	6.07e-01	0	39	0	377487360	55	4743
2026-01-25 13:32:15.73	277.27	15.00	-41.9	-44.3	24.8	6.07e-01	0	39	0	379584512	55	4737
2026-01-25 13:32:16.46	277.45	15.00	-42.0	-44.4	24.7	6.07e-01	0	39	0	381157376	55	4811
2026-01-25 13:32:17.74	277.76	14.99	-42.0	-44.5	24.7	6.04e-01	0	39	0	383254528	55	4828
2026-01-25 13:32:18.45	277.94	14.98	-42.1	-44.6	24.5	6.08e-01	0	39	0	384827392	55	4914
2026-01-25 13:32:19.73	278.25	14.97	-42.1	-44.5	24.6	6.06e-01	0	39	0	386924544	55	4852
2026-01-25 13:32:20.45	278.43	14.97	-42.1	-44.6	24.6	6.07e-01	0	39	0	388497408	55	4885
2026-01-25 13:32:21.73	278.74	14.96	-42.0	-44.4	24.7	6.05e-01	0	39	0	391118848	55	4784
2026-01-25 13:32:22.44	278.92	14.95	-42.0	-44.3	24.8	6.08e-01	0	39	0	392167424	55	4759
2026-01-25 13:32:23.72	279.23	14.94	-42.0	-44.4	24.7	6.07e-01	0	39	0	394788864	55	4806
2026-01-25 13:32:24.49	279.42	14.93	-42.0	-44.4	24.7	6.07e-01	0	39	0	395837440	55	4812
2026-01-25 13:32:25.77	279.73	14.92	-42.1	-44.6	24.5	6.07e-01	0	39	0	398458880	55	4891
2026-01-25 13:32:26.51	279.92	14.91	-42.1	-44.5	24.7	6.07e-01	0	39	0	400031744	55	4856
2026-01-25 13:32:27.79	280.23	14.90	-42.2	-44.7	24.5	6.07e-01	0	39	0	402128896	55	4935
2026-01-25 13:32:28.51	280.40	14.89	-42.3	-44.7	24.5	6.06e-01	0	39	0	403701760	55	4978
2026-01-25 13:32:29.79	280.72	14.87	-41.9	-44.3	24.9	6.06e-01	0	39	0	405798912	55	4715
2026-01-25 13:32:30.61	280.92	14.86	-41.8	-44.1	25.0	6.04e-01	0	39	0	407371776	55	4646
2026-01-25 13:32:32.08	281.28	14.84	-41.9	-44.3	24.8	6.07e-01	0	39	0	409993216	55	4750
2026-01-25 13:32:32.79	281.45	14.83	-42.0	-44.4	24.8	6.06e-01	0	39	0	411566080	55	4808
2026-01-25 13:32:34.07	281.76	14.81	-42.1	-44.6	24.6	6.05e-01	0	39	0	414187520	55	4875
2026-01-25 13:32:34.79	281.94	14.80	-42.2	-44.6	24.5	6.07e-01	0	39	0	415236096	55	4921
2026-01-25 13:32:36.07	282.25	14.78	-42.1	-44.5	24.7	6.06e-01	0	39	0	417857536	55	4848
2026-01-25 13:32:36.79	282.42	14.77	-42.0	-44.5	24.7	6.06e-01	0	38	0	418906112	55	4825
2026-01-25 13:32:38.07	282.73	14.75	-41.9	-44.3	24.8	6.05e-01	0	39	0	421527552	55	4727
2026-01-25 13:32:38.79	282.91	14.74	-42.0	-44.4	24.8	6.08e-01	0	39	0	423100416	55	4766
2026-01-25 13:32:40.07	283.21	14.72	-42.0	-44.4	24.8	6.06e-01	0	39	0	425197568	55	4771
2026-01-25 13:32:41.00	283.44	14.70	-42.0	-44.4	24.8	6.07e-01	0	39	0	426770432	55	4764
2026-01-25 13:32:42.00	283.68	14.69	-42.0	-44.4	24.8	6.07e-01	0	39	0	428867584	55	4800
2026-01-25 13:32:42.99	283.92	14.67	-41.9	-44.3	24.9	6.07e-01	0	39	0	430964736	55	4731
2026-01-25 13:32:43.99	284.16	14.65	-42.0	-44.5	24.7	6.08e-01	0	39	0	432537600	55	4835
2026-01-25 13:32:44.99	284.40	14.63	-42.1	-44.5	24.6	6.08e-01	0	39	0	434634752	55	4868
2026-01-25 13:32:45.98	284.64	14.61	-42.0	-44.4	24.7	6.08e-01	0	39	0	436207616	55	4808
2026-01-25 13:32:46.97	284.87	14.59	-41.9	-44.3	24.8	6.06e-01	0	39	0	438304768	55	4757
2026-01-25 13:32:47.97	285.11	14.57	-42.0	-44.4	24.7	6.05e-01	0	39	0	439877632	55	4813
2026-01-25 13:32:48.96	285.35	14.55	-42.1	-44.6	24.6	6.07e-01	0	39	0	441974784	55	4884
2026-01-25 13:32:49.96	285.59	14.53	-42.1	-44.5	24.7	6.08e-01	0	39	0	443547648	55	4855
2026-01-25 13:32:50.95	285.82	14.51	-42.1	-44.5	24.6	6.06e-01	0	39	0	445644800	55	4859
2026-01-25 13:32:51.95	286.06	14.49	-42.1	-44.5	24.7	6.06e-01	0	39	0	447741952	55	4864
2026-01-25 13:32:52.94	286.30	14.46	-42.0	-44.5	24.7	6.07e-01	0	39	0	449314816	55	4843
2026-01-25 13:32:53.93	286.53	14.44	-42.0	-44.5	24.6	6.05e-01	0	39	0	451411968	55	4839
2026-01-25 13:32:54.93	286.77	14.42	-42.2	-44.6	24.5	6.07e-01	0	39	0	452984832	55	4919
2026-01-25 13:32:55.92	287.00	14.40	-42.1	-44.6	24.6	6.06e-01	0	39	0	455081984	55	4881
2026-01-25 13:32:56.92	287.24	14.37	-42.0	-44.4	24.7	6.05e-01	0	39	0	456654848	55	4814
2026-01-25 13:32:57.91	287.47	14.35	-42.0	-44.4	24.7	6.04e-01	0	39	0	458752000	55	4807
2026-01-25 13:32:58.90	287.70	14.32	-42.1	-44.5	24.7	6.05e-01	0	39	0	460849152	55	4822
2026-01-25 13:32:59.93	287.94	14.30	-42.1	-44.5	24.7	6.05e-01	0	39	0	462422016	55	4819
2026-01-25 13:33:00.95	288.18	14.27	-42.1	-44.5	24.6	6.06e-01	0	39	0	464519168	55	4849
2026-01-25 13:33:02.00	288.43	14.24	-42.1	-44.6	24.6	6.07e-01	0	39	0	466616320	55	4872
2026-01-25 13:33:02.96	288.65	14.22	-42.0	-44.5	24.7	6.04e-01	0	39	0	468189184	55	4832
2026-01-25 13:33:03.95	288.88	14.19	-42.1	-44.5	24.6	6.06e-01	0	39	0	470286336	55	4862
2026-01-25 13:33:04.95	289.12	14.16	-42.1	-44.6	24.6	6.08e-01	0	39	0	471859200	55	4899
2026-01-25 13:33:05.95	289.35	14.14	-42.1	-44.5	24.6	6.08e-01	0	39	0	473956352	55	4870
2026-01-25 13:33:06.94	289.58	14.11	-42.0	-44.6	24.6	6.07e-01	0	39	0	475529216	55	4874
2026-01-25 13:33:07.94	289.81	14.08	-42.0	-44.5	24.6	6.06e-01	0	39	0	477626368	55	4867
2026-01-25 13:33:08.93	290.04	14.05	-42.0	-44.6	24.5	6.05e-01	0	39	0	479199232	55	4890
2026-01-25 13:33:09.93	290.27	14.02	-42.1	-44.6	24.5	6.06e-01	0	39	0	481296384	55	4906
2026-01-25 13:33:10.92	290.49	13.99	-42.2	-44.7	24.5	6.07e-01	0	39	0	482869248	55	4927
2026-01-25 13:33:11.91	290.72	13.97	-42.2	-44.7	24.5	6.05e-01	0	39	0	484966400	55	4929
2026-01-25 13:33:12.91	290.95	13.94	-42.3	-44.7	24.4	6.07e-01	0	39	0	487063552	55	4967
2026-01-25 13:33:13.90	291.17	13.90	-42.2	-44.7	24.4	6.08e-01	0	39	0	488636416	55	4950
2026-01-25 13:33:14.93	291.41	13.87	-42.2	-44.6	24.4	6.08e-01	0	39	0	490733568	55	4913
2026-01-25 13:33:15.96	291.64	13.84	-42.2	-44.6	24.4	6.07e-01	0	39	0	492306432	55	4906
2026-01-25 13:33:16.95	291.87	13.81	-42.1	-44.6	24.5	6.06e-01	0	39	0	494403584	55	4890
2026-01-25 13:33:17.95	292.09	13.78	-42.1	-44.6	24.5	6.08e-01	0	39	0	496500736	55	4896
2026-01-25 13:33:18.95	292.32	13.75	-42.2	-44.7	24.4	6.06e-01	0	39	0	498073600	55	4944
2026-01-25 13:33:19.94	292.54	13.71	-42.2	-44.7	24.3	6.06e-01	0	39	0	500170752	55	4969
2026-01-25 13:33:20.93	292.76	13.68	-42.2	-44.7	24.4	6.07e-01	0	39	0	501743616	55	4963
2026-01-25 13:33:21.93	292.99	13.65	-42.1	-44.6	24.5	6.06e-01	0	39	0	503840768	55	4885
2026-01-25 13:33:22.92	293.21	13.61	-42.2	-44.7	24.4	6.04e-01	0	39	0	505413632	55	4929
2026-01-25 13:33:23.91	293.43	13.58	-42.3	-44.8	24.3	6.07e-01	0	39	0	507510784	55	5007
2026-01-25 13:33:24.91	293.65	13.55	-42.3	-44.8	24.3	6.07e-01	0	39	0	509083648	55	5020
2026-01-25 13:33:25.91	293.87	13.51	-42.3	-44.9	24.2	6.05e-01	0	39	0	511180800	55	5057
2026-01-25 13:33:26.90	294.09	13.48	-42.3	-44.8	24.2	6.07e-01	0	39	0	513277952	55	5032
2026-01-25 13:33:27.90	294.31	13.44	-42.3	-44.7	24.4	6.05e-01	0	39	0	514850816	55	4983
2026-01-25 13:33:28.89	294.53	13.41	-42.3	-44.8	24.3	6.05e-01	0	39	0	516947968	55	5036
2026-01-25 13:33:29.93	294.76	13.37	-42.3	-44.8	24.3	6.06e-01	0	39	0	519045120	55	5028
2026-01-25 13:33:30.99	294.99	13.33	-42.3	-44.8	24.3	6.06e-01	0	39	0	520617984	55	5023
2026-01-25 13:33:31.87	295.18	13.30	-42.3	-44.9	24.3	6.06e-01	0	39	0	522190848	55	5055
2026-01-25 13:33:33.01	295.43	13.26	-42.4	-44.9	24.2	6.06e-01	0	39	0	524288000	55	5081
2026-01-25 13:33:33.87	295.62	13.23	-42.3	-44.9	24.3	6.06e-01	0	39	0	525860864	55	5070
2026-01-25 13:33:35.00	295.86	13.18	-42.4	-45.0	24.2	6.06e-01	0	39	0	528482304	55	5102
2026-01-25 13:33:35.86	296.05	13.15	-42.5	-45.1	24.0	6.07e-01	0	39	0	530055168	55	5212
2026-01-25 13:33:36.99	296.29	13.11	-42.5	-45.1	24.0	6.07e-01	0	39	0	532152320	55	5187
2026-01-25 13:33:37.85	296.48	13.08	-42.4	-45.0	24.1	6.05e-01	0	39	0	533725184	55	5140
2026-01-25 13:33:38.99	296.72	13.03	-42.4	-45.0	24.1	6.08e-01	0	39	0	535822336	55	5139
2026-01-25 13:33:39.84	296.90	13.00	-42.5	-45.0	24.1	6.07e-01	0	39	0	537395200	55	5144
2026-01-25 13:33:40.98	297.15	12.96	-42.4	-45.0	24.1	6.07e-01	0	39	0	539492352	55	5102
2026-01-25 13:33:41.83	297.33	12.92	-42.3	-44.9	24.2	6.07e-01	0	39	0	541065216	55	5047
2026-01-25 13:33:43.00	297.58	12.88	-42.4	-45.0	24.1	6.05e-01	0	39	0	543162368	55	5121
2026-01-25 13:33:43.86	297.76	12.84	-42.4	-45.0	24.0	6.06e-01	0	39	0	544735232	55	5154
2026-01-25 13:33:45.07	298.01	12.79	-42.5	-45.1	24.0	6.07e-01	0	39	0	547356672	55	5190
2026-01-25 13:33:45.92	298.19	12.76	-42.5	-45.2	23.9	6.07e-01	0	39	0	548929536	55	5233
2026-01-25 13:33:47.12	298.44	12.71	-42.5	-45.1	24.0	6.07e-01	0	39	0	551026688	55	5203
2026-01-25 13:33:47.97	298.62	12.68	-42.5	-45.1	24.0	6.05e-01	0	39	0	552599552	55	5187
2026-01-25 13:33:49.11	298.86	12.63	-42.5	-45.1	24.0	6.08e-01	0	39	0	554696704	55	5186
2026-01-25 13:33:49.97	299.04	12.59	-42.6	-45.1	24.0	6.05e-01	0	39	0	556269568	55	5196
2026-01-25 13:33:51.10	299.27	12.55	-42.8	-45.3	23.9	6.07e-01	0	39	0	558366720	56	5041
2026-01-25 13:33:51.95	299.45	12.51	-42.7	-45.3	23.9	6.06e-01	0	39	0	559939584	56	4985
2026-01-25 13:33:53.09	299.68	12.46	-42.7	-45.3	23.9	6.06e-01	0	39	0	562036736	56	5012
2026-01-25 13:33:54.04	299.88	12.42	-42.7	-45.3	23.9	6.06e-01	0	39	0	564133888	56	5000
2026-01-25 13:33:55.03	300.08	12.38	-42.7	-45.4	23.9	6.04e-01	0	39	0	565706752	56	5044
2026-01-25 13:33:56.03	300.28	12.34	-42.7	-45.3	23.9	6.08e-01	0	39	0	567803904	56	4998
2026-01-25 13:33:57.02	300.48	12.30	-42.7	-45.2	23.9	6.05e-01	0	39	0	569376768	56	4972
2026-01-25 13:33:58.02	300.69	12.25	-42.7	-45.3	23.9	6.07e-01	0	39	0	571473920	56	5003
2026-01-25 13:33:59.01	300.89	12.21	-42.8	-45.3	23.9	6.05e-01	0	39	0	573046784	56	5033
2026-01-25 13:34:00.01	301.09	12.17	-42.8	-45.4	23.7	6.08e-01	0	39	0	575143936	56	5098
2026-01-25 13:34:01.01	301.29	12.12	-42.8	-45.4	23.8	6.06e-01	0	39	0	577241088	56	5053
2026-01-25 13:34:02.00	301.49	12.08	-42.8	-45.5	23.7	6.05e-01	0	39	0	578813952	56	5105
2026-01-25 13:34:03.00	301.69	12.03	-42.8	-45.4	23.8	6.10e-01	0	39	0	580911104	56	5084
2026-01-25 13:34:03.99	301.88	11.99	-42.7	-45.3	23.9	6.06e-01	0	39	0	582483968	56	5025
2026-01-25 13:34:04.98	302.08	11.95	-42.7	-45.4	23.9	6.09e-01	0	39	0	584581120	56	5045
2026-01-25 13:34:05.98	302.28	11.90	-42.8	-45.4	23.8	6.07e-01	0	39	0	586153984	56	5081
2026-01-25 13:34:06.98	302.47	11.86	-42.8	-45.4	23.8	6.04e-01	0	39	0	588251136	56	5079
2026-01-25 13:34:07.97	302.67	11.81	-42.8	-45.4	23.8	6.07e-01	0	39	0	589824000	56	5064
2026-01-25 13:34:08.96	302.86	11.77	-42.8	-45.4	23.8	6.08e-01	0	39	0	591921152	56	5093
2026-01-25 13:34:09.96	303.06	11.72	-42.9	-45.6	23.6	6.07e-01	0	39	0	594018304	56	5170
2026-01-25 13:34:10.95	303.25	11.68	-42.8	-45.5	23.7	6.08e-01	0	39	0	595591168	56	5114
2026-01-25 13:34:11.95	303.44	11.63	-42.8	-45.5	23.7	6.07e-01	0	39	0	597688320	56	5133
2026-01-25 13:34:12.94	303.64	11.58	-42.8	-45.5	23.6	6.06e-01	0	39	0	599261184	56	5153
2026-01-25 13:34:13.94	303.83	11.54	-42.8	-45.5	23.7	6.05e-01	0	39	0	601358336	56	5138
2026-01-25 13:34:14.93	304.02	11.49	-42.8	-45.5	23.7	6.07e-01	0	39	0	602931200	56	5144
2026-01-25 13:34:15.93	304.21	11.44	-42.8	-45.5	23.7	6.09e-01	0	39	0	605028352	56	5128
2026-01-25 13:34:16.92	304.40	11.40	-42.9	-45.5	23.6	6.06e-01	0	39	0	606601216	56	5134
2026-01-25 13:34:17.92	304.59	11.35	-42.8	-45.4	23.7	6.08e-01	0	39	0	608698368	56	5097
2026-01-25 13:34:18.98	304.79	11.30	-42.8	-45.5	23.7	6.07e-01	0	39	0	610795520	56	5106
2026-01-25 13:34:19.84	304.95	11.26	-42.9	-45.6	23.6	6.05e-01	0	39	0	612368384	56	5168
2026-01-25 13:34:20.98	305.17	11.21	-43.0	-45.7	23.5	6.07e-01	0	39	0	614465536	56	5228
2026-01-25 13:34:21.83	305.32	11.17	-42.9	-45.6	23.6	6.05e-01	0	39	0	616038400	56	5180
2026-01-25 13:34:22.97	305.54	11.11	-43.0	-45.6	23.5	6.07e-01	0	39	0	618135552	56	5196
2026-01-25 13:34:23.82	305.70	11.07	-43.0	-45.6	23.5	6.08e-01	0	39	0	619708416	56	5193
2026-01-25 13:34:24.96	305.91	11.02	-42.9	-45.6	23.5	6.06e-01	0	39	0	621805568	56	5186
2026-01-25 13:34:25.81	306.06	10.97	-43.0	-45.7	23.4	6.10e-01	0	39	0	623378432	56	5234
2026-01-25 13:34:26.95	306.27	10.92	-42.9	-45.6	23.5	6.07e-01	0	39	0	625475584	56	5205
2026-01-25 13:34:27.80	306.43	10.88	-42.9	-45.6	23.5	6.06e-01	0	39	0	627048448	56	5206
2026-01-25 13:34:28.94	306.64	10.82	-43.0	-45.7	23.4	6.08e-01	0	39	0	629669888	56	5234
2026-01-25 13:34:29.79	306.79	10.78	-43.1	-45.7	23.4	6.05e-01	0	39	0	631242752	56	5278
2026-01-25 13:34:31.01	307.02	10.72	-43.0	-45.6	23.5	6.07e-01	0	39	0	633339904	56	5204
2026-01-25 13:34:31.87	307.17	10.68	-43.0	-45.8	23.3	6.04e-01	0	39	0	634912768	56	5303
2026-01-25 13:34:33.00	307.37	10.62	-42.9	-45.7	23.3	6.05e-01	0	39	0	637009920	56	5279
2026-01-25 13:34:33.85	307.53	10.58	-42.8	-45.7	23.4	6.05e-01	0	39	0	638582784	56	5226
2026-01-25 13:34:34.99	307.73	10.53	-42.9	-45.8	23.2	6.07e-01	0	39	0	640679936	56	5299
2026-01-25 13:34:35.85	307.89	10.48	-43.0	-45.8	23.2	6.07e-01	0	39	0	642252800	56	5330
2026-01-25 13:34:36.99	308.09	10.43	-43.1	-46.0	23.0	6.05e-01	0	39	0	644349952	56	5409
2026-01-25 13:34:37.84	308.24	10.38	-43.1	-46.0	23.0	6.06e-01	0	39	0	645922816	56	5430
2026-01-25 13:34:38.98	308.44	10.33	-43.1	-46.0	23.1	6.06e-01	0	39	0	648019968	56	5414
2026-01-25 13:34:39.83	308.59	10.28	-43.2	-46.0	23.0	6.06e-01	0	39	0	650117120	57	5158
2026-01-25 13:34:40.97	308.79	10.23	-43.2	-45.9	23.1	6.06e-01	0	39	0	651689984	57	5100
2026-01-25 13:34:41.82	308.94	10.18	-43.2	-46.0	23.1	6.06e-01	0	39	0	653262848	57	5143
2026-01-25 13:34:42.96	309.14	10.13	-43.0	-45.8	23.2	6.05e-01	0	39	0	655884288	57	5008
2026-01-25 13:34:43.81	309.28	10.08	-42.9	-45.7	23.2	6.07e-01	0	39	0	657457152	57	4983
2026-01-25 13:34:44.95	309.48	10.03	-42.9	-45.8	23.1	6.08e-01	0	39	0	659554304	57	5040
2026-01-25 13:34:45.80	309.63	9.98	-43.0	-46.0	23.0	6.08e-01	0	39	0	661127168	57	5105
2026-01-25 13:34:46.94	309.82	9.93	-42.9	-45.9	23.1	6.06e-01	0	39	0	663224320	57	5070
2026-01-25 13:34:47.79	309.97	9.88	-42.9	-45.9	23.1	6.05e-01	0	39	0	664797184	57	5075
2026-01-25 13:34:48.93	310.16	9.82	-43.0	-45.9	23.0	6.07e-01	0	39	0	666894336	57	5099
2026-01-25 13:34:49.78	310.31	9.78	-43.1	-45.9	23.0	6.07e-01	0	39	0	668467200	57	5095
2026-01-25 13:34:50.92	310.50	9.72	-43.2	-46.1	22.9	6.04e-01	0	39	0	670564352	57	5190
2026-01-25 13:34:51.78	310.64	9.68	-43.1	-46.1	22.9	6.08e-01	0	39	0	672137216	57	5161
2026-01-25 13:34:52.92	310.83	9.62	-43.0	-45.9	23.0	6.06e-01	0	39	0	674234368	57	5086
2026-01-25 13:34:53.77	310.98	9.58	-43.1	-45.9	23.0	6.07e-01	0	39	0	675807232	57	5073
2026-01-25 13:34:54.91	311.17	9.52	-43.1	-45.9	23.0	6.07e-01	0	39	0	677904384	57	5081
2026-01-25 13:34:55.76	311.31	9.47	-43.0	-45.9	23.0	6.06e-01	0	39	0	679477248	57	5098
2026-01-25 13:34:56.90	311.50	9.42	-43.0	-45.9	23.0	6.04e-01	0	39	0	681574400	57	5093
2026-01-25 13:34:57.75	311.64	9.37	-42.9	-45.9	23.0	6.07e-01	0	39	0	683671552	57	5054
2026-01-25 13:34:58.92	311.83	9.31	-43.2	-46.0	23.0	6.07e-01	0	39	0	685768704	57	5105
2026-01-25 13:34:59.77	311.97	9.27	-43.2	-46.0	23.0	6.05e-01	0	39	0	687341568	57	5123
2026-01-25 13:35:00.91	312.15	9.21	-43.3	-46.2	22.8	6.08e-01	0	39	0	689438720	57	5220
2026-01-25 13:35:01.76	312.29	9.16	-43.2	-46.1	22.9	6.05e-01	0	39	0	691011584	57	5200
2026-01-25 13:35:03.03	312.50	9.10	-43.2	-46.2	22.9	6.05e-01	0	39	0	693108736	57	5222
2026-01-25 13:35:03.81	312.62	9.06	-43.2	-46.1	22.9	6.08e-01	0	39	0	694681600	57	5190
2026-01-25 13:35:05.03	312.82	8.99	-49.2	-69.6	3.8	7.53e-01	0	39	104	696778752	69	38869
2026-01-25 13:35:05.88	312.95	8.95	-49.6	-70.3	3.8	7.49e-01	0	39	104	696778752	69	42220
2026-01-25 13:35:07.02	313.13	8.89	-50.2	-70.7	3.8	7.48e-01	0	39	104	696778752	71	39167
2026-01-25 13:35:07.87	313.27	8.85	-50.3	-70.7	3.8	7.47e-01	0	39	104	696778752	71	39535
2026-01-25 13:35:09.00	313.45	8.79	-50.7	-70.9	3.8	7.44e-01	0	39	104	696778752	71	40274
2026-01-25 13:35:09.86	313.58	8.74	-50.3	-70.9	3.8	7.44e-01	0	39	104	696778752	71	40500
2026-01-25 13:35:10.99	313.76	8.68	-50.5	-71.0	3.8	7.49e-01	0	39	104	696778752	71	40723
2026-01-25 13:35:11.84	313.89	8.64	-50.4	-71.0	3.8	7.45e-01	0	39	104	696778752	71	40873
2026-01-25 13:35:12.98	314.07	8.58	-50.4	-71.1	3.8	7.50e-01	0	39	104	696778752	71	41018
2026-01-25 13:35:13.83	314.20	8.53	-50.9	-71.0	3.8	7.47e-01	0	39	104	696778752	72	38593
2026-01-25 13:35:14.96	314.38	8.47	-50.1	-71.0	3.8	7.48e-01	0	39	104	696778752	72	38447
2026-01-25 13:35:15.81	314.51	8.43	-50.4	-71.0	3.8	7.47e-01	0	39	104	696778752	72	38586
2026-01-25 13:35:16.95	314.68	8.37	-50.8	-71.1	3.8	7.47e-01	0	39	104	696778752	72	38732
2026-01-25 13:35:17.80	314.81	8.32	-50.5	-71.1	3.8	7.44e-01	0	39	104	696778752	71	41195
2026-01-25 13:35:18.94	314.98	8.26	-50.7	-71.1	3.8	7.44e-01	0	39	104	696778752	72	38770
2026-01-25 13:35:19.79	315.11	8.22	-50.5	-71.1	3.8	7.44e-01	0	39	104	696778752	72	38844
2026-01-25 13:35:20.92	315.28	8.16	-50.6	-71.1	3.8	7.47e-01	0	39	104	696778752	71	41339
2026-01-25 13:35:21.78	315.41	8.11	-50.5	-71.1	3.8	7.43e-01	0	39	104	696778752	71	41133
2026-01-25 13:35:22.91	315.58	8.05	-50.6	-71.1	3.8	7.47e-01	0	39	104	696778752	71	41241
2026-01-25 13:35:23.76	315.71	8.01	-50.5	-71.1	3.8	7.44e-01	0	39	104	696778752	71	41260
2026-01-25 13:35:24.90	315.88	7.95	-50.4	-71.1	3.8	7.42e-01	0	39	104	696778752	71	41192
2026-01-25 13:35:25.75	316.00	7.90	-50.2	-71.1	3.8	7.47e-01	0	39	104	696778752	71	41099
2026-01-25 13:35:26.88	316.17	7.84	-50.2	-71.1	3.8	7.46e-01	0	39	104	696778752	71	41056
2026-01-25 13:35:27.73	316.30	7.80	-50.2	-71.1	3.8	7.46e-01	0	39	104	696778752	71	40987
2026-01-25 13:35:28.87	316.46	7.74	-50.2	-71.0	3.8	7.48e-01	0	39	104	696778752	71	40962
2026-01-25 13:35:29.72	316.59	7.69	-50.2	-71.1	3.8	7.47e-01	0	39	104	696778752	71	40989
2026-01-25 13:35:30.86	316.75	7.63	-50.2	-71.0	3.8	7.44e-01	0	39	104	696778752	71	40970
2026-01-25 13:35:31.71	316.87	7.59	-50.2	-71.1	3.8	7.43e-01	0	39	104	696778752	71	40992
2026-01-25 13:35:32.84	317.04	7.53	-50.2	-71.1	3.8	7.46e-01	0	39	104	696778752	71	40984
2026-01-25 13:35:33.70	317.16	7.48	-50.2	-71.0	3.8	7.51e-01	0	39	104	696778752	71	40911
2026-01-25 13:35:34.83	317.32	7.42	-50.2	-71.0	3.8	7.47e-01	0	39	104	696778752	71	40884
2026-01-25 13:35:35.68	317.44	7.37	-50.2	-71.0	3.8	7.49e-01	0	39	104	696778752	71	40897
2026-01-25 13:35:36.82	317.61	7.31	-50.2	-71.0	3.8	7.49e-01	0	39	104	696778752	71	40961
2026-01-25 13:35:37.67	317.73	7.27	-50.2	-71.0	3.8	7.52e-01	0	39	104	696778752	71	40832
2026-01-25 13:35:38.81	317.89	7.21	-50.2	-71.0	3.8	7.43e-01	0	39	104	696778752	71	40870
2026-01-25 13:35:39.66	318.01	7.16	-50.2	-71.0	3.8	7.47e-01	0	39	104	696778752	71	40870
2026-01-25 13:35:40.80	318.17	7.10	-50.2	-71.0	3.8	7.45e-01	0	39	104	696778752	71	40816
2026-01-25 13:35:41.65	318.28	7.06	-50.2	-71.0	3.8	7.47e-01	0	39	104	696778752	71	40857
2026-01-25 13:35:42.78	318.44	7.00	-50.2	-71.0	3.8	7.46e-01	0	39	104	696778752	71	40837
2026-01-25 13:35:43.63	318.56	6.95	-50.2	-71.0	3.8	7.49e-01	0	39	104	696778752	71	40909
2026-01-25 13:35:44.77	318.71	6.89	-50.2	-71.0	3.8	7.48e-01	0	39	104	696778752	71	40817
2026-01-25 13:35:45.62	318.83	6.84	-50.2	-71.0	3.8	7.47e-01	0	39	104	696778752	71	40800
2026-01-25 13:35:46.76	318.99	6.78	-50.2	-71.0	3.8	7.43e-01	0	39	104	696778752	71	40878
2026-01-25 13:35:47.61	319.10	6.74	-50.2	-71.0	3.8	7.48e-01	0	39	104	696778752	71	40777
2026-01-25 13:35:48.74	319.26	6.68	-50.2	-71.0	3.8	7.43e-01	0	39	104	696778752	71	40790
2026-01-25 13:35:49.59	319.37	6.63	-50.2	-71.0	3.8	7.46e-01	0	39	104	696778752	71	40806
2026-01-25 13:35:50.73	319.52	6.57	-50.2	-71.0	3.8	7.48e-01	0	39	104	696778752	71	40765
2026-01-25 13:35:51.58	319.64	6.53	-50.2	-71.0	3.8	7.49e-01	0	39	104	696778752	71	40779
2026-01-25 13:35:52.72	319.79	6.47	-50.2	-71.0	3.8	7.49e-01	0	39	104	696778752	71	40783
2026-01-25 13:35:53.57	319.90	6.42	-50.2	-71.0	3.8	7.47e-01	0	39	104	696778752	71	40786
2026-01-25 13:35:54.70	320.05	6.36	-50.1	-71.0	3.8	7.47e-01	0	39	104	696778752	71	40805
2026-01-25 13:35:55.55	320.16	6.31	-50.1	-71.0	3.8	7.45e-01	0	39	104	696778752	71	40738
2026-01-25 13:35:56.69	320.31	6.25	-50.2	-71.0	3.8	7.44e-01	0	39	104	696778752	71	40712
2026-01-25 13:35:57.54	320.43	6.21	-50.2	-71.0	3.8	7.46e-01	0	39	104	696778752	71	40748
2026-01-25 13:35:58.67	320.57	6.15	-50.1	-71.0	3.8	7.46e-01	0	39	104	696778752	71	40740
2026-01-25 13:35:59.53	320.69	6.10	-50.1	-71.0	3.8	7.42e-01	0	40	104	696778752	71	40723
2026-01-25 13:36:00.66	320.83	6.04	-50.2	-71.0	3.8	7.45e-01	0	39	104	696778752	71	40706
2026-01-25 13:36:01.51	320.94	6.00	-50.1	-71.0	3.8	7.46e-01	0	39	104	696778752	71	40625
2026-01-25 13:36:02.65	321.09	5.94	-50.1	-71.0	3.8	7.45e-01	0	39	104	696778752	71	40712
2026-01-25 13:36:03.50	321.20	5.89	-50.1	-71.0	3.8	7.45e-01	0	39	104	696778752	71	40697
2026-01-25 13:36:04.63	321.34	5.83	-50.1	-71.0	3.8	7.48e-01	0	39	104	696778752	71	40656
2026-01-25 13:36:05.49	321.45	5.78	-50.1	-71.0	3.8	7.49e-01	0	39	104	696778752	71	40712
2026-01-25 13:36:06.62	321.59	5.72	-50.1	-71.0	3.8	7.45e-01	0	39	104	696778752	71	40749
2026-01-25 13:36:07.47	321.70	5.68	-50.1	-71.0	3.8	7.48e-01	0	39	104	696778752	71	40649
2026-01-25 13:36:08.61	321.84	5.62	-50.2	-71.0	3.8	7.45e-01	0	39	104	696778752	71	40683
2026-01-25 13:36:09.46	321.95	5.57	-50.1	-71.0	3.8	7.46e-01	0	39	104	696778752	71	40724
2026-01-25 13:36:10.59	322.09	5.51	-50.1	-71.0	3.8	7.46e-01	0	39	104	696778752	71	40728
2026-01-25 13:36:11.45	322.20	5.47	-50.2	-71.0	3.8	7.44e-01	0	39	104	696778752	71	40621
2026-01-25 13:36:12.58	322.34	5.41	-50.1	-71.0	3.8	7.49e-01	0	39	104	696778752	71	40681
2026-01-25 13:36:13.43	322.44	5.36	-50.1	-71.0	3.8	7.48e-01	0	39	104	696778752	71	40706
2026-01-25 13:36:14.57	322.58	5.30	-50.1	-71.0	3.8	7.46e-01	0	39	104	696778752	71	40626
2026-01-25 13:36:15.42	322.69	5.26	-50.1	-71.0	3.8	7.42e-01	0	39	104	696778752	71	40622
2026-01-25 13:36:16.55	322.82	5.20	-50.1	-71.0	3.8	7.43e-01	0	39	104	696778752	71	40625
2026-01-25 13:36:17.41	322.93	5.15	-50.1	-71.0	3.8	7.46e-01	0	39	104	696778752	71	40672
2026-01-25 13:36:18.54	323.06	5.09	-50.1	-71.0	3.8	7.46e-01	0	39	104	696778752	71	40683
2026-01-25 13:36:19.39	323.17	5.05	-50.1	-71.0	3.8	7.46e-01	0	39	104	696778752	71	40592
2026-01-25 13:36:20.53	323.30	4.98	-50.1	-71.0	3.8	7.46e-01	0	39	104	696778752	71	40621

#Closed at: 2026-01-25 13:36:21
#Recorded file [696 MB]: D:/Data/31040_260125_162748.dat