passes_logs/2026/01/25/T1/T1__20260125_103656_FENGYUN_3D_rec.log

#Pass ID: 20260125_103656_FENGYUN 3D
#Satellite: FENGYUN 3D
#Configuration: FENGYUN 3D
#almurnet v.1.7.20251203
#Start time: 2026-01-25 10:36:57

#Version: 2.0.20230620
#Station: T1
#Location: 37.570604 lon 55.790049 lat
#TLE: 1 43010U 17072A   26024.51794477  .00000040  00000+0  40682-4 0  9990
#TLE: 2 43010  98.9961 356.4820 0002494  91.2631 268.8830 14.19699550424601

#Time	Az	El	Level	Level2	SNR	BER	BlckErr	Temp	State	Recorded	gain1	gain2
2026-01-25 10:36:57.97	116.59	5.13	-48.3	-60.4	3.8	8.47e-01	0	39	0	0	68	14290
2026-01-25 10:36:58.96	116.52	5.19	-48.3	-60.4	3.8	8.47e-01	0	39	104	0	68	14214
2026-01-25 10:36:59.96	116.45	5.25	-48.3	-60.4	3.8	8.47e-01	0	39	104	0	68	14230
2026-01-25 10:37:00.95	116.38	5.32	-48.3	-60.4	3.8	8.46e-01	0	39	104	0	68	14289
2026-01-25 10:37:01.94	116.31	5.38	-48.3	-60.3	3.8	8.46e-01	0	39	104	0	68	14161
2026-01-25 10:37:02.94	116.24	5.45	-48.3	-60.4	3.8	8.46e-01	0	39	104	0	68	14212
2026-01-25 10:37:03.93	116.17	5.51	-48.3	-60.4	3.8	8.47e-01	0	39	104	0	68	14244
2026-01-25 10:37:04.92	116.10	5.57	-48.3	-60.4	3.8	8.47e-01	0	39	104	0	68	14259
2026-01-25 10:37:05.92	116.03	5.64	-48.3	-60.4	3.8	8.46e-01	0	39	104	0	68	14285
2026-01-25 10:37:06.91	115.96	5.70	-48.3	-60.4	3.8	8.47e-01	0	39	104	0	68	14262
2026-01-25 10:37:07.90	115.89	5.77	-48.3	-60.4	3.8	8.46e-01	0	39	104	0	68	14257
2026-01-25 10:37:08.90	115.81	5.83	-48.3	-60.4	3.8	8.47e-01	0	39	104	0	68	14293
2026-01-25 10:37:09.89	115.74	5.90	-48.3	-60.4	3.8	8.47e-01	0	40	104	0	68	14286
2026-01-25 10:37:10.88	115.67	5.96	-48.3	-60.4	3.8	8.47e-01	0	40	104	0	68	14314
2026-01-25 10:37:11.88	115.59	6.03	-48.3	-60.4	3.8	8.48e-01	0	40	104	0	68	14254
2026-01-25 10:37:12.87	115.52	6.09	-48.3	-60.4	3.8	8.46e-01	0	40	104	0	68	14271
2026-01-25 10:37:13.86	115.44	6.16	-48.3	-60.4	3.8	8.47e-01	0	40	104	0	68	14340
2026-01-25 10:37:14.86	115.37	6.23	-48.3	-60.4	3.8	8.47e-01	0	40	104	0	68	14343
2026-01-25 10:37:15.85	115.29	6.29	-48.3	-60.4	3.8	8.46e-01	0	40	104	0	68	14330
2026-01-25 10:37:16.84	115.22	6.36	-48.3	-60.4	3.8	8.46e-01	0	40	104	0	68	14304
2026-01-25 10:37:17.83	115.14	6.42	-48.3	-60.3	3.8	8.47e-01	0	40	104	0	68	14177
2026-01-25 10:37:18.83	115.07	6.49	-48.3	-60.2	3.8	8.47e-01	0	40	104	0	68	14044
2026-01-25 10:37:19.82	114.99	6.56	-48.3	-60.2	3.8	8.47e-01	0	40	104	0	68	13886
2026-01-25 10:37:20.81	114.91	6.62	-48.2	-60.0	3.8	8.48e-01	0	40	104	0	68	13710
2026-01-25 10:37:21.81	114.84	6.69	-48.2	-60.0	3.8	8.47e-01	0	40	104	0	68	13622
2026-01-25 10:37:22.80	114.76	6.76	-48.2	-60.0	3.8	8.46e-01	0	40	104	0	68	13607
2026-01-25 10:37:23.79	114.68	6.82	-48.2	-60.0	3.8	8.47e-01	0	40	104	0	68	13667
2026-01-25 10:37:24.79	114.60	6.89	-48.2	-60.1	3.8	8.47e-01	0	40	104	0	68	13733
2026-01-25 10:37:25.78	114.52	6.96	-48.2	-60.0	3.8	8.46e-01	0	40	104	0	68	13706
2026-01-25 10:37:26.77	114.44	7.02	-48.2	-60.1	3.8	8.47e-01	0	40	104	0	68	13809
2026-01-25 10:37:27.77	114.36	7.09	-48.2	-60.1	3.8	8.47e-01	0	40	104	0	68	13851
2026-01-25 10:37:28.76	114.28	7.16	-48.2	-60.1	3.8	8.47e-01	0	40	104	0	68	13801
2026-01-25 10:37:29.75	114.20	7.22	-48.3	-60.0	3.8	8.47e-01	0	40	104	0	68	13715
2026-01-25 10:37:30.75	114.12	7.29	-48.2	-59.8	3.8	8.47e-01	0	40	104	0	68	13342
2026-01-25 10:37:31.74	114.04	7.36	-48.2	-59.4	3.8	8.47e-01	0	40	104	0	68	12723
2026-01-25 10:37:32.73	113.96	7.43	-48.1	-58.9	3.8	8.47e-01	0	40	104	0	68	12093
2026-01-25 10:37:33.73	113.88	7.50	-48.1	-58.5	3.8	8.46e-01	0	40	104	0	68	11505
2026-01-25 10:37:34.72	113.80	7.56	-48.1	-58.5	3.8	8.47e-01	0	40	104	0	68	11442
2026-01-25 10:37:35.72	113.71	7.63	-48.1	-58.7	3.8	8.46e-01	0	40	104	0	68	11754
2026-01-25 10:37:36.71	113.63	7.70	-48.1	-59.1	3.8	8.47e-01	0	40	104	0	68	12344
2026-01-25 10:37:37.70	113.55	7.77	-48.1	-58.8	3.8	8.47e-01	0	40	104	0	68	11935
2026-01-25 10:37:38.70	113.46	7.84	-47.6	-56.3	4.3	8.41e-01	0	40	104	0	67	9492
2026-01-25 10:37:39.69	113.38	7.91	-46.8	-53.1	6.0	7.08e-01	0	40	0	0	65	7319
2026-01-25 10:37:40.68	113.30	7.98	-45.6	-50.2	8.7	1.17e-01	0	40	0	6291456	63	5911
2026-01-25 10:37:41.68	113.21	8.05	-44.1	-47.6	11.4	3.54e-03	0	40	0	11534336	60	5179
2026-01-25 10:37:42.67	113.13	8.11	-42.7	-45.6	13.5	8.23e-05	0	40	0	16777216	57	4882
2026-01-25 10:37:43.66	113.04	8.18	-41.3	-43.7	15.2	0.00e+00	0	40	0	23068672	54	4687
2026-01-25 10:37:44.66	112.95	8.25	-40.2	-42.5	16.4	0.00e+00	0	40	0	28311552	52	4560
2026-01-25 10:37:45.65	112.87	8.32	-39.5	-41.6	17.3	0.00e+00	0	40	0	33554432	51	4374
2026-01-25 10:37:46.65	112.78	8.39	-39.0	-41.1	17.9	0.00e+00	0	40	0	39845888	50	4356
2026-01-25 10:37:47.64	112.69	8.46	-38.7	-40.8	18.1	0.00e+00	0	40	0	45088768	49	4457
2026-01-25 10:37:48.63	112.60	8.53	-38.8	-40.8	18.0	0.00e+00	0	40	0	50331648	49	4492
2026-01-25 10:37:49.63	112.52	8.60	-39.2	-41.3	17.6	0.00e+00	0	40	0	56623104	49	4728
2026-01-25 10:37:50.62	112.43	8.67	-39.8	-42.0	16.9	0.00e+00	0	40	0	61865984	50	4862
2026-01-25 10:37:51.62	112.34	8.74	-40.6	-43.0	15.9	0.00e+00	0	41	0	67108864	52	4840
2026-01-25 10:37:52.61	112.25	8.81	-41.7	-44.2	14.7	0.00e+00	0	41	0	73400320	53	5275
2026-01-25 10:37:53.60	112.16	8.88	-43.2	-46.2	12.9	3.08e-05	0	40	0	78643200	56	5544
2026-01-25 10:37:54.60	112.07	8.95	-44.6	-48.3	10.8	1.24e-03	0	40	0	83886080	59	5927
2026-01-25 10:37:55.59	111.98	9.02	-45.8	-50.6	8.4	3.61e-02	0	40	0	90177536	62	6500
2026-01-25 10:37:56.58	111.88	9.10	-45.4	-49.6	10.0	3.94e-02	0	41	0	95420416	61	6185
2026-01-25 10:37:57.58	111.79	9.17	-41.6	-44.1	14.2	8.44e-01	0	41	104	95420416	55	4608
2026-01-25 10:37:58.57	111.70	9.24	-46.4	-51.9	7.4	2.39e-03	0	40	0	99614720	63	7159
2026-01-25 10:37:59.57	111.61	9.31	-47.2	-54.3	5.0	8.46e-01	0	40	104	100663296	66	7977
2026-01-25 10:38:00.56	111.51	9.38	-46.2	-51.4	7.6	6.91e-02	0	41	0	104857600	63	6800
2026-01-25 10:38:01.56	111.42	9.45	-45.7	-50.5	8.4	7.53e-01	0	41	0	106954752	63	6065
2026-01-25 10:38:02.55	111.32	9.52	-46.0	-50.9	8.2	3.03e-02	0	41	0	112197632	62	6751
2026-01-25 10:38:03.55	111.23	9.60	-45.1	-49.2	9.9	1.94e-02	0	41	0	118489088	62	5563
2026-01-25 10:38:04.54	111.13	9.67	-44.0	-47.4	11.7	2.34e-03	0	41	0	123731968	60	5098
2026-01-25 10:38:05.54	111.04	9.74	-43.2	-46.2	13.0	1.23e-04	0	41	0	128974848	58	4931
2026-01-25 10:38:06.53	110.94	9.81	-42.6	-45.4	13.8	1.37e-05	0	41	0	135266304	57	4794
2026-01-25 10:38:07.52	110.85	9.89	-42.9	-45.8	13.4	3.08e-05	0	40	0	140509184	57	5016
2026-01-25 10:38:08.52	110.75	9.96	-42.6	-45.3	13.8	2.05e-05	0	41	0	145752064	57	4757
2026-01-25 10:38:09.51	110.65	10.03	-41.5	-44.1	15.0	2.20e-06	0	41	0	152043520	55	4602
2026-01-25 10:38:10.51	110.55	10.10	-41.2	-43.6	15.5	0.00e+00	0	41	0	157286400	53	4896
2026-01-25 10:38:11.50	110.45	10.18	-40.5	-42.8	16.2	0.00e+00	0	41	0	162529280	53	4490
2026-01-25 10:38:12.49	110.35	10.25	-40.1	-42.3	16.7	0.00e+00	0	41	0	168820736	52	4470
2026-01-25 10:38:13.49	110.25	10.32	-40.0	-42.2	17.0	0.00e+00	0	41	0	174063616	51	4653
2026-01-25 10:38:14.48	110.15	10.40	-39.5	-41.7	17.4	0.00e+00	0	40	0	179306496	51	4405
2026-01-25 10:38:15.48	110.05	10.47	-39.3	-41.4	17.7	0.00e+00	0	41	0	185597952	50	4526
2026-01-25 10:38:16.47	109.95	10.54	-38.9	-40.9	18.1	0.00e+00	0	41	0	190840832	49	4544
2026-01-25 10:38:17.47	109.85	10.62	-38.4	-40.4	18.6	0.00e+00	0	41	0	196083712	48	4529
2026-01-25 10:38:18.46	109.75	10.69	-38.2	-40.2	18.8	0.00e+00	0	41	0	202375168	48	4433
2026-01-25 10:38:19.46	109.64	10.77	-38.4	-40.4	18.6	0.00e+00	0	41	0	207618048	48	4498
2026-01-25 10:38:20.45	109.54	10.84	-38.4	-40.4	18.6	0.00e+00	0	41	0	212860928	48	4516
2026-01-25 10:38:21.50	109.43	10.92	-38.1	-40.1	18.9	0.00e+00	0	41	0	219152384	48	4342
2026-01-25 10:38:22.46	109.33	10.99	-38.0	-40.0	19.0	0.00e+00	0	41	0	224395264	48	4295
2026-01-25 10:38:23.45	109.23	11.07	-37.8	-39.8	18.9	0.00e+00	0	41	0	229638144	47	4479
2026-01-25 10:38:24.45	109.12	11.14	-37.9	-40.0	18.8	0.00e+00	0	41	0	235929600	47	4547
2026-01-25 10:38:25.44	109.01	11.21	-37.8	-39.8	19.0	0.00e+00	0	41	0	241172480	47	4489
2026-01-25 10:38:26.44	108.91	11.29	-37.8	-39.8	19.0	0.00e+00	0	41	0	247463936	47	4469
2026-01-25 10:38:27.44	108.80	11.37	-37.7	-39.7	19.0	0.00e+00	0	41	0	252706816	47	4429
2026-01-25 10:38:28.43	108.69	11.44	-37.7	-39.7	19.1	0.00e+00	0	41	0	257949696	47	4410
2026-01-25 10:38:29.43	108.58	11.52	-37.7	-39.7	19.1	0.00e+00	0	41	0	264241152	47	4404
2026-01-25 10:38:30.42	108.47	11.59	-37.8	-39.8	19.0	0.00e+00	0	41	0	269484032	47	4462
2026-01-25 10:38:31.42	108.36	11.67	-37.8	-39.8	19.0	0.00e+00	0	41	0	274726912	47	4451
2026-01-25 10:38:32.41	108.25	11.74	-37.7	-39.6	19.2	0.00e+00	0	41	0	279969792	47	4384
2026-01-25 10:38:33.41	108.14	11.82	-37.7	-39.7	19.2	0.00e+00	0	41	0	286261248	47	4399
2026-01-25 10:38:34.40	108.03	11.90	-37.6	-39.6	19.2	0.00e+00	0	41	0	291504128	47	4356
2026-01-25 10:38:35.44	107.91	11.98	-37.6	-39.6	19.2	0.00e+00	0	41	0	297795584	47	4361
2026-01-25 10:38:36.47	107.80	12.05	-37.7	-39.6	19.2	0.00e+00	0	41	0	303038464	47	4386
2026-01-25 10:38:37.46	107.68	12.13	-37.5	-39.5	19.3	0.00e+00	0	41	0	309329920	47	4312
2026-01-25 10:38:38.46	107.57	12.21	-37.6	-39.5	19.3	0.00e+00	0	41	0	314572800	47	4333
2026-01-25 10:38:39.45	107.46	12.28	-37.6	-39.6	19.2	0.00e+00	0	41	0	319815680	47	4341
2026-01-25 10:38:40.44	107.34	12.36	-37.5	-39.4	19.4	0.00e+00	0	41	0	326107136	46	4531
2026-01-25 10:38:41.44	107.23	12.44	-37.4	-39.4	19.4	0.00e+00	0	41	0	331350016	46	4515
2026-01-25 10:38:42.43	107.11	12.51	-37.5	-39.4	19.4	0.00e+00	0	41	0	336592896	46	4543
2026-01-25 10:38:43.43	106.99	12.59	-37.4	-39.4	19.4	0.00e+00	0	41	0	342884352	46	4500
2026-01-25 10:38:44.42	106.87	12.67	-37.4	-39.3	19.5	0.00e+00	0	41	0	348127232	46	4485
2026-01-25 10:38:45.42	106.76	12.75	-37.2	-39.2	19.6	0.00e+00	0	41	0	353370112	46	4418
2026-01-25 10:38:46.41	106.64	12.82	-37.1	-39.1	19.7	0.00e+00	0	41	0	359661568	46	4347
2026-01-25 10:38:47.41	106.52	12.90	-37.1	-39.0	19.8	0.00e+00	0	41	0	364904448	46	4334
2026-01-25 10:38:48.40	106.40	12.98	-37.0	-38.9	19.8	0.00e+00	0	41	0	370147328	46	4286
2026-01-25 10:38:49.40	106.28	13.06	-37.0	-38.9	19.9	0.00e+00	0	41	0	376438784	46	4268
2026-01-25 10:38:50.39	106.16	13.14	-36.9	-38.9	19.9	0.00e+00	0	41	0	381681664	45	4497
2026-01-25 10:38:51.39	106.03	13.22	-36.8	-38.7	20.0	0.00e+00	0	41	0	386924544	45	4434
2026-01-25 10:38:52.38	105.91	13.29	-36.8	-38.7	20.0	0.00e+00	0	41	0	393216000	45	4432
2026-01-25 10:38:53.38	105.79	13.37	-36.8	-38.7	20.1	0.00e+00	0	41	0	398458880	45	4406
2026-01-25 10:38:54.37	105.66	13.45	-36.8	-38.7	20.1	0.00e+00	0	41	0	403701760	45	4413
2026-01-25 10:38:55.45	105.53	13.54	-36.8	-38.7	20.1	0.00e+00	0	41	0	409993216	45	4412
2026-01-25 10:38:56.33	105.42	13.61	-36.8	-38.7	20.1	0.00e+00	0	41	0	415236096	45	4411
2026-01-25 10:38:57.47	105.27	13.70	-36.7	-38.6	20.2	0.00e+00	0	41	0	421527552	45	4382
2026-01-25 10:38:58.32	105.16	13.76	-36.7	-38.6	20.2	0.00e+00	0	41	0	425721856	45	4355
2026-01-25 10:38:59.70	104.99	13.87	-36.8	-38.7	20.1	0.00e+00	0	41	0	434110464	45	4394
2026-01-25 10:39:00.41	104.90	13.93	-36.7	-38.6	20.2	0.00e+00	0	41	0	438304768	45	4353
2026-01-25 10:39:01.69	104.73	14.03	-36.8	-38.7	20.1	0.00e+00	0	41	0	445644800	45	4419
2026-01-25 10:39:02.42	104.63	14.09	-36.8	-38.7	20.0	0.00e+00	0	41	0	448790528	45	4435
2026-01-25 10:39:03.70	104.47	14.19	-36.7	-38.6	20.1	0.00e+00	0	41	0	456130560	45	4379
2026-01-25 10:39:04.47	104.37	14.26	-36.7	-38.6	20.2	0.00e+00	0	41	0	460324864	45	4360
2026-01-25 10:39:05.75	104.20	14.36	-36.6	-38.5	20.2	0.00e+00	0	41	0	467664896	45	4333
2026-01-25 10:39:06.46	104.10	14.42	-36.7	-38.6	20.2	0.00e+00	0	41	0	471859200	45	4362
2026-01-25 10:39:07.74	103.93	14.52	-36.6	-38.5	20.3	0.00e+00	0	41	0	479199232	45	4327
2026-01-25 10:39:08.45	103.83	14.58	-36.6	-38.5	20.3	0.00e+00	0	41	0	483393536	45	4305
2026-01-25 10:39:09.73	103.66	14.68	-36.7	-38.5	20.2	0.00e+00	0	41	0	490733568	45	4333
2026-01-25 10:39:10.44	103.56	14.74	-36.6	-38.5	20.3	0.00e+00	0	41	0	494927872	45	4300
2026-01-25 10:39:11.72	103.39	14.84	-36.4	-38.2	20.5	0.00e+00	0	41	0	501219328	44	4441
2026-01-25 10:39:12.67	103.26	14.92	-36.5	-38.4	20.4	0.00e+00	0	41	0	506462208	44	4500
2026-01-25 10:39:13.98	103.08	15.02	-36.4	-38.3	20.5	0.00e+00	0	41	0	514850816	44	4453
2026-01-25 10:39:14.69	102.98	15.08	-36.4	-38.2	20.6	0.00e+00	0	41	0	517996544	44	4424
2026-01-25 10:39:15.97	102.80	15.19	-36.4	-38.2	20.5	0.00e+00	0	41	0	525336576	44	4427
2026-01-25 10:39:16.70	102.69	15.25	-36.5	-38.4	20.4	0.00e+00	0	41	0	529530880	44	4504
2026-01-25 10:39:17.97	102.51	15.35	-36.4	-38.3	20.5	0.00e+00	0	41	0	536870912	44	4455
2026-01-25 10:39:18.69	102.41	15.41	-36.5	-38.4	20.4	0.00e+00	0	41	0	541065216	44	4500
2026-01-25 10:39:19.96	102.23	15.51	-36.4	-38.3	20.5	0.00e+00	0	41	0	548405248	44	4456
2026-01-25 10:39:20.67	102.13	15.57	-36.5	-38.4	20.4	0.00e+00	0	41	0	551550976	44	4495
2026-01-25 10:39:21.95	101.94	15.68	-36.5	-38.3	20.5	0.00e+00	0	41	0	558891008	44	4478
2026-01-25 10:39:22.66	101.84	15.73	-36.5	-38.3	20.5	0.00e+00	0	41	0	563085312	44	4482
2026-01-25 10:39:24.12	101.62	15.85	-36.3	-38.2	20.6	0.00e+00	0	41	0	571473920	44	4422
2026-01-25 10:39:24.83	101.52	15.91	-36.4	-38.3	20.5	0.00e+00	0	41	0	575668224	44	4460
2026-01-25 10:39:26.16	101.32	16.02	-36.2	-38.1	20.6	0.00e+00	0	41	0	583008256	44	4357
2026-01-25 10:39:26.87	101.22	16.08	-36.2	-38.0	20.7	0.00e+00	0	41	0	587202560	44	4318
2026-01-25 10:39:28.21	101.01	16.19	-36.2	-38.0	20.7	0.00e+00	0	41	0	594542592	44	4324
2026-01-25 10:39:28.92	100.91	16.25	-36.2	-38.0	20.8	0.00e+00	0	41	0	598736896	44	4308
2026-01-25 10:39:30.20	100.71	16.36	-36.2	-38.0	20.8	0.00e+00	0	41	0	606076928	44	4311
2026-01-25 10:39:31.26	100.55	16.44	-36.0	-37.9	20.9	0.00e+00	0	41	0	611319808	44	4259
2026-01-25 10:39:32.41	100.37	16.54	-36.1	-37.9	20.8	0.00e+00	0	41	0	617611264	44	4285
2026-01-25 10:39:33.27	100.24	16.61	-35.8	-37.6	21.0	0.00e+00	0	41	0	622854144	43	4364
2026-01-25 10:39:34.41	100.06	16.70	-35.7	-37.5	21.0	0.00e+00	0	41	0	629145600	43	4329
2026-01-25 10:39:35.26	99.93	16.78	-35.7	-37.6	21.0	0.00e+00	0	41	0	634388480	43	4348
2026-01-25 10:39:36.39	99.75	16.87	-35.8	-37.6	21.0	0.00e+00	0	41	0	640679936	43	4382
2026-01-25 10:39:37.25	99.62	16.94	-35.7	-37.6	21.0	0.00e+00	0	41	0	644874240	43	4348
2026-01-25 10:39:38.38	99.44	17.03	-35.7	-37.5	21.0	0.00e+00	0	41	0	652214272	43	4338
2026-01-25 10:39:39.24	99.30	17.11	-35.8	-37.6	21.0	0.00e+00	0	41	0	656408576	43	4378
2026-01-25 10:39:40.37	99.12	17.20	-35.8	-37.6	21.0	0.00e+00	0	41	0	662700032	43	4366
2026-01-25 10:39:41.22	98.98	17.27	-35.8	-37.6	21.0	0.00e+00	0	41	0	667942912	43	4368
2026-01-25 10:39:42.36	98.80	17.37	-35.7	-37.6	21.0	0.00e+00	0	41	0	674234368	43	4346
2026-01-25 10:39:43.21	98.66	17.44	-35.5	-37.3	21.2	0.00e+00	0	41	0	678428672	43	4240
2026-01-25 10:39:44.35	98.47	17.53	-35.5	-37.3	21.3	0.00e+00	0	41	0	684720128	43	4210
2026-01-25 10:39:45.20	98.33	17.60	-35.5	-37.3	21.2	0.00e+00	0	41	0	689963008	43	4221
2026-01-25 10:39:46.34	98.14	17.70	-35.5	-37.3	21.2	0.00e+00	0	41	0	696254464	43	4209
2026-01-25 10:39:47.19	98.00	17.77	-35.5	-37.3	21.2	0.00e+00	0	41	0	701497344	43	4227
2026-01-25 10:39:48.33	97.81	17.87	-35.5	-37.3	21.2	0.00e+00	0	41	0	707788800	43	4235
2026-01-25 10:39:49.18	97.66	17.94	-35.6	-37.4	21.1	0.00e+00	0	41	0	711983104	43	4290
2026-01-25 10:39:50.32	97.47	18.03	-35.7	-37.6	21.0	0.00e+00	0	41	0	718274560	43	4347
2026-01-25 10:39:51.17	97.32	18.10	-35.7	-37.6	21.0	0.00e+00	0	41	0	723517440	43	4349
2026-01-25 10:39:52.31	97.13	18.20	-35.7	-37.5	21.0	0.00e+00	0	41	0	729808896	43	4332
2026-01-25 10:39:53.17	96.98	18.27	-35.7	-37.5	21.1	0.00e+00	0	41	0	735051776	43	4308
2026-01-25 10:39:54.30	96.78	18.37	-35.7	-37.5	21.1	0.00e+00	0	41	0	741343232	43	4324
2026-01-25 10:39:55.16	96.63	18.44	-35.6	-37.5	21.1	0.00e+00	0	41	0	745537536	43	4301
2026-01-25 10:39:56.30	96.43	18.53	-35.5	-37.3	21.2	0.00e+00	0	41	0	752877568	43	4221
2026-01-25 10:39:57.15	96.28	18.60	-35.5	-37.3	21.3	0.00e+00	0	41	0	757071872	42	4465
2026-01-25 10:39:58.29	96.08	18.70	-35.5	-37.3	21.2	0.00e+00	0	41	0	763363328	42	4478
2026-01-25 10:39:59.14	95.93	18.77	-35.4	-37.2	21.4	0.00e+00	0	41	0	768606208	42	4405
2026-01-25 10:40:00.29	95.72	18.87	-35.4	-37.2	21.3	0.00e+00	0	41	0	774897664	42	4435
2026-01-25 10:40:01.15	95.56	18.94	-35.4	-37.2	21.4	0.00e+00	0	41	0	780140544	42	4406
2026-01-25 10:40:02.29	95.36	19.04	-35.4	-37.2	21.4	0.00e+00	0	41	0	786432000	42	4407
2026-01-25 10:40:03.14	95.20	19.11	-35.4	-37.2	21.3	0.00e+00	0	41	0	790626304	42	4440
2026-01-25 10:40:04.28	94.99	19.20	-35.4	-37.2	21.4	0.00e+00	0	41	0	796917760	42	4404
2026-01-25 10:40:05.13	94.84	19.27	-35.3	-37.1	21.5	0.00e+00	0	41	0	802160640	42	4352
2026-01-25 10:40:06.47	94.59	19.39	-35.2	-37.0	21.5	0.00e+00	0	41	0	809500672	42	4315
2026-01-25 10:40:07.18	94.45	19.45	-35.3	-37.1	21.5	0.00e+00	0	41	0	813694976	42	4346
2026-01-25 10:40:08.46	94.21	19.55	-35.3	-37.1	21.4	0.00e+00	0	41	0	821035008	42	4374
2026-01-25 10:40:09.17	94.08	19.61	-35.3	-37.1	21.4	0.00e+00	0	41	0	824180736	42	4360
2026-01-25 10:40:10.45	93.84	19.72	-35.3	-37.1	21.4	0.00e+00	0	41	0	831520768	42	4381
2026-01-25 10:40:11.16	93.70	19.78	-35.3	-37.1	21.4	0.00e+00	0	41	0	835715072	42	4385
2026-01-25 10:40:12.44	93.46	19.88	-35.3	-37.1	21.4	0.00e+00	0	41	0	843055104	42	4352
2026-01-25 10:40:13.15	93.32	19.94	-35.4	-37.2	21.4	0.00e+00	0	41	0	847249408	42	4400
2026-01-25 10:40:14.43	93.07	20.05	-35.4	-37.2	21.4	0.00e+00	0	41	0	854589440	42	4414
2026-01-25 10:40:15.16	92.93	20.11	-35.2	-37.0	21.5	0.00e+00	0	41	0	858783744	42	4308
2026-01-25 10:40:16.45	92.67	20.22	-35.0	-36.8	21.6	0.00e+00	0	41	0	866123776	42	4242
2026-01-25 10:40:17.16	92.53	20.28	-35.1	-36.9	21.6	0.00e+00	0	41	0	869269504	42	4257
2026-01-25 10:40:18.45	92.28	20.38	-35.1	-36.9	21.6	0.00e+00	0	41	0	876609536	42	4285
2026-01-25 10:40:19.16	92.14	20.44	-35.0	-36.8	21.6	0.00e+00	0	41	0	880803840	42	4242
2026-01-25 10:40:20.44	91.88	20.55	-35.2	-36.9	21.6	0.00e+00	0	41	0	888143872	42	4291
2026-01-25 10:40:21.17	91.73	20.61	-35.1	-36.9	21.6	0.00e+00	0	41	0	892338176	42	4243
2026-01-25 10:40:22.45	91.47	20.72	-34.8	-36.6	21.9	0.00e+00	0	41	0	899678208	41	4352
2026-01-25 10:40:23.17	91.33	20.78	-34.8	-36.5	21.9	0.00e+00	0	41	0	903872512	41	4335
2026-01-25 10:40:24.45	91.06	20.88	-34.9	-36.6	21.8	0.00e+00	0	41	0	911212544	41	4388
2026-01-25 10:40:25.16	90.92	20.94	-34.9	-36.7	21.8	0.00e+00	0	41	0	914358272	41	4392
2026-01-25 10:40:26.72	90.59	21.07	-34.9	-36.7	21.8	0.00e+00	0	41	0	923795456	41	4394
2026-01-25 10:40:27.43	90.44	21.13	-34.9	-36.7	21.7	0.00e+00	0	41	0	927989760	41	4420
2026-01-25 10:40:28.73	90.17	21.23	-34.9	-36.7	21.8	0.00e+00	0	41	0	935329792	41	4399
2026-01-25 10:40:29.44	90.02	21.29	-35.0	-36.7	21.7	0.00e+00	0	41	0	938475520	41	4438
2026-01-25 10:40:30.72	89.75	21.39	-34.9	-36.7	21.8	0.00e+00	0	41	0	945815552	41	4419
2026-01-25 10:40:31.43	89.60	21.45	-34.9	-36.7	21.8	0.00e+00	0	41	0	950009856	41	4419
2026-01-25 10:40:32.71	89.33	21.56	-34.8	-36.6	21.9	0.00e+00	0	41	0	957349888	41	4366
2026-01-25 10:40:33.43	89.17	21.61	-34.8	-36.6	21.9	0.00e+00	0	41	0	961544192	41	4348
2026-01-25 10:40:34.71	88.89	21.72	-34.7	-36.5	22.0	0.00e+00	0	41	0	968884224	41	4294
2026-01-25 10:40:35.45	88.73	21.78	-34.8	-36.6	21.9	0.00e+00	0	41	0	973078528	41	4359
2026-01-25 10:40:36.73	88.45	21.88	-34.7	-36.5	21.9	0.00e+00	0	41	0	980418560	41	4325
2026-01-25 10:40:37.49	88.28	21.94	-34.7	-36.4	22.0	0.00e+00	0	41	0	984612864	41	4284
2026-01-25 10:40:38.77	88.00	22.04	-34.6	-36.4	22.0	0.00e+00	0	41	0	990904320	41	4277
2026-01-25 10:40:39.48	87.84	22.10	-34.5	-36.3	22.0	0.00e+00	0	41	0	995098624	41	4230
2026-01-25 10:40:40.76	87.56	22.20	-34.6	-36.4	22.0	0.00e+00	0	41	0	1002438656	41	4255
2026-01-25 10:40:41.47	87.40	22.26	-34.6	-36.4	22.0	0.00e+00	0	41	0	1006632960	41	4273
2026-01-25 10:40:42.75	87.11	22.36	-34.6	-36.4	22.0	0.00e+00	0	41	0	1013972992	41	4287
2026-01-25 10:40:43.71	86.89	22.44	-34.7	-36.5	21.9	0.00e+00	0	41	0	1019215872	41	4316
2026-01-25 10:40:44.99	86.60	22.54	-34.6	-36.4	22.0	0.00e+00	0	41	0	1026555904	41	4245
2026-01-25 10:40:45.70	86.44	22.59	-34.6	-36.4	22.0	0.00e+00	0	41	0	1030750208	41	4281
2026-01-25 10:40:46.99	86.14	22.69	-34.6	-36.4	22.0	0.00e+00	0	41	0	1038090240	41	4286
2026-01-25 10:40:47.70	85.97	22.75	-34.6	-36.4	22.0	0.00e+00	0	41	0	1041235968	41	4262
2026-01-25 10:40:48.98	85.67	22.85	-34.7	-36.5	21.9	0.00e+00	0	41	0	1048576000	41	4312
2026-01-25 10:40:49.71	85.50	22.90	-34.8	-36.6	21.9	0.00e+00	0	41	0	1052770304	41	4348
2026-01-25 10:40:50.99	85.20	23.00	-34.6	-36.4	22.0	0.00e+00	0	41	0	1060110336	41	4272
2026-01-25 10:40:51.70	85.03	23.06	-34.6	-36.4	22.1	0.00e+00	0	41	0	1064304640	41	4252
2026-01-25 10:40:53.04	84.72	23.16	-34.6	-36.4	22.0	0.00e+00	0	41	0	1071644672	41	4264
2026-01-25 10:40:53.75	84.55	23.21	-34.6	-36.4	22.0	0.00e+00	0	41	0	1075838976	41	4264
2026-01-25 10:40:55.03	84.24	23.31	-34.6	-36.4	22.0	0.00e+00	0	41	0	1083179008	41	4286
2026-01-25 10:40:55.74	84.07	23.37	-34.6	-36.4	22.0	0.00e+00	0	41	0	1086324736	41	4287
2026-01-25 10:40:57.15	83.73	23.47	-34.5	-36.4	22.1	0.00e+00	0	41	0	1094713344	41	4246
2026-01-25 10:40:57.86	83.55	23.52	-34.5	-36.3	22.1	0.00e+00	0	41	0	1098907648	41	4219
2026-01-25 10:40:59.14	83.24	23.62	-34.5	-36.3	22.1	0.00e+00	0	41	0	1106247680	41	4221
2026-01-25 10:41:00.18	82.98	23.70	-34.4	-36.2	22.2	0.00e+00	0	41	0	1111490560	40	4393
2026-01-25 10:41:01.11	82.75	23.77	-34.4	-36.2	22.2	0.00e+00	0	41	0	1116733440	40	4416
2026-01-25 10:41:02.11	82.50	23.84	-34.5	-36.3	22.1	0.00e+00	0	41	0	1123024896	40	4455
2026-01-25 10:41:03.10	82.26	23.91	-34.6	-36.4	22.0	0.00e+00	0	41	0	1128267776	40	4528
2026-01-25 10:41:04.19	81.98	23.99	-34.6	-36.4	22.0	0.00e+00	0	41	0	1134559232	40	4516
2026-01-25 10:41:05.04	81.77	24.05	-34.5	-36.3	22.1	0.00e+00	0	41	0	1138753536	40	4457
2026-01-25 10:41:06.18	81.48	24.13	-34.5	-36.3	22.1	0.00e+00	0	41	0	1146093568	40	4475
2026-01-25 10:41:07.11	81.24	24.20	-34.5	-36.2	22.2	0.00e+00	0	41	0	1150287872	40	4440
2026-01-25 10:41:08.28	80.95	24.28	-34.3	-36.1	22.3	0.00e+00	0	41	0	1157627904	40	4364
2026-01-25 10:41:09.13	80.73	24.34	-34.4	-36.1	22.3	0.00e+00	0	41	0	1161822208	40	4371
2026-01-25 10:41:10.49	80.38	24.44	-34.3	-36.0	22.3	0.00e+00	0	41	0	1170210816	40	4333
2026-01-25 10:41:11.20	80.19	24.49	-34.2	-36.0	22.4	0.00e+00	0	41	0	1173356544	40	4301
2026-01-25 10:41:12.48	79.86	24.58	-34.1	-35.8	22.5	0.00e+00	0	41	0	1180696576	40	4238
2026-01-25 10:41:13.21	79.67	24.63	-34.1	-35.8	22.5	0.00e+00	0	41	0	1184890880	40	4225
2026-01-25 10:41:14.49	79.33	24.71	-34.0	-35.7	22.6	0.00e+00	0	41	0	1192230912	40	4185
2026-01-25 10:41:15.20	79.14	24.76	-34.0	-35.8	22.6	0.00e+00	0	41	0	1196425216	39	4448
2026-01-25 10:41:16.48	78.80	24.85	-34.2	-35.9	22.5	0.00e+00	0	41	0	1203765248	39	4532
2026-01-25 10:41:17.19	78.62	24.89	-34.2	-36.0	22.5	0.00e+00	0	41	0	1207959552	39	4547
2026-01-25 10:41:18.48	78.27	24.98	-34.2	-35.9	22.5	0.00e+00	0	41	0	1215299584	39	4545
2026-01-25 10:41:19.19	78.08	25.03	-34.2	-35.9	22.5	0.00e+00	0	41	0	1218445312	39	4529
2026-01-25 10:41:20.47	77.74	25.11	-34.2	-35.9	22.4	0.00e+00	0	41	0	1225785344	39	4545
2026-01-25 10:41:21.18	77.54	25.16	-34.3	-36.0	22.4	0.00e+00	0	41	0	1229979648	39	4583
2026-01-25 10:41:22.46	77.20	25.24	-34.4	-36.2	22.3	0.00e+00	0	41	0	1237319680	39	4663
2026-01-25 10:41:23.17	77.00	25.28	-34.4	-36.1	22.3	0.00e+00	0	41	0	1240465408	39	4645
2026-01-25 10:41:24.55	76.62	25.37	-34.2	-36.0	22.4	0.00e+00	0	41	0	1248854016	39	4568
2026-01-25 10:41:25.26	76.43	25.41	-34.2	-35.9	22.5	0.00e+00	0	41	0	1253048320	39	4526
2026-01-25 10:41:26.61	76.06	25.50	-34.1	-35.8	22.5	0.00e+00	0	41	0	1260388352	39	4491
2026-01-25 10:41:27.33	75.86	25.54	-34.1	-35.8	22.6	0.00e+00	0	41	0	1264582656	39	4492
2026-01-25 10:41:28.61	75.50	25.62	-34.2	-36.0	22.5	0.00e+00	0	41	0	1271922688	39	4565
2026-01-25 10:41:29.65	75.21	25.68	-34.1	-35.8	22.5	0.00e+00	0	41	0	1277165568	39	4486
2026-01-25 10:41:30.94	74.85	25.76	-34.0	-35.7	22.6	0.00e+00	0	41	0	1284505600	39	4425
2026-01-25 10:41:31.65	74.65	25.80	-34.0	-35.7	22.7	0.00e+00	0	41	0	1288699904	39	4408
2026-01-25 10:41:32.93	74.28	25.87	-34.0	-35.7	22.7	0.00e+00	0	41	0	1296039936	39	4413
2026-01-25 10:41:33.64	74.08	25.91	-34.0	-35.7	22.6	0.00e+00	0	41	0	1300234240	39	4432
2026-01-25 10:41:34.92	73.72	25.99	-34.1	-35.9	22.5	0.00e+00	0	41	0	1306525696	39	4498
2026-01-25 10:41:35.65	73.51	26.03	-34.2	-35.9	22.5	0.00e+00	0	41	0	1311768576	39	4539
2026-01-25 10:41:36.93	73.14	26.10	-34.1	-35.9	22.5	0.00e+00	0	41	0	1318060032	39	4495
2026-01-25 10:41:37.65	72.94	26.14	-34.1	-35.9	22.5	0.00e+00	0	41	0	1322254336	39	4506
2026-01-25 10:41:38.93	72.57	26.21	-34.1	-35.9	22.5	0.00e+00	0	41	0	1329594368	39	4518
2026-01-25 10:41:39.64	72.36	26.24	-34.0	-35.7	22.6	0.00e+00	0	41	0	1333788672	39	4438
2026-01-25 10:41:41.05	71.95	26.32	-33.9	-35.6	22.7	0.00e+00	0	41	0	1341128704	39	4389
2026-01-25 10:41:41.76	71.74	26.35	-33.9	-35.6	22.7	0.00e+00	0	41	0	1345323008	39	4380
2026-01-25 10:41:43.07	71.36	26.42	-34.1	-35.8	22.5	0.00e+00	0	41	0	1352663040	39	4484
2026-01-25 10:41:43.78	71.15	26.46	-34.2	-36.0	22.4	0.00e+00	0	41	0	1356857344	39	4550
2026-01-25 10:41:45.18	70.74	26.52	-34.2	-35.9	22.4	0.00e+00	0	41	0	1365245952	39	4543
2026-01-25 10:41:45.89	70.53	26.56	-34.1	-35.9	22.5	0.00e+00	0	41	0	1369440256	39	4499
2026-01-25 10:41:47.27	70.12	26.63	-34.1	-35.8	22.6	0.00e+00	0	41	0	1376780288	39	4467
2026-01-25 10:41:48.23	69.83	26.67	-34.0	-35.7	22.6	0.00e+00	0	41	0	1382023168	39	4437
2026-01-25 10:41:49.22	69.54	26.72	-33.8	-35.5	22.9	0.00e+00	0	41	0	1387266048	39	4302
2026-01-25 10:41:50.22	69.24	26.76	-33.8	-35.5	22.8	0.00e+00	0	41	0	1393557504	39	4338
2026-01-25 10:41:51.21	68.94	26.81	-33.9	-35.7	22.8	0.00e+00	0	41	0	1398800384	39	4396
2026-01-25 10:41:52.21	68.64	26.85	-33.9	-35.6	22.8	0.00e+00	0	41	0	1404043264	39	4369
2026-01-25 10:41:53.20	68.34	26.89	-33.8	-35.5	22.9	0.00e+00	0	41	0	1410334720	39	4319
2026-01-25 10:41:54.20	68.04	26.93	-33.8	-35.6	22.8	0.00e+00	0	41	0	1415577600	39	4357
2026-01-25 10:41:55.19	67.74	26.97	-33.8	-35.5	22.9	0.00e+00	0	41	0	1420820480	39	4326
2026-01-25 10:41:56.24	67.42	27.02	-33.8	-35.5	22.9	0.00e+00	0	41	0	1427111936	39	4314
2026-01-25 10:41:57.22	67.12	27.06	-33.8	-35.6	22.9	0.00e+00	0	41	0	1432354816	39	4343
2026-01-25 10:41:58.21	66.81	27.09	-33.8	-35.5	22.9	0.00e+00	0	41	0	1437597696	39	4314
2026-01-25 10:41:59.33	66.47	27.14	-33.8	-35.5	22.9	0.00e+00	0	41	0	1444937728	39	4332
2026-01-25 10:42:00.22	66.20	27.17	-33.8	-35.5	22.8	0.00e+00	0	41	0	1449132032	39	4336
2026-01-25 10:42:01.35	65.85	27.21	-33.8	-35.5	22.8	0.00e+00	0	41	0	1455423488	39	4322
2026-01-25 10:42:02.20	65.59	27.24	-33.8	-35.6	22.8	0.00e+00	0	41	0	1460666368	39	4349
2026-01-25 10:42:03.58	65.16	27.29	-33.8	-35.6	22.8	0.00e+00	0	41	0	1468006400	39	4344
2026-01-25 10:42:04.29	64.94	27.31	-33.9	-35.6	22.7	0.00e+00	0	41	0	1472200704	39	4382
2026-01-25 10:42:05.57	64.54	27.35	-34.0	-35.8	22.6	0.00e+00	0	41	0	1479540736	39	4457
2026-01-25 10:42:06.29	64.32	27.38	-33.9	-35.6	22.7	0.00e+00	0	41	0	1483735040	39	4384
2026-01-25 10:42:07.57	63.92	27.42	-33.9	-35.6	22.7	0.00e+00	0	41	0	1491075072	39	4380
2026-01-25 10:42:08.28	63.70	27.44	-33.9	-35.6	22.7	0.00e+00	0	41	0	1495269376	39	4370
2026-01-25 10:42:09.56	63.30	27.47	-33.9	-35.6	22.8	0.00e+00	0	41	0	1501560832	39	4357
2026-01-25 10:42:10.29	63.07	27.49	-33.8	-35.5	22.9	0.00e+00	0	41	0	1505755136	39	4321
2026-01-25 10:42:11.57	62.66	27.53	-33.7	-35.4	22.9	0.00e+00	0	41	0	1513095168	39	4287
2026-01-25 10:42:12.29	62.44	27.55	-33.7	-35.4	23.0	0.00e+00	0	41	0	1517289472	39	4251
2026-01-25 10:42:13.57	62.03	27.58	-33.8	-35.5	22.9	0.00e+00	0	41	0	1524629504	39	4340
2026-01-25 10:42:14.28	61.81	27.60	-33.8	-35.5	22.9	0.00e+00	0	41	0	1528823808	39	4318
2026-01-25 10:42:15.56	61.41	27.63	-33.9	-35.6	22.9	0.00e+00	0	41	0	1536163840	39	4360
2026-01-25 10:42:16.28	61.18	27.64	-33.8	-35.6	22.9	0.00e+00	0	41	0	1540358144	39	4341
2026-01-25 10:42:17.56	60.77	27.67	-33.6	-35.3	23.1	0.00e+00	0	41	0	1546649600	39	4232
2026-01-25 10:42:18.27	60.55	27.69	-33.5	-35.2	23.2	0.00e+00	0	41	0	1550843904	38	4398
2026-01-25 10:42:19.55	60.14	27.71	-33.6	-35.3	23.1	0.00e+00	0	41	0	1558183936	38	4449
2026-01-25 10:42:20.26	59.91	27.72	-33.6	-35.4	23.0	0.00e+00	0	41	0	1562378240	38	4495
2026-01-25 10:42:21.54	59.50	27.75	-33.6	-35.3	23.0	0.00e+00	0	41	0	1569718272	38	4463
2026-01-25 10:42:22.25	59.28	27.76	-33.5	-35.2	23.2	0.00e+00	0	41	0	1573912576	38	4400
2026-01-25 10:42:23.53	58.87	27.78	-33.5	-35.3	23.1	0.00e+00	0	41	0	1580204032	38	4448
2026-01-25 10:42:24.27	58.63	27.79	-33.6	-35.3	23.1	0.00e+00	0	41	0	1584398336	38	4480
2026-01-25 10:42:25.56	58.22	27.81	-33.6	-35.3	23.1	0.00e+00	0	41	0	1591738368	38	4465
2026-01-25 10:42:26.28	57.99	27.82	-33.6	-35.3	23.0	0.00e+00	0	41	0	1595932672	38	4485
2026-01-25 10:42:27.56	57.58	27.83	-33.6	-35.3	23.1	0.00e+00	0	41	0	1603272704	38	4460
2026-01-25 10:42:28.30	57.34	27.84	-33.6	-35.3	23.1	0.00e+00	0	41	0	1607467008	38	4476
2026-01-25 10:42:29.58	56.93	27.85	-33.7	-35.5	23.0	0.00e+00	0	41	0	1614807040	38	4550
2026-01-25 10:42:30.30	56.70	27.86	-33.7	-35.5	23.0	0.00e+00	0	41	0	1619001344	38	4554
2026-01-25 10:42:31.58	56.29	27.87	-33.8	-35.5	22.8	0.00e+00	0	41	0	1626341376	38	4595
2026-01-25 10:42:32.29	56.06	27.87	-33.8	-35.5	22.9	0.00e+00	0	41	0	1629487104	38	4585
2026-01-25 10:42:33.56	55.65	27.88	-33.8	-35.5	22.8	0.00e+00	0	41	0	1636827136	38	4587
2026-01-25 10:42:34.27	55.43	27.88	-33.8	-35.5	22.9	0.00e+00	0	41	0	1641021440	38	4573
2026-01-25 10:42:35.55	55.01	27.89	-33.7	-35.4	22.9	0.00e+00	0	41	0	1648361472	38	4520
2026-01-25 10:42:36.29	54.78	27.89	-33.6	-35.3	23.0	0.00e+00	0	41	0	1652555776	38	4466
2026-01-25 10:42:37.57	54.36	27.89	-33.6	-35.3	23.0	0.00e+00	0	41	0	1659895808	38	4479
2026-01-25 10:42:38.28	54.14	27.89	-33.6	-35.3	23.0	0.00e+00	0	41	0	1664090112	38	4485
2026-01-25 10:42:39.65	53.69	27.89	-33.5	-35.2	23.1	0.00e+00	0	41	0	1671430144	38	4437
2026-01-25 10:42:40.65	53.37	27.89	-33.5	-35.2	23.1	0.00e+00	0	41	0	1676673024	38	4433
2026-01-25 10:42:41.94	52.96	27.89	-33.5	-35.3	23.1	0.00e+00	0	41	0	1684013056	38	4442
2026-01-25 10:42:42.67	52.72	27.88	-33.6	-35.3	23.0	0.00e+00	0	41	0	1688207360	38	4492
2026-01-25 10:42:44.25	52.22	27.88	-33.5	-35.2	23.2	0.00e+00	0	41	0	1697644544	38	4402
2026-01-25 10:42:44.89	52.01	27.87	-33.5	-35.2	23.1	0.00e+00	0	41	0	1700790272	38	4421
2026-01-25 10:42:46.31	51.55	27.86	-33.7	-35.4	23.0	0.00e+00	0	41	0	1709178880	38	4517
2026-01-25 10:42:47.02	51.33	27.86	-33.7	-35.4	23.0	0.00e+00	0	41	0	1712324608	38	4541
2026-01-25 10:42:48.30	50.92	27.85	-33.7	-35.5	23.0	0.00e+00	0	41	0	1719664640	38	4549
2026-01-25 10:42:49.01	50.69	27.84	-33.6	-35.4	23.1	0.00e+00	0	41	0	1723858944	38	4498
2026-01-25 10:42:50.29	50.28	27.83	-33.7	-35.4	23.0	0.00e+00	0	41	0	1731198976	38	4530
2026-01-25 10:42:51.03	50.04	27.82	-33.7	-35.4	23.0	0.00e+00	0	41	0	1735393280	38	4534
2026-01-25 10:42:52.31	49.63	27.80	-33.6	-35.3	23.0	0.00e+00	0	41	0	1742733312	38	4489
2026-01-25 10:42:53.02	49.40	27.79	-33.7	-35.4	23.0	0.00e+00	0	41	0	1745879040	38	4514
2026-01-25 10:42:54.30	49.00	27.77	-33.8	-35.6	22.8	0.00e+00	0	41	0	1753219072	38	4608
2026-01-25 10:42:55.02	48.77	27.76	-33.8	-35.5	22.8	0.00e+00	0	41	0	1757413376	38	4566
2026-01-25 10:42:56.31	48.35	27.74	-33.7	-35.4	22.9	0.00e+00	0	41	0	1764753408	38	4536
2026-01-25 10:42:57.08	48.11	27.72	-33.7	-35.4	22.9	0.00e+00	0	41	0	1768947712	38	4545
2026-01-25 10:42:58.65	47.61	27.69	-33.8	-35.4	23.6	0.00e+00	0	41	0	1778384896	38	4527
2026-01-25 10:42:59.28	47.41	27.68	-33.8	-35.4	23.6	0.00e+00	0	41	0	1781530624	38	4532
2026-01-25 10:43:00.78	46.93	27.65	-33.8	-35.4	23.6	0.00e+00	0	41	0	1789919232	38	4522
2026-01-25 10:43:01.68	46.65	27.63	-33.7	-35.3	23.7	0.00e+00	0	41	0	1795162112	38	4451
2026-01-25 10:43:02.70	46.33	27.61	-33.7	-35.4	23.6	0.00e+00	0	41	0	1800404992	38	4499
2026-01-25 10:43:03.70	46.01	27.58	-33.7	-35.3	23.7	0.00e+00	0	41	0	1806696448	38	4488
2026-01-25 10:43:04.69	45.70	27.56	-33.7	-35.4	23.6	0.00e+00	0	41	0	1811939328	38	4499
2026-01-25 10:43:05.69	45.39	27.53	-33.6	-35.2	23.8	0.00e+00	0	41	0	1818230784	38	4435
2026-01-25 10:43:06.69	45.07	27.51	-33.5	-35.1	23.8	0.00e+00	0	41	0	1823473664	38	4391
2026-01-25 10:43:07.68	44.76	27.48	-33.6	-35.2	23.8	0.00e+00	0	41	0	1828716544	38	4431
2026-01-25 10:43:08.68	44.45	27.45	-33.7	-35.4	23.7	0.00e+00	0	41	0	1835008000	38	4498
2026-01-25 10:43:09.67	44.14	27.42	-33.8	-35.4	23.6	0.00e+00	0	41	0	1840250880	38	4521
2026-01-25 10:43:10.67	43.83	27.39	-33.7	-35.3	23.7	0.00e+00	0	41	0	1845493760	38	4465
2026-01-25 10:43:11.76	43.49	27.35	-33.7	-35.3	23.7	0.00e+00	0	41	0	1851785216	38	4489
2026-01-25 10:43:12.64	43.21	27.33	-33.7	-35.4	23.7	0.00e+00	0	41	0	1857028096	38	4503
2026-01-25 10:43:13.78	42.86	27.29	-33.9	-35.5	23.5	0.00e+00	0	41	0	1863319552	38	4570
2026-01-25 10:43:14.69	42.58	27.26	-33.8	-35.4	23.6	0.00e+00	0	41	0	1868562432	38	4534
2026-01-25 10:43:15.85	42.22	27.22	-33.7	-35.3	23.7	0.00e+00	0	41	0	1874853888	38	4482
2026-01-25 10:43:16.72	41.95	27.19	-33.6	-35.2	23.8	0.00e+00	0	41	0	1880096768	38	4413
2026-01-25 10:43:18.01	41.56	27.14	-33.5	-35.1	23.9	0.00e+00	0	41	0	1887436800	38	4384
2026-01-25 10:43:18.72	41.34	27.11	-33.5	-35.1	23.9	0.00e+00	0	41	0	1890582528	38	4356
2026-01-25 10:43:20.18	40.90	27.06	-33.5	-35.2	23.8	0.00e+00	0	41	0	1898971136	38	4403
2026-01-25 10:43:20.89	40.68	27.03	-33.5	-35.1	23.9	0.00e+00	0	41	0	1903165440	38	4374
2026-01-25 10:43:22.17	40.29	26.98	-33.6	-35.2	23.8	0.00e+00	0	41	0	1910505472	38	4405
2026-01-25 10:43:22.88	40.07	26.95	-33.7	-35.3	23.7	0.00e+00	0	41	0	1914699776	38	4466
2026-01-25 10:43:24.16	39.69	26.89	-33.8	-35.4	23.6	0.00e+00	0	41	0	1922039808	38	4514
2026-01-25 10:43:24.88	39.47	26.86	-33.8	-35.4	23.6	0.00e+00	0	41	0	1926234112	38	4537
2026-01-25 10:43:26.16	39.09	26.81	-33.8	-35.5	23.5	0.00e+00	0	41	0	1932525568	38	4558
2026-01-25 10:43:26.87	38.87	26.77	-33.9	-35.6	23.5	0.00e+00	0	41	0	1936719872	38	4609
2026-01-25 10:43:28.15	38.49	26.72	-34.0	-35.6	23.4	0.00e+00	0	41	0	1944059904	38	4648
2026-01-25 10:43:28.86	38.28	26.68	-33.9	-35.6	23.5	0.00e+00	0	41	0	1948254208	38	4610
2026-01-25 10:43:30.14	37.90	26.62	-33.9	-35.5	23.5	0.00e+00	0	41	0	1955594240	38	4589
2026-01-25 10:43:30.86	37.69	26.59	-33.9	-35.5	23.5	0.00e+00	0	41	0	1959788544	38	4573
2026-01-25 10:43:32.13	37.31	26.53	-33.8	-35.5	23.6	0.00e+00	0	41	0	1966080000	38	4550
2026-01-25 10:43:33.19	37.00	26.48	-33.8	-35.5	23.6	0.00e+00	0	41	0	1972371456	38	4558
2026-01-25 10:43:34.08	36.74	26.43	-33.9	-35.5	23.5	0.00e+00	0	41	0	1977614336	38	4572
2026-01-25 10:43:35.21	36.41	26.37	-33.8	-35.5	23.6	0.00e+00	0	41	0	1983905792	38	4551
2026-01-25 10:43:36.07	36.16	26.33	-33.7	-35.3	23.7	0.00e+00	0	40	0	1988100096	38	4457
2026-01-25 10:43:37.21	35.82	26.27	-33.7	-35.3	23.7	0.00e+00	0	41	0	1995440128	38	4473
2026-01-25 10:43:38.06	35.58	26.23	-33.8	-35.4	23.6	0.00e+00	0	41	0	1999634432	38	4516
2026-01-25 10:43:39.20	35.25	26.17	-33.8	-35.4	23.6	0.00e+00	0	41	0	2005925888	38	4517
2026-01-25 10:43:40.05	35.00	26.12	-33.8	-35.4	23.6	0.00e+00	0	41	0	2011168768	38	4535
2026-01-25 10:43:41.19	34.68	26.06	-33.8	-35.4	23.6	0.00e+00	0	41	0	2017460224	38	4530
2026-01-25 10:43:42.04	34.44	26.01	-33.8	-35.4	23.6	0.00e+00	0	41	0	2022703104	38	4528
2026-01-25 10:43:43.17	34.11	25.95	-33.8	-35.4	23.6	0.00e+00	0	41	0	2027945984	38	4522
2026-01-25 10:43:44.09	33.85	25.89	-33.8	-35.4	23.6	0.00e+00	0	41	0	2034237440	38	4513
2026-01-25 10:43:45.26	33.52	25.83	-33.7	-35.3	23.7	0.00e+00	0	41	0	2040528896	38	4485
2026-01-25 10:43:46.14	33.27	25.78	-33.7	-35.4	23.6	0.00e+00	0	41	0	2045771776	38	4497
2026-01-25 10:43:47.28	32.95	25.71	-33.8	-35.4	23.6	0.00e+00	0	41	0	2052063232	38	4523
2026-01-25 10:43:48.19	32.70	25.66	-33.8	-35.5	23.5	0.00e+00	0	41	0	2057306112	38	4555
2026-01-25 10:43:49.36	32.38	25.59	-33.9	-35.5	23.5	0.00e+00	0	41	0	2063597568	38	4593
2026-01-25 10:43:50.25	32.13	25.53	-34.0	-35.6	23.4	0.00e+00	0	41	0	2068840448	38	4632
2026-01-25 10:43:51.39	31.81	25.46	-34.0	-35.7	23.4	0.00e+00	0	41	0	2075131904	38	4665
2026-01-25 10:43:52.30	31.56	25.41	-34.1	-35.7	23.3	0.00e+00	0	41	0	2080374784	38	4680
2026-01-25 10:43:53.47	31.24	25.33	-34.1	-35.7	23.3	0.00e+00	0	41	0	2086666240	38	4704
2026-01-25 10:43:54.33	31.01	25.28	-34.1	-35.8	23.3	0.00e+00	0	41	0	2091909120	38	4739
2026-01-25 10:43:55.47	30.70	25.21	-34.2	-35.9	23.2	0.00e+00	0	41	0	2097152000	39	4525
2026-01-25 10:43:56.32	30.47	25.15	-34.2	-35.8	23.2	0.00e+00	0	41	0	2102394880	39	4479
2026-01-25 10:43:57.46	30.16	25.08	-34.1	-35.7	23.3	0.00e+00	0	41	0	2108686336	39	4419
2026-01-25 10:43:58.31	29.93	25.02	-34.1	-35.7	23.3	0.00e+00	0	41	0	2113929216	39	4423
2026-01-25 10:43:59.45	29.63	24.95	-34.1	-35.7	23.4	0.00e+00	0	41	0	2120220672	39	4422
2026-01-25 10:44:00.30	29.40	24.89	-34.0	-35.7	23.4	0.00e+00	0	41	0	2124414976	39	4400
2026-01-25 10:44:01.44	29.10	24.82	-34.1	-35.8	23.2	0.00e+00	0	41	0	2131755008	39	4461
2026-01-25 10:44:02.29	28.88	24.76	-34.2	-35.9	23.2	0.00e+00	0	41	0	2135949312	39	4495
2026-01-25 10:44:03.43	28.58	24.68	-34.2	-35.8	23.2	0.00e+00	0	41	0	2142240768	39	4478
2026-01-25 10:44:04.28	28.36	24.62	-34.1	-35.7	23.3	0.00e+00	0	41	0	2147483648	39	4436
2026-01-25 10:44:05.42	28.06	24.55	-34.1	-35.8	23.3	0.00e+00	0	41	0	2153775104	39	4462
2026-01-25 10:44:06.27	27.84	24.49	-34.2	-35.9	23.2	0.00e+00	0	41	0	2157969408	39	4499
2026-01-25 10:44:07.50	27.52	24.40	-34.2	-35.9	23.2	0.00e+00	0	41	0	2165309440	39	4515
2026-01-25 10:44:08.36	27.30	24.34	-34.4	-36.0	23.1	0.00e+00	0	41	0	2170552320	39	4586
2026-01-25 10:44:09.50	27.01	24.26	-34.2	-35.8	23.2	0.00e+00	0	40	0	2176843776	39	4480
2026-01-25 10:44:10.35	26.79	24.20	-34.1	-35.7	23.3	0.00e+00	0	41	0	2181038080	39	4432
2026-01-25 10:44:11.69	26.45	24.11	-34.1	-35.7	23.3	0.00e+00	0	41	0	2189426688	39	4419
2026-01-25 10:44:12.40	26.28	24.05	-33.9	-35.5	23.5	0.00e+00	0	41	0	2192572416	39	4301
2026-01-25 10:44:13.68	25.95	23.96	-33.8	-35.5	23.6	0.00e+00	0	41	0	2199912448	39	4302
2026-01-25 10:44:14.41	25.77	23.91	-33.9	-35.5	23.5	0.00e+00	0	41	0	2204106752	39	4338
2026-01-25 10:44:15.69	25.45	23.82	-34.1	-35.7	23.3	0.00e+00	0	41	0	2211446784	39	4432
2026-01-25 10:44:16.42	25.27	23.76	-34.1	-35.8	23.2	0.00e+00	0	41	0	2215641088	39	4478
2026-01-25 10:44:17.69	24.96	23.67	-34.3	-35.9	23.1	0.00e+00	0	41	0	2222981120	39	4540
2026-01-25 10:44:18.50	24.76	23.61	-34.2	-35.9	23.1	0.00e+00	0	41	0	2227175424	39	4507
2026-01-25 10:44:19.64	24.49	23.52	-34.3	-35.9	23.1	0.00e+00	0	41	0	2233466880	39	4524
2026-01-25 10:44:20.69	24.23	23.45	-34.1	-35.8	23.3	0.00e+00	0	41	0	2239758336	39	4445
2026-01-25 10:44:21.75	23.97	23.37	-34.2	-35.8	23.2	0.00e+00	0	41	0	2246049792	39	4478
2026-01-25 10:44:22.76	23.73	23.29	-34.2	-35.9	23.2	0.00e+00	0	41	0	2251292672	39	4520
2026-01-25 10:44:23.76	23.49	23.21	-34.3	-35.9	23.1	0.00e+00	0	41	0	2256535552	39	4543
2026-01-25 10:44:24.94	23.21	23.12	-34.2	-35.9	23.1	0.00e+00	0	41	0	2263875584	39	4527
2026-01-25 10:44:25.82	23.01	23.06	-34.2	-35.9	23.1	0.00e+00	0	41	0	2268069888	39	4526
2026-01-25 10:44:27.12	22.70	22.96	-34.3	-36.0	23.1	0.00e+00	0	41	0	2275409920	39	4548
2026-01-25 10:44:27.83	22.53	22.90	-34.3	-35.9	23.1	0.00e+00	0	41	0	2279604224	39	4536
2026-01-25 10:44:29.11	22.24	22.80	-34.3	-36.0	23.1	0.00e+00	0	41	0	2286944256	39	4577
2026-01-25 10:44:30.30	21.96	22.71	-34.4	-36.0	23.1	0.00e+00	0	41	0	2293235712	39	4575
2026-01-25 10:44:31.15	21.77	22.65	-34.3	-36.0	23.1	0.00e+00	0	41	0	2298478592	39	4559
2026-01-25 10:44:32.29	21.50	22.56	-34.3	-35.9	23.2	0.00e+00	0	41	0	2304770048	39	4530
2026-01-25 10:44:33.15	21.31	22.49	-34.4	-36.1	23.0	0.00e+00	0	41	0	2310012928	39	4603
2026-01-25 10:44:34.28	21.05	22.40	-34.5	-36.2	22.9	0.00e+00	0	41	0	2316304384	39	4673
2026-01-25 10:44:35.13	20.86	22.33	-34.6	-36.3	22.8	0.00e+00	0	41	0	2320498688	39	4715
2026-01-25 10:44:36.30	20.60	22.24	-34.6	-36.3	22.8	0.00e+00	0	41	0	2327838720	40	4456
2026-01-25 10:44:37.16	20.41	22.17	-34.6	-36.3	22.7	0.00e+00	0	41	0	2332033024	40	4481
2026-01-25 10:44:38.29	20.16	22.08	-34.6	-36.3	22.7	0.00e+00	0	41	0	2338324480	40	4470
2026-01-25 10:44:39.15	19.97	22.01	-34.7	-36.4	22.6	0.00e+00	0	41	0	2343567360	40	4519
2026-01-25 10:44:40.28	19.72	21.92	-34.7	-36.4	22.6	0.00e+00	0	41	0	2349858816	40	4526
2026-01-25 10:44:41.14	19.53	21.86	-34.8	-36.4	22.6	0.00e+00	0	41	0	2355101696	40	4541
2026-01-25 10:44:42.48	19.24	21.75	-34.7	-36.3	22.7	0.00e+00	0	41	0	2362441728	40	4485
2026-01-25 10:44:43.19	19.09	21.69	-34.6	-36.3	22.7	0.00e+00	0	41	0	2366636032	40	4452
2026-01-25 10:44:44.47	18.81	21.59	-34.7	-36.3	22.7	0.00e+00	0	41	0	2372927488	40	4492
2026-01-25 10:44:45.18	18.66	21.53	-34.6	-36.3	22.7	0.00e+00	0	41	0	2377121792	40	4483
2026-01-25 10:44:46.46	18.39	21.43	-34.7	-36.4	22.6	0.00e+00	0	41	0	2384461824	40	4527
2026-01-25 10:44:47.20	18.23	21.37	-34.7	-36.4	22.6	0.00e+00	0	41	0	2388656128	40	4540
2026-01-25 10:44:48.48	17.96	21.26	-34.7	-36.4	22.6	0.00e+00	0	41	0	2395996160	40	4517
2026-01-25 10:44:49.19	17.81	21.20	-34.7	-36.4	22.6	0.00e+00	0	41	0	2400190464	40	4533
2026-01-25 10:44:50.47	17.54	21.10	-34.7	-36.4	22.6	0.00e+00	0	41	0	2407530496	40	4520
2026-01-25 10:44:51.18	17.40	21.04	-34.8	-36.4	22.6	0.00e+00	0	41	0	2411724800	40	4542
2026-01-25 10:44:52.46	17.13	20.94	-34.7	-36.4	22.6	0.00e+00	0	41	0	2418016256	40	4505
2026-01-25 10:44:53.17	16.99	20.88	-34.8	-36.5	22.6	0.00e+00	0	41	0	2422210560	40	4554
2026-01-25 10:44:54.45	16.73	20.77	-34.8	-36.5	22.5	0.00e+00	0	41	0	2429550592	40	4588
2026-01-25 10:44:55.16	16.58	20.72	-34.8	-36.5	22.5	0.00e+00	0	41	0	2433744896	40	4586
2026-01-25 10:44:56.55	16.30	20.60	-34.8	-36.5	22.5	0.00e+00	0	41	0	2441084928	40	4587
2026-01-25 10:44:57.26	16.16	20.54	-34.9	-36.5	22.5	0.00e+00	0	41	0	2445279232	40	4597
2026-01-25 10:44:58.54	15.91	20.44	-34.9	-36.6	22.5	0.00e+00	0	41	0	2452619264	40	4602
2026-01-25 10:44:59.25	15.77	20.38	-35.0	-36.7	22.4	0.00e+00	0	41	0	2456813568	40	4671
2026-01-25 10:45:00.53	15.51	20.27	-34.8	-36.5	22.5	0.00e+00	0	41	0	2464153600	40	4573
2026-01-25 10:45:01.24	15.37	20.21	-34.8	-36.5	22.5	0.00e+00	0	41	0	2467299328	40	4579
2026-01-25 10:45:02.52	15.12	20.11	-34.9	-36.6	22.4	0.00e+00	0	41	0	2474639360	40	4612
2026-01-25 10:45:03.23	14.99	20.05	-34.9	-36.6	22.2	0.00e+00	0	41	0	2478833664	40	4606
2026-01-25 10:45:04.51	14.74	19.94	-34.7	-36.4	22.7	0.00e+00	0	41	0	2486173696	40	4501
2026-01-25 10:45:05.22	14.60	19.88	-34.6	-36.3	22.7	0.00e+00	0	41	0	2490368000	40	4455
2026-01-25 10:45:06.50	14.36	19.78	-34.7	-36.4	22.6	0.00e+00	0	41	0	2497708032	40	4495
2026-01-25 10:45:07.22	14.22	19.72	-34.8	-36.5	22.5	0.00e+00	0	41	0	2500853760	40	4558
2026-01-25 10:45:08.50	13.98	19.61	-34.9	-36.6	22.5	0.00e+00	0	41	0	2508193792	40	4609
2026-01-25 10:45:09.21	13.85	19.55	-34.9	-36.5	22.5	0.00e+00	0	41	0	2512388096	40	4591
2026-01-25 10:45:10.49	13.61	19.45	-34.9	-36.6	22.5	0.00e+00	0	41	0	2519728128	40	4618
2026-01-25 10:45:11.21	13.48	19.39	-35.0	-36.7	22.4	0.00e+00	0	41	0	2523922432	40	4658
2026-01-25 10:45:12.48	13.24	19.28	-34.9	-36.7	22.4	0.00e+00	0	41	0	2531262464	40	4662
2026-01-25 10:45:13.21	13.11	19.22	-35.0	-36.8	22.3	0.00e+00	0	41	0	2535456768	40	4719
2026-01-25 10:45:14.57	12.86	19.10	-35.1	-36.8	22.2	0.00e+00	0	41	0	2542796800	40	4755
2026-01-25 10:45:15.28	12.73	19.05	-35.1	-36.8	22.2	0.00e+00	0	41	0	2546991104	40	4744
2026-01-25 10:45:16.62	12.49	18.93	-35.1	-36.8	22.2	0.00e+00	0	41	0	2554331136	40	4751
2026-01-25 10:45:17.33	12.36	18.87	-35.3	-37.1	22.0	0.00e+00	0	41	0	2558525440	41	4600
2026-01-25 10:45:18.61	12.13	18.77	-35.2	-36.9	22.2	0.00e+00	0	41	0	2565865472	41	4510
2026-01-25 10:45:19.67	11.95	18.68	-35.2	-37.0	22.1	0.00e+00	0	41	0	2571108352	41	4547
2026-01-25 10:45:20.85	11.74	18.58	-35.3	-37.1	22.0	0.00e+00	0	41	0	2578448384	41	4610
2026-01-25 10:45:21.70	11.59	18.51	-35.4	-37.2	21.9	0.00e+00	0	41	0	2582642688	41	4679
2026-01-25 10:45:22.84	11.39	18.41	-35.4	-37.2	21.9	0.00e+00	0	41	0	2588934144	41	4685
2026-01-25 10:45:23.69	11.24	18.34	-35.4	-37.2	21.9	0.00e+00	0	41	0	2594177024	41	4670
2026-01-25 10:45:24.83	11.05	18.25	-35.4	-37.1	21.9	0.00e+00	0	41	0	2600468480	41	4648
2026-01-25 10:45:25.69	10.90	18.18	-35.3	-37.1	22.0	0.00e+00	0	41	0	2605711360	41	4627
2026-01-25 10:45:26.82	10.71	18.08	-35.3	-37.1	22.0	0.00e+00	0	41	0	2610954240	41	4623
2026-01-25 10:45:27.67	10.56	18.01	-35.4	-37.2	21.9	0.00e+00	0	41	0	2616197120	41	4655
2026-01-25 10:45:28.81	10.37	17.92	-35.3	-37.0	22.0	0.00e+00	0	41	0	2622488576	41	4585
2026-01-25 10:45:29.66	10.23	17.85	-35.3	-37.0	22.0	0.00e+00	0	41	0	2627731456	41	4588
2026-01-25 10:45:30.91	10.02	17.74	-35.4	-37.2	21.9	0.00e+00	0	41	0	2634022912	41	4663
2026-01-25 10:45:31.76	9.88	17.67	-35.5	-37.3	21.8	0.00e+00	0	41	0	2639265792	41	4724
2026-01-25 10:45:32.90	9.69	17.58	-35.6	-37.3	21.8	0.00e+00	0	41	0	2645557248	41	4744
2026-01-25 10:45:33.75	9.55	17.50	-35.6	-37.4	21.7	0.00e+00	0	41	0	2650800128	42	4505
2026-01-25 10:45:35.03	9.35	17.40	-35.5	-37.3	21.8	0.00e+00	0	41	0	2658140160	42	4471
2026-01-25 10:45:35.74	9.23	17.34	-35.6	-37.4	21.7	0.00e+00	0	41	0	2662334464	42	4533
2026-01-25 10:45:37.02	9.03	17.23	-35.6	-37.4	21.7	0.00e+00	0	41	0	2668625920	42	4528
2026-01-25 10:45:37.73	8.91	17.17	-35.7	-37.5	21.6	0.00e+00	0	41	0	2672820224	42	4554
2026-01-25 10:45:39.01	8.71	17.07	-35.7	-37.5	21.6	0.00e+00	0	41	0	2680160256	42	4592
2026-01-25 10:45:39.73	8.59	17.01	-35.7	-37.5	21.6	0.00e+00	0	41	0	2684354560	42	4580
2026-01-25 10:45:41.01	8.39	16.90	-35.8	-37.6	21.5	0.00e+00	0	41	0	2691694592	42	4607
2026-01-25 10:45:41.72	8.28	16.84	-35.8	-37.6	21.5	0.00e+00	0	41	0	2694840320	42	4627
2026-01-25 10:45:43.00	8.08	16.74	-35.8	-37.6	21.5	0.00e+00	0	41	0	2702180352	42	4612
2026-01-25 10:45:43.73	7.97	16.68	-35.8	-37.5	21.6	0.00e+00	0	41	0	2706374656	42	4587
2026-01-25 10:45:45.01	7.77	16.57	-35.9	-37.7	21.5	0.00e+00	0	41	0	2713714688	42	4657
2026-01-25 10:45:45.72	7.67	16.51	-35.9	-37.7	21.4	0.00e+00	0	41	0	2717908992	42	4659
2026-01-25 10:45:47.08	7.46	16.40	-35.9	-37.7	21.4	0.00e+00	0	41	0	2725249024	42	4674
2026-01-25 10:45:47.79	7.35	16.34	-35.9	-37.7	21.4	0.00e+00	0	41	0	2729443328	42	4698
2026-01-25 10:45:49.16	7.15	16.23	-35.9	-37.7	21.4	0.00e+00	0	40	0	2736783360	42	4679
2026-01-25 10:45:49.87	7.04	16.17	-35.9	-37.7	21.4	0.00e+00	0	41	0	2740977664	42	4652
2026-01-25 10:45:51.15	6.85	16.07	-36.0	-37.8	21.4	0.00e+00	0	40	0	2748317696	42	4707
2026-01-25 10:45:51.87	6.74	16.01	-36.0	-37.8	21.3	0.00e+00	0	41	0	2752512000	42	4745
2026-01-25 10:45:53.25	6.54	15.89	-36.2	-38.0	21.1	0.00e+00	0	41	0	2759852032	43	4557
2026-01-25 10:45:53.96	6.44	15.83	-36.2	-38.0	21.1	0.00e+00	0	41	0	2764046336	43	4567
2026-01-25 10:45:55.24	6.25	15.73	-36.2	-38.0	21.0	0.00e+00	0	41	0	2771386368	43	4594
2026-01-25 10:45:55.95	6.15	15.67	-36.2	-38.0	21.1	0.00e+00	0	41	0	2775580672	43	4597
2026-01-25 10:45:57.23	5.96	15.57	-36.3	-38.1	21.0	0.00e+00	0	41	0	2782920704	43	4645
2026-01-25 10:45:57.96	5.86	15.51	-36.2	-38.0	21.1	0.00e+00	0	41	0	2787115008	43	4595
2026-01-25 10:45:59.24	5.68	15.40	-36.2	-38.0	21.1	0.00e+00	0	41	0	2794455040	43	4554
2026-01-25 10:45:59.95	5.58	15.35	-36.2	-38.0	21.1	0.00e+00	0	40	0	2797600768	43	4565
2026-01-25 10:46:01.22	5.40	15.24	-36.1	-37.9	21.2	0.00e+00	0	41	0	2804940800	43	4519
2026-01-25 10:46:01.95	5.30	15.18	-36.1	-37.9	21.2	0.00e+00	0	41	0	2809135104	43	4500
2026-01-25 10:46:03.23	5.12	15.08	-36.2	-38.0	21.1	0.00e+00	0	41	0	2816475136	43	4558
2026-01-25 10:46:03.94	5.02	15.02	-36.2	-38.0	21.1	0.00e+00	0	41	0	2820669440	43	4558
2026-01-25 10:46:05.22	4.85	14.92	-36.2	-38.0	21.1	0.00e+00	0	41	0	2826960896	43	4587
2026-01-25 10:46:06.10	4.73	14.85	-36.3	-38.1	21.0	0.00e+00	0	41	0	2832203776	43	4609
2026-01-25 10:46:07.24	4.57	14.76	-36.3	-38.1	21.0	0.00e+00	0	40	0	2838495232	43	4649
2026-01-25 10:46:08.09	4.46	14.69	-36.3	-38.1	21.0	0.00e+00	0	41	0	2843738112	43	4617
2026-01-25 10:46:09.23	4.30	14.60	-36.3	-38.1	21.0	0.00e+00	0	41	0	2850029568	43	4632
2026-01-25 10:46:10.08	4.19	14.53	-36.3	-38.1	21.0	0.00e+00	0	41	0	2855272448	43	4631
2026-01-25 10:46:11.21	4.04	14.44	-36.2	-38.0	21.1	0.00e+00	0	41	0	2861563904	43	4575
2026-01-25 10:46:12.07	3.93	14.37	-36.2	-38.0	21.0	0.00e+00	0	41	0	2865758208	43	4596
2026-01-25 10:46:13.20	3.78	14.28	-36.3	-38.1	21.0	0.00e+00	0	41	0	2872049664	43	4626
2026-01-25 10:46:14.06	3.67	14.21	-36.3	-38.1	21.0	0.00e+00	0	41	0	2877292544	43	4647
2026-01-25 10:46:15.19	3.52	14.12	-36.4	-38.2	20.8	0.00e+00	0	41	0	2883584000	43	4699
2026-01-25 10:46:16.05	3.41	14.05	-36.5	-38.4	20.7	0.00e+00	0	41	0	2888826880	43	4792
2026-01-25 10:46:17.18	3.26	13.96	-36.6	-38.5	20.6	0.00e+00	0	41	0	2895118336	43	4827
2026-01-25 10:46:18.04	3.15	13.89	-36.6	-38.5	20.6	0.00e+00	0	41	0	2899312640	43	4838
2026-01-25 10:46:19.17	3.01	13.80	-36.9	-38.7	20.6	0.00e+00	0	40	0	2905604096	44	4695
2026-01-25 10:46:20.03	2.90	13.73	-36.9	-38.7	20.6	0.00e+00	0	41	0	2910846976	44	4679
2026-01-25 10:46:21.16	2.76	13.64	-36.9	-38.7	20.5	0.00e+00	0	40	0	2917138432	44	4691
2026-01-25 10:46:22.16	2.63	13.57	-36.9	-38.7	20.6	0.00e+00	0	41	0	2922381312	44	4672
2026-01-25 10:46:23.15	2.51	13.49	-36.9	-38.7	20.6	0.00e+00	0	41	0	2928672768	44	4677
2026-01-25 10:46:24.34	2.36	13.39	-37.0	-38.8	20.5	0.00e+00	0	41	0	2934964224	44	4709
2026-01-25 10:46:25.22	2.26	13.32	-37.1	-39.0	20.4	0.00e+00	0	41	0	2940207104	44	4815
2026-01-25 10:46:26.36	2.12	13.24	-37.2	-39.0	20.3	0.00e+00	0	41	0	2946498560	45	4570
2026-01-25 10:46:27.27	2.01	13.16	-37.1	-38.9	20.4	0.00e+00	0	41	0	2951741440	45	4527
2026-01-25 10:46:28.27	1.89	13.09	-37.0	-38.9	20.4	0.00e+00	0	40	0	2956984320	45	4503
2026-01-25 10:46:29.45	1.74	12.99	-37.1	-38.9	20.3	0.00e+00	0	41	0	2964324352	45	4539
2026-01-25 10:46:30.34	1.64	12.92	-37.1	-38.9	20.4	0.00e+00	0	41	0	2968518656	45	4532
2026-01-25 10:46:31.47	1.50	12.84	-37.1	-38.9	20.3	0.00e+00	0	41	0	2974810112	45	4538
2026-01-25 10:46:32.32	1.40	12.77	-37.0	-38.8	20.4	0.00e+00	0	41	0	2980052992	45	4488
2026-01-25 10:46:33.46	1.27	12.68	-37.0	-38.9	20.4	0.00e+00	0	41	0	2986344448	45	4506
2026-01-25 10:46:34.31	1.17	12.62	-37.0	-38.9	20.4	0.00e+00	0	41	0	2991587328	45	4497
2026-01-25 10:46:35.45	1.04	12.53	-37.1	-38.9	20.4	0.00e+00	0	41	0	2997878784	45	4528
2026-01-25 10:46:36.30	0.94	12.46	-37.1	-38.9	20.4	0.00e+00	0	41	0	3002073088	45	4511
2026-01-25 10:46:37.44	0.81	12.37	-37.1	-38.9	20.3	0.00e+00	0	40	0	3008364544	45	4541
2026-01-25 10:46:38.29	0.71	12.31	-37.1	-39.0	20.2	0.00e+00	0	41	0	3013607424	45	4573
2026-01-25 10:46:39.43	0.58	12.22	-37.2	-39.1	20.1	0.00e+00	0	41	0	3019898880	45	4651
2026-01-25 10:46:40.28	0.48	12.16	-37.2	-39.2	20.1	0.00e+00	0	41	0	3025141760	45	4652
2026-01-25 10:46:41.42	0.36	12.07	-37.2	-39.2	20.1	0.00e+00	0	41	0	3031433216	45	4658
2026-01-25 10:46:42.27	0.26	12.00	-37.4	-39.3	20.0	0.00e+00	0	41	0	3035627520	45	4742
2026-01-25 10:46:43.53	0.12	11.91	-37.3	-39.3	20.0	0.00e+00	0	41	0	3042967552	45	4725
2026-01-25 10:46:44.30	0.04	11.85	-37.3	-39.3	20.0	0.00e+00	0	41	0	3047161856	45	4718
2026-01-25 10:46:45.58	359.89	11.75	-37.5	-39.4	19.9	0.00e+00	0	41	0	3054501888	45	4782
2026-01-25 10:46:46.30	359.82	11.70	-37.5	-39.5	19.8	0.00e+00	0	41	0	3058696192	45	4821
2026-01-25 10:46:47.57	359.68	11.60	-37.5	-39.4	19.8	0.00e+00	0	41	0	3066036224	45	4813
2026-01-25 10:46:48.30	359.60	11.55	-37.4	-39.4	19.9	0.00e+00	0	41	0	3070230528	45	4765
2026-01-25 10:46:49.58	359.46	11.45	-37.5	-39.5	19.8	0.00e+00	0	41	0	3077570560	45	4833
2026-01-25 10:46:50.29	359.38	11.40	-37.6	-39.5	19.8	0.00e+00	0	40	0	3080716288	45	4867
2026-01-25 10:46:51.57	359.25	11.30	-37.7	-39.7	19.6	0.00e+00	0	41	0	3088056320	45	4939
2026-01-25 10:46:52.30	359.17	11.24	-37.5	-39.5	19.7	0.00e+00	0	41	0	3092250624	45	4863
2026-01-25 10:46:53.58	359.03	11.15	-37.4	-39.4	19.8	0.00e+00	0	41	0	3099590656	45	4800
2026-01-25 10:46:54.29	358.96	11.09	-37.5	-39.5	19.8	0.00e+00	0	41	0	3103784960	45	4829
2026-01-25 10:46:55.57	358.83	11.00	-37.5	-39.5	19.7	0.00e+00	0	40	0	3111124992	45	4868
2026-01-25 10:46:56.31	358.75	10.94	-37.6	-39.6	19.6	0.00e+00	0	41	0	3115319296	45	4923
2026-01-25 10:46:57.59	358.62	10.85	-37.6	-39.7	19.6	0.00e+00	0	41	0	3122659328	46	4658
2026-01-25 10:46:58.31	358.54	10.80	-37.7	-39.8	19.5	0.00e+00	0	41	0	3125805056	46	4716
2026-01-25 10:46:59.59	358.41	10.70	-37.7	-39.8	19.5	0.00e+00	0	40	0	3133145088	46	4731
2026-01-25 10:47:00.74	358.30	10.62	-37.8	-39.8	19.4	0.00e+00	0	41	0	3139436544	46	4757
2026-01-25 10:47:01.60	358.21	10.55	-37.8	-39.8	19.4	0.00e+00	0	40	0	3144679424	46	4745
2026-01-25 10:47:02.73	358.09	10.47	-37.8	-39.8	19.4	0.00e+00	0	40	0	3150970880	46	4738
2026-01-25 10:47:03.59	358.01	10.41	-37.8	-39.8	19.5	0.00e+00	0	41	0	3156213760	46	4726
2026-01-25 10:47:04.73	357.90	10.32	-37.8	-39.7	19.5	0.00e+00	0	40	0	3162505216	46	4694
2026-01-25 10:47:05.58	357.81	10.26	-37.7	-39.7	19.6	0.00e+00	0	40	0	3166699520	46	4662
2026-01-25 10:47:06.72	357.70	10.18	-37.8	-39.7	19.5	0.00e+00	0	41	0	3172990976	46	4702
2026-01-25 10:47:07.57	357.62	10.11	-37.8	-39.8	19.4	0.00e+00	0	40	0	3178233856	46	4724
2026-01-25 10:47:08.70	357.51	10.03	-37.8	-39.8	19.4	0.00e+00	0	41	0	3184525312	46	4740
2026-01-25 10:47:09.62	357.42	9.96	-37.8	-39.8	19.4	0.00e+00	0	41	0	3189768192	46	4758
2026-01-25 10:47:10.79	357.30	9.88	-37.8	-39.9	19.4	0.00e+00	0	40	0	3196059648	46	4765
2026-01-25 10:47:11.64	357.22	9.82	-37.7	-39.8	19.4	0.00e+00	0	41	0	3201302528	46	4745
2026-01-25 10:47:12.98	357.09	9.72	-37.7	-39.8	19.4	0.00e+00	0	40	0	3208642560	46	4753
2026-01-25 10:47:13.70	357.03	9.67	-37.8	-40.0	19.2	0.00e+00	0	41	0	3212836864	46	4839
2026-01-25 10:47:14.98	356.91	9.58	-37.5	-39.8	19.4	0.00e+00	0	40	0	3220176896	46	4736
2026-01-25 10:47:15.69	356.84	9.52	-37.5	-39.9	19.3	0.00e+00	0	41	0	3224371200	46	4778
2026-01-25 10:47:16.97	356.72	9.43	-37.6	-40.0	19.1	0.00e+00	0	40	0	3230662656	46	4863
2026-01-25 10:47:17.69	356.65	9.38	-37.4	-40.0	19.2	0.00e+00	0	41	0	3234856960	46	4842
2026-01-25 10:47:18.97	356.53	9.29	-37.1	-40.0	19.2	0.00e+00	0	40	0	3242196992	46	4845
2026-01-25 10:47:19.68	356.47	9.24	-36.9	-40.0	19.1	0.00e+00	0	41	0	3246391296	45	5137
2026-01-25 10:47:20.96	356.35	9.15	-36.9	-40.0	19.2	0.00e+00	0	41	0	3253731328	45	5121
2026-01-25 10:47:21.67	356.29	9.10	-36.9	-40.0	19.1	0.00e+00	0	41	0	3257925632	45	5158
2026-01-25 10:47:22.95	356.17	9.01	-36.9	-39.9	19.2	0.00e+00	0	41	0	3265265664	45	5097
2026-01-25 10:47:23.66	356.11	8.96	-38.1	-41.9	17.4	0.00e+00	0	41	0	3268411392	46	6012
2026-01-25 10:47:24.94	355.99	8.86	-46.6	-60.8	3.8	8.48e-01	0	41	104	3270508544	63	20071
2026-01-25 10:47:25.65	355.93	8.81	-47.7	-60.7	3.8	8.48e-01	0	40	104	3270508544	67	15695
2026-01-25 10:47:26.92	355.82	8.73	-48.0	-61.0	3.8	8.47e-01	0	41	104	3270508544	67	16146
2026-01-25 10:47:27.65	355.75	8.67	-48.6	-61.0	3.8	8.46e-01	0	41	104	3270508544	67	16234
2026-01-25 10:47:28.93	355.64	8.58	-48.0	-61.2	3.8	8.48e-01	0	40	104	3270508544	68	15646
2026-01-25 10:47:29.65	355.58	8.53	-48.6	-61.3	3.8	8.47e-01	0	41	104	3270508544	68	15777
2026-01-25 10:47:30.93	355.46	8.44	-48.7	-61.3	3.8	8.47e-01	0	41	104	3270508544	68	15833
2026-01-25 10:47:31.66	355.40	8.39	-48.7	-61.3	3.8	8.47e-01	0	41	104	3270508544	68	15904
2026-01-25 10:47:32.93	355.29	8.30	-49.0	-61.3	3.8	8.48e-01	0	40	104	3270508544	68	15925
2026-01-25 10:47:33.64	355.23	8.25	-48.4	-61.4	3.8	8.47e-01	0	40	104	3270508544	68	15984
2026-01-25 10:47:34.92	355.12	8.17	-49.1	-61.4	3.8	8.46e-01	0	40	104	3270508544	69	15100
2026-01-25 10:47:35.63	355.06	8.12	-49.2	-61.3	3.8	8.47e-01	0	40	104	3270508544	69	15031
2026-01-25 10:47:36.91	354.95	8.03	-49.1	-61.4	3.8	8.47e-01	0	41	104	3270508544	69	15175
2026-01-25 10:47:37.63	354.89	7.98	-49.2	-61.4	3.8	8.47e-01	0	41	104	3270508544	69	15181
2026-01-25 10:47:38.91	354.79	7.89	-49.2	-61.4	3.8	8.47e-01	0	41	104	3270508544	69	15138
2026-01-25 10:47:39.62	354.73	7.84	-49.3	-61.5	3.8	8.47e-01	0	41	104	3270508544	69	15244
2026-01-25 10:47:40.90	354.62	7.75	-49.0	-61.4	3.8	8.47e-01	0	41	104	3270508544	69	15180
2026-01-25 10:47:41.61	354.56	7.70	-49.2	-61.4	3.8	8.46e-01	0	41	104	3270508544	69	15192
2026-01-25 10:47:42.88	354.46	7.62	-49.1	-61.4	3.8	8.47e-01	0	40	104	3270508544	69	15192
2026-01-25 10:47:43.61	354.40	7.57	-49.2	-61.4	3.8	8.45e-01	0	40	104	3270508544	69	15225
2026-01-25 10:47:44.88	354.29	7.48	-49.3	-61.5	3.8	8.47e-01	0	40	104	3270508544	69	15258
2026-01-25 10:47:45.59	354.24	7.43	-49.3	-61.5	3.8	8.48e-01	0	41	104	3270508544	69	15250
2026-01-25 10:47:46.87	354.13	7.35	-49.4	-61.5	3.8	8.46e-01	0	41	104	3270508544	69	15255
2026-01-25 10:47:47.58	354.08	7.30	-49.4	-61.5	3.8	8.47e-01	0	41	104	3270508544	69	15235
2026-01-25 10:47:48.86	353.98	7.21	-49.3	-61.5	3.8	8.46e-01	0	41	104	3270508544	69	15255
2026-01-25 10:47:49.57	353.92	7.16	-49.2	-61.5	3.8	8.46e-01	0	40	104	3270508544	69	15243
2026-01-25 10:47:50.85	353.82	7.08	-49.3	-61.4	3.8	8.46e-01	0	40	104	3270508544	69	15193
2026-01-25 10:47:51.56	353.76	7.03	-49.0	-61.4	3.8	8.48e-01	0	40	104	3270508544	69	15201
2026-01-25 10:47:52.83	353.66	6.94	-49.1	-61.5	3.8	8.48e-01	0	41	104	3270508544	69	15229
2026-01-25 10:47:53.54	353.61	6.90	-49.1	-61.5	3.8	8.47e-01	0	41	104	3270508544	69	15244
2026-01-25 10:47:54.82	353.51	6.81	-49.1	-61.4	3.8	8.47e-01	0	41	104	3270508544	69	15135
2026-01-25 10:47:55.53	353.45	6.76	-49.1	-61.4	3.8	8.48e-01	0	40	104	3270508544	69	15192
2026-01-25 10:47:56.81	353.36	6.68	-49.1	-61.4	3.8	8.47e-01	0	40	104	3270508544	69	15149
2026-01-25 10:47:57.53	353.30	6.63	-49.1	-61.4	3.8	8.46e-01	0	41	104	3270508544	69	15165
2026-01-25 10:47:58.81	353.20	6.54	-49.0	-61.4	3.8	8.46e-01	0	41	104	3270508544	69	15184
2026-01-25 10:47:59.52	353.15	6.50	-49.0	-61.4	3.8	8.45e-01	0	41	104	3270508544	69	15169
2026-01-25 10:48:00.80	353.05	6.41	-48.9	-61.4	3.8	8.47e-01	0	41	104	3270508544	69	15169
2026-01-25 10:48:01.52	353.00	6.36	-48.9	-61.4	3.8	8.46e-01	0	40	104	3270508544	69	15139
2026-01-25 10:48:02.80	352.91	6.28	-49.0	-61.4	3.8	8.46e-01	0	40	104	3270508544	69	15108
2026-01-25 10:48:03.51	352.85	6.23	-49.1	-61.4	3.8	8.46e-01	0	40	104	3270508544	69	15143
2026-01-25 10:48:04.80	352.76	6.15	-49.1	-61.4	3.8	8.46e-01	0	40	104	3270508544	69	15197
2026-01-25 10:48:05.51	352.71	6.10	-49.1	-61.4	3.8	8.47e-01	0	40	104	3270508544	69	15131
2026-01-25 10:48:06.79	352.61	6.02	-49.1	-61.4	3.8	8.47e-01	0	41	104	3270508544	69	15083
2026-01-25 10:48:07.53	352.56	5.97	-49.1	-61.4	3.8	8.47e-01	0	40	104	3270508544	69	15138
2026-01-25 10:48:08.81	352.47	5.89	-49.1	-61.4	3.8	8.46e-01	0	40	104	3270508544	69	15093
2026-01-25 10:48:09.52	352.41	5.84	-49.1	-61.4	3.8	8.47e-01	0	41	104	3270508544	69	15157
2026-01-25 10:48:10.79	352.32	5.76	-49.1	-61.3	3.8	8.47e-01	0	40	104	3270508544	69	15049
2026-01-25 10:48:11.50	352.27	5.71	-49.1	-61.4	3.8	8.46e-01	0	40	104	3270508544	69	15097
2026-01-25 10:48:12.78	352.18	5.63	-49.1	-61.4	3.8	8.47e-01	0	41	104	3270508544	69	15151
2026-01-25 10:48:13.50	352.13	5.58	-49.1	-61.4	3.8	8.47e-01	0	40	104	3270508544	69	15103
2026-01-25 10:48:14.78	352.04	5.50	-49.1	-61.4	3.8	8.47e-01	0	41	104	3270508544	69	15204
2026-01-25 10:48:15.49	351.99	5.45	-49.1	-61.4	3.8	8.48e-01	0	41	104	3270508544	69	15129
2026-01-25 10:48:16.77	351.90	5.37	-49.1	-61.4	3.8	8.47e-01	0	41	104	3270508544	69	15130
2026-01-25 10:48:17.48	351.85	5.32	-49.1	-61.4	3.8	8.47e-01	0	40	104	3270508544	69	15139
2026-01-25 10:48:18.76	351.76	5.24	-49.1	-61.4	3.8	8.48e-01	0	40	104	3270508544	69	15138
2026-01-25 10:48:19.48	351.71	5.20	-49.1	-61.4	3.8	8.46e-01	0	40	104	3270508544	69	15154
2026-01-25 10:48:20.76	351.63	5.11	-49.1	-61.4	3.8	8.46e-01	0	40	104	3270508544	69	15086
2026-01-25 10:48:21.47	351.58	5.07	-49.1	-61.4	3.8	8.47e-01	0	40	104	3270508544	69	15132
2026-01-25 10:48:22.74	351.49	4.99	-49.1	-61.4	3.8	8.47e-01	0	40	104	3270508544	69	15143

#Closed at: 2026-01-25 10:48:23
#Recorded file [3270 MB]: D:/Data/31040_260125_133657.dat