passes_logs/2026/01/25/T1/T1__20260125_080013_KHAYYAM_rec.log

#Pass ID: 20260125_080013_KHAYYAM
#Satellite: KHAYYAM
#Configuration: KHAYYAM_480M
#almurnet v.1.7.20251203
#Start time: 2026-01-25 08:00:14

#Version: 2.0.20230620
#Station: T1
#Location: 37.570604 lon 55.790049 lat
#TLE: 1 53370U 22096A   26024.53891351  .00009807  00000+0  39879-3 0  9998
#TLE: 2 53370  97.3549 291.3780 0001977 107.4992 252.6462 15.24736514192695

#Time	Az	El	Level	Level2	SNR	BER	BlckErr	Temp	State	Recorded	gain1	gain2
2026-01-25 08:00:14.78	169.47	5.08	-47.5	-52.8	3.3	0.00e+00	0	40	0	0	66	26818
2026-01-25 08:00:15.77	169.49	5.16	-45.1	-50.4	3.7	0.00e+00	0	40	104	0	60	28483
2026-01-25 08:00:16.76	169.51	5.24	-45.0	-50.3	3.8	0.00e+00	0	40	104	0	60	28442
2026-01-25 08:00:17.76	169.52	5.33	-45.0	-50.4	3.7	0.00e+00	0	41	104	0	60	28540
2026-01-25 08:00:18.75	169.54	5.41	-45.0	-50.3	3.7	0.00e+00	0	41	104	0	60	28440
2026-01-25 08:00:19.74	169.56	5.49	-45.0	-50.2	3.7	0.00e+00	0	40	104	0	60	27869
2026-01-25 08:00:20.74	169.58	5.58	-45.0	-50.2	3.7	0.00e+00	0	41	104	0	60	28107
2026-01-25 08:00:21.73	169.60	5.66	-45.0	-50.3	3.7	0.00e+00	0	40	104	0	60	28413
2026-01-25 08:00:22.72	169.61	5.74	-45.0	-50.2	3.7	0.00e+00	0	40	104	0	60	27878
2026-01-25 08:00:23.72	169.63	5.83	-45.0	-50.3	3.7	0.00e+00	0	41	104	0	60	28259
2026-01-25 08:00:24.71	169.65	5.91	-45.0	-50.3	3.7	0.00e+00	0	41	104	0	60	28165
2026-01-25 08:00:25.70	169.67	6.00	-44.9	-50.2	3.7	0.00e+00	0	41	104	0	60	27976
2026-01-25 08:00:26.70	169.69	6.08	-44.9	-50.2	3.7	0.00e+00	0	41	104	0	60	27977
2026-01-25 08:00:27.69	169.71	6.17	-44.9	-50.2	3.7	0.00e+00	0	41	104	0	60	28085
2026-01-25 08:00:28.68	169.73	6.25	-44.9	-50.1	3.7	0.00e+00	0	41	104	0	60	27782
2026-01-25 08:00:29.68	169.75	6.34	-44.9	-50.2	3.7	0.00e+00	0	41	104	0	60	27952
2026-01-25 08:00:30.67	169.77	6.43	-44.9	-50.2	3.7	0.00e+00	0	41	104	0	60	28138
2026-01-25 08:00:31.66	169.79	6.51	-44.8	-50.1	3.8	0.00e+00	0	41	104	0	60	27813
2026-01-25 08:00:32.66	169.81	6.60	-44.9	-50.1	3.8	0.00e+00	0	42	104	0	60	27675
2026-01-25 08:00:33.65	169.82	6.69	-44.7	-50.1	3.7	0.00e+00	0	42	104	0	60	27573
2026-01-25 08:00:34.65	169.84	6.78	-44.8	-50.1	3.7	0.00e+00	0	42	104	0	60	27524
2026-01-25 08:00:35.64	169.86	6.87	-44.8	-50.1	3.7	0.00e+00	0	42	104	0	60	27696
2026-01-25 08:00:36.63	169.88	6.96	-44.8	-50.0	3.8	0.00e+00	0	42	104	0	60	27404
2026-01-25 08:00:37.63	169.91	7.05	-44.7	-50.1	3.7	0.00e+00	0	42	104	0	60	27542
2026-01-25 08:00:38.62	169.93	7.14	-44.7	-50.0	3.7	0.00e+00	0	42	104	0	60	27365
2026-01-25 08:00:39.61	169.95	7.23	-44.8	-50.0	3.7	0.00e+00	0	42	104	0	60	27384
2026-01-25 08:00:40.61	169.97	7.32	-44.7	-49.9	3.8	0.00e+00	0	42	104	0	60	27116
2026-01-25 08:00:41.60	169.99	7.41	-44.7	-50.0	3.7	0.00e+00	0	42	104	0	60	27229
2026-01-25 08:00:42.59	170.01	7.50	-44.6	-50.0	3.8	0.00e+00	0	42	104	0	60	27383
2026-01-25 08:00:43.59	170.03	7.60	-44.7	-49.9	3.7	0.00e+00	0	42	104	0	60	27137
2026-01-25 08:00:44.58	170.05	7.69	-44.7	-49.9	3.7	0.00e+00	0	42	104	0	60	27072
2026-01-25 08:00:45.57	170.07	7.78	-44.6	-49.9	3.7	0.00e+00	0	42	104	0	60	26917
2026-01-25 08:00:46.57	170.09	7.88	-44.6	-49.8	3.7	0.00e+00	0	42	104	0	60	26781
2026-01-25 08:00:47.56	170.12	7.97	-44.4	-49.8	3.7	0.00e+00	0	42	104	0	60	26700
2026-01-25 08:00:48.55	170.14	8.06	-44.4	-49.7	3.7	0.00e+00	0	42	104	0	60	26555
2026-01-25 08:00:49.55	170.16	8.16	-44.4	-49.7	3.7	0.00e+00	0	42	104	0	60	26380
2026-01-25 08:00:50.54	170.18	8.25	-44.3	-49.7	3.7	0.00e+00	0	42	104	0	60	26537
2026-01-25 08:00:51.53	170.20	8.35	-44.4	-49.6	3.7	0.00e+00	0	43	104	0	60	26176
2026-01-25 08:00:52.53	170.23	8.45	-44.3	-49.6	3.7	0.00e+00	0	42	104	0	60	26080
2026-01-25 08:00:53.52	170.25	8.54	-44.3	-49.6	3.7	0.00e+00	0	43	104	0	60	26208
2026-01-25 08:00:54.51	170.27	8.64	-44.2	-49.5	3.7	0.00e+00	0	43	104	0	60	25864
2026-01-25 08:00:55.51	170.29	8.74	-44.3	-49.5	3.7	0.00e+00	0	43	104	0	60	25799
2026-01-25 08:00:56.50	170.32	8.84	-44.3	-49.6	3.7	0.00e+00	0	43	104	0	60	26211
2026-01-25 08:00:57.49	170.34	8.94	-44.3	-49.5	3.7	0.00e+00	0	43	104	0	60	25831
2026-01-25 08:00:58.48	170.36	9.04	-44.1	-49.4	3.7	0.00e+00	0	43	104	0	60	25460
2026-01-25 08:00:59.48	170.39	9.14	-44.1	-49.5	3.7	0.00e+00	0	43	104	0	60	25788
2026-01-25 08:01:00.47	170.41	9.24	-44.0	-49.3	3.7	0.00e+00	0	43	104	0	60	25309
2026-01-25 08:01:01.47	170.44	9.34	-44.4	-49.7	3.7	0.00e+00	0	43	104	0	59	27960
2026-01-25 08:01:02.46	170.46	9.44	-46.5	-51.5	3.7	0.00e+00	0	43	104	0	63	27456
2026-01-25 08:01:03.45	170.49	9.55	-46.3	-51.5	3.7	0.00e+00	0	43	104	0	64	25856
2026-01-25 08:01:04.45	170.51	9.65	-44.3	-49.7	3.7	0.00e+00	0	43	104	0	60	26480
2026-01-25 08:01:05.45	170.53	9.75	-45.0	-50.3	3.7	0.00e+00	0	43	104	0	60	28206
2026-01-25 08:01:06.44	170.56	9.86	-45.5	-50.6	3.7	0.00e+00	0	43	104	0	61	27777
2026-01-25 08:01:07.45	170.59	9.96	-45.8	-51.1	3.7	0.00e+00	0	43	104	0	62	27750
2026-01-25 08:01:08.48	170.61	10.07	-46.2	-51.4	3.7	0.00e+00	0	43	104	0	63	27187
2026-01-25 08:01:09.47	170.64	10.18	-46.6	-51.7	3.7	0.00e+00	0	43	104	0	63	28122
2026-01-25 08:01:10.46	170.66	10.29	-46.6	-51.8	3.7	0.00e+00	0	43	104	0	63	28357
2026-01-25 08:01:11.46	170.69	10.39	-46.3	-51.6	3.7	0.00e+00	0	43	104	0	63	27711
2026-01-25 08:01:12.45	170.72	10.50	-45.3	-50.7	3.7	0.00e+00	0	43	104	0	62	26487
2026-01-25 08:01:13.45	170.74	10.61	-45.3	-50.6	3.7	0.00e+00	0	43	104	0	62	26092
2026-01-25 08:01:14.44	170.77	10.72	-45.1	-50.3	3.7	0.00e+00	0	43	104	0	62	25355
2026-01-25 08:01:15.44	170.80	10.83	-45.0	-50.4	3.7	0.00e+00	0	44	104	0	61	26911
2026-01-25 08:01:16.43	170.82	10.94	-45.1	-50.4	3.7	0.00e+00	0	44	104	0	61	26931
2026-01-25 08:01:17.42	170.85	11.05	-45.1	-50.6	3.7	0.00e+00	0	44	104	0	61	27554
2026-01-25 08:01:18.42	170.88	11.16	-45.2	-50.7	3.7	0.00e+00	0	44	104	0	61	27877
2026-01-25 08:01:19.41	170.90	11.28	-45.3	-50.7	3.7	0.00e+00	0	44	104	0	61	28057
2026-01-25 08:01:20.41	170.93	11.39	-45.1	-50.5	3.7	0.00e+00	0	44	104	0	61	27295
2026-01-25 08:01:21.40	170.96	11.50	-45.0	-50.3	3.7	0.00e+00	0	44	104	0	61	26696
2026-01-25 08:01:22.40	170.99	11.62	-44.9	-50.3	3.7	0.00e+00	0	44	104	0	61	26614
2026-01-25 08:01:23.39	171.02	11.74	-44.9	-50.3	3.7	0.00e+00	0	44	104	0	61	26647
2026-01-25 08:01:24.38	171.05	11.85	-44.9	-50.3	3.7	0.00e+00	0	44	104	0	61	26640
2026-01-25 08:01:25.46	171.08	11.98	-45.1	-50.4	3.7	0.00e+00	0	44	104	0	61	27042
2026-01-25 08:01:26.34	171.11	12.08	-45.2	-50.6	3.7	0.00e+00	0	44	104	0	61	27525
2026-01-25 08:01:27.48	171.14	12.22	-45.5	-50.9	3.7	0.00e+00	0	44	104	0	61	28589
2026-01-25 08:01:28.33	171.17	12.32	-45.4	-50.8	3.7	0.00e+00	0	44	104	0	61	28448
2026-01-25 08:01:29.47	171.20	12.46	-46.0	-51.2	3.7	0.00e+00	0	44	104	0	62	28097
2026-01-25 08:01:30.32	171.23	12.56	-47.6	-52.7	3.7	0.00e+00	0	44	104	0	65	28099
2026-01-25 08:01:31.46	171.26	12.70	-47.1	-52.3	3.7	0.00e+00	0	44	104	0	66	25305
2026-01-25 08:01:32.31	171.29	12.81	-45.4	-50.7	3.7	0.00e+00	0	44	104	0	62	26366
2026-01-25 08:01:33.44	171.32	12.95	-45.6	-50.9	3.7	0.00e+00	0	44	104	0	62	27122
2026-01-25 08:01:34.30	171.35	13.05	-46.1	-51.4	3.7	0.00e+00	0	44	104	0	62	28622
2026-01-25 08:01:35.43	171.39	13.20	-46.6	-51.9	3.7	0.00e+00	0	44	104	0	63	28784
2026-01-25 08:01:36.28	171.42	13.30	-47.0	-52.2	3.7	0.00e+00	0	44	104	0	64	28024
2026-01-25 08:01:37.42	171.45	13.45	-48.1	-53.3	3.7	0.00e+00	0	44	104	0	66	28220
2026-01-25 08:01:38.28	171.48	13.56	-50.1	-54.9	3.7	0.00e+00	0	44	104	0	70	27072
2026-01-25 08:01:39.64	171.53	13.74	-50.4	-55.3	3.7	0.00e+00	0	44	104	0	72	25102
2026-01-25 08:01:40.35	171.55	13.83	-50.2	-55.1	3.7	0.00e+00	0	44	104	0	71	26014
2026-01-25 08:01:41.62	171.59	13.99	-50.5	-55.4	3.7	0.00e+00	0	44	104	0	71	26945
2026-01-25 08:01:42.35	171.62	14.09	-50.3	-55.3	3.7	0.00e+00	0	44	104	0	71	26631
2026-01-25 08:01:43.63	171.66	14.26	-50.4	-55.4	3.7	0.00e+00	0	44	104	0	71	26951
2026-01-25 08:01:44.35	171.69	14.36	-50.5	-55.4	3.7	0.00e+00	0	44	104	0	71	27132
2026-01-25 08:01:45.63	171.73	14.53	-50.8	-55.7	3.7	0.00e+00	0	44	104	0	72	26377
2026-01-25 08:01:46.45	171.76	14.64	-51.1	-55.8	3.7	0.00e+00	0	44	104	0	73	25369
2026-01-25 08:01:47.59	171.81	14.80	-50.4	-55.5	3.7	0.00e+00	0	44	104	0	72	25712
2026-01-25 08:01:48.68	171.85	14.95	-49.7	-54.9	3.7	0.00e+00	0	44	104	0	71	25571
2026-01-25 08:01:49.70	171.88	15.09	-49.8	-54.8	3.7	0.00e+00	0	44	104	0	71	25368
2026-01-25 08:01:50.88	171.93	15.26	-49.8	-54.8	3.7	0.00e+00	0	44	104	0	71	25343
2026-01-25 08:01:51.73	171.96	15.38	-49.8	-54.9	3.7	0.00e+00	0	44	104	0	71	25613
2026-01-25 08:01:53.10	172.01	15.57	-50.0	-55.2	3.7	0.00e+00	0	44	104	0	71	26336
2026-01-25 08:01:53.81	172.04	15.68	-50.0	-55.2	3.7	0.00e+00	0	44	104	0	71	26427
2026-01-25 08:01:55.09	172.09	15.86	-49.9	-55.1	3.7	0.00e+00	0	44	104	0	71	26086
2026-01-25 08:01:55.80	172.12	15.96	-50.2	-55.2	3.7	0.00e+00	0	44	104	0	71	26500
2026-01-25 08:01:57.08	172.17	16.15	-49.7	-54.9	3.7	0.00e+00	0	44	104	0	71	25433
2026-01-25 08:01:57.90	172.20	16.28	-50.1	-55.2	3.7	0.00e+00	0	44	104	0	71	26350
2026-01-25 08:01:59.04	172.25	16.45	-50.0	-55.1	3.7	0.00e+00	0	44	104	0	71	26090
2026-01-25 08:01:59.89	172.28	16.57	-50.2	-55.2	3.7	0.00e+00	0	44	104	0	71	26288
2026-01-25 08:02:01.02	172.33	16.75	-50.1	-55.3	3.7	0.00e+00	0	44	104	0	71	26772
2026-01-25 08:02:01.88	172.37	16.88	-50.1	-55.0	3.7	0.00e+00	0	44	104	0	71	25968
2026-01-25 08:02:03.01	172.41	17.05	-50.6	-55.5	3.7	0.00e+00	0	44	104	0	71	27352
2026-01-25 08:02:03.87	172.45	17.19	-50.8	-55.4	3.7	0.00e+00	0	44	104	0	72	25486
2026-01-25 08:02:05.03	172.50	17.37	-50.2	-55.2	3.7	0.00e+00	0	44	104	0	72	24863
2026-01-25 08:02:05.89	172.54	17.50	-50.4	-55.2	3.7	0.00e+00	0	44	104	0	72	24972
2026-01-25 08:02:07.02	172.59	17.68	-50.9	-55.7	3.7	0.00e+00	0	44	104	0	72	26332
2026-01-25 08:02:07.88	172.63	17.82	-50.8	-55.4	3.7	0.00e+00	0	44	104	0	72	25653
2026-01-25 08:02:09.01	172.68	18.01	-50.8	-55.6	3.7	0.00e+00	0	44	104	0	72	26091
2026-01-25 08:02:09.87	172.72	18.15	-50.9	-55.5	3.7	0.00e+00	0	45	104	0	72	25861
2026-01-25 08:02:11.00	172.77	18.33	-51.0	-55.7	3.7	0.00e+00	0	44	104	0	72	26329
2026-01-25 08:02:11.86	172.81	18.48	-50.8	-55.3	3.7	0.00e+00	0	45	104	0	72	25190
2026-01-25 08:02:12.99	172.87	18.67	-51.0	-55.8	3.7	0.00e+00	0	45	104	0	72	26703
2026-01-25 08:02:13.85	172.91	18.81	-50.8	-55.4	3.7	0.00e+00	0	44	104	0	72	25400
2026-01-25 08:02:14.98	172.96	19.01	-50.9	-55.7	3.7	0.00e+00	0	45	104	0	72	26438
2026-01-25 08:02:15.84	173.01	19.15	-50.6	-55.0	3.7	0.00e+00	0	44	104	0	72	24503
2026-01-25 08:02:16.97	173.06	19.35	-51.0	-55.8	3.7	0.00e+00	0	45	104	0	72	26595
2026-01-25 08:02:17.82	173.11	19.50	-50.8	-55.4	3.7	0.00e+00	0	45	104	0	72	25405
2026-01-25 08:02:18.98	173.17	19.71	-50.4	-54.4	3.7	0.00e+00	0	45	104	0	72	22739
2026-01-25 08:02:19.83	173.21	19.86	-50.4	-54.4	3.7	0.00e+00	0	44	104	0	72	22752
2026-01-25 08:02:20.97	173.27	20.06	-50.3	-54.2	3.7	0.00e+00	0	45	104	0	72	22211
2026-01-25 08:02:21.82	173.32	20.22	-50.0	-53.7	3.7	0.00e+00	0	45	104	0	71	22210
2026-01-25 08:02:23.08	173.38	20.45	-49.6	-53.2	3.7	0.00e+00	0	44	104	0	71	20874
2026-01-25 08:02:23.85	173.43	20.59	-49.5	-53.0	3.7	0.00e+00	0	44	104	0	71	20402
2026-01-25 08:02:25.13	173.50	20.83	-50.5	-54.8	3.7	0.00e+00	0	45	104	0	71	25222
2026-01-25 08:02:25.86	173.54	20.97	-51.1	-55.8	3.7	0.00e+00	0	44	104	0	72	26874
2026-01-25 08:02:27.14	173.61	21.21	-50.6	-55.1	3.7	0.00e+00	0	45	104	0	72	24717
2026-01-25 08:02:27.86	173.65	21.35	-49.9	-53.7	3.7	0.00e+00	0	45	104	0	71	22117
2026-01-25 08:02:29.14	173.73	21.60	-49.8	-53.6	3.7	0.00e+00	0	44	104	0	71	21977
2026-01-25 08:02:29.87	173.77	21.74	-49.6	-53.5	3.7	0.00e+00	0	45	104	0	71	21653
2026-01-25 08:02:31.14	173.85	22.00	-49.4	-53.1	3.7	0.00e+00	0	45	104	0	70	21943
2026-01-25 08:02:31.90	173.90	22.15	-49.4	-53.1	3.7	0.00e+00	0	45	104	0	70	21900
2026-01-25 08:02:33.18	173.97	22.41	-49.2	-52.4	3.7	0.00e+00	0	45	104	0	70	20300
2026-01-25 08:02:33.91	174.02	22.56	-50.4	-55.3	3.7	0.00e+00	0	45	104	0	71	26611
2026-01-25 08:02:35.19	174.10	22.82	-50.3	-55.1	3.7	0.00e+00	0	45	104	0	71	26192
2026-01-25 08:02:35.90	174.15	22.97	-49.9	-53.9	3.7	0.00e+00	0	45	104	0	71	22671
2026-01-25 08:02:37.18	174.23	23.24	-50.4	-55.3	3.7	0.00e+00	0	45	104	0	71	26773
2026-01-25 08:02:38.09	174.29	23.43	-50.6	-55.4	3.7	0.00e+00	0	45	104	0	72	25414
2026-01-25 08:02:39.09	174.36	23.64	-50.8	-55.6	3.7	0.00e+00	0	45	104	0	72	26057
2026-01-25 08:02:40.43	174.45	23.94	-51.1	-55.7	3.7	0.00e+00	0	45	104	0	72	26285
2026-01-25 08:02:41.17	174.50	24.10	-50.7	-55.6	3.7	0.00e+00	0	45	104	0	72	26148
2026-01-25 08:02:42.45	174.59	24.38	-51.4	-56.0	3.7	0.00e+00	0	45	104	0	73	25939
2026-01-25 08:02:43.16	174.65	24.54	-51.4	-56.0	3.7	0.00e+00	0	45	104	0	73	25795
2026-01-25 08:02:44.44	174.74	24.83	-51.3	-55.8	3.7	0.00e+00	0	45	104	0	73	25340
2026-01-25 08:02:45.17	174.79	25.00	-51.5	-56.3	3.7	0.00e+00	0	45	104	0	73	26600
2026-01-25 08:02:46.45	174.89	25.29	-50.4	-54.0	3.7	0.00e+00	0	45	104	0	72	21772
2026-01-25 08:02:47.17	174.94	25.46	-50.3	-53.8	3.7	0.00e+00	0	45	104	0	72	21252
2026-01-25 08:02:48.47	175.05	25.77	-50.2	-53.8	3.7	0.00e+00	0	45	104	0	72	21140
2026-01-25 08:02:49.18	175.10	25.94	-50.0	-53.3	3.7	0.00e+00	0	45	104	0	72	20101
2026-01-25 08:02:50.45	175.20	26.24	-49.1	-51.8	3.8	0.00e+00	0	45	104	0	69	19984
2026-01-25 08:02:51.18	175.26	26.42	-50.6	-54.3	3.7	0.00e+00	0	45	104	0	71	23782
2026-01-25 08:02:52.61	175.38	26.78	-51.4	-55.8	3.7	0.00e+00	0	45	104	0	73	25257
2026-01-25 08:02:53.33	175.44	26.96	-51.2	-55.3	3.7	0.00e+00	0	45	104	0	73	23878
2026-01-25 08:02:54.67	175.56	27.29	-50.9	-54.6	3.7	0.00e+00	0	45	104	0	72	23182
2026-01-25 08:02:55.38	175.62	27.48	-51.4	-55.4	3.7	0.00e+00	0	45	104	0	73	24137
2026-01-25 08:02:56.72	175.74	27.82	-51.5	-55.6	3.7	0.00e+00	0	45	104	0	73	24753
2026-01-25 08:02:57.43	175.80	28.01	-51.8	-56.2	3.7	0.00e+00	0	45	104	0	74	24848
2026-01-25 08:02:58.77	175.93	28.36	-51.9	-56.5	3.7	0.00e+00	0	45	104	0	74	25686
2026-01-25 08:02:59.48	175.99	28.55	-51.7	-56.4	3.7	0.00e+00	0	45	104	0	74	25419
2026-01-25 08:03:00.76	176.12	28.90	-51.7	-56.4	3.7	0.00e+00	0	45	104	0	74	25463
2026-01-25 08:03:01.49	176.19	29.10	-51.6	-56.2	3.7	0.00e+00	0	45	104	0	74	25038
2026-01-25 08:03:02.76	176.31	29.45	-51.9	-56.3	3.7	0.00e+00	0	45	104	0	74	25312
2026-01-25 08:03:03.47	176.38	29.65	-51.9	-56.3	3.7	0.00e+00	0	45	104	0	74	25296
2026-01-25 08:03:04.75	176.52	30.01	-51.9	-56.3	3.7	0.00e+00	0	45	104	0	74	25310
2026-01-25 08:03:05.49	176.59	30.22	-51.8	-56.3	3.7	0.00e+00	0	45	104	0	74	25384
2026-01-25 08:03:06.77	176.73	30.59	-51.4	-56.2	3.7	0.00e+00	0	45	104	0	74	24990
2026-01-25 08:03:07.50	176.81	30.81	-51.6	-56.3	3.7	0.00e+00	0	45	104	0	74	25206
2026-01-25 08:03:08.78	176.95	31.19	-51.3	-56.0	3.7	0.00e+00	0	45	104	0	74	24493
2026-01-25 08:03:09.49	177.03	31.40	-51.1	-55.9	3.7	0.00e+00	0	45	104	0	74	24196
2026-01-25 08:03:10.76	177.18	31.78	-51.2	-56.1	3.7	0.00e+00	0	45	104	0	74	24624
2026-01-25 08:03:11.60	177.27	32.04	-51.4	-56.2	3.7	0.00e+00	0	45	104	0	74	24869
2026-01-25 08:03:13.02	177.45	32.49	-51.4	-56.1	3.7	0.00e+00	0	45	104	0	74	24783
2026-01-25 08:03:13.73	177.53	32.71	-51.7	-56.3	3.7	0.00e+00	0	45	104	0	74	25324
2026-01-25 08:03:15.21	177.72	33.18	-51.7	-56.4	3.7	0.00e+00	0	45	104	0	74	25605
2026-01-25 08:03:15.92	177.81	33.41	-51.7	-56.4	3.7	0.00e+00	0	45	104	0	74	25636
2026-01-25 08:03:17.21	177.98	33.84	-51.6	-56.4	3.7	0.00e+00	0	45	104	0	74	25444
2026-01-25 08:03:17.92	178.07	34.07	-51.6	-56.4	3.7	0.00e+00	0	45	104	0	74	25573
2026-01-25 08:03:19.19	178.25	34.50	-52.1	-56.8	3.7	0.00e+00	0	45	104	0	74	26625
2026-01-25 08:03:19.92	178.35	34.75	-52.1	-56.7	3.7	0.00e+00	0	45	104	0	74	26544
2026-01-25 08:03:21.20	178.53	35.19	-51.9	-56.7	3.7	0.00e+00	0	45	104	0	74	26315
2026-01-25 08:03:21.93	178.64	35.44	-52.0	-56.7	3.7	0.00e+00	0	45	104	0	74	26502
2026-01-25 08:03:23.21	178.83	35.89	-51.9	-56.6	3.7	0.00e+00	0	45	104	0	74	26056
2026-01-25 08:03:23.93	178.94	36.15	-52.1	-56.7	3.7	0.00e+00	0	45	104	0	74	26453
2026-01-25 08:03:25.21	179.14	36.61	-52.1	-56.8	3.7	0.00e+00	0	45	104	0	74	26727
2026-01-25 08:03:25.93	179.25	36.88	-51.5	-56.4	3.6	0.00e+00	0	45	104	0	74	25675
2026-01-25 08:03:27.21	179.46	37.35	-52.0	-56.8	3.7	0.00e+00	0	45	104	0	74	26653
2026-01-25 08:03:27.95	179.59	37.63	-51.3	-56.2	3.7	0.00e+00	0	45	104	0	74	24893
2026-01-25 08:03:29.24	179.81	38.12	-51.5	-56.2	3.7	0.00e+00	0	45	104	0	74	25004
2026-01-25 08:03:29.96	179.94	38.40	-51.4	-56.3	3.7	0.00e+00	0	45	104	0	74	25114
2026-01-25 08:03:31.27	180.17	38.91	-51.7	-56.4	3.7	0.00e+00	0	45	104	0	74	25649
2026-01-25 08:03:31.98	180.30	39.19	-51.8	-56.5	3.7	0.00e+00	0	45	104	0	74	25943
2026-01-25 08:03:33.26	180.55	39.70	-51.7	-56.6	3.7	0.00e+00	0	45	104	0	74	25994
2026-01-25 08:03:34.00	180.69	40.00	-51.7	-56.6	3.7	0.00e+00	0	45	104	0	74	26271
2026-01-25 08:03:35.28	180.95	40.52	-52.1	-56.7	3.7	0.00e+00	0	45	104	0	74	26547
2026-01-25 08:03:36.00	181.09	40.82	-51.9	-56.7	3.7	0.00e+00	0	45	104	0	74	26401
2026-01-25 08:03:37.28	181.36	41.36	-51.8	-56.6	3.7	0.00e+00	0	45	104	0	74	26128
2026-01-25 08:03:38.00	181.52	41.66	-52.0	-56.7	3.7	0.00e+00	0	45	104	0	74	26538
2026-01-25 08:03:39.29	181.80	42.22	-52.1	-56.7	3.7	0.00e+00	0	45	104	0	74	26464
2026-01-25 08:03:40.01	181.97	42.53	-51.7	-56.6	3.7	0.00e+00	0	45	104	0	74	26073
2026-01-25 08:03:41.29	182.27	43.10	-51.8	-56.6	3.7	0.00e+00	0	45	104	0	74	26220
2026-01-25 08:03:42.02	182.45	43.42	-51.7	-56.5	3.7	0.00e+00	0	45	104	0	74	25918
2026-01-25 08:03:43.29	182.76	43.99	-51.8	-56.6	3.7	0.00e+00	0	45	104	0	74	26110
2026-01-25 08:03:44.15	182.98	44.39	-51.8	-56.6	3.7	0.00e+00	0	45	104	0	74	26014
2026-01-25 08:03:45.29	183.28	44.91	-51.8	-56.5	3.7	0.00e+00	0	45	104	0	74	25897
2026-01-25 08:03:46.14	183.51	45.31	-51.7	-56.5	3.7	0.00e+00	0	45	104	0	74	25868
2026-01-25 08:03:47.28	183.83	45.85	-51.8	-56.6	3.7	0.00e+00	0	45	104	0	74	26030
2026-01-25 08:03:48.13	184.08	46.26	-52.1	-56.8	3.7	0.00e+00	0	45	104	0	74	26602
2026-01-25 08:03:49.27	184.42	46.81	-52.3	-56.8	3.7	0.00e+00	0	45	104	0	75	25106
2026-01-25 08:03:50.12	184.68	47.23	-52.1	-56.7	3.7	0.00e+00	0	45	104	0	75	25041
2026-01-25 08:03:51.30	185.06	47.81	-52.4	-56.9	3.7	0.00e+00	0	45	104	0	75	25440
2026-01-25 08:03:52.16	185.34	48.24	-52.3	-56.8	3.7	0.00e+00	0	45	104	0	75	25216
2026-01-25 08:03:53.30	185.73	48.82	-52.0	-56.7	3.7	0.00e+00	0	45	104	0	75	24947
2026-01-25 08:03:54.15	186.03	49.26	-52.1	-56.7	3.7	0.00e+00	0	45	104	0	75	25060
2026-01-25 08:03:55.29	186.44	49.85	-51.9	-56.7	3.7	0.00e+00	0	45	104	0	75	24817
2026-01-25 08:03:56.14	186.76	50.29	-52.3	-57.0	3.7	0.00e+00	0	45	104	0	75	25693
2026-01-25 08:03:57.28	187.20	50.90	-52.2	-56.7	3.7	0.00e+00	0	45	104	0	75	25082
2026-01-25 08:03:58.13	187.55	51.35	-52.3	-56.8	3.7	0.00e+00	0	45	104	0	75	25157
2026-01-25 08:03:59.27	188.03	51.96	-52.2	-56.8	3.7	0.00e+00	0	45	104	0	75	25160
2026-01-25 08:04:00.12	188.39	52.43	-52.2	-56.6	3.7	0.00e+00	0	45	104	0	75	24661
2026-01-25 08:04:01.26	188.91	53.05	-51.5	-56.3	3.7	0.00e+00	0	45	104	0	74	25355
2026-01-25 08:04:02.11	189.31	53.52	-52.0	-56.6	3.7	0.00e+00	0	45	104	0	74	26227
2026-01-25 08:04:03.25	189.86	54.16	-51.0	-56.0	3.7	0.00e+00	0	45	104	0	73	25882
2026-01-25 08:04:04.10	190.29	54.64	-51.1	-56.3	3.7	0.00e+00	0	45	104	0	73	26740
2026-01-25 08:04:05.23	190.89	55.28	-51.8	-56.7	3.7	0.00e+00	0	45	104	0	74	26403
2026-01-25 08:04:06.09	191.36	55.77	-51.5	-56.5	3.7	0.00e+00	0	45	104	0	74	25952
2026-01-25 08:04:07.38	192.10	56.51	-52.3	-57.0	3.7	0.00e+00	0	45	104	0	75	25720
2026-01-25 08:04:08.09	192.53	56.93	-52.4	-56.9	3.7	0.00e+00	0	45	104	0	75	25598
2026-01-25 08:04:09.58	193.46	57.80	-52.4	-56.9	3.7	0.00e+00	0	45	104	0	75	25507
2026-01-25 08:04:10.28	193.92	58.21	-52.4	-56.9	3.7	0.00e+00	0	45	104	0	75	25395
2026-01-25 08:04:11.56	194.80	58.96	-52.2	-56.9	3.7	0.00e+00	0	45	104	0	75	25467
2026-01-25 08:04:12.27	195.31	59.38	-52.1	-56.9	3.7	0.00e+00	0	45	104	0	75	25418
2026-01-25 08:04:13.66	196.36	60.21	-52.2	-56.9	3.7	0.00e+00	0	45	104	0	75	25535
2026-01-25 08:04:14.37	196.93	60.63	-52.3	-57.0	3.7	0.00e+00	0	45	104	0	75	25740
2026-01-25 08:04:15.65	197.99	61.40	-52.4	-57.0	3.7	0.00e+00	0	45	104	0	75	25713
2026-01-25 08:04:16.71	198.92	62.03	-52.1	-56.9	3.7	0.00e+00	0	45	104	0	75	25387
2026-01-25 08:04:17.86	199.99	62.72	-52.1	-56.8	3.7	0.00e+00	0	45	104	0	75	25262
2026-01-25 08:04:18.72	200.83	63.23	-51.9	-56.8	3.7	0.00e+00	0	45	104	0	75	25112
2026-01-25 08:04:19.85	201.99	63.90	-52.4	-57.0	3.7	0.00e+00	0	45	104	0	75	25851
2026-01-25 08:04:20.71	202.92	64.41	-51.7	-56.7	3.7	0.00e+00	0	45	104	0	75	24896
2026-01-25 08:04:21.84	204.21	65.08	-51.7	-56.6	3.7	0.00e+00	0	45	104	0	75	24700
2026-01-25 08:04:22.70	205.24	65.58	-51.9	-56.7	3.7	0.00e+00	0	45	104	0	75	24916
2026-01-25 08:04:23.90	206.76	66.28	-52.5	-57.1	3.7	0.00e+00	0	45	104	0	75	26027
2026-01-25 08:04:24.75	207.90	66.76	-52.5	-57.0	3.7	0.00e+00	0	45	104	0	75	25748
2026-01-25 08:04:25.97	209.62	67.45	-52.5	-57.0	3.7	0.00e+00	0	45	104	0	75	25863
2026-01-25 08:04:26.82	210.90	67.92	-52.5	-57.0	3.7	0.00e+00	0	45	104	0	75	25739
2026-01-25 08:04:28.02	212.80	68.58	-52.1	-56.8	3.7	0.00e+00	0	45	104	0	75	25258
2026-01-25 08:04:28.87	214.22	69.03	-52.3	-56.9	3.7	0.00e+00	0	45	104	0	75	25439
2026-01-25 08:04:30.01	216.23	69.62	-52.3	-56.9	3.7	0.00e+00	0	45	104	0	75	25405
2026-01-25 08:04:30.86	217.82	70.04	-51.5	-56.4	3.7	0.00e+00	0	45	104	0	74	25425
2026-01-25 08:04:32.11	220.28	70.65	-51.7	-56.6	3.7	0.00e+00	0	45	104	0	74	26151
2026-01-25 08:04:32.96	222.04	71.04	-52.1	-56.9	3.7	0.00e+00	0	45	104	0	74	27004
2026-01-25 08:04:34.09	224.52	71.53	-52.1	-56.9	3.7	0.00e+00	0	45	104	0	74	26904
2026-01-25 08:04:34.95	226.49	71.89	-52.4	-57.0	3.7	0.00e+00	0	45	104	0	75	25809
2026-01-25 08:04:36.08	229.21	72.33	-52.4	-56.9	3.7	0.00e+00	0	45	104	0	75	25568
2026-01-25 08:04:37.00	231.52	72.66	-52.4	-57.0	3.7	0.00e+00	0	45	104	0	75	25801
2026-01-25 08:04:37.99	234.12	72.98	-52.4	-57.0	3.7	0.00e+00	0	45	104	0	75	25802
2026-01-25 08:04:38.99	236.84	73.27	-52.4	-57.0	3.7	0.00e+00	0	45	104	0	75	25939
2026-01-25 08:04:39.98	239.63	73.53	-52.1	-56.8	3.7	0.00e+00	0	45	104	0	75	25354
2026-01-25 08:04:40.98	242.53	73.75	-52.0	-56.8	3.7	0.00e+00	0	45	104	0	75	25335
2026-01-25 08:04:41.97	245.48	73.93	-52.1	-56.8	3.7	0.00e+00	0	45	104	0	75	25296
2026-01-25 08:04:42.97	248.52	74.06	-51.9	-56.7	3.7	0.00e+00	0	45	104	0	75	24997
2026-01-25 08:04:43.96	251.57	74.15	-51.8	-56.6	3.7	0.00e+00	0	45	104	0	75	24555
2026-01-25 08:04:44.96	254.69	74.20	-51.7	-56.6	3.7	0.00e+00	0	45	104	0	74	26024
2026-01-25 08:04:45.95	257.78	74.21	-51.7	-56.6	3.7	0.00e+00	0	45	104	0	74	26009
2026-01-25 08:04:46.95	260.90	74.17	-51.0	-56.2	3.7	0.00e+00	0	45	104	0	74	24921
2026-01-25 08:04:47.94	263.96	74.09	-51.6	-56.4	3.7	0.00e+00	0	45	104	0	74	25623
2026-01-25 08:04:48.94	267.01	73.96	-51.9	-56.4	3.7	0.00e+00	0	45	104	0	74	25640
2026-01-25 08:04:49.95	270.04	73.79	-51.9	-56.4	3.7	0.00e+00	0	45	104	0	74	25619
2026-01-25 08:04:50.96	272.98	73.58	-51.6	-56.2	3.7	0.00e+00	0	45	104	0	74	25064
2026-01-25 08:04:51.98	275.87	73.32	-51.4	-56.4	3.7	0.00e+00	0	45	104	0	74	25552
2026-01-25 08:04:52.99	278.64	73.03	-51.8	-56.5	3.7	0.00e+00	0	45	104	0	74	25713
2026-01-25 08:04:54.00	281.30	72.71	-51.9	-56.5	3.7	0.00e+00	0	45	104	0	74	25958
2026-01-25 08:04:55.00	283.83	72.36	-51.6	-56.2	3.7	0.00e+00	0	45	104	0	74	24996
2026-01-25 08:04:55.99	286.22	71.98	-51.8	-56.8	3.7	0.00e+00	0	45	104	0	74	26586
2026-01-25 08:04:56.99	288.53	71.57	-52.1	-56.9	3.7	0.00e+00	0	45	104	0	74	27002
2026-01-25 08:04:57.98	290.71	71.14	-52.1	-56.9	3.7	0.00e+00	0	45	104	0	74	26931
2026-01-25 08:04:58.98	292.80	70.68	-51.8	-56.5	3.7	0.00e+00	0	45	104	0	74	25708
2026-01-25 08:04:59.97	294.77	70.21	-51.6	-56.3	3.7	0.00e+00	0	45	104	0	74	25326
2026-01-25 08:05:00.97	296.65	69.71	-51.8	-56.6	3.7	0.00e+00	0	45	104	0	74	26017
2026-01-25 08:05:01.96	298.42	69.20	-51.7	-56.7	3.7	0.00e+00	0	45	104	0	74	26491
2026-01-25 08:05:02.95	300.10	68.68	-51.7	-56.8	3.7	0.00e+00	0	45	104	0	74	26757
2026-01-25 08:05:03.95	301.71	68.14	-52.3	-57.1	3.7	0.00e+00	0	45	104	0	75	26017
2026-01-25 08:05:04.94	303.21	67.60	-52.1	-56.9	3.7	0.00e+00	0	45	104	0	75	25518
2026-01-25 08:05:05.94	304.65	67.04	-52.5	-57.1	3.7	0.00e+00	0	45	104	0	75	26075
2026-01-25 08:05:06.93	306.01	66.47	-52.4	-57.1	3.7	0.00e+00	0	45	104	0	75	25978
2026-01-25 08:05:07.92	307.29	65.91	-52.2	-56.9	3.7	0.00e+00	0	45	104	0	75	25537
2026-01-25 08:05:08.98	308.59	65.29	-52.2	-56.8	3.7	0.00e+00	0	45	104	0	75	25259
2026-01-25 08:05:09.84	309.59	64.79	-52.0	-56.6	3.7	0.00e+00	0	45	104	0	75	24715
2026-01-25 08:05:10.97	310.84	64.12	-52.0	-56.6	3.7	0.00e+00	0	45	104	0	75	24724
2026-01-25 08:05:11.82	311.73	63.62	-52.1	-56.7	3.7	0.00e+00	0	45	104	0	75	24913
2026-01-25 08:05:12.96	312.87	62.94	-52.0	-56.5	3.7	0.00e+00	0	45	104	0	75	24473
2026-01-25 08:05:13.81	313.68	62.43	-51.4	-56.4	3.7	0.00e+00	0	45	104	0	74	25619
2026-01-25 08:05:14.95	314.71	61.75	-51.5	-56.4	3.7	0.00e+00	0	45	104	0	74	25519
2026-01-25 08:05:15.80	315.44	61.25	-51.6	-56.6	3.7	0.00e+00	0	45	104	0	74	26138
2026-01-25 08:05:16.94	316.38	60.57	-51.3	-56.2	3.7	0.00e+00	0	45	104	0	74	25078
2026-01-25 08:05:17.79	317.05	60.06	-51.0	-56.2	3.7	0.00e+00	0	45	104	0	73	26404
2026-01-25 08:05:18.93	317.90	59.39	-50.9	-56.1	3.7	0.00e+00	0	45	104	0	73	26143
2026-01-25 08:05:19.78	318.51	58.89	-51.8	-56.6	3.7	0.00e+00	0	45	104	0	74	26193
2026-01-25 08:05:20.91	319.28	58.22	-51.9	-56.5	3.7	0.00e+00	0	45	104	0	74	25876
2026-01-25 08:05:21.77	319.84	57.72	-51.5	-56.4	3.7	0.00e+00	0	45	104	0	74	25509
2026-01-25 08:05:23.08	320.66	56.96	-51.5	-56.3	3.7	0.00e+00	0	45	104	0	74	25247
2026-01-25 08:05:23.79	321.09	56.55	-51.8	-56.6	3.7	0.00e+00	0	45	104	0	74	26184
2026-01-25 08:05:25.27	321.93	55.70	-51.9	-56.7	3.7	0.00e+00	0	45	104	0	74	26307
2026-01-25 08:05:25.98	322.32	55.29	-51.9	-56.8	3.7	0.00e+00	0	45	104	0	74	26687
2026-01-25 08:05:27.26	322.99	54.57	-51.8	-56.7	3.7	0.00e+00	0	45	104	0	74	26466
2026-01-25 08:05:27.97	323.35	54.17	-51.9	-56.8	3.7	0.00e+00	0	45	104	0	74	26810
2026-01-25 08:05:29.25	323.97	53.46	-51.6	-56.4	3.7	0.00e+00	0	45	104	0	74	25587
2026-01-25 08:05:29.96	324.30	53.07	-52.1	-56.6	3.7	0.00e+00	0	45	104	0	74	26078
2026-01-25 08:05:31.24	324.87	52.37	-52.0	-56.6	3.7	0.00e+00	0	45	104	0	74	25998
2026-01-25 08:05:32.09	325.24	51.91	-51.9	-56.5	3.7	0.00e+00	0	45	104	0	74	25818
2026-01-25 08:05:33.53	325.83	51.14	-50.9	-56.0	3.6	0.00e+00	0	45	104	0	73	25928
2026-01-25 08:05:34.24	326.12	50.76	-50.8	-56.0	3.7	0.00e+00	0	45	104	0	73	25876
2026-01-25 08:05:35.52	326.61	50.09	-50.9	-56.1	3.7	0.00e+00	0	45	104	0	73	26104
2026-01-25 08:05:36.24	326.87	49.72	-51.4	-56.5	3.7	0.00e+00	0	45	104	0	73	27203
2026-01-25 08:05:37.52	327.33	49.06	-50.8	-56.1	3.7	0.00e+00	0	45	104	0	73	26031
2026-01-25 08:05:38.25	327.58	48.69	-50.3	-55.8	3.7	0.00e+00	0	45	104	0	72	26780
2026-01-25 08:05:39.52	328.01	48.05	-50.3	-55.8	3.7	0.00e+00	0	45	104	0	72	26654
2026-01-25 08:05:40.26	328.25	47.68	-51.0	-56.2	3.7	0.00e+00	0	45	104	0	72	28094
2026-01-25 08:05:41.54	328.65	47.05	-51.9	-56.5	3.7	0.00e+00	0	45	104	0	74	25965
2026-01-25 08:05:42.27	328.87	46.70	-52.1	-56.6	3.7	0.00e+00	0	45	104	0	74	26173
2026-01-25 08:05:43.55	329.25	46.09	-52.1	-56.7	3.7	0.00e+00	0	45	104	0	74	26316
2026-01-25 08:05:44.26	329.45	45.75	-52.2	-56.8	3.7	0.00e+00	0	45	104	0	75	25256
2026-01-25 08:05:45.54	329.80	45.15	-52.0	-56.8	3.7	0.00e+00	0	45	104	0	75	25289
2026-01-25 08:05:46.25	330.00	44.82	-51.7	-56.7	3.7	0.00e+00	0	45	104	0	75	24908
2026-01-25 08:05:47.53	330.33	44.23	-51.6	-56.6	3.7	0.00e+00	0	45	104	0	75	24763
2026-01-25 08:05:48.25	330.51	43.91	-51.4	-56.5	3.7	0.00e+00	0	45	104	0	74	25806
2026-01-25 08:05:49.53	330.83	43.33	-51.6	-56.6	3.6	0.00e+00	0	45	104	0	74	26017
2026-01-25 08:05:50.27	331.00	43.01	-51.9	-56.6	3.7	0.00e+00	0	45	104	0	74	26178
2026-01-25 08:05:51.63	331.32	42.41	-51.9	-56.7	3.7	0.00e+00	0	45	104	0	74	26397
2026-01-25 08:05:52.34	331.48	42.11	-51.7	-56.6	3.7	0.00e+00	0	45	104	0	74	25984
2026-01-25 08:05:53.68	331.77	41.54	-50.7	-56.0	3.7	0.00e+00	0	45	104	0	73	25769
2026-01-25 08:05:54.39	331.92	41.24	-50.5	-55.9	3.7	0.00e+00	0	45	104	0	72	27057
2026-01-25 08:05:55.73	332.20	40.68	-50.3	-55.8	3.7	0.00e+00	0	45	104	0	72	26806
2026-01-25 08:05:56.44	332.34	40.39	-50.3	-55.8	3.7	0.00e+00	0	45	104	0	72	26885
2026-01-25 08:05:57.78	332.61	39.85	-50.9	-56.1	3.7	0.00e+00	0	45	104	0	72	27599
2026-01-25 08:05:58.49	332.74	39.56	-50.7	-56.0	3.7	0.00e+00	0	45	104	0	72	27267
2026-01-25 08:05:59.77	332.98	39.06	-51.1	-56.2	3.7	0.00e+00	0	45	104	0	72	27968
2026-01-25 08:06:00.48	333.11	38.78	-51.5	-56.4	3.7	0.00e+00	0	45	104	0	73	27105
2026-01-25 08:06:01.76	333.34	38.29	-50.9	-56.1	3.7	0.00e+00	0	45	104	0	73	26176
2026-01-25 08:06:02.50	333.47	38.01	-51.0	-56.1	3.7	0.00e+00	0	46	104	0	73	26149
2026-01-25 08:06:03.78	333.69	37.52	-50.9	-56.1	3.7	0.00e+00	0	45	104	0	73	26204
2026-01-25 08:06:04.50	333.81	37.26	-50.9	-56.1	3.7	0.00e+00	0	45	104	0	73	26166
2026-01-25 08:06:05.78	334.01	36.79	-52.1	-56.8	3.7	0.00e+00	0	45	104	0	74	26873
2026-01-25 08:06:06.51	334.13	36.52	-51.9	-56.7	3.7	0.00e+00	0	45	104	0	74	26537
2026-01-25 08:06:07.79	334.33	36.06	-52.1	-56.9	3.7	0.00e+00	0	45	104	0	74	26986
2026-01-25 08:06:08.59	334.45	35.78	-52.2	-56.9	3.7	0.00e+00	0	45	104	0	75	25505
2026-01-25 08:06:09.73	334.61	35.38	-51.8	-56.6	3.7	0.00e+00	0	45	104	0	75	24567
2026-01-25 08:06:10.58	334.74	35.09	-52.0	-56.7	3.7	0.00e+00	0	45	104	0	75	24977
2026-01-25 08:06:11.72	334.90	34.70	-51.6	-56.5	3.7	0.00e+00	0	45	104	0	75	24364
2026-01-25 08:06:12.57	335.02	34.42	-51.0	-56.1	3.7	0.00e+00	0	45	104	0	74	24718
2026-01-25 08:06:13.71	335.17	34.04	-49.8	-55.3	3.7	0.00e+00	0	45	104	0	71	26756
2026-01-25 08:06:14.56	335.28	33.76	-50.0	-55.4	3.7	0.00e+00	0	45	104	0	71	26907
2026-01-25 08:06:15.70	335.43	33.39	-49.4	-54.9	3.7	0.00e+00	0	45	104	0	70	27115
2026-01-25 08:06:16.55	335.54	33.12	-49.6	-55.2	3.7	0.00e+00	0	45	104	0	70	27975
2026-01-25 08:06:17.69	335.68	32.75	-50.4	-55.8	3.7	0.00e+00	0	45	104	0	71	28282
2026-01-25 08:06:18.54	335.78	32.49	-50.9	-56.1	3.7	0.00e+00	0	45	104	0	72	27630
2026-01-25 08:06:19.68	335.92	32.13	-51.1	-56.1	3.7	0.00e+00	0	45	104	0	72	27774
2026-01-25 08:06:20.62	336.03	31.85	-51.2	-56.1	3.7	0.00e+00	0	45	104	0	72	27665
2026-01-25 08:06:21.62	336.15	31.54	-51.1	-56.1	3.7	0.00e+00	0	45	104	0	73	26236
2026-01-25 08:06:22.84	336.28	31.18	-51.3	-56.0	3.7	0.00e+00	0	45	104	0	73	25972
2026-01-25 08:06:23.70	336.38	30.93	-51.2	-56.0	3.7	0.00e+00	0	45	104	0	73	25928
2026-01-25 08:06:25.00	336.52	30.55	-48.9	-54.5	3.7	0.00e+00	0	45	104	0	69	27370
2026-01-25 08:06:25.71	336.59	30.34	-50.5	-55.7	3.7	0.00e+00	0	45	104	0	71	28094
2026-01-25 08:06:26.99	336.73	29.98	-48.6	-54.4	3.7	0.00e+00	0	46	104	0	69	27032
2026-01-25 08:06:27.70	336.80	29.78	-48.8	-54.3	3.7	0.00e+00	0	45	104	0	69	26764
2026-01-25 08:06:28.98	336.93	29.43	-49.6	-54.8	3.7	0.00e+00	0	46	104	0	69	28392
2026-01-25 08:06:29.69	337.00	29.23	-50.2	-55.2	3.7	0.00e+00	0	45	104	0	70	27929
2026-01-25 08:06:30.97	337.12	28.88	-50.7	-55.5	3.7	0.00e+00	0	45	104	0	72	25906
2026-01-25 08:06:31.71	337.19	28.68	-50.8	-55.7	3.7	0.00e+00	0	45	104	0	72	26333
2026-01-25 08:06:32.99	337.31	28.34	-50.8	-55.7	3.7	0.00e+00	0	45	104	0	72	26478
2026-01-25 08:06:33.70	337.38	28.16	-50.7	-55.7	3.7	0.00e+00	0	45	104	0	72	26352
2026-01-25 08:06:34.98	337.50	27.83	-50.8	-55.6	3.7	0.00e+00	0	45	104	0	72	26266
2026-01-25 08:06:35.71	337.56	27.64	-50.9	-55.7	3.7	0.00e+00	0	45	104	0	72	26479
2026-01-25 08:06:37.04	337.68	27.30	-51.1	-56.1	3.7	0.00e+00	0	45	104	0	73	26263
2026-01-25 08:06:37.75	337.74	27.12	-50.8	-56.1	3.7	0.00e+00	0	45	104	0	73	25978
2026-01-25 08:06:39.14	337.85	26.78	-50.0	-55.6	3.7	0.00e+00	0	45	104	0	71	27699
2026-01-25 08:06:39.85	337.91	26.60	-49.7	-55.4	3.7	0.00e+00	0	45	104	0	71	26972
2026-01-25 08:06:41.14	338.02	26.29	-49.6	-55.3	3.7	0.00e+00	0	45	104	0	71	26655
2026-01-25 08:06:42.16	338.10	26.04	-49.6	-55.2	3.7	0.00e+00	0	45	104	0	71	26551
2026-01-25 08:06:43.47	338.20	25.73	-49.6	-55.2	3.7	0.00e+00	0	45	104	0	71	26494
2026-01-25 08:06:44.17	338.26	25.57	-49.5	-55.2	3.7	0.00e+00	0	45	104	0	71	26497
2026-01-25 08:06:45.45	338.36	25.27	-50.0	-55.6	3.7	0.00e+00	0	45	104	0	71	27532
2026-01-25 08:06:46.18	338.41	25.11	-50.5	-55.5	3.7	0.00e+00	0	45	104	0	71	27255
2026-01-25 08:06:47.46	338.51	24.82	-51.5	-56.4	3.7	0.00e+00	0	45	104	0	73	27065
2026-01-25 08:06:48.18	338.56	24.65	-50.6	-55.9	3.7	0.00e+00	0	45	104	0	72	27132
2026-01-25 08:06:49.46	338.65	24.37	-50.4	-55.8	3.7	0.00e+00	0	45	104	0	72	26664
2026-01-25 08:06:50.19	338.70	24.21	-49.8	-55.1	3.7	0.00e+00	0	45	104	0	71	26166
2026-01-25 08:06:51.55	338.80	23.91	-49.5	-54.9	3.7	0.00e+00	0	45	104	0	71	25410
2026-01-25 08:06:52.26	338.84	23.76	-49.6	-54.9	3.7	0.00e+00	0	45	104	0	70	27116
2026-01-25 08:06:53.53	338.93	23.49	-50.0	-55.3	3.7	0.00e+00	0	45	104	0	70	28321
2026-01-25 08:06:54.26	338.98	23.33	-50.1	-55.4	3.7	0.00e+00	0	45	104	0	70	28681
2026-01-25 08:06:55.67	339.07	23.04	-50.1	-55.4	3.7	0.00e+00	0	45	104	0	71	27076
2026-01-25 08:06:56.66	339.14	22.84	-50.1	-55.5	3.7	0.00e+00	0	46	104	0	71	27339
2026-01-25 08:06:57.97	339.22	22.57	-50.7	-55.9	3.7	0.00e+00	0	45	104	0	72	27166
2026-01-25 08:06:58.68	339.26	22.43	-50.1	-55.4	3.7	0.00e+00	0	45	104	0	72	25608
2026-01-25 08:06:59.96	339.34	22.17	-50.1	-55.5	3.7	0.00e+00	0	46	104	0	71	27418
2026-01-25 08:07:00.69	339.39	22.02	-50.2	-55.6	3.7	0.00e+00	0	45	104	0	71	27634
2026-01-25 08:07:01.96	339.46	21.77	-50.5	-55.8	3.7	0.00e+00	0	46	104	0	71	28391
2026-01-25 08:07:02.67	339.51	21.64	-50.7	-55.9	3.7	0.00e+00	0	45	104	0	71	28785
2026-01-25 08:07:03.95	339.58	21.39	-50.4	-55.9	3.7	0.00e+00	0	45	104	0	72	26901
2026-01-25 08:07:04.68	339.62	21.25	-50.2	-55.7	3.7	0.00e+00	0	45	104	0	72	26284
2026-01-25 08:07:05.96	339.70	21.01	-49.7	-55.5	3.7	0.00e+00	0	45	104	0	69	30614
2026-01-25 08:07:06.68	339.74	20.87	-49.2	-55.2	3.7	0.00e+00	0	45	104	0	70	27899
2026-01-25 08:07:07.96	339.81	20.64	-50.5	-56.0	3.7	0.00e+00	0	45	104	0	71	28827
2026-01-25 08:07:08.70	339.85	20.50	-50.5	-56.1	3.7	0.00e+00	0	45	104	0	71	29188
2026-01-25 08:07:10.04	339.92	20.26	-51.1	-56.3	3.7	0.00e+00	0	45	104	0	72	28479
2026-01-25 08:07:10.75	339.96	20.13	-51.2	-56.4	3.7	0.00e+00	0	46	104	0	73	27044
2026-01-25 08:07:12.03	340.03	19.90	-51.1	-56.3	3.7	0.00e+00	0	45	104	0	73	26669
2026-01-25 08:07:12.76	340.06	19.77	-50.8	-56.1	3.7	0.00e+00	0	45	104	0	73	26082
2026-01-25 08:07:14.15	340.14	19.53	-50.2	-55.6	3.7	0.00e+00	0	46	104	0	72	26145
2026-01-25 08:07:15.13	340.19	19.36	-49.3	-55.0	3.7	0.00e+00	0	45	104	0	70	27433
2026-01-25 08:07:16.12	340.24	19.19	-50.6	-55.9	3.7	0.00e+00	0	46	104	0	71	28596
2026-01-25 08:07:17.12	340.28	19.02	-49.6	-55.2	3.7	0.00e+00	0	46	104	0	70	28029
2026-01-25 08:07:18.11	340.33	18.85	-49.7	-55.4	3.7	0.00e+00	0	46	104	0	70	28567
2026-01-25 08:07:19.52	340.40	18.61	-50.5	-55.8	3.7	0.00e+00	0	46	104	0	71	28399
2026-01-25 08:07:20.23	340.43	18.49	-50.9	-56.0	3.7	0.00e+00	0	46	104	0	72	27480
2026-01-25 08:07:21.50	340.49	18.29	-51.5	-56.4	3.7	0.00e+00	0	45	104	0	73	27153
2026-01-25 08:07:22.21	340.53	18.17	-51.6	-56.5	3.7	0.00e+00	0	45	104	0	73	27392
2026-01-25 08:07:23.49	340.59	17.96	-51.9	-56.5	3.7	0.00e+00	0	45	104	0	74	25901
2026-01-25 08:07:24.22	340.62	17.85	-51.9	-56.6	3.7	0.00e+00	0	45	104	0	74	26050
2026-01-25 08:07:25.50	340.68	17.64	-51.4	-56.3	3.7	0.00e+00	0	45	104	0	73	26739
2026-01-25 08:07:26.22	340.71	17.53	-51.8	-56.5	3.7	0.00e+00	0	45	104	0	74	25847
2026-01-25 08:07:27.50	340.77	17.33	-50.0	-55.5	3.7	0.00e+00	0	45	104	0	71	27340
2026-01-25 08:07:28.21	340.80	17.22	-50.0	-55.5	3.7	0.00e+00	0	45	104	0	71	27255
2026-01-25 08:07:29.57	340.86	17.01	-50.0	-55.5	3.7	0.00e+00	0	45	104	0	71	27385
2026-01-25 08:07:30.28	340.89	16.90	-50.2	-55.7	3.7	0.00e+00	0	45	104	0	71	27841
2026-01-25 08:07:31.56	340.94	16.71	-50.3	-55.7	3.7	0.00e+00	0	45	104	0	71	28132
2026-01-25 08:07:32.29	340.97	16.60	-50.3	-55.7	3.7	0.00e+00	0	45	104	0	71	28122
2026-01-25 08:07:33.66	341.03	16.39	-49.9	-55.5	3.7	0.00e+00	0	45	104	0	71	27280
2026-01-25 08:07:34.37	341.06	16.29	-49.9	-55.5	3.7	0.00e+00	0	45	104	0	71	27252
2026-01-25 08:07:35.65	341.11	16.10	-50.2	-55.7	3.7	0.00e+00	0	46	104	0	71	27998
2026-01-25 08:07:36.69	341.15	15.95	-50.2	-55.7	3.7	0.00e+00	0	45	104	0	71	27928
2026-01-25 08:07:37.94	341.20	15.77	-50.2	-55.7	3.7	0.00e+00	0	45	104	0	71	27930
2026-01-25 08:07:38.79	341.23	15.65	-50.3	-55.7	3.7	0.00e+00	0	46	104	0	71	28005
2026-01-25 08:07:39.93	341.28	15.49	-50.3	-55.7	3.7	0.00e+00	0	46	104	0	71	28030
2026-01-25 08:07:40.79	341.31	15.37	-49.9	-55.4	3.7	0.00e+00	0	45	104	0	71	26901
2026-01-25 08:07:41.92	341.35	15.21	-48.8	-54.8	3.7	0.00e+00	0	45	104	0	69	28437
2026-01-25 08:07:42.78	341.38	15.09	-48.5	-54.5	3.7	0.00e+00	0	45	104	0	69	27372
2026-01-25 08:07:43.91	341.43	14.93	-49.3	-55.1	3.7	0.00e+00	0	45	104	0	69	29335
2026-01-25 08:07:44.76	341.46	14.82	-48.9	-54.9	3.7	0.00e+00	0	45	104	0	69	28498
2026-01-25 08:07:45.90	341.50	14.66	-49.3	-55.2	3.7	0.00e+00	0	46	104	0	69	29637
2026-01-25 08:07:46.75	341.53	14.55	-49.6	-55.4	3.7	0.00e+00	0	45	104	0	69	30231
2026-01-25 08:07:47.89	341.57	14.40	-49.9	-55.6	3.7	0.00e+00	0	45	104	0	70	29263
2026-01-25 08:07:48.76	341.60	14.28	-49.9	-55.5	3.7	0.00e+00	0	45	104	0	70	29083
2026-01-25 08:07:49.90	341.64	14.13	-49.9	-55.5	3.7	0.00e+00	0	45	104	0	70	28986
2026-01-25 08:07:50.75	341.67	14.02	-49.3	-55.1	3.7	0.00e+00	0	46	104	0	70	27546
2026-01-25 08:07:51.89	341.71	13.87	-48.4	-54.5	3.7	0.00e+00	0	45	104	0	68	28963
2026-01-25 08:07:52.74	341.74	13.76	-49.2	-55.0	3.7	0.00e+00	0	45	104	0	69	28966
2026-01-25 08:07:53.88	341.78	13.62	-48.4	-54.5	3.7	0.00e+00	0	46	104	0	68	29071
2026-01-25 08:07:54.73	341.80	13.51	-48.4	-54.6	3.7	0.00e+00	0	45	104	0	68	29356
2026-01-25 08:07:55.87	341.84	13.36	-48.4	-54.6	3.7	0.00e+00	0	45	104	0	68	29242
2026-01-25 08:07:56.72	341.87	13.26	-48.4	-54.7	3.7	0.00e+00	0	46	104	0	68	29556
2026-01-25 08:07:57.85	341.91	13.12	-49.1	-55.0	3.7	0.00e+00	0	45	104	0	69	29135
2026-01-25 08:07:58.71	341.93	13.01	-48.8	-55.1	3.7	0.00e+00	0	45	104	0	69	29459
2026-01-25 08:07:59.91	341.97	12.86	-47.4	-53.8	3.7	0.00e+00	0	45	104	0	66	30132
2026-01-25 08:08:00.76	342.00	12.76	-49.2	-55.1	3.7	0.00e+00	0	46	104	0	68	31035
2026-01-25 08:08:01.90	342.04	12.62	-47.6	-53.8	3.7	0.00e+00	0	45	104	0	66	30116
2026-01-25 08:08:02.75	342.06	12.52	-47.4	-53.8	3.7	0.00e+00	0	45	104	0	66	29843
2026-01-25 08:08:04.01	342.10	12.37	-47.5	-53.8	3.7	0.00e+00	0	45	104	0	66	29930
2026-01-25 08:08:04.82	342.13	12.27	-47.4	-53.7	3.7	0.00e+00	0	46	104	0	66	29778
2026-01-25 08:08:05.95	342.16	12.14	-47.3	-53.7	3.7	0.00e+00	0	46	104	0	66	29605
2026-01-25 08:08:06.80	342.19	12.04	-47.3	-53.8	3.7	0.00e+00	0	45	104	0	66	29873
2026-01-25 08:08:08.11	342.22	11.88	-49.0	-55.0	3.7	0.00e+00	0	45	104	0	68	30770
2026-01-25 08:08:08.82	342.25	11.80	-49.0	-55.0	3.7	0.00e+00	0	45	104	0	68	30641
2026-01-25 08:08:10.27	342.29	11.63	-48.8	-54.9	3.7	0.00e+00	0	45	104	0	68	30409
2026-01-25 08:08:11.27	342.32	11.52	-49.5	-55.6	3.7	0.00e+00	0	45	104	0	69	30986
2026-01-25 08:08:12.26	342.35	11.41	-49.4	-55.5	3.7	0.00e+00	0	45	104	0	69	30818
2026-01-25 08:08:13.26	342.37	11.30	-49.6	-55.7	3.7	0.00e+00	0	45	104	0	69	31434
2026-01-25 08:08:14.25	342.40	11.18	-49.6	-55.6	3.7	0.00e+00	0	45	104	0	69	31191
2026-01-25 08:08:15.24	342.43	11.07	-49.4	-55.4	3.7	0.00e+00	0	45	104	0	69	30413
2026-01-25 08:08:16.24	342.46	10.96	-49.1	-55.1	3.7	0.00e+00	0	46	104	0	69	29244
2026-01-25 08:08:17.23	342.49	10.85	-49.0	-54.9	3.7	0.00e+00	0	46	104	0	69	28664
2026-01-25 08:08:18.26	342.51	10.74	-49.1	-55.2	3.7	0.00e+00	0	45	104	0	69	29769
2026-01-25 08:08:19.29	342.54	10.63	-49.6	-55.5	3.7	0.00e+00	0	45	104	0	70	28931
2026-01-25 08:08:20.28	342.57	10.52	-48.7	-54.7	3.7	0.00e+00	0	45	104	0	69	28125
2026-01-25 08:08:21.34	342.60	10.41	-48.3	-54.3	3.7	0.00e+00	0	45	104	0	68	28377
2026-01-25 08:08:22.24	342.62	10.31	-48.1	-54.2	3.7	0.00e+00	0	45	104	0	68	27959
2026-01-25 08:08:23.29	342.65	10.20	-47.7	-54.0	3.7	0.00e+00	0	45	104	0	67	28906
2026-01-25 08:08:24.18	342.67	10.11	-47.5	-53.8	3.7	0.00e+00	0	45	104	0	67	28371
2026-01-25 08:08:25.31	342.70	9.99	-47.4	-53.8	3.7	0.00e+00	0	45	104	0	66	29892
2026-01-25 08:08:26.17	342.72	9.90	-47.5	-54.0	3.7	0.00e+00	0	45	104	0	66	30565
2026-01-25 08:08:27.30	342.75	9.78	-47.7	-54.3	3.7	0.00e+00	0	45	104	0	66	31682
2026-01-25 08:08:28.15	342.77	9.69	-46.9	-54.0	3.7	0.00e+00	0	45	104	0	65	32387
2026-01-25 08:08:29.29	342.80	9.58	-48.0	-54.3	3.7	0.00e+00	0	45	104	0	66	31753
2026-01-25 08:08:30.14	342.82	9.49	-47.1	-54.0	3.7	0.00e+00	0	46	104	0	66	30608
2026-01-25 08:08:31.28	342.85	9.37	-47.0	-54.0	3.7	0.00e+00	0	45	104	0	66	30646
2026-01-25 08:08:32.13	342.87	9.29	-46.2	-53.2	3.7	0.00e+00	0	45	104	0	64	31346
2026-01-25 08:08:33.27	342.90	9.17	-47.2	-54.1	3.7	0.00e+00	0	46	104	0	65	32952
2026-01-25 08:08:34.12	342.92	9.09	-45.6	-52.6	3.8	0.00e+00	0	45	104	0	63	30980
2026-01-25 08:08:35.26	342.95	8.97	-49.5	-55.3	3.7	0.00e+00	0	45	104	0	69	29930
2026-01-25 08:08:36.11	342.97	8.89	-47.4	-53.5	3.7	0.00e+00	0	45	104	0	65	30523
2026-01-25 08:08:37.24	343.00	8.78	-49.1	-55.1	3.7	0.00e+00	0	46	104	0	68	31124
2026-01-25 08:08:38.10	343.02	8.69	-50.9	-56.0	3.7	0.00e+00	0	45	104	0	72	27381
2026-01-25 08:08:39.23	343.04	8.58	-49.4	-55.1	3.7	0.00e+00	0	45	104	0	70	27746
2026-01-25 08:08:40.08	343.06	8.50	-49.7	-55.4	3.7	0.00e+00	0	45	104	0	71	27011
2026-01-25 08:08:41.22	343.09	8.39	-50.5	-55.6	3.7	0.00e+00	0	45	104	0	73	24556
2026-01-25 08:08:42.10	343.11	8.31	-51.3	-56.0	3.7	0.00e+00	0	46	104	0	73	25844
2026-01-25 08:08:43.24	343.14	8.20	-51.9	-56.7	3.7	0.00e+00	0	45	104	0	74	26563
2026-01-25 08:08:44.18	343.16	8.11	-51.0	-56.2	3.7	0.00e+00	0	45	104	0	74	24967
2026-01-25 08:08:45.35	343.18	8.00	-50.9	-56.3	3.7	0.00e+00	0	45	104	0	73	26675
2026-01-25 08:08:46.23	343.20	7.92	-52.0	-56.9	3.7	0.00e+00	0	46	104	0	75	25443
2026-01-25 08:08:47.54	343.23	7.79	-52.4	-57.1	3.7	0.00e+00	0	45	104	0	75	26134
2026-01-25 08:08:48.25	343.25	7.73	-51.5	-56.5	3.7	0.00e+00	0	45	104	0	74	25804
2026-01-25 08:08:49.75	343.28	7.59	-52.1	-56.9	3.7	0.00e+00	0	45	104	0	75	25649
2026-01-25 08:08:50.45	343.30	7.53	-52.4	-57.1	3.7	0.00e+00	0	45	104	0	75	26202
2026-01-25 08:08:51.80	343.33	7.40	-52.4	-57.1	3.7	0.00e+00	0	45	104	0	75	26033
2026-01-25 08:08:52.50	343.34	7.34	-51.7	-56.8	3.7	0.00e+00	0	45	104	0	75	25140
2026-01-25 08:08:53.85	343.37	7.22	-52.6	-57.2	3.7	0.00e+00	0	45	104	0	75	26523
2026-01-25 08:08:54.56	343.38	7.15	-52.6	-57.2	3.7	0.00e+00	0	45	104	0	75	26453
2026-01-25 08:08:55.83	343.41	7.04	-52.4	-57.1	3.7	0.00e+00	0	45	104	0	76	24688
2026-01-25 08:08:56.56	343.43	6.97	-52.4	-57.0	3.7	0.00e+00	0	45	104	0	76	24489
2026-01-25 08:08:57.83	343.45	6.86	-52.3	-57.0	3.7	0.00e+00	0	45	104	0	76	24445
2026-01-25 08:08:58.54	343.47	6.80	-52.1	-56.9	3.7	0.00e+00	0	45	104	0	76	23987
2026-01-25 08:08:59.82	343.49	6.68	-51.3	-56.2	3.7	0.00e+00	0	45	104	0	74	24975
2026-01-25 08:09:00.53	343.51	6.62	-51.6	-56.5	3.7	0.00e+00	0	45	104	0	74	25946
2026-01-25 08:09:01.81	343.53	6.51	-51.4	-56.3	3.7	0.00e+00	0	45	104	0	74	25122
2026-01-25 08:09:02.53	343.55	6.45	-51.4	-56.2	3.7	0.00e+00	0	45	104	0	74	25029
2026-01-25 08:09:03.81	343.58	6.34	-51.4	-56.3	3.7	0.00e+00	0	45	104	0	74	25101
2026-01-25 08:09:04.53	343.59	6.28	-51.4	-56.2	3.7	0.00e+00	0	45	104	0	74	25045
2026-01-25 08:09:05.81	343.61	6.17	-51.4	-56.3	3.7	0.00e+00	0	45	104	0	74	25115
2026-01-25 08:09:06.53	343.63	6.10	-51.4	-56.3	3.7	0.00e+00	0	45	104	0	74	25240
2026-01-25 08:09:07.81	343.65	6.00	-51.4	-56.2	3.7	0.00e+00	0	45	104	0	74	25088
2026-01-25 08:09:08.52	343.67	5.94	-51.4	-56.2	3.7	0.00e+00	0	45	104	0	74	25074
2026-01-25 08:09:09.80	343.69	5.83	-51.4	-56.2	3.7	0.00e+00	0	45	104	0	74	25072
2026-01-25 08:09:10.51	343.71	5.77	-51.4	-56.2	3.7	0.00e+00	0	45	104	0	74	25068
2026-01-25 08:09:11.79	343.73	5.66	-51.4	-56.2	3.7	0.00e+00	0	45	104	0	74	24934
2026-01-25 08:09:12.50	343.74	5.60	-51.4	-56.2	3.7	0.00e+00	0	45	104	0	74	25049
2026-01-25 08:09:13.77	343.77	5.50	-51.4	-56.2	3.7	0.00e+00	0	45	104	0	74	25069
2026-01-25 08:09:14.50	343.78	5.44	-51.4	-56.2	3.7	0.00e+00	0	45	104	0	74	25055
2026-01-25 08:09:15.77	343.81	5.33	-51.4	-56.3	3.7	0.00e+00	0	45	104	0	74	25109
2026-01-25 08:09:16.48	343.82	5.28	-51.4	-56.2	3.7	0.00e+00	0	45	104	0	74	25081
2026-01-25 08:09:17.78	343.84	5.17	-51.4	-56.2	3.7	0.00e+00	0	45	104	0	74	25074
2026-01-25 08:09:18.48	343.86	5.11	-51.4	-56.3	3.7	0.00e+00	0	46	104	0	74	25158
2026-01-25 08:09:19.76	343.88	5.01	-51.4	-56.2	3.7	0.00e+00	0	45	104	0	74	25018
2026-01-25 08:09:20.47	343.89	4.95	-51.4	-56.2	3.7	0.00e+00	0	45	104	0	74	25035

#Closed at: 2026-01-25 08:09:21
#Recorded file [0 MB]: D:/Data/31040_260125_110014.dat