passes_logs/2026/01/25/T1/T1__20260125_173839_FENGYUN_3G_rec.log

#Pass ID: 20260125_173839_FENGYUN 3G
#Satellite: FENGYUN 3G
#Configuration: FENGYUN 3G
#almurnet v.1.7.20251203
#Start time: 2026-01-25 17:38:40

#Version: 2.0.20230620
#Station: T1
#Location: 37.570604 lon 55.790049 lat
#TLE: 1 56232U 23055A   26025.14527328  .00046082  00000+0  69370-3 0  9997
#TLE: 2 56232  49.9948   3.5622 0004071  80.7231 279.4197 15.54300718157774

#Time	Az	El	Level	Level2	SNR	BER	BlckErr	Temp	State	Recorded	gain1	gain2
2026-01-25 17:38:40.78	223.11	5.11	-47.8	-66.8	3.8	8.48e-01	0	35	0	0	67	31624
2026-01-25 17:38:41.76	223.00	5.18	-47.7	-66.8	3.8	8.38e-01	0	35	104	0	67	31605
2026-01-25 17:38:42.76	222.88	5.25	-47.7	-66.8	3.8	8.46e-01	0	36	104	0	67	31547
2026-01-25 17:38:43.75	222.77	5.32	-47.7	-66.8	3.8	8.47e-01	0	35	104	0	67	31518
2026-01-25 17:38:44.74	222.66	5.40	-47.7	-66.8	3.8	8.47e-01	0	35	104	0	67	31557
2026-01-25 17:38:45.74	222.54	5.47	-47.7	-66.8	3.8	8.46e-01	0	36	104	0	67	31498
2026-01-25 17:38:46.73	222.43	5.54	-47.7	-66.8	3.8	8.47e-01	0	35	104	0	67	31476
2026-01-25 17:38:47.72	222.31	5.61	-47.7	-66.8	3.8	8.47e-01	0	36	104	0	67	31595
2026-01-25 17:38:48.72	222.19	5.69	-47.7	-66.7	3.8	8.47e-01	0	35	104	0	67	31402
2026-01-25 17:38:49.71	222.07	5.76	-47.7	-66.7	3.8	8.47e-01	0	36	104	0	67	31414
2026-01-25 17:38:50.70	221.95	5.83	-47.7	-66.7	3.8	8.47e-01	0	36	104	0	67	31375
2026-01-25 17:38:51.70	221.83	5.91	-47.7	-66.8	3.8	8.47e-01	0	36	104	0	67	31495
2026-01-25 17:38:52.69	221.71	5.98	-47.7	-66.8	3.8	8.47e-01	0	36	104	0	67	31474
2026-01-25 17:38:53.68	221.59	6.05	-47.7	-66.7	3.8	8.47e-01	0	36	104	0	67	31369
2026-01-25 17:38:54.68	221.47	6.13	-47.7	-66.8	3.8	8.48e-01	0	36	104	0	67	31537
2026-01-25 17:38:55.67	221.34	6.20	-47.7	-66.7	3.8	8.46e-01	0	36	104	0	67	31420
2026-01-25 17:38:56.66	221.22	6.28	-47.7	-66.7	3.8	8.46e-01	0	36	104	0	67	31222
2026-01-25 17:38:57.66	221.09	6.35	-47.7	-66.7	3.8	8.47e-01	0	36	104	0	67	31222
2026-01-25 17:38:58.65	220.96	6.43	-47.7	-66.6	3.8	8.48e-01	0	36	104	0	67	30958
2026-01-25 17:38:59.64	220.84	6.50	-47.7	-66.6	3.8	8.47e-01	0	36	104	0	67	30808
2026-01-25 17:39:00.64	220.71	6.58	-47.7	-66.6	3.8	8.47e-01	0	36	104	0	67	30949
2026-01-25 17:39:01.63	220.58	6.66	-47.7	-66.6	3.8	8.47e-01	0	36	104	0	67	30752
2026-01-25 17:39:02.62	220.45	6.73	-47.7	-66.4	3.8	8.46e-01	0	36	104	0	67	30271
2026-01-25 17:39:03.62	220.32	6.81	-47.7	-66.4	3.8	8.46e-01	0	36	104	0	67	30070
2026-01-25 17:39:04.61	220.19	6.88	-47.7	-66.4	3.8	8.47e-01	0	36	104	0	67	30087
2026-01-25 17:39:05.60	220.05	6.96	-47.7	-66.5	3.8	8.47e-01	0	36	104	0	67	30425
2026-01-25 17:39:06.60	219.92	7.04	-47.7	-66.4	3.8	8.47e-01	0	36	104	0	67	30338
2026-01-25 17:39:07.59	219.78	7.12	-47.7	-66.3	3.8	8.46e-01	0	36	104	0	67	30031
2026-01-25 17:39:08.58	219.65	7.19	-47.7	-66.4	3.8	8.47e-01	0	36	104	0	67	30061
2026-01-25 17:39:09.58	219.51	7.27	-47.7	-66.4	3.8	8.47e-01	0	36	104	0	67	30335
2026-01-25 17:39:10.57	219.37	7.35	-47.7	-66.6	3.8	8.46e-01	0	36	104	0	67	30922
2026-01-25 17:39:11.56	219.23	7.43	-47.7	-66.7	3.8	8.47e-01	0	36	104	0	67	31407
2026-01-25 17:39:12.56	219.09	7.51	-47.7	-66.7	3.8	8.47e-01	0	37	104	0	67	31196
2026-01-25 17:39:13.55	218.95	7.58	-47.7	-66.5	3.8	8.47e-01	0	36	104	0	67	30402
2026-01-25 17:39:14.54	218.81	7.66	-47.7	-66.2	3.8	8.47e-01	0	36	104	0	67	29521
2026-01-25 17:39:15.54	218.66	7.74	-47.7	-65.9	3.8	8.47e-01	0	37	104	0	67	28591
2026-01-25 17:39:16.53	218.52	7.82	-47.7	-65.1	3.8	8.48e-01	0	37	104	0	67	26131
2026-01-25 17:39:17.53	218.37	7.90	-47.6	-64.1	3.9	8.46e-01	0	37	104	0	67	23112
2026-01-25 17:39:18.52	218.22	7.98	-47.6	-63.4	4.1	8.46e-01	0	37	0	0	67	21481
2026-01-25 17:39:19.51	218.08	8.06	-47.6	-63.2	4.2	8.42e-01	0	37	0	0	67	20892
2026-01-25 17:39:20.51	217.93	8.14	-47.6	-63.2	4.2	8.38e-01	0	37	0	0	67	20874
2026-01-25 17:39:21.50	217.78	8.22	-47.6	-64.2	3.9	8.40e-01	0	37	104	0	67	23537
2026-01-25 17:39:22.49	217.62	8.30	-47.7	-65.5	3.8	8.40e-01	0	37	104	0	67	27120
2026-01-25 17:39:23.49	217.47	8.39	-47.7	-65.7	3.8	8.46e-01	0	37	104	0	67	27736
2026-01-25 17:39:24.48	217.32	8.47	-47.7	-65.4	3.8	8.48e-01	0	37	104	0	67	26989
2026-01-25 17:39:25.47	217.16	8.55	-47.6	-65.6	3.8	8.48e-01	0	37	104	0	67	27682
2026-01-25 17:39:26.47	217.00	8.63	-47.7	-66.2	3.8	8.46e-01	0	37	104	0	67	29455
2026-01-25 17:39:27.46	216.85	8.71	-47.6	-63.8	3.9	8.47e-01	0	37	104	0	67	22389
2026-01-25 17:39:28.46	216.69	8.80	-47.3	-59.0	6.4	8.47e-01	0	37	0	0	66	13691
2026-01-25 17:39:29.45	216.53	8.88	-46.8	-55.6	9.8	5.73e-01	0	37	0	0	65	9754
2026-01-25 17:39:30.44	216.37	8.96	-46.3	-53.5	12.0	2.12e-02	0	37	0	0	64	8114
2026-01-25 17:39:31.44	216.20	9.05	-46.0	-52.6	13.0	2.12e-02	0	37	0	0	64	7324
2026-01-25 17:39:32.43	216.04	9.13	-46.3	-53.0	12.9	2.20e-04	0	37	0	0	63	8170
2026-01-25 17:39:33.43	215.87	9.21	-46.4	-53.8	11.5	8.41e-03	0	37	0	0	64	8406
2026-01-25 17:39:34.42	215.71	9.30	-44.6	-49.0	16.3	8.41e-03	0	37	0	0	61	5775
2026-01-25 17:39:35.42	215.54	9.38	-44.2	-47.9	19.0	1.73e-03	0	37	0	0	58	6024
2026-01-25 17:39:36.41	215.37	9.47	-47.0	-57.2	7.4	1.29e-01	0	37	0	0	65	11794
2026-01-25 17:39:37.40	215.20	9.55	-42.6	-45.7	20.1	1.29e-01	0	37	0	0	57	4972
2026-01-25 17:39:38.40	215.03	9.64	-42.3	-45.3	20.5	1.26e-01	0	37	0	0	56	5031
2026-01-25 17:39:39.39	214.85	9.72	-41.3	-44.1	21.5	0.00e+00	0	37	0	0	54	4925
2026-01-25 17:39:40.39	214.68	9.81	-41.4	-44.2	21.6	0.00e+00	0	37	0	0	54	4951
2026-01-25 17:39:41.38	214.50	9.89	-41.1	-43.8	21.9	0.00e+00	0	37	0	0	53	5033
2026-01-25 17:39:42.38	214.32	9.98	-40.9	-43.6	22.1	0.00e+00	0	37	0	0	53	4886
2026-01-25 17:39:43.37	214.14	10.06	-40.4	-43.0	22.6	0.00e+00	0	37	0	0	52	4847
2026-01-25 17:39:44.43	213.95	10.16	-40.1	-42.6	23.1	0.00e+00	0	37	0	0	52	4636
2026-01-25 17:39:45.36	213.78	10.24	-40.0	-42.5	23.3	0.00e+00	0	37	0	0	51	4819
2026-01-25 17:39:46.48	213.57	10.34	-39.9	-42.3	23.5	0.00e+00	0	37	0	0	51	4743
2026-01-25 17:39:47.33	213.42	10.41	-39.4	-41.8	23.9	0.00e+00	0	37	0	0	50	4736
2026-01-25 17:39:48.47	213.20	10.51	-39.2	-41.5	24.2	0.00e+00	0	37	0	0	50	4571
2026-01-25 17:39:49.32	213.04	10.59	-39.0	-41.3	24.4	0.00e+00	0	37	0	0	50	4465
2026-01-25 17:39:50.46	212.82	10.69	-38.9	-41.2	24.5	0.00e+00	0	37	0	0	49	4670
2026-01-25 17:39:51.31	212.66	10.76	-38.9	-41.2	24.4	0.00e+00	0	37	0	0	49	4702
2026-01-25 17:39:52.45	212.44	10.86	-38.8	-41.1	24.5	0.00e+00	0	37	0	0	49	4646
2026-01-25 17:39:53.30	212.27	10.94	-38.6	-40.9	24.8	0.00e+00	0	37	0	0	49	4495
2026-01-25 17:39:54.43	212.05	11.04	-38.4	-40.7	25.0	0.00e+00	0	37	0	0	48	4660
2026-01-25 17:39:55.29	211.88	11.12	-38.5	-40.7	24.9	0.00e+00	0	37	0	0	48	4691
2026-01-25 17:39:56.42	211.65	11.22	-38.6	-40.8	24.8	0.00e+00	0	37	0	0	48	4749
2026-01-25 17:39:57.28	211.48	11.30	-38.7	-41.0	24.7	0.00e+00	0	37	0	0	48	4815
2026-01-25 17:39:58.43	211.24	11.40	-38.6	-40.9	24.8	0.00e+00	0	37	0	0	48	4781
2026-01-25 17:39:59.28	211.07	11.48	-38.6	-40.9	24.8	0.00e+00	0	37	0	0	48	4786
2026-01-25 17:40:00.47	210.82	11.59	-38.6	-40.9	24.8	0.00e+00	0	37	0	0	48	4769
2026-01-25 17:40:01.32	210.65	11.66	-38.4	-40.6	25.0	0.00e+00	0	37	0	0	48	4640
2026-01-25 17:40:02.46	210.41	11.77	-38.5	-40.6	25.0	0.00e+00	0	37	0	0	48	4648
2026-01-25 17:40:03.31	210.22	11.85	-38.3	-40.4	25.2	0.00e+00	0	37	0	0	48	4544
2026-01-25 17:40:04.45	209.98	11.95	-38.2	-40.3	25.3	0.00e+00	0	37	0	0	48	4480
2026-01-25 17:40:05.30	209.80	12.03	-38.3	-40.4	25.2	0.00e+00	0	37	0	0	48	4522
2026-01-25 17:40:06.44	209.55	12.13	-38.2	-40.3	25.3	0.00e+00	0	37	0	0	48	4474
2026-01-25 17:40:07.38	209.34	12.22	-38.1	-40.2	25.4	0.00e+00	0	37	0	0	48	4425
2026-01-25 17:40:08.38	209.12	12.31	-38.3	-40.5	25.1	0.00e+00	0	37	0	0	48	4579
2026-01-25 17:40:09.38	208.90	12.40	-38.4	-40.6	24.9	0.00e+00	0	37	0	0	48	4636
2026-01-25 17:40:10.37	208.68	12.50	-38.5	-40.7	24.9	0.00e+00	0	37	0	0	48	4657
2026-01-25 17:40:11.36	208.45	12.59	-38.4	-40.5	25.0	0.00e+00	0	38	0	0	48	4582
2026-01-25 17:40:12.36	208.22	12.68	-38.2	-40.3	25.4	0.00e+00	0	37	0	0	48	4472
2026-01-25 17:40:13.36	207.99	12.78	-38.2	-40.3	25.3	0.00e+00	0	37	0	0	48	4491
2026-01-25 17:40:14.35	207.76	12.87	-38.3	-40.4	25.2	0.00e+00	0	38	0	0	48	4527
2026-01-25 17:40:15.35	207.53	12.96	-38.2	-40.3	25.3	0.00e+00	0	37	0	0	48	4484
2026-01-25 17:40:16.34	207.29	13.05	-37.9	-40.1	25.5	0.00e+00	0	37	0	0	47	4622
2026-01-25 17:40:17.34	207.05	13.15	-37.5	-39.6	25.9	0.00e+00	0	37	0	0	47	4390
2026-01-25 17:40:18.36	206.81	13.24	-37.7	-39.8	25.8	0.00e+00	0	37	0	0	47	4475
2026-01-25 17:40:19.36	206.57	13.34	-37.5	-39.6	26.0	0.00e+00	0	37	0	0	47	4375
2026-01-25 17:40:20.35	206.32	13.43	-37.7	-39.8	25.8	0.00e+00	0	37	0	0	47	4478
2026-01-25 17:40:21.35	206.08	13.53	-37.8	-39.9	25.6	0.00e+00	0	37	0	0	47	4544
2026-01-25 17:40:22.34	205.83	13.62	-37.9	-40.0	25.6	0.00e+00	0	37	0	0	47	4580
2026-01-25 17:40:23.34	205.58	13.71	-37.9	-40.1	25.6	0.00e+00	0	37	0	0	47	4610
2026-01-25 17:40:24.33	205.33	13.81	-38.0	-40.1	25.5	0.00e+00	0	37	0	0	47	4649
2026-01-25 17:40:25.33	205.08	13.90	-37.8	-39.9	25.7	0.00e+00	0	37	0	0	47	4540
2026-01-25 17:40:26.32	204.82	14.00	-37.5	-39.6	25.9	0.00e+00	0	38	0	0	47	4387
2026-01-25 17:40:27.32	204.56	14.09	-37.4	-39.5	26.0	0.00e+00	0	37	0	0	46	4580
2026-01-25 17:40:28.31	204.30	14.19	-37.2	-39.3	26.2	0.00e+00	0	38	0	0	46	4474
2026-01-25 17:40:29.31	204.04	14.28	-37.2	-39.3	26.3	0.00e+00	0	38	0	0	46	4475
2026-01-25 17:40:30.30	203.78	14.38	-37.2	-39.3	26.2	0.00e+00	0	38	0	0	46	4489
2026-01-25 17:40:31.30	203.51	14.47	-37.4	-39.5	26.1	0.00e+00	0	38	0	0	46	4585
2026-01-25 17:40:32.29	203.24	14.57	-37.5	-39.6	26.0	0.00e+00	0	38	0	0	46	4646
2026-01-25 17:40:33.29	202.97	14.66	-37.5	-39.6	26.0	0.00e+00	0	38	0	0	46	4637
2026-01-25 17:40:34.35	202.68	14.76	-37.6	-39.8	25.9	0.00e+00	0	37	0	0	46	4712
2026-01-25 17:40:35.25	202.43	14.85	-37.6	-39.8	25.6	0.00e+00	0	37	0	0	46	4721
2026-01-25 17:40:36.35	202.12	14.95	-37.3	-39.5	26.1	0.00e+00	0	38	0	0	46	4549
2026-01-25 17:40:37.28	201.86	15.04	-37.0	-39.0	26.5	0.00e+00	0	38	0	0	46	4331
2026-01-25 17:40:38.45	201.53	15.15	-36.6	-38.6	26.8	0.00e+00	0	38	0	0	45	4379
2026-01-25 17:40:39.30	201.29	15.23	-36.6	-38.6	26.8	0.00e+00	0	38	0	0	45	4362
2026-01-25 17:40:40.64	200.90	15.36	-36.6	-38.6	26.8	0.00e+00	0	38	0	0	45	4387
2026-01-25 17:40:41.35	200.69	15.43	-36.6	-38.6	26.9	0.00e+00	0	37	0	0	45	4383
2026-01-25 17:40:42.63	200.32	15.55	-36.7	-38.7	26.8	0.00e+00	0	38	0	0	45	4400
2026-01-25 17:40:43.36	200.10	15.62	-36.8	-38.8	26.7	0.00e+00	0	38	0	0	45	4478
2026-01-25 17:40:44.64	199.72	15.74	-36.8	-38.8	26.7	0.00e+00	0	38	0	0	45	4474
2026-01-25 17:40:45.35	199.51	15.81	-36.9	-39.0	26.5	0.00e+00	0	38	0	0	45	4564
2026-01-25 17:40:46.63	199.12	15.93	-37.0	-39.1	26.5	0.00e+00	0	38	0	0	45	4612
2026-01-25 17:40:47.36	198.90	16.00	-37.0	-39.0	26.5	0.00e+00	0	38	0	0	45	4594
2026-01-25 17:40:48.63	198.51	16.12	-36.9	-39.0	26.6	0.00e+00	0	38	0	0	45	4569
2026-01-25 17:40:49.47	198.24	16.20	-36.9	-39.0	26.5	0.00e+00	0	38	0	0	45	4563
2026-01-25 17:40:50.61	197.89	16.31	-37.0	-39.1	26.5	0.00e+00	0	38	0	0	45	4609
2026-01-25 17:40:51.46	197.62	16.39	-36.8	-38.9	26.6	0.00e+00	0	38	0	0	45	4514
2026-01-25 17:40:52.60	197.26	16.49	-36.8	-38.8	26.7	0.00e+00	0	38	0	0	45	4492
2026-01-25 17:40:53.45	196.98	16.57	-36.6	-38.6	26.9	0.00e+00	0	38	0	0	45	4377
2026-01-25 17:40:54.59	196.62	16.68	-36.4	-38.4	27.1	0.00e+00	0	38	0	0	44	4530
2026-01-25 17:40:55.44	196.34	16.76	-36.2	-38.2	27.3	0.00e+00	0	38	0	0	44	4437
2026-01-25 17:40:56.58	195.97	16.86	-36.3	-38.4	27.1	0.00e+00	0	38	0	0	44	4496
2026-01-25 17:40:57.43	195.69	16.94	-36.3	-38.3	27.2	0.00e+00	0	38	0	0	44	4481
2026-01-25 17:40:58.63	195.29	17.05	-36.4	-38.4	27.1	0.00e+00	0	38	0	0	44	4539
2026-01-25 17:40:59.48	195.00	17.13	-36.5	-38.5	27.0	0.00e+00	0	38	0	0	44	4566
2026-01-25 17:41:00.62	194.62	17.23	-36.5	-38.6	26.9	0.00e+00	0	38	0	0	44	4619
2026-01-25 17:41:01.47	194.33	17.31	-36.5	-38.5	27.0	0.00e+00	0	38	0	0	44	4579
2026-01-25 17:41:02.61	193.93	17.41	-36.4	-38.4	27.1	0.00e+00	0	38	0	0	44	4540
2026-01-25 17:41:03.46	193.64	17.49	-36.4	-38.4	27.1	0.00e+00	0	38	0	0	44	4532
2026-01-25 17:41:04.60	193.24	17.59	-36.6	-38.6	26.9	0.00e+00	0	37	0	0	44	4637
2026-01-25 17:41:05.45	192.95	17.67	-36.6	-38.6	26.9	0.00e+00	0	38	0	0	44	4617
2026-01-25 17:41:06.59	192.54	17.77	-36.3	-38.3	27.2	0.00e+00	0	38	0	0	44	4460
2026-01-25 17:41:07.58	192.19	17.86	-36.2	-38.1	27.3	0.00e+00	0	38	0	0	44	4386
2026-01-25 17:41:08.75	191.77	17.96	-35.5	-37.5	27.5	0.00e+00	0	38	0	0	43	4294
2026-01-25 17:41:09.61	191.46	18.03	-35.6	-37.6	27.6	0.00e+00	0	38	0	0	43	4378
2026-01-25 17:41:10.99	190.96	18.15	-35.4	-37.4	27.8	0.00e+00	0	37	0	0	42	4511
2026-01-25 17:41:11.71	190.69	18.22	-35.3	-37.3	27.9	0.00e+00	0	38	0	0	42	4463
2026-01-25 17:41:12.99	190.22	18.33	-35.6	-37.6	27.7	0.00e+00	0	38	0	0	42	4604
2026-01-25 17:41:13.72	189.95	18.39	-35.8	-37.8	27.5	0.00e+00	0	38	0	0	42	4718
2026-01-25 17:41:15.00	189.47	18.49	-35.7	-37.6	27.6	0.00e+00	0	38	0	0	42	4648
2026-01-25 17:41:15.71	189.20	18.55	-35.9	-38.0	27.3	0.00e+00	0	38	0	0	42	4822
2026-01-25 17:41:16.99	188.71	18.66	-36.0	-38.1	27.2	0.00e+00	0	38	0	0	42	4878
2026-01-25 17:41:17.73	188.43	18.72	-36.0	-38.0	27.2	0.00e+00	0	38	0	0	42	4858
2026-01-25 17:41:19.01	187.94	18.82	-36.2	-38.2	27.1	0.00e+00	0	38	0	0	43	4689
2026-01-25 17:41:19.74	187.65	18.88	-36.3	-38.3	27.0	0.00e+00	0	38	0	0	43	4749
2026-01-25 17:41:21.01	187.16	18.98	-36.1	-38.1	27.2	0.00e+00	0	38	0	0	43	4610
2026-01-25 17:41:21.74	186.87	19.04	-36.2	-38.2	27.2	0.00e+00	0	38	0	0	43	4683
2026-01-25 17:41:23.02	186.37	19.14	-36.4	-38.4	27.0	0.00e+00	0	38	0	0	43	4781
2026-01-25 17:41:23.75	186.08	19.20	-36.4	-38.4	27.0	0.00e+00	0	38	0	0	43	4806
2026-01-25 17:41:25.04	185.56	19.30	-36.8	-38.8	26.7	0.00e+00	0	38	0	0	44	4749
2026-01-25 17:41:25.75	185.27	19.35	-36.7	-38.7	26.9	0.00e+00	0	38	0	0	44	4692
2026-01-25 17:41:27.03	184.76	19.45	-36.7	-38.7	26.6	0.00e+00	0	38	0	0	44	4692
2026-01-25 17:41:27.75	184.46	19.50	-36.7	-38.7	26.8	0.00e+00	0	38	0	0	44	4702
2026-01-25 17:41:29.15	183.89	19.60	-36.2	-38.2	27.2	0.00e+00	0	38	0	0	44	4429
2026-01-25 17:41:29.86	183.60	19.65	-36.2	-38.2	27.3	0.00e+00	0	38	0	0	44	4403
2026-01-25 17:41:31.13	183.07	19.74	-36.1	-38.1	27.4	0.00e+00	0	38	0	0	44	4376
2026-01-25 17:41:31.84	182.77	19.79	-36.1	-38.1	27.4	0.00e+00	0	38	0	0	44	4357
2026-01-25 17:41:33.26	182.18	19.89	-36.0	-38.0	27.5	0.00e+00	0	38	0	0	44	4300
2026-01-25 17:41:34.26	181.76	19.95	-35.6	-37.6	27.6	0.00e+00	0	38	0	0	43	4363
2026-01-25 17:41:35.56	181.21	20.04	-35.4	-37.4	27.7	0.00e+00	0	38	0	0	42	4512
2026-01-25 17:41:36.27	180.90	20.08	-35.3	-37.3	27.9	0.00e+00	0	38	0	0	42	4460
2026-01-25 17:41:37.55	180.35	20.17	-35.3	-37.3	27.9	0.00e+00	0	38	0	0	42	4466
2026-01-25 17:41:38.27	180.04	20.21	-35.4	-37.3	27.9	0.00e+00	0	38	0	0	42	4487
2026-01-25 17:41:39.55	179.49	20.29	-35.7	-37.6	27.7	0.00e+00	0	38	0	0	42	4635
2026-01-25 17:41:40.28	179.17	20.33	-35.8	-37.8	27.5	0.00e+00	0	38	0	0	42	4742
2026-01-25 17:41:41.56	178.61	20.41	-36.0	-38.0	27.3	0.00e+00	0	38	0	0	42	4821
2026-01-25 17:41:42.28	178.30	20.45	-35.8	-37.8	27.5	0.00e+00	0	38	0	0	42	4736
2026-01-25 17:41:43.56	177.73	20.52	-35.8	-37.8	27.5	0.00e+00	0	38	0	0	42	4736
2026-01-25 17:41:44.29	177.41	20.56	-36.0	-38.0	24.9	0.00e+00	0	38	0	0	42	4870
2026-01-25 17:41:45.57	176.84	20.63	-36.0	-38.0	27.3	0.00e+00	0	38	0	0	42	4848
2026-01-25 17:41:46.28	176.52	20.66	-36.0	-38.0	27.4	0.00e+00	0	38	0	0	42	4834
2026-01-25 17:41:47.56	175.95	20.73	-36.1	-38.1	27.1	0.00e+00	0	38	0	0	42	4918
2026-01-25 17:41:48.27	175.63	20.76	-36.0	-38.0	27.2	0.00e+00	0	38	0	0	42	4834
2026-01-25 17:41:49.55	175.05	20.82	-36.0	-38.1	27.2	0.00e+00	0	38	0	0	42	4872
2026-01-25 17:41:50.27	174.72	20.85	-36.2	-38.2	27.1	0.00e+00	0	38	0	0	42	4941
2026-01-25 17:41:51.55	174.14	20.91	-36.2	-38.2	27.1	0.00e+00	0	38	0	0	43	4685
2026-01-25 17:41:52.28	173.81	20.94	-36.2	-38.2	27.1	0.00e+00	0	38	0	0	43	4684
2026-01-25 17:41:53.56	173.22	20.99	-36.2	-38.3	27.1	0.00e+00	0	38	0	0	43	4714
2026-01-25 17:41:54.28	172.89	21.02	-36.4	-38.5	26.9	0.00e+00	0	38	0	0	43	4834
2026-01-25 17:41:55.56	172.30	21.07	-36.4	-38.4	27.0	0.00e+00	0	38	0	0	43	4810
2026-01-25 17:41:56.30	171.96	21.10	-36.5	-38.5	26.9	0.00e+00	0	38	0	0	43	4834
2026-01-25 17:41:57.58	171.37	21.14	-36.2	-38.2	27.1	0.00e+00	0	38	0	0	43	4673
2026-01-25 17:41:58.30	171.03	21.17	-35.9	-37.9	27.4	0.00e+00	0	38	0	0	43	4504
2026-01-25 17:41:59.59	170.43	21.21	-35.7	-37.7	27.5	0.00e+00	0	38	0	0	43	4426
2026-01-25 17:42:00.31	170.10	21.23	-35.6	-37.6	27.7	0.00e+00	0	38	0	0	43	4354
2026-01-25 17:42:01.59	169.50	21.26	-35.7	-37.7	27.4	0.00e+00	0	38	0	0	43	4412
2026-01-25 17:42:02.30	169.16	21.28	-35.7	-37.6	27.6	0.00e+00	0	38	0	0	43	4385
2026-01-25 17:42:03.58	168.56	21.31	-35.4	-37.3	27.8	0.00e+00	0	38	0	0	42	4487
2026-01-25 17:42:04.30	168.22	21.33	-35.4	-37.3	27.9	0.00e+00	0	38	0	0	42	4488
2026-01-25 17:42:05.58	167.62	21.36	-34.7	-36.6	28.4	0.00e+00	0	38	0	0	41	4381
2026-01-25 17:42:06.31	167.28	21.37	-34.4	-36.3	28.4	0.00e+00	0	38	0	0	40	4482
2026-01-25 17:42:07.65	166.64	21.40	-34.3	-36.2	28.7	0.00e+00	0	38	0	0	40	4414
2026-01-25 17:42:08.36	166.31	21.41	-34.3	-36.2	28.8	0.00e+00	0	38	0	0	40	4401
2026-01-25 17:42:09.64	165.70	21.42	-34.4	-36.2	28.8	0.00e+00	0	38	0	0	40	4435
2026-01-25 17:42:10.35	165.36	21.43	-34.5	-36.4	28.7	0.00e+00	0	38	0	0	40	4505
2026-01-25 17:42:11.76	164.69	21.45	-34.6	-36.4	28.5	0.00e+00	0	38	0	0	40	4541
2026-01-25 17:42:12.47	164.36	21.45	-34.7	-36.6	28.5	0.00e+00	0	38	0	0	40	4602
2026-01-25 17:42:13.74	163.75	21.46	-34.9	-36.8	28.1	0.00e+00	0	38	0	0	40	4725
2026-01-25 17:42:14.47	163.41	21.47	-35.1	-37.0	28.1	0.00e+00	0	38	0	0	40	4819
2026-01-25 17:42:15.75	162.80	21.47	-35.3	-37.2	27.9	0.00e+00	0	38	0	0	41	4675
2026-01-25 17:42:16.48	162.45	21.47	-35.3	-37.3	27.8	0.00e+00	0	38	0	0	41	4712
2026-01-25 17:42:17.75	161.84	21.47	-35.6	-37.5	27.7	0.00e+00	0	38	0	0	41	4858
2026-01-25 17:42:18.48	161.50	21.47	-35.5	-37.5	27.8	0.00e+00	0	38	0	0	41	4819
2026-01-25 17:42:19.76	160.89	21.46	-35.2	-37.1	28.0	0.00e+00	0	38	0	0	41	4629
2026-01-25 17:42:20.48	160.55	21.46	-35.1	-37.0	28.1	0.00e+00	0	38	0	0	41	4594
2026-01-25 17:42:21.76	159.94	21.45	-34.7	-36.6	28.4	0.00e+00	0	38	0	0	41	4381
2026-01-25 17:42:22.49	159.59	21.44	-34.6	-36.5	28.5	0.00e+00	0	38	0	0	40	4595
2026-01-25 17:42:23.77	158.98	21.43	-34.6	-36.4	28.6	0.00e+00	0	38	0	0	40	4539
2026-01-25 17:42:24.50	158.64	21.42	-34.6	-36.5	28.5	0.00e+00	0	38	0	0	40	4574
2026-01-25 17:42:25.77	158.03	21.40	-34.7	-36.6	28.4	0.00e+00	0	38	0	0	40	4618
2026-01-25 17:42:26.60	157.64	21.39	-34.8	-36.7	28.3	0.00e+00	0	38	0	0	40	4660
2026-01-25 17:42:27.73	157.11	21.37	-35.2	-37.1	28.0	0.00e+00	0	38	0	0	40	4886
2026-01-25 17:42:28.82	156.59	21.35	-35.4	-37.4	27.8	0.00e+00	0	38	0	0	41	4781
2026-01-25 17:42:29.67	156.19	21.33	-35.4	-37.4	27.8	0.00e+00	0	38	0	0	41	4766
2026-01-25 17:42:30.81	155.66	21.30	-35.5	-37.5	27.7	0.00e+00	0	38	0	0	41	4832
2026-01-25 17:42:31.66	155.26	21.28	-35.4	-37.4	27.8	0.00e+00	0	38	0	0	41	4768
2026-01-25 17:42:32.80	154.73	21.25	-35.2	-37.1	28.0	0.00e+00	0	38	0	0	41	4628
2026-01-25 17:42:33.65	154.33	21.22	-35.0	-37.0	28.1	0.00e+00	0	38	0	0	41	4564
2026-01-25 17:42:34.79	153.80	21.19	-34.9	-36.8	28.2	0.00e+00	0	38	0	0	41	4475
2026-01-25 17:42:35.64	153.40	21.16	-34.8	-36.7	28.3	0.00e+00	0	38	0	0	41	4411
2026-01-25 17:42:36.78	152.87	21.12	-35.1	-37.0	28.1	0.00e+00	0	38	0	0	41	4573
2026-01-25 17:42:37.63	152.48	21.10	-35.5	-37.5	27.7	0.00e+00	0	38	0	0	41	4837
2026-01-25 17:42:38.88	151.90	21.05	-35.7	-37.7	27.4	0.00e+00	0	38	0	0	42	4681
2026-01-25 17:42:39.73	151.51	21.02	-35.8	-37.8	27.3	0.00e+00	0	38	0	0	42	4721
2026-01-25 17:42:40.91	150.97	20.97	-35.6	-37.6	27.6	0.00e+00	0	38	0	0	42	4616
2026-01-25 17:42:41.77	150.58	20.93	-35.4	-37.4	27.7	0.00e+00	0	38	0	0	42	4521
2026-01-25 17:42:42.90	150.06	20.88	-35.3	-37.3	27.9	0.00e+00	0	38	0	0	42	4452
2026-01-25 17:42:43.76	149.67	20.85	-35.1	-37.0	28.1	0.00e+00	0	38	0	0	42	4333
2026-01-25 17:42:44.89	149.16	20.79	-35.5	-37.4	27.8	0.00e+00	0	38	0	0	42	4533
2026-01-25 17:42:45.75	148.77	20.75	-35.6	-37.6	27.5	0.00e+00	0	38	0	0	42	4618
2026-01-25 17:42:47.07	148.18	20.69	-35.6	-37.5	27.7	0.00e+00	0	38	0	0	42	4594
2026-01-25 17:42:47.79	147.86	20.65	-35.9	-37.9	27.4	0.00e+00	0	38	0	0	42	4762
2026-01-25 17:42:49.24	147.21	20.58	-35.6	-37.6	27.6	0.00e+00	0	38	0	0	42	4608
2026-01-25 17:42:49.95	146.90	20.54	-35.7	-37.7	27.5	0.00e+00	0	38	0	0	42	4673
2026-01-25 17:42:51.23	146.34	20.47	-35.7	-37.7	27.5	0.00e+00	0	38	0	0	42	4689
2026-01-25 17:42:52.29	145.87	20.41	-35.6	-37.6	27.6	0.00e+00	0	38	0	0	42	4634
2026-01-25 17:42:53.16	145.49	20.36	-35.6	-37.6	27.6	0.00e+00	0	38	0	0	42	4626
2026-01-25 17:42:54.29	145.00	20.29	-35.2	-37.2	27.9	0.00e+00	0	38	0	0	42	4418
2026-01-25 17:42:55.15	144.63	20.24	-35.5	-37.5	27.6	0.00e+00	0	38	0	0	42	4572
2026-01-25 17:42:56.30	144.13	20.17	-36.0	-38.0	27.2	0.00e+00	0	38	0	0	42	4838
2026-01-25 17:42:57.15	143.77	20.11	-35.9	-37.9	27.3	0.00e+00	0	38	0	0	42	4802
2026-01-25 17:42:58.29	143.28	20.04	-35.8	-37.7	27.5	0.00e+00	0	38	0	0	42	4704
2026-01-25 17:42:59.14	142.92	19.99	-35.7	-37.7	27.6	0.00e+00	0	38	0	0	42	4660
2026-01-25 17:43:00.28	142.44	19.91	-35.6	-37.5	27.6	0.00e+00	0	38	0	0	42	4582
2026-01-25 17:43:01.14	142.08	19.85	-35.5	-37.5	27.7	0.00e+00	0	38	0	0	42	4561
2026-01-25 17:43:02.48	141.52	19.76	-35.6	-37.5	27.7	0.00e+00	0	38	0	0	42	4576
2026-01-25 17:43:03.19	141.22	19.71	-35.7	-37.6	27.6	0.00e+00	0	38	0	0	42	4634
2026-01-25 17:43:04.47	140.69	19.62	-35.5	-37.4	27.7	0.00e+00	0	38	0	0	42	4540
2026-01-25 17:43:05.18	140.40	19.57	-35.4	-37.3	27.8	0.00e+00	0	38	0	0	42	4477
2026-01-25 17:43:06.74	139.77	19.45	-35.4	-37.4	27.7	0.00e+00	0	38	0	0	42	4507
2026-01-25 17:43:07.45	139.48	19.40	-35.4	-37.3	27.8	0.00e+00	0	38	0	0	42	4483
2026-01-25 17:43:08.73	138.96	19.31	-35.2	-37.2	27.9	0.00e+00	0	38	0	0	42	4395
2026-01-25 17:43:09.44	138.68	19.25	-35.1	-37.0	28.0	0.00e+00	0	38	0	0	42	4318
2026-01-25 17:43:10.72	138.17	19.15	-35.2	-37.1	27.9	0.00e+00	0	38	0	0	42	4376
2026-01-25 17:43:11.43	137.89	19.10	-35.1	-37.1	27.9	0.00e+00	0	38	0	0	42	4346
2026-01-25 17:43:12.71	137.39	19.00	-35.2	-37.1	27.9	0.00e+00	0	38	0	0	42	4346
2026-01-25 17:43:13.44	137.10	18.94	-35.5	-37.4	27.7	0.00e+00	0	38	0	0	42	4521
2026-01-25 17:43:14.72	136.61	18.84	-35.8	-37.7	27.4	0.00e+00	0	38	0	0	42	4697
2026-01-25 17:43:15.44	136.33	18.78	-35.9	-37.9	27.3	0.00e+00	0	38	0	0	42	4772
2026-01-25 17:43:16.72	135.84	18.68	-36.1	-38.1	27.1	0.00e+00	0	38	0	0	42	4882
2026-01-25 17:43:17.46	135.56	18.62	-36.0	-38.0	27.2	0.00e+00	0	38	0	0	42	4863
2026-01-25 17:43:18.74	135.07	18.51	-36.0	-38.0	27.1	0.00e+00	0	38	0	0	42	4866
2026-01-25 17:43:19.48	134.80	18.45	-35.6	-37.6	27.5	0.00e+00	0	38	0	0	42	4601
2026-01-25 17:43:20.76	134.32	18.34	-35.7	-37.6	27.5	0.00e+00	0	38	0	0	42	4627
2026-01-25 17:43:21.52	134.04	18.27	-35.9	-37.9	27.2	0.00e+00	0	38	0	0	42	4795
2026-01-25 17:43:22.80	133.57	18.16	-36.0	-37.9	27.2	0.00e+00	0	38	0	0	42	4803
2026-01-25 17:43:23.52	133.30	18.10	-35.9	-37.9	27.2	0.00e+00	0	38	0	0	42	4808
2026-01-25 17:43:24.80	132.84	17.99	-36.1	-38.1	27.0	0.00e+00	0	38	0	0	43	4645
2026-01-25 17:43:25.53	132.58	17.93	-36.0	-37.9	27.2	0.00e+00	0	38	0	0	43	4543
2026-01-25 17:43:26.81	132.12	17.82	-36.0	-38.0	27.1	0.00e+00	0	38	0	0	43	4565
2026-01-25 17:43:27.66	131.82	17.74	-35.8	-37.8	27.3	0.00e+00	0	38	0	0	43	4481
2026-01-25 17:43:29.11	131.31	17.61	-35.9	-37.8	27.3	0.00e+00	0	38	0	0	43	4480
2026-01-25 17:43:29.83	131.06	17.55	-35.8	-37.7	27.4	0.00e+00	0	38	0	0	43	4431
2026-01-25 17:43:31.11	130.62	17.43	-35.7	-37.7	27.4	0.00e+00	0	38	0	0	43	4420
2026-01-25 17:43:31.81	130.38	17.37	-35.8	-37.8	27.4	0.00e+00	0	38	0	0	43	4447
2026-01-25 17:43:33.09	129.94	17.25	-36.0	-38.0	27.1	0.00e+00	0	38	0	0	43	4584
2026-01-25 17:43:33.82	129.69	17.19	-36.1	-38.1	27.0	0.00e+00	0	38	0	0	43	4619
2026-01-25 17:43:35.10	129.26	17.07	-36.2	-38.2	27.0	0.00e+00	0	38	0	0	43	4654
2026-01-25 17:43:35.84	129.02	17.00	-36.3	-38.3	26.9	0.00e+00	0	38	0	0	43	4715
2026-01-25 17:43:37.11	128.60	16.89	-36.2	-38.2	27.0	0.00e+00	0	38	0	0	43	4683
2026-01-25 17:43:37.84	128.36	16.82	-36.2	-38.2	27.0	0.00e+00	0	38	0	0	43	4663
2026-01-25 17:43:39.12	127.94	16.70	-36.0	-38.0	27.2	0.00e+00	0	38	0	0	43	4550
2026-01-25 17:43:40.07	127.63	16.61	-36.1	-38.1	27.0	0.00e+00	0	38	0	0	43	4642
2026-01-25 17:43:41.36	127.22	16.49	-36.2	-38.2	26.9	0.00e+00	0	38	0	0	43	4678
2026-01-25 17:43:42.10	126.99	16.42	-36.2	-38.2	26.9	0.00e+00	0	38	0	0	43	4705
2026-01-25 17:43:43.38	126.58	16.30	-36.3	-38.3	26.8	0.00e+00	0	38	0	0	43	4727
2026-01-25 17:43:44.19	126.33	16.23	-36.3	-38.3	26.9	0.00e+00	0	38	0	0	43	4719
2026-01-25 17:43:45.60	125.89	16.09	-36.3	-38.3	26.8	0.00e+00	0	38	0	0	43	4754
2026-01-25 17:43:46.31	125.68	16.03	-36.4	-38.5	26.7	0.00e+00	0	38	0	0	43	4818
2026-01-25 17:43:47.59	125.29	15.91	-36.6	-38.6	26.6	0.00e+00	0	38	0	0	43	4911
2026-01-25 17:43:48.30	125.07	15.84	-36.7	-38.7	26.6	0.00e+00	0	38	0	0	43	4954
2026-01-25 17:43:49.58	124.69	15.72	-36.9	-39.0	26.5	0.00e+00	0	38	0	0	44	4829
2026-01-25 17:43:50.30	124.47	15.65	-36.9	-39.0	26.4	0.00e+00	0	38	0	0	44	4821
2026-01-25 17:43:51.59	124.09	15.53	-37.0	-39.0	26.4	0.00e+00	0	38	0	0	44	4837
2026-01-25 17:43:52.31	123.88	15.46	-36.9	-38.9	26.5	0.00e+00	0	38	0	0	44	4810
2026-01-25 17:43:53.59	123.51	15.34	-36.8	-38.8	26.6	0.00e+00	0	38	0	0	44	4758
2026-01-25 17:43:54.32	123.30	15.27	-36.9	-39.0	26.5	0.00e+00	0	38	0	0	44	4836
2026-01-25 17:43:55.59	122.94	15.15	-37.2	-39.3	26.2	0.00e+00	0	38	0	0	45	4718
2026-01-25 17:43:56.32	122.73	15.08	-37.2	-39.3	26.2	0.00e+00	0	38	0	0	45	4720
2026-01-25 17:43:57.60	122.37	14.96	-37.4	-39.5	26.0	0.00e+00	0	38	0	0	45	4815
2026-01-25 17:43:58.32	122.17	14.89	-37.1	-39.2	26.2	0.00e+00	0	38	0	0	45	4663
2026-01-25 17:43:59.60	121.82	14.77	-37.2	-39.3	26.2	0.00e+00	0	38	0	0	45	4722
2026-01-25 17:44:00.34	121.62	14.70	-37.0	-39.1	26.3	0.00e+00	0	38	0	0	45	4626
2026-01-25 17:44:01.62	121.27	14.57	-37.4	-39.5	26.0	0.00e+00	0	38	0	0	45	4841
2026-01-25 17:44:02.71	120.97	14.47	-37.4	-39.5	25.9	0.00e+00	0	38	0	0	45	4866
2026-01-25 17:44:03.86	120.67	14.36	-37.6	-39.8	25.8	0.00e+00	0	38	0	0	45	4989
2026-01-25 17:44:04.71	120.44	14.28	-37.7	-39.8	25.7	0.00e+00	0	38	0	0	46	4748
2026-01-25 17:44:05.85	120.14	14.17	-37.7	-39.9	25.7	0.00e+00	0	38	0	0	46	4769
2026-01-25 17:44:06.70	119.92	14.09	-37.6	-39.7	25.7	0.00e+00	0	38	0	0	46	4699
2026-01-25 17:44:07.84	119.63	13.98	-37.2	-39.3	26.1	0.00e+00	0	38	0	0	46	4470
2026-01-25 17:44:08.69	119.41	13.90	-37.4	-39.5	25.9	0.00e+00	0	38	0	0	46	4582
2026-01-25 17:44:09.83	119.12	13.80	-37.7	-39.9	25.6	0.00e+00	0	38	0	0	46	4778
2026-01-25 17:44:10.68	118.91	13.71	-37.8	-39.9	25.5	0.00e+00	0	38	0	0	46	4794
2026-01-25 17:44:11.90	118.60	13.60	-37.9	-40.0	25.5	0.00e+00	0	38	0	0	46	4860
2026-01-25 17:44:12.75	118.39	13.52	-37.7	-39.8	25.6	0.00e+00	0	38	0	0	46	4746
2026-01-25 17:44:13.88	118.12	13.41	-37.7	-39.8	25.6	0.00e+00	0	38	0	0	46	4749
2026-01-25 17:44:14.73	117.91	13.33	-37.8	-40.0	25.5	0.00e+00	0	38	0	0	46	4831
2026-01-25 17:44:15.87	117.63	13.23	-38.0	-40.2	25.3	0.00e+00	0	38	0	0	46	4945
2026-01-25 17:44:16.72	117.43	13.15	-38.1	-40.3	25.2	0.00e+00	0	38	0	0	46	5020
2026-01-25 17:44:17.86	117.16	13.04	-38.4	-40.7	24.8	0.00e+00	0	39	0	0	47	4943
2026-01-25 17:44:18.79	116.94	12.95	-38.3	-40.5	25.0	0.00e+00	0	38	0	0	47	4816
2026-01-25 17:44:19.94	116.67	12.84	-38.2	-40.4	25.1	0.00e+00	0	38	0	0	47	4794
2026-01-25 17:44:20.81	116.47	12.76	-37.9	-40.0	25.4	0.00e+00	0	38	0	0	47	4592
2026-01-25 17:44:22.10	116.18	12.64	-37.8	-39.9	25.5	0.00e+00	0	38	0	0	47	4508
2026-01-25 17:44:22.81	116.02	12.58	-37.9	-40.1	25.4	0.00e+00	0	39	0	0	47	4608
2026-01-25 17:44:24.27	115.69	12.44	-38.0	-40.1	25.3	0.00e+00	0	38	0	0	47	4640
2026-01-25 17:44:24.98	115.53	12.38	-38.1	-40.3	25.2	0.00e+00	0	38	0	0	47	4746
2026-01-25 17:44:26.25	115.25	12.26	-38.3	-40.6	25.0	0.00e+00	0	38	0	0	47	4883
2026-01-25 17:44:26.99	115.08	12.19	-38.3	-40.6	24.9	0.00e+00	0	38	0	0	47	4884
2026-01-25 17:44:28.27	114.81	12.07	-38.4	-40.6	24.8	0.00e+00	0	38	0	0	47	4911
2026-01-25 17:44:29.00	114.65	12.01	-38.5	-40.8	24.7	0.00e+00	0	38	0	0	47	4995
2026-01-25 17:44:30.37	114.35	11.88	-38.7	-41.0	24.6	0.00e+00	0	38	0	0	48	4827
2026-01-25 17:44:31.08	114.20	11.82	-38.9	-41.2	24.2	0.00e+00	0	38	0	0	48	4959
2026-01-25 17:44:32.44	113.92	11.69	-39.0	-41.3	24.2	0.00e+00	0	38	0	0	48	5013
2026-01-25 17:44:33.15	113.77	11.63	-39.0	-41.3	24.2	0.00e+00	0	38	0	0	48	5032
2026-01-25 17:44:34.43	113.51	11.51	-38.8	-41.0	24.5	0.00e+00	0	38	0	0	48	4867
2026-01-25 17:44:35.15	113.36	11.45	-38.8	-41.0	24.5	0.00e+00	0	39	0	0	48	4841
2026-01-25 17:44:36.43	113.10	11.33	-38.7	-41.0	24.5	0.00e+00	0	38	0	0	48	4824
2026-01-25 17:44:37.16	112.95	11.27	-38.8	-41.1	24.4	0.00e+00	0	38	0	0	48	4887
2026-01-25 17:44:38.44	112.69	11.15	-38.9	-41.2	24.3	0.00e+00	0	38	0	0	48	4965
2026-01-25 17:44:39.15	112.55	11.09	-38.8	-41.0	24.5	0.00e+00	0	38	0	0	48	4847
2026-01-25 17:44:40.43	112.30	10.97	-38.8	-41.1	24.5	0.00e+00	0	38	0	0	48	4875
2026-01-25 17:44:41.14	112.16	10.91	-38.9	-41.2	24.4	0.00e+00	0	38	0	0	48	4932
2026-01-25 17:44:42.42	111.91	10.80	-39.3	-41.6	23.9	0.00e+00	0	38	0	0	49	4893
2026-01-25 17:44:43.14	111.78	10.73	-39.3	-41.6	23.8	0.00e+00	0	39	0	0	49	4924
2026-01-25 17:44:44.42	111.53	10.62	-39.3	-41.7	23.7	0.00e+00	0	38	0	0	49	4956
2026-01-25 17:44:45.15	111.39	10.56	-39.1	-41.4	24.1	0.00e+00	0	38	0	0	49	4795
2026-01-25 17:44:46.43	111.15	10.44	-38.9	-41.2	24.3	0.00e+00	0	38	0	0	49	4654
2026-01-25 17:44:47.15	111.02	10.38	-38.9	-41.2	24.2	0.00e+00	0	38	0	0	49	4677
2026-01-25 17:44:48.43	110.78	10.27	-39.1	-41.4	24.1	0.00e+00	0	38	0	0	49	4808
2026-01-25 17:44:49.14	110.65	10.21	-39.4	-41.7	23.8	0.00e+00	0	38	0	0	49	4966
2026-01-25 17:44:50.55	110.40	10.08	-39.5	-41.9	23.6	0.00e+00	0	39	0	0	49	5044
2026-01-25 17:44:51.26	110.27	10.02	-39.4	-41.7	23.7	0.00e+00	0	39	0	0	49	4974
2026-01-25 17:44:52.54	110.04	9.91	-39.2	-41.6	23.9	0.00e+00	0	39	0	0	49	4883
2026-01-25 17:44:53.26	109.91	9.85	-39.3	-41.7	23.8	0.00e+00	0	39	0	0	49	4942
2026-01-25 17:44:54.55	109.69	9.74	-39.5	-41.8	23.7	0.00e+00	0	38	0	0	49	5033
2026-01-25 17:44:55.29	109.56	9.68	-39.4	-41.7	23.7	0.00e+00	0	38	0	0	49	4981
2026-01-25 17:44:56.57	109.34	9.57	-39.4	-41.8	23.7	0.00e+00	0	38	0	0	49	5017
2026-01-25 17:44:57.28	109.22	9.51	-39.5	-41.9	23.6	0.00e+00	0	38	0	0	49	5061
2026-01-25 17:44:58.56	109.00	9.40	-39.8	-42.3	23.2	0.00e+00	0	39	0	0	50	4985
2026-01-25 17:44:59.27	108.88	9.34	-40.0	-42.4	23.1	0.00e+00	0	38	0	0	50	5099
2026-01-25 17:45:00.55	108.66	9.23	-39.9	-42.4	23.1	0.00e+00	0	39	0	0	50	5063
2026-01-25 17:45:01.28	108.54	9.17	-39.9	-42.3	23.1	0.00e+00	0	38	0	0	50	5021
2026-01-25 17:45:02.56	108.33	9.06	-39.8	-42.2	23.3	0.00e+00	0	39	0	0	50	4943
2026-01-25 17:45:03.28	108.22	9.00	-39.9	-42.3	23.2	0.00e+00	0	39	0	0	50	5005
2026-01-25 17:45:04.56	108.01	8.89	-48.0	-66.2	3.7	1.61e-03	0	39	104	0	66	31422
2026-01-25 17:45:05.27	107.89	8.83	-48.1	-66.5	3.8	1.61e-03	0	39	104	0	66	32317
2026-01-25 17:45:06.55	107.69	8.73	-48.3	-67.1	3.8	8.25e-01	0	38	104	0	67	32646
2026-01-25 17:45:07.26	107.58	8.67	-48.1	-67.1	3.8	8.47e-01	0	39	104	0	67	32885
2026-01-25 17:45:08.56	107.37	8.56	-48.3	-67.2	3.8	8.47e-01	0	39	104	0	67	33164
2026-01-25 17:45:09.27	107.26	8.50	-48.0	-67.2	3.8	8.47e-01	0	38	104	0	67	33218
2026-01-25 17:45:10.61	107.06	8.39	-48.2	-67.3	3.8	8.46e-01	0	39	104	0	67	33465
2026-01-25 17:45:11.32	106.95	8.34	-48.0	-67.3	3.8	8.47e-01	0	39	104	0	67	33664
2026-01-25 17:45:12.66	106.74	8.23	-48.0	-67.4	3.8	8.47e-01	0	38	104	0	67	33763
2026-01-25 17:45:13.37	106.64	8.17	-48.1	-67.4	3.8	8.47e-01	0	39	104	0	67	33999
2026-01-25 17:45:14.68	106.44	8.06	-48.3	-67.4	3.8	8.47e-01	0	39	104	0	67	34083
2026-01-25 17:45:15.39	106.33	8.01	-48.1	-67.4	3.8	8.47e-01	0	38	104	0	67	34046
2026-01-25 17:45:16.77	106.13	7.90	-48.1	-67.5	3.8	8.47e-01	0	39	104	0	67	34168
2026-01-25 17:45:17.48	106.03	7.84	-48.2	-67.5	3.8	8.46e-01	0	39	104	0	67	34166
2026-01-25 17:45:18.82	105.83	7.73	-48.3	-67.5	3.8	8.46e-01	0	38	104	0	67	34148
2026-01-25 17:45:19.53	105.73	7.68	-48.2	-67.5	3.8	8.46e-01	0	39	104	0	67	34209
2026-01-25 17:45:20.87	105.54	7.57	-48.2	-67.5	3.8	8.46e-01	0	39	104	0	67	34168
2026-01-25 17:45:21.58	105.44	7.51	-48.3	-67.5	3.8	8.47e-01	0	38	104	0	67	34249
2026-01-25 17:45:22.85	105.26	7.41	-48.3	-67.5	3.8	8.47e-01	0	39	104	0	67	34263
2026-01-25 17:45:23.58	105.16	7.36	-48.4	-67.5	3.8	8.47e-01	0	39	104	0	67	34188
2026-01-25 17:45:24.86	104.98	7.26	-48.4	-67.5	3.8	8.46e-01	0	38	104	0	67	34298
2026-01-25 17:45:25.57	104.88	7.20	-48.4	-67.5	3.8	8.46e-01	0	39	104	0	67	34213
2026-01-25 17:45:26.84	104.71	7.10	-48.4	-67.4	3.8	8.46e-01	0	39	104	0	67	34032
2026-01-25 17:45:27.57	104.61	7.04	-48.4	-67.4	3.8	8.46e-01	0	39	104	0	67	33954
2026-01-25 17:45:28.85	104.44	6.95	-48.4	-67.4	3.8	8.47e-01	0	39	104	0	67	34012
2026-01-25 17:45:29.56	104.34	6.89	-48.4	-67.4	3.8	8.47e-01	0	39	104	0	67	34023
2026-01-25 17:45:30.83	104.18	6.79	-48.4	-67.4	3.8	8.46e-01	0	39	104	0	67	34004
2026-01-25 17:45:31.56	104.08	6.74	-48.4	-67.4	3.8	8.46e-01	0	39	104	0	67	33969
2026-01-25 17:45:32.84	103.91	6.64	-48.4	-67.4	3.8	8.47e-01	0	39	104	0	67	33929
2026-01-25 17:45:33.55	103.82	6.59	-48.4	-67.4	3.8	8.46e-01	0	38	104	0	67	33906
2026-01-25 17:45:34.82	103.66	6.49	-48.4	-67.4	3.8	8.48e-01	0	39	104	0	67	33992
2026-01-25 17:45:35.53	103.57	6.44	-48.3	-67.4	3.8	8.48e-01	0	39	104	0	67	33889
2026-01-25 17:45:36.81	103.41	6.34	-48.4	-67.4	3.8	8.47e-01	0	39	104	0	67	33965
2026-01-25 17:45:37.54	103.31	6.28	-48.3	-67.4	3.8	8.46e-01	0	39	104	0	67	33868
2026-01-25 17:45:38.81	103.16	6.19	-48.3	-67.4	3.8	8.46e-01	0	38	104	0	67	33918
2026-01-25 17:45:39.52	103.07	6.14	-48.3	-67.4	3.8	8.46e-01	0	39	104	0	67	33940
2026-01-25 17:45:40.80	102.91	6.04	-48.3	-67.4	3.8	8.47e-01	0	39	104	0	67	33803
2026-01-25 17:45:41.51	102.82	5.99	-48.3	-67.4	3.8	8.47e-01	0	39	104	0	67	33752
2026-01-25 17:45:42.79	102.67	5.89	-48.3	-67.4	3.8	8.47e-01	0	39	104	0	67	33848
2026-01-25 17:45:43.50	102.58	5.84	-48.3	-67.4	3.8	8.45e-01	0	38	104	0	67	33864
2026-01-25 17:45:44.77	102.43	5.75	-48.3	-67.4	3.8	8.46e-01	0	39	104	0	67	33851
2026-01-25 17:45:45.48	102.35	5.70	-48.3	-67.4	3.8	8.46e-01	0	39	104	0	67	33834
2026-01-25 17:45:46.76	102.20	5.60	-48.3	-67.4	3.8	8.48e-01	0	39	104	0	67	33912
2026-01-25 17:45:47.47	102.11	5.55	-48.3	-67.4	3.8	8.48e-01	0	38	104	0	67	33796
2026-01-25 17:45:48.75	101.96	5.46	-48.3	-67.4	3.8	8.46e-01	0	39	104	0	67	33796
2026-01-25 17:45:49.46	101.88	5.41	-48.3	-67.4	3.8	8.47e-01	0	39	104	0	67	33808
2026-01-25 17:45:50.74	101.74	5.31	-48.3	-67.4	3.8	8.46e-01	0	39	104	0	67	33837
2026-01-25 17:45:51.44	101.66	5.26	-48.3	-67.4	3.8	8.46e-01	0	39	104	0	67	33876
2026-01-25 17:45:52.72	101.51	5.17	-48.3	-67.4	3.8	8.46e-01	0	39	104	0	67	33778
2026-01-25 17:45:53.45	101.43	5.12	-48.3	-67.4	3.8	8.48e-01	0	39	104	0	67	33810
2026-01-25 17:45:54.72	101.29	5.03	-48.3	-67.4	3.8	8.48e-01	0	39	104	0	67	33770
2026-01-25 17:45:55.43	101.21	4.98	-48.3	-67.4	3.8	8.46e-01	0	39	104	0	67	33776

#Closed at: 2026-01-25 17:45:56
#Recorded file [0 MB]: D:/Data/31040_260125_203840.dat