passes_logs/2026/01/25/T1/T1__20260125_234937_NOAA_20_JPSS-1_rec.log

#Pass ID: 20260125_234937_NOAA 20 (JPSS-1)
#Satellite: NOAA 20 (JPSS-1)
#Configuration: NOAA 20
#almurnet v.1.7.20251203
#Start time: 2026-01-25 23:49:36

#Version: 2.0.20230620
#Station: T1
#Location: 37.570604 lon 55.790049 lat
#TLE: 1 43013U 17073A   26025.47986292  .00000161  00000+0  97249-4 0  9993
#TLE: 2 43013  98.7646 326.3091 0001052  24.2709 335.8516 14.19540188424225

#Time	Az	El	Level	Level2	SNR	BER	BlckErr	Temp	State	Recorded	gain1	gain2
2026-01-25 23:49:36.73	15.48	4.98	-46.1	-63.1	3.8	1.49e+00	0	37	0	0	64	24583
2026-01-25 23:49:37.72	15.48	5.05	-46.2	-63.2	3.8	1.49e+00	0	37	104	0	63	26264
2026-01-25 23:49:38.71	15.48	5.12	-46.2	-63.2	3.8	1.49e+00	0	37	104	0	63	26304
2026-01-25 23:49:39.71	15.47	5.19	-46.2	-63.2	3.8	1.49e+00	0	37	104	0	63	26369
2026-01-25 23:49:40.70	15.47	5.26	-46.2	-63.2	3.8	1.49e+00	0	37	104	0	63	26261
2026-01-25 23:49:41.69	15.47	5.34	-46.2	-63.2	3.8	1.49e+00	0	37	104	0	63	26410
2026-01-25 23:49:42.69	15.46	5.41	-46.2	-63.2	3.8	1.49e+00	0	37	104	0	63	26326
2026-01-25 23:49:43.68	15.46	5.48	-46.2	-63.2	3.8	1.49e+00	0	37	104	0	63	26437
2026-01-25 23:49:44.67	15.46	5.55	-46.2	-63.2	3.8	1.49e+00	0	37	104	0	63	26401
2026-01-25 23:49:45.67	15.45	5.62	-46.2	-63.2	3.8	1.49e+00	0	37	104	0	63	26345
2026-01-25 23:49:46.66	15.45	5.70	-46.2	-63.2	3.8	1.49e+00	0	37	104	0	63	26393
2026-01-25 23:49:47.65	15.45	5.77	-46.2	-63.2	3.8	1.49e+00	0	37	104	0	63	26347
2026-01-25 23:49:48.65	15.44	5.84	-46.2	-63.2	3.8	1.49e+00	0	38	104	0	63	26289
2026-01-25 23:49:49.64	15.44	5.91	-46.2	-63.2	3.8	1.49e+00	0	38	104	0	63	26281
2026-01-25 23:49:50.64	15.43	5.99	-46.2	-63.2	3.8	1.49e+00	0	37	104	0	63	26357
2026-01-25 23:49:51.63	15.43	6.06	-46.2	-63.2	3.8	1.49e+00	0	38	104	0	63	26271
2026-01-25 23:49:52.62	15.43	6.13	-46.2	-63.1	3.8	1.49e+00	0	38	104	0	63	26133
2026-01-25 23:49:53.62	15.42	6.21	-46.2	-63.2	3.8	1.49e+00	0	38	104	0	63	26175
2026-01-25 23:49:54.61	15.42	6.28	-46.2	-63.2	3.8	1.49e+00	0	38	104	0	63	26258
2026-01-25 23:49:55.60	15.41	6.36	-46.2	-63.2	3.8	1.49e+00	0	38	104	0	63	26205
2026-01-25 23:49:56.60	15.41	6.43	-46.2	-63.1	3.8	1.49e+00	0	38	104	0	63	26126
2026-01-25 23:49:57.59	15.41	6.51	-46.2	-63.2	3.8	1.49e+00	0	38	104	0	63	26160
2026-01-25 23:49:58.58	15.40	6.58	-46.2	-63.1	3.8	1.49e+00	0	38	104	0	63	26073
2026-01-25 23:49:59.58	15.40	6.66	-46.2	-63.1	3.8	1.49e+00	0	38	104	0	63	25881
2026-01-25 23:50:00.57	15.39	6.73	-46.2	-63.1	3.8	1.49e+00	0	38	104	0	63	25876
2026-01-25 23:50:01.56	15.39	6.81	-46.2	-63.0	3.8	1.49e+00	0	38	104	0	63	25750
2026-01-25 23:50:02.56	15.39	6.88	-46.2	-63.0	3.8	1.49e+00	0	38	104	0	63	25664
2026-01-25 23:50:03.55	15.38	6.96	-46.2	-62.9	3.8	1.49e+00	0	38	104	0	63	25474
2026-01-25 23:50:04.54	15.38	7.03	-46.2	-62.9	3.8	1.49e+00	0	38	104	0	63	25287
2026-01-25 23:50:05.54	15.37	7.11	-46.2	-62.8	3.8	1.49e+00	0	38	104	0	63	25087
2026-01-25 23:50:06.53	15.37	7.19	-46.2	-62.7	3.8	1.49e+00	0	38	104	0	63	24930
2026-01-25 23:50:07.52	15.36	7.26	-46.2	-62.7	3.8	1.49e+00	0	38	104	0	63	24751
2026-01-25 23:50:08.52	15.36	7.34	-46.2	-62.5	3.8	1.49e+00	0	38	104	0	63	24371
2026-01-25 23:50:09.51	15.35	7.42	-46.2	-62.4	3.8	1.49e+00	0	38	104	0	63	23973
2026-01-25 23:50:10.51	15.35	7.50	-46.1	-62.2	3.8	1.49e+00	0	38	104	0	63	23478
2026-01-25 23:50:11.50	15.35	7.57	-46.1	-62.0	3.8	1.49e+00	0	38	104	0	63	22859
2026-01-25 23:50:12.49	15.34	7.65	-46.1	-61.7	3.8	1.49e+00	0	38	104	0	63	22157
2026-01-25 23:50:13.49	15.34	7.73	-46.1	-61.3	3.9	1.49e+00	0	38	104	0	63	21041
2026-01-25 23:50:14.48	15.33	7.81	-46.1	-61.0	3.8	1.49e+00	0	38	104	0	63	20355
2026-01-25 23:50:15.47	15.33	7.89	-46.1	-60.4	3.9	1.48e+00	0	38	104	0	63	19010
2026-01-25 23:50:16.47	15.32	7.97	-46.0	-59.7	4.2	1.43e+00	0	38	0	0	63	17566
2026-01-25 23:50:17.46	15.32	8.05	-46.0	-59.1	4.4	1.32e+00	0	38	0	0	63	16386
2026-01-25 23:50:18.45	15.31	8.13	-46.0	-58.2	4.7	9.78e-01	0	38	0	2097152	63	14815
2026-01-25 23:50:19.45	15.31	8.21	-45.8	-57.3	5.2	7.65e-01	0	38	0	4194304	63	13358
2026-01-25 23:50:20.44	15.30	8.29	-45.8	-56.6	5.7	4.74e-01	0	38	0	5242880	63	12282
2026-01-25 23:50:21.43	15.30	8.37	-45.7	-55.7	6.3	3.15e-01	0	38	0	7340032	63	11093
2026-01-25 23:50:22.43	15.29	8.45	-45.6	-55.0	6.9	2.00e-01	0	39	0	9437184	63	10272
2026-01-25 23:50:23.42	15.29	8.53	-45.5	-54.4	7.5	1.40e-01	0	38	0	11534336	62	10072
2026-01-25 23:50:24.41	15.28	8.61	-45.3	-53.7	8.2	6.46e-02	0	39	0	12582912	62	9341
2026-01-25 23:50:25.41	15.28	8.69	-45.2	-53.3	8.6	4.32e-02	0	39	0	14680064	62	8930
2026-01-25 23:50:26.40	15.27	8.77	-45.1	-52.8	9.1	2.76e-02	0	39	0	16777216	62	8400
2026-01-25 23:50:27.39	15.26	8.85	-45.0	-52.4	9.4	2.03e-02	0	38	0	18874368	62	8080
2026-01-25 23:50:28.39	15.26	8.94	-45.0	-52.3	9.6	1.44e-02	0	38	0	20971520	62	7979
2026-01-25 23:50:29.38	15.25	9.02	-45.0	-52.2	9.7	1.25e-02	0	39	0	22020096	62	7848
2026-01-25 23:50:30.37	15.25	9.10	-45.1	-52.7	9.2	1.14e-02	0	39	0	24117248	61	8783
2026-01-25 23:50:31.37	15.24	9.18	-45.3	-53.7	8.1	5.51e-02	0	39	0	26214400	61	9911
2026-01-25 23:50:32.37	15.24	9.27	-45.2	-52.7	9.2	6.47e-02	0	39	0	28311552	61	8776
2026-01-25 23:50:33.36	15.23	9.35	-45.7	-56.2	5.9	2.06e-01	0	39	0	29360128	62	12479
2026-01-25 23:50:34.35	15.22	9.43	-45.7	-56.3	5.7	1.13e+00	0	39	104	30408704	62	12641
2026-01-25 23:50:35.35	15.22	9.52	-43.4	-47.7	14.4	0.00e+00	0	39	0	31457280	58	5860
2026-01-25 23:50:36.34	15.21	9.60	-43.4	-47.6	14.4	1.50e-06	0	39	0	33554432	58	5818
2026-01-25 23:50:37.34	15.21	9.69	-43.0	-46.8	15.2	0.00e+00	0	38	0	35651584	58	5332
2026-01-25 23:50:38.34	15.20	9.77	-42.9	-46.6	15.5	0.00e+00	0	39	0	36700160	57	5508
2026-01-25 23:50:39.33	15.19	9.86	-42.8	-46.6	15.5	0.00e+00	0	39	0	38797312	57	5495
2026-01-25 23:50:40.32	15.19	9.94	-42.8	-46.6	15.5	0.00e+00	0	39	0	40894464	57	5477
2026-01-25 23:50:41.35	15.18	10.03	-42.9	-46.7	15.4	0.00e+00	0	39	0	42991616	57	5559
2026-01-25 23:50:42.35	15.17	10.12	-42.8	-46.6	15.5	0.00e+00	0	39	0	45088768	57	5510
2026-01-25 23:50:43.42	15.17	10.21	-42.7	-46.4	15.7	0.00e+00	0	39	0	46137344	57	5351
2026-01-25 23:50:44.32	15.16	10.29	-42.7	-46.4	15.7	0.00e+00	0	39	0	48234496	57	5389
2026-01-25 23:50:45.35	15.16	10.38	-42.7	-46.4	15.7	0.00e+00	0	39	0	50331648	57	5388
2026-01-25 23:50:46.34	15.15	10.47	-42.7	-46.5	15.6	0.00e+00	0	39	0	52428800	57	5435
2026-01-25 23:50:47.34	15.14	10.56	-42.6	-46.3	15.8	0.00e+00	0	39	0	53477376	57	5316
2026-01-25 23:50:48.33	15.14	10.64	-42.6	-46.4	15.8	0.00e+00	0	39	0	55574528	57	5356
2026-01-25 23:50:49.33	15.13	10.73	-42.6	-46.3	15.9	0.00e+00	0	39	0	57671680	57	5292
2026-01-25 23:50:50.32	15.12	10.82	-42.7	-46.4	15.8	0.00e+00	0	39	0	59768832	57	5359
2026-01-25 23:50:51.32	15.11	10.91	-42.7	-46.3	15.8	0.00e+00	0	39	0	61865984	57	5333
2026-01-25 23:50:52.31	15.11	11.00	-42.6	-46.3	15.9	0.00e+00	0	39	0	62914560	57	5289
2026-01-25 23:50:53.31	15.10	11.09	-42.5	-46.1	16.1	0.00e+00	0	39	0	65011712	56	5485
2026-01-25 23:50:54.30	15.09	11.18	-42.5	-46.1	16.1	0.00e+00	0	39	0	67108864	56	5507
2026-01-25 23:50:55.30	15.09	11.27	-42.5	-46.2	16.0	0.00e+00	0	39	0	69206016	56	5543
2026-01-25 23:50:56.29	15.08	11.36	-42.5	-46.1	16.0	0.00e+00	0	39	0	70254592	56	5509
2026-01-25 23:50:57.33	15.07	11.46	-42.5	-46.1	16.1	0.00e+00	0	39	0	72351744	56	5502
2026-01-25 23:50:58.34	15.06	11.55	-42.4	-46.0	16.1	0.00e+00	0	39	0	74448896	56	5449
2026-01-25 23:50:59.33	15.06	11.64	-42.3	-45.9	16.3	0.00e+00	0	39	0	76546048	56	5380
2026-01-25 23:51:00.33	15.05	11.73	-42.3	-46.0	16.1	0.00e+00	0	39	0	78643200	56	5445
2026-01-25 23:51:01.32	15.04	11.83	-42.2	-45.9	16.3	0.00e+00	0	39	0	79691776	56	5374
2026-01-25 23:51:02.32	15.03	11.92	-42.3	-46.0	16.2	0.00e+00	0	39	0	81788928	56	5428
2026-01-25 23:51:03.31	15.03	12.01	-42.2	-45.8	16.4	0.00e+00	0	39	0	83886080	56	5307
2026-01-25 23:51:04.31	15.02	12.11	-42.2	-45.9	16.3	0.00e+00	0	39	0	85983232	56	5351
2026-01-25 23:51:05.56	15.01	12.22	-42.2	-45.8	16.4	0.00e+00	0	39	0	88080384	56	5303
2026-01-25 23:51:06.41	15.00	12.30	-42.1	-45.8	16.4	0.00e+00	0	39	0	90177536	56	5297
2026-01-25 23:51:07.55	14.99	12.41	-42.1	-45.7	16.5	0.00e+00	0	39	0	92274688	56	5267
2026-01-25 23:51:08.40	14.98	12.49	-42.1	-45.8	16.4	0.00e+00	0	39	0	93323264	56	5308
2026-01-25 23:51:09.54	14.97	12.60	-42.1	-45.7	16.5	0.00e+00	0	39	0	95420416	56	5263
2026-01-25 23:51:10.40	14.97	12.69	-42.0	-45.6	16.6	0.00e+00	0	39	0	97517568	56	5182
2026-01-25 23:51:11.53	14.96	12.80	-41.9	-45.4	16.7	0.00e+00	0	39	0	99614720	55	5353
2026-01-25 23:51:12.39	14.95	12.88	-41.9	-45.4	16.7	0.00e+00	0	39	0	100663296	55	5356
2026-01-25 23:51:13.53	14.94	12.99	-41.9	-45.4	16.7	0.00e+00	0	39	0	102760448	55	5343
2026-01-25 23:51:14.38	14.93	13.07	-41.9	-45.4	16.7	0.00e+00	0	39	0	104857600	55	5345
2026-01-25 23:51:15.52	14.92	13.18	-41.8	-45.2	16.8	0.00e+00	0	39	0	106954752	55	5248
2026-01-25 23:51:16.37	14.92	13.27	-41.8	-45.2	16.9	0.00e+00	0	39	0	108003328	55	5236
2026-01-25 23:51:17.51	14.91	13.38	-41.9	-45.2	16.9	0.00e+00	0	39	0	110100480	55	5255
2026-01-25 23:51:18.36	14.90	13.47	-42.0	-45.4	16.7	0.00e+00	0	39	0	112197632	55	5345
2026-01-25 23:51:19.59	14.89	13.59	-41.8	-45.1	17.0	0.00e+00	0	39	0	114294784	55	5213
2026-01-25 23:51:20.45	14.88	13.68	-41.7	-45.1	17.0	0.00e+00	0	39	0	116391936	55	5173
2026-01-25 23:51:21.58	14.87	13.79	-41.7	-45.1	17.0	0.00e+00	0	39	0	118489088	55	5162
2026-01-25 23:51:22.44	14.86	13.88	-41.8	-45.1	17.0	0.00e+00	0	39	0	119537664	55	5195
2026-01-25 23:51:23.57	14.85	13.99	-41.8	-45.0	17.0	0.00e+00	0	39	0	121634816	55	5158
2026-01-25 23:51:24.43	14.84	14.08	-41.8	-45.2	17.0	0.00e+00	0	39	0	123731968	55	5225
2026-01-25 23:51:25.56	14.83	14.19	-41.7	-45.1	17.0	0.00e+00	0	39	0	125829120	55	5167
2026-01-25 23:51:26.42	14.82	14.28	-41.8	-45.1	17.0	0.00e+00	0	39	0	126877696	55	5186
2026-01-25 23:51:27.55	14.81	14.40	-41.6	-44.9	17.2	0.00e+00	0	39	0	128974848	55	5049
2026-01-25 23:51:28.41	14.80	14.49	-41.7	-44.9	17.2	0.00e+00	0	39	0	131072000	55	5089
2026-01-25 23:51:29.54	14.79	14.61	-41.7	-44.9	17.2	0.00e+00	0	39	0	133169152	55	5099
2026-01-25 23:51:30.40	14.78	14.70	-41.6	-44.8	17.1	0.00e+00	0	39	0	134217728	55	5017
2026-01-25 23:51:31.53	14.77	14.81	-41.6	-44.8	17.3	0.00e+00	0	39	0	136314880	55	5007
2026-01-25 23:51:32.39	14.76	14.91	-41.7	-44.9	17.2	0.00e+00	0	39	0	138412032	55	5088
2026-01-25 23:51:33.52	14.75	15.02	-41.7	-44.8	17.3	0.00e+00	0	39	0	140509184	55	5017
2026-01-25 23:51:34.39	14.74	15.12	-41.6	-44.7	17.4	0.00e+00	0	39	0	142606336	55	4966
2026-01-25 23:51:35.53	14.73	15.24	-41.6	-44.7	17.3	0.00e+00	0	39	0	144703488	55	4983
2026-01-25 23:51:36.38	14.72	15.33	-41.6	-44.7	17.4	0.00e+00	0	39	0	145752064	55	4959
2026-01-25 23:51:37.52	14.71	15.45	-41.6	-44.6	17.5	0.00e+00	0	39	0	147849216	55	4899
2026-01-25 23:51:38.37	14.70	15.55	-41.6	-44.6	17.5	0.00e+00	0	39	0	149946368	55	4916
2026-01-25 23:51:39.51	14.68	15.67	-41.6	-44.6	17.5	0.00e+00	0	39	0	152043520	55	4876
2026-01-25 23:51:40.36	14.67	15.76	-41.6	-44.6	17.5	0.00e+00	0	39	0	153092096	55	4878
2026-01-25 23:51:41.50	14.66	15.89	-41.6	-44.5	17.6	0.00e+00	0	39	0	155189248	55	4867
2026-01-25 23:51:42.35	14.65	15.98	-41.6	-44.5	17.6	0.00e+00	0	39	0	157286400	55	4817
2026-01-25 23:51:43.49	14.64	16.11	-41.5	-44.5	17.7	0.00e+00	0	39	0	159383552	55	4821
2026-01-25 23:51:44.34	14.63	16.20	-41.5	-44.4	17.7	0.00e+00	0	39	0	160432128	54	5065
2026-01-25 23:51:45.51	14.61	16.33	-41.6	-44.5	17.6	0.00e+00	0	39	0	162529280	54	5116
2026-01-25 23:51:46.36	14.60	16.43	-41.5	-44.5	17.6	0.00e+00	0	39	0	164626432	54	5101
2026-01-25 23:51:47.50	14.59	16.56	-41.4	-44.3	17.9	0.00e+00	0	39	0	166723584	54	4984
2026-01-25 23:51:48.35	14.58	16.65	-41.4	-44.2	17.9	0.00e+00	0	39	0	168820736	54	4964
2026-01-25 23:51:49.59	14.56	16.79	-41.4	-44.2	17.9	0.00e+00	0	39	0	170917888	54	4959
2026-01-25 23:51:50.86	14.55	16.94	-41.4	-44.2	17.9	0.00e+00	0	39	0	173015040	54	4945
2026-01-25 23:51:51.65	14.54	17.03	-41.4	-44.2	17.9	0.00e+00	0	39	0	174063616	54	4954
2026-01-25 23:51:52.86	14.52	17.17	-41.5	-44.3	17.9	0.00e+00	0	39	0	177209344	54	5002
2026-01-25 23:51:53.72	14.51	17.27	-41.3	-44.1	18.0	0.00e+00	0	39	0	178257920	54	4873
2026-01-25 23:51:54.85	14.50	17.40	-41.4	-44.2	17.9	0.00e+00	0	39	0	180355072	54	4950
2026-01-25 23:51:55.70	14.49	17.50	-41.4	-44.1	18.0	0.00e+00	0	39	0	182452224	54	4924
2026-01-25 23:51:56.84	14.47	17.64	-41.3	-44.0	18.2	0.00e+00	0	39	0	184549376	54	4817
2026-01-25 23:51:57.69	14.46	17.74	-41.2	-43.8	18.3	0.00e+00	0	39	0	185597952	54	4749
2026-01-25 23:51:58.91	14.44	17.88	-41.2	-43.8	18.4	0.00e+00	0	39	0	187695104	54	4718
2026-01-25 23:51:59.76	14.43	17.98	-41.2	-43.8	18.3	0.00e+00	0	39	0	189792256	54	4750
2026-01-25 23:52:00.90	14.42	18.12	-41.3	-43.8	18.3	0.00e+00	0	39	0	191889408	54	4749
2026-01-25 23:52:01.75	14.40	18.22	-41.2	-43.8	18.4	0.00e+00	0	39	0	192937984	54	4707
2026-01-25 23:52:03.02	14.39	18.38	-41.2	-43.7	18.4	0.00e+00	0	39	0	196083712	54	4667
2026-01-25 23:52:03.78	14.38	18.47	-41.3	-43.8	18.3	0.00e+00	0	39	0	197132288	54	4742
2026-01-25 23:52:05.05	14.36	18.63	-41.2	-43.8	18.4	0.00e+00	0	39	0	199229440	54	4719
2026-01-25 23:52:05.77	14.35	18.71	-41.2	-43.7	18.4	0.00e+00	0	39	0	201326592	54	4692
2026-01-25 23:52:07.05	14.33	18.87	-41.2	-43.7	18.5	0.00e+00	0	39	0	203423744	54	4659
2026-01-25 23:52:07.77	14.32	18.96	-41.3	-43.7	18.4	0.00e+00	0	39	0	204472320	54	4703
2026-01-25 23:52:09.05	14.30	19.12	-41.2	-43.6	18.5	0.00e+00	0	39	0	207618048	54	4640
2026-01-25 23:52:09.88	14.28	19.23	-41.2	-43.6	18.5	0.00e+00	0	39	0	208666624	54	4614
2026-01-25 23:52:11.02	14.27	19.37	-41.1	-43.5	18.6	0.00e+00	0	39	0	210763776	54	4570
2026-01-25 23:52:11.87	14.25	19.48	-41.2	-43.6	18.6	0.00e+00	0	39	0	212860928	54	4608
2026-01-25 23:52:13.01	14.24	19.62	-41.2	-43.6	18.6	0.00e+00	0	39	0	214958080	54	4600
2026-01-25 23:52:13.86	14.22	19.73	-41.1	-43.5	18.6	0.00e+00	0	39	0	216006656	54	4563
2026-01-25 23:52:15.00	14.20	19.88	-41.2	-43.6	18.6	0.00e+00	0	39	0	218103808	54	4622
2026-01-25 23:52:15.85	14.19	19.99	-41.1	-43.5	18.6	0.00e+00	0	39	0	220200960	54	4579
2026-01-25 23:52:17.11	14.17	20.16	-41.2	-43.5	18.6	0.00e+00	0	39	0	222298112	54	4594
2026-01-25 23:52:17.92	14.16	20.26	-41.1	-43.5	18.7	0.00e+00	0	39	0	223346688	54	4558
2026-01-25 23:52:19.06	14.14	20.41	-41.1	-43.4	18.7	0.00e+00	0	39	0	225443840	54	4534
2026-01-25 23:52:19.91	14.12	20.52	-41.1	-43.5	18.7	0.00e+00	0	39	0	227540992	54	4577
2026-01-25 23:52:21.05	14.10	20.68	-41.1	-43.5	18.7	0.00e+00	0	39	0	229638144	54	4564
2026-01-25 23:52:21.90	14.09	20.79	-41.0	-43.4	18.8	0.00e+00	0	39	0	231735296	54	4513
2026-01-25 23:52:23.04	14.07	20.94	-41.2	-43.6	18.6	0.00e+00	0	39	0	233832448	54	4639
2026-01-25 23:52:23.89	14.05	21.06	-41.1	-43.4	18.7	0.00e+00	0	39	0	234881024	54	4541
2026-01-25 23:52:25.02	14.03	21.21	-41.0	-43.4	18.8	0.00e+00	0	39	0	236978176	54	4506
2026-01-25 23:52:25.88	14.02	21.33	-41.0	-43.4	18.8	0.00e+00	0	39	0	239075328	54	4524
2026-01-25 23:52:27.01	14.00	21.49	-41.0	-43.4	18.8	0.00e+00	0	39	0	241172480	54	4495
2026-01-25 23:52:27.87	13.98	21.60	-41.0	-43.4	18.8	0.00e+00	0	39	0	242221056	54	4507
2026-01-25 23:52:29.00	13.96	21.76	-41.0	-43.3	18.9	0.00e+00	0	39	0	244318208	53	4747
2026-01-25 23:52:29.86	13.95	21.88	-40.9	-43.3	18.9	0.00e+00	0	39	0	246415360	53	4728
2026-01-25 23:52:30.99	13.92	22.04	-41.0	-43.4	18.8	0.00e+00	0	39	0	248512512	53	4764
2026-01-25 23:52:31.84	13.91	22.16	-40.9	-43.3	18.8	0.00e+00	0	39	0	249561088	53	4741
2026-01-25 23:52:33.09	13.88	22.34	-41.0	-43.4	18.8	0.00e+00	0	39	0	252706816	53	4774
2026-01-25 23:52:33.95	13.87	22.46	-41.0	-43.4	18.8	0.00e+00	0	39	0	253755392	53	4795
2026-01-25 23:52:35.08	13.84	22.62	-40.9	-43.3	18.9	0.00e+00	0	39	0	255852544	53	4723
2026-01-25 23:52:35.94	13.83	22.75	-40.8	-43.2	18.9	0.00e+00	0	39	0	257949696	53	4691
2026-01-25 23:52:37.07	13.80	22.91	-40.8	-43.1	19.0	0.00e+00	0	39	0	260046848	53	4640
2026-01-25 23:52:37.99	13.79	23.05	-40.7	-43.0	19.2	0.00e+00	0	39	0	261095424	53	4573
2026-01-25 23:52:38.98	13.76	23.19	-40.8	-43.2	19.0	0.00e+00	0	39	0	263192576	53	4661
2026-01-25 23:52:39.98	13.74	23.34	-40.7	-43.1	19.1	0.00e+00	0	39	0	265289728	53	4602
2026-01-25 23:52:40.97	13.72	23.49	-40.6	-43.0	19.2	0.00e+00	0	39	0	267386880	53	4558
2026-01-25 23:52:41.97	13.70	23.64	-40.7	-43.0	19.1	0.00e+00	0	39	0	268435456	53	4590
2026-01-25 23:52:42.97	13.68	23.79	-40.7	-43.0	19.1	0.00e+00	0	39	0	270532608	53	4581
2026-01-25 23:52:43.96	13.66	23.94	-40.6	-42.9	19.2	0.00e+00	0	39	0	272629760	53	4529
2026-01-25 23:52:44.95	13.64	24.09	-40.6	-42.9	19.2	0.00e+00	0	39	0	274726912	53	4539
2026-01-25 23:52:45.95	13.61	24.24	-40.5	-42.8	19.4	0.00e+00	0	39	0	276824064	53	4461
2026-01-25 23:52:46.94	13.59	24.39	-40.5	-42.8	19.4	0.00e+00	0	39	0	277872640	53	4475
2026-01-25 23:52:47.94	13.57	24.55	-40.5	-42.8	19.4	0.00e+00	0	39	0	279969792	52	4722
2026-01-25 23:52:48.95	13.54	24.70	-40.5	-42.7	19.4	0.00e+00	0	39	0	282066944	52	4692
2026-01-25 23:52:49.97	13.52	24.86	-40.5	-42.8	19.3	0.00e+00	0	39	0	284164096	52	4745
2026-01-25 23:52:50.98	13.50	25.02	-40.6	-42.9	19.3	0.00e+00	0	39	0	285212672	52	4798
2026-01-25 23:52:51.98	13.47	25.18	-40.7	-43.0	19.2	0.00e+00	0	39	0	287309824	52	4832
2026-01-25 23:52:52.98	13.45	25.34	-40.7	-43.0	19.2	0.00e+00	0	39	0	289406976	52	4832
2026-01-25 23:52:53.97	13.42	25.50	-40.5	-42.8	19.3	0.00e+00	0	39	0	291504128	52	4740
2026-01-25 23:52:54.97	13.40	25.66	-40.6	-43.0	19.2	0.00e+00	0	39	0	293601280	52	4824
2026-01-25 23:52:55.96	13.37	25.82	-40.7	-43.0	19.2	0.00e+00	0	39	0	294649856	52	4855
2026-01-25 23:52:56.96	13.35	25.99	-40.7	-43.1	19.1	0.00e+00	0	39	0	296747008	52	4902
2026-01-25 23:52:57.95	13.32	26.15	-40.8	-43.3	19.0	0.00e+00	0	39	0	298844160	52	4984
2026-01-25 23:52:58.95	13.30	26.31	-41.0	-43.5	18.7	0.00e+00	0	39	0	300941312	52	5132
2026-01-25 23:52:59.94	13.27	26.48	-41.1	-43.6	18.6	0.00e+00	0	39	0	303038464	52	5208
2026-01-25 23:53:00.93	13.24	26.65	-41.2	-43.7	18.5	0.00e+00	0	39	0	304087040	53	4980
2026-01-25 23:53:01.93	13.22	26.81	-41.2	-43.8	18.4	0.00e+00	0	39	0	306184192	53	5019
2026-01-25 23:53:02.92	13.19	26.98	-41.3	-43.9	18.3	0.00e+00	0	40	0	308281344	53	5095
2026-01-25 23:53:03.97	13.16	27.16	-41.4	-44.1	18.1	0.00e+00	0	39	0	310378496	53	5170
2026-01-25 23:53:04.93	13.13	27.33	-41.5	-44.1	18.2	0.00e+00	0	39	0	311427072	53	5174
2026-01-25 23:53:05.92	13.11	27.50	-41.6	-44.2	18.1	0.00e+00	0	39	0	313524224	53	5247
2026-01-25 23:53:06.92	13.08	27.67	-41.8	-44.5	17.8	0.00e+00	0	39	0	315621376	54	5111
2026-01-25 23:53:07.91	13.05	27.84	-41.9	-44.6	17.7	0.00e+00	0	39	0	317718528	54	5162
2026-01-25 23:53:08.91	13.02	28.02	-42.0	-44.7	17.6	0.00e+00	0	40	0	319815680	54	5253
2026-01-25 23:53:09.90	12.99	28.19	-42.3	-45.0	17.3	0.00e+00	0	39	0	320864256	55	5144
2026-01-25 23:53:10.90	12.96	28.37	-42.4	-45.2	17.1	0.00e+00	0	39	0	322961408	55	5229
2026-01-25 23:53:11.89	12.93	28.55	-42.5	-45.2	17.1	0.00e+00	0	39	0	325058560	55	5264
2026-01-25 23:53:12.89	12.90	28.73	-42.5	-45.3	17.0	0.00e+00	0	39	0	327155712	55	5330
2026-01-25 23:53:13.88	12.87	28.91	-42.9	-45.7	16.7	0.00e+00	0	39	0	328204288	56	5257
2026-01-25 23:53:14.87	12.83	29.09	-42.9	-45.8	16.7	0.00e+00	0	39	0	330301440	56	5307
2026-01-25 23:53:15.87	12.80	29.28	-43.1	-46.0	16.5	0.00e+00	0	40	0	332398592	56	5414
2026-01-25 23:53:16.86	12.77	29.46	-43.2	-46.2	16.3	0.00e+00	0	39	0	334495744	56	5535
2026-01-25 23:53:17.86	12.74	29.65	-43.4	-46.5	16.0	0.00e+00	0	39	0	336592896	57	5409
2026-01-25 23:53:18.85	12.70	29.83	-43.4	-46.5	16.0	0.00e+00	0	39	0	337641472	57	5431
2026-01-25 23:53:19.85	12.67	30.02	-43.4	-46.6	15.9	0.00e+00	0	39	0	339738624	57	5496
2026-01-25 23:53:20.84	12.64	30.21	-43.5	-46.6	15.9	0.00e+00	0	39	0	341835776	57	5519
2026-01-25 23:53:22.04	12.59	30.44	-43.4	-46.6	15.8	0.00e+00	0	39	0	343932928	57	5514
2026-01-25 23:53:22.94	12.56	30.61	-43.4	-46.6	15.9	0.00e+00	0	39	0	346030080	57	5487
2026-01-25 23:53:24.06	12.52	30.83	-43.5	-46.8	15.7	0.00e+00	0	39	0	348127232	57	5614
2026-01-25 23:53:24.91	12.49	31.00	-43.3	-46.6	15.9	0.00e+00	0	39	0	349175808	57	5477
2026-01-25 23:53:26.05	12.45	31.22	-43.4	-46.6	15.9	0.00e+00	0	39	0	351272960	57	5492
2026-01-25 23:53:27.05	12.41	31.42	-43.4	-46.7	15.8	0.00e+00	0	39	0	353370112	57	5551
2026-01-25 23:53:28.04	12.38	31.62	-43.5	-46.9	15.6	0.00e+00	0	39	0	355467264	57	5683
2026-01-25 23:53:29.04	12.34	31.82	-43.6	-47.0	15.5	0.00e+00	0	39	0	357564416	57	5741
2026-01-25 23:53:30.03	12.30	32.02	-43.6	-47.0	15.5	0.00e+00	0	39	0	358612992	57	5741
2026-01-25 23:53:31.03	12.26	32.22	-43.6	-47.0	15.5	0.00e+00	0	39	0	360710144	57	5736
2026-01-25 23:53:32.02	12.22	32.42	-43.6	-47.1	15.4	0.00e+00	0	39	0	362807296	58	5502
2026-01-25 23:53:33.01	12.18	32.63	-43.6	-47.0	15.5	0.00e+00	0	39	0	364904448	58	5452
2026-01-25 23:53:34.01	12.14	32.83	-43.4	-46.9	15.7	0.00e+00	0	39	0	365953024	58	5345
2026-01-25 23:53:35.00	12.10	33.04	-43.4	-46.7	15.8	0.00e+00	0	39	0	368050176	58	5257
2026-01-25 23:53:36.00	12.06	33.25	-43.3	-46.6	15.9	0.00e+00	0	39	0	370147328	58	5183
2026-01-25 23:53:36.99	12.01	33.46	-43.3	-46.5	16.0	0.00e+00	0	39	0	372244480	58	5156
2026-01-25 23:53:37.99	11.97	33.68	-43.1	-46.3	16.3	0.00e+00	0	39	0	374341632	58	4992
2026-01-25 23:53:38.99	11.93	33.89	-42.9	-45.9	16.6	0.00e+00	0	39	0	375390208	57	5049
2026-01-25 23:53:39.98	11.88	34.11	-42.7	-45.6	16.9	0.00e+00	0	39	0	377487360	57	4901
2026-01-25 23:53:40.98	11.84	34.32	-42.5	-45.3	17.2	0.00e+00	0	39	0	379584512	57	4728
2026-01-25 23:53:41.97	11.79	34.54	-42.4	-45.0	17.4	0.00e+00	0	39	0	381681664	56	4864
2026-01-25 23:53:42.97	11.75	34.76	-42.1	-44.7	17.8	0.00e+00	0	40	0	382730240	56	4677
2026-01-25 23:53:43.96	11.70	34.98	-42.0	-44.6	17.9	0.00e+00	0	39	0	384827392	56	4604
2026-01-25 23:53:44.96	11.65	35.21	-41.6	-44.1	18.3	0.00e+00	0	39	0	386924544	55	4607
2026-01-25 23:53:45.95	11.60	35.43	-41.5	-43.9	18.4	0.00e+00	0	39	0	389021696	54	4805
2026-01-25 23:53:46.94	11.55	35.65	-41.5	-44.0	18.4	0.00e+00	0	39	0	391118848	54	4841
2026-01-25 23:53:47.94	11.50	35.88	-41.2	-43.5	18.8	0.00e+00	0	39	0	392167424	54	4593
2026-01-25 23:53:48.93	11.45	36.11	-40.9	-43.2	19.0	0.00e+00	0	40	0	394264576	53	4700
2026-01-25 23:53:49.96	11.40	36.35	-40.7	-43.0	19.3	0.00e+00	0	39	0	396361728	53	4597
2026-01-25 23:53:50.97	11.35	36.59	-40.5	-42.7	19.5	0.00e+00	0	39	0	398458880	53	4433
2026-01-25 23:53:51.98	11.29	36.82	-40.4	-42.6	19.6	0.00e+00	0	39	0	400556032	52	4644
2026-01-25 23:53:52.98	11.24	37.06	-40.3	-42.5	19.8	0.00e+00	0	39	0	401604608	52	4566
2026-01-25 23:53:53.97	11.18	37.30	-40.3	-42.5	19.8	0.00e+00	0	39	0	403701760	52	4570
2026-01-25 23:53:54.97	11.13	37.54	-40.3	-42.5	19.8	0.00e+00	0	39	0	405798912	52	4562
2026-01-25 23:53:55.96	11.07	37.78	-40.2	-42.4	19.8	0.00e+00	0	39	0	407896064	52	4538
2026-01-25 23:53:56.96	11.01	38.02	-40.3	-42.6	19.7	0.00e+00	0	39	0	408944640	52	4612
2026-01-25 23:53:57.96	10.96	38.27	-40.3	-42.5	19.8	0.00e+00	0	39	0	411041792	52	4551
2026-01-25 23:53:58.95	10.90	38.51	-40.3	-42.5	19.7	0.00e+00	0	39	0	413138944	52	4581
2026-01-25 23:53:59.95	10.84	38.76	-40.5	-42.7	19.6	0.00e+00	0	39	0	415236096	52	4687
2026-01-25 23:54:00.95	10.78	39.01	-40.5	-42.8	19.5	0.00e+00	0	39	0	417333248	52	4715
2026-01-25 23:54:01.94	10.71	39.26	-40.5	-42.8	19.5	0.00e+00	0	39	0	418381824	52	4708
2026-01-25 23:54:02.93	10.65	39.52	-40.5	-42.7	19.6	0.00e+00	0	39	0	420478976	52	4677
2026-01-25 23:54:03.93	10.59	39.77	-40.7	-43.0	19.3	0.00e+00	0	39	0	422576128	52	4832
2026-01-25 23:54:04.93	10.52	40.03	-40.9	-43.2	19.1	0.00e+00	0	39	0	424673280	52	4975
2026-01-25 23:54:05.92	10.45	40.29	-40.8	-43.2	19.1	0.00e+00	0	39	0	426770432	52	4935
2026-01-25 23:54:06.97	10.38	40.56	-41.0	-43.4	18.9	0.00e+00	0	39	0	427819008	52	5042
2026-01-25 23:54:07.93	10.32	40.82	-41.1	-43.5	18.9	0.00e+00	0	39	0	429916160	52	5137
2026-01-25 23:54:09.00	10.24	41.10	-41.2	-43.6	18.7	0.00e+00	0	39	0	432013312	52	5215
2026-01-25 23:54:09.89	10.18	41.34	-41.2	-43.6	18.7	0.00e+00	0	39	0	434110464	53	4900
2026-01-25 23:54:11.02	10.10	41.64	-41.3	-43.8	18.5	0.00e+00	0	39	0	436207616	53	5007
2026-01-25 23:54:11.88	10.03	41.88	-41.4	-43.9	18.4	0.00e+00	0	39	0	437256192	53	5051
2026-01-25 23:54:13.01	9.95	42.19	-41.4	-43.9	18.5	0.00e+00	0	39	0	439353344	53	5056
2026-01-25 23:54:13.87	9.88	42.42	-41.6	-44.0	18.3	0.00e+00	0	39	0	441450496	53	5148
2026-01-25 23:54:15.00	9.79	42.74	-41.4	-43.9	18.5	0.00e+00	0	39	0	443547648	53	5055
2026-01-25 23:54:15.86	9.72	42.98	-41.3	-43.7	18.6	0.00e+00	0	39	0	444596224	53	4973
2026-01-25 23:54:16.99	9.63	43.30	-41.4	-43.9	18.5	0.00e+00	0	39	0	446693376	53	5056
2026-01-25 23:54:17.85	9.56	43.54	-41.6	-44.1	18.3	0.00e+00	0	39	0	448790528	53	5188
2026-01-25 23:54:18.99	9.47	43.87	-41.8	-44.4	18.0	0.00e+00	0	39	0	450887680	54	5084
2026-01-25 23:54:19.84	9.39	44.11	-42.1	-44.8	17.6	0.00e+00	0	39	0	451936256	54	5283
2026-01-25 23:54:20.98	9.29	44.44	-42.0	-44.6	17.8	0.00e+00	0	39	0	454033408	54	5175
2026-01-25 23:54:21.83	9.22	44.69	-42.1	-44.8	17.6	0.00e+00	0	39	0	456130560	54	5294
2026-01-25 23:54:22.96	9.11	45.02	-42.3	-45.0	17.5	0.00e+00	0	39	0	458227712	55	5107
2026-01-25 23:54:23.82	9.04	45.28	-42.5	-45.3	17.1	0.00e+00	0	39	0	460324864	55	5301
2026-01-25 23:54:24.96	8.93	45.62	-43.0	-45.9	16.7	0.00e+00	0	39	0	462422016	56	5353
2026-01-25 23:54:25.81	8.85	45.87	-43.1	-46.0	16.5	0.00e+00	0	39	0	463470592	56	5440
2026-01-25 23:54:26.94	8.74	46.22	-43.3	-46.3	16.3	0.00e+00	0	39	0	465567744	57	5295
2026-01-25 23:54:27.80	8.65	46.48	-43.4	-46.5	16.2	0.00e+00	0	39	0	467664896	57	5403
2026-01-25 23:54:28.93	8.53	46.82	-43.9	-47.1	15.5	0.00e+00	0	39	0	469762048	58	5522
2026-01-25 23:54:29.79	8.44	47.09	-44.1	-47.4	15.2	0.00e+00	0	39	0	470810624	58	5721
2026-01-25 23:54:30.92	8.32	47.44	-44.3	-47.7	14.9	0.00e+00	0	39	0	472907776	59	5563
2026-01-25 23:54:31.78	8.23	47.71	-44.3	-47.7	14.8	7.00e-07	0	39	0	475004928	59	5553
2026-01-25 23:54:32.98	8.10	48.09	-44.1	-47.4	15.1	0.00e+00	0	39	0	477102080	59	5378
2026-01-25 23:54:33.83	8.00	48.36	-44.1	-47.3	15.3	0.00e+00	0	39	0	478150656	59	5334
2026-01-25 23:54:35.00	7.87	48.73	-43.7	-46.8	15.8	0.00e+00	0	39	0	481296384	59	5003
2026-01-25 23:54:35.86	7.77	49.01	-43.7	-46.8	15.8	0.00e+00	0	39	0	482344960	59	5010
2026-01-25 23:54:37.04	7.62	49.39	-43.4	-46.3	16.3	0.00e+00	0	39	0	484442112	58	5026
2026-01-25 23:54:37.89	7.52	49.67	-42.9	-45.7	16.9	0.00e+00	0	39	0	486539264	57	4950
2026-01-25 23:54:39.03	7.37	50.05	-42.4	-45.0	17.5	0.00e+00	0	39	0	488636416	56	4844
2026-01-25 23:54:39.88	7.26	50.33	-41.7	-44.1	18.3	0.00e+00	0	39	0	489684992	55	4624
2026-01-25 23:54:41.02	7.11	50.71	-41.3	-43.6	18.8	0.00e+00	0	39	0	491782144	54	4637
2026-01-25 23:54:41.87	7.00	51.00	-41.2	-43.6	18.9	0.00e+00	0	39	0	493879296	54	4599
2026-01-25 23:54:43.01	6.84	51.38	-40.7	-43.0	19.4	0.00e+00	0	39	0	495976448	53	4556
2026-01-25 23:54:43.86	6.72	51.67	-40.6	-42.9	19.5	0.00e+00	0	39	0	497025024	53	4502
2026-01-25 23:54:45.00	6.55	52.06	-39.9	-42.0	20.3	0.00e+00	0	39	0	499122176	51	4579
2026-01-25 23:54:45.85	6.43	52.35	-39.8	-41.9	20.5	0.00e+00	0	39	0	501219328	51	4495
2026-01-25 23:54:46.98	6.26	52.75	-40.0	-42.1	20.3	0.00e+00	0	39	0	503316480	51	4622
2026-01-25 23:54:47.84	6.12	53.05	-40.1	-42.3	20.1	0.00e+00	0	39	0	505413632	51	4722
2026-01-25 23:54:48.97	5.94	53.44	-40.2	-42.4	20.0	0.00e+00	0	39	0	506462208	51	4780
2026-01-25 23:54:49.82	5.80	53.74	-40.4	-42.7	19.8	0.00e+00	0	39	0	508559360	51	4933
2026-01-25 23:54:50.96	5.61	54.15	-40.2	-42.3	20.1	0.00e+00	0	39	0	510656512	51	4735
2026-01-25 23:54:51.81	5.47	54.45	-40.2	-42.3	20.1	0.00e+00	0	40	0	512753664	51	4730
2026-01-25 23:54:52.95	5.27	54.87	-40.5	-42.7	19.7	0.00e+00	0	39	0	514850816	51	4970
2026-01-25 23:54:53.80	5.11	55.17	-40.7	-42.9	19.5	0.00e+00	0	39	0	515899392	51	5090
2026-01-25 23:54:54.94	4.90	55.59	-41.1	-43.5	18.9	0.00e+00	0	39	0	517996544	52	5114
2026-01-25 23:54:55.79	4.74	55.90	-41.2	-43.7	18.7	0.00e+00	0	39	0	520093696	53	4928
2026-01-25 23:54:56.93	4.52	56.32	-41.6	-44.1	18.3	0.00e+00	0	39	0	522190848	53	5180
2026-01-25 23:54:57.78	4.34	56.64	-42.0	-44.6	17.7	0.00e+00	0	39	0	523239424	54	5216
2026-01-25 23:54:58.92	4.11	57.06	-42.9	-45.8	16.9	0.00e+00	0	39	0	525336576	56	5308
2026-01-25 23:54:59.77	3.93	57.38	-43.3	-46.3	16.3	0.00e+00	0	39	0	527433728	57	5327
2026-01-25 23:55:00.91	3.68	57.81	-43.5	-46.7	15.9	0.00e+00	0	39	0	529530880	57	5532
2026-01-25 23:55:01.76	3.49	58.14	-44.0	-47.5	15.1	0.00e+00	0	39	0	530579456	58	5755
2026-01-25 23:55:02.89	3.23	58.57	-44.6	-48.3	14.4	0.00e+00	0	39	0	532676608	59	5952
2026-01-25 23:55:03.75	3.02	58.90	-44.8	-48.7	13.9	2.20e-06	0	39	0	534773760	60	5897
2026-01-25 23:55:04.92	2.73	59.35	-44.6	-48.3	14.3	1.50e-06	0	39	0	536870912	60	5620
2026-01-25 23:55:05.77	2.52	59.68	-44.1	-47.5	15.1	0.00e+00	0	39	0	538968064	60	5150
2026-01-25 23:55:06.91	2.22	60.12	-43.1	-46.0	16.5	0.00e+00	0	39	0	541065216	58	4839
2026-01-25 23:55:07.76	1.99	60.45	-42.2	-44.8	17.8	0.00e+00	0	39	0	542113792	56	4707
2026-01-25 23:55:09.06	1.63	60.97	-41.5	-43.9	18.5	0.00e+00	0	39	0	544210944	55	4508
2026-01-25 23:55:10.14	1.32	61.39	-40.9	-43.1	19.2	0.00e+00	0	39	0	546308096	53	4639
2026-01-25 23:55:11.31	0.97	61.86	-40.5	-42.8	19.6	0.00e+00	0	39	0	548405248	53	4448
2026-01-25 23:55:12.16	0.71	62.20	-40.5	-42.8	19.6	0.00e+00	0	39	0	550502400	52	4712
2026-01-25 23:55:13.30	0.34	62.65	-40.4	-42.6	19.7	0.00e+00	0	39	0	552599552	52	4644
2026-01-25 23:55:14.15	0.06	62.99	-40.3	-42.5	19.9	0.00e+00	0	39	0	554696704	52	4581
2026-01-25 23:55:15.29	359.67	63.46	-40.2	-42.3	20.0	0.00e+00	0	39	0	556793856	52	4487
2026-01-25 23:55:16.14	359.37	63.80	-40.3	-42.5	19.8	0.00e+00	0	39	0	557842432	52	4587
2026-01-25 23:55:17.28	358.95	64.26	-40.4	-42.6	19.8	0.00e+00	0	39	0	559939584	52	4601
2026-01-25 23:55:18.13	358.63	64.61	-40.4	-42.5	19.8	0.00e+00	0	39	0	562036736	52	4594
2026-01-25 23:55:19.35	358.14	65.11	-40.6	-42.8	19.5	0.00e+00	0	39	0	564133888	52	4728
2026-01-25 23:55:20.20	357.80	65.46	-40.8	-43.1	19.4	0.00e+00	0	39	0	565182464	52	4887
2026-01-25 23:55:21.40	357.28	65.95	-40.7	-43.0	19.3	0.00e+00	0	39	0	568328192	52	4865
2026-01-25 23:55:22.26	356.90	66.30	-41.0	-43.4	19.0	0.00e+00	0	39	0	569376768	52	5052
2026-01-25 23:55:23.47	356.34	66.80	-41.6	-44.1	18.3	0.00e+00	0	39	0	571473920	53	5207
2026-01-25 23:55:24.32	355.94	67.15	-41.7	-44.2	18.2	0.00e+00	0	39	0	573571072	54	4936
2026-01-25 23:55:25.46	355.37	67.63	-41.8	-44.2	18.2	0.00e+00	0	39	0	575668224	54	4963
2026-01-25 23:55:26.31	354.92	67.98	-41.9	-44.4	18.1	0.00e+00	0	39	0	576716800	54	5045
2026-01-25 23:55:27.57	354.24	68.50	-41.8	-44.3	18.1	0.00e+00	0	39	0	579862528	54	5010
2026-01-25 23:55:28.38	353.78	68.84	-41.6	-44.1	18.3	0.00e+00	0	39	0	580911104	54	4888
2026-01-25 23:55:29.51	353.11	69.30	-41.6	-44.0	18.5	0.00e+00	0	39	0	583008256	54	4838
2026-01-25 23:55:30.37	352.58	69.66	-41.5	-43.9	18.5	0.00e+00	0	39	0	585105408	54	4799
2026-01-25 23:55:31.51	351.84	70.13	-41.3	-43.6	18.8	0.00e+00	0	39	0	587202560	54	4640
2026-01-25 23:55:32.36	351.27	70.48	-41.0	-43.3	19.0	0.00e+00	0	39	0	588251136	53	4730
2026-01-25 23:55:33.50	350.47	70.95	-40.7	-43.0	19.4	0.00e+00	0	39	0	590348288	53	4552
2026-01-25 23:55:34.35	349.84	71.30	-41.1	-43.5	18.9	0.00e+00	0	39	0	592445440	53	4828
2026-01-25 23:55:35.49	348.96	71.77	-41.0	-43.3	19.1	0.00e+00	0	39	0	594542592	53	4714
2026-01-25 23:55:36.34	348.27	72.11	-40.7	-43.0	19.3	0.00e+00	0	39	0	595591168	53	4548
2026-01-25 23:55:37.48	347.29	72.57	-41.1	-43.4	19.0	0.00e+00	0	39	0	597688320	53	4783
2026-01-25 23:55:38.33	346.53	72.92	-41.6	-44.0	18.5	0.00e+00	0	39	0	599785472	53	5143
2026-01-25 23:55:39.47	345.46	73.37	-42.2	-44.8	17.6	0.00e+00	0	39	0	601882624	55	4990
2026-01-25 23:55:40.32	344.62	73.71	-42.6	-45.3	17.2	0.00e+00	0	39	0	602931200	55	5322
2026-01-25 23:55:41.46	343.44	74.16	-43.6	-46.7	15.9	0.00e+00	0	39	0	605028352	58	5220
2026-01-25 23:55:42.31	342.51	74.49	-43.8	-46.9	15.8	0.00e+00	0	39	0	607125504	58	5379
2026-01-25 23:55:43.49	341.15	74.94	-43.3	-46.1	16.5	0.00e+00	0	39	0	609222656	58	4899
2026-01-25 23:55:44.35	340.10	75.27	-42.7	-45.4	17.1	0.00e+00	0	39	0	611319808	57	4802
2026-01-25 23:55:45.48	338.65	75.69	-42.5	-45.1	17.5	0.00e+00	0	39	0	613416960	57	4628
2026-01-25 23:55:46.33	337.50	76.01	-42.4	-44.9	17.7	0.00e+00	0	39	0	614465536	56	4803
2026-01-25 23:55:47.60	335.68	76.46	-42.9	-45.6	17.0	0.00e+00	0	39	0	616562688	56	5185
2026-01-25 23:55:48.40	334.46	76.75	-43.2	-46.0	16.7	0.00e+00	0	39	0	618659840	56	5450
2026-01-25 23:55:49.54	332.64	77.14	-42.8	-45.6	17.0	0.00e+00	0	39	0	620756992	57	4909
2026-01-25 23:55:50.39	331.21	77.42	-42.3	-45.0	17.6	0.00e+00	0	39	0	621805568	56	4832
2026-01-25 23:55:51.70	328.86	77.84	-41.4	-43.8	18.6	0.00e+00	0	39	0	624951296	54	4738
2026-01-25 23:55:52.42	327.50	78.07	-41.2	-43.6	18.8	0.00e+00	0	39	0	625999872	54	4613
2026-01-25 23:55:53.69	324.98	78.45	-41.3	-43.6	18.8	0.00e+00	0	39	0	628097024	54	4620
2026-01-25 23:55:54.40	323.49	78.65	-41.1	-43.4	19.0	0.00e+00	0	39	0	630194176	54	4521
2026-01-25 23:55:55.68	320.67	78.99	-40.5	-42.7	19.6	0.00e+00	0	39	0	632291328	52	4693
2026-01-25 23:55:56.41	318.99	79.18	-41.1	-43.4	19.0	0.00e+00	0	39	0	633339904	52	5060
2026-01-25 23:55:57.69	315.89	79.48	-41.4	-43.9	18.6	0.00e+00	0	39	0	635437056	53	5043
2026-01-25 23:55:58.48	313.89	79.65	-41.3	-43.7	18.7	0.00e+00	0	39	0	637534208	53	4957
2026-01-25 23:55:59.69	310.70	79.88	-41.1	-43.5	18.9	0.00e+00	0	39	0	639631360	53	4833
2026-01-25 23:56:00.69	307.95	80.06	-41.1	-43.4	19.0	0.00e+00	0	39	0	641728512	53	4771
2026-01-25 23:56:01.86	304.62	80.23	-41.8	-44.3	18.2	0.00e+00	0	39	0	643825664	54	4993
2026-01-25 23:56:02.74	302.05	80.33	-42.5	-45.3	17.3	0.00e+00	0	39	0	644874240	55	5290
2026-01-25 23:56:03.87	298.66	80.44	-42.6	-45.2	17.3	0.00e+00	0	39	0	646971392	56	4970
2026-01-25 23:56:04.73	296.04	80.50	-42.3	-44.9	17.7	0.00e+00	0	39	0	649068544	56	4799
2026-01-25 23:56:06.10	291.82	80.55	-41.7	-44.1	18.3	0.00e+00	0	39	0	651165696	55	4650
2026-01-25 23:56:06.81	289.61	80.56	-41.3	-43.7	18.8	0.00e+00	0	39	0	653262848	54	4669
2026-01-25 23:56:08.26	285.12	80.53	-41.3	-43.7	18.7	0.00e+00	0	39	0	655360000	54	4657
2026-01-25 23:56:08.97	282.94	80.50	-41.0	-43.3	19.0	0.00e+00	0	39	0	657457152	54	4487
2026-01-25 23:56:10.25	279.05	80.40	-40.4	-42.6	19.7	0.00e+00	0	39	0	659554304	52	4641
2026-01-25 23:56:10.96	276.94	80.33	-40.4	-42.6	19.8	0.00e+00	0	39	0	660602880	52	4622
2026-01-25 23:56:12.24	273.21	80.17	-40.2	-42.3	20.0	0.00e+00	0	39	0	662700032	52	4485
2026-01-25 23:56:12.96	271.17	80.06	-40.2	-42.4	20.0	0.00e+00	0	39	0	664797184	52	4509
2026-01-25 23:56:14.23	267.70	79.84	-40.5	-42.7	19.7	0.00e+00	0	39	0	666894336	52	4664
2026-01-25 23:56:14.96	265.77	79.70	-40.8	-43.1	19.2	0.00e+00	0	39	0	667942912	52	4922
2026-01-25 23:56:16.24	262.53	79.42	-40.8	-43.1	19.3	0.00e+00	0	39	0	671088640	52	4884
2026-01-25 23:56:16.98	260.74	79.25	-40.8	-43.1	19.3	0.00e+00	0	39	0	672137216	52	4880
2026-01-25 23:56:18.26	257.77	78.92	-41.2	-43.6	18.8	0.00e+00	0	39	0	674234368	53	4891
2026-01-25 23:56:18.97	256.21	78.73	-41.6	-44.0	18.4	0.00e+00	0	39	0	675282944	53	5152
2026-01-25 23:56:20.25	253.52	78.37	-42.6	-45.4	17.0	0.00e+00	0	39	0	678428672	55	5377
2026-01-25 23:56:20.96	252.11	78.16	-43.3	-46.3	16.3	0.00e+00	0	39	0	679477248	57	5284
2026-01-25 23:56:22.24	249.69	77.76	-44.5	-48.0	14.6	0.00e+00	0	39	0	681574400	59	5733
2026-01-25 23:56:22.96	248.40	77.53	-44.6	-48.3	14.3	7.00e-07	0	39	0	683671552	60	5631
2026-01-25 23:56:24.26	246.19	77.09	-44.9	-48.7	14.0	1.50e-06	0	39	0	685768704	60	5906
2026-01-25 23:56:24.97	245.05	76.85	-44.6	-48.1	14.5	3.00e-06	0	39	0	686817280	60	5508
2026-01-25 23:56:26.26	243.08	76.40	-44.2	-47.6	15.1	7.00e-07	0	39	0	688914432	60	5193
2026-01-25 23:56:26.97	242.06	76.14	-44.1	-47.6	15.1	0.00e+00	0	39	0	691011584	60	5185
2026-01-25 23:56:28.25	240.31	75.67	-44.1	-47.6	15.1	0.00e+00	0	39	0	693108736	60	5164
2026-01-25 23:56:28.97	239.37	75.40	-43.9	-47.2	15.4	0.00e+00	0	39	0	694157312	59	5268
2026-01-25 23:56:30.24	237.81	74.92	-43.2	-46.2	16.5	0.00e+00	0	39	0	697303040	58	4928
2026-01-25 23:56:30.97	236.96	74.64	-43.0	-45.8	16.8	0.00e+00	0	39	0	698351616	57	5037
2026-01-25 23:56:32.25	235.55	74.14	-42.6	-45.2	17.4	0.00e+00	0	39	0	700448768	56	4979
2026-01-25 23:56:32.99	234.77	73.85	-42.5	-45.2	17.4	0.00e+00	0	39	0	702545920	56	4958
2026-01-25 23:56:34.27	233.50	73.34	-42.2	-44.7	17.9	0.00e+00	0	39	0	704643072	56	4703
2026-01-25 23:56:34.98	232.82	73.06	-41.7	-44.2	18.3	0.00e+00	0	39	0	705691648	55	4662
2026-01-25 23:56:36.26	231.67	72.54	-40.9	-43.2	19.2	0.00e+00	0	39	0	707788800	53	4673
2026-01-25 23:56:36.97	231.06	72.25	-40.6	-42.9	19.5	0.00e+00	0	39	0	709885952	53	4498
2026-01-25 23:56:38.25	230.01	71.73	-40.7	-43.0	19.3	0.00e+00	0	39	0	711983104	53	4566
2026-01-25 23:56:39.18	229.29	71.35	-40.5	-42.8	19.6	0.00e+00	0	39	0	714080256	53	4451
2026-01-25 23:56:40.49	228.33	70.81	-41.2	-43.5	18.9	0.00e+00	0	39	0	716177408	53	4853
2026-01-25 23:56:41.20	227.83	70.52	-41.4	-43.9	18.6	0.00e+00	0	39	0	717225984	53	5046
2026-01-25 23:56:42.83	226.74	69.84	-42.1	-44.7	17.8	0.00e+00	0	39	0	720371712	55	4929
2026-01-25 23:56:43.40	226.38	69.61	-42.0	-44.6	17.9	0.00e+00	0	39	0	721420288	55	4876
2026-01-25 23:56:45.06	225.37	68.92	-42.5	-45.2	17.3	0.00e+00	0	39	0	724566016	55	5261
2026-01-25 23:56:45.74	224.98	68.64	-43.4	-46.3	16.3	0.00e+00	0	39	0	725614592	57	5321
2026-01-25 23:56:47.16	224.20	68.05	-44.7	-48.3	14.2	0.00e+00	0	39	0	728760320	60	5653
2026-01-25 23:56:47.96	223.78	67.71	-45.0	-48.9	13.8	4.50e-06	0	39	0	729808896	60	5999
2026-01-25 23:56:49.10	223.20	67.24	-44.0	-47.3	15.4	0.00e+00	0	39	0	731906048	59	5280
2026-01-25 23:56:49.95	222.79	66.89	-43.5	-46.6	16.1	0.00e+00	0	39	0	734003200	58	5178
2026-01-25 23:56:51.09	222.26	66.42	-43.0	-45.8	16.7	0.00e+00	0	39	0	736100352	58	4758
2026-01-25 23:56:51.94	221.88	66.07	-42.5	-45.2	17.4	0.00e+00	0	39	0	737148928	57	4663
2026-01-25 23:56:53.10	221.37	65.59	-41.3	-43.7	18.8	0.00e+00	0	39	0	739246080	54	4662
2026-01-25 23:56:54.36	220.85	65.07	-40.9	-43.1	19.2	0.00e+00	0	39	0	742391808	53	4637
2026-01-25 23:56:55.18	220.53	64.73	-40.8	-43.1	19.3	0.00e+00	0	39	0	743440384	53	4626
2026-01-25 23:56:56.31	220.09	64.27	-40.4	-42.6	19.8	0.00e+00	0	39	0	745537536	52	4614
2026-01-25 23:56:57.17	219.78	63.92	-40.4	-42.6	19.8	0.00e+00	0	39	0	747634688	52	4629
2026-01-25 23:56:58.31	219.37	63.46	-40.4	-42.6	19.8	0.00e+00	0	39	0	749731840	52	4606
2026-01-25 23:56:59.16	219.07	63.11	-40.4	-42.6	19.8	0.00e+00	0	39	0	750780416	52	4599
2026-01-25 23:57:00.29	218.70	62.66	-40.0	-42.0	20.4	0.00e+00	0	39	0	752877568	51	4598
2026-01-25 23:57:01.15	218.42	62.31	-39.9	-42.0	20.4	0.00e+00	0	39	0	754974720	51	4561
2026-01-25 23:57:02.28	218.07	61.86	-40.5	-42.7	19.8	0.00e+00	0	39	0	757071872	51	4929
2026-01-25 23:57:03.13	217.81	61.52	-40.6	-42.8	19.6	0.00e+00	0	39	0	758120448	52	4708
2026-01-25 23:57:04.27	217.48	61.07	-41.2	-43.5	18.8	0.00e+00	0	39	0	760217600	53	4862
2026-01-25 23:57:05.12	217.24	60.73	-41.6	-44.0	18.4	0.00e+00	0	39	0	762314752	53	5140
2026-01-25 23:57:06.48	216.86	60.20	-42.9	-45.7	17.0	0.00e+00	0	39	0	764411904	56	5222
2026-01-25 23:57:07.19	216.67	59.92	-43.0	-45.8	16.9	0.00e+00	0	39	0	766509056	56	5298
2026-01-25 23:57:08.47	216.35	59.42	-43.4	-46.3	16.3	0.00e+00	0	39	0	768606208	57	5328
2026-01-25 23:57:09.19	216.17	59.14	-43.5	-46.6	16.0	0.00e+00	0	39	0	769654784	57	5471
2026-01-25 23:57:10.47	215.86	58.65	-44.3	-47.9	14.7	0.00e+00	0	39	0	772800512	59	5683
2026-01-25 23:57:11.20	215.68	58.37	-44.7	-48.5	14.2	0.00e+00	0	39	0	773849088	59	6097
2026-01-25 23:57:12.47	215.39	57.88	-44.4	-48.0	14.7	0.00e+00	0	39	0	775946240	60	5445
2026-01-25 23:57:13.18	215.24	57.61	-44.3	-47.8	14.9	0.00e+00	0	39	0	776994816	60	5307
2026-01-25 23:57:14.47	214.96	57.12	-43.7	-46.9	15.7	0.00e+00	0	39	0	780140544	59	5069
2026-01-25 23:57:15.17	214.81	56.86	-43.3	-46.2	16.4	0.00e+00	0	39	0	781189120	58	4970
2026-01-25 23:57:16.46	214.55	56.38	-42.3	-44.9	17.7	0.00e+00	0	39	0	783286272	56	4761
2026-01-25 23:57:17.17	214.41	56.12	-42.1	-44.6	18.0	0.00e+00	0	39	0	784334848	56	4641
2026-01-25 23:57:18.44	214.16	55.65	-41.8	-44.3	18.1	0.00e+00	0	39	0	787480576	55	4737
2026-01-25 23:57:19.17	214.02	55.38	-42.0	-44.5	17.9	0.00e+00	0	39	0	788529152	55	4848
2026-01-25 23:57:20.45	213.79	54.91	-41.5	-43.9	18.5	0.00e+00	0	39	0	790626304	55	4540
2026-01-25 23:57:21.18	213.66	54.65	-41.2	-43.6	18.9	0.00e+00	0	39	0	792723456	54	4604
2026-01-25 23:57:22.46	213.43	54.19	-40.6	-42.8	19.5	0.00e+00	0	39	0	794820608	53	4473
2026-01-25 23:57:23.17	213.31	53.93	-40.5	-42.7	19.7	0.00e+00	0	39	0	795869184	52	4662
2026-01-25 23:57:24.64	213.07	53.41	-40.0	-42.1	20.3	0.00e+00	0	39	0	799014912	51	4599
2026-01-25 23:57:25.35	212.96	53.16	-39.9	-41.9	20.4	0.00e+00	0	39	0	800063488	51	4532
2026-01-25 23:57:26.63	212.76	52.71	-40.0	-42.0	20.3	0.00e+00	0	39	0	802160640	51	4595
2026-01-25 23:57:27.34	212.65	52.46	-40.3	-42.4	20.0	0.00e+00	0	39	0	804257792	51	4795
2026-01-25 23:57:28.76	212.43	51.97	-40.7	-42.9	19.4	0.00e+00	0	39	0	806354944	52	4801
2026-01-25 23:57:29.47	212.33	51.73	-40.9	-43.1	19.2	0.00e+00	0	39	0	807403520	52	4912
2026-01-25 23:57:30.81	212.14	51.27	-41.5	-44.0	18.5	0.00e+00	0	39	0	810549248	53	5109
2026-01-25 23:57:31.52	212.04	51.03	-41.8	-44.3	18.2	0.00e+00	0	39	0	811597824	54	4997
2026-01-25 23:57:32.81	211.87	50.59	-42.4	-45.1	17.3	0.00e+00	0	39	0	813694976	55	5201
2026-01-25 23:57:33.52	211.77	50.35	-42.9	-45.8	16.8	0.00e+00	0	39	0	815792128	56	5286
2026-01-25 23:57:34.80	211.61	49.93	-43.5	-46.6	16.0	0.00e+00	0	39	0	817889280	57	5493
2026-01-25 23:57:35.51	211.52	49.69	-43.9	-47.0	15.5	0.00e+00	0	39	0	818937856	58	5445
2026-01-25 23:57:36.79	211.36	49.27	-43.8	-46.8	15.7	0.00e+00	0	39	0	822083584	58	5329
2026-01-25 23:57:37.53	211.27	49.03	-43.7	-46.8	15.9	0.00e+00	0	39	0	823132160	58	5290
2026-01-25 23:57:38.80	211.12	48.62	-43.6	-46.5	16.2	0.00e+00	0	39	0	825229312	58	5138
2026-01-25 23:57:39.54	211.03	48.38	-43.7	-46.8	15.8	0.00e+00	0	39	0	827326464	58	5305
2026-01-25 23:57:40.82	210.89	47.97	-43.9	-47.1	15.5	0.00e+00	0	39	0	829423616	58	5505
2026-01-25 23:57:41.55	210.80	47.74	-43.9	-47.1	15.4	0.00e+00	0	39	0	830472192	58	5502
2026-01-25 23:57:42.83	210.66	47.34	-44.6	-48.3	14.3	0.00e+00	0	39	0	832569344	59	5932
2026-01-25 23:57:43.69	210.57	47.07	-45.1	-49.2	13.4	5.30e-06	0	39	0	834666496	60	6261
2026-01-25 23:57:45.13	210.42	46.63	-44.9	-48.7	14.0	9.10e-06	0	39	0	836763648	60	5922
2026-01-25 23:57:45.84	210.35	46.41	-44.6	-48.3	14.3	7.00e-07	0	39	0	838860800	60	5627
2026-01-25 23:57:47.12	210.22	46.02	-44.0	-47.3	15.3	0.00e+00	0	39	0	840957952	60	5033
2026-01-25 23:57:47.85	210.15	45.80	-43.8	-46.9	15.6	0.00e+00	0	39	0	842006528	59	5091
2026-01-25 23:57:49.12	210.03	45.41	-43.4	-46.4	16.2	0.00e+00	0	39	0	845152256	58	5073
2026-01-25 23:57:49.88	209.96	45.19	-43.4	-46.4	16.2	0.00e+00	0	39	0	846200832	58	5065
2026-01-25 23:57:51.16	209.84	44.81	-43.3	-46.2	16.3	0.00e+00	0	39	0	848297984	58	4980
2026-01-25 23:57:51.87	209.77	44.60	-43.4	-46.4	16.2	0.00e+00	0	39	0	850395136	58	5084
2026-01-25 23:57:53.15	209.66	44.22	-43.6	-46.8	15.8	0.00e+00	0	39	0	852492288	58	5317
2026-01-25 23:57:54.00	209.59	43.98	-43.9	-47.3	15.2	0.00e+00	0	39	0	853540864	58	5645
2026-01-25 23:57:55.14	209.49	43.65	-44.1	-47.6	15.0	0.00e+00	0	39	0	855638016	59	5517
2026-01-25 23:57:55.99	209.42	43.40	-44.4	-48.0	14.6	0.00e+00	0	39	0	857735168	59	5738
2026-01-25 23:57:57.13	209.32	43.08	-44.2	-47.7	14.9	7.00e-07	0	39	0	859832320	59	5560
2026-01-25 23:57:57.98	209.26	42.84	-44.3	-47.9	14.7	0.00e+00	0	39	0	860880896	59	5681
2026-01-25 23:57:59.12	209.16	42.52	-44.2	-47.6	14.9	2.20e-06	0	39	0	862978048	59	5511
2026-01-25 23:58:00.29	209.07	42.20	-44.1	-47.5	15.1	7.00e-07	0	39	0	866123776	59	5417
2026-01-25 23:58:01.31	209.00	41.92	-44.0	-47.4	15.2	0.00e+00	0	39	0	867172352	59	5341
2026-01-25 23:58:02.48	208.91	41.60	-44.2	-47.5	15.1	0.00e+00	0	39	0	869269504	59	5422
2026-01-25 23:58:03.33	208.85	41.36	-44.0	-47.3	15.3	0.00e+00	0	39	0	871366656	59	5285
2026-01-25 23:58:04.47	208.76	41.06	-44.2	-47.6	14.9	0.00e+00	0	39	0	873463808	59	5519
2026-01-25 23:58:05.42	208.70	40.80	-44.3	-47.7	14.8	0.00e+00	0	39	0	875560960	59	5581
2026-01-25 23:58:06.41	208.63	40.54	-44.3	-47.9	14.7	0.00e+00	0	39	0	877658112	59	5671
2026-01-25 23:58:07.41	208.56	40.28	-44.4	-48.0	14.5	0.00e+00	0	39	0	878706688	59	5767
2026-01-25 23:58:08.41	208.49	40.02	-44.5	-48.1	14.5	0.00e+00	0	39	0	880803840	59	5813
2026-01-25 23:58:09.41	208.42	39.76	-44.5	-48.1	14.4	1.50e-06	0	39	0	882900992	59	5796
2026-01-25 23:58:10.40	208.36	39.50	-44.4	-47.9	14.6	7.00e-07	0	39	0	884998144	59	5694
2026-01-25 23:58:11.40	208.29	39.24	-44.3	-47.7	14.8	7.00e-07	0	39	0	886046720	59	5588
2026-01-25 23:58:12.39	208.23	38.99	-44.1	-47.4	15.1	0.00e+00	0	39	0	888143872	59	5391
2026-01-25 23:58:13.39	208.17	38.74	-44.1	-47.3	15.2	0.00e+00	0	39	0	890241024	59	5331
2026-01-25 23:58:14.38	208.11	38.49	-43.9	-47.1	15.4	0.00e+00	0	39	0	892338176	59	5183
2026-01-25 23:58:15.38	208.05	38.24	-43.9	-47.0	15.6	0.00e+00	0	39	0	894435328	59	5159
2026-01-25 23:58:16.43	207.99	37.98	-43.5	-46.5	16.1	0.00e+00	0	39	0	895483904	58	5126
2026-01-25 23:58:17.35	207.93	37.76	-43.3	-46.3	16.2	0.00e+00	0	39	0	897581056	58	5002
2026-01-25 23:58:18.48	207.87	37.48	-43.1	-46.0	16.6	0.00e+00	0	39	0	899678208	58	4823
2026-01-25 23:58:19.34	207.82	37.27	-43.0	-45.9	16.7	0.00e+00	0	39	0	901775360	58	4764
2026-01-25 23:58:20.47	207.76	37.00	-42.9	-45.8	16.7	0.00e+00	0	39	0	903872512	57	5012
2026-01-25 23:58:21.32	207.71	36.80	-43.0	-45.8	16.7	0.00e+00	0	39	0	904921088	57	5037
2026-01-25 23:58:22.46	207.65	36.53	-43.1	-46.0	16.5	0.00e+00	0	39	0	907018240	57	5132
2026-01-25 23:58:23.32	207.60	36.33	-43.1	-46.0	16.5	0.00e+00	0	39	0	909115392	57	5138
2026-01-25 23:58:24.45	207.54	36.06	-43.0	-46.0	16.5	0.00e+00	0	39	0	911212544	57	5107
2026-01-25 23:58:25.30	207.50	35.87	-43.0	-46.0	16.6	0.00e+00	0	39	0	912261120	57	5103
2026-01-25 23:58:26.44	207.44	35.60	-43.0	-45.9	16.6	0.00e+00	0	39	0	914358272	57	5073
2026-01-25 23:58:27.29	207.40	35.41	-42.9	-45.8	16.6	0.00e+00	0	39	0	916455424	57	5026
2026-01-25 23:58:28.43	207.34	35.15	-42.9	-45.8	16.7	0.00e+00	0	39	0	918552576	57	5014
2026-01-25 23:58:29.28	207.30	34.96	-42.9	-45.8	16.7	0.00e+00	0	39	0	919601152	57	4996
2026-01-25 23:58:30.50	207.24	34.69	-42.9	-45.7	16.8	0.00e+00	0	39	0	922746880	57	4954
2026-01-25 23:58:31.35	207.20	34.50	-42.9	-45.6	16.9	0.00e+00	0	39	0	923795456	57	4920
2026-01-25 23:58:32.49	207.15	34.25	-42.8	-45.6	16.9	0.00e+00	0	39	0	925892608	57	4896
2026-01-25 23:58:33.34	207.11	34.06	-42.8	-45.6	16.9	0.00e+00	0	39	0	927989760	57	4910
2026-01-25 23:58:34.62	207.05	33.78	-42.9	-45.7	16.8	0.00e+00	0	39	0	930086912	57	4961
2026-01-25 23:58:35.35	207.02	33.62	-43.0	-45.8	16.6	0.00e+00	0	39	0	931135488	57	5041
2026-01-25 23:58:36.81	206.96	33.31	-43.1	-46.0	16.5	0.00e+00	0	39	0	934281216	57	5133
2026-01-25 23:58:37.53	206.93	33.16	-43.3	-46.3	16.3	0.00e+00	0	39	0	935329792	57	5281
2026-01-25 23:58:38.81	206.87	32.89	-43.4	-46.4	16.1	0.00e+00	0	39	0	937426944	57	5371
2026-01-25 23:58:39.53	206.84	32.74	-43.5	-46.6	15.9	0.00e+00	0	39	0	939524096	57	5490
2026-01-25 23:58:40.81	206.79	32.47	-43.5	-46.6	15.9	0.00e+00	0	39	0	941621248	57	5482
2026-01-25 23:58:41.54	206.76	32.32	-43.5	-46.6	15.9	0.00e+00	0	39	0	942669824	57	5474
2026-01-25 23:58:42.82	206.71	32.06	-43.5	-46.5	16.0	0.00e+00	0	39	0	945815552	57	5457
2026-01-25 23:58:43.53	206.68	31.91	-43.5	-46.6	15.8	0.00e+00	0	39	0	946864128	57	5512
2026-01-25 23:58:44.81	206.63	31.65	-43.6	-46.6	15.8	0.00e+00	0	39	0	948961280	57	5526
2026-01-25 23:58:45.54	206.60	31.50	-43.7	-46.8	15.8	0.00e+00	0	39	0	951058432	57	5619
2026-01-25 23:58:46.82	206.55	31.25	-43.7	-46.9	15.7	0.00e+00	0	39	0	953155584	58	5345
2026-01-25 23:58:47.54	206.52	31.11	-43.6	-46.8	15.7	0.00e+00	0	39	0	954204160	58	5283
2026-01-25 23:58:48.82	206.48	30.85	-43.7	-46.8	15.6	0.00e+00	0	39	0	956301312	58	5308
2026-01-25 23:58:49.55	206.45	30.71	-43.6	-46.7	15.7	0.00e+00	0	39	0	958398464	58	5270
2026-01-25 23:58:50.82	206.40	30.46	-43.7	-46.8	15.7	0.00e+00	0	39	0	960495616	58	5322
2026-01-25 23:58:51.70	206.37	30.29	-43.8	-47.0	15.5	0.00e+00	0	39	0	962592768	58	5435
2026-01-25 23:58:53.12	206.32	30.02	-43.7	-46.8	15.7	0.00e+00	0	39	0	964689920	58	5323
2026-01-25 23:58:53.83	206.30	29.88	-43.7	-46.8	15.7	0.00e+00	0	39	0	965738496	58	5309
2026-01-25 23:58:55.11	206.25	29.64	-43.8	-47.0	15.6	0.00e+00	0	39	0	968884224	58	5411
2026-01-25 23:58:55.82	206.23	29.51	-43.8	-47.0	15.4	0.00e+00	0	39	0	969932800	58	5456
2026-01-25 23:58:57.10	206.19	29.27	-43.7	-46.8	15.7	0.00e+00	0	39	0	972029952	58	5319
2026-01-25 23:58:57.82	206.16	29.14	-43.7	-46.8	15.7	0.00e+00	0	39	0	973078528	58	5305
2026-01-25 23:58:59.09	206.12	28.90	-43.5	-46.6	15.9	0.00e+00	0	39	0	976224256	58	5179
2026-01-25 23:58:59.82	206.10	28.77	-43.5	-46.5	16.0	0.00e+00	0	39	0	977272832	58	5131
2026-01-25 23:59:01.10	206.06	28.53	-43.4	-46.4	16.1	0.00e+00	0	39	0	979369984	58	5051
2026-01-25 23:59:01.81	206.03	28.41	-43.3	-46.3	16.2	0.00e+00	0	39	0	981467136	58	4999
2026-01-25 23:59:03.09	205.99	28.18	-43.1	-46.0	16.4	0.00e+00	0	39	0	983564288	58	4851
2026-01-25 23:59:03.81	205.97	28.05	-43.1	-46.0	16.4	0.00e+00	0	39	0	984612864	58	4867
2026-01-25 23:59:05.09	205.93	27.82	-43.1	-46.1	16.4	0.00e+00	0	39	0	987758592	58	4888
2026-01-25 23:59:05.83	205.91	27.69	-42.9	-45.8	16.7	0.00e+00	0	39	0	988807168	57	4995
2026-01-25 23:59:07.11	205.87	27.47	-42.9	-45.8	16.7	0.00e+00	0	39	0	990904320	57	5011
2026-01-25 23:59:07.82	205.85	27.34	-42.9	-45.7	16.7	0.00e+00	0	39	0	991952896	57	4972
2026-01-25 23:59:09.17	205.81	27.11	-42.8	-45.5	16.9	0.00e+00	0	39	0	995098624	57	4869
2026-01-25 23:59:09.88	205.79	26.99	-42.8	-45.6	16.9	0.00e+00	0	39	0	996147200	57	4905
2026-01-25 23:59:11.22	205.76	26.76	-42.7	-45.5	17.0	0.00e+00	0	39	0	998244352	57	4824
2026-01-25 23:59:11.93	205.74	26.64	-42.7	-45.4	17.0	0.00e+00	0	39	0	1000341504	57	4804
2026-01-25 23:59:13.21	205.70	26.42	-42.7	-45.4	17.0	0.00e+00	0	39	0	1002438656	57	4814
2026-01-25 23:59:13.92	205.68	26.30	-42.6	-45.4	17.0	0.00e+00	0	39	0	1003487232	57	4798
2026-01-25 23:59:15.20	205.65	26.09	-42.6	-45.3	17.1	0.00e+00	0	39	0	1006632960	57	4749
2026-01-25 23:59:15.91	205.63	25.97	-42.5	-45.3	17.2	0.00e+00	0	39	0	1007681536	57	4706
2026-01-25 23:59:17.19	205.59	25.76	-42.5	-45.3	17.1	0.00e+00	0	39	0	1009778688	57	4745
2026-01-25 23:59:17.90	205.58	25.65	-42.3	-45.0	17.4	0.00e+00	0	39	0	1010827264	56	4846
2026-01-25 23:59:19.18	205.54	25.44	-42.3	-45.0	17.4	0.00e+00	0	39	0	1013972992	56	4865
2026-01-25 23:59:20.01	205.52	25.30	-42.3	-45.1	17.4	0.00e+00	0	39	0	1015021568	56	4872
2026-01-25 23:59:21.14	205.49	25.12	-42.1	-44.8	17.6	0.00e+00	0	39	0	1017118720	56	4741
2026-01-25 23:59:21.99	205.47	24.99	-42.1	-44.8	17.7	0.00e+00	0	39	0	1019215872	56	4711
2026-01-25 23:59:23.13	205.44	24.80	-42.1	-44.8	17.7	0.00e+00	0	39	0	1021313024	56	4725
2026-01-25 23:59:23.98	205.42	24.67	-41.8	-44.4	17.8	0.00e+00	0	39	0	1022361600	55	4804
2026-01-25 23:59:25.12	205.40	24.49	-41.8	-44.4	17.9	0.00e+00	0	39	0	1024458752	55	4803
2026-01-25 23:59:25.97	205.38	24.36	-41.8	-44.4	17.9	0.00e+00	0	39	0	1026555904	55	4770
2026-01-25 23:59:27.11	205.35	24.18	-41.7	-44.2	18.0	0.00e+00	0	39	0	1028653056	55	4704
2026-01-25 23:59:27.96	205.33	24.05	-41.7	-44.3	18.0	0.00e+00	0	39	0	1029701632	55	4710
2026-01-25 23:59:29.09	205.30	23.88	-41.8	-44.4	17.9	0.00e+00	0	39	0	1031798784	55	4768
2026-01-25 23:59:29.94	205.28	23.75	-41.6	-44.1	18.1	0.00e+00	0	39	0	1033895936	55	4638
2026-01-25 23:59:31.08	205.26	23.58	-41.6	-44.2	18.0	0.00e+00	0	39	0	1035993088	55	4674
2026-01-25 23:59:31.95	205.24	23.45	-41.7	-44.2	18.0	0.00e+00	0	39	0	1038090240	55	4702
2026-01-25 23:59:33.09	205.21	23.27	-41.6	-44.2	18.1	0.00e+00	0	39	0	1040187392	55	4655
2026-01-25 23:59:34.02	205.19	23.14	-41.7	-44.3	17.9	0.00e+00	0	39	0	1041235968	55	4727
2026-01-25 23:59:35.01	205.17	22.99	-41.8	-44.4	17.8	0.00e+00	0	39	0	1043333120	55	4794
2026-01-25 23:59:36.01	205.15	22.84	-41.7	-44.3	17.9	0.00e+00	0	39	0	1045430272	55	4733
2026-01-25 23:59:37.00	205.13	22.70	-41.8	-44.4	17.8	0.00e+00	0	39	0	1047527424	55	4766
2026-01-25 23:59:38.00	205.11	22.55	-41.8	-44.4	17.8	0.00e+00	0	39	0	1048576000	55	4814
2026-01-25 23:59:38.99	205.09	22.41	-41.8	-44.4	17.8	0.00e+00	0	39	0	1050673152	55	4788
2026-01-25 23:59:39.99	205.07	22.27	-41.8	-44.4	17.9	0.00e+00	0	39	0	1052770304	55	4776
2026-01-25 23:59:40.98	205.05	22.12	-41.8	-44.4	17.8	0.00e+00	0	39	0	1054867456	55	4776
2026-01-25 23:59:41.98	205.03	21.98	-41.7	-44.3	17.9	0.00e+00	0	39	0	1055916032	55	4719
2026-01-25 23:59:42.97	205.01	21.84	-41.8	-44.4	17.8	0.00e+00	0	39	0	1058013184	55	4764
2026-01-25 23:59:43.97	204.99	21.70	-41.8	-44.3	17.9	0.00e+00	0	39	0	1060110336	55	4750
2026-01-25 23:59:44.96	204.97	21.56	-41.7	-44.2	18.0	0.00e+00	0	39	0	1062207488	55	4675
2026-01-25 23:59:45.98	204.95	21.42	-41.7	-44.2	18.0	0.00e+00	0	39	0	1064304640	55	4697
2026-01-25 23:59:46.97	204.93	21.28	-41.6	-44.2	18.0	0.00e+00	0	39	0	1065353216	55	4662
2026-01-25 23:59:47.97	204.91	21.15	-41.7	-44.2	17.9	0.00e+00	0	39	0	1067450368	55	4701
2026-01-25 23:59:48.96	204.89	21.01	-41.8	-44.4	17.8	0.00e+00	0	39	0	1069547520	55	4784
2026-01-25 23:59:49.95	204.88	20.88	-41.9	-44.4	17.8	0.00e+00	0	39	0	1071644672	55	4808
2026-01-25 23:59:50.95	204.86	20.74	-41.9	-44.5	17.6	0.00e+00	0	39	0	1072693248	55	4863
2026-01-25 23:59:51.95	204.84	20.60	-42.0	-44.6	17.6	0.00e+00	0	39	0	1074790400	55	4878
2026-01-25 23:59:52.94	204.82	20.47	-42.0	-44.7	17.5	0.00e+00	0	39	0	1076887552	55	4930
2026-01-25 23:59:53.94	204.80	20.34	-42.1	-44.8	17.4	0.00e+00	0	39	0	1078984704	55	5003
2026-01-25 23:59:54.93	204.79	20.21	-42.2	-44.9	17.3	0.00e+00	0	39	0	1081081856	55	5053
2026-01-25 23:59:55.93	204.77	20.08	-42.2	-44.9	17.3	0.00e+00	0	39	0	1082130432	55	5079
2026-01-25 23:59:56.92	204.75	19.95	-42.3	-45.0	17.2	0.00e+00	0	39	0	1084227584	55	5113
2026-01-25 23:59:57.91	204.74	19.82	-42.3	-45.1	17.1	0.00e+00	0	39	0	1086324736	55	5186
2026-01-25 23:59:58.91	204.72	19.69	-42.3	-45.1	17.1	0.00e+00	0	39	0	1088421888	55	5175
2026-01-25 23:59:59.90	204.70	19.56	-42.4	-45.2	17.0	0.00e+00	0	39	0	1089470464	55	5221
2026-01-26 00:00:00.90	204.69	19.43	-42.5	-45.3	16.9	0.00e+00	0	39	0	1091567616	55	5293
2026-01-26 00:00:01.90	204.67	19.30	-42.5	-45.3	16.9	0.00e+00	0	39	0	1093664768	55	5297
2026-01-26 00:00:02.89	204.65	19.18	-42.6	-45.5	16.7	0.00e+00	0	39	0	1095761920	55	5409
2026-01-26 00:00:03.95	204.64	19.04	-42.6	-45.5	16.8	0.00e+00	0	39	0	1097859072	55	5403
2026-01-26 00:00:04.84	204.62	18.93	-42.5	-45.3	16.9	0.00e+00	0	39	0	1098907648	55	5331
2026-01-26 00:00:05.97	204.60	18.79	-42.6	-45.4	16.8	0.00e+00	0	39	0	1101004800	55	5395
2026-01-26 00:00:06.83	204.59	18.68	-42.5	-45.4	16.8	0.00e+00	0	39	0	1103101952	55	5348
2026-01-26 00:00:07.97	204.57	18.54	-42.5	-45.4	16.8	0.00e+00	0	39	0	1105199104	55	5341
2026-01-26 00:00:08.82	204.56	18.43	-42.6	-45.4	16.7	0.00e+00	0	39	0	1106247680	55	5395
2026-01-26 00:00:09.95	204.54	18.30	-42.6	-45.4	16.8	0.00e+00	0	39	0	1108344832	55	5375
2026-01-26 00:00:10.81	204.53	18.19	-42.5	-45.4	16.8	0.00e+00	0	39	0	1110441984	55	5347
2026-01-26 00:00:11.94	204.51	18.05	-42.6	-45.4	16.8	0.00e+00	0	39	0	1112539136	55	5362
2026-01-26 00:00:12.80	204.50	17.95	-42.6	-45.4	16.8	0.00e+00	0	39	0	1114636288	55	5362
2026-01-26 00:00:14.00	204.48	17.80	-42.6	-45.4	16.7	0.00e+00	0	39	0	1116733440	55	5388
2026-01-26 00:00:14.85	204.47	17.70	-42.8	-45.6	16.7	0.00e+00	0	39	0	1117782016	56	5197
2026-01-26 00:00:16.08	204.45	17.56	-42.8	-45.7	16.7	0.00e+00	0	39	0	1119879168	56	5234
2026-01-26 00:00:16.93	204.44	17.46	-42.8	-45.6	16.7	0.00e+00	0	39	0	1121976320	56	5216
2026-01-26 00:00:18.10	204.42	17.32	-42.8	-45.6	16.7	0.00e+00	0	39	0	1124073472	56	5205
2026-01-26 00:00:18.96	204.41	17.22	-42.8	-45.6	16.7	0.00e+00	0	39	0	1126170624	56	5209
2026-01-26 00:00:20.09	204.40	17.08	-42.8	-45.7	16.6	0.00e+00	0	39	0	1128267776	56	5228
2026-01-26 00:00:20.95	204.39	16.98	-42.9	-45.7	16.6	0.00e+00	0	39	0	1129316352	56	5252
2026-01-26 00:00:22.08	204.37	16.85	-42.9	-45.8	16.5	0.00e+00	0	39	0	1131413504	56	5287
2026-01-26 00:00:22.94	204.36	16.75	-42.9	-45.7	16.6	0.00e+00	0	39	0	1133510656	56	5271
2026-01-26 00:00:24.07	204.34	16.62	-42.9	-45.8	16.5	0.00e+00	0	39	0	1135607808	56	5320
2026-01-26 00:00:24.93	204.33	16.53	-43.0	-45.9	16.5	0.00e+00	0	39	0	1136656384	56	5345
2026-01-26 00:00:26.06	204.32	16.40	-43.0	-45.9	16.4	0.00e+00	0	39	0	1138753536	56	5352
2026-01-26 00:00:26.92	204.31	16.30	-43.0	-45.8	16.4	0.00e+00	0	39	0	1140850688	56	5327
2026-01-26 00:00:28.05	204.29	16.17	-43.0	-45.9	16.4	0.00e+00	0	39	0	1142947840	56	5374
2026-01-26 00:00:28.91	204.28	16.08	-43.1	-46.0	16.3	0.00e+00	0	39	0	1143996416	56	5443
2026-01-26 00:00:30.05	204.27	15.95	-43.1	-46.1	16.2	0.00e+00	0	39	0	1146093568	56	5514
2026-01-26 00:00:30.90	204.26	15.85	-43.1	-46.1	16.2	0.00e+00	0	39	0	1148190720	56	5468
2026-01-26 00:00:32.04	204.24	15.73	-43.2	-46.2	16.1	0.00e+00	0	39	0	1150287872	57	5250
2026-01-26 00:00:32.89	204.23	15.63	-43.1	-46.1	16.2	0.00e+00	0	39	0	1152385024	57	5177
2026-01-26 00:00:34.03	204.22	15.51	-43.2	-46.3	15.9	0.00e+00	0	39	0	1153433600	57	5292
2026-01-26 00:00:34.88	204.21	15.42	-43.2	-46.3	16.0	0.00e+00	0	39	0	1155530752	57	5291
2026-01-26 00:00:36.02	204.19	15.29	-43.1	-46.2	16.1	0.00e+00	0	39	0	1157627904	57	5236
2026-01-26 00:00:36.88	204.18	15.20	-43.1	-46.2	16.1	0.00e+00	0	39	0	1159725056	57	5239
2026-01-26 00:00:38.01	204.17	15.08	-43.2	-46.3	16.0	0.00e+00	0	39	0	1161822208	57	5289
2026-01-26 00:00:38.87	204.16	14.99	-43.1	-46.2	16.0	0.00e+00	0	39	0	1162870784	57	5257
2026-01-26 00:00:40.01	204.15	14.86	-43.1	-46.2	16.0	0.00e+00	0	39	0	1164967936	57	5257
2026-01-26 00:00:40.86	204.14	14.77	-43.1	-46.3	15.9	0.00e+00	0	39	0	1167065088	57	5286
2026-01-26 00:00:42.00	204.13	14.65	-43.1	-46.2	16.0	0.00e+00	0	39	0	1169162240	57	5244
2026-01-26 00:00:42.85	204.12	14.56	-43.1	-46.2	16.0	0.00e+00	0	39	0	1170210816	57	5279
2026-01-26 00:00:43.99	204.10	14.44	-43.1	-46.2	16.0	0.00e+00	0	39	0	1172307968	57	5270
2026-01-26 00:00:44.84	204.09	14.36	-43.1	-46.2	16.0	0.00e+00	0	39	0	1174405120	57	5254
2026-01-26 00:00:45.98	204.08	14.24	-43.0	-46.2	16.0	0.00e+00	0	39	0	1176502272	57	5235
2026-01-26 00:00:46.83	204.07	14.15	-43.1	-46.2	16.0	0.00e+00	0	39	0	1177550848	57	5247
2026-01-26 00:00:47.97	204.06	14.03	-43.1	-46.2	15.9	0.00e+00	0	39	0	1179648000	57	5269
2026-01-26 00:00:48.82	204.05	13.94	-43.0	-46.2	16.0	0.00e+00	0	39	0	1181745152	57	5247
2026-01-26 00:00:49.96	204.04	13.83	-43.0	-46.2	16.0	0.00e+00	0	39	0	1183842304	57	5248
2026-01-26 00:00:50.81	204.03	13.74	-43.1	-46.3	15.8	0.00e+00	0	39	0	1185939456	57	5327
2026-01-26 00:00:51.95	204.02	13.62	-43.0	-46.2	16.0	0.00e+00	0	39	0	1188036608	57	5219
2026-01-26 00:00:52.80	204.01	13.54	-43.0	-46.2	16.0	0.00e+00	0	39	0	1189085184	57	5228
2026-01-26 00:00:53.94	204.00	13.42	-43.1	-46.3	15.8	0.00e+00	0	39	0	1191182336	57	5327
2026-01-26 00:00:54.79	203.99	13.34	-43.1	-46.2	16.0	0.00e+00	0	39	0	1193279488	57	5265
2026-01-26 00:00:55.92	203.98	13.23	-43.0	-46.1	16.0	0.00e+00	0	39	0	1195376640	57	5212
2026-01-26 00:00:56.78	203.97	13.14	-43.0	-46.1	16.1	0.00e+00	0	39	0	1196425216	57	5196
2026-01-26 00:00:57.91	203.96	13.03	-43.0	-46.2	15.9	0.00e+00	0	39	0	1198522368	57	5266
2026-01-26 00:00:58.77	203.95	12.94	-43.0	-46.1	16.0	0.00e+00	0	39	0	1200619520	57	5205
2026-01-26 00:00:59.99	203.94	12.82	-42.9	-46.1	16.1	0.00e+00	0	39	0	1202716672	57	5170
2026-01-26 00:01:00.84	203.93	12.74	-42.9	-46.0	16.1	0.00e+00	0	39	0	1203765248	57	5151
2026-01-26 00:01:01.98	203.92	12.63	-42.9	-46.1	16.1	0.00e+00	0	39	0	1205862400	57	5179
2026-01-26 00:01:02.83	203.91	12.55	-42.8	-46.0	16.2	0.00e+00	0	39	0	1207959552	57	5117
2026-01-26 00:01:04.13	203.90	12.42	-42.8	-46.0	16.2	0.00e+00	0	39	0	1210056704	57	5105
2026-01-26 00:01:04.84	203.89	12.35	-42.8	-46.0	16.1	0.00e+00	0	39	0	1212153856	57	5141
2026-01-26 00:01:06.12	203.88	12.23	-42.8	-46.0	16.1	0.00e+00	0	39	0	1214251008	57	5147
2026-01-26 00:01:06.84	203.87	12.16	-42.8	-46.0	16.1	0.00e+00	0	39	0	1215299584	57	5156
2026-01-26 00:01:08.12	203.86	12.04	-42.7	-46.0	16.2	0.00e+00	0	39	0	1217396736	57	5105
2026-01-26 00:01:08.85	203.86	11.97	-42.8	-46.0	16.2	0.00e+00	0	39	0	1219493888	57	5113
2026-01-26 00:01:10.13	203.84	11.85	-42.8	-46.1	16.0	0.00e+00	0	39	0	1221591040	57	5171
2026-01-26 00:01:10.84	203.84	11.78	-42.8	-46.0	16.1	0.00e+00	0	39	0	1222639616	57	5102
2026-01-26 00:01:12.12	203.83	11.66	-42.8	-46.0	16.1	0.00e+00	0	39	0	1225785344	57	5158
