passes_logs/2026/01/25/T1/T1__20260125_222807_KHAYYAM_rec.log

#Pass ID: 20260125_222807_KHAYYAM
#Satellite: KHAYYAM
#Configuration: KHAYYAM_480M
#almurnet v.1.7.20251203
#Start time: 2026-01-25 22:28:08

#Version: 2.0.20230620
#Station: T1
#Location: 37.570604 lon 55.790049 lat
#TLE: 1 53370U 22096A   26025.52331655  .00008952  00000+0  36409-3 0  9990
#TLE: 2 53370  97.3548 292.3446 0002015 107.7466 252.3991 15.24754173192849

#Time	Az	El	Level	Level2	SNR	BER	BlckErr	Temp	State	Recorded	gain1	gain2
2026-01-25 22:28:08.60	358.31	5.04	-50.9	-55.9	3.6	0.00e+00	0	42	0	0	72	26994
2026-01-25 22:28:09.58	358.20	5.11	-42.8	-49.7	4.2	0.00e+00	0	43	104	0	57	31348
2026-01-25 22:28:10.58	358.09	5.18	-42.8	-49.8	4.2	0.00e+00	0	43	104	0	57	31638
2026-01-25 22:28:11.57	357.98	5.25	-42.8	-49.6	4.2	0.00e+00	0	43	104	0	57	31145
2026-01-25 22:28:12.57	357.87	5.32	-42.8	-49.7	4.2	0.00e+00	0	43	104	0	57	31243
2026-01-25 22:28:13.56	357.76	5.39	-42.8	-49.8	4.2	0.00e+00	0	43	104	0	57	31731
2026-01-25 22:28:14.55	357.65	5.46	-42.9	-49.7	4.2	0.00e+00	0	43	104	0	57	31572
2026-01-25 22:28:15.55	357.54	5.53	-42.9	-49.8	4.2	0.00e+00	0	43	104	0	57	31718
2026-01-25 22:28:16.54	357.43	5.60	-42.9	-49.8	4.2	0.00e+00	0	43	104	0	57	31676
2026-01-25 22:28:17.53	357.31	5.67	-42.9	-49.9	4.2	0.00e+00	0	43	104	0	57	32059
2026-01-25 22:28:18.53	357.20	5.74	-42.9	-49.9	4.2	0.00e+00	0	43	104	0	57	32058
2026-01-25 22:28:19.52	357.08	5.81	-42.9	-49.8	4.2	0.00e+00	0	43	104	0	57	31925
2026-01-25 22:28:20.51	356.97	5.88	-42.9	-49.8	4.2	0.00e+00	0	43	104	0	57	31776
2026-01-25 22:28:21.51	356.85	5.95	-42.9	-49.8	4.2	0.00e+00	0	44	104	0	57	31722
2026-01-25 22:28:22.50	356.74	6.03	-42.9	-49.8	4.2	0.00e+00	0	44	104	0	57	31632
2026-01-25 22:28:23.49	356.62	6.10	-42.9	-49.8	4.2	0.00e+00	0	44	104	0	57	31944
2026-01-25 22:28:24.49	356.50	6.17	-42.9	-49.8	4.2	0.00e+00	0	44	104	0	57	31632
2026-01-25 22:28:25.48	356.38	6.24	-42.9	-49.8	4.2	0.00e+00	0	44	104	0	57	31948
2026-01-25 22:28:26.47	356.26	6.31	-42.9	-49.8	4.2	0.00e+00	0	44	104	0	57	31779
2026-01-25 22:28:27.47	356.14	6.39	-42.9	-49.8	4.2	0.00e+00	0	44	104	0	57	31904
2026-01-25 22:28:28.46	356.02	6.46	-42.9	-49.9	4.2	0.00e+00	0	44	104	0	57	32032
2026-01-25 22:28:29.45	355.90	6.53	-42.9	-49.8	4.2	0.00e+00	0	44	104	0	57	31938
2026-01-25 22:28:30.45	355.77	6.60	-42.9	-49.8	4.2	0.00e+00	0	44	104	0	57	31768
2026-01-25 22:28:31.44	355.65	6.68	-43.0	-49.8	4.2	0.00e+00	0	44	104	0	57	31714
2026-01-25 22:28:32.43	355.53	6.75	-42.9	-49.8	4.2	0.00e+00	0	44	104	0	57	31876
2026-01-25 22:28:33.43	355.40	6.82	-43.0	-49.8	4.2	0.00e+00	0	45	104	0	57	31937
2026-01-25 22:28:34.42	355.27	6.90	-43.0	-49.9	4.2	0.00e+00	0	45	104	0	57	32165
2026-01-25 22:28:35.41	355.15	6.97	-43.0	-49.8	4.2	0.00e+00	0	45	104	0	57	31843
2026-01-25 22:28:36.41	355.02	7.04	-43.0	-49.9	4.2	0.00e+00	0	45	104	0	57	32109
2026-01-25 22:28:37.40	354.89	7.12	-43.0	-49.9	4.2	0.00e+00	0	44	104	0	57	32048
2026-01-25 22:28:38.39	354.76	7.19	-43.0	-49.9	4.2	0.00e+00	0	45	104	0	57	32057
2026-01-25 22:28:39.39	354.63	7.27	-43.0	-49.9	4.2	0.00e+00	0	45	104	0	57	32037
2026-01-25 22:28:40.38	354.50	7.34	-43.0	-49.9	4.2	0.00e+00	0	45	104	0	57	32082
2026-01-25 22:28:41.37	354.36	7.42	-43.0	-49.8	4.2	0.00e+00	0	45	104	0	57	31848
2026-01-25 22:28:42.37	354.23	7.49	-43.0	-49.9	4.2	0.00e+00	0	45	104	0	57	32131
2026-01-25 22:28:43.36	354.10	7.57	-43.0	-49.9	4.2	0.00e+00	0	45	104	0	57	32037
2026-01-25 22:28:44.35	353.96	7.64	-43.0	-49.8	4.2	0.00e+00	0	45	104	0	57	31890
2026-01-25 22:28:45.35	353.83	7.72	-43.0	-49.9	4.2	0.00e+00	0	45	104	0	57	32126
2026-01-25 22:28:46.34	353.69	7.79	-43.0	-49.8	4.2	0.00e+00	0	45	104	0	57	31916
2026-01-25 22:28:47.33	353.55	7.87	-43.0	-49.8	4.2	0.00e+00	0	45	104	0	57	31783
2026-01-25 22:28:48.33	353.41	7.95	-43.0	-49.9	4.2	0.00e+00	0	45	104	0	57	32181
2026-01-25 22:28:49.32	353.27	8.02	-43.0	-49.9	4.2	0.00e+00	0	46	104	0	57	32120
2026-01-25 22:28:50.31	353.13	8.10	-43.0	-49.9	4.2	0.00e+00	0	46	104	0	57	32237
2026-01-25 22:28:51.31	352.99	8.17	-43.0	-49.8	4.2	0.00e+00	0	45	104	0	57	31951
2026-01-25 22:28:52.30	352.85	8.25	-43.0	-49.9	4.2	0.00e+00	0	46	104	0	57	32070
2026-01-25 22:28:53.29	352.70	8.33	-43.0	-49.9	4.2	0.00e+00	0	46	104	0	57	31999
2026-01-25 22:28:54.29	352.56	8.40	-43.0	-49.8	4.2	0.00e+00	0	46	104	0	57	31819
2026-01-25 22:28:55.28	352.41	8.48	-43.0	-49.9	4.2	0.00e+00	0	46	104	0	57	32262
2026-01-25 22:28:56.27	352.27	8.56	-43.0	-49.8	4.2	0.00e+00	0	46	104	0	57	31885
2026-01-25 22:28:57.26	352.12	8.64	-43.0	-49.9	4.2	0.00e+00	0	46	104	0	57	32130
2026-01-25 22:28:58.26	351.97	8.71	-43.0	-49.9	4.2	0.00e+00	0	46	104	0	57	32182
2026-01-25 22:28:59.25	351.82	8.79	-43.0	-50.0	4.2	0.00e+00	0	46	104	0	57	32416
2026-01-25 22:29:00.25	351.67	8.87	-43.0	-49.8	4.2	0.00e+00	0	46	104	0	57	31932
2026-01-25 22:29:01.24	351.52	8.95	-43.0	-49.9	4.2	0.00e+00	0	46	104	0	57	32196
2026-01-25 22:29:02.23	351.37	9.03	-43.0	-49.8	4.2	0.00e+00	0	46	104	0	57	31760
2026-01-25 22:29:03.23	351.21	9.11	-43.5	-50.4	4.1	0.00e+00	0	46	104	0	57	34047
2026-01-25 22:29:04.25	351.05	9.19	-45.9	-52.4	3.8	0.00e+00	0	46	104	0	63	30280
2026-01-25 22:29:05.25	350.90	9.27	-43.8	-50.6	4.1	0.00e+00	0	46	104	0	58	33066
2026-01-25 22:29:06.25	350.74	9.35	-46.9	-53.2	3.7	0.00e+00	0	46	104	0	64	31552
2026-01-25 22:29:07.43	350.55	9.44	-44.3	-51.1	4.0	0.00e+00	0	46	104	0	59	32913
2026-01-25 22:29:08.31	350.41	9.51	-45.2	-52.0	3.9	0.00e+00	0	46	104	0	62	30707
2026-01-25 22:29:09.45	350.23	9.60	-43.9	-50.8	4.1	0.00e+00	0	46	104	0	59	31899
2026-01-25 22:29:10.30	350.09	9.67	-43.1	-50.0	4.2	0.00e+00	0	46	104	0	58	30706
2026-01-25 22:29:11.44	349.90	9.76	-43.3	-50.2	4.2	0.00e+00	0	47	104	0	57	33271
2026-01-25 22:29:12.29	349.76	9.83	-44.5	-51.0	3.9	0.00e+00	0	46	104	0	60	30698
2026-01-25 22:29:13.43	349.57	9.92	-43.0	-49.9	4.2	0.00e+00	0	46	104	0	58	30356
2026-01-25 22:29:14.28	349.43	9.99	-44.0	-50.6	3.9	0.00e+00	0	47	104	0	59	30954
2026-01-25 22:29:15.42	349.24	10.08	-43.5	-50.1	4.0	0.00e+00	0	46	104	0	58	31193
2026-01-25 22:29:16.27	349.09	10.15	-42.9	-49.7	4.2	0.00e+00	0	46	104	0	57	31367
2026-01-25 22:29:17.41	348.90	10.25	-43.1	-49.9	4.0	0.00e+00	0	46	104	0	57	32312
2026-01-25 22:29:18.26	348.75	10.31	-43.5	-50.1	4.0	0.00e+00	0	47	104	0	57	32935
2026-01-25 22:29:19.53	348.53	10.42	-43.9	-50.5	4.0	0.00e+00	0	46	104	0	58	32514
2026-01-25 22:29:20.24	348.41	10.48	-44.1	-50.7	4.0	0.00e+00	0	46	104	0	58	33308
2026-01-25 22:29:21.52	348.18	10.58	-44.2	-50.8	4.0	0.00e+00	0	47	104	0	59	31916
2026-01-25 22:29:22.24	348.06	10.64	-44.2	-50.9	4.0	0.00e+00	0	46	104	0	59	32110
2026-01-25 22:29:23.52	347.83	10.75	-45.7	-52.4	3.8	0.00e+00	0	47	104	0	62	32238
2026-01-25 22:29:24.25	347.70	10.81	-45.8	-52.5	3.8	0.00e+00	0	47	104	0	62	32333
2026-01-25 22:29:25.53	347.47	10.91	-44.2	-51.0	4.1	0.00e+00	0	47	104	0	59	32644
2026-01-25 22:29:26.24	347.34	10.97	-44.6	-51.4	4.0	0.00e+00	0	47	104	0	59	34087
2026-01-25 22:29:27.52	347.10	11.08	-45.4	-52.1	3.9	0.00e+00	0	47	104	0	61	32848
2026-01-25 22:29:28.24	346.97	11.14	-45.9	-52.6	3.8	0.00e+00	0	47	104	0	62	32753
2026-01-25 22:29:29.52	346.73	11.24	-46.3	-53.0	3.8	0.00e+00	0	47	104	0	63	32496
2026-01-25 22:29:30.26	346.59	11.30	-46.1	-52.7	3.8	0.00e+00	0	47	104	0	63	31454
2026-01-25 22:29:31.55	346.35	11.41	-48.6	-54.4	3.7	0.00e+00	0	47	104	0	67	30266
2026-01-25 22:29:32.26	346.22	11.47	-48.8	-54.8	3.7	0.00e+00	0	47	104	0	68	30165
2026-01-25 22:29:33.66	345.95	11.59	-47.7	-53.7	3.7	0.00e+00	0	47	104	0	67	28054
2026-01-25 22:29:34.64	345.76	11.67	-47.7	-53.7	3.7	0.00e+00	0	47	104	0	66	29617
2026-01-25 22:29:35.64	345.56	11.75	-48.3	-54.1	3.7	0.00e+00	0	47	104	0	67	29331
2026-01-25 22:29:36.63	345.37	11.84	-48.5	-54.3	3.7	0.00e+00	0	47	104	0	67	30102
2026-01-25 22:29:37.62	345.17	11.92	-48.3	-54.2	3.7	0.00e+00	0	47	104	0	67	29773
2026-01-25 22:29:38.62	344.98	12.00	-48.1	-54.3	3.7	0.00e+00	0	47	104	0	67	30106
2026-01-25 22:29:39.62	344.78	12.09	-47.9	-54.2	3.7	0.00e+00	0	47	104	0	67	29637
2026-01-25 22:29:40.61	344.58	12.17	-48.4	-54.6	3.7	0.00e+00	0	47	104	0	67	31020
2026-01-25 22:29:41.61	344.37	12.26	-48.8	-55.0	3.7	0.00e+00	0	47	104	0	68	30707
2026-01-25 22:29:42.60	344.17	12.34	-48.5	-54.8	3.7	0.00e+00	0	47	104	0	68	29915
2026-01-25 22:29:43.60	343.97	12.43	-48.9	-55.1	3.7	0.00e+00	0	47	104	0	68	30980
2026-01-25 22:29:44.59	343.76	12.51	-48.0	-54.4	3.7	0.00e+00	0	47	104	0	68	28702
2026-01-25 22:29:45.59	343.55	12.59	-47.4	-53.7	3.7	0.00e+00	0	47	104	0	66	29800
2026-01-25 22:29:46.58	343.34	12.68	-47.4	-53.7	3.7	0.00e+00	0	47	104	0	66	29659
2026-01-25 22:29:47.58	343.13	12.76	-47.9	-54.1	3.7	0.00e+00	0	47	104	0	66	31020
2026-01-25 22:29:48.58	342.92	12.85	-48.5	-54.6	3.7	0.00e+00	0	47	104	0	67	31083
2026-01-25 22:29:49.57	342.71	12.93	-48.5	-54.7	3.7	0.00e+00	0	47	104	0	68	29592
2026-01-25 22:29:50.57	342.49	13.02	-48.7	-54.7	3.7	0.00e+00	0	47	104	0	68	29704
2026-01-25 22:29:51.56	342.28	13.10	-48.7	-54.7	3.7	0.00e+00	0	47	104	0	68	29668
2026-01-25 22:29:52.56	342.06	13.19	-48.5	-54.6	3.7	0.00e+00	0	47	104	0	68	29208
2026-01-25 22:29:53.55	341.84	13.27	-47.2	-53.5	3.7	0.00e+00	0	47	104	0	66	29070
2026-01-25 22:29:54.55	341.62	13.36	-47.0	-53.3	3.7	0.00e+00	0	47	104	0	66	28183
2026-01-25 22:29:55.54	341.39	13.44	-47.5	-53.6	3.7	0.00e+00	0	47	104	0	66	29182
2026-01-25 22:29:56.54	341.17	13.53	-49.0	-54.6	3.7	0.00e+00	0	47	104	0	68	29397
2026-01-25 22:29:57.53	340.94	13.61	-49.5	-54.9	3.7	0.00e+00	0	47	104	0	69	28741
2026-01-25 22:29:58.53	340.71	13.70	-49.4	-55.0	3.7	0.00e+00	0	47	104	0	70	27495
2026-01-25 22:29:59.52	340.49	13.78	-47.4	-53.6	3.7	0.00e+00	0	47	104	0	66	29207
2026-01-25 22:30:00.52	340.25	13.87	-47.4	-53.6	3.7	0.00e+00	0	47	104	0	66	29286
2026-01-25 22:30:01.51	340.02	13.95	-47.4	-53.6	3.7	0.00e+00	0	47	104	0	66	29234
2026-01-25 22:30:02.51	339.79	14.04	-47.5	-53.7	3.7	0.00e+00	0	47	104	0	66	29516
2026-01-25 22:30:03.50	339.55	14.12	-48.2	-54.1	3.7	0.00e+00	0	47	104	0	67	29308
2026-01-25 22:30:04.50	339.32	14.21	-49.1	-54.7	3.7	0.00e+00	0	47	104	0	68	29689
2026-01-25 22:30:05.49	339.08	14.29	-49.3	-54.9	3.7	0.00e+00	0	47	104	0	69	28546
2026-01-25 22:30:06.49	338.84	14.38	-49.2	-54.6	3.7	0.00e+00	0	47	104	0	69	27674
2026-01-25 22:30:07.49	338.59	14.46	-48.4	-54.1	3.7	0.00e+00	0	47	104	0	69	26256
2026-01-25 22:30:08.48	338.35	14.55	-49.4	-54.7	3.7	0.00e+00	0	47	104	0	69	27893
2026-01-25 22:30:09.48	338.10	14.63	-49.9	-55.1	3.7	0.00e+00	0	47	104	0	71	26018
2026-01-25 22:30:10.48	337.85	14.72	-50.2	-55.4	3.7	0.00e+00	0	47	104	0	71	27092
2026-01-25 22:30:11.47	337.61	14.80	-51.2	-55.9	3.7	0.00e+00	0	47	104	0	73	25564
2026-01-25 22:30:12.46	337.36	14.88	-51.1	-55.9	3.7	0.00e+00	0	47	104	0	73	25428
2026-01-25 22:30:13.46	337.10	14.97	-50.5	-55.6	3.7	0.00e+00	0	47	104	0	73	24699
2026-01-25 22:30:14.46	336.85	15.05	-49.8	-55.2	3.7	0.00e+00	0	47	104	0	71	26394
2026-01-25 22:30:15.45	336.59	15.14	-49.6	-55.0	3.7	0.00e+00	0	47	104	0	71	25938
2026-01-25 22:30:16.45	336.33	15.22	-49.3	-54.8	3.7	0.00e+00	0	47	104	0	70	26652
2026-01-25 22:30:17.44	336.07	15.30	-49.7	-55.0	3.7	0.00e+00	0	47	104	0	70	27232
2026-01-25 22:30:18.43	335.81	15.39	-49.7	-54.9	3.7	0.00e+00	0	48	104	0	70	27186
2026-01-25 22:30:19.43	335.55	15.47	-50.0	-55.3	3.7	0.00e+00	0	47	104	0	70	28275
2026-01-25 22:30:20.42	335.29	15.55	-50.0	-55.4	3.7	0.00e+00	0	47	104	0	71	26901
2026-01-25 22:30:21.42	335.02	15.64	-49.9	-55.3	3.7	0.00e+00	0	48	104	0	71	26589
2026-01-25 22:30:22.43	334.75	15.72	-49.4	-54.9	3.7	0.00e+00	0	48	104	0	70	27027
2026-01-25 22:30:23.46	334.47	15.81	-49.2	-54.9	3.7	0.00e+00	0	48	104	0	70	26898
2026-01-25 22:30:24.48	334.19	15.89	-48.9	-54.5	3.7	0.00e+00	0	48	104	0	69	27477
2026-01-25 22:30:25.48	333.91	15.98	-48.9	-54.4	3.7	0.00e+00	0	48	104	0	69	27117
2026-01-25 22:30:26.47	333.64	16.06	-49.3	-54.8	3.7	0.00e+00	0	48	104	0	69	28433
2026-01-25 22:30:27.47	333.36	16.14	-50.0	-55.4	3.7	0.00e+00	0	48	104	0	70	28512
2026-01-25 22:30:28.46	333.08	16.22	-50.1	-55.4	3.7	0.00e+00	0	48	104	0	71	27072
2026-01-25 22:30:29.46	332.80	16.30	-50.0	-55.3	3.7	0.00e+00	0	48	104	0	71	26748
2026-01-25 22:30:30.45	332.52	16.39	-49.7	-55.2	3.7	0.00e+00	0	48	104	0	71	26357
2026-01-25 22:30:31.45	332.23	16.47	-50.1	-55.3	3.7	0.00e+00	0	47	104	0	71	26873
2026-01-25 22:30:32.44	331.94	16.55	-50.4	-55.5	3.7	0.00e+00	0	48	104	0	72	25753
2026-01-25 22:30:33.43	331.66	16.63	-50.3	-55.5	3.7	0.00e+00	0	47	104	0	71	27265
2026-01-25 22:30:34.43	331.36	16.71	-51.1	-55.9	3.7	0.00e+00	0	48	104	0	72	27199
2026-01-25 22:30:35.42	331.07	16.79	-51.2	-56.1	3.7	0.00e+00	0	48	104	0	73	26064
2026-01-25 22:30:36.41	330.78	16.87	-51.4	-56.2	3.7	0.00e+00	0	48	104	0	73	26505
2026-01-25 22:30:37.41	330.48	16.95	-51.3	-56.2	3.7	0.00e+00	0	48	104	0	73	26443
2026-01-25 22:30:38.40	330.19	17.02	-51.5	-56.2	3.7	0.00e+00	0	48	104	0	73	26303
2026-01-25 22:30:39.40	329.89	17.10	-51.3	-56.0	3.7	0.00e+00	0	48	104	0	73	25798
2026-01-25 22:30:40.46	329.56	17.19	-49.6	-55.0	3.7	0.00e+00	0	48	104	0	69	28949
2026-01-25 22:30:41.34	329.30	17.26	-50.0	-55.2	3.7	0.00e+00	0	48	104	0	72	24891
2026-01-25 22:30:42.48	328.95	17.34	-48.2	-54.2	3.7	0.00e+00	0	48	104	0	68	28059
2026-01-25 22:30:43.41	328.66	17.42	-48.6	-54.5	3.7	0.00e+00	0	48	104	0	68	28850
2026-01-25 22:30:44.41	328.35	17.49	-48.9	-54.6	3.7	0.00e+00	0	48	104	0	68	29406
2026-01-25 22:30:45.41	328.03	17.57	-49.3	-54.8	3.7	0.00e+00	0	48	104	0	69	28309
2026-01-25 22:30:46.40	327.72	17.64	-49.4	-54.8	3.7	0.00e+00	0	48	104	0	69	28306
2026-01-25 22:30:47.40	327.41	17.72	-48.6	-54.3	3.7	0.00e+00	0	48	104	0	69	26800
2026-01-25 22:30:48.39	327.09	17.79	-48.1	-54.0	3.7	0.00e+00	0	48	104	0	68	27422
2026-01-25 22:30:49.39	326.77	17.87	-48.3	-54.1	3.7	0.00e+00	0	48	104	0	68	27642
2026-01-25 22:30:50.38	326.45	17.94	-50.2	-55.3	3.7	0.00e+00	0	48	104	0	71	26614
2026-01-25 22:30:51.38	326.13	18.01	-50.7	-55.6	3.7	0.00e+00	0	48	104	0	72	26137
2026-01-25 22:30:52.37	325.81	18.09	-49.9	-55.2	3.7	0.00e+00	0	48	104	0	71	26522
2026-01-25 22:30:53.37	325.48	18.16	-50.9	-55.8	3.7	0.00e+00	0	48	104	0	72	26659
2026-01-25 22:30:54.36	325.15	18.23	-51.4	-55.9	3.7	0.00e+00	0	48	104	0	73	25545
2026-01-25 22:30:55.36	324.82	18.30	-51.3	-55.9	3.7	0.00e+00	0	48	104	0	73	25430
2026-01-25 22:30:56.35	324.49	18.37	-51.1	-55.8	3.7	0.00e+00	0	48	104	0	73	25285
2026-01-25 22:30:57.34	324.16	18.44	-50.5	-55.5	3.7	0.00e+00	0	48	104	0	73	24509
2026-01-25 22:30:58.34	323.83	18.51	-49.5	-55.0	3.7	0.00e+00	0	48	104	0	71	25970
2026-01-25 22:30:59.33	323.49	18.58	-49.8	-55.2	3.7	0.00e+00	0	48	104	0	70	28063
2026-01-25 22:31:00.33	323.15	18.65	-50.1	-55.4	3.7	0.00e+00	0	48	104	0	71	27098
2026-01-25 22:31:01.32	322.81	18.71	-50.0	-55.3	3.7	0.00e+00	0	48	104	0	71	26795
2026-01-25 22:31:02.32	322.47	18.78	-50.6	-55.6	3.7	0.00e+00	0	48	104	0	72	26244
2026-01-25 22:31:03.31	322.13	18.84	-50.5	-55.6	3.7	0.00e+00	0	48	104	0	72	26122
2026-01-25 22:31:04.31	321.78	18.91	-50.3	-55.3	3.7	0.00e+00	0	48	104	0	72	25310
2026-01-25 22:31:05.30	321.43	18.97	-50.3	-55.5	3.7	0.00e+00	0	48	104	0	72	25782
2026-01-25 22:31:06.30	321.08	19.04	-50.1	-55.4	3.7	0.00e+00	0	48	104	0	72	25491
2026-01-25 22:31:07.29	320.73	19.10	-50.0	-55.3	3.7	0.00e+00	0	48	104	0	71	26843
2026-01-25 22:31:08.29	320.38	19.16	-50.2	-55.5	3.7	0.00e+00	0	48	104	0	71	27494
2026-01-25 22:31:09.28	320.03	19.22	-49.9	-55.3	3.7	0.00e+00	0	48	104	0	71	26702
2026-01-25 22:31:10.28	319.67	19.28	-48.2	-54.1	3.7	0.00e+00	0	48	104	0	68	27748
2026-01-25 22:31:11.27	319.32	19.34	-48.6	-54.4	3.7	0.00e+00	0	48	104	0	68	28718
2026-01-25 22:31:12.33	318.93	19.40	-49.2	-54.8	3.7	0.00e+00	0	48	104	0	69	28325
2026-01-25 22:31:13.22	318.61	19.45	-49.5	-55.1	3.7	0.00e+00	0	48	104	0	69	29249
2026-01-25 22:31:14.35	318.20	19.52	-50.7	-55.6	3.7	0.00e+00	0	48	104	0	72	26002
2026-01-25 22:31:15.20	317.89	19.57	-50.3	-55.4	3.7	0.00e+00	0	48	104	0	72	25393
2026-01-25 22:31:16.34	317.47	19.63	-50.3	-55.2	3.7	0.00e+00	0	48	104	0	72	25042
2026-01-25 22:31:17.20	317.15	19.68	-50.5	-55.3	3.7	0.00e+00	0	48	104	0	72	25178
2026-01-25 22:31:18.65	316.62	19.75	-50.7	-55.4	3.7	0.00e+00	0	48	104	0	72	25465
2026-01-25 22:31:19.36	316.35	19.79	-50.6	-55.4	3.7	0.00e+00	0	48	104	0	72	25421
2026-01-25 22:31:20.84	315.80	19.87	-50.1	-55.4	3.7	0.00e+00	0	48	104	0	72	25502
2026-01-25 22:31:21.55	315.54	19.90	-50.2	-55.4	3.7	0.00e+00	0	48	104	0	72	25608
2026-01-25 22:31:22.83	315.05	19.96	-50.0	-55.3	3.7	0.00e+00	0	48	104	0	72	25104
2026-01-25 22:31:23.56	314.78	20.00	-50.1	-55.3	3.7	0.00e+00	0	48	104	0	72	25172
2026-01-25 22:31:24.84	314.29	20.06	-51.2	-55.9	3.7	0.00e+00	0	48	104	0	73	25665
2026-01-25 22:31:25.56	314.02	20.09	-51.0	-55.9	3.7	0.00e+00	0	48	104	0	73	25402
2026-01-25 22:31:26.84	313.53	20.15	-51.2	-55.9	3.7	0.00e+00	0	48	104	0	73	25613
2026-01-25 22:31:27.58	313.25	20.18	-51.2	-55.9	3.7	0.00e+00	0	48	104	0	73	25430
2026-01-25 22:31:28.86	312.75	20.23	-51.1	-55.8	3.7	0.00e+00	0	48	104	0	73	25266
2026-01-25 22:31:29.58	312.48	20.26	-50.9	-55.7	3.7	0.00e+00	0	48	104	0	73	24990
2026-01-25 22:31:30.86	311.98	20.32	-50.6	-55.3	3.7	0.00e+00	0	48	104	0	73	23925
2026-01-25 22:31:31.67	311.67	20.35	-50.3	-55.0	3.7	0.00e+00	0	48	104	0	72	24295
2026-01-25 22:31:33.12	311.10	20.40	-50.4	-55.0	3.7	0.00e+00	0	48	104	0	72	24423
2026-01-25 22:31:33.83	310.83	20.43	-50.7	-55.3	3.7	0.00e+00	0	48	104	0	72	25273
2026-01-25 22:31:35.11	310.32	20.47	-50.8	-55.5	3.7	0.00e+00	0	48	104	0	72	25892
2026-01-25 22:31:35.82	310.05	20.50	-51.3	-55.6	3.7	0.00e+00	0	48	104	0	73	24688
2026-01-25 22:31:37.10	309.54	20.54	-51.2	-55.5	3.7	0.00e+00	0	48	104	0	73	24398
2026-01-25 22:31:37.90	309.23	20.57	-51.4	-55.7	3.7	0.00e+00	0	48	104	0	73	25001
2026-01-25 22:31:39.04	308.77	20.60	-51.6	-56.2	3.7	0.00e+00	0	48	104	0	73	26459
2026-01-25 22:31:39.89	308.44	20.62	-51.3	-55.8	3.7	0.00e+00	0	48	104	0	73	25308
2026-01-25 22:31:41.03	307.99	20.66	-51.4	-56.0	3.7	0.00e+00	0	48	104	0	73	25764
2026-01-25 22:31:41.88	307.65	20.68	-51.3	-55.7	3.7	0.00e+00	0	48	104	0	73	25038
2026-01-25 22:31:43.02	307.19	20.71	-51.3	-55.8	3.7	0.00e+00	0	48	104	0	73	25157
2026-01-25 22:31:43.87	306.85	20.73	-51.0	-55.1	3.7	0.00e+00	0	48	104	0	73	23401
2026-01-25 22:31:45.01	306.40	20.76	-51.1	-55.2	3.7	0.00e+00	0	48	104	0	73	23631
2026-01-25 22:31:45.86	306.05	20.77	-50.7	-54.8	3.7	0.00e+00	0	48	104	0	73	22515
2026-01-25 22:31:47.00	305.60	20.80	-51.2	-55.6	3.7	0.00e+00	0	48	104	0	73	24659
2026-01-25 22:31:47.85	305.26	20.81	-51.4	-55.8	3.7	0.00e+00	0	48	104	0	73	25123
2026-01-25 22:31:49.10	304.75	20.84	-51.4	-55.8	3.7	0.00e+00	0	48	104	0	73	25150
2026-01-25 22:31:49.95	304.41	20.85	-51.2	-55.4	3.7	0.00e+00	0	48	104	0	73	24100
2026-01-25 22:31:51.09	303.95	20.87	-51.2	-55.2	3.7	0.00e+00	0	48	104	0	73	23426
2026-01-25 22:31:51.94	303.60	20.88	-51.3	-55.3	3.7	0.00e+00	0	48	104	0	73	23875
2026-01-25 22:31:53.08	303.14	20.89	-51.4	-55.5	3.7	0.00e+00	0	48	104	0	73	24344
2026-01-25 22:31:54.00	302.77	20.90	-51.5	-55.6	3.7	0.00e+00	0	48	104	0	73	24668
2026-01-25 22:31:55.00	302.36	20.91	-51.8	-56.0	3.7	0.00e+00	0	48	104	0	74	24513
2026-01-25 22:31:55.99	301.96	20.92	-51.7	-55.8	3.7	0.00e+00	0	48	104	0	74	23920
2026-01-25 22:31:56.98	301.56	20.93	-51.7	-56.3	3.7	0.00e+00	0	48	104	0	74	25111
2026-01-25 22:31:57.98	301.15	20.93	-51.4	-55.8	3.7	0.00e+00	0	48	104	0	74	23746
2026-01-25 22:31:58.97	300.75	20.94	-51.4	-55.9	3.7	0.00e+00	0	48	104	0	74	24240
2026-01-25 22:31:59.97	300.35	20.94	-51.4	-56.0	3.7	0.00e+00	0	48	104	0	74	24289
2026-01-25 22:32:00.96	299.94	20.94	-51.5	-56.0	3.7	0.00e+00	0	48	104	0	74	24394
2026-01-25 22:32:01.95	299.54	20.94	-51.4	-55.8	3.7	0.00e+00	0	48	104	0	74	23788
2026-01-25 22:32:02.98	299.12	20.94	-51.5	-56.0	3.7	0.00e+00	0	48	104	0	74	24372
2026-01-25 22:32:03.98	298.72	20.94	-51.5	-55.9	3.7	0.00e+00	0	48	104	0	74	24180
2026-01-25 22:32:04.97	298.31	20.94	-51.4	-55.9	3.7	0.00e+00	0	48	104	0	74	24141
2026-01-25 22:32:05.96	297.91	20.93	-51.6	-56.0	3.7	0.00e+00	0	48	104	0	74	24271
2026-01-25 22:32:06.96	297.50	20.92	-51.7	-56.2	3.7	0.00e+00	0	48	104	0	74	24972
2026-01-25 22:32:07.95	297.10	20.92	-51.6	-56.1	3.7	0.00e+00	0	48	104	0	74	24756
2026-01-25 22:32:08.95	296.70	20.91	-51.9	-56.4	3.7	0.00e+00	0	48	104	0	74	25565
2026-01-25 22:32:09.94	296.29	20.90	-51.8	-56.2	3.7	0.00e+00	0	48	104	0	74	25067
2026-01-25 22:32:10.93	295.89	20.88	-51.9	-56.4	3.7	0.00e+00	0	48	104	0	74	25464
2026-01-25 22:32:11.93	295.49	20.87	-51.9	-56.3	3.7	0.00e+00	0	48	104	0	74	25371
2026-01-25 22:32:12.92	295.09	20.86	-51.6	-56.0	3.7	0.00e+00	0	48	104	0	74	24364
2026-01-25 22:32:13.92	294.68	20.84	-51.6	-55.9	3.7	0.00e+00	0	48	104	0	74	24205
2026-01-25 22:32:14.93	294.28	20.82	-51.3	-55.1	3.7	0.00e+00	0	48	104	0	74	21915
2026-01-25 22:32:15.95	293.87	20.81	-51.3	-55.3	3.7	0.00e+00	0	48	104	0	74	22434
2026-01-25 22:32:16.98	293.45	20.79	-51.2	-55.0	3.7	0.00e+00	0	48	104	0	74	21645
2026-01-25 22:32:17.99	293.04	20.76	-51.3	-55.1	3.7	0.00e+00	0	48	104	0	74	21953
2026-01-25 22:32:18.98	292.65	20.74	-51.4	-55.2	3.7	0.00e+00	0	48	104	0	74	22162
2026-01-25 22:32:19.98	292.25	20.72	-51.3	-55.2	3.7	0.00e+00	0	48	104	0	74	22340
2026-01-25 22:32:20.97	291.85	20.69	-51.6	-56.0	3.7	0.00e+00	0	48	104	0	74	24452
2026-01-25 22:32:21.97	291.45	20.67	-51.6	-56.0	3.7	0.00e+00	0	48	104	0	74	24322
2026-01-25 22:32:22.96	291.06	20.64	-51.7	-56.0	3.7	0.00e+00	0	48	104	0	74	24298
2026-01-25 22:32:23.96	290.66	20.61	-51.4	-55.6	3.7	0.00e+00	0	48	104	0	74	23282
2026-01-25 22:32:24.95	290.27	20.58	-51.6	-56.1	3.7	0.00e+00	0	48	104	0	74	24545
2026-01-25 22:32:25.95	289.87	20.55	-51.8	-56.1	3.7	0.00e+00	0	48	104	0	74	24553
2026-01-25 22:32:26.94	289.48	20.52	-51.7	-55.9	3.7	0.00e+00	0	48	104	0	74	24230
2026-01-25 22:32:27.94	289.09	20.48	-51.9	-56.2	3.7	0.00e+00	0	48	104	0	74	24840
2026-01-25 22:32:28.93	288.70	20.45	-51.9	-56.3	3.7	0.00e+00	0	48	104	0	74	25147
2026-01-25 22:32:29.93	288.31	20.41	-51.6	-56.0	3.7	0.00e+00	0	48	104	0	74	24467
2026-01-25 22:32:30.92	287.92	20.38	-51.7	-56.1	3.7	0.00e+00	0	48	104	0	74	24617
2026-01-25 22:32:31.91	287.53	20.34	-51.7	-56.1	3.7	0.00e+00	0	48	104	0	74	24710
2026-01-25 22:32:32.91	287.14	20.30	-51.7	-56.3	3.7	0.00e+00	0	48	104	0	74	25095
2026-01-25 22:32:33.91	286.76	20.26	-51.4	-56.0	3.7	0.00e+00	0	48	104	0	74	24494
2026-01-25 22:32:34.93	286.36	20.22	-51.5	-56.1	3.7	0.00e+00	0	48	104	0	74	24731
2026-01-25 22:32:35.96	285.97	20.17	-51.4	-56.0	3.7	0.00e+00	0	48	104	0	74	24402
2026-01-25 22:32:36.95	285.59	20.13	-51.5	-56.1	3.7	0.00e+00	0	48	104	0	74	24768
2026-01-25 22:32:37.95	285.20	20.08	-51.7	-56.2	3.7	0.00e+00	0	48	104	0	74	25073
2026-01-25 22:32:38.94	284.83	20.04	-51.6	-56.2	3.7	0.00e+00	0	48	104	0	74	24880
2026-01-25 22:32:39.94	284.45	19.99	-51.8	-56.3	3.7	0.00e+00	0	48	104	0	74	25297
2026-01-25 22:32:40.93	284.07	19.94	-51.7	-56.4	3.7	0.00e+00	0	48	104	0	74	25452
2026-01-25 22:32:41.93	283.69	19.89	-51.4	-56.3	3.7	0.00e+00	0	48	104	0	74	25213
2026-01-25 22:32:42.92	283.32	19.84	-51.4	-56.3	3.7	0.00e+00	0	48	104	0	74	25380
2026-01-25 22:32:43.92	282.95	19.79	-51.5	-56.3	3.7	0.00e+00	0	48	104	0	74	25095
2026-01-25 22:32:44.91	282.58	19.74	-51.6	-56.3	3.7	0.00e+00	0	48	104	0	74	25327
2026-01-25 22:32:45.91	282.21	19.69	-51.7	-56.4	3.7	0.00e+00	0	48	104	0	74	25543
2026-01-25 22:32:46.90	281.84	19.63	-51.8	-56.5	3.7	0.00e+00	0	48	104	0	74	25767
2026-01-25 22:32:47.90	281.47	19.58	-51.7	-56.3	3.7	0.00e+00	0	48	104	0	74	25328
2026-01-25 22:32:48.89	281.11	19.52	-51.4	-56.1	3.7	0.00e+00	0	48	104	0	74	24757
2026-01-25 22:32:49.89	280.74	19.47	-51.8	-56.5	3.7	0.00e+00	0	48	104	0	74	25733
2026-01-25 22:32:50.88	280.38	19.41	-51.7	-56.3	3.7	0.00e+00	0	48	104	0	74	25329
2026-01-25 22:32:51.88	280.02	19.35	-51.8	-56.4	3.7	0.00e+00	0	48	104	0	74	25608
2026-01-25 22:32:52.95	279.63	19.29	-51.8	-56.4	3.7	0.00e+00	0	48	104	0	74	25550
2026-01-25 22:32:53.83	279.32	19.23	-51.5	-56.2	3.7	0.00e+00	0	48	104	0	74	24891
2026-01-25 22:32:54.97	278.91	19.16	-51.7	-56.3	3.7	0.00e+00	0	48	104	0	74	25296
2026-01-25 22:32:55.83	278.60	19.11	-51.2	-56.0	3.7	0.00e+00	0	48	104	0	74	24337
2026-01-25 22:32:56.96	278.20	19.04	-51.2	-56.0	3.7	0.00e+00	0	48	104	0	74	24393
2026-01-25 22:32:57.81	277.91	18.98	-51.7	-56.3	3.7	0.00e+00	0	48	104	0	74	25261
2026-01-25 22:32:58.95	277.51	18.91	-51.5	-56.2	3.7	0.00e+00	0	48	104	0	74	24811
2026-01-25 22:32:59.81	277.21	18.85	-51.9	-56.5	3.7	0.00e+00	0	48	104	0	74	25710
2026-01-25 22:33:00.94	276.81	18.78	-51.9	-56.4	3.7	0.00e+00	0	48	104	0	74	25629
2026-01-25 22:33:01.80	276.52	18.72	-51.6	-56.2	3.7	0.00e+00	0	48	104	0	74	25019
2026-01-25 22:33:02.94	276.12	18.65	-51.8	-56.4	3.7	0.00e+00	0	48	104	0	74	25397
2026-01-25 22:33:03.79	275.83	18.59	-51.6	-56.2	3.7	0.00e+00	0	48	104	0	74	25025
2026-01-25 22:33:04.97	275.43	18.51	-51.5	-56.1	3.7	0.00e+00	0	48	104	0	74	24534
2026-01-25 22:33:05.83	275.14	18.45	-51.2	-55.7	3.7	0.00e+00	0	48	104	0	74	23424
2026-01-25 22:33:06.97	274.76	18.37	-51.4	-55.8	3.7	0.00e+00	0	48	104	0	74	23813
2026-01-25 22:33:07.82	274.47	18.31	-51.0	-55.7	3.7	0.00e+00	0	48	104	0	74	23585
2026-01-25 22:33:08.95	274.10	18.23	-51.1	-56.0	3.7	0.00e+00	0	48	104	0	73	25706
2026-01-25 22:33:09.81	273.81	18.16	-51.4	-56.2	3.7	0.00e+00	0	48	104	0	73	26403
2026-01-25 22:33:10.94	273.44	18.08	-51.1	-56.2	3.7	0.00e+00	0	48	104	0	73	26330
2026-01-25 22:33:11.80	273.16	18.02	-51.5	-56.1	3.7	0.00e+00	0	48	104	0	73	26072
2026-01-25 22:33:12.93	272.79	17.94	-51.6	-56.0	3.7	0.00e+00	0	48	104	0	74	24510
2026-01-25 22:33:13.79	272.51	17.87	-51.6	-56.0	3.7	0.00e+00	0	48	104	0	74	24466
2026-01-25 22:33:14.92	272.15	17.79	-51.6	-56.0	3.7	0.00e+00	0	48	104	0	74	24246
2026-01-25 22:33:15.77	271.88	17.72	-51.6	-56.1	3.7	0.00e+00	0	48	104	0	74	24530
2026-01-25 22:33:16.91	271.51	17.64	-51.5	-56.3	3.7	0.00e+00	0	48	104	0	74	25268
2026-01-25 22:33:17.76	271.24	17.57	-51.5	-56.1	3.7	0.00e+00	0	48	104	0	74	24670
2026-01-25 22:33:18.90	270.89	17.48	-51.5	-56.1	3.7	0.00e+00	0	48	104	0	74	24788
2026-01-25 22:33:19.75	270.62	17.42	-51.5	-56.1	3.7	0.00e+00	0	48	104	0	74	24544
2026-01-25 22:33:21.01	270.23	17.32	-51.5	-55.9	3.7	0.00e+00	0	48	104	0	74	24232
2026-01-25 22:33:21.79	269.99	17.26	-51.3	-56.0	3.7	0.00e+00	0	48	104	0	74	24493
2026-01-25 22:33:23.18	269.56	17.15	-51.4	-56.0	3.7	0.00e+00	0	48	104	0	74	24394
2026-01-25 22:33:23.89	269.34	17.10	-51.0	-56.1	3.7	0.00e+00	0	48	104	0	74	24535
2026-01-25 22:33:25.23	268.94	16.99	-51.1	-56.1	3.7	0.00e+00	0	48	104	0	74	24689
2026-01-25 22:33:25.94	268.73	16.93	-51.1	-56.1	3.7	0.00e+00	0	48	104	0	74	24753
2026-01-25 22:33:27.28	268.32	16.82	-51.1	-56.1	3.7	0.00e+00	0	48	104	0	74	24599
2026-01-25 22:33:27.99	268.11	16.77	-51.3	-56.1	3.7	0.00e+00	0	48	104	0	74	24772
2026-01-25 22:33:29.27	267.74	16.66	-51.1	-55.7	3.7	0.00e+00	0	48	104	0	74	23432
2026-01-25 22:33:29.98	267.53	16.61	-51.3	-55.8	3.7	0.00e+00	0	48	104	0	74	23953
2026-01-25 22:33:31.26	267.15	16.50	-51.3	-55.9	3.7	0.00e+00	0	48	104	0	74	23968
2026-01-25 22:33:31.97	266.95	16.44	-51.3	-56.0	3.7	0.00e+00	0	48	104	0	74	24385
2026-01-25 22:33:33.25	266.58	16.34	-51.2	-55.7	3.7	0.00e+00	0	48	104	0	74	23539
2026-01-25 22:33:33.99	266.37	16.28	-51.3	-56.2	3.6	0.00e+00	0	48	104	0	74	24855
2026-01-25 22:33:35.27	266.00	16.17	-51.1	-55.9	3.7	0.00e+00	0	48	104	0	74	24232
2026-01-25 22:33:35.98	265.80	16.11	-51.3	-56.4	3.7	0.00e+00	0	48	104	0	74	25527
2026-01-25 22:33:37.26	265.45	16.01	-51.5	-56.2	3.7	0.00e+00	0	48	104	0	74	24985
2026-01-25 22:33:37.98	265.25	15.95	-51.4	-56.2	3.7	0.00e+00	0	48	104	0	74	24980
2026-01-25 22:33:39.27	264.89	15.84	-51.4	-56.3	3.7	0.00e+00	0	49	104	0	74	25356
2026-01-25 22:33:40.01	264.68	15.78	-51.1	-55.9	3.7	0.00e+00	0	48	104	0	74	24174
2026-01-25 22:33:41.28	264.34	15.67	-50.9	-55.7	3.7	0.00e+00	0	48	104	0	73	24869
2026-01-25 22:33:41.99	264.15	15.61	-50.5	-55.4	3.7	0.00e+00	0	48	104	0	73	24035
2026-01-25 22:33:43.27	263.80	15.50	-50.6	-55.4	3.7	0.00e+00	0	48	104	0	73	24242
2026-01-25 22:33:44.01	263.60	15.44	-50.5	-55.0	3.7	0.00e+00	0	48	104	0	72	24427
2026-01-25 22:33:45.29	263.26	15.33	-51.0	-55.6	3.7	0.00e+00	0	48	104	0	72	26217
2026-01-25 22:33:46.03	263.07	15.27	-51.0	-55.3	3.7	0.00e+00	0	48	104	0	72	25260
2026-01-25 22:33:47.31	262.73	15.16	-51.0	-55.3	3.7	0.00e+00	0	48	104	0	72	25353
2026-01-25 22:33:48.02	262.55	15.10	-51.0	-55.5	3.7	0.00e+00	0	48	104	0	72	25938
2026-01-25 22:33:49.30	262.22	14.99	-51.2	-55.8	3.7	0.00e+00	0	48	104	0	73	25337
2026-01-25 22:33:50.01	262.03	14.93	-51.0	-55.9	3.7	0.00e+00	0	48	104	0	73	25503
2026-01-25 22:33:51.29	261.71	14.82	-51.2	-55.8	3.7	0.00e+00	0	48	104	0	73	25340
2026-01-25 22:33:52.02	261.52	14.76	-50.8	-55.9	3.7	0.00e+00	0	48	104	0	73	25428
2026-01-25 22:33:53.30	261.20	14.65	-50.7	-55.5	3.7	0.00e+00	0	48	104	0	73	24340
2026-01-25 22:33:54.01	261.02	14.59	-50.8	-55.6	3.7	0.00e+00	0	48	104	0	73	24589
2026-01-25 22:33:55.29	260.70	14.48	-50.6	-55.4	3.7	0.00e+00	0	48	104	0	73	24069
2026-01-25 22:33:56.06	260.51	14.41	-50.7	-55.4	3.7	0.00e+00	0	48	104	0	73	24166
2026-01-25 22:33:57.64	260.13	14.28	-50.8	-55.5	3.7	0.00e+00	0	48	104	0	73	24478
2026-01-25 22:33:58.29	259.97	14.22	-50.8	-55.5	3.7	0.00e+00	0	49	104	0	73	24264
2026-01-25 22:33:59.71	259.63	14.10	-50.9	-55.9	3.7	0.00e+00	0	48	104	0	73	25400
2026-01-25 22:34:00.67	259.40	14.02	-51.5	-56.2	3.7	0.00e+00	0	48	104	0	73	26453
2026-01-25 22:34:01.98	259.09	13.91	-51.2	-56.0	3.7	0.00e+00	0	48	104	0	73	25964
2026-01-25 22:34:02.69	258.92	13.85	-51.5	-56.2	3.7	0.00e+00	0	48	104	0	73	26453
2026-01-25 22:34:03.97	258.62	13.74	-51.8	-56.3	3.7	0.00e+00	0	48	104	0	74	25264
2026-01-25 22:34:04.69	258.46	13.67	-51.6	-56.1	3.7	0.00e+00	0	48	104	0	74	24550
2026-01-25 22:34:05.97	258.16	13.56	-51.6	-56.2	3.7	0.00e+00	0	48	104	0	74	24892
2026-01-25 22:34:06.68	258.00	13.50	-51.4	-55.9	3.7	0.00e+00	0	48	104	0	74	24231
2026-01-25 22:34:07.96	257.71	13.39	-51.2	-55.9	3.7	0.00e+00	0	48	104	0	74	24127
2026-01-25 22:34:08.67	257.55	13.33	-51.0	-55.8	3.7	0.00e+00	0	48	104	0	74	23950
2026-01-25 22:34:09.95	257.26	13.22	-51.1	-55.8	3.7	0.00e+00	0	48	104	0	74	23895
2026-01-25 22:34:10.68	257.10	13.16	-50.9	-55.9	3.7	0.00e+00	0	48	104	0	73	25648
2026-01-25 22:34:11.96	256.82	13.05	-50.9	-55.9	3.7	0.00e+00	0	48	104	0	73	25544
2026-01-25 22:34:12.68	256.66	12.99	-50.9	-56.0	3.7	0.00e+00	0	48	104	0	73	25695
2026-01-25 22:34:14.12	256.34	12.86	-50.9	-56.0	3.7	0.00e+00	0	48	104	0	73	25902
2026-01-25 22:34:14.83	256.19	12.80	-50.8	-56.1	3.7	0.00e+00	0	48	104	0	73	25984
2026-01-25 22:34:16.18	255.90	12.69	-51.0	-56.0	3.7	0.00e+00	0	48	104	0	73	25828
2026-01-25 22:34:17.15	255.70	12.61	-51.0	-56.1	3.7	0.00e+00	0	48	104	0	73	26143
2026-01-25 22:34:18.46	255.42	12.49	-50.8	-56.0	3.7	0.00e+00	0	48	104	0	73	25685
2026-01-25 22:34:19.21	255.26	12.43	-50.8	-56.0	3.7	0.00e+00	0	48	104	0	73	25875
2026-01-25 22:34:20.49	255.00	12.32	-51.1	-56.1	3.7	0.00e+00	0	48	104	0	73	26092
2026-01-25 22:34:21.20	254.85	12.26	-50.9	-56.0	3.7	0.00e+00	0	48	104	0	73	25911
2026-01-25 22:34:22.48	254.59	12.15	-50.9	-56.1	3.7	0.00e+00	0	48	104	0	73	26144
2026-01-25 22:34:23.19	254.44	12.09	-50.9	-56.1	3.7	0.00e+00	0	48	104	0	73	26123
2026-01-25 22:34:24.47	254.18	11.98	-51.0	-56.0	3.7	0.00e+00	0	48	104	0	73	25721
2026-01-25 22:34:25.18	254.04	11.92	-50.9	-55.9	3.7	0.00e+00	0	48	104	0	73	25629
2026-01-25 22:34:26.49	253.78	11.81	-51.0	-56.0	3.7	0.00e+00	0	48	104	0	73	25812
2026-01-25 22:34:27.20	253.64	11.75	-51.1	-56.0	3.7	0.00e+00	0	48	104	0	73	25869
2026-01-25 22:34:28.53	253.38	11.64	-51.1	-55.9	3.7	0.00e+00	0	48	104	0	73	25466
2026-01-25 22:34:29.24	253.24	11.58	-51.0	-55.9	3.7	0.00e+00	0	48	104	0	73	25402
2026-01-25 22:34:30.58	252.98	11.47	-51.0	-55.8	3.7	0.00e+00	0	48	104	0	73	25342
2026-01-25 22:34:31.29	252.84	11.41	-50.9	-55.8	3.7	0.00e+00	0	49	104	0	73	25242
2026-01-25 22:34:32.65	252.58	11.29	-51.4	-56.1	3.7	0.00e+00	0	48	104	0	73	26049
2026-01-25 22:34:33.36	252.45	11.23	-51.4	-56.1	3.7	0.00e+00	0	48	104	0	73	26182
2026-01-25 22:34:34.64	252.21	11.12	-51.3	-56.0	3.7	0.00e+00	0	48	104	0	73	25874
2026-01-25 22:34:35.68	252.02	11.04	-51.4	-56.1	3.7	0.00e+00	0	48	104	0	73	26076
2026-01-25 22:34:36.94	251.78	10.93	-51.3	-56.1	3.7	0.00e+00	0	49	104	0	73	26020
2026-01-25 22:34:37.75	251.63	10.87	-51.4	-56.1	3.7	0.00e+00	0	49	104	0	73	26100
2026-01-25 22:34:39.12	251.38	10.75	-51.4	-56.1	3.7	0.00e+00	0	48	104	0	73	26158
2026-01-25 22:34:39.83	251.26	10.69	-51.0	-55.9	3.7	0.00e+00	0	48	104	0	73	25626
2026-01-25 22:34:41.11	251.03	10.59	-51.3	-56.0	3.7	0.00e+00	0	48	104	0	73	25932
2026-01-25 22:34:41.84	250.90	10.53	-51.3	-56.0	3.7	0.00e+00	0	48	104	0	73	25884
2026-01-25 22:34:43.12	250.67	10.42	-51.5	-56.1	3.7	0.00e+00	0	49	104	0	73	26115
2026-01-25 22:34:43.86	250.54	10.36	-51.1	-56.0	3.7	0.00e+00	0	48	104	0	73	25743
2026-01-25 22:34:45.13	250.32	10.26	-51.4	-56.0	3.7	0.00e+00	0	48	104	0	73	25830
2026-01-25 22:34:45.86	250.19	10.20	-51.4	-56.0	3.7	0.00e+00	0	48	104	0	73	25775
2026-01-25 22:34:47.14	249.97	10.09	-51.3	-56.0	3.7	0.00e+00	0	49	104	0	73	25791
2026-01-25 22:34:48.01	249.82	10.02	-51.2	-56.0	3.7	0.00e+00	0	49	104	0	73	25802
2026-01-25 22:34:49.15	249.63	9.93	-51.2	-56.0	3.7	0.00e+00	0	49	104	0	73	25957
2026-01-25 22:34:50.19	249.45	9.84	-51.3	-56.0	3.7	0.00e+00	0	48	104	0	73	25811
2026-01-25 22:34:51.37	249.26	9.75	-51.2	-56.1	3.7	0.00e+00	0	48	104	0	73	26014
2026-01-25 22:34:52.22	249.11	9.68	-51.2	-56.0	3.7	0.00e+00	0	48	104	0	73	25844
2026-01-25 22:34:53.58	248.89	9.57	-51.1	-56.0	3.7	0.00e+00	0	48	104	0	73	25922
2026-01-25 22:34:54.29	248.77	9.51	-51.2	-56.1	3.7	0.00e+00	0	49	104	0	73	25991
2026-01-25 22:34:55.57	248.57	9.41	-50.6	-55.9	3.7	0.00e+00	0	48	104	0	73	25572
2026-01-25 22:34:56.30	248.45	9.35	-50.2	-55.9	3.7	0.00e+00	0	48	104	0	72	26917
2026-01-25 22:34:57.58	248.24	9.25	-50.3	-55.9	3.7	0.00e+00	0	48	104	0	72	26900
2026-01-25 22:34:58.32	248.13	9.19	-50.5	-55.9	3.7	0.00e+00	0	48	104	0	72	27094
2026-01-25 22:34:59.60	247.92	9.08	-50.4	-55.8	3.7	0.00e+00	0	48	104	0	72	26857
2026-01-25 22:35:00.32	247.81	9.03	-50.6	-55.9	3.7	0.00e+00	0	48	104	0	72	26900
2026-01-25 22:35:01.60	247.61	8.92	-51.5	-56.1	3.7	0.00e+00	0	48	104	0	73	26248
2026-01-25 22:35:02.31	247.50	8.87	-51.3	-56.2	3.7	0.00e+00	0	48	104	0	73	26482
2026-01-25 22:35:03.59	247.30	8.77	-51.7	-56.5	3.7	0.00e+00	0	48	104	0	74	25857
2026-01-25 22:35:04.30	247.20	8.71	-51.7	-56.3	3.7	0.00e+00	0	48	104	0	74	25200
2026-01-25 22:35:05.58	247.00	8.61	-51.6	-56.4	3.7	0.00e+00	0	48	104	0	74	25399
2026-01-25 22:35:06.29	246.90	8.55	-51.2	-56.1	3.7	0.00e+00	0	48	104	0	74	24800
2026-01-25 22:35:07.58	246.70	8.45	-52.1	-56.8	3.7	0.00e+00	0	48	104	0	75	25110
2026-01-25 22:35:08.29	246.60	8.40	-52.1	-56.6	3.7	0.00e+00	0	49	104	0	75	24560
2026-01-25 22:35:09.63	246.40	8.29	-52.3	-56.9	3.7	0.
