passes_logs/2026/01/25/T1/T1__20260125_114812_AQUA_rec.log

#Pass ID: 20260125_114812_AQUA
#Satellite: AQUA
#Configuration: AQUA
#almurnet v.1.7.20251203
#Start time: 2026-01-25 11:48:13

#Version: 2.0.20230620
#Station: T1
#Location: 37.570604 lon 55.790049 lat
#TLE: 1 27424U 02022A   26024.53919639  .00001970  00000+0  40397-3 0  9996
#TLE: 2 27424  98.4098 351.1277 0001915  66.8561 358.4840 14.61855303262281

#Time	Az	El	Level	Level2	SNR	BER	BlckErr	Temp	State	Recorded	gain1	gain2
2026-01-25 11:48:13.50	164.57	5.11	-47.1	-70.0	3.8	7.48e-01	0	35	0	0	64	54290
2026-01-25 11:48:14.49	164.58	5.19	-47.1	-68.6	3.8	7.46e-01	0	35	104	0	64	46337
2026-01-25 11:48:15.49	164.59	5.26	-47.1	-68.5	3.9	7.46e-01	0	35	104	0	64	45817
2026-01-25 11:48:16.48	164.59	5.34	-47.1	-68.3	3.8	7.47e-01	0	36	104	0	64	44872
2026-01-25 11:48:17.47	164.60	5.41	-47.0	-68.6	3.8	7.48e-01	0	36	104	0	65	43454
2026-01-25 11:48:18.46	164.61	5.49	-47.0	-68.8	3.8	7.45e-01	0	36	104	0	65	44626
2026-01-25 11:48:19.46	164.62	5.57	-47.1	-69.3	3.8	7.46e-01	0	36	104	0	65	47293
2026-01-25 11:48:20.45	164.63	5.64	-47.1	-69.7	3.8	7.41e-01	0	36	104	0	65	49691
2026-01-25 11:48:21.45	164.64	5.72	-47.0	-70.1	3.8	7.45e-01	0	36	104	0	65	51745
2026-01-25 11:48:22.44	164.65	5.80	-47.1	-70.0	3.8	7.43e-01	0	36	104	0	65	51144
2026-01-25 11:48:23.43	164.66	5.88	-47.1	-69.2	3.8	7.43e-01	0	36	104	0	65	47034
2026-01-25 11:48:24.41	164.66	5.95	-47.1	-68.0	3.9	7.40e-01	0	36	104	0	65	40967
2026-01-25 11:48:25.40	164.67	6.03	-47.1	-66.4	4.3	7.31e-01	0	36	104	0	65	33924
2026-01-25 11:48:26.40	164.68	6.11	-46.9	-65.2	4.6	7.17e-01	0	36	104	0	65	29370
2026-01-25 11:48:27.39	164.69	6.19	-47.0	-64.1	5.4	7.00e-01	0	36	0	0	65	25988
2026-01-25 11:48:28.38	164.70	6.27	-46.9	-63.5	5.8	6.90e-01	0	36	0	524288	65	24141
2026-01-25 11:48:29.38	164.71	6.35	-46.9	-62.9	6.2	6.78e-01	0	36	0	2621440	65	22765
2026-01-25 11:48:30.37	164.72	6.42	-46.9	-62.9	6.2	6.80e-01	0	36	0	4194304	65	22764
2026-01-25 11:48:31.36	164.73	6.50	-46.9	-63.1	6.1	6.84e-01	0	36	0	5767168	65	23287
2026-01-25 11:48:32.36	164.74	6.58	-46.9	-63.6	5.7	6.97e-01	0	36	0	7340032	65	24552
2026-01-25 11:48:33.35	164.75	6.66	-46.9	-64.2	5.3	7.02e-01	0	36	0	8912896	65	26325
2026-01-25 11:48:34.34	164.76	6.74	-47.0	-65.9	4.0	7.38e-01	0	36	104	8912896	65	32012
2026-01-25 11:48:35.33	164.77	6.82	-47.0	-66.6	4.2	7.36e-01	0	36	104	8912896	65	34872
2026-01-25 11:48:36.33	164.77	6.91	-47.0	-68.5	3.8	7.44e-01	0	36	104	8912896	65	43327
2026-01-25 11:48:37.32	164.78	6.99	-47.0	-69.6	3.8	7.51e-01	0	36	104	8912896	65	49173
2026-01-25 11:48:38.31	164.79	7.07	-47.0	-70.2	3.8	7.47e-01	0	36	104	8912896	65	52377
2026-01-25 11:48:39.31	164.80	7.15	-47.0	-70.0	3.8	7.42e-01	0	36	104	8912896	65	51503
2026-01-25 11:48:40.30	164.81	7.23	-46.9	-69.4	3.8	7.47e-01	0	36	104	8912896	65	48087
2026-01-25 11:48:41.29	164.82	7.32	-46.9	-68.3	3.8	7.40e-01	0	36	104	8912896	65	42212
2026-01-25 11:48:42.29	164.83	7.40	-46.9	-67.1	4.1	7.48e-01	0	36	104	8912896	65	36648
2026-01-25 11:48:43.28	164.84	7.48	-46.9	-64.7	5.0	7.05e-01	0	36	104	8912896	65	27785
2026-01-25 11:48:44.27	164.85	7.56	-46.7	-62.4	6.5	6.74e-01	0	37	0	9437184	65	21491
2026-01-25 11:48:45.26	164.86	7.65	-46.6	-60.3	8.5	6.39e-01	0	37	0	11534336	65	16843
2026-01-25 11:48:46.26	164.87	7.73	-46.4	-58.4	10.5	6.20e-01	0	36	0	13631488	64	14354
2026-01-25 11:48:47.25	164.88	7.82	-46.2	-56.7	12.4	6.12e-01	0	36	0	15204352	64	11711
2026-01-25 11:48:48.24	164.89	7.90	-46.0	-55.2	13.9	6.09e-01	0	37	0	17301504	64	9886
2026-01-25 11:48:49.24	164.90	7.99	-45.9	-54.0	15.2	6.07e-01	0	37	0	18874368	63	9151
2026-01-25 11:48:50.23	164.91	8.07	-45.7	-53.2	16.0	6.08e-01	0	37	0	20971520	63	8355
2026-01-25 11:48:51.22	164.92	8.16	-45.4	-52.4	16.8	6.07e-01	0	37	0	22544384	62	8082
2026-01-25 11:48:52.22	164.93	8.24	-45.4	-52.2	17.1	6.05e-01	0	37	0	24641536	62	7825
2026-01-25 11:48:53.21	164.94	8.33	-45.3	-51.8	17.4	6.05e-01	0	37	0	26214400	62	7513
2026-01-25 11:48:54.20	164.95	8.42	-45.3	-51.9	17.3	6.08e-01	0	36	0	28311552	62	7611
2026-01-25 11:48:55.19	164.96	8.50	-45.4	-52.3	17.0	6.08e-01	0	37	0	30408704	62	7939
2026-01-25 11:48:56.19	164.97	8.59	-45.6	-52.9	16.4	6.09e-01	0	37	0	31981568	62	8467
2026-01-25 11:48:57.18	164.98	8.68	-45.8	-53.8	15.4	6.08e-01	0	37	0	34078720	62	9488
2026-01-25 11:48:58.17	164.99	8.76	-46.1	-55.0	14.2	6.09e-01	0	37	0	35651584	62	10903
2026-01-25 11:48:59.17	165.00	8.85	-46.5	-56.6	12.6	6.10e-01	0	37	0	37748736	63	12367
2026-01-25 11:49:00.16	165.01	8.94	-46.6	-58.7	10.4	6.24e-01	0	37	0	39321600	64	14776
2026-01-25 11:49:01.15	165.02	9.03	-46.7	-61.1	7.6	6.49e-01	0	37	0	41418752	64	19435
2026-01-25 11:49:02.15	165.03	9.12	-44.1	-49.4	20.1	6.06e-01	0	37	0	42991616	59	6788
2026-01-25 11:49:03.14	165.04	9.21	-46.8	-67.5	3.9	7.40e-01	0	37	104	44564480	64	40746
2026-01-25 11:49:04.18	165.06	9.30	-45.3	-53.8	15.2	6.09e-01	0	37	0	45088768	62	9474
2026-01-25 11:49:05.22	165.07	9.40	-45.8	-58.6	10.8	6.18e-01	0	37	0	47185920	62	16494
2026-01-25 11:49:06.25	165.08	9.49	-47.0	-66.0	4.5	7.27e-01	0	37	104	47710208	65	32306
2026-01-25 11:49:07.28	165.09	9.59	-45.7	-57.9	11.2	6.16e-01	0	37	0	48234496	63	14213
2026-01-25 11:49:08.27	165.10	9.68	-45.6	-57.0	12.2	6.13e-01	0	37	0	50331648	63	12863
2026-01-25 11:49:09.33	165.11	9.78	-45.5	-56.2	13.0	6.10e-01	0	37	0	52428800	63	11698
2026-01-25 11:49:10.22	165.12	9.86	-45.5	-55.9	13.4	6.10e-01	0	37	0	54001664	63	11305
2026-01-25 11:49:11.35	165.13	9.97	-45.8	-55.9	13.5	6.09e-01	0	37	0	56098816	63	11400
2026-01-25 11:49:12.27	165.14	10.05	-45.8	-56.3	13.0	6.08e-01	0	37	0	57671680	63	11873
2026-01-25 11:49:13.44	165.16	10.16	-45.9	-54.6	14.6	6.06e-01	0	37	0	59768832	63	9726
2026-01-25 11:49:14.29	165.17	10.24	-46.1	-54.5	14.7	6.08e-01	0	37	0	61341696	63	9664
2026-01-25 11:49:15.65	165.18	10.37	-46.3	-54.8	14.6	6.06e-01	0	37	0	63963136	63	9968
2026-01-25 11:49:16.36	165.19	10.44	-46.2	-54.6	14.9	6.06e-01	0	37	0	65536000	63	9746
2026-01-25 11:49:17.64	165.20	10.56	-46.3	-54.1	14.8	6.10e-01	0	37	0	67633152	63	9276
2026-01-25 11:49:18.35	165.21	10.63	-46.3	-54.3	14.9	6.05e-01	0	37	0	69206016	63	9400
2026-01-25 11:49:19.63	165.23	10.75	-46.5	-54.1	15.1	6.04e-01	0	37	0	71303168	63	9180
2026-01-25 11:49:20.36	165.24	10.82	-46.5	-53.7	15.4	6.10e-01	0	37	0	72876032	64	8278
2026-01-25 11:49:21.64	165.25	10.95	-46.5	-53.3	15.9	6.07e-01	0	37	0	75497472	64	7966
2026-01-25 11:49:22.44	165.26	11.03	-46.3	-52.5	16.6	6.05e-01	0	37	0	77070336	64	7222
2026-01-25 11:49:23.58	165.27	11.14	-46.4	-52.5	16.8	6.06e-01	0	37	0	79167488	64	7256
2026-01-25 11:49:24.43	165.28	11.22	-46.3	-52.2	17.0	6.08e-01	0	37	0	80740352	64	7022
2026-01-25 11:49:25.57	165.30	11.34	-46.2	-52.0	17.3	6.04e-01	0	37	0	82837504	64	6853
2026-01-25 11:49:26.42	165.31	11.42	-46.0	-51.3	17.9	6.06e-01	0	37	0	84410368	63	6675
2026-01-25 11:49:27.56	165.32	11.54	-46.1	-51.1	18.3	6.07e-01	0	37	0	86507520	63	6547
2026-01-25 11:49:28.41	165.33	11.62	-45.8	-50.4	18.7	6.08e-01	0	37	0	88080384	63	6042
2026-01-25 11:49:29.55	165.35	11.74	-45.9	-50.5	18.5	6.06e-01	0	37	0	90177536	63	6096
2026-01-25 11:49:30.40	165.36	11.82	-45.9	-50.5	18.6	6.05e-01	0	37	0	91750400	63	6097
2026-01-25 11:49:31.58	165.37	11.94	-45.5	-49.9	19.5	6.07e-01	0	37	0	93847552	62	6012
2026-01-25 11:49:32.44	165.38	12.03	-44.9	-48.8	20.4	6.06e-01	0	37	0	95420416	61	5623
2026-01-25 11:49:33.57	165.40	12.15	-44.2	-47.8	21.4	6.07e-01	0	37	0	97517568	60	5319
2026-01-25 11:49:34.43	165.41	12.24	-44.1	-47.6	21.6	6.07e-01	0	37	0	99090432	60	5182
2026-01-25 11:49:35.56	165.42	12.36	-44.1	-47.7	21.5	6.03e-01	0	37	0	101187584	59	5535
2026-01-25 11:49:36.42	165.43	12.45	-43.7	-47.1	22.0	6.06e-01	0	37	0	102760448	59	5186
2026-01-25 11:49:37.56	165.45	12.57	-43.9	-47.4	22.0	6.08e-01	0	37	0	105381888	59	5350
2026-01-25 11:49:38.41	165.46	12.66	-44.0	-47.5	22.0	6.08e-01	0	37	0	106954752	59	5409
2026-01-25 11:49:39.54	165.47	12.78	-43.9	-47.3	21.9	6.07e-01	0	37	0	109051904	59	5292
2026-01-25 11:49:40.39	165.48	12.87	-43.6	-47.0	22.5	6.05e-01	0	37	0	110624768	59	5102
2026-01-25 11:49:41.53	165.50	12.99	-43.2	-46.4	22.9	6.06e-01	0	37	0	112721920	58	5052
2026-01-25 11:49:42.39	165.51	13.08	-42.8	-45.7	23.6	6.07e-01	0	37	0	114294784	57	4976
2026-01-25 11:49:43.52	165.53	13.20	-42.4	-45.2	24.0	6.05e-01	0	37	0	116391936	56	4933
2026-01-25 11:49:44.38	165.54	13.30	-42.2	-44.9	24.4	6.06e-01	0	37	0	117964800	56	4762
2026-01-25 11:49:45.51	165.55	13.42	-42.1	-44.7	24.5	6.07e-01	0	37	0	120061952	56	4686
2026-01-25 11:49:46.37	165.56	13.51	-42.0	-44.7	24.6	6.04e-01	0	37	0	121634816	56	4672
2026-01-25 11:49:47.50	165.58	13.64	-41.7	-44.3	24.9	6.04e-01	0	37	0	123731968	55	4718
2026-01-25 11:49:48.36	165.59	13.73	-41.7	-44.2	25.0	6.07e-01	0	37	0	125304832	55	4695
2026-01-25 11:49:49.49	165.61	13.86	-41.7	-44.2	24.9	6.06e-01	0	37	0	127401984	55	4693
2026-01-25 11:49:50.34	165.62	13.95	-41.7	-44.2	25.0	6.04e-01	0	37	0	128974848	55	4684
2026-01-25 11:49:51.48	165.64	14.08	-41.7	-44.2	25.0	6.03e-01	0	37	0	131072000	55	4696
2026-01-25 11:49:52.34	165.65	14.18	-41.7	-44.2	25.0	6.06e-01	0	37	0	132644864	55	4662
2026-01-25 11:49:53.48	165.66	14.31	-41.7	-44.2	25.0	6.06e-01	0	37	0	134742016	55	4661
2026-01-25 11:49:54.33	165.68	14.41	-41.7	-44.2	25.0	6.07e-01	0	37	0	136839168	55	4689
2026-01-25 11:49:55.46	165.69	14.54	-41.6	-44.1	25.0	6.07e-01	0	37	0	138936320	55	4635
2026-01-25 11:49:56.32	165.70	14.64	-41.7	-44.2	25.0	6.03e-01	0	37	0	140509184	55	4657
2026-01-25 11:49:57.46	165.72	14.77	-41.8	-44.3	24.9	6.06e-01	0	37	0	142606336	55	4724
2026-01-25 11:49:58.31	165.73	14.87	-41.8	-44.2	25.0	6.05e-01	0	37	0	144179200	55	4703
2026-01-25 11:49:59.44	165.75	15.00	-41.8	-44.2	25.0	6.06e-01	0	37	0	146276352	55	4675
2026-01-25 11:50:00.30	165.76	15.10	-41.8	-44.3	25.0	6.08e-01	0	37	0	147849216	55	4714
2026-01-25 11:50:01.44	165.78	15.24	-41.8	-44.3	24.9	6.07e-01	0	37	0	149946368	55	4721
2026-01-25 11:50:02.29	165.79	15.34	-41.8	-44.3	24.9	6.06e-01	0	37	0	151519232	55	4725
2026-01-25 11:50:03.43	165.81	15.48	-41.9	-44.3	24.9	6.07e-01	0	37	0	153616384	55	4752
2026-01-25 11:50:04.28	165.82	15.58	-41.8	-44.3	25.0	6.07e-01	0	37	0	155189248	55	4724
2026-01-25 11:50:05.42	165.84	15.72	-41.8	-44.3	24.9	6.06e-01	0	37	0	157286400	55	4738
2026-01-25 11:50:06.27	165.85	15.82	-41.8	-44.3	25.0	6.05e-01	0	37	0	158859264	55	4724
2026-01-25 11:50:07.41	165.87	15.96	-41.7	-44.3	25.0	6.05e-01	0	37	0	160956416	55	4725
2026-01-25 11:50:08.26	165.88	16.06	-41.6	-44.1	25.1	6.07e-01	0	37	0	162529280	55	4638
2026-01-25 11:50:09.40	165.90	16.21	-41.5	-44.1	25.1	6.07e-01	0	38	0	165150720	55	4622
2026-01-25 11:50:10.25	165.92	16.31	-41.6	-44.1	25.1	6.08e-01	0	37	0	166723584	55	4633
2026-01-25 11:50:11.38	165.93	16.45	-41.5	-44.1	25.1	6.07e-01	0	37	0	168296448	55	4619
2026-01-25 11:50:12.24	165.95	16.56	-41.6	-44.1	25.1	6.08e-01	0	37	0	170393600	55	4639
2026-01-25 11:50:13.37	165.97	16.70	-41.5	-44.0	25.2	6.07e-01	0	37	0	172490752	54	4868
2026-01-25 11:50:14.23	165.98	16.81	-41.4	-43.9	25.3	6.02e-01	0	37	0	174063616	54	4797
2026-01-25 11:50:15.57	166.00	16.99	-41.3	-43.8	25.4	6.06e-01	0	38	0	176685056	54	4725
2026-01-25 11:50:16.28	166.02	17.08	-41.3	-43.8	25.5	6.05e-01	0	37	0	177733632	54	4720
2026-01-25 11:50:17.56	166.04	17.24	-41.4	-43.8	25.4	6.07e-01	0	37	0	180355072	54	4738
2026-01-25 11:50:18.30	166.05	17.34	-41.4	-43.8	25.4	6.06e-01	0	37	0	181403648	54	4740
2026-01-25 11:50:19.58	166.07	17.51	-41.4	-43.8	25.4	6.06e-01	0	37	0	184025088	54	4726
2026-01-25 11:50:20.32	166.08	17.61	-41.5	-43.9	25.3	6.05e-01	0	37	0	185073664	54	4784
2026-01-25 11:50:21.60	166.11	17.78	-41.5	-43.9	25.3	6.06e-01	0	37	0	187695104	54	4787
2026-01-25 11:50:22.31	166.12	17.87	-41.6	-44.0	25.3	6.03e-01	0	37	0	189267968	54	4854
2026-01-25 11:50:23.59	166.14	18.04	-41.6	-44.1	25.2	6.07e-01	0	37	0	191365120	54	4873
2026-01-25 11:50:24.30	166.15	18.14	-41.7	-44.2	25.1	6.05e-01	0	38	0	192937984	54	4944
2026-01-25 11:50:25.57	166.18	18.31	-41.6	-44.1	25.2	6.08e-01	0	37	0	195035136	54	4904
2026-01-25 11:50:26.29	166.19	18.41	-41.7	-44.2	25.1	6.07e-01	0	37	0	196608000	54	4945
2026-01-25 11:50:27.57	166.21	18.59	-41.7	-44.2	25.1	6.05e-01	0	37	0	198705152	54	4940
2026-01-25 11:50:28.28	166.22	18.69	-41.8	-44.3	25.1	6.05e-01	0	37	0	200278016	54	4995
2026-01-25 11:50:29.56	166.25	18.86	-41.6	-44.1	25.2	6.06e-01	0	37	0	202899456	54	4883
2026-01-25 11:50:30.27	166.26	18.96	-41.6	-44.1	25.2	6.07e-01	0	37	0	203948032	54	4881
2026-01-25 11:50:31.74	166.29	19.17	-41.7	-44.2	25.2	6.06e-01	0	37	0	206569472	54	4941
2026-01-25 11:50:32.45	166.30	19.27	-41.6	-44.1	25.2	6.06e-01	0	38	0	208142336	54	4872
2026-01-25 11:50:33.73	166.33	19.46	-41.7	-44.1	25.1	6.06e-01	0	37	0	210239488	54	4917
2026-01-25 11:50:34.45	166.34	19.56	-41.7	-44.1	25.2	6.07e-01	0	37	0	211812352	54	4909
2026-01-25 11:50:35.73	166.37	19.75	-41.7	-44.2	25.1	6.04e-01	0	37	0	214433792	54	4949
2026-01-25 11:50:36.46	166.38	19.85	-41.8	-44.3	25.1	6.05e-01	0	37	0	215482368	54	5003
2026-01-25 11:50:37.74	166.41	20.04	-41.7	-44.3	25.1	6.06e-01	0	38	0	218103808	54	5003
2026-01-25 11:50:38.46	166.42	20.15	-41.8	-44.4	25.0	6.05e-01	0	38	0	219152384	54	5054
2026-01-25 11:50:39.74	166.45	20.34	-41.9	-44.5	24.9	6.06e-01	0	38	0	221773824	54	5121
2026-01-25 11:50:40.45	166.46	20.44	-41.8	-44.4	24.9	6.06e-01	0	37	0	223346688	54	5096
2026-01-25 11:50:41.73	166.49	20.64	-41.8	-44.4	24.9	6.07e-01	0	38	0	225443840	54	5095
2026-01-25 11:50:42.45	166.50	20.75	-41.8	-44.4	24.9	6.08e-01	0	38	0	227016704	54	5097
2026-01-25 11:50:43.73	166.53	20.94	-41.9	-44.5	24.9	6.08e-01	0	37	0	229113856	54	5104
2026-01-25 11:50:44.45	166.54	21.05	-41.9	-44.5	24.9	6.06e-01	0	37	0	230686720	54	5126
2026-01-25 11:50:45.73	166.57	21.25	-41.9	-44.5	24.9	6.04e-01	0	37	0	232783872	54	5122
2026-01-25 11:50:46.45	166.58	21.36	-42.0	-44.5	24.9	6.07e-01	0	38	0	234356736	54	5148
2026-01-25 11:50:47.72	166.61	21.56	-42.1	-44.6	24.8	6.07e-01	0	37	0	236453888	54	5184
2026-01-25 11:50:48.64	166.63	21.71	-42.0	-44.5	24.9	6.06e-01	0	37	0	238551040	54	5140
2026-01-25 11:50:49.93	166.66	21.91	-42.0	-44.5	24.9	6.08e-01	0	37	0	240648192	54	5138
2026-01-25 11:50:50.64	166.68	22.03	-42.0	-44.5	24.9	6.06e-01	0	38	0	242221056	54	5112
2026-01-25 11:50:51.92	166.70	22.23	-42.0	-44.4	25.0	6.05e-01	0	38	0	244842496	54	5095
2026-01-25 11:50:52.65	166.72	22.35	-42.1	-44.5	24.9	6.07e-01	0	38	0	245891072	54	5153
2026-01-25 11:50:53.92	166.75	22.56	-42.1	-44.5	24.9	6.09e-01	0	38	0	248512512	54	5134
2026-01-25 11:50:54.63	166.77	22.68	-42.1	-44.5	24.9	6.05e-01	0	38	0	249561088	54	5142
2026-01-25 11:50:55.91	166.80	22.89	-42.2	-44.6	24.8	6.07e-01	0	38	0	252182528	55	4923
2026-01-25 11:50:56.64	166.81	23.01	-42.3	-44.8	24.7	6.04e-01	0	37	0	253231104	55	4987
2026-01-25 11:50:57.94	166.84	23.23	-42.2	-44.7	24.7	6.06e-01	0	37	0	255852544	55	4947
2026-01-25 11:50:58.65	166.86	23.35	-42.3	-44.8	24.7	6.04e-01	0	37	0	257425408	55	5002
2026-01-25 11:50:59.93	166.89	23.57	-42.1	-44.6	24.8	6.05e-01	0	37	0	259522560	55	4889
2026-01-25 11:51:00.64	166.91	23.69	-42.1	-44.6	24.8	6.08e-01	0	38	0	261095424	55	4904
2026-01-25 11:51:02.03	166.94	23.93	-42.1	-44.7	24.8	6.07e-01	0	37	0	263716864	55	4947
2026-01-25 11:51:02.74	166.96	24.06	-42.0	-44.6	24.6	6.06e-01	0	37	0	264765440	55	4881
2026-01-25 11:51:04.11	167.00	24.30	-42.1	-44.6	24.8	6.08e-01	0	38	0	267386880	55	4883
2026-01-25 11:51:04.82	167.01	24.42	-42.0	-44.5	24.7	6.06e-01	0	37	0	268959744	55	4851
2026-01-25 11:51:06.10	167.05	24.65	-42.0	-44.5	25.0	6.07e-01	0	38	0	271056896	55	4842
2026-01-25 11:51:07.14	167.07	24.84	-42.0	-44.4	25.0	6.05e-01	0	38	0	273154048	55	4807
2026-01-25 11:51:08.42	167.11	25.07	-42.1	-44.5	24.8	6.07e-01	0	38	0	275775488	55	4867
2026-01-25 11:51:09.16	167.13	25.21	-42.0	-44.5	24.9	6.05e-01	0	38	0	276824064	55	4863
2026-01-25 11:51:10.44	167.16	25.44	-42.1	-44.6	24.9	6.05e-01	0	38	0	279445504	55	4880
2026-01-25 11:51:11.15	167.18	25.58	-42.0	-44.5	24.9	6.06e-01	0	38	0	280494080	55	4855
2026-01-25 11:51:12.43	167.22	25.82	-42.1	-44.5	24.9	6.06e-01	0	37	0	283115520	55	4856
2026-01-25 11:51:13.15	167.24	25.95	-42.0	-44.5	25.0	6.03e-01	0	37	0	284688384	55	4831
2026-01-25 11:51:14.43	167.27	26.19	-41.8	-44.2	25.2	6.08e-01	0	38	0	286785536	55	4674
2026-01-25 11:51:15.16	167.29	26.33	-41.7	-44.1	25.3	6.04e-01	0	38	0	288358400	55	4640
2026-01-25 11:51:16.43	167.33	26.58	-41.7	-44.1	25.3	6.08e-01	0	38	0	290455552	55	4622
2026-01-25 11:51:17.14	167.35	26.72	-41.8	-44.2	25.2	6.05e-01	0	37	0	292028416	55	4671
2026-01-25 11:51:18.46	167.39	26.98	-41.9	-44.3	25.1	6.07e-01	0	38	0	294125568	55	4715
2026-01-25 11:51:19.17	167.41	27.12	-41.8	-44.2	25.2	6.05e-01	0	38	0	295698432	55	4691
2026-01-25 11:51:20.51	167.45	27.38	-41.8	-44.2	25.2	6.04e-01	0	37	0	298319872	55	4669
2026-01-25 11:51:21.22	167.47	27.53	-41.8	-44.2	25.2	6.04e-01	0	38	0	299368448	55	4657
2026-01-25 11:51:22.56	167.51	27.80	-41.5	-43.9	25.2	6.04e-01	0	38	0	301989888	55	4538
2026-01-25 11:51:23.27	167.54	27.94	-41.5	-43.8	25.5	6.06e-01	0	38	0	303562752	55	4493
2026-01-25 11:51:24.64	167.58	28.22	-41.3	-43.6	25.7	6.06e-01	0	38	0	306184192	54	4644
2026-01-25 11:51:25.35	167.60	28.37	-41.3	-43.6	25.7	6.07e-01	0	38	0	307232768	54	4639
2026-01-25 11:51:26.67	167.65	28.65	-41.3	-43.6	25.7	6.06e-01	0	38	0	309854208	54	4635
2026-01-25 11:51:27.38	167.67	28.80	-41.4	-43.7	25.6	6.07e-01	0	38	0	310902784	54	4661
2026-01-25 11:51:28.72	167.71	29.08	-41.5	-43.8	25.6	6.06e-01	0	37	0	313524224	54	4710
2026-01-25 11:51:29.43	167.74	29.24	-41.4	-43.8	25.6	6.05e-01	0	38	0	315097088	54	4709
2026-01-25 11:51:30.71	167.78	29.51	-41.5	-43.8	25.2	6.07e-01	0	38	0	317194240	54	4759
2026-01-25 11:51:31.42	167.81	29.67	-41.4	-43.8	25.6	6.04e-01	0	37	0	318767104	54	4738
2026-01-25 11:51:32.70	167.85	29.95	-41.3	-43.7	25.5	6.06e-01	0	38	0	320864256	54	4676
2026-01-25 11:51:33.43	167.88	30.11	-41.3	-43.7	25.6	6.08e-01	0	38	0	322437120	54	4671
2026-01-25 11:51:34.71	167.92	30.40	-41.3	-43.7	25.7	6.05e-01	0	37	0	325058560	54	4660
2026-01-25 11:51:35.43	167.95	30.56	-41.3	-43.7	25.5	6.07e-01	0	38	0	326107136	54	4665
2026-01-25 11:51:36.72	168.00	30.85	-41.5	-43.9	25.5	6.04e-01	0	38	0	328728576	54	4770
2026-01-25 11:51:37.43	168.02	31.01	-41.5	-43.9	25.5	6.04e-01	0	38	0	329777152	54	4793
2026-01-25 11:51:38.70	168.07	31.31	-41.6	-43.9	25.4	6.06e-01	0	37	0	332398592	54	4811
2026-01-25 11:51:39.42	168.10	31.48	-41.5	-43.9	25.5	6.07e-01	0	38	0	333447168	54	4761
2026-01-25 11:51:40.70	168.15	31.78	-41.4	-43.8	25.6	6.05e-01	0	38	0	336068608	54	4709
2026-01-25 11:51:41.42	168.18	31.95	-41.4	-43.8	25.6	6.05e-01	0	38	0	337641472	54	4708
2026-01-25 11:51:42.70	168.23	32.25	-41.4	-43.8	25.5	6.04e-01	0	38	0	339738624	54	4728
2026-01-25 11:51:43.42	168.26	32.43	-41.5	-43.9	25.4	6.05e-01	0	37	0	341311488	54	4796
2026-01-25 11:51:44.69	168.31	32.73	-41.7	-44.1	25.3	6.06e-01	0	38	0	343408640	54	4880
2026-01-25 11:51:45.67	168.35	32.98	-41.8	-44.2	25.2	6.05e-01	0	38	0	345505792	54	4949
2026-01-25 11:51:46.97	168.40	33.30	-41.9	-44.3	25.1	6.07e-01	0	37	0	347602944	54	4993
2026-01-25 11:51:47.68	168.44	33.47	-42.0	-44.4	25.1	6.07e-01	0	38	0	349175808	54	5046
2026-01-25 11:51:48.96	168.49	33.80	-42.0	-44.4	25.0	6.07e-01	0	38	0	351797248	54	5047
2026-01-25 11:51:49.67	168.52	33.98	-42.1	-44.5	24.9	6.06e-01	0	38	0	352845824	54	5118
2026-01-25 11:51:50.95	168.58	34.31	-42.1	-44.5	24.9	6.06e-01	0	38	0	355467264	54	5131
2026-01-25 11:51:51.68	168.61	34.50	-42.2	-44.7	24.7	6.03e-01	0	38	0	356515840	55	4942
2026-01-25 11:51:52.95	168.67	34.83	-42.5	-45.0	24.5	6.06e-01	0	38	0	359137280	55	5120
2026-01-25 11:51:53.69	168.71	35.02	-42.7	-45.2	24.4	6.07e-01	0	38	0	360710144	56	4969
2026-01-25 11:51:54.97	168.77	35.36	-42.9	-45.4	24.3	6.05e-01	0	37	0	362807296	56	5054
2026-01-25 11:51:55.68	168.80	35.55	-42.8	-45.3	24.3	6.05e-01	0	38	0	363855872	56	5013
2026-01-25 11:51:56.96	168.87	35.90	-42.8	-45.3	24.3	6.06e-01	0	38	0	366477312	56	5002
2026-01-25 11:51:57.67	168.90	36.09	-42.8	-45.4	24.3	6.09e-01	0	38	0	368050176	56	5053
2026-01-25 11:51:59.13	168.98	36.50	-42.9	-45.6	24.0	6.06e-01	0	38	0	370671616	56	5191
2026-01-25 11:51:59.83	169.01	36.69	-43.0	-45.7	24.0	6.06e-01	0	38	0	371720192	56	5247
2026-01-25 11:52:01.16	169.08	37.06	-43.3	-46.1	23.5	6.06e-01	0	38	0	374341632	57	5213
2026-01-25 11:52:01.87	169.12	37.27	-43.4	-46.3	23.4	6.07e-01	0	38	0	375914496	57	5307
2026-01-25 11:52:03.25	169.20	37.66	-43.5	-46.4	23.3	6.07e-01	0	38	0	378535936	57	5361
2026-01-25 11:52:03.96	169.24	37.87	-43.5	-46.3	23.4	6.04e-01	0	38	0	379584512	57	5321
2026-01-25 11:52:05.24	169.31	38.24	-43.6	-46.4	23.2	6.07e-01	0	38	0	382205952	57	5402
2026-01-25 11:52:05.95	169.35	38.45	-43.8	-46.5	23.1	6.06e-01	0	38	0	383254528	58	5135
2026-01-25 11:52:07.23	169.42	38.83	-43.7	-46.5	23.2	6.07e-01	0	37	0	385875968	58	5111
2026-01-25 11:52:07.94	169.47	39.04	-43.6	-46.3	23.3	6.04e-01	0	38	0	386924544	58	5038
2026-01-25 11:52:09.22	169.54	39.43	-43.7	-46.4	23.3	6.04e-01	0	38	0	389545984	58	5057
2026-01-25 11:52:09.93	169.59	39.64	-43.7	-46.4	23.3	6.06e-01	0	38	0	390594560	58	5092
2026-01-25 11:52:11.21	169.67	40.04	-43.6	-46.2	23.4	6.07e-01	0	38	0	393216000	58	4970
2026-01-25 11:52:11.93	169.71	40.26	-43.5	-46.1	23.5	6.06e-01	0	38	0	394788864	58	4903
2026-01-25 11:52:13.21	169.80	40.66	-43.4	-46.0	23.6	6.07e-01	0	37	0	396886016	58	4854
2026-01-25 11:52:13.94	169.85	40.89	-43.2	-45.9	23.8	6.05e-01	0	38	0	398458880	58	4764
2026-01-25 11:52:15.22	169.93	41.30	-43.1	-45.6	24.0	6.03e-01	0	38	0	400556032	58	4649
2026-01-25 11:52:15.96	169.98	41.54	-42.9	-45.5	24.1	6.06e-01	0	38	0	402128896	57	4830
2026-01-25 11:52:17.24	170.08	41.96	-43.0	-45.5	24.1	6.06e-01	0	38	0	404750336	57	4841
2026-01-25 11:52:17.96	170.13	42.19	-42.9	-45.4	24.2	6.07e-01	0	38	0	405798912	57	4809
2026-01-25 11:52:19.24	170.22	42.62	-42.8	-45.3	24.4	6.06e-01	0	37	0	408420352	57	4720
2026-01-25 11:52:19.95	170.27	42.85	-42.8	-45.3	24.3	6.04e-01	0	38	0	409468928	57	4708
2026-01-25 11:52:21.23	170.37	43.29	-42.2	-44.5	25.0	6.05e-01	0	38	0	412090368	56	4589
2026-01-25 11:52:21.96	170.43	43.54	-42.0	-44.4	25.1	6.07e-01	0	38	0	413663232	56	4534
2026-01-25 11:52:23.24	170.53	43.98	-42.1	-44.5	25.1	6.07e-01	0	38	0	415760384	56	4563
2026-01-25 11:52:23.96	170.59	44.23	-42.1	-44.5	25.0	6.07e-01	0	38	0	417333248	56	4553
2026-01-25 11:52:25.24	170.69	44.67	-42.0	-44.3	25.2	6.06e-01	0	38	0	419430400	56	4472
2026-01-25 11:52:25.97	170.76	44.93	-41.9	-44.2	24.9	6.07e-01	0	38	0	421003264	55	4689
2026-01-25 11:52:27.25	170.87	45.39	-41.9	-44.3	24.7	6.04e-01	0	38	0	423624704	55	4740
2026-01-25 11:52:27.97	170.93	45.65	-41.9	-44.3	24.9	6.04e-01	0	38	0	424673280	55	4753
2026-01-25 11:52:29.25	171.05	46.11	-41.9	-44.3	25.1	6.07e-01	0	38	0	427294720	55	4731
2026-01-25 11:52:29.98	171.11	46.38	-41.8	-44.2	25.2	6.05e-01	0	38	0	428343296	55	4691
2026-01-25 11:52:31.26	171.24	46.85	-41.9	-44.3	25.1	6.07e-01	0	38	0	430964736	55	4707
2026-01-25 11:52:31.97	171.31	47.12	-41.8	-44.1	25.2	6.07e-01	0	38	0	432013312	55	4624
2026-01-25 11:52:33.25	171.43	47.60	-41.6	-43.9	25.4	6.07e-01	0	38	0	434634752	55	4528
2026-01-25 11:52:33.96	171.50	47.87	-41.8	-44.1	25.3	6.05e-01	0	38	0	435683328	55	4616
2026-01-25 11:52:35.24	171.64	48.36	-41.6	-43.9	25.0	6.06e-01	0	38	0	438304768	55	4531
2026-01-25 11:52:35.96	171.71	48.64	-41.8	-44.2	24.9	6.08e-01	0	38	0	439877632	55	4673
2026-01-25 11:52:37.24	171.85	49.14	-41.6	-43.9	25.4	6.05e-01	0	38	0	441974784	55	4516
2026-01-25 11:52:37.96	171.94	49.42	-41.7	-44.0	25.3	6.03e-01	0	38	0	443547648	55	4576
2026-01-25 11:52:39.24	172.08	49.93	-41.5	-43.9	25.4	6.06e-01	0	38	0	445644800	55	4505
2026-01-25 11:52:39.97	172.17	50.22	-41.2	-43.4	25.8	6.06e-01	0	38	0	447217664	54	4541
2026-01-25 11:52:41.25	172.32	50.74	-41.3	-43.5	25.8	6.04e-01	0	38	0	449839104	54	4573
2026-01-25 11:52:41.97	172.41	51.04	-41.3	-43.6	25.7	6.05e-01	0	38	0	450887680	54	4601
2026-01-25 11:52:43.25	172.58	51.56	-41.1	-43.3	25.9	6.06e-01	0	38	0	453509120	54	4488
2026-01-25 11:52:43.97	172.67	51.86	-40.9	-43.1	26.1	6.06e-01	0	38	0	454557696	53	4608
2026-01-25 11:52:45.24	172.84	52.39	-41.0	-43.3	26.0	6.07e-01	0	38	0	457179136	53	4708
2026-01-25 11:52:45.96	172.94	52.70	-40.9	-43.1	26.1	6.07e-01	0	38	0	458227712	53	4608
2026-01-25 11:52:47.24	173.13	53.24	-40.6	-42.8	26.5	6.06e-01	0	38	0	460849152	53	4455
2026-01-25 11:52:47.95	173.23	53.55	-40.7	-42.9	26.4	6.08e-01	0	38	0	462422016	53	4512
2026-01-25 11:52:49.23	173.42	54.10	-40.8	-43.0	26.2	6.06e-01	0	38	0	464519168	53	4579
2026-01-25 11:52:50.20	173.58	54.53	-40.8	-43.1	26.2	6.06e-01	0	38	0	466616320	53	4620
2026-01-25 11:52:51.20	173.74	54.97	-40.9	-43.2	26.1	6.06e-01	0	38	0	468189184	53	4695
2026-01-25 11:52:52.19	173.90	55.41	-41.1	-43.4	25.9	6.06e-01	0	38	0	470286336	53	4793
2026-01-25 11:52:53.18	174.07	55.85	-41.6	-43.9	25.4	6.05e-01	0	38	0	471859200	53	5097
2026-01-25 11:52:54.18	174.25	56.30	-41.6	-44.0	24.3	6.05e-01	0	38	0	473956352	54	4830
2026-01-25 11:52:55.17	174.43	56.75	-41.8	-44.1	25.3	6.05e-01	0	38	0	475529216	54	4909
2026-01-25 11:52:56.17	174.62	57.21	-41.9	-44.3	25.1	6.06e-01	0	38	0	477626368	54	5001
2026-01-25 11:52:57.16	174.81	57.67	-42.5	-45.0	24.6	6.05e-01	0	38	0	479199232	55	5101
2026-01-25 11:52:58.16	175.01	58.14	-42.4	-44.8	24.7	6.03e-01	0	38	0	481296384	56	4743
2026-01-25 11:52:59.15	175.22	58.60	-42.6	-45.0	24.6	6.08e-01	0	38	0	483393536	56	4846
2026-01-25 11:53:00.23	175.45	59.11	-42.8	-45.3	24.3	6.06e-01	0	38	0	484966400	56	5009
2026-01-25 11:53:01.11	175.65	59.53	-42.9	-45.4	24.3	6.09e-01	0	38	0	487063552	56	5065
2026-01-25 11:53:02.25	175.92	60.08	-42.9	-45.4	24.2	6.06e-01	0	38	0	489160704	56	5076
2026-01-25 11:53:03.10	176.12	60.49	-43.2	-45.7	23.9	6.06e-01	0	38	0	490733568	56	5276
2026-01-25 11:53:04.24	176.41	61.05	-43.1	-45.7	23.9	6.08e-01	0	38	0	492830720	56	5248
2026-01-25 11:53:05.09	176.63	61.46	-43.2	-45.8	23.7	6.05e-01	0	38	0	494403584	57	5030
2026-01-25 11:53:06.23	176.94	62.02	-43.6	-46.3	23.3	6.05e-01	0	38	0	496500736	57	5320
2026-01-25 11:53:07.09	177.18	62.45	-43.9	-46.6	23.1	6.07e-01	0	38	0	498073600	58	5174
2026-01-25 11:53:08.22	177.51	63.01	-43.9	-46.6	23.1	6.08e-01	0	37	0	500170752	58	5185
2026-01-25 11:53:09.08	177.77	63.45	-44.3	-47.2	22.6	6.05e-01	0	38	0	501743616	59	5229
2026-01-25 11:53:10.22	178.14	64.02	-44.5	-47.5	22.2	6.05e-01	0	38	0	503840768	59	5443
2026-01-25 11:53:11.07	178.42	64.46	-44.8	-48.2	21.5	6.06e-01	0	38	0	505413632	60	5531
2026-01-25 11:53:12.68	178.99	65.28	-45.0	-48.4	21.2	6.07e-01	0	38	0	508559360	60	5717
2026-01-25 11:53:13.25	179.20	65.57	-45.3	-48.8	20.8	6.07e-01	0	38	0	509607936	61	5632
2026-01-25 11:53:14.96	179.87	66.46	-45.7	-49.2	20.5	6.05e-01	0	38	0	512753664	61	5878
2026-01-25 11:53:15.53	180.10	66.75	-45.7	-49.2	20.4	6.09e-01	0	38	0	513802240	62	5557
2026-01-25 11:53:17.20	180.83	67.63	-45.5	-49.2	20.5	6.07e-01	0	38	0	516947968	62	5566
2026-01-25 11:53:17.77	181.09	67.93	-45.8	-49.7	20.0	6.07e-01	0	38	0	517996544	62	5881
2026-01-25 11:53:19.48	181.93	68.83	-45.9	-49.4	20.2	6.07e-01	0	38	0	521142272	62	5717
2026-01-25 11:53:20.04	182.22	69.12	-46.0	-49.4	20.3	6.07e-01	0	38	0	522190848	62	5720
2026-01-25 11:53:21.73	183.15	70.02	-46.3	-50.2	19.4	6.08e-01	0	38	0	525336576	64	5554
2026-01-25 11:53:22.42	183.56	70.39	-45.5	-48.7	20.8	6.08e-01	0	38	0	526909440	63	4969
2026-01-25 11:53:23.84	184.45	71.14	-45.8	-49.1	20.5	6.07e-01	0	38	0	529530880	62	5504
2026-01-25 11:53:24.55	184.93	71.52	-45.8	-49.3	20.3	6.07e-01	0	38	0	530579456	62	5597
2026-01-25 11:53:25.83	185.84	72.21	-44.8	-47.9	21.6	6.07e-01	0	38	0	533200896	61	5088
2026-01-25 11:53:26.54	186.38	72.59	-44.7	-47.8	21.8	6.06e-01	0	38	0	534773760	61	5014
2026-01-25 11:53:27.82	187.41	73.27	-44.6	-47.7	21.9	6.07e-01	0	38	0	536870912	61	4962
2026-01-25 11:53:28.53	188.02	73.65	-44.4	-47.4	22.2	6.07e-01	0	38	0	538443776	60	5100
2026-01-25 11:53:29.81	189.20	74.33	-44.4	-47.6	22.1	6.06e-01	0	38	0	540540928	60	5182
2026-01-25 11:53:30.52	189.90	74.70	-44.2	-47.3	22.2	6.06e-01	0	38	0	542113792	60	5040
2026-01-25 11:53:31.80	191.27	75.38	-44.3	-47.4	22.1	6.06e-01	0	38	0	544210944	60	5100
2026-01-25 11:53:32.51	192.08	75.75	-44.5	-47.6	22.0	6.06e-01	0	38	0	545783808	60	5169
2026-01-25 11:53:33.79	193.66	76.42	-44.1	-47.0	22.5	6.06e-01	0	38	0	548405248	60	4824
2026-01-25 11:53:34.50	194.60	76.78	-44.1	-47.0	22.7	6.07e-01	0	38	0	549453824	60	4826
2026-01-25 11:53:35.78	196.45	77.43	-44.2	-47.0	22.7	6.07e-01	0	38	0	551550976	59	5146
2026-01-25 11:53:36.54	197.65	77.82	-44.1	-47.0	22.7	6.05e-01	0	38	0	553123840	59	5103
2026-01-25 11:53:37.82	199.84	78.45	-43.8	-46.6	23.1	6.05e-01	0	38	0	555745280	59	4897
2026-01-25 11:53:38.61	201.32	78.83	-43.6	-46.5	23.0	6.06e-01	0	38	0	557318144	59	4839
2026-01-25 11:53:40.14	204.49	79.56	-43.1	-45.7	23.9	6.05e-01	0	38	0	559939584	58	4665
2026-01-25 11:53:40.85	206.12	79.88	-43.0	-45.6	24.0	6.06e-01	0	38	0	561512448	57	4903
2026-01-25 11:53:42.25	209.65	80.49	-42.8	-45.4	24.2	6.05e-01	0	38	0	564133888	57	4760
2026-01-25 11:53:42.96	211.62	80.79	-41.9	-44.3	25.0	6.06e-01	0	38	0	565182464	55	4758
2026-01-25 11:53:44.25	215.54	81.30	-41.9	-44.3	25.0	6.04e-01	0	38	0	567803904	55	4735
2026-01-25 11:53:44.96	217.90	81.57	-41.9	-44.3	25.1	6.05e-01	0	38	0	568852480	55	4734
2026-01-25 11:53:46.24	222.53	82.00	-41.8	-44.4	25.0	6.07e-01	0	38	0	571473920	55	4771
2026-01-25 11:53:46.95	225.31	82.22	-41.9	-44.4	25.0	6.06e-01	0	38	0	573046784	55	4808
2026-01-25 11:53:48.43	231.61	82.61	-42.0	-44.4	25.0	6.08e-01	0	38	0	575668224	55	4804
2026-01-25 11:53:49.14	234.86	82.77	-42.2	-44.8	24.7	6.03e-01	0	38	0	576716800	55	4984
2026-01-25 11:53:50.50	241.43	82.99	-42.1	-44.6	24.3	6.06e-01	0	38	0	579338240	55	4925
2026-01-25 11:53:51.21	245.01	83.08	-42.4	-45.1	23.3	6.07e-01	0	38	0	580911104	55	5182
2026-01-25 11:53:52.49	251.62	83.15	-42.3	-45.0	23.7	6.06e-01	0	38	0	583008256	55	5115
2026-01-25 11:53:53.20	255.33	83.16	-42.3	-44.9	24.3	6.05e-01	0	38	0	584581120	55	5058
2026-01-25 11:53:54.64	262.78	83.08	-42.1	-44.6	24.7	6.07e-01	0	38	0	587202560	55	4896
2026-01-25 11:53:55.35	266.36	82.99	-41.9	-44.3	25.0	6.06e-01	0	38	0	588775424	55	4720
2026-01-25 11:53:56.68	272.79	82.77	-41.9	-44.4	24.9	6.08e-01	0	38	0	590872576	55	4772
2026-01-25 11:53:57.64	277.15	82.56	-41.6	-44.0	25.3	6.07e-01	0	38	0	592969728	55	4583
2026-01-25 11:53:58.95	282.67	82.20	-41.8	-44.2	25.1	6.05e-01	0	38	0	595066880	55	4698
2026-01-25 11:53:59.66	285.44	81.99	-41.8	-44.2	25.2	6.06e-01	0	38	0	596639744	55	4701
2026-01-25 11:54:00.94	290.04	81.55	-42.1	-44.5	24.8	6.07e-01	0	38	0	599261184	55	4851
2026-01-25 11:54:01.67	292.45	81.28	-42.2	-44.6	24.6	6.03e-01	0	38	0	600309760	55	4912
2026-01-25 11:54:02.94	296.29	80.77	-42.6	-45.1	24.2	6.06e-01	0	38	0	602931200	55	5199
2026-01-25 11:54:03.65	298.25	80.47	-42.5	-45.0	24.4	6.06e-01	0	38	0	603979776	55	5137
2026-01-25 11:54:04.93	301.48	79.91	-42.8	-45.4	24.2	6.06e-01	0	38	0	606601216	56	5058
2026-01-25 11:54:05.65	303.14	79.58	-42.9	-45.5	23.9	6.07e-01	0	38	0	607649792	56	5133
2026-01-25 11:54:07.03	306.03	78.94	-42.9	-45.5	23.4	6.05e-01	0	38	0	610271232	57	4825
2026-01-25 11:54:07.75	307.41	78.59	-43.4	-46.1	23.2	6.07e-01	0	38	0	611844096	57	5194
2026-01-25 11:54:09.02	309.64	77.97	-43.2	-46.0	22.9	6.07e-01	0	38	0	613941248	57	5122
2026-01-25 11:54:09.76	310.83	77.60	-43.4	-46.2	22.8	6.07e-01	0	38	0	615514112	57	5230
2026-01-25 11:54:11.05	312.74	76.94	-43.6	-46.4	23.2	6.07e-01	0	38	0	618135552	57	5391
2026-01-25 11:54:11.77	313.72	76.57	-43.8	-46.6	23.0	6.06e-01	0	38	0	619184128	58	5200
2026-01-25 11:54:13.24	315.56	75.81	-43.6	-46.5	23.0	6.05e-01	0	38	0	622329856	59	4851
2026-01-25 11:54:13.95	316.38	75.44	-43.8	-46.8	22.9	6.07e-01	0	38	0	623378432	58	5319
2026-01-25 11:54:15.23	317.75	74.76	-44.3	-47.3	22.4	6.06e-01	0	38	0	625999872	59	5320
2026-01-25 11:54:15.96	318.48	74.38	-44.3	-47.3	22.5	6.07e-01	0	38	0	627048448	59	5290
2026-01-25 11:54:17.24	319.66	73.70	-44.4	-47.4	22.3	6.06e-01	0	38	0	629669888	59	5383
2026-01-25 11:54:17.95	320.28	73.32	-44.5	-47.5	22.2	6.06e-01	0	38	0	630718464	59	5448
2026-01-25 11:54:19.23	321.32	72.64	-44.7	-47.7	22.0	6.07e-01	0	38	0	633339904	59	5573
2026-01-25 11:54:19.94	321.86	72.26	-45.0	-48.2	21.4	6.07e-01	0	38	0	634912768	60	5577
2026-01-25 11:54:21.22	322.77	71.58	-44.6	-47.7	22.0	6.07e-01	0	38	0	637009920	60	5220
2026-01-25 11:54:21.94	323.25	71.20	-44.3	-47.3	22.3	6.07e-01	0	38	0	638582784	60	5008
2026-01-25 11:54:23.22	324.06	70.52	-44.7	-47.9	21.7	6.05e-01	0	38	0	640679936	60	5384
2026-01-25 11:54:23.95	324.50	70.13	-44.8	-48.1	21.3	6.07e-01	0	37	0	642252800	60	5487
2026-01-25 11:54:25.23	325.22	69.45	-44.8	-47.9	21.6	6.05e-01	0	38	0	644349952	60	5342
2026-01-25 11:54:26.05	325.66	69.02	-44.7	-47.7	21.8	6.04e-01	0	37	0	645922816	60	5244
2026-01-25 11:54:27.49	326.38	68.26	-45.3	-48.8	20.8	6.06e-01	0	38	0	649068544	61	5650
2026-01-25 11:54:28.20	326.72	67.89	-44.8	-48.1	21.5	6.06e-01	0	38	0	650117120	61	5215
2026-01-25 11:54:29.48	327.29	67.22	-44.8	-47.9	21.7	6.07e-01	0	38	0	652738560	61	5089
2026-01-25 11:54:30.19	327.60	66.85	-44.3	-47.3	22.3	6.07e-01	0	38	0	653787136	60	4986
2026-01-25 11:54:31.50	328.13	66.17	-45.1	-48.3	21.4	6.05e-01	0	38	0	656408576	60	5622
2026-01-25 11:54:32.21	328.40	65.80	-45.2	-48.4	21.1	6.04e-01	0	38	0	657457152	61	5393
2026-01-25 11:54:33.49	328.88	65.15	-44.0	-46.9	22.8	6.08e-01	0	38	0	660078592	59	5044
2026-01-25 11:54:34.21	329.13	64.78	-43.7	-46.5	23.2	6.07e-01	0	38	0	661651456	59	4821
2026-01-25 11:54:35.49	329.57	64.13	-43.9	-46.8	22.9	6.01e-01	0	38	0	663748608	59	5012
2026-01-25 11:54:36.22	329.80	63.76	-43.7	-46.5	23.1	6.09e-01	0	38	0	665321472	59	4855
2026-01-25 11:54:37.49	330.20	63.12	-43.3	-46.0	23.7	6.05e-01	0	38	0	667418624	58	4819
2026-01-25 11:54:38.21	330.41	62.76	-43.2	-45.7	23.9	6.06e-01	0	38	0	668991488	58	4686
2026-01-25 11:54:39.53	330.79	62.11	-43.0	-45.6	24.0	6.07e-01	0	38	0	671088640	58	4633
2026-01-25 11:54:40.24	330.98	61.76	-42.7	-45.3	24.3	6.06e-01	0	38	0	672661504	57	4720
2026-01-25 11:54:41.52	331.32	61.13	-42.7	-45.3	24.3	6.07e-01	0	38	0	675282944	57	4717
2026-01-25 11:54:42.24	331.51	60.78	-42.8	-45.3	24.1	6.06e-01	0	38	0	676331520	57	4758
2026-01-25 11:54:43.52	331.82	60.16	-42.6	-45.1	24.4	6.07e-01	0	38	0	678952960	57	4618
2026-01-25 11:54:44.23	331.98	59.82	-42.4	-44.8	24.8	6.07e-01	0	38	0	680001536	56	4708
2026-01-25 11:54:45.72	332.32	59.11	-42.5	-45.0	24.5	6.07e-01	0	38	0	683147264	56	4837
2026-01-25 11:54:46.43	332.48	58.78	-42.2	-44.7	24.8	6.06e-01	0	38	0	684195840	56	4676
2026-01-25 11:54:47.75	332.75	58.16	-42.4	-44.8	24.7	6.05e-01	0	38	0	686817280	56	4739
2026-01-25 11:54:48.46	332.90	57.83	-42.2	-44.7	24.8	6.08e-01	0	38	0	687865856	56	4666
2026-01-25 11:54:49.74	333.15	57.24	-42.0	-44.4	25.1	6.07e-01	0	38	0	690487296	56	4523
2026-01-25 11:54:50.46	333.28	56.91	-41.6	-44.1	25.3	6.07e-01	0	38	0	692060160	55	4602
2026-01-25 11:54:51.73	333.52	56.33	-41.2	-43.6	25.7	6.07e-01	0	38	0	694157312	54	4625
2026-01-25 11:54:52.44	333.64	56.01	-41.3	-43.7	25.6	6.07e-01	0	38	0	695730176	54	4666
2026-01-25 11:54:53.72	333.86	55.44	-41.2	-43.6	25.7	6.06e-01	0	38	0	697827328	54	4625
2026-01-25 11:54:54.45	333.98	55.12	-41.1	-43.6	25.7	6.06e-01	0	38	0	699400192	54	4624
2026-01-25 11:54:55.73	334.19	54.56	-40.8	-43.3	26.0	6.04e-01	0	38	0	701497344	53	4712
2026-01-25 11:54:56.44	334.30	54.25	-41.0	-43.5	25.8	6.08e-01	0	38	0	703070208	53	4817
2026-01-25 11:54:57.72	334.50	53.69	-41.0	-43.3	25.9	6.04e-01	0	38	0	705691648	53	4759
2026-01-25 11:54:58.45	334.61	53.38	-41.1	-43.3	25.9	6.06e-01	0	38	0	706740224	53	4755
2026-01-25 11:54:59.73	334.79	52.84	-41.0	-43.2	26.0	6.06e-01	0	38	0	709361664	53	4696
2026-01-25 11:55:00.44	334.89	52.54	-41.0	-43.2	26.0	6.06e-01	0	38	0	710410240	53	4704
2026-01-25 11:55:01.72	335.06	52.00	-41.3	-43.6	25.7	6.06e-01	0	38	0	713031680	53	4883
2026-01-25 11:55:02.44	335.16	51.70	-41.5	-43.8	25.4	6.06e-01	0	38	0	714080256	53	5034
2026-01-25 11:55:03.71	335.32	51.18	-41.3	-43.6	25.7	6.06e-01	0	38	0	716701696	53	4916
2026-01-25 11:55:04.42	335.41	50.89	-41.2	-43.6	25.6	6.06e-01	0	38	0	718274560	53	4912
2026-01-25 11:55:05.70	335.57	50.37	-41.5	-43.9	25.4	6.05e-01	0	38	0	720371712	53	5056
2026-01-25 11:55:06.44	335.65	50.08	-41.8	-44.3	25.1	6.06e-01	0	38	0	721944576	54	5003
2026-01-25 11:55:07.72	335.80	49.57	-42.0	-44.4	25.0	6.05e-01	0	38	0	724041728	54	5055
2026-01-25 11:55:08.43	335.88	49.29	-41.9	-44.3	25.1	6.03e-01	0	38	0	725614592	54	5019
2026-01-25 11:55:09.71	336.02	48.79	-41.9	-44.3	25.0	6.06e-01	0	38	0	727711744	54	4992
2026-01-25 11:55:10.42	336.10	48.52	-41.8	-44.1	25.3	6.07e-01	0	38	0	729284608	54	4891
2026-01-25 11:55:11.70	336.23	48.03	-41.7	-44.0	25.3	6.06e-01	0	38	0	731906048	54	4834
2026-01-25 11:55:12.41	336.31	47.76	-41.7	-44.1	25.2	6.05e-01	0	37	0	732954624	54	4881
2026-01-25 11:55:13.69	336.43	47.28	-41.7	-44.1	25.2	6.05e-01	0	38	0	735576064	54	4894
2026-01-25 11:55:14.40	336.50	47.01	-41.7	-44.1	25.3	6.07e-01	0	37	0	736624640	54	4884
2026-01-25 11:55:15.68	336.63	46.54	-41.8	-44.3	25.1	6.08e-01	0	38	0	739246080	54	4987
2026-01-25 11:55:16.42	336.69	46.27	-41.9	-44.4	25.0	6.06e-01	0	38	0	740294656	54	5067
2026-01-25 11:55:17.70	336.81	45.81	-42.0	-44.5	24.9	6.05e-01	0	38	0	742916096	54	5115
2026-01-25 11:55:18.43	336.88	45.54	-42.1	-44.6	24.8	6.04e-01	0	38	0	744488960	54	5171
2026-01-25 11:55:19.74	336.99	45.08	-41.9	-44.3	25.0	6.08e-01	0	38	0	746586112	54	5036
2026-01-25 11:55:20.45	337.05	44.83	-41.8	-44.3	25.1	6.05e-01	0	38	0	748158976	54	4985
2026-01-25 11:55:21.72	337.16	44.38	-41.8	-44.3	25.1	6.05e-01	0	38	0	750256128	54	4987
2026-01-25 11:55:22.44	337.22	44.14	-41.9	-44.4	24.9	6.05e-01	0	38	0	751828992	54	5082
2026-01-25 11:55:23.72	337.32	43.70	-41.7	-44.3	25.0	6.05e-01	0	38	0	754450432	54	4999
2026-01-25 11:55:24.44	337.38	43.45	-41.7	-44.3	25.0	6.06e-01	0	38	0	755499008	54	5008
2026-01-25 11:55:25.72	337.47	43.02	-42.0	-44.7	24.6	6.07e-01	0	38	0	758120448	54	5265
2026-01-25 11:55:26.44	337.53	42.78	-42.1	-44.9	24.5	6.07e-01	0	38	0	759169024	54	5350
2026-01-25 11:55:27.71	337.62	42.36	-42.3	-45.0	24.4	6.07e-01	0	38	0	761790464	55	5125
2026-01-25 11:55:28.55	337.68	42.09	-42.2	-44.9	24.4	6.07e-01	0	38	0	763363328	55	5094
2026-01-25 11:55:29.69	337.76	41.72	-42.2	-44.9	24.5	6.06e-01	0	37	0	765460480	55	5043
2026-01-25 11:55:30.54	337.82	41.44	-42.3	-44.9	24.5	6.06e-01	0	38	0	767033344	55	5080
2026-01-25 11:55:31.68	337.90	41.08	-42.5	-45.0	24.4	6.07e-01	0	38	0	769130496	55	5154
2026-01-25 11:55:32.53	337.96	40.81	-42.7	-45.3	24.1	6.04e-01	0	38	0	770703360	55	5308
2026-01-25 11:55:33.67	338.03	40.45	-43.1	-45.9	23.7	6.06e-01	0	38	0	772800512	56	5353
2026-01-25 11:55:34.52	338.09	40.19	-43.0	-45.8	23.7	6.06e-01	0	38	0	774373376	56	5281
2026-01-25 11:55:35.66	338.16	39.84	-42.7	-45.3	24.1	6.05e-01	0	38	0	776470528	56	5035
2026-01-25 11:55:36.51	338.21	39.58	-42.8	-45.4	24.1	6.07e-01	0	38	0	778043392	56	5063
2026-01-25 11:55:37.65	338.28	39.24	-42.8	-45.4	24.1	6.03e-01	0	38	0	780140544	56	5072
2026-01-25 11:55:38.50	338.33	38.98	-42.9	-45.5	23.9	6.08e-01	0	38	0	781713408	56	5151
2026-01-25 11:55:39.64	338.40	38.65	-43.0	-45.7	23.8	6.04e-01	0	38	0	784334848	56	5241
2026-01-25 11:55:40.49	338.45	38.40	-43.1	-45.7	23.7	6.05e-01	0	38	0	785907712	56	5277
2026-01-25 11:55:41.63	338.52	38.06	-43.0	-45.5	24.0	6.06e-01	0	38	0	788004864	56	5149
2026-01-25 11:55:42.48	338.56	37.82	-42.9	-45.5	24.0	6.07e-01	0	38	0	789577728	56	5114
2026-01-25 11:55:43.62	338.63	37.49	-42.9	-45.4	24.1	6.04e-01	0	38	0	791674880	56	5056
2026-01-25 11:55:44.47	338.67	37.25	-42.7	-45.2	24.3	6.08e-01	0	38	0	793247744	56	4962
2026-01-25 11:55:45.61	338.73	36.93	-42.5	-45.0	24.4	6.05e-01	0	38	0	795344896	56	4856
2026-01-25 11:55:46.46	338.78	36.70	-42.6	-45.1	24.4	6.06e-01	0	38	0	796917760	56	4908
2026-01-25 11:55:47.62	338.84	36.38	-42.1	-44.6	24.8	6.05e-01	0	38	0	799014912	56	4634
2026-01-25 11:55:48.47	338.88	36.14	-41.8	-44.3	25.0	6.04e-01	0	38	0	800587776	55	4728
2026-01-25 11:55:49.61	338.94	35.84	-41.7	-44.4	25.0	6.06e-01	0	38	0	802684928	55	4761
2026-01-25 11:55:50.46	338.98	35.61	-41.5	-44.2	25.1	6.06e-01	0	38	0	804257792	55	4659
2026-01-25 11:55:51.60	339.04	35.30	-41.5	-44.2	25.1	6.06e-01	0	38	0	806354944	54	4967
2026-01-25 11:55:52.45	339.08	35.08	-41.5	-44.2	25.0	6.05e-01	0	38	0	807927808	54	4960
2026-01-25 11:55:53.59	339.13	34.78	-41.5	-44.1	25.1	6.07e-01	0	38	0	810024960	54	4911
2026-01-25 11:55:54.44	339.17	34.56	-41.4	-44.0	25.0	6.07e-01	0	38	0	812122112	54	4855
2026-01-25 11:55:55.57	339.22	34.27	-41.5	-43.9	25.3	6.04e-01	0	38	0	813694976	54	4810
2026-01-25 11:55:56.62	339.27	34.00	-41.4	-43.8	25.4	6.06e-01	0	38	0	815792128	54	4726
2026-01-25 11:55:57.78	339.32	33.71	-41.2	-43.5	25.7	6.07e-01	0	38	0	817889280	54	4586
2026-01-25 11:55:58.64	339.36	33.50	-41.1	-43.5	25.7	6.07e-01	0	38	0	819986432	54	4551
2026-01-25 11:56:00.06	339.42	33.15	-41.0	-43.3	25.8	6.07e-01	0	38	0	822607872	54	4492
2026-01-25 11:56:00.77	339.45	32.97	-41.0	-43.3	25.8	6.05e-01	0	37	0	823656448	54	4476
2026-01-25 11:56:02.26	339.51	32.61	-40.7	-43.1	25.5	6.07e-01	0	38	0	826277888	53	4607
2026-01-25 11:56:03.24	339.55	32.37	-40.5	-42.9	26.1	6.07e-01	0	38	0	828375040	53	4528
2026-01-25 11:56:04.23	339.59	32.14	-40.4	-42.9	26.2	6.04e-01	0	38	0	829947904	52	4798
2026-01-25 11:56:05.23	339.63	31.90	-40.4	-43.0	26.1	6.08e-01	0	38	0	832045056	52	4825
2026-01-25 11:56:06.22	339.67	31.67	-40.2	-42.9	26.2	6.05e-01	0	38	0	834142208	52	4760
2026-01-25 11:56:07.22	339.71	31.44	-40.3	-43.0	26.2	6.06e-01	0	38	0	835715072	52	4830
2026-01-25 11:56:08.21	339.75	31.21	-40.4	-43.1	26.1	6.07e-01	0	38	0	837812224	52	4879
2026-01-25 11:56:09.26	339.79	30.97	-40.5	-43.1	26.0	6.05e-01	0	38	0	839385088	52	4885
2026-01-25 11:56:10.25	339.82	30.75	-40.7	-43.2	26.0	6.03e-01	0	38	0	841482240	52	4929
2026-01-25 11:56:11.24	339.86	30.52	-40.7	-43.1	26.1	6.05e-01	0	38	0	843579392	52	4883
2026-01-25 11:56:12.24	339.90	30.30	-40.8	-43.1	26.0	6.05e-01	0	37	0	845152256	52	4922
2026-01-25 11:56:13.24	339.93	30.08	-40.8	-43.1	26.0	6.06e-01	0	38	0	847249408	52	4916
2026-01-25 11:56:14.23	339.97	29.86	-40.9	-43.2	25.9	6.04e-01	0	38	0	848822272	52	4973
2026-01-25 11:56:15.23	340.00	29.64	-40.8	-43.2	26.0	6.06e-01	0	38	0	850919424	52	4942
2026-01-25 11:56:16.22	340.04	29.43	-40.7	-43.1	26.0	6.05e-01	0	38	0	852492288	52	4884
2026-01-25 11:56:17.22	340.07	29.22	-40.7	-43.2	25.9	6.02e-01	0	38	0	854589440	52	4956
2026-01-25 11:56:18.21	340.10	29.01	-40.8	-43.2	25.9	6.05e-01	0	38	0	856162304	52	4966
2026-01-25 11:56:19.21	340.14	28.80	-40.8	-43.2	25.9	6.06e-01	0	38	0	858259456	52	4966
2026-01-25 11:56:20.20	340.17	28.59	-41.0	-43.3	25.8	6.04e-01	0	38	0	860356608	52	5036
2026-01-25 11:56:21.20	340.20	28.38	-41.0	-43.4	25.7	6.05e-01	0	38	0	861929472	52	5084
2026-01-25 11:56:22.19	340.23	28.18	-40.9	-43.5	25.6	6.04e-01	0	38	0	864026624	52	5106
2026-01-25 11:56:23.18	340.26	27.98	-41.0	-43.5	25.4	6.06e-01	0	38	0	865599488	52	5159
2026-01-25 11:56:24.23	340.30	27.77	-40.9	-43.6	25.5	6.05e-01	0	38	0	867696640	52	5191
2026-01-25 11:56:25.23	340.33	27.57	-41.0	-43.7	25.5	6.03e-01	0	38	0	869269504	52	5224
2026-01-25 11:56:26.28	340.36	27.36	-41.0	-43.7	25.3	6.06e-01	0	38	0	871366656	52	5249
2026-01-25 11:56:27.25	340.39	27.16	-41.0	-43.7	25.4	6.06e-01	0	38	0	873463808	52	5270
2026-01-25 11:56:28.24	340.42	26.97	-41.1	-43.8	25.4	6.06e-01	0	38	0	875036672	52	5308
2026-01-25 11:56:29.33	340.45	26.76	-41.3	-43.8	25.3	6.06e-01	0	38	0	877133824	53	5036
2026-01-25 11:56:30.22	340.48	26.59	-41.5	-44.0	25.2	6.07e-01	0	38	0	878706688	53	5106
2026-01-25 11:56:31.53	340.52	26.34	-41.5	-43.9	25.2	6.06e-01	0	38	0	881328128	53	5099
2026-01-25 11:56:32.24	340.54	26.20	-41.5	-44.0	25.2	6.05e-01	0	38	0	882900992	53	5113
2026-01-25 11:56:33.72	340.58	25.92	-41.5	-44.1	25.2	6.05e-01	0	38	0	885522432	53	5185
2026-01-25 11:56:34.43	340.60	25.79	-41.5	-44.1	25.1	6.08e-01	0	38	0	886571008	53	5217
2026-01-25 11:56:35.71	340.63	25.55	-41.4	-44.2	25.1	6.07e-01	0	38	0	889192448	53	5223
2026-01-25 11:56:36.43	340.65	25.42	-41.5	-44.3	24.9	6.07e-01	0	38	0	890765312	53	5312
2026-01-25 11:56:37.70	340.69	25.19	-41.4	-44.3	24.9	6.06e-01	0	38	0	892862464	53	5300
2026-01-25 11:56:38.42	340.71	25.06	-41.4	-44.2	25.0	6.04e-01	0	38	0	894435328	53	5262
2026-01-25 11:56:39.70	340.74	24.83	-41.5	-44.3	24.9	6.04e-01	0	38	0	896532480	53	5287
2026-01-25 11:56:40.42	340.76	24.70	-41.5	-44.2	25.0	6.05e-01	0	38	0	898105344	53	5276
2026-01-25 11:56:41.70	340.80	24.47	-41.7	-44.3	24.9	6.06e-01	0	38	0	900202496	53	5326
2026-01-25 11:56:42.57	340.82	24.32	-41.7	-44.3	24.9	6.05e-01	0	38	0	902299648	54	5029
2026-01-25 11:56:43.71	340.85	24.12	-41.7	-44.4	24.8	6.07e-01	0	38	0	904396800	54	5047
2026-01-25 11:56:44.56	340.87	23.97	-41.7	-44.3	24.9	6.07e-01	0	38	0	905969664	54	4998
2026-01-25 11:56:45.70	340.90	23.78	-41.7	-44.3	24.9	6.07e-01	0	37	0	908066816	54	4998
2026-01-25 11:56:46.55	340.92	23.63	-41.7	-44.3	24.9	6.06e-01	0	37	0	909639680	54	5020
2026-01-25 11:56:47.69	340.95	23.44	-41.8	-44.4	24.7	6.05e-01	0	38	0	911736832	54	5099
2026-01-25 11:56:48.54	340.97	23.30	-41.7	-44.4	24.8	6.06e-01	0	38	0	913309696	54	5087
2026-01-25 11:56:49.68	340.99	23.11	-41.6	-44.4	24.7	6.07e-01	0	38	0	915406848	54	5085
2026-01-25 11:56:50.53	341.01	22.96	-41.4	-44.3	24.9	6.04e-01	0	38	0	916979712	54	5023
2026-01-25 11:56:51.67	341.04	22.78	-41.2	-44.2	24.9	6.06e-01	0	38	0	919076864	54	4961
2026-01-25 11:56:52.52	341.06	22.64	-41.2	-44.2	25.0	6.07e-01	0	38	0	920649728	54	4952
2026-01-25 11:56:53.66	341.09	22.45	-41.2	-44.3	24.9	6.05e-01	0	38	0	922746880	54	4985
2026-01-25 11:56:54.51	341.11	22.31	-41.2	-44.2	24.9	6.06e-01	0	38	0	924319744	54	4932
2026-01-25 11:56:55.64	341.13	22.13	-41.4	-44.1	25.0	6.07e-01	0	38	0	926416896	54	4911
2026-01-25 11:56:56.49	341.15	22.00	-41.5	-44.1	25.0	6.07e-01	0	38	0	927989760	54	4886
2026-01-25 11:56:57.63	341.18	21.82	-41.7	-44.2	24.9	6.06e-01	0	38	0	930086912	54	4938
2026-01-25 11:56:58.48	341.20	21.68	-41.5	-44.0	25.0	6.06e-01	0	38	0	931659776	54	4831
2026-01-25 11:56:59.62	341.22	21.51	-41.6	-44.1	24.9	6.05e-01	0	38	0	933756928	54	4888
2026-01-25 11:57:00.69	341.25	21.34	-41.5	-43.9	25.1	6.06e-01	0	38	0	935854080	54	4794
2026-01-25 11:57:01.72	341.27	21.18	-41.3	-43.8	25.2	6.04e-01	0	38	0	937951232	54	4757
2026-01-25 11:57:02.72	341.29	21.03	-41.2	-43.8	25.3	6.05e-01	0	38	0	940048384	54	4720
2026-01-25 11:57:03.92	341.32	20.85	-41.0	-43.8	25.1	6.07e-01	0	38	0	942145536	54	4759
2026-01-25 11:57:04.80	341.33	20.71	-41.0	-43.8	25.2	6.05e-01	0	38	0	943718400	54	4738
2026-01-25 11:57:06.11	341.36	20.52	-41.1	-44.0	25.0	6.06e-01	0	38	0	946339840	54	4830
2026-01-25 11:57:06.83	341.38	20.41	-41.2	-44.0	25.1	6.07e-01	0	38	0	947388416	54	4852
2026-01-25 11:57:08.10	341.40	20.22	-41.4	-44.0	25.1	6.05e-01	0	38	0	950009856	54	4852
2026-01-25 11:57:08.82	341.42	20.12	-41.3	-43.9	25.1	6.06e-01	0	38	0	951058432	54	4796
2026-01-25 11:57:10.10	341.44	19.93	-41.4	-44.0	25.2	6.07e-01	0	38	0	953679872	54	4815
2026-01-25 11:57:10.81	341.46	19.83	-41.5	-44.0	23.0	6.03e-01	0	38	0	955252736	54	4836
2026-01-25 11:57:12.09	341.48	19.64	-41.6	-44.0	25.1	6.06e-01	0	38	0	957349888	54	4838
2026-01-25 11:57:12.81	341.50	19.54	-41.6	-44.0	25.2	6.06e-01	0	38	0	958922752	54	4839
2026-01-25 11:57:14.10	341.52	19.36	-41.6	-44.0	25.1	6.06e-01	0	38	0	961019904	54	4836
2026-01-25 11:57:14.82	341.54	19.26	-41.5	-43.9	25.2	6.05e-01	0	38	0	962592768	54	4791
2026-01-25 11:57:16.10	341.56	19.08	-41.4	-43.8	25.3	6.05e-01	0	38	0	964689920	54	4715
2026-01-25 11:57:16.81	341.57	18.98	-41.4	-43.8	25.3	6.06e-01	0	38	0	966262784	54	4748
2026-01-25 11:57:18.11	341.60	18.80	-41.3	-43.8	25.3	6.07e-01	0	38	0	968884224	54	4710
2026-01-25 11:57:18.82	341.61	18.70	-41.2	-43.7	24.9	6.08e-01	0	38	0	969932800	54	4680
2026-01-25 11:57:20.09	341.64	18.52	-41.1	-43.7	25.4	6.05e-01	0	38	0	972554240	54	4654
2026-01-25 11:57:20.80	341.65	18.43	-41.1	-43.6	25.4	6.06e-01	0	38	0	973602816	54	4637
2026-01-25 11:57:22.23	341.68	18.23	-41.2	-43.8	25.3	6.07e-01	0	38	0	976224256	54	4714
2026-01-25 11:57:22.94	341.69	18.14	-41.2	-43.7	25.3	6.05e-01	0	38	0	977797120	54	4673
2026-01-25 11:57:24.21	341.71	17.97	-41.3	-43.7	25.3	6.05e-01	0	38	0	979894272	54	4693
2026-01-25 11:57:24.92	341.72	17.87	-41.3	-43.7	25.3	6.08e-01	0	38	0	981467136	54	4694
2026-01-25 11:57:26.20	341.75	17.71	-41.2	-43.7	25.4	6.06e-01	0	38	0	984088576	54	4653
2026-01-25 11:57:26.93	341.76	17.61	-41.2	-43.6	25.4	6.06e-01	0	38	0	985137152	54	4648
2026-01-25 11:57:28.21	341.78	17.44	-41.3	-43.7	25.3	6.06e-01	0	38	0	987758592	54	4692
2026-01-25 11:57:28.92	341.80	17.35	-41.2	-43.7	25.4	6.05e-01	0	38	0	988807168	54	4670
2026-01-25 11:57:30.20	341.82	17.19	-41.2	-43.7	25.3	6.07e-01	0	38	0	991428608	54	4689
2026-01-25 11:57:30.97	341.83	17.09	-41.2	-43.8	25.3	6.07e-01	0	38	0	993001472	54	4708
2026-01-25 11:57:32.25	341.85	16.92	-41.1	-43.8	25.2	6.07e-01	0	38	0	995098624	54	4746
2026-01-25 11:57:32.98	341.87	16.83	-41.1	-43.8	25.1	6.05e-01	0	38	0	996671488	54	4755
2026-01-25 11:57:34.26	341.89	16.67	-41.0	-43.8	25.2	6.04e-01	0	38	0	998768640	54	4724
2026-01-25 11:57:34.97	341.90	16.58	-41.0	-43.9	25.1	6.06e-01	0	38	0	1000341504	54	4763
2026-01-25 11:57:36.25	341.92	16.42	-41.1	-43.9	25.0	6.05e-01	0	38	0	1002962944	54	4766
2026-01-25 11:57:37.18	341.94	16.31	-41.1	-43.9	25.0	6.06e-01	0	38	0	1004535808	54	4796
2026-01-25 11:57:38.46	341.96	16.15	-41.1	-43.9	24.9	6.07e-01	0	38	0	1006632960	54	4776
2026-01-25 11:57:39.20	341.97	16.06	-41.2	-43.9	24.8	6.06e-01	0	38	0	1008205824	54	4806
2026-01-25 11:57:40.48	341.99	15.90	-41.2	-43.9	24.7	6.08e-01	0	38	0	1010827264	54	4768
2026-01-25 11:57:41.27	342.00	15.81	-41.3	-44.0	24.6	6.05e-01	0	38	0	1011875840	54	4819
2026-01-25 11:57:42.44	342.02	15.67	-41.3	-43.8	24.7	6.06e-01	0	38	0	1014497280	54	4757
2026-01-25 11:57:43.29	342.04	15.56	-41.3	-43.8	24.8	6.06e-01	0	38	0	1016070144	54	4744
2026-01-25 11:57:44.43	342.05	15.43	-41.3	-43.9	24.7	6.03e-01	0	38	0	1018167296	54	4762
2026-01-25 11:57:45.28	342.07	15.33	-41.3	-43.8	24.7	6.04e-01	0	38	0	1019740160	54	4736
2026-01-25 11:57:46.42	342.08	15.19	-41.3	-43.9	24.6	6.08e-01	0	38	0	1021837312	54	4768
2026-01-25 11:57:47.27	342.10	15.09	-41.2	-43.9	24.7	6.06e-01	0	38	0	1023410176	54	4763
2026-01-25 11:57:48.41	342.12	14.96	-41.1	-43.9	24.5	6.06e-01	0	38	0	1025507328	54	4779
2026-01-25 11:57:49.26	342.13	14.86	-41.0	-43.8	24.8	6.08e-01	0	38	0	1027080192	54	4713
2026-01-25 11:57:50.40	342.15	14.73	-41.0	-43.8	24.8	6.06e-01	0	38	0	1029177344	54	4748
2026-01-25 11:57:51.26	342.16	14.63	-40.9	-43.8	24.9	6.06e-01	0	38	0	1030750208	53	4990
2026-01-25 11:57:52.57	342.18	14.48	-40.9	-43.8	24.9	6.05e-01	0	37	0	1033371648	53	5008
2026-01-25 11:57:53.28	342.19	14.40	-40.9	-43.9	24.8	6.06e-01	0	38	0	1034420224	53	5046
2026-01-25 11:57:54.56	342.21	14.26	-40.9	-43.8	24.9	6.06e-01	0	38	0	1037041664	53	4995
2026-01-25 11:57:55.27	342.22	14.18	-40.8	-43.7	24.9	6.07e-01	0	38	0	1038614528	53	4964
2026-01-25 11:57:56.55	342.24	14.04	-40.9	-43.8	24.8	6.05e-01	0	38	0	1040711680	53	5008
2026-01-25 11:57:57.29	342.25	13.95	-40.9	-43.8	24.6	6.05e-01	0	38	0	1042284544	53	5026
2026-01-25 11:57:58.57	342.27	13.81	-41.0	-43.9	23.2	6.07e-01	0	38	0	1044381696	53	5052
2026-01-25 11:57:59.28	342.28	13.73	-40.9	-43.8	24.9	6.08e-01	0	38	0	1045954560	53	5014
2026-01-25 11:58:00.56	342.30	13.59	-41.0	-43.9	24.7	6.06e-01	0	38	0	1048051712	53	5048
2026-01-25 11:58:01.27	342.31	13.52	-41.0	-43.8	24.8	6.06e-01	0	38	0	1049624576	53	5018
2026-01-25 11:58:02.55	342.32	13.38	-41.0	-44.0	24.6	6.05e-01	0	38	0	1052246016	53	5108
2026-01-25 11:58:03.26	342.33	13.30	-40.9	-43.9	24.6	6.08e-01	0	38	0	1053294592	53	5083
2026-01-25 11:58:04.55	342.35	13.16	-40.9	-44.0	24.4	6.07e-01	0	38	0	1055916032	53	5114
2026-01-25 11:58:05.26	342.36	13.09	-40.9	-44.0	24.5	6.07e-01	0	38	0	1056964608	53	5112
2026-01-25 11:58:06.61	342.38	12.94	-40.9	-43.9	24.4	6.07e-01	0	38	0	1059586048	53	5091
2026-01-25 11:58:07.33	342.39	12.87	-40.9	-44.0	24.4	6.06e-01	0	38	0	1061158912	53	5138
2026-01-25 11:58:08.60	342.41	12.73	-41.0	-44.2	24.2	6.06e-01	0	38	0	1063256064	53	5230
2026-01-25 11:58:09.68	342.42	12.62	-41.0	-44.2	24.2	6.06e-01	0	38	0	1065353216	53	5251
2026-01-25 11:58:10.83	342.44	12.50	-41.1	-44.4	24.1	6.01e-01	0	38	0	1067450368	53	5353
2026-01-25 11:58:11.84	342.45	12.40	-41.1	-44.3	24.2	6.01e-01	0	38	0	1069547520	53	5283
2026-01-25 11:58:12.84	342.47	12.29	-41.1	-44.2	24.3	6.01e-01	0	38	0	1071120384	53	5237
2026-01-25 11:58:13.84	342.48	12.19	-41.1	-44.2	24.4	6.00e-01	0	38	0	1073217536	53	5246
2026-01-25 11:58:14.83	342.49	12.09	-41.2	-44.3	24.4	6.03e-01	0	38	0	1074790400	53	5320
2026-01-25 11:58:15.83	342.51	11.99	-41.2	-44.3	24.4	6.03e-01	0	38	0	1076887552	53	5298
2026-01-25 11:58:16.83	342.52	11.89	-41.3	-44.4	24.3	5.99e-01	0	38	0	1078984704	53	5380
2026-01-25 11:58:17.82	342.53	11.79	-41.3	-44.3	24.2	6.03e-01	0	38	0	1080557568	53	5338
2026-01-25 11:58:18.82	342.54	11.69	-41.3	-44.3	24.4	6.02e-01	0	38	0	1082654720	53	5324
2026-01-25 11:58:19.81	342.56	11.59	-41.4	-44.4	24.3	6.01e-01	0	38	0	1084227584	53	5381
2026-01-25 11:58:20.80	342.57	11.49	-41.4	-44.4	24.4	6.04e-01	0	38	0	1086324736	53	5368
2026-01-25 11:58:21.80	342.58	11.39	-41.3	-44.4	24.4	5.99e-01	0	38	0	1087897600	53	5354
2026-01-25 11:58:22.86	342.60	11.29	-41.3	-44.4	24.5	6.02e-01	0	38	0	1089994752	53	5370
2026-01-25 11:58:23.76	342.61	11.20	-41.4	-44.5	24.4	5.99e-01	0	38	0	1091567616	53	5412
2026-01-25 11:58:25.04	342.62	11.07	-41.4	-44.5	24.3	6.05e-01	0	38	0	1094189056	53	5419
2026-01-25 11:58:25.78	342.63	11.00	-41.4	-44.5	24.2	6.02e-01	0	38	0	1095761920	53	5433
2026-01-25 11:58:27.06	342.65	10.88	-41.4	-44.5	24.3	6.04e-01	0	38	0	1097859072	53	5425
2026-01-25 11:58:27.77	342.66	10.81	-41.4	-44.5	24.3	6.00e-01	0	38	0	1099431936	53	5453
2026-01-25 11:58:29.05	342.67	10.69	-41.5	-44.6	24.3	6.00e-01	0	38	0	1101529088	53	5494
2026-01-25 11:58:29.76	342.68	10.62	-41.5	-44.6	24.3	6.04e-01	0	38	0	1103101952	53	5483
2026-01-25 11:58:31.05	342.70	10.50	-41.5	-44.6	24.2	6.00e-01	0	38	0	1105723392	53	5515
2026-01-25 11:58:31.77	342.71	10.43	-41.4	-44.5	24.3	6.04e-01	0	38	0	1106771968	53	5456
2026-01-25 11:58:33.05	342.72	10.31	-41.5	-44.7	24.2	6.00e-01	0	38	0	1109393408	53	5551
2026-01-25 11:58:33.79	342.73	10.24	-41.4	-44.6	24.2	5.99e-01	0	38	0	1110441984	53	5509
2026-01-25 11:58:35.07	342.75	10.12	-41.4	-44.6	24.3	5.99e-01	0	38	0	1113063424	53	5509
2026-01-25 11:58:35.78	342.76	10.05	-41.4	-44.7	24.1	6.01e-01	0	38	0	1114112000	53	5567
2026-01-25 11:58:37.06	342.77	9.93	-41.4	-44.7	23.9	6.02e-01	0	38	0	1116733440	53	5585
2026-01-25 11:58:37.77	342.78	9.87	-41.4	-44.8	24.0	6.02e-01	0	38	0	1117782016	53	5652
2026-01-25 11:58:39.13	342.80	9.74	-41.4	-44.8	24.0	6.03e-01	0	38	0	1120403456	53	5632
2026-01-25 11:58:39.84	342.80	9.68	-41.3	-44.8	24.0	6.00e-01	0	38	0	1121976320	53	5608
2026-01-25 11:58:41.17	342.82	9.56	-41.0	-44.8	24.0	6.02e-01	0	38	0	1124597760	53	5607
2026-01-25 11:58:41.88	342.83	9.49	-40.9	-44.9	23.9	5.98e-01	0	38	0	1125646336	53	5668
2026-01-25 11:58:43.22	342.84	9.37	-40.8	-44.9	23.8	6.01e-01	0	38	0	1128267776	53	5692
2026-01-25 11:58:43.93	342.85	9.31	-40.7	-44.8	23.8	6.04e-01	0	38	0	1129316352	53	5636
2026-01-25 11:58:45.21	342.87	9.19	-40.5	-44.9	23.7	6.00e-01	0	38	0	1131937792	53	5688
2026-01-25 11:58:45.92	342.88	9.13	-40.3	-44.9	23.7	6.05e-01	0	38	0	1133510656	52	6043
2026-01-25 11:58:47.20	342.89	9.02	-40.2	-45.1	23.5	6.02e-01	0	38	0	1135607808	52	6156
2026-01-25 11:58:47.91	342.90	8.95	-45.8	-56.7	14.2	6.03e-01	0	38	0	1137180672	62	13244
2026-01-25 11:58:49.19	342.91	8.84	-46.0	-70.0	3.7	7.44e-01	0	38	104	1137180672	63	57777
2026-01-25 11:58:49.89	342.92	8.78	-47.7	-70.1	3.9	7.41e-01	0	38	104	1137180672	65	51626
2026-01-25 11:58:51.17	342.93	8.67	-48.8	-70.5	3.8	7.50e-01	0	38	104	1137180672	68	45462
2026-01-25 11:58:51.90	342.94	8.60	-48.1	-70.6	3.9	7.43e-01	0	38	104	1137180672	66	51681
2026-01-25 11:58:53.17	342.96	8.49	-48.1	-70.7	3.8	7.49e-01	0	38	104	1137180672	68	46829
2026-01-25 11:58:53.88	342.97	8.43	-49.2	-70.8	3.8	7.43e-01	0	38	104	1137180672	69	44707
2026-01-25 11:58:55.16	342.98	8.32	-49.9	-70.8	3.8	7.47e-01	0	38	104	1137180672	70	42383
2026-01-25 11:58:55.90	342.99	8.26	-48.2	-70.9	3.8	7.48e-01	0	38	104	1137180672	68	47680
2026-01-25 11:58:57.18	343.00	8.15	-50.1	-70.9	3.8	7.46e-01	0	38	104	1137180672	72	38094
2026-01-25 11:58:57.93	343.01	8.08	-49.8	-70.9	3.8	7.47e-01	0	38	104	1137180672	71	40387
2026-01-25 11:58:59.21	343.02	7.98	-50.5	-71.0	3.8	7.44e-01	0	38	104	1137180672	72	38257
2026-01-25 11:58:59.94	343.03	7.91	-50.6	-71.0	3.8	7.43e-01	0	38	104	1137180672	72	38267
2026-01-25 11:59:01.21	343.05	7.81	-50.5	-71.0	3.8	7.46e-01	0	38	104	1137180672	72	38377
2026-01-25 11:59:01.95	343.05	7.75	-49.9	-70.9	3.8	7.47e-01	0	38	104	1137180672	71	40110
2026-01-25 11:59:03.23	343.07	7.64	-50.5	-71.0	3.8	7.50e-01	0	38	104	1137180672	71	40905
2026-01-25 11:59:03.97	343.08	7.58	-50.8	-71.0	3.8	7.47e-01	0	38	104	1137180672	72	38374
2026-01-25 11:59:05.25	343.09	7.47	-50.4	-71.0	3.8	7.47e-01	0	38	104	1137180672	72	38465
2026-01-25 11:59:05.99	343.10	7.41	-50.7	-71.0	3.8	7.46e-01	0	38	104	1137180672	72	38473
2026-01-25 11:59:07.27	343.11	7.30	-50.8	-71.0	3.8	7.44e-01	0	38	104	1137180672	72	38419
2026-01-25 11:59:08.02	343.12	7.24	-50.6	-71.0	3.8	7.47e-01	0	38	104	1137180672	72	38269
2026-01-25 11:59:09.30	343.13	7.14	-50.8	-71.0	3.8	7.46e-01	0	38	104	1137180672	72	38257
2026-01-25 11:59:10.06	343.14	7.08	-50.7	-71.0	3.8	7.46e-01	0	38	104	1137180672	72	38447
2026-01-25 11:59:11.33	343.15	6.97	-50.4	-70.9	3.8	7.42e-01	0	38	104	1137180672	72	37899
2026-01-25 11:59:12.06	343.16	6.91	-50.2	-71.0	3.8	7.47e-01	0	38	104	1137180672	71	40542
2026-01-25 11:59:13.34	343.17	6.81	-49.8	-71.0	3.8	7.45e-01	0	38	104	1137180672	70	43241
2026-01-25 11:59:14.09	343.18	6.75	-50.2	-71.0	3.9	7.47e-01	0	38	104	1137180672	71	40804
2026-01-25 11:59:15.37	343.19	6.65	-50.1	-71.0	3.8	7.44e-01	0	38	104	1137180672	71	40683
2026-01-25 11:59:16.11	343.20	6.59	-50.1	-71.0	3.8	7.49e-01	0	38	104	1137180672	71	40624
2026-01-25 11:59:17.39	343.22	6.49	-50.1	-71.0	3.8	7.46e-01	0	38	104	1137180672	71	40632
2026-01-25 11:59:18.10	343.22	6.43	-50.1	-71.0	3.8	7.46e-01	0	38	104	1137180672	71	40677
2026-01-25 11:59:19.37	343.24	6.33	-50.1	-71.0	3.8	7.44e-01	0	38	104	1137180672	71	40611
2026-01-25 11:59:20.08	343.24	6.27	-50.1	-71.0	3.8	7.51e-01	0	38	104	1137180672	71	40651
2026-01-25 11:59:21.36	343.26	6.17	-50.1	-71.0	3.8	7.46e-01	0	38	104	1137180672	71	40607
2026-01-25 11:59:22.08	343.26	6.12	-50.1	-71.0	3.8	7.48e-01	0	38	104	1137180672	71	40602
2026-01-25 11:59:23.36	343.28	6.02	-50.1	-71.0	3.8	7.46e-01	0	38	104	1137180672	71	40565
2026-01-25 11:59:24.07	343.28	5.96	-50.1	-71.0	3.8	7.46e-01	0	38	104	1137180672	71	40660
2026-01-25 11:59:25.35	343.30	5.86	-50.1	-71.0	3.8	7.45e-01	0	38	104	1137180672	71	40586
2026-01-25 11:59:26.06	343.30	5.81	-50.1	-71.0	3.8	7.45e-01	0	38	104	1137180672	71	40623
2026-01-25 11:59:27.33	343.31	5.71	-50.1	-70.9	3.8	7.48e-01	0	38	104	1137180672	71	40506
2026-01-25 11:59:28.06	343.32	5.66	-50.1	-71.0	3.8	7.46e-01	0	38	104	1137180672	71	40531
2026-01-25 11:59:29.33	343.33	5.56	-50.1	-71.0	3.8	7.45e-01	0	38	104	1137180672	71	40610
2026-01-25 11:59:30.04	343.34	5.50	-50.1	-71.0	3.8	7.42e-01	0	38	104	1137180672	71	40541
2026-01-25 11:59:31.32	343.35	5.41	-50.1	-71.0	3.8	7.46e-01	0	38	104	1137180672	71	40550
2026-01-25 11:59:32.05	343.36	5.35	-50.1	-71.0	3.8	7.43e-01	0	38	104	1137180672	71	40518
2026-01-25 11:59:33.32	343.37	5.26	-50.1	-71.0	3.8	7.46e-01	0	38	104	1137180672	71	40591
2026-01-25 11:59:34.05	343.38	5.20	-50.1	-70.9	3.8	7.45e-01	0	38	104	1137180672	71	40494
2026-01-25 11:59:35.32	343.39	5.11	-50.1	-70.9	3.8	7.43e-01	0	38	104	1137180672	71	40489
2026-01-25 11:59:36.03	343.40	5.05	-50.0	-71.0	3.8	7.45e-01	0	38	104	1137180672	71	40523
2026-01-25 11:59:37.31	343.41	4.96	-50.1	-70.9	3.8	7.46e-01	0	38	104	1137180672	71	40473

#Closed at: 2026-01-25 11:59:38
#Recorded file [1137 MB]: D:/Data/31040_260125_144813.dat