passes_logs/2026/01/25/T1/T1__20260125_121600_FENGYUN_3D_rec.log

#Pass ID: 20260125_121600_FENGYUN 3D
#Satellite: FENGYUN 3D
#Configuration: FENGYUN 3D
#almurnet v.1.7.20251203
#Start time: 2026-01-25 12:16:00

#Version: 2.0.20230620
#Station: T1
#Location: 37.570604 lon 55.790049 lat
#TLE: 1 43010U 17072A   26024.51794477  .00000040  00000+0  40682-4 0  9990
#TLE: 2 43010  98.9961 356.4820 0002494  91.2631 268.8830 14.19699550424601

#Time	Az	El	Level	Level2	SNR	BER	BlckErr	Temp	State	Recorded	gain1	gain2
2026-01-25 12:16:00.24	168.71	5.02	-47.9	-60.2	3.8	8.47e-01	0	35	0	0	67	14853
2026-01-25 12:16:01.23	168.73	5.09	-44.0	-58.6	3.8	8.47e-01	0	35	104	0	58	20692
2026-01-25 12:16:02.22	168.75	5.16	-44.0	-58.5	3.8	8.47e-01	0	35	104	0	58	20484
2026-01-25 12:16:03.22	168.77	5.23	-44.1	-58.4	3.8	8.47e-01	0	35	104	0	59	18966
2026-01-25 12:16:04.21	168.78	5.30	-44.1	-58.5	3.8	8.47e-01	0	35	104	0	59	19175
2026-01-25 12:16:05.21	168.80	5.37	-44.1	-58.5	3.8	8.47e-01	0	35	104	0	59	19299
2026-01-25 12:16:06.20	168.82	5.45	-44.1	-58.6	3.8	8.47e-01	0	35	104	0	59	19413
2026-01-25 12:16:07.19	168.83	5.52	-44.1	-58.6	3.8	8.47e-01	0	35	104	0	59	19407
2026-01-25 12:16:08.19	168.85	5.59	-44.1	-58.7	3.8	8.46e-01	0	36	104	0	59	19660
2026-01-25 12:16:09.18	168.87	5.66	-44.1	-58.6	3.8	8.45e-01	0	36	104	0	59	19574
2026-01-25 12:16:10.17	168.89	5.74	-44.2	-58.7	3.8	8.48e-01	0	35	104	0	59	19653
2026-01-25 12:16:11.16	168.91	5.81	-44.1	-58.6	3.8	8.46e-01	0	36	104	0	59	19551
2026-01-25 12:16:12.16	168.92	5.88	-44.1	-58.5	3.8	8.47e-01	0	36	104	0	59	19230
2026-01-25 12:16:13.15	168.94	5.96	-44.0	-58.4	3.8	8.45e-01	0	36	104	0	59	18987
2026-01-25 12:16:14.14	168.96	6.03	-44.2	-58.1	3.8	8.46e-01	0	36	104	0	59	18372
2026-01-25 12:16:15.14	168.98	6.10	-44.0	-57.9	3.8	8.45e-01	0	36	104	0	59	17977
2026-01-25 12:16:16.13	169.00	6.18	-44.0	-57.8	3.8	8.46e-01	0	36	104	0	59	17687
2026-01-25 12:16:17.12	169.01	6.25	-44.1	-57.6	3.8	8.45e-01	0	36	104	0	59	17480
2026-01-25 12:16:18.11	169.03	6.33	-44.1	-57.6	3.8	8.46e-01	0	36	104	0	59	17364
2026-01-25 12:16:19.11	169.05	6.40	-44.0	-57.7	3.8	8.44e-01	0	36	104	0	59	17671
2026-01-25 12:16:20.10	169.07	6.48	-44.0	-58.0	3.8	8.46e-01	0	36	104	0	59	18272
2026-01-25 12:16:21.09	169.09	6.55	-44.1	-58.4	3.8	8.46e-01	0	36	104	0	59	19050
2026-01-25 12:16:22.09	169.11	6.63	-44.2	-58.9	3.8	8.47e-01	0	36	104	0	59	20102
2026-01-25 12:16:23.08	169.13	6.70	-44.2	-59.3	3.8	8.47e-01	0	36	104	0	59	21159
2026-01-25 12:16:24.07	169.14	6.78	-44.2	-59.6	3.8	8.46e-01	0	36	104	0	59	21865
2026-01-25 12:16:25.07	169.16	6.85	-44.2	-59.9	3.8	8.48e-01	0	36	104	0	59	22528
2026-01-25 12:16:26.06	169.18	6.93	-44.2	-59.9	3.8	8.47e-01	0	36	104	0	59	22755
2026-01-25 12:16:27.05	169.20	7.01	-44.1	-59.8	3.8	8.47e-01	0	36	104	0	59	22309
2026-01-25 12:16:28.04	169.22	7.08	-44.2	-59.6	3.8	8.48e-01	0	36	104	0	59	21768
2026-01-25 12:16:29.04	169.24	7.16	-44.2	-59.1	3.8	8.46e-01	0	36	104	0	59	20708
2026-01-25 12:16:30.03	169.26	7.24	-44.2	-58.6	3.8	8.47e-01	0	36	104	0	59	19489
2026-01-25 12:16:31.02	169.28	7.31	-44.1	-57.9	3.8	8.45e-01	0	36	104	0	59	17942
2026-01-25 12:16:32.02	169.30	7.39	-44.1	-56.7	3.9	8.44e-01	0	36	104	0	59	15627
2026-01-25 12:16:33.01	169.32	7.47	-43.8	-55.4	4.5	8.30e-01	0	36	0	0	59	13522
2026-01-25 12:16:34.00	169.34	7.55	-43.7	-54.0	5.3	7.60e-01	0	36	0	0	59	11484
2026-01-25 12:16:35.00	169.36	7.63	-43.5	-52.4	6.4	3.54e-01	0	36	0	3145728	58	10084
2026-01-25 12:16:35.99	169.38	7.70	-43.3	-51.0	7.6	1.59e-01	0	36	0	8388608	58	8648
2026-01-25 12:16:36.98	169.40	7.78	-42.9	-49.7	8.9	4.56e-02	0	36	0	13631488	57	7880
2026-01-25 12:16:37.97	169.42	7.86	-42.5	-48.5	10.2	1.30e-02	0	36	0	19922944	57	6846
2026-01-25 12:16:38.97	169.44	7.94	-42.1	-47.6	11.1	2.76e-03	0	36	0	25165824	56	6537
2026-01-25 12:16:39.96	169.46	8.02	-41.5	-46.6	11.9	8.30e-04	0	36	0	31457280	55	6192
2026-01-25 12:16:40.95	169.48	8.10	-41.3	-46.0	12.6	1.69e-04	0	36	0	36700160	54	6110
2026-01-25 12:16:41.95	169.50	8.18	-41.2	-45.7	12.9	8.12e-05	0	36	0	41943040	54	5903
2026-01-25 12:16:42.94	169.52	8.26	-41.1	-45.5	13.1	4.80e-05	0	36	0	47185920	54	5761
2026-01-25 12:16:43.94	169.54	8.34	-41.2	-45.6	9.3	3.77e-05	0	37	0	53477376	54	5819
2026-01-25 12:16:44.93	169.56	8.42	-41.2	-45.8	12.8	5.83e-05	0	36	0	58720256	54	5957
2026-01-25 12:16:45.92	169.58	8.50	-41.4	-46.3	12.3	2.37e-04	0	37	0	63963136	54	6331
2026-01-25 12:16:46.92	169.60	8.58	-41.7	-47.1	11.5	7.14e-04	0	36	0	70254592	54	6890
2026-01-25 12:16:47.91	169.63	8.67	-42.2	-48.1	10.5	2.77e-03	0	37	0	75497472	54	7720
2026-01-25 12:16:48.90	169.65	8.75	-42.6	-49.4	9.1	1.93e-02	0	37	0	81788928	55	8551
2026-01-25 12:16:49.90	169.67	8.83	-43.2	-51.2	7.5	8.72e-02	0	37	0	87031808	57	9347
2026-01-25 12:16:50.89	169.69	8.91	-43.6	-53.0	6.0	3.22e-01	0	37	0	92274688	57	11476
2026-01-25 12:16:51.88	169.71	8.99	-43.8	-55.3	4.6	7.81e-01	0	37	0	94371840	58	14082
2026-01-25 12:16:52.88	169.73	9.08	-41.4	-45.5	13.1	2.14e-01	0	37	0	97517568	54	5765
2026-01-25 12:16:53.87	169.75	9.16	-41.4	-45.6	13.1	4.57e-05	0	37	0	102760448	54	5839
2026-01-25 12:16:54.86	169.78	9.24	-43.9	-58.1	3.8	4.57e-01	0	37	104	106954752	59	18473
2026-01-25 12:16:55.86	169.80	9.33	-43.9	-52.7	6.2	7.19e-01	0	37	104	106954752	59	9855
2026-01-25 12:16:56.93	169.82	9.42	-39.0	-41.8	16.8	2.00e-03	0	37	0	112197632	50	4742
2026-01-25 12:16:57.82	169.84	9.50	-38.7	-41.4	17.2	0.00e+00	0	37	0	117440512	49	4802
2026-01-25 12:16:58.95	169.87	9.59	-37.7	-40.3	18.2	0.00e+00	0	37	0	123731968	47	4717
2026-01-25 12:16:59.81	169.89	9.66	-37.3	-39.7	18.7	0.00e+00	0	37	0	128974848	46	4685
2026-01-25 12:17:00.94	169.91	9.76	-37.2	-39.5	18.9	0.00e+00	0	37	0	135266304	46	4595
2026-01-25 12:17:01.79	169.93	9.83	-37.0	-39.3	19.1	0.00e+00	0	37	0	139460608	46	4458
2026-01-25 12:17:02.93	169.96	9.93	-36.9	-39.1	19.3	0.00e+00	0	37	0	145752064	45	4646
2026-01-25 12:17:03.78	169.98	10.01	-36.9	-39.2	19.2	0.00e+00	0	37	0	150994944	45	4657
2026-01-25 12:17:04.92	170.00	10.11	-36.9	-39.1	19.2	0.00e+00	0	37	0	157286400	45	4635
2026-01-25 12:17:05.77	170.02	10.18	-36.9	-39.1	19.3	0.00e+00	0	37	0	162529280	45	4627
2026-01-25 12:17:06.91	170.05	10.28	-37.0	-39.2	18.2	0.00e+00	0	37	0	168820736	45	4701
2026-01-25 12:17:07.76	170.07	10.35	-36.9	-39.1	19.2	0.00e+00	0	37	0	173015040	45	4642
2026-01-25 12:17:08.90	170.10	10.46	-36.9	-39.1	19.3	0.00e+00	0	37	0	179306496	45	4650
2026-01-25 12:17:09.75	170.12	10.53	-37.0	-39.2	19.2	0.00e+00	0	37	0	184549376	45	4680
2026-01-25 12:17:10.89	170.14	10.63	-37.0	-39.2	19.2	0.00e+00	0	37	0	190840832	45	4704
2026-01-25 12:17:11.74	170.17	10.71	-36.9	-39.2	19.2	0.00e+00	0	37	0	195035136	45	4655
2026-01-25 12:17:12.88	170.19	10.81	-37.0	-39.2	19.2	0.00e+00	0	37	0	202375168	45	4687
2026-01-25 12:17:13.73	170.21	10.89	-36.9	-39.2	19.2	0.00e+00	0	37	0	206569472	45	4669
2026-01-25 12:17:15.10	170.25	11.01	-37.0	-39.2	19.2	0.00e+00	0	37	0	214958080	45	4694
2026-01-25 12:17:15.81	170.26	11.07	-37.0	-39.2	19.2	4.50e-06	0	37	0	218103808	45	4674
2026-01-25 12:17:17.09	170.30	11.19	-36.9	-39.1	19.4	0.00e+00	0	37	0	225443840	45	4604
2026-01-25 12:17:17.82	170.31	11.26	-36.8	-38.9	19.5	0.00e+00	0	37	0	229638144	45	4531
2026-01-25 12:17:19.10	170.35	11.37	-36.8	-38.9	19.4	0.00e+00	0	37	0	236978176	45	4544
2026-01-25 12:17:19.83	170.36	11.44	-36.9	-39.0	19.4	0.00e+00	0	37	0	241172480	45	4578
2026-01-25 12:17:21.10	170.40	11.56	-36.9	-39.0	19.4	0.00e+00	0	37	0	248512512	45	4546
2026-01-25 12:17:21.83	170.42	11.63	-36.9	-39.0	19.4	0.00e+00	0	37	0	252706816	45	4546
2026-01-25 12:17:23.11	170.45	11.74	-36.9	-38.9	19.4	0.00e+00	0	37	0	260046848	45	4541
2026-01-25 12:17:24.06	170.47	11.83	-37.0	-39.0	19.4	0.00e+00	0	37	0	265289728	45	4564
2026-01-25 12:17:25.35	170.51	11.95	-36.9	-38.9	19.5	0.00e+00	0	37	0	272629760	45	4514
2026-01-25 12:17:26.06	170.52	12.02	-36.8	-38.8	19.6	0.00e+00	0	37	0	275775488	45	4452
2026-01-25 12:17:27.34	170.56	12.14	-36.8	-38.7	19.6	0.00e+00	0	37	0	283115520	45	4439
2026-01-25 12:17:28.07	170.58	12.21	-36.9	-38.8	19.5	0.00e+00	0	37	0	287309824	45	4488
2026-01-25 12:17:29.35	170.61	12.33	-36.7	-38.7	19.7	0.00e+00	0	37	0	294649856	45	4400
2026-01-25 12:17:30.06	170.63	12.40	-36.7	-38.7	19.7	0.00e+00	0	37	0	298844160	45	4419
2026-01-25 12:17:31.34	170.66	12.52	-36.7	-38.6	19.8	0.00e+00	0	37	0	306184192	45	4376
2026-01-25 12:17:32.05	170.68	12.59	-36.7	-38.6	19.8	0.00e+00	0	37	0	310378496	45	4363
2026-01-25 12:17:33.33	170.72	12.71	-36.6	-38.5	19.9	3.19e-03	0	37	0	316669952	45	4312
2026-01-25 12:17:34.05	170.74	12.78	-36.6	-38.6	19.8	0.00e+00	0	37	0	320864256	45	4353
2026-01-25 12:17:35.33	170.77	12.91	-36.4	-38.3	20.0	0.00e+00	0	37	0	328204288	44	4493
2026-01-25 12:17:36.06	170.79	12.98	-36.4	-38.3	20.0	0.00e+00	0	37	0	332398592	44	4492
2026-01-25 12:17:37.33	170.83	13.11	-36.4	-38.3	20.0	0.00e+00	0	37	0	339738624	44	4492
2026-01-25 12:17:38.06	170.85	13.18	-36.4	-38.3	20.0	0.00e+00	0	37	0	343932928	44	4489
2026-01-25 12:17:39.54	170.89	13.32	-36.4	-38.3	20.1	0.00e+00	0	37	0	352321536	44	4470
2026-01-25 12:17:40.25	170.91	13.39	-36.4	-38.3	20.0	0.00e+00	0	37	0	356515840	44	4475
2026-01-25 12:17:41.53	170.95	13.52	-36.2	-38.1	20.2	0.00e+00	0	37	0	362807296	44	4386
2026-01-25 12:17:42.25	170.97	13.59	-36.3	-38.2	20.2	0.00e+00	0	37	0	367001600	44	4393
2026-01-25 12:17:43.52	171.00	13.72	-36.2	-38.1	20.3	0.00e+00	0	37	0	374341632	44	4359
2026-01-25 12:17:44.24	171.02	13.79	-36.2	-38.1	20.2	0.00e+00	0	37	0	378535936	44	4359
2026-01-25 12:17:45.51	171.06	13.92	-36.1	-38.0	20.3	0.00e+00	0	37	0	385875968	44	4327
2026-01-25 12:17:46.24	171.08	14.00	-36.0	-38.0	20.4	0.00e+00	0	37	0	390070272	44	4292
2026-01-25 12:17:47.52	171.12	14.13	-36.0	-37.9	20.4	0.00e+00	0	37	0	397410304	44	4278
2026-01-25 12:17:48.26	171.14	14.20	-36.0	-37.9	20.4	0.00e+00	0	37	0	401604608	44	4279
2026-01-25 12:17:49.84	171.19	14.37	-36.0	-37.9	20.4	0.00e+00	0	37	0	409993216	44	4272
2026-01-25 12:17:50.46	171.21	14.43	-36.0	-37.9	20.4	0.00e+00	0	38	0	413138944	44	4280
2026-01-25 12:17:52.02	171.26	14.59	-35.8	-37.7	20.5	0.00e+00	0	37	0	422576128	43	4416
2026-01-25 12:17:52.65	171.28	14.66	-35.8	-37.6	20.6	0.00e+00	0	37	0	425721856	43	4386
2026-01-25 12:17:54.15	171.32	14.82	-35.8	-37.7	20.5	0.00e+00	0	37	0	434110464	43	4412
2026-01-25 12:17:54.86	171.34	14.89	-35.6	-37.5	20.7	0.00e+00	0	38	0	438304768	43	4325
2026-01-25 12:17:56.14	171.38	15.03	-35.6	-37.4	20.7	0.00e+00	0	37	0	445644800	43	4289
2026-01-25 12:17:56.85	171.41	15.11	-35.5	-37.4	20.8	0.00e+00	0	38	0	449839104	43	4257
2026-01-25 12:17:58.13	171.45	15.24	-35.4	-37.3	20.9	0.00e+00	0	37	0	456130560	42	4450
2026-01-25 12:17:59.07	171.48	15.34	-35.5	-37.3	20.8	0.00e+00	0	38	0	461373440	42	4489
2026-01-25 12:18:00.37	171.52	15.48	-35.4	-37.3	20.8	0.00e+00	0	38	0	468713472	42	4476
2026-01-25 12:18:01.08	171.54	15.56	-35.4	-37.3	20.9	0.00e+00	0	37	0	472907776	42	4451
2026-01-25 12:18:02.36	171.58	15.70	-35.4	-37.3	20.9	0.00e+00	0	38	0	480247808	42	4443
2026-01-25 12:18:03.09	171.61	15.78	-35.4	-37.2	20.9	0.00e+00	0	37	0	484442112	42	4427
2026-01-25 12:18:04.37	171.65	15.92	-35.2	-37.1	21.1	0.00e+00	0	37	0	491782144	42	4359
2026-01-25 12:18:05.09	171.67	16.00	-35.2	-37.1	21.1	0.00e+00	0	38	0	495976448	42	4343
2026-01-25 12:18:06.37	171.72	16.14	-35.3	-37.2	21.0	0.00e+00	0	37	0	503316480	42	4409
2026-01-25 12:18:07.10	171.74	16.22	-35.4	-37.2	20.9	0.00e+00	0	37	0	507510784	42	4427
2026-01-25 12:18:08.38	171.78	16.37	-35.3	-37.1	21.1	0.00e+00	0	38	0	513802240	42	4364
2026-01-25 12:18:09.10	171.81	16.45	-35.2	-37.1	21.1	0.00e+00	0	38	0	517996544	42	4354
2026-01-25 12:18:10.38	171.85	16.59	-35.3	-37.1	21.0	0.00e+00	0	37	0	525336576	42	4382
2026-01-25 12:18:11.09	171.88	16.67	-35.2	-37.1	21.1	0.00e+00	0	37	0	529530880	42	4353
2026-01-25 12:18:12.43	171.92	16.83	-35.1	-36.9	21.2	0.00e+00	0	38	0	536870912	42	4260
2026-01-25 12:18:13.14	171.95	16.91	-35.1	-36.9	21.1	0.00e+00	0	37	0	541065216	42	4267
2026-01-25 12:18:14.42	171.99	17.06	-35.2	-37.0	21.2	0.00e+00	0	38	0	548405248	42	4305
2026-01-25 12:18:15.15	172.02	17.14	-35.1	-36.9	21.2	0.00e+00	0	38	0	552599552	42	4288
2026-01-25 12:18:16.43	172.06	17.29	-35.0	-36.8	21.3	0.00e+00	0	37	0	559939584	42	4212
2026-01-25 12:18:17.17	172.09	17.38	-35.0	-36.8	21.3	0.00e+00	0	37	0	564133888	42	4219
2026-01-25 12:18:18.45	172.14	17.53	-35.1	-36.9	21.3	0.00e+00	0	37	0	571473920	42	4254
2026-01-25 12:18:19.19	172.16	17.61	-35.0	-36.9	21.3	0.00e+00	0	37	0	574619648	42	4247
2026-01-25 12:18:20.47	172.21	17.76	-34.9	-36.8	21.4	0.00e+00	0	38	0	581959680	41	4451
2026-01-25 12:18:21.19	172.24	17.85	-34.8	-36.7	21.5	0.00e+00	0	38	0	586153984	41	4392
2026-01-25 12:18:22.47	172.29	18.00	-34.8	-36.6	21.5	0.00e+00	0	37	0	593494016	41	4390
2026-01-25 12:18:23.18	172.31	18.09	-34.8	-36.6	21.5	0.00e+00	0	37	0	597688320	41	4369
2026-01-25 12:18:24.45	172.36	18.24	-34.7	-36.5	21.6	0.00e+00	0	38	0	605028352	41	4324
2026-01-25 12:18:25.25	172.39	18.34	-34.7	-36.5	21.6	0.00e+00	0	38	0	609222656	41	4312
2026-01-25 12:18:26.39	172.43	18.48	-34.6	-36.4	21.6	0.00e+00	0	38	0	615514112	41	4273
2026-01-25 12:18:27.24	172.47	18.58	-34.6	-36.4	21.7	0.00e+00	0	38	0	620756992	41	4267
2026-01-25 12:18:28.38	172.51	18.72	-34.6	-36.4	21.7	0.00e+00	0	38	0	627048448	41	4270
2026-01-25 12:18:29.23	172.55	18.83	-34.7	-36.4	21.6	0.00e+00	0	37	0	631242752	41	4291
2026-01-25 12:18:30.37	172.59	18.97	-34.7	-36.5	21.6	0.00e+00	0	38	0	637534208	41	4299
2026-01-25 12:18:31.23	172.63	19.08	-34.5	-36.3	21.8	0.00e+00	0	38	0	642777088	41	4219
2026-01-25 12:18:32.36	172.67	19.22	-34.5	-36.3	21.8	0.00e+00	0	38	0	649068544	41	4209
2026-01-25 12:18:33.22	172.71	19.33	-34.5	-36.3	21.7	0.00e+00	0	37	0	654311424	41	4214
2026-01-25 12:18:34.36	172.75	19.47	-34.5	-36.3	21.8	0.00e+00	0	37	0	660602880	41	4204
2026-01-25 12:18:35.21	172.79	19.58	-34.6	-36.4	21.7	0.00e+00	0	37	0	664797184	41	4250
2026-01-25 12:18:36.35	172.83	19.73	-34.4	-36.2	21.9	0.00e+00	0	37	0	672137216	40	4395
2026-01-25 12:18:37.20	172.87	19.84	-34.3	-36.0	22.0	0.00e+00	0	38	0	676331520	40	4328
2026-01-25 12:18:38.43	172.92	20.00	-34.1	-35.9	22.1	0.00e+00	0	38	0	683671552	40	4267
2026-01-25 12:18:39.28	172.96	20.11	-34.2	-36.0	22.1	0.00e+00	0	38	0	687865856	40	4294
2026-01-25 12:18:40.42	173.01	20.26	-34.1	-35.8	22.2	0.00e+00	0	37	0	694157312	40	4215
2026-01-25 12:18:41.27	173.04	20.37	-34.1	-35.8	22.2	0.00e+00	0	38	0	699400192	40	4219
2026-01-25 12:18:42.55	173.10	20.54	-34.1	-35.8	22.2	0.00e+00	0	38	0	706740224	40	4224
2026-01-25 12:18:43.29	173.13	20.64	-34.0	-35.8	22.2	0.00e+00	0	38	0	710934528	40	4201
2026-01-25 12:18:44.76	173.20	20.83	-34.2	-35.9	21.5	0.00e+00	0	38	0	719323136	40	4289
2026-01-25 12:18:45.47	173.23	20.93	-34.2	-35.9	22.1	0.00e+00	0	38	0	722468864	40	4284
2026-01-25 12:18:46.77	173.29	21.10	-34.2	-35.9	22.1	0.00e+00	0	38	0	729808896	40	4279
2026-01-25 12:18:47.48	173.32	21.20	-34.2	-35.9	22.1	0.00e+00	0	38	0	734003200	40	4289
2026-01-25 12:18:48.76	173.38	21.37	-34.2	-35.9	22.1	0.00e+00	0	38	0	741343232	40	4276
2026-01-25 12:18:49.47	173.41	21.47	-34.2	-35.9	22.1	0.00e+00	0	38	0	745537536	40	4286
2026-01-25 12:18:50.75	173.47	21.65	-34.1	-35.9	22.1	0.00e+00	0	38	0	752877568	40	4261
2026-01-25 12:18:51.46	173.50	21.75	-34.1	-35.9	22.1	0.00e+00	0	38	0	757071872	40	4250
2026-01-25 12:18:52.73	173.56	21.92	-34.1	-35.9	22.1	0.00e+00	0	38	0	764411904	40	4271
2026-01-25 12:18:53.46	173.60	22.03	-34.2	-36.0	22.0	0.00e+00	0	38	0	767557632	40	4319
2026-01-25 12:18:54.74	173.66	22.21	-34.1	-35.9	22.1	0.00e+00	0	38	0	774897664	40	4261
2026-01-25 12:18:55.46	173.69	22.31	-34.1	-35.9	22.1	0.00e+00	0	38	0	779091968	40	4267
2026-01-25 12:18:56.74	173.76	22.49	-34.0	-35.8	22.2	0.00e+00	0	38	0	786432000	40	4214
2026-01-25 12:18:57.46	173.79	22.60	-34.1	-35.9	22.1	0.00e+00	0	38	0	790626304	40	4263
2026-01-25 12:18:58.73	173.85	22.78	-34.0	-35.8	22.3	0.00e+00	0	38	0	797966336	39	4442
2026-01-25 12:18:59.66	173.90	22.91	-34.0	-35.7	22.3	0.00e+00	0	38	0	803209216	39	4416
2026-01-25 12:19:00.66	173.95	23.06	-34.0	-35.7	22.3	0.00e+00	0	38	0	808452096	39	4436
2026-01-25 12:19:01.65	174.00	23.20	-33.9	-35.6	22.4	0.00e+00	0	38	0	813694976	39	4369
2026-01-25 12:19:02.65	174.05	23.35	-33.9	-35.6	22.4	0.00e+00	0	38	0	819986432	39	4383
2026-01-25 12:19:03.64	174.11	23.50	-33.9	-35.6	22.5	0.00e+00	0	38	0	825229312	39	4360
2026-01-25 12:19:04.63	174.16	23.65	-33.6	-35.4	22.6	0.00e+00	0	37	0	830472192	39	4248
2026-01-25 12:19:05.63	174.21	23.80	-33.6	-35.3	22.6	0.00e+00	0	38	0	836763648	39	4235
2026-01-25 12:19:06.62	174.26	23.95	-33.6	-35.3	22.7	0.00e+00	0	37	0	842006528	39	4223
2026-01-25 12:19:07.62	174.32	24.10	-33.6	-35.3	22.7	0.00e+00	0	38	0	847249408	39	4225
2026-01-25 12:19:08.61	174.37	24.25	-33.6	-35.3	22.7	0.00e+00	0	38	0	853540864	39	4233
2026-01-25 12:19:09.69	174.43	24.41	-33.7	-35.4	22.6	0.00e+00	0	38	0	858783744	39	4288
2026-01-25 12:19:10.58	174.48	24.55	-33.7	-35.4	22.6	0.00e+00	0	37	0	864026624	39	4283
2026-01-25 12:19:11.85	174.55	24.75	-33.6	-35.3	22.7	0.00e+00	0	38	0	871366656	39	4220
2026-01-25 12:19:12.64	174.60	24.87	-33.6	-35.3	22.7	0.00e+00	0	38	0	875560960	39	4224
2026-01-25 12:19:13.85	174.66	25.06	-33.6	-35.3	22.7	0.00e+00	0	38	0	882900992	39	4226
2026-01-25 12:19:14.70	174.71	25.20	-33.6	-35.3	22.8	0.00e+00	0	38	0	887095296	39	4204
2026-01-25 12:19:15.84	174.78	25.38	-33.5	-35.3	22.8	0.00e+00	0	38	0	893386752	39	4196
2026-01-25 12:19:16.77	174.83	25.53	-33.5	-35.3	22.8	0.00e+00	0	38	0	898629632	39	4200
2026-01-25 12:19:17.94	174.90	25.71	-33.7	-35.4	22.6	0.00e+00	0	38	0	905969664	39	4274
2026-01-25 12:19:18.82	174.96	25.86	-33.7	-35.5	22.6	0.00e+00	0	38	0	910163968	39	4292
2026-01-25 12:19:19.96	175.02	26.04	-33.8	-35.6	22.5	0.00e+00	0	38	0	916455424	39	4344
2026-01-25 12:19:20.81	175.08	26.18	-33.9	-35.6	22.5	0.00e+00	0	38	0	921698304	39	4379
2026-01-25 12:19:21.95	175.15	26.37	-33.9	-35.7	22.4	0.00e+00	0	38	0	927989760	39	4406
2026-01-25 12:19:22.80	175.20	26.51	-33.9	-35.6	22.4	0.00e+00	0	38	0	933232640	39	4384
2026-01-25 12:19:23.94	175.27	26.70	-33.7	-35.5	22.5	0.00e+00	0	37	0	939524096	39	4303
2026-01-25 12:19:24.79	175.33	26.84	-33.7	-35.5	22.6	0.00e+00	0	38	0	943718400	39	4292
2026-01-25 12:19:25.93	175.40	27.03	-33.6	-35.3	22.7	0.00e+00	0	38	0	951058432	39	4223
2026-01-25 12:19:26.78	175.45	27.18	-33.6	-35.3	22.7	0.00e+00	0	38	0	955252736	39	4241
2026-01-25 12:19:27.96	175.53	27.38	-33.5	-35.2	22.8	0.00e+00	0	38	0	961544192	39	4172
2026-01-25 12:19:28.82	175.59	27.53	-33.5	-35.2	22.8	0.00e+00	0	38	0	966787072	38	4419
2026-01-25 12:19:30.00	175.67	27.73	-33.6	-35.3	22.8	0.00e+00	0	38	0	973078528	38	4459
2026-01-25 12:19:30.86	175.72	27.88	-33.6	-35.4	22.7	0.00e+00	0	38	0	978321408	38	4501
2026-01-25 12:19:31.99	175.80	28.08	-33.5	-35.3	22.8	0.00e+00	0	38	0	984612864	38	4443
2026-01-25 12:19:32.84	175.86	28.23	-33.5	-35.2	22.8	0.00e+00	0	38	0	989855744	38	4398
2026-01-25 12:19:34.11	175.95	28.45	-33.5	-35.2	22.9	0.00e+00	0	38	0	996147200	38	4406
2026-01-25 12:19:35.37	176.04	28.68	-33.5	-35.3	22.8	0.00e+00	0	38	0	1003487232	38	4447
2026-01-25 12:19:36.16	176.09	28.82	-33.6	-35.3	22.7	0.00e+00	0	38	0	1007681536	38	4490
2026-01-25 12:19:37.35	176.18	29.04	-33.8	-35.5	22.5	0.00e+00	0	38	0	1015021568	38	4572
2026-01-25 12:19:38.21	176.24	29.19	-33.7	-35.4	22.6	0.00e+00	0	38	0	1019215872	38	4540
2026-01-25 12:19:39.35	176.33	29.40	-33.7	-35.4	22.6	0.00e+00	0	38	0	1026555904	38	4536
2026-01-25 12:19:40.20	176.39	29.56	-33.7	-35.5	22.6	0.00e+00	0	38	0	1030750208	38	4563
2026-01-25 12:19:41.35	176.48	29.77	-33.8	-35.6	22.5	0.00e+00	0	37	0	1037041664	38	4618
2026-01-25 12:19:42.21	176.54	29.93	-33.8	-35.6	22.4	0.00e+00	0	38	0	1042284544	38	4625
2026-01-25 12:19:43.34	176.63	30.14	-33.7	-35.5	22.5	0.00e+00	0	38	0	1048576000	38	4562
2026-01-25 12:19:44.20	176.70	30.31	-33.7	-35.5	22.5	0.00e+00	0	38	0	1053818880	38	4564
2026-01-25 12:19:45.33	176.78	30.52	-33.8	-35.5	22.5	0.00e+00	0	38	0	1060110336	38	4577
2026-01-25 12:19:46.18	176.85	30.68	-33.5	-35.3	22.7	0.00e+00	0	38	0	1064304640	38	4456
2026-01-25 12:19:47.32	176.94	30.90	-33.5	-35.2	22.7	0.00e+00	0	38	0	1070596096	38	4425
2026-01-25 12:19:48.17	177.01	31.07	-33.5	-35.2	22.7	0.00e+00	0	38	0	1075838976	38	4438
2026-01-25 12:19:49.31	177.11	31.29	-33.2	-34.9	22.9	0.00e+00	0	38	0	1082130432	38	4280
2026-01-25 12:19:50.16	177.18	31.46	-33.1	-34.8	23.1	0.00e+00	0	38	0	1086324736	38	4203
2026-01-25 12:19:51.30	177.27	31.68	-32.9	-34.6	23.2	0.00e+00	0	38	0	1093664768	37	4367
2026-01-25 12:19:52.15	177.35	31.85	-32.9	-34.6	23.2	0.00e+00	0	38	0	1097859072	37	4359
2026-01-25 12:19:53.29	177.45	32.08	-33.0	-34.7	23.2	0.00e+00	0	38	0	1104150528	37	4404
2026-01-25 12:19:54.15	177.52	32.25	-33.0	-34.7	23.1	0.00e+00	0	38	0	1109393408	37	4441
2026-01-25 12:19:55.28	177.62	32.48	-33.2	-34.9	22.9	0.00e+00	0	38	0	1115684864	37	4536
2026-01-25 12:19:56.13	177.70	32.65	-33.3	-35.1	22.8	0.00e+00	0	38	0	1120927744	37	4616
2026-01-25 12:19:57.29	177.80	32.89	-33.5	-35.2	22.7	0.00e+00	0	38	0	1127219200	37	4686
2026-01-25 12:19:58.14	177.88	33.07	-33.5	-35.2	22.7	0.00e+00	0	38	0	1131413504	37	4692
2026-01-25 12:19:59.27	177.98	33.30	-33.4	-35.2	22.8	0.00e+00	0	38	0	1138753536	37	4664
2026-01-25 12:20:00.13	178.07	33.48	-33.4	-35.1	22.8	0.00e+00	0	38	0	1142947840	37	4635
2026-01-25 12:20:01.39	178.19	33.75	-33.4	-35.1	22.9	0.00e+00	0	38	0	1150287872	37	4612
2026-01-25 12:20:02.18	178.26	33.92	-33.1	-34.8	23.1	0.00e+00	0	38	0	1154482176	37	4463
2026-01-25 12:20:03.39	178.38	34.17	-32.7	-34.4	23.5	0.00e+00	0	38	0	1161822208	37	4257
2026-01-25 12:20:04.24	178.46	34.36	-32.6	-34.3	23.5	0.00e+00	0	38	0	1166016512	37	4223
2026-01-25 12:20:05.49	178.59	34.63	-32.7	-34.3	23.5	0.00e+00	0	38	0	1173356544	37	4239
2026-01-25 12:20:06.34	178.68	34.81	-32.7	-34.4	23.5	0.00e+00	0	38	0	1177550848	37	4268
2026-01-25 12:20:07.48	178.79	35.06	-33.0	-34.7	23.2	0.00e+00	0	38	0	1184890880	37	4398
2026-01-25 12:20:08.33	178.88	35.25	-33.1	-34.8	23.1	0.00e+00	0	38	0	1189085184	37	4458
2026-01-25 12:20:09.60	179.02	35.53	-33.1	-34.8	23.1	0.00e+00	0	38	0	1196425216	37	4477
2026-01-25 12:20:10.40	179.10	35.71	-33.1	-34.8	23.1	0.00e+00	0	37	0	1200619520	37	4474
2026-01-25 12:20:11.53	179.22	35.97	-33.2	-34.9	23.1	0.00e+00	0	38	0	1206910976	37	4536
2026-01-25 12:20:12.39	179.32	36.16	-33.1	-34.8	23.2	0.00e+00	0	38	0	1212153856	37	4462
2026-01-25 12:20:13.53	179.45	36.42	-33.0	-34.7	23.3	0.00e+00	0	38	0	1218445312	37	4415
2026-01-25 12:20:14.38	179.54	36.62	-33.1	-34.8	23.2	0.00e+00	0	38	0	1223688192	37	4458
2026-01-25 12:20:15.51	179.67	36.88	-33.0	-34.7	23.3	0.00e+00	0	38	0	1228931072	37	4396
2026-01-25 12:20:16.37	179.77	37.08	-32.7	-34.4	23.5	0.00e+00	0	38	0	1234173952	37	4271
2026-01-25 12:20:17.50	179.90	37.34	-32.7	-34.3	23.6	0.00e+00	0	38	0	1240465408	37	4238
2026-01-25 12:20:18.36	180.01	37.54	-32.6	-34.3	23.6	0.00e+00	0	38	0	1245708288	37	4223
2026-01-25 12:20:19.49	180.14	37.81	-32.7	-34.4	23.6	0.00e+00	0	38	0	1251999744	37	4252
2026-01-25 12:20:20.35	180.25	38.02	-32.8	-34.5	23.5	0.00e+00	0	38	0	1256194048	37	4309
2026-01-25 12:20:21.48	180.39	38.29	-32.8	-34.5	23.5	0.00e+00	0	37	0	1263534080	37	4301
2026-01-25 12:20:22.34	180.50	38.50	-32.7	-34.4	23.5	0.00e+00	0	38	0	1267728384	37	4271
2026-01-25 12:20:23.47	180.64	38.77	-32.7	-34.4	23.5	0.00e+00	0	38	0	1274019840	37	4272
2026-01-25 12:20:24.33	180.76	38.98	-32.8	-34.5	23.4	0.00e+00	0	38	0	1279262720	37	4313
2026-01-25 12:20:25.46	180.90	39.26	-33.0	-34.7	23.3	0.00e+00	0	38	0	1285554176	37	4412
2026-01-25 12:20:26.31	181.02	39.47	-33.1	-34.8	23.2	0.00e+00	0	38	0	1289748480	37	4472
2026-01-25 12:20:27.45	181.17	39.76	-33.3	-35.0	23.1	0.00e+00	0	38	0	1297088512	37	4555
2026-01-25 12:20:28.30	181.29	39.97	-33.3	-35.0	23.0	0.00e+00	0	38	0	1301282816	37	4581
2026-01-25 12:20:29.43	181.45	40.26	-33.3	-35.0	23.0	0.00e+00	0	38	0	1307574272	37	4584
2026-01-25 12:20:30.29	181.57	40.47	-33.3	-35.1	23.0	0.00e+00	0	38	0	1312817152	37	4599
2026-01-25 12:20:31.42	181.73	40.76	-33.1	-34.8	23.3	0.00e+00	0	38	0	1319108608	37	4459
2026-01-25 12:20:32.27	181.86	40.98	-33.0	-34.7	23.3	0.00e+00	0	38	0	1323302912	37	4432
2026-01-25 12:20:33.41	182.03	41.28	-33.0	-34.7	23.3	0.00e+00	0	38	0	1329594368	37	4430
2026-01-25 12:20:34.26	182.16	41.50	-33.2	-34.9	23.2	0.00e+00	0	38	0	1334837248	37	4506
2026-01-25 12:20:35.40	182.33	41.80	-33.4	-35.1	23.0	0.00e+00	0	38	0	1341128704	37	4617
2026-01-25 12:20:36.25	182.46	42.03	-33.5	-35.2	22.8	0.00e+00	0	38	0	1346371584	37	4705
2026-01-25 12:20:37.39	182.65	42.33	-33.5	-35.3	22.8	0.00e+00	0	38	0	1352663040	37	4707
2026-01-25 12:20:38.24	182.78	42.56	-33.5	-35.3	22.8	0.00e+00	0	38	0	1357905920	37	4718
2026-01-25 12:20:39.38	182.97	42.86	-33.6	-35.4	22.8	0.00e+00	0	38	0	1364197376	37	4764
2026-01-25 12:20:40.23	183.11	43.09	-33.5	-35.3	22.8	0.00e+00	0	38	0	1368391680	37	4713
2026-01-25 12:20:41.50	183.33	43.44	-33.7	-35.5	22.6	0.00e+00	0	38	0	1375731712	38	4555
2026-01-25 12:20:42.29	183.46	43.66	-33.7	-35.5	22.7	0.00e+00	0	38	0	1379926016	38	4557
2026-01-25 12:20:43.48	183.67	43.99	-33.7	-35.4	22.8	0.00e+00	0	38	0	1387266048	38	4509
2026-01-25 12:20:44.34	183.82	44.23	-33.7	-35.4	22.8	0.00e+00	0	38	0	1391460352	38	4521
2026-01-25 12:20:45.48	184.03	44.55	-33.6	-35.3	22.9	0.00e+00	0	38	0	1397751808	38	4491
2026-01-25 12:20:46.33	184.19	44.78	-34.0	-35.7	22.5	0.00e+00	0	38	0	1402994688	38	4681
2026-01-25 12:20:47.67	184.44	45.16	-34.2	-35.9	22.4	0.00e+00	0	38	0	1410334720	39	4537
2026-01-25 12:20:48.38	184.58	45.37	-34.1	-35.9	22.4	0.00e+00	0	38	0	1414529024	39	4500
2026-01-25 12:20:49.66	184.83	45.73	-34.2	-35.9	22.5	0.00e+00	0	38	0	1421869056	39	4503
2026-01-25 12:20:50.39	184.97	45.94	-34.1	-35.8	22.6	0.00e+00	0	37	0	1426063360	39	4446
2026-01-25 12:20:51.67	185.23	46.32	-33.7	-35.4	22.9	0.00e+00	0	38	0	1432354816	39	4246
2026-01-25 12:20:52.49	185.40	46.56	-33.6	-35.3	23.0	0.00e+00	0	38	0	1437597696	39	4219
2026-01-25 12:20:53.63	185.64	46.89	-33.6	-35.3	23.0	0.00e+00	0	38	0	1443889152	39	4221
2026-01-25 12:20:54.67	185.86	47.20	-33.5	-35.2	23.1	0.00e+00	0	38	0	1449132032	38	4405
2026-01-25 12:20:55.82	186.11	47.54	-33.4	-35.1	23.1	0.00e+00	0	37	0	1456472064	38	4378
2026-01-25 12:20:56.72	186.31	47.81	-33.5	-35.2	23.1	0.00e+00	0	38	0	1460666368	38	4395
2026-01-25 12:20:57.76	186.55	48.12	-33.6	-35.3	23.0	0.00e+00	0	38	0	1466957824	38	4446
2026-01-25 12:20:58.91	186.81	48.47	-33.7	-35.4	22.8	0.00e+00	0	38	0	1473249280	38	4539
2026-01-25 12:20:59.79	187.02	48.74	-33.9	-35.6	22.7	0.00e+00	0	38	0	1478492160	38	4627
2026-01-25 12:21:01.10	187.34	49.14	-34.0	-35.7	22.6	0.00e+00	0	38	0	1485832192	38	4682
2026-01-25 12:21:01.81	187.51	49.35	-33.9	-35.6	22.7	0.00e+00	0	38	0	1490026496	38	4633
2026-01-25 12:21:03.09	187.83	49.75	-33.9	-35.7	22.7	0.00e+00	0	38	0	1497366528	38	4655
2026-01-25 12:21:03.81	188.02	49.97	-33.9	-35.6	22.7	0.00e+00	0	38	0	1501560832	38	4644
2026-01-25 12:21:05.08	188.35	50.37	-34.0	-35.7	22.7	0.00e+00	0	38	0	1508900864	38	4667
2026-01-25 12:21:05.81	188.55	50.60	-33.8	-35.5	22.8	0.00e+00	0	38	0	1512046592	38	4590
2026-01-25 12:21:07.09	188.89	51.00	-34.2	-35.9	22.5	0.00e+00	0	38	0	1519386624	38	4769
2026-01-25 12:21:07.89	189.12	51.25	-34.2	-35.9	22.4	0.00e+00	0	38	0	1524629504	39	4538
2026-01-25 12:21:09.03	189.44	51.61	-34.4	-36.1	22.3	0.00e+00	0	38	0	1530920960	39	4632
2026-01-25 12:21:09.88	189.69	51.89	-34.5	-36.2	22.2	0.00e+00	0	38	0	1535115264	39	4687
2026-01-25 12:21:11.01	190.02	52.25	-34.5	-36.2	22.2	0.00e+00	0	38	0	1541406720	39	4697
2026-01-25 12:21:11.87	190.28	52.52	-34.6	-36.4	22.0	0.00e+00	0	38	0	1546649600	40	4495
2026-01-25 12:21:13.01	190.63	52.89	-34.7	-36.5	21.8	0.00e+00	0	38	0	1552941056	40	4567
2026-01-25 12:21:13.86	190.90	53.17	-34.4	-36.2	22.1	0.00e+00	0	38	0	1557135360	40	4393
2026-01-25 12:21:14.99	191.27	53.54	-34.0	-35.7	22.6	0.00e+00	0	38	0	1564475392	40	4165
2026-01-25 12:21:15.85	191.55	53.82	-34.0	-35.7	22.6	0.00e+00	0	38	0	1568669696	40	4163
2026-01-25 12:21:16.99	191.93	54.19	-34.3	-36.0	22.3	0.00e+00	0	38	0	1574961152	40	4313
2026-01-25 12:21:17.84	192.23	54.47	-34.4	-36.2	22.1	0.00e+00	0	38	0	1580204032	40	4404
2026-01-25 12:21:18.98	192.63	54.85	-34.7	-36.5	21.8	0.00e+00	0	38	0	1586495488	40	4575
2026-01-25 12:21:19.83	192.94	55.13	-34.7	-36.5	21.8	0.00e+00	0	38	0	1591738368	40	4562
2026-01-25 12:21:20.96	193.35	55.50	-34.4	-36.2	22.1	0.00e+00	0	37	0	1598029824	40	4411
2026-01-25 12:21:21.81	193.67	55.78	-34.3	-36.0	22.3	0.00e+00	0	38	0	1602224128	40	4318
2026-01-25 12:21:22.95	194.12	56.16	-34.2	-35.9	22.4	0.00e+00	0	38	0	1608515584	40	4265
2026-01-25 12:21:23.80	194.45	56.45	-34.4	-36.1	22.2	0.00e+00	0	38	0	1613758464	40	4364
2026-01-25 12:21:24.94	194.92	56.83	-34.8	-36.6	21.7	0.00e+00	0	38	0	1620049920	40	4621
2026-01-25 12:21:25.79	195.27	57.12	-34.9	-36.7	21.6	0.00e+00	0	38	0	1625292800	40	4687
2026-01-25 12:21:26.96	195.77	57.51	-34.7	-36.4	21.9	0.00e+00	0	38	0	1631584256	40	4542
2026-01-25 12:21:27.81	196.14	57.79	-34.6	-36.4	22.0	0.00e+00	0	38	0	1635778560	40	4498
2026-01-25 12:21:28.95	196.65	58.18	-34.4	-36.1	22.2	0.00e+00	0	38	0	1642070016	40	4386
2026-01-25 12:21:29.80	197.04	58.46	-34.5	-36.2	22.2	0.00e+00	0	38	0	1647312896	40	4410
2026-01-25 12:21:30.93	197.57	58.85	-34.6	-36.3	22.0	0.00e+00	0	38	0	1653604352	40	4490
2026-01-25 12:21:31.79	197.98	59.14	-34.5	-36.2	22.1	0.00e+00	0	38	0	1658847232	40	4435
2026-01-25 12:21:32.93	198.55	59.52	-34.3	-36.0	22.4	0.00e+00	0	38	0	1665138688	40	4307
2026-01-25 12:21:33.78	198.98	59.81	-34.1	-35.8	22.5	0.00e+00	0	38	0	1669332992	40	4226
2026-01-25 12:21:34.91	199.57	60.19	-33.7	-35.4	23.0	0.00e+00	0	38	0	1675624448	39	4250
2026-01-25 12:21:35.77	200.03	60.48	-33.4	-35.0	23.3	0.00e+00	0	38	0	1680867328	38	4334
2026-01-25 12:21:36.90	200.65	60.86	-33.4	-35.1	23.2	0.00e+00	0	38	0	1687158784	38	4370
2026-01-25 12:21:37.76	201.13	61.15	-33.4	-35.1	23.2	0.00e+00	0	38	0	1692401664	38	4356
2026-01-25 12:21:38.89	201.79	61.52	-33.1	-34.8	23.5	0.00e+00	0	38	0	1698693120	38	4199
2026-01-25 12:21:39.75	202.30	61.81	-33.1	-34.8	23.4	0.00e+00	0	38	0	1702887424	38	4200
2026-01-25 12:21:40.88	202.99	62.19	-33.2	-35.0	23.1	0.00e+00	0	38	0	1710227456	38	4310
2026-01-25 12:21:41.74	203.53	62.47	-33.1	-34.8	23.3	0.00e+00	0	38	0	1714421760	38	4239
2026-01-25 12:21:42.87	204.25	62.85	-33.0	-34.7	23.4	0.00e+00	0	38	0	1720713216	38	4157
2026-01-25 12:21:43.72	204.82	63.13	-33.3	-35.0	23.1	0.00e+00	0	38	0	1725956096	38	4329
2026-01-25 12:21:44.97	205.67	63.54	-33.3	-35.0	23.2	0.00e+00	0	38	0	1732247552	38	4311
2026-01-25 12:21:45.83	206.27	63.81	-32.8	-34.5	23.6	0.00e+00	0	38	0	1737490432	37	4319
2026-01-25 12:21:47.02	207.13	64.20	-32.7	-34.3	23.7	0.00e+00	0	38	0	1744830464	37	4229
2026-01-25 12:21:47.88	207.77	64.47	-32.7	-34.3	23.7	0.00e+00	0	38	0	1749024768	37	4234
2026-01-25 12:21:49.01	208.63	64.83	-32.7	-34.4	23.7	0.00e+00	0	38	0	1755316224	37	4255
2026-01-25 12:21:49.87	209.30	65.11	-32.8	-34.5	23.5	0.00e+00	0	38	0	1760559104	37	4325
2026-01-25 12:21:51.10	210.30	65.49	-32.7	-34.3	23.6	0.00e+00	0	38	0	1766850560	37	4228
2026-01-25 12:21:51.95	211.00	65.75	-32.7	-34.4	23.6	0.00e+00	0	38	0	1772093440	37	4274
2026-01-25 12:21:53.09	211.98	66.10	-33.0	-34.8	23.3	0.00e+00	0	38	0	1778384896	37	4446
2026-01-25 12:21:53.94	212.72	66.36	-32.7	-34.3	23.7	0.00e+00	0	38	0	1783627776	37	4237
2026-01-25 12:21:55.08	213.75	66.70	-32.7	-34.3	23.7	0.00e+00	0	38	0	1789919232	37	4233
2026-01-25 12:21:55.99	214.60	66.96	-33.0	-34.7	23.4	0.00e+00	0	38	0	1795162112	37	4421
2026-01-25 12:21:57.00	215.56	67.25	-32.5	-34.2	23.8	0.00e+00	0	38	0	1800404992	37	4147
2026-01-25 12:21:58.00	216.54	67.54	-32.6	-34.3	23.7	0.00e+00	0	38	0	1805647872	36	4459
2026-01-25 12:21:58.99	217.54	67.81	-32.8	-34.5	23.5	0.00e+00	0	38	0	1811939328	36	4580
2026-01-25 12:21:59.99	218.57	68.09	-32.9	-34.6	23.4	0.00e+00	0	38	0	1817182208	36	4618
2026-01-25 12:22:00.98	219.63	68.35	-32.6	-34.3	23.7	0.00e+00	0	38	0	1822425088	36	4454
2026-01-25 12:22:01.98	220.72	68.61	-32.5	-34.1	23.8	0.00e+00	0	38	0	1828716544	36	4389
2026-01-25 12:22:02.97	221.82	68.86	-32.5	-34.2	23.8	0.00e+00	0	38	0	1833959424	36	4399
2026-01-25 12:22:03.97	222.97	69.11	-32.4	-34.1	23.8	0.00e+00	0	38	0	1839202304	36	4361
2026-01-25 12:22:04.96	224.14	69.35	-32.6	-34.2	23.7	0.00e+00	0	38	0	1845493760	36	4436
2026-01-25 12:22:05.96	225.34	69.58	-32.4	-34.0	23.9	0.00e+00	0	38	0	1850736640	36	4335
2026-01-25 12:22:06.95	226.56	69.80	-32.1	-33.8	24.1	0.00e+00	0	38	0	1855979520	36	4208
2026-01-25 12:22:07.94	227.82	70.02	-32.1	-33.8	24.2	0.00e+00	0	38	0	1862270976	36	4206
2026-01-25 12:22:08.94	229.11	70.23	-31.2	-32.9	24.0	0.00e+00	0	38	0	1867513856	34	4244
2026-01-25 12:22:09.93	230.42	70.42	-31.3	-33.0	23.9	0.00e+00	0	38	0	1872756736	34	4320
2026-01-25 12:22:10.92	231.75	70.61	-31.8	-33.5	23.4	0.00e+00	0	38	0	1879048192	34	4577
2026-01-25 12:22:11.92	233.13	70.79	-31.7	-33.4	23.5	0.00e+00	0	38	0	1884291072	34	4502
2026-01-25 12:22:12.91	234.52	70.96	-31.6	-33.2	23.7	0.00e+00	0	38	0	1889533952	34	4438
2026-01-25 12:22:13.91	235.94	71.11	-31.7	-33.4	23.6	0.00e+00	0	38	0	1895825408	34	4507
2026-01-25 12:22:14.90	237.38	71.26	-31.4	-33.1	23.7	0.00e+00	0	38	0	1901068288	34	4366
2026-01-25 12:22:15.90	238.86	71.40	-31.4	-33.1	23.7	0.00e+00	0	38	0	1906311168	34	4386
2026-01-25 12:22:16.89	240.34	71.52	-31.5	-33.2	23.7	0.00e+00	0	38	0	1912602624	34	4402
2026-01-25 12:22:17.89	241.86	71.63	-31.4	-33.1	23.7	0.00e+00	0	38	0	1917845504	34	4373
2026-01-25 12:22:18.94	243.47	71.74	-31.3	-33.0	23.8	0.00e+00	0	38	0	1924136960	34	4324
2026-01-25 12:22:19.85	244.89	71.82	-31.4	-33.1	23.6	0.00e+00	0	38	0	1929379840	34	4383
2026-01-25 12:22:20.87	246.49	71.90	-31.2	-32.9	23.8	0.00e+00	0	38	0	1934622720	34	4287
2026-01-25 12:22:21.87	248.07	71.96	-31.0	-32.7	24.0	0.00e+00	0	38	0	1939865600	34	4155
2026-01-25 12:22:22.86	249.64	72.01	-31.1	-32.8	23.9	0.00e+00	0	38	0	1946157056	34	4230
2026-01-25 12:22:23.86	251.24	72.05	-30.9	-32.6	24.0	0.00e+00	0	38	0	1951399936	33	4356
2026-01-25 12:22:24.85	252.83	72.07	-30.9	-32.6	24.1	0.00e+00	0	38	0	1956642816	33	4344
2026-01-25 12:22:25.85	254.44	72.08	-31.3	-33.0	23.8	0.00e+00	0	38	0	1962934272	33	4556
2026-01-25 12:22:26.84	256.03	72.08	-31.4	-33.1	23.7	0.00e+00	0	38	0	1968177152	33	4632
2026-01-25 12:22:27.83	257.63	72.06	-31.5	-33.2	23.7	0.00e+00	0	38	0	1973420032	33	4689
2026-01-25 12:22:28.83	259.23	72.04	-31.4	-33.1	23.8	0.00e+00	0	38	0	1979711488	33	4607
2026-01-25 12:22:29.82	260.81	71.99	-31.3	-32.9	23.9	0.00e+00	0	38	0	1984954368	33	4537
2026-01-25 12:22:30.82	262.40	71.94	-31.3	-33.1	23.7	0.00e+00	0	38	0	1990197248	33	4602
2026-01-25 12:22:31.84	264.01	71.87	-31.4	-33.1	23.7	0.00e+00	0	38	0	1996488704	33	4639
2026-01-25 12:22:32.84	265.57	71.79	-31.0	-32.7	24.0	0.00e+00	0	38	0	2001731584	33	4417
2026-01-25 12:22:33.94	267.27	71.69	-31.0	-32.7	24.0	0.00e+00	0	38	0	2008023040	33	4400
2026-01-25 12:22:34.79	268.57	71.60	-30.9	-32.6	24.1	0.00e+00	0	38	0	2013265920	33	4352
2026-01-25 12:22:35.93	270.29	71.46	-31.0	-32.6	24.1	0.00e+00	0	38	0	2019557376	33	4375
2026-01-25 12:22:36.78	271.55	71.35	-31.3	-33.0	23.8	0.00e+00	0	38	0	2023751680	33	4577
2026-01-25 12:22:37.92	273.23	71.19	-31.3	-33.0	23.8	0.00e+00	0	38	0	2030043136	33	4589
2026-01-25 12:22:38.78	274.47	71.06	-31.3	-33.0	23.9	0.00e+00	0	38	0	2035286016	33	4566
2026-01-25 12:22:39.91	276.07	70.88	-31.5	-33.2	23.7	0.00e+00	0	38	0	2041577472	33	4684
2026-01-25 12:22:40.76	277.25	70.73	-31.6	-33.3	23.6	0.00e+00	0	38	0	2046820352	34	4490
2026-01-25 12:22:41.90	278.80	70.52	-31.5	-33.2	23.7	0.00e+00	0	38	0	2053111808	34	4427
2026-01-25 12:22:42.75	279.94	70.36	-31.5	-33.2	23.7	0.00e+00	0	38	0	2057306112	34	4412
2026-01-25 12:22:43.89	281.43	70.13	-31.5	-33.2	23.8	0.00e+00	0	38	0	2064646144	34	4399
2026-01-25 12:22:44.74	282.52	69.95	-31.5	-33.2	23.8	0.00e+00	0	38	0	2068840448	34	4397
2026-01-25 12:22:46.00	284.09	69.67	-31.4	-33.1	23.8	0.00e+00	0	38	0	2076180480	34	4352
2026-01-25 12:22:46.78	285.04	69.49	-31.4	-33.1	23.8	0.00e+00	0	38	0	2080374784	34	4360
2026-01-25 12:22:48.06	286.56	69.19	-31.6	-33.3	23.6	0.00e+00	0	38	0	2087714816	34	4450
2026-01-25 12:22:48.77	287.39	69.01	-31.5	-33.2	23.8	0.00e+00	0	38	0	2091909120	34	4393
2026-01-25 12:22:50.05	288.83	68.69	-31.8	-33.5	23.5	0.00e+00	0	38	0	2099249152	34	4598
2026-01-25 12:22:50.76	289.62	68.51	-32.0	-33.7	23.3	0.00e+00	0	38	0	2102394880	34	4700
2026-01-25 12:22:52.03	290.98	68.18	-31.8	-33.5	23.5	0.00e+00	0	38	0	2109734912	34	4581
2026-01-25 12:22:52.77	291.75	67.98	-31.9	-33.6	23.4	0.00e+00	0	38	0	2113929216	34	4604
2026-01-25 12:22:54.05	293.06	67.62	-31.9	-33.6	23.4	0.00e+00	0	38	0	2121269248	34	4603
2026-01-25 12:22:54.76	293.76	67.42	-31.7	-33.3	23.5	0.00e+00	0	38	0	2125463552	34	4492
2026-01-25 12:22:56.04	295.00	67.06	-31.8	-33.5	23.4	0.00e+00	0	38	0	2132803584	34	4588
2026-01-25 12:22:56.76	295.67	66.85	-31.9	-33.6	23.3	0.00e+00	0	38	0	2135949312	34	4610
2026-01-25 12:22:58.06	296.86	66.47	-31.8	-33.5	23.5	0.00e+00	0	38	0	2143289344	34	4572
2026-01-25 12:22:58.77	297.49	66.25	-31.9	-33.6	23.4	0.00e+00	0	38	0	2147483648	34	4600
2026-01-25 12:23:00.05	298.59	65.87	-32.1	-33.8	23.2	0.00e+00	0	38	0	2154823680	34	4759
2026-01-25 12:23:00.77	299.20	65.64	-32.1	-33.8	23.2	0.00e+00	0	38	0	2159017984	34	4751
2026-01-25 12:23:02.15	300.32	65.22	-32.2	-33.9	23.2	0.00e+00	0	38	0	2166358016	34	4779
2026-01-25 12:23:02.86	300.89	64.99	-32.2	-33.9	23.3	0.00e+00	0	38	0	2170552320	35	4504
2026-01-25 12:23:04.20	301.92	64.57	-32.4	-34.1	23.1	0.00e+00	0	38	0	2177892352	35	4623
2026-01-25 12:23:04.91	302.45	64.34	-32.1	-33.8	23.2	0.00e+00	0	38	0	2182086656	35	4492
2026-01-25 12:23:06.19	303.38	63.93	-32.0	-33.7	23.4	0.00e+00	0	38	0	2189426688	35	4399
2026-01-25 12:23:06.92	303.90	63.70	-32.0	-33.7	23.4	0.00e+00	0	38	0	2193620992	35	4396
2026-01-25 12:23:08.19	304.77	63.28	-32.1	-33.8	23.2	0.00e+00	0	38	0	2200961024	35	4471
2026-01-25 12:23:08.91	305.25	63.05	-32.1	-33.9	23.2	0.00e+00	0	38	0	2205155328	35	4497
2026-01-25 12:23:10.19	306.09	62.63	-32.2	-33.9	23.1	0.00e+00	0	38	0	2212495360	35	4509
2026-01-25 12:23:10.93	306.56	62.38	-32.1	-33.8	23.2	0.00e+00	0	38	0	2216689664	35	4448
2026-01-25 12:23:12.21	307.35	61.96	-31.8	-33.5	23.5	0.00e+00	0	38	0	2222981120	35	4307
2026-01-25 12:23:13.04	307.84	61.68	-31.8	-33.5	23.6	0.00e+00	0	38	0	2228224000	35	4301
2026-01-25 12:23:14.18	308.51	61.30	-32.3	-34.0	23.1	0.00e+00	0	38	0	2234515456	35	4590
2026-01-25 12:23:15.03	308.99	61.02	-32.6	-34.4	22.9	0.00e+00	0	38	0	2239758336	35	4773
2026-01-25 12:23:16.17	309.63	60.64	-32.6	-34.3	22.9	0.00e+00	0	38	0	2246049792	35	4757
2026-01-25 12:23:17.27	310.22	60.27	-32.6	-34.3	23.0	0.00e+00	0	38	0	2251292672	35	4712
2026-01-25 12:23:18.30	310.76	59.92	-33.4	-35.1	23.1	0.00e+00	0	38	0	2257584128	37	4611
2026-01-25 12:23:19.46	311.35	59.53	-33.6	-35.3	22.9	0.00e+00	0	38	0	2263875584	37	4749
2026-01-25 12:23:20.32	311.77	59.24	-33.7	-35.4	22.8	0.00e+00	0	38	0	2269118464	38	4537
2026-01-25 12:23:21.46	312.32	58.86	-33.6	-35.3	22.9	0.00e+00	0	38	0	2275409920	38	4475
2026-01-25 12:23:22.31	312.72	58.57	-33.7	-35.4	22.9	0.00e+00	0	38	0	2280652800	38	4517
2026-01-25 12:23:23.44	313.24	58.19	-33.5	-35.2	23.0	0.00e+00	0	38	0	2286944256	38	4436
2026-01-25 12:23:24.30	313.63	57.90	-33.6	-35.3	22.9	0.00e+00	0	38	0	2291138560	38	4471
2026-01-25 12:23:25.43	314.12	57.53	-33.7	-35.4	22.8	0.00e+00	0	38	0	2297430016	38	4522
2026-01-25 12:23:26.29	314.49	57.24	-33.6	-35.3	22.9	0.00e+00	0	38	0	2302672896	38	4476
2026-01-25 12:23:27.42	314.96	56.86	-33.7	-35.4	22.9	0.00e+00	0	38	0	2308964352	38	4533
2026-01-25 12:23:28.28	315.31	56.57	-34.0	-35.7	22.7	0.00e+00	0	38	0	2314207232	38	4690
2026-01-25 12:23:29.41	315.76	56.20	-34.4	-36.1	22.3	0.00e+00	0	38	0	2320498688	39	4621
2026-01-25 12:23:30.26	316.09	55.91	-34.5	-36.3	22.2	0.00e+00	0	38	0	2324692992	39	4715
2026-01-25 12:23:31.40	316.52	55.54	-34.4	-36.2	22.2	0.00e+00	0	38	0	2330984448	39	4683
2026-01-25 12:23:32.25	316.84	55.25	-34.4	-36.1	22.4	0.00e+00	0	38	0	2336227328	39	4615
2026-01-25 12:23:33.39	317.25	54.88	-34.4	-36.1	22.3	0.00e+00	0	38	0	2342518784	39	4614
2026-01-25 12:23:34.24	317.55	54.60	-34.2	-35.9	22.5	0.00e+00	0	38	0	2347761664	39	4508
2026-01-25 12:23:35.38	317.94	54.23	-34.1	-35.9	22.4	0.00e+00	0	38	0	2354053120	39	4522
2026-01-25 12:23:36.29	318.25	53.93	-34.4	-36.1	22.8	0.00e+00	0	38	0	2359296000	39	4608
2026-01-25 12:23:37.46	318.64	53.55	-34.3	-36.0	22.9	0.00e+00	0	38	0	2365587456	39	4558
2026-01-25 12:23:38.32	318.91	53.27	-34.2	-35.8	23.0	0.00e+00	0	38	0	2369781760	39	4487
2026-01-25 12:23:39.66	319.34	52.84	-34.0	-35.6	23.2	0.00e+00	0	38	0	2378170368	39	4384
2026-01-25 12:23:40.37	319.56	52.61	-34.0	-35.6	23.2	0.00e+00	0	38	0	2381316096	39	4371
2026-01-25 12:23:41.65	319.94	52.20	-34.0	-35.7	23.1	0.00e+00	0	38	0	2388656128	39	4418
2026-01-25 12:23:42.37	320.15	51.97	-34.1	-35.8	23.1	0.00e+00	0	38	0	2392850432	39	4450
2026-01-25 12:23:43.65	320.52	51.56	-34.1	-35.8	23.0	0.00e+00	0	38	0	2400190464	39	4465
2026-01-25 12:23:44.38	320.73	51.33	-34.0	-35.6	23.1	0.00e+00	0	38	0	2404384768	39	4391
2026-01-25 12:23:45.66	321.08	50.93	-33.8	-35.4	23.3	0.00e+00	0	38	0	2411724800	39	4282
2026-01-25 12:23:46.45	321.30	50.68	-33.7	-35.4	23.4	0.00e+00	0	38	0	2415919104	39	4262
2026-01-25 12:23:47.65	321.62	50.31	-33.8	-35.5	23.3	0.00e+00	0	38	0	2423259136	39	4292
2026-01-25 12:23:48.50	321.84	50.04	-33.6	-35.2	23.5	0.00e+00	0	38	0	2427453440	39	4179
2026-01-25 12:23:49.64	322.13	49.69	-33.2	-34.8	23.9	0.00e+00	0	38	0	2433744896	38	4221
2026-01-25 12:23:50.49	322.34	49.43	-33.1	-34.7	24.0	0.00e+00	0	38	0	2438987776	38	4166
2026-01-25 12:23:51.63	322.62	49.08	-33.1	-34.7	23.9	0.00e+00	0	38	0	2445279232	38	4188
2026-01-25 12:23:52.48	322.83	48.82	-33.3	-34.9	23.8	0.00e+00	0	38	0	2450522112	38	4276
2026-01-25 12:23:53.62	323.10	48.48	-33.6	-35.2	23.5	0.00e+00	0	38	0	2455764992	38	4417
2026-01-25 12:23:54.47	323.29	48.22	-33.6	-35.3	23.5	0.00e+00	0	38	0	2461007872	38	4448
2026-01-25 12:23:55.61	323.55	47.88	-33.6	-35.2	23.6	0.00e+00	0	38	0	2467299328	38	4413
2026-01-25 12:23:56.46	323.74	47.63	-33.6	-35.2	23.5	0.00e+00	0	38	0	2472542208	38	4420
2026-01-25 12:23:57.59	323.99	47.29	-33.4	-35.0	23.7	0.00e+00	0	38	0	2478833664	38	4337
2026-01-25 12:23:58.45	324.17	47.04	-33.4	-35.0	23.7	0.00e+00	0	38	0	2483027968	38	4329
2026-01-25 12:23:59.58	324.41	46.71	-33.5	-35.1	23.6	0.00e+00	0	38	0	2490368000	38	4370
2026-01-25 12:24:00.44	324.59	46.46	-33.6	-35.2	23.5	0.00e+00	0	38	0	2494562304	38	4420
2026-01-25 12:24:01.57	324.82	46.13	-33.6	-35.2	23.5	0.00e+00	0	38	0	2500853760	38	4426
2026-01-25 12:24:02.47	325.00	45.87	-33.5	-35.2	23.6	0.00e+00	0	38	0	2506096640	38	4397
2026-01-25 12:24:03.58	325.22	45.55	-33.3	-35.0	23.8	0.00e+00	0	38	0	2512388096	38	4293
2026-01-25 12:24:04.43	325.38	45.31	-33.2	-34.8	23.9	0.00e+00	0	38	0	2517630976	38	4212
2026-01-25 12:24:05.56	325.60	44.99	-33.3	-34.9	23.8	0.00e+00	0	38	0	2523922432	38	4262
2026-01-25 12:24:06.42	325.76	44.75	-33.2	-34.8	23.9	0.00e+00	0	38	0	2528116736	38	4226
2026-01-25 12:24:07.55	325.96	44.43	-33.2	-34.8	23.8	0.00e+00	0	38	0	2534408192	38	4224
2026-01-25 12:24:08.41	326.12	44.20	-33.2	-34.8	23.9	0.00e+00	0	38	0	2539651072	38	4202
2026-01-25 12:24:09.55	326.32	43.88	-33.2	-34.8	23.8	0.00e+00	0	38	0	2545942528	38	4226
2026-01-25 12:24:10.40	326.47	43.65	-33.2	-34.8	23.9	0.00e+00	0	38	0	2551185408	38	4230
2026-01-25 12:24:11.54	326.66	43.34	-33.2	-34.8	23.8	0.00e+00	0	38	0	2557476864	38	4230
2026-01-25 12:24:12.39	326.80	43.11	-32.9	-34.4	24.1	0.00e+00	0	38	0	2561671168	37	4289
2026-01-25 12:24:13.53	326.99	42.80	-32.6	-34.2	24.3	0.00e+00	0	38	0	2567962624	37	4170
2026-01-25 12:24:14.38	327.13	42.57	-32.7	-34.3	24.3	0.00e+00	0	38	0	2573205504	37	4204
2026-01-25 12:24:15.52	327.31	42.27	-32.7	-34.3	24.2	0.00e+00	0	38	0	2579496960	37	4227
2026-01-25 12:24:16.37	327.45	42.04	-32.8	-34.4	24.2	0.00e+00	0	38	0	2583691264	37	4285
2026-01-25 12:24:17.51	327.63	41.74	-33.0	-34.6	24.0	0.00e+00	0	38	0	2591031296	37	4356
2026-01-25 12:24:18.36	327.76	41.52	-33.0	-34.6	24.0	0.00e+00	0	38	0	2595225600	37	4373
2026-01-25 12:24:19.50	327.93	41.23	-33.0	-34.6	24.0	0.00e+00	0	38	0	2601517056	37	4361
2026-01-25 12:24:20.35	328.05	41.01	-33.0	-34.6	24.0	0.00e+00	0	38	0	2606759936	37	4379
2026-01-25 12:24:21.49	328.22	40.71	-33.0	-34.6	24.0	0.00e+00	0	38	0	2613051392	37	4388
2026-01-25 12:24:22.35	328.34	40.50	-32.9	-34.5	24.1	0.00e+00	0	38	0	2618294272	37	4339
2026-01-25 12:24:23.48	328.50	40.21	-32.8	-34.4	24.2	0.00e+00	0	38	0	2624585728	37	4274
2026-01-25 12:24:24.34	328.62	39.99	-32.8	-34.4	24.1	0.00e+00	0	38	0	2628780032	37	4288
2026-01-25 12:24:25.47	328.78	39.71	-32.9	-34.5	24.1	0.00e+00	0	38	0	2636120064	37	4335
2026-01-25 12:24:26.33	328.89	39.50	-33.0	-34.6	24.0	0.00e+00	0	38	0	2640314368	37	4372
2026-01-25 12:24:27.51	329.05	39.21	-33.0	-34.7	24.0	0.00e+00	0	38	0	2646605824	37	4395
2026-01-25 12:24:28.36	329.16	39.00	-33.0	-34.7	23.9	0.00e+00	0	38	0	2651848704	37	4422
2026-01-25 12:24:29.50	329.31	38.72	-33.0	-34.7	23.9	0.00e+00	0	38	0	2658140160	37	4402
2026-01-25 12:24:30.35	329.42	38.52	-33.0	-34.7	23.9	0.00e+00	0	38	0	2663383040	37	4404
2026-01-25 12:24:31.60	329.58	38.22	-32.9	-34.5	24.0	0.00e+00	0	38	0	2669674496	37	4334
2026-01-25 12:24:32.45	329.68	38.01	-32.7	-34.3	24.2	0.00e+00	0	38	0	2674917376	37	4222
2026-01-25 12:24:33.59	329.82	37.74	-32.7	-34.3	24.2	0.00e+00	0	38	0	2681208832	37	4234
2026-01-25 12:24:34.44	329.92	37.54	-32.9	-34.5	24.1	0.00e+00	0	38	0	2686451712	37	4306
2026-01-25 12:24:35.58	330.06	37.28	-32.7	-34.4	24.2	0.00e+00	0	38	0	2692743168	37	4244
2026-01-25 12:24:36.43	330.16	37.08	-32.8	-34.4	24.2	0.00e+00	0	38	0	2696937472	37	4270
2026-01-25 12:24:37.57	330.29	36.82	-32.9	-34.5	24.1	0.00e+00	0	38	0	2703228928	37	4315
2026-01-25 12:24:38.42	330.39	36.62	-32.9	-34.5	24.0	0.00e+00	0	38	0	2708471808	37	4337
2026-01-25 12:24:39.55	330.51	36.36	-32.9	-34.6	24.0	0.00e+00	0	38	0	2714763264	37	4348
2026-01-25 12:24:40.41	330.61	36.17	-32.9	-34.5	24.0	0.00e+00	0	38	0	2718957568	37	4336
2026-01-25 12:24:41.54	330.73	35.92	-32.8	-34.4	24.1	0.00e+00	0	38	0	2726297600	37	4272
2026-01-25 12:24:42.40	330.83	35.72	-32.8	-34.4	24.1	0.00e+00	0	38	0	2730491904	37	4256
2026-01-25 12:24:43.53	330.95	35.47	-32.9	-34.4	24.1	0.00e+00	0	38	0	2736783360	37	4291
2026-01-25 12:24:44.38	331.04	35.29	-32.7	-34.3	24.2	0.00e+00	0	38	0	2742026240	37	4231
2026-01-25 12:24:45.52	331.15	35.04	-32.8	-34.4	24.2	0.00e+00	0	38	0	2748317696	37	4244
2026-01-25 12:24:46.38	331.24	34.85	-32.8	-34.4	24.1	0.00e+00	0	38	0	2753560576	37	4271
2026-01-25 12:24:47.56	331.36	34.59	-32.9	-34.5	24.1	0.00e+00	0	38	0	2759852032	37	4315
2026-01-25 12:24:48.42	331.45	34.41	-33.0	-34.6	24.0	0.00e+00	0	38	0	2764046336	37	4372
2026-01-25 12:24:49.55	331.56	34.17	-33.2	-34.8	23.8	0.00e+00	0	38	0	2771386368	37	4458
2026-01-25 12:24:50.41	331.64	33.98	-33.1	-34.8	23.8	0.00e+00	0	38	0	2775580672	37	4451
2026-01-25 12:24:51.54	331.75	33.75	-33.2	-34.9	23.8	0.00e+00	0	38	0	2781872128	37	4508
2026-01-25 12:24:52.40	331.83	33.57	-33.3	-34.9	23.7	0.00e+00	0	38	0	2787115008	37	4529
2026-01-25 12:24:53.53	331.94	33.33	-33.2	-34.9	23.7	0.00e+00	0	38	0	2793406464	37	4505
2026-01-25 12:24:54.39	332.02	33.15	-33.3	-35.0	23.6	0.00e+00	0	38	0	2798649344	37	4553
2026-01-25 12:24:55.52	332.12	32.92	-33.1	-34.8	23.8	0.00e+00	0	38	0	2804940800	37	4472
2026-01-25 12:24:56.38	332.20	32.75	-33.1	-34.7	23.8	0.00e+00	0	38	0	2809135104	37	4437
2026-01-25 12:24:57.51	332.30	32.52	-32.9	-34.6	24.0	0.00e+00	0	38	0	2815426560	37	4342
2026-01-25 12:24:58.37	332.38	32.34	-32.8	-34.5	24.1	0.00e+00	0	38	0	2820669440	37	4311
2026-01-25 12:24:59.50	332.48	32.12	-32.9	-34.5	24.0	0.00e+00	0	38	0	2826960896	37	4328
2026-01-25 12:25:00.36	332.55	31.95	-32.9	-34.5	24.0	0.00e+00	0	38	0	2832203776	37	4339
2026-01-25 12:25:01.49	332.65	31.72	-32.8	-34.5	24.1	0.00e+00	0	38	0	2838495232	37	4297
2026-01-25 12:25:02.34	332.72	31.56	-32.8	-34.4	24.1	0.00e+00	0	38	0	2842689536	37	4276
2026-01-25 12:25:03.59	332.83	31.31	-32.8	-34.4	24.1	0.00e+00	0	38	0	2850029568	37	4281
2026-01-25 12:25:04.44	332.90	31.15	-33.0	-34.6	24.0	0.00e+00	0	38	0	2854223872	37	4345
2026-01-25 12:25:05.58	332.99	30.93	-33.1	-34.7	23.9	0.00e+00	0	38	0	2861563904	37	4398
2026-01-25 12:25:06.43	333.06	30.77	-33.0	-34.6	23.9	0.00e+00	0	38	0	2865758208	37	4389
2026-01-25 12:25:07.57	333.15	30.55	-33.1	-34.8	23.8	0.00e+00	0	38	0	2872049664	37	4443
2026-01-25 12:25:08.42	333.21	30.39	-33.2	-34.8	23.8	0.00e+00	0	38	0	2877292544	37	4463
2026-01-25 12:25:09.56	333.30	30.17	-33.2	-34.8	23.8	0.00e+00	0	38	0	2883584000	37	4476
2026-01-25 12:25:10.41	333.37	30.02	-33.1	-34.8	23.8	0.00e+00	0	38	0	2887778304	37	4449
2026-01-25 12:25:11.55	333.46	29.80	-33.2	-34.8	23.8	0.00e+00	0	38	0	2895118336	37	4483
2026-01-25 12:25:12.40	333.52	29.65	-33.2	-34.9	23.7	0.00e+00	0	38	0	2899312640	37	4496
2026-01-25 12:25:13.54	333.61	29.44	-33.2	-34.8	23.8	0.00e+00	0	38	0	2905604096	37	4479
2026-01-25 12:25:14.39	333.67	29.28	-33.1	-34.7	23.8	0.00e+00	0	38	0	2910846976	37	4435
2026-01-25 12:25:15.52	333.75	29.08	-33.0	-34.6	24.0	0.00e+00	0	38	0	2917138432	37	4379
2026-01-25 12:25:16.38	333.81	28.93	-33.0	-34.7	23.9	0.00e+00	0	38	0	2922381312	37	4404
2026-01-25 12:25:17.51	333.89	28.72	-33.0	-34.7	23.9	0.00e+00	0	38	0	2928672768	37	4399
2026-01-25 12:25:18.37	333.96	28.57	-33.1	-34.7	23.8	0.00e+00	0	38	0	2932867072	37	4436
2026-01-25 12:25:19.50	334.03	28.37	-33.1	-34.8	23.8	0.00e+00	0	38	0	2939158528	37	4444
2026-01-25 12:25:20.35	334.09	28.22	-33.2	-34.8	23.8	0.00e+00	0	38	0	2944401408	37	4492
2026-01-25 12:25:21.49	334.17	28.02	-33.3	-35.0	23.7	0.00e+00	0	38	0	2950692864	37	4546
2026-01-25 12:25:22.34	334.23	27.88	-33.3	-35.0	23.6	0.00e+00	0	38	0	2955935744	37	4573
2026-01-25 12:25:23.48	334.31	27.68	-33.4	-35.1	23.5	0.00e+00	0	38	0	2962227200	37	4634
2026-01-25 12:25:24.33	334.36	27.53	-33.4	-35.1	23.5	0.00e+00	0	38	0	2966421504	37	4635
2026-01-25 12:25:25.47	334.44	27.34	-33.5	-35.1	23.5	0.00e+00	0	38	0	2972712960	37	4637
2026-01-25 12:25:26.32	334.49	27.20	-33.5	-35.2	23.4	0.00e+00	0	38	0	2977955840	37	4675
2026-01-25 12:25:27.46	334.57	27.00	-33.4	-35.1	22.1	0.00e+00	0	38	0	2984247296	37	4611
2026-01-25 12:25:28.31	334.62	26.86	-33.5	-35.2	23.5	0.00e+00	0	38	0	2988441600	37	4663
2026-01-25 12:25:29.45	334.69	26.67	-33.3	-35.0	23.6	0.00e+00	0	38	0	2995781632	37	4551
2026-01-25 12:25:30.30	334.75	26.53	-33.3	-35.0	23.6	0.00e+00	0	38	0	2999975936	37	4552
2026-01-25 12:25:31.44	334.82	26.35	-33.3	-34.9	23.6	0.00e+00	0	38	0	3006267392	37	4534
2026-01-25 12:25:32.29	334.87	26.21	-33.2	-34.9	23.7	0.00e+00	0	38	0	3011510272	37	4503
2026-01-25 12:25:33.43	334.94	26.02	-33.2	-34.8	23.7	0.00e+00	0	38	0	3017801728	37	4461
2026-01-25 12:25:34.28	334.99	25.88	-33.1	-34.8	23.8	0.00e+00	0	38	0	3023044608	37	4446
2026-01-25 12:25:35.42	335.06	25.70	-33.3	-34.9	23.7	0.00e+00	0	38	0	3029336064	37	4515
2026-01-25 12:25:36.27	335.11	25.57	-33.3	-34.9	23.6	0.00e+00	0	38	0	3033530368	37	4542
2026-01-25 12:25:37.41	335.18	25.39	-33.2	-34.8	23.7	0.00e+00	0	38	0	3039821824	37	4480
2026-01-25 12:25:38.26	335.23	25.25	-33.2	-34.9	23.7	0.00e+00	0	38	0	3045064704	37	4496
2026-01-25 12:25:39.40	335.29	25.07	-33.3	-35.0	23.6	0.00e+00	0	38	0	3051356160	37	4546
2026-01-25 12:25:40.25	335.34	24.94	-33.4	-35.0	23.5	0.00e+00	0	38	0	3056599040	37	4596
2026-01-25 12:25:41.39	335.41	24.76	-33.5	-35.1	23.5	0.00e+00	0	38	0	3062890496	37	4628
2026-01-25 12:25:42.24	335.45	24.63	-33.6	-35.2	23.4	0.00e+00	0	38	0	3067084800	37	4693
2026-01-25 12:25:43.46	335.52	24.45	-33.6	-35.3	23.3	0.00e+00	0	38	0	3074424832	37	4721
2026-01-25 12:25:44.31	335.57	24.32	-33.7	-35.3	23.3	0.00e+00	0	38	0	3078619136	37	4749
2026-01-25 12:25:45.51	335.63	24.13	-33.9	-35.6	23.1	0.00e+00	0	38	0	3085959168	38	4600
2026-01-25 12:25:46.36	335.68	24.01	-33.9	-35.5	23.1	0.00e+00	0	38	0	3090153472	38	4591
2026-01-25 12:25:47.56	335.74	23.83	-33.9	-35.6	23.1	0.00e+00	0	38	0	3097493504	38	4621
2026-01-25 12:25:48.41	335.79	23.70	-33.9	-35.6	23.1	0.00e+00	0	38	0	3101687808	38	4612
2026-01-25 12:25:49.63	335.85	23.52	-34.0	-35.7	23.0	0.00e+00	0	38	0	3109027840	38	4675
2026-01-25 12:25:50.48	335.90	23.40	-34.1	-35.7	22.9	0.00e+00	0	38	0	3114270720	38	4692
2026-01-25 12:25:51.70	335.96	23.22	-34.1	-35.8	22.9	0.00e+00	0	38	0	3120562176	38	4710
2026-01-25 12:25:52.55	336.01	23.09	-34.1	-35.8	22.9	0.00e+00	0	38	0	3125805056	38	4721
2026-01-25 12:25:53.69	336.06	22.93	-34.1	-35.8	22.9	0.00e+00	0	38	0	3132096512	38	4722
2026-01-25 12:25:54.54	336.11	22.81	-34.1	-35.8	22.8	0.00e+00	0	38	0	3136290816	38	4749
2026-01-25 12:25:55.68	336.16	22.64	-34.1	-35.8	22.9	0.00e+00	0	38	0	3142582272	38	4716
2026-01-25 12:25:56.53	336.21	22.52	-34.0	-35.7	22.9	0.00e+00	0	38	0	3147825152	38	4702
2026-01-25 12:25:57.67	336.26	22.36	-34.2	-35.9	22.8	0.00e+00	0	38	0	3154116608	38	4782
2026-01-25 12:25:58.52	336.30	22.24	-34.1	-35.9	22.8	0.00e+00	0	38	0	3158310912	39	4494
2026-01-25 12:25:59.66	336.36	22.08	-34.1	-35.8	22.9	0.00e+00	0	38	0	3165650944	39	4464
2026-01-25 12:26:00.51	336.40	21.96	-34.1	-35.8	22.8	0.00e+00	0	38	0	3169845248	39	4485
2026-01-25 12:26:01.65	336.45	21.81	-34.1	-35.8	22.8	0.00e+00	0	38	0	3176136704	39	4486
2026-01-25 12:26:02.50	336.49	21.69	-34.1	-35.8	22.8	0.00e+00	0	38	0	3181379584	39	4489
2026-01-25 12:26:03.64	336.55	21.53	-34.2	-35.9	22.7	0.00e+00	0	38	0	3187671040	39	4532
2026-01-25 12:26:04.49	336.59	21.42	-34.3	-36.0	22.7	0.00e+00	0	38	0	3192913920	39	4551
2026-01-25 12:26:05.64	336.64	21.26	-34.3	-36.0	22.7	0.00e+00	0	38	0	3199205376	39	4550
2026-01-25 12:26:06.49	336.68	21.15	-34.4	-36.1	22.6	0.00e+00	0	38	0	3203399680	39	4607
2026-01-25 12:26:07.63	336.73	20.99	-34.4	-36.1	22.5	0.00e+00	0	38	0	3210739712	39	4633
2026-01-25 12:26:08.48	336.77	20.88	-34.5	-36.2	22.5	0.00e+00	0	38	0	3214934016	39	4661
2026-01-25 12:26:09.62	336.82	20.73	-34.4	-36.1	22.6	0.00e+00	0	38	0	3221225472	39	4638
2026-01-25 12:26:10.47	336.86	20.62	-34.4	-36.2	22.5	0.00e+00	0	38	0	3226468352	39	4653
2026-01-25 12:26:11.60	336.91	20.47	-34.5	-36.3	22.4	0.00e+00	0	38	0	3232759808	39	4718
2026-01-25 12:26:12.46	336.94	20.36	-34.6	-36.4	22.3	0.00e+00	0	38	0	3236954112	39	4764
2026-01-25 12:26:13.59	336.99	20.21	-34.6	-36.3	22.3	0.00e+00	0	38	0	3243245568	40	4486
2026-01-25 12:26:14.45	337.03	20.10	-34.4	-36.2	22.4	0.00e+00	0	38	0	3248488448	40	4439
2026-01-25 12:26:15.58	337.08	19.95	-34.5	-36.3	22.3	0.00e+00	0	38	0	3254779904	40	4482
2026-01-25 12:26:16.44	337.11	19.84	-34.5	-36.3	22.3	0.00e+00	0	38	0	3260022784	40	4485
2026-01-25 12:26:17.57	337.16	19.70	-34.6	-36.4	22.3	0.00e+00	0	38	0	3266314240	40	4504
2026-01-25 12:26:18.70	337.21	19.55	-34.7	-36.4	22.2	0.00e+00	0	38	0	3272605696	40	4532
2026-01-25 12:26:19.71	337.25	19.43	-34.7	-36.4	22.2	0.00e+00	0	38	0	3277848576	40	4540
2026-01-25 12:26:20.88	337.30	19.28	-34.7	-36.5	22.2	0.00e+00	0	38	0	3285188608	40	4554
2026-01-25 12:26:21.73	337.33	19.17	-34.9	-36.6	22.1	0.00e+00	0	38	0	3289382912	40	4617
2026-01-25 12:26:22.87	337.38	19.03	-34.9	-36.6	22.0	0.00e+00	0	38	0	3295674368	40	4627
2026-01-25 12:26:23.72	337.41	18.93	-34.9	-36.6	22.1	0.00e+00	0	38	0	3300917248	40	4600
2026-01-25 12:26:24.86	337.46	18.79	-34.8	-36.5	22.1	0.00e+00	0	38	0	3307208704	40	4583
2026-01-25 12:26:25.71	337.49	18.68	-34.8	-36.5	22.1	0.00e+00	0	38	0	3311403008	40	4592
2026-01-25 12:26:26.84	337.54	18.55	-34.9	-36.6	22.0	0.00e+00	0	38	0	3318743040	40	4634
2026-01-25 12:26:27.70	337.57	18.44	-34.9	-36.6	22.0	0.00e+00	0	38	0	3322937344	40	4625
2026-01-25 12:26:28.83	337.61	18.31	-34.8	-36.6	22.1	0.00e+00	0	38	0	3329228800	40	4603
2026-01-25 12:26:29.69	337.65	18.20	-34.9	-36.7	22.0	0.00e+00	0	38	0	3334471680	40	4654
2026-01-25 12:26:30.82	337.69	18.07	-35.1	-36.8	21.8	0.00e+00	0	38	0	3340763136	40	4737
2026-01-25 12:26:31.68	337.72	17.96	-35.1	-36.8	21.8	0.00e+00	0	38	0	3346006016	40	4732
2026-01-25 12:26:32.81	337.76	17.83	-35.0	-36.8	21.8	0.00e+00	0	38	0	3351248896	40	4727
2026-01-25 12:26:33.66	337.80	17.73	-34.9	-36.7	21.9	0.00e+00	0	38	0	3356491776	40	4663
2026-01-25 12:26:34.99	337.85	17.58	-35.0	-36.8	21.9	0.00e+00	0	38	0	3363831808	40	4718
2026-01-25 12:26:35.71	337.87	17.49	-35.1	-36.8	21.8	0.00e+00	0	38	0	3368026112	40	4750
2026-01-25 12:26:37.21	337.93	17.32	-35.1	-36.8	21.8	0.00e+00	0	38	0	3376414720	40	4729
2026-01-25 12:26:37.92	337.95	17.24	-35.1	-36.9	21.8	0.00e+00	0	38	0	3380609024	40	4763
2026-01-25 12:26:39.20	338.00	17.09	-35.2	-36.9	21.7	0.00e+00	0	38	0	3387949056	41	4544
2026-01-25 12:26:39.94	338.03	17.00	-35.2	-36.9	21.7	0.00e+00	0	38	0	3392143360	41	4530
2026-01-25 12:26:41.21	338.07	16.86	-35.2	-37.0	21.7	0.00e+00	0	38	0	3398434816	41	4554
2026-01-25 12:26:41.95	338.10	16.78	-35.3	-37.0	21.6	0.00e+00	0	38	0	3403677696	41	4588
2026-01-25 12:26:43.23	338.14	16.63	-35.4	-37.2	21.5	0.00e+00	0	38	0	3409969152	41	4652
2026-01-25 12:26:43.96	338.17	16.55	-35.4	-37.1	21.5	0.00e+00	0	38	0	3414163456	41	4634
2026-01-25 12:26:45.24	338.21	16.41	-35.4	-37.2	21.5	0.00e+00	0	38	0	3421503488	41	4657
2026-01-25 12:26:45.98	338.24	16.32	-35.4	-37.2	21.5	0.00e+00	0	38	0	3425697792	41	4679
2026-01-25 12:26:47.26	338.28	16.18	-35.5	-37.2	21.4	0.00e+00	0	38	0	3433037824	41	4702
2026-01-25 12:26:47.98	338.31	16.10	-35.4	-37.2	21.3	0.00e+00	0	38	0	3437232128	41	4693
2026-01-25 12:26:49.26	338.35	15.96	-35.5	-37.3	21.3	0.00e+00	0	38	0	3444572160	41	4748
2026-01-25 12:26:49.97	338.37	15.89	-35.5	-37.3	21.4	0.00e+00	0	38	0	3447717888	41	4719
2026-01-25 12:26:51.25	338.41	15.75	-35.5	-37.3	21.3	0.00e+00	0	38	0	3455057920	41	4751
2026-01-25 12:26:52.10	338.44	15.65	-35.5	-37.3	21.3	0.00e+00	0	38	0	3460300800	41	4752
2026-01-25 12:26:53.24	338.48	15.53	-35.6	-37.5	21.2	0.00e+00	0	38	0	3466592256	41	4825
2026-01-25 12:26:54.09	338.51	15.44	-35.7	-37.5	21.2	0.00e+00	0	38	0	3471835136	42	4575
2026-01-25 12:26:55.58	338.56	15.28	-35.7	-37.6	21.1	0.00e+00	0	38	0	3480223744	42	4601
2026-01-25 12:26:56.29	338.58	15.21	-35.6	-37.5	21.2	0.00e+00	0	38	0	3483369472	42	4574
2026-01-25 12:26:57.57	338.62	15.07	-35.8	-37.6	21.0	0.00e+00	0	38	0	3490709504	42	4639
2026-01-25 12:26:58.29	338.64	14.99	-35.8	-37.6	21.0	0.00e+00	0	38	0	3494903808	42	4634
2026-01-25 12:26:59.57	338.68	14.86	-35.7	-37.6	21.0	0.00e+00	0	38	0	3502243840	42	4619
2026-01-25 12:27:00.28	338.71	14.79	-35.8	-37.6	21.0	0.00e+00	0	38	0	3506438144	42	4627
2026-01-25 12:27:01.56	338.75	14.65	-35.8	-37.7	21.0	0.00e+00	0	38	0	3513778176	42	4652
2026-01-25 12:27:02.29	338.77	14.58	-35.8	-37.6	21.0	0.00e+00	0	38	0	3517972480	42	4643
2026-01-25 12:27:03.57	338.81	14.45	-35.8	-37.7	21.0	0.00e+00	0	38	0	3524263936	42	4673
2026-01-25 12:27:04.29	338.83	14.37	-35.9	-37.8	20.9	0.00e+00	0	38	0	3528458240	42	4721
2026-01-25 12:27:05.57	338.87	14.24	-35.9	-37.8	20.9	0.00e+00	0	38	0	3535798272	42	4711
2026-01-25 12:27:06.28	338.89	14.17	-36.0	-37.9	20.8	0.00e+00	0	38	0	3539992576	42	4760
2026-01-25 12:27:07.56	338.93	14.04	-35.9	-37.8	20.9	0.00e+00	0	38	0	3547332608	42	4711
2026-01-25 12:27:08.29	338.95	13.96	-35.9	-37.8	20.8	0.00e+00	0	38	0	3551526912	42	4731
2026-01-25 12:27:09.56	338.99	13.84	-35.9	-37.9	20.8	0.00e+00	0	38	0	3558866944	42	4766
2026-01-25 12:27:10.30	339.01	13.76	-35.8	-37.7	20.9	0.00e+00	0	38	0	3563061248	42	4704
2026-01-25 12:27:11.58	339.05	13.64	-35.9	-37.9	20.8	0.00e+00	0	38	0	3570401280	42	4764
2026-01-25 12:27:12.29	339.07	13.56	-36.0	-37.9	20.7	0.00e+00	0	38	0	3573547008	42	4810
2026-01-25 12:27:13.57	339.11	13.44	-35.9	-37.9	20.7	0.00e+00	0	38	0	3580887040	42	4778
2026-01-25 12:27:14.28	339.13	13.37	-35.9	-37.9	20.7	0.00e+00	0	38	0	3585081344	42	4781
2026-01-25 12:27:15.56	339.16	13.24	-36.0	-37.9	20.7	0.00e+00	0	38	0	3592421376	42	4801
2026-01-25 12:27:16.27	339.18	13.17	-36.0	-38.0	20.7	0.00e+00	0	38	0	3596615680	42	4822
2026-01-25 12:27:17.55	339.22	13.05	-36.1	-38.0	20.7	0.00e+00	0	38	0	3602907136	42	4826
2026-01-25 12:27:18.29	339.24	12.98	-36.1	-38.0	20.6	0.00e+00	0	38	0	3608150016	42	4855
2026-01-25 12:27:19.57	339.28	12.85	-36.1	-38.0	20.7	0.00e+00	0	38	0	3614441472	43	4549
2026-01-25 12:27:20.28	339.30	12.78	-36.2	-38.1	20.6	0.00e+00	0	38	0	3618635776	43	4600
2026-01-25 12:27:21.56	339.33	12.66	-36.2	-38.1	20.5	0.00e+00	0	38	0	3625975808	43	4610
2026-01-25 12:27:22.27	339.35	12.59	-36.3	-38.1	20.5	0.00e+00	0	38	0	3630170112	43	4631
2026-01-25 12:27:23.55	339.39	12.47	-36.4	-38.3	20.3	0.00e+00	0	38	0	3637510144	43	4727
2026-01-25 12:27:24.28	339.41	12.40	-36.3	-38.2	20.4	0.00e+00	0	38	0	3641704448	43	4675
2026-01-25 12:27:25.56	339.44	12.28	-36.3	-38.2	20.4	0.00e+00	0	38	0	3647995904	43	4659
