passes_logs/2026/01/25/T1/T1__20260125_093831_SUOMI_NPP_rec.log

#Pass ID: 20260125_093831_SUOMI NPP
#Satellite: SUOMI NPP
#Configuration: NPP
#almurnet v.1.7.20251203
#Start time: 2026-01-25 09:38:32

#Version: 2.0.20230620
#Station: T1
#Location: 37.570604 lon 55.790049 lat
#TLE: 1 37849U 11061A   26024.54906732  .00000185  00000+0  10878-3 0  9990
#TLE: 2 37849  98.7821 326.5159 0002200  47.3746 312.7615 14.19529340738061

#Time	Az	El	Level	Level2	SNR	BER	BlckErr	Temp	State	Recorded	gain1	gain2
2026-01-25 09:38:32.35	148.87	5.05	-48.1	-62.9	3.8	1.49e+00	0	37	0	0	68	19015
2026-01-25 09:38:33.34	148.86	5.12	-48.1	-63.0	3.8	1.49e+00	0	38	104	0	68	19169
2026-01-25 09:38:34.33	148.84	5.19	-48.1	-63.0	3.8	1.49e+00	0	38	104	0	68	19342
2026-01-25 09:38:35.32	148.82	5.26	-48.1	-63.1	3.8	1.49e+00	0	38	104	0	68	19403
2026-01-25 09:38:36.31	148.80	5.33	-48.1	-63.2	3.8	1.49e+00	0	38	104	0	68	19616
2026-01-25 09:38:37.31	148.78	5.40	-48.1	-63.2	3.8	1.49e+00	0	38	104	0	68	19727
2026-01-25 09:38:38.30	148.76	5.48	-48.1	-63.2	3.8	1.49e+00	0	38	104	0	68	19713
2026-01-25 09:38:39.29	148.75	5.55	-48.1	-63.2	3.8	1.49e+00	0	38	104	0	68	19620
2026-01-25 09:38:40.29	148.73	5.62	-48.1	-63.0	3.8	1.49e+00	0	38	104	0	68	19297
2026-01-25 09:38:41.28	148.71	5.69	-48.1	-62.8	3.8	1.49e+00	0	38	104	0	68	18859
2026-01-25 09:38:42.27	148.69	5.77	-48.0	-62.6	3.8	1.49e+00	0	38	104	0	68	18353
2026-01-25 09:38:43.27	148.67	5.84	-48.0	-62.4	3.8	1.49e+00	0	38	104	0	68	18084
2026-01-25 09:38:44.26	148.65	5.91	-48.0	-62.2	3.8	1.49e+00	0	38	104	0	68	17506
2026-01-25 09:38:45.25	148.63	5.98	-48.0	-62.1	3.8	1.49e+00	0	38	104	0	68	17315
2026-01-25 09:38:46.25	148.61	6.06	-48.0	-62.0	3.8	1.49e+00	0	38	104	0	68	17183
2026-01-25 09:38:47.24	148.59	6.13	-48.0	-61.9	3.8	1.49e+00	0	38	104	0	68	17077
2026-01-25 09:38:48.23	148.57	6.21	-48.0	-62.0	3.8	1.49e+00	0	38	104	0	68	17159
2026-01-25 09:38:49.23	148.55	6.28	-48.0	-62.2	3.8	1.49e+00	0	38	104	0	68	17675
2026-01-25 09:38:50.22	148.53	6.36	-48.0	-62.6	3.8	1.49e+00	0	38	104	0	68	18326
2026-01-25 09:38:51.21	148.51	6.43	-48.1	-62.8	3.8	1.49e+00	0	38	104	0	68	18888
2026-01-25 09:38:52.20	148.49	6.50	-48.1	-63.2	3.8	1.49e+00	0	38	104	0	68	19675
2026-01-25 09:38:53.20	148.47	6.58	-48.1	-63.3	3.8	1.49e+00	0	38	104	0	68	20035
2026-01-25 09:38:54.19	148.45	6.65	-48.1	-63.4	3.8	1.49e+00	0	39	104	0	68	20097
2026-01-25 09:38:55.18	148.43	6.73	-48.0	-63.3	3.8	1.49e+00	0	38	104	0	68	19949
2026-01-25 09:38:56.18	148.41	6.81	-48.0	-63.1	3.8	1.49e+00	0	39	104	0	68	19470
2026-01-25 09:38:57.17	148.39	6.88	-48.0	-62.9	3.8	1.49e+00	0	38	104	0	68	18956
2026-01-25 09:38:58.16	148.37	6.96	-48.0	-62.6	3.8	1.49e+00	0	39	104	0	68	18395
2026-01-25 09:38:59.16	148.35	7.04	-48.0	-62.3	3.8	1.49e+00	0	39	104	0	68	17699
2026-01-25 09:39:00.15	148.33	7.11	-48.0	-61.8	3.8	1.49e+00	0	39	104	0	68	16859
2026-01-25 09:39:01.14	148.31	7.19	-47.8	-61.0	3.8	1.49e+00	0	39	104	0	67	16234
2026-01-25 09:39:02.14	148.29	7.27	-47.7	-60.0	4.1	1.47e+00	0	39	104	0	67	14522
2026-01-25 09:39:03.13	148.26	7.34	-47.6	-58.9	4.4	1.36e+00	0	39	0	0	67	12749
2026-01-25 09:39:04.12	148.24	7.42	-47.4	-57.3	5.2	8.60e-01	0	39	0	2097152	66	11161
2026-01-25 09:39:05.12	148.22	7.50	-47.2	-55.8	6.2	3.48e-01	0	39	0	3145728	66	9389
2026-01-25 09:39:06.11	148.20	7.58	-46.8	-54.2	7.7	1.46e-01	0	39	0	5242880	65	8303
2026-01-25 09:39:07.10	148.18	7.65	-46.5	-52.9	8.9	4.78e-02	0	39	0	7340032	64	7619
2026-01-25 09:39:08.10	148.16	7.73	-46.0	-51.6	10.3	1.58e-02	0	39	0	9437184	64	6528
2026-01-25 09:39:09.09	148.13	7.81	-45.7	-50.8	11.2	2.45e-03	0	39	0	11534336	63	6292
2026-01-25 09:39:10.08	148.11	7.89	-45.3	-49.9	12.1	4.13e-04	0	39	0	12582912	62	6060
2026-01-25 09:39:11.07	148.09	7.97	-44.9	-49.1	13.0	1.17e-04	0	39	0	14680064	61	5802
2026-01-25 09:39:12.07	148.07	8.05	-44.5	-48.5	13.6	1.37e-05	0	39	0	16777216	61	5413
2026-01-25 09:39:13.06	148.04	8.13	-44.3	-48.1	13.9	2.20e-06	0	39	0	18874368	60	5504
2026-01-25 09:39:14.05	148.02	8.21	-44.3	-48.0	14.0	5.30e-06	0	39	0	19922944	60	5449
2026-01-25 09:39:15.05	148.00	8.29	-44.3	-48.1	14.0	4.50e-06	0	39	0	22020096	60	5521
2026-01-25 09:39:16.04	147.97	8.37	-44.3	-48.1	14.0	7.00e-07	0	39	0	24117248	60	5502
2026-01-25 09:39:17.03	147.95	8.45	-44.5	-48.4	13.6	6.10e-06	0	39	0	26214400	60	5716
2026-01-25 09:39:18.03	147.93	8.53	-44.8	-49.0	13.1	1.52e-05	0	39	0	28311552	60	6098
2026-01-25 09:39:19.02	147.90	8.61	-45.1	-49.6	12.5	5.49e-05	0	39	0	29360128	60	6510
2026-01-25 09:39:20.01	147.88	8.69	-45.5	-50.3	11.7	2.72e-04	0	39	0	31457280	61	6708
2026-01-25 09:39:21.00	147.86	8.77	-45.9	-51.3	10.7	1.53e-03	0	39	0	33554432	62	7090
2026-01-25 09:39:22.00	147.83	8.86	-46.3	-52.5	9.5	6.21e-03	0	39	0	35651584	63	7649
2026-01-25 09:39:22.99	147.81	8.94	-46.7	-53.8	8.0	4.41e-02	0	39	0	36700160	64	8412
2026-01-25 09:39:23.98	147.78	9.02	-47.0	-55.1	6.8	1.36e-01	0	39	0	38797312	64	9818
2026-01-25 09:39:24.98	147.76	9.11	-43.5	-46.7	15.4	1.79e-02	0	39	0	40894464	59	4942
2026-01-25 09:39:25.98	147.73	9.19	-44.8	-48.9	13.3	0.00e+00	0	39	0	42991616	60	6010
2026-01-25 09:39:26.97	147.71	9.27	-47.8	-61.8	3.8	9.86e-01	0	39	104	44040192	66	18791
2026-01-25 09:39:27.97	147.68	9.36	-46.8	-53.7	8.3	6.53e-01	0	39	0	44040192	65	7849
2026-01-25 09:39:28.96	147.66	9.44	-43.3	-46.4	15.7	3.37e-03	0	39	0	46137344	58	5075
2026-01-25 09:39:29.96	147.63	9.52	-43.3	-46.4	15.7	0.00e+00	0	39	0	47185920	58	5091
2026-01-25 09:39:30.95	147.61	9.61	-43.4	-46.7	15.5	3.10e-04	0	39	0	49283072	58	5230
2026-01-25 09:39:31.95	147.58	9.69	-43.0	-46.0	16.0	0.00e+00	0	39	0	51380224	58	4867
2026-01-25 09:39:32.94	147.56	9.78	-42.6	-45.5	16.6	0.00e+00	0	39	0	53477376	57	4823
2026-01-25 09:39:33.93	147.53	9.86	-42.3	-45.0	17.0	0.00e+00	0	39	0	54525952	56	4860
2026-01-25 09:39:34.93	147.51	9.95	-41.8	-44.5	17.4	0.00e+00	0	39	0	56623104	55	4834
2026-01-25 09:39:35.92	147.48	10.04	-41.8	-44.5	17.4	0.00e+00	0	39	0	58720256	55	4821
2026-01-25 09:39:36.93	147.45	10.12	-41.6	-44.2	17.7	0.00e+00	0	39	0	60817408	55	4698
2026-01-25 09:39:37.96	147.42	10.21	-41.3	-43.9	18.0	0.00e+00	0	39	0	62914560	54	4794
2026-01-25 09:39:38.95	147.40	10.30	-41.2	-43.8	18.1	0.00e+00	0	40	0	65011712	54	4718
2026-01-25 09:39:39.95	147.37	10.39	-41.2	-43.8	18.1	0.00e+00	0	39	0	66060288	54	4730
2026-01-25 09:39:40.94	147.34	10.47	-41.3	-43.8	18.1	0.00e+00	0	40	0	68157440	54	4746
2026-01-25 09:39:41.94	147.32	10.56	-41.2	-43.7	18.3	0.00e+00	0	39	0	70254592	54	4660
2026-01-25 09:39:42.93	147.29	10.65	-41.2	-43.7	18.2	0.00e+00	0	39	0	72351744	54	4683
2026-01-25 09:39:43.93	147.26	10.74	-41.1	-43.5	18.4	0.00e+00	0	40	0	73400320	54	4590
2026-01-25 09:39:44.92	147.23	10.83	-41.1	-43.5	18.4	0.00e+00	0	39	0	75497472	54	4564
2026-01-25 09:39:45.92	147.21	10.92	-41.0	-43.4	18.5	0.00e+00	0	40	0	77594624	54	4519
2026-01-25 09:39:46.91	147.18	11.01	-41.0	-43.5	18.5	0.00e+00	0	40	0	79691776	53	4825
2026-01-25 09:39:47.91	147.15	11.10	-40.8	-43.2	18.7	0.00e+00	0	40	0	81788928	53	4683
2026-01-25 09:39:48.90	147.12	11.19	-40.9	-43.3	18.7	0.00e+00	0	39	0	82837504	53	4706
2026-01-25 09:39:49.90	147.09	11.28	-40.9	-43.3	18.7	0.00e+00	0	40	0	84934656	53	4717
2026-01-25 09:39:50.89	147.06	11.37	-40.9	-43.3	18.7	0.00e+00	0	40	0	87031808	53	4711
2026-01-25 09:39:51.95	147.03	11.46	-40.8	-43.2	18.8	0.00e+00	0	40	0	89128960	53	4662
2026-01-25 09:39:52.82	147.01	11.54	-40.7	-43.0	18.9	0.00e+00	0	40	0	90177536	53	4593
2026-01-25 09:39:53.96	146.97	11.65	-40.7	-43.0	18.9	0.00e+00	0	40	0	92274688	53	4591
2026-01-25 09:39:54.81	146.95	11.73	-40.5	-42.7	19.2	0.00e+00	0	39	0	94371840	52	4689
2026-01-25 09:39:55.95	146.91	11.83	-40.2	-42.4	19.5	0.00e+00	0	40	0	96468992	52	4518
2026-01-25 09:39:56.80	146.89	11.91	-40.3	-42.6	19.4	0.00e+00	0	40	0	97517568	52	4604
2026-01-25 09:39:57.94	146.85	12.02	-40.0	-42.2	19.7	0.00e+00	0	40	0	99614720	52	4412
2026-01-25 09:39:58.79	146.82	12.10	-40.0	-42.2	19.7	0.00e+00	0	40	0	101711872	51	4688
2026-01-25 09:39:59.93	146.79	12.21	-40.1	-42.2	19.7	0.00e+00	0	40	0	103809024	51	4703
2026-01-25 09:40:00.78	146.76	12.29	-40.2	-42.4	19.6	0.00e+00	0	40	0	104857600	51	4766
2026-01-25 09:40:01.97	146.72	12.40	-40.1	-42.3	19.6	0.00e+00	0	40	0	108003328	51	4734
2026-01-25 09:40:02.82	146.70	12.48	-40.1	-42.4	19.6	0.00e+00	0	40	0	109051904	51	4768
2026-01-25 09:40:04.02	146.66	12.60	-40.2	-42.5	19.4	0.00e+00	0	40	0	111149056	51	4859
2026-01-25 09:40:04.87	146.63	12.68	-40.3	-42.6	19.4	0.00e+00	0	40	0	113246208	51	4920
2026-01-25 09:40:06.07	146.59	12.79	-40.5	-42.9	19.1	0.00e+00	0	40	0	115343360	51	5058
2026-01-25 09:40:06.92	146.57	12.88	-40.6	-43.1	18.9	0.00e+00	0	40	0	116391936	52	4888
2026-01-25 09:40:08.06	146.53	12.99	-40.8	-43.3	18.7	0.00e+00	0	40	0	119537664	52	5004
2026-01-25 09:40:08.91	146.50	13.07	-40.7	-43.2	18.8	0.00e+00	0	40	0	120586240	52	4959
2026-01-25 09:40:10.05	146.46	13.18	-40.9	-43.5	18.5	0.00e+00	0	40	0	122683392	52	5135
2026-01-25 09:40:10.90	146.43	13.27	-40.9	-43.4	18.6	0.00e+00	0	40	0	124780544	52	5090
2026-01-25 09:40:12.03	146.40	13.38	-40.9	-43.4	18.6	0.00e+00	0	40	0	126877696	52	5086
2026-01-25 09:40:12.89	146.37	13.46	-41.0	-43.6	18.5	0.00e+00	0	40	0	127926272	52	5163
2026-01-25 09:40:14.02	146.33	13.57	-40.9	-43.4	18.2	0.00e+00	0	40	0	130023424	52	5096
2026-01-25 09:40:14.88	146.30	13.66	-40.6	-43.0	19.0	0.00e+00	0	40	0	132120576	52	4828
2026-01-25 09:40:16.01	146.26	13.77	-40.6	-42.9	19.1	0.00e+00	0	40	0	134217728	52	4813
2026-01-25 09:40:16.87	146.23	13.86	-40.6	-42.9	19.0	0.00e+00	0	40	0	135266304	52	4805
2026-01-25 09:40:18.00	146.19	13.97	-40.5	-42.8	19.2	0.00e+00	0	40	0	137363456	52	4707
2026-01-25 09:40:18.85	146.16	14.06	-40.3	-42.6	19.4	0.00e+00	0	40	0	139460608	52	4610
2026-01-25 09:40:19.99	146.12	14.18	-40.3	-42.6	19.3	0.00e+00	0	40	0	141557760	52	4624
2026-01-25 09:40:20.85	146.09	14.27	-40.3	-42.5	19.5	0.00e+00	0	40	0	142606336	52	4579
2026-01-25 09:40:21.98	146.05	14.38	-40.2	-42.4	19.6	0.00e+00	0	40	0	144703488	52	4505
2026-01-25 09:40:22.83	146.01	14.47	-40.2	-42.4	19.5	0.00e+00	0	40	0	146800640	52	4545
2026-01-25 09:40:23.97	145.97	14.59	-40.2	-42.4	19.5	0.00e+00	0	40	0	148897792	52	4520
2026-01-25 09:40:24.82	145.94	14.68	-40.1	-42.3	19.6	0.00e+00	0	40	0	149946368	52	4475
2026-01-25 09:40:25.96	145.90	14.80	-40.2	-42.4	19.6	0.00e+00	0	40	0	153092096	52	4504
2026-01-25 09:40:26.82	145.87	14.89	-40.3	-42.5	19.5	0.00e+00	0	40	0	154140672	52	4554
2026-01-25 09:40:27.95	145.82	15.00	-40.2	-42.4	19.6	0.00e+00	0	40	0	156237824	52	4513
2026-01-25 09:40:28.89	145.79	15.10	-40.3	-42.5	19.4	0.00e+00	0	40	0	158334976	52	4590
2026-01-25 09:40:29.88	145.75	15.21	-40.4	-42.6	19.4	0.00e+00	0	40	0	160432128	52	4636
2026-01-25 09:40:30.88	145.71	15.32	-40.3	-42.6	19.4	0.00e+00	0	40	0	161480704	52	4607
2026-01-25 09:40:31.87	145.67	15.42	-40.5	-42.8	19.2	0.00e+00	0	40	0	163577856	52	4757
2026-01-25 09:40:32.87	145.63	15.53	-40.6	-42.9	19.1	0.00e+00	0	40	0	165675008	52	4783
2026-01-25 09:40:33.86	145.59	15.64	-40.6	-43.0	19.1	0.00e+00	0	40	0	167772160	52	4819
2026-01-25 09:40:34.86	145.55	15.75	-40.6	-42.9	19.1	0.00e+00	0	40	0	168820736	52	4801
2026-01-25 09:40:35.85	145.51	15.85	-40.5	-42.8	19.2	0.00e+00	0	40	0	170917888	52	4753
2026-01-25 09:40:36.85	145.47	15.96	-40.5	-42.8	19.2	0.00e+00	0	40	0	173015040	52	4753
2026-01-25 09:40:37.84	145.43	16.07	-40.3	-42.6	19.4	0.00e+00	0	40	0	175112192	52	4599
2026-01-25 09:40:38.83	145.39	16.18	-40.1	-42.3	19.7	0.00e+00	0	40	0	177209344	52	4469
2026-01-25 09:40:39.88	145.35	16.30	-40.1	-42.2	19.7	0.00e+00	0	40	0	178257920	52	4431
2026-01-25 09:40:40.84	145.31	16.41	-39.8	-41.9	20.0	0.00e+00	0	40	0	180355072	51	4516
2026-01-25 09:40:41.83	145.26	16.52	-39.7	-41.7	20.2	0.00e+00	0	40	0	182452224	51	4439
2026-01-25 09:40:42.83	145.22	16.63	-39.7	-41.7	20.2	0.00e+00	0	40	0	184549376	51	4416
2026-01-25 09:40:43.82	145.18	16.74	-39.6	-41.6	20.3	0.00e+00	0	40	0	185597952	51	4374
2026-01-25 09:40:44.82	145.13	16.85	-39.7	-41.7	20.2	0.00e+00	0	40	0	187695104	51	4410
2026-01-25 09:40:45.81	145.09	16.97	-39.8	-41.8	20.1	0.00e+00	0	40	0	189792256	51	4483
2026-01-25 09:40:46.80	145.05	17.08	-40.0	-42.2	19.8	0.00e+00	0	40	0	191889408	51	4660
2026-01-25 09:40:47.80	145.00	17.20	-40.5	-42.8	19.3	0.00e+00	0	40	0	193986560	51	4998
2026-01-25 09:40:48.79	144.96	17.31	-40.6	-42.9	19.1	0.00e+00	0	40	0	195035136	51	5098
2026-01-25 09:40:49.79	144.91	17.43	-40.7	-43.1	19.0	0.00e+00	0	40	0	197132288	52	4898
2026-01-25 09:40:50.78	144.87	17.54	-40.9	-43.4	18.7	0.00e+00	0	40	0	199229440	52	5056
2026-01-25 09:40:51.78	144.82	17.66	-40.7	-43.2	18.9	0.00e+00	0	40	0	201326592	52	4930
2026-01-25 09:40:52.77	144.78	17.77	-40.6	-43.0	19.1	0.00e+00	0	40	0	202375168	52	4829
2026-01-25 09:40:53.76	144.73	17.89	-40.5	-42.8	19.2	0.00e+00	0	40	0	204472320	52	4734
2026-01-25 09:40:54.76	144.68	18.01	-40.4	-42.6	19.4	0.00e+00	0	40	0	206569472	52	4648
2026-01-25 09:40:55.75	144.64	18.13	-40.1	-42.2	19.7	0.00e+00	0	40	0	208666624	52	4430
2026-01-25 09:40:56.75	144.59	18.25	-39.7	-41.8	20.2	0.00e+00	0	40	0	210763776	51	4483
2026-01-25 09:40:57.74	144.54	18.37	-39.5	-41.6	20.3	0.00e+00	0	40	0	211812352	51	4374
2026-01-25 09:40:58.74	144.49	18.49	-39.7	-41.7	20.3	0.00e+00	0	40	0	213909504	51	4432
2026-01-25 09:40:59.73	144.44	18.61	-39.7	-41.8	20.3	0.00e+00	0	40	0	216006656	51	4446
2026-01-25 09:41:00.73	144.40	18.73	-39.8	-41.9	20.1	0.00e+00	0	40	0	218103808	51	4542
2026-01-25 09:41:01.73	144.35	18.85	-40.1	-42.4	19.7	0.00e+00	0	40	0	219152384	51	4762
2026-01-25 09:41:02.72	144.30	18.98	-40.4	-42.7	19.4	0.00e+00	0	40	0	221249536	51	4950
2026-01-25 09:41:03.72	144.25	19.10	-40.9	-43.4	18.7	0.00e+00	0	40	0	223346688	52	5049
2026-01-25 09:41:04.71	144.19	19.22	-41.2	-43.7	18.4	0.00e+00	0	40	0	225443840	52	5260
2026-01-25 09:41:05.71	144.14	19.35	-41.1	-43.7	18.4	0.00e+00	0	40	0	227540992	53	4942
2026-01-25 09:41:06.70	144.09	19.47	-41.3	-44.0	18.2	0.00e+00	0	40	0	228589568	53	5107
2026-01-25 09:41:07.70	144.04	19.60	-41.2	-43.8	18.4	0.00e+00	0	40	0	230686720	53	4984
2026-01-25 09:41:08.74	143.98	19.73	-41.1	-43.6	18.5	0.00e+00	0	40	0	232783872	53	4877
2026-01-25 09:41:09.75	143.93	19.86	-40.5	-42.9	19.2	0.00e+00	0	40	0	234881024	53	4506
2026-01-25 09:41:10.75	143.88	19.99	-40.4	-42.7	19.4	0.00e+00	0	40	0	236978176	52	4684
2026-01-25 09:41:11.74	143.82	20.12	-40.4	-42.7	19.4	0.00e+00	0	40	0	238026752	52	4660
2026-01-25 09:41:12.83	143.76	20.26	-40.0	-42.2	19.9	0.00e+00	0	40	0	240123904	51	4652
2026-01-25 09:41:13.72	143.71	20.37	-40.2	-42.4	19.7	0.00e+00	0	40	0	242221056	51	4775
2026-01-25 09:41:14.85	143.65	20.52	-40.3	-42.5	19.6	0.00e+00	0	40	0	244318208	51	4836
2026-01-25 09:41:15.70	143.60	20.63	-40.1	-42.3	19.8	0.00e+00	0	40	0	246415360	51	4720
2026-01-25 09:41:16.84	143.54	20.78	-40.5	-42.8	19.4	0.00e+00	0	40	0	248512512	51	5002
2026-01-25 09:41:17.69	143.49	20.90	-40.6	-43.0	19.1	0.00e+00	0	40	0	249561088	52	4819
2026-01-25 09:41:18.83	143.42	21.05	-40.7	-43.0	19.1	0.00e+00	0	40	0	251658240	52	4823
2026-01-25 09:41:19.68	143.37	21.16	-40.8	-43.1	19.0	0.00e+00	0	40	0	253755392	52	4904
2026-01-25 09:41:20.82	143.31	21.32	-40.6	-42.9	19.3	0.00e+00	0	40	0	255852544	52	4767
2026-01-25 09:41:21.68	143.26	21.43	-40.6	-42.8	19.3	0.00e+00	0	40	0	256901120	52	4723
2026-01-25 09:41:22.81	143.19	21.59	-40.5	-42.7	19.4	0.00e+00	0	40	0	258998272	52	4658
2026-01-25 09:41:23.67	143.14	21.70	-40.6	-42.8	19.3	0.00e+00	0	40	0	261095424	52	4721
2026-01-25 09:41:24.80	143.07	21.86	-40.6	-42.8	19.3	0.00e+00	0	40	0	263192576	52	4711
2026-01-25 09:41:25.66	143.01	21.98	-40.7	-43.0	19.1	0.00e+00	0	40	0	264241152	52	4815
2026-01-25 09:41:26.89	142.94	22.15	-40.9	-43.2	18.9	0.00e+00	0	40	0	267386880	52	4978
2026-01-25 09:41:27.74	142.88	22.27	-41.2	-43.6	18.5	0.00e+00	0	40	0	268435456	53	4914
2026-01-25 09:41:28.88	142.81	22.43	-41.4	-43.8	18.3	0.00e+00	0	40	0	270532608	53	5036
2026-01-25 09:41:29.73	142.76	22.55	-41.5	-44.0	18.2	0.00e+00	0	40	0	272629760	53	5151
2026-01-25 09:41:30.87	142.68	22.71	-41.8	-44.4	17.8	0.00e+00	0	40	0	274726912	54	5072
2026-01-25 09:41:31.72	142.63	22.83	-41.6	-44.2	17.7	0.00e+00	0	40	0	275775488	54	4953
2026-01-25 09:41:32.86	142.55	23.00	-41.6	-44.1	18.1	0.00e+00	0	40	0	277872640	54	4893
2026-01-25 09:41:33.71	142.50	23.12	-41.7	-44.3	18.0	0.00e+00	0	40	0	279969792	54	5002
2026-01-25 09:41:34.85	142.42	23.28	-41.0	-43.4	18.7	0.00e+00	0	40	0	282066944	54	4504
2026-01-25 09:41:35.70	142.36	23.41	-41.0	-43.4	18.8	0.00e+00	0	40	0	283115520	53	4768
2026-01-25 09:41:36.84	142.28	23.57	-40.8	-43.1	19.0	0.00e+00	0	40	0	285212672	53	4640
2026-01-25 09:41:37.69	142.23	23.70	-41.0	-43.3	18.8	0.00e+00	0	40	0	287309824	53	4742
2026-01-25 09:41:38.83	142.15	23.87	-41.5	-44.0	18.2	0.00e+00	0	40	0	289406976	53	5109
2026-01-25 09:41:39.68	142.09	24.00	-41.7	-44.3	17.9	0.00e+00	0	40	0	290455552	54	5008
2026-01-25 09:41:40.85	142.00	24.17	-41.9	-44.5	17.8	0.00e+00	0	40	0	292552704	54	5154
2026-01-25 09:41:41.71	141.94	24.30	-41.9	-44.5	17.7	0.00e+00	0	40	0	294649856	55	4864
2026-01-25 09:41:42.84	141.86	24.47	-42.3	-45.0	17.3	0.00e+00	0	40	0	296747008	55	5119
2026-01-25 09:41:43.69	141.80	24.60	-41.9	-44.4	17.8	0.00e+00	0	40	0	298844160	55	4793
2026-01-25 09:41:45.02	141.70	24.80	-42.0	-44.5	17.8	0.00e+00	0	40	0	300941312	55	4827
2026-01-25 09:41:45.73	141.65	24.91	-41.7	-44.1	18.1	0.00e+00	0	40	0	301989888	55	4640
2026-01-25 09:41:47.03	141.55	25.11	-41.5	-43.8	18.4	0.00e+00	0	41	0	304087040	54	4756
2026-01-25 09:41:47.74	141.49	25.23	-41.5	-43.9	18.3	0.00e+00	0	40	0	306184192	54	4799
2026-01-25 09:41:49.01	141.39	25.42	-41.7	-44.2	18.1	0.00e+00	0	40	0	308281344	54	4928
2026-01-25 09:41:49.72	141.34	25.54	-41.8	-44.2	18.0	0.00e+00	0	40	0	309329920	54	4982
2026-01-25 09:41:51.00	141.24	25.74	-42.0	-44.6	17.7	0.00e+00	0	40	0	312475648	54	5182
2026-01-25 09:41:51.73	141.18	25.85	-42.0	-44.6	17.6	0.00e+00	0	40	0	313524224	54	5216
2026-01-25 09:41:53.01	141.08	26.06	-42.0	-44.6	17.7	0.00e+00	0	40	0	315621376	54	5163
2026-01-25 09:41:53.72	141.02	26.17	-41.9	-44.4	17.8	0.00e+00	0	40	0	316669952	54	5093
2026-01-25 09:41:54.99	140.92	26.38	-41.4	-43.8	18.5	0.00e+00	0	40	0	319815680	54	4718
2026-01-25 09:41:55.73	140.85	26.50	-41.7	-44.1	18.1	0.00e+00	0	40	0	320864256	54	4918
2026-01-25 09:41:57.01	140.75	26.71	-41.5	-43.9	18.4	0.00e+00	0	40	0	322961408	54	4780
2026-01-25 09:41:57.74	140.68	26.83	-41.5	-43.9	18.3	0.00e+00	0	40	0	325058560	54	4792
2026-01-25 09:41:59.02	140.57	27.04	-42.0	-44.5	17.8	0.00e+00	0	41	0	327155712	54	5142
2026-01-25 09:41:59.73	140.51	27.16	-42.0	-44.6	17.8	0.00e+00	0	40	0	328204288	54	5177
2026-01-25 09:42:01.23	140.38	27.41	-42.1	-44.7	17.6	0.00e+00	0	40	0	331350016	55	4931
2026-01-25 09:42:01.94	140.32	27.53	-41.9	-44.4	17.9	0.00e+00	0	40	0	332398592	55	4760
2026-01-25 09:42:03.22	140.20	27.75	-41.8	-44.3	18.0	0.00e+00	0	40	0	334495744	55	4728
2026-01-25 09:42:03.93	140.14	27.87	-41.6	-44.0	18.2	0.00e+00	0	40	0	336592896	55	4566
2026-01-25 09:42:05.21	140.02	28.09	-41.5	-43.9	18.4	0.00e+00	0	40	0	338690048	54	4767
2026-01-25 09:42:05.92	139.96	28.21	-41.2	-43.5	18.7	0.00e+00	0	40	0	339738624	54	4564
2026-01-25 09:42:07.20	139.84	28.43	-41.3	-43.6	18.6	0.00e+00	0	40	0	342884352	54	4637
2026-01-25 09:42:07.91	139.77	28.56	-41.8	-44.2	18.0	0.00e+00	0	40	0	343932928	54	4954
2026-01-25 09:42:09.19	139.65	28.78	-41.9	-44.4	18.0	0.00e+00	0	40	0	346030080	54	5043
2026-01-25 09:42:09.90	139.58	28.91	-42.3	-44.9	17.4	0.00e+00	0	40	0	347078656	55	5084
2026-01-25 09:42:11.18	139.45	29.13	-43.0	-45.8	16.8	0.00e+00	0	40	0	350224384	56	5316
2026-01-25 09:42:11.89	139.38	29.26	-42.8	-45.5	17.0	0.00e+00	0	40	0	351272960	56	5137
2026-01-25 09:42:13.18	139.25	29.49	-43.2	-46.1	16.3	0.00e+00	0	40	0	353370112	57	5204
2026-01-25 09:42:13.89	139.18	29.62	-43.0	-45.8	16.7	0.00e+00	0	40	0	355467264	57	4986
2026-01-25 09:42:15.17	139.05	29.85	-42.8	-45.5	16.9	0.00e+00	0	40	0	357564416	57	4866
2026-01-25 09:42:16.20	138.94	30.04	-43.2	-46.1	16.5	0.00e+00	0	40	0	359661568	57	5185
2026-01-25 09:42:17.19	138.84	30.22	-43.5	-46.5	16.1	0.00e+00	0	40	0	360710144	57	5427
2026-01-25 09:42:18.19	138.73	30.41	-43.4	-46.4	16.0	0.00e+00	0	41	0	362807296	57	5375
2026-01-25 09:42:19.18	138.63	30.59	-43.2	-46.1	16.4	0.00e+00	0	40	0	364904448	58	4920
2026-01-25 09:42:20.18	138.52	30.78	-42.9	-45.6	16.8	0.00e+00	0	40	0	367001600	57	4922
2026-01-25 09:42:21.17	138.41	30.97	-43.3	-46.2	16.2	0.00e+00	0	40	0	369098752	57	5278
2026-01-25 09:42:22.23	138.29	31.17	-42.9	-45.6	16.9	0.00e+00	0	40	0	370147328	57	4910
2026-01-25 09:42:23.16	138.18	31.34	-43.1	-45.9	16.5	0.00e+00	0	40	0	372244480	57	5090
2026-01-25 09:42:24.15	138.07	31.53	-43.8	-46.9	15.6	0.00e+00	0	40	0	374341632	58	5377
2026-01-25 09:42:25.33	137.93	31.76	-44.0	-47.2	15.3	0.00e+00	0	40	0	376438784	58	5581
2026-01-25 09:42:26.22	137.83	31.93	-44.2	-47.7	14.9	7.00e-07	0	40	0	378535936	59	5557
2026-01-25 09:42:27.36	137.69	32.16	-44.0	-47.3	15.3	0.00e+00	0	40	0	380633088	60	5025
2026-01-25 09:42:28.21	137.59	32.32	-43.9	-47.0	15.6	0.00e+00	0	40	0	381681664	59	5119
2026-01-25 09:42:29.35	137.45	32.55	-43.5	-46.4	16.1	0.00e+00	0	40	0	383778816	58	5073
2026-01-25 09:42:30.20	137.35	32.72	-42.7	-45.3	17.2	0.00e+00	0	41	0	385875968	57	4745
2026-01-25 09:42:31.34	137.21	32.94	-42.9	-45.6	16.9	0.00e+00	0	40	0	387973120	57	4903
2026-01-25 09:42:32.19	137.10	33.11	-43.2	-46.1	16.2	0.00e+00	0	40	0	389021696	57	5196
2026-01-25 09:42:33.33	136.95	33.34	-43.9	-47.1	15.5	0.00e+00	0	41	0	391118848	58	5494
2026-01-25 09:42:34.18	136.84	33.52	-44.4	-47.8	14.7	0.00e+00	0	40	0	393216000	59	5652
2026-01-25 09:42:35.32	136.69	33.75	-44.8	-48.6	14.1	2.20e-06	0	40	0	395313152	60	5833
2026-01-25 09:42:36.17	136.58	33.93	-44.7	-48.5	14.1	0.00e+00	0	41	0	396361728	60	5749
2026-01-25 09:42:37.34	136.42	34.17	-44.3	-47.8	14.8	0.00e+00	0	40	0	398458880	60	5314
2026-01-25 09:42:38.19	136.31	34.34	-44.3	-47.8	14.8	7.00e-07	0	40	0	400556032	60	5332
2026-01-25 09:42:39.32	136.15	34.58	-44.3	-47.9	14.8	0.00e+00	0	41	0	402653184	60	5360
2026-01-25 09:42:40.21	136.03	34.77	-44.4	-48.0	14.5	0.00e+00	0	40	0	404750336	59	5767
2026-01-25 09:42:41.52	135.84	35.04	-44.9	-48.9	13.7	1.50e-06	0	41	0	406847488	60	6035
2026-01-25 09:42:42.23	135.74	35.20	-44.7	-48.7	13.9	7.60e-06	0	40	0	407896064	60	5871
2026-01-25 09:42:43.73	135.52	35.52	-45.4	-49.7	13.0	2.82e-05	0	40	0	411041792	61	6253
2026-01-25 09:42:44.44	135.42	35.67	-45.4	-49.8	12.9	2.36e-05	0	40	0	412090368	61	6276
2026-01-25 09:42:45.72	135.22	35.95	-45.2	-49.4	13.2	2.20e-06	0	41	0	414187520	61	5999
2026-01-25 09:42:46.43	135.12	36.10	-45.1	-49.1	13.5	3.89e-05	0	40	0	416284672	61	5801
2026-01-25 09:42:47.71	134.92	36.38	-44.8	-48.5	14.2	9.10e-06	0	40	0	418381824	61	5413
2026-01-25 09:42:48.42	134.81	36.54	-44.6	-48.3	14.4	7.00e-07	0	40	0	419430400	60	5595
2026-01-25 09:42:49.70	134.60	36.82	-44.1	-47.4	15.3	0.00e+00	0	40	0	422576128	60	5056
2026-01-25 09:42:50.42	134.49	36.98	-43.4	-46.2	16.2	0.00e+00	0	40	0	423624704	58	4978
2026-01-25 09:42:51.70	134.28	37.27	-42.9	-45.6	16.9	0.00e+00	0	41	0	425721856	57	4925
2026-01-25 09:42:52.46	134.15	37.44	-43.2	-46.1	16.4	0.00e+00	0	41	0	427819008	57	5212
2026-01-25 09:42:53.74	133.94	37.73	-43.2	-46.1	16.4	0.00e+00	0	40	0	429916160	57	5213
2026-01-25 09:42:54.49	133.81	37.90	-43.5	-46.5	16.0	0.00e+00	0	40	0	430964736	57	5451
2026-01-25 09:42:55.78	133.59	38.20	-43.2	-46.0	16.4	0.00e+00	0	41	0	433061888	57	5152
2026-01-25 09:42:56.49	133.47	38.36	-43.1	-45.9	16.7	0.00e+00	0	40	0	435159040	57	5086
2026-01-25 09:42:57.77	133.24	38.66	-42.9	-45.7	16.9	0.00e+00	0	41	0	437256192	57	4930
2026-01-25 09:42:58.48	133.11	38.83	-42.8	-45.5	17.0	0.00e+00	0	40	0	438304768	57	4844
2026-01-25 09:42:59.76	132.88	39.13	-42.9	-45.5	17.0	0.00e+00	0	41	0	441450496	57	4867
2026-01-25 09:43:00.47	132.74	39.29	-42.6	-45.2	17.3	0.00e+00	0	40	0	442499072	57	4679
2026-01-25 09:43:01.75	132.50	39.60	-42.4	-44.9	17.6	0.00e+00	0	41	0	444596224	56	4783
2026-01-25 09:43:02.48	132.36	39.77	-42.5	-45.1	17.5	0.00e+00	0	41	0	445644800	56	4877
2026-01-25 09:43:03.75	132.12	40.08	-42.2	-44.7	17.8	0.00e+00	0	40	0	448790528	56	4705
2026-01-25 09:43:04.46	131.98	40.25	-42.7	-45.4	17.2	0.00e+00	0	41	0	449839104	56	5052
2026-01-25 09:43:05.74	131.72	40.56	-43.0	-45.8	16.9	0.00e+00	0	40	0	451936256	57	5013
2026-01-25 09:43:06.47	131.57	40.73	-43.4	-46.4	16.3	0.00e+00	0	41	0	454033408	57	5341
2026-01-25 09:43:07.75	131.31	41.05	-43.1	-45.9	16.6	0.00e+00	0	40	0	456130560	57	5080
2026-01-25 09:43:08.49	131.15	41.23	-42.9	-45.7	16.9	0.00e+00	0	40	0	457179136	57	4938
2026-01-25 09:43:09.77	130.88	41.54	-43.0	-45.9	16.7	0.00e+00	0	40	0	459276288	57	5045
2026-01-25 09:43:10.52	130.72	41.73	-43.2	-46.0	16.6	0.00e+00	0	41	0	461373440	57	5136
2026-01-25 09:43:11.80	130.44	42.05	-43.2	-46.0	16.5	0.00e+00	0	40	0	463470592	57	5134
2026-01-25 09:43:12.61	130.26	42.25	-42.5	-45.1	17.5	0.00e+00	0	41	0	465567744	56	4896
2026-01-25 09:43:14.03	129.94	42.61	-42.5	-45.1	17.4	0.00e+00	0	41	0	467664896	56	4874
2026-01-25 09:43:14.74	129.77	42.79	-42.9	-45.6	16.9	0.00e+00	0	41	0	468713472	57	4918
2026-01-25 09:43:16.02	129.47	43.12	-43.2	-46.0	16.6	0.00e+00	0	40	0	471859200	57	5131
2026-01-25 09:43:16.73	129.30	43.30	-43.1	-46.0	16.6	0.00e+00	0	41	0	472907776	57	5122
2026-01-25 09:43:18.01	128.99	43.63	-43.2	-46.0	16.6	0.00e+00	0	41	0	475004928	57	5157
2026-01-25 09:43:18.74	128.82	43.81	-43.0	-45.9	16.8	0.00e+00	0	40	0	477102080	57	5046
2026-01-25 09:43:20.02	128.49	44.15	-42.8	-45.6	17.0	0.00e+00	0	41	0	479199232	57	4905
2026-01-25 09:43:20.74	128.31	44.33	-43.4	-46.4	16.2	0.00e+00	0	40	0	480247808	57	5342
2026-01-25 09:43:22.02	127.98	44.67	-42.8	-45.5	17.1	0.00e+00	0	41	0	482344960	57	4852
2026-01-25 09:43:22.75	127.79	44.86	-42.4	-44.9	17.6	0.00e+00	0	41	0	484442112	56	4803
2026-01-25 09:43:24.05	127.44	45.20	-42.2	-44.8	17.8	0.00e+00	0	41	0	486539264	56	4711
2026-01-25 09:43:24.76	127.25	45.39	-42.2	-44.7	17.8	0.00e+00	0	40	0	487587840	56	4693
2026-01-25 09:43:26.04	126.89	45.73	-42.3	-44.9	17.7	0.00e+00	0	41	0	490733568	56	4789
2026-01-25 09:43:26.75	126.69	45.92	-42.3	-44.8	17.6	0.00e+00	0	40	0	491782144	56	4756
2026-01-25 09:43:28.20	126.28	46.30	-42.3	-44.8	17.5	0.00e+00	0	40	0	493879296	55	5029
2026-01-25 09:43:28.91	126.07	46.50	-42.2	-44.7	17.7	0.00e+00	0	41	0	495976448	55	4980
2026-01-25 09:43:30.21	125.69	46.85	-43.0	-45.8	16.9	0.00e+00	0	41	0	498073600	56	5319
2026-01-25 09:43:30.92	125.47	47.04	-42.3	-44.8	17.7	0.00e+00	0	40	0	499122176	56	4753
2026-01-25 09:43:32.19	125.08	47.38	-41.4	-43.7	18.6	0.00e+00	0	40	0	502267904	54	4694
2026-01-25 09:43:32.91	124.86	47.58	-41.5	-43.9	18.4	0.00e+00	0	40	0	503316480	54	4768
2026-01-25 09:43:34.19	124.45	47.93	-42.1	-44.7	17.8	0.00e+00	0	41	0	505413632	54	5245
2026-01-25 09:43:34.93	124.21	48.13	-42.1	-44.8	17.6	0.00e+00	0	40	0	506462208	55	4993
2026-01-25 09:43:36.20	123.79	48.48	-41.8	-44.3	18.1	0.00e+00	0	40	0	509607936	55	4708
2026-01-25 09:43:36.93	123.55	48.68	-41.7	-44.2	18.1	0.00e+00	0	40	0	510656512	55	4689
2026-01-25 09:43:38.21	123.11	49.03	-41.6	-44.1	18.5	0.00e+00	0	41	0	512753664	54	4882
2026-01-25 09:43:39.01	122.83	49.25	-41.7	-44.2	18.1	0.00e+00	0	41	0	514850816	54	4983
2026-01-25 09:43:40.15	122.42	49.56	-41.4	-43.8	18.5	0.00e+00	0	40	0	516947968	54	4739
2026-01-25 09:43:41.01	122.11	49.80	-41.1	-43.4	18.9	0.00e+00	0	41	0	517996544	53	4788
2026-01-25 09:43:42.14	121.70	50.12	-41.3	-43.7	18.7	0.00e+00	0	41	0	520093696	53	4936
2026-01-25 09:43:43.25	121.28	50.42	-41.4	-43.8	18.5	0.00e+00	0	41	0	522190848	53	5036
2026-01-25 09:43:44.10	120.96	50.66	-41.0	-43.2	19.0	0.00e+00	0	41	0	524288000	53	4699
2026-01-25 09:43:45.24	120.51	50.98	-40.0	-42.1	20.1	0.00e+00	0	41	0	526385152	52	4343
2026-01-25 09:43:46.09	120.18	51.21	-40.1	-42.1	20.1	0.00e+00	0	41	0	527433728	51	4646
2026-01-25 09:43:47.23	119.71	51.53	-40.9	-43.1	19.2	0.00e+00	0	41	0	529530880	52	4891
2026-01-25 09:43:48.08	119.36	51.77	-41.0	-43.3	19.0	0.00e+00	0	41	0	531628032	52	5019
2026-01-25 09:43:49.22	118.89	52.09	-40.9	-43.2	19.1	0.00e+00	0	41	0	533725184	52	4944
2026-01-25 09:43:50.07	118.52	52.32	-40.9	-43.2	19.1	0.00e+00	0	41	0	535822336	52	4951
2026-01-25 09:43:51.21	118.03	52.64	-41.0	-43.3	18.9	0.00e+00	0	41	0	537919488	53	4748
2026-01-25 09:43:52.06	117.65	52.88	-40.6	-42.8	19.4	0.00e+00	0	40	0	538968064	53	4472
2026-01-25 09:43:53.20	117.13	53.20	-40.3	-42.3	19.9	0.00e+00	0	41	0	541065216	52	4490
2026-01-25 09:43:54.05	116.74	53.43	-40.5	-42.6	19.6	0.00e+00	0	41	0	543162368	52	4643
2026-01-25 09:43:55.19	116.20	53.75	-41.3	-43.7	18.6	0.00e+00	0	41	0	545259520	53	4943
2026-01-25 09:43:56.12	115.76	54.01	-41.5	-43.9	18.4	0.00e+00	0	40	0	546308096	53	5068
2026-01-25 09:43:57.11	115.27	54.28	-41.6	-44.1	18.4	0.00e+00	0	40	0	548405248	53	5170
2026-01-25 09:43:58.11	114.78	54.56	-41.8	-44.3	18.1	0.00e+00	0	41	0	550502400	54	5013
2026-01-25 09:43:59.10	114.27	54.83	-41.7	-44.2	18.1	0.00e+00	0	41	0	552599552	54	4964
2026-01-25 09:44:00.10	113.76	55.10	-40.9	-43.2	19.1	0.00e+00	0	40	0	553648128	53	4655
2026-01-25 09:44:01.10	113.23	55.38	-41.1	-43.4	18.9	0.00e+00	0	41	0	555745280	53	4794
2026-01-25 09:44:02.09	112.70	55.65	-41.4	-43.9	18.5	0.00e+00	0	41	0	557842432	53	5054
2026-01-25 09:44:03.09	112.15	55.92	-41.1	-43.5	18.8	0.00e+00	0	41	0	559939584	54	4579
2026-01-25 09:44:04.08	111.59	56.18	-40.4	-42.7	19.6	0.00e+00	0	41	0	562036736	52	4664
2026-01-25 09:44:05.08	111.02	56.45	-40.9	-43.2	19.1	0.00e+00	0	41	0	563085312	52	4981
2026-01-25 09:44:06.07	110.45	56.72	-40.9	-43.2	19.1	0.00e+00	0	41	0	565182464	52	4945
2026-01-25 09:44:07.06	109.86	56.98	-40.6	-42.8	19.4	0.00e+00	0	41	0	567279616	52	4759
2026-01-25 09:44:08.06	109.26	57.24	-40.7	-43.0	19.4	0.00e+00	0	41	0	569376768	52	4828
2026-01-25 09:44:09.05	108.65	57.50	-41.8	-44.3	18.1	0.00e+00	0	41	0	570425344	54	5006
2026-01-25 09:44:10.04	108.03	57.76	-42.3	-44.9	17.5	0.00e+00	0	41	0	572522496	55	5085
2026-01-25 09:44:11.04	107.39	58.01	-41.6	-44.0	18.4	0.00e+00	0	41	0	574619648	55	4559
2026-01-25 09:44:12.03	106.74	58.27	-41.3	-43.6	18.8	0.00e+00	0	41	0	576716800	54	4628
2026-01-25 09:44:13.03	106.08	58.52	-41.1	-43.4	18.9	0.00e+00	0	41	0	578813952	53	4787
2026-01-25 09:44:14.02	105.41	58.77	-41.3	-43.7	18.6	0.00e+00	0	40	0	579862528	53	4955
2026-01-25 09:44:15.02	104.72	59.01	-42.4	-45.1	17.3	0.00e+00	0	41	0	581959680	55	5209
2026-01-25 09:44:16.01	104.02	59.26	-42.3	-44.8	17.7	0.00e+00	0	41	0	584056832	56	4758
2026-01-25 09:44:17.01	103.30	59.50	-41.5	-43.9	18.6	0.00e+00	0	40	0	586153984	55	4494
2026-01-25 09:44:18.00	102.58	59.73	-41.0	-43.2	19.1	0.00e+00	0	40	0	587202560	53	4692
2026-01-25 09:44:19.00	101.84	59.97	-40.9	-43.2	19.2	0.00e+00	0	41	0	589299712	53	4652
2026-01-25 09:44:19.99	101.09	60.20	-40.8	-43.0	19.3	0.00e+00	0	40	0	591396864	53	4594
2026-01-25 09:44:20.99	100.32	60.42	-40.6	-42.8	19.5	0.00e+00	0	41	0	593494016	53	4465
2026-01-25 09:44:21.98	99.55	60.64	-40.7	-43.0	19.3	0.00e+00	0	41	0	595591168	53	4560
2026-01-25 09:44:22.98	98.75	60.86	-40.8	-43.1	19.2	0.00e+00	0	41	0	596639744	53	4649
2026-01-25 09:44:23.98	97.94	61.08	-40.5	-42.8	19.3	0.00e+00	0	41	0	598736896	52	4735
2026-01-25 09:44:24.97	97.12	61.29	-39.9	-42.0	20.3	0.00e+00	0	41	0	600834048	51	4573
2026-01-25 09:44:25.96	96.29	61.49	-39.5	-41.5	20.7	0.00e+00	0	40	0	602931200	50	4558
2026-01-25 09:44:26.96	95.44	61.69	-39.7	-41.7	20.6	0.00e+00	0	41	0	603979776	50	4672
2026-01-25 09:44:27.95	94.58	61.89	-40.1	-42.3	20.0	0.00e+00	0	41	0	606076928	50	4990
2026-01-25 09:44:28.95	93.70	62.08	-40.1	-42.3	20.0	0.00e+00	0	41	0	608174080	51	4712
2026-01-25 09:44:29.94	92.81	62.26	-39.7	-41.9	20.4	0.00e+00	0	41	0	610271232	51	4498
2026-01-25 09:44:30.93	91.92	62.44	-39.9	-42.1	20.2	0.00e+00	0	41	0	612368384	51	4600
2026-01-25 09:44:31.93	91.00	62.61	-39.5	-41.6	20.6	0.00e+00	0	41	0	613416960	50	4634
2026-01-25 09:44:32.94	90.05	62.78	-39.3	-41.3	20.9	0.00e+00	0	41	0	615514112	50	4459
2026-01-25 09:44:33.97	89.08	62.95	-39.6	-41.7	20.6	0.00e+00	0	41	0	617611264	50	4653
2026-01-25 09:44:34.96	88.13	63.11	-39.6	-41.7	20.6	0.00e+00	0	41	0	619708416	50	4679
2026-01-25 09:44:35.96	87.15	63.26	-38.9	-40.9	21.2	0.00e+00	0	41	0	621805568	49	4516
2026-01-25 09:44:36.95	86.18	63.40	-38.4	-40.4	21.7	0.00e+00	0	41	0	622854144	48	4499
2026-01-25 09:44:37.94	85.19	63.53	-38.4	-40.3	21.7	0.00e+00	0	41	0	624951296	48	4483
2026-01-25 09:44:38.94	84.19	63.66	-39.0	-41.0	21.1	0.00e+00	0	41	0	627048448	48	4853
2026-01-25 09:44:39.93	83.18	63.78	-40.0	-42.1	20.2	0.00e+00	0	41	0	629145600	50	4920
2026-01-25 09:44:40.92	82.16	63.90	-40.2	-42.4	19.9	0.00e+00	0	41	0	630194176	51	4773
2026-01-25 09:44:41.92	81.12	64.00	-40.7	-43.1	19.3	0.00e+00	0	41	0	632291328	52	4879
2026-01-25 09:44:42.91	80.09	64.10	-40.8	-43.1	19.2	0.00e+00	0	41	0	634388480	52	4920
2026-01-25 09:44:43.91	79.03	64.20	-40.0	-42.1	20.2	0.00e+00	0	41	0	636485632	51	4614
2026-01-25 09:44:44.90	77.98	64.28	-39.3	-41.3	20.9	0.00e+00	0	41	0	638582784	50	4453
2026-01-25 09:44:45.90	76.91	64.36	-38.8	-40.7	21.4	0.00e+00	0	41	0	639631360	49	4427
2026-01-25 09:44:46.89	75.84	64.42	-38.3	-40.1	21.8	0.00e+00	0	41	0	641728512	48	4387
2026-01-25 09:44:47.95	74.69	64.49	-38.0	-39.9	22.0	0.00e+00	0	41	0	643825664	47	4508
2026-01-25 09:44:48.85	73.71	64.54	-38.0	-39.8	22.0	0.00e+00	0	41	0	645922816	47	4482
2026-01-25 09:44:49.87	72.59	64.58	-38.0	-39.8	22.0	0.00e+00	0	41	0	646971392	47	4479
2026-01-25 09:44:50.87	71.49	64.62	-37.7	-39.6	22.2	0.00e+00	0	41	0	649068544	47	4353
2026-01-25 09:44:51.86	70.40	64.64	-38.2	-40.1	21.8	0.00e+00	0	41	0	651165696	47	4630
2026-01-25 09:44:52.86	69.30	64.66	-38.4	-40.3	21.6	0.00e+00	0	41	0	653262848	47	4757
2026-01-25 09:44:53.85	68.21	64.67	-38.4	-40.4	21.6	0.00e+00	0	41	0	655360000	47	4764
2026-01-25 09:44:54.84	67.11	64.68	-39.2	-41.3	20.9	0.00e+00	0	41	0	656408576	49	4711
2026-01-25 09:44:55.84	66.01	64.67	-39.2	-41.2	21.1	0.00e+00	0	41	0	658505728	49	4675
2026-01-25 09:44:56.84	64.90	64.66	-39.3	-41.4	20.9	0.00e+00	0	41	0	660602880	49	4760
2026-01-25 09:44:57.83	63.81	64.63	-39.1	-41.1	21.1	0.00e+00	0	41	0	662700032	49	4628
2026-01-25 09:44:58.83	62.71	64.60	-38.6	-40.5	21.3	0.00e+00	0	41	0	663748608	49	4305
2026-01-25 09:44:59.82	61.62	64.56	-37.6	-39.5	22.3	0.00e+00	0	41	0	665845760	47	4307
2026-01-25 09:45:00.83	60.52	64.51	-38.0	-39.8	22.0	0.00e+00	0	41	0	667942912	47	4479
2026-01-25 09:45:01.86	59.40	64.46	-39.2	-41.2	21.0	0.00e+00	0	41	0	670040064	49	4687
2026-01-25 09:45:02.86	58.32	64.39	-39.5	-41.6	20.7	0.00e+00	0	41	0	672137216	49	4878
2026-01-25 09:45:03.85	57.26	64.32	-39.2	-41.3	21.0	0.00e+00	0	41	0	673185792	49	4708
2026-01-25 09:45:04.85	56.19	64.24	-40.0	-42.1	20.3	0.00e+00	0	41	0	675282944	50	4908
2026-01-25 09:45:05.84	55.14	64.15	-40.1	-42.3	20.1	0.00e+00	0	41	0	677380096	51	4738
2026-01-25 09:45:07.01	53.91	64.04	-39.7	-41.7	20.6	0.00e+00	0	41	0	679477248	51	4418
2026-01-25 09:45:07.90	52.99	63.95	-39.7	-41.8	20.4	0.00e+00	0	41	0	681574400	50	4741
2026-01-25 09:45:09.03	51.82	63.82	-39.8	-41.9	20.4	0.00e+00	0	41	0	683671552	50	4767
2026-01-25 09:45:09.88	50.95	63.72	-39.5	-41.5	20.8	0.00e+00	0	41	0	684720128	50	4576
2026-01-25 09:45:11.02	49.80	63.57	-39.2	-41.2	21.1	0.00e+00	0	41	0	686817280	50	4395
2026-01-25 09:45:11.87	48.95	63.46	-40.0	-42.1	20.3	0.00e+00	0	41	0	688914432	50	4875
2026-01-25 09:45:13.01	47.83	63.30	-39.6	-41.6	20.7	0.00e+00	0	41	0	691011584	50	4613
2026-01-25 09:45:13.86	47.00	63.17	-39.7	-41.7	20.6	0.00e+00	0	40	0	692060160	50	4702
2026-01-25 09:45:15.00	45.90	63.00	-39.3	-41.3	21.0	0.00e+00	0	41	0	694157312	50	4450
2026-01-25 09:45:15.85	45.09	62.86	-38.5	-40.3	21.7	0.00e+00	0	41	0	696254464	49	4240
2026-01-25 09:45:16.99	44.02	62.68	-39.0	-40.9	21.3	0.00e+00	0	41	0	698351616	48	4788
2026-01-25 09:45:17.84	43.23	62.53	-40.0	-42.1	20.3	0.00e+00	0	41	0	700448768	50	4919
2026-01-25 09:45:19.03	42.15	62.32	-40.1	-42.2	20.2	0.00e+00	0	41	0	702545920	51	4681
2026-01-25 09:45:19.88	41.39	62.16	-39.2	-41.2	21.0	0.00e+00	0	41	0	703594496	50	4423
2026-01-25 09:45:21.01	40.39	61.95	-40.2	-42.3	20.1	0.00e+00	0	41	0	705691648	50	5040
2026-01-25 09:45:21.87	39.64	61.78	-40.8	-43.1	19.3	0.00e+00	0	41	0	707788800	52	4920
2026-01-25 09:45:23.01	38.66	61.55	-42.7	-45.5	17.0	0.00e+00	0	40	0	709885952	55	5450
2026-01-25 09:45:23.86	37.95	61.38	-43.4	-46.4	16.4	0.00e+00	0	41	0	710934528	57	5378
2026-01-25 09:45:25.00	37.00	61.14	-42.9	-45.7	16.9	0.00e+00	0	41	0	713031680	57	4954
2026-01-25 09:45:25.85	36.31	60.96	-42.4	-45.0	17.6	0.00e+00	0	41	0	715128832	56	4834
2026-01-25 09:45:26.99	35.40	60.72	-41.4	-43.7	18.7	0.00e+00	0	41	0	717225984	54	4668
2026-01-25 09:45:27.84	34.73	60.53	-41.6	-43.9	18.5	0.00e+00	0	41	0	718274560	54	4795
2026-01-25 09:45:28.97	33.85	60.27	-42.1	-44.7	17.8	0.00e+00	0	41	0	720371712	54	5226
2026-01-25 09:45:29.83	33.20	60.08	-43.3	-46.1	16.6	0.00e+00	0	41	0	722468864	57	5180
2026-01-25 09:45:30.96	32.36	59.81	-43.7	-46.7	15.9	0.00e+00	0	41	0	724566016	58	5259
2026-01-25 09:45:31.82	31.72	59.61	-43.9	-46.9	15.9	0.00e+00	0	41	0	725614592	58	5376
2026-01-25 09:45:32.95	30.91	59.34	-43.6	-46.6	16.1	0.00e+00	0	41	0	728760320	58	5180
2026-01-25 09:45:33.80	30.31	59.13	-43.1	-45.9	16.8	0.00e+00	0	41	0	729808896	58	4793
2026-01-25 09:45:35.10	29.41	58.81	-41.3	-43.5	18.8	0.00e+00	0	41	0	731906048	54	4594
2026-01-25 09:45:35.81	28.93	58.64	-41.1	-43.3	19.1	0.00e+00	0	41	0	734003200	53	4712
2026-01-25 09:45:37.29	27.94	58.27	-42.1	-44.6	17.9	0.00e+00	0	41	0	736100352	54	5186
2026-01-25 09:45:38.00	27.48	58.09	-42.6	-45.2	17.3	0.00e+00	0	41	0	738197504	55	5247
2026-01-25 09:45:39.28	26.66	57.76	-43.2	-46.0	16.8	0.00e+00	0	41	0	740294656	57	5118
2026-01-25 09:45:40.00	26.21	57.57	-43.2	-46.1	16.7	0.00e+00	0	40	0	741343232	57	5166
2026-01-25 09:45:41.27	25.43	57.24	-42.6	-45.2	17.4	0.00e+00	0	41	0	743440384	57	4652
2026-01-25 09:45:41.99	24.99	57.05	-43.4	-46.4	16.3	0.00e+00	0	40	0	745537536	57	5357
2026-01-25 09:45:43.26	24.24	56.72	-44.2	-47.4	15.2	0.00e+00	0	41	0	747634688	59	5401
2026-01-25 09:45:44.01	23.80	56.52	-44.9	-48.6	14.1	0.00e+00	0	40	0	748683264	60	5835
2026-01-25 09:45:45.29	23.08	56.17	-43.7	-46.7	16.1	0.00e+00	0	41	0	751828992	59	4962
2026-01-25 09:45:46.00	22.68	55.98	-43.3	-46.2	16.7	0.00e+00	0	40	0	752877568	58	4929
2026-01-25 09:45:47.27	21.98	55.64	-43.1	-45.9	16.9	0.00e+00	0	41	0	754974720	56	5357
2026-01-25 09:45:48.21	21.48	55.39	-43.4	-46.3	16.4	0.00e+00	0	41	0	757071872	57	5338
2026-01-25 09:45:49.20	20.96	55.12	-43.2	-46.1	16.6	0.00e+00	0	41	0	759169024	57	5173
2026-01-25 09:45:50.20	20.44	54.84	-42.1	-44.7	18.0	0.00e+00	0	41	0	760217600	56	4661
2026-01-25 09:45:51.19	19.94	54.57	-41.9	-44.4	18.1	0.00e+00	0	41	0	762314752	54	5046
2026-01-25 09:45:52.18	19.45	54.30	-41.7	-44.1	18.3	0.00e+00	0	41	0	764411904	54	4919
2026-01-25 09:45:53.18	18.96	54.02	-41.2	-43.5	19.0	0.00e+00	0	41	0	766509056	54	4560
2026-01-25 09:45:54.17	18.49	53.75	-41.3	-43.7	18.7	0.00e+00	0	41	0	767557632	53	4933
2026-01-25 09:45:55.17	18.02	53.47	-41.9	-44.4	18.0	0.00e+00	0	41	0	769654784	55	4808
2026-01-25 09:45:56.24	17.53	53.18	-41.9	-44.4	18.0	0.00e+00	0	41	0	771751936	55	4790
2026-01-25 09:45:57.12	17.13	52.93	-41.9	-44.4	18.1	0.00e+00	0	41	0	773849088	55	4775
2026-01-25 09:45:58.44	16.55	52.57	-42.3	-45.0	17.4	0.00e+00	0	41	0	775946240	55	5153
2026-01-25 09:45:59.15	16.24	52.37	-42.5	-45.3	17.2	0.00e+00	0	41	0	776994816	55	5297
2026-01-25 09:46:00.42	15.70	52.02	-41.6	-44.1	18.3	0.00e+00	0	41	0	780140544	55	4633
2026-01-25 09:46:01.13	15.40	51.82	-41.4	-43.8	18.6	0.00e+00	0	41	0	781189120	54	4748
2026-01-25 09:46:02.42	14.87	51.46	-41.6	-44.1	18.4	0.00e+00	0	41	0	783286272	54	4884
2026-01-25 09:46:03.13	14.59	51.26	-41.2	-43.5	18.9	0.00e+00	0	41	0	784334848	54	4566
2026-01-25 09:46:04.41	14.08	50.91	-41.4	-43.8	18.7	0.00e+00	0	41	0	787480576	54	4709
2026-01-25 09:46:05.13	13.80	50.71	-41.2	-43.6	18.8	0.00e+00	0	41	0	788529152	54	4616
2026-01-25 09:46:06.74	13.19	50.26	-42.1	-44.7	17.8	0.00e+00	0	41	0	791674880	54	5269
2026-01-25 09:46:07.31	12.98	50.11	-42.3	-45.0	17.5	0.00e+00	0	41	0	792723456	55	5102
2026-01-25 09:46:09.21	12.29	49.58	-42.7	-45.4	17.3	0.00e+00	0	41	0	795869184	56	5068
2026-01-25 09:46:09.78	12.09	49.42	-42.9	-45.6	17.1	0.00e+00	0	41	0	796917760	56	5211
2026-01-25 09:46:11.49	11.49	48.95	-42.2	-44.6	18.0	0.00e+00	0	41	0	800063488	56	4633
2026-01-25 09:46:12.06	11.30	48.80	-41.5	-43.7	18.6	0.00e+00	0	41	0	801112064	54	4704
2026-01-25 09:46:13.76	10.73	48.33	-40.5	-42.6	19.7	0.00e+00	0	41	0	804257792	52	4649
2026-01-25 09:46:14.33	10.55	48.18	-40.8	-43.1	19.3	0.00e+00	0	41	0	805306368	52	4875
2026-01-25 09:46:16.03	10.00	47.72	-41.0	-43.3	19.1	0.00e+00	0	41	0	808452096	53	4731
2026-01-25 09:46:16.60	9.82	47.56	-40.7	-42.9	19.4	0.00e+00	0	41	0	810549248	53	4513
2026-01-25 09:46:18.31	9.30	47.10	-41.0	-43.3	19.0	0.00e+00	0	41	0	813694976	53	4743
2026-01-25 09:46:18.96	9.10	46.92	-41.9	-44.4	18.1	0.00e+00	0	41	0	814743552	54	5071
2026-01-25 09:46:20.38	8.68	46.54	-43.4	-46.4	16.3	0.00e+00	0	41	0	816840704	57	5354
2026-01-25 09:46:21.09	8.47	46.35	-44.1	-47.4	15.3	0.00e+00	0	41	0	818937856	59	5397
2026-01-25 09:46:22.37	8.11	46.01	-44.2	-47.5	15.2	7.00e-07	0	41	0	821035008	60	5115
2026-01-25 09:46:23.08	7.91	45.82	-43.1	-45.9	16.6	0.00e+00	0	41	0	822083584	58	4771
2026-01-25 09:46:24.36	7.55	45.49	-41.9	-44.3	18.0	0.00e+00	0	41	0	824180736	55	4752
2026-01-25 09:46:25.07	7.36	45.30	-41.7	-44.0	18.4	0.00e+00	0	41	0	826277888	54	4870
2026-01-25 09:46:26.35	7.02	44.96	-43.0	-45.8	16.9	0.00e+00	0	41	0	828375040	56	5303
2026-01-25 09:46:27.07	6.83	44.78	-43.0	-45.8	16.8	0.00e+00	0	41	0	829423616	57	5012
2026-01-25 09:46:28.35	6.50	44.44	-42.1	-44.7	17.9	0.00e+00	0	41	0	832569344	56	4666
2026-01-25 09:46:29.06	6.32	44.26	-41.9	-44.5	17.9	0.00e+00	0	41	0	833617920	55	4825
2026-01-25 09:46:30.34	6.00	43.93	-41.7	-44.2	18.1	0.00e+00	0	41	0	835715072	55	4692
2026-01-25 09:46:31.07	5.82	43.74	-42.0	-44.7	17.7	0.00e+00	0	41	0	836763648	55	4929
2026-01-25 09:46:32.35	5.51	43.41	-41.7	-44.3	18.2	0.00e+00	0	41	0	839909376	54	5015
2026-01-25 09:46:33.06	5.34	43.23	-41.7	-44.2	18.2	0.00e+00	0	41	0	840957952	54	4962
2026-01-25 09:46:34.34	5.04	42.91	-42.0	-44.7	17.7	0.00e+00	0	41	0	843055104	55	4941
2026-01-25 09:46:35.05	4.87	42.73	-43.0	-45.9	16.7	0.00e+00	0	41	0	845152256	56	5382
2026-01-25 09:46:36.33	4.58	42.41	-44.0	-47.3	15.2	0.00e+00	0	41	0	847249408	58	5646
2026-01-25 09:46:37.04	4.42	42.23	-45.5	-50.1	12.5	2.51e-05	0	41	0	848297984	61	6516
2026-01-25 09:46:38.32	4.14	41.91	-45.5	-49.7	13.0	4.65e-05	0	41	0	850395136	62	5907
2026-01-25 09:46:39.03	3.99	41.73	-45.2	-49.1	13.6	9.90e-06	0	41	0	852492288	62	5492
2026-01-25 09:46:40.31	3.71	41.42	-44.3	-47.7	15.0	0.00e+00	0	41	0	854589440	60	5271
2026-01-25 09:46:41.22	3.52	41.20	-44.4	-47.9	14.7	0.00e+00	0	41	0	856686592	60	5362
2026-01-25 09:46:42.22	3.32	40.95	-43.9	-47.1	15.4	7.00e-07	0	41	0	857735168	59	5209
2026-01-25 09:46:43.21	3.11	40.71	-43.3	-46.2	16.4	0.00e+00	0	41	0	859832320	58	4979
2026-01-25 09:46:44.55	2.85	40.39	-43.0	-45.8	16.9	0.00e+00	0	41	0	862978048	57	5026
2026-01-25 09:46:45.27	2.70	40.22	-43.3	-46.1	16.4	0.00e+00	0	41	0	864026624	57	5206
2026-01-25 09:46:46.54	2.46	39.91	-43.0	-45.8	16.8	0.00e+00	0	41	0	866123776	57	4989
2026-01-25 09:46:47.25	2.32	39.74	-43.3	-46.2	16.4	0.00e+00	0	41	0	867172352	57	5240
2026-01-25 09:46:48.53	2.08	39.44	-43.9	-47.1	15.6	0.00e+00	0	41	0	870318080	58	5499
2026-01-25 09:46:49.24	1.95	39.27	-44.3	-47.7	15.0	0.00e+00	0	41	0	871366656	59	5586
2026-01-25 09:46:50.52	1.71	38.97	-44.6	-48.2	14.5	0.00e+00	0	41	0	873463808	60	5577
2026-01-25 09:46:51.23	1.59	38.81	-45.1	-48.9	13.8	2.20e-06	0	41	0	874512384	60	6058
2026-01-25 09:46:52.59	1.34	38.50	-45.1	-48.9	13.7	1.52e-05	0	41	0	877658112	61	5716
2026-01-25 09:46:53.57	1.17	38.27	-44.6	-48.2	14.6	3.00e-06	0	41	0	879755264	61	5220
2026-01-25 09:46:54.57	1.00	38.04	-44.1	-47.5	15.3	0.00e+00	0	41	0	880803840	60	5101
2026-01-25 09:46:55.56	0.83	37.82	-44.7	-48.5	14.2	0.00e+00	0	41	0	882900992	60	5773
2026-01-25 09:46:56.56	0.67	37.59	-45.1	-49.4	13.3	6.10e-06	0	41	0	884998144	61	6015
2026-01-25 09:46:57.55	0.50	37.37	-45.0	-49.4	13.4	1.44e-05	0	41	0	887095296	61	6029
2026-01-25 09:46:58.54	0.34	37.15	-44.5	-48.5	14.3	1.52e-05	0	41	0	889192448	60	5774
2026-01-25 09:46:59.54	0.18	36.92	-44.0	-47.6	15.1	0.00e+00	0	41	0	890241024	59	5472
2026-01-25 09:47:00.51	0.03	36.71	-43.3	-46.5	16.1	0.00e+00	0	41	0	892338176	58	5132
2026-01-25 09:47:01.50	359.87	36.49	-42.3	-45.0	17.6	0.00e+00	0	41	0	894435328	56	4833
2026-01-25 09:47:02.49	359.72	36.28	-42.3	-45.1	17.5	0.00e+00	0	41	0	896532480	56	4877
2026-01-25 09:47:03.49	359.57	36.06	-42.0	-44.5	17.8	0.00e+00	0	41	0	897581056	56	4589
2026-01-25 09:47:04.48	359.42	35.84	-42.7	-45.4	17.2	0.00e+00	0	41	0	899678208	56	5079
2026-01-25 09:47:05.48	359.27	35.63	-42.3	-44.9	17.7	0.00e+00	0	41	0	901775360	56	4776
2026-01-25 09:47:06.47	359.13	35.42	-42.7	-45.5	17.1	0.00e+00	0	41	0	903872512	56	5107
2026-01-25 09:47:07.47	358.98	35.20	-42.7	-45.4	17.2	0.00e+00	0	41	0	904921088	56	5064
2026-01-25 09:47:08.46	358.84	35.00	-43.3	-46.3	16.3	0.00e+00	0	41	0	907018240	57	5315
2026-01-25 09:47:09.46	358.70	34.79	-44.1	-47.5	15.3	0.00e+00	0	41	0	909115392	58	5741
2026-01-25 09:47:10.45	358.56	34.58	-44.6	-48.1	14.6	0.00e+00	0	41	0	911212544	59	5855
2026-01-25 09:47:11.44	358.43	34.37	-44.1	-47.4	15.0	0.00e+00	0	41	0	913309696	59	5364
2026-01-25 09:47:12.44	358.29	34.17	-43.6	-46.6	16.1	0.00e+00	0	41	0	914358272	58	5168
2026-01-25 09:47:13.44	358.16	33.96	-42.9	-45.7	16.9	0.00e+00	0	41	0	916455424	57	4934
2026-01-25 09:47:14.43	358.03	33.76	-42.9	-45.8	16.8	0.00e+00	0	41	0	918552576	56	5291
2026-01-25 09:47:15.46	357.90	33.55	-42.9	-45.7	16.8	0.00e+00	0	41	0	920649728	56	5272
2026-01-25 09:47:16.48	357.77	33.34	-43.0	-46.0	16.6	0.00e+00	0	41	0	922746880	56	5447
2026-01-25 09:47:17.48	357.64	33.14	-43.4	-46.6	16.0	0.00e+00	0	41	0	923795456	57	5506
2026-01-25 09:47:18.54	357.51	32.93	-43.0	-46.0	16.7	0.00e+00	0	41	0	925892608	57	5115
2026-01-25 09:47:19.45	357.40	32.75	-43.0	-45.9	16.6	0.00e+00	0	41	0	927989760	57	5067
2026-01-25 09:47:20.45	357.27	32.55	-43.4	-46.5	16.2	0.00e+00	0	41	0	930086912	57	5433
2026-01-25 09:47:21.45	357.15	32.36	-43.4	-46.5	16.2	0.00e+00	0	41	0	932184064	57	5424
2026-01-25 09:47:22.44	357.04	32.17	-43.9	-47.1	15.6	0.00e+00	0	41	0	933232640	58	5521
2026-01-25 09:47:23.44	356.92	31.97	-44.0	-47.3	15.4	0.00e+00	0	41	0	935329792	58	5626
2026-01-25 09:47:24.43	356.80	31.78	-43.8	-47.0	15.6	0.00e+00	0	41	0	937426944	58	5425
2026-01-25 09:47:25.43	356.69	31.59	-43.2	-46.1	16.4	0.00e+00	0	41	0	939524096	58	4908
2026-01-25 09:47:26.42	356.58	31.40	-42.8	-45.7	16.9	0.00e+00	0	41	0	940572672	57	4942
2026-01-25 09:47:27.41	356.47	31.21	-42.4	-45.0	17.6	0.00e+00	0	41	0	942669824	56	4846
2026-01-25 09:47:28.41	356.36	31.02	-42.5	-45.1	17.0	0.00e+00	0	41	0	944766976	56	4921
2026-01-25 09:47:29.40	356.25	30.84	-42.6	-45.3	17.3	0.00e+00	0	41	0	946864128	56	4996
2026-01-25 09:47:30.40	356.14	30.65	-43.2	-46.0	16.6	0.00e+00	0	41	0	948961280	57	5137
2026-01-25 09:47:31.40	356.03	30.47	-43.4	-46.5	16.2	0.00e+00	0	41	0	950009856	57	5413
2026-01-25 09:47:32.39	355.93	30.29	-44.3	-47.7	14.9	0.00e+00	0	41	0	952107008	59	5588
2026-01-25 09:47:33.45	355.82	30.09	-44.6	-48.5	14.2	0.00e+00	0	41	0	954204160	60	5732
2026-01-25 09:47:34.35	355.73	29.93	-44.5	-48.2	14.4	0.00e+00	0	41	0	956301312	60	5548
2026-01-25 09:47:35.45	355.61	29.73	-44.3	-47.8	14.6	0.00e+00	0	41	0	958398464	60	5340
2026-01-25 09:47:36.30	355.53	29.58	-44.2	-47.8	14.9	7.00e-07	0	41	0	959447040	60	5305
2026-01-25 09:47:37.44	355.41	29.37	-44.1	-47.4	15.2	0.00e+00	0	41	0	961544192	60	5087
2026-01-25 09:47:38.29	355.33	29.22	-43.8	-46.9	15.7	0.00e+00	0	41	0	963641344	59	5086
2026-01-25 09:47:39.43	355.22	29.02	-44.0	-47.2	15.4	0.00e+00	0	41	0	965738496	59	5255
2026-01-25 09:47:40.28	355.14	28.87	-44.5	-47.9	14.7	0.00e+00	0	41	0	966787072	59	5667
2026-01-25 09:47:41.42	355.03	28.67	-44.3	-47.7	14.9	0.00e+00	0	41	0	968884224	59	5547
2026-01-25 09:47:42.27	354.95	28.53	-44.5	-48.0	14.7	0.00e+00	0	41	0	970981376	59	5748
2026-01-25 09:47:43.41	354.84	28.33	-44.5	-48.0	14.5	0.00e+00	0	41	0	973078528	59	5781
2026-01-25 09:47:44.26	354.77	28.18	-44.4	-47.9	14.6	0.00e+00	0	41	0	974127104	59	5722
2026-01-25 09:47:45.40	354.66	27.99	-44.2	-47.6	15.0	0.00e+00	0	41	0	976224256	59	5510
2026-01-25 09:47:46.25	354.59	27.84	-44.2	-47.6	15.1	0.00e+00	0	41	0	978321408	59	5509
2026-01-25 09:47:47.39	354.48	27.65	-43.7	-46.8	15.8	0.00e+00	0	41	0	980418560	59	5032
2026-01-25 09:47:48.24	354.41	27.51	-43.6	-46.7	15.9	0.00e+00	0	41	0	981467136	59	4976
2026-01-25 09:47:49.38	354.31	27.32	-43.5	-46.6	16.1	0.00e+00	0	41	0	983564288	58	5188
2026-01-25 09:47:50.23	354.24	27.18	-43.3	-46.4	16.2	0.00e+00	0	41	0	985661440	58	5044
2026-01-25 09:47:51.37	354.14	26.99	-43.4	-46.4	16.2	0.00e+00	0	41	0	987758592	58	5083
2026-01-25 09:47:52.22	354.07	26.85	-43.3	-46.3	16.2	0.00e+00	0	41	0	988807168	58	5027
2026-01-25 09:47:53.36	353.97	26.66	-43.1	-46.1	16.4	0.00e+00	0	41	0	991952896	58	4888
2026-01-25 09:47:54.37	353.89	26.50	-43.1	-46.1	16.5	0.00e+00	0	41	0	993001472	57	5161
2026-01-25 09:47:55.37	353.81	26.34	-43.2	-46.2	16.3	0.00e+00	0	41	0	995098624	57	5274
2026-01-25 09:47:56.57	353.71	26.15	-43.0	-46.0	16.6	0.00e+00	0	41	0	997195776	57	5113
2026-01-25 09:47:57.42	353.64	26.01	-42.8	-45.7	16.8	0.00e+00	0	41	0	999292928	57	4968
2026-01-25 09:47:58.56	353.55	25.83	-43.1	-46.2	16.4	0.00e+00	0	41	0	1001390080	57	5221
2026-01-25 09:47:59.41	353.49	25.70	-42.9	-45.8	16.7	0.00e+00	0	41	0	1002438656	57	5025
2026-01-25 09:48:00.55	353.40	25.52	-42.8	-45.6	17.0	0.00e+00	0	41	0	1004535808	57	4894
2026-01-25 09:48:01.40	353.33	25.38	-42.8	-45.6	17.0	0.00e+00	0	41	0	1006632960	57	4884
2026-01-25 09:48:02.54	353.25	25.21	-42.4	-45.1	17.4	0.00e+00	0	41	0	1008730112	56	4893
2026-01-25 09:48:03.39	353.18	25.08	-42.4	-45.0	17.5	0.00e+00	0	41	0	1010827264	56	4830
2026-01-25 09:48:04.53	353.10	24.90	-42.2	-44.7	17.8	0.00e+00	0	41	0	1011875840	56	4694
2026-01-25 09:48:05.38	353.04	24.77	-42.2	-44.8	17.7	0.00e+00	0	41	0	1013972992	56	4728
2026-01-25 09:48:06.52	352.95	24.60	-42.3	-45.0	17.5	0.00e+00	0	41	0	1016070144	56	4849
2026-01-25 09:48:07.37	352.89	24.47	-42.4	-45.2	17.4	0.00e+00	0	41	0	1018167296	56	4927
2026-01-25 09:48:08.50	352.81	24.30	-42.7	-45.6	16.9	0.00e+00	0	41	0	1020264448	56	5191
2026-01-25 09:48:09.36	352.75	24.17	-42.9	-46.0	16.5	0.00e+00	0	41	0	1021313024	56	5463
2026-01-25 09:48:10.59	352.67	23.99	-43.5	-46.9	15.7	0.00e+00	0	41	0	1023410176	57	5687
2026-01-25 09:48:11.44	352.61	23.86	-43.6	-47.0	15.6	0.00e+00	0	41	0	1025507328	58	5446
2026-01-25 09:48:12.64	352.52	23.69	-43.8	-47.5	15.1	0.00e+00	0	41	0	1027604480	58	5723
2026-01-25 09:48:13.49	352.47	23.56	-44.3	-48.3	14.4	0.00e+00	0	41	0	1029701632	59	5933
2026-01-25 09:48:14.69	352.39	23.39	-44.0	-47.6	15.0	7.00e-07	0	41	0	1031798784	59	5510
2026-01-25 09:48:15.55	352.33	23.27	-43.9	-47.4	15.2	0.00e+00	0	41	0	1032847360	59	5380
2026-01-25 09:48:16.68	352.26	23.10	-43.8	-47.1	15.5	0.00e+00	0	41	0	1034944512	59	5197
2026-01-25 09:48:17.53	352.20	22.98	-43.7	-46.9	15.7	0.00e+00	0	41	0	1037041664	59	5075
2026-01-25 09:48:18.67	352.13	22.82	-43.2	-46.3	16.3	0.00e+00	0	41	0	1039138816	58	4994
2026-01-25 09:48:19.52	352.07	22.70	-43.3	-46.4	16.2	0.00e+00	0	41	0	1040187392	58	5052
2026-01-25 09:48:20.66	352.00	22.54	-43.2	-46.3	16.2	0.00e+00	0	41	0	1042284544	58	5007
2026-01-25 09:48:21.51	351.95	22.42	-42.7	-45.6	16.9	0.00e+00	0	41	0	1044381696	57	4924
2026-01-25 09:48:22.65	351.88	22.26	-43.0	-46.1	16.5	0.00e+00	0	41	0	1046478848	57	5164
2026-01-25 09:48:23.50	351.82	22.14	-42.9	-45.9	16.5	0.00e+00	0	41	0	1047527424	57	5050
2026-01-25 09:48:24.62	351.76	21.99	-42.9	-45.8	16.7	0.00e+00	0	41	0	1050673152	57	5030
2026-01-25 09:48:25.73	351.69	21.84	-42.9	-45.9	16.6	0.00e+00	0	41	0	1051721728	57	5085
2026-01-25 09:48:26.58	351.64	21.72	-42.8	-45.7	16.9	0.00e+00	0	41	0	1053818880	57	4943
2026-01-25 09:48:27.72	351.57	21.57	-42.7	-45.6	16.9	0.00e+00	0	41	0	1055916032	57	4874
2026-01-25 09:48:28.81	351.51	21.42	-42.7	-45.6	16.6	0.00e+00	0	41	0	1058013184	57	4871
2026-01-25 09:48:29.66	351.46	21.30	-42.8	-45.6	17.0	0.00e+00	0	41	0	1059061760	57	4895
2026-01-25 09:48:30.79	351.39	21.15	-42.6	-45.3	17.2	0.00e+00	0	41	0	1062207488	57	4734
2026-01-25 09:48:31.65	351.34	21.04	-42.7	-45.5	17.0	0.00e+00	0	41	0	1063256064	57	4823
2026-01-25 09:48:32.78	351.28	20.89	-42.4	-45.1	17.4	0.00e+00	0	41	0	1065353216	56	4886
2026-01-25 09:48:33.64	351.23	20.78	-42.3	-45.0	17.4	0.00e+00	0	41	0	1067450368	56	4859
2026-01-25 09:48:34.77	351.17	20.63	-42.4	-45.2	17.4	0.00e+00	0	41	0	1069547520	56	4936
2026-01-25 09:48:35.63	351.12	20.52	-42.2	-44.8	17.6	0.00e+00	0	41	0	1070596096	56	4748
2026-01-25 09:48:36.85	351.05	20.36	-42.3	-45.1	17.6	0.00e+00	0	41	0	1072693248	56	4871
2026-01-25 09:48:37.70	351.01	20.25	-42.5	-45.2	17.3	0.00e+00	0	41	0	1074790400	56	4975
2026-01-25 09:48:38.84	350.95	20.10	-42.3	-45.1	17.4	0.00e+00	0	41	0	1076887552	56	4882
2026-01-25 09:48:39.69	350.90	19.99	-42.2	-44.9	17.5	0.00e+00	0	41	0	1077936128	56	4793
2026-01-25 09:48:40.83	350.84	19.85	-42.3	-45.0	17.5	0.00e+00	0	41	0	1080033280	56	4865
2026-01-25 09:48:41.68	350.80	19.74	-42.3	-45.1	17.4	0.00e+00	0	41	0	1082130432	56	4873
2026-01-25 09:48:43.07	350.73	19.57	-42.1	-44.8	17.6	0.00e+00	0	41	0	1085276160	56	4748
2026-01-25 09:48:43.78	350.69	19.48	-42.2	-45.0	17.5	0.00e+00	0	41	0	1086324736	56	4835
2026-01-25 09:48:45.06	350.63	19.32	-42.1	-44.9	17.6	0.00e+00	0	41	0	1088421888	56	4787
2026-01-25 09:48:45.77	350.59	19.23	-41.7	-44.4	17.8	0.00e+00	0	41	0	1089470464	55	4814
2026-01-25 09:48:47.05	350.53	19.07	-41.8	-44.6	17.7	0.00e+00	0	41	0	1092616192	55	4878
2026-01-25 09:48:47.76	350.49	18.99	-41.9	-44.7	17.7	0.00e+00	0	41	0	1093664768	55	4927
2026-01-25 09:48:49.04	350.43	18.83	-41.8	-44.6	17.7	0.00e+00	0	41	0	1095761920	55	4883
2026-01-25 09:48:49.75	350.39	18.74	-41.7	-44.5	17.7	0.00e+00	0	41	0	1096810496	55	4859
2026-01-25 09:48:51.03	350.33	18.59	-41.6	-44.3	17.9	0.00e+00	0	41	0	1099956224	55	4749
2026-01-25 09:48:51.74	350.30	18.50	-41.8	-44.7	17.6	0.00e+00	0	41	0	1101004800	55	4944
2026-01-25 09:48:53.02	350.24	18.35	-41.9	-44.8	17.4	0.00e+00	0	41	0	1103101952	55	5033
2026-01-25 09:48:53.73	350.21	18.27	-42.0	-45.0	17.3	0.00e+00	0	41	0	1105199104	55	5134
2026-01-25 09:48:55.01	350.15	18.11	-42.2	-45.3	17.0	0.00e+00	0	41	0	1107296256	55	5315
2026-01-25 09:48:55.72	350.11	18.03	-42.4	-45.7	16.7	0.00e+00	0	41	0	1108344832	55	5536
2026-01-25 09:48:57.00	350.05	17.88	-42.6	-45.9	16.4	0.00e+00	0	41	0	1110441984	55	5679
2026-01-25 09:48:57.71	350.02	17.80	-42.8	-46.1	16.4	0.00e+00	0	41	0	1112539136	56	5508
2026-01-25 09:48:58.99	349.96	17.65	-43.3	-46.8	15.8	0.00e+00	0	41	0	1114636288	57	5597
2026-01-25 09:48:59.70	349.93	17.56	-43.4	-46.8	15.7	0.00e+00	0	41	0	1115684864	57	5640
2026-01-25 09:49:00.99	349.88	17.41	-43.7	-47.2	15.3	0.00e+00	0	41	0	1118830592	58	5591
2026-01-25 09:49:01.70	349.85	17.33	-43.9	-47.5	15.1	0.00e+00	0	41	0	1119879168	58	5748
2026-01-25 09:49:02.98	349.79	17.19	-43.8	-47.4	15.1	0.00e+00	0	41	0	1121976320	58	5718
2026-01-25 09:49:03.72	349.76	17.10	-43.7	-47.1	15.4	0.00e+00	0	41	0	1123024896	58	5528
2026-01-25 09:49:05.00	349.70	16.96	-43.5	-46.9	15.6	0.00e+00	0	41	0	1126170624	58	5356
2026-01-25 09:49:05.72	349.67	16.88	-43.6	-47.0	15.5	0.00e+00	0	41	0	1127219200	58	5414
2026-01-25 09:49:07.00	349.62	16.73	-43.5	-46.8	15.7	0.00e+00	0	41	0	1129316352	58	5333
2026-01-25 09:49:07.71	349.59	16.65	-43.1	-46.1	16.3	0.00e+00	0	41	0	1130364928	58	4925
2026-01-25 09:49:08.99	349.54	16.51	-42.8	-45.8	16.7	0.00e+00	0	41	0	1133510656	57	5002
2026-01-25 09:49:09.71	349.51	16.43	-42.8	-45.9	16.5	0.00e+00	0	41	0	1134559232	57	5051
2026-01-25 09:49:10.99	349.45	16.29	-42.5	-45.4	17.0	0.00e+00	0	41	0	1136656384	56	5087
2026-01-25 09:49:11.72	349.42	16.21	-42.3	-45.3	17.2	0.00e+00	0	41	0	1138753536	56	4988
2026-01-25 09:49:13.00	349.37	16.07	-42.5	-45.5	17.0	0.00e+00	0	41	0	1140850688	56	5110
2026-01-25 09:49:13.71	349.35	15.99	-42.4	-45.3	17.1	0.00e+00	0	41	0	1141899264	56	5041
2026-01-25 09:49:14.99	349.29	15.85	-42.2	-45.1	17.3	0.00e+00	0	41	0	1145044992	56	4882
2026-01-25 09:49:15.70	349.27	15.77	-42.4	-45.3	17.1	0.00e+00	0	41	0	1146093568	56	5039
2026-01-25 09:49:16.98	349.22	15.64	-42.5	-45.5	17.0	0.00e+00	0	41	0	1148190720	56	5125
2026-01-25 09:49:17.71	349.19	15.56	-42.5	-45.5	16.9	0.00e+00	0	41	0	1149239296	56	5117
2026-01-25 09:49:18.98	349.14	15.42	-42.9	-46.0	16.5	0.00e+00	0	41	0	1152385024	56	5430
2026-01-25 09:49:19.71	349.11	15.35	-42.9	-46.0	16.5	0.00e+00	0	41	0	1153433600	56	5409
2026-01-25 09:49:20.99	349.06	15.21	-43.2	-46.5	16.0	0.00e+00	0	41	0	1155530752	57	5435
2026-01-25 09:49:21.70	349.04	15.14	-43.3	-46.6	15.9	0.00e+00	0	41	0	1157627904	57	5498
2026-01-25 09:49:23.12	348.99	14.99	-43.6	-46.9	15.5	0.00e+00	0	41	0	1159725056	57	5701
2026-01-25 09:49:23.83	348.96	14.91	-43.8	-47.3	15.2	0.00e+00	0	41	0	1160773632	58	5649
2026-01-25 09:49:25.11	348.91	14.78	-43.9	-47.5	14.9	7.00e-07	0	41	0	1163919360	58	5748
2026-01-25 09:49:26.19	348.87	14.67	-43.9	-47.6	14.9	0.00e+00	0	41	0	1166016512	58	5797
2026-01-25 09:49:27.31	348.83	14.55	-43.8	-47.5	15.0	0.00e+00	0	41	0	1168113664	58	5734
2026-01-25 09:49:28.34	348.80	14.45	-43.5	-47.2	15.2	0.00e+00	0	41	0	1169162240	58	5567
2026-01-25 09:49:29.33	348.76	14.35	-43.7	-47.5	15.0	0.00e+00	0	41	0	1171259392	58	5744
2026-01-25 09:49:30.33	348.73	14.24	-43.7	-47.7	14.8	0.00e+00	0	41	0	1173356544	58	5869
2026-01-25 09:49:31.33	348.69	14.14	-43.6	-47.5	14.9	0.00e+00	0	41	0	1175453696	58	5788
2026-01-25 09:49:32.32	348.66	14.04	-43.5	-47.4	15.1	0.00e+00	0	41	0	1177550848	58	5668
2026-01-25 09:49:33.32	348.62	13.94	-43.5	-47.3	15.1	0.00e+00	0	41	0	1178599424	58	5607
2026-01-25 09:49:34.31	348.59	13.84	-43.4	-47.2	15.3	0.00e+00	0	41	0	1180696576	58	5563
2026-01-25 09:49:35.31	348.56	13.74	-43.2	-46.9	15.5	0.00e+00	0	41	0	1182793728	58	5366
2026-01-25 09:49:36.30	348.52	13.64	-43.3	-47.0	15.5	0.00e+00	0	41	0	1184890880	58	5417
2026-01-25 09:49:37.30	348.49	13.55	-43.1	-46.5	15.9	0.00e+00	0	41	0	1185939456	58	5140
2026-01-25 09:49:38.29	348.46	13.45	-43.1	-46.4	16.0	0.00e+00	0	41	0	1188036608	58	5093
2026-01-25 09:49:39.29	348.43	13.35	-42.7	-45.8	16.5	0.00e+00	0	41	0	1190133760	57	5036
2026-01-25 09:49:40.35	348.39	13.25	-42.6	-45.7	16.7	0.00e+00	0	41	0	1192230912	57	4931
2026-01-25 09:49:41.24	348.36	13.16	-42.6	-45.5	16.8	0.00e+00	0	41	0	1193279488	57	4850
2026-01-25 09:49:42.36	348.33	13.05	-42.7	-45.6	16.8	0.00e+00	0	41	0	1195376640	57	4874
2026-01-25 09:49:43.21	348.30	12.97	-42.5	-45.3	17.1	0.00e+00	0	41	0	1197473792	57	4733
2026-01-25 09:49:44.57	348.26	12.84	-42.7	-45.6	16.8	0.00e+00	0	41	0	1199570944	56	5178
2026-01-25 09:49:45.28	348.23	12.77	-42.5	-45.3	17.1	0.00e+00	0	41	0	1201668096	56	5024
2026-01-25 09:49:46.56	348.20	12.65	-42.3	-45.3	17.1	0.00e+00	0	41	0	1203765248	56	4998
2026-01-25 09:49:47.30	348.17	12.58	-42.2	-45.2	17.2	0.00e+00	0	41	0	1204813824	56	4933
2026-01-25 09:49:48.58	348.13	12.46	-41.7	-44.8	17.3	0.00e+00	0	41	0	1207959552	55	5026
2026-01-25 09:49:49.36	348.11	12.38	-41.7	-44.9	17.3	0.00e+00	0	41	0	1209008128	55	5065
2026-01-25 09:49:50.63	348.07	12.26	-41.7	-45.1	17.1	0.00e+00	0	41	0	1211105280	55	5191
2026-01-25 09:49:51.34	348.05	12.20	-41.6	-45.1	17.0	0.00e+00	0	41	0	1213202432	55	5212
2026-01-25 09:49:52.62	348.01	12.08	-41.5	-45.0	17.2	0.00e+00	0	41	0	1215299584	54	5435
2026-01-25 09:49:53.35	347.99	12.01	-41.4	-45.0	17.1	0.00e+00	0	41	0	1216348160	54	5455
2026-01-25 09:49:54.63	347.95	11.89	-41.5	-45.2	16.9	0.00e+00	0	41	0	1218445312	54	5586
2026-01-25 09:49:55.33	347.93	11.83	-41.5	-45.3	16.9	0.00e+00	0	41	0	1220542464	54	5618
2026-01-25 09:49:56.65	347.89	11.71	-41.5	-45.3	16.8	0.00e+00	0	41	0	1222639616	54	5639
2026-01-25 09:49:57.36	347.87	11.64	-41.6	-45.5	16.7	0.00e+00	0	41	0	1223688192	54	5770
2026-01-25 09:49:58.63	347.84	11.52	-41.6	-45.6	16.6	0.00e+00	0	41	0	1226833920	54	5817
2026-01-25 09:49:59.69	347.81	11.43	-41.7	-45.8	16.4	0.00e+00	0	41	0	1227882496	54	5952
2026-01-25 09:50:00.86	347.78	11.32	-41.8	-46.0	16.1	0.00e+00	0	41	0	1231028224	54	6088
2026-01-25 09:50:01.71	347.75	11.25	-41.8	-46.0	16.2	0.00e+00	0	41	0	1232076800	54	6101
2026-01-25 09:50:02.85	347.72	11.14	-41.9	-46.2	15.9	0.00e+00	0	41	0	1234173952	54	6261
2026-01-25 09:50:03.70	347.70	11.07	-41.9	-46.4	15.8	0.00e+00	0	41	0	1236271104	54	6354
2026-01-25 09:50:04.84	347.67	10.97	-41.9	-46.3	15.7	0.00e+00	0	41	0	1238368256	54	6334
