passes_logs/2026/01/25/T1/T1__20260125_135859_FENGYUN_3E_rec.log

#Pass ID: 20260125_135859_FENGYUN 3E
#Satellite: FENGYUN 3E
#Configuration: FENGYUN 3E
#almurnet v.1.7.20251203
#Start time: 2026-01-25 13:58:59

#Version: 2.0.20230620
#Station: T1
#Location: 37.570604 lon 55.790049 lat
#TLE: 1 49008U 21062A   26025.22354119 -.00000045  00000+0 -39974-6 0  9992
#TLE: 2 49008  98.7496  30.2323 0002444 117.8821 242.2603 14.19886325236299

#Time	Az	El	Level	Level2	SNR	BER	BlckErr	Temp	State	Recorded	gain1	gain2
2026-01-25 13:58:59.82	153.15	5.02	-47.8	-58.6	3.8	8.47e-01	0	38	0	0	66	12222
2026-01-25 13:59:00.81	153.14	5.09	-47.8	-58.3	3.8	8.47e-01	0	38	104	0	66	11712
2026-01-25 13:59:01.80	153.12	5.16	-47.8	-58.3	3.8	8.48e-01	0	38	104	0	66	11766
2026-01-25 13:59:02.79	153.11	5.23	-47.8	-58.5	3.8	8.48e-01	0	38	104	0	66	11982
2026-01-25 13:59:03.79	153.10	5.31	-47.8	-58.6	3.8	8.47e-01	0	39	104	0	66	12131
2026-01-25 13:59:04.78	153.09	5.38	-47.8	-58.7	3.8	8.47e-01	0	39	104	0	66	12312
2026-01-25 13:59:05.77	153.08	5.45	-47.8	-58.9	3.8	8.47e-01	0	38	104	0	66	12597
2026-01-25 13:59:06.77	153.07	5.52	-47.8	-59.0	3.8	8.47e-01	0	39	104	0	66	12750
2026-01-25 13:59:07.76	153.06	5.60	-47.8	-59.1	3.8	8.47e-01	0	39	104	0	66	12839
2026-01-25 13:59:08.76	153.05	5.67	-47.8	-58.9	3.8	8.46e-01	0	39	104	0	66	12609
2026-01-25 13:59:09.75	153.04	5.74	-47.8	-58.7	3.8	8.45e-01	0	39	104	0	66	12274
2026-01-25 13:59:10.74	153.02	5.81	-47.7	-58.2	3.8	8.47e-01	0	39	104	0	66	11588
2026-01-25 13:59:11.74	153.01	5.89	-47.7	-57.6	3.8	8.47e-01	0	39	104	0	66	10804
2026-01-25 13:59:12.73	153.00	5.96	-47.6	-57.0	3.8	8.45e-01	0	39	104	0	66	10084
2026-01-25 13:59:13.72	152.99	6.04	-47.4	-56.3	4.0	8.44e-01	0	39	104	0	65	9901
2026-01-25 13:59:14.72	152.98	6.11	-47.4	-55.9	4.1	8.40e-01	0	39	0	0	65	9390
2026-01-25 13:59:15.71	152.97	6.18	-47.3	-55.7	4.2	8.41e-01	0	39	0	0	65	9258
2026-01-25 13:59:16.70	152.95	6.26	-47.3	-55.5	4.2	8.38e-01	0	39	0	0	65	8979
2026-01-25 13:59:17.70	152.94	6.33	-47.3	-55.6	4.2	8.38e-01	0	39	0	0	65	9136
2026-01-25 13:59:18.69	152.93	6.41	-47.4	-55.8	4.1	8.41e-01	0	39	0	0	65	9381
2026-01-25 13:59:19.68	152.92	6.48	-47.6	-56.5	3.9	8.43e-01	0	39	104	0	65	10148
2026-01-25 13:59:20.68	152.91	6.56	-47.5	-57.1	3.8	8.45e-01	0	39	104	0	65	10835
2026-01-25 13:59:21.67	152.89	6.63	-47.6	-57.6	3.8	8.46e-01	0	39	104	0	65	11468
2026-01-25 13:59:22.66	152.88	6.71	-47.7	-58.3	3.8	8.46e-01	0	39	104	0	65	12431
2026-01-25 13:59:23.66	152.87	6.79	-47.8	-58.8	3.8	8.47e-01	0	39	104	0	65	13150
2026-01-25 13:59:24.65	152.86	6.86	-47.8	-58.9	3.8	8.46e-01	0	39	104	0	65	13353
2026-01-25 13:59:25.64	152.84	6.94	-47.8	-58.9	3.8	8.47e-01	0	39	104	0	65	13331
2026-01-25 13:59:26.64	152.83	7.02	-47.8	-58.6	3.8	8.47e-01	0	40	104	0	65	12959
2026-01-25 13:59:27.63	152.82	7.09	-47.7	-58.1	3.8	8.47e-01	0	39	104	0	65	12172
2026-01-25 13:59:28.62	152.81	7.17	-47.6	-57.5	3.8	8.47e-01	0	40	104	0	65	11378
2026-01-25 13:59:29.62	152.79	7.25	-47.5	-56.8	3.8	8.46e-01	0	39	104	0	65	10425
2026-01-25 13:59:30.61	152.78	7.33	-47.3	-55.7	4.1	8.40e-01	0	40	0	0	65	9206
2026-01-25 13:59:31.60	152.77	7.40	-47.1	-54.6	4.5	8.29e-01	0	39	0	0	65	8116
2026-01-25 13:59:32.60	152.75	7.48	-46.7	-53.1	5.3	7.54e-01	0	40	0	0	64	7246
2026-01-25 13:59:33.59	152.74	7.56	-46.4	-51.8	6.2	3.54e-01	0	40	0	3145728	63	6637
2026-01-25 13:59:34.58	152.73	7.64	-45.8	-50.4	7.5	1.48e-01	0	40	0	10485760	62	5954
2026-01-25 13:59:35.58	152.71	7.72	-45.0	-48.9	9.0	3.24e-02	0	40	0	16777216	60	5639
2026-01-25 13:59:36.57	152.70	7.80	-44.3	-47.5	10.4	7.64e-03	0	40	0	24117248	59	5060
2026-01-25 13:59:37.57	152.69	7.88	-43.5	-46.3	11.5	1.73e-03	0	40	0	31457280	57	4971
2026-01-25 13:59:38.56	152.67	7.96	-42.9	-45.5	12.4	1.81e-04	0	40	0	38797312	56	4781
2026-01-25 13:59:39.55	152.66	8.04	-42.1	-44.5	13.3	3.43e-05	0	40	0	46137344	55	4505
2026-01-25 13:59:40.54	152.65	8.11	-41.5	-43.8	14.0	3.40e-06	0	40	0	52428800	53	4657
2026-01-25 13:59:41.54	152.63	8.20	-41.1	-43.3	14.5	1.10e-06	0	40	0	59768832	53	4401
2026-01-25 13:59:42.53	152.62	8.28	-40.8	-42.9	14.9	0.00e+00	0	40	0	67108864	52	4457
2026-01-25 13:59:43.52	152.60	8.36	-40.8	-42.9	14.9	0.00e+00	0	40	0	74448896	52	4452
2026-01-25 13:59:44.52	152.59	8.44	-40.7	-42.7	15.1	1.10e-06	0	40	0	81788928	52	4371
2026-01-25 13:59:45.51	152.57	8.52	-41.0	-43.1	14.6	0.00e+00	0	40	0	89128960	52	4582
2026-01-25 13:59:46.50	152.56	8.60	-41.2	-43.3	14.5	3.40e-06	0	40	0	95420416	52	4692
2026-01-25 13:59:47.50	152.55	8.68	-41.8	-44.0	13.8	4.50e-06	0	40	0	102760448	52	5087
2026-01-25 13:59:48.49	152.53	8.77	-42.4	-44.8	12.9	1.04e-02	0	40	0	110100480	54	4975
2026-01-25 13:59:49.48	152.52	8.85	-43.0	-45.7	12.0	2.51e-04	0	40	0	117440512	55	5199
2026-01-25 13:59:50.48	152.50	8.93	-44.1	-47.3	10.6	1.72e-03	0	40	0	124780544	57	5530
2026-01-25 13:59:51.47	152.49	9.01	-44.9	-48.5	9.3	3.20e-02	0	40	0	132120576	59	5711
2026-01-25 13:59:52.46	152.47	9.10	-45.1	-49.1	8.8	5.72e-02	0	40	0	138412032	60	5730
2026-01-25 13:59:53.46	152.46	9.18	-42.7	-45.2	12.8	3.47e-03	0	40	0	145752064	56	4602
2026-01-25 13:59:54.45	152.44	9.26	-43.8	-46.6	11.5	4.79e-03	0	40	0	153092096	56	5430
2026-01-25 13:59:55.45	152.43	9.35	-47.3	-54.8	4.3	8.46e-01	0	40	104	155189248	65	8322
2026-01-25 13:59:56.45	152.41	9.43	-41.8	-44.0	13.8	1.55e-03	0	40	0	160432128	54	4533
2026-01-25 13:59:57.44	152.40	9.52	-38.1	-39.8	17.7	0.00e+00	0	40	0	167772160	46	4427
2026-01-25 13:59:58.43	152.38	9.60	-38.0	-39.7	17.9	0.00e+00	0	40	0	175112192	46	4343
2026-01-25 13:59:59.43	152.36	9.69	-37.7	-39.3	18.1	0.00e+00	0	40	0	182452224	46	4188
2026-01-25 14:00:00.42	152.35	9.77	-37.1	-38.7	18.7	0.00e+00	0	40	0	188743680	45	4141
2026-01-25 14:00:01.42	152.33	9.86	-36.7	-38.3	19.1	0.00e+00	0	40	0	196083712	44	4174
2026-01-25 14:00:02.41	152.32	9.95	-36.5	-38.1	19.2	0.00e+00	0	40	0	203423744	43	4309
2026-01-25 14:00:03.41	152.30	10.03	-36.5	-38.0	19.2	0.00e+00	0	40	0	210763776	43	4290
2026-01-25 14:00:04.40	152.28	10.12	-36.3	-37.9	19.3	0.00e+00	0	40	0	218103808	43	4210
2026-01-25 14:00:05.46	152.27	10.21	-36.4	-37.9	19.3	0.00e+00	0	40	0	225443840	43	4239
2026-01-25 14:00:06.36	152.25	10.29	-36.2	-37.7	19.5	0.00e+00	0	40	0	231735296	43	4118
2026-01-25 14:00:07.47	152.23	10.39	-36.2	-37.7	19.5	0.00e+00	0	40	0	240123904	43	4124
2026-01-25 14:00:08.32	152.22	10.47	-36.2	-37.7	19.5	0.00e+00	0	40	0	246415360	43	4125
2026-01-25 14:00:09.46	152.20	10.57	-36.2	-37.7	19.5	0.00e+00	0	40	0	253755392	43	4112
2026-01-25 14:00:10.31	152.19	10.64	-36.2	-37.7	19.6	0.00e+00	0	40	0	260046848	43	4107
2026-01-25 14:00:11.45	152.17	10.74	-36.0	-37.5	19.5	0.00e+00	0	40	0	268435456	42	4244
2026-01-25 14:00:12.30	152.15	10.82	-36.2	-37.7	19.5	0.00e+00	0	41	0	274726912	42	4385
2026-01-25 14:00:13.44	152.13	10.92	-36.2	-37.7	19.5	0.00e+00	0	40	0	283115520	42	4378
2026-01-25 14:00:14.29	152.12	11.00	-35.9	-37.4	19.8	0.00e+00	0	41	0	289406976	42	4236
2026-01-25 14:00:15.43	152.10	11.10	-35.9	-37.4	19.8	0.00e+00	0	41	0	297795584	42	4230
2026-01-25 14:00:16.28	152.08	11.18	-35.9	-37.4	19.8	0.00e+00	0	40	0	304087040	42	4227
2026-01-25 14:00:17.50	152.06	11.29	-36.0	-37.5	19.7	3.89e-05	0	40	0	312475648	42	4278
2026-01-25 14:00:18.35	152.04	11.37	-36.0	-37.4	19.8	0.00e+00	0	40	0	318767104	42	4238
2026-01-25 14:00:19.48	152.02	11.48	-35.8	-37.3	19.9	0.00e+00	0	40	0	327155712	42	4187
2026-01-25 14:00:20.34	152.01	11.56	-35.8	-37.2	20.0	0.00e+00	0	40	0	332398592	42	4132
2026-01-25 14:00:21.60	151.98	11.67	-35.8	-37.3	19.9	0.00e+00	0	41	0	341835776	42	4151
2026-01-25 14:00:22.40	151.97	11.75	-35.8	-37.3	19.9	0.00e+00	0	40	0	348127232	42	4172
2026-01-25 14:00:23.54	151.95	11.85	-35.7	-37.2	20.0	0.00e+00	0	40	0	355467264	42	4131
2026-01-25 14:00:24.39	151.93	11.93	-35.8	-37.3	19.9	0.00e+00	0	41	0	361758720	42	4173
2026-01-25 14:00:25.53	151.91	12.04	-35.7	-37.2	20.0	0.00e+00	0	41	0	370147328	42	4132
2026-01-25 14:00:26.39	151.89	12.12	-35.6	-37.1	20.2	0.00e+00	0	41	0	376438784	42	4056
2026-01-25 14:00:27.53	151.87	12.23	-35.7	-37.2	20.0	0.00e+00	0	41	0	384827392	42	4111
2026-01-25 14:00:28.38	151.86	12.31	-35.7	-37.1	20.1	0.00e+00	0	41	0	391118848	42	4084
2026-01-25 14:00:29.52	151.83	12.42	-35.7	-37.2	20.1	0.00e+00	0	41	0	398458880	42	4105
2026-01-25 14:00:30.37	151.82	12.50	-35.6	-37.1	20.1	0.00e+00	0	41	0	405798912	41	4325
2026-01-25 14:00:31.51	151.79	12.61	-35.6	-37.1	20.1	0.00e+00	0	40	0	413138944	41	4327
2026-01-25 14:00:32.36	151.78	12.70	-35.7	-37.1	20.1	0.00e+00	0	41	0	419430400	41	4335
2026-01-25 14:00:33.50	151.75	12.81	-35.6	-37.0	20.2	0.00e+00	0	41	0	427819008	41	4288
2026-01-25 14:00:34.35	151.74	12.89	-35.5	-36.9	20.2	0.00e+00	0	41	0	434110464	41	4242
2026-01-25 14:00:35.49	151.71	13.00	-35.6	-37.0	20.2	0.00e+00	0	41	0	442499072	41	4279
2026-01-25 14:00:36.34	151.70	13.08	-35.5	-37.0	20.3	0.00e+00	0	40	0	448790528	41	4269
2026-01-25 14:00:37.48	151.67	13.20	-35.6	-37.0	20.2	0.00e+00	0	41	0	457179136	41	4275
2026-01-25 14:00:38.33	151.65	13.28	-35.4	-36.9	20.3	0.00e+00	0	41	0	462422016	41	4219
2026-01-25 14:00:39.50	151.63	13.40	-35.6	-37.0	20.2	0.00e+00	0	41	0	470810624	41	4280
2026-01-25 14:00:40.35	151.61	13.48	-35.4	-36.8	20.4	0.00e+00	0	41	0	477102080	41	4176
2026-01-25 14:00:41.49	151.59	13.60	-35.4	-36.8	20.4	0.00e+00	0	41	0	485490688	41	4176
2026-01-25 14:00:42.34	151.57	13.68	-35.3	-36.8	20.4	0.00e+00	0	41	0	491782144	41	4163
2026-01-25 14:00:43.48	151.54	13.80	-35.4	-36.8	20.4	0.00e+00	0	41	0	500170752	41	4179
2026-01-25 14:00:44.33	151.53	13.89	-35.3	-36.8	20.4	0.00e+00	0	41	0	506462208	41	4164
2026-01-25 14:00:45.69	151.50	14.03	-35.3	-36.8	20.4	0.00e+00	0	41	0	515899392	41	4153
2026-01-25 14:00:46.40	151.48	14.10	-35.3	-36.8	20.4	0.00e+00	0	41	0	521142272	41	4165
2026-01-25 14:00:47.68	151.45	14.23	-35.4	-36.9	20.3	0.00e+00	0	41	0	530579456	41	4204
2026-01-25 14:00:48.41	151.43	14.31	-35.3	-36.8	20.4	0.00e+00	0	41	0	535822336	41	4155
2026-01-25 14:00:49.69	151.41	14.44	-35.3	-36.8	20.4	0.00e+00	0	41	0	545259520	41	4155
2026-01-25 14:00:50.40	151.39	14.51	-35.4	-36.8	20.4	0.00e+00	0	41	0	549453824	41	4186
2026-01-25 14:00:51.68	151.36	14.65	-35.3	-36.8	20.4	0.00e+00	0	41	0	558891008	41	4152
2026-01-25 14:00:52.52	151.34	14.74	-35.4	-36.9	20.4	0.00e+00	0	41	0	565182464	41	4199
2026-01-25 14:00:53.66	151.31	14.86	-35.2	-36.6	20.5	0.00e+00	0	41	0	573571072	41	4091
2026-01-25 14:00:54.51	151.29	14.95	-35.3	-36.8	20.4	0.00e+00	0	41	0	579862528	41	4161
2026-01-25 14:00:55.65	151.27	15.07	-35.3	-36.8	20.4	0.00e+00	0	40	0	587202560	41	4150
2026-01-25 14:00:56.50	151.25	15.16	-35.4	-36.8	20.4	0.00e+00	0	41	0	593494016	41	4180
2026-01-25 14:00:57.63	151.22	15.28	-35.2	-36.7	20.5	0.00e+00	0	41	0	601882624	41	4106
2026-01-25 14:00:58.82	151.19	15.41	-35.3	-36.7	20.4	0.00e+00	0	41	0	610271232	41	4145
2026-01-25 14:00:59.85	151.16	15.52	-35.2	-36.7	20.5	0.00e+00	0	41	0	617611264	41	4101
2026-01-25 14:01:00.84	151.14	15.63	-35.2	-36.6	20.5	0.00e+00	0	41	0	624951296	41	4094
2026-01-25 14:01:01.84	151.11	15.74	-35.2	-36.7	20.5	0.00e+00	0	41	0	632291328	41	4101
2026-01-25 14:01:02.83	151.09	15.85	-35.2	-36.6	20.6	0.00e+00	0	41	0	639631360	41	4063
2026-01-25 14:01:03.83	151.06	15.96	-35.3	-36.7	20.5	0.00e+00	0	41	0	646971392	41	4116
2026-01-25 14:01:04.82	151.04	16.07	-35.1	-36.6	20.6	0.00e+00	0	41	0	654311424	40	4298
2026-01-25 14:01:05.82	151.01	16.18	-35.2	-36.6	20.6	0.00e+00	0	41	0	660602880	40	4307
2026-01-25 14:01:06.81	150.99	16.29	-35.1	-36.5	20.6	0.00e+00	0	41	0	667942912	40	4285
2026-01-25 14:01:07.81	150.96	16.40	-35.1	-36.5	20.7	0.00e+00	0	41	0	675282944	40	4263
2026-01-25 14:01:08.80	150.93	16.52	-35.2	-36.7	20.5	0.00e+00	0	41	0	682622976	40	4342
2026-01-25 14:01:09.85	150.91	16.64	-35.1	-36.5	20.7	0.00e+00	0	41	0	689963008	40	4253
2026-01-25 14:01:10.83	150.88	16.75	-35.1	-36.5	20.7	0.00e+00	0	41	0	697303040	40	4273
2026-01-25 14:01:11.90	150.85	16.87	-35.1	-36.5	20.6	0.00e+00	0	41	0	704643072	40	4256
2026-01-25 14:01:12.78	150.83	16.97	-35.0	-36.5	20.7	0.00e+00	0	41	0	711983104	40	4251
2026-01-25 14:01:14.10	150.79	17.13	-35.0	-36.5	20.7	0.00e+00	0	41	0	720371712	40	4246
2026-01-25 14:01:14.81	150.77	17.21	-35.1	-36.5	20.7	0.00e+00	0	41	0	725614592	40	4251
2026-01-25 14:01:16.09	150.73	17.36	-34.9	-36.4	20.8	0.00e+00	0	41	0	735051776	40	4196
2026-01-25 14:01:16.80	150.71	17.44	-34.9	-36.3	20.9	0.00e+00	0	41	0	740294656	40	4178
2026-01-25 14:01:18.08	150.68	17.59	-35.0	-36.3	20.8	0.00e+00	0	41	0	749731840	40	4193
2026-01-25 14:01:18.79	150.66	17.68	-34.8	-36.2	21.0	0.00e+00	0	41	0	754974720	40	4099
2026-01-25 14:01:20.07	150.62	17.83	-34.7	-36.1	21.1	0.00e+00	0	41	0	764411904	40	4053
2026-01-25 14:01:20.78	150.60	17.91	-34.7	-36.1	21.1	0.00e+00	0	41	0	769654784	40	4061
2026-01-25 14:01:22.06	150.56	18.07	-34.6	-35.9	21.3	0.00e+00	0	41	0	778043392	39	4229
2026-01-25 14:01:22.77	150.54	18.15	-34.6	-36.0	21.2	0.00e+00	0	41	0	783286272	39	4258
2026-01-25 14:01:24.05	150.50	18.31	-34.5	-35.9	21.3	0.00e+00	0	41	0	792723456	39	4196
2026-01-25 14:01:24.76	150.48	18.40	-34.6	-35.9	21.2	0.00e+00	0	41	0	797966336	39	4222
2026-01-25 14:01:26.04	150.44	18.55	-34.4	-35.7	21.5	0.00e+00	0	41	0	807403520	39	4112
2026-01-25 14:01:26.75	150.42	18.64	-34.4	-35.8	21.4	0.00e+00	0	41	0	812646400	39	4154
2026-01-25 14:01:28.03	150.38	18.80	-34.4	-35.7	21.5	0.00e+00	0	41	0	822083584	39	4106
2026-01-25 14:01:28.76	150.35	18.89	-34.2	-35.5	21.6	0.00e+00	0	41	0	826277888	39	4037
2026-01-25 14:01:30.04	150.31	19.05	-34.2	-35.5	21.6	0.00e+00	0	41	0	835715072	39	4030
2026-01-25 14:01:30.76	150.29	19.14	-34.3	-35.6	21.6	0.00e+00	0	41	0	840957952	39	4056
2026-01-25 14:01:32.04	150.25	19.30	-34.2	-35.5	21.7	0.00e+00	0	41	0	850395136	39	4007
2026-01-25 14:01:32.75	150.22	19.39	-34.1	-35.4	21.7	0.00e+00	0	41	0	855638016	39	3969
2026-01-25 14:01:34.03	150.18	19.56	-34.0	-35.3	21.8	0.00e+00	0	41	0	865075200	38	4162
2026-01-25 14:01:34.74	150.16	19.65	-34.1	-35.4	21.7	0.00e+00	0	41	0	870318080	38	4229
2026-01-25 14:01:36.02	150.12	19.81	-34.1	-35.3	21.8	0.00e+00	0	41	0	879755264	38	4185
2026-01-25 14:01:36.73	150.09	19.91	-34.0	-35.3	21.8	0.00e+00	0	41	0	883949568	38	4179
2026-01-25 14:01:38.03	150.05	20.08	-34.1	-35.4	21.8	0.00e+00	0	41	0	893386752	38	4197
2026-01-25 14:01:38.74	150.02	20.17	-34.1	-35.4	21.8	0.00e+00	0	41	0	898629632	38	4205
2026-01-25 14:01:40.02	149.98	20.34	-33.9	-35.2	21.9	0.00e+00	0	41	0	908066816	38	4112
2026-01-25 14:01:40.75	149.95	20.43	-33.9	-35.1	21.9	0.00e+00	0	41	0	913309696	38	4089
2026-01-25 14:01:42.15	149.90	20.62	-33.9	-35.2	21.9	0.00e+00	0	41	0	923795456	38	4109
2026-01-25 14:01:43.10	149.87	20.75	-33.9	-35.1	21.9	0.00e+00	0	41	0	930086912	38	4090
2026-01-25 14:01:44.09	149.83	20.88	-33.8	-35.1	21.9	0.00e+00	0	41	0	937426944	38	4089
2026-01-25 14:01:45.09	149.80	21.02	-33.8	-35.0	22.0	0.00e+00	0	41	0	944766976	38	4039
2026-01-25 14:01:46.08	149.76	21.15	-33.9	-35.1	21.9	0.00e+00	0	41	0	952107008	38	4096
2026-01-25 14:01:47.08	149.72	21.29	-33.8	-35.1	22.0	0.00e+00	0	41	0	959447040	38	4057
2026-01-25 14:01:48.07	149.68	21.42	-33.8	-35.1	21.9	0.00e+00	0	41	0	966787072	38	4095
2026-01-25 14:01:49.07	149.65	21.56	-33.9	-35.2	21.9	0.00e+00	0	41	0	973078528	38	4116
2026-01-25 14:01:50.06	149.61	21.70	-33.9	-35.2	21.9	0.00e+00	0	41	0	980418560	38	4102
2026-01-25 14:01:51.06	149.57	21.84	-33.8	-35.1	21.9	0.00e+00	0	41	0	987758592	38	4089
2026-01-25 14:01:52.05	149.53	21.98	-33.8	-35.1	21.9	0.00e+00	0	41	0	995098624	38	4090
2026-01-25 14:01:53.05	149.49	22.12	-33.7	-35.0	21.9	0.00e+00	0	41	0	1002438656	38	4038
2026-01-25 14:01:54.04	149.45	22.26	-33.8	-35.1	21.9	0.00e+00	0	41	0	1009778688	38	4070
2026-01-25 14:01:55.04	149.41	22.40	-33.8	-35.1	21.9	0.00e+00	0	41	0	1016070144	38	4070
2026-01-25 14:01:56.03	149.37	22.55	-33.7	-35.0	22.0	0.00e+00	0	41	0	1023410176	38	4013
2026-01-25 14:01:57.03	149.33	22.69	-33.7	-35.1	21.9	0.00e+00	0	41	0	1030750208	38	4052
2026-01-25 14:01:58.02	149.29	22.83	-33.7	-35.1	21.9	0.00e+00	0	41	0	1038090240	38	4058
2026-01-25 14:01:59.02	149.25	22.98	-33.7	-35.1	21.9	0.00e+00	0	41	0	1045430272	38	4059
2026-01-25 14:02:00.01	149.21	23.13	-33.7	-35.0	21.9	0.00e+00	0	41	0	1051721728	38	4031
2026-01-25 14:02:01.01	149.16	23.27	-33.8	-35.1	21.8	0.00e+00	0	41	0	1059061760	38	4082
2026-01-25 14:02:02.00	149.12	23.42	-33.8	-35.2	21.7	0.00e+00	0	41	0	1066401792	38	4134
2026-01-25 14:02:03.00	149.08	23.57	-33.8	-35.1	21.8	0.00e+00	0	41	0	1073741824	38	4088
2026-01-25 14:02:03.99	149.03	23.72	-33.8	-35.2	21.8	0.00e+00	0	41	0	1081081856	38	4117
2026-01-25 14:02:04.99	148.99	23.87	-33.9	-35.3	21.6	0.00e+00	0	41	0	1088421888	38	4148
2026-01-25 14:02:05.98	148.94	24.02	-33.8	-35.2	21.7	0.00e+00	0	41	0	1095761920	38	4126
2026-01-25 14:02:06.98	148.90	24.17	-33.9	-35.3	21.6	0.00e+00	0	41	0	1103101952	38	4172
2026-01-25 14:02:07.97	148.85	24.32	-33.9	-35.3	21.6	0.00e+00	0	41	0	1110441984	38	4167
2026-01-25 14:02:08.97	148.81	24.48	-33.9	-35.3	21.7	0.00e+00	0	41	0	1116733440	38	4174
2026-01-25 14:02:09.96	148.76	24.63	-33.9	-35.3	21.6	0.00e+00	0	41	0	1124073472	38	4171
2026-01-25 14:02:10.96	148.71	24.79	-33.8	-35.2	21.7	0.00e+00	0	41	0	1131413504	38	4132
2026-01-25 14:02:11.96	148.66	24.95	-33.9	-35.4	21.5	0.00e+00	0	41	0	1138753536	38	4220
2026-01-25 14:02:12.95	148.62	25.10	-33.8	-35.2	21.7	0.00e+00	0	41	0	1146093568	38	4111
2026-01-25 14:02:13.95	148.57	25.26	-33.9	-35.3	21.7	0.00e+00	0	41	0	1153433600	38	4158
2026-01-25 14:02:14.94	148.52	25.42	-33.7	-35.1	21.8	0.00e+00	0	41	0	1159725056	38	4074
2026-01-25 14:02:15.93	148.47	25.58	-33.6	-35.0	21.9	0.00e+00	0	41	0	1167065088	38	4026
2026-01-25 14:02:16.93	148.42	25.74	-33.6	-35.0	21.9	0.00e+00	0	41	0	1174405120	38	4040
2026-01-25 14:02:17.92	148.37	25.90	-33.6	-35.0	21.9	0.00e+00	0	41	0	1181745152	38	4019
2026-01-25 14:02:18.92	148.32	26.07	-33.5	-34.9	21.9	0.00e+00	0	41	0	1189085184	37	4240
2026-01-25 14:02:19.91	148.27	26.23	-33.5	-34.9	21.9	0.00e+00	0	41	0	1195376640	37	4224
2026-01-25 14:02:20.91	148.21	26.40	-33.6	-35.0	21.9	0.00e+00	0	41	0	1202716672	37	4264
2026-01-25 14:02:21.91	148.16	26.56	-33.7	-35.1	21.8	0.00e+00	0	41	0	1210056704	37	4310
2026-01-25 14:02:22.90	148.11	26.73	-33.5	-34.9	22.1	0.00e+00	0	41	0	1217396736	37	4204
2026-01-25 14:02:23.90	148.05	26.90	-33.4	-34.8	22.1	0.00e+00	0	41	0	1224736768	37	4146
2026-01-25 14:02:24.97	147.99	27.08	-33.1	-34.5	22.3	0.00e+00	0	41	0	1233125376	37	4025
2026-01-25 14:02:25.82	147.95	27.22	-33.0	-34.4	22.4	0.00e+00	0	41	0	1238368256	36	4212
2026-01-25 14:02:27.15	147.87	27.45	-33.0	-34.3	22.5	0.00e+00	0	41	0	1247805440	36	4181
2026-01-25 14:02:27.86	147.83	27.58	-33.0	-34.3	22.5	0.00e+00	0	41	0	1253048320	36	4190
2026-01-25 14:02:29.14	147.76	27.80	-32.8	-34.1	22.7	0.00e+00	0	41	0	1262485504	36	4097
2026-01-25 14:02:29.85	147.72	27.92	-32.8	-34.1	22.7	0.00e+00	0	41	0	1267728384	36	4076
2026-01-25 14:02:31.13	147.64	28.15	-32.7	-34.0	22.9	0.00e+00	0	41	0	1277165568	36	4011
2026-01-25 14:02:31.85	147.60	28.28	-32.6	-33.9	22.9	0.00e+00	0	41	0	1282408448	36	3989
2026-01-25 14:02:33.13	147.52	28.50	-31.8	-33.1	22.6	0.00e+00	0	41	0	1291845632	34	4063
2026-01-25 14:02:33.90	147.47	28.64	-31.7	-33.0	22.7	0.00e+00	0	41	0	1297088512	34	4032
2026-01-25 14:02:35.18	147.39	28.87	-31.8	-33.1	22.7	0.00e+00	0	41	0	1306525696	34	4071
2026-01-25 14:02:35.91	147.35	29.01	-31.7	-33.0	22.7	0.00e+00	0	41	0	1311768576	34	4030
2026-01-25 14:02:37.19	147.27	29.24	-31.7	-33.0	22.7	0.00e+00	0	41	0	1321205760	34	4009
2026-01-25 14:02:37.99	147.22	29.39	-31.8	-33.0	22.7	0.00e+00	0	41	0	1326448640	34	4048
2026-01-25 14:02:39.13	147.14	29.60	-31.8	-33.1	22.6	0.00e+00	0	41	0	1334837248	34	4087
2026-01-25 14:02:39.99	147.08	29.76	-31.9	-33.2	22.6	0.00e+00	0	41	0	1341128704	34	4114
2026-01-25 14:02:41.12	147.01	29.97	-32.0	-33.3	22.5	0.00e+00	0	41	0	1349517312	34	4155
2026-01-25 14:02:41.97	146.95	30.13	-32.0	-33.3	22.5	0.00e+00	0	41	0	1355808768	34	4167
2026-01-25 14:02:43.11	146.88	30.35	-32.1	-33.4	22.4	0.00e+00	0	41	0	1363148800	34	4212
2026-01-25 14:02:43.96	146.82	30.51	-32.1	-33.4	22.4	0.00e+00	0	41	0	1369440256	34	4215
2026-01-25 14:02:45.10	146.74	30.73	-32.1	-33.4	22.4	0.00e+00	0	41	0	1377828864	34	4201
2026-01-25 14:02:45.95	146.68	30.89	-32.2	-33.5	22.3	0.00e+00	0	41	0	1384120320	34	4252
2026-01-25 14:02:47.14	146.59	31.13	-32.2	-33.5	22.2	0.00e+00	0	41	0	1392508928	34	4274
2026-01-25 14:02:47.99	146.53	31.29	-32.2	-33.5	22.2	0.00e+00	0	41	0	1398800384	34	4291
2026-01-25 14:02:49.13	146.45	31.52	-32.2	-33.5	22.2	0.00e+00	0	41	0	1407188992	34	4260
2026-01-25 14:02:49.98	146.38	31.69	-32.2	-33.6	22.2	0.00e+00	0	41	0	1413480448	34	4306
2026-01-25 14:02:51.12	146.30	31.92	-32.2	-33.6	22.2	0.00e+00	0	41	0	1421869056	34	4313
2026-01-25 14:02:51.97	146.23	32.09	-32.4	-33.7	22.1	0.00e+00	0	41	0	1427111936	34	4382
2026-01-25 14:02:53.11	146.15	32.32	-32.5	-33.9	21.9	0.00e+00	0	41	0	1435500544	34	4459
2026-01-25 14:02:53.96	146.08	32.49	-32.5	-33.9	21.9	0.00e+00	0	41	0	1441792000	34	4462
2026-01-25 14:02:55.10	145.99	32.73	-32.6	-34.0	21.8	0.00e+00	0	41	0	1450180608	34	4537
2026-01-25 14:02:55.95	145.92	32.90	-32.5	-33.9	21.8	0.00e+00	0	41	0	1456472064	34	4483
2026-01-25 14:02:57.09	145.83	33.14	-32.6	-34.0	21.8	0.00e+00	0	41	0	1464860672	34	4538
2026-01-25 14:02:57.94	145.76	33.32	-32.5	-34.0	21.8	0.00e+00	0	41	0	1470103552	34	4497
2026-01-25 14:02:59.08	145.66	33.56	-32.4	-33.8	21.9	0.00e+00	0	41	0	1478492160	34	4411
2026-01-25 14:02:59.93	145.59	33.74	-32.4	-33.8	21.9	0.00e+00	0	41	0	1484783616	34	4437
2026-01-25 14:03:01.07	145.49	33.98	-32.3	-33.7	22.0	0.00e+00	0	41	0	1493172224	34	4378
2026-01-25 14:03:01.92	145.42	34.16	-32.3	-33.7	22.0	0.00e+00	0	41	0	1499463680	34	4384
2026-01-25 14:03:03.10	145.32	34.42	-32.2	-33.6	22.1	0.00e+00	0	41	0	1507852288	34	4327
2026-01-25 14:03:03.96	145.24	34.61	-32.2	-33.6	22.1	0.00e+00	0	41	0	1514143744	34	4292
2026-01-25 14:03:05.09	145.14	34.85	-32.1	-33.5	22.2	0.00e+00	0	41	0	1522532352	34	4275
2026-01-25 14:03:05.95	145.06	35.04	-32.0	-33.3	22.4	0.00e+00	0	41	0	1528823808	34	4188
2026-01-25 14:03:07.08	144.95	35.29	-32.1	-33.4	22.3	0.00e+00	0	41	0	1536163840	34	4233
2026-01-25 14:03:07.94	144.87	35.49	-32.0	-33.4	22.4	0.00e+00	0	41	0	1542455296	34	4210
2026-01-25 14:03:09.07	144.76	35.74	-32.0	-33.3	22.4	0.00e+00	0	41	0	1550843904	34	4180
2026-01-25 14:03:10.03	144.67	35.96	-32.1	-33.5	22.3	0.00e+00	0	41	0	1558183936	34	4248
2026-01-25 14:03:11.03	144.57	36.19	-32.0	-33.4	22.4	0.00e+00	0	41	0	1565523968	34	4203
2026-01-25 14:03:12.02	144.47	36.41	-32.1	-33.4	22.3	0.00e+00	0	41	0	1572864000	34	4237
2026-01-25 14:03:13.02	144.37	36.64	-32.2	-33.6	22.2	0.00e+00	0	41	0	1579155456	34	4301
2026-01-25 14:03:14.01	144.27	36.88	-32.3	-33.7	22.2	0.00e+00	0	41	0	1586495488	34	4359
2026-01-25 14:03:15.01	144.16	37.11	-32.5	-33.9	21.9	0.00e+00	0	41	0	1593835520	34	4492
2026-01-25 14:03:16.00	144.06	37.34	-32.4	-33.8	22.0	0.00e+00	0	41	0	1601175552	34	4439
2026-01-25 14:03:16.99	143.95	37.58	-32.5	-33.9	21.9	0.00e+00	0	41	0	1608515584	34	4475
2026-01-25 14:03:17.98	143.84	37.81	-32.7	-34.1	21.7	0.00e+00	0	41	0	1614807040	34	4581
2026-01-25 14:03:18.98	143.73	38.05	-32.7	-34.1	21.7	0.00e+00	0	41	0	1622147072	34	4569
2026-01-25 14:03:19.97	143.62	38.29	-32.7	-34.2	21.7	0.00e+00	0	41	0	1629487104	34	4603
2026-01-25 14:03:20.97	143.51	38.54	-32.7	-34.1	21.8	0.00e+00	0	41	0	1636827136	35	4304
2026-01-25 14:03:21.96	143.39	38.78	-32.6	-34.0	21.8	0.00e+00	0	41	0	1644167168	35	4263
2026-01-25 14:03:22.96	143.28	39.03	-32.6	-34.0	21.8	0.00e+00	0	41	0	1651507200	35	4268
2026-01-25 14:03:23.95	143.16	39.27	-32.6	-34.0	21.8	0.00e+00	0	41	0	1657798656	35	4261
2026-01-25 14:03:24.95	143.04	39.52	-32.4	-33.8	22.0	0.00e+00	0	41	0	1665138688	35	4157
2026-01-25 14:03:25.94	142.91	39.77	-32.5	-33.8	22.0	0.00e+00	0	41	0	1672478720	35	4178
2026-01-25 14:03:26.94	142.79	40.03	-32.4	-33.7	22.0	0.00e+00	0	41	0	1679818752	35	4139
2026-01-25 14:03:27.93	142.66	40.28	-32.2	-33.5	22.2	0.00e+00	0	41	0	1687158784	35	4047
2026-01-25 14:03:28.93	142.53	40.54	-32.8	-33.6	23.2	0.00e+00	0	41	0	1694498816	35	4076
2026-01-25 14:03:29.92	142.40	40.79	-32.8	-33.6	22.0	0.00e+00	0	41	0	1701838848	35	4086
2026-01-25 14:03:30.92	142.27	41.05	-32.7	-33.5	23.2	0.00e+00	0	41	0	1709178880	35	4044
2026-01-25 14:03:31.92	142.13	41.31	-32.8	-33.7	23.1	0.00e+00	0	41	0	1715470336	35	4102
2026-01-25 14:03:32.91	142.00	41.58	-33.1	-33.9	22.9	0.00e+00	0	42	0	1722810368	35	4223
2026-01-25 14:03:33.91	141.85	41.84	-33.0	-33.8	23.0	0.00e+00	0	41	0	1730150400	35	4178
2026-01-25 14:03:34.90	141.71	42.11	-33.1	-33.9	22.9	0.00e+00	0	41	0	1737490432	35	4216
2026-01-25 14:03:35.90	141.57	42.37	-34.2	-35.1	22.9	0.00e+00	0	41	0	1744830464	37	4292
2026-01-25 14:03:36.90	141.42	42.64	-34.1	-35.0	23.0	0.00e+00	0	41	0	1752170496	37	4248
2026-01-25 14:03:37.89	141.27	42.91	-34.8	-35.2	22.8	0.00e+00	0	41	0	1758461952	38	4144
2026-01-25 14:03:38.89	141.12	43.19	-34.3	-35.1	22.9	0.00e+00	0	41	0	1765801984	38	4083
2026-01-25 14:03:39.88	140.96	43.46	-34.1	-34.9	23.0	0.00e+00	0	41	0	1773142016	38	4000
2026-01-25 14:03:40.87	140.81	43.74	-34.0	-34.9	23.1	0.00e+00	0	41	0	1780482048	38	3969
2026-01-25 14:03:41.87	140.65	44.02	-34.1	-35.0	23.0	0.00e+00	0	41	0	1787822080	38	4011
2026-01-25 14:03:42.86	140.48	44.29	-34.0	-34.9	23.1	0.00e+00	0	41	0	1795162112	38	3973
2026-01-25 14:03:43.86	140.32	44.58	-33.9	-34.8	23.2	0.00e+00	0	41	0	1801453568	38	3930
2026-01-25 14:03:44.85	140.15	44.86	-34.0	-34.9	23.1	0.00e+00	0	41	0	1808793600	38	3983
2026-01-25 14:03:45.84	139.98	45.14	-34.2	-35.0	22.9	0.00e+00	0	41	0	1816133632	38	4050
2026-01-25 14:03:46.83	139.80	45.43	-34.3	-35.1	22.8	0.00e+00	0	41	0	1823473664	38	4097
2026-01-25 14:03:47.86	139.62	45.72	-34.4	-35.2	22.8	0.00e+00	0	41	0	1830813696	38	4142
2026-01-25 14:03:48.88	139.43	46.02	-34.6	-35.5	22.6	0.00e+00	0	41	0	1838153728	38	4253
2026-01-25 14:03:49.93	139.23	46.33	-34.7	-35.6	22.5	0.00e+00	0	41	0	1845493760	38	4292
2026-01-25 14:03:50.91	139.05	46.62	-34.6	-35.5	22.5	0.00e+00	0	41	0	1852833792	38	4279
2026-01-25 14:03:51.98	138.84	46.94	-34.6	-35.5	22.5	0.00e+00	0	41	0	1861222400	39	4022
2026-01-25 14:03:52.85	138.67	47.20	-34.5	-35.4	22.7	0.00e+00	0	41	0	1866465280	39	3960
2026-01-25 14:03:53.99	138.44	47.54	-34.5	-35.3	22.7	0.00e+00	0	41	0	1874853888	39	3939
2026-01-25 14:03:54.84	138.26	47.80	-34.6	-35.5	22.6	0.00e+00	0	41	0	1881145344	39	4011
2026-01-25 14:03:55.98	138.02	48.14	-34.5	-35.3	22.7	0.00e+00	0	41	0	1889533952	39	3935
2026-01-25 14:03:56.91	137.83	48.43	-34.9	-35.8	22.3	0.00e+00	0	41	0	1895825408	39	4176
2026-01-25 14:03:57.90	137.61	48.73	-35.0	-35.9	22.2	0.00e+00	0	41	0	1903165440	39	4207
2026-01-25 14:03:58.90	137.39	49.04	-35.2	-36.0	22.0	0.00e+00	0	41	0	1910505472	39	4291
2026-01-25 14:03:59.89	137.16	49.35	-35.1	-36.0	22.1	0.00e+00	0	41	0	1917845504	39	4269
2026-01-25 14:04:01.19	136.86	49.75	-34.9	-35.8	22.3	0.00e+00	0	41	0	1927282688	39	4167
2026-01-25 14:04:01.90	136.69	49.97	-35.6	-36.5	21.6	0.00e+00	0	41	0	1932525568	40	4281
2026-01-25 14:04:03.17	136.38	50.38	-34.8	-35.6	22.3	0.00e+00	0	41	0	1941962752	40	3862
2026-01-25 14:04:04.03	136.17	50.65	-34.7	-35.5	22.4	0.00e+00	0	41	0	1947205632	40	3824
2026-01-25 14:04:05.16	135.88	51.01	-34.8	-35.6	22.4	0.00e+00	0	41	0	1955594240	40	3853
2026-01-25 14:04:06.02	135.66	51.28	-34.8	-35.7	22.3	0.00e+00	0	41	0	1961885696	40	3895
2026-01-25 14:04:07.16	135.36	51.65	-35.3	-36.2	21.9	0.00e+00	0	41	0	1970274304	40	4127
2026-01-25 14:04:08.29	135.05	52.02	-35.2	-36.1	22.0	0.00e+00	0	41	0	1978662912	40	4067
2026-01-25 14:04:09.32	134.76	52.35	-35.2	-36.1	22.0	0.00e+00	0	41	0	1986002944	40	4072
2026-01-25 14:04:10.31	134.48	52.68	-35.2	-36.1	22.0	0.00e+00	0	41	0	1993342976	40	4066
2026-01-25 14:04:11.31	134.19	53.00	-35.3	-36.2	22.0	0.00e+00	0	41	0	1999634432	40	4102
2026-01-25 14:04:12.30	133.90	53.33	-34.5	-35.3	22.7	0.00e+00	0	41	0	2006974464	39	3942
2026-01-25 14:04:13.30	133.59	53.66	-34.8	-35.7	22.3	0.00e+00	0	41	0	2014314496	40	3900
2026-01-25 14:04:14.29	133.29	53.99	-35.0	-35.9	22.1	0.00e+00	0	41	0	2021654528	40	3986
2026-01-25 14:04:15.29	132.97	54.32	-35.3	-36.1	21.9	0.00e+00	0	41	0	2028994560	40	4097
2026-01-25 14:04:16.28	132.65	54.66	-35.4	-36.3	21.8	0.00e+00	0	41	0	2036334592	40	4157
2026-01-25 14:04:17.28	132.31	54.99	-35.3	-36.1	21.8	0.00e+00	0	41	0	2043674624	40	4096
2026-01-25 14:04:18.27	131.97	55.32	-35.6	-36.5	21.6	0.00e+00	0	41	0	2051014656	41	4025
2026-01-25 14:04:19.27	131.62	55.66	-35.5	-36.4	21.6	0.00e+00	0	41	0	2057306112	41	4001
2026-01-25 14:04:20.26	131.27	56.00	-35.3	-36.3	21.7	0.00e+00	0	41	0	2064646144	41	3923
2026-01-25 14:04:21.29	130.89	56.35	-35.2	-36.2	21.9	0.00e+00	0	41	0	2071986176	41	3869
2026-01-25 14:04:22.28	130.52	56.69	-35.0	-35.9	22.1	0.00e+00	0	41	0	2079326208	40	3973
2026-01-25 14:04:23.34	130.11	57.05	-34.7	-35.6	22.5	0.00e+00	0	42	0	2086666240	39	4074
2026-01-25 14:04:24.24	129.75	57.36	-35.1	-36.0	22.1	0.00e+00	0	42	0	2094006272	39	4250
2026-01-25 14:04:25.53	129.22	57.80	-35.0	-35.8	22.3	0.00e+00	0	41	0	2102394880	39	4188
2026-01-25 14:04:26.24	128.93	58.04	-34.9	-35.8	22.3	0.00e+00	0	41	0	2107637760	39	4169
2026-01-25 14:04:27.73	128.29	58.56	-35.0	-35.9	22.1	0.00e+00	0	41	0	2119172096	39	4220
2026-01-25 14:04:28.44	127.97	58.80	-34.8	-35.7	22.3	0.00e+00	0	41	0	2123366400	39	4107
2026-01-25 14:04:29.78	127.36	59.27	-34.7	-35.5	22.5	0.00e+00	0	41	0	2133852160	39	4044
2026-01-25 14:04:30.49	127.03	59.51	-34.8	-35.7	22.4	0.00e+00	0	41	0	2139095040	39	4112
2026-01-25 14:04:31.77	126.42	59.95	-34.8	-35.6	22.4	0.00e+00	0	41	0	2148532224	39	4088
2026-01-25 14:04:32.48	126.07	60.20	-34.6	-35.5	22.5	0.00e+00	0	41	0	2152726528	39	4027
2026-01-25 14:04:33.76	125.42	60.64	-34.6	-35.4	22.6	0.00e+00	0	41	0	2162163712	39	3988
2026-01-25 14:04:34.47	125.05	60.89	-34.4	-35.3	22.7	0.00e+00	0	41	0	2167406592	39	3925
2026-01-25 14:04:35.75	124.36	61.33	-34.3	-35.1	22.9	0.00e+00	0	41	0	2176843776	39	3842
2026-01-25 14:04:36.51	123.95	61.59	-34.3	-35.2	22.9	0.00e+00	0	41	0	2182086656	39	3880
2026-01-25 14:04:37.79	123.22	62.03	-34.3	-35.1	22.9	0.00e+00	0	41	0	2191523840	39	3865
2026-01-25 14:04:38.50	122.81	62.28	-33.9	-34.8	23.2	0.00e+00	0	41	0	2196766720	38	3920
2026-01-25 14:04:39.78	122.04	62.71	-34.3	-35.1	22.9	0.00e+00	0	41	0	2206203904	38	4078
2026-01-25 14:04:40.49	121.60	62.96	-34.2	-35.1	22.9	0.00e+00	0	41	0	2210398208	38	4071
2026-01-25 14:04:41.77	120.79	63.39	-34.2	-35.1	22.9	0.00e+00	0	41	0	2219835392	38	4057
2026-01-25 14:04:42.48	120.33	63.63	-34.3	-35.2	22.8	0.00e+00	0	41	0	2225078272	38	4103
2026-01-25 14:04:43.79	119.45	64.07	-34.3	-35.1	22.9	0.00e+00	0	41	0	2234515456	38	4088
2026-01-25 14:04:44.50	118.96	64.31	-34.4	-35.2	22.8	0.00e+00	0	41	0	2239758336	38	4132
2026-01-25 14:04:45.79	118.04	64.74	-33.9	-34.7	23.2	0.00e+00	0	41	0	2249195520	38	3911
2026-01-25 14:04:46.51	117.51	64.98	-33.8	-34.6	23.3	0.00e+00	0	41	0	2254438400	38	3867
2026-01-25 14:04:47.79	116.54	65.40	-33.5	-34.3	23.6	0.00e+00	0	41	0	2263875584	37	3931
2026-01-25 14:04:48.50	115.99	65.63	-33.4	-34.2	23.7	0.00e+00	0	41	0	2268069888	37	3890
2026-01-25 14:04:49.78	114.96	66.05	-33.3	-34.1	23.8	0.00e+00	0	41	0	2277507072	37	3834
2026-01-25 14:04:50.50	114.37	66.28	-33.3	-34.1	23.8	0.00e+00	0	41	0	2282749952	37	3838
2026-01-25 14:04:51.78	113.28	66.68	-33.6	-34.5	23.4	0.00e+00	0	41	0	2292187136	37	4010
2026-01-25 14:04:52.57	112.59	66.93	-33.6	-34.4	23.5	0.00e+00	0	41	0	2298478592	37	3990
2026-01-25 14:04:53.76	111.51	67.30	-33.5	-34.3	23.6	0.00e+00	0	41	0	2306867200	37	3936
2026-01-25 14:04:54.61	110.72	67.56	-33.6	-34.4	23.5	0.00e+00	0	41	0	2312110080	37	3993
2026-01-25 14:04:55.74	109.64	67.90	-33.7	-34.5	23.4	0.00e+00	0	41	0	2320498688	37	4033
2026-01-25 14:04:56.60	108.79	68.15	-33.8	-34.7	23.3	0.00e+00	0	41	0	2326790144	37	4100
2026-01-25 14:04:57.73	107.64	68.48	-33.9	-34.7	23.2	0.00e+00	0	41	0	2335178752	37	4134
2026-01-25 14:04:58.59	106.74	68.72	-33.9	-34.7	23.2	0.00e+00	0	41	0	2341470208	37	4117
2026-01-25 14:04:59.72	105.52	69.04	-33.9	-34.7	23.3	0.00e+00	0	41	0	2349858816	38	3893
2026-01-25 14:05:00.58	104.57	69.27	-33.5	-34.4	23.5	0.00e+00	0	41	0	2356150272	37	3967
2026-01-25 14:05:01.71	103.29	69.58	-33.7	-34.5	23.4	0.00e+00	0	41	0	2363490304	37	4019
2026-01-25 14:05:02.57	102.28	69.80	-33.5	-34.3	23.6	0.00e+00	0	41	0	2369781760	37	3945
2026-01-25 14:05:03.70	100.92	70.08	-33.9	-34.8	23.2	0.00e+00	0	41	0	2378170368	37	4146
2026-01-25 14:05:04.56	99.86	70.29	-33.7	-34.5	23.4	0.00e+00	0	41	0	2384461824	37	4041
2026-01-25 14:05:05.70	98.42	70.56	-33.7	-34.5	23.5	0.00e+00	0	41	0	2392850432	37	4027
2026-01-25 14:05:06.55	97.31	70.75	-33.6	-34.4	23.5	0.00e+00	0	41	0	2399141888	37	4001
2026-01-25 14:05:07.69	95.79	71.00	-33.6	-34.4	23.5	0.00e+00	0	41	0	2407530496	37	3990
2026-01-25 14:05:08.78	94.30	71.23	-33.6	-34.4	23.6	0.00e+00	0	41	0	2414870528	37	3976
2026-01-25 14:05:09.63	93.12	71.40	-33.9	-34.7	23.2	0.00e+00	0	41	0	2421161984	37	4129
2026-01-25 14:05:10.77	91.49	71.61	-33.9	-34.8	23.2	0.00e+00	0	41	0	2429550592	37	4150
2026-01-25 14:05:11.62	90.25	71.76	-33.7	-34.5	23.4	0.00e+00	0	41	0	2435842048	37	4030
2026-01-25 14:05:12.76	88.55	71.95	-33.7	-34.6	23.4	0.00e+00	0	41	0	2443182080	37	4061
2026-01-25 14:05:13.61	87.26	72.08	-33.7	-34.5	23.4	0.00e+00	0	41	0	2449473536	37	4020
2026-01-25 14:05:14.75	85.50	72.24	-34.0	-34.9	23.1	0.00e+00	0	41	0	2457862144	37	4227
2026-01-25 14:05:15.60	84.17	72.35	-33.8	-34.7	23.3	0.00e+00	0	41	0	2464153600	37	4105
2026-01-25 14:05:16.74	82.36	72.49	-33.7	-34.5	23.4	0.00e+00	0	41	0	2472542208	37	4038
2026-01-25 14:05:17.59	80.99	72.57	-33.7	-34.5	23.4	0.00e+00	0	41	0	2478833664	37	4032
2026-01-25 14:05:18.73	79.13	72.68	-33.8	-34.6	23.3	0.00e+00	0	41	0	2487222272	37	4083
2026-01-25 14:05:19.59	77.71	72.75	-33.7	-34.5	23.4	0.00e+00	0	41	0	2493513728	37	4038
2026-01-25 14:05:20.88	75.56	72.83	-33.5	-34.3	23.6	0.00e+00	0	41	0	2502950912	37	3949
2026-01-25 14:05:21.59	74.37	72.86	-33.5	-34.4	23.6	0.00e+00	0	42	0	2507145216	37	3959
2026-01-25 14:05:22.87	72.22	72.91	-33.7	-34.5	23.4	0.00e+00	0	41	0	2516582400	37	4028
2026-01-25 14:05:23.59	71.00	72.92	-33.6	-34.5	23.4	0.00e+00	0	41	0	2521825280	37	4013
2026-01-25 14:05:25.15	68.36	72.93	-33.5	-34.4	23.6	0.00e+00	0	41	0	2533359616	37	3962
2026-01-25 14:05:25.78	67.30	72.92	-33.6	-34.4	23.6	0.00e+00	0	41	0	2537553920	37	3976
2026-01-25 14:05:27.31	64.71	72.88	-33.8	-34.6	23.4	0.00e+00	0	41	0	2549088256	37	4071
2026-01-25 14:05:28.18	63.25	72.85	-33.7	-34.5	23.4	0.00e+00	0	41	0	2555379712	37	4038
2026-01-25 14:05:29.63	60.84	72.76	-33.7	-34.5	23.4	0.00e+00	0	42	0	2565865472	37	4028
2026-01-25 14:05:30.34	59.66	72.71	-33.7	-34.5	23.5	0.00e+00	0	41	0	2571108352	37	4012
2026-01-25 14:05:31.82	57.25	72.58	-33.8	-34.7	23.3	0.00e+00	0	41	0	2581594112	37	4106
2026-01-25 14:05:32.54	56.08	72.50	-34.0	-34.9	23.1	0.00e+00	0	41	0	2586836992	37	4206
2026-01-25 14:05:33.82	54.05	72.36	-34.1	-35.0	23.0	0.00e+00	0	41	0	2595225600	37	4259
2026-01-25 14:05:34.56	52.88	72.26	-33.9	-34.8	23.2	0.00e+00	0	42	0	2601517056	37	4150
2026-01-25 14:05:35.84	50.91	72.08	-33.9	-34.7	23.2	0.00e+00	0	41	0	2609905664	37	4145
2026-01-25 14:05:36.56	49.82	71.97	-33.8	-34.7	23.3	0.00e+00	0	41	0	2615148544	37	4108
2026-01-25 14:05:37.84	47.91	71.76	-33.7	-34.5	23.4	0.00e+00	0	41	0	2624585728	37	4016
2026-01-25 14:05:38.55	46.87	71.63	-33.8	-34.6	23.4	0.00e+00	0	41	0	2629828608	37	4067
2026-01-25 14:05:39.83	45.04	71.39	-34.0	-34.8	23.2	0.00e+00	0	42	0	2639265792	37	4175
2026-01-25 14:05:40.56	44.02	71.25	-34.1	-35.0	23.0	0.00e+00	0	42	0	2644508672	37	4258
2026-01-25 14:05:41.84	42.27	70.98	-34.2	-35.1	23.0	0.00e+00	0	42	0	2653945856	38	4055
2026-01-25 14:05:42.56	41.31	70.83	-34.1	-35.0	23.1	0.00e+00	0	41	0	2659188736	38	4005
2026-01-25 14:05:43.84	39.65	70.54	-33.9	-34.7	23.3	0.00e+00	0	41	0	2668625920	38	3911
2026-01-25 14:05:44.58	38.71	70.37	-34.1	-35.0	23.0	0.00e+00	0	41	0	2673868800	38	4013
2026-01-25 14:05:45.86	37.13	70.06	-33.7	-34.6	23.4	0.00e+00	0	41	0	2682257408	38	3825
2026-01-25 14:05:46.59	36.25	69.87	-33.8	-34.6	23.2	0.00e+00	0	42	0	2687500288	38	3836
2026-01-25 14:05:47.87	34.75	69.54	-33.9	-34.7	23.3	0.00e+00	0	41	0	2696937472	38	3880
2026-01-25 14:05:48.61	33.91	69.35	-33.8	-34.6	23.4	0.00e+00	0	41	0	2702180352	38	3859
2026-01-25 14:05:49.88	32.50	69.00	-33.7	-34.5	23.4	0.00e+00	0	42	0	2711617536	37	4025
2026-01-25 14:05:50.60	31.72	68.80	-33.4	-34.2	23.7	0.00e+00	0	41	0	2716860416	37	3898
2026-01-25 14:05:51.88	30.38	68.44	-33.5	-34.4	23.6	0.00e+00	0	41	0	2726297600	37	3965
2026-01-25 14:05:52.59	29.66	68.23	-33.6	-34.5	23.5	0.00e+00	0	42	0	2731540480	37	4013
2026-01-25 14:05:53.87	28.40	67.85	-33.7	-34.5	23.4	0.00e+00	0	42	0	2739929088	37	4031
2026-01-25 14:05:54.59	27.71	67.64	-33.7	-34.5	23.4	0.00e+00	0	42	0	2746220544	37	4044
2026-01-25 14:05:55.95	26.44	67.22	-33.3	-34.1	23.8	0.00e+00	0	41	0	2755657728	37	3828
2026-01-25 14:05:56.66	25.80	67.01	-33.1	-33.9	23.9	0.00e+00	0	41	0	2760900608	37	3751
2026-01-25 14:05:58.02	24.61	66.58	-33.6	-34.4	23.5	0.00e+00	0	41	0	2770337792	37	3988
2026-01-25 14:05:58.73	24.01	66.36	-33.7	-34.6	23.3	0.00e+00	0	42	0	2775580672	37	4063
2026-01-25 14:06:00.07	22.91	65.93	-33.8	-34.6	23.3	0.00e+00	0	41	0	2785017856	37	4094
2026-01-25 14:06:00.78	22.34	65.70	-34.1	-34.9	23.1	0.00e+00	0	41	0	2790260736	37	4221
2026-01-25 14:06:02.14	21.29	65.25	-34.1	-34.9	23.1	0.00e+00	0	41	0	2800746496	37	4226
2026-01-25 14:06:02.85	20.76	65.02	-34.2	-35.0	23.0	0.00e+00	0	41	0	2804940800	37	4283
2026-01-25 14:06:04.17	19.80	64.58	-34.0	-34.9	23.1	0.00e+00	0	42	0	2815426560	37	4202
2026-01-25 14:06:04.88	19.29	64.35	-34.0	-34.9	23.2	0.00e+00	0	41	0	2819620864	37	4198
2026-01-25 14:06:06.22	18.37	63.90	-34.2	-35.1	23.0	0.00e+00	0	41	0	2830106624	37	4295
2026-01-25 14:06:06.94	17.90	63.66	-34.5	-35.3	22.7	0.00e+00	0	41	0	2835349504	38	4193
2026-01-25 14:06:08.28	17.03	63.20	-34.7	-35.6	22.5	0.00e+00	0	41	0	2844786688	38	4318
2026-01-25 14:06:08.99	16.58	62.96	-34.7	-35.5	22.3	0.00e+00	0	42	0	2850029568	38	4288
2026-01-25 14:06:10.27	15.80	62.52	-34.9	-35.7	22.4	0.00e+00	0	41	0	2859466752	39	4138
2026-01-25 14:06:11.01	15.36	62.27	-34.9	-35.8	22.3	0.00e+00	0	42	0	2863661056	39	4159
2026-01-25 14:06:12.29	14.63	61.83	-34.9	-35.7	22.3	0.00e+00	0	41	0	2873098240	39	4134
2026-01-25 14:06:13.00	14.23	61.59	-35.0	-35.9	22.2	0.00e+00	0	42	0	2878341120	39	4216
2026-01-25 14:06:14.28	13.53	61.15	-35.2	-36.0	22.1	0.00e+00	0	41	0	2887778304	39	4288
2026-01-25 14:06:14.99	13.16	60.90	-35.1	-36.0	22.1	0.00e+00	0	41	0	2893021184	39	4283
2026-01-25 14:06:16.27	12.50	60.46	-35.1	-36.0	22.1	0.00e+00	0	41	0	2902458368	39	4243
2026-01-25 14:06:16.98	12.14	60.22	-35.1	-36.0	22.1	0.00e+00	0	41	0	2907701248	39	4280
2026-01-25 14:06:18.26	11.52	59.78	-35.2	-36.1	22.1	0.00e+00	0	42	0	2916089856	39	4304
2026-01-25 14:06:19.09	11.12	59.49	-35.2	-36.1	22.0	0.00e+00	0	41	0	2922381312	39	4318
2026-01-25 14:06:20.23	10.59	59.10	-35.1	-36.0	22.1	0.00e+00	0	41	0	2930769920	40	4020
2026-01-25 14:06:21.08	10.21	58.80	-35.0	-35.8	22.2	0.00e+00	0	41	0	2937061376	40	3952
2026-01-25 14:06:22.22	9.71	58.41	-34.7	-35.6	22.5	0.00e+00	0	41	0	2945449984	40	3827
2026-01-25 14:06:23.07	9.35	58.12	-34.6	-35.5	22.5	0.00e+00	0	41	0	2951741440	40	3787
2026-01-25 14:06:24.21	8.87	57.73	-34.6	-35.4	22.6	0.00e+00	0	41	0	2959081472	39	4002
2026-01-25 14:06:25.07	8.52	57.43	-34.9	-35.8	22.2	0.00e+00	0	41	0	2965372928	39	4161
2026-01-25 14:06:26.20	8.08	57.05	-35.3	-36.2	21.8	0.00e+00	0	41	0	2973761536	40	4118
2026-01-25 14:06:27.06	7.74	56.76	-35.2	-36.1	22.0	0.00e+00	0	41	0	2980052992	40	4095
2026-01-25 14:06:28.19	7.32	56.37	-34.7	-35.6	22.4	0.00e+00	0	41	0	2988441600	40	3841
2026-01-25 14:06:29.04	7.01	56.08	-34.6	-35.5	22.6	0.00e+00	0	41	0	2994733056	39	4022
2026-01-25 14:06:30.18	6.60	55.70	-34.5	-35.3	22.7	0.00e+00	0	41	0	3003121664	39	3939
2026-01-25 14:06:31.03	6.30	55.41	-34.3	-35.2	22.8	0.00e+00	0	41	0	3008364544	39	3890
2026-01-25 14:06:32.17	5.91	55.03	-34.4	-35.3	22.8	0.00e+00	0	41	0	3016753152	39	3930
2026-01-25 14:06:33.02	5.63	54.74	-34.4	-35.3	22.7	0.00e+00	0	41	0	3023044608	39	3927
2026-01-25 14:06:34.16	5.25	54.36	-34.5	-35.3	22.7	0.00e+00	0	41	0	3031433216	39	3946
2026-01-25 14:06:35.01	4.98	54.08	-34.6	-35.5	22.6	0.00e+00	0	42	0	3037724672	39	4006
2026-01-25 14:06:36.15	4.63	53.70	-34.5	-35.4	22.7	0.00e+00	0	41	0	3046113280	39	3973
2026-01-25 14:06:37.00	4.37	53.42	-34.6	-35.5	22.6	0.00e+00	0	41	0	3051356160	39	4025
2026-01-25 14:06:38.14	4.03	53.05	-34.9	-35.8	22.2	0.00e+00	0	41	0	3059744768	39	4182
2026-01-25 14:06:38.99	3.78	52.77	-35.0	-35.9	22.2	0.00e+00	0	41	0	3066036224	39	4221
2026-01-25 14:06:40.13	3.46	52.40	-35.0	-35.9	22.2	0.00e+00	0	41	0	3074424832	39	4210
2026-01-25 14:06:40.98	3.22	52.12	-35.0	-35.9	22.1	0.00e+00	0	41	0	3080716288	39	4218
2026-01-25 14:06:42.12	2.91	51.75	-35.0	-35.9	22.1	0.00e+00	0	41	0	3089104896	39	4207
2026-01-25 14:06:42.97	2.69	51.48	-35.1	-36.0	22.1	0.00e+00	0	41	0	3095396352	39	4248
2026-01-25 14:06:44.11	2.39	51.11	-35.2	-36.0	22.0	0.00e+00	0	41	0	3102736384	40	4038
2026-01-25 14:06:44.96	2.17	50.84	-35.3	-36.2	21.9	0.00e+00	0	41	0	3109027840	40	4106
2026-01-25 14:06:46.10	1.89	50.48	-35.2	-36.1	21.9	0.00e+00	0	41	0	3117416448	40	4067
2026-01-25 14:06:46.95	1.68	50.21	-35.1	-36.0	21.9	0.00e+00	0	41	0	3123707904	40	4027
2026-01-25 14:06:48.09	1.41	49.86	-35.0	-35.9	22.1	0.00e+00	0	42	0	3132096512	40	3990
2026-01-25 14:06:48.94	1.21	49.59	-35.0	-35.9	21.7	0.00e+00	0	41	0	3138387968	40	3970
2026-01-25 14:06:50.08	0.95	49.24	-34.6	-35.4	22.5	0.00e+00	0	41	0	3146776576	40	3770
2026-01-25 14:06:51.31	0.67	48.86	-34.8	-35.6	22.4	0.00e+00	0	41	0	3155165184	39	4096
2026-01-25 14:06:52.34	0.45	48.54	-34.8	-35.7	22.4	0.00e+00	0	41	0	3162505216	39	4116
2026-01-25 14:06:53.34	0.23	48.24	-34.5	-35.4	22.6	0.00e+00	0	41	0	3169845248	39	3970
2026-01-25 14:06:54.53	359.98	47.88	-34.1	-35.0	23.0	0.00e+00	0	41	0	3178233856	39	3789
2026-01-25 14:06:55.39	359.81	47.62	-34.2	-35.0	23.0	0.00e+00	0	41	0	3184525312	39	3796
2026-01-25 14:06:56.53	359.58	47.28	-34.0	-34.9	23.1	0.00e+00	0	42	0	3192913920	38	3966
2026-01-25 14:06:57.38	359.41	47.02	-34.1	-35.0	22.8	0.00e+00	0	41	0	3199205376	38	4021
2026-01-25 14:06:58.52	359.19	46.69	-34.3	-35.1	22.8	0.00e+00	0	42	0	3206545408	38	4086
2026-01-25 14:06:59.37	359.03	46.44	-34.2	-35.1	22.7	0.00e+00	0	42	0	3212836864	38	4066
2026-01-25 14:07:00.51	358.81	46.10	-34.1	-34.9	23.0	0.00e+00	0	41	0	3221225472	38	3985
2026-01-25 14:07:01.36	358.66	45.86	-34.0	-34.8	23.1	0.00e+00	0	41	0	3227516928	38	3943
2026-01-25 14:07:02.49	358.46	45.53	-33.8	-34.6	23.3	0.00e+00	0	41	0	3235905536	38	3848
2026-01-25 14:07:03.35	358.30	45.28	-33.7	-34.5	23.4	0.00e+00	0	41	0	3242196992	38	3821
2026-01-25 14:07:04.48	358.11	44.96	-33.8	-34.6	23.3	0.00e+00	0	41	0	3250585600	38	3840
2026-01-25 14:07:05.34	357.96	44.72	-33.7	-34.5	23.4	0.00e+00	0	41	0	3256877056	38	3811
2026-01-25 14:07:06.48	357.77	44.39	-34.0	-34.8	23.2	0.00e+00	0	41	0	3265265664	38	3942
2026-01-25 14:07:07.33	357.63	44.16	-34.0	-34.9	23.1	0.00e+00	0	41	0	3270508544	38	3975
2026-01-25 14:07:08.46	357.45	43.84	-33.8	-34.7	23.3	0.00e+00	0	41	0	3278897152	38	3874
2026-01-25 14:07:09.32	357.31	43.60	-33.7	-34.5	23.3	0.00e+00	0	41	0	3285188608	38	3794
2026-01-25 14:07:10.45	357.14	43.29	-33.6	-34.4	23.5	0.00e+00	0	41	0	3293577216	37	3981
2026-01-25 14:07:11.30	357.01	43.06	-33.6	-34.4	23.5	0.00e+00	0	42	0	3299868672	37	3977
2026-01-25 14:07:12.44	356.83	42.75	-33.6	-34.4	23.4	0.00e+00	0	42	0	3307208704	37	3974
2026-01-25 14:07:13.29	356.71	42.52	-33.6	-34.4	23.5	0.00e+00	0	41	0	3313500160	37	3967
2026-01-25 14:07:14.43	356.54	42.22	-33.7	-34.5	23.4	0.00e+00	0	42	0	3321888768	37	4017
2026-01-25 14:07:15.28	356.42	41.99	-33.7	-34.5	23.2	0.00e+00	0	41	0	3328180224	37	4050
2026-01-25 14:07:16.59	356.24	41.64	-33.9	-34.7	23.2	0.00e+00	0	41	0	3337617408	37	4118
2026-01-25 14:07:17.30	356.14	41.46	-33.8	-34.7	23.2	0.00e+00	0	41	0	3342860288	37	4107
2026-01-25 14:07:18.78	355.94	41.07	-34.0	-34.9	23.1	0.00e+00	0	41	0	3353346048	37	4206
2026-01-25 14:07:19.49	355.85	40.88	-34.0	-34.9	23.0	0.00e+00	0	41	0	3358588928	37	4204
2026-01-25 14:07:20.77	355.68	40.56	-34.0	-34.9	23.0	0.00e+00	0	41	0	3368026112	37	4218
2026-01-25 14:07:21.50	355.58	40.37	-34.0	-34.8	23.1	0.00e+00	0	41	0	3373268992	37	4187
2026-01-25 14:07:22.78	355.42	40.04	-34.0	-34.8	23.1	0.00e+00	0	41	0	3382706176	37	4187
2026-01-25 14:07:23.49	355.33	39.86	-34.0	-34.9	23.1	0.00e+00	0	41	0	3387949056	37	4195
2026-01-25 14:07:24.77	355.18	39.54	-34.0	-34.9	23.1	0.00e+00	0	42	0	3396337664	37	4194
2026-01-25 14:07:25.48	355.09	39.37	-33.9	-34.7	23.2	0.00e+00	0	41	0	3401580544	37	4119
2026-01-25 14:07:26.76	354.94	39.05	-33.7	-34.5	23.3	0.00e+00	0	41	0	3411017728	37	4042
2026-01-25 14:07:27.57	354.84	38.85	-33.6	-34.4	23.5	0.00e+00	0	41	0	3416260608	37	3990
2026-01-25 14:07:28.70	354.71	38.57	-33.6	-34.4	22.4	0.00e+00	0	41	0	3424649216	37	3983
2026-01-25 14:07:29.56	354.62	38.37	-33.6	-34.4	23.5	0.00e+00	0	41	0	3430940672	37	3997
2026-01-25 14:07:30.70	354.49	38.09	-33.4	-34.2	23.5	0.00e+00	0	41	0	3439329280	37	3894
2026-01-25 14:07:31.55	354.39	37.89	-33.4	-34.2	23.0	0.00e+00	0	41	0	3445620736	37	3901
2026-01-25 14:07:32.69	354.27	37.62	-33.3	-34.2	23.7	0.00e+00	0	41	0	3454009344	37	3880
2026-01-25 14:07:33.54	354.18	37.41	-33.3	-34.1	23.7	0.00e+00	0	41	0	3460300800	37	3860
2026-01-25 14:07:34.68	354.06	37.15	-33.3	-34.1	23.7	0.00e+00	0	41	0	3468689408	37	3868
2026-01-25 14:07:35.53	353.97	36.95	-33.3	-34.1	23.7	0.00e+00	0	41	0	3473932288	37	3864
2026-01-25 14:07:36.67	353.85	36.68	-33.4	-34.3	23.6	0.00e+00	0	41	0	3482320896	37	3919
2026-01-25 14:07:37.52	353.77	36.49	-33.4	-34.2	23.6	0.00e+00	0	41	0	3488612352	37	3897
2026-01-25 14:07:38.66	353.66	36.23	-33.3	-34.2	23.7	0.00e+00	0	41	0	3497000960	37	3869
2026-01-25 14:07:39.51	353.57	36.04	-33.2	-34.1	23.8	0.00e+00	0	41	0	3503292416	37	3830
2026-01-25 14:07:40.65	353.46	35.78	-33.0	-33.8	23.3	0.00e+00	0	41	0	3511681024	36	3942
2026-01-25 14:07:41.50	353.38	35.59	-33.0	-33.7	24.0	0.00e+00	0	41	0	3516923904	36	3911
2026-01-25 14:07:42.64	353.28	35.33	-33.0	-33.8	24.0	0.00e+00	0	41	0	3525312512	36	3925
2026-01-25 14:07:43.49	353.20	35.15	-32.9	-33.7	24.1	0.00e+00	0	41	0	3531603968	36	3871
2026-01-25 14:07:44.63	353.09	34.90	-32.8	-33.6	24.1	0.00e+00	0	41	0	3539992576	36	3861
2026-01-25 14:07:45.82	352.99	34.64	-32.9	-33.7	24.0	0.00e+00	0	41	0	3548381184	36	3903
2026-01-25 14:07:46.85	352.89	34.41	-33.0	-33.9	23.9	0.00e+00	0	41	0	3555721216	36	3966
2026-01-25 14:07:47.84	352.81	34.20	-33.1	-34.0	23.8	0.00e+00	0	41	0	3563061248	36	4017
2026-01-25 14:07:48.84	352.72	33.99	-33.2	-34.0	23.8	0.00e+00	0	41	0	3570401280	36	4037
2026-01-25 14:07:49.83	352.64	33.78	-33.3	-34.1	23.7	0.00e+00	0	41	0	3577741312	36	4077
2026-01-25 14:07:50.83	352.55	33.56	-33.1	-34.0	23.5	0.00e+00	0	41	0	3585081344	36	4016
2026-01-25 14:07:51.82	352.47	33.36	-33.2	-34.0	23.7	0.00e+00	0	42	0	3592421376	36	4047
2026-01-25 14:07:52.81	352.39	33.15	-33.2	-34.0	23.7	0.00e+00	0	41	0	3598712832	36	4041
2026-01-25 14:07:53.81	352.31	32.94	-33.1	-33.9	23.8	0.00e+00	0	42	0	3606052864	36	3997
2026-01-25 14:07:54.81	352.23	32.74	-33.1	-33.9	23.8	0.00e+00	0	41	0	3613392896	36	3979
2026-01-25 14:07:55.80	352.16	32.54	-33.2	-34.0	23.8	0.00e+00	0	41	0	3620732928	36	4045
2026-01-25 14:07:56.80	352.08	32.33	-33.1	-33.9	23.8	0.00e+00	0	41	0	3628072960	36	3987
2026-01-25 14:07:57.79	352.00	32.13	-33.2	-34.0	23.8	0.00e+00	0	41	0	3635412992	36	4021
2026-01-25 14:07:58.79	351.93	31.93	-33.2	-34.1	23.7	0.00e+00	0	41	0	3642753024	36	4059
2026-01-25 14:07:59.78	351.85	31.74	-33.3	-34.2	23.7	0.00e+00	0	41	0	3649044480	36	4104
2026-01-25 14:08:00.78	351.78	31.54	-33.4	-34.2	23.6	0.00e+00	0	41	0	3656384512	36	4119
2026-01-25 14:08:01.79	351.71	31.34	-33.4	-34.3	23.6	0.00e+00	0	42	0	3663724544	36	4150
2026-01-25 14:08:02.79	351.64	31.15	-33.5	-34.3	23.5	0.00e+00	0	41	0	3671064576	36	4168
2026-01-25 14:08:03.78	351.57	30.95	-33.6	-34.4	23.4	0.00e+00	0	41	0	3678404608	36	4214
2026-01-25 14:08:04.78	351.50	30.76	-33.6	-34.4	23.4	0.00e+00	0	42	0	3685744640	36	4239
2026-01-25 14:08:05.77	351.43	30.57	-33.5	-34.4	23.5	0.00e+00	0	41	0	3693084672	36	4196
2026-01-25 14:08:06.77	351.36	30.38	-33.4	-34.3	23.5	0.00e+00	0	42	0	3700424704	36	4156
2026-01-25 14:08:07.76	351.29	30.19	-33.4	-34.3	23.5	0.00e+00	0	41	0	3706716160	36	4152
2026-01-25 14:08:08.76	351.23	30.01	-33.3	-34.2	23.6	0.00e+00	0	42	0	3714056192	36	4102
2026-01-25 14:08:09.76	351.16	29.82	-33.4	-34.2	23.6	0.00e+00	0	41	0	3721396224	36	4137
2026-01-25 14:08:10.75	351.10	29.64	-33.3	-34.1	23.7	0.00e+00	0	41	0	3728736256	36	4097
2026-01-25 14:08:11.74	351.03	29.45	-33.4	-34.2	23.4	0.00e+00	0	41	0	3736076288	36	4143
2026-01-25 14:08:12.74	350.97	29.27	-33.4	-34.3	23.5	0.00e+00	0	41	0	3743416320	36	4150
2026-01-25 14:08:13.73	350.91	29.09	-33.3	-34.1	23.6	0.00e+00	0	42	0	3749707776	36	4083
2026-01-25 14:08:14.73	350.85	28.91	-33.3	-34.1	23.6	0.00e+00	0	41	0	3757047808	36	4097
2026-01-25 14:08:15.79	350.78	28.72	-33.5	-34.3	23.6	0.00e+00	0	42	0	3765436416	36	4160
2026-01-25 14:08:16.66	350.73	28.56	-33.5	-34.3	23.5	0.00e+00	0	41	0	3770679296	36	4190
2026-01-25 14:08:18.00	350.65	28.33	-33.5	-34.3	23.3	0.00e+00	0	41	0	3781165056	36	4185
2026-01-25 14:08:18.71	350.61	28.20	-33.6	-34.5	23.3	0.00e+00	0	42	0	3786407936	36	4243
2026-01-25 14:08:19.99	350.53	27.98	-33.7	-34.5	23.3	0.00e+00	0	42	0	3794796544	36	4274
2026-01-25 14:08:20.71	350.49	27.85	-33.8	-34.6	23.2	0.00e+00	0	42	0	3800039424	36	4308
2026-01-25 14:08:21.99	350.42	27.63	-33.8	-34.7	23.2	0.00e+00	0	41	0	3809476608	37	4106
2026-01-25 14:08:22.72	350.38	27.50	-33.8	-34.7	23.1	0.00e+00	0	42	0	3814719488	37	4104
2026-01-25 14:08:24.00	350.31	27.28	-33.9	-34.7	23.1	0.00e+00	0	41	0	3824156672	37	4145
2026-01-25 14:08:24.71	350.27	27.16	-33.9	-34.8	23.1	0.00e+00	0	41	0	3829399552	37	4152
2026-01-25 14:08:26.00	350.20	26.95	-34.1	-34.9	22.9	0.00e+00	0	41	0	3838836736	37	4242
2026-01-25 14:08:26.71	350.16	26.83	-33.9	-34.8	23.1	0.00e+00	0	41	0	3844079616	37	4162
2026-01-25 14:08:27.99	350.09	26.61	-34.0	-34.8	23.0	0.00e+00	0	42	0	3853516800	37	4184
2026-01-25 14:08:28.71	350.05	26.49	-33.9	-34.8	23.1	0.00e+00	0	42	0	3857711104	37	4168
2026-01-25 14:08:29.99	349.99	26.28	-33.8	-34.6	23.2	0.00e+00	0	42	0	3867148288	37	4081
2026-01-25 14:08:30.71	349.95	26.16	-33.8	-34.6	23.2	0.00e+00	0	41	0	3872391168	37	4080
2026-01-25 14:08:32.19	349.88	25.92	-33.7	-34.5	23.3	0.00e+00	0	42	0	3882876928	37	4037
2026-01-25 14:08:32.90	349.84	25.81	-33.7	-34.5	22.9	0.00e+00	0	41	0	3888119808	37	4039
2026-01-25 14:08:34.24	349.77	25.59	-33.6	-34.5	23.3	0.00e+00	0	42	0	3898605568	37	4006
2026-01-25 14:08:34.95	349.74	25.48	-33.6	-34.4	23.3	0.00e+00	0	42	0	3902799872	37	3995
2026-01-25 14:08:36.29	349.67	25.27	-33.6	-34.4	23.3	0.00e+00	0	42	0	3913285632	37	3994
2026-01-25 14:08:37.00	349.64	25.15	-33.6	-34.5	23.3	0.00e+00	0	41	0	3918528512	37	4012
2026-01-25 14:08:38.28	349.58	24.95	-33.8	-34.6	23.2	0.00e+00	0	41	0	3926917120	37	4073
2026-01-25 14:08:39.00	349.55	24.84	-33.8	-34.6	23.2	0.00e+00	0	42	0	3932160000	37	4073
2026-01-25 14:08:40.28	349.49	24.64	-33.8	-34.6	23.2	0.00e+00	0	42	0	3941597184	37	4081
2026-01-25 14:08:41.00	349.45	24.53	-33.8	-34.6	23.2	0.00e+00	0	41	0	3946840064	37	4085
2026-01-25 14:08:42.28	349.40	24.33	-33.9	-34.7	23.1	0.00e+00	0	41	0	3956277248	37	4128
2026-01-25 14:08:43.02	349.36	24.22	-33.8	-34.7	22.9	0.00e+00	0	41	0	3961520128	37	4123
2026-01-25 14:08:44.30	349.30	24.03	-33.9	-34.8	22.9	0.00e+00	0	41	0	3970957312	37	4188
2026-01-25 14:08:45.01	349.27	23.92	-34.0	-34.9	22.9	0.00e+00	0	41	0	3976200192	37	4219
2026-01-25 14:08:46.29	349.22	23.73	-34.0	-34.9	22.9	0.00e+00	0	41	0	3985637376	37	4214
2026-01-25 14:08:47.02	349.19	23.62	-34.1	-35.0	22.9	0.00e+00	0	41	0	3989831680	37	4248
2026-01-25 14:08:48.30	349.13	23.43	-34.1	-35.0	22.9	0.00e+00	0	42	0	3999268864	37	4245
2026-01-25 14:08:49.01	349.10	23.33	-34.1	-35.0	22.8	0.00e+00	0	42	0	4004511744	37	4273
2026-01-25 14:08:50.28	349.05	23.14	-34.1	-35.0	22.8	0.00e+00	0	42	0	4013948928	37	4272
2026-01-25 14:08:51.01	349.02	23.03	-34.1	-35.0	22.8	0.00e+00	0	41	0	4019191808	37	4252
2026-01-25 14:08:52.29	348.97	22.85	-34.2	-35.1	22.7	0.00e+00	0	41	0	4028628992	37	4298
2026-01-25 14:08:53.02	348.94	22.74	-34.3	-35.2	22.7	0.00e+00	0	42	0	4033871872	38	4115
2026-01-25 14:08:54.30	348.89	22.56	-34.2	-35.1	22.8	0.00e+00	0	42	0	4043309056	38	4052
2026-01-25 14:08:55.01	348.86	22.46	-34.2	-35.0	22.6	0.00e+00	0	42	0	4047503360	38	4036
2026-01-25 14:08:56.29	348.81	22.27	-34.1	-35.0	22.8	0.00e+00	0	41	0	4056940544	38	4032
2026-01-25 14:08:57.02	348.78	22.17	-34.2	-35.0	22.8	0.00e+00	0	42	0	4062183424	38	4035
2026-01-25 14:08:58.29	348.73	21.99	-34.2	-35.0	22.8	0.00e+00	0	41	0	4071620608	38	4039
2026-01-25 14:08:59.01	348.70	21.89	-34.2	-35.1	22.7	0.00e+00	0	41	0	4076863488	38	4055
2026-01-25 14:09:00.29	348.65	21.72	-34.2	-35.1	22.8	0.00e+00	0	42	0	4086300672	38	4055
2026-01-25 14:09:01.03	348.63	21.61	-34.1	-35.0	22.9	0.00e+00	0	42	0	4091543552	38	4027
2026-01-25 14:09:02.31	348.58	21.44	-34.1	-35.0	22.8	0.00e+00	0	42	0	4100980736	38	4033
2026-01-25 14:09:03.03	348.55	21.34	-34.1	-35.0	22.9	0.00e+00	0	41	0	4106223616	38	4011
2026-01-25 14:09:04.31	348.51	21.16	-34.1	-35.0	22.8	0.00e+00	0	41	0	4114612224	38	4023
2026-01-25 14:09:05.02	348.48	21.07	-34.1	-34.9	22.8	0.00e+00	0	41	0	4120903680	38	4003
2026-01-25 14:09:06.30	348.43	20.90	-34.1	-35.0	22.9	0.00e+00	0	41	0	4129292288	38	4022
2026-01-25 14:09:07.01	348.41	20.80	-34.1	-35.0	22.9	0.00e+00	0	42	0	4134535168	38	4021
2026-01-25 14:09:08.29	348.36	20.63	-34.2	-35.1	22.8	0.00e+00	0	41	0	4143972352	38	4053
2026-01-25 14:09:09.00	348.34	20.54	-34.2	-35.0	22.8	0.00e+00	0	41	0	4149215232	38	4043
2026-01-25 14:09:10.29	348.30	20.37	-34.2	-35.0	22.8	0.00e+00	0	41	0	4158652416	38	4046
2026-01-25 14:09:11.01	348.27	20.27	-34.2	-35.1	22.7	0.00e+00	0	42	0	4163895296	38	4067
2026-01-25 14:09:12.29	348.23	20.11	-34.2	-35.1	22.7	0.00e+00	0	42	0	4173332480	38	4080
2026-01-25 14:09:13.00	348.20	20.01	-34.2	-35.1	22.7	0.00e+00	0	41	0	4177526784	38	4074
2026-01-25 14:09:14.28	348.16	19.85	-34.3	-35.2	22.6	0.00e+00	0	41	0	4186963968	38	4120
2026-01-25 14:09:14.99	348.14	19.76	-34.3	-35.2	22.6	0.00e+00	0	41	0	4192206848	38	4120
2026-01-25 14:09:16.27	348.10	19.59	-34.3	-35.2	22.6	0.00e+00	0	41	0	4201644032	38	4124
2026-01-25 14:09:16.98	348.07	19.50	-34.3	-35.2	22.6	0.00e+00	0	42	0	4206886912	38	4133
2026-01-25 14:09:18.26	348.03	19.34	-34.4	-35.2	22.6	0.00e+00	0	41	0	4215275520	38	4145
2026-01-25 14:09:18.97	348.01	19.25	-34.4	-35.3	22.5	0.00e+00	0	41	0	4220518400	38	4163
2026-01-25 14:09:20.24	347.97	19.09	-34.5	-35.4	22.5	0.00e+00	0	42	0	4229955584	38	4199
2026-01-25 14:09:20.96	347.95	19.00	-34.5	-35.4	22.4	0.00e+00	0	41	0	4235198464	38	4226
2026-01-25 14:09:22.25	347.91	18.84	-34.6	-35.5	22.3	0.00e+00	0	42	0	4244635648	38	4274
2026-01-25 14:09:22.96	347.89	18.76	-34.6	-35.5	22.3	0.00e+00	0	41	0	4249878528	38	4251
2026-01-25 14:09:24.24	347.85	18.60	-34.6	-35.5	22.3	0.00e+00	0	41	0	4259315712	38	4269
2026-01-25 14:09:24.96	347.83	18.51	-34.7	-35.6	21.9	0.00e+00	0	41	0	4264558592	38	4301
2026-01-25 14:09:26.24	347.79	18.36	-34.7	-35.6	22.2	0.00e+00	0	42	0	4273995776	38	4305
2026-01-25 14:09:26.97	347.77	18.27	-34.8	-35.6	22.2	0.00e+00	0	42	0	4278190080	39	4096
2026-01-25 14:09:28.25	347.73	18.11	-34.7	-35.6	22.2	0.00e+00	0	41	0	4287627264	39	4079
2026-01-25 14:09:28.99	347.71	18.03	-34.8	-35.8	22.0	0.00e+00	0	41	0	4292870144	39	4156
2026-01-25 14:09:30.26	347.67	17.87	-34.7	-35.7	22.2	0.00e+00	0	42	0	4302307328	39	4108
2026-01-25 14:09:30.99	347.65	17.79	-34.8	-35.8	22.0	0.00e+00	0	42	0	4307550208	39	4163
2026-01-25 14:09:32.27	347.62	17.64	-34.9	-35.8	22.0	0.00e+00	0	41	0	4316987392	39	4193
2026-01-25 14:09:33.10	347.59	17.54	-34.8	-35.8	22.0	0.00e+00	0	41	0	4323278848	39	4173
2026-01-25 14:09:34.24	347.56	17.41	-34.8	-35.8	22.0	0.00e+00	0	42	0	4331667456	39	4158
2026-01-25 14:09:35.09	347.54	17.31	-34.9	-35.8	22.0	0.00e+00	0	42	0	4336910336	39	4181
2026-01-25 14:09:36.23	347.51	17.17	-34.9	-35.9	22.0	0.00e+00	0	42	0	4345298944	39	4203
2026-01-25 14:09:37.09	347.49	17.08	-34.9	-35.8	22.0	0.00e+00	0	42	0	4351590400	39	4191
2026-01-25 14:09:38.22	347.46	16.95	-35.0	-35.9	21.9	0.00e+00	0	41	0	4359979008	39	4231
2026-01-25 14:09:39.07	347.43	16.85	-35.0	-35.9	21.9	0.00e+00	0	42	0	4366270464	39	4219
2026-01-25 14:09:40.21	347.40	16.72	-35.1	-36.0	21.8	0.00e+00	0	41	0	4374659072	39	4255
2026-01-25 14:09:41.06	347.38	16.62	-35.2	-36.1	21.8	0.00e+00	0	42	0	4379901952	39	4306
2026-01-25 14:09:42.20	347.35	16.49	-35.2	-36.1	21.8	0.00e+00	0	41	0	4388290560	39	4311
2026-01-25 14:09:43.05	347.33	16.40	-35.3	-36.2	21.6	0.00e+00	0	41	0	4394582016	39	4359
2026-01-25 14:09:44.19	347.30	16.27	-35.2	-36.1	21.6	0.00e+00	0	42	0	4402970624	40	4082
2026-01-25 14:09:45.04	347.28	16.18	-35.1	-36.1	21.7	0.00e+00	0	42	0	4409262080	40	4061
2026-01-25 14:09:46.18	347.25	16.05	-35.1	-36.1	21.7	0.00e+00	0	42	0	4417650688	40	4056
2026-01-25 14:09:47.03	347.23	15.96	-35.1	-36.1	21.6	0.00e+00	0	42	0	4423942144	40	4069
2026-01-25 14:09:48.17	347.20	15.83	-35.2	-36.2	21.6	0.00e+00	0	42	0	4431282176	40	4103
2026-01-25 14:09:49.16	347.18	15.72	-35.2	-36.1	21.6	0.00e+00	0	42	0	4438622208	40	4098
2026-01-25 14:09:50.16	347.16	15.62	-35.2	-36.2	21.5	0.00e+00	0	42	0	4445962240	40	4140
2026-01-25 14:09:51.15	347.13	15.51	-35.3	-36.3	21.5	0.00e+00	0	41	0	4453302272	40	4149
2026-01-25 14:09:52.15	347.11	15.40	-35.3	-36.2	21.5	0.00e+00	0	42	0	4460642304	40	4143
2026-01-25 14:09:53.14	347.09	15.29	-35.4	-36.4	21.4	0.00e+00	0	41	0	4467982336	40	4203
2026-01-25 14:09:54.13	347.06	15.19	-35.4	-36.4	21.4	0.00e+00	0	41	0	4475322368	40	4202
2026-01-25 14:09:55.13	347.04	15.08	-35.5	-36.5	21.3	0.00e+00	0	41	0	4482662400	40	4266
2026-01-25 14:09:56.12	347.02	14.98	-35.6	-36.5	21.2	0.00e+00	0	42	0	4488953856	40	4288
2026-01-25 14:09:57.12	346.99	14.87	-35.6	-36.5	21.2	0.00e+00	0	41	0	4496293888	40	4291
2026-01-25 14:09:58.11	346.97	14.77	-35.5	-36.5	21.2	0.00e+00	0	41	0	4503633920	40	4277
2026-01-25 14:09:59.11	346.95	14.66	-35.6	-36.6	21.1	0.00e+00	0	42	0	4510973952	40	4338
2026-01-25 14:10:00.15	346.93	14.56	-35.6	-36.6	21.1	0.00e+00	0	41	0	4518313984	40	4338
2026-01-25 14:10:01.14	346.91	14.45	-35.7	-36.7	21.0	0.00e+00	0	42	0	4525654016	40	4375
2026-01-25 14:10:02.14	346.88	14.35	-35.7	-36.8	21.0	0.00e+00	0	42	0	4532994048	41	4146
2026-01-25 14:10:03.13	346.86	14.25	-35.7	-36.7	21.0	0.00e+00	0	42	0	4540334080	41	4124
2026-01-25 14:10:04.13	346.84	14.15	-35.8	-36.8	21.0	0.00e+00	0	42	0	4546625536	41	4160
2026-01-25 14:10:05.12	346.82	14.04	-35.9	-36.9	20.8	0.00e+00	0	42	0	4553965568	41	4237
2026-01-25 14:10:06.12	346.80	13.94	-35.8	-36.9	20.9	0.00e+00	0	41	0	4561305600	41	4204
2026-01-25 14:10:07.35	346.77	13.82	-35.8	-36.9	20.8	0.00e+00	0	42	0	4569694208	41	4214
2026-01-25 14:10:08.23	346.76	13.73	-35.9	-37.0	20.7	0.00e+00	0	41	0	4577034240	41	4258
2026-01-25 14:10:09.54	346.73	13.60	-35.9	-37.0	20.7	0.00e+00	0	41	0	4586471424	41	4276
2026-01-25 14:10:10.25	346.71	13.53	-35.9	-37.0	20.7	0.00e+00	0	41	0	4590665728	41	4268
2026-01-25 14:10:11.79	346.68	13.38	-35.9	-37.0	20.7	0.00e+00	0	41	0	4602200064	41	4281
2026-01-25 14:10:12.50	346.67	13.31	-36.0	-37.1	20.7	0.00e+00	0	42	0	4607442944	41	4294
2026-01-25 14:10:13.77	346.64	13.18	-36.0	-37.1	20.6	0.00e+00	0	42	0	4616880128	41	4317
2026-01-25 14:10:14.48	346.63	13.11	-36.0	-37.1	20.6	0.00e+00	0	42	0	4622123008	41	4328
2026-01-25 14:10:15.76	346.61	12.99	-36.1	-37.2	20.5	0.00e+00	0	41	0	4630511616	41	4353
2026-01-25 14:10:16.49	346.59	12.91	-36.0	-37.1	20.6	0.00e+00	0	41	0	4635754496	41	4339
2026-01-25 14:10:17.77	346.57	12.79	-36.1	-37.2	20.5	0.00e+00	0	42	0	4645191680	41	4358
2026-01-25 14:10:18.49	346.55	12.72	-36.2	-37.3	20.4	0.00e+00	0	41	0	4650434560	41	4412
2026-01-25 14:10:19.77	346.53	12.60	-36.1	-37.2	20.4	0.00e+00	0	42	0	4659871744	41	4375
2026-01-25 14:10:20.50	346.52	12.53	-36.2	-37.2	20.4	0.00e+00	0	42	0	4665114624	41	4386
2026-01-25 14:10:21.77	346.49	12.41	-36.3	-37.3	20.4	0.00e+00	0	41	0	4674551808	41	4428
2026-01-25 14:10:22.50	346.48	12.34	-36.3	-37.4	20.3	0.00e+00	0	41	0	4679794688	42	4211
2026-01-25 14:10:23.78	346.45	12.22	-36.4	-37.4	20.3	0.00e+00	0	41	0	4689231872	42	4220
2026-01-25 14:10:24.49	346.44	12.15	-36.4	-37.5	20.3	0.00e+00	0	42	0	4694474752	42	4256
2026-01-25 14:10:25.77	346.42	12.03	-36.4	-37.4	20.3	0.00e+00	0	42	0	4703911936	42	4222
