passes_logs/2026/01/25/T1/T1__20260125_073159_NOAA_21_JPSS-2_rec.log

#Pass ID: 20260125_073159_NOAA 21 (JPSS-2)
#Satellite: NOAA 21 (JPSS-2)
#Configuration: NOAA 21
#almurnet v.1.7.20251203
#Start time: 2026-01-25 07:32:00

#Version: 2.0.20230620
#Station: T1
#Location: 37.570604 lon 55.790049 lat
#TLE: 1 54234U 22150A   26024.45772595  .00000201  00000+0  11607-3 0  9996
#TLE: 2 54234  98.7508 325.2435 0000728 220.7365 139.3757 14.19538765166156

#Time	Az	El	Level	Level2	SNR	BER	BlckErr	Temp	State	Recorded	gain1	gain2
2026-01-25 07:32:00.96	82.19	5.09	-49.1	-62.2	3.8	1.49e+00	0	35	0	0	70	15655
2026-01-25 07:32:01.95	82.08	5.14	-49.1	-62.2	3.8	1.49e+00	0	35	104	0	70	15659
2026-01-25 07:32:02.95	81.96	5.19	-49.1	-62.2	3.8	1.49e+00	0	35	104	0	70	15661
2026-01-25 07:32:03.94	81.85	5.23	-49.1	-62.2	3.8	1.49e+00	0	35	104	0	70	15591
2026-01-25 07:32:04.93	81.73	5.28	-49.1	-62.1	3.8	1.49e+00	0	35	104	0	70	15563
2026-01-25 07:32:05.93	81.62	5.33	-49.1	-62.1	3.8	1.49e+00	0	35	104	0	70	15541
2026-01-25 07:32:06.92	81.50	5.37	-49.1	-62.2	3.8	1.49e+00	0	35	104	0	70	15587
2026-01-25 07:32:07.91	81.39	5.42	-49.1	-62.1	3.8	1.49e+00	0	36	104	0	70	15538
2026-01-25 07:32:08.91	81.27	5.47	-49.1	-62.1	3.8	1.49e+00	0	35	104	0	70	15528
2026-01-25 07:32:09.90	81.15	5.51	-49.1	-62.1	3.8	1.49e+00	0	35	104	0	70	15503
2026-01-25 07:32:10.89	81.04	5.56	-49.1	-62.1	3.8	1.49e+00	0	35	104	0	70	15488
2026-01-25 07:32:11.89	80.92	5.61	-49.1	-62.1	3.8	1.49e+00	0	36	104	0	70	15521
2026-01-25 07:32:12.88	80.80	5.65	-49.1	-62.1	3.8	1.49e+00	0	36	104	0	70	15528
2026-01-25 07:32:13.87	80.69	5.70	-49.1	-62.1	3.8	1.49e+00	0	36	104	0	70	15489
2026-01-25 07:32:14.87	80.57	5.75	-49.1	-62.1	3.8	1.49e+00	0	36	104	0	70	15493
2026-01-25 07:32:15.86	80.45	5.80	-49.1	-62.1	3.8	1.49e+00	0	36	104	0	70	15517
2026-01-25 07:32:16.85	80.33	5.84	-49.1	-62.1	3.8	1.49e+00	0	36	104	0	70	15528
2026-01-25 07:32:17.85	80.21	5.89	-49.1	-62.1	3.8	1.49e+00	0	36	104	0	70	15544
2026-01-25 07:32:18.84	80.09	5.94	-49.1	-62.2	3.8	1.49e+00	0	36	104	0	70	15612
2026-01-25 07:32:19.83	79.97	5.98	-49.1	-62.2	3.8	1.49e+00	0	36	104	0	70	15584
2026-01-25 07:32:20.83	79.85	6.03	-49.1	-62.1	3.8	1.49e+00	0	36	104	0	70	15534
2026-01-25 07:32:21.82	79.73	6.08	-49.1	-62.1	3.8	1.49e+00	0	36	104	0	70	15560
2026-01-25 07:32:22.81	79.61	6.12	-49.1	-62.2	3.8	1.49e+00	0	36	104	0	70	15609
2026-01-25 07:32:23.80	79.49	6.17	-49.1	-62.1	3.8	1.49e+00	0	36	104	0	70	15563
2026-01-25 07:32:24.80	79.36	6.21	-49.1	-62.1	3.8	1.49e+00	0	36	104	0	70	15559
2026-01-25 07:32:25.79	79.24	6.26	-49.1	-62.1	3.8	1.49e+00	0	36	104	0	70	15507
2026-01-25 07:32:26.78	79.12	6.31	-49.1	-62.1	3.8	1.49e+00	0	36	104	0	70	15540
2026-01-25 07:32:27.78	78.99	6.35	-49.1	-62.1	3.8	1.49e+00	0	36	104	0	70	15518
2026-01-25 07:32:28.77	78.87	6.40	-49.1	-62.1	3.8	1.49e+00	0	36	104	0	70	15499
2026-01-25 07:32:29.76	78.75	6.45	-49.1	-62.1	3.8	1.49e+00	0	36	104	0	70	15473
2026-01-25 07:32:30.76	78.62	6.49	-49.1	-62.1	3.8	1.49e+00	0	36	104	0	70	15496
2026-01-25 07:32:31.75	78.50	6.54	-49.1	-62.1	3.8	1.49e+00	0	36	104	0	70	15505
2026-01-25 07:32:32.75	78.37	6.59	-49.1	-62.1	3.8	1.49e+00	0	36	104	0	70	15502
2026-01-25 07:32:33.74	78.25	6.63	-49.1	-62.1	3.8	1.49e+00	0	36	104	0	70	15468
2026-01-25 07:32:34.73	78.12	6.68	-49.1	-62.1	3.8	1.49e+00	0	36	104	0	70	15433
2026-01-25 07:32:35.73	77.99	6.72	-49.1	-62.1	3.8	1.49e+00	0	36	104	0	70	15404
2026-01-25 07:32:36.72	77.87	6.77	-49.1	-62.0	3.8	1.49e+00	0	36	104	0	70	15322
2026-01-25 07:32:37.71	77.74	6.81	-49.1	-62.0	3.8	1.49e+00	0	36	104	0	70	15325
2026-01-25 07:32:38.71	77.61	6.86	-49.1	-62.0	3.8	1.49e+00	0	36	104	0	70	15264
2026-01-25 07:32:39.70	77.48	6.91	-49.1	-61.9	3.8	1.49e+00	0	37	104	0	70	15187
2026-01-25 07:32:40.69	77.35	6.95	-49.1	-61.9	3.8	1.49e+00	0	36	104	0	70	15193
2026-01-25 07:32:41.69	77.22	7.00	-49.1	-61.9	3.8	1.49e+00	0	37	104	0	70	15202
2026-01-25 07:32:42.68	77.09	7.04	-49.1	-61.9	3.8	1.49e+00	0	36	104	0	70	15210
2026-01-25 07:32:43.67	76.97	7.09	-49.1	-61.9	3.8	1.49e+00	0	36	104	0	70	15141
2026-01-25 07:32:44.67	76.83	7.13	-49.1	-62.0	3.8	1.49e+00	0	36	104	0	70	15262
2026-01-25 07:32:45.66	76.70	7.18	-49.1	-62.0	3.8	1.49e+00	0	36	104	0	70	15279
2026-01-25 07:32:46.65	76.57	7.23	-49.1	-61.9	3.8	1.49e+00	0	37	104	0	70	15225
2026-01-25 07:32:47.65	76.44	7.27	-49.1	-61.9	3.8	1.49e+00	0	36	104	0	70	15148
2026-01-25 07:32:48.64	76.31	7.32	-49.1	-61.9	3.8	1.49e+00	0	37	104	0	70	15074
2026-01-25 07:32:49.63	76.18	7.36	-49.0	-61.8	3.8	1.49e+00	0	37	104	0	70	14924
2026-01-25 07:32:50.63	76.04	7.41	-49.0	-61.7	3.8	1.49e+00	0	37	104	0	70	14841
2026-01-25 07:32:51.62	75.91	7.45	-49.0	-61.7	3.8	1.49e+00	0	37	104	0	70	14871
2026-01-25 07:32:52.62	75.78	7.50	-49.0	-61.8	3.8	1.49e+00	0	37	104	0	70	14900
2026-01-25 07:32:53.61	75.64	7.54	-49.1	-61.8	3.8	1.49e+00	0	37	104	0	70	15041
2026-01-25 07:32:54.60	75.51	7.59	-49.1	-61.9	3.8	1.49e+00	0	37	104	0	70	15225
2026-01-25 07:32:55.60	75.37	7.63	-49.1	-62.0	3.8	1.49e+00	0	37	104	0	70	15320
2026-01-25 07:32:56.59	75.24	7.68	-49.1	-62.1	3.8	1.49e+00	0	37	104	0	70	15410
2026-01-25 07:32:57.58	75.10	7.72	-49.1	-62.0	3.8	1.49e+00	0	37	104	0	70	15342
2026-01-25 07:32:58.58	74.97	7.77	-49.1	-61.9	3.8	1.49e+00	0	37	104	0	70	15093
2026-01-25 07:32:59.57	74.83	7.81	-49.0	-61.7	3.8	1.49e+00	0	37	104	0	70	14785
2026-01-25 07:33:00.57	74.69	7.85	-49.0	-61.4	3.8	1.49e+00	0	37	104	0	70	14297
2026-01-25 07:33:01.56	74.55	7.90	-49.0	-61.2	3.8	1.49e+00	0	37	104	0	70	13958
2026-01-25 07:33:02.55	74.42	7.94	-49.0	-61.1	3.8	1.49e+00	0	37	104	0	70	13862
2026-01-25 07:33:03.55	74.28	7.99	-49.0	-61.2	3.8	1.49e+00	0	37	104	0	70	14030
2026-01-25 07:33:04.54	74.14	8.03	-49.0	-61.5	3.8	1.49e+00	0	37	104	0	70	14504
2026-01-25 07:33:05.53	74.00	8.07	-49.1	-61.8	3.8	1.49e+00	0	37	104	0	70	15015
2026-01-25 07:33:06.53	73.86	8.12	-49.1	-62.0	3.8	1.49e+00	0	37	104	0	70	15275
2026-01-25 07:33:07.52	73.72	8.16	-49.1	-62.0	3.8	1.49e+00	0	37	104	0	70	15296
2026-01-25 07:33:08.51	73.58	8.21	-49.1	-61.9	3.8	1.49e+00	0	37	104	0	70	15066
2026-01-25 07:33:09.51	73.44	8.25	-49.0	-61.4	3.8	1.49e+00	0	37	104	0	70	14363
2026-01-25 07:33:10.50	73.30	8.29	-48.9	-60.5	3.8	1.49e+00	0	37	104	0	69	13712
2026-01-25 07:33:11.49	73.16	8.34	-48.8	-59.3	4.0	1.48e+00	0	37	104	0	69	11832
2026-01-25 07:33:12.49	73.01	8.38	-48.7	-59.0	4.1	1.47e+00	0	37	104	0	69	11453
2026-01-25 07:33:13.48	72.87	8.42	-48.9	-60.0	3.9	1.48e+00	0	37	104	0	69	12828
2026-01-25 07:33:14.47	72.73	8.47	-49.0	-61.9	3.8	1.49e+00	0	37	104	0	69	15993
2026-01-25 07:33:15.47	72.59	8.51	-48.9	-60.6	3.8	1.49e+00	0	37	104	0	69	13792
2026-01-25 07:33:16.46	72.44	8.55	-48.0	-55.1	5.9	5.92e-01	0	37	0	0	68	7789
2026-01-25 07:33:17.45	72.30	8.60	-46.3	-50.7	9.9	4.32e-02	0	37	0	0	64	5921
2026-01-25 07:33:18.45	72.15	8.64	-44.7	-47.9	12.9	2.96e-04	0	37	0	0	61	5067
2026-01-25 07:33:19.44	72.01	8.68	-43.4	-46.0	14.8	7.00e-07	0	37	0	0	58	4832
2026-01-25 07:33:20.44	71.86	8.72	-42.6	-44.9	15.9	0.00e+00	0	37	0	0	57	4516
2026-01-25 07:33:21.43	71.72	8.77	-42.3	-44.5	16.2	0.00e+00	0	37	0	0	56	4586
2026-01-25 07:33:22.42	71.57	8.81	-42.5	-44.8	15.9	0.00e+00	0	37	0	0	56	4756
2026-01-25 07:33:23.41	71.42	8.85	-43.3	-45.8	15.0	0.00e+00	0	37	0	0	57	5004
2026-01-25 07:33:24.41	71.28	8.89	-44.4	-47.3	13.5	6.10e-06	0	37	0	0	59	5298
2026-01-25 07:33:25.40	71.13	8.94	-45.7	-49.4	11.4	5.43e-04	0	37	0	0	61	6040
2026-01-25 07:33:26.39	70.98	8.98	-46.9	-52.0	8.6	2.66e-02	0	37	0	0	64	6858
2026-01-25 07:33:27.38	70.83	9.02	-47.4	-53.4	7.2	2.07e-01	0	37	0	0	66	7167
2026-01-25 07:33:28.51	70.66	9.07	-45.7	-49.4	11.5	4.14e-03	0	37	0	0	63	5342
2026-01-25 07:33:29.36	70.53	9.10	-46.2	-50.3	10.5	1.51e-04	0	37	0	0	62	6329
2026-01-25 07:33:30.50	70.36	9.15	-48.1	-55.2	5.7	1.49e+00	0	37	104	0	68	7828
2026-01-25 07:33:31.35	70.23	9.19	-43.8	-46.5	14.4	1.50e-06	0	37	0	0	59	4843
2026-01-25 07:33:32.49	70.06	9.23	-45.9	-49.8	10.8	2.01e-01	0	37	0	0	63	5617
2026-01-25 07:33:33.34	69.93	9.27	-43.9	-46.5	14.3	3.00e-06	0	37	0	0	59	4869
2026-01-25 07:33:34.48	69.76	9.32	-43.5	-46.0	14.9	7.00e-07	0	37	0	0	59	4578
2026-01-25 07:33:35.33	69.63	9.35	-42.8	-45.2	15.7	0.00e+00	0	37	0	0	57	4670
2026-01-25 07:33:36.47	69.45	9.40	-42.1	-44.3	16.5	0.00e+00	0	37	0	0	56	4481
2026-01-25 07:33:37.32	69.32	9.43	-41.7	-43.8	16.7	0.00e+00	0	37	0	0	55	4469
2026-01-25 07:33:38.46	69.15	9.48	-41.8	-44.0	16.7	0.00e+00	0	37	0	0	55	4570
2026-01-25 07:33:39.31	69.01	9.51	-41.5	-43.6	17.0	0.00e+00	0	37	0	0	55	4388
2026-01-25 07:33:40.45	68.84	9.56	-41.1	-43.1	17.6	0.00e+00	0	37	0	0	54	4345
2026-01-25 07:33:41.30	68.70	9.59	-40.9	-42.9	17.8	0.00e+00	0	37	0	0	53	4515
2026-01-25 07:33:42.47	68.52	9.64	-40.8	-42.8	17.9	0.00e+00	0	37	0	0	53	4447
2026-01-25 07:33:43.32	68.39	9.68	-40.8	-42.7	17.9	0.00e+00	0	37	0	0	53	4423
2026-01-25 07:33:44.46	68.21	9.72	-40.9	-42.8	17.8	0.00e+00	0	37	0	0	53	4482
2026-01-25 07:33:45.31	68.08	9.75	-40.9	-42.9	17.7	0.00e+00	0	37	0	0	53	4503
2026-01-25 07:33:46.45	67.90	9.80	-41.0	-43.0	17.6	0.00e+00	0	37	0	0	53	4549
2026-01-25 07:33:47.30	67.76	9.83	-41.0	-43.0	17.6	0.00e+00	0	37	0	0	53	4571
2026-01-25 07:33:48.44	67.58	9.88	-41.0	-43.0	17.6	0.00e+00	0	37	0	0	53	4592
2026-01-25 07:33:49.30	67.44	9.91	-40.9	-43.0	17.7	0.00e+00	0	37	0	0	53	4552
2026-01-25 07:33:50.43	67.26	9.96	-41.0	-43.0	17.7	0.00e+00	0	37	0	0	53	4577
2026-01-25 07:33:51.29	67.13	9.99	-41.0	-43.0	17.7	0.00e+00	0	37	0	0	53	4578
2026-01-25 07:33:52.43	66.94	10.03	-40.9	-42.9	17.8	0.00e+00	0	37	0	0	53	4525
2026-01-25 07:33:53.28	66.81	10.07	-40.9	-42.8	17.9	0.00e+00	0	37	0	0	53	4492
2026-01-25 07:33:54.42	66.62	10.11	-40.9	-42.8	17.9	0.00e+00	0	37	0	0	53	4473
2026-01-25 07:33:55.27	66.49	10.14	-40.9	-42.9	17.8	0.00e+00	0	37	0	0	53	4509
2026-01-25 07:33:56.41	66.30	10.19	-40.7	-42.7	18.0	0.00e+00	0	37	0	0	53	4404
2026-01-25 07:33:57.26	66.16	10.22	-40.7	-42.7	18.0	0.00e+00	0	37	0	0	53	4401
2026-01-25 07:33:58.40	65.98	10.26	-40.6	-42.6	18.1	0.00e+00	0	37	0	0	53	4342
2026-01-25 07:33:59.25	65.84	10.29	-40.6	-42.6	18.1	0.00e+00	0	37	0	0	53	4341
2026-01-25 07:34:00.39	65.65	10.34	-40.6	-42.5	18.2	0.00e+00	0	37	0	0	53	4312
2026-01-25 07:34:01.24	65.51	10.37	-40.5	-42.4	18.3	0.00e+00	0	37	0	0	53	4275
2026-01-25 07:34:02.38	65.32	10.41	-40.5	-42.4	18.2	0.00e+00	0	37	0	0	53	4279
2026-01-25 07:34:03.23	65.18	10.44	-40.5	-42.5	18.2	0.00e+00	0	37	0	0	53	4303
2026-01-25 07:34:04.59	64.96	10.49	-40.5	-42.5	18.2	0.00e+00	0	37	0	0	53	4302
2026-01-25 07:34:05.30	64.84	10.52	-40.6	-42.5	18.2	0.00e+00	0	37	0	0	53	4316
2026-01-25 07:34:06.58	64.63	10.57	-40.6	-42.5	18.2	0.00e+00	0	37	0	0	53	4317
2026-01-25 07:34:07.30	64.51	10.59	-40.4	-42.3	18.4	0.00e+00	0	37	0	0	52	4468
2026-01-25 07:34:08.58	64.29	10.64	-40.5	-42.4	18.3	0.00e+00	0	38	0	0	52	4514
2026-01-25 07:34:09.39	64.16	10.67	-40.4	-42.3	18.4	0.00e+00	0	37	0	0	52	4455
2026-01-25 07:34:10.52	63.97	10.71	-40.4	-42.3	18.4	0.00e+00	0	37	0	0	52	4462
2026-01-25 07:34:11.37	63.82	10.74	-40.4	-42.3	18.4	0.00e+00	0	37	0	0	52	4447
2026-01-25 07:34:12.51	63.63	10.78	-40.5	-42.4	18.3	0.00e+00	0	37	0	0	52	4500
2026-01-25 07:34:13.36	63.49	10.81	-40.6	-42.5	18.2	0.00e+00	0	37	0	0	52	4569
2026-01-25 07:34:14.52	63.29	10.85	-40.7	-42.7	18.0	0.00e+00	0	37	0	0	52	4659
2026-01-25 07:34:15.37	63.15	10.88	-40.8	-42.8	17.9	0.00e+00	0	37	0	0	52	4713
2026-01-25 07:34:16.51	62.95	10.92	-40.8	-42.8	17.9	0.00e+00	0	37	0	0	52	4730
2026-01-25 07:34:17.41	62.80	10.95	-40.9	-42.9	17.9	0.00e+00	0	37	0	0	52	4767
2026-01-25 07:34:18.53	62.61	10.99	-40.9	-42.9	17.9	0.00e+00	0	37	0	0	52	4770
2026-01-25 07:34:19.38	62.46	11.02	-40.8	-42.7	18.0	0.00e+00	0	37	0	0	52	4682
2026-01-25 07:34:20.52	62.26	11.05	-40.7	-42.7	18.0	0.00e+00	0	37	0	0	52	4666
2026-01-25 07:34:21.37	62.12	11.08	-40.8	-42.8	17.9	0.00e+00	0	37	0	0	52	4735
2026-01-25 07:34:22.51	61.92	11.12	-40.9	-42.9	17.8	0.00e+00	0	38	0	0	52	4785
2026-01-25 07:34:23.36	61.77	11.15	-40.9	-42.9	17.8	0.00e+00	0	37	0	0	52	4774
2026-01-25 07:34:24.50	61.57	11.19	-40.9	-42.9	17.9	0.00e+00	0	37	0	0	52	4771
2026-01-25 07:34:25.35	61.43	11.21	-40.8	-42.8	18.0	0.00e+00	0	37	0	0	52	4716
2026-01-25 07:34:26.49	61.23	11.25	-40.8	-42.8	17.9	0.00e+00	0	37	0	0	52	4712
2026-01-25 07:34:27.34	61.08	11.28	-40.9	-42.8	17.9	0.00e+00	0	37	0	0	52	4748
2026-01-25 07:34:28.48	60.88	11.32	-40.8	-42.8	18.0	0.00e+00	0	37	0	0	52	4725
2026-01-25 07:34:29.34	60.73	11.34	-40.7	-42.6	18.1	0.00e+00	0	37	0	0	52	4631
2026-01-25 07:34:30.47	60.53	11.38	-40.7	-42.6	18.1	0.00e+00	0	37	0	0	52	4635
2026-01-25 07:34:31.33	60.38	11.41	-40.6	-42.5	18.2	0.00e+00	0	37	0	0	52	4588
2026-01-25 07:34:32.47	60.18	11.44	-40.6	-42.5	18.2	0.00e+00	0	37	0	0	52	4559
2026-01-25 07:34:33.32	60.03	11.47	-40.6	-42.5	18.2	0.00e+00	0	37	0	0	52	4551
2026-01-25 07:34:34.46	59.82	11.50	-40.5	-42.4	18.3	0.00e+00	0	37	0	0	52	4516
2026-01-25 07:34:35.31	59.67	11.53	-40.6	-42.5	18.2	0.00e+00	0	37	0	0	52	4556
2026-01-25 07:34:36.45	59.47	11.56	-40.6	-42.6	18.1	0.00e+00	0	37	0	0	52	4599
2026-01-25 07:34:37.30	59.32	11.59	-40.7	-42.6	18.1	0.00e+00	0	37	0	0	52	4636
2026-01-25 07:34:38.44	59.11	11.62	-40.8	-42.8	18.0	0.00e+00	0	38	0	0	52	4710
2026-01-25 07:34:39.29	58.96	11.65	-40.8	-42.7	18.0	0.00e+00	0	38	0	0	52	4701
2026-01-25 07:34:40.42	58.76	11.68	-40.8	-42.7	18.0	0.00e+00	0	37	0	0	52	4689
2026-01-25 07:34:41.27	58.60	11.71	-40.8	-42.8	17.9	0.00e+00	0	37	0	0	52	4721
2026-01-25 07:34:42.41	58.40	11.74	-40.7	-42.6	18.1	0.00e+00	0	37	0	0	52	4608
2026-01-25 07:34:43.26	58.24	11.76	-40.7	-42.6	18.1	0.00e+00	0	38	0	0	52	4631
2026-01-25 07:34:44.51	58.02	11.80	-40.8	-42.7	18.0	0.00e+00	0	37	0	0	52	4679
2026-01-25 07:34:45.36	57.86	11.82	-40.8	-42.7	17.9	0.00e+00	0	37	0	0	52	4697
2026-01-25 07:34:46.50	57.66	11.86	-40.9	-42.9	17.8	0.00e+00	0	37	0	0	52	4773
2026-01-25 07:34:47.35	57.50	11.88	-41.0	-42.9	17.8	0.00e+00	0	37	0	0	52	4813
2026-01-25 07:34:48.61	57.27	11.91	-41.0	-42.9	17.8	0.00e+00	0	37	0	0	52	4804
2026-01-25 07:34:49.42	57.12	11.94	-41.0	-43.0	17.7	0.00e+00	0	38	0	0	52	4850
2026-01-25 07:34:50.55	56.92	11.97	-41.1	-43.1	17.6	0.00e+00	0	37	0	0	52	4921
2026-01-25 07:34:51.41	56.76	11.99	-40.9	-42.9	17.8	0.00e+00	0	37	0	0	52	4795
2026-01-25 07:34:52.54	56.55	12.02	-40.9	-42.8	17.9	0.00e+00	0	37	0	0	52	4758
2026-01-25 07:34:53.40	56.39	12.04	-40.9	-42.9	17.9	0.00e+00	0	38	0	0	52	4773
2026-01-25 07:34:54.53	56.18	12.07	-40.9	-42.9	17.8	0.00e+00	0	37	0	0	52	4797
2026-01-25 07:34:55.39	56.02	12.09	-40.9	-42.9	17.8	0.00e+00	0	37	0	0	52	4793
2026-01-25 07:34:56.53	55.81	12.12	-40.9	-42.9	17.8	0.00e+00	0	38	0	0	52	4796
2026-01-25 07:34:57.38	55.66	12.14	-41.0	-42.9	17.8	0.00e+00	0	38	0	0	52	4807
2026-01-25 07:34:58.52	55.44	12.17	-41.0	-43.0	17.9	0.00e+00	0	37	0	0	52	4818
2026-01-25 07:34:59.37	55.29	12.19	-40.8	-42.8	18.0	0.00e+00	0	37	0	0	52	4724
2026-01-25 07:35:00.51	55.07	12.22	-40.8	-42.7	18.0	0.00e+00	0	37	0	0	52	4705
2026-01-25 07:35:01.36	54.91	12.24	-40.7	-42.6	18.2	0.00e+00	0	37	0	0	52	4629
2026-01-25 07:35:02.50	54.70	12.27	-40.6	-42.6	18.2	0.00e+00	0	37	0	0	52	4599
2026-01-25 07:35:03.35	54.54	12.29	-40.7	-42.6	18.2	0.00e+00	0	38	0	0	52	4615
2026-01-25 07:35:04.49	54.33	12.31	-40.7	-42.6	18.1	0.00e+00	0	37	0	0	52	4646
2026-01-25 07:35:05.34	54.17	12.33	-40.7	-42.6	18.1	0.00e+00	0	38	0	0	52	4633
2026-01-25 07:35:06.48	53.95	12.36	-40.7	-42.7	18.0	0.00e+00	0	37	0	0	52	4660
2026-01-25 07:35:07.33	53.79	12.38	-40.7	-42.6	18.1	0.00e+00	0	38	0	0	52	4634
2026-01-25 07:35:08.47	53.58	12.40	-40.7	-42.7	18.1	0.00e+00	0	37	0	0	52	4669
2026-01-25 07:35:09.31	53.42	12.42	-40.8	-42.7	18.0	0.00e+00	0	37	0	0	52	4705
2026-01-25 07:35:10.45	53.20	12.44	-40.8	-42.7	18.0	0.00e+00	0	38	0	0	52	4697
2026-01-25 07:35:11.30	53.04	12.46	-40.8	-42.7	18.1	0.00e+00	0	38	0	0	52	4676
2026-01-25 07:35:12.44	52.82	12.49	-40.7	-42.7	18.1	0.00e+00	0	38	0	0	52	4662
2026-01-25 07:35:13.29	52.66	12.50	-40.8	-42.8	18.1	0.00e+00	0	38	0	0	52	4706
2026-01-25 07:35:14.43	52.45	12.53	-40.7	-42.6	18.2	0.00e+00	0	38	0	0	52	4625
2026-01-25 07:35:15.28	52.28	12.54	-40.7	-42.7	18.1	0.00e+00	0	38	0	0	52	4665
2026-01-25 07:35:16.42	52.07	12.57	-40.7	-42.6	18.2	0.00e+00	0	38	0	0	52	4610
2026-01-25 07:35:17.27	51.90	12.58	-40.6	-42.5	18.2	0.00e+00	0	37	0	0	52	4593
2026-01-25 07:35:18.41	51.69	12.60	-40.8	-42.7	18.1	0.00e+00	0	38	0	0	52	4668
2026-01-25 07:35:19.26	51.52	12.62	-40.7	-42.7	18.1	0.00e+00	0	37	0	0	52	4667
2026-01-25 07:35:20.40	51.30	12.64	-40.7	-42.6	18.2	0.00e+00	0	38	0	0	52	4650
2026-01-25 07:35:21.25	51.14	12.66	-40.7	-42.6	18.2	0.00e+00	0	38	0	0	52	4614
2026-01-25 07:35:22.39	50.92	12.68	-40.6	-42.5	18.3	0.00e+00	0	37	0	0	52	4582
2026-01-25 07:35:23.24	50.76	12.69	-40.5	-42.4	18.4	0.00e+00	0	38	0	0	52	4498
2026-01-25 07:35:24.38	50.54	12.71	-40.4	-42.3	18.4	0.00e+00	0	38	0	0	52	4479
2026-01-25 07:35:25.24	50.37	12.73	-40.5	-42.4	18.4	0.00e+00	0	37	0	0	52	4501
2026-01-25 07:35:26.37	50.15	12.75	-40.6	-42.5	18.3	0.00e+00	0	38	0	0	52	4574
2026-01-25 07:35:27.23	49.99	12.76	-40.5	-42.4	18.4	0.00e+00	0	38	0	0	52	4498
2026-01-25 07:35:28.36	49.77	12.78	-40.4	-42.3	18.5	0.00e+00	0	38	0	0	52	4475
2026-01-25 07:35:29.22	49.60	12.79	-40.5	-42.4	18.4	0.00e+00	0	38	0	0	52	4503
2026-01-25 07:35:30.36	49.38	12.81	-40.5	-42.4	18.3	0.00e+00	0	38	0	0	52	4545
2026-01-25 07:35:31.21	49.21	12.82	-40.5	-42.4	18.3	0.00e+00	0	38	0	0	52	4526
2026-01-25 07:35:32.35	48.99	12.84	-40.5	-42.4	18.3	0.00e+00	0	37	0	0	52	4518
2026-01-25 07:35:33.20	48.83	12.85	-40.5	-42.4	18.4	0.00e+00	0	38	0	0	52	4508
2026-01-25 07:35:34.34	48.60	12.87	-40.4	-42.3	18.5	0.00e+00	0	37	0	0	52	4443
2026-01-25 07:35:35.19	48.44	12.88	-40.3	-42.2	18.6	0.00e+00	0	37	0	0	52	4411
2026-01-25 07:35:36.33	48.22	12.90	-40.4	-42.3	18.5	0.00e+00	0	38	0	0	52	4465
2026-01-25 07:35:37.18	48.05	12.91	-40.5	-42.4	18.3	0.00e+00	0	37	0	0	52	4534
2026-01-25 07:35:38.32	47.83	12.92	-40.4	-42.3	18.5	0.00e+00	0	38	0	0	52	4446
2026-01-25 07:35:39.17	47.66	12.93	-40.2	-42.1	18.7	0.00e+00	0	37	0	0	52	4369
2026-01-25 07:35:40.31	47.44	12.95	-40.3	-42.2	18.6	0.00e+00	0	38	0	0	52	4409
2026-01-25 07:35:41.29	47.24	12.96	-40.3	-42.2	18.6	0.00e+00	0	38	0	0	52	4414
2026-01-25 07:35:42.46	47.01	12.97	-40.3	-42.2	18.5	0.00e+00	0	38	0	0	52	4426
2026-01-25 07:35:43.31	46.85	12.98	-40.4	-42.2	18.5	0.00e+00	0	37	0	0	52	4440
2026-01-25 07:35:44.45	46.62	12.99	-40.5	-42.4	18.4	0.00e+00	0	37	0	0	52	4521
2026-01-25 07:35:45.30	46.46	13.00	-40.6	-42.5	18.3	0.00e+00	0	38	0	0	52	4558
2026-01-25 07:35:46.44	46.23	13.01	-40.5	-42.4	18.4	0.00e+00	0	37	0	0	52	4496
2026-01-25 07:35:47.29	46.06	13.02	-40.6	-42.5	18.3	0.00e+00	0	37	0	0	52	4575
2026-01-25 07:35:48.43	45.84	13.03	-40.6	-42.5	18.3	0.00e+00	0	37	0	0	52	4597
2026-01-25 07:35:49.28	45.67	13.04	-40.5	-42.4	18.3	0.00e+00	0	37	0	0	52	4522
2026-01-25 07:35:50.42	45.45	13.05	-40.5	-42.4	18.3	0.00e+00	0	38	0	0	52	4538
2026-01-25 07:35:51.27	45.28	13.06	-40.4	-42.3	18.5	0.00e+00	0	37	0	0	52	4447
2026-01-25 07:35:52.41	45.05	13.07	-40.3	-42.2	18.5	0.00e+00	0	38	0	0	52	4398
2026-01-25 07:35:53.27	44.88	13.08	-40.2	-42.1	18.6	0.00e+00	0	38	0	0	52	4348
2026-01-25 07:35:54.41	44.66	13.08	-40.3	-42.2	18.6	0.00e+00	0	38	0	0	52	4392
2026-01-25 07:35:55.26	44.49	13.09	-40.2	-42.0	18.7	0.00e+00	0	38	0	0	52	4311
2026-01-25 07:35:56.39	44.27	13.10	-40.2	-42.1	18.7	0.00e+00	0	37	0	0	52	4343
2026-01-25 07:35:57.25	44.09	13.10	-40.2	-42.1	18.6	0.00e+00	0	38	0	0	52	4342
2026-01-25 07:35:58.65	43.82	13.11	-40.2	-42.1	18.6	0.00e+00	0	38	0	0	52	4361
2026-01-25 07:35:59.36	43.68	13.12	-40.3	-42.2	18.5	0.00e+00	0	37	0	0	52	4405
2026-01-25 07:36:00.64	43.42	13.12	-40.4	-42.3	18.5	0.00e+00	0	38	0	0	52	4472
2026-01-25 07:36:01.36	43.28	13.13	-40.4	-42.3	18.5	0.00e+00	0	38	0	0	52	4457
2026-01-25 07:36:02.64	43.03	13.13	-40.5	-42.4	18.4	0.00e+00	0	38	0	0	52	4496
2026-01-25 07:36:03.35	42.88	13.14	-40.5	-42.4	18.4	0.00e+00	0	37	0	0	52	4504
2026-01-25 07:36:04.63	42.63	13.14	-40.5	-42.4	18.3	0.00e+00	0	37	0	0	52	4521
2026-01-25 07:36:05.46	42.47	13.15	-40.4	-42.3	18.4	0.00e+00	0	38	0	0	52	4457
2026-01-25 07:36:06.60	42.24	13.15	-40.4	-42.3	18.4	0.00e+00	0	38	0	0	52	4475
2026-01-25 07:36:07.69	42.02	13.15	-40.4	-42.3	18.5	0.00e+00	0	38	0	0	52	4452
2026-01-25 07:36:08.72	41.82	13.16	-40.3	-42.1	18.6	0.00e+00	0	38	0	0	52	4379
2026-01-25 07:36:09.71	41.62	13.16	-40.3	-42.2	18.6	0.00e+00	0	38	0	0	52	4420
2026-01-25 07:36:10.93	41.38	13.16	-40.4	-42.2	18.5	0.00e+00	0	38	0	0	52	4436
2026-01-25 07:36:11.81	41.20	13.16	-40.4	-42.3	18.5	0.00e+00	0	37	0	0	52	4457
2026-01-25 07:36:12.95	40.98	13.17	-40.5	-42.4	18.3	0.00e+00	0	38	0	0	52	4518
2026-01-25 07:36:13.80	40.81	13.17	-40.5	-42.4	18.3	0.00e+00	0	38	0	0	52	4520
2026-01-25 07:36:14.94	40.58	13.17	-40.4	-42.3	18.4	0.00e+00	0	38	0	0	52	4478
2026-01-25 07:36:15.79	40.41	13.17	-40.4	-42.3	18.5	0.00e+00	0	38	0	0	52	4472
2026-01-25 07:36:16.93	40.18	13.17	-40.5	-42.4	18.3	0.00e+00	0	37	0	0	52	4515
2026-01-25 07:36:17.78	40.01	13.17	-40.5	-42.4	18.4	0.00e+00	0	38	0	0	52	4511
2026-01-25 07:36:18.92	39.79	13.17	-40.5	-42.4	18.3	0.00e+00	0	37	0	0	52	4520
2026-01-25 07:36:19.77	39.62	13.17	-40.5	-42.4	18.3	0.00e+00	0	38	0	0	52	4532
2026-01-25 07:36:20.91	39.39	13.16	-40.6	-42.5	18.3	0.00e+00	0	38	0	0	52	4556
2026-01-25 07:36:21.77	39.22	13.16	-40.5	-42.4	18.4	0.00e+00	0	38	0	0	52	4511
2026-01-25 07:36:22.90	39.00	13.16	-40.5	-42.4	18.3	0.00e+00	0	38	0	0	52	4518
2026-01-25 07:36:23.76	38.83	13.16	-40.5	-42.4	18.3	0.00e+00	0	38	0	0	52	4525
2026-01-25 07:36:24.89	38.60	13.16	-40.3	-42.2	18.5	0.00e+00	0	37	0	0	52	4411
2026-01-25 07:36:25.75	38.43	13.15	-40.2	-42.0	18.7	0.00e+00	0	37	0	0	52	4325
2026-01-25 07:36:27.10	38.16	13.15	-40.2	-42.1	18.6	0.00e+00	0	38	0	0	52	4363
2026-01-25 07:36:27.81	38.02	13.15	-40.1	-42.0	18.7	0.00e+00	0	38	0	0	52	4302
2026-01-25 07:36:29.27	37.73	13.14	-40.2	-42.0	18.7	0.00e+00	0	38	0	0	52	4338
2026-01-25 07:36:29.98	37.59	13.14	-40.2	-42.1	18.7	0.00e+00	0	38	0	0	52	4341
2026-01-25 07:36:31.26	37.34	13.13	-40.3	-42.2	18.6	0.00e+00	0	37	0	0	52	4408
2026-01-25 07:36:31.97	37.19	13.13	-40.3	-42.2	18.6	0.00e+00	0	37	0	0	52	4419
2026-01-25 07:36:33.26	36.94	13.12	-40.2	-42.0	18.7	0.00e+00	0	38	0	0	52	4335
2026-01-25 07:36:33.97	36.80	13.12	-40.1	-42.0	18.7	0.00e+00	0	38	0	0	52	4302
2026-01-25 07:36:35.25	36.54	13.11	-40.2	-42.0	18.7	0.00e+00	0	38	0	0	52	4338
2026-01-25 07:36:35.96	36.40	13.10	-40.1	-42.0	18.7	0.00e+00	0	38	0	0	52	4306
2026-01-25 07:36:37.24	36.15	13.09	-40.2	-42.1	18.6	0.00e+00	0	38	0	0	52	4373
2026-01-25 07:36:37.96	36.01	13.09	-40.2	-42.2	18.6	0.00e+00	0	38	0	0	52	4397
2026-01-25 07:36:39.24	35.75	13.08	-40.3	-42.2	18.5	0.00e+00	0	38	0	0	52	4429
2026-01-25 07:36:39.95	35.61	13.07	-40.3	-42.3	18.5	0.00e+00	0	38	0	0	52	4454
2026-01-25 07:36:41.23	35.36	13.06	-40.3	-42.3	18.5	0.00e+00	0	38	0	0	52	4443
2026-01-25 07:36:41.95	35.22	13.06	-40.5	-42.4	18.3	0.00e+00	0	37	0	0	52	4527
2026-01-25 07:36:43.23	34.97	13.05	-40.5	-42.4	18.3	0.00e+00	0	38	0	0	52	4545
2026-01-25 07:36:43.96	34.82	13.04	-40.5	-42.3	18.4	0.00e+00	0	38	0	0	52	4493
2026-01-25 07:36:45.24	34.57	13.03	-40.3	-42.2	18.6	0.00e+00	0	38	0	0	52	4407
2026-01-25 07:36:45.95	34.43	13.02	-40.3	-42.2	18.6	0.00e+00	0	38	0	0	52	4395
2026-01-25 07:36:47.23	34.18	13.01	-40.4	-42.3	18.5	0.00e+00	0	38	0	0	52	4451
2026-01-25 07:36:47.94	34.04	13.00	-40.4	-42.2	18.5	0.00e+00	0	38	0	0	52	4430
2026-01-25 07:36:49.22	33.79	12.99	-40.4	-42.3	18.5	0.00e+00	0	38	0	0	52	4447
2026-01-25 07:36:49.94	33.65	12.98	-40.4	-42.3	18.4	0.00e+00	0	38	0	0	52	4482
2026-01-25 07:36:51.22	33.39	12.96	-40.5	-42.4	18.4	0.00e+00	0	38	0	0	52	4536
2026-01-25 07:36:51.93	33.26	12.96	-40.6	-42.5	18.3	0.00e+00	0	38	0	0	52	4568
2026-01-25 07:36:53.21	33.00	12.94	-40.6	-42.5	18.3	0.00e+00	0	38	0	0	52	4572
2026-01-25 07:36:53.92	32.87	12.93	-40.5	-42.4	18.3	0.00e+00	0	38	0	0	52	4534
2026-01-25 07:36:55.20	32.62	12.92	-40.4	-42.3	18.5	0.00e+00	0	38	0	0	52	4462
2026-01-25 07:36:55.92	32.47	12.91	-40.4	-42.3	18.5	0.00e+00	0	38	0	0	52	4452
2026-01-25 07:36:57.20	32.22	12.89	-40.4	-42.4	18.4	0.00e+00	0	38	0	0	52	4506
2026-01-25 07:36:58.06	32.06	12.88	-40.4	-42.4	18.4	0.00e+00	0	38	0	0	52	4509
2026-01-25 07:36:59.49	31.78	12.86	-40.4	-42.4	18.4	0.00e+00	0	38	0	0	52	4499
2026-01-25 07:37:00.20	31.64	12.85	-40.5	-42.4	18.4	0.00e+00	0	38	0	0	52	4511
2026-01-25 07:37:01.48	31.39	12.83	-40.6	-42.5	18.3	0.00e+00	0	38	0	0	52	4580
2026-01-25 07:37:02.21	31.25	12.82	-40.6	-42.5	18.3	0.00e+00	0	38	0	0	52	4594
2026-01-25 07:37:03.76	30.95	12.79	-40.7	-42.6	18.2	0.00e+00	0	38	0	0	52	4620
2026-01-25 07:37:04.47	30.81	12.78	-40.7	-42.6	18.2	0.00e+00	0	38	0	0	52	4642
2026-01-25 07:37:05.75	30.56	12.76	-40.7	-42.6	18.2	0.00e+00	0	38	0	0	52	4624
2026-01-25 07:37:06.47	30.42	12.75	-40.6	-42.5	18.3	0.00e+00	0	38	0	0	52	4589
2026-01-25 07:37:07.75	30.18	12.73	-40.6	-42.5	18.3	0.00e+00	0	38	0	0	52	4589
2026-01-25 07:37:08.48	30.04	12.72	-40.7	-42.6	18.2	0.00e+00	0	38	0	0	52	4604
2026-01-25 07:37:09.76	29.79	12.69	-40.6	-42.5	18.3	0.00e+00	0	38	0	0	52	4568
2026-01-25 07:37:10.47	29.65	12.68	-40.6	-42.5	18.3	0.00e+00	0	38	0	0	52	4565
2026-01-25 07:37:11.75	29.41	12.66	-40.6	-42.5	18.3	0.00e+00	0	38	0	0	52	4581
2026-01-25 07:37:12.46	29.27	12.65	-40.5	-42.5	18.3	0.00e+00	0	38	0	0	52	4555
2026-01-25 07:37:13.74	29.03	12.62	-40.5	-42.4	18.3	0.00e+00	0	38	0	0	52	4536
2026-01-25 07:37:14.49	28.88	12.61	-40.4	-42.4	18.4	0.00e+00	0	38	0	0	52	4509
2026-01-25 07:37:15.77	28.64	12.58	-40.5	-42.5	18.3	0.00e+00	0	38	0	0	52	4570
2026-01-25 07:37:16.56	28.49	12.57	-40.5	-42.5	18.3	0.00e+00	0	38	0	0	52	4579
2026-01-25 07:37:17.76	28.26	12.54	-40.5	-42.4	18.3	0.00e+00	0	38	0	0	52	4540
2026-01-25 07:37:18.76	28.07	12.52	-40.5	-42.5	18.3	0.00e+00	0	38	0	0	52	4594
2026-01-25 07:37:19.94	27.84	12.50	-40.6	-42.6	18.2	0.00e+00	0	38	0	0	52	4617
2026-01-25 07:37:20.82	27.68	12.48	-40.6	-42.6	18.2	0.00e+00	0	38	0	0	52	4650
2026-01-25 07:37:21.96	27.46	12.46	-40.7	-42.7	18.1	0.00e+00	0	38	0	0	52	4693
2026-01-25 07:37:22.81	27.30	12.44	-40.7	-42.7	18.1	0.00e+00	0	37	0	0	52	4691
2026-01-25 07:37:23.95	27.08	12.42	-40.7	-42.6	18.2	0.00e+00	0	38	0	0	52	4646
2026-01-25 07:37:24.81	26.92	12.40	-40.7	-42.7	18.1	0.00e+00	0	38	0	0	52	4656
2026-01-25 07:37:25.94	26.71	12.37	-40.6	-42.6	18.2	0.00e+00	0	38	0	0	52	4624
2026-01-25 07:37:26.80	26.55	12.35	-40.5	-42.5	18.3	0.00e+00	0	38	0	0	52	4563
2026-01-25 07:37:27.93	26.34	12.33	-40.5	-42.5	18.2	0.00e+00	0	38	0	0	52	4580
2026-01-25 07:37:28.78	26.18	12.31	-40.6	-42.5	18.2	0.00e+00	0	38	0	0	52	4593
2026-01-25 07:37:29.92	25.96	12.28	-40.5	-42.5	18.3	0.00e+00	0	38	0	0	52	4568
2026-01-25 07:37:30.77	25.80	12.26	-40.6	-42.6	18.2	0.00e+00	0	38	0	0	52	4608
2026-01-25 07:37:31.91	25.59	12.23	-40.6	-42.6	18.2	0.00e+00	0	38	0	0	52	4633
2026-01-25 07:37:32.76	25.43	12.21	-40.4	-42.4	18.4	0.00e+00	0	38	0	0	52	4518
2026-01-25 07:37:34.01	25.20	12.18	-40.4	-42.3	18.4	0.00e+00	0	38	0	0	52	4478
2026-01-25 07:37:34.86	25.04	12.16	-40.2	-42.2	18.6	0.00e+00	0	38	0	0	52	4400
2026-01-25 07:37:36.00	24.83	12.13	-40.3	-42.3	18.4	0.00e+00	0	38	0	0	52	4449
2026-01-25 07:37:36.85	24.67	12.11	-40.4	-42.3	18.4	0.00e+00	0	38	0	0	52	4482
2026-01-25 07:37:37.99	24.46	12.08	-40.3	-42.3	18.5	0.00e+00	0	38	0	0	52	4444
2026-01-25 07:37:38.85	24.30	12.06	-40.5	-42.4	18.3	0.00e+00	0	38	0	0	52	4535
2026-01-25 07:37:39.98	24.10	12.03	-40.3	-42.2	18.5	0.00e+00	0	38	0	0	52	4437
2026-01-25 07:37:40.83	23.94	12.01	-40.3	-42.2	18.5	0.00e+00	0	38	0	0	52	4425
2026-01-25 07:37:41.97	23.73	11.98	-40.3	-42.2	18.5	0.00e+00	0	38	0	0	52	4433
2026-01-25 07:37:42.82	23.58	11.96	-40.3	-42.2	18.6	0.00e+00	0	38	0	0	52	4425
2026-01-25 07:37:43.96	23.37	11.93	-40.4	-42.3	18.5	0.00e+00	0	37	0	0	52	4455
2026-01-25 07:37:44.81	23.21	11.90	-40.4	-42.3	18.5	0.00e+00	0	38	0	0	52	4450
2026-01-25 07:37:45.95	23.01	11.87	-40.5	-42.3	18.5	0.00e+00	0	38	0	0	52	4493
2026-01-25 07:37:46.80	22.85	11.85	-40.5	-42.4	18.4	0.00e+00	0	38	0	0	52	4527
2026-01-25 07:37:48.00	22.63	11.82	-40.6	-42.5	18.3	0.00e+00	0	38	0	0	52	4574
2026-01-25 07:37:48.85	22.48	11.79	-40.5	-42.5	18.4	0.00e+00	0	38	0	0	52	4547
2026-01-25 07:37:49.99	22.27	11.76	-40.4	-42.4	18.4	0.00e+00	0	37	0	0	52	4519
2026-01-25 07:37:50.84	22.12	11.73	-40.5	-42.5	18.4	0.00e+00	0	38	0	0	52	4549
2026-01-25 07:37:51.98	21.92	11.70	-40.5	-42.5	18.3	0.00e+00	0	38	0	0	52	4576
2026-01-25 07:37:52.83	21.76	11.68	-40.4	-42.4	18.3	0.00e+00	0	37	0	0	52	4525
2026-01-25 07:37:54.17	21.52	11.64	-40.4	-42.5	18.3	0.00e+00	0	37	0	0	52	4576
2026-01-25 07:37:54.89	21.39	11.62	-40.4	-42.6	18.2	0.00e+00	0	38	0	0	52	4607
2026-01-25 07:37:56.17	21.17	11.58	-40.4	-42.6	18.2	0.00e+00	0	38	0	0	52	4603
2026-01-25 07:37:56.89	21.04	11.56	-40.5	-42.6	18.3	0.00e+00	0	37	0	0	52	4614
2026-01-25 07:37:58.17	20.81	11.52	-40.6	-42.8	18.1	0.00e+00	0	37	0	0	52	4709
2026-01-25 07:37:58.88	20.68	11.50	-40.5	-42.7	18.2	0.00e+00	0	38	0	0	52	4656
2026-01-25 07:38:00.16	20.46	11.46	-40.5	-42.6	18.2	0.00e+00	0	38	0	0	52	4636
2026-01-25 07:38:00.97	20.32	11.43	-40.5	-42.7	18.2	0.00e+00	0	38	0	0	52	4656
2026-01-25 07:38:02.10	20.12	11.40	-40.5	-42.6	18.3	0.00e+00	0	38	0	0	52	4610
2026-01-25 07:38:02.95	19.97	11.37	-40.5	-42.6	18.2	0.00e+00	0	38	0	0	52	4604
2026-01-25 07:38:04.09	19.77	11.33	-40.5	-42.6	18.2	0.00e+00	0	38	0	0	52	4630
2026-01-25 07:38:04.94	19.62	11.31	-40.6	-42.6	18.3	0.00e+00	0	38	0	0	52	4637
2026-01-25 07:38:06.08	19.42	11.27	-40.7	-42.7	18.2	0.00e+00	0	38	0	0	52	4669
2026-01-25 07:38:06.93	19.27	11.24	-40.6	-42.5	18.3	0.00e+00	0	38	0	0	52	4595
2026-01-25 07:38:08.08	19.07	11.20	-40.7	-42.6	18.2	0.00e+00	0	38	0	0	52	4648
2026-01-25 07:38:08.94	18.92	11.18	-40.7	-42.7	18.2	0.00e+00	0	38	0	0	52	4652
2026-01-25 07:38:10.10	18.72	11.14	-40.7	-42.7	18.2	0.00e+00	0	38	0	0	52	4660
2026-01-25 07:38:10.96	18.57	11.11	-40.8	-42.8	18.0	0.00e+00	0	38	0	0	52	4746
2026-01-25 07:38:12.10	18.38	11.07	-40.8	-42.8	18.0	0.00e+00	0	37	0	0	52	4754
2026-01-25 07:38:12.95	18.23	11.04	-40.9	-42.9	17.9	0.00e+00	0	38	0	0	52	4791
2026-01-25 07:38:14.09	18.04	11.00	-40.9	-42.9	17.9	0.00e+00	0	38	0	0	52	4796
2026-01-25 07:38:14.94	17.89	10.97	-40.8	-42.8	18.0	0.00e+00	0	38	0	0	52	4725
2026-01-25 07:38:16.08	17.70	10.94	-40.8	-42.8	18.0	0.00e+00	0	38	0	0	52	4739
2026-01-25 07:38:16.93	17.55	10.91	-40.7	-42.7	18.1	0.00e+00	0	38	0	0	52	4665
2026-01-25 07:38:18.07	17.36	10.87	-40.6	-42.6	18.2	0.00e+00	0	38	0	0	52	4617
2026-01-25 07:38:18.92	17.21	10.84	-40.6	-42.5	18.3	0.00e+00	0	37	0	0	52	4595
2026-01-25 07:38:20.06	17.02	10.80	-40.6	-42.5	18.3	0.00e+00	0	38	0	0	52	4595
2026-01-25 07:38:20.91	16.88	10.77	-40.5	-42.5	18.3	0.00e+00	0	38	0	0	52	4586
2026-01-25 07:38:22.05	16.69	10.73	-40.5	-42.6	18.2	0.00e+00	0	37	0	0	52	4628
2026-01-25 07:38:22.90	16.54	10.70	-40.7	-42.8	18.1	0.00e+00	0	38	0	0	52	4715
2026-01-25 07:38:24.04	16.35	10.66	-40.8	-43.0	17.9	0.00e+00	0	38	0	0	52	4820
2026-01-25 07:38:24.89	16.21	10.63	-40.8	-43.1	17.8	0.00e+00	0	38	0	0	52	4894
2026-01-25 07:38:26.14	16.00	10.58	-40.9	-43.3	17.6	0.00e+00	0	38	0	0	52	4985
2026-01-25 07:38:26.99	15.86	10.55	-40.9	-43.3	17.6	0.00e+00	0	38	0	0	52	5016
2026-01-25 07:38:28.13	15.67	10.51	-41.0	-43.4	17.5	0.00e+00	0	38	0	0	52	5042
2026-01-25 07:38:28.98	15.53	10.48	-41.0	-43.4	17.5	0.00e+00	0	37	0	0	52	5051
2026-01-25 07:38:30.12	15.35	10.44	-41.0	-43.3	17.5	0.00e+00	0	38	0	0	52	5027
2026-01-25 07:38:31.03	15.20	10.40	-41.0	-43.3	17.6	0.00e+00	0	38	0	0	52	4999
2026-01-25 07:38:32.03	15.03	10.36	-40.8	-43.0	17.8	0.00e+00	0	38	0	0	52	4861
2026-01-25 07:38:33.02	14.87	10.33	-40.9	-43.0	17.8	0.00e+00	0	37	0	0	52	4869
2026-01-25 07:38:34.02	14.71	10.29	-40.9	-43.0	17.7	0.00e+00	0	38	0	0	52	4867
2026-01-25 07:38:35.01	14.55	10.25	-40.8	-42.9	17.9	0.00e+00	0	38	0	0	52	4766
2026-01-25 07:38:36.01	14.38	10.21	-40.9	-43.0	17.8	0.00e+00	0	38	0	0	52	4823
2026-01-25 07:38:37.00	14.22	10.18	-40.9	-43.0	17.8	0.00e+00	0	38	0	0	52	4828
2026-01-25 07:38:37.99	14.06	10.14	-40.9	-42.9	17.9	0.00e+00	0	37	0	0	52	4800
2026-01-25 07:38:38.99	13.90	10.10	-40.9	-43.0	17.9	0.00e+00	0	38	0	0	52	4835
2026-01-25 07:38:39.98	13.74	10.06	-41.1	-43.1	17.7	0.00e+00	0	38	0	0	52	4901
2026-01-25 07:38:40.98	13.58	10.02	-41.0	-43.0	17.8	0.00e+00	0	38	0	0	52	4848
2026-01-25 07:38:41.97	13.43	9.99	-40.9	-43.0	17.8	0.00e+00	0	38	0	0	52	4835
2026-01-25 07:38:42.97	13.27	9.95	-40.9	-43.0	17.8	0.00e+00	0	38	0	0	52	4828
2026-01-25 07:38:43.96	13.11	9.91	-41.0	-43.0	17.8	0.00e+00	0	38	0	0	52	4869
2026-01-25 07:38:44.96	12.95	9.87	-40.8	-42.9	17.9	0.00e+00	0	38	0	0	52	4790
2026-01-25 07:38:45.96	12.79	9.83	-40.7	-42.8	17.9	0.00e+00	0	38	0	0	52	4748
2026-01-25 07:38:46.95	12.64	9.79	-40.7	-42.8	17.9	0.00e+00	0	38	0	0	52	4755
2026-01-25 07:38:47.95	12.48	9.75	-40.8	-42.9	17.9	0.00e+00	0	38	0	0	52	4769
2026-01-25 07:38:48.94	12.33	9.71	-40.8	-43.0	17.7	0.00e+00	0	38	0	0	52	4848
2026-01-25 07:38:49.94	12.17	9.67	-40.8	-43.0	17.7	0.00e+00	0	38	0	0	52	4862
2026-01-25 07:38:50.94	12.01	9.63	-40.8	-43.0	17.8	0.00e+00	0	38	0	0	52	4860
2026-01-25 07:38:51.93	11.86	9.59	-40.8	-43.1	17.7	0.00e+00	0	37	0	0	52	4890
2026-01-25 07:38:52.93	11.71	9.55	-40.9	-43.2	17.6	0.00e+00	0	38	0	0	52	4958
2026-01-25 07:38:53.93	11.55	9.51	-40.8	-43.2	17.6	0.00e+00	0	38	0	0	52	4974
2026-01-25 07:38:54.92	11.40	9.47	-40.8	-43.2	17.6	0.00e+00	0	38	0	0	52	4969
2026-01-25 07:38:55.92	11.25	9.43	-40.7	-43.2	17.6	0.00e+00	0	38	0	0	52	4960
2026-01-25 07:38:56.91	11.09	9.39	-40.8	-43.3	17.5	0.00e+00	0	38	0	0	52	5010
2026-01-25 07:38:57.91	10.94	9.35	-40.6	-43.2	17.6	0.00e+00	0	38	0	0	52	4938
2026-01-25 07:38:58.90	10.79	9.31	-40.6	-43.2	17.6	0.00e+00	0	38	0	0	52	4929
2026-01-25 07:38:59.90	10.64	9.27	-40.6	-43.3	17.5	0.00e+00	0	38	0	0	52	4990
2026-01-25 07:39:00.89	10.49	9.23	-40.5	-43.2	17.6	0.00e+00	0	38	0	0	52	4952
2026-01-25 07:39:01.89	10.34	9.18	-40.5	-43.3	17.5	0.00e+00	0	38	0	0	52	4987
2026-01-25 07:39:02.88	10.19	9.14	-40.6	-43.3	17.4	0.00e+00	0	37	0	0	52	5040
2026-01-25 07:39:03.88	10.04	9.10	-40.6	-43.4	17.4	0.00e+00	0	38	0	0	52	5076
2026-01-25 07:39:04.88	9.89	9.06	-40.5	-43.3	17.5	0.00e+00	0	38	0	0	52	5024
2026-01-25 07:39:05.87	9.74	9.02	-40.4	-43.3	17.6	0.00e+00	0	38	0	0	52	4988
2026-01-25 07:39:06.86	9.59	8.98	-44.5	-51.9	9.7	7.01e-05	0	37	0	0	60	8466
2026-01-25 07:39:07.86	9.45	8.93	-48.4	-62.3	3.8	1.49e+00	0	38	104	0	67	18932
2026-01-25 07:39:08.85	9.30	8.89	-48.3	-62.6	3.8	1.49e+00	0	37	104	0	68	18517
2026-01-25 07:39:09.85	9.15	8.85	-48.7	-62.7	3.8	1.49e+00	0	38	104	0	68	18723
2026-01-25 07:39:10.84	9.01	8.81	-49.4	-62.8	3.8	1.49e+00	0	38	104	0	70	16872
2026-01-25 07:39:11.83	8.86	8.76	-49.3	-62.9	3.8	1.49e+00	0	38	104	0	70	17055
2026-01-25 07:39:12.83	8.72	8.72	-49.6	-63.0	3.8	1.49e+00	0	37	104	0	70	17132
2026-01-25 07:39:13.82	8.57	8.68	-49.5	-63.0	3.8	1.49e+00	0	38	104	0	70	17185
2026-01-25 07:39:14.81	8.43	8.64	-49.8	-63.0	3.8	1.49e+00	0	38	104	0	70	17261
2026-01-25 07:39:15.81	8.28	8.59	-49.8	-63.1	3.8	1.49e+00	0	38	104	0	70	17352
2026-01-25 07:39:16.80	8.14	8.55	-49.9	-63.1	3.8	1.49e+00	0	38	104	0	70	17463
2026-01-25 07:39:17.79	8.00	8.51	-50.0	-63.2	3.8	1.49e+00	0	38	104	0	70	17490
2026-01-25 07:39:18.78	7.86	8.47	-50.1	-63.1	3.8	1.49e+00	0	38	104	0	70	17462
2026-01-25 07:39:19.78	7.71	8.42	-49.9	-63.2	3.8	1.49e+00	0	38	104	0	70	17518
2026-01-25 07:39:20.77	7.57	8.38	-50.0	-63.2	3.8	1.49e+00	0	38	104	0	70	17566
2026-01-25 07:39:21.77	7.43	8.34	-49.9	-63.2	3.8	1.49e+00	0	38	104	0	71	16552
2026-01-25 07:39:22.76	7.29	8.29	-50.2	-63.2	3.8	1.49e+00	0	38	104	0	71	16559
2026-01-25 07:39:23.75	7.15	8.25	-50.2	-63.2	3.8	1.49e+00	0	38	104	0	71	16550
2026-01-25 07:39:24.75	7.01	8.20	-50.0	-63.1	3.8	1.49e+00	0	38	104	0	71	16473
2026-01-25 07:39:25.74	6.87	8.16	-50.2	-63.2	3.8	1.49e+00	0	38	104	0	71	16610
2026-01-25 07:39:26.73	6.73	8.12	-50.2	-63.2	3.8	1.49e+00	0	38	104	0	71	16613
2026-01-25 07:39:27.73	6.59	8.07	-50.1	-63.2	3.8	1.49e+00	0	38	104	0	71	16596
2026-01-25 07:39:28.72	6.45	8.03	-50.0	-63.2	3.8	1.49e+00	0	38	104	0	71	16620
2026-01-25 07:39:29.72	6.31	7.99	-50.2	-63.2	3.8	1.49e+00	0	38	104	0	71	16606
2026-01-25 07:39:30.71	6.18	7.94	-50.0	-63.2	3.8	1.49e+00	0	38	104	0	71	16610
2026-01-25 07:39:31.70	6.04	7.90	-50.1	-63.1	3.8	1.49e+00	0	38	104	0	71	16496
2026-01-25 07:39:32.70	5.90	7.85	-49.9	-63.2	3.8	1.49e+00	0	38	104	0	71	16603
2026-01-25 07:39:33.69	5.77	7.81	-49.8	-63.2	3.8	1.49e+00	0	38	104	0	71	16516
2026-01-25 07:39:34.68	5.63	7.76	-49.8	-63.1	3.8	1.49e+00	0	38	104	0	71	16472
2026-01-25 07:39:35.68	5.50	7.72	-49.8	-63.1	3.8	1.49e+00	0	38	104	0	71	16418
2026-01-25 07:39:36.67	5.36	7.68	-49.7	-63.1	3.8	1.49e+00	0	38	104	0	71	16455
2026-01-25 07:39:37.66	5.23	7.63	-49.7	-63.1	3.8	1.49e+00	0	38	104	0	71	16357
2026-01-25 07:39:38.66	5.09	7.59	-49.7	-63.1	3.8	1.49e+00	0	38	104	0	71	16434
2026-01-25 07:39:39.65	4.96	7.54	-49.8	-63.1	3.8	1.49e+00	0	38	104	0	71	16463
2026-01-25 07:39:40.65	4.83	7.50	-49.7	-63.1	3.8	1.49e+00	0	38	104	0	71	16379
2026-01-25 07:39:41.64	4.69	7.45	-49.7	-63.1	3.8	1.49e+00	0	38	104	0	71	16394
2026-01-25 07:39:42.63	4.56	7.41	-49.7	-63.1	3.8	1.49e+00	0	37	104	0	71	16444
2026-01-25 07:39:43.63	4.43	7.36	-49.7	-63.1	3.8	1.49e+00	0	37	104	0	71	16397
2026-01-25 07:39:44.62	4.30	7.32	-49.7	-63.1	3.8	1.49e+00	0	37	104	0	71	16433
2026-01-25 07:39:45.61	4.17	7.27	-49.7	-63.1	3.8	1.49e+00	0	38	104	0	71	16424
2026-01-25 07:39:46.61	4.04	7.23	-49.7	-63.1	3.8	1.49e+00	0	38	104	0	71	16411
2026-01-25 07:39:47.60	3.91	7.18	-49.7	-63.1	3.8	1.49e+00	0	38	104	0	71	16426
2026-01-25 07:39:48.59	3.78	7.13	-49.7	-63.1	3.8	1.49e+00	0	38	104	0	71	16352
2026-01-25 07:39:49.59	3.65	7.09	-49.7	-63.1	3.8	1.49e+00	0	38	104	0	71	16425
2026-01-25 07:39:50.58	3.52	7.04	-49.7	-63.1	3.8	1.49e+00	0	38	104	0	71	16340
2026-01-25 07:39:51.57	3.39	7.00	-49.7	-63.1	3.8	1.49e+00	0	38	104	0	71	16362
2026-01-25 07:39:52.57	3.26	6.95	-49.7	-63.1	3.8	1.49e+00	0	37	104	0	71	16385
2026-01-25 07:39:53.56	3.13	6.91	-49.7	-63.1	3.8	1.49e+00	0	38	104	0	71	16359
2026-01-25 07:39:54.55	3.01	6.86	-49.7	-63.1	3.8	1.49e+00	0	38	104	0	71	16367
2026-01-25 07:39:55.55	2.88	6.82	-49.7	-63.1	3.8	1.49e+00	0	38	104	0	71	16327
2026-01-25 07:39:56.54	2.75	6.77	-49.7	-63.1	3.8	1.49e+00	0	38	104	0	71	16406
2026-01-25 07:39:57.53	2.63	6.72	-49.7	-63.1	3.8	1.49e+00	0	38	104	0	71	16361
2026-01-25 07:39:58.53	2.50	6.68	-49.7	-63.1	3.8	1.49e+00	0	38	104	0	71	16394
2026-01-25 07:39:59.52	2.38	6.63	-49.7	-63.1	3.8	1.49e+00	0	38	104	0	71	16360
2026-01-25 07:40:00.51	2.25	6.59	-49.7	-63.1	3.8	1.49e+00	0	38	104	0	71	16335
2026-01-25 07:40:01.51	2.13	6.54	-49.7	-63.1	3.8	1.49e+00	0	38	104	0	71	16364
2026-01-25 07:40:02.50	2.00	6.49	-49.7	-63.0	3.8	1.49e+00	0	38	104	0	71	16294
2026-01-25 07:40:03.50	1.88	6.45	-49.7	-63.1	3.8	1.49e+00	0	38	104	0	71	16361
2026-01-25 07:40:04.49	1.75	6.40	-49.7	-63.0	3.8	1.49e+00	0	38	104	0	71	16293
2026-01-25 07:40:05.48	1.63	6.36	-49.7	-63.0	3.8	1.49e+00	0	38	104	0	71	16300
2026-01-25 07:40:06.48	1.51	6.31	-49.7	-63.0	3.8	1.49e+00	0	38	104	0	71	16307
2026-01-25 07:40:07.47	1.39	6.26	-49.7	-63.1	3.8	1.49e+00	0	38	104	0	71	16335
2026-01-25 07:40:08.46	1.27	6.22	-49.7	-63.1	3.8	1.49e+00	0	38	104	0	71	16334
2026-01-25 07:40:09.46	1.14	6.17	-49.7	-63.0	3.8	1.49e+00	0	38	104	0	71	16301
2026-01-25 07:40:10.45	1.02	6.12	-49.7	-63.0	3.8	1.49e+00	0	38	104	0	71	16303
2026-01-25 07:40:11.44	0.90	6.08	-49.7	-63.1	3.8	1.49e+00	0	38	104	0	71	16332
2026-01-25 07:40:12.44	0.78	6.03	-49.7	-63.1	3.8	1.49e+00	0	38	104	0	71	16321
2026-01-25 07:40:13.43	0.66	5.98	-49.7	-63.1	3.8	1.49e+00	0	38	104	0	71	16337
2026-01-25 07:40:14.43	0.54	5.94	-49.7	-63.0	3.8	1.49e+00	0	38	104	0	71	16310
2026-01-25 07:40:15.42	0.42	5.89	-49.7	-63.0	3.8	1.49e+00	0	38	104	0	71	16282
2026-01-25 07:40:16.41	0.31	5.84	-49.7	-63.0	3.8	1.49e+00	0	38	104	0	71	16295
2026-01-25 07:40:17.41	0.19	5.80	-49.7	-63.1	3.8	1.49e+00	0	38	104	0	71	16328
2026-01-25 07:40:18.40	0.07	5.75	-49.7	-63.1	3.8	1.49e+00	0	38	104	0	71	16335
2026-01-25 07:40:19.40	359.95	5.70	-49.7	-63.1	3.8	1.49e+00	0	38	104	0	71	16363
2026-01-25 07:40:20.39	359.84	5.66	-49.7	-63.1	3.8	1.49e+00	0	38	104	0	71	16322
2026-01-25 07:40:21.38	359.72	5.61	-49.7	-63.0	3.8	1.49e+00	0	38	104	0	71	16313
2026-01-25 07:40:22.37	359.60	5.56	-49.7	-63.0	3.8	1.49e+00	0	38	104	0	71	16301
2026-01-25 07:40:23.37	359.49	5.52	-49.7	-63.0	3.8	1.49e+00	0	38	104	0	71	16250
2026-01-25 07:40:24.36	359.37	5.47	-49.7	-63.1	3.8	1.49e+00	0	38	104	0	71	16379
2026-01-25 07:40:25.35	359.26	5.42	-49.7	-63.0	3.8	1.49e+00	0	38	104	0	71	16250
2026-01-25 07:40:26.35	359.14	5.38	-49.7	-63.0	3.8	1.49e+00	0	38	104	0	71	16307
2026-01-25 07:40:27.34	359.03	5.33	-49.7	-63.0	3.8	1.49e+00	0	38	104	0	71	16307
2026-01-25 07:40:28.33	358.91	5.28	-49.7	-63.0	3.8	1.49e+00	0	38	104	0	71	16312
2026-01-25 07:40:29.33	358.80	5.24	-49.7	-63.0	3.8	1.49e+00	0	38	104	0	71	16287
2026-01-25 07:40:30.32	358.69	5.19	-49.7	-63.1	3.8	1.49e+00	0	38	104	0	71	16324
2026-01-25 07:40:31.31	358.57	5.14	-49.7	-63.1	3.8	1.49e+00	0	38	104	0	71	16337
2026-01-25 07:40:32.31	358.46	5.09	-49.7	-63.1	3.8	1.49e+00	0	38	104	0	71	16316
2026-01-25 07:40:33.30	358.35	5.05	-49.7	-63.0	3.8	1.49e+00	0	38	104	0	71	16313
2026-01-25 07:40:34.29	358.24	5.00	-49.7	-63.0	3.8	1.49e+00	0	38	104	0	71	16289

#Closed at: 2026-01-25 07:40:35
#Recorded file [0 MB]: D:/Data/31040_260125_103200.dat