passes_logs/2026/01/25/T1/T1__20260125_214935_SUOMI_NPP_rec.log

#Pass ID: 20260125_214935_SUOMI NPP
#Satellite: SUOMI NPP
#Configuration: NPP
#almurnet v.1.7.20251203
#Start time: 2026-01-25 21:49:36

#Version: 2.0.20230620
#Station: T1
#Location: 37.570604 lon 55.790049 lat
#TLE: 1 37849U 11061A   26025.53586395  .00000179  00000+0  10601-3 0  9996
#TLE: 2 37849  98.7821 327.4943 0002169  45.6246 314.5108 14.19529815738202

#Time	Az	El	Level	Level2	SNR	BER	BlckErr	Temp	State	Recorded	gain1	gain2
2026-01-25 21:49:36.22	36.07	5.05	-47.7	-63.0	3.8	1.49e+00	0	34	0	0	67	20363
2026-01-25 21:49:37.21	36.18	5.09	-47.7	-63.0	3.8	1.49e+00	0	35	104	0	67	20372
2026-01-25 21:49:38.20	36.29	5.14	-47.7	-62.9	3.8	1.49e+00	0	35	104	0	67	20286
2026-01-25 21:49:39.19	36.40	5.19	-47.7	-63.0	3.8	1.49e+00	0	35	104	0	67	20329
2026-01-25 21:49:40.19	36.52	5.24	-47.7	-62.9	3.8	1.49e+00	0	35	104	0	67	20301
2026-01-25 21:49:41.18	36.63	5.29	-47.7	-63.0	3.8	1.49e+00	0	35	104	0	67	20383
2026-01-25 21:49:42.17	36.74	5.34	-47.7	-63.0	3.8	1.49e+00	0	35	104	0	67	20348
2026-01-25 21:49:43.17	36.85	5.38	-47.7	-62.9	3.8	1.49e+00	0	35	104	0	67	20294
2026-01-25 21:49:44.16	36.96	5.43	-47.7	-62.9	3.8	1.49e+00	0	35	104	0	67	20278
2026-01-25 21:49:45.15	37.08	5.48	-47.7	-63.0	3.8	1.49e+00	0	35	104	0	67	20310
2026-01-25 21:49:46.14	37.19	5.53	-47.7	-62.9	3.8	1.49e+00	0	35	104	0	67	20297
2026-01-25 21:49:47.14	37.30	5.58	-47.7	-62.9	3.8	1.49e+00	0	35	104	0	67	20303
2026-01-25 21:49:48.13	37.42	5.62	-47.7	-63.0	3.8	1.49e+00	0	35	104	0	67	20311
2026-01-25 21:49:49.12	37.53	5.67	-47.7	-62.9	3.8	1.49e+00	0	35	104	0	67	20288
2026-01-25 21:49:50.11	37.64	5.72	-47.7	-62.9	3.8	1.49e+00	0	35	104	0	67	20272
2026-01-25 21:49:51.11	37.76	5.77	-47.7	-63.0	3.8	1.49e+00	0	35	104	0	67	20314
2026-01-25 21:49:52.10	37.88	5.82	-47.7	-62.9	3.8	1.49e+00	0	35	104	0	67	20253
2026-01-25 21:49:53.10	37.99	5.87	-47.6	-63.0	3.8	1.49e+00	0	35	104	0	67	20320
2026-01-25 21:49:54.09	38.11	5.91	-47.6	-62.9	3.8	1.49e+00	0	35	104	0	67	20255
2026-01-25 21:49:55.08	38.22	5.96	-47.7	-62.9	3.8	1.49e+00	0	35	104	0	67	20264
2026-01-25 21:49:56.08	38.34	6.01	-47.7	-62.9	3.8	1.49e+00	0	35	104	0	67	20218
2026-01-25 21:49:57.07	38.46	6.06	-47.7	-62.9	3.8	1.49e+00	0	36	104	0	67	20221
2026-01-25 21:49:58.06	38.58	6.11	-47.7	-62.9	3.8	1.49e+00	0	36	104	0	67	20206
2026-01-25 21:49:59.05	38.69	6.15	-47.7	-62.9	3.8	1.49e+00	0	36	104	0	67	20206
2026-01-25 21:50:00.05	38.81	6.20	-47.6	-62.9	3.8	1.49e+00	0	36	104	0	67	20201
2026-01-25 21:50:01.04	38.93	6.25	-47.7	-62.9	3.8	1.49e+00	0	36	104	0	67	20223
2026-01-25 21:50:02.03	39.05	6.30	-47.7	-62.9	3.8	1.49e+00	0	36	104	0	67	20244
2026-01-25 21:50:03.03	39.17	6.35	-47.6	-62.9	3.8	1.49e+00	0	36	104	0	67	20211
2026-01-25 21:50:04.02	39.29	6.39	-47.6	-62.9	3.8	1.49e+00	0	36	104	0	67	20211
2026-01-25 21:50:05.01	39.41	6.44	-47.6	-62.9	3.8	1.49e+00	0	36	104	0	67	20141
2026-01-25 21:50:06.01	39.53	6.49	-47.7	-62.9	3.8	1.49e+00	0	36	104	0	67	20257
2026-01-25 21:50:07.00	39.65	6.54	-47.6	-62.9	3.8	1.49e+00	0	35	104	0	67	20209
2026-01-25 21:50:07.99	39.77	6.59	-47.6	-62.9	3.8	1.49e+00	0	36	104	0	67	20263
2026-01-25 21:50:08.99	39.89	6.63	-47.6	-62.9	3.8	1.49e+00	0	36	104	0	67	20199
2026-01-25 21:50:09.98	40.02	6.68	-47.6	-62.9	3.8	1.49e+00	0	36	104	0	67	20259
2026-01-25 21:50:10.97	40.14	6.73	-47.6	-62.9	3.8	1.49e+00	0	36	104	0	67	20191
2026-01-25 21:50:11.97	40.26	6.78	-47.6	-62.9	3.8	1.49e+00	0	36	104	0	67	20212
2026-01-25 21:50:12.96	40.38	6.83	-47.6	-62.9	3.8	1.49e+00	0	36	104	0	67	20156
2026-01-25 21:50:13.95	40.51	6.87	-47.6	-62.9	3.8	1.49e+00	0	36	104	0	67	20146
2026-01-25 21:50:14.95	40.63	6.92	-47.6	-62.9	3.8	1.49e+00	0	36	104	0	67	20172
2026-01-25 21:50:15.94	40.76	6.97	-47.6	-62.9	3.8	1.49e+00	0	36	104	0	67	20165
2026-01-25 21:50:16.93	40.88	7.02	-47.6	-62.9	3.8	1.49e+00	0	36	104	0	67	20230
2026-01-25 21:50:17.93	41.01	7.06	-47.6	-62.9	3.8	1.49e+00	0	36	104	0	67	20147
2026-01-25 21:50:18.92	41.13	7.11	-47.7	-62.9	3.8	1.49e+00	0	36	104	0	67	20184
2026-01-25 21:50:19.91	41.26	7.16	-47.6	-62.9	3.8	1.49e+00	0	36	104	0	67	20180
2026-01-25 21:50:20.91	41.39	7.21	-47.6	-62.9	3.8	1.49e+00	0	36	104	0	67	20120
2026-01-25 21:50:21.90	41.51	7.26	-47.6	-62.9	3.8	1.49e+00	0	36	104	0	67	20121
2026-01-25 21:50:22.89	41.64	7.30	-47.6	-62.9	3.8	1.49e+00	0	36	104	0	67	20116
2026-01-25 21:50:23.89	41.77	7.35	-47.6	-62.8	3.8	1.49e+00	0	36	104	0	67	20069
2026-01-25 21:50:24.88	41.90	7.40	-47.6	-62.8	3.8	1.49e+00	0	36	104	0	67	20024
2026-01-25 21:50:25.87	42.02	7.45	-47.6	-62.8	3.8	1.49e+00	0	36	104	0	67	20057
2026-01-25 21:50:26.87	42.15	7.49	-47.6	-62.8	3.8	1.49e+00	0	36	104	0	67	20067
2026-01-25 21:50:27.86	42.28	7.54	-47.6	-62.8	3.8	1.49e+00	0	36	104	0	67	19982
2026-01-25 21:50:28.85	42.41	7.59	-47.6	-62.8	3.8	1.49e+00	0	36	104	0	67	20019
2026-01-25 21:50:29.85	42.54	7.64	-47.6	-62.8	3.8	1.49e+00	0	36	104	0	67	20055
2026-01-25 21:50:30.84	42.67	7.68	-47.6	-62.9	3.8	1.49e+00	0	36	104	0	67	20171
2026-01-25 21:50:31.83	42.80	7.73	-47.6	-62.9	3.8	1.49e+00	0	36	104	0	67	20240
2026-01-25 21:50:32.83	42.94	7.78	-47.6	-62.9	3.8	1.49e+00	0	36	104	0	67	20186
2026-01-25 21:50:33.82	43.07	7.83	-47.6	-62.9	3.8	1.49e+00	0	36	104	0	67	20296
2026-01-25 21:50:34.81	43.20	7.87	-47.6	-62.9	3.8	1.49e+00	0	36	104	0	67	20192
2026-01-25 21:50:35.81	43.33	7.92	-47.6	-62.9	3.8	1.49e+00	0	36	104	0	67	20168
2026-01-25 21:50:36.80	43.46	7.97	-47.6	-62.9	3.8	1.49e+00	0	37	104	0	67	20266
2026-01-25 21:50:37.79	43.60	8.01	-47.6	-62.9	3.8	1.49e+00	0	36	104	0	67	20187
2026-01-25 21:50:38.79	43.73	8.06	-47.6	-62.8	3.8	1.49e+00	0	36	104	0	67	20023
2026-01-25 21:50:39.78	43.87	8.11	-47.6	-62.8	3.8	1.49e+00	0	36	104	0	67	19843
2026-01-25 21:50:40.78	44.00	8.16	-47.6	-62.6	3.8	1.49e+00	0	36	104	0	67	19578
2026-01-25 21:50:41.77	44.14	8.20	-47.6	-62.6	3.8	1.49e+00	0	36	104	0	67	19527
2026-01-25 21:50:42.76	44.27	8.25	-47.6	-62.7	3.8	1.49e+00	0	36	104	0	67	19672
2026-01-25 21:50:43.75	44.41	8.30	-47.6	-62.8	3.8	1.49e+00	0	36	104	0	67	19867
2026-01-25 21:50:44.75	44.54	8.34	-47.6	-62.9	3.8	1.49e+00	0	36	104	0	67	20073
2026-01-25 21:50:45.74	44.68	8.39	-47.6	-62.9	3.8	1.49e+00	0	37	104	0	67	20174
2026-01-25 21:50:46.73	44.82	8.44	-47.6	-62.9	3.8	1.49e+00	0	37	104	0	67	20198
2026-01-25 21:50:47.73	44.96	8.48	-47.6	-62.9	3.8	1.49e+00	0	36	104	0	67	20212
2026-01-25 21:50:48.72	45.09	8.53	-47.6	-62.9	3.8	1.49e+00	0	37	104	0	67	20122
2026-01-25 21:50:49.71	45.23	8.58	-47.6	-62.8	3.8	1.49e+00	0	36	104	0	67	20058
2026-01-25 21:50:50.71	45.37	8.62	-47.6	-62.8	3.8	1.49e+00	0	37	104	0	67	19906
2026-01-25 21:50:51.70	45.51	8.67	-47.6	-62.6	3.8	1.49e+00	0	36	104	0	67	19531
2026-01-25 21:50:52.70	45.65	8.72	-47.6	-62.4	3.8	1.49e+00	0	36	104	0	67	19061
2026-01-25 21:50:53.69	45.79	8.76	-47.6	-62.3	3.8	1.49e+00	0	37	104	0	67	18792
2026-01-25 21:50:54.68	45.93	8.81	-47.6	-62.2	3.8	1.49e+00	0	36	104	0	67	18564
2026-01-25 21:50:55.68	46.07	8.85	-47.5	-61.5	3.8	1.49e+00	0	36	104	0	67	17186
2026-01-25 21:50:56.67	46.21	8.90	-47.4	-59.2	4.2	1.44e+00	0	36	0	0	66	14011
2026-01-25 21:50:57.66	46.36	8.95	-47.0	-56.2	5.7	6.98e-01	0	37	0	1048576	66	9883
2026-01-25 21:50:58.66	46.50	8.99	-46.3	-53.2	8.3	1.52e-01	0	37	0	3145728	64	7870
2026-01-25 21:50:59.65	46.64	9.04	-45.0	-49.6	12.2	1.77e-02	0	37	0	5242880	62	5809
2026-01-25 21:51:00.65	46.79	9.08	-46.8	-55.4	6.6	1.35e-02	0	37	0	6291456	64	10121
2026-01-25 21:51:01.64	46.93	9.13	-45.8	-51.5	9.9	8.43e-01	0	37	0	8388608	63	6812
2026-01-25 21:51:02.64	47.07	9.18	-46.6	-54.2	7.7	9.91e-05	0	37	0	10485760	63	9310
2026-01-25 21:51:03.63	47.22	9.22	-43.6	-47.1	14.4	5.49e-02	0	37	0	11534336	59	5215
2026-01-25 21:51:04.62	47.36	9.27	-42.9	-46.1	15.7	0.00e+00	0	37	0	13631488	57	5173
2026-01-25 21:51:05.62	47.51	9.31	-42.9	-46.1	15.7	0.00e+00	0	37	0	15728640	57	5183
2026-01-25 21:51:06.83	47.69	9.37	-42.7	-45.7	16.0	0.00e+00	0	37	0	17825792	57	4947
2026-01-25 21:51:07.72	47.82	9.41	-42.8	-45.9	15.9	0.00e+00	0	37	0	19922944	57	5087
2026-01-25 21:51:09.01	48.01	9.47	-42.6	-45.6	16.2	0.00e+00	0	37	0	22020096	57	4916
2026-01-25 21:51:09.73	48.12	9.50	-42.7	-45.7	16.1	0.00e+00	0	37	0	23068672	57	4946
2026-01-25 21:51:11.21	48.34	9.57	-42.4	-45.3	16.5	0.00e+00	0	37	0	26214400	56	5022
2026-01-25 21:51:11.92	48.44	9.60	-42.3	-45.1	16.6	0.00e+00	0	37	0	27262976	56	4925
2026-01-25 21:51:13.26	48.64	9.66	-42.2	-45.1	16.6	0.00e+00	0	37	0	30408704	56	4908
2026-01-25 21:51:14.24	48.79	9.70	-42.4	-45.3	16.5	0.00e+00	0	37	0	31457280	56	5000
2026-01-25 21:51:15.24	48.94	9.75	-42.5	-45.4	16.4	0.00e+00	0	37	0	33554432	56	5085
2026-01-25 21:51:16.23	49.09	9.79	-42.4	-45.4	16.4	0.00e+00	0	37	0	35651584	56	5053
2026-01-25 21:51:17.23	49.24	9.84	-42.4	-45.3	16.4	0.00e+00	0	37	0	37748736	56	5041
2026-01-25 21:51:18.23	49.39	9.88	-42.3	-45.1	16.7	0.00e+00	0	37	0	39845888	56	4915
2026-01-25 21:51:19.22	49.55	9.93	-42.3	-45.1	16.7	0.00e+00	0	37	0	40894464	56	4906
2026-01-25 21:51:20.22	49.70	9.97	-42.1	-44.9	16.9	0.00e+00	0	37	0	42991616	56	4764
2026-01-25 21:51:21.23	49.85	10.02	-41.8	-44.5	17.1	0.00e+00	0	37	0	45088768	55	4860
2026-01-25 21:51:22.26	50.01	10.06	-41.8	-44.6	17.1	0.00e+00	0	37	0	47185920	55	4881
2026-01-25 21:51:23.25	50.16	10.11	-41.9	-44.6	17.0	0.00e+00	0	37	0	48234496	55	4921
2026-01-25 21:51:24.25	50.32	10.15	-42.0	-44.7	16.9	0.00e+00	0	37	0	50331648	55	4979
2026-01-25 21:51:25.24	50.47	10.19	-42.1	-44.9	16.7	0.00e+00	0	37	0	52428800	55	5076
2026-01-25 21:51:26.23	50.63	10.24	-42.2	-45.1	16.6	0.00e+00	0	37	0	54525952	55	5161
2026-01-25 21:51:27.23	50.78	10.28	-42.2	-45.1	16.6	0.00e+00	0	37	0	56623104	55	5189
2026-01-25 21:51:28.43	50.97	10.33	-42.4	-45.4	16.3	0.00e+00	0	37	0	58720256	55	5359
2026-01-25 21:51:29.33	51.11	10.37	-42.3	-45.2	16.4	0.00e+00	0	37	0	59768832	55	5273
2026-01-25 21:51:30.42	51.28	10.42	-42.3	-45.2	16.5	0.00e+00	0	37	0	61865984	55	5222
2026-01-25 21:51:31.27	51.42	10.46	-42.4	-45.3	16.3	0.00e+00	0	37	0	63963136	55	5322
2026-01-25 21:51:32.41	51.60	10.51	-42.3	-45.2	16.4	0.00e+00	0	37	0	66060288	55	5236
2026-01-25 21:51:33.26	51.73	10.54	-42.2	-45.0	16.6	0.00e+00	0	37	0	67108864	55	5144
2026-01-25 21:51:34.40	51.92	10.59	-42.2	-45.0	16.7	0.00e+00	0	37	0	69206016	55	5141
2026-01-25 21:51:35.25	52.05	10.63	-42.2	-45.0	16.7	0.00e+00	0	37	0	71303168	55	5143
2026-01-25 21:51:36.39	52.24	10.68	-42.1	-44.9	16.8	0.00e+00	0	37	0	73400320	55	5062
2026-01-25 21:51:37.24	52.37	10.71	-42.2	-45.1	16.6	0.00e+00	0	37	0	75497472	55	5165
2026-01-25 21:51:38.38	52.56	10.76	-42.3	-45.2	16.5	0.00e+00	0	37	0	77594624	55	5245
2026-01-25 21:51:39.23	52.69	10.80	-42.2	-45.1	16.6	0.00e+00	0	37	0	78643200	55	5204
2026-01-25 21:51:40.43	52.89	10.85	-42.4	-45.3	16.4	0.00e+00	0	37	0	80740352	55	5333
2026-01-25 21:51:41.28	53.03	10.88	-42.3	-45.2	16.6	0.00e+00	0	37	0	82837504	55	5257
2026-01-25 21:51:42.48	53.22	10.94	-42.4	-45.4	16.4	0.00e+00	0	37	0	84934656	55	5372
2026-01-25 21:51:43.33	53.36	10.97	-42.5	-45.5	16.2	0.00e+00	0	37	0	85983232	55	5435
2026-01-25 21:51:44.53	53.56	11.02	-42.5	-45.5	16.2	0.00e+00	0	37	0	89128960	55	5460
2026-01-25 21:51:45.38	53.70	11.06	-42.5	-45.4	16.3	0.00e+00	0	37	0	90177536	55	5396
2026-01-25 21:51:46.52	53.89	11.10	-42.8	-45.9	16.0	0.00e+00	0	37	0	92274688	56	5364
2026-01-25 21:51:47.37	54.03	11.14	-42.8	-45.8	16.1	0.00e+00	0	37	0	94371840	56	5290
2026-01-25 21:51:48.62	54.23	11.19	-42.7	-45.7	16.2	0.00e+00	0	37	0	96468992	56	5262
2026-01-25 21:51:49.47	54.37	11.23	-42.8	-45.9	16.0	0.00e+00	0	37	0	97517568	56	5350
2026-01-25 21:51:50.61	54.57	11.27	-42.7	-45.7	16.2	0.00e+00	0	37	0	99614720	56	5261
2026-01-25 21:51:51.46	54.71	11.31	-42.9	-45.9	15.9	0.00e+00	0	37	0	101711872	56	5398
2026-01-25 21:51:52.60	54.90	11.35	-42.9	-45.9	16.0	0.00e+00	0	37	0	103809024	56	5383
2026-01-25 21:51:53.45	55.04	11.39	-43.0	-46.0	15.9	0.00e+00	0	37	0	104857600	56	5442
2026-01-25 21:51:54.59	55.23	11.43	-43.1	-46.1	15.8	0.00e+00	0	37	0	108003328	56	5525
2026-01-25 21:51:55.44	55.38	11.47	-43.0	-46.1	15.9	0.00e+00	0	37	0	109051904	56	5470
2026-01-25 21:51:56.58	55.57	11.51	-43.1	-46.2	15.8	0.00e+00	0	37	0	111149056	56	5533
2026-01-25 21:51:57.59	55.74	11.55	-43.1	-46.3	15.7	0.00e+00	0	37	0	113246208	56	5606
2026-01-25 21:51:58.58	55.91	11.59	-43.2	-46.4	15.6	0.00e+00	0	37	0	115343360	57	5351
2026-01-25 21:51:59.83	56.12	11.64	-43.0	-46.1	15.8	0.00e+00	0	37	0	117440512	57	5194
2026-01-25 21:52:00.71	56.28	11.68	-43.1	-46.2	15.7	0.00e+00	0	37	0	118489088	57	5250
2026-01-25 21:52:01.85	56.47	11.72	-43.0	-46.1	15.9	0.00e+00	0	37	0	121634816	57	5160
2026-01-25 21:52:02.70	56.62	11.75	-42.8	-45.8	16.1	0.00e+00	0	37	0	122683392	57	5041
2026-01-25 21:52:03.84	56.82	11.80	-42.8	-45.8	16.1	0.00e+00	0	37	0	124780544	57	5016
2026-01-25 21:52:04.69	56.96	11.83	-42.9	-45.9	16.0	0.00e+00	0	37	0	126877696	57	5088
2026-01-25 21:52:05.83	57.16	11.87	-43.0	-46.1	15.8	0.00e+00	0	37	0	128974848	57	5161
2026-01-25 21:52:06.68	57.31	11.91	-43.0	-46.1	15.8	7.00e-07	0	37	0	130023424	57	5205
2026-01-25 21:52:07.82	57.51	11.95	-42.9	-46.0	15.9	0.00e+00	0	37	0	132120576	57	5119
2026-01-25 21:52:08.67	57.66	11.98	-43.0	-46.0	15.9	0.00e+00	0	37	0	134217728	57	5126
2026-01-25 21:52:09.80	57.85	12.03	-43.0	-46.0	15.9	0.00e+00	0	37	0	136314880	57	5147
2026-01-25 21:52:10.66	58.01	12.06	-42.9	-46.0	15.9	0.00e+00	0	37	0	137363456	57	5119
2026-01-25 21:52:11.80	58.21	12.10	-42.8	-45.8	16.0	0.00e+00	0	37	0	139460608	57	5034
2026-01-25 21:52:12.65	58.36	12.13	-42.8	-45.8	16.1	0.00e+00	0	37	0	141557760	57	4984
2026-01-25 21:52:13.78	58.56	12.17	-42.8	-45.8	16.1	0.00e+00	0	37	0	143654912	57	5032
2026-01-25 21:52:14.70	58.72	12.21	-42.7	-45.6	16.3	0.00e+00	0	37	0	144703488	57	4914
2026-01-25 21:52:15.87	58.93	12.25	-42.7	-45.7	16.3	0.00e+00	0	37	0	147849216	57	4930
2026-01-25 21:52:16.72	59.08	12.28	-42.7	-45.6	16.2	0.00e+00	0	37	0	148897792	57	4925
2026-01-25 21:52:17.86	59.28	12.32	-42.8	-45.7	16.2	0.00e+00	0	37	0	150994944	57	4971
2026-01-25 21:52:18.71	59.44	12.35	-42.8	-45.7	16.2	0.00e+00	0	37	0	153092096	57	4963
2026-01-25 21:52:19.85	59.64	12.39	-42.8	-45.8	16.2	0.00e+00	0	37	0	155189248	57	4986
2026-01-25 21:52:20.70	59.79	12.43	-42.9	-46.0	16.0	0.00e+00	0	37	0	156237824	57	5114
2026-01-25 21:52:21.84	60.00	12.47	-42.8	-45.8	16.1	0.00e+00	0	37	0	158334976	57	5019
2026-01-25 21:52:22.69	60.15	12.50	-42.9	-46.0	16.0	0.00e+00	0	37	0	160432128	57	5111
2026-01-25 21:52:23.82	60.36	12.54	-42.9	-45.9	16.0	0.00e+00	0	37	0	162529280	57	5084
2026-01-25 21:52:24.68	60.52	12.56	-42.9	-45.9	16.0	0.00e+00	0	37	0	163577856	57	5090
2026-01-25 21:52:25.89	60.74	12.61	-42.9	-46.0	16.0	0.00e+00	0	37	0	166723584	57	5122
2026-01-25 21:52:26.75	60.89	12.64	-42.8	-45.8	16.1	0.00e+00	0	37	0	167772160	57	5022
2026-01-25 21:52:27.88	61.10	12.68	-42.7	-45.7	16.3	0.00e+00	0	37	0	169869312	57	4961
2026-01-25 21:52:28.73	61.26	12.70	-42.7	-45.6	16.4	0.00e+00	0	37	0	171966464	57	4910
2026-01-25 21:52:30.00	61.49	12.75	-42.7	-45.7	16.3	0.00e+00	0	37	0	174063616	57	4935
2026-01-25 21:52:30.79	61.64	12.77	-42.6	-45.5	16.5	0.00e+00	0	37	0	175112192	56	5111
2026-01-25 21:52:31.99	61.86	12.81	-42.5	-45.3	16.7	0.00e+00	0	37	0	177209344	56	5016
2026-01-25 21:52:32.84	62.02	12.84	-42.3	-45.1	16.9	0.00e+00	0	37	0	179306496	56	4907
2026-01-25 21:52:34.10	62.25	12.88	-42.2	-44.9	17.0	0.00e+00	0	37	0	181403648	56	4795
2026-01-25 21:52:35.30	62.47	12.92	-41.7	-44.3	17.4	0.00e+00	0	37	0	183500800	55	4759
2026-01-25 21:52:36.16	62.63	12.95	-41.7	-44.4	17.4	0.00e+00	0	37	0	185597952	55	4764
2026-01-25 21:52:37.29	62.85	12.99	-41.5	-44.2	17.6	0.00e+00	0	37	0	187695104	55	4653
2026-01-25 21:52:38.15	63.01	13.01	-41.5	-44.2	17.6	0.00e+00	0	37	0	188743680	54	4930
2026-01-25 21:52:39.28	63.22	13.05	-41.5	-44.1	17.7	0.00e+00	0	37	0	190840832	54	4895
2026-01-25 21:52:40.14	63.38	13.08	-41.6	-44.1	17.6	0.00e+00	0	37	0	192937984	54	4918
2026-01-25 21:52:41.27	63.59	13.11	-41.7	-44.3	17.5	0.00e+00	0	37	0	195035136	54	5023
2026-01-25 21:52:42.13	63.76	13.14	-41.8	-44.5	17.3	0.00e+00	0	37	0	197132288	54	5118
2026-01-25 21:52:43.38	63.99	13.18	-41.9	-44.6	17.2	0.00e+00	0	37	0	199229440	54	5199
2026-01-25 21:52:44.23	64.15	13.20	-41.9	-44.6	17.2	0.00e+00	0	37	0	200278016	54	5209
2026-01-25 21:52:45.37	64.37	13.24	-41.9	-44.6	17.2	0.00e+00	0	37	0	202375168	54	5211
2026-01-25 21:52:46.22	64.53	13.26	-41.9	-44.6	17.2	0.00e+00	0	37	0	204472320	54	5200
2026-01-25 21:52:47.36	64.75	13.29	-41.6	-44.3	17.5	0.00e+00	0	37	0	206569472	54	4999
2026-01-25 21:52:48.21	64.91	13.32	-41.4	-44.0	17.7	0.00e+00	0	37	0	207618048	54	4850
2026-01-25 21:52:49.35	65.13	13.35	-41.2	-43.8	18.0	0.00e+00	0	37	0	209715200	54	4714
2026-01-25 21:52:50.20	65.29	13.38	-41.3	-43.8	18.0	0.00e+00	0	37	0	211812352	54	4730
2026-01-25 21:52:51.34	65.51	13.41	-41.1	-43.5	18.2	0.00e+00	0	37	0	213909504	54	4585
2026-01-25 21:52:52.19	65.68	13.43	-41.2	-43.7	18.0	0.00e+00	0	37	0	216006656	54	4701
2026-01-25 21:52:53.33	65.90	13.47	-41.5	-44.1	17.7	0.00e+00	0	37	0	218103808	54	4889
2026-01-25 21:52:54.40	66.11	13.50	-41.6	-44.2	17.6	0.00e+00	0	37	0	219152384	54	4961
2026-01-25 21:52:55.26	66.27	13.52	-41.7	-44.3	17.5	0.00e+00	0	37	0	221249536	54	5003
2026-01-25 21:52:56.39	66.49	13.55	-41.6	-44.2	17.6	0.00e+00	0	37	0	223346688	54	4952
2026-01-25 21:52:57.25	66.66	13.57	-41.5	-44.0	17.8	0.00e+00	0	37	0	225443840	54	4859
2026-01-25 21:52:58.38	66.88	13.60	-41.2	-43.6	18.1	0.00e+00	0	37	0	227540992	54	4640
2026-01-25 21:52:59.24	67.05	13.63	-41.2	-43.6	18.2	0.00e+00	0	37	0	228589568	54	4630
2026-01-25 21:53:00.38	67.27	13.66	-41.0	-43.5	18.3	0.00e+00	0	37	0	230686720	54	4549
2026-01-25 21:53:01.23	67.44	13.68	-41.3	-43.8	17.9	0.00e+00	0	37	0	232783872	54	4736
2026-01-25 21:53:02.37	67.66	13.71	-41.6	-44.2	17.5	0.00e+00	0	37	0	234881024	54	4967
2026-01-25 21:53:03.22	67.83	13.73	-41.9	-44.6	17.3	0.00e+00	0	37	0	235929600	54	5168
2026-01-25 21:53:04.36	68.05	13.76	-42.0	-44.7	17.1	0.00e+00	0	37	0	238026752	54	5255
2026-01-25 21:53:05.21	68.22	13.78	-42.1	-44.9	16.9	0.00e+00	0	37	0	240123904	55	5060
2026-01-25 21:53:06.35	68.44	13.81	-42.0	-44.7	17.1	0.00e+00	0	37	0	242221056	55	4966
2026-01-25 21:53:07.20	68.61	13.83	-41.7	-44.4	17.4	0.00e+00	0	37	0	243269632	55	4769
2026-01-25 21:53:08.34	68.84	13.85	-41.7	-44.3	17.5	0.00e+00	0	37	0	245366784	55	4717
2026-01-25 21:53:09.19	69.01	13.87	-41.7	-44.4	17.5	0.00e+00	0	37	0	247463936	55	4764
2026-01-25 21:53:10.32	69.23	13.90	-42.0	-44.7	17.1	0.00e+00	0	37	0	249561088	55	4970
2026-01-25 21:53:11.18	69.40	13.92	-42.3	-45.1	16.7	0.00e+00	0	37	0	251658240	55	5190
2026-01-25 21:53:12.31	69.63	13.95	-43.0	-46.1	16.0	0.00e+00	0	37	0	252706816	56	5472
2026-01-25 21:53:13.16	69.80	13.96	-43.4	-46.6	15.5	0.00e+00	0	37	0	254803968	57	5478
2026-01-25 21:53:14.30	70.03	13.99	-43.4	-46.7	15.4	0.00e+00	0	37	0	256901120	57	5550
2026-01-25 21:53:15.15	70.20	14.01	-43.3	-46.5	15.6	0.00e+00	0	37	0	258998272	57	5404
2026-01-25 21:53:16.32	70.43	14.03	-43.0	-46.0	16.0	0.00e+00	0	37	0	261095424	57	5119
2026-01-25 21:53:17.18	70.60	14.05	-42.4	-45.2	16.8	0.00e+00	0	37	0	262144000	56	4967
2026-01-25 21:53:18.37	70.84	14.08	-41.8	-44.5	17.3	0.00e+00	0	37	0	264241152	55	4836
2026-01-25 21:53:19.23	71.02	14.09	-41.8	-44.5	17.3	0.00e+00	0	37	0	266338304	55	4839
2026-01-25 21:53:20.44	71.26	14.12	-41.9	-44.6	17.2	0.00e+00	0	37	0	268435456	55	4897
2026-01-25 21:53:21.29	71.43	14.14	-42.1	-44.8	17.0	0.00e+00	0	37	0	270532608	55	5040
2026-01-25 21:53:22.51	71.68	14.16	-42.4	-45.3	16.5	0.00e+00	0	37	0	272629760	55	5319
2026-01-25 21:53:23.36	71.85	14.18	-42.5	-45.4	16.4	0.00e+00	0	37	0	273678336	55	5396
2026-01-25 21:53:24.50	72.08	14.20	-42.4	-45.3	16.6	0.00e+00	0	37	0	275775488	55	5300
2026-01-25 21:53:25.35	72.26	14.21	-42.3	-45.1	16.7	0.00e+00	0	37	0	277872640	55	5184
2026-01-25 21:53:26.49	72.49	14.23	-42.1	-44.9	17.0	0.00e+00	0	37	0	279969792	55	5047
2026-01-25 21:53:27.40	72.67	14.25	-41.9	-44.6	17.2	0.00e+00	0	37	0	281018368	55	4891
2026-01-25 21:53:28.40	72.88	14.27	-41.8	-44.5	17.4	0.00e+00	0	37	0	283115520	55	4826
2026-01-25 21:53:29.40	73.08	14.29	-41.6	-44.2	17.6	0.00e+00	0	37	0	285212672	55	4656
2026-01-25 21:53:30.39	73.28	14.30	-41.5	-44.1	17.7	0.00e+00	0	37	0	287309824	55	4647
2026-01-25 21:53:31.39	73.49	14.32	-41.7	-44.4	17.4	0.00e+00	0	37	0	289406976	55	4781
2026-01-25 21:53:32.38	73.69	14.34	-41.7	-44.4	17.4	0.00e+00	0	37	0	290455552	55	4778
2026-01-25 21:53:33.38	73.90	14.35	-41.7	-44.3	17.1	0.00e+00	0	37	0	292552704	55	4737
2026-01-25 21:53:34.38	74.10	14.37	-41.6	-44.1	17.7	0.00e+00	0	37	0	294649856	55	4649
2026-01-25 21:53:35.37	74.30	14.38	-41.2	-43.7	18.1	0.00e+00	0	37	0	296747008	54	4686
2026-01-25 21:53:36.37	74.51	14.40	-41.1	-43.6	18.1	0.00e+00	0	37	0	298844160	54	4625
2026-01-25 21:53:37.36	74.71	14.41	-41.1	-43.5	18.3	0.00e+00	0	37	0	299892736	54	4590
2026-01-25 21:53:38.36	74.92	14.43	-41.1	-43.6	18.2	0.00e+00	0	37	0	301989888	54	4616
2026-01-25 21:53:39.35	75.12	14.44	-41.3	-43.9	18.0	0.00e+00	0	37	0	304087040	54	4766
2026-01-25 21:53:40.50	75.36	14.46	-41.6	-44.2	17.6	0.00e+00	0	37	0	306184192	54	4929
2026-01-25 21:53:41.36	75.54	14.47	-41.7	-44.3	17.6	0.00e+00	0	37	0	307232768	54	5000
2026-01-25 21:53:42.50	75.77	14.48	-41.6	-44.2	17.6	0.00e+00	0	37	0	309329920	54	4971
2026-01-25 21:53:43.35	75.95	14.49	-41.5	-44.1	17.7	0.00e+00	0	37	0	311427072	54	4885
2026-01-25 21:53:44.49	76.19	14.51	-41.2	-43.6	18.1	0.00e+00	0	37	0	313524224	54	4642
2026-01-25 21:53:45.34	76.36	14.52	-41.1	-43.5	18.2	0.00e+00	0	37	0	315621376	54	4593
2026-01-25 21:53:46.48	76.60	14.53	-40.8	-43.2	18.5	0.00e+00	0	37	0	317718528	53	4705
2026-01-25 21:53:47.33	76.78	14.54	-40.9	-43.4	18.4	0.00e+00	0	37	0	318767104	53	4765
2026-01-25 21:53:48.47	77.01	14.55	-41.1	-43.6	18.2	0.00e+00	0	37	0	320864256	53	4879
2026-01-25 21:53:49.32	77.19	14.56	-41.4	-43.9	17.9	0.00e+00	0	37	0	322961408	53	5081
2026-01-25 21:53:50.50	77.43	14.58	-41.6	-44.2	17.6	0.00e+00	0	37	0	325058560	53	5235
2026-01-25 21:53:51.36	77.61	14.58	-41.6	-44.2	17.5	0.00e+00	0	37	0	326107136	54	4983
2026-01-25 21:53:52.49	77.85	14.60	-41.7	-44.3	17.5	0.00e+00	0	37	0	328204288	54	5019
2026-01-25 21:53:53.35	78.03	14.60	-41.8	-44.5	17.4	0.00e+00	0	37	0	330301440	54	5104
2026-01-25 21:53:54.49	78.27	14.61	-41.7	-44.3	17.4	0.00e+00	0	37	0	332398592	54	5041
2026-01-25 21:53:55.34	78.44	14.62	-41.6	-44.2	17.6	0.00e+00	0	37	0	333447168	54	4970
2026-01-25 21:53:56.68	78.72	14.63	-41.7	-44.4	17.4	0.00e+00	0	37	0	336592896	54	5096
2026-01-25 21:53:57.40	78.87	14.64	-41.7	-44.3	17.5	0.00e+00	0	37	0	337641472	54	5030
2026-01-25 21:53:58.67	79.14	14.65	-41.6	-44.2	17.6	0.00e+00	0	37	0	339738624	54	4940
2026-01-25 21:53:59.40	79.29	14.65	-41.4	-44.0	17.8	0.00e+00	0	37	0	341835776	54	4856
2026-01-25 21:54:00.68	79.56	14.66	-41.4	-44.0	17.8	0.00e+00	0	37	0	343932928	54	4815
2026-01-25 21:54:01.40	79.71	14.67	-41.3	-43.8	18.0	0.00e+00	0	37	0	344981504	54	4733
2026-01-25 21:54:02.68	79.98	14.67	-41.2	-43.8	18.0	0.00e+00	0	37	0	348127232	54	4717
2026-01-25 21:54:03.50	80.15	14.68	-41.4	-44.0	17.8	0.00e+00	0	37	0	349175808	54	4822
2026-01-25 21:54:04.64	80.39	14.68	-41.6	-44.2	17.6	0.00e+00	0	37	0	351272960	54	4964
2026-01-25 21:54:05.49	80.57	14.69	-41.7	-44.4	17.4	0.00e+00	0	37	0	353370112	54	5075
2026-01-25 21:54:06.63	80.81	14.69	-41.7	-44.4	17.5	0.00e+00	0	37	0	355467264	54	5057
2026-01-25 21:54:07.48	80.99	14.70	-41.6	-44.3	17.5	0.00e+00	0	37	0	356515840	54	5014
2026-01-25 21:54:08.62	81.23	14.70	-41.6	-44.2	17.6	0.00e+00	0	37	0	358612992	54	4980
2026-01-25 21:54:09.79	81.47	14.71	-41.3	-44.0	17.8	0.00e+00	0	37	0	360710144	54	4825
2026-01-25 21:54:10.82	81.69	14.71	-41.1	-43.7	18.0	0.00e+00	0	37	0	362807296	54	4702
2026-01-25 21:54:11.81	81.90	14.71	-41.3	-43.9	17.9	0.00e+00	0	37	0	364904448	54	4796
2026-01-25 21:54:12.81	82.11	14.71	-41.2	-43.8	18.0	0.00e+00	0	37	0	367001600	54	4735
2026-01-25 21:54:13.80	82.31	14.72	-41.3	-43.9	17.8	0.00e+00	0	37	0	368050176	54	4810
2026-01-25 21:54:14.80	82.52	14.72	-41.4	-44.0	17.7	0.00e+00	0	37	0	370147328	54	4860
2026-01-25 21:54:15.79	82.73	14.72	-41.4	-43.9	17.8	0.00e+00	0	37	0	372244480	54	4808
2026-01-25 21:54:16.79	82.94	14.72	-41.3	-43.9	17.9	0.00e+00	0	37	0	374341632	54	4784
2026-01-25 21:54:17.78	83.15	14.72	-41.0	-43.5	18.3	0.00e+00	0	37	0	376438784	54	4586
2026-01-25 21:54:18.78	83.36	14.72	-40.8	-43.3	18.4	0.00e+00	0	37	0	377487360	53	4725
2026-01-25 21:54:19.77	83.57	14.72	-40.8	-43.3	18.5	0.00e+00	0	37	0	379584512	53	4724
2026-01-25 21:54:20.78	83.78	14.72	-40.8	-43.3	18.4	0.00e+00	0	37	0	381681664	53	4747
2026-01-25 21:54:21.78	83.99	14.72	-40.8	-43.3	18.4	0.00e+00	0	37	0	383778816	53	4749
2026-01-25 21:54:22.83	84.21	14.72	-41.1	-43.6	18.1	0.00e+00	0	37	0	385875968	53	4923
2026-01-25 21:54:23.75	84.41	14.72	-41.1	-43.7	18.0	0.00e+00	0	37	0	386924544	53	4968
2026-01-25 21:54:24.74	84.62	14.72	-41.2	-43.8	18.0	0.00e+00	0	37	0	389021696	53	4998
2026-01-25 21:54:25.73	84.82	14.71	-41.0	-43.5	18.3	0.00e+00	0	37	0	391118848	53	4838
2026-01-25 21:54:26.73	85.03	14.71	-40.7	-43.2	18.6	0.00e+00	0	37	0	393216000	53	4656
2026-01-25 21:54:27.72	85.24	14.71	-40.6	-43.0	18.7	0.00e+00	0	37	0	394264576	53	4565
2026-01-25 21:54:28.72	85.45	14.71	-40.6	-43.0	18.7	0.00e+00	0	37	0	396361728	53	4583
2026-01-25 21:54:29.71	85.66	14.70	-40.5	-42.9	18.8	0.00e+00	0	37	0	398458880	53	4512
2026-01-25 21:54:30.71	85.87	14.70	-40.4	-42.7	19.0	0.00e+00	0	37	0	400556032	52	4700
2026-01-25 21:54:31.70	86.08	14.69	-40.4	-42.8	18.9	0.00e+00	0	37	0	401604608	52	4732
2026-01-25 21:54:32.70	86.29	14.69	-40.5	-42.9	18.8	0.00e+00	0	37	0	403701760	52	4788
2026-01-25 21:54:33.69	86.50	14.68	-40.6	-43.0	18.7	0.00e+00	0	37	0	405798912	52	4841
2026-01-25 21:54:34.75	86.72	14.68	-40.8	-43.3	18.5	0.00e+00	0	37	0	407896064	52	4991
2026-01-25 21:54:35.63	86.90	14.67	-40.8	-43.3	18.5	0.00e+00	0	37	0	409993216	52	5001
2026-01-25 21:54:36.77	87.14	14.67	-40.9	-43.3	18.5	0.00e+00	0	37	0	412090368	52	5036
2026-01-25 21:54:37.62	87.32	14.66	-40.9	-43.4	18.4	0.00e+00	0	37	0	413138944	52	5047
2026-01-25 21:54:38.76	87.56	14.65	-40.9	-43.4	18.4	0.00e+00	0	37	0	415236096	52	5069
2026-01-25 21:54:39.62	87.74	14.65	-40.9	-43.4	18.4	0.00e+00	0	37	0	417333248	52	5049
2026-01-25 21:54:40.75	87.98	14.64	-40.9	-43.3	18.4	0.00e+00	0	37	0	419430400	52	5038
2026-01-25 21:54:41.60	88.15	14.63	-40.9	-43.3	18.4	0.00e+00	0	37	0	420478976	52	5029
2026-01-25 21:54:42.74	88.39	14.62	-40.9	-43.4	18.4	0.00e+00	0	37	0	422576128	52	5053
2026-01-25 21:54:43.88	88.63	14.61	-41.0	-43.5	18.2	0.00e+00	0	37	0	424673280	52	5149
2026-01-25 21:54:44.73	88.81	14.60	-41.1	-43.6	18.2	0.00e+00	0	37	0	426770432	52	5190
2026-01-25 21:54:45.87	89.05	14.59	-41.1	-43.6	18.2	0.00e+00	0	37	0	428867584	52	5191
2026-01-25 21:54:46.72	89.22	14.59	-41.1	-43.6	18.1	0.00e+00	0	37	0	429916160	52	5213
2026-01-25 21:54:47.86	89.46	14.57	-41.3	-43.9	17.9	0.00e+00	0	37	0	432013312	53	5048
2026-01-25 21:54:48.71	89.64	14.57	-41.3	-43.9	17.9	0.00e+00	0	37	0	434110464	53	5064
2026-01-25 21:54:49.85	89.88	14.55	-41.3	-43.9	17.9	0.00e+00	0	37	0	436207616	53	5065
2026-01-25 21:54:50.70	90.05	14.54	-41.4	-43.9	17.9	0.00e+00	0	37	0	437256192	53	5089
2026-01-25 21:54:51.92	90.31	14.53	-41.5	-44.1	17.7	0.00e+00	0	37	0	440401920	53	5169
2026-01-25 21:54:52.77	90.48	14.52	-41.4	-44.0	17.8	0.00e+00	0	37	0	441450496	53	5144
2026-01-25 21:54:53.97	90.73	14.51	-41.2	-43.7	18.1	0.00e+00	0	37	0	443547648	53	4933
2026-01-25 21:54:54.82	90.91	14.49	-41.2	-43.7	18.0	0.00e+00	0	37	0	445644800	53	4978
2026-01-25 21:54:55.96	91.14	14.48	-41.1	-43.6	18.2	0.00e+00	0	37	0	447741952	53	4887
2026-01-25 21:54:56.81	91.32	14.47	-41.0	-43.5	18.3	0.00e+00	0	37	0	448790528	53	4827
2026-01-25 21:54:57.95	91.56	14.45	-40.8	-43.3	18.5	0.00e+00	0	37	0	450887680	53	4713
2026-01-25 21:54:58.80	91.73	14.44	-40.6	-43.0	18.7	0.00e+00	0	37	0	452984832	53	4574
2026-01-25 21:54:59.94	91.97	14.43	-40.6	-42.9	18.8	0.00e+00	0	37	0	455081984	53	4522
2026-01-25 21:55:00.79	92.14	14.41	-40.4	-42.7	19.0	0.00e+00	0	37	0	457179136	52	4658
2026-01-25 21:55:01.92	92.38	14.40	-40.5	-42.9	18.9	0.00e+00	0	37	0	459276288	52	4766
2026-01-25 21:55:02.78	92.55	14.38	-40.2	-42.4	19.2	0.00e+00	0	37	0	460324864	52	4535
2026-01-25 21:55:03.91	92.79	14.37	-40.2	-42.4	19.2	0.00e+00	0	37	0	462422016	52	4543
2026-01-25 21:55:04.76	92.96	14.35	-40.3	-42.6	19.1	0.00e+00	0	37	0	464519168	52	4602
2026-01-25 21:55:05.90	93.19	14.33	-40.3	-42.6	19.1	0.00e+00	0	37	0	466616320	52	4608
2026-01-25 21:55:06.75	93.37	14.32	-40.4	-42.7	18.9	0.00e+00	0	37	0	467664896	52	4667
2026-01-25 21:55:07.89	93.60	14.30	-40.3	-42.5	19.1	0.00e+00	0	37	0	469762048	52	4587
2026-01-25 21:55:08.74	93.78	14.29	-40.2	-42.4	19.2	0.00e+00	0	37	0	471859200	52	4523
2026-01-25 21:55:10.00	94.03	14.26	-40.1	-42.3	19.3	0.00e+00	0	37	0	473956352	52	4468
2026-01-25 21:55:10.79	94.20	14.25	-40.2	-42.4	19.3	0.00e+00	0	37	0	475004928	51	4797
2026-01-25 21:55:11.98	94.44	14.23	-40.2	-42.4	19.3	0.00e+00	0	37	0	478150656	51	4811
2026-01-25 21:55:12.83	94.61	14.21	-40.3	-42.6	19.1	0.00e+00	0	37	0	479199232	51	4917
2026-01-25 21:55:14.08	94.87	14.19	-40.4	-42.7	19.0	0.00e+00	0	37	0	481296384	51	4945
2026-01-25 21:55:14.93	95.04	14.17	-40.6	-42.9	18.9	0.00e+00	0	37	0	483393536	51	5053
2026-01-25 21:55:16.13	95.28	14.15	-40.7	-43.0	18.7	0.00e+00	0	37	0	485490688	52	4841
2026-01-25 21:55:17.39	95.54	14.12	-40.7	-43.1	18.6	0.00e+00	0	37	0	487587840	52	4885
2026-01-25 21:55:18.37	95.74	14.10	-40.7	-43.1	18.6	0.00e+00	0	37	0	489684992	52	4894
2026-01-25 21:55:19.36	95.94	14.08	-40.6	-43.0	18.7	0.00e+00	0	37	0	491782144	52	4817
2026-01-25 21:55:20.36	96.14	14.06	-40.8	-43.2	18.5	0.00e+00	0	37	0	492830720	52	4943
2026-01-25 21:55:21.35	96.34	14.04	-40.7	-43.1	18.6	0.00e+00	0	37	0	494927872	52	4902
2026-01-25 21:55:22.34	96.54	14.02	-40.8	-43.3	18.5	0.00e+00	0	37	0	497025024	52	4986
2026-01-25 21:55:23.34	96.74	14.00	-40.8	-43.1	18.5	0.00e+00	0	37	0	499122176	52	4926
2026-01-25 21:55:24.33	96.94	13.98	-40.7	-43.1	18.6	0.00e+00	0	37	0	501219328	52	4908
2026-01-25 21:55:25.33	97.14	13.96	-40.7	-43.0	18.7	0.00e+00	0	37	0	502267904	52	4850
2026-01-25 21:55:26.32	97.33	13.93	-40.5	-42.8	18.9	0.00e+00	0	37	0	504365056	52	4739
2026-01-25 21:55:27.32	97.53	13.91	-40.5	-42.8	18.8	0.00e+00	0	37	0	506462208	52	4750
2026-01-25 21:55:28.31	97.73	13.89	-40.3	-42.6	19.1	0.00e+00	0	37	0	508559360	52	4605
2026-01-25 21:55:29.31	97.93	13.86	-40.1	-42.4	19.3	0.00e+00	0	37	0	509607936	52	4510
2026-01-25 21:55:30.38	98.14	13.84	-40.1	-42.3	19.3	0.00e+00	0	37	0	511705088	52	4479
2026-01-25 21:55:31.24	98.32	13.82	-40.0	-42.2	19.5	0.00e+00	0	37	0	513802240	51	4681
2026-01-25 21:55:32.58	98.58	13.78	-39.9	-42.1	19.6	0.00e+00	0	37	0	515899392	51	4624
2026-01-25 21:55:33.29	98.72	13.77	-39.8	-42.0	19.7	0.00e+00	0	37	0	517996544	51	4563
2026-01-25 21:55:34.78	99.02	13.73	-39.8	-41.9	19.7	0.00e+00	0	37	0	520093696	51	4520
2026-01-25 21:55:35.50	99.16	13.71	-39.8	-42.0	19.7	0.00e+00	0	37	0	522190848	51	4552
2026-01-25 21:55:36.78	99.41	13.68	-39.9	-42.1	19.6	0.00e+00	0	37	0	524288000	51	4602
2026-01-25 21:55:37.49	99.55	13.66	-40.0	-42.2	19.5	0.00e+00	0	37	0	525336576	51	4664
2026-01-25 21:55:38.77	99.80	13.63	-40.1	-42.3	19.4	0.00e+00	0	37	0	527433728	51	4728
2026-01-25 21:55:39.50	99.94	13.61	-40.0	-42.3	19.5	0.00e+00	0	37	0	529530880	51	4706
2026-01-25 21:55:40.77	100.19	13.57	-40.0	-42.2	19.5	0.00e+00	0	37	0	531628032	51	4679
2026-01-25 21:55:41.50	100.33	13.55	-40.1	-42.4	19.3	0.00e+00	0	37	0	532676608	51	4779
2026-01-25 21:55:42.78	100.58	13.52	-40.0	-42.2	19.5	0.00e+00	0	37	0	535822336	51	4698
2026-01-25 21:55:43.49	100.72	13.50	-40.2	-42.4	19.2	0.00e+00	0	37	0	536870912	51	4807
2026-01-25 21:55:44.77	100.97	13.46	-40.4	-42.7	19.0	0.00e+00	0	37	0	538968064	51	4954
2026-01-25 21:55:45.51	101.11	13.44	-40.5	-42.8	18.9	0.00e+00	0	37	0	540016640	51	5013
2026-01-25 21:55:46.79	101.36	13.41	-40.5	-42.9	18.8	0.00e+00	0	37	0	543162368	51	5053
2026-01-25 21:55:47.51	101.50	13.39	-40.5	-42.8	18.9	0.00e+00	0	37	0	544210944	51	5013
2026-01-25 21:55:48.79	101.75	13.35	-40.4	-42.7	19.0	0.00e+00	0	37	0	546308096	51	4949
2026-01-25 21:55:49.50	101.88	13.33	-40.4	-42.7	19.0	0.00e+00	0	37	0	548405248	51	4928
2026-01-25 21:55:50.78	102.13	13.29	-40.4	-42.7	19.0	0.00e+00	0	37	0	550502400	51	4951
2026-01-25 21:55:51.49	102.27	13.27	-40.5	-42.8	18.9	0.00e+00	0	37	0	551550976	51	5010
2026-01-25 21:55:52.77	102.51	13.23	-40.6	-43.0	18.8	0.00e+00	0	37	0	553648128	51	5104
2026-01-25 21:55:53.48	102.65	13.21	-40.6	-43.0	18.8	0.00e+00	0	37	0	555745280	51	5119
2026-01-25 21:55:54.76	102.89	13.17	-40.5	-42.9	18.8	0.00e+00	0	37	0	557842432	52	4769
2026-01-25 21:55:55.47	103.03	13.15	-40.5	-42.8	18.8	0.00e+00	0	37	0	558891008	52	4757
2026-01-25 21:55:56.75	103.27	13.11	-40.3	-42.6	19.0	0.00e+00	0	37	0	562036736	52	4631
2026-01-25 21:55:57.46	103.40	13.09	-40.2	-42.5	19.1	0.00e+00	0	37	0	563085312	52	4566
2026-01-25 21:55:58.74	103.64	13.05	-40.2	-42.5	19.1	0.00e+00	0	37	0	565182464	52	4582
2026-01-25 21:55:59.45	103.78	13.02	-40.3	-42.6	19.0	0.00e+00	0	37	0	566231040	52	4617
2026-01-25 21:56:00.73	104.02	12.98	-40.3	-42.6	19.0	0.00e+00	0	37	0	569376768	52	4632
2026-01-25 21:56:01.45	104.15	12.96	-40.5	-42.9	18.7	0.00e+00	0	37	0	570425344	52	4774
2026-01-25 21:56:02.72	104.39	12.92	-40.6	-43.0	18.6	0.00e+00	0	37	0	572522496	52	4839
2026-01-25 21:56:03.44	104.53	12.89	-40.8	-43.2	18.5	0.00e+00	0	37	0	574619648	52	4940
2026-01-25 21:56:04.71	104.76	12.85	-40.9	-43.3	18.4	0.00e+00	0	37	0	576716800	52	4997
2026-01-25 21:56:05.58	104.93	12.82	-41.0	-43.4	18.2	0.00e+00	0	37	0	577765376	52	5092
2026-01-25 21:56:06.72	105.14	12.79	-41.2	-43.7	18.0	0.00e+00	0	37	0	579862528	52	5219
2026-01-25 21:56:07.74	105.33	12.75	-41.1	-43.6	18.1	0.00e+00	0	37	0	581959680	53	4907
2026-01-25 21:56:08.74	105.51	12.72	-41.3	-43.8	17.9	0.00e+00	0	37	0	584056832	53	5014
2026-01-25 21:56:09.96	105.74	12.68	-41.3	-43.9	17.9	0.00e+00	0	37	0	586153984	53	5053
2026-01-25 21:56:10.84	105.90	12.65	-41.5	-44.0	17.7	0.00e+00	0	37	0	588251136	53	5142
2026-01-25 21:56:11.98	106.11	12.61	-41.4	-43.9	17.7	0.00e+00	0	37	0	590348288	53	5099
2026-01-25 21:56:12.83	106.26	12.58	-41.4	-43.9	17.9	0.00e+00	0	37	0	591396864	53	5070
2026-01-25 21:56:13.97	106.47	12.54	-41.5	-44.1	17.6	0.00e+00	0	37	0	593494016	53	5176
2026-01-25 21:56:14.82	106.63	12.51	-41.6	-44.3	17.5	0.00e+00	0	37	0	595591168	53	5293
2026-01-25 21:56:15.96	106.84	12.47	-42.0	-44.7	17.0	0.00e+00	0	37	0	597688320	54	5261
2026-01-25 21:56:16.81	106.99	12.44	-42.0	-44.8	17.0	0.00e+00	0	37	0	598736896	54	5294
2026-01-25 21:56:17.95	107.20	12.40	-42.1	-45.0	16.8	0.00e+00	0	37	0	600834048	54	5403
2026-01-25 21:56:18.80	107.35	12.37	-42.1	-44.9	16.8	0.00e+00	0	37	0	602931200	54	5395
2026-01-25 21:56:19.94	107.56	12.32	-42.1	-44.9	16.9	0.00e+00	0	37	0	605028352	55	5058
2026-01-25 21:56:20.79	107.71	12.29	-42.2	-45.0	16.7	0.00e+00	0	37	0	607125504	55	5142
2026-01-25 21:56:21.92	107.91	12.25	-42.3	-45.1	16.7	0.00e+00	0	37	0	609222656	55	5179
2026-01-25 21:56:22.78	108.06	12.22	-42.3	-45.2	16.6	0.00e+00	0	37	0	610271232	55	5245
2026-01-25 21:56:23.99	108.28	12.18	-42.5	-45.4	16.4	0.00e+00	0	38	0	612368384	55	5381
2026-01-25 21:56:24.85	108.43	12.14	-42.8	-45.8	16.1	0.00e+00	0	37	0	614465536	56	5331
2026-01-25 21:56:25.98	108.63	12.10	-43.0	-46.1	15.7	0.00e+00	0	37	0	616562688	56	5504
2026-01-25 21:56:26.84	108.79	12.07	-42.8	-45.7	16.2	0.00e+00	0	37	0	617611264	56	5273
2026-01-25 21:56:27.97	108.99	12.03	-42.6	-45.5	16.5	0.00e+00	0	37	0	619708416	56	5106
2026-01-25 21:56:28.83	109.14	11.99	-42.4	-45.2	16.7	0.00e+00	0	37	0	621805568	56	4956
2026-01-25 21:56:29.96	109.34	11.95	-42.1	-44.7	17.1	0.00e+00	0	37	0	623902720	56	4694
2026-01-25 21:56:30.82	109.49	11.92	-41.7	-44.3	17.4	0.00e+00	0	37	0	625999872	55	4715
2026-01-25 21:56:31.96	109.69	11.87	-41.6	-44.2	17.5	0.00e+00	0	37	0	627048448	55	4677
2026-01-25 21:56:32.81	109.84	11.84	-41.6	-44.1	17.5	0.00e+00	0	37	0	629145600	55	4647
2026-01-25 21:56:33.95	110.03	11.80	-41.8	-44.4	17.3	0.00e+00	0	37	0	631242752	55	4786
2026-01-25 21:56:34.80	110.18	11.76	-42.1	-44.8	16.9	0.00e+00	0	37	0	633339904	55	5003
2026-01-25 21:56:35.94	110.38	11.72	-42.3	-45.1	16.6	0.00e+00	0	37	0	635437056	55	5192
2026-01-25 21:56:36.79	110.53	11.68	-42.4	-45.2	16.5	0.00e+00	0	37	0	636485632	55	5278
2026-01-25 21:56:37.93	110.72	11.64	-42.9	-45.9	16.0	0.00e+00	0	37	0	638582784	56	5383
2026-01-25 21:56:38.78	110.87	11.61	-42.9	-45.9	15.9	0.00e+00	0	37	0	640679936	56	5394
2026-01-25 21:56:40.01	111.08	11.56	-43.1	-46.2	15.7	0.00e+00	0	37	0	642777088	57	5259
2026-01-25 21:56:40.86	111.23	11.52	-43.2	-46.3	15.5	0.00e+00	0	37	0	643825664	57	5316
2026-01-25 21:56:42.00	111.42	11.48	-43.3	-46.5	15.4	0.00e+00	0	37	0	645922816	57	5460
2026-01-25 21:56:42.85	111.56	11.44	-43.4	-46.7	15.3	0.00e+00	0	37	0	648019968	57	5539
2026-01-25 21:56:43.99	111.76	11.40	-43.3	-46.5	15.4	0.00e+00	0	37	0	650117120	57	5457
2026-01-25 21:56:44.84	111.90	11.36	-43.2	-46.4	15.5	0.00e+00	0	37	0	652214272	57	5371
2026-01-25 21:56:45.98	112.09	11.31	-43.2	-46.3	15.5	0.00e+00	0	37	0	654311424	57	5334
2026-01-25 21:56:46.83	112.24	11.28	-42.9	-46.0	15.9	0.00e+00	0	37	0	655360000	57	5109
2026-01-25 21:56:47.96	112.43	11.23	-42.5	-45.5	16.4	0.00e+00	0	37	0	657457152	57	4819
2026-01-25 21:56:48.82	112.57	11.20	-42.4	-45.2	16.6	0.00e+00	0	37	0	659554304	56	4963
2026-01-25 21:56:49.95	112.76	11.15	-42.3	-45.2	16.7	0.00e+00	0	37	0	661651456	56	4949
2026-01-25 21:56:50.80	112.90	11.12	-42.4	-45.2	16.6	0.00e+00	0	37	0	662700032	56	4968
2026-01-25 21:56:51.94	113.09	11.07	-42.4	-45.2	16.7	0.00e+00	0	37	0	664797184	56	4966
2026-01-25 21:56:52.79	113.23	11.03	-42.6	-45.5	16.4	0.00e+00	0	37	0	666894336	56	5141
2026-01-25 21:56:53.93	113.42	10.98	-42.6	-45.4	16.4	0.00e+00	0	37	0	668991488	56	5099
2026-01-25 21:56:54.78	113.56	10.95	-42.7	-45.7	16.2	0.00e+00	0	37	0	670040064	56	5227
2026-01-25 21:56:55.92	113.75	10.90	-42.6	-45.5	16.3	0.00e+00	0	37	0	672137216	56	5137
2026-01-25 21:56:56.77	113.89	10.86	-42.4	-45.2	16.6	0.00e+00	0	38	0	674234368	56	4956
2026-01-25 21:56:58.11	114.10	10.81	-42.4	-45.3	16.5	0.00e+00	0	38	0	676331520	56	5002
2026-01-25 21:56:58.82	114.22	10.78	-42.2	-45.0	16.8	0.00e+00	0	37	0	678428672	56	4850
2026-01-25 21:57:00.10	114.43	10.72	-42.2	-44.9	16.9	0.00e+00	0	37	0	680525824	56	4800
2026-01-25 21:57:00.83	114.55	10.69	-42.2	-45.0	16.8	0.00e+00	0	37	0	681574400	56	4843
2026-01-25 21:57:02.11	114.75	10.64	-42.3	-45.1	16.7	0.00e+00	0	37	0	683671552	56	4894
2026-01-25 21:57:02.82	114.87	10.61	-42.4	-45.2	16.6	0.00e+00	0	37	0	685768704	56	4970
2026-01-25 21:57:04.10	115.07	10.55	-42.6	-45.6	16.2	0.00e+00	0	37	0	687865856	56	5182
2026-01-25 21:57:04.84	115.19	10.52	-42.9	-45.9	15.9	0.00e+00	0	37	0	688914432	56	5376
2026-01-25 21:57:06.11	115.39	10.46	-43.0	-46.1	15.8	0.00e+00	0	38	0	692060160	56	5482
2026-01-25 21:57:07.00	115.53	10.42	-43.0	-46.2	15.6	0.00e+00	0	37	0	693108736	56	5540
2026-01-25 21:57:08.14	115.71	10.37	-42.9	-46.0	15.8	0.00e+00	0	37	0	695205888	56	5446
2026-01-25 21:57:09.19	115.88	10.33	-42.9	-46.0	15.8	0.00e+00	0	37	0	697303040	56	5443
2026-01-25 21:57:10.27	116.05	10.28	-43.0	-46.1	15.6	0.00e+00	0	37	0	699400192	56	5522
2026-01-25 21:57:11.12	116.18	10.24	-42.9	-45.9	15.9	0.00e+00	0	37	0	701497344	56	5386
2026-01-25 21:57:12.26	116.36	10.19	-43.0	-46.1	15.7	0.00e+00	0	37	0	703594496	56	5485
2026-01-25 21:57:13.11	116.50	10.15	-42.8	-45.8	15.9	0.00e+00	0	37	0	704643072	56	5327
2026-01-25 21:57:14.25	116.67	10.10	-42.5	-45.4	16.4	0.00e+00	0	38	0	706740224	56	5075
2026-01-25 21:57:15.10	116.81	10.06	-42.4	-45.3	16.5	0.00e+00	0	37	0	708837376	56	5016
2026-01-25 21:57:16.24	116.98	10.01	-42.3	-45.2	16.6	0.00e+00	0	37	0	710934528	56	4935
2026-01-25 21:57:17.09	117.11	9.98	-42.3	-45.2	16.6	0.00e+00	0	37	0	711983104	56	4957
2026-01-25 21:57:18.22	117.29	9.93	-42.2	-45.1	16.7	0.00e+00	0	37	0	714080256	56	4877
2026-01-25 21:57:19.08	117.42	9.89	-42.1	-44.9	16.8	0.00e+00	0	37	0	716177408	56	4797
2026-01-25 21:57:20.33	117.61	9.83	-42.2	-45.1	16.7	0.00e+00	0	37	0	718274560	56	4887
2026-01-25 21:57:21.18	117.74	9.79	-42.2	-45.0	16.7	0.00e+00	0	37	0	720371712	56	4864
2026-01-25 21:57:22.32	117.91	9.74	-42.1	-45.0	16.8	0.00e+00	0	37	0	722468864	56	4815
2026-01-25 21:57:23.17	118.04	9.70	-42.1	-45.0	16.8	0.00e+00	0	37	0	723517440	56	4816
2026-01-25 21:57:24.31	118.21	9.65	-42.0	-44.8	16.9	0.00e+00	0	38	0	725614592	56	4715
2026-01-25 21:57:25.21	118.35	9.61	-42.1	-44.9	16.8	0.00e+00	0	37	0	727711744	56	4791
2026-01-25 21:57:26.48	118.54	9.55	-42.1	-44.9	16.9	0.00e+00	0	37	0	729808896	56	4771
2026-01-25 21:57:27.20	118.65	9.52	-42.2	-44.9	16.7	0.00e+00	0	37	0	730857472	56	4808
2026-01-25 21:57:28.47	118.84	9.46	-42.0	-44.8	16.9	0.00e+00	0	37	0	734003200	56	4714
2026-01-25 21:57:29.20	118.95	9.43	-42.1	-44.9	16.8	0.00e+00	0	37	0	735051776	56	4786
2026-01-25 21:57:30.76	119.18	9.35	-41.8	-44.5	17.0	0.00e+00	0	37	0	738197504	55	4867
2026-01-25 21:57:31.39	119.27	9.32	-41.7	-44.3	17.2	0.00e+00	0	37	0	739246080	55	4758
2026-01-25 21:57:32.89	119.49	9.26	-41.7	-44.4	17.1	0.00e+00	0	37	0	741343232	55	4768
2026-01-25 21:57:33.60	119.60	9.22	-41.5	-44.2	17.3	0.00e+00	0	37	0	743440384	55	4675
2026-01-25 21:57:34.89	119.79	9.16	-41.8	-44.6	16.9	0.00e+00	0	38	0	745537536	55	4883
2026-01-25 21:57:35.60	119.89	9.13	-41.8	-44.5	16.9	0.00e+00	0	37	0	746586112	55	4861
2026-01-25 21:57:36.87	120.07	9.07	-41.8	-44.6	16.9	0.00e+00	0	37	0	749731840	55	4899
2026-01-25 21:57:37.59	120.18	9.04	-42.0	-44.8	16.6	0.00e+00	0	38	0	750780416	55	5030
2026-01-25 21:57:38.86	120.36	8.98	-47.1	-56.2	6.4	4.87e-03	0	37	0	752877568	64	11067
2026-01-25 21:57:39.59	120.47	8.94	-47.9	-63.0	3.8	1.26e+00	0	37	104	752877568	66	21598
2026-01-25 21:57:40.87	120.65	8.88	-48.2	-63.4	3.8	1.49e+00	0	37	104	752877568	67	21394
2026-01-25 21:57:41.59	120.75	8.85	-48.1	-63.5	3.8	1.49e+00	0	38	104	752877568	67	21579
2026-01-25 21:57:42.87	120.94	8.79	-48.3	-63.5	3.8	1.49e+00	0	37	104	752877568	67	21699
2026-01-25 21:57:43.58	121.04	8.76	-48.4	-63.5	3.8	1.49e+00	0	37	104	752877568	67	21703
2026-01-25 21:57:44.87	121.22	8.70	-48.4	-63.6	3.8	1.49e+00	0	37	104	752877568	67	21927
2026-01-25 21:57:45.58	121.32	8.66	-48.5	-63.7	3.8	1.49e+00	0	37	104	752877568	67	22020
2026-01-25 21:57:46.86	121.50	8.60	-48.3	-63.7	3.8	1.49e+00	0	37	104	752877568	67	22067
2026-01-25 21:57:47.58	121.60	8.57	-48.3	-63.7	3.8	1.49e+00	0	37	104	752877568	67	22135
2026-01-25 21:57:48.86	121.78	8.51	-48.2	-63.7	3.8	1.49e+00	0	38	104	752877568	67	22221
2026-01-25 21:57:49.58	121.88	8.47	-48.1	-63.7	3.8	1.49e+00	0	38	104	752877568	67	22202
2026-01-25 21:57:50.86	122.06	8.41	-48.2	-63.7	3.8	1.49e+00	0	37	104	752877568	67	22193
2026-01-25 21:57:51.57	122.16	8.38	-48.0	-63.7	3.8	1.49e+00	0	37	104	752877568	67	22251
2026-01-25 21:57:52.85	122.34	8.32	-48.1	-63.8	3.8	1.49e+00	0	38	104	752877568	67	22349
2026-01-25 21:57:53.56	122.44	8.28	-48.3	-63.8	3.8	1.49e+00	0	37	104	752877568	67	22350
2026-01-25 21:57:54.83	122.61	8.22	-48.2	-63.8	3.8	1.49e+00	0	38	104	752877568	67	22358
2026-01-25 21:57:55.54	122.71	8.19	-48.1	-63.8	3.8	1.49e+00	0	38	104	752877568	67	22392
2026-01-25 21:57:56.82	122.88	8.13	-48.2	-63.8	3.8	1.49e+00	0	37	104	752877568	67	22355
2026-01-25 21:57:57.53	122.98	8.09	-48.2	-63.8	3.8	1.49e+00	0	38	104	752877568	67	22419
2026-01-25 21:57:58.81	123.15	8.03	-48.2	-63.8	3.8	1.49e+00	0	38	104	752877568	67	22346
2026-01-25 21:57:59.53	123.25	8.00	-48.4	-63.8	3.8	1.49e+00	0	38	104	752877568	67	22365
2026-01-25 21:58:00.81	123.42	7.94	-48.3	-63.7	3.8	1.49e+00	0	37	104	752877568	67	22249
2026-01-25 21:58:01.52	123.52	7.90	-48.3	-63.7	3.8	1.49e+00	0	38	104	752877568	67	22180
2026-01-25 21:58:02.80	123.69	7.84	-48.3	-63.7	3.8	1.49e+00	0	38	104	752877568	67	22139
2026-01-25 21:58:03.51	123.79	7.81	-48.3	-63.7	3.8	1.49e+00	0	37	104	752877568	67	22099
2026-01-25 21:58:04.79	123.96	7.75	-48.3	-63.7	3.8	1.49e+00	0	38	104	752877568	67	22130
2026-01-25 21:58:05.50	124.05	7.71	-48.3	-63.7	3.8	1.49e+00	0	38	104	752877568	67	22197
2026-01-25 21:58:06.79	124.22	7.65	-48.3	-63.7	3.8	1.49e+00	0	38	104	752877568	67	22144
2026-01-25 21:58:07.50	124.32	7.62	-48.3	-63.7	3.8	1.49e+00	0	37	104	752877568	67	22172
2026-01-25 21:58:08.77	124.48	7.55	-48.3	-63.7	3.8	1.49e+00	0	38	104	752877568	67	22157
2026-01-25 21:58:09.48	124.58	7.52	-48.3	-63.7	3.8	1.49e+00	0	38	104	752877568	67	22129
2026-01-25 21:58:10.76	124.74	7.46	-48.3	-63.7	3.8	1.49e+00	0	37	104	752877568	67	22121
2026-01-25 21:58:11.47	124.84	7.42	-48.3	-63.7	3.8	1.49e+00	0	38	104	752877568	67	22108
2026-01-25 21:58:12.75	125.00	7.36	-48.3	-63.7	3.8	1.49e+00	0	38	104	752877568	67	22147
2026-01-25 21:58:13.46	125.09	7.33	-48.3	-63.7	3.8	1.49e+00	0	38	104	752877568	67	22098
2026-01-25 21:58:14.74	125.26	7.27	-48.3	-63.7	3.8	1.49e+00	0	37	104	752877568	67	22124
2026-01-25 21:58:15.46	125.35	7.23	-48.3	-63.7	3.8	1.49e+00	0	38	104	752877568	67	22104
2026-01-25 21:58:16.74	125.52	7.17	-48.3	-63.7	3.8	1.49e+00	0	37	104	752877568	67	22061
2026-01-25 21:58:17.46	125.61	7.13	-48.3	-63.7	3.8	1.49e+00	0	38	104	752877568	67	22042
2026-01-25 21:58:18.74	125.77	7.07	-48.3	-63.7	3.8	1.49e+00	0	38	104	752877568	67	22049
2026-01-25 21:58:19.45	125.86	7.04	-48.3	-63.6	3.8	1.49e+00	0	37	104	752877568	67	21997
2026-01-25 21:58:20.73	126.02	6.97	-48.3	-63.7	3.8	1.49e+00	0	38	104	752877568	67	22160
2026-01-25 21:58:21.44	126.11	6.94	-48.3	-63.7	3.8	1.49e+00	0	37	104	752877568	67	22026
2026-01-25 21:58:22.71	126.27	6.88	-48.3	-63.7	3.8	1.49e+00	0	38	104	752877568	67	22078
2026-01-25 21:58:23.44	126.36	6.84	-48.3	-63.7	3.8	1.49e+00	0	38	104	752877568	67	22057
2026-01-25 21:58:24.71	126.52	6.78	-48.3	-63.7	3.8	1.49e+00	0	38	104	752877568	67	22045
2026-01-25 21:58:25.44	126.61	6.75	-48.3	-63.7	3.8	1.49e+00	0	38	104	752877568	67	22016
2026-01-25 21:58:26.72	126.77	6.68	-48.3	-63.6	3.8	1.49e+00	0	38	104	752877568	67	21982
2026-01-25 21:58:27.42	126.86	6.65	-48.3	-63.6	3.8	1.49e+00	0	38	104	752877568	67	21985
2026-01-25 21:58:28.70	127.02	6.59	-48.3	-63.6	3.8	1.49e+00	0	38	104	752877568	67	21961
2026-01-25 21:58:29.43	127.11	6.55	-48.2	-63.7	3.8	1.49e+00	0	38	104	752877568	67	22011
2026-01-25 21:58:30.70	127.26	6.49	-48.2	-63.6	3.8	1.49e+00	0	38	104	752877568	67	21946
2026-01-25 21:58:31.41	127.35	6.45	-48.2	-63.6	3.8	1.49e+00	0	37	104	752877568	67	22003
2026-01-25 21:58:32.69	127.51	6.39	-48.3	-63.6	3.8	1.49e+00	0	38	104	752877568	67	21963
2026-01-25 21:58:33.41	127.59	6.36	-48.3	-63.6	3.8	1.49e+00	0	38	104	752877568	67	21994
2026-01-25 21:58:34.69	127.75	6.29	-48.2	-63.6	3.8	1.49e+00	0	37	104	752877568	67	21979
2026-01-25 21:58:35.40	127.83	6.26	-48.2	-63.6	3.8	1.49e+00	0	37	104	752877568	67	22001
2026-01-25 21:58:36.68	127.99	6.20	-48.2	-63.6	3.8	1.49e+00	0	38	104	752877568	67	21970
2026-01-25 21:58:37.39	128.07	6.16	-48.2	-63.6	3.8	1.49e+00	0	38	104	752877568	67	21951
2026-01-25 21:58:38.66	128.22	6.10	-48.2	-63.6	3.8	1.49e+00	0	38	104	752877568	67	22003
2026-01-25 21:58:39.37	128.31	6.06	-48.2	-63.6	3.8	1.49e+00	0	38	104	752877568	67	21967
2026-01-25 21:58:40.66	128.46	6.00	-48.2	-63.6	3.8	1.49e+00	0	38	104	752877568	67	21954
2026-01-25 21:58:41.37	128.55	5.97	-48.2	-63.6	3.8	1.49e+00	0	38	104	752877568	67	21889
2026-01-25 21:58:42.65	128.70	5.90	-48.2	-63.6	3.8	1.49e+00	0	38	104	752877568	67	21929
2026-01-25 21:58:43.36	128.78	5.87	-48.2	-63.6	3.8	1.49e+00	0	38	104	752877568	67	22001
2026-01-25 21:58:44.64	128.93	5.81	-48.2	-63.7	3.8	1.49e+00	0	38	104	752877568	67	22014
2026-01-25 21:58:45.35	129.01	5.77	-48.2	-63.6	3.8	1.49e+00	0	38	104	752877568	67	21956
2026-01-25 21:58:46.62	129.16	5.71	-48.2	-63.6	3.8	1.49e+00	0	38	104	752877568	67	21931
2026-01-25 21:58:47.33	129.24	5.67	-48.2	-63.6	3.8	1.49e+00	0	38	104	752877568	67	21911
2026-01-25 21:58:48.61	129.39	5.61	-48.2	-63.6	3.8	1.49e+00	0	38	104	752877568	67	21963
2026-01-25 21:58:49.32	129.47	5.58	-48.2	-63.6	3.8	1.49e+00	0	38	104	752877568	67	21945
2026-01-25 21:58:50.60	129.62	5.51	-48.2	-63.6	3.8	1.49e+00	0	38	104	752877568	67	22003
2026-01-25 21:58:51.31	129.70	5.48	-48.2	-63.6	3.8	1.49e+00	0	38	104	752877568	67	21938
2026-01-25 21:58:52.58	129.85	5.42	-48.2	-63.6	3.8	1.49e+00	0	38	104	752877568	67	21972
2026-01-25 21:58:53.31	129.93	5.38	-48.2	-63.6	3.8	1.49e+00	0	38	104	752877568	67	21947
2026-01-25 21:58:54.58	130.08	5.32	-48.2	-63.6	3.8	1.49e+00	0	38	104	752877568	67	21938
2026-01-25 21:58:5