passes_logs/2026/01/25/T1/T1__20260125_232903_SUOMI_NPP_rec.log

#Pass ID: 20260125_232903_SUOMI NPP
#Satellite: SUOMI NPP
#Configuration: NPP
#almurnet v.1.7.20251203
#Start time: 2026-01-25 23:29:04

#Version: 2.0.20230620
#Station: T1
#Location: 37.570604 lon 55.790049 lat
#TLE: 1 37849U 11061A   26025.53586395  .00000179  00000+0  10601-3 0  9996
#TLE: 2 37849  98.7821 327.4943 0002169  45.6246 314.5108 14.19529815738202

#Time	Az	El	Level	Level2	SNR	BER	BlckErr	Temp	State	Recorded	gain1	gain2
2026-01-25 23:29:04.05	18.38	5.06	-46.2	-63.2	3.8	1.49e+00	0	39	0	0	63	26417
2026-01-25 23:29:05.04	18.40	5.13	-46.2	-63.1	3.8	1.49e+00	0	39	104	0	63	26075
2026-01-25 23:29:06.03	18.42	5.21	-46.2	-63.1	3.8	1.49e+00	0	39	104	0	63	26083
2026-01-25 23:29:07.02	18.43	5.28	-46.2	-63.1	3.8	1.49e+00	0	40	104	0	63	25921
2026-01-25 23:29:08.02	18.45	5.35	-46.2	-63.1	3.8	1.49e+00	0	40	104	0	63	25938
2026-01-25 23:29:09.01	18.47	5.42	-46.2	-63.0	3.8	1.49e+00	0	40	104	0	63	25779
2026-01-25 23:29:10.00	18.49	5.49	-46.2	-63.0	3.8	1.49e+00	0	40	104	0	63	25704
2026-01-25 23:29:11.00	18.51	5.56	-46.2	-63.0	3.8	1.49e+00	0	40	104	0	63	25682
2026-01-25 23:29:11.99	18.53	5.63	-46.2	-63.0	3.8	1.49e+00	0	40	104	0	63	25657
2026-01-25 23:29:12.98	18.55	5.70	-46.2	-63.0	3.8	1.49e+00	0	40	104	0	63	25634
2026-01-25 23:29:13.97	18.57	5.78	-46.2	-63.0	3.8	1.49e+00	0	40	104	0	63	25681
2026-01-25 23:29:14.97	18.59	5.85	-46.2	-63.0	3.8	1.49e+00	0	40	104	0	63	25758
2026-01-25 23:29:15.96	18.61	5.92	-46.2	-63.0	3.8	1.49e+00	0	40	104	0	63	25828
2026-01-25 23:29:16.95	18.64	5.99	-46.2	-63.1	3.8	1.49e+00	0	40	104	0	63	26030
2026-01-25 23:29:17.95	18.66	6.07	-46.2	-63.1	3.8	1.49e+00	0	40	104	0	63	26086
2026-01-25 23:29:18.94	18.68	6.14	-46.2	-63.1	3.8	1.49e+00	0	40	104	0	63	26118
2026-01-25 23:29:19.93	18.70	6.21	-46.2	-63.2	3.8	1.49e+00	0	40	104	0	63	26258
2026-01-25 23:29:20.93	18.72	6.29	-46.2	-63.2	3.8	1.49e+00	0	40	104	0	63	26281
2026-01-25 23:29:21.92	18.74	6.36	-46.2	-63.2	3.8	1.49e+00	0	40	104	0	63	26361
2026-01-25 23:29:22.91	18.76	6.43	-46.2	-63.1	3.8	1.49e+00	0	40	104	0	63	26145
2026-01-25 23:29:23.91	18.78	6.51	-46.2	-63.1	3.8	1.49e+00	0	40	104	0	63	25955
2026-01-25 23:29:24.90	18.80	6.58	-46.2	-63.0	3.8	1.49e+00	0	40	104	0	63	25676
2026-01-25 23:29:25.89	18.82	6.66	-46.2	-62.8	3.8	1.49e+00	0	40	104	0	63	25223
2026-01-25 23:29:26.89	18.84	6.73	-46.2	-62.6	3.8	1.49e+00	0	40	104	0	63	24587
2026-01-25 23:29:27.88	18.86	6.81	-46.2	-62.4	3.8	1.49e+00	0	40	104	0	63	24126
2026-01-25 23:29:28.87	18.89	6.88	-46.2	-62.2	3.8	1.49e+00	0	40	104	0	63	23429
2026-01-25 23:29:29.87	18.91	6.96	-46.2	-61.9	3.8	1.49e+00	0	40	104	0	63	22703
2026-01-25 23:29:30.86	18.93	7.03	-46.2	-61.6	3.8	1.49e+00	0	40	104	0	63	21957
2026-01-25 23:29:31.85	18.95	7.11	-46.1	-61.3	3.8	1.49e+00	0	40	104	0	63	21101
2026-01-25 23:29:32.84	18.97	7.18	-46.1	-61.0	3.8	1.49e+00	0	40	104	0	63	20519
2026-01-25 23:29:33.84	18.99	7.26	-46.1	-60.8	3.9	1.48e+00	0	40	104	0	63	19877
2026-01-25 23:29:34.83	19.02	7.34	-46.1	-60.6	3.9	1.47e+00	0	40	104	0	63	19447
2026-01-25 23:29:35.82	19.04	7.41	-46.1	-60.2	4.1	1.47e+00	0	40	104	0	63	18589
2026-01-25 23:29:36.82	19.06	7.49	-46.1	-60.0	4.1	1.44e+00	0	40	0	0	63	18298
2026-01-25 23:29:37.81	19.08	7.57	-46.1	-59.9	4.1	1.42e+00	0	40	0	0	63	18015
2026-01-25 23:29:38.80	19.10	7.64	-46.1	-59.8	4.1	1.40e+00	0	40	0	0	63	17724
2026-01-25 23:29:39.80	19.13	7.72	-46.0	-59.7	4.2	1.40e+00	0	41	0	0	63	17508
2026-01-25 23:29:40.79	19.15	7.80	-46.1	-59.6	4.2	1.38e+00	0	41	0	0	63	17286
2026-01-25 23:29:41.78	19.17	7.88	-46.1	-59.5	4.2	1.39e+00	0	41	0	0	63	17105
2026-01-25 23:29:42.78	19.19	7.96	-46.1	-59.4	4.3	1.36e+00	0	40	0	0	63	16981
2026-01-25 23:29:43.77	19.22	8.03	-46.0	-59.2	4.3	1.34e+00	0	41	0	0	63	16587
2026-01-25 23:29:44.77	19.24	8.11	-46.0	-58.8	4.5	1.24e+00	0	40	0	2097152	63	15940
2026-01-25 23:29:45.76	19.26	8.19	-46.0	-58.5	4.6	9.79e-01	0	41	0	4194304	63	15231
2026-01-25 23:29:46.75	19.29	8.27	-45.9	-57.9	4.9	8.16e-01	0	41	0	5242880	63	14249
2026-01-25 23:29:47.75	19.31	8.35	-45.9	-57.1	5.3	6.80e-01	0	41	0	7340032	63	13088
2026-01-25 23:29:48.74	19.33	8.43	-45.7	-56.1	6.0	3.91e-01	0	41	0	9437184	63	11619
2026-01-25 23:29:49.73	19.36	8.51	-45.6	-55.4	6.5	2.90e-01	0	41	0	11534336	63	10742
2026-01-25 23:29:50.72	19.38	8.59	-45.5	-54.5	7.4	1.56e-01	0	41	0	12582912	63	9619
2026-01-25 23:29:51.72	19.40	8.67	-45.3	-53.5	8.3	5.89e-02	0	41	0	14680064	62	9137
2026-01-25 23:29:52.71	19.43	8.75	-45.1	-52.6	9.2	2.94e-02	0	41	0	16777216	62	8258
2026-01-25 23:29:53.70	19.45	8.83	-44.9	-52.0	9.9	1.17e-02	0	41	0	18874368	61	8151
2026-01-25 23:29:54.70	19.47	8.92	-44.8	-51.5	10.4	6.26e-03	0	41	0	19922944	61	7661
2026-01-25 23:29:55.69	19.50	9.00	-44.6	-50.9	11.1	1.70e-03	0	41	0	22020096	61	7148
2026-01-25 23:29:56.68	19.52	9.08	-44.7	-51.3	10.6	1.70e-03	0	41	0	24117248	61	7526
2026-01-25 23:29:57.68	19.55	9.16	-45.4	-57.0	5.6	1.31e-02	0	41	0	26214400	61	14394
2026-01-25 23:29:58.67	19.57	9.24	-43.6	-48.1	13.6	8.43e-01	0	41	0	28311552	59	5821
2026-01-25 23:29:59.67	19.60	9.33	-44.6	-49.7	12.6	0.00e+00	0	41	0	29360128	59	6979
2026-01-25 23:30:00.66	19.62	9.41	-42.4	-45.8	16.1	1.10e-03	0	41	0	31457280	56	5338
2026-01-25 23:30:01.66	19.65	9.49	-42.2	-45.5	16.4	0.00e+00	0	41	0	33554432	56	5156
2026-01-25 23:30:02.65	19.67	9.58	-42.2	-45.5	16.4	0.00e+00	0	41	0	35651584	56	5134
2026-01-25 23:30:03.65	19.70	9.66	-41.7	-44.7	17.1	0.00e+00	0	41	0	36700160	55	4960
2026-01-25 23:30:04.64	19.72	9.74	-41.4	-44.3	17.4	0.00e+00	0	41	0	38797312	54	5016
2026-01-25 23:30:05.63	19.75	9.83	-41.5	-44.4	17.3	0.00e+00	0	41	0	40894464	54	5097
2026-01-25 23:30:06.63	19.77	9.91	-41.3	-44.1	17.7	0.00e+00	0	41	0	42991616	54	4908
2026-01-25 23:30:07.72	19.80	10.01	-41.3	-44.2	17.6	0.00e+00	0	41	0	45088768	54	4966
2026-01-25 23:30:08.61	19.82	10.08	-41.1	-44.0	17.8	0.00e+00	0	41	0	46137344	54	4816
2026-01-25 23:30:09.74	19.85	10.18	-41.4	-44.3	17.5	0.00e+00	0	41	0	48234496	54	5010
2026-01-25 23:30:10.59	19.87	10.25	-41.2	-44.1	17.7	0.00e+00	0	41	0	50331648	54	4901
2026-01-25 23:30:11.73	19.90	10.35	-41.1	-43.9	17.8	0.00e+00	0	41	0	52428800	53	5060
2026-01-25 23:30:12.79	19.93	10.44	-41.0	-43.8	18.0	0.00e+00	0	41	0	54525952	53	5011
2026-01-25 23:30:13.85	19.96	10.54	-41.0	-43.8	17.9	0.00e+00	0	41	0	56623104	53	5033
2026-01-25 23:30:14.88	19.99	10.63	-41.1	-43.9	17.9	0.00e+00	0	41	0	58720256	53	5047
2026-01-25 23:30:15.87	20.01	10.72	-41.0	-43.8	18.0	0.00e+00	0	41	0	59768832	53	4999
2026-01-25 23:30:16.87	20.04	10.80	-41.0	-43.9	17.9	0.00e+00	0	41	0	61865984	53	5056
2026-01-25 23:30:17.86	20.07	10.89	-40.9	-43.7	18.1	0.00e+00	0	41	0	63963136	53	4961
2026-01-25 23:30:18.86	20.09	10.98	-41.0	-43.9	17.9	0.00e+00	0	41	0	66060288	53	5060
2026-01-25 23:30:19.85	20.12	11.07	-40.8	-43.6	18.2	0.00e+00	0	41	0	67108864	53	4894
2026-01-25 23:30:20.85	20.15	11.16	-40.7	-43.5	18.2	0.00e+00	0	41	0	69206016	53	4870
2026-01-25 23:30:21.84	20.17	11.25	-40.8	-43.6	18.3	0.00e+00	0	41	0	71303168	53	4874
2026-01-25 23:30:22.83	20.20	11.34	-40.9	-43.7	18.1	0.00e+00	0	41	0	73400320	53	4960
2026-01-25 23:30:23.83	20.23	11.43	-40.8	-43.6	18.2	0.00e+00	0	41	0	75497472	53	4899
2026-01-25 23:30:24.82	20.26	11.52	-40.9	-43.7	18.1	0.00e+00	0	41	0	76546048	53	4964
2026-01-25 23:30:25.82	20.29	11.61	-40.8	-43.6	18.2	0.00e+00	0	41	0	78643200	53	4905
2026-01-25 23:30:26.87	20.31	11.70	-40.7	-43.5	18.3	0.00e+00	0	41	0	80740352	53	4833
2026-01-25 23:30:27.74	20.34	11.78	-40.7	-43.4	18.4	0.00e+00	0	41	0	82837504	53	4806
2026-01-25 23:30:29.07	20.38	11.91	-40.6	-43.4	18.4	0.00e+00	0	41	0	84934656	53	4788
2026-01-25 23:30:29.78	20.40	11.97	-40.6	-43.4	18.4	0.00e+00	0	41	0	85983232	53	4803
2026-01-25 23:30:31.24	20.44	12.11	-40.5	-43.2	18.6	0.00e+00	0	41	0	89128960	53	4698
2026-01-25 23:30:31.95	20.46	12.17	-40.6	-43.3	18.5	0.00e+00	0	41	0	90177536	53	4742
2026-01-25 23:30:33.23	20.50	12.29	-40.6	-43.4	18.4	0.00e+00	0	41	0	92274688	53	4794
2026-01-25 23:30:33.94	20.52	12.36	-40.5	-43.2	18.6	0.00e+00	0	41	0	94371840	53	4698
2026-01-25 23:30:35.22	20.56	12.48	-40.7	-43.4	18.5	0.00e+00	0	41	0	96468992	53	4772
2026-01-25 23:30:35.93	20.58	12.55	-40.7	-43.4	18.4	0.00e+00	0	41	0	97517568	53	4801
2026-01-25 23:30:37.21	20.62	12.67	-40.5	-43.1	18.7	0.00e+00	0	41	0	100663296	53	4650
2026-01-25 23:30:37.93	20.64	12.74	-40.6	-43.2	18.6	0.00e+00	0	41	0	101711872	52	4970
2026-01-25 23:30:39.21	20.68	12.86	-40.6	-43.2	18.6	0.00e+00	0	41	0	103809024	52	4966
2026-01-25 23:30:40.00	20.70	12.94	-40.5	-43.1	18.7	0.00e+00	0	41	0	104857600	52	4914
2026-01-25 23:30:41.28	20.74	13.06	-40.7	-43.3	18.6	0.00e+00	0	41	0	108003328	52	4992
2026-01-25 23:30:42.08	20.76	13.14	-40.6	-43.2	18.7	0.00e+00	0	41	0	109051904	52	4944
2026-01-25 23:30:43.52	20.81	13.28	-40.6	-43.2	18.7	0.00e+00	0	41	0	112197632	52	4939
2026-01-25 23:30:44.23	20.83	13.35	-40.6	-43.2	18.7	0.00e+00	0	41	0	113246208	52	4956
2026-01-25 23:30:45.51	20.87	13.48	-40.5	-43.0	18.8	0.00e+00	0	41	0	115343360	52	4849
2026-01-25 23:30:46.24	20.89	13.55	-40.6	-43.1	18.8	0.00e+00	0	41	0	117440512	52	4880
2026-01-25 23:30:47.52	20.93	13.68	-40.6	-43.1	18.7	0.00e+00	0	41	0	119537664	52	4895
2026-01-25 23:30:48.23	20.96	13.75	-40.6	-43.1	18.8	0.00e+00	0	41	0	120586240	52	4877
2026-01-25 23:30:49.51	21.00	13.87	-40.6	-43.1	18.8	0.00e+00	0	41	0	122683392	52	4890
2026-01-25 23:30:50.22	21.02	13.94	-40.7	-43.2	18.7	0.00e+00	0	41	0	124780544	52	4947
2026-01-25 23:30:51.50	21.06	14.07	-40.7	-43.2	18.7	0.00e+00	0	41	0	126877696	52	4928
2026-01-25 23:30:52.21	21.08	14.15	-40.7	-43.1	18.8	0.00e+00	0	41	0	127926272	52	4905
2026-01-25 23:30:53.54	21.13	14.28	-40.7	-43.1	18.8	0.00e+00	0	41	0	131072000	52	4904
2026-01-25 23:30:54.25	21.15	14.35	-40.8	-43.2	18.7	0.00e+00	0	41	0	132120576	52	4979
2026-01-25 23:30:55.61	21.20	14.49	-40.9	-43.3	18.6	0.00e+00	0	42	0	134217728	52	5037
2026-01-25 23:30:56.32	21.22	14.57	-40.8	-43.2	18.7	0.00e+00	0	41	0	136314880	52	4975
2026-01-25 23:30:57.60	21.26	14.70	-40.8	-43.3	18.6	0.00e+00	0	41	0	138412032	52	4996
2026-01-25 23:30:58.67	21.30	14.81	-40.8	-43.3	18.6	0.00e+00	0	41	0	140509184	52	5013
2026-01-25 23:30:59.80	21.34	14.93	-40.7	-43.2	18.7	0.00e+00	0	41	0	142606336	52	4947
2026-01-25 23:31:00.83	21.37	15.03	-40.9	-43.3	18.7	0.00e+00	0	41	0	144703488	52	5007
2026-01-25 23:31:01.83	21.41	15.14	-40.7	-43.1	18.9	0.00e+00	0	41	0	145752064	52	4879
2026-01-25 23:31:02.82	21.44	15.24	-40.7	-43.1	18.8	0.00e+00	0	41	0	147849216	52	4915
2026-01-25 23:31:03.81	21.48	15.35	-40.7	-43.1	18.8	0.00e+00	0	41	0	149946368	52	4882
2026-01-25 23:31:04.81	21.51	15.46	-40.7	-43.1	18.8	0.00e+00	0	42	0	152043520	52	4883
2026-01-25 23:31:05.80	21.55	15.56	-40.7	-43.1	18.8	0.00e+00	0	41	0	154140672	52	4912
2026-01-25 23:31:06.80	21.58	15.67	-40.8	-43.2	18.7	0.00e+00	0	41	0	155189248	52	4933
2026-01-25 23:31:07.79	21.62	15.78	-40.6	-43.0	18.9	0.00e+00	0	41	0	157286400	52	4854
2026-01-25 23:31:08.79	21.65	15.88	-40.6	-43.0	18.8	0.00e+00	0	41	0	159383552	52	4861
2026-01-25 23:31:09.78	21.69	15.99	-40.6	-43.0	18.9	0.00e+00	0	41	0	161480704	52	4843
2026-01-25 23:31:10.78	21.72	16.10	-40.8	-43.3	18.6	0.00e+00	0	41	0	162529280	52	5000
2026-01-25 23:31:11.77	21.76	16.21	-40.6	-43.0	18.9	0.00e+00	0	41	0	164626432	52	4847
2026-01-25 23:31:12.77	21.80	16.32	-40.7	-43.2	18.8	0.00e+00	0	41	0	166723584	52	4945
2026-01-25 23:31:13.77	21.84	16.43	-40.6	-43.1	18.8	0.00e+00	0	41	0	168820736	52	4906
2026-01-25 23:31:14.84	21.88	16.55	-40.9	-43.4	18.5	0.00e+00	0	41	0	170917888	52	5075
2026-01-25 23:31:15.74	21.91	16.65	-40.7	-43.1	18.8	0.00e+00	0	41	0	171966464	52	4924
2026-01-25 23:31:16.78	21.95	16.77	-40.7	-43.2	18.7	0.00e+00	0	41	0	174063616	52	4971
2026-01-25 23:31:17.73	21.99	16.88	-40.8	-43.4	18.6	0.00e+00	0	41	0	176160768	52	5059
2026-01-25 23:31:18.72	22.02	16.99	-41.0	-43.6	18.4	0.00e+00	0	41	0	178257920	52	5182
2026-01-25 23:31:19.72	22.06	17.10	-41.0	-43.6	17.4	0.00e+00	0	41	0	180355072	52	5193
2026-01-25 23:31:20.72	22.10	17.22	-41.3	-43.9	18.1	0.00e+00	0	41	0	181403648	53	5055
2026-01-25 23:31:21.71	22.14	17.33	-41.2	-43.8	18.2	0.00e+00	0	41	0	183500800	53	5020
2026-01-25 23:31:22.70	22.18	17.44	-41.2	-43.8	18.2	0.00e+00	0	41	0	185597952	53	5008
2026-01-25 23:31:23.70	22.22	17.56	-41.3	-43.9	18.1	0.00e+00	0	41	0	187695104	53	5068
2026-01-25 23:31:24.69	22.26	17.68	-41.3	-43.9	18.1	0.00e+00	0	41	0	188743680	53	5050
2026-01-25 23:31:25.74	22.30	17.80	-41.5	-44.1	17.9	0.00e+00	0	41	0	190840832	53	5166
2026-01-25 23:31:26.73	22.34	17.92	-41.3	-43.9	18.0	0.00e+00	0	41	0	192937984	53	5087
2026-01-25 23:31:27.81	22.38	18.04	-41.5	-44.1	17.9	0.00e+00	0	41	0	195035136	53	5183
2026-01-25 23:31:28.66	22.42	18.14	-41.2	-43.8	18.2	0.00e+00	0	41	0	197132288	53	4995
2026-01-25 23:31:29.80	22.47	18.28	-41.2	-43.8	18.2	0.00e+00	0	41	0	198180864	53	4995
2026-01-25 23:31:30.65	22.50	18.38	-41.5	-44.1	17.9	0.00e+00	0	41	0	200278016	53	5182
2026-01-25 23:31:31.79	22.55	18.52	-41.4	-44.0	18.1	0.00e+00	0	41	0	202375168	53	5107
2026-01-25 23:31:32.64	22.59	18.62	-41.4	-43.9	18.1	0.00e+00	0	41	0	204472320	53	5080
2026-01-25 23:31:33.77	22.63	18.76	-41.4	-44.1	18.0	0.00e+00	0	41	0	206569472	53	5161
2026-01-25 23:31:34.62	22.67	18.86	-41.3	-43.9	18.1	0.00e+00	0	41	0	207618048	53	5067
2026-01-25 23:31:35.76	22.72	19.00	-41.4	-44.0	18.1	0.00e+00	0	41	0	209715200	53	5104
2026-01-25 23:31:36.61	22.76	19.11	-41.5	-44.2	17.8	0.00e+00	0	41	0	211812352	53	5229
2026-01-25 23:31:37.75	22.81	19.25	-41.5	-44.1	17.9	0.00e+00	0	41	0	213909504	53	5197
2026-01-25 23:31:38.60	22.84	19.36	-41.5	-44.1	17.9	0.00e+00	0	41	0	214958080	53	5217
2026-01-25 23:31:39.74	22.90	19.50	-41.7	-44.3	17.7	0.00e+00	0	41	0	217055232	53	5329
2026-01-25 23:31:40.60	22.93	19.61	-41.5	-44.1	17.9	0.00e+00	0	41	0	219152384	54	4913
2026-01-25 23:31:41.88	22.99	19.77	-41.7	-44.3	17.7	0.00e+00	0	41	0	221249536	54	5023
2026-01-25 23:31:42.60	23.02	19.86	-41.7	-44.4	17.7	0.00e+00	0	41	0	222298112	54	5055
2026-01-25 23:31:44.04	23.09	20.05	-41.8	-44.4	17.6	0.00e+00	0	41	0	225443840	54	5076
2026-01-25 23:31:44.75	23.12	20.14	-41.9	-44.6	17.5	0.00e+00	0	41	0	226492416	54	5160
2026-01-25 23:31:46.04	23.18	20.30	-41.9	-44.5	17.6	0.00e+00	0	41	0	229638144	54	5141
2026-01-25 23:31:46.75	23.22	20.40	-41.7	-44.3	17.7	0.00e+00	0	41	0	230686720	54	5038
2026-01-25 23:31:48.02	23.28	20.56	-41.7	-44.4	17.7	0.00e+00	0	41	0	232783872	54	5045
2026-01-25 23:31:48.74	23.31	20.66	-41.6	-44.2	17.8	0.00e+00	0	41	0	233832448	54	4969
2026-01-25 23:31:50.02	23.37	20.82	-41.5	-44.1	18.0	0.00e+00	0	41	0	236978176	54	4916
2026-01-25 23:31:50.73	23.41	20.92	-41.3	-43.9	18.1	0.00e+00	0	41	0	238026752	54	4795
2026-01-25 23:31:52.01	23.47	21.09	-41.2	-43.8	18.3	0.00e+00	0	41	0	240123904	54	4731
2026-01-25 23:31:52.73	23.51	21.19	-41.2	-43.8	18.3	0.00e+00	0	41	0	242221056	54	4718
2026-01-25 23:31:54.01	23.57	21.36	-41.2	-43.7	18.3	0.00e+00	0	41	0	244318208	54	4697
2026-01-25 23:31:54.72	23.61	21.45	-41.2	-43.8	18.3	0.00e+00	0	42	0	245366784	54	4706
2026-01-25 23:31:56.00	23.67	21.63	-41.2	-43.8	18.3	0.00e+00	0	41	0	247463936	54	4739
2026-01-25 23:31:56.72	23.71	21.73	-41.2	-43.8	18.2	0.00e+00	0	41	0	249561088	54	4746
2026-01-25 23:31:57.99	23.77	21.90	-41.2	-43.8	18.2	0.00e+00	0	41	0	251658240	53	5020
2026-01-25 23:31:58.71	23.81	22.00	-41.1	-43.8	18.3	0.00e+00	0	41	0	252706816	53	4990
2026-01-25 23:32:00.02	23.88	22.18	-41.3	-43.9	18.1	0.00e+00	0	42	0	255852544	53	5097
2026-01-25 23:32:00.73	23.91	22.28	-41.0	-43.6	18.4	0.00e+00	0	42	0	256901120	53	4919
2026-01-25 23:32:02.01	23.98	22.46	-41.2	-43.9	18.2	0.00e+00	0	42	0	258998272	53	5067
2026-01-25 23:32:02.73	24.02	22.56	-41.3	-43.9	18.1	0.00e+00	0	42	0	260046848	53	5079
2026-01-25 23:32:04.01	24.09	22.75	-41.0	-43.6	18.4	0.00e+00	0	41	0	263192576	53	4901
2026-01-25 23:32:04.72	24.13	22.85	-41.1	-43.7	18.3	0.00e+00	0	41	0	264241152	53	4983
2026-01-25 23:32:06.26	24.21	23.07	-41.2	-43.8	18.2	0.00e+00	0	41	0	267386880	53	5018
2026-01-25 23:32:06.97	24.25	23.17	-41.2	-43.8	18.3	0.00e+00	0	41	0	268435456	53	4988
2026-01-25 23:32:08.25	24.32	23.36	-41.3	-43.9	18.1	0.00e+00	0	41	0	270532608	53	5082
2026-01-25 23:32:08.96	24.36	23.46	-41.2	-43.8	18.2	0.00e+00	0	41	0	272629760	53	5041
2026-01-25 23:32:10.24	24.44	23.65	-41.1	-43.6	18.4	0.00e+00	0	41	0	274726912	53	4883
2026-01-25 23:32:10.95	24.48	23.75	-41.5	-44.1	17.9	0.00e+00	0	41	0	275775488	53	5210
2026-01-25 23:32:12.23	24.55	23.94	-41.5	-44.1	18.0	0.00e+00	0	41	0	277872640	53	5181
2026-01-25 23:32:12.94	24.59	24.05	-41.4	-43.9	18.1	0.00e+00	0	41	0	279969792	53	5090
2026-01-25 23:32:14.22	24.67	24.24	-41.6	-44.2	17.8	0.00e+00	0	41	0	282066944	54	4959
2026-01-25 23:32:15.01	24.72	24.36	-41.7	-44.3	17.8	0.00e+00	0	41	0	283115520	54	5008
2026-01-25 23:32:16.16	24.78	24.54	-41.7	-44.3	17.8	0.00e+00	0	41	0	285212672	54	5025
2026-01-25 23:32:17.01	24.84	24.67	-41.8	-44.4	17.7	0.00e+00	0	41	0	287309824	54	5072
2026-01-25 23:32:18.15	24.91	24.84	-41.4	-44.0	18.2	0.00e+00	0	41	0	289406976	54	4815
2026-01-25 23:32:19.01	24.96	24.97	-41.6	-44.2	17.9	0.00e+00	0	41	0	291504128	54	4954
2026-01-25 23:32:20.14	25.03	25.15	-41.6	-44.1	17.9	0.00e+00	0	41	0	293601280	54	4910
2026-01-25 23:32:21.00	25.08	25.28	-41.3	-43.8	18.3	0.00e+00	0	41	0	294649856	54	4706
2026-01-25 23:32:22.13	25.15	25.46	-41.3	-43.8	18.3	0.00e+00	0	41	0	296747008	54	4706
2026-01-25 23:32:22.99	25.21	25.60	-41.3	-43.8	18.3	0.00e+00	0	41	0	298844160	54	4710
2026-01-25 23:32:24.13	25.28	25.78	-41.1	-43.5	18.5	0.00e+00	0	41	0	300941312	54	4596
2026-01-25 23:32:24.98	25.34	25.91	-41.2	-43.6	18.4	0.00e+00	0	41	0	301989888	54	4640
2026-01-25 23:32:26.23	25.42	26.12	-41.2	-43.6	18.5	0.00e+00	0	42	0	304087040	54	4609
2026-01-25 23:32:27.08	25.48	26.25	-41.2	-43.6	18.5	0.00e+00	0	41	0	306184192	53	4910
2026-01-25 23:32:28.30	25.56	26.45	-40.9	-43.3	18.7	0.00e+00	0	41	0	308281344	53	4731
2026-01-25 23:32:29.15	25.62	26.59	-40.9	-43.2	18.8	0.00e+00	0	41	0	310378496	53	4691
2026-01-25 23:32:30.37	25.70	26.79	-40.8	-43.1	18.9	0.00e+00	0	41	0	312475648	53	4636
2026-01-25 23:32:31.22	25.76	26.93	-40.6	-42.9	19.1	0.00e+00	0	41	0	313524224	53	4515
2026-01-25 23:32:32.43	25.84	27.13	-40.4	-42.6	19.4	0.00e+00	0	41	0	316669952	52	4627
2026-01-25 23:32:33.29	25.90	27.28	-40.5	-42.7	19.3	0.00e+00	0	41	0	317718528	52	4683
2026-01-25 23:32:34.43	25.99	27.47	-40.4	-42.7	19.3	0.00e+00	0	41	0	319815680	52	4659
2026-01-25 23:32:35.28	26.05	27.62	-40.3	-42.5	19.5	0.00e+00	0	41	0	321912832	52	4580
2026-01-25 23:32:36.41	26.13	27.81	-40.3	-42.5	19.6	0.00e+00	0	41	0	324009984	52	4560
2026-01-25 23:32:37.27	26.19	27.96	-40.1	-42.2	19.7	0.00e+00	0	41	0	325058560	52	4434
2026-01-25 23:32:38.40	26.28	28.15	-40.3	-42.5	19.5	0.00e+00	0	41	0	327155712	52	4568
2026-01-25 23:32:39.26	26.34	28.30	-40.4	-42.7	19.3	0.00e+00	0	41	0	329252864	52	4666
2026-01-25 23:32:40.40	26.43	28.50	-40.4	-42.6	19.4	0.00e+00	0	41	0	331350016	52	4619
2026-01-25 23:32:41.25	26.49	28.65	-40.6	-42.9	19.2	0.00e+00	0	41	0	332398592	52	4783
2026-01-25 23:32:42.39	26.58	28.85	-40.5	-42.8	19.2	0.00e+00	0	41	0	334495744	52	4727
2026-01-25 23:32:43.24	26.65	29.00	-40.6	-43.0	19.1	0.00e+00	0	41	0	336592896	52	4821
2026-01-25 23:32:44.38	26.74	29.21	-40.8	-43.3	18.9	0.00e+00	0	41	0	338690048	52	4984
2026-01-25 23:32:45.23	26.81	29.36	-40.9	-43.4	18.7	0.00e+00	0	41	0	339738624	52	5069
2026-01-25 23:32:46.37	26.90	29.57	-41.1	-43.6	18.5	0.00e+00	0	42	0	341835776	53	4872
2026-01-25 23:32:47.22	26.97	29.72	-41.3	-43.9	18.2	0.00e+00	0	41	0	343932928	53	5076
2026-01-25 23:32:48.42	27.07	29.94	-41.9	-44.7	17.5	0.00e+00	0	41	0	346030080	54	5229
2026-01-25 23:32:49.27	27.14	30.10	-41.9	-44.6	17.5	0.00e+00	0	41	0	348127232	54	5209
2026-01-25 23:32:50.41	27.23	30.31	-42.2	-45.0	17.3	0.00e+00	0	41	0	350224384	54	5412
2026-01-25 23:32:51.26	27.30	30.47	-42.3	-45.1	17.0	0.00e+00	0	41	0	351272960	55	5213
2026-01-25 23:32:52.40	27.40	30.69	-42.5	-45.3	16.9	0.00e+00	0	41	0	353370112	55	5325
2026-01-25 23:32:53.30	27.48	30.86	-43.0	-46.0	16.4	0.00e+00	0	42	0	355467264	56	5451
2026-01-25 23:32:54.56	27.59	31.10	-42.9	-45.8	16.6	0.00e+00	0	41	0	357564416	56	5286
2026-01-25 23:32:55.35	27.66	31.25	-42.8	-45.7	16.7	0.00e+00	0	41	0	359661568	56	5256
2026-01-25 23:32:56.52	27.77	31.48	-42.9	-45.7	16.7	0.00e+00	0	41	0	361758720	56	5273
2026-01-25 23:32:57.37	27.85	31.64	-43.0	-46.0	16.4	0.00e+00	0	41	0	362807296	56	5452
2026-01-25 23:32:58.51	27.95	31.86	-43.3	-46.4	16.0	0.00e+00	0	41	0	364904448	57	5355
2026-01-25 23:32:59.37	28.03	32.03	-43.3	-46.4	16.0	0.00e+00	0	41	0	367001600	57	5353
2026-01-25 23:33:00.50	28.14	32.26	-43.2	-46.4	16.0	0.00e+00	0	41	0	369098752	57	5341
2026-01-25 23:33:01.36	28.22	32.43	-43.3	-46.4	16.1	0.00e+00	0	41	0	370147328	57	5389
2026-01-25 23:33:02.50	28.33	32.66	-43.2	-46.2	16.2	0.00e+00	0	41	0	372244480	57	5274
2026-01-25 23:33:03.35	28.41	32.83	-43.5	-46.8	15.7	0.00e+00	0	41	0	374341632	57	5612
2026-01-25 23:33:04.49	28.53	33.06	-43.2	-46.3	16.1	0.00e+00	0	41	0	376438784	57	5310
2026-01-25 23:33:05.34	28.61	33.23	-43.3	-46.4	16.0	0.00e+00	0	41	0	377487360	57	5397
2026-01-25 23:33:06.48	28.73	33.47	-43.1	-46.1	16.2	0.00e+00	0	41	0	379584512	57	5204
2026-01-25 23:33:07.33	28.82	33.64	-43.1	-46.1	16.4	0.00e+00	0	41	0	381681664	57	5175
2026-01-25 23:33:08.62	28.95	33.91	-43.0	-46.0	16.4	0.00e+00	0	41	0	383778816	57	5114
2026-01-25 23:33:09.33	29.02	34.06	-42.9	-45.8	16.6	0.00e+00	0	41	0	384827392	57	4999
2026-01-25 23:33:10.61	29.16	34.33	-42.7	-45.4	17.0	0.00e+00	0	41	0	387973120	57	4787
2026-01-25 23:33:11.32	29.24	34.48	-42.8	-45.6	16.8	0.00e+00	0	41	0	389021696	57	4881
2026-01-25 23:33:12.60	29.38	34.76	-42.6	-45.3	17.1	0.00e+00	0	41	0	391118848	57	4721
2026-01-25 23:33:13.33	29.46	34.91	-42.9	-45.7	16.7	0.00e+00	0	41	0	393216000	57	4959
2026-01-25 23:33:14.61	29.60	35.19	-43.2	-46.1	16.5	0.00e+00	0	41	0	395313152	57	5196
2026-01-25 23:33:15.33	29.68	35.35	-43.1	-46.0	16.4	0.00e+00	0	41	0	396361728	57	5129
2026-01-25 23:33:16.62	29.83	35.63	-43.0	-45.8	16.6	0.00e+00	0	41	0	399507456	57	5033
2026-01-25 23:33:17.32	29.91	35.79	-43.4	-46.3	16.0	0.00e+00	0	41	0	400556032	57	5340
2026-01-25 23:33:18.63	30.07	36.08	-43.2	-46.1	16.3	0.00e+00	0	41	0	402653184	57	5168
2026-01-25 23:33:19.35	30.15	36.24	-43.2	-46.1	16.2	0.00e+00	0	41	0	403701760	57	5189
2026-01-25 23:33:20.63	30.31	36.53	-43.4	-46.4	16.0	0.00e+00	0	41	0	406847488	57	5395
2026-01-25 23:33:21.65	30.44	36.76	-43.5	-46.5	16.0	0.00e+00	0	41	0	408944640	57	5426
2026-01-25 23:33:22.97	30.60	37.06	-43.5	-46.5	16.1	0.00e+00	0	41	0	411041792	57	5409
2026-01-25 23:33:23.68	30.69	37.22	-43.6	-46.7	15.8	0.00e+00	0	41	0	412090368	58	5273
2026-01-25 23:33:24.96	30.86	37.52	-43.8	-46.9	15.5	0.00e+00	0	41	0	414187520	58	5401
2026-01-25 23:33:25.67	30.95	37.68	-43.9	-47.1	15.4	0.00e+00	0	41	0	416284672	58	5509
2026-01-25 23:33:26.95	31.12	37.98	-44.0	-47.4	15.1	0.00e+00	0	41	0	418381824	59	5352
2026-01-25 23:33:27.66	31.21	38.15	-43.8	-47.1	15.3	0.00e+00	0	41	0	419430400	59	5211
2026-01-25 23:33:28.94	31.39	38.45	-43.6	-46.8	15.7	0.00e+00	0	41	0	422576128	59	5033
2026-01-25 23:33:29.66	31.49	38.63	-43.7	-46.9	15.6	0.00e+00	0	42	0	423624704	59	5097
2026-01-25 23:33:30.94	31.67	38.93	-43.6	-46.8	15.7	0.00e+00	0	41	0	425721856	58	5285
2026-01-25 23:33:31.66	31.77	39.11	-43.7	-46.8	15.6	0.00e+00	0	41	0	426770432	58	5325
2026-01-25 23:33:33.25	32.00	39.49	-44.3	-47.8	14.6	0.00e+00	0	41	0	429916160	59	5593
2026-01-25 23:33:33.82	32.08	39.63	-44.1	-47.5	14.9	7.00e-07	0	41	0	430964736	59	5427
2026-01-25 23:33:35.70	32.36	40.10	-44.6	-48.2	14.3	0.00e+00	0	41	0	435159040	59	5898
2026-01-25 23:33:36.26	32.45	40.24	-44.6	-48.3	14.1	7.00e-07	0	41	0	436207616	60	5639
2026-01-25 23:33:37.97	32.71	40.67	-44.7	-48.4	14.1	3.00e-06	0	41	0	439353344	60	5689
2026-01-25 23:33:38.54	32.80	40.81	-44.7	-48.3	14.2	3.80e-06	0	41	0	440401920	60	5656
2026-01-25 23:33:40.25	33.08	41.24	-44.6	-48.2	14.3	7.00e-07	0	41	0	443547648	60	5557
2026-01-25 23:33:40.82	33.17	41.39	-44.6	-48.3	14.3	7.00e-07	0	41	0	444596224	60	5609
2026-01-25 23:33:42.52	33.45	41.83	-44.1	-47.4	15.1	0.00e+00	0	41	0	447741952	59	5343
2026-01-25 23:33:43.09	33.55	41.98	-44.0	-47.4	15.1	0.00e+00	0	41	0	448790528	59	5342
2026-01-25 23:33:45.08	33.89	42.50	-44.4	-48.0	14.3	7.00e-07	0	41	0	451936256	59	5777
2026-01-25 23:33:45.65	33.99	42.65	-44.4	-47.9	14.5	7.00e-07	0	41	0	452984832	59	5702
2026-01-25 23:33:47.64	34.35	43.18	-43.5	-46.6	15.9	0.00e+00	0	41	0	457179136	59	4893
2026-01-25 23:33:48.21	34.45	43.33	-43.1	-46.0	16.4	0.00e+00	0	41	0	458227712	58	4861
2026-01-25 23:33:49.91	34.77	43.79	-42.4	-45.1	17.3	0.00e+00	0	41	0	461373440	56	4890
2026-01-25 23:33:50.48	34.88	43.94	-42.3	-44.9	17.5	0.00e+00	0	41	0	462422016	56	4794
2026-01-25 23:33:52.19	35.21	44.41	-41.8	-44.3	17.9	0.00e+00	0	41	0	465567744	55	4734
2026-01-25 23:33:52.75	35.32	44.56	-41.7	-44.3	17.9	0.00e+00	0	41	0	466616320	55	4727
2026-01-25 23:33:54.46	35.67	45.04	-42.2	-44.9	17.4	0.00e+00	0	41	0	469762048	55	5084
2026-01-25 23:33:55.03	35.78	45.19	-41.8	-44.4	17.8	0.00e+00	0	42	0	470810624	55	4788
2026-01-25 23:33:56.73	36.14	45.67	-41.9	-44.5	17.7	0.00e+00	0	41	0	473956352	55	4849
2026-01-25 23:33:57.30	36.26	45.83	-42.3	-45.0	17.2	0.00e+00	0	41	0	475004928	55	5154
2026-01-25 23:33:59.05	36.64	46.33	-42.0	-44.6	17.6	0.00e+00	0	41	0	478150656	55	4916
2026-01-25 23:33:59.62	36.77	46.49	-42.3	-45.0	17.3	0.00e+00	0	41	0	479199232	55	5133
2026-01-25 23:34:01.33	37.16	46.98	-42.7	-45.4	17.0	0.00e+00	0	41	0	482344960	56	5100
2026-01-25 23:34:01.90	37.29	47.15	-42.9	-45.7	16.7	0.00e+00	0	41	0	483393536	56	5264
2026-01-25 23:34:03.60	37.69	47.64	-43.1	-45.9	16.5	0.00e+00	0	41	0	487587840	57	5082
2026-01-25 23:34:04.57	37.93	47.92	-43.2	-46.1	16.4	0.00e+00	0	41	0	488636416	57	5167
2026-01-25 23:34:05.56	38.17	48.21	-42.9	-45.7	16.8	0.00e+00	0	41	0	490733568	57	4930
2026-01-25 23:34:06.55	38.42	48.51	-42.4	-45.0	17.4	0.00e+00	0	41	0	492830720	56	4836
2026-01-25 23:34:07.55	38.68	48.80	-41.3	-43.7	18.5	0.00e+00	0	41	0	494927872	54	4683
2026-01-25 23:34:08.54	38.94	49.10	-41.0	-43.3	18.9	0.00e+00	0	41	0	495976448	53	4717
2026-01-25 23:34:09.54	39.21	49.40	-41.2	-43.6	18.6	0.00e+00	0	41	0	498073600	53	4893
2026-01-25 23:34:10.54	39.48	49.70	-41.0	-43.3	18.9	0.00e+00	0	41	0	500170752	53	4724
2026-01-25 23:34:11.53	39.75	50.00	-41.1	-43.4	18.7	0.00e+00	0	41	0	502267904	53	4800
2026-01-25 23:34:12.52	40.03	50.30	-41.0	-43.3	18.8	0.00e+00	0	41	0	503316480	53	4745
2026-01-25 23:34:13.52	40.32	50.60	-41.5	-44.0	18.2	0.00e+00	0	41	0	505413632	53	5147
2026-01-25 23:34:14.52	40.62	50.91	-41.4	-43.8	18.4	0.00e+00	0	41	0	507510784	54	4755
2026-01-25 23:34:15.51	40.91	51.22	-41.3	-43.7	18.5	0.00e+00	0	41	0	509607936	54	4678
2026-01-25 23:34:16.51	41.22	51.52	-41.6	-44.1	18.2	0.00e+00	0	41	0	511705088	54	4883
2026-01-25 23:34:17.50	41.53	51.83	-41.2	-43.6	18.6	0.00e+00	0	41	0	512753664	54	4609
2026-01-25 23:34:18.49	41.85	52.14	-40.6	-42.9	19.1	0.00e+00	0	41	0	514850816	53	4503
2026-01-25 23:34:19.49	42.17	52.45	-40.2	-42.4	19.6	0.00e+00	0	41	0	516947968	52	4529
2026-01-25 23:34:20.48	42.50	52.76	-40.1	-42.2	20.0	0.00e+00	0	41	0	519045120	51	4679
2026-01-25 23:34:21.48	42.84	53.07	-39.9	-42.0	20.1	0.00e+00	0	41	0	520093696	51	4568
2026-01-25 23:34:22.48	43.19	53.39	-40.0	-42.2	20.0	0.00e+00	0	41	0	522190848	51	4673
2026-01-25 23:34:23.47	43.54	53.70	-39.9	-42.1	20.1	0.00e+00	0	41	0	524288000	51	4608
2026-01-25 23:34:24.47	43.90	54.02	-39.9	-42.0	20.0	0.00e+00	0	41	0	526385152	51	4595
2026-01-25 23:34:25.46	44.27	54.33	-39.6	-41.7	20.4	0.00e+00	0	41	0	528482304	51	4425
2026-01-25 23:34:26.45	44.64	54.65	-39.4	-41.4	20.6	0.00e+00	0	41	0	529530880	50	4532
2026-01-25 23:34:27.45	45.03	54.97	-39.3	-41.3	20.0	0.00e+00	0	41	0	531628032	50	4476
2026-01-25 23:34:28.44	45.42	55.29	-39.0	-41.0	21.0	0.00e+00	0	41	0	533725184	49	4565
2026-01-25 23:34:29.44	45.82	55.61	-39.1	-41.1	20.9	0.00e+00	0	41	0	535822336	49	4618
2026-01-25 23:34:30.43	46.23	55.92	-39.5	-41.6	20.4	0.00e+00	0	41	0	537919488	49	4921
2026-01-25 23:34:31.43	46.66	56.24	-39.7	-41.8	20.2	0.00e+00	0	41	0	538968064	50	4743
2026-01-25 23:34:32.42	47.09	56.56	-39.5	-41.5	20.5	0.00e+00	0	41	0	541065216	50	4581
2026-01-25 23:34:33.42	47.53	56.89	-39.2	-41.1	20.8	0.00e+00	0	41	0	543162368	50	4380
2026-01-25 23:34:34.46	48.00	57.22	-39.0	-40.9	21.0	0.00e+00	0	41	0	545259520	49	4523
2026-01-25 23:34:35.45	48.46	57.54	-39.1	-41.1	20.8	0.00e+00	0	41	0	547356672	49	4631
2026-01-25 23:34:36.45	48.93	57.86	-39.4	-41.5	20.6	0.00e+00	0	41	0	548405248	49	4841
2026-01-25 23:34:37.44	49.42	58.18	-39.4	-41.4	20.6	0.00e+00	0	41	0	550502400	49	4793
2026-01-25 23:34:38.43	49.91	58.50	-39.3	-41.3	20.8	0.00e+00	0	41	0	552599552	49	4723
2026-01-25 23:34:39.43	50.42	58.82	-39.3	-41.3	20.7	0.00e+00	0	41	0	554696704	49	4744
2026-01-25 23:34:40.43	50.94	59.14	-39.6	-41.7	20.5	0.00e+00	0	41	0	555745280	49	4950
2026-01-25 23:34:41.42	51.47	59.46	-40.1	-42.2	19.9	0.00e+00	0	41	0	557842432	50	4959
2026-01-25 23:34:42.41	52.02	59.78	-40.2	-42.3	19.9	0.00e+00	0	41	0	559939584	51	4737
2026-01-25 23:34:43.41	52.58	60.10	-40.3	-42.5	19.7	0.00e+00	0	41	0	562036736	51	4855
2026-01-25 23:34:44.40	53.15	60.41	-40.8	-43.0	19.2	0.00e+00	0	41	0	564133888	52	4867
2026-01-25 23:34:45.40	53.74	60.73	-40.9	-43.2	19.0	0.00e+00	0	41	0	565182464	52	4967
2026-01-25 23:34:46.40	54.35	61.05	-41.2	-43.6	18.6	0.00e+00	0	41	0	567279616	53	4894
2026-01-25 23:34:47.39	54.96	61.36	-41.1	-43.5	18.6	0.00e+00	0	41	0	569376768	53	4828
2026-01-25 23:34:48.38	55.59	61.67	-40.8	-43.1	19.1	0.00e+00	0	41	0	571473920	53	4616
2026-01-25 23:34:49.38	56.25	61.98	-39.9	-42.0	20.0	0.00e+00	0	41	0	572522496	51	4585
2026-01-25 23:34:50.38	56.92	62.29	-39.6	-41.7	20.4	0.00e+00	0	41	0	574619648	51	4409
2026-01-25 23:34:51.37	57.60	62.60	-39.6	-41.6	20.4	0.00e+00	0	41	0	576716800	50	4628
2026-01-25 23:34:52.37	58.30	62.90	-40.0	-42.1	20.0	0.00e+00	0	41	0	578813952	50	4921
2026-01-25 23:34:53.36	59.02	63.21	-40.3	-42.4	19.8	0.00e+00	0	41	0	580911104	51	4801
2026-01-25 23:34:54.36	59.76	63.51	-40.3	-42.4	19.7	0.00e+00	0	41	0	581959680	51	4809
2026-01-25 23:34:55.35	60.51	63.80	-39.6	-41.6	20.5	0.00e+00	0	41	0	584056832	51	4368
2026-01-25 23:34:56.35	61.29	64.10	-38.9	-40.8	21.1	0.00e+00	0	41	0	586153984	49	4489
2026-01-25 23:34:57.34	62.08	64.39	-39.0	-41.0	21.0	0.00e+00	0	41	0	588251136	49	4547
2026-01-25 23:34:58.34	62.90	64.68	-39.2	-41.2	20.8	0.00e+00	0	41	0	589299712	49	4678
2026-01-25 23:34:59.33	63.74	64.96	-39.3	-41.3	20.7	0.00e+00	0	41	0	591396864	49	4725
2026-01-25 23:35:00.32	64.59	65.24	-39.2	-41.2	20.7	0.00e+00	0	41	0	593494016	49	4688
2026-01-25 23:35:01.32	65.47	65.52	-39.5	-41.5	20.5	0.00e+00	0	41	0	595591168	50	4582
2026-01-25 23:35:02.32	66.38	65.79	-39.3	-41.3	20.7	0.00e+00	0	41	0	597688320	50	4491
2026-01-25 23:35:03.31	67.30	66.06	-39.8	-41.9	20.2	0.00e+00	0	41	0	598736896	50	4782
2026-01-25 23:35:04.31	68.25	66.32	-40.8	-43.1	19.0	0.00e+00	0	41	0	600834048	52	4905
2026-01-25 23:35:05.30	69.21	66.58	-41.0	-43.4	18.8	0.00e+00	0	41	0	602931200	52	5055
2026-01-25 23:35:06.30	70.21	66.83	-41.4	-43.8	18.5	0.00e+00	0	41	0	605028352	53	4991
2026-01-25 23:35:07.29	71.22	67.08	-42.0	-44.6	17.8	0.00e+00	0	41	0	606076928	54	5191
2026-01-25 23:35:08.34	72.32	67.33	-42.8	-45.6	16.9	0.00e+00	0	41	0	608174080	56	5161
2026-01-25 23:35:09.26	73.31	67.55	-42.1	-44.6	17.6	0.00e+00	0	41	0	610271232	55	4914
2026-01-25 23:35:10.26	74.40	67.78	-41.5	-43.9	18.3	0.00e+00	0	41	0	612368384	54	4806
2026-01-25 23:35:11.25	75.51	68.00	-42.5	-45.3	17.1	0.00e+00	0	41	0	614465536	55	5296
2026-01-25 23:35:12.25	76.65	68.21	-43.3	-46.4	16.2	0.00e+00	0	41	0	615514112	57	5342
2026-01-25 23:35:13.24	77.80	68.42	-43.6	-46.7	15.8	0.00e+00	0	41	0	617611264	58	5249
2026-01-25 23:35:14.24	78.99	68.62	-43.6	-46.8	15.8	7.00e-07	0	41	0	619708416	58	5305
2026-01-25 23:35:15.23	80.20	68.81	-43.8	-47.0	15.7	0.00e+00	0	41	0	621805568	58	5455
2026-01-25 23:35:16.23	81.43	68.99	-43.6	-46.7	15.9	0.00e+00	0	41	0	622854144	58	5271
2026-01-25 23:35:17.22	82.68	69.16	-43.9	-47.2	15.3	0.00e+00	0	41	0	624951296	58	5557
2026-01-25 23:35:18.22	83.96	69.33	-42.8	-45.6	16.9	0.00e+00	0	41	0	627048448	57	4904
2026-01-25 23:35:19.21	85.25	69.48	-41.6	-44.1	18.1	0.00e+00	0	41	0	629145600	54	4918
2026-01-25 23:35:20.21	86.57	69.63	-41.8	-44.5	17.8	0.00e+00	0	41	0	631242752	54	5149
2026-01-25 23:35:21.20	87.90	69.76	-43.1	-46.2	16.5	0.00e+00	0	41	0	632291328	56	5538
2026-01-25 23:35:22.26	89.35	69.89	-42.4	-45.1	17.2	0.00e+00	0	41	0	634388480	56	4896
2026-01-25 23:35:23.13	90.55	69.99	-41.5	-43.9	18.3	0.00e+00	0	41	0	636485632	55	4525
2026-01-25 23:35:24.26	92.13	70.11	-41.0	-43.3	18.9	0.00e+00	0	41	0	638582784	54	4467
2026-01-25 23:35:25.12	93.34	70.19	-40.6	-42.9	19.3	0.00e+00	0	41	0	639631360	53	4499
2026-01-25 23:35:26.26	94.96	70.29	-40.3	-42.6	19.5	0.00e+00	0	41	0	641728512	52	4638
2026-01-25 23:35:27.27	96.41	70.36	-40.2	-42.5	19.6	0.00e+00	0	41	0	643825664	52	4551
2026-01-25 23:35:28.26	97.85	70.42	-40.4	-42.7	19.6	0.00e+00	0	41	0	645922816	51	4939
2026-01-25 23:35:29.26	99.30	70.46	-41.5	-44.0	18.3	0.00e+00	0	41	0	648019968	53	5153
2026-01-25 23:35:30.25	100.75	70.50	-41.5	-43.9	18.3	0.00e+00	0	41	0	650117120	53	5077
2026-01-25 23:35:31.25	102.21	70.52	-41.2	-43.6	18.7	0.00e+00	0	41	0	651165696	53	4872
2026-01-25 23:35:32.24	103.67	70.53	-41.3	-43.7	18.5	0.00e+00	0	41	0	653262848	53	4975
2026-01-25 23:35:33.24	105.14	70.53	-42.3	-45.0	17.2	0.00e+00	0	41	0	655360000	55	5151
2026-01-25 23:35:34.23	106.59	70.52	-42.3	-45.0	17.3	0.00e+00	0	41	0	657457152	55	5102
2026-01-25 23:35:35.23	108.06	70.50	-41.7	-44.1	18.1	0.00e+00	0	41	0	658505728	55	4651
2026-01-25 23:35:36.22	109.51	70.46	-41.8	-44.3	18.0	0.00e+00	0	41	0	660602880	55	4722
2026-01-25 23:35:37.22	110.96	70.41	-42.4	-45.1	17.2	0.00e+00	0	41	0	662700032	55	5191
2026-01-25 23:35:38.21	112.39	70.36	-43.0	-45.9	16.6	0.00e+00	0	41	0	664797184	57	5051
2026-01-25 23:35:39.29	113.95	70.28	-44.4	-48.0	14.6	0.00e+00	0	41	0	666894336	59	5773
2026-01-25 23:35:40.14	115.16	70.21	-45.0	-49.0	13.8	0.00e+00	0	41	0	667942912	60	6088
2026-01-25 23:35:41.50	117.07	70.08	-44.7	-48.5	14.1	1.52e-05	0	41	0	671088640	61	5411
2026-01-25 23:35:42.21	118.06	70.00	-44.4	-47.9	14.6	7.00e-07	0	41	0	672137216	60	5386
2026-01-25 23:35:43.68	120.09	69.83	-44.6	-48.4	14.2	7.00e-07	0	41	0	674234368	60	5661
2026-01-25 23:35:44.66	121.42	69.70	-44.5	-48.2	14.3	4.50e-06	0	41	0	676331520	60	5533
2026-01-25 23:35:45.97	123.16	69.52	-42.5	-45.2	17.3	0.00e+00	0	41	0	679477248	57	4654
2026-01-25 23:35:46.71	124.13	69.41	-42.8	-45.6	17.0	0.00e+00	0	41	0	680525824	56	5202
2026-01-25 23:35:47.99	125.78	69.20	-44.1	-47.6	14.9	0.00e+00	0	41	0	682622976	58	5839
2026-01-25 23:35:48.70	126.68	69.08	-43.0	-45.9	16.6	0.00e+00	0	41	0	684720128	58	4813
2026-01-25 23:35:49.98	128.28	68.85	-41.7	-44.2	18.0	0.00e+00	0	41	0	686817280	55	4695
2026-01-25 23:35:50.71	129.17	68.71	-41.6	-44.1	18.2	0.00e+00	0	41	0	687865856	54	4894
2026-01-25 23:35:51.99	130.71	68.46	-42.0	-44.6	17.6	0.00e+00	0	41	0	689963008	54	5210
2026-01-25 23:35:52.72	131.57	68.31	-42.1	-44.7	17.6	0.00e+00	0	41	0	692060160	55	4980
2026-01-25 23:35:54.00	133.04	68.04	-42.2	-44.8	17.5	0.00e+00	0	41	0	694157312	55	5020
2026-01-25 23:35:54.71	133.84	67.88	-42.9	-45.7	16.8	0.00e+00	0	41	0	695205888	56	5224
2026-01-25 23:35:55.99	135.25	67.59	-43.2	-46.2	16.4	0.00e+00	0	41	0	697303040	58	4935
2026-01-25 23:35:56.71	136.03	67.42	-42.2	-44.8	17.7	0.00e+00	0	41	0	699400192	56	4730
2026-01-25 23:35:58.04	137.43	67.10	-40.1	-42.3	19.9	0.00e+00	0	41	0	701497344	52	4476
2026-01-25 23:35:58.75	138.16	66.92	-39.7	-41.8	20.3	0.00e+00	0	41	0	702545920	51	4452
2026-01-25 23:36:00.03	139.44	66.60	-40.9	-43.3	18.8	0.00e+00	0	41	0	705691648	52	5021
2026-01-25 23:36:00.76	140.16	66.41	-41.5	-44.0	18.3	0.00e+00	0	41	0	706740224	53	5130
2026-01-25 23:36:02.04	141.39	66.07	-41.2	-43.6	18.6	0.00e+00	0	41	0	708837376	54	4614
2026-01-25 23:36:02.75	142.05	65.88	-39.8	-41.9	20.2	0.00e+00	0	41	0	710934528	51	4512
2026-01-25 23:36:04.03	143.22	65.53	-38.9	-40.9	21.1	0.00e+00	0	41	0	713031680	49	4503
2026-01-25 23:36:04.74	143.85	65.34	-38.7	-40.7	21.3	0.00e+00	0	41	0	714080256	49	4407
2026-01-25 23:36:06.02	144.96	64.98	-38.0	-40.0	21.7	0.00e+00	0	41	0	716177408	47	4548
2026-01-25 23:36:06.73	145.56	64.77	-38.4	-40.3	21.5	0.00e+00	0	41	0	718274560	47	4751
2026-01-25 23:36:08.01	146.62	64.40	-39.0	-41.1	21.0	0.00e+00	0	41	0	720371712	48	4891
2026-01-25 23:36:08.73	147.20	64.19	-39.5	-41.6	20.5	0.00e+00	0	41	0	721420288	49	4919
2026-01-25 23:36:10.01	148.20	63.81	-39.6	-41.7	20.4	0.00e+00	0	41	0	724566016	50	4679
2026-01-25 23:36:10.72	148.74	63.60	-39.7	-41.8	20.3	0.00e+00	0	41	0	725614592	50	4759
2026-01-25 23:36:12.00	149.70	63.22	-38.6	-40.6	21.4	0.00e+00	0	41	0	727711744	48	4613
2026-01-25 23:36:12.72	150.22	63.00	-38.5	-40.5	21.5	0.00e+00	0	41	0	728760320	48	4576
2026-01-25 23:36:14.00	151.13	62.60	-39.3	-41.3	20.8	0.00e+00	0	41	0	731906048	49	4735
2026-01-25 23:36:14.73	151.63	62.38	-39.4	-41.5	20.5	0.00e+00	0	41	0	732954624	49	4826
2026-01-25 23:36:16.15	152.59	61.94	-38.6	-40.6	21.3	0.00e+00	0	41	0	736100352	49	4345
2026-01-25 23:36:16.86	153.05	61.71	-38.4	-40.3	21.5	0.00e+00	0	41	0	737148928	48	4464
2026-01-25 23:36:18.17	153.89	61.30	-38.3	-40.2	21.6	0.00e+00	0	41	0	739246080	48	4427
2026-01-25 23:36:18.89	154.34	61.07	-39.0	-40.9	21.0	0.00e+00	0	41	0	740294656	48	4792
2026-01-25 23:36:20.17	155.11	60.67	-40.1	-42.2	20.0	0.00e+00	0	41	0	743440384	50	4974
2026-01-25 23:36:20.91	155.55	60.43	-40.2	-42.3	19.8	0.00e+00	0	41	0	744488960	51	4753
2026-01-25 23:36:22.18	156.28	60.03	-39.3	-41.4	20.7	0.00e+00	0	41	0	746586112	50	4508
2026-01-25 23:36:22.90	156.69	59.79	-38.7	-40.6	21.2	0.00e+00	0	41	0	748683264	49	4378
2026-01-25 23:36:24.17	157.39	59.39	-39.3	-41.3	20.7	0.00e+00	0	41	0	750780416	49	4749
2026-01-25 23:36:24.88	157.77	59.16	-39.5	-41.5	20.6	0.00e+00	0	41	0	751828992	49	4838
2026-01-25 23:36:26.17	158.44	58.74	-39.5	-41.5	20.5	0.00e+00	0	41	0	753926144	49	4852
2026-01-25 23:36:26.89	158.81	58.51	-39.9	-42.0	20.1	0.00e+00	0	41	0	756023296	50	4828
2026-01-25 23:36:28.17	159.45	58.10	-40.5	-42.7	19.4	0.00e+00	0	41	0	758120448	52	4681
2026-01-25 23:36:28.89	159.80	57.86	-39.7	-41.7	20.3	0.00e+00	0	41	0	759169024	51	4435
2026-01-25 23:36:30.16	160.40	57.45	-39.1	-41.0	20.9	0.00e+00	0	41	0	762314752	49	4596
2026-01-25 23:36:31.06	160.82	57.16	-40.2	-42.4	19.7	0.00e+00	0	41	0	763363328	51	4788
2026-01-25 23:36:32.47	161.46	56.71	-40.5	-42.8	19.3	0.00e+00	0	41	0	766509056	52	4746
2026-01-25 23:36:33.18	161.77	56.48	-39.6	-41.7	19.5	0.00e+00	0	41	0	767557632	51	4393
2026-01-25 23:36:34.70	162.42	55.99	-38.1	-40.0	21.9	0.00e+00	0	41	0	770703360	48	4296
2026-01-25 23:36:35.41	162.72	55.76	-38.4	-40.3	21.7	0.00e+00	0	41	0	771751936	48	4448
2026-01-25 23:36:36.73	163.26	55.33	-39.7	-41.8	20.2	0.00e+00	0	41	0	773849088	50	4757
2026-01-25 23:36:37.45	163.54	55.10	-39.5	-41.6	20.4	0.00e+00	0	41	0	775946240	50	4644
2026-01-25 23:36:38.72	164.04	54.69	-38.6	-40.6	21.3	0.00e+00	0	41	0	778043392	49	4367
2026-01-25 23:36:39.44	164.31	54.46	-38.5	-40.4	21.4	0.00e+00	0	41	0	779091968	48	4542
2026-01-25 23:36:40.71	164.79	54.06	-38.7	-40.7	21.3	0.00e+00	0	41	0	781189120	48	4667
2026-01-25 23:36:41.42	165.05	53.83	-39.2	-41.3	20.7	0.00e+00	0	41	0	783286272	49	4713
2026-01-25 23:36:42.70	165.51	53.43	-39.7	-41.7	20.4	0.00e+00	0	41	0	785383424	50	4680
2026-01-25 23:36:43.42	165.76	53.20	-40.0	-42.1	20.1	0.00e+00	0	41	0	786432000	50	4893
2026-01-25 23:36:44.69	166.19	52.80	-39.9	-42.0	20.0	0.00e+00	0	41	0	789577728	51	4582
2026-01-25 23:36:45.45	166.45	52.56	-39.6	-41.6	20.5	0.00e+00	0	41	0	790626304	51	4366
2026-01-25 23:36:46.73	166.87	52.16	-38.7	-40.6	21.3	0.00e+00	0	41	0	792723456	49	4342
2026-01-25 23:36:47.44	167.10	51.94	-38.4	-40.3	21.5	0.00e+00	0	41	0	793772032	48	4479
2026-01-25 23:36:48.72	167.50	51.54	-38.1	-39.9	21.7	0.00e+00	0	41	0	796917760	47	4531
2026-01-25 23:36:49.57	167.76	51.27	-38.9	-40.8	21.1	0.00e+00	0	41	0	797966336	48	4732
2026-01-25 23:36:50.71	168.11	50.92	-40.1	-42.2	19.9	0.00e+00	0	41	0	800063488	50	4969
2026-01-25 23:36:51.74	168.41	50.60	-40.6	-42.9	19.2	0.00e+00	0	41	0	802160640	52	4779
2026-01-25 23:36:52.89	168.74	50.25	-40.2	-42.4	19.7	0.00e+00	0	41	0	804257792	52	4506
2026-01-25 23:36:53.85	169.01	49.96	-39.1	-41.1	20.8	0.00e+00	0	41	0	806354944	50	4362
2026-01-25 23:36:54.85	169.29	49.66	-39.4	-41.4	20.6	0.00e+00	0	41	0	808452096	50	4532
2026-01-25 23:36:55.84	169.56	49.36	-40.4	-42.7	19.5	0.00e+00	0	41	0	809500672	51	4928
2026-01-25 23:36:56.84	169.83	49.06	-41.6	-44.0	18.2	0.00e+00	0	41	0	811597824	53	5149
2026-01-25 23:36:57.83	170.09	48.76	-42.2	-44.9	17.4	0.00e+00	0	41	0	813694976	55	5076
2026-01-25 23:36:58.83	170.35	48.46	-42.6	-45.4	16.9	0.00e+00	0	41	0	815792128	55	5378
2026-01-25 23:36:59.82	170.59	48.17	-43.1	-46.0	16.5	0.00e+00	0	41	0	817889280	56	5404
2026-01-25 23:37:00.82	170.84	47.87	-42.8	-45.6	16.8	0.00e+00	0	41	0	818937856	57	4880
2026-01-25 23:37:01.81	171.08	47.58	-43.3	-46.3	16.1	0.00e+00	0	41	0	821035008	57	5282
2026-01-25 23:37:02.80	171.32	47.29	-43.5	-46.6	15.8	0.00e+00	0	41	0	823132160	57	5490
2026-01-25 23:37:03.80	171.55	47.00	-43.5	-46.5	15.9	0.00e+00	0	41	0	825229312	57	5445
2026-01-25 23:37:04.87	171.80	46.69	-42.5	-45.1	17.3	0.00e+00	0	41	0	827326464	56	4891
2026-01-25 23:37:05.76	172.00	46.44	-41.8	-44.2	17.9	0.00e+00	0	41	0	828375040	55	4675
2026-01-25 23:37:06.89	172.25	46.11	-41.6	-44.0	18.2	0.00e+00	0	41	0	830472192	54	4840
2026-01-25 23:37:07.75	172.44	45.87	-42.9	-45.8	16.7	0.00e+00	0	41	0	832569344	56	5285
2026-01-25 23:37:08.89	172.68	45.55	-43.6	-46.8	15.7	0.00e+00	0	41	0	834666496	58	5284
2026-01-25 23:37:09.74	172.86	45.31	-43.2	-46.2	16.2	0.00e+00	0	41	0	835715072	58	4936
2026-01-25 23:37:10.88	173.10	44.99	-41.7	-44.2	18.0	0.00e+00	0	41	0	837812224	55	4674
2026-01-25 23:37:11.73	173.27	44.75	-41.3	-43.7	18.4	0.00e+00	0	41	0	839909376	54	4705
2026-01-25 23:37:12.87	173.50	44.43	-41.5	-43.9	18.3	0.00e+00	0	41	0	842006528	54	4775
2026-01-25 23:37:13.72	173.66	44.20	-41.4	-43.8	18.4	0.00e+00	0	41	0	844103680	54	4706
2026-01-25 23:37:14.85	173.88	43.89	-41.9	-44.5	17.8	0.00e+00	0	41	0	846200832	54	5120
2026-01-25 23:37:15.71	174.05	43.66	-42.2	-44.9	17.3	0.00e+00	0	41	0	847249408	55	5080
2026-01-25 23:37:16.85	174.26	43.35	-42.9	-45.8	16.6	0.00e+00	0	41	0	849346560	56	5301
2026-01-25 23:37:17.70	174.42	43.12	-42.6	-45.3	17.1	0.00e+00	0	41	0	851443712	56	5033
2026-01-25 23:37:19.03	174.66	42.76	-42.8	-45.6	16.8	0.00e+00	0	41	0	853540864	57	4915
2026-01-25 23:37:19.74	174.78	42.58	-42.4	-45.0	17.4	0.00e+00	0	41	0	854589440	56	4869
2026-01-25 23:37:21.01	175.00	42.24	-40.9	-43.2	18.9	0.00e+00	0	41	0	857735168	53	4688
2026-01-25 23:37:21.72	175.13	42.05	-40.3	-42.5	19.5	0.00e+00	0	41	0	858783744	52	4565
2026-01-25 23:37:23.01	175.34	41.72	-39.3	-41.3	20.7	0.00e+00	0	41	0	860880896	50	4469
2026-01-25 23:37:23.73	175.46	41.53	-39.3	-41.2	20.7	0.00e+00	0	41	0	861929472	50	4441
2026-01-25 23:37:25.01	175.68	41.20	-39.8	-42.0	20.1	0.00e+00	0	41	0	865075200	50	4817
2026-01-25 23:37:25.72	175.79	41.02	-40.4	-42.6	19.5	0.00e+00	0	41	0	866123776	51	4892
2026-01-25 23:37:27.00	175.99	40.69	-41.2	-43.6	18.5	0.00e+00	0	41	0	868220928	53	4899
2026-01-25 23:37:27.71	176.10	40.51	-41.3	-43.7	18.4	0.00e+00	0	41	0	870318080	53	4973
2026-01-25 23:37:28.99	176.30	40.19	-40.9	-43.3	18.7	0.00e+00	0	41	0	872415232	53	4735
2026-01-25 23:37:29.71	176.41	40.01	-40.4	-42.7	19.4	0.00e+00	0	41	0	873463808	52	4660
2026-01-25 23:37:30.99	176.60	39.69	-40.0	-42.1	19.9	0.00e+00	0	41	0	875560960	51	4650
2026-01-25 23:37:31.70	176.71	39.52	-39.5	-41.6	20.4	0.00e+00	0	41	0	877658112	51	4343
2026-01-25 23:37:33.06	176.91	39.18	-39.6	-41.7	20.3	0.00e+00	0	41	0	879755264	50	4667
2026-01-25 23:37:33.77	177.01	39.01	-40.2	-42.4	19.8	0.00e+00	0	41	0	880803840	50	5047
2026-01-25 23:37:35.05	177.19	38.70	-41.0	-43.4	18.8	0.00e+00	0	41	0	883949568	52	5045
2026-01-25 23:37:35.77	177.29	38.53	-41.4	-43.9	18.2	0.00e+00	0	41	0	884998144	53	5054
2026-01-25 23:37:37.16	177.48	38.20	-42.5	-45.3	16.9	0.00e+00	0	41	0	887095296	55	5294
2026-01-25 23:37:37.87	177.58	38.03	-42.5	-45.3	16.9	0.00e+00	0	41	0	889192448	55	5307
2026-01-25 23:37:39.22	177.75	37.71	-41.5	-44.0	18.1	0.00e+00	0	41	0	891289600	55	4587
2026-01-25 23:37:39.93	177.85	37.54	-41.4	-43.9	18.2	0.00e+00	0	41	0	892338176	54	4786
2026-01-25 23:37:41.21	178.01	37.24	-40.4	-42.7	19.3	0.00e+00	0	41	0	895483904	52	4697
2026-01-25 23:37:42.27	178.15	37.00	-40.4	-42.7	19.3	0.00e+00	0	41	0	897581056	52	4688
2026-01-25 23:37:43.15	178.26	36.80	-40.3	-42.6	19.4	0.00e+00	0	41	0	898629632	52	4621
2026-01-25 23:37:44.29	178.40	36.54	-40.5	-42.8	19.2	0.00e+00	0	41	0	900726784	52	4726
2026-01-25 23:37:45.14	178.50	36.34	-40.6	-42.9	19.2	0.00e+00	0	41	0	902823936	52	4773
2026-01-25 23:37:46.28	178.64	36.09	-40.5	-42.8	19.3	0.00e+00	0	41	0	904921088	52	4710
2026-01-25 23:37:47.14	178.74	35.89	-40.7	-43.0	19.1	0.00e+00	0	41	0	905969664	52	4823
2026-01-25 23:37:48.27	178.88	35.64	-40.5	-42.8	19.2	0.00e+00	0	41	0	908066816	52	4712
2026-01-25 23:37:49.13	178.98	35.45	-40.9	-43.2	18.8	0.00e+00	0	41	0	910163968	52	4973
2026-01-25 23:37:50.26	179.11	35.20	-41.2	-43.5	18.6	0.00e+00	0	41	0	912261120	53	4843
2026-01-25 23:37:51.19	179.21	35.00	-41.7	-44.2	17.8	0.00e+00	0	41	0	913309696	54	4933
2026-01-25 23:37:52.36	179.34	34.75	-43.0	-45.9	16.5	0.00e+00	0	41	0	916455424	56	5372
2026-01-25 23:37:53.26	179.44	34.55	-43.3	-46.4	16.0	0.00e+00	0	41	0	917504000	57	5361
2026-01-25 23:37:54.55	179.58	34.28	-44.2	-47.7	14.7	0.00e+00	0	41	0	920649728	59	5563
2026-01-25 23:37:55.27	179.66	34.12	-44.4	-48.0	14.4	3.00e-06	0	41	0	921698304	59	5729
2026-01-25 23:37:56.55	179.79	33.85	-44.5	-48.1	14.4	7.00e-07	0	41	0	923795456	59	5811
2026-01-25 23:37:57.27	179.87	33.70	-43.8	-47.1	15.3	0.00e+00	0	41	0	924844032	59	5180
2026-01-25 23:37:58.55	180.00	33.43	-43.4	-46.4	15.9	0.00e+00	0	41	0	927989760	58	5084
2026-01-25 23:37:59.26	180.07	33.29	-43.0	-45.9	16.4	0.00e+00	0	41	0	929038336	57	5071
2026-01-25 23:38:00.54	180.20	33.02	-41.8	-44.3	17.7	0.00e+00	0	41	0	931135488	55	4750
2026-01-25 23:38:01.25	180.27	32.88	-41.9	-44.5	17.6	0.00e+00	0	41	0	933232640	55	4836
2026-01-25 23:38:02.53	180.40	32.62	-41.4	-43.9	18.1	0.00e+00	0	41	0	935329792	54	4781
2026-01-25 23:38:03.25	180.47	32.47	-41.4	-43.9	18.2	0.00e+00	0	41	0	936378368	54	4781
2026-01-25 23:38:04.54	180.59	32.21	-41.5	-43.9	18.1	0.00e+00	0	41	0	938475520	54	4806
2026-01-25 23:38:05.25	180.66	32.07	-41.5	-43.9	18.1	0.00e+00	0	41	0	940572672	54	4812
2026-01-25 23:38:06.53	180.78	31.82	-41.6	-44.2	18.0	0.00e+00	0	41	0	942669824	54	4929
2026-01-25 23:38:07.24	180.84	31.68	-41.8	-44.4	17.7	0.00e+00	0	41	0	943718400	54	5070
2026-01-25 23:38:08.52	180.96	31.43	-42.5	-45.2	16.9	0.00e+00	0	41	0	945815552	55	5265
2026-01-25 23:38:09.25	181.03	31.29	-42.9	-45.8	16.5	0.00e+00	0	41	0	947912704	56	5287
2026-01-25 23:38:10.53	181.14	31.04	-43.9	-47.2	15.2	0.00e+00	0	41	0	950009856	58	5542
2026-01-25 23:38:11.24	181.20	30.90	-43.9	-47.2	15.3	0.00e+00	0	41	0	951058432	58	5531
2026-01-25 23:38:12.69	181.33	30.62	-43.8	-47.1	15.3	0.00e+00	0	41	0	954204160	58	5501
2026-01-25 23:38:13.65	181.41	30.44	-43.9	-47.2	15.2	0.00e+00	0	41	0	956301312	58	5580
2026-01-25 23:38:14.96	181.52	30.20	-43.1	-46.1	16.2	0.00e+00	0	41	0	958398464	58	4895
2026-01-25 23:38:15.67	181.58	30.06	-43.3	-46.4	15.9	0.00e+00	0	41	0	959447040	58	5045
2026-01-25 23:38:16.95	181.69	29.83	-42.8	-45.7	16.7	0.00e+00	0	41	0	962592768	57	4953
2026-01-25 23:38:17.66	181.75	29.69	-42.8	-45.7	16.6	0.00e+00	0	41	0	963641344	57	4930
2026-01-25 23:38:18.94	181.85	29.46	-42.8	-45.7	16.7	0.00e+00	0	41	0	965738496	57	4953
2026-01-25 23:38:19.66	181.91	29.33	-42.5	-45.3	17.0	0.00e+00	0	41	0	966787072	56	4995
2026-01-25 23:38:20.93	182.01	29.10	-42.2	-44.9	17.3	0.00e+00	0	41	0	969932800	56	4801
2026-01-25 23:38:21.65	182.07	28.97	-42.2	-44.9	17.3	0.00e+00	0	41	0	970981376	56	4808
2026-01-25 23:38:23.02	182.17	28.72	-41.7	-44.4	17.7	0.00e+00	0	41	0	973078528	55	4761
2026-01-25 23:38:23.73	182.23	28.60	-41.6	-44.1	17.9	0.00e+00	0	41	0	975175680	55	4648
2026-01-25 23:38:25.01	182.33	28.37	-41.8	-44.5	17.6	0.00e+00	0	41	0	977272832	55	4818
2026-01-25 23:38:25.74	182.38	28.24	-41.7	-44.3	17.7	0.00e+00	0	41	0	978321408	55	4754
2026-01-25 23:38:27.01	182.48	28.02	-41.5	-44.0	18.1	0.00e+00	0	41	0	981467136	54	4818
2026-01-25 23:38:27.72	182.53	27.90	-41.7	-44.2	17.8	0.00e+00	0	41	0	982515712	54	4972
2026-01-25 23:38:29.22	182.64	27.64	-41.5	-44.0	18.1	0.00e+00	0	41	0	985661440	54	4831
2026-01-25 23:38:29.94	182.69	27.51	-41.6	-44.1	18.0	0.00e+00	0	41	0	986710016	54	4903
2026-01-25 23:38:31.21	182.78	27.30	-41.6	-44.1	18.0	0.00e+00	0	41	0	988807168	54	4885
2026-01-25 23:38:31.93	182.83	27.17	-41.4	-43.8	18.2	0.00e+00	0	41	0	989855744	54	4741
2026-01-25 23:38:33.21	182.92	26.96	-41.0	-43.4	18.5	0.00e+00	0	41	0	993001472	54	4541
2026-01-25 23:38:33.92	182.97	26.84	-41.0	-43.4	18.5	0.00e+00	0	41	0	994050048	54	4528
2026-01-25 23:38:35.19	183.06	26.63	-40.9	-43.3	18.7	0.00e+00	0	41	0	996147200	53	4727
2026-01-25 23:38:35.91	183.11	26.51	-40.9	-43.2	18.7	0.00e+00	0	41	0	997195776	53	4696
2026-01-25 23:38:37.18	183.19	26.30	-40.8	-43.2	18.7	0.00e+00	0	41	0	1000341504	53	4682
2026-01-25 23:38:37.91	183.24	26.18	-40.9	-43.3	18.7	0.00e+00	0	41	0	1001390080	53	4720
2026-01-25 23:38:39.19	183.33	25.97	-40.6	-42.9	19.0	0.00e+00	0	41	0	1003487232	53	4537
2026-01-25 23:38:39.90	183.37	25.86	-40.5	-42.8	19.1	0.00e+00	0	41	0	1005584384	53	4446
2026-01-25 23:38:41.18	183.46	25.65	-40.3	-42.5	19.3	0.00e+00	0	41	0	1007681536	52	4584
2026-01-25 23:38:41.89	183.50	25.54	-40.2	-42.4	19.5	0.00e+00	0	41	0	1008730112	52	4514
2026-01-25 23:38:43.17	183.58	25.34	-40.2	-42.3	19.6	0.00e+00	0	41	0	1010827264	51	4756
2026-01-25 23:38:43.88	183.63	25.22	-39.9	-42.1	19.8	0.00e+00	0	41	0	1012924416	51	4613
2026-01-25 23:38:45.16	183.71	25.02	-39.7	-41.8	20.1	0.00e+00	0	41	0	1015021568	51	4465
2026-01-25 23:38:46.22	183.77	24.86	-39.5	-41.6	20.2	0.00e+00	0	41	0	1017118720	51	4367
2026-01-25 23:38:47.10	183.83	24.72	-39.4	-41.5	20.3	0.00e+00	0	41	0	1019215872	50	4576
2026-01-25 23:38:48.24	183.90	24.55	-39.2	-41.3	20.5	0.00e+00	0	41	0	1020264448	50	4442
2026-01-25 23:38:49.09	183.95	24.41	-39.3	-41.3	20.4	0.00e+00	0	41	0	1022361600	50	4487
2026-01-25 23:38:50.23	184.01	24.24	-39.2	-41.3	20.5	0.00e+00	0	41	0	1024458752	50	4446
2026-01-25 23:38:51.08	184.06	24.11	-39.2	-41.2	20.6	0.00e+00	0	41	0	1026555904	50	4408
2026-01-25 23:38:52.22	184.13	23.94	-39.4	-41.5	20.3	0.00e+00	0	41	0	1028653056	50	4579
2026-01-25 23:38:53.07	184.18	23.81	-39.5	-41.6	20.2	0.00e+00	0	41	0	1029701632	50	4642
2026-01-25 23:38:54.21	184.25	23.64	-39.3	-41.4	20.4	0.00e+00	0	41	0	1031798784	50	4503
2026-01-25 23:38:55.11	184.30	23.51	-39.4	-41.5	20.3	0.00e+00	0	41	0	1033895936	50	4551
2026-01-25 23:38:56.34	184.37	23.33	-39.4	-41.5	20.3	0.00e+00	0	41	0	1035993088	50	4572
2026-01-25 23:38:57.19	184.41	23.20	-39.6	-41.7	20.2	0.00e+00	0	41	0	1037041664	50	4667
2026-01-25 23:38:58.33	184.48	23.04	-39.6	-41.7	20.1	0.00e+00	0	41	0	1040187392	50	4693
2026-01-25 23:38:59.18	184.52	22.91	-39.7	-41.9	20.0	0.00e+00	0	41	0	1041235968	50	4766
2026-01-25 23:39:00.52	184.60	22.72	-40.0	-42.2	19.7	0.00e+00	0	41	0	1043333120	50	4939
2026-01-25 23:39:01.24	184.64	22.62	-40.0	-42.2	19.7	0.00e+00	0	41	0	1045430272	50	4942
2026-01-25 23:39:02.52	184.70	22.43	-40.0	-42.3	19.7	0.00e+00	0	41	0	1047527424	50	4985
2026-01-25 23:39:03.24	184.74	22.33	-40.1	-42.3	19.6	0.00e+00	0	41	0	1048576000	50	5019
2026-01-25 23:39:04.52	184.81	22.15	-40.3	-42.6	19.3	0.00e+00	0	41	0	1051721728	51	4893
2026-01-25 23:39:05.23	184.85	22.05	-40.5	-42.8	19.1	0.00e+00	0	41	0	1052770304	51	5034
2026-01-25 23:39:06.51	184.91	21.87	-40.3	-42.6	19.4	0.00e+00	0	41	0	1054867456	51	4891
2026-01-25 23:39:07.22	184.95	21.77	-40.5	-42.9	19.1	0.00e+00	0	41	0	1055916032	51	5053
2026-01-25 23:39:08.83	185.03	21.55	-40.5	-42.9	19.0	0.00e+00	0	41	0	1059061760	52	4781
2026-01-25 23:39:09.42	185.06	21.47	-40.5	-42.9	19.0	0.00e+00	0	41	0	1060110336	52	4763
2026-01-25 23:39:10.98	185.14	21.26	-40.7	-43.1	18.8	0.00e+00	0	41	0	1063256064	52	4900
2026-01-25 23:39:11.62	185.17	21.17	-40.6	-42.9	18.9	0.00e+00	0	41	0	1064304640	52	4813
2026-01-25 23:39:13.05	185.24	20.98	-40.4	-42.7	19.2	0.00e+00	0	41	0	1067450368	52	4690
2026-01-25 23:39:13.76	185.27	20.88	-40.4	-42.8	19.1	0.00e+00	0	41	0	1068498944	52	4710
2026-01-25 23:39:15.04	185.33	20.71	-40.3	-42.6	19.3	0.00e+00	0	41	0	1070596096	52	4622
2026-01-25 23:39:15.76	185.37	20.62	-40.1	-42.4	19.4	0.00e+00	0	41	0	1072693248	52	4517
2026-01-25 23:39:17.04	185.43	20.45	-40.0	-42.3	19.5	0.00e+00	0	41	0	1074790400	51	4717
2026-01-25 23:39:17.75	185.46	20.36	-40.3	-42.6	19.3	0.00e+00	0	41	0	1075838976	51	4884
2026-01-25 23:39:19.03	185.52	20.19	-40.2	-42.5	19.4	0.00e+00	0	41	0	1078984704	51	4830
2026-01-25 23:39:19.76	185.56	20.09	-40.1	-42.4	19.5	0.00e+00	0	41	0	1080033280	51	4793
2026-01-25 23:39:21.19	185.62	19.91	-40.3	-42.6	19.3	0.00e+00	0	41	0	1082130432	51	4902
2026-01-25 23:39:21.90	185.65	19.82	-40.3	-42.6	19.3	0.00e+00	0	41	0	1084227584	51	4894
2026-01-25 23:39:23.25	185.71	19.64	-40.3	-42.7	19.2	0.00e+00	0	41	0	1086324736	51	4964
2026-01-25 23:39:24.23	185.76	19.52	-40.0	-42.3	19.5	0.00e+00	0	41	0	1088421888	51	4725
2026-01-25 23:39:25.23	185.80	19.39	-40.0	-42.3	19.5	0.00e+00	0	41	0	1090519040	51	4725
2026-01-25 23:39:26.57	185.86	19.22	-39.8	-42.0	19.8	0.00e+00	0	41	0	1092616192	51	4596
2026-01-25 23:39:27.28	185.89	19.14	-39.7	-41.9	19.9	0.00e+00	0	41	0	1093664768	51	4542
2026-01-25 23:39:28.56	185.95	18.98	-39.8	-42.0	19.7	0.00e+00	0	41	0	1096810496	51	4588
2026-01-25 23:39:29.27	185.98	18.89	-39.7	-41.9	19.9	0.00e+00	0	41	0	1097859072	51	4519
2026-01-25 23:39:30.55	186.03	18.73	-39.6	-41.8	19.9	0.00e+00	0	41	0	1099956224	51	4473
2026-01-25 23:39:31.27	186.06	18.64	-39.7	-41.9	19.9	0.00e+00	0	41	0	1101004800	51	4530
2026-01-25 23:39:32.55	186.12	18.48	-39.7	-42.0	19.8	0.00e+00	0	41	0	1104150528	51	4569
2026-01-25 23:39:33.27	186.15	18.40	-39.6	-41.9	19.9	0.00e+00	0	41	0	1105199104	51	4498
2026-01-25 23:39:34.55	186.20	18.24	-39.5	-41.8	20.0	0.00e+00	0	41	0	1107296256	51	4448
2026-01-25 23:39:35.26	186.23	18.16	-39.6	-41.8	19.9	0.00e+00	0	41	0	1109393408	51	4478
2026-01-25 23:39:36.65	186.29	17.99	-39.8	-42.0	19.8	0.00e+00	0	41	0	1111490560	51	4587
2026-01-25 23:39:37.36	186.31	17.91	-39.6	-41.8	20.0	0.00e+00	0	41	0	1112539136	51	4493
2026-01-25 23:39:38.64	186.37	17.75	-39.7	-42.0	19.8	0.00e+00	0	41	0	1115684864	51	4578
2026-01-25 23:39:39.37	186.40	17.67	-39.8	-42.1	19.7	0.00e+00	0	41	0	1116733440	51	4641
2026-01-25 23:39:40.76	186.45	17.50	-39.7	-42.0	19.8	0.00e+00	0	41	0	1118830592	51	4554
2026-01-25 23:39:41.47	186.48	17.42	-39.8	-42.1	19.6	0.00e+00	0	41	0	1120927744	51	4633
2026-01-25 23:39:42.75	186.53	17.27	-40.0	-42.3	19.5	0.00e+00	0	41	0	1123024896	51	4723
2026-01-25 23:39:43.47	186.56	17.19	-40.1	-42.4	19.4	0.00e+00	0	41	0	1124073472	51	4810
2026-01-25 23:39:44.75	186.61	17.04	-40.3	-42.7	19.1	0.00e+00	0	41	0	1127219200	51	4965
2026-01-25 23:39:45.48	186.63	16.96	-40.4	-42.8	19.0	0.00e+00	0	41	0	1128267776	51	5040
2026-01-25 23:39:46.76	186.68	16.81	-40.5	-43.0	18.8	0.00e+00	0	41	0	1130364928	52	4850
2026-01-25 23:39:47.47	186.71	16.73	-40.5	-43.0	18.8	0.00e+00	0	41	0	1131413504	52	4827
2026-01-25 23:39:48.74	186.76	16.59	-40.7	-43.2	18.4	0.00e+00	0	41	0	1134559232	52	4967
2026-01-25 23:39:49.45	186.78	16.51	-40.7	-43.3	18.6	0.00e+00	0	41	0	1135607808	52	5016
2026-01-25 23:39:50.73	186.83	16.36	-40.7	-43.2	18.6	0.00e+00	0	41	0	1137704960	52	4938
2026-01-25 23:39:51.49	186.86	16.28	-40.8	-43.3	18.5	0.00e+00	0	41	0	1139802112	52	5029
2026-01-25 23:39:52.77	186.90	16.14	-40.9	-43.5	18.3	0.00e+00	0	41	0	1141899264	52	5130
2026-01-25 23:39:53.48	186.93	16.06	-40.9	-43.6	18.3	0.00e+00	0	41	0	1142947840	52	5175
2026-01-25 23:39:54.76	186.98	15.92	-41.0	-43.7	18.1	0.00e+00	0	41	0	1145044992	52	5255
2026-01-25 23:39:55.49	187.00	15.84	-41.0	-43.7	18.1	0.00e+00	0	41	0	1147142144	52	5242
2026-01-25 23:39:56.77	187.05	15.70	-41.0	-43.7	18.1	0.00e+00	0	41	0	1149239296	53	4951
2026-01-25 23:39:57.48	187.07	15.62	-41.1	-43.8	18.0	0.00e+00	0	40	0	1150287872	53	5010
2026-01-25 23:39:58.76	187.12	15.48	-40.9	-43.5	18.3	0.00e+00	0	41	0	1153433600	53	4835
2026-01-25 23:39:59.47	187.14	15.40	-41.0	-43.7	18.2	0.00e+00	0	41	0	1154482176	53	4930
2026-01-25 23:40:00.75	187.19	15.27	-40.8	-43.4	18.4	0.00e+00	0	41	0	1156579328	53	4813
2026-01-25 23:40:01.46	187.21	15.19	-40.9	-43.5	18.3	0.00e+00	0	41	0	1157627904	53	4826
2026-01-25 23:40:02.74	187.25	15.05	-41.0	-43.7	18.0	0.00e+00	0	41	0	1160773632	53	4942
2026-01-25 23:40:03.47	187.28	14.98	-41.0	-43.6	18.1	0.00e+00	0	41	0	1161822208	53	4886
2026-01-25 23:40:04.75	187.32	14.84	-41.1	-43.8	18.1	0.00e+00	0	41	0	1163919360	53	4991
2026-01-25 23:40:05.46	187.34	14.77	-41.0	-43.6	18.2	0.00e+00	0	40	0	1166016512	53	4891
2026-01-25 23:40:06.74	187.39	14.63	-41.1	-43.7	18.1	0.00e+00	0	41	0	1168113664	53	4979
2026-01-25 23:40:07.45	187.41	14.56	-41.1	-43.8	18.1	0.00e+00	0	41	0	1169162240	53	5008
2026-01-25 23:40:08.73	187.45	14.43	-41.1	-43.7	18.1	0.00e+00	0	41	0	1171259392	53	4962
2026-01-25 23:40:09.44	187.48	14.35	-41.2	-43.8	18.0	0.00e+00	0	41	0	1173356544	53	5008
2026-01-25 23:40:10.72	187.52	14.22	-41.2	-43.9	18.0	0.00e+00	0	41	0	1175453696	53	5053
2026-01-25 23:40:11.44	187.54	14.15	-41.2	-43.8	18.0	0.00e+00	0	40	0	1176502272	53	5002
2026-01-25 23:40:12.75	187.58	14.01	-41.1	-43.7	18.1	0.00e+00	0	40	0	1179648000	53	4950
2026-01-25 23:40:13.46	187.60	13.94	-41.2	-43.8	18.1	0.00e+00	0	41	0	1180696576	53	4986
2026-01-25 23:40:14.74	187.64	13.81	-41.2	-43.8	18.0	0.00e+00	0	40	0	1182793728	53	4993
2026-01-25 23:40:15.47	187.67	13.74	-41.3	-43.8	18.0	0.00e+00	0	41	0	1183842304	53	5036
2026-01-25 23:40:16.75	187.71	13.61	-41.3	-43.8	18.0	0.00e+00	0	41	0	1186988032	53	5028
2026-01-25 23:40:17.46	187.73	13.54	-41.3	-43.9	17.8	0.00e+00	0	41	0	1188036608	53	5084
2026-01-25 23:40:18.74	187.77	13.41	-41.3	-43.9	17.9	0.00e+00	0	41	0	1190133760	53	5081
2026-01-25 23:40:19.46	187.79	13.34	-41.4	-44.0	17.8	0.00e+00	0	41	0	1192230912	53	5130
2026-01-25 23:40:20.74	187.83	13.21	-41.6	-44.2	17.6	0.00e+00	0	41	0	1194328064	53	5266
2026-01-25 23:40:21.45	187.85	13.14	-41.5	-44.1	17.7	0.00e+00	0	41	0	1195376640	53	5190
2026-01-25 23:40:22.73	187.89	13.02	-41.5	-44.1	17.6	0.00e+00	0	41	0	1197473792	53	5218
2026-01-25 23:40:23.49	187.91	12.94	-41.6	-44.3	17.5	0.00e+00	0	41	0	1199570944	53	5339
2026-01-25 23:40:24.77	187.95	12.82	-41.4	-44.1	17.7	0.00e+00	0	41	0	1201668096	54	4880
2026-01-25 23:40:25.48	187.97	12.75	-41.5	-44.2	17.6	0.00e+00	0	41	0	1202716672	54	4955
2026-01-25 23:40:26.76	188.01	12.63	-41.4	-44.1	17.7	0.00e+00	0	41	0	1205862400	54	4882
2026-01-25 23:40:27.48	188.03	12.56	-41.5	-44.1	17.7	0.00e+00	0	41	0	1206910976	54	4918
2026-01-25 23:40:28.76	188.07	12.44	-41.4	-44.1	17.7	0.00e+00	0	41	0	1209008128	54	4890
2026-01-25 23:40:29.70	188.09	12.35	-41.5	-44.1	17.7	0.00e+00	0	41	0	1211105280	54	4923
2026-01-25 23:40:30.69	188.12	12.25	-41.6	-44.3	17.5	0.00e+00	0	41	0	1213202432	54	5004
2026-01-25 23:40:31.69	188.15	12.16	-41.4	-44.1	17.7	0.00e+00	0	41	0	1214251008	54	4903
2026-01-25 23:40:32.68	188.18	12.06	-41.5	-44.2	17.6	0.00e+00	0	41	0	1216348160	54	4954
2026-01-25 23:40:33.68	188.21	11.97	-41.7	-44.4	17.4	0.00e+00	0	41	0	1218445312	54	5067
2026-01-25 23:40:34.67	188.24	11.88	-41.4	-44.1	17.7	0.00e+00	0	41	0	1220542464	54	4903
2026-01-25 23:40:35.67	188.26	11.78	-41.5	-44.3	17.5	0.00e+00	0	41	0	1222639616	54	4990
2026-01-25 23:40:36.66	188.29	11.69	-41.6	-44.4	17.4	0.00e+00	0	41	0	1223688192	54	5080
2026-01-25 23:40:37.66	188.32	11.60	-41.4	-44.1	17.6	0.00e+00	0	41	0	1225785344	54	4921
2026-01-25 23:40:38.65	188.35	11.51	-41.5	-44.2	17.6	0.00e+00	0	41	0	1227882496	54	4949
2026-01-25 23:40:39.64	188.37	11.42	-41.4	-44.1	17.7	0.00e+00	0	41	0	1229979648	54	4907
2026-01-25 23:40:40.64	188.40	11.33	-41.5	-44.2	17.5	0.00e+00	0	41	0	1231028224	54	4974
2026-01-25 23:40:41.84	188.43	11.22	-41.5	-44.2	17.5	0.00e+00	0	41	0	1234173952	54	4969
2026-01-25 23:40:42.73	188.46	11.14	-41.5	-44.2	17.6	0.00e+00	0	41	0	1235222528	54	4957
2026-01-25 23:40:43.86	188.49	11.03	-41.7	-44.5	17.2	0.00e+00	0	40	0	1237319680	54	5154
2026-01-25 23:40:44.72	188.51	10.96	-41.7	-44.5	17.3	0.00e+00	0	41	0	1239416832	54	5133
