passes_logs/2026/01/25/T1/T1__20260125_082018_NOAA_20_JPSS-1_rec.log

#Pass ID: 20260125_082018_NOAA 20 (JPSS-1)
#Satellite: NOAA 20 (JPSS-1)
#Configuration: NOAA 20
#almurnet v.1.7.20251203
#Start time: 2026-01-25 08:20:20

#Version: 2.0.20230620
#Station: T1
#Location: 37.570604 lon 55.790049 lat
#TLE: 1 43013U 17073A   26024.42258823  .00000183  00000+0  10747-3 0  9990
#TLE: 2 43013  98.7646 325.2629 0001105  25.8644 334.2587 14.19539754424075

#Time	Az	El	Level	Level2	SNR	BER	BlckErr	Temp	State	Recorded	gain1	gain2
2026-01-25 08:20:20.90	109.59	5.13	-48.1	-63.3	3.8	1.49e+00	0	35	0	0	68	20053
2026-01-25 08:20:21.88	109.51	5.19	-48.1	-63.3	3.8	1.49e+00	0	35	104	0	68	19932
2026-01-25 08:20:22.88	109.43	5.25	-48.1	-63.3	3.8	1.49e+00	0	35	104	0	68	20009
2026-01-25 08:20:23.87	109.35	5.31	-48.1	-63.3	3.8	1.49e+00	0	35	104	0	68	20012
2026-01-25 08:20:24.86	109.27	5.37	-48.1	-63.3	3.8	1.49e+00	0	35	104	0	68	19965
2026-01-25 08:20:25.86	109.19	5.43	-48.1	-63.3	3.8	1.49e+00	0	35	104	0	68	19949
2026-01-25 08:20:26.85	109.10	5.50	-48.1	-63.3	3.8	1.49e+00	0	35	104	0	68	19933
2026-01-25 08:20:27.84	109.02	5.56	-48.1	-63.3	3.8	1.49e+00	0	35	104	0	68	19968
2026-01-25 08:20:28.84	108.94	5.62	-48.1	-63.3	3.8	1.49e+00	0	35	104	0	68	19929
2026-01-25 08:20:29.83	108.86	5.68	-48.1	-63.3	3.8	1.49e+00	0	35	104	0	68	19935
2026-01-25 08:20:30.82	108.77	5.74	-48.1	-63.3	3.8	1.49e+00	0	35	104	0	68	19913
2026-01-25 08:20:31.82	108.69	5.80	-48.1	-63.3	3.8	1.49e+00	0	35	104	0	68	19869
2026-01-25 08:20:32.81	108.60	5.87	-48.1	-63.2	3.8	1.49e+00	0	35	104	0	68	19761
2026-01-25 08:20:33.80	108.52	5.93	-48.1	-63.2	3.8	1.49e+00	0	35	104	0	68	19760
2026-01-25 08:20:34.80	108.44	5.99	-48.1	-63.2	3.8	1.49e+00	0	36	104	0	68	19732
2026-01-25 08:20:35.79	108.35	6.05	-48.1	-63.2	3.8	1.49e+00	0	35	104	0	68	19803
2026-01-25 08:20:36.78	108.27	6.11	-48.1	-63.2	3.8	1.49e+00	0	35	104	0	68	19839
2026-01-25 08:20:37.78	108.18	6.18	-48.1	-63.3	3.8	1.49e+00	0	36	104	0	68	19866
2026-01-25 08:20:38.77	108.09	6.24	-48.1	-63.2	3.8	1.49e+00	0	35	104	0	68	19839
2026-01-25 08:20:39.76	108.01	6.30	-48.1	-63.2	3.8	1.49e+00	0	36	104	0	68	19824
2026-01-25 08:20:40.76	107.92	6.36	-48.1	-63.2	3.8	1.49e+00	0	35	104	0	68	19764
2026-01-25 08:20:41.75	107.83	6.43	-48.1	-63.2	3.8	1.49e+00	0	35	104	0	68	19802
2026-01-25 08:20:42.74	107.74	6.49	-48.1	-63.2	3.8	1.49e+00	0	36	104	0	68	19839
2026-01-25 08:20:43.74	107.66	6.55	-48.1	-63.2	3.8	1.49e+00	0	36	104	0	68	19729
2026-01-25 08:20:44.73	107.57	6.61	-48.1	-63.2	3.8	1.49e+00	0	36	104	0	68	19768
2026-01-25 08:20:45.72	107.48	6.68	-48.1	-63.2	3.8	1.49e+00	0	36	104	0	68	19696
2026-01-25 08:20:46.72	107.39	6.74	-48.1	-63.1	3.8	1.49e+00	0	36	104	0	68	19527
2026-01-25 08:20:47.71	107.30	6.80	-48.1	-63.0	3.8	1.49e+00	0	36	104	0	68	19382
2026-01-25 08:20:48.71	107.21	6.87	-48.1	-63.0	3.8	1.49e+00	0	36	104	0	68	19174
2026-01-25 08:20:49.70	107.12	6.93	-48.1	-62.8	3.8	1.49e+00	0	36	104	0	68	18944
2026-01-25 08:20:50.69	107.03	6.99	-48.0	-62.8	3.8	1.49e+00	0	36	104	0	68	18836
2026-01-25 08:20:51.68	106.94	7.06	-48.1	-62.8	3.8	1.49e+00	0	36	104	0	68	18901
2026-01-25 08:20:52.68	106.84	7.12	-48.1	-62.9	3.8	1.49e+00	0	36	104	0	68	19050
2026-01-25 08:20:53.67	106.75	7.18	-48.1	-63.0	3.8	1.49e+00	0	36	104	0	68	19269
2026-01-25 08:20:54.66	106.66	7.25	-48.1	-63.0	3.8	1.49e+00	0	36	104	0	68	19380
2026-01-25 08:20:55.66	106.57	7.31	-48.1	-63.1	3.8	1.49e+00	0	36	104	0	68	19453
2026-01-25 08:20:56.65	106.47	7.38	-48.1	-63.1	3.8	1.49e+00	0	36	104	0	68	19390
2026-01-25 08:20:57.64	106.38	7.44	-48.1	-63.0	3.8	1.49e+00	0	36	104	0	68	19213
2026-01-25 08:20:58.64	106.29	7.50	-48.1	-62.8	3.8	1.49e+00	0	36	104	0	68	18906
2026-01-25 08:20:59.63	106.19	7.57	-48.1	-62.6	3.8	1.49e+00	0	36	104	0	68	18323
2026-01-25 08:21:00.63	106.10	7.63	-48.0	-62.2	3.8	1.49e+00	0	36	104	0	68	17681
2026-01-25 08:21:01.62	106.00	7.70	-48.0	-62.1	3.8	1.49e+00	0	36	104	0	68	17404
2026-01-25 08:21:02.61	105.90	7.76	-48.0	-62.2	3.8	1.49e+00	0	36	104	0	68	17681
2026-01-25 08:21:03.61	105.81	7.83	-48.1	-62.7	3.8	1.49e+00	0	36	104	0	68	18676
2026-01-25 08:21:04.60	105.71	7.89	-48.1	-63.1	3.8	1.49e+00	0	36	104	0	68	19519
2026-01-25 08:21:05.59	105.61	7.96	-48.0	-62.7	3.8	1.49e+00	0	36	104	0	68	18587
2026-01-25 08:21:06.58	105.52	8.02	-47.8	-60.2	4.0	1.49e+00	0	36	104	0	67	14833
2026-01-25 08:21:07.58	105.42	8.09	-47.4	-57.0	5.3	1.12e+00	0	36	0	1048576	66	10873
2026-01-25 08:21:08.57	105.32	8.15	-46.8	-54.2	7.6	1.59e-01	0	37	0	2097152	65	8308
2026-01-25 08:21:09.56	105.22	8.22	-46.1	-51.9	9.9	2.23e-02	0	37	0	4194304	64	6794
2026-01-25 08:21:10.56	105.12	8.28	-45.5	-50.2	11.8	2.35e-03	0	37	0	6291456	63	5921
2026-01-25 08:21:11.55	105.02	8.35	-44.8	-49.0	13.1	1.74e-04	0	37	0	8388608	61	5752
2026-01-25 08:21:12.54	104.92	8.41	-44.6	-48.5	13.6	9.10e-06	0	37	0	10485760	61	5430
2026-01-25 08:21:13.54	104.82	8.48	-44.3	-48.0	14.1	4.50e-06	0	37	0	11534336	60	5433
2026-01-25 08:21:14.53	104.72	8.54	-44.2	-47.8	14.2	1.50e-06	0	36	0	13631488	60	5328
2026-01-25 08:21:15.52	104.62	8.61	-44.2	-48.0	14.1	0.00e+00	0	36	0	15728640	60	5406
2026-01-25 08:21:16.52	104.51	8.67	-44.5	-48.4	13.7	3.00e-06	0	37	0	17825792	60	5698
2026-01-25 08:21:17.51	104.41	8.74	-45.1	-49.4	12.7	2.89e-05	0	36	0	18874368	60	6370
2026-01-25 08:21:18.50	104.31	8.80	-45.7	-50.8	11.2	2.98e-04	0	37	0	20971520	62	6657
2026-01-25 08:21:19.50	104.20	8.87	-46.4	-52.6	9.3	9.31e-03	0	37	0	23068672	63	7769
2026-01-25 08:21:20.49	104.10	8.94	-47.0	-54.8	7.1	7.91e-02	0	37	0	25165824	64	9470
2026-01-25 08:21:21.48	104.00	9.00	-47.4	-57.4	5.2	3.52e-01	0	37	0	27262976	65	11985
2026-01-25 08:21:22.48	103.89	9.07	-46.3	-52.3	9.3	9.33e-01	0	37	0	28311552	64	7048
2026-01-25 08:21:23.48	103.78	9.14	-46.2	-52.0	9.4	1.10e+00	0	37	104	29360128	64	6862
2026-01-25 08:21:24.47	103.68	9.20	-47.2	-55.8	6.5	6.63e-03	0	37	0	30408704	65	10056
2026-01-25 08:21:25.47	103.57	9.27	-47.7	-59.6	3.9	1.49e+00	0	37	104	30408704	66	14600
2026-01-25 08:21:26.46	103.46	9.34	-46.3	-52.4	9.5	1.58e-02	0	37	0	30408704	64	7128
2026-01-25 08:21:27.45	103.36	9.40	-46.9	-54.6	6.9	7.60e-01	0	37	0	32505856	65	8692
2026-01-25 08:21:28.45	103.25	9.47	-46.2	-52.1	9.8	9.94e-03	0	37	0	34603008	64	6904
2026-01-25 08:21:29.44	103.14	9.54	-46.0	-51.5	10.4	8.28e-03	0	37	0	36700160	64	6478
2026-01-25 08:21:30.44	103.03	9.60	-45.5	-50.3	11.8	1.01e-03	0	37	0	38797312	63	5966
2026-01-25 08:21:31.43	102.92	9.67	-45.3	-49.8	12.3	2.08e-04	0	37	0	39845888	62	5972
2026-01-25 08:21:32.43	102.81	9.74	-45.3	-49.9	12.2	1.60e-04	0	37	0	41943040	62	6058
2026-01-25 08:21:33.42	102.70	9.80	-45.4	-50.0	12.2	1.99e-04	0	37	0	44040192	62	6075
2026-01-25 08:21:34.42	102.59	9.87	-45.0	-49.1	13.0	8.69e-05	0	37	0	46137344	62	5526
2026-01-25 08:21:35.41	102.47	9.94	-44.6	-48.5	13.6	1.14e-05	0	37	0	47185920	61	5461
2026-01-25 08:21:36.44	102.36	10.01	-44.6	-48.4	13.7	5.30e-06	0	37	0	49283072	61	5398
2026-01-25 08:21:37.48	102.24	10.08	-44.6	-48.4	13.7	6.80e-06	0	37	0	51380224	61	5392
2026-01-25 08:21:38.44	102.13	10.14	-44.6	-48.6	13.6	1.29e-05	0	37	0	53477376	61	5476
2026-01-25 08:21:39.56	102.00	10.22	-44.6	-48.5	13.7	6.80e-06	0	37	0	55574528	61	5416
2026-01-25 08:21:40.42	101.90	10.28	-44.6	-48.4	13.8	8.30e-06	0	37	0	56623104	61	5375
2026-01-25 08:21:41.55	101.77	10.36	-44.2	-47.7	14.5	1.50e-06	0	37	0	58720256	60	5275
2026-01-25 08:21:42.40	101.67	10.41	-44.2	-47.8	14.4	0.00e+00	0	37	0	60817408	60	5303
2026-01-25 08:21:43.54	101.54	10.49	-43.9	-47.3	14.9	0.00e+00	0	37	0	62914560	59	5290
2026-01-25 08:21:44.39	101.44	10.55	-43.7	-47.0	15.2	0.00e+00	0	37	0	63963136	59	5118
2026-01-25 08:21:45.53	101.31	10.63	-43.5	-46.6	15.6	0.00e+00	0	37	0	67108864	59	4909
2026-01-25 08:21:46.38	101.20	10.69	-43.4	-46.5	15.8	0.00e+00	0	37	0	68157440	58	5111
2026-01-25 08:21:47.52	101.07	10.76	-43.4	-46.5	15.8	0.00e+00	0	37	0	70254592	58	5127
2026-01-25 08:21:48.37	100.97	10.82	-43.5	-46.6	15.6	0.00e+00	0	37	0	72351744	58	5200
2026-01-25 08:21:49.51	100.83	10.90	-43.5	-46.6	15.7	0.00e+00	0	37	0	74448896	58	5186
2026-01-25 08:21:50.37	100.73	10.96	-43.4	-46.5	15.7	0.00e+00	0	37	0	75497472	58	5145
2026-01-25 08:21:51.51	100.59	11.04	-43.4	-46.4	15.9	0.00e+00	0	37	0	77594624	58	5069
2026-01-25 08:21:52.36	100.48	11.10	-43.4	-46.5	15.7	0.00e+00	0	37	0	79691776	58	5137
2026-01-25 08:21:53.49	100.35	11.18	-43.4	-46.5	15.8	0.00e+00	0	37	0	81788928	58	5123
2026-01-25 08:21:54.36	100.24	11.24	-43.3	-46.4	15.9	0.00e+00	0	37	0	82837504	58	5064
2026-01-25 08:21:55.50	100.10	11.31	-43.2	-46.2	16.1	0.00e+00	0	37	0	84934656	58	4967
2026-01-25 08:21:56.35	99.99	11.37	-43.2	-46.3	16.0	0.00e+00	0	37	0	87031808	58	4984
2026-01-25 08:21:57.49	99.85	11.45	-43.3	-46.3	16.0	0.00e+00	0	37	0	89128960	58	5015
2026-01-25 08:21:58.34	99.74	11.51	-43.2	-46.2	16.1	0.00e+00	0	37	0	90177536	58	4962
2026-01-25 08:21:59.48	99.60	11.59	-43.1	-46.1	16.2	0.00e+00	0	37	0	92274688	58	4889
2026-01-25 08:22:00.33	99.49	11.65	-43.2	-46.2	16.1	0.00e+00	0	37	0	94371840	58	4979
2026-01-25 08:22:01.46	99.35	11.73	-43.1	-46.1	16.2	0.00e+00	0	37	0	96468992	58	4880
2026-01-25 08:22:02.32	99.24	11.79	-43.0	-45.9	16.4	0.00e+00	0	37	0	98566144	58	4790
2026-01-25 08:22:03.45	99.09	11.87	-43.1	-46.1	16.2	0.00e+00	0	37	0	100663296	58	4914
2026-01-25 08:22:04.30	98.98	11.93	-43.1	-46.0	16.3	0.00e+00	0	37	0	101711872	58	4846
2026-01-25 08:22:05.44	98.83	12.00	-42.9	-45.7	16.6	0.00e+00	0	37	0	103809024	57	4972
2026-01-25 08:22:06.29	98.72	12.06	-42.8	-45.6	16.7	0.00e+00	0	37	0	105906176	57	4892
2026-01-25 08:22:07.59	98.55	12.15	-42.7	-45.5	16.8	0.00e+00	0	37	0	108003328	57	4870
2026-01-25 08:22:08.30	98.46	12.20	-42.7	-45.5	16.9	0.00e+00	0	37	0	109051904	57	4823
2026-01-25 08:22:09.58	98.29	12.29	-42.8	-45.6	16.7	0.00e+00	0	37	0	112197632	57	4910
2026-01-25 08:22:10.31	98.19	12.34	-42.8	-45.6	16.7	0.00e+00	0	37	0	113246208	57	4921
2026-01-25 08:22:11.59	98.02	12.43	-42.8	-45.6	16.7	0.00e+00	0	37	0	115343360	57	4914
2026-01-25 08:22:12.30	97.93	12.48	-42.7	-45.5	16.8	0.00e+00	0	37	0	116391936	57	4856
2026-01-25 08:22:13.58	97.75	12.57	-42.6	-45.4	16.9	0.00e+00	0	37	0	119537664	57	4794
2026-01-25 08:22:14.29	97.66	12.62	-42.8	-45.6	16.7	0.00e+00	0	37	0	120586240	57	4906
2026-01-25 08:22:15.57	97.48	12.71	-42.7	-45.5	16.9	0.00e+00	0	37	0	122683392	57	4830
2026-01-25 08:22:16.29	97.38	12.76	-42.7	-45.4	16.9	0.00e+00	0	37	0	124780544	57	4808
2026-01-25 08:22:17.57	97.21	12.85	-42.7	-45.5	16.8	0.00e+00	0	37	0	126877696	57	4858
2026-01-25 08:22:18.28	97.11	12.90	-42.8	-45.5	16.8	0.00e+00	0	37	0	127926272	57	4870
2026-01-25 08:22:19.65	96.92	13.00	-42.8	-45.5	16.8	0.00e+00	0	37	0	131072000	57	4870
2026-01-25 08:22:20.36	96.82	13.05	-42.8	-45.6	16.7	0.00e+00	0	37	0	132120576	57	4908
2026-01-25 08:22:21.64	96.64	13.14	-42.8	-45.6	16.8	0.00e+00	0	37	0	134217728	57	4911
2026-01-25 08:22:22.35	96.54	13.19	-42.8	-45.7	16.7	0.00e+00	0	37	0	135266304	57	4927
2026-01-25 08:22:23.76	96.34	13.29	-42.9	-45.7	16.7	0.00e+00	0	37	0	138412032	57	4974
2026-01-25 08:22:24.47	96.24	13.34	-42.9	-45.7	16.6	0.00e+00	0	37	0	139460608	57	4979
2026-01-25 08:22:25.83	96.05	13.44	-42.8	-45.7	16.7	0.00e+00	0	37	0	142606336	57	4952
2026-01-25 08:22:26.54	95.94	13.49	-42.9	-45.8	16.6	0.00e+00	0	37	0	143654912	57	5002
2026-01-25 08:22:27.82	95.76	13.58	-42.9	-45.8	16.6	0.00e+00	0	37	0	145752064	57	5011
2026-01-25 08:22:28.54	95.65	13.63	-42.9	-45.8	16.7	0.00e+00	0	37	0	146800640	57	4991
2026-01-25 08:22:29.83	95.47	13.72	-42.8	-45.7	16.7	0.00e+00	0	37	0	149946368	57	4929
2026-01-25 08:22:30.53	95.36	13.77	-42.9	-45.7	16.8	0.00e+00	0	37	0	150994944	57	4938
2026-01-25 08:22:31.83	95.17	13.86	-43.0	-45.8	16.6	0.00e+00	0	37	0	153092096	57	5032
2026-01-25 08:22:32.54	95.07	13.91	-43.0	-45.8	16.5	0.00e+00	0	37	0	155189248	57	5038
2026-01-25 08:22:33.81	94.88	14.00	-43.1	-46.0	16.5	0.00e+00	0	37	0	157286400	57	5106
2026-01-25 08:22:34.54	94.77	14.05	-43.0	-45.9	16.5	0.00e+00	0	37	0	158334976	57	5073
2026-01-25 08:22:35.82	94.58	14.14	-42.9	-45.8	16.6	0.00e+00	0	37	0	160432128	57	5005
2026-01-25 08:22:36.53	94.47	14.19	-43.0	-45.8	16.6	0.00e+00	0	37	0	162529280	57	5033
2026-01-25 08:22:37.81	94.27	14.28	-43.1	-46.0	16.4	0.00e+00	0	37	0	164626432	57	5132
2026-01-25 08:22:38.53	94.16	14.33	-43.2	-46.1	16.3	0.00e+00	0	37	0	165675008	57	5194
2026-01-25 08:22:39.81	93.97	14.42	-43.3	-46.4	16.0	0.00e+00	0	37	0	168820736	57	5355
2026-01-25 08:22:40.52	93.86	14.48	-43.4	-46.4	16.0	0.00e+00	0	37	0	169869312	57	5369
2026-01-25 08:22:41.82	93.66	14.57	-43.2	-46.1	16.3	0.00e+00	0	37	0	171966464	57	5213
2026-01-25 08:22:42.53	93.55	14.62	-43.2	-46.2	16.3	0.00e+00	0	37	0	173015040	57	5220
2026-01-25 08:22:43.81	93.35	14.71	-43.1	-46.0	16.4	0.00e+00	0	37	0	176160768	57	5138
2026-01-25 08:22:44.53	93.23	14.76	-43.2	-46.2	16.3	0.00e+00	0	37	0	177209344	57	5226
2026-01-25 08:22:45.81	93.03	14.85	-43.4	-46.4	16.0	0.00e+00	0	37	0	179306496	57	5370
2026-01-25 08:22:46.54	92.92	14.90	-43.3	-46.2	16.2	0.00e+00	0	37	0	181403648	57	5278
2026-01-25 08:22:47.82	92.71	14.99	-43.1	-46.0	16.4	0.00e+00	0	37	0	183500800	57	5129
2026-01-25 08:22:48.53	92.60	15.04	-43.1	-46.0	16.5	0.00e+00	0	37	0	184549376	57	5109
2026-01-25 08:22:49.81	92.39	15.13	-43.1	-45.9	16.5	0.00e+00	0	37	0	187695104	57	5100
2026-01-25 08:22:50.52	92.28	15.18	-43.2	-46.1	16.3	0.00e+00	0	37	0	188743680	57	5192
2026-01-25 08:22:51.80	92.07	15.27	-43.1	-46.1	16.4	0.00e+00	0	37	0	190840832	57	5173
2026-01-25 08:22:52.51	91.96	15.32	-43.2	-46.2	16.3	0.00e+00	0	37	0	191889408	57	5241
2026-01-25 08:22:53.79	91.75	15.41	-43.2	-46.2	16.3	0.00e+00	0	37	0	195035136	57	5249
2026-01-25 08:22:54.72	91.59	15.48	-43.2	-46.2	16.3	0.00e+00	0	37	0	196083712	57	5235
2026-01-25 08:22:55.72	91.43	15.55	-43.3	-46.3	16.2	0.00e+00	0	37	0	198180864	57	5295
2026-01-25 08:22:56.71	91.26	15.62	-43.2	-46.1	16.3	0.00e+00	0	37	0	200278016	57	5218
2026-01-25 08:22:57.71	91.10	15.69	-43.3	-46.4	16.1	0.00e+00	0	37	0	202375168	57	5347
2026-01-25 08:22:58.70	90.93	15.76	-43.3	-46.4	16.0	0.00e+00	0	37	0	203423744	57	5396
2026-01-25 08:22:59.70	90.76	15.83	-43.3	-46.4	16.1	0.00e+00	0	37	0	205520896	57	5342
2026-01-25 08:23:00.69	90.59	15.90	-43.4	-46.5	16.0	0.00e+00	0	37	0	207618048	57	5415
2026-01-25 08:23:01.69	90.42	15.97	-43.3	-46.4	16.1	0.00e+00	0	37	0	209715200	57	5351
2026-01-25 08:23:02.73	90.25	16.04	-43.3	-46.3	16.1	0.00e+00	0	37	0	211812352	57	5334
2026-01-25 08:23:03.72	90.08	16.11	-43.3	-46.3	16.1	0.00e+00	0	37	0	212860928	57	5339
2026-01-25 08:23:04.72	89.90	16.18	-43.4	-46.5	16.0	0.00e+00	0	37	0	214958080	57	5438
2026-01-25 08:23:05.81	89.71	16.26	-43.2	-46.3	16.2	0.00e+00	0	37	0	217055232	57	5318
2026-01-25 08:23:06.69	89.56	16.32	-43.3	-46.4	16.1	0.00e+00	0	37	0	219152384	57	5342
2026-01-25 08:23:08.00	89.33	16.41	-43.2	-46.3	16.2	0.00e+00	0	37	0	221249536	57	5303
2026-01-25 08:23:08.72	89.21	16.46	-43.3	-46.4	16.1	0.00e+00	0	37	0	222298112	57	5347
2026-01-25 08:23:10.22	88.94	16.57	-43.2	-46.3	16.2	0.00e+00	0	37	0	225443840	57	5312
2026-01-25 08:23:10.92	88.82	16.61	-43.1	-46.2	16.3	0.00e+00	0	37	0	226492416	57	5224
2026-01-25 08:23:12.27	88.57	16.71	-43.0	-46.0	16.5	0.00e+00	0	37	0	229638144	57	5133
2026-01-25 08:23:12.98	88.45	16.76	-43.0	-46.0	16.5	0.00e+00	0	37	0	230686720	57	5144
2026-01-25 08:23:14.27	88.21	16.85	-42.9	-45.8	16.7	0.00e+00	0	37	0	232783872	57	5037
2026-01-25 08:23:14.98	88.09	16.90	-42.9	-45.8	16.7	0.00e+00	0	37	0	233832448	57	5037
2026-01-25 08:23:16.25	87.85	16.98	-42.7	-45.4	17.1	0.00e+00	0	37	0	236978176	57	4814
2026-01-25 08:23:16.98	87.72	17.03	-42.7	-45.5	17.0	0.00e+00	0	37	0	238026752	57	4841
2026-01-25 08:23:18.26	87.49	17.12	-42.6	-45.4	17.1	0.00e+00	0	37	0	240123904	57	4766
2026-01-25 08:23:18.97	87.35	17.17	-42.6	-45.3	17.1	0.00e+00	0	37	0	242221056	57	4751
2026-01-25 08:23:20.25	87.12	17.26	-42.5	-45.2	17.3	0.00e+00	0	37	0	244318208	56	4964
2026-01-25 08:23:20.97	86.98	17.31	-42.3	-45.0	17.5	0.00e+00	0	37	0	245366784	56	4861
2026-01-25 08:23:22.25	86.74	17.40	-42.3	-45.0	17.5	0.00e+00	0	37	0	248512512	56	4853
2026-01-25 08:23:22.98	86.61	17.45	-42.3	-45.0	17.4	0.00e+00	0	37	0	249561088	56	4854
2026-01-25 08:23:24.26	86.36	17.53	-42.1	-44.8	17.7	0.00e+00	0	37	0	251658240	56	4745
2026-01-25 08:23:24.98	86.23	17.58	-42.1	-44.7	17.8	0.00e+00	0	37	0	252706816	56	4687
2026-01-25 08:23:26.26	85.98	17.67	-42.1	-44.7	17.8	0.00e+00	0	37	0	255852544	56	4678
2026-01-25 08:23:27.18	85.81	17.73	-42.0	-44.6	17.9	0.00e+00	0	37	0	256901120	56	4632
2026-01-25 08:23:28.50	85.55	17.82	-41.5	-44.1	18.2	0.00e+00	0	37	0	260046848	55	4643
2026-01-25 08:23:29.22	85.41	17.87	-41.5	-44.1	18.2	0.00e+00	0	37	0	261095424	55	4620
2026-01-25 08:23:30.84	85.10	17.98	-41.4	-43.9	18.3	0.00e+00	0	37	0	264241152	54	4811
2026-01-25 08:23:31.41	84.99	18.02	-41.4	-44.0	18.3	0.00e+00	0	37	0	265289728	54	4830
2026-01-25 08:23:33.12	84.65	18.13	-41.3	-43.8	18.5	0.00e+00	0	37	0	268435456	54	4742
2026-01-25 08:23:33.73	84.53	18.17	-41.3	-43.8	18.5	0.00e+00	0	37	0	269484032	54	4726
2026-01-25 08:23:35.30	84.22	18.28	-41.3	-43.8	18.5	0.00e+00	0	37	0	272629760	54	4720
2026-01-25 08:23:35.93	84.09	18.32	-41.2	-43.7	18.7	0.00e+00	0	37	0	273678336	54	4661
2026-01-25 08:23:37.43	83.79	18.42	-41.0	-43.4	19.0	0.00e+00	0	37	0	276824064	54	4504
2026-01-25 08:23:38.14	83.65	18.46	-40.9	-43.3	19.0	0.00e+00	0	37	0	277872640	53	4752
2026-01-25 08:23:39.42	83.39	18.55	-41.0	-43.4	18.8	0.00e+00	0	37	0	279969792	53	4813
2026-01-25 08:23:40.13	83.25	18.59	-40.9	-43.3	19.0	0.00e+00	0	37	0	281018368	53	4713
2026-01-25 08:23:41.41	82.99	18.68	-40.8	-43.2	19.1	0.00e+00	0	37	0	284164096	53	4667
2026-01-25 08:23:42.18	82.83	18.73	-40.9	-43.3	19.0	0.00e+00	0	37	0	285212672	53	4716
2026-01-25 08:23:43.76	82.51	18.83	-40.9	-43.3	19.0	0.00e+00	0	37	0	288358400	53	4721
2026-01-25 08:23:44.40	82.37	18.87	-40.9	-43.3	19.0	0.00e+00	0	37	0	289406976	53	4733
2026-01-25 08:23:45.82	82.08	18.96	-40.9	-43.3	19.0	0.00e+00	0	37	0	292552704	53	4713
2026-01-25 08:23:46.53	81.93	19.01	-40.9	-43.3	18.9	0.00e+00	0	37	0	293601280	53	4757
2026-01-25 08:23:47.81	81.66	19.09	-40.6	-42.9	19.4	0.00e+00	0	37	0	295698432	53	4523
2026-01-25 08:23:48.53	81.51	19.14	-40.5	-42.8	19.4	0.00e+00	0	37	0	296747008	53	4484
2026-01-25 08:23:49.81	81.24	19.22	-40.5	-42.8	19.5	0.00e+00	0	37	0	299892736	53	4463
2026-01-25 08:23:50.54	81.09	19.26	-40.6	-42.9	19.4	0.00e+00	0	37	0	300941312	53	4514
2026-01-25 08:23:51.81	80.82	19.34	-40.6	-42.9	19.4	0.00e+00	0	37	0	303038464	53	4495
2026-01-25 08:23:52.57	80.65	19.39	-40.7	-43.0	19.3	0.00e+00	0	37	0	305135616	53	4575
2026-01-25 08:23:53.85	80.38	19.47	-40.7	-43.0	19.3	0.00e+00	0	37	0	307232768	53	4576
2026-01-25 08:23:54.57	80.22	19.52	-40.6	-42.9	19.4	0.00e+00	0	37	0	308281344	53	4521
2026-01-25 08:23:55.85	79.95	19.60	-40.5	-42.8	19.5	0.00e+00	0	37	0	311427072	53	4462
2026-01-25 08:23:56.59	79.78	19.64	-40.5	-42.8	19.5	0.00e+00	0	37	0	312475648	53	4467
2026-01-25 08:23:58.17	79.44	19.74	-40.6	-42.9	19.4	0.00e+00	0	37	0	315621376	53	4528
2026-01-25 08:23:58.81	79.30	19.78	-40.7	-42.9	19.3	0.00e+00	0	37	0	316669952	53	4545
2026-01-25 08:24:00.47	78.93	19.88	-40.7	-42.9	19.4	0.00e+00	0	37	0	319815680	53	4538
2026-01-25 08:24:01.03	78.81	19.91	-40.7	-42.9	19.3	0.00e+00	0	37	0	320864256	53	4545
2026-01-25 08:24:02.74	78.43	20.01	-40.9	-43.1	19.2	0.00e+00	0	37	0	324009984	53	4650
2026-01-25 08:24:03.31	78.30	20.05	-40.8	-43.1	19.2	0.00e+00	0	37	0	325058560	53	4646
2026-01-25 08:24:05.02	77.92	20.15	-40.8	-43.1	19.2	0.00e+00	0	37	0	328204288	53	4631
2026-01-25 08:24:05.59	77.79	20.18	-40.8	-43.1	19.3	0.00e+00	0	37	0	329252864	53	4614
2026-01-25 08:24:07.29	77.40	20.28	-40.9	-43.2	19.1	0.00e+00	0	37	0	332398592	53	4683
2026-01-25 08:24:07.86	77.28	20.32	-41.0	-43.3	19.0	0.00e+00	0	37	0	333447168	53	4744
2026-01-25 08:24:09.56	76.89	20.41	-40.8	-43.1	19.2	0.00e+00	0	37	0	336592896	53	4627
2026-01-25 08:24:10.13	76.76	20.45	-40.8	-43.1	19.2	0.00e+00	0	37	0	337641472	53	4636
2026-01-25 08:24:12.04	76.32	20.56	-40.7	-43.0	19.3	0.00e+00	0	37	0	340787200	53	4571
2026-01-25 08:24:12.61	76.18	20.59	-40.6	-42.9	19.4	0.00e+00	0	37	0	342884352	53	4518
2026-01-25 08:24:14.32	75.79	20.68	-40.7	-43.0	19.3	0.00e+00	0	37	0	346030080	53	4563
2026-01-25 08:24:15.03	75.62	20.72	-40.7	-43.0	19.3	0.00e+00	0	37	0	347078656	53	4567
2026-01-25 08:24:16.31	75.32	20.79	-40.6	-42.9	19.4	0.00e+00	0	37	0	349175808	53	4513
2026-01-25 08:24:17.02	75.15	20.83	-40.6	-42.8	19.5	0.00e+00	0	37	0	350224384	53	4463
2026-01-25 08:24:18.30	74.85	20.90	-40.5	-42.8	19.5	0.00e+00	0	37	0	353370112	53	4448
2026-01-25 08:24:19.02	74.68	20.94	-40.5	-42.7	19.6	0.00e+00	0	37	0	354418688	53	4418
2026-01-25 08:24:20.30	74.38	21.01	-40.3	-42.5	19.8	0.00e+00	0	37	0	356515840	52	4579
2026-01-25 08:24:21.02	74.21	21.05	-40.3	-42.5	19.8	0.00e+00	0	37	0	358612992	52	4557
2026-01-25 08:24:22.30	73.90	21.12	-40.3	-42.4	19.9	0.00e+00	0	37	0	360710144	52	4526
2026-01-25 08:24:23.01	73.73	21.15	-40.3	-42.4	19.8	0.00e+00	0	37	0	361758720	52	4545
2026-01-25 08:24:24.29	73.42	21.22	-40.4	-42.6	19.7	0.00e+00	0	38	0	363855872	52	4625
2026-01-25 08:24:25.00	73.25	21.26	-40.5	-42.7	19.6	0.00e+00	0	37	0	365953024	52	4666
2026-01-25 08:24:26.28	72.94	21.32	-40.5	-42.7	19.6	0.00e+00	0	37	0	368050176	52	4681
2026-01-25 08:24:27.01	72.76	21.36	-40.5	-42.7	19.6	0.00e+00	0	37	0	369098752	52	4684
2026-01-25 08:24:28.28	72.45	21.42	-40.3	-42.5	19.8	0.00e+00	0	37	0	372244480	52	4564
2026-01-25 08:24:29.09	72.25	21.46	-40.2	-42.3	19.9	0.00e+00	0	37	0	373293056	52	4488
2026-01-25 08:24:30.23	71.97	21.52	-40.2	-42.3	20.0	0.00e+00	0	37	0	375390208	52	4482
2026-01-25 08:24:31.30	71.71	21.57	-40.1	-42.2	20.0	0.00e+00	0	37	0	377487360	52	4438
2026-01-25 08:24:32.33	71.46	21.62	-40.1	-42.3	20.0	0.00e+00	0	37	0	379584512	52	4451
2026-01-25 08:24:33.49	71.17	21.68	-40.0	-42.2	20.1	0.00e+00	0	37	0	381681664	52	4399
2026-01-25 08:24:34.35	70.95	21.72	-40.1	-42.3	20.0	0.00e+00	0	37	0	382730240	52	4451
2026-01-25 08:24:35.71	70.61	21.78	-40.1	-42.2	20.0	0.00e+00	0	37	0	385875968	52	4429
2026-01-25 08:24:36.42	70.44	21.81	-40.0	-42.1	20.1	0.00e+00	0	37	0	386924544	52	4372
2026-01-25 08:24:37.70	70.11	21.87	-40.0	-42.1	20.2	0.00e+00	0	37	0	389021696	51	4649
2026-01-25 08:24:38.47	69.92	21.91	-40.2	-42.3	20.1	0.00e+00	0	37	0	391118848	51	4728
2026-01-25 08:24:39.75	69.60	21.96	-40.3	-42.4	19.9	0.00e+00	0	37	0	393216000	51	4804
2026-01-25 08:24:40.52	69.40	22.00	-40.4	-42.5	19.9	0.00e+00	0	37	0	394264576	51	4862
2026-01-25 08:24:41.80	69.08	22.05	-40.4	-42.6	19.8	0.00e+00	0	37	0	397410304	51	4891
2026-01-25 08:24:42.52	68.89	22.08	-40.5	-42.6	19.8	0.00e+00	0	37	0	398458880	51	4923
2026-01-25 08:24:43.79	68.57	22.14	-40.5	-42.7	19.7	0.00e+00	0	37	0	400556032	51	4972
2026-01-25 08:24:44.61	68.36	22.17	-40.4	-42.6	19.8	0.00e+00	0	37	0	402653184	51	4907
2026-01-25 08:24:46.05	67.99	22.23	-40.5	-42.6	19.8	0.00e+00	0	37	0	404750336	51	4913
2026-01-25 08:24:46.76	67.80	22.26	-40.4	-42.5	19.9	0.00e+00	0	37	0	406847488	51	4859
2026-01-25 08:24:48.04	67.47	22.31	-40.4	-42.6	19.8	0.00e+00	0	37	0	408944640	51	4877
2026-01-25 08:24:48.75	67.29	22.34	-40.5	-42.7	19.7	0.00e+00	0	37	0	409993216	51	4958
2026-01-25 08:24:50.03	66.96	22.39	-40.6	-42.8	19.6	0.00e+00	0	37	0	412090368	51	5039
2026-01-25 08:24:50.76	66.77	22.42	-40.8	-43.1	19.3	0.00e+00	0	37	0	414187520	52	4890
2026-01-25 08:24:52.03	66.43	22.47	-40.9	-43.2	19.1	0.00e+00	0	37	0	416284672	52	4976
2026-01-25 08:24:52.76	66.24	22.49	-41.2	-43.6	18.8	0.00e+00	0	37	0	417333248	53	4886
2026-01-25 08:24:54.04	65.91	22.54	-41.3	-43.7	18.6	0.00e+00	0	37	0	420478976	53	4967
2026-01-25 08:24:54.76	65.72	22.57	-41.4	-43.8	18.6	0.00e+00	0	37	0	421527552	53	5011
2026-01-25 08:24:56.11	65.36	22.61	-41.4	-43.8	18.6	0.00e+00	0	37	0	423624704	53	4998
2026-01-25 08:24:56.82	65.17	22.64	-41.4	-43.8	18.5	0.00e+00	0	37	0	425721856	53	5031
2026-01-25 08:24:58.21	64.81	22.69	-41.4	-43.8	18.6	0.00e+00	0	37	0	427819008	53	5012
2026-01-25 08:24:58.92	64.62	22.71	-41.4	-43.8	18.6	0.00e+00	0	37	0	428867584	53	5006
2026-01-25 08:25:00.24	64.27	22.75	-41.5	-43.9	18.5	0.00e+00	0	37	0	432013312	53	5075
2026-01-25 08:25:00.96	64.08	22.78	-41.6	-44.1	18.3	0.00e+00	0	37	0	433061888	53	5178
2026-01-25 08:25:02.27	63.73	22.82	-41.8	-44.3	17.9	0.00e+00	0	37	0	435159040	54	5023
2026-01-25 08:25:02.98	63.53	22.84	-41.7	-44.2	18.1	0.00e+00	0	37	0	437256192	54	4978
2026-01-25 08:25:04.26	63.19	22.88	-41.7	-44.2	18.2	0.00e+00	0	37	0	439353344	54	4960
2026-01-25 08:25:04.98	63.00	22.90	-41.7	-44.2	18.2	0.00e+00	0	37	0	440401920	54	4955
2026-01-25 08:25:06.26	62.65	22.94	-41.9	-44.4	18.0	0.00e+00	0	37	0	443547648	54	5082
2026-01-25 08:25:06.97	62.46	22.96	-41.8	-44.3	18.1	0.00e+00	0	37	0	444596224	54	5012
2026-01-25 08:25:08.25	62.12	23.00	-41.9	-44.4	18.0	0.00e+00	0	37	0	446693376	54	5090
2026-01-25 08:25:08.97	61.92	23.01	-41.8	-44.4	18.0	0.00e+00	0	37	0	447741952	54	5055
2026-01-25 08:25:10.26	61.57	23.05	-42.0	-44.6	17.8	0.00e+00	0	37	0	450887680	54	5199
2026-01-25 08:25:10.98	61.38	23.07	-42.1	-44.7	17.7	0.00e+00	0	37	0	451936256	54	5275
2026-01-25 08:25:12.26	61.03	23.10	-42.2	-44.8	17.6	0.00e+00	0	37	0	454033408	55	5008
2026-01-25 08:25:13.11	60.80	23.12	-42.2	-44.8	17.6	0.00e+00	0	37	0	456130560	55	5003
2026-01-25 08:25:14.25	60.48	23.15	-42.1	-44.7	17.7	0.00e+00	0	37	0	458227712	55	4951
2026-01-25 08:25:15.29	60.20	23.17	-42.2	-44.8	17.6	0.00e+00	0	37	0	460324864	55	4999
2026-01-25 08:25:16.43	59.89	23.20	-42.2	-44.8	17.6	0.00e+00	0	37	0	462422016	55	5036
2026-01-25 08:25:17.28	59.65	23.22	-42.3	-44.9	17.5	0.00e+00	0	37	0	463470592	55	5079
2026-01-25 08:25:18.42	59.34	23.24	-42.2	-44.8	17.6	0.00e+00	0	37	0	465567744	55	4999
2026-01-25 08:25:19.27	59.11	23.26	-42.3	-44.9	17.5	0.00e+00	0	37	0	467664896	55	5066
2026-01-25 08:25:20.41	58.79	23.28	-42.2	-44.8	17.6	0.00e+00	0	37	0	469762048	55	5025
2026-01-25 08:25:21.26	58.56	23.30	-42.1	-44.7	17.7	0.00e+00	0	37	0	470810624	55	4964
2026-01-25 08:25:22.40	58.25	23.32	-42.0	-44.5	17.9	0.00e+00	0	37	0	472907776	55	4870
2026-01-25 08:25:23.25	58.01	23.33	-42.0	-44.5	17.9	0.00e+00	0	37	0	475004928	55	4862
2026-01-25 08:25:24.39	57.70	23.35	-42.0	-44.5	17.9	0.00e+00	0	37	0	477102080	55	4838
2026-01-25 08:25:25.24	57.46	23.36	-42.1	-44.6	17.8	0.00e+00	0	37	0	478150656	55	4904
2026-01-25 08:25:26.38	57.14	23.38	-42.2	-44.8	17.6	0.00e+00	0	37	0	480247808	55	4992
2026-01-25 08:25:27.24	56.91	23.39	-42.2	-44.8	17.6	0.00e+00	0	37	0	482344960	55	5031
2026-01-25 08:25:28.37	56.59	23.41	-42.2	-44.7	17.7	0.00e+00	0	37	0	484442112	55	4970
2026-01-25 08:25:29.22	56.36	23.42	-42.0	-44.6	17.9	0.00e+00	0	37	0	486539264	55	4883
2026-01-25 08:25:30.36	56.04	23.44	-42.0	-44.5	17.9	0.00e+00	0	37	0	488636416	55	4857
2026-01-25 08:25:31.21	55.80	23.45	-42.0	-44.5	18.0	0.00e+00	0	37	0	489684992	55	4827
2026-01-25 08:25:32.35	55.48	23.46	-42.0	-44.5	17.9	0.00e+00	0	37	0	491782144	55	4832
2026-01-25 08:25:33.20	55.25	23.47	-41.9	-44.4	18.0	0.00e+00	0	37	0	493879296	55	4792
2026-01-25 08:25:34.34	54.93	23.48	-41.9	-44.4	18.0	0.00e+00	0	37	0	495976448	55	4796
2026-01-25 08:25:35.40	54.63	23.49	-41.8	-44.3	18.1	0.00e+00	0	37	0	498073600	55	4740
2026-01-25 08:25:36.27	54.39	23.49	-41.8	-44.3	18.1	0.00e+00	0	37	0	499122176	55	4737
2026-01-25 08:25:37.41	54.07	23.50	-41.9	-44.5	18.0	0.00e+00	0	38	0	501219328	55	4815
2026-01-25 08:25:38.26	53.84	23.51	-41.9	-44.4	18.0	0.00e+00	0	37	0	503316480	55	4798
2026-01-25 08:25:39.40	53.52	23.52	-41.9	-44.4	18.1	0.00e+00	0	37	0	505413632	55	4779
2026-01-25 08:25:40.25	53.28	23.52	-41.8	-44.3	18.2	0.00e+00	0	37	0	506462208	55	4708
2026-01-25 08:25:41.39	52.96	23.52	-41.6	-44.1	18.3	0.00e+00	0	37	0	508559360	55	4599
2026-01-25 08:25:42.24	52.72	23.53	-41.6	-44.0	18.4	0.00e+00	0	37	0	510656512	55	4579
2026-01-25 08:25:43.38	52.40	23.53	-41.6	-44.0	18.3	0.00e+00	0	37	0	512753664	55	4587
2026-01-25 08:25:44.23	52.17	23.53	-41.5	-43.9	18.5	0.00e+00	0	37	0	513802240	54	4804
2026-01-25 08:25:45.44	51.83	23.54	-41.2	-43.6	18.8	0.00e+00	0	37	0	516947968	54	4638
2026-01-25 08:25:46.30	51.59	23.54	-41.2	-43.6	18.8	0.00e+00	0	37	0	517996544	54	4644
2026-01-25 08:25:47.43	51.27	23.54	-41.3	-43.7	18.7	0.00e+00	0	37	0	520093696	54	4657
2026-01-25 08:25:48.29	51.03	23.54	-41.2	-43.6	18.8	0.00e+00	0	37	0	522190848	54	4601
2026-01-25 08:25:49.53	50.68	23.53	-41.0	-43.4	19.0	0.00e+00	0	37	0	524288000	54	4517
2026-01-25 08:25:50.39	50.44	23.53	-41.0	-43.4	19.0	0.00e+00	0	37	0	525336576	54	4506
2026-01-25 08:25:51.52	50.13	23.53	-41.0	-43.4	19.0	0.00e+00	0	37	0	527433728	54	4503
2026-01-25 08:25:52.38	49.88	23.53	-41.1	-43.5	18.9	0.00e+00	0	37	0	529530880	54	4564
2026-01-25 08:25:53.52	49.57	23.52	-40.8	-43.1	19.2	0.00e+00	0	37	0	531628032	53	4627
2026-01-25 08:25:54.37	49.33	23.52	-40.8	-43.1	19.3	0.00e+00	0	37	0	533725184	53	4623
2026-01-25 08:25:55.51	49.01	23.51	-40.7	-42.9	19.4	0.00e+00	0	37	0	535822336	53	4524
2026-01-25 08:25:56.36	48.77	23.50	-40.6	-42.8	19.5	0.00e+00	0	37	0	536870912	53	4490
2026-01-25 08:25:57.50	48.45	23.49	-40.4	-42.6	19.8	0.00e+00	0	37	0	538968064	52	4623
2026-01-25 08:25:58.35	48.22	23.49	-40.1	-42.3	20.0	0.00e+00	0	37	0	541065216	52	4464
2026-01-25 08:25:59.49	47.90	23.48	-40.0	-42.1	20.2	0.00e+00	0	38	0	543162368	52	4376
2026-01-25 08:26:00.34	47.66	23.47	-40.0	-42.1	20.3	0.00e+00	0	37	0	544210944	51	4605
2026-01-25 08:26:01.48	47.34	23.46	-40.0	-42.1	20.2	0.00e+00	0	37	0	546308096	51	4640
2026-01-25 08:26:02.33	47.11	23.45	-40.0	-42.2	20.2	0.00e+00	0	37	0	548405248	51	4660
2026-01-25 08:26:03.47	46.79	23.44	-40.0	-42.1	20.3	0.00e+00	0	37	0	550502400	51	4613
2026-01-25 08:26:04.32	46.55	23.42	-39.9	-42.0	20.4	0.00e+00	0	37	0	551550976	51	4556
2026-01-25 08:26:05.46	46.24	23.41	-39.8	-41.8	20.5	0.00e+00	0	38	0	553648128	51	4490
2026-01-25 08:26:06.31	46.00	23.40	-39.8	-41.8	20.6	0.00e+00	0	37	0	555745280	51	4482
2026-01-25 08:26:07.61	45.64	23.38	-39.8	-41.9	20.5	0.00e+00	0	37	0	557842432	51	4536
2026-01-25 08:26:08.32	45.45	23.37	-39.8	-41.9	20.4	0.00e+00	0	37	0	558891008	51	4537
2026-01-25 08:26:09.59	45.09	23.35	-39.8	-41.9	20.4	0.00e+00	0	37	0	562036736	51	4537
2026-01-25 08:26:10.31	44.90	23.34	-39.8	-41.9	20.5	0.00e+00	0	37	0	563085312	51	4518
2026-01-25 08:26:11.59	44.54	23.31	-39.8	-41.9	20.5	0.00e+00	0	37	0	565182464	51	4519
2026-01-25 08:26:12.30	44.35	23.30	-39.9	-42.0	20.4	0.00e+00	0	37	0	567279616	51	4560
2026-01-25 08:26:13.58	43.99	23.28	-39.7	-41.7	20.6	0.00e+00	0	37	0	569376768	51	4432
2026-01-25 08:26:14.29	43.80	23.26	-39.8	-41.9	20.5	0.00e+00	0	37	0	570425344	51	4504
2026-01-25 08:26:15.57	43.45	23.24	-39.7	-41.8	20.2	0.00e+00	0	37	0	572522496	51	4475
2026-01-25 08:26:16.28	43.25	23.22	-39.8	-41.9	20.5	0.00e+00	0	37	0	574619648	51	4510
2026-01-25 08:26:17.55	42.90	23.19	-39.8	-41.9	20.5	0.00e+00	0	37	0	576716800	51	4505
2026-01-25 08:26:18.27	42.71	23.18	-39.9	-42.0	20.4	0.00e+00	0	37	0	577765376	51	4562
2026-01-25 08:26:19.54	42.36	23.15	-40.0	-42.2	20.2	0.00e+00	0	37	0	579862528	51	4653
2026-01-25 08:26:20.25	42.17	23.13	-40.1	-42.2	20.1	0.00e+00	0	37	0	581959680	51	4689
2026-01-25 08:26:21.68	41.78	23.10	-40.1	-42.2	20.2	0.00e+00	0	37	0	584056832	51	4680
2026-01-25 08:26:22.67	41.51	23.07	-40.1	-42.2	20.2	0.00e+00	0	37	0	586153984	51	4687
2026-01-25 08:26:23.98	41.15	23.04	-40.0	-42.1	20.2	0.00e+00	0	37	0	588251136	51	4640
2026-01-25 08:26:24.69	40.96	23.02	-40.0	-42.1	20.2	0.00e+00	0	37	0	590348288	51	4646
2026-01-25 08:26:25.97	40.62	22.99	-40.3	-42.4	20.0	0.00e+00	0	37	0	592445440	51	4799
2026-01-25 08:26:26.68	40.42	22.97	-40.4	-42.5	19.9	0.00e+00	0	37	0	593494016	51	4865
2026-01-25 08:26:27.96	40.08	22.93	-40.6	-42.8	19.6	0.00e+00	0	37	0	596639744	51	5006
2026-01-25 08:26:28.68	39.89	22.91	-40.6	-42.9	19.5	0.00e+00	0	37	0	597688320	51	5055
2026-01-25 08:26:29.97	39.54	22.87	-40.6	-42.9	19.5	0.00e+00	0	37	0	599785472	52	4760
2026-01-25 08:26:30.69	39.35	22.85	-40.7	-42.9	19.4	0.00e+00	0	37	0	600834048	52	4808
2026-01-25 08:26:32.02	38.99	22.81	-40.7	-43.0	19.3	0.00e+00	0	37	0	603979776	52	4833
2026-01-25 08:26:32.73	38.80	22.78	-40.8	-43.1	19.3	0.00e+00	0	37	0	605028352	52	4875
2026-01-25 08:26:34.01	38.46	22.74	-40.9	-43.2	19.1	0.00e+00	0	37	0	607125504	52	4964
2026-01-25 08:26:34.76	38.26	22.72	-41.0	-43.3	19.1	0.00e+00	0	37	0	609222656	52	5025
2026-01-25 08:26:36.04	37.92	22.67	-41.0	-43.4	19.0	0.00e+00	0	37	0	611319808	52	5054
2026-01-25 08:26:36.75	37.74	22.65	-41.1	-43.4	18.9	0.00e+00	0	38	0	612368384	52	5090
2026-01-25 08:26:38.03	37.40	22.61	-41.1	-43.4	18.9	0.00e+00	0	37	0	615514112	52	5098
2026-01-25 08:26:38.74	37.21	22.58	-41.1	-43.4	18.9	0.00e+00	0	37	0	616562688	52	5085
2026-01-25 08:26:40.02	36.88	22.53	-41.2	-43.5	18.9	0.00e+00	0	37	0	618659840	52	5121
2026-01-25 08:26:40.74	36.69	22.51	-41.1	-43.5	18.9	0.00e+00	0	37	0	619708416	53	4830
2026-01-25 08:26:42.02	36.35	22.46	-41.1	-43.5	18.9	0.00e+00	0	37	0	622854144	53	4828
2026-01-25 08:26:42.76	36.16	22.43	-41.2	-43.6	18.8	0.00e+00	0	37	0	623902720	53	4875
2026-01-25 08:26:44.04	35.83	22.38	-41.4	-43.8	18.6	0.00e+00	0	37	0	625999872	53	5008
2026-01-25 08:26:44.75	35.64	22.36	-41.5	-43.9	18.5	0.00e+00	0	37	0	628097024	53	5068
2026-01-25 08:26:46.03	35.31	22.31	-41.5	-44.0	18.4	0.00e+00	0	38	0	630194176	53	5131
2026-01-25 08:26:46.75	35.13	22.28	-41.6	-44.0	18.4	0.00e+00	0	37	0	631242752	53	5146
2026-01-25 08:26:48.03	34.80	22.22	-41.7	-44.1	18.2	0.00e+00	0	37	0	633339904	53	5213
2026-01-25 08:26:48.74	34.62	22.20	-41.6	-44.0	18.3	0.00e+00	0	37	0	635437056	54	4864
2026-01-25 08:26:50.02	34.29	22.14	-41.4	-43.9	18.5	0.00e+00	0	37	0	637534208	54	4766
2026-01-25 08:26:50.73	34.11	22.11	-41.5	-44.0	18.4	0.00e+00	0	37	0	638582784	54	4834
2026-01-25 08:26:52.01	33.78	22.06	-41.6	-44.0	18.4	0.00e+00	0	37	0	641728512	54	4849
2026-01-25 08:26:52.72	33.60	22.03	-41.7	-44.1	18.3	0.00e+00	0	38	0	642777088	54	4920
2026-01-25 08:26:54.00	33.28	21.97	-41.8	-44.3	18.1	0.00e+00	0	37	0	644874240	54	5041
2026-01-25 08:26:54.71	33.10	21.94	-41.8	-44.4	18.0	0.00e+00	0	38	0	645922816	54	5059
2026-01-25 08:26:56.13	32.74	21.88	-41.8	-44.4	18.0	0.00e+00	0	37	0	649068544	54	5085
2026-01-25 08:26:56.84	32.56	21.84	-41.8	-44.4	18.0	0.00e+00	0	37	0	650117120	54	5084
2026-01-25 08:26:58.17	32.23	21.78	-41.7	-44.3	18.2	0.00e+00	0	37	0	653262848	54	4987
2026-01-25 08:26:58.88	32.05	21.75	-41.6	-44.2	18.2	0.00e+00	0	38	0	654311424	54	4928
2026-01-25 08:27:00.22	31.72	21.69	-41.7	-44.2	18.2	0.00e+00	0	37	0	656408576	54	4982
2026-01-25 08:27:00.93	31.55	21.65	-41.8	-44.3	18.1	0.00e+00	0	37	0	658505728	54	5018
2026-01-25 08:27:02.21	31.23	21.59	-41.7	-44.1	18.2	0.00e+00	0	37	0	660602880	54	4916
2026-01-25 08:27:02.92	31.05	21.56	-41.6	-44.0	18.3	0.00e+00	0	37	0	661651456	54	4848
2026-01-25 08:27:04.20	30.74	21.49	-41.7	-44.1	18.2	0.00e+00	0	37	0	663748608	54	4914
2026-01-25 08:27:04.93	30.56	21.46	-41.7	-44.1	18.2	0.00e+00	0	37	0	665845760	54	4916
2026-01-25 08:27:06.21	30.25	21.39	-41.9	-44.5	17.9	0.00e+00	0	37	0	667942912	54	5139
2026-01-25 08:27:06.94	30.07	21.36	-42.0	-44.6	17.9	0.00e+00	0	37	0	668991488	54	5160
2026-01-25 08:27:08.22	29.76	21.29	-42.1	-44.7	17.7	0.00e+00	0	37	0	672137216	54	5254
2026-01-25 08:27:08.93	29.59	21.26	-42.1	-44.7	17.8	0.00e+00	0	37	0	673185792	54	5251
2026-01-25 08:27:10.21	29.28	21.19	-42.0	-44.5	17.8	0.00e+00	0	38	0	675282944	54	5131
2026-01-25 08:27:10.94	29.11	21.15	-41.9	-44.5	17.9	0.00e+00	0	37	0	676331520	54	5115
2026-01-25 08:27:12.21	28.81	21.09	-41.8	-44.3	18.1	0.00e+00	0	37	0	679477248	54	5028
2026-01-25 08:27:12.94	28.63	21.05	-41.7	-44.1	18.2	0.00e+00	0	37	0	680525824	54	4926
2026-01-25 08:27:14.25	28.32	20.98	-41.6	-44.1	18.3	0.00e+00	0	37	0	682622976	54	4889
2026-01-25 08:27:14.96	28.15	20.94	-41.8	-44.3	18.1	0.00e+00	0	37	0	684720128	54	4986
2026-01-25 08:27:16.24	27.85	20.87	-41.7	-44.1	18.2	0.00e+00	0	37	0	686817280	54	4916
2026-01-25 08:27:16.97	27.68	20.83	-41.7	-44.1	18.2	0.00e+00	0	37	0	687865856	54	4920
2026-01-25 08:27:18.25	27.38	20.76	-41.6	-44.1	18.3	0.00e+00	0	37	0	689963008	54	4915
2026-01-25 08:27:18.97	27.21	20.72	-41.6	-44.1	18.2	0.00e+00	0	37	0	692060160	54	4926
2026-01-25 08:27:20.25	26.92	20.65	-41.6	-44.1	18.3	0.00e+00	0	37	0	694157312	54	4904
2026-01-25 08:27:20.96	26.75	20.61	-41.6	-44.1	18.3	0.00e+00	0	37	0	695205888	54	4905
2026-01-25 08:27:22.24	26.46	20.54	-41.5	-44.1	18.3	0.00e+00	0	37	0	698351616	54	4897
2026-01-25 08:27:23.00	26.28	20.50	-41.5	-44.1	18.3	0.00e+00	0	37	0	699400192	54	4890
2026-01-25 08:27:24.28	25.99	20.42	-41.3	-43.9	18.4	0.00e+00	0	37	0	701497344	54	4794
2026-01-25 08:27:25.00	25.83	20.38	-41.3	-43.8	18.5	0.00e+00	0	37	0	703594496	54	4741
2026-01-25 08:27:26.28	25.54	20.31	-41.2	-43.8	18.6	0.00e+00	0	37	0	705691648	54	4731
2026-01-25 08:27:26.99	25.38	20.27	-41.2	-43.8	18.6	0.00e+00	0	37	0	706740224	54	4727
2026-01-25 08:27:28.27	25.09	20.19	-41.2	-43.8	18.5	0.00e+00	0	37	0	708837376	54	4733
2026-01-25 08:27:28.99	24.93	20.15	-41.2	-43.8	18.5	0.00e+00	0	37	0	710934528	54	4743
2026-01-25 08:27:30.27	24.64	20.07	-41.3	-43.9	18.4	0.00e+00	0	38	0	713031680	54	4793
2026-01-25 08:27:31.00	24.48	20.03	-41.3	-43.8	18.5	0.00e+00	0	37	0	714080256	54	4737
2026-01-25 08:27:32.28	24.19	19.95	-41.3	-43.8	18.5	0.00e+00	0	37	0	717225984	54	4754
2026-01-25 08:27:33.01	24.03	19.91	-41.4	-43.9	18.5	0.00e+00	0	37	0	718274560	54	4773
2026-01-25 08:27:34.29	23.75	19.83	-41.4	-43.9	18.5	0.00e+00	0	37	0	720371712	54	4792
2026-01-25 08:27:35.31	23.53	19.77	-41.4	-43.9	18.4	0.00e+00	0	37	0	722468864	54	4783
2026-01-25 08:27:36.31	23.31	19.71	-41.4	-43.9	18.5	0.00e+00	0	37	0	724566016	54	4780
2026-01-25 08:27:37.30	23.09	19.65	-41.3	-43.7	18.6	0.00e+00	0	37	0	726663168	54	4687
2026-01-25 08:27:38.30	22.88	19.59	-41.3	-43.7	18.6	0.00e+00	0	37	0	727711744	54	4699
2026-01-25 08:27:39.29	22.66	19.53	-41.3	-43.8	18.6	0.00e+00	0	37	0	729808896	54	4714
2026-01-25 08:27:40.29	22.45	19.47	-41.2	-43.7	18.6	0.00e+00	0	37	0	731906048	54	4693
2026-01-25 08:27:41.28	22.24	19.40	-41.2	-43.6	18.7	0.00e+00	0	38	0	734003200	54	4641
2026-01-25 08:27:42.28	22.03	19.34	-41.1	-43.6	18.7	0.00e+00	0	38	0	735051776	54	4624
2026-01-25 08:27:43.34	21.80	19.27	-41.2	-43.7	18.7	0.00e+00	0	37	0	737148928	54	4662
2026-01-25 08:27:44.25	21.61	19.22	-41.3	-43.8	18.6	0.00e+00	0	37	0	739246080	54	4731
2026-01-25 08:27:45.39	21.37	19.15	-41.3	-43.8	18.5	0.00e+00	0	37	0	741343232	54	4738
2026-01-25 08:27:46.24	21.19	19.09	-41.4	-43.9	18.5	0.00e+00	0	38	0	743440384	54	4771
2026-01-25 08:27:47.58	20.91	19.01	-41.3	-43.8	18.5	0.00e+00	0	37	0	745537536	54	4737
2026-01-25 08:27:48.29	20.77	18.96	-41.3	-43.9	18.5	0.00e+00	0	37	0	746586112	54	4767
2026-01-25 08:27:49.78	20.46	18.86	-41.2	-43.8	18.5	0.00e+00	0	37	0	749731840	54	4736
2026-01-25 08:27:50.49	20.31	18.82	-41.3	-43.8	16.7	0.00e+00	0	37	0	750780416	54	4739
2026-01-25 08:27:51.83	20.04	18.73	-41.4	-44.0	18.4	0.00e+00	0	37	0	753926144	54	4834
2026-01-25 08:27:52.54	19.89	18.69	-41.4	-43.9	18.4	0.00e+00	0	37	0	754974720	54	4806
2026-01-25 08:27:53.82	19.63	18.60	-41.4	-43.9	18.5	0.00e+00	0	37	0	757071872	54	4764
2026-01-25 08:27:54.53	19.49	18.56	-41.4	-43.9	18.5	0.00e+00	0	37	0	758120448	54	4769
2026-01-25 08:27:55.81	19.23	18.47	-41.5	-44.0	18.4	0.00e+00	0	37	0	761266176	54	4818
2026-01-25 08:27:56.55	19.09	18.42	-41.4	-43.9	18.4	0.00e+00	0	37	0	762314752	54	4808
2026-01-25 08:27:57.83	18.83	18.34	-41.4	-43.9	18.4	0.00e+00	0	37	0	764411904	54	4770
2026-01-25 08:27:58.54	18.69	18.29	-41.5	-44.0	18.3	0.00e+00	0	37	0	766509056	54	4860
2026-01-25 08:27:59.82	18.44	18.21	-41.4	-43.9	18.4	0.00e+00	0	37	0	768606208	54	4781
2026-01-25 08:28:00.55	18.29	18.16	-41.3	-43.9	18.5	0.00e+00	0	37	0	769654784	54	4761
2026-01-25 08:28:01.83	18.04	18.07	-41.3	-43.8	18.5	0.00e+00	0	38	0	771751936	54	4744
2026-01-25 08:28:02.55	17.90	18.03	-41.3	-43.8	18.5	0.00e+00	0	37	0	773849088	54	4750
2026-01-25 08:28:03.83	17.66	17.94	-41.3	-43.8	18.5	0.00e+00	0	37	0	775946240	54	4755
2026-01-25 08:28:04.57	17.51	17.89	-41.2	-43.7	18.6	0.00e+00	0	38	0	776994816	54	4691
2026-01-25 08:28:05.85	17.27	17.81	-41.3	-43.8	18.5	0.00e+00	0	37	0	780140544	54	4725
2026-01-25 08:28:06.67	17.11	17.75	-41.3	-43.7	18.6	0.00e+00	0	37	0	781189120	54	4705
2026-01-25 08:28:08.11	16.84	17.65	-41.3	-43.8	18.6	0.00e+00	0	38	0	784334848	54	4716
2026-01-25 08:28:08.81	16.70	17.61	-41.2	-43.6	18.8	0.00e+00	0	37	0	785383424	54	4607
2026-01-25 08:28:10.09	16.46	17.52	-41.1	-43.5	18.8	0.00e+00	0	37	0	787480576	54	4572
2026-01-25 08:28:10.82	16.32	17.47	-41.0	-43.4	18.9	0.00e+00	0	37	0	789577728	54	4524
2026-01-25 08:28:12.35	16.04	17.36	-41.0	-43.3	18.9	0.00e+00	0	38	0	791674880	53	4754
2026-01-25 08:28:13.07	15.91	17.32	-41.0	-43.3	19.0	0.00e+00	0	37	0	793772032	53	4742
2026-01-25 08:28:14.35	15.67	17.23	-41.0	-43.4	18.9	0.00e+00	0	38	0	795869184	53	4760
2026-01-25 08:28:15.08	15.53	17.18	-40.9	-43.2	19.1	0.00e+00	0	37	0	796917760	53	4687
2026-01-25 08:28:16.46	15.28	17.08	-40.8	-43.1	19.1	0.00e+00	0	38	0	800063488	53	4638
2026-01-25 08:28:17.17	15.15	17.04	-40.7	-43.0	19.2	0.00e+00	0	37	0	801112064	53	4583
2026-01-25 08:28:18.45	14.92	16.95	-40.6	-43.0	19.3	0.00e+00	0	37	0	803209216	53	4549
2026-01-25 08:28:19.16	14.79	16.90	-40.6	-43.1	19.2	0.00e+00	0	38	0	804257792	53	4602
2026-01-25 08:28:20.43	14.56	16.81	-40.5	-43.0	19.2	0.00e+00	0	37	0	807403520	53	4592
2026-01-25 08:28:21.14	14.44	16.76	-40.5	-43.1	19.2	0.00e+00	0	37	0	808452096	53	4600
2026-01-25 08:28:22.42	14.21	16.67	-40.5	-43.1	19.2	0.00e+00	0	37	0	810549248	52	4871
2026-01-25 08:28:23.14	14.08	16.62	-40.6	-43.1	19.1	0.00e+00	0	37	0	811597824	52	4900
2026-01-25 08:28:24.73	13.80	16.51	-40.7	-43.2	19.1	0.00e+00	0	37	0	814743552	52	4952
2026-01-25 08:28:25.30	13.70	16.47	-40.5	-43.0	19.2	0.00e+00	0	37	0	815792128	52	4848
2026-01-25 08:28:27.01	13.40	16.35	-40.5	-43.0	19.2	0.00e+00	0	37	0	818937856	52	4866
2026-01-25 08:28:27.58	13.30	16.31	-40.4	-42.9	19.4	0.00e+00	0	37	0	819986432	52	4767
2026-01-25 08:28:29.28	13.01	16.20	-40.1	-42.5	19.7	0.00e+00	0	37	0	823132160	52	4589
2026-01-25 08:28:29.85	12.91	16.16	-40.2	-42.6	19.6	0.00e+00	0	37	0	825229312	52	4644
2026-01-25 08:28:31.56	12.62	16.04	-40.2	-42.7	19.6	0.00e+00	0	37	0	828375040	52	4655
2026-01-25 08:28:32.12	12.53	16.00	-40.2	-42.7	19.5	0.00e+00	0	38	0	829423616	52	4661
2026-01-25 08:28:33.91	12.22	15.87	-40.5	-42.9	19.3	0.00e+00	0	37	0	832569344	52	4803
2026-01-25 08:28:34.48	12.13	15.83	-40.5	-43.0	19.3	0.00e+00	0	37	0	833617920	52	4815
2026-01-25 08:28:36.18	11.84	15.71	-40.5	-42.9	19.3	0.00e+00	0	37	0	836763648	52	4808
2026-01-25 08:28:36.75	11.75	15.67	-40.5	-42.8	19.3	0.00e+00	0	37	0	837812224	52	4753
2026-01-25 08:28:38.46	11.47	15.55	-40.5	-42.9	19.3	0.00e+00	0	38	0	840957952	52	4765
2026-01-25 08:28:39.03	11.37	15.51	-40.4	-42.7	19.4	0.00e+00	0	37	0	842006528	52	4704
2026-01-25 08:28:40.73	11.10	15.39	-40.3	-42.7	19.5	0.00e+00	0	38	0	845152256	52	4656
2026-01-25 08:28:41.30	11.00	15.35	-40.2	-42.6	19.6	0.00e+00	0	37	0	846200832	52	4605
2026-01-25 08:28:43.15	10.71	15.22	-40.2	-42.7	19.5	0.00e+00	0	37	0	849346560	52	4660
2026-01-25 08:28:43.72	10.61	15.18	-40.2	-42.7	19.4	0.00e+00	0	37	0	850395136	52	4701
2026-01-25 08:28:45.72	10.29	15.04	-40.4	-42.9	19.4	0.00e+00	0	37	0	854589440	52	4763
2026-01-25 08:28:46.29	10.20	15.00	-40.3	-42.8	19.4	0.00e+00	0	37	0	855638016	52	4734
2026-01-25 08:28:48.00	9.93	14.88	-40.6	-43.0	19.2	0.00e+00	0	37	0	858783744	52	4857
2026-01-25 08:28:48.57	9.84	14.84	-40.6	-43.0	19.2	0.00e+00	0	38	0	859832320	52	4863
2026-01-25 08:28:50.27	9.58	14.72	-40.7	-43.2	19.0	0.00e+00	0	37	0	862978048	52	4932
2026-01-25 08:28:50.84	9.49	14.68	-40.7	-43.2	18.9	0.00e+00	0	37	0	864026624	52	4958
2026-01-25 08:28:52.55	9.23	14.56	-40.6	-43.2	18.9	0.00e+00	0	37	0	867172352	52	4974
2026-01-25 08:28:53.12	9.14	14.52	-40.7	-43.3	18.9	0.00e+00	0	37	0	868220928	52	4998
2026-01-25 08:28:55.22	8.82	14.37	-40.8	-43.5	18.7	0.00e+00	0	37	0	872415232	52	5108
2026-01-25 08:28:55.70	8.75	14.34	-40.9	-43.5	18.7	0.00e+00	0	37	0	873463808	52	5150
2026-01-25 08:28:57.57	8.47	14.21	-41.1	-43.8	18.5	0.00e+00	0	37	0	876609536	52	5289
2026-01-25 08:28:58.14	8.38	14.17	-41.1	-43.8	18.4	0.00e+00	0	37	0	877658112	52	5305
2026-01-25 08:28:59.86	8.12	14.05	-41.2	-43.9	18.3	0.00e+00	0	37	0	880803840	53	5088
2026-01-25 08:29:00.43	8.04	14.01	-41.2	-44.0	18.2	0.00e+00	0	37	0	881852416	53	5109
2026-01-25 08:29:02.12	7.79	13.89	-41.1	-43.9	18.2	0.00e+00	0	37	0	884998144	53	5090
2026-01-25 08:29:02.85	7.68	13.84	-41.0	-43.9	18.3	0.00e+00	0	37	0	886046720	53	5085
2026-01-25 08:29:04.13	7.50	13.75	-40.9	-43.7	18.5	0.00e+00	0	38	0	889192448	53	4948
2026-01-25 08:29:04.85	7.39	13.70	-40.8	-43.6	18.5	0.00e+00	0	37	0	890241024	53	4925
2026-01-25 08:29:06.13	7.21	13.61	-40.8	-43.7	18.5	0.00e+00	0	37	0	892338176	53	4934
2026-01-25 08:29:07.13	7.06	13.54	-40.8	-43.6	18.6	0.00e+00	0	37	0	894435328	53	4880
2026-01-25 08:29:08.12	6.92	13.47	-41.0	-43.8	18.4	0.00e+00	0	37	0	896532480	53	4992
2026-01-25 08:29:09.12	6.78	13.40	-41.1	-43.8	18.3	0.00e+00	0	37	0	898629632	53	5033
2026-01-25 08:29:10.11	6.64	13.33	-41.2	-44.0	18.2	0.00e+00	0	38	0	900726784	53	5113
2026-01-25 08:29:11.11	6.50	13.26	-41.2	-44.1	18.1	0.00e+00	0	37	0	901775360	53	5164
2026-01-25 08:29:12.10	6.36	13.19	-41.3	-44.2	18.0	0.00e+00	0	37	0	903872512	53	5246
2026-01-25 08:29:13.10	6.22	13.12	-41.4	-44.2	18.0	0.00e+00	0	37	0	905969664	53	5260
2026-01-25 08:29:14.14	6.08	13.04	-41.4	-44.2	17.9	0.00e+00	0	38	0	908066816	53	5279
2026-01-25 08:29:15.16	5.94	12.97	-41.6	-44.4	17.8	0.00e+00	0	37	0	910163968	53	5364
2026-01-25 08:29:16.16	5.80	12.90	-41.5	-44.2	17.9	0.00e+00	0	37	0	911212544	53	5269
2026-01-25 08:29:17.15	5.66	12.83	-41.5	-44.2	18.0	0.00e+00	0	37	0	913309696	53	5249
2026-01-25 08:29:18.15	5.53	12.76	-41.5	-44.2	17.9	0.00e+00	0	37	0	915406848	53	5267
2026-01-25 08:29:19.14	5.39	12.69	-41.4	-44.1	18.0	0.00e+00	0	37	0	917504000	53	5201
2026-01-25 08:29:20.14	5.26	12.62	-41.4	-44.2	18.0	0.00e+00	0	38	0	918552576	53	5241
2026-01-25 08:29:21.13	5.13	12.55	-41.3	-44.2	18.0	0.00e+00	0	37	0	920649728	53	5247
2026-01-25 08:29:22.12	4.99	12.49	-41.4	-44.2	17.9	0.00e+00	0	37	0	922746880	53	5277
2026-01-25 08:29:23.12	4.86	12.42	-41.4	-44.2	17.9	0.00e+00	0	38	0	924844032	53	5272
2026-01-25 08:29:24.11	4.73	12.35	-41.5	-44.4	17.7	0.00e+00	0	37	0	926941184	53	5366
2026-01-25 08:29:25.11	4.60	12.28	-41.6	-44.4	17.7	0.00e+00	0	37	0	927989760	53	5384
2026-01-25 08:29:26.10	4.47	12.21	-41.7	-44.6	17.6	0.00e+00	0	37	0	930086912	54	5183
2026-01-25 08:29:27.10	4.34	12.14	-41.7	-44.5	17.7	0.00e+00	0	37	0	932184064	54	5107
2026-01-25 08:29:28.09	4.21	12.07	-41.8	-44.6	17.5	0.00e+00	0	37	0	934281216	54	5205
2026-01-25 08:29:29.09	4.08	12.00	-41.8	-44.6	17.6	0.00e+00	0	37	0	935329792	54	5172
2026-01-25 08:29:30.08	3.96	11.93	-41.8	-44.6	17.6	0.00e+00	0	38	0	937426944	54	5164
2026-01-25 08:29:31.08	3.83	11.86	-41.9	-44.7	17.5	0.00e+00	0	37	0	939524096	54	5220
2026-01-25 08:29:32.07	3.70	11.79	-42.0	-44.8	17.4	0.00e+00	0	37	0	941621248	54	5290
2026-01-25 08:29:33.14	3.57	11.72	-42.0	-44.8	17.3	0.00e+00	0	38	0	943718400	54	5315
2026-01-25 08:29:34.03	3.45	11.66	-41.9	-44.8	17.3	0.00e+00	0	37	0	944766976	54	5291
2026-01-25 08:29:35.16	3.31	11.58	-42.0	-45.0	17.2	0.00e+00	0	38	0	946864128	54	5404
2026-01-25 08:29:36.11	3.19	11.51	-41.9	-44.9	17.2	0.00e+00	0	37	0	948961280	54	5399
2026-01-25 08:29:37.28	3.05	11.43	-41.9	-45.0	17.2	0.00e+00	0	37	0	951058432	54	5413
2026-01-25 08:29:38.13	2.94	11.38	-42.0	-45.0	17.1	0.00e+00	0	38	0	953155584	54	5463
2026-01-25 08:29:39.27	2.80	11.30	-42.0	-45.0	17.2	0.00e+00	0	37	0	955252736	54	5415
2026-01-25 08:29:40.12	2.70	11.24	-42.0	-44.9	17.2	0.00e+00	0	38	0	956301312	54	5400
2026-01-25 08:29:41.26	2.56	11.16	-42.1	-45.0	17.1	0.00e+00	0	37	0	958398464	54	5443
2026-01-25 08:29:42.11	2.46	11.10	-42.1	-45.0	17.1	0.00e+00	0	37	0	960495616	54	5410
2026-01-25 08:29:43.25	2.32	11.02	-41.9	-44.9	17.2	0.00e+00	0	37	0	962592768	54	5391
2026-01-25 08:29:44.10	2.22	10.97	-41.8	-45.0	17.2	0.00e+00	0	37	0	963641344	54	5421
2026-01-25 08:29:45.24	2.08	10.89	-41.7	-44.9	17.2	0.00e+00	0	37	0	965738496	54	5370
2026-01-25 08:29:46.10	1.98	10.83	-41.7	-44.9	17.2	0.00e+00	0	37	0	967835648	54	5393
2026-01-25 08:29:47.71	1.79	10.72	-41.9	-45.0	17.1	0.00e+00	0	37	0	970981376	54	5414
2026-01-25 08:29:48.29	1.72	10.68	-41.9	-45.0	17.1	0.00e+00	0	37	0	972029952	54	5414
2026-01-25 08:29:49.86	1.54	10.57	-42.1	-45.1	17.0	0.00e+00	0	37	0	975175680	54	5510
2026-01-25 08:29:50.52	1.46	10.53	-42.2	-45.2	16.9	0.00e+00	0	37	0	976224256	54	5558
2026-01-25 08:29:51.94	1.30	10.43	-42.3	-45.4	16.7	0.00e+00	0	37	0	978321408	55	5359
2026-01-25 08:29:52.65	1.22	10.38	-42.3	-45.5	16.6	0.00e+00	0	37	0	980418560	55	5404
2026-01-25 08:29:54.06	1.06	10.29	-42.4	-45.6	16.4	0.00e+00	0	37	0	982515712	55	5514
2026-01-25 08:29:54.77	0.97	10.24	-42.4	-45.6	16.4	0.00e+00	0	37	0	983564288	55	5517
2026-01-25 08:29:56.05	0.83	10.15	-42.3	-45.6	16.5	0.00e+00	0	37	0	986710016	55	5485
2026-01-25 08:29:56.76	0.75	10.10	-42.3	-45.7	16.4	0.00e+00	0	37	0	987758592	55	5558
2026-01-25 08:29:58.04	0.61	10.02	-42.3	-45.7	16.4	0.00e+00	0	37	0	989855744	55	5556
2026-01-25 08:29:58.76	0.53	9.97	-42.2	-45.7	16.4	0.00e+00	0	37	0	991952896	55	5537
2026-01-25 08:30:00.23	0.36	9.87	-42.3	-45.8	16.2	0.00e+00	0	37	0	994050048	55	5650
2026-01-25 08:30:00.94	0.28	9.82	-42.3	-45.9	16.2	0.00e+00	0	37	0	995098624	55	5670
2026-01-25 08:30:02.22	0.14	9.74	-42.3	-45.9	16.2	0.00e+00	0	37	0	998244352	55	5681
2026-01-25 08:30:02.93	0.07	9.69	-42.3	-46.0	16.1	0.00e+00	0	37	0	999292928	55	5739
2026-01-25 08:30:04.21	359.93	9.60	-42.4	-46.1	16.0	0.00e+00	0	37	0	1001390080	55	5790
2026-01-25 08:30:04.92	359.85	9.55	-42.4	-46.1	15.9	0.00e+00	0	37	0	1003487232	55	5823
2026-01-25 08:30:06.20	359.71	9.47	-42.6	-46.2	15.8	0.00e+00	0	37	0	1005584384	55	5916
2026-01-25 08:30:06.91	359.63	9.42	-42.6	-46.3	15.8	0.00e+00	0	37	0	1006632960	55	5924
2026-01-25 08:30:08.18	359.50	9.34	-42.9	-46.5	15.8	0.00e+00	0	37	0	1008730112	56	5731
2026-01-25 08:30:08.93	359.42	9.29	-43.0	-46.5	15.7	0.00e+00	0	37	0	1010827264	56	5749
2026-01-25 08:30:10.21	359.28	9.20	-43.2	-46.5	15.7	0.00e+00	0	37	0	1012924416	56	5737
2026-01-25 08:30:10.92	359.21	9.15	-43.2	-46.5	15.7	0.00e+00	0	37	0	1013972992	57	5449
2026-01-25 08:30:12.20	359.07	9.07	-43.1	-46.3	15.9	0.00e+00	0	37	0	1016070144	57	5323
2026-01-25 08:30:12.99	358.99	9.02	-43.1	-46.4	15.8	0.00e+00	0	38	0	1018167296	57	5369
2026-01-25 08:30:14.22	358.86	8.94	-46.8	-62.3	3.8	2.33e-01	0	38	104	1020264448	64	22342
2026-01-25 08:30:15.16	358.77	8.87	-47.3	-63.5	3.8	1.49e+00	0	37	104	1020264448	65	24146
2026-01-25 08:30:16.33	358.65	8.80	-47.0	-63.7	3.8	1.49e+00	0	38	104	1020264448	66	23350
2026-01-25 08:30:17.19	358.56	8.74	-48.1	-63.7	3.8	1.49e+00	0	37	104	1020264448	66	23485
2026-01-25 08:30:18.55	358.42	8.65	-48.0	-63.8	3.8	1.49e+00	0	37	104	1020264448	67	22358
2026-01-25 08:30:19.26	358.35	8.60	-48.2	-63.8	3.8	1.49e+00	0	37	104	1020264448	67	22352
2026-01-25 08:30:20.77	358.19	8.50	-48.3	-63.9	3.8	1.49e+00	0	37	104	1020264448	67	22661
2026-01-25 08:30:21.48	358.12	8.46	-48.3	-63.9	3.8	1.49e+00	0	37	104	1020264448	67	22631
2026-01-25 08:30:22.80	357.99	8.37	-48.5	-63.9	3.8	1.49e+00	0	37	104	1020264448	67	22705
2026-01-25 08:30:23.52	357.92	8.32	-47.7	-64.0	3.8	1.49e+00	0	37	104	1020264448	67	22794
2026-01-25 08:30:24.86	357.79	8.24	-48.8	-64.2	3.8	1.49e+00	0	37	104	1020264448	68	22022
2026-01-25 08:30:25.57	357.72	8.19	-48.7	-64.1	3.8	1.49e+00	0	37	104	1020264448	68	21964
2026-01-25 08:30:26.84	357.59	8.11	-48.8	-64.2	3.8	1.49e+00	0	38	104	1020264448	68	22037
2026-01-25 08:30:27.55	357.52	8.06	-48.9	-64.2	3.8	1.49e+00	0	38	104	1020264448	68	22022
2026-01-25 08:30:28.83	357.40	7.98	-48.9	-64.2	3.8	1.49e+00	0	37	104	1020264448	68	22118
2026-01-25 08:30:29.54	357.33	7.93	-48.7	-64.2	3.8	1.49e+00	0	37	104	1020264448	68	22069
2026-01-25 08:30:30.82	357.21	7.85	-49.0	-64.2	3.8	1.49e+00	0	37	104	1020264448	68	22144
2026-01-25 08:30:31.52	357.14	7.80	-48.8	-64.2	3.8	1.49e+00	0	38	104	1020264448	68	22052
2026-01-25 08:30:32.80	357.02	7.72	-48.8	-64.2	3.8	1.49e+00	0	37	104	1020264448	68	22153
2026-01-25 08:30:33.51	356.95	7.68	-48.9	-64.2	3.8	1.49e+00	0	37	104	1020264448	68	22133
2026-01-25 08:30:34.79	356.83	7.59	-48.8	-64.2	3.8	1.49e+00	0	37	104	1020264448	68	22067
2026-01-25 08:30:35.50	356.76	7.55	-49.0	-64.2	3.8	1.49e+00	0	37	104	1020264448	68	22217
2026-01-25 08:30:36.78	356.64	7.46	-49.0	-64.2	3.8	1.49e+00	0	37	104	1020264448	68	22196
2026-01-25 08:30:37.49	356.58	7.42	-48.9	-64.2	3.8	1.49e+00	0	38	104	1020264448	68	22154
2026-01-25 08:30:38.76	356.46	7.34	-48.9	-64.2	3.8	1.49e+00	0	37	104	1020264448	68	22125
2026-01-25 08:30:39.47	356.39	7.29	-48.9	-64.2	3.8	1.49e+00	0	37	104	1020264448	68	22133
2026-01-25 08:30:40.80	356.27	7.21	-49.0	-64.2	3.8	1.49e+00	0	37	104	1020264448	68	22130
2026-01-25 08:30:41.51	356.21	7.16	-48.8	-64.2	3.8	1.49e+00	0	37	104	1020264448	68	22232
2026-01-25 08:30:42.85	356.08	7.08	-48.6	-64.2	3.8	1.49e+00	0	37	104	1020264448	68	22076
2026-01-25 08:30:43.56	356.02	7.03	-48.6	-64.2	3.8	1.49e+00	0	37	104	1020264448	68	22043
2026-01-25 08:30:44.85	355.90	6.95	-48.6	-64.2	3.8	1.49e+00	0	38	104	1020264448	68	22033
2026-01-25 08:30:45.56	355.84	6.90	-48.6	-64.2	3.8	1.49e+00	0	37	104	1020264448	68	22061
2026-01-25 08:30:46.84	355.73	6.82	-48.6	-64.2	3.8	1.49e+00	0	38	104	1020264448	68	22055
2026-01-25 08:30:47.55	355.66	6.78	-48.6	-64.2	3.8	1.49e+00	0	37	104	1020264448	68	22023
2026-01-25 08:30:48.83	355.55	6.70	-48.6	-64.2	3.8	1.49e+00	0	37	104	1020264448	68	22043
2026-01-25 08:30:49.54	355.49	6.65	-48.6	-64.2	3.8	1.49e+00	0	37	104	1020264448	68	22046
2026-01-25 08:30:50.81	355.37	6.57	-48.6	-64.1	3.8	1.49e+00	0	37	104	1020264448	68	21959
2026-01-25 08:30:51.52	355.31	6.53	-48.6	-64.1	3.8	1.49e+00	0	37	104	1020264448	68	21989
2026-01-25 08:30:52.80	355.20	6.45	-48.6	-64.2	3.8	1.49e+00	0	37	104	1020264448	68	22038
2026-01-25 08:30:53.53	355.14	6.40	-48.6	-64.1	3.8	1.49e+00	0	37	104	1020264448	68	21991
2026-01-25 08:30:54.81	355.03	6.32	-48.6	-64.2	3.8	1.49e+00	0	38	104	1020264448	68	22041
2026-01-25 08:30:55.52	354.97	6.28	-48.6	-64.1	3.8	1.49e+00	0	37	104	1020264448	68	22001
2026-01-25 08:30:56.79	354.86	6.20	-48.6	-64.1	3.8	1.49e+00	0	37	104	1020264448	68	21967
2026-01-25 08:30:57.50	354.80	6.15	-48.6	-64.1	3.8	1.49e+00	0	37	104	1020264448	68	21937
2026-01-25 08:30:58.78	354.69	6.07	-48.6	-64.1	3.8	1.49e+00	0	37	104	1020264448	68	21934
2026-01-25 08:30:59.49	354.63	6.03	-48.6	-64.1	3.8	1.49e+00	0	37	104	1020264448	68	21969
2026-01-25 08:31:00.76	354.52	5.95	-48.6	-64.2	3.8	1.49e+00	0	38	104	1020264448	68	22025
2026-01-25 08:31:01.47	354.46	5.91	-48.6	-64.2	3.8	1.49e+00	0	37	104	1020264448	68	22066
2026-01-25 08:31:02.75	354.36	5.83	-48.6	-64.1	3.8	1.49e+00	0	38	104	1020264448	68	21986
2026-01-25 08:31:03.46	354.30	5.78	-48.5	-64.1	3.8	1.49e+00	0	37	104	1020264448	68	21980
2026-01-25 08:31:04.74	354.19	5.70	-48.5	-64.1	3.8	1.49e+00	0	37	104	1020264448	68	21993
2026-01-25 08:31:05.45	354.13	5.66	-48.6	-64.1	3.8	1.49e+00	0	37	104	1020264448	68	21976
2026-01-25 08:31:06.72	354.03	5.58	-48.5	-64.1	3.8	1.49e+00	0	37	104	1020264448	68	21910
2026-01-25 08:31:07.45	353.97	5.54	-48.5	-64.1	3.8	1.49e+00	0	37	104	1020264448	68	21998
2026-01-25 08:31:08.73	353.87	5.46	-48.5	-64.2	3.8	1.49e+00	0	37	104	1020264448	68	22013
2026-01-25 08:31:09.44	353.81	5.41	-48.5	-64.1	3.8	1.49e+00	0	37	104	1020264448	68	21910
2026-01-25 08:31:10.71	353.71	5.34	-48.5	-64.1	3.8	1.49e+00	0	38	104	1020264448	68	21989
2026-01-25 08:31:11.42	353.65	5.29	-48.5	-64.1	3.8	1.49e+00	0	38	104	1020264448	68	21920
2026-01-25 08:31:12.70	353.55	5.21	-48.5	-64.1	3.8	1.49e+00	0	37	104	1020264448	68	21894
2026-01-25 08:31:13.41	353.49	5.17	-48.5	-64.2	3.8	1.49e+00	0	37	104	1020264448	68	22025
2026-01-25 08:31:14.69	353.39	5.09	-48.5	-64.1	3.8	1.49e+00	0	38	104	1020264448	68	21899
2026-01-25 08:31:15.42	353.33	5.05	-48.5	-64.1	3.8	1.49e+00	0	38	104	1020264448	68	21998
2026-01-25 08:31:16.69	353.23	4.97	-48.5	-64.1	3.8	1.49e+00	0	37	104	1020264448	68	21934

#Closed at: 2026-01-25 08:31:17
#Recorded file [1020 MB]: D:/Data/31040_260125_112020.dat