passes_logs/2026/01/25/T1/T1__20260125_000827_NOAA_20_JPSS-1_rec.log

#Pass ID: 20260125_000827_NOAA 20 (JPSS-1)
#Satellite: NOAA 20 (JPSS-1)
#Configuration: NOAA 20
#almurnet v.1.7.20251203
#Start time: 2026-01-25 00:08:28

#Version: 2.0.20230620
#Station: T1
#Location: 37.570604 lon 55.790049 lat
#TLE: 1 43013U 17073A   26024.42258823  .00000183  00000+0  10747-3 0  9990
#TLE: 2 43013  98.7646 325.2629 0001105  25.8644 334.2587 14.19539754424075

#Time	Az	El	Level	Level2	SNR	BER	BlckErr	Temp	State	Recorded	gain1	gain2
2026-01-25 00:08:28.49	13.50	5.10	-46.9	-63.1	3.8	1.49e+00	0	35	0	0	65	23260
2026-01-25 00:08:29.48	13.48	5.17	-46.9	-63.1	3.8	1.49e+00	0	35	104	0	64	24414
2026-01-25 00:08:30.47	13.46	5.24	-46.9	-63.1	3.8	1.49e+00	0	35	104	0	64	24424
2026-01-25 00:08:31.47	13.44	5.31	-46.9	-63.1	3.8	1.49e+00	0	35	104	0	64	24550
2026-01-25 00:08:32.46	13.42	5.38	-46.9	-63.1	3.8	1.49e+00	0	35	104	0	64	24524
2026-01-25 00:08:33.45	13.40	5.45	-46.9	-63.1	3.8	1.49e+00	0	35	104	0	64	24644
2026-01-25 00:08:34.44	13.38	5.52	-46.9	-63.1	3.8	1.49e+00	0	35	104	0	64	24642
2026-01-25 00:08:35.44	13.36	5.60	-46.9	-63.2	3.8	1.49e+00	0	35	104	0	64	24709
2026-01-25 00:08:36.43	13.34	5.67	-46.9	-63.2	3.8	1.49e+00	0	35	104	0	64	24734
2026-01-25 00:08:37.43	13.32	5.74	-46.9	-63.2	3.8	1.49e+00	0	35	104	0	64	24811
2026-01-25 00:08:38.42	13.29	5.81	-46.9	-63.2	3.8	1.49e+00	0	35	104	0	64	24825
2026-01-25 00:08:39.41	13.27	5.88	-46.9	-63.2	3.8	1.49e+00	0	35	104	0	64	24773
2026-01-25 00:08:40.40	13.25	5.95	-46.9	-63.2	3.8	1.49e+00	0	35	104	0	64	24788
2026-01-25 00:08:41.40	13.23	6.03	-46.9	-63.1	3.8	1.49e+00	0	35	104	0	64	24667
2026-01-25 00:08:42.39	13.21	6.10	-46.9	-63.1	3.8	1.49e+00	0	35	104	0	64	24681
2026-01-25 00:08:43.38	13.19	6.17	-46.9	-63.1	3.8	1.49e+00	0	35	104	0	64	24578
2026-01-25 00:08:44.38	13.17	6.25	-46.9	-63.1	3.8	1.49e+00	0	35	104	0	64	24439
2026-01-25 00:08:45.37	13.14	6.32	-46.9	-63.0	3.8	1.49e+00	0	36	104	0	64	24292
2026-01-25 00:08:46.36	13.12	6.39	-46.9	-62.9	3.8	1.49e+00	0	36	104	0	64	23920
2026-01-25 00:08:47.36	13.10	6.47	-46.9	-62.8	3.8	1.49e+00	0	36	104	0	64	23798
2026-01-25 00:08:48.35	13.08	6.54	-46.9	-62.8	3.8	1.49e+00	0	35	104	0	64	23646
2026-01-25 00:08:49.35	13.05	6.62	-46.9	-62.7	3.8	1.49e+00	0	36	104	0	64	23410
2026-01-25 00:08:50.34	13.03	6.69	-46.9	-62.6	3.8	1.49e+00	0	36	104	0	64	23124
2026-01-25 00:08:51.33	13.01	6.77	-46.9	-62.5	3.8	1.49e+00	0	36	104	0	64	22968
2026-01-25 00:08:52.32	12.99	6.84	-46.9	-62.5	3.8	1.49e+00	0	36	104	0	64	23026
2026-01-25 00:08:53.32	12.96	6.92	-46.9	-62.5	3.8	1.49e+00	0	36	104	0	64	23024
2026-01-25 00:08:54.31	12.94	6.99	-46.9	-62.6	3.8	1.49e+00	0	36	104	0	64	23242
2026-01-25 00:08:55.31	12.92	7.07	-46.9	-62.7	3.8	1.49e+00	0	36	104	0	64	23433
2026-01-25 00:08:56.30	12.89	7.14	-46.9	-62.7	3.8	1.49e+00	0	36	104	0	64	23522
2026-01-25 00:08:57.29	12.87	7.22	-46.9	-62.8	3.8	1.49e+00	0	36	104	0	64	23711
2026-01-25 00:08:58.28	12.85	7.29	-46.9	-62.9	3.8	1.49e+00	0	36	104	0	64	23953
2026-01-25 00:08:59.28	12.82	7.37	-46.9	-62.9	3.8	1.49e+00	0	36	104	0	64	23930
2026-01-25 00:09:00.27	12.80	7.45	-46.9	-62.8	3.8	1.49e+00	0	36	104	0	64	23739
2026-01-25 00:09:01.26	12.77	7.52	-46.9	-62.6	3.8	1.49e+00	0	36	104	0	64	23219
2026-01-25 00:09:02.26	12.75	7.60	-46.9	-62.3	3.8	1.49e+00	0	36	104	0	64	22396
2026-01-25 00:09:03.25	12.73	7.68	-46.8	-61.8	3.8	1.49e+00	0	36	104	0	64	21036
2026-01-25 00:09:04.24	12.70	7.76	-46.8	-61.1	3.8	1.49e+00	0	36	104	0	64	19593
2026-01-25 00:09:05.23	12.68	7.83	-46.8	-60.2	4.1	1.46e+00	0	36	104	0	64	17510
2026-01-25 00:09:06.23	12.65	7.91	-46.7	-59.1	4.4	1.37e+00	0	36	0	0	64	15442
2026-01-25 00:09:07.22	12.63	7.99	-46.6	-57.9	4.8	9.67e-01	0	36	0	1048576	64	13460
2026-01-25 00:09:08.21	12.60	8.07	-46.5	-56.8	5.5	6.82e-01	0	36	0	3145728	64	11868
2026-01-25 00:09:09.20	12.58	8.15	-46.3	-55.6	6.3	3.19e-01	0	36	0	5242880	64	10366
2026-01-25 00:09:10.20	12.55	8.23	-46.1	-54.6	7.2	1.72e-01	0	36	0	7340032	64	9249
2026-01-25 00:09:11.19	12.52	8.30	-46.0	-53.8	8.1	9.49e-02	0	36	0	9437184	63	8935
2026-01-25 00:09:12.18	12.50	8.38	-45.8	-53.0	8.9	4.36e-02	0	36	0	10485760	63	8138
2026-01-25 00:09:13.18	12.47	8.46	-45.6	-52.4	9.6	1.57e-02	0	36	0	12582912	63	7557
2026-01-25 00:09:14.17	12.45	8.54	-45.4	-51.8	10.2	7.95e-03	0	36	0	14680064	62	7469
2026-01-25 00:09:15.16	12.42	8.62	-45.3	-51.4	10.6	4.66e-03	0	36	0	16777216	62	7161
2026-01-25 00:09:16.16	12.39	8.70	-45.2	-51.1	10.9	2.44e-03	0	36	0	17825792	62	6920
2026-01-25 00:09:17.15	12.37	8.78	-45.2	-51.1	10.9	1.86e-03	0	36	0	19922944	62	6903
2026-01-25 00:09:18.14	12.34	8.87	-45.2	-51.1	10.9	1.84e-03	0	36	0	22020096	62	6897
2026-01-25 00:09:19.13	12.31	8.95	-45.3	-51.3	10.7	2.27e-03	0	36	0	24117248	62	7067
2026-01-25 00:09:20.13	12.28	9.03	-45.4	-51.6	10.4	3.94e-03	0	37	0	26214400	62	7297
2026-01-25 00:09:21.12	12.26	9.11	-45.7	-52.5	9.4	1.08e-02	0	36	0	27262976	62	8155
2026-01-25 00:09:22.12	12.23	9.19	-45.3	-51.3	10.7	3.21e-03	0	36	0	29360128	62	7111
2026-01-25 00:09:23.11	12.20	9.27	-46.3	-55.7	6.3	6.41e-03	0	37	0	31457280	63	11110
2026-01-25 00:09:24.11	12.17	9.36	-46.9	-58.2	4.7	7.46e-01	0	37	0	33554432	64	14031
2026-01-25 00:09:25.10	12.15	9.44	-42.5	-45.9	16.2	2.93e-03	0	36	0	34603008	56	5349
2026-01-25 00:09:26.10	12.12	9.52	-42.4	-45.7	16.3	0.00e+00	0	36	0	36700160	56	5279
2026-01-25 00:09:27.09	12.09	9.61	-41.7	-44.8	17.2	0.00e+00	0	37	0	38797312	55	5006
2026-01-25 00:09:28.09	12.06	9.69	-41.5	-44.6	17.4	0.00e+00	0	36	0	40894464	54	5191
2026-01-25 00:09:29.08	12.03	9.77	-41.2	-44.2	17.7	0.00e+00	0	36	0	42991616	54	4967
2026-01-25 00:09:30.07	12.00	9.86	-41.2	-44.2	17.8	0.00e+00	0	37	0	44040192	54	4941
2026-01-25 00:09:31.07	11.97	9.94	-41.1	-44.1	17.9	0.00e+00	0	36	0	46137344	54	4892
2026-01-25 00:09:32.06	11.94	10.03	-41.1	-44.1	17.9	0.00e+00	0	37	0	48234496	54	4881
2026-01-25 00:09:33.06	11.91	10.11	-41.1	-44.1	17.9	0.00e+00	0	37	0	50331648	54	4912
2026-01-25 00:09:34.05	11.88	10.20	-41.1	-44.0	17.9	0.00e+00	0	37	0	51380224	54	4861
2026-01-25 00:09:35.05	11.85	10.28	-41.1	-44.0	17.9	0.00e+00	0	36	0	53477376	53	5153
2026-01-25 00:09:36.04	11.82	10.37	-40.9	-43.8	18.1	0.00e+00	0	37	0	55574528	53	5036
2026-01-25 00:09:37.03	11.79	10.46	-41.0	-43.9	18.1	0.00e+00	0	37	0	57671680	53	5090
2026-01-25 00:09:38.03	11.76	10.54	-40.9	-43.8	18.1	0.00e+00	0	37	0	59768832	53	5040
2026-01-25 00:09:39.02	11.73	10.63	-40.9	-43.8	18.2	0.00e+00	0	36	0	60817408	53	5005
2026-01-25 00:09:40.02	11.70	10.72	-40.9	-43.8	18.2	0.00e+00	0	36	0	62914560	53	5009
2026-01-25 00:09:41.02	11.67	10.80	-40.9	-43.8	18.2	0.00e+00	0	37	0	65011712	53	5003
2026-01-25 00:09:42.01	11.64	10.89	-40.8	-43.7	18.3	0.00e+00	0	37	0	67108864	53	4979
2026-01-25 00:09:43.00	11.60	10.98	-40.8	-43.7	18.3	0.00e+00	0	37	0	69206016	53	4949
2026-01-25 00:09:44.00	11.57	11.07	-40.7	-43.6	18.4	0.00e+00	0	37	0	70254592	53	4899
2026-01-25 00:09:44.99	11.54	11.16	-40.8	-43.7	18.3	0.00e+00	0	37	0	72351744	53	4967
2026-01-25 00:09:45.99	11.51	11.25	-40.7	-43.6	18.3	0.00e+00	0	37	0	74448896	53	4925
2026-01-25 00:09:46.98	11.48	11.33	-40.7	-43.7	18.3	0.00e+00	0	37	0	76546048	53	4931
2026-01-25 00:09:47.98	11.44	11.42	-40.7	-43.6	18.4	0.00e+00	0	37	0	77594624	53	4884
2026-01-25 00:09:48.97	11.41	11.51	-40.7	-43.6	18.4	0.00e+00	0	37	0	79691776	53	4890
2026-01-25 00:09:49.97	11.38	11.60	-40.7	-43.5	18.5	0.00e+00	0	37	0	81788928	53	4823
2026-01-25 00:09:50.96	11.34	11.70	-40.8	-43.6	18.4	0.00e+00	0	37	0	83886080	53	4894
2026-01-25 00:09:51.96	11.31	11.79	-40.7	-43.6	18.5	0.00e+00	0	37	0	85983232	53	4884
2026-01-25 00:09:52.95	11.27	11.88	-40.7	-43.5	18.6	0.00e+00	0	37	0	87031808	53	4837
2026-01-25 00:09:53.95	11.24	11.97	-40.8	-43.5	18.5	0.00e+00	0	36	0	89128960	53	4861
2026-01-25 00:09:54.94	11.21	12.06	-40.5	-43.2	18.8	0.00e+00	0	37	0	91226112	53	4703
2026-01-25 00:09:55.94	11.17	12.15	-40.6	-43.4	18.7	0.00e+00	0	37	0	93323264	53	4769
2026-01-25 00:09:56.93	11.14	12.25	-40.6	-43.3	18.7	0.00e+00	0	37	0	94371840	53	4748
2026-01-25 00:09:57.93	11.10	12.34	-40.6	-43.3	18.8	0.00e+00	0	37	0	96468992	53	4715
2026-01-25 00:09:58.92	11.07	12.43	-40.6	-43.3	18.8	0.00e+00	0	37	0	98566144	53	4710
2026-01-25 00:09:59.92	11.03	12.53	-40.5	-43.1	18.9	0.00e+00	0	37	0	100663296	53	4612
2026-01-25 00:10:00.92	10.99	12.62	-40.5	-43.1	18.9	0.00e+00	0	37	0	102760448	52	4901
2026-01-25 00:10:01.91	10.96	12.71	-40.5	-43.1	18.9	0.00e+00	0	37	0	103809024	52	4899
2026-01-25 00:10:02.91	10.92	12.81	-40.5	-43.0	18.9	0.00e+00	0	37	0	105906176	52	4870
2026-01-25 00:10:03.90	10.88	12.90	-40.4	-43.0	19.1	0.00e+00	0	37	0	108003328	52	4819
2026-01-25 00:10:04.89	10.85	13.00	-40.4	-43.0	19.1	0.00e+00	0	37	0	110100480	52	4821
2026-01-25 00:10:05.89	10.81	13.09	-40.3	-42.8	19.2	0.00e+00	0	37	0	111149056	52	4751
2026-01-25 00:10:06.88	10.77	13.19	-40.3	-42.9	19.2	0.00e+00	0	37	0	113246208	52	4764
2026-01-25 00:10:07.88	10.73	13.29	-40.3	-42.8	19.2	0.00e+00	0	37	0	115343360	52	4739
2026-01-25 00:10:08.87	10.70	13.38	-40.3	-42.8	19.2	0.00e+00	0	37	0	117440512	52	4732
2026-01-25 00:10:09.87	10.66	13.48	-40.3	-42.8	19.3	0.00e+00	0	37	0	119537664	52	4723
2026-01-25 00:10:10.86	10.62	13.58	-40.3	-42.8	19.2	0.00e+00	0	37	0	120586240	52	4753
2026-01-25 00:10:11.86	10.58	13.68	-40.3	-42.8	19.2	0.00e+00	0	37	0	122683392	52	4745
2026-01-25 00:10:12.85	10.54	13.77	-40.2	-42.7	19.3	0.00e+00	0	37	0	124780544	52	4700
2026-01-25 00:10:13.85	10.50	13.87	-40.3	-42.7	19.3	0.00e+00	0	37	0	126877696	52	4692
2026-01-25 00:10:14.84	10.46	13.97	-40.2	-42.6	19.4	0.00e+00	0	37	0	127926272	52	4627
2026-01-25 00:10:15.84	10.42	14.07	-40.1	-42.6	19.4	0.00e+00	0	37	0	130023424	52	4600
2026-01-25 00:10:16.83	10.38	14.17	-40.1	-42.5	19.5	0.00e+00	0	37	0	132120576	52	4591
2026-01-25 00:10:17.82	10.34	14.27	-40.2	-42.6	19.4	0.00e+00	0	37	0	134217728	52	4608
2026-01-25 00:10:18.82	10.30	14.37	-40.1	-42.5	19.5	0.00e+00	0	37	0	136314880	52	4593
2026-01-25 00:10:19.82	10.26	14.47	-40.1	-42.6	19.5	0.00e+00	0	37	0	137363456	52	4599
2026-01-25 00:10:20.81	10.22	14.58	-40.1	-42.5	19.5	0.00e+00	0	37	0	139460608	52	4553
2026-01-25 00:10:21.81	10.17	14.68	-40.0	-42.4	19.6	0.00e+00	0	37	0	141557760	52	4540
2026-01-25 00:10:22.80	10.13	14.78	-40.1	-42.5	19.7	0.00e+00	0	37	0	143654912	51	4838
2026-01-25 00:10:23.79	10.09	14.88	-40.1	-42.5	19.6	0.00e+00	0	37	0	144703488	51	4839
2026-01-25 00:10:24.79	10.05	14.99	-40.2	-42.6	19.5	0.00e+00	0	37	0	146800640	51	4903
2026-01-25 00:10:25.79	10.00	15.09	-40.2	-42.6	19.5	0.00e+00	0	37	0	148897792	51	4908
2026-01-25 00:10:26.78	9.96	15.19	-40.1	-42.5	19.6	0.00e+00	0	37	0	150994944	51	4832
2026-01-25 00:10:27.78	9.92	15.30	-40.0	-42.4	19.7	0.00e+00	0	37	0	153092096	51	4801
2026-01-25 00:10:28.77	9.87	15.40	-40.1	-42.5	19.6	0.00e+00	0	37	0	154140672	51	4853
2026-01-25 00:10:29.77	9.83	15.51	-40.1	-42.5	19.7	0.00e+00	0	37	0	156237824	51	4823
2026-01-25 00:10:30.76	9.78	15.61	-40.1	-42.5	19.6	0.00e+00	0	37	0	158334976	51	4852
2026-01-25 00:10:31.76	9.74	15.72	-40.1	-42.5	19.7	0.00e+00	0	37	0	160432128	51	4830
2026-01-25 00:10:32.75	9.69	15.83	-40.1	-42.5	19.6	0.00e+00	0	37	0	161480704	51	4866
2026-01-25 00:10:33.75	9.65	15.93	-40.0	-42.4	19.7	0.00e+00	0	37	0	163577856	51	4811
2026-01-25 00:10:34.74	9.60	16.04	-39.9	-42.3	19.8	0.00e+00	0	37	0	165675008	51	4755
2026-01-25 00:10:35.73	9.55	16.15	-39.9	-42.3	19.8	0.00e+00	0	37	0	167772160	51	4750
2026-01-25 00:10:36.73	9.51	16.26	-40.0	-42.4	19.7	0.00e+00	0	37	0	169869312	51	4783
2026-01-25 00:10:37.72	9.46	16.37	-40.0	-42.4	19.7	0.00e+00	0	37	0	170917888	51	4805
2026-01-25 00:10:38.72	9.41	16.48	-40.0	-42.4	19.8	0.00e+00	0	37	0	173015040	51	4772
2026-01-25 00:10:39.71	9.36	16.59	-40.0	-42.4	19.7	0.00e+00	0	37	0	175112192	51	4804
2026-01-25 00:10:40.71	9.31	16.70	-40.0	-42.5	19.7	0.00e+00	0	37	0	177209344	51	4825
2026-01-25 00:10:41.70	9.27	16.81	-40.1	-42.6	19.6	0.00e+00	0	37	0	178257920	51	4880
2026-01-25 00:10:42.70	9.22	16.92	-40.0	-42.5	19.8	0.00e+00	0	37	0	180355072	51	4816
2026-01-25 00:10:43.69	9.17	17.03	-39.9	-42.4	19.8	0.00e+00	0	37	0	182452224	51	4774
2026-01-25 00:10:44.69	9.12	17.14	-40.1	-42.6	19.6	0.00e+00	0	37	0	184549376	51	4892
2026-01-25 00:10:45.68	9.07	17.25	-40.0	-42.4	19.7	0.00e+00	0	37	0	186646528	51	4807
2026-01-25 00:10:46.68	9.01	17.37	-39.9	-42.3	19.8	0.00e+00	0	37	0	187695104	51	4740
2026-01-25 00:10:47.68	8.96	17.48	-40.0	-42.4	19.7	0.00e+00	0	37	0	189792256	51	4810
2026-01-25 00:10:48.67	8.91	17.60	-39.9	-42.4	19.8	0.00e+00	0	37	0	191889408	51	4765
2026-01-25 00:10:49.66	8.86	17.71	-40.0	-42.5	19.7	0.00e+00	0	37	0	193986560	51	4838
2026-01-25 00:10:50.66	8.81	17.83	-39.9	-42.3	19.9	0.00e+00	0	37	0	195035136	51	4720
2026-01-25 00:10:51.65	8.75	17.94	-39.9	-42.3	19.9	0.00e+00	0	37	0	197132288	51	4745
2026-01-25 00:10:52.65	8.70	18.06	-39.9	-42.4	19.9	0.00e+00	0	37	0	199229440	51	4765
2026-01-25 00:10:53.65	8.65	18.18	-39.9	-42.3	19.9	0.00e+00	0	37	0	201326592	51	4742
2026-01-25 00:10:54.64	8.59	18.29	-39.9	-42.3	19.9	0.00e+00	0	37	0	203423744	51	4729
2026-01-25 00:10:55.64	8.54	18.41	-39.9	-42.3	19.9	0.00e+00	0	37	0	204472320	51	4729
2026-01-25 00:10:56.63	8.48	18.53	-39.9	-42.2	20.0	0.00e+00	0	37	0	206569472	51	4694
2026-01-25 00:10:57.63	8.43	18.65	-40.0	-42.4	19.9	0.00e+00	0	37	0	208666624	51	4765
2026-01-25 00:10:58.62	8.37	18.77	-39.9	-42.3	19.9	0.00e+00	0	37	0	210763776	51	4741
2026-01-25 00:10:59.62	8.31	18.89	-39.9	-42.2	20.0	0.00e+00	0	37	0	211812352	51	4700
2026-01-25 00:11:00.61	8.26	19.01	-39.9	-42.2	20.0	0.00e+00	0	37	0	213909504	51	4705
2026-01-25 00:11:01.61	8.20	19.13	-39.9	-42.2	20.0	0.00e+00	0	37	0	216006656	51	4691
2026-01-25 00:11:02.60	8.14	19.25	-40.0	-42.3	19.9	0.00e+00	0	37	0	218103808	51	4732
2026-01-25 00:11:03.59	8.08	19.37	-40.1	-42.4	19.9	0.00e+00	0	37	0	220200960	51	4772
2026-01-25 00:11:04.59	8.02	19.50	-39.9	-42.2	20.0	0.00e+00	0	37	0	221249536	51	4683
2026-01-25 00:11:05.59	7.96	19.62	-40.0	-42.3	19.9	0.00e+00	0	37	0	223346688	51	4718
2026-01-25 00:11:06.58	7.90	19.74	-40.1	-42.3	19.9	0.00e+00	0	37	0	225443840	51	4748
2026-01-25 00:11:07.57	7.84	19.87	-40.1	-42.3	19.9	0.00e+00	0	37	0	227540992	51	4750
2026-01-25 00:11:08.57	7.78	19.99	-40.0	-42.3	19.9	0.00e+00	0	37	0	228589568	51	4731
2026-01-25 00:11:09.57	7.72	20.12	-40.0	-42.3	19.9	0.00e+00	0	37	0	230686720	51	4724
2026-01-25 00:11:10.56	7.66	20.25	-40.1	-42.3	19.9	0.00e+00	0	37	0	232783872	51	4737
2026-01-25 00:11:11.56	7.59	20.37	-40.1	-42.4	19.9	0.00e+00	0	37	0	234881024	51	4778
2026-01-25 00:11:12.55	7.53	20.50	-40.1	-42.4	19.9	0.00e+00	0	37	0	236978176	51	4761
2026-01-25 00:11:13.55	7.47	20.63	-40.1	-42.4	19.9	0.00e+00	0	37	0	238026752	51	4790
2026-01-25 00:11:14.54	7.40	20.76	-40.2	-42.5	19.8	0.00e+00	0	37	0	240123904	51	4831
2026-01-25 00:11:15.54	7.34	20.89	-40.1	-42.4	19.9	0.00e+00	0	37	0	242221056	51	4764
2026-01-25 00:11:16.53	7.27	21.02	-40.1	-42.4	19.9	0.00e+00	0	37	0	244318208	51	4763
2026-01-25 00:11:17.52	7.21	21.15	-40.1	-42.4	19.8	0.00e+00	0	37	0	245366784	51	4794
2026-01-25 00:11:18.52	7.14	21.28	-40.1	-42.4	19.8	0.00e+00	0	37	0	247463936	51	4806
2026-01-25 00:11:19.51	7.07	21.41	-40.1	-42.4	19.9	0.00e+00	0	37	0	249561088	51	4784
2026-01-25 00:11:20.51	7.00	21.55	-40.0	-42.3	20.0	0.00e+00	0	37	0	251658240	51	4735
2026-01-25 00:11:21.50	6.94	21.68	-40.1	-42.4	19.9	0.00e+00	0	37	0	253755392	51	4766
2026-01-25 00:11:22.50	6.87	21.81	-40.1	-42.4	19.9	0.00e+00	0	37	0	254803968	51	4805
2026-01-25 00:11:23.49	6.80	21.95	-40.0	-42.4	19.9	0.00e+00	0	37	0	256901120	51	4766
2026-01-25 00:11:24.49	6.73	22.08	-40.1	-42.4	19.8	0.00e+00	0	37	0	258998272	51	4810
2026-01-25 00:11:25.48	6.65	22.22	-40.1	-42.5	19.8	0.00e+00	0	37	0	261095424	51	4819
2026-01-25 00:11:26.47	6.58	22.35	-40.2	-42.6	19.7	0.00e+00	0	37	0	262144000	51	4875
2026-01-25 00:11:27.47	6.51	22.49	-40.1	-42.4	19.8	0.00e+00	0	37	0	264241152	51	4805
2026-01-25 00:11:28.46	6.44	22.63	-40.1	-42.4	19.9	0.00e+00	0	37	0	266338304	51	4789
2026-01-25 00:11:29.46	6.36	22.77	-40.2	-42.5	19.8	0.00e+00	0	37	0	268435456	51	4865
2026-01-25 00:11:30.45	6.29	22.91	-40.3	-42.6	19.7	0.00e+00	0	37	0	270532608	51	4895
2026-01-25 00:11:31.45	6.21	23.05	-40.2	-42.5	19.7	0.00e+00	0	37	0	271581184	51	4863
2026-01-25 00:11:32.44	6.14	23.19	-40.3	-42.6	19.7	0.00e+00	0	37	0	273678336	51	4898
2026-01-25 00:11:33.44	6.06	23.33	-40.3	-42.6	19.7	0.00e+00	0	37	0	275775488	51	4896
2026-01-25 00:11:34.43	5.98	23.47	-40.3	-42.5	19.7	0.00e+00	0	37	0	277872640	51	4860
2026-01-25 00:11:35.43	5.90	23.62	-40.4	-42.7	19.6	0.00e+00	0	37	0	278921216	51	4972
2026-01-25 00:11:36.42	5.83	23.76	-40.4	-42.6	19.7	0.00e+00	0	37	0	281018368	51	4907
2026-01-25 00:11:37.42	5.75	23.91	-40.5	-42.8	19.6	0.00e+00	0	37	0	283115520	51	4990
2026-01-25 00:11:38.41	5.67	24.05	-40.6	-42.9	19.5	0.00e+00	0	37	0	285212672	51	5044
2026-01-25 00:11:39.41	5.58	24.20	-40.5	-42.7	19.6	0.00e+00	0	37	0	287309824	51	4975
2026-01-25 00:11:40.40	5.50	24.34	-40.5	-42.8	19.5	0.00e+00	0	37	0	288358400	51	5015
2026-01-25 00:11:41.40	5.42	24.49	-40.5	-42.8	19.5	0.00e+00	0	37	0	290455552	51	5014
2026-01-25 00:11:42.40	5.33	24.64	-40.6	-42.9	19.4	0.00e+00	0	37	0	292552704	51	5074
2026-01-25 00:11:43.39	5.25	24.79	-40.7	-43.0	19.3	0.00e+00	0	37	0	294649856	52	4839
2026-01-25 00:11:44.39	5.17	24.94	-40.7	-43.0	19.3	0.00e+00	0	37	0	295698432	52	4826
2026-01-25 00:11:45.38	5.08	25.09	-40.7	-43.0	19.2	0.00e+00	0	37	0	297795584	52	4860
2026-01-25 00:11:46.38	4.99	25.24	-40.8	-43.1	19.1	0.00e+00	0	37	0	299892736	52	4916
2026-01-25 00:11:47.37	4.90	25.39	-40.8	-43.1	19.2	0.00e+00	0	37	0	301989888	52	4911
2026-01-25 00:11:48.36	4.82	25.55	-40.9	-43.3	19.0	0.00e+00	0	37	0	304087040	52	5009
2026-01-25 00:11:49.36	4.73	25.70	-41.0	-43.4	18.9	0.00e+00	0	37	0	305135616	52	5071
2026-01-25 00:11:50.35	4.64	25.85	-41.1	-43.5	18.8	0.00e+00	0	37	0	307232768	52	5148
2026-01-25 00:11:51.35	4.54	26.01	-41.3	-43.7	18.6	0.00e+00	0	37	0	309329920	53	4947
2026-01-25 00:11:52.34	4.45	26.17	-41.3	-43.7	18.6	0.00e+00	0	37	0	311427072	53	4945
2026-01-25 00:11:53.34	4.36	26.32	-41.3	-43.8	18.5	0.00e+00	0	37	0	313524224	53	4991
2026-01-25 00:11:54.33	4.26	26.48	-41.4	-43.9	18.4	0.00e+00	0	37	0	314572800	53	5054
2026-01-25 00:11:55.33	4.17	26.64	-41.5	-43.9	18.4	0.00e+00	0	37	0	316669952	53	5090
2026-01-25 00:11:56.32	4.07	26.80	-41.7	-44.1	18.2	0.00e+00	0	37	0	318767104	53	5206
2026-01-25 00:11:57.31	3.97	26.96	-41.8	-44.3	18.1	0.00e+00	0	37	0	320864256	54	5024
2026-01-25 00:11:58.31	3.88	27.12	-42.0	-44.5	17.9	0.00e+00	0	37	0	321912832	54	5134
2026-01-25 00:11:59.30	3.78	27.28	-42.0	-44.6	17.8	0.00e+00	0	37	0	324009984	54	5183
2026-01-25 00:12:00.30	3.68	27.45	-42.1	-44.8	17.6	0.00e+00	0	37	0	326107136	54	5290
2026-01-25 00:12:01.29	3.57	27.61	-42.2	-44.8	17.5	0.00e+00	0	37	0	328204288	55	5023
2026-01-25 00:12:02.29	3.47	27.78	-42.2	-44.9	17.5	0.00e+00	0	37	0	330301440	55	5082
2026-01-25 00:12:03.28	3.37	27.94	-42.3	-45.1	17.3	0.00e+00	0	37	0	331350016	55	5161
2026-01-25 00:12:04.28	3.26	28.11	-42.4	-45.2	17.2	0.00e+00	0	37	0	333447168	55	5220
2026-01-25 00:12:05.27	3.16	28.28	-42.5	-45.3	17.1	0.00e+00	0	37	0	335544320	55	5303
2026-01-25 00:12:06.27	3.05	28.45	-42.6	-45.3	17.0	0.00e+00	0	37	0	337641472	55	5324
2026-01-25 00:12:07.26	2.94	28.61	-42.6	-45.4	17.0	0.00e+00	0	37	0	338690048	55	5343
2026-01-25 00:12:08.25	2.83	28.78	-42.6	-45.4	17.0	0.00e+00	0	37	0	340787200	55	5360
2026-01-25 00:12:09.25	2.72	28.96	-42.6	-45.4	17.0	0.00e+00	0	37	0	342884352	55	5344
2026-01-25 00:12:10.25	2.61	29.13	-42.6	-45.5	17.0	0.00e+00	0	37	0	344981504	55	5405
2026-01-25 00:12:11.24	2.50	29.30	-42.8	-45.6	17.0	0.00e+00	0	37	0	347078656	56	5171
2026-01-25 00:12:12.24	2.38	29.48	-43.0	-45.8	16.5	0.00e+00	0	37	0	348127232	56	5330
2026-01-25 00:12:13.23	2.27	29.65	-43.0	-45.9	16.7	0.00e+00	0	37	0	350224384	56	5371
2026-01-25 00:12:14.22	2.15	29.83	-43.1	-46.1	16.5	0.00e+00	0	37	0	352321536	56	5469
2026-01-25 00:12:15.22	2.03	30.00	-43.2	-46.2	16.4	0.00e+00	0	37	0	354418688	57	5235
2026-01-25 00:12:16.21	1.91	30.18	-43.3	-46.4	16.2	0.00e+00	0	37	0	355467264	57	5370
2026-01-25 00:12:17.20	1.79	30.36	-43.4	-46.5	16.1	0.00e+00	0	37	0	357564416	57	5409
2026-01-25 00:12:18.20	1.67	30.54	-43.3	-46.4	16.1	0.00e+00	0	37	0	359661568	57	5393
2026-01-25 00:12:19.19	1.54	30.72	-43.4	-46.4	16.1	0.00e+00	0	37	0	361758720	57	5391
2026-01-25 00:12:20.18	1.42	30.90	-43.3	-46.3	16.2	0.00e+00	0	37	0	363855872	57	5331
2026-01-25 00:12:21.18	1.29	31.08	-43.4	-46.5	16.1	0.00e+00	0	37	0	364904448	57	5418
2026-01-25 00:12:22.17	1.16	31.27	-43.5	-46.5	16.0	0.00e+00	0	37	0	367001600	57	5455
2026-01-25 00:12:23.17	1.03	31.45	-43.5	-46.6	16.0	0.00e+00	0	37	0	369098752	57	5501
2026-01-25 00:12:24.16	0.90	31.64	-43.6	-46.8	15.9	0.00e+00	0	37	0	371195904	57	5600
2026-01-25 00:12:25.16	0.77	31.82	-43.6	-46.9	15.8	0.00e+00	0	37	0	372244480	57	5657
2026-01-25 00:12:26.15	0.63	32.01	-43.8	-47.2	15.5	0.00e+00	0	37	0	374341632	58	5544
2026-01-25 00:12:27.14	0.50	32.20	-43.6	-46.9	15.6	0.00e+00	0	37	0	376438784	58	5397
2026-01-25 00:12:28.14	0.36	32.39	-43.8	-47.2	15.3	0.00e+00	0	37	0	378535936	58	5587
2026-01-25 00:12:29.14	0.22	32.58	-44.0	-47.6	15.0	0.00e+00	0	37	0	380633088	58	5816
2026-01-25 00:12:30.13	0.08	32.77	-43.9	-47.4	15.2	0.00e+00	0	37	0	381681664	58	5721
2026-01-25 00:12:31.12	359.94	32.96	-43.8	-47.3	15.3	0.00e+00	0	37	0	383778816	58	5602
2026-01-25 00:12:32.12	359.79	33.16	-43.9	-47.3	15.3	7.00e-07	0	37	0	385875968	58	5631
2026-01-25 00:12:33.11	359.65	33.35	-43.9	-47.3	15.3	0.00e+00	0	37	0	387973120	58	5634
2026-01-25 00:12:34.11	359.50	33.55	-44.1	-47.6	15.0	0.00e+00	0	37	0	389021696	58	5811
2026-01-25 00:12:35.10	359.35	33.75	-44.1	-47.5	15.2	0.00e+00	0	37	0	391118848	59	5404
2026-01-25 00:12:36.10	359.20	33.94	-44.2	-47.6	15.0	0.00e+00	0	37	0	393216000	59	5524
2026-01-25 00:12:37.09	359.04	34.14	-44.2	-47.5	15.1	0.00e+00	0	37	0	395313152	59	5460
2026-01-25 00:12:38.09	358.89	34.34	-44.2	-47.6	15.0	0.00e+00	0	37	0	397410304	59	5505
2026-01-25 00:12:39.08	358.73	34.54	-44.2	-47.6	15.0	0.00e+00	0	37	0	398458880	59	5517
2026-01-25 00:12:40.08	358.57	34.75	-44.1	-47.5	15.1	0.00e+00	0	37	0	400556032	59	5440
2026-01-25 00:12:41.07	358.41	34.95	-44.2	-47.7	15.0	0.00e+00	0	37	0	402653184	59	5535
2026-01-25 00:12:42.07	358.24	35.15	-44.3	-47.8	14.8	0.00e+00	0	37	0	404750336	59	5630
2026-01-25 00:12:43.06	358.08	35.36	-44.2	-47.8	14.9	0.00e+00	0	37	0	405798912	59	5607
2026-01-25 00:12:44.06	357.91	35.57	-44.3	-47.9	14.7	0.00e+00	0	37	0	407896064	59	5708
2026-01-25 00:12:45.06	357.74	35.78	-44.3	-47.9	14.8	0.00e+00	0	37	0	409993216	59	5661
2026-01-25 00:12:46.05	357.57	35.98	-44.2	-47.8	14.8	0.00e+00	0	37	0	412090368	59	5617
2026-01-25 00:12:47.04	357.39	36.19	-44.1	-47.6	15.0	0.00e+00	0	37	0	414187520	59	5512
2026-01-25 00:12:48.04	357.22	36.40	-43.9	-47.4	15.2	0.00e+00	0	37	0	415236096	59	5402
2026-01-25 00:12:49.03	357.04	36.61	-43.9	-47.4	15.2	0.00e+00	0	37	0	417333248	59	5394
2026-01-25 00:12:50.03	356.85	36.83	-43.9	-47.5	15.2	0.00e+00	0	37	0	419430400	59	5416
2026-01-25 00:12:51.02	356.67	37.04	-43.7	-47.3	15.3	0.00e+00	0	37	0	421527552	59	5340
2026-01-25 00:12:52.02	356.48	37.26	-43.6	-47.2	15.5	0.00e+00	0	37	0	422576128	59	5278
2026-01-25 00:12:53.01	356.29	37.47	-43.4	-46.9	15.7	0.00e+00	0	37	0	424673280	58	5384
2026-01-25 00:12:54.01	356.10	37.69	-43.2	-46.6	16.1	0.00e+00	0	37	0	426770432	58	5172
2026-01-25 00:12:55.00	355.91	37.91	-43.3	-46.6	16.1	0.00e+00	0	37	0	428867584	58	5166
2026-01-25 00:12:56.00	355.71	38.13	-43.3	-46.5	16.0	0.00e+00	0	37	0	430964736	58	5142
2026-01-25 00:12:56.99	355.51	38.35	-43.5	-46.7	15.9	0.00e+00	0	37	0	432013312	58	5267
2026-01-25 00:12:57.99	355.31	38.57	-43.5	-46.7	16.0	0.00e+00	0	37	0	434110464	58	5224
2026-01-25 00:12:58.98	355.10	38.79	-43.3	-46.2	16.4	0.00e+00	0	37	0	436207616	58	4970
2026-01-25 00:12:59.98	354.89	39.01	-43.3	-46.2	16.5	0.00e+00	0	37	0	438304768	58	4955
2026-01-25 00:13:00.97	354.68	39.24	-43.2	-46.0	16.6	0.00e+00	0	38	0	439353344	58	4867
2026-01-25 00:13:01.97	354.47	39.46	-43.0	-45.8	16.9	0.00e+00	0	37	0	441450496	58	4728
2026-01-25 00:13:02.96	354.25	39.69	-42.9	-45.7	17.0	0.00e+00	0	37	0	443547648	57	4948
2026-01-25 00:13:03.95	354.03	39.91	-43.0	-45.8	16.9	0.00e+00	0	38	0	445644800	57	5012
2026-01-25 00:13:04.95	353.81	40.14	-42.9	-45.6	17.0	0.00e+00	0	37	0	447741952	57	4924
2026-01-25 00:13:05.95	353.58	40.37	-42.9	-45.7	16.9	0.00e+00	0	37	0	448790528	57	4955
2026-01-25 00:13:06.94	353.35	40.60	-43.3	-46.2	16.5	0.00e+00	0	37	0	450887680	57	5228
2026-01-25 00:13:07.93	353.12	40.83	-43.3	-46.2	16.4	0.00e+00	0	37	0	452984832	57	5244
2026-01-25 00:13:08.93	352.88	41.07	-43.3	-46.2	16.4	0.00e+00	0	37	0	455081984	57	5252
2026-01-25 00:13:09.92	352.64	41.30	-43.6	-46.7	15.9	0.00e+00	0	37	0	456130560	57	5547
2026-01-25 00:13:10.92	352.40	41.53	-43.5	-46.6	16.1	0.00e+00	0	37	0	458227712	57	5498
2026-01-25 00:13:11.92	352.15	41.77	-43.5	-46.5	16.2	0.00e+00	0	37	0	460324864	57	5432
2026-01-25 00:13:12.91	351.90	42.00	-43.3	-46.3	16.4	0.00e+00	0	37	0	462422016	57	5282
2026-01-25 00:13:13.91	351.64	42.24	-43.2	-46.1	16.6	0.00e+00	0	37	0	464519168	57	5206
2026-01-25 00:13:14.90	351.38	42.48	-42.9	-45.8	16.9	0.00e+00	0	37	0	465567744	57	4987
2026-01-25 00:13:15.90	351.12	42.72	-42.8	-45.6	17.0	0.00e+00	0	37	0	467664896	57	4909
2026-01-25 00:13:16.89	350.85	42.95	-42.9	-45.8	17.0	0.00e+00	0	37	0	469762048	57	4987
2026-01-25 00:13:17.89	350.58	43.20	-42.9	-45.7	17.0	0.00e+00	0	37	0	471859200	57	4962
2026-01-25 00:13:18.88	350.31	43.43	-43.0	-45.9	16.8	0.00e+00	0	37	0	472907776	57	5055
2026-01-25 00:13:19.88	350.03	43.68	-42.8	-45.8	16.9	0.00e+00	0	37	0	475004928	57	4988
2026-01-25 00:13:20.87	349.75	43.92	-42.6	-45.4	17.2	0.00e+00	0	37	0	477102080	57	4801
2026-01-25 00:13:21.87	349.46	44.16	-42.4	-45.1	17.5	0.00e+00	0	37	0	479199232	56	4925
2026-01-25 00:13:22.86	349.17	44.41	-42.1	-44.8	17.8	0.00e+00	0	37	0	481296384	56	4736
2026-01-25 00:13:23.86	348.87	44.65	-42.4	-45.2	17.5	0.00e+00	0	37	0	482344960	56	4936
2026-01-25 00:13:24.85	348.57	44.89	-42.4	-45.3	17.4	0.00e+00	0	37	0	484442112	56	4992
2026-01-25 00:13:25.85	348.26	45.14	-42.5	-45.3	17.4	0.00e+00	0	37	0	486539264	56	5000
2026-01-25 00:13:26.84	347.95	45.39	-42.6	-45.4	17.3	0.00e+00	0	37	0	488636416	56	5048
2026-01-25 00:13:27.83	347.64	45.63	-42.5	-45.3	17.3	0.00e+00	0	37	0	489684992	56	5021
2026-01-25 00:13:28.83	347.31	45.88	-42.6	-45.4	17.2	0.00e+00	0	38	0	491782144	56	5078
2026-01-25 00:13:29.82	346.99	46.13	-42.6	-45.4	17.3	0.00e+00	0	37	0	493879296	56	5061
2026-01-25 00:13:30.82	346.66	46.38	-42.8	-45.5	17.2	0.00e+00	0	37	0	495976448	56	5147
2026-01-25 00:13:31.82	346.32	46.63	-42.8	-45.5	17.2	0.00e+00	0	37	0	498073600	56	5153
2026-01-25 00:13:32.81	345.98	46.87	-42.9	-45.6	17.1	0.00e+00	0	37	0	499122176	56	5216
2026-01-25 00:13:33.80	345.63	47.12	-42.8	-45.5	17.1	0.00e+00	0	37	0	501219328	56	5159
2026-01-25 00:13:34.80	345.28	47.37	-42.9	-45.6	17.0	0.00e+00	0	37	0	503316480	56	5210
2026-01-25 00:13:35.80	344.92	47.62	-42.8	-45.6	17.1	0.00e+00	0	37	0	505413632	56	5194
2026-01-25 00:13:36.79	344.55	47.87	-42.6	-45.4	17.3	0.00e+00	0	38	0	506462208	56	5043
2026-01-25 00:13:37.79	344.18	48.12	-42.8	-45.6	17.0	0.00e+00	0	37	0	508559360	56	5211
2026-01-25 00:13:38.78	343.80	48.37	-43.0	-45.9	16.8	0.00e+00	0	38	0	510656512	56	5375
2026-01-25 00:13:39.78	343.42	48.63	-42.8	-45.5	17.2	0.00e+00	0	37	0	512753664	56	5153
2026-01-25 00:13:40.77	343.03	48.87	-42.5	-45.2	17.4	0.00e+00	0	37	0	514850816	56	4957
2026-01-25 00:13:41.77	342.63	49.13	-42.4	-45.1	17.6	0.00e+00	0	37	0	515899392	56	4881
2026-01-25 00:13:42.76	342.23	49.38	-42.3	-44.9	17.7	0.00e+00	0	37	0	517996544	56	4805
2026-01-25 00:13:43.75	341.83	49.62	-42.2	-44.8	17.9	0.00e+00	0	37	0	520093696	56	4712
2026-01-25 00:13:44.75	341.41	49.88	-42.4	-45.0	17.7	0.00e+00	0	37	0	522190848	56	4829
2026-01-25 00:13:45.74	340.99	50.12	-42.2	-44.7	17.9	0.00e+00	0	37	0	524288000	56	4697
2026-01-25 00:13:46.74	340.55	50.37	-42.0	-44.5	18.2	0.00e+00	0	37	0	525336576	56	4581
2026-01-25 00:13:47.73	340.12	50.62	-41.7	-44.2	18.3	0.00e+00	0	37	0	527433728	55	4702
2026-01-25 00:13:48.73	339.67	50.87	-41.8	-44.3	18.2	0.00e+00	0	37	0	529530880	55	4733
2026-01-25 00:13:49.72	339.22	51.12	-41.8	-44.3	18.2	0.00e+00	0	37	0	531628032	55	4753
2026-01-25 00:13:50.72	338.76	51.37	-41.6	-44.1	18.3	0.00e+00	0	37	0	532676608	55	4625
2026-01-25 00:13:51.72	338.29	51.62	-41.5	-44.0	18.5	0.00e+00	0	37	0	534773760	54	4843
2026-01-25 00:13:52.71	337.82	51.86	-41.1	-43.6	18.9	0.00e+00	0	37	0	536870912	54	4614
2026-01-25 00:13:53.71	337.33	52.11	-40.7	-43.1	19.4	0.00e+00	0	37	0	538968064	53	4607
2026-01-25 00:13:54.70	336.84	52.35	-40.5	-42.7	19.7	0.00e+00	0	37	0	541065216	52	4679
2026-01-25 00:13:55.70	336.34	52.59	-40.2	-42.3	20.1	0.00e+00	0	37	0	542113792	52	4473
2026-01-25 00:13:56.69	335.83	52.84	-40.1	-42.2	20.3	0.00e+00	0	37	0	544210944	51	4676
2026-01-25 00:13:57.69	335.32	53.08	-40.2	-42.3	20.1	0.00e+00	0	37	0	546308096	51	4735
2026-01-25 00:13:58.68	334.79	53.32	-40.4	-42.6	19.9	0.00e+00	0	37	0	548405248	51	4907
2026-01-25 00:13:59.68	334.26	53.56	-40.4	-42.5	20.0	0.00e+00	0	37	0	549453824	51	4862
2026-01-25 00:14:00.67	333.72	53.79	-40.4	-42.6	19.9	0.00e+00	0	37	0	551550976	51	4912
2026-01-25 00:14:01.67	333.16	54.03	-40.6	-42.8	19.7	0.00e+00	0	37	0	553648128	51	5014
2026-01-25 00:14:02.66	332.60	54.26	-40.5	-42.7	19.7	0.00e+00	0	37	0	555745280	51	4972
2026-01-25 00:14:03.65	332.04	54.49	-40.6	-42.8	19.5	0.00e+00	0	37	0	557842432	52	4743
2026-01-25 00:14:04.65	331.45	54.72	-40.6	-42.8	19.6	0.00e+00	0	37	0	558891008	52	4729
2026-01-25 00:14:05.64	330.87	54.95	-40.5	-42.7	19.7	0.00e+00	0	37	0	560988160	52	4702
2026-01-25 00:14:06.64	330.27	55.18	-40.4	-42.6	19.8	0.00e+00	0	37	0	563085312	52	4642
2026-01-25 00:14:07.63	329.66	55.40	-40.7	-43.0	19.4	0.00e+00	0	37	0	565182464	52	4868
2026-01-25 00:14:08.63	329.04	55.62	-41.3	-43.8	18.7	0.00e+00	0	38	0	566231040	53	5022
2026-01-25 00:14:09.62	328.41	55.84	-41.5	-44.1	18.4	0.00e+00	0	37	0	568328192	53	5170
2026-01-25 00:14:10.62	327.77	56.06	-41.9	-44.5	18.0	0.00e+00	0	37	0	570425344	54	5107
2026-01-25 00:14:11.61	327.13	56.27	-42.4	-45.0	17.5	0.00e+00	0	37	0	572522496	55	5156
2026-01-25 00:14:12.61	326.47	56.48	-42.4	-45.1	17.3	0.00e+00	0	37	0	574619648	55	5217
2026-01-25 00:14:13.60	325.80	56.69	-42.3	-45.0	17.5	0.00e+00	0	37	0	575668224	55	5104
2026-01-25 00:14:14.60	325.12	56.90	-42.4	-45.2	17.4	0.00e+00	0	37	0	577765376	55	5225
2026-01-25 00:14:15.59	324.44	57.10	-42.6	-45.4	17.1	0.00e+00	0	37	0	579862528	55	5379
2026-01-25 00:14:16.59	323.74	57.30	-42.9	-45.8	17.0	0.00e+00	0	37	0	581959680	56	5289
2026-01-25 00:14:17.58	323.03	57.49	-42.9	-45.7	17.0	0.00e+00	0	37	0	583008256	56	5240
2026-01-25 00:14:18.58	322.31	57.68	-42.6	-45.2	17.5	0.00e+00	0	37	0	585105408	56	4981
2026-01-25 00:14:19.57	321.58	57.87	-42.6	-45.3	17.4	0.00e+00	0	37	0	587202560	56	4988
2026-01-25 00:14:20.57	320.84	58.05	-42.8	-45.6	17.2	0.00e+00	0	37	0	589299712	56	5160
2026-01-25 00:14:21.56	320.09	58.23	-43.0	-45.8	16.9	0.00e+00	0	37	0	591396864	56	5306
2026-01-25 00:14:22.56	319.33	58.41	-42.8	-45.6	17.1	0.00e+00	0	37	0	592445440	56	5171
2026-01-25 00:14:23.55	318.57	58.58	-42.9	-45.6	17.2	0.00e+00	0	37	0	594542592	56	5179
2026-01-25 00:14:24.55	317.78	58.75	-42.8	-45.5	17.2	0.00e+00	0	37	0	596639744	56	5152
2026-01-25 00:14:25.54	317.00	58.91	-42.6	-45.3	17.5	0.00e+00	0	37	0	598736896	56	5007
2026-01-25 00:14:26.54	316.19	59.07	-42.5	-45.1	17.7	0.00e+00	0	37	0	599785472	56	4891
2026-01-25 00:14:27.53	315.39	59.22	-42.5	-45.2	17.5	0.00e+00	0	37	0	601882624	56	4942
2026-01-25 00:14:28.53	314.57	59.37	-42.9	-45.7	17.0	0.00e+00	0	37	0	603979776	56	5258
2026-01-25 00:14:29.53	313.74	59.51	-42.7	-45.5	17.4	0.00e+00	0	37	0	606076928	56	5120
2026-01-25 00:14:30.52	312.90	59.65	-42.3	-44.9	17.8	0.00e+00	0	37	0	608174080	56	4779
2026-01-25 00:14:31.52	312.06	59.78	-41.8	-44.3	18.2	0.00e+00	0	37	0	609222656	55	4729
2026-01-25 00:14:32.51	311.21	59.91	-41.5	-43.9	18.6	0.00e+00	0	37	0	611319808	55	4515
2026-01-25 00:14:33.51	310.34	60.03	-41.0	-43.3	19.2	0.00e+00	0	37	0	613416960	54	4477
2026-01-25 00:14:34.51	309.47	60.15	-40.8	-43.1	19.4	0.00e+00	0	37	0	615514112	53	4607
2026-01-25 00:14:35.50	308.59	60.26	-40.7	-42.9	19.5	0.00e+00	0	37	0	617611264	53	4545
2026-01-25 00:14:36.50	307.70	60.36	-40.6	-42.8	19.7	0.00e+00	0	37	0	618659840	53	4458
2026-01-25 00:14:37.49	306.81	60.46	-40.6	-42.8	19.6	0.00e+00	0	37	0	620756992	53	4466
2026-01-25 00:14:38.49	305.91	60.55	-40.8	-43.0	19.5	0.00e+00	0	37	0	622854144	53	4579
2026-01-25 00:14:39.48	305.01	60.64	-40.7	-42.9	19.5	0.00e+00	0	37	0	624951296	53	4516
2026-01-25 00:14:40.48	304.09	60.72	-40.6	-42.8	19.6	0.00e+00	0	37	0	625999872	53	4470
2026-01-25 00:14:41.47	303.18	60.79	-40.5	-42.7	19.8	0.00e+00	0	37	0	628097024	52	4661
2026-01-25 00:14:42.47	302.25	60.86	-40.6	-42.8	19.7	0.00e+00	0	37	0	630194176	52	4744
2026-01-25 00:14:43.46	301.33	60.92	-40.5	-42.6	19.8	0.00e+00	0	37	0	632291328	52	4645
2026-01-25 00:14:44.46	300.40	60.97	-40.0	-42.0	20.4	0.00e+00	0	37	0	634388480	51	4590
2026-01-25 00:14:45.45	299.47	61.02	-39.7	-41.8	20.7	0.00e+00	0	37	0	635437056	51	4444
2026-01-25 00:14:46.45	298.52	61.06	-39.6	-41.6	20.8	0.00e+00	0	37	0	637534208	51	4388
2026-01-25 00:14:47.44	297.59	61.10	-39.4	-41.4	21.0	0.00e+00	0	37	0	639631360	50	4543
2026-01-25 00:14:48.44	296.64	61.12	-39.3	-41.4	21.1	0.00e+00	0	37	0	641728512	50	4494
2026-01-25 00:14:49.43	295.70	61.14	-39.1	-41.1	21.3	0.00e+00	0	37	0	642777088	50	4378
2026-01-25 00:14:50.43	294.75	61.16	-39.3	-41.3	21.1	0.00e+00	0	37	0	644874240	50	4478
2026-01-25 00:14:51.43	293.80	61.16	-39.3	-41.3	21.1	0.00e+00	0	37	0	646971392	50	4467
2026-01-25 00:14:52.42	292.85	61.16	-38.9	-40.8	21.5	0.00e+00	0	38	0	649068544	49	4491
2026-01-25 00:14:53.42	291.90	61.15	-38.6	-40.5	21.8	0.00e+00	0	37	0	651165696	49	4328
2026-01-25 00:14:54.41	290.96	61.14	-38.7	-40.6	21.8	0.00e+00	0	37	0	652214272	49	4351
2026-01-25 00:14:55.41	290.01	61.12	-38.9	-40.8	21.5	0.00e+00	0	37	0	654311424	49	4486
2026-01-25 00:14:56.40	289.07	61.09	-38.5	-40.4	21.9	0.00e+00	0	37	0	656408576	49	4263
2026-01-25 00:14:57.40	288.13	61.05	-38.3	-40.2	22.1	0.00e+00	0	37	0	658505728	48	4419
2026-01-25 00:14:58.40	287.18	61.01	-38.3	-40.2	22.1	0.00e+00	0	38	0	659554304	48	4432
2026-01-25 00:14:59.39	286.25	60.97	-38.3	-40.2	22.1	0.00e+00	0	37	0	661651456	48	4435
2026-01-25 00:15:00.38	285.33	60.91	-38.5	-40.4	21.9	0.00e+00	0	37	0	663748608	48	4543
2026-01-25 00:15:01.38	284.40	60.85	-38.6	-40.6	21.7	0.00e+00	0	37	0	665845760	48	4617
2026-01-25 00:15:02.37	283.48	60.78	-38.7	-40.7	21.7	0.00e+00	0	37	0	667942912	48	4657
2026-01-25 00:15:03.37	282.56	60.71	-39.0	-41.0	21.4	0.00e+00	0	37	0	668991488	48	4856
2026-01-25 00:15:04.36	281.65	60.63	-39.3	-41.4	21.0	0.00e+00	0	37	0	671088640	49	4767
2026-01-25 00:15:05.36	280.74	60.54	-39.4	-41.5	21.0	0.00e+00	0	37	0	673185792	49	4821
2026-01-25 00:15:06.35	279.85	60.44	-39.4	-41.4	21.0	0.00e+00	0	37	0	675282944	49	4773
2026-01-25 00:15:07.35	278.95	60.34	-39.5	-41.5	20.9	0.00e+00	0	38	0	676331520	49	4835
2026-01-25 00:15:08.34	278.07	60.24	-39.9	-42.0	20.5	0.00e+00	0	37	0	678428672	50	4830
2026-01-25 00:15:09.34	277.19	60.13	-40.0	-42.1	20.4	0.00e+00	0	37	0	680525824	50	4892
2026-01-25 00:15:10.33	276.32	60.01	-40.1	-42.3	20.2	0.00e+00	0	37	0	682622976	50	5005
2026-01-25 00:15:11.33	275.46	59.89	-40.1	-42.2	20.3	0.00e+00	0	37	0	684720128	50	4938
2026-01-25 00:15:12.32	274.61	59.76	-40.2	-42.3	20.2	0.00e+00	0	37	0	685768704	50	5014
2026-01-25 00:15:13.32	273.76	59.63	-40.4	-42.5	19.9	0.00e+00	0	37	0	687865856	51	4867
2026-01-25 00:15:14.31	272.93	59.49	-40.9	-43.3	19.3	0.00e+00	0	37	0	689963008	52	4987
2026-01-25 00:15:15.30	272.11	59.34	-41.0	-43.3	19.1	0.00e+00	0	37	0	692060160	52	5038
2026-01-25 00:15:16.30	271.29	59.19	-40.9	-43.2	18.9	0.00e+00	0	37	0	693108736	52	4953
2026-01-25 00:15:17.30	270.47	59.04	-40.8	-43.0	19.5	0.00e+00	0	37	0	695205888	52	4852
2026-01-25 00:15:18.29	269.68	58.88	-40.7	-42.9	19.5	0.00e+00	0	37	0	697303040	52	4788
2026-01-25 00:15:19.29	268.89	58.72	-41.3	-43.6	18.9	0.00e+00	0	37	0	699400192	53	4911
2026-01-25 00:15:20.28	268.11	58.55	-41.6	-44.1	18.5	0.00e+00	0	38	0	701497344	54	4882
2026-01-25 00:15:21.28	267.34	58.38	-41.6	-44.1	18.5	0.00e+00	0	37	0	702545920	54	4879
2026-01-25 00:15:22.27	266.58	58.20	-41.6	-44.1	18.4	0.00e+00	0	37	0	704643072	54	4878
2026-01-25 00:15:23.27	265.83	58.02	-41.6	-44.0	18.5	0.00e+00	0	37	0	706740224	54	4850
2026-01-25 00:15:24.26	265.10	57.83	-41.4	-43.8	18.7	0.00e+00	0	37	0	708837376	54	4718
2026-01-25 00:15:25.26	264.36	57.64	-41.7	-44.2	18.3	0.00e+00	0	37	0	710934528	54	4956
2026-01-25 00:15:26.25	263.65	57.45	-42.1	-44.7	17.8	0.00e+00	0	37	0	711983104	54	5255
2026-01-25 00:15:27.24	262.95	57.26	-41.8	-44.3	18.2	0.00e+00	0	37	0	714080256	54	5011
2026-01-25 00:15:28.24	262.24	57.06	-41.7	-44.1	18.4	0.00e+00	0	38	0	716177408	54	4916
2026-01-25 00:15:29.24	261.55	56.85	-41.5	-43.9	18.6	0.00e+00	0	37	0	718274560	54	4781
2026-01-25 00:15:30.23	260.88	56.65	-41.3	-43.7	18.8	0.00e+00	0	37	0	719323136	54	4695
2026-01-25 00:15:31.22	260.22	56.44	-40.9	-43.3	19.2	0.00e+00	0	37	0	721420288	53	4709
2026-01-25 00:15:32.22	259.56	56.23	-40.5	-42.8	19.6	0.00e+00	0	37	0	723517440	53	4482
2026-01-25 00:15:33.21	258.91	56.01	-40.3	-42.5	19.9	0.00e+00	0	37	0	725614592	52	4576
2026-01-25 00:15:34.21	258.27	55.79	-40.3	-42.5	19.9	0.00e+00	0	37	0	727711744	52	4566
2026-01-25 00:15:35.21	257.64	55.57	-40.7	-43.0	19.5	0.00e+00	0	37	0	728760320	52	4818
2026-01-25 00:15:36.20	257.03	55.35	-40.7	-42.9	19.5	0.00e+00	0	37	0	730857472	52	4796
2026-01-25 00:15:37.19	256.42	55.13	-40.5	-42.7	19.6	0.00e+00	0	37	0	732954624	52	4682
2026-01-25 00:15:38.19	255.82	54.90	-40.6	-42.8	19.6	0.00e+00	0	37	0	735051776	52	4739
2026-01-25 00:15:39.18	255.24	54.67	-40.3	-42.4	20.0	0.00e+00	0	37	0	736100352	52	4521
2026-01-25 00:15:40.18	254.65	54.44	-40.0	-42.1	20.3	0.00e+00	0	37	0	738197504	51	4624
2026-01-25 00:15:41.18	254.08	54.21	-40.1	-42.2	20.3	0.00e+00	0	37	0	740294656	51	4659
2026-01-25 00:15:42.17	253.52	53.97	-40.3	-42.4	20.1	0.00e+00	0	37	0	742391808	51	4807
2026-01-25 00:15:43.16	252.97	53.74	-40.5	-42.7	19.9	0.00e+00	0	37	0	744488960	51	4928
2026-01-25 00:15:44.16	252.43	53.50	-40.7	-42.9	19.6	0.00e+00	0	37	0	745537536	52	4775
2026-01-25 00:15:45.15	251.90	53.26	-41.2	-43.5	19.0	0.00e+00	0	37	0	747634688	52	5118
2026-01-25 00:15:46.14	251.38	53.02	-41.5	-43.8	18.6	0.00e+00	0	37	0	749731840	53	5038
2026-01-25 00:15:47.14	250.86	52.78	-41.6	-44.0	18.5	0.00e+00	0	37	0	751828992	53	5122
2026-01-25 00:15:48.14	250.35	52.53	-41.1	-43.4	19.0	0.00e+00	0	37	0	752877568	53	4796
2026-01-25 00:15:49.13	249.85	52.29	-41.1	-43.4	19.1	0.00e+00	0	37	0	754974720	53	4779
2026-01-25 00:15:50.13	249.36	52.04	-41.3	-43.6	18.9	0.00e+00	0	37	0	757071872	53	4904
2026-01-25 00:15:51.12	248.88	51.80	-41.7	-44.2	18.3	0.00e+00	0	37	0	759169024	54	4943
2026-01-25 00:15:52.12	248.40	51.55	-41.9	-44.4	18.1	0.00e+00	0	37	0	761266176	54	5044
2026-01-25 00:15:53.11	247.93	51.30	-42.1	-44.6	17.9	0.00e+00	0	38	0	762314752	54	5184
2026-01-25 00:15:54.10	247.48	51.06	-42.1	-44.7	17.8	0.00e+00	0	37	0	764411904	55	4941
2026-01-25 00:15:55.10	247.02	50.81	-42.4	-45.1	17.4	0.00e+00	0	37	0	766509056	55	5176
2026-01-25 00:15:56.09	246.58	50.56	-43.0	-45.9	16.9	0.00e+00	0	37	0	768606208	56	5353
2026-01-25 00:15:57.08	246.15	50.31	-43.7	-46.8	15.9	0.00e+00	0	37	0	769654784	57	5621
2026-01-25 00:15:58.08	245.71	50.06	-44.0	-47.3	15.4	0.00e+00	0	38	0	771751936	58	5628
2026-01-25 00:15:59.07	245.29	49.81	-43.9	-47.1	15.7	0.00e+00	0	37	0	773849088	58	5477
2026-01-25 00:16:00.07	244.87	49.56	-43.6	-46.5	16.2	0.00e+00	0	37	0	775946240	58	5142
2026-01-25 00:16:01.06	244.47	49.31	-43.7	-46.7	16.0	0.00e+00	0	37	0	778043392	58	5243
2026-01-25 00:16:02.06	244.06	49.05	-43.7	-46.7	16.0	0.00e+00	0	37	0	779091968	58	5239
2026-01-25 00:16:03.05	243.67	48.80	-43.7	-46.7	16.0	0.00e+00	0	37	0	781189120	58	5249
2026-01-25 00:16:04.05	243.28	48.55	-44.0	-47.2	15.5	0.00e+00	0	37	0	783286272	58	5581
2026-01-25 00:16:05.04	242.90	48.30	-44.6	-48.1	14.6	0.00e+00	0	37	0	785383424	59	5828
2026-01-25 00:16:06.04	242.52	48.05	-44.9	-48.7	14.1	0.00e+00	0	37	0	786432000	60	5868
2026-01-25 00:16:07.04	242.15	47.80	-44.7	-48.3	14.4	2.20e-06	0	37	0	788529152	60	5655
2026-01-25 00:16:08.04	241.78	47.54	-44.3	-47.7	15.0	0.00e+00	0	37	0	790626304	60	5273
2026-01-25 00:16:09.03	241.42	47.29	-44.0	-47.3	15.4	7.00e-07	0	37	0	792723456	60	5035
2026-01-25 00:16:10.03	241.07	47.04	-43.8	-46.9	15.8	0.00e+00	0	37	0	794820608	59	5074
2026-01-25 00:16:11.03	240.72	46.79	-43.4	-46.4	16.3	0.00e+00	0	37	0	795869184	58	5051
2026-01-25 00:16:12.02	240.38	46.54	-43.3	-46.2	16.4	0.00e+00	0	37	0	797966336	58	4968
2026-01-25 00:16:13.02	240.04	46.29	-43.5	-46.5	16.2	0.00e+00	0	37	0	800063488	58	5159
2026-01-25 00:16:14.01	239.71	46.04	-43.5	-46.6	16.1	0.00e+00	0	37	0	802160640	58	5162
2026-01-25 00:16:15.01	239.38	45.79	-43.4	-46.4	16.4	0.00e+00	0	38	0	803209216	58	5044
2026-01-25 00:16:16.00	239.06	45.55	-43.2	-46.1	16.7	0.00e+00	0	37	0	805306368	58	4892
2026-01-25 00:16:17.00	238.75	45.30	-43.1	-46.0	16.7	0.00e+00	0	38	0	807403520	58	4825
2026-01-25 00:16:17.99	238.44	45.05	-42.9	-45.7	17.0	0.00e+00	0	37	0	809500672	57	4937
2026-01-25 00:16:18.99	238.13	44.81	-42.5	-45.1	17.6	0.00e+00	0	37	0	811597824	56	4883
2026-01-25 00:16:19.98	237.83	44.56	-42.7	-45.3	17.3	0.00e+00	0	37	0	812646400	56	5036
2026-01-25 00:16:20.98	237.53	44.31	-43.1	-46.0	16.8	0.00e+00	0	37	0	814743552	56	5423
2026-01-25 00:16:21.97	237.24	44.07	-43.3	-46.2	16.5	0.00e+00	0	38	0	816840704	57	5252
2026-01-25 00:16:22.97	236.95	43.83	-43.2	-46.0	16.7	0.00e+00	0	37	0	818937856	57	5137
2026-01-25 00:16:23.96	236.67	43.58	-42.7	-45.4	17.2	0.00e+00	0	37	0	819986432	57	4795
2026-01-25 00:16:24.96	236.39	43.34	-42.8	-45.5	17.2	0.00e+00	0	37	0	822083584	57	4847
2026-01-25 00:16:25.95	236.11	43.10	-42.8	-45.4	17.2	0.00e+00	0	37	0	824180736	57	4804
2026-01-25 00:16:26.94	235.85	42.86	-43.0	-45.7	16.9	0.00e+00	0	37	0	826277888	57	4953
2026-01-25 00:16:27.94	235.58	42.62	-43.0	-45.7	17.0	0.00e+00	0	37	0	828375040	57	4965
2026-01-25 00:16:28.93	235.32	42.38	-43.0	-45.7	16.9	0.00e+00	0	37	0	829423616	57	4968
2026-01-25 00:16:29.93	235.06	42.14	-43.3	-46.2	16.5	0.00e+00	0	37	0	831520768	57	5231
2026-01-25 00:16:30.93	234.80	41.90	-43.4	-46.4	16.3	0.00e+00	0	37	0	833617920	57	5358
2026-01-25 00:16:31.92	234.55	41.67	-43.5	-46.5	16.1	0.00e+00	0	37	0	835715072	57	5442
2026-01-25 00:16:32.92	234.30	41.43	-43.5	-46.5	16.2	0.00e+00	0	37	0	836763648	57	5427
2026-01-25 00:16:33.91	234.06	41.20	-43.7	-46.6	16.0	0.00e+00	0	37	0	838860800	57	5526
2026-01-25 00:16:34.91	233.82	40.96	-43.9	-47.0	15.7	0.00e+00	0	37	0	840957952	58	5406
2026-01-25 00:16:35.90	233.58	40.73	-43.8	-46.9	15.8	0.00e+00	0	37	0	843055104	58	5366
2026-01-25 00:16:36.90	233.35	40.50	-43.6	-46.7	16.0	0.00e+00	0	37	0	845152256	58	5270
2026-01-25 00:16:37.89	233.12	40.27	-43.7	-46.9	15.8	0.00e+00	0	38	0	846200832	58	5381
2026-01-25 00:16:38.89	232.89	40.04	-44.2	-47.7	15.0	0.00e+00	0	37	0	848297984	59	5532
2026-01-25 00:16:39.89	232.66	39.81	-44.5	-48.1	14.6	0.00e+00	0	38	0	850395136	59	5797
2026-01-25 00:16:40.88	232.45	39.58	-44.4	-47.8	14.8	7.00e-07	0	38	0	852492288	59	5642
2026-01-25 00:16:41.88	232.23	39.35	-44.5	-48.0	14.7	0.00e+00	0	38	0	853540864	59	5759
2026-01-25 00:16:42.88	232.01	39.13	-44.4	-47.9	14.8	7.00e-07	0	38	0	855638016	59	5660
2026-01-25 00:16:43.87	231.80	38.90	-44.4	-47.8	14.8	0.00e+00	0	37	0	857735168	59	5655
2026-01-25 00:16:44.87	231.59	38.68	-44.4	-47.8	14.8	0.00e+00	0	37	0	859832320	59	5644
2026-01-25 00:16:45.86	231.39	38.46	-44.5	-47.9	14.7	0.00e+00	0	38	0	861929472	59	5711
2026-01-25 00:16:46.86	231.18	38.23	-44.4	-47.7	14.9	0.00e+00	0	37	0	862978048	59	5570
2026-01-25 00:16:47.85	230.98	38.01	-44.1	-47.3	15.3	0.00e+00	0	38	0	865075200	59	5299
2026-01-25 00:16:48.85	230.79	37.79	-43.7	-46.7	15.9	0.00e+00	0	37	0	867172352	59	4977
2026-01-25 00:16:49.84	230.59	37.57	-43.7	-46.7	16.0	0.00e+00	0	37	0	869269504	59	4941
2026-01-25 00:16:50.84	230.40	37.36	-43.7	-46.7	15.9	0.00e+00	0	38	0	870318080	59	4980
2026-01-25 00:16:51.83	230.21	37.14	-43.7	-46.7	16.0	0.00e+00	0	37	0	872415232	59	4967
2026-01-25 00:16:52.83	230.02	36.92	-43.9	-47.1	15.6	0.00e+00	0	38	0	874512384	59	5164
2026-01-25 00:16:53.82	229.84	36.71	-44.1	-47.2	15.4	0.00e+00	0	37	0	876609536	59	5268
2026-01-25 00:16:54.82	229.66	36.50	-44.1	-47.3	15.3	0.00e+00	0	38	0	878706688	59	5339
2026-01-25 00:16:55.81	229.48	36.28	-44.1	-47.3	15.4	0.00e+00	0	37	0	879755264	59	5294
2026-01-25 00:16:56.81	229.30	36.07	-44.0	-47.3	15.4	0.00e+00	0	37	0	881852416	59	5292
2026-01-25 00:16:57.81	229.12	35.86	-44.0	-47.3	15.4	0.00e+00	0	37	0	883949568	59	5281
2026-01-25 00:16:58.80	228.95	35.65	-44.0	-47.3	15.3	0.00e+00	0	38	0	886046720	59	5302
2026-01-25 00:16:59.80	228.78	35.44	-43.8	-47.0	15.6	0.00e+00	0	38	0	888143872	59	5153
2026-01-25 00:17:00.79	228.61	35.24	-43.9	-47.1	15.5	0.00e+00	0	37	0	889192448	59	5188
2026-01-25 00:17:01.79	228.45	35.03	-43.9	-47.0	15.6	0.00e+00	0	37	0	891289600	59	5137
2026-01-25 00:17:02.78	228.28	34.83	-43.7	-46.8	15.8	0.00e+00	0	37	0	893386752	59	5009
2026-01-25 00:17:03.78	228.12	34.62	-43.5	-46.5	16.2	0.00e+00	0	38	0	895483904	58	5102
2026-01-25 00:17:04.77	227.96	34.42	-43.6	-46.6	16.0	0.00e+00	0	38	0	896532480	58	5203
2026-01-25 00:17:05.77	227.80	34.22	-43.7	-46.7	15.9	0.00e+00	0	37	0	898629632	58	5251
2026-01-25 00:17:06.76	227.65	34.02	-43.9	-47.1	15.6	0.00e+00	0	38	0	900726784	58	5483
2026-01-25 00:17:07.76	227.49	33.82	-44.1	-47.4	15.2	0.00e+00	0	38	0	902823936	59	5396
2026-01-25 00:17:08.76	227.34	33.62	-44.5	-48.0	14.7	0.00e+00	0	37	0	904921088	59	5731
2026-01-25 00:17:09.75	227.19	33.42	-44.6	-48.2	14.4	0.00e+00	0	37	0	905969664	59	5869
2026-01-25 00:17:10.75	227.04	33.22	-44.6	-48.2	14.4	0.00e+00	0	37	0	908066816	59	5896
2026-01-25 00:17:11.75	226.89	33.03	-44.6	-48.3	14.3	2.20e-06	0	38	0	910163968	59	5986
2026-01-25 00:17:12.74	226.75	32.83	-44.5	-48.1	14.6	0.00e+00	0	37	0	912261120	59	5796
2026-01-25 00:17:13.74	226.61	32.64	-44.3	-47.7	15.0	0.00e+00	0	38	0	913309696	59	5530
2026-01-25 00:17:14.74	226.46	32.45	-44.0	-47.3	15.3	0.00e+00	0	38	0	915406848	59	5317
2026-01-25 00:17:15.73	226.32	32.26	-43.6	-46.7	15.9	0.00e+00	0	38	0	917504000	59	4953
2026-01-25 00:17:16.72	226.19	32.07	-43.4	-46.3	16.4	0.00e+00	0	38	0	919601152	58	5002
2026-01-25 00:17:17.72	226.05	31.88	-43.3	-46.2	16.5	0.00e+00	0	38	0	921698304	58	4931
2026-01-25 00:17:18.71	225.92	31.69	-43.1	-45.8	16.7	0.00e+00	0	38	0	922746880	58	4759
2026-01-25 00:17:19.71	225.78	31.50	-43.2	-46.0	16.5	0.00e+00	0	37	0	924844032	58	4862
2026-01-25 00:17:20.71	225.65	31.31	-43.4	-46.3	16.3	0.00e+00	0	37	0	926941184	58	5022
2026-01-25 00:17:21.70	225.52	31.13	-43.5	-46.4	16.2	0.00e+00	0	37	0	929038336	58	5055
2026-01-25 00:17:22.69	225.39	30.95	-43.6	-46.6	16.1	0.00e+00	0	38	0	931135488	58	5162
2026-01-25 00:17:23.69	225.26	30.76	-43.6	-46.7	16.0	0.00e+00	0	37	0	932184064	58	5224
2026-01-25 00:17:24.68	225.14	30.58	-43.7	-46.7	15.9	0.00e+00	0	37	0	934281216	58	5240
2026-01-25 00:17:25.68	225.01	30.40	-43.7	-46.7	16.0	0.00e+00	0	38	0	936378368	58	5241
2026-01-25 00:17:26.68	224.89	30.22	-43.6	-46.7	15.9	0.00e+00	0	37	0	938475520	58	5229
2026-01-25 00:17:27.67	224.77	30.04	-43.8	-46.9	15.8	0.00e+00	0	37	0	939524096	58	5350
2026-01-25 00:17:28.67	224.65	29.86	-43.8	-46.9	15.7	0.00e+00	0	38	0	941621248	58	5385
2026-01-25 00:17:29.66	224.53	29.68	-43.8	-47.0	15.6	0.00e+00	0	38	0	943718400	58	5410
2026-01-25 00:17:30.66	224.41	29.51	-43.7	-46.8	15.8	0.00e+00	0	37	0	945815552	58	5294
2026-01-25 00:17:31.65	224.30	29.33	-43.6	-46.7	15.9	0.00e+00	0	37	0	947912704	58	5229
2026-01-25 00:17:32.64	224.18	29.16	-43.7	-46.7	15.9	0.00e+00	0	37	0	948961280	58	5252
2026-01-25 00:17:33.64	224.07	28.98	-43.6	-46.6	16.0	0.00e+00	0	37	0	951058432	58	5185
2026-01-25 00:17:34.63	223.96	28.81	-43.4	-46.4	16.2	0.00e+00	0	38	0	953155584	58	5063
2026-01-25 00:17:35.63	223.85	28.64	-43.5	-46.4	16.1	0.00e+00	0	37	0	955252736	58	5099
2026-01-25 00:17:36.62	223.74	28.47	-43.3	-46.1	16.5	0.00e+00	0	38	0	956301312	58	4924
2026-01-25 00:17:37.62	223.63	28.30	-43.2	-46.1	16.4	0.00e+00	0	37	0	958398464	58	4895
2026-01-25 00:17:38.61	223.52	28.13	-43.2	-46.0	16.6	0.00e+00	0	37	0	960495616	58	4843
2026-01-25 00:17:39.61	223.41	27.96	-43.0	-45.8	16.7	0.00e+00	0	37	0	962592768	58	4753
2026-01-25 00:17:40.60	223.31	27.80	-43.0	-45.9	16.7	0.00e+00	0	37	0	964689920	58	4768
2026-01-25 00:17:41.59	223.20	27.63	-43.1	-45.9	16.7	0.00e+00	0	38	0	965738496	58	4792
2026-01-25 00:17:42.59	223.10	27.46	-43.0	-45.8	16.8	0.00e+00	0	37	0	967835648	57	4996
2026-01-25 00:17:43.58	223.00	27.30	-43.0	-45.9	16.7	0.00e+00	0	37	0	969932800	57	5065
2026-01-25 00:17:44.58	222.90	27.14	-43.0	-45.8	16.8	0.00e+00	0	37	0	972029952	57	5023
2026-01-25 00:17:45.57	222.80	26.97	-42.7	-45.4	17.1	0.00e+00	0	37	0	973078528	57	4809
2026-01-25 00:17:46.57	222.70	26.81	-42.6	-45.3	17.2	0.00e+00	0	37	0	975175680	57	4741
2026-01-25 00:17:47.57	222.60	26.65	-42.3	-44.9	17.6	0.00e+00	0	37	0	977272832	56	4804
2026-01-25 00:17:48.56	222.51	26.49	-42.4	-45.0	17.6	0.00e+00	0	37	0	979369984	56	4849
2026-01-25 00:17:49.56	222.41	26.33	-42.3	-45.0	17.5	0.00e+00	0	37	0	981467136	56	4826
2026-01-25 00:17:50.56	222.31	26.17	-42.4	-45.1	17.5	0.00e+00	0	37	0	982515712	56	4896
2026-01-25 00:17:51.55	222.22	26.02	-42.5	-45.2	17.3	0.00e+00	0	37	0	984612864	56	4961
2026-01-25 00:17:52.55	222.13	25.86	-42.6	-45.3	17.3	0.00e+00	0	37	0	986710016	56	4999
2026-01-25 00:17:53.55	222.03	25.70	-42.6	-45.3	17.2	0.00e+00	0	38	0	988807168	56	5025
2026-01-25 00:17:54.54	221.94	25.55	-42.6	-45.4	17.2	0.00e+00	0	37	0	989855744	56	5043
2026-01-25 00:17:55.54	221.85	25.39	-42.6	-45.3	17.2	0.00e+00	0	37	0	991952896	56	5035
2026-01-25 00:17:56.53	221.76	25.24	-42.6	-45.3	17.2	0.00e+00	0	37	0	994050048	56	5035
2026-01-25 00:17:57.53	221.68	25.09	-42.6	-45.3	17.2	0.00e+00	0	37	0	996147200	56	5037
2026-01-25 00:17:58.52	221.59	24.93	-42.6	-45.3	17.3	0.00e+00	0	38	0	998244352	56	4991
2026-01-25 00:17:59.52	221.50	24.78	-42.5	-45.2	17.3	0.00e+00	0	37	0	999292928	56	4964
2026-01-25 00:18:00.51	221.42	24.63	-42.5	-45.2	17.4	0.00e+00	0	37	0	1001390080	56	4959
2026-01-25 00:18:01.51	221.33	24.48	-42.5	-45.2	17.3	0.00e+00	0	37	0	1003487232	56	4959
2026-01-25 00:18:02.50	221.25	24.34	-42.5	-45.2	17.3	0.00e+00	0	37	0	1005584384	56	4950
2026-01-25 00:18:03.49	221.16	24.19	-42.3	-45.0	17.6	0.00e+00	0	38	0	1006632960	56	4819
2026-01-25 00:18:04.49	221.08	24.04	-42.4	-45.1	17.5	0.00e+00	0	37	0	1008730112	56	4874
2026-01-25 00:18:05.48	221.00	23.89	-42.4	-45.0	17.5	0.00e+00	0	37	0	1010827264	56	4858
2026-01-25 00:18:06.48	220.92	23.75	-42.3	-45.0	17.5	0.00e+00	0	37	0	1012924416	56	4836
2026-01-25 00:18:07.47	220.84	23.60	-42.4	-45.0	17.6	0.00e+00	0	38	0	1015021568	56	4841
2026-01-25 00:18:08.47	220.76	23.46	-42.4	-45.1	17.4	0.00e+00	0	37	0	1016070144	56	4879
2026-01-25 00:18:09.46	220.68	23.32	-42.4	-45.1	17.5	0.00e+00	0	37	0	1018167296	56	4877
2026-01-25 00:18:10.46	220.60	23.17	-42.4	-45.1	17.5	0.00e+00	0	38	0	1020264448	56	4878
2026-01-25 00:18:11.45	220.52	23.03	-42.4	-45.0	17.5	0.00e+00	0	38	0	1022361600	56	4869
2026-01-25 00:18:12.44	220.45	22.89	-42.4	-45.1	17.5	0.00e+00	0	37	0	1023410176	56	4874
2026-01-25 00:18:13.44	220.37	22.75	-42.4	-45.1	17.4	0.00e+00	0	37	0	1025507328	56	4885
2026-01-25 00:18:14.43	220.30	22.61	-42.5	-45.2	17.4	0.00e+00	0	38	0	1027604480	56	4929
2026-01-25 00:18:15.43	220.22	22.47	-42.5	-45.1	17.4	0.00e+00	0	37	0	1029701632	56	4916
2026-01-25 00:18:16.42	220.15	22.33	-42.4	-45.1	17.4	0.00e+00	0	37	0	1031798784	56	4902
2026-01-25 00:18:17.42	220.08	22.20	-42.3	-45.0	17.5	0.00e+00	0	37	0	1032847360	56	4823
2026-01-25 00:18:18.41	220.00	22.06	-42.3	-45.0	17.5	0.00e+00	0	37	0	1034944512	56	4831
2026-01-25 00:18:19.41	219.93	21.92	-42.1	-44.7	17.8	0.00e+00	0	37	0	1037041664	56	4675
2026-01-25 00:18:20.40	219.86	21.79	-42.1	-44.7	17.8	0.00e+00	0	37	0	1039138816	56	4663
2026-01-25 00:18:21.39	219.79	21.65	-42.2	-44.8	17.7	0.00e+00	0	37	0	1040187392	56	4719
2026-01-25 00:18:22.39	219.72	21.52	-42.1	-44.6	17.9	0.00e+00	0	37	0	1042284544	56	4640
2026-01-25 00:18:23.38	219.65	21.38	-42.0	-44.5	18.0	0.00e+00	0	37	0	1044381696	56	4570
2026-01-25 00:18:24.37	219.58	21.25	-41.6	-44.1	18.2	0.00e+00	0	37	0	1046478848	55	4614
2026-01-25 00:18:25.37	219.52	21.12	-41.7	-44.2	18.1	0.00e+00	0	37	0	1048576000	55	4660
2026-01-25 00:18:26.36	219.45	20.99	-41.8	-44.3	18.0	0.00e+00	0	37	0	1049624576	55	4725
2026-01-25 00:18:27.36	219.38	20.86	-41.7	-44.2	18.1	0.00e+00	0	38	0	1051721728	55	4685
2026-01-25 00:18:28.35	219.32	20.73	-41.8	-44.3	18.0	0.00e+00	0	37	0	1053818880	55	4737
2026-01-25 00:18:29.35	219.25	20.60	-41.8	-44.3	18.0	0.00e+00	0	37	0	1055916032	55	4757
2026-01-25 00:18:30.34	219.18	20.47	-41.8	-44.4	17.9	0.00e+00	0	37	0	1056964608	55	4806
2026-01-25 00:18:31.34	219.12	20.34	-41.9	-44.5	17.8	0.00e+00	0	37	0	1059061760	55	4830
2026-01-25 00:18:32.33	219.06	20.21	-42.0	-44.6	17.7	0.00e+00	0	37	0	1061158912	55	4925
2026-01-25 00:18:33.32	218.99	20.08	-42.0	-44.6	17.7	0.00e+00	0	38	0	1063256064	55	4926
2026-01-25 00:18:34.32	218.93	19.96	-42.0	-44.6	17.7	0.00e+00	0	37	0	1065353216	55	4922
2026-01-25 00:18:35.32	218.87	19.83	-42.0	-44.7	17.6	0.00e+00	0	37	0	1066401792	55	4945
2026-01-25 00:18:36.31	218.81	19.71	-42.0	-44.7	17.6	0.00e+00	0	37	0	1068498944	55	4945
2026-01-25 00:18:37.30	218.75	19.58	-42.0	-44.6	17.6	0.00e+00	0	38	0	1070596096	55	4905
2026-01-25 00:18:38.30	218.68	19.46	-41.9	-44.5	17.7	0.00e+00	0	37	0	1072693248	55	4852
2026-01-25 00:18:39.29	218.62	19.33	-41.8	-44.4	17.8	0.00e+00	0	38	0	1073741824	55	4794
2026-01-25 00:18:40.29	218.56	19.21	-41.9	-44.4	17.8	0.00e+00	0	37	0	1075838976	55	4802
2026-01-25 00:18:41.28	218.51	19.09	-41.8	-44.4	17.9	0.00e+00	0	37	0	1077936128	55	4778
2026-01-25 00:18:42.28	218.45	18.97	-41.8	-44.3	17.9	0.00e+00	0	37	0	1080033280	55	4758
2026-01-25 00:18:43.27	218.39	18.84	-41.7	-44.2	18.1	0.00e+00	0	38	0	1082130432	55	4674
2026-01-25 00:18:44.27	218.33	18.72	-41.7	-44.2	18.1	0.00e+00	0	37	0	1083179008	55	4667
2026-01-25 00:18:45.26	218.27	18.60	-41.7	-44.2	18.0	0.00e+00	0	37	0	1085276160	55	4702
2026-01-25 00:18:46.26	218.22	18.48	-41.6	-44.1	18.1	0.00e+00	0	37	0	1087373312	55	4638
2026-01-25 00:18:47.25	218.16	18.36	-41.6	-44.1	18.1	0.00e+00	0	37	0	1089470464	55	4645
2026-01-25 00:18:48.25	218.10	18.24	-41.6	-44.1	18.1	0.00e+00	0	37	0	1090519040	55	4629
2026-01-25 00:18:49.24	218.05	18.13	-41.8	-44.3	17.9	0.00e+00	0	37	0	1092616192	55	4746
2026-01-25 00:18:50.24	217.99	18.01	-41.8	-44.3	17.9	0.00e+00	0	37	0	1094713344	55	4741
2026-01-25 00:18:51.23	217.94	17.89	-41.8	-44.3	17.9	0.00e+00	0	37	0	1096810496	55	4757
2026-01-25 00:18:52.23	217.88	17.78	-41.9	-44.5	17.8	0.00e+00	0	37	0	1098907648	55	4828
2026-01-25 00:18:53.22	217.83	17.66	-41.9	-44.5	17.7	0.00e+00	0	37	0	1099956224	55	4845
2026-01-25 00:18:54.22	217.78	17.54	-41.9	-44.5	17.7	0.00e+00	0	37	0	1102053376	55	4852
2026-01-25 00:18:55.22	217.72	17.43	-42.1	-44.7	17.5	0.00e+00	0	37	0	1104150528	55	4968
2026-01-25 00:18:56.21	217.67	17.31	-42.2	-44.9	17.4	0.00e+00	0	37	0	1106247680	55	5050
2026-01-25 00:18:57.21	217.62	17.20	-42.2	-44.9	17.4	0.00e+00	0	37	0	1107296256	55	5056
2026-01-25 00:18:58.20	217.57	17.09	-42.1	-44.8	17.5	0.00e+00	0	37	0	1109393408	55	4984
2026-01-25 00:18:59.20	217.52	16.97	-42.1	-44.8	17.4	0.00e+00	0	37	0	1111490560	55	5012
2026-01-25 00:19:00.19	217.47	16.86	-42.1	-44.8	17.4	0.00e+00	0	37	0	1113587712	55	5040
2026-01-25 00:19:01.19	217.42	16.75	-42.1	-44.8	17.4	0.00e+00	0	37	0	1115684864	55	5016
2026-01-25 00:19:02.18	217.37	16.64	-42.1	-44.9	17.3	0.00e+00	0	37	0	1116733440	55	5060
2026-01-25 00:19:03.18	217.32	16.53	-42.1	-44.8	17.4	0.00e+00	0	37	0	1118830592	55	5005
2026-01-25 00:19:04.17	217.27	16.42	-42.1	-44.9	17.4	0.00e+00	0	37	0	1120927744	55	5058
2026-01-25 00:19:05.17	217.22	16.31	-42.2	-44.9	17.3	0.00e+00	0	37	0	1123024896	55	5083
2026-01-25 00:19:06.16	217.17	16.20	-42.1	-44.8	17.4	0.00e+00	0	38	0	1124073472	55	5021
2026-01-25 00:19:07.16	217.12	16.09	-42.1	-44.9	17.3	0.00e+00	0	37	0	1126170624	55	5059
2026-01-25 00:19:08.15	217.07	15.98	-42.1	-44.8	17.4	0.00e+00	0	37	0	1128267776	55	5022
2026-01-25 00:19:09.15	217.03	15.87	-42.1	-44.8	17.4	0.00e+00	0	37	0	1130364928	55	5015
2026-01-25 00:19:10.14	216.98	15.76	-42.1	-44.8	17.4	0.00e+00	0	37	0	1132462080	55	5017
2026-01-25 00:19:11.14	216.93	15.66	-42.1	-44.8	17.3	0.00e+00	0	37	0	1133510656	55	5038
2026-01-25 00:19:12.13	216.89	15.55	-42.1	-44.8	17.4	0.00e+00	0	38	0	1135607808	55	5024
2026-01-25 00:19:13.12	216.84	15.44	-42.2	-44.9	17.3	0.00e+00	0	37	0	1137704960	55	5069
2026-01-25 00:19:14.12	216.80	15.34	-42.2	-44.9	17.3	0.00e+00	0	37	0	1139802112	55	5082
2026-01-25 00:19:15.11	216.75	15.23	-42.1	-44.9	17.3	0.00e+00	0	38	0	1141899264	55	5049
2026-01-25 00:19:16.11	216.71	15.13	-42.2	-45.0	17.2	0.00e+00	0	37	0	1142947840	55	5114
2026-01-25 00:19:17.10	216.66	15.02	-42.2	-45.0	17.2	0.00e+00	0	37	0	1145044992	55	5118
2026-01-25 00:19:18.10	216.62	14.92	-42.2	-45.0	17.2	0.00e+00	0	37	0	1147142144	55	5112
2026-01-25 00:19:19.09	216.57	14.81	-42.3	-45.1	17.0	0.00e+00	0	37	0	1149239296	55	5206
2026-01-25 00:19:20.09	216.53	14.71	-42.3	-45.1	17.0	0.00e+00	0	37	0	1150287872	55	5194
2026-01-25 00:19:21.08	216.49	14.61	-42.4	-45.1	17.0	0.00e+00	0	37	0	1152385024	55	5214
2026-01-25 00:19:22.08	216.44	14.51	-42.3	-45.1	17.0	0.00e+00	0	37	0	1154482176	55	5207
2026-01-25 00:19:23.07	216.40	14.40	-42.4	-45.2	16.9	0.00e+00	0	37	0	1156579328	55	5261
2026-01-25 00:19:24.07	216.36	14.30	-42.4	-45.2	16.9	0.00e+00	0	37	0	1158676480	55	5262
2026-01-25 00:19:25.06	216.32	14.20	-42.4	-45.3	16.9	0.00e+00	0	37	0	1159725056	55	5302
2026-01-25 00:19:26.05	216.27	14.10	-42.5	-45.4	16.8	0.00e+00	0	37	0	1161822208	55	5357
2026-01-25 00:19:27.05	216.23	14.00	-42.6	-45.5	16.6	0.00e+00	0	38	0	1163919360	55	5430
2026-01-25 00:19:28.05	216.19	13.90	-42.5	-45.4	16.7	0.00e+00	0	37	0	1166016512	55	5392
2026-01-25 00:19:29.04	216.15	13.80	-42.5	-45.4	16.7	0.00e+00	0	37	0	1167065088	55	5356
2026-01-25 00:19:30.04	216.11	13.70	-42.5	-45.4	16.7	0.00e+00	0	37	0	1169162240	55	5375
2026-01-25 00:19:31.03	216.07	13.60	-42.6	-45.6	16.5	0.00e+00	0	37	0	1171259392	55	5479
2026-01-25 00:19:32.03	216.03	13.50	-42.5	-45.4	16.7	0.00e+00	0	37	0	1173356544	55	5376
2026-01-25 00:19:33.02	215.99	13.40	-42.4	-45.3	16.8	0.00e+00	0	37	0	1175453696	55	5306
2026-01-25 00:19:34.02	215.95	13.31	-42.5	-45.4	16.7	0.00e+00	0	37	0	1176502272	55	5385
2026-01-25 00:19:35.01	215.91	13.21	-42.5	-45.4	16.7	0.00e+00	0	37	0	1178599424	55	5347
2026-01-25 00:19:36.01	215.87	13.11	-42.6	-45.4	16.7	0.00e+00	0	38	0	1180696576	55	5391
2026-01-25 00:19:37.00	215.83	13.02	-42.8	-45.7	16.6	0.00e+00	0	37	0	1182793728	56	5243
2026-01-25 00:19:38.00	215.79	12.92	-42.6	-45.5	16.7	0.00e+00	0	37	0	1183842304	56	5126
2026-01-25 00:19:38.99	215.76	12.82	-42.8	-45.7	16.6	0.00e+00	0	37	0	1185939456	56	5234
2026-01-25 00:19:39.99	215.72	12.73	-42.7	-45.6	16.7	0.00e+00	0	37	0	1188036608	56	5173
2026-01-25 00:19:40.98	215.68	12.63	-42.6	-45.5	16.8	0.00e+00	0	37	0	1190133760	56	5103
2026-01-25 00:19:41.98	215.64	12.54	-42.7	-45.5	16.7	0.00e+00	0	38	0	1192230912	56	5151
2026-01-25 00:19:42.97	215.61	12.44	-42.6	-45.4	16.8	0.00e+00	0	37	0	1193279488	56	5099
2026-01-25 00:19:43.97	215.57	12.35	-42.7	-45.6	16.6	0.00e+00	0	37	0	1195376640	56	5185
2026-01-25 00:19:44.96	215.53	12.26	-42.7	-45.5	16.7	0.00e+00	0	37	0	1197473792	56	5154
2026-01-25 00:19:45.95	215.50	12.16	-42.8	-45.6	16.6	0.00e+00	0	37	0	1199570944	56	5205
2026-01-25 00:19:46.95	215.46	12.07	-42.8	-45.7	16.5	0.00e+00	0	37	0	1200619520	56	5249
2026-01-25 00:19:47.94	215.42	11.98	-42.8	-45.7	16.6	0.00e+00	0	37	0	1202716672	56	5225
2026-01-25 00:19:48.94	215.39	11.88	-42.8	-45.6	16.6	0.00e+00	0	37	0	1204813824	56	5213
2026-01-25 00:19:49.93	215.35	11.79	-42.7	-45.6	16.6	0.00e+00	0	37	0	1206910976	56	5200
2026-01-25 00:19:50.93	215.32	11.70	-42.9	-45.8	16.4	0.00e+00	0	37	0	1209008128	56	5338
2026-01-25 00:19:51.92	215.28	11.61	-42.9	-45.9	16.3	0.00e+00	0	37	0	1210056704	56	5347
2026-01-25 00:19:52.91	215.25	11.52	-42.9	-45.8	16.4	0.00e+00	0	37	0	1212153856	56	5304
2026-01-25 00:19:53.91	215.21	11.43	-42.9	-45.9	16.3	0.00e+00	0	37	0	1214251008	56	5351
2026-01-25 00:19:54.91	215.18	11.34	-42.9	-45.9	16.3	0.00e+00	0	38	0	1216348160	56	5374
