passes_logs/2026/01/25/T1/T1__20260125_095858_NOAA_20_JPSS-1_rec.log

#Pass ID: 20260125_095858_NOAA 20 (JPSS-1)
#Satellite: NOAA 20 (JPSS-1)
#Configuration: NOAA 20
#almurnet v.1.7.20251203
#Start time: 2026-01-25 09:58:59

#Version: 2.0.20230620
#Station: T1
#Location: 37.570604 lon 55.790049 lat
#TLE: 1 43013U 17073A   26024.42258823  .00000183  00000+0  10747-3 0  9990
#TLE: 2 43013  98.7646 325.2629 0001105  25.8644 334.2587 14.19539754424075

#Time	Az	El	Level	Level2	SNR	BER	BlckErr	Temp	State	Recorded	gain1	gain2
2026-01-25 09:58:59.81	161.88	5.10	-47.8	-63.2	3.8	1.49e+00	0	38	0	0	67	21007
2026-01-25 09:59:00.80	161.89	5.17	-47.8	-63.2	3.8	1.49e+00	0	38	104	0	67	20831
2026-01-25 09:59:01.79	161.89	5.25	-47.8	-63.2	3.8	1.49e+00	0	39	104	0	67	20888
2026-01-25 09:59:02.79	161.90	5.32	-47.8	-63.2	3.8	1.49e+00	0	38	104	0	67	20920
2026-01-25 09:59:03.78	161.90	5.39	-47.8	-63.3	3.8	1.49e+00	0	39	104	0	67	21059
2026-01-25 09:59:04.77	161.91	5.46	-47.8	-63.3	3.8	1.49e+00	0	39	104	0	67	21136
2026-01-25 09:59:05.77	161.91	5.54	-47.8	-63.3	3.8	1.49e+00	0	39	104	0	67	21072
2026-01-25 09:59:06.76	161.91	5.61	-47.8	-63.3	3.8	1.49e+00	0	39	104	0	67	21120
2026-01-25 09:59:07.75	161.92	5.68	-47.8	-63.3	3.8	1.49e+00	0	39	104	0	67	21049
2026-01-25 09:59:08.75	161.92	5.76	-47.8	-63.1	3.8	1.49e+00	0	39	104	0	67	20761
2026-01-25 09:59:09.74	161.93	5.83	-47.8	-63.1	3.8	1.49e+00	0	39	104	0	67	20583
2026-01-25 09:59:10.73	161.93	5.90	-47.8	-62.9	3.8	1.49e+00	0	39	104	0	67	20205
2026-01-25 09:59:11.73	161.94	5.98	-47.8	-62.8	3.8	1.49e+00	0	39	104	0	67	19908
2026-01-25 09:59:12.72	161.94	6.05	-47.7	-62.6	3.8	1.49e+00	0	39	104	0	67	19461
2026-01-25 09:59:13.71	161.95	6.13	-47.8	-62.5	3.8	1.49e+00	0	39	104	0	67	19249
2026-01-25 09:59:14.71	161.95	6.20	-47.7	-62.4	3.8	1.49e+00	0	39	104	0	67	19038
2026-01-25 09:59:15.70	161.96	6.27	-47.7	-62.3	3.8	1.49e+00	0	39	104	0	67	18920
2026-01-25 09:59:16.70	161.96	6.35	-47.7	-62.3	3.8	1.49e+00	0	39	104	0	67	18929
2026-01-25 09:59:17.69	161.96	6.43	-47.7	-62.5	3.8	1.49e+00	0	39	104	0	67	19202
2026-01-25 09:59:18.68	161.97	6.50	-47.8	-62.7	3.8	1.49e+00	0	39	104	0	67	19630
2026-01-25 09:59:19.68	161.97	6.58	-47.8	-62.8	3.8	1.49e+00	0	39	104	0	67	20037
2026-01-25 09:59:20.67	161.98	6.65	-47.8	-63.0	3.8	1.49e+00	0	39	104	0	67	20457
2026-01-25 09:59:21.66	161.98	6.73	-47.8	-63.1	3.8	1.49e+00	0	40	104	0	67	20606
2026-01-25 09:59:22.66	161.99	6.80	-47.8	-63.2	3.8	1.49e+00	0	39	104	0	67	20903
2026-01-25 09:59:23.65	161.99	6.88	-47.8	-63.2	3.8	1.49e+00	0	39	104	0	67	21008
2026-01-25 09:59:24.64	162.00	6.96	-48.1	-63.6	3.8	1.49e+00	0	40	104	0	67	21963
2026-01-25 09:59:25.64	162.00	7.04	-47.8	-63.3	3.8	1.49e+00	0	39	104	0	67	21246
2026-01-25 09:59:26.63	162.01	7.11	-47.8	-63.3	3.8	1.49e+00	0	39	104	0	67	21063
2026-01-25 09:59:27.63	162.01	7.19	-47.8	-63.2	3.8	1.49e+00	0	40	104	0	67	20925
2026-01-25 09:59:28.62	162.02	7.27	-47.8	-63.0	3.8	1.49e+00	0	40	104	0	67	20415
2026-01-25 09:59:29.61	162.02	7.35	-47.7	-62.6	3.8	1.49e+00	0	40	104	0	67	19505
2026-01-25 09:59:30.61	162.03	7.42	-47.7	-61.9	3.8	1.49e+00	0	40	104	0	67	18082
2026-01-25 09:59:31.60	162.03	7.50	-47.7	-60.9	3.8	1.49e+00	0	40	104	0	67	16102
2026-01-25 09:59:32.59	162.04	7.58	-47.6	-59.5	4.2	1.47e+00	0	40	0	0	67	13714
2026-01-25 09:59:33.59	162.04	7.66	-47.4	-58.3	4.7	1.08e+00	0	40	0	1048576	66	12568
2026-01-25 09:59:34.58	162.05	7.74	-47.3	-57.2	5.3	6.70e-01	0	40	0	3145728	66	11142
2026-01-25 09:59:35.57	162.05	7.82	-47.2	-56.2	6.0	4.46e-01	0	40	0	4194304	66	9922
2026-01-25 09:59:36.57	162.05	7.90	-47.0	-55.4	6.7	2.77e-01	0	40	0	6291456	66	8989
2026-01-25 09:59:37.56	162.06	7.98	-46.8	-54.6	7.3	1.42e-01	0	40	0	8388608	65	8761
2026-01-25 09:59:38.55	162.06	8.06	-46.7	-54.0	7.9	9.23e-02	0	40	0	10485760	65	8148
2026-01-25 09:59:39.55	162.07	8.14	-46.6	-53.7	8.3	9.85e-02	0	40	0	11534336	65	7809
2026-01-25 09:59:40.54	162.07	8.22	-46.5	-53.3	8.7	3.65e-02	0	40	0	13631488	64	7925
2026-01-25 09:59:41.53	162.08	8.30	-46.4	-53.2	8.8	3.28e-02	0	40	0	15728640	64	7845
2026-01-25 09:59:42.53	162.08	8.38	-46.5	-53.3	8.6	7.29e-02	0	40	0	17825792	64	7990
2026-01-25 09:59:43.52	162.09	8.46	-46.6	-53.7	8.2	4.96e-02	0	40	0	19922944	64	8358
2026-01-25 09:59:44.51	162.09	8.54	-46.7	-54.2	7.8	7.70e-02	0	40	0	20971520	64	8783
2026-01-25 09:59:45.51	162.10	8.63	-46.9	-54.9	7.1	1.07e-01	0	40	0	23068672	64	9575
2026-01-25 09:59:46.50	162.10	8.71	-47.0	-55.7	6.4	1.93e-01	0	40	0	25165824	64	10487
2026-01-25 09:59:47.49	162.11	8.79	-47.2	-56.8	5.6	3.96e-01	0	40	0	27262976	65	11193
2026-01-25 09:59:48.49	162.11	8.87	-47.4	-58.0	4.9	6.57e-01	0	40	0	28311552	65	12851
2026-01-25 09:59:49.48	162.12	8.96	-47.5	-59.3	4.3	1.00e+00	0	40	0	30408704	65	15036
2026-01-25 09:59:50.48	162.12	9.04	-47.6	-60.0	4.1	1.40e+00	0	40	0	30408704	65	16309
2026-01-25 09:59:51.47	162.13	9.13	-47.7	-61.8	3.8	1.45e+00	0	40	104	30408704	66	18741
2026-01-25 09:59:52.46	162.13	9.21	-47.7	-60.7	3.8	1.49e+00	0	40	104	30408704	66	16672
2026-01-25 09:59:53.46	162.14	9.29	-46.4	-52.8	7.7	2.81e-01	0	40	0	30408704	64	7519
2026-01-25 09:59:54.45	162.14	9.38	-46.6	-53.2	9.1	4.98e-04	0	40	0	32505856	63	8345
2026-01-25 09:59:55.45	162.15	9.46	-47.5	-58.7	4.0	1.49e+00	0	40	104	33554432	66	13253
2026-01-25 09:59:56.44	162.15	9.55	-45.0	-49.5	12.8	3.39e-04	0	40	0	34603008	62	5740
2026-01-25 09:59:57.44	162.16	9.63	-44.6	-48.7	13.5	2.74e-05	0	40	0	35651584	61	5589
2026-01-25 09:59:58.43	162.16	9.72	-44.4	-48.2	14.1	3.00e-06	0	40	0	37748736	60	5576
2026-01-25 09:59:59.43	162.17	9.81	-44.2	-47.9	14.5	1.14e-02	0	40	0	39845888	60	5351
2026-01-25 10:00:00.42	162.18	9.89	-44.0	-47.6	14.7	7.00e-07	0	40	0	41943040	60	5207
2026-01-25 10:00:01.42	162.18	9.98	-44.1	-47.8	14.6	0.00e+00	0	40	0	44040192	60	5296
2026-01-25 10:00:02.41	162.19	10.07	-44.2	-47.9	14.5	3.58e-05	0	40	0	45088768	60	5354
2026-01-25 10:00:03.49	162.19	10.16	-44.0	-47.5	14.8	7.00e-07	0	40	0	47185920	59	5439
2026-01-25 10:00:04.34	162.20	10.24	-44.0	-47.6	14.8	7.00e-07	0	40	0	49283072	59	5468
2026-01-25 10:00:05.68	162.20	10.35	-43.8	-47.2	15.1	0.00e+00	0	40	0	51380224	59	5254
2026-01-25 10:00:06.39	162.21	10.42	-43.8	-47.2	15.2	7.00e-07	0	40	0	52428800	59	5222
2026-01-25 10:00:07.67	162.21	10.53	-43.8	-47.3	15.1	0.00e+00	0	40	0	55574528	59	5290
2026-01-25 10:00:08.38	162.22	10.59	-43.7	-47.1	15.3	0.00e+00	0	40	0	56623104	59	5179
2026-01-25 10:00:09.66	162.22	10.71	-43.6	-46.9	15.5	0.00e+00	0	40	0	58720256	59	5046
2026-01-25 10:00:10.37	162.23	10.77	-43.5	-46.7	15.7	7.00e-07	0	40	0	60817408	59	4965
2026-01-25 10:00:11.65	162.23	10.89	-43.4	-46.6	15.8	0.00e+00	0	41	0	62914560	58	5165
2026-01-25 10:00:12.37	162.24	10.95	-43.4	-46.5	15.8	0.00e+00	0	40	0	63963136	58	5153
2026-01-25 10:00:13.65	162.25	11.07	-43.4	-46.5	15.9	0.00e+00	0	40	0	66060288	58	5142
2026-01-25 10:00:14.37	162.25	11.14	-43.4	-46.6	15.8	0.00e+00	0	40	0	68157440	58	5184
2026-01-25 10:00:15.65	162.26	11.25	-43.3	-46.4	16.0	0.00e+00	0	40	0	70254592	58	5086
2026-01-25 10:00:16.36	162.26	11.32	-43.3	-46.4	16.0	0.00e+00	0	40	0	71303168	58	5072
2026-01-25 10:00:17.64	162.27	11.44	-43.3	-46.4	16.0	0.00e+00	0	40	0	74448896	58	5062
2026-01-25 10:00:18.38	162.27	11.51	-43.3	-46.4	16.0	0.00e+00	0	40	0	75497472	58	5097
2026-01-25 10:00:19.66	162.28	11.63	-43.2	-46.3	16.1	0.00e+00	0	40	0	77594624	58	5005
2026-01-25 10:00:20.37	162.28	11.69	-43.2	-46.2	16.2	0.00e+00	0	40	0	78643200	58	4947
2026-01-25 10:00:21.74	162.29	11.82	-43.2	-46.2	16.2	0.00e+00	0	40	0	81788928	58	4965
2026-01-25 10:00:22.45	162.29	11.89	-43.2	-46.2	16.2	0.00e+00	0	40	0	82837504	58	4952
2026-01-25 10:00:23.73	162.30	12.01	-43.2	-46.2	16.2	0.00e+00	0	40	0	84934656	58	4969
2026-01-25 10:00:24.46	162.31	12.08	-43.2	-46.2	16.2	0.00e+00	0	40	0	87031808	58	4964
2026-01-25 10:00:25.74	162.31	12.20	-43.3	-46.4	16.0	0.00e+00	0	40	0	89128960	58	5058
2026-01-25 10:00:26.45	162.32	12.27	-43.3	-46.3	16.1	0.00e+00	0	40	0	90177536	58	5022
2026-01-25 10:00:27.73	162.32	12.39	-43.2	-46.3	16.2	0.00e+00	0	40	0	93323264	58	4986
2026-01-25 10:00:28.49	162.33	12.47	-43.2	-46.2	16.2	0.00e+00	0	41	0	94371840	58	4976
2026-01-25 10:00:29.77	162.34	12.59	-43.2	-46.3	16.2	0.00e+00	0	40	0	96468992	58	4986
2026-01-25 10:00:30.49	162.34	12.66	-43.2	-46.2	16.2	0.00e+00	0	41	0	98566144	58	4978
2026-01-25 10:00:31.77	162.35	12.78	-43.1	-46.1	16.3	0.00e+00	0	40	0	100663296	58	4925
2026-01-25 10:00:32.59	162.35	12.87	-43.1	-46.1	16.4	0.00e+00	0	40	0	101711872	58	4892
2026-01-25 10:00:33.73	162.36	12.98	-43.1	-46.1	16.4	0.00e+00	0	40	0	103809024	58	4890
2026-01-25 10:00:34.58	162.36	13.06	-43.1	-46.0	16.4	0.00e+00	0	41	0	105906176	58	4864
2026-01-25 10:00:35.72	162.37	13.17	-43.0	-45.9	16.5	0.00e+00	0	41	0	108003328	57	5076
2026-01-25 10:00:36.57	162.37	13.26	-42.9	-45.8	15.2	0.00e+00	0	41	0	109051904	57	5015
2026-01-25 10:00:37.71	162.38	13.37	-42.8	-45.7	16.8	0.00e+00	0	40	0	111149056	57	4967
2026-01-25 10:00:38.56	162.39	13.46	-42.9	-45.8	16.7	0.00e+00	0	41	0	113246208	57	5012
2026-01-25 10:00:39.69	162.39	13.57	-42.8	-45.7	16.8	1.50e-06	0	41	0	115343360	57	4931
2026-01-25 10:00:40.55	162.40	13.66	-42.8	-45.7	16.7	0.00e+00	0	41	0	116391936	57	4982
2026-01-25 10:00:41.69	162.40	13.78	-42.8	-45.7	16.7	0.00e+00	0	40	0	119537664	57	4966
2026-01-25 10:00:42.54	162.41	13.86	-42.8	-45.7	16.8	0.00e+00	0	41	0	120586240	57	4968
2026-01-25 10:00:43.68	162.42	13.98	-42.8	-45.6	16.8	0.00e+00	0	41	0	122683392	57	4919
2026-01-25 10:00:44.61	162.42	14.08	-42.7	-45.6	16.9	0.00e+00	0	41	0	124780544	57	4882
2026-01-25 10:00:45.61	162.43	14.18	-42.7	-45.6	16.9	0.00e+00	0	41	0	126877696	57	4880
2026-01-25 10:00:46.60	162.43	14.28	-42.7	-45.5	17.0	0.00e+00	0	41	0	127926272	57	4865
2026-01-25 10:00:47.59	162.44	14.39	-42.7	-45.6	16.9	0.00e+00	0	41	0	130023424	57	4885
2026-01-25 10:00:48.59	162.45	14.49	-42.7	-45.6	16.9	0.00e+00	0	41	0	132120576	57	4904
2026-01-25 10:00:49.90	162.45	14.63	-42.6	-45.5	17.0	0.00e+00	0	40	0	134217728	57	4836
2026-01-25 10:00:50.64	162.46	14.71	-42.5	-45.4	17.1	0.00e+00	0	41	0	136314880	57	4787
2026-01-25 10:00:52.24	162.47	14.88	-42.5	-45.4	17.1	0.00e+00	0	41	0	138412032	57	4787
2026-01-25 10:00:52.81	162.47	14.94	-42.6	-45.5	17.0	0.00e+00	0	41	0	139460608	57	4827
2026-01-25 10:00:54.51	162.48	15.12	-42.5	-45.3	17.2	0.00e+00	0	41	0	143654912	57	4728
2026-01-25 10:00:55.08	162.49	15.18	-42.4	-45.2	17.3	0.00e+00	0	41	0	144703488	56	4963
2026-01-25 10:00:56.77	162.50	15.37	-42.4	-45.2	17.3	0.00e+00	0	40	0	147849216	56	4941
2026-01-25 10:00:57.34	162.50	15.43	-42.4	-45.2	17.3	0.00e+00	0	41	0	148897792	56	4935
2026-01-25 10:00:59.05	162.51	15.62	-42.4	-45.1	17.4	0.00e+00	0	41	0	152043520	56	4915
2026-01-25 10:00:59.61	162.52	15.68	-42.4	-45.1	17.4	0.00e+00	0	41	0	153092096	56	4888
2026-01-25 10:01:01.32	162.53	15.87	-42.4	-45.1	17.4	0.00e+00	0	41	0	156237824	56	4917
2026-01-25 10:01:01.89	162.53	15.93	-42.3	-45.0	17.5	0.00e+00	0	41	0	157286400	56	4856
2026-01-25 10:01:03.58	162.54	16.12	-42.3	-45.0	17.6	0.00e+00	0	41	0	160432128	56	4817
2026-01-25 10:01:04.43	162.55	16.22	-42.3	-45.0	17.5	0.00e+00	0	41	0	161480704	56	4828
2026-01-25 10:01:05.57	162.55	16.34	-42.2	-44.8	17.7	0.00e+00	0	41	0	163577856	56	4748
2026-01-25 10:01:06.42	162.56	16.44	-42.1	-44.7	17.8	0.00e+00	0	41	0	165675008	56	4699
2026-01-25 10:01:07.57	162.57	16.57	-42.0	-44.6	17.9	0.00e+00	0	41	0	167772160	56	4635
2026-01-25 10:01:08.43	162.57	16.67	-42.0	-44.5	18.0	0.00e+00	0	41	0	168820736	56	4592
2026-01-25 10:01:09.63	162.58	16.81	-41.8	-44.4	17.9	0.00e+00	0	41	0	171966464	55	4794
2026-01-25 10:01:10.48	162.59	16.91	-41.9	-44.5	17.9	0.00e+00	0	41	0	173015040	55	4831
2026-01-25 10:01:11.61	162.59	17.04	-41.8	-44.3	18.0	0.00e+00	0	41	0	175112192	55	4743
2026-01-25 10:01:12.47	162.60	17.14	-41.7	-44.2	18.2	0.00e+00	0	41	0	177209344	55	4687
2026-01-25 10:01:13.61	162.61	17.27	-41.7	-44.3	18.1	0.00e+00	0	41	0	179306496	55	4706
2026-01-25 10:01:14.46	162.61	17.37	-41.7	-44.2	18.1	0.00e+00	0	41	0	180355072	55	4688
2026-01-25 10:01:15.60	162.62	17.51	-41.6	-44.1	18.2	0.00e+00	0	41	0	182452224	55	4640
2026-01-25 10:01:16.45	162.63	17.61	-41.7	-44.1	18.2	0.00e+00	0	41	0	184549376	55	4647
2026-01-25 10:01:17.59	162.63	17.75	-41.7	-44.1	18.2	0.00e+00	0	41	0	186646528	55	4647
2026-01-25 10:01:18.44	162.64	17.85	-41.6	-44.1	18.3	0.00e+00	0	41	0	187695104	55	4612
2026-01-25 10:01:19.58	162.65	17.99	-41.6	-44.1	18.3	0.00e+00	0	41	0	189792256	55	4625
2026-01-25 10:01:20.43	162.65	18.09	-41.6	-44.1	18.3	0.00e+00	0	40	0	191889408	55	4635
2026-01-25 10:01:21.57	162.66	18.23	-41.7	-44.1	18.2	0.00e+00	0	41	0	193986560	55	4649
2026-01-25 10:01:22.42	162.67	18.33	-41.6	-44.1	18.3	0.00e+00	0	41	0	195035136	55	4602
2026-01-25 10:01:23.56	162.68	18.48	-41.6	-44.1	18.3	0.00e+00	0	41	0	197132288	55	4620
2026-01-25 10:01:24.41	162.68	18.58	-41.6	-44.1	18.3	0.00e+00	0	41	0	199229440	55	4643
2026-01-25 10:01:25.60	162.69	18.73	-41.6	-44.1	18.3	0.00e+00	0	41	0	201326592	55	4624
2026-01-25 10:01:26.86	162.70	18.89	-41.6	-44.1	18.3	0.00e+00	0	41	0	203423744	55	4625
2026-01-25 10:01:27.66	162.71	18.99	-41.7	-44.2	18.2	0.00e+00	0	41	0	205520896	55	4696
2026-01-25 10:01:28.80	162.71	19.13	-41.6	-44.2	18.2	1.50e-06	0	41	0	207618048	55	4675
2026-01-25 10:01:29.65	162.72	19.24	-41.6	-44.2	18.2	0.00e+00	0	41	0	208666624	55	4668
2026-01-25 10:01:30.79	162.73	19.39	-41.6	-44.2	18.3	0.00e+00	0	41	0	210763776	55	4655
2026-01-25 10:01:31.64	162.73	19.50	-41.6	-44.1	18.3	7.00e-07	0	41	0	212860928	55	4601
2026-01-25 10:01:32.78	162.74	19.64	-41.6	-44.1	18.3	0.00e+00	0	41	0	214958080	55	4627
2026-01-25 10:01:33.63	162.75	19.75	-41.5	-43.9	18.4	0.00e+00	0	41	0	216006656	55	4544
2026-01-25 10:01:34.90	162.76	19.92	-41.4	-43.8	18.6	0.00e+00	0	41	0	219152384	54	4737
2026-01-25 10:01:35.70	162.77	20.03	-41.4	-43.8	18.6	0.00e+00	0	41	0	220200960	54	4745
2026-01-25 10:01:36.84	162.77	20.18	-41.4	-43.8	18.6	0.00e+00	0	41	0	222298112	54	4717
2026-01-25 10:01:37.69	162.78	20.29	-41.3	-43.6	18.7	0.00e+00	0	41	0	224395264	54	4651
2026-01-25 10:01:39.02	162.79	20.47	-41.3	-43.7	18.7	0.00e+00	0	41	0	226492416	54	4687
2026-01-25 10:01:39.73	162.80	20.56	-41.2	-43.6	18.8	0.00e+00	0	41	0	227540992	54	4648
2026-01-25 10:01:41.01	162.81	20.73	-41.2	-43.6	18.8	0.00e+00	0	41	0	230686720	54	4644
2026-01-25 10:01:41.73	162.81	20.83	-41.3	-43.7	18.8	0.00e+00	0	41	0	231735296	54	4652
2026-01-25 10:01:43.01	162.82	21.01	-41.2	-43.5	18.9	7.00e-07	0	41	0	233832448	54	4591
2026-01-25 10:01:43.72	162.83	21.10	-41.2	-43.5	18.9	0.00e+00	0	41	0	235929600	54	4563
2026-01-25 10:01:45.00	162.84	21.28	-41.2	-43.6	18.9	0.00e+00	0	41	0	238026752	54	4601
2026-01-25 10:01:45.72	162.84	21.38	-41.2	-43.5	18.9	0.00e+00	0	41	0	239075328	54	4576
2026-01-25 10:01:47.00	162.85	21.56	-41.3	-43.6	18.8	0.00e+00	0	41	0	241172480	54	4622
2026-01-25 10:01:47.71	162.86	21.66	-41.2	-43.5	18.9	0.00e+00	0	41	0	243269632	54	4563
2026-01-25 10:01:49.02	162.87	21.84	-41.3	-43.6	18.8	0.00e+00	0	41	0	245366784	54	4637
2026-01-25 10:01:49.73	162.88	21.95	-41.3	-43.7	18.7	0.00e+00	0	41	0	246415360	54	4677
2026-01-25 10:01:51.06	162.89	22.13	-41.2	-43.6	18.9	0.00e+00	0	41	0	249561088	54	4616
2026-01-25 10:01:51.77	162.89	22.24	-41.2	-43.6	18.8	0.00e+00	0	41	0	250609664	54	4638
2026-01-25 10:01:53.11	162.90	22.43	-41.1	-43.5	18.9	0.00e+00	0	41	0	252706816	54	4576
2026-01-25 10:01:53.82	162.91	22.53	-41.1	-43.5	18.9	0.00e+00	0	41	0	254803968	54	4579
2026-01-25 10:01:55.10	162.92	22.72	-41.2	-43.6	18.8	0.00e+00	0	41	0	256901120	54	4630
2026-01-25 10:01:56.17	162.93	22.88	-41.2	-43.6	18.9	0.00e+00	0	41	0	258998272	54	4622
2026-01-25 10:01:57.31	162.94	23.05	-41.2	-43.6	18.8	0.00e+00	0	41	0	261095424	54	4623
2026-01-25 10:01:58.17	162.95	23.17	-41.3	-43.7	18.8	0.00e+00	0	41	0	262144000	54	4671
2026-01-25 10:01:59.30	162.96	23.34	-41.1	-43.5	18.9	0.00e+00	0	41	0	264241152	54	4574
2026-01-25 10:02:00.16	162.96	23.47	-41.2	-43.5	18.9	0.00e+00	0	41	0	266338304	54	4579
2026-01-25 10:02:01.29	162.97	23.64	-41.2	-43.5	19.0	0.00e+00	0	41	0	268435456	54	4574
2026-01-25 10:02:02.15	162.98	23.77	-41.2	-43.5	18.9	0.00e+00	0	41	0	269484032	54	4583
2026-01-25 10:02:03.28	162.99	23.95	-41.3	-43.6	18.8	0.00e+00	0	41	0	271581184	54	4648
2026-01-25 10:02:04.13	163.00	24.08	-41.3	-43.7	18.8	0.00e+00	0	41	0	273678336	54	4668
2026-01-25 10:02:05.27	163.01	24.26	-41.3	-43.6	18.8	0.00e+00	0	41	0	275775488	54	4646
2026-01-25 10:02:06.13	163.02	24.39	-41.3	-43.7	18.8	0.00e+00	0	41	0	277872640	54	4657
2026-01-25 10:02:07.39	163.03	24.59	-41.3	-43.6	18.8	0.00e+00	0	41	0	279969792	54	4648
2026-01-25 10:02:08.19	163.03	24.71	-41.2	-43.5	19.0	0.00e+00	0	41	0	281018368	54	4565
2026-01-25 10:02:09.33	163.05	24.89	-41.2	-43.5	19.0	0.00e+00	0	41	0	283115520	54	4553
2026-01-25 10:02:10.18	163.05	25.03	-41.3	-43.6	18.9	0.00e+00	0	41	0	285212672	54	4621
2026-01-25 10:02:11.32	163.06	25.21	-41.3	-43.7	18.8	0.00e+00	0	41	0	287309824	54	4681
2026-01-25 10:02:12.17	163.07	25.35	-41.3	-43.7	18.8	0.00e+00	0	41	0	288358400	54	4671
2026-01-25 10:02:13.31	163.08	25.54	-41.5	-43.9	18.6	0.00e+00	0	41	0	290455552	54	4783
2026-01-25 10:02:14.16	163.09	25.68	-41.6	-44.0	18.6	0.00e+00	0	41	0	292552704	54	4822
2026-01-25 10:02:15.30	163.10	25.86	-41.6	-44.1	18.5	0.00e+00	0	41	0	294649856	54	4871
2026-01-25 10:02:16.15	163.11	26.00	-41.7	-44.1	18.4	0.00e+00	0	41	0	295698432	54	4876
2026-01-25 10:02:17.29	163.12	26.19	-41.8	-44.3	18.3	0.00e+00	0	41	0	298844160	54	4989
2026-01-25 10:02:18.14	163.13	26.34	-41.9	-44.4	18.1	0.00e+00	0	41	0	299892736	54	5066
2026-01-25 10:02:19.28	163.14	26.53	-41.9	-44.3	18.2	0.00e+00	0	41	0	301989888	54	5031
2026-01-25 10:02:20.13	163.15	26.67	-42.1	-44.6	17.7	0.00e+00	0	41	0	304087040	54	5199
2026-01-25 10:02:21.27	163.16	26.87	-42.2	-44.8	17.7	0.00e+00	0	41	0	306184192	55	5014
2026-01-25 10:02:22.13	163.17	27.02	-42.2	-44.8	17.7	0.00e+00	0	41	0	307232768	55	5039
2026-01-25 10:02:23.29	163.18	27.22	-42.5	-45.2	17.3	0.00e+00	0	41	0	309329920	55	5254
2026-01-25 10:02:24.15	163.19	27.37	-42.6	-45.3	17.2	0.00e+00	0	41	0	311427072	55	5282
2026-01-25 10:02:25.29	163.20	27.57	-43.0	-45.8	17.0	0.00e+00	0	41	0	313524224	56	5295
2026-01-25 10:02:26.14	163.21	27.72	-43.0	-45.8	16.9	0.00e+00	0	41	0	314572800	56	5312
2026-01-25 10:02:27.28	163.22	27.92	-43.1	-45.9	16.8	0.00e+00	0	41	0	316669952	56	5390
2026-01-25 10:02:28.13	163.23	28.07	-43.2	-46.0	16.7	0.00e+00	0	41	0	318767104	57	5133
2026-01-25 10:02:29.47	163.25	28.31	-43.3	-46.2	16.5	0.00e+00	0	41	0	320864256	57	5259
2026-01-25 10:02:30.18	163.25	28.44	-43.3	-46.2	16.6	0.00e+00	0	41	0	322961408	57	5225
2026-01-25 10:02:31.46	163.27	28.68	-43.5	-46.4	16.3	0.00e+00	0	41	0	325058560	57	5361
2026-01-25 10:02:32.18	163.27	28.81	-43.5	-46.4	16.3	0.00e+00	0	41	0	326107136	57	5395
2026-01-25 10:02:33.46	163.29	29.04	-43.6	-46.6	16.2	0.00e+00	0	41	0	328204288	57	5474
2026-01-25 10:02:34.19	163.30	29.18	-43.6	-46.6	16.2	0.00e+00	0	41	0	330301440	57	5470
2026-01-25 10:02:35.47	163.31	29.42	-43.6	-46.6	16.1	0.00e+00	0	41	0	332398592	58	5207
2026-01-25 10:02:36.18	163.32	29.55	-43.7	-46.7	16.0	0.00e+00	0	41	0	333447168	58	5242
2026-01-25 10:02:37.46	163.33	29.80	-43.9	-47.1	15.7	0.00e+00	0	41	0	336592896	58	5469
2026-01-25 10:02:38.17	163.34	29.93	-43.9	-47.1	15.7	0.00e+00	0	41	0	337641472	58	5490
2026-01-25 10:02:39.45	163.36	30.18	-44.1	-47.4	15.4	0.00e+00	0	41	0	339738624	58	5669
2026-01-25 10:02:40.17	163.37	30.32	-44.2	-47.5	15.2	0.00e+00	0	41	0	340787200	58	5757
2026-01-25 10:02:41.45	163.38	30.57	-44.2	-47.5	15.2	0.00e+00	0	41	0	343932928	59	5438
2026-01-25 10:02:42.18	163.39	30.71	-44.1	-47.5	15.3	0.00e+00	0	41	0	344981504	59	5419
2026-01-25 10:02:43.46	163.40	30.96	-44.2	-47.6	15.1	0.00e+00	0	41	0	347078656	59	5479
2026-01-25 10:02:44.18	163.41	31.11	-44.0	-47.3	15.4	0.00e+00	0	41	0	349175808	59	5321
2026-01-25 10:02:45.47	163.43	31.37	-44.1	-47.4	15.3	0.00e+00	0	41	0	351272960	59	5390
2026-01-25 10:02:46.19	163.44	31.51	-44.0	-47.3	15.4	0.00e+00	0	41	0	352321536	59	5321
2026-01-25 10:02:47.47	163.45	31.77	-43.8	-47.0	15.8	0.00e+00	0	41	0	355467264	59	5104
2026-01-25 10:02:48.18	163.46	31.92	-43.8	-46.9	15.8	0.00e+00	0	41	0	356515840	59	5078
2026-01-25 10:02:49.47	163.48	32.18	-43.7	-46.8	16.0	0.00e+00	0	41	0	358612992	59	4999
2026-01-25 10:02:50.18	163.49	32.33	-43.6	-46.6	16.1	0.00e+00	0	41	0	359661568	59	4903
2026-01-25 10:02:51.74	163.51	32.66	-43.5	-46.5	16.2	0.00e+00	0	41	0	362807296	59	4832
2026-01-25 10:02:52.45	163.52	32.81	-43.5	-46.5	16.2	0.00e+00	0	41	0	363855872	58	5144
2026-01-25 10:02:53.84	163.54	33.10	-43.2	-46.1	16.6	0.00e+00	0	41	0	367001600	58	4912
2026-01-25 10:02:54.55	163.55	33.25	-43.3	-46.2	16.6	0.00e+00	0	41	0	368050176	58	4941
2026-01-25 10:02:55.83	163.56	33.53	-43.2	-46.1	16.7	0.00e+00	0	41	0	370147328	58	4884
2026-01-25 10:02:56.54	163.57	33.68	-42.9	-45.7	17.0	0.00e+00	0	41	0	372244480	57	4959
2026-01-25 10:02:57.82	163.59	33.96	-43.0	-45.8	17.0	0.00e+00	0	41	0	374341632	57	5019
2026-01-25 10:02:58.53	163.60	34.12	-42.9	-45.6	17.2	0.00e+00	0	41	0	375390208	57	4897
2026-01-25 10:02:59.81	163.62	34.40	-42.7	-45.3	17.4	0.00e+00	0	41	0	378535936	57	4758
2026-01-25 10:03:00.53	163.63	34.56	-42.6	-45.2	17.6	0.00e+00	0	41	0	379584512	57	4662
2026-01-25 10:03:01.81	163.65	34.85	-42.1	-44.6	18.1	0.00e+00	0	41	0	381681664	56	4619
2026-01-25 10:03:02.55	163.66	35.02	-42.1	-44.5	18.2	0.00e+00	0	41	0	382730240	56	4595
2026-01-25 10:03:03.82	163.68	35.31	-41.5	-43.9	18.7	0.00e+00	0	41	0	385875968	55	4499
2026-01-25 10:03:04.53	163.69	35.47	-41.2	-43.5	19.1	0.00e+00	0	41	0	386924544	54	4557
2026-01-25 10:03:05.81	163.71	35.77	-40.9	-43.2	19.4	0.00e+00	0	41	0	389021696	53	4669
2026-01-25 10:03:06.52	163.72	35.93	-40.8	-43.1	19.5	0.00e+00	0	41	0	391118848	53	4605
2026-01-25 10:03:07.80	163.74	36.23	-40.7	-43.0	19.6	0.00e+00	0	41	0	393216000	53	4555
2026-01-25 10:03:08.51	163.75	36.40	-40.6	-42.9	19.6	0.00e+00	0	41	0	394264576	53	4519
2026-01-25 10:03:09.79	163.77	36.70	-40.6	-42.8	19.7	0.00e+00	0	41	0	396361728	53	4482
2026-01-25 10:03:10.52	163.78	36.88	-40.6	-42.8	19.7	0.00e+00	0	41	0	398458880	53	4482
2026-01-25 10:03:11.80	163.80	37.19	-40.4	-42.6	19.9	0.00e+00	0	41	0	400556032	52	4628
2026-01-25 10:03:12.52	163.81	37.36	-40.3	-42.5	20.0	0.00e+00	0	41	0	401604608	52	4562
2026-01-25 10:03:13.80	163.83	37.68	-40.4	-42.5	20.0	0.00e+00	0	41	0	404750336	52	4574
2026-01-25 10:03:14.53	163.84	37.86	-40.4	-42.6	19.9	0.00e+00	0	41	0	405798912	52	4615
2026-01-25 10:03:15.81	163.87	38.18	-40.5	-42.6	19.9	0.00e+00	0	41	0	407896064	52	4639
2026-01-25 10:03:16.53	163.88	38.36	-40.6	-42.8	19.8	0.00e+00	0	41	0	408944640	52	4716
2026-01-25 10:03:17.81	163.90	38.68	-40.6	-42.8	19.8	0.00e+00	0	41	0	412090368	52	4719
2026-01-25 10:03:18.54	163.91	38.87	-40.7	-42.9	19.6	0.00e+00	0	41	0	413138944	52	4796
2026-01-25 10:03:19.81	163.94	39.19	-40.7	-43.0	19.6	0.00e+00	0	41	0	415236096	52	4819
2026-01-25 10:03:20.53	163.95	39.38	-40.7	-42.9	19.6	0.00e+00	0	41	0	417333248	52	4791
2026-01-25 10:03:21.80	163.97	39.71	-40.5	-42.7	19.8	0.00e+00	0	41	0	419430400	52	4683
2026-01-25 10:03:22.53	163.99	39.90	-40.4	-42.6	19.9	0.00e+00	0	41	0	420478976	52	4608
2026-01-25 10:03:23.81	164.01	40.24	-40.1	-42.2	20.2	0.00e+00	0	41	0	422576128	52	4429
2026-01-25 10:03:24.52	164.02	40.43	-40.0	-42.1	20.3	0.00e+00	0	41	0	424673280	52	4377
2026-01-25 10:03:25.83	164.05	40.78	-40.2	-42.3	20.4	0.00e+00	0	41	0	426770432	51	4716
2026-01-25 10:03:26.54	164.06	40.97	-40.2	-42.3	20.3	0.00e+00	0	41	0	427819008	51	4743
2026-01-25 10:03:27.82	164.09	41.32	-40.4	-42.5	20.1	0.00e+00	0	41	0	430964736	51	4851
2026-01-25 10:03:28.54	164.10	41.51	-40.5	-42.6	20.0	0.00e+00	0	41	0	432013312	51	4902
2026-01-25 10:03:29.82	164.13	41.87	-40.6	-42.8	19.9	0.00e+00	0	41	0	434110464	51	4988
2026-01-25 10:03:30.53	164.14	42.07	-40.6	-42.8	19.9	0.00e+00	0	41	0	435159040	51	5010
2026-01-25 10:03:31.81	164.17	42.42	-40.5	-42.7	20.0	0.00e+00	0	41	0	438304768	51	4933
2026-01-25 10:03:32.52	164.19	42.62	-40.5	-42.7	20.0	0.00e+00	0	41	0	439353344	51	4938
2026-01-25 10:03:33.80	164.21	42.99	-40.5	-42.6	20.0	0.00e+00	0	41	0	441450496	51	4926
2026-01-25 10:03:34.59	164.23	43.22	-40.4	-42.5	20.1	0.00e+00	0	41	0	443547648	51	4824
2026-01-25 10:03:36.09	164.26	43.65	-40.7	-42.8	19.8	0.00e+00	0	41	0	445644800	51	5024
2026-01-25 10:03:36.80	164.28	43.86	-40.8	-42.9	19.6	0.00e+00	0	41	0	447741952	52	4807
2026-01-25 10:03:38.24	164.31	44.28	-41.4	-43.7	18.9	0.00e+00	0	41	0	449839104	53	4965
2026-01-25 10:03:38.95	164.33	44.49	-41.9	-44.3	18.4	0.00e+00	0	41	0	451936256	54	5001
2026-01-25 10:03:40.25	164.36	44.88	-42.6	-45.2	17.5	0.00e+00	0	41	0	454033408	55	5248
2026-01-25 10:03:40.96	164.38	45.09	-42.9	-45.6	17.3	0.00e+00	0	41	0	455081984	56	5168
2026-01-25 10:03:42.24	164.41	45.48	-42.9	-45.6	17.2	0.00e+00	0	41	0	457179136	56	5176
2026-01-25 10:03:42.95	164.43	45.70	-43.1	-45.8	17.0	0.00e+00	0	41	0	459276288	56	5318
2026-01-25 10:03:44.23	164.46	46.09	-43.1	-45.9	16.9	0.00e+00	0	41	0	461373440	57	5058
2026-01-25 10:03:44.94	164.48	46.31	-43.1	-45.8	17.0	0.00e+00	0	41	0	462422016	57	5026
2026-01-25 10:03:46.22	164.51	46.71	-43.1	-45.9	16.9	0.00e+00	0	41	0	465567744	57	5063
2026-01-25 10:03:46.95	164.53	46.94	-43.2	-45.9	16.9	0.00e+00	0	41	0	466616320	57	5069
2026-01-25 10:03:48.22	164.57	47.35	-43.4	-46.2	16.6	0.00e+00	0	41	0	468713472	57	5268
2026-01-25 10:03:49.06	164.59	47.61	-43.6	-46.5	16.3	0.00e+00	0	41	0	470810624	57	5434
2026-01-25 10:03:50.50	164.63	48.08	-43.7	-46.7	16.1	0.00e+00	0	41	0	472907776	58	5258
2026-01-25 10:03:51.21	164.65	48.31	-43.6	-46.5	16.4	0.00e+00	0	41	0	473956352	58	5114
2026-01-25 10:03:52.48	164.69	48.73	-43.8	-46.8	16.1	0.00e+00	0	41	0	477102080	58	5283
2026-01-25 10:03:53.20	164.71	48.96	-43.5	-46.3	16.5	0.00e+00	0	41	0	478150656	58	5040
2026-01-25 10:03:54.74	164.76	49.48	-43.4	-46.2	16.7	0.00e+00	0	41	0	481296384	58	4978
2026-01-25 10:03:55.45	164.78	49.71	-43.1	-45.8	17.0	0.00e+00	0	41	0	482344960	58	4750
2026-01-25 10:03:56.73	164.82	50.15	-43.1	-45.9	16.9	0.00e+00	0	41	0	484442112	57	5074
2026-01-25 10:03:57.44	164.85	50.39	-42.9	-45.6	17.2	0.00e+00	0	41	0	486539264	57	4900
2026-01-25 10:03:58.72	164.89	50.83	-42.6	-45.2	17.6	0.00e+00	0	41	0	488636416	57	4656
2026-01-25 10:03:59.45	164.91	51.08	-42.2	-44.7	18.1	0.00e+00	0	41	0	489684992	56	4681
2026-01-25 10:04:00.73	164.96	51.53	-41.5	-43.8	18.8	0.00e+00	0	41	0	491782144	55	4484
2026-01-25 10:04:01.45	164.98	51.78	-41.0	-43.2	19.4	0.00e+00	0	41	0	493879296	53	4674
2026-01-25 10:04:02.73	165.03	52.23	-40.4	-42.6	19.9	0.00e+00	0	41	0	495976448	52	4612
2026-01-25 10:04:03.44	165.06	52.48	-40.4	-42.5	20.0	0.00e+00	0	41	0	497025024	52	4586
2026-01-25 10:04:04.72	165.11	52.94	-39.8	-41.8	20.7	0.00e+00	0	41	0	500170752	51	4492
2026-01-25 10:04:05.48	165.14	53.22	-39.7	-41.8	20.8	0.00e+00	0	41	0	501219328	51	4457
2026-01-25 10:04:06.75	165.19	53.68	-39.5	-41.6	21.0	0.00e+00	0	41	0	503316480	51	4342
2026-01-25 10:04:07.51	165.22	53.96	-39.6	-41.7	20.9	0.00e+00	0	41	0	505413632	51	4394
2026-01-25 10:04:08.79	165.27	54.43	-39.7	-41.8	20.8	0.00e+00	0	41	0	507510784	51	4452
2026-01-25 10:04:09.50	165.30	54.69	-40.0	-42.1	20.5	0.00e+00	0	41	0	508559360	51	4620
2026-01-25 10:04:10.81	165.36	55.18	-40.5	-42.7	19.9	0.00e+00	0	41	0	510656512	51	4968
2026-01-25 10:04:11.52	165.39	55.45	-40.7	-42.9	19.6	0.00e+00	0	41	0	512753664	52	4790
2026-01-25 10:04:12.80	165.45	55.94	-40.7	-42.9	19.6	0.00e+00	0	41	0	514850816	52	4814
2026-01-25 10:04:13.67	165.49	56.27	-40.8	-43.0	19.5	0.00e+00	0	41	0	516947968	52	4861
2026-01-25 10:04:14.81	165.55	56.71	-41.0	-43.3	19.3	0.00e+00	0	41	0	519045120	52	5007
2026-01-25 10:04:15.67	165.59	57.04	-41.5	-43.8	18.7	0.00e+00	0	41	0	520093696	53	5025
2026-01-25 10:04:16.80	165.65	57.48	-42.1	-44.6	18.1	0.00e+00	0	41	0	522190848	54	5194
2026-01-25 10:04:17.66	165.69	57.82	-42.4	-44.9	17.6	0.00e+00	0	41	0	524288000	55	5098
2026-01-25 10:04:18.80	165.75	58.27	-42.3	-44.8	17.8	0.00e+00	0	41	0	526385152	55	5031
2026-01-25 10:04:19.65	165.80	58.61	-42.2	-44.7	17.9	0.00e+00	0	41	0	527433728	55	4971
2026-01-25 10:04:20.79	165.87	59.07	-42.2	-44.7	17.9	0.00e+00	0	41	0	529530880	55	4961
2026-01-25 10:04:21.64	165.92	59.41	-42.1	-44.5	18.1	0.00e+00	0	41	0	531628032	55	4849
2026-01-25 10:04:22.78	165.98	59.87	-41.8	-44.3	18.3	0.00e+00	0	41	0	533725184	55	4708
2026-01-25 10:04:23.63	166.04	60.22	-41.3	-43.7	18.9	0.00e+00	0	41	0	534773760	54	4659
2026-01-25 10:04:24.77	166.11	60.69	-41.1	-43.4	19.3	0.00e+00	0	41	0	536870912	54	4498
2026-01-25 10:04:25.62	166.17	61.04	-40.6	-42.8	19.7	0.00e+00	0	41	0	538968064	53	4477
2026-01-25 10:04:26.76	166.24	61.52	-40.0	-42.1	20.4	0.00e+00	0	41	0	541065216	52	4372
2026-01-25 10:04:27.61	166.30	61.87	-39.8	-41.8	20.7	0.00e+00	0	41	0	543162368	51	4469
2026-01-25 10:04:29.08	166.41	62.49	-39.4	-41.4	21.1	0.00e+00	0	41	0	545259520	50	4521
2026-01-25 10:04:29.79	166.47	62.80	-39.3	-41.3	21.2	0.00e+00	0	41	0	546308096	50	4463
2026-01-25 10:04:31.07	166.57	63.34	-39.0	-41.0	21.5	0.00e+00	0	41	0	549453824	50	4312
2026-01-25 10:04:31.78	166.63	63.65	-39.2	-41.2	21.3	0.00e+00	0	41	0	550502400	50	4421
2026-01-25 10:04:33.06	166.73	64.20	-39.7	-41.7	20.9	0.00e+00	0	41	0	552599552	50	4677
2026-01-25 10:04:33.77	166.80	64.51	-40.0	-42.1	20.5	0.00e+00	0	41	0	554696704	50	4889
2026-01-25 10:04:35.07	166.91	65.08	-40.7	-43.0	19.6	0.00e+00	0	41	0	556793856	52	4833
2026-01-25 10:04:35.87	166.99	65.43	-41.3	-43.7	19.0	0.00e+00	0	41	0	557842432	53	4927
2026-01-25 10:04:37.00	167.10	65.93	-41.9	-44.3	18.3	0.00e+00	0	41	0	559939584	54	5039
2026-01-25 10:04:37.86	167.19	66.31	-42.2	-44.7	18.0	0.00e+00	0	41	0	562036736	54	5238
2026-01-25 10:04:38.99	167.31	66.82	-42.0	-44.5	18.2	0.00e+00	0	41	0	564133888	55	4815
2026-01-25 10:04:39.85	167.40	67.21	-42.0	-44.5	18.1	0.00e+00	0	41	0	565182464	55	4847
2026-01-25 10:04:40.98	167.53	67.72	-42.2	-44.8	17.9	0.00e+00	0	41	0	567279616	55	5024
2026-01-25 10:04:41.83	167.63	68.10	-42.6	-45.3	17.4	0.00e+00	0	41	0	569376768	55	5309
2026-01-25 10:04:43.00	167.78	68.64	-43.3	-46.2	16.6	0.00e+00	0	41	0	571473920	57	5242
2026-01-25 10:04:43.86	167.89	69.03	-43.1	-45.9	17.0	0.00e+00	0	41	0	573571072	57	5064
2026-01-25 10:04:45.07	168.06	69.59	-42.6	-45.1	17.7	0.00e+00	0	41	0	575668224	57	4629
2026-01-25 10:04:45.93	168.18	69.99	-42.3	-44.8	18.0	0.00e+00	0	41	0	576716800	56	4721
2026-01-25 10:04:47.06	168.36	70.51	-42.0	-44.4	18.4	0.00e+00	0	41	0	578813952	56	4543
2026-01-25 10:04:47.93	168.49	70.92	-41.8	-44.2	18.4	0.00e+00	0	41	0	580911104	55	4671
2026-01-25 10:04:49.07	168.69	71.45	-42.1	-44.6	18.2	0.00e+00	0	41	0	583008256	55	4872
2026-01-25 10:04:49.92	168.84	71.85	-42.8	-45.5	17.3	0.00e+00	0	41	0	584056832	56	5129
2026-01-25 10:04:51.06	169.05	72.39	-43.8	-46.9	16.1	0.00e+00	0	41	0	586153984	58	5342
2026-01-25 10:04:52.05	169.25	72.86	-43.7	-46.6	16.3	0.00e+00	0	41	0	588251136	58	5190
2026-01-25 10:04:53.05	169.46	73.34	-43.7	-46.6	16.3	0.00e+00	0	41	0	590348288	58	5173
2026-01-25 10:04:54.04	169.68	73.81	-43.9	-46.9	15.9	0.00e+00	0	41	0	592445440	58	5380
2026-01-25 10:04:55.04	169.91	74.29	-44.1	-47.2	15.6	0.00e+00	0	41	0	594542592	58	5589
2026-01-25 10:04:56.03	170.16	74.77	-44.2	-47.4	15.5	0.00e+00	0	41	0	595591168	59	5375
2026-01-25 10:04:57.03	170.43	75.25	-44.0	-47.1	15.7	0.00e+00	0	41	0	597688320	59	5194
2026-01-25 10:04:58.02	170.71	75.73	-43.7	-46.7	16.1	0.00e+00	0	41	0	599785472	59	4963
2026-01-25 10:04:59.02	171.02	76.22	-43.2	-46.1	16.7	0.00e+00	0	41	0	601882624	58	4918
2026-01-25 10:05:00.01	171.35	76.70	-42.9	-45.6	17.3	0.00e+00	0	41	0	603979776	57	4871
2026-01-25 10:05:01.01	171.71	77.19	-42.9	-45.6	17.2	0.00e+00	0	41	0	605028352	57	4891
2026-01-25 10:05:02.00	172.09	77.67	-42.7	-45.3	17.6	0.00e+00	0	41	0	607125504	57	4742
2026-01-25 10:05:02.99	172.50	78.16	-42.2	-44.7	18.1	0.00e+00	0	41	0	609222656	56	4702
2026-01-25 10:05:03.99	172.95	78.65	-41.6	-44.0	18.6	0.00e+00	0	41	0	611319808	55	4588
2026-01-25 10:05:04.98	173.44	79.14	-41.1	-43.4	19.2	0.00e+00	0	41	0	612368384	54	4531
2026-01-25 10:05:05.98	173.99	79.63	-40.5	-42.7	19.9	0.00e+00	0	41	0	614465536	53	4408
2026-01-25 10:05:06.97	174.58	80.11	-40.4	-42.6	20.0	0.00e+00	0	41	0	616562688	52	4619
2026-01-25 10:05:07.97	175.23	80.61	-40.6	-42.8	19.9	0.00e+00	0	41	0	618659840	52	4707
2026-01-25 10:05:08.96	175.96	81.09	-41.0	-43.3	19.3	0.00e+00	0	41	0	619708416	52	4999
2026-01-25 10:05:09.95	176.77	81.58	-41.5	-43.8	18.7	0.00e+00	0	41	0	621805568	53	5032
2026-01-25 10:05:10.95	177.69	82.07	-43.1	-45.9	17.0	0.00e+00	0	41	0	623902720	56	5370
2026-01-25 10:05:11.94	178.72	82.56	-44.5	-47.9	14.9	0.00e+00	0	41	0	625999872	59	5687
2026-01-25 10:05:12.94	179.91	83.04	-44.5	-47.9	14.9	7.00e-07	0	41	0	628097024	60	5385
2026-01-25 10:05:13.93	181.26	83.52	-43.6	-46.6	16.3	0.00e+00	0	41	0	629145600	59	4910
2026-01-25 10:05:14.95	182.88	84.02	-43.1	-45.8	17.1	0.00e+00	0	41	0	631242752	58	4738
2026-01-25 10:05:15.96	184.77	84.50	-42.7	-45.4	17.4	0.00e+00	0	41	0	633339904	57	4809
2026-01-25 10:05:16.98	187.05	84.98	-42.5	-45.2	17.6	0.00e+00	0	41	0	635437056	56	4949
2026-01-25 10:05:17.99	189.77	85.44	-42.7	-45.4	17.3	0.00e+00	0	41	0	637534208	56	5100
2026-01-25 10:05:18.99	193.07	85.89	-42.8	-45.5	17.4	0.00e+00	0	41	0	638582784	56	5157
2026-01-25 10:05:19.99	197.17	86.33	-43.1	-45.9	17.0	0.00e+00	0	41	0	640679936	56	5388
2026-01-25 10:05:20.98	202.27	86.73	-43.3	-46.2	16.6	0.00e+00	0	41	0	642777088	57	5270
2026-01-25 10:05:21.98	208.83	87.11	-43.4	-46.3	16.5	0.00e+00	0	41	0	644874240	57	5308
2026-01-25 10:05:22.97	217.11	87.44	-43.2	-46.1	16.8	0.00e+00	0	41	0	646971392	57	5177
2026-01-25 10:05:23.97	227.63	87.70	-42.5	-45.2	17.7	0.00e+00	0	41	0	648019968	56	4978
2026-01-25 10:05:24.96	240.13	87.86	-41.4	-43.8	18.8	0.00e+00	0	41	0	650117120	54	4752
2026-01-25 10:05:25.95	253.93	87.91	-41.1	-43.4	19.2	0.00e+00	0	41	0	652214272	53	4788
2026-01-25 10:05:26.95	267.71	87.83	-41.3	-43.7	18.9	0.00e+00	0	41	0	654311424	53	4967
2026-01-25 10:05:27.94	279.81	87.65	-41.7	-44.1	18.5	0.00e+00	0	41	0	655360000	54	4888
2026-01-25 10:05:28.94	289.86	87.37	-42.1	-44.6	18.2	0.00e+00	0	41	0	657457152	55	4881
2026-01-25 10:05:29.93	297.73	87.04	-42.9	-45.6	17.2	0.00e+00	0	41	0	659554304	56	5196
2026-01-25 10:05:30.93	303.96	86.65	-42.3	-44.9	17.9	0.00e+00	0	41	0	661651456	56	4805
2026-01-25 10:05:31.95	308.95	86.23	-41.6	-44.0	18.6	0.00e+00	0	41	0	663748608	55	4556
2026-01-25 10:05:32.98	312.94	85.78	-41.3	-43.6	19.1	0.00e+00	0	41	0	664797184	54	4609
2026-01-25 10:05:33.97	316.03	85.33	-40.9	-43.1	19.4	0.00e+00	0	41	0	666894336	53	4640
2026-01-25 10:05:34.97	318.60	84.86	-40.5	-42.6	19.9	0.00e+00	0	41	0	668991488	52	4638
2026-01-25 10:05:35.96	320.72	84.40	-40.4	-42.6	19.9	0.00e+00	0	41	0	671088640	52	4641
2026-01-25 10:05:36.95	322.51	83.92	-41.4	-43.8	18.9	0.00e+00	0	41	0	673185792	53	5036
2026-01-25 10:05:37.95	324.05	83.44	-42.2	-44.8	17.8	0.00e+00	0	41	0	674234368	55	5009
2026-01-25 10:05:38.94	325.37	82.96	-43.6	-46.6	16.2	0.00e+00	0	41	0	676331520	57	5504
2026-01-25 10:05:39.94	326.53	82.47	-44.6	-48.2	14.7	0.00e+00	0	41	0	678428672	59	5857
2026-01-25 10:05:40.93	327.54	81.99	-44.4	-47.6	15.1	0.00e+00	0	41	0	680525824	59	5524
2026-01-25 10:05:41.92	328.43	81.50	-43.7	-46.7	16.2	0.00e+00	0	41	0	681574400	59	4960
2026-01-25 10:05:42.92	329.23	81.01	-42.9	-45.5	17.2	0.00e+00	0	41	0	683671552	57	4867
2026-01-25 10:05:43.92	329.95	80.52	-42.1	-44.6	18.2	0.00e+00	0	41	0	685768704	56	4618
2026-01-25 10:05:44.91	330.59	80.03	-41.2	-43.4	19.2	0.00e+00	0	41	0	687865856	54	4532
2026-01-25 10:05:45.91	331.18	79.54	-40.6	-42.8	19.8	0.00e+00	0	41	0	689963008	53	4468
2026-01-25 10:05:46.90	331.70	79.05	-41.8	-44.2	18.4	0.00e+00	0	41	0	691011584	54	4978
2026-01-25 10:05:47.90	332.19	78.56	-43.0	-45.7	17.1	0.00e+00	0	41	0	693108736	56	5276
2026-01-25 10:05:48.95	332.66	78.05	-43.6	-46.5	16.4	0.00e+00	0	41	0	695205888	57	5435
2026-01-25 10:05:49.88	333.04	77.59	-44.6	-48.0	14.9	0.00e+00	0	41	0	697303040	59	5772
2026-01-25 10:05:50.99	333.46	77.05	-45.1	-48.9	14.0	1.50e-06	0	41	0	699400192	61	5657
2026-01-25 10:05:51.84	333.76	76.64	-45.0	-48.7	14.3	2.20e-06	0	41	0	700448768	61	5530
2026-01-25 10:05:52.98	334.13	76.08	-44.4	-47.7	15.3	0.00e+00	0	41	0	702545920	60	5222
2026-01-25 10:05:53.83	334.38	75.67	-43.7	-46.7	16.4	0.00e+00	0	41	0	704643072	59	4928
2026-01-25 10:05:54.97	334.71	75.12	-44.4	-47.6	15.3	0.00e+00	0	41	0	706740224	59	5524
2026-01-25 10:05:55.82	334.93	74.71	-44.6	-48.0	14.9	0.00e+00	0	41	0	707788800	60	5408
2026-01-25 10:05:56.96	335.22	74.16	-43.2	-45.9	17.0	0.00e+00	0	41	0	709885952	58	4789
2026-01-25 10:05:57.81	335.41	73.76	-42.3	-44.8	18.1	0.00e+00	0	41	0	711983104	56	4707
2026-01-25 10:05:58.95	335.66	73.21	-42.0	-44.4	18.4	0.00e+00	0	41	0	714080256	56	4528
2026-01-25 10:05:59.80	335.84	72.81	-42.1	-44.6	18.1	0.00e+00	0	41	0	715128832	55	4912
2026-01-25 10:06:00.94	336.06	72.27	-41.7	-44.0	18.7	0.00e+00	0	41	0	717225984	55	4581
2026-01-25 10:06:01.79	336.22	71.87	-41.0	-43.2	19.4	0.00e+00	0	41	0	719323136	54	4435
2026-01-25 10:06:03.04	336.44	71.28	-40.4	-42.5	20.1	0.00e+00	0	41	0	721420288	52	4568
2026-01-25 10:06:03.89	336.58	70.88	-40.9	-43.1	19.6	0.00e+00	0	41	0	723517440	52	4892
2026-01-25 10:06:05.11	336.77	70.32	-43.0	-45.7	17.2	0.00e+00	0	41	0	725614592	56	5227
2026-01-25 10:06:05.96	336.90	69.92	-43.2	-46.0	16.9	0.00e+00	0	41	0	726663168	57	5112
2026-01-25 10:06:07.10	337.06	69.40	-42.3	-44.8	18.0	0.00e+00	0	41	0	728760320	56	4748
2026-01-25 10:06:07.95	337.18	69.01	-42.7	-45.2	17.6	0.00e+00	0	41	0	730857472	56	4981
2026-01-25 10:06:09.09	337.33	68.49	-44.9	-48.6	14.3	0.00e+00	0	41	0	732954624	60	5796
2026-01-25 10:06:09.94	337.43	68.10	-45.8	-50.3	12.7	3.81e-05	0	41	0	735051776	62	6293
2026-01-25 10:06:11.08	337.57	67.58	-44.9	-48.4	14.3	1.60e-05	0	41	0	737148928	61	5396
2026-01-25 10:06:11.93	337.66	67.20	-44.0	-47.0	15.9	0.00e+00	0	41	0	738197504	60	4865
2026-01-25 10:06:13.07	337.79	66.69	-43.5	-46.5	16.4	0.00e+00	0	41	0	740294656	59	4815
2026-01-25 10:06:14.12	337.90	66.22	-43.0	-45.8	17.2	0.00e+00	0	41	0	742391808	57	5001
2026-01-25 10:06:15.19	338.01	65.75	-43.7	-46.8	16.1	0.00e+00	0	41	0	744488960	58	5328
2026-01-25 10:06:16.05	338.09	65.37	-43.9	-47.1	15.8	0.00e+00	0	41	0	745537536	58	5489
2026-01-25 10:06:17.18	338.20	64.88	-42.3	-44.9	18.0	0.00e+00	0	41	0	747634688	56	4768
2026-01-25 10:06:18.22	338.29	64.42	-40.9	-43.1	19.5	0.00e+00	0	41	0	749731840	53	4626
2026-01-25 10:06:19.39	338.39	63.92	-40.8	-43.0	19.6	0.00e+00	0	41	0	751828992	53	4594
2026-01-25 10:06:20.25	338.46	63.55	-40.4	-42.6	20.0	0.00e+00	0	41	0	753926144	52	4600
2026-01-25 10:06:21.38	338.55	63.07	-40.1	-42.2	20.3	0.00e+00	0	41	0	756023296	52	4408
2026-01-25 10:06:22.24	338.62	62.70	-39.8	-41.9	20.7	0.00e+00	0	41	0	758120448	51	4494
2026-01-25 10:06:23.67	338.72	62.10	-39.3	-41.3	21.3	0.00e+00	0	41	0	760217600	50	4480
2026-01-25 10:06:24.38	338.78	61.80	-39.2	-41.1	21.4	0.00e+00	0	41	0	761266176	50	4375
2026-01-25 10:06:25.69	338.87	61.25	-40.3	-42.4	20.3	0.00e+00	0	41	0	764411904	51	4775
2026-01-25 10:06:26.40	338.91	60.96	-41.4	-43.8	19.0	0.00e+00	0	41	0	765460480	53	5011
2026-01-25 10:06:27.68	339.00	60.43	-43.0	-45.8	17.1	0.00e+00	0	41	0	767557632	56	5302
2026-01-25 10:06:28.41	339.04	60.13	-42.8	-45.4	17.4	0.00e+00	0	41	0	769654784	56	5091
2026-01-25 10:06:29.68	339.12	59.62	-42.4	-44.9	17.9	0.00e+00	0	41	0	771751936	56	4811
2026-01-25 10:06:30.41	339.17	59.32	-42.6	-45.2	17.6	0.00e+00	0	41	0	772800512	56	4965
2026-01-25 10:06:31.69	339.24	58.81	-43.7	-46.8	16.2	0.00e+00	0	41	0	774897664	58	5291
2026-01-25 10:06:32.59	339.29	58.45	-44.2	-47.4	15.5	0.00e+00	0	41	0	776994816	59	5371
2026-01-25 10:06:33.68	339.35	58.02	-44.3	-47.6	15.3	0.00e+00	0	41	0	779091968	59	5519
2026-01-25 10:06:34.54	339.40	57.69	-44.5	-47.8	15.1	0.00e+00	0	41	0	781189120	59	5637
2026-01-25 10:06:35.67	339.45	57.24	-44.0	-47.1	15.8	0.00e+00	0	41	0	783286272	59	5169
2026-01-25 10:06:36.53	339.50	56.91	-43.0	-45.7	17.1	0.00e+00	0	41	0	784334848	58	4700
2026-01-25 10:06:37.67	339.55	56.47	-42.4	-44.9	17.9	0.00e+00	0	41	0	786432000	56	4809
2026-01-25 10:06:38.52	339.60	56.15	-42.4	-45.0	17.9	0.00e+00	0	41	0	788529152	56	4831
2026-01-25 10:06:39.66	339.65	55.72	-42.3	-44.8	18.0	0.00e+00	0	41	0	790626304	56	4731
2026-01-25 10:06:40.52	339.69	55.39	-42.0	-44.5	18.3	0.00e+00	0	41	0	791674880	56	4583
2026-01-25 10:06:41.66	339.74	54.96	-41.3	-43.7	19.0	0.00e+00	0	41	0	793772032	54	4669
2026-01-25 10:06:42.58	339.78	54.62	-41.4	-43.9	18.8	0.00e+00	0	41	0	795869184	54	4763
2026-01-25 10:06:43.57	339.82	54.26	-42.0	-44.5	18.2	0.00e+00	0	41	0	797966336	54	5154
2026-01-25 10:06:44.57	339.86	53.89	-42.4	-45.1	17.6	0.00e+00	0	41	0	799014912	55	5205
2026-01-25 10:06:45.56	339.90	53.53	-41.6	-44.1	18.5	0.00e+00	0	41	0	801112064	55	4601
2026-01-25 10:06:46.56	339.94	53.17	-40.7	-43.0	19.6	0.00e+00	0	41	0	803209216	53	4564
2026-01-25 10:06:47.55	339.98	52.81	-40.7	-43.0	19.6	0.00e+00	0	41	0	805306368	53	4565
2026-01-25 10:06:48.55	340.02	52.46	-41.1	-43.5	19.1	0.00e+00	0	41	0	807403520	53	4861
2026-01-25 10:06:49.54	340.06	52.11	-41.9	-44.5	18.2	0.00e+00	0	41	0	808452096	54	5136
2026-01-25 10:06:50.54	340.09	51.76	-42.9	-45.7	17.2	0.00e+00	0	41	0	810549248	56	5226
2026-01-25 10:06:51.53	340.13	51.41	-43.6	-46.6	16.2	0.00e+00	0	41	0	812646400	57	5519
2026-01-25 10:06:52.53	340.16	51.07	-44.2	-47.4	15.5	0.00e+00	0	41	0	814743552	58	5709
2026-01-25 10:06:53.52	340.20	50.73	-44.3	-47.5	15.3	0.00e+00	0	41	0	815792128	59	5413
2026-01-25 10:06:54.57	340.23	50.37	-44.4	-47.7	15.1	0.00e+00	0	41	0	817889280	59	5583
2026-01-25 10:06:55.50	340.26	50.05	-44.2	-47.3	15.5	0.00e+00	0	41	0	819986432	59	5320
2026-01-25 10:06:56.50	340.29	49.72	-43.9	-46.9	16.0	0.00e+00	0	41	0	822083584	59	5077
2026-01-25 10:06:57.49	340.32	49.39	-43.9	-46.8	16.1	0.00e+00	0	41	0	824180736	59	5032
2026-01-25 10:06:58.48	340.36	49.06	-44.6	-48.0	14.9	0.00e+00	0	41	0	825229312	59	5732
2026-01-25 10:06:59.48	340.39	48.73	-46.6	-52.0	10.8	1.33e-04	0	41	0	827326464	63	7272
2026-01-25 10:07:00.47	340.41	48.41	-47.5	-55.4	7.2	5.45e-02	0	41	0	829423616	65	9548
2026-01-25 10:07:01.47	340.44	48.09	-46.2	-51.5	10.8	8.20e-02	0	41	0	831520768	64	6437
2026-01-25 10:07:02.46	340.47	47.77	-44.6	-48.2	14.4	2.36e-05	0	41	0	832569344	61	5260
2026-01-25 10:07:03.46	340.50	47.45	-43.7	-46.8	16.0	0.00e+00	0	41	0	834666496	59	5001
2026-01-25 10:07:04.45	340.53	47.13	-43.4	-46.3	16.5	0.00e+00	0	41	0	836763648	58	4994
2026-01-25 10:07:05.45	340.56	46.82	-43.4	-46.2	16.6	0.00e+00	0	41	0	838860800	58	4965
2026-01-25 10:07:06.44	340.58	46.51	-42.8	-45.4	17.4	0.00e+00	0	41	0	840957952	57	4796
2026-01-25 10:07:07.44	340.61	46.20	-43.1	-45.8	17.0	0.00e+00	0	41	0	842006528	57	5024
2026-01-25 10:07:08.51	340.64	45.87	-43.5	-46.5	16.4	0.00e+00	0	41	0	844103680	58	5101
2026-01-25 10:07:09.36	340.66	45.61	-43.6	-46.5	16.3	0.00e+00	0	41	0	846200832	58	5145
2026-01-25 10:07:10.50	340.69	45.27	-43.8	-46.9	16.0	0.00e+00	0	41	0	848297984	58	5378
2026-01-25 10:07:11.36	340.71	45.01	-43.2	-46.2	16.6	0.00e+00	0	41	0	849346560	58	4962
2026-01-25 10:07:12.49	340.74	44.67	-42.1	-44.8	18.0	0.00e+00	0	41	0	851443712	56	4737
2026-01-25 10:07:13.35	340.76	44.42	-41.2	-43.6	19.0	0.00e+00	0	41	0	853540864	54	4643
2026-01-25 10:07:14.48	340.78	44.09	-40.5	-42.9	19.6	0.00e+00	0	41	0	855638016	53	4506
2026-01-25 10:07:15.33	340.80	43.84	-40.3	-42.5	20.0	0.00e+00	0	41	0	856686592	52	4590
2026-01-25 10:07:16.47	340.83	43.51	-40.0	-42.1	20.5	0.00e+00	0	41	0	859832320	51	4618
2026-01-25 10:07:17.32	340.85	43.27	-39.7	-41.8	20.8	0.00e+00	0	41	0	860880896	51	4447
2026-01-25 10:07:18.52	340.87	42.92	-40.2	-42.3	20.3	0.00e+00	0	41	0	862978048	51	4745
2026-01-25 10:07:19.37	340.89	42.68	-40.6	-42.8	19.8	0.00e+00	0	41	0	865075200	51	5038
2026-01-25 10:07:20.51	340.92	42.36	-41.8	-44.3	18.3	0.00e+00	0	41	0	867172352	54	5012
2026-01-25 10:07:21.36	340.94	42.13	-42.6	-45.4	17.3	0.00e+00	0	41	0	868220928	55	5365
2026-01-25 10:07:22.50	340.96	41.81	-43.3	-46.3	16.6	0.00e+00	0	41	0	870318080	57	5287
2026-01-25 10:07:23.35	340.98	41.58	-43.0	-45.9	16.9	0.00e+00	0	41	0	872415232	57	5078
2026-01-25 10:07:24.71	341.00	41.21	-42.5	-45.2	17.6	0.00e+00	0	41	0	874512384	57	4699
2026-01-25 10:07:25.42	341.02	41.02	-42.3	-44.9	17.9	0.00e+00	0	41	0	876609536	56	4790
2026-01-25 10:07:26.70	341.04	40.67	-42.0	-44.6	18.1	0.00e+00	0	41	0	878706688	56	4615
2026-01-25 10:07:27.41	341.06	40.49	-41.8	-44.3	18.3	0.00e+00	0	41	0	879755264	55	4721
2026-01-25 10:07:28.69	341.08	40.15	-41.4	-43.8	18.9	0.00e+00	0	41	0	881852416	54	4713
2026-01-25 10:07:29.48	341.10	39.94	-41.7	-44.1	18.5	0.00e+00	0	41	0	883949568	54	4903
2026-01-25 10:07:30.66	341.12	39.63	-42.3	-44.8	17.8	0.00e+00	0	41	0	886046720	55	5028
2026-01-25 10:07:31.66	341.14	39.38	-43.2	-45.9	17.0	0.00e+00	0	41	0	888143872	56	5385
2026-01-25 10:07:32.84	341.16	39.07	-44.1	-47.2	15.7	0.00e+00	0	41	0	890241024	58	5559
2026-01-25 10:07:33.72	341.18	38.85	-44.9	-48.6	14.3	7.00e-07	0	41	0	891289600	60	5792
2026-01-25 10:07:35.05	341.20	38.52	-45.9	-50.3	12.5	3.12e-05	0	41	0	894435328	62	6322
2026-01-25 10:07:35.76	341.21	38.34	-46.1	-50.8	12.1	1.45e-04	0	41	0	895483904	62	6707
2026-01-25 10:07:37.04	341.23	38.02	-45.9	-50.5	12.4	2.65e-04	0	41	0	897581056	62	6453
2026-01-25 10:07:37.75	341.25	37.85	-45.4	-49.6	13.3	1.31e-04	0	41	0	899678208	62	5802
2026-01-25 10:07:39.03	341.27	37.53	-44.2	-47.6	15.1	2.20e-06	0	41	0	901775360	60	5214
2026-01-25 10:07:39.74	341.28	37.36	-43.9	-47.1	15.6	7.00e-07	0	41	0	902823936	59	5207
2026-01-25 10:07:41.02	341.30	37.05	-43.5	-46.6	16.2	0.00e+00	0	41	0	904921088	58	5206
2026-01-25 10:07:41.73	341.31	36.88	-43.3	-46.4	16.4	0.00e+00	0	41	0	907018240	58	5063
2026-01-25 10:07:43.01	341.33	36.58	-43.3	-46.4	16.5	0.00e+00	0	41	0	909115392	58	5060
2026-01-25 10:07:43.74	341.34	36.41	-43.2	-46.4	16.4	0.00e+00	0	41	0	910163968	58	5064
2026-01-25 10:07:45.02	341.36	36.11	-43.1	-46.2	16.7	0.00e+00	0	41	0	913309696	58	4931
2026-01-25 10:07:45.73	341.38	35.94	-42.9	-46.0	16.8	0.00e+00	0	41	0	914358272	57	5112
2026-01-25 10:07:47.02	341.40	35.64	-43.0	-46.1	16.8	0.00e+00	0	41	0	916455424	57	5173
2026-01-25 10:07:47.74	341.41	35.48	-43.2	-46.2	16.6	0.00e+00	0	41	0	917504000	57	5260
2026-01-25 10:07:49.01	341.43	35.19	-43.7	-46.9	15.9	0.00e+00	0	41	0	920649728	57	5681
2026-01-25 10:07:49.72	341.44	35.03	-44.2	-47.7	15.2	0.00e+00	0	41	0	921698304	59	5552
2026-01-25 10:07:51.14	341.46	34.71	-45.2	-49.5	13.6	1.50e-06	0	41	0	923795456	61	6063
2026-01-25 10:07:51.86	341.47	34.55	-45.6	-50.2	12.7	3.96e-05	0	41	0	925892608	61	6571
2026-01-25 10:07:53.13	341.49	34.27	-46.2	-51.3	11.4	6.61e-04	0	41	0	927989760	63	6688
2026-01-25 10:07:53.84	341.50	34.11	-46.4	-51.8	10.9	9.08e-04	0	41	0	929038336	63	7051
2026-01-25 10:07:55.25	341.52	33.81	-46.5	-51.9	10.8	2.84e-03	0	41	0	932184064	63	7172
2026-01-25 10:07:55.96	341.53	33.65	-46.3	-51.6	11.1	2.56e-03	0	41	0	933232640	63	6941
2026-01-25 10:07:57.24	341.55	33.38	-46.1	-51.0	11.7	8.15e-04	0	41	0	935329792	63	6477
2026-01-25 10:07:57.95	341.55	33.23	-45.9	-50.7	12.1	3.66e-04	0	41	0	937426944	63	6233
2026-01-25 10:07:59.23	341.57	32.96	-45.1	-49.5	13.3	5.03e-05	0	41	0	939524096	62	5772
2026-01-25 10:07:59.94	341.58	32.81	-44.7	-49.0	13.8	6.80e-06	0	41	0	940572672	61	5774
2026-01-25 10:08:01.22	341.60	32.54	-44.3	-48.5	14.4	0.00e+00	0	41	0	943718400	60	5762
2026-01-25 10:08:01.93	341.61	32.40	-44.0	-48.0	14.8	7.00e-07	0	41	0	944766976	60	5445
2026-01-25 10:08:03.21	341.63	32.13	-44.0	-47.8	14.9	0.00e+00	0	41	0	946864128	59	5644
2026-01-25 10:08:03.98	341.64	31.97	-44.0	-47.8	15.0	0.00e+00	0	41	0	947912704	59	5617
2026-01-25 10:08:05.26	341.65	31.71	-44.2	-47.9	15.0	0.00e+00	0	41	0	951058432	59	5679
2026-01-25 10:08:05.97	341.66	31.57	-44.2	-47.9	14.9	0.00e+00	0	41	0	952107008	59	5701
2026-01-25 10:08:07.25	341.68	31.32	-44.4	-48.1	14.8	0.00e+00	0	41	0	954204160	59	5792
2026-01-25 10:08:07.96	341.69	31.17	-44.5	-48.1	14.7	0.00e+00	0	41	0	956301312	59	5817
2026-01-25 10:08:09.25	341.70	30.92	-44.6	-48.1	14.7	7.00e-07	0	41	0	958398464	59	5846
2026-01-25 10:08:09.96	341.71	30.78	-44.6	-48.3	14.5	0.00e+00	0	41	0	959447040	59	5948
2026-01-25 10:08:11.24	341.73	30.53	-44.5	-48.3	14.6	7.00e-07	0	41	0	961544192	60	5627
2026-01-25 10:08:11.95	341.74	30.39	-44.5	-48.3	14.6	0.00e+00	0	41	0	963641344	60	5627
2026-01-25 10:08:13.23	341.75	30.15	-44.5	-48.4	14.5	7.00e-07	0	41	0	965738496	60	5703
2026-01-25 10:08:13.96	341.76	30.01	-44.4	-48.3	14.6	0.00e+00	0	41	0	966787072	60	5606
2026-01-25 10:08:15.23	341.78	29.77	-44.4	-48.2	14.7	0.00e+00	0	41	0	969932800	60	5538
2026-01-25 10:08:15.95	341.78	29.63	-44.3	-48.0	14.9	0.00e+00	0	41	0	970981376	60	5415
2026-01-25 10:08:17.23	341.80	29.39	-44.1	-47.5	15.3	0.00e+00	0	41	0	973078528	60	5151
2026-01-25 10:08:17.97	341.81	29.26	-44.0	-47.3	15.6	0.00e+00	0	41	0	974127104	59	5283
2026-01-25 10:08:19.25	341.82	29.02	-43.9	-47.1	15.7	0.00e+00	0	41	0	977272832	59	5183
2026-01-25 10:08:19.97	341.83	28.89	-43.7	-46.9	15.9	0.00e+00	0	41	0	978321408	59	5060
2026-01-25 10:08:21.26	341.85	28.65	-43.3	-46.6	16.3	0.00e+00	0	41	0	980418560	58	5162
2026-01-25 10:08:21.98	341.85	28.52	-43.2	-46.4	16.4	0.00e+00	0	41	0	982515712	58	5091
2026-01-25 10:08:23.26	341.87	28.29	-42.9	-46.0	16.8	0.00e+00	0	41	0	984612864	57	5150
2026-01-25 10:08:24.20	341.88	28.12	-42.7	-45.7	17.1	0.00e+00	0	41	0	986710016	57	4945
2026-01-25 10:08:25.19	341.89	27.95	-42.5	-45.5	17.3	0.00e+00	0	41	0	987758592	57	4819
2026-01-25 10:08:26.19	341.90	27.77	-42.5	-45.3	17.4	0.00e+00	0	41	0	989855744	56	5035
2026-01-25 10:08:27.18	341.91	27.60	-42.3	-45.0	17.7	0.00e+00	0	41	0	991952896	56	4870
2026-01-25 10:08:28.18	341.92	27.43	-42.2	-44.8	18.0	0.00e+00	0	41	0	994050048	56	4715
2026-01-25 10:08:29.17	341.93	27.25	-42.2	-44.7	18.1	0.00e+00	0	41	0	996147200	56	4677
2026-01-25 10:08:30.16	341.94	27.08	-42.1	-44.6	18.2	0.00e+00	0	41	0	997195776	56	4628
2026-01-25 10:08:31.19	341.95	26.91	-42.1	-44.6	18.1	0.00e+00	0	41	0	999292928	56	4643
2026-01-25 10:08:32.19	341.97	26.74	-42.1	-44.6	18.2	0.00e+00	0	41	0	1001390080	56	4626
2026-01-25 10:08:33.25	341.98	26.56	-42.0	-44.6	18.2	0.00e+00	0	41	0	1003487232	56	4616
2026-01-25 10:08:34.15	341.99	26.41	-42.0	-44.7	18.1	0.00e+00	0	41	0	1004535808	56	4669
2026-01-25 10:08:35.19	342.00	26.24	-41.8	-44.6	18.0	0.00e+00	0	41	0	1006632960	55	4883
2026-01-25 10:08:36.18	342.01	26.07	-41.8	-44.6	18.0	0.00e+00	0	41	0	1008730112	55	4873
2026-01-25 10:08:37.35	342.02	25.88	-41.9	-44.7	17.8	0.00e+00	0	41	0	1010827264	55	4982
2026-01-25 10:08:38.24	342.03	25.73	-41.9	-44.7	17.9	0.00e+00	0	41	0	1012924416	55	4976
2026-01-25 10:08:39.37	342.04	25.55	-41.9	-44.7	17.9	0.00e+00	0	41	0	1015021568	55	4967
2026-01-25 10:08:40.23	342.05	25.41	-42.1	-44.8	17.8	0.00e+00	0	41	0	1016070144	55	5032
2026-01-25 10:08:41.36	342.06	25.23	-42.0	-44.6	17.9	0.00e+00	0	41	0	1018167296	55	4912
2026-01-25 10:08:42.22	342.07	25.09	-41.9	-44.5	18.0	0.00e+00	0	41	0	1020264448	55	4864
2026-01-25 10:08:43.35	342.08	24.91	-41.8	-44.4	18.2	0.00e+00	0	41	0	1022361600	55	4805
2026-01-25 10:08:44.21	342.09	24.78	-41.7	-44.3	18.3	0.00e+00	0	41	0	1023410176	55	4729
2026-01-25 10:08:45.34	342.10	24.60	-41.7	-44.2	18.3	0.00e+00	0	41	0	1025507328	55	4681
2026-01-25 10:08:46.20	342.11	24.47	-41.6	-44.1	18.4	0.00e+00	0	41	0	1027604480	55	4635
2026-01-25 10:08:47.33	342.12	24.29	-41.3	-43.7	18.8	0.00e+00	0	41	0	1029701632	54	4693
2026-01-25 10:08:48.18	342.12	24.16	-41.2	-43.7	18.9	0.00e+00	0	41	0	1030750208	54	4665
2026-01-25 10:08:49.34	342.14	23.99	-40.9	-43.3	19.2	0.00e+00	0	41	0	1033895936	53	4743
2026-01-25 10:08:50.19	342.14	23.86	-40.8	-43.2	19.3	0.00e+00	0	41	0	1034944512	53	4697
2026-01-25 10:08:51.39	342.16	23.67	-40.8	-43.2	19.2	0.00e+00	0	41	0	1037041664	53	4704
2026-01-25 10:08:52.25	342.16	23.55	-40.7	-43.1	19.4	0.00e+00	0	41	0	1039138816	53	4603
2026-01-25 10:08:53.38	342.17	23.38	-40.5	-42.9	19.5	0.00e+00	0	41	0	1041235968	53	4540
2026-01-25 10:08:54.24	342.18	23.25	-40.4	-42.9	19.6	0.00e+00	0	41	0	1042284544	52	4764
2026-01-25 10:08:55.38	342.19	23.08	-40.5	-42.9	19.6	0.00e+00	0	41	0	1044381696	52	4771
2026-01-25 10:08:56.23	342.20	22.96	-40.5	-42.9	19.6	0.00e+00	0	41	0	1046478848	52	4771
2026-01-25 10:08:57.52	342.21	22.77	-40.5	-42.9	19.6	0.00e+00	0	41	0	1048576000	52	4810
2026-01-25 10:08:58.24	342.22	22.66	-40.6	-42.9	19.6	0.00e+00	0	41	0	1049624576	52	4798
2026-01-25 10:08:59.72	342.23	22.45	-40.7	-43.0	19.5	0.00e+00	0	41	0	1052770304	52	4860
2026-01-25 10:09:00.43	342.24	22.35	-40.7	-43.0	19.5	0.00e+00	0	41	0	1053818880	52	4848
2026-01-25 10:09:01.77	342.25	22.16	-40.7	-43.0	19.5	0.00e+00	0	41	0	1056964608	52	4839
2026-01-25 10:09:02.48	342.26	22.06	-40.7	-43.1	19.4	0.00e+00	0	41	0	1058013184	52	4879
2026-01-25 10:09:03.76	342.27	21.88	-40.8	-43.2	19.3	0.00e+00	0	41	0	1060110336	52	4930
2026-01-25 10:09:04.50	342.27	21.77	-40.8	-43.2	19.3	0.00e+00	0	41	0	1062207488	52	4953
2026-01-25 10:09:05.78	342.28	21.59	-40.8	-43.2	19.3	0.00e+00	0	41	0	1064304640	52	4964
2026-01-25 10:09:06.50	342.29	21.49	-40.8	-43.3	19.2	0.00e+00	0	41	0	1065353216	52	4992
2026-01-25 10:09:07.78	342.30	21.32	-40.7	-43.3	19.2	0.00e+00	0	41	0	1068498944	52	5016
2026-01-25 10:09:08.52	342.31	21.22	-40.8	-43.4	19.1	0.00e+00	0	41	0	1069547520	52	5054
2026-01-25 10:09:09.80	342.32	21.04	-40.8	-43.4	19.1	0.00e+00	0	41	0	1071644672	52	5089
2026-01-25 10:09:10.51	342.33	20.95	-40.8	-43.4	19.0	0.00e+00	0	41	0	1072693248	52	5097
2026-01-25 10:09:11.79	342.34	20.77	-41.0	-43.5	19.0	0.00e+00	0	41	0	1075838976	52	5142
2026-01-25 10:09:12.52	342.34	20.68	-41.1	-43.5	18.9	0.00e+00	0	41	0	1076887552	52	5157
2026-01-25 10:09:13.79	342.35	20.51	-41.1	-43.5	19.0	0.00e+00	0	41	0	1078984704	52	5152
2026-01-25 10:09:14.61	342.36	20.40	-41.1	-43.5	19.0	0.00e+00	0	41	0	1081081856	52	5118
2026-01-25 10:09:15.75	342.37	20.25	-41.2	-43.6	18.9	0.00e+00	0	41	0	1083179008	53	4887
2026-01-25 10:09:16.60	342.38	20.14	-41.1	-43.5	19.0	0.00e+00	0	41	0	1084227584	53	4835
2026-01-25 10:09:17.74	342.39	19.99	-41.2	-43.5	18.9	0.00e+00	0	41	0	1086324736	53	4861
2026-01-25 10:09:18.60	342.39	19.88	-41.2	-43.5	18.9	0.00e+00	0	41	0	1088421888	53	4865
2026-01-25 10:09:19.73	342.40	19.73	-41.2	-43.5	18.9	0.00e+00	0	41	0	1090519040	53	4857
2026-01-25 10:09:20.59	342.41	19.62	-41.2	-43.6	18.9	0.00e+00	0	41	0	1091567616	53	4886
2026-01-25 10:09:21.73	342.42	19.47	-41.1	-43.5	18.9	0.00e+00	0	41	0	1093664768	53	4845
2026-01-25 10:09:22.58	342.42	19.36	-41.2	-43.6	18.9	0.00e+00	0	41	0	1095761920	53	4908
2026-01-25 10:09:23.72	342.43	19.22	-41.2	-43.7	18.8	0.00e+00	0	41	0	1097859072	53	4947
2026-01-25 10:09:24.57	342.44	19.11	-41.2	-43.7	18.8	0.00e+00	0	41	0	1099956224	53	4961
2026-01-25 10:09:25.71	342.45	18.97	-41.4	-43.9	18.6	0.00e+00	0	41	0	1102053376	53	5086
2026-01-25 10:09:26.64	342.46	18.85	-41.4	-44.0	18.5	0.00e+00	0	41	0	1103101952	53	5114
2026-01-25 10:09:27.64	342.46	18.73	-41.5	-44.0	18.5	0.00e+00	0	41	0	1105199104	53	5146
2026-01-25 10:09:28.63	342.47	18.61	-41.6	-44.1	18.4	0.00e+00	0	41	0	1107296256	53	5195
2026-01-25 10:09:29.63	342.48	18.49	-41.6	-44.1	18.4	0.00e+00	0	41	0	1109393408	53	5209
2026-01-25 10:09:30.62	342.49	18.36	-41.7	-44.2	18.2	0.00e+00	0	41	0	1110441984	54	4978
2026-01-25 10:09:31.62	342.50	18.24	-41.8	-44.3	18.1	0.00e+00	0	41	0	1112539136	54	5035
2026-01-25 10:09:32.61	342.50	18.12	-41.7	-44.2	18.3	0.00e+00	0	41	0	1114636288	54	4971
2026-01-25 10:09:33.61	342.51	18.00	-41.7	-44.2	18.3	0.00e+00	0	41	0	1116733440	54	4955
2026-01-25 10:09:34.61	342.52	17.88	-41.6	-44.2	18.3	0.00e+00	0	41	0	1117782016	54	4929
2026-01-25 10:09:35.60	342.53	17.77	-41.8	-44.3	18.2	0.00e+00	0	41	0	1119879168	54	5024
2026-01-25 10:09:36.60	342.53	17.65	-41.7	-44.3	18.2	0.00e+00	0	41	0	1121976320	54	5004
2026-01-25 10:09:37.59	342.54	17.53	-41.6	-44.2	18.3	0.00e+00	0	41	0	1124073472	54	4969
2026-01-25 10:09:38.58	342.55	17.41	-41.5	-44.2	18.3	0.00e+00	0	41	0	1126170624	54	4971
2026-01-25 10:09:39.58	342.56	17.30	-41.5	-44.2	18.3	0.00e+00	0	41	0	1127219200	54	4976
2026-01-25 10:09:40.57	342.56	17.18	-41.5	-44.2	18.2	0.00e+00	0	41	0	1129316352	54	4981
2026-01-25 10:09:41.57	342.57	17.07	-41.5	-44.3	18.2	0.00e+00	0	41	0	1131413504	54	4992
2026-01-25 10:09:42.56	342.58	16.95	-41.7	-44.4	18.1	0.00e+00	0	41	0	1133510656	54	5089
2026-01-25 10:09:43.56	342.59	16.84	-41.6	-44.4	18.1	0.00e+00	0	41	0	1134559232	54	5056
2026-01-25 10:09:44.55	342.59	16.72	-41.6	-44.3	18.2	0.00e+00	0	41	0	1136656384	54	5005
2026-01-25 10:09:45.55	342.60	16.61	-41.6	-44.3	18.2	0.00e+00	0	41	0	1138753536	54	5003
2026-01-25 10:09:46.54	342.61	16.50	-41.6	-44.2	18.2	0.00e+00	0	41	0	1140850688	54	4975
2026-01-25 10:09:47.53	342.62	16.39	-41.6	-44.2	18.2	0.00e+00	0	41	0	1142947840	54	4966
2026-01-25 10:09:48.53	342.62	16.27	-41.7	-44.3	18.1	0.00e+00	0	41	0	1143996416	54	5023
2026-01-25 10:09:49.52	342.63	16.16	-41.7	-44.3	18.1	0.00e+00	0	41	0	1146093568	54	5013
2026-01-25 10:09:50.52	342.64	16.05	-41.7	-44.2	18.2	0.00e+00	0	41	0	1148190720	54	4965
2026-01-25 10:09:51.52	342.64	15.94	-41.6	-44.2	18.3	0.00e+00	0	41	0	1150287872	54	4938
2026-01-25 10:09:52.51	342.65	15.83	-41.6	-44.1	18.3	0.00e+00	0	41	0	1152385024	54	4909
2026-01-25 10:09:53.51	342.66	15.72	-41.5	-44.1	18.3	0.00e+00	0	41	0	1153433600	54	4907
2026-01-25 10:09:54.50	342.67	15.62	-41.5	-44.1	18.3	0.00e+00	0	41	0	1155530752	54	4907
2026-01-25 10:09:55.50	342.67	15.51	-41.4	-44.1	18.4	0.00e+00	0	41	0	1157627904	54	4890
2026-01-25 10:09:56.49	342.68	15.40	-41.5	-44.2	18.2	0.00e+00	0	41	0	1159725056	54	4982
2026-01-25 10:09:57.49	342.69	15.29	-41.4	-44.2	18.3	0.00e+00	0	41	0	1160773632	54	4940
2026-01-25 10:09:58.48	342.69	15.19	-41.2	-44.0	18.4	0.00e+00	0	41	0	1162870784	54	4845
2026-01-25 10:09:59.48	342.70	15.08	-41.3	-44.1	18.4	0.00e+00	0	41	0	1164967936	54	4891
2026-01-25 10:10:00.47	342.71	14.97	-41.3	-44.2	18.3	0.00e+00	0	41	0	1167065088	54	4933
2026-01-25 10:10:01.47	342.72	14.87	-41.3	-44.2	18.3	0.00e+00	0	41	0	1169162240	54	4934
2026-01-25 10:10:02.46	342.72	14.76	-41.3	-44.1	18.3	0.00e+00	0	41	0	1170210816	54	4909
2026-01-25 10:10:03.46	342.73	14.66	-41.3	-44.1	18.3	0.00e+00	0	41	0	1172307968	54	4918
2026-01-25 10:10:04.45	342.74	14.56	-41.3	-44.1	18.3	0.00e+00	0	41	0	1174405120	54	4911
2026-01-25 10:10:05.45	342.74	14.45	-41.3	-44.1	18.3	0.00e+00	0	41	0	1176502272	54	4907
2026-01-25 10:10:06.44	342.75	14.35	-41.4	-44.2	18.2	0.00e+00	0	41	0	1177550848	54	4968
2026-01-25 10:10:07.44	342.76	14.25	-41.4	-44.2	18.2	0.00e+00	0	41	0	1179648000	54	4947
2026-01-25 10:10:08.43	342.76	14.14	-41.4	-44.1	18.3	0.00e+00	0	41	0	1181745152	54	4904
2026-01-25 10:10:09.43	342.77	14.04	-41.5	-44.2	18.2	0.00e+00	0	41	0	1183842304	54	4982
2026-01-25 10:10:10.42	342.78	13.94	-41.5	-44.2	18.2	0.00e+00	0	41	0	1185939456	54	4977
2026-01-25 10:10:11.42	342.78	13.84	-41.4	-44.3	18.1	0.00e+00	0	41	0	1186988032	54	4993
2026-01-25 10:10:12.41	342.79	13.74	-41.5	-44.3	18.1	0.00e+00	0	41	0	1189085184	54	5024
2026-01-25 10:10:13.41	342.80	13.64	-41.4	-44.3	18.1	0.00e+00	0	41	0	1191182336	54	5012
2026-01-25 10:10:14.40	342.80	13.54	-41.4	-44.3	18.1	0.00e+00	0	41	0	1193279488	54	5024
2026-01-25 10:10:15.39	342.81	13.44	-41.5	-44.4	18.0	0.00e+00	0	41	0	1194328064	54	5085
2026-01-25 10:10:16.39	342.82	13.34	-41.4	-44.4	18.0	0.00e+00	0	41	0	1196425216	54	5063
2026-01-25 10:10:17.39	342.83	13.24	-41.4	-44.4	18.1	0.00e+00	0	41	0	1198522368	54	5061
2026-01-25 10:10:18.38	342.83	13.15	-41.4	-44.4	18.0	0.00e+00	0	41	0	1200619520	54	5051
2026-01-25 10:10:19.37	342.84	13.05	-41.5	-44.5	17.9	0.00e+00	0	41	0	1202716672	54	5110
2026-01-25 10:10:20.37	342.84	12.95	-41.5	-44.5	18.0	0.00e+00	0	41	0	1203765248	54	5106
2026-01-25 10:10:21.36	342.85	12.85	-41.5	-44.5	17.9	0.00e+00	0	41	0	1205862400	54	5135
2026-01-25 10:10:22.36	342.86	12.76	-41.5	-44.4	18.0	0.00e+00	0	41	0	1207959552	54	5075
2026-01-25 10:10:23.35	342.86	12.66	-41.5	-44.4	18.0	0.00e+00	0	41	0	1210056704	54	5065
2026-01-25 10:10:24.55	342.87	12.55	-41.6	-44.5	17.9	0.00e+00	0	41	0	1212153856	54	5128
2026-01-25 10:10:25.41	342.88	12.46	-41.6	-44.5	17.9	0.00e+00	0	41	0	1213202432	54	5143
2026-01-25 10:10:26.54	342.89	12.36	-41.7	-44.6	17.8	0.00e+00	0	41	0	1215299584	54	5187
2026-01-25 10:10:27.40	342.89	12.27	-41.7	-44.6	17.8	0.00e+00	0	41	0	1217396736	54	5183
2026-01-25 10:10:28.53	342.90	12.17	-41.7	-44.6	17.8	0.00e+00	0	41	0	1219493888	54	5195
2026-01-25 10:10:29.39	342.90	12.09	-41.7	-44.6	17.8	0.00e+00	0	41	0	1220542464	54	5174
2026-01-25 10:10:30.53	342.91	11.98	-41.7	-44.7	17.7	0.00e+00	0	41	0	1223688192	54	5245
