passes_logs/2026/01/25/T1/T1__20260125_054915_FENGYUN_3E_rec.log

#Pass ID: 20260125_054915_FENGYUN 3E
#Satellite: FENGYUN 3E
#Configuration: FENGYUN 3E
#almurnet v.1.7.20251203
#Start time: 2026-01-25 05:49:17

#Version: 2.0.20230620
#Station: T1
#Location: 37.570604 lon 55.790049 lat
#TLE: 1 49008U 21062A   26024.51886291 -.00000133  00000+0 -41802-4 0  9993
#TLE: 2 49008  98.7494  29.5356 0002407 118.1139 242.0281 14.19886269236195

#Time	Az	El	Level	Level2	SNR	BER	BlckErr	Temp	State	Recorded	gain1	gain2
2026-01-25 05:49:17.05	5.33	5.10	-48.3	-59.6	3.8	8.46e-01	0	39	0	0	66	13634
2026-01-25 05:49:18.04	5.24	5.16	-47.7	-59.1	3.8	8.46e-01	0	39	104	0	66	12947
2026-01-25 05:49:19.03	5.15	5.21	-47.7	-59.1	3.8	8.47e-01	0	39	104	0	66	12899
2026-01-25 05:49:20.03	5.06	5.27	-47.7	-59.0	3.8	8.48e-01	0	39	104	0	66	12805
2026-01-25 05:49:21.02	4.97	5.33	-47.7	-59.1	3.8	8.47e-01	0	39	104	0	66	12904
2026-01-25 05:49:22.02	4.88	5.39	-47.7	-59.0	3.8	8.46e-01	0	39	104	0	66	12761
2026-01-25 05:49:23.01	4.80	5.45	-47.7	-59.0	3.8	8.47e-01	0	39	104	0	66	12805
2026-01-25 05:49:24.01	4.70	5.51	-47.7	-59.0	3.8	8.47e-01	0	39	104	0	66	12769
2026-01-25 05:49:25.00	4.61	5.56	-47.7	-59.0	3.8	8.47e-01	0	39	104	0	66	12800
2026-01-25 05:49:26.00	4.52	5.62	-47.7	-59.0	3.8	8.47e-01	0	39	104	0	66	12764
2026-01-25 05:49:26.99	4.43	5.68	-47.7	-59.0	3.8	8.47e-01	0	39	104	0	66	12725
2026-01-25 05:49:27.99	4.34	5.74	-47.7	-59.0	3.8	8.46e-01	0	39	104	0	66	12802
2026-01-25 05:49:28.98	4.25	5.80	-47.7	-59.1	3.8	8.47e-01	0	39	104	0	66	12843
2026-01-25 05:49:29.98	4.16	5.86	-47.7	-59.1	3.8	8.47e-01	0	39	104	0	66	12879
2026-01-25 05:49:30.98	4.06	5.91	-47.7	-59.1	3.8	8.47e-01	0	39	104	0	66	12930
2026-01-25 05:49:31.97	3.97	5.97	-47.7	-59.1	3.8	8.47e-01	0	39	104	0	66	12951
2026-01-25 05:49:32.97	3.88	6.03	-47.7	-59.1	3.8	8.47e-01	0	39	104	0	66	12897
2026-01-25 05:49:33.96	3.78	6.09	-47.7	-59.2	3.8	8.48e-01	0	39	104	0	66	13048
2026-01-25 05:49:34.96	3.69	6.15	-47.7	-59.2	3.8	8.47e-01	0	39	104	0	66	12998
2026-01-25 05:49:35.95	3.59	6.21	-47.7	-59.2	3.8	8.47e-01	0	39	104	0	66	13046
2026-01-25 05:49:36.95	3.50	6.27	-47.7	-59.2	3.8	8.47e-01	0	40	104	0	66	13102
2026-01-25 05:49:37.94	3.40	6.33	-47.7	-59.2	3.8	8.48e-01	0	40	104	0	66	13106
2026-01-25 05:49:38.94	3.31	6.39	-47.7	-59.2	3.8	8.47e-01	0	40	104	0	66	13015
2026-01-25 05:49:39.93	3.21	6.44	-47.7	-59.2	3.8	8.48e-01	0	40	104	0	66	13006
2026-01-25 05:49:40.93	3.11	6.50	-47.7	-59.3	3.8	8.47e-01	0	40	104	0	66	13196
2026-01-25 05:49:41.92	3.02	6.56	-47.7	-59.3	3.8	8.47e-01	0	40	104	0	66	13150
2026-01-25 05:49:42.92	2.92	6.62	-47.7	-59.3	3.8	8.46e-01	0	40	104	0	66	13208
2026-01-25 05:49:43.92	2.82	6.68	-47.7	-59.2	3.8	8.46e-01	0	40	104	0	66	13093
2026-01-25 05:49:44.91	2.72	6.74	-47.7	-59.3	3.8	8.46e-01	0	40	104	0	66	13172
2026-01-25 05:49:45.91	2.62	6.80	-47.7	-59.2	3.8	8.46e-01	0	40	104	0	66	13068
2026-01-25 05:49:46.90	2.52	6.86	-47.7	-59.3	3.8	8.46e-01	0	40	104	0	66	13149
2026-01-25 05:49:47.90	2.42	6.92	-47.7	-59.2	3.8	8.47e-01	0	40	104	0	66	13091
2026-01-25 05:49:48.89	2.32	6.98	-47.7	-59.2	3.8	8.46e-01	0	40	104	0	66	13075
2026-01-25 05:49:49.89	2.22	7.04	-47.7	-59.3	3.8	8.48e-01	0	40	104	0	66	13114
2026-01-25 05:49:50.88	2.12	7.10	-47.7	-59.2	3.8	8.47e-01	0	40	104	0	66	13098
2026-01-25 05:49:51.88	2.02	7.16	-47.7	-59.2	3.8	8.45e-01	0	40	104	0	66	12999
2026-01-25 05:49:52.88	1.92	7.22	-47.7	-59.2	3.8	8.47e-01	0	40	104	0	66	12966
2026-01-25 05:49:53.87	1.82	7.28	-47.7	-59.2	3.8	8.47e-01	0	40	104	0	66	13037
2026-01-25 05:49:54.87	1.71	7.34	-47.7	-59.1	3.8	8.47e-01	0	40	104	0	66	12959
2026-01-25 05:49:55.87	1.61	7.40	-47.7	-59.2	3.8	8.47e-01	0	40	104	0	66	13021
2026-01-25 05:49:56.86	1.51	7.46	-47.7	-59.1	3.8	8.47e-01	0	40	104	0	66	12951
2026-01-25 05:49:57.86	1.40	7.52	-47.7	-59.2	3.8	8.47e-01	0	40	104	0	66	12973
2026-01-25 05:49:58.86	1.30	7.58	-47.7	-59.2	3.8	8.47e-01	0	40	104	0	66	13024
2026-01-25 05:49:59.85	1.19	7.64	-47.7	-59.2	3.8	8.47e-01	0	40	104	0	66	13004
2026-01-25 05:50:00.85	1.09	7.70	-47.7	-59.1	3.8	8.47e-01	0	40	104	0	66	12916
2026-01-25 05:50:01.85	0.98	7.76	-47.7	-59.0	3.8	8.46e-01	0	40	104	0	66	12731
2026-01-25 05:50:02.84	0.88	7.82	-47.6	-58.7	3.8	8.47e-01	0	40	104	0	66	12284
2026-01-25 05:50:03.84	0.77	7.88	-47.6	-58.4	3.8	8.46e-01	0	40	104	0	66	11851
2026-01-25 05:50:04.84	0.66	7.94	-47.5	-58.0	3.8	8.47e-01	0	40	104	0	65	12000
2026-01-25 05:50:05.83	0.55	8.00	-47.5	-57.7	3.8	8.47e-01	0	40	104	0	65	11672
2026-01-25 05:50:06.83	0.45	8.06	-47.5	-57.6	3.8	8.44e-01	0	40	104	0	65	11482
2026-01-25 05:50:07.82	0.34	8.13	-47.5	-57.7	3.8	8.47e-01	0	41	104	0	65	11662
2026-01-25 05:50:08.82	0.23	8.19	-47.5	-58.0	3.8	8.46e-01	0	41	104	0	65	12073
2026-01-25 05:50:09.82	0.12	8.25	-47.6	-58.4	3.8	8.46e-01	0	40	104	0	65	12521
2026-01-25 05:50:10.81	0.01	8.31	-47.6	-58.6	3.8	8.46e-01	0	41	104	0	65	12882
2026-01-25 05:50:11.81	359.90	8.37	-47.6	-58.6	3.8	8.47e-01	0	40	104	0	65	12878
2026-01-25 05:50:12.80	359.79	8.43	-47.6	-58.1	3.8	8.48e-01	0	41	104	0	65	12178
2026-01-25 05:50:13.80	359.67	8.49	-47.4	-56.8	4.0	8.45e-01	0	41	104	0	65	10454
2026-01-25 05:50:14.80	359.56	8.55	-47.0	-54.8	4.5	8.27e-01	0	41	0	0	64	8792
2026-01-25 05:50:15.80	359.45	8.61	-46.6	-52.6	5.9	6.71e-01	0	41	0	0	63	7217
2026-01-25 05:50:16.79	359.34	8.67	-45.7	-50.2	8.0	1.21e-01	0	41	0	7340032	62	5795
2026-01-25 05:50:17.79	359.22	8.74	-44.7	-48.1	10.2	9.37e-03	0	40	0	14680064	60	5103
2026-01-25 05:50:18.78	359.11	8.80	-43.7	-46.2	12.0	6.59e-04	0	41	0	22020096	58	4651
2026-01-25 05:50:19.78	358.99	8.86	-42.8	-45.0	13.3	3.43e-05	0	41	0	29360128	56	4503
2026-01-25 05:50:20.78	358.88	8.92	-41.9	-43.8	14.3	0.00e+00	0	41	0	35651584	54	4427
2026-01-25 05:50:21.77	358.76	8.98	-41.6	-43.4	14.8	0.00e+00	0	41	0	42991616	54	4206
2026-01-25 05:50:22.77	358.65	9.04	-41.5	-43.3	14.9	0.00e+00	0	41	0	50331648	53	4398
2026-01-25 05:50:23.77	358.53	9.10	-41.9	-43.8	14.4	0.00e+00	0	41	0	57671680	53	4669
2026-01-25 05:50:24.77	358.41	9.16	-42.4	-44.5	13.8	0.00e+00	0	41	0	65011712	54	4764
2026-01-25 05:50:25.77	358.30	9.23	-42.3	-44.3	13.9	0.00e+00	0	41	0	72351744	53	4983
2026-01-25 05:50:26.77	358.18	9.29	-46.5	-52.5	6.0	1.65e-02	0	41	0	79691776	62	7618
2026-01-25 05:50:27.77	358.06	9.35	-38.7	-40.0	18.2	0.00e+00	0	41	0	83886080	48	4026
2026-01-25 05:50:28.77	357.94	9.41	-38.1	-39.4	18.5	0.00e+00	0	41	0	91226112	47	4003
2026-01-25 05:50:29.77	357.82	9.47	-38.1	-39.5	18.4	0.00e+00	0	41	0	98566144	46	4291
2026-01-25 05:50:30.78	357.70	9.54	-38.0	-39.4	18.6	0.00e+00	0	41	0	105906176	46	4211
2026-01-25 05:50:31.78	357.58	9.60	-37.9	-39.3	18.6	0.00e+00	0	41	0	113246208	46	4192
2026-01-25 05:50:32.78	357.45	9.66	-37.9	-39.3	18.6	0.00e+00	0	41	0	120586240	46	4179
2026-01-25 05:50:33.78	357.33	9.72	-37.8	-39.3	18.7	0.00e+00	0	41	0	127926272	46	4164
2026-01-25 05:50:34.78	357.21	9.78	-37.7	-39.1	18.9	0.00e+00	0	41	0	135266304	46	4071
2026-01-25 05:50:35.78	357.09	9.85	-37.8	-39.2	18.7	0.00e+00	0	41	0	141557760	46	4140
2026-01-25 05:50:36.78	356.96	9.91	-37.7	-39.2	18.8	0.00e+00	0	41	0	148897792	46	4115
2026-01-25 05:50:37.78	356.84	9.97	-37.7	-39.1	18.9	0.00e+00	0	41	0	156237824	46	4082
2026-01-25 05:50:38.79	356.71	10.03	-37.7	-39.2	18.8	0.00e+00	0	41	0	163577856	45	4341
2026-01-25 05:50:39.79	356.59	10.09	-37.6	-39.1	18.9	0.00e+00	0	41	0	170917888	45	4302
2026-01-25 05:50:40.79	356.46	10.16	-37.6	-39.1	18.9	0.00e+00	0	41	0	178257920	45	4303
2026-01-25 05:50:41.79	356.33	10.22	-37.5	-38.9	19.1	0.00e+00	0	41	0	185597952	45	4236
2026-01-25 05:50:42.79	356.21	10.28	-37.5	-39.0	19.0	0.00e+00	0	41	0	192937984	45	4286
2026-01-25 05:50:43.79	356.08	10.34	-37.7	-39.2	18.8	0.00e+00	0	41	0	200278016	45	4374
2026-01-25 05:50:44.79	355.95	10.41	-37.5	-39.0	19.0	0.00e+00	0	41	0	206569472	45	4259
2026-01-25 05:50:45.79	355.82	10.47	-37.6	-39.2	18.9	0.00e+00	0	41	0	213909504	45	4347
2026-01-25 05:50:46.79	355.69	10.53	-37.6	-39.1	18.9	0.00e+00	0	41	0	221249536	45	4320
2026-01-25 05:50:47.79	355.56	10.59	-37.7	-39.3	18.7	0.00e+00	0	41	0	228589568	45	4415
2026-01-25 05:50:48.79	355.43	10.65	-37.6	-39.1	18.9	0.00e+00	0	41	0	235929600	45	4340
2026-01-25 05:50:49.79	355.30	10.72	-37.7	-39.3	18.7	0.00e+00	0	41	0	243269632	45	4427
2026-01-25 05:50:50.80	355.17	10.78	-37.7	-39.3	18.7	0.00e+00	0	41	0	250609664	45	4425
2026-01-25 05:50:51.80	355.04	10.84	-37.7	-39.3	18.7	0.00e+00	0	41	0	257949696	45	4437
2026-01-25 05:50:52.80	354.90	10.90	-37.6	-39.2	18.9	0.00e+00	0	41	0	265289728	45	4360
2026-01-25 05:50:53.80	354.77	10.97	-37.6	-39.2	18.9	0.00e+00	0	41	0	272629760	45	4349
2026-01-25 05:50:54.80	354.64	11.03	-37.6	-39.1	19.0	0.00e+00	0	41	0	279969792	45	4303
2026-01-25 05:50:55.80	354.50	11.09	-37.5	-38.9	19.1	0.00e+00	0	41	0	286261248	45	4234
2026-01-25 05:50:56.81	354.37	11.15	-37.4	-38.9	19.2	0.00e+00	0	41	0	293601280	45	4209
2026-01-25 05:50:57.81	354.23	11.22	-37.4	-38.8	19.3	0.00e+00	0	41	0	300941312	45	4168
2026-01-25 05:50:58.81	354.09	11.28	-37.5	-38.8	19.2	0.00e+00	0	41	0	308281344	45	4193
2026-01-25 05:50:59.81	353.96	11.34	-37.3	-38.6	19.4	0.00e+00	0	41	0	315621376	45	4082
2026-01-25 05:51:00.81	353.82	11.40	-37.3	-38.6	19.5	0.00e+00	0	41	0	322961408	45	4072
2026-01-25 05:51:01.81	353.68	11.47	-37.3	-38.6	19.5	0.00e+00	0	41	0	330301440	45	4059
2026-01-25 05:51:02.82	353.54	11.53	-37.2	-38.4	19.6	0.00e+00	0	41	0	337641472	45	3992
2026-01-25 05:51:03.82	353.40	11.59	-37.1	-38.3	19.8	0.00e+00	0	41	0	344981504	45	3918
2026-01-25 05:51:04.82	353.26	11.65	-37.0	-38.2	19.9	0.00e+00	0	41	0	351272960	44	4116
2026-01-25 05:51:05.82	353.12	11.71	-37.1	-38.3	19.8	0.00e+00	0	41	0	358612992	44	4161
2026-01-25 05:51:06.83	352.98	11.78	-37.1	-38.3	19.8	0.00e+00	0	41	0	365953024	44	4167
2026-01-25 05:51:07.83	352.84	11.84	-37.2	-38.3	19.8	0.00e+00	0	41	0	373293056	44	4182
2026-01-25 05:51:08.83	352.69	11.90	-37.2	-38.3	19.8	0.00e+00	0	41	0	380633088	44	4187
2026-01-25 05:51:09.83	352.55	11.96	-37.1	-38.3	19.8	0.00e+00	0	41	0	387973120	44	4164
2026-01-25 05:51:10.83	352.41	12.03	-37.4	-38.6	19.5	0.00e+00	0	41	0	395313152	44	4316
2026-01-25 05:51:11.83	352.26	12.09	-37.3	-38.5	19.6	0.00e+00	0	41	0	402653184	44	4273
2026-01-25 05:51:12.83	352.12	12.15	-37.3	-38.6	19.5	0.00e+00	0	41	0	409993216	44	4304
2026-01-25 05:51:13.83	351.97	12.21	-37.3	-38.6	19.5	0.00e+00	0	41	0	416284672	44	4316
2026-01-25 05:51:14.84	351.83	12.28	-37.3	-38.6	19.5	0.00e+00	0	41	0	423624704	44	4314
2026-01-25 05:51:15.84	351.68	12.34	-37.4	-38.7	19.4	0.00e+00	0	41	0	430964736	44	4361
2026-01-25 05:51:16.84	351.53	12.40	-37.3	-38.7	19.5	0.00e+00	0	41	0	438304768	44	4342
2026-01-25 05:51:17.84	351.38	12.46	-37.3	-38.7	19.4	0.00e+00	0	41	0	445644800	44	4367
2026-01-25 05:51:18.84	351.23	12.52	-37.2	-38.6	19.5	0.00e+00	0	41	0	452984832	44	4329
2026-01-25 05:51:19.85	351.08	12.59	-37.2	-38.5	19.6	0.00e+00	0	41	0	460324864	44	4283
2026-01-25 05:51:20.85	350.93	12.65	-37.1	-38.4	19.7	0.00e+00	0	41	0	467664896	44	4222
2026-01-25 05:51:21.85	350.78	12.71	-37.1	-38.4	19.7	0.00e+00	0	41	0	473956352	44	4221
2026-01-25 05:51:22.85	350.63	12.77	-36.9	-38.2	19.9	0.00e+00	0	41	0	482344960	44	4128
2026-01-25 05:51:23.85	350.48	12.83	-36.9	-38.2	19.9	0.00e+00	0	41	0	489684992	44	4125
2026-01-25 05:51:24.84	350.33	12.90	-36.9	-38.2	19.9	0.00e+00	0	41	0	495976448	44	4113
2026-01-25 05:51:25.84	350.18	12.96	-36.9	-38.1	20.0	0.00e+00	0	41	0	503316480	44	4063
2026-01-25 05:51:26.84	350.02	13.02	-36.8	-37.9	20.2	0.00e+00	0	41	0	510656512	44	3997
2026-01-25 05:51:27.85	349.87	13.08	-36.8	-37.9	20.2	0.00e+00	0	41	0	517996544	44	4000
2026-01-25 05:51:28.85	349.71	13.14	-36.9	-38.0	20.2	0.00e+00	0	41	0	525336576	44	4013
2026-01-25 05:51:29.85	349.55	13.20	-36.9	-37.9	20.2	0.00e+00	0	41	0	532676608	44	3987
2026-01-25 05:51:30.84	349.40	13.26	-36.9	-37.9	20.3	0.00e+00	0	41	0	538968064	44	3972
2026-01-25 05:51:31.84	349.24	13.33	-36.9	-37.9	20.2	0.00e+00	0	41	0	546308096	44	4000
2026-01-25 05:51:32.84	349.08	13.39	-36.8	-37.8	20.4	0.00e+00	0	41	0	553648128	44	3930
2026-01-25 05:51:33.85	348.92	13.45	-36.9	-38.0	20.2	0.00e+00	0	41	0	560988160	44	4005
2026-01-25 05:51:34.85	348.77	13.51	-36.9	-37.9	20.2	0.00e+00	0	41	0	568328192	44	3996
2026-01-25 05:51:35.85	348.61	13.57	-36.8	-37.9	20.3	0.00e+00	0	41	0	575668224	44	3966
2026-01-25 05:51:36.85	348.44	13.63	-36.7	-37.8	20.3	0.00e+00	0	41	0	583008256	44	3940
2026-01-25 05:51:37.84	348.29	13.69	-36.9	-38.0	20.1	0.00e+00	0	41	0	590348288	44	4042
2026-01-25 05:51:38.85	348.12	13.75	-36.9	-38.0	20.1	0.00e+00	0	41	0	596639744	44	4042
2026-01-25 05:51:39.85	347.96	13.82	-36.9	-38.0	20.1	0.00e+00	0	41	0	605028352	44	4036
2026-01-25 05:51:40.85	347.80	13.88	-36.8	-38.0	20.2	0.00e+00	0	41	0	612368384	44	4014
2026-01-25 05:51:41.85	347.63	13.94	-36.9	-38.0	20.1	0.00e+00	0	41	0	618659840	44	4034
2026-01-25 05:51:42.85	347.47	14.00	-36.9	-38.0	20.1	0.00e+00	0	41	0	625999872	44	4040
2026-01-25 05:51:43.86	347.30	14.06	-36.9	-38.0	20.1	0.00e+00	0	41	0	633339904	44	4038
2026-01-25 05:51:44.85	347.14	14.12	-36.9	-38.0	20.1	0.00e+00	0	41	0	640679936	44	4039
2026-01-25 05:51:45.86	346.97	14.18	-36.8	-37.9	20.3	0.00e+00	0	41	0	648019968	44	3975
2026-01-25 05:51:46.86	346.80	14.24	-36.8	-37.8	20.3	0.00e+00	0	41	0	655360000	44	3943
2026-01-25 05:51:47.86	346.63	14.30	-36.8	-37.8	20.3	0.00e+00	0	41	0	662700032	44	3941
2026-01-25 05:51:48.86	346.46	14.36	-36.7	-37.7	20.4	0.00e+00	0	41	0	670040064	44	3905
2026-01-25 05:51:49.86	346.29	14.42	-36.7	-37.8	20.4	0.00e+00	0	41	0	677380096	44	3927
2026-01-25 05:51:50.86	346.12	14.48	-36.6	-37.7	20.4	0.00e+00	0	41	0	683671552	44	3903
2026-01-25 05:51:51.86	345.95	14.54	-36.6	-37.7	20.4	0.00e+00	0	41	0	691011584	44	3899
2026-01-25 05:51:52.85	345.78	14.60	-36.7	-37.8	20.4	0.00e+00	0	41	0	698351616	44	3926
2026-01-25 05:51:53.85	345.61	14.66	-36.7	-37.9	20.3	0.00e+00	0	41	0	705691648	44	3960
2026-01-25 05:51:54.86	345.44	14.72	-36.6	-37.7	20.4	0.00e+00	0	41	0	713031680	44	3890
2026-01-25 05:51:55.85	345.26	14.78	-36.5	-37.6	20.4	0.00e+00	0	41	0	720371712	43	4076
2026-01-25 05:51:56.85	345.09	14.84	-36.5	-37.6	20.4	0.00e+00	0	41	0	727711744	43	4094
2026-01-25 05:51:57.85	344.91	14.89	-36.6	-37.7	20.3	0.00e+00	0	41	0	735051776	43	4108
2026-01-25 05:51:58.86	344.74	14.95	-36.6	-37.7	20.3	0.00e+00	0	41	0	742391808	43	4120
2026-01-25 05:51:59.86	344.56	15.01	-36.5	-37.6	20.4	0.00e+00	0	41	0	748683264	43	4086
2026-01-25 05:52:00.86	344.38	15.07	-36.5	-37.6	20.4	0.00e+00	0	41	0	756023296	43	4072
2026-01-25 05:52:01.85	344.21	15.13	-36.5	-37.6	20.5	0.00e+00	0	41	0	763363328	43	4054
2026-01-25 05:52:02.85	344.03	15.19	-36.3	-37.3	20.7	0.00e+00	0	41	0	770703360	43	3958
2026-01-25 05:52:03.86	343.85	15.25	-36.3	-37.3	20.7	0.00e+00	0	42	0	778043392	43	3934
2026-01-25 05:52:04.86	343.67	15.30	-36.1	-37.2	20.8	0.00e+00	0	41	0	785383424	43	3876
2026-01-25 05:52:05.86	343.48	15.36	-36.0	-37.1	20.9	0.00e+00	0	41	0	792723456	42	4075
2026-01-25 05:52:06.86	343.30	15.42	-36.0	-37.0	21.0	0.00e+00	0	41	0	800063488	42	4046
2026-01-25 05:52:07.86	343.12	15.48	-36.0	-37.0	21.0	0.00e+00	0	41	0	806354944	42	4036
2026-01-25 05:52:08.85	342.94	15.54	-36.1	-37.1	20.9	0.00e+00	0	41	0	813694976	42	4068
2026-01-25 05:52:09.85	342.76	15.59	-36.1	-37.1	20.9	0.00e+00	0	41	0	821035008	42	4060
2026-01-25 05:52:10.86	342.57	15.65	-36.0	-37.0	21.0	0.00e+00	0	41	0	828375040	42	4014
2026-01-25 05:52:11.85	342.39	15.71	-36.1	-37.1	20.9	0.00e+00	0	42	0	835715072	42	4077
2026-01-25 05:52:12.85	342.20	15.76	-36.0	-37.0	21.0	0.00e+00	0	41	0	843055104	42	4027
2026-01-25 05:52:13.86	342.01	15.82	-36.1	-37.0	21.0	0.00e+00	0	41	0	850395136	42	4051
2026-01-25 05:52:14.86	341.82	15.88	-36.0	-37.0	21.0	0.00e+00	0	41	0	857735168	42	4021
2026-01-25 05:52:15.86	341.64	15.93	-35.9	-36.9	21.1	0.00e+00	0	41	0	865075200	42	3976
2026-01-25 05:52:16.87	341.45	15.99	-35.8	-36.9	21.2	0.00e+00	0	41	0	871366656	42	3965
2026-01-25 05:52:17.87	341.26	16.05	-35.9	-36.9	21.1	0.00e+00	0	41	0	878706688	42	3967
2026-01-25 05:52:18.87	341.07	16.10	-35.8	-36.8	21.2	0.00e+00	0	41	0	886046720	42	3925
2026-01-25 05:52:19.87	340.88	16.16	-35.7	-36.7	21.3	0.00e+00	0	41	0	893386752	42	3902
2026-01-25 05:52:20.87	340.68	16.21	-35.7	-36.6	21.4	0.00e+00	0	41	0	900726784	42	3864
2026-01-25 05:52:21.87	340.49	16.27	-35.7	-36.6	21.4	0.00e+00	0	41	0	908066816	42	3853
2026-01-25 05:52:22.87	340.30	16.32	-35.6	-36.6	21.4	0.00e+00	0	41	0	915406848	41	4060
2026-01-25 05:52:23.87	340.10	16.38	-35.6	-36.5	21.4	0.00e+00	0	41	0	922746880	41	4031
2026-01-25 05:52:24.87	339.91	16.43	-35.6	-36.5	21.4	0.00e+00	0	41	0	930086912	41	4031
2026-01-25 05:52:25.87	339.71	16.49	-35.6	-36.6	21.4	0.00e+00	0	41	0	936378368	41	4062
2026-01-25 05:52:26.87	339.52	16.54	-35.6	-36.5	21.4	0.00e+00	0	41	0	943718400	41	4051
2026-01-25 05:52:27.87	339.32	16.59	-35.6	-36.5	21.4	0.00e+00	0	41	0	951058432	41	4039
2026-01-25 05:52:28.88	339.12	16.65	-35.5	-36.5	21.5	0.00e+00	0	41	0	958398464	41	4021
2026-01-25 05:52:29.87	338.93	16.70	-35.6	-36.5	21.5	0.00e+00	0	41	0	965738496	41	4022
2026-01-25 05:52:30.87	338.73	16.75	-35.5	-36.4	21.5	0.00e+00	0	41	0	973078528	41	3996
2026-01-25 05:52:31.87	338.53	16.81	-35.5	-36.4	21.6	0.00e+00	0	41	0	980418560	41	3980
2026-01-25 05:52:32.86	338.33	16.86	-35.5	-36.4	21.6	0.00e+00	0	41	0	987758592	41	3975
2026-01-25 05:52:33.87	338.13	16.91	-35.5	-36.4	21.5	0.00e+00	0	41	0	994050048	41	3990
2026-01-25 05:52:34.87	337.93	16.96	-35.5	-36.5	21.5	0.00e+00	0	41	0	1001390080	41	4012
2026-01-25 05:52:35.87	337.72	17.02	-35.6	-36.5	21.5	0.00e+00	0	41	0	1008730112	41	4028
2026-01-25 05:52:36.87	337.52	17.07	-35.6	-36.5	21.4	0.00e+00	0	41	0	1016070144	41	4045
2026-01-25 05:52:37.87	337.32	17.12	-35.6	-36.6	21.4	0.00e+00	0	41	0	1023410176	41	4055
2026-01-25 05:52:38.87	337.11	17.17	-35.7	-36.6	21.3	0.00e+00	0	41	0	1030750208	41	4091
2026-01-25 05:52:39.87	336.91	17.22	-35.7	-36.7	21.3	0.00e+00	0	41	0	1038090240	41	4110
2026-01-25 05:52:40.87	336.70	17.27	-35.8	-36.8	21.3	0.00e+00	0	41	0	1045430272	41	4149
2026-01-25 05:52:41.87	336.49	17.32	-35.7	-36.6	21.4	0.00e+00	0	41	0	1052770304	41	4073
2026-01-25 05:52:42.87	336.29	17.37	-35.7	-36.6	21.3	0.00e+00	0	41	0	1059061760	41	4088
2026-01-25 05:52:43.88	336.08	17.42	-35.6	-36.5	21.4	0.00e+00	0	41	0	1066401792	41	4037
2026-01-25 05:52:44.87	335.87	17.47	-35.6	-36.5	21.4	0.00e+00	0	41	0	1073741824	41	4036
2026-01-25 05:52:45.88	335.66	17.52	-35.4	-36.4	21.6	0.00e+00	0	42	0	1081081856	41	3964
2026-01-25 05:52:46.88	335.45	17.57	-35.3	-36.2	21.7	0.00e+00	0	41	0	1088421888	41	3911
2026-01-25 05:52:47.88	335.24	17.62	-35.3	-36.2	21.7	0.00e+00	0	41	0	1095761920	41	3911
2026-01-25 05:52:48.88	335.03	17.67	-35.2	-36.2	21.8	0.00e+00	0	41	0	1103101952	41	3879
2026-01-25 05:52:49.89	334.81	17.71	-35.2	-36.1	21.8	0.00e+00	0	41	0	1110441984	41	3858
2026-01-25 05:52:50.89	334.60	17.76	-35.3	-36.2	21.7	0.00e+00	0	41	0	1117782016	41	3913
2026-01-25 05:52:51.89	334.38	17.81	-35.2	-36.2	21.8	0.00e+00	0	41	0	1124073472	41	3879
2026-01-25 05:52:52.89	334.17	17.86	-35.3	-36.2	21.7	0.00e+00	0	42	0	1131413504	41	3904
2026-01-25 05:52:53.89	333.96	17.90	-35.3	-36.3	21.7	0.00e+00	0	41	0	1138753536	41	3927
2026-01-25 05:52:54.89	333.74	17.95	-35.2	-36.1	21.8	0.00e+00	0	41	0	1146093568	41	3853
2026-01-25 05:52:55.90	333.52	18.00	-35.2	-36.1	21.8	0.00e+00	0	41	0	1153433600	41	3848
2026-01-25 05:52:56.90	333.30	18.04	-35.2	-36.1	21.8	0.00e+00	0	41	0	1160773632	41	3849
2026-01-25 05:52:57.90	333.09	18.09	-35.3	-36.2	21.7	0.00e+00	0	41	0	1168113664	41	3904
2026-01-25 05:52:58.90	332.87	18.13	-35.3	-36.2	21.7	0.00e+00	0	41	0	1175453696	41	3902
2026-01-25 05:52:59.90	332.65	18.18	-35.3	-36.2	21.8	0.00e+00	0	42	0	1182793728	41	3888
2026-01-25 05:53:00.91	332.43	18.22	-35.3	-36.2	21.7	0.00e+00	0	41	0	1190133760	41	3907
2026-01-25 05:53:01.91	332.21	18.26	-35.4	-36.4	21.6	0.00e+00	0	42	0	1197473792	41	3964
2026-01-25 05:53:02.91	331.99	18.31	-35.4	-36.3	21.7	0.00e+00	0	42	0	1203765248	41	3946
2026-01-25 05:53:03.91	331.77	18.35	-35.3	-36.2	21.7	0.00e+00	0	41	0	1211105280	41	3889
2026-01-25 05:53:04.91	331.54	18.39	-35.2	-36.1	21.8	0.00e+00	0	41	0	1218445312	41	3844
2026-01-25 05:53:05.91	331.32	18.44	-35.2	-36.1	21.9	0.00e+00	0	41	0	1225785344	41	3845
2026-01-25 05:53:06.91	331.10	18.48	-35.2	-36.1	21.8	0.00e+00	0	41	0	1233125376	41	3848
2026-01-25 05:53:07.91	330.87	18.52	-35.0	-35.9	22.0	0.00e+00	0	41	0	1240465408	40	3965
2026-01-25 05:53:08.90	330.65	18.56	-35.0	-35.9	22.0	0.00e+00	0	41	0	1247805440	40	3995
2026-01-25 05:53:09.90	330.43	18.60	-35.0	-35.9	22.0	0.00e+00	0	42	0	1255145472	40	3983
2026-01-25 05:53:10.90	330.20	18.64	-34.9	-35.8	22.1	0.00e+00	0	41	0	1262485504	40	3948
2026-01-25 05:53:11.90	329.97	18.68	-35.0	-35.9	22.0	0.00e+00	0	41	0	1268776960	40	3995
2026-01-25 05:53:12.91	329.74	18.72	-34.9	-35.8	22.1	0.00e+00	0	41	0	1276116992	40	3957
2026-01-25 05:53:13.91	329.52	18.76	-34.8	-35.7	22.2	0.00e+00	0	41	0	1283457024	40	3905
2026-01-25 05:53:14.91	329.29	18.80	-34.8	-35.7	22.2	0.00e+00	0	41	0	1290797056	40	3912
2026-01-25 05:53:15.91	329.06	18.84	-34.8	-35.7	22.2	0.00e+00	0	42	0	1298137088	40	3883
2026-01-25 05:53:16.91	328.83	18.88	-34.8	-35.7	22.2	0.00e+00	0	42	0	1305477120	40	3876
2026-01-25 05:53:17.91	328.60	18.92	-34.7	-35.6	21.9	0.00e+00	0	42	0	1312817152	40	3858
2026-01-25 05:53:18.91	328.37	18.95	-34.7	-35.6	22.2	0.00e+00	0	41	0	1320157184	40	3862
2026-01-25 05:53:19.91	328.14	18.99	-34.7	-35.6	22.3	0.00e+00	0	42	0	1326448640	40	3855
2026-01-25 05:53:20.90	327.91	19.03	-34.6	-35.5	22.4	0.00e+00	0	42	0	1333788672	40	3821
2026-01-25 05:53:21.90	327.68	19.06	-34.7	-35.6	22.3	0.00e+00	0	41	0	1341128704	40	3855
2026-01-25 05:53:22.91	327.44	19.10	-34.7	-35.6	22.3	0.00e+00	0	42	0	1348468736	40	3837
2026-01-25 05:53:23.91	327.21	19.13	-34.7	-35.6	22.3	0.00e+00	0	42	0	1355808768	40	3850
2026-01-25 05:53:24.91	326.97	19.17	-34.6	-35.6	22.3	0.00e+00	0	42	0	1363148800	40	3831
2026-01-25 05:53:25.91	326.74	19.20	-34.6	-35.5	22.5	0.00e+00	0	41	0	1370488832	39	4027
2026-01-25 05:53:26.91	326.50	19.23	-34.6	-35.5	22.5	0.00e+00	0	41	0	1377828864	39	4045
2026-01-25 05:53:27.91	326.27	19.27	-34.6	-35.5	22.4	0.00e+00	0	41	0	1385168896	39	4042
2026-01-25 05:53:28.91	326.03	19.30	-34.6	-35.5	22.5	0.00e+00	0	42	0	1391460352	39	4007
2026-01-25 05:53:29.91	325.79	19.33	-34.6	-35.4	22.5	0.00e+00	0	42	0	1398800384	39	3985
2026-01-25 05:53:30.91	325.56	19.36	-34.6	-35.5	22.5	0.00e+00	0	41	0	1406140416	39	4010
2026-01-25 05:53:31.91	325.32	19.40	-34.6	-35.4	22.5	0.00e+00	0	42	0	1413480448	39	3994
2026-01-25 05:53:32.92	325.08	19.43	-34.6	-35.5	22.5	0.00e+00	0	41	0	1420820480	39	4020
2026-01-25 05:53:33.92	324.84	19.46	-34.7	-35.6	22.4	0.00e+00	0	42	0	1428160512	39	4063
2026-01-25 05:53:34.92	324.60	19.49	-34.7	-35.6	22.4	0.00e+00	0	41	0	1435500544	39	4086
2026-01-25 05:53:35.92	324.36	19.52	-34.8	-35.7	22.3	0.00e+00	0	41	0	1442840576	39	4123
2026-01-25 05:53:36.92	324.12	19.55	-34.9	-35.8	22.2	0.00e+00	0	42	0	1450180608	39	4152
2026-01-25 05:53:37.93	323.88	19.58	-34.9	-35.8	22.2	0.00e+00	0	42	0	1456472064	39	4181
2026-01-25 05:53:38.92	323.64	19.60	-35.0	-35.9	22.1	0.00e+00	0	42	0	1463812096	39	4204
2026-01-25 05:53:39.92	323.40	19.63	-34.9	-35.8	22.2	0.00e+00	0	42	0	1471152128	39	4174
2026-01-25 05:53:40.92	323.16	19.66	-35.0	-35.9	21.9	0.00e+00	0	42	0	1478492160	39	4227
2026-01-25 05:53:41.92	322.91	19.68	-34.9	-35.8	22.2	0.00e+00	0	42	0	1485832192	39	4187
2026-01-25 05:53:42.92	322.67	19.71	-34.8	-35.7	22.2	0.00e+00	0	42	0	1493172224	39	4135
2026-01-25 05:53:43.92	322.43	19.74	-34.9	-35.8	22.2	0.00e+00	0	42	0	1500512256	39	4148
2026-01-25 05:53:44.92	322.19	19.76	-34.8	-35.7	22.3	0.00e+00	0	41	0	1507852288	39	4107
2026-01-25 05:53:45.92	321.94	19.78	-34.8	-35.7	22.3	0.00e+00	0	41	0	1514143744	39	4135
2026-01-25 05:53:46.93	321.69	19.81	-35.0	-35.9	22.1	0.00e+00	0	42	0	1521483776	39	4197
2026-01-25 05:53:47.93	321.45	19.83	-34.8	-35.8	22.2	0.00e+00	0	42	0	1528823808	39	4147
2026-01-25 05:53:48.93	321.21	19.85	-34.7	-35.6	22.4	0.00e+00	0	42	0	1536163840	39	4085
2026-01-25 05:53:49.93	320.96	19.88	-34.6	-35.6	22.4	0.00e+00	0	41	0	1543503872	39	4056
2026-01-25 05:53:50.93	320.71	19.90	-34.7	-35.7	22.3	0.00e+00	0	42	0	1550843904	39	4100
2026-01-25 05:53:51.93	320.47	19.92	-34.6	-35.6	22.4	0.00e+00	0	42	0	1558183936	39	4055
2026-01-25 05:53:52.93	320.22	19.94	-34.7	-35.7	22.3	0.00e+00	0	42	0	1565523968	39	4107
2026-01-25 05:53:53.93	319.97	19.96	-34.7	-35.7	22.3	0.00e+00	0	42	0	1572864000	39	4099
2026-01-25 05:53:54.93	319.73	19.98	-34.7	-35.7	22.3	0.00e+00	0	42	0	1579155456	39	4100
2026-01-25 05:53:55.93	319.48	20.00	-34.7	-35.7	22.3	0.00e+00	0	42	0	1586495488	39	4114
2026-01-25 05:53:56.93	319.23	20.02	-34.7	-35.7	22.3	0.00e+00	0	42	0	1593835520	39	4121
2026-01-25 05:53:57.93	318.98	20.04	-34.7	-35.7	22.2	0.00e+00	0	42	0	1601175552	39	4143
2026-01-25 05:53:58.93	318.74	20.05	-34.5	-35.6	22.2	0.00e+00	0	42	0	1608515584	39	4086
2026-01-25 05:53:59.94	318.48	20.07	-34.4	-35.6	22.2	0.00e+00	0	42	0	1615855616	39	4054
2026-01-25 05:54:00.93	318.24	20.09	-34.4	-35.5	22.3	0.00e+00	0	41	0	1623195648	39	4026
2026-01-25 05:54:01.94	317.99	20.10	-34.4	-35.5	22.3	0.00e+00	0	42	0	1630535680	39	4047
2026-01-25 05:54:02.93	317.74	20.12	-34.4	-35.5	22.2	0.00e+00	0	42	0	1637875712	39	4044
2026-01-25 05:54:03.94	317.49	20.13	-34.4	-35.5	22.3	0.00e+00	0	41	0	1644167168	39	4026
2026-01-25 05:54:04.94	317.24	20.15	-34.4	-35.5	22.2	0.00e+00	0	42	0	1651507200	39	4044
2026-01-25 05:54:05.94	316.99	20.16	-34.3	-35.5	22.2	0.00e+00	0	42	0	1658847232	39	4050
2026-01-25 05:54:06.94	316.74	20.17	-34.4	-35.6	22.3	0.00e+00	0	41	0	1666187264	39	4062
2026-01-25 05:54:07.94	316.48	20.19	-34.4	-35.6	22.3	0.00e+00	0	42	0	1673527296	39	4056
2026-01-25 05:54:08.94	316.23	20.20	-34.3	-35.5	22.2	0.00e+00	0	42	0	1680867328	39	4046
2026-01-25 05:54:09.94	315.98	20.21	-34.5	-35.7	22.1	0.00e+00	0	42	0	1688207360	39	4111
2026-01-25 05:54:10.94	315.73	20.22	-34.6	-35.7	22.1	0.00e+00	0	41	0	1695547392	39	4119
2026-01-25 05:54:11.94	315.48	20.23	-34.5	-35.7	22.1	0.00e+00	0	41	0	1701838848	39	4113
2026-01-25 05:54:12.94	315.23	20.24	-34.4	-35.6	22.1	0.00e+00	0	42	0	1709178880	39	4085
2026-01-25 05:54:13.94	314.98	20.25	-34.3	-35.6	22.1	0.00e+00	0	42	0	1716518912	39	4064
2026-01-25 05:54:14.94	314.72	20.26	-34.4	-35.7	22.0	0.00e+00	0	42	0	1723858944	39	4120
2026-01-25 05:54:15.94	314.47	20.26	-34.3	-35.6	22.0	0.00e+00	0	42	0	1731198976	39	4093
2026-01-25 05:54:16.95	314.22	20.27	-34.5	-35.7	22.0	0.00e+00	0	42	0	1738539008	39	4135
2026-01-25 05:54:17.95	313.97	20.28	-34.5	-35.6	22.2	0.00e+00	0	42	0	1745879040	39	4079
2026-01-25 05:54:18.95	313.71	20.28	-34.5	-35.6	22.2	0.00e+00	0	42	0	1753219072	39	4074
2026-01-25 05:54:19.95	313.46	20.29	-34.6	-35.7	22.2	0.00e+00	0	42	0	1760559104	39	4110
2026-01-25 05:54:20.95	313.21	20.29	-34.3	-35.4	22.4	0.00e+00	0	42	0	1767899136	39	3985
2026-01-25 05:54:21.95	312.96	20.30	-34.3	-35.5	22.2	0.00e+00	0	42	0	1775239168	39	4006
2026-01-25 05:54:22.95	312.70	20.30	-34.2	-35.4	22.3	0.00e+00	0	42	0	1782579200	39	3971
2026-01-25 05:54:23.95	312.45	20.31	-34.5	-35.5	22.4	0.00e+00	0	42	0	1788870656	39	4032
2026-01-25 05:54:24.95	312.20	20.31	-34.4	-35.4	22.4	0.00e+00	0	42	0	1796210688	39	3986
2026-01-25 05:54:25.95	311.94	20.31	-34.6	-35.5	22.4	0.00e+00	0	42	0	1803550720	39	4032
2026-01-25 05:54:26.95	311.69	20.31	-34.6	-35.5	22.4	0.00e+00	0	41	0	1810890752	39	4040
2026-01-25 05:54:27.95	311.44	20.31	-34.5	-35.5	22.4	0.00e+00	0	41	0	1818230784	39	4022
2026-01-25 05:54:28.95	311.19	20.31	-34.5	-35.5	22.4	0.00e+00	0	42	0	1825570816	39	4012
2026-01-25 05:54:29.95	310.93	20.31	-34.7	-35.6	22.4	0.00e+00	0	42	0	1832910848	39	4068
2026-01-25 05:54:30.95	310.68	20.31	-34.5	-35.4	22.5	0.00e+00	0	42	0	1840250880	39	3997
2026-01-25 05:54:31.95	310.43	20.31	-34.5	-35.4	22.5	0.00e+00	0	41	0	1847590912	39	4003
2026-01-25 05:54:32.95	310.17	20.31	-34.6	-35.5	22.4	0.00e+00	0	42	0	1853882368	39	4044
2026-01-25 05:54:33.95	309.92	20.30	-34.6	-35.5	22.5	0.00e+00	0	41	0	1861222400	39	4015
2026-01-25 05:54:34.96	309.67	20.30	-34.6	-35.5	22.4	0.00e+00	0	41	0	1868562432	39	4049
2026-01-25 05:54:35.96	309.41	20.30	-34.5	-35.4	22.6	0.00e+00	0	42	0	1875902464	39	3989
2026-01-25 05:54:36.96	309.16	20.29	-34.5	-35.4	22.6	0.00e+00	0	42	0	1883242496	39	3978
2026-01-25 05:54:37.96	308.91	20.29	-34.6	-35.4	22.6	0.00e+00	0	41	0	1890582528	39	3987
2026-01-25 05:54:38.96	308.65	20.28	-34.5	-35.4	22.6	0.00e+00	0	42	0	1897922560	39	3971
2026-01-25 05:54:39.96	308.40	20.28	-34.5	-35.4	22.6	0.00e+00	0	41	0	1905262592	39	3971
2026-01-25 05:54:40.95	308.15	20.27	-34.6	-35.5	22.5	0.00e+00	0	41	0	1911554048	39	4008
2026-01-25 05:54:41.96	307.90	20.26	-34.7	-35.5	22.5	0.00e+00	0	41	0	1918894080	39	4035
2026-01-25 05:54:42.96	307.65	20.25	-34.8	-35.7	22.3	0.00e+00	0	42	0	1926234112	39	4114
2026-01-25 05:54:43.96	307.39	20.24	-34.8	-35.6	22.3	0.00e+00	0	41	0	1933574144	39	4096
2026-01-25 05:54:44.95	307.14	20.24	-34.7	-35.6	22.4	0.00e+00	0	41	0	1940914176	39	4067
2026-01-25 05:54:45.95	306.89	20.23	-34.7	-35.6	22.4	0.00e+00	0	42	0	1948254208	39	4060
2026-01-25 05:54:46.95	306.64	20.22	-34.6	-35.5	22.5	0.00e+00	0	42	0	1955594240	39	4024
2026-01-25 05:54:47.95	306.39	20.20	-34.6	-35.5	22.5	0.00e+00	0	41	0	1962934272	39	4006
2026-01-25 05:54:48.95	306.14	20.19	-34.4	-35.3	22.7	0.00e+00	0	42	0	1970274304	39	3919
2026-01-25 05:54:49.95	305.89	20.18	-34.5	-35.4	22.4	0.00e+00	0	41	0	1976565760	39	3989
2026-01-25 05:54:50.95	305.64	20.17	-34.5	-35.4	22.5	0.00e+00	0	42	0	1983905792	39	3990
2026-01-25 05:54:51.95	305.39	20.16	-34.6	-35.5	22.5	0.00e+00	0	42	0	1991245824	39	4025
2026-01-25 05:54:52.94	305.14	20.14	-34.7	-35.6	22.4	0.00e+00	0	42	0	1998585856	39	4079
2026-01-25 05:54:53.95	304.88	20.13	-34.7	-35.6	22.4	0.00e+00	0	41	0	2005925888	39	4075
2026-01-25 05:54:54.95	304.63	20.11	-34.8	-35.6	22.4	0.00e+00	0	41	0	2012217344	39	4097
2026-01-25 05:54:55.95	304.39	20.10	-34.7	-35.5	22.4	0.00e+00	0	42	0	2020605952	39	4040
2026-01-25 05:54:56.95	304.14	20.08	-34.6	-35.5	22.5	0.00e+00	0	42	0	2027945984	39	4031
2026-01-25 05:54:57.96	303.88	20.06	-34.6	-35.5	22.5	0.00e+00	0	42	0	2034237440	39	4034
2026-01-25 05:54:58.96	303.64	20.05	-34.6	-35.5	22.5	0.00e+00	0	42	0	2041577472	39	4031
2026-01-25 05:54:59.96	303.39	20.03	-34.4	-35.2	22.8	0.00e+00	0	42	0	2048917504	39	3894
2026-01-25 05:55:00.96	303.14	20.01	-34.4	-35.3	22.7	0.00e+00	0	42	0	2056257536	39	3914
2026-01-25 05:55:01.96	302.89	19.99	-34.5	-35.3	22.6	0.00e+00	0	42	0	2063597568	39	3950
2026-01-25 05:55:02.95	302.64	19.97	-34.5	-35.3	22.6	0.00e+00	0	41	0	2070937600	39	3953
2026-01-25 05:55:03.95	302.40	19.95	-34.7	-35.5	22.5	0.00e+00	0	42	0	2078277632	39	4030
2026-01-25 05:55:04.96	302.15	19.93	-34.7	-35.5	22.4	0.00e+00	0	42	0	2085617664	39	4045
2026-01-25 05:55:05.96	301.90	19.91	-34.8	-35.7	22.4	0.00e+00	0	41	0	2092957696	39	4102
2026-01-25 05:55:06.96	301.65	19.89	-34.7	-35.6	22.4	0.00e+00	0	42	0	2099249152	39	4070
2026-01-25 05:55:07.96	301.41	19.87	-34.8	-35.6	22.4	0.00e+00	0	42	0	2106589184	39	4092
2026-01-25 05:55:08.97	301.16	19.85	-34.6	-35.5	22.5	0.00e+00	0	42	0	2113929216	39	4023
2026-01-25 05:55:09.97	300.91	19.82	-34.6	-35.5	22.5	0.00e+00	0	42	0	2121269248	39	4015
2026-01-25 05:55:10.97	300.67	19.80	-34.5	-35.4	22.6	0.00e+00	0	42	0	2128609280	39	3960
2026-01-25 05:55:11.97	300.43	19.78	-34.4	-35.3	22.7	0.00e+00	0	42	0	2135949312	39	3925
2026-01-25 05:55:12.97	300.18	19.75	-34.5	-35.4	22.6	0.00e+00	0	42	0	2143289344	39	3963
2026-01-25 05:55:13.97	299.94	19.73	-34.6	-35.5	22.5	0.00e+00	0	42	0	2150629376	39	4006
2026-01-25 05:55:14.97	299.69	19.70	-34.8	-35.6	22.4	0.00e+00	0	42	0	2157969408	39	4078
2026-01-25 05:55:15.97	299.45	19.67	-34.8	-35.7	22.3	0.00e+00	0	42	0	2164260864	39	4120
2026-01-25 05:55:16.98	299.21	19.65	-34.9	-35.7	22.3	0.00e+00	0	42	0	2171600896	39	4134
2026-01-25 05:55:17.98	298.96	19.62	-34.7	-35.5	22.4	0.00e+00	0	42	0	2178940928	39	4041
2026-01-25 05:55:18.98	298.72	19.59	-34.8	-35.7	22.3	0.00e+00	0	42	0	2186280960	39	4103
2026-01-25 05:55:19.99	298.48	19.56	-34.7	-35.6	22.5	0.00e+00	0	42	0	2193620992	39	4053
2026-01-25 05:55:20.98	298.24	19.54	-34.6	-35.5	22.5	0.00e+00	0	42	0	2200961024	39	4022
2026-01-25 05:55:21.98	298.00	19.51	-34.6	-35.4	22.6	0.00e+00	0	41	0	2208301056	39	3999
2026-01-25 05:55:22.97	297.76	19.48	-34.6	-35.4	22.6	0.00e+00	0	42	0	2215641088	39	3992
2026-01-25 05:55:23.97	297.52	19.45	-34.6	-35.5	22.5	0.00e+00	0	42	0	2221932544	39	4027
2026-01-25 05:55:24.97	297.28	19.42	-34.7	-35.5	22.5	0.00e+00	0	42	0	2229272576	39	4051
2026-01-25 05:55:25.96	297.05	19.38	-34.7	-35.5	22.3	0.00e+00	0	42	0	2236612608	39	4026
2026-01-25 05:55:26.96	296.81	19.35	-34.8	-35.7	22.4	0.00e+00	0	42	0	2243952640	39	4104
2026-01-25 05:55:27.96	296.57	19.32	-34.8	-35.6	22.4	0.00e+00	0	42	0	2251292672	39	4095
2026-01-25 05:55:28.96	296.33	19.29	-34.8	-35.7	22.4	0.00e+00	0	41	0	2258632704	39	4109
2026-01-25 05:55:29.96	296.10	19.26	-34.8	-35.6	22.4	0.00e+00	0	41	0	2265972736	39	4085
2026-01-25 05:55:30.96	295.86	19.22	-34.8	-35.7	22.4	0.00e+00	0	42	0	2273312768	39	4106
2026-01-25 05:55:31.96	295.63	19.19	-34.7	-35.6	22.5	0.00e+00	0	41	0	2280652800	39	4052
2026-01-25 05:55:32.96	295.39	19.15	-34.7	-35.5	22.4	0.00e+00	0	42	0	2286944256	39	4051
2026-01-25 05:55:33.97	295.15	19.12	-34.7	-35.5	22.5	0.00e+00	0	42	0	2294284288	39	4035
2026-01-25 05:55:34.97	294.92	19.08	-34.7	-35.6	22.4	0.00e+00	0	42	0	2301624320	39	4061
2026-01-25 05:55:35.97	294.69	19.05	-34.9	-35.8	22.2	0.00e+00	0	42	0	2308964352	39	4153
2026-01-25 05:55:36.97	294.45	19.01	-35.0	-35.9	22.2	0.00e+00	0	42	0	2316304384	39	4195
2026-01-25 05:55:37.97	294.22	18.97	-35.1	-36.0	22.1	0.00e+00	0	42	0	2323644416	39	4256
2026-01-25 05:55:38.97	293.99	18.94	-35.2	-36.1	22.0	0.00e+00	0	42	0	2330984448	39	4295
2026-01-25 05:55:39.97	293.76	18.90	-35.3	-36.2	21.9	0.00e+00	0	42	0	2338324480	39	4345
2026-01-25 05:55:40.97	293.53	18.86	-35.3	-36.1	21.8	0.00e+00	0	42	0	2345664512	40	4095
2026-01-25 05:55:41.97	293.30	18.82	-35.2	-36.1	21.9	0.00e+00	0	42	0	2351955968	40	4065
2026-01-25 05:55:42.98	293.07	18.79	-35.1	-36.0	22.0	0.00e+00	0	42	0	2359296000	40	4028
2026-01-25 05:55:43.98	292.84	18.75	-35.2	-36.1	21.9	0.00e+00	0	42	0	2366636032	40	4055
2026-01-25 05:55:44.98	292.61	18.71	-35.1	-36.0	21.9	0.00e+00	0	42	0	2373976064	40	4037
2026-01-25 05:55:45.97	292.39	18.67	-35.0	-35.9	22.0	0.00e+00	0	42	0	2381316096	40	3979
2026-01-25 05:55:46.98	292.16	18.63	-34.8	-35.6	22.0	0.00e+00	0	42	0	2388656128	40	3847
2026-01-25 05:55:47.98	291.93	18.59	-34.8	-35.7	22.2	0.00e+00	0	41	0	2395996160	40	3895
2026-01-25 05:55:48.98	291.70	18.54	-34.9	-35.8	22.1	0.00e+00	0	41	0	2403336192	40	3932
2026-01-25 05:55:49.98	291.48	18.50	-35.0	-35.8	22.1	0.00e+00	0	42	0	2409627648	40	3946
2026-01-25 05:55:50.98	291.25	18.46	-35.1	-35.9	22.0	0.00e+00	0	42	0	2416967680	40	4004
2026-01-25 05:55:51.98	291.03	18.42	-35.1	-36.0	22.0	0.00e+00	0	42	0	2424307712	40	4017
2026-01-25 05:55:52.97	290.81	18.38	-35.1	-36.0	22.0	0.00e+00	0	42	0	2431647744	40	4021
2026-01-25 05:55:53.97	290.59	18.33	-35.2	-36.1	21.9	0.00e+00	0	41	0	2438987776	40	4061
2026-01-25 05:55:54.97	290.36	18.29	-35.2	-36.0	21.9	0.00e+00	0	42	0	2446327808	40	4046
2026-01-25 05:55:55.97	290.14	18.25	-35.2	-36.0	21.9	0.00e+00	0	42	0	2453667840	40	4046
2026-01-25 05:55:56.97	289.92	18.20	-35.2	-36.1	21.8	0.00e+00	0	42	0	2461007872	40	4089
2026-01-25 05:55:57.97	289.70	18.16	-35.2	-36.1	21.9	0.00e+00	0	41	0	2468347904	40	4065
2026-01-25 05:55:58.97	289.48	18.11	-35.3	-36.1	21.8	0.00e+00	0	42	0	2474639360	40	4096
2026-01-25 05:55:59.96	289.27	18.07	-35.2	-36.0	21.9	0.00e+00	0	42	0	2481979392	40	4041
2026-01-25 05:56:00.96	289.05	18.02	-35.3	-36.1	21.8	0.00e+00	0	42	0	2489319424	40	4092
2026-01-25 05:56:01.96	288.83	17.98	-35.1	-36.0	22.0	0.00e+00	0	42	0	2496659456	40	4035
2026-01-25 05:56:02.96	288.61	17.93	-35.1	-36.0	22.0	0.00e+00	0	42	0	2503999488	40	4013
2026-01-25 05:56:03.96	288.40	17.88	-35.2	-36.0	22.0	0.00e+00	0	42	0	2511339520	40	4035
2026-01-25 05:56:04.96	288.18	17.84	-35.2	-36.1	21.9	0.00e+00	0	42	0	2518679552	40	4059
2026-01-25 05:56:05.96	287.97	17.79	-35.1	-36.0	22.0	0.00e+00	0	42	0	2526019584	40	4034
2026-01-25 05:56:06.96	287.75	17.74	-35.1	-36.0	22.0	0.00e+00	0	42	0	2532311040	40	4038
2026-01-25 05:56:07.96	287.54	17.69	-35.2	-36.0	21.9	0.00e+00	0	42	0	2539651072	40	4049
2026-01-25 05:56:08.97	287.32	17.65	-35.4	-36.3	21.7	0.00e+00	0	42	0	2546991104	40	4160
2026-01-25 05:56:09.97	287.11	17.60	-35.3	-36.1	21.8	0.00e+00	0	42	0	2554331136	40	4092
2026-01-25 05:56:10.97	286.90	17.55	-35.4	-36.2	21.7	0.00e+00	0	42	0	2561671168	40	4141
2026-01-25 05:56:11.97	286.69	17.50	-35.4	-36.2	21.7	0.00e+00	0	42	0	2569011200	40	4141
2026-01-25 05:56:12.97	286.48	17.45	-35.3	-36.2	21.8	0.00e+00	0	42	0	2576351232	40	4125
2026-01-25 05:56:13.98	286.27	17.40	-35.2	-36.0	21.9	0.00e+00	0	42	0	2583691264	40	4048
2026-01-25 05:56:14.98	286.06	17.35	-35.0	-35.9	22.0	0.00e+00	0	42	0	2591031296	40	3985
2026-01-25 05:56:15.98	285.85	17.30	-35.1	-36.0	22.0	0.00e+00	0	42	0	2597322752	40	4037
2026-01-25 05:56:16.98	285.65	17.25	-35.2	-36.1	21.9	0.00e+00	0	42	0	2604662784	40	4060
2026-01-25 05:56:17.98	285.44	17.20	-35.2	-36.1	21.9	0.00e+00	0	41	0	2612002816	40	4062
2026-01-25 05:56:18.98	285.23	17.15	-35.3	-36.2	21.8	0.00e+00	0	42	0	2619342848	40	4112
2026-01-25 05:56:19.98	285.03	17.10	-35.3	-36.2	21.8	0.00e+00	0	42	0	2626682880	40	4113
2026-01-25 05:56:20.98	284.82	17.04	-35.3	-36.2	21.7	0.00e+00	0	42	0	2634022912	40	4140
2026-01-25 05:56:21.98	284.62	16.99	-35.3	-36.2	21.8	0.00e+00	0	42	0	2641362944	40	4100
2026-01-25 05:56:22.98	284.42	16.94	-35.3	-36.2	21.8	0.00e+00	0	42	0	2648702976	40	4130
2026-01-25 05:56:23.99	284.21	16.89	-35.3	-36.2	21.8	0.00e+00	0	42	0	2656043008	40	4113
2026-01-25 05:56:24.99	284.01	16.83	-35.4	-36.3	21.7	0.00e+00	0	42	0	2662334464	40	4154
2026-01-25 05:56:25.99	283.81	16.78	-35.3	-36.2	21.8	0.00e+00	0	42	0	2669674496	40	4112
2026-01-25 05:56:26.99	283.61	16.73	-35.3	-36.2	21.8	0.00e+00	0	42	0	2677014528	40	4132
2026-01-25 05:56:27.99	283.41	16.67	-35.3	-36.1	21.8	0.00e+00	0	42	0	2684354560	40	4096
2026-01-25 05:56:28.99	283.21	16.62	-35.2	-36.1	21.9	0.00e+00	0	42	0	2691694592	40	4081
2026-01-25 05:56:29.99	283.01	16.57	-35.3	-36.1	21.8	0.00e+00	0	42	0	2699034624	40	4098
2026-01-25 05:56:30.99	282.82	16.51	-35.4	-36.3	21.7	0.00e+00	0	42	0	2706374656	40	4171
2026-01-25 05:56:31.99	282.62	16.46	-35.5	-36.4	21.6	0.00e+00	0	42	0	2713714688	40	4202
2026-01-25 05:56:32.99	282.42	16.40	-35.6	-36.5	21.5	0.00e+00	0	41	0	2720006144	40	4250
2026-01-25 05:56:33.99	282.23	16.35	-35.6	-36.5	21.4	0.00e+00	0	42	0	2727346176	40	4285
2026-01-25 05:56:34.99	282.03	16.29	-35.8	-36.7	21.3	0.00e+00	0	42	0	2734686208	41	4116
2026-01-25 05:56:35.99	281.84	16.24	-35.9	-36.8	21.2	0.00e+00	0	41	0	2742026240	41	4165
2026-01-25 05:56:36.99	281.65	16.18	-35.9	-36.9	21.2	0.00e+00	0	42	0	2749366272	41	4198
2026-01-25 05:56:37.99	281.45	16.13	-35.9	-36.8	21.3	0.00e+00	0	42	0	2756706304	41	4151
2026-01-25 05:56:38.99	281.26	16.07	-35.7	-36.6	21.2	0.00e+00	0	41	0	2764046336	41	4087
2026-01-25 05:56:39.99	281.07	16.02	-35.9	-36.8	21.2	0.00e+00	0	41	0	2771386368	41	4169
2026-01-25 05:56:40.99	280.88	15.96	-35.8	-36.7	21.3	0.00e+00	0	42	0	2778726400	41	4109
2026-01-25 05:56:41.99	280.69	15.90	-35.9	-36.8	21.2	0.00e+00	0	41	0	2785017856	41	4163
2026-01-25 05:56:42.98	280.51	15.85	-35.8	-36.7	21.3	0.00e+00	0	42	0	2792357888	41	4139
2026-01-25 05:56:43.98	280.32	15.79	-35.8	-36.7	21.3	0.00e+00	0	42	0	2799697920	41	4144
2026-01-25 05:56:44.98	280.13	15.73	-35.8	-36.7	21.3	0.00e+00	0	42	0	2807037952	41	4137
2026-01-25 05:56:45.98	279.94	15.68	-35.8	-36.7	21.3	0.00e+00	0	42	0	2814377984	41	4133
2026-01-25 05:56:46.98	279.76	15.62	-35.8	-36.8	21.3	0.00e+00	0	42	0	2821718016	41	4154
2026-01-25 05:56:47.97	279.57	15.56	-35.7	-36.6	21.4	0.00e+00	0	42	0	2829058048	41	4081
2026-01-25 05:56:48.96	279.39	15.51	-35.8	-36.7	21.3	0.00e+00	0	42	0	2836398080	41	4108
2026-01-25 05:56:49.97	279.21	15.45	-35.7	-36.6	21.4	0.00e+00	0	42	0	2843738112	41	4095
2026-01-25 05:56:50.97	279.02	15.39	-35.8	-36.7	21.3	0.00e+00	0	42	0	2850029568	41	4134
2026-01-25 05:56:51.97	278.84	15.33	-35.9	-36.8	21.2	0.00e+00	0	42	0	2857369600	41	4161
2026-01-25 05:56:52.97	278.66	15.27	-36.0	-36.9	21.1	0.00e+00	0	42	0	2864709632	41	4213
2026-01-25 05:56:53.97	278.48	15.22	-36.1	-37.0	21.0	0.00e+00	0	42	0	2872049664	41	4278
2026-01-25 05:56:54.97	278.30	15.16	-36.1	-37.1	20.9	0.00e+00	0	42	0	2879389696	41	4305
2026-01-25 05:56:55.97	278.12	15.10	-36.0	-37.0	21.0	0.00e+00	0	42	0	2886729728	41	4257
2026-01-25 05:56:56.97	277.94	15.04	-36.0	-37.0	21.1	0.00e+00	0	42	0	2894069760	41	4243
2026-01-25 05:56:57.97	277.76	14.98	-36.0	-36.9	21.1	0.00e+00	0	41	0	2901409792	41	4209
2026-01-25 05:56:58.97	277.58	14.92	-36.0	-36.9	21.1	0.00e+00	0	42	0	2907701248	41	4235
2026-01-25 05:56:59.97	277.41	14.86	-35.9	-36.9	21.1	0.00e+00	0	42	0	2915041280	41	4198
2026-01-25 05:57:00.97	277.23	14.80	-36.0	-36.9	21.1	0.00e+00	0	42	0	2922381312	41	4231
2026-01-25 05:57:01.97	277.06	14.74	-36.1	-37.0	21.0	0.00e+00	0	42	0	2929721344	41	4253
2026-01-25 05:57:02.97	276.88	14.68	-35.9	-36.8	21.2	0.00e+00	0	41	0	2937061376	41	4179
2026-01-25 05:57:03.97	276.71	14.63	-36.0	-36.9	21.1	0.00e+00	0	42	0	2944401408	41	4223
2026-01-25 05:57:04.97	276.54	14.57	-36.0	-36.9	21.1	0.00e+00	0	42	0	2951741440	41	4223
2026-01-25 05:57:05.97	276.36	14.51	-36.0	-36.9	21.1	0.00e+00	0	42	0	2959081472	41	4223
2026-01-25 05:57:06.97	276.19	14.45	-36.0	-36.9	21.1	0.00e+00	0	42	0	2966421504	41	4213
2026-01-25 05:57:07.97	276.02	14.39	-36.0	-36.9	21.1	0.00e+00	0	42	0	2972712960	41	4227
2026-01-25 05:57:08.97	275.85	14.33	-35.9	-36.8	21.1	0.00e+00	0	42	0	2980052992	41	4187
2026-01-25 05:57:09.97	275.68	14.26	-35.9	-36.8	21.2	0.00e+00	0	42	0	2987393024	41	4193
2026-01-25 05:57:10.97	275.51	14.20	-36.0	-36.9	21.1	0.00e+00	0	42	0	2994733056	41	4224
2026-01-25 05:57:11.97	275.34	14.14	-36.0	-36.9	21.1	0.00e+00	0	41	0	3002073088	41	4227
2026-01-25 05:57:12.97	275.18	14.08	-36.0	-36.9	21.0	0.00e+00	0	42	0	3009413120	41	4238
2026-01-25 05:57:13.96	275.01	14.02	-36.1	-37.0	21.0	0.00e+00	0	42	0	3016753152	41	4285
2026-01-25 05:57:14.96	274.84	13.96	-36.0	-37.0	21.0	0.00e+00	0	42	0	3024093184	41	4252
2026-01-25 05:57:15.97	274.68	13.90	-36.1	-37.0	21.0	0.00e+00	0	42	0	3031433216	41	4261
2026-01-25 05:57:16.97	274.51	13.84	-36.1	-37.1	20.9	0.00e+00	0	42	0	3037724672	41	4301
2026-01-25 05:57:17.97	274.35	13.78	-36.2	-37.2	20.8	0.00e+00	0	41	0	3045064704	41	4356
2026-01-25 05:57:18.97	274.19	13.72	-36.1	-37.1	20.9	0.00e+00	0	42	0	3052404736	41	4296
2026-01-25 05:57:19.97	274.02	13.66	-36.0	-37.0	21.0	0.00e+00	0	41	0	3059744768	41	4250
2026-01-25 05:57:20.97	273.86	13.60	-36.1	-37.0	20.9	0.00e+00	0	42	0	3067084800	41	4287
2026-01-25 05:57:21.97	273.70	13.53	-36.1	-37.1	20.9	0.00e+00	0	42	0	3074424832	41	4297
2026-01-25 05:57:22.97	273.54	13.47	-36.2	-37.1	20.8	0.00e+00	0	42	0	3081764864	41	4339
2026-01-25 05:57:23.97	273.38	13.41	-36.2	-37.2	20.8	0.00e+00	0	42	0	3089104896	41	4354
2026-01-25 05:57:24.97	273.22	13.35	-36.3	-37.3	20.7	0.00e+00	0	42	0	3095396352	42	4162
2026-01-25 05:57:25.97	273.06	13.29	-36.3	-37.3	20.7	0.00e+00	0	42	0	3102736384	42	4161
2026-01-25 05:57:26.98	272.90	13.23	-36.4	-37.3	20.7	0.00e+00	0	42	0	3110076416	42	4176
2026-01-25 05:57:27.98	272.74	13.16	-36.4	-37.4	20.6	0.00e+00	0	42	0	3117416448	42	4209
2026-01-25 05:57:28.98	272.59	13.10	-36.5	-37.5	20.5	0.00e+00	0	42	0	3124756480	42	4259
2026-01-25 05:57:29.97	272.43	13.04	-36.6	-37.5	20.5	0.00e+00	0	42	0	3132096512	42	4286
2026-01-25 05:57:30.97	272.28	12.98	-36.7	-37.6	20.4	0.00e+00	0	42	0	3139436544	42	4331
2026-01-25 05:57:31.97	272.12	12.92	-36.7	-37.6	20.4	0.00e+00	0	42	0	3146776576	42	4332
2026-01-25 05:57:32.97	271.97	12.86	-36.8	-37.8	20.2	0.00e+00	0	42	0	3154116608	43	4164
2026-01-25 05:57:33.97	271.81	12.79	-36.8	-37.8	20.2	0.00e+00	0	42	0	3160408064	43	4163
2026-01-25 05:57:34.97	271.66	12.73	-36.8	-37.8	20.2	0.00e+00	0	42	0	3167748096	43	4148
2026-01-25 05:57:35.97	271.51	12.67	-36.8	-37.8	20.2	0.00e+00	0	42	0	3175088128	43	4154
2026-01-25 05:57:36.97	271.36	12.61	-36.8	-37.7	20.3	0.00e+00	0	42	0	3182428160	43	4137
2026-01-25 05:57:37.96	271.21	12.55	-36.7	-37.7	20.3	0.00e+00	0	42	0	3189768192	43	4132
2026-01-25 05:57:38.96	271.06	12.48	-36.8	-37.7	20.2	0.00e+00	0	42	0	3197108224	43	4138
2026-01-25 05:57:39.96	270.91	12.42	-36.6	-37.5	20.4	0.00e+00	0	42	0	3204448256	43	4045
2026-01-25 05:57:40.96	270.76	12.36	-36.4	-37.4	20.5	0.00e+00	0	42	0	3211788288	43	3979
2026-01-25 05:57:41.96	270.61	12.30	-36.3	-37.3	20.7	0.00e+00	0	42	0	3218079744	43	3928
2026-01-25 05:57:42.96	270.47	12.23	-36.4	-37.4	20.6	0.00e+00	0	42	0	3225419776	43	3960
2026-01-25 05:57:43.95	270.32	12.17	-36.3	-37.2	20.7	0.00e+00	0	42	0	3232759808	43	3907
2026-01-25 05:57:44.95	270.17	12.11	-36.4	-37.4	20.6	0.00e+00	0	42	0	3240099840	43	3963
2026-01-25 05:57:45.95	270.03	12.05	-36.6	-37.5	20.4	0.00e+00	0	42	0	3247439872	43	4049
2026-01-25 05:57:46.95	269.88	11.99	-36.6	-37.5	20.4	0.00e+00	0	42	0	3254779904	43	4039
2026-01-25 05:57:47.96	269.74	11.92	-36.7	-37.6	20.3	0.00e+00	0	42	0	3262119936	43	4081
2026-01-25 05:57:48.95	269.59	11.86	-36.8	-37.8	20.2	0.00e+00	0	42	0	3269459968	43	4164
2026-01-25 05:57:49.95	269.45	11.80	-36.9	-37.9	20.1	0.00e+00	0	41	0	3276800000	43	4195
2026-01-25 05:57:50.96	269.31	11.74	-36.9	-37.9	20.1	0.00e+00	0	42	0	3283091456	43	4210
2026-01-25 05:57:51.95	269.17	11.67	-36.9	-37.8	20.1	0.00e+00	0	42	0	3290431488	43	4187
2026-01-25 05:57:52.96	269.02	11.61	-36.9	-37.8	20.1	0.00e+00	0	42	0	3297771520	43	4191
2026-01-25 05:57:53.96	268.88	11.55	-36.9	-37.9	20.0	0.00e+00	0	42	0	3305111552	43	4218
2026-01-25 05:57:54.96	268.74	11.49	-37.0	-38.0	20.0	0.00e+00	0	42	0	3312451584	43	4246
2026-01-25 05:57:55.96	268.60	11.42	-37.0	-38.0	20.0	0.00e+00	0	42	0	3319791616	43	4246
2026-01-25 05:57:56.96	268.46	11.36	-36.9	-37.9	20.1	0.00e+00	0	42	0	3327131648	43	4210
2026-01-25 05:57:57.96	268.33	11.30	-36.9	-37.9	20.1	0.00e+00	0	42	0	3334471680	43	4216
2026-01-25 05:57:58.96	268.19	11.23	-36.8	-37.8	20.2	0.00e+00	0	42	0	3341811712	43	4160
2026-01-25 05:57:59.96	268.05	11.17	-36.9	-37.9	20.1	0.00e+00	0	42	0	3348103168	43	4206
2026-01-25 05:58:00.96	267.91	11.11	-36.9	-37.9	20.1	0.00e+00	0	42	0	3355443200	43	4197
2026-01-25 05:58:01.96	267.78	11.05	-36.8	-37.8	20.1	0.00e+00	0	42	0	3362783232	43	4155
2026-01-25 05:58:02.97	267.64	10.98	-36.9	-37.9	20.0	0.00e+00	0	42	0	3370123264	43	4215
2026-01-25 05:58:03.97	267.51	10.92	-36.9	-37.9	20.1	0.00e+00	0	42	0	3377463296	43	4200
2026-01-25 05:58:04.97	267.37	10.86	-36.8	-37.8	20.2	0.00e+00	0	42	0	3384803328	43	4158
2026-01-25 05:58:05.97	267.24	10.80	-36.9	-37.9	20.1	0.00e+00	0	42	0	3392143360	43	4195
2026-01-25 05:58:06.97	267.11	10.73	-36.8	-37.8	20.1	0.00e+00	0	42	0	3399483392	43	4158
2026-01-25 05:58:07.97	266.97	10.67	-36.9	-37.9	20.0	0.00e+00	0	42	0	3405774848	43	4219
2026-01-25 05:58:08.97	266.84	10.61	-36.8	-37.7	20.2	0.00e+00	0	42	0	3413114880	43	4145
2026-01-25 05:58:09.97	266.71	10.55	-36.7	-37.7	20.2	0.00e+00	0	42	0	3420454912	43	4109
2026-01-25 05:58:10.97	266.58	10.48	-36.7	-37.7	20.2	0.00e+00	0	42	0	3427794944	43	4127
2026-01-25 05:58:11.97	266.45	10.42	-36.8	-37.7	20.2	0.00e+00	0	42	0	3435134976	43	4137
2026-01-25 05:58:12.97	266.32	10.36	-36.8	-37.8	20.1	0.00e+00	0	42	0	3442475008	43	4156
2026-01-25 05:58:13.97	266.19	10.30	-36.9	-37.9	20.0	0.00e+00	0	42	0	3449815040	43	4218
2026-01-25 05:58:14.97	266.06	10.23	-37.0	-38.0	19.9	0.00e+00	0	42	0	3457155072	43	4249
2026-01-25 05:58:15.97	265.93	10.17	-37.0	-38.0	19.8	0.00e+00	0	42	0	3464495104	43	4281
2026-01-25 05:58:16.97	265.81	10.11	-37.1	-38.1	19.7	0.00e+00	0	42	0	3470786560	43	4327
2026-01-25 05:58:17.96	265.68	10.05	-37.1	-38.2	19.7	0.00e+00	0	42	0	3478126592	43	4352
2026-01-25 05:58:18.96	265.55	9.99	-37.4	-38.4	19.6	0.00e+00	0	42	0	3485466624	44	4225
2026-01-25 05:58:19.95	265.43	9.92	-37.5	-38.6	19.5	0.00e+00	0	42	0	3492806656	44	4293
2026-01-25 05:58:20.95	265.30	9.86	-37.5	-38.6	19.5	0.00e+00	0	42	0	3500146688	45	4060
2026-01-25 05:58:21.94	265.18	9.80	-37.6	-38.7	19.4	0.00e+00	0	42	0	3507486720	45	4109
2026-01-25 05:58:22.94	265.06	9.74	-37.6	-38.6	19.4	0.00e+00	0	42	0	3513778176	45	4068
2026-01-25 05:58:23.94	264.93	9.68	-37.4	-38.4	19.5	0.00e+00	0	42	0	3521118208	45	3999
2026-01-25 05:58:24.94	264.81	9.61	-37.4	-38.5	19.5	0.00e+00	0	42	0	3528458240	45	4010
2026-01-25 05:58:25.93	264.69	9.55	-37.5	-38.5	19.4	0.00e+00	0	42	0	3535798272	45	4029
2026-01-25 05:58:26.93	264.57	9.49	-37.6	-38.6	19.4	0.00e+00	0	42	0	3543138304	45	4073
2026-01-25 05:58:27.93	264.45	9.43	-37.5	-38.5	19.4	0.00e+00	0	42	0	3550478336	45	4023
2026-01-25 05:58:28.93	264.32	9.37	-37.5	-38.5	19.4	0.00e+00	0	42	0	3557818368	45	4034
2026-01-25 05:58:29.93	264.20	9.30	-37.5	-38.6	19.4	0.00e+00	0	42	0	3565158400	45	4054
2026-01-25 05:58:30.93	264.08	9.24	-37.6	-38.7	19.3	0.00e+00	0	42	0	3571449856	45	4116
2026-01-25 05:58:31.93	263.96	9.18	-37.6	-38.7	19.2	0.00e+00	0	42	0	3578789888	45	4116
2026-01-25 05:58:32.93	263.85	9.12	-37.6	-38.7	19.2	0.00e+00	0	42	0	3586129920	45	4124
2026-01-25 05:58:33.92	263.73	9.06	-37.7	-38.8	19.1	0.00e+00	0	42	0	3593469952	45	4160
2026-01-25 05:58:34.92	263.61	9.00	-48.1	-56.1	3.9	1.70e-01	0	42	104	3599761408	66	9132
2026-01-25 05:58:35.91	263.49	8.93	-48.8	-59.4	3.8	8.46e-01	0	42	104	3599761408	67	12648
2026-01-25 05:58:36.91	263.38	8.87	-49.0	-59.7	3.8	8.47e-01	0	42	104	3599761408	67	12992
2026-01-25 05:58:37.91	263.26	8.81	-49.1	-59.9	3.8	8.46e-01	0	42	104	3599761408	67	13342
2026-01-25 05:58:38.90	263.15	8.75	-49.2	-60.0	3.8	8.46e-01	0	42	104	3599761408	67	13509
2026-01-25 05:58:39.90	263.03	8.69	-49.4	-60.2	3.8	8.47e-01	0	42	104	3599761408	68	13107
2026-01-25 05:58:40.90	262.92	8.63	-49.4	-60.3	3.8	8.46e-01	0	42	104	3599761408	68	13117
2026-01-25 05:58:41.90	262.80	8.56	-49.5	-60.3	3.8	8.48e-01	0	42	104	3599761408	68	13112
2026-01-25 05:58:42.90	262.69	8.50	-49.6	-60.3	3.8	8.47e-01	0	42	104	3599761408	68	13232
2026-01-25 05:58:43.90	262.57	8.44	-49.5	-60.3	3.8	8.46e-01	0	42	104	3599761408	68	13230
2026-01-25 05:58:44.89	262.46	8.38	-49.6	-60.3	3.8	8.47e-01	0	42	104	3599761408	68	13199
2026-01-25 05:58:45.89	262.35	8.32	-49.5	-60.3	3.8	8.46e-01	0	42	104	3599761408	68	13167
2026-01-25 05:58:46.89	262.24	8.26	-49.5	-60.3	3.8	8.47e-01	0	42	104	3599761408	68	13246
2026-01-25 05:58:47.88	262.13	8.20	-49.5	-60.4	3.8	8.46e-01	0	42	104	3599761408	68	13354
2026-01-25 05:58:48.88	262.02	8.14	-49.4	-60.4	3.8	8.46e-01	0	42	104	3599761408	68	13340
2026-01-25 05:58:49.88	261.91	8.08	-49.4	-60.4	3.8	8.47e-01	0	42	104	3599761408	68	13342
2026-01-25 05:58:50.88	261.80	8.01	-49.5	-60.4	3.8	8.47e-01	0	42	104	3599761408	68	13349
2026-01-25 05:58:51.87	261.69	7.95	-49.5	-60.4	3.8	8.46e-01	0	42	104	3599761408	68	13361
2026-01-25 05:58:52.87	261.58	7.89	-49.5	-60.4	3.8	8.46e-01	0	42	104	3599761408	68	13278
2026-01-25 05:58:53.86	261.47	7.83	-49.4	-60.4	3.8	8.46e-01	0	42	104	3599761408	68	13323
2026-01-25 05:58:54.86	261.36	7.77	-49.3	-60.3	3.8	8.48e-01	0	42	104	3599761408	68	13155
2026-01-25 05:58:55.86	261.25	7.71	-49.2	-60.3	3.8	8.47e-01	0	42	104	3599761408	68	13259
2026-01-25 05:58:56.85	261.15	7.65	-49.2	-60.3	3.8	8.47e-01	0	42	104	3599761408	68	13160
2026-01-25 05:58:57.85	261.04	7.59	-49.2	-60.3	3.8	8.47e-01	0	42	104	3599761408	68	13157
2026-01-25 05:58:58.85	260.94	7.53	-49.2	-60.3	3.8	8.48e-01	0	42	104	3599761408	68	13136
2026-01-25 05:58:59.85	260.83	7.47	-49.2	-60.3	3.8	8.48e-01	0	42	104	3599761408	68	13154
2026-01-25 05:59:00.85	260.72	7.41	-49.1	-60.2	3.8	8.48e-01	0	42	104	3599761408	68	13037
2026-01-25 05:59:01.84	260.62	7.35	-49.1	-60.3	3.8	8.47e-01	0	42	104	3599761408	68	13126
2026-01-25 05:59:02.84	260.52	7.29	-49.1	-60.2	3.8	8.47e-01	0	42	104	3599761408	68	13085
2026-01-25 05:59:03.84	260.41	7.23	-49.1	-60.3	3.8	8.46e-01	0	42	104	3599761408	68	13124
2026-01-25 05:59:04.83	260.31	7.17	-49.1	-60.2	3.8	8.46e-01	0	42	104	3599761408	68	12969
2026-01-25 05:59:05.83	260.21	7.11	-49.1	-60.2	3.8	8.47e-01	0	42	104	3599761408	68	13030
2026-01-25 05:59:06.83	260.10	7.05	-49.1	-60.2	3.8	8.47e-01	0	42	104	3599761408	68	13023
2026-01-25 05:59:07.82	260.00	6.99	-49.1	-60.2	3.8	8.47e-01	0	42	104	3599761408	68	13082
2026-01-25 05:59:08.82	259.90	6.93	-49.1	-60.2	3.8	8.47e-01	0	42	104	3599761408	68	13024
2026-01-25 05:59:09.81	259.80	6.87	-49.1	-60.3	3.8	8.46e-01	0	42	104	3599761408	68	13148
2026-01-25 05:59:10.81	259.70	6.81	-49.1	-60.3	3.8	8.47e-01	0	42	104	3599761408	68	13130
2026-01-25 05:59:11.80	259.60	6.75	-49.1	-60.2	3.8	8.46e-01	0	42	104	3599761408	68	13100
2026-01-25 05:59:12.80	259.50	6.69	-49.1	-60.2	3.8	8.47e-01	0	42	104	3599761408	68	13030
2026-01-25 05:59:13.80	259.40	6.63	-49.1	-60.2	3.8	8.47e-01	0	42	104	3599761408	68	13015
2026-01-25 05:59:14.80	259.30	6.57	-49.1	-60.2	3.8	8.46e-01	0	42	104	3599761408	68	13036
2026-01-25 05:59:15.80	259.20	6.51	-49.1	-60.2	3.8	8.46e-01	0	42	104	3599761408	68	12998
2026-01-25 05:59:16.79	259.10	6.45	-49.1	-60.2	3.8	8.47e-01	0	42	104	3599761408	68	13068
2026-01-25 05:59:17.79	259.00	6.39	-49.1	-60.2	3.8	8.48e-01	0	42	104	3599761408	68	13045
2026-01-25 05:59:18.79	258.91	6.33	-49.1	-60.2	3.8	8.46e-01	0	42	104	3599761408	68	13032
2026-01-25 05:59:19.79	258.81	6.27	-49.1	-60.2	3.8	8.48e-01	0	42	104	3599761408	68	12969
2026-01-25 05:59:20.79	258.71	6.21	-49.1	-60.3	
