passes_logs/2026/01/25/T1/T1__20260125_191428_FENGYUN_3G_rec.log

#Pass ID: 20260125_191428_FENGYUN 3G
#Satellite: FENGYUN 3G
#Configuration: FENGYUN 3G
#almurnet v.1.7.20251203
#Start time: 2026-01-25 19:14:29

#Version: 2.0.20230620
#Station: T1
#Location: 37.570604 lon 55.790049 lat
#TLE: 1 56232U 23055A   26025.14527328  .00046082  00000+0  69370-3 0  9997
#TLE: 2 56232  49.9948   3.5622 0004071  80.7231 279.4197 15.54300718157774

#Time	Az	El	Level	Level2	SNR	BER	BlckErr	Temp	State	Recorded	gain1	gain2
2026-01-25 19:14:29.21	250.00	5.07	-47.8	-67.0	3.8	8.46e-01	0	37	0	0	67	32295
2026-01-25 19:14:30.20	249.92	5.14	-47.8	-66.8	3.8	8.38e-01	0	37	104	0	67	31658
2026-01-25 19:14:31.20	249.83	5.22	-47.8	-66.8	3.8	8.47e-01	0	37	104	0	67	31591
2026-01-25 19:14:32.19	249.75	5.29	-47.8	-66.8	3.8	8.47e-01	0	37	104	0	67	31505
2026-01-25 19:14:33.19	249.67	5.37	-47.8	-66.7	3.8	8.47e-01	0	37	104	0	67	31325
2026-01-25 19:14:34.19	249.58	5.45	-47.8	-66.8	3.8	8.47e-01	0	37	104	0	67	31467
2026-01-25 19:14:35.18	249.49	5.52	-47.8	-66.7	3.8	8.46e-01	0	37	104	0	67	31335
2026-01-25 19:14:36.18	249.41	5.60	-47.8	-66.7	3.8	8.46e-01	0	37	104	0	67	31161
2026-01-25 19:14:37.17	249.32	5.68	-47.8	-66.6	3.8	8.47e-01	0	37	104	0	67	30940
2026-01-25 19:14:38.17	249.23	5.76	-47.8	-66.6	3.8	8.48e-01	0	38	104	0	67	30737
2026-01-25 19:14:39.16	249.14	5.84	-47.8	-66.5	3.8	8.48e-01	0	37	104	0	67	30607
2026-01-25 19:14:40.16	249.05	5.92	-47.8	-66.5	3.8	8.47e-01	0	38	104	0	67	30562
2026-01-25 19:14:41.16	248.96	6.00	-47.8	-66.6	3.8	8.46e-01	0	38	104	0	67	30793
2026-01-25 19:14:42.15	248.87	6.07	-47.8	-66.6	3.8	8.46e-01	0	38	104	0	67	30924
2026-01-25 19:14:43.15	248.78	6.15	-47.8	-66.7	3.8	8.46e-01	0	38	104	0	67	31212
2026-01-25 19:14:44.14	248.69	6.23	-47.8	-66.8	3.8	8.47e-01	0	38	104	0	67	31471
2026-01-25 19:14:45.14	248.59	6.32	-47.8	-66.8	3.8	8.47e-01	0	38	104	0	67	31523
2026-01-25 19:14:46.14	248.50	6.40	-47.8	-66.8	3.8	8.46e-01	0	38	104	0	67	31459
2026-01-25 19:14:47.13	248.40	6.48	-47.8	-66.6	3.8	8.46e-01	0	38	104	0	67	30940
2026-01-25 19:14:48.13	248.31	6.56	-47.8	-66.5	3.8	8.47e-01	0	38	104	0	67	30486
2026-01-25 19:14:49.12	248.21	6.64	-47.7	-66.4	3.8	8.47e-01	0	38	104	0	67	30367
2026-01-25 19:14:50.12	248.11	6.72	-47.8	-66.5	3.8	8.47e-01	0	38	104	0	67	30656
2026-01-25 19:14:51.11	248.02	6.80	-47.8	-66.7	3.8	8.47e-01	0	38	104	0	67	31372
2026-01-25 19:14:52.11	247.92	6.89	-47.8	-66.9	3.8	8.47e-01	0	38	104	0	67	32007
2026-01-25 19:14:53.11	247.82	6.97	-47.8	-66.9	3.8	8.46e-01	0	38	104	0	67	31886
2026-01-25 19:14:54.10	247.72	7.05	-47.8	-66.7	3.8	8.46e-01	0	38	104	0	67	31387
2026-01-25 19:14:55.10	247.62	7.14	-47.7	-66.5	3.8	8.46e-01	0	38	104	0	67	30602
2026-01-25 19:14:56.09	247.52	7.22	-47.8	-66.4	3.8	8.47e-01	0	38	104	0	67	30049
2026-01-25 19:14:57.09	247.41	7.31	-47.7	-66.2	3.8	8.48e-01	0	38	104	0	67	29594
2026-01-25 19:14:58.08	247.31	7.39	-47.8	-66.0	3.8	8.48e-01	0	38	104	0	67	28720
2026-01-25 19:14:59.08	247.20	7.48	-47.7	-65.3	3.8	8.46e-01	0	38	104	0	67	26757
2026-01-25 19:15:00.07	247.10	7.56	-47.7	-64.5	3.8	8.46e-01	0	38	104	0	67	24306
2026-01-25 19:15:01.07	246.99	7.65	-47.7	-63.4	4.2	8.46e-01	0	38	0	0	67	21499
2026-01-25 19:15:02.07	246.89	7.74	-47.7	-62.7	4.4	8.44e-01	0	38	0	0	67	19765
2026-01-25 19:15:03.06	246.78	7.82	-47.6	-62.4	4.5	8.31e-01	0	38	0	0	67	19113
2026-01-25 19:15:04.06	246.67	7.91	-47.6	-62.7	4.4	8.31e-01	0	38	0	0	67	19633
2026-01-25 19:15:05.05	246.56	8.00	-47.7	-63.5	4.2	8.22e-01	0	38	0	0	67	21516
2026-01-25 19:15:06.05	246.45	8.08	-47.7	-64.6	4.0	8.37e-01	0	38	104	0	67	24544
2026-01-25 19:15:07.04	246.34	8.17	-47.7	-65.4	3.8	8.44e-01	0	38	104	0	67	26873
2026-01-25 19:15:08.04	246.22	8.26	-47.7	-65.2	3.8	8.44e-01	0	38	104	0	67	26213
2026-01-25 19:15:09.03	246.11	8.35	-47.7	-64.6	3.8	8.47e-01	0	39	104	0	67	24674
2026-01-25 19:15:10.03	246.00	8.44	-47.7	-64.5	4.0	8.45e-01	0	38	104	0	67	24252
2026-01-25 19:15:11.03	245.88	8.53	-47.7	-65.2	3.8	8.45e-01	0	38	104	0	67	26367
2026-01-25 19:15:12.02	245.76	8.62	-47.7	-65.1	3.8	8.45e-01	0	39	104	0	67	25874
2026-01-25 19:15:13.02	245.64	8.71	-47.6	-61.8	4.7	8.45e-01	0	38	0	0	67	17794
2026-01-25 19:15:14.01	245.53	8.80	-47.2	-57.7	7.8	8.45e-01	0	38	0	0	66	11695
2026-01-25 19:15:15.01	245.41	8.89	-46.6	-54.4	11.2	3.93e-01	0	38	0	0	65	8471
2026-01-25 19:15:16.00	245.29	8.98	-46.0	-52.2	13.6	5.67e-03	0	39	0	0	64	6964
2026-01-25 19:15:17.00	245.16	9.08	-45.5	-50.8	15.1	5.67e-03	0	38	0	0	63	6335
2026-01-25 19:15:18.00	245.04	9.17	-45.8	-51.5	14.4	5.70e-06	0	39	0	0	62	7222
2026-01-25 19:15:19.00	244.92	9.26	-46.5	-54.1	11.7	5.70e-06	0	39	0	0	63	9203
2026-01-25 19:15:20.01	244.79	9.36	-45.3	-50.5	15.5	5.70e-06	0	38	0	0	61	6833
2026-01-25 19:15:21.01	244.66	9.45	-40.5	-43.0	22.7	2.05e-04	0	39	0	0	53	4558
2026-01-25 19:15:22.01	244.53	9.55	-47.1	-59.5	6.6	0.00e+00	0	39	0	0	64	16211
2026-01-25 19:15:23.00	244.41	9.64	-40.7	-43.3	22.2	0.00e+00	0	39	0	0	53	4734
2026-01-25 19:15:24.00	244.28	9.74	-39.7	-42.1	23.7	7.70e-02	0	39	0	0	51	4611
2026-01-25 19:15:25.00	244.14	9.84	-39.4	-41.8	24.0	0.00e+00	0	39	0	0	50	4726
2026-01-25 19:15:26.00	244.01	9.93	-39.5	-41.9	23.8	0.00e+00	0	39	0	0	50	4779
2026-01-25 19:15:27.00	243.88	10.03	-39.2	-41.6	24.2	0.00e+00	0	39	0	0	50	4599
2026-01-25 19:15:28.00	243.74	10.13	-38.9	-41.2	24.5	0.00e+00	0	39	0	0	49	4675
2026-01-25 19:15:29.00	243.61	10.22	-38.8	-41.0	24.7	0.00e+00	0	39	0	0	49	4595
2026-01-25 19:15:30.00	243.47	10.32	-38.8	-41.0	24.7	0.00e+00	0	39	0	0	49	4589
2026-01-25 19:15:31.00	243.33	10.42	-38.7	-40.9	24.8	0.00e+00	0	39	0	0	49	4536
2026-01-25 19:15:32.00	243.19	10.52	-38.6	-40.8	24.9	0.00e+00	0	39	0	0	49	4483
2026-01-25 19:15:33.00	243.05	10.62	-38.5	-40.7	25.0	0.00e+00	0	39	0	0	49	4415
2026-01-25 19:15:34.00	242.90	10.72	-38.5	-40.7	24.9	0.00e+00	0	39	0	0	48	4658
2026-01-25 19:15:35.00	242.76	10.82	-38.3	-40.5	25.1	0.00e+00	0	39	0	0	48	4596
2026-01-25 19:15:36.00	242.62	10.92	-38.3	-40.5	25.2	0.00e+00	0	39	0	0	48	4579
2026-01-25 19:15:37.00	242.47	11.03	-38.4	-40.6	25.1	0.00e+00	0	39	0	0	48	4600
2026-01-25 19:15:38.00	242.32	11.13	-38.4	-40.6	25.1	0.00e+00	0	39	0	0	48	4628
2026-01-25 19:15:39.00	242.17	11.23	-38.4	-40.6	25.1	0.00e+00	0	39	0	0	48	4639
2026-01-25 19:15:40.00	242.02	11.34	-38.4	-40.6	25.1	0.00e+00	0	39	0	0	48	4646
2026-01-25 19:15:41.01	241.87	11.44	-38.5	-40.7	25.0	0.00e+00	0	39	0	0	48	4704
2026-01-25 19:15:42.01	241.71	11.54	-38.5	-40.7	25.1	0.00e+00	0	39	0	0	48	4672
2026-01-25 19:15:43.01	241.56	11.65	-38.4	-40.5	25.2	0.00e+00	0	39	0	0	48	4586
2026-01-25 19:15:44.01	241.40	11.76	-38.4	-40.5	25.2	0.00e+00	0	39	0	0	48	4593
2026-01-25 19:15:45.01	241.24	11.86	-38.3	-40.5	25.2	0.00e+00	0	39	0	0	48	4566
2026-01-25 19:15:46.01	241.08	11.97	-38.1	-40.2	25.5	0.00e+00	0	39	0	0	48	4426
2026-01-25 19:15:47.01	240.92	12.07	-38.0	-40.1	25.6	0.00e+00	0	39	0	0	48	4351
2026-01-25 19:15:48.01	240.75	12.18	-37.9	-40.0	25.6	0.00e+00	0	39	0	0	47	4575
2026-01-25 19:15:49.01	240.59	12.29	-37.9	-40.0	25.7	0.00e+00	0	39	0	0	47	4566
2026-01-25 19:15:50.01	240.42	12.40	-37.9	-40.0	25.6	0.00e+00	0	39	0	0	47	4580
2026-01-25 19:15:51.01	240.26	12.51	-37.8	-39.9	25.7	0.00e+00	0	39	0	0	47	4516
2026-01-25 19:15:52.01	240.09	12.62	-37.8	-39.9	25.8	0.00e+00	0	39	0	0	47	4500
2026-01-25 19:15:53.01	239.91	12.73	-37.8	-39.9	25.8	0.00e+00	0	39	0	0	47	4509
2026-01-25 19:15:54.01	239.74	12.84	-37.7	-39.8	25.8	0.00e+00	0	39	0	0	47	4475
2026-01-25 19:15:55.01	239.57	12.95	-37.8	-39.9	25.8	0.00e+00	0	39	0	0	47	4523
2026-01-25 19:15:56.01	239.39	13.06	-38.0	-40.1	25.6	0.00e+00	0	39	0	0	47	4617
2026-01-25 19:15:57.01	239.21	13.17	-37.9	-40.1	25.6	0.00e+00	0	39	0	0	47	4614
2026-01-25 19:15:58.01	239.03	13.29	-38.0	-40.2	25.6	0.00e+00	0	39	0	0	47	4661
2026-01-25 19:15:59.01	238.85	13.40	-37.9	-40.1	25.6	0.00e+00	0	39	0	0	47	4614
2026-01-25 19:16:00.01	238.66	13.51	-37.9	-40.1	25.6	0.00e+00	0	39	0	0	47	4599
2026-01-25 19:16:01.02	238.48	13.63	-37.7	-39.8	25.8	0.00e+00	0	39	0	0	47	4485
2026-01-25 19:16:02.02	238.29	13.74	-37.4	-39.5	26.1	0.00e+00	0	39	0	0	46	4584
2026-01-25 19:16:03.02	238.10	13.86	-37.3	-39.4	26.2	0.00e+00	0	39	0	0	46	4505
2026-01-25 19:16:04.02	237.91	13.98	-37.4	-39.4	26.0	0.00e+00	0	39	0	0	46	4544
2026-01-25 19:16:05.02	237.71	14.09	-37.3	-39.3	26.2	0.00e+00	0	39	0	0	46	4482
2026-01-25 19:16:06.02	237.52	14.21	-37.3	-39.3	26.2	0.00e+00	0	39	0	0	46	4488
2026-01-25 19:16:07.02	237.32	14.33	-37.4	-39.4	26.2	0.00e+00	0	39	0	0	46	4534
2026-01-25 19:16:08.03	237.12	14.45	-37.5	-39.6	26.1	0.00e+00	0	39	0	0	46	4600
2026-01-25 19:16:09.02	236.92	14.57	-37.6	-39.7	26.0	0.00e+00	0	39	0	0	46	4667
2026-01-25 19:16:10.03	236.71	14.69	-37.6	-39.7	26.0	0.00e+00	0	39	0	0	46	4657
2026-01-25 19:16:11.03	236.51	14.81	-37.6	-39.7	26.0	0.00e+00	0	39	0	0	46	4660
2026-01-25 19:16:12.03	236.30	14.93	-37.4	-39.4	26.3	0.00e+00	0	39	0	0	46	4539
2026-01-25 19:16:13.03	236.09	15.05	-37.2	-39.3	26.4	0.00e+00	0	39	0	0	46	4461
2026-01-25 19:16:14.03	235.88	15.17	-37.2	-39.3	26.4	0.00e+00	0	39	0	0	46	4450
2026-01-25 19:16:15.03	235.66	15.29	-37.1	-39.1	26.5	0.00e+00	0	39	0	0	46	4380
2026-01-25 19:16:16.04	235.44	15.42	-37.0	-39.1	26.5	0.00e+00	0	39	0	0	46	4347
2026-01-25 19:16:17.04	235.22	15.54	-36.8	-38.8	26.8	0.00e+00	0	39	0	0	45	4469
2026-01-25 19:16:18.04	235.00	15.66	-36.7	-38.8	26.8	0.00e+00	0	39	0	0	45	4459
2026-01-25 19:16:19.04	234.78	15.79	-36.8	-38.8	26.8	0.00e+00	0	39	0	0	45	4470
2026-01-25 19:16:20.04	234.55	15.91	-36.8	-38.9	26.8	0.00e+00	0	39	0	0	45	4499
2026-01-25 19:16:21.04	234.32	16.04	-36.8	-38.9	26.7	0.00e+00	0	39	0	0	45	4513
2026-01-25 19:16:22.04	234.09	16.17	-36.9	-38.9	26.7	0.00e+00	0	39	0	0	45	4523
2026-01-25 19:16:23.04	233.86	16.29	-36.9	-39.0	26.7	0.00e+00	0	39	0	0	45	4548
2026-01-25 19:16:24.04	233.62	16.42	-36.6	-38.6	27.0	0.00e+00	0	39	0	0	45	4383
2026-01-25 19:16:25.04	233.38	16.55	-36.6	-38.6	27.0	0.00e+00	0	39	0	0	45	4342
2026-01-25 19:16:26.04	233.14	16.68	-36.4	-38.4	27.1	0.00e+00	0	39	0	0	44	4505
2026-01-25 19:16:27.04	232.90	16.81	-36.1	-38.1	27.4	0.00e+00	0	39	0	0	44	4347
2026-01-25 19:16:28.04	232.65	16.93	-36.2	-38.1	27.4	0.00e+00	0	39	0	0	44	4385
2026-01-25 19:16:29.04	232.40	17.06	-36.4	-38.4	27.2	0.00e+00	0	39	0	0	44	4495
2026-01-25 19:16:30.04	232.15	17.20	-36.5	-38.5	27.0	0.00e+00	0	39	0	0	44	4565
2026-01-25 19:16:31.04	231.89	17.33	-36.6	-38.6	27.0	0.00e+00	0	39	0	0	44	4613
2026-01-25 19:16:32.05	231.63	17.46	-36.5	-38.5	27.1	0.00e+00	0	39	0	0	44	4579
2026-01-25 19:16:33.05	231.37	17.59	-36.6	-38.6	27.0	0.00e+00	0	39	0	0	44	4602
2026-01-25 19:16:34.05	231.11	17.72	-36.5	-38.5	27.1	0.00e+00	0	39	0	0	44	4546
2026-01-25 19:16:35.05	230.84	17.86	-36.5	-38.5	27.1	0.00e+00	0	39	0	0	44	4560
2026-01-25 19:16:36.05	230.57	17.99	-36.4	-38.4	27.2	0.00e+00	0	39	0	0	44	4516
2026-01-25 19:16:37.05	230.30	18.12	-36.3	-38.2	27.2	0.00e+00	0	39	0	0	44	4430
2026-01-25 19:16:38.05	230.03	18.26	-36.3	-38.3	27.1	0.00e+00	0	39	0	0	44	4480
2026-01-25 19:16:39.06	229.75	18.40	-36.3	-38.3	27.2	0.00e+00	0	39	0	0	44	4462
2026-01-25 19:16:40.06	229.46	18.53	-36.3	-38.2	27.3	0.00e+00	0	39	0	0	44	4428
2026-01-25 19:16:41.06	229.18	18.67	-36.2	-38.1	27.4	0.00e+00	0	39	0	0	44	4380
2026-01-25 19:16:42.07	228.89	18.80	-35.8	-37.7	27.6	0.00e+00	0	39	0	0	43	4436
2026-01-25 19:16:43.07	228.60	18.94	-35.7	-37.7	27.6	0.00e+00	0	39	0	0	43	4404
2026-01-25 19:16:44.07	228.31	19.08	-35.7	-37.7	27.6	0.00e+00	0	39	0	0	43	4403
2026-01-25 19:16:45.07	228.01	19.22	-35.8	-37.8	27.5	0.00e+00	0	39	0	0	43	4466
2026-01-25 19:16:46.07	227.71	19.35	-36.0	-37.9	27.5	0.00e+00	0	39	0	0	43	4524
2026-01-25 19:16:47.07	227.40	19.49	-35.9	-37.9	27.5	0.00e+00	0	39	0	0	43	4503
2026-01-25 19:16:48.07	227.10	19.63	-35.9	-37.8	27.6	0.00e+00	0	39	0	0	43	4481
2026-01-25 19:16:49.07	226.78	19.77	-35.9	-37.8	27.6	0.00e+00	0	39	0	0	43	4473
2026-01-25 19:16:50.08	226.47	19.91	-35.8	-37.7	27.6	0.00e+00	0	39	0	0	43	4437
2026-01-25 19:16:51.08	226.15	20.05	-35.7	-37.6	27.7	0.00e+00	0	39	0	0	43	4380
2026-01-25 19:16:52.08	225.83	20.19	-35.3	-37.2	28.0	0.00e+00	0	39	0	0	42	4426
2026-01-25 19:16:53.08	225.50	20.33	-35.2	-37.1	28.1	0.00e+00	0	39	0	0	42	4371
2026-01-25 19:16:54.09	225.17	20.47	-35.2	-37.1	28.2	0.00e+00	0	39	0	0	42	4365
2026-01-25 19:16:55.09	224.84	20.61	-35.4	-37.3	28.0	0.00e+00	0	39	0	0	42	4456
2026-01-25 19:16:56.09	224.50	20.75	-35.5	-37.4	27.9	0.00e+00	0	39	0	0	42	4507
2026-01-25 19:16:57.09	224.16	20.89	-35.4	-37.3	27.9	0.00e+00	0	39	0	0	42	4485
2026-01-25 19:16:58.10	223.82	21.04	-35.5	-37.4	27.9	0.00e+00	0	39	0	0	42	4528
2026-01-25 19:16:59.10	223.47	21.18	-35.4	-37.3	28.0	0.00e+00	0	39	0	0	42	4482
2026-01-25 19:17:00.10	223.12	21.32	-35.4	-37.3	28.0	0.00e+00	0	39	0	0	42	4462
2026-01-25 19:17:01.10	222.76	21.46	-35.3	-37.2	28.0	0.00e+00	0	39	0	0	42	4431
2026-01-25 19:17:02.11	222.40	21.60	-35.1	-37.0	28.1	0.00e+00	0	39	0	0	42	4310
2026-01-25 19:17:03.11	222.04	21.74	-34.8	-36.7	28.5	0.00e+00	0	39	0	0	41	4411
2026-01-25 19:17:04.11	221.67	21.89	-34.8	-36.7	28.5	0.00e+00	0	39	0	0	41	4394
2026-01-25 19:17:05.11	221.30	22.03	-34.9	-36.8	28.3	0.00e+00	0	39	0	0	41	4491
2026-01-25 19:17:06.11	220.93	22.17	-35.0	-36.9	28.3	0.00e+00	0	39	0	0	41	4531
2026-01-25 19:17:07.11	220.55	22.31	-35.1	-37.0	28.2	0.00e+00	0	39	0	0	41	4583
2026-01-25 19:17:08.11	220.16	22.45	-35.2	-37.1	28.1	0.00e+00	0	39	0	0	41	4641
2026-01-25 19:17:09.11	219.78	22.59	-35.3	-37.3	27.9	0.00e+00	0	39	0	0	41	4706
2026-01-25 19:17:10.12	219.38	22.74	-35.3	-37.2	28.0	0.00e+00	0	39	0	0	41	4704
2026-01-25 19:17:11.12	218.99	22.88	-35.1	-37.0	28.2	0.00e+00	0	39	0	0	41	4580
2026-01-25 19:17:12.11	218.59	23.02	-35.0	-36.9	28.3	0.00e+00	0	39	0	0	41	4517
2026-01-25 19:17:13.11	218.19	23.16	-34.9	-36.9	28.4	0.00e+00	0	39	0	0	41	4494
2026-01-25 19:17:14.12	217.77	23.30	-34.5	-36.4	28.7	0.00e+00	0	39	0	0	41	4264
2026-01-25 19:17:15.12	217.36	23.44	-34.5	-36.4	28.7	0.00e+00	0	39	0	0	40	4507
2026-01-25 19:17:16.12	216.94	23.58	-34.4	-36.3	28.8	0.00e+00	0	39	0	0	40	4442
2026-01-25 19:17:17.12	216.52	23.72	-34.5	-36.4	28.7	0.00e+00	0	39	0	0	40	4505
2026-01-25 19:17:18.12	216.10	23.85	-34.6	-36.4	28.6	0.00e+00	0	39	0	0	40	4542
2026-01-25 19:17:19.12	215.66	23.99	-34.6	-36.5	28.5	0.00e+00	0	39	0	0	40	4588
2026-01-25 19:17:20.12	215.23	24.13	-34.6	-36.5	28.6	0.00e+00	0	39	0	0	40	4577
2026-01-25 19:17:21.12	214.79	24.27	-34.5	-36.4	28.7	0.00e+00	0	39	0	0	40	4503
2026-01-25 19:17:22.13	214.34	24.40	-34.6	-36.5	28.6	0.00e+00	0	39	0	0	40	4585
2026-01-25 19:17:23.13	213.89	24.54	-34.7	-36.6	28.6	0.00e+00	0	39	0	0	40	4618
2026-01-25 19:17:24.13	213.44	24.67	-34.8	-36.7	28.5	0.00e+00	0	39	0	0	40	4659
2026-01-25 19:17:25.13	212.98	24.81	-34.6	-36.5	28.6	0.00e+00	0	39	0	0	40	4574
2026-01-25 19:17:26.13	212.52	24.94	-34.7	-36.6	28.6	0.00e+00	0	39	0	0	40	4622
2026-01-25 19:17:27.13	212.06	25.07	-34.4	-36.3	28.8	0.00e+00	0	39	0	0	40	4456
2026-01-25 19:17:28.13	211.58	25.20	-34.4	-36.3	28.9	0.00e+00	0	39	0	0	40	4444
2026-01-25 19:17:29.13	211.11	25.33	-34.3	-36.2	28.9	0.00e+00	0	39	0	0	40	4429
2026-01-25 19:17:30.13	210.63	25.46	-34.3	-36.2	28.9	0.00e+00	0	39	0	0	40	4398
2026-01-25 19:17:31.14	210.14	25.59	-34.5	-36.3	28.8	0.00e+00	0	39	0	0	40	4486
2026-01-25 19:17:32.14	209.65	25.72	-34.4	-36.3	28.8	0.00e+00	0	39	0	0	40	4461
2026-01-25 19:17:33.14	209.16	25.84	-34.4	-36.3	28.7	0.00e+00	0	39	0	0	40	4474
2026-01-25 19:17:34.14	208.66	25.97	-34.3	-36.2	28.8	0.00e+00	0	39	0	0	40	4406
2026-01-25 19:17:35.15	208.15	26.09	-34.3	-36.1	28.9	0.00e+00	0	39	0	0	40	4372
2026-01-25 19:17:36.14	207.65	26.21	-34.3	-36.1	28.9	0.00e+00	0	39	0	0	40	4384
2026-01-25 19:17:37.14	207.14	26.33	-34.0	-35.9	29.1	0.00e+00	0	39	0	0	40	4273
2026-01-25 19:17:38.15	206.62	26.45	-34.2	-36.1	29.0	0.00e+00	0	39	0	0	40	4344
2026-01-25 19:17:39.15	206.10	26.56	-34.3	-36.2	28.9	0.00e+00	0	39	0	0	40	4421
2026-01-25 19:17:40.15	205.57	26.68	-34.2	-36.1	28.9	0.00e+00	0	39	0	0	40	4367
2026-01-25 19:17:41.15	205.04	26.79	-34.2	-36.1	29.0	0.00e+00	0	39	0	0	40	4347
2026-01-25 19:17:42.15	204.51	26.90	-34.1	-36.0	29.0	0.00e+00	0	39	0	0	40	4309
2026-01-25 19:17:43.15	203.97	27.01	-34.0	-35.9	29.2	0.00e+00	0	39	0	0	40	4258
2026-01-25 19:17:44.16	203.43	27.12	-33.8	-35.7	29.3	0.00e+00	0	39	0	0	39	4410
2026-01-25 19:17:45.16	202.88	27.23	-34.2	-36.0	29.1	0.00e+00	0	39	0	0	39	4574
2026-01-25 19:17:46.16	202.33	27.33	-34.2	-36.1	29.0	0.00e+00	0	39	0	0	39	4606
2026-01-25 19:17:47.16	201.78	27.43	-34.2	-36.0	29.0	0.00e+00	0	39	0	0	39	4586
2026-01-25 19:17:48.16	201.22	27.53	-33.9	-35.7	29.3	0.00e+00	0	39	0	0	39	4433
2026-01-25 19:17:49.16	200.66	27.63	-33.6	-35.4	29.5	0.00e+00	0	39	0	0	39	4291
2026-01-25 19:17:50.16	200.09	27.72	-33.9	-35.8	29.3	0.00e+00	0	39	0	0	39	4461
2026-01-25 19:17:51.16	199.52	27.81	-34.1	-36.0	29.1	0.00e+00	0	39	0	0	39	4556
2026-01-25 19:17:52.17	198.94	27.90	-34.3	-36.1	28.9	0.00e+00	0	39	0	0	39	4634
2026-01-25 19:17:53.17	198.37	27.99	-34.3	-36.1	29.0	0.00e+00	0	39	0	0	39	4645
2026-01-25 19:17:54.17	197.79	28.07	-34.0	-35.8	29.3	0.00e+00	0	39	0	0	39	4468
2026-01-25 19:17:55.18	197.20	28.16	-33.9	-35.7	29.2	0.00e+00	0	39	0	0	39	4435
2026-01-25 19:17:56.18	196.61	28.24	-33.7	-35.5	29.3	0.00e+00	0	39	0	0	39	4331
2026-01-25 19:17:57.18	196.02	28.31	-34.0	-35.9	28.5	0.00e+00	0	39	0	0	39	4507
2026-01-25 19:17:58.18	195.43	28.39	-34.1	-35.9	29.1	0.00e+00	0	39	0	0	39	4540
2026-01-25 19:17:59.18	194.83	28.46	-34.3	-36.2	29.0	0.00e+00	0	39	0	0	39	4677
2026-01-25 19:18:00.18	194.23	28.53	-34.0	-35.8	29.2	0.00e+00	0	39	0	0	39	4464
2026-01-25 19:18:01.18	193.63	28.59	-33.7	-35.6	29.4	0.00e+00	0	39	0	0	39	4346
2026-01-25 19:18:02.18	193.02	28.65	-34.0	-35.8	29.2	0.00e+00	0	39	0	0	39	4482
2026-01-25 19:18:03.18	192.42	28.71	-34.3	-36.2	29.0	0.00e+00	0	39	0	0	39	4660
2026-01-25 19:18:04.19	191.80	28.77	-34.5	-36.4	28.7	0.00e+00	0	39	0	0	39	4770
2026-01-25 19:18:05.19	191.19	28.82	-34.6	-36.5	28.6	0.00e+00	0	39	0	0	40	4578
2026-01-25 19:18:06.19	190.57	28.87	-34.9	-36.8	28.4	0.00e+00	0	39	0	0	40	4711
2026-01-25 19:18:07.19	189.96	28.92	-34.8	-36.7	28.5	0.00e+00	0	39	0	0	40	4672
2026-01-25 19:18:08.19	189.34	28.96	-34.6	-36.5	28.7	0.00e+00	0	39	0	0	40	4573
2026-01-25 19:18:09.19	188.72	29.00	-34.6	-36.5	28.7	0.00e+00	0	39	0	0	40	4597
2026-01-25 19:18:10.19	188.10	29.04	-34.6	-36.5	28.7	0.00e+00	0	39	0	0	40	4557
2026-01-25 19:18:11.19	187.47	29.07	-34.2	-36.1	29.0	0.00e+00	0	39	0	0	40	4346
2026-01-25 19:18:12.19	186.85	29.10	-34.2	-36.1	29.0	0.00e+00	0	39	0	0	40	4372
2026-01-25 19:18:13.19	186.22	29.13	-34.1	-35.9	29.1	0.00e+00	0	39	0	0	40	4279
2026-01-25 19:18:14.20	185.59	29.15	-33.9	-35.8	29.3	0.00e+00	0	39	0	0	39	4451
2026-01-25 19:18:15.20	184.96	29.17	-34.2	-36.0	29.1	0.00e+00	0	39	0	0	39	4576
2026-01-25 19:18:16.20	184.33	29.19	-34.5	-36.4	28.8	0.00e+00	0	39	0	0	39	4773
2026-01-25 19:18:17.20	183.70	29.20	-34.3	-36.2	29.0	0.00e+00	0	39	0	0	39	4657
2026-01-25 19:18:18.20	183.07	29.21	-34.3	-36.2	28.8	0.00e+00	0	39	0	0	39	4687
2026-01-25 19:18:19.21	182.43	29.22	-34.3	-36.2	28.9	0.00e+00	0	39	0	0	39	4671
2026-01-25 19:18:20.21	181.80	29.22	-34.1	-35.9	29.2	0.00e+00	0	39	0	0	39	4523
2026-01-25 19:18:21.21	181.17	29.22	-34.1	-35.9	29.2	0.00e+00	0	39	0	0	39	4543
2026-01-25 19:18:22.20	180.55	29.21	-34.4	-36.2	28.9	0.00e+00	0	39	0	0	39	4695
2026-01-25 19:18:23.21	179.91	29.20	-34.5	-36.4	28.8	0.00e+00	0	39	0	0	39	4785
2026-01-25 19:18:24.21	179.28	29.19	-34.4	-36.3	28.8	0.00e+00	0	39	0	0	39	4719
2026-01-25 19:18:25.19	178.66	29.18	-34.4	-36.3	28.8	0.00e+00	0	39	0	0	39	4737
2026-01-25 19:18:26.19	178.04	29.16	-34.4	-36.3	28.9	0.00e+00	0	39	0	0	39	4721
2026-01-25 19:18:27.20	177.40	29.14	-34.7	-36.5	28.6	0.00e+00	0	39	0	0	40	4598
2026-01-25 19:18:28.20	176.77	29.11	-34.2	-36.1	28.9	0.00e+00	0	39	0	0	40	4367
2026-01-25 19:18:29.20	176.15	29.08	-34.4	-36.2	28.9	0.00e+00	0	39	0	0	40	4427
2026-01-25 19:18:30.20	175.53	29.05	-34.2	-36.1	28.9	0.00e+00	0	39	0	0	40	4364
2026-01-25 19:18:31.20	174.90	29.02	-34.4	-36.2	28.9	0.00e+00	0	39	0	0	40	4441
2026-01-25 19:18:32.21	174.28	28.98	-34.6	-36.4	28.7	0.00e+00	0	39	0	0	40	4536
2026-01-25 19:18:33.21	173.66	28.94	-34.6	-36.4	28.3	0.00e+00	0	39	0	0	40	4543
2026-01-25 19:18:34.21	173.04	28.89	-34.2	-36.0	29.0	0.00e+00	0	39	0	0	40	4334
2026-01-25 19:18:35.21	172.42	28.84	-34.1	-36.0	28.9	0.00e+00	0	39	0	0	40	4319
2026-01-25 19:18:36.21	171.81	28.79	-34.2	-36.1	29.0	0.00e+00	0	39	0	0	39	4612
2026-01-25 19:18:37.21	171.20	28.74	-34.3	-36.2	28.8	0.00e+00	0	39	0	0	39	4695
2026-01-25 19:18:38.22	170.58	28.68	-34.5	-36.4	28.7	0.00e+00	0	39	0	0	39	4764
2026-01-25 19:18:39.22	169.98	28.62	-34.3	-36.1	28.9	0.00e+00	0	39	0	0	39	4650
2026-01-25 19:18:40.22	169.38	28.55	-34.2	-36.1	29.0	0.00e+00	0	39	0	0	39	4637
2026-01-25 19:18:41.22	168.77	28.48	-34.2	-36.0	28.9	0.00e+00	0	39	0	0	39	4593
2026-01-25 19:18:42.22	168.18	28.41	-34.1	-35.9	29.1	0.00e+00	0	39	0	0	39	4529
2026-01-25 19:18:43.22	167.58	28.34	-34.0	-35.8	29.2	0.00e+00	0	39	0	0	39	4476
2026-01-25 19:18:44.21	167.00	28.27	-34.3	-36.1	29.0	0.00e+00	0	39	0	0	39	4638
2026-01-25 19:18:45.21	166.41	28.19	-34.2	-36.1	29.0	0.00e+00	0	39	0	0	39	4632
2026-01-25 19:18:46.21	165.82	28.11	-33.9	-35.8	29.3	0.00e+00	0	39	0	0	39	4457
2026-01-25 19:18:47.21	165.24	28.03	-33.9	-35.7	29.3	0.00e+00	0	39	0	0	39	4438
2026-01-25 19:18:48.21	164.66	27.94	-33.9	-35.8	29.2	0.00e+00	0	39	0	0	39	4443
2026-01-25 19:18:49.21	164.09	27.85	-33.7	-35.5	29.4	0.00e+00	0	39	0	0	39	4338
2026-01-25 19:18:50.21	163.52	27.76	-33.8	-35.7	29.3	0.00e+00	0	39	0	0	39	4399
2026-01-25 19:18:51.21	162.95	27.67	-33.7	-35.5	29.4	0.00e+00	0	39	0	0	39	4318
2026-01-25 19:18:52.21	162.39	27.57	-33.6	-35.5	29.5	0.00e+00	0	39	0	0	39	4294
2026-01-25 19:18:53.22	161.82	27.47	-33.3	-35.2	29.6	0.00e+00	0	39	0	0	38	4420
2026-01-25 19:18:54.22	161.27	27.37	-33.4	-35.2	29.6	0.00e+00	0	39	0	0	38	4428
2026-01-25 19:18:55.22	160.72	27.27	-33.8	-35.6	29.3	0.00e+00	0	39	0	0	38	4643
2026-01-25 19:18:56.22	160.17	27.16	-34.1	-36.0	26.5	0.00e+00	0	39	0	0	38	4829
2026-01-25 19:18:57.22	159.62	27.06	-34.4	-36.3	28.8	0.00e+00	0	39	0	0	39	4724
2026-01-25 19:18:58.22	159.09	26.95	-34.4	-36.3	28.8	0.00e+00	0	39	0	0	39	4749
2026-01-25 19:18:59.23	158.55	26.84	-34.3	-36.2	28.8	0.00e+00	0	39	0	0	39	4695
2026-01-25 19:19:00.23	158.01	26.73	-34.0	-35.9	29.1	0.00e+00	0	39	0	0	39	4506
2026-01-25 19:19:01.22	157.49	26.61	-33.9	-35.8	29.1	0.00e+00	0	39	0	0	39	4478
2026-01-25 19:19:02.22	156.97	26.50	-33.8	-35.6	29.3	0.00e+00	0	39	0	0	39	4388
2026-01-25 19:19:03.22	156.45	26.38	-34.0	-35.8	29.2	0.00e+00	0	39	0	0	39	4473
2026-01-25 19:19:04.22	155.94	26.26	-34.1	-36.0	29.0	0.00e+00	0	39	0	0	39	4575
2026-01-25 19:19:05.23	155.43	26.14	-34.2	-36.1	29.0	0.00e+00	0	39	0	0	39	4636
2026-01-25 19:19:06.23	154.92	26.02	-34.5	-36.4	28.8	0.00e+00	0	39	0	0	39	4760
2026-01-25 19:19:07.23	154.42	25.89	-34.6	-36.6	28.6	0.00e+00	0	39	0	0	40	4601
2026-01-25 19:19:08.23	153.93	25.77	-34.8	-36.7	28.5	0.00e+00	0	39	0	0	40	4662
2026-01-25 19:19:09.23	153.44	25.64	-34.6	-36.5	28.6	0.00e+00	0	39	0	0	40	4589
2026-01-25 19:19:10.23	152.95	25.52	-34.5	-36.4	28.7	0.00e+00	0	39	0	0	40	4507
2026-01-25 19:19:11.23	152.47	25.39	-34.5	-36.4	28.7	0.00e+00	0	39	0	0	40	4525
2026-01-25 19:19:12.23	151.99	25.26	-34.5	-36.4	28.7	0.00e+00	0	39	0	0	40	4520
2026-01-25 19:19:13.24	151.51	25.13	-34.4	-36.3	28.8	0.00e+00	0	39	0	0	40	4470
2026-01-25 19:19:14.24	151.04	24.99	-34.5	-36.4	28.6	0.00e+00	0	39	0	0	40	4540
2026-01-25 19:19:15.24	150.58	24.86	-34.6	-36.5	28.6	0.00e+00	0	39	0	0	40	4550
2026-01-25 19:19:16.24	150.12	24.73	-34.7	-36.6	28.5	0.00e+00	0	39	0	0	40	4620
2026-01-25 19:19:17.42	149.59	24.57	-34.5	-36.5	28.6	0.00e+00	0	39	0	0	40	4549
2026-01-25 19:19:18.27	149.20	24.46	-34.2	-36.1	28.8	0.00e+00	0	39	0	0	40	4384
2026-01-25 19:19:19.41	148.70	24.30	-34.1	-36.0	29.0	0.00e+00	0	39	0	0	40	4295
2026-01-25 19:19:20.27	148.32	24.18	-34.1	-36.0	29.0	0.00e+00	0	39	0	0	40	4299
2026-01-25 19:19:21.40	147.82	24.03	-34.5	-36.4	28.7	0.00e+00	0	39	0	0	40	4521
2026-01-25 19:19:22.26	147.45	23.91	-34.7	-36.6	28.5	0.00e+00	0	39	0	0	40	4611
2026-01-25 19:19:23.39	146.97	23.75	-35.0	-36.9	28.2	0.00e+00	0	39	0	0	40	4810
2026-01-25 19:19:24.24	146.61	23.64	-34.7	-36.6	28.6	0.00e+00	0	39	0	0	40	4615
2026-01-25 19:19:25.38	146.13	23.48	-34.7	-36.6	28.5	0.00e+00	0	39	0	0	40	4607
2026-01-25 19:19:26.23	145.78	23.36	-34.6	-36.5	28.5	0.00e+00	0	39	0	0	40	4564
2026-01-25 19:19:27.37	145.31	23.20	-34.4	-36.2	28.8	0.00e+00	0	39	0	0	40	4440
2026-01-25 19:19:28.22	144.97	23.08	-34.4	-36.3	28.7	0.00e+00	0	39	0	0	40	4463
2026-01-25 19:19:29.36	144.51	22.92	-34.7	-36.5	28.5	0.00e+00	0	39	0	0	40	4589
2026-01-25 19:19:30.21	144.17	22.80	-34.6	-36.5	28.3	0.00e+00	0	39	0	0	40	4583
2026-01-25 19:19:31.35	143.72	22.64	-34.8	-36.8	28.3	0.00e+00	0	39	0	0	40	4722
2026-01-25 19:19:32.20	143.39	22.52	-35.0	-36.9	28.2	0.00e+00	0	39	0	0	40	4771
2026-01-25 19:19:33.57	142.87	22.33	-34.8	-36.7	28.1	0.00e+00	0	39	0	0	40	4703
2026-01-25 19:19:34.28	142.60	22.23	-34.9	-36.8	28.3	0.00e+00	0	39	0	0	40	4713
2026-01-25 19:19:35.56	142.12	22.05	-35.0	-37.0	28.2	0.00e+00	0	39	0	0	40	4826
2026-01-25 19:19:36.27	141.85	21.94	-35.1	-37.0	28.1	0.00e+00	0	39	0	0	40	4840
2026-01-25 19:19:37.55	141.38	21.76	-35.0	-36.9	28.2	0.00e+00	0	39	0	0	40	4781
2026-01-25 19:19:38.28	141.11	21.66	-34.8	-36.8	28.4	0.00e+00	0	39	0	0	40	4708
2026-01-25 19:19:39.56	140.65	21.48	-35.2	-37.1	28.1	0.00e+00	0	39	0	0	41	4637
2026-01-25 19:19:40.27	140.40	21.38	-35.3	-37.3	27.9	0.00e+00	0	39	0	0	41	4712
2026-01-25 19:19:41.55	139.95	21.20	-35.4	-37.3	27.8	0.00e+00	0	39	0	0	41	4757
2026-01-25 19:19:42.27	139.70	21.10	-35.5	-37.4	26.9	0.00e+00	0	39	0	0	41	4806
2026-01-25 19:19:43.55	139.26	20.91	-35.4	-37.3	27.9	0.00e+00	0	39	0	0	41	4735
2026-01-25 19:19:44.26	139.02	20.81	-35.4	-37.3	27.8	0.00e+00	0	39	0	0	41	4745
2026-01-25 19:19:45.65	138.55	20.62	-35.3	-37.2	27.9	0.00e+00	0	39	0	0	41	4699
2026-01-25 19:19:46.36	138.31	20.52	-35.2	-37.2	27.9	0.00e+00	0	39	0	0	41	4663
2026-01-25 19:19:47.72	137.86	20.33	-35.4	-37.4	27.8	0.00e+00	0	39	0	0	41	4779
2026-01-25 19:19:48.43	137.63	20.23	-35.5	-37.4	27.7	0.00e+00	0	39	0	0	41	4802
2026-01-25 19:19:49.71	137.22	20.05	-35.5	-37.5	27.6	0.00e+00	0	39	0	0	41	4815
2026-01-25 19:19:50.43	136.99	19.95	-35.3	-37.2	27.8	0.00e+00	0	39	0	0	41	4698
2026-01-25 19:19:51.71	136.59	19.77	-35.5	-37.4	27.7	0.00e+00	0	39	0	0	41	4789
2026-01-25 19:19:52.42	136.37	19.67	-35.6	-37.5	27.7	0.00e+00	0	39	0	0	41	4856
2026-01-25 19:19:53.70	135.97	19.49	-35.7	-37.7	27.3	0.00e+00	0	39	0	0	42	4664
2026-01-25 19:19:54.43	135.75	19.39	-35.8	-37.7	27.5	0.00e+00	0	39	0	0	42	4687
2026-01-25 19:19:55.71	135.37	19.22	-35.7	-37.7	27.5	0.00e+00	0	39	0	0	42	4662
2026-01-25 19:19:56.43	135.15	19.12	-35.7	-37.7	27.6	0.00e+00	0	39	0	0	42	4657
2026-01-25 19:19:57.71	134.78	18.94	-35.7	-37.7	27.5	0.00e+00	0	39	0	0	42	4676
2026-01-25 19:19:58.43	134.57	18.84	-35.8	-37.7	27.5	0.00e+00	0	39	0	0	42	4691
2026-01-25 19:19:59.71	134.20	18.67	-36.0	-38.0	27.3	0.00e+00	0	39	0	0	42	4850
2026-01-25 19:20:00.44	133.99	18.57	-36.0	-38.0	27.3	0.00e+00	0	39	0	0	42	4837
2026-01-25 19:20:01.72	133.63	18.40	-36.0	-38.0	27.2	0.00e+00	0	39	0	0	42	4865
2026-01-25 19:20:02.43	133.43	18.30	-36.0	-38.0	27.2	0.00e+00	0	39	0	0	42	4838
2026-01-25 19:20:03.71	133.08	18.13	-36.0	-38.0	27.2	0.00e+00	0	39	0	0	42	4846
2026-01-25 19:20:04.67	132.82	18.00	-36.0	-38.0	27.2	0.00e+00	0	39	0	0	42	4840
2026-01-25 19:20:05.67	132.55	17.87	-36.1	-38.0	27.2	0.00e+00	0	39	0	0	42	4864
2026-01-25 19:20:06.66	132.28	17.73	-36.3	-38.3	27.0	0.00e+00	0	39	0	0	43	4756
2026-01-25 19:20:07.66	132.02	17.60	-36.2	-38.2	27.1	0.00e+00	0	39	0	0	43	4672
2026-01-25 19:20:08.65	131.76	17.47	-36.1	-38.1	27.2	0.00e+00	0	39	0	0	43	4616
2026-01-25 19:20:09.65	131.50	17.34	-36.0	-38.0	27.2	0.00e+00	0	39	0	0	43	4583
2026-01-25 19:20:10.65	131.25	17.21	-36.0	-38.0	27.2	0.00e+00	0	39	0	0	43	4575
2026-01-25 19:20:11.64	131.00	17.08	-36.1	-38.1	27.2	0.00e+00	0	39	0	0	43	4614
2026-01-25 19:20:12.64	130.75	16.95	-36.4	-38.4	26.9	0.00e+00	0	39	0	0	43	4806
2026-01-25 19:20:13.72	130.48	16.81	-36.4	-38.4	26.8	0.00e+00	0	39	0	0	43	4812
2026-01-25 19:20:14.61	130.26	16.69	-36.5	-38.5	26.8	0.00e+00	0	39	0	0	43	4849
2026-01-25 19:20:15.75	129.99	16.55	-36.5	-38.5	26.7	0.00e+00	0	39	0	0	43	4863
2026-01-25 19:20:16.60	129.78	16.44	-36.5	-38.5	26.7	0.00e+00	0	39	0	0	43	4863
2026-01-25 19:20:17.96	129.46	16.27	-36.5	-38.5	26.7	0.00e+00	0	39	0	0	43	4865
2026-01-25 19:20:18.67	129.30	16.18	-36.3	-38.3	26.9	0.00e+00	0	39	0	0	43	4756
2026-01-25 19:20:19.95	129.00	16.01	-36.5	-38.5	26.8	0.00e+00	0	39	0	0	43	4856
2026-01-25 19:20:20.66	128.84	15.93	-36.5	-38.5	26.8	0.00e+00	0	39	0	0	43	4845
2026-01-25 19:20:22.22	128.49	15.73	-36.6	-38.7	26.6	0.00e+00	0	39	0	0	43	4927
2026-01-25 19:20:22.85	128.35	15.65	-36.9	-39.0	26.5	0.00e+00	0	39	0	0	44	4818
2026-01-25 19:20:24.40	128.00	15.46	-37.2	-39.2	26.2	0.00e+00	0	39	0	0	45	4705
2026-01-25 19:20:25.11	127.85	15.37	-37.3	-39.3	26.2	0.00e+00	0	39	0	0	45	4747
2026-01-25 19:20:26.40	127.57	15.21	-37.5	-39.7	25.9	0.00e+00	0	39	0	0	45	4927
2026-01-25 19:20:27.11	127.42	15.13	-37.6	-39.7	25.8	0.00e+00	0	39	0	0	45	4977
2026-01-25 19:20:28.39	127.15	14.97	-37.6	-39.8	25.8	0.00e+00	0	39	0	0	46	4709
2026-01-25 19:20:29.13	126.99	14.88	-37.6	-39.7	25.9	0.00e+00	0	39	0	0	46	4656
2026-01-25 19:20:30.41	126.73	14.73	-37.5	-39.6	26.0	0.00e+00	0	39	0	0	46	4602
2026-01-25 19:20:31.12	126.58	14.64	-37.6	-39.7	25.9	0.00e+00	0	39	0	0	46	4661
2026-01-25 19:20:32.40	126.32	14.49	-37.5	-39.6	25.9	0.00e+00	0	39	0	0	46	4647
2026-01-25 19:20:33.13	126.18	14.40	-37.6	-39.7	25.8	0.00e+00	0	39	0	0	46	4700
2026-01-25 19:20:34.41	125.92	14.25	-37.6	-39.7	25.8	0.00e+00	0	39	0	0	46	4697
2026-01-25 19:20:35.12	125.78	14.17	-37.8	-39.9	25.7	0.00e+00	0	39	0	0	46	4775
2026-01-25 19:20:36.40	125.53	14.02	-38.0	-40.1	25.5	0.00e+00	0	39	0	0	46	4908
2026-01-25 19:20:37.11	125.40	13.94	-37.9	-40.1	25.5	0.00e+00	0	39	0	0	46	4889
2026-01-25 19:20:38.64	125.11	13.76	-37.9	-40.0	25.5	0.00e+00	0	39	0	0	46	4867
2026-01-25 19:20:39.35	124.97	13.68	-37.8	-39.9	25.7	0.00e+00	0	39	0	0	46	4774
2026-01-25 19:20:40.63	124.73	13.53	-37.8	-39.9	25.6	0.00e+00	0	39	0	0	46	4777
2026-01-25 19:20:41.34	124.60	13.45	-37.8	-39.9	25.6	0.00e+00	0	39	0	0	46	4811
2026-01-25 19:20:42.74	124.35	13.29	-37.9	-40.0	25.6	0.00e+00	0	39	0	0	46	4850
2026-01-25 19:20:43.46	124.22	13.21	-38.0	-40.1	25.4	0.00e+00	0	39	0	0	46	4913
2026-01-25 19:20:44.74	123.99	13.07	-38.2	-40.4	25.2	0.00e+00	0	39	0	0	47	4761
2026-01-25 19:20:45.46	123.86	12.99	-38.2	-40.4	25.2	0.00e+00	0	39	0	0	47	4789
2026-01-25 19:20:46.74	123.64	12.84	-38.3	-40.5	25.1	0.00e+00	0	39	0	0	47	4860
2026-01-25 19:20:47.46	123.51	12.76	-38.3	-40.5	25.1	0.00e+00	0	39	0	0	47	4859
2026-01-25 19:20:48.73	123.29	12.62	-38.4	-40.6	25.0	0.00e+00	0	39	0	0	47	4876
2026-01-25 19:20:49.45	123.17	12.54	-38.3	-40.5	25.1	0.00e+00	0	39	0	0	47	4819
2026-01-25 19:20:50.72	122.96	12.41	-38.3	-40.6	25.0	0.00e+00	0	39	0	0	47	4874
2026-01-25 19:20:51.43	122.84	12.33	-38.3	-40.5	25.0	0.00e+00	0	39	0	0	47	4858
2026-01-25 19:20:52.71	122.63	12.19	-38.3	-40.6	25.0	0.00e+00	0	39	0	0	47	4873
2026-01-25 19:20:53.42	122.51	12.11	-38.4	-40.6	24.9	0.00e+00	0	39	0	0	47	4899
2026-01-25 19:20:54.70	122.30	11.98	-38.5	-40.7	24.8	0.00e+00	0	39	0	0	47	4983
2026-01-25 19:20:55.43	122.19	11.90	-38.6	-40.8	24.7	0.00e+00	0	39	0	0	47	5032
2026-01-25 19:20:56.71	121.98	11.76	-38.6	-40.9	24.7	0.00e+00	0	39	0	0	47	5048
2026-01-25 19:20:57.43	121.87	11.69	-38.6	-40.9	24.7	0.00e+00	0	39	0	0	47	5053
2026-01-25 19:20:58.73	121.67	11.55	-38.7	-40.9	24.6	0.00e+00	0	39	0	0	47	5092
2026-01-25 19:20:59.44	121.56	11.48	-38.8	-41.1	24.6	0.00e+00	0	39	0	0	48	4877
2026-01-25 19:21:00.72	121.36	11.34	-38.9	-41.2	24.4	0.00e+00	0	39	0	0	48	4933
2026-01-25 19:21:01.43	121.25	11.27	-38.9	-41.2	24.4	0.00e+00	0	39	0	0	48	4934
2026-01-25 19:21:02.71	121.06	11.14	-39.1	-41.4	24.1	0.00e+00	0	39	0	0	48	5086
2026-01-25 19:21:03.43	120.96	11.06	-39.2	-41.5	24.1	0.00e+00	0	39	0	0	49	4836
2026-01-25 19:21:04.71	120.77	10.93	-39.3	-41.6	24.0	0.00e+00	0	39	0	0	49	4893
2026-01-25 19:21:05.44	120.66	10.86	-39.3	-41.6	24.0	0.00e+00	0	39	0	0	49	4914
2026-01-25 19:21:06.71	120.48	10.73	-39.2	-41.5	24.0	0.00e+00	0	39	0	0	49	4860
2026-01-25 19:21:07.44	120.37	10.66	-39.1	-41.4	24.1	0.00e+00	0	39	0	0	49	4767
2026-01-25 19:21:08.72	120.19	10.53	-39.0	-41.2	24.3	0.00e+00	0	39	0	0	49	4680
2026-01-25 19:21:09.46	120.09	10.46	-38.8	-41.1	24.4	0.00e+00	0	39	0	0	49	4616
2026-01-25 19:21:10.74	119.91	10.33	-39.0	-41.3	24.3	0.00e+00	0	39	0	0	49	4716
2026-01-25 19:21:11.45	119.81	10.26	-39.1	-41.4	24.2	0.00e+00	0	39	0	0	49	4790
2026-01-25 19:21:12.73	119.64	10.13	-39.2	-41.4	24.1	0.00e+00	0	39	0	0	49	4811
2026-01-25 19:21:13.57	119.52	10.05	-39.3	-41.6	24.0	0.00e+00	0	39	0	0	49	4882
2026-01-25 19:21:14.71	119.37	9.94	-39.4	-41.8	23.8	0.00e+00	0	39	0	0	49	4985
2026-01-25 19:21:15.56	119.26	9.86	-39.6	-42.0	23.6	0.00e+00	0	39	0	0	49	5144
2026-01-25 19:21:17.08	119.06	9.71	-39.8	-42.2	23.3	0.00e+00	0	39	0	0	50	4966
2026-01-25 19:21:17.79	118.96	9.64	-39.8	-42.2	23.3	0.00e+00	0	39	0	0	50	4966
2026-01-25 19:21:19.07	118.80	9.52	-40.0	-42.4	23.2	0.00e+00	0	39	0	0	50	5057
2026-01-25 19:21:19.79	118.71	9.45	-40.0	-42.4	23.2	0.00e+00	0	39	0	0	50	5059
2026-01-25 19:21:21.07	118.54	9.33	-40.0	-42.5	23.0	0.00e+00	0	39	0	0	50	5140
2026-01-25 19:21:21.81	118.45	9.26	-40.0	-42.5	23.1	0.00e+00	0	39	0	0	50	5109
2026-01-25 19:21:23.09	118.29	9.14	-40.0	-42.5	23.0	0.00e+00	0	39	0	0	50	5145
2026-01-25 19:21:23.82	118.20	9.07	-40.0	-42.4	23.1	0.00e+00	0	39	0	0	50	5100
2026-01-25 19:21:25.10	118.05	8.96	-47.8	-65.8	3.5	0.00e+00	0	39	104	0	66	29836
2026-01-25 19:21:25.81	117.96	8.89	-48.0	-66.2	3.8	0.00e+00	0	39	104	0	66	31244
2026-01-25 19:21:27.08	117.81	8.77	-48.1	-67.0	3.8	5.12e-01	0	39	104	0	67	32440
2026-01-25 19:21:27.81	117.72	8.71	-48.2	-67.2	3.8	8.46e-01	0	39	104	0	67	33083
2026-01-25 19:21:29.08	117.57	8.59	-48.3	-67.3	3.8	8.47e-01	0	39	104	0	67	33429
2026-01-25 19:21:29.79	117.49	8.53	-48.4	-67.3	3.8	8.47e-01	0	39	104	0	67	33607
2026-01-25 19:21:31.07	117.34	8.41	-48.4	-67.3	3.8	8.47e-01	0	39	104	0	67	33606
2026-01-25 19:21:31.78	117.26	8.35	-48.5	-67.4	3.8	8.48e-01	0	39	104	0	67	33755
2026-01-25 19:21:33.06	117.11	8.23	-48.4	-67.4	3.8	8.48e-01	0	39	104	0	67	33895
2026-01-25 19:21:33.78	117.03	8.17	-48.5	-67.4	3.8	8.47e-01	0	39	104	0	67	33944
2026-01-25 19:21:35.06	116.89	8.06	-48.2	-67.5	3.8	8.46e-01	0	39	104	0	67	34254
2026-01-25 19:21:35.77	116.81	7.99	-48.2	-67.5	3.8	8.46e-01	0	39	104	0	67	34174
2026-01-25 19:21:37.05	116.67	7.88	-48.2	-67.5	3.8	8.48e-01	0	39	104	0	67	34321
2026-01-25 19:21:37.76	116.59	7.82	-48.2	-67.5	3.8	8.47e-01	0	39	104	0	67	34307
2026-01-25 19:21:39.03	116.45	7.71	-48.3	-67.5	3.8	8.47e-01	0	39	104	0	67	34426
2026-01-25 19:21:39.76	116.37	7.65	-48.4	-67.5	3.8	8.47e-01	0	39	104	0	67	34455
2026-01-25 19:21:41.04	116.24	7.53	-48.4	-67.5	3.8	8.49e-01	0	39	104	0	67	34374
2026-01-25 19:21:41.75	116.16	7.47	-48.3	-67.5	3.8	8.49e-01	0	39	104	0	67	34329
2026-01-25 19:21:43.02	116.03	7.37	-48.3	-67.6	3.8	8.47e-01	0	39	104	0	67	34586
2026-01-25 19:21:43.73	115.95	7.30	-48.3	-67.6	3.8	8.47e-01	0	39	104	0	67	34521
2026-01-25 19:21:45.01	115.82	7.20	-48.4	-67.6	3.8	8.45e-01	0	39	104	0	67	34489
2026-01-25 19:21:45.72	115.75	7.14	-48.5	-67.5	3.8	8.45e-01	0	39	104	0	67	34476
2026-01-25 19:21:47.00	115.62	7.03	-48.4	-67.5	3.8	8.46e-01	0	39	104	0	67	34318
2026-01-25 19:21:47.71	115.55	6.97	-48.4	-67.5	3.8	8.46e-01	0	39	104	0	67	34264
2026-01-25 19:21:48.98	115.42	6.86	-48.4	-67.5	3.8	8.46e-01	0	39	104	0	67	34310
2026-01-25 19:21:49.69	115.35	6.80	-48.4	-67.5	3.8	8.47e-01	0	39	104	0	67	34296
2026-01-25 19:21:50.97	115.23	6.70	-48.4	-67.5	3.8	8.47e-01	0	39	104	0	67	34210
2026-01-25 19:21:51.70	115.15	6.64	-48.4	-67.5	3.8	8.47e-01	0	39	104	0	67	34209
2026-01-25 19:21:52.97	115.03	6.53	-48.4	-67.5	3.8	8.48e-01	0	39	104	0	67	34136
2026-01-25 19:21:53.68	114.96	6.48	-48.4	-67.5	3.8	8.45e-01	0	39	104	0	67	34217
2026-01-25 19:21:54.96	114.84	6.37	-48.4	-67.5	3.8	8.45e-01	0	39	104	0	67	34111
2026-01-25 19:21:55.67	114.77	6.31	-48.4	-67.5	3.8	8.47e-01	0	39	104	0	67	34249
2026-01-25 19:21:56.95	114.65	6.21	-48.4	-67.5	3.8	8.48e-01	0	39	104	0	67	34142
2026-01-25 19:21:57.67	114.59	6.15	-48.4	-67.5	3.8	8.48e-01	0	39	104	0	67	34134
2026-01-25 19:21:58.95	114.47	6.05	-48.4	-67.4	3.8	8.47e-01	0	39	104	0	67	34040
2026-01-25 19:21:59.66	114.41	5.99	-48.4	-67.5	3.8	8.47e-01	0	39	104	0	67	34104
2026-01-25 19:22:00.94	114.29	5.89	-48.4	-67.4	3.8	8.47e-01	0	39	104	0	67	33983
2026-01-25 19:22:01.66	114.22	5.83	-48.4	-67.4	3.8	8.47e-01	0	39	104	0	67	34078
2026-01-25 19:22:02.94	114.11	5.73	-48.4	-67.4	3.8	8.46e-01	0	39	104	0	67	34049
2026-01-25 19:22:03.66	114.05	5.68	-48.4	-67.4	3.8	8.46e-01	0	39	104	0	67	34014
2026-01-25 19:22:04.94	113.93	5.58	-48.4	-67.5	3.8	8.47e-01	0	39	104	0	67	34138
2026-01-25 19:22:05.67	113.87	5.52	-48.4	-67.4	3.8	8.48e-01	0	39	104	0	67	34030
2026-01-25 19:22:06.94	113.76	5.42	-48.4	-67.4	3.8	8.46e-01	0	39	104	0	67	33995
2026-01-25 19:22:07.65	113.70	5.37	-48.4	-67.4	3.8	8.46e-01	0	39	104	0	67	34003
2026-01-25 19:22:08.93	113.59	5.27	-48.4	-67.4	3.8	8.47e-01	0	39	104	0	67	33900
2026-01-25 19:22:09.66	113.53	5.21	-48.4	-67.4	3.8	8.47e-01	0	39	104	0	67	33917
2026-01-25 19:22:10.93	113.42	5.12	-48.4	-67.4	3.8	8.47e-01	0	39	104	0	67	34027
2026-01-25 19:22:11.64	113.36	5.06	-48.4	-67.4	3.8	8.47e-01	0	39	104	0	67	34000
2026-01-25 19:22:12.93	113.26	4.96	-48.4	-67.4	3.8	8.46e-01	0	39	104	0	67	34020

#Closed at: 2026-01-25 19:22:13
#Recorded file [0 MB]: D:/Data/31040_260125_221429.dat