passes_logs/2026/01/25/T1/T1__20260125_154030_FENGYUN_3E_rec.log

#Pass ID: 20260125_154030_FENGYUN 3E
#Satellite: FENGYUN 3E
#Configuration: FENGYUN 3E
#almurnet v.1.7.20251203
#Start time: 2026-01-25 15:40:33

#Version: 2.0.20230620
#Station: T1
#Location: 37.570604 lon 55.790049 lat
#TLE: 1 49008U 21062A   26025.22354119 -.00000045  00000+0 -39974-6 0  9992
#TLE: 2 49008  98.7496  30.2323 0002444 117.8821 242.2603 14.19886325236299

#Time	Az	El	Level	Level2	SNR	BER	BlckErr	Temp	State	Recorded	gain1	gain2
2026-01-25 15:40:33.30	208.42	5.15	-48.0	-59.1	3.8	8.46e-01	0	36	104	0	66	12882
2026-01-25 15:40:34.29	208.50	5.21	-48.0	-59.1	3.8	8.48e-01	0	36	104	0	66	12840
2026-01-25 15:40:35.29	208.58	5.27	-47.9	-59.1	3.8	8.47e-01	0	36	104	0	66	12854
2026-01-25 15:40:36.28	208.67	5.33	-47.9	-59.1	3.8	8.47e-01	0	36	104	0	66	12847
2026-01-25 15:40:37.27	208.75	5.39	-47.9	-59.1	3.8	8.47e-01	0	36	104	0	66	12843
2026-01-25 15:40:38.27	208.83	5.45	-47.9	-59.0	3.8	8.46e-01	0	36	104	0	66	12763
2026-01-25 15:40:39.26	208.92	5.51	-47.9	-59.0	3.8	8.47e-01	0	36	104	0	66	12763
2026-01-25 15:40:40.25	209.00	5.57	-47.9	-58.9	3.8	8.47e-01	0	36	104	0	66	12551
2026-01-25 15:40:41.25	209.09	5.63	-47.9	-58.9	3.8	8.46e-01	0	36	104	0	66	12631
2026-01-25 15:40:42.24	209.17	5.69	-47.9	-59.0	3.8	8.46e-01	0	36	104	0	66	12680
2026-01-25 15:40:43.23	209.26	5.76	-47.9	-58.9	3.8	8.48e-01	0	36	104	0	66	12576
2026-01-25 15:40:44.23	209.34	5.82	-47.9	-58.9	3.8	8.46e-01	0	36	104	0	66	12597
2026-01-25 15:40:45.22	209.43	5.88	-47.9	-58.9	3.8	8.46e-01	0	36	104	0	66	12624
2026-01-25 15:40:46.21	209.52	5.94	-47.9	-59.0	3.8	8.46e-01	0	36	104	0	66	12689
2026-01-25 15:40:47.20	209.60	6.00	-47.9	-59.0	3.8	8.46e-01	0	36	104	0	66	12774
2026-01-25 15:40:48.20	209.69	6.06	-47.9	-59.0	3.8	8.46e-01	0	36	104	0	66	12764
2026-01-25 15:40:49.19	209.78	6.12	-47.9	-59.0	3.8	8.47e-01	0	36	104	0	66	12712
2026-01-25 15:40:50.18	209.87	6.19	-47.9	-59.1	3.8	8.47e-01	0	36	104	0	66	12898
2026-01-25 15:40:51.18	209.96	6.25	-47.9	-59.0	3.8	8.46e-01	0	36	104	0	66	12748
2026-01-25 15:40:52.17	210.04	6.31	-47.9	-59.1	3.8	8.47e-01	0	36	104	0	66	12817
2026-01-25 15:40:53.16	210.13	6.37	-47.9	-59.0	3.8	8.46e-01	0	36	104	0	66	12767
2026-01-25 15:40:54.16	210.22	6.43	-47.9	-58.8	3.8	8.47e-01	0	36	104	0	66	12444
2026-01-25 15:40:55.15	210.31	6.50	-47.9	-58.5	3.8	8.46e-01	0	37	104	0	66	12021
2026-01-25 15:40:56.14	210.40	6.56	-47.8	-58.3	3.8	8.47e-01	0	37	104	0	66	11723
2026-01-25 15:40:57.14	210.49	6.62	-47.8	-58.2	3.8	8.47e-01	0	37	104	0	66	11578
2026-01-25 15:40:58.13	210.58	6.68	-47.8	-58.1	3.8	8.47e-01	0	37	104	0	66	11492
2026-01-25 15:40:59.12	210.68	6.75	-47.8	-58.2	3.8	8.47e-01	0	37	104	0	66	11628
2026-01-25 15:41:00.11	210.77	6.81	-47.8	-58.2	3.8	8.47e-01	0	37	104	0	66	11577
2026-01-25 15:41:01.11	210.86	6.87	-47.8	-58.0	3.8	8.46e-01	0	37	104	0	66	11383
2026-01-25 15:41:02.10	210.95	6.93	-47.8	-57.9	3.8	8.47e-01	0	37	104	0	66	11169
2026-01-25 15:41:03.09	211.04	7.00	-47.8	-57.7	3.8	8.47e-01	0	37	104	0	66	10980
2026-01-25 15:41:04.09	211.14	7.06	-47.8	-57.7	3.8	8.46e-01	0	37	104	0	66	10947
2026-01-25 15:41:05.08	211.23	7.12	-47.8	-57.7	3.8	8.48e-01	0	37	104	0	66	11001
2026-01-25 15:41:06.07	211.33	7.19	-47.8	-57.8	3.8	8.46e-01	0	37	104	0	66	11079
2026-01-25 15:41:07.07	211.42	7.25	-47.8	-57.9	3.8	8.46e-01	0	37	104	0	66	11172
2026-01-25 15:41:08.06	211.51	7.31	-47.8	-58.2	3.8	8.46e-01	0	37	104	0	66	11567
2026-01-25 15:41:09.05	211.61	7.38	-47.8	-58.4	3.8	8.47e-01	0	37	104	0	66	11868
2026-01-25 15:41:10.04	211.70	7.44	-47.8	-58.5	3.8	8.47e-01	0	37	104	0	66	12009
2026-01-25 15:41:11.04	211.80	7.51	-47.8	-58.4	3.8	8.47e-01	0	37	104	0	66	11926
2026-01-25 15:41:12.03	211.90	7.57	-47.8	-57.8	3.8	8.48e-01	0	37	104	0	66	11093
2026-01-25 15:41:13.02	211.99	7.63	-47.6	-56.9	3.8	8.46e-01	0	37	104	0	66	10055
2026-01-25 15:41:14.02	212.09	7.70	-47.5	-56.2	4.0	8.44e-01	0	37	104	0	65	9824
2026-01-25 15:41:15.01	212.19	7.76	-47.5	-56.1	4.1	8.44e-01	0	37	104	0	65	9675
2026-01-25 15:41:16.00	212.29	7.83	-47.6	-57.0	3.8	8.46e-01	0	37	104	0	65	10751
2026-01-25 15:41:17.00	212.39	7.89	-47.8	-58.6	3.8	8.47e-01	0	37	104	0	65	12858
2026-01-25 15:41:17.99	212.48	7.95	-47.8	-58.6	3.8	8.48e-01	0	37	104	0	65	12924
2026-01-25 15:41:18.98	212.58	8.02	-47.2	-54.4	4.5	8.37e-01	0	37	0	0	65	7981
2026-01-25 15:41:19.98	212.68	8.08	-46.0	-50.3	7.6	2.04e-01	0	37	0	3145728	62	5866
2026-01-25 15:41:20.97	212.78	8.15	-44.2	-46.8	11.1	3.12e-03	0	37	0	10485760	59	4701
2026-01-25 15:41:21.97	212.89	8.21	-42.1	-44.0	13.9	1.37e-05	0	37	0	17825792	55	4247
2026-01-25 15:41:22.96	212.99	8.28	-40.6	-42.1	15.8	0.00e+00	0	37	0	25165824	52	4058
2026-01-25 15:41:23.95	213.09	8.34	-39.6	-40.9	17.1	0.00e+00	0	37	0	32505856	49	4205
2026-01-25 15:41:24.94	213.19	8.41	-38.7	-39.9	18.0	0.00e+00	0	37	0	39845888	48	3993
2026-01-25 15:41:25.94	213.29	8.47	-38.2	-39.4	18.3	0.00e+00	0	37	0	46137344	47	3972
2026-01-25 15:41:26.93	213.39	8.54	-38.2	-39.3	18.4	0.00e+00	0	37	0	53477376	47	3947
2026-01-25 15:41:27.92	213.50	8.60	-38.4	-39.6	18.1	0.00e+00	0	37	0	60817408	47	4097
2026-01-25 15:41:28.92	213.60	8.67	-39.0	-40.2	17.5	0.00e+00	0	37	0	68157440	47	4389
2026-01-25 15:41:29.91	213.71	8.73	-39.9	-41.3	16.7	0.00e+00	0	37	0	75497472	49	4400
2026-01-25 15:41:30.90	213.81	8.80	-41.1	-42.7	15.3	0.00e+00	0	37	0	82837504	51	4616
2026-01-25 15:41:31.90	213.92	8.87	-42.4	-44.3	13.5	4.50e-06	0	37	0	89128960	54	4689
2026-01-25 15:41:32.89	214.02	8.93	-43.8	-46.2	11.7	1.85e-04	0	38	0	96468992	56	5210
2026-01-25 15:41:33.88	214.13	9.00	-45.0	-48.2	9.6	8.17e-03	0	37	0	103809024	59	5495
2026-01-25 15:41:34.88	214.23	9.06	-45.2	-48.8	9.2	1.61e-02	0	37	0	111149056	60	5536
2026-01-25 15:41:35.87	214.34	9.13	-41.1	-42.7	15.2	5.49e-05	0	38	0	118489088	53	4125
2026-01-25 15:41:36.95	214.46	9.20	-46.7	-52.2	5.9	1.11e-01	0	38	0	125829120	62	7360
2026-01-25 15:41:37.83	214.55	9.26	-47.2	-54.7	4.4	7.85e-01	0	38	0	127926272	64	8695
2026-01-25 15:41:38.97	214.68	9.34	-47.4	-54.6	4.5	6.77e-01	0	37	0	131072000	64	8661
2026-01-25 15:41:39.82	214.77	9.39	-46.7	-52.1	6.0	4.78e-01	0	38	0	132120576	64	6482
2026-01-25 15:41:40.96	214.90	9.47	-46.7	-52.2	5.9	3.55e-01	0	38	0	140509184	64	6507
2026-01-25 15:41:41.81	214.99	9.53	-46.6	-51.9	6.1	3.25e-01	0	38	0	146800640	64	6285
2026-01-25 15:41:42.95	215.12	9.60	-46.5	-51.1	6.8	2.24e-01	0	38	0	155189248	63	6107
2026-01-25 15:41:43.80	215.21	9.66	-45.9	-49.8	8.1	1.10e-01	0	38	0	161480704	62	5572
2026-01-25 15:41:44.94	215.34	9.74	-46.9	-52.1	6.0	2.45e-01	0	38	0	169869312	63	6875
2026-01-25 15:41:45.79	215.43	9.79	-41.8	-43.5	14.5	7.28e-03	0	38	0	175112192	54	4248
2026-01-25 15:41:46.93	215.56	9.87	-45.9	-49.6	8.4	7.29e-03	0	38	0	183500800	61	5779
2026-01-25 15:41:47.78	215.66	9.93	-39.8	-41.1	17.0	0.00e+00	0	38	0	189792256	50	4080
2026-01-25 15:41:48.92	215.79	10.00	-39.8	-41.1	17.0	0.00e+00	0	38	0	198180864	50	4089
2026-01-25 15:41:49.77	215.89	10.06	-39.5	-40.7	17.4	0.00e+00	0	38	0	204472320	49	4137
2026-01-25 15:41:50.97	216.02	10.14	-39.5	-40.8	17.2	0.00e+00	0	38	0	212860928	49	4184
2026-01-25 15:41:51.82	216.12	10.20	-38.9	-40.1	18.0	0.00e+00	0	38	0	219152384	48	4057
2026-01-25 15:41:52.96	216.26	10.28	-38.8	-39.9	18.1	0.00e+00	0	38	0	227540992	48	4000
2026-01-25 15:41:53.81	216.35	10.34	-38.4	-39.5	18.3	0.00e+00	0	38	0	233832448	47	4035
2026-01-25 15:41:55.09	216.50	10.42	-38.4	-39.5	18.3	0.00e+00	0	38	0	243269632	47	4043
2026-01-25 15:41:55.82	216.59	10.47	-38.1	-39.3	18.6	0.00e+00	0	38	0	247463936	47	3917
2026-01-25 15:41:57.09	216.74	10.56	-37.6	-38.6	19.2	0.00e+00	0	38	0	256901120	46	3866
2026-01-25 15:41:57.80	216.83	10.61	-37.3	-38.3	19.5	0.00e+00	0	38	0	262144000	45	3954
2026-01-25 15:41:59.08	216.98	10.70	-37.1	-38.2	19.7	0.00e+00	0	38	0	271581184	44	4118
2026-01-25 15:41:59.81	217.07	10.75	-37.1	-38.1	19.8	0.00e+00	0	38	0	276824064	44	4083
2026-01-25 15:42:01.09	217.22	10.84	-36.9	-38.0	19.9	0.00e+00	0	38	0	286261248	44	4016
2026-01-25 15:42:01.86	217.31	10.89	-37.0	-38.0	19.8	0.00e+00	0	38	0	291504128	44	4037
2026-01-25 15:42:03.14	217.47	10.98	-36.9	-37.9	19.9	0.00e+00	0	38	0	300941312	44	3993
2026-01-25 15:42:03.85	217.55	11.03	-36.9	-37.9	20.0	0.00e+00	0	38	0	306184192	44	3982
2026-01-25 15:42:05.15	217.71	11.11	-36.8	-37.8	20.0	0.00e+00	0	38	0	315621376	44	3948
2026-01-25 15:42:05.86	217.80	11.16	-36.8	-37.8	20.0	0.00e+00	0	38	0	320864256	44	3957
2026-01-25 15:42:07.14	217.96	11.25	-36.8	-37.8	20.1	0.00e+00	0	38	0	329252864	44	3926
2026-01-25 15:42:08.10	218.08	11.32	-36.8	-37.8	20.1	0.00e+00	0	38	0	336592896	44	3918
2026-01-25 15:42:09.10	218.20	11.39	-36.7	-37.7	20.2	0.00e+00	0	38	0	343932928	44	3887
2026-01-25 15:42:10.09	218.33	11.46	-36.7	-37.8	20.1	0.00e+00	0	38	0	351272960	44	3914
2026-01-25 15:42:11.08	218.45	11.53	-36.8	-37.8	20.1	0.00e+00	0	38	0	358612992	44	3930
2026-01-25 15:42:12.08	218.58	11.59	-36.8	-37.8	20.0	0.00e+00	0	38	0	365953024	44	3954
2026-01-25 15:42:13.07	218.71	11.66	-36.9	-37.9	20.0	0.00e+00	0	38	0	372244480	44	3980
2026-01-25 15:42:14.07	218.83	11.73	-37.0	-38.0	19.9	0.00e+00	0	38	0	379584512	44	4015
2026-01-25 15:42:15.06	218.96	11.80	-37.0	-38.0	19.9	0.00e+00	0	38	0	386924544	44	4035
2026-01-25 15:42:16.06	219.09	11.87	-37.0	-38.0	19.9	0.00e+00	0	38	0	394264576	44	4022
2026-01-25 15:42:17.15	219.23	11.95	-37.0	-38.0	19.8	0.00e+00	0	38	0	401604608	44	4050
2026-01-25 15:42:18.05	219.35	12.01	-37.0	-38.0	19.9	0.00e+00	0	38	0	408944640	44	4042
2026-01-25 15:42:19.15	219.49	12.09	-37.0	-38.0	19.9	0.00e+00	0	38	0	416284672	44	4024
2026-01-25 15:42:20.00	219.60	12.15	-36.9	-38.0	19.9	0.00e+00	0	38	0	422576128	44	4009
2026-01-25 15:42:21.14	219.76	12.23	-36.9	-37.9	20.0	0.00e+00	0	38	0	430964736	44	3984
2026-01-25 15:42:22.18	219.89	12.30	-36.9	-37.9	20.0	0.00e+00	0	38	0	438304768	44	3993
2026-01-25 15:42:23.37	220.05	12.38	-37.0	-38.0	19.9	0.00e+00	0	38	0	446693376	44	4029
2026-01-25 15:42:24.22	220.17	12.44	-36.9	-37.9	20.0	0.00e+00	0	38	0	452984832	44	3973
2026-01-25 15:42:25.36	220.32	12.52	-36.7	-37.7	20.2	0.00e+00	0	38	0	461373440	44	3895
2026-01-25 15:42:26.21	220.43	12.58	-36.8	-37.8	20.1	0.00e+00	0	38	0	467664896	44	3939
2026-01-25 15:42:27.35	220.59	12.67	-36.8	-37.8	20.1	0.00e+00	0	38	0	476053504	44	3932
2026-01-25 15:42:28.20	220.71	12.73	-36.8	-37.8	20.1	0.00e+00	0	38	0	481296384	44	3954
2026-01-25 15:42:29.34	220.86	12.81	-36.7	-37.7	20.2	0.00e+00	0	38	0	489684992	44	3897
2026-01-25 15:42:30.19	220.98	12.87	-36.8	-37.8	20.1	0.00e+00	0	38	0	495976448	44	3951
2026-01-25 15:42:31.33	221.14	12.95	-36.7	-37.7	20.2	0.00e+00	0	38	0	504365056	44	3908
2026-01-25 15:42:32.18	221.25	13.01	-36.6	-37.5	20.3	0.00e+00	0	38	0	510656512	44	3823
2026-01-25 15:42:33.32	221.41	13.09	-36.4	-37.3	20.4	0.00e+00	0	38	0	517996544	43	3952
2026-01-25 15:42:34.17	221.53	13.15	-36.4	-37.4	20.3	0.00e+00	0	38	0	524288000	43	3989
2026-01-25 15:42:35.31	221.69	13.23	-36.3	-37.3	20.5	0.00e+00	0	38	0	532676608	43	3927
2026-01-25 15:42:36.16	221.81	13.29	-36.2	-37.2	20.6	0.00e+00	0	38	0	538968064	43	3871
2026-01-25 15:42:37.41	221.99	13.38	-36.2	-37.2	20.6	0.00e+00	0	38	0	548405248	43	3869
2026-01-25 15:42:38.26	222.11	13.44	-36.2	-37.1	20.6	0.00e+00	0	38	0	554696704	43	3865
2026-01-25 15:42:39.40	222.28	13.52	-36.1	-37.1	20.7	0.00e+00	0	38	0	562036736	43	3837
2026-01-25 15:42:40.25	222.40	13.58	-36.1	-37.1	20.7	0.00e+00	0	38	0	568328192	43	3829
2026-01-25 15:42:41.38	222.56	13.66	-36.0	-36.9	20.8	0.00e+00	0	38	0	576716800	42	3993
2026-01-25 15:42:42.24	222.69	13.72	-36.0	-36.9	20.9	0.00e+00	0	38	0	583008256	42	3983
2026-01-25 15:42:43.37	222.86	13.80	-36.1	-37.0	20.7	0.00e+00	0	38	0	591396864	42	4031
2026-01-25 15:42:44.23	222.98	13.86	-35.9	-36.9	20.9	0.00e+00	0	38	0	597688320	42	3970
2026-01-25 15:42:45.37	223.15	13.95	-35.9	-36.9	20.9	0.00e+00	0	38	0	605028352	42	3972
2026-01-25 15:42:46.22	223.28	14.01	-35.8	-36.8	21.0	0.00e+00	0	38	0	611319808	42	3921
2026-01-25 15:42:47.35	223.45	14.09	-35.8	-36.8	21.0	0.00e+00	0	38	0	619708416	42	3917
2026-01-25 15:42:48.21	223.57	14.15	-35.8	-36.7	21.1	0.00e+00	0	38	0	625999872	42	3877
2026-01-25 15:42:49.35	223.75	14.23	-35.8	-36.8	21.0	0.00e+00	0	38	0	634388480	42	3915
2026-01-25 15:42:50.20	223.87	14.29	-35.8	-36.7	21.0	0.00e+00	0	38	0	640679936	42	3889
2026-01-25 15:42:51.34	224.05	14.37	-35.9	-36.8	20.9	0.00e+00	0	38	0	649068544	42	3940
2026-01-25 15:42:52.19	224.18	14.43	-35.9	-36.9	20.9	0.00e+00	0	38	0	655360000	42	3962
2026-01-25 15:42:53.33	224.35	14.52	-36.0	-36.9	20.9	0.00e+00	0	38	0	662700032	42	3977
2026-01-25 15:42:54.18	224.48	14.58	-35.8	-36.8	21.0	0.00e+00	0	38	0	668991488	42	3932
2026-01-25 15:42:55.39	224.67	14.66	-35.7	-36.6	21.1	0.00e+00	0	38	0	678428672	42	3864
2026-01-25 15:42:56.24	224.80	14.72	-35.7	-36.6	21.1	0.00e+00	0	38	0	683671552	42	3868
2026-01-25 15:42:57.38	224.98	14.81	-35.7	-36.6	21.1	0.00e+00	0	38	0	692060160	42	3854
2026-01-25 15:42:58.23	225.11	14.87	-35.6	-36.5	21.2	0.00e+00	0	38	0	698351616	42	3818
2026-01-25 15:42:59.50	225.32	14.96	-35.6	-36.5	21.2	0.00e+00	0	38	0	707788800	41	4033
2026-01-25 15:43:00.27	225.44	15.01	-35.6	-36.5	21.2	0.00e+00	0	38	0	713031680	41	4030
2026-01-25 15:43:01.55	225.64	15.10	-35.5	-36.4	21.3	0.00e+00	0	38	0	722468864	41	3991
2026-01-25 15:43:02.26	225.76	15.16	-35.4	-36.4	21.4	0.00e+00	0	38	0	727711744	41	3973
2026-01-25 15:43:03.55	225.96	15.25	-35.4	-36.3	21.4	0.00e+00	0	38	0	737148928	41	3957
2026-01-25 15:43:04.27	226.08	15.30	-35.5	-36.4	21.4	0.00e+00	0	38	0	742391808	41	3971
2026-01-25 15:43:05.55	226.29	15.39	-35.2	-36.1	21.7	0.00e+00	0	38	0	751828992	41	3835
2026-01-25 15:43:06.26	226.40	15.44	-35.2	-36.1	21.6	0.00e+00	0	38	0	756023296	41	3860
2026-01-25 15:43:07.55	226.61	15.54	-35.2	-36.0	21.7	0.00e+00	0	38	0	765460480	41	3824
2026-01-25 15:43:08.26	226.73	15.59	-35.2	-36.1	21.6	0.00e+00	0	38	0	770703360	41	3855
2026-01-25 15:43:09.54	226.94	15.68	-35.1	-36.0	21.7	0.00e+00	0	38	0	780140544	40	4030
2026-01-25 15:43:10.27	227.06	15.73	-35.1	-36.0	21.8	0.00e+00	0	38	0	785383424	40	4014
2026-01-25 15:43:11.55	227.28	15.82	-35.1	-36.0	21.8	0.00e+00	0	38	0	794820608	40	4007
2026-01-25 15:43:12.26	227.40	15.87	-35.1	-36.0	21.7	0.00e+00	0	38	0	800063488	40	4012
2026-01-25 15:43:13.54	227.61	15.97	-35.2	-36.1	21.6	0.00e+00	0	38	0	809500672	40	4064
2026-01-25 15:43:14.26	227.73	16.02	-35.2	-36.1	21.6	0.00e+00	0	38	0	813694976	40	4069
2026-01-25 15:43:15.56	227.96	16.11	-35.2	-36.1	21.6	0.00e+00	0	38	0	823132160	40	4078
2026-01-25 15:43:16.27	228.08	16.16	-35.2	-36.1	21.6	0.00e+00	0	38	0	828375040	40	4088
2026-01-25 15:43:17.62	228.31	16.26	-35.3	-36.2	21.6	0.00e+00	0	38	0	837812224	40	4125
2026-01-25 15:43:18.33	228.43	16.31	-35.3	-36.2	21.6	0.00e+00	0	38	0	844103680	40	4131
2026-01-25 15:43:19.68	228.67	16.40	-35.3	-36.2	21.5	0.00e+00	0	38	0	853540864	40	4134
2026-01-25 15:43:20.39	228.79	16.46	-35.3	-36.2	21.5	0.00e+00	0	38	0	858783744	40	4140
2026-01-25 15:43:21.73	229.02	16.55	-35.2	-36.0	21.7	0.00e+00	0	38	0	868220928	40	4046
2026-01-25 15:43:22.44	229.15	16.60	-35.1	-36.0	21.8	0.00e+00	0	38	0	873463808	40	4027
2026-01-25 15:43:23.78	229.39	16.70	-35.0	-35.9	21.9	0.00e+00	0	38	0	882900992	40	3985
2026-01-25 15:43:24.49	229.51	16.75	-35.0	-35.9	21.8	0.00e+00	0	38	0	888143872	40	3993
2026-01-25 15:43:25.77	229.74	16.84	-35.1	-36.0	21.8	0.00e+00	0	38	0	897581056	40	4012
2026-01-25 15:43:26.49	229.87	16.89	-35.2	-36.1	21.6	0.00e+00	0	38	0	902823936	40	4082
2026-01-25 15:43:27.77	230.10	16.98	-35.2	-36.1	21.6	0.00e+00	0	38	0	911212544	40	4088
2026-01-25 15:43:28.49	230.23	17.03	-35.2	-36.1	21.7	0.00e+00	0	38	0	917504000	40	4077
2026-01-25 15:43:29.77	230.46	17.12	-35.1	-36.0	21.8	0.00e+00	0	38	0	925892608	40	4024
2026-01-25 15:43:30.49	230.59	17.17	-35.2	-36.1	21.7	0.00e+00	0	38	0	931135488	40	4071
2026-01-25 15:43:31.76	230.83	17.26	-35.0	-35.9	21.8	0.00e+00	0	38	0	940572672	40	3991
2026-01-25 15:43:32.48	230.96	17.32	-35.0	-35.8	21.9	0.00e+00	0	38	0	945815552	40	3957
2026-01-25 15:43:33.76	231.20	17.41	-35.0	-35.8	21.9	0.00e+00	0	38	0	955252736	40	3954
2026-01-25 15:43:34.48	231.33	17.46	-34.9	-35.8	22.0	0.00e+00	0	38	0	960495616	40	3934
2026-01-25 15:43:35.76	231.57	17.55	-34.9	-35.8	22.0	0.00e+00	0	38	0	968884224	40	3930
2026-01-25 15:43:36.47	231.70	17.60	-34.9	-35.8	22.0	0.00e+00	0	38	0	974127104	40	3938
2026-01-25 15:43:37.75	231.94	17.69	-34.8	-35.7	22.1	0.00e+00	0	38	0	983564288	40	3881
2026-01-25 15:43:38.47	232.08	17.74	-34.8	-35.7	22.1	0.00e+00	0	38	0	988807168	40	3889
2026-01-25 15:43:39.75	232.32	17.83	-34.8	-35.7	22.0	0.00e+00	0	38	0	998244352	40	3898
2026-01-25 15:43:40.46	232.46	17.88	-35.0	-35.9	21.9	0.00e+00	0	38	0	1003487232	40	3964
2026-01-25 15:43:41.74	232.70	17.97	-35.1	-36.0	21.8	0.00e+00	0	38	0	1012924416	40	4017
2026-01-25 15:43:42.45	232.84	18.02	-35.0	-35.9	21.9	0.00e+00	0	38	0	1018167296	40	3991
2026-01-25 15:43:43.73	233.09	18.10	-35.0	-35.9	21.9	0.00e+00	0	38	0	1026555904	40	3999
2026-01-25 15:43:44.44	233.23	18.15	-35.0	-35.9	21.9	0.00e+00	0	38	0	1031798784	40	3989
2026-01-25 15:43:45.72	233.48	18.24	-35.0	-35.9	21.9	0.00e+00	0	38	0	1041235968	40	3994
2026-01-25 15:43:46.44	233.62	18.29	-34.9	-35.8	22.0	0.00e+00	0	38	0	1046478848	40	3935
2026-01-25 15:43:47.72	233.87	18.38	-34.9	-35.8	21.9	0.00e+00	0	38	0	1055916032	40	3950
2026-01-25 15:43:48.43	234.01	18.43	-34.9	-35.8	22.0	0.00e+00	0	38	0	1061158912	40	3929
2026-01-25 15:43:49.71	234.26	18.52	-34.8	-35.7	22.0	0.00e+00	0	38	0	1069547520	40	3905
2026-01-25 15:43:50.50	234.42	18.57	-34.8	-35.7	22.1	0.00e+00	0	38	0	1075838976	40	3887
2026-01-25 15:43:51.67	234.66	18.65	-34.7	-35.6	22.2	0.00e+00	0	38	0	1084227584	40	3842
2026-01-25 15:43:52.53	234.83	18.71	-34.7	-35.6	22.2	0.00e+00	0	38	0	1090519040	40	3833
2026-01-25 15:43:53.66	235.06	18.79	-34.8	-35.6	22.1	0.00e+00	0	38	0	1098907648	40	3862
2026-01-25 15:43:54.71	235.27	18.86	-34.6	-35.5	22.3	0.00e+00	0	38	0	1106247680	40	3803
2026-01-25 15:43:55.82	235.50	18.94	-34.7	-35.6	22.2	0.00e+00	0	38	0	1113587712	40	3839
2026-01-25 15:43:56.68	235.68	18.99	-34.8	-35.7	22.2	0.00e+00	0	38	0	1119879168	39	4099
2026-01-25 15:43:57.82	235.91	19.07	-34.8	-35.7	22.2	0.00e+00	0	38	0	1128267776	39	4112
2026-01-25 15:43:58.67	236.09	19.13	-34.7	-35.6	22.3	0.00e+00	0	38	0	1134559232	39	4062
2026-01-25 15:43:59.81	236.32	19.21	-34.7	-35.6	22.3	0.00e+00	0	38	0	1142947840	39	4068
2026-01-25 15:44:00.66	236.50	19.26	-34.7	-35.6	22.2	0.00e+00	0	38	0	1149239296	39	4080
2026-01-25 15:44:01.80	236.74	19.34	-34.6	-35.5	22.4	0.00e+00	0	38	0	1157627904	39	4010
2026-01-25 15:44:02.65	236.92	19.40	-34.5	-35.4	22.4	0.00e+00	0	38	0	1163919360	39	3979
2026-01-25 15:44:03.79	237.16	19.47	-34.5	-35.3	22.5	0.00e+00	0	38	0	1172307968	39	3958
2026-01-25 15:44:04.64	237.34	19.53	-34.4	-35.3	22.5	0.00e+00	0	38	0	1177550848	39	3939
2026-01-25 15:44:05.78	237.58	19.60	-34.5	-35.4	22.4	0.00e+00	0	38	0	1185939456	39	3988
2026-01-25 15:44:06.63	237.76	19.66	-34.7	-35.6	22.2	0.00e+00	0	38	0	1192230912	39	4064
2026-01-25 15:44:07.92	238.04	19.74	-34.6	-35.5	22.3	0.00e+00	0	38	0	1201668096	39	4034
2026-01-25 15:44:08.63	238.20	19.79	-34.7	-35.6	22.3	0.00e+00	0	38	0	1206910976	39	4060
2026-01-25 15:44:10.11	238.52	19.89	-34.6	-35.6	22.3	0.00e+00	0	38	0	1217396736	39	4057
2026-01-25 15:44:10.82	238.67	19.93	-34.6	-35.5	22.3	0.00e+00	0	38	0	1222639616	39	4031
2026-01-25 15:44:12.18	238.97	20.02	-34.6	-35.5	22.4	0.00e+00	0	38	0	1232076800	39	4015
2026-01-25 15:44:12.89	239.12	20.07	-34.5	-35.4	22.4	0.00e+00	0	38	0	1237319680	39	3980
2026-01-25 15:44:14.23	239.42	20.15	-34.6	-35.5	22.4	0.00e+00	0	38	0	1246756864	39	4014
2026-01-25 15:44:14.94	239.58	20.20	-34.5	-35.4	22.4	0.00e+00	0	38	0	1251999744	39	3978
2026-01-25 15:44:16.26	239.87	20.28	-34.3	-35.2	22.6	0.00e+00	0	38	0	1261436928	39	3887
2026-01-25 15:44:16.97	240.03	20.33	-34.4	-35.2	22.6	0.00e+00	0	38	0	1266679808	39	3897
2026-01-25 15:44:18.25	240.32	20.41	-34.4	-35.3	22.6	0.00e+00	0	38	0	1276116992	39	3916
2026-01-25 15:44:18.96	240.48	20.45	-34.5	-35.3	22.5	0.00e+00	0	38	0	1281359872	39	3946
2026-01-25 15:44:20.24	240.77	20.53	-34.4	-35.3	22.5	0.00e+00	0	38	0	1290797056	39	3946
2026-01-25 15:44:20.95	240.93	20.57	-34.5	-35.4	22.5	0.00e+00	0	38	0	1296039936	39	3961
2026-01-25 15:44:22.23	241.22	20.65	-34.4	-35.2	22.6	0.00e+00	0	38	0	1305477120	39	3904
2026-01-25 15:44:22.94	241.38	20.70	-34.4	-35.3	22.5	0.00e+00	0	38	0	1309671424	39	3928
2026-01-25 15:44:24.22	241.67	20.78	-34.3	-35.1	22.7	0.00e+00	0	38	0	1319108608	39	3847
2026-01-25 15:44:24.95	241.84	20.82	-34.2	-35.1	22.7	0.00e+00	0	38	0	1324351488	39	3842
2026-01-25 15:44:26.23	242.14	20.90	-34.2	-35.1	22.7	0.00e+00	0	38	0	1333788672	39	3831
2026-01-25 15:44:27.00	242.32	20.94	-34.2	-35.1	22.7	0.00e+00	0	38	0	1339031552	39	3837
2026-01-25 15:44:28.28	242.62	21.02	-34.3	-35.2	22.7	0.00e+00	0	38	0	1348468736	39	3870
2026-01-25 15:44:29.00	242.78	21.06	-34.3	-35.2	22.6	0.00e+00	0	38	0	1353711616	39	3889
2026-01-25 15:44:30.27	243.08	21.14	-34.3	-35.2	22.6	0.00e+00	0	38	0	1363148800	39	3893
2026-01-25 15:44:31.20	243.30	21.19	-34.4	-35.2	22.6	0.00e+00	0	38	0	1369440256	39	3900
2026-01-25 15:44:32.20	243.54	21.25	-34.3	-35.2	22.7	0.00e+00	0	38	0	1376780288	39	3878
2026-01-25 15:44:33.55	243.86	21.33	-34.3	-35.1	22.7	0.00e+00	0	38	0	1386217472	39	3868
2026-01-25 15:44:34.26	244.03	21.37	-34.3	-35.2	22.6	0.00e+00	0	38	0	1391460352	39	3891
2026-01-25 15:44:35.54	244.34	21.45	-34.5	-35.3	22.5	0.00e+00	0	38	0	1400897536	39	3951
2026-01-25 15:44:36.26	244.51	21.49	-34.3	-35.2	22.6	0.00e+00	0	38	0	1406140416	39	3883
2026-01-25 15:44:37.54	244.82	21.56	-34.3	-35.2	22.6	0.00e+00	0	38	0	1415577600	39	3896
2026-01-25 15:44:38.25	244.99	21.60	-34.4	-35.3	22.6	0.00e+00	0	38	0	1420820480	39	3914
2026-01-25 15:44:39.53	245.30	21.67	-34.5	-35.4	22.4	0.00e+00	0	38	0	1430257664	39	3997
2026-01-25 15:44:40.24	245.47	21.71	-34.6	-35.5	22.4	0.00e+00	0	38	0	1434451968	39	4026
2026-01-25 15:44:41.52	245.79	21.78	-34.4	-35.3	22.6	0.00e+00	0	38	0	1443889152	39	3924
2026-01-25 15:44:42.23	245.96	21.82	-34.4	-35.3	22.6	0.00e+00	0	38	0	1449132032	39	3921
2026-01-25 15:44:43.51	246.28	21.89	-34.2	-35.0	22.8	0.00e+00	0	38	0	1458569216	39	3814
2026-01-25 15:44:44.22	246.45	21.93	-34.1	-34.9	22.9	0.00e+00	0	38	0	1463812096	39	3768
2026-01-25 15:44:45.50	246.77	22.00	-34.1	-34.9	22.9	0.00e+00	0	38	0	1473249280	38	3995
2026-01-25 15:44:46.22	246.95	22.03	-34.1	-34.9	22.9	0.00e+00	0	38	0	1477443584	38	4002
2026-01-25 15:44:47.74	247.33	22.11	-34.0	-34.9	22.9	0.00e+00	0	38	0	1488977920	38	3972
2026-01-25 15:44:48.45	247.51	22.15	-34.0	-34.9	22.9	0.00e+00	0	38	0	1494220800	38	3967
2026-01-25 15:44:49.73	247.83	22.22	-34.0	-34.9	22.9	0.00e+00	0	38	0	1503657984	38	3976
2026-01-25 15:44:50.44	248.01	22.25	-34.1	-34.9	22.9	0.00e+00	0	38	0	1508900864	38	3981
2026-01-25 15:44:51.72	248.33	22.32	-34.0	-34.8	23.0	0.00e+00	0	38	0	1517289472	38	3952
2026-01-25 15:44:52.43	248.51	22.35	-34.0	-34.9	23.0	0.00e+00	0	38	0	1522532352	38	3973
2026-01-25 15:44:53.71	248.84	22.42	-34.1	-34.9	22.8	0.00e+00	0	38	0	1531969536	38	4001
2026-01-25 15:44:54.42	249.02	22.45	-34.1	-34.9	22.9	0.00e+00	0	38	0	1537212416	38	3982
2026-01-25 15:44:55.70	249.35	22.51	-34.1	-34.9	22.9	0.00e+00	0	38	0	1546649600	38	3979
2026-01-25 15:44:56.43	249.54	22.55	-34.0	-34.9	22.9	0.00e+00	0	38	0	1551892480	38	3966
2026-01-25 15:44:57.71	249.87	22.61	-34.1	-34.9	22.9	0.00e+00	0	38	0	1561329664	38	4003
2026-01-25 15:44:58.43	250.05	22.65	-34.1	-34.9	22.9	0.00e+00	0	39	0	1566572544	38	3987
2026-01-25 15:44:59.71	250.38	22.71	-34.1	-35.0	22.8	0.00e+00	0	38	0	1574961152	38	4009
2026-01-25 15:45:00.44	250.57	22.74	-34.1	-34.9	22.9	0.00e+00	0	38	0	1581252608	38	3990
2026-01-25 15:45:01.72	250.91	22.80	-34.2	-35.0	22.8	0.00e+00	0	38	0	1589641216	38	4029
2026-01-25 15:45:02.66	251.15	22.84	-34.2	-35.0	22.8	0.00e+00	0	38	0	1596981248	38	4047
2026-01-25 15:45:03.97	251.50	22.90	-34.1	-34.9	22.9	0.00e+00	0	38	0	1606418432	38	3998
2026-01-25 15:45:04.69	251.69	22.93	-34.2	-35.0	22.8	0.00e+00	0	38	0	1611661312	38	4028
2026-01-25 15:45:05.97	252.03	22.99	-34.2	-35.1	22.7	0.00e+00	0	38	0	1620049920	38	4073
2026-01-25 15:45:06.68	252.21	23.02	-34.1	-34.9	22.9	0.00e+00	0	38	0	1625292800	38	3999
2026-01-25 15:45:07.96	252.55	23.07	-33.8	-34.7	23.1	0.00e+00	0	38	0	1634729984	38	3886
2026-01-25 15:45:08.67	252.74	23.10	-33.9	-34.7	23.1	0.00e+00	0	38	0	1639972864	38	3904
2026-01-25 15:45:09.95	253.08	23.15	-33.9	-34.8	23.0	0.00e+00	0	38	0	1649410048	38	3927
2026-01-25 15:45:10.68	253.28	23.18	-34.0	-34.9	22.9	0.00e+00	0	38	0	1654652928	38	3983
2026-01-25 15:45:11.96	253.62	23.23	-34.0	-34.9	22.9	0.00e+00	0	38	0	1664090112	38	3969
2026-01-25 15:45:12.68	253.82	23.26	-34.1	-34.9	22.9	0.00e+00	0	38	0	1669332992	38	3999
2026-01-25 15:45:14.04	254.18	23.31	-34.1	-35.0	22.9	0.00e+00	0	38	0	1678770176	38	4006
2026-01-25 15:45:14.75	254.37	23.34	-34.0	-34.8	23.0	0.00e+00	0	38	0	1684013056	38	3953
2026-01-25 15:45:16.03	254.72	23.39	-34.1	-34.9	22.9	0.00e+00	0	38	0	1693450240	38	3988
2026-01-25 15:45:16.76	254.92	23.42	-34.2	-35.0	22.8	0.00e+00	0	38	0	1698693120	38	4042
2026-01-25 15:45:18.03	255.26	23.46	-33.8	-34.7	23.1	0.00e+00	0	38	0	1708130304	38	3873
2026-01-25 15:45:18.76	255.46	23.49	-33.8	-34.6	23.1	0.00e+00	0	38	0	1713373184	38	3865
2026-01-25 15:45:20.04	255.81	23.54	-33.8	-34.6	23.2	0.00e+00	0	38	0	1721761792	38	3855
2026-01-25 15:45:20.75	256.01	23.56	-33.7	-34.5	23.3	0.00e+00	0	38	0	1727004672	38	3805
2026-01-25 15:45:22.03	256.36	23.60	-33.7	-34.5	23.2	0.00e+00	0	38	0	1736441856	38	3822
2026-01-25 15:45:22.78	256.56	23.63	-33.7	-34.5	23.2	0.00e+00	0	38	0	1741684736	38	3816
2026-01-25 15:45:24.06	256.92	23.67	-33.6	-34.4	23.3	0.00e+00	0	39	0	1751121920	37	3983
2026-01-25 15:45:24.91	257.15	23.70	-33.7	-34.5	23.2	0.00e+00	0	38	0	1757413376	37	4025
2026-01-25 15:45:26.05	257.47	23.73	-33.6	-34.4	23.4	0.00e+00	0	38	0	1765801984	37	3971
2026-01-25 15:45:26.90	257.70	23.76	-33.6	-34.4	23.4	0.00e+00	0	38	0	1772093440	37	3991
2026-01-25 15:45:28.04	258.02	23.79	-33.6	-34.4	23.3	0.00e+00	0	38	0	1780482048	37	3981
2026-01-25 15:45:28.89	258.26	23.82	-33.6	-34.4	23.3	0.00e+00	0	38	0	1785724928	37	3995
2026-01-25 15:45:30.03	258.57	23.85	-33.5	-34.3	23.4	0.00e+00	0	38	0	1794113536	37	3945
2026-01-25 15:45:30.88	258.81	23.88	-33.5	-34.3	23.4	0.00e+00	0	38	0	1800404992	37	3949
2026-01-25 15:45:32.02	259.13	23.91	-33.5	-34.3	23.4	0.00e+00	0	38	0	1808793600	37	3952
2026-01-25 15:45:32.87	259.37	23.93	-33.6	-34.4	23.4	0.00e+00	0	38	0	1815085056	37	3971
2026-01-25 15:45:34.01	259.69	23.96	-33.6	-34.5	23.3	0.00e+00	0	38	0	1822425088	37	4014
2026-01-25 15:45:34.86	259.93	23.98	-33.7	-34.5	23.3	0.00e+00	0	38	0	1828716544	37	4020
2026-01-25 15:45:36.00	260.25	24.01	-33.8	-34.7	23.0	0.00e+00	0	39	0	1837105152	37	4100
2026-01-25 15:45:36.85	260.49	24.03	-33.8	-34.7	23.1	0.00e+00	0	38	0	1843396608	37	4116
2026-01-25 15:45:37.99	260.81	24.06	-33.9	-34.8	23.0	0.00e+00	0	38	0	1851785216	37	4168
2026-01-25 15:45:38.84	261.05	24.08	-34.0	-34.9	22.9	0.00e+00	0	38	0	1858076672	37	4217
2026-01-25 15:45:39.98	261.37	24.10	-33.9	-34.7	23.1	0.00e+00	0	38	0	1866465280	37	4134
2026-01-25 15:45:40.83	261.61	24.12	-33.9	-34.7	23.1	0.00e+00	0	38	0	1872756736	37	4113
2026-01-25 15:45:41.97	261.94	24.14	-33.7	-34.5	23.3	0.00e+00	0	38	0	1880096768	37	4032
2026-01-25 15:45:42.83	262.18	24.16	-33.6	-34.4	23.3	0.00e+00	0	38	0	1886388224	37	3980
2026-01-25 15:45:43.96	262.50	24.18	-33.5	-34.4	23.4	0.00e+00	0	38	0	1894776832	37	3960
2026-01-25 15:45:44.82	262.75	24.20	-33.6	-34.4	23.3	0.00e+00	0	38	0	1901068288	37	4000
2026-01-25 15:45:45.95	263.07	24.22	-33.6	-34.4	23.3	0.00e+00	0	38	0	1909456896	37	3993
2026-01-25 15:45:46.81	263.32	24.23	-33.6	-34.5	23.3	0.00e+00	0	38	0	1915748352	37	4016
2026-01-25 15:45:48.04	263.67	24.25	-33.7	-34.6	23.2	0.00e+00	0	39	0	1924136960	37	4070
2026-01-25 15:45:48.89	263.91	24.26	-33.8	-34.6	23.2	0.00e+00	0	38	0	1930428416	37	4070
2026-01-25 15:45:50.11	264.26	24.28	-33.6	-34.4	23.3	0.00e+00	0	38	0	1938817024	37	3988
2026-01-25 15:45:50.96	264.50	24.29	-33.6	-34.4	23.3	0.00e+00	0	39	0	1945108480	37	3994
2026-01-25 15:45:52.09	264.83	24.31	-33.5	-34.3	23.4	0.00e+00	0	38	0	1953497088	37	3957
2026-01-25 15:45:52.95	265.08	24.32	-33.6	-34.4	23.4	0.00e+00	0	39	0	1959788544	37	3975
2026-01-25 15:45:54.08	265.40	24.33	-33.7	-34.5	23.2	0.00e+00	0	38	0	1968177152	37	4040
2026-01-25 15:45:55.03	265.67	24.34	-33.7	-34.5	23.2	0.00e+00	0	38	0	1974468608	37	4032
2026-01-25 15:45:56.03	265.96	24.35	-33.7	-34.5	23.2	0.00e+00	0	38	0	1981808640	37	4039
2026-01-25 15:45:57.02	266.25	24.36	-33.7	-34.6	23.2	0.00e+00	0	38	0	1989148672	37	4063
2026-01-25 15:45:58.02	266.53	24.37	-33.8	-34.6	23.1	0.00e+00	0	38	0	1996488704	37	4085
2026-01-25 15:45:59.01	266.82	24.38	-33.9	-34.8	23.0	0.00e+00	0	38	0	2003828736	37	4148
2026-01-25 15:46:00.00	267.11	24.39	-33.8	-34.7	23.1	0.00e+00	0	38	0	2010120192	37	4105
2026-01-25 15:46:01.00	267.39	24.39	-33.7	-34.6	23.2	0.00e+00	0	38	0	2017460224	37	4053
2026-01-25 15:46:01.99	267.68	24.40	-33.7	-34.5	23.2	0.00e+00	0	38	0	2024800256	37	4019
2026-01-25 15:46:02.99	267.97	24.40	-33.6	-34.4	23.3	0.00e+00	0	38	0	2032140288	37	3996
2026-01-25 15:46:03.98	268.25	24.41	-33.6	-34.4	23.3	0.00e+00	0	38	0	2039480320	37	3975
2026-01-25 15:46:04.98	268.54	24.41	-33.4	-34.2	23.5	0.00e+00	0	38	0	2046820352	37	3903
2026-01-25 15:46:05.98	268.83	24.42	-33.4	-34.2	23.5	0.00e+00	0	38	0	2053111808	37	3906
2026-01-25 15:46:06.97	269.12	24.42	-33.6	-34.4	23.2	0.00e+00	0	38	0	2060451840	37	3998
2026-01-25 15:46:07.97	269.41	24.42	-33.7	-34.5	23.2	0.00e+00	0	38	0	2067791872	37	4035
2026-01-25 15:46:08.96	269.69	24.42	-33.8	-34.6	23.1	0.00e+00	0	38	0	2075131904	37	4079
2026-01-25 15:46:09.96	269.98	24.42	-33.9	-34.7	23.1	0.00e+00	0	38	0	2082471936	37	4124
2026-01-25 15:46:10.95	270.27	24.42	-33.8	-34.6	23.2	0.00e+00	0	38	0	2089811968	37	4070
2026-01-25 15:46:11.94	270.55	24.42	-33.8	-34.6	23.2	0.00e+00	0	38	0	2097152000	37	4083
2026-01-25 15:46:12.94	270.84	24.41	-33.7	-34.5	23.2	0.00e+00	0	38	0	2104492032	37	4040
2026-01-25 15:46:13.93	271.13	24.41	-33.6	-34.5	23.3	0.00e+00	0	38	0	2111832064	37	4015
2026-01-25 15:46:14.93	271.42	24.41	-33.7	-34.5	23.2	0.00e+00	0	38	0	2118123520	37	4019
2026-01-25 15:46:15.92	271.70	24.40	-33.8	-34.6	23.2	0.00e+00	0	38	0	2125463552	37	4081
2026-01-25 15:46:16.91	271.99	24.40	-33.8	-34.7	23.1	0.00e+00	0	39	0	2132803584	37	4106
2026-01-25 15:46:17.91	272.28	24.39	-33.8	-34.6	23.1	0.00e+00	0	39	0	2140143616	37	4077
2026-01-25 15:46:18.91	272.56	24.39	-33.8	-34.7	23.1	0.00e+00	0	39	0	2147483648	37	4103
2026-01-25 15:46:19.96	272.87	24.38	-33.8	-34.6	23.2	0.00e+00	0	38	0	2154823680	37	4068
2026-01-25 15:46:20.91	273.14	24.37	-33.7	-34.6	23.1	0.00e+00	0	38	0	2161115136	37	4062
2026-01-25 15:46:21.91	273.43	24.36	-33.8	-34.6	23.1	0.00e+00	0	38	0	2168455168	37	4079
2026-01-25 15:46:22.90	273.71	24.35	-33.8	-34.6	23.1	0.00e+00	0	38	0	2175795200	37	4088
2026-01-25 15:46:23.90	274.00	24.34	-33.7	-34.5	23.2	0.00e+00	0	38	0	2183135232	37	4044
2026-01-25 15:46:24.89	274.28	24.33	-33.8	-34.6	23.0	0.00e+00	0	39	0	2190475264	37	4074
2026-01-25 15:46:25.89	274.57	24.32	-33.6	-34.4	23.3	0.00e+00	0	38	0	2197815296	37	3990
2026-01-25 15:46:26.88	274.86	24.30	-33.6	-34.5	23.3	0.00e+00	0	38	0	2205155328	37	4005
2026-01-25 15:46:27.88	275.14	24.29	-33.6	-34.4	23.3	0.00e+00	0	38	0	2211446784	37	3999
2026-01-25 15:46:28.87	275.43	24.28	-33.6	-34.4	23.3	0.00e+00	0	39	0	2218786816	37	3980
2026-01-25 15:46:29.87	275.71	24.26	-33.6	-34.5	23.3	0.00e+00	0	38	0	2226126848	37	4007
2026-01-25 15:46:30.86	275.99	24.25	-33.6	-34.4	23.3	0.00e+00	0	38	0	2233466880	37	3971
2026-01-25 15:46:31.86	276.28	24.23	-33.7	-34.5	23.2	0.00e+00	0	38	0	2240806912	37	4034
2026-01-25 15:46:32.85	276.56	24.21	-33.7	-34.5	23.2	0.00e+00	0	38	0	2248146944	37	4044
2026-01-25 15:46:33.94	276.87	24.19	-33.7	-34.5	23.2	0.00e+00	0	38	0	2255486976	37	4050
2026-01-25 15:46:34.82	277.12	24.18	-33.9	-34.7	23.0	0.00e+00	0	38	0	2261778432	37	4130
2026-01-25 15:46:35.96	277.45	24.16	-33.7	-34.6	23.2	0.00e+00	0	38	0	2270167040	37	4062
2026-01-25 15:46:36.81	277.69	24.14	-33.9	-34.7	23.1	0.00e+00	0	38	0	2276458496	37	4121
2026-01-25 15:46:37.95	278.01	24.12	-33.8	-34.7	23.1	0.00e+00	0	38	0	2284847104	37	4099
2026-01-25 15:46:38.80	278.25	24.10	-33.8	-34.6	23.1	0.00e+00	0	38	0	2291138560	37	4062
2026-01-25 15:46:39.94	278.57	24.07	-33.9	-34.7	23.0	0.00e+00	0	38	0	2299527168	37	4125
2026-01-25 15:46:40.79	278.81	24.05	-33.9	-34.7	23.0	0.00e+00	0	38	0	2304770048	37	4129
2026-01-25 15:46:41.93	279.14	24.03	-33.9	-34.7	23.0	0.00e+00	0	39	0	2313158656	37	4115
2026-01-25 15:46:42.78	279.38	24.01	-33.9	-34.8	23.0	0.00e+00	0	38	0	2319450112	37	4158
2026-01-25 15:46:43.92	279.70	23.98	-34.0	-34.8	22.9	0.00e+00	0	38	0	2327838720	37	4186
2026-01-25 15:46:44.77	279.93	23.96	-34.0	-34.8	23.0	0.00e+00	0	38	0	2334130176	37	4178
2026-01-25 15:46:45.91	280.25	23.93	-33.7	-34.6	23.2	0.00e+00	0	38	0	2341470208	37	4058
2026-01-25 15:46:46.76	280.49	23.90	-33.7	-34.5	23.2	0.00e+00	0	38	0	2347761664	37	4015
2026-01-25 15:46:47.90	280.81	23.87	-33.7	-34.5	23.2	0.00e+00	0	38	0	2356150272	37	4050
2026-01-25 15:46:48.75	281.05	23.85	-33.7	-34.5	23.2	0.00e+00	0	38	0	2362441728	37	4038
2026-01-25 15:46:49.89	281.36	23.82	-33.8	-34.7	23.1	0.00e+00	0	38	0	2370830336	37	4100
2026-01-25 15:46:50.79	281.61	23.79	-33.9	-34.7	23.0	0.00e+00	0	38	0	2377121792	37	4127
2026-01-25 15:46:51.99	281.95	23.75	-33.9	-34.8	23.0	0.00e+00	0	38	0	2385510400	37	4152
2026-01-25 15:46:52.84	282.18	23.73	-33.9	-34.7	23.1	0.00e+00	0	38	0	2391801856	37	4120
2026-01-25 15:46:53.98	282.50	23.69	-33.8	-34.6	23.2	0.00e+00	0	38	0	2400190464	37	4069
2026-01-25 15:46:54.83	282.73	23.66	-33.7	-34.5	23.2	0.00e+00	0	38	0	2406481920	37	4029
2026-01-25 15:46:55.97	283.04	23.63	-33.6	-34.5	23.2	0.00e+00	0	38	0	2414870528	37	4014
2026-01-25 15:46:56.82	283.28	23.60	-33.7	-34.5	23.2	0.00e+00	0	38	0	2420113408	37	4039
2026-01-25 15:46:57.96	283.59	23.56	-33.7	-34.5	23.2	0.00e+00	0	38	0	2428502016	37	4042
2026-01-25 15:46:58.81	283.82	23.53	-33.8	-34.7	23.1	0.00e+00	0	38	0	2434793472	37	4112
2026-01-25 15:46:59.95	284.13	23.49	-34.0	-34.8	22.9	0.00e+00	0	38	0	2443182080	37	4177
2026-01-25 15:47:00.78	284.36	23.46	-34.0	-34.8	22.9	0.00e+00	0	39	0	2449473536	37	4187
2026-01-25 15:47:01.91	284.66	23.42	-34.1	-35.0	22.8	0.00e+00	0	38	0	2457862144	37	4244
2026-01-25 15:47:02.77	284.90	23.39	-34.0	-34.8	22.9	0.00e+00	0	38	0	2463105024	37	4183
2026-01-25 15:47:03.91	285.20	23.34	-34.1	-35.0	22.8	0.00e+00	0	38	0	2471493632	37	4244
2026-01-25 15:47:04.76	285.43	23.31	-34.1	-34.9	22.8	0.00e+00	0	38	0	2477785088	37	4234
2026-01-25 15:47:06.00	285.77	23.26	-34.1	-35.0	22.8	0.00e+00	0	38	0	2487222272	37	4267
2026-01-25 15:47:06.86	286.00	23.23	-34.1	-34.9	22.8	0.00e+00	0	38	0	2493513728	37	4236
2026-01-25 15:47:07.99	286.30	23.18	-34.1	-34.9	22.8	0.00e+00	0	38	0	2501902336	37	4230
2026-01-25 15:47:08.84	286.53	23.15	-34.0	-34.9	22.9	0.00e+00	0	38	0	2507145216	37	4209
2026-01-25 15:47:10.11	286.86	23.10	-34.0	-34.8	23.0	0.00e+00	0	38	0	2516582400	37	4167
2026-01-25 15:47:10.92	287.08	23.06	-34.0	-34.9	22.9	0.00e+00	0	38	0	2522873856	37	4204
2026-01-25 15:47:12.06	287.38	23.02	-34.1	-35.0	22.8	0.00e+00	0	38	0	2530213888	37	4246
2026-01-25 15:47:12.92	287.61	22.98	-34.2	-35.1	22.7	0.00e+00	0	38	0	2536505344	37	4293
2026-01-25 15:47:14.05	287.90	22.93	-34.1	-34.9	22.8	0.00e+00	0	38	0	2544893952	37	4216
2026-01-25 15:47:14.91	288.13	22.89	-34.2	-35.0	22.8	0.00e+00	0	38	0	2551185408	37	4269
2026-01-25 15:47:16.04	288.43	22.84	-34.2	-35.0	22.7	0.00e+00	0	38	0	2559574016	37	4272
2026-01-25 15:47:16.90	288.65	22.80	-34.1	-34.9	22.8	0.00e+00	0	38	0	2565865472	37	4229
2026-01-25 15:47:18.03	288.94	22.75	-34.1	-35.0	22.8	0.00e+00	0	38	0	2574254080	37	4250
2026-01-25 15:47:18.89	289.17	22.71	-34.1	-35.0	22.8	0.00e+00	0	38	0	2580545536	37	4258
2026-01-25 15:47:20.02	289.46	22.66	-34.1	-35.0	22.8	0.00e+00	0	38	0	2587885568	37	4254
2026-01-25 15:47:20.88	289.68	22.62	-34.1	-35.0	22.6	0.00e+00	0	38	0	2594177024	37	4256
2026-01-25 15:47:22.01	289.97	22.57	-34.1	-34.9	22.8	0.00e+00	0	38	0	2602565632	37	4228
2026-01-25 15:47:22.86	290.19	22.53	-34.1	-34.9	22.8	0.00e+00	0	38	0	2608857088	37	4237
2026-01-25 15:47:24.10	290.51	22.46	-34.0	-34.9	22.9	0.00e+00	0	38	0	2617245696	37	4209
2026-01-25 15:47:24.95	290.72	22.42	-34.2	-35.0	22.7	0.00e+00	0	38	0	2623537152	37	4282
2026-01-25 15:47:26.09	291.01	22.37	-34.0	-34.9	22.9	0.00e+00	0	38	0	2631925760	37	4206
2026-01-25 15:47:26.94	291.23	22.32	-34.3	-35.1	22.7	0.00e+00	0	38	0	2638217216	37	4322
2026-01-25 15:47:28.08	291.52	22.27	-34.5	-35.3	22.5	0.00e+00	0	38	0	2646605824	38	4188
2026-01-25 15:47:28.94	291.73	22.22	-34.6	-35.4	22.4	0.00e+00	0	38	0	2652897280	38	4230
2026-01-25 15:47:30.07	292.02	22.17	-34.7	-35.6	22.2	0.00e+00	0	38	0	2660237312	38	4305
2026-01-25 15:47:31.07	292.26	22.11	-34.7	-35.5	22.2	0.00e+00	0	38	0	2667577344	38	4284
2026-01-25 15:47:32.06	292.51	22.06	-34.5	-35.4	22.4	0.00e+00	0	38	0	2674917376	38	4223
2026-01-25 15:47:33.25	292.81	22.00	-34.4	-35.3	22.5	0.00e+00	0	38	0	2683305984	38	4155
2026-01-25 15:47:34.10	293.02	21.95	-34.3	-35.1	22.6	0.00e+00	0	38	0	2689597440	38	4091
2026-01-25 15:47:35.48	293.36	21.88	-34.2	-35.0	22.7	0.00e+00	0	38	0	2700083200	38	4040
2026-01-25 15:47:36.19	293.53	21.84	-34.2	-35.0	22.7	0.00e+00	0	38	0	2705326080	38	4024
2026-01-25 15:47:37.47	293.84	21.77	-34.1	-35.0	22.8	0.00e+00	0	38	0	2713714688	38	4018
2026-01-25 15:47:38.19	294.02	21.73	-34.2	-35.0	22.8	0.00e+00	0	38	0	2718957568	38	4034
2026-01-25 15:47:39.47	294.33	21.66	-34.0	-34.9	22.9	0.00e+00	0	38	0	2728394752	38	3961
2026-01-25 15:47:40.18	294.50	21.62	-34.1	-34.9	22.8	0.00e+00	0	38	0	2733637632	38	4002
2026-01-25 15:47:41.46	294.81	21.55	-34.1	-34.9	22.9	0.00e+00	0	38	0	2743074816	38	3978
2026-01-25 15:47:42.20	294.99	21.51	-34.0	-34.9	22.8	0.00e+00	0	38	0	2748317696	38	3966
2026-01-25 15:47:43.48	295.30	21.44	-34.2	-35.0	22.7	0.00e+00	0	38	0	2757754880	38	4023
2026-01-25 15:47:44.22	295.47	21.39	-34.2	-35.0	22.7	0.00e+00	0	39	0	2762997760	38	4037
2026-01-25 15:47:45.50	295.78	21.32	-34.2	-35.0	22.7	0.00e+00	0	38	0	2772434944	38	4049
2026-01-25 15:47:46.23	295.95	21.28	-34.3	-35.2	22.6	0.00e+00	0	38	0	2777677824	38	4113
2026-01-25 15:47:47.51	296.25	21.20	-34.5	-35.3	22.5	0.00e+00	0	38	0	2787115008	38	4179
2026-01-25 15:47:48.22	296.42	21.16	-34.5	-35.4	22.4	0.00e+00	0	38	0	2791309312	38	4197
2026-01-25 15:47:49.50	296.72	21.09	-34.6	-35.5	22.3	0.00e+00	0	39	0	2800746496	38	4261
2026-01-25 15:47:50.22	296.89	21.05	-34.7	-35.6	22.2	0.00e+00	0	38	0	2805989376	39	4057
2026-01-25 15:47:51.57	297.20	20.96	-34.8	-35.7	22.1	0.00e+00	0	39	0	2815426560	39	4107
2026-01-25 15:47:52.28	297.36	20.92	-34.8	-35.7	22.1	0.00e+00	0	39	0	2820669440	39	4114
2026-01-25 15:47:53.65	297.68	20.84	-35.0	-35.9	22.0	0.00e+00	0	38	0	2831155200	39	4209
2026-01-25 15:47:54.36	297.84	20.80	-34.9	-35.8	22.0	0.00e+00	0	38	0	2836398080	39	4187
2026-01-25 15:47:55.64	298.14	20.72	-35.0	-35.9	21.9	0.00e+00	0	38	0	2845835264	39	4203
2026-01-25 15:47:56.36	298.30	20.68	-35.0	-35.9	21.9	0.00e+00	0	38	0	2850029568	39	4228
2026-01-25 15:47:57.77	298.62	20.59	-35.0	-35.9	21.9	0.00e+00	0	38	0	2860515328	39	4215
2026-01-25 15:47:58.48	298.78	20.54	-35.0	-35.9	21.9	0.00e+00	0	38	0	2865758208	39	4206
2026-01-25 15:47:59.76	299.07	20.47	-34.8	-35.6	22.1	0.00e+00	0	38	0	2875195392	39	4096
2026-01-25 15:48:00.47	299.23	20.42	-34.7	-35.6	22.2	0.00e+00	0	38	0	2880438272	39	4059
2026-01-25 15:48:01.75	299.51	20.34	-34.7	-35.6	22.2	0.00e+00	0	38	0	2889875456	39	4056
2026-01-25 15:48:02.49	299.68	20.29	-34.6	-35.4	22.3	0.00e+00	0	38	0	2895118336	39	3993
2026-01-25 15:48:03.77	299.96	20.21	-34.5	-35.4	22.4	0.00e+00	0	38	0	2903506944	39	3985
2026-01-25 15:48:04.50	300.12	20.17	-34.5	-35.4	22.4	0.00e+00	0	38	0	2909798400	39	3976
2026-01-25 15:48:05.78	300.41	20.09	-34.5	-35.4	22.4	0.00e+00	0	38	0	2919235584	39	3976
2026-01-25 15:48:06.51	300.57	20.04	-34.5	-35.4	22.4	0.00e+00	0	39	0	2923429888	39	3980
2026-01-25 15:48:07.79	300.84	19.96	-34.6	-35.4	22.3	0.00e+00	0	38	0	2932867072	39	3992
2026-01-25 15:48:08.60	301.02	19.91	-34.6	-35.5	22.3	0.00e+00	0	39	0	2939158528	39	4007
2026-01-25 15:48:10.03	301.33	19.81	-34.7	-35.5	22.2	0.00e+00	0	38	0	2948595712	39	4045
2026-01-25 15:48:10.74	301.48	19.77	-34.8	-35.7	22.1	0.00e+00	0	38	0	2954887168	39	4104
2026-01-25 15:48:12.23	301.80	19.67	-34.8	-35.7	22.0	0.00e+00	0	38	0	2965372928	39	4127
2026-01-25 15:48:12.95	301.95	19.62	-34.9	-35.8	22.0	0.00e+00	0	38	0	2970615808	39	4146
2026-01-25 15:48:14.22	302.22	19.54	-35.0	-35.9	21.8	0.00e+00	0	38	0	2979004416	39	4218
2026-01-25 15:48:14.93	302.37	19.49	-35.2	-36.1	21.7	0.00e+00	0	38	0	2984247296	39	4292
2026-01-25 15:48:16.21	302.64	19.41	-35.0	-35.9	21.9	0.00e+00	0	38	0	2993684480	39	4214
2026-01-25 15:48:16.92	302.79	19.36	-35.0	-35.9	21.8	0.00e+00	0	38	0	2998927360	39	4223
2026-01-25 15:48:18.20	303.06	19.28	-35.0	-35.9	21.8	0.00e+00	0	38	0	3008364544	39	4237
2026-01-25 15:48:18.91	303.21	19.23	-35.1	-36.0	21.8	0.00e+00	0	39	0	3013607424	39	4254
2026-01-25 15:48:20.18	303.47	19.14	-35.0	-35.9	21.9	0.00e+00	0	38	0	3023044608	39	4203
2026-01-25 15:48:20.89	303.62	19.10	-35.0	-35.9	21.9	0.00e+00	0	38	0	3027238912	39	4227
2026-01-25 15:48:22.18	303.88	19.01	-35.0	-35.9	21.8	0.00e+00	0	38	0	3036676096	39	4231
2026-01-25 15:48:22.89	304.02	18.96	-35.0	-35.8	21.9	0.00e+00	0	38	0	3041918976	39	4188
2026-01-25 15:48:24.21	304.29	18.87	-34.9	-35.8	22.0	0.00e+00	0	39	0	3051356160	39	4170
2026-01-25 15:48:24.92	304.44	18.83	-34.9	-35.8	22.0	0.00e+00	0	38	0	3056599040	39	4167
2026-01-25 15:48:26.24	304.70	18.74	-34.9	-35.8	21.9	0.00e+00	0	38	0	3066036224	39	4181
2026-01-25 15:48:26.95	304.85	18.69	-34.9	-35.8	22.0	0.00e+00	0	39	0	3071279104	39	4180
2026-01-25 15:48:28.27	305.11	18.60	-34.9	-35.8	22.0	0.00e+00	0	38	0	3080716288	39	4168
2026-01-25 15:48:28.98	305.25	18.55	-34.9	-35.8	22.0	0.00e+00	0	38	0	3085959168	39	4163
2026-01-25 15:48:30.26	305.50	18.46	-35.0	-35.9	21.9	0.00e+00	0	38	0	3095396352	39	4195
2026-01-25 15:48:30.98	305.65	18.41	-35.0	-35.9	21.9	0.00e+00	0	38	0	3100639232	39	4202
2026-01-25 15:48:32.26	305.90	18.32	-35.1	-36.0	21.8	0.00e+00	0	38	0	3110076416	39	4247
2026-01-25 15:48:32.97	306.04	18.28	-35.2	-36.1	21.6	0.00e+00	0	38	0	3115319296	39	4309
2026-01-25 15:48:34.25	306.28	18.19	-35.3	-36.2	21.4	0.00e+00	0	38	0	3123707904	40	4133
2026-01-25 15:48:34.96	306.42	18.14	-35.3	-36.2	21.5	0.00e+00	0	38	0	3129999360	40	4107
2026-01-25 15:48:36.24	306.67	18.05	-35.4	-36.3	21.4	0.00e+00	0	38	0	3138387968	40	4162
2026-01-25 15:48:36.95	306.81	18.00	-35.4	-36.3	21.4	0.00e+00	0	39	0	3143630848	40	4172
2026-01-25 15:48:38.23	307.05	17.91	-35.4	-36.3	21.4	0.00e+00	0	38	0	3153068032	40	4170
2026-01-25 15:48:38.96	307.19	17.86	-35.4	-36.3	21.4	0.00e+00	0	38	0	3158310912	40	4163
2026-01-25 15:48:40.24	307.43	17.77	-35.3	-36.2	21.5	0.00e+00	0	38	0	3167748096	40	4134
2026-01-25 15:48:40.95	307.57	17.72	-35.3	-36.2	21.5	0.00e+00	0	38	0	3171942400	40	4122
2026-01-25 15:48:42.22	307.80	17.64	-35.4	-36.3	21.4	0.00e+00	0	38	0	3181379584	40	4147
2026-01-25 15:48:42.93	307.94	17.59	-35.3	-36.2	21.5	0.00e+00	0	38	0	3186622464	40	4124
2026-01-25 15:48:44.23	308.18	17.49	-35.4	-36.3	21.4	0.00e+00	0	38	0	3196059648	40	4158
2026-01-25 15:48:44.94	308.31	17.44	-35.3	-36.2	21.5	0.00e+00	0	38	0	3201302528	40	4132
2026-01-25 15:48:46.22	308.55	17.36	-35.3	-36.2	21.5	0.00e+00	0	38	0	3210739712	40	4115
2026-01-25 15:48:46.95	308.68	17.30	-35.3	-36.2	21.4	0.00e+00	0	38	0	3215982592	40	4141
2026-01-25 15:48:48.22	308.91	17.21	-35.2	-36.1	21.5	0.00e+00	0	38	0	3225419776	40	4085
2026-01-25 15:48:48.93	309.04	17.16	-35.2	-36.1	21.5	0.00e+00	0	38	0	3230662656	40	4086
2026-01-25 15:48:50.21	309.27	17.07	-35.2	-36.1	21.6	0.00e+00	0	38	0	3240099840	40	4052
2026-01-25 15:48:50.95	309.41	17.02	-35.1	-36.0	21.6	0.00e+00	0	38	0	3244294144	40	4031
2026-01-25 15:48:52.23	309.64	16.93	-35.2	-36.1	21.6	0.00e+00	0	39	0	3253731328	40	4068
2026-01-25 15:48:52.94	309.76	16.88	-35.3	-36.2	21.5	0.00e+00	0	38	0	3258974208	40	4120
2026-01-25 15:48:54.22	309.99	16.79	-35.3	-36.2	21.5	0.00e+00	0	38	0	3268411392	40	4112
2026-01-25 15:48:54.93	310.12	16.74	-35.3	-36.2	21.5	0.00e+00	0	39	0	3273654272	40	4131
2026-01-25 15:48:56.21	310.34	16.65	-35.5	-36.4	21.2	0.00e+00	0	38	0	3283091456	40	4225
2026-01-25 15:48:57.16	310.51	16.58	-35.6	-36.5	21.1	0.00e+00	0	39	0	3289382912	40	4287
2026-01-25 15:48:58.46	310.73	16.49	-35.7	-36.7	21.0	0.00e+00	0	38	0	3298820096	41	4127
2026-01-25 15:48:59.17	310.86	16.44	-35.8	-36.8	20.9	0.00e+00	0	38	0	3304062976	41	4163
2026-01-25 15:49:00.45	311.08	16.35	-36.0	-37.0	20.8	0.00e+00	0	38	0	3313500160	41	4252
2026-01-25 15:49:01.19	311.21	16.30	-36.0	-36.9	20.8	0.00e+00	0	38	0	3318743040	41	4237
2026-01-25 15:49:02.47	311.43	16.21	-36.1	-37.0	20.7	0.00e+00	0	38	0	3328180224	41	4287
2026-01-25 15:49:03.19	311.55	16.16	-36.0	-36.9	20.7	0.00e+00	0	38	0	3333423104	41	4240
2026-01-25 15:49:04.47	311.77	16.07	-35.9	-36.9	20.8	0.00e+00	0	39	0	3342860288	41	4210
2026-01-25 15:49:05.18	311.88	16.02	-36.0	-36.9	20.8	0.00e+00	0	38	0	3347054592	41	4234
2026-01-25 15:49:06.46	312.10	15.92	-35.6	-36.6	21.1	0.00e+00	0	39	0	3356491776	41	4060
2026-01-25 15:49:07.18	312.22	15.87	-35.5	-36.5	21.2	0.00e+00	0	38	0	3361734656	41	4013
2026-01-25 15:49:08.45	312.43	15.78	-35.4	-36.3	21.3	0.00e+00	0	38	0	3371171840	41	3942
2026-01-25 15:49:09.17	312.55	15.73	-35.3	-36.2	21.4	0.00e+00	0	38	0	3376414720	41	3904
2026-01-25 15:49:10.45	312.76	15.64	-35.4	-36.3	21.4	0.00e+00	0	39	0	3385851904	41	3933
2026-01-25 15:49:11.16	312.88	15.59	-35.3	-36.2	21.3	0.00e+00	0	39	0	3390046208	41	3909
2026-01-25 15:49:12.64	313.12	15.49	-35.3	-36.2	21.4	0.00e+00	0	38	0	3401580544	41	3901
2026-01-25 15:49:13.35	313.24	15.43	-35.3	-36.3	21.4	0.00e+00	0	39	0	3406823424	41	3925
2026-01-25 15:49:14.68	313.45	15.34	-35.4	-36.4	21.3	0.00e+00	0	38	0	3416260608	41	3967
2026-01-25 15:49:15.64	313.61	15.27	-35.6	-36.5	21.1	0.00e+00	0	38	0	3422552064	41	4027
2026-01-25 15:49:16.96	313.82	15.18	-35.6	-36.5	21.1	0.00e+00	0	38	0	3431989248	41	4043
2026-01-25 15:49:17.67	313.93	15.13	-35.6	-36.6	21.1	0.00e+00	0	38	0	3437232128	41	4062
2026-01-25 15:49:18.95	314.13	15.04	-35.7	-36.7	20.9	0.00e+00	0	38	0	3446669312	41	4118
2026-01-25 15:49:19.66	314.25	14.99	-36.0	-37.0	20.7	0.00e+00	0	38	0	3451912192	41	4245
2026-01-25 15:49:20.94	314.45	14.89	-36.1	-37.1	20.6	0.00e+00	0	38	0	3461349376	41	4318
2026-01-25 15:49:21.65	314.56	14.84	-36.1	-37.1	20.4	0.00e+00	0	38	0	3466592256	41	4327
2026-01-25 15:49:22.93	314.76	14.75	-36.2	-37.2	20.4	0.00e+00	0	38	0	3476029440	41	4379
2026-01-25 15:49:23.65	314.87	14.70	-36.2	-37.2	20.4	0.00e+00	0	38	0	3480223744	41	4377
2026-01-25 15:49:24.93	315.07	14.61	-36.3	-37.3	20.4	0.00e+00	0	38	0	3489660928	42	4155
2026-01-25 15:49:25.65	315.18	14.56	-36.4	-37.4	20.2	0.00e+00	0	38	0	3494903808	42	4201
2026-01-25 15:49:26.93	315.37	14.47	-36.2	-37.2	20.5	0.00e+00	0	38	0	3504340992	42	4111
2026-01-25 15:49:27.65	315.48	14.42	-36.1	-37.0	20.6	0.00e+00	0	38	0	3509583872	42	4048
2026-01-25 15:49:28.93	315.68	14.33	-36.0	-37.0	20.6	0.00e+00	0	38	0	3519021056	42	4026
2026-01-25 15:49:29.67	315.79	14.27	-35.9	-36.8	20.8	0.00e+00	0	38	0	3524263936	42	3955
2026-01-25 15:49:30.94	315.98	14.18	-35.8	-36.7	20.9	0.00e+00	0	38	0	3533701120	42	3901
2026-01-25 15:49:31.67	316.09	14.13	-35.8	-36.7	20.9	0.00e+00	0	38	0	3538944000	42	3904
2026-01-25 15:49:32.95	316.28	14.04	-35.6	-36.6	21.0	0.00e+00	0	38	0	3547332608	42	3853
2026-01-25 15:49:33.67	316.38	13.99	-35.7	-36.7	21.0	0.00e+00	0	38	0	3553624064	42	3873
2026-01-25 15:49:34.95	316.57	13.90	-35.7	-36.7	21.0	0.00e+00	0	38	0	3562012672	42	3882
2026-01-25 15:49:35.68	316.68	13.85	-35.6	-36.6	21.1	0.00e+00	0	38	0	3567255552	42	3833
2026-01-25 15:49:37.02	316.87	13.75	-35.5	-36.4	21.1	0.00e+00	0	38	0	3577741312	41	4003
2026-01-25 15:49:37.73	316.98	13.70	-35.5	-36.4	21.1	0.00e+00	0	38	0	3581935616	41	3995
2026-01-25 15:49:39.05	317.17	13.61	-35.6	-36.5	21.1	0.00e+00	0	38	0	3591372800	41	4025
2026-01-25 15:49:39.77	317.27	13.56	-35.6	-36.5	21.1	0.00e+00	0	38	0	3597664256	41	4031
2026-01-25 15:49:41.12	317.46	13.47	-35.7	-36.7	20.9	0.00e+00	0	38	0	3607101440	41	4113
2026-01-25 15:49:41.83	317.57	13.42	-35.9	-36.8	20.8	0.00e+00	0	38	0	3612344320	41	4170
2026-01-25 15:49:43.12	317.75	13.32	-36.1	-37.0	20.6	0.00e+00	0	38	0	3621781504	41	4286
2026-01-25 15:49:43.83	317.85	13.27	-36.1	-37.1	20.5	0.00e+00	0	38	0	3625975808	41	4311
2026-01-25 15:49:45.23	318.05	13.18	-36.2	-37.2	20.4	0.00e+00	0	38	0	3636461568	42	4129
2026-01-25 15:49:46.21	318.18	13.11	-36.5	-37.4	20.2	0.00e+00	0	38	0	3643801600	42	4241
2026-01-25 15:49:47.21	318.32	13.04	-36.5	-37.5	20.1	0.00e+00	0	38	0	3651141632	42	4265
2026-01-25 15:49:48.20	318.46	12.97	-36.6	-37.6	20.0	0.00e+00	0	38	0	3657433088	42	4329
2026-01-25 15:49:49.20	318.60	12.90	-36.8	-37.8	19.8	0.00e+00	0	38	0	3664773120	42	4419
2026-01-25 15:49:50.19	318.73	12.83	-36.6	-37.7	20.0	0.00e+00	0	38	0	3672113152	43	4099
2026-01-25 15:49:51.19	318.87	12.76	-36.7	-37.7	20.0	0.00e+00	0	38	0	3679453184	43	4101
2026-01-25 15:49:52.19	319.00	12.69	-36.5	-37.5	20.1	0.00e+00	0	38	0	3686793216	43	4044
2026-01-25 15:49:53.18	319.14	12.62	-36.5	-37.6	20.0	0.00e+00	0	38	0	3694133248	43	4056
2026-01-25 15:49:54.22	319.28	12.55	-36.4	-37.4	20.3	0.00e+00	0	38	0	3701473280	43	3967
2026-01-25 15:49:55.25	319.42	12.47	-36.3	-37.3	20.3	0.00e+00	0	38	0	3708813312	43	3937
2026-01-25 15:49:56.25	319.55	12.41	-36.2	-37.2	20.4	0.00e+00	0	38	0	3716153344	43	3889
2026-01-25 15:49:57.32	319.69	12.33	-36.2	-37.2	20.4	0.00e+00	0	38	0	3723493376	43	3882
2026-01-25 15:49:58.20	319.81	12.27	-36.2	-37.3	20.3	0.00e+00	0	38	0	3729784832	43	3921
2026-01-25 15:49:59.52	319.98	12.18	-36.0	-37.0	20.5	0.00e+00	0	38	0	3740270592	42	4050
2026-01-25 15:50:00.23	320.07	12.13	-36.0	-37.0	20.5	0.00e+00	0	38	0	3744464896	42	4051
2026-01-25 15:50:01.71	320.27	12.03	-36.0	-37.1	20.5	0.00e+00	0	38	0	3755999232	42	4053
2026-01-25 15:50:02.42	320.36	11.98	-36.0	-37.0	20.6	0.00e+00	0	38	0	3761242112	42	4008
2026-01-25 15:50:03.70	320.52	11.89	-36.0	-37.0	20.6	0.00e+00	0	38	0	3769630720	42	4012
2026-01-25 15:50:04.42	320.62	11.84	-35.9	-36.9	20.7	0.00e+00	0	38	0	3774873600	42	3968
2026-01-25 15:50:05.82	320.80	11.74	-36.0	-37.0	20.6	0.00e+00	0	38	0	3785359360	42	4027
2026-01-25 15:50:06.53	320.89	11.69	-36.1	-37.0	20.5	0.00e+00	0	38	0	3790602240	42	4047
2026-01-25 15:50:07.81	321.05	11.60	-36.1	-37.0	20.5	0.00e+00	0	38	0	3798990848	42	4050
2026-01-25 15:50:08.52	321.14	11.56	-36.2	-37.1	20.4	0.00e+00	0	39	0	3805282304	42	4090
2026-01-25 15:50:09.80	321.30	11.47	-36.3	-37.3	20.2	0.00e+00	0	38	0	3813670912	42	4166
2026-01-25 15:50:10.51	321.39	11.42	-36.3	-37.3	20.3	0.00e+00	0	39	0	3818913792	42	4172
2026-01-25 15:50:11.79	321.55	11.33	-36.3	-37.3	20.2	0.00e+00	0	39	0	3828350976	42	4183
2026-01-25 15:50:12.50	321.63	11.28	-36.4	-37.4	20.1	0.00e+00	0	38	0	3833593856	42	4224
2026-01-25 15:50:13.80	321.79	11.19	-36.4	-37.5	20.1	0.00e+00	0	38	0	3843031040	42	4253
2026-01-25 15:50:14.55	321.89	11.14	-36.4	-37.5	20.1	0.00e+00	0	38	0	3848273920	42	4251
2026-01-25 15:50:15.83	322.04	11.05	-36.5	-37.5	20.0	0.00e+00	0	38	0	3857711104	42	4289
2026-01-25 15:50:16.62	322.14	11.00	-36.6	-37.6	19.9	0.00e+00	0	38	0	3862953984	42	4338
2026-01-25 15:50:17.81	322.28	10.92	-36.6	-37.7	19.9	0.00e+00	0	38	0	3871342592	42	4341
2026-01-25 15:50:18.66	322.39	10.86	-36.7	-37.7	19.8	0.00e+00	0	38	0	3877634048	42	4366
2026-01-25 15:50:19.80	322.52	10.78	-36.7	-37.8	19.8	0.00e+00	0	39	0	3886022656	42	4408
2026-01-25 15:50:20.85	322.65	10.71	-36.7	-37.8	19.8	0.00e+00	0	38	0	3893362688	42	4406
2026-01-25 15:50:21.72	322.75	10.65	-36.8	-37.9	19.7	0.00e+00	0	38	0	3899654144	42	4446
2026-01-25 15:50:22.86	322.89	10.58	-36.8	-37.9	19.7	0.00e+00	0	38	0	3908042752	42	4455
2026-01-25 15:50:23.71	322.99	10.52	-36.8	-38.0	19.6	0.00e+00	0	38	0	3914334208	43	4250
2026-01-25 15:50:24.85	323.12	10.44	-36.7	-37.9	19.7	0.00e+00	0	38	0	3922722816	43	4210
2026-01-25 15:50:25.70	323.22	10.39	-36.7	-37.9	19.7	0.00e+00	0	38	0	3929014272	43	4202
2026-01-25 15:50:26.84	323.35	10.31	-36.6	-37.8	19.7	0.00e+00	0	38	0	3937402880	43	4164
2026-01-25 15:50:27.69	323.45	10.25	-36.7	-37.9	19.7	0.00e+00	0	39	0	3942645760	43	4201
2026-01-25 15:50:28.91	323.59	10.17	-36.6	-37.8	19.7	0.00e+00	0	38	0	3952082944	43	4169
2026-01-25 15:50:29.76	323.69	10.11	-36.7	-37.9	19.6	0.00e+00	0	38	0	3958374400	43	4220
2026-01-25 15:50:30.96	323.83	10.03	-36.7	-37.9	19.6	0.00e+00	0	39	0	3966763008	43	4215
2026-01-25 15:50:31.82	323.92	9.97	-36.5	-37.7	19.8	0.00e+00	0	38	0	3973054464	43	4137
2026-01-25 15:50:33.01	324.06	9.89	-36.6	-37.7	19.7	0.00e+00	0	38	0	3981443072	43	4140
2026-01-25 15:50:33.87	324.15	9.84	-36.5	-37.7	19.8	0.00e+00	0	38	0	3987734528	43	4139
2026-01-25 15:50:35.07	324.29	9.76	-36.6	-37.8	19.7	0.00e+00	0	38	0	3996123136	43	4170
2026-01-25 15:50:35.92	324.38	9.70	-36.5	-37.7	19.8	0.00e+00	0	38	0	4002414592	43	4115
2026-01-25 15:50:37.06	324.51	9.62	-36.5	-37.7	19.8	0.00e+00	0	38	0	4010803200	43	4124
2026-01-25 15:50:37.91	324.60	9.57	-36.6	-37.8	19.7	0.00e+00	0	38	0	4017094656	43	4165
2026-01-25 15:50:39.05	324.73	9.49	-36.6	-37.8	19.7	0.00e+00	0	38	0	4024434688	43	4149
2026-01-25 15:50:39.90	324.82	9.44	-36.6	-37.8	19.7	0.00e+00	0	38	0	4030726144	43	4170
2026-01-25 15:50:41.04	324.95	9.36	-36.7	-37.9	19.6	0.00e+00	0	39	0	4039114752	43	4196
2026-01-25 15:50:41.90	325.04	9.30	-36.6	-37.8	19.7	0.00e+00	0	38	0	4045406208	43	4153
2026-01-25 15:50:43.03	325.16	9.23	-36.8	-38.0	19.5	0.00e+00	0	38	0	4053794816	43	4244
2026-01-25 15:50:43.88	325.26	9.17	-36.8	-38.0	19.5	0.00e+00	0	38	0	4060086272	43	4243
2026-01-25 15:50:45.02	325.38	9.10	-36.8	-38.0	19.4	0.00e+00	0	38	0	4068474880	43	4279
2026-01-25 15:50:45.87	325.47	9.04	-36.9	-38.1	19.4	0.00e+00	0	38	0	4074766336	43	4293
2026-01-25 15:50:47.01	325.59	8.97	-46.2	-56.6	4.0	5.87e-04	0	38	0	4081057792	61	12820
2026-01-25 15:50:47.86	325.68	8.91	-48.0	-59.1	3.8	8.47e-01	0	38	104	4081057792	65	13696
2026-01-25 15:50:49.00	325.80	8.84	-47.8	-59.3	3.8	8.47e-01	0	38	104	4081057792	65	13992
2026-01-25 15:50:49.85	325.89	8.78	-47.8	-59.5	3.8	8.46e-01	0	38	104	4081057792	65	14249
2026-01-25 15:50:50.98	326.01	8.71	-48.3	-59.5	3.8	8.46e-01	0	38	104	4081057792	66	13509
2026-01-25 15:50:51.84	326.10	8.65	-48.5	-59.6	3.8	8.45e-01	0	38	104	4081057792	66	13706
2026-01-25 15:50:52.97	326.22	8.58	-48.6	-59.7	3.8	8.47e-01	0	38	104	4081057792	66	13830
2026-01-25 15:50:53.82	326.30	8.52	-48.7	-59.7	3.8	8.46e-01	0	39	104	4081057792	67	13056
2026-01-25 15:50:54.96	326.42	8.45	-48.9	-59.8	3.8	8.46e-01	0	39	104	4081057792	67	13134
2026-01-25 15:50:55.81	326.51	8.39	-48.6	-59.7	3.8	8.46e-01	0	39	104	4081057792	67	13046
2026-01-25 15:50:56.94	326.62	8.32	-48.9	-59.8	3.8	8.46e-01	0	38	104	4081057792	67	13214
2026-01-25 15:50:57.80	326.71	8.27	-48.8	-59.8	3.8	8.47e-01	0	39	104	4081057792	67	13222
2026-01-25 15:50:58.93	326.82	8.19	-49.0	-59.7	3.8	8.48e-01	0	38	104	4081057792	67	13103
2026-01-25 15:50:59.78	326.91	8.14	-49.0	-59.9	3.8	8.48e-01	0	38	104	4081057792	67	13295
2026-01-25 15:51:00.92	327.02	8.07	-49.0	-59.9	3.8	8.47e-01	0	38	104	4081057792	67	13262
2026-01-25 15:51:01.77	327.11	8.01	-49.0	-59.8	3.8	8.47e-01	0	38	104	4081057792	67	13146
2026-01-25 15:51:02.90	327.22	7.94	-49.1	-59.8	3.8	8.47e-01	0	38	104	4081057792	67	13197
2026-01-25 15:51:03.76	327.31	7.88	-49.0	-59.9	3.8	8.47e-01	0	38	104	4081057792	67	13281
2026-01-25 15:51:04.89	327.42	7.81	-49.0	-59.8	3.8	8.46e-01	0	38	104	4081057792	67	13205
2026-01-25 15:51:05.74	327.50	7.76	-48.9	-59.7	3.8	8.47e-01	0	39	104	4081057792	67	13099
2026-01-25 15:51:06.88	327.61	7.68	-48.9	-59.7	3.8	8.46e-01	0	38	104	4081057792	67	13101
2026-01-25 15:51:07.73	327.70	7.63	-48.8	-59.8	3.8	8.46e-01	0	39	104	4081057792	67	13167
2026-01-25 15:51:08.87	327.81	7.56	-48.7	-59.7	3.8	8.46e-01	0	39	104	4081057792	67	13049
2026-01-25 15:51:09.72	327.89	7.50	-48.7	-59.7	3.8	8.46e-01	0	39	104	4081057792	67	13084
2026-01-25 15:51:10.85	328.00	7.43	-48.7	-59.7	3.8	8.47e-01	0	38	104	4081057792	67	13068
2026-01-25 15:51:11.70	328.08	7.38	-48.7	-59.7	3.8	8.46e-01	0	39	104	4081057792	67	13009
2026-01-25 15:51:12.84	328.19	7.31	-48.7	-59.8	3.8	8.48e-01	0	39	104	4081057792	67	13137
2026-01-25 15:51:13.69	328.27	7.25	-48.7	-59.7	3.8	8.46e-01	0	39	104	4081057792	67	12989
2026-01-25 15:51:14.83	328.38	7.18	-48.7	-59.7	3.8	8.47e-01	0	38	104	4081057792	67	13038
2026-01-25 15:51:15.68	328.46	7.13	-48.7	-59.7	3.8	8.46e-01	0	39	104	4081057792	67	13049
2026-01-25 15:51:16.81	328.56	7.06	-48.7	-59.7	3.8	8.46e-01	0	39	104	4081057792	67	13019
2026-01-25 15:51:17.67	328.64	7.00	-48.7	-59.8	3.8	8.47e-01	0	38	104	4081057792	67	13120
2026-01-25 15:51:18.80	328.75	6.93	-48.7	-59.7	3.8	8.47e-01	0	39	104	4081057792	67	13012
2026-01-25 15:51:19.65	328.83	6.88	-48.7	-59.7	3.8	8.47e-01	0	39	104	4081057792	67	13025
2026-01-25 15:51:20.79	328.93	6.81	-48.7	-59.7	3.8	8.46e-01	0	39	104	4081057792	67	13030
2026-01-25 15:51:21.64	329.01	6.75	-48.7	-59.8	3.8	8.46e-01	0	39	104	4081057792	67	13123
2026-01-25 15:51:22.78	329.12	6.68	-48.7	-59.7	3.8	8.48e-01	0	39	104	4081057792	67	13011
2026-01-25 15:51:23.63	329.19	6.63	-48.7	-59.8	3.8	8.48e-01	0	39	104	4081057792	67	13129
2026-01-25 15:51:24.76	329.30	6.56	-48.7	-59.6	3.8	8.46e-01	0	38	104	4081057792	67	12953
2026-01-25 15:51:25.61	329.37	6.51	-48.7	-59.7	3.8	8.47e-01	0	38	104	4081057792	67	13025
2026-01-25 15:51:26.75	329.48	6.44	-48.7	-59.7	3.8	8.46e-01	0	39	104	4081057792	67	13038
2026-01-25 15:51:27.60	329.55	6.38	-48.7	-59.7	3.8	8.47e-01	0	39	104	4081057792	67	13012
2026-01-25 15:51:28.74	329.65	6.31	-48.7	-59.7	3.8	8.46e-01	0	39	104	4081057792	67	12986
2026-01-25 15:51:29.59	329.73	6.26	-48.7	-59.7	3.8	8.47e-01	0	38	104	4081057792	67	13047
2026-01-25 15:51:30.72	329.83	6.19	-48.7	-59.7	3.8	8.47e-01	0	39	104	4081057792	67	13021
2026-01-25 15:51:31.58	329.91	6.14	-48.7	-59.7	3.8	8.46e-01	0	38	104	4081057792	67	13097
2026-01-25 15:51:32.71	330.01	6.07	-48.7	-59.7	3.8	8.46e-01	0	39	104	4081057792	67	13062
2026-01-25 15:51:33.56	330.08	6.02	-48.7	-59.6	3.8	8.47e-01	0	38	104	4081057792	67	12936
2026-01-25 15:51:34.70	330.18	5.95	-48.7	-59.7	3.8	8.47e-01	0	38	104	4081057792	67	13003
2026-01-25 15:51:35.55	330.25	5.90	-48.7	-59.7	3.8	8.48e-01	0	38	104	4081057792	67	13022
2026-01-25 15:51:36.68	330.35	5.83	-48.7	-59.7	3.8	8.46e-01	0	39	104	4081057792	67	13072
2026-01-25 15:51:37.53	330.43	5.77	-48.7	-59.7	3.8	8.47e-01	0	38	104	4081057792	67	13016
2026-01-25 15:51:38.67	330.52	5.70	-48.7	-59.6	3.8	8.46e-01	0	39	104	4081057792	67	12912
2026-01-25 15:51:39.52	330.60	5.65	-48.7	-59.7	3.8	8.46e-01	0	39	104	4081057792	67	13021
2026-01-25 15:51:40.66	330.69	5.58	-48.7	-59.7	3.8	8.47e-01	0	39	104	4081057792	67	13003
2026-01-25 15:51:41.51	330.77	5.53	-48.7	-59.7	3.8	8.45e-01	0	38	104	4081057792	67	12991
2026-01-25 15:51:42.64	330.86	5.46	-48.7	-59.7	3.8	8.47e-01	0	39	104	4081057792	67	12979
2026-01-25 15:51:43.50	330.93	5.41	-48.7	-59.7	3.8	8.47e-01	0	38	104	4081057792	67	13038
2026-01-25 15:51:44.63	331.03	5.34	-48.7	-59.7	3.8	8.46e-01	0	39	104	4081057792	67	13083
2026-01-25 15:51:45.48	331.10	5.29	-48.7	-59.7	3.8	8.48e-01	0	38	104	4081057792	67	12988
2026-01-25 15:51:46.62	331.19	5.22	-48.7	-59.8	3.8	8.47e-01	0	39	104	4081057792	67	13116
2026-01-25 15:51:47.47	331.27	5.17	-48.7	-59.7	3.8	8.47e-01	0	39	104	4081057792	67	12972
2026-01-25 15:51:48.61	331.36	5.11	-48.7	-59.7	3.8	8.46e-01	0	39	104	4081057792	67	13012
2026-01-25 15:51:49.46	331.43	5.05	-48.7	-59.6	3.8	8.47e-01	0	38	104	4081057792	67	12874
2026-01-25 15:51:50.59	331.52	4.99	-48.6	-59.6	3.8	8.47e-01	0	38	104	4081057792	67	12894

#Closed at: 2026-01-25 15:51:51
#Recorded file [4081 MB]: D:/Data/31040_260125_184033.dat