passes_logs/2026/01/25/T1/T1__20260125_005839_NOAA_21_JPSS-2_rec.log

#Pass ID: 20260125_005839_NOAA 21 (JPSS-2)
#Satellite: NOAA 21 (JPSS-2)
#Configuration: NOAA 21
#almurnet v.1.7.20251203
#Start time: 2026-01-25 00:58:41

#Version: 2.0.20230620
#Station: T1
#Location: 37.570604 lon 55.790049 lat
#TLE: 1 54234U 22150A   26024.45772595  .00000201  00000+0  11607-3 0  9996
#TLE: 2 54234  98.7508 325.2435 0000728 220.7365 139.3757 14.19538765166156

#Time	Az	El	Level	Level2	SNR	BER	BlckErr	Temp	State	Recorded	gain1	gain2
2026-01-25 00:58:41.22	8.58	5.11	-46.0	-61.2	3.8	1.49e+00	0	37	0	0	63	20974
2026-01-25 00:58:42.21	8.51	5.18	-46.3	-61.2	3.8	1.49e+00	0	37	104	0	63	20813
2026-01-25 00:58:43.20	8.45	5.24	-46.3	-61.2	3.8	1.49e+00	0	37	104	0	63	20834
2026-01-25 00:58:44.20	8.39	5.31	-46.4	-61.1	3.8	1.49e+00	0	37	104	0	63	20761
2026-01-25 00:58:45.19	8.33	5.37	-46.3	-61.2	3.8	1.49e+00	0	37	104	0	63	20859
2026-01-25 00:58:46.18	8.26	5.44	-46.4	-61.2	3.8	1.49e+00	0	37	104	0	63	20925
2026-01-25 00:58:47.18	8.20	5.50	-46.4	-61.2	3.8	1.49e+00	0	37	104	0	63	20884
2026-01-25 00:58:48.17	8.14	5.57	-46.3	-61.2	3.8	1.49e+00	0	37	104	0	63	20822
2026-01-25 00:58:49.16	8.07	5.63	-46.4	-61.2	3.8	1.49e+00	0	37	104	0	63	20852
2026-01-25 00:58:50.16	8.01	5.70	-46.4	-61.2	3.8	1.49e+00	0	37	104	0	63	20810
2026-01-25 00:58:51.15	7.94	5.76	-46.3	-61.1	3.8	1.49e+00	0	37	104	0	63	20727
2026-01-25 00:58:52.14	7.88	5.83	-46.4	-61.1	3.8	1.49e+00	0	37	104	0	63	20672
2026-01-25 00:58:53.14	7.81	5.90	-46.4	-61.1	3.8	1.49e+00	0	37	104	0	63	20662
2026-01-25 00:58:54.13	7.75	5.96	-46.4	-61.1	3.8	1.49e+00	0	37	104	0	63	20709
2026-01-25 00:58:55.12	7.68	6.03	-46.4	-61.1	3.8	1.49e+00	0	37	104	0	63	20706
2026-01-25 00:58:56.12	7.61	6.09	-46.4	-61.2	3.8	1.49e+00	0	37	104	0	63	20853
2026-01-25 00:58:57.11	7.55	6.16	-46.4	-61.1	3.8	1.49e+00	0	37	104	0	63	20761
2026-01-25 00:58:58.10	7.48	6.23	-46.4	-61.2	3.8	1.49e+00	0	38	104	0	63	20877
2026-01-25 00:58:59.09	7.41	6.29	-46.4	-61.2	3.8	1.49e+00	0	38	104	0	63	20908
2026-01-25 00:59:00.09	7.34	6.36	-46.4	-61.2	3.8	1.49e+00	0	37	104	0	63	20869
2026-01-25 00:59:01.08	7.28	6.43	-46.4	-61.2	3.8	1.49e+00	0	37	104	0	63	20812
2026-01-25 00:59:02.07	7.21	6.50	-46.4	-61.1	3.8	1.49e+00	0	38	104	0	63	20768
2026-01-25 00:59:03.07	7.14	6.56	-46.4	-61.1	3.8	1.49e+00	0	38	104	0	63	20746
2026-01-25 00:59:04.06	7.07	6.63	-46.4	-61.1	3.8	1.49e+00	0	37	104	0	63	20706
2026-01-25 00:59:05.05	7.00	6.70	-46.4	-61.0	3.8	1.49e+00	0	38	104	0	63	20506
2026-01-25 00:59:06.05	6.93	6.77	-46.4	-61.0	3.8	1.49e+00	0	38	104	0	63	20352
2026-01-25 00:59:07.04	6.86	6.83	-46.4	-60.9	3.8	1.49e+00	0	38	104	0	63	20099
2026-01-25 00:59:08.03	6.79	6.90	-46.4	-60.8	3.8	1.49e+00	0	38	104	0	63	19917
2026-01-25 00:59:09.03	6.72	6.97	-46.3	-60.6	3.8	1.49e+00	0	38	104	0	63	19515
2026-01-25 00:59:10.02	6.65	7.04	-46.3	-60.5	3.8	1.49e+00	0	38	104	0	63	19168
2026-01-25 00:59:11.01	6.58	7.11	-46.3	-60.2	3.8	1.49e+00	0	38	104	0	63	18667
2026-01-25 00:59:12.01	6.51	7.18	-46.3	-59.9	3.8	1.49e+00	0	38	104	0	63	18000
2026-01-25 00:59:13.00	6.43	7.24	-46.3	-59.6	3.8	1.49e+00	0	38	104	0	63	17407
2026-01-25 00:59:13.99	6.36	7.31	-46.3	-59.1	3.9	1.49e+00	0	38	104	0	63	16403
2026-01-25 00:59:14.98	6.29	7.38	-46.2	-58.9	3.9	1.48e+00	0	38	104	0	63	15967
2026-01-25 00:59:15.98	6.21	7.45	-46.2	-58.9	3.9	1.48e+00	0	38	104	0	63	16095
2026-01-25 00:59:16.97	6.14	7.52	-46.2	-59.0	3.8	1.48e+00	0	38	104	0	63	16129
2026-01-25 00:59:17.96	6.07	7.59	-46.2	-58.8	4.0	1.48e+00	0	38	104	0	63	15848
2026-01-25 00:59:18.96	5.99	7.66	-46.2	-59.4	3.8	1.49e+00	0	38	104	0	63	16922
2026-01-25 00:59:19.95	5.92	7.73	-46.3	-59.8	3.8	1.49e+00	0	38	104	0	63	17696
2026-01-25 00:59:20.94	5.84	7.80	-46.3	-60.1	3.8	1.49e+00	0	38	104	0	63	18503
2026-01-25 00:59:21.94	5.77	7.87	-46.3	-60.5	3.8	1.49e+00	0	38	104	0	63	19349
2026-01-25 00:59:22.93	5.69	7.94	-46.3	-60.9	3.8	1.49e+00	0	38	104	0	63	20109
2026-01-25 00:59:23.93	5.62	8.01	-46.4	-61.1	3.8	1.49e+00	0	38	104	0	63	20562
2026-01-25 00:59:24.92	5.54	8.08	-46.4	-61.0	3.8	1.49e+00	0	38	104	0	63	20356
2026-01-25 00:59:25.91	5.46	8.15	-46.3	-60.1	3.8	1.49e+00	0	38	104	0	63	18449
2026-01-25 00:59:26.90	5.38	8.22	-46.1	-57.8	4.1	1.48e+00	0	38	104	0	63	14063
2026-01-25 00:59:27.90	5.31	8.29	-45.8	-55.1	5.3	7.44e-01	0	38	0	0	63	10322
2026-01-25 00:59:28.89	5.23	8.36	-45.4	-52.8	7.1	1.78e-01	0	38	0	0	62	8401
2026-01-25 00:59:29.88	5.15	8.43	-44.8	-50.7	9.1	4.52e-02	0	39	0	0	61	7039
2026-01-25 00:59:30.88	5.07	8.51	-44.1	-49.0	10.9	4.93e-03	0	38	0	0	60	6067
2026-01-25 00:59:31.87	4.99	8.58	-43.5	-47.6	12.3	4.16e-04	0	38	0	0	59	5504
2026-01-25 00:59:32.86	4.91	8.65	-42.9	-46.5	13.4	2.59e-05	0	38	0	0	57	5452
2026-01-25 00:59:33.86	4.83	8.72	-42.6	-46.0	13.9	6.10e-06	0	39	0	0	57	5150
2026-01-25 00:59:34.85	4.75	8.79	-42.5	-45.8	14.2	3.00e-06	0	38	0	0	56	5305
2026-01-25 00:59:35.84	4.67	8.86	-42.5	-45.8	14.2	0.00e+00	0	38	0	0	56	5320
2026-01-25 00:59:36.84	4.59	8.94	-42.6	-46.0	13.9	2.20e-06	0	38	0	0	56	5463
2026-01-25 00:59:37.83	4.51	9.01	-43.1	-46.9	13.1	1.75e-05	0	38	0	0	56	6023
2026-01-25 00:59:38.82	4.42	9.08	-42.6	-45.9	14.0	3.00e-06	0	38	0	0	57	5097
2026-01-25 00:59:39.82	4.34	9.15	-42.1	-45.3	14.5	7.00e-07	0	38	0	0	55	5329
2026-01-25 00:59:40.81	4.26	9.23	-44.6	-50.0	9.9	1.94e-04	0	38	0	0	59	7240
2026-01-25 00:59:41.81	4.17	9.30	-45.2	-52.5	7.5	6.62e-02	0	38	0	0	61	8564
2026-01-25 00:59:42.80	4.09	9.37	-39.7	-41.8	17.9	0.00e+00	0	39	0	0	51	4464
2026-01-25 00:59:43.80	4.00	9.45	-39.4	-41.5	18.3	0.00e+00	0	39	0	0	50	4555
2026-01-25 00:59:44.79	3.92	9.52	-39.3	-41.3	18.5	0.00e+00	0	39	0	0	50	4447
2026-01-25 00:59:45.79	3.83	9.59	-39.4	-41.3	18.4	0.00e+00	0	39	0	0	50	4477
2026-01-25 00:59:46.78	3.75	9.67	-39.2	-41.1	18.5	0.00e+00	0	39	0	0	50	4384
2026-01-25 00:59:47.77	3.66	9.74	-39.2	-41.1	18.6	0.00e+00	0	39	0	0	50	4363
2026-01-25 00:59:48.77	3.57	9.82	-39.2	-41.1	18.6	0.00e+00	0	39	0	0	50	4348
2026-01-25 00:59:49.76	3.49	9.89	-39.3	-41.1	18.5	0.00e+00	0	39	0	0	50	4387
2026-01-25 00:59:50.75	3.40	9.96	-39.2	-41.0	18.6	0.00e+00	0	39	0	0	50	4328
2026-01-25 00:59:51.75	3.31	10.04	-39.3	-41.2	18.5	0.00e+00	0	39	0	0	50	4414
2026-01-25 00:59:52.74	3.22	10.11	-39.3	-41.2	18.5	0.00e+00	0	39	0	0	50	4409
2026-01-25 00:59:53.74	3.13	10.19	-39.1	-41.0	18.7	0.00e+00	0	39	0	0	50	4302
2026-01-25 00:59:54.74	3.04	10.26	-39.1	-41.1	18.7	0.00e+00	0	39	0	0	50	4347
2026-01-25 00:59:55.73	2.95	10.34	-39.1	-41.0	18.7	0.00e+00	0	39	0	0	50	4314
2026-01-25 00:59:56.73	2.86	10.41	-39.1	-41.0	18.6	0.00e+00	0	39	0	0	49	4586
2026-01-25 00:59:57.72	2.77	10.49	-39.0	-41.0	18.7	0.00e+00	0	39	0	0	49	4561
2026-01-25 00:59:58.72	2.68	10.57	-39.0	-41.0	18.7	0.00e+00	0	39	0	0	49	4555
2026-01-25 00:59:59.71	2.59	10.64	-38.9	-40.9	18.8	0.00e+00	0	39	0	0	49	4516
2026-01-25 01:00:00.71	2.49	10.72	-39.0	-41.0	18.7	0.00e+00	0	39	0	0	49	4568
2026-01-25 01:00:01.70	2.40	10.79	-38.8	-40.8	18.8	0.00e+00	0	39	0	0	49	4488
2026-01-25 01:00:02.69	2.31	10.87	-38.9	-41.0	18.7	0.00e+00	0	39	0	0	49	4561
2026-01-25 01:00:03.69	2.21	10.95	-38.9	-40.9	18.8	0.00e+00	0	39	0	0	49	4534
2026-01-25 01:00:04.69	2.12	11.02	-38.9	-40.9	18.7	0.00e+00	0	39	0	0	49	4538
2026-01-25 01:00:05.68	2.02	11.10	-38.9	-41.0	18.7	0.00e+00	0	39	0	0	49	4572
2026-01-25 01:00:06.67	1.93	11.18	-38.9	-40.9	18.8	0.00e+00	0	39	0	0	49	4534
2026-01-25 01:00:07.67	1.83	11.25	-38.8	-40.9	18.8	0.00e+00	0	39	0	0	49	4526
2026-01-25 01:00:08.66	1.74	11.33	-38.9	-41.0	18.8	0.00e+00	0	39	0	0	49	4566
2026-01-25 01:00:09.66	1.64	11.41	-38.8	-40.9	18.9	0.00e+00	0	39	0	0	49	4506
2026-01-25 01:00:10.65	1.54	11.49	-38.7	-40.7	19.0	0.00e+00	0	39	0	0	49	4415
2026-01-25 01:00:11.65	1.44	11.57	-38.8	-40.8	19.0	0.00e+00	0	39	0	0	49	4479
2026-01-25 01:00:12.65	1.34	11.64	-38.8	-40.8	18.9	0.00e+00	0	39	0	0	49	4493
2026-01-25 01:00:13.64	1.24	11.72	-38.7	-40.7	19.0	0.00e+00	0	39	0	0	49	4440
2026-01-25 01:00:14.64	1.14	11.80	-38.7	-40.7	19.0	0.00e+00	0	39	0	0	49	4427
2026-01-25 01:00:15.63	1.04	11.88	-38.6	-40.7	19.1	0.00e+00	0	39	0	0	49	4406
2026-01-25 01:00:16.63	0.94	11.96	-38.6	-40.7	19.1	0.00e+00	0	39	0	0	49	4396
2026-01-25 01:00:17.62	0.84	12.04	-38.5	-40.4	19.3	0.00e+00	0	39	0	0	48	4541
2026-01-25 01:00:18.62	0.74	12.12	-38.6	-40.6	19.1	0.00e+00	0	39	0	0	48	4626
2026-01-25 01:00:19.61	0.63	12.19	-38.6	-40.6	19.2	0.00e+00	0	39	0	0	48	4608
2026-01-25 01:00:20.61	0.53	12.27	-38.5	-40.5	19.2	0.00e+00	0	39	0	0	48	4580
2026-01-25 01:00:21.60	0.43	12.35	-38.6	-40.6	19.1	0.00e+00	0	39	0	0	48	4625
2026-01-25 01:00:22.59	0.32	12.43	-38.6	-40.6	19.1	0.00e+00	0	39	0	0	48	4636
2026-01-25 01:00:23.59	0.22	12.51	-38.6	-40.6	19.2	0.00e+00	0	39	0	0	48	4607
2026-01-25 01:00:24.58	0.11	12.59	-38.7	-40.7	19.1	0.00e+00	0	39	0	0	48	4665
2026-01-25 01:00:25.58	0.00	12.67	-38.6	-40.5	19.3	0.00e+00	0	39	0	0	48	4583
2026-01-25 01:00:26.57	359.90	12.75	-38.7	-40.6	19.1	0.00e+00	0	39	0	0	48	4643
2026-01-25 01:00:27.57	359.79	12.83	-38.6	-40.6	19.2	0.00e+00	0	39	0	0	48	4606
2026-01-25 01:00:28.56	359.68	12.91	-38.5	-40.4	19.3	0.00e+00	0	39	0	0	48	4505
2026-01-25 01:00:29.56	359.57	12.99	-38.6	-40.4	19.3	0.00e+00	0	39	0	0	48	4544
2026-01-25 01:00:30.55	359.46	13.08	-38.5	-40.3	19.4	0.00e+00	0	39	0	0	48	4476
2026-01-25 01:00:31.55	359.35	13.16	-38.5	-40.4	19.4	0.00e+00	0	39	0	0	48	4498
2026-01-25 01:00:32.54	359.24	13.24	-38.5	-40.4	19.3	0.00e+00	0	39	0	0	48	4509
2026-01-25 01:00:33.54	359.13	13.32	-38.5	-40.4	19.3	0.00e+00	0	39	0	0	48	4502
2026-01-25 01:00:34.53	359.02	13.40	-38.6	-40.4	19.2	0.00e+00	0	39	0	0	48	4535
2026-01-25 01:00:35.53	358.91	13.48	-38.5	-40.4	19.3	0.00e+00	0	39	0	0	48	4501
2026-01-25 01:00:36.52	358.79	13.56	-38.6	-40.4	19.3	0.00e+00	0	39	0	0	48	4527
2026-01-25 01:00:37.52	358.68	13.65	-38.6	-40.5	19.2	0.00e+00	0	39	0	0	48	4570
2026-01-25 01:00:38.51	358.57	13.73	-38.6	-40.4	19.2	0.00e+00	0	39	0	0	48	4543
2026-01-25 01:00:39.51	358.45	13.81	-38.6	-40.5	19.3	0.00e+00	0	39	0	0	48	4563
2026-01-25 01:00:40.50	358.33	13.89	-38.8	-40.6	19.2	0.00e+00	0	39	0	0	48	4633
2026-01-25 01:00:41.50	358.22	13.98	-38.6	-40.5	19.3	0.00e+00	0	39	0	0	48	4550
2026-01-25 01:00:42.49	358.10	14.06	-38.8	-40.6	19.1	0.00e+00	0	39	0	0	48	4651
2026-01-25 01:00:43.49	357.98	14.14	-38.6	-40.4	19.4	0.00e+00	0	39	0	0	48	4505
2026-01-25 01:00:44.49	357.86	14.23	-38.6	-40.5	19.4	0.00e+00	0	39	0	0	48	4556
2026-01-25 01:00:45.48	357.74	14.31	-38.6	-40.5	19.3	0.00e+00	0	39	0	0	48	4552
2026-01-25 01:00:46.48	357.62	14.39	-38.6	-40.4	19.4	0.00e+00	0	39	0	0	48	4497
2026-01-25 01:00:47.47	357.50	14.48	-38.6	-40.4	19.4	0.00e+00	0	39	0	0	48	4503
2026-01-25 01:00:48.47	357.38	14.56	-38.5	-40.3	19.4	0.00e+00	0	39	0	0	48	4481
2026-01-25 01:00:49.46	357.26	14.64	-38.7	-40.5	19.3	0.00e+00	0	39	0	0	48	4568
2026-01-25 01:00:50.46	357.14	14.73	-38.8	-40.6	19.2	0.00e+00	0	39	0	0	48	4626
2026-01-25 01:00:51.46	357.01	14.81	-38.8	-40.6	19.2	0.00e+00	0	39	0	0	48	4637
2026-01-25 01:00:52.45	356.89	14.90	-38.8	-40.6	19.2	0.00e+00	0	39	0	0	48	4626
2026-01-25 01:00:53.45	356.76	14.98	-38.8	-40.6	19.1	0.00e+00	0	39	0	0	48	4644
2026-01-25 01:00:54.44	356.64	15.07	-38.7	-40.5	19.2	0.00e+00	0	39	0	0	48	4565
2026-01-25 01:00:55.44	356.51	15.15	-38.8	-40.6	19.2	0.00e+00	0	39	0	0	48	4616
2026-01-25 01:00:56.43	356.39	15.24	-38.8	-40.7	19.2	0.00e+00	0	39	0	0	48	4653
2026-01-25 01:00:57.43	356.26	15.32	-39.0	-40.9	19.0	0.00e+00	0	39	0	0	48	4765
2026-01-25 01:00:58.42	356.13	15.41	-39.1	-40.9	18.9	0.00e+00	0	39	0	0	48	4809
2026-01-25 01:00:59.42	356.00	15.49	-38.9	-40.8	19.0	0.00e+00	0	39	0	0	48	4744
2026-01-25 01:01:00.41	355.87	15.58	-39.1	-41.0	18.8	0.00e+00	0	39	0	0	49	4570
2026-01-25 01:01:01.41	355.74	15.67	-39.1	-41.0	18.9	0.00e+00	0	39	0	0	49	4570
2026-01-25 01:01:02.40	355.61	15.75	-39.1	-41.0	18.9	0.00e+00	0	39	0	0	49	4568
2026-01-25 01:01:03.40	355.47	15.84	-39.0	-41.0	18.9	0.00e+00	0	39	0	0	49	4554
2026-01-25 01:01:04.39	355.34	15.92	-39.0	-40.9	19.1	0.00e+00	0	39	0	0	49	4520
2026-01-25 01:01:05.38	355.21	16.01	-39.0	-40.8	19.1	0.00e+00	0	39	0	0	49	4491
2026-01-25 01:01:06.38	355.07	16.10	-38.9	-40.8	19.2	0.00e+00	0	39	0	0	49	4463
2026-01-25 01:01:07.37	354.94	16.18	-38.9	-40.8	19.2	0.00e+00	0	39	0	0	49	4457
2026-01-25 01:01:08.37	354.80	16.27	-38.9	-40.8	19.2	0.00e+00	0	39	0	0	49	4470
2026-01-25 01:01:09.36	354.66	16.36	-39.0	-40.9	19.0	0.00e+00	0	39	0	0	49	4519
2026-01-25 01:01:10.36	354.52	16.45	-38.9	-40.8	19.1	0.00e+00	0	39	0	0	49	4465
2026-01-25 01:01:11.35	354.39	16.53	-38.9	-40.8	19.1	0.00e+00	0	40	0	0	49	4462
2026-01-25 01:01:12.35	354.25	16.62	-39.0	-40.8	19.1	0.00e+00	0	39	0	0	49	4466
2026-01-25 01:01:13.34	354.11	16.71	-39.0	-40.8	19.1	0.00e+00	0	39	0	0	49	4482
2026-01-25 01:01:14.34	353.96	16.80	-38.8	-40.7	19.2	0.00e+00	0	39	0	0	49	4408
2026-01-25 01:01:15.34	353.82	16.88	-39.0	-40.9	19.1	0.00e+00	0	39	0	0	49	4496
2026-01-25 01:01:16.33	353.68	16.97	-38.9	-40.8	19.1	0.00e+00	0	39	0	0	49	4458
2026-01-25 01:01:17.33	353.53	17.06	-39.0	-40.9	19.1	0.00e+00	0	39	0	0	49	4502
2026-01-25 01:01:18.32	353.39	17.15	-38.9	-40.8	19.1	0.00e+00	0	39	0	0	49	4450
2026-01-25 01:01:19.32	353.24	17.24	-38.9	-40.8	19.2	0.00e+00	0	39	0	0	49	4452
2026-01-25 01:01:20.32	353.10	17.33	-39.0	-40.9	19.1	0.00e+00	0	39	0	0	49	4511
2026-01-25 01:01:21.31	352.95	17.41	-38.9	-40.8	19.2	0.00e+00	0	40	0	0	49	4451
2026-01-25 01:01:22.30	352.80	17.50	-38.8	-40.6	19.3	0.00e+00	0	40	0	0	49	4382
2026-01-25 01:01:23.30	352.65	17.59	-38.8	-40.7	19.2	0.00e+00	0	39	0	0	49	4434
2026-01-25 01:01:24.29	352.50	17.68	-38.9	-40.8	19.2	0.00e+00	0	39	0	0	49	4455
2026-01-25 01:01:25.29	352.35	17.77	-38.8	-40.7	19.3	0.00e+00	0	39	0	0	49	4392
2026-01-25 01:01:26.28	352.20	17.86	-38.9	-40.8	19.1	0.00e+00	0	39	0	0	49	4476
2026-01-25 01:01:27.28	352.05	17.95	-38.9	-40.8	19.1	0.00e+00	0	39	0	0	49	4475
2026-01-25 01:01:28.27	351.89	18.04	-38.8	-40.6	19.3	0.00e+00	0	39	0	0	49	4391
2026-01-25 01:01:29.26	351.74	18.13	-38.7	-40.6	19.3	0.00e+00	0	39	0	0	49	4387
2026-01-25 01:01:30.26	351.58	18.22	-38.7	-40.6	19.3	0.00e+00	0	40	0	0	49	4371
2026-01-25 01:01:31.25	351.43	18.31	-38.6	-40.5	19.5	0.00e+00	0	39	0	0	49	4295
2026-01-25 01:01:32.25	351.27	18.40	-38.5	-40.4	19.6	0.00e+00	0	40	0	0	48	4498
2026-01-25 01:01:33.24	351.11	18.49	-38.5	-40.3	19.6	0.00e+00	0	40	0	0	48	4483
2026-01-25 01:01:34.24	350.95	18.58	-38.4	-40.2	19.7	0.00e+00	0	39	0	0	48	4408
2026-01-25 01:01:35.23	350.79	18.67	-38.3	-40.1	19.8	0.00e+00	0	39	0	0	48	4382
2026-01-25 01:01:36.22	350.63	18.76	-38.3	-40.1	19.8	0.00e+00	0	39	0	0	48	4354
2026-01-25 01:01:37.22	350.47	18.85	-38.2	-40.0	19.9	0.00e+00	0	40	0	0	48	4327
2026-01-25 01:01:38.22	350.30	18.94	-38.3	-40.1	19.7	0.00e+00	0	39	0	0	48	4371
2026-01-25 01:01:39.21	350.14	19.03	-38.2	-39.9	19.9	0.00e+00	0	39	0	0	48	4285
2026-01-25 01:01:40.21	349.97	19.12	-38.2	-40.0	19.9	0.00e+00	0	39	0	0	48	4296
2026-01-25 01:01:41.20	349.81	19.21	-38.2	-39.9	19.9	0.00e+00	0	39	0	0	48	4291
2026-01-25 01:01:42.20	349.64	19.30	-38.2	-39.9	19.9	0.00e+00	0	39	0	0	48	4276
2026-01-25 01:01:43.19	349.47	19.39	-38.1	-39.9	20.0	0.00e+00	0	39	0	0	48	4263
2026-01-25 01:01:44.19	349.30	19.48	-38.2	-39.9	20.0	0.00e+00	0	39	0	0	48	4263
2026-01-25 01:01:45.19	349.13	19.57	-37.9	-39.7	20.1	0.00e+00	0	39	0	0	47	4414
2026-01-25 01:01:46.18	348.96	19.66	-38.0	-39.8	20.0	0.00e+00	0	39	0	0	47	4443
2026-01-25 01:01:47.17	348.79	19.75	-37.9	-39.7	20.0	0.00e+00	0	39	0	0	47	4399
2026-01-25 01:01:48.17	348.61	19.85	-37.9	-39.7	20.0	0.00e+00	0	39	0	0	47	4405
2026-01-25 01:01:49.17	348.44	19.94	-38.0	-39.8	19.9	0.00e+00	0	39	0	0	47	4471
2026-01-25 01:01:50.16	348.26	20.03	-38.0	-39.8	19.9	0.00e+00	0	39	0	0	47	4449
2026-01-25 01:01:51.16	348.08	20.12	-38.0	-39.7	20.0	0.00e+00	0	39	0	0	47	4432
2026-01-25 01:01:52.15	347.91	20.21	-38.0	-39.7	20.0	0.00e+00	0	40	0	0	47	4418
2026-01-25 01:01:53.15	347.73	20.30	-38.0	-39.7	20.1	0.00e+00	0	40	0	0	47	4402
2026-01-25 01:01:54.14	347.55	20.39	-38.0	-39.7	20.2	0.00e+00	0	39	0	0	47	4407
2026-01-25 01:01:55.14	347.37	20.49	-37.9	-39.6	20.2	0.00e+00	0	39	0	0	47	4358
2026-01-25 01:01:56.13	347.18	20.58	-37.9	-39.6	20.1	0.00e+00	0	39	0	0	47	4374
2026-01-25 01:01:57.13	347.00	20.67	-37.9	-39.7	20.1	0.00e+00	0	39	0	0	47	4395
2026-01-25 01:01:58.12	346.82	20.76	-37.8	-39.5	20.3	0.00e+00	0	39	0	0	47	4340
2026-01-25 01:01:59.12	346.63	20.85	-37.8	-39.5	20.3	0.00e+00	0	40	0	0	47	4318
2026-01-25 01:02:00.11	346.44	20.94	-37.8	-39.5	20.3	0.00e+00	0	39	0	0	47	4294
2026-01-25 01:02:01.10	346.26	21.03	-37.7	-39.4	20.3	0.00e+00	0	40	0	0	47	4286
2026-01-25 01:02:02.10	346.07	21.13	-37.6	-39.3	20.4	0.00e+00	0	40	0	0	47	4213
2026-01-25 01:02:03.09	345.88	21.22	-37.6	-39.2	20.5	0.00e+00	0	40	0	0	47	4180
2026-01-25 01:02:04.09	345.69	21.31	-37.5	-39.2	20.5	0.00e+00	0	39	0	0	47	4166
2026-01-25 01:02:05.09	345.49	21.40	-37.6	-39.2	20.5	0.00e+00	0	39	0	0	47	4187
2026-01-25 01:02:06.08	345.30	21.49	-37.6	-39.3	20.4	0.00e+00	0	39	0	0	47	4202
2026-01-25 01:02:07.07	345.11	21.58	-37.6	-39.2	20.5	0.00e+00	0	40	0	0	47	4188
2026-01-25 01:02:08.07	344.91	21.68	-37.5	-39.2	20.5	0.00e+00	0	39	0	0	47	4177
2026-01-25 01:02:09.06	344.71	21.77	-37.6	-39.4	20.3	0.00e+00	0	39	0	0	46	4544
2026-01-25 01:02:10.06	344.51	21.86	-37.4	-39.2	20.5	0.00e+00	0	40	0	0	46	4396
2026-01-25 01:02:11.05	344.32	21.95	-37.4	-39.2	20.5	0.00e+00	0	40	0	0	46	4433
2026-01-25 01:02:12.05	344.11	22.04	-37.4	-39.2	20.5	0.00e+00	0	39	0	0	46	4417
2026-01-25 01:02:13.04	343.91	22.13	-37.5	-39.3	20.4	0.00e+00	0	40	0	0	46	4447
2026-01-25 01:02:14.04	343.71	22.22	-37.4	-39.2	20.5	0.00e+00	0	40	0	0	46	4422
2026-01-25 01:02:15.03	343.51	22.31	-37.5	-39.3	20.4	0.00e+00	0	40	0	0	46	4463
2026-01-25 01:02:16.02	343.30	22.40	-37.7	-39.5	20.2	0.00e+00	0	40	0	0	46	4554
2026-01-25 01:02:17.02	343.09	22.50	-37.8	-39.5	20.1	0.00e+00	0	40	0	0	46	4597
2026-01-25 01:02:18.01	342.89	22.59	-37.8	-39.5	20.2	0.00e+00	0	40	0	0	46	4578
2026-01-25 01:02:19.01	342.68	22.68	-37.9	-39.7	20.1	0.00e+00	0	40	0	0	46	4661
2026-01-25 01:02:20.00	342.47	22.77	-37.7	-39.5	20.3	0.00e+00	0	40	0	0	46	4571
2026-01-25 01:02:21.00	342.25	22.86	-37.7	-39.5	20.3	0.00e+00	0	40	0	0	46	4569
2026-01-25 01:02:21.99	342.04	22.95	-37.6	-39.4	20.3	0.00e+00	0	40	0	0	46	4529
2026-01-25 01:02:22.99	341.83	23.04	-37.5	-39.3	20.4	0.00e+00	0	40	0	0	46	4475
2026-01-25 01:02:23.98	341.61	23.13	-37.6	-39.4	20.2	0.00e+00	0	40	0	0	46	4507
2026-01-25 01:02:24.98	341.39	23.22	-37.7	-39.5	20.1	0.00e+00	0	40	0	0	46	4582
2026-01-25 01:02:25.98	341.18	23.31	-37.9	-39.7	20.0	0.00e+00	0	40	0	0	46	4653
2026-01-25 01:02:26.97	340.96	23.40	-37.9	-39.7	20.0	0.00e+00	0	40	0	0	46	4687
2026-01-25 01:02:27.97	340.74	23.49	-38.0	-39.8	20.0	0.00e+00	0	40	0	0	46	4739
2026-01-25 01:02:28.96	340.51	23.58	-37.9	-39.6	20.2	0.00e+00	0	39	0	0	46	4642
2026-01-25 01:02:29.96	340.29	23.67	-37.8	-39.5	20.4	0.00e+00	0	39	0	0	46	4568
2026-01-25 01:02:30.95	340.07	23.76	-37.8	-39.5	20.4	0.00e+00	0	40	0	0	46	4563
2026-01-25 01:02:31.95	339.84	23.85	-37.8	-39.5	20.3	0.00e+00	0	40	0	0	46	4575
2026-01-25 01:02:32.94	339.61	23.94	-37.7	-39.5	20.3	0.00e+00	0	40	0	0	46	4548
2026-01-25 01:02:33.94	339.38	24.03	-37.7	-39.4	20.3	0.00e+00	0	39	0	0	46	4543
2026-01-25 01:02:34.93	339.16	24.11	-37.7	-39.5	20.3	0.00e+00	0	40	0	0	46	4574
2026-01-25 01:02:35.93	338.92	24.20	-37.6	-39.4	20.3	0.00e+00	0	40	0	0	46	4496
2026-01-25 01:02:36.92	338.69	24.29	-37.7	-39.5	20.2	0.00e+00	0	40	0	0	46	4568
2026-01-25 01:02:37.92	338.46	24.38	-37.8	-39.6	20.2	0.00e+00	0	40	0	0	46	4615
2026-01-25 01:02:38.92	338.22	24.47	-37.7	-39.4	20.4	0.00e+00	0	39	0	0	46	4517
2026-01-25 01:02:39.91	337.99	24.55	-37.7	-39.4	20.4	0.00e+00	0	39	0	0	46	4526
2026-01-25 01:02:40.90	337.75	24.64	-37.7	-39.4	20.3	0.00e+00	0	40	0	0	46	4542
2026-01-25 01:02:41.90	337.51	24.73	-37.9	-39.6	20.1	0.00e+00	0	40	0	0	46	4636
2026-01-25 01:02:42.89	337.27	24.82	-37.8	-39.5	20.2	0.00e+00	0	39	0	0	46	4588
2026-01-25 01:02:43.89	337.03	24.90	-38.1	-39.9	19.9	0.00e+00	0	40	0	0	46	4767
2026-01-25 01:02:44.88	336.79	24.99	-38.0	-39.9	19.9	0.00e+00	0	40	0	0	46	4770
2026-01-25 01:02:45.87	336.54	25.07	-38.1	-40.0	19.8	0.00e+00	0	40	0	0	47	4554
2026-01-25 01:02:46.87	336.30	25.16	-38.1	-40.0	19.9	0.00e+00	0	40	0	0	47	4548
2026-01-25 01:02:47.86	336.05	25.24	-38.1	-39.9	19.9	0.00e+00	0	40	0	0	47	4531
2026-01-25 01:02:48.86	335.80	25.33	-38.0	-39.8	20.0	0.00e+00	0	40	0	0	47	4486
2026-01-25 01:02:49.85	335.55	25.41	-38.1	-39.9	20.0	0.00e+00	0	40	0	0	47	4523
2026-01-25 01:02:50.85	335.30	25.50	-38.1	-39.9	19.9	0.00e+00	0	40	0	0	47	4503
2026-01-25 01:02:51.84	335.05	25.58	-38.2	-40.0	19.8	0.00e+00	0	40	0	0	47	4551
2026-01-25 01:02:52.84	334.79	25.67	-38.2	-39.9	19.9	0.00e+00	0	39	0	0	47	4528
2026-01-25 01:02:53.83	334.54	25.75	-38.1	-39.8	20.0	0.00e+00	0	40	0	0	47	4492
2026-01-25 01:02:54.83	334.28	25.83	-38.1	-39.8	20.0	0.00e+00	0	40	0	0	47	4473
2026-01-25 01:02:55.82	334.02	25.91	-38.0	-39.7	20.1	0.00e+00	0	40	0	0	47	4426
2026-01-25 01:02:56.82	333.76	26.00	-37.9	-39.6	20.1	0.00e+00	0	40	0	0	47	4381
2026-01-25 01:02:57.81	333.50	26.08	-38.0	-39.7	20.0	0.00e+00	0	40	0	0	47	4420
2026-01-25 01:02:58.81	333.24	26.16	-38.1	-39.9	19.9	0.00e+00	0	40	0	0	47	4495
2026-01-25 01:02:59.80	332.98	26.24	-38.2	-40.0	19.8	0.00e+00	0	40	0	0	47	4560
2026-01-25 01:03:00.80	332.71	26.32	-38.3	-40.0	19.5	0.00e+00	0	39	0	0	47	4588
2026-01-25 01:03:01.79	332.45	26.40	-38.2	-40.0	19.8	0.00e+00	0	40	0	0	47	4561
2026-01-25 01:03:02.78	332.18	26.48	-38.2	-40.0	19.7	0.00e+00	0	40	0	0	47	4587
2026-01-25 01:03:03.78	331.91	26.56	-38.1	-39.9	19.9	0.00e+00	0	40	0	0	47	4502
2026-01-25 01:03:04.77	331.64	26.64	-38.0	-39.8	19.9	0.00e+00	0	40	0	0	47	4481
2026-01-25 01:03:05.77	331.37	26.72	-38.0	-39.8	19.9	0.00e+00	0	40	0	0	47	4486
2026-01-25 01:03:06.76	331.10	26.79	-37.9	-39.8	19.9	0.00e+00	0	39	0	0	47	4490
2026-01-25 01:03:07.76	330.82	26.87	-38.1	-40.0	19.7	0.00e+00	0	40	0	0	47	4589
2026-01-25 01:03:08.75	330.55	26.95	-38.2	-40.0	19.7	0.00e+00	0	40	0	0	47	4594
2026-01-25 01:03:09.74	330.27	27.02	-38.1	-39.9	19.9	0.00e+00	0	40	0	0	47	4521
2026-01-25 01:03:10.74	329.99	27.10	-38.2	-40.0	19.8	0.00e+00	0	40	0	0	47	4568
2026-01-25 01:03:11.73	329.72	27.18	-38.2	-40.0	19.7	0.00e+00	0	40	0	0	47	4590
2026-01-25 01:03:12.73	329.43	27.25	-38.3	-40.1	19.8	0.00e+00	0	40	0	0	47	4602
2026-01-25 01:03:13.72	329.15	27.32	-38.3	-40.1	19.8	0.00e+00	0	40	0	0	47	4617
2026-01-25 01:03:14.72	328.87	27.40	-38.1	-39.9	20.0	0.00e+00	0	39	0	0	47	4506
2026-01-25 01:03:15.71	328.58	27.47	-38.1	-39.8	20.1	0.00e+00	0	40	0	0	47	4456
2026-01-25 01:03:16.71	328.30	27.54	-38.2	-39.9	19.9	0.00e+00	0	40	0	0	47	4544
2026-01-25 01:03:17.70	328.01	27.61	-38.1	-39.9	20.0	0.00e+00	0	40	0	0	47	4496
2026-01-25 01:03:18.69	327.72	27.68	-38.0	-39.8	20.1	0.00e+00	0	40	0	0	47	4472
2026-01-25 01:03:19.69	327.43	27.76	-38.0	-39.8	20.1	0.00e+00	0	40	0	0	47	4458
2026-01-25 01:03:20.68	327.14	27.83	-38.0	-39.9	20.0	0.00e+00	0	40	0	0	47	4501
2026-01-25 01:03:21.68	326.85	27.89	-38.2	-40.0	19.8	0.00e+00	0	40	0	0	47	4581
2026-01-25 01:03:22.67	326.56	27.96	-38.3	-40.2	19.7	0.00e+00	0	40	0	0	47	4677
2026-01-25 01:03:23.67	326.26	28.03	-38.3	-40.1	19.7	0.00e+00	0	40	0	0	47	4624
2026-01-25 01:03:24.66	325.96	28.10	-38.3	-40.1	19.7	0.00e+00	0	40	0	0	47	4648
2026-01-25 01:03:25.66	325.66	28.16	-38.3	-40.1	19.7	0.00e+00	0	40	0	0	47	4636
2026-01-25 01:03:26.65	325.37	28.23	-38.2	-39.9	19.9	0.00e+00	0	40	0	0	47	4533
2026-01-25 01:03:27.64	325.07	28.29	-38.1	-39.9	19.9	0.00e+00	0	40	0	0	47	4520
2026-01-25 01:03:28.64	324.77	28.36	-38.2	-40.0	19.7	0.00e+00	0	40	0	0	47	4569
2026-01-25 01:03:29.64	324.46	28.42	-38.4	-40.3	19.5	0.00e+00	0	40	0	0	47	4710
2026-01-25 01:03:30.63	324.16	28.49	-38.3	-40.1	19.7	0.00e+00	0	40	0	0	47	4618
2026-01-25 01:03:31.63	323.85	28.55	-38.3	-40.1	19.8	0.00e+00	0	40	0	0	47	4609
2026-01-25 01:03:32.62	323.55	28.61	-38.1	-39.9	20.0	0.00e+00	0	40	0	0	47	4504
2026-01-25 01:03:33.62	323.24	28.67	-38.0	-39.7	20.1	0.00e+00	0	40	0	0	47	4427
2026-01-25 01:03:34.61	322.93	28.73	-38.0	-39.8	20.0	0.00e+00	0	40	0	0	47	4454
2026-01-25 01:03:35.61	322.62	28.79	-38.1	-39.9	19.9	0.00e+00	0	40	0	0	47	4526
2026-01-25 01:03:36.60	322.31	28.85	-38.2	-40.0	19.8	0.00e+00	0	40	0	0	47	4582
2026-01-25 01:03:37.60	322.00	28.90	-38.5	-40.3	19.6	0.00e+00	0	40	0	0	47	4724
2026-01-25 01:03:38.59	321.69	28.96	-38.5	-40.3	19.6	0.00e+00	0	40	0	0	47	4747
2026-01-25 01:03:39.59	321.37	29.01	-38.4	-40.2	19.7	0.00e+00	0	40	0	0	47	4688
2026-01-25 01:03:40.58	321.06	29.07	-38.4	-40.2	19.7	0.00e+00	0	40	0	0	47	4656
2026-01-25 01:03:41.58	320.74	29.12	-38.5	-40.3	19.6	0.00e+00	0	40	0	0	47	4741
2026-01-25 01:03:42.57	320.42	29.18	-38.6	-40.4	19.5	0.00e+00	0	40	0	0	47	4776
2026-01-25 01:03:43.56	320.11	29.23	-38.6	-40.4	19.4	0.00e+00	0	40	0	0	47	4802
2026-01-25 01:03:44.56	319.78	29.28	-38.7	-40.5	19.5	0.00e+00	0	40	0	0	48	4584
2026-01-25 01:03:45.55	319.46	29.33	-38.6	-40.4	19.6	0.00e+00	0	40	0	0	48	4532
2026-01-25 01:03:46.55	319.14	29.38	-38.6	-40.4	19.7	0.00e+00	0	40	0	0	48	4518
2026-01-25 01:03:47.54	318.82	29.43	-38.6	-40.3	19.8	0.00e+00	0	40	0	0	48	4471
2026-01-25 01:03:48.54	318.50	29.47	-38.5	-40.2	19.8	0.00e+00	0	40	0	0	48	4439
2026-01-25 01:03:49.53	318.17	29.52	-38.6	-40.4	19.6	0.00e+00	0	40	0	0	48	4506
2026-01-25 01:03:50.53	317.85	29.57	-38.7	-40.5	19.6	0.00e+00	0	40	0	0	48	4557
2026-01-25 01:03:51.52	317.52	29.61	-38.8	-40.6	19.5	0.00e+00	0	40	0	0	48	4632
2026-01-25 01:03:52.51	317.19	29.65	-38.8	-40.6	19.4	0.00e+00	0	40	0	0	48	4636
2026-01-25 01:03:53.51	316.86	29.70	-38.9	-40.8	19.3	0.00e+00	0	40	0	0	48	4706
2026-01-25 01:03:54.50	316.54	29.74	-38.9	-40.7	19.3	0.00e+00	0	40	0	0	48	4704
2026-01-25 01:03:55.50	316.21	29.78	-38.8	-40.6	19.5	0.00e+00	0	40	0	0	48	4648
2026-01-25 01:03:56.49	315.88	29.82	-38.6	-40.5	19.5	0.00e+00	0	40	0	0	48	4555
2026-01-25 01:03:57.49	315.54	29.86	-38.6	-40.4	19.6	0.00e+00	0	40	0	0	48	4529
2026-01-25 01:03:58.49	315.21	29.90	-38.6	-40.4	19.7	0.00e+00	0	40	0	0	48	4517
2026-01-25 01:03:59.48	314.88	29.93	-38.6	-40.4	19.7	0.00e+00	0	40	0	0	48	4513
2026-01-25 01:04:00.47	314.55	29.97	-38.6	-40.4	19.6	0.00e+00	0	40	0	0	48	4526
2026-01-25 01:04:01.47	314.21	30.00	-38.8	-40.5	19.5	0.00e+00	0	40	0	0	48	4588
2026-01-25 01:04:02.47	313.87	30.03	-38.7	-40.5	19.6	0.00e+00	0	40	0	0	48	4550
2026-01-25 01:04:03.46	313.54	30.07	-38.8	-40.5	19.6	0.00e+00	0	40	0	0	48	4592
2026-01-25 01:04:04.46	313.20	30.10	-38.8	-40.6	19.5	0.00e+00	0	40	0	0	48	4615
2026-01-25 01:04:05.45	312.86	30.13	-38.8	-40.6	19.5	0.00e+00	0	40	0	0	48	4623
2026-01-25 01:04:06.45	312.52	30.16	-38.7	-40.5	19.6	0.00e+00	0	40	0	0	48	4555
2026-01-25 01:04:07.44	312.19	30.19	-38.8	-40.5	19.6	0.00e+00	0	40	0	0	48	4573
2026-01-25 01:04:08.44	311.85	30.21	-38.6	-40.3	19.7	0.00e+00	0	40	0	0	48	4455
2026-01-25 01:04:09.43	311.51	30.24	-38.5	-40.2	19.8	0.00e+00	0	40	0	0	48	4431
2026-01-25 01:04:10.43	311.17	30.26	-38.6	-40.3	19.8	0.00e+00	0	40	0	0	48	4461
2026-01-25 01:04:11.42	310.83	30.29	-38.5	-40.2	19.9	0.00e+00	0	40	0	0	48	4404
2026-01-25 01:04:12.42	310.48	30.31	-38.4	-40.1	19.9	0.00e+00	0	40	0	0	48	4360
2026-01-25 01:04:13.41	310.14	30.33	-38.4	-40.2	19.8	0.00e+00	0	40	0	0	48	4399
2026-01-25 01:04:14.41	309.80	30.35	-38.4	-40.2	19.8	0.00e+00	0	40	0	0	48	4393
2026-01-25 01:04:15.40	309.46	30.37	-38.5	-40.2	19.6	0.00e+00	0	40	0	0	48	4422
2026-01-25 01:04:16.40	309.11	30.39	-38.7	-40.4	19.5	0.00e+00	0	40	0	0	48	4541
2026-01-25 01:04:17.39	308.77	30.40	-38.6	-40.4	19.7	0.00e+00	0	40	0	0	48	4495
2026-01-25 01:04:18.38	308.43	30.42	-38.7	-40.4	19.6	0.00e+00	0	40	0	0	48	4539
2026-01-25 01:04:19.38	308.08	30.43	-38.5	-40.2	19.8	0.00e+00	0	40	0	0	48	4414
2026-01-25 01:04:20.37	307.74	30.45	-38.5	-40.2	19.8	0.00e+00	0	40	0	0	48	4428
2026-01-25 01:04:21.37	307.39	30.46	-38.6	-40.3	19.7	0.00e+00	0	40	0	0	48	4458
2026-01-25 01:04:22.36	307.05	30.47	-38.7	-40.5	19.6	0.00e+00	0	40	0	0	48	4550
2026-01-25 01:04:23.36	306.70	30.48	-38.8	-40.6	19.5	0.00e+00	0	40	0	0	48	4618
2026-01-25 01:04:24.35	306.36	30.49	-38.8	-40.6	19.5	0.00e+00	0	40	0	0	48	4624
2026-01-25 01:04:25.35	306.01	30.50	-38.8	-40.5	19.6	0.00e+00	0	40	0	0	48	4587
2026-01-25 01:04:26.34	305.67	30.50	-38.5	-40.3	19.8	0.00e+00	0	40	0	0	48	4453
2026-01-25 01:04:27.34	305.32	30.51	-38.6	-40.3	19.8	0.00e+00	0	40	0	0	48	4460
2026-01-25 01:04:28.34	304.97	30.51	-38.4	-40.1	20.0	0.00e+00	0	40	0	0	48	4342
2026-01-25 01:04:29.33	304.63	30.51	-38.3	-40.0	20.1	0.00e+00	0	40	0	0	48	4320
2026-01-25 01:04:30.32	304.29	30.52	-38.4	-40.2	19.9	0.00e+00	0	40	0	0	48	4393
2026-01-25 01:04:31.32	303.94	30.52	-38.5	-40.2	20.0	0.00e+00	0	40	0	0	48	4400
2026-01-25 01:04:32.32	303.59	30.52	-38.2	-39.9	20.1	0.00e+00	0	40	0	0	48	4274
2026-01-25 01:04:33.31	303.24	30.51	-38.2	-39.9	20.1	0.00e+00	0	40	0	0	48	4280
2026-01-25 01:04:34.31	302.90	30.51	-38.0	-39.7	20.3	0.00e+00	0	40	0	0	48	4149
2026-01-25 01:04:35.30	302.55	30.51	-37.8	-39.5	20.3	0.00e+00	0	40	0	0	47	4316
2026-01-25 01:04:36.30	302.20	30.50	-37.8	-39.5	20.2	0.00e+00	0	40	0	0	47	4329
2026-01-25 01:04:37.30	301.86	30.49	-37.9	-39.6	20.2	0.00e+00	0	40	0	0	47	4380
2026-01-25 01:04:38.29	301.51	30.49	-38.0	-39.7	20.2	0.00e+00	0	40	0	0	47	4423
2026-01-25 01:04:39.28	301.17	30.48	-38.1	-39.8	20.1	0.00e+00	0	40	0	0	47	4493
2026-01-25 01:04:40.28	300.82	30.47	-38.2	-39.9	20.0	0.00e+00	0	40	0	0	47	4530
2026-01-25 01:04:41.28	300.48	30.46	-38.3	-40.0	19.9	0.00e+00	0	40	0	0	47	4569
2026-01-25 01:04:42.27	300.13	30.44	-38.4	-40.2	19.8	0.00e+00	0	40	0	0	47	4679
2026-01-25 01:04:43.26	299.79	30.43	-38.4	-40.2	19.7	0.00e+00	0	40	0	0	47	4673
2026-01-25 01:04:44.26	299.44	30.42	-38.5	-40.3	19.6	0.00e+00	0	40	0	0	47	4706
2026-01-25 01:04:45.26	299.10	30.40	-38.4	-40.2	19.7	0.00e+00	0	40	0	0	47	4663
2026-01-25 01:04:46.25	298.76	30.38	-38.4	-40.1	19.8	0.00e+00	0	40	0	0	47	4649
2026-01-25 01:04:47.25	298.41	30.36	-38.4	-40.1	19.7	0.00e+00	0	40	0	0	47	4628
2026-01-25 01:04:48.24	298.07	30.34	-38.5	-40.3	19.5	0.00e+00	0	40	0	0	47	4713
2026-01-25 01:04:49.24	297.73	30.32	-38.8	-40.5	19.3	0.00e+00	0	40	0	0	48	4587
2026-01-25 01:04:50.23	297.39	30.30	-38.8	-40.5	19.4	0.00e+00	0	40	0	0	48	4572
2026-01-25 01:04:51.23	297.04	30.28	-38.8	-40.6	19.4	0.00e+00	0	40	0	0	48	4606
2026-01-25 01:04:52.22	296.70	30.26	-38.8	-40.6	19.4	0.00e+00	0	40	0	0	48	4612
2026-01-25 01:04:53.22	296.36	30.23	-38.7	-40.5	19.6	0.00e+00	0	40	0	0	48	4554
2026-01-25 01:04:54.21	296.02	30.20	-38.7	-40.4	19.7	0.00e+00	0	40	0	0	48	4517
2026-01-25 01:04:55.20	295.68	30.18	-38.6	-40.3	19.8	0.00e+00	0	40	0	0	48	4466
2026-01-25 01:04:56.20	295.34	30.15	-38.6	-40.3	19.7	0.00e+00	0	40	0	0	48	4471
2026-01-25 01:04:57.19	295.01	30.12	-38.6	-40.3	19.7	0.00e+00	0	40	0	0	48	4480
2026-01-25 01:04:58.19	294.67	30.09	-38.5	-40.2	19.9	0.00e+00	0	40	0	0	48	4411
2026-01-25 01:04:59.18	294.33	30.06	-38.4	-40.2	19.9	0.00e+00	0	40	0	0	48	4393
2026-01-25 01:05:00.18	293.99	30.03	-38.5	-40.2	19.9	0.00e+00	0	40	0	0	48	4437
2026-01-25 01:05:01.17	293.66	29.99	-38.5	-40.3	19.9	0.00e+00	0	40	0	0	48	4452
2026-01-25 01:05:02.17	293.32	29.96	-38.6	-40.3	19.8	0.00e+00	0	40	0	0	48	4477
2026-01-25 01:05:03.16	292.99	29.92	-38.5	-40.3	19.8	0.00e+00	0	40	0	0	48	4454
2026-01-25 01:05:04.15	292.66	29.88	-38.6	-40.3	19.7	0.00e+00	0	40	0	0	48	4487
2026-01-25 01:05:05.15	292.32	29.85	-38.5	-40.3	19.8	0.00e+00	0	40	0	0	48	4453
2026-01-25 01:05:06.14	291.99	29.81	-38.4	-40.1	19.8	0.00e+00	0	40	0	0	48	4380
2026-01-25 01:05:07.14	291.66	29.77	-38.5	-40.2	19.8	0.00e+00	0	40	0	0	48	4399
2026-01-25 01:05:08.13	291.33	29.73	-38.2	-39.9	20.0	0.00e+00	0	40	0	0	48	4269
2026-01-25 01:05:09.13	291.00	29.68	-38.2	-39.8	20.1	0.00e+00	0	40	0	0	48	4236
2026-01-25 01:05:10.12	290.67	29.64	-38.2	-39.9	20.0	0.00e+00	0	40	0	0	48	4264
2026-01-25 01:05:11.12	290.35	29.60	-38.4	-40.1	19.9	0.00e+00	0	40	0	0	48	4361
2026-01-25 01:05:12.11	290.02	29.55	-38.5	-40.2	19.9	0.00e+00	0	40	0	0	48	4410
2026-01-25 01:05:13.11	289.69	29.51	-38.5	-40.3	19.9	0.00e+00	0	40	0	0	48	4445
2026-01-25 01:05:14.10	289.37	29.46	-38.6	-40.3	19.8	0.00e+00	0	40	0	0	48	4471
2026-01-25 01:05:15.10	289.04	29.41	-38.6	-40.3	19.8	0.00e+00	0	40	0	0	48	4491
2026-01-25 01:05:16.09	288.72	29.36	-38.5	-40.2	19.9	0.00e+00	0	40	0	0	48	4417
2026-01-25 01:05:17.09	288.40	29.31	-38.6	-40.4	19.7	0.00e+00	0	40	0	0	48	4499
2026-01-25 01:05:18.09	288.08	29.26	-38.7	-40.4	19.7	0.00e+00	0	40	0	0	48	4512
2026-01-25 01:05:19.08	287.76	29.21	-38.8	-40.6	19.2	0.00e+00	0	40	0	0	48	4627
2026-01-25 01:05:20.08	287.44	29.16	-38.9	-40.7	19.2	0.00e+00	0	40	0	0	48	4678
2026-01-25 01:05:21.07	287.12	29.11	-38.9	-40.7	19.2	0.00e+00	0	40	0	0	48	4694
2026-01-25 01:05:22.07	286.80	29.05	-38.9	-40.7	19.3	0.00e+00	0	40	0	0	48	4675
2026-01-25 01:05:23.06	286.49	29.00	-39.0	-40.8	19.4	0.00e+00	0	40	0	0	48	4721
2026-01-25 01:05:24.05	286.17	28.94	-39.0	-40.8	19.3	0.00e+00	0	40	0	0	48	4725
2026-01-25 01:05:25.05	285.86	28.88	-38.7	-40.4	19.7	0.00e+00	0	40	0	0	48	4520
2026-01-25 01:05:26.04	285.55	28.83	-38.7	-40.4	19.6	0.00e+00	0	40	0	0	48	4531
2026-01-25 01:05:27.04	285.24	28.77	-38.6	-40.3	19.8	0.00e+00	0	40	0	0	48	4453
2026-01-25 01:05:28.03	284.93	28.71	-38.4	-40.1	20.0	0.00e+00	0	40	0	0	48	4375
2026-01-25 01:05:29.03	284.62	28.65	-38.4	-40.1	20.0	0.00e+00	0	40	0	0	48	4366
2026-01-25 01:05:30.02	284.31	28.59	-38.3	-40.0	20.0	0.00e+00	0	40	0	0	48	4322
2026-01-25 01:05:31.02	284.00	28.53	-38.3	-40.0	20.0	0.00e+00	0	40	0	0	48	4320
2026-01-25 01:05:32.01	283.70	28.46	-38.4	-40.1	19.9	0.00e+00	0	40	0	0	48	4352
2026-01-25 01:05:33.01	283.39	28.40	-38.4	-40.1	19.8	0.00e+00	0	40	0	0	48	4381
2026-01-25 01:05:34.00	283.09	28.34	-38.4	-40.0	19.9	0.00e+00	0	40	0	0	48	4337
2026-01-25 01:05:35.00	282.79	28.27	-38.3	-39.9	20.0	0.00e+00	0	40	0	0	48	4282
2026-01-25 01:05:35.99	282.49	28.21	-38.2	-39.9	20.1	0.00e+00	0	40	0	0	48	4258
2026-01-25 01:05:36.99	282.19	28.14	-38.3	-40.0	20.0	0.00e+00	0	40	0	0	48	4296
2026-01-25 01:05:37.98	281.89	28.07	-38.1	-39.8	20.2	0.00e+00	0	40	0	0	48	4213
2026-01-25 01:05:38.97	281.59	28.01	-38.3	-39.9	20.1	0.00e+00	0	40	0	0	48	4290
2026-01-25 01:05:39.97	281.30	27.94	-38.4	-40.1	20.0	0.00e+00	0	40	0	0	48	4363
2026-01-25 01:05:40.96	281.00	27.87	-38.3	-40.0	20.0	0.00e+00	0	40	0	0	48	4295
2026-01-25 01:05:41.96	280.71	27.80	-38.2	-39.9	20.1	0.00e+00	0	40	0	0	48	4256
2026-01-25 01:05:42.96	280.41	27.73	-38.2	-39.9	20.0	0.00e+00	0	40	0	0	48	4289
2026-01-25 01:05:43.95	280.13	27.66	-38.1	-39.8	20.1	0.00e+00	0	40	0	0	48	4211
2026-01-25 01:05:44.94	279.84	27.59	-37.6	-39.3	20.4	0.00e+00	0	40	0	0	47	4195
2026-01-25 01:05:45.94	279.55	27.52	-37.5	-39.1	20.6	0.00e+00	0	40	0	0	47	4145
2026-01-25 01:05:46.94	279.26	27.44	-37.5	-39.1	20.6	0.00e+00	0	40	0	0	47	4139
2026-01-25 01:05:47.93	278.98	27.37	-37.5	-39.2	20.7	0.00e+00	0	40	0	0	46	4404
2026-01-25 01:05:48.93	278.69	27.30	-37.9	-39.5	20.3	0.00e+00	0	40	0	0	46	4593
2026-01-25 01:05:49.92	278.41	27.22	-38.3	-40.0	19.9	0.00e+00	0	40	0	0	47	4573
2026-01-25 01:05:50.92	278.13	27.15	-38.7	-40.4	19.5	0.00e+00	0	40	0	0	47	4802
2026-01-25 01:05:51.91	277.85	27.07	-39.1	-40.9	19.3	0.00e+00	0	40	0	0	48	4771
2026-01-25 01:05:52.91	277.57	26.99	-39.2	-41.0	19.0	0.00e+00	0	40	0	0	48	4849
2026-01-25 01:05:53.90	277.29	26.92	-39.1	-40.9	19.1	0.00e+00	0	40	0	0	49	4539
2026-01-25 01:05:54.90	277.01	26.84	-38.9	-40.7	19.2	0.00e+00	0	40	0	0	49	4427
2026-01-25 01:05:55.89	276.74	26.76	-38.7	-40.5	19.4	0.00e+00	0	40	0	0	49	4312
2026-01-25 01:05:56.89	276.46	26.68	-38.4	-40.1	19.8	0.00e+00	0	40	0	0	48	4371
2026-01-25 01:05:57.88	276.19	26.61	-38.0	-39.7	20.2	0.00e+00	0	40	0	0	48	4179
2026-01-25 01:05:58.88	275.92	26.53	-37.9	-39.6	20.3	0.00e+00	0	40	0	0	47	4343
2026-01-25 01:05:59.87	275.65	26.45	-37.9	-39.5	20.3	0.00e+00	0	40	0	0	47	4340
2026-01-25 01:06:00.87	275.38	26.37	-37.8	-39.5	20.3	0.00e+00	0	40	0	0	47	4330
2026-01-25 01:06:01.86	275.12	26.29	-38.1	-39.8	19.9	0.00e+00	0	40	0	0	47	4464
2026-01-25 01:06:02.86	274.85	26.21	-38.0	-39.7	19.9	0.00e+00	0	40	0	0	47	4438
2026-01-25 01:06:03.85	274.59	26.12	-38.0	-39.7	19.9	0.00e+00	0	40	0	0	47	4406
2026-01-25 01:06:04.84	274.33	26.04	-38.0	-39.7	19.8	0.00e+00	0	40	0	0	47	4441
2026-01-25 01:06:05.84	274.06	25.96	-38.0	-39.7	19.9	0.00e+00	0	40	0	0	47	4418
2026-01-25 01:06:06.83	273.81	25.88	-38.0	-39.7	19.9	0.00e+00	0	40	0	0	47	4414
2026-01-25 01:06:07.83	273.55	25.79	-38.0	-39.8	20.0	0.00e+00	0	40	0	0	47	4446
2026-01-25 01:06:08.82	273.29	25.71	-38.2	-39.9	19.9	0.00e+00	0	40	0	0	47	4508
2026-01-25 01:06:09.82	273.03	25.63	-38.3	-40.0	19.9	0.00e+00	0	40	0	0	47	4562
2026-01-25 01:06:10.81	272.78	25.54	-38.2	-40.0	19.8	0.00e+00	0	40	0	0	47	4558
2026-01-25 01:06:11.81	272.53	25.46	-38.1	-39.8	19.9	0.00e+00	0	40	0	0	47	4467
2026-01-25 01:06:12.80	272.27	25.37	-37.9	-39.6	20.0	0.00e+00	0	40	0	0	47	4348
2026-01-25 01:06:13.79	272.03	25.29	-37.7	-39.4	20.1	0.00e+00	0	40	0	0	47	4269
2026-01-25 01:06:14.79	271.77	25.20	-37.7	-39.4	20.1	0.00e+00	0	40	0	0	47	4268
2026-01-25 01:06:15.78	271.53	25.12	-37.7	-39.4	20.2	0.00e+00	0	40	0	0	47	4264
2026-01-25 01:06:16.78	271.28	25.03	-37.8	-39.5	20.2	0.00e+00	0	40	0	0	47	4300
2026-01-25 01:06:17.78	271.03	24.95	-37.4	-39.0	20.7	0.00e+00	0	40	0	0	46	4339
2026-01-25 01:06:18.77	270.79	24.86	-37.6	-39.2	20.6	0.00e+00	0	40	0	0	46	4423
2026-01-25 01:06:19.77	270.55	24.77	-37.6	-39.2	20.7	0.00e+00	0	40	0	0	46	4431
2026-01-25 01:06:20.76	270.31	24.68	-37.7	-39.4	20.5	0.00e+00	0	40	0	0	46	4522
2026-01-25 01:06:21.76	270.07	24.60	-37.8	-39.4	20.5	0.00e+00	0	40	0	0	46	4542
2026-01-25 01:06:22.75	269.83	24.51	-37.8	-39.4	20.4	0.00e+00	0	40	0	0	46	4540
2026-01-25 01:06:23.74	269.59	24.42	-37.5	-39.2	20.7	0.00e+00	0	40	0	0	46	4403
2026-01-25 01:06:24.74	269.36	24.33	-37.5	-39.1	20.6	0.00e+00	0	40	0	0	46	4390
2026-01-25 01:06:25.73	269.12	24.25	-37.5	-39.1	20.7	0.00e+00	0	40	0	0	46	4369
2026-01-25 01:06:26.73	268.89	24.16	-37.5	-39.1	20.7	0.00e+00	0	40	0	0	46	4366
2026-01-25 01:06:27.72	268.66	24.07	-37.4	-39.1	20.7	0.00e+00	0	40	0	0	46	4353
2026-01-25 01:06:28.72	268.43	23.98	-37.4	-39.0	20.7	0.00e+00	0	40	0	0	46	4339
2026-01-25 01:06:29.71	268.20	23.89	-37.5	-39.2	20.6	0.00e+00	0	40	0	0	46	4408
2026-01-25 01:06:30.71	267.97	23.80	-37.6	-39.2	20.6	0.00e+00	0	40	0	0	46	4417
2026-01-25 01:06:31.70	267.75	23.71	-37.6	-39.2	20.6	0.00e+00	0	40	0	0	46	4430
2026-01-25 01:06:32.70	267.52	23.62	-37.6	-39.3	20.5	0.00e+00	0	40	0	0	46	4457
2026-01-25 01:06:33.69	267.30	23.53	-37.6	-39.2	20.5	0.00e+00	0	40	0	0	46	4440
2026-01-25 01:06:34.69	267.07	23.44	-37.4	-39.1	20.6	0.00e+00	0	40	0	0	46	4359
2026-01-25 01:06:35.68	266.85	23.35	-37.5	-39.1	20.6	0.00e+00	0	40	0	0	46	4376
2026-01-25 01:06:36.68	266.63	23.26	-37.5	-39.1	20.6	0.00e+00	0	40	0	0	46	4359
2026-01-25 01:06:37.67	266.41	23.17	-37.4	-39.1	20.7	0.00e+00	0	40	0	0	46	4346
2026-01-25 01:06:38.67	266.19	23.08	-37.4	-39.1	20.7	0.00e+00	0	40	0	0	46	4343
2026-01-25 01:06:39.66	265.98	22.99	-37.6	-39.3	20.5	0.00e+00	0	40	0	0	46	4465
2026-01-25 01:06:40.66	265.76	22.90	-37.7	-39.4	20.4	0.00e+00	0	40	0	0	46	4503
2026-01-25 01:06:41.65	265.55	22.81	-37.9	-39.6	20.3	0.00e+00	0	40	0	0	46	4616
2026-01-25 01:06:42.65	265.34	22.71	-38.0	-39.7	20.2	0.00e+00	0	40	0	0	46	4657
2026-01-25 01:06:43.64	265.13	22.62	-39.0	-40.7	19.5	9.39e-02	0	40	0	0	50	4171
2026-01-25 01:06:44.64	264.92	22.53	-44.0	-46.8	12.9	7.40e-05	0	40	0	0	60	4748
2026-01-25 01:06:45.63	264.71	22.44	-43.5	-46.3	14.5	0.00e+00	0	40	0	0	57	5291
2026-01-25 01:06:46.63	264.50	22.35	-41.7	-43.9	16.4	0.00e+00	0	40	0	0	54	4805
2026-01-25 01:06:47.62	264.29	22.26	-41.5	-43.7	16.4	0.00e+00	0	40	0	0	54	4693
2026-01-25 01:06:48.62	264.09	22.17	-41.6	-43.8	16.2	0.00e+00	0	40	0	0	54	4731
2026-01-25 01:06:49.62	263.88	22.07	-42.1	-44.4	15.6	0.00e+00	0	40	0	0	54	5098
2026-01-25 01:06:50.61	263.68	21.98	-41.4	-43.6	16.5	0.00e+00	0	40	0	0	54	4622
2026-01-25 01:06:51.61	263.48	21.89	-40.6	-42.6	17.5	0.00e+00	0	40	0	0	52	4619
2026-01-25 01:06:52.60	263.28	21.80	-40.0	-42.0	18.2	0.00e+00	0	40	0	0	51	4550
2026-01-25 01:06:53.59	263.08	21.71	-39.1	-40.9	19.1	0.00e+00	0	40	0	0	50	4278
2026-01-25 01:06:54.59	262.88	21.61	-38.5	-40.2	19.8	0.00e+00	0	40	0	0	49	4173
2026-01-25 01:06:55.58	262.69	21.52	-38.2	-39.8	20.1	0.00e+00	0	40	0	0	48	4232
2026-01-25 01:06:56.58	262.49	21.43	-38.1	-39.8	20.1	0.00e+00	0	40	0	0	48	4217
2026-01-25 01:06:57.57	262.30	21.34	-38.1	-39.8	20.1	0.00e+00	0	40	0	0	48	4209
2026-01-25 01:06:58.57	262.10	21.25	-38.1	-39.8	20.1	0.00e+00	0	40	0	0	48	4194
2026-01-25 01:06:59.56	261.91	21.16	-38.2	-39.9	20.0	0.00e+00	0	40	0	0	48	4276
2026-01-25 01:07:00.56	261.72	21.06	-38.3	-40.0	19.9	0.00e+00	0	40	0	0	48	4340
2026-01-25 01:07:01.56	261.53	20.97	-38.4	-40.2	19.8	0.00e+00	0	40	0	0	48	4392
2026-01-25 01:07:02.55	261.34	20.88	-38.5	-40.2	19.7	0.00e+00	0	40	0	0	48	4438
2026-01-25 01:07:03.55	261.15	20.79	-38.3	-40.1	19.9	0.00e+00	0	40	0	0	48	4354
2026-01-25 01:07:04.54	260.97	20.69	-38.4	-40.2	19.8	0.00e+00	0	40	0	0	48	4393
2026-01-25 01:07:05.54	260.78	20.60	-38.5	-40.2	19.8	0.00e+00	0	40	0	0	48	4416
2026-01-25 01:07:06.54	260.60	20.51	-38.4	-40.2	19.8	0.00e+00	0	40	0	0	48	4410
2026-01-25 01:07:07.53	260.42	20.42	-38.3	-40.1	19.9	0.00e+00	0	40	0	0	48	4345
2026-01-25 01:07:08.52	260.23	20.33	-38.3	-40.0	20.0	0.00e+00	0	40	0	0	48	4298
2026-01-25 01:07:09.52	260.05	20.23	-38.2	-39.9	20.0	0.00e+00	0	40	0	0	48	4278
2026-01-25 01:07:10.51	259.87	20.14	-38.1	-39.8	20.1	0.00e+00	0	40	0	0	48	4235
2026-01-25 01:07:11.51	259.69	20.05	-38.2	-39.9	20.0	0.00e+00	0	40	0	0	48	4254
2026-01-25 01:07:12.50	259.52	19.96	-38.1	-39.8	20.0	0.00e+00	0	40	0	0	48	4230
2026-01-25 01:07:13.50	259.34	19.87	-38.2	-39.9	19.9	0.00e+00	0	40	0	0	48	4258
2026-01-25 01:07:14.49	259.17	19.78	-38.4	-40.1	19.7	0.00e+00	0	40	0	0	48	4360
2026-01-25 01:07:15.48	258.99	19.69	-38.5	-40.3	19.5	0.00e+00	0	40	0	0	48	4462
2026-01-25 01:07:16.48	258.82	19.59	-38.6	-40.3	19.5	0.00e+00	0	40	0	0	48	4491
2026-01-25 01:07:17.47	258.65	19.50	-38.6	-40.4	19.5	0.00e+00	0	40	0	0	48	4505
2026-01-25 01:07:18.47	258.47	19.41	-38.5	-40.2	19.7	0.00e+00	0	40	0	0	48	4438
2026-01-25 01:07:19.46	258.30	19.32	-38.5	-40.2	19.7	0.00e+00	0	40	0	0	48	4440
2026-01-25 01:07:20.46	258.13	19.23	-38.2	-40.0	20.0	0.00e+00	0	40	0	0	48	4294
2026-01-25 01:07:21.45	257.97	19.14	-38.2	-39.9	20.1	0.00e+00	0	40	0	0	48	4253
2026-01-25 01:07:22.45	257.80	19.05	-38.2	-39.9	20.0	0.00e+00	0	40	0	0	48	4261
2026-01-25 01:07:23.44	257.63	18.96	-38.1	-39.8	20.0	0.00e+00	0	40	0	0	48	4210
2026-01-25 01:07:24.43	257.47	18.86	-38.3	-40.0	19.7	0.00e+00	0	40	0	0	48	4316
2026-01-25 01:07:25.43	257.30	18.77	-38.5	-40.2	19.5	0.00e+00	0	40	0	0	48	4440
2026-01-25 01:07:26.43	257.14	18.68	-38.6	-40.4	19.3	0.00e+00	0	40	0	0	48	4525
2026-01-25 01:07:27.42	256.98	18.59	-38.8	-40.5	19.2	0.00e+00	0	40	0	0	48	4597
2026-01-25 01:07:28.41	256.82	18.50	-38.8	-40.6	19.2	0.00e+00	0	40	0	0	48	4620
2026-01-25 01:07:29.41	256.66	18.41	-38.8	-40.6	19.3	0.00e+00	0	40	0	0	48	4622
2026-01-25 01:07:30.41	256.50	18.32	-38.7	-40.4	19.5	0.00e+00	0	40	0	0	48	4529
2026-01-25 01:07:31.40	256.34	18.23	-38.4	-40.1	19.9	0.00e+00	0	40	0	0	48	4377
2026-01-25 01:07:32.40	256.18	18.14	-38.3	-40.0	20.0	0.00e+00	0	40	0	0	48	4315
2026-01-25 01:07:33.39	256.03	18.05	-38.3	-40.0	20.0	0.00e+00	0	40	0	0	48	4294
2026-01-25 01:07:34.39	255.87	17.96	-38.2	-39.9	20.1	0.00e+00	0	40	0	0	48	4259
2026-01-25 01:07:35.38	255.72	17.87	-38.2	-39.9	20.1	0.00e+00	0	40	0	0	48	4256
2026-01-25 01:07:36.38	255.56	17.78	-38.4	-40.1	19.9	0.00e+00	0	40	0	0	48	4357
2026-01-25 01:07:37.37	255.41	17.69	-38.6	-40.4	19.6	0.00e+00	0	40	0	0	48	4498
2026-01-25 01:07:38.37	255.26	17.60	-38.7	-40.5	19.4	0.00e+00	0	40	0	0	48	4568
2026-01-25 01:07:39.36	255.11	17.51	-38.9	-40.7	19.2	0.00e+00	0	40	0	0	48	4675
2026-01-25 01:07:40.36	254.96	17.42	-38.9	-40.7	19.1	0.00e+00	0	40	0	0	48	4695
2026-01-25 01:07:41.35	254.81	17.33	-38.9	-40.8	19.2	0.00e+00	0	40	0	0	48	4706
2026-01-25 01:07:42.35	254.66	17.24	-38.9	-40.7	19.3	0.00e+00	0	40	0	0	48	4656
2026-01-25 01:07:43.34	254.51	17.16	-38.7	-40.4	19.5	0.00e+00	0	40	0	0	48	4528
2026-01-25 01:07:44.33	254.37	17.07	-38.6	-40.3	19.6	0.00e+00	0	40	0	0	48	4475
2026-01-25 01:07:45.33	254.22	16.98	-38.4	-40.1	19.9	0.00e+00	0	40	0	0	48	4351
2026-01-25 01:07:46.32	254.08	16.89	-38.0	-39.7	20.2	0.00e+00	0	40	0	0	48	4166
2026-01-25 01:07:47.32	253.93	16.80	-37.9	-39.6	20.1	0.00e+00	0	40	0	0	47	4373
2026-01-25 01:07:48.31	253.79	16.71	-38.0	-39.6	20.1	0.00e+00	0	40	0	0	47	4387
2026-01-25 01:07:49.30	253.65	16.63	-38.2	-39.9	19.8	0.00e+00	0	40	0	0	47	4521
2026-01-25 01:07:50.30	253.51	16.54	-38.4	-40.1	19.6	0.00e+00	0	40	0	0	47	4642
2026-01-25 01:07:51.29	253.37	16.45	-38.9	-40.6	19.3	0.00e+00	0	40	0	0	48	4645
2026-01-25 01:07:52.29	253.22	16.36	-39.0	-40.8	19.1	0.00e+00	0	40	0	0	48	4755
2026-01-25 01:07:53.28	253.09	16.27	-39.1	-40.9	19.0	0.00e+00	0	40	0	0	48	4810
2026-01-25 01:07:54.28	252.95	16.19	-39.2	-41.1	18.9	0.00e+00	0	40	0	0	49	4603
2026-01-25 01:07:55.27	252.81	16.10	-39.3	-41.1	18.8	0.00e+00	0	40	0	0	49	4627
2026-01-25 01:07:56.27	252.67	16.01	-39.1	-41.0	18.9	0.00e+00	0	40	0	0	49	4560
2026-01-25 01:07:57.26	252.54	15.93	-38.8	-40.6	19.2	0.00e+00	0	40	0	0	49	4374
2026-01-25 01:07:58.26	252.40	15.84	-38.7	-40.4	19.4	0.00e+00	0	40	0	0	49	4286
2026-01-25 01:07:59.25	252.27	15.75	-38.6	-40.4	19.4	0.00e+00	0	40	0	0	49	4261
2026-01-25 01:08:00.25	252.14	15.67	-38.4	-40.2	19.6	0.00e+00	0	40	0	0	48	4405
2026-01-25 01:08:01.24	252.00	15.58	-38.6	-40.3	19.6	0.00e+00	0	40	0	0	48	4464
2026-01-25 01:08:02.24	251.87	15.49	-38.4	-40.1	19.7	0.00e+00	0	40	0	0	48	4389
2026-01-25 01:08:03.23	251.74	15.41	-38.3	-40.0	19.8	0.00e+00	0	40	0	0	48	4339
2026-01-25 01:08:04.22	251.61	15.32	-38.5	-40.2	19.7	0.00e+00	0	40	0	0	48	4426
2026-01-25 01:08:05.22	251.48	15.24	-38.5	-40.2	19.7	0.00e+00	0	40	0	0	48	4439
2026-01-25 01:08:06.22	251.35	15.15	-38.7	-40.5	19.5	0.00e+00	0	40	0	0	48	4551
2026-01-25 01:08:07.21	251.23	15.06	-38.8	-40.5	19.4	0.00e+00	0	40	0	0	48	4593
2026-01-25 01:08:08.21	251.10	14.98	-38.9	-40.6	19.3	0.00e+00	0	40	0	0	48	4637
2026-01-25 01:08:09.20	250.97	14.89	-39.0	-40.8	19.2	0.00e+00	0	40	0	0	48	4710
2026-01-25 01:08:10.20	250.85	14.81	-39.0	-40.8	19.1	0.00e+00	0	40	0	0	48	4748
2026-01-25 01:08:11.19	250.72	14.72	-39.0	-40.8	19.1	0.00e+00	0	40	0	0	48	4727
2026-01-25 01:08:12.19	250.60	14.64	-39.0	-40.8	19.1	0.00e+00	0	40	0	0	48	4729
2026-01-25 01:08:13.18	250.47	14.55	-39.0	-40.8	19.1	0.00e+00	0	40	0	0	48	4712
2026-01-25 01:08:14.18	250.35	14.47	-38.9	-40.6	19.2	0.00e+00	0	40	0	0	48	4647
2026-01-25 01:08:15.17	250.23	14.39	-38.8	-40.6	19.3	0.00e+00	0	40	0	0	48	4608
2026-01-25 01:08:16.17	250.11	14.30	-38.8	-40.5	19.3	0.00e+00	0	40	0	0	48	4576
2026-01-25 01:08:17.16	249.99	14.22	-38.7	-40.5	19.4	0.00e+00	0	40	0	0	48	4547
2026-01-25 01:08:18.16	249.87	14.13	-38.4	-40.1	19.7	0.00e+00	0	40	0	0	48	4379
2026-01-25 01:08:19.15	249.75	14.05	-38.3	-40.0	19.9	0.00e+00	0	40	0	0	48	4297
2026-01-25 01:08:20.15	249.63	13.97	-38.1	-39.8	20.0	0.00e+00	0	40	0	0	48	4224
2026-01-25 01:08:21.14	249.51	13.88	-38.1	-39.8	20.1	0.00e+00	0	40	0	0	48	4200
2026-01-25 01:08:22.14	249.39	13.80	-38.1	-39.8	20.0	0.00e+00	0	40	0	0	48	4207
2026-01-25 01:08:23.13	249.28	13.72	-38.2	-39.9	19.9	0.00e+00	0	40	0	0	48	4246
2026-01-25 01:08:24.13	249.16	13.64	-38.2	-39.9	19.9	0.00e+00	0	40	0	0	48	4272
2026-01-25 01:08:25.12	249.04	13.55	-38.4	-40.1	19.8	0.00e+00	0	40	0	0	48	4346
2026-01-25 01:08:26.11	248.93	13.47	-38.6	-40.3	19.6	0.00e+00	0	40	0	0	48	4475
2026-01-25 01:08:27.11	248.82	13.39	-38.7	-40.5	19.4	0.00e+00	0	40	0	0	48	4575
2026-01-25 01:08:28.10	248.70	13.31	-38.9	-40.7	19.2	0.00e+00	0	40	0	0	48	4697
2026-01-25 01:08:29.10	248.59	13.22	-39.1	-40.9	18.9	0.00e+00	0	40	0	0	48	4796
2026-01-25 01:08:30.09	248.48	13.14	-39.3	-41.1	18.7	0.00e+00	0	40	0	0	49	4637
2026-01-25 01:08:31.09	248.37	13.06	-39.3	-41.2	18.6	0.00e+00	0	40	0	0	49	4657
2026-01-25 01:08:32.08	248.25	12.98	-39.4	-41.3	18.5	0.00e+00	0	40	0	0	49	4706
2026-01-25 01:08:33.08	248.14	12.90	-39.4	-41.2	18.5	0.00e+00	0	40	0	0	49	4695
2026-01-25 01:08:34.08	248.03	12.82	-39.4	-41.2	18.5	0.00e+00	0	40	0	0	49	4685
2026-01-25 01:08:35.07	247.93	12.74	-39.4	-41.3	18.4	0.00e+00	0	40	0	0	49	4715
2026-01-25 01:08:36.06	247.82	12.66	-39.2	-41.1	18.6	0.00e+00	0	40	0	0	49	4618
2026-01-25 01:08:37.06	247.71	12.57	-39.2	-41.0	18.7	0.00e+00	0	40	0	0	49	4576
2026-01-25 01:08:38.05	247.60	12.49	-39.2	-41.0	18.8	0.00e+00	0	40	0	0	49	4555
2026-01-25 01:08:39.05	247.50	12.41	-38.9	-40.7	19.0	0.00e+00	0	40	0	0	49	4426
2026-01-25 01:08:40.04	247.39	12.33	-38.8	-40.6	19.2	0.00e+00	0	40	0	0	49	4367
2026-01-25 01:08:41.04	247.28	12.25	-38.9	-40.7	19.1	0.00e+00	0	40	0	0	49	4394
2026-01-25 01:08:42.03	247.18	12.17	-38.7	-40.4	19.3	0.00e+00	0	40	0	0	49	4271
2026-01-25 01:08:43.03	247.07	12.09	-38.7	-40.4	19.3	0.00e+00	0	40	0	0	49	4289
2026-01-25 01:08:44.02	246.97	12.02	-38.6	-40.4	19.4	0.00e+00	0	40	0	0	49	4252
2026-01-25 01:08:45.02	246.87	11.94	-38.7	-40.5	19.3	0.00e+00	0	40	0	0	49	4319
2026-01-25 01:08:46.01	246.77	11.86	-38.9	-40.7	19.1	0.00e+00	0	40	0	0	49	4408
2026-01-25 01:08:47.00	246.66	11.78	-39.0	-40.8	19.0	0.00e+00	0	40	0	0	49	4492
2026-01-25 01:08:48.00	246.56	11.70	-39.2	-41.0	18.8	0.00e+00	0	40	0	0	49	4589
2026-01-25 01:08:48.99	246.46	11.62	-39.4	-41.3	18.6	0.00e+00	0	40	0	0	49	4724
2026-01-25 01:08:49.99	246.36	11.54	-39.5	-41.4	18.4	0.00e+00	0	40	0	0	49	4805
2026-01-25 01:08:50.98	246.26	11.46	-39.7	-41.7	18.2	0.00e+00	0	40	0	0	50	4653
2026-01-25 01:08:51.98	246.16	11.39	-39.8	-41.8	18.1	0.00e+00	0	40	0	0	50	4714
2026-01-25 01:08:52.97	246.06	11.31	-39.9	-41.9	18.0	0.00e+00	0	40	0	0	50	4761
2026-01-25 01:08:53.97	245.96	11.23	-39.9	-41.9	17.9	0.00e+00	0	40	0	0	50	4783
2026-01-25 01:08:54.96	245.87	11.15	-40.0	-42.0	17.9	0.00e+00	0	40	0	0	50	4839
2026-01-25 01:08:55.96	245.77	11.08	-40.1	-42.0	17.8	0.00e+00	0	40	0	0	50	4861
2026-01-25 01:08:56.95	245.67	11.00	-40.0	-41.9	17.9	0.00e+00	0	40	0	0	50	4814
2026-01-25 01:08:57.94	245.58	10.92	-40.0	-42.0	17.8	0.00e+00	0	40	0	0	50	4842
2026-01-25 01:08:58.94	245.48	10.84	-40.0	-42.0	17.8	0.00e+00	0	40	0	0	50	4816
2026-01-25 01:08:59.93	245.39	10.77	-39.8	-41.8	18.0	0.00e+00	0	40	0	0	50	4718
2026-01-25 01:09:00.93	245.29	10.69	-39.6	-41.5	18.2	0.00e+00	0	40	0	0	50	4550
2026-01-25 01:09:01.92	245.20	10.61	-39.5	-41.3	18.4	0.00e+00	0	40	0	0	50	4485
2026-01-25 01:09:02.91	245.10	10.54	-39.5	-41.4	18.3	0.00e+00	0	40	0	0	50	4500
2026-01-25 01:09:03.91	245.01	10.46	-39.4	-41.3	18.4	0.00e+00	0	40	0	0	50	4468
2026-01-25 01:09:04.90	244.92	10.39	-39.5	-41.3	18.4	0.00e+00	0	40	0	0	50	4478
2026-01-25 01:09:05.90	244.83	10.31	-39.5	-41.3	18.4	0.00e+00	0	40	0	0	50	4491
2026-01-25 01:09:06.89	244.74	10.23	-39.5	-41.4	18.4	0.00e+00	0	40	0	0	50	4499
2026-01-25 01:09:07.89	244.64	10.16	-39.5	-41.4	18.3	0.00e+00	0	40	0	0	50	4527
2026-01-25 01:09:08.88	244.55	10.08	-39.6	-41.5	18.2	0.00e+00	0	40	0	0	50	4591
2026-01-25 01:09:09.88	244.46	10.01	-39.6	-41.5	18.2	0.00e+00	0	40	0	0	50	4581
2026-01-25 01:09:10.87	244.37	9.93	-39.8	-41.7	18.1	0.00e+00	0	40	0	0	50	4670
2026-01-25 01:09:11.87	244.28	9.86	-39.9	-41.8	18.0	0.00e+00	0	40	0	0	50	4732
2026-01-25 01:09:12.86	244.20	9.78	-40.0	-42.0	17.8	0.00e+00	0	40	0	0	50	4827
2026-01-25 01:09:13.85	244.11	9.71	-40.1	-42.0	17.7	0.00e+00	0	40	0	0	50	4852
2026-01-25 01:09:14.85	244.02	9.64	-40.2	-42.2	17.6	0.00e+00	0	40	0	0	51	4675
2026-01-25 01:09:15.84	243.93	9.56	-40.2	-42.2	17.6	0.00e+00	0	40	0	0	51	4685
2026-01-25 01:09:16.84	243.84	9.49	-40.3	-42.3	17.4	0.00e+00	0	40	0	0	51	4753
2026-01-25 01:09:17.83	243.76	9.41	-40.4	-42.4	17.4	0.00e+00	0	40	0	0	51	4800
2026-01-25 01:09:18.83	243.67	9.34	-40.5	-42.5	17.2	0.00e+00	0	40	0	0	51	4861
2026-01-25 01:09:19.82	243.59	9.27	-40.4	-42.5	17.3	0.00e+00	0	40	0	0	51	4825
2026-01-25 01:09:20.82	243.50	9.19	-40.4	-42.5	17.3	0.00e+00	0	40	0	0	51	4826
2026-01-25 01:09:21.81	243.42	9.12	-40.5	-42.6	17.1	0.00e+00	0	40	0	0	51	4904
2026-01-25 01:09:22.81	243.33	9.05	-40.5	-42.6	17.1	0.00e+00	0	40	0	0	51	4890
2026-01-25 01:09:23.80	243.25	8.97	-46.9	-53.7	7.0	3.28e-05	0	40	0	0	64	8303
2026-01-25 01:09:24.79	243.17	8.90	-48.3	-61.2	3.8	1.49e+00	0	40	104	0	67	16692
2026-01-25 01:09:25.79	243.08	8.83	-48.4	-61.5	3.8	1.49e+00	0	40	104	0	67	17143
2026-01-25 01:09:26.78	243.00	8.75	-48.6	-61.6	3.8	1.49e+00	0	40	104	0	67	17284
2026-01-25 01:09:27.77	242.92	8.68	-48.5	-61.6	3.8	1.49e+00	0	40	104	0	67	17469
2026-01-25 01:09:28.77	242.84	8.61	-48.8	-61.9	3.8	1.49e+00	0	40	104	0	68	17012
2026-01-25 01:09:29.76	242.76	8.54	-48.9	-62.0	3.8	1.49e+00	0	40	104	0	68	17096
2026-01-25 01:09:30.75	242.68	8.47	-48.7	-62.0	3.8	1.49e+00	0	40	104	0	68	17191
2026-01-25 01:09:31.74	242.60	8.40	-49.0	-62.0	3.8	1.49e+00	0	40	104	0	68	17191
2026-01-25 01:09:32.74	242.51	8.32	-49.0	-62.0	3.8	1.49e+00	0	40	104	0	68	17206
2026-01-25 01:09:33.73	242.44	8.25	-49.0	-62.1	3.8	1.49e+00	0	40	104	0	68	17296
2026-01-25 01:09:34.72	242.36	8.18	-49.0	-62.1	3.8	1.49e+00	0	40	104	0	68	17284
2026-01-25 01:09:35.72	242.28	8.11	-48.9	-62.1	3.8	1.49e+00	0	40	104	0	68	17378
2026-01-25 01:09:36.71	242.20	8.04	-48.8	-62.1	3.8	1.49e+00	0	40	104	0	68	17354
2026-01-25 01:09:37.70	242.12	7.97	-48.9	-62.1	3.8	1.49e+00	0	40	104	0	68	17307
2026-01-25 01:09:38.70	242.04	7.90	-48.8	-62.1	3.8	1.49e+00	0	40	104	0	68	17403
2026-01-25 01:09:39.69	241.97	7.83	-48.9	-62.1	3.8	1.49e+00	0	40	104	0	68	17307
2026-01-25 01:09:40.68	241.89	7.76	-49.0	-62.1	3.8	1.49e+00	0	40	104	0	68	17332
2026-01-25 01:09:41.68	241.81	7.69	-48.9	-62.1	3.8	1.49e+00	0	40	104	0	68	17360
2026-01-25 01:09:42.67	241.74	7.62	-48.9	-62.0	3.8	1.49e+00	0	40	104	0	68	17281
2026-01-25 01:09:43.66	241.66	7.55	-48.9	-62.0	3.8	1.49e+00	0	40	104	0	68	17252
2026-01-25 01:09:44.66	241.59	7.48	-48.8	-62.0	3.8	1.49e+00	0	40	104	0	68	17275
2026-01-25 01:09:45.65	241.51	7.41	-48.8	-62.0	3.8	1.49e+00	0	40	104	0	68	17162
2026-01-25 01:09:46.64	241.44	7.34	-48.8	-62.0	3.8	1.49e+00	0	40	104	0	68	17124
2026-01-25 01:09:47.63	241.36	7.27	-48.8	-62.0	3.8	1.49e+00	0	40	104	0	68	17125
2026-01-25 01:09:48.63	241.29	7.20	-48.8	-61.9	3.8	1.49e+00	0	40	104	0	68	17064
2026-01-25 01:09:49.62	241.21	7.13	-48.7	-61.9	3.8	1.49e+00	0	40	104	0	68	17024
2026-01-25 01:09:50.61	241.14	7.06	-48.7	-62.0	3.8	1.49e+00	0	40	104	0	68	17089
2026-01-25 01:09:51.61	241.07	6.99	-48.7	-61.9	3.8	1.49e+00	0	40	104	0	68	17066
2026-01-25 01:09:52.60	241.00	6.92	-48.7	-61.9	3.8	1.49e+00	0	40	104	0	68	17035
2026-01-25 01:09:53.59	240.92	6.86	-48.7	-61.9	3.8	1.49e+00	0	40	104	0	68	17069
2026-01-25 01:09:54.59	240.85	6.79	-48.7	-61.9	3.8	1.49e+00	0	40	104	0	68	17032
2026-01-25 01:09:55.58	240.78	6.72	-48.7	-61.9	3.8	1.49e+00	0	40	104	0	68	17012
2026-01-25 01:09:56.57	240.71	6.65	-48.7	-61.9	3.8	1.49e+00	0	40	104	0	68	17034
2026-01-25 01:09:57.56	240.64	6.58	-48.7	-61.9	3.8	1.49e+00	0	40	104	0	68	17034
2026-01-25 01:09:58.56	240.57	6.52	-48.7	-61.9	3.8	1.49e+00	0	40	104	0	68	17028
2026-01-25 01:09:59.55	240.50	6.45	-48.7	-61.9	3.8	1.49e+00	0	40	104	0	68	17034
2026-01-25 01:10:00.54	240.43	6.38	-48.7	-61.9	3.8	1.49e+00	0	40	104	0	68	17057
2026-01-25 01:10:01.54	240.36	6.31	-48.7	-61.9	3.8	1.49e+00	0	40	104	0	68	17034
2026-01-25 01:10:02.53	240.29	6.25	-48.7	-61.9	3.8	1.49e+00	0	40	104	0	68	16996
2026-01-25 01:10:03.52	240.22	6.18	-48.7	-61.9	3.8	1.49e+00	0	40	104	0	68	17063
2026-01-25 01:10:04.52	240.15	6.11	-48.7	-61.9	3.8	1.49e+00	0	40	104	0	68	17044
2026-01-25 01:10:05.51	240.09	6.04	-48.7	-61.9	3.8	1.49e+00	0	40	104	0	68	17028
2026-01-25 01:10:06.50	240.02	5.98	-48.7	-61.9	3.8	1.49e+00	0	40	104	0	68	17023
2026-01-25 01:10:07.50	239.95	5.91	-48.7	-61.9	3.8	1.49e+00	0	40	104	0	68	17049
2026-01-25 01:10:08.49	239.88	5.85	-48.7	-61.9	3.8	1.49e+00	0	40	104	0	68	17022
2026-01-25 01:10:09.48	239.82	5.78	-48.7	-61.9	3.8	1.49e+00	0	40	104	0	68	17050
2026-01-25 01:10:10.47	239.75	5.71	-48.7	-61.9	3.8	1.49e+00	0	40	104	0	68	17023
2026-01-25 01:10:11.47	239.68	5.65	-48.7	-61.9	3.8	1.49e+00	0	40	104	0	68	16985
2026-01-25 01:10:12.46	239.62	5.58	-48.7	-61.9	3.8	1.49e+00	0	40	104	0	68	17042
2026-01-25 01:10:13.45	239.55	5.52	-48.7	-61.9	3.8	1.49e+00	0	40	104	0	68	17059
2026-01-25 01:10:14.45	239.49	5.45	-48.7	-61.9	3.8	1.49e+00	0	40	104	0	68	16985
2026-01-25 01:10:15.44	239.42	5.38	-48.7	-61.9	3.8	1.49e+00	0	40	104	0	68	16970
2026-01-25 01:10:16.43	239.36	5.32	-48.7	-61.9	3.8	1.49e+00	0	40	104	0	68	17046
2026-01-25 01:10:17.42	239.29	5.25	-48.7	-61.9	3.8	1.49e+00	0	40	104	0	68	17015
2026-01-25 01:10:18.42	239.23	5.19	-48.7	-61.9	3.8	1.49e+00	0	40	104	0	68	17020
2026-01-25 01:10:19.41	239.17	5.12	-48.7	-61.9	3.8	1.49e+00	0	40	104	0	68	16907
2026-01-25 01:10:20.40	239.10	5.06	-48.7	-61.9	3.8	1.49e+00	0	40	104	0	68	16971
2026-01-25 01:10:21.39	239.04	4.99	-48.7	-61.9	3.8	1.49e+00	0	40	104	0	68	17016

#Closed at: 2026-01-25 01:10:22
#Recorded file [0 MB]: D:/Data/31040_260125_035841.dat