passes_logs/2026/01/25/T1/T1__20260125_090905_NOAA_21_JPSS-2_rec.log

#Pass ID: 20260125_090905_NOAA 21 (JPSS-2)
#Satellite: NOAA 21 (JPSS-2)
#Configuration: NOAA 21
#almurnet v.1.7.20251203
#Start time: 2026-01-25 09:09:06

#Version: 2.0.20230620
#Station: T1
#Location: 37.570604 lon 55.790049 lat
#TLE: 1 54234U 22150A   26024.45772595  .00000201  00000+0  11607-3 0  9996
#TLE: 2 54234  98.7508 325.2435 0000728 220.7365 139.3757 14.19538765166156

#Time	Az	El	Level	Level2	SNR	BER	BlckErr	Temp	State	Recorded	gain1	gain2
2026-01-25 09:09:06.74	135.93	5.06	-48.0	-61.1	3.8	1.49e+00	0	35	0	0	68	15408
2026-01-25 09:09:07.73	135.89	5.13	-48.0	-61.1	3.8	1.49e+00	0	35	104	0	68	15407
2026-01-25 09:09:08.73	135.85	5.20	-48.0	-61.0	3.8	1.49e+00	0	35	104	0	68	15316
2026-01-25 09:09:09.72	135.81	5.26	-48.0	-61.0	3.8	1.49e+00	0	36	104	0	68	15232
2026-01-25 09:09:10.71	135.77	5.33	-48.0	-60.9	3.8	1.49e+00	0	36	104	0	68	15170
2026-01-25 09:09:11.71	135.73	5.40	-48.0	-60.9	3.8	1.49e+00	0	35	104	0	68	15106
2026-01-25 09:09:12.70	135.68	5.47	-48.0	-60.9	3.8	1.49e+00	0	35	104	0	68	15060
2026-01-25 09:09:13.69	135.64	5.54	-47.8	-60.6	3.8	1.49e+00	0	36	104	0	67	15522
2026-01-25 09:09:14.69	135.60	5.61	-47.8	-60.5	3.8	1.49e+00	0	36	104	0	67	15396
2026-01-25 09:09:15.68	135.56	5.68	-47.8	-60.5	3.8	1.49e+00	0	36	104	0	67	15276
2026-01-25 09:09:16.67	135.52	5.75	-47.8	-60.3	3.8	1.49e+00	0	36	104	0	67	14994
2026-01-25 09:09:17.67	135.48	5.83	-47.8	-60.2	3.8	1.49e+00	0	36	104	0	67	14864
2026-01-25 09:09:18.66	135.44	5.90	-47.8	-60.1	3.8	1.49e+00	0	36	104	0	67	14612
2026-01-25 09:09:19.65	135.39	5.97	-47.7	-60.0	3.8	1.49e+00	0	36	104	0	67	14389
2026-01-25 09:09:20.65	135.35	6.04	-47.7	-59.8	3.8	1.49e+00	0	36	104	0	67	14139
2026-01-25 09:09:21.64	135.31	6.11	-47.7	-59.8	3.8	1.49e+00	0	36	104	0	67	14137
2026-01-25 09:09:22.63	135.27	6.18	-47.7	-59.7	3.8	1.49e+00	0	36	104	0	67	14017
2026-01-25 09:09:23.63	135.22	6.25	-47.7	-59.7	3.8	1.49e+00	0	36	104	0	67	14042
2026-01-25 09:09:24.62	135.18	6.33	-47.7	-59.9	3.8	1.49e+00	0	36	104	0	67	14271
2026-01-25 09:09:25.62	135.13	6.40	-47.7	-60.1	3.8	1.49e+00	0	36	104	0	67	14568
2026-01-25 09:09:26.61	135.09	6.47	-47.8	-60.3	3.8	1.49e+00	0	36	104	0	67	15012
2026-01-25 09:09:27.60	135.05	6.54	-47.8	-60.6	3.8	1.49e+00	0	36	104	0	67	15472
2026-01-25 09:09:28.60	135.00	6.62	-47.8	-60.8	3.8	1.49e+00	0	36	104	0	67	15795
2026-01-25 09:09:29.59	134.96	6.69	-47.8	-60.9	3.8	1.49e+00	0	36	104	0	67	16009
2026-01-25 09:09:30.58	134.91	6.76	-47.8	-60.8	3.8	1.49e+00	0	36	104	0	67	15767
2026-01-25 09:09:31.58	134.87	6.84	-47.8	-60.4	3.8	1.49e+00	0	36	104	0	67	15191
2026-01-25 09:09:32.57	134.82	6.91	-47.7	-59.9	3.8	1.49e+00	0	36	104	0	67	14272
2026-01-25 09:09:33.56	134.78	6.98	-47.7	-59.3	3.8	1.49e+00	0	36	104	0	67	13402
2026-01-25 09:09:34.56	134.73	7.06	-47.6	-58.8	3.8	1.49e+00	0	36	104	0	67	12594
2026-01-25 09:09:35.55	134.69	7.13	-47.5	-57.9	4.1	1.48e+00	0	36	104	0	67	11387
2026-01-25 09:09:36.54	134.64	7.20	-47.5	-57.9	3.9	1.48e+00	0	36	104	0	66	11957
2026-01-25 09:09:37.54	134.59	7.28	-47.4	-57.3	4.0	1.46e+00	0	36	104	0	66	11219
2026-01-25 09:09:38.53	134.55	7.35	-47.2	-55.8	4.7	1.19e+00	0	36	104	0	66	9467
2026-01-25 09:09:39.53	134.50	7.43	-46.9	-54.4	5.5	5.36e-01	0	36	0	0	65	8466
2026-01-25 09:09:40.52	134.45	7.50	-46.4	-52.6	6.9	1.98e-01	0	36	0	0	64	7368
2026-01-25 09:09:41.51	134.40	7.58	-46.0	-51.1	8.4	7.87e-02	0	36	0	0	63	6561
2026-01-25 09:09:42.51	134.36	7.65	-45.2	-49.5	10.2	1.25e-02	0	36	0	0	62	5728
2026-01-25 09:09:43.50	134.31	7.73	-44.4	-48.0	11.7	1.19e-03	0	36	0	0	60	5430
2026-01-25 09:09:44.49	134.26	7.81	-43.6	-46.7	13.0	6.86e-05	0	37	0	0	59	4943
2026-01-25 09:09:45.49	134.21	7.88	-42.9	-45.6	14.1	9.10e-06	0	36	0	0	57	4906
2026-01-25 09:09:46.48	134.16	7.96	-42.3	-44.9	14.8	0.00e+00	0	37	0	0	56	4772
2026-01-25 09:09:47.48	134.11	8.04	-41.7	-44.1	15.4	0.00e+00	0	36	0	0	55	4631
2026-01-25 09:09:48.47	134.06	8.11	-41.3	-43.7	15.9	0.00e+00	0	37	0	0	54	4652
2026-01-25 09:09:49.46	134.01	8.19	-41.1	-43.4	16.1	0.00e+00	0	37	0	0	54	4521
2026-01-25 09:09:50.46	133.96	8.27	-41.1	-43.3	16.2	0.00e+00	0	37	0	0	54	4488
2026-01-25 09:09:51.45	133.91	8.34	-41.3	-43.5	16.0	0.00e+00	0	37	0	0	54	4597
2026-01-25 09:09:52.44	133.86	8.42	-41.6	-44.0	15.6	0.00e+00	0	37	0	0	54	4825
2026-01-25 09:09:53.44	133.81	8.50	-42.0	-44.5	15.1	0.00e+00	0	37	0	0	54	5131
2026-01-25 09:09:54.43	133.76	8.58	-42.6	-45.3	14.3	0.00e+00	0	37	0	0	55	5292
2026-01-25 09:09:55.42	133.71	8.65	-43.4	-46.4	13.3	9.10e-06	0	37	0	0	57	5351
2026-01-25 09:09:56.42	133.66	8.73	-44.2	-47.6	12.1	1.04e-04	0	36	0	0	58	5806
2026-01-25 09:09:57.41	133.61	8.81	-45.0	-49.1	10.6	1.86e-03	0	37	0	0	60	6162
2026-01-25 09:09:58.41	133.56	8.89	-45.8	-50.7	8.9	1.85e-02	0	37	0	0	62	6644
2026-01-25 09:09:59.40	133.50	8.97	-46.5	-52.6	7.1	1.20e-01	0	37	0	0	63	7768
2026-01-25 09:10:00.39	133.45	9.05	-46.7	-53.4	6.2	3.29e-01	0	37	0	0	64	8074
2026-01-25 09:10:01.39	133.40	9.13	-46.5	-52.8	6.9	8.57e-02	0	37	0	0	64	7465
2026-01-25 09:10:02.38	133.34	9.21	-47.0	-54.4	5.5	6.83e-01	0	37	0	0	65	8534
2026-01-25 09:10:03.46	133.29	9.30	-45.4	-49.9	9.6	4.34e-01	0	37	0	0	63	5715
2026-01-25 09:10:04.31	133.24	9.36	-45.4	-50.0	9.9	9.18e-04	0	37	0	0	61	6444
2026-01-25 09:10:05.45	133.18	9.46	-47.4	-57.5	3.9	1.49e+00	0	37	104	0	66	11474
2026-01-25 09:10:06.30	133.13	9.53	-44.7	-48.5	11.4	1.18e-03	0	37	0	0	61	5461
2026-01-25 09:10:07.44	133.07	9.62	-44.3	-47.9	11.9	6.64e-04	0	37	0	0	60	5384
2026-01-25 09:10:08.29	133.02	9.69	-44.4	-48.1	11.7	4.42e-04	0	37	0	0	60	5484
2026-01-25 09:10:09.43	132.96	9.78	-44.3	-47.8	12.1	2.62e-04	0	37	0	0	60	5331
2026-01-25 09:10:10.28	132.91	9.85	-44.4	-47.9	11.9	2.75e-04	0	37	0	0	60	5396
2026-01-25 09:10:11.42	132.84	9.95	-44.4	-47.9	12.0	2.17e-04	0	37	0	0	60	5375
2026-01-25 09:10:12.27	132.79	10.02	-44.3	-47.9	12.0	2.05e-04	0	37	0	0	60	5345
2026-01-25 09:10:13.47	132.73	10.12	-44.2	-47.5	12.3	1.69e-04	0	37	0	0	59	5445
2026-01-25 09:10:14.33	132.68	10.19	-43.8	-46.9	13.0	3.66e-05	0	37	0	0	59	5059
2026-01-25 09:10:15.46	132.61	10.28	-43.4	-46.3	13.6	1.90e-05	0	37	0	0	58	5033
2026-01-25 09:10:16.32	132.56	10.35	-43.5	-46.4	13.5	5.30e-06	0	37	0	0	58	5092
2026-01-25 09:10:17.45	132.49	10.45	-43.3	-46.2	13.7	1.22e-05	0	37	0	0	58	4937
2026-01-25 09:10:18.30	132.44	10.52	-43.5	-46.3	13.6	8.30e-06	0	37	0	0	58	5029
2026-01-25 09:10:19.44	132.38	10.62	-43.0	-45.8	14.2	0.00e+00	0	37	0	0	58	4717
2026-01-25 09:10:20.29	132.33	10.69	-42.6	-45.2	14.7	0.00e+00	0	37	0	0	57	4695
2026-01-25 09:10:21.43	132.26	10.79	-42.0	-44.3	15.6	0.00e+00	0	37	0	0	56	4483
2026-01-25 09:10:22.28	132.21	10.86	-41.3	-43.6	16.2	0.00e+00	0	37	0	0	54	4612
2026-01-25 09:10:23.42	132.14	10.96	-41.1	-43.3	16.5	0.00e+00	0	37	0	0	54	4454
2026-01-25 09:10:24.28	132.08	11.03	-40.6	-42.7	17.0	0.00e+00	0	37	0	0	53	4405
2026-01-25 09:10:25.41	132.01	11.13	-40.2	-42.2	17.5	0.00e+00	0	37	0	0	52	4407
2026-01-25 09:10:26.26	131.96	11.20	-40.0	-42.0	17.7	0.00e+00	0	37	0	0	52	4319
2026-01-25 09:10:27.40	131.89	11.30	-39.8	-41.7	18.1	0.00e+00	0	37	0	0	51	4412
2026-01-25 09:10:28.25	131.84	11.37	-39.7	-41.7	18.1	0.00e+00	0	37	0	0	51	4406
2026-01-25 09:10:29.39	131.77	11.47	-39.4	-41.3	18.4	0.00e+00	0	37	0	0	50	4459
2026-01-25 09:10:30.24	131.71	11.55	-39.2	-41.0	18.7	0.00e+00	0	37	0	0	50	4339
2026-01-25 09:10:31.49	131.63	11.66	-39.1	-41.0	18.7	0.00e+00	0	37	0	0	50	4305
2026-01-25 09:10:32.34	131.58	11.73	-39.1	-40.9	18.8	0.00e+00	0	37	0	0	50	4278
2026-01-25 09:10:33.48	131.50	11.83	-39.0	-40.8	18.9	0.00e+00	0	37	0	0	50	4216
2026-01-25 09:10:34.35	131.45	11.91	-38.9	-40.7	19.0	0.00e+00	0	37	0	0	49	4433
2026-01-25 09:10:35.48	131.37	12.01	-39.0	-40.8	19.0	0.00e+00	0	37	0	0	49	4458
2026-01-25 09:10:36.40	131.31	12.09	-39.0	-40.8	18.7	0.00e+00	0	37	0	0	49	4493
2026-01-25 09:10:37.40	131.25	12.18	-39.0	-40.8	18.9	0.00e+00	0	37	0	0	49	4493
2026-01-25 09:10:38.39	131.18	12.27	-39.0	-40.8	19.0	0.00e+00	0	37	0	0	49	4477
2026-01-25 09:10:39.39	131.11	12.36	-39.0	-40.8	19.0	0.00e+00	0	37	0	0	49	4464
2026-01-25 09:10:40.38	131.05	12.45	-38.9	-40.7	19.1	0.00e+00	0	37	0	0	49	4402
2026-01-25 09:10:41.38	130.98	12.54	-38.9	-40.7	19.1	0.00e+00	0	37	0	0	49	4402
2026-01-25 09:10:42.37	130.91	12.63	-38.8	-40.6	19.2	0.00e+00	0	37	0	0	49	4368
2026-01-25 09:10:43.37	130.84	12.72	-38.9	-40.6	19.2	0.00e+00	0	37	0	0	49	4389
2026-01-25 09:10:44.36	130.77	12.81	-38.7	-40.5	19.3	0.00e+00	0	37	0	0	49	4314
2026-01-25 09:10:45.36	130.70	12.90	-38.7	-40.5	19.3	0.00e+00	0	38	0	0	49	4313
2026-01-25 09:10:46.35	130.63	13.00	-38.8	-40.6	19.2	0.00e+00	0	37	0	0	49	4347
2026-01-25 09:10:47.35	130.56	13.09	-38.8	-40.5	19.2	0.00e+00	0	38	0	0	49	4340
2026-01-25 09:10:48.34	130.49	13.18	-38.7	-40.5	19.3	0.00e+00	0	38	0	0	49	4294
2026-01-25 09:10:49.43	130.41	13.28	-38.8	-40.6	19.2	0.00e+00	0	37	0	0	49	4343
2026-01-25 09:10:50.31	130.35	13.36	-38.7	-40.4	19.3	0.00e+00	0	38	0	0	49	4289
2026-01-25 09:10:51.62	130.26	13.49	-38.6	-40.4	19.4	0.00e+00	0	38	0	0	49	4245
2026-01-25 09:10:52.34	130.20	13.55	-38.6	-40.3	19.4	0.00e+00	0	38	0	0	49	4222
2026-01-25 09:10:53.61	130.11	13.67	-38.6	-40.4	19.4	0.00e+00	0	37	0	0	49	4252
2026-01-25 09:10:54.33	130.06	13.74	-38.7	-40.5	19.3	0.00e+00	0	37	0	0	49	4303
2026-01-25 09:10:55.61	129.96	13.86	-38.6	-40.4	19.3	0.00e+00	0	37	0	0	49	4253
2026-01-25 09:10:56.32	129.91	13.93	-38.7	-40.5	19.3	0.00e+00	0	37	0	0	49	4293
2026-01-25 09:10:57.60	129.81	14.05	-38.7	-40.5	19.2	0.00e+00	0	37	0	0	49	4311
2026-01-25 09:10:58.31	129.76	14.12	-38.6	-40.3	19.4	0.00e+00	0	38	0	0	49	4233
2026-01-25 09:10:59.59	129.66	14.25	-38.6	-40.4	19.4	0.00e+00	0	37	0	0	49	4246
2026-01-25 09:11:00.30	129.60	14.31	-38.6	-40.4	19.4	0.00e+00	0	38	0	0	49	4259
2026-01-25 09:11:01.59	129.50	14.44	-38.7	-40.5	19.2	0.00e+00	0	38	0	0	49	4332
2026-01-25 09:11:02.46	129.44	14.52	-38.7	-40.5	19.3	0.00e+00	0	38	0	0	49	4314
2026-01-25 09:11:03.60	129.35	14.64	-38.7	-40.5	19.3	0.00e+00	0	38	0	0	49	4332
2026-01-25 09:11:04.64	129.26	14.74	-38.7	-40.5	19.3	0.00e+00	0	37	0	0	49	4296
2026-01-25 09:11:05.60	129.19	14.83	-38.8	-40.6	19.3	0.00e+00	0	38	0	0	49	4343
2026-01-25 09:11:06.59	129.11	14.93	-38.6	-40.4	19.4	0.00e+00	0	38	0	0	49	4258
2026-01-25 09:11:07.59	129.03	15.03	-38.8	-40.5	19.3	0.00e+00	0	38	0	0	49	4337
2026-01-25 09:11:08.59	128.95	15.13	-38.9	-40.7	19.2	0.00e+00	0	38	0	0	49	4408
2026-01-25 09:11:09.93	128.84	15.26	-38.8	-40.6	19.3	0.00e+00	0	38	0	0	49	4344
2026-01-25 09:11:10.67	128.77	15.34	-38.8	-40.6	19.3	0.00e+00	0	38	0	0	49	4346
2026-01-25 09:11:11.95	128.67	15.46	-38.7	-40.4	19.4	0.00e+00	0	38	0	0	49	4289
2026-01-25 09:11:12.66	128.61	15.54	-38.7	-40.4	19.4	0.00e+00	0	37	0	0	49	4290
2026-01-25 09:11:13.94	128.50	15.67	-38.6	-40.4	19.4	0.00e+00	0	37	0	0	49	4266
2026-01-25 09:11:14.66	128.44	15.74	-38.6	-40.3	19.5	0.00e+00	0	38	0	0	49	4228
2026-01-25 09:11:15.94	128.33	15.87	-38.7	-40.4	19.5	0.00e+00	0	38	0	0	49	4272
2026-01-25 09:11:16.66	128.27	15.94	-38.7	-40.4	19.4	0.00e+00	0	37	0	0	49	4285
2026-01-25 09:11:17.94	128.16	16.07	-38.8	-40.5	19.4	0.00e+00	0	38	0	0	49	4324
2026-01-25 09:11:18.66	128.09	16.15	-38.7	-40.4	19.4	0.00e+00	0	38	0	0	49	4274
2026-01-25 09:11:20.01	127.97	16.29	-38.6	-40.3	19.5	0.00e+00	0	38	0	0	49	4227
2026-01-25 09:11:20.73	127.91	16.36	-38.6	-40.3	19.5	0.00e+00	0	37	0	0	49	4242
2026-01-25 09:11:22.00	127.80	16.49	-38.7	-40.4	19.4	0.00e+00	0	37	0	0	49	4275
2026-01-25 09:11:22.72	127.73	16.57	-38.6	-40.4	19.5	0.00e+00	0	38	0	0	49	4252
2026-01-25 09:11:23.99	127.62	16.70	-38.7	-40.5	19.4	0.00e+00	0	37	0	0	49	4308
2026-01-25 09:11:24.71	127.55	16.78	-38.8	-40.6	19.3	0.00e+00	0	38	0	0	49	4359
2026-01-25 09:11:25.99	127.43	16.91	-38.9	-40.7	19.2	0.00e+00	0	38	0	0	49	4408
2026-01-25 09:11:26.70	127.37	16.99	-38.8	-40.6	19.3	0.00e+00	0	38	0	0	49	4355
2026-01-25 09:11:28.26	127.22	17.16	-38.9	-40.7	19.2	0.00e+00	0	38	0	0	49	4409
2026-01-25 09:11:28.97	127.16	17.23	-38.9	-40.7	19.2	0.00e+00	0	38	0	0	49	4404
2026-01-25 09:11:30.25	127.04	17.37	-38.9	-40.7	19.2	0.00e+00	0	38	0	0	49	4412
2026-01-25 09:11:30.96	126.97	17.45	-38.9	-40.6	19.2	0.00e+00	0	38	0	0	49	4385
2026-01-25 09:11:32.24	126.84	17.58	-38.9	-40.7	19.2	0.00e+00	0	38	0	0	49	4402
2026-01-25 09:11:32.95	126.78	17.66	-38.9	-40.6	19.3	0.00e+00	0	38	0	0	49	4387
2026-01-25 09:11:34.23	126.65	17.80	-38.8	-40.6	19.3	0.00e+00	0	38	0	0	49	4369
2026-01-25 09:11:34.94	126.58	17.88	-38.9	-40.6	19.3	0.00e+00	0	38	0	0	49	4385
2026-01-25 09:11:36.22	126.45	18.02	-38.8	-40.6	19.3	0.00e+00	0	38	0	0	49	4358
2026-01-25 09:11:36.93	126.38	18.10	-38.8	-40.5	19.4	0.00e+00	0	38	0	0	49	4336
2026-01-25 09:11:38.21	126.25	18.24	-38.8	-40.6	19.3	0.00e+00	0	38	0	0	49	4355
2026-01-25 09:11:38.92	126.18	18.32	-38.8	-40.6	19.4	0.00e+00	0	38	0	0	49	4341
2026-01-25 09:11:40.20	126.05	18.46	-38.9	-40.7	19.3	0.00e+00	0	38	0	0	49	4395
2026-01-25 09:11:40.93	125.98	18.54	-38.7	-40.5	19.4	0.00e+00	0	38	0	0	49	4319
2026-01-25 09:11:42.20	125.85	18.68	-38.7	-40.4	19.4	0.00e+00	0	38	0	0	49	4283
2026-01-25 09:11:42.93	125.77	18.76	-38.7	-40.5	19.4	0.00e+00	0	38	0	0	49	4292
2026-01-25 09:11:44.21	125.64	18.91	-38.7	-40.4	19.5	0.00e+00	0	38	0	0	49	4272
2026-01-25 09:11:45.20	125.53	19.02	-38.5	-40.3	19.6	0.00e+00	0	38	0	0	49	4217
2026-01-25 09:11:46.20	125.42	19.13	-38.6	-40.4	19.5	0.00e+00	0	38	0	0	49	4245
2026-01-25 09:11:47.19	125.32	19.25	-38.5	-40.2	19.6	0.00e+00	0	38	0	0	49	4183
2026-01-25 09:11:48.19	125.21	19.36	-38.5	-40.2	19.6	0.00e+00	0	38	0	0	49	4190
2026-01-25 09:11:49.18	125.10	19.48	-38.5	-40.2	19.6	0.00e+00	0	38	0	0	49	4183
2026-01-25 09:11:50.18	124.99	19.59	-38.5	-40.3	19.6	0.00e+00	0	37	0	0	49	4194
2026-01-25 09:11:51.17	124.88	19.71	-38.5	-40.2	19.6	0.00e+00	0	38	0	0	48	4420
2026-01-25 09:11:52.17	124.77	19.82	-38.5	-40.2	19.7	0.00e+00	0	38	0	0	48	4435
2026-01-25 09:11:53.19	124.65	19.94	-38.4	-40.2	19.7	0.00e+00	0	38	0	0	48	4399
2026-01-25 09:11:54.19	124.54	20.06	-38.4	-40.1	19.8	0.00e+00	0	38	0	0	48	4372
2026-01-25 09:11:55.25	124.42	20.18	-38.4	-40.1	19.8	0.00e+00	0	38	0	0	48	4364
2026-01-25 09:11:56.16	124.31	20.29	-38.2	-39.9	20.0	0.00e+00	0	38	0	0	48	4268
2026-01-25 09:11:57.16	124.20	20.41	-38.2	-39.9	20.0	0.00e+00	0	38	0	0	48	4288
2026-01-25 09:11:58.15	124.08	20.53	-38.0	-39.7	20.2	0.00e+00	0	38	0	0	48	4156
2026-01-25 09:11:59.15	123.96	20.65	-37.7	-39.4	20.4	0.00e+00	0	38	0	0	47	4254
2026-01-25 09:12:00.15	123.84	20.77	-37.6	-39.3	20.4	0.00e+00	0	38	0	0	47	4218
2026-01-25 09:12:01.14	123.73	20.88	-37.6	-39.2	20.5	0.00e+00	0	38	0	0	47	4191
2026-01-25 09:12:02.44	123.57	21.04	-37.5	-39.2	20.6	0.00e+00	0	38	0	0	47	4148
2026-01-25 09:12:03.18	123.48	21.13	-37.5	-39.2	20.5	0.00e+00	0	38	0	0	47	4168
2026-01-25 09:12:04.46	123.32	21.29	-37.3	-38.9	20.7	0.00e+00	0	38	0	0	46	4278
2026-01-25 09:12:05.17	123.23	21.37	-37.3	-38.9	20.7	0.00e+00	0	38	0	0	46	4270
2026-01-25 09:12:06.46	123.07	21.53	-37.3	-38.9	20.7	0.00e+00	0	38	0	0	46	4269
2026-01-25 09:12:07.16	122.98	21.62	-37.2	-38.8	20.8	0.00e+00	0	38	0	0	46	4211
2026-01-25 09:12:08.46	122.82	21.78	-37.3	-38.9	20.6	0.00e+00	0	38	0	0	46	4276
2026-01-25 09:12:09.17	122.73	21.87	-37.2	-38.9	20.7	0.00e+00	0	38	0	0	46	4253
2026-01-25 09:12:10.48	122.56	22.03	-37.2	-38.8	20.8	0.00e+00	0	38	0	0	46	4205
2026-01-25 09:12:11.19	122.47	22.12	-37.2	-38.9	20.7	0.00e+00	0	38	0	0	46	4262
2026-01-25 09:12:12.47	122.30	22.28	-37.2	-38.8	20.8	0.00e+00	0	38	0	0	46	4227
2026-01-25 09:12:13.19	122.20	22.37	-37.2	-38.9	20.8	0.00e+00	0	38	0	0	46	4244
2026-01-25 09:12:14.57	122.02	22.54	-37.2	-38.8	20.9	0.00e+00	0	38	0	0	46	4210
2026-01-25 09:12:15.28	121.92	22.63	-37.2	-38.8	20.9	0.00e+00	0	38	0	0	46	4216
2026-01-25 09:12:16.63	121.74	22.80	-37.2	-38.8	20.9	0.00e+00	0	38	0	0	46	4239
2026-01-25 09:12:17.34	121.64	22.89	-37.2	-38.8	20.9	0.00e+00	0	38	0	0	46	4213
2026-01-25 09:12:18.62	121.47	23.06	-37.0	-38.6	21.0	0.00e+00	0	38	0	0	46	4131
2026-01-25 09:12:19.66	121.32	23.19	-37.1	-38.8	20.9	0.00e+00	0	38	0	0	46	4200
2026-01-25 09:12:20.92	121.14	23.35	-37.1	-38.7	20.9	0.00e+00	0	38	0	0	46	4169
2026-01-25 09:12:21.70	121.03	23.45	-37.1	-38.7	20.9	0.00e+00	0	38	0	0	46	4182
2026-01-25 09:12:22.98	120.85	23.62	-37.0	-38.7	21.0	0.00e+00	0	38	0	0	46	4153
2026-01-25 09:12:23.69	120.75	23.71	-37.0	-38.6	21.0	0.00e+00	0	38	0	0	46	4135
2026-01-25 09:12:24.97	120.56	23.88	-37.0	-38.6	21.0	0.00e+00	0	38	0	0	45	4350
2026-01-25 09:12:25.68	120.46	23.97	-37.0	-38.6	21.1	0.00e+00	0	38	0	0	45	4343
2026-01-25 09:12:26.96	120.27	24.14	-36.9	-38.5	21.0	0.00e+00	0	38	0	0	45	4336
2026-01-25 09:12:27.69	120.16	24.24	-37.0	-38.6	20.9	0.00e+00	0	38	0	0	45	4378
2026-01-25 09:12:29.01	119.96	24.41	-37.1	-38.7	20.9	0.00e+00	0	38	0	0	45	4418
2026-01-25 09:12:29.72	119.85	24.51	-37.1	-38.7	20.9	0.00e+00	0	38	0	0	45	4428
2026-01-25 09:12:31.06	119.65	24.69	-37.1	-38.7	20.8	0.00e+00	0	38	0	0	45	4441
2026-01-25 09:12:31.77	119.54	24.78	-37.2	-38.8	20.8	0.00e+00	0	38	0	0	45	4464
2026-01-25 09:12:33.12	119.32	24.96	-37.3	-38.9	20.7	0.00e+00	0	38	0	0	45	4540
2026-01-25 09:12:33.83	119.21	25.06	-37.3	-38.9	20.7	0.00e+00	0	38	0	0	45	4544
2026-01-25 09:12:35.11	119.01	25.23	-37.4	-39.0	20.6	0.00e+00	0	38	0	0	45	4585
2026-01-25 09:12:35.85	118.89	25.33	-37.4	-39.1	20.6	0.00e+00	0	38	0	0	45	4620
2026-01-25 09:12:37.22	118.67	25.52	-37.6	-39.3	20.4	0.00e+00	0	38	0	0	45	4730
2026-01-25 09:12:37.93	118.55	25.62	-37.6	-39.3	20.4	0.00e+00	0	38	0	0	45	4720
2026-01-25 09:12:39.21	118.34	25.79	-37.8	-39.4	20.3	0.00e+00	0	38	0	0	46	4540
2026-01-25 09:12:39.92	118.23	25.89	-37.9	-39.5	20.2	0.00e+00	0	38	0	0	46	4597
2026-01-25 09:12:41.20	118.01	26.07	-37.9	-39.6	20.2	0.00e+00	0	38	0	0	46	4635
2026-01-25 09:12:41.93	117.89	26.17	-38.0	-39.7	20.1	0.00e+00	0	38	0	0	46	4671
2026-01-25 09:12:43.21	117.67	26.35	-38.0	-39.7	20.1	0.00e+00	0	38	0	0	46	4662
2026-01-25 09:12:43.93	117.55	26.45	-38.0	-39.6	20.1	0.00e+00	0	38	0	0	46	4647
2026-01-25 09:12:45.21	117.32	26.63	-38.1	-39.9	19.9	0.00e+00	0	38	0	0	46	4765
2026-01-25 09:12:45.94	117.20	26.73	-38.2	-39.9	19.8	0.00e+00	0	38	0	0	47	4524
2026-01-25 09:12:47.22	116.97	26.91	-38.4	-40.1	19.6	0.00e+00	0	38	0	0	47	4641
2026-01-25 09:12:48.01	116.83	27.02	-38.5	-40.3	19.5	0.00e+00	0	38	0	0	47	4716
2026-01-25 09:12:49.19	116.62	27.19	-38.7	-40.4	19.6	0.00e+00	0	38	0	0	48	4531
2026-01-25 09:12:50.05	116.46	27.31	-38.7	-40.4	19.7	0.00e+00	0	38	0	0	48	4517
2026-01-25 09:12:51.18	116.25	27.47	-38.7	-40.4	19.6	0.00e+00	0	38	0	0	48	4535
2026-01-25 09:12:52.03	116.10	27.59	-38.7	-40.5	19.6	0.00e+00	0	38	0	0	48	4548
2026-01-25 09:12:53.18	115.88	27.76	-38.6	-40.4	19.7	0.00e+00	0	38	0	0	48	4503
2026-01-25 09:12:54.03	115.72	27.88	-38.4	-40.1	19.9	0.00e+00	0	38	0	0	48	4372
2026-01-25 09:12:55.17	115.50	28.04	-38.3	-40.0	19.9	0.00e+00	0	38	0	0	48	4332
2026-01-25 09:12:56.34	115.28	28.21	-38.3	-40.0	20.0	0.00e+00	0	38	0	0	48	4324
2026-01-25 09:12:57.19	115.12	28.33	-38.3	-40.0	20.0	0.00e+00	0	38	0	0	48	4318
2026-01-25 09:12:58.32	114.89	28.50	-38.5	-40.2	19.8	0.00e+00	0	38	0	0	48	4436
2026-01-25 09:12:59.17	114.73	28.62	-38.5	-40.2	19.7	0.00e+00	0	38	0	0	48	4436
2026-01-25 09:13:00.31	114.50	28.79	-38.7	-40.4	19.5	0.00e+00	0	38	0	0	48	4539
2026-01-25 09:13:01.17	114.33	28.91	-38.7	-40.4	19.6	0.00e+00	0	38	0	0	48	4530
2026-01-25 09:13:02.30	114.10	29.08	-38.7	-40.4	19.5	0.00e+00	0	38	0	0	48	4544
2026-01-25 09:13:03.16	113.92	29.21	-38.4	-40.2	19.8	0.00e+00	0	38	0	0	48	4407
2026-01-25 09:13:04.29	113.69	29.37	-38.4	-40.1	19.9	0.00e+00	0	38	0	0	48	4352
2026-01-25 09:13:05.15	113.51	29.50	-38.3	-40.0	20.0	0.00e+00	0	38	0	0	48	4340
2026-01-25 09:13:06.28	113.27	29.67	-38.2	-39.9	20.1	0.00e+00	0	38	0	0	48	4285
2026-01-25 09:13:07.14	113.09	29.79	-38.2	-39.8	20.2	0.00e+00	0	38	0	0	48	4238
2026-01-25 09:13:08.27	112.85	29.96	-38.3	-40.0	20.0	0.00e+00	0	38	0	0	48	4311
2026-01-25 09:13:09.13	112.66	30.09	-38.3	-40.1	20.0	0.00e+00	0	38	0	0	48	4341
2026-01-25 09:13:10.26	112.41	30.26	-38.4	-40.1	19.9	0.00e+00	0	38	0	0	48	4367
2026-01-25 09:13:11.21	112.21	30.40	-38.4	-40.1	19.9	0.00e+00	0	38	0	0	48	4380
2026-01-25 09:13:12.38	111.95	30.58	-38.4	-40.2	19.9	0.00e+00	0	38	0	0	48	4395
2026-01-25 09:13:13.23	111.75	30.71	-38.2	-39.9	20.1	0.00e+00	0	38	0	0	48	4275
2026-01-25 09:13:14.59	111.45	30.91	-38.0	-39.7	20.3	0.00e+00	0	38	0	0	48	4178
2026-01-25 09:13:15.30	111.28	31.02	-38.1	-39.7	20.3	0.00e+00	0	38	0	0	48	4187
2026-01-25 09:13:16.58	110.99	31.21	-38.0	-39.7	20.4	0.00e+00	0	38	0	0	48	4150
2026-01-25 09:13:17.31	110.82	31.32	-38.1	-39.8	20.3	0.00e+00	0	38	0	0	48	4208
2026-01-25 09:13:18.59	110.51	31.52	-38.0	-39.7	20.3	0.00e+00	0	38	0	0	48	4158
2026-01-25 09:13:19.31	110.34	31.62	-38.1	-39.7	20.2	0.00e+00	0	38	0	0	48	4185
2026-01-25 09:13:20.59	110.04	31.82	-38.2	-39.9	20.0	0.00e+00	0	38	0	0	48	4252
2026-01-25 09:13:21.30	109.86	31.93	-38.2	-39.8	20.1	0.00e+00	0	38	0	0	48	4236
2026-01-25 09:13:22.58	109.55	32.12	-38.0	-39.7	20.2	0.00e+00	0	38	0	0	48	4166
2026-01-25 09:13:23.30	109.37	32.23	-38.2	-39.8	20.2	0.00e+00	0	38	0	0	48	4236
2026-01-25 09:13:24.58	109.05	32.43	-38.0	-39.7	20.3	0.00e+00	0	38	0	0	48	4178
2026-01-25 09:13:25.29	108.87	32.54	-38.1	-39.8	20.3	0.00e+00	0	38	0	0	48	4197
2026-01-25 09:13:26.57	108.55	32.73	-38.2	-39.9	20.1	0.00e+00	0	38	0	0	48	4279
2026-01-25 09:13:27.30	108.36	32.84	-38.3	-40.0	20.0	0.00e+00	0	38	0	0	48	4311
2026-01-25 09:13:28.64	108.01	33.05	-38.4	-40.1	19.9	0.00e+00	0	38	0	0	48	4371
2026-01-25 09:13:29.35	107.83	33.16	-38.4	-40.1	19.9	0.00e+00	0	38	0	0	48	4366
2026-01-25 09:13:30.63	107.49	33.36	-38.5	-40.2	19.8	0.00e+00	0	38	0	0	48	4403
2026-01-25 09:13:31.69	107.21	33.52	-38.5	-40.3	19.7	0.00e+00	0	38	0	0	48	4445
2026-01-25 09:13:32.59	106.96	33.66	-38.6	-40.3	19.7	0.00e+00	0	38	0	0	48	4462
2026-01-25 09:13:34.13	106.54	33.89	-38.8	-40.6	19.5	0.00e+00	0	38	0	0	48	4599
2026-01-25 09:13:34.84	106.35	34.00	-39.0	-40.7	19.4	0.00e+00	0	38	0	0	48	4699
2026-01-25 09:13:36.12	105.99	34.20	-39.2	-41.0	19.2	0.00e+00	0	38	0	0	49	4552
2026-01-25 09:13:36.83	105.79	34.31	-39.2	-41.0	19.1	0.00e+00	0	38	0	0	49	4585
2026-01-25 09:13:38.11	105.43	34.50	-39.6	-41.4	18.7	0.00e+00	0	38	0	0	49	4785
2026-01-25 09:13:38.89	105.20	34.62	-39.5	-41.3	18.8	0.00e+00	0	38	0	0	49	4730
2026-01-25 09:13:40.17	104.83	34.82	-39.5	-41.3	18.8	0.00e+00	0	39	0	0	49	4759
2026-01-25 09:13:40.88	104.63	34.93	-39.5	-41.4	18.8	0.00e+00	0	38	0	0	49	4762
2026-01-25 09:13:42.16	104.25	35.13	-39.6	-41.4	18.7	0.00e+00	0	38	0	0	50	4542
2026-01-25 09:13:42.87	104.04	35.23	-39.7	-41.6	18.6	0.00e+00	0	38	0	0	50	4618
2026-01-25 09:13:44.15	103.65	35.43	-39.8	-41.6	18.7	0.00e+00	0	38	0	0	50	4637
2026-01-25 09:13:44.88	103.43	35.54	-39.7	-41.5	18.7	0.00e+00	0	38	0	0	50	4578
2026-01-25 09:13:46.27	103.01	35.75	-39.8	-41.6	18.6	0.00e+00	0	38	0	0	50	4650
2026-01-25 09:13:46.98	102.79	35.86	-39.7	-41.6	18.7	0.00e+00	0	38	0	0	50	4630
2026-01-25 09:13:48.26	102.39	36.06	-40.0	-41.9	18.4	0.00e+00	0	39	0	0	50	4780
2026-01-25 09:13:48.97	102.16	36.17	-40.0	-42.0	18.3	0.00e+00	0	38	0	0	50	4815
2026-01-25 09:13:50.25	101.76	36.36	-40.0	-41.9	18.4	0.00e+00	0	38	0	0	50	4776
2026-01-25 09:13:50.98	101.52	36.47	-40.1	-42.0	18.3	0.00e+00	0	38	0	0	50	4844
2026-01-25 09:13:52.26	101.11	36.66	-40.1	-42.0	18.3	0.00e+00	0	38	0	0	50	4825
2026-01-25 09:13:52.97	100.88	36.77	-39.9	-41.8	18.5	0.00e+00	0	38	0	0	50	4729
2026-01-25 09:13:54.25	100.45	36.96	-39.9	-41.8	18.5	0.00e+00	0	38	0	0	50	4738
2026-01-25 09:13:54.96	100.22	37.07	-40.0	-41.9	18.4	0.00e+00	0	38	0	0	50	4811
2026-01-25 09:13:56.24	99.79	37.26	-40.0	-42.0	18.4	0.00e+00	0	39	0	0	50	4823
2026-01-25 09:13:56.96	99.54	37.37	-40.0	-41.9	18.4	0.00e+00	0	39	0	0	50	4792
2026-01-25 09:13:58.24	99.10	37.56	-39.8	-41.6	18.6	0.00e+00	0	38	0	0	50	4644
2026-01-25 09:13:58.97	98.85	37.66	-39.6	-41.4	18.8	0.00e+00	0	38	0	0	50	4545
2026-01-25 09:14:00.25	98.41	37.85	-39.7	-41.5	18.7	0.00e+00	0	38	0	0	50	4567
2026-01-25 09:14:00.98	98.15	37.96	-39.7	-41.6	18.6	0.00e+00	0	38	0	0	50	4607
2026-01-25 09:14:02.25	97.70	38.15	-39.8	-41.7	18.5	0.00e+00	0	38	0	0	50	4678
2026-01-25 09:14:02.98	97.44	38.25	-40.0	-41.9	18.3	0.00e+00	0	38	0	0	50	4779
2026-01-25 09:14:04.26	96.97	38.44	-40.0	-41.9	18.4	0.00e+00	0	38	0	0	50	4772
2026-01-25 09:14:04.97	96.71	38.54	-40.0	-41.9	18.4	0.00e+00	0	38	0	0	50	4797
2026-01-25 09:14:06.25	96.24	38.72	-40.1	-42.0	18.3	0.00e+00	0	38	0	0	50	4831
2026-01-25 09:14:06.98	95.97	38.83	-40.1	-42.0	18.2	0.00e+00	0	38	0	0	50	4868
2026-01-25 09:14:08.26	95.49	39.01	-40.4	-42.4	17.9	0.00e+00	0	38	0	0	51	4764
2026-01-25 09:14:08.97	95.22	39.11	-40.6	-42.6	17.7	0.00e+00	0	38	0	0	51	4884
2026-01-25 09:14:10.25	94.74	39.29	-40.5	-42.5	17.7	0.00e+00	0	38	0	0	52	4594
2026-01-25 09:14:11.13	94.40	39.41	-40.4	-42.4	17.9	0.00e+00	0	38	0	0	52	4501
2026-01-25 09:14:12.27	93.96	39.57	-40.3	-42.3	17.9	0.00e+00	0	39	0	0	52	4472
2026-01-25 09:14:13.29	93.56	39.71	-40.5	-42.5	17.6	0.00e+00	0	38	0	0	52	4572
2026-01-25 09:14:14.48	93.09	39.87	-40.6	-42.7	17.5	0.00e+00	0	38	0	0	52	4669
2026-01-25 09:14:15.33	92.75	39.99	-40.6	-42.6	17.6	0.00e+00	0	38	0	0	52	4637
2026-01-25 09:14:16.47	92.29	40.14	-40.4	-42.5	17.8	0.00e+00	0	38	0	0	52	4548
2026-01-25 09:14:17.32	91.95	40.25	-40.3	-42.2	18.0	0.00e+00	0	38	0	0	52	4432
2026-01-25 09:14:18.46	91.48	40.40	-40.2	-42.1	18.1	0.00e+00	0	38	0	0	52	4386
2026-01-25 09:14:19.31	91.13	40.51	-40.2	-42.1	18.0	0.00e+00	0	38	0	0	52	4353
2026-01-25 09:14:20.45	90.66	40.66	-40.1	-42.0	18.1	0.00e+00	0	38	0	0	51	4595
2026-01-25 09:14:21.30	90.30	40.77	-40.3	-42.2	17.9	0.00e+00	0	38	0	0	51	4697
2026-01-25 09:14:22.44	89.82	40.91	-40.3	-42.3	17.9	0.00e+00	0	38	0	0	51	4709
2026-01-25 09:14:23.29	89.46	41.02	-40.1	-42.0	18.1	0.00e+00	0	39	0	0	51	4579
2026-01-25 09:14:24.43	88.97	41.16	-40.1	-42.1	18.0	0.00e+00	0	38	0	0	51	4614
2026-01-25 09:14:25.28	88.60	41.26	-40.2	-42.2	17.9	0.00e+00	0	38	0	0	51	4667
2026-01-25 09:14:26.42	88.11	41.40	-40.6	-42.7	17.4	0.00e+00	0	38	0	0	51	4931
2026-01-25 09:14:27.27	87.74	41.50	-40.8	-42.9	17.2	0.00e+00	0	38	0	0	52	4809
2026-01-25 09:14:28.41	87.23	41.64	-41.2	-43.4	16.9	0.00e+00	0	38	0	0	52	5087
2026-01-25 09:14:29.26	86.85	41.74	-40.9	-43.0	17.2	0.00e+00	0	38	0	0	53	4594
2026-01-25 09:14:30.40	86.34	41.87	-40.8	-43.0	17.1	0.00e+00	0	38	0	0	53	4559
2026-01-25 09:14:31.25	85.96	41.97	-40.9	-43.1	17.1	0.00e+00	0	39	0	0	53	4605
2026-01-25 09:14:32.39	85.44	42.09	-41.1	-43.2	17.0	0.00e+00	0	39	0	0	53	4696
2026-01-25 09:14:33.24	85.06	42.19	-41.0	-43.2	17.0	0.00e+00	0	38	0	0	53	4679
2026-01-25 09:14:34.60	84.43	42.33	-41.2	-43.4	16.9	0.00e+00	0	38	0	0	53	4781
2026-01-25 09:14:35.31	84.10	42.41	-41.0	-43.1	17.2	0.00e+00	0	39	0	0	53	4639
2026-01-25 09:14:36.59	83.50	42.54	-40.8	-43.0	17.3	0.00e+00	0	38	0	0	53	4548
2026-01-25 09:14:37.32	83.16	42.62	-40.7	-42.8	17.4	0.00e+00	0	38	0	0	53	4492
2026-01-25 09:14:38.60	82.55	42.75	-40.5	-42.5	17.8	0.00e+00	0	38	0	0	53	4335
2026-01-25 09:14:39.31	82.22	42.82	-40.4	-42.3	17.9	0.00e+00	0	38	0	0	52	4492
2026-01-25 09:14:40.59	81.60	42.94	-40.3	-42.2	18.0	0.00e+00	0	39	0	0	52	4429
2026-01-25 09:14:41.33	81.25	43.01	-40.6	-42.6	17.6	0.00e+00	0	38	0	0	52	4646
2026-01-25 09:14:42.61	80.63	43.13	-40.8	-42.9	17.4	0.00e+00	0	38	0	0	52	4776
2026-01-25 09:14:43.32	80.28	43.19	-40.8	-42.9	17.4	0.00e+00	0	38	0	0	52	4809
2026-01-25 09:14:44.60	79.65	43.31	-41.2	-43.4	17.0	0.00e+00	0	39	0	0	53	4778
2026-01-25 09:14:45.33	79.30	43.37	-41.1	-43.2	17.1	0.00e+00	0	39	0	0	53	4666
2026-01-25 09:14:46.61	78.66	43.48	-40.9	-42.9	17.4	0.00e+00	0	39	0	0	53	4540
2026-01-25 09:14:47.34	78.30	43.54	-41.1	-43.2	17.1	0.00e+00	0	38	0	0	53	4661
2026-01-25 09:14:48.66	77.64	43.64	-41.0	-43.1	17.2	0.00e+00	0	38	0	0	53	4608
2026-01-25 09:14:49.38	77.28	43.70	-41.0	-43.1	17.3	0.00e+00	0	38	0	0	53	4613
2026-01-25 09:14:50.65	76.63	43.79	-40.9	-43.0	17.4	0.00e+00	0	38	0	0	53	4570
2026-01-25 09:14:51.36	76.27	43.84	-40.9	-42.9	17.4	0.00e+00	0	38	0	0	53	4519
2026-01-25 09:14:52.75	75.57	43.94	-41.0	-43.1	17.2	0.00e+00	0	38	0	0	53	4603
2026-01-25 09:14:53.46	75.20	43.99	-41.0	-43.1	17.2	0.00e+00	0	38	0	0	53	4626
2026-01-25 09:14:54.76	74.53	44.07	-40.7	-42.6	17.7	0.00e+00	0	38	0	0	53	4382
2026-01-25 09:14:55.47	74.17	44.12	-40.5	-42.5	17.7	0.00e+00	0	38	0	0	53	4324
2026-01-25 09:14:56.75	73.50	44.19	-40.2	-42.1	18.2	0.00e+00	0	38	0	0	52	4372
2026-01-25 09:14:57.46	73.13	44.24	-39.9	-41.8	18.6	0.00e+00	0	38	0	0	51	4455
2026-01-25 09:14:58.74	72.47	44.31	-40.1	-41.9	18.3	0.00e+00	0	38	0	0	51	4540
2026-01-25 09:14:59.46	72.09	44.34	-40.4	-42.3	18.0	0.00e+00	0	38	0	0	51	4721
2026-01-25 09:15:00.74	71.42	44.41	-40.6	-42.6	17.5	0.00e+00	0	38	0	0	52	4647
2026-01-25 09:15:01.45	71.04	44.44	-40.7	-42.7	17.3	0.00e+00	0	38	0	0	52	4694
2026-01-25 09:15:02.73	70.37	44.50	-40.5	-42.5	17.6	0.00e+00	0	38	0	0	52	4569
2026-01-25 09:15:03.44	69.99	44.53	-40.3	-42.2	18.0	0.00e+00	0	38	0	0	52	4425
2026-01-25 09:15:04.72	69.31	44.58	-40.2	-42.1	18.1	0.00e+00	0	38	0	0	52	4342
2026-01-25 09:15:05.45	68.92	44.60	-40.2	-42.2	18.1	0.00e+00	0	38	0	0	52	4394
2026-01-25 09:15:06.73	68.24	44.65	-40.5	-42.4	17.8	0.00e+00	0	38	0	0	52	4541
2026-01-25 09:15:07.44	67.86	44.67	-40.7	-42.7	17.7	0.00e+00	0	38	0	0	52	4664
2026-01-25 09:15:08.72	67.17	44.70	-40.6	-42.6	17.8	0.00e+00	0	38	0	0	52	4605
2026-01-25 09:15:09.43	66.79	44.72	-40.4	-42.3	18.0	0.00e+00	0	38	0	0	52	4453
2026-01-25 09:15:10.71	66.10	44.75	-40.3	-42.2	18.1	0.00e+00	0	39	0	0	52	4422
2026-01-25 09:15:11.43	65.72	44.76	-40.4	-42.4	18.0	0.00e+00	0	38	0	0	52	4500
2026-01-25 09:15:12.72	65.02	44.79	-40.4	-42.3	18.1	0.00e+00	0	38	0	0	52	4447
2026-01-25 09:15:13.46	64.62	44.80	-40.5	-42.4	17.9	0.00e+00	0	38	0	0	52	4516
2026-01-25 09:15:14.73	63.94	44.81	-40.6	-42.5	17.8	0.00e+00	0	38	0	0	52	4589
2026-01-25 09:15:15.45	63.55	44.82	-40.8	-42.8	17.6	0.00e+00	0	39	0	0	52	4729
2026-01-25 09:15:16.72	62.86	44.82	-40.9	-42.9	17.4	0.00e+00	0	38	0	0	52	4808
2026-01-25 09:15:17.48	62.45	44.83	-40.7	-42.7	17.6	0.00e+00	0	38	0	0	52	4686
2026-01-25 09:15:18.76	61.76	44.83	-40.6	-42.6	17.7	0.00e+00	0	38	0	0	52	4637
2026-01-25 09:15:19.47	61.38	44.82	-40.5	-42.5	17.8	0.00e+00	0	39	0	0	52	4553
2026-01-25 09:15:20.75	60.68	44.82	-40.5	-42.5	17.8	0.00e+00	0	38	0	0	52	4563
2026-01-25 09:15:21.48	60.29	44.81	-40.7	-42.7	17.7	0.00e+00	0	38	0	0	52	4655
2026-01-25 09:15:22.76	59.60	44.79	-41.4	-43.6	16.7	0.00e+00	0	38	0	0	53	4877
2026-01-25 09:15:23.50	59.20	44.78	-41.8	-44.0	16.2	0.00e+00	0	39	0	0	54	4837
2026-01-25 09:15:24.78	58.51	44.76	-42.0	-44.3	16.0	0.00e+00	0	39	0	0	54	4989
2026-01-25 09:15:25.49	58.13	44.75	-41.9	-44.1	16.3	0.00e+00	0	39	0	0	54	4911
2026-01-25 09:15:26.77	57.44	44.72	-41.3	-43.5	16.8	0.00e+00	0	39	0	0	54	4551
2026-01-25 09:15:27.50	57.05	44.70	-41.3	-43.4	16.9	0.00e+00	0	39	0	0	54	4537
2026-01-25 09:15:28.78	56.37	44.66	-41.0	-43.1	17.2	0.00e+00	0	39	0	0	54	4375
2026-01-25 09:15:29.49	55.99	44.64	-41.1	-43.2	17.2	0.00e+00	0	39	0	0	53	4656
2026-01-25 09:15:30.77	55.30	44.60	-40.9	-42.9	17.5	0.00e+00	0	38	0	0	53	4525
2026-01-25 09:15:31.48	54.93	44.57	-40.7	-42.7	17.6	0.00e+00	0	39	0	0	53	4440
2026-01-25 09:15:32.76	54.25	44.52	-41.0	-43.0	17.2	0.00e+00	0	38	0	0	53	4596
2026-01-25 09:15:33.47	53.87	44.49	-41.1	-43.2	17.1	0.00e+00	0	39	0	0	53	4658
2026-01-25 09:15:34.75	53.20	44.43	-41.1	-43.2	17.1	0.00e+00	0	38	0	0	53	4660
2026-01-25 09:15:35.48	52.81	44.40	-40.9	-42.9	17.4	0.00e+00	0	38	0	0	53	4543
2026-01-25 09:15:36.75	52.15	44.34	-40.5	-42.4	18.0	0.00e+00	0	39	0	0	52	4514
2026-01-25 09:15:37.48	51.76	44.30	-40.6	-42.5	17.9	0.00e+00	0	39	0	0	52	4559
2026-01-25 09:15:38.76	51.10	44.23	-41.0	-43.0	17.3	0.00e+00	0	39	0	0	52	4869
2026-01-25 09:15:39.52	50.70	44.18	-41.1	-43.1	17.2	0.00e+00	0	38	0	0	52	4925
2026-01-25 09:15:40.80	50.04	44.11	-40.6	-42.6	17.7	0.00e+00	0	38	0	0	52	4634
2026-01-25 09:15:41.51	49.67	44.06	-40.6	-42.5	17.8	0.00e+00	0	39	0	0	52	4597
2026-01-25 09:15:42.79	49.02	43.98	-40.5	-42.4	17.9	0.00e+00	0	38	0	0	52	4532
2026-01-25 09:15:43.50	48.65	43.93	-40.5	-42.4	17.8	0.00e+00	0	39	0	0	52	4530
2026-01-25 09:15:44.85	47.97	43.84	-40.9	-42.9	17.4	0.00e+00	0	39	0	0	52	4773
2026-01-25 09:15:45.56	47.61	43.78	-41.1	-43.2	17.0	0.00e+00	0	39	0	0	53	4701
2026-01-25 09:15:46.84	46.96	43.69	-41.4	-43.6	16.8	0.00e+00	0	38	0	0	53	4880
2026-01-25 09:15:47.58	46.59	43.63	-41.3	-43.5	16.8	0.00e+00	0	39	0	0	53	4853
2026-01-25 09:15:48.86	45.95	43.53	-41.6	-43.8	16.5	0.00e+00	0	38	0	0	53	5031
2026-01-25 09:15:49.57	45.60	43.47	-41.8	-44.1	16.2	0.00e+00	0	38	0	0	54	4905
2026-01-25 09:15:50.85	44.97	43.36	-42.0	-44.4	16.0	0.00e+00	0	38	0	0	54	5048
2026-01-25 09:15:51.57	44.61	43.30	-41.9	-44.2	16.2	0.00e+00	0	39	0	0	54	4975
2026-01-25 09:15:52.85	43.99	43.19	-41.5	-43.7	16.6	0.00e+00	0	38	0	0	54	4672
2026-01-25 09:15:53.69	43.58	43.11	-41.3	-43.4	16.9	0.00e+00	0	38	0	0	54	4522
2026-01-25 09:15:55.13	42.88	42.98	-41.7	-43.9	16.5	0.00e+00	0	38	0	0	54	4785
2026-01-25 09:15:55.84	42.54	42.91	-42.2	-44.6	15.9	0.00e+00	0	38	0	0	55	4879
2026-01-25 09:15:57.12	41.93	42.79	-42.9	-45.4	15.1	0.00e+00	0	39	0	0	56	5095
2026-01-25 09:15:57.84	41.59	42.71	-43.0	-45.6	14.9	0.00e+00	0	39	0	0	57	4884
2026-01-25 09:15:59.12	40.99	42.59	-42.2	-44.5	16.1	0.00e+00	0	39	0	0	56	4564
2026-01-25 09:15:59.91	40.62	42.50	-41.4	-43.5	16.8	0.00e+00	0	39	0	0	54	4591
2026-01-25 09:16:01.08	40.08	42.38	-40.7	-42.8	17.4	0.00e+00	0	39	0	0	53	4442
2026-01-25 09:16:01.93	39.68	42.29	-40.7	-42.7	17.6	0.00e+00	0	39	0	0	53	4405
2026-01-25 09:16:03.07	39.16	42.17	-40.8	-42.8	17.4	0.00e+00	0	38	0	0	53	4490
2026-01-25 09:16:03.92	38.78	42.07	-41.0	-43.1	17.2	0.00e+00	0	39	0	0	53	4631
2026-01-25 09:16:05.06	38.26	41.95	-41.4	-43.6	16.8	0.00e+00	0	39	0	0	53	4877
2026-01-25 09:16:05.91	37.88	41.85	-41.4	-43.5	16.9	0.00e+00	0	39	0	0	53	4861
2026-01-25 09:16:07.05	37.37	41.72	-40.9	-43.0	17.4	0.00e+00	0	38	0	0	53	4562
2026-01-25 09:16:07.90	36.99	41.62	-40.5	-42.4	17.9	0.00e+00	0	39	0	0	52	4527
2026-01-25 09:16:09.04	36.49	41.48	-40.1	-42.0	18.3	0.00e+00	0	39	0	0	52	4301
2026-01-25 09:16:09.89	36.12	41.38	-40.0	-41.8	18.5	0.00e+00	0	39	0	0	51	4491
2026-01-25 09:16:11.12	35.59	41.23	-40.2	-42.1	18.3	0.00e+00	0	39	0	0	51	4613
2026-01-25 09:16:11.98	35.22	41.13	-40.7	-42.6	17.7	0.00e+00	0	39	0	0	52	4645
2026-01-25 09:16:13.12	34.73	40.99	-41.4	-43.6	16.8	0.00e+00	0	39	0	0	53	4877
2026-01-25 09:16:13.97	34.37	40.88	-41.4	-43.6	16.7	0.00e+00	0	39	0	0	53	4914
2026-01-25 09:16:15.10	33.90	40.74	-40.4	-42.4	17.9	0.00e+00	0	38	0	0	52	4521
2026-01-25 09:16:16.05	33.51	40.62	-39.8	-41.6	18.7	0.00e+00	0	38	0	0	51	4370
2026-01-25 09:16:17.05	33.09	40.49	-39.5	-41.4	19.0	0.00e+00	0	39	0	0	51	4244
2026-01-25 09:16:18.04	32.69	40.36	-39.7	-41.5	18.7	0.00e+00	0	39	0	0	51	4337
2026-01-25 09:16:19.04	32.28	40.23	-40.5	-42.5	17.7	0.00e+00	0	39	0	0	51	4821
2026-01-25 09:16:20.03	31.88	40.09	-41.5	-43.7	16.6	0.00e+00	0	39	0	0	53	4946
2026-01-25 09:16:21.03	31.48	39.96	-41.9	-44.3	16.1	0.00e+00	0	39	0	0	54	4985
2026-01-25 09:16:22.02	31.09	39.83	-41.0	-43.2	17.0	0.00e+00	0	39	0	0	54	4394
2026-01-25 09:16:23.02	30.70	39.69	-39.9	-41.8	18.4	0.00e+00	0	39	0	0	51	4479
2026-01-25 09:16:24.01	30.31	39.55	-39.3	-41.0	19.2	0.00e+00	0	39	0	0	50	4337
2026-01-25 09:16:25.01	29.92	39.42	-38.7	-40.4	19.8	0.00e+00	0	39	0	0	49	4269
2026-01-25 09:16:26.01	29.54	39.28	-38.7	-40.4	19.9	0.00e+00	0	39	0	0	49	4279
2026-01-25 09:16:27.00	29.17	39.14	-39.6	-41.4	18.9	0.00e+00	0	39	0	0	49	4801
2026-01-25 09:16:27.99	28.79	39.00	-40.6	-42.6	17.7	0.00e+00	0	39	0	0	52	4629
2026-01-25 09:16:28.99	28.42	38.86	-41.2	-43.3	17.1	0.00e+00	0	39	0	0	52	5027
2026-01-25 09:16:29.98	28.05	38.72	-40.8	-42.9	17.3	0.00e+00	0	39	0	0	53	4527
2026-01-25 09:16:30.97	27.69	38.58	-40.2	-42.1	17.9	0.00e+00	0	39	0	0	52	4383
2026-01-25 09:16:31.97	27.33	38.43	-39.5	-41.3	18.8	0.00e+00	0	39	0	0	51	4237
2026-01-25 09:16:32.96	26.97	38.29	-39.2	-40.9	19.3	0.00e+00	0	39	0	0	50	4268
2026-01-25 09:16:33.96	26.61	38.15	-39.2	-41.0	19.3	0.00e+00	0	39	0	0	50	4326
2026-01-25 09:16:34.95	26.26	38.00	-39.9	-41.8	18.6	0.00e+00	0	39	0	0	50	4743
2026-01-25 09:16:35.95	25.91	37.86	-40.7	-42.7	17.7	0.00e+00	0	39	0	0	51	4951
2026-01-25 09:16:36.99	25.55	37.70	-40.9	-43.1	17.1	0.00e+00	0	39	0	0	52	4874
2026-01-25 09:16:37.95	25.22	37.56	-40.4	-42.5	17.6	0.00e+00	0	39	0	0	52	4561
2026-01-25 09:16:38.94	24.88	37.42	-39.8	-41.7	18.5	0.00e+00	0	39	0	0	51	4439
2026-01-25 09:16:39.94	24.54	37.27	-39.2	-41.0	19.2	0.00e+00	0	39	0	0	50	4331
2026-01-25 09:16:40.93	24.21	37.12	-39.1	-40.8	19.4	0.00e+00	0	39	0	0	50	4240
2026-01-25 09:16:41.93	23.88	36.97	-38.9	-40.6	19.6	0.00e+00	0	39	0	0	49	4385
2026-01-25 09:16:42.93	23.55	36.82	-39.2	-41.0	19.3	0.00e+00	0	39	0	0	49	4553
2026-01-25 09:16:43.92	23.23	36.67	-39.7	-41.5	18.8	0.00e+00	0	39	0	0	49	4844
2026-01-25 09:16:44.92	22.90	36.52	-40.1	-42.0	18.3	0.00e+00	0	39	0	0	50	4863
2026-01-25 09:16:45.91	22.59	36.37	-40.6	-42.6	17.7	0.00e+00	0	39	0	0	51	4880
2026-01-25 09:16:46.90	22.27	36.22	-40.6	-42.6	17.5	0.00e+00	0	39	0	0	52	4649
2026-01-25 09:16:47.90	21.96	36.07	-40.1	-42.1	17.9	0.00e+00	0	39	0	0	52	4376
2026-01-25 09:16:48.89	21.65	35.92	-39.5	-41.4	18.7	0.00e+00	0	39	0	0	51	4263
2026-01-25 09:16:49.89	21.34	35.77	-39.2	-41.1	19.1	0.00e+00	0	39	0	0	50	4353
2026-01-25 09:16:50.89	21.04	35.62	-39.3	-41.2	19.0	0.00e+00	0	39	0	0	50	4401
2026-01-25 09:16:51.88	20.74	35.47	-39.4	-41.3	18.9	0.00e+00	0	39	0	0	50	4470
2026-01-25 09:16:52.88	20.44	35.32	-39.9	-41.8	18.5	0.00e+00	0	39	0	0	50	4733
2026-01-25 09:16:53.87	20.14	35.17	-40.4	-42.5	17.8	0.00e+00	0	39	0	0	51	4836
2026-01-25 09:16:54.87	19.85	35.01	-40.2	-42.2	18.0	0.00e+00	0	39	0	0	51	4674
2026-01-25 09:16:55.86	19.56	34.86	-39.7	-41.6	18.4	0.00e+00	0	39	0	0	51	4389
2026-01-25 09:16:56.86	19.27	34.71	-39.5	-41.3	18.7	0.00e+00	0	39	0	0	50	4487
2026-01-25 09:16:57.85	18.99	34.56	-39.3	-41.0	19.1	0.00e+00	0	39	0	0	50	4340
2026-01-25 09:16:58.85	18.70	34.40	-39.3	-41.1	19.2	0.00e+00	0	39	0	0	50	4353
2026-01-25 09:16:59.84	18.43	34.25	-39.3	-41.1	19.2	0.00e+00	0	38	0	0	50	4370
2026-01-25 09:17:00.84	18.15	34.10	-39.4	-41.3	19.0	0.00e+00	0	39	0	0	50	4442
2026-01-25 09:17:01.84	17.87	33.95	-39.4	-41.2	19.0	0.00e+00	0	39	0	0	50	4421
2026-01-25 09:17:02.83	17.60	33.80	-39.3	-41.2	19.0	0.00e+00	0	39	0	0	50	4404
2026-01-25 09:17:03.83	17.33	33.64	-39.4	-41.3	18.9	0.00e+00	0	39	0	0	50	4456
2026-01-25 09:17:04.82	17.07	33.49	-39.4	-41.3	18.9	0.00e+00	0	39	0	0	50	4448
2026-01-25 09:17:05.85	16.79	33.33	-39.4	-41.2	18.9	0.00e+00	0	39	0	0	50	4403
2026-01-25 09:17:06.88	16.52	33.18	-39.2	-41.0	19.1	0.00e+00	0	39	0	0	50	4295
2026-01-25 09:17:07.87	16.27	33.03	-38.9	-40.6	19.4	0.00e+00	0	39	0	0	49	4360
2026-01-25 09:17:08.95	15.99	32.86	-38.6	-40.3	19.7	0.00e+00	0	39	0	0	49	4238
2026-01-25 09:17:09.83	15.76	32.73	-38.7	-40.4	19.7	0.00e+00	0	39	0	0	49	4251
2026-01-25 09:17:10.97	15.48	32.55	-38.5	-40.2	19.9	0.00e+00	0	39	0	0	49	4191
2026-01-25 09:17:11.82	15.26	32.42	-38.6	-40.3	19.9	0.00e+00	0	39	0	0	49	4219
2026-01-25 09:17:12.96	14.98	32.25	-38.9	-40.7	19.6	0.00e+00	0	39	0	0	49	4402
2026-01-25 09:17:13.81	14.77	32.12	-39.3	-41.1	19.2	0.00e+00	0	39	0	0	49	4633
2026-01-25 09:17:14.95	14.49	31.95	-39.4	-41.3	19.0	0.00e+00	0	39	0	0	49	4735
2026-01-25 09:17:15.80	14.29	31.82	-39.4	-41.3	18.9	0.00e+00	0	39	0	0	49	4724
2026-01-25 09:17:16.94	14.02	31.65	-39.4	-41.3	18.9	0.00e+00	0	39	0	0	49	4730
2026-01-25 09:17:17.79	13.82	31.52	-39.3	-41.2	18.9	0.00e+00	0	38	0	0	49	4664
2026-01-25 09:17:18.92	13.55	31.35	-39.3	-41.1	19.0	0.00e+00	0	39	0	0	49	4644
2026-01-25 09:17:19.78	13.35	31.22	-39.0	-40.9	19.2	0.00e+00	0	39	0	0	49	4496
2026-01-25 09:17:20.91	13.09	31.05	-38.7	-40.6	19.5	0.00e+00	0	39	0	0	49	4346
2026-01-25 09:17:21.77	12.90	30.92	-38.8	-40.6	19.5	0.00e+00	0	39	0	0	49	4387
2026-01-25 09:17:22.94	12.63	30.74	-38.8	-40.6	19.4	0.00e+00	0	38	0	0	49	4385
2026-01-25 09:17:23.79	12.44	30.62	-38.9	-40.7	19.4	0.00e+00	0	39	0	0	49	4420
2026-01-25 09:17:24.93	12.19	30.45	-38.8	-40.6	19.5	0.00e+00	0	39	0	0	49	4348
2026-01-25 09:17:25.78	12.00	30.32	-38.7	-40.4	19.7	0.00e+00	0	39	0	0	49	4277
2026-01-25 09:17:26.92	11.75	30.15	-38.6	-40.4	19.8	0.00e+00	0	39	0	0	49	4268
2026-01-25 09:17:27.77	11.57	30.02	-38.6	-40.3	19.8	0.00e+00	0	39	0	0	49	4231
2026-01-25 09:17:29.11	11.29	29.83	-38.6	-40.3	19.9	0.00e+00	0	39	0	0	49	4222
2026-01-25 09:17:29.82	11.14	29.72	-38.5	-40.3	19.9	0.00e+00	0	39	0	0	49	4214
2026-01-25 09:17:31.10	10.87	29.53	-38.3	-40.1	20.1	0.00e+00	0	39	0	0	48	4344
2026-01-25 09:17:31.81	10.72	29.43	-38.2	-40.0	20.1	0.00e+00	0	39	0	0	48	4311
2026-01-25 09:17:33.09	10.46	29.24	-38.4	-40.2	19.9	0.00e+00	0	39	0	0	48	4415
2026-01-25 09:17:33.90	10.29	29.12	-38.3	-40.1	20.0	0.00e+00	0	39	0	0	48	4351
2026-01-25 09:17:35.03	10.07	28.96	-38.2	-40.0	20.1	0.00e+00	0	39	0	0	48	4309
2026-01-25 09:17:35.88	9.90	28.83	-38.3	-40.1	19.9	0.00e+00	0	39	0	0	48	4366
2026-01-25 09:17:37.02	9.67	28.67	-38.3	-40.0	19.9	0.00e+00	0	39	0	0	48	4326
2026-01-25 09:17:37.87	9.50	28.54	-38.2	-39.9	19.9	0.00e+00	0	39	0	0	48	4280
2026-01-25 09:17:39.01	9.28	28.38	-38.1	-39.8	20.0	0.00e+00	0	39	0	0	48	4220
2026-01-25 09:17:39.86	9.12	28.26	-38.2	-39.9	20.0	0.00e+00	0	39	0	0	48	4275
2026-01-25 09:17:41.00	8.90	28.09	-38.1	-39.8	20.1	0.00e+00	0	39	0	0	48	4231
2026-01-25 09:17:41.85	8.74	27.97	-37.9	-39.6	20.2	0.00e+00	0	39	0	0	47	4376
2026-01-25 09:17:43.03	8.52	27.80	-37.9	-39.6	20.3	0.00e+00	0	39	0	0	47	4375
2026-01-25 09:17:43.89	8.36	27.68	-38.0	-39.7	20.1	0.00e+00	0	39	0	0	47	4440
2026-01-25 09:17:45.02	8.15	27.52	-38.2	-39.9	20.0	0.00e+00	0	39	0	0	47	4518
2026-01-25 09:17:45.88	7.99	27.40	-38.2	-39.9	20.0	0.00e+00	0	39	0	0	47	4543
2026-01-25 09:17:47.02	7.79	27.24	-38.4	-40.1	19.9	0.00e+00	0	39	0	0	47	4621
2026-01-25 09:17:47.87	7.64	27.12	-38.4	-40.2	19.6	0.00e+00	0	39	0	0	47	4662
2026-01-25 09:17:49.01	7.43	26.96	-38.3	-40.1	19.8	0.00e+00	0	39	0	0	47	4623
2026-01-25 09:17:49.86	7.28	26.84	-38.4	-40.2	19.8	0.00e+00	0	39	0	0	47	4665
2026-01-25 09:17:51.00	7.09	26.68	-38.4	-40.1	19.7	0.00e+00	0	39	0	0	47	4641
2026-01-25 09:17:51.85	6.94	26.56	-38.3	-40.1	19.8	0.00e+00	0	39	0	0	47	4616
2026-01-25 09:17:52.98	6.74	26.40	-38.4	-40.1	19.8	0.00e+00	0	39	0	0	47	4630
2026-01-25 09:17:53.84	6.60	26.28	-38.3	-40.0	19.9	0.00e+00	0	39	0	0	47	4578
2026-01-25 09:17:54.98	6.41	26.13	-38.2	-39.9	20.0	0.00e+00	0	39	0	0	47	4496
2026-01-25 09:17:55.83	6.27	26.01	-38.0	-39.7	20.2	0.00e+00	0	39	0	0	47	4421
2026-01-25 09:17:57.04	6.07	25.84	-38.1	-39.8	20.2	0.00e+00	0	39	0	0	47	4445
2026-01-25 09:17:57.90	5.92	25.73	-38.1	-39.8	20.2	0.00e+00	0	39	0	0	47	4449
2026-01-25 09:17:59.10	5.73	25.56	-38.0	-39.7	20.3	0.00e+00	0	39	0	0	47	4427
2026-01-25 09:17:59.95	5.59	25.45	-38.1	-39.8	20.2	0.00e+00	0	39	0	0	47	4449
2026-01-25 09:18:01.09	5.41	25.29	-38.0	-39.8	20.2	0.00e+00	0	39	0	0	47	4447
2026-01-25 09:18:01.94	5.28	25.18	-37.9	-39.7	20.3	0.00e+00	0	39	0	0	47	4396
2026-01-25 09:18:03.08	5.10	25.03	-37.8	-39.5	20.4	0.00e+00	0	39	0	0	47	4316
2026-01-25 09:18:03.93	4.97	24.91	-37.9	-39.6	20.3	0.00e+00	0	39	0	0	47	4381
2026-01-25 09:18:05.07	4.79	24.76	-37.9	-39.6	20.3	0.00e+00	0	39	0	0	47	4351
2026-01-25 09:18:06.06	4.64	24.63	-37.8	-39.5	20.4	0.00e+00	0	39	0	0	47	4336
2026-01-25 09:18:07.06	4.49	24.49	-37.8	-39.5	20.4	0.00e+00	0	39	0	0	47	4306
2026-01-25 09:18:08.05	4.34	24.36	-37.9	-39.6	20.3	0.00e+00	0	39	0	0	47	4349
2026-01-25 09:18:09.05	4.19	24.23	-37.7	-39.4	20.4	0.00e+00	0	39	0	0	47	4288
2026-01-25 09:18:10.04	4.04	24.10	-37.9	-39.7	20.3	0.00e+00	0	39	0	0	47	4393
2026-01-25 09:18:11.04	3.90	23.97	-37.9	-39.7	20.3	0.00e+00	0	39	0	0	47	4399
2026-01-25 09:18:12.03	3.75	23.84	-38.0	-39.7	20.2	0.00e+00	0	39	0	0	47	4427
2026-01-25 09:18:13.02	3.61	23.71	-38.1	-39.9	20.0	0.00e+00	0	39	0	0	47	4501
2026-01-25 09:18:14.02	3.47	23.58	-38.2	-39.9	20.0	0.00e+00	0	39	0	0	47	4538
2026-01-25 09:18:15.01	3.33	23.46	-38.3	-40.1	19.8	0.00e+00	0	39	0	0	47	4601
2026-01-25 09:18:16.01	3.19	23.33	-38.3	-40.1	19.8	0.00e+00	0	39	0	0	47	4627
2026-01-25 09:18:17.00	3.05	23.20	-38.5	-40.2	19.6	0.00e+00	0	39	0	0	47	4703
2026-01-25 09:18:18.00	2.91	23.07	-38.4	-40.2	19.7	0.00e+00	0	39	0	0	47	4665
2026-01-25 09:18:18.99	2.78	22.95	-38.5	-40.3	19.6	0.00e+00	0	39	0	0	47	4725
2026-01-25 09:18:19.98	2.64	22.82	-38.3	-40.0	19.8	0.00e+00	0	39	0	0	47	4595
2026-01-25 09:18:20.98	2.51	22.70	-38.2	-40.0	19.9	0.00e+00	0	39	0	0	47	4563
2026-01-25 09:18:21.97	2.38	22.57	-38.2	-40.0	19.9	0.00e+00	0	39	0	0	47	4559
2026-01-25 09:18:22.96	2.25	22.45	-38.1	-39.9	20.0	0.00e+00	0	39	0	0	47	4508
2026-01-25 09:18:23.94	2.12	22.32	-38.1	-39.9	20.0	0.00e+00	0	39	0	0	47	4501
2026-01-25 09:18:24.93	1.99	22.20	-38.2	-40.0	19.9	0.00e+00	0	39	0	0	47	4577
2026-01-25 09:18:25.93	1.86	22.08	-38.0	-39.8	20.0	0.00e+00	0	39	0	0	47	4465
2026-01-25 09:18:26.93	1.73	21.95	-38.0	-39.7	20.1	0.00e+00	0	39	0	0	47	4423
2026-01-25 09:18:27.92	1.61	21.83	-38.0	-39.7	20.1	0.00e+00	0	39	0	0	47	4407
2026-01-25 09:18:28.92	1.48	21.71	-37.9	-39.6	20.2	0.00e+00	0	39	0	0	47	4381
2026-01-25 09:18:29.91	1.36	21.59	-38.0	-39.7	20.2	0.00e+00	0	39	0	0	47	4405
2026-01-25 09:18:30.99	1.22	21.46	-37.8	-39.5	20.3	0.00e+00	0	39	0	0	47	4333
2026-01-25 09:18:31.84	1.12	21.35	-37.9	-39.6	20.3	0.00e+00	0	39	0	0	47	4352
2026-01-25 09:18:32.98	0.98	21.22	-37.8	-39.5	20.3	0.00e+00	0	39	0	0	47	4309
2026-01-25 09:18:33.83	0.88	21.11	-37.7	-39.5	20.4	0.00e+00	0	39	0	0	47	4295
2026-01-25 09:18:34.97	0.74	20.98	-37.7	-39.4	20.4	0.00e+00	0	39	0	0	47	4291
2026-01-25 09:18:35.82	0.64	20.87	-37.8	-39.5	20.4	0.00e+00	0	39	0	0	47	4300
2026-01-25 09:18:36.96	0.50	20.74	-37.9	-39.6	20.2	0.00e+00	0	39	0	0	47	4358
2026-01-25 09:18:37.81	0.40	20.64	-38.0	-39.7	20.2	0.00e+00	0	39	0	0	47	4404
2026-01-25 09:18:38.94	0.27	20.50	-38.1	-39.8	20.0	0.00e+00	0	39	0	0	47	4475
2026-01-25 09:18:39.80	0.17	20.40	-38.2	-40.0	19.9	0.00e+00	0	39	0	0	47	4549
2026-01-25 09:18:40.93	0.04	20.27	-38.3	-40.1	19.8	0.00e+00	0	39	0	0	47	4608
2026-01-25 09:18:41.78	359.95	20.17	-38.3	-40.1	19.8	0.00e+00	0	39	0	0	47	4615
2026-01-25 09:18:42.92	359.82	20.04	-38.3	-40.1	19.7	0.00e+00	0	39	0	0	47	4631
2026-01-25 09:18:43.78	359.72	19.94	-38.3	-40.1	19.7	0.00e+00	0	39	0	0	47	4626
2026-01-25 09:18:44.91	359.60	19.81	-38.1	-40.0	19.8	0.00e+00	0	39	0	0	47	4546
2026-01-25 09:18:45.77	359.50	19.71	-38.1	-39.9	19.8	0.00e+00	0	39	0	0	47	4513
2026-01-25 09:18:46.90	359.38	19.58	-38.1	-39.9	19.8	0.00e+00	0	39	0	0	47	4517
2026-01-25 09:18:47.75	359.29	19.48	-38.0	-39.8	19.9	0.00e+00	0	39	0	0	47	4458
2026-01-25 09:18:48.89	359.16	19.35	-37.9	-39.6	20.0	0.00e+00	0	39	0	0	47	4380
2026-01-25 09:18:49.74	359.07	19.25	-37.9	-39.7	20.0	0.00e+00	0	39	0	0	47	4398
2026-01-25 09:18:50.88	358.95	19.12	-38.0	-39.7	19.9	0.00e+00	0	39	0	0	47	4437
2026-01-25 09:18:51.73	358.86	19.03	-38.1	-39.8	19.9	0.00e+00	0	39	0	0	47	4460
2026-01-25 09:18:52.87	358.74	18.90	-38.0	-39.7	20.0	0.00e+00	0	39	0	0	47	4427
2026-01-25 09:18:53.72	358.65	18.80	-38.0	-39.8	20.0	0.00e+00	0	39	0	0	47	4444
2026-01-25 09:18:54.86	358.54	18.68	-38.1	-39.9	19.9	0.00e+00	0	39	0	0	47	4513
2026-01-25 09:18:55.71	358.45	18.58	-38.1	-39.9	19.8	0.00e+00	0	39	0	0	47	4540
2026-01-25 09:18:56.85	358.33	18.46	-38.2	-40.0	19.8	0.00e+00	0	39	0	0	47	4586
2026-01-25 09:18:57.70	358.25	18.36	-38.3	-40.2	19.7	0.00e+00	0	39	0	0	47	4657
2026-01-25 09:18:59.00	358.12	18.22	-38.3	-40.1	19.7	0.00e+00	0	39	0	0	47	4649
2026-01-25 09:18:59.71	358.05	18.14	-38.3	-40.2	19.6	0.00e+00	0	39	0	0	47	4676
2026-01-25 09:19:01.18	357.91	17.98	-38.5	-40.4	19.5	0.00e+00	0	39	0	0	47	4772
2026-01-25 09:19:01.89	357.84	17.90	-38.5	-40.4	19.5	0.00e+00	0	39	0	0	47	4777
2026-01-25 09:19:03.25	357.70	17.76	-38.7	-40.5	19.4	0.00e+00	0	39	0	0	47	4839
2026-01-25 09:19:03.96	357.64	17.68	-38.8	-40.6	19.4	0.00e+00	0	38	0	0	48	4627
2026-01-25 09:19:05.24	357.51	17.54	-38.8	-40.7	19.3	0.00e+00	0	39	0	0	48	4671
2026-01-25 09:19:05.95	357.45	17.46	-38.9	-40.8	19.3	0.00e+00	0	39	0	0	48	4720
2026-01-25 09:19:07.23	357.33	17.33	-38.9	-40.8	19.2	0.00e+00	0	39	0	0	48	4748
2026-01-25 09:19:07.94	357.26	17.25	-38.9	-40.8	19.2	0.00e+00	0	39	0	0	48	4743
2026-01-25 09:19:09.22	357.14	17.12	-39.0	-41.0	19.1	0.00e+00	0	39	0	0	48	4827
2026-01-25 09:19:09.93	357.08	17.04	-39.1	-41.0	19.0	0.00e+00	0	39	0	0	48	4856
2026-01-25 09:19:11.21	356.96	16.91	-39.1	-41.0	19.1	0.00e+00	0	39	0	0	48	4834
2026-01-25 09:19:11.95	356.89	16.83	-39.1	-41.1	19.0	0.00e+00	0	39	0	0	48	4880
2026-01-25 09:19:13.23	356.78	16.70	-39.2	-41.2	18.9	0.00e+00	0	39	0	0	49	4655
2026-01-25 09:19:14.05	356.71	16.61	-39.1	-41.0	19.0	0.00e+00	0	39	0	0	49	4578
2026-01-25 09:19:15.49	356.58	16.46	-39.2	-41.1	19.0	0.00e+00	0	39	0	0	49	4608
2026-01-25 09:19:16.20	356.52	16.39	-39.1	-41.0	19.0	0.00e+00	0	39	0	0	49	4583
2026-01-25 09:19:17.48	356.41	16.26	-39.0	-40.8	19.2	0.00e+00	0	39	0	0	49	4484
2026-01-25 09:19:18.20	356.34	16.18	-39.0	-40.9	19.1	0.00e+00	0	39	0	0	49	4512
2026-01-25 09:19:19.74	356.21	16.02	-39.0	-40.9	19.1	0.00e+00	0	39	0	0	49	4515
2026-01-25 09:19:20.45	356.15	15.95	-38.9	-40.8	19.2	0.00e+00	0	39	0	0	49	4459
2026-01-25 09:19:21.72	356.04	15.82	-39.0	-40.9	19.1	0.00e+00	0	39	0	0	49	4494
2026-01-25 09:19:22.43	355.98	15.75	-39.0	-40.9	19.1	0.00e+00	0	39	0	0	49	4499
2026-01-25 09:19:23.71	355.88	15.62	-38.9	-40.7	19.2	0.00e+00	0	39	0	0	49	4434
2026-01-25 09:19:24.44	355.82	15.55	-38.9	-40.7	19.2	0.00e+00	0	39	0	0	49	4428
2026-01-25 09:19:25.72	355.71	15.42	-38.7	-40.5	19.5	0.00e+00	0	39	0	0	49	4314
2026-01-25 09:19:26.44	355.65	15.35	-38.8	-40.6	19.3	0.00e+00	0	39	0	0	49	4381
2026-01-25 09:19:27.72	355.55	15.22	-38.7	-40.5	19.4	0.00e+00	0	39	0	0	49	4317
2026-01-25 09:19:28.48	355.49	15.15	-38.7	-40.5	19.4	0.00e+00	0	39	0	0	49	4340
2026-01-25 09:19:29.75	355.39	15.02	-38.8	-40.7	19.3	0.00e+00	0	39	0	0	49	4394
2026-01-25 09:19:30.54	355.32	14.94	-38.8	-40.7	19.3	0.00e+00	0	39	0	0	49	4406
2026-01-25 09:19:31.74	355.23	14.83	-38.8	-40.7	19.3	0.00e+00	0	39	0	0	49	4412
2026-01-25 09:19:32.60	355.16	14.74	-38.9	-40.8	19.2	0.00e+00	0	39	0	0	49	4460
2026-01-25 09:19:33.73	355.07	14.63	-38.8	-40.7	19.2	0.00e+00	0	39	0	0	49	4420
2026-01-25 09:19:34.59	355.01	14.55	-38.9	-40.8	19.2	0.00e+00	0	39	0	0	49	4471
2026-01-25 09:19:35.72	354.92	14.44	-38.9	-40.8	19.2	0.00e+00	0	39	0	0	49	4487
2026-01-25 09:19:36.58	354.86	14.36	-39.1	-40.9	19.1	0.00e+00	0	39	0	0	49	4538
2026-01-25 09:19:37.71	354.77	14.25	-39.1	-41.0	19.0	0.00e+00	0	39	0	0	49	4577
2026-01-25 09:19:38.57	354.71	14.17	-39.2	-41.1	18.9	0.00e+00	0	39	0	0	49	4626
2026-01-25 09:19:39.70	354.62	14.06	-39.3	-41.2	18.8	0.00e+00	0	39	0	0	49	4687
2026-01-25 09:19:40.56	354.56	13.98	-39.3	-41.2	18.9	0.00e+00	0	39	0	0	49	4671
2026-01-25 09:19:41.69	354.47	13.87	-39.3	-41.3	18.7	0.00e+00	0	39	0	0	49	4735
2026-01-25 09:19:42.63	354.41	13.78	-39.3	-41.3	18.7	0.00e+00	0	39	0	0	49	4736
2026-01-25 09:19:43.78	354.32	13.67	-39.4	-41.4	18.7	0.00e+00	0	39	0	0	49	4760
2026-01-25 09:19:44.63	354.26	13.59	-39.4	-41.4	18.6	0.00e+00	0	39	0	0	49	4800
2026-01-25 09:19:45.99	354.16	13.47	-39.4	-41.3	18.6	0.00e+00	0	39	0	0	49	4756
2026-01-25 09:19:46.70	354.11	13.40	-39.4	-41.4	18.6	0.00e+00	0	39	0	0	49	4799
2026-01-25 09:19:48.20	354.01	13.26	-39.3	-41.4	18.5	0.00e+00	0	39	0	0	49	4793
2026-01-25 09:19:48.92	353.96	13.19	-39.3	-41.4	18.6	0.00e+00	0	39	0	0	49	4780
2026-01-25 09:19:50.20	353.87	13.08	-39.2	-41.4	18.5	0.00e+00	0	39	0	0	49	4787
2026-01-25 09:19:50.91	353.82	13.01	-39.2	-41.4	18.5	0.00e+00	0	39	0	0	49	4810
2026-01-25 09:19:52.18	353.73	12.90	-39.1	-41.4	18.5	0.00e+00	0	39	0	0	49	4771
2026-01-25 09:19:52.90	353.68	12.83	-39.1	-41.4	18.5	0.00e+00	0	39	0	0	49	4805
2026-01-25 09:19:54.17	353.60	12.71	-39.1	-41.4	18.5	0.00e+00	0	39	0	0	49	4798
2026-01-25 09:19:54.88	353.55	12.65	-39.1	-41.4	18.5	0.00e+00	0	39	0	0	49	4796
2026-01-25 09:19:56.16	353.46	12.53	-39.2	-41.4	18.4	0.00e+00	0	39	0	0	49	4814
2026-01-25 09:19:57.02	353.40	12.46	-39.1	-41.4	18.5	0.00e+00	0	39	0	0	49	4775
2026-01-25 09:19:58.15	353.33	12.36	-39.2	-41.4	18.4	0.00e+00	0	39	0	0	49	4812
2026-01-25 09:19:59.00	353.27	12.28	-39.1	-41.4	18.5	0.00e+00	0	39	0	0	49	4774
2026-01-25 09:20:00.14	353.20	12.18	-39.2	-41.3	18.5	0.00e+00	0	39	0	0	49	4752
2026-01-25 09:20:00.99	353.14	12.10	-39.2	-41.3	18.6	0.00e+00	0	39	0	0	49	4741
2026-01-25 09:20:02.13	353.07	12.00	-39.2	-41.3	18.5	0.00e+00	0	39	0	0	49	4746
2026-01-25 09:20:02.98	353.02	11.93	-39.2	-41.3	18.5	0.00e+00	0	39	0	0	49	4757
2026-01-25 09:20:04.12	352.94	11.83	-39.3	-41.5	18.4	0.00e+00	0	39	0	0	49	4823
2026-01-25 09:20:04.97	352.89	11.75	-39.3	-41.4	18.4	0.00e+00	0	39	0	0	49	4800
2026-01-25 09:20:06.11	352.82	11.65	-39.2	-41.3	18.6	0.00e+00	0	39	0	0	49	4733
2026-01-25 09:20:06.96	352.77	11.58	-39.0	-41.2	18.6	0.00e+00	0	39	0	0	49	4674
2026-01-25 09:20:08.09	352.70	11.48	-39.0	-41.3	18.5	0.00e+00	0	39	0	0	49	4753
2026-01-25 09:20:08.95	352.64	11.41	-38.9	-41.2	18.6	0.00e+00	0	39	0	0	49	4697
2026-01-25 09:20:10.08	352.57	11.31	-38.9	-41.3	18.6	0.00e+00	0	39	0	0	49	4714
2026-01-25 09:20:11.00	352.52	11.23	-38.9	-41.3	18.5	0.00e+00	0	39	0	0	49	4743
2026-01-25 09:20:11.99	352.46	11.14	-38.7	-41.3	18.5	0.00e+00	0	39	0	0	49	4746
2026-01-25 09:20:12.99	352.40	11.06	-38.6	-41.3	18.6	0.00e+00	0	39	0	0	49	4711
2026-01-25 09:20:13.98	352.34	10.97	-38.7	-41.4	18.4	0.00e+00	0	39	0	0	49	4803
2026-01-25 09:20:14.98	352.28	10.89	-38.6	-41.4	18.4	0.00e+00	0	39	0	0	49	4790
2026-01-25 09:20:15.97	352.22	10.80	-38.6	-41.4	18.4	0.00e+00	0	39	0	0	49	4804
2026-01-25 09:20:16.97	352.16	10.72	-38.6	-41.4	18.4	0.00e+00	0	39	0	0	49	4800
2026-01-25 09:20:17.97	352.10	10.64	-38.7	-41.5	18.3	0.00e+00	0	39	0	0	49	4870
2026-01-25 09:20:18.96	352.05	10.55	-38.9	-41.6	18.3	0.00e+00	0	39	0	0	49	4899
2026-01-25 09:20:19.96	351.99	10.47	-38.9	-41.5	18.4	0.00e+00	0	39	0	0	49	4862
2026-01-25 09:20:20.95	351.93	10.39	-38.9	-41.5	18.4	0.00e+00	0	39	0	0	49	4861
2026-01-25 09:20:21.95	351.87	10.30	-39.1	-41.7	18.2	0.00e+00	0	39	0	0	49	4932
2026-01-25 09:20:22.94	351.82	10.22	-39.2	-41.6	18.3	0.00e+00	0	39	0	0	49	4897
2026-01-25 09:20:23.94	351.76	10.14	-39.2	-41.6	18.3	0.00e+00	0	39	0	0	49	4905
2026-01-25 09:20:24.93	351.71	10.06	-39.3	-41.6	18.3	0.00e+00	0	39	0	0	49	4903
2026-01-25 09:20:25.93	351.65	9.97	-39.4	-41.8	18.2	0.00e+00	0	39	0	0	49	4993
2026-01-25 09:20:26.92	351.60	9.89	-39.3	-41.7	18.2	0.00e+00	0	39	0	0	49	4979
2026-01-25 09:20:27.92	351.54	9.81	-39.3	-41.8	18.1	0.00e+00	0	39	0	0	49	5020
2026-01-25 09:20:28.91	351.49	9.73	-39.3	-41.8	18.2	0.00e+00	0	39	0	0	49	4995
2026-01-25 09:20:29.91	351.43	9.65	-39.3	-41.8	18.1	0.00e+00	0	39	0	0	49	5036
2026-01-25 09:20:30.90	351.38	9.57	-39.2	-41.8	18.1	0.00e+00	0	39	0	0	49	5009
2026-01-25 09:20:31.90	351.33	9.49	-39.3	-41.9	18.0	0.00e+00	0	39	0	0	49	5081
2026-01-25 09:20:32.90	351.27	9.41	-39.4	-42.0	17.9	0.00e+00	0	39	0	0	49	5139
2026-01-25 09:20:33.89	351.22	9.33	-39.4	-42.1	17.8	0.00e+00	0	39	0	0	49	5202
2026-01-25 09:20:34.95	351.17	9.24	-39.5	-42.2	17.7	0.00e+00	0	39	0	0	49	5236
2026-01-25 09:20:35.83	351.12	9.17	-39.5	-42.2	17.7	0.00e+00	0	39	0	0	49	5258
2026-01-25 09:20:36.97	351.06	9.08	-39.6	-42.3	17.6	0.00e+00	0	39	0	0	49	5326
2026-01-25 09:20:37.82	351.02	9.02	-39.6	-42.3	17.6	0.00e+00	0	39	0	0	49	5287
2026-01-25 09:20:38.96	350.96	8.92	-45.5	-54.2	6.6	1.50e-06	0	39	0	0	61	10485
2026-01-25 09:20:39.81	350.91	8.86	-45.7	-61.5	3.8	1.49e+00	0	39	104	0	62	22859
2026-01-25 09:20:40.94	350.86	8.77	-47.5	-61.4	3.8	1.49e+00	0	39	104	0	66	18055
2026-01-25 09:20:41.80	350.81	8.70	-47.2	-61.6	3.8	1.49e+00	0	39	104	0	66	18328
2026-01-25 09:20:42.93	350.76	8.61	-48.3	-61.7	3.8	1.49e+00	0	39	104	0	67	17516
2026-01-25 09:20:43.78	350.71	8.55	-48.0	-61.7	3.8	1.49e+00	0	39	104	0	67	17672
2026-01-25 09:20:44.91	350.66	8.46	-48.5	-61.8	3.8	1.49e+00	0	39	104	0	67	17822
2026-01-25 09:20:45.77	350.61	8.39	-48.6	-62.0	3.8	1.49e+00	0	39	104	0	68	17117
2026-01-25 09:20:46.90	350.56	8.30	-48.3	-62.0	3.8	1.49e+00	0	39	104	0	68	17154
2026-01-25 09:20:47.75	350.52	8.24	-48.7	-62.0	3.8	1.49e+00	0	39	104	0	68	17237
2026-01-25 09:20:48.89	350.46	8.15	-49.0	-62.0	3.8	1.49e+00	0	39	104	0	68	17267
2026-01-25 09:20:49.74	350.42	8.09	-48.8	-62.1	3.8	1.49e+00	0	39	104	0	68	17322
2026-01-25 09:20:50.87	350.37	8.00	-48.4	-62.1	3.8	1.49e+00	0	39	104	0	68	17354
2026-01-25 09:20:51.73	350.33	7.93	-49.0	-62.1	3.8	1.49e+00	0	39	104	0	68	17327
2026-01-25 09:20:52.86	350.27	7.85	-49.1	-62.1	3.8	1.49e+00	0	39	104	0	68	17347
2026-01-25 09:20:53.71	350.23	7.78	-48.9	-62.1	3.8	1.49e+00	0	39	104	0	68	17438
2026-01-25 09:20:54.85	350.18	7.70	-48.8	-62.1	3.8	1.49e+00	0	39	104	0	68	17443
2026-01-25 09:20:55.70	350.14	7.63	-49.0	-62.1	3.8	1.49e+00	0	39	104	0	68	17435
2026-01-25 09:20:56.84	350.09	7.55	-49.1	-62.1	3.8	1.49e+00	0	39	104	0	68	17430
2026-01-25 09:20:57.69	350.05	7.48	-49.0	-62.1	3.8	1.49e+00	0	39	104	0	68	17443
2026-01-25 09:20:58.82	349.99	7.40	-48.9	-62.1	3.8	1.49e+00	0	39	104	0	68	17363
2026-01-25 09:20:59.67	349.96	7.33	-48.9	-62.1	3.8	1.49e+00	0	39	104	0	68	17442
2026-01-25 09:21:00.81	349.90	7.25	-49.1	-62.2	3.8	1.49e+00	0	39	104	0	68	17487
2026-01-25 09:21:01.66	349.87	7.19	-49.2	-62.1	3.8	1.49e+00	0	39	104	0	69	16484
2026-01-25 09:21:02.79	349.81	7.10	-49.0	-62.1	3.8	1.49e+00	0	39	104	0	69	16422
2026-01-25 09:21:03.64	349.78	7.04	-49.1	-62.1	3.8	1.49e+00	0	39	104	0	69	16421
2026-01-25 09:21:04.78	349.73	6.96	-49.0	-62.1	3.8	1.49e+00	0	39	104	0	69	16434
2026-01-25 09:21:05.63	349.69	6.89	-49.1	-62.1	3.8	1.49e+00	0	39	104	0	69	16412
2026-01-25 09:21:06.77	349.64	6.81	-48.9	-62.1	3.8	1.49e+00	0	39	104	0	69	16415
2026-01-25 09:21:07.62	349.60	6.75	-48.7	-62.1	3.8	1.49e+00	0	39	104	0	69	16381
2026-01-25 09:21:08.75	349.55	6.66	-48.7	-62.1	3.8	1.49e+00	0	39	104	0	69	16383
2026-01-25 09:21:09.60	349.52	6.60	-48.7	-62.1	3.8	1.49e+00	0	39	104	0	69	16350
2026-01-25 09:21:10.74	349.47	6.52	-48.7	-62.1	3.8	1.49e+00	0	39	104	0	69	16334
2026-01-25 09:21:11.59	349.43	6.46	-48.7	-62.0	3.8	1.49e+00	0	39	104	0	69	16298
2026-01-25 09:21:12.73	349.38	6.38	-48.7	-62.0	3.8	1.49e+00	0	39	104	0	69	16243
2026-01-25 09:21:13.58	349.35	6.31	-48.7	-62.1	3.8	1.49e+00	0	39	104	0	69	16329
2026-01-25 09:21:14.71	349.30	6.23	-48.7	-62.0	3.8	1.49e+00	0	39	104	0	69	16297
2026-01-25 09:21:15.56	349.26	6.17	-48.7	-62.0	3.8	1.49e+00	0	39	104	0	69	16271
2026-01-25 09:21:16.70	349.22	6.09	-48.7	-62.1	3.8	1.49e+00	0	39	104	0	69	16331
2026-01-25 09:21:17.55	349.18	6.03	-48.7	-62.1	3.8	1.49e+00	0	39	104	0	69	16317
2026-01-25 09:21:18.69	349.13	5.95	-48.7	-62.1	3.8	1.49e+00	0	39	104	0	69	16359
2026-01-25 09:21:19.54	349.10	5.89	-48.7	-62.0	3.8	1.49e+00	0	39	104	0	69	16312
2026-01-25 09:21:20.67	349.05	5.81	-48.7	-62.0	3.8	1.49e+00	0	39	104	0	69	16258
2026-01-25 09:21:21.53	349.02	5.75	-48.7	-62.0	3.8	1.49e+00	0	39	104	0	69	16271
2026-01-25 09:21:22.66	348.97	5.67	-48.7	-62.0	3.8	1.49e+00	0	39	104	0	69	16270
2026-01-25 09:21:23.51	348.94	5.61	-48.7	-62.1	3.8	1.49e+00	0	39	104	0	69	16345
2026-01-25 09:21:24.65	348.89	5.53	-48.7	-62.0	3.8	1.49e+00	0	39	104	0	69	16270
2026-01-25 09:21:25.50	348.86	5.47	-48.7	-62.0	3.8	1.49e+00	0	39	104	0	69	16303
2026-01-25 09:21:26.64	348.81	5.39	-48.7	-62.0	3.8	1.49e+00	0	39	104	0	69	16260
2026-01-25 09:21:27.49	348.78	5.33	-48.7	-62.0	3.8	1.49e+00	0	39	104	0	69	16214
2026-01-25 09:21:28.62	348.74	5.25	-48.7	-62.0	3.8	1.49e+00	0	39	104	0	69	16272
2026-01-25 09:21:29.47	348.70	5.19	-48.7	-62.0	3.8	1.49e+00	0	39	104	0	69	16242
2026-01-25 09:21:30.61	348.66	5.11	-48.7	-62.0	3.8	1.49e+00	0	39	104	0	69	16247
2026-01-25 09:21:31.46	348.63	5.06	-48.7	-62.0	3.8	1.49e+00	0	39	104	0	69	16299
2026-01-25 09:21:32.60	348.58	4.98	-48.6	-62.0	3.8	1.49e+00	0	39	104	0	69	16208

#Closed at: 2026-01-25 09:21:33
#Recorded file [0 MB]: D:/Data/31040_260125_120906.dat