passes_logs/2026/01/25/T1/T1__20260125_111945_SUOMI_NPP_rec.log

#Pass ID: 20260125_111945_SUOMI NPP
#Satellite: SUOMI NPP
#Configuration: NPP
#almurnet v.1.7.20251203
#Start time: 2026-01-25 11:19:47

#Version: 2.0.20230620
#Station: T1
#Location: 37.570604 lon 55.790049 lat
#TLE: 1 37849U 11061A   26024.54906732  .00000185  00000+0  10878-3 0  9990
#TLE: 2 37849  98.7821 326.5159 0002200  47.3746 312.7615 14.19529340738061

#Time	Az	El	Level	Level2	SNR	BER	BlckErr	Temp	State	Recorded	gain1	gain2
2026-01-25 11:19:47.36	203.42	5.14	-49.1	-64.7	3.8	1.49e+00	0	35	0	0	69	22066
2026-01-25 11:19:48.35	203.50	5.20	-49.1	-64.6	3.8	1.49e+00	0	36	104	0	70	20690
2026-01-25 11:19:49.34	203.57	5.26	-49.1	-64.6	3.8	1.49e+00	0	36	104	0	70	20728
2026-01-25 11:19:50.34	203.65	5.32	-49.1	-64.6	3.8	1.49e+00	0	36	104	0	70	20707
2026-01-25 11:19:51.33	203.72	5.39	-49.1	-64.7	3.8	1.49e+00	0	36	104	0	70	20794
2026-01-25 11:19:52.33	203.80	5.45	-49.1	-64.6	3.8	1.49e+00	0	36	104	0	70	20759
2026-01-25 11:19:53.32	203.88	5.51	-49.1	-64.6	3.8	1.49e+00	0	36	104	0	70	20763
2026-01-25 11:19:54.31	203.95	5.58	-49.1	-64.7	3.8	1.49e+00	0	36	104	0	70	20784
2026-01-25 11:19:55.30	204.03	5.64	-49.1	-64.7	3.8	1.49e+00	0	36	104	0	70	20876
2026-01-25 11:19:56.30	204.11	5.70	-49.1	-64.7	3.8	1.49e+00	0	36	104	0	70	20795
2026-01-25 11:19:57.29	204.19	5.77	-49.1	-64.7	3.8	1.49e+00	0	36	104	0	70	20785
2026-01-25 11:19:58.28	204.26	5.83	-49.0	-64.7	3.8	1.49e+00	0	36	104	0	70	20836
2026-01-25 11:19:59.28	204.34	5.89	-49.1	-64.7	3.8	1.49e+00	0	36	104	0	70	20944
2026-01-25 11:20:00.27	204.42	5.96	-49.1	-64.6	3.8	1.49e+00	0	36	104	0	70	20761
2026-01-25 11:20:01.26	204.50	6.02	-49.1	-64.6	3.8	1.49e+00	0	36	104	0	70	20722
2026-01-25 11:20:02.26	204.58	6.09	-49.1	-64.6	3.8	1.49e+00	0	36	104	0	70	20559
2026-01-25 11:20:03.25	204.66	6.15	-49.1	-64.5	3.8	1.49e+00	0	36	104	0	70	20376
2026-01-25 11:20:04.24	204.74	6.21	-49.0	-64.3	3.8	1.49e+00	0	36	104	0	70	20070
2026-01-25 11:20:05.24	204.82	6.28	-49.0	-64.2	3.8	1.49e+00	0	36	104	0	70	19823
2026-01-25 11:20:06.23	204.90	6.34	-49.0	-64.2	3.8	1.49e+00	0	36	104	0	70	19674
2026-01-25 11:20:07.22	204.98	6.41	-49.1	-64.1	3.8	1.49e+00	0	36	104	0	70	19593
2026-01-25 11:20:08.22	205.06	6.47	-49.0	-64.1	3.8	1.49e+00	0	36	104	0	70	19497
2026-01-25 11:20:09.21	205.15	6.54	-49.0	-64.2	3.8	1.49e+00	0	37	104	0	70	19615
2026-01-25 11:20:10.20	205.23	6.60	-49.0	-64.1	3.8	1.49e+00	0	37	104	0	70	19432
2026-01-25 11:20:11.19	205.31	6.67	-49.0	-64.0	3.8	1.49e+00	0	37	104	0	70	19320
2026-01-25 11:20:12.19	205.39	6.73	-49.0	-63.9	3.8	1.49e+00	0	37	104	0	70	19094
2026-01-25 11:20:13.18	205.48	6.80	-49.0	-63.8	3.8	1.49e+00	0	37	104	0	70	18943
2026-01-25 11:20:14.17	205.56	6.86	-49.0	-63.9	3.8	1.49e+00	0	37	104	0	70	19118
2026-01-25 11:20:15.17	205.64	6.93	-49.0	-63.9	3.8	1.49e+00	0	37	104	0	70	19154
2026-01-25 11:20:16.16	205.73	6.99	-49.0	-64.0	3.8	1.49e+00	0	37	104	0	69	20364
2026-01-25 11:20:17.15	205.81	7.06	-49.0	-64.1	3.8	1.49e+00	0	37	104	0	69	20617
2026-01-25 11:20:18.15	205.90	7.13	-49.0	-64.2	3.8	1.49e+00	0	37	104	0	69	20835
2026-01-25 11:20:19.14	205.98	7.19	-49.0	-64.2	3.8	1.49e+00	0	37	104	0	69	20961
2026-01-25 11:20:20.13	206.07	7.26	-49.0	-64.3	3.8	1.49e+00	0	37	104	0	69	21212
2026-01-25 11:20:21.13	206.16	7.33	-49.0	-64.3	3.8	1.49e+00	0	37	104	0	69	21139
2026-01-25 11:20:22.12	206.24	7.39	-49.0	-63.9	3.8	1.49e+00	0	37	104	0	69	20178
2026-01-25 11:20:23.11	206.33	7.46	-48.9	-63.3	3.8	1.49e+00	0	37	104	0	69	18873
2026-01-25 11:20:24.10	206.42	7.52	-48.9	-62.5	3.8	1.49e+00	0	37	104	0	69	17222
2026-01-25 11:20:25.10	206.50	7.59	-48.9	-62.1	3.8	1.49e+00	0	37	104	0	69	16385
2026-01-25 11:20:26.09	206.59	7.66	-48.9	-62.2	3.8	1.47e+00	0	37	104	0	69	16566
2026-01-25 11:20:27.08	206.68	7.73	-49.0	-63.0	3.8	1.48e+00	0	37	104	0	69	18217
2026-01-25 11:20:28.08	206.77	7.79	-49.0	-64.3	3.8	1.49e+00	0	37	104	0	69	21189
2026-01-25 11:20:29.07	206.86	7.86	-49.0	-64.3	3.8	1.49e+00	0	37	104	0	69	21048
2026-01-25 11:20:30.06	206.95	7.93	-48.8	-60.9	4.2	1.49e+00	0	37	104	0	69	14294
2026-01-25 11:20:31.06	207.04	7.99	-48.3	-57.1	6.2	8.82e-01	0	37	0	1048576	68	9752
2026-01-25 11:20:32.05	207.13	8.06	-47.4	-54.0	9.1	5.35e-02	0	37	0	3145728	66	7631
2026-01-25 11:20:33.04	207.22	8.13	-46.5	-51.5	11.6	2.66e-03	0	37	0	4194304	65	6118
2026-01-25 11:20:34.03	207.31	8.20	-45.5	-49.5	13.7	6.40e-05	0	37	0	6291456	63	5459
2026-01-25 11:20:35.03	207.40	8.27	-44.7	-48.1	15.1	0.00e+00	0	37	0	8388608	61	5200
2026-01-25 11:20:36.02	207.49	8.33	-44.0	-47.1	16.1	0.00e+00	0	37	0	10485760	60	4906
2026-01-25 11:20:37.01	207.59	8.40	-43.6	-46.5	16.7	0.00e+00	0	37	0	12582912	59	4845
2026-01-25 11:20:38.01	207.68	8.47	-43.6	-46.5	16.7	0.00e+00	0	37	0	13631488	58	5125
2026-01-25 11:20:39.00	207.77	8.54	-43.6	-46.6	16.6	0.00e+00	0	37	0	15728640	58	5165
2026-01-25 11:20:39.99	207.87	8.61	-44.0	-47.0	16.2	0.00e+00	0	37	0	17825792	58	5444
2026-01-25 11:20:40.99	207.96	8.68	-44.6	-48.1	15.2	0.00e+00	0	37	0	19922944	59	5793
2026-01-25 11:20:41.98	208.06	8.74	-45.3	-49.2	14.1	0.00e+00	0	37	0	20971520	61	5870
2026-01-25 11:20:42.97	208.15	8.81	-46.2	-50.8	12.5	3.43e-05	0	37	0	23068672	62	6687
2026-01-25 11:20:43.97	208.25	8.88	-46.8	-52.3	10.8	5.50e-04	0	37	0	25165824	64	7107
2026-01-25 11:20:44.96	208.34	8.95	-47.4	-54.0	9.1	7.16e-03	0	37	0	27262976	65	8105
2026-01-25 11:20:45.95	208.44	9.02	-48.0	-56.1	7.1	1.17e-01	0	37	0	29360128	66	9794
2026-01-25 11:20:46.95	208.54	9.09	-47.9	-55.7	7.4	1.37e-01	0	37	0	30408704	66	9330
2026-01-25 11:20:47.94	208.63	9.16	-48.6	-61.2	4.1	3.91e-01	0	37	0	32505856	67	16572
2026-01-25 11:20:48.93	208.73	9.23	-48.0	-55.7	7.6	7.86e-01	0	37	0	33554432	67	8856
2026-01-25 11:20:49.93	208.83	9.30	-45.9	-50.3	12.9	2.37e-03	0	37	0	35651584	63	5936
2026-01-25 11:20:50.92	208.93	9.37	-48.9	-61.7	4.0	1.64e-01	0	37	0	37748736	68	16576
2026-01-25 11:20:51.92	209.03	9.44	-45.8	-50.1	12.9	7.51e-01	0	38	0	37748736	63	5812
2026-01-25 11:20:52.93	209.13	9.51	-44.8	-48.4	14.7	1.50e-06	0	37	0	39845888	61	5384
2026-01-25 11:20:53.97	209.23	9.59	-44.2	-47.5	15.8	7.00e-07	0	38	0	41943040	60	5110
2026-01-25 11:20:54.96	209.33	9.66	-44.1	-47.2	16.1	0.00e+00	0	38	0	44040192	60	4950
2026-01-25 11:20:55.96	209.44	9.73	-43.7	-46.6	16.6	0.00e+00	0	38	0	45088768	59	4917
2026-01-25 11:20:56.95	209.54	9.80	-43.4	-46.2	17.0	0.00e+00	0	37	0	47185920	58	4980
2026-01-25 11:20:57.95	209.64	9.87	-43.4	-46.2	17.1	0.00e+00	0	37	0	49283072	58	4961
2026-01-25 11:20:58.94	209.74	9.94	-43.0	-45.7	17.5	0.00e+00	0	38	0	51380224	58	4687
2026-01-25 11:20:59.94	209.85	10.01	-43.0	-45.7	17.5	0.00e+00	0	38	0	52428800	57	4963
2026-01-25 11:21:00.93	209.95	10.08	-43.1	-45.8	17.4	0.00e+00	0	38	0	54525952	57	5040
2026-01-25 11:21:01.93	210.05	10.15	-43.0	-45.7	17.6	0.00e+00	0	38	0	56623104	57	4930
2026-01-25 11:21:02.92	210.16	10.22	-42.9	-45.6	17.6	0.00e+00	0	38	0	58720256	57	4900
2026-01-25 11:21:03.92	210.26	10.30	-43.0	-45.7	17.5	0.00e+00	0	38	0	60817408	57	4968
2026-01-25 11:21:04.91	210.37	10.37	-42.9	-45.6	17.6	0.00e+00	0	38	0	61865984	57	4879
2026-01-25 11:21:05.91	210.47	10.44	-42.9	-45.6	17.6	0.00e+00	0	38	0	63963136	57	4875
2026-01-25 11:21:06.90	210.58	10.51	-43.1	-45.9	17.3	0.00e+00	0	37	0	66060288	57	5067
2026-01-25 11:21:07.90	210.69	10.59	-43.0	-45.8	17.3	0.00e+00	0	37	0	68157440	57	5037
2026-01-25 11:21:08.95	210.80	10.66	-43.0	-45.8	17.3	0.00e+00	0	37	0	70254592	57	5035
2026-01-25 11:21:09.87	210.90	10.73	-43.1	-46.0	17.1	0.00e+00	0	38	0	71303168	57	5139
2026-01-25 11:21:10.86	211.01	10.80	-43.1	-46.0	17.1	0.00e+00	0	38	0	73400320	57	5124
2026-01-25 11:21:11.86	211.12	10.87	-43.0	-45.9	17.2	0.00e+00	0	38	0	75497472	57	5061
2026-01-25 11:21:12.85	211.23	10.95	-43.1	-46.0	17.1	0.00e+00	0	38	0	77594624	57	5128
2026-01-25 11:21:13.85	211.34	11.02	-43.2	-46.0	17.1	0.00e+00	0	38	0	78643200	57	5152
2026-01-25 11:21:14.84	211.45	11.09	-43.1	-45.9	17.2	0.00e+00	0	38	0	80740352	57	5088
2026-01-25 11:21:15.83	211.56	11.17	-43.1	-45.9	17.3	0.00e+00	0	38	0	82837504	57	5046
2026-01-25 11:21:16.83	211.67	11.24	-42.9	-45.6	17.6	0.00e+00	0	38	0	84934656	57	4885
2026-01-25 11:21:17.82	211.78	11.31	-42.8	-45.4	17.8	0.00e+00	0	38	0	87031808	57	4803
2026-01-25 11:21:18.82	211.90	11.39	-42.7	-45.3	17.8	0.00e+00	0	38	0	88080384	57	4755
2026-01-25 11:21:19.81	212.01	11.46	-42.7	-45.3	17.9	0.00e+00	0	38	0	90177536	57	4723
2026-01-25 11:21:20.81	212.12	11.53	-42.7	-45.2	18.0	0.00e+00	0	38	0	92274688	57	4697
2026-01-25 11:21:21.85	212.24	11.61	-42.6	-45.1	18.0	0.00e+00	0	38	0	94371840	57	4640
2026-01-25 11:21:22.80	212.35	11.68	-42.6	-45.1	18.1	0.00e+00	0	38	0	95420416	57	4613
2026-01-25 11:21:23.95	212.49	11.77	-42.6	-45.1	18.1	0.00e+00	0	38	0	97517568	56	4897
2026-01-25 11:21:24.80	212.59	11.83	-42.8	-45.4	17.9	0.00e+00	0	38	0	99614720	56	5047
2026-01-25 11:21:26.14	212.74	11.93	-42.8	-45.3	17.9	0.00e+00	0	38	0	101711872	56	5032
2026-01-25 11:21:26.85	212.83	11.98	-42.8	-45.4	17.9	0.00e+00	0	38	0	103809024	56	5049
2026-01-25 11:21:28.13	212.98	12.08	-42.9	-45.6	17.7	0.00e+00	0	38	0	105906176	56	5165
2026-01-25 11:21:28.87	213.07	12.14	-43.0	-45.6	17.6	0.00e+00	0	38	0	106954752	56	5214
2026-01-25 11:21:30.15	213.22	12.23	-43.2	-45.9	17.3	0.00e+00	0	38	0	109051904	57	5052
2026-01-25 11:21:30.91	213.31	12.29	-43.2	-46.0	17.3	0.00e+00	0	38	0	111149056	57	5123
2026-01-25 11:21:32.19	213.47	12.39	-43.2	-46.0	17.3	0.00e+00	0	38	0	113246208	57	5111
2026-01-25 11:21:32.96	213.56	12.44	-43.3	-46.0	17.3	0.00e+00	0	38	0	115343360	57	5117
2026-01-25 11:21:34.24	213.72	12.54	-43.3	-46.1	17.2	0.00e+00	0	38	0	117440512	57	5173
2026-01-25 11:21:34.95	213.81	12.60	-43.3	-46.0	17.2	0.00e+00	0	38	0	118489088	57	5143
2026-01-25 11:21:36.23	213.96	12.69	-43.3	-45.9	17.3	0.00e+00	0	38	0	120586240	57	5093
2026-01-25 11:21:36.97	214.06	12.75	-43.2	-45.9	17.4	0.00e+00	0	38	0	122683392	57	5060
2026-01-25 11:21:38.25	214.21	12.85	-43.2	-45.9	17.5	0.00e+00	0	38	0	124780544	57	5043
2026-01-25 11:21:39.18	214.33	12.92	-43.1	-45.8	17.5	0.00e+00	0	38	0	126877696	57	4992
2026-01-25 11:21:40.46	214.49	13.02	-43.3	-46.0	17.3	0.00e+00	0	38	0	128974848	57	5128
2026-01-25 11:21:41.21	214.59	13.07	-43.2	-45.9	17.4	0.00e+00	0	38	0	130023424	57	5045
2026-01-25 11:21:42.49	214.75	13.17	-43.2	-45.9	17.4	0.00e+00	0	38	0	133169152	57	5079
2026-01-25 11:21:43.23	214.85	13.23	-43.2	-45.8	17.4	0.00e+00	0	38	0	134217728	57	5026
2026-01-25 11:21:44.84	215.05	13.35	-43.2	-45.8	17.5	0.00e+00	0	38	0	137363456	57	4999
2026-01-25 11:21:45.41	215.13	13.40	-43.1	-45.7	17.5	0.00e+00	0	38	0	138412032	57	4968
2026-01-25 11:21:47.11	215.35	13.53	-43.3	-46.0	17.4	0.00e+00	0	38	0	141557760	57	5101
2026-01-25 11:21:47.71	215.43	13.57	-43.1	-45.7	17.6	0.00e+00	0	38	0	142606336	57	4945
2026-01-25 11:21:49.27	215.63	13.70	-43.1	-45.7	17.6	0.00e+00	0	38	0	145752064	57	4978
2026-01-25 11:21:49.98	215.73	13.75	-43.2	-45.8	17.5	0.00e+00	0	38	0	146800640	57	5017
2026-01-25 11:21:51.27	215.90	13.85	-43.1	-45.8	17.6	0.00e+00	0	38	0	148897792	57	4985
2026-01-25 11:21:52.00	216.00	13.91	-43.3	-46.0	17.4	0.00e+00	0	38	0	150994944	57	5110
2026-01-25 11:21:53.28	216.17	14.01	-43.3	-45.9	17.4	0.00e+00	0	38	0	153092096	57	5100
2026-01-25 11:21:53.99	216.26	14.06	-43.2	-45.9	17.4	0.00e+00	0	38	0	154140672	57	5047
2026-01-25 11:21:55.27	216.44	14.16	-43.1	-45.7	17.6	0.00e+00	0	38	0	156237824	57	4972
2026-01-25 11:21:55.99	216.54	14.22	-43.0	-45.6	17.7	0.00e+00	0	38	0	158334976	57	4925
2026-01-25 11:21:57.27	216.71	14.32	-42.9	-45.4	17.8	0.00e+00	0	38	0	160432128	57	4802
2026-01-25 11:21:57.98	216.81	14.38	-43.0	-45.6	17.7	0.00e+00	0	38	0	161480704	57	4903
2026-01-25 11:21:59.26	216.99	14.48	-42.8	-45.3	18.0	0.00e+00	0	38	0	164626432	57	4748
2026-01-25 11:21:59.97	217.09	14.53	-42.9	-45.4	17.9	0.00e+00	0	38	0	165675008	57	4784
2026-01-25 11:22:01.26	217.27	14.63	-42.8	-45.3	18.0	0.00e+00	0	38	0	167772160	57	4741
2026-01-25 11:22:02.28	217.41	14.71	-42.6	-45.1	18.2	0.00e+00	0	38	0	169869312	57	4615
2026-01-25 11:22:03.27	217.55	14.79	-42.5	-44.9	18.4	0.00e+00	0	38	0	171966464	56	4787
2026-01-25 11:22:04.27	217.70	14.87	-42.6	-45.0	18.3	0.00e+00	0	38	0	174063616	56	4861
2026-01-25 11:22:05.26	217.84	14.95	-42.5	-45.0	18.3	0.00e+00	0	38	0	175112192	56	4840
2026-01-25 11:22:06.26	217.98	15.03	-42.7	-45.1	18.2	0.00e+00	0	38	0	177209344	56	4920
2026-01-25 11:22:07.25	218.12	15.11	-42.7	-45.2	18.1	0.00e+00	0	38	0	179306496	56	4971
2026-01-25 11:22:08.25	218.27	15.19	-43.0	-45.6	17.8	0.00e+00	0	38	0	181403648	56	5161
2026-01-25 11:22:09.24	218.41	15.27	-42.9	-45.4	17.9	0.00e+00	0	38	0	182452224	56	5076
2026-01-25 11:22:10.23	218.56	15.35	-43.1	-45.7	17.7	0.00e+00	0	38	0	184549376	56	5235
2026-01-25 11:22:11.23	218.71	15.42	-43.1	-45.7	17.6	0.00e+00	0	38	0	186646528	56	5270
2026-01-25 11:22:12.22	218.85	15.50	-43.0	-45.6	17.7	0.00e+00	0	38	0	188743680	57	4906
2026-01-25 11:22:13.22	219.00	15.58	-43.0	-45.6	17.8	0.00e+00	0	38	0	190840832	57	4902
2026-01-25 11:22:14.43	219.19	15.68	-43.1	-45.7	17.7	0.00e+00	0	38	0	192937984	57	4969
2026-01-25 11:22:15.32	219.32	15.75	-43.1	-45.7	17.7	0.00e+00	0	38	0	193986560	57	4927
2026-01-25 11:22:16.46	219.49	15.84	-43.0	-45.5	17.9	0.00e+00	0	38	0	196083712	57	4850
2026-01-25 11:22:17.31	219.62	15.91	-43.2	-45.8	17.6	0.00e+00	0	38	0	198180864	57	4999
2026-01-25 11:22:18.44	219.80	16.00	-43.0	-45.6	17.8	0.00e+00	0	38	0	200278016	57	4898
2026-01-25 11:22:19.30	219.93	16.07	-43.1	-45.7	17.7	0.00e+00	0	38	0	201326592	57	4927
2026-01-25 11:22:20.43	220.10	16.16	-43.0	-45.6	17.7	0.00e+00	0	38	0	203423744	57	4909
2026-01-25 11:22:21.29	220.24	16.23	-43.0	-45.5	17.8	0.00e+00	0	38	0	205520896	57	4866
2026-01-25 11:22:22.42	220.41	16.32	-42.9	-45.5	17.9	0.00e+00	0	38	0	207618048	57	4836
2026-01-25 11:22:23.28	220.55	16.39	-42.9	-45.5	17.9	0.00e+00	0	38	0	209715200	57	4831
2026-01-25 11:22:24.41	220.73	16.48	-42.9	-45.5	17.9	0.00e+00	0	38	0	211812352	57	4820
2026-01-25 11:22:25.27	220.86	16.55	-42.7	-45.2	18.1	0.00e+00	0	38	0	212860928	57	4700
2026-01-25 11:22:26.41	221.05	16.64	-42.7	-45.2	18.2	0.00e+00	0	38	0	214958080	57	4675
2026-01-25 11:22:27.26	221.18	16.71	-42.7	-45.1	18.3	0.00e+00	0	38	0	217055232	57	4638
2026-01-25 11:22:28.49	221.38	16.81	-42.6	-45.1	18.4	0.00e+00	0	38	0	219152384	57	4605
2026-01-25 11:22:29.34	221.52	16.88	-42.4	-44.8	18.6	0.00e+00	0	38	0	220200960	56	4742
2026-01-25 11:22:30.48	221.71	16.97	-42.4	-44.8	18.6	0.00e+00	0	38	0	222298112	56	4722
2026-01-25 11:22:31.33	221.85	17.04	-42.4	-44.8	18.6	0.00e+00	0	38	0	224395264	56	4723
2026-01-25 11:22:32.60	222.06	17.15	-42.1	-44.4	18.9	0.00e+00	0	38	0	226492416	56	4526
2026-01-25 11:22:33.81	222.26	17.24	-41.8	-44.1	19.0	0.00e+00	0	38	0	228589568	55	4619
2026-01-25 11:22:34.66	222.40	17.31	-41.8	-44.1	19.0	0.00e+00	0	38	0	230686720	55	4631
2026-01-25 11:22:35.80	222.59	17.41	-41.6	-43.8	19.3	0.00e+00	0	38	0	232783872	55	4467
2026-01-25 11:22:36.65	222.73	17.47	-41.7	-43.9	19.2	0.00e+00	0	38	0	233832448	55	4529
2026-01-25 11:22:37.79	222.93	17.57	-41.8	-44.1	19.2	0.00e+00	0	38	0	235929600	55	4608
2026-01-25 11:22:38.64	223.07	17.64	-41.7	-43.9	19.2	0.00e+00	0	38	0	238026752	55	4537
2026-01-25 11:22:39.78	223.27	17.73	-41.7	-44.0	19.1	0.00e+00	0	38	0	240123904	55	4569
2026-01-25 11:22:40.63	223.41	17.80	-42.0	-44.3	18.8	0.00e+00	0	38	0	242221056	55	4750
2026-01-25 11:22:41.91	223.63	17.90	-42.1	-44.4	18.8	0.00e+00	0	38	0	244318208	55	4811
2026-01-25 11:22:42.64	223.76	17.96	-42.2	-44.5	18.7	0.00e+00	0	38	0	245366784	55	4861
2026-01-25 11:22:43.92	223.99	18.07	-42.3	-44.6	18.6	0.00e+00	0	38	0	247463936	55	4913
2026-01-25 11:22:44.63	224.11	18.12	-42.2	-44.6	18.7	0.00e+00	0	38	0	249561088	55	4883
2026-01-25 11:22:45.91	224.34	18.23	-42.1	-44.5	18.8	0.00e+00	0	38	0	251658240	55	4834
2026-01-25 11:22:46.66	224.47	18.29	-42.5	-44.9	18.3	0.00e+00	0	38	0	252706816	55	5077
2026-01-25 11:22:48.24	224.75	18.42	-42.2	-44.6	18.6	0.00e+00	0	38	0	255852544	55	4891
2026-01-25 11:22:48.88	224.87	18.47	-42.4	-44.8	18.5	0.00e+00	0	38	0	256901120	55	5004
2026-01-25 11:22:50.38	225.14	18.59	-42.3	-44.7	18.5	0.00e+00	0	38	0	260046848	55	4954
2026-01-25 11:22:51.09	225.27	18.65	-42.2	-44.6	18.7	0.00e+00	0	38	0	261095424	55	4876
2026-01-25 11:22:52.38	225.51	18.76	-42.0	-44.4	18.8	0.00e+00	0	38	0	264241152	55	4763
2026-01-25 11:22:53.09	225.64	18.81	-41.9	-44.2	19.0	0.00e+00	0	38	0	265289728	55	4700
2026-01-25 11:22:54.40	225.88	18.92	-42.0	-44.3	18.9	0.00e+00	0	38	0	267386880	55	4756
2026-01-25 11:22:55.11	226.01	18.98	-41.9	-44.2	19.0	0.00e+00	0	38	0	268435456	55	4658
2026-01-25 11:22:56.42	226.25	19.08	-41.8	-44.1	19.0	0.00e+00	0	38	0	271581184	55	4639
2026-01-25 11:22:57.14	226.39	19.14	-41.7	-44.0	19.2	0.00e+00	0	38	0	272629760	55	4559
2026-01-25 11:22:58.42	226.63	19.25	-41.8	-44.0	19.2	0.00e+00	0	38	0	274726912	55	4588
2026-01-25 11:22:59.13	226.77	19.30	-41.7	-43.9	19.2	0.00e+00	0	38	0	276824064	55	4529
2026-01-25 11:23:00.40	227.01	19.41	-41.7	-44.0	19.2	0.00e+00	0	38	0	278921216	55	4549
2026-01-25 11:23:01.13	227.15	19.47	-41.7	-43.9	19.2	0.00e+00	0	38	0	279969792	55	4537
2026-01-25 11:23:02.41	227.40	19.57	-41.5	-43.8	19.4	0.00e+00	0	38	0	282066944	54	4720
2026-01-25 11:23:03.12	227.53	19.63	-41.6	-43.8	19.4	0.00e+00	0	38	0	284164096	54	4728
2026-01-25 11:23:04.39	227.78	19.73	-41.7	-44.0	19.2	0.00e+00	0	38	0	286261248	54	4847
2026-01-25 11:23:05.12	227.92	19.79	-41.7	-44.0	19.2	0.00e+00	0	38	0	287309824	54	4836
2026-01-25 11:23:06.71	228.24	19.92	-41.7	-43.9	19.3	0.00e+00	0	38	0	290455552	54	4802
2026-01-25 11:23:07.28	228.35	19.96	-41.7	-44.0	19.2	0.00e+00	0	38	0	291504128	54	4824
2026-01-25 11:23:08.99	228.69	20.10	-41.5	-43.7	19.5	0.00e+00	0	38	0	294649856	54	4684
2026-01-25 11:23:09.56	228.80	20.15	-41.4	-43.7	19.5	0.00e+00	0	38	0	295698432	54	4653
2026-01-25 11:23:11.26	229.15	20.29	-41.4	-43.6	19.6	0.00e+00	0	38	0	298844160	54	4633
2026-01-25 11:23:11.83	229.26	20.33	-41.5	-43.7	19.4	0.00e+00	0	38	0	299892736	54	4687
2026-01-25 11:23:13.54	229.61	20.47	-41.4	-43.6	19.5	0.00e+00	0	38	0	303038464	54	4620
2026-01-25 11:23:14.10	229.73	20.51	-41.5	-43.7	19.5	0.00e+00	0	38	0	304087040	54	4658
2026-01-25 11:23:15.87	230.09	20.65	-41.6	-43.8	19.4	0.00e+00	0	38	0	308281344	54	4734
2026-01-25 11:23:16.44	230.21	20.70	-41.5	-43.7	19.5	0.00e+00	0	38	0	309329920	54	4686
2026-01-25 11:23:18.14	230.56	20.84	-41.3	-43.5	19.7	0.00e+00	0	38	0	312475648	54	4584
2026-01-25 11:23:18.71	230.68	20.88	-41.4	-43.6	19.5	0.00e+00	0	38	0	313524224	54	4638
2026-01-25 11:23:20.54	231.07	21.03	-41.8	-44.0	19.2	0.00e+00	0	38	0	316669952	54	4848
2026-01-25 11:23:21.11	231.19	21.07	-41.8	-44.1	19.2	0.00e+00	0	38	0	317718528	54	4871
2026-01-25 11:23:22.81	231.55	21.21	-42.0	-44.3	19.0	0.00e+00	0	38	0	320864256	54	4998
2026-01-25 11:23:23.51	231.70	21.26	-42.1	-44.4	18.8	0.00e+00	0	38	0	321912832	54	5063
2026-01-25 11:23:24.91	232.01	21.37	-41.8	-44.0	19.2	0.00e+00	0	38	0	325058560	54	4854
2026-01-25 11:23:25.70	232.18	21.43	-41.7	-44.0	19.2	0.00e+00	0	38	0	326107136	54	4841
2026-01-25 11:23:26.89	232.44	21.53	-41.6	-43.9	19.4	0.00e+00	0	38	0	328204288	54	4766
2026-01-25 11:23:27.74	232.62	21.59	-41.6	-43.8	19.4	0.00e+00	0	38	0	330301440	54	4756
2026-01-25 11:23:28.88	232.88	21.68	-41.7	-43.9	19.3	0.00e+00	0	38	0	332398592	54	4813
2026-01-25 11:23:29.74	233.07	21.75	-41.9	-44.2	19.0	0.00e+00	0	38	0	333447168	54	4936
2026-01-25 11:23:30.87	233.32	21.84	-41.7	-44.0	19.3	0.00e+00	0	38	0	335544320	54	4846
2026-01-25 11:23:31.72	233.51	21.90	-41.8	-44.0	19.2	0.00e+00	0	38	0	337641472	54	4868
2026-01-25 11:23:32.86	233.76	21.99	-41.7	-44.0	19.2	0.00e+00	0	38	0	339738624	54	4837
2026-01-25 11:23:33.71	233.96	22.06	-41.8	-44.0	19.2	0.00e+00	0	38	0	340787200	54	4858
2026-01-25 11:23:34.85	234.21	22.14	-41.7	-43.9	19.2	0.00e+00	0	38	0	342884352	54	4785
2026-01-25 11:23:35.70	234.41	22.21	-41.7	-43.9	19.3	0.00e+00	0	38	0	344981504	54	4794
2026-01-25 11:23:36.91	234.69	22.30	-41.7	-44.0	19.3	0.00e+00	0	38	0	347078656	54	4827
2026-01-25 11:23:37.77	234.88	22.37	-41.7	-43.9	19.2	0.00e+00	0	38	0	349175808	54	4790
2026-01-25 11:23:38.91	235.15	22.45	-41.7	-44.0	19.2	0.00e+00	0	38	0	351272960	54	4848
2026-01-25 11:23:39.76	235.35	22.52	-41.7	-43.9	19.3	0.00e+00	0	38	0	352321536	54	4812
2026-01-25 11:23:40.99	235.63	22.61	-41.8	-44.1	19.1	0.00e+00	0	38	0	354418688	54	4888
2026-01-25 11:23:41.84	235.83	22.67	-41.7	-44.0	19.2	0.00e+00	0	38	0	356515840	54	4868
2026-01-25 11:23:42.98	236.10	22.76	-41.8	-44.1	19.2	0.00e+00	0	38	0	358612992	54	4896
2026-01-25 11:23:43.83	236.30	22.82	-41.8	-44.1	19.2	0.00e+00	0	38	0	360710144	54	4871
2026-01-25 11:23:44.97	236.57	22.91	-41.8	-44.1	19.1	0.00e+00	0	38	0	362807296	54	4892
2026-01-25 11:23:45.82	236.78	22.97	-41.5	-43.7	19.4	0.00e+00	0	38	0	363855872	54	4703
2026-01-25 11:23:46.96	237.05	23.06	-41.5	-43.7	19.5	0.00e+00	0	38	0	365953024	54	4672
2026-01-25 11:23:47.81	237.26	23.12	-41.4	-43.6	19.6	0.00e+00	0	38	0	368050176	54	4610
2026-01-25 11:23:48.95	237.53	23.20	-41.4	-43.5	19.7	0.00e+00	0	38	0	370147328	54	4589
2026-01-25 11:23:49.80	237.74	23.26	-41.4	-43.6	19.6	0.00e+00	0	38	0	371195904	54	4635
2026-01-25 11:23:50.94	238.02	23.35	-41.4	-43.6	19.6	0.00e+00	0	38	0	373293056	54	4629
2026-01-25 11:23:51.79	238.23	23.41	-41.5	-43.8	19.5	0.00e+00	0	38	0	375390208	54	4709
2026-01-25 11:23:52.92	238.51	23.49	-41.8	-44.0	19.2	0.00e+00	0	38	0	377487360	54	4866
2026-01-25 11:23:53.78	238.72	23.55	-42.1	-44.4	19.0	0.00e+00	0	38	0	378535936	54	5062
2026-01-25 11:23:54.91	239.00	23.63	-42.2	-44.6	18.7	0.00e+00	0	38	0	380633088	55	4875
2026-01-25 11:23:55.76	239.21	23.69	-42.2	-44.6	18.7	0.00e+00	0	38	0	382730240	55	4902
2026-01-25 11:23:56.90	239.50	23.77	-42.2	-44.6	18.6	0.00e+00	0	38	0	384827392	55	4906
2026-01-25 11:23:57.75	239.72	23.83	-42.1	-44.5	18.8	0.00e+00	0	38	0	385875968	55	4850
2026-01-25 11:23:58.89	240.00	23.91	-41.7	-44.0	19.2	0.00e+00	0	38	0	387973120	55	4579
2026-01-25 11:23:59.74	240.22	23.97	-41.7	-44.0	19.3	0.00e+00	0	38	0	390070272	55	4575
2026-01-25 11:24:00.88	240.51	24.05	-41.7	-44.0	19.2	0.00e+00	0	38	0	392167424	55	4588
2026-01-25 11:24:01.73	240.73	24.10	-41.7	-44.0	19.2	0.00e+00	0	38	0	394264576	55	4597
2026-01-25 11:24:03.09	241.08	24.20	-41.5	-43.7	19.5	0.00e+00	0	38	0	396361728	55	4425
2026-01-25 11:24:03.80	241.27	24.24	-41.4	-43.6	19.6	0.00e+00	0	38	0	397410304	54	4632
2026-01-25 11:24:05.10	241.60	24.33	-41.5	-43.7	19.6	0.00e+00	0	38	0	400556032	54	4673
2026-01-25 11:24:06.28	241.91	24.41	-41.7	-43.9	19.3	0.00e+00	0	38	0	402653184	54	4810
2026-01-25 11:24:07.13	242.14	24.47	-41.8	-44.1	19.2	0.00e+00	0	38	0	403701760	54	4903
2026-01-25 11:24:08.27	242.44	24.54	-42.3	-44.8	18.6	0.00e+00	0	38	0	405798912	55	4988
2026-01-25 11:24:09.12	242.66	24.60	-42.3	-44.7	18.6	0.00e+00	0	38	0	407896064	55	4968
2026-01-25 11:24:10.27	242.97	24.67	-42.2	-44.7	18.7	0.00e+00	0	38	0	409993216	55	4938
2026-01-25 11:24:11.12	243.19	24.72	-42.0	-44.3	19.0	0.00e+00	0	38	0	411041792	55	4742
2026-01-25 11:24:12.33	243.52	24.80	-41.4	-43.7	19.6	0.00e+00	0	38	0	414187520	54	4659
2026-01-25 11:24:13.18	243.75	24.85	-41.4	-43.6	19.6	0.00e+00	0	38	0	415236096	54	4629
2026-01-25 11:24:14.31	244.05	24.93	-41.6	-43.8	19.4	0.00e+00	0	38	0	417333248	54	4753
2026-01-25 11:24:15.17	244.28	24.98	-42.0	-44.4	19.0	0.00e+00	0	38	0	419430400	54	5057
2026-01-25 11:24:16.30	244.59	25.05	-42.9	-45.4	18.1	0.00e+00	0	38	0	421527552	56	5070
2026-01-25 11:24:17.16	244.83	25.10	-43.0	-45.5	18.1	0.00e+00	0	38	0	422576128	56	5137
2026-01-25 11:24:18.50	245.19	25.18	-43.2	-45.8	17.8	0.00e+00	0	38	0	425721856	57	5013
2026-01-25 11:24:19.21	245.39	25.22	-43.2	-45.8	17.8	0.00e+00	0	38	0	426770432	57	5014
2026-01-25 11:24:20.49	245.74	25.30	-43.1	-45.6	18.0	0.00e+00	0	38	0	428867584	57	4883
2026-01-25 11:24:21.20	245.94	25.34	-43.3	-45.8	17.8	0.00e+00	0	38	0	429916160	57	5032
2026-01-25 11:24:22.48	246.30	25.42	-43.2	-45.8	17.8	0.00e+00	0	38	0	433061888	57	4988
2026-01-25 11:24:23.21	246.50	25.46	-43.2	-45.8	17.8	0.00e+00	0	38	0	434110464	57	5001
2026-01-25 11:24:24.85	246.96	25.55	-43.0	-45.5	18.0	0.00e+00	0	38	0	437256192	57	4854
2026-01-25 11:24:25.42	247.12	25.58	-42.9	-45.3	18.2	0.00e+00	0	38	0	438304768	57	4746
2026-01-25 11:24:27.12	247.60	25.68	-43.2	-45.7	17.8	0.00e+00	0	38	0	441450496	57	4972
2026-01-25 11:24:27.69	247.76	25.71	-43.1	-45.6	17.9	0.00e+00	0	38	0	442499072	57	4898
2026-01-25 11:24:29.40	248.25	25.80	-43.7	-46.4	17.3	0.00e+00	0	38	0	445644800	57	5356
2026-01-25 11:24:29.97	248.41	25.83	-43.7	-46.5	17.2	0.00e+00	0	38	0	446693376	58	5117
2026-01-25 11:24:31.67	248.90	25.92	-44.2	-47.1	16.6	0.00e+00	0	38	0	449839104	59	5165
2026-01-25 11:24:32.42	249.12	25.96	-44.1	-46.9	16.8	0.00e+00	0	38	0	450887680	59	5061
2026-01-25 11:24:33.69	249.49	26.03	-44.2	-47.1	16.6	0.00e+00	0	38	0	454033408	59	5190
2026-01-25 11:24:34.40	249.69	26.06	-44.3	-47.2	16.5	0.00e+00	0	38	0	455081984	59	5233
2026-01-25 11:24:35.68	250.06	26.13	-44.0	-46.9	16.8	0.00e+00	0	38	0	457179136	59	5042
2026-01-25 11:24:36.41	250.28	26.16	-44.0	-46.8	16.9	0.00e+00	0	38	0	459276288	59	5012
2026-01-25 11:24:37.69	250.65	26.22	-44.3	-47.1	16.5	0.00e+00	0	38	0	461373440	59	5213
2026-01-25 11:24:38.41	250.86	26.26	-44.2	-47.1	16.5	0.00e+00	0	38	0	462422016	59	5195
2026-01-25 11:24:39.69	251.24	26.32	-44.7	-47.9	15.9	0.00e+00	0	38	0	464519168	60	5359
2026-01-25 11:24:40.40	251.45	26.35	-44.8	-48.0	15.7	0.00e+00	0	38	0	466616320	60	5443
2026-01-25 11:24:41.68	251.83	26.41	-44.9	-48.2	15.6	0.00e+00	0	38	0	468713472	60	5530
2026-01-25 11:24:42.39	252.04	26.44	-44.5	-47.6	16.1	0.00e+00	0	38	0	469762048	60	5201
2026-01-25 11:24:43.67	252.42	26.50	-44.0	-46.9	16.8	0.00e+00	0	38	0	472907776	60	4791
2026-01-25 11:24:44.39	252.64	26.53	-43.8	-46.5	17.1	0.00e+00	0	38	0	473956352	59	4866
2026-01-25 11:24:45.67	253.02	26.59	-43.6	-46.2	17.3	0.00e+00	0	38	0	476053504	59	4703
2026-01-25 11:24:46.50	253.27	26.62	-43.7	-46.4	17.2	0.00e+00	0	38	0	478150656	58	5089
2026-01-25 11:24:47.63	253.61	26.67	-44.1	-47.1	16.5	0.00e+00	0	38	0	480247808	59	5163
2026-01-25 11:24:48.69	253.93	26.71	-44.4	-47.3	16.4	0.00e+00	0	38	0	482344960	59	5327
2026-01-25 11:24:49.72	254.24	26.75	-44.2	-47.1	16.6	0.00e+00	0	38	0	483393536	59	5186
2026-01-25 11:24:50.72	254.54	26.79	-44.4	-47.3	16.3	0.00e+00	0	38	0	485490688	59	5339
2026-01-25 11:24:51.93	254.91	26.84	-44.2	-47.0	16.7	0.00e+00	0	38	0	487587840	59	5125
2026-01-25 11:24:52.81	255.18	26.87	-44.6	-47.6	16.1	0.00e+00	0	38	0	489684992	59	5512
2026-01-25 11:24:54.13	255.58	26.92	-45.2	-48.6	15.2	0.00e+00	0	38	0	491782144	61	5499
2026-01-25 11:24:55.26	255.93	26.96	-45.5	-49.0	14.8	1.50e-06	0	38	0	493879296	61	5752
2026-01-25 11:24:56.11	256.19	26.98	-45.2	-48.5	15.3	7.00e-07	0	38	0	495976448	61	5435
2026-01-25 11:24:57.25	256.54	27.02	-44.8	-48.0	15.8	0.00e+00	0	38	0	498073600	61	5106
2026-01-25 11:24:58.10	256.80	27.05	-44.9	-48.1	15.8	0.00e+00	0	38	0	499122176	61	5191
2026-01-25 11:24:59.30	257.17	27.09	-45.1	-48.4	15.4	0.00e+00	0	38	0	501219328	61	5344
2026-01-25 11:25:00.16	257.44	27.12	-45.5	-49.0	14.8	0.00e+00	0	38	0	503316480	61	5745
2026-01-25 11:25:01.37	257.81	27.15	-45.9	-49.7	14.0	0.00e+00	0	38	0	505413632	62	5896
2026-01-25 11:25:02.22	258.08	27.18	-45.5	-48.9	14.9	0.00e+00	0	38	0	507510784	62	5391
2026-01-25 11:25:03.43	258.45	27.21	-44.8	-48.0	15.7	0.00e+00	0	38	0	509607936	61	5118
2026-01-25 11:25:04.28	258.72	27.23	-44.7	-47.8	15.9	0.00e+00	0	38	0	510656512	61	5007
2026-01-25 11:25:05.48	259.09	27.27	-44.3	-47.3	16.5	0.00e+00	0	38	0	513802240	60	5013
2026-01-25 11:25:06.33	259.36	27.29	-44.5	-47.5	16.2	0.00e+00	0	38	0	514850816	60	5146
2026-01-25 11:25:07.47	259.71	27.32	-44.7	-47.8	16.1	0.00e+00	0	38	0	516947968	60	5313
2026-01-25 11:25:08.32	259.98	27.34	-44.8	-47.9	15.8	0.00e+00	0	38	0	519045120	60	5395
2026-01-25 11:25:09.58	260.38	27.37	-45.0	-48.3	15.4	0.00e+00	0	38	0	521142272	60	5648
2026-01-25 11:25:10.39	260.63	27.38	-45.2	-48.7	15.1	0.00e+00	0	38	0	522190848	61	5540
2026-01-25 11:25:11.64	261.03	27.41	-45.8	-49.4	14.4	0.00e+00	0	38	0	525336576	62	5706
2026-01-25 11:25:12.49	261.29	27.43	-45.9	-49.7	14.1	3.00e-06	0	38	0	526385152	62	5880
2026-01-25 11:25:13.70	261.68	27.45	-45.8	-49.5	14.3	3.80e-06	0	38	0	528482304	62	5778
2026-01-25 11:25:14.56	261.95	27.47	-45.7	-49.4	14.4	1.50e-06	0	38	0	530579456	62	5693
2026-01-25 11:25:15.69	262.31	27.48	-45.4	-48.9	14.9	7.00e-07	0	38	0	532676608	62	5367
2026-01-25 11:25:16.54	262.57	27.50	-45.0	-48.2	15.6	0.00e+00	0	38	0	533725184	61	5251
2026-01-25 11:25:17.68	262.94	27.52	-44.7	-47.9	15.8	0.00e+00	0	38	0	535822336	61	5091
2026-01-25 11:25:18.53	263.21	27.53	-44.6	-47.7	16.0	0.00e+00	0	38	0	537919488	61	4980
2026-01-25 11:25:19.67	263.57	27.54	-44.7	-48.0	15.7	0.00e+00	0	38	0	540016640	61	5148
2026-01-25 11:25:20.52	263.84	27.56	-44.9	-48.3	15.5	0.00e+00	0	38	0	541065216	61	5292
2026-01-25 11:25:21.66	264.20	27.57	-45.1	-48.6	15.3	0.00e+00	0	38	0	543162368	61	5483
2026-01-25 11:25:22.51	264.47	27.58	-45.1	-48.4	15.4	0.00e+00	0	38	0	545259520	61	5379
2026-01-25 11:25:23.65	264.83	27.59	-45.1	-48.4	15.3	0.00e+00	0	38	0	547356672	61	5390
2026-01-25 11:25:24.50	265.11	27.60	-45.2	-48.5	15.3	0.00e+00	0	38	0	549453824	61	5415
2026-01-25 11:25:25.64	265.47	27.61	-45.0	-48.3	15.6	0.00e+00	0	38	0	551550976	61	5318
2026-01-25 11:25:26.79	265.84	27.61	-44.7	-47.8	15.9	0.00e+00	0	38	0	553648128	61	5039
2026-01-25 11:25:27.82	266.16	27.62	-44.5	-47.5	16.2	0.00e+00	0	38	0	555745280	60	5144
2026-01-25 11:25:28.81	266.48	27.63	-44.4	-47.4	16.3	0.00e+00	0	38	0	556793856	60	5095
2026-01-25 11:25:29.81	266.80	27.63	-44.4	-47.4	16.4	0.00e+00	0	38	0	558891008	60	5088
2026-01-25 11:25:30.80	267.12	27.63	-44.6	-47.6	16.1	0.00e+00	0	38	0	560988160	60	5213
2026-01-25 11:25:31.80	267.44	27.64	-44.3	-47.3	16.5	0.00e+00	0	38	0	563085312	60	4984
2026-01-25 11:25:32.79	267.75	27.64	-44.3	-47.3	16.5	0.00e+00	0	38	0	564133888	60	5004
2026-01-25 11:25:33.79	268.07	27.64	-44.2	-47.1	16.6	0.00e+00	0	38	0	566231040	60	4909
2026-01-25 11:25:34.78	268.39	27.64	-44.5	-47.5	16.2	0.00e+00	0	38	0	568328192	60	5132
2026-01-25 11:25:35.78	268.71	27.64	-44.9	-48.1	15.6	0.00e+00	0	38	0	570425344	60	5517
2026-01-25 11:25:36.78	269.03	27.63	-45.1	-48.5	15.2	0.00e+00	0	38	0	572522496	60	5777
2026-01-25 11:25:37.77	269.34	27.63	-45.2	-48.6	15.2	0.00e+00	0	38	0	573571072	61	5520
2026-01-25 11:25:38.84	269.68	27.63	-45.1	-48.5	15.3	0.00e+00	0	38	0	575668224	61	5428
2026-01-25 11:25:39.73	269.97	27.62	-45.2	-48.6	15.2	0.00e+00	0	38	0	577765376	61	5475
2026-01-25 11:25:40.86	270.33	27.61	-45.4	-48.9	14.9	0.00e+00	0	38	0	579862528	61	5667
2026-01-25 11:25:41.71	270.60	27.61	-45.5	-49.1	14.7	7.00e-07	0	38	0	580911104	61	5809
2026-01-25 11:25:42.85	270.96	27.60	-45.4	-49.0	14.8	0.00e+00	0	38	0	583008256	61	5737
2026-01-25 11:25:43.70	271.23	27.59	-45.1	-48.5	15.3	7.00e-07	0	38	0	585105408	61	5411
2026-01-25 11:25:44.84	271.60	27.58	-44.5	-47.5	16.3	0.00e+00	0	38	0	587202560	61	4853
2026-01-25 11:25:45.69	271.87	27.57	-44.1	-47.0	16.8	0.00e+00	0	38	0	588251136	60	4826
2026-01-25 11:25:46.83	272.23	27.56	-43.8	-46.5	17.1	0.00e+00	0	38	0	591396864	59	4840
2026-01-25 11:25:47.68	272.50	27.55	-43.7	-46.4	17.3	0.00e+00	0	38	0	592445440	59	4790
2026-01-25 11:25:48.82	272.86	27.53	-43.5	-46.1	17.5	0.00e+00	0	38	0	594542592	58	4921
2026-01-25 11:25:49.67	273.13	27.52	-43.4	-45.9	17.7	0.00e+00	0	38	0	596639744	58	4814
2026-01-25 11:25:50.81	273.49	27.50	-43.1	-45.7	18.0	0.00e+00	0	38	0	598736896	58	4662
2026-01-25 11:25:51.66	273.76	27.49	-43.0	-45.5	18.1	0.00e+00	0	38	0	599785472	58	4586
2026-01-25 11:25:52.80	274.12	27.47	-43.4	-46.0	17.6	0.00e+00	0	38	0	601882624	58	4863
2026-01-25 11:25:53.65	274.39	27.45	-43.7	-46.4	17.3	0.00e+00	0	38	0	603979776	58	5066
2026-01-25 11:25:54.79	274.75	27.43	-44.2	-47.1	16.6	0.00e+00	0	38	0	606076928	59	5180
2026-01-25 11:25:55.64	275.02	27.41	-44.6	-47.6	16.1	0.00e+00	0	38	0	607125504	59	5480
2026-01-25 11:25:56.78	275.38	27.39	-44.5	-47.5	16.3	0.00e+00	0	38	0	609222656	59	5410
2026-01-25 11:25:57.69	275.66	27.37	-44.5	-47.5	16.2	0.00e+00	0	38	0	611319808	59	5447
2026-01-25 11:25:58.88	276.03	27.34	-44.4	-47.3	16.5	0.00e+00	0	38	0	613416960	59	5282
2026-01-25 11:25:59.73	276.30	27.32	-44.5	-47.4	16.4	0.00e+00	0	38	0	615514112	59	5344
2026-01-25 11:26:00.87	276.66	27.29	-44.3	-47.2	16.5	0.00e+00	0	38	0	617611264	59	5244
2026-01-25 11:26:01.80	276.95	27.27	-44.3	-47.1	16.5	0.00e+00	0	38	0	618659840	59	5191
2026-01-25 11:26:02.97	277.31	27.24	-44.2	-46.9	16.8	0.00e+00	0	38	0	620756992	59	5073
2026-01-25 11:26:03.82	277.58	27.22	-43.9	-46.6	17.1	0.00e+00	0	38	0	622854144	59	4914
2026-01-25 11:26:04.96	277.93	27.19	-43.8	-46.5	17.2	0.00e+00	0	38	0	624951296	59	4854
2026-01-25 11:26:05.81	278.19	27.16	-43.7	-46.3	17.4	0.00e+00	0	38	0	625999872	59	4729
2026-01-25 11:26:06.94	278.54	27.13	-43.8	-46.5	17.1	0.00e+00	0	38	0	628097024	59	4868
2026-01-25 11:26:07.79	278.81	27.10	-43.8	-46.5	17.1	0.00e+00	0	38	0	630194176	59	4833
2026-01-25 11:26:08.93	279.16	27.07	-43.8	-46.4	17.3	0.00e+00	0	38	0	632291328	59	4803
2026-01-25 11:26:09.78	279.42	27.04	-43.8	-46.5	17.2	0.00e+00	0	38	0	634388480	59	4857
2026-01-25 11:26:10.92	279.77	27.00	-44.2	-47.0	16.7	0.00e+00	0	38	0	636485632	59	5111
2026-01-25 11:26:11.77	280.03	26.97	-44.2	-47.1	16.6	0.00e+00	0	38	0	637534208	59	5180
2026-01-25 11:26:13.01	280.41	26.93	-43.8	-46.5	17.1	0.00e+00	0	38	0	639631360	59	4834
2026-01-25 11:26:13.86	280.67	26.90	-43.7	-46.3	17.4	0.00e+00	0	38	0	641728512	59	4738
2026-01-25 11:26:14.99	281.01	26.86	-43.0	-45.5	18.1	0.00e+00	0	38	0	643825664	58	4549
2026-01-25 11:26:15.85	281.28	26.83	-42.7	-45.1	18.5	0.00e+00	0	38	0	644874240	57	4610
2026-01-25 11:26:17.11	281.66	26.78	-42.7	-45.1	18.5	0.00e+00	0	38	0	648019968	57	4616
2026-01-25 11:26:17.90	281.90	26.75	-43.0	-45.5	18.1	0.00e+00	0	38	0	649068544	57	4847
2026-01-25 11:26:19.07	282.25	26.70	-43.2	-45.8	17.8	0.00e+00	0	38	0	651165696	57	4994
2026-01-25 11:26:19.92	282.50	26.67	-43.8	-46.4	17.3	0.00e+00	0	38	0	653262848	58	5083
2026-01-25 11:26:21.06	282.85	26.62	-44.1	-46.9	16.7	0.00e+00	0	38	0	655360000	59	5094
2026-01-25 11:26:21.91	283.10	26.58	-44.1	-47.0	16.8	0.00e+00	0	38	0	656408576	59	5105
2026-01-25 11:26:23.05	283.44	26.54	-43.8	-46.5	17.2	0.00e+00	0	38	0	658505728	59	4820
2026-01-25 11:26:23.90	283.69	26.50	-43.4	-46.1	17.6	0.00e+00	0	38	0	660602880	58	4873
2026-01-25 11:26:25.04	284.03	26.45	-42.8	-45.3	18.3	0.00e+00	0	38	0	662700032	57	4715
2026-01-25 11:26:25.89	284.28	26.41	-42.7	-45.1	18.5	0.00e+00	0	38	0	663748608	57	4626
2026-01-25 11:26:27.03	284.62	26.36	-42.7	-45.1	18.5	0.00e+00	0	38	0	665845760	56	4893
2026-01-25 11:26:27.88	284.87	26.32	-42.6	-45.0	18.6	0.00e+00	0	39	0	667942912	56	4817
2026-01-25 11:26:29.02	285.21	26.27	-41.7	-43.9	19.4	0.00e+00	0	38	0	670040064	55	4532
2026-01-25 11:26:29.88	285.46	26.22	-41.4	-43.5	19.7	0.00e+00	0	38	0	671088640	54	4587
2026-01-25 11:26:31.01	285.79	26.17	-41.3	-43.4	19.8	0.00e+00	0	38	0	674234368	54	4533
2026-01-25 11:26:31.87	286.04	26.13	-41.3	-43.5	19.8	0.00e+00	0	38	0	675282944	54	4561
2026-01-25 11:26:33.00	286.36	26.07	-41.5	-43.7	19.7	0.00e+00	0	38	0	677380096	54	4653
2026-01-25 11:26:33.86	286.61	26.03	-42.0	-44.2	19.2	0.00e+00	0	38	0	679477248	54	4973
2026-01-25 11:26:34.99	286.94	25.97	-42.5	-44.8	18.6	0.00e+00	0	38	0	681574400	55	5038
2026-01-25 11:26:35.85	287.19	25.93	-42.6	-45.1	18.4	0.00e+00	0	38	0	682622976	55	5169
2026-01-25 11:26:36.99	287.51	25.87	-42.3	-44.6	18.7	0.00e+00	0	38	0	684720128	55	4926
2026-01-25 11:26:37.84	287.76	25.82	-41.9	-44.1	19.2	0.00e+00	0	38	0	686817280	55	4651
2026-01-25 11:26:38.97	288.08	25.76	-41.4	-43.6	19.7	0.00e+00	0	38	0	688914432	54	4633
2026-01-25 11:26:39.83	288.32	25.71	-41.3	-43.4	19.9	0.00e+00	0	38	0	689963008	54	4534
2026-01-25 11:26:40.96	288.64	25.65	-41.3	-43.4	19.8	0.00e+00	0	38	0	692060160	54	4543
2026-01-25 11:26:41.81	288.88	25.61	-41.3	-43.5	19.8	0.00e+00	0	38	0	694157312	54	4562
2026-01-25 11:26:42.95	289.20	25.54	-41.3	-43.4	19.9	0.00e+00	0	38	0	696254464	54	4526
2026-01-25 11:26:43.80	289.44	25.49	-41.0	-43.1	20.1	0.00e+00	0	38	0	697303040	54	4387
2026-01-25 11:26:45.02	289.78	25.42	-40.6	-42.6	20.5	0.00e+00	0	38	0	700448768	53	4390
2026-01-25 11:26:45.87	290.01	25.37	-40.4	-42.5	20.6	0.00e+00	0	38	0	701497344	52	4564
2026-01-25 11:26:47.01	290.33	25.31	-40.1	-42.1	21.0	0.00e+00	0	38	0	703594496	52	4352
2026-01-25 11:26:47.86	290.56	25.26	-40.1	-42.1	21.0	0.00e+00	0	38	0	705691648	52	4347
2026-01-25 11:26:49.00	290.88	25.19	-40.5	-42.5	20.6	0.00e+00	0	38	0	707788800	52	4597
2026-01-25 11:26:49.85	291.11	25.14	-40.8	-42.9	20.3	0.00e+00	0	38	0	708837376	52	4778
2026-01-25 11:26:50.99	291.42	25.07	-41.5	-43.7	19.5	0.00e+00	0	38	0	710934528	53	4965
2026-01-25 11:26:51.84	291.65	25.02	-41.6	-43.8	19.5	0.00e+00	0	38	0	713031680	53	5022
2026-01-25 11:26:52.97	291.95	24.95	-41.5	-43.8	19.5	0.00e+00	0	38	0	715128832	53	4986
2026-01-25 11:26:53.83	292.19	24.90	-41.3	-43.5	19.7	0.00e+00	0	38	0	716177408	53	4858
2026-01-25 11:26:54.97	292.49	24.82	-41.1	-43.3	20.0	0.00e+00	0	38	0	718274560	53	4708
2026-01-25 11:26:55.82	292.72	24.77	-41.0	-43.1	20.1	0.00e+00	0	38	0	720371712	53	4608
2026-01-25 11:26:57.00	293.03	24.70	-40.9	-43.0	20.2	0.00e+00	0	38	0	722468864	53	4554
2026-01-25 11:26:57.85	293.26	24.64	-41.0	-43.2	20.0	0.00e+00	0	38	0	723517440	53	4663
2026-01-25 11:26:59.04	293.57	24.56	-41.2	-43.4	19.9	0.00e+00	0	38	0	726663168	53	4773
2026-01-25 11:26:59.89	293.80	24.51	-40.9	-42.9	20.2	0.00e+00	0	38	0	727711744	53	4540
2026-01-25 11:27:01.03	294.10	24.43	-40.7	-42.7	20.4	0.00e+00	0	38	0	729808896	53	4438
2026-01-25 11:27:01.88	294.32	24.38	-41.0	-43.1	20.1	0.00e+00	0	38	0	731906048	53	4614
2026-01-25 11:27:03.02	294.61	24.30	-41.2	-43.4	19.9	0.00e+00	0	38	0	734003200	53	4778
2026-01-25 11:27:03.87	294.83	24.25	-41.1	-43.2	20.0	0.00e+00	0	38	0	735051776	53	4673
2026-01-25 11:27:05.01	295.13	24.17	-40.9	-43.0	20.2	0.00e+00	0	38	0	737148928	53	4559
2026-01-25 11:27:05.86	295.35	24.11	-40.7	-42.8	20.3	0.00e+00	0	38	0	739246080	53	4459
2026-01-25 11:27:07.00	295.64	24.04	-40.7	-42.7	20.4	0.00e+00	0	38	0	741343232	53	4419
2026-01-25 11:27:07.85	295.85	23.98	-40.6	-42.7	20.4	0.00e+00	0	38	0	742391808	53	4411
2026-01-25 11:27:08.99	296.14	23.90	-40.8	-42.9	20.3	0.00e+00	0	38	0	744488960	53	4510
2026-01-25 11:27:09.84	296.36	23.84	-41.0	-43.1	20.1	0.00e+00	0	38	0	746586112	53	4606
2026-01-25 11:27:10.97	296.64	23.76	-41.3	-43.4	19.8	0.00e+00	0	38	0	748683264	53	4808
2026-01-25 11:27:11.82	296.85	23.70	-41.3	-43.5	19.7	0.00e+00	0	38	0	750780416	53	4850
2026-01-25 11:27:13.03	297.15	23.62	-41.2	-43.3	19.9	0.00e+00	0	38	0	752877568	53	4755
2026-01-25 11:27:13.88	297.36	23.56	-41.2	-43.4	19.8	0.00e+00	0	38	0	753926144	53	4793
2026-01-25 11:27:15.08	297.66	23.47	-41.1	-43.2	20.0	0.00e+00	0	38	0	756023296	53	4690
2026-01-25 11:27:15.93	297.87	23.41	-41.0	-43.2	20.0	0.00e+00	0	38	0	758120448	53	4653
2026-01-25 11:27:17.07	298.15	23.33	-41.3	-43.4	19.8	0.00e+00	0	38	0	760217600	53	4812
2026-01-25 11:27:17.92	298.35	23.27	-41.2	-43.4	19.8	0.00e+00	0	38	0	761266176	53	4787
2026-01-25 11:27:19.06	298.63	23.19	-41.6	-43.9	19.4	0.00e+00	0	38	0	763363328	53	5042
2026-01-25 11:27:19.91	298.83	23.12	-42.0	-44.3	19.0	0.00e+00	0	38	0	765460480	54	5019
2026-01-25 11:27:21.04	299.11	23.04	-42.4	-44.8	18.6	0.00e+00	0	38	0	767557632	55	5003
2026-01-25 11:27:21.89	299.31	22.98	-42.5	-44.9	18.5	0.00e+00	0	38	0	768606208	55	5069
2026-01-25 11:27:23.03	299.58	22.90	-42.2	-44.5	18.8	0.00e+00	0	38	0	771751936	55	4868
2026-01-25 11:27:23.88	299.78	22.83	-42.0	-44.3	19.0	0.00e+00	0	38	0	772800512	55	4738
2026-01-25 11:27:25.02	300.05	22.75	-41.7	-44.0	19.3	0.00e+00	0	38	0	774897664	55	4567
2026-01-25 11:27:25.87	300.25	22.69	-41.6	-43.8	19.4	0.00e+00	0	38	0	776994816	55	4486
2026-01-25 11:27:27.01	300.52	22.60	-41.6	-43.8	19.4	0.00e+00	0	38	0	779091968	55	4478
2026-01-25 11:27:27.86	300.71	22.54	-41.8	-44.1	19.2	0.00e+00	0	38	0	780140544	55	4601
2026-01-25 11:27:29.02	300.98	22.45	-42.0	-44.3	19.0	0.00e+00	0	38	0	782237696	55	4732
2026-01-25 11:27:29.87	301.18	22.39	-41.9	-44.2	19.1	0.00e+00	0	38	0	784334848	55	4653
2026-01-25 11:27:31.04	301.44	22.30	-41.5	-43.8	19.5	0.00e+00	0	38	0	786432000	55	4446
2026-01-25 11:27:31.89	301.64	22.23	-41.4	-43.5	19.7	0.00e+00	0	38	0	787480576	54	4593
2026-01-25 11:27:33.12	301.92	22.14	-41.3	-43.5	19.8	0.00e+00	0	38	0	790626304	54	4557
2026-01-25 11:27:33.98	302.11	22.07	-41.2	-43.3	19.9	0.00e+00	0	38	0	791674880	54	4467
2026-01-25 11:27:35.11	302.37	21.99	-41.2	-43.4	19.9	0.00e+00	0	38	0	793772032	54	4496
2026-01-25 11:27:35.96	302.56	21.92	-41.5	-43.7	19.6	0.00e+00	0	38	0	795869184	54	4676
2026-01-25 11:27:37.10	302.81	21.83	-41.8	-44.1	19.2	0.00e+00	0	38	0	797966336	54	4901
2026-01-25 11:27:38.00	303.01	21.76	-42.0	-44.3	19.0	0.00e+00	0	38	0	799014912	54	4985
2026-01-25 11:27:39.01	303.23	21.69	-42.1	-44.4	18.9	0.00e+00	0	38	0	801112064	54	5090
2026-01-25 11:27:40.01	303.45	21.61	-42.1	-44.5	18.8	0.00e+00	0	38	0	803209216	55	4822
2026-01-25 11:27:41.00	303.67	21.53	-42.1	-44.4	19.0	0.00e+00	0	38	0	805306368	55	4769
2026-01-25 11:27:42.00	303.88	21.45	-42.3	-44.7	18.7	0.00e+00	0	38	0	806354944	55	4944
2026-01-25 11:27:43.00	304.10	21.38	-42.2	-44.5	18.8	0.00e+00	0	38	0	808452096	55	4841
2026-01-25 11:27:43.99	304.31	21.30	-42.4	-44.7	18.6	0.00e+00	0	38	0	810549248	55	4968
2026-01-25 11:27:44.98	304.52	21.22	-42.3	-44.7	18.6	0.00e+00	0	38	0	812646400	55	4975
2026-01-25 11:27:45.98	304.74	21.14	-42.3	-44.6	18.6	0.00e+00	0	38	0	814743552	55	4916
2026-01-25 11:27:46.97	304.95	21.07	-42.0	-44.3	18.9	0.00e+00	0	38	0	815792128	55	4756
2026-01-25 11:27:47.97	305.16	20.99	-41.8	-44.1	19.2	0.00e+00	0	38	0	817889280	55	4635
2026-01-25 11:27:48.96	305.36	20.91	-41.9	-44.2	19.1	0.00e+00	0	38	0	819986432	55	4679
2026-01-25 11:27:50.02	305.58	20.83	-41.7	-44.0	19.3	0.00e+00	0	38	0	822083584	55	4550
2026-01-25 11:27:50.88	305.76	20.76	-42.2	-44.5	18.7	0.00e+00	0	38	0	823132160	55	4864
2026-01-25 11:27:52.02	306.00	20.67	-42.5	-44.9	18.5	0.00e+00	0	38	0	825229312	55	5083
2026-01-25 11:27:52.87	306.17	20.60	-43.0	-45.5	18.1	0.00e+00	0	38	0	827326464	56	5116
2026-01-25 11:27:54.00	306.40	20.51	-43.4	-46.0	17.5	0.00e+00	0	38	0	829423616	57	5155
2026-01-25 11:27:54.86	306.58	20.44	-43.2	-45.9	17.6	0.00e+00	0	38	0	830472192	57	5052
2026-01-25 11:27:55.99	306.81	20.35	-43.0	-45.6	17.9	0.00e+00	0	38	0	832569344	57	4894
2026-01-25 11:27:56.85	306.98	20.28	-42.6	-45.0	18.4	0.00e+00	0	38	0	834666496	57	4589
2026-01-25 11:27:57.98	307.21	20.19	-42.0	-44.3	19.1	0.00e+00	0	38	0	836763648	56	4460
2026-01-25 11:27:58.84	307.38	20.12	-41.7	-43.9	19.3	0.00e+00	0	38	0	838860800	55	4530
2026-01-25 11:27:59.97	307.60	20.03	-41.3	-43.5	19.7	0.00e+00	0	38	0	840957952	54	4572
2026-01-25 11:28:00.83	307.77	19.96	-41.1	-43.2	19.9	0.00e+00	0	38	0	842006528	54	4441
2026-01-25 11:28:01.96	307.99	19.87	-41.3	-43.5	19.7	0.00e+00	0	38	0	844103680	54	4580
2026-01-25 11:28:02.82	308.16	19.81	-41.7	-44.0	19.3	0.00e+00	0	38	0	846200832	54	4826
2026-01-25 11:28:04.13	308.42	19.70	-42.3	-44.7	18.6	0.00e+00	0	38	0	848297984	55	4939
2026-01-25 11:28:05.27	308.64	19.61	-42.7	-45.1	18.2	0.00e+00	0	38	0	850395136	55	5216
2026-01-25 11:28:06.12	308.80	19.54	-42.8	-45.3	18.2	0.00e+00	0	38	0	852492288	56	4997
2026-01-25 11:28:07.25	309.02	19.45	-42.7	-45.1	18.3	0.00e+00	0	38	0	854589440	56	4906
2026-01-25 11:28:08.10	309.18	19.38	-42.6	-45.0	18.4	0.00e+00	0	38	0	855638016	56	4862
2026-01-25 11:28:09.34	309.41	19.28	-42.5	-44.9	18.5	0.00e+00	0	38	0	857735168	56	4810
2026-01-25 11:28:10.19	309.57	19.21	-42.5	-44.9	18.5	0.00e+00	0	38	0	859832320	56	4799
2026-01-25 11:28:11.32	309.78	19.12	-42.7	-45.2	18.3	0.00e+00	0	38	0	861929472	56	4944
2026-01-25 11:28:12.18	309.94	19.05	-42.6	-45.1	18.3	0.00e+00	0	38	0	862978048	56	4895
2026-01-25 11:28:13.31	310.15	18.96	-42.6	-45.1	18.4	0.00e+00	0	38	0	865075200	56	4900
2026-01-25 11:28:14.17	310.31	18.89	-42.4	-44.9	18.5	0.00e+00	0	38	0	867172352	56	4796
2026-01-25 11:28:15.51	310.56	18.78	-42.0	-44.4	19.0	0.00e+00	0	38	0	869269504	56	4506
2026-01-25 11:28:16.22	310.69	18.73	-41.9	-44.3	19.0	0.00e+00	0	38	0	871366656	55	4708
2026-01-25 11:28:17.72	310.96	18.61	-41.3	-43.5	19.6	0.00e+00	0	38	0	873463808	54	4583
2026-01-25 11:28:18.43	311.09	18.55	-41.4	-43.7	19.5	0.00e+00	0	38	0	875560960	54	4662
2026-01-25 11:28:19.71	311.32	18.45	-41.7	-43.9	19.3	0.00e+00	0	38	0	877658112	54	4801
2026-01-25 11:28:20.42	311.44	18.39	-41.8	-44.1	19.1	0.00e+00	0	38	0	878706688	54	4922
2026-01-25 11:28:21.70	311.67	18.28	-42.3	-44.7	18.5	0.00e+00	0	38	0	880803840	55	4966
2026-01-25 11:28:22.41	311.79	18.23	-42.4	-44.8	18.4	0.00e+00	0	38	0	882900992	55	5024
2026-01-25 11:28:23.69	312.02	18.12	-42.4	-44.8	18.5	0.00e+00	0	38	0	884998144	55	4997
2026-01-25 11:28:24.40	312.14	18.07	-42.4	-44.9	18.4	0.00e+00	0	38	0	886046720	55	5065
2026-01-25 11:28:25.68	312.37	17.96	-41.9	-44.3	18.9	0.00e+00	0	38	0	889192448	55	4724
2026-01-25 11:28:26.41	312.49	17.90	-41.6	-43.9	19.3	0.00e+00	0	38	0	890241024	55	4529
2026-01-25 11:28:27.69	312.71	17.80	-41.6	-43.8	19.3	0.00e+00	0	38	0	892338176	54	4759
2026-01-25 11:28:28.41	312.84	17.74	-41.5	-43.7	19.4	0.00e+00	0	38	0	893386752	54	4693
2026-01-25 11:28:29.69	313.05	17.64	-41.5	-43.8	19.4	0.00e+00	0	38	0	896532480	54	4726
2026-01-25 11:28:30.40	313.17	17.58	-41.6	-43.9	19.3	0.00e+00	0	38	0	897581056	54	4776
2026-01-25 11:28:31.68	313.39	17.48	-42.0	-44.4	18.8	0.00e+00	0	38	0	899678208	54	5086
2026-01-25 11:28:32.41	313.51	17.42	-42.2	-44.7	18.6	0.00e+00	0	38	0	901775360	55	4947
2026-01-25 11:28:33.68	313.72	17.32	-42.5	-45.2	18.1	0.00e+00	0	38	0	903872512	55	5221
2026-01-25 11:28:34.39	313.84	17.26	-42.5	-45.0	18.2	0.00e+00	0	38	0	904921088	55	5158
2026-01-25 11:28:35.67	314.05	17.16	-42.4	-44.9	18.4	0.00e+00	0	38	0	907018240	55	5080
2026-01-25 11:28:36.40	314.17	17.10	-42.3	-44.8	18.5	0.00e+00	0	38	0	909115392	55	4992
2026-01-25 11:28:37.76	314.39	16.99	-42.0	-44.4	18.8	0.00e+00	0	38	0	911212544	55	4786
2026-01-25 11:28:38.47	314.51	16.93	-41.8	-44.2	18.9	0.00e+00	0	38	0	912261120	55	4664
2026-01-25 11:28:39.75	314.72	16.83	-41.6	-43.9	19.2	0.00e+00	0	38	0	915406848	55	4527
2026-01-25 11:28:40.48	314.83	16.77	-41.8	-44.1	19.1	0.00e+00	0	38	0	916455424	55	4628
2026-01-25 11:28:41.75	315.04	16.67	-41.8	-44.1	19.0	0.00e+00	0	38	0	918552576	55	4636
2026-01-25 11:28:42.48	315.15	16.61	-41.8	-44.2	19.0	0.00e+00	0	39	0	920649728	55	4672
2026-01-25 11:28:43.76	315.35	16.51	-42.0	-44.3	18.8	0.00e+00	0	38	0	922746880	55	4754
2026-01-25 11:28:44.50	315.47	16.45	-41.9	-44.3	18.9	0.00e+00	0	38	0	923795456	55	4713
2026-01-25 11:28:45.78	315.67	16.35	-42.1	-44.4	18.8	0.00e+00	0	38	0	925892608	55	4810
2026-01-25 11:28:46.49	315.78	16.29	-41.9	-44.2	18.9	0.00e+00	0	38	0	927989760	55	4690
2026-01-25 11:28:47.77	315.98	16.19	-41.6	-43.9	19.3	0.00e+00	0	38	0	930086912	55	4497
2026-01-25 11:28:48.48	316.09	16.13	-41.6	-43.9	19.3	0.00e+00	0	38	0	931135488	54	4762
2026-01-25 11:28:49.76	316.29	16.03	-41.5	-43.8	19.3	0.00e+00	0	38	0	934281216	54	4730
2026-01-25 11:28:50.60	316.41	15.97	-41.7	-44.0	19.1	0.00e+00	0	38	0	935329792	54	4866
2026-01-25 11:28:51.73	316.59	15.88	-41.9	-44.4	18.8	0.00e+00	0	38	0	937426944	54	5074
2026-01-25 11:28:52.59	316.72	15.81	-42.2	-44.8	18.3	0.00e+00	0	38	0	939524096	55	5035
2026-01-25 11:28:53.72	316.89	15.72	-42.6	-45.4	17.9	0.00e+00	0	38	0	941621248	55	5363
2026-01-25 11:28:54.57	317.01	15.65	-43.0	-46.0	17.5	0.00e+00	0	38	0	942669824	56	5416
2026-01-25 11:28:55.71	317.18	15.56	-43.3	-46.4	17.1	0.00e+00	0	38	0	944766976	57	5355
2026-01-25 11:28:56.56	317.31	15.49	-43.4	-46.4	17.0	0.00e+00	0	38	0	946864128	57	5395
2026-01-25 11:28:57.70	317.48	15.40	-43.5	-46.6	16.9	0.00e+00	0	38	0	948961280	57	5500
2026-01-25 11:28:58.56	317.60	15.34	-43.5	-46.5	17.0	0.00e+00	0	38	0	950009856	57	5435
2026-01-25 11:28:59.69	317.77	15.25	-43.4	-46.2	17.2	0.00e+00	0	38	0	952107008	57	5278
2026-01-25 11:29:00.64	317.90	15.17	-43.3	-46.1	17.3	0.00e+00	0	38	0	954204160	57	5202
2026-01-25 11:29:01.64	318.05	15.09	-43.1	-45.8	17.6	0.00e+00	0	38	0	956301312	57	5000
2026-01-25 11:29:02.63	318.19	15.02	-43.0	-45.6	17.8	0.00e+00	0	38	0	958398464	57	4903
2026-01-25 11:29:03.63	318.33	14.94	-42.9	-45.5	17.9	0.00e+00	0	38	0	959447040	57	4870
2026-01-25 11:29:04.62	318.47	14.86	-42.7	-45.3	18.1	0.00e+00	0	38	0	961544192	57	4708
2026-01-25 11:29:05.62	318.61	14.78	-42.4	-44.9	18.5	0.00e+00	0	38	0	963641344	56	4771
2026-01-25 11:29:06.61	318.75	14.70	-42.4	-44.8	18.5	0.00e+00	0	38	0	965738496	56	4743
2026-01-25 11:29:07.60	318.89	14.63	-42.1	-44.5	18.8	0.00e+00	0	38	0	966787072	56	4562
2026-01-25 11:29:08.60	319.03	14.55	-41.7	-44.1	19.0	0.00e+00	0	38	0	968884224	55	4618
2026-01-25 11:29:09.60	319.17	14.47	-41.6	-44.0	19.1	0.00e+00	0	38	0	970981376	55	4548
2026-01-25 11:29:10.59	319.31	14.39	-41.5	-43.8	19.3	0.00e+00	0	38	0	973078528	55	4476
2026-01-25 11:29:11.59	319.44	14.32	-41.5	-43.8	19.3	0.00e+00	0	38	0	975175680	55	4464
2026-01-25 11:29:12.58	319.58	14.24	-41.5	-43.8	19.3	0.00e+00	0	38	0	976224256	54	4713
2026-01-25 11:29:13.57	319.71	14.16	-41.6	-43.9	19.2	0.00e+00	0	38	0	978321408	54	4770
2026-01-25 11:29:14.57	319.85	14.09	-41.8	-44.1	19.0	0.00e+00	0	38	0	980418560	54	4907
2026-01-25 11:29:15.56	319.98	14.01	-41.9	-44.3	18.8	0.00e+00	0	38	0	982515712	54	5027
2026-01-25 11:29:16.56	320.11	13.93	-42.1	-44.5	18.6	0.00e+00	0	38	0	983564288	54	5139
2026-01-25 11:29:17.55	320.25	13.86	-42.2	-44.8	18.4	0.00e+00	0	38	0	985661440	55	4992
2026-01-25 11:29:18.55	320.38	13.78	-42.5	-45.1	18.1	0.00e+00	0	38	0	987758592	55	5185
2026-01-25 11:29:19.54	320.51	13.70	-42.9	-45.7	17.7	0.00e+00	0	38	0	989855744	56	5222
2026-01-25 11:29:20.54	320.64	13.63	-42.9	-45.7	17.7	0.00e+00	0	38	0	991952896	56	5234
2026-01-25 11:29:21.53	320.77	13.55	-43.3	-46.2	17.2	0.00e+00	0	38	0	993001472	57	5234
2026-01-25 11:29:22.53	320.90	13.47	-43.2	-46.1	17.3	0.00e+00	0	38	0	995098624	57	5192
2026-01-25 11:29:23.52	321.03	13.40	-43.3	-46.1	17.3	0.00e+00	0	38	0	997195776	57	5201
2026-01-25 11:29:24.52	321.15	13.32	-43.4	-46.2	17.2	0.00e+00	0	38	0	999292928	57	5268
2026-01-25 11:29:25.51	321.28	13.25	-43.4	-46.2	17.2	0.00e+00	0	38	0	1000341504	57	5258
2026-01-25 11:29:26.51	321.41	13.17	-43.3	-46.1	17.2	0.00e+00	0	38	0	1002438656	57	5211
2026-01-25 11:29:27.50	321.53	13.10	-43.4	-46.3	17.1	0.00e+00	0	38	0	1004535808	57	5310
2026-01-25 11:29:28.50	321.66	13.02	-43.2	-45.9	17.4	0.00e+00	0	38	0	1006632960	57	5073
2026-01-25 11:29:29.54	321.79	12.94	-43.2	-45.9	17.5	0.00e+00	0	38	0	1008730112	57	5053
2026-01-25 11:29:30.53	321.91	12.87	-42.9	-45.6	17.7	0.00e+00	0	38	0	1010827264	57	4895
2026-01-25 11:29:31.53	322.04	12.79	-42.7	-45.3	18.0	0.00e+00	0	38	0	1011875840	57	4731
2026-01-25 11:29:32.52	322.16	12.72	-42.8	-45.4	17.9	0.00e+00	0	38	0	1013972992	57	4786
2026-01-25 11:29:33.51	322.28	12.64	-42.8	-45.4	17.9	0.00e+00	0	38	0	1016070144	57	4796
2026-01-25 11:29:34.51	322.40	12.57	-42.8	-45.4	17.9	0.00e+00	0	38	0	1018167296	57	4792
2026-01-25 11:29:35.51	322.52	12.49	-42.9	-45.4	17.9	0.00e+00	0	38	0	1019215872	57	4810
2026-01-25 11:29:36.50	322.64	12.42	-42.9	-45.5	17.8	0.00e+00	0	38	0	1021313024	57	4859
2026-01-25 11:29:37.49	322.76	12.34	-42.9	-45.5	17.8	0.00e+00	0	38	0	1023410176	57	4827
2026-01-25 11:29:38.49	322.88	12.27	-42.9	-45.5	17.8	0.00e+00	0	38	0	1025507328	57	4839
2026-01-25 11:29:39.49	323.00	12.19	-42.8	-45.4	17.9	0.00e+00	0	38	0	1027604480	57	4798
2026-01-25 11:29:40.48	323.12	12.12	-42.9	-45.6	17.7	0.00e+00	0	38	0	1028653056	57	4908
2026-01-25 11:29:41.47	323.24	12.05	-42.7	-45.4	17.9	0.00e+00	0	38	0	1030750208	57	4788
2026-01-25 11:29:42.47	323.36	11.97	-42.5	-45.4	17.9	0.00e+00	0	38	0	1032847360	56	5043
2026-01-25 11:29:43.46	323.47	11.90	-42.5	-45.4	17.9	0.00e+00	0	38	0	1034944512	56	5057
2026-01-25 11:29:44.49	323.59	11.82	-42.4	-45.3	18.0	0.00e+00	0	38	0	1035993088	56	5003
2026-01-25 11:29:45.48	323.71	11.75	-42.4	-45.3	17.9	0.00e+00	0	38	0	1038090240	56	5037
2026-01-25 11:29:46.58	323.83	11.67	-42.5	-45.4	17.9	0.00e+00	0	38	0	1040187392	56	5066
2026-01-25 11:29:47.43	323.93	11.61	-42.5	-45.4	17.9	0.00e+00	0	38	0	1042284544	56	5073
2026-01-25 11:29:48.57	324.06	11.52	-42.8	-45.8	17.5	0.00e+00	0	38	0	1044381696	56	5339
2026-01-25 11:29:49.42	324.16	11.46	-42.9	-45.9	17.4	0.00e+00	0	38	0	1045430272	56	5359
2026-01-25 11:29:50.56	324.29	11.38	-43.0	-46.1	17.2	0.00e+00	0	38	0	1047527424	56	5499
2026-01-25 11:29:51.41	324.38	11.32	-43.2	-46.4	17.0	0.00e+00	0	38	0	1049624576	57	5358
2026-01-25 11:29:52.55	324.51	11.23	-43.3	-46.5	16.9	0.00e+00	0	38	0	1051721728	57	5411
2026-01-25 11:29:53.40	324.60	11.17	-43.5	-46.8	16.5	0.00e+00	0	38	0	1052770304	57	5604
2026-01-25 11:29:54.53	324.73	11.09	-43.8	-47.1	16.2	0.00e+00	0	38	0	1054867456	58	5505
2026-01-25 11:29:55.39	324.82	11.03	-43.8	-47.1	16.2	0.00e+00	0	38	0	1056964608	58	5518
2026-01-25 11:29:56.52	324.95	10.94	-43.9	-47.4	15.9	0.00e+00	0	38	0	1059061760	58	5722
2026-01-25 11:29:57.38	325.04	10.88	-43.9	-47.4	16.0	0.00e+00	0	38	0	1061158912	58	5687
2026-01-25 11:29:58.51	325.17	10.80	-44.0	-47.6	15.7	0.00e+00	0	38	0	1062207488	58	5847
2026-01-25 11:29:59.37	325.26	10.74	-44.1	-47.7	15.7	0.00e+00	0	38	0	1064304640	58	5880
2026-01-25 11:30:00.50	325.38	10.66	-43.8	-47.3	16.0	0.00e+00	0	38	0	1066401792	58	5656
2026-01-25 11:30:01.36	325.47	10.60	-43.9	-47.5	15.9	0.00e+00	0	38	0	1068498944	58	5726
2026-01-25 11:30:02.49	325.59	10.51	-43.9	-47.4	15.9	0.00e+00	0	38	0	1070596096	58	5687
2026-01-25 11:30:03.34	325.69	10.45	-43.7	-47.1	16.2	0.00e+00	0	38	0	1071644672	58	5505
2026-01-25 11:30:04.48	325.81	10.37	-43.7	-47.1	16.2	0.00e+00	0	38	0	1073741824	58	5513
2026-01-25 11:30:05.33	325.90	10.31	-43.5	-46.8	16.4	0.00e+00	0	38	0	1075838976	58	5327
2026-01-25 11:30:06.47	326.02	10.23	-43.5	-46.8	16.5	0.00e+00	0	38	0	1077936128	58	5327
2026-01-25 11:30:07.32	326.10	10.17	-43.5	-46.8	16.5	0.00e+00	0	38	0	1078984704	58	5294
2026-01-25 11:30:08.46	326.22	10.09	-43.4	-46.6	16.7	0.00e+00	0	38	0	1081081856	58	5188
2026-01-25 11:30:09.31	326.31	10.03	-43.4	-46.6	16.7	0.00e+00	0	38	0	1083179008	58	5166
2026-01-25 11:30:10.45	326.43	9.95	-43.4	-46.5	16.8	0.00e+00	0	38	0	1085276160	58	5119
2026-01-25 11:30:11.30	326.52	9.89	-43.3	-46.2	17.1	0.00e+00	0	38	0	1086324736	58	4949
2026-01-25 11:30:12.44	326.63	9.81	-43.4	-46.2	17.0	0.00e+00	0	38	0	1088421888	58	4980
2026-01-25 11:30:13.29	326.72	9.75	-43.2	-46.0	17.2	0.00e+00	0	38	0	1090519040	58	4865
2026-01-25 11:30:14.43	326.83	9.67	-43.3	-46.1	17.1	0.00e+00	0	38	0	1092616192	58	4885
2026-01-25 11:30:15.28	326.92	9.61	-43.2	-46.0	17.2	0.00e+00	0	38	0	1094713344	58	4861
2026-01-25 11:30:16.51	327.04	9.52	-43.0	-45.8	17.4	0.00e+00	0	38	0	1096810496	58	4714
2026-01-25 11:30:17.36	327.13	9.46	-43.2	-46.0	17.2	0.00e+00	0	38	0	1097859072	58	4831
2026-01-25 11:30:18.50	327.24	9.38	-43.1	-45.8	17.4	0.00e+00	0	38	0	1099956224	58	4756
2026-01-25 11:30:19.35	327.32	9.32	-43.0	-45.8	17.4	0.00e+00	0	38	0	1102053376	57	5026
2026-01-25 11:30:20.62	327.45	9.24	-43.0	-45.9	17.3	0.00e+00	0	38	0	1104150528	57	5054
2026-01-25 11:30:21.40	327.53	9.18	-42.7	-45.6	17.6	0.00e+00	0	38	0	1105199104	57	4871
2026-01-25 11:30:22.59	327.64	9.10	-42.8	-45.7	17.5	0.00e+00	0	38	0	1108344832	57	4943
2026-01-25 11:30:23.44	327.72	9.04	-42.9	-45.9	17.3	0.00e+00	0	38	0	1109393408	57	5055
2026-01-25 11:30:24.58	327.83	8.96	-44.0	-47.4	16.1	0.00e+00	0	38	0	1111490560	58	5672
2026-01-25 11:30:25.43	327.92	8.90	-48.0	-64.2	3.8	7.99e-01	0	38	104	1112539136	68	22208
2026-01-25 11:30:26.56	328.02	8.83	-49.0	-64.9	3.9	1.49e+00	0	38	104	1112539136	68	23981
2026-01-25 11:30:27.42	328.11	8.77	-48.9	-65.0	3.8	1.49e+00	0	38	104	1112539136	69	22965
2026-01-25 11:30:28.55	328.21	8.69	-49.0	-65.1	3.8	1.49e+00	0	38	104	1112539136	69	23228
2026-01-25 11:30:29.40	328.29	8.63	-49.3	-65.2	3.8	1.49e+00	0	38	104	1112539136	69	23350
2026-01-25 11:30:30.54	328.40	8.55	-49.8	-65.2	3.8	1.49e+00	0	38	104	1112539136	70	22227
2026-01-25 11:30:31.39	328.48	8.50	-48.5	-65.3	3.8	1.49e+00	0	38	104	1112539136	69	23696
2026-01-25 11:30:32.54	328.59	8.42	-49.9	-65.3	3.8	1.49e+00	0	38	104	1112539136	70	22314
2026-01-25 11:30:33.39	328.67	8.36	-49.9	-65.3	3.8	1.49e+00	0	38	104	1112539136	70	22420
2026-01-25 11:30:34.59	328.78	8.28	-49.8	-65.3	3.8	1.49e+00	0	38	104	1112539136	70	22513
2026-01-25 11:30:35.44	328.86	8.22	-49.9	-65.3	3.8	1.49e+00	0	38	104	1112539136	70	22442
2026-01-25 11:30:36.64	328.97	8.14	-50.0	-65.4	3.8	1.49e+00	0	38	104	1112539136	70	22599
2026-01-25 11:30:37.49	329.04	8.08	-50.0	-65.3	3.8	1.49e+00	0	38	104	1112539136	70	22491
2026-01-25 11:30:38.69	329.15	8.00	-50.1	-65.4	3.8	1.49e+00	0	38	104	1112539136	70	22688
2026-01-25 11:30:39.55	329.23	7.95	-50.1	-65.4	3.8	1.49e+00	0	38	104	1112539136	71	21461
2026-01-25 11:30:40.68	329.33	7.87	-50.1	-65.4	3.8	1.49e+00	0	38	104	1112539136	71	21400
2026-01-25 11:30:41.53	329.41	7.81	-50.2	-65.4	3.8	1.49e+00	0	38	104	1112539136	71	21407
2026-01-25 11:30:42.67	329.51	7.74	-50.1	-65.4	3.8	1.49e+00	0	38	104	1112539136	71	21306
2026-01-25 11:30:43.52	329.58	7.68	-50.1	-65.4	3.8	1.49e+00	0	38	104	1112539136	71	21368
2026-01-25 11:30:44.65	329.68	7.61	-50.1	-65.3	3.8	1.49e+00	0	38	104	1112539136	71	21227
2026-01-25 11:30:45.50	329.76	7.55	-49.9	-65.4	3.8	1.49e+00	0	38	104	1112539136	71	21286
2026-01-25 11:30:46.64	329.86	7.47	-49.9	-65.3	3.8	1.49e+00	0	38	104	1112539136	71	21132
2026-01-25 11:30:47.49	329.93	7.42	-49.8	-65.3	3.8	1.49e+00	0	38	104	1112539136	71	21033
2026-01-25 11:30:48.63	330.03	7.34	-49.8	-65.3	3.8	1.49e+00	0	38	104	1112539136	71	21127
2026-01-25 11:30:49.48	330.11	7.29	-49.8	-65.3	3.8	1.49e+00	0	38	104	1112539136	71	21162
2026-01-25 11:30:50.61	330.20	7.21	-49.8	-65.3	3.8	1.49e+00	0	38	104	1112539136	71	21029
2026-01-25 11:30:51.47	330.28	7.16	-49.8	-65.3	3.8	1.49e+00	0	38	104	1112539136	71	21024
2026-01-25 11:30:52.60	330.37	7.08	-49.8	-65.3	3.8	1.49e+00	0	38	104	1112539136	71	21089
2026-01-25 11:30:53.45	330.45	7.03	-49.8	-65.3	3.8	1.49e+00	0	38	104	1112539136	71	21183
2026-01-25 11:30:54.59	330.54	6.95	-49.8	-65.3	3.8	1.49e+00	0	38	104	1112539136	71	21026
2026-01-25 11:30:55.44	330.61	6.90	-49.8	-65.3	3.8	1.49e+00	0	38	104	1112539136	71	21062
2026-01-25 11:30:56.57	330.71	6.82	-49.8	-65.2	3.8	1.49e+00	0	39	104	1112539136	71	20967
2026-01-25 11:30:57.43	330.78	6.77	-49.8	-65.3	3.8	1.49e+00	0	38	104	1112539136	71	21025
2026-01-25 11:30:58.56	330.87	6.69	-49.8	-65.3	3.8	1.49e+00	0	38	104	1112539136	71	21117
2026-01-25 11:30:59.41	330.95	6.64	-49.8	-65.2	3.8	1.49e+00	0	38	104	1112539136	71	20955
2026-01-25 11:31:00.55	331.04	6.56	-49.8	-65.3	3.8	1.49e+00	0	38	104	1112539136	71	21035
2026-01-25 11:31:01.40	331.11	6.51	-49.8	-65.2	3.8	1.49e+00	0	38	104	1112539136	71	20996
2026-01-25 11:31:02.54	331.20	6.44	-49.8	-65.3	3.8	1.49e+00	0	38	104	1112539136	71	21046
2026-01-25 11:31:03.39	331.27	6.38	-49.8	-65.2	3.8	1.49e+00	0	38	104	1112539136	71	20920
2026-01-25 11:31:04.52	331.36	6.31	-49.8	-65.3	3.8	1.49e+00	0	38	104	1112539136	71	21092
2026-01-25 11:31:05.38	331.43	6.25	-49.8	-65.2	3.8	1.49e+00	0	38	104	1112539136	71	21012
2026-01-25 11:31:06.51	331.52	6.18	-49.8	-65.3	3.8	1.49e+00	0	38	104	1112539136	71	21030
2026-01-25 11:31:07.36	331.59	6.13	-49.8	-65.2	3.8	1.49e+00	0	38	104	1112539136	71	20993
2026-01-25 11:31:08.50	331.68	6.05	-49.8	-65.3	3.8	1.49e+00	0	38	104	1112539136	71	21036
2026-01-25 11:31:09.35	331.75	6.00	-49.8	-65.2	3.8	1.49e+00	0	38	104	1112539136	71	20977
2026-01-25 11:31:10.48	331.84	5.93	-49.8	-65.2	3.8	1.49e+00	0	38	104	1112539136	71	21005
2026-01-25 11:31:11.34	331.91	5.87	-49.8	-65.2	3.8	1.49e+00	0	38	104	1112539136	71	21013
2026-01-25 11:31:12.47	332.00	5.80	-49.8	-65.3	3.8	1.49e+00	0	38	104	1112539136	71	21030
2026-01-25 11:31:13.32	332.06	5.75	-49.8	-65.2	3.8	1.49e+00	0	38	104	1112539136	71	20903
2026-01-25 11:31:14.46	332.15	5.68	-49.8	-65.3	3.8	1.49e+00	0	38	104	1112539136	71	21041
2026-01-25 11:31:15.31	332.22	5.62	-49.8	-65.2	3.8	1.49e+00	0	38	104	1112539136	71	20931
2026-01-25 11:31:16.44	332.31	5.55	-49.8	-65.2	3.8	1.49e+00	0	39	104	1112539136	71	20942
2026-01-25 11:31:17.29	332.37	5.50	-49.8	-65.2	3.8	1.49e+00	0	39	104	1112539136	71	20952
2026-01-25 11:31:18.43	332.46	5.43	-49.8	-65.2	3.8	1.49e+00	0	38	104	1112539136	71	21012
2026-01-25 11:31:19.28	332.52	5.38	-49.8	-65.2	3.8	1.49e+00	0	38	104	1112539136	71	20942
2026-01-25 11:31:20.42	332.61	5.30	-49.8	-65.2	3.8	1.49e+00	0	38	104	1112539136	71	21002
2026-01-25 11:31:21.27	332.68	5.25	-49.8	-65.3	3.8	1.49e+00	0	38	104	1112539136	71	21061
