passes_logs/2026/01/25/T1/T1__20260125_003708_AQUA_rec.log

#Pass ID: 20260125_003708_AQUA
#Satellite: AQUA
#Configuration: AQUA
#almurnet v.1.7.20251203
#Start time: 2026-01-25 00:37:08

#Version: 2.0.20230620
#Station: T1
#Location: 37.570604 lon 55.790049 lat
#TLE: 1 27424U 02022A   26024.53919639  .00001970  00000+0  40397-3 0  9996
#TLE: 2 27424  98.4098 351.1277 0001915  66.8561 358.4840 14.61855303262281

#Time	Az	El	Level	Level2	SNR	BER	BlckErr	Temp	State	Recorded	gain1	gain2
2026-01-25 00:37:08.51	23.35	4.98	-48.5	-70.0	3.8	7.45e-01	0	34	0	0	69	40764
2026-01-25 00:37:09.50	23.41	5.05	-48.4	-69.9	3.8	7.46e-01	0	34	104	0	67	45308
2026-01-25 00:37:10.49	23.46	5.12	-48.4	-69.9	3.8	7.47e-01	0	35	104	0	67	45113
2026-01-25 00:37:11.48	23.52	5.19	-48.4	-69.9	3.8	7.44e-01	0	35	104	0	67	44948
2026-01-25 00:37:12.48	23.58	5.26	-48.4	-69.9	3.8	7.49e-01	0	35	104	0	67	45379
2026-01-25 00:37:13.47	23.63	5.33	-48.4	-69.9	3.8	7.47e-01	0	34	104	0	67	45083
2026-01-25 00:37:14.46	23.69	5.40	-48.4	-69.9	3.8	7.45e-01	0	35	104	0	67	45030
2026-01-25 00:37:15.46	23.75	5.47	-48.4	-69.9	3.8	7.42e-01	0	35	104	0	67	45236
2026-01-25 00:37:16.45	23.81	5.54	-48.4	-69.9	3.8	7.44e-01	0	35	104	0	67	45259
2026-01-25 00:37:17.44	23.86	5.61	-48.4	-69.9	3.8	7.46e-01	0	35	104	0	67	45175
2026-01-25 00:37:18.44	23.92	5.68	-48.4	-69.8	3.8	7.45e-01	0	35	104	0	67	44612
2026-01-25 00:37:19.43	23.98	5.76	-48.4	-69.8	3.8	7.44e-01	0	35	104	0	67	44842
2026-01-25 00:37:20.42	24.04	5.83	-48.4	-69.7	3.8	7.49e-01	0	35	104	0	67	44117
2026-01-25 00:37:21.42	24.10	5.90	-48.4	-69.8	3.8	7.47e-01	0	35	104	0	67	44527
2026-01-25 00:37:22.41	24.16	5.97	-48.3	-69.7	3.8	7.44e-01	0	35	104	0	67	44130
2026-01-25 00:37:23.40	24.22	6.04	-48.3	-69.7	3.8	7.46e-01	0	35	104	0	67	44413
2026-01-25 00:37:24.40	24.28	6.12	-48.3	-69.8	3.8	7.46e-01	0	35	104	0	67	44653
2026-01-25 00:37:25.39	24.34	6.19	-48.3	-69.8	3.8	7.46e-01	0	35	104	0	67	44823
2026-01-25 00:37:26.38	24.40	6.26	-48.3	-69.9	3.8	7.45e-01	0	35	104	0	67	44981
2026-01-25 00:37:27.38	24.46	6.34	-48.4	-69.7	3.8	7.46e-01	0	35	104	0	67	44376
2026-01-25 00:37:28.37	24.52	6.41	-48.3	-69.8	3.8	7.45e-01	0	35	104	0	67	44705
2026-01-25 00:37:29.36	24.58	6.49	-48.3	-69.8	3.8	7.49e-01	0	35	104	0	67	44762
2026-01-25 00:37:30.36	24.65	6.56	-48.3	-69.8	3.8	7.47e-01	0	35	104	0	67	44851
2026-01-25 00:37:31.35	24.71	6.63	-48.3	-69.8	3.8	7.48e-01	0	35	104	0	67	44841
2026-01-25 00:37:32.34	24.77	6.71	-48.3	-69.8	3.8	7.48e-01	0	36	104	0	67	44716
2026-01-25 00:37:33.33	24.83	6.78	-48.3	-69.7	3.8	7.44e-01	0	35	104	0	67	44394
2026-01-25 00:37:34.33	24.90	6.86	-48.3	-69.7	3.8	7.47e-01	0	35	104	0	67	44171
2026-01-25 00:37:35.32	24.96	6.93	-48.3	-69.7	3.8	7.46e-01	0	36	104	0	67	44339
2026-01-25 00:37:36.32	25.02	7.01	-48.3	-69.6	3.8	7.50e-01	0	35	104	0	67	43723
2026-01-25 00:37:37.31	25.09	7.08	-48.3	-69.7	3.8	7.46e-01	0	36	104	0	67	44365
2026-01-25 00:37:38.30	25.15	7.16	-48.3	-69.8	3.8	7.47e-01	0	35	104	0	67	44591
2026-01-25 00:37:39.29	25.22	7.24	-48.4	-69.8	3.8	7.48e-01	0	36	104	0	67	44434
2026-01-25 00:37:40.29	25.28	7.31	-48.3	-69.8	3.8	7.45e-01	0	35	104	0	67	44493
2026-01-25 00:37:41.28	25.35	7.39	-48.4	-69.7	3.8	7.47e-01	0	36	104	0	67	44248
2026-01-25 00:37:42.27	25.42	7.47	-48.3	-69.7	3.8	7.45e-01	0	36	104	0	67	44196
2026-01-25 00:37:43.27	25.48	7.54	-48.3	-69.7	3.8	7.52e-01	0	36	104	0	67	44398
2026-01-25 00:37:44.26	25.55	7.62	-48.3	-69.6	3.8	7.45e-01	0	35	104	0	67	43881
2026-01-25 00:37:45.25	25.62	7.70	-48.3	-67.3	4.0	7.40e-01	0	35	104	0	67	33602
2026-01-25 00:37:46.24	25.68	7.78	-48.3	-66.8	4.1	7.39e-01	0	36	104	0	67	31527
2026-01-25 00:37:47.24	25.75	7.85	-48.3	-66.9	3.8	7.43e-01	0	36	104	0	67	32104
2026-01-25 00:37:48.23	25.82	7.93	-48.3	-66.5	4.1	7.37e-01	0	36	104	0	67	30380
2026-01-25 00:37:49.22	25.89	8.01	-48.3	-66.5	4.1	7.36e-01	0	36	104	0	67	30490
2026-01-25 00:37:50.22	25.96	8.09	-48.3	-66.6	3.9	7.45e-01	0	36	104	0	67	30855
2026-01-25 00:37:51.21	26.03	8.17	-48.3	-66.8	4.1	7.48e-01	0	36	104	0	67	31649
2026-01-25 00:37:52.20	26.10	8.25	-48.3	-66.5	4.1	7.29e-01	0	36	104	0	67	30462
2026-01-25 00:37:53.20	26.17	8.33	-48.3	-66.5	3.9	7.40e-01	0	36	104	0	67	30622
2026-01-25 00:37:54.19	26.24	8.41	-48.3	-66.4	4.2	7.45e-01	0	36	104	0	67	30195
2026-01-25 00:37:55.18	26.31	8.49	-48.3	-65.6	4.4	7.25e-01	0	36	104	0	67	27417
2026-01-25 00:37:56.18	26.38	8.57	-48.3	-64.9	4.6	7.21e-01	0	36	104	0	67	25430
2026-01-25 00:37:57.17	26.45	8.65	-48.2	-63.7	5.3	6.99e-01	0	36	0	0	67	22213
2026-01-25 00:37:58.16	26.52	8.73	-48.1	-62.7	4.3	7.31e-01	0	36	104	524288	67	19624
2026-01-25 00:37:59.16	26.60	8.81	-48.0	-60.1	8.2	6.41e-01	0	36	0	1572864	67	14665
2026-01-25 00:38:00.15	26.67	8.89	-47.8	-58.1	10.4	6.16e-01	0	36	0	3145728	67	11611
2026-01-25 00:38:01.14	26.74	8.97	-47.4	-56.1	12.4	6.05e-01	0	36	0	5242880	66	9809
2026-01-25 00:38:02.14	26.82	9.05	-47.1	-54.6	14.2	6.03e-01	0	36	0	6815744	66	8233
2026-01-25 00:38:03.13	26.89	9.13	-46.7	-53.1	15.9	6.03e-01	0	36	0	8912896	65	7334
2026-01-25 00:38:04.12	26.96	9.22	-48.9	-62.1	6.3	6.76e-01	0	36	0	10485760	68	17470
2026-01-25 00:38:05.12	27.04	9.30	-46.1	-50.7	18.3	6.00e-01	0	36	0	12582912	64	5872
2026-01-25 00:38:06.11	27.12	9.38	-48.2	-57.3	11.2	6.09e-01	0	36	0	14155776	67	10537
2026-01-25 00:38:07.10	27.19	9.46	-43.5	-46.6	22.2	6.03e-01	0	36	0	16252928	59	4912
2026-01-25 00:38:08.10	27.27	9.55	-43.7	-46.8	22.2	6.02e-01	0	36	0	18350080	59	5005
2026-01-25 00:38:09.09	27.34	9.63	-43.4	-46.4	22.4	6.04e-01	0	36	0	19922944	58	5098
2026-01-25 00:38:10.09	27.42	9.72	-43.2	-46.1	22.8	6.01e-01	0	36	0	22020096	58	4900
2026-01-25 00:38:11.08	27.50	9.80	-43.0	-45.8	23.0	6.01e-01	0	36	0	23592960	57	5023
2026-01-25 00:38:12.07	27.58	9.88	-43.1	-46.0	22.9	6.03e-01	0	36	0	25690112	57	5113
2026-01-25 00:38:13.07	27.66	9.97	-42.9	-45.7	23.2	6.01e-01	0	37	0	27262976	57	4982
2026-01-25 00:38:14.06	27.74	10.05	-43.0	-45.8	23.0	6.00e-01	0	36	0	29360128	57	5040
2026-01-25 00:38:15.06	27.82	10.14	-42.8	-45.7	23.1	5.99e-01	0	36	0	31457280	57	4948
2026-01-25 00:38:16.06	27.90	10.23	-42.9	-45.7	23.0	6.04e-01	0	36	0	33030144	57	4963
2026-01-25 00:38:17.05	27.98	10.31	-42.6	-45.4	23.5	6.02e-01	0	36	0	35127296	57	4796
2026-01-25 00:38:18.04	28.06	10.40	-42.6	-45.4	23.5	6.00e-01	0	36	0	36700160	57	4775
2026-01-25 00:38:19.04	28.14	10.49	-42.6	-45.4	23.5	6.00e-01	0	36	0	38797312	57	4801
2026-01-25 00:38:20.03	28.22	10.57	-42.4	-45.3	23.6	6.01e-01	0	36	0	40370176	56	4997
2026-01-25 00:38:21.03	28.30	10.66	-42.4	-45.3	23.6	6.04e-01	0	36	0	42467328	56	5016
2026-01-25 00:38:22.03	28.39	10.75	-42.5	-45.4	23.5	6.03e-01	0	36	0	44040192	56	5094
2026-01-25 00:38:23.02	28.47	10.83	-42.4	-45.3	23.6	6.04e-01	0	37	0	46137344	56	5031
2026-01-25 00:38:24.02	28.56	10.92	-42.4	-45.3	23.6	6.03e-01	0	36	0	48234496	56	5024
2026-01-25 00:38:25.01	28.64	11.01	-42.5	-45.3	23.6	6.03e-01	0	36	0	49807360	56	5034
2026-01-25 00:38:26.01	28.73	11.10	-42.4	-45.4	23.6	6.02e-01	0	36	0	51904512	56	5051
2026-01-25 00:38:27.00	28.81	11.19	-42.5	-45.4	23.5	6.00e-01	0	36	0	53477376	56	5089
2026-01-25 00:38:27.99	28.90	11.28	-42.3	-45.3	23.6	5.99e-01	0	36	0	55574528	56	5018
2026-01-25 00:38:28.99	28.98	11.37	-42.2	-45.2	23.8	6.01e-01	0	36	0	57147392	56	4945
2026-01-25 00:38:29.98	29.07	11.46	-42.3	-45.2	23.4	6.00e-01	0	36	0	59244544	56	4956
2026-01-25 00:38:30.98	29.16	11.55	-42.3	-45.2	23.8	6.01e-01	0	36	0	60817408	56	4931
2026-01-25 00:38:31.97	29.25	11.64	-42.3	-45.2	23.7	6.04e-01	0	37	0	62914560	56	4979
2026-01-25 00:38:32.97	29.34	11.73	-42.2	-45.2	23.8	6.02e-01	0	37	0	65011712	56	4968
2026-01-25 00:38:33.96	29.43	11.82	-42.2	-45.1	23.9	6.04e-01	0	36	0	66584576	56	4903
2026-01-25 00:38:34.96	29.52	11.91	-42.1	-45.0	24.0	6.02e-01	0	37	0	68681728	56	4834
2026-01-25 00:38:35.95	29.61	12.00	-42.2	-44.9	24.1	6.00e-01	0	37	0	70254592	56	4798
2026-01-25 00:38:36.94	29.70	12.10	-42.2	-44.9	24.1	6.03e-01	0	37	0	72351744	56	4778
2026-01-25 00:38:37.94	29.79	12.19	-42.2	-44.9	24.2	6.00e-01	0	36	0	73924608	56	4764
2026-01-25 00:38:38.93	29.88	12.28	-42.2	-44.8	24.2	5.99e-01	0	36	0	76021760	56	4746
2026-01-25 00:38:39.93	29.98	12.37	-42.3	-44.9	24.1	6.04e-01	0	37	0	77594624	56	4805
2026-01-25 00:38:40.92	30.07	12.47	-42.2	-44.8	24.2	6.02e-01	0	36	0	79691776	56	4751
2026-01-25 00:38:41.92	30.17	12.56	-42.2	-44.8	24.2	6.02e-01	0	36	0	81788928	56	4758
2026-01-25 00:38:42.91	30.26	12.66	-42.2	-44.9	24.2	6.01e-01	0	37	0	83361792	56	4760
2026-01-25 00:38:43.91	30.36	12.75	-42.2	-44.9	24.2	6.02e-01	0	37	0	85458944	56	4770
2026-01-25 00:38:44.90	30.45	12.85	-42.3	-44.9	24.2	6.01e-01	0	36	0	87031808	56	4788
2026-01-25 00:38:45.89	30.55	12.94	-42.2	-44.9	24.1	6.01e-01	0	37	0	89128960	56	4763
2026-01-25 00:38:46.89	30.65	13.04	-42.2	-44.7	24.3	6.02e-01	0	37	0	90701824	56	4687
2026-01-25 00:38:47.88	30.74	13.13	-42.2	-44.8	24.3	6.02e-01	0	37	0	92798976	56	4719
2026-01-25 00:38:48.88	30.84	13.23	-42.2	-44.7	24.4	6.01e-01	0	36	0	94371840	56	4668
2026-01-25 00:38:49.87	30.94	13.32	-42.0	-44.6	24.5	6.02e-01	0	37	0	96468992	56	4604
2026-01-25 00:38:50.87	31.04	13.42	-42.1	-44.7	24.4	6.04e-01	0	37	0	98566144	56	4655
2026-01-25 00:38:51.86	31.14	13.52	-42.0	-44.5	24.4	6.02e-01	0	37	0	100139008	56	4598
2026-01-25 00:38:52.86	31.25	13.62	-41.8	-44.4	24.5	6.03e-01	0	37	0	102236160	55	4785
2026-01-25 00:38:53.85	31.35	13.71	-41.8	-44.5	24.5	6.02e-01	0	37	0	103809024	55	4823
2026-01-25 00:38:54.85	31.45	13.81	-41.8	-44.4	24.5	6.04e-01	0	37	0	105906176	55	4792
2026-01-25 00:38:55.84	31.55	13.91	-41.8	-44.4	24.5	6.00e-01	0	37	0	107479040	55	4808
2026-01-25 00:38:56.84	31.66	14.01	-41.7	-44.4	24.6	6.05e-01	0	37	0	109576192	55	4761
2026-01-25 00:38:57.83	31.76	14.11	-41.8	-44.4	24.5	6.01e-01	0	37	0	111149056	55	4810
2026-01-25 00:38:58.83	31.87	14.21	-41.7	-44.3	24.6	6.04e-01	0	37	0	113246208	55	4737
2026-01-25 00:38:59.82	31.98	14.31	-41.7	-44.3	24.7	6.02e-01	0	37	0	115343360	55	4709
2026-01-25 00:39:00.82	32.08	14.41	-41.7	-44.2	24.7	6.01e-01	0	37	0	116916224	55	4688
2026-01-25 00:39:01.81	32.19	14.51	-41.7	-44.2	24.7	6.01e-01	0	37	0	119013376	55	4703
2026-01-25 00:39:02.81	32.30	14.61	-41.8	-44.3	24.7	6.00e-01	0	37	0	120586240	55	4738
2026-01-25 00:39:03.80	32.41	14.72	-41.7	-44.2	24.7	6.02e-01	0	37	0	122683392	55	4699
2026-01-25 00:39:04.80	32.52	14.82	-41.8	-44.3	24.7	6.03e-01	0	37	0	124256256	55	4747
2026-01-25 00:39:05.79	32.63	14.92	-41.8	-44.4	24.6	6.03e-01	0	37	0	126353408	55	4789
2026-01-25 00:39:06.79	32.74	15.02	-41.8	-44.4	24.6	6.01e-01	0	37	0	127926272	55	4785
2026-01-25 00:39:07.78	32.86	15.13	-41.8	-44.3	24.7	6.01e-01	0	37	0	130023424	55	4747
2026-01-25 00:39:08.78	32.97	15.23	-41.8	-44.3	24.7	6.01e-01	0	37	0	132120576	55	4750
2026-01-25 00:39:09.78	33.08	15.34	-41.8	-44.4	24.7	6.01e-01	0	37	0	133693440	55	4769
2026-01-25 00:39:10.77	33.20	15.44	-41.7	-44.2	24.7	6.00e-01	0	37	0	135790592	55	4686
2026-01-25 00:39:11.77	33.32	15.55	-41.8	-44.3	24.7	6.04e-01	0	37	0	137363456	55	4735
2026-01-25 00:39:12.76	33.43	15.65	-41.7	-44.3	24.8	6.01e-01	0	37	0	139460608	55	4706
2026-01-25 00:39:13.76	33.55	15.76	-41.8	-44.3	24.7	6.04e-01	0	37	0	141033472	55	4742
2026-01-25 00:39:14.75	33.67	15.86	-41.7	-44.2	24.8	6.03e-01	0	37	0	143130624	55	4680
2026-01-25 00:39:15.75	33.79	15.97	-41.6	-44.1	24.9	6.01e-01	0	37	0	144703488	55	4643
2026-01-25 00:39:16.74	33.91	16.08	-41.5	-44.1	24.9	6.03e-01	0	37	0	146800640	55	4612
2026-01-25 00:39:17.74	34.03	16.18	-41.5	-44.1	24.9	6.00e-01	0	37	0	148897792	54	4884
2026-01-25 00:39:18.73	34.15	16.29	-41.4	-44.0	25.1	6.03e-01	0	37	0	150470656	54	4828
2026-01-25 00:39:19.73	34.27	16.40	-41.4	-44.0	25.0	6.01e-01	0	37	0	152567808	54	4854
2026-01-25 00:39:20.72	34.40	16.51	-41.3	-44.0	25.0	6.04e-01	0	37	0	154140672	54	4861
2026-01-25 00:39:21.72	34.52	16.62	-41.3	-44.1	24.9	6.03e-01	0	37	0	156237824	54	4873
2026-01-25 00:39:22.71	34.65	16.73	-41.4	-44.1	24.9	6.00e-01	0	37	0	158334976	54	4912
2026-01-25 00:39:23.71	34.78	16.84	-41.4	-44.1	24.9	6.04e-01	0	37	0	159907840	54	4902
2026-01-25 00:39:24.71	34.90	16.95	-41.4	-44.1	24.9	6.01e-01	0	37	0	161480704	54	4918
2026-01-25 00:39:25.70	35.03	17.06	-41.4	-44.1	24.9	6.00e-01	0	37	0	163577856	54	4903
2026-01-25 00:39:26.70	35.16	17.17	-41.5	-44.2	24.9	6.02e-01	0	37	0	165675008	54	4929
2026-01-25 00:39:27.69	35.29	17.28	-41.5	-44.1	24.9	6.03e-01	0	37	0	167247872	54	4914
2026-01-25 00:39:28.69	35.42	17.39	-41.5	-44.1	24.5	6.01e-01	0	37	0	169345024	54	4891
2026-01-25 00:39:29.68	35.56	17.51	-41.6	-44.1	24.9	6.04e-01	0	37	0	170917888	54	4914
2026-01-25 00:39:30.68	35.69	17.62	-41.6	-44.1	25.0	6.04e-01	0	37	0	173015040	54	4883
2026-01-25 00:39:31.67	35.82	17.73	-41.7	-44.1	24.9	6.04e-01	0	37	0	175112192	54	4919
2026-01-25 00:39:32.67	35.96	17.85	-41.8	-44.2	24.9	5.99e-01	0	37	0	176685056	54	4950
2026-01-25 00:39:33.66	36.10	17.96	-41.8	-44.2	24.9	6.01e-01	0	37	0	178782208	54	4967
2026-01-25 00:39:34.66	36.24	18.08	-41.8	-44.2	24.9	6.01e-01	0	37	0	180355072	54	4945
2026-01-25 00:39:35.66	36.37	18.19	-41.8	-44.2	24.9	6.03e-01	0	37	0	182452224	54	4942
2026-01-25 00:39:36.65	36.51	18.31	-41.8	-44.2	24.8	6.00e-01	0	37	0	184025088	54	4974
2026-01-25 00:39:37.64	36.65	18.42	-41.7	-44.2	24.8	6.05e-01	0	37	0	186122240	54	4954
2026-01-25 00:39:38.64	36.80	18.54	-41.8	-44.3	24.8	6.02e-01	0	37	0	187695104	54	4996
2026-01-25 00:39:39.63	36.94	18.66	-41.8	-44.3	24.8	6.01e-01	0	37	0	189792256	54	5020
2026-01-25 00:39:40.62	37.08	18.77	-41.8	-44.2	24.8	6.04e-01	0	37	0	191889408	54	4979
2026-01-25 00:39:41.62	37.23	18.89	-41.7	-44.2	24.9	6.02e-01	0	37	0	193462272	54	4932
2026-01-25 00:39:42.61	37.38	19.01	-41.7	-44.2	24.9	6.00e-01	0	37	0	195559424	54	4952
2026-01-25 00:39:43.60	37.52	19.13	-41.6	-44.1	24.9	6.03e-01	0	37	0	197132288	54	4921
2026-01-25 00:39:44.60	37.67	19.25	-41.5	-44.0	25.1	6.04e-01	0	37	0	199229440	54	4865
2026-01-25 00:39:45.59	37.82	19.37	-41.5	-44.1	25.0	6.04e-01	0	37	0	200802304	54	4916
2026-01-25 00:39:46.59	37.97	19.49	-41.5	-44.2	24.8	6.02e-01	0	37	0	202899456	54	4978
2026-01-25 00:39:47.58	38.13	19.61	-41.5	-44.2	24.8	6.01e-01	0	37	0	204472320	54	4979
2026-01-25 00:39:48.58	38.28	19.73	-41.5	-44.2	24.9	6.04e-01	0	37	0	206569472	54	4944
2026-01-25 00:39:49.57	38.44	19.85	-41.7	-44.2	24.9	6.04e-01	0	37	0	208666624	54	4981
2026-01-25 00:39:50.57	38.59	19.97	-41.6	-44.1	25.0	6.00e-01	0	37	0	210239488	54	4913
2026-01-25 00:39:51.56	38.75	20.09	-41.6	-44.1	25.0	6.03e-01	0	37	0	212336640	54	4888
2026-01-25 00:39:52.55	38.91	20.22	-41.6	-44.1	25.0	6.02e-01	0	37	0	213909504	54	4910
2026-01-25 00:39:53.55	39.07	20.34	-41.6	-44.1	25.0	6.06e-01	0	37	0	216006656	54	4913
2026-01-25 00:39:54.54	39.23	20.46	-41.7	-44.3	24.9	6.03e-01	0	37	0	217579520	54	4992
2026-01-25 00:39:55.54	39.39	20.59	-41.7	-44.3	24.8	6.01e-01	0	37	0	219676672	54	4999
2026-01-25 00:39:56.53	39.56	20.71	-41.6	-44.1	25.0	6.03e-01	0	37	0	221249536	54	4914
2026-01-25 00:39:57.52	39.72	20.84	-41.6	-44.1	25.0	6.01e-01	0	37	0	223346688	54	4889
2026-01-25 00:39:58.52	39.89	20.96	-41.7	-44.2	24.9	6.02e-01	0	37	0	225443840	54	4947
2026-01-25 00:39:59.51	40.06	21.09	-41.8	-44.3	24.8	6.04e-01	0	37	0	227016704	54	4986
2026-01-25 00:40:00.51	40.23	21.21	-41.7	-44.2	24.9	6.02e-01	0	37	0	229113856	54	4938
2026-01-25 00:40:01.50	40.40	21.34	-41.6	-44.1	25.0	6.02e-01	0	37	0	230686720	54	4918
2026-01-25 00:40:02.50	40.57	21.47	-41.7	-44.2	24.9	6.04e-01	0	37	0	232783872	54	4959
2026-01-25 00:40:03.49	40.75	21.60	-41.8	-44.2	24.9	6.02e-01	0	37	0	234356736	54	4959
2026-01-25 00:40:04.48	40.92	21.72	-41.8	-44.2	24.9	6.02e-01	0	37	0	236453888	54	4954
2026-01-25 00:40:05.48	41.10	21.85	-41.8	-44.2	24.9	6.01e-01	0	37	0	238026752	54	4969
2026-01-25 00:40:06.48	41.28	21.98	-41.8	-44.2	24.9	6.02e-01	0	37	0	240123904	54	4941
2026-01-25 00:40:07.47	41.46	22.11	-41.8	-44.2	24.9	6.04e-01	0	37	0	242221056	54	4973
2026-01-25 00:40:08.47	41.64	22.24	-41.7	-44.1	25.0	6.02e-01	0	37	0	243793920	54	4896
2026-01-25 00:40:09.47	41.83	22.37	-41.7	-44.1	24.9	6.00e-01	0	37	0	245891072	54	4923
2026-01-25 00:40:10.46	42.01	22.50	-41.8	-44.3	24.9	6.02e-01	0	37	0	247463936	54	4994
2026-01-25 00:40:11.46	42.20	22.64	-41.9	-44.3	24.8	6.01e-01	0	37	0	249561088	54	5020
2026-01-25 00:40:12.45	42.39	22.77	-41.7	-44.2	24.9	6.01e-01	0	37	0	251133952	54	4951
2026-01-25 00:40:13.45	42.58	22.90	-41.8	-44.2	24.9	6.02e-01	0	37	0	253231104	54	4956
2026-01-25 00:40:14.44	42.77	23.03	-41.8	-44.2	24.9	6.02e-01	0	37	0	254803968	54	4981
2026-01-25 00:40:15.43	42.96	23.17	-41.8	-44.2	24.8	5.99e-01	0	37	0	256901120	54	4979
2026-01-25 00:40:16.43	43.16	23.30	-41.9	-44.3	24.9	6.01e-01	0	37	0	258998272	54	5035
2026-01-25 00:40:17.42	43.35	23.43	-41.9	-44.3	24.8	6.01e-01	0	37	0	260571136	54	4996
2026-01-25 00:40:18.42	43.55	23.57	-41.9	-44.4	24.8	6.01e-01	0	37	0	262668288	54	5050
2026-01-25 00:40:19.41	43.75	23.70	-41.9	-44.3	24.8	6.03e-01	0	37	0	264241152	54	5033
2026-01-25 00:40:20.41	43.95	23.84	-42.0	-44.4	24.6	6.00e-01	0	37	0	266338304	54	5096
2026-01-25 00:40:21.40	44.16	23.97	-41.9	-44.3	24.7	6.03e-01	0	37	0	267911168	54	5040
2026-01-25 00:40:22.40	44.36	24.11	-41.8	-44.2	24.8	6.01e-01	0	37	0	270008320	54	4962
2026-01-25 00:40:23.39	44.57	24.25	-41.9	-44.3	24.7	6.02e-01	0	37	0	271581184	54	5006
2026-01-25 00:40:24.39	44.78	24.38	-41.9	-44.3	24.8	6.03e-01	0	37	0	273678336	54	5023
2026-01-25 00:40:25.39	44.99	24.52	-41.9	-44.4	24.7	6.01e-01	0	37	0	275775488	54	5043
2026-01-25 00:40:26.38	45.20	24.66	-42.0	-44.4	24.7	6.02e-01	0	37	0	277348352	54	5082
2026-01-25 00:40:27.37	45.42	24.80	-42.0	-44.4	24.6	6.03e-01	0	37	0	279445504	54	5097
2026-01-25 00:40:28.37	45.64	24.94	-41.8	-44.2	24.8	6.05e-01	0	37	0	281018368	54	4974
2026-01-25 00:40:29.36	45.85	25.08	-41.9	-44.3	24.8	6.04e-01	0	37	0	283115520	54	5038
2026-01-25 00:40:30.36	46.08	25.22	-42.0	-44.5	24.7	6.04e-01	0	37	0	284688384	54	5124
2026-01-25 00:40:31.36	46.30	25.36	-42.1	-44.6	24.6	6.02e-01	0	37	0	286785536	54	5197
2026-01-25 00:40:32.35	46.52	25.50	-42.1	-44.6	24.5	6.01e-01	0	37	0	288358400	54	5210
2026-01-25 00:40:33.34	46.75	25.64	-41.9	-44.4	24.8	6.01e-01	0	37	0	290455552	54	5062
2026-01-25 00:40:34.34	46.98	25.78	-41.9	-44.3	24.9	6.03e-01	0	37	0	292552704	54	5015
2026-01-25 00:40:35.34	47.21	25.92	-41.9	-44.4	24.8	6.02e-01	0	37	0	294125568	54	5089
2026-01-25 00:40:36.33	47.45	26.06	-41.9	-44.4	24.8	6.03e-01	0	37	0	296222720	54	5071
2026-01-25 00:40:37.33	47.68	26.20	-41.9	-44.3	24.8	6.01e-01	0	37	0	297795584	54	5032
2026-01-25 00:40:38.32	47.92	26.34	-41.9	-44.4	24.9	6.01e-01	0	37	0	299892736	54	5058
2026-01-25 00:40:39.32	48.16	26.49	-42.0	-44.5	24.8	6.02e-01	0	37	0	301465600	54	5115
2026-01-25 00:40:40.31	48.40	26.63	-42.0	-44.5	24.7	6.01e-01	0	37	0	303562752	54	5115
2026-01-25 00:40:41.31	48.65	26.77	-42.1	-44.6	24.7	6.02e-01	0	37	0	305135616	54	5168
2026-01-25 00:40:42.30	48.89	26.92	-42.0	-44.4	24.7	6.02e-01	0	37	0	307232768	54	5084
2026-01-25 00:40:43.29	49.14	27.06	-41.9	-44.3	24.8	6.05e-01	0	37	0	309329920	54	5018
2026-01-25 00:40:44.29	49.39	27.20	-41.9	-44.3	24.6	6.00e-01	0	37	0	310902784	54	5024
2026-01-25 00:40:45.28	49.64	27.35	-41.9	-44.4	24.9	6.03e-01	0	37	0	312999936	54	5048
2026-01-25 00:40:46.28	49.90	27.49	-41.9	-44.3	24.9	6.03e-01	0	37	0	314572800	54	5027
2026-01-25 00:40:47.27	50.16	27.64	-41.9	-44.4	24.9	6.00e-01	0	37	0	316669952	54	5052
2026-01-25 00:40:48.27	50.42	27.78	-42.0	-44.5	24.8	6.03e-01	0	37	0	318242816	54	5127
2026-01-25 00:40:49.26	50.68	27.93	-42.0	-44.5	24.8	6.02e-01	0	37	0	320339968	54	5123
2026-01-25 00:40:50.26	50.95	28.07	-42.0	-44.4	24.8	6.03e-01	0	37	0	321912832	54	5069
2026-01-25 00:40:51.25	51.21	28.22	-42.0	-44.4	24.8	6.05e-01	0	37	0	324009984	54	5089
2026-01-25 00:40:52.25	51.49	28.36	-42.0	-44.4	24.8	6.03e-01	0	37	0	326107136	54	5066
2026-01-25 00:40:53.24	51.76	28.51	-41.9	-44.4	24.8	6.04e-01	0	37	0	327680000	54	5054
2026-01-25 00:40:54.24	52.03	28.66	-42.0	-44.4	24.8	5.99e-01	0	37	0	329777152	54	5079
2026-01-25 00:40:55.23	52.31	28.80	-41.9	-44.3	24.9	6.03e-01	0	37	0	331350016	54	5029
2026-01-25 00:40:56.23	52.59	28.95	-41.9	-44.3	24.9	6.03e-01	0	37	0	333447168	54	5030
2026-01-25 00:40:57.22	52.87	29.09	-42.0	-44.5	24.7	6.03e-01	0	37	0	335020032	54	5140
2026-01-25 00:40:58.21	53.16	29.24	-42.1	-44.5	24.7	6.02e-01	0	37	0	337117184	54	5135
2026-01-25 00:40:59.21	53.45	29.39	-41.8	-44.2	25.0	6.03e-01	0	37	0	338690048	54	4980
2026-01-25 00:41:00.20	53.74	29.53	-41.9	-44.3	24.9	6.01e-01	0	37	0	340787200	54	5011
2026-01-25 00:41:01.20	54.03	29.68	-42.0	-44.4	24.8	6.01e-01	0	37	0	342884352	54	5079
2026-01-25 00:41:02.19	54.33	29.83	-41.8	-44.2	25.0	6.04e-01	0	38	0	344457216	54	4980
2026-01-25 00:41:03.19	54.63	29.97	-41.9	-44.3	24.9	6.03e-01	0	37	0	346554368	54	5032
2026-01-25 00:41:04.18	54.93	30.12	-42.0	-44.4	24.9	6.02e-01	0	37	0	348127232	54	5049
2026-01-25 00:41:05.18	55.24	30.27	-42.1	-44.5	24.8	6.02e-01	0	37	0	350224384	54	5135
2026-01-25 00:41:06.17	55.54	30.41	-42.0	-44.4	24.8	6.04e-01	0	37	0	351797248	54	5087
2026-01-25 00:41:07.17	55.86	30.56	-41.9	-44.3	25.0	6.03e-01	0	37	0	353894400	54	4998
2026-01-25 00:41:08.17	56.17	30.71	-41.6	-44.0	25.2	6.00e-01	0	37	0	355991552	54	4837
2026-01-25 00:41:09.16	56.49	30.85	-41.9	-44.3	25.0	6.02e-01	0	37	0	357564416	54	4993
2026-01-25 00:41:10.16	56.81	31.00	-42.1	-44.5	24.8	6.04e-01	0	37	0	359661568	54	5111
2026-01-25 00:41:11.15	57.13	31.14	-42.1	-44.6	24.8	6.01e-01	0	37	0	361234432	54	5164
2026-01-25 00:41:12.15	57.45	31.29	-42.1	-44.5	24.7	6.03e-01	0	37	0	363331584	54	5149
2026-01-25 00:41:13.14	57.78	31.44	-42.1	-44.5	24.7	6.02e-01	0	37	0	364904448	54	5151
2026-01-25 00:41:14.14	58.11	31.58	-42.1	-44.5	24.8	6.03e-01	0	37	0	367001600	54	5108
2026-01-25 00:41:15.13	58.45	31.73	-41.9	-44.3	24.9	6.02e-01	0	37	0	368574464	54	5019
2026-01-25 00:41:16.13	58.79	31.87	-42.0	-44.4	24.9	6.02e-01	0	37	0	370671616	54	5052
2026-01-25 00:41:17.12	59.12	32.02	-42.1	-44.5	24.8	5.99e-01	0	37	0	372768768	54	5155
2026-01-25 00:41:18.12	59.47	32.16	-42.1	-44.6	24.7	6.04e-01	0	37	0	374341632	54	5178
2026-01-25 00:41:19.11	59.82	32.30	-42.1	-44.5	24.8	6.05e-01	0	37	0	376438784	54	5154
2026-01-25 00:41:20.11	60.17	32.45	-41.9	-44.4	24.9	6.00e-01	0	37	0	378011648	54	5061
2026-01-25 00:41:21.10	60.52	32.59	-41.8	-44.2	24.9	6.01e-01	0	37	0	380108800	54	4976
2026-01-25 00:41:22.10	60.88	32.73	-41.9	-44.3	24.9	6.01e-01	0	37	0	381681664	54	5020
2026-01-25 00:41:23.09	61.23	32.88	-42.0	-44.4	24.9	6.03e-01	0	37	0	383778816	54	5047
2026-01-25 00:41:24.08	61.59	33.02	-42.0	-44.4	24.8	6.00e-01	0	37	0	385351680	54	5074
2026-01-25 00:41:25.08	61.96	33.16	-42.0	-44.4	24.9	6.02e-01	0	37	0	387448832	54	5068
2026-01-25 00:41:26.07	62.33	33.30	-41.9	-44.3	25.0	6.03e-01	0	37	0	389545984	54	4996
2026-01-25 00:41:27.07	62.70	33.44	-41.8	-44.2	25.1	6.02e-01	0	37	0	391118848	54	4957
2026-01-25 00:41:28.06	63.08	33.58	-41.8	-44.2	25.0	6.03e-01	0	37	0	393216000	54	4950
2026-01-25 00:41:29.06	63.46	33.72	-41.9	-44.3	24.9	6.02e-01	0	37	0	394788864	54	5006
2026-01-25 00:41:30.05	63.84	33.85	-42.1	-44.5	24.8	6.02e-01	0	37	0	396886016	54	5121
2026-01-25 00:41:31.05	64.23	33.99	-42.1	-44.5	24.7	6.03e-01	0	37	0	398458880	55	4863
2026-01-25 00:41:32.04	64.61	34.13	-42.0	-44.3	25.0	6.00e-01	0	37	0	400556032	55	4746
2026-01-25 00:41:33.04	65.01	34.27	-42.0	-44.4	24.9	6.03e-01	0	38	0	402653184	55	4768
2026-01-25 00:41:34.03	65.40	34.40	-42.1	-44.5	24.8	6.01e-01	0	37	0	404226048	55	4866
2026-01-25 00:41:35.03	65.80	34.53	-42.0	-44.4	24.9	6.01e-01	0	37	0	406323200	55	4763
2026-01-25 00:41:36.02	66.20	34.67	-42.0	-44.4	24.9	6.03e-01	0	37	0	407896064	55	4770
2026-01-25 00:41:37.02	66.61	34.80	-42.2	-44.6	24.8	6.02e-01	0	37	0	409993216	55	4874
2026-01-25 00:41:38.01	67.02	34.93	-42.2	-44.6	24.7	6.04e-01	0	37	0	411566080	55	4874
2026-01-25 00:41:39.01	67.43	35.06	-41.9	-44.2	25.0	6.04e-01	0	37	0	413663232	55	4700
2026-01-25 00:41:40.00	67.84	35.19	-42.0	-44.3	25.0	6.02e-01	0	38	0	415236096	55	4745
2026-01-25 00:41:40.99	68.26	35.32	-42.1	-44.5	24.1	6.00e-01	0	37	0	417333248	55	4827
2026-01-25 00:41:41.99	68.69	35.45	-42.3	-44.6	24.7	6.00e-01	0	38	0	419430400	55	4924
2026-01-25 00:41:42.99	69.11	35.57	-42.2	-44.6	24.6	6.00e-01	0	38	0	421003264	55	4889
2026-01-25 00:41:43.98	69.54	35.70	-41.9	-44.3	24.9	6.02e-01	0	37	0	423100416	55	4724
2026-01-25 00:41:44.98	69.97	35.82	-42.0	-44.3	24.9	6.03e-01	0	37	0	424673280	55	4748
2026-01-25 00:41:45.97	70.41	35.94	-42.1	-44.5	24.8	6.01e-01	0	37	0	426770432	55	4817
2026-01-25 00:41:46.97	70.85	36.06	-42.0	-44.4	24.9	6.02e-01	0	37	0	428343296	55	4786
2026-01-25 00:41:47.96	71.29	36.18	-41.9	-44.3	25.0	6.05e-01	0	37	0	430440448	55	4728
2026-01-25 00:41:48.96	71.74	36.30	-42.0	-44.4	24.9	6.04e-01	0	37	0	432013312	55	4791
2026-01-25 00:41:49.95	72.18	36.42	-41.9	-44.2	25.0	6.02e-01	0	37	0	434110464	55	4668
2026-01-25 00:41:50.95	72.64	36.53	-42.0	-44.4	25.0	6.00e-01	0	37	0	436207616	55	4760
2026-01-25 00:41:51.94	73.09	36.65	-41.9	-44.3	24.9	6.00e-01	0	37	0	437780480	55	4740
2026-01-25 00:41:52.94	73.55	36.76	-41.8	-44.2	25.1	6.02e-01	0	37	0	439877632	55	4678
2026-01-25 00:41:53.93	74.01	36.87	-41.8	-44.2	25.0	6.04e-01	0	37	0	441450496	55	4686
2026-01-25 00:41:54.93	74.48	36.98	-41.6	-44.0	25.3	6.04e-01	0	37	0	443547648	55	4559
2026-01-25 00:41:55.92	74.94	37.09	-42.0	-44.5	24.7	6.00e-01	0	37	0	445120512	55	4844
2026-01-25 00:41:56.92	75.42	37.19	-42.0	-44.4	24.9	6.01e-01	0	38	0	447217664	55	4788
2026-01-25 00:41:57.91	75.89	37.30	-41.8	-44.3	25.0	6.04e-01	0	37	0	448790528	55	4706
2026-01-25 00:41:58.90	76.36	37.40	-41.8	-44.2	25.1	6.03e-01	0	37	0	450887680	55	4679
2026-01-25 00:41:59.90	76.85	37.50	-42.1	-44.5	24.8	6.04e-01	0	37	0	452984832	55	4840
2026-01-25 00:42:00.89	77.33	37.60	-42.0	-44.4	24.9	6.01e-01	0	37	0	454557696	55	4798
2026-01-25 00:42:01.89	77.82	37.69	-41.9	-44.3	24.9	6.00e-01	0	37	0	456654848	55	4747
2026-01-25 00:42:02.88	78.30	37.79	-41.8	-44.2	25.1	6.02e-01	0	37	0	458227712	55	4665
2026-01-25 00:42:03.88	78.80	37.88	-41.8	-44.2	25.1	5.99e-01	0	37	0	460324864	55	4666
2026-01-25 00:42:04.87	79.29	37.97	-41.9	-44.4	24.9	6.03e-01	0	37	0	461897728	55	4762
2026-01-25 00:42:05.87	79.79	38.06	-42.0	-44.5	24.8	6.02e-01	0	38	0	463994880	55	4827
2026-01-25 00:42:06.86	80.29	38.15	-41.8	-44.2	24.9	5.99e-01	0	37	0	466092032	55	4702
2026-01-25 00:42:07.86	80.79	38.23	-42.0	-44.4	24.9	6.02e-01	0	37	0	467664896	55	4802
2026-01-25 00:42:08.85	81.30	38.31	-41.8	-44.2	25.0	6.02e-01	0	38	0	469762048	55	4686
2026-01-25 00:42:09.84	81.80	38.39	-41.7	-44.1	25.2	6.00e-01	0	38	0	471334912	55	4629
2026-01-25 00:42:10.84	82.32	38.47	-41.8	-44.3	25.0	6.02e-01	0	38	0	473432064	55	4717
2026-01-25 00:42:11.83	82.83	38.54	-41.5	-43.9	25.4	6.02e-01	0	38	0	475004928	55	4514
2026-01-25 00:42:12.83	83.35	38.62	-41.6	-44.1	25.2	6.02e-01	0	37	0	477102080	55	4606
2026-01-25 00:42:13.83	83.87	38.69	-41.6	-44.1	25.1	6.03e-01	0	37	0	478674944	55	4638
2026-01-25 00:42:14.82	84.38	38.76	-41.6	-44.0	25.2	6.03e-01	0	38	0	480772096	55	4594
2026-01-25 00:42:15.81	84.90	38.82	-41.4	-43.8	25.3	6.05e-01	0	37	0	482869248	54	4744
2026-01-25 00:42:16.81	85.43	38.88	-41.6	-44.0	25.2	6.01e-01	0	37	0	484442112	54	4865
2026-01-25 00:42:17.80	85.95	38.94	-41.7	-44.2	25.0	6.00e-01	0	37	0	486539264	54	4972
2026-01-25 00:42:18.80	86.48	39.00	-41.7	-44.2	25.0	6.01e-01	0	38	0	488112128	54	4959
2026-01-25 00:42:19.79	87.01	39.06	-41.7	-44.2	25.1	6.03e-01	0	37	0	490209280	54	4945
2026-01-25 00:42:20.79	87.55	39.11	-41.7	-44.2	25.1	6.03e-01	0	37	0	491782144	54	4930
2026-01-25 00:42:21.78	88.08	39.16	-41.7	-44.1	25.2	6.04e-01	0	37	0	493879296	54	4915
2026-01-25 00:42:22.78	88.62	39.21	-41.7	-44.1	25.1	6.00e-01	0	38	0	495452160	54	4926
2026-01-25 00:42:23.77	89.15	39.25	-41.6	-44.0	25.2	6.04e-01	0	38	0	497549312	54	4837
2026-01-25 00:42:24.77	89.69	39.30	-41.7	-44.1	25.1	6.03e-01	0	38	0	499646464	54	4902
2026-01-25 00:42:25.76	90.23	39.34	-41.8	-44.2	25.1	6.04e-01	0	37	0	501219328	54	4967
2026-01-25 00:42:26.76	90.77	39.37	-41.7	-44.0	25.2	6.02e-01	0	37	0	503316480	54	4855
2026-01-25 00:42:27.75	91.31	39.41	-41.8	-44.2	25.1	6.02e-01	0	38	0	504889344	54	4950
2026-01-25 00:42:28.75	91.86	39.44	-41.6	-44.0	25.3	6.03e-01	0	38	0	506986496	54	4831
2026-01-25 00:42:29.75	92.41	39.47	-41.6	-43.9	25.2	6.02e-01	0	37	0	508559360	54	4812
2026-01-25 00:42:30.74	92.95	39.49	-41.6	-44.0	25.2	6.01e-01	0	37	0	510656512	54	4828
2026-01-25 00:42:31.74	93.50	39.52	-41.7	-44.1	25.1	6.01e-01	0	37	0	512229376	54	4921
2026-01-25 00:42:32.73	94.04	39.54	-41.6	-43.9	25.2	6.03e-01	0	38	0	514326528	54	4803
2026-01-25 00:42:33.72	94.59	39.55	-41.6	-44.0	25.3	6.01e-01	0	38	0	516423680	54	4831
2026-01-25 00:42:34.72	95.14	39.57	-41.8	-44.1	25.1	6.03e-01	0	38	0	517996544	54	4923
2026-01-25 00:42:35.71	95.68	39.58	-41.9	-44.2	24.9	6.01e-01	0	37	0	520093696	54	4983
2026-01-25 00:42:36.71	96.24	39.59	-41.7	-44.0	25.2	5.99e-01	0	38	0	521666560	54	4858
2026-01-25 00:42:37.70	96.78	39.59	-41.7	-44.1	25.2	6.04e-01	0	37	0	523763712	54	4882
2026-01-25 00:42:38.70	97.34	39.60	-41.8	-44.2	25.1	6.03e-01	0	37	0	525336576	54	4969
2026-01-25 00:42:39.69	97.88	39.60	-41.7	-44.1	25.1	5.96e-01	0	37	0	527433728	54	4913
2026-01-25 00:42:40.69	98.44	39.60	-41.9	-44.2	25.0	6.01e-01	0	38	0	529006592	54	4977
2026-01-25 00:42:41.68	98.98	39.59	-41.8	-44.1	25.0	6.02e-01	0	37	0	531103744	54	4921
2026-01-25 00:42:42.68	99.53	39.58	-41.8	-44.1	25.2	6.02e-01	0	38	0	533200896	54	4900
2026-01-25 00:42:43.67	100.08	39.57	-41.8	-44.2	25.0	6.04e-01	0	38	0	534773760	54	4982
2026-01-25 00:42:44.67	100.63	39.56	-41.8	-44.2	25.1	6.01e-01	0	38	0	536870912	54	4968
2026-01-25 00:42:45.66	101.18	39.54	-41.9	-44.3	25.0	6.01e-01	0	38	0	538443776	54	4987
2026-01-25 00:42:46.66	101.73	39.52	-41.9	-44.2	25.1	6.03e-01	0	38	0	540540928	54	4961
2026-01-25 00:42:47.65	102.27	39.50	-41.8	-44.2	25.1	6.03e-01	0	38	0	542113792	54	4935
2026-01-25 00:42:48.65	102.82	39.47	-41.7	-44.1	25.2	6.02e-01	0	37	0	544210944	54	4898
2026-01-25 00:42:49.64	103.36	39.44	-41.8	-44.3	25.0	6.00e-01	0	37	0	545783808	54	5033
2026-01-25 00:42:50.64	103.91	39.41	-41.6	-44.1	25.1	6.02e-01	0	37	0	547880960	54	4882
2026-01-25 00:42:51.63	104.45	39.38	-41.8	-44.2	25.2	6.04e-01	0	38	0	549978112	54	4927
2026-01-25 00:42:52.62	104.99	39.34	-41.8	-44.2	25.1	6.03e-01	0	37	0	551550976	54	4941
2026-01-25 00:42:53.62	105.53	39.30	-41.9	-44.3	25.0	6.02e-01	0	38	0	553648128	54	5040
2026-01-25 00:42:54.61	106.07	39.26	-41.8	-44.2	25.1	6.00e-01	0	38	0	555220992	54	4937
2026-01-25 00:42:55.61	106.61	39.22	-41.8	-44.1	25.2	6.05e-01	0	37	0	557318144	54	4925
2026-01-25 00:42:56.60	107.14	39.17	-41.9	-44.3	25.0	6.02e-01	0	38	0	558891008	54	5026
2026-01-25 00:42:57.60	107.68	39.12	-41.9	-44.3	25.0	6.02e-01	0	37	0	560988160	54	5021
2026-01-25 00:42:58.59	108.21	39.07	-42.0	-44.4	25.0	6.02e-01	0	38	0	562561024	54	5044
2026-01-25 00:42:59.59	108.74	39.01	-41.8	-44.2	25.2	6.04e-01	0	38	0	564658176	54	4932
2026-01-25 00:43:00.58	109.27	38.95	-41.8	-44.2	25.1	6.02e-01	0	38	0	566755328	54	4940
2026-01-25 00:43:01.58	109.80	38.89	-41.9	-44.2	25.1	6.05e-01	0	37	0	568328192	54	4978
2026-01-25 00:43:02.57	110.32	38.83	-42.0	-44.3	24.9	6.05e-01	0	38	0	570425344	54	5038
2026-01-25 00:43:03.57	110.85	38.76	-42.0	-44.4	24.9	6.02e-01	0	37	0	571998208	54	5084
2026-01-25 00:43:04.56	111.37	38.70	-42.0	-44.4	24.9	6.01e-01	0	37	0	574095360	54	5062
2026-01-25 00:43:05.56	111.89	38.63	-42.0	-44.4	24.9	6.03e-01	0	37	0	575668224	54	5050
2026-01-25 00:43:06.55	112.40	38.55	-42.1	-44.5	24.8	6.03e-01	0	37	0	577765376	54	5155
2026-01-25 00:43:07.54	112.92	38.48	-41.9	-44.2	25.1	6.02e-01	0	38	0	579338240	54	4983
2026-01-25 00:43:08.54	113.43	38.40	-41.9	-44.3	25.0	6.03e-01	0	37	0	581435392	54	5008
2026-01-25 00:43:09.53	113.94	38.32	-41.9	-44.2	25.0	6.01e-01	0	37	0	583532544	54	4976
2026-01-25 00:43:10.52	114.44	38.24	-41.8	-44.2	25.0	5.98e-01	0	38	0	585105408	54	4982
2026-01-25 00:43:11.52	114.95	38.16	-41.8	-44.4	24.9	6.03e-01	0	37	0	587202560	54	5042
2026-01-25 00:43:12.52	115.45	38.07	-41.6	-44.0	25.3	6.02e-01	0	38	0	588775424	54	4843
2026-01-25 00:43:13.51	115.95	37.98	-41.9	-44.3	25.0	6.05e-01	0	38	0	590872576	54	5017
2026-01-25 00:43:14.51	116.45	37.89	-42.0	-44.4	24.9	6.05e-01	0	38	0	592445440	54	5048
2026-01-25 00:43:15.50	116.94	37.80	-42.0	-44.4	24.9	6.02e-01	0	38	0	594542592	54	5080
2026-01-25 00:43:16.49	117.43	37.70	-41.8	-44.1	25.2	6.03e-01	0	38	0	596115456	54	4912
2026-01-25 00:43:17.49	117.92	37.61	-42.1	-44.5	24.8	6.04e-01	0	37	0	598212608	54	5136
2026-01-25 00:43:18.49	118.41	37.51	-42.1	-44.6	24.8	6.01e-01	0	38	0	600309760	54	5160
2026-01-25 00:43:19.48	118.89	37.41	-42.1	-44.4	24.9	5.98e-01	0	38	0	601882624	54	5094
2026-01-25 00:43:20.48	119.37	37.31	-42.0	-44.4	24.9	5.99e-01	0	37	0	603979776	54	5056
2026-01-25 00:43:21.47	119.84	37.20	-41.6	-43.9	25.4	6.02e-01	0	38	0	605552640	54	4783
2026-01-25 00:43:22.47	120.32	37.10	-41.8	-44.1	25.1	6.02e-01	0	37	0	607649792	54	4912
2026-01-25 00:43:23.46	120.78	36.99	-41.9	-44.3	25.0	6.02e-01	0	38	0	609746944	54	4994
2026-01-25 00:43:24.46	121.25	36.88	-41.7	-44.0	25.2	6.02e-01	0	38	0	611319808	54	4860
2026-01-25 00:43:25.46	121.72	36.77	-41.6	-44.0	25.3	6.00e-01	0	38	0	612892672	54	4825
2026-01-25 00:43:26.45	122.18	36.66	-41.7	-44.1	25.1	6.03e-01	0	38	0	614989824	54	4875
2026-01-25 00:43:27.45	122.63	36.54	-41.5	-43.9	24.7	6.02e-01	0	38	0	617086976	54	4771
2026-01-25 00:43:28.44	123.09	36.43	-41.5	-43.9	25.4	6.04e-01	0	38	0	618659840	54	4779
2026-01-25 00:43:29.44	123.54	36.31	-41.5	-43.9	25.3	6.00e-01	0	38	0	620756992	54	4786
2026-01-25 00:43:30.43	123.98	36.19	-41.4	-43.8	25.4	6.01e-01	0	38	0	622329856	54	4715
2026-01-25 00:43:31.43	124.43	36.07	-41.5	-43.9	25.3	6.01e-01	0	38	0	624427008	54	4790
2026-01-25 00:43:32.42	124.87	35.95	-41.4	-43.7	25.5	6.00e-01	0	37	0	626524160	54	4700
2026-01-25 00:43:33.42	125.31	35.82	-41.6	-43.9	25.3	6.02e-01	0	38	0	628097024	54	4781
2026-01-25 00:43:34.41	125.74	35.70	-41.5	-43.8	25.4	6.01e-01	0	38	0	630194176	54	4756
2026-01-25 00:43:35.41	126.17	35.58	-41.3	-43.6	25.6	6.05e-01	0	38	0	631767040	54	4599
2026-01-25 00:43:36.40	126.60	35.45	-41.1	-43.4	25.8	6.01e-01	0	38	0	633864192	54	4527
2026-01-25 00:43:37.40	127.02	35.32	-41.2	-43.4	25.8	6.03e-01	0	38	0	635437056	54	4542
2026-01-25 00:43:38.39	127.44	35.19	-41.2	-43.5	25.7	6.03e-01	0	38	0	637534208	54	4550
2026-01-25 00:43:39.39	127.86	35.06	-41.4	-43.7	25.5	6.02e-01	0	38	0	639107072	54	4667
2026-01-25 00:43:40.38	128.27	34.93	-41.2	-43.5	25.6	6.01e-01	0	38	0	641204224	54	4571
2026-01-25 00:43:41.37	128.68	34.80	-41.3	-43.6	25.7	6.01e-01	0	38	0	643301376	54	4602
2026-01-25 00:43:42.37	129.09	34.67	-41.2	-43.5	25.7	6.02e-01	0	38	0	644874240	54	4549
2026-01-25 00:43:43.36	129.49	34.53	-41.0	-43.3	25.9	6.04e-01	0	38	0	646971392	54	4454
2026-01-25 00:43:44.36	129.90	34.40	-40.9	-43.2	25.9	6.05e-01	0	37	0	648544256	53	4697
2026-01-25 00:43:45.35	130.29	34.26	-40.9	-43.2	25.9	6.01e-01	0	38	0	650641408	53	4683
2026-01-25 00:43:46.34	130.68	34.13	-41.0	-43.3	25.8	6.03e-01	0	38	0	652214272	53	4751
2026-01-25 00:43:47.34	131.08	33.99	-40.9	-43.2	25.8	6.01e-01	0	38	0	654311424	53	4672
2026-01-25 00:43:48.34	131.46	33.85	-41.0	-43.3	25.8	6.02e-01	0	38	0	655884288	53	4742
2026-01-25 00:43:49.33	131.85	33.71	-40.9	-43.1	25.8	6.01e-01	0	38	0	657981440	53	4642
2026-01-25 00:43:50.32	132.23	33.57	-40.8	-43.1	26.1	6.02e-01	0	38	0	660078592	53	4600
2026-01-25 00:43:51.32	132.60	33.43	-40.8	-43.1	26.1	6.01e-01	0	37	0	661651456	53	4614
2026-01-25 00:43:52.31	132.98	33.29	-41.0	-43.3	25.9	6.03e-01	0	38	0	663224320	53	4707
2026-01-25 00:43:53.30	133.35	33.15	-40.9	-43.3	25.5	6.02e-01	0	38	0	665321472	53	4726
2026-01-25 00:43:54.30	133.71	33.01	-40.8	-43.1	25.9	6.02e-01	0	38	0	667418624	53	4635
2026-01-25 00:43:55.29	134.08	32.87	-40.8	-43.1	26.0	6.04e-01	0	38	0	668991488	53	4620
2026-01-25 00:43:56.29	134.44	32.72	-40.5	-42.8	26.3	5.99e-01	0	38	0	671088640	53	4453
2026-01-25 00:43:57.28	134.80	32.58	-40.6	-42.8	26.3	6.03e-01	0	38	0	672661504	53	4461
2026-01-25 00:43:58.27	135.15	32.44	-40.6	-42.8	26.3	6.03e-01	0	38	0	674758656	53	4475
2026-01-25 00:43:59.27	135.50	32.29	-40.7	-42.9	26.2	6.05e-01	0	38	0	676855808	53	4511
2026-01-25 00:44:00.26	135.85	32.15	-40.7	-42.9	26.3	6.04e-01	0	37	0	678428672	53	4499
2026-01-25 00:44:01.26	136.20	32.00	-40.6	-42.8	26.3	6.01e-01	0	37	0	680525824	53	4471
2026-01-25 00:44:02.26	136.54	31.86	-40.6	-42.8	26.3	6.05e-01	0	38	0	682098688	53	4480
2026-01-25 00:44:03.25	136.88	31.71	-40.6	-42.8	26.3	6.01e-01	0	38	0	684195840	53	4466
2026-01-25 00:44:04.25	137.21	31.57	-40.6	-42.8	26.2	6.03e-01	0	38	0	685768704	53	4478
2026-01-25 00:44:05.24	137.55	31.42	-40.6	-42.8	26.3	6.04e-01	0	38	0	687865856	53	4477
2026-01-25 00:44:06.24	137.88	31.27	-40.6	-42.8	26.3	6.01e-01	0	38	0	689438720	53	4465
2026-01-25 00:44:07.23	138.20	31.13	-40.7	-42.9	26.2	6.01e-01	0	37	0	691535872	53	4535
2026-01-25 00:44:08.23	138.53	30.98	-40.6	-42.9	26.2	6.02e-01	0	38	0	693633024	53	4498
2026-01-25 00:44:09.23	138.85	30.83	-40.5	-42.6	26.4	6.01e-01	0	38	0	695205888	53	4389
2026-01-25 00:44:10.22	139.17	30.69	-40.5	-42.6	26.5	6.02e-01	0	38	0	697303040	52	4644
2026-01-25 00:44:11.22	139.48	30.54	-40.5	-42.7	26.4	6.02e-01	0	38	0	698875904	52	4674
2026-01-25 00:44:12.21	139.79	30.39	-40.6	-42.8	26.3	6.03e-01	0	38	0	700973056	52	4730
2026-01-25 00:44:13.21	140.10	30.24	-40.6	-42.8	26.2	5.99e-01	0	38	0	702545920	52	4753
2026-01-25 00:44:14.20	140.41	30.10	-40.6	-42.8	26.3	6.01e-01	0	38	0	704643072	52	4717
2026-01-25 00:44:15.20	140.71	29.95	-40.6	-42.8	26.3	6.03e-01	0	38	0	706215936	52	4749
2026-01-25 00:44:16.19	141.01	29.80	-40.8	-43.0	26.2	6.01e-01	0	38	0	708313088	52	4819
2026-01-25 00:44:17.18	141.31	29.65	-40.8	-43.1	26.1	6.04e-01	0	38	0	710410240	52	4871
2026-01-25 00:44:18.18	141.61	29.51	-41.0	-43.3	25.9	6.01e-01	0	38	0	711983104	52	5002
2026-01-25 00:44:19.17	141.90	29.36	-40.8	-43.0	25.9	6.00e-01	0	38	0	714080256	52	4862
2026-01-25 00:44:20.17	142.19	29.21	-40.7	-43.0	25.9	6.03e-01	0	38	0	715653120	52	4829
2026-01-25 00:44:21.16	142.47	29.06	-40.6	-42.9	26.2	6.02e-01	0	38	0	717750272	52	4760
2026-01-25 00:44:22.16	142.76	28.92	-40.7	-42.9	26.1	6.02e-01	0	38	0	719323136	52	4807
2026-01-25 00:44:23.15	143.04	28.77	-40.6	-42.9	26.2	5.99e-01	0	38	0	721420288	52	4775
2026-01-25 00:44:24.15	143.32	28.62	-40.8	-43.0	26.1	6.05e-01	0	38	0	722993152	52	4856
2026-01-25 00:44:25.14	143.60	28.47	-40.8	-43.1	26.0	6.01e-01	0	38	0	725090304	52	4894
2026-01-25 00:44:26.13	143.87	28.33	-40.9	-43.2	25.6	6.00e-01	0	38	0	727187456	52	4937
2026-01-25 00:44:27.13	144.14	28.18	-40.9	-43.2	25.9	6.02e-01	0	37	0	728760320	52	4940
2026-01-25 00:44:28.12	144.41	28.04	-40.8	-43.1	26.0	6.02e-01	0	38	0	730857472	52	4880
2026-01-25 00:44:29.12	144.68	27.89	-40.9	-43.2	26.0	6.02e-01	0	38	0	732430336	52	4933
2026-01-25 00:44:30.11	144.94	27.74	-40.8	-43.1	26.0	6.02e-01	0	38	0	734527488	52	4913
2026-01-25 00:44:31.11	145.20	27.60	-40.8	-43.2	25.9	6.01e-01	0	38	0	736100352	52	4930
2026-01-25 00:44:32.10	145.46	27.45	-40.9	-43.3	25.8	6.02e-01	0	38	0	738197504	52	5014
2026-01-25 00:44:33.10	145.72	27.30	-40.9	-43.3	25.8	6.01e-01	0	38	0	739770368	52	5015
2026-01-25 00:44:34.09	145.97	27.16	-41.1	-43.5	25.7	6.04e-01	0	38	0	741867520	52	5102
2026-01-25 00:44:35.09	146.22	27.01	-41.1	-43.5	25.6	6.00e-01	0	38	0	743964672	52	5151
2026-01-25 00:44:36.08	146.47	26.87	-41.1	-43.5	25.6	6.01e-01	0	38	0	745537536	52	5159
2026-01-25 00:44:37.08	146.72	26.73	-41.1	-43.5	25.6	6.04e-01	0	38	0	747634688	52	5138
2026-01-25 00:44:38.07	146.96	26.58	-41.2	-43.5	25.7	6.04e-01	0	38	0	749207552	53	4838
2026-01-25 00:44:39.07	147.21	26.44	-41.2	-43.5	25.6	6.05e-01	0	38	0	751304704	53	4831
2026-01-25 00:44:40.06	147.45	26.30	-41.2	-43.6	25.6	6.01e-01	0	38	0	752877568	53	4891
2026-01-25 00:44:41.06	147.69	26.15	-41.3	-43.6	25.6	6.01e-01	0	38	0	754974720	53	4906
2026-01-25 00:44:42.05	147.92	26.01	-41.2	-43.5	25.6	6.04e-01	0	38	0	756547584	53	4870
2026-01-25 00:44:43.05	148.16	25.87	-41.3	-43.7	25.5	6.06e-01	0	38	0	758644736	53	4936
2026-01-25 00:44:44.04	148.39	25.72	-41.3	-43.7	25.4	6.02e-01	0	38	0	760741888	53	4949
2026-01-25 00:44:45.04	148.62	25.58	-41.3	-43.8	25.3	6.03e-01	0	38	0	762314752	53	4999
2026-01-25 00:44:46.03	148.85	25.44	-41.2	-43.6	25.5	6.04e-01	0	38	0	764411904	53	4925
2026-01-25 00:44:47.03	149.07	25.30	-41.2	-43.7	25.5	6.00e-01	0	38	0	765984768	53	4927
2026-01-25 00:44:48.02	149.30	25.16	-41.2	-43.7	25.4	6.00e-01	0	38	0	768081920	53	4979
2026-01-25 00:44:49.01	149.52	25.02	-41.1	-43.6	25.5	6.01e-01	0	38	0	769654784	53	4897
2026-01-25 00:44:50.01	149.74	24.88	-41.1	-43.5	25.5	6.04e-01	0	38	0	771751936	53	4864
2026-01-25 00:44:51.00	149.95	24.74	-41.1	-43.6	25.6	6.03e-01	0	38	0	773324800	53	4879
2026-01-25 00:44:52.00	150.17	24.60	-41.2	-43.5	25.6	6.02e-01	0	38	0	775421952	53	4867
2026-01-25 00:44:52.99	150.38	24.46	-41.2	-43.6	25.5	6.02e-01	0	38	0	777519104	53	4921
2026-01-25 00:44:53.99	150.60	24.32	-41.3	-43.8	25.4	6.00e-01	0	38	0	779091968	53	4996
2026-01-25 00:44:54.98	150.80	24.19	-41.4	-43.9	25.3	6.03e-01	0	38	0	781189120	53	5044
2026-01-25 00:44:55.98	151.01	24.05	-41.3	-43.7	25.4	6.00e-01	0	38	0	782761984	53	4961
2026-01-25 00:44:56.97	151.22	23.91	-41.4	-43.7	25.4	6.03e-01	0	38	0	784859136	53	4951
2026-01-25 00:44:57.96	151.42	23.77	-41.4	-43.7	25.4	6.03e-01	0	38	0	786432000	53	4966
2026-01-25 00:44:58.96	151.63	23.64	-41.4	-43.7	25.4	6.01e-01	0	38	0	788529152	53	4970
2026-01-25 00:44:59.96	151.83	23.50	-41.4	-43.8	25.4	6.00e-01	0	38	0	790102016	53	4992
2026-01-25 00:45:00.95	152.03	23.37	-41.5	-43.8	25.3	6.05e-01	0	38	0	792199168	53	5023
2026-01-25 00:45:01.94	152.22	23.23	-41.5	-43.9	25.2	6.05e-01	0	38	0	794296320	53	5071
2026-01-25 00:45:02.94	152.42	23.10	-41.5	-43.8	25.3	6.01e-01	0	38	0	795869184	53	5008
2026-01-25 00:45:03.93	152.61	22.96	-41.5	-43.8	25.3	6.03e-01	0	38	0	797966336	53	5019
2026-01-25 00:45:04.93	152.81	22.83	-41.5	-43.8	25.3	6.03e-01	0	38	0	799539200	53	5024
2026-01-25 00:45:05.92	152.99	22.70	-41.4	-43.8	25.4	6.00e-01	0	38	0	801636352	53	4993
2026-01-25 00:45:06.92	153.18	22.56	-41.4	-43.7	25.5	6.03e-01	0	38	0	803209216	53	4949
2026-01-25 00:45:07.91	153.37	22.43	-41.4	-43.7	25.4	6.03e-01	0	38	0	805306368	53	4957
2026-01-25 00:45:08.91	153.56	22.30	-41.4	-43.7	25.4	6.02e-01	0	38	0	806879232	53	4960
2026-01-25 00:45:09.90	153.74	22.17	-41.4	-43.8	25.3	6.04e-01	0	38	0	808976384	53	4985
2026-01-25 00:45:10.90	153.92	22.04	-41.4	-43.8	25.3	6.01e-01	0	38	0	811073536	53	5016
2026-01-25 00:45:11.89	154.10	21.91	-41.5	-43.9	25.2	6.02e-01	0	38	0	812646400	53	5057
2026-01-25 00:45:12.89	154.28	21.77	-41.5	-43.9	25.1	6.02e-01	0	38	0	814743552	53	5079
2026-01-25 00:45:13.88	154.46	21.65	-41.5	-43.9	25.2	6.04e-01	0	38	0	816316416	53	5050
2026-01-25 00:45:14.88	154.64	21.52	-41.5	-43.8	25.3	6.01e-01	0	38	0	818413568	53	5030
2026-01-25 00:45:15.87	154.81	21.39	-41.5	-43.8	25.3	6.01e-01	0	38	0	819986432	53	5029
2026-01-25 00:45:16.87	154.99	21.26	-41.4	-43.7	25.4	6.01e-01	0	38	0	822083584	53	4958
2026-01-25 00:45:17.86	155.16	21.13	-41.3	-43.6	25.5	6.00e-01	0	38	0	824180736	53	4914
2026-01-25 00:45:18.86	155.33	21.00	-41.2	-43.5	25.5	6.03e-01	0	38	0	825753600	53	4857
2026-01-25 00:45:19.86	155.50	20.88	-41.2	-43.5	25.6	6.01e-01	0	38	0	827850752	53	4831
2026-01-25 00:45:20.85	155.66	20.75	-41.3	-43.5	25.5	6.03e-01	0	38	0	829423616	53	4866
2026-01-25 00:45:21.84	155.83	20.62	-41.2	-43.5	25.6	6.04e-01	0	38	0	831520768	53	4840
2026-01-25 00:45:22.84	155.99	20.50	-41.2	-43.6	25.6	6.03e-01	0	38	0	833093632	53	4871
2026-01-25 00:45:23.83	156.16	20.37	-41.3	-43.6	25.4	6.02e-01	0	38	0	835190784	53	4896
2026-01-25 00:45:24.83	156.32	20.25	-41.3	-43.6	25.4	6.02e-01	0	38	0	836763648	53	4916
2026-01-25 00:45:25.82	156.48	20.12	-41.3	-43.7	25.4	6.01e-01	0	38	0	838860800	53	4951
2026-01-25 00:45:26.81	156.64	20.00	-41.3	-43.6	25.4	6.02e-01	0	38	0	840957952	53	4921
2026-01-25 00:45:27.81	156.80	19.88	-41.2	-43.5	25.5	6.01e-01	0	38	0	842530816	53	4858
2026-01-25 00:45:28.80	156.95	19.76	-41.2	-43.6	25.5	6.03e-01	0	38	0	844627968	53	4891
2026-01-25 00:45:29.80	157.11	19.63	-41.2	-43.6	25.4	5.99e-01	0	38	0	846200832	53	4912
2026-01-25 00:45:30.80	157.26	19.51	-41.2	-43.6	25.4	6.01e-01	0	38	0	848297984	53	4905
2026-01-25 00:45:31.79	157.42	19.39	-41.1	-43.5	25.5	6.02e-01	0	38	0	849870848	53	4863
2026-01-25 00:45:32.79	157.57	19.27	-41.1	-43.6	25.4	6.00e-01	0	38	0	851968000	53	4875
2026-01-25 00:45:33.78	157.72	19.15	-41.1	-43.5	25.5	6.02e-01	0	38	0	853540864	53	4839
2026-01-25 00:45:34.78	157.87	19.03	-41.1	-43.5	25.5	6.02e-01	0	38	0	855638016	53	4841
2026-01-25 00:45:35.77	158.02	18.91	-41.1	-43.5	25.5	6.04e-01	0	38	0	857735168	53	4849
2026-01-25 00:45:36.77	158.16	18.79	-41.2	-43.6	25.4	6.04e-01	0	38	0	859308032	53	4896
2026-01-25 00:45:37.76	158.31	18.67	-41.3	-43.7	25.3	6.02e-01	0	38	0	861405184	53	4947
2026-01-25 00:45:38.75	158.45	18.55	-41.1	-43.5	25.5	6.03e-01	0	38	0	862978048	53	4822
2026-01-25 00:45:39.75	158.60	18.44	-41.1	-43.5	20.5	6.04e-01	0	38	0	865075200	53	4820
2026-01-25 00:45:40.74	158.74	18.32	-41.1	-43.5	25.6	6.04e-01	0	38	0	866648064	53	4822
2026-01-25 00:45:41.74	158.88	18.20	-41.1	-43.5	25.5	6.05e-01	0	38	0	868745216	53	4844
2026-01-25 00:45:42.73	159.02	18.09	-41.2	-43.5	25.5	6.03e-01	0	37	0	870318080	53	4866
2026-01-25 00:45:43.73	159.16	17.97	-41.2	-43.6	25.4	6.03e-01	0	38	0	872415232	53	4920
2026-01-25 00:45:44.72	159.29	17.85	-41.1	-43.5	25.5	6.00e-01	0	38	0	874512384	53	4825
2026-01-25 00:45:45.72	159.43	17.74	-41.1	-43.5	25.5	6.00e-01	0	38	0	876085248	53	4828
2026-01-25 00:45:46.72	159.57	17.62	-41.1	-43.5	25.5	6.02e-01	0	38	0	878182400	53	4837
2026-01-25 00:45:47.71	159.70	17.51	-41.1	-43.5	25.5	6.03e-01	0	38	0	879755264	53	4824
2026-01-25 00:45:48.70	159.84	17.40	-41.1	-43.4	25.6	6.02e-01	0	38	0	881852416	53	4798
2026-01-25 00:45:49.70	159.97	17.28	-41.1	-43.4	25.6	6.03e-01	0	38	0	883425280	53	4806
2026-01-25 00:45:50.70	160.10	17.17	-41.1	-43.4	25.6	6.03e-01	0	38	0	885522432	53	4805
2026-01-25 00:45:51.69	160.23	17.06	-41.1	-43.4	25.5	6.03e-01	0	38	0	887095296	53	4786
2026-01-25 00:45:52.69	160.36	16.94	-41.1	-43.4	25.5	5.99e-01	0	38	0	889192448	53	4800
2026-01-25 00:45:53.68	160.49	16.83	-41.1	-43.4	25.5	6.03e-01	0	38	0	891289600	53	4809
2026-01-25 00:45:54.68	160.62	16.72	-41.2	-43.5	25.5	6.04e-01	0	38	0	892862464	53	4842
2026-01-25 00:45:55.67	160.74	16.61	-41.2	-43.5	25.3	6.02e-01	0	38	0	894959616	53	4825
2026-01-25 00:45:56.67	160.87	16.50	-41.1	-43.4	25.5	6.00e-01	0	38	0	896532480	53	4781
2026-01-25 00:45:57.66	160.99	16.39	-41.1	-43.4	25.6	6.00e-01	0	38	0	898629632	53	4777
2026-01-25 00:45:58.66	161.12	16.28	-41.1	-43.4	25.5	6.03e-01	0	38	0	900202496	53	4788
2026-01-25 00:45:59.65	161.24	16.17	-41.0	-43.3	25.6	6.01e-01	0	38	0	902299648	53	4746
2026-01-25 00:46:00.65	161.36	16.06	-40.9	-43.3	25.6	6.03e-01	0	38	0	904396800	53	4730
2026-01-25 00:46:01.64	161.48	15.96	-40.9	-43.3	25.6	6.01e-01	0	38	0	905969664	53	4740
2026-01-25 00:46:02.64	161.60	15.85	-40.8	-43.2	25.7	6.01e-01	0	38	0	908066816	53	4683
2026-01-25 00:46:03.63	161.72	15.74	-41.0	-43.4	25.6	6.04e-01	0	38	0	909639680	53	4778
2026-01-25 00:46:04.63	161.84	15.63	-40.9	-43.3	25.7	6.01e-01	0	38	0	911736832	53	4722
2026-01-25 00:46:05.62	161.96	15.53	-41.0	-43.4	25.1	6.01e-01	0	38	0	913309696	53	4761
2026-01-25 00:46:06.62	162.08	15.42	-40.9	-43.3	25.6	6.03e-01	0	38	0	915406848	53	4754
2026-01-25 00:46:07.61	162.19	15.32	-41.0	-43.4	25.5	6.04e-01	0	38	0	917504000	53	4799
2026-01-25 00:46:08.61	162.31	15.21	-41.0	-43.4	25.5	6.05e-01	0	38	0	919076864	53	4810
2026-01-25 00:46:09.60	162.42	15.11	-41.0	-43.4	25.6	6.05e-01	0	38	0	921174016	53	4782
2026-01-25 00:46:10.60	162.53	15.00	-41.1	-43.5	25.4	6.03e-01	0	38	0	922746880	53	4846
2026-01-25 00:46:11.59	162.65	14.90	-41.1	-43.6	25.4	6.02e-01	0	38	0	924844032	53	4878
2026-01-25 00:46:12.59	162.76	14.79	-41.1	-43.6	25.4	6.02e-01	0	38	0	926416896	53	4873
2026-01-25 00:46:13.58	162.87	14.69	-41.2	-43.6	25.3	6.03e-01	0	38	0	928514048	53	4909
2026-01-25 00:46:14.58	162.98	14.59	-41.2	-43.6	25.3	6.03e-01	0	38	0	930086912	53	4921
2026-01-25 00:46:15.57	163.09	14.49	-41.2	-43.6	25.3	6.03e-01	0	38	0	932184064	53	4906
2026-01-25 00:46:16.57	163.20	14.38	-41.2	-43.6	25.3	6.02e-01	0	38	0	934281216	53	4914
2026-01-25 00:46:17.56	163.30	14.28	-41.2	-43.6	25.3	6.04e-01	0	38	0	935854080	53	4905
2026-01-25 00:46:18.56	163.41	14.18	-41.2	-43.5	25.4	6.05e-01	0	38	0	937951232	53	4859
2026-01-25 00:46:19.55	163.52	14.08	-41.3	-43.6	25.3	5.98e-01	0	38	0	939524096	53	4904
2026-01-25 00:46:20.55	163.62	13.98	-41.2	-43.6	25.3	6.01e-01	0	38	0	941621248	53	4886
2026-01-25 00:46:21.55	163.73	13.88	-41.3	-43.7	25.2	6.05e-01	0	38	0	943194112	53	4951
2026-01-25 00:46:22.54	163.83	13.78	-41.2	-43.6	25.3	6.03e-01	0	38	0	945291264	53	4909
2026-01-25 00:46:23.53	163.93	13.68	-41.2	-43.6	25.3	6.02e-01	0	38	0	946864128	53	4906
2026-01-25 00:46:24.53	164.04	13.58	-41.2	-43.6	25.3	6.01e-01	0	38	0	948961280	53	4902
2026-01-25 00:46:25.53	164.14	13.48	-41.3	-43.7	25.2	6.04e-01	0	38	0	951058432	53	4957
2026-01-25 00:46:26.52	164.24	13.38	-41.3	-43.7	25.2	6.03e-01	0	38	0	952631296	53	4954
2026-01-25 00:46:27.52	164.34	13.28	-41.3	-43.7	25.1	6.02e-01	0	38	0	954728448	53	4976
2026-01-25 00:46:28.51	164.44	13.19	-41.3	-43.8	25.0	6.02e-01	0	38	0	956301312	53	5010
2026-01-25 00:46:29.50	164.54	13.09	-41.3	-43.8	25.0	6.02e-01	0	38	0	958398464	53	5032
2026-01-25 00:46:30.50	164.64	12.99	-41.2	-43.7	25.1	6.01e-01	0	38	0	959971328	53	4982
2026-01-25 00:46:31.50	164.74	12.90	-41.2	-43.8	24.9	6.01e-01	0	38	0	962068480	53	4985
2026-01-25 00:46:32.49	164.83	12.80	-41.2	-43.8	25.0	6.02e-01	0	38	0	963641344	53	5034
2026-01-25 00:46:33.49	164.93	12.70	-41.3	-43.9	24.9	6.04e-01	0	38	0	965738496	53	5077
2026-01-25 00:46:34.48	165.03	12.61	-41.4	-44.0	24.9	6.02e-01	0	38	0	967835648	53	5108
2026-01-25 00:46:35.48	165.12	12.51	-41.3	-43.9	24.9	6.02e-01	0	38	0	969408512	53	5094
2026-01-25 00:46:36.47	165.22	12.42	-41.3	-43.9	24.9	6.04e-01	0	38	0	971505664	53	5088
2026-01-25 00:46:37.47	165.31	12.32	-41.2	-44.0	24.9	6.02e-01	0	38	0	973078528	53	5102
2026-01-25 00:46:38.46	165.40	12.23	-41.3	-44.0	24.9	6.01e-01	0	38	0	975175680	53	5112
2026-01-25 00:46:39.46	165.50	12.14	-41.3	-43.9	24.9	6.03e-01	0	38	0	976748544	53	5100
2026-01-25 00:46:40.45	165.59	12.04	-41.3	-44.0	24.9	6.03e-01	0	38	0	978845696	53	5103
2026-01-25 00:46:41.45	165.68	11.95	-41.4	-44.1	24.8	6.04e-01	0	38	0	980418560	53	5167
2026-01-25 00:46:42.44	165.77	11.86	-41.4	-44.0	24.8	6.01e-01	0	38	0	982515712	53	5136
2026-01-25 00:46:43.44	165.86	11.76	-41.4	-44.0	24.8	6.00e-01	0	38	0	984612864	53	5137
2026-01-25 00:46:44.43	165.95	11.67	-41.5	-44.0	24.8	6.03e-01	0	38	0	986185728	53	5158
2026-01-25 00:46:45.43	166.04	11.58	-41.4	-44.0	24.8	6.02e-01	0	38	0	988282880	53	5122
2026-01-25 00:46:46.42	166.13	11.49	-41.5	-44.0	24.8	6.01e-01	0	38	0	989855744	53	5147
2026-01-25 00:46:47.42	166.22	11.40	-41.5	-44.1	24.7	6.03e-01	0	38	0	991952896	53	5184
2026-01-25 00:46:48.41	166.30	11.31	-41.4	-44.0	24.8	6.01e-01	0	38	0	993525760	53	5134
2026-01-25 00:46:49.41	166.39	11.22	-41.6	-44.2	24.7	6.01e-01	0	38	0	995622912	53	5220
2026-01-25 00:46:50.40	166.48	11.13	-41.4	-44.0	24.9	6.02e-01	0	38	0	997195776	53	5112
2026-01-25 00:46:51.40	166.56	11.04	-41.5	-44.1	24.7	6.05e-01	0	38	0	999292928	53	5187
2026-01-25 00:46:52.39	166.65	10.95	-41.6	-44.2	24.6	6.02e-01	0	38	0	1001390080	53	5263
2026-01-25 00:46:53.39	166.73	10.86	-41.5	-44.2	24.6	6.01e-01	0	38	0	1002962944	53	5269
2026-01-25 00:46:54.38	166.82	10.77	-41.4	-44.2	24.6	6.01e-01	0	38	0	1005060096	53	5240
2026-01-25 00:46:55.38	166.90	10.68	-41.2	-44.2	24.6	6.03e-01	0	38	0	1006632960	53	5238
2026-01-25 00:46:56.37	166.98	10.59	-41.3	-44.4	24.4	6.00e-01	0	38	0	1008730112	53	5352
2026-01-25 00:46:57.37	167.07	10.50	-41.1	-44.2	23.7	6.01e-01	0	38	0	1010302976	53	5260
2026-01-25 00:46:58.36	167.15	10.42	-41.1	-44.3	24.5	6.02e-01	0	38	0	1012400128	53	5298
2026-01-25 00:46:59.36	167.23	10.33	-41.0	-44.4	24.4	6.04e-01	0	38	0	1013972992	53	5380
2026-01-25 00:47:00.34	167.31	10.24	-40.9	-44.4	24.3	6.01e-01	0	38	0	1016070144	53	5391
2026-01-25 00:47:01.33	167.39	10.16	-40.8	-44.4	24.2	6.00e-01	0	38	0	1018167296	53	5391
2026-01-25 00:47:02.32	167.47	10.07	-40.7	-44.5	24.3	6.03e-01	0	38	0	1019740160	53	5433
2026-01-25 00:47:03.32	167.55	9.98	-40.6	-44.5	24.2	6.00e-01	0	38	0	1021837312	53	5459
2026-01-25 00:47:04.31	167.63	9.90	-40.6	-44.6	24.1	6.02e-01	0	38	0	1023410176	53	5505
2026-01-25 00:47:05.31	167.71	9.81	-40.5	-44.5	24.2	6.02e-01	0	38	0	1025507328	53	5433
2026-01-25 00:47:06.30	167.79	9.73	-40.5	-44.5	24.2	6.04e-01	0	38	0	1027080192	53	5463
2026-01-25 00:47:07.29	167.86	9.64	-40.6	-44.6	24.1	6.04e-01	0	38	0	1029177344	53	5514
2026-01-25 00:47:08.29	167.94	9.56	-40.6	-44.6	24.1	6.04e-01	0	38	0	1030750208	53	5521
2026-01-25 00:47:09.28	168.02	9.47	-40.7	-44.7	24.1	6.01e-01	0	38	0	1032847360	53	5545
2026-01-25 00:47:10.27	168.09	9.39	-40.7	-44.7	24.0	6.03e-01	0	38	0	1034944512	53	5579
2026-01-25 00:47:11.27	168.17	9.31	-40.8	-44.8	23.9	6.01e-01	0	38	0	1036517376	53	5597
2026-01-25 00:47:12.26	168.24	9.22	-40.9	-44.8	23.9	6.02e-01	0	38	0	1038614528	53	5627
2026-01-25 00:47:13.26	168.32	9.14	-40.9	-44.7	24.0	6.03e-01	0	38	0	1040187392	53	5544
2026-01-25 00:47:14.25	168.39	9.06	-41.0	-44.8	23.9	6.04e-01	0	38	0	1042284544	53	5621
2026-01-25 00:47:15.25	168.47	8.97	-45.7	-65.0	4.1	7.43e-01	0	38	104	1043333120	61	36137
2026-01-25 00:47:16.24	168.54	8.89	-48.6	-68.8	3.8	7.49e-01	0	38	104	1043333120	68	37654
2026-01-25 00:47:17.23	168.61	8.81	-49.2	-70.3	3.8	7.46e-01	0	38	104	1043333120	70	39927
2026-01-25 00:47:18.22	168.69	8.73	-49.9	-70.5	3.8	7.47e-01	0	38	104	1043333120	70	40765
2026-01-25 00:47:19.22	168.76	8.64	-50.5	-70.7	3.9	7.42e-01	0	38	104	1043333120	71	39484
2026-01-25 00:47:20.21	168.83	8.56	-50.3	-70.8	3.8	7.45e-01	0	38	104	1043333120	71	39771
2026-01-25 00:47:21.20	168.90	8.48	-50.6	-70.8	3.8	7.44e-01	0	38	104	1043333120	71	40024
2026-01-25 00:47:22.19	168.97	8.40	-50.0	-70.9	3.8	7.48e-01	0	38	104	1043333120	71	40312
2026-01-25 00:47:23.19	169.04	8.32	-50.6	-70.9	3.8	7.45e-01	0	38	104	1043333120	71	40435
2026-01-25 00:47:24.18	169.11	8.24	-50.6	-71.0	3.8	7.47e-01	0	38	104	1043333120	71	40587
2026-01-25 00:47:25.17	169.18	8.16	-50.6	-70.9	3.8	7.45e-01	0	38	104	1043333120	72	38194
2026-01-25 00:47:26.16	169.25	8.08	-50.7	-71.0	3.8	7.47e-01	0	38	104	1043333120	72	38299
2026-01-25 00:47:27.16	169.32	8.00	-50.9	-71.0	3.8	7.47e-01	0	38	104	1043333120	72	38284
2026-01-25 00:47:28.15	169.39	7.92	-50.5	-71.0	3.8	7.48e-01	0	38	104	1043333120	72	38423
2026-01-25 00:47:29.14	169.46	7.84	-50.8	-71.0	3.8	7.46e-01	0	38	104	1043333120	72	38343
2026-01-25 00:47:30.14	169.53	7.76	-50.0	-70.8	3.8	7.49e-01	0	38	104	1043333120	71	39692
2026-01-25 00:47:31.13	169.59	7.69	-50.8	-71.0	3.8	7.46e-01	0	38	104	1043333120	72	38379
2026-01-25 00:47:32.13	169.66	7.61	-50.4	-71.0	3.8	7.44e-01	0	38	104	1043333120	72	38356
2026-01-25 00:47:33.12	169.73	7.53	-50.4	-71.0	3.8	7.44e-01	0	38	104	1043333120	72	38443
2026-01-25 00:47:34.11	169.79	7.45	-50.7	-71.0	3.8	7.50e-01	0	38	104	1043333120	72	38423
2026-01-25 00:47:35.10	169.86	7.37	-50.9	-71.0	3.8	7.46e-01	0	38	104	1043333120	72	38382
2026-01-25 00:47:36.10	169.93	7.30	-50.8	-71.0	3.8	7.45e-01	0	38	104	1043333120	72	38401
2026-01-25 00:47:37.09	169.99	7.22	-50.0	-71.0	3.8	7.45e-01	0	38	104	1043333120	72	38437
2026-01-25 00:47:38.08	170.06	7.14	-50.5	-71.0	3.8	7.48e-01	0	38	104	1043333120	72	38426
2026-01-25 00:47:39.08	170.12	7.06	-50.4	-71.0	3.8	7.47e-01	0	38	104	1043333120	72	38373
2026-01-25 00:47:40.07	170.18	6.99	-50.3	-71.0	3.8	7.48e-01	0	38	104	1043333120	72	38431
2026-01-25 00:47:41.06	170.25	6.91	-50.4	-71.0	3.8	7.44e-01	0	38	104	1043333120	71	40804
2026-01-25 00:47:42.06	170.31	6.84	-49.9	-71.0	3.8	7.44e-01	0	38	104	1043333120	71	40710
2026-01-25 00:47:43.05	170.38	6.76	-50.1	-71.0	3.8	7.45e-01	0	38	104	1043333120	71	40581
2026-01-25 00:47:44.04	170.44	6.68	-50.1	-70.9	3.8	7.50e-01	0	38	104	1043333120	71	40503
2026-01-25 00:47:45.03	170.50	6.61	-50.1	-71.0	3.8	7.46e-01	0	38	104	1043333120	71	40570
2026-01-25 00:47:46.03	170.56	6.53	-50.1	-71.0	3.8	7.43e-01	0	38	104	1043333120	71	40520
2026-01-25 00:47:47.02	170.62	6.46	-50.1	-71.0	3.8	7.47e-01	0	38	104	1043333120	71	40556
2026-01-25 00:47:48.01	170.69	6.38	-50.1	-70.9	3.8	7.43e-01	0	38	104	1043333120	71	40440
2026-01-25 00:47:49.01	170.75	6.31	-50.1	-70.9	3.8	7.46e-01	0	38	104	1043333120	71	40440
2026-01-25 00:47:50.00	170.81	6.24	-50.1	-70.9	3.8	7.44e-01	0	38	104	1043333120	71	40458
2026-01-25 00:47:50.99	170.87	6.16	-50.1	-70.9	3.8	7.47e-01	0	38	104	1043333120	71	40399
2026-01-25 00:47:51.98	170.93	6.09	-50.1	-70.9	3.8	7.46e-01	0	38	104	1043333120	71	40390
2026-01-25 00:47:52.98	170.99	6.01	-50.0	-70.9	3.8	7.46e-01	0	38	104	1043333120	71	40473
2026-01-25 00:47:53.97	171.05	5.94	-50.1	-70.9	3.8	7.46e-01	0	38	104	1043333120	71	40413
2026-01-25 00:47:54.96	171.11	5.87	-50.0	-70.9	3.8	7.45e-01	0	38	104	1043333120	71	40341
2026-01-25 00:47:55.96	171.17	5.79	-50.0	-70.9	3.8	7.47e-01	0	38	104	1043333120	71	40376
2026-01-25 00:47:56.95	171.23	5.72	-50.0	-70.9	3.8	7.47e-01	0	38	104	1043333120	71	40384
2026-01-25 00:47:57.94	171.28	5.65	-50.0	-70.9	3.8	7.48e-01	0	38	104	1043333120	71	40425
2026-01-25 00:47:58.94	171.34	5.58	-50.0	-70.9	3.8	7.47e-01	0	38	104	1043333120	71	40350
2026-01-25 00:47:59.93	171.40	5.50	-50.0	-70.9	3.8	7.45e-01	0	38	104	1043333120	71	40416
2026-01-25 00:48:00.92	171.46	5.43	-50.0	-70.9	3.8	7.46e-01	0	38	104	1043333120	71	40447
2026-01-25 00:48:01.92	171.51	5.36	-50.1	-70.9	3.8	7.49e-01	0	38	104	1043333120	71	40401
2026-01-25 00:48:02.91	171.57	5.29	-50.0	-70.9	3.8	7.47e-01	0	38	104	1043333120	71	40409
2026-01-25 00:48:03.90	171.63	5.22	-50.0	-70.9	3.8	7.48e-01	0	38	104	1043333120	71	40330
2026-01-25 00:48:04.90	171.68	5.15	-50.0	-70.9	3.8	7.47e-01	0	38	104	1043333120	71	40361
2026-01-25 00:48:05.89	171.74	5.07	-50.0	-70.9	3.8	7.47e-01	0	38	104	1043333120	71	40334
2026-01-25 00:48:06.88	171.80	5.00	-50.1	-70.9	3.8	7.46e-01	0	38	104	1043333120	71	40400

#Closed at: 2026-01-25 00:48:07
#Recorded file [1043 MB]: D:/Data/31040_260125_033708.dat