passes_logs/2026/01/25/T1/T1__20260125_225921_NOAA_21_JPSS-2_rec.log

#Pass ID: 20260125_225921_NOAA 21 (JPSS-2)
#Satellite: NOAA 21 (JPSS-2)
#Configuration: NOAA 21
#almurnet v.1.7.20251203
#Start time: 2026-01-25 22:59:23

#Version: 2.0.20230620
#Station: T1
#Location: 37.570604 lon 55.790049 lat
#TLE: 1 54234U 22150A   26025.44451686  .00000186  00000+0  10896-3 0  9992
#TLE: 2 54234  98.7509 326.2184 0000763 215.1852 144.9274 14.19539183166293

#Time	Az	El	Level	Level2	SNR	BER	BlckErr	Temp	State	Recorded	gain1	gain2
2026-01-25 22:59:23.00	21.51	5.09	-47.2	-60.9	3.8	1.49e+00	0	39	0	0	66	17015
2026-01-25 22:59:23.99	21.55	5.16	-47.2	-60.8	3.8	1.49e+00	0	39	104	0	65	17814
2026-01-25 22:59:24.98	21.60	5.23	-47.2	-60.8	3.8	1.49e+00	0	39	104	0	65	17704
2026-01-25 22:59:25.97	21.64	5.29	-47.1	-60.8	3.8	1.49e+00	0	39	104	0	65	17788
2026-01-25 22:59:26.96	21.68	5.36	-47.1	-60.8	3.8	1.49e+00	0	39	104	0	65	17751
2026-01-25 22:59:27.96	21.72	5.43	-47.1	-60.8	3.8	1.49e+00	0	39	104	0	65	17756
2026-01-25 22:59:28.95	21.77	5.50	-47.2	-60.8	3.8	1.49e+00	0	39	104	0	65	17746
2026-01-25 22:59:29.95	21.81	5.57	-47.1	-60.8	3.8	1.49e+00	0	39	104	0	65	17769
2026-01-25 22:59:30.94	21.85	5.64	-47.1	-60.8	3.8	1.49e+00	0	39	104	0	65	17798
2026-01-25 22:59:31.93	21.90	5.71	-47.1	-60.8	3.8	1.49e+00	0	39	104	0	65	17792
2026-01-25 22:59:32.92	21.94	5.78	-47.2	-60.8	3.8	1.49e+00	0	39	104	0	65	17865
2026-01-25 22:59:33.92	21.99	5.85	-47.2	-60.9	3.8	1.49e+00	0	39	104	0	65	17903
2026-01-25 22:59:34.91	22.03	5.92	-47.2	-60.8	3.8	1.49e+00	0	39	104	0	65	17868
2026-01-25 22:59:35.91	22.07	5.99	-47.2	-60.9	3.8	1.49e+00	0	40	104	0	65	17947
2026-01-25 22:59:36.90	22.12	6.06	-47.2	-60.9	3.8	1.49e+00	0	39	104	0	65	17944
2026-01-25 22:59:37.89	22.16	6.13	-47.1	-60.8	3.8	1.49e+00	0	40	104	0	65	17854
2026-01-25 22:59:38.89	22.21	6.20	-47.1	-60.8	3.8	1.49e+00	0	39	104	0	65	17847
2026-01-25 22:59:39.88	22.25	6.27	-47.1	-60.8	3.8	1.49e+00	0	39	104	0	65	17816
2026-01-25 22:59:40.87	22.30	6.34	-47.1	-60.8	3.8	1.49e+00	0	39	104	0	65	17748
2026-01-25 22:59:41.87	22.34	6.41	-47.1	-60.8	3.8	1.49e+00	0	39	104	0	65	17781
2026-01-25 22:59:42.86	22.39	6.48	-47.1	-60.8	3.8	1.49e+00	0	39	104	0	65	17732
2026-01-25 22:59:43.85	22.44	6.55	-47.1	-60.8	3.8	1.49e+00	0	40	104	0	65	17707
2026-01-25 22:59:44.85	22.48	6.63	-47.1	-60.8	3.8	1.49e+00	0	40	104	0	65	17708
2026-01-25 22:59:45.84	22.53	6.70	-47.1	-60.8	3.8	1.49e+00	0	40	104	0	65	17770
2026-01-25 22:59:46.83	22.58	6.77	-47.1	-60.8	3.8	1.49e+00	0	40	104	0	65	17791
2026-01-25 22:59:47.83	22.62	6.84	-47.1	-60.8	3.8	1.49e+00	0	40	104	0	65	17716
2026-01-25 22:59:48.82	22.67	6.92	-47.1	-60.7	3.8	1.49e+00	0	40	104	0	65	17641
2026-01-25 22:59:49.81	22.72	6.99	-47.1	-60.6	3.8	1.49e+00	0	40	104	0	65	17353
2026-01-25 22:59:50.81	22.76	7.06	-47.1	-60.4	3.8	1.49e+00	0	40	104	0	65	17064
2026-01-25 22:59:51.80	22.81	7.13	-47.1	-60.3	3.8	1.49e+00	0	40	104	0	65	16724
2026-01-25 22:59:52.79	22.86	7.21	-47.1	-60.1	3.8	1.49e+00	0	40	104	0	65	16351
2026-01-25 22:59:53.79	22.91	7.28	-47.1	-59.8	3.8	1.49e+00	0	40	104	0	65	15833
2026-01-25 22:59:54.78	22.96	7.35	-47.0	-59.5	3.8	1.49e+00	0	40	104	0	65	15389
2026-01-25 22:59:55.77	23.00	7.43	-47.0	-59.3	3.8	1.49e+00	0	40	104	0	65	15034
2026-01-25 22:59:56.76	23.05	7.50	-47.0	-59.0	3.9	1.49e+00	0	40	104	0	65	14493
2026-01-25 22:59:57.76	23.10	7.58	-47.0	-59.0	3.8	1.49e+00	0	40	104	0	65	14479
2026-01-25 22:59:58.75	23.15	7.65	-47.0	-58.9	3.8	1.49e+00	0	40	104	0	65	14286
2026-01-25 22:59:59.74	23.20	7.72	-47.0	-58.9	3.8	1.49e+00	0	40	104	0	65	14242
2026-01-25 23:00:00.74	23.25	7.80	-47.0	-58.9	3.8	1.49e+00	0	40	104	0	65	14271
2026-01-25 23:00:01.73	23.30	7.88	-47.0	-58.6	3.9	1.49e+00	0	40	104	0	65	13821
2026-01-25 23:00:02.72	23.35	7.95	-47.0	-59.0	3.8	1.49e+00	0	40	104	0	65	14457
2026-01-25 23:00:03.72	23.40	8.03	-47.0	-59.1	3.8	1.49e+00	0	40	104	0	65	14633
2026-01-25 23:00:04.71	23.45	8.10	-47.0	-59.2	3.8	1.49e+00	0	40	104	0	65	14767
2026-01-25 23:00:05.70	23.50	8.18	-47.0	-59.2	3.8	1.49e+00	0	40	104	0	65	14852
2026-01-25 23:00:06.70	23.55	8.25	-47.0	-58.8	3.9	1.49e+00	0	40	104	0	65	14097
2026-01-25 23:00:07.69	23.60	8.33	-46.9	-58.7	3.9	1.49e+00	0	40	104	0	65	13952
2026-01-25 23:00:08.69	23.66	8.41	-46.9	-58.5	3.9	1.48e+00	0	40	104	0	65	13581
2026-01-25 23:00:09.68	23.71	8.48	-46.8	-57.8	3.9	1.47e+00	0	40	104	0	65	12573
2026-01-25 23:00:10.67	23.76	8.56	-46.7	-56.1	4.6	1.13e+00	0	40	104	0	65	10411
2026-01-25 23:00:11.67	23.81	8.64	-46.5	-54.8	5.3	6.73e-01	0	40	0	0	64	9431
2026-01-25 23:00:12.66	23.86	8.72	-46.1	-53.3	6.4	3.18e-01	0	40	0	0	64	7953
2026-01-25 23:00:13.65	23.92	8.79	-45.8	-51.8	7.8	1.10e-01	0	40	0	0	63	7083
2026-01-25 23:00:14.65	23.97	8.87	-45.3	-50.6	9.1	2.90e-02	0	41	0	0	62	6525
2026-01-25 23:00:15.64	24.02	8.95	-44.8	-49.4	10.3	9.13e-03	0	40	0	0	61	6004
2026-01-25 23:00:16.63	24.08	9.03	-44.3	-48.4	11.3	1.86e-03	0	40	0	0	60	5699
2026-01-25 23:00:17.62	24.13	9.10	-43.3	-46.5	13.4	2.10e-04	0	40	0	0	58	5113
2026-01-25 23:00:18.62	24.18	9.18	-45.8	-51.6	8.3	9.38e-04	0	40	0	0	62	7331
2026-01-25 23:00:19.61	24.24	9.26	-43.4	-46.6	13.2	4.33e-02	0	41	0	0	58	5172
2026-01-25 23:00:20.64	24.30	9.35	-44.7	-48.7	11.2	2.91e-04	0	41	0	0	59	6273
2026-01-25 23:00:21.68	24.35	9.43	-40.4	-42.8	16.4	2.20e-06	0	41	0	0	53	4466
2026-01-25 23:00:22.72	24.41	9.51	-40.1	-42.2	17.4	0.00e+00	0	40	0	0	51	4680
2026-01-25 23:00:23.71	24.47	9.59	-40.1	-42.3	17.4	0.00e+00	0	40	0	0	51	4713
2026-01-25 23:00:24.77	24.53	9.68	-39.8	-41.8	17.8	0.00e+00	0	41	0	0	51	4477
2026-01-25 23:00:25.64	24.58	9.75	-39.7	-41.7	18.0	0.00e+00	0	40	0	0	51	4402
2026-01-25 23:00:26.97	24.65	9.86	-39.6	-41.6	18.0	0.00e+00	0	41	0	0	51	4377
2026-01-25 23:00:27.68	24.69	9.91	-39.6	-41.6	18.0	0.00e+00	0	40	0	0	51	4371
2026-01-25 23:00:28.96	24.76	10.02	-39.6	-41.6	18.1	0.00e+00	0	41	0	0	51	4347
2026-01-25 23:00:29.68	24.81	10.08	-39.5	-41.5	18.1	0.00e+00	0	40	0	0	51	4323
2026-01-25 23:00:31.22	24.90	10.20	-39.3	-41.3	18.3	0.00e+00	0	41	0	0	50	4462
2026-01-25 23:00:31.93	24.94	10.26	-39.3	-41.3	18.3	0.00e+00	0	41	0	0	50	4457
2026-01-25 23:00:33.21	25.01	10.37	-39.3	-41.2	18.4	0.00e+00	0	41	0	0	50	4422
2026-01-25 23:00:33.92	25.05	10.43	-39.3	-41.2	18.4	0.00e+00	0	41	0	0	50	4439
2026-01-25 23:00:35.20	25.13	10.53	-39.2	-41.2	18.4	0.00e+00	0	41	0	0	50	4413
2026-01-25 23:00:35.91	25.17	10.59	-39.2	-41.1	18.5	0.00e+00	0	41	0	0	50	4378
2026-01-25 23:00:37.18	25.25	10.70	-39.2	-41.2	18.5	0.00e+00	0	41	0	0	50	4407
2026-01-25 23:00:37.89	25.29	10.76	-39.3	-41.3	18.4	0.00e+00	0	41	0	0	50	4462
2026-01-25 23:00:39.18	25.37	10.87	-39.1	-41.1	18.5	0.00e+00	0	41	0	0	50	4391
2026-01-25 23:00:39.88	25.41	10.93	-39.1	-41.0	18.6	0.00e+00	0	41	0	0	50	4340
2026-01-25 23:00:41.18	25.49	11.04	-39.0	-41.0	18.6	0.00e+00	0	41	0	0	50	4320
2026-01-25 23:00:42.05	25.54	11.11	-39.1	-41.1	18.6	0.00e+00	0	41	0	0	50	4354
2026-01-25 23:00:43.18	25.61	11.21	-39.0	-41.0	18.6	0.00e+00	0	40	0	0	50	4304
2026-01-25 23:00:44.03	25.67	11.28	-38.9	-40.9	18.7	0.00e+00	0	41	0	0	49	4531
2026-01-25 23:00:45.17	25.74	11.38	-38.9	-40.9	18.7	0.00e+00	0	41	0	0	49	4539
2026-01-25 23:00:46.02	25.79	11.45	-38.9	-40.9	18.7	0.00e+00	0	41	0	0	49	4531
2026-01-25 23:00:47.16	25.86	11.55	-38.7	-40.7	18.8	0.00e+00	0	41	0	0	49	4438
2026-01-25 23:00:48.39	25.94	11.66	-38.7	-40.7	18.9	0.00e+00	0	41	0	0	49	4413
2026-01-25 23:00:49.25	26.00	11.73	-38.8	-40.7	18.9	0.00e+00	0	41	0	0	49	4409
2026-01-25 23:00:50.38	26.07	11.83	-38.8	-40.7	18.9	0.00e+00	0	41	0	0	49	4414
2026-01-25 23:00:51.23	26.13	11.91	-38.7	-40.6	19.0	0.00e+00	0	41	0	0	49	4365
2026-01-25 23:00:52.37	26.20	12.01	-38.6	-40.5	19.1	0.00e+00	0	41	0	0	49	4298
2026-01-25 23:00:53.22	26.26	12.08	-38.6	-40.5	19.1	0.00e+00	0	41	0	0	49	4318
2026-01-25 23:00:54.36	26.33	12.18	-38.8	-40.7	18.9	0.00e+00	0	41	0	0	49	4410
2026-01-25 23:00:55.21	26.39	12.26	-38.6	-40.5	19.1	0.00e+00	0	41	0	0	49	4299
2026-01-25 23:00:56.41	26.47	12.37	-38.7	-40.5	19.1	0.00e+00	0	41	0	0	49	4326
2026-01-25 23:00:57.27	26.52	12.44	-38.7	-40.5	19.1	0.00e+00	0	41	0	0	49	4329
2026-01-25 23:00:58.47	26.60	12.55	-38.7	-40.6	19.1	0.00e+00	0	40	0	0	49	4342
2026-01-25 23:00:59.32	26.66	12.63	-38.7	-40.6	19.1	0.00e+00	0	41	0	0	49	4353
2026-01-25 23:01:00.46	26.74	12.73	-38.6	-40.5	19.2	0.00e+00	0	41	0	0	49	4295
2026-01-25 23:01:01.31	26.80	12.81	-38.7	-40.5	19.1	0.00e+00	0	41	0	0	49	4334
2026-01-25 23:01:02.59	26.89	12.92	-38.7	-40.5	19.1	0.00e+00	0	41	0	0	49	4340
2026-01-25 23:01:03.32	26.94	12.99	-38.6	-40.5	19.2	0.00e+00	0	41	0	0	49	4313
2026-01-25 23:01:04.60	27.03	13.11	-38.7	-40.5	19.2	0.00e+00	0	41	0	0	49	4323
2026-01-25 23:01:05.31	27.08	13.17	-38.6	-40.4	19.2	0.00e+00	0	41	0	0	49	4269
2026-01-25 23:01:06.59	27.17	13.29	-38.5	-40.3	19.3	0.00e+00	0	41	0	0	48	4463
2026-01-25 23:01:07.30	27.22	13.36	-38.6	-40.4	19.3	0.00e+00	0	41	0	0	48	4519
2026-01-25 23:01:08.58	27.31	13.48	-38.4	-40.2	19.4	0.00e+00	0	41	0	0	48	4425
2026-01-25 23:01:09.32	27.36	13.55	-38.5	-40.4	19.3	0.00e+00	0	41	0	0	48	4513
2026-01-25 23:01:10.59	27.45	13.66	-38.5	-40.3	19.3	0.00e+00	0	41	0	0	48	4485
2026-01-25 23:01:11.31	27.51	13.73	-38.4	-40.3	19.4	0.00e+00	0	41	0	0	48	4456
2026-01-25 23:01:12.59	27.60	13.85	-38.4	-40.2	19.4	0.00e+00	0	41	0	0	48	4435
2026-01-25 23:01:13.50	27.67	13.94	-38.5	-40.4	19.3	0.00e+00	0	41	0	0	48	4502
2026-01-25 23:01:14.51	27.74	14.03	-38.4	-40.2	19.4	0.00e+00	0	41	0	0	48	4430
2026-01-25 23:01:15.50	27.81	14.13	-38.4	-40.3	19.4	0.00e+00	0	41	0	0	48	4462
2026-01-25 23:01:16.50	27.89	14.22	-38.5	-40.4	19.3	0.00e+00	0	41	0	0	48	4501
2026-01-25 23:01:17.49	27.96	14.32	-38.5	-40.4	19.3	0.00e+00	0	41	0	0	48	4510
2026-01-25 23:01:18.48	28.04	14.41	-38.4	-40.2	19.4	0.00e+00	0	41	0	0	48	4432
2026-01-25 23:01:19.48	28.12	14.51	-38.4	-40.2	19.4	0.00e+00	0	41	0	0	48	4434
2026-01-25 23:01:20.47	28.19	14.61	-38.4	-40.3	19.4	0.00e+00	0	41	0	0	48	4464
2026-01-25 23:01:21.47	28.27	14.70	-38.4	-40.3	19.3	0.00e+00	0	41	0	0	48	4485
2026-01-25 23:01:22.47	28.35	14.80	-38.4	-40.2	19.4	0.00e+00	0	41	0	0	48	4430
2026-01-25 23:01:23.46	28.42	14.90	-38.4	-40.3	19.4	0.00e+00	0	41	0	0	48	4464
2026-01-25 23:01:24.46	28.50	15.00	-38.6	-40.4	19.2	0.00e+00	0	41	0	0	48	4536
2026-01-25 23:01:25.45	28.58	15.09	-38.5	-40.3	19.3	0.00e+00	0	41	0	0	48	4485
2026-01-25 23:01:26.45	28.66	15.19	-38.5	-40.4	19.3	0.00e+00	0	41	0	0	48	4500
2026-01-25 23:01:27.45	28.74	15.29	-38.5	-40.3	19.4	0.00e+00	0	41	0	0	48	4476
2026-01-25 23:01:28.44	28.82	15.39	-38.6	-40.5	19.2	0.00e+00	0	41	0	0	48	4552
2026-01-25 23:01:29.44	28.90	15.49	-38.6	-40.4	19.2	0.00e+00	0	41	0	0	48	4542
2026-01-25 23:01:30.43	28.98	15.59	-38.7	-40.5	19.2	0.00e+00	0	41	0	0	48	4598
2026-01-25 23:01:31.43	29.06	15.69	-38.8	-40.6	19.1	0.00e+00	0	41	0	0	48	4650
2026-01-25 23:01:32.42	29.15	15.79	-38.8	-40.6	19.1	0.00e+00	0	41	0	0	48	4649
2026-01-25 23:01:33.42	29.23	15.89	-38.9	-40.7	19.0	0.00e+00	0	41	0	0	48	4696
2026-01-25 23:01:34.41	29.31	15.99	-38.9	-40.7	19.0	0.00e+00	0	41	0	0	48	4682
2026-01-25 23:01:35.41	29.40	16.10	-38.9	-40.7	19.0	0.00e+00	0	41	0	0	48	4680
2026-01-25 23:01:36.41	29.48	16.20	-38.9	-40.7	19.0	0.00e+00	0	41	0	0	48	4689
2026-01-25 23:01:37.40	29.57	16.30	-38.9	-40.8	19.0	0.00e+00	0	41	0	0	48	4711
2026-01-25 23:01:38.40	29.65	16.41	-38.9	-40.7	19.1	0.00e+00	0	41	0	0	48	4665
2026-01-25 23:01:39.45	29.74	16.51	-38.9	-40.8	19.0	0.00e+00	0	41	0	0	48	4711
2026-01-25 23:01:40.32	29.82	16.60	-39.0	-40.8	19.0	0.00e+00	0	41	0	0	48	4726
2026-01-25 23:01:41.46	29.92	16.72	-38.9	-40.7	19.0	0.00e+00	0	41	0	0	48	4697
2026-01-25 23:01:42.31	29.99	16.81	-38.9	-40.7	19.1	0.00e+00	0	41	0	0	48	4667
2026-01-25 23:01:43.45	30.10	16.93	-38.9	-40.7	19.1	0.00e+00	0	41	0	0	48	4675
2026-01-25 23:01:44.31	30.17	17.02	-38.8	-40.6	19.2	0.00e+00	0	41	0	0	48	4625
2026-01-25 23:01:45.44	30.27	17.14	-38.9	-40.7	19.1	0.00e+00	0	41	0	0	48	4683
2026-01-25 23:01:46.29	30.35	17.23	-38.9	-40.7	19.1	0.00e+00	0	41	0	0	48	4704
2026-01-25 23:01:47.43	30.45	17.36	-38.9	-40.7	19.1	0.00e+00	0	41	0	0	48	4685
2026-01-25 23:01:48.28	30.53	17.45	-39.0	-40.9	18.9	0.00e+00	0	41	0	0	48	4787
2026-01-25 23:01:49.42	30.64	17.57	-38.9	-40.8	19.0	0.00e+00	0	41	0	0	48	4724
2026-01-25 23:01:50.27	30.72	17.66	-39.0	-40.8	18.9	0.00e+00	0	41	0	0	48	4752
2026-01-25 23:01:51.42	30.83	17.79	-38.9	-40.8	19.0	0.00e+00	0	41	0	0	48	4726
2026-01-25 23:01:52.27	30.91	17.88	-38.9	-40.8	19.0	0.00e+00	0	41	0	0	48	4720
2026-01-25 23:01:53.47	31.02	18.01	-38.9	-40.8	19.0	0.00e+00	0	41	0	0	48	4718
2026-01-25 23:01:54.33	31.10	18.11	-39.0	-40.8	19.0	0.00e+00	0	41	0	0	48	4742
2026-01-25 23:01:55.47	31.21	18.23	-38.9	-40.7	19.1	0.00e+00	0	41	0	0	48	4675
2026-01-25 23:01:56.32	31.29	18.33	-38.9	-40.7	19.0	0.00e+00	0	41	0	0	48	4696
2026-01-25 23:01:57.58	31.42	18.47	-38.9	-40.7	19.1	0.00e+00	0	41	0	0	48	4668
2026-01-25 23:01:58.38	31.50	18.55	-38.9	-40.7	19.1	0.00e+00	0	41	0	0	48	4670
2026-01-25 23:01:59.63	31.62	18.69	-38.8	-40.6	19.1	0.00e+00	0	41	0	0	48	4614
2026-01-25 23:02:00.43	31.70	18.78	-38.8	-40.6	19.1	0.00e+00	0	41	0	0	48	4613
2026-01-25 23:02:01.57	31.82	18.91	-38.7	-40.5	19.3	0.00e+00	0	41	0	0	48	4566
2026-01-25 23:02:02.42	31.90	19.01	-38.7	-40.5	19.3	0.00e+00	0	41	0	0	48	4561
2026-01-25 23:02:03.56	32.02	19.14	-38.6	-40.3	19.4	0.00e+00	0	41	0	0	48	4493
2026-01-25 23:02:04.41	32.11	19.24	-38.5	-40.3	19.4	0.00e+00	0	41	0	0	48	4465
2026-01-25 23:02:05.55	32.22	19.37	-38.6	-40.4	19.0	0.00e+00	0	41	0	0	48	4500
2026-01-25 23:02:06.41	32.31	19.47	-38.5	-40.2	19.5	0.00e+00	0	41	0	0	48	4430
2026-01-25 23:02:07.54	32.43	19.60	-38.3	-40.1	19.6	0.00e+00	0	41	0	0	48	4359
2026-01-25 23:02:08.40	32.52	19.70	-38.3	-40.0	19.7	0.00e+00	0	41	0	0	48	4325
2026-01-25 23:02:09.53	32.64	19.83	-38.2	-40.0	19.7	0.00e+00	0	41	0	0	48	4307
2026-01-25 23:02:10.39	32.74	19.93	-38.3	-40.0	19.7	0.00e+00	0	41	0	0	48	4335
2026-01-25 23:02:11.52	32.86	20.06	-38.1	-39.9	19.8	0.00e+00	0	41	0	0	48	4263
2026-01-25 23:02:12.38	32.95	20.16	-38.0	-39.8	19.9	0.00e+00	0	41	0	0	48	4221
2026-01-25 23:02:13.51	33.08	20.30	-38.1	-39.9	19.8	0.00e+00	0	41	0	0	48	4249
2026-01-25 23:02:14.36	33.17	20.40	-38.0	-39.8	19.9	0.00e+00	0	41	0	0	48	4215
2026-01-25 23:02:15.61	33.31	20.55	-38.0	-39.8	19.8	0.00e+00	0	41	0	0	47	4445
2026-01-25 23:02:16.46	33.40	20.65	-37.9	-39.7	19.8	0.00e+00	0	41	0	0	47	4415
2026-01-25 23:02:17.60	33.53	20.78	-37.9	-39.6	19.8	0.00e+00	0	41	0	0	47	4386
2026-01-25 23:02:18.45	33.63	20.89	-37.8	-39.5	20.0	0.00e+00	0	41	0	0	47	4315
2026-01-25 23:02:19.59	33.76	21.03	-37.7	-39.4	20.1	0.00e+00	0	41	0	0	47	4259
2026-01-25 23:02:20.44	33.86	21.13	-37.6	-39.3	20.2	0.00e+00	0	41	0	0	47	4195
2026-01-25 23:02:21.58	33.99	21.27	-37.6	-39.2	20.1	0.00e+00	0	41	0	0	47	4188
2026-01-25 23:02:22.43	34.09	21.37	-37.6	-39.3	20.2	0.00e+00	0	41	0	0	47	4194
2026-01-25 23:02:23.57	34.23	21.51	-37.7	-39.3	20.1	0.00e+00	0	41	0	0	47	4238
2026-01-25 23:02:24.42	34.33	21.62	-37.6	-39.3	20.1	0.00e+00	0	41	0	0	47	4221
2026-01-25 23:02:25.56	34.46	21.76	-37.7	-39.4	20.0	0.00e+00	0	41	0	0	47	4255
2026-01-25 23:02:26.41	34.57	21.86	-37.6	-39.3	20.1	0.00e+00	0	41	0	0	47	4206
2026-01-25 23:02:27.54	34.71	22.01	-37.4	-39.1	20.3	0.00e+00	0	41	0	0	46	4362
2026-01-25 23:02:28.40	34.81	22.11	-37.4	-39.0	20.4	0.00e+00	0	41	0	0	46	4327
2026-01-25 23:02:29.54	34.95	22.26	-37.5	-39.2	20.2	0.00e+00	0	41	0	0	46	4409
2026-01-25 23:02:30.39	35.06	22.36	-37.4	-39.1	20.3	0.00e+00	0	41	0	0	46	4356
2026-01-25 23:02:31.53	35.20	22.51	-37.3	-39.0	20.4	0.00e+00	0	41	0	0	46	4304
2026-01-25 23:02:32.38	35.31	22.62	-37.2	-38.9	20.5	0.00e+00	0	41	0	0	46	4269
2026-01-25 23:02:33.58	35.46	22.77	-37.2	-38.8	20.5	0.00e+00	0	41	0	0	46	4239
2026-01-25 23:02:34.43	35.57	22.88	-37.1	-38.8	20.5	0.00e+00	0	41	0	0	46	4211
2026-01-25 23:02:35.63	35.73	23.03	-37.2	-38.8	20.5	0.00e+00	0	41	0	0	46	4237
2026-01-25 23:02:36.49	35.84	23.15	-37.3	-39.0	20.4	0.00e+00	0	41	0	0	46	4311
2026-01-25 23:02:37.63	35.99	23.29	-37.1	-38.7	20.6	0.00e+00	0	41	0	0	46	4191
2026-01-25 23:02:38.48	36.11	23.40	-37.2	-38.8	20.6	0.00e+00	0	41	0	0	46	4225
2026-01-25 23:02:39.62	36.26	23.55	-37.2	-38.8	20.6	0.00e+00	0	42	0	0	46	4227
2026-01-25 23:02:40.47	36.37	23.67	-37.1	-38.8	20.6	0.00e+00	0	41	0	0	46	4204
2026-01-25 23:02:41.61	36.53	23.82	-37.2	-38.8	20.6	0.00e+00	0	41	0	0	46	4227
2026-01-25 23:02:42.59	36.66	23.95	-37.1	-38.8	20.6	0.00e+00	0	41	0	0	46	4212
2026-01-25 23:02:43.76	36.83	24.10	-37.1	-38.8	20.7	0.00e+00	0	41	0	0	46	4213
2026-01-25 23:02:44.61	36.95	24.22	-37.1	-38.8	20.7	0.00e+00	0	42	0	0	46	4212
2026-01-25 23:02:45.75	37.11	24.37	-37.2	-38.8	20.6	0.00e+00	0	41	0	0	46	4242
2026-01-25 23:02:46.60	37.23	24.48	-37.2	-38.8	20.7	0.00e+00	0	41	0	0	46	4216
2026-01-25 23:02:47.74	37.39	24.64	-37.2	-38.8	20.7	0.00e+00	0	41	0	0	46	4232
2026-01-25 23:02:48.59	37.52	24.75	-37.3	-38.9	20.6	0.00e+00	0	41	0	0	46	4269
2026-01-25 23:02:49.72	37.68	24.91	-37.5	-39.2	20.4	0.00e+00	0	41	0	0	46	4392
2026-01-25 23:02:50.58	37.81	25.02	-37.5	-39.1	20.4	0.00e+00	0	41	0	0	46	4388
2026-01-25 23:02:51.71	37.97	25.18	-37.5	-39.2	20.4	0.00e+00	0	41	0	0	46	4409
2026-01-25 23:02:52.57	38.10	25.30	-37.6	-39.3	20.3	0.00e+00	0	41	0	0	46	4480
2026-01-25 23:02:53.70	38.27	25.45	-37.6	-39.3	20.3	0.00e+00	0	41	0	0	46	4468
2026-01-25 23:02:54.55	38.40	25.57	-37.7	-39.4	20.3	0.00e+00	0	41	0	0	46	4500
2026-01-25 23:02:55.69	38.58	25.73	-37.7	-39.4	20.3	0.00e+00	0	41	0	0	46	4525
2026-01-25 23:02:56.55	38.71	25.85	-37.8	-39.5	20.2	0.00e+00	0	41	0	0	46	4559
2026-01-25 23:02:57.68	38.89	26.01	-38.0	-39.7	20.0	0.00e+00	0	41	0	0	46	4670
2026-01-25 23:02:58.53	39.02	26.13	-38.0	-39.7	20.0	0.00e+00	0	41	0	0	46	4668
2026-01-25 23:02:59.67	39.20	26.29	-37.9	-39.6	20.0	0.00e+00	0	41	0	0	46	4635
2026-01-25 23:03:00.52	39.34	26.41	-38.0	-39.8	19.9	0.00e+00	0	41	0	0	46	4709
2026-01-25 23:03:01.66	39.52	26.57	-38.0	-39.8	19.8	0.00e+00	0	41	0	0	46	4711
2026-01-25 23:03:02.63	39.68	26.71	-38.0	-39.7	19.8	0.00e+00	0	41	0	0	46	4684
2026-01-25 23:03:03.79	39.87	26.88	-38.1	-39.8	19.7	0.00e+00	0	41	0	0	46	4755
2026-01-25 23:03:04.68	40.02	27.01	-38.1	-39.8	19.8	0.00e+00	0	41	0	0	46	4718
2026-01-25 23:03:05.97	40.24	27.19	-38.0	-39.7	19.9	0.00e+00	0	41	0	0	46	4687
2026-01-25 23:03:06.68	40.36	27.30	-38.1	-39.8	19.8	0.00e+00	0	41	0	0	46	4728
2026-01-25 23:03:08.15	40.61	27.51	-38.1	-39.8	19.7	0.00e+00	0	41	0	0	46	4746
2026-01-25 23:03:08.86	40.73	27.61	-38.1	-39.8	19.8	0.00e+00	0	41	0	0	46	4736
2026-01-25 23:03:10.17	40.96	27.81	-38.1	-39.9	19.8	0.00e+00	0	41	0	0	46	4774
2026-01-25 23:03:10.88	41.08	27.91	-38.1	-39.8	19.8	0.00e+00	0	41	0	0	46	4750
2026-01-25 23:03:12.23	41.32	28.11	-38.2	-39.9	19.8	0.00e+00	0	41	0	0	46	4780
2026-01-25 23:03:12.94	41.45	28.22	-38.2	-39.9	19.7	0.00e+00	0	41	0	0	47	4510
2026-01-25 23:03:14.22	41.68	28.41	-38.1	-39.9	19.8	0.00e+00	0	41	0	0	47	4501
2026-01-25 23:03:15.29	41.88	28.57	-38.1	-39.8	19.7	0.00e+00	0	41	0	0	47	4490
2026-01-25 23:03:16.14	42.03	28.69	-38.3	-40.0	19.6	0.00e+00	0	41	0	0	47	4586
2026-01-25 23:03:17.28	42.25	28.87	-38.2	-39.9	19.7	0.00e+00	0	41	0	0	47	4509
2026-01-25 23:03:18.14	42.41	29.00	-38.1	-39.8	19.8	0.00e+00	0	41	0	0	47	4483
2026-01-25 23:03:19.28	42.62	29.17	-38.1	-39.9	19.8	0.00e+00	0	41	0	0	47	4499
2026-01-25 23:03:20.13	42.79	29.30	-38.1	-39.9	19.7	0.00e+00	0	41	0	0	47	4500
2026-01-25 23:03:21.27	43.01	29.47	-38.1	-39.8	19.8	0.00e+00	0	41	0	0	47	4480
2026-01-25 23:03:22.12	43.17	29.60	-38.2	-39.9	19.6	0.00e+00	0	41	0	0	47	4526
2026-01-25 23:03:23.26	43.40	29.78	-38.1	-39.8	19.8	0.00e+00	0	41	0	0	47	4487
2026-01-25 23:03:24.19	43.58	29.92	-38.1	-39.8	19.8	0.00e+00	0	41	0	0	47	4493
2026-01-25 23:03:25.36	43.81	30.10	-38.1	-39.8	19.8	0.00e+00	0	41	0	0	47	4487
2026-01-25 23:03:26.21	43.99	30.23	-38.1	-39.8	19.9	0.00e+00	0	42	0	0	47	4457
2026-01-25 23:03:27.57	44.26	30.44	-38.1	-39.8	19.9	0.00e+00	0	41	0	0	47	4456
2026-01-25 23:03:28.28	44.41	30.55	-38.2	-39.9	19.8	0.00e+00	0	41	0	0	47	4497
2026-01-25 23:03:29.76	44.72	30.78	-38.1	-39.8	19.8	0.00e+00	0	41	0	0	47	4482
2026-01-25 23:03:30.47	44.87	30.90	-38.1	-39.9	19.8	0.00e+00	0	41	0	0	47	4496
2026-01-25 23:03:31.75	45.14	31.10	-38.0	-39.7	20.0	0.00e+00	0	41	0	0	47	4400
2026-01-25 23:03:32.48	45.30	31.21	-37.9	-39.6	20.0	0.00e+00	0	41	0	0	47	4350
2026-01-25 23:03:33.76	45.58	31.41	-38.1	-39.8	19.9	0.00e+00	0	41	0	0	47	4453
2026-01-25 23:03:34.47	45.73	31.53	-38.1	-39.8	19.9	0.00e+00	0	41	0	0	47	4462
2026-01-25 23:03:35.75	46.01	31.73	-38.2	-39.9	19.8	0.00e+00	0	41	0	0	47	4504
2026-01-25 23:03:36.46	46.17	31.84	-38.2	-39.9	19.8	0.00e+00	0	41	0	0	47	4521
2026-01-25 23:03:37.73	46.46	32.05	-38.4	-40.1	19.5	0.00e+00	0	41	0	0	47	4630
2026-01-25 23:03:38.45	46.62	32.16	-38.4	-40.1	19.5	0.00e+00	0	41	0	0	47	4645
2026-01-25 23:03:39.73	46.92	32.37	-38.6	-40.3	19.3	0.00e+00	0	41	0	0	47	4747
2026-01-25 23:03:40.44	47.08	32.48	-38.6	-40.4	19.2	0.00e+00	0	41	0	0	47	4772
2026-01-25 23:03:41.72	47.38	32.69	-38.6	-40.4	19.2	0.00e+00	0	41	0	0	47	4784
2026-01-25 23:03:42.45	47.55	32.81	-38.7	-40.5	19.3	0.00e+00	0	41	0	0	48	4573
2026-01-25 23:03:43.72	47.86	33.01	-38.8	-40.6	19.2	0.00e+00	0	41	0	0	48	4636
2026-01-25 23:03:44.44	48.03	33.13	-38.9	-40.7	19.1	0.00e+00	0	41	0	0	48	4701
2026-01-25 23:03:45.72	48.34	33.34	-39.1	-40.9	19.0	0.00e+00	0	41	0	0	48	4793
2026-01-25 23:03:46.68	48.58	33.49	-39.0	-40.8	19.1	0.00e+00	0	41	0	0	48	4718
2026-01-25 23:03:47.97	48.90	33.70	-39.0	-40.8	19.1	0.00e+00	0	41	0	0	48	4718
2026-01-25 23:03:48.72	49.09	33.83	-39.0	-40.8	19.2	0.00e+00	0	41	0	0	48	4723
2026-01-25 23:03:50.00	49.41	34.03	-38.9	-40.7	19.3	0.00e+00	0	41	0	0	48	4670
2026-01-25 23:03:50.72	49.60	34.15	-38.9	-40.7	19.2	0.00e+00	0	41	0	0	48	4687
2026-01-25 23:03:52.00	49.93	34.36	-39.0	-40.7	19.2	0.00e+00	0	42	0	0	48	4701
2026-01-25 23:03:52.73	50.12	34.48	-39.0	-40.8	19.2	0.00e+00	0	41	0	0	48	4713
2026-01-25 23:03:54.01	50.46	34.69	-38.9	-40.7	19.3	0.00e+00	0	41	0	0	48	4652
2026-01-25 23:03:54.73	50.65	34.81	-39.0	-40.8	19.1	0.00e+00	0	41	0	0	48	4718
2026-01-25 23:03:56.01	51.00	35.02	-38.9	-40.7	19.1	0.00e+00	0	41	0	0	48	4687
2026-01-25 23:03:56.72	51.19	35.14	-39.0	-40.8	19.1	0.00e+00	0	41	0	0	48	4719
2026-01-25 23:03:58.15	51.58	35.38	-39.1	-40.9	19.0	0.00e+00	0	42	0	0	48	4811
2026-01-25 23:03:58.86	51.78	35.50	-39.3	-41.1	18.9	0.00e+00	0	41	0	0	49	4638
2026-01-25 23:04:00.22	52.16	35.72	-39.6	-41.4	18.7	0.00e+00	0	41	0	0	49	4795
2026-01-25 23:04:00.93	52.36	35.84	-39.6	-41.4	18.6	0.00e+00	0	41	0	0	49	4800
2026-01-25 23:04:02.21	52.73	36.05	-39.8	-41.7	18.4	0.00e+00	0	41	0	0	50	4685
2026-01-25 23:04:02.93	52.94	36.17	-39.8	-41.7	18.4	0.00e+00	0	41	0	0	50	4654
2026-01-25 23:04:04.21	53.31	36.38	-39.8	-41.7	18.4	0.00e+00	0	41	0	0	50	4695
2026-01-25 23:04:04.92	53.52	36.50	-39.9	-41.9	18.2	0.00e+00	0	42	0	0	50	4769
2026-01-25 23:04:06.20	53.91	36.71	-40.0	-41.9	18.1	0.00e+00	0	41	0	0	50	4794
2026-01-25 23:04:06.92	54.12	36.83	-40.0	-41.9	18.1	0.00e+00	0	41	0	0	50	4797
2026-01-25 23:04:08.20	54.51	37.05	-40.1	-42.1	18.0	0.00e+00	0	42	0	0	50	4882
2026-01-25 23:04:08.94	54.74	37.17	-40.1	-42.1	18.0	0.00e+00	0	41	0	0	50	4883
2026-01-25 23:04:10.22	55.14	37.38	-40.3	-42.2	17.8	0.00e+00	0	41	0	0	51	4701
2026-01-25 23:04:11.04	55.40	37.52	-40.4	-42.4	17.6	0.00e+00	0	42	0	0	51	4772
2026-01-25 23:04:12.18	55.76	37.71	-40.5	-42.5	17.6	0.00e+00	0	41	0	0	51	4827
2026-01-25 23:04:13.03	56.03	37.85	-40.3	-42.3	17.7	0.00e+00	0	41	0	0	51	4737
2026-01-25 23:04:14.17	56.40	38.04	-40.3	-42.3	17.7	0.00e+00	0	42	0	0	51	4736
2026-01-25 23:04:15.02	56.68	38.18	-40.2	-42.2	17.8	0.00e+00	0	41	0	0	51	4682
2026-01-25 23:04:16.16	57.06	38.36	-40.2	-42.2	17.8	0.00e+00	0	42	0	0	51	4701
2026-01-25 23:04:17.34	57.45	38.56	-40.1	-42.1	18.0	0.00e+00	0	42	0	0	51	4603
2026-01-25 23:04:18.20	57.74	38.70	-40.0	-42.0	18.2	0.00e+00	0	41	0	0	51	4549
2026-01-25 23:04:19.33	58.13	38.89	-39.8	-41.7	18.4	0.00e+00	0	42	0	0	51	4436
2026-01-25 23:04:20.19	58.42	39.03	-39.7	-41.6	18.5	0.00e+00	0	42	0	0	51	4358
2026-01-25 23:04:21.33	58.82	39.21	-39.8	-41.7	18.4	0.00e+00	0	42	0	0	51	4428
2026-01-25 23:04:22.18	59.12	39.35	-39.5	-41.4	18.8	0.00e+00	0	41	0	0	51	4250
2026-01-25 23:04:23.32	59.52	39.54	-39.6	-41.4	18.7	0.00e+00	0	42	0	0	51	4272
2026-01-25 23:04:24.17	59.83	39.67	-39.6	-41.5	18.6	0.00e+00	0	41	0	0	51	4292
2026-01-25 23:04:25.37	60.26	39.87	-39.6	-41.5	18.6	0.00e+00	0	42	0	0	51	4295
2026-01-25 23:04:26.22	60.57	40.01	-39.7	-41.5	18.6	0.00e+00	0	41	0	0	51	4332
2026-01-25 23:04:27.36	60.99	40.19	-39.5	-41.4	18.7	0.00e+00	0	42	0	0	51	4254
2026-01-25 23:04:28.21	61.31	40.32	-39.8	-41.7	18.5	0.00e+00	0	41	0	0	51	4400
2026-01-25 23:04:29.35	61.74	40.51	-39.9	-41.7	18.3	0.00e+00	0	42	0	0	51	4435
2026-01-25 23:04:30.21	62.06	40.64	-40.3	-42.2	17.9	0.00e+00	0	41	0	0	51	4679
2026-01-25 23:04:31.34	62.50	40.82	-40.5	-42.5	17.6	0.00e+00	0	41	0	0	51	4859
2026-01-25 23:04:32.36	62.89	40.98	-40.6	-42.6	17.6	0.00e+00	0	41	0	0	51	4876
2026-01-25 23:04:33.35	63.28	41.14	-40.5	-42.5	17.7	0.00e+00	0	41	0	0	51	4835
2026-01-25 23:04:34.35	63.68	41.29	-40.5	-42.5	17.7	0.00e+00	0	41	0	0	51	4840
2026-01-25 23:04:35.34	64.07	41.45	-40.6	-42.6	17.5	0.00e+00	0	42	0	0	51	4892
2026-01-25 23:04:36.34	64.47	41.60	-40.6	-42.6	17.6	0.00e+00	0	42	0	0	51	4898
2026-01-25 23:04:37.33	64.88	41.75	-40.6	-42.6	17.6	0.00e+00	0	41	0	0	51	4901
2026-01-25 23:04:38.33	65.29	41.90	-40.5	-42.5	17.6	0.00e+00	0	41	0	0	51	4854
2026-01-25 23:04:39.32	65.70	42.05	-40.5	-42.5	17.7	0.00e+00	0	41	0	0	51	4815
2026-01-25 23:04:40.32	66.11	42.20	-40.6	-42.6	17.6	0.00e+00	0	41	0	0	51	4918
2026-01-25 23:04:41.31	66.53	42.35	-40.4	-42.3	17.8	0.00e+00	0	41	0	0	51	4737
2026-01-25 23:04:42.31	66.96	42.50	-40.3	-42.2	17.9	0.00e+00	0	41	0	0	51	4690
2026-01-25 23:04:43.30	67.38	42.64	-40.3	-42.2	17.8	0.00e+00	0	42	0	0	51	4704
2026-01-25 23:04:44.30	67.82	42.79	-40.2	-42.2	17.9	0.00e+00	0	42	0	0	51	4664
2026-01-25 23:04:45.34	68.27	42.94	-40.0	-41.9	18.2	0.00e+00	0	42	0	0	51	4506
2026-01-25 23:04:46.31	68.70	43.08	-40.1	-42.0	18.1	0.00e+00	0	41	0	0	51	4587
2026-01-25 23:04:47.40	69.19	43.23	-40.2	-42.1	18.1	0.00e+00	0	41	0	0	51	4621
2026-01-25 23:04:48.30	69.59	43.36	-40.2	-42.1	18.0	0.00e+00	0	41	0	0	51	4639
2026-01-25 23:04:49.58	70.17	43.54	-40.3	-42.3	17.8	0.00e+00	0	41	0	0	51	4722
2026-01-25 23:04:50.29	70.50	43.64	-40.5	-42.5	17.5	0.00e+00	0	42	0	0	51	4845
2026-01-25 23:04:51.57	71.09	43.81	-40.6	-42.6	17.4	0.00e+00	0	42	0	0	51	4910
2026-01-25 23:04:52.28	71.42	43.90	-40.8	-42.9	17.1	0.00e+00	0	42	0	0	52	4774
2026-01-25 23:04:53.56	72.02	44.07	-40.7	-42.8	17.2	0.00e+00	0	42	0	0	52	4735
2026-01-25 23:04:54.27	72.35	44.17	-40.4	-42.4	17.6	0.00e+00	0	41	0	0	52	4531
2026-01-25 23:04:55.55	72.96	44.33	-40.1	-42.0	18.0	0.00e+00	0	42	0	0	52	4324
2026-01-25 23:04:56.26	73.30	44.42	-40.0	-41.9	18.2	0.00e+00	0	41	0	0	51	4534
2026-01-25 23:04:57.53	73.92	44.58	-40.3	-42.2	17.9	0.00e+00	0	41	0	0	51	4703
2026-01-25 23:04:58.26	74.28	44.67	-40.5	-42.5	17.7	0.00e+00	0	42	0	0	51	4822
2026-01-25 23:04:59.54	74.91	44.83	-40.5	-42.4	17.7	0.00e+00	0	42	0	0	51	4805
2026-01-25 23:05:00.25	75.26	44.92	-40.6	-42.6	17.5	0.00e+00	0	41	0	0	51	4892
2026-01-25 23:05:01.53	75.90	45.07	-40.5	-42.4	17.7	0.00e+00	0	41	0	0	52	4523
2026-01-25 23:05:02.24	76.25	45.15	-40.6	-42.6	17.5	0.00e+00	0	42	0	0	52	4605
2026-01-25 23:05:03.52	76.90	45.30	-40.7	-42.8	17.3	0.00e+00	0	41	0	0	52	4713
2026-01-25 23:05:04.25	77.27	45.38	-40.6	-42.6	17.5	0.00e+00	0	42	0	0	52	4629
2026-01-25 23:05:05.79	78.07	45.55	-40.6	-42.7	17.4	0.00e+00	0	42	0	0	52	4652
2026-01-25 23:05:06.50	78.43	45.62	-40.4	-42.4	17.7	0.00e+00	0	41	0	0	52	4512
2026-01-25 23:05:07.78	79.10	45.76	-40.4	-42.4	17.6	0.00e+00	0	42	0	0	52	4534
2026-01-25 23:05:08.50	79.48	45.83	-40.4	-42.5	17.6	0.00e+00	0	42	0	0	52	4554
2026-01-25 23:05:09.78	80.16	45.96	-40.5	-42.6	17.5	0.00e+00	0	42	0	0	52	4619
2026-01-25 23:05:10.50	80.54	46.03	-40.4	-42.5	17.6	0.00e+00	0	41	0	0	52	4550
2026-01-25 23:05:11.79	81.23	46.15	-40.4	-42.4	17.6	0.00e+00	0	42	0	0	52	4526
2026-01-25 23:05:12.50	81.61	46.22	-40.4	-42.4	17.6	0.00e+00	0	41	0	0	52	4511
2026-01-25 23:05:13.77	82.30	46.33	-40.8	-42.9	17.2	0.00e+00	0	41	0	0	52	4775
2026-01-25 23:05:14.51	82.70	46.40	-40.8	-43.0	17.1	0.00e+00	0	41	0	0	52	4845
2026-01-25 23:05:15.79	83.40	46.51	-40.8	-43.0	17.1	0.00e+00	0	42	0	0	52	4850
2026-01-25 23:05:16.57	83.83	46.57	-40.7	-42.8	17.1	0.00e+00	0	42	0	0	52	4737
2026-01-25 23:05:17.85	84.54	46.67	-40.4	-42.5	17.3	0.00e+00	0	41	0	0	52	4558
2026-01-25 23:05:18.59	84.95	46.73	-40.4	-42.5	17.3	0.00e+00	0	41	0	0	52	4554
2026-01-25 23:05:19.87	85.67	46.82	-40.2	-42.2	17.7	0.00e+00	0	41	0	0	52	4412
2026-01-25 23:05:20.58	86.07	46.87	-40.1	-42.1	17.8	0.00e+00	0	41	0	0	52	4353
2026-01-25 23:05:21.86	86.79	46.96	-40.0	-42.0	17.9	0.00e+00	0	42	0	0	52	4320
2026-01-25 23:05:22.58	87.20	47.01	-40.1	-42.1	17.8	0.00e+00	0	41	0	0	52	4359
2026-01-25 23:05:23.86	87.93	47.09	-40.3	-42.3	17.6	0.00e+00	0	42	0	0	52	4467
2026-01-25 23:05:24.58	88.34	47.13	-40.1	-42.2	17.7	0.00e+00	0	42	0	0	52	4400
2026-01-25 23:05:25.86	89.07	47.21	-40.0	-42.0	17.9	0.00e+00	0	42	0	0	52	4310
2026-01-25 23:05:26.57	89.48	47.24	-39.9	-41.8	18.2	0.00e+00	0	42	0	0	51	4486
2026-01-25 23:05:27.85	90.22	47.31	-39.8	-41.7	18.3	0.00e+00	0	42	0	0	51	4415
2026-01-25 23:05:28.56	90.63	47.34	-39.9	-41.8	18.1	0.00e+00	0	42	0	0	51	4489
2026-01-25 23:05:29.84	91.37	47.40	-40.3	-42.2	17.8	0.00e+00	0	42	0	0	51	4704
2026-01-25 23:05:30.57	91.80	47.43	-40.3	-42.3	17.8	0.00e+00	0	41	0	0	51	4725
2026-01-25 23:05:31.85	92.54	47.48	-40.0	-41.9	18.2	0.00e+00	0	42	0	0	51	4507
2026-01-25 23:05:32.59	92.98	47.51	-39.7	-41.6	18.5	0.00e+00	0	42	0	0	51	4345
2026-01-25 23:05:33.87	93.73	47.55	-39.7	-41.6	18.4	0.00e+00	0	41	0	0	51	4376
2026-01-25 23:05:34.58	94.15	47.57	-39.9	-41.8	18.3	0.00e+00	0	42	0	0	51	4453
2026-01-25 23:05:35.86	94.90	47.60	-40.0	-41.9	18.2	0.00e+00	0	42	0	0	51	4503
2026-01-25 23:05:36.57	95.32	47.62	-40.2	-42.1	18.0	0.00e+00	0	42	0	0	51	4610
2026-01-25 23:05:37.85	96.07	47.64	-40.2	-42.1	17.9	0.00e+00	0	42	0	0	51	4620
2026-01-25 23:05:38.56	96.49	47.65	-40.1	-42.0	18.0	0.00e+00	0	42	0	0	51	4573
2026-01-25 23:05:39.84	97.25	47.67	-40.0	-41.9	18.1	0.00e+00	0	42	0	0	51	4530
2026-01-25 23:05:40.55	97.67	47.67	-40.0	-42.0	18.0	0.00e+00	0	42	0	0	51	4562
2026-01-25 23:05:41.83	98.43	47.68	-40.3	-42.3	17.8	0.00e+00	0	42	0	0	51	4728
2026-01-25 23:05:42.56	98.86	47.69	-40.3	-42.2	17.8	0.00e+00	0	42	0	0	51	4694
2026-01-25 23:05:43.84	99.62	47.69	-40.3	-42.3	17.8	0.00e+00	0	41	0	0	51	4716
2026-01-25 23:05:44.55	100.04	47.68	-40.2	-42.2	17.8	0.00e+00	0	42	0	0	51	4655
2026-01-25 23:05:45.83	100.80	47.67	-40.4	-42.4	17.7	0.00e+00	0	42	0	0	51	4769
2026-01-25 23:05:46.56	101.23	47.67	-40.4	-42.4	17.6	0.00e+00	0	42	0	0	51	4811
2026-01-25 23:05:47.83	101.98	47.65	-40.4	-42.4	17.8	0.00e+00	0	41	0	0	51	4772
2026-01-25 23:05:48.59	102.43	47.64	-40.4	-42.4	17.7	0.00e+00	0	42	0	0	51	4766
2026-01-25 23:05:50.17	103.37	47.61	-40.5	-42.5	17.6	0.00e+00	0	42	0	0	51	4834
2026-01-25 23:05:50.82	103.75	47.59	-40.6	-42.7	17.5	0.00e+00	0	42	0	0	51	4936
2026-01-25 23:05:52.24	104.58	47.55	-40.8	-42.9	17.3	0.00e+00	0	42	0	0	52	4781
2026-01-25 23:05:52.95	105.00	47.53	-40.9	-43.0	17.1	0.00e+00	0	42	0	0	52	4850
2026-01-25 23:05:54.23	105.75	47.49	-41.0	-43.3	16.9	0.00e+00	0	42	0	0	52	4997
2026-01-25 23:05:54.97	106.18	47.46	-40.9	-43.1	17.0	0.00e+00	0	42	0	0	52	4900
2026-01-25 23:05:56.25	106.93	47.41	-40.4	-42.5	17.6	0.00e+00	0	42	0	0	52	4578
2026-01-25 23:05:57.01	107.37	47.37	-40.4	-42.4	17.7	0.00e+00	0	42	0	0	52	4525
2026-01-25 23:05:58.29	108.12	47.32	-40.4	-42.3	17.8	0.00e+00	0	42	0	0	52	4491
2026-01-25 23:05:59.00	108.53	47.28	-40.4	-42.4	17.8	0.00e+00	0	42	0	0	52	4499
2026-01-25 23:06:00.28	109.27	47.21	-40.3	-42.4	17.8	0.00e+00	0	42	0	0	52	4496
2026-01-25 23:06:00.99	109.67	47.17	-40.4	-42.4	17.7	0.00e+00	0	42	0	0	52	4528
2026-01-25 23:06:02.27	110.41	47.10	-40.8	-42.8	17.3	0.00e+00	0	42	0	0	52	4753
2026-01-25 23:06:02.98	110.81	47.05	-40.7	-42.8	17.4	0.00e+00	0	42	0	0	52	4731
2026-01-25 23:06:04.26	111.54	46.97	-40.2	-42.1	18.0	0.00e+00	0	42	0	0	52	4360
2026-01-25 23:06:04.97	111.94	46.92	-40.0	-41.8	18.2	0.00e+00	0	42	0	0	52	4240
2026-01-25 23:06:06.25	112.66	46.83	-40.3	-42.2	17.9	0.00e+00	0	42	0	0	51	4698
2026-01-25 23:06:06.98	113.07	46.78	-40.3	-42.2	18.0	0.00e+00	0	41	0	0	51	4674
2026-01-25 23:06:08.26	113.79	46.68	-40.6	-42.7	17.4	0.00e+00	0	41	0	0	52	4661
2026-01-25 23:06:08.97	114.18	46.63	-41.0	-43.1	17.0	0.00e+00	0	41	0	0	52	4877
2026-01-25 23:06:10.25	114.89	46.52	-40.8	-42.9	17.3	0.00e+00	0	41	0	0	52	4774
2026-01-25 23:06:10.97	115.28	46.46	-40.4	-42.4	17.7	0.00e+00	0	42	0	0	52	4513
2026-01-25 23:06:12.25	115.98	46.35	-40.0	-41.9	18.1	0.00e+00	0	42	0	0	52	4286
2026-01-25 23:06:12.99	116.39	46.29	-40.1	-42.0	18.2	0.00e+00	0	41	0	0	51	4566
2026-01-25 23:06:14.27	117.08	46.17	-40.4	-42.3	17.9	0.00e+00	0	42	0	0	51	4736
2026-01-25 23:06:15.05	117.50	46.10	-40.7	-42.7	17.4	0.00e+00	0	42	0	0	52	4656
2026-01-25 23:06:16.33	118.18	45.97	-40.9	-43.0	17.0	0.00e+00	0	42	0	0	52	4845
2026-01-25 23:06:17.16	118.62	45.89	-40.9	-43.0	17.1	0.00e+00	0	42	0	0	52	4865
2026-01-25 23:06:18.60	119.38	45.74	-40.0	-42.0	18.1	0.00e+00	0	42	0	0	51	4546
2026-01-25 23:06:19.31	119.75	45.67	-39.7	-41.5	18.5	0.00e+00	0	42	0	0	51	4318
2026-01-25 23:06:20.59	120.42	45.53	-39.5	-41.3	18.7	0.00e+00	0	41	0	0	50	4460
2026-01-25 23:06:21.32	120.80	45.45	-39.4	-41.2	18.8	0.00e+00	0	42	0	0	50	4407
2026-01-25 23:06:22.60	121.45	45.31	-39.6	-41.4	18.6	0.00e+00	0	42	0	0	50	4541
2026-01-25 23:06:23.36	121.84	45.22	-39.7	-41.6	18.5	0.00e+00	0	42	0	0	50	4616
2026-01-25 23:06:24.63	122.48	45.08	-39.9	-41.8	18.2	0.00e+00	0	42	0	0	50	4748
2026-01-25 23:06:25.34	122.84	44.99	-39.8	-41.7	18.2	0.00e+00	0	41	0	0	50	4689
2026-01-25 23:06:26.62	123.48	44.84	-39.6	-41.4	18.6	0.00e+00	0	42	0	0	50	4513
2026-01-25 23:06:27.48	123.90	44.73	-39.6	-41.4	18.6	0.00e+00	0	42	0	0	50	4508
2026-01-25 23:06:28.61	124.46	44.59	-40.0	-41.9	18.1	0.00e+00	0	42	0	0	50	4779
2026-01-25 23:06:29.47	124.88	44.49	-40.2	-42.2	18.0	0.00e+00	0	42	0	0	51	4655
2026-01-25 23:06:30.60	125.42	44.34	-40.2	-42.1	18.0	0.00e+00	0	42	0	0	51	4614
2026-01-25 23:06:31.71	125.95	44.20	-40.1	-42.0	18.0	0.00e+00	0	42	0	0	51	4564
2026-01-25 23:06:32.72	126.43	44.06	-40.2	-42.1	17.8	0.00e+00	0	42	0	0	51	4621
2026-01-25 23:06:33.89	126.98	43.91	-40.4	-42.3	17.7	0.00e+00	0	42	0	0	51	4751
2026-01-25 23:06:34.74	127.38	43.79	-40.3	-42.3	17.7	0.00e+00	0	42	0	0	51	4721
2026-01-25 23:06:35.88	127.91	43.64	-40.4	-42.4	17.6	0.00e+00	0	41	0	0	51	4793
2026-01-25 23:06:36.81	128.33	43.51	-40.6	-42.7	17.4	0.00e+00	0	42	0	0	52	4656
2026-01-25 23:06:37.98	128.87	43.35	-40.8	-42.9	17.1	0.00e+00	0	42	0	0	52	4781
2026-01-25 23:06:38.83	129.25	43.23	-40.9	-43.0	17.0	0.00e+00	0	42	0	0	52	4832
2026-01-25 23:06:39.97	129.76	43.07	-41.0	-43.1	16.9	0.00e+00	0	42	0	0	52	4900
2026-01-25 23:06:40.82	130.13	42.94	-41.0	-43.2	17.0	0.00e+00	0	42	0	0	52	4929
2026-01-25 23:06:41.96	130.63	42.78	-40.9	-43.0	17.1	0.00e+00	0	42	0	0	52	4815
2026-01-25 23:06:42.81	131.00	42.65	-40.8	-42.8	17.2	0.00e+00	0	42	0	0	52	4747
2026-01-25 23:06:43.95	131.50	42.49	-40.7	-42.8	17.3	0.00e+00	0	42	0	0	52	4725
2026-01-25 23:06:44.80	131.86	42.36	-40.7	-42.7	17.3	0.00e+00	0	42	0	0	52	4689
2026-01-25 23:06:45.94	132.34	42.19	-40.2	-42.2	17.8	0.00e+00	0	42	0	0	52	4407
2026-01-25 23:06:46.79	132.70	42.06	-40.4	-42.4	17.7	0.00e+00	0	42	0	0	52	4494
2026-01-25 23:06:47.93	133.17	41.89	-40.5	-42.5	17.6	0.00e+00	0	42	0	0	52	4577
2026-01-25 23:06:48.78	133.52	41.76	-40.4	-42.5	17.7	0.00e+00	0	42	0	0	52	4551
2026-01-25 23:06:49.92	133.99	41.58	-40.3	-42.3	17.8	0.00e+00	0	42	0	0	52	4465
2026-01-25 23:06:50.78	134.34	41.45	-40.1	-42.1	17.9	0.00e+00	0	42	0	0	52	4360
2026-01-25 23:06:51.91	134.79	41.27	-40.1	-42.1	17.9	0.00e+00	0	42	0	0	52	4343
2026-01-25 23:06:52.77	135.13	41.14	-40.0	-41.9	18.1	0.00e+00	0	42	0	0	52	4261
2026-01-25 23:06:54.14	135.67	40.92	-39.6	-41.5	18.5	0.00e+00	0	42	0	0	51	4297
2026-01-25 23:06:54.85	135.94	40.81	-39.7	-41.5	18.5	0.00e+00	0	42	0	0	51	4337
2026-01-25 23:06:56.13	136.44	40.61	-39.9	-41.9	18.2	0.00e+00	0	42	0	0	51	4495
2026-01-25 23:06:56.84	136.71	40.49	-40.2	-42.2	17.9	0.00e+00	0	42	0	0	51	4672
2026-01-25 23:06:58.12	137.19	40.29	-40.3	-42.2	17.7	0.00e+00	0	42	0	0	51	4693
2026-01-25 23:06:58.91	137.48	40.16	-40.1	-42.1	17.9	0.00e+00	0	42	0	0	51	4610
2026-01-25 23:07:00.08	137.92	39.97	-40.0	-41.9	18.1	0.00e+00	0	42	0	0	51	4508
2026-01-25 23:07:00.93	138.23	39.83	-40.1	-42.1	18.0	0.00e+00	0	42	0	0	51	4612
2026-01-25 23:07:02.07	138.64	39.65	-40.3	-42.3	17.8	0.00e+00	0	42	0	0	51	4720
2026-01-25 23:07:03.14	139.03	39.47	-40.5	-42.4	17.7	0.00e+00	0	42	0	0	51	4812
2026-01-25 23:07:04.00	139.33	39.33	-40.5	-42.5	17.6	0.00e+00	0	42	0	0	51	4868
2026-01-25 23:07:05.14	139.73	39.15	-40.7	-42.7	17.4	0.00e+00	0	41	0	0	52	4693
2026-01-25 23:07:05.99	140.03	39.01	-40.8	-42.9	17.2	0.00e+00	0	42	0	0	52	4778
2026-01-25 23:07:07.13	140.42	38.82	-40.5	-42.5	17.6	0.00e+00	0	42	0	0	52	4579
2026-01-25 23:07:07.98	140.71	38.68	-40.1	-42.1	18.0	0.00e+00	0	42	0	0	52	4351
2026-01-25 23:07:09.12	141.10	38.49	-39.9	-41.8	18.2	0.00e+00	0	42	0	0	51	4489
2026-01-25 23:07:10.33	141.50	38.29	-39.6	-41.4	18.5	0.00e+00	0	42	0	0	51	4260
2026-01-25 23:07:11.36	141.84	38.12	-39.4	-41.2	18.6	0.00e+00	0	42	0	0	50	4434
2026-01-25 23:07:12.36	142.17	37.95	-39.6	-41.5	18.5	0.00e+00	0	42	0	0	50	4549
2026-01-25 23:07:13.55	142.56	37.75	-39.3	-41.1	18.9	0.00e+00	0	42	0	0	50	4384
2026-01-25 23:07:14.41	142.83	37.61	-39.3	-41.1	18.9	0.00e+00	0	42	0	0	50	4376
2026-01-25 23:07:15.55	143.19	37.42	-39.3	-41.1	18.9	0.00e+00	0	41	0	0	50	4391
2026-01-25 23:07:16.40	143.46	37.28	-39.3	-41.2	18.9	0.00e+00	0	42	0	0	50	4394
2026-01-25 23:07:17.54	143.82	37.09	-39.2	-41.0	19.0	0.00e+00	0	42	0	0	50	4293
2026-01-25 23:07:18.39	144.08	36.95	-39.2	-41.1	18.9	0.00e+00	0	42	0	0	50	4344
2026-01-25 23:07:19.53	144.42	36.76	-39.1	-40.9	19.0	0.00e+00	0	42	0	0	50	4278
2026-01-25 23:07:20.38	144.68	36.61	-39.0	-40.8	19.2	0.00e+00	0	42	0	0	50	4207
2026-01-25 23:07:21.52	145.02	36.42	-39.1	-40.8	19.2	0.00e+00	0	42	0	0	49	4478
2026-01-25 23:07:22.37	145.27	36.28	-39.0	-40.8	19.2	0.00e+00	0	42	0	0	49	4447
2026-01-25 23:07:23.51	145.61	36.09	-39.1	-40.8	19.2	0.00e+00	0	42	0	0	49	4480
2026-01-25 23:07:24.36	145.85	35.95	-39.2	-41.0	19.0	0.00e+00	0	42	0	0	49	4558
2026-01-25 23:07:25.50	146.18	35.76	-39.3	-41.2	18.8	0.00e+00	0	42	0	0	49	4668
2026-01-25 23:07:26.35	146.42	35.62	-39.5	-41.4	18.6	0.00e+00	0	42	0	0	49	4777
2026-01-25 23:07:27.49	146.74	35.43	-39.7	-41.6	18.4	0.00e+00	0	42	0	0	50	4644
2026-01-25 23:07:28.34	146.98	35.28	-39.8	-41.7	18.2	0.00e+00	0	42	0	0	50	4704
2026-01-25 23:07:29.48	147.29	35.09	-39.6	-41.5	18.6	0.00e+00	0	42	0	0	50	4551
2026-01-25 23:07:30.33	147.53	34.95	-39.4	-41.3	18.7	0.00e+00	0	42	0	0	50	4444
2026-01-25 23:07:31.47	147.83	34.76	-39.4	-41.3	18.7	0.00e+00	0	42	0	0	50	4451
2026-01-25 23:07:32.32	148.06	34.62	-39.1	-40.9	19.0	0.00e+00	0	42	0	0	50	4257
2026-01-25 23:07:33.46	148.36	34.43	-39.2	-41.0	18.9	0.00e+00	0	42	0	0	50	4316
2026-01-25 23:07:34.31	148.59	34.29	-39.3	-41.1	18.8	0.00e+00	0	42	0	0	50	4389
2026-01-25 23:07:35.45	148.88	34.10	-39.3	-41.1	18.9	0.00e+00	0	42	0	0	50	4357
2026-01-25 23:07:36.30	149.10	33.96	-39.4	-41.2	18.7	0.00e+00	0	42	0	0	50	4439
2026-01-25 23:07:37.43	149.39	33.78	-39.5	-41.4	18.7	0.00e+00	0	42	0	0	50	4518
2026-01-25 23:07:38.29	149.60	33.64	-39.5	-41.4	18.7	0.00e+00	0	42	0	0	50	4494
2026-01-25 23:07:39.42	149.89	33.45	-39.2	-41.1	18.9	0.00e+00	0	42	0	0	50	4345
2026-01-25 23:07:40.27	150.10	33.31	-39.2	-41.0	19.0	0.00e+00	0	42	0	0	50	4303
2026-01-25 23:07:41.41	150.38	33.12	-38.9	-40.7	19.3	0.00e+00	0	42	0	0	49	4401
2026-01-25 23:07:42.26	150.58	32.99	-38.9	-40.7	19.2	0.00e+00	0	42	0	0	49	4419
2026-01-25 23:07:43.40	150.86	32.80	-38.9	-40.7	19.2	0.00e+00	0	42	0	0	49	4420
2026-01-25 23:07:44.25	151.06	32.66	-38.8	-40.6	19.2	0.00e+00	0	42	0	0	49	4368
2026-01-25 23:07:45.39	151.33	32.48	-38.7	-40.5	19.3	0.00e+00	0	42	0	0	49	4324
2026-01-25 23:07:46.24	151.52	32.34	-38.6	-40.4	19.4	0.00e+00	0	42	0	0	49	4248
2026-01-25 23:07:47.60	151.84	32.12	-38.4	-40.1	19.6	0.00e+00	0	42	0	0	48	4377
2026-01-25 23:07:48.31	152.00	32.00	-38.4	-40.2	19.5	0.00e+00	0	42	0	0	48	4415
2026-01-25 23:07:49.59	152.29	31.80	-38.5	-40.3	19.4	0.00e+00	0	42	0	0	48	4455
2026-01-25 23:07:50.30	152.45	31.68	-38.5	-40.2	19.4	0.00e+00	0	42	0	0	48	4424
2026-01-25 23:07:51.58	152.73	31.48	-38.5	-40.3	19.4	0.00e+00	0	42	0	0	48	4468
2026-01-25 23:07:52.29	152.89	31.37	-38.6	-40.3	19.4	0.00e+00	0	42	0	0	48	4491
2026-01-25 23:07:53.59	153.17	31.16	-38.1	-39.8	19.9	0.00e+00	0	42	0	0	48	4234
2026-01-25 23:07:54.30	153.32	31.05	-38.1	-39.8	19.9	0.00e+00	0	42	0	0	48	4224
2026-01-25 23:07:55.58	153.60	30.84	-38.1	-39.8	19.9	0.00e+00	0	42	0	0	48	4223
2026-01-25 23:07:56.29	153.75	30.73	-37.9	-39.6	19.9	0.00e+00	0	42	0	0	47	4360
2026-01-25 23:07:57.57	154.02	30.53	-37.6	-39.2	20.2	0.00e+00	0	42	0	0	47	4185
2026-01-25 23:07:58.29	154.17	30.42	-37.5	-39.2	20.2	0.00e+00	0	42	0	0	47	4163
2026-01-25 23:07:59.57	154.43	30.22	-37.7	-39.4	20.1	0.00e+00	0	42	0	0	47	4258
2026-01-25 23:08:00.28	154.57	30.11	-37.7	-39.4	20.1	0.00e+00	0	42	0	0	47	4271
2026-01-25 23:08:01.66	154.85	29.89	-37.7	-39.5	20.1	0.00e+00	0	42	0	0	47	4309
2026-01-25 23:08:02.37	154.99	29.78	-37.7	-39.5	20.1	0.00e+00	0	42	0	0	47	4308
2026-01-25 23:08:03.74	155.26	29.57	-37.9	-39.6	20.0	0.00e+00	0	42	0	0	47	4366
2026-01-25 23:08:04.45	155.40	29.46	-37.8	-39.5	20.1	0.00e+00	0	42	0	0	47	4328
2026-01-25 23:08:05.73	155.65	29.26	-38.0	-39.7	19.9	0.00e+00	0	42	0	0	47	4429
2026-01-25 23:08:06.44	155.79	29.15	-38.0	-39.7	20.0	0.00e+00	0	42	0	0	47	4425
2026-01-25 23:08:07.72	156.03	28.96	-37.7	-39.4	20.2	0.00e+00	0	42	0	0	47	4287
2026-01-25 23:08:08.43	156.16	28.85	-37.7	-39.4	20.3	0.00e+00	0	42	0	0	47	4280
2026-01-25 23:08:09.71	156.40	28.66	-37.8	-39.5	20.2	0.00e+00	0	42	0	0	47	4327
2026-01-25 23:08:10.43	156.54	28.55	-37.7	-39.4	20.3	0.00e+00	0	42	0	0	47	4246
2026-01-25 23:08:11.71	156.77	28.35	-37.6	-39.3	20.4	0.00e+00	0	42	0	0	47	4219
2026-01-25 23:08:12.44	156.91	28.25	-37.7	-39.4	20.2	0.00e+00	0	42	0	0	47	4291
2026-01-25 23:08:13.72	157.14	28.05	-37.9	-39.6	20.0	0.00e+00	0	42	0	0	47	4378
2026-01-25 23:08:14.60	157.29	27.92	-37.9	-39.6	20.0	0.00e+00	0	42	0	0	47	4376
2026-01-25 23:08:16.00	157.54	27.71	-37.9	-39.6	20.0	0.00e+00	0	42	0	0	47	4365
2026-01-25 23:08:16.71	157.66	27.61	-37.9	-39.6	20.0	0.00e+00	0	42	0	0	47	4367
2026-01-25 23:08:17.99	157.89	27.42	-37.8	-39.5	20.1	0.00e+00	0	42	0	0	47	4321
2026-01-25 23:08:18.72	158.01	27.31	-37.7	-39.4	20.2	0.00e+00	0	42	0	0	47	4280
2026-01-25 23:08:20.00	158.23	27.13	-37.6	-39.3	20.3	0.00e+00	0	42	0	0	47	4201
2026-01-25 23:08:20.71	158.35	27.02	-37.5	-39.1	20.4	0.00e+00	0	42	0	0	47	4129
2026-01-25 23:08:21.99	158.56	26.84	-37.3	-39.0	20.5	0.00e+00	0	42	0	0	46	4316
2026-01-25 23:08:22.71	158.68	26.73	-37.4	-39.0	20.4	0.00e+00	0	42	0	0	46	4328
2026-01-25 23:08:24.00	158.89	26.55	-37.5	-39.1	20.4	0.00e+00	0	42	0	0	46	4374
2026-01-25 23:08:24.71	159.01	26.44	-37.5	-39.1	20.4	0.00e+00	0	42	0	0	46	4373
2026-01-25 23:08:25.99	159.22	26.26	-37.4	-39.1	20.5	0.00e+00	0	42	0	0	46	4348
2026-01-25 23:08:26.70	159.33	26.16	-37.5	-39.1	20.4	0.00e+00	0	42	0	0	46	4378
2026-01-25 23:08:27.99	159.53	25.98	-37.5	-39.1	20.4	0.00e+00	0	42	0	0	46	4377
2026-01-25 23:08:28.70	159.65	25.87	-37.6	-39.2	20.3	0.00e+00	0	42	0	0	46	4441
2026-01-25 23:08:30.05	159.86	25.68	-37.5	-39.1	20.4	0.00e+00	0	42	0	0	46	4383
2026-01-25 23:08:30.76	159.97	25.58	-37.3	-39.0	20.5	0.00e+00	0	42	0	0	46	4312
2026-01-25 23:08:32.04	160.16	25.41	-37.3	-39.0	20.5	0.00e+00	0	42	0	0	46	4298
2026-01-25 23:08:32.75	160.27	25.31	-37.3	-39.0	20.5	0.00e+00	0	42	0	0	46	4304
2026-01-25 23:08:34.03	160.46	25.13	-37.4	-39.1	20.4	0.00e+00	0	42	0	0	46	4344
2026-01-25 23:08:34.74	160.57	25.03	-37.3	-39.0	20.5	0.00e+00	0	42	0	0	46	4293
2026-01-25 23:08:36.24	160.79	24.82	-37.4	-39.0	20.4	0.00e+00	0	42	0	0	46	4336
2026-01-25 23:08:36.95	160.89	24.73	-37.4	-39.1	20.4	0.00e+00	0	42	0	0	46	4358
2026-01-25 23:08:38.23	161.08	24.55	-37.6	-39.2	20.3	0.00e+00	0	42	0	0	46	4425
2026-01-25 23:08:38.94	161.18	24.45	-37.6	-39.3	20.3	0.00e+00	0	42	0	0	46	4451
2026-01-25 23:08:40.21	161.36	24.28	-37.7	-39.4	20.2	0.00e+00	0	42	0	0	46	4503
2026-01-25 23:08:40.92	161.46	24.18	-37.8	-39.5	20.1	0.00e+00	0	42	0	0	46	4565
2026-01-25 23:08:42.20	161.64	24.01	-37.8	-39.5	20.1	0.00e+00	0	42	0	0	46	4556
2026-01-25 23:08:42.92	161.75	23.92	-37.8	-39.5	20.1	0.00e+00	0	42	0	0	46	4581
2026-01-25 23:08:44.19	161.92	23.75	-37.8	-39.5	20.1	0.00e+00	0	42	0	0	46	4575
2026-01-25 23:08:44.90	162.02	23.65	-37.9	-39.6	20.1	0.00e+00	0	42	0	0	46	4614
2026-01-25 23:08:46.18	162.19	23.48	-37.9	-39.7	19.9	0.00e+00	0	42	0	0	46	4656
2026-01-25 23:08:46.99	162.30	23.37	-38.0	-39.8	19.8	0.00e+00	0	42	0	0	46	4706
2026-01-25 23:08:48.13	162.45	23.22	-38.1	-39.9	19.6	0.00e+00	0	42	0	0	46	4786
2026-01-25 23:08:48.98	162.57	23.11	-38.2	-40.0	19.5	0.00e+00	0	42	0	0	47	4578
2026-01-25 23:08:50.11	162.72	22.97	-38.3	-40.1	19.4	0.00e+00	0	42	0	0	47	4611
2026-01-25 23:08:50.97	162.83	22.85	-38.3	-40.1	19.3	0.00e+00	0	42	0	0	47	4627
2026-01-25 23:08:52.10	162.97	22.71	-38.2	-40.0	19.4	0.00e+00	0	42	0	0	47	4591
2026-01-25 23:08:52.96	163.08	22.60	-38.3	-40.1	19.4	0.00e+00	0	42	0	0	47	4609
2026-01-25 23:08:54.09	163.23	22.45	-38.2	-40.0	19.4	0.00e+00	0	42	0	0	47	4594
2026-01-25 23:08:55.36	163.39	22.29	-38.1	-39.8	19.6	0.00e+00	0	42	0	0	47	4481
2026-01-25 23:08:56.17	163.49	22.19	-38.1	-39.8	19.7	0.00e+00	0	42	0	0	47	4483
2026-01-25 23:08:57.31	163.63	22.04	-38.1	-39.8	19.6	0.00e+00	0	42	0	0	47	4486
2026-01-25 23:08:58.16	163.74	21.93	-38.0	-39.7	19.7	0.00e+00	0	42	0	0	47	4438
2026-01-25 23:08:59.30	163.88	21.79	-37.9	-39.6	19.8	0.00e+00	0	42	0	0	47	4386
2026-01-25 23:09:00.15	163.98	21.68	-37.9	-39.6	19.8	0.00e+00	0	42	0	0	47	4347
2026-01-25 23:09:01.30	164.12	21.54	-37.9	-39.6	19.7	0.00e+00	0	42	0	0	47	4378
2026-01-25 23:09:02.16	164.22	21.43	-37.9	-39.6	19.7	0.00e+00	0	42	0	0	47	4370
2026-01-25 23:09:03.30	164.36	21.29	-37.8	-39.5	19.8	0.00e+00	0	42	0	0	47	4333
2026-01-25 23:09:04.15	164.46	21.19	-37.9	-39.7	19.7	0.00e+00	0	42	0	0	47	4400
2026-01-25 23:09:05.29	164.59	21.05	-38.0	-39.8	19.6	0.00e+00	0	42	0	0	47	4447
2026-01-25 23:09:06.14	164.69	20.94	-38.0	-39.7	19.7	0.00e+00	0	42	0	0	47	4432
2026-01-25 23:09:07.48	164.84	20.78	-37.9	-39.7	19.8	0.00e+00	0	42	0	0	47	4394
2026-01-25 23:09:08.19	164.92	20.69	-38.0	-39.7	19.8	0.00e+00	0	42	0	0	47	4432
2026-01-25 23:09:09.47	165.07	20.54	-37.8	-39.6	19.9	0.00e+00	0	42	0	0	47	4353
2026-01-25 23:09:10.20	165.15	20.45	-37.8	-39.5	20.0	0.00e+00	0	42	0	0	47	4316
2026-01-25 23:09:11.75	165.32	20.26	-37.8	-39.5	20.0	0.00e+00	0	42	0	0	47	4337
2026-01-25 23:09:12.46	165.40	20.18	-37.9	-39.7	19.9	0.00e+00	0	42	0	0	47	4401
2026-01-25 23:09:13.73	165.54	20.03	-37.9	-39.6	19.9	0.00e+00	0	42	0	0	47	4374
2026-01-25 23:09:14.44	165.62	19.94	-37.9	-39.7	19.8	0.00e+00	0	42	0	0	47	4419
2026-01-25 23:09:15.72	165.75	19.79	-38.0	-39.8	19.7	0.00e+00	0	42	0	0	47	4460
2026-01-25 23:09:16.45	165.83	19.70	-38.2	-40.0	19.5	0.00e+00	0	42	0	0	47	4558
2026-01-25 23:09:17.73	165.97	19.55	-38.2	-40.0	19.5	0.00e+00	0	42	0	0	47	4595
2026-01-25 23:09:18.44	166.04	19.47	-38.2	-40.0	19.5	0.00e+00	0	42	0	0	47	4555
2026-01-25 23:09:19.72	166.18	19.32	-38.1	-39.9	19.5	0.00e+00	0	42	0	0	47	4516
2026-01-25 23:09:20.43	166.25	19.24	-38.2	-39.9	19.5	0.00e+00	0	42	0	0	47	4535
2026-01-25 23:09:21.71	166.38	19.09	-38.1	-39.9	19.5	0.00e+00	0	42	0	0	47	4525
2026-01-25 23:09:22.58	166.47	18.99	-38.1	-39.9	19.5	0.00e+00	0	42	0	0	47	4538
2026-01-25 23:09:23.71	166.59	18.86	-38.0	-39.8	19.6	0.00e+00	0	41	0	0	47	4445
2026-01-25 23:09:24.56	166.67	18.77	-38.0	-39.7	19.6	0.00e+00	0	42	0	0	47	4428
2026-01-25 23:09:25.70	166.79	18.64	-37.9	-39.6	19.7	0.00e+00	0	42	0	0	47	4382
2026-01-25 23:09:26.55	166.87	18.54	-37.8	-39.6	19.7	0.00e+00	0	42	0	0	47	4348
2026-01-25 23:09:27.69	166.98	18.41	-37.9	-39.7	19.5	0.00e+00	0	42	0	0	47	4425
2026-01-25 23:09:28.54	167.07	18.32	-38.0	-39.7	19.5	0.00e+00	0	42	0	0	47	4439
2026-01-25 23:09:29.70	167.18	18.19	-37.8	-39.6	19.7	0.00e+00	0	42	0	0	47	4357
2026-01-25 23:09:30.55	167.26	18.09	-37.8	-39.6	19.7	0.00e+00	0	42	0	0	47	4364
2026-01-25 23:09:31.69	167.37	17.97	-37.9	-39.6	19.7	0.00e+00	0	42	0	0	47	4379
2026-01-25 23:09:32.54	167.45	17.87	-37.8	-39.5	19.8	0.00e+00	0	42	0	0	47	4339
2026-01-25 23:09:33.68	167.56	17.75	-37.7	-39.5	19.9	0.00e+00	0	42	0	0	47	4297
2026-01-25 23:09:34.53	167.64	17.65	-37.7	-39.5	19.9	0.00e+00	0	42	0	0	47	4297
2026-01-25 23:09:35.67	167.75	17.53	-37.8	-39.5	19.9	0.00e+00	0	42	0	0	47	4315
2026-01-25 23:09:36.52	167.83	17.44	-37.8	-39.5	19.9	0.00e+00	0	42	0	0	47	4314
2026-01-25 23:09:37.66	167.93	17.31	-37.8	-39.5	19.9	0.00e+00	0	42	0	0	47	4331
2026-01-25 23:09:38.51	168.01	17.22	-37.7	-39.4	20.0	0.00e+00	0	42	0	0	47	4291
2026-01-25 23:09:39.65	168.11	17.10	-37.7	-39.5	20.0	0.00e+00	0	42	0	0	47	4296
2026-01-25 23:09:40.50	168.19	17.01	-37.8	-39.5	20.0	0.00e+00	0	42	0	0	47	4307
2026-01-25 23:09:41.64	168.29	16.88	-37.7	-39.5	20.0	0.00e+00	0	42	0	0	47	4299
2026-01-25 23:09:42.49	168.37	16.79	-37.9	-39.6	19.9	0.00e+00	0	42	0	0	47	4377
2026-01-25 23:09:43.64	168.47	16.67	-37.8	-39.5	19.9	0.00e+00	0	42	0	0	47	4334
2026-01-25 23:09:44.50	168.55	16.58	-37.9	-39.7	19.8	0.00e+00	0	42	0	0	47	4412
2026-01-25 23:09:45.64	168.65	16.46	-38.0	-39.7	19.7	0.00e+00	0	42	0	0	47	4423
2026-01-25 23:09:46.49	168.72	16.37	-38.0	-39.7	19.8	0.00e+00	0	42	0	0	47	4433
2026-01-25 23:09:47.62	168.82	16.25	-38.1	-39.9	19.6	0.00e+00	0	42	0	0	47	4516
2026-01-25 23:09:48.54	168.89	16.16	-38.1	-39.9	19.6	0.00e+00	0	42	0	0	47	4526
2026-01-25 23:09:49.54	168.98	16.05	-38.2	-40.0	19.5	0.00e+00	0	42	0	0	47	4552
2026-01-25 23:09:50.53	169.06	15.95	-38.3	-40.1	19.4	0.00e+00	0	42	0	0	47	4627
2026-01-25 23:09:51.52	169.15	15.85	-38.4	-40.3	19.2	0.00e+00	0	42	0	0	47	4706
2026-01-25 23:09:52.52	169.23	15.75	-38.5	-40.3	19.1	0.00e+00	0	42	0	0	47	4754
2026-01-25 23:09:53.52	169.31	15.65	-38.5	-40.3	19.1	0.00e+00	0	42	0	0	47	4725
2026-01-25 23:09:54.51	169.39	15.54	-38.5	-40.3	19.1	0.00e+00	0	42	0	0	47	4747
2026-01-25 23:09:55.51	169.48	15.44	-38.6	-40.4	19.0	0.00e+00	0	41	0	0	47	4802
2026-01-25 23:09:56.50	169.56	15.34	-38.6	-40.5	19.0	0.00e+00	0	42	0	0	47	4819
2026-01-25 23:09:57.50	169.64	15.24	-38.6	-40.5	19.0	0.00e+00	0	42	0	0	47	4829
2026-01-25 23:09:58.49	169.72	15.14	-38.6	-40.5	18.9	0.00e+00	0	42	0	0	47	4852
2026-01-25 23:09:59.49	169.80	15.04	-38.7	-40.6	19.0	0.00e+00	0	41	0	0	48	4628
2026-01-25 23:10:00.48	169.87	14.94	-38.7	-40.6	19.0	0.00e+00	0	41	0	0	48	4630
2026-01-25 23:10:01.48	169.95	14.84	-38.9	-40.8	18.8	0.00e+00	0	42	0	0	48	4707
2026-01-25 23:10:02.47	170.03	14.75	-38.8	-40.7	18.9	0.00e+00	0	42	0	0	48	4673
2026-01-25 23:10:03.47	170.11	14.65	-38.9	-40.8	18.8	0.00e+00	0	42	0	0	48	4716
2026-01-25 23:10:04.46	170.18	14.55	-38.8	-40.7	18.9	0.00e+00	0	42	0	0	48	4692
2026-01-25 23:10:05.45	170.26	14.45	-38.9	-40.8	18.8	0.00e+00	0	41	0	0	48	4733
2026-01-25 23:10:06.45	170.34	14.36	-38.8	-40.8	18.8	0.00e+00	0	42	0	0	48	4706
2026-01-25 23:10:07.44	170.41	14.26	-38.9	-40.8	18.8	0.00e+00	0	42	0	0	48	4748
2026-01-25 23:10:08.44	170.49	14.16	-38.9	-40.9	18.7	0.00e+00	0	42	0	0	48	4778
2026-01-25 23:10:09.43	170.56	14.07	-38.8	-40.7	18.9	0.00e+00	0	42	0	0	48	4661
2026-01-25 23:10:10.43	170.64	13.97	-38.8	-40.7	18.9	0.00e+00	0	42	0	0	48	4669
2026-01-25 23:10:11.42	170.71	13.88	-38.8	-40.8	18.8	0.00e+00	0	42	0	0	48	4710
2026-01-25 23:10:12.42	170.78	13.78	-38.9	-40.8	18.8	0.00e+00	0	42	0	0	48	4708
2026-01-25 23:10:13.41	170.85	13.69	-38.9	-40.7	18.8	0.00e+00	0	42	0	0	48	4698
2026-01-25 23:10:14.44	170.93	13.59	-38.9	-40.7	18.8	0.00e+00	0	42	0	0	48	4687
2026-01-25 23:10:15.47	171.00	13.49	-38.8	-40.7	18.9	0.00e+00	0	42	0	0	48	4659
2026-01-25 23:10:16.46	171.07	13.40	-38.8	-40.6	18.9	0.00e+00	0	42	0	0	48	4613
2026-01-25 23:10:17.46	171.15	13.30	-38.8	-40.7	18.8	0.00e+00	0	42	0	0	48	4668
2026-01-25 23:10:18.45	171.22	13.21	-38.9	-40.7	18.8	0.00e+00	0	42	0	0	48	4695
2026-01-25 23:10:19.45	171.29	13.12	-39.0	-40.8	18.7	0.00e+00	0	42	0	0	48	4738
2026-01-25 23:10:20.44	171.36	13.03	-39.1	-40.9	18.6	0.00e+00	0	42	0	0	48	4802
2026-01-25 23:10:21.43	171.42	12.94	-38.9	-40.7	18.7	0.00e+00	0	42	0	0	48	4702
2026-01-25 23:10:22.43	171.49	12.84	-39.0	-40.8	18.6	0.00e+00	0	42	0	0	48	4759
2026-01-25 23:10:23.42	171.56	12.75	-38.9	-40.8	18.7	7.00e-07	0	42	0	0	48	4724
2026-01-25 23:10:24.42	171.63	12.66	-39.0	-40.9	18.6	0.00e+00	0	42	0	0	48	4768
2026-01-25 23:10:25.41	171.70	12.57	-39.0	-40.9	18.6	0.00e+00	0	42	0	0	48	4802
2026-01-25 23:10:26.41	171.76	12.48	-39.1	-41.0	18.5	0.00e+00	0	42	0	0	49	4561
2026-01-25 23:10:27.41	171.83	12.39	-39.1	-41.0	18.5	0.00e+00	0	42	0	0	49	4557
2026-01-25 23:10:28.40	171.90	12.30	-39.2	-41.1	18.4	0.00e+00	0	42	0	0	49	4627
2026-01-25 23:10:29.39	171.96	12.21	-39.0	-41.0	18.5	0.00e+00	0	42	0	0	49	4547
2026-01-25 23:10:30.39	172.03	12.12	-39.1	-41.1	18.4	0.00e+00	0	41	0	0	49	4604
2026-01-25 23:10:31.38	172.09	12.03	-39.1	-41.2	18.4	0.00e+00	0	42	0	0	49	4656
2026-01-25 23:10:32.44	172.16	11.94	-39.1	-41.1	18.4	0.00e+00	0	42	0	0	49	4619
2026-01-25 23:10:33.34	172.22	11.86	-39.0	-41.0	18.5	0.00e+00	0	42	0	0	49	4586
2026-01-25 23:10:34.58	172.30	11.75	-39.0	-41.1	17.8	0.00e+00	0	42	0	0	49	4637
2026-01-25 23:10:35.44	172.36	11.67	-38.9	-41.1	18.4	0.00e+00	0	42	0	0	49	4631
2026-01-25 23:10:36.57	172.43	11.57	-38.9	-41.1	18.4	0.00e+00	0	42	0	0	49	4643
2026-01-25 23:10:37.43	172.48	11.50	-38.9	-41.1	18.0	0.00e+00	0	42	0	0	49	4625
2026-01-25 23:10:38.56	172.55	11.40	-38.8	-41.1	18.4	0.00e+00	0	41	0	0	49	4606
2026-01-25 23:10:39.41	172.61	11.32	-38.8	-41.1	18.4	0.00e+00	0	42	0	0	49	4618
2026-01-25 23:10:40.55	172.68	11.22	-38.7	-41.0	18.5	0.00e+00	0	42	0	0	49	4582
2026-01-25 23:10:41.40	172.73	11.15	-38.8	-41.1	18.4	0.00e+00	0	42	0	0	49	4620
2026-01-25 23:10:42.54	172.80	11.05	-38.8	-41.1	18.4	0.00e+00	0	42	0	0	49	4627
2026-01-25 23:10:43.40	172.85	10.98	-38.8	-41.1	18.4	1.33e-02	0	42	0	0	49	4626
2026-01-25 23:10:44.53	172.92	10.88	-38.7	-41.0	18.5	0.00e+00	0	42	0	0	49	4571
2026-01-25 23:10:45.39	172.98	10.81	-38.8	-41.1	18.4	0.00e+00	0	42	0	0	49	4615
2026-01-25 23:10:46.52	173.04	10.71	-38.7	-41.0	18.5	0.00e+00	0	42	0	0	49	4558
2026-01-25 23:10:47.38	173.09	10.64	-38.8	-41.0	18.4	0.00e+00	0	42	0	0	49	4595
2026-01-25 23:10:48.51	173.16	10.54	-38.6	-40.9	18.6	0.00e+00	0	42	0	0	49	4513
2026-01-25 23:10:49.37	173.21	10.47	-38.7	-40.9	18.5	0.00e+00	0	42	0	0	49	4526
2026-01-25 23:10:50.50	173.28	10.37	-38.7	-41.0	18.5	0.00e+00	0	42	0	0	49	4550
2026-01-25 23:10:51.36	173.33	10.30	-38.7	-40.9	18.5	0.00e+00	0	42	0	0	49	4529
2026-01-25 23:10:52.49	173.40	10.21	-38.7	-41.0	18.4	0.00e+00	0	42	0	0	49	4579
2026-01-25 23:10:53.34	173.45	10.14	-38.7	-41.1	18.4	0.00e+00	0	42	0	0	49	4604
2026-01-25 23:10:54.48	173.51	10.04	-38.8	-41.1	18.3	0.00e+00	0	42	0	0	49	4645
2026-01-25 23:10:55.33	173.56	9.97	-38.8	-41.2	18.3	0.00e+00	0	42	0	0	49	4667
2026-01-25 23:10:56.47	173.62	9.88	-38.8	-41.2	18.2	0.00e+00	0	42	0	0	49	4677
2026-01-25 23:10:57.32	173.67	9.81	-38.7	-41.2	18.3	0.00e+00	0	42	0	0	49	4663
2026-01-25 23:10:58.46	173.74	9.71	-38.8	-41.3	18.2	0.00e+00	0	42	0	0	49	4711
2026-01-25 23:10:59.31	173.79	9.64	-38.9	-41.3	18.2	0.00e+00	0	42	0	0	49	4734
2026-01-25 23:11:00.45	173.85	9.55	-38.9	-41.4	17.6	0.00e+00	0	42	0	0	49	4784
2026-01-25 23:11:01.30	173.90	9.48	-39.0	-41.4	18.0	0.00e+00	0	42	0	0	49	4808
2026-01-25 23:11:02.44	173.96	9.39	-39.0	-41.4	18.0	0.00e+00	0	42	0	0	49	4808
2026-01-25 23:11:03.29	174.01	9.32	-39.1	-41.5	17.9	0.00e+00	0	42	0	0	49	4856
2026-01-25 23:11:04.43	174.07	9.23	-39.1	-41.5	18.0	0.00e+00	0	42	0	0	49	4846
2026-01-25 23:11:05.28	174.11	9.16	-39.1	-41.5	17.9	0.00e+00	0	42	0	0	49	4857
2026-01-25 23:11:06.54	174.18	9.06	-39.1	-41.5	17.9	0.00e+00	0	42	0	0	49	4860
2026-01-25 23:11:07.36	174.23	8.99	-39.2	-41.7	17.8	0.00e+00	0	42	0	0	49	4957
2026-01-25 23:11:08.49	174.29	8.90	-45.7	-60.5	3.8	1.49e+00	0	42	104	0	61	21551
2026-01-25 23:11:09.34	174.33	8.83	-47.3	-60.9	3.8	1.49e+00	0	42	104	0	66	16975
2026-01-25 23:11:10.61	174.40	8.73	-47.9	-61.3	3.8	1.49e+00	0	42	104	0	66	17787
2026-01-25 23:11:11.39	174.44	8.67	-48.1	-61.3	3.8	1.49e+00	0	42	104	0	67	16760
2026-01-25 23:11:12.74	174.51	8.57	-48.2	-61.4	3.8	1.49e+00	0	42	104	0	67	16981
2026-01-25 23:11:13.45	174.55	8.51	-48.3	-61.4	3.8	1.49e+00	0	42	104	0	67	17030
2026-01-25 23:11:14.87	174.62	8.40	-48.4	-61.5	3.8	1.49e+00	0	42	104	0	67	17114
2026-01-25 23:11:15.58	174.66	8.34	-48.4	-61.5	3.8	1.49e+00	0	42	104	0	67	17132
2026-01-25 23:11:16.85	174.72	8.24	-48.5	-61.5	3.8	1.49e+00	0	42	104	0	67	17256
2026-01-25 23:11:17.56	174.76	8.19	-48.3	-61.5	3.8	1.49e+00	0	42	104	0	67	17277
2026-01-25 23:11:18.84	174.83	8.09	-48.6	-61.6	3.8	1.49e+00	0	42	104	0	67	17347
2026-01-25 23:11:19.56	174.86	8.03	-48.6	-61.6	3.8	1.49e+00	0	42	104	0	67	17395
2026-01-25 23:11:20.84	174.93	7.94	-48.6	-61.6	3.8	1.49e+00	0	42	104	0	67	17339
2026-01-25 23:11:21.57	174.96	7.88	-48.8	-61.8	3.8	1.49e+00	0	42	104	0	68	16704
2026-01-25 23:11:22.84	175.03	7.78	-48.9	-61.8	3.8	1.49e+00	0	42	104	0	68	16817
2026-01-25 23:11:23.55	175.06	7.73	-48.7	-61.8	3.8	1.49e+00	0	42	104	0	68	16778
2026-01-25 23:11:24.83	175.13	7.63	-48.8	-61.7	3.8	1.49e+00	0	42	104	0	68	16686
2026-01-25 23:11:25.54	175.16	7.58	-48.9	-61.8	3.8	1.49e+00	0	42	104	0	68	16790
2026-01-25 23:11:26.82	175.22	7.48	-48.8	-61.8	3.8	1.49e+00	0	42	104	0	68	16796
2026-01-25 23:11:27.52	175.26	7.43	-48.5	-61.8	3.8	1.49e+00	0	42	104	0	68	16826
2026-01-25 23:11:28.82	175.32	7.33	-48.8	-61.8	3.8	1.49e+00	0	42	104	0	68	16733
2026-01-25 23:11:29.53	175.35	7.28	-48.9	-61.8	3.8	1.49e+00	0	42	104	0	68	16811
2026-01-25 23:11:30.80	175.42	7.18	-48.7	-61.8	3.8	1.49e+00	0	42	104	0	68	16840
2026-01-25 23:11:31.54	175.45	7.13	-48.6	-61.8	3.8	1.49e+00	0	42	104	0	68	16802
2026-01-25 23:11:32.82	175.51	7.03	-48.7	-61.8	3.8	1.49e+00	0	42	104	0	68	16805
2026-01-25 23:11:33.53	175.54	6.98	-48.8	-61.8	3.8	1.49e+00	0	42	104	0	68	16806
2026-01-25 23:11:34.81	175.61	6.88	-48.5	-61.8	3.8	1.49e+00	0	42	104	0	68	16799
2026-01-25 23:11:35.54	175.64	6.83	-48.5	-61.8	3.8	1.49e+00	0	42	104	0	68	16810
2026-01-25 23:11:36.82	175.70	6.73	-48.5	-61.7	3.8	1.49e+00	0	42	104	0	68	16684
2026-01-25 23:11:37.53	175.73	6.68	-48.5	-61.8	3.8	1.49e+00	0	42	104	0	68	16716
2026-01-25 23:11:38.81	175.79	6.59	-48.5	-61.7	3.8	1.49e+00	0	42	104	0	68	16686
2026-01-25 23:11:39.52	175.82	6.54	-48.5	-61.8	3.8	1.49e+00	0	42	104	0	68	16697
2026-01-25 23:11:40.83	175.88	6.44	-48.5	-61.7	3.8	1.49e+00	0	42	104	0	68	16693
2026-01-25 23:11:41.53	175.92	6.39	-48.5	-61.8	3.8	1.49e+00	0	42	104	0	68	16732
2026-01-25 23:11:42.81	175.97	6.30	-48.5	-61.7	3.8	1.49e+00	0	42	104	0	68	16660
2026-01-25 23:11:43.52	176.01	6.25	-48.5	-61.8	3.8	1.49e+00	0	42	104	0	68	16702
2026-01-25 23:11:44.80	176.06	6.15	-48.5	-61.7	3.8	1.49e+00	0	42	104	0	68	16654
2026-01-25 23:11:45.51	176.09	6.10	-48.5	-61.8	3.8	1.49e+00	0	42	104	0	68	16715
2026-01-25 23:11:46.78	176.15	6.01	-48.5	-61.7	3.8	1.49e+00	0	42	104	0	68	16694
2026-01-25 23:11:47.49	176.18	5.96	-48.5	-61.8	3.8	1.49e+00	0	42	104	0	68	16744
2026-01-25 23:11:48.77	176.24	5.87	-48.5	-61.7	3.8	1.49e+00	0	42	104	0	68	16658
2026-01-25 23:11:49.48	176.27	5.82	-48.5	-61.7	3.8	1.49e+00	0	42	104	0	68	16649
2026-01-25 23:11:50.76	176.33	5.73	-48.5	-61.7	3.8	1.49e+00	0	42	104	0	68	16664
2026-01-25 23:11:51.47	176.36	5.68	-48.5	-61.7	3.8	1.49e+00	0	42	104	0	68	16643
2026-01-25 23:11:52.75	176.41	5.59	-48.5	-61.8	3.8	1.49e+00	0	42	104	0	68	16702
2026-01-25 23:11:53.47	176.44	5.54	-48.5	-61.8	3.8	1.49e+00	0	42	104	0	68	16720
2026-01-25 23:11:54.75	176.50	5.45	-48.5	-61.8	3.8	1.49e+00	0	42	104	0	68	16708
2026-01-25 23:11:55.46	176.53	5.40	-48.5	-61.7	3.8	1.49e+00	0	42	104	0	68	16648
2026-01-25 23:11:56.74	176.58	5.31	-48.5	-61.7	3.8	1.49e+00	0	42	104	0	68	16661
2026-01-25 23:11:57.45	176.61	5.26	-48.5	-61.7	3.8	1.49e+00	0	42	104	0	68	16672
2026-01-25 23:11:58.74	176.67	5.17	-48.5	-61.7	3.8	1.49e+00	0	42	104	0	68	16678
2026-01-25 23:11:59.45	176.70	5.12	-48.5	-61.7	3.8	1.49e+00	0	42	104	0	68	16605
2026-01-25 23:12:00.73	176.75	5.03	-48.5	-61.7	3.8	1.49e+00	0	42	104	0	68	16632
2026-01-25 23:12:01.44	176.78	4.98	-48.5	-61.7	3.8	1.49e+00	0	42	104	0	68	16669

#Closed at: 2026-01-25 23:12:02
#Recorded file [0 MB]: D:/Data/31040_260126_015922.dat