passes_logs/2026/01/25/T1/T1__20260125_022532_FENGYUN_3D_rec.log

#Pass ID: 20260125_022532_FENGYUN 3D
#Satellite: FENGYUN 3D
#Configuration: FENGYUN 3D
#almurnet v.1.7.20251203
#Start time: 2026-01-25 02:25:33

#Version: 2.0.20230620
#Station: T1
#Location: 37.570604 lon 55.790049 lat
#TLE: 1 43010U 17072A   26024.51794477  .00000040  00000+0  40682-4 0  9990
#TLE: 2 43010  98.9961 356.4820 0002494  91.2631 268.8830 14.19699550424601

#Time	Az	El	Level	Level2	SNR	BER	BlckErr	Temp	State	Recorded	gain1	gain2
2026-01-25 02:25:33.88	12.83	5.08	-46.2	-60.2	3.8	8.47e-01	0	37	0	0	64	17521
2026-01-25 02:25:34.87	12.80	5.14	-46.2	-60.2	3.8	8.47e-01	0	37	104	0	63	18632
2026-01-25 02:25:35.86	12.77	5.21	-46.2	-60.2	3.8	8.45e-01	0	37	104	0	63	18663
2026-01-25 02:25:36.86	12.74	5.28	-46.2	-60.2	3.8	8.47e-01	0	37	104	0	63	18619
2026-01-25 02:25:37.85	12.71	5.35	-46.2	-60.2	3.8	8.46e-01	0	37	104	0	63	18535
2026-01-25 02:25:38.84	12.68	5.42	-46.2	-60.2	3.8	8.46e-01	0	37	104	0	63	18576
2026-01-25 02:25:39.84	12.65	5.50	-46.2	-60.2	3.8	8.47e-01	0	37	104	0	63	18523
2026-01-25 02:25:40.83	12.62	5.57	-46.2	-60.2	3.8	8.47e-01	0	37	104	0	63	18548
2026-01-25 02:25:41.82	12.59	5.64	-46.2	-60.2	3.8	8.48e-01	0	37	104	0	63	18603
2026-01-25 02:25:42.82	12.56	5.71	-46.2	-60.2	3.8	8.47e-01	0	37	104	0	63	18620
2026-01-25 02:25:43.81	12.52	5.78	-46.2	-60.2	3.8	8.47e-01	0	37	104	0	63	18605
2026-01-25 02:25:44.80	12.49	5.85	-46.2	-60.2	3.8	8.47e-01	0	37	104	0	63	18579
2026-01-25 02:25:45.80	12.46	5.92	-46.2	-60.2	3.8	8.47e-01	0	37	104	0	63	18668
2026-01-25 02:25:46.79	12.43	5.99	-46.2	-60.2	3.8	8.47e-01	0	37	104	0	63	18653
2026-01-25 02:25:47.78	12.40	6.07	-46.2	-60.2	3.8	8.47e-01	0	37	104	0	63	18600
2026-01-25 02:25:48.78	12.37	6.14	-46.2	-60.1	3.8	8.46e-01	0	37	104	0	63	18473
2026-01-25 02:25:49.77	12.34	6.21	-46.2	-60.1	3.8	8.48e-01	0	38	104	0	63	18450
2026-01-25 02:25:50.76	12.30	6.28	-46.2	-60.0	3.8	8.46e-01	0	37	104	0	63	18129
2026-01-25 02:25:51.76	12.27	6.36	-46.2	-59.8	3.8	8.46e-01	0	37	104	0	63	17862
2026-01-25 02:25:52.75	12.24	6.43	-46.2	-59.6	3.8	8.47e-01	0	37	104	0	63	17420
2026-01-25 02:25:53.74	12.20	6.50	-46.2	-59.4	3.8	8.47e-01	0	38	104	0	63	16940
2026-01-25 02:25:54.74	12.17	6.58	-46.1	-59.0	3.8	8.46e-01	0	38	104	0	63	16291
2026-01-25 02:25:55.73	12.14	6.65	-46.1	-58.9	3.8	8.47e-01	0	38	104	0	63	15991
2026-01-25 02:25:56.72	12.11	6.72	-46.1	-58.6	3.8	8.46e-01	0	37	104	0	63	15489
2026-01-25 02:25:57.71	12.07	6.80	-46.1	-58.4	3.8	8.46e-01	0	37	104	0	63	15135
2026-01-25 02:25:58.71	12.04	6.87	-46.1	-58.3	3.8	8.47e-01	0	38	104	0	63	14956
2026-01-25 02:25:59.70	12.00	6.94	-46.1	-58.3	3.8	8.47e-01	0	38	104	0	63	14883
2026-01-25 02:26:00.69	11.97	7.02	-46.1	-58.3	3.9	8.46e-01	0	38	104	0	63	14893
2026-01-25 02:26:01.69	11.94	7.09	-46.1	-58.5	3.8	8.47e-01	0	38	104	0	63	15259
2026-01-25 02:26:02.68	11.90	7.17	-46.1	-58.8	3.8	8.48e-01	0	38	104	0	63	15835
2026-01-25 02:26:03.67	11.87	7.24	-46.1	-59.0	3.8	8.47e-01	0	38	104	0	63	16252
2026-01-25 02:26:04.67	11.83	7.32	-46.2	-59.4	3.8	8.47e-01	0	38	104	0	63	16907
2026-01-25 02:26:05.66	11.80	7.39	-46.2	-59.7	3.8	8.48e-01	0	38	104	0	63	17557
2026-01-25 02:26:06.65	11.76	7.47	-46.2	-59.9	3.8	8.47e-01	0	38	104	0	63	18073
2026-01-25 02:26:07.65	11.72	7.55	-46.2	-60.1	3.8	8.47e-01	0	38	104	0	63	18356
2026-01-25 02:26:08.64	11.69	7.62	-46.2	-60.1	3.8	8.46e-01	0	38	104	0	63	18399
2026-01-25 02:26:09.63	11.65	7.70	-46.2	-59.9	3.8	8.47e-01	0	38	104	0	63	18024
2026-01-25 02:26:10.63	11.62	7.78	-46.1	-59.3	3.8	8.46e-01	0	38	104	0	63	16851
2026-01-25 02:26:11.62	11.58	7.85	-46.1	-58.2	3.8	8.46e-01	0	38	104	0	63	14839
2026-01-25 02:26:12.61	11.54	7.93	-45.9	-56.7	4.2	8.41e-01	0	38	0	0	63	12494
2026-01-25 02:26:13.61	11.51	8.01	-45.7	-55.1	4.8	8.18e-01	0	38	0	0	63	10364
2026-01-25 02:26:14.60	11.47	8.08	-45.4	-53.4	5.8	5.62e-01	0	38	0	0	62	8979
2026-01-25 02:26:15.59	11.43	8.16	-44.9	-51.7	7.3	2.01e-01	0	38	0	6291456	61	7812
2026-01-25 02:26:16.58	11.40	8.24	-44.5	-50.4	8.5	7.02e-02	0	38	0	11534336	61	6740
2026-01-25 02:26:17.58	11.36	8.32	-44.0	-49.1	9.8	1.57e-02	0	38	0	16777216	60	6188
2026-01-25 02:26:18.57	11.32	8.40	-43.7	-48.2	10.8	5.32e-03	0	38	0	23068672	59	5869
2026-01-25 02:26:19.56	11.28	8.48	-43.1	-47.2	11.9	7.72e-04	0	38	0	28311552	58	5541
2026-01-25 02:26:20.56	11.24	8.55	-42.7	-46.5	12.6	2.41e-04	0	38	0	33554432	57	5439
2026-01-25 02:26:21.55	11.20	8.63	-42.4	-46.0	13.1	8.12e-05	0	38	0	39845888	56	5412
2026-01-25 02:26:22.54	11.17	8.71	-42.3	-45.8	13.3	3.31e-05	0	38	0	45088768	56	5288
2026-01-25 02:26:23.54	11.13	8.79	-42.3	-45.7	13.4	2.74e-05	0	38	0	50331648	56	5263
2026-01-25 02:26:24.53	11.09	8.87	-42.2	-45.6	13.5	1.37e-05	0	38	0	56623104	56	5177
2026-01-25 02:26:25.52	11.05	8.95	-42.5	-46.1	13.0	4.57e-05	0	38	0	61865984	56	5494
2026-01-25 02:26:26.52	11.01	9.03	-42.7	-46.5	12.6	9.04e-05	0	38	0	67108864	56	5757
2026-01-25 02:26:27.51	10.97	9.11	-42.9	-46.7	12.4	3.23e-04	0	38	0	73400320	56	5900
2026-01-25 02:26:28.50	10.93	9.19	-42.6	-46.3	12.8	5.76e-04	0	38	0	78643200	56	5645
2026-01-25 02:26:29.50	10.89	9.28	-42.7	-46.5	12.7	2.17e-05	0	38	0	83886080	56	5734
2026-01-25 02:26:30.49	10.85	9.36	-44.7	-50.8	8.2	1.23e-01	0	38	0	90177536	60	7491
2026-01-25 02:26:31.49	10.80	9.44	-42.5	-46.2	12.6	5.33e-02	0	38	0	95420416	57	5251
2026-01-25 02:26:32.49	10.76	9.52	-38.6	-41.0	18.0	0.00e+00	0	39	0	100663296	49	4554
2026-01-25 02:26:33.48	10.72	9.60	-38.3	-40.6	18.4	0.00e+00	0	38	0	106954752	48	4636
2026-01-25 02:26:34.48	10.68	9.69	-37.7	-40.0	18.8	0.00e+00	0	38	0	112197632	47	4571
2026-01-25 02:26:35.47	10.64	9.77	-37.6	-39.8	19.0	0.00e+00	0	38	0	117440512	47	4489
2026-01-25 02:26:36.46	10.60	9.85	-37.6	-39.8	19.0	0.00e+00	0	38	0	123731968	47	4483
2026-01-25 02:26:37.46	10.55	9.94	-37.5	-39.8	19.0	0.00e+00	0	38	0	128974848	46	4746
2026-01-25 02:26:38.45	10.51	10.02	-37.5	-39.8	19.1	0.00e+00	0	39	0	134217728	46	4711
2026-01-25 02:26:39.45	10.47	10.10	-37.4	-39.7	19.2	0.00e+00	0	38	0	140509184	46	4657
2026-01-25 02:26:40.44	10.42	10.19	-37.3	-39.6	19.3	0.00e+00	0	38	0	145752064	46	4604
2026-01-25 02:26:41.44	10.38	10.27	-37.5	-39.7	19.2	0.00e+00	0	38	0	150994944	46	4667
2026-01-25 02:26:42.43	10.34	10.36	-37.4	-39.6	19.3	0.00e+00	0	38	0	157286400	46	4621
2026-01-25 02:26:43.43	10.29	10.44	-37.3	-39.5	19.4	0.00e+00	0	38	0	162529280	46	4570
2026-01-25 02:26:44.42	10.25	10.53	-37.3	-39.5	19.4	0.00e+00	0	39	0	167772160	46	4576
2026-01-25 02:26:45.42	10.20	10.61	-37.3	-39.5	19.4	0.00e+00	0	39	0	174063616	46	4570
2026-01-25 02:26:46.42	10.16	10.70	-37.3	-39.5	19.4	0.00e+00	0	38	0	179306496	46	4546
2026-01-25 02:26:47.41	10.11	10.78	-37.3	-39.5	19.4	0.00e+00	0	39	0	184549376	46	4573
2026-01-25 02:26:48.40	10.07	10.87	-37.4	-39.5	19.3	0.00e+00	0	39	0	190840832	46	4596
2026-01-25 02:26:49.40	10.02	10.96	-37.3	-39.5	19.4	0.00e+00	0	39	0	196083712	46	4559
2026-01-25 02:26:50.39	9.97	11.04	-37.4	-39.5	19.4	0.00e+00	0	39	0	201326592	46	4555
2026-01-25 02:26:51.39	9.93	11.13	-37.3	-39.4	19.5	0.00e+00	0	39	0	207618048	46	4534
2026-01-25 02:26:52.38	9.88	11.22	-37.4	-39.5	19.5	0.00e+00	0	39	0	212860928	46	4548
2026-01-25 02:26:53.38	9.83	11.31	-37.4	-39.5	19.4	0.00e+00	0	39	0	218103808	46	4570
2026-01-25 02:26:54.37	9.78	11.39	-37.4	-39.5	19.5	0.00e+00	0	39	0	224395264	46	4553
2026-01-25 02:26:55.37	9.74	11.48	-37.5	-39.6	19.4	0.00e+00	0	38	0	229638144	46	4620
2026-01-25 02:26:56.36	9.69	11.57	-37.3	-39.4	19.5	0.00e+00	0	39	0	234881024	46	4508
2026-01-25 02:26:57.35	9.64	11.66	-37.3	-39.4	19.5	0.00e+00	0	38	0	241172480	46	4517
2026-01-25 02:26:58.35	9.59	11.75	-37.5	-39.5	19.4	0.00e+00	0	39	0	246415360	46	4597
2026-01-25 02:26:59.34	9.54	11.84	-37.5	-39.6	19.4	0.00e+00	0	39	0	251658240	46	4615
2026-01-25 02:27:00.34	9.49	11.93	-37.3	-39.4	19.6	0.00e+00	0	39	0	257949696	46	4516
2026-01-25 02:27:01.33	9.44	12.02	-37.3	-39.3	19.6	0.00e+00	0	39	0	263192576	46	4470
2026-01-25 02:27:02.33	9.39	12.11	-37.2	-39.2	19.7	0.00e+00	0	39	0	268435456	46	4415
2026-01-25 02:27:03.32	9.34	12.20	-37.2	-39.2	19.7	0.00e+00	0	39	0	274726912	46	4438
2026-01-25 02:27:04.31	9.29	12.29	-37.2	-39.2	19.8	0.00e+00	0	39	0	279969792	46	4405
2026-01-25 02:27:05.31	9.24	12.38	-37.1	-39.1	19.8	0.00e+00	0	39	0	285212672	46	4369
2026-01-25 02:27:06.31	9.19	12.47	-37.1	-39.1	19.8	0.00e+00	0	39	0	291504128	46	4379
2026-01-25 02:27:07.30	9.14	12.56	-37.1	-39.1	19.9	0.00e+00	0	39	0	296747008	46	4345
2026-01-25 02:27:08.30	9.08	12.66	-37.1	-39.0	19.9	0.00e+00	0	39	0	301989888	46	4336
2026-01-25 02:27:09.29	9.03	12.75	-37.0	-39.0	20.0	0.00e+00	0	39	0	308281344	46	4315
2026-01-25 02:27:10.29	8.98	12.84	-37.0	-39.0	19.9	0.00e+00	0	39	0	313524224	46	4330
2026-01-25 02:27:11.28	8.93	12.94	-37.0	-38.9	20.0	0.00e+00	0	39	0	318767104	46	4289
2026-01-25 02:27:12.27	8.87	13.03	-36.9	-38.9	20.0	0.00e+00	0	39	0	325058560	45	4507
2026-01-25 02:27:13.27	8.82	13.12	-36.8	-38.8	20.1	0.00e+00	0	39	0	330301440	45	4450
2026-01-25 02:27:14.26	8.76	13.22	-36.9	-38.8	20.1	0.00e+00	0	39	0	335544320	45	4466
2026-01-25 02:27:15.26	8.71	13.31	-36.9	-38.8	20.1	0.00e+00	0	39	0	341835776	45	4469
2026-01-25 02:27:16.25	8.65	13.41	-36.8	-38.8	20.2	0.00e+00	0	39	0	347078656	45	4448
2026-01-25 02:27:17.25	8.60	13.50	-37.0	-38.9	20.0	0.00e+00	0	39	0	353370112	45	4536
2026-01-25 02:27:18.24	8.54	13.60	-36.8	-38.8	20.2	0.00e+00	0	39	0	358612992	45	4448
2026-01-25 02:27:19.23	8.49	13.69	-36.7	-38.6	20.3	0.00e+00	0	39	0	363855872	45	4359
2026-01-25 02:27:20.23	8.43	13.79	-36.7	-38.6	20.3	0.00e+00	0	39	0	369098752	45	4372
2026-01-25 02:27:21.23	8.37	13.89	-36.7	-38.6	20.3	0.00e+00	0	39	0	375390208	45	4375
2026-01-25 02:27:22.22	8.32	13.99	-36.7	-38.5	20.4	0.00e+00	0	39	0	380633088	45	4332
2026-01-25 02:27:23.22	8.26	14.08	-36.6	-38.5	20.4	0.00e+00	0	39	0	385875968	45	4309
2026-01-25 02:27:24.21	8.20	14.18	-36.7	-38.5	20.4	0.00e+00	0	39	0	392167424	45	4340
2026-01-25 02:27:25.21	8.14	14.28	-36.6	-38.5	20.4	0.00e+00	0	39	0	397410304	45	4318
2026-01-25 02:27:26.20	8.08	14.38	-36.7	-38.6	20.4	0.00e+00	0	39	0	403701760	45	4342
2026-01-25 02:27:27.20	8.02	14.48	-36.8	-38.7	20.3	0.00e+00	0	39	0	408944640	45	4405
2026-01-25 02:27:28.19	7.96	14.58	-36.8	-38.7	20.2	0.00e+00	0	39	0	414187520	45	4424
2026-01-25 02:27:29.18	7.90	14.68	-36.9	-38.8	20.1	0.00e+00	0	39	0	420478976	45	4482
2026-01-25 02:27:30.18	7.84	14.78	-37.0	-38.9	20.1	0.00e+00	0	39	0	425721856	45	4521
2026-01-25 02:27:31.18	7.78	14.88	-36.9	-38.8	20.1	0.00e+00	0	39	0	430964736	45	4469
2026-01-25 02:27:32.17	7.72	14.98	-36.9	-38.8	20.1	0.00e+00	0	39	0	436207616	45	4473
2026-01-25 02:27:33.17	7.66	15.08	-37.1	-39.0	20.0	0.00e+00	0	39	0	442499072	45	4549
2026-01-25 02:27:34.16	7.59	15.18	-36.9	-38.7	20.2	0.00e+00	0	39	0	447741952	45	4439
2026-01-25 02:27:35.16	7.53	15.28	-36.7	-38.6	20.3	0.00e+00	0	39	0	454033408	45	4370
2026-01-25 02:27:36.15	7.47	15.39	-36.6	-38.5	20.5	0.00e+00	0	39	0	459276288	45	4294
2026-01-25 02:27:37.15	7.40	15.49	-36.5	-38.4	20.5	0.00e+00	0	39	0	464519168	45	4256
2026-01-25 02:27:38.14	7.34	15.59	-36.6	-38.4	20.5	0.00e+00	0	39	0	470810624	45	4282
2026-01-25 02:27:39.14	7.27	15.70	-36.6	-38.4	20.5	0.00e+00	0	39	0	476053504	45	4290
2026-01-25 02:27:40.13	7.21	15.80	-36.4	-38.2	20.8	0.00e+00	0	39	0	481296384	44	4408
2026-01-25 02:27:41.12	7.14	15.90	-36.4	-38.2	20.7	0.00e+00	0	39	0	486539264	44	4425
2026-01-25 02:27:42.12	7.08	16.01	-36.3	-38.2	20.8	0.00e+00	0	39	0	492830720	44	4396
2026-01-25 02:27:43.12	7.01	16.11	-36.3	-38.1	20.8	0.00e+00	0	39	0	498073600	44	4370
2026-01-25 02:27:44.11	6.94	16.22	-36.2	-38.0	21.0	0.00e+00	0	39	0	504365056	44	4315
2026-01-25 02:27:45.11	6.87	16.33	-36.1	-37.9	21.0	0.00e+00	0	39	0	509607936	44	4267
2026-01-25 02:27:46.10	6.81	16.43	-36.0	-37.8	21.1	0.00e+00	0	39	0	514850816	44	4235
2026-01-25 02:27:47.09	6.74	16.54	-35.8	-37.6	21.2	0.00e+00	0	39	0	521142272	43	4368
2026-01-25 02:27:48.09	6.67	16.65	-35.7	-37.5	21.3	0.00e+00	0	39	0	526385152	43	4307
2026-01-25 02:27:49.08	6.60	16.75	-35.8	-37.5	21.2	0.00e+00	0	39	0	531628032	43	4340
2026-01-25 02:27:50.08	6.53	16.86	-35.6	-37.4	21.3	0.00e+00	0	39	0	536870912	43	4281
2026-01-25 02:27:51.07	6.46	16.97	-35.6	-37.4	21.4	0.00e+00	0	39	0	543162368	43	4243
2026-01-25 02:27:52.06	6.39	17.08	-35.4	-37.1	21.6	0.00e+00	0	39	0	548405248	42	4376
2026-01-25 02:27:53.06	6.31	17.19	-35.3	-37.0	21.7	0.00e+00	0	39	0	554696704	42	4325
2026-01-25 02:27:54.06	6.24	17.30	-35.3	-37.1	21.7	0.00e+00	0	39	0	559939584	42	4343
2026-01-25 02:27:55.05	6.17	17.41	-35.3	-37.1	21.7	0.00e+00	0	39	0	565182464	42	4345
2026-01-25 02:27:56.04	6.10	17.52	-35.2	-36.9	21.8	0.00e+00	0	39	0	571473920	42	4274
2026-01-25 02:27:57.04	6.02	17.63	-35.4	-37.2	21.6	0.00e+00	0	39	0	576716800	42	4402
2026-01-25 02:27:58.03	5.95	17.74	-35.3	-37.1	21.7	0.00e+00	0	39	0	581959680	42	4348
2026-01-25 02:27:59.03	5.87	17.86	-35.3	-37.1	21.7	0.00e+00	0	39	0	587202560	42	4349
2026-01-25 02:28:00.02	5.79	17.97	-35.2	-37.0	21.8	0.00e+00	0	39	0	593494016	42	4304
2026-01-25 02:28:01.02	5.72	18.08	-35.3	-37.0	21.7	0.00e+00	0	39	0	598736896	42	4338
2026-01-25 02:28:02.01	5.64	18.20	-35.3	-37.1	21.7	0.00e+00	0	39	0	605028352	42	4349
2026-01-25 02:28:03.01	5.56	18.31	-35.4	-37.2	21.6	0.00e+00	0	39	0	610271232	42	4396
2026-01-25 02:28:04.00	5.48	18.42	-35.3	-37.0	21.8	0.00e+00	0	39	0	615514112	42	4333
2026-01-25 02:28:05.00	5.40	18.54	-35.3	-37.0	21.7	0.00e+00	0	39	0	621805568	42	4325
2026-01-25 02:28:05.99	5.33	18.66	-35.2	-36.9	21.9	0.00e+00	0	39	0	627048448	42	4287
2026-01-25 02:28:06.99	5.24	18.77	-35.2	-36.9	21.8	0.00e+00	0	39	0	632291328	42	4288
2026-01-25 02:28:07.98	5.16	18.89	-35.2	-36.9	21.8	0.00e+00	0	39	0	637534208	42	4288
2026-01-25 02:28:08.98	5.08	19.01	-35.2	-37.0	21.8	0.00e+00	0	39	0	643825664	42	4296
2026-01-25 02:28:09.97	5.00	19.12	-35.2	-37.0	21.8	0.00e+00	0	39	0	649068544	42	4293
2026-01-25 02:28:10.97	4.92	19.24	-35.1	-36.9	21.9	0.00e+00	0	39	0	655360000	42	4245
2026-01-25 02:28:11.97	4.83	19.36	-35.2	-36.9	21.9	0.00e+00	0	39	0	660602880	42	4271
2026-01-25 02:28:12.96	4.75	19.48	-35.2	-36.9	21.9	0.00e+00	0	39	0	665845760	42	4275
2026-01-25 02:28:13.96	4.66	19.60	-35.2	-37.0	21.9	0.00e+00	0	39	0	672137216	42	4294
2026-01-25 02:28:14.95	4.58	19.72	-35.1	-36.9	21.9	0.00e+00	0	39	0	677380096	42	4248
2026-01-25 02:28:15.95	4.49	19.84	-35.1	-36.8	22.0	0.00e+00	0	39	0	682622976	42	4210
2026-01-25 02:28:16.94	4.40	19.96	-35.1	-36.8	22.0	0.00e+00	0	39	0	688914432	42	4241
2026-01-25 02:28:17.93	4.32	20.08	-35.0	-36.7	22.0	0.00e+00	0	39	0	694157312	42	4190
2026-01-25 02:28:18.93	4.23	20.20	-35.0	-36.7	22.1	0.00e+00	0	39	0	699400192	41	4400
2026-01-25 02:28:19.92	4.14	20.33	-35.1	-36.8	22.0	0.00e+00	0	39	0	705691648	41	4456
2026-01-25 02:28:20.92	4.05	20.45	-35.0	-36.7	22.1	0.00e+00	0	39	0	710934528	41	4416
2026-01-25 02:28:21.91	3.96	20.57	-35.0	-36.7	22.1	0.00e+00	0	39	0	716177408	41	4441
2026-01-25 02:28:22.90	3.87	20.70	-35.0	-36.7	22.1	0.00e+00	0	39	0	722468864	41	4435
2026-01-25 02:28:23.90	3.77	20.82	-35.0	-36.7	22.1	0.00e+00	0	39	0	727711744	41	4416
2026-01-25 02:28:24.89	3.68	20.95	-34.9	-36.6	22.1	0.00e+00	0	39	0	732954624	41	4391
2026-01-25 02:28:25.89	3.59	21.07	-34.9	-36.6	22.2	0.00e+00	0	39	0	739246080	41	4374
2026-01-25 02:28:26.88	3.49	21.20	-35.0	-36.7	22.1	0.00e+00	0	39	0	744488960	41	4412
2026-01-25 02:28:27.88	3.40	21.33	-34.9	-36.6	22.2	0.00e+00	0	39	0	749731840	41	4381
2026-01-25 02:28:28.87	3.30	21.45	-34.8	-36.6	22.2	0.00e+00	0	39	0	756023296	41	4345
2026-01-25 02:28:29.86	3.20	21.58	-34.8	-36.6	22.2	0.00e+00	0	39	0	761266176	41	4352
2026-01-25 02:28:30.86	3.11	21.71	-34.7	-36.4	22.4	0.00e+00	0	39	0	766509056	41	4253
2026-01-25 02:28:31.85	3.01	21.84	-34.5	-36.2	22.5	0.00e+00	0	39	0	772800512	41	4193
2026-01-25 02:28:32.85	2.91	21.97	-34.7	-36.4	22.4	0.00e+00	0	39	0	778043392	41	4251
2026-01-25 02:28:33.84	2.81	22.10	-34.5	-36.2	22.5	0.00e+00	0	39	0	783286272	41	4164
2026-01-25 02:28:34.84	2.70	22.23	-34.4	-36.1	22.6	0.00e+00	0	39	0	789577728	40	4378
2026-01-25 02:28:35.83	2.60	22.36	-34.5	-36.2	22.6	0.00e+00	0	39	0	794820608	40	4401
2026-01-25 02:28:36.83	2.50	22.49	-34.4	-36.1	22.7	0.00e+00	0	39	0	800063488	40	4384
2026-01-25 02:28:37.82	2.40	22.63	-34.4	-36.1	22.7	0.00e+00	0	39	0	806354944	40	4347
2026-01-25 02:28:38.82	2.29	22.76	-34.3	-36.0	22.7	0.00e+00	0	39	0	811597824	40	4328
2026-01-25 02:28:39.81	2.18	22.89	-34.4	-36.1	22.7	0.00e+00	0	39	0	816840704	40	4342
2026-01-25 02:28:40.80	2.08	23.03	-34.3	-36.0	22.7	0.00e+00	0	39	0	823132160	40	4328
2026-01-25 02:28:41.80	1.97	23.16	-34.3	-36.0	22.8	0.00e+00	0	39	0	828375040	40	4327
2026-01-25 02:28:42.80	1.86	23.30	-34.4	-36.1	22.7	0.00e+00	0	39	0	833617920	40	4369
2026-01-25 02:28:43.79	1.75	23.43	-34.3	-36.0	22.8	0.00e+00	0	39	0	839909376	40	4296
2026-01-25 02:28:44.79	1.64	23.57	-34.4	-36.0	22.7	0.00e+00	0	39	0	845152256	40	4339
2026-01-25 02:28:45.78	1.53	23.71	-34.4	-36.1	22.7	0.00e+00	0	39	0	850395136	40	4348
2026-01-25 02:28:46.77	1.42	23.85	-34.3	-36.0	22.8	0.00e+00	0	39	0	856686592	40	4296
2026-01-25 02:28:47.77	1.30	23.99	-34.4	-36.1	22.7	0.00e+00	0	39	0	861929472	40	4378
2026-01-25 02:28:48.77	1.19	24.13	-34.4	-36.0	22.7	0.00e+00	0	39	0	867172352	40	4338
2026-01-25 02:28:49.76	1.07	24.26	-34.2	-35.9	22.9	0.00e+00	0	39	0	873463808	40	4258
2026-01-25 02:28:50.76	0.95	24.41	-34.1	-35.8	23.0	0.00e+00	0	39	0	878706688	40	4215
2026-01-25 02:28:51.75	0.83	24.55	-34.2	-35.9	22.9	0.00e+00	0	39	0	883949568	40	4251
2026-01-25 02:28:52.74	0.72	24.69	-34.2	-35.9	22.9	0.00e+00	0	39	0	890241024	40	4264
2026-01-25 02:28:53.74	0.59	24.83	-34.3	-36.0	22.8	0.00e+00	0	39	0	895483904	40	4296
2026-01-25 02:28:54.74	0.47	24.97	-34.2	-35.9	22.9	0.00e+00	0	39	0	901775360	40	4253
2026-01-25 02:28:55.73	0.35	25.12	-34.2	-35.9	22.9	0.00e+00	0	39	0	907018240	40	4247
2026-01-25 02:28:56.72	0.23	25.26	-34.2	-35.9	22.9	0.00e+00	0	39	0	912261120	40	4253
2026-01-25 02:28:57.72	0.10	25.41	-34.1	-35.8	22.9	0.00e+00	0	39	0	917504000	40	4232
2026-01-25 02:28:58.71	359.98	25.55	-34.2	-35.9	22.8	0.00e+00	0	39	0	923795456	40	4276
2026-01-25 02:28:59.71	359.85	25.70	-34.2	-35.9	22.9	0.00e+00	0	39	0	929038336	40	4283
2026-01-25 02:29:00.70	359.72	25.84	-34.2	-35.8	22.3	0.00e+00	0	39	0	934281216	40	4236
2026-01-25 02:29:01.70	359.59	25.99	-34.1	-35.7	23.0	0.00e+00	0	39	0	940572672	40	4191
2026-01-25 02:29:02.69	359.46	26.14	-34.0	-35.7	23.1	0.00e+00	0	39	0	945815552	40	4160
2026-01-25 02:29:03.68	359.33	26.29	-34.0	-35.7	23.1	0.00e+00	0	39	0	952107008	40	4164
2026-01-25 02:29:04.68	359.19	26.44	-34.0	-35.7	23.1	0.00e+00	0	39	0	957349888	40	4153
2026-01-25 02:29:05.67	359.06	26.59	-34.1	-35.8	23.0	0.00e+00	0	39	0	962592768	39	4464
2026-01-25 02:29:06.67	358.92	26.74	-34.2	-35.8	23.0	0.00e+00	0	39	0	967835648	39	4482
2026-01-25 02:29:07.66	358.78	26.89	-34.2	-35.9	23.0	0.00e+00	0	39	0	974127104	39	4499
2026-01-25 02:29:08.66	358.64	27.04	-34.2	-35.9	23.0	0.00e+00	0	39	0	979369984	39	4509
2026-01-25 02:29:09.65	358.51	27.20	-34.2	-35.9	23.0	0.00e+00	0	39	0	984612864	39	4517
2026-01-25 02:29:10.65	358.36	27.35	-34.3	-36.0	22.9	0.00e+00	0	39	0	990904320	39	4552
2026-01-25 02:29:11.64	358.22	27.50	-34.0	-35.7	23.2	0.00e+00	0	39	0	996147200	39	4402
2026-01-25 02:29:12.64	358.08	27.66	-34.1	-35.8	23.1	0.00e+00	0	39	0	1002438656	39	4459
2026-01-25 02:29:13.63	357.93	27.81	-34.3	-35.9	23.0	0.00e+00	0	39	0	1007681536	39	4528
2026-01-25 02:29:14.63	357.78	27.97	-34.2	-35.8	23.1	0.00e+00	0	39	0	1012924416	39	4474
2026-01-25 02:29:15.62	357.63	28.13	-34.2	-35.8	23.1	0.00e+00	0	39	0	1018167296	39	4471
2026-01-25 02:29:16.61	357.48	28.28	-34.2	-35.9	23.0	0.00e+00	0	39	0	1024458752	39	4499
2026-01-25 02:29:17.61	357.33	28.44	-34.0	-35.7	23.2	0.00e+00	0	39	0	1029701632	39	4406
2026-01-25 02:29:18.60	357.18	28.60	-34.0	-35.7	23.2	0.00e+00	0	39	0	1034944512	39	4397
2026-01-25 02:29:19.60	357.02	28.76	-34.2	-35.8	23.1	0.00e+00	0	39	0	1041235968	39	4473
2026-01-25 02:29:20.59	356.87	28.92	-34.1	-35.8	23.1	0.00e+00	0	39	0	1046478848	39	4463
2026-01-25 02:29:21.59	356.71	29.08	-34.1	-35.7	23.2	0.00e+00	0	39	0	1052770304	39	4427
2026-01-25 02:29:22.58	356.55	29.24	-34.1	-35.7	23.1	0.00e+00	0	39	0	1058013184	39	4435
2026-01-25 02:29:23.58	356.39	29.41	-34.0	-35.7	23.2	0.00e+00	0	39	0	1063256064	39	4405
2026-01-25 02:29:24.57	356.22	29.57	-34.1	-35.7	23.1	0.00e+00	0	39	0	1068498944	39	4441
2026-01-25 02:29:25.57	356.06	29.73	-33.8	-35.5	23.4	0.00e+00	0	39	0	1074790400	39	4310
2026-01-25 02:29:26.56	355.89	29.90	-33.7	-35.3	23.5	0.00e+00	0	39	0	1080033280	39	4242
2026-01-25 02:29:27.56	355.72	30.06	-33.7	-35.4	23.5	0.00e+00	0	39	0	1086324736	39	4243
2026-01-25 02:29:28.55	355.55	30.23	-33.6	-35.2	23.6	0.00e+00	0	39	0	1091567616	39	4182
2026-01-25 02:29:29.55	355.38	30.39	-33.6	-35.2	23.6	0.00e+00	0	39	0	1096810496	39	4185
2026-01-25 02:29:30.54	355.21	30.56	-33.7	-35.3	23.5	0.00e+00	0	39	0	1103101952	39	4229
2026-01-25 02:29:31.54	355.03	30.73	-33.6	-35.2	23.6	0.00e+00	0	39	0	1108344832	39	4183
2026-01-25 02:29:32.53	354.86	30.90	-33.5	-35.2	23.7	0.00e+00	0	39	0	1113587712	39	4152
2026-01-25 02:29:33.53	354.67	31.06	-33.6	-35.2	23.6	0.00e+00	0	39	0	1118830592	39	4166
2026-01-25 02:29:34.52	354.49	31.23	-33.6	-35.2	23.6	0.00e+00	0	39	0	1125122048	39	4175
2026-01-25 02:29:35.51	354.31	31.40	-33.6	-35.2	23.6	0.00e+00	0	39	0	1130364928	39	4191
2026-01-25 02:29:36.51	354.13	31.57	-33.6	-35.2	23.6	0.00e+00	0	39	0	1136656384	39	4173
2026-01-25 02:29:37.50	353.94	31.75	-33.6	-35.3	23.6	0.00e+00	0	39	0	1141899264	39	4198
2026-01-25 02:29:38.50	353.75	31.92	-33.4	-35.0	23.8	0.00e+00	0	39	0	1147142144	38	4309
2026-01-25 02:29:39.50	353.56	32.09	-33.3	-34.9	23.9	0.00e+00	0	39	0	1153433600	38	4259
2026-01-25 02:29:40.49	353.36	32.26	-33.2	-34.8	24.0	0.00e+00	0	39	0	1158676480	38	4216
2026-01-25 02:29:41.49	353.17	32.44	-33.2	-34.8	24.0	0.00e+00	0	39	0	1163919360	38	4224
2026-01-25 02:29:42.48	352.97	32.61	-33.3	-34.9	23.9	0.00e+00	0	39	0	1169162240	38	4268
2026-01-25 02:29:43.47	352.77	32.79	-33.4	-35.0	23.8	0.00e+00	0	39	0	1175453696	38	4331
2026-01-25 02:29:44.47	352.57	32.97	-33.5	-35.1	23.7	0.00e+00	0	39	0	1180696576	38	4380
2026-01-25 02:29:45.46	352.37	33.14	-33.5	-35.2	23.7	0.00e+00	0	39	0	1186988032	38	4395
2026-01-25 02:29:46.46	352.16	33.32	-33.6	-35.3	23.6	0.00e+00	0	39	0	1192230912	38	4465
2026-01-25 02:29:47.45	351.95	33.50	-33.6	-35.2	23.6	0.00e+00	0	39	0	1197473792	38	4431
2026-01-25 02:29:48.45	351.74	33.68	-33.4	-35.1	23.8	0.00e+00	0	39	0	1203765248	38	4342
2026-01-25 02:29:49.44	351.53	33.85	-33.2	-34.9	23.9	0.00e+00	0	39	0	1209008128	38	4265
2026-01-25 02:29:50.44	351.31	34.03	-33.1	-34.7	24.1	0.00e+00	0	39	0	1214251008	38	4161
2026-01-25 02:29:51.44	351.09	34.22	-32.8	-34.5	24.3	0.00e+00	0	39	0	1220542464	37	4294
2026-01-25 02:29:52.43	350.87	34.40	-33.0	-34.6	24.1	0.00e+00	0	39	0	1225785344	37	4385
2026-01-25 02:29:53.43	350.65	34.58	-33.2	-34.8	24.0	0.00e+00	0	39	0	1231028224	37	4466
2026-01-25 02:29:54.42	350.42	34.76	-33.2	-34.9	23.9	0.00e+00	0	39	0	1237319680	37	4510
2026-01-25 02:29:55.42	350.19	34.94	-33.2	-34.9	23.9	0.00e+00	0	39	0	1242562560	37	4503
2026-01-25 02:29:56.41	349.96	35.12	-33.3	-35.0	23.8	0.00e+00	0	39	0	1247805440	37	4561
2026-01-25 02:29:57.41	349.73	35.31	-33.2	-34.8	23.9	0.00e+00	0	39	0	1254096896	37	4492
2026-01-25 02:29:58.40	349.49	35.49	-33.2	-34.9	23.9	0.00e+00	0	39	0	1259339776	37	4505
2026-01-25 02:29:59.40	349.25	35.68	-33.3	-35.0	23.9	0.00e+00	0	39	0	1264582656	37	4556
2026-01-25 02:30:00.40	349.01	35.86	-33.2	-34.9	23.9	0.00e+00	0	39	0	1270874112	37	4502
2026-01-25 02:30:01.39	348.76	36.05	-33.2	-34.8	24.0	0.00e+00	0	39	0	1276116992	37	4481
2026-01-25 02:30:02.39	348.51	36.24	-33.3	-34.9	23.9	0.00e+00	0	39	0	1281359872	37	4543
2026-01-25 02:30:03.38	348.27	36.42	-33.4	-35.0	23.8	0.00e+00	0	39	0	1287651328	37	4590
2026-01-25 02:30:04.38	348.01	36.61	-33.5	-35.2	23.7	0.00e+00	0	39	0	1292894208	37	4675
2026-01-25 02:30:05.37	347.76	36.79	-33.6	-35.3	23.6	0.00e+00	0	39	0	1298137088	37	4722
2026-01-25 02:30:06.36	347.50	36.98	-33.6	-35.3	23.6	0.00e+00	0	39	0	1304428544	37	4721
2026-01-25 02:30:07.36	347.23	37.17	-33.5	-35.1	23.7	0.00e+00	0	39	0	1309671424	37	4642
2026-01-25 02:30:08.35	346.97	37.36	-33.4	-35.1	23.8	0.00e+00	0	39	0	1314914304	37	4621
2026-01-25 02:30:09.35	346.70	37.55	-33.4	-35.0	23.8	0.00e+00	0	39	0	1321205760	37	4584
2026-01-25 02:30:10.34	346.43	37.74	-33.5	-35.1	23.6	0.00e+00	0	39	0	1326448640	37	4650
2026-01-25 02:30:11.34	346.15	37.93	-33.5	-35.1	23.7	0.00e+00	0	39	0	1331691520	37	4647
2026-01-25 02:30:12.33	345.88	38.12	-33.5	-35.1	23.7	0.00e+00	0	39	0	1337982976	37	4631
2026-01-25 02:30:13.33	345.59	38.31	-33.5	-35.1	23.7	0.00e+00	0	39	0	1343225856	37	4645
2026-01-25 02:30:14.32	345.31	38.50	-33.7	-35.3	23.6	0.00e+00	0	39	0	1348468736	38	4478
2026-01-25 02:30:15.32	345.02	38.69	-33.7	-35.3	23.6	0.00e+00	0	39	0	1354760192	38	4476
2026-01-25 02:30:16.32	344.73	38.88	-33.7	-35.3	23.6	0.00e+00	0	39	0	1360003072	38	4492
2026-01-25 02:30:17.31	344.43	39.07	-33.6	-35.2	23.6	0.00e+00	0	39	0	1365245952	38	4426
2026-01-25 02:30:18.30	344.14	39.26	-33.6	-35.2	23.6	0.00e+00	0	39	0	1371537408	38	4422
2026-01-25 02:30:19.30	343.83	39.45	-33.5	-35.1	23.8	0.00e+00	0	39	0	1376780288	38	4367
2026-01-25 02:30:20.29	343.53	39.64	-33.4	-35.0	23.9	0.00e+00	0	39	0	1382023168	38	4315
2026-01-25 02:30:21.29	343.22	39.84	-33.5	-35.1	23.8	0.00e+00	0	39	0	1388314624	38	4363
2026-01-25 02:30:22.29	342.90	40.03	-33.5	-35.1	23.7	0.00e+00	0	39	0	1393557504	38	4388
2026-01-25 02:30:23.28	342.59	40.22	-33.5	-35.1	23.8	0.00e+00	0	39	0	1398800384	38	4371
2026-01-25 02:30:24.28	342.26	40.41	-33.5	-35.1	23.7	0.00e+00	0	39	0	1405091840	38	4390
2026-01-25 02:30:25.27	341.94	40.60	-33.4	-35.1	23.8	0.00e+00	0	39	0	1410334720	38	4345
2026-01-25 02:30:26.27	341.61	40.80	-33.5	-35.2	23.7	0.00e+00	0	39	0	1415577600	38	4392
2026-01-25 02:30:27.26	341.28	40.99	-33.5	-35.2	23.7	0.00e+00	0	39	0	1421869056	38	4394
2026-01-25 02:30:28.26	340.94	41.18	-33.7	-35.3	23.5	0.00e+00	0	39	0	1427111936	38	4491
2026-01-25 02:30:29.25	340.60	41.37	-33.6	-35.2	23.7	0.00e+00	0	39	0	1432354816	38	4436
2026-01-25 02:30:30.25	340.25	41.56	-33.5	-35.1	23.7	0.00e+00	0	39	0	1438646272	38	4383
2026-01-25 02:30:31.24	339.91	41.75	-33.5	-35.1	23.8	0.00e+00	0	39	0	1443889152	38	4366
2026-01-25 02:30:32.24	339.55	41.95	-33.4	-35.0	23.8	0.00e+00	0	39	0	1450180608	38	4339
2026-01-25 02:30:33.23	339.20	42.14	-33.2	-34.8	24.0	0.00e+00	0	39	0	1455423488	38	4242
2026-01-25 02:30:34.23	338.83	42.33	-33.4	-35.0	23.8	0.00e+00	0	39	0	1460666368	38	4305
2026-01-25 02:30:35.22	338.47	42.52	-33.4	-35.1	23.8	0.00e+00	0	39	0	1465909248	38	4356
2026-01-25 02:30:36.22	338.10	42.71	-33.6	-35.3	23.6	0.00e+00	0	39	0	1472200704	38	4453
2026-01-25 02:30:37.21	337.72	42.90	-33.5	-35.1	23.7	0.00e+00	0	39	0	1477443584	38	4388
2026-01-25 02:30:38.21	337.34	43.08	-33.3	-34.9	23.9	0.00e+00	0	39	0	1483735040	38	4281
2026-01-25 02:30:39.20	336.96	43.27	-33.2	-34.8	24.0	0.00e+00	0	39	0	1488977920	38	4218
2026-01-25 02:30:40.20	336.57	43.46	-33.2	-34.8	24.0	0.00e+00	0	39	0	1494220800	38	4219
2026-01-25 02:30:41.19	336.18	43.65	-33.2	-34.9	24.0	0.00e+00	0	39	0	1500512256	38	4243
2026-01-25 02:30:42.19	335.78	43.84	-33.4	-35.0	23.9	0.00e+00	0	39	0	1505755136	38	4318
2026-01-25 02:30:43.19	335.37	44.02	-33.4	-35.0	23.8	0.00e+00	0	39	0	1510998016	38	4335
2026-01-25 02:30:44.18	334.97	44.21	-33.3	-34.9	23.9	0.00e+00	0	39	0	1516240896	38	4266
2026-01-25 02:30:45.17	334.56	44.39	-33.3	-34.9	23.9	0.00e+00	0	39	0	1522532352	38	4282
2026-01-25 02:30:46.17	334.14	44.58	-33.6	-35.2	23.7	0.00e+00	0	39	0	1527775232	38	4415
2026-01-25 02:30:47.17	333.71	44.76	-33.7	-35.3	23.6	0.00e+00	0	39	0	1534066688	38	4483
2026-01-25 02:30:48.16	333.29	44.94	-33.6	-35.3	23.6	0.00e+00	0	39	0	1539309568	38	4456
2026-01-25 02:30:49.16	332.86	45.12	-33.5	-35.1	23.7	0.00e+00	0	39	0	1544552448	38	4373
2026-01-25 02:30:50.15	332.42	45.30	-33.4	-35.0	23.8	0.00e+00	0	39	0	1550843904	38	4328
2026-01-25 02:30:51.15	331.98	45.48	-33.4	-35.0	23.9	0.00e+00	0	39	0	1556086784	38	4333
2026-01-25 02:30:52.14	331.53	45.66	-33.6	-35.3	23.6	0.00e+00	0	39	0	1561329664	38	4444
2026-01-25 02:30:53.13	331.08	45.83	-33.9	-35.6	23.4	0.00e+00	0	39	0	1567621120	38	4607
2026-01-25 02:30:54.13	330.62	46.01	-33.9	-35.6	23.3	0.00e+00	0	39	0	1572864000	38	4609
2026-01-25 02:30:55.13	330.16	46.19	-33.7	-35.4	23.5	0.00e+00	0	39	0	1578106880	38	4509
2026-01-25 02:30:56.12	329.70	46.36	-33.7	-35.3	23.6	0.00e+00	0	39	0	1584398336	38	4476
2026-01-25 02:30:57.12	329.22	46.53	-33.7	-35.4	23.6	0.00e+00	0	39	0	1589641216	38	4494
2026-01-25 02:30:58.11	328.75	46.70	-33.8	-35.4	23.5	0.00e+00	0	39	0	1594884096	38	4524
2026-01-25 02:30:59.11	328.26	46.87	-33.7	-35.4	23.6	0.00e+00	0	39	0	1601175552	38	4496
2026-01-25 02:31:00.10	327.77	47.03	-33.6	-35.2	23.7	0.00e+00	0	39	0	1606418432	38	4414
2026-01-25 02:31:01.10	327.28	47.20	-33.6	-35.2	23.6	0.00e+00	0	39	0	1611661312	38	4436
2026-01-25 02:31:02.09	326.78	47.36	-33.8	-35.5	23.5	0.00e+00	0	39	0	1617952768	38	4562
2026-01-25 02:31:03.08	326.28	47.52	-34.1	-35.8	23.1	0.00e+00	0	39	0	1623195648	38	4754
2026-01-25 02:31:04.08	325.77	47.68	-34.2	-35.9	23.1	0.00e+00	0	39	0	1628438528	39	4532
2026-01-25 02:31:05.07	325.26	47.84	-34.2	-35.9	23.0	0.00e+00	0	39	0	1634729984	39	4542
2026-01-25 02:31:06.07	324.74	48.00	-34.3	-35.9	23.0	0.00e+00	0	39	0	1639972864	39	4536
2026-01-25 02:31:07.06	324.21	48.15	-34.1	-35.8	23.2	0.00e+00	0	39	0	1645215744	39	4463
2026-01-25 02:31:08.06	323.68	48.30	-34.3	-36.0	23.0	0.00e+00	0	39	0	1651507200	39	4558
2026-01-25 02:31:09.06	323.14	48.45	-34.3	-36.0	23.0	0.00e+00	0	39	0	1656750080	39	4578
2026-01-25 02:31:10.05	322.60	48.60	-34.3	-36.0	23.0	0.00e+00	0	39	0	1661992960	39	4573
2026-01-25 02:31:11.04	322.06	48.75	-34.4	-36.0	23.0	0.00e+00	0	39	0	1668284416	39	4591
2026-01-25 02:31:12.04	321.51	48.89	-34.1	-35.8	23.2	0.00e+00	0	39	0	1673527296	39	4443
2026-01-25 02:31:13.04	320.95	49.03	-34.2	-35.9	23.1	0.00e+00	0	39	0	1678770176	39	4510
2026-01-25 02:31:14.03	320.39	49.17	-34.5	-36.1	22.9	0.00e+00	0	39	0	1685061632	39	4639
2026-01-25 02:31:15.03	319.82	49.30	-34.5	-36.2	22.7	0.00e+00	0	39	0	1690304512	40	4436
2026-01-25 02:31:16.02	319.25	49.44	-34.3	-36.0	22.9	0.00e+00	0	39	0	1695547392	40	4310
2026-01-25 02:31:17.02	318.67	49.57	-34.2	-35.9	23.0	0.00e+00	0	39	0	1701838848	40	4256
2026-01-25 02:31:18.01	318.09	49.69	-34.3	-35.9	23.0	0.00e+00	0	39	0	1707081728	40	4278
2026-01-25 02:31:19.01	317.51	49.82	-34.2	-35.8	23.1	0.00e+00	0	39	0	1712324608	40	4221
2026-01-25 02:31:20.00	316.92	49.94	-34.3	-36.0	23.0	0.00e+00	0	39	0	1718616064	40	4314
2026-01-25 02:31:21.00	316.32	50.06	-34.4	-36.1	22.8	0.00e+00	0	39	0	1723858944	40	4375
2026-01-25 02:31:21.99	315.72	50.17	-34.5	-36.2	22.7	0.00e+00	0	39	0	1729101824	40	4399
2026-01-25 02:31:22.98	315.12	50.29	-34.4	-36.0	22.9	0.00e+00	0	39	0	1735393280	40	4333
2026-01-25 02:31:23.98	314.51	50.40	-34.4	-36.0	22.9	0.00e+00	0	39	0	1740636160	40	4325
2026-01-25 02:31:24.97	313.90	50.50	-34.5	-36.2	22.8	0.00e+00	0	39	0	1745879040	40	4405
2026-01-25 02:31:25.97	313.28	50.60	-34.6	-36.3	22.6	0.00e+00	0	39	0	1752170496	40	4488
2026-01-25 02:31:26.96	312.66	50.70	-34.6	-36.3	22.6	0.00e+00	0	39	0	1757413376	40	4479
2026-01-25 02:31:27.96	312.03	50.80	-34.4	-36.0	22.9	0.00e+00	0	39	0	1762656256	40	4325
2026-01-25 02:31:28.95	311.40	50.89	-34.1	-35.7	23.2	0.00e+00	0	39	0	1768947712	40	4174
2026-01-25 02:31:29.95	310.76	50.98	-34.2	-35.9	23.1	0.00e+00	0	39	0	1774190592	40	4257
2026-01-25 02:31:30.94	310.13	51.07	-34.5	-36.1	22.8	0.00e+00	0	39	0	1779433472	40	4386
2026-01-25 02:31:31.94	309.48	51.15	-34.2	-35.8	23.1	0.00e+00	0	39	0	1785724928	40	4240
2026-01-25 02:31:32.93	308.84	51.23	-34.1	-35.8	23.1	0.00e+00	0	39	0	1790967808	40	4195
2026-01-25 02:31:33.93	308.19	51.30	-34.0	-35.7	23.2	0.00e+00	0	39	0	1796210688	40	4152
2026-01-25 02:31:34.92	307.54	51.37	-34.0	-35.7	23.3	0.00e+00	0	39	0	1802502144	39	4409
2026-01-25 02:31:35.92	306.88	51.44	-34.2	-35.8	23.1	0.00e+00	0	39	0	1807745024	39	4471
2026-01-25 02:31:36.91	306.23	51.50	-34.1	-35.8	23.2	0.00e+00	0	39	0	1812987904	39	4449
2026-01-25 02:31:37.91	305.57	51.56	-33.8	-35.4	23.5	0.00e+00	0	39	0	1819279360	39	4285
2026-01-25 02:31:38.90	304.91	51.62	-33.9	-35.5	23.1	0.00e+00	0	39	0	1824522240	39	4303
2026-01-25 02:31:39.90	304.24	51.67	-33.9	-35.6	23.3	0.00e+00	0	39	0	1829765120	39	4355
2026-01-25 02:31:40.89	303.58	51.72	-34.0	-35.7	23.3	0.00e+00	0	39	0	1836056576	39	4401
2026-01-25 02:31:41.89	302.90	51.76	-34.1	-35.8	23.2	0.00e+00	0	39	0	1841299456	39	4447
2026-01-25 02:31:42.88	302.23	51.80	-34.4	-36.0	23.0	0.00e+00	0	39	0	1846542336	39	4596
2026-01-25 02:31:43.88	301.56	51.84	-34.5	-36.1	22.9	0.00e+00	0	39	0	1852833792	39	4641
2026-01-25 02:31:44.87	300.89	51.87	-34.3	-35.9	23.1	0.00e+00	0	39	0	1858076672	39	4517
2026-01-25 02:31:45.87	300.21	51.90	-34.3	-35.9	23.0	0.00e+00	0	39	0	1863319552	39	4522
2026-01-25 02:31:46.86	299.53	51.92	-34.0	-35.6	23.3	0.00e+00	0	39	0	1869611008	39	4361
2026-01-25 02:31:47.86	298.85	51.94	-34.0	-35.6	23.3	0.00e+00	0	39	0	1874853888	39	4390
2026-01-25 02:31:48.85	298.18	51.95	-34.1	-35.8	23.2	0.00e+00	0	39	0	1881145344	39	4458
2026-01-25 02:31:49.84	297.50	51.96	-34.0	-35.6	23.3	0.00e+00	0	39	0	1886388224	39	4385
2026-01-25 02:31:50.83	296.82	51.97	-34.0	-35.6	23.4	0.00e+00	0	39	0	1891631104	39	4365
2026-01-25 02:31:51.83	296.14	51.97	-34.1	-35.7	23.2	0.00e+00	0	39	0	1896873984	39	4418
2026-01-25 02:31:52.83	295.46	51.97	-34.4	-36.1	22.9	0.00e+00	0	39	0	1903165440	39	4606
2026-01-25 02:31:53.82	294.78	51.96	-34.2	-35.8	23.1	0.00e+00	0	39	0	1908408320	39	4480
2026-01-25 02:31:54.82	294.10	51.95	-34.1	-35.7	23.2	0.00e+00	0	39	0	1913651200	39	4426
2026-01-25 02:31:55.81	293.42	51.94	-34.6	-36.3	22.7	0.00e+00	0	39	0	1919942656	39	4726
2026-01-25 02:31:56.81	292.74	51.92	-34.7	-36.4	22.6	0.00e+00	0	39	0	1925185536	40	4508
2026-01-25 02:31:57.80	292.07	51.90	-34.5	-36.2	22.8	0.00e+00	0	39	0	1931476992	40	4392
2026-01-25 02:31:58.80	291.39	51.87	-34.3	-36.0	22.9	0.00e+00	0	39	0	1936719872	40	4314
2026-01-25 02:31:59.79	290.72	51.84	-34.1	-35.8	23.1	0.00e+00	0	39	0	1941962752	40	4203
2026-01-25 02:32:00.78	290.05	51.80	-34.1	-35.7	23.2	0.00e+00	0	39	0	1947205632	40	4178
2026-01-25 02:32:01.78	289.37	51.76	-34.3	-36.0	23.0	0.00e+00	0	39	0	1953497088	40	4295
2026-01-25 02:32:02.77	288.70	51.72	-34.4	-36.1	22.9	0.00e+00	0	39	0	1958739968	40	4341
2026-01-25 02:32:03.77	288.03	51.67	-34.1	-35.8	23.1	0.00e+00	0	39	0	1963982848	40	4210
2026-01-25 02:32:04.76	287.37	51.62	-34.0	-35.6	23.3	0.00e+00	0	39	0	1970274304	40	4141
2026-01-25 02:32:05.76	286.70	51.57	-34.1	-35.7	23.2	0.00e+00	0	39	0	1975517184	39	4416
2026-01-25 02:32:06.75	286.05	51.51	-34.1	-35.8	23.2	0.00e+00	0	39	0	1981808640	39	4459
2026-01-25 02:32:07.75	285.38	51.44	-34.2	-35.9	23.1	0.00e+00	0	39	0	1987051520	39	4496
2026-01-25 02:32:08.74	284.73	51.38	-34.1	-35.8	23.2	0.00e+00	0	39	0	1992294400	39	4453
2026-01-25 02:32:09.74	284.08	51.31	-34.2	-35.8	23.1	0.00e+00	0	39	0	1998585856	39	4491
2026-01-25 02:32:10.73	283.43	51.23	-34.1	-35.8	23.2	0.00e+00	0	39	0	2003828736	39	4452
2026-01-25 02:32:11.73	282.78	51.15	-34.1	-35.7	23.2	0.00e+00	0	39	0	2009071616	39	4431
2026-01-25 02:32:12.72	282.14	51.07	-33.9	-35.5	23.4	0.00e+00	0	39	0	2014314496	39	4337
2026-01-25 02:32:13.72	281.50	50.98	-33.8	-35.5	23.5	0.00e+00	0	39	0	2020605952	39	4293
2026-01-25 02:32:14.71	280.87	50.90	-34.0	-35.7	23.3	0.00e+00	0	39	0	2025848832	39	4405
2026-01-25 02:32:15.71	280.24	50.80	-34.0	-35.7	23.3	0.00e+00	0	39	0	2032140288	39	4402
2026-01-25 02:32:16.70	279.61	50.71	-34.0	-35.6	23.3	0.00e+00	0	39	0	2037383168	39	4391
2026-01-25 02:32:17.70	278.99	50.61	-34.0	-35.6	23.3	0.00e+00	0	39	0	2042626048	39	4391
2026-01-25 02:32:18.69	278.37	50.50	-34.0	-35.6	23.4	0.00e+00	0	39	0	2048917504	39	4362
2026-01-25 02:32:19.69	277.75	50.40	-34.2	-35.9	23.1	0.00e+00	0	39	0	2054160384	39	4501
2026-01-25 02:32:20.68	277.14	50.29	-34.2	-35.9	23.1	0.00e+00	0	39	0	2059403264	39	4498
2026-01-25 02:32:21.67	276.54	50.18	-34.1	-35.7	23.2	0.00e+00	0	39	0	2064646144	39	4416
2026-01-25 02:32:22.67	275.94	50.06	-34.0	-35.6	23.3	0.00e+00	0	39	0	2070937600	39	4358
2026-01-25 02:32:23.66	275.34	49.94	-34.0	-35.6	23.4	0.00e+00	0	39	0	2076180480	39	4368
2026-01-25 02:32:24.66	274.75	49.82	-34.0	-35.6	23.3	0.00e+00	0	39	0	2082471936	39	4377
2026-01-25 02:32:25.65	274.16	49.70	-34.0	-35.6	23.4	0.00e+00	0	39	0	2087714816	39	4369
2026-01-25 02:32:26.65	273.58	49.57	-33.9	-35.5	23.4	0.00e+00	0	39	0	2092957696	39	4339
2026-01-25 02:32:27.64	273.00	49.44	-33.8	-35.4	23.5	0.00e+00	0	39	0	2099249152	39	4291
2026-01-25 02:32:28.64	272.43	49.30	-33.9	-35.5	23.4	0.00e+00	0	39	0	2104492032	39	4311
2026-01-25 02:32:29.63	271.86	49.17	-34.0	-35.6	23.3	0.00e+00	0	39	0	2109734912	39	4379
2026-01-25 02:32:30.62	271.30	49.03	-33.8	-35.4	23.5	0.00e+00	0	39	0	2114977792	39	4274
2026-01-25 02:32:31.62	270.74	48.89	-33.6	-35.2	23.7	0.00e+00	0	39	0	2121269248	39	4159
2026-01-25 02:32:32.61	270.20	48.75	-33.5	-35.2	23.7	0.00e+00	0	39	0	2126512128	39	4150
2026-01-25 02:32:33.61	269.65	48.60	-33.6	-35.2	23.7	0.00e+00	0	39	0	2132803584	39	4190
2026-01-25 02:32:34.61	269.10	48.45	-33.6	-35.2	23.7	0.00e+00	0	39	0	2138046464	39	4191
2026-01-25 02:32:35.60	268.57	48.30	-33.7	-35.3	23.6	0.00e+00	0	39	0	2143289344	39	4235
2026-01-25 02:32:36.60	268.03	48.15	-33.7	-35.3	23.6	0.00e+00	0	39	0	2149580800	39	4240
2026-01-25 02:32:37.59	267.51	48.00	-33.8	-35.4	23.5	0.00e+00	0	39	0	2154823680	39	4290
2026-01-25 02:32:38.59	266.99	47.84	-33.8	-35.4	23.5	0.00e+00	0	39	0	2160066560	39	4274
2026-01-25 02:32:39.58	266.47	47.68	-33.8	-35.5	23.5	0.00e+00	0	39	0	2165309440	39	4301
2026-01-25 02:32:40.58	265.96	47.52	-34.0	-35.6	23.4	0.00e+00	0	39	0	2171600896	39	4366
2026-01-25 02:32:41.57	265.46	47.36	-34.0	-35.6	23.4	0.00e+00	0	39	0	2176843776	39	4369
2026-01-25 02:32:42.57	264.95	47.20	-33.7	-35.3	23.6	0.00e+00	0	39	0	2183135232	39	4228
2026-01-25 02:32:43.56	264.46	47.03	-33.4	-35.0	23.8	0.00e+00	0	39	0	2188378112	38	4324
2026-01-25 02:32:44.56	263.97	46.86	-33.4	-35.0	23.9	0.00e+00	0	39	0	2193620992	38	4304
2026-01-25 02:32:45.56	263.48	46.69	-33.3	-34.9	24.0	0.00e+00	0	39	0	2199912448	38	4264
2026-01-25 02:32:46.55	263.01	46.52	-33.2	-34.8	24.0	0.00e+00	0	39	0	2205155328	38	4241
2026-01-25 02:32:47.55	262.53	46.35	-33.2	-34.8	24.0	0.00e+00	0	39	0	2210398208	38	4241
2026-01-25 02:32:48.54	262.07	46.18	-33.3	-34.9	23.9	0.00e+00	0	39	0	2216689664	38	4288
2026-01-25 02:32:49.54	261.60	46.00	-33.5	-35.1	23.8	0.00e+00	0	39	0	2221932544	38	4359
2026-01-25 02:32:50.53	261.14	45.83	-33.4	-35.0	23.9	0.00e+00	0	39	0	2227175424	38	4318
2026-01-25 02:32:51.53	260.69	45.65	-33.6	-35.2	23.7	0.00e+00	0	39	0	2233466880	38	4434
2026-01-25 02:32:52.52	260.24	45.47	-33.6	-35.2	23.6	0.00e+00	0	39	0	2238709760	38	4437
2026-01-25 02:32:53.52	259.80	45.29	-33.6	-35.3	23.6	0.00e+00	0	39	0	2243952640	38	4443
2026-01-25 02:32:54.51	259.36	45.11	-33.6	-35.2	23.7	0.00e+00	0	39	0	2250244096	38	4409
2026-01-25 02:32:55.51	258.93	44.93	-33.3	-34.9	23.9	0.00e+00	0	39	0	2255486976	38	4266
2026-01-25 02:32:56.51	258.50	44.75	-33.1	-34.7	24.1	0.00e+00	0	39	0	2260729856	38	4182
2026-01-25 02:32:57.50	258.08	44.56	-33.1	-34.7	24.2	0.00e+00	0	39	0	2267021312	38	4167
2026-01-25 02:32:58.50	257.66	44.38	-33.1	-34.7	24.1	0.00e+00	0	39	0	2272264192	38	4183
2026-01-25 02:32:59.49	257.24	44.19	-33.1	-34.7	24.1	0.00e+00	0	39	0	2277507072	38	4158
2026-01-25 02:33:00.49	256.83	44.01	-33.1	-34.7	24.1	0.00e+00	0	39	0	2283798528	38	4192
2026-01-25 02:33:01.48	256.43	43.82	-33.1	-34.7	24.2	0.00e+00	0	39	0	2289041408	38	4157
2026-01-25 02:33:02.47	256.04	43.63	-32.8	-34.4	24.4	0.00e+00	0	39	0	2294284288	37	4259
2026-01-25 02:33:03.47	255.64	43.45	-32.9	-34.5	24.3	0.00e+00	0	39	0	2300575744	37	4293
2026-01-25 02:33:04.47	255.25	43.26	-33.0	-34.6	24.2	0.00e+00	0	39	0	2305818624	37	4345
2026-01-25 02:33:05.46	254.86	43.07	-33.0	-34.6	24.1	0.00e+00	0	39	0	2311061504	37	4390
2026-01-25 02:33:06.45	254.49	42.88	-33.2	-34.8	24.1	0.00e+00	0	39	0	2317352960	37	4453
2026-01-25 02:33:07.45	254.11	42.69	-33.2	-34.8	24.0	0.00e+00	0	39	0	2322595840	37	4487
2026-01-25 02:33:08.44	253.74	42.50	-33.2	-34.8	24.0	0.00e+00	0	39	0	2328887296	37	4460
2026-01-25 02:33:09.44	253.37	42.31	-33.1	-34.7	24.1	0.00e+00	0	39	0	2334130176	37	4425
2026-01-25 02:33:10.43	253.01	42.12	-33.2	-34.8	24.1	0.00e+00	0	39	0	2339373056	37	4443
2026-01-25 02:33:11.43	252.65	41.92	-33.0	-34.6	24.2	0.00e+00	0	39	0	2344615936	37	4384
2026-01-25 02:33:12.43	252.29	41.73	-33.0	-34.6	24.2	0.00e+00	0	39	0	2350907392	37	4386
2026-01-25 02:33:13.42	251.94	41.54	-33.1	-34.7	24.1	0.00e+00	0	39	0	2356150272	37	4431
2026-01-25 02:33:14.41	251.60	41.35	-33.2	-34.8	24.0	0.00e+00	0	39	0	2361393152	37	4476
2026-01-25 02:33:15.41	251.25	41.16	-33.3	-34.9	23.9	0.00e+00	0	39	0	2367684608	37	4539
2026-01-25 02:33:16.40	250.92	40.96	-33.3	-35.0	23.9	0.00e+00	0	39	0	2372927488	37	4552
2026-01-25 02:33:17.40	250.58	40.77	-33.4	-35.0	23.8	0.00e+00	0	39	0	2379218944	37	4595
2026-01-25 02:33:18.40	250.25	40.58	-33.4	-35.0	23.9	0.00e+00	0	39	0	2384461824	37	4581
2026-01-25 02:33:19.39	249.93	40.39	-33.4	-35.0	23.8	0.00e+00	0	39	0	2389704704	37	4592
2026-01-25 02:33:20.39	249.60	40.19	-33.3	-34.9	24.0	0.00e+00	0	39	0	2395996160	37	4499
2026-01-25 02:33:21.38	249.29	40.00	-33.3	-34.9	24.0	0.00e+00	0	39	0	2401239040	37	4502
2026-01-25 02:33:22.37	248.97	39.81	-33.3	-34.9	23.9	0.00e+00	0	39	0	2406481920	37	4510
2026-01-25 02:33:23.37	248.66	39.62	-33.1	-34.7	24.1	0.00e+00	0	39	0	2411724800	37	4432
2026-01-25 02:33:24.36	248.36	39.42	-33.1	-34.7	24.1	0.00e+00	0	39	0	2418016256	37	4427
2026-01-25 02:33:25.36	248.05	39.23	-33.1	-34.7	24.1	0.00e+00	0	39	0	2423259136	37	4416
2026-01-25 02:33:26.36	247.75	39.04	-33.1	-34.7	24.1	0.00e+00	0	39	0	2429550592	37	4427
2026-01-25 02:33:27.35	247.46	38.85	-33.0	-34.5	24.2	0.00e+00	0	39	0	2434793472	37	4338
2026-01-25 02:33:28.34	247.16	38.66	-32.9	-34.5	24.3	0.00e+00	0	39	0	2440036352	37	4300
2026-01-25 02:33:29.34	246.87	38.46	-33.0	-34.6	24.2	0.00e+00	0	39	0	2446327808	37	4343
2026-01-25 02:33:30.33	246.59	38.27	-33.0	-34.6	24.2	0.00e+00	0	39	0	2451570688	37	4358
2026-01-25 02:33:31.33	246.30	38.08	-33.0	-34.6	24.1	0.00e+00	0	39	0	2456813568	37	4386
2026-01-25 02:33:32.32	246.03	37.89	-33.0	-34.6	24.2	0.00e+00	0	39	0	2462056448	37	4369
2026-01-25 02:33:33.32	245.75	37.70	-33.1	-34.7	24.1	0.00e+00	0	39	0	2468347904	37	4425
2026-01-25 02:33:34.31	245.48	37.51	-33.1	-34.8	24.1	0.00e+00	0	39	0	2473590784	37	4446
2026-01-25 02:33:35.30	245.21	37.32	-33.2	-34.8	24.0	0.00e+00	0	39	0	2479882240	37	4483
2026-01-25 02:33:36.30	244.94	37.13	-33.3	-34.9	23.9	0.00e+00	0	39	0	2485125120	37	4531
2026-01-25 02:33:37.29	244.68	36.94	-33.2	-34.8	24.0	0.00e+00	0	39	0	2490368000	37	4480
2026-01-25 02:33:38.28	244.42	36.76	-33.1	-34.7	24.1	0.00e+00	0	39	0	2496659456	37	4420
2026-01-25 02:33:39.28	244.16	36.57	-33.0	-34.6	24.1	0.00e+00	0	39	0	2501902336	37	4391
2026-01-25 02:33:40.28	243.91	36.38	-33.0	-34.6	24.2	0.00e+00	0	39	0	2507145216	37	4370
2026-01-25 02:33:41.27	243.66	36.19	-32.9	-34.5	24.3	0.00e+00	0	39	0	2512388096	37	4306
2026-01-25 02:33:42.27	243.41	36.01	-32.9	-34.5	24.3	0.00e+00	0	39	0	2518679552	37	4324
2026-01-25 02:33:43.26	243.16	35.82	-33.1	-34.7	24.1	0.00e+00	0	39	0	2523922432	37	4398
2026-01-25 02:33:44.26	242.92	35.63	-33.0	-34.6	24.2	0.00e+00	0	39	0	2530213888	37	4385
2026-01-25 02:33:45.25	242.68	35.45	-33.0	-34.5	24.2	0.00e+00	0	39	0	2535456768	37	4338
2026-01-25 02:33:46.25	242.44	35.26	-32.9	-34.5	24.3	0.00e+00	0	39	0	2540699648	37	4296
2026-01-25 02:33:47.24	242.21	35.08	-32.9	-34.5	24.3	0.00e+00	0	39	0	2546991104	37	4295
2026-01-25 02:33:48.24	241.97	34.89	-33.0	-34.6	24.2	0.00e+00	0	39	0	2552233984	37	4357
2026-01-25 02:33:49.23	241.75	34.71	-32.9	-34.5	24.2	0.00e+00	0	39	0	2557476864	37	4333
2026-01-25 02:33:50.23	241.52	34.53	-32.9	-34.6	24.2	0.00e+00	0	39	0	2562719744	37	4347
2026-01-25 02:33:51.22	241.29	34.35	-33.1	-34.7	24.1	0.00e+00	0	39	0	2569011200	37	4393
2026-01-25 02:33:52.22	241.07	34.17	-32.9	-34.5	24.3	0.00e+00	0	39	0	2574254080	37	4292
2026-01-25 02:33:53.21	240.85	33.98	-32.7	-34.3	24.5	0.00e+00	0	39	0	2580545536	37	4198
2026-01-25 02:33:54.21	240.63	33.80	-32.8	-34.4	24.3	0.00e+00	0	39	0	2585788416	37	4273
2026-01-25 02:33:55.20	240.42	33.62	-32.9	-34.5	24.3	0.00e+00	0	39	0	2591031296	37	4295
2026-01-25 02:33:56.20	240.21	33.44	-33.0	-34.6	24.1	0.00e+00	0	39	0	2597322752	37	4381
2026-01-25 02:33:57.19	240.00	33.27	-33.0	-34.6	24.1	0.00e+00	0	39	0	2602565632	37	4372
2026-01-25 02:33:58.19	239.79	33.09	-33.1	-34.7	24.1	0.00e+00	0	39	0	2607808512	37	4431
2026-01-25 02:33:59.18	239.59	32.91	-33.1	-34.7	24.1	0.00e+00	0	39	0	2613051392	37	4430
2026-01-25 02:34:00.18	239.38	32.73	-33.2	-34.8	23.9	0.00e+00	0	39	0	2619342848	37	4484
2026-01-25 02:34:01.17	239.18	32.56	-33.3	-34.9	23.9	0.00e+00	0	39	0	2624585728	37	4507
2026-01-25 02:34:02.17	238.98	32.38	-33.3	-35.0	23.8	0.00e+00	0	39	0	2630877184	37	4564
2026-01-25 02:34:03.16	238.79	32.21	-33.4	-35.0	23.8	0.00e+00	0	39	0	2636120064	37	4579
2026-01-25 02:34:04.16	238.59	32.03	-33.4	-35.1	23.7	0.00e+00	0	39	0	2641362944	37	4621
2026-01-25 02:34:05.15	238.40	31.86	-33.3	-34.9	23.9	0.00e+00	0	39	0	2647654400	37	4514
2026-01-25 02:34:06.14	238.21	31.69	-33.3	-34.9	23.9	0.00e+00	0	39	0	2652897280	37	4504
2026-01-25 02:34:07.14	238.02	31.51	-33.2	-34.8	24.0	0.00e+00	0	39	0	2658140160	37	4452
2026-01-25 02:34:08.13	237.84	31.34	-33.3	-34.9	23.9	0.00e+00	0	39	0	2663383040	37	4517
2026-01-25 02:34:09.13	237.65	31.17	-33.1	-34.7	24.1	0.00e+00	0	39	0	2669674496	37	4401
2026-01-25 02:34:10.12	237.47	31.00	-33.2	-34.8	23.9	0.00e+00	0	39	0	2674917376	37	4489
2026-01-25 02:34:11.12	237.29	30.83	-33.3	-34.9	23.9	0.00e+00	0	39	0	2681208832	37	4531
2026-01-25 02:34:12.11	237.11	30.66	-33.4	-35.1	23.7	0.00e+00	0	39	0	2686451712	37	4600
2026-01-25 02:34:13.11	236.94	30.49	-33.5	-35.2	23.6	0.00e+00	0	39	0	2691694592	37	4668
2026-01-25 02:34:14.10	236.76	30.33	-33.4	-35.1	23.7	0.00e+00	0	39	0	2697986048	37	4601
2026-01-25 02:34:15.10	236.59	30.16	-33.5	-35.1	23.7	0.00e+00	0	39	0	2703228928	37	4640
2026-01-25 02:34:16.10	236.42	29.99	-33.6	-35.2	23.6	0.00e+00	0	39	0	2708471808	37	4705
2026-01-25 02:34:17.09	236.25	29.83	-33.5	-35.1	23.7	0.00e+00	0	39	0	2714763264	37	4640
2026-01-25 02:34:18.09	236.08	29.66	-33.6	-35.3	23.6	0.00e+00	0	39	0	2720006144	37	4711
2026-01-25 02:34:19.08	235.92	29.50	-33.6	-35.3	23.6	0.00e+00	0	39	0	2725249024	37	4709
2026-01-25 02:34:20.08	235.75	29.33	-33.7	-35.3	23.5	0.00e+00	0	39	0	2731540480	38	4474
2026-01-25 02:34:21.07	235.59	29.17	-33.7	-35.3	23.5	0.00e+00	0	39	0	2736783360	38	4491
2026-01-25 02:34:22.07	235.43	29.01	-33.7	-35.3	23.5	0.00e+00	0	39	0	2742026240	38	4485
2026-01-25 02:34:23.06	235.27	28.85	-33.7	-35.4	23.5	0.00e+00	0	39	0	2748317696	38	4504
2026-01-25 02:34:24.06	235.11	28.69	-33.9	-35.5	23.3	0.00e+00	0	39	0	2753560576	38	4592
2026-01-25 02:34:25.05	234.96	28.53	-33.9	-35.5	23.4	0.00e+00	0	39	0	2758803456	38	4570
2026-01-25 02:34:26.05	234.80	28.37	-33.9	-35.6	23.3	0.00e+00	0	39	0	2765094912	38	4609
2026-01-25 02:34:27.04	234.65	28.21	-34.0	-35.6	23.3	0.00e+00	0	39	0	2770337792	38	4626
2026-01-25 02:34:28.04	234.50	28.05	-34.0	-35.6	23.3	0.00e+00	0	39	0	2776629248	38	4620
2026-01-25 02:34:29.03	234.35	27.89	-33.9	-35.5	23.4	0.00e+00	0	39	0	2781872128	38	4588
2026-01-25 02:34:30.03	234.20	27.74	-33.9	-35.5	23.4	0.00e+00	0	39	0	2787115008	38	4568
2026-01-25 02:34:31.02	234.05	27.58	-34.0	-35.6	23.3	0.00e+00	0	39	0	2792357888	38	4629
2026-01-25 02:34:32.02	233.91	27.42	-33.7	-35.4	23.5	0.00e+00	0	39	0	2798649344	38	4505
2026-01-25 02:34:33.01	233.76	27.27	-33.7	-35.3	23.5	0.00e+00	0	39	0	2803892224	38	4482
2026-01-25 02:34:34.01	233.62	27.12	-33.8	-35.4	23.4	0.00e+00	0	39	0	2809135104	38	4542
2026-01-25 02:34:35.00	233.48	26.96	-33.7	-35.4	23.5	0.00e+00	0	39	0	2815426560	38	4504
2026-01-25 02:34:35.99	233.34	26.81	-33.7	-35.3	23.5	0.00e+00	0	39	0	2820669440	38	4490
2026-01-25 02:34:36.99	233.20	26.66	-33.7	-35.3	23.5	0.00e+00	0	39	0	2826960896	38	4481
2026-01-25 02:34:37.98	233.07	26.51	-33.6	-35.3	23.6	0.00e+00	0	39	0	2832203776	38	4447
2026-01-25 02:34:38.98	232.93	26.36	-33.6	-35.2	23.6	0.00e+00	0	39	0	2837446656	38	4430
2026-01-25 02:34:39.97	232.80	26.21	-33.6	-35.3	23.5	0.00e+00	0	39	0	2842689536	38	4453
2026-01-25 02:34:40.97	232.66	26.06	-33.6	-35.2	23.6	0.00e+00	0	39	0	2848980992	38	4426
2026-01-25 02:34:41.96	232.53	25.91	-33.6	-35.3	23.6	0.00e+00	0	39	0	2854223872	38	4446
2026-01-25 02:34:42.96	232.40	25.76	-33.7	-35.3	23.5	0.00e+00	0	39	0	2859466752	38	4488
2026-01-25 02:34:43.95	232.27	25.61	-33.7	-35.4	23.5	0.00e+00	0	39	0	2865758208	38	4502
2026-01-25 02:34:44.95	232.14	25.47	-33.8	-35.5	23.4	0.00e+00	0	39	0	2871001088	38	4554
2026-01-25 02:34:45.95	232.01	25.32	-33.8	-35.4	23.4	0.00e+00	0	39	0	2877292544	38	4522
2026-01-25 02:34:46.94	231.89	25.17	-33.8	-35.4	23.4	0.00e+00	0	39	0	2882535424	38	4544
2026-01-25 02:34:47.94	231.76	25.03	-33.8	-35.4	23.4	0.00e+00	0	39	0	2887778304	38	4508
2026-01-25 02:34:48.93	231.64	24.88	-33.8	-35.4	23.4	0.00e+00	0	39	0	2893021184	38	4540
2026-01-25 02:34:49.93	231.52	24.74	-33.8	-35.4	23.4	0.00e+00	0	39	0	2899312640	38	4527
2026-01-25 02:34:50.92	231.40	24.60	-33.8	-35.4	23.4	0.00e+00	0	39	0	2904555520	38	4538
2026-01-25 02:34:51.92	231.28	24.45	-33.8	-35.4	23.4	0.00e+00	0	39	0	2909798400	38	4525
2026-01-25 02:34:52.91	231.16	24.31	-33.8	-35.4	23.4	0.00e+00	0	39	0	2916089856	38	4543
2026-01-25 02:34:53.91	231.04	24.17	-33.8	-35.4	23.4	0.00e+00	0	39	0	2921332736	38	4545
2026-01-25 02:34:54.91	230.92	24.03	-33.9	-35.6	23.3	0.00e+00	0	39	0	2927624192	38	4611
2026-01-25 02:34:55.90	230.81	23.89	-34.0	-35.7	23.1	0.00e+00	0	39	0	2932867072	38	4664
2026-01-25 02:34:56.90	230.69	23.75	-34.0	-35.6	23.2	0.00e+00	0	39	0	2938109952	38	4644
2026-01-25 02:34:57.89	230.58	23.61	-34.1	-35.7	23.1	0.00e+00	0	39	0	2944401408	38	4693
2026-01-25 02:34:58.89	230.47	23.48	-34.2	-35.8	23.1	0.00e+00	0	39	0	2949644288	38	4744
2026-01-25 02:34:59.88	230.36	23.34	-34.2	-35.8	23.1	0.00e+00	0	39	0	2954887168	39	4467
2026-01-25 02:35:00.88	230.24	23.20	-34.2	-35.9	23.0	0.00e+00	0	39	0	2960130048	39	4497
2026-01-25 02:35:01.87	230.13	23.07	-34.2	-35.8	23.0	0.00e+00	0	39	0	2966421504	39	4484
2026-01-25 02:35:02.87	230.03	22.93	-34.2	-35.8	23.1	0.00e+00	0	39	0	2971664384	39	4463
2026-01-25 02:35:03.87	229.92	22.79	-34.1	-35.7	23.1	0.00e+00	0	39	0	2977955840	39	4432
2026-01-25 02:35:04.86	229.81	22.66	-34.1	-35.7	23.1	0.00e+00	0	39	0	2983198720	39	4428
2026-01-25 02:35:05.85	229.71	22.53	-34.1	-35.7	23.1	0.00e+00	0	39	0	2988441600	39	4413
2026-01-25 02:35:06.85	229.60	22.39	-34.1	-35.7	23.1	0.00e+00	0	39	0	2994733056	39	4410
2026-01-25 02:35:07.84	229.50	22.26	-34.1	-35.7	23.1	0.00e+00	0	39	0	2999975936	39	4417
2026-01-25 02:35:08.84	229.39	22.13	-33.9	-35.6	23.2	0.00e+00	0	39	0	3005218816	39	4353
2026-01-25 02:35:09.83	229.29	22.00	-33.9	-35.5	23.3	0.00e+00	0	39	0	3010461696	39	4339
2026-01-25 02:35:10.83	229.19	21.87	-33.9	-35.5	23.3	0.00e+00	0	39	0	3016753152	39	4339
2026-01-25 02:35:11.82	229.09	21.74	-33.9	-35.5	23.3	0.00e+00	0	39	0	3021996032	39	4315
2026-01-25 02:35:12.81	228.99	21.61	-34.0	-35.6	23.2	0.00e+00	0	39	0	3028287488	39	4357
2026-01-25 02:35:13.81	228.89	21.48	-34.0	-35.6	23.2	0.00e+00	0	39	0	3033530368	39	4367
2026-01-25 02:35:14.80	228.79	21.35	-33.9	-35.5	23.2	0.00e+00	0	39	0	3038773248	39	4336
2026-01-25 02:35:15.80	228.70	21.22	-34.0	-35.6	23.2	0.00e+00	0	39	0	3045064704	39	4360
2026-01-25 02:35:16.79	228.60	21.09	-34.0	-35.6	23.2	0.00e+00	0	39	0	3050307584	39	4385
2026-01-25 02:35:17.79	228.50	20.97	-34.0	-35.6	23.1	0.00e+00	0	39	0	3055550464	39	4390
2026-01-25 02:35:18.78	228.41	20.84	-34.1	-35.7	23.1	0.00e+00	0	39	0	3060793344	39	4428
2026-01-25 02:35:19.78	228.32	20.72	-34.2	-35.8	23.0	0.00e+00	0	39	0	3067084800	39	4462
2026-01-25 02:35:20.77	228.22	20.59	-34.2	-35.9	23.0	0.00e+00	0	39	0	3072327680	39	4505
2026-01-25 02:35:21.77	228.13	20.47	-34.4	-36.0	22.8	0.00e+00	0	39	0	3078619136	39	4589
2026-01-25 02:35:22.76	228.04	20.34	-34.4	-36.0	22.8	0.00e+00	0	39	0	3083862016	39	4586
2026-01-25 02:35:23.75	227.95	20.22	-34.5	-36.1	22.7	0.00e+00	0	39	0	3089104896	39	4638
2026-01-25 02:35:24.75	227.86	20.09	-34.6	-36.3	22.6	0.00e+00	0	39	0	3095396352	39	4717
2026-01-25 02:35:25.74	227.77	19.97	-34.7	-36.3	22.5	0.00e+00	0	39	0	3100639232	39	4758
2026-01-25 02:35:26.74	227.68	19.85	-34.7	-36.4	22.4	0.00e+00	0	39	0	3105882112	40	4525
2026-01-25 02:35:27.73	227.59	19.73	-34.7	-36.4	22.4	0.00e+00	0	39	0	3111124992	40	4527
2026-01-25 02:35:28.73	227.50	19.61	-34.8	-36.5	22.3	0.00e+00	0	39	0	3117416448	40	4546
2026-01-25 02:35:29.72	227.42	19.49	-34.9	-36.6	22.2	0.00e+00	0	39	0	3122659328	40	4612
2026-01-25 02:35:30.71	227.33	19.37	-34.9	-36.7	22.1	0.00e+00	0	39	0	3128950784	40	4658
2026-01-25 02:35:31.71	227.25	19.25	-34.9	-36.6	22.2	0.00e+00	0	39	0	3134193664	40	4628
2026-01-25 02:35:32.71	227.16	19.13	-34.9	-36.6	22.2	0.00e+00	0	39	0	3139436544	40	4645
2026-01-25 02:35:33.70	227.08	19.01	-34.9	-36.6	22.2	0.00e+00	0	39	0	3145728000	40	4617
2026-01-25 02:35:34.70	227.00	18.89	-34.8	-36.5	22.2	0.00e+00	0	39	0	3150970880	40	4590
2026-01-25 02:35:35.70	226.91	18.77	-34.8	-36.5	22.2	0.00e+00	0	39	0	3156213760	40	4585
2026-01-25 02:35:36.69	226.83	18.66	-34.9	-36.5	22.2	0.00e+00	0	39	0	3162505216	40	4598
2026-01-25 02:35:37.69	226.75	18.54	-34.8	-36.5	22.3	0.00e+00	0	39	0	3167748096	40	4576
2026-01-25 02:35:38.68	226.67	18.43	-34.9	-36.5	22.2	0.00e+00	0	39	0	3172990976	40	4582
2026-01-25 02:35:39.68	226.59	18.31	-34.8	-36.5	22.2	0.00e+00	0	39	0	3179282432	40	4582
2026-01-25 02:35:40.67	226.51	18.20	-34.9	-36.6	22.2	0.00e+00	0	39	0	3184525312	40	4599
2026-01-25 02:35:41.67	226.43	18.08	-35.0	-36.7	22.1	0.00e+00	0	39	0	3189768192	40	4661
2026-01-25 02:35:42.66	226.35	17.97	-34.9	-36.6	22.2	0.00e+00	0	39	0	3196059648	40	4610
2026-01-25 02:35:43.66	226.28	17.85	-35.0	-36.7	22.1	0.00e+00	0	39	0	3201302528	40	4654
2026-01-25 02:35:44.66	226.20	17.74	-35.0	-36.7	22.0	0.00e+00	0	39	0	3206545408	40	4685
2026-01-25 02:35:45.65	226.12	17.63	-35.1	-36.7	22.0	0.00e+00	0	39	0	3212836864	40	4701
2026-01-25 02:35:46.65	226.05	17.51	-35.1	-36.8	22.0	0.00e+00	0	39	0	3218079744	40	4715
2026-01-25 02:35:47.64	225.97	17.40	-35.2	-36.8	21.9	0.00e+00	0	39	0	3224371200	41	4492
2026-01-25 02:35:48.64	225.90	17.29	-35.1	-36.8	21.9	0.00e+00	0	39	0	3229614080	41	4480
2026-01-25 02:35:49.63	225.82	17.18	-35.2	-36.8	21.9	0.00e+00	0	39	0	3234856960	41	4484
2026-01-25 02:35:50.63	225.75	17.07	-35.2	-36.9	21.9	0.00e+00	0	39	0	3240099840	41	4500
2026-01-25 02:35:51.62	225.68	16.96	-35.3	-37.0	21.8	0.00e+00	0	39	0	3246391296	41	4559
2026-01-25 02:35:52.62	225.61	16.85	-35.4	-37.1	21.7	0.00e+00	0	39	0	3251634176	41	4606
2026-01-25 02:35:53.61	225.53	16.74	-35.3	-37.0	21.8	0.00e+00	0	39	0	3256877056	41	4554
2026-01-25 02:35:54.61	225.46	16.63	-35.3	-37.0	21.7	0.00e+00	0	39	0	3263168512	41	4592
2026-01-25 02:35:55.60	225.39	16.53	-35.4	-37.0	21.7	0.00e+00	0	39	0	3268411392	41	4596
2026-01-25 02:35:56.59	225.32	16.42	-35.3	-37.0	21.8	0.00e+00	0	39	0	3274702848	41	4560
2026-01-25 02:35:57.59	225.25	16.31	-35.4	-37.0	21.7	0.00e+00	0	39	0	3279945728	41	4598
2026-01-25 02:35:58.58	225.18	16.20	-35.4	-37.1	21.7	0.00e+00	0	39	0	3285188608	41	4627
2026-01-25 02:35:59.58	225.11	16.10	-35.5	-37.2	21.6	0.00e+00	0	39	0	3290431488	41	4668
2026-01-25 02:36:00.57	225.05	15.99	-35.6	-37.3	21.5	0.00e+00	0	39	0	3296722944	41	4720
2026-01-25 02:36:01.56	224.98	15.89	-35.6	-37.3	21.5	0.00e+00	0	39	0	3301965824	41	4717
2026-01-25 02:36:02.56	224.91	15.78	-35.7	-37.4	21.4	0.00e+00	0	39	0	3307208704	41	4775
2026-01-25 02:36:03.55	224.85	15.68	-35.7	-37.5	21.3	0.00e+00	0	39	0	3313500160	42	4550
2026-01-25 02:36:04.55	224.78	15.57	-35.8	-37.5	21.2	0.00e+00	0	39	0	3318743040	42	4593
2026-01-25 02:36:05.54	224.71	15.47	-35.9	-37.7	21.1	0.00e+00	0	39	0	3325034496	42	4664
2026-01-25 02:36:06.54	224.65	15.36	-35.9	-37.7	21.1	0.00e+00	0	39	0	3330277376	42	4680
2026-01-25 02:36:07.53	224.58	15.26	-36.1	-37.9	21.0	0.00e+00	0	39	0	3335520256	42	4761
2026-01-25 02:36:08.53	224.52	15.16	-36.1	-37.8	21.0	0.00e+00	0	39	0	3340763136	42	4748
2026-01-25 02:36:09.52	224.46	15.06	-36.1	-37.9	21.0	0.00e+00	0	39	0	3347054592	42	4762
2026-01-25 02:36:10.52	224.39	14.95	-36.2	-38.0	20.8	0.00e+00	0	39	0	3352297472	43	4557
2026-01-25 02:36:11.51	224.33	14.85	-36.1	-37.9	20.9	0.00e+00	0	39	0	3357540352	43	4541
2026-01-25 02:36:12.51	224.27	14.75	-36.2	-38.0	20.8	0.00e+00	0	39	0	3363831808	43	4558
2026-01-25 02:36:13.51	224.20	14.65	-36.3	-38.1	20.8	0.00e+00	0	39	0	3369074688	43	4604
2026-01-25 02:36:14.50	224.14	14.55	-36.2	-38.0	20.8	0.00e+00	0	39	0	3375366144	43	4561
2026-01-25 02:36:15.50	224.08	14.45	-36.3	-38.1	20.7	0.00e+00	0	39	0	3380609024	43	4618
2026-01-25 02:36:16.49	224.02	14.35	-36.2	-38.0	20.8	0.00e+00	0	39	0	3385851904	43	4588
2026-01-25 02:36:17.49	223.96	14.25	-36.2	-38.0	20.8	0.00e+00	0	39	0	3392143360	43	4552
2026-01-25 02:36:18.48	223.90	14.15	-36.2	-38.0	20.7	0.00e+00	0	39	0	3397386240	43	4577
2026-01-25 02:36:19.48	223.84	14.05	-36.1	-37.9	20.8	0.00e+00	0	39	0	3402629120	43	4517
2026-01-25 02:36:20.47	223.78	13.96	-36.2	-38.0	20.7	0.00e+00	0	39	0	3407872000	43	4574
2026-01-25 02:36:21.47	223.72	13.86	-36.3	-38.0	20.7	0.00e+00	0	39	0	3414163456	43	4586
2026-01-25 02:36:22.46	223.66	13.76	-36.2	-37.9	20.8	0.00e+00	0	39	0	3419406336	43	4544
2026-01-25 02:36:23.46	223.61	13.66	-36.1	-37.8	20.9	0.00e+00	0	39	0	3425697792	43	4490
2026-01-25 02:36:24.45	223.55	13.57	-36.3	-38.0	20.7	0.00e+00	0	39	0	3430940672	43	4590
2026-01-25 02:36:25.45	223.49	13.47	-36.2	-38.0	20.8	0.00e+00	0	39	0	3436183552	43	4549
2026-01-25 02:36:26.44	223.44	13.37	-36.3	-38.0	20.7	0.00e+00	0	39	0	3442475008	43	4574
2026-01-25 02:36:27.44	223.38	13.28	-36.2	-37.9	20.8	0.00e+00	0	39	0	3447717888	43	4521
2026-01-25 02:36:28.43	223.32	13.18	-36.2	-37.9	20.8	0.00e+00	0	39	0	3452960768	43	4523
2026-01-25 02:36:29.43	223.27	13.09	-36.2	-37.9	20.8	0.00e+00	0	39	0	3458203648	43	4524
2026-01-25 02:36:30.42	223.21	12.99	-36.3	-38.0	20.7	0.00e+00	0	39	0	3464495104	43	4587
2026-01-25 02:36:31.42	223.16	12.90	-36.1	-37.9	20.9	0.00e+00	0	39	0	3469737984	43	4509
2026-01-25 02:36:32.41	223.10	12.80	-36.1	-37.9	20.9	0.00e+00	0	39	0	3476029440	43	4507
2026-01-25 02:36:33.41	223.05	12.71	-36.3	-38.0	20.7	0.00e+00	0	39	0	3481272320	43	4586
2026-01-25 02:36:34.40	222.99	12.62	-36.3	-38.0	20.7	0.00e+00	0	39	0	3486515200	43	4588
2026-01-25 02:36:35.40	222.94	12.52	-36.4	-38.2	20.5	0.00e+00	0	39	0	3492806656	43	4668
2026-01-25 02:36:36.39	222.89	12.43	-36.5	-38.2	20.5	0.00e+00	0	39	0	3498049536	43	4696
2026-01-25 02:36:37.39	222.84	12.34	-36.3	-38.0	20.7	0.00e+00	0	39	0	3503292416	43	4579
2026-01-25 02:36:38.38	222.78	12.25	-36.4	-38.1	20.6	0.00e+00	0	39	0	3508535296	43	4639
2026-01-25 02:36:39.38	222.73	12.16	-36.4	-38.2	20.5	0.00e+00	0	39	0	3514826752	43	4655
2026-01-25 02:36:40.37	222.68	12.06	-36.5	-38.2	20.5	0.00e+00	0	39	0	3520069632	43	4704
2026-01-25 02:36:41.37	222.63	11.97	-36.6	-38.3	20.4	0.00e+00	0	39	0	3526361088	43	4757
2026-01-25 02:36:42.37	222.58	11.88	-36.6	-38.4	20.3	0.00e+00	0	39	0	3531603968	43	4805
2026-01-25 02:36:43.36	222.53	11.79	-36.9	-38.7	20.2	0.00e+00	0	39	0	3536846848	44	4655
2026-01-25 02:36:44.36	222.48	11.70	-37.0	-38.8	20.1	0.00e+00	0	39	0	3543138304	44	4736
2026-01-25 02:36:45.35	222.43	11.61	-37.0	-38.8	20.1	0.00e+00	0	39	0	3548381184	44	4737
2026-01-25 02:36:46.35	222.38	11.52	-37.1	-38.9	20.0	0.00e+00	0	39	0	3553624064	44	4773
2026-01-25 02:36:47.34	222.33	11.43	-37.0	-38.8	20.1	0.00e+00	0	39	0	3559915520	44	4737
2026-01-25 02:36:48.34	222.28	11.34	-37.0	-38.8	20.1	0.00e+00	0	39	0	3565158400	44	4729
2026-01-25 02:36:49.33	222.23	11.26	-37.0	-38.8	20.0	0.00e+00	0	39	0	3570401280	44	4754
2026-01-25 02:36:50.33	222.18	11.17	-37.0	-38.8	20.0	0.00e+00	0	39	0	3576692736	44	4759
2026-01-25 02:36:51.32	222.13	11.08	-37.1	-39.0	19.9	0.00e+00	0	39	0	3581935616	44	4817
2026-01-25 02:36:52.32	222.08	10.99	-37.1	-38.9	19.9	0.00e+00	0	39	0	3587178496	44	4813
2026-01-25 02:36:53.31	222.04	10.90	-37.1	-38.9	19.9	0.00e+00	0	39	0	3593469952	44	4795
2026-01-25 02:36:54.31	221.99	10.82	-37.2	-39.0	19.8	0.00e+00	0	39	0	3598712832	45	4573
2026-01-25 02:36:55.30	221.94	10.73	-37.2	-39.1	19.8	0.00e+00	0	39	0	3603955712	45	4610
2026-01-25 02:36:56.30	221.90	10.64	-37.2	-39.0	19.8	0.00e+00	0	39	0	3610247168	45	4566
