passes_logs/2026/01/25/T1/T1__20260125_040831_FENGYUN_3E_rec.log

#Pass ID: 20260125_040831_FENGYUN 3E
#Satellite: FENGYUN 3E
#Configuration: FENGYUN 3E
#almurnet v.1.7.20251203
#Start time: 2026-01-25 04:08:33

#Version: 2.0.20230620
#Station: T1
#Location: 37.570604 lon 55.790049 lat
#TLE: 1 49008U 21062A   26024.51886291 -.00000133  00000+0 -41802-4 0  9993
#TLE: 2 49008  98.7494  29.5356 0002407 118.1139 242.0281 14.19886269236195

#Time	Az	El	Level	Level2	SNR	BER	BlckErr	Temp	State	Recorded	gain1	gain2
2026-01-25 04:08:33.04	15.20	5.08	-47.0	-59.0	3.8	8.47e-01	0	35	0	0	63	15177
2026-01-25 04:08:34.02	15.19	5.15	-47.0	-59.0	3.8	8.46e-01	0	35	104	0	63	15111
2026-01-25 04:08:35.02	15.19	5.22	-47.0	-59.0	3.8	8.47e-01	0	35	104	0	63	15107
2026-01-25 04:08:36.01	15.18	5.29	-47.0	-59.1	3.8	8.47e-01	0	35	104	0	63	15242
2026-01-25 04:08:37.00	15.18	5.36	-47.1	-59.1	3.8	8.47e-01	0	35	104	0	63	15279
2026-01-25 04:08:38.00	15.17	5.43	-47.1	-59.1	3.8	8.49e-01	0	35	104	0	63	15348
2026-01-25 04:08:38.99	15.17	5.51	-47.1	-59.1	3.8	8.47e-01	0	36	104	0	63	15372
2026-01-25 04:08:39.99	15.16	5.58	-47.1	-59.1	3.8	8.46e-01	0	36	104	0	63	15390
2026-01-25 04:08:40.98	15.15	5.65	-47.1	-59.2	3.8	8.46e-01	0	35	104	0	63	15483
2026-01-25 04:08:41.97	15.15	5.72	-47.1	-59.2	3.8	8.46e-01	0	35	104	0	63	15407
2026-01-25 04:08:42.97	15.14	5.80	-47.1	-59.1	3.8	8.45e-01	0	36	104	0	63	15237
2026-01-25 04:08:43.96	15.14	5.87	-47.1	-59.1	3.8	8.46e-01	0	35	104	0	63	15354
2026-01-25 04:08:44.95	15.13	5.94	-47.1	-59.1	3.8	8.47e-01	0	36	104	0	63	15351
2026-01-25 04:08:45.94	15.13	6.01	-47.1	-59.1	3.8	8.46e-01	0	36	104	0	63	15275
2026-01-25 04:08:46.94	15.12	6.09	-47.1	-59.1	3.8	8.48e-01	0	36	104	0	63	15287
2026-01-25 04:08:47.93	15.11	6.16	-47.1	-59.1	3.8	8.46e-01	0	36	104	0	63	15340
2026-01-25 04:08:48.92	15.11	6.24	-47.1	-59.1	3.8	8.46e-01	0	36	104	0	63	15374
2026-01-25 04:08:49.92	15.10	6.31	-47.0	-59.1	3.8	8.47e-01	0	36	104	0	63	15338
2026-01-25 04:08:50.91	15.09	6.38	-47.0	-59.2	3.8	8.47e-01	0	36	104	0	63	15412
2026-01-25 04:08:51.90	15.09	6.46	-47.0	-59.1	3.8	8.47e-01	0	36	104	0	63	15337
2026-01-25 04:08:52.90	15.08	6.53	-47.1	-59.0	3.8	8.46e-01	0	36	104	0	63	15087
2026-01-25 04:08:53.89	15.08	6.61	-47.0	-58.9	3.8	8.46e-01	0	36	104	0	63	14961
2026-01-25 04:08:54.88	15.07	6.68	-47.0	-58.8	3.8	8.46e-01	0	36	104	0	63	14803
2026-01-25 04:08:55.88	15.06	6.76	-47.0	-58.6	3.8	8.47e-01	0	36	104	0	63	14537
2026-01-25 04:08:56.87	15.06	6.84	-47.0	-58.4	3.8	8.47e-01	0	36	104	0	63	14159
2026-01-25 04:08:57.86	15.05	6.91	-47.0	-58.3	3.8	8.46e-01	0	36	104	0	63	13934
2026-01-25 04:08:58.86	15.04	6.99	-47.0	-58.1	3.8	8.46e-01	0	36	104	0	63	13631
2026-01-25 04:08:59.85	15.04	7.06	-46.9	-57.9	3.8	8.46e-01	0	36	104	0	63	13284
2026-01-25 04:09:00.84	15.03	7.14	-46.9	-57.8	3.8	8.47e-01	0	36	104	0	63	13164
2026-01-25 04:09:01.84	15.02	7.22	-46.9	-57.6	3.8	8.45e-01	0	36	104	0	63	12862
2026-01-25 04:09:02.83	15.02	7.29	-46.9	-57.4	3.8	8.46e-01	0	36	104	0	63	12550
2026-01-25 04:09:03.82	15.01	7.37	-46.8	-57.0	3.8	8.46e-01	0	36	104	0	63	12034
2026-01-25 04:09:04.82	15.00	7.45	-46.8	-56.5	4.0	8.44e-01	0	36	104	0	63	11337
2026-01-25 04:09:05.81	14.99	7.53	-46.7	-56.0	4.1	8.40e-01	0	36	0	0	63	10709
2026-01-25 04:09:06.80	14.99	7.60	-46.6	-55.5	4.3	8.36e-01	0	36	0	0	63	10064
2026-01-25 04:09:07.79	14.98	7.68	-46.6	-54.9	4.4	8.27e-01	0	36	0	0	63	9492
2026-01-25 04:09:08.79	14.97	7.76	-46.4	-54.1	4.8	8.04e-01	0	36	0	0	63	8617
2026-01-25 04:09:09.78	14.97	7.84	-46.3	-53.6	5.1	7.55e-01	0	36	0	0	63	8090
2026-01-25 04:09:10.77	14.96	7.92	-46.1	-52.6	5.7	6.93e-01	0	36	0	0	63	7257
2026-01-25 04:09:11.77	14.95	8.00	-45.9	-52.1	6.1	3.28e-01	0	37	0	7340032	62	7224
2026-01-25 04:09:12.76	14.94	8.08	-45.7	-51.3	6.8	2.01e-01	0	37	0	14680064	62	6578
2026-01-25 04:09:13.75	14.94	8.16	-45.4	-50.6	7.4	1.25e-01	0	37	0	20971520	61	6423
2026-01-25 04:09:14.75	14.93	8.24	-45.1	-49.7	8.3	6.37e-02	0	37	0	28311552	61	5833
2026-01-25 04:09:15.74	14.92	8.32	-44.8	-48.9	9.1	3.16e-02	0	37	0	35651584	60	5635
2026-01-25 04:09:16.73	14.91	8.40	-44.6	-48.3	9.6	1.46e-02	0	36	0	42991616	59	5581
2026-01-25 04:09:17.73	14.90	8.48	-44.3	-47.8	10.1	7.91e-03	0	37	0	50331648	59	5245
2026-01-25 04:09:18.72	14.90	8.56	-44.0	-47.2	10.8	4.31e-03	0	37	0	56623104	58	5180
2026-01-25 04:09:19.71	14.89	8.64	-43.7	-46.7	11.3	1.47e-03	0	37	0	63963136	58	4875
2026-01-25 04:09:20.70	14.88	8.72	-43.4	-46.3	11.8	7.30e-04	0	37	0	71303168	57	4941
2026-01-25 04:09:21.70	14.87	8.80	-43.3	-46.0	12.0	3.68e-04	0	37	0	78643200	57	4791
2026-01-25 04:09:22.69	14.86	8.88	-43.4	-46.1	11.9	4.44e-04	0	37	0	85983232	57	4851
2026-01-25 04:09:23.68	14.86	8.97	-43.3	-46.0	12.1	3.33e-04	0	37	0	93323264	57	4784
2026-01-25 04:09:24.68	14.85	9.05	-43.3	-46.1	12.0	3.60e-04	0	37	0	99614720	57	4838
2026-01-25 04:09:25.67	14.84	9.13	-43.2	-45.9	12.2	3.24e-04	0	37	0	106954752	57	4729
2026-01-25 04:09:26.67	14.83	9.22	-43.2	-45.9	12.2	1.59e-04	0	37	0	114294784	56	5040
2026-01-25 04:09:27.66	14.82	9.30	-44.1	-47.4	10.8	2.89e-04	0	37	0	121634816	57	5606
2026-01-25 04:09:28.66	14.81	9.38	-45.7	-52.0	6.2	6.73e-02	0	37	0	128974848	60	8049
2026-01-25 04:09:29.65	14.80	9.47	-41.2	-43.1	14.8	2.72e-03	0	37	0	133169152	53	4320
2026-01-25 04:09:30.64	14.80	9.55	-39.0	-40.4	17.7	0.00e+00	0	37	0	139460608	48	4216
2026-01-25 04:09:31.64	14.79	9.64	-38.4	-39.7	18.2	0.00e+00	0	37	0	146800640	47	4105
2026-01-25 04:09:32.63	14.78	9.72	-37.5	-38.7	19.2	0.00e+00	0	37	0	154140672	45	4102
2026-01-25 04:09:33.63	14.77	9.81	-37.4	-38.5	19.3	0.00e+00	0	37	0	161480704	45	4035
2026-01-25 04:09:34.62	14.76	9.89	-37.3	-38.4	19.4	0.00e+00	0	37	0	168820736	45	4004
2026-01-25 04:09:35.62	14.75	9.98	-37.4	-38.6	19.3	0.00e+00	0	37	0	176160768	45	4061
2026-01-25 04:09:36.61	14.74	10.06	-37.6	-38.8	19.1	0.00e+00	0	37	0	182452224	45	4160
2026-01-25 04:09:37.60	14.73	10.15	-37.2	-38.3	19.5	0.00e+00	0	37	0	189792256	45	3953
2026-01-25 04:09:38.60	14.72	10.24	-37.3	-38.4	19.5	0.00e+00	0	37	0	197132288	45	3980
2026-01-25 04:09:39.59	14.71	10.32	-37.2	-38.4	19.5	0.00e+00	0	37	0	204472320	44	4205
2026-01-25 04:09:40.59	14.70	10.41	-37.3	-38.4	19.4	0.00e+00	0	37	0	211812352	44	4241
2026-01-25 04:09:41.58	14.69	10.50	-37.3	-38.4	19.4	0.00e+00	0	37	0	219152384	44	4238
2026-01-25 04:09:42.58	14.68	10.59	-37.2	-38.4	19.5	0.00e+00	0	37	0	225443840	44	4197
2026-01-25 04:09:43.57	14.67	10.67	-36.8	-38.0	19.9	0.00e+00	0	37	0	232783872	44	4009
2026-01-25 04:09:44.57	14.66	10.76	-37.0	-38.1	19.8	0.00e+00	0	37	0	240123904	44	4077
2026-01-25 04:09:45.56	14.65	10.85	-37.0	-38.2	19.7	0.00e+00	0	37	0	247463936	44	4103
2026-01-25 04:09:46.55	14.64	10.94	-36.9	-38.1	19.8	0.00e+00	0	37	0	254803968	44	4065
2026-01-25 04:09:47.55	14.63	11.03	-37.0	-38.2	19.7	0.00e+00	0	37	0	262144000	44	4105
2026-01-25 04:09:48.55	14.62	11.12	-36.9	-38.1	19.8	0.00e+00	0	37	0	269484032	44	4065
2026-01-25 04:09:49.54	14.61	11.21	-37.1	-38.3	19.6	0.00e+00	0	37	0	276824064	44	4157
2026-01-25 04:09:50.54	14.60	11.30	-37.0	-38.2	19.7	0.00e+00	0	37	0	283115520	44	4113
2026-01-25 04:09:51.53	14.59	11.39	-36.9	-38.0	19.9	0.00e+00	0	37	0	290455552	44	4050
2026-01-25 04:09:52.53	14.58	11.48	-36.9	-38.1	19.9	0.00e+00	0	37	0	297795584	44	4059
2026-01-25 04:09:53.52	14.57	11.58	-37.1	-38.3	19.6	0.00e+00	0	37	0	305135616	44	4167
2026-01-25 04:09:54.52	14.56	11.67	-36.8	-37.9	20.0	0.00e+00	0	37	0	312475648	44	3990
2026-01-25 04:09:55.51	14.55	11.76	-36.6	-37.8	20.2	0.00e+00	0	37	0	319815680	44	3915
2026-01-25 04:09:56.51	14.54	11.85	-36.7	-37.8	20.1	0.00e+00	0	37	0	326107136	44	3923
2026-01-25 04:09:57.50	14.53	11.94	-36.7	-37.8	20.1	0.00e+00	0	37	0	333447168	44	3933
2026-01-25 04:09:58.49	14.52	12.04	-36.7	-37.9	20.1	0.00e+00	0	37	0	340787200	44	3968
2026-01-25 04:09:59.49	14.51	12.13	-36.4	-37.6	20.2	0.00e+00	0	37	0	348127232	43	4060
2026-01-25 04:10:00.48	14.49	12.23	-36.4	-37.5	20.3	0.00e+00	0	37	0	355467264	43	4031
2026-01-25 04:10:01.48	14.48	12.32	-36.3	-37.4	20.3	0.00e+00	0	37	0	362807296	43	3990
2026-01-25 04:10:02.48	14.47	12.42	-36.3	-37.4	20.4	0.00e+00	0	37	0	369098752	43	3988
2026-01-25 04:10:03.47	14.46	12.51	-36.2	-37.3	20.5	0.00e+00	0	37	0	376438784	43	3941
2026-01-25 04:10:04.46	14.45	12.61	-36.3	-37.4	20.3	0.00e+00	0	37	0	383778816	43	4004
2026-01-25 04:10:05.46	14.44	12.70	-36.3	-37.4	20.4	0.00e+00	0	37	0	391118848	43	3978
2026-01-25 04:10:06.45	14.42	12.80	-36.2	-37.4	20.5	0.00e+00	0	37	0	398458880	43	3962
2026-01-25 04:10:07.45	14.41	12.89	-36.1	-37.2	20.6	0.00e+00	0	37	0	405798912	43	3909
2026-01-25 04:10:08.45	14.40	12.99	-36.1	-37.2	20.6	0.00e+00	0	37	0	413138944	42	4116
2026-01-25 04:10:09.44	14.39	13.09	-36.1	-37.2	20.6	0.00e+00	0	37	0	420478976	42	4140
2026-01-25 04:10:10.43	14.37	13.19	-35.9	-37.0	20.8	0.00e+00	0	37	0	426770432	42	4027
2026-01-25 04:10:11.43	14.36	13.28	-36.0	-37.1	20.7	0.00e+00	0	37	0	434110464	42	4052
2026-01-25 04:10:12.42	14.35	13.38	-36.1	-37.1	20.7	0.00e+00	0	37	0	441450496	42	4097
2026-01-25 04:10:13.42	14.34	13.48	-36.0	-37.1	20.7	0.00e+00	0	37	0	448790528	42	4057
2026-01-25 04:10:14.41	14.32	13.58	-35.8	-36.9	20.9	0.00e+00	0	37	0	456130560	42	3976
2026-01-25 04:10:15.41	14.31	13.68	-35.8	-36.9	20.9	0.00e+00	0	37	0	463470592	42	3978
2026-01-25 04:10:16.40	14.30	13.78	-35.8	-36.8	21.0	0.00e+00	0	37	0	469762048	42	3942
2026-01-25 04:10:17.40	14.28	13.88	-35.7	-36.8	21.0	0.00e+00	0	37	0	477102080	42	3918
2026-01-25 04:10:18.39	14.27	13.98	-35.7	-36.8	21.0	0.00e+00	0	37	0	484442112	42	3919
2026-01-25 04:10:19.39	14.26	14.09	-35.7	-36.7	21.1	0.00e+00	0	37	0	491782144	42	3885
2026-01-25 04:10:20.38	14.24	14.19	-35.5	-36.5	21.3	0.00e+00	0	37	0	499122176	41	4029
2026-01-25 04:10:21.38	14.23	14.29	-35.5	-36.6	21.2	0.00e+00	0	37	0	506462208	41	4059
2026-01-25 04:10:22.37	14.22	14.39	-35.6	-36.7	21.1	0.00e+00	0	37	0	512753664	41	4117
2026-01-25 04:10:23.37	14.20	14.50	-35.6	-36.6	20.1	0.00e+00	0	38	0	520093696	41	4071
2026-01-25 04:10:24.36	14.19	14.60	-35.6	-36.6	21.2	0.00e+00	0	37	0	527433728	41	4073
2026-01-25 04:10:25.35	14.17	14.70	-35.4	-36.4	21.3	0.00e+00	0	37	0	534773760	41	3990
2026-01-25 04:10:26.35	14.16	14.81	-35.3	-36.3	21.4	0.00e+00	0	37	0	542113792	41	3956
2026-01-25 04:10:27.34	14.15	14.91	-35.5	-36.5	21.3	0.00e+00	0	38	0	549453824	41	4008
2026-01-25 04:10:28.34	14.13	15.02	-35.4	-36.4	21.4	0.00e+00	0	37	0	556793856	41	3998
2026-01-25 04:10:29.33	14.12	15.12	-35.3	-36.3	21.5	0.00e+00	0	38	0	563085312	41	3922
2026-01-25 04:10:30.33	14.10	15.23	-35.3	-36.2	21.5	0.00e+00	0	38	0	570425344	41	3905
2026-01-25 04:10:31.32	14.09	15.34	-35.2	-36.2	21.6	0.00e+00	0	37	0	577765376	41	3870
2026-01-25 04:10:32.32	14.07	15.44	-35.2	-36.2	21.6	0.00e+00	0	37	0	585105408	41	3885
2026-01-25 04:10:33.31	14.06	15.55	-35.1	-36.1	21.7	0.00e+00	0	37	0	592445440	41	3828
2026-01-25 04:10:34.31	14.04	15.66	-35.0	-36.0	21.8	0.00e+00	0	37	0	599785472	40	4006
2026-01-25 04:10:35.30	14.03	15.77	-35.1	-36.0	21.7	0.00e+00	0	37	0	607125504	40	4050
2026-01-25 04:10:36.30	14.01	15.88	-35.2	-36.1	21.7	0.00e+00	0	37	0	613416960	40	4082
2026-01-25 04:10:37.29	13.99	15.99	-35.2	-36.2	21.6	0.00e+00	0	37	0	620756992	40	4105
2026-01-25 04:10:38.29	13.98	16.10	-35.1	-36.0	21.7	0.00e+00	0	37	0	628097024	40	4045
2026-01-25 04:10:39.28	13.96	16.21	-35.0	-36.0	21.8	0.00e+00	0	37	0	635437056	40	4023
2026-01-25 04:10:40.28	13.95	16.32	-35.0	-35.9	21.8	0.00e+00	0	37	0	642777088	40	4003
2026-01-25 04:10:41.27	13.93	16.43	-35.0	-35.9	21.9	0.00e+00	0	37	0	650117120	40	3988
2026-01-25 04:10:42.27	13.91	16.54	-35.0	-36.0	21.8	0.00e+00	0	37	0	656408576	40	4018
2026-01-25 04:10:43.26	13.90	16.66	-34.9	-35.8	21.9	0.00e+00	0	37	0	663748608	40	3950
2026-01-25 04:10:44.26	13.88	16.77	-34.9	-35.8	22.0	0.00e+00	0	37	0	671088640	40	3933
2026-01-25 04:10:45.25	13.86	16.88	-35.0	-35.9	21.8	0.00e+00	0	38	0	678428672	40	3994
2026-01-25 04:10:46.25	13.84	17.00	-34.8	-35.8	22.0	0.00e+00	0	38	0	685768704	40	3932
2026-01-25 04:10:47.24	13.83	17.11	-34.8	-35.8	22.0	0.00e+00	0	37	0	693108736	40	3921
2026-01-25 04:10:48.23	13.81	17.23	-34.9	-35.8	22.0	0.00e+00	0	37	0	699400192	40	3936
2026-01-25 04:10:49.23	13.79	17.34	-34.9	-35.8	22.0	0.00e+00	0	38	0	706740224	40	3947
2026-01-25 04:10:50.22	13.77	17.46	-34.9	-35.8	21.9	0.00e+00	0	38	0	714080256	40	3944
2026-01-25 04:10:51.22	13.76	17.58	-34.9	-35.8	21.9	0.00e+00	0	37	0	721420288	40	3933
2026-01-25 04:10:52.21	13.74	17.69	-34.8	-35.7	22.0	0.00e+00	0	37	0	728760320	40	3908
2026-01-25 04:10:53.21	13.72	17.81	-34.8	-35.7	22.0	0.00e+00	0	37	0	736100352	40	3900
2026-01-25 04:10:54.20	13.70	17.93	-34.8	-35.7	22.0	0.00e+00	0	37	0	743440384	40	3908
2026-01-25 04:10:55.20	13.68	18.05	-34.7	-35.6	22.2	0.00e+00	0	37	0	750780416	40	3843
2026-01-25 04:10:56.19	13.66	18.17	-34.7	-35.6	22.2	0.00e+00	0	37	0	757071872	39	4091
2026-01-25 04:10:57.19	13.64	18.29	-34.7	-35.6	22.2	0.00e+00	0	38	0	764411904	39	4066
2026-01-25 04:10:58.18	13.63	18.41	-34.8	-35.7	22.1	0.00e+00	0	37	0	771751936	39	4114
2026-01-25 04:10:59.18	13.61	18.53	-34.8	-35.7	22.1	0.00e+00	0	38	0	779091968	39	4121
2026-01-25 04:11:00.17	13.59	18.66	-34.7	-35.6	22.3	0.00e+00	0	37	0	786432000	39	4063
2026-01-25 04:11:01.17	13.57	18.78	-34.7	-35.6	22.3	0.00e+00	0	38	0	793772032	39	4055
2026-01-25 04:11:02.16	13.55	18.90	-34.7	-35.6	22.2	0.00e+00	0	37	0	800063488	39	4075
2026-01-25 04:11:03.16	13.53	19.03	-34.8	-35.7	22.2	0.00e+00	0	38	0	807403520	39	4102
2026-01-25 04:11:04.15	13.51	19.15	-34.7	-35.6	22.3	0.00e+00	0	37	0	814743552	39	4071
2026-01-25 04:11:05.15	13.49	19.28	-34.7	-35.6	22.3	0.00e+00	0	37	0	822083584	39	4067
2026-01-25 04:11:06.14	13.46	19.40	-34.7	-35.6	22.3	0.00e+00	0	37	0	829423616	39	4062
2026-01-25 04:11:07.14	13.44	19.53	-34.5	-35.4	22.4	0.00e+00	0	37	0	836763648	39	3983
2026-01-25 04:11:08.13	13.42	19.66	-34.6	-35.5	22.4	0.00e+00	0	37	0	843055104	39	4015
2026-01-25 04:11:09.13	13.40	19.78	-34.7	-35.5	22.3	0.00e+00	0	38	0	850395136	39	4039
2026-01-25 04:11:10.12	13.38	19.91	-34.6	-35.5	22.3	0.00e+00	0	37	0	857735168	39	4025
2026-01-25 04:11:11.12	13.36	20.04	-34.7	-35.6	22.3	0.00e+00	0	38	0	865075200	39	4062
2026-01-25 04:11:12.11	13.34	20.17	-34.7	-35.5	22.3	0.00e+00	0	37	0	872415232	39	4048
2026-01-25 04:11:13.11	13.31	20.30	-34.7	-35.5	22.4	0.00e+00	0	38	0	879755264	39	4029
2026-01-25 04:11:14.10	13.29	20.43	-34.7	-35.5	22.3	0.00e+00	0	38	0	887095296	39	4044
2026-01-25 04:11:15.10	13.27	20.57	-34.7	-35.5	22.3	0.00e+00	0	37	0	894435328	39	4042
2026-01-25 04:11:16.09	13.25	20.70	-34.6	-35.4	22.4	0.00e+00	0	37	0	900726784	39	3997
2026-01-25 04:11:17.08	13.22	20.83	-34.6	-35.5	22.4	0.00e+00	0	38	0	908066816	39	4017
2026-01-25 04:11:18.08	13.20	20.97	-34.7	-35.6	22.3	0.00e+00	0	38	0	915406848	39	4060
2026-01-25 04:11:19.07	13.17	21.10	-34.7	-35.6	22.2	0.00e+00	0	38	0	922746880	39	4069
2026-01-25 04:11:20.07	13.15	21.24	-34.7	-35.6	22.3	0.00e+00	0	38	0	930086912	39	4058
2026-01-25 04:11:21.06	13.13	21.37	-34.7	-35.6	22.3	0.00e+00	0	37	0	936378368	39	4052
2026-01-25 04:11:22.06	13.10	21.51	-34.6	-35.5	22.4	0.00e+00	0	37	0	943718400	39	4031
2026-01-25 04:11:23.05	13.08	21.65	-34.8	-35.6	22.2	0.00e+00	0	38	0	951058432	39	4083
2026-01-25 04:11:24.05	13.05	21.79	-34.5	-35.4	22.4	0.00e+00	0	38	0	958398464	39	3983
2026-01-25 04:11:25.04	13.03	21.92	-34.6	-35.4	22.4	0.00e+00	0	38	0	965738496	39	4004
2026-01-25 04:11:26.03	13.00	22.06	-34.6	-35.4	22.5	0.00e+00	0	37	0	973078528	39	3991
2026-01-25 04:11:27.03	12.98	22.20	-34.6	-35.5	22.4	0.00e+00	0	38	0	979369984	39	4009
2026-01-25 04:11:28.02	12.95	22.35	-34.7	-35.6	22.3	0.00e+00	0	38	0	986710016	39	4055
2026-01-25 04:11:29.02	12.92	22.49	-34.6	-35.4	22.4	0.00e+00	0	38	0	994050048	39	3988
2026-01-25 04:11:30.01	12.90	22.63	-34.5	-35.4	22.5	0.00e+00	0	38	0	1001390080	39	3965
2026-01-25 04:11:31.00	12.87	22.77	-34.4	-35.3	22.6	0.00e+00	0	38	0	1008730112	39	3922
2026-01-25 04:11:32.00	12.84	22.92	-34.4	-35.3	22.6	0.00e+00	0	38	0	1016070144	39	3916
2026-01-25 04:11:32.99	12.82	23.06	-34.1	-35.0	22.9	0.00e+00	0	38	0	1023410176	39	3791
2026-01-25 04:11:33.99	12.79	23.21	-34.4	-35.2	22.6	0.00e+00	0	38	0	1030750208	39	3909
2026-01-25 04:11:34.98	12.76	23.36	-34.3	-35.1	22.7	0.00e+00	0	38	0	1037041664	39	3849
2026-01-25 04:11:35.97	12.73	23.51	-34.0	-34.9	22.9	0.00e+00	0	38	0	1044381696	38	3980
2026-01-25 04:11:36.97	12.70	23.66	-34.1	-35.0	22.9	0.00e+00	0	38	0	1051721728	38	4005
2026-01-25 04:11:37.97	12.67	23.81	-34.1	-34.9	22.9	0.00e+00	0	38	0	1059061760	38	3999
2026-01-25 04:11:38.96	12.65	23.96	-33.9	-34.7	23.1	0.00e+00	0	38	0	1066401792	38	3913
2026-01-25 04:11:39.96	12.62	24.11	-34.0	-34.9	22.9	0.00e+00	0	38	0	1073741824	38	3967
2026-01-25 04:11:40.95	12.59	24.26	-33.9	-34.8	23.1	0.00e+00	0	38	0	1081081856	38	3915
2026-01-25 04:11:41.95	12.56	24.41	-33.9	-34.8	23.1	0.00e+00	0	38	0	1087373312	38	3916
2026-01-25 04:11:42.94	12.53	24.57	-34.0	-34.8	23.0	0.00e+00	0	38	0	1094713344	38	3937
2026-01-25 04:11:43.94	12.49	24.72	-33.8	-34.7	23.1	0.00e+00	0	38	0	1102053376	38	3872
2026-01-25 04:11:44.93	12.46	24.88	-33.7	-34.6	23.2	0.00e+00	0	38	0	1109393408	38	3841
2026-01-25 04:11:45.93	12.43	25.04	-33.7	-34.5	23.3	0.00e+00	0	37	0	1116733440	38	3806
2026-01-25 04:11:46.92	12.40	25.19	-33.7	-34.5	23.3	0.00e+00	0	38	0	1123024896	38	3823
2026-01-25 04:11:47.91	12.37	25.35	-33.7	-34.6	23.2	0.00e+00	0	38	0	1130364928	38	3833
2026-01-25 04:11:48.91	12.34	25.51	-33.8	-34.7	23.2	0.00e+00	0	38	0	1137704960	38	3872
2026-01-25 04:11:49.90	12.30	25.67	-33.7	-34.5	23.2	0.00e+00	0	38	0	1145044992	37	4026
2026-01-25 04:11:50.90	12.27	25.83	-33.8	-34.7	23.2	0.00e+00	0	38	0	1152385024	37	4101
2026-01-25 04:11:51.89	12.24	26.00	-33.7	-34.5	23.3	0.00e+00	0	38	0	1159725056	37	4024
2026-01-25 04:11:52.89	12.20	26.16	-33.6	-34.5	23.3	0.00e+00	0	38	0	1167065088	37	4014
2026-01-25 04:11:53.88	12.17	26.32	-33.6	-34.4	23.3	0.00e+00	0	38	0	1173356544	37	3996
2026-01-25 04:11:54.88	12.13	26.49	-33.6	-34.4	23.4	0.00e+00	0	38	0	1180696576	37	3981
2026-01-25 04:11:55.87	12.10	26.66	-33.6	-34.4	23.4	0.00e+00	0	38	0	1188036608	37	3979
2026-01-25 04:11:56.87	12.06	26.82	-33.5	-34.4	23.4	0.00e+00	0	38	0	1195376640	37	3978
2026-01-25 04:11:57.86	12.02	26.99	-33.5	-34.4	23.4	0.00e+00	0	38	0	1202716672	37	3964
2026-01-25 04:11:58.86	11.99	27.16	-33.6	-34.4	23.4	0.00e+00	0	37	0	1210056704	37	3996
2026-01-25 04:11:59.85	11.95	27.33	-33.5	-34.4	23.4	0.00e+00	0	38	0	1217396736	37	3963
2026-01-25 04:12:00.85	11.91	27.50	-33.8	-34.6	23.2	0.00e+00	0	38	0	1224736768	37	4082
2026-01-25 04:12:01.84	11.88	27.68	-33.6	-34.5	23.4	0.00e+00	0	38	0	1231028224	37	4009
2026-01-25 04:12:02.84	11.84	27.85	-33.7	-34.5	23.3	0.00e+00	0	38	0	1238368256	37	4038
2026-01-25 04:12:03.83	11.80	28.03	-33.6	-34.4	23.4	0.00e+00	0	38	0	1245708288	37	4002
2026-01-25 04:12:04.82	11.76	28.20	-33.7	-34.5	23.3	0.00e+00	0	38	0	1253048320	37	4039
2026-01-25 04:12:05.82	11.72	28.38	-33.6	-34.4	23.4	0.00e+00	0	38	0	1260388352	37	3989
2026-01-25 04:12:06.81	11.68	28.56	-33.5	-34.4	23.5	0.00e+00	0	38	0	1266679808	37	3967
2026-01-25 04:12:07.81	11.64	28.74	-33.5	-34.4	23.4	0.00e+00	0	37	0	1274019840	37	3978
2026-01-25 04:12:08.80	11.60	28.92	-33.6	-34.4	23.4	0.00e+00	0	38	0	1281359872	37	4003
2026-01-25 04:12:09.80	11.55	29.10	-33.4	-34.3	23.5	0.00e+00	0	37	0	1288699904	37	3915
2026-01-25 04:12:10.79	11.51	29.28	-33.5	-34.3	23.5	0.00e+00	0	38	0	1296039936	37	3950
2026-01-25 04:12:11.79	11.47	29.47	-33.4	-34.2	23.6	0.00e+00	0	37	0	1303379968	37	3884
2026-01-25 04:12:12.78	11.43	29.65	-33.3	-34.1	23.7	0.00e+00	0	37	0	1309671424	37	3831
2026-01-25 04:12:13.78	11.38	29.84	-33.3	-34.1	23.7	0.00e+00	0	38	0	1317011456	37	3850
2026-01-25 04:12:14.78	11.34	30.03	-33.3	-34.1	23.7	0.00e+00	0	38	0	1324351488	37	3830
2026-01-25 04:12:15.77	11.29	30.22	-33.3	-34.1	23.7	0.00e+00	0	38	0	1331691520	37	3842
2026-01-25 04:12:16.77	11.25	30.41	-33.3	-34.1	23.7	0.00e+00	0	38	0	1339031552	37	3835
2026-01-25 04:12:17.76	11.20	30.60	-33.3	-34.2	23.6	0.00e+00	0	38	0	1346371584	37	3869
2026-01-25 04:12:18.75	11.15	30.79	-33.4	-34.2	23.6	0.00e+00	0	38	0	1353711616	37	3904
2026-01-25 04:12:19.75	11.11	30.98	-33.4	-34.2	23.6	0.00e+00	0	38	0	1361051648	37	3908
2026-01-25 04:12:20.74	11.06	31.18	-33.5	-34.3	23.5	0.00e+00	0	38	0	1367343104	37	3955
2026-01-25 04:12:21.74	11.01	31.38	-33.5	-34.3	23.5	0.00e+00	0	38	0	1374683136	37	3952
2026-01-25 04:12:22.73	10.96	31.57	-33.6	-34.5	23.4	0.00e+00	0	38	0	1382023168	37	4017
2026-01-25 04:12:23.73	10.91	31.77	-33.7	-34.5	23.3	0.00e+00	0	38	0	1389363200	37	4050
2026-01-25 04:12:24.73	10.86	31.98	-33.7	-34.6	23.3	0.00e+00	0	38	0	1396703232	37	4062
2026-01-25 04:12:25.72	10.81	32.18	-33.8	-34.6	23.2	0.00e+00	0	38	0	1404043264	37	4082
2026-01-25 04:12:26.72	10.76	32.38	-33.8	-34.6	23.3	0.00e+00	0	38	0	1410334720	37	4093
2026-01-25 04:12:27.71	10.70	32.58	-33.7	-34.6	23.3	0.00e+00	0	38	0	1417674752	37	4066
2026-01-25 04:12:28.71	10.65	32.79	-33.7	-34.5	23.3	0.00e+00	0	38	0	1425014784	37	4046
2026-01-25 04:12:29.70	10.60	33.00	-33.5	-34.3	23.5	0.00e+00	0	37	0	1432354816	37	3945
2026-01-25 04:12:30.69	10.54	33.21	-33.7	-34.6	23.3	0.00e+00	0	38	0	1439694848	37	4070
2026-01-25 04:12:31.69	10.49	33.42	-33.6	-34.5	23.4	0.00e+00	0	38	0	1447034880	37	4021
2026-01-25 04:12:32.68	10.43	33.63	-33.5	-34.3	23.6	0.00e+00	0	38	0	1453326336	37	3938
2026-01-25 04:12:33.68	10.37	33.84	-33.5	-34.3	23.5	0.00e+00	0	38	0	1460666368	37	3949
2026-01-25 04:12:34.67	10.31	34.06	-33.5	-34.4	23.5	0.00e+00	0	38	0	1468006400	37	3974
2026-01-25 04:12:35.67	10.26	34.27	-33.4	-34.2	21.5	0.00e+00	0	38	0	1475346432	37	3885
2026-01-25 04:12:36.66	10.20	34.49	-33.1	-33.9	23.9	0.00e+00	0	38	0	1482686464	37	3770
2026-01-25 04:12:37.66	10.14	34.71	-33.3	-34.1	23.7	0.00e+00	0	38	0	1490026496	37	3836
2026-01-25 04:12:38.65	10.07	34.93	-33.2	-34.0	23.8	0.00e+00	0	38	0	1497366528	37	3821
2026-01-25 04:12:39.65	10.01	35.15	-33.3	-34.1	23.7	0.00e+00	0	38	0	1504706560	37	3862
2026-01-25 04:12:40.64	9.95	35.37	-33.4	-34.2	23.7	0.00e+00	0	38	0	1510998016	37	3890
2026-01-25 04:12:41.63	9.89	35.60	-33.4	-34.2	23.7	0.00e+00	0	38	0	1518338048	37	3889
2026-01-25 04:12:42.63	9.82	35.83	-33.7	-34.5	23.4	0.00e+00	0	38	0	1525678080	37	4020
2026-01-25 04:12:43.62	9.75	36.05	-33.6	-34.4	23.5	0.00e+00	0	38	0	1533018112	37	3992
2026-01-25 04:12:44.62	9.69	36.28	-33.6	-34.4	23.5	0.00e+00	0	38	0	1540358144	37	4000
2026-01-25 04:12:45.62	9.62	36.52	-33.6	-34.4	23.5	0.00e+00	0	38	0	1547698176	37	3981
2026-01-25 04:12:46.61	9.55	36.75	-33.5	-34.4	23.5	0.00e+00	0	38	0	1553989632	37	3970
2026-01-25 04:12:47.61	9.48	36.99	-33.6	-34.4	23.5	0.00e+00	0	38	0	1561329664	37	3974
2026-01-25 04:12:48.60	9.41	37.22	-33.4	-34.2	23.6	0.00e+00	0	38	0	1568669696	37	3907
2026-01-25 04:12:49.60	9.34	37.46	-33.4	-34.2	23.7	0.00e+00	0	38	0	1576009728	37	3904
2026-01-25 04:12:50.59	9.26	37.70	-33.5	-34.3	23.6	0.00e+00	0	38	0	1583349760	37	3927
2026-01-25 04:12:51.58	9.19	37.94	-33.3	-34.1	23.8	0.00e+00	0	38	0	1590689792	37	3859
2026-01-25 04:12:52.58	9.11	38.18	-33.2	-34.0	23.8	0.00e+00	0	38	0	1596981248	37	3799
2026-01-25 04:12:53.58	9.04	38.43	-33.2	-34.0	23.9	0.00e+00	0	38	0	1604321280	37	3788
2026-01-25 04:12:54.57	8.96	38.67	-33.0	-33.8	24.1	0.00e+00	0	37	0	1611661312	36	3937
2026-01-25 04:12:55.57	8.88	38.92	-33.1	-33.9	23.9	0.00e+00	0	38	0	1619001344	36	4002
2026-01-25 04:12:56.56	8.80	39.17	-33.2	-34.0	23.9	0.00e+00	0	38	0	1626341376	36	4016
2026-01-25 04:12:57.56	8.71	39.43	-33.2	-34.0	23.8	0.00e+00	0	38	0	1633681408	36	4051
2026-01-25 04:12:58.55	8.63	39.68	-33.4	-34.2	23.7	0.00e+00	0	38	0	1641021440	36	4128
2026-01-25 04:12:59.55	8.55	39.93	-33.6	-34.4	23.5	0.00e+00	0	38	0	1648361472	36	4222
2026-01-25 04:13:00.54	8.46	40.19	-33.5	-34.3	23.6	0.00e+00	0	38	0	1654652928	36	4187
2026-01-25 04:13:01.54	8.37	40.45	-33.5	-34.3	23.6	0.00e+00	0	38	0	1661992960	36	4182
2026-01-25 04:13:02.53	8.28	40.71	-33.6	-34.4	23.5	0.00e+00	0	38	0	1669332992	36	4241
2026-01-25 04:13:03.53	8.19	40.97	-33.6	-34.4	23.6	0.00e+00	0	38	0	1676673024	36	4203
2026-01-25 04:13:04.52	8.10	41.24	-33.5	-34.4	23.5	0.00e+00	0	38	0	1684013056	36	4202
2026-01-25 04:13:05.52	8.01	41.51	-33.5	-34.3	23.6	0.00e+00	0	38	0	1691353088	36	4170
2026-01-25 04:13:06.51	7.91	41.77	-33.4	-34.2	23.6	0.00e+00	0	38	0	1697644544	36	4144
2026-01-25 04:13:07.51	7.82	42.04	-33.5	-34.3	23.6	0.00e+00	0	38	0	1704984576	36	4177
2026-01-25 04:13:08.50	7.72	42.31	-33.5	-34.3	23.6	0.00e+00	0	38	0	1712324608	36	4162
2026-01-25 04:13:09.50	7.62	42.59	-33.5	-34.3	23.5	0.00e+00	0	38	0	1719664640	36	4183
2026-01-25 04:13:10.49	7.52	42.86	-33.6	-34.5	23.5	0.00e+00	0	38	0	1727004672	36	4254
2026-01-25 04:13:11.49	7.41	43.14	-33.6	-34.4	23.5	0.00e+00	0	38	0	1734344704	36	4241
2026-01-25 04:13:12.48	7.31	43.42	-33.9	-34.8	23.2	0.00e+00	0	38	0	1740636160	37	4149
2026-01-25 04:13:13.47	7.20	43.70	-33.8	-34.6	23.3	0.00e+00	0	38	0	1747976192	37	4086
2026-01-25 04:13:14.47	7.09	43.99	-34.0	-34.9	23.1	0.00e+00	0	38	0	1755316224	37	4207
2026-01-25 04:13:15.47	6.98	44.27	-34.3	-35.1	22.9	0.00e+00	0	38	0	1762656256	37	4332
2026-01-25 04:13:16.46	6.86	44.56	-34.4	-35.2	22.8	0.00e+00	0	38	0	1769996288	38	4129
2026-01-25 04:13:17.45	6.75	44.85	-34.4	-35.2	22.8	0.00e+00	0	38	0	1777336320	38	4127
2026-01-25 04:13:18.45	6.63	45.14	-34.3	-35.1	22.9	0.00e+00	0	38	0	1784676352	38	4077
2026-01-25 04:13:19.44	6.51	45.43	-34.1	-35.0	23.0	0.00e+00	0	38	0	1792016384	38	4007
2026-01-25 04:13:20.44	6.38	45.73	-34.0	-34.9	23.1	0.00e+00	0	38	0	1798307840	38	3962
2026-01-25 04:13:21.43	6.26	46.03	-34.1	-35.0	23.1	0.00e+00	0	38	0	1805647872	38	4009
2026-01-25 04:13:22.43	6.13	46.33	-34.2	-35.1	23.0	0.00e+00	0	38	0	1812987904	38	4052
2026-01-25 04:13:23.42	6.00	46.63	-34.3	-35.1	22.9	0.00e+00	0	38	0	1820327936	38	4074
2026-01-25 04:13:24.42	5.87	46.93	-34.3	-35.1	22.9	0.00e+00	0	38	0	1827667968	38	4087
2026-01-25 04:13:25.41	5.73	47.24	-34.4	-35.3	22.8	0.00e+00	0	38	0	1835008000	38	4162
2026-01-25 04:13:26.40	5.59	47.55	-34.6	-35.5	22.6	0.00e+00	0	38	0	1841299456	38	4258
2026-01-25 04:13:27.40	5.45	47.86	-34.6	-35.4	22.7	0.00e+00	0	38	0	1848639488	38	4225
2026-01-25 04:13:28.39	5.31	48.17	-34.4	-35.2	22.8	0.00e+00	0	38	0	1855979520	38	4142
2026-01-25 04:13:29.39	5.16	48.48	-34.6	-35.5	22.6	0.00e+00	0	38	0	1863319552	38	4260
2026-01-25 04:13:30.38	5.01	48.80	-34.8	-35.6	22.5	0.00e+00	0	38	0	1870659584	39	4088
2026-01-25 04:13:31.37	4.86	49.11	-35.0	-35.9	22.2	0.00e+00	0	38	0	1877999616	39	4214
2026-01-25 04:13:32.37	4.70	49.44	-35.1	-35.9	22.2	0.00e+00	0	38	0	1884291072	39	4237
2026-01-25 04:13:33.37	4.54	49.76	-34.8	-35.7	22.3	0.00e+00	0	38	0	1891631104	40	3893
2026-01-25 04:13:34.36	4.38	50.08	-35.3	-36.2	21.9	0.00e+00	0	38	0	1898971136	40	4124
2026-01-25 04:13:35.35	4.21	50.41	-34.9	-35.8	22.3	0.00e+00	0	38	0	1906311168	40	3941
2026-01-25 04:13:36.35	4.04	50.74	-34.9	-35.8	22.3	0.00e+00	0	38	0	1913651200	40	3926
2026-01-25 04:13:37.34	3.87	51.07	-34.7	-35.6	22.5	0.00e+00	0	38	0	1920991232	40	3845
2026-01-25 04:13:38.34	3.69	51.40	-34.5	-35.4	22.8	0.00e+00	0	38	0	1928331264	39	3973
2026-01-25 04:13:39.33	3.50	51.73	-34.5	-35.3	22.8	0.00e+00	0	38	0	1934622720	39	3943
2026-01-25 04:13:40.32	3.32	52.07	-34.3	-35.1	22.9	0.00e+00	0	38	0	1941962752	39	3860
2026-01-25 04:13:41.32	3.12	52.41	-34.6	-35.4	22.7	0.00e+00	0	38	0	1949302784	39	3999
2026-01-25 04:13:42.31	2.93	52.75	-34.8	-35.6	22.5	0.00e+00	0	38	0	1956642816	39	4098
2026-01-25 04:13:43.31	2.73	53.09	-35.1	-36.0	22.2	0.00e+00	0	38	0	1963982848	39	4255
2026-01-25 04:13:44.30	2.52	53.44	-35.2	-36.1	22.0	0.00e+00	0	38	0	1971322880	40	4088
2026-01-25 04:13:45.30	2.31	53.79	-35.3	-36.2	22.0	0.00e+00	0	38	0	1978662912	40	4106
2026-01-25 04:13:46.29	2.10	54.13	-35.1	-36.0	22.1	0.00e+00	0	38	0	1984954368	40	4019
2026-01-25 04:13:47.29	1.87	54.49	-34.8	-35.7	22.4	0.00e+00	0	38	0	1992294400	40	3871
2026-01-25 04:13:48.28	1.65	54.84	-34.7	-35.6	22.5	0.00e+00	0	38	0	1999634432	40	3832
2026-01-25 04:13:49.28	1.41	55.19	-34.7	-35.6	22.5	0.00e+00	0	38	0	2006974464	39	4074
2026-01-25 04:13:50.27	1.18	55.55	-34.7	-35.5	22.6	0.00e+00	0	38	0	2014314496	39	4032
2026-01-25 04:13:51.27	0.93	55.91	-34.9	-35.7	22.4	0.00e+00	0	38	0	2021654528	39	4125
2026-01-25 04:13:52.26	0.68	56.27	-35.4	-36.3	21.9	0.00e+00	0	38	0	2027945984	40	4155
2026-01-25 04:13:53.26	0.42	56.63	-35.7	-36.6	21.6	0.00e+00	0	38	0	2035286016	40	4304
2026-01-25 04:13:54.25	0.15	56.99	-35.9	-36.8	21.4	0.00e+00	0	38	0	2042626048	41	4186
2026-01-25 04:13:55.25	359.88	57.36	-35.8	-36.8	21.4	0.00e+00	0	38	0	2049966080	41	4155
2026-01-25 04:13:56.24	359.60	57.73	-35.5	-36.4	21.8	0.00e+00	0	38	0	2057306112	41	3978
2026-01-25 04:13:57.24	359.31	58.10	-35.2	-36.0	22.0	0.00e+00	0	38	0	2064646144	41	3824
2026-01-25 04:13:58.23	359.02	58.47	-35.1	-36.0	22.1	0.00e+00	0	38	0	2070937600	40	4030
2026-01-25 04:13:59.23	358.71	58.84	-35.0	-35.9	22.2	0.00e+00	0	38	0	2078277632	40	3997
2026-01-25 04:14:00.22	358.40	59.21	-35.4	-36.4	21.9	0.00e+00	0	38	0	2085617664	39	4448
2026-01-25 04:14:01.22	358.08	59.59	-34.9	-35.8	22.2	0.00e+00	0	38	0	2092957696	40	3916
2026-01-25 04:14:02.21	357.74	59.96	-34.9	-35.8	22.4	0.00e+00	0	38	0	2100297728	40	3914
2026-01-25 04:14:03.21	357.40	60.34	-35.0	-35.9	22.2	0.00e+00	0	38	0	2107637760	40	3961
2026-01-25 04:14:04.20	357.05	60.72	-34.8	-35.6	22.5	0.00e+00	0	38	0	2114977792	40	3858
2026-01-25 04:14:05.20	356.68	61.10	-34.5	-35.3	22.8	0.00e+00	0	38	0	2122317824	39	3947
2026-01-25 04:14:06.19	356.31	61.48	-34.7	-35.5	22.6	0.00e+00	0	38	0	2128609280	39	4048
2026-01-25 04:14:07.19	355.92	61.87	-34.6	-35.5	22.6	0.00e+00	0	38	0	2135949312	39	4032
2026-01-25 04:14:08.18	355.53	62.25	-34.4	-35.2	22.9	0.00e+00	0	38	0	2143289344	39	3908
2026-01-25 04:14:09.18	355.11	62.64	-34.5	-35.3	22.8	0.00e+00	0	38	0	2150629376	39	3955
2026-01-25 04:14:10.17	354.69	63.02	-34.6	-35.5	22.5	0.00e+00	0	38	0	2157969408	39	4028
2026-01-25 04:14:11.17	354.25	63.41	-34.4	-35.2	22.9	0.00e+00	0	38	0	2165309440	38	4130
2026-01-25 04:14:12.17	353.79	63.80	-34.3	-35.1	23.0	0.00e+00	0	38	0	2171600896	38	4096
2026-01-25 04:14:13.16	353.32	64.18	-34.4	-35.3	22.8	0.00e+00	0	38	0	2178940928	38	4159
2026-01-25 04:14:14.16	352.83	64.57	-34.2	-35.1	23.0	0.00e+00	0	38	0	2186280960	38	4064
2026-01-25 04:14:15.15	352.33	64.96	-33.8	-34.6	23.4	0.00e+00	0	38	0	2193620992	38	3826
2026-01-25 04:14:16.15	351.81	65.35	-33.2	-34.0	23.8	0.00e+00	0	38	0	2200961024	37	3812
2026-01-25 04:14:17.14	351.27	65.74	-33.3	-34.1	23.8	0.00e+00	0	38	0	2208301056	37	3854
2026-01-25 04:14:18.14	350.71	66.13	-33.5	-34.4	23.6	0.00e+00	0	38	0	2214592512	37	3960
2026-01-25 04:14:19.13	350.13	66.51	-33.6	-34.5	23.5	0.00e+00	0	38	0	2221932544	37	4005
2026-01-25 04:14:20.12	349.53	66.90	-33.8	-34.6	23.4	0.00e+00	0	38	0	2229272576	37	4066
2026-01-25 04:14:21.12	348.91	67.29	-33.9	-34.7	23.4	0.00e+00	0	38	0	2236612608	37	4134
2026-01-25 04:14:22.11	348.26	67.67	-33.4	-34.2	23.7	0.00e+00	0	38	0	2243952640	37	3896
2026-01-25 04:14:23.11	347.59	68.06	-33.3	-34.1	23.9	0.00e+00	0	38	0	2251292672	37	3842
2026-01-25 04:14:24.10	346.89	68.44	-33.3	-34.1	23.8	0.00e+00	0	38	0	2258632704	37	3838
2026-01-25 04:14:25.10	346.16	68.83	-33.3	-34.1	23.8	0.00e+00	0	38	0	2265972736	37	3857
2026-01-25 04:14:26.09	345.41	69.21	-34.0	-34.9	23.1	0.00e+00	0	38	0	2272264192	37	4217
2026-01-25 04:14:27.09	344.62	69.59	-33.8	-34.7	23.3	0.00e+00	0	38	0	2279604224	37	4109
2026-01-25 04:14:28.08	343.80	69.96	-34.0	-34.8	23.2	0.00e+00	0	38	0	2286944256	37	4182
2026-01-25 04:14:29.08	342.95	70.34	-34.3	-35.2	22.9	0.00e+00	0	38	0	2294284288	38	4112
2026-01-25 04:14:30.07	342.06	70.71	-34.4	-35.3	22.8	0.00e+00	0	38	0	2301624320	38	4163
2026-01-25 04:14:31.07	341.14	71.08	-34.2	-35.0	22.9	0.00e+00	0	38	0	2308964352	38	4045
2026-01-25 04:14:32.06	340.18	71.44	-34.1	-34.9	23.1	0.00e+00	0	38	0	2315255808	38	3996
2026-01-25 04:14:33.06	339.17	71.81	-33.9	-34.7	23.3	0.00e+00	0	38	0	2322595840	38	3909
2026-01-25 04:14:34.05	338.13	72.16	-33.9	-34.7	23.4	0.00e+00	0	38	0	2329935872	38	3879
2026-01-25 04:14:35.04	337.04	72.51	-33.9	-34.8	23.3	0.00e+00	0	38	0	2337275904	38	3916
2026-01-25 04:14:36.04	335.89	72.86	-33.7	-34.5	23.5	0.00e+00	0	38	0	2344615936	38	3789
2026-01-25 04:14:37.04	334.70	73.20	-33.3	-34.0	23.9	0.00e+00	0	38	0	2350907392	37	3824
2026-01-25 04:14:38.03	333.47	73.53	-33.0	-33.8	24.1	0.00e+00	0	38	0	2358247424	36	3926
2026-01-25 04:14:39.02	332.18	73.86	-33.1	-33.8	24.1	0.00e+00	0	38	0	2365587456	36	3958
2026-01-25 04:14:40.02	330.82	74.18	-33.3	-34.1	23.9	0.00e+00	0	38	0	2372927488	36	4054
2026-01-25 04:14:41.01	329.42	74.49	-33.3	-34.1	23.8	0.00e+00	0	38	0	2380267520	36	4091
2026-01-25 04:14:42.01	327.95	74.80	-33.2	-34.0	23.9	0.00e+00	0	38	0	2387607552	36	4012
2026-01-25 04:14:43.00	326.43	75.09	-33.0	-33.8	24.1	0.00e+00	0	38	0	2394947584	36	3943
2026-01-25 04:14:43.99	324.85	75.38	-33.0	-33.8	24.1	0.00e+00	0	38	0	2402287616	36	3936
2026-01-25 04:14:44.99	323.18	75.65	-32.8	-33.6	24.3	0.00e+00	0	38	0	2409627648	36	3837
2026-01-25 04:14:45.98	321.47	75.91	-32.6	-33.4	24.4	0.00e+00	0	38	0	2415919104	36	3769
2026-01-25 04:14:46.98	319.68	76.16	-32.8	-33.6	24.3	0.00e+00	0	38	0	2423259136	36	3835
2026-01-25 04:14:47.97	317.83	76.40	-33.1	-33.9	23.7	0.00e+00	0	38	0	2430599168	36	3963
2026-01-25 04:14:48.97	315.90	76.62	-33.0	-33.8	24.1	0.00e+00	0	38	0	2437939200	36	3954
2026-01-25 04:14:49.96	313.93	76.83	-32.9	-33.7	24.2	0.00e+00	0	38	0	2445279232	36	3906
2026-01-25 04:14:50.95	311.89	77.02	-31.8	-32.6	24.1	0.00e+00	0	38	0	2452619264	34	3835
2026-01-25 04:14:51.95	309.78	77.20	-31.7	-32.5	24.2	0.00e+00	0	38	0	2458910720	34	3801
2026-01-25 04:14:52.94	307.62	77.36	-31.6	-32.4	24.3	0.00e+00	0	38	0	2466250752	33	3991
2026-01-25 04:14:53.93	305.41	77.50	-31.8	-32.6	24.1	0.00e+00	0	38	0	2473590784	33	4096
2026-01-25 04:14:54.93	303.14	77.62	-31.9	-32.7	24.1	0.00e+00	0	38	0	2480930816	33	4102
2026-01-25 04:14:55.92	300.84	77.72	-31.6	-32.4	24.3	0.00e+00	0	38	0	2488270848	33	3969
2026-01-25 04:14:56.92	298.48	77.81	-31.4	-32.2	24.5	0.00e+00	0	38	0	2494562304	33	3890
2026-01-25 04:14:57.91	296.11	77.87	-31.6	-32.4	24.3	0.00e+00	0	38	0	2501902336	33	3964
2026-01-25 04:14:58.91	293.70	77.91	-31.8	-32.6	24.1	0.00e+00	0	38	0	2509242368	33	4085
2026-01-25 04:14:59.90	291.30	77.94	-32.0	-32.8	23.9	0.00e+00	0	38	0	2516582400	33	4182
2026-01-25 04:15:00.90	288.88	77.94	-31.7	-32.5	24.2	0.00e+00	0	38	0	2523922432	33	4020
2026-01-25 04:15:01.89	286.48	77.92	-31.3	-32.1	24.5	0.00e+00	0	38	0	2531262464	33	3851
2026-01-25 04:15:02.89	284.06	77.88	-31.3	-32.1	24.5	0.00e+00	0	38	0	2538602496	33	3844
2026-01-25 04:15:03.88	281.70	77.82	-31.4	-32.2	24.5	0.00e+00	0	38	0	2544893952	33	3875
2026-01-25 04:15:04.88	279.33	77.73	-31.5	-32.3	24.4	0.00e+00	0	38	0	2552233984	33	3921
2026-01-25 04:15:05.87	277.03	77.63	-31.7	-32.5	24.3	0.00e+00	0	38	0	2559574016	33	4019
2026-01-25 04:15:06.87	274.75	77.51	-31.7	-32.5	24.1	0.00e+00	0	38	0	2566914048	33	4025
2026-01-25 04:15:07.86	272.53	77.37	-31.9	-32.7	24.0	0.00e+00	0	38	0	2574254080	33	4131
2026-01-25 04:15:08.86	270.35	77.21	-31.7	-32.5	24.2	0.00e+00	0	38	0	2581594112	33	4021
2026-01-25 04:15:09.85	268.25	77.04	-31.4	-32.2	24.5	0.00e+00	0	38	0	2588934144	33	3883
2026-01-25 04:15:10.85	266.18	76.85	-31.3	-32.1	24.6	0.00e+00	0	38	0	2596274176	33	3833
2026-01-25 04:15:11.84	264.20	76.64	-31.7	-32.5	24.2	0.00e+00	0	38	0	2602565632	33	4038
2026-01-25 04:15:12.84	262.26	76.42	-32.0	-32.8	23.9	0.00e+00	0	38	0	2609905664	33	4193
2026-01-25 04:15:13.83	260.41	76.18	-32.1	-32.9	23.8	0.00e+00	0	38	0	2617245696	34	4004
2026-01-25 04:15:14.82	258.63	75.94	-31.7	-32.5	24.2	0.00e+00	0	38	0	2624585728	34	3809
2026-01-25 04:15:15.82	256.89	75.67	-31.7	-32.4	24.2	0.00e+00	0	38	0	2631925760	34	3780
2026-01-25 04:15:16.81	255.24	75.40	-32.1	-32.9	23.8	0.00e+00	0	38	0	2638217216	34	3988
2026-01-25 04:15:17.80	253.65	75.12	-32.4	-33.2	23.6	0.00e+00	0	38	0	2645557248	34	4126
2026-01-25 04:15:18.80	252.10	74.82	-32.4	-33.2	23.6	0.00e+00	0	38	0	2652897280	34	4111
2026-01-25 04:15:19.79	250.64	74.52	-32.5	-33.3	23.5	0.00e+00	0	38	0	2660237312	34	4191
2026-01-25 04:15:20.79	249.22	74.21	-32.4	-33.2	23.6	0.00e+00	0	38	0	2667577344	34	4135
2026-01-25 04:15:21.78	247.87	73.89	-32.4	-33.3	23.6	0.00e+00	0	38	0	2674917376	34	4150
2026-01-25 04:15:22.78	246.56	73.56	-32.2	-33.0	23.8	0.00e+00	0	38	0	2681208832	34	4024
2026-01-25 04:15:23.77	245.32	73.23	-32.4	-33.2	23.6	0.00e+00	0	38	0	2688548864	34	4117
2026-01-25 04:15:24.77	244.12	72.88	-32.7	-33.5	23.3	0.00e+00	0	38	0	2695888896	34	4287
2026-01-25 04:15:25.76	242.98	72.54	-33.0	-33.8	23.1	0.00e+00	0	38	0	2703228928	35	4163
2026-01-25 04:15:26.76	241.88	72.19	-32.9	-33.8	23.1	0.00e+00	0	38	0	2710568960	35	4149
2026-01-25 04:15:27.75	240.83	71.83	-32.8	-33.6	23.3	0.00e+00	0	38	0	2717908992	35	4082
2026-01-25 04:15:28.75	239.82	71.47	-32.7	-33.5	23.3	0.00e+00	0	38	0	2725249024	35	4050
2026-01-25 04:15:29.74	238.86	71.10	-33.0	-33.8	23.1	0.00e+00	0	38	0	2732589056	35	4176
2026-01-25 04:15:30.73	237.93	70.74	-33.1	-33.9	22.9	0.00e+00	0	38	0	2738880512	35	4217
2026-01-25 04:15:31.73	237.04	70.36	-33.2	-34.0	22.8	0.00e+00	0	38	0	2746220544	35	4275
2026-01-25 04:15:32.72	236.19	69.99	-33.0	-33.8	22.4	0.00e+00	0	38	0	2753560576	35	4186
2026-01-25 04:15:33.72	235.36	69.61	-32.7	-33.5	23.3	0.00e+00	0	38	0	2760900608	35	4046
2026-01-25 04:15:34.71	234.57	69.23	-32.6	-33.4	23.4	0.00e+00	0	38	0	2768240640	35	3992
2026-01-25 04:15:35.71	233.81	68.85	-33.0	-33.9	22.8	0.00e+00	0	38	0	2775580672	35	4222
2026-01-25 04:15:36.70	233.08	68.47	-33.1	-33.9	22.9	0.00e+00	0	38	0	2781872128	35	4214
2026-01-25 04:15:37.70	232.38	68.08	-33.1	-33.9	23.0	0.00e+00	0	38	0	2789212160	35	4242
2026-01-25 04:15:38.69	231.71	67.70	-33.0	-33.8	23.1	0.00e+00	0	38	0	2796552192	35	4182
2026-01-25 04:15:39.69	231.05	67.31	-32.7	-33.5	23.3	0.00e+00	0	38	0	2803892224	35	4040
2026-01-25 04:15:40.68	230.43	66.92	-32.6	-33.5	23.4	0.00e+00	0	38	0	2811232256	35	4010
2026-01-25 04:15:41.68	229.82	66.53	-32.9	-33.7	23.1	0.00e+00	0	38	0	2818572288	35	4144
2026-01-25 04:15:42.67	229.24	66.14	-34.1	-35.0	22.7	0.00e+00	0	38	0	2824863744	37	4265
2026-01-25 04:15:43.67	228.68	65.75	-34.3	-35.2	22.9	0.00e+00	0	38	0	2832203776	38	4116
2026-01-25 04:15:44.66	228.14	65.36	-34.2	-35.0	23.1	0.00e+00	0	38	0	2839543808	38	4047
2026-01-25 04:15:45.66	227.61	64.97	-34.1	-35.0	23.1	0.00e+00	0	38	0	2846883840	38	4005
2026-01-25 04:15:46.65	227.11	64.59	-34.1	-35.0	23.0	0.00e+00	0	38	0	2854223872	38	4011
2026-01-25 04:15:47.65	226.62	64.19	-34.3	-35.2	22.9	0.00e+00	0	38	0	2861563904	38	4117
2026-01-25 04:15:48.65	226.14	63.80	-34.5	-35.4	22.8	0.00e+00	0	38	0	2868903936	38	4195
2026-01-25 04:15:49.64	225.69	63.42	-34.8	-35.7	22.5	0.00e+00	0	38	0	2876243968	39	4111
2026-01-25 04:15:50.63	225.25	63.03	-34.8	-35.7	22.5	0.00e+00	0	38	0	2882535424	39	4124
2026-01-25 04:15:51.63	224.82	62.64	-34.9	-35.7	22.5	0.00e+00	0	38	0	2889875456	39	4142
2026-01-25 04:15:52.62	224.41	62.26	-34.6	-35.4	22.7	0.00e+00	0	38	0	2897215488	39	4004
2026-01-25 04:15:53.62	224.01	61.87	-34.6	-35.4	22.8	0.00e+00	0	38	0	2904555520	39	3989
2026-01-25 04:15:54.61	223.62	61.49	-34.7	-35.5	22.6	0.00e+00	0	38	0	2911895552	39	4024
2026-01-25 04:15:55.61	223.24	61.10	-34.8	-35.6	22.6	0.00e+00	0	38	0	2919235584	39	4074
2026-01-25 04:15:56.60	222.88	60.72	-34.9	-35.7	22.5	0.00e+00	0	38	0	2925527040	39	4123
2026-01-25 04:15:57.60	222.52	60.34	-34.8	-35.6	22.4	0.00e+00	0	38	0	2932867072	39	4092
2026-01-25 04:15:58.59	222.18	59.96	-34.7	-35.6	22.4	0.00e+00	0	38	0	2940207104	39	4065
2026-01-25 04:15:59.59	221.85	59.58	-34.9	-35.7	22.4	0.00e+00	0	38	0	2947547136	39	4136
2026-01-25 04:16:00.59	221.52	59.21	-35.2	-36.0	22.2	0.00e+00	0	38	0	2954887168	39	4283
2026-01-25 04:16:01.58	221.21	58.83	-35.3	-36.2	21.9	0.00e+00	0	38	0	2962227200	40	4120
2026-01-25 04:16:02.58	220.90	58.46	-35.3	-36.2	22.0	0.00e+00	0	38	0	2968518656	40	4125
2026-01-25 04:16:03.57	220.60	58.09	-34.9	-35.8	22.1	0.00e+00	0	38	0	2975858688	40	3937
2026-01-25 04:16:04.57	220.31	57.72	-34.6	-35.4	22.6	0.00e+00	0	38	0	2983198720	40	3763
2026-01-25 04:16:05.56	220.03	57.35	-34.7	-35.5	22.6	0.00e+00	0	38	0	2990538752	39	4032
2026-01-25 04:16:06.56	219.76	56.98	-34.8	-35.7	22.5	0.00e+00	0	38	0	2997878784	39	4133
2026-01-25 04:16:07.55	219.49	56.62	-35.2	-36.1	22.0	0.00e+00	0	38	0	3005218816	39	4300
2026-01-25 04:16:08.55	219.23	56.25	-35.3	-36.2	22.0	0.00e+00	0	38	0	3012558848	40	4111
2026-01-25 04:16:09.54	218.98	55.89	-35.2	-36.1	22.0	0.00e+00	0	38	0	3019898880	40	4091
2026-01-25 04:16:10.54	218.73	55.53	-35.2	-36.0	22.0	0.00e+00	0	38	0	3026190336	40	4051
2026-01-25 04:16:11.53	218.50	55.17	-34.6	-35.5	22.6	0.00e+00	0	38	0	3033530368	40	3793
2026-01-25 04:16:12.53	218.26	54.82	-34.7	-35.6	22.6	0.00e+00	0	38	0	3040870400	39	4059
2026-01-25 04:16:13.52	218.03	54.46	-34.8	-35.7	22.5	0.00e+00	0	38	0	3048210432	39	4100
2026-01-25 04:16:14.51	217.81	54.11	-35.0	-35.9	22.3	0.00e+00	0	38	0	3055550464	39	4213
2026-01-25 04:16:15.51	217.60	53.76	-35.2	-36.0	22.1	0.00e+00	0	38	0	3062890496	39	4287
2026-01-25 04:16:16.51	217.38	53.41	-35.1	-36.0	22.0	0.00e+00	0	38	0	3069181952	39	4267
2026-01-25 04:16:17.50	217.18	53.07	-35.2	-36.1	22.0	0.00e+00	0	38	0	3076521984	40	4084
2026-01-25 04:16:18.50	216.97	52.72	-35.2	-36.1	22.0	0.00e+00	0	38	0	3083862016	40	4070
2026-01-25 04:16:19.49	216.78	52.38	-35.3	-36.2	21.8	0.00e+00	0	38	0	3091202048	40	4133
2026-01-25 04:16:20.49	216.58	52.04	-35.4	-36.3	21.9	0.00e+00	0	38	0	3098542080	40	4167
2026-01-25 04:16:21.48	216.40	51.70	-35.1	-36.0	21.8	0.00e+00	0	38	0	3105882112	40	4018
2026-01-25 04:16:22.48	216.21	51.36	-35.1	-35.9	22.1	0.00e+00	0	38	0	3112173568	40	3999
2026-01-25 04:16:23.48	216.03	51.03	-34.8	-35.7	22.4	0.00e+00	0	38	0	3119513600	40	3894
2026-01-25 04:16:24.47	215.86	50.70	-34.8	-35.6	22.4	0.00e+00	0	38	0	3126853632	40	3851
2026-01-25 04:16:25.46	215.69	50.37	-34.9	-35.7	22.4	0.00e+00	0	38	0	3134193664	40	3903
2026-01-25 04:16:26.46	215.52	50.04	-34.6	-35.4	22.2	0.00e+00	0	38	0	3141533696	40	3765
2026-01-25 04:16:27.45	215.35	49.72	-35.0	-35.8	22.3	0.00e+00	0	38	0	3148873728	40	3954
2026-01-25 04:16:28.44	215.19	49.39	-35.0	-35.8	22.3	0.00e+00	0	38	0	3156213760	40	3946
2026-01-25 04:16:29.44	215.04	49.07	-34.9	-35.8	22.3	0.00e+00	0	38	0	3163553792	40	3916
2026-01-25 04:16:30.43	214.88	48.75	-34.8	-35.7	22.4	0.00e+00	0	38	0	3169845248	40	3886
2026-01-25 04:16:31.43	214.73	48.43	-34.7	-35.5	22.5	0.00e+00	0	38	0	3177185280	40	3815
2026-01-25 04:16:32.42	214.58	48.12	-34.6	-35.5	22.7	0.00e+00	0	38	0	3184525312	39	4017
2026-01-25 04:16:33.42	214.44	47.80	-34.8	-35.6	22.5	0.00e+00	0	38	0	3191865344	39	4091
2026-01-25 04:16:34.41	214.30	47.49	-34.5	-35.4	22.7	0.00e+00	0	38	0	3199205376	39	3969
2026-01-25 04:16:35.41	214.16	47.18	-34.4	-35.3	22.8	0.00e+00	0	38	0	3206545408	39	3929
2026-01-25 04:16:36.40	214.02	46.88	-34.5	-35.4	22.8	0.00e+00	0	38	0	3212836864	39	3963
2026-01-25 04:16:37.40	213.89	46.57	-34.5	-35.4	22.7	0.00e+00	0	38	0	3220176896	39	3977
2026-01-25 04:16:38.39	213.76	46.27	-34.6	-35.5	22.6	0.00e+00	0	38	0	3227516928	39	4025
2026-01-25 04:16:39.39	213.63	45.97	-34.5	-35.3	22.6	0.00e+00	0	38	0	3234856960	39	3958
2026-01-25 04:16:40.38	213.50	45.67	-34.4	-35.2	22.8	0.00e+00	0	38	0	3242196992	39	3903
2026-01-25 04:16:41.38	213.38	45.37	-34.3	-35.1	23.0	0.00e+00	0	38	0	3249537024	39	3850
2026-01-25 04:16:42.37	213.26	45.08	-34.2	-35.0	23.0	0.00e+00	0	38	0	3255828480	39	3814
2026-01-25 04:16:43.37	213.14	44.78	-34.2	-35.0	23.0	0.00e+00	0	38	0	3263168512	39	3800
2026-01-25 04:16:44.36	213.02	44.50	-34.0	-34.9	23.1	0.00e+00	0	38	0	3270508544	38	3964
2026-01-25 04:16:45.36	212.91	44.20	-33.9	-34.8	23.3	0.00e+00	0	38	0	3277848576	38	3926
2026-01-25 04:16:46.35	212.80	43.92	-33.9	-34.7	23.4	0.00e+00	0	38	0	3285188608	38	3886
2026-01-25 04:16:47.35	212.69	43.63	-33.7	-34.6	23.2	0.00e+00	0	38	0	3292528640	37	4060
2026-01-25 04:16:48.35	212.58	43.35	-33.8	-34.6	23.4	0.00e+00	0	38	0	3299868672	37	4080
2026-01-25 04:16:49.34	212.47	43.07	-33.6	-34.4	23.3	0.00e+00	0	38	0	3307208704	37	3971
2026-01-25 04:16:50.34	212.37	42.79	-33.6	-34.4	23.5	0.00e+00	0	38	0	3313500160	37	3984
2026-01-25 04:16:51.33	212.26	42.51	-33.6	-34.4	23.5	0.00e+00	0	38	0	3320840192	37	4001
2026-01-25 04:16:52.33	212.16	42.24	-33.5	-34.4	23.4	0.00e+00	0	38	0	3328180224	37	3962
2026-01-25 04:16:53.32	212.06	41.97	-33.6	-34.5	23.5	0.00e+00	0	38	0	3335520256	37	4017
2026-01-25 04:16:54.32	211.97	41.69	-33.8	-34.6	23.4	0.00e+00	0	38	0	3342860288	37	4074
2026-01-25 04:16:55.31	211.87	41.42	-33.8	-34.6	23.3	0.00e+00	0	38	0	3350200320	37	4098
2026-01-25 04:16:56.31	211.78	41.16	-33.9	-34.8	23.2	0.00e+00	0	38	0	3356491776	37	4162
2026-01-25 04:16:57.30	211.68	40.89	-33.9	-34.8	23.0	0.00e+00	0	38	0	3363831808	37	4167
2026-01-25 04:16:58.30	211.59	40.63	-34.0	-34.9	23.1	0.00e+00	0	38	0	3371171840	37	4211
2026-01-25 04:16:59.29	211.50	40.37	-34.0	-34.8	23.1	0.00e+00	0	38	0	3378511872	37	4191
2026-01-25 04:17:00.29	211.42	40.10	-34.0	-34.8	23.1	0.00e+00	0	38	0	3385851904	37	4191
2026-01-25 04:17:01.28	211.33	39.85	-34.1	-34.9	23.0	0.00e+00	0	38	0	3393191936	37	4221
2026-01-25 04:17:02.28	211.24	39.59	-34.1	-35.0	23.0	0.00e+00	0	38	0	3399483392	37	4245
2026-01-25 04:17:03.27	211.16	39.34	-34.1	-34.9	22.9	0.00e+00	0	38	0	3406823424	37	4233
2026-01-25 04:17:04.27	211.08	39.08	-34.2	-35.0	23.0	0.00e+00	0	38	0	3414163456	38	4031
2026-01-25 04:17:05.26	211.00	38.83	-34.2	-35.0	23.0	0.00e+00	0	38	0	3421503488	38	4030
2026-01-25 04:17:06.26	210.92	38.58	-34.0	-34.8	23.2	0.00e+00	0	38	0	3428843520	38	3935
2026-01-25 04:17:07.25	210.84	38.34	-33.9	-34.8	23.2	0.00e+00	0	38	0	3436183552	38	3923
2026-01-25 04:17:08.25	210.76	38.09	-33.8	-34.6	23.3	0.00e+00	0	38	0	3443523584	38	3837
2026-01-25 04:17:09.24	210.68	37.85	-33.6	-34.4	23.5	0.00e+00	0	38	0	3450863616	37	3983
2026-01-25 04:17:10.24	210.61	37.60	-33.6	-34.4	23.5	0.00e+00	0	38	0	3457155072	37	3983
2026-01-25 04:17:11.23	210.54	37.36	-33.5	-34.3	23.6	0.00e+00	0	38	0	3464495104	37	3935
2026-01-25 04:17:12.22	210.46	37.12	-33.6	-34.4	23.6	0.00e+00	0	38	0	3471835136	37	3972
2026-01-25 04:17:13.22	210.39	36.89	-33.5	-34.3	23.6	0.00e+00	0	38	0	3479175168	37	3920
2026-01-25 04:17:14.21	210.32	36.65	-33.5	-34.3	23.6	0.00e+00	0	38	0	3486515200	37	3924
2026-01-25 04:17:15.21	210.25	36.42	-33.5	-34.4	23.6	0.00e+00	0	38	0	3493855232	37	3966
2026-01-25 04:17:16.20	210.18	36.19	-33.4	-34.2	23.6	0.00e+00	0	38	0	3500146688	37	3911
2026-01-25 04:17:17.19	210.12	35.96	-33.4	-34.2	23.7	0.00e+00	0	38	0	3507486720	37	3910
2026-01-25 04:17:18.19	210.05	35.73	-33.4	-34.3	22.8	0.00e+00	0	38	0	3514826752	37	3920
2026-01-25 04:17:19.18	209.98	35.50	-33.2	-34.0	23.9	0.00e+00	0	38	0	3522166784	37	3785
2026-01-25 04:17:20.18	209.92	35.27	-33.1	-33.9	24.0	0.00e+00	0	38	0	3529506816	36	3971
2026-01-25 04:17:21.17	209.86	35.05	-33.1	-33.9	23.9	0.00e+00	0	38	0	3536846848	36	3988
2026-01-25 04:17:22.17	209.79	34.82	-32.9	-33.7	24.0	0.00e+00	0	38	0	3543138304	36	3901
2026-01-25 04:17:23.16	209.73	34.60	-32.9	-33.7	24.0	0.00e+00	0	38	0	3550478336	36	3892
2026-01-25 04:17:24.16	209.67	34.38	-33.0	-33.7	24.0	0.00e+00	0	38	0	3557818368	36	3913
2026-01-25 04:17:25.16	209.61	34.16	-33.0	-33.8	24.0	0.00e+00	0	38	0	3565158400	36	3950
2026-01-25 04:17:26.15	209.55	33.95	-33.2	-34.0	23.8	0.00e+00	0	38	0	3572498432	36	4009
2026-01-25 04:17:27.15	209.49	33.73	-33.3	-34.1	23.7	0.00e+00	0	38	0	3579838464	36	4068
2026-01-25 04:17:28.14	209.43	33.52	-33.3	-34.1	23.8	0.00e+00	0	38	0	3587178496	36	4061
2026-01-25 04:17:29.13	209.38	33.31	-33.3	-34.1	23.7	0.00e+00	0	38	0	3593469952	36	4090
2026-01-25 04:17:30.13	209.32	33.09	-33.3	-34.2	23.6	0.00e+00	0	38	0	3600809984	36	4110
2026-01-25 04:17:31.12	209.27	32.89	-33.5	-34.3	23.6	0.00e+00	0	38	0	3608150016	36	4169
2026-01-25 04:17:32.12	209.21	32.68	-33.4	-34.2	23.6	0.00e+00	0	38	0	3615490048	36	4142
2026-01-25 04:17:33.11	209.16	32.47	-33.4	-34.2	23.7	0.00e+00	0	38	0	3622830080	36	4125
2026-01-25 04:17:34.11	209.10	32.26	-33.3	-34.1	23.7	0.00e+00	0	38	0	3630170112	36	4091
2026-01-25 04:17:35.10	209.05	32.06	-33.3	-34.1	23.7	0.00e+00	0	38	0	3637510144	36	4080
2026-01-25 04:17:36.10	209.00	31.86	-33.3	-34.1	23.8	0.00e+00	0	38	0	3643801600	36	4068
2026-01-25 04:17:37.10	208.95	31.65	-33.3	-34.1	23.7	0.00e+00	0	38	0	3651141632	36	4072
2026-01-25 04:17:38.09	208.90	31.46	-33.3	-34.1	23.7	0.00e+00	0	38	0	3658481664	36	4088
2026-01-25 04:17:39.08	208.85	31.26	-33.2	-34.0	22.7	0.00e+00	0	38	0	3665821696	36	4050
2026-01-25 04:17:40.08	208.80	31.06	-33.4	-34.2	23.7	0.00e+00	0	38	0	3673161728	36	4106
2026-01-25 04:17:41.07	208.75	30.86	-33.4	-34.2	23.6	0.00e+00	0	38	0	3680501760	36	4141
2026-01-25 04:17:42.07	208.70	30.67	-33.5	-34.3	23.6	0.00e+00	0	38	0	3686793216	36	4166
2026-01-25 04:17:43.06	208.65	30.48	-33.5	-34.4	23.5	0.00e+00	0	38	0	3694133248	36	4196
2026-01-25 04:17:44.05	208.61	30.28	-33.7	-34.5	23.4	0.00e+00	0	38	0	3701473280	36	4259
2026-01-25 04:17:45.05	208.56	30.09	-33.6	-34.5	23.3	0.00e+00	0	38	0	3708813312	36	4247
2026-01-25 04:17:46.05	208.52	29.90	-33.7	-34.5	23.4	0.00e+00	0	38	0	3716153344	36	4263
2026-01-25 04:17:47.04	208.47	29.71	-33.7	-34.6	23.3	0.00e+00	0	38	0	3723493376	36	4292
2026-01-25 04:17:48.03	208.43	29.53	-33.7	-34.6	23.4	0.00e+00	0	38	0	3729784832	36	4303
2026-01-25 04:17:49.03	208.38	29.34	-33.7	-34.6	23.4	0.00e+00	0	38	0	3737124864	36	4293
2026-01-25 04:17:50.02	208.34	29.16	-33.7	-34.6	23.3	0.00e+00	0	38	0	3744464896	36	4301
2026-01-25 04:17:51.02	208.30	28.97	-33.7	-34.5	23.3	0.00e+00	0	38	0	3751804928	36	4263
2026-01-25 04:17:52.01	208.25	28.79	-33.7	-34.6	23.3	0.00e+00	0	38	0	3759144960	36	4300
2026-01-25 04:17:53.01	208.21	28.61	-33.7	-34.6	23.4	0.00e+00	0	38	0	3766484992	36	4292
2026-01-25 04:17:54.00	208.17	28.43	-33.7	-34.5	23.4	0.00e+00	0	38	0	3773825024	36	4284
2026-01-25 04:17:55.00	208.13	28.25	-33.8	-34.6	23.3	0.00e+00	0	38	0	3781165056	36	4309
2026-01-25 04:17:55.99	208.09	28.07	-33.7	-34.6	23.3	0.00e+00	0	38	0	3787456512	37	4058
2026-01-25 04:17:56.99	208.05	27.89	-33.8	-34.6	23.2	0.00e+00	0	38	0	3794796544	37	4084
2026-01-25 04:17:57.98	208.01	27.72	-33.8	-34.6	23.3	0.00e+00	0	38	0	3802136576	37	4069
2026-01-25 04:17:58.98	207.97	27.54	-33.7	-34.6	23.3	0.00e+00	0	38	0	3809476608	37	4058
2026-01-25 04:17:59.97	207.93	27.37	-33.8	-34.6	22.7	0.00e+00	0	38	0	3816816640	37	4079
2026-01-25 04:18:00.97	207.89	27.20	-33.8	-34.6	23.2	0.00e+00	0	38	0	3823108096	37	4086
2026-01-25 04:18:01.96	207.86	27.03	-33.9	-34.7	23.2	0.00e+00	0	38	0	3830448128	37	4112
2026-01-25 04:18:02.96	207.82	26.86	-33.9	-34.8	23.1	0.00e+00	0	38	0	3837788160	37	4159
2026-01-25 04:18:03.95	207.78	26.69	-33.9	-34.7	23.2	0.00e+00	0	38	0	3845128192	37	4135
2026-01-25 04:18:04.95	207.75	26.52	-33.9	-34.7	23.1	0.00e+00	0	38	0	3852468224	37	4143
2026-01-25 04:18:05.94	207.71	26.35	-34.1	-34.9	23.0	0.00e+00	0	38	0	3859808256	37	4219
2026-01-25 04:18:06.94	207.67	26.19	-34.0	-34.8	23.1	0.00e+00	0	38	0	3866099712	37	4178
2026-01-25 04:18:07.93	207.64	26.02	-34.0	-34.9	23.0	0.00e+00	0	38	0	3873439744	37	4205
2026-01-25 04:18:08.92	207.61	25.86	-34.0	-34.9	23.0	0.00e+00	0	38	0	3880779776	37	4210
2026-01-25 04:18:09.92	207.57	25.69	-34.2	-35.0	22.9	0.00e+00	0	38	0	3888119808	37	4264
2026-01-25 04:18:10.91	207.54	25.53	-34.2	-35.0	22.8	0.00e+00	0	38	0	3895459840	37	4282
2026-01-25 04:18:11.91	207.50	25.37	-34.1	-34.9	22.9	0.00e+00	0	38	0	3902799872	37	4240
2026-01-25 04:18:12.90	207.47	25.21	-34.1	-34.9	23.0	0.00e+00	0	38	0	3910139904	37	4208
2026-01-25 04:18:13.90	207.44	25.05	-34.1	-34.9	22.9	0.00e+00	0	38	0	3917479936	37	4235
2026-01-25 04:18:14.90	207.40	24.89	-34.1	-35.0	22.9	0.00e+00	0	38	0	3924819968	37	4254
2026-01-25 04:18:15.89	207.37	24.74	-34.2	-35.0	22.9	0.00e+00	0	38	0	3931111424	37	4277
2026-01-25 04:18:16.88	207.34	24.58	-34.1	-35.0	23.0	0.00e+00	0	38	0	3938451456	37	4254
2026-01-25 04:18:17.88	207.31	24.42	-34.1	-35.0	23.0	0.00e+00	0	38	0	3945791488	37	4243
2026-01-25 04:18:18.87	207.28	24.27	-34.1	-35.0	23.0	0.00e+00	0	38	0	3953131520	37	4250
2026-01-25 04:18:19.87	207.25	24.11	-34.2	-35.0	22.9	0.00e+00	0	38	0	3960471552	37	4260
2026-01-25 04:18:20.86	207.22	23.96	-34.1	-35.0	22.9	0.00e+00	0	38	0	3966763008	37	4254
2026-01-25 04:18:21.86	207.19	23.81	-34.2	-35.0	22.9	0.00e+00	0	38	0	3974103040	37	4290
2026-01-25 04:18:22.85	207.16	23.66	-34.1	-35.0	22.9	0.00e+00	0	38	0	3981443072	37	4260
2026-01-25 04:18:23.82	207.13	23.51	-34.2	-35.1	22.9	0.00e+00	0	38	0	3988783104	37	4299
2026-01-25 04:18:24.82	207.10	23.36	-34.3	-35.1	22.8	0.00e+00	0	38	0	3996123136	38	4093
2026-01-25 04:18:25.82	207.07	23.21	-34.3	-35.1	22.8	0.00e+00	0	38	0	4003463168	38	4071
2026-01-25 04:18:26.81	207.04	23.07	-34.4	-35.2	22.7	0.00e+00	0	38	0	4009754624	38	4133
2026-01-25 04:18:27.81	207.01	22.92	-34.3	-35.2	22.7	0.00e+00	0	38	0	4017094656	38	4119
2026-01-25 04:18:28.80	206.98	22.77	-34.4	-35.2	22.7	0.00e+00	0	38	0	4024434688	38	4141
2026-01-25 04:18:29.80	206.96	22.63	-34.4	-35.2	22.6	0.00e+00	0	38	0	4031774720	38	4119
2026-01-25 04:18:30.80	206.93	22.48	-34.5	-35.4	22.6	0.00e+00	0	38	0	4039114752	38	4201
2026-01-25 04:18:31.79	206.90	22.34	-34.4	-35.3	22.7	0.00e+00	0	38	0	4046454784	38	4165
2026-01-25 04:18:32.79	206.87	22.20	-34.5	-35.3	22.6	0.00e+00	0	38	0	4053794816	38	4187
2026-01-25 04:18:33.78	206.85	22.05	-34.5	-35.4	22.5	0.00e+00	0	38	0	4061134848	38	4218
2026-01-25 04:18:34.78	206.82	21.91	-34.5	-35.4	22.5	0.00e+00	0	38	0	4068474880	38	4208
2026-01-25 04:18:35.77	206.80	21.77	-34.6	-35.4	22.5	0.00e+00	0	38	0	4074766336	38	4224
2026-01-25 04:18:36.77	206.77	21.63	-34.5	-35.4	22.6	0.00e+00	0	38	0	4082106368	38	4194
2026-01-25 04:18:37.77	206.74	21.49	-34.5	-35.3	22.6	0.00e+00	0	38	0	4089446400	38	4179
2026-01-25 04:18:38.76	206.72	21.36	-34.5	-35.3	22.6	0.00e+00	0	38	0	4096786432	38	4178
2026-01-25 04:18:39.76	206.69	21.22	-34.5	-35.3	22.6	0.00e+00	0	38	0	4104126464	38	4193
2026-01-25 04:18:40.75	206.67	21.08	-34.5	-35.4	22.5	0.00e+00	0	38	0	4110417920	38	4211
2026-01-25 04:18:41.75	206.64	20.94	-34.7	-35.6	22.3	0.00e+00	0	38	0	4117757952	38	4309
2026-01-25 04:18:42.74	206.62	20.81	-34.6	-35.4	22.4	0.00e+00	0	38	0	4125097984	38	4241
2026-01-25 04:18:43.74	206.59	20.67	-34.5	-35.3	22.6	0.00e+00	0	38	0	4132438016	38	4187
2026-01-25 04:18:44.73	206.57	20.54	-34.5	-35.4	22.5	0.00e+00	0	38	0	4139778048	38	4208
2026-01-25 04:18:45.72	206.55	20.41	-34.5	-35.4	22.5	0.00e+00	0	38	0	4147118080	38	4203
2026-01-25 04:18:46.72	206.52	20.28	-34.5	-35.3	22.6	0.00e+00	0	38	0	4154458112	38	4183
2026-01-25 04:18:47.71	206.50	20.15	-34.6	-35.4	22.5	0.00e+00	0	38	0	4160749568	38	4239
2026-01-25 04:18:48.71	206.48	20.01	-34.5	-35.4	22.5	0.00e+00	0	38	0	4168089600	38	4223
2026-01-25 04:18:49.70	206.46	19.88	-34.5	-35.4	22.6	0.00e+00	0	38	0	4175429632	38	4202
2026-01-25 04:18:50.70	206.43	19.75	-34.5	-35.3	22.6	0.00e+00	0	38	0	4182769664	38	4181
2026-01-25 04:18:51.69	206.41	19.63	-34.6	-35.5	22.5	0.00e+00	0	38	0	4190109696	38	4245
2026-01-25 04:18:52.69	206.39	19.50	-34.6	-35.5	22.4	0.00e+00	0	38	0	4197449728	38	4247
2026-01-25 04:18:53.68	206.37	19.37	-34.7	-35.5	22.4	0.00e+00	0	38	0	4204789760	38	4288
2026-01-25 04:18:54.68	206.34	19.24	-34.7	-35.6	22.3	0.00e+00	0	38	0	4212129792	38	4308
2026-01-25 04:18:55.67	206.32	19.12	-34.8	-35.6	22.2	0.00e+00	0	38	0	4218421248	39	4086
2026-01-25 04:18:56.67	206.30	18.99	-34.8	-35.6	22.2	0.00e+00	0	38	0	4225761280	39	4094
2026-01-25 04:18:57.66	206.28	18.86	-34.8	-35.7	22.2	0.00e+00	0	38	0	4233101312	39	4107
2026-01-25 04:18:58.65	206.26	18.74	-34.9	-35.7	22.2	0.00e+00	0	38	0	4240441344	39	4138
2026-01-25 04:18:59.65	206.24	18.62	-35.0	-35.8	22.0	0.00e+00	0	38	0	4247781376	39	4191
2026-01-25 04:19:00.64	206.22	18.49	-34.9	-35.8	22.1	0.00e+00	0	38	0	4254072832	39	4171
2026-01-25 04:19:01.64	206.20	18.37	-35.0	-35.9	22.0	0.00e+00	0	38	0	4261412864	39	4207
2026-01-25 04:19:02.63	206.18	18.25	-35.1	-36.0	21.9	0.00e+00	0	38	0	4268752896	39	4263
2026-01-25 04:19:03.63	206.16	18.13	-35.1	-36.0	21.9	0.00e+00	0	38	0	4276092928	39	4260
2026-01-25 04:19:04.62	206.14	18.01	-35.2	-36.1	21.8	0.00e+00	0	38	0	4283432960	40	4063
2026-01-25 04:19:05.62	206.12	17.89	-35.2	-36.1	21.7	0.00e+00	0	38	0	4290772992	40	4079
2026-01-25 04:19:06.62	206.10	17.77	-35.3	-36.2	21.6	0.00e+00	0	38	0	4298113024	40	4137
2026-01-25 04:19:07.61	206.08	17.65	-35.3	-36.2	21.6	0.00e+00	0	38	0	4304404480	40	4130
2026-01-25 04:19:08.61	206.06	17.53	-35.3	-36.2	21.7	0.00e+00	0	38	0	4311744512	40	4115
2026-01-25 04:19:09.60	206.04	17.41	-35.3	-36.2	21.7	0.00e+00	0	38	0	4319084544	40	4122
2026-01-25 04:19:10.60	206.02	17.29	-35.4	-36.4	21.5	0.00e+00	0	38	0	4326424576	40	4195
2026-01-25 04:19:11.59	206.00	17.18	-35.5	-36.4	21.5	0.00e+00	0	38	0	4333764608	40	4215
2026-01-25 04:19:12.59	205.98	17.06	-35.4	-36.3	21.5	0.00e+00	0	38	0	4341104640	40	4175
2026-01-25 04:19:13.58	205.97	16.94	-35.5	-36.4	21.5	0.00e+00	0	38	0	4348444672	40	4224
2026-01-25 04:19:14.58	205.95	16.83	-35.6	-36.5	21.4	0.00e+00	0	38	0	4355784704	40	4263
2026-01-25 04:19:15.57	205.93	16.71	-35.6	-36.5	21.3	0.00e+00	0	38	0	4362076160	40	4290
2026-01-25 04:19:16.57	205.91	16.60	-35.7	-36.6	21.3	0.00e+00	0	38	0	4369416192	40	4315
2026-01-25 04:19:17.56	205.90	16.49	-35.6	-36.5	21.3	0.00e+00	0	38	0	4376756224	40	4267
2026-01-25 04:19:18.56	205.88	16.37	-35.6	-36.5	21.3	0.00e+00	0	38	0	4384096256	40	4272
2026-01-25 04:19:19.55	205.86	16.26	-35.6	-36.5	21.3	0.00e+00	0	38	0	4391436288	40	4270
2026-01-25 04:19:20.54	205.84	16.15	-35.7	-36.6	21.2	0.00e+00	0	38	0	4397727744	40	4311
2026-01-25 04:19:21.54	205.83	16.04	-35.7	-36.6	21.2	0.00e+00	0	38	0	4405067776	40	4327
2026-01-25 04:19:22.53	205.81	15.93	-35.7	-36.6	21.2	0.00e+00	0	38	0	4412407808	41	4093
2026-01-25 04:19:23.53	205.79	15.82	-35.7	-36.6	21.1	0.00e+00	0	38	0	4419747840	41	4095
2026-01-25 04:19:24.52	205.78	15.71	-35.7	-36.6	21.2	0.00e+00	0	38	0	4427087872	41	4094
2026-01-25 04:19:25.52	205.76	15.60	-35.8	-36.7	21.1	0.00e+00	0	38	0	4434427904	41	4109
2026-01-25 04:19:26.51	205.74	15.49	-35.7	-36.6	21.2	0.00e+00	0	38	0	4440719360	41	4086
2026-01-25 04:19:27.51	205.73	15.38	-35.7	-36.6	21.1	0.00e+00	0	38	0	4448059392	41	4096
2026-01-25 04:19:28.50	205.71	15.27	-35.8	-36.7	21.1	0.00e+00	0	38	0	4455399424	41	4113
2026-01-25 04:19:29.50	205.69	15.16	-35.8	-36.7	21.1	0.00e+00	0	38	0	4462739456	41	4131
2026-01-25 04:19:30.49	205.68	15.06	-35.7	-36.7	21.1	0.00e+00	0	38	0	4470079488	41	4105
2026-01-25 04:19:31.48	205.66	14.95	-35.8	-36.7	21.1	0.00e+00	0	38	0	4477419520	41	4106
2026-01-25 04:19:32.48	205.65	14.84	-35.8	-36.8	21.1	0.00e+00	0	38	0	4484759552	41	4149
2026-01-25 04:19:33.47	205.63	14.74	-35.8	-36.7	21.1	0.00e+00	0	38	0	4492099584	41	4136
2026-01-25 04:19:34.47	205.62	14.63	-35.8	-36.8	21.1	0.00e+00	0	38	0	4499439616	41	4152
2026-01-25 04:19:35.46	205.60	14.53	-35.8	-36.8	21.0	0.00e+00	0	38	0	4505731072	41	4161
2026-01-25 04:19:36.46	205.59	14.42	-35.9	-36.8	21.0	0.00e+00	0	38	0	4513071104	41	4156
2026-01-25 04:19:37.45	205.57	14.32	-35.9	-36.8	21.0	0.00e+00	0	38	0	4520411136	41	4164
2026-01-25 04:19:38.45	205.56	14.22	-35.8	-36.8	21.0	0.00e+00	0	38	0	4527751168	41	4155
2026-01-25 04:19:39.44	205.54	14.11	-36.0	-36.9	20.9	0.00e+00	0	38	0	4535091200	41	4215
2026-01-25 04:19:40.44	205.53	14.01	-35.9	-36.8	21.0	0.00e+00	0	38	0	4541382656	41	4184
2026-01-25 04:19:41.43	205.51	13.91	-35.9	-36.8	21.0	0.00e+00	0	38	0	4548722688	41	4180
2026-01-25 04:19:42.43	205.50	13.81	-35.9	-36.9	20.9	0.00e+00	0	38	0	4556062720	41	4198
2026-01-25 04:19:43.42	205.48	13.71	-35.9	-36.9	20.9	0.00e+00	0	38	0	4563402752	41	4206
2026-01-25 04:19:44.41	205.47	13.61	-35.9	-36.8	20.8	0.00e+00	0	38	0	4570742784	41	4182
2026-01-25 04:19:45.41	205.46	13.50	-36.0	-36.9	20.9	0.00e+00	0	38	0	4578082816	41	4227
2026-01-25 04:19:46.41	205.44	13.40	-36.0	-36.9	20.9	0.00e+00	0	38	0	4584374272	41	4217
2026-01-25 04:19:47.40	205.43	13.30	-36.0	-36.9	20.8	0.00e+00	0	38	0	4591714304	41	4239
2026-01-25 04:19:48.40	205.42	13.20	-36.0	-36.9	20.8	0.00e+00	0	38	0	4599054336	41	4234
2026-01-25 04:19:49.39	205.40	13.11	-36.0	-36.9	20.9	0.00e+00	0	38	0	4606394368	41	4220
2026-01-25 04:19:50.39	205.39	13.01	-36.1	-37.0	20.8	0.00e+00	0	38	0	4613734400	41	4276
2026-01-25 04:19:51.38	205.38	12.91	-36.1	-37.1	20.7	0.00e+00	0	38	0	4621074432	41	4293
2026-01-25 04:19:52.37	205.36	12.81	-36.1	-37.1	20.7	0.00e+00	0	38	0	4628414464	41	4314
2026-01-25 04:19:53.37	205.35	12.72	-36.2	-37.1	20.7	0.00e+00	0	38	0	4634705920	41	4334
2026-01-25 04:19:54.36	205.34	12.62	-36.2	-37.1	20.6	0.00e+00	0	38	0	4642045952	41	4330
2026-01-25 04:19:55.36	205.32	12.52	-36.1	-37.1	20.7	0.00e+00	0	38	0	4649385984	41	4293
