passes_logs/2026/01/29/R4.6S_Anadyr/R4.6S_Anadyr__20260129_211515_KOSAR1-5_rec.log

#Pass ID: 20260129_211515_KOSAR1-5
#Satellite: KOSAR1-5
#Configuration: KOSAR1-5
#almurnet v.1.7.20251203
#Start time: 2026-01-29 21:15:15

#Version: 2.2.20231116
#Station: R4.6S_Anadyr
#Location: 177.4865 lon 64.73178 lat
#TLE: 1 67264U 25313S   26027.89307552  .00010412  00000+0  48021-3 0  9990
#TLE: 2 67264  97.4176 104.8503 0016482 138.1720 222.0778 15.20312014  4613

#Time	Az	El	Level	Level2	SNR	BER	BlckErr	Temp	State	Recorded	gain1	gain2
2026-01-29 21:15:15.99	27.40	0.04	-49.1	-64.1	3.5	1.51e+00	0	32	0	0	60	57714
2026-01-29 21:15:16.99	27.52	0.08	-45.9	-60.5	3.6	1.51e+00	0	33	104	0	60	43107
2026-01-29 21:15:18.00	27.64	0.13	-45.8	-60.5	3.6	1.51e+00	0	33	104	0	60	42947
2026-01-29 21:15:19.01	27.76	0.17	-45.9	-60.5	3.6	1.51e+00	0	33	104	0	60	43167
2026-01-29 21:15:20.02	27.89	0.22	-45.9	-60.6	3.6	1.51e+00	0	33	104	0	60	43655
2026-01-29 21:15:21.03	28.01	0.26	-45.9	-60.6	3.6	1.51e+00	0	33	104	0	60	43639
2026-01-29 21:15:22.04	28.14	0.31	-46.0	-60.7	3.6	1.51e+00	0	33	104	0	60	43770
2026-01-29 21:15:23.05	28.26	0.35	-46.0	-60.6	3.6	1.51e+00	0	33	104	0	60	43633
2026-01-29 21:15:24.06	28.39	0.40	-46.0	-60.8	3.6	1.51e+00	0	33	104	0	60	44525
2026-01-29 21:15:25.07	28.51	0.44	-46.1	-60.8	3.6	1.51e+00	0	33	104	0	60	44627
2026-01-29 21:15:26.08	28.64	0.49	-46.1	-60.8	3.6	1.51e+00	0	33	104	0	60	44438
2026-01-29 21:15:27.09	28.77	0.53	-46.0	-60.8	3.6	1.51e+00	0	33	104	0	60	44566
2026-01-29 21:15:28.10	28.89	0.58	-45.7	-60.8	3.6	1.51e+00	0	33	104	0	60	44569
2026-01-29 21:15:29.12	29.02	0.62	-45.9	-60.8	3.6	1.51e+00	0	34	104	0	60	44321
2026-01-29 21:15:30.13	29.15	0.67	-46.0	-60.7	3.6	1.51e+00	0	34	104	0	60	44067
2026-01-29 21:15:31.14	29.28	0.71	-46.0	-60.8	3.6	1.51e+00	0	33	104	0	60	44405
2026-01-29 21:15:32.15	29.41	0.76	-45.9	-60.7	3.6	1.51e+00	0	33	104	0	60	43794
2026-01-29 21:15:33.16	29.54	0.80	-46.1	-60.8	3.6	1.51e+00	0	34	104	0	60	44230
2026-01-29 21:15:34.17	29.67	0.85	-45.7	-60.6	3.6	1.51e+00	0	34	104	0	60	43666
2026-01-29 21:15:35.18	29.80	0.89	-45.6	-60.5	3.6	1.51e+00	0	34	104	0	60	43034
2026-01-29 21:15:36.19	29.93	0.94	-45.7	-60.4	3.6	1.51e+00	0	34	104	0	60	42659
2026-01-29 21:15:37.20	30.06	0.98	-45.6	-60.3	3.6	1.51e+00	0	34	104	0	60	42196
2026-01-29 21:15:38.21	30.20	1.03	-44.4	-60.2	3.6	1.51e+00	0	34	104	0	60	41593
2026-01-29 21:15:39.22	30.33	1.07	-45.3	-60.0	3.5	1.51e+00	0	34	104	0	60	40439
2026-01-29 21:15:40.24	30.46	1.12	-44.8	-59.7	3.6	1.51e+00	0	34	104	0	60	39083
2026-01-29 21:15:41.25	30.60	1.16	-44.5	-59.3	3.6	1.51e+00	0	34	104	0	60	37403
2026-01-29 21:15:42.25	30.73	1.21	-44.5	-59.2	3.6	1.51e+00	0	34	104	0	60	37181
2026-01-29 21:15:43.26	30.86	1.25	-44.5	-59.3	3.6	1.51e+00	0	34	104	0	60	37206
2026-01-29 21:15:44.28	31.00	1.30	-44.5	-59.2	3.6	1.51e+00	0	34	104	0	60	37040
2026-01-29 21:15:45.28	31.14	1.34	-44.5	-59.2	3.6	1.51e+00	0	34	104	0	60	37040
2026-01-29 21:15:46.30	31.27	1.39	-44.5	-59.2	3.6	1.51e+00	0	34	104	0	60	37144
2026-01-29 21:15:47.31	31.41	1.43	-44.5	-59.2	3.6	1.51e+00	0	34	104	0	60	37039
2026-01-29 21:15:48.32	31.55	1.48	-44.5	-59.2	3.6	1.51e+00	0	34	104	0	60	36952
2026-01-29 21:15:49.33	31.69	1.52	-44.5	-59.2	3.6	1.51e+00	0	34	104	0	60	36986
2026-01-29 21:15:50.34	31.82	1.57	-44.5	-59.2	3.6	1.51e+00	0	34	104	0	60	37147
2026-01-29 21:15:51.35	31.96	1.61	-44.5	-59.2	3.6	1.51e+00	0	34	104	0	60	37020
2026-01-29 21:15:52.36	32.10	1.66	-44.5	-59.2	3.6	1.51e+00	0	34	104	0	60	36870
2026-01-29 21:15:53.37	32.24	1.70	-44.5	-59.2	3.6	1.51e+00	0	34	104	0	60	37050
2026-01-29 21:15:54.38	32.38	1.75	-44.5	-59.2	3.6	1.51e+00	0	34	104	0	60	36811
2026-01-29 21:15:55.39	32.53	1.79	-44.5	-59.2	3.6	1.51e+00	0	34	104	0	60	36988
2026-01-29 21:15:56.40	32.67	1.83	-44.5	-59.2	3.6	1.51e+00	0	34	104	0	60	36816
2026-01-29 21:15:57.41	32.81	1.88	-44.5	-59.2	3.6	1.51e+00	0	34	104	0	60	36812
2026-01-29 21:15:58.42	32.95	1.92	-44.5	-59.2	3.6	1.51e+00	0	34	104	0	60	36955
2026-01-29 21:15:59.43	33.10	1.97	-44.5	-59.2	3.6	1.51e+00	0	34	104	0	60	37133
2026-01-29 21:16:00.44	33.24	2.01	-44.5	-59.2	3.6	1.51e+00	0	34	104	0	60	36991
2026-01-29 21:16:01.45	33.38	2.06	-44.5	-59.2	3.6	1.51e+00	0	34	104	0	60	36930
2026-01-29 21:16:02.46	33.53	2.10	-44.5	-59.2	3.6	1.51e+00	0	34	104	0	60	37089
2026-01-29 21:16:03.47	33.67	2.15	-44.5	-59.2	3.6	1.51e+00	0	34	104	0	60	37094
2026-01-29 21:16:04.48	33.82	2.19	-44.5	-59.2	3.6	1.51e+00	0	34	104	0	60	36980
2026-01-29 21:16:05.49	33.97	2.24	-44.5	-59.2	3.6	1.51e+00	0	34	104	0	60	37125
2026-01-29 21:16:06.50	34.11	2.28	-44.5	-59.2	3.6	1.51e+00	0	34	104	0	60	36991
2026-01-29 21:16:07.51	34.26	2.32	-44.5	-59.1	3.6	1.51e+00	0	34	104	0	60	36711
2026-01-29 21:16:08.52	34.41	2.37	-44.5	-59.2	3.6	1.51e+00	0	34	104	0	60	36999
2026-01-29 21:16:09.53	34.56	2.41	-44.5	-59.2	3.6	1.51e+00	0	34	104	0	60	36842
2026-01-29 21:16:10.54	34.71	2.46	-44.5	-59.2	3.6	1.51e+00	0	34	104	0	60	37029
2026-01-29 21:16:11.55	34.86	2.50	-44.4	-59.2	3.6	1.51e+00	0	34	104	0	60	36848
2026-01-29 21:16:12.56	35.01	2.55	-44.5	-59.2	3.6	1.51e+00	0	34	104	0	60	36967
2026-01-29 21:16:13.57	35.16	2.59	-44.5	-59.2	3.6	1.51e+00	0	34	104	0	60	36982
2026-01-29 21:16:14.59	35.31	2.63	-44.4	-59.1	3.6	1.51e+00	0	34	104	0	60	36757
2026-01-29 21:16:15.59	35.46	2.68	-44.4	-59.2	3.6	1.51e+00	0	34	104	0	60	36977
2026-01-29 21:16:16.60	35.62	2.72	-44.4	-59.2	3.6	1.51e+00	0	34	104	0	60	36878
2026-01-29 21:16:17.61	35.77	2.77	-44.4	-59.2	3.6	1.51e+00	0	34	104	0	60	36936
2026-01-29 21:16:18.62	35.92	2.81	-44.4	-59.2	3.6	1.51e+00	0	34	104	0	60	36915
2026-01-29 21:16:19.63	36.08	2.85	-44.4	-59.1	3.6	1.51e+00	0	34	104	0	60	36733
2026-01-29 21:16:20.65	36.23	2.90	-44.4	-59.2	3.6	1.51e+00	0	34	104	0	60	37148
2026-01-29 21:16:21.65	36.39	2.94	-44.4	-59.1	3.5	1.51e+00	0	34	104	0	60	36759
2026-01-29 21:16:22.67	36.55	2.99	-44.4	-59.2	3.6	1.51e+00	0	34	104	0	60	36818
2026-01-29 21:16:23.68	36.70	3.03	-44.5	-59.2	3.6	1.51e+00	0	34	104	0	60	36961
2026-01-29 21:16:24.69	36.86	3.07	-44.5	-59.2	3.6	1.51e+00	0	34	104	0	60	37196
2026-01-29 21:16:25.70	37.02	3.12	-44.5	-59.3	3.5	1.51e+00	0	34	104	0	60	37274
2026-01-29 21:16:26.71	37.18	3.16	-44.4	-59.2	3.6	1.51e+00	0	34	104	0	60	36982
2026-01-29 21:16:27.72	37.34	3.20	-44.2	-59.1	3.6	1.51e+00	0	34	104	0	60	36481
2026-01-29 21:16:28.73	37.50	3.25	-44.6	-59.4	3.6	1.51e+00	0	34	104	0	60	37725
2026-01-29 21:16:29.74	37.66	3.29	-44.6	-59.4	3.6	1.51e+00	0	34	104	0	60	37826
2026-01-29 21:16:30.75	37.82	3.33	-44.5	-59.2	3.6	1.51e+00	0	34	104	0	60	37067
2026-01-29 21:16:31.76	37.98	3.38	-44.3	-59.1	3.6	1.51e+00	0	34	104	0	60	36772
2026-01-29 21:16:32.77	38.14	3.42	-44.6	-59.4	3.6	1.51e+00	0	34	104	0	60	37814
2026-01-29 21:16:33.78	38.30	3.46	-44.4	-59.4	3.6	1.51e+00	0	34	104	0	60	37939
2026-01-29 21:16:34.79	38.47	3.51	-44.5	-59.3	3.6	1.51e+00	0	34	104	0	60	37290
2026-01-29 21:16:35.80	38.63	3.55	-44.2	-59.2	3.6	1.51e+00	0	34	104	0	60	36866
2026-01-29 21:16:36.81	38.80	3.59	-44.6	-59.4	3.6	1.51e+00	0	34	104	0	60	37954
2026-01-29 21:16:37.82	38.96	3.63	-44.5	-59.4	3.6	1.51e+00	0	34	104	0	60	37861
2026-01-29 21:16:38.83	39.13	3.68	-44.4	-59.4	3.6	1.51e+00	0	34	104	0	60	37703
2026-01-29 21:16:39.84	39.29	3.72	-44.4	-59.2	3.6	1.51e+00	0	34	104	0	60	37042
2026-01-29 21:16:40.85	39.46	3.76	-44.5	-59.5	3.6	1.51e+00	0	34	104	0	60	38212
2026-01-29 21:16:41.86	39.63	3.80	-44.7	-59.5	3.6	1.51e+00	0	34	104	0	60	38195
2026-01-29 21:16:42.87	39.80	3.85	-44.6	-59.4	3.6	1.51e+00	0	34	104	0	60	37660
2026-01-29 21:16:43.88	39.96	3.89	-44.5	-59.2	3.6	1.51e+00	0	34	104	0	60	37174
2026-01-29 21:16:44.89	40.13	3.93	-44.0	-59.5	3.6	1.51e+00	0	34	104	0	60	38419
2026-01-29 21:16:45.90	40.30	3.97	-44.5	-59.5	3.6	1.51e+00	0	34	104	0	60	38231
2026-01-29 21:16:46.91	40.47	4.02	-44.7	-59.4	3.6	1.51e+00	0	34	104	0	60	37859
2026-01-29 21:16:47.92	40.65	4.06	-44.4	-59.3	3.6	1.51e+00	0	34	104	0	60	37212
2026-01-29 21:16:48.93	40.82	4.10	-44.2	-59.5	3.6	1.51e+00	0	34	104	0	60	38386
2026-01-29 21:16:49.94	40.99	4.14	-44.4	-59.5	3.6	1.51e+00	0	34	104	0	60	38399
2026-01-29 21:16:50.95	41.16	4.18	-44.4	-59.4	3.6	1.51e+00	0	34	104	0	60	37832
2026-01-29 21:16:51.96	41.34	4.22	-44.6	-59.3	3.6	1.51e+00	0	34	104	0	60	37562
2026-01-29 21:16:52.97	41.51	4.27	-44.7	-59.5	3.6	1.51e+00	0	34	104	0	60	38368
2026-01-29 21:16:53.97	41.68	4.31	-44.5	-59.5	3.6	1.51e+00	0	34	104	0	60	38236
2026-01-29 21:16:54.99	41.86	4.35	-44.4	-59.5	3.6	1.51e+00	0	34	104	0	60	38136
2026-01-29 21:16:56.00	42.04	4.39	-44.5	-59.4	3.6	1.51e+00	0	34	104	0	60	37776
2026-01-29 21:16:57.01	42.21	4.43	-44.8	-59.6	3.6	1.51e+00	0	34	104	0	60	38524
2026-01-29 21:16:58.02	42.39	4.47	-44.6	-59.5	3.6	1.51e+00	0	34	104	0	60	38076
2026-01-29 21:16:59.03	42.57	4.51	-44.5	-59.5	3.6	1.51e+00	0	34	104	0	60	38125
2026-01-29 21:17:00.04	42.75	4.55	-44.6	-59.4	3.6	1.51e+00	0	34	104	0	60	37744
2026-01-29 21:17:01.05	42.93	4.59	-44.8	-59.5	3.6	1.51e+00	0	34	104	0	60	38290
2026-01-29 21:17:02.06	43.11	4.63	-44.6	-59.5	3.6	1.51e+00	0	34	104	0	60	38376
2026-01-29 21:17:03.07	43.29	4.68	-44.6	-59.5	3.6	1.51e+00	0	34	104	0	60	38344
2026-01-29 21:17:04.08	43.47	4.72	-44.0	-59.4	3.6	1.51e+00	0	35	104	0	60	37904
2026-01-29 21:17:05.09	43.65	4.76	-44.7	-59.6	3.6	1.51e+00	0	34	104	0	60	38528
2026-01-29 21:17:06.10	43.83	4.80	-44.7	-59.5	3.6	1.51e+00	0	35	104	0	60	38131
2026-01-29 21:17:07.11	44.02	4.84	-44.6	-59.5	3.6	1.51e+00	0	35	104	0	60	38222
2026-01-29 21:17:08.11	44.20	4.88	-44.6	-59.5	3.6	1.51e+00	0	35	104	0	60	38078
2026-01-29 21:17:09.12	44.38	4.92	-44.9	-59.6	3.6	1.51e+00	0	34	104	0	60	38694
2026-01-29 21:17:10.13	44.57	4.95	-44.8	-59.5	3.6	1.51e+00	0	35	104	0	60	38344
2026-01-29 21:17:11.14	44.75	4.99	-44.7	-59.4	3.6	1.51e+00	0	34	104	0	60	38051
2026-01-29 21:17:12.15	44.94	5.03	-44.4	-59.5	3.6	1.51e+00	0	35	104	0	60	38220
2026-01-29 21:17:13.16	45.13	5.07	-44.9	-59.7	3.6	1.51e+00	0	34	104	0	60	39024
2026-01-29 21:17:14.17	45.31	5.11	-44.7	-59.5	3.6	1.51e+00	0	34	104	0	60	38495
2026-01-29 21:17:15.18	45.50	5.15	-44.8	-59.5	3.6	1.51e+00	0	35	104	0	60	38212
2026-01-29 21:17:16.19	45.69	5.19	-44.6	-59.5	3.6	1.51e+00	0	34	104	0	60	38300
2026-01-29 21:17:17.20	45.88	5.23	-44.7	-59.6	3.6	1.51e+00	0	35	104	0	60	38771
2026-01-29 21:17:18.21	46.07	5.27	-44.1	-59.5	3.6	1.51e+00	0	34	104	0	60	38389
2026-01-29 21:17:19.22	46.26	5.30	-44.7	-59.5	3.6	1.51e+00	0	34	104	0	60	38358
2026-01-29 21:17:20.23	46.45	5.34	-44.6	-59.5	3.6	1.51e+00	0	34	104	0	60	38258
2026-01-29 21:17:21.24	46.64	5.38	-43.8	-59.7	3.6	1.51e+00	0	35	104	0	60	39251
2026-01-29 21:17:22.25	46.84	5.42	-44.0	-59.6	3.6	1.51e+00	0	35	104	0	60	38583
2026-01-29 21:17:23.26	47.03	5.46	-43.9	-59.5	3.6	1.51e+00	0	35	104	0	60	38391
2026-01-29 21:17:24.27	47.22	5.49	-44.4	-59.5	3.6	1.51e+00	0	35	104	0	60	38219
2026-01-29 21:17:25.28	47.42	5.53	-44.5	-59.7	3.6	1.51e+00	0	35	104	0	60	39138
2026-01-29 21:17:26.29	47.61	5.57	-44.1	-59.6	3.6	1.51e+00	0	35	104	0	60	38691
2026-01-29 21:17:27.30	47.81	5.61	-44.1	-59.6	3.6	1.51e+00	0	35	104	0	60	38647
2026-01-29 21:17:28.31	48.00	5.64	-44.1	-59.5	3.6	1.51e+00	0	35	104	0	60	38312
2026-01-29 21:17:29.32	48.20	5.68	-44.9	-59.7	3.6	1.51e+00	0	35	104	0	60	39220
2026-01-29 21:17:30.33	48.40	5.72	-44.5	-59.6	3.6	1.51e+00	0	35	104	0	60	38885
2026-01-29 21:17:31.34	48.60	5.75	-44.1	-59.6	3.6	1.51e+00	0	35	104	0	60	38560
2026-01-29 21:17:32.34	48.79	5.79	-44.4	-59.6	3.6	1.51e+00	0	35	104	0	60	38548
2026-01-29 21:17:33.35	48.99	5.83	-44.9	-59.7	3.6	1.51e+00	0	35	104	0	60	39217
2026-01-29 21:17:34.36	49.19	5.86	-44.7	-59.7	3.6	1.51e+00	0	35	104	0	60	39053
2026-01-29 21:17:35.37	49.39	5.90	-44.7	-59.6	3.6	1.51e+00	0	35	104	0	60	38837
2026-01-29 21:17:36.38	49.59	5.93	-44.8	-59.6	3.6	1.51e+00	0	35	104	0	60	38583
2026-01-29 21:17:37.39	49.80	5.97	-44.8	-59.7	3.6	1.51e+00	0	35	104	0	60	39296
2026-01-29 21:17:38.40	50.00	6.00	-44.5	-59.7	3.6	1.51e+00	0	35	104	0	60	39145
2026-01-29 21:17:39.41	50.20	6.04	-44.5	-59.6	3.6	1.51e+00	0	35	104	0	60	38712
2026-01-29 21:17:40.42	50.40	6.07	-44.7	-59.6	3.6	1.51e+00	0	35	104	0	60	38935
2026-01-29 21:17:41.43	50.61	6.11	-44.9	-59.7	3.6	1.51e+00	0	35	104	0	60	39251
2026-01-29 21:17:42.44	50.81	6.14	-44.8	-59.7	3.6	1.51e+00	0	35	104	0	60	39001
2026-01-29 21:17:43.45	51.02	6.18	-44.6	-59.6	3.6	1.51e+00	0	35	104	0	60	38866
2026-01-29 21:17:44.46	51.22	6.21	-44.8	-59.6	3.6	1.51e+00	0	35	104	0	60	38761
2026-01-29 21:17:45.47	51.43	6.24	-44.4	-59.7	3.6	1.51e+00	0	35	104	0	60	39253
2026-01-29 21:17:46.48	51.64	6.28	-44.6	-59.7	3.6	1.51e+00	0	35	104	0	60	39002
2026-01-29 21:17:47.49	51.85	6.31	-44.4	-59.7	3.6	1.51e+00	0	35	104	0	60	39041
2026-01-29 21:17:48.50	52.05	6.34	-44.7	-59.7	3.6	1.51e+00	0	35	104	0	60	39068
2026-01-29 21:17:49.51	52.26	6.38	-44.2	-59.8	3.6	1.51e+00	0	35	104	0	60	39627
2026-01-29 21:17:50.52	52.47	6.41	-44.9	-59.7	3.6	1.51e+00	0	35	104	0	60	39370
2026-01-29 21:17:51.53	52.68	6.44	-44.9	-59.7	3.6	1.51e+00	0	35	104	0	60	38957
2026-01-29 21:17:52.54	52.89	6.47	-44.9	-59.7	3.6	1.51e+00	0	35	104	0	60	39000
2026-01-29 21:17:53.55	53.10	6.51	-44.3	-59.7	3.6	1.51e+00	0	35	104	0	60	39373
2026-01-29 21:17:54.56	53.32	6.54	-44.7	-59.7	3.6	1.51e+00	0	35	104	0	60	38982
2026-01-29 21:17:55.57	53.53	6.57	-45.0	-59.7	3.6	1.51e+00	0	35	104	0	60	39206
2026-01-29 21:17:56.58	53.74	6.60	-45.0	-59.7	3.6	1.51e+00	0	35	104	0	60	39014
2026-01-29 21:17:57.59	53.96	6.63	-44.8	-59.7	3.6	1.51e+00	0	35	104	0	60	39294
2026-01-29 21:17:58.60	54.17	6.66	-44.9	-59.7	3.6	1.51e+00	0	35	104	0	60	39302
2026-01-29 21:17:59.61	54.38	6.69	-44.9	-59.7	3.6	1.51e+00	0	35	104	0	60	38980
2026-01-29 21:18:00.62	54.60	6.72	-44.9	-59.8	3.6	1.51e+00	0	35	104	0	60	39433
2026-01-29 21:18:01.63	54.82	6.75	-42.7	-59.8	3.6	1.51e+00	0	35	104	0	60	39554
2026-01-29 21:18:02.64	55.03	6.78	-44.1	-59.7	3.6	1.51e+00	0	35	104	0	60	39278
2026-01-29 21:18:03.65	55.25	6.81	-44.6	-59.7	3.6	1.51e+00	0	35	104	0	60	39375
2026-01-29 21:18:04.66	55.47	6.84	-43.3	-59.7	3.6	1.51e+00	0	35	104	0	60	39259
2026-01-29 21:18:05.67	55.68	6.87	-43.7	-59.8	3.6	1.51e+00	0	35	104	0	60	39468
2026-01-29 21:18:06.68	55.90	6.90	-43.6	-59.7	3.6	1.51e+00	0	35	104	0	60	39219
2026-01-29 21:18:07.69	56.12	6.93	-43.7	-59.7	3.6	1.51e+00	0	35	104	0	60	39059
2026-01-29 21:18:08.70	56.34	6.96	-42.8	-59.7	3.6	1.51e+00	0	35	104	0	60	39309
2026-01-29 21:18:09.71	56.56	6.99	-44.1	-59.7	3.6	1.51e+00	0	35	104	0	60	39204
2026-01-29 21:18:10.72	56.78	7.01	-44.0	-59.8	3.6	1.51e+00	0	35	104	0	60	39485
2026-01-29 21:18:11.73	57.00	7.04	-41.9	-59.7	3.6	1.51e+00	0	35	104	0	60	39030
2026-01-29 21:18:12.74	57.23	7.07	-43.9	-59.7	3.6	1.51e+00	0	35	104	0	60	39225
2026-01-29 21:18:13.75	57.45	7.10	-44.5	-59.8	3.6	1.51e+00	0	35	104	0	60	39508
2026-01-29 21:18:14.76	57.67	7.12	-44.1	-59.8	3.6	1.51e+00	0	35	104	0	60	39537
2026-01-29 21:18:15.77	57.89	7.15	-42.6	-59.7	3.6	1.51e+00	0	35	104	0	60	39039
2026-01-29 21:18:16.78	58.12	7.18	-44.9	-59.8	3.6	1.51e+00	0	35	104	0	60	39603
2026-01-29 21:18:17.79	58.34	7.20	-44.4	-59.7	3.6	1.51e+00	0	35	104	0	60	39383
2026-01-29 21:18:18.80	58.57	7.23	-44.2	-59.7	3.6	1.51e+00	0	35	104	0	60	39269
2026-01-29 21:18:19.81	58.79	7.25	-43.1	-59.7	3.6	1.51e+00	0	35	104	0	60	39182
2026-01-29 21:18:20.82	59.02	7.28	-44.6	-59.7	3.6	1.51e+00	0	35	104	0	60	39398
2026-01-29 21:18:21.83	59.25	7.30	-45.0	-59.8	3.6	1.51e+00	0	35	104	0	60	39458
2026-01-29 21:18:22.84	59.47	7.33	-44.3	-59.8	3.6	1.51e+00	0	35	104	0	60	39454
2026-01-29 21:18:23.85	59.70	7.35	-44.4	-59.7	3.6	1.51e+00	0	35	104	0	60	38980
2026-01-29 21:18:24.86	59.93	7.38	-44.6	-59.8	3.6	1.51e+00	0	35	104	0	60	39465
2026-01-29 21:18:25.87	60.16	7.40	-44.9	-59.8	3.6	1.51e+00	0	35	104	0	60	39430
2026-01-29 21:18:26.88	60.38	7.42	-44.3	-59.8	3.6	1.51e+00	0	35	104	0	60	39726
2026-01-29 21:18:27.89	60.61	7.45	-44.4	-59.7	3.6	1.51e+00	0	35	104	0	60	39102
2026-01-29 21:18:28.90	60.84	7.47	-44.4	-59.7	3.6	1.51e+00	0	35	104	0	60	39359
2026-01-29 21:18:29.91	61.07	7.49	-43.5	-59.7	3.6	1.51e+00	0	35	104	0	60	39333
2026-01-29 21:18:30.92	61.30	7.51	-43.7	-59.8	3.6	1.51e+00	0	35	104	0	60	39484
2026-01-29 21:18:31.93	61.53	7.54	-41.8	-59.7	3.6	1.51e+00	0	35	104	0	60	39136
2026-01-29 21:18:32.94	61.77	7.56	-43.9	-59.8	3.6	1.51e+00	0	35	104	0	60	39586
2026-01-29 21:18:33.95	62.00	7.58	-42.5	-59.7	3.6	1.51e+00	0	35	104	0	60	39358
2026-01-29 21:18:34.96	62.23	7.60	-44.7	-59.7	3.6	1.51e+00	0	35	104	0	60	39049
2026-01-29 21:18:35.97	62.46	7.62	-43.0	-59.7	3.6	1.51e+00	0	35	104	0	60	39401
2026-01-29 21:18:36.98	62.69	7.64	-44.2	-59.8	3.6	1.51e+00	0	35	104	0	60	39627
2026-01-29 21:18:37.99	62.93	7.66	-41.3	-59.7	3.6	1.51e+00	0	35	104	0	58	44144
2026-01-29 21:18:39.00	63.16	7.68	-40.5	-59.7	3.6	1.51e+00	0	35	104	0	56	49177
2026-01-29 21:18:40.01	63.40	7.70	-42.2	-59.7	3.6	1.51e+00	0	35	104	0	60	39219
2026-01-29 21:18:41.02	63.63	7.72	-43.4	-59.8	3.6	1.51e+00	0	35	104	0	60	39816
2026-01-29 21:18:42.03	63.87	7.74	-41.1	-59.6	3.6	1.51e+00	0	35	104	0	54	54895
2026-01-29 21:18:43.04	64.10	7.75	-39.9	-59.7	3.6	1.51e+00	0	35	104	0	54	55284
2026-01-29 21:18:44.05	64.34	7.77	-40.1	-59.7	3.6	1.51e+00	0	35	104	0	56	49168
2026-01-29 21:18:45.06	64.57	7.79	-39.2	-59.7	3.6	1.51e+00	0	35	104	0	54	55059
2026-01-29 21:18:46.07	64.81	7.81	-44.2	-59.7	3.6	1.51e+00	0	35	104	0	60	39330
2026-01-29 21:18:47.09	65.05	7.82	-43.5	-59.7	3.6	1.51e+00	0	35	104	0	60	39361
2026-01-29 21:18:48.10	65.29	7.84	-43.8	-59.7	3.6	1.51e+00	0	35	104	0	60	39094
2026-01-29 21:18:49.11	65.52	7.86	-44.1	-59.8	3.6	1.51e+00	0	35	104	0	60	39620
2026-01-29 21:18:50.12	65.76	7.87	-44.9	-59.8	3.6	1.51e+00	0	35	104	0	60	39410
2026-01-29 21:18:51.13	66.00	7.89	-45.0	-59.8	3.6	1.51e+00	0	35	104	0	60	39458
2026-01-29 21:18:52.14	66.24	7.90	-44.8	-59.7	3.6	1.51e+00	0	35	104	0	60	39147
2026-01-29 21:18:53.14	66.47	7.92	-42.6	-59.8	3.6	1.51e+00	0	35	104	0	60	39690
2026-01-29 21:18:54.15	66.71	7.93	-44.7	-59.7	3.6	1.51e+00	0	35	104	0	60	39330
2026-01-29 21:18:55.17	66.95	7.95	-44.5	-59.7	3.6	1.51e+00	0	35	104	0	60	39264
2026-01-29 21:18:56.17	67.19	7.96	-44.7	-59.7	3.6	1.51e+00	0	35	104	0	60	39246
2026-01-29 21:18:57.18	67.43	7.97	-42.0	-59.9	3.6	1.51e+00	0	35	104	0	60	39909
2026-01-29 21:18:58.19	67.67	7.99	-41.6	-59.7	3.6	1.51e+00	0	35	104	0	58	43849
2026-01-29 21:18:59.20	67.91	8.00	-43.2	-59.8	3.6	1.51e+00	0	35	104	0	60	39508
2026-01-29 21:19:00.22	68.16	8.01	-41.0	-59.6	3.6	1.51e+00	0	35	104	0	58	43637
2026-01-29 21:19:01.22	68.39	8.02	-40.8	-59.8	3.6	1.51e+00	0	35	104	0	56	49937
2026-01-29 21:19:02.24	68.64	8.04	-41.1	-59.8	3.6	1.51e+00	0	35	104	0	56	49706
2026-01-29 21:19:03.25	68.88	8.05	-41.5	-59.7	3.6	1.51e+00	0	35	104	0	56	49493
2026-01-29 21:19:04.26	69.12	8.06	-43.8	-59.7	3.6	1.51e+00	0	35	104	0	60	39328
2026-01-29 21:19:05.27	69.36	8.07	-44.4	-59.8	3.6	1.51e+00	0	35	104	0	60	39835
2026-01-29 21:19:06.27	69.60	8.08	-44.8	-59.8	3.6	1.51e+00	0	35	104	0	60	39465
2026-01-29 21:19:07.29	69.85	8.09	-43.9	-59.7	3.6	1.51e+00	0	35	104	0	60	39382
2026-01-29 21:19:08.30	70.09	8.10	-43.5	-59.7	3.6	1.51e+00	0	35	104	0	60	39325
2026-01-29 21:19:09.31	70.33	8.11	-45.0	-59.8	3.6	1.51e+00	0	35	104	0	60	39617
2026-01-29 21:19:10.32	70.58	8.11	-44.7	-59.7	3.6	1.51e+00	0	35	104	0	60	39297
2026-01-29 21:19:11.33	70.82	8.12	-45.0	-59.8	3.6	1.51e+00	0	35	104	0	60	39536
2026-01-29 21:19:12.34	71.06	8.13	-45.0	-59.8	3.6	1.51e+00	0	35	104	0	60	39565
2026-01-29 21:19:13.35	71.30	8.14	-44.4	-59.8	3.6	1.51e+00	0	35	104	0	60	39697
2026-01-29 21:19:14.36	71.55	8.14	-44.5	-59.7	3.6	1.51e+00	0	35	104	0	60	39275
2026-01-29 21:19:15.37	71.79	8.15	-44.7	-59.7	3.6	1.51e+00	0	35	104	0	60	39304
2026-01-29 21:19:16.38	72.04	8.16	-44.4	-59.7	3.6	1.51e+00	0	35	104	0	60	39203
2026-01-29 21:19:17.39	72.28	8.16	-43.3	-59.8	3.6	1.51e+00	0	35	104	0	60	39770
2026-01-29 21:19:18.40	72.52	8.17	-42.7	-59.8	3.6	1.51e+00	0	35	104	0	60	39475
2026-01-29 21:19:19.41	72.77	8.17	-42.1	-59.7	3.6	1.51e+00	0	35	104	0	60	39375
2026-01-29 21:19:20.42	73.01	8.18	-44.0	-59.8	3.6	1.51e+00	0	35	104	0	60	39462
2026-01-29 21:19:21.43	73.26	8.18	-44.0	-59.8	3.6	1.51e+00	0	35	104	0	60	39696
2026-01-29 21:19:22.44	73.50	8.19	-44.1	-59.8	3.6	1.51e+00	0	35	104	0	60	39530
2026-01-29 21:19:23.45	73.75	8.19	-39.5	-59.7	3.6	1.51e+00	0	35	104	0	54	55263
2026-01-29 21:19:24.46	73.99	8.19	-42.8	-59.8	3.6	1.51e+00	0	35	104	0	60	39477
2026-01-29 21:19:25.47	74.24	8.20	-43.1	-59.8	3.6	1.51e+00	0	35	104	0	60	39857
2026-01-29 21:19:26.48	74.48	8.20	-43.8	-59.8	3.6	1.51e+00	0	35	104	0	60	39669
2026-01-29 21:19:27.49	74.73	8.20	-44.2	-59.8	3.6	1.51e+00	0	35	104	0	60	39439
2026-01-29 21:19:28.50	74.97	8.20	-44.0	-59.8	3.6	1.51e+00	0	35	104	0	60	39580
2026-01-29 21:19:29.51	75.22	8.21	-44.8	-59.9	3.6	1.51e+00	0	35	104	0	60	39915
2026-01-29 21:19:30.52	75.46	8.21	-43.8	-59.8	3.6	1.51e+00	0	35	104	0	60	39667
2026-01-29 21:19:31.53	75.71	8.21	-44.9	-59.8	3.6	1.51e+00	0	35	104	0	60	39692
2026-01-29 21:19:32.54	75.95	8.21	-43.7	-59.8	3.6	1.51e+00	0	35	104	0	60	39610
2026-01-29 21:19:33.55	76.20	8.21	-44.7	-59.8	3.6	1.51e+00	0	35	104	0	60	39823
2026-01-29 21:19:34.56	76.44	8.21	-44.3	-59.8	3.6	1.51e+00	0	35	104	0	60	39686
2026-01-29 21:19:35.57	76.69	8.21	-44.9	-59.8	3.6	1.51e+00	0	35	104	0	60	39510
2026-01-29 21:19:36.58	76.93	8.20	-44.8	-59.8	3.6	1.51e+00	0	35	104	0	60	39474
2026-01-29 21:19:37.59	77.18	8.20	-44.5	-59.9	3.6	1.51e+00	0	35	104	0	60	39911
2026-01-29 21:19:38.60	77.42	8.20	-44.9	-59.8	3.6	1.51e+00	0	35	104	0	60	39823
2026-01-29 21:19:39.61	77.67	8.20	-44.9	-59.9	3.6	1.51e+00	0	35	104	0	60	39899
2026-01-29 21:19:40.62	77.91	8.19	-44.2	-59.8	3.5	1.51e+00	0	35	104	0	60	39769
2026-01-29 21:19:41.63	78.16	8.19	-44.9	-59.9	3.6	1.51e+00	0	35	104	0	60	39990
2026-01-29 21:19:42.64	78.40	8.19	-44.8	-59.8	3.5	1.51e+00	0	35	104	0	60	39840
2026-01-29 21:19:43.65	78.65	8.18	-44.6	-59.8	3.6	1.51e+00	0	35	104	0	60	39778
2026-01-29 21:19:44.66	78.89	8.18	-44.8	-59.8	3.6	1.51e+00	0	35	104	0	60	39729
2026-01-29 21:19:45.67	79.14	8.17	-44.3	-59.9	3.6	1.51e+00	0	35	104	0	60	40023
2026-01-29 21:19:46.68	79.38	8.17	-43.5	-59.8	3.6	1.51e+00	0	35	104	0	60	39600
2026-01-29 21:19:47.69	79.63	8.16	-43.1	-59.8	3.6	1.51e+00	0	35	104	0	60	39629
2026-01-29 21:19:48.70	79.87	8.16	-43.0	-59.8	3.6	1.51e+00	0	35	104	0	60	39770
2026-01-29 21:19:49.71	80.11	8.15	-44.5	-59.8	3.6	1.51e+00	0	35	104	0	60	39739
2026-01-29 21:19:50.72	80.36	8.14	-44.5	-59.8	3.6	1.51e+00	0	35	104	0	60	39779
2026-01-29 21:19:51.73	80.60	8.14	-43.8	-59.8	3.6	1.51e+00	0	35	104	0	60	39543
2026-01-29 21:19:52.74	80.85	8.13	-44.4	-59.9	3.6	1.51e+00	0	35	104	0	60	39961
2026-01-29 21:19:53.75	81.09	8.12	-44.7	-59.9	3.6	1.51e+00	0	35	104	0	60	39983
2026-01-29 21:19:54.76	81.33	8.11	-44.6	-59.8	3.6	1.51e+00	0	35	104	0	60	39667
2026-01-29 21:19:55.77	81.58	8.11	-43.5	-59.8	3.6	1.51e+00	0	35	104	0	60	39717
2026-01-29 21:19:56.78	81.82	8.10	-44.4	-59.9	3.6	1.51e+00	0	35	104	0	60	39950
2026-01-29 21:19:57.79	82.06	8.09	-43.4	-59.8	3.6	1.51e+00	0	35	104	0	60	39687
2026-01-29 21:19:58.80	82.31	8.08	-44.6	-59.8	3.6	1.51e+00	0	35	104	0	60	39717
2026-01-29 21:19:59.81	82.55	8.07	-45.1	-59.8	3.6	1.51e+00	0	35	104	0	60	39591
2026-01-29 21:20:00.82	82.79	8.06	-44.9	-59.8	3.6	1.51e+00	0	35	104	0	60	39854
2026-01-29 21:20:01.83	83.03	8.05	-44.9	-59.9	3.6	1.51e+00	0	35	104	0	60	39923
2026-01-29 21:20:02.84	83.28	8.03	-44.7	-59.8	3.6	1.51e+00	0	35	104	0	60	39752
2026-01-29 21:20:03.85	83.52	8.02	-44.2	-59.8	3.6	1.51e+00	0	35	104	0	60	39502
2026-01-29 21:20:04.85	83.76	8.01	-43.8	-59.8	3.6	1.51e+00	0	35	104	0	60	39563
2026-01-29 21:20:05.86	84.00	8.00	-44.5	-59.8	3.6	1.51e+00	0	35	104	0	60	39607
2026-01-29 21:20:06.87	84.24	7.99	-44.4	-59.8	3.6	1.51e+00	0	35	104	0	60	39608
2026-01-29 21:20:07.88	84.48	7.97	-44.4	-59.8	3.6	1.51e+00	0	35	104	0	60	39679
2026-01-29 21:20:08.89	84.72	7.96	-44.4	-59.9	3.6	1.51e+00	0	35	104	0	60	39880
2026-01-29 21:20:09.90	84.96	7.95	-44.8	-59.8	3.6	1.51e+00	0	35	104	0	60	39678
2026-01-29 21:20:10.91	85.20	7.93	-44.7	-59.8	3.6	1.51e+00	0	35	104	0	60	39793
2026-01-29 21:20:11.92	85.44	7.92	-44.9	-59.7	3.6	1.51e+00	0	35	104	0	60	39402
2026-01-29 21:20:12.93	85.68	7.90	-44.7	-59.9	3.6	1.51e+00	0	35	104	0	60	40046
2026-01-29 21:20:13.94	85.92	7.89	-44.5	-59.8	3.6	1.51e+00	0	35	104	0	60	39766
2026-01-29 21:20:14.95	86.16	7.87	-44.8	-59.8	3.6	1.51e+00	0	35	104	0	60	39517
2026-01-29 21:20:15.96	86.40	7.86	-44.9	-59.8	3.6	1.51e+00	0	35	104	0	60	39435
2026-01-29 21:20:16.98	86.64	7.84	-44.8	-59.8	3.6	1.51e+00	0	35	104	0	60	39637
2026-01-29 21:20:17.99	86.88	7.82	-45.0	-59.8	3.6	1.51e+00	0	35	104	0	60	39783
2026-01-29 21:20:19.00	87.11	7.81	-44.8	-59.8	3.6	1.51e+00	0	35	104	0	60	39539
2026-01-29 21:20:20.00	87.35	7.79	-44.7	-59.8	3.6	1.51e+00	0	35	104	0	60	39679
2026-01-29 21:20:21.01	87.59	7.77	-45.1	-59.8	3.6	1.51e+00	0	35	104	0	60	39806
2026-01-29 21:20:22.03	87.82	7.75	-44.7	-59.8	3.6	1.51e+00	0	35	104	0	60	39748
2026-01-29 21:20:23.04	88.06	7.73	-45.0	-59.8	3.6	1.51e+00	0	35	104	0	60	39726
2026-01-29 21:20:24.04	88.29	7.72	-44.7	-59.8	3.6	1.51e+00	0	35	104	0	60	39434
2026-01-29 21:20:25.05	88.53	7.70	-45.0	-59.8	3.6	1.51e+00	0	35	104	0	60	39651
2026-01-29 21:20:26.06	88.76	7.68	-45.0	-59.8	3.6	1.51e+00	0	35	104	0	60	39663
2026-01-29 21:20:27.07	89.00	7.66	-44.4	-59.8	3.6	1.51e+00	0	35	104	0	60	39507
2026-01-29 21:20:28.08	89.23	7.64	-44.7	-59.8	3.6	1.51e+00	0	35	104	0	60	39715
2026-01-29 21:20:29.09	89.47	7.62	-44.6	-59.9	3.6	1.51e+00	0	35	104	0	60	39867
2026-01-29 21:20:30.10	89.70	7.60	-43.9	-59.8	3.6	1.51e+00	0	35	104	0	60	39606
2026-01-29 21:20:31.11	89.94	7.58	-44.7	-59.8	3.6	1.51e+00	0	35	104	0	60	39858
2026-01-29 21:20:32.12	90.17	7.55	-44.1	-59.7	3.5	1.51e+00	0	35	104	0	60	39321
2026-01-29 21:20:33.13	90.40	7.53	-44.5	-59.8	3.6	1.51e+00	0	35	104	0	60	39747
2026-01-29 21:20:34.14	90.63	7.51	-44.7	-59.8	3.6	1.51e+00	0	35	104	0	60	39718
2026-01-29 21:20:35.15	90.86	7.49	-44.4	-59.8	3.5	1.51e+00	0	35	104	0	60	39631
2026-01-29 21:20:36.16	91.10	7.47	-44.3	-59.7	3.6	1.51e+00	0	35	104	0	60	39335
2026-01-29 21:20:37.17	91.33	7.44	-43.8	-59.8	3.6	1.51e+00	0	35	104	0	60	39818
2026-01-29 21:20:38.18	91.56	7.42	-44.9	-59.8	3.6	1.51e+00	0	35	104	0	60	39697
2026-01-29 21:20:39.20	91.79	7.40	-44.5	-59.8	3.6	1.51e+00	0	35	104	0	60	39485
2026-01-29 21:20:40.20	92.02	7.37	-44.6	-59.7	3.6	1.51e+00	0	35	104	0	60	39207
2026-01-29 21:20:41.22	92.25	7.35	-44.3	-59.8	3.6	1.51e+00	0	35	104	0	60	39861
2026-01-29 21:20:42.22	92.47	7.32	-44.5	-59.8	3.6	1.51e+00	0	35	104	0	60	39533
2026-01-29 21:20:43.24	92.70	7.30	-44.8	-59.8	3.6	1.51e+00	0	35	104	0	60	39562
2026-01-29 21:20:44.25	92.93	7.27	-44.8	-59.8	3.6	1.51e+00	0	35	104	0	60	39477
2026-01-29 21:20:45.26	93.16	7.25	-44.5	-59.8	3.6	1.51e+00	0	35	104	0	60	39607
2026-01-29 21:20:46.26	93.38	7.22	-44.9	-59.8	3.6	1.51e+00	0	35	104	0	60	39601
2026-01-29 21:20:47.28	93.61	7.20	-44.6	-59.7	3.6	1.51e+00	0	35	104	0	60	39380
2026-01-29 21:20:48.29	93.84	7.17	-44.8	-59.7	3.6	1.51e+00	0	35	104	0	60	39374
2026-01-29 21:20:49.30	94.06	7.14	-44.6	-59.8	3.6	1.51e+00	0	35	104	0	60	39609
2026-01-29 21:20:50.31	94.29	7.12	-44.6	-59.8	3.6	1.51e+00	0	35	104	0	60	39516
2026-01-29 21:20:51.32	94.51	7.09	-44.7	-59.7	3.6	1.51e+00	0	35	104	0	60	39308
2026-01-29 21:20:52.33	94.73	7.06	-44.8	-59.7	3.6	1.51e+00	0	35	104	0	60	38977
2026-01-29 21:20:53.34	94.96	7.04	-44.9	-59.8	3.6	1.51e+00	0	35	104	0	60	39651
2026-01-29 21:20:54.35	95.18	7.01	-44.8	-59.7	3.6	1.51e+00	0	35	104	0	60	39321
2026-01-29 21:20:55.36	95.40	6.98	-44.7	-59.7	3.6	1.51e+00	0	35	104	0	60	39382
2026-01-29 21:20:56.37	95.62	6.95	-44.3	-59.7	3.6	1.51e+00	0	35	104	0	60	39152
2026-01-29 21:20:57.38	95.84	6.92	-44.9	-59.8	3.6	1.51e+00	0	35	104	0	60	39518
2026-01-29 21:20:58.39	96.06	6.89	-44.7	-59.8	3.6	1.51e+00	0	35	104	0	60	39514
2026-01-29 21:20:59.40	96.28	6.86	-44.8	-59.7	3.6	1.51e+00	0	35	104	0	60	39335
2026-01-29 21:21:00.41	96.50	6.84	-44.8	-59.7	3.6	1.51e+00	0	35	104	0	60	39335
2026-01-29 21:21:01.42	96.72	6.81	-44.9	-59.8	3.6	1.51e+00	0	35	104	0	60	39467
2026-01-29 21:21:02.43	96.94	6.78	-44.5	-59.7	3.6	1.51e+00	0	35	104	0	60	39110
2026-01-29 21:21:03.43	97.16	6.75	-44.9	-59.7	3.6	1.51e+00	0	35	104	0	60	39063
2026-01-29 21:21:04.45	97.38	6.72	-44.3	-59.7	3.6	1.51e+00	0	35	104	0	60	39219
2026-01-29 21:21:05.45	97.59	6.68	-44.6	-59.7	3.6	1.51e+00	0	35	104	0	60	39353
2026-01-29 21:21:06.46	97.81	6.65	-44.4	-59.7	3.6	1.51e+00	0	35	104	0	60	39275
2026-01-29 21:21:07.47	98.02	6.62	-44.0	-59.7	3.6	1.51e+00	0	35	104	0	60	39232
2026-01-29 21:21:08.48	98.24	6.59	-44.5	-59.6	3.6	1.51e+00	0	35	104	0	60	38835
2026-01-29 21:21:09.49	98.45	6.56	-44.8	-59.7	3.6	1.51e+00	0	35	104	0	60	39315
2026-01-29 21:21:10.50	98.66	6.53	-44.8	-59.7	3.6	1.51e+00	0	35	104	0	60	39044
2026-01-29 21:21:11.51	98.88	6.50	-44.8	-59.7	3.6	1.51e+00	0	35	104	0	60	39045
2026-01-29 21:21:12.52	99.09	6.46	-44.8	-59.6	3.6	1.51e+00	0	35	104	0	60	38917
2026-01-29 21:21:13.53	99.30	6.43	-44.8	-59.7	3.6	1.51e+00	0	35	104	0	60	39285
2026-01-29 21:21:14.54	99.51	6.40	-44.6	-59.6	3.6	1.51e+00	0	35	104	0	60	38909
2026-01-29 21:21:15.55	99.73	6.36	-44.6	-59.6	3.6	1.51e+00	0	35	104	0	60	38886
2026-01-29 21:21:16.56	99.94	6.33	-44.2	-59.6	3.6	1.51e+00	0	35	104	0	60	38819
2026-01-29 21:21:17.56	100.14	6.30	-44.8	-59.7	3.6	1.51e+00	0	35	104	0	60	39197
2026-01-29 21:21:18.57	100.35	6.26	-44.3	-59.6	3.6	1.51e+00	0	35	104	0	60	38893
2026-01-29 21:21:19.58	100.56	6.23	-44.2	-59.6	3.6	1.51e+00	0	35	104	0	60	38792
2026-01-29 21:21:20.59	100.77	6.20	-44.3	-59.6	3.6	1.51e+00	0	35	104	0	60	38679
2026-01-29 21:21:21.60	100.98	6.16	-43.9	-59.7	3.6	1.51e+00	0	35	104	0	60	39001
2026-01-29 21:21:22.61	101.18	6.13	-44.4	-59.6	3.6	1.51e+00	0	35	104	0	60	38813
2026-01-29 21:21:23.62	101.39	6.09	-43.8	-59.6	3.6	1.51e+00	0	35	104	0	60	38601
2026-01-29 21:21:24.63	101.60	6.06	-44.4	-59.6	3.6	1.51e+00	0	35	104	0	60	38725
2026-01-29 21:21:25.64	101.80	6.02	-44.4	-59.7	3.6	1.51e+00	0	35	104	0	60	38967
2026-01-29 21:21:26.65	102.01	5.99	-44.4	-59.6	3.6	1.51e+00	0	35	104	0	60	38836
2026-01-29 21:21:27.66	102.21	5.95	-44.5	-59.6	3.6	1.51e+00	0	35	104	0	60	38591
2026-01-29 21:21:28.68	102.41	5.92	-44.5	-59.6	3.6	1.51e+00	0	35	104	0	60	38818
2026-01-29 21:21:29.68	102.61	5.88	-44.5	-59.6	3.6	1.51e+00	0	35	104	0	60	38772
2026-01-29 21:21:30.69	102.82	5.84	-44.4	-59.6	3.6	1.51e+00	0	35	104	0	60	38763
2026-01-29 21:21:31.70	103.02	5.81	-44.5	-59.5	3.6	1.51e+00	0	35	104	0	60	38396
2026-01-29 21:21:32.71	103.22	5.77	-44.7	-59.6	3.6	1.51e+00	0	35	104	0	60	38586
2026-01-29 21:21:33.72	103.42	5.74	-44.8	-59.6	3.6	1.51e+00	0	35	104	0	60	38818
2026-01-29 21:21:34.73	103.62	5.70	-44.6	-59.6	3.6	1.51e+00	0	35	104	0	60	38673
2026-01-29 21:21:35.74	103.82	5.66	-44.4	-59.5	3.6	1.51e+00	0	35	104	0	60	38173
2026-01-29 21:21:36.76	104.02	5.62	-44.8	-59.6	3.6	1.51e+00	0	35	104	0	60	38765
2026-01-29 21:21:37.77	104.22	5.59	-44.7	-59.6	3.5	1.51e+00	0	35	104	0	60	38627
2026-01-29 21:21:38.78	104.41	5.55	-44.8	-59.5	3.6	1.51e+00	0	35	104	0	60	38433
2026-01-29 21:21:39.79	104.61	5.51	-44.6	-59.4	3.6	1.51e+00	0	35	104	0	60	37761
2026-01-29 21:21:40.79	104.80	5.47	-44.6	-59.6	3.6	1.51e+00	0	35	104	0	60	38512
2026-01-29 21:21:41.81	105.00	5.44	-44.5	-59.5	3.6	1.51e+00	0	35	104	0	60	38438
2026-01-29 21:21:42.82	105.19	5.40	-44.5	-59.6	3.6	1.51e+00	0	35	104	0	60	38585
2026-01-29 21:21:43.83	105.39	5.36	-44.3	-59.3	3.6	1.51e+00	0	35	104	0	60	37607
2026-01-29 21:21:44.84	105.58	5.32	-44.5	-59.5	3.6	1.51e+00	0	35	104	0	60	38503
2026-01-29 21:21:45.85	105.77	5.28	-44.5	-59.5	3.6	1.51e+00	0	35	104	0	60	38298
2026-01-29 21:21:46.86	105.97	5.24	-44.6	-59.5	3.6	1.51e+00	0	35	104	0	60	38129
2026-01-29 21:21:47.87	106.16	5.20	-44.4	-59.3	3.6	1.51e+00	0	35	104	0	60	37333
2026-01-29 21:21:48.88	106.35	5.17	-44.6	-59.6	3.6	1.51e+00	0	35	104	0	60	38581
2026-01-29 21:21:49.89	106.54	5.13	-44.1	-59.4	3.6	1.51e+00	0	35	104	0	60	37797
2026-01-29 21:21:50.90	106.73	5.09	-44.4	-59.4	3.6	1.51e+00	0	35	104	0	60	37918
2026-01-29 21:21:51.91	106.92	5.05	-44.2	-59.2	3.6	1.51e+00	0	35	104	0	60	36886
2026-01-29 21:21:52.92	107.11	5.01	-44.4	-59.5	3.6	1.51e+00	0	35	104	0	60	38115
2026-01-29 21:21:53.92	107.29	4.97	-44.5	-59.3	3.6	1.51e+00	0	35	104	0	60	37452
2026-01-29 21:21:54.93	107.48	4.93	-44.5	-59.4	3.6	1.51e+00	0	35	104	0	60	37811
2026-01-29 21:21:55.94	107.66	4.89	-44.1	-59.1	3.6	1.51e+00	0	35	104	0	60	36566
2026-01-29 21:21:56.95	107.85	4.85	-44.7	-59.4	3.6	1.51e+00	0	35	104	0	60	38008
2026-01-29 21:21:57.96	108.04	4.81	-44.3	-59.2	3.6	1.51e+00	0	35	104	0	60	37184
2026-01-29 21:21:58.97	108.22	4.77	-44.4	-59.3	3.6	1.51e+00	0	35	104	0	60	37304
2026-01-29 21:21:59.98	108.40	4.73	-43.6	-59.0	3.6	1.51e+00	0	35	104	0	60	36158
2026-01-29 21:22:00.99	108.59	4.69	-44.6	-59.4	3.6	1.51e+00	0	35	104	0	60	37892
2026-01-29 21:22:02.00	108.77	4.65	-44.3	-59.2	3.6	1.51e+00	0	35	104	0	60	36977
2026-01-29 21:22:03.01	108.95	4.60	-44.2	-59.2	3.6	1.51e+00	0	35	104	0	60	36914
2026-01-29 21:22:04.02	109.13	4.56	-43.8	-58.9	3.6	1.51e+00	0	35	104	0	60	35880
2026-01-29 21:22:05.03	109.31	4.52	-44.5	-59.4	3.6	1.51e+00	0	35	104	0	60	38023
2026-01-29 21:22:06.04	109.49	4.48	-44.0	-59.1	3.6	1.51e+00	0	35	104	0	60	36746
2026-01-29 21:22:07.05	109.67	4.44	-44.2	-59.2	3.6	1.51e+00	0	35	104	0	60	36839
2026-01-29 21:22:08.07	109.85	4.40	-43.9	-59.0	3.6	1.51e+00	0	35	104	0	60	35997
2026-01-29 21:22:09.08	110.03	4.36	-44.4	-59.4	3.6	1.51e+00	0	35	104	0	60	37773
2026-01-29 21:22:10.09	110.21	4.31	-44.0	-59.1	3.6	1.51e+00	0	35	104	0	60	36645
2026-01-29 21:22:11.10	110.39	4.27	-44.0	-59.1	3.6	1.51e+00	0	35	104	0	60	36453
2026-01-29 21:22:12.11	110.56	4.23	-43.9	-58.9	3.6	1.51e+00	0	35	104	0	60	35538
2026-01-29 21:22:13.12	110.74	4.19	-44.4	-59.3	3.6	1.51e+00	0	35	104	0	60	37388
2026-01-29 21:22:14.13	110.91	4.15	-43.5	-59.1	3.6	1.51e+00	0	35	104	0	60	36429
2026-01-29 21:22:15.14	111.09	4.10	-44.0	-59.1	3.6	1.51e+00	0	35	104	0	60	36699
2026-01-29 21:22:16.15	111.26	4.06	-43.3	-58.9	3.6	1.51e+00	0	35	104	0	60	35530
2026-01-29 21:22:17.15	111.43	4.02	-44.4	-59.2	3.6	1.51e+00	0	35	104	0	60	36997
2026-01-29 21:22:18.17	111.61	3.98	-43.8	-59.0	3.6	1.51e+00	0	35	104	0	60	36233
2026-01-29 21:22:19.18	111.78	3.93	-43.4	-59.0	3.6	1.51e+00	0	35	104	0	60	36296
2026-01-29 21:22:20.19	111.95	3.89	-42.7	-58.7	3.6	1.51e+00	0	35	104	0	60	34935
2026-01-29 21:22:21.20	112.12	3.85	-44.1	-59.2	3.6	1.51e+00	0	35	104	0	60	36835
2026-01-29 21:22:22.21	112.29	3.81	-43.0	-59.0	3.6	1.51e+00	0	35	104	0	60	36180
2026-01-29 21:22:23.22	112.46	3.76	-43.8	-59.0	3.6	1.51e+00	0	35	104	0	60	36108
2026-01-29 21:22:24.23	112.63	3.72	-42.8	-58.7	3.6	1.51e+00	0	35	104	0	60	34861
2026-01-29 21:22:25.24	112.80	3.68	-43.8	-59.1	3.6	1.51e+00	0	35	104	0	60	36699
2026-01-29 21:22:26.25	112.97	3.63	-42.6	-58.6	3.6	1.51e+00	0	35	104	0	60	34555
2026-01-29 21:22:27.26	113.13	3.59	-42.9	-58.4	3.6	1.51e+00	0	35	104	0	60	33644
2026-01-29 21:22:28.27	113.30	3.55	-42.8	-58.2	3.6	1.51e+00	0	35	104	0	60	33037
2026-01-29 21:22:29.28	113.47	3.50	-42.1	-58.9	3.6	1.51e+00	0	35	104	0	60	35624
2026-01-29 21:22:30.29	113.63	3.46	-43.4	-58.5	3.6	1.51e+00	0	35	104	0	60	34116
2026-01-29 21:22:31.30	113.80	3.42	-44.0	-59.1	3.6	1.51e+00	0	35	104	0	60	36515
2026-01-29 21:22:32.31	113.96	3.37	-43.0	-58.6	3.6	1.51e+00	0	35	104	0	60	34404
2026-01-29 21:22:33.32	114.12	3.33	-42.9	-58.6	3.6	1.51e+00	0	35	104	0	60	34450
2026-01-29 21:22:34.33	114.29	3.29	-43.0	-58.6	3.6	1.51e+00	0	35	104	0	60	34412
2026-01-29 21:22:35.34	114.45	3.24	-43.3	-58.6	3.5	1.51e+00	0	35	104	0	60	34406
2026-01-29 21:22:36.35	114.61	3.20	-43.4	-58.5	3.6	1.51e+00	0	35	104	0	60	34141
2026-01-29 21:22:37.36	114.77	3.15	-43.2	-58.4	3.5	1.51e+00	0	35	104	0	60	33801
2026-01-29 21:22:38.37	114.93	3.11	-43.3	-58.4	3.6	1.51e+00	0	35	104	0	60	33885
2026-01-29 21:22:39.38	115.09	3.07	-43.4	-59.0	3.6	1.51e+00	0	35	104	0	60	36199
2026-01-29 21:22:40.39	115.25	3.02	-43.1	-58.3	3.6	1.51e+00	0	35	104	0	60	33386
2026-01-29 21:22:41.40	115.41	2.98	-44.7	-59.5	3.6	1.51e+00	0	35	104	0	60	38099
2026-01-29 21:22:42.41	115.57	2.93	-44.6	-59.9	3.6	1.51e+00	0	35	104	0	60	39933
2026-01-29 21:22:43.42	115.72	2.89	-44.9	-60.1	3.6	1.51e+00	0	35	104	0	60	41041
2026-01-29 21:22:44.43	115.88	2.85	-45.1	-60.3	3.6	1.51e+00	0	35	104	0	60	41783
2026-01-29 21:22:45.44	116.04	2.80	-45.3	-60.4	3.6	1.51e+00	0	35	104	0	60	42403
2026-01-29 21:22:46.45	116.19	2.76	-45.2	-60.5	3.6	1.51e+00	0	35	104	0	60	42850
2026-01-29 21:22:47.46	116.35	2.71	-45.6	-60.5	3.6	1.51e+00	0	35	104	0	60	43057
2026-01-29 21:22:48.48	116.50	2.67	-45.2	-60.7	3.6	1.51e+00	0	35	104	0	60	43774
2026-01-29 21:22:49.49	116.66	2.62	-45.6	-60.7	3.6	1.51e+00	0	35	104	0	60	43856
2026-01-29 21:22:50.50	116.81	2.58	-45.9	-60.7	3.6	1.51e+00	0	35	104	0	60	43831
2026-01-29 21:22:51.51	116.96	2.53	-45.9	-60.6	3.6	1.51e+00	0	35	104	0	60	43635
2026-01-29 21:22:52.52	117.12	2.49	-46.0	-60.7	3.6	1.51e+00	0	35	104	0	60	44074
2026-01-29 21:22:53.53	117.27	2.44	-45.7	-60.7	3.6	1.51e+00	0	35	104	0	60	44024
2026-01-29 21:22:54.54	117.42	2.40	-46.0	-60.7	3.6	1.51e+00	0	35	104	0	60	43858
2026-01-29 21:22:55.55	117.57	2.36	-46.0	-60.7	3.6	1.51e+00	0	35	104	0	60	43754
2026-01-29 21:22:56.56	117.72	2.31	-45.9	-60.6	3.6	1.51e+00	0	35	104	0	60	43700
2026-01-29 21:22:57.57	117.87	2.27	-45.9	-60.6	3.6	1.51e+00	0	35	104	0	60	43566
2026-01-29 21:22:58.58	118.02	2.22	-46.0	-60.7	3.6	1.51e+00	0	35	104	0	60	44061
2026-01-29 21:22:59.59	118.17	2.18	-46.0	-60.8	3.6	1.51e+00	0	35	104	0	60	44232
2026-01-29 21:23:00.60	118.31	2.13	-46.2	-60.9	3.6	1.51e+00	0	35	104	0	60	45180
2026-01-29 21:23:01.61	118.46	2.09	-46.0	-60.7	3.6	1.51e+00	0	35	104	0	60	43931
2026-01-29 21:23:02.62	118.61	2.04	-45.9	-60.6	3.6	1.51e+00	0	35	104	0	60	43521
2026-01-29 21:23:03.63	118.75	2.00	-45.9	-60.7	3.6	1.51e+00	0	35	104	0	60	43953
2026-01-29 21:23:04.64	118.90	1.95	-46.0	-60.7	3.6	1.51e+00	0	35	104	0	60	43956
2026-01-29 21:23:05.65	119.04	1.91	-46.0	-60.7	3.6	1.51e+00	0	35	104	0	60	43861
2026-01-29 21:23:06.66	119.19	1.86	-45.9	-60.7	3.6	1.51e+00	0	35	104	0	60	43719
2026-01-29 21:23:07.67	119.33	1.81	-45.9	-60.6	3.6	1.51e+00	0	35	104	0	60	43566
2026-01-29 21:23:08.68	119.48	1.77	-45.8	-60.6	3.6	1.51e+00	0	35	104	0	60	43217
2026-01-29 21:23:09.69	119.62	1.72	-45.8	-60.6	3.6	1.51e+00	0	35	104	0	60	43385
2026-01-29 21:23:10.70	119.76	1.68	-45.8	-60.5	3.6	1.51e+00	0	35	104	0	60	43143
2026-01-29 21:23:11.72	119.90	1.63	-45.8	-60.6	3.6	1.51e+00	0	35	104	0	60	43263
2026-01-29 21:23:12.73	120.04	1.59	-45.8	-60.6	3.6	1.51e+00	0	35	104	0	60	43260
2026-01-29 21:23:13.74	120.18	1.54	-45.8	-60.6	3.6	1.51e+00	0	35	104	0	60	43335
2026-01-29 21:23:14.75	120.32	1.50	-45.8	-60.5	3.6	1.51e+00	0	35	104	0	60	43157
2026-01-29 21:23:15.76	120.46	1.45	-45.9	-60.6	3.6	1.51e+00	0	35	104	0	60	43337
2026-01-29 21:23:16.76	120.60	1.41	-45.8	-60.5	3.6	1.51e+00	0	35	104	0	60	43105
2026-01-29 21:23:17.77	120.74	1.36	-45.8	-60.5	3.5	1.51e+00	0	35	104	0	60	42916
2026-01-29 21:23:18.78	120.88	1.32	-45.8	-60.5	3.6	1.51e+00	0	35	104	0	60	43146
2026-01-29 21:23:19.79	121.02	1.27	-45.8	-60.5	3.6	1.51e+00	0	35	104	0	60	42837
2026-01-29 21:23:20.80	121.15	1.23	-45.8	-60.6	3.6	1.51e+00	0	35	104	0	60	43313
2026-01-29 21:23:21.81	121.29	1.18	-45.8	-60.6	3.6	1.51e+00	0	35	104	0	60	43374
2026-01-29 21:23:22.82	121.42	1.13	-45.8	-60.6	3.6	1.51e+00	0	35	104	0	60	43386
2026-01-29 21:23:23.84	121.56	1.09	-45.8	-60.5	3.6	1.51e+00	0	35	104	0	60	43114
2026-01-29 21:23:24.85	121.70	1.04	-45.8	-60.6	3.6	1.51e+00	0	35	104	0	60	43255
2026-01-29 21:23:25.86	121.83	1.00	-45.8	-60.5	3.6	1.51e+00	0	35	104	0	60	42911
2026-01-29 21:23:26.87	121.96	0.95	-45.8	-60.5	3.6	1.51e+00	0	35	104	0	60	42872
2026-01-29 21:23:27.88	122.10	0.91	-45.8	-60.5	3.6	1.51e+00	0	35	104	0	60	43098
2026-01-29 21:23:28.89	122.23	0.86	-45.8	-60.5	3.6	1.51e+00	0	35	104	0	60	42943
2026-01-29 21:23:29.90	122.36	0.81	-45.8	-60.5	3.6	1.51e+00	0	35	104	0	60	42847
2026-01-29 21:23:30.91	122.49	0.77	-45.8	-60.5	3.6	1.51e+00	0	35	104	0	60	43075
2026-01-29 21:23:31.92	122.62	0.72	-45.8	-60.5	3.6	1.51e+00	0	35	104	0	60	43017
2026-01-29 21:23:32.93	122.76	0.68	-45.8	-60.5	3.6	1.51e+00	0	35	104	0	60	43135
2026-01-29 21:23:33.94	122.89	0.63	-45.8	-60.5	3.6	1.51e+00	0	35	104	0	60	43129
2026-01-29 21:23:34.95	123.02	0.59	-45.8	-60.5	3.5	1.51e+00	0	35	104	0	60	42949
2026-01-29 21:23:35.96	123.14	0.54	-45.8	-60.5	3.6	1.51e+00	0	35	104	0	60	43199
2026-01-29 21:23:36.97	123.27	0.50	-45.8	-60.5	3.6	1.51e+00	0	35	104	0	60	43047
2026-01-29 21:23:37.98	123.40	0.45	-45.8	-60.5	3.6	1.51e+00	0	35	104	0	60	43015
2026-01-29 21:23:38.99	123.53	0.40	-45.8	-60.5	3.6	1.51e+00	0	35	104	0	60	42873
2026-01-29 21:23:40.00	123.66	0.36	-45.8	-60.5	3.6	1.51e+00	0	35	104	0	60	42794
2026-01-29 21:23:41.01	123.78	0.31	-45.8	-60.5	3.6	1.51e+00	0	35	104	0	60	43022
2026-01-29 21:23:42.02	123.91	0.27	-45.8	-60.5	3.6	1.51e+00	0	35	104	0	60	43162
2026-01-29 21:23:43.03	124.04	0.22	-45.8	-60.5	3.6	1.51e+00	0	35	104	0	60	43188
2026-01-29 21:23:44.04	124.16	0.18	-45.8	-60.6	3.6	1.51e+00	0	35	104	0	60	43359
2026-01-29 21:23:45.05	124.29	0.13	-45.8	-60.5	3.6	1.51e+00	0	35	104	0	60	42978
2026-01-29 21:23:46.06	124.41	0.08	-45.8	-60.5	3.6	1.51e+00	0	35	104	0	60	43131
2026-01-29 21:23:47.07	124.53	0.04	-45.8	-60.5	3.6	1.51e+00	0	35	104	0	60	42933
2026-01-29 21:23:48.08	124.66	-0.01	-45.8	-60.5	3.6	1.51e+00	0	35	104	0	60	42928
2026-01-29 21:23:49.09	124.78	-0.05	-45.8	-60.5	3.6	1.51e+00	0	35	104	0	60	43180
2026-01-29 21:23:50.10	124.90	-0.10	-45.8	-60.4	3.6	1.51e+00	0	35	104	0	60	42704

#Closed at: 2026-01-29 21:23:50
#Recorded file [0 MB]: D:/lorett/data/35029_260130_091515.dat