passes_logs/2026/01/29/R4.6S_Anadyr/R4.6S_Anadyr__20260129_152229_SUOMI_NPP_rec.log

#Pass ID: 20260129_152229_SUOMI NPP
#Satellite: SUOMI NPP
#Configuration: NPP
#almurnet v.1.7.20251203
#Start time: 2026-01-29 15:22:31

#Version: 2.2.20231116
#Station: R4.6S_Anadyr
#Location: 177.4865 lon 64.73178 lat
#TLE: 1 37849U 11061A   26028.91916408  .00000155  00000+0  94467-4 0  9990
#TLE: 2 37849  98.7824 330.8488 0002045  39.4457 320.6868 14.19531289738686

#Time	Az	El	Level	Level2	SNR	BER	BlckErr	Temp	State	Recorded	gain1	gain2
2026-01-29 15:22:31.20	21.91	0.13	-48.7	-61.3	3.5	1.52e+00	0	27	0	0	60	40733
2026-01-29 15:22:32.20	21.90	0.19	-48.8	-64.0	3.6	1.51e+00	0	28	104	0	60	57136
2026-01-29 15:22:33.21	21.89	0.25	-48.8	-64.0	3.6	1.51e+00	0	28	104	0	60	57317
2026-01-29 15:22:34.22	21.88	0.31	-48.8	-64.0	3.6	1.51e+00	0	28	104	0	60	57298
2026-01-29 15:22:35.23	21.87	0.37	-48.8	-64.0	3.6	1.51e+00	0	28	104	0	60	57444
2026-01-29 15:22:36.24	21.86	0.43	-48.9	-64.1	3.6	1.51e+00	0	28	104	0	60	57684
2026-01-29 15:22:37.25	21.84	0.49	-48.9	-64.1	3.6	1.51e+00	0	28	104	0	60	57774
2026-01-29 15:22:38.26	21.83	0.55	-48.9	-64.0	3.6	1.51e+00	0	28	104	0	60	57517
2026-01-29 15:22:39.27	21.82	0.61	-48.9	-64.1	3.6	1.51e+00	0	28	104	0	60	57777
2026-01-29 15:22:40.28	21.81	0.67	-48.9	-64.1	3.6	1.51e+00	0	28	104	0	60	58070
2026-01-29 15:22:41.29	21.80	0.73	-48.9	-64.1	3.6	1.51e+00	0	28	104	0	60	57704
2026-01-29 15:22:42.31	21.78	0.80	-48.9	-64.1	3.6	1.51e+00	0	28	104	0	60	57864
2026-01-29 15:22:43.31	21.77	0.86	-48.8	-64.0	3.6	1.51e+00	0	28	104	0	60	57319
2026-01-29 15:22:44.33	21.76	0.92	-48.8	-64.0	3.6	1.51e+00	0	28	104	0	60	57199
2026-01-29 15:22:45.34	21.75	0.98	-48.7	-63.9	3.6	1.51e+00	0	28	104	0	60	56860
2026-01-29 15:22:46.35	21.74	1.04	-48.7	-63.9	3.6	1.51e+00	0	28	104	0	60	56579
2026-01-29 15:22:47.36	21.72	1.11	-48.6	-63.8	3.6	1.51e+00	0	28	104	0	60	55952
2026-01-29 15:22:48.37	21.71	1.17	-48.5	-63.7	3.6	1.51e+00	0	28	104	0	60	55163
2026-01-29 15:22:49.38	21.70	1.23	-48.4	-63.6	3.6	1.51e+00	0	28	104	0	60	54601
2026-01-29 15:22:50.39	21.69	1.29	-48.2	-63.5	3.6	1.51e+00	0	28	104	0	60	54000
2026-01-29 15:22:51.40	21.67	1.36	-48.1	-63.3	3.6	1.51e+00	0	28	104	0	60	52834
2026-01-29 15:22:52.41	21.66	1.42	-48.0	-63.2	3.6	1.51e+00	0	28	104	0	60	52060
2026-01-29 15:22:53.42	21.65	1.48	-47.7	-62.8	3.6	1.51e+00	0	28	104	0	60	50154
2026-01-29 15:22:54.43	21.63	1.54	-47.6	-62.8	3.6	1.51e+00	0	28	104	0	60	49663
2026-01-29 15:22:55.44	21.62	1.61	-47.5	-62.4	3.6	1.51e+00	0	28	104	0	60	47912
2026-01-29 15:22:56.45	21.61	1.67	-47.5	-62.3	3.6	1.51e+00	0	28	104	0	60	47365
2026-01-29 15:22:57.46	21.59	1.73	-47.4	-62.2	3.6	1.51e+00	0	28	104	0	60	46743
2026-01-29 15:22:58.47	21.58	1.80	-47.4	-62.3	3.6	1.51e+00	0	28	104	0	60	47293
2026-01-29 15:22:59.48	21.57	1.86	-47.4	-62.3	3.6	1.51e+00	0	28	104	0	60	47063
2026-01-29 15:23:00.49	21.56	1.93	-47.4	-62.4	3.6	1.51e+00	0	28	104	0	60	47879
2026-01-29 15:23:01.50	21.54	1.99	-47.4	-62.4	3.6	1.51e+00	0	28	104	0	60	47901
2026-01-29 15:23:02.51	21.53	2.05	-47.4	-62.5	3.6	1.51e+00	0	28	104	0	60	48154
2026-01-29 15:23:03.52	21.51	2.12	-47.5	-62.5	3.6	1.51e+00	0	28	104	0	60	48075
2026-01-29 15:23:04.53	21.50	2.18	-47.5	-62.6	3.6	1.51e+00	0	28	104	0	60	48566
2026-01-29 15:23:05.55	21.49	2.25	-47.5	-62.6	3.6	1.51e+00	0	28	104	0	60	48716
2026-01-29 15:23:06.55	21.47	2.31	-47.4	-62.6	3.6	1.51e+00	0	29	104	0	60	48481
2026-01-29 15:23:07.56	21.46	2.38	-47.4	-62.6	3.6	1.51e+00	0	28	104	0	60	48735
2026-01-29 15:23:08.58	21.44	2.44	-47.4	-62.4	3.6	1.51e+00	0	28	104	0	60	47881
2026-01-29 15:23:09.58	21.43	2.51	-47.4	-62.2	3.6	1.51e+00	0	28	104	0	60	46411
2026-01-29 15:23:10.59	21.42	2.57	-47.4	-61.8	3.6	1.51e+00	0	29	104	0	60	44358
2026-01-29 15:23:11.60	21.40	2.64	-47.4	-61.2	3.6	1.51e+00	0	28	104	0	60	41422
2026-01-29 15:23:12.61	21.39	2.70	-47.4	-60.6	3.7	1.51e+00	0	28	104	0	60	38573
2026-01-29 15:23:13.62	21.37	2.77	-47.4	-60.4	3.7	1.50e+00	0	28	104	0	60	37734
2026-01-29 15:23:14.63	21.36	2.84	-47.3	-60.3	3.6	1.50e+00	0	28	104	0	60	37540
2026-01-29 15:23:15.64	21.34	2.90	-47.4	-60.6	3.6	1.50e+00	0	28	104	0	60	38830
2026-01-29 15:23:16.65	21.33	2.97	-47.4	-61.2	3.6	1.51e+00	0	29	104	0	60	41490
2026-01-29 15:23:17.66	21.32	3.03	-47.4	-61.6	3.6	1.51e+00	0	28	104	0	60	43327
2026-01-29 15:23:18.67	21.30	3.10	-47.3	-59.7	3.7	1.51e+00	0	29	104	0	60	34939
2026-01-29 15:23:19.68	21.29	3.17	-47.1	-57.0	4.7	9.95e-01	0	29	0	0	60	25635
2026-01-29 15:23:20.69	21.27	3.23	-46.7	-53.6	7.1	2.82e-01	26	29	0	2097152	60	17338
2026-01-29 15:23:21.70	21.26	3.30	-46.0	-51.3	9.9	2.79e-02	0	29	0	3145728	60	13237
2026-01-29 15:23:22.71	21.24	3.37	-45.4	-49.6	11.7	7.39e-04	0	29	0	5242880	60	10900
2026-01-29 15:23:23.72	21.22	3.44	-45.0	-48.9	12.6	3.50e-05	0	29	0	7340032	60	10066
2026-01-29 15:23:24.73	21.21	3.50	-44.3	-47.5	14.0	5.30e-06	0	29	0	9437184	60	8566
2026-01-29 15:23:25.74	21.19	3.57	-43.7	-46.5	15.0	0.00e+00	92	29	0	11534336	60	7627
2026-01-29 15:23:26.75	21.18	3.64	-43.3	-45.8	15.8	0.00e+00	0	29	0	12582912	60	7039
2026-01-29 15:23:27.76	21.16	3.71	-43.3	-45.8	15.7	0.00e+00	0	29	0	14680064	60	7071
2026-01-29 15:23:28.77	21.15	3.78	-43.5	-46.2	15.4	0.00e+00	0	28	0	16777216	60	7345
2026-01-29 15:23:29.78	21.13	3.84	-46.6	-53.2	7.2	1.09e-03	0	29	0	18874368	60	16479
2026-01-29 15:23:30.79	21.11	3.91	-39.9	-41.2	20.1	1.50e-02	0	29	0	20971520	54	5836
2026-01-29 15:23:31.80	21.10	3.98	-47.3	-59.5	3.4	0.00e+00	27	29	0	22020096	60	34304
2026-01-29 15:23:32.81	21.08	4.05	-45.6	-50.2	5.2	1.48e+00	0	29	104	22020096	60	11701
2026-01-29 15:23:33.82	21.07	4.12	-44.5	-48.0	10.8	8.30e-06	0	29	0	22020096	58	10193
2026-01-29 15:23:34.83	21.05	4.19	-41.3	-42.9	18.8	2.11e-02	83	29	0	24117248	58	5684
2026-01-29 15:23:35.84	21.03	4.26	-40.4	-41.8	19.7	0.00e+00	0	29	0	25165824	54	6259
2026-01-29 15:23:36.85	21.02	4.33	-40.2	-41.6	19.9	0.00e+00	0	29	0	27262976	54	6172
2026-01-29 15:23:37.86	21.00	4.40	-40.4	-41.8	19.7	0.00e+00	0	29	0	29360128	54	6276
2026-01-29 15:23:38.87	20.98	4.47	-40.2	-41.6	19.8	0.00e+00	0	29	0	31457280	52	6858
2026-01-29 15:23:39.88	20.97	4.54	-40.1	-41.5	19.9	0.00e+00	40	29	0	33554432	52	6818
2026-01-29 15:23:40.89	20.95	4.61	-40.2	-41.6	19.9	0.00e+00	0	29	0	34603008	52	6871
2026-01-29 15:23:41.90	20.93	4.68	-39.9	-41.2	20.2	0.00e+00	66	29	0	36700160	52	6605
2026-01-29 15:23:42.90	20.92	4.75	-39.9	-41.1	20.2	0.00e+00	0	29	0	38797312	52	6538
2026-01-29 15:23:43.91	20.90	4.82	-40.1	-41.4	20.1	0.00e+00	0	29	0	40894464	52	6756
2026-01-29 15:23:44.92	20.88	4.89	-39.9	-41.3	20.2	0.00e+00	0	29	0	42991616	52	6622
2026-01-29 15:23:45.93	20.86	4.96	-40.0	-41.3	20.1	0.00e+00	0	29	0	44040192	52	6647
2026-01-29 15:23:46.94	20.85	5.03	-39.9	-41.2	20.2	0.00e+00	67	29	0	46137344	52	6593
2026-01-29 15:23:47.95	20.83	5.10	-39.9	-41.2	20.2	0.00e+00	0	29	0	48234496	52	6596
2026-01-29 15:23:48.96	20.81	5.17	-39.9	-41.3	20.2	0.00e+00	73	29	0	50331648	52	6621
2026-01-29 15:23:49.97	20.79	5.25	-39.9	-41.2	20.2	0.00e+00	0	29	0	52428800	52	6582
2026-01-29 15:23:50.98	20.77	5.32	-40.0	-41.3	20.2	0.00e+00	0	29	0	53477376	52	6640
2026-01-29 15:23:51.99	20.76	5.39	-39.7	-40.9	20.4	0.00e+00	0	29	0	55574528	52	6380
2026-01-29 15:23:53.00	20.74	5.46	-39.6	-40.9	20.6	0.00e+00	0	29	0	57671680	52	6363
2026-01-29 15:23:54.01	20.72	5.54	-39.8	-41.1	20.4	0.00e+00	64	28	0	59768832	52	6529
2026-01-29 15:23:55.02	20.70	5.61	-39.9	-41.1	20.4	0.00e+00	0	29	0	61865984	52	6536
2026-01-29 15:23:56.03	20.68	5.68	-39.9	-41.2	20.3	0.00e+00	33	29	0	62914560	52	6540
2026-01-29 15:23:57.03	20.66	5.75	-39.7	-41.0	20.7	0.00e+00	0	29	0	65011712	52	6405
2026-01-29 15:23:58.04	20.65	5.83	-39.6	-40.9	20.6	0.00e+00	0	29	0	67108864	52	6336
2026-01-29 15:23:59.05	20.63	5.90	-39.9	-41.2	20.5	0.00e+00	0	29	0	69206016	52	6574
2026-01-29 15:24:00.06	20.61	5.98	-39.6	-40.9	20.7	0.00e+00	0	29	0	71303168	52	6340
2026-01-29 15:24:01.07	20.59	6.05	-39.9	-41.2	20.5	0.00e+00	0	29	0	72351744	52	6542
2026-01-29 15:24:02.08	20.57	6.12	-40.0	-41.3	20.4	0.00e+00	0	29	0	74448896	52	6617
2026-01-29 15:24:03.09	20.55	6.20	-39.7	-41.0	20.6	0.00e+00	43	29	0	76546048	52	6409
2026-01-29 15:24:04.10	20.53	6.27	-39.6	-40.8	20.8	0.00e+00	0	29	0	78643200	52	6283
2026-01-29 15:24:05.11	20.51	6.35	-39.4	-40.6	21.0	0.00e+00	54	29	0	80740352	52	6107
2026-01-29 15:24:06.12	20.49	6.42	-39.5	-40.7	21.0	0.00e+00	0	29	0	81788928	52	6193
2026-01-29 15:24:07.13	20.47	6.50	-39.4	-40.6	21.1	0.00e+00	0	29	0	83886080	52	6122
2026-01-29 15:24:08.14	20.45	6.57	-39.1	-40.3	21.2	0.00e+00	16	29	0	85983232	52	5923
2026-01-29 15:24:09.15	20.43	6.65	-39.7	-40.9	20.7	0.00e+00	0	29	0	88080384	52	6354
2026-01-29 15:24:10.16	20.41	6.73	-39.4	-40.6	21.0	0.00e+00	90	29	0	90177536	52	6121
2026-01-29 15:24:11.17	20.39	6.80	-39.3	-40.5	21.2	0.00e+00	0	29	0	92274688	52	6054
2026-01-29 15:24:12.17	20.37	6.88	-39.2	-40.3	21.4	0.00e+00	92	29	0	93323264	52	5960
2026-01-29 15:24:13.18	20.35	6.96	-39.4	-40.6	21.1	0.00e+00	0	29	0	95420416	52	6116
2026-01-29 15:24:14.19	20.33	7.03	-39.3	-40.5	21.1	0.00e+00	0	29	0	97517568	52	6059
2026-01-29 15:24:15.20	20.31	7.11	-39.2	-40.3	21.4	0.00e+00	0	29	0	99614720	52	5963
2026-01-29 15:24:16.21	20.29	7.19	-39.1	-40.3	21.3	0.00e+00	0	29	0	101711872	52	5920
2026-01-29 15:24:17.22	20.27	7.26	-39.1	-40.2	21.5	0.00e+00	18	29	0	102760448	52	5853
2026-01-29 15:24:18.23	20.24	7.34	-39.1	-40.2	21.4	0.00e+00	0	29	0	104857600	52	5876
2026-01-29 15:24:19.24	20.22	7.42	-39.1	-40.2	21.4	0.00e+00	80	29	0	106954752	52	5861
2026-01-29 15:24:20.25	20.20	7.50	-39.0	-40.2	21.5	0.00e+00	0	29	0	109051904	52	5842
2026-01-29 15:24:21.26	20.18	7.58	-39.0	-40.1	21.5	0.00e+00	0	29	0	110100480	52	5822
2026-01-29 15:24:22.27	20.16	7.66	-39.3	-40.4	21.1	0.00e+00	0	29	0	112197632	52	6033
2026-01-29 15:24:23.28	20.14	7.74	-38.9	-40.1	21.6	0.00e+00	0	29	0	114294784	52	5765
2026-01-29 15:24:24.29	20.11	7.81	-39.2	-40.4	21.3	0.00e+00	23	29	0	116391936	52	5967
2026-01-29 15:24:25.30	20.09	7.89	-39.1	-40.3	21.5	0.00e+00	0	29	0	118489088	52	5904
2026-01-29 15:24:26.31	20.07	7.97	-38.8	-40.0	21.8	0.00e+00	76	29	0	120586240	52	5701
2026-01-29 15:24:27.32	20.05	8.05	-38.8	-39.9	21.6	0.00e+00	0	29	0	121634816	50	6373
2026-01-29 15:24:28.33	20.02	8.13	-38.9	-40.0	21.8	0.00e+00	0	29	0	123731968	50	6413
2026-01-29 15:24:29.34	20.00	8.21	-38.6	-39.7	21.8	0.00e+00	0	29	0	125829120	50	6179
2026-01-29 15:24:30.35	19.98	8.30	-38.7	-39.8	21.8	0.00e+00	0	29	0	127926272	50	6296
2026-01-29 15:24:31.36	19.95	8.38	-38.9	-40.1	21.6	0.00e+00	68	29	0	130023424	50	6474
2026-01-29 15:24:32.37	19.93	8.46	-38.9	-40.0	21.7	0.00e+00	0	29	0	131072000	50	6450
2026-01-29 15:24:33.38	19.91	8.54	-38.6	-39.6	22.0	0.00e+00	64	29	0	133169152	50	6169
2026-01-29 15:24:34.39	19.88	8.62	-38.5	-39.6	22.0	0.00e+00	0	29	0	135266304	50	6132
2026-01-29 15:24:35.40	19.86	8.70	-38.5	-39.5	22.0	0.00e+00	0	29	0	137363456	50	6100
2026-01-29 15:24:36.41	19.84	8.79	-38.5	-39.6	22.1	0.00e+00	0	29	0	139460608	50	6104
2026-01-29 15:24:37.41	19.81	8.87	-38.4	-39.5	22.2	0.00e+00	0	29	0	140509184	50	6046
2026-01-29 15:24:38.42	19.79	8.95	-38.6	-39.6	22.1	0.00e+00	0	29	0	142606336	50	6168
2026-01-29 15:24:39.43	19.76	9.03	-38.6	-39.7	22.0	0.00e+00	0	29	0	144703488	50	6220
2026-01-29 15:24:40.44	19.74	9.12	-38.5	-39.6	22.1	0.00e+00	84	29	0	146800640	50	6116
2026-01-29 15:24:41.45	19.71	9.20	-38.4	-39.5	22.2	0.00e+00	0	29	0	148897792	50	6034
2026-01-29 15:24:42.46	19.69	9.28	-38.2	-39.2	22.5	0.00e+00	65	29	0	149946368	50	5843
2026-01-29 15:24:43.47	19.66	9.37	-38.4	-39.5	22.2	0.00e+00	0	29	0	152043520	50	6043
2026-01-29 15:24:44.48	19.64	9.45	-38.3	-39.3	22.4	0.00e+00	0	29	0	154140672	50	5934
2026-01-29 15:24:45.49	19.61	9.54	-38.2	-39.3	22.4	0.00e+00	0	29	0	156237824	50	5911
2026-01-29 15:24:46.50	19.59	9.62	-38.2	-39.3	22.4	0.00e+00	0	29	0	158334976	50	5908
2026-01-29 15:24:47.51	19.56	9.71	-38.2	-39.3	22.4	0.00e+00	58	29	0	160432128	50	5913
2026-01-29 15:24:48.52	19.53	9.79	-38.0	-39.0	22.6	0.00e+00	0	29	0	161480704	50	5696
2026-01-29 15:24:49.53	19.51	9.88	-37.9	-38.9	22.7	0.00e+00	92	29	0	163577856	50	5670
2026-01-29 15:24:50.54	19.48	9.97	-37.8	-38.8	22.9	0.00e+00	0	29	0	165675008	50	5568
2026-01-29 15:24:51.55	19.46	10.05	-37.9	-38.9	22.8	0.00e+00	0	29	0	167772160	50	5637
2026-01-29 15:24:52.56	19.43	10.14	-37.8	-38.7	22.9	0.00e+00	0	29	0	168820736	50	5555
2026-01-29 15:24:53.56	19.40	10.23	-37.9	-38.9	22.8	0.00e+00	0	29	0	170917888	48	6328
2026-01-29 15:24:54.58	19.38	10.31	-37.9	-38.9	22.7	0.00e+00	36	29	0	173015040	48	6362
2026-01-29 15:24:55.59	19.35	10.40	-37.8	-38.8	22.8	0.00e+00	0	29	0	175112192	48	6270
2026-01-29 15:24:56.60	19.32	10.49	-37.9	-38.9	22.7	0.00e+00	91	29	0	177209344	48	6374
2026-01-29 15:24:57.61	19.29	10.58	-37.9	-38.9	22.8	0.00e+00	0	29	0	179306496	48	6354
2026-01-29 15:24:58.62	19.26	10.67	-37.8	-38.7	22.8	0.00e+00	0	29	0	180355072	48	6230
2026-01-29 15:24:59.63	19.24	10.75	-37.8	-38.8	22.8	0.00e+00	0	29	0	182452224	48	6278
2026-01-29 15:25:00.64	19.21	10.84	-37.6	-38.6	23.0	0.00e+00	0	29	0	184549376	48	6123
2026-01-29 15:25:01.65	19.18	10.93	-37.5	-38.4	23.2	0.00e+00	2	29	0	186646528	48	6022
2026-01-29 15:25:02.66	19.15	11.02	-37.5	-38.5	23.2	0.00e+00	0	29	0	188743680	48	6040
2026-01-29 15:25:03.67	19.12	11.11	-37.4	-38.3	23.2	0.00e+00	75	29	0	189792256	48	5914
2026-01-29 15:25:04.68	19.09	11.20	-37.3	-38.2	23.3	0.00e+00	0	29	0	191889408	48	5890
2026-01-29 15:25:05.69	19.06	11.30	-37.0	-37.9	23.5	0.00e+00	0	29	0	193986560	48	5659
2026-01-29 15:25:06.70	19.03	11.39	-37.1	-38.0	23.5	0.00e+00	0	29	0	196083712	48	5729
2026-01-29 15:25:07.71	19.01	11.48	-37.1	-38.0	23.5	0.00e+00	0	29	0	198180864	48	5697
2026-01-29 15:25:08.72	18.98	11.57	-37.1	-38.1	23.5	0.00e+00	67	29	0	199229440	48	5763
2026-01-29 15:25:09.73	18.95	11.66	-37.0	-37.9	23.6	0.00e+00	0	29	0	201326592	48	5657
2026-01-29 15:25:10.74	18.91	11.75	-37.0	-37.9	23.6	0.00e+00	74	29	0	203423744	48	5653
2026-01-29 15:25:11.75	18.88	11.85	-36.9	-37.8	23.7	0.00e+00	0	29	0	205520896	48	5601
2026-01-29 15:25:12.76	18.85	11.94	-36.8	-37.7	23.7	0.00e+00	0	29	0	207618048	48	5535
2026-01-29 15:25:13.77	18.82	12.03	-36.9	-37.7	23.7	0.00e+00	0	29	0	208666624	48	5556
2026-01-29 15:25:14.78	18.79	12.13	-36.8	-37.7	23.8	0.00e+00	0	29	0	210763776	46	6184
2026-01-29 15:25:15.79	18.76	12.22	-36.8	-37.6	23.8	0.00e+00	16	29	0	212860928	46	6169
2026-01-29 15:25:16.80	18.73	12.32	-36.8	-37.7	23.7	0.00e+00	33	29	0	214958080	46	6212
2026-01-29 15:25:17.81	18.70	12.41	-36.7	-37.5	23.9	0.00e+00	92	29	0	217055232	46	6088
2026-01-29 15:25:18.82	18.66	12.51	-36.6	-37.4	23.9	0.00e+00	0	29	0	218103808	46	6016
2026-01-29 15:25:19.82	18.63	12.60	-36.8	-37.6	23.8	0.00e+00	92	29	0	220200960	46	6152
2026-01-29 15:25:20.83	18.60	12.70	-36.7	-37.5	23.9	0.00e+00	0	29	0	222298112	46	6078
2026-01-29 15:25:21.84	18.57	12.79	-36.7	-37.6	23.8	0.00e+00	0	29	0	224395264	46	6112
2026-01-29 15:25:22.85	18.53	12.89	-36.8	-37.6	23.6	0.00e+00	0	29	0	226492416	46	6159
2026-01-29 15:25:23.86	18.50	12.99	-36.6	-37.5	23.7	0.00e+00	0	29	0	228589568	46	6064
2026-01-29 15:25:24.87	18.47	13.09	-36.7	-37.6	23.6	0.00e+00	76	29	0	229638144	46	6107
2026-01-29 15:25:25.88	18.43	13.18	-36.7	-37.5	23.4	0.00e+00	0	29	0	231735296	46	6085
2026-01-29 15:25:26.89	18.40	13.28	-36.6	-37.4	23.9	0.00e+00	91	29	0	233832448	46	6003
2026-01-29 15:25:27.90	18.36	13.38	-36.6	-37.4	23.4	0.00e+00	0	29	0	235929600	46	6025
2026-01-29 15:25:28.91	18.33	13.48	-36.7	-37.5	23.6	0.00e+00	0	29	0	238026752	46	6067
2026-01-29 15:25:29.92	18.30	13.58	-36.7	-37.5	23.6	0.00e+00	0	29	0	239075328	46	6068
2026-01-29 15:25:30.93	18.26	13.68	-36.8	-37.6	23.6	0.00e+00	0	29	0	241172480	46	6158
2026-01-29 15:25:31.94	18.22	13.78	-36.6	-37.5	23.9	0.00e+00	66	29	0	243269632	46	6043
2026-01-29 15:25:32.95	18.19	13.88	-36.7	-37.5	23.9	0.00e+00	0	29	0	245366784	46	6066
2026-01-29 15:25:33.96	18.15	13.98	-36.6	-37.5	24.0	0.00e+00	90	29	0	247463936	46	6044
2026-01-29 15:25:34.97	18.12	14.08	-36.7	-37.5	23.8	0.00e+00	0	29	0	248512512	46	6083
2026-01-29 15:25:35.98	18.08	14.19	-36.7	-37.5	23.9	0.00e+00	0	29	0	250609664	46	6103
2026-01-29 15:25:36.99	18.04	14.29	-36.8	-37.7	23.8	0.00e+00	0	29	0	252706816	46	6200
2026-01-29 15:25:38.00	18.01	14.39	-36.8	-37.7	23.8	0.00e+00	0	29	0	254803968	46	6189
2026-01-29 15:25:39.01	17.97	14.49	-36.7	-37.5	23.9	0.00e+00	4	29	0	256901120	46	6081
2026-01-29 15:25:40.02	17.93	14.60	-37.0	-37.8	23.6	0.00e+00	0	29	0	257949696	46	6310
2026-01-29 15:25:41.03	17.89	14.70	-37.0	-37.9	23.6	0.00e+00	86	29	0	260046848	46	6343
2026-01-29 15:25:42.04	17.86	14.81	-37.0	-37.8	23.8	0.00e+00	0	29	0	262144000	46	6298
2026-01-29 15:25:43.05	17.82	14.91	-36.9	-37.8	23.7	0.00e+00	0	29	0	264241152	46	6296
2026-01-29 15:25:44.06	17.78	15.02	-36.9	-37.7	23.8	0.00e+00	0	29	0	266338304	46	6231
2026-01-29 15:25:45.07	17.74	15.12	-36.8	-37.7	23.9	0.00e+00	0	29	0	267386880	46	6181
2026-01-29 15:25:46.08	17.70	15.23	-36.9	-37.7	23.9	0.00e+00	25	29	0	269484032	46	6237
2026-01-29 15:25:47.09	17.66	15.33	-36.9	-37.8	23.7	0.00e+00	0	29	0	271581184	46	6266
2026-01-29 15:25:48.10	17.62	15.44	-37.0	-37.9	23.6	0.00e+00	92	29	0	273678336	46	6344
2026-01-29 15:25:49.11	17.58	15.55	-37.1	-38.0	23.5	0.00e+00	0	29	0	275775488	46	6414
2026-01-29 15:25:50.12	17.54	15.66	-36.8	-37.7	23.9	0.00e+00	49	29	0	276824064	46	6214
2026-01-29 15:25:51.12	17.50	15.76	-36.9	-37.8	23.6	0.00e+00	0	29	0	278921216	46	6284
2026-01-29 15:25:52.13	17.46	15.87	-37.0	-37.9	23.8	0.00e+00	0	29	0	281018368	46	6344
2026-01-29 15:25:53.14	17.42	15.98	-36.9	-37.8	23.7	0.00e+00	0	29	0	283115520	46	6303
2026-01-29 15:25:54.15	17.37	16.09	-36.7	-37.6	24.1	0.00e+00	0	29	0	285212672	46	6143
2026-01-29 15:25:55.16	17.33	16.20	-36.9	-37.7	23.9	0.00e+00	90	29	0	286261248	46	6237
2026-01-29 15:25:56.17	17.29	16.31	-36.9	-37.7	23.8	0.00e+00	0	29	0	288358400	46	6244
2026-01-29 15:25:57.18	17.25	16.43	-37.1	-38.0	23.6	0.00e+00	49	29	0	290455552	46	6409
2026-01-29 15:25:58.19	17.20	16.54	-36.9	-37.8	23.7	0.00e+00	0	29	0	292552704	46	6249
2026-01-29 15:25:59.20	17.16	16.65	-36.9	-37.8	23.8	0.00e+00	0	29	0	294649856	46	6292
2026-01-29 15:26:00.21	17.11	16.76	-37.0	-37.9	23.8	0.00e+00	0	29	0	296747008	46	6328
2026-01-29 15:26:01.22	17.07	16.88	-36.9	-37.8	23.8	0.00e+00	0	29	0	297795584	46	6270
2026-01-29 15:26:02.23	17.03	16.99	-37.0	-37.9	23.7	0.00e+00	67	29	0	299892736	46	6332
2026-01-29 15:26:03.24	16.98	17.10	-37.0	-37.9	23.8	0.00e+00	0	29	0	301989888	46	6342
2026-01-29 15:26:04.25	16.93	17.22	-36.8	-37.7	23.8	0.00e+00	68	29	0	304087040	46	6231
2026-01-29 15:26:05.26	16.89	17.34	-37.0	-37.9	23.8	0.00e+00	0	29	0	306184192	46	6387
2026-01-29 15:26:06.27	16.84	17.45	-37.1	-38.1	23.7	0.00e+00	0	29	0	307232768	46	6468
2026-01-29 15:26:07.28	16.80	17.57	-37.2	-38.1	23.5	0.00e+00	0	29	0	309329920	46	6496
2026-01-29 15:26:08.29	16.75	17.68	-37.1	-38.0	23.7	0.00e+00	0	29	0	311427072	46	6421
2026-01-29 15:26:09.30	16.70	17.80	-36.8	-37.7	23.9	0.00e+00	68	29	0	313524224	46	6230
2026-01-29 15:26:10.30	16.65	17.92	-36.9	-37.8	23.9	0.00e+00	0	29	0	314572800	46	6257
2026-01-29 15:26:11.31	16.61	18.04	-36.8	-37.7	23.8	0.00e+00	92	29	0	316669952	46	6216
2026-01-29 15:26:12.32	16.56	18.16	-36.7	-37.6	24.0	0.00e+00	0	29	0	318767104	46	6150
2026-01-29 15:26:13.33	16.51	18.28	-36.8	-37.7	24.0	0.00e+00	0	29	0	320864256	46	6208
2026-01-29 15:26:14.35	16.46	18.40	-36.8	-37.6	24.0	0.00e+00	0	29	0	322961408	46	6173
2026-01-29 15:26:15.35	16.41	18.52	-36.7	-37.6	24.0	0.00e+00	0	29	0	325058560	46	6131
2026-01-29 15:26:16.36	16.36	18.64	-36.6	-37.5	24.0	0.00e+00	11	29	0	326107136	46	6036
2026-01-29 15:26:17.37	16.31	18.76	-36.6	-37.5	24.1	0.00e+00	0	29	0	328204288	46	6071
2026-01-29 15:26:18.38	16.26	18.88	-36.6	-37.5	24.1	0.00e+00	51	29	0	330301440	46	6045
2026-01-29 15:26:19.39	16.20	19.01	-36.5	-37.3	24.2	0.00e+00	0	29	0	332398592	46	5939
2026-01-29 15:26:20.40	16.15	19.13	-36.5	-37.3	24.2	0.00e+00	23	29	0	334495744	46	5947
2026-01-29 15:26:21.41	16.10	19.26	-36.6	-37.5	24.1	0.00e+00	0	29	0	335544320	46	6044
2026-01-29 15:26:22.42	16.05	19.38	-36.5	-37.3	24.2	0.00e+00	0	29	0	337641472	46	5923
2026-01-29 15:26:23.42	15.99	19.51	-36.5	-37.4	24.1	0.00e+00	63	29	0	339738624	46	5972
2026-01-29 15:26:24.44	15.94	19.63	-36.6	-37.5	24.2	0.00e+00	0	29	0	341835776	46	6055
2026-01-29 15:26:25.45	15.88	19.76	-36.5	-37.4	24.2	0.00e+00	92	29	0	343932928	46	5983
2026-01-29 15:26:26.45	15.83	19.89	-36.6	-37.4	24.1	0.00e+00	0	29	0	344981504	46	6016
2026-01-29 15:26:27.46	15.77	20.01	-36.6	-37.4	24.2	0.00e+00	0	29	0	347078656	46	5998
2026-01-29 15:26:28.47	15.72	20.14	-36.4	-37.3	24.2	0.00e+00	0	29	0	349175808	46	5917
2026-01-29 15:26:29.48	15.66	20.27	-36.4	-37.3	24.2	0.00e+00	0	29	0	351272960	46	5904
2026-01-29 15:26:30.49	15.60	20.40	-36.4	-37.3	24.2	0.00e+00	0	29	0	353370112	46	5910
2026-01-29 15:26:31.50	15.55	20.53	-36.4	-37.2	24.4	0.00e+00	0	29	0	354418688	46	5863
2026-01-29 15:26:32.51	15.49	20.66	-36.2	-37.1	24.4	0.00e+00	65	29	0	356515840	46	5770
2026-01-29 15:26:33.52	15.43	20.80	-36.4	-37.3	24.3	0.00e+00	0	29	0	358612992	46	5919
2026-01-29 15:26:34.53	15.37	20.93	-36.7	-37.6	24.1	0.00e+00	92	29	0	360710144	46	6107
2026-01-29 15:26:35.54	15.31	21.06	-36.6	-37.4	24.2	0.00e+00	0	29	0	362807296	46	6003
2026-01-29 15:26:36.55	15.25	21.20	-36.3	-37.1	24.3	0.00e+00	0	29	0	363855872	46	5826
2026-01-29 15:26:37.56	15.19	21.33	-36.4	-37.2	24.2	0.00e+00	0	29	0	365953024	46	5864
2026-01-29 15:26:38.56	15.13	21.46	-36.5	-37.4	24.2	0.00e+00	0	29	0	368050176	46	5971
2026-01-29 15:26:39.57	15.07	21.60	-36.6	-37.4	24.1	0.00e+00	58	29	0	370147328	46	6024
2026-01-29 15:26:40.58	15.01	21.74	-36.7	-37.6	24.0	0.00e+00	0	29	0	372244480	46	6138
2026-01-29 15:26:41.59	14.94	21.87	-36.9	-37.8	23.9	0.00e+00	90	29	0	373293056	46	6295
2026-01-29 15:26:42.60	14.88	22.01	-36.9	-37.8	23.9	0.00e+00	0	29	0	375390208	46	6286
2026-01-29 15:26:43.61	14.81	22.15	-37.0	-37.9	23.8	0.00e+00	0	29	0	377487360	46	6344
2026-01-29 15:26:44.62	14.75	22.29	-37.0	-37.9	23.8	0.00e+00	0	29	0	379584512	46	6373
2026-01-29 15:26:45.63	14.68	22.43	-37.0	-37.9	23.8	0.00e+00	0	29	0	381681664	46	6351
2026-01-29 15:26:46.64	14.62	22.57	-37.1	-38.0	23.6	0.00e+00	2	29	0	382730240	46	6415
2026-01-29 15:26:47.65	14.55	22.71	-37.1	-38.0	23.6	0.00e+00	0	29	0	384827392	46	6417
2026-01-29 15:26:48.66	14.48	22.86	-37.1	-38.0	23.7	0.00e+00	75	29	0	386924544	46	6405
2026-01-29 15:26:49.66	14.42	23.00	-37.0	-37.9	23.9	0.00e+00	0	29	0	389021696	46	6331
2026-01-29 15:26:50.67	14.35	23.14	-36.9	-37.8	23.9	0.00e+00	0	29	0	391118848	46	6256
2026-01-29 15:26:51.68	14.28	23.29	-36.7	-37.6	24.0	0.00e+00	0	29	0	393216000	46	6122
2026-01-29 15:26:52.69	14.21	23.43	-36.8	-37.6	24.0	0.00e+00	0	29	0	394264576	46	6150
2026-01-29 15:26:53.70	14.14	23.58	-36.9	-37.8	23.9	0.00e+00	69	29	0	396361728	46	6280
2026-01-29 15:26:54.71	14.07	23.73	-37.0	-37.8	23.9	0.00e+00	0	29	0	398458880	46	6298
2026-01-29 15:26:55.72	13.99	23.87	-36.8	-37.7	23.9	0.00e+00	78	29	0	400556032	46	6223
2026-01-29 15:26:56.73	13.92	24.02	-36.9	-37.8	24.0	0.00e+00	0	29	0	402653184	46	6254
2026-01-29 15:26:57.74	13.85	24.17	-37.1	-38.0	23.8	0.00e+00	0	29	0	403701760	46	6393
2026-01-29 15:26:58.75	13.77	24.32	-37.4	-38.3	23.5	0.00e+00	0	29	0	405798912	46	6691
2026-01-29 15:26:59.76	13.70	24.47	-37.6	-38.6	23.3	0.00e+00	0	29	0	407896064	46	6850
2026-01-29 15:27:00.77	13.62	24.62	-37.9	-38.8	23.0	0.00e+00	32	29	0	409993216	48	6316
2026-01-29 15:27:01.78	13.54	24.78	-38.1	-39.1	22.9	0.00e+00	0	29	0	412090368	48	6537
2026-01-29 15:27:02.79	13.47	24.93	-38.2	-39.3	22.7	0.00e+00	68	29	0	413138944	48	6624
2026-01-29 15:27:03.80	13.39	25.08	-38.5	-39.5	22.6	0.00e+00	0	29	0	415236096	48	6828
2026-01-29 15:27:04.81	13.31	25.24	-38.2	-39.2	22.9	0.00e+00	0	29	0	417333248	48	6546
2026-01-29 15:27:05.82	13.23	25.40	-38.3	-39.4	22.7	0.00e+00	0	29	0	419430400	48	6695
2026-01-29 15:27:06.83	13.15	25.55	-38.2	-39.2	22.9	0.00e+00	0	29	0	421527552	48	6554
2026-01-29 15:27:07.84	13.07	25.71	-38.1	-39.0	23.0	0.00e+00	17	29	0	422576128	48	6447
2026-01-29 15:27:08.85	12.99	25.87	-38.0	-39.0	23.1	0.00e+00	0	29	0	424673280	48	6420
2026-01-29 15:27:09.85	12.90	26.03	-38.0	-39.0	23.2	0.00e+00	52	29	0	426770432	48	6433
2026-01-29 15:27:10.86	12.82	26.19	-37.8	-38.7	23.2	0.00e+00	0	29	0	428867584	48	6243
2026-01-29 15:27:11.87	12.73	26.35	-37.9	-38.9	23.1	0.00e+00	71	29	0	430964736	48	6349
2026-01-29 15:27:12.88	12.65	26.51	-37.9	-38.8	23.2	0.00e+00	0	29	0	432013312	48	6294
2026-01-29 15:27:13.89	12.56	26.67	-37.8	-38.7	23.3	0.00e+00	0	29	0	434110464	48	6175
2026-01-29 15:27:14.90	12.47	26.84	-38.0	-38.9	23.1	0.00e+00	0	29	0	436207616	48	6364
2026-01-29 15:27:15.91	12.38	27.00	-38.0	-38.9	23.2	0.00e+00	0	29	0	438304768	48	6351
2026-01-29 15:27:16.92	12.29	27.17	-38.1	-39.0	22.9	0.00e+00	2	29	0	440401920	48	6447
2026-01-29 15:27:17.93	12.20	27.34	-38.2	-39.1	23.0	0.00e+00	0	29	0	441450496	48	6495
2026-01-29 15:27:18.94	12.11	27.50	-38.5	-39.4	22.8	0.00e+00	72	29	0	443547648	48	6738
2026-01-29 15:27:19.95	12.02	27.67	-38.4	-39.3	22.7	0.00e+00	0	29	0	445644800	48	6685
2026-01-29 15:27:20.96	11.93	27.84	-38.7	-39.7	22.8	0.00e+00	0	29	0	447741952	48	6930
2026-01-29 15:27:21.96	11.83	28.01	-38.4	-39.4	22.8	0.00e+00	0	29	0	449839104	48	6727
2026-01-29 15:27:22.97	11.74	28.18	-38.7	-39.6	22.5	0.00e+00	0	29	0	450887680	50	6173
2026-01-29 15:27:23.98	11.64	28.35	-38.3	-39.3	22.7	0.00e+00	9	29	0	452984832	50	5930
2026-01-29 15:27:24.99	11.54	28.53	-38.4	-39.4	22.7	0.00e+00	0	29	0	455081984	50	5967
2026-01-29 15:27:26.00	11.44	28.70	-38.5	-39.5	22.6	0.00e+00	68	29	0	457179136	50	6071
2026-01-29 15:27:27.01	11.34	28.88	-38.6	-39.6	22.6	0.00e+00	0	29	0	459276288	50	6122
2026-01-29 15:27:28.02	11.24	29.05	-38.7	-39.7	22.4	0.00e+00	0	29	0	461373440	50	6188
2026-01-29 15:27:29.03	11.14	29.23	-38.7	-39.6	22.3	0.00e+00	0	29	0	462422016	50	6167
2026-01-29 15:27:30.05	11.03	29.41	-38.9	-39.9	22.2	0.00e+00	0	29	0	464519168	50	6375
2026-01-29 15:27:31.05	10.93	29.59	-39.1	-40.2	22.0	0.00e+00	0	29	0	466616320	50	6563
2026-01-29 15:27:32.06	10.82	29.77	-39.1	-40.1	22.2	0.00e+00	0	29	0	468713472	50	6505
2026-01-29 15:27:33.07	10.71	29.95	-39.1	-40.1	22.1	0.00e+00	48	29	0	470810624	50	6529
2026-01-29 15:27:34.08	10.61	30.14	-39.4	-40.5	22.1	0.00e+00	0	29	0	471859200	50	6780
2026-01-29 15:27:35.09	10.50	30.32	-38.9	-39.9	22.4	0.00e+00	19	29	0	473956352	50	6326
2026-01-29 15:27:36.10	10.38	30.50	-38.6	-39.6	22.6	0.00e+00	0	29	0	476053504	50	6139
2026-01-29 15:27:37.11	10.27	30.69	-39.0	-40.0	22.4	0.00e+00	0	29	0	478150656	50	6440
2026-01-29 15:27:38.11	10.16	30.87	-39.0	-40.1	22.4	0.00e+00	68	29	0	480247808	50	6511
2026-01-29 15:27:39.12	10.04	31.06	-39.0	-40.1	22.3	0.00e+00	0	29	0	481296384	50	6488
2026-01-29 15:27:40.13	9.93	31.25	-39.5	-40.6	21.9	0.00e+00	66	29	0	483393536	50	6899
2026-01-29 15:27:41.14	9.81	31.44	-39.5	-40.6	22.0	0.00e+00	0	29	0	485490688	50	6852
2026-01-29 15:27:42.15	9.69	31.63	-40.0	-41.2	21.3	0.00e+00	92	29	0	487587840	52	6548
2026-01-29 15:27:43.16	9.57	31.83	-40.8	-42.1	20.6	0.00e+00	0	29	0	489684992	52	7271
2026-01-29 15:27:44.17	9.45	32.02	-40.8	-42.1	20.5	0.00e+00	0	29	0	490733568	54	6500
2026-01-29 15:27:45.18	9.32	32.21	-41.2	-42.5	20.1	0.00e+00	0	29	0	492830720	54	6842
2026-01-29 15:27:46.19	9.20	32.41	-41.2	-42.5	20.2	0.00e+00	0	29	0	494927872	54	6834
2026-01-29 15:27:47.20	9.07	32.61	-41.7	-43.2	19.6	0.00e+00	67	29	0	497025024	56	6588
2026-01-29 15:27:48.21	8.94	32.80	-41.9	-43.4	19.3	0.00e+00	0	29	0	499122176	56	6710
2026-01-29 15:27:49.22	8.81	33.00	-41.6	-43.1	19.6	0.00e+00	85	29	0	500170752	56	6513
2026-01-29 15:27:50.23	8.68	33.20	-42.2	-43.9	18.8	0.00e+00	0	29	0	502267904	56	7099
2026-01-29 15:27:51.24	8.54	33.40	-42.6	-44.3	18.3	0.00e+00	0	29	0	504365056	56	7476
2026-01-29 15:27:52.25	8.41	33.61	-43.3	-45.2	17.7	0.00e+00	0	29	0	506462208	58	7396
2026-01-29 15:27:53.26	8.27	33.81	-43.7	-45.8	17.2	0.00e+00	0	29	0	508559360	60	7053
2026-01-29 15:27:54.27	8.13	34.02	-43.6	-45.6	17.5	0.00e+00	24	29	0	509607936	60	6876
2026-01-29 15:27:55.28	7.99	34.22	-44.5	-47.0	16.0	0.00e+00	0	29	0	511705088	60	8129
2026-01-29 15:27:56.29	7.85	34.43	-43.8	-45.9	17.2	0.00e+00	88	29	0	513802240	60	7135
2026-01-29 15:27:57.30	7.71	34.64	-43.0	-44.9	17.8	0.00e+00	0	29	0	515899392	60	6370
2026-01-29 15:27:58.30	7.56	34.84	-43.6	-45.7	17.2	0.00e+00	0	29	0	517996544	60	6999
2026-01-29 15:27:59.31	7.41	35.06	-43.2	-45.2	17.7	0.00e+00	0	29	0	519045120	60	6541
2026-01-29 15:28:00.32	7.26	35.27	-42.6	-44.4	18.4	0.00e+00	0	29	0	521142272	58	6714
2026-01-29 15:28:01.33	7.11	35.48	-42.7	-44.5	18.3	0.00e+00	72	29	0	523239424	58	6792
2026-01-29 15:28:02.34	6.95	35.69	-42.6	-44.3	18.6	0.00e+00	0	29	0	525336576	58	6620
2026-01-29 15:28:03.35	6.80	35.91	-42.8	-44.6	18.3	0.00e+00	92	29	0	527433728	58	6893
2026-01-29 15:28:04.36	6.64	36.13	-42.8	-44.6	18.1	0.00e+00	0	29	0	529530880	58	6905
2026-01-29 15:28:05.37	6.48	36.34	-42.6	-44.3	18.6	0.00e+00	0	29	0	530579456	58	6673
2026-01-29 15:28:06.38	6.32	36.56	-42.1	-43.7	19.1	0.00e+00	0	29	0	532676608	58	6184
2026-01-29 15:28:07.39	6.15	36.78	-41.5	-42.9	19.7	0.00e+00	0	29	0	534773760	56	6333
2026-01-29 15:28:08.40	5.98	37.01	-41.2	-42.6	20.2	0.00e+00	16	29	0	536870912	56	6108
2026-01-29 15:28:09.40	5.81	37.23	-40.6	-41.9	20.7	0.00e+00	0	29	0	537919488	54	6325
2026-01-29 15:28:10.41	5.64	37.45	-40.6	-41.8	20.7	0.00e+00	81	29	0	540016640	54	6269
2026-01-29 15:28:11.42	5.47	37.68	-40.0	-41.1	21.3	0.00e+00	0	29	0	542113792	54	5818
2026-01-29 15:28:12.43	5.29	37.90	-40.0	-41.1	21.3	0.00e+00	27	29	0	544210944	54	5816
2026-01-29 15:28:13.44	5.11	38.13	-40.6	-41.9	21.0	0.00e+00	0	29	0	546308096	54	6330
2026-01-29 15:28:14.45	4.93	38.36	-40.1	-41.3	21.3	0.00e+00	0	29	0	547356672	54	5904
2026-01-29 15:28:15.46	4.74	38.59	-40.1	-41.2	21.1	0.00e+00	0	29	0	549453824	52	6614
2026-01-29 15:28:16.47	4.56	38.82	-39.9	-41.1	21.5	0.00e+00	0	29	0	551550976	52	6471
2026-01-29 15:28:17.48	4.37	39.05	-39.9	-41.0	21.4	0.00e+00	79	29	0	553648128	52	6453
2026-01-29 15:28:18.49	4.17	39.29	-40.2	-41.5	20.9	0.00e+00	0	29	0	555745280	52	6791
2026-01-29 15:28:19.50	3.98	39.52	-40.3	-41.6	20.9	0.00e+00	67	29	0	557842432	52	6851
2026-01-29 15:28:20.51	3.78	39.76	-40.2	-41.4	21.2	0.00e+00	0	29	0	558891008	52	6741
2026-01-29 15:28:21.52	3.58	39.99	-40.0	-41.2	21.4	0.00e+00	0	29	0	560988160	52	6560
2026-01-29 15:28:22.53	3.37	40.23	-39.4	-40.6	22.0	0.00e+00	0	29	0	563085312	52	6104
2026-01-29 15:28:23.54	3.16	40.47	-38.6	-39.6	22.5	0.00e+00	0	29	0	565182464	50	6145
2026-01-29 15:28:24.55	2.95	40.71	-38.6	-39.5	22.7	0.00e+00	15	29	0	567279616	50	6085
2026-01-29 15:28:25.56	2.74	40.96	-38.3	-39.2	23.0	0.00e+00	0	29	0	568328192	50	5877
2026-01-29 15:28:26.57	2.52	41.20	-38.5	-39.5	22.7	0.00e+00	69	29	0	570425344	50	6036
2026-01-29 15:28:27.57	2.30	41.44	-38.1	-39.0	23.1	0.00e+00	0	29	0	572522496	50	5731
2026-01-29 15:28:28.58	2.08	41.69	-38.4	-39.3	22.5	0.00e+00	0	29	0	574619648	50	5954
2026-01-29 15:28:29.59	1.85	41.93	-38.2	-39.1	22.5	0.00e+00	0	29	0	576716800	50	5815
2026-01-29 15:28:30.60	1.62	42.18	-38.2	-39.2	22.9	0.00e+00	0	29	0	577765376	50	5830
2026-01-29 15:28:31.61	1.38	42.43	-38.4	-39.3	22.9	0.00e+00	7	29	0	579862528	50	5942
2026-01-29 15:28:32.62	1.14	42.68	-38.1	-39.0	23.1	0.00e+00	0	29	0	581959680	50	5742
2026-01-29 15:28:33.63	0.90	42.93	-38.5	-39.4	22.8	0.00e+00	90	29	0	584056832	50	5996
2026-01-29 15:28:34.64	0.65	43.18	-37.9	-38.8	23.0	0.00e+00	0	29	0	586153984	50	5579
2026-01-29 15:28:35.65	0.40	43.44	-38.6	-39.5	22.8	0.00e+00	0	29	0	587202560	50	6068
2026-01-29 15:28:36.66	0.15	43.69	-38.8	-39.7	22.7	0.00e+00	0	29	0	589299712	50	6218
2026-01-29 15:28:37.67	359.89	43.95	-38.6	-39.6	22.7	0.00e+00	0	29	0	591396864	50	6107
2026-01-29 15:28:38.68	359.62	44.20	-38.3	-39.2	23.0	0.00e+00	64	29	0	593494016	50	5888
2026-01-29 15:28:39.69	359.36	44.46	-38.0	-38.9	23.3	0.00e+00	0	29	0	595591168	50	5644
2026-01-29 15:28:40.70	359.09	44.72	-38.7	-39.6	22.6	0.00e+00	92	29	0	596639744	48	6910
2026-01-29 15:28:41.71	358.81	44.98	-38.4	-39.3	22.8	0.00e+00	0	29	0	598736896	50	5941
2026-01-29 15:28:42.72	358.53	45.24	-38.5	-39.4	22.9	0.00e+00	32	29	0	600834048	50	6031
2026-01-29 15:28:43.73	358.24	45.50	-38.1	-38.9	23.3	0.00e+00	0	29	0	602931200	50	5693
2026-01-29 15:28:44.74	357.95	45.76	-37.4	-38.3	23.7	0.00e+00	0	29	0	605028352	48	5904
2026-01-29 15:28:45.75	357.66	46.02	-37.2	-38.0	23.9	0.00e+00	71	29	0	606076928	48	5740
2026-01-29 15:28:46.76	357.36	46.29	-37.5	-38.4	23.7	0.00e+00	0	29	0	608174080	48	5976
2026-01-29 15:28:47.77	357.05	46.55	-38.3	-39.3	22.7	0.00e+00	70	29	0	610271232	48	6631
2026-01-29 15:28:48.78	356.74	46.82	-38.5	-39.4	22.8	0.00e+00	0	29	0	612368384	48	6764
2026-01-29 15:28:49.78	356.43	47.08	-38.7	-39.7	22.6	0.00e+00	25	29	0	614465536	50	6242
2026-01-29 15:28:50.80	356.10	47.35	-38.4	-39.4	23.0	0.00e+00	0	29	0	615514112	50	5965
2026-01-29 15:28:51.80	355.78	47.61	-37.9	-38.9	23.3	0.00e+00	0	29	0	617611264	50	5635
2026-01-29 15:28:52.82	355.44	47.88	-37.6	-38.5	23.5	0.00e+00	0	29	0	619708416	48	6040
2026-01-29 15:28:53.82	355.10	48.15	-37.5	-38.4	23.6	0.00e+00	0	29	0	621805568	48	5998
2026-01-29 15:28:54.83	354.76	48.42	-37.9	-38.9	23.2	0.00e+00	70	29	0	623902720	48	6327
2026-01-29 15:28:55.84	354.41	48.69	-37.9	-38.9	23.2	0.00e+00	0	29	0	625999872	48	6342
2026-01-29 15:28:56.85	354.05	48.96	-37.7	-38.6	23.3	0.00e+00	74	29	0	627048448	48	6144
2026-01-29 15:28:57.86	353.69	49.23	-37.3	-38.2	23.8	0.00e+00	0	29	0	629145600	48	5841
2026-01-29 15:28:58.87	353.32	49.50	-37.1	-37.9	23.9	0.00e+00	0	29	0	631242752	48	5673
2026-01-29 15:28:59.88	352.94	49.77	-37.1	-38.0	23.9	0.00e+00	0	29	0	633339904	48	5701
2026-01-29 15:29:00.89	352.56	50.04	-36.9	-37.8	24.0	0.00e+00	0	29	0	635437056	48	5587
2026-01-29 15:29:01.90	352.16	50.32	-37.1	-38.0	23.9	0.00e+00	73	29	0	636485632	46	6418
2026-01-29 15:29:02.91	351.77	50.59	-37.4	-38.2	23.8	0.00e+00	0	29	0	638582784	46	6596
2026-01-29 15:29:03.92	351.36	50.86	-36.6	-37.4	24.0	0.00e+00	76	29	0	640679936	46	5992
2026-01-29 15:29:04.93	350.95	51.13	-36.6	-37.4	24.1	0.00e+00	0	29	0	642777088	46	6000
2026-01-29 15:29:05.93	350.53	51.40	-36.0	-36.8	24.7	0.00e+00	0	29	0	644874240	46	5600
2026-01-29 15:29:06.94	350.10	51.67	-36.1	-36.9	24.6	0.00e+00	0	29	0	645922816	46	5640
2026-01-29 15:29:07.96	349.66	51.95	-36.8	-37.6	24.1	0.00e+00	0	29	0	648019968	46	6147
2026-01-29 15:29:08.97	349.22	52.22	-37.1	-37.9	23.9	0.00e+00	16	29	0	650117120	46	6382
2026-01-29 15:29:09.98	348.77	52.49	-37.3	-38.1	23.7	0.00e+00	0	29	0	652214272	46	6535
2026-01-29 15:29:10.98	348.31	52.76	-37.0	-37.9	23.9	0.00e+00	72	29	0	654311424	46	6361
2026-01-29 15:29:11.99	347.84	53.03	-36.7	-37.5	24.2	0.00e+00	0	29	0	655360000	46	6078
2026-01-29 15:29:13.00	347.36	53.30	-36.9	-37.8	24.1	0.00e+00	0	29	0	657457152	46	6261
2026-01-29 15:29:14.01	346.87	53.57	-37.0	-37.8	23.9	0.00e+00	0	29	0	659554304	46	6284
2026-01-29 15:29:15.01	346.38	53.84	-37.6	-38.5	23.5	0.00e+00	0	29	0	661651456	46	6775
2026-01-29 15:29:16.02	345.88	54.10	-38.1	-39.1	23.0	0.00e+00	52	29	0	663748608	48	6473
2026-01-29 15:29:17.03	345.36	54.37	-38.3	-39.3	22.8	0.00e+00	0	29	0	664797184	48	6633
2026-01-29 15:29:18.04	344.84	54.64	-38.4	-39.4	22.7	0.00e+00	88	29	0	666894336	48	6712
2026-01-29 15:29:19.04	344.31	54.90	-37.8	-38.8	23.1	0.00e+00	0	29	0	668991488	48	6267
2026-01-29 15:29:20.05	343.76	55.16	-37.4	-38.3	23.6	0.00e+00	37	29	0	671088640	48	5935
2026-01-29 15:29:21.06	343.20	55.42	-37.6	-38.5	23.5	0.00e+00	0	29	0	673185792	48	6041
2026-01-29 15:29:22.07	342.64	55.68	-37.8	-38.7	23.1	0.00e+00	0	29	0	674234368	48	6229
2026-01-29 15:29:23.09	342.06	55.95	-38.1	-39.1	22.9	0.00e+00	0	29	0	676331520	48	6506
2026-01-29 15:29:24.09	341.47	56.20	-37.9	-38.8	23.3	0.00e+00	0	29	0	678428672	48	6301
2026-01-29 15:29:25.10	340.88	56.46	-37.6	-38.5	23.4	0.00e+00	57	29	0	680525824	48	6064
2026-01-29 15:29:26.11	340.27	56.71	-37.2	-38.1	23.8	0.00e+00	0	29	0	682622976	48	5774
2026-01-29 15:29:27.12	339.64	56.96	-37.0	-37.9	23.8	0.00e+00	92	29	0	683671552	48	5637
2026-01-29 15:29:28.13	339.01	57.21	-37.3	-38.1	23.7	0.00e+00	0	29	0	685768704	48	5774
2026-01-29 15:29:29.14	338.37	57.46	-37.4	-38.2	23.7	0.00e+00	0	29	0	687865856	48	5850
2026-01-29 15:29:30.15	337.71	57.70	-38.4	-39.4	22.6	0.00e+00	0	29	0	689963008	48	6726
2026-01-29 15:29:31.16	337.04	57.94	-39.3	-40.5	21.9	0.00e+00	29	29	0	692060160	50	6775
2026-01-29 15:29:32.17	336.36	58.18	-38.1	-39.1	23.0	0.00e+00	47	29	0	694157312	50	5790
2026-01-29 15:29:33.18	335.67	58.42	-38.1	-39.0	23.1	0.00e+00	0	29	0	695205888	50	5713
2026-01-29 15:29:34.19	334.97	58.65	-37.0	-37.9	23.9	0.00e+00	92	29	0	697303040	48	5641
2026-01-29 15:29:35.19	334.26	58.88	-38.3	-39.2	22.9	0.00e+00	0	29	0	699400192	48	6594
2026-01-29 15:29:36.20	333.53	59.11	-38.7	-39.7	22.4	0.00e+00	0	29	0	701497344	50	6219
2026-01-29 15:29:37.21	332.78	59.33	-38.5	-39.5	22.5	0.00e+00	0	29	0	703594496	50	6076
2026-01-29 15:29:38.22	332.03	59.55	-38.8	-39.8	22.6	0.00e+00	0	29	0	704643072	50	6303
2026-01-29 15:29:39.23	331.26	59.77	-38.4	-39.3	22.8	0.00e+00	12	29	0	706740224	50	5956
2026-01-29 15:29:40.24	330.48	59.98	-38.2	-39.1	23.1	0.00e+00	0	29	0	708837376	48	6496
2026-01-29 15:29:41.25	329.68	60.19	-36.6	-37.4	24.2	0.00e+00	76	29	0	710934528	46	6021
2026-01-29 15:29:42.26	328.88	60.39	-36.8	-37.7	23.9	0.00e+00	0	29	0	713031680	46	6174
2026-01-29 15:29:43.27	328.06	60.59	-36.7	-37.6	24.3	0.00e+00	0	29	0	714080256	46	6112
2026-01-29 15:29:44.28	327.23	60.78	-36.8	-37.7	24.1	0.00e+00	0	29	0	716177408	46	6207
2026-01-29 15:29:45.29	326.38	60.97	-36.7	-37.6	24.3	0.00e+00	0	29	0	718274560	46	6110
2026-01-29 15:29:46.30	325.52	61.15	-36.1	-36.9	24.6	0.00e+00	0	29	0	720371712	46	5631
2026-01-29 15:29:47.31	324.65	61.33	-35.7	-36.5	24.9	0.00e+00	0	29	0	722468864	44	6067
2026-01-29 15:29:48.32	323.77	61.51	-35.6	-36.4	24.9	0.00e+00	79	29	0	723517440	44	5985
2026-01-29 15:29:49.33	322.87	61.67	-35.7	-36.5	24.7	0.00e+00	0	29	0	725614592	44	6085
2026-01-29 15:29:50.33	321.98	61.83	-35.6	-36.4	24.9	0.00e+00	0	29	0	727711744	44	5998
2026-01-29 15:29:51.34	321.06	61.99	-35.6	-36.4	25.0	0.00e+00	0	29	0	729808896	44	6001
2026-01-29 15:29:52.35	320.13	62.14	-35.5	-36.2	25.0	0.00e+00	0	29	0	731906048	44	5872
2026-01-29 15:29:53.36	319.18	62.28	-35.2	-35.9	25.0	0.00e+00	0	29	0	732954624	44	5683
2026-01-29 15:29:54.37	318.23	62.42	-35.5	-36.3	25.0	0.00e+00	0	29	0	735051776	44	5939
2026-01-29 15:29:55.38	317.27	62.55	-35.3	-36.1	25.1	0.00e+00	59	29	0	737148928	44	5783
2026-01-29 15:29:56.39	316.29	62.68	-35.0	-35.7	25.4	0.00e+00	0	29	0	739246080	44	5534
2026-01-29 15:29:57.40	315.31	62.79	-34.8	-35.5	25.5	0.00e+00	87	29	0	741343232	42	6042
2026-01-29 15:29:58.41	314.31	62.90	-34.5	-35.2	25.5	0.00e+00	0	29	0	742391808	42	5867
2026-01-29 15:29:59.42	313.31	63.01	-35.1	-35.9	25.1	0.00e+00	0	29	0	744488960	42	6330
2026-01-29 15:30:00.43	312.30	63.10	-35.6	-36.4	24.9	0.00e+00	32	29	0	746586112	42	6751
2026-01-29 15:30:01.44	311.28	63.19	-35.9	-36.7	24.6	0.00e+00	0	29	0	748683264	44	6180
2026-01-29 15:30:02.45	310.26	63.27	-36.4	-37.2	24.4	0.00e+00	66	29	0	750780416	44	6587
2026-01-29 15:30:03.46	309.22	63.35	-37.1	-38.0	24.0	0.00e+00	0	29	0	751828992	46	6391
2026-01-29 15:30:04.46	308.19	63.41	-36.4	-37.3	24.3	0.00e+00	82	29	0	753926144	46	5930
2026-01-29 15:30:05.47	307.15	63.47	-35.6	-36.4	25.0	0.00e+00	0	29	0	756023296	44	5988
2026-01-29 15:30:06.48	306.10	63.52	-34.8	-35.5	25.4	0.00e+00	0	29	0	758120448	44	5420
2026-01-29 15:30:07.49	305.05	63.56	-34.6	-35.3	25.6	0.00e+00	0	29	0	760217600	42	5959
2026-01-29 15:30:08.50	303.99	63.60	-34.2	-34.9	25.8	0.00e+00	0	29	0	761266176	42	5694
2026-01-29 15:30:09.51	302.93	63.62	-34.4	-35.1	25.7	0.00e+00	67	29	0	763363328	42	5764
2026-01-29 15:30:10.52	301.87	63.64	-34.0	-34.6	26.0	0.00e+00	0	29	0	765460480	42	5495
2026-01-29 15:30:11.53	300.81	63.65	-33.7	-34.3	26.2	0.00e+00	69	29	0	767557632	40	5961
2026-01-29 15:30:12.54	299.74	63.65	-34.1	-34.8	25.8	0.00e+00	0	29	0	769654784	40	6316
2026-01-29 15:30:13.55	298.68	63.65	-34.4	-35.1	25.8	0.00e+00	0	29	0	770703360	40	6516
2026-01-29 15:30:14.56	297.62	63.63	-34.6	-35.4	25.6	0.00e+00	0	29	0	772800512	40	6693
2026-01-29 15:30:15.57	296.55	63.61	-35.0	-35.8	25.3	0.00e+00	0	29	0	774897664	42	6249
2026-01-29 15:30:16.58	295.50	63.58	-35.1	-35.9	25.2	0.00e+00	12	29	0	776994816	42	6353
2026-01-29 15:30:17.59	294.44	63.54	-35.1	-35.9	25.3	0.00e+00	0	29	0	779091968	42	6341
2026-01-29 15:30:18.59	293.40	63.50	-35.6	-36.4	24.8	0.00e+00	82	29	0	780140544	42	6709
2026-01-29 15:30:19.60	292.35	63.44	-35.8	-36.6	24.2	0.00e+00	0	29	0	782237696	44	6132
2026-01-29 15:30:20.61	291.31	63.38	-35.1	-35.8	25.0	0.00e+00	0	29	0	784334848	44	5612
2026-01-29 15:30:21.62	290.27	63.31	-34.8	-35.6	25.5	0.00e+00	0	30	0	786432000	42	6104
2026-01-29 15:30:22.64	289.23	63.23	-34.8	-35.5	25.4	0.00e+00	0	30	0	788529152	42	6096
2026-01-29 15:30:23.64	288.22	63.15	-35.4	-36.2	25.1	0.00e+00	75	29	0	790626304	42	6547
2026-01-29 15:30:24.65	287.20	63.06	-35.7	-36.5	24.8	0.00e+00	0	29	0	791674880	44	6097
2026-01-29 15:30:25.66	286.20	62.96	-35.7	-36.5	24.8	0.00e+00	71	29	0	793772032	44	6045
2026-01-29 15:30:26.67	285.20	62.85	-35.9	-36.8	24.7	0.00e+00	0	29	0	795869184	44	6249
2026-01-29 15:30:27.68	284.21	62.74	-36.4	-37.3	24.4	0.00e+00	12	29	0	797966336	44	6620
2026-01-29 15:30:28.69	283.23	62.62	-35.5	-36.3	25.0	0.00e+00	0	29	0	800063488	44	5951
2026-01-29 15:30:29.70	282.26	62.49	-35.5	-36.3	24.8	0.00e+00	0	29	0	801112064	44	5953
2026-01-29 15:30:30.70	281.31	62.36	-35.2	-36.0	25.2	0.00e+00	0	29	0	803209216	44	5728
2026-01-29 15:30:31.71	280.36	62.22	-34.7	-35.4	25.6	0.00e+00	0	29	0	805306368	44	5353
2026-01-29 15:30:32.72	279.42	62.07	-34.6	-35.3	25.6	0.00e+00	71	29	0	807403520	42	5964
2026-01-29 15:30:33.73	278.50	61.92	-34.4	-35.1	25.7	0.00e+00	0	29	0	809500672	42	5791
2026-01-29 15:30:34.74	277.58	61.76	-34.0	-34.7	25.9	0.00e+00	92	29	0	810549248	42	5541
2026-01-29 15:30:35.75	276.68	61.59	-34.9	-35.7	25.3	0.00e+00	0	29	0	812646400	42	6199
2026-01-29 15:30:36.76	275.79	61.42	-35.7	-36.5	25.0	0.00e+00	0	29	0	814743552	42	6795
2026-01-29 15:30:37.77	274.91	61.24	-34.6	-35.3	25.6	0.00e+00	0	29	0	816840704	42	5899
2026-01-29 15:30:38.78	274.05	61.06	-35.1	-35.8	25.3	0.00e+00	0	29	0	818937856	42	6314
2026-01-29 15:30:39.79	273.20	60.88	-35.6	-36.4	25.0	0.00e+00	73	29	0	819986432	42	6739
2026-01-29 15:30:40.80	272.36	60.68	-35.4	-36.2	24.8	0.00e+00	0	29	0	822083584	44	5860
2026-01-29 15:30:41.81	271.53	60.49	-35.8	-36.6	24.8	0.00e+00	92	29	0	824180736	44	6131
2026-01-29 15:30:42.82	270.71	60.29	-35.9	-36.6	24.8	0.00e+00	0	29	0	826277888	44	6160
2026-01-29 15:30:43.83	269.91	60.08	-36.7	-37.5	24.2	0.00e+00	0	29	0	828375040	44	6791
2026-01-29 15:30:44.83	269.13	59.87	-38.2	-39.2	23.0	0.00e+00	0	29	0	829423616	48	6579
2026-01-29 15:30:45.84	268.36	59.66	-39.8	-41.0	21.4	0.00e+00	0	29	0	831520768	50	7199
2026-01-29 15:30:46.85	267.59	59.44	-39.8	-41.0	21.5	0.00e+00	75	29	0	833617920	52	6412
2026-01-29 15:30:47.86	266.84	59.22	-39.8	-40.9	21.5	0.00e+00	0	30	0	835715072	52	6370
2026-01-29 15:30:48.87	266.11	58.99	-40.0	-41.2	21.2	0.00e+00	90	29	0	837812224	52	6579
2026-01-29 15:30:49.88	265.38	58.77	-40.5	-41.8	20.7	0.00e+00	0	29	0	838860800	52	7051
2026-01-29 15:30:50.89	264.67	58.53	-41.0	-42.3	20.3	0.00e+00	0	29	0	840957952	54	6678
2026-01-29 15:30:51.90	263.97	58.30	-39.5	-40.6	22.0	0.00e+00	0	29	0	843055104	52	6136
2026-01-29 15:30:52.91	263.28	58.06	-39.1	-40.1	22.1	0.00e+00	0	29	0	845152256	50	6504
2026-01-29 15:30:53.92	262.61	57.82	-39.3	-40.4	22.0	0.00e+00	0	29	0	847249408	52	5996
2026-01-29 15:30:54.93	261.94	57.58	-40.5	-41.8	20.9	0.00e+00	0	29	0	848297984	52	7042
2026-01-29 15:30:55.94	261.29	57.33	-39.9	-41.1	21.1	0.00e+00	92	29	0	850395136	52	6521
2026-01-29 15:30:56.95	260.65	57.08	-38.8	-39.8	22.5	0.00e+00	0	29	0	852492288	52	5629
2026-01-29 15:30:57.96	260.03	56.83	-38.6	-39.6	22.3	0.00e+00	0	29	0	854589440	50	6134
2026-01-29 15:30:58.97	259.41	56.58	-38.0	-38.9	23.2	0.00e+00	0	29	0	856686592	50	5660
2026-01-29 15:30:59.98	258.80	56.32	-37.3	-38.2	23.7	0.00e+00	0	29	0	858783744	48	5834
2026-01-29 15:31:00.99	258.21	56.06	-37.0	-37.8	24.0	0.00e+00	8	29	0	859832320	48	5588
2026-01-29 15:31:02.00	257.63	55.81	-36.8	-37.6	24.1	0.00e+00	0	29	0	861929472	48	5481
2026-01-29 15:31:03.00	257.06	55.55	-37.1	-37.9	23.9	0.00e+00	72	29	0	864026624	46	6361
2026-01-29 15:31:04.02	256.49	55.28	-37.2	-38.0	23.6	0.00e+00	0	29	0	866123776	46	6464
2026-01-29 15:31:05.03	255.94	55.02	-38.1	-39.1	23.0	0.00e+00	92	29	0	868220928	48	6489
2026-01-29 15:31:06.03	255.41	54.76	-38.6	-39.6	22.5	0.00e+00	0	29	0	869269504	48	6892
2026-01-29 15:31:07.05	254.87	54.49	-38.6	-39.7	22.5	0.00e+00	0	29	0	871366656	48	6938
2026-01-29 15:31:08.06	254.35	54.22	-38.7	-39.7	22.6	0.00e+00	0	29	0	873463808	50	6217
2026-01-29 15:31:09.06	253.84	53.96	-38.1	-39.1	23.2	0.00e+00	0	29	0	875560960	50	5782
2026-01-29 15:31:10.07	253.34	53.69	-37.0	-37.9	23.9	0.00e+00	90	29	0	877658112	48	5677
2026-01-29 15:31:11.08	252.85	53.42	-37.3	-38.2	23.7	0.00e+00	0	29	0	878706688	48	5868
2026-01-29 15:31:12.09	252.36	53.15	-37.9	-38.9	23.0	0.00e+00	39	29	0	880803840	48	6342
2026-01-29 15:31:13.10	251.89	52.88	-39.1	-40.2	22.2	0.00e+00	0	29	0	882900992	50	6567
2026-01-29 15:31:14.11	251.42	52.61	-39.1	-40.2	22.3	0.00e+00	0	29	0	884998144	50	6603
2026-01-29 15:31:15.12	250.97	52.33	-39.1	-40.1	22.3	0.00e+00	0	29	0	887095296	50	6517
2026-01-29 15:31:16.13	250.52	52.06	-37.8	-38.7	23.4	0.00e+00	0	29	0	888143872	50	5514
2026-01-29 15:31:17.14	250.08	51.79	-37.4	-38.2	23.7	0.00e+00	41	29	0	890241024	48	5875
2026-01-29 15:31:18.15	249.64	51.52	-37.4	-38.2	23.8	0.00e+00	30	29	0	892338176	48	5881
2026-01-29 15:31:19.15	249.22	51.25	-37.3	-38.2	23.6	0.00e+00	92	29	0	894435328	48	5839
2026-01-29 15:31:20.16	248.81	50.97	-37.2	-38.0	23.9	0.00e+00	0	29	0	896532480	48	5712
2026-01-29 15:31:21.17	248.40	50.70	-37.2	-38.0	23.7	0.00e+00	0	29	0	897581056	48	5758
2026-01-29 15:31:22.18	247.99	50.43	-38.1	-39.1	23.0	0.00e+00	0	29	0	899678208	48	6479
2026-01-29 15:31:23.19	247.60	50.16	-38.4	-39.4	22.9	0.00e+00	0	29	0	901775360	50	5970
2026-01-29 15:31:24.20	247.21	49.88	-37.8	-38.7	23.4	0.00e+00	47	29	0	903872512	50	5556
2026-01-29 15:31:25.21	246.83	49.61	-36.6	-37.4	24.1	0.00e+00	0	29	0	905969664	48	5325
2026-01-29 15:31:26.22	246.45	49.34	-37.0	-37.9	24.0	0.00e+00	90	29	0	907018240	46	6342
2026-01-29 15:31:27.23	246.09	49.07	-37.8	-38.7	23.1	0.00e+00	0	29	0	909115392	48	6234
2026-01-29 15:31:28.24	245.73	48.80	-38.1	-39.0	23.1	0.00e+00	73	29	0	911212544	48	6412
2026-01-29 15:31:29.25	245.37	48.53	-38.3	-39.3	22.9	0.00e+00	0	29	0	913309696	48	6616
2026-01-29 15:31:30.26	245.02	48.26	-39.8	-40.9	21.6	0.00e+00	0	29	0	915406848	50	7128
2026-01-29 15:31:31.27	244.68	47.99	-39.7	-40.8	21.7	0.00e+00	72	30	0	916455424	52	6252
2026-01-29 15:31:32.28	244.34	47.72	-39.4	-40.5	22.1	0.00e+00	0	30	0	918552576	52	6053
2026-01-29 15:31:33.29	244.01	47.45	-39.1	-40.1	22.2	0.00e+00	92	30	0	920649728	50	6496
2026-01-29 15:31:34.30	243.69	47.18	-40.4	-41.6	21.3	0.00e+00	0	29	0	922746880	52	6863
2026-01-29 15:31:35.31	243.37	46.91	-40.5	-41.8	21.1	0.00e+00	31	29	0	924844032	54	6270
2026-01-29 15:31:36.32	243.05	46.65	-39.4	-40.4	22.0	0.00e+00	0	29	0	926941184	52	6028
2026-01-29 15:31:37.33	242.75	46.38	-39.4	-40.5	21.8	0.00e+00	0	29	0	927989760	52	6054
2026-01-29 15:31:38.34	242.44	46.12	-40.0	-41.1	21.4	0.00e+00	0	29	0	930086912	52	6516
2026-01-29 15:31:39.35	242.14	45.85	-39.4	-40.5	22.0	0.00e+00	0	29	0	932184064	52	6036
2026-01-29 15:31:40.36	241.85	45.59	-38.3	-39.2	23.1	0.00e+00	42	29	0	934281216	50	5864
2026-01-29 15:31:41.37	241.56	45.33	-38.2	-39.1	23.2	0.00e+00	0	30	0	936378368	50	5762
2026-01-29 15:31:42.38	241.28	45.07	-38.2	-39.1	22.5	0.00e+00	79	29	0	937426944	50	5805
2026-01-29 15:31:43.39	241.00	44.81	-38.9	-40.0	22.3	0.00e+00	0	29	0	939524096	50	6403
2026-01-29 15:31:44.40	240.72	44.55	-39.4	-40.5	21.8	0.00e+00	0	29	0	941621248	50	6847
2026-01-29 15:31:45.41	240.45	44.29	-40.3	-41.5	21.3	0.00e+00	0	29	0	943718400	52	6814
2026-01-29 15:31:46.42	240.19	44.03	-39.7	-40.9	21.5	0.00e+00	0	29	0	945815552	52	6338
2026-01-29 15:31:47.43	239.93	43.77	-39.7	-40.9	21.7	0.00e+00	57	29	0	946864128	52	6328
2026-01-29 15:31:48.44	239.67	43.52	-39.1	-40.2	22.2	0.00e+00	0	29	0	948961280	52	5839
2026-01-29 15:31:49.45	239.42	43.26	-39.2	-40.3	22.2	0.00e+00	92	29	0	951058432	52	5907
2026-01-29 15:31:50.45	239.17	43.01	-38.8	-39.8	22.5	0.00e+00	0	29	0	953155584	52	5612
2026-01-29 15:31:51.46	238.92	42.76	-39.1	-40.1	21.9	0.00e+00	0	29	0	955252736	52	5807
2026-01-29 15:31:52.47	238.68	42.51	-39.6	-40.7	21.8	0.00e+00	0	29	0	956301312	52	6191
2026-01-29 15:31:53.48	238.45	42.26	-39.6	-40.6	21.8	0.00e+00	0	29	0	958398464	52	6173
2026-01-29 15:31:54.49	238.21	42.01	-39.4	-40.5	21.9	0.00e+00	64	30	0	960495616	52	6056
2026-01-29 15:31:55.50	237.98	41.76	-40.2	-41.3	21.3	0.00e+00	0	30	0	962592768	52	6657
2026-01-29 15:31:56.51	237.75	41.52	-41.1	-42.4	20.2	0.00e+00	91	30	0	964689920	54	6728
2026-01-29 15:31:57.52	237.53	41.27	-42.0	-43.4	19.7	0.00e+00	0	30	0	965738496	56	6736
2026-01-29 15:31:58.53	237.31	41.03	-40.8	-42.0	20.6	0.00e+00	0	29	0	967835648	54	6463
2026-01-29 15:31:59.54	237.10	40.78	-41.1	-42.4	20.1	0.00e+00	0	29	0	969932800	54	6746
2026-01-29 15:32:00.54	236.88	40.54	-41.6	-43.1	19.6	0.00e+00	0	29	0	972029952	54	7263
2026-01-29 15:32:01.55	236.67	40.30	-42.6	-44.3	18.5	0.00e+00	64	30	0	974127104	56	7467
2026-01-29 15:32:02.56	236.47	40.06	-43.4	-45.5	17.7	0.00e+00	0	30	0	975175680	58	7606
2026-01-29 15:32:03.57	236.26	39.82	-44.7	-47.5	15.4	0.00e+00	65	29	0	977272832	60	8564
2026-01-29 15:32:04.58	236.06	39.59	-44.9	-47.8	15.1	0.00e+00	2	29	0	979369984	60	8864
2026-01-29 15:32:05.59	235.86	39.35	-45.0	-48.0	15.3	0.00e+00	44	29	0	981467136	60	9028
2026-01-29 15:32:06.60	235.67	39.11	-43.2	-45.2	17.7	0.00e+00	0	30	0	983564288	60	6583
2026-01-29 15:32:07.61	235.48	38.88	-42.4	-44.1	18.7	0.00e+00	0	30	0	984612864	58	6500
2026-01-29 15:32:08.62	235.29	38.65	-41.4	-42.7	20.1	0.00e+00	0	30	0	986710016	56	6221
2026-01-29 15:32:09.63	235.10	38.42	-41.3	-42.6	20.1	0.00e+00	0	30	0	988807168	56	6146
2026-01-29 15:32:10.64	234.92	38.19	-42.3	-43.9	19.0	0.00e+00	90	29	0	990904320	56	7102
2026-01-29 15:32:11.65	234.74	37.96	-43.2	-45.1	17.8	0.00e+00	0	30	0	993001472	58	7311
2026-01-29 15:32:12.66	234.56	37.73	-43.4	-45.4	17.4	0.00e+00	78	30	0	995098624	58	7587
2026-01-29 15:32:13.67	234.38	37.50	-42.7	-44.5	18.2	0.00e+00	0	30	0	996147200	58	6803
2026-01-29 15:32:14.68	234.21	37.28	-42.4	-44.1	19.0	0.00e+00	0	30	0	998244352	58	6473
2026-01-29 15:32:15.69	234.03	37.06	-41.9	-43.4	19.4	0.00e+00	0	30	0	1000341504	56	6698
2026-01-29 15:32:16.70	233.87	36.83	-42.0	-43.5	19.5	0.00e+00	0	29	0	1002438656	56	6825
2026-01-29 15:32:17.70	233.70	36.61	-41.9	-43.5	19.4	0.00e+00	87	29	0	1003487232	56	6826
2026-01-29 15:32:18.71	233.54	36.39	-43.0	-44.9	18.1	0.00e+00	0	30	0	1005584384	56	7987
2026-01-29 15:32:19.72	233.37	36.17	-42.3	-44.0	19.0	0.00e+00	92	30	0	1007681536	58	6397
2026-01-29 15:32:20.73	233.21	35.96	-42.1	-43.7	19.7	0.00e+00	0	30	0	1009778688	56	6947
2026-01-29 15:32:21.74	233.06	35.74	-41.7	-43.2	19.8	0.00e+00	0	29	0	1011875840	56	6564
2026-01-29 15:32:22.75	232.90	35.52	-42.2	-43.9	18.9	0.00e+00	0	30	0	1012924416	56	7113
2026-01-29 15:32:23.76	232.75	35.31	-42.5	-44.3	18.7	0.00e+00	0	30	0	1015021568	56	7433
2026-01-29 15:32:24.77	232.59	35.10	-42.9	-44.9	18.0	0.00e+00	67	30	0	1017118720	58	7136
2026-01-29 15:32:25.78	232.44	34.88	-42.5	-44.4	18.4	0.00e+00	0	30	0	1019215872	58	6712
2026-01-29 15:32:26.79	232.30	34.67	-41.5	-43.1	19.7	0.00e+00	92	29	0	1021313024	56	6467
2026-01-29 15:32:27.80	232.15	34.46	-41.4	-42.8	20.0	0.00e+00	0	30	0	1023410176	56	6310
2026-01-29 15:32:28.81	232.01	34.26	-41.5	-43.1	19.9	0.00e+00	0	30	0	1024458752	56	6477
2026-01-29 15:32:29.82	231.86	34.05	-42.0	-43.8	19.1	0.00e+00	0	30	0	1026555904	56	7018
2026-01-29 15:32:30.83	231.72	33.84	-42.2	-44.0	18.8	0.00e+00	0	30	0	1028653056	56	7172
2026-01-29 15:32:31.84	231.59	33.64	-42.1	-43.9	18.9	0.00e+00	14	30	0	1030750208	56	7146
2026-01-29 15:32:32.85	231.45	33.43	-41.2	-42.7	20.1	0.00e+00	0	30	0	1032847360	56	6212
2026-01-29 15:32:33.86	231.31	33.23	-40.4	-41.7	21.0	0.00e+00	90	30	0	1033895936	54	6187
2026-01-29 15:32:34.87	231.18	33.03	-39.6	-40.8	21.6	0.00e+00	0	30	0	1035993088	52	6247
2026-01-29 15:32:35.88	231.05	32.83	-39.8	-41.0	21.6	0.00e+00	0	30	0	1038090240	52	6403
2026-01-29 15:32:36.89	230.92	32.63	-39.8	-41.0	21.9	0.00e+00	0	30	0	1040187392	52	6391
2026-01-29 15:32:37.90	230.79	32.43	-40.4	-41.7	21.2	0.00e+00	0	30	0	1042284544	52	6934
2026-01-29 15:32:38.90	230.67	32.24	-40.3	-41.6	21.0	0.00e+00	68	30	0	1043333120	52	6872
2026-01-29 15:32:39.91	230.54	32.04	-40.1	-41.3	21.3	0.00e+00	0	29	0	1045430272	52	6630
2026-01-29 15:32:40.92	230.42	31.85	-39.6	-40.7	21.9	0.00e+00	89	30	0	1047527424	52	6186
2026-01-29 15:32:41.93	230.29	31.65	-39.2	-40.2	22.3	0.00e+00	0	29	0	1049624576	52	5874
2026-01-29 15:32:42.94	230.17	31.46	-39.6	-40.7	21.8	0.00e+00	0	30	0	1051721728	52	6239
2026-01-29 15:32:43.95	230.05	31.27	-40.5	-41.8	20.8	0.00e+00	0	29	0	1052770304	52	7046
2026-01-29 15:32:44.96	229.94	31.08	-40.9	-42.3	20.5	0.00e+00	0	29	0	1054867456	54	6632
2026-01-29 15:32:45.97	229.82	30.89	-40.7	-42.1	20.5	0.00e+00	68	30	0	1056964608	54	6479
2026-01-29 15:32:46.98	229.71	30.70	-40.0	-41.2	21.4	0.00e+00	0	30	0	1059061760	54	5873
2026-01-29 15:32:47.99	229.59	30.52	-39.1	-40.1	22.2	0.00e+00	65	30	0	1061158912	52	5798
2026-01-29 15:32:49.00	229.48	30.33	-38.5	-39.5	22.7	0.00e+00	0	30	0	1062207488	50	6049
2026-01-29 15:32:50.01	229.37	30.15	-38.1	-39.0	23.2	0.00e+00	92	30	0	1064304640	50	5760
2026-01-29 15:32:51.02	229.26	29.96	-37.7	-38.5	23.4	0.00e+00	0	30	0	1066401792	48	6095
2026-01-29 15:32:52.03	229.15	29.78	-37.9	-38.8	23.3	0.00e+00	0	30	0	1068498944	48	6257
2026-01-29 15:32:53.04	229.04	29.60	-38.4	-39.3	22.8	0.00e+00	0	30	0	1070596096	48	6677
2026-01-29 15:32:54.05	228.94	29.42	-38.5	-39.5	22.6	0.00e+00	0	30	0	1071644672	50	6063
2026-01-29 15:32:55.06	228.83	29.24	-39.0	-40.1	22.1	0.00e+00	92	30	0	1073741824	50	6479
2026-01-29 15:32:56.07	228.73	29.06	-38.9	-40.0	22.2	0.00e+00	0	30	0	1075838976	50	6402
2026-01-29 15:32:57.08	228.63	28.88	-38.6	-39.6	22.7	0.00e+00	90	30	0	1077936128	50	6117
2026-01-29 15:32:58.08	228.53	28.71	-38.6	-39.6	22.6	0.00e+00	0	30	0	1080033280	50	6132
2026-01-29 15:32:59.09	228.43	28.53	-38.7	-39.7	22.6	0.00e+00	0	30	0	1081081856	50	6202
2026-01-29 15:33:00.10	228.33	28.36	-39.0	-40.0	22.1	0.00e+00	0	30	0	1083179008	50	6427
2026-01-29 15:33:01.11	228.23	28.19	-39.4	-40.5	22.0	0.00e+00	0	30	0	1085276160	50	6817
2026-01-29 15:33:02.12	228.13	28.01	-40.4	-41.6	21.0	0.00e+00	26	30	0	1087373312	52	6926
2026-01-29 15:33:03.13	228.04	27.84	-40.9	-42.2	20.5	0.00e+00	0	30	0	1089470464	54	6551
2026-01-29 15:33:04.14	227.94	27.67	-41.4	-42.9	19.9	0.00e+00	92	30	0	1091567616	54	7090
2026-01-29 15:33:05.15	227.85	27.50	-41.7	-43.2	19.5	0.00e+00	30	30	0	1092616192	54	7376
2026-01-29 15:33:06.16	227.76	27.33	-41.0	-42.3	20.1	0.00e+00	0	30	0	1094713344	54	6651
2026-01-29 15:33:07.17	227.66	27.16	-41.0	-42.3	20.3	0.00e+00	0	30	0	1096810496	54	6655
2026-01-29 15:33:08.18	227.57	27.00	-40.2	-41.4	21.1	0.00e+00	0	30	0	1098907648	54	5982
2026-01-29 15:33:09.19	227.48	26.83	-40.0	-41.2	21.4	0.00e+00	64	30	0	1101004800	54	5842
2026-01-29 15:33:10.20	227.39	26.67	-40.2	-41.3	21.2	0.00e+00	0	30	0	1102053376	52	6665
2026-01-29 15:33:11.21	227.31	26.50	-39.7	-40.8	21.7	0.00e+00	90	30	0	1104150528	52	6287
2026-01-29 15:33:12.22	227.22	26.34	-39.6	-40.7	21.7	0.00e+00	0	30	0	1106247680	52	6217
2026-01-29 15:33:13.22	227.13	26.18	-39.2	-40.3	22.1	0.00e+00	0	30	0	1108344832	52	5915
2026-01-29 15:33:14.23	227.05	26.02	-38.8	-39.7	22.5	0.00e+00	0	30	0	1110441984	52	5561
2026-01-29 15:33:15.24	226.97	25.86	-38.3	-39.2	22.9	0.00e+00	0	30	0	1111490560	50	5895
2026-01-29 15:33:16.25	226.88	25.70	-38.2	-39.2	23.0	0.00e+00	67	30	0	1113587712	50	5831
2026-01-29 15:33:17.26	226.80	25.54	-38.0	-38.9	23.1	0.00e+00	0	30	0	1115684864	50	5678
2026-01-29 15:33:18.27	226.72	25.38	-38.0	-38.9	23.1	0.00e+00	92	30	0	1117782016	50	5654
2026-01-29 15:33:19.28	226.64	25.23	-38.2	-39.1	22.9	0.00e+00	0	30	0	1119879168	50	5781
2026-01-29 15:33:20.29	226.56	25.07	-38.4	-39.3	22.6	0.00e+00	25	30	0	1120927744	50	5955
2026-01-29 15:33:21.30	226.48	24.91	-38.9	-39.9	22.3	0.00e+00	0	30	0	1123024896	50	6358
2026-01-29 15:33:22.31	226.40	24.76	-39.2	-40.3	22.1	0.00e+00	0	30	0	1125122048	50	6620
2026-01-29 15:33:23.32	226.32	24.61	-39.4	-40.4	22.0	0.00e+00	0	30	0	1127219200	50	6742
2026-01-29 15:33:24.33	226.25	24.45	-39.6	-40.7	21.8	0.00e+00	0	30	0	1129316352	50	6990
2026-01-29 15:33:25.34	226.17	24.30	-39.2	-40.3	22.0	0.00e+00	60	30	0	1130364928	50	6617
2026-01-29 15:33:26.35	226.09	24.15	-39.1	-40.1	22.3	0.00e+00	0	30	0	1132462080	50	6494
2026-01-29 15:33:27.36	226.02	24.00	-38.8	-39.8	22.5	0.00e+00	91	30	0	1134559232	50	6250
2026-01-29 15:33:28.37	225.95	23.85	-38.5	-39.4	22.8	0.00e+00	0	30	0	1136656384	50	6008
2026-01-29 15:33:29.38	225.87	23.70	-38.1	-39.0	23.1	0.00e+00	0	30	0	1138753536	50	5739
2026-01-29 15:33:30.38	225.80	23.56	-37.7	-38.6	23.3	0.00e+00	0	30	0	1139802112	48	6152
2026-01-29 15:33:31.39	225.73	23.41	-38.1	-39.0	23.1	0.00e+00	0	30	0	1141899264	48	6418
2026-01-29 15:33:32.41	225.66	23.26	-38.4	-39.4	22.7	0.00e+00	65	30	0	1143996416	48	6746
2026-01-29 15:33:33.42	225.59	23.12	-38.6	-39.6	22.5	0.00e+00	0	29	0	1146093568	48	6884
2026-01-29 15:33:34.42	225.52	22.97	-39.3	-40.4	21.9	0.00e+00	92	30	0	1148190720	50	6693
2026-01-29 15:33:35.43	225.45	22.83	-40.2	-41.4	21.1	0.00e+00	0	30	0	1149239296	52	6746
2026-01-29 15:33:36.45	225.38	22.69	-40.7	-42.0	20.5	0.00e+00	0	30	0	1151336448	54	6447
2026-01-29 15:33:37.46	225.31	22.54	-41.3	-42.8	19.6	0.00e+00	0	30	0	1153433600	54	7034
2026-01-29 15:33:38.46	225.25	22.40	-41.8	-43.3	19.5	0.00e+00	0	30	0	1155530752	56	6688
2026-01-29 15:33:39.47	225.18	22.26	-42.0	-43.5	19.3	0.00e+00	60	30	0	1157627904	56	6828
2026-01-29 15:33:40.48	225.12	22.12	-41.2	-42.6	20.2	0.00e+00	0	30	0	1159725056	56	6107
2026-01-29 15:33:41.49	225.05	21.98	-40.5	-41.7	20.8	0.00e+00	92	30	0	1160773632	54	6223
2026-01-29 15:33:42.50	224.99	21.84	-39.9	-41.0	21.4	0.00e+00	0	30	0	1162870784	54	5754
2026-01-29 15:33:43.51	224.92	21.71	-39.6	-40.6	21.8	0.00e+00	0	30	0	1164967936	52	6159
2026-01-29 15:33:44.52	224.86	21.57	-38.9	-39.9	22.4	0.00e+00	0	30	0	1167065088	52	5639
2026-01-29 15:33:45.53	224.80	21.43	-38.3	-39.3	22.9	0.00e+00	0	30	0	1169162240	50	5903
2026-01-29 15:33:46.54	224.73	21.30	-38.3	-39.2	22.8	0.00e+00	12	30	0	1170210816	50	5881
2026-01-29 15:33:47.55	224.67	21.16	-38.2	-39.2	23.1	0.00e+00	0	30	0	1172307968	50	5833
2026-01-29 15:33:48.56	224.61	21.03	-38.0	-38.9	23.0	0.00e+00	89	30	0	1174405120	50	5689
2026-01-29 15:33:49.56	224.55	20.89	-37.9	-38.8	23.1	0.00e+00	0	30	0	1176502272	50	5618
2026-01-29 15:33:50.57	224.49	20.76	-38.1	-39.1	23.1	0.00e+00	0	30	0	1178599424	50	5763
2026-01-29 15:33:51.58	224.43	20.63	-37.9	-38.8	23.2	0.00e+00	0	30	0	1179648000	50	5620
2026-01-29 15:33:52.59	224.37	20.50	-37.9	-38.8	23.1	0.00e+00	0	30	0	1181745152	50	5600
2026-01-29 15:33:53.60	224.31	20.36	-38.1	-38.9	23.1	0.00e+00	32	30	0	1183842304	50	5691
2026-01-29 15:33:54.61	224.26	20.23	-37.9	-38.8	23.2	0.00e+00	0	30	0	1185939456	50	5589
2026-01-29 15:33:55.62	224.20	20.10	-37.9	-38.8	23.2	0.00e+00	92	30	0	1188036608	50	5580
2026-01-29 15:33:56.63	224.14	19.97	-37.8	-38.7	23.3	0.00e+00	0	30	0	1189085184	48	6223
2026-01-29 15:33:57.63	224.09	19.85	-37.4	-38.3	23.6	0.00e+00	30	30	0	1191182336	48	5901
2026-01-29 15:33:58.65	224.03	19.72	-37.4	-38.3	23.7	0.00e+00	0	30	0	1193279488	48	5901
2026-01-29 15:33:59.66	223.98	19.59	-37.2	-38.0	23.8	0.00e+00	0	30	0	1195376640	48	5720
2026-01-29 15:34:00.66	223.92	19.46	-37.3	-38.2	23.6	0.00e+00	16	30	0	1197473792	48	5839
2026-01-29 15:34:01.67	223.87	19.34	-37.3	-38.1	23.7	0.00e+00	0	30	0	1198522368	48	5825
2026-01-29 15:34:02.68	223.81	19.21	-37.2	-38.1	23.7	0.00e+00	92	30	0	1200619520	48	5787
2026-01-29 15:34:03.69	223.76	19.09	-37.4	-38.3	23.6	0.00e+00	0	30	0	1202716672	48	5905
2026-01-29 15:34:04.70	223.71	18.96	-37.5	-38.3	23.5	0.00e+00	62	30	0	1204813824	48	5958
2026-01-29 15:34:05.71	223.65	18.84	-37.7	-38.6	23.4	0.00e+00	0	30	0	1206910976	48	6151
2026-01-29 15:34:06.72	223.60	18.72	-37.5	-38.4	23.5	0.00e+00	0	30	0	1207959552	48	6010
2026-01-29 15:34:07.73	223.55	18.59	-37.8	-38.7	23.3	0.00e+00	9	30	0	1210056704	48	6217
