passes_logs/2026/01/29/R4.6S_Anadyr/R4.6S_Anadyr__20260129_224848_KOSAR1-5_rec.log

#Pass ID: 20260129_224848_KOSAR1-5
#Satellite: KOSAR1-5
#Configuration: KOSAR1-5
#almurnet v.1.7.20251203
#Start time: 2026-01-29 22:48:54

#Version: 2.2.20231116
#Station: R4.6S_Anadyr
#Location: 177.4865 lon 64.73178 lat
#TLE: 1 67264U 25313S   26028.94615568  .00012050  00000+0  55467-3 0  9998
#TLE: 2 67264  97.4180 105.8864 0016576 134.5684 225.6907 15.20338860  4779

#Time	Az	El	Level	Level2	SNR	BER	BlckErr	Temp	State	Recorded	gain1	gain2
2026-01-29 22:48:54.61	19.75	0.38	-49.7	-51.2	5.7	0.00e+00	0	34	0	0	60	44683
2026-01-29 22:48:55.60	19.80	0.44	-46.4	-61.1	3.6	1.51e+00	0	35	104	0	60	46195
2026-01-29 22:48:56.57	19.84	0.50	-46.3	-61.1	3.6	1.51e+00	0	35	104	0	60	45798
2026-01-29 22:48:57.55	19.89	0.56	-46.4	-61.1	3.6	1.51e+00	0	35	104	0	60	46204
2026-01-29 22:48:58.53	19.94	0.62	-46.5	-61.2	3.6	1.51e+00	0	35	104	0	60	46317
2026-01-29 22:48:59.51	19.98	0.68	-46.5	-61.2	3.6	1.51e+00	0	35	104	0	60	46431
2026-01-29 22:49:00.48	20.03	0.75	-46.5	-61.2	3.6	1.51e+00	0	35	104	0	60	46607
2026-01-29 22:49:01.45	20.07	0.81	-45.3	-61.2	3.6	1.51e+00	0	35	104	0	60	46573
2026-01-29 22:49:02.44	20.12	0.87	-46.5	-61.2	3.6	1.51e+00	0	35	104	0	60	46801
2026-01-29 22:49:03.42	20.17	0.93	-46.4	-61.2	3.6	1.51e+00	0	35	104	0	60	46385
2026-01-29 22:49:04.39	20.22	0.99	-46.4	-61.1	3.6	1.51e+00	0	35	104	0	60	46181
2026-01-29 22:49:05.37	20.26	1.06	-46.3	-61.1	3.6	1.51e+00	0	35	104	0	60	46208
2026-01-29 22:49:06.34	20.31	1.12	-46.4	-61.1	3.6	1.51e+00	0	35	104	0	60	45972
2026-01-29 22:49:07.32	20.36	1.18	-46.2	-61.0	3.6	1.51e+00	0	35	104	0	60	45458
2026-01-29 22:49:08.30	20.41	1.24	-46.1	-60.9	3.6	1.51e+00	0	35	104	0	60	44888
2026-01-29 22:49:09.28	20.46	1.31	-45.9	-60.8	3.6	1.51e+00	0	35	104	0	60	44400
2026-01-29 22:49:10.25	20.50	1.37	-44.3	-60.7	3.6	1.51e+00	0	35	104	0	60	43937
2026-01-29 22:49:11.23	20.55	1.43	-45.8	-60.6	3.6	1.51e+00	0	35	104	0	60	43387
2026-01-29 22:49:12.20	20.60	1.50	-45.7	-60.5	3.6	1.51e+00	0	35	104	0	60	42945
2026-01-29 22:49:13.18	20.65	1.56	-45.6	-60.3	3.6	1.51e+00	0	35	104	0	60	41919
2026-01-29 22:49:14.16	20.70	1.63	-45.1	-60.0	3.6	1.51e+00	0	36	104	0	60	40452
2026-01-29 22:49:15.14	20.75	1.69	-45.1	-59.8	3.6	1.51e+00	0	35	104	0	60	39470
2026-01-29 22:49:16.12	20.80	1.76	-45.1	-59.8	3.6	1.51e+00	0	35	104	0	60	39604
2026-01-29 22:49:17.10	20.85	1.82	-45.1	-59.8	3.6	1.51e+00	0	35	104	0	60	39510
2026-01-29 22:49:18.08	20.90	1.88	-45.1	-59.8	3.6	1.51e+00	0	36	104	0	60	39412
2026-01-29 22:49:19.05	20.95	1.95	-45.1	-59.8	3.6	1.51e+00	0	35	104	0	60	39557
2026-01-29 22:49:20.03	21.00	2.01	-45.1	-59.8	3.6	1.51e+00	0	35	104	0	60	39408
2026-01-29 22:49:21.01	21.06	2.08	-45.1	-59.8	3.6	1.51e+00	0	35	104	0	60	39482
2026-01-29 22:49:21.99	21.11	2.15	-45.1	-59.8	3.6	1.51e+00	0	36	104	0	60	39416
2026-01-29 22:49:22.97	21.16	2.21	-45.1	-59.7	3.5	1.51e+00	0	35	104	0	60	39182
2026-01-29 22:49:23.94	21.21	2.28	-45.0	-59.7	3.6	1.51e+00	0	35	104	0	60	39378
2026-01-29 22:49:24.92	21.26	2.34	-45.0	-59.7	3.6	1.51e+00	0	35	104	0	60	39333
2026-01-29 22:49:25.90	21.32	2.41	-45.0	-59.7	3.6	1.51e+00	0	35	104	0	60	39181
2026-01-29 22:49:26.88	21.37	2.48	-45.0	-59.7	3.6	1.51e+00	0	36	104	0	60	39272
2026-01-29 22:49:27.85	21.42	2.54	-45.0	-59.7	3.6	1.51e+00	0	35	104	0	60	39263
2026-01-29 22:49:28.83	21.48	2.61	-45.0	-59.7	3.6	1.51e+00	0	35	104	0	60	39337
2026-01-29 22:49:29.81	21.53	2.68	-45.0	-59.7	3.6	1.51e+00	0	35	104	0	60	39142
2026-01-29 22:49:30.78	21.58	2.74	-45.0	-59.7	3.6	1.51e+00	0	36	104	0	60	39349
2026-01-29 22:49:31.76	21.64	2.81	-45.0	-59.7	3.6	1.51e+00	0	36	104	0	60	39374
2026-01-29 22:49:32.73	21.69	2.88	-45.0	-59.7	3.6	1.51e+00	0	36	104	0	60	39149
2026-01-29 22:49:33.71	21.75	2.95	-45.0	-59.7	3.6	1.51e+00	0	36	104	0	60	39246
2026-01-29 22:49:34.69	21.80	3.01	-45.0	-59.7	3.6	1.51e+00	0	36	104	0	60	39158
2026-01-29 22:49:35.67	21.86	3.08	-45.0	-59.7	3.6	1.51e+00	0	36	104	0	60	39340
2026-01-29 22:49:36.64	21.92	3.15	-45.0	-59.7	3.6	1.51e+00	0	36	104	0	60	39208
2026-01-29 22:49:37.61	21.97	3.22	-45.0	-59.8	3.6	1.51e+00	0	36	104	0	60	39466
2026-01-29 22:49:38.59	22.03	3.29	-45.0	-59.7	3.6	1.51e+00	0	36	104	0	60	39185
2026-01-29 22:49:39.57	22.09	3.36	-45.0	-59.7	3.6	1.51e+00	0	36	104	0	60	39359
2026-01-29 22:49:40.55	22.14	3.43	-45.0	-59.8	3.6	1.51e+00	0	36	104	0	60	39560
2026-01-29 22:49:41.53	22.20	3.50	-45.0	-59.7	3.6	1.51e+00	0	36	104	0	60	39162
2026-01-29 22:49:42.51	22.26	3.57	-45.0	-59.7	3.6	1.51e+00	0	36	104	0	60	39287
2026-01-29 22:49:43.49	22.32	3.64	-45.0	-59.7	3.6	1.51e+00	0	36	104	0	60	39241
2026-01-29 22:49:44.47	22.38	3.71	-45.0	-59.7	3.6	1.51e+00	0	36	104	0	60	39338
2026-01-29 22:49:45.45	22.44	3.78	-45.0	-59.7	3.6	1.51e+00	0	36	104	0	60	39270
2026-01-29 22:49:46.43	22.49	3.85	-45.0	-59.7	3.6	1.51e+00	0	36	104	0	60	39363
2026-01-29 22:49:47.42	22.56	3.92	-45.0	-59.8	3.6	1.51e+00	0	36	104	0	60	39416
2026-01-29 22:49:48.40	22.62	3.99	-45.0	-59.7	3.6	1.51e+00	0	36	104	0	60	39311
2026-01-29 22:49:49.38	22.68	4.06	-45.0	-59.8	3.6	1.51e+00	0	36	104	0	60	39628
2026-01-29 22:49:50.35	22.74	4.13	-45.1	-59.9	3.6	1.51e+00	0	36	104	0	60	40119
2026-01-29 22:49:51.34	22.80	4.21	-45.0	-59.8	3.6	1.51e+00	0	36	104	0	60	39773
2026-01-29 22:49:52.31	22.86	4.28	-45.0	-59.7	3.6	1.51e+00	0	36	104	0	60	39323
2026-01-29 22:49:53.29	22.92	4.35	-45.0	-59.7	3.6	1.51e+00	0	36	104	0	60	39226
2026-01-29 22:49:54.28	22.98	4.42	-45.2	-60.0	3.6	1.51e+00	0	36	104	0	60	40583
2026-01-29 22:49:55.26	23.05	4.50	-45.0	-59.9	3.6	1.51e+00	0	36	104	0	60	40074
2026-01-29 22:49:56.23	23.11	4.57	-45.0	-59.8	3.6	1.51e+00	0	36	104	0	60	39484
2026-01-29 22:49:57.21	23.17	4.64	-44.9	-59.7	3.6	1.51e+00	0	36	104	0	60	39294
2026-01-29 22:49:58.19	23.24	4.71	-45.2	-60.0	3.6	1.51e+00	0	36	104	0	60	40598
2026-01-29 22:49:59.17	23.30	4.79	-45.0	-60.0	3.6	1.51e+00	0	36	104	0	60	40350
2026-01-29 22:50:00.15	23.36	4.86	-45.0	-59.8	3.6	1.51e+00	0	36	104	0	60	39667
2026-01-29 22:50:01.12	23.43	4.94	-45.1	-59.7	3.6	1.51e+00	0	36	104	0	60	39325
2026-01-29 22:50:02.10	23.49	5.01	-45.3	-60.1	3.6	1.51e+00	0	36	104	0	60	40937
2026-01-29 22:50:03.07	23.56	5.09	-45.1	-60.0	3.6	1.51e+00	0	36	104	0	60	40620
2026-01-29 22:50:04.05	23.62	5.16	-45.0	-59.9	3.6	1.51e+00	0	36	104	0	60	39908
2026-01-29 22:50:05.02	23.69	5.24	-45.1	-59.8	3.6	1.51e+00	0	36	104	0	60	39576
2026-01-29 22:50:06.00	23.76	5.31	-45.4	-60.1	3.6	1.51e+00	0	36	104	0	60	41119
2026-01-29 22:50:06.98	23.82	5.39	-45.4	-60.1	3.6	1.51e+00	0	36	104	0	60	40799
2026-01-29 22:50:07.95	23.89	5.46	-45.0	-59.9	3.6	1.51e+00	0	36	104	0	60	40222
2026-01-29 22:50:08.93	23.96	5.54	-45.2	-59.9	3.6	1.51e+00	0	36	104	0	60	40065
2026-01-29 22:50:09.91	24.03	5.62	-45.3	-60.1	3.6	1.51e+00	0	36	104	0	60	41150
2026-01-29 22:50:10.89	24.10	5.69	-45.3	-60.1	3.6	1.51e+00	0	36	104	0	60	40963
2026-01-29 22:50:11.87	24.17	5.77	-45.1	-60.0	3.6	1.51e+00	0	36	104	0	60	40590
2026-01-29 22:50:12.85	24.24	5.85	-45.2	-60.0	3.6	1.51e+00	0	36	104	0	60	40429
2026-01-29 22:50:13.83	24.31	5.93	-45.4	-60.1	3.6	1.51e+00	0	36	104	0	60	41166
2026-01-29 22:50:14.81	24.38	6.00	-45.4	-60.1	3.6	1.51e+00	0	36	104	0	60	41054
2026-01-29 22:50:15.78	24.45	6.08	-45.4	-60.1	3.6	1.51e+00	0	36	104	0	60	41055
2026-01-29 22:50:16.76	24.52	6.16	-45.3	-60.0	3.6	1.51e+00	0	36	104	0	60	40652
2026-01-29 22:50:17.74	24.59	6.24	-45.4	-60.1	3.6	1.51e+00	0	36	104	0	60	41166
2026-01-29 22:50:18.72	24.67	6.32	-45.4	-60.1	3.6	1.51e+00	0	36	104	0	60	41210
2026-01-29 22:50:19.70	24.74	6.40	-45.3	-60.1	3.6	1.51e+00	0	36	104	0	60	41129
2026-01-29 22:50:20.68	24.81	6.48	-45.3	-60.1	3.6	1.51e+00	0	36	104	0	60	40913
2026-01-29 22:50:21.66	24.89	6.56	-45.4	-60.2	3.6	1.51e+00	0	36	104	0	60	41337
2026-01-29 22:50:22.63	24.96	6.64	-45.2	-60.2	3.6	1.51e+00	0	36	104	0	60	41291
2026-01-29 22:50:23.61	25.03	6.72	-45.4	-60.1	3.6	1.51e+00	0	36	104	0	60	41053
2026-01-29 22:50:24.59	25.11	6.80	-45.3	-60.1	3.6	1.51e+00	0	36	104	0	60	41026
2026-01-29 22:50:25.57	25.19	6.88	-45.2	-60.2	3.6	1.51e+00	0	36	104	0	60	41279
2026-01-29 22:50:26.55	25.26	6.96	-45.3	-60.2	3.6	1.51e+00	0	36	104	0	60	41595
2026-01-29 22:50:27.53	25.34	7.05	-45.2	-60.2	3.6	1.51e+00	0	36	104	0	60	41592
2026-01-29 22:50:28.51	25.42	7.13	-45.4	-60.1	3.6	1.51e+00	0	36	104	0	60	41067
2026-01-29 22:50:29.49	25.50	7.21	-45.0	-60.2	3.6	1.51e+00	0	36	104	0	60	41490
2026-01-29 22:50:30.47	25.57	7.29	-45.6	-60.3	3.6	1.51e+00	0	36	104	0	60	41808
2026-01-29 22:50:31.44	25.65	7.38	-45.4	-60.3	3.6	1.51e+00	0	36	104	0	60	41758
2026-01-29 22:50:32.42	25.73	7.46	-45.2	-60.2	3.6	1.51e+00	0	36	104	0	60	41345
2026-01-29 22:50:33.40	25.81	7.54	-45.3	-60.2	3.6	1.51e+00	0	36	104	0	60	41344
2026-01-29 22:50:34.37	25.89	7.63	-45.3	-60.3	3.6	1.51e+00	0	36	104	0	60	41982
2026-01-29 22:50:35.35	25.97	7.71	-45.6	-60.3	3.6	1.51e+00	0	36	104	0	60	41954
2026-01-29 22:50:36.33	26.06	7.80	-45.3	-60.2	3.6	1.51e+00	0	36	104	0	60	41677
2026-01-29 22:50:37.31	26.14	7.88	-45.4	-60.2	3.6	1.51e+00	0	36	104	0	60	41497
2026-01-29 22:50:38.29	26.22	7.97	-45.5	-60.3	3.6	1.51e+00	0	36	104	0	60	42163
2026-01-29 22:50:39.27	26.31	8.06	-45.6	-60.3	3.6	1.51e+00	0	36	104	0	60	42111
2026-01-29 22:50:40.24	26.39	8.14	-45.5	-60.2	3.6	1.51e+00	0	36	104	0	60	41719
2026-01-29 22:50:41.22	26.47	8.23	-45.3	-60.3	3.6	1.51e+00	0	36	104	0	60	41962
2026-01-29 22:50:42.20	26.56	8.32	-45.3	-60.4	3.6	1.51e+00	0	36	104	0	60	42473
2026-01-29 22:50:43.18	26.65	8.40	-45.6	-60.3	3.6	1.51e+00	0	36	104	0	60	42181
2026-01-29 22:50:44.15	26.73	8.49	-45.6	-60.3	3.6	1.51e+00	0	36	104	0	60	41899
2026-01-29 22:50:45.13	26.82	8.58	-45.4	-60.3	3.6	1.51e+00	0	36	104	0	60	41877
2026-01-29 22:50:46.10	26.91	8.67	-45.6	-60.4	3.6	1.51e+00	0	36	104	0	60	42448
2026-01-29 22:50:47.08	26.99	8.76	-45.7	-60.4	3.6	1.51e+00	0	36	104	0	60	42538
2026-01-29 22:50:48.06	27.08	8.84	-45.5	-60.3	3.6	1.51e+00	0	36	104	0	60	42163
2026-01-29 22:50:49.04	27.17	8.93	-45.6	-60.3	3.6	1.51e+00	0	36	104	0	60	42071
2026-01-29 22:50:50.03	27.26	9.03	-45.7	-60.4	3.6	1.51e+00	0	36	104	0	60	42561
2026-01-29 22:50:51.00	27.35	9.12	-45.6	-60.4	3.6	1.51e+00	0	36	104	0	60	42514
2026-01-29 22:50:51.98	27.45	9.21	-45.6	-60.4	3.6	1.51e+00	0	36	104	0	60	42326
2026-01-29 22:50:52.96	27.54	9.30	-45.6	-60.3	3.6	1.51e+00	0	36	104	0	60	42161
2026-01-29 22:50:53.94	27.63	9.39	-45.6	-60.4	3.5	1.51e+00	0	36	104	0	60	42570
2026-01-29 22:50:54.91	27.73	9.48	-45.6	-60.4	3.6	1.51e+00	0	36	104	0	60	42534
2026-01-29 22:50:55.89	27.82	9.57	-45.6	-60.4	3.6	1.51e+00	0	36	104	0	60	42351
2026-01-29 22:50:56.86	27.91	9.67	-45.5	-60.3	3.6	1.51e+00	0	36	104	0	60	42146
2026-01-29 22:50:57.84	28.01	9.76	-45.6	-60.5	3.6	1.51e+00	0	36	104	0	60	42778
2026-01-29 22:50:58.81	28.11	9.85	-45.1	-60.4	3.6	1.51e+00	0	36	104	0	60	42523
2026-01-29 22:50:59.79	28.20	9.95	-45.6	-60.4	3.6	1.51e+00	0	36	104	0	60	42666
2026-01-29 22:51:00.77	28.30	10.04	-45.5	-60.4	3.6	1.51e+00	0	36	104	0	60	42558
2026-01-29 22:51:01.74	28.40	10.14	-44.9	-60.4	3.6	1.51e+00	0	36	104	0	60	42561
2026-01-29 22:51:02.72	28.50	10.23	-44.9	-60.5	3.6	1.51e+00	0	36	104	0	60	42843
2026-01-29 22:51:03.70	28.60	10.33	-45.3	-60.4	3.6	1.51e+00	0	36	104	0	60	42678
2026-01-29 22:51:04.68	28.70	10.42	-45.6	-60.4	3.6	1.51e+00	0	36	104	0	60	42414
2026-01-29 22:51:05.66	28.80	10.52	-44.8	-60.5	3.6	1.51e+00	0	36	104	0	60	42879
2026-01-29 22:51:06.64	28.91	10.62	-45.4	-60.5	3.6	1.51e+00	0	36	104	0	60	42849
2026-01-29 22:51:07.62	29.01	10.72	-45.0	-60.5	3.6	1.51e+00	0	36	104	0	60	42757
2026-01-29 22:51:08.60	29.12	10.81	-44.5	-60.4	3.6	1.51e+00	0	36	104	0	60	42498
2026-01-29 22:51:09.58	29.22	10.91	-45.5	-60.5	3.6	1.51e+00	0	36	104	0	60	42733
2026-01-29 22:51:10.56	29.33	11.01	-45.7	-60.5	3.6	1.51e+00	0	36	104	0	60	42910
2026-01-29 22:51:11.54	29.43	11.11	-45.5	-60.5	3.6	1.51e+00	0	36	104	0	60	43111
2026-01-29 22:51:12.51	29.54	11.21	-45.6	-60.4	3.6	1.51e+00	0	36	104	0	60	42590
2026-01-29 22:51:13.49	29.65	11.31	-45.6	-60.5	3.6	1.51e+00	0	36	104	0	60	43122
2026-01-29 22:51:14.47	29.76	11.41	-45.8	-60.5	3.6	1.51e+00	0	36	104	0	60	42885
2026-01-29 22:51:15.45	29.87	11.51	-45.8	-60.5	3.6	1.51e+00	0	36	104	0	60	42931
2026-01-29 22:51:16.42	29.98	11.61	-45.4	-60.4	3.6	1.51e+00	0	36	104	0	60	42710
2026-01-29 22:51:17.40	30.09	11.72	-45.6	-60.5	3.6	1.51e+00	0	36	104	0	60	42898
2026-01-29 22:51:18.38	30.21	11.82	-44.4	-60.5	3.6	1.51e+00	0	36	104	0	60	42969
2026-01-29 22:51:19.36	30.32	11.92	-45.5	-60.6	3.6	1.51e+00	0	36	104	0	60	43220
2026-01-29 22:51:20.34	30.44	12.03	-45.7	-60.5	3.6	1.51e+00	0	36	104	0	60	42902
2026-01-29 22:51:21.32	30.55	12.13	-45.6	-60.5	3.6	1.51e+00	0	36	104	0	60	43134
2026-01-29 22:51:22.30	30.67	12.24	-45.0	-60.6	3.6	1.51e+00	0	36	104	0	60	43409
2026-01-29 22:51:23.28	30.79	12.34	-45.4	-60.5	3.6	1.51e+00	0	36	104	0	60	43098
2026-01-29 22:51:24.26	30.91	12.45	-45.5	-60.5	3.6	1.51e+00	0	36	104	0	60	42868
2026-01-29 22:51:25.24	31.03	12.55	-45.0	-60.5	3.6	1.51e+00	0	36	104	0	60	43087
2026-01-29 22:51:26.21	31.15	12.66	-45.6	-60.5	3.6	1.51e+00	0	36	104	0	60	42887
2026-01-29 22:51:27.19	31.27	12.77	-45.7	-60.5	3.6	1.51e+00	0	36	104	0	60	43071
2026-01-29 22:51:28.17	31.39	12.88	-45.2	-60.5	3.6	1.51e+00	0	36	104	0	60	43104
2026-01-29 22:51:29.15	31.52	12.99	-45.1	-60.5	3.6	1.51e+00	0	36	104	0	60	43120
2026-01-29 22:51:30.12	31.64	13.09	-45.8	-60.6	3.6	1.51e+00	0	36	104	0	60	43218
2026-01-29 22:51:31.10	31.77	13.20	-45.8	-60.6	3.6	1.51e+00	0	36	104	0	60	43239
2026-01-29 22:51:32.08	31.89	13.31	-45.7	-60.6	3.6	1.51e+00	0	36	104	0	60	43417
2026-01-29 22:51:33.06	32.02	13.42	-45.8	-60.5	3.6	1.51e+00	0	36	104	0	60	42944
2026-01-29 22:51:34.03	32.15	13.53	-45.9	-60.6	3.6	1.51e+00	0	36	104	0	60	43474
2026-01-29 22:51:35.01	32.28	13.65	-45.9	-60.6	3.6	1.51e+00	0	36	104	0	60	43547
2026-01-29 22:51:36.00	32.42	13.76	-45.8	-60.5	3.6	1.51e+00	0	36	104	0	60	43193
2026-01-29 22:51:36.97	32.55	13.87	-45.8	-60.5	3.6	1.51e+00	0	36	104	0	60	43173
2026-01-29 22:51:37.95	32.68	13.99	-45.8	-60.6	3.6	1.51e+00	0	36	104	0	60	43452
2026-01-29 22:51:38.92	32.82	14.10	-45.4	-60.6	3.6	1.51e+00	0	36	104	0	60	43552
2026-01-29 22:51:39.90	32.95	14.21	-45.9	-60.6	3.6	1.51e+00	0	36	104	0	60	43346
2026-01-29 22:51:40.88	33.09	14.33	-45.9	-60.6	3.6	1.51e+00	0	36	104	0	60	43232
2026-01-29 22:51:41.85	33.23	14.44	-45.8	-60.6	3.6	1.51e+00	0	36	104	0	60	43582
2026-01-29 22:51:42.83	33.37	14.56	-45.9	-60.6	3.6	1.51e+00	0	36	104	0	60	43538
2026-01-29 22:51:43.81	33.51	14.68	-45.4	-60.6	3.6	1.51e+00	0	36	104	0	60	43577
2026-01-29 22:51:44.79	33.66	14.80	-45.8	-60.6	3.6	1.51e+00	0	36	104	0	60	43351
2026-01-29 22:51:45.77	33.80	14.91	-45.9	-60.7	3.6	1.51e+00	0	36	104	0	60	43737
2026-01-29 22:51:46.75	33.95	15.03	-45.9	-60.7	3.6	1.51e+00	0	36	104	0	60	43716
2026-01-29 22:51:47.73	34.09	15.15	-45.9	-60.6	3.6	1.51e+00	0	36	104	0	60	43533
2026-01-29 22:51:48.71	34.24	15.27	-45.8	-60.6	3.6	1.51e+00	0	36	104	0	60	43457
2026-01-29 22:51:49.69	34.39	15.39	-45.4	-60.6	3.6	1.51e+00	0	36	104	0	60	43669
2026-01-29 22:51:50.66	34.54	15.52	-45.9	-60.6	3.6	1.51e+00	0	36	104	0	60	43703
2026-01-29 22:51:51.64	34.69	15.64	-45.5	-60.6	3.6	1.51e+00	0	36	104	0	60	43569
2026-01-29 22:51:52.62	34.85	15.76	-45.9	-60.6	3.6	1.51e+00	0	36	104	0	60	43346
2026-01-29 22:51:53.60	35.00	15.88	-45.9	-60.6	3.6	1.51e+00	0	36	104	0	60	43593
2026-01-29 22:51:54.58	35.16	16.01	-45.7	-60.7	3.6	1.51e+00	0	36	104	0	60	43965
2026-01-29 22:51:55.56	35.32	16.13	-45.9	-60.7	3.6	1.51e+00	0	36	104	0	60	43712
2026-01-29 22:51:56.54	35.48	16.26	-45.9	-60.6	3.6	1.51e+00	0	36	104	0	60	43487
2026-01-29 22:51:57.52	35.64	16.38	-45.7	-60.6	3.6	1.51e+00	0	36	104	0	60	43644
2026-01-29 22:51:58.50	35.81	16.51	-45.8	-60.6	3.6	1.51e+00	0	36	104	0	60	43701
2026-01-29 22:51:59.48	35.97	16.64	-45.6	-60.7	3.6	1.51e+00	0	36	104	0	60	43942
2026-01-29 22:52:00.45	36.14	16.77	-45.0	-60.7	3.6	1.51e+00	0	36	104	0	60	43762
2026-01-29 22:52:01.43	36.30	16.89	-45.1	-60.6	3.6	1.51e+00	0	36	104	0	60	43637
2026-01-29 22:52:02.41	36.47	17.02	-44.7	-60.7	3.6	1.51e+00	0	36	104	0	60	43957
2026-01-29 22:52:03.39	36.65	17.15	-45.4	-60.7	3.6	1.51e+00	0	36	104	0	60	43842
2026-01-29 22:52:04.37	36.82	17.28	-44.3	-60.7	3.6	1.51e+00	0	36	104	0	60	43920
2026-01-29 22:52:05.35	36.99	17.42	-45.0	-60.7	3.6	1.51e+00	0	36	104	0	60	43776
2026-01-29 22:52:06.33	37.17	17.55	-45.1	-60.7	3.6	1.51e+00	0	36	104	0	60	43956
2026-01-29 22:52:07.31	37.35	17.68	-45.7	-60.7	3.6	1.51e+00	0	36	104	0	60	44187
2026-01-29 22:52:08.28	37.53	17.81	-45.3	-60.7	3.6	1.51e+00	0	36	104	0	60	43916
2026-01-29 22:52:09.26	37.71	17.95	-45.4	-60.7	3.6	1.51e+00	0	36	104	0	60	43830
2026-01-29 22:52:10.24	37.89	18.08	-46.0	-60.7	3.6	1.51e+00	0	36	104	0	60	43939
2026-01-29 22:52:11.22	38.08	18.22	-45.9	-60.7	3.6	1.51e+00	0	36	104	0	60	44093
2026-01-29 22:52:12.19	38.27	18.35	-45.9	-60.7	3.6	1.51e+00	0	36	104	0	60	44014
2026-01-29 22:52:13.17	38.46	18.49	-45.9	-60.7	3.6	1.51e+00	0	36	104	0	60	43903
2026-01-29 22:52:14.15	38.65	18.63	-46.0	-60.7	3.6	1.51e+00	0	36	104	0	60	44072
2026-01-29 22:52:15.14	38.84	18.77	-45.7	-60.7	3.6	1.51e+00	0	36	104	0	60	44147
2026-01-29 22:52:16.11	39.04	18.91	-45.8	-60.7	3.6	1.51e+00	0	36	104	0	60	44088
2026-01-29 22:52:17.09	39.23	19.05	-45.6	-60.8	3.6	1.51e+00	0	36	104	0	60	44228
2026-01-29 22:52:18.07	39.43	19.19	-45.8	-60.7	3.6	1.51e+00	0	36	104	0	60	44213
2026-01-29 22:52:19.05	39.64	19.33	-45.9	-60.7	3.6	1.51e+00	0	36	104	0	60	44099
2026-01-29 22:52:20.03	39.84	19.47	-45.8	-60.8	3.6	1.51e+00	0	36	104	0	60	44353
2026-01-29 22:52:21.01	40.05	19.61	-46.0	-60.7	3.6	1.51e+00	0	36	104	0	60	44148
2026-01-29 22:52:21.99	40.26	19.76	-45.8	-60.8	3.6	1.51e+00	0	36	104	0	60	44298
2026-01-29 22:52:22.96	40.46	19.90	-45.8	-60.7	3.6	1.51e+00	0	36	104	0	60	44140
2026-01-29 22:52:23.94	40.68	20.05	-45.9	-60.7	3.6	1.51e+00	0	36	104	0	60	44061
2026-01-29 22:52:24.92	40.89	20.19	-45.7	-60.7	3.6	1.51e+00	0	36	104	0	60	44144
2026-01-29 22:52:25.90	41.11	20.34	-46.1	-60.8	3.6	1.51e+00	0	36	104	0	60	44555
2026-01-29 22:52:26.88	41.33	20.49	-46.1	-60.8	3.6	1.51e+00	0	36	104	0	60	44359
2026-01-29 22:52:27.85	41.55	20.63	-46.1	-60.7	3.6	1.51e+00	0	36	104	0	60	44136
2026-01-29 22:52:28.83	41.77	20.78	-45.4	-60.7	3.6	1.51e+00	0	36	104	0	60	44181
2026-01-29 22:52:29.81	42.00	20.93	-45.8	-60.8	3.6	1.51e+00	0	36	104	0	60	44372
2026-01-29 22:52:30.80	42.23	21.08	-46.1	-60.8	3.6	1.51e+00	0	36	104	0	60	44366
2026-01-29 22:52:31.78	42.46	21.23	-46.1	-60.7	3.6	1.51e+00	0	36	104	0	60	44096
2026-01-29 22:52:32.75	42.70	21.38	-46.0	-60.7	3.6	1.51e+00	0	36	104	0	60	44107
2026-01-29 22:52:33.73	42.93	21.53	-45.7	-60.8	3.6	1.51e+00	0	36	104	0	60	44313
2026-01-29 22:52:34.71	43.17	21.69	-46.1	-60.8	3.6	1.51e+00	0	36	104	0	60	44440
2026-01-29 22:52:35.68	43.41	21.84	-45.8	-60.8	3.6	1.51e+00	0	36	104	0	60	44331
2026-01-29 22:52:36.67	43.66	22.00	-46.0	-60.8	3.6	1.51e+00	0	36	104	0	60	44287
2026-01-29 22:52:37.64	43.91	22.15	-45.9	-60.8	3.6	1.51e+00	0	36	104	0	60	44393
2026-01-29 22:52:38.62	44.16	22.31	-46.1	-60.9	3.6	1.51e+00	0	36	104	0	60	44834
2026-01-29 22:52:39.61	44.41	22.46	-46.0	-60.8	3.6	1.51e+00	0	36	104	0	60	44509
2026-01-29 22:52:40.59	44.67	22.62	-46.0	-60.8	3.6	1.51e+00	0	36	104	0	60	44392
2026-01-29 22:52:41.57	44.93	22.78	-46.1	-60.8	3.6	1.51e+00	0	36	104	0	60	44411
2026-01-29 22:52:42.54	45.19	22.94	-46.0	-60.8	3.6	1.51e+00	0	36	104	0	60	44669
2026-01-29 22:52:43.52	45.45	23.09	-46.1	-60.8	3.6	1.51e+00	0	36	104	0	60	44541
2026-01-29 22:52:44.50	45.72	23.25	-46.1	-60.8	3.6	1.51e+00	0	36	104	0	60	44412
2026-01-29 22:52:45.48	45.99	23.42	-44.8	-60.9	3.6	1.51e+00	0	36	104	0	60	44863
2026-01-29 22:52:46.46	46.27	23.58	-45.9	-60.9	3.6	1.51e+00	0	36	104	0	60	44757
2026-01-29 22:52:47.44	46.54	23.74	-45.6	-60.8	3.6	1.51e+00	0	36	104	0	60	44522
2026-01-29 22:52:48.43	46.83	23.90	-45.5	-60.8	3.6	1.51e+00	0	36	104	0	60	44526
2026-01-29 22:52:49.41	47.11	24.07	-45.8	-60.8	3.6	1.51e+00	0	37	104	0	60	44427
2026-01-29 22:52:50.39	47.40	24.23	-45.7	-60.8	3.6	1.51e+00	0	37	104	0	60	44421
2026-01-29 22:52:51.37	47.69	24.39	-45.5	-60.9	3.6	1.51e+00	0	37	104	0	60	44846
2026-01-29 22:52:52.35	47.98	24.56	-45.5	-60.8	3.6	1.51e+00	0	36	104	0	60	44464
2026-01-29 22:52:53.32	48.28	24.72	-45.8	-60.8	3.6	1.51e+00	0	37	104	0	60	44567
2026-01-29 22:52:54.30	48.58	24.89	-45.3	-60.9	3.6	1.51e+00	0	37	104	0	60	44834
2026-01-29 22:52:55.28	48.88	25.05	-45.6	-60.9	3.6	1.51e+00	0	36	104	0	60	44911
2026-01-29 22:52:56.26	49.19	25.22	-46.1	-60.7	3.6	1.51e+00	0	36	104	0	60	44209
2026-01-29 22:52:57.24	49.50	25.39	-44.6	-60.9	3.6	1.51e+00	0	36	104	0	60	44764
2026-01-29 22:52:58.21	49.81	25.56	-45.2	-60.9	3.6	1.51e+00	0	36	104	0	60	44861
2026-01-29 22:52:59.19	50.13	25.72	-45.8	-60.9	3.6	1.51e+00	0	36	104	0	60	44787
2026-01-29 22:53:00.17	50.46	25.89	-43.9	-60.8	3.6	1.51e+00	0	36	104	0	60	44611
2026-01-29 22:53:01.15	50.78	26.06	-45.3	-60.8	3.6	1.51e+00	0	36	104	0	60	44703
2026-01-29 22:53:02.13	51.11	26.23	-45.8	-60.9	3.6	1.51e+00	0	36	104	0	60	44893
2026-01-29 22:53:03.10	51.44	26.40	-45.8	-60.9	3.6	1.51e+00	0	37	104	0	60	44885
2026-01-29 22:53:04.08	51.78	26.57	-45.6	-60.9	3.6	1.51e+00	0	37	104	0	60	44994
2026-01-29 22:53:05.06	52.12	26.74	-45.7	-60.8	3.6	1.51e+00	0	36	104	0	60	44694
2026-01-29 22:53:06.03	52.46	26.91	-45.9	-60.8	3.6	1.51e+00	0	37	104	0	60	44530
2026-01-29 22:53:07.01	52.81	27.08	-46.0	-60.9	3.6	1.51e+00	0	36	104	0	60	44901
2026-01-29 22:53:07.99	53.17	27.25	-45.9	-60.9	3.6	1.51e+00	0	36	104	0	60	44777
2026-01-29 22:53:08.97	53.53	27.43	-46.1	-60.8	3.6	1.51e+00	0	36	104	0	60	44544
2026-01-29 22:53:09.95	53.89	27.60	-45.6	-60.9	3.6	1.51e+00	0	36	104	0	60	44901
2026-01-29 22:53:10.93	54.26	27.77	-44.6	-60.8	3.6	1.51e+00	0	36	104	0	60	44703
2026-01-29 22:53:11.91	54.63	27.94	-45.8	-60.9	3.6	1.51e+00	0	36	104	0	60	44746
2026-01-29 22:53:12.89	55.00	28.12	-43.4	-60.8	3.6	1.51e+00	0	36	104	0	60	44651
2026-01-29 22:53:13.87	55.38	28.29	-43.9	-60.8	3.6	1.51e+00	0	37	104	0	60	44677
2026-01-29 22:53:14.84	55.76	28.46	-45.8	-60.9	3.6	1.51e+00	0	36	104	0	60	44775
2026-01-29 22:53:15.82	56.15	28.63	-45.2	-60.8	3.6	1.51e+00	0	36	104	0	60	44644
2026-01-29 22:53:16.80	56.55	28.80	-46.1	-60.9	3.6	1.51e+00	0	36	104	0	60	44873
2026-01-29 22:53:17.78	56.94	28.98	-46.2	-60.9	3.6	1.51e+00	0	36	104	0	60	44743
2026-01-29 22:53:18.76	57.35	29.15	-46.1	-60.9	3.6	1.51e+00	0	36	104	0	60	45002
2026-01-29 22:53:19.74	57.75	29.32	-46.0	-60.9	3.6	1.51e+00	0	36	104	0	60	44835
2026-01-29 22:53:20.72	58.17	29.49	-46.0	-60.8	3.6	1.51e+00	0	36	104	0	60	44696
2026-01-29 22:53:21.70	58.58	29.66	-46.0	-60.9	3.6	1.51e+00	0	36	104	0	60	44868
2026-01-29 22:53:22.67	59.00	29.83	-45.8	-60.9	3.6	1.51e+00	0	36	104	0	60	44831
2026-01-29 22:53:23.65	59.43	30.01	-46.0	-60.9	3.6	1.51e+00	0	36	104	0	60	44792
2026-01-29 22:53:24.64	59.86	30.18	-45.9	-60.9	3.6	1.51e+00	0	36	104	0	60	44877
2026-01-29 22:53:25.61	60.29	30.35	-43.9	-60.9	3.6	1.51e+00	0	36	104	0	60	44905
2026-01-29 22:53:26.59	60.73	30.52	-45.8	-60.9	3.6	1.51e+00	0	36	104	0	60	44936
2026-01-29 22:53:27.56	61.18	30.68	-45.8	-60.9	3.6	1.51e+00	0	36	104	0	60	44728
2026-01-29 22:53:28.54	61.63	30.85	-46.0	-60.9	3.5	1.51e+00	0	36	104	0	60	44902
2026-01-29 22:53:29.52	62.08	31.02	-46.2	-60.9	3.6	1.51e+00	0	36	104	0	60	44873
2026-01-29 22:53:30.49	62.54	31.19	-46.0	-60.9	3.6	1.51e+00	0	36	104	0	60	45040
2026-01-29 22:53:31.48	63.01	31.35	-45.6	-60.9	3.6	1.51e+00	0	36	104	0	60	44784
2026-01-29 22:53:32.45	63.48	31.52	-45.7	-60.8	3.6	1.51e+00	0	36	104	0	60	44616
2026-01-29 22:53:33.43	63.96	31.68	-45.5	-60.8	3.6	1.51e+00	0	36	104	0	60	44457
2026-01-29 22:53:34.41	64.44	31.85	-46.1	-60.9	3.6	1.51e+00	0	36	104	0	60	44955
2026-01-29 22:53:35.38	64.92	32.01	-46.1	-60.9	3.6	1.51e+00	0	36	104	0	60	44860
2026-01-29 22:53:36.37	65.42	32.17	-46.1	-60.8	3.6	1.51e+00	0	36	104	0	60	44701
2026-01-29 22:53:37.35	65.92	32.33	-46.1	-60.9	3.6	1.51e+00	0	36	104	0	60	44777
2026-01-29 22:53:38.33	66.42	32.49	-46.2	-60.9	3.6	1.51e+00	0	36	104	0	60	45104
2026-01-29 22:53:39.30	66.92	32.65	-46.1	-60.9	3.6	1.51e+00	0	36	104	0	60	45093
2026-01-29 22:53:40.28	67.44	32.80	-46.1	-60.8	3.6	1.51e+00	0	36	104	0	60	44679
2026-01-29 22:53:41.26	67.95	32.96	-46.0	-60.9	3.6	1.51e+00	0	36	104	0	60	45024
2026-01-29 22:53:42.24	68.48	33.11	-46.0	-60.9	3.6	1.51e+00	0	36	104	0	60	45114
2026-01-29 22:53:43.22	69.01	33.27	-45.8	-60.9	3.6	1.51e+00	0	36	104	0	60	45040
2026-01-29 22:53:44.20	69.54	33.42	-45.9	-60.9	3.6	1.51e+00	0	36	104	0	60	44794
2026-01-29 22:53:45.18	70.08	33.57	-46.2	-60.9	3.6	1.51e+00	0	36	104	0	60	45176
2026-01-29 22:53:46.16	70.63	33.71	-46.2	-60.9	3.6	1.51e+00	0	36	104	0	60	44869
2026-01-29 22:53:47.14	71.18	33.86	-46.1	-60.9	3.6	1.51e+00	0	36	104	0	60	44980
2026-01-29 22:53:48.12	71.73	34.00	-46.0	-60.9	3.6	1.51e+00	0	36	104	0	60	44883
2026-01-29 22:53:49.10	72.30	34.14	-46.2	-60.9	3.6	1.51e+00	0	36	104	0	60	44828
2026-01-29 22:53:50.07	72.86	34.28	-46.2	-60.9	3.6	1.51e+00	0	36	104	0	60	45139
2026-01-29 22:53:51.05	73.43	34.41	-46.0	-60.9	3.6	1.51e+00	0	36	104	0	60	44803
2026-01-29 22:53:52.03	74.00	34.55	-46.0	-60.9	3.6	1.51e+00	0	37	104	0	60	44837
2026-01-29 22:53:53.01	74.58	34.68	-45.9	-60.9	3.6	1.51e+00	0	36	104	0	60	45110
2026-01-29 22:53:53.98	75.16	34.81	-46.0	-60.9	3.6	1.51e+00	0	36	104	0	60	44791
2026-01-29 22:53:54.96	75.76	34.94	-45.9	-60.9	3.6	1.51e+00	0	36	104	0	60	45111
2026-01-29 22:53:55.94	76.35	35.06	-46.1	-60.9	3.6	1.51e+00	0	36	104	0	60	44973
2026-01-29 22:53:56.92	76.95	35.18	-46.2	-60.9	3.6	1.51e+00	0	36	104	0	60	44973
2026-01-29 22:53:57.89	77.55	35.30	-46.1	-60.9	3.6	1.51e+00	0	36	104	0	60	45014
2026-01-29 22:53:58.88	78.17	35.42	-46.0	-60.9	3.6	1.51e+00	0	36	104	0	60	44957
2026-01-29 22:53:59.85	78.78	35.53	-46.0	-60.9	3.6	1.51e+00	0	36	104	0	60	44784
2026-01-29 22:54:00.83	79.39	35.64	-46.1	-60.9	3.6	1.51e+00	0	36	104	0	60	44984
2026-01-29 22:54:01.81	80.02	35.74	-46.2	-60.9	3.6	1.51e+00	0	36	104	0	60	45071
2026-01-29 22:54:02.79	80.65	35.85	-46.2	-60.9	3.6	1.51e+00	0	36	104	0	60	45116
2026-01-29 22:54:03.77	81.28	35.95	-46.2	-60.9	3.6	1.51e+00	0	36	104	0	60	44863
2026-01-29 22:54:04.75	81.91	36.05	-46.0	-60.8	3.6	1.51e+00	0	36	104	0	60	44628
2026-01-29 22:54:05.72	82.55	36.14	-45.9	-60.9	3.6	1.51e+00	0	36	104	0	60	44961
2026-01-29 22:54:06.70	83.19	36.23	-46.1	-60.9	3.6	1.51e+00	0	36	104	0	60	45002
2026-01-29 22:54:07.68	83.84	36.31	-45.9	-60.9	3.6	1.51e+00	0	36	104	0	60	44977
2026-01-29 22:54:08.66	84.49	36.40	-45.4	-60.9	3.6	1.51e+00	0	36	104	0	60	44999
2026-01-29 22:54:09.64	85.14	36.48	-45.7	-60.9	3.6	1.51e+00	0	36	104	0	60	45078
2026-01-29 22:54:10.62	85.80	36.55	-45.9	-60.9	3.6	1.51e+00	0	36	104	0	60	45071
2026-01-29 22:54:11.60	86.46	36.62	-45.9	-60.8	3.6	1.51e+00	0	36	104	0	60	44711
2026-01-29 22:54:12.58	87.13	36.69	-46.1	-60.9	3.6	1.51e+00	0	36	104	0	60	44816
2026-01-29 22:54:13.56	87.79	36.76	-44.8	-60.8	3.6	1.51e+00	0	36	104	0	60	44667
2026-01-29 22:54:14.53	88.46	36.82	-46.1	-60.9	3.6	1.51e+00	0	37	104	0	60	44878
2026-01-29 22:54:15.51	89.13	36.87	-45.9	-60.9	3.6	1.51e+00	0	36	104	0	60	44913
2026-01-29 22:54:16.49	89.80	36.92	-45.4	-60.9	3.6	1.51e+00	0	36	104	0	60	44934
2026-01-29 22:54:17.47	90.48	36.97	-45.3	-60.9	3.6	1.51e+00	0	36	104	0	60	44914
2026-01-29 22:54:18.45	91.16	37.01	-46.0	-60.9	3.6	1.51e+00	0	36	104	0	60	44995
2026-01-29 22:54:19.43	91.84	37.05	-46.1	-60.9	3.6	1.51e+00	0	36	104	0	60	44818
2026-01-29 22:54:20.41	92.52	37.09	-46.1	-60.9	3.5	1.51e+00	0	36	104	0	60	44951
2026-01-29 22:54:21.39	93.20	37.12	-46.2	-60.9	3.6	1.51e+00	0	36	104	0	60	44737
2026-01-29 22:54:22.37	93.89	37.15	-46.0	-60.9	3.5	1.51e+00	0	36	104	0	60	45042
2026-01-29 22:54:23.35	94.58	37.17	-46.0	-60.9	3.6	1.51e+00	0	36	104	0	60	44822
2026-01-29 22:54:24.33	95.26	37.19	-46.0	-60.9	3.6	1.51e+00	0	36	104	0	60	44774
2026-01-29 22:54:25.31	95.95	37.20	-45.8	-60.8	3.6	1.51e+00	0	37	104	0	60	44695
2026-01-29 22:54:26.28	96.63	37.21	-45.8	-60.9	3.6	1.51e+00	0	37	104	0	60	45016
2026-01-29 22:54:27.26	97.32	37.21	-46.1	-60.9	3.6	1.51e+00	0	36	104	0	60	44977
2026-01-29 22:54:28.24	98.01	37.21	-45.9	-60.9	3.6	1.51e+00	0	36	104	0	60	44772
2026-01-29 22:54:29.22	98.70	37.21	-46.1	-60.9	3.6	1.51e+00	0	37	104	0	60	44802
2026-01-29 22:54:30.20	99.39	37.20	-46.2	-60.9	3.5	1.51e+00	0	37	104	0	60	44928
2026-01-29 22:54:31.18	100.07	37.19	-45.9	-60.9	3.6	1.51e+00	0	37	104	0	60	44754
2026-01-29 22:54:32.15	100.75	37.17	-46.1	-60.9	3.6	1.51e+00	0	37	104	0	60	44893
2026-01-29 22:54:33.13	101.44	37.15	-46.1	-60.8	3.6	1.51e+00	0	36	104	0	60	44673
2026-01-29 22:54:34.10	102.12	37.13	-46.0	-60.9	3.6	1.51e+00	0	36	104	0	60	45027
2026-01-29 22:54:35.08	102.80	37.10	-46.0	-60.9	3.6	1.51e+00	0	37	104	0	60	44944
2026-01-29 22:54:36.06	103.49	37.06	-45.9	-60.8	3.6	1.51e+00	0	36	104	0	60	44689
2026-01-29 22:54:37.04	104.17	37.02	-46.1	-60.9	3.6	1.51e+00	0	36	104	0	60	44779
2026-01-29 22:54:38.02	104.85	36.98	-46.2	-60.9	3.6	1.51e+00	0	36	104	0	60	45061
2026-01-29 22:54:39.00	105.53	36.93	-45.8	-60.9	3.6	1.51e+00	0	36	104	0	60	44886
2026-01-29 22:54:39.97	106.20	36.88	-46.0	-60.8	3.6	1.51e+00	0	36	104	0	60	44554
2026-01-29 22:54:40.95	106.87	36.83	-46.1	-60.9	3.6	1.51e+00	0	36	104	0	60	44813
2026-01-29 22:54:41.93	107.54	36.77	-46.0	-60.8	3.6	1.51e+00	0	36	104	0	60	44724
2026-01-29 22:54:42.91	108.21	36.71	-45.9	-60.8	3.6	1.51e+00	0	36	104	0	60	44542
2026-01-29 22:54:43.88	108.87	36.64	-45.9	-60.8	3.6	1.51e+00	0	36	104	0	60	44506
2026-01-29 22:54:44.86	109.53	36.57	-46.1	-60.8	3.6	1.51e+00	0	36	104	0	60	44581
2026-01-29 22:54:45.84	110.19	36.49	-46.1	-60.9	3.6	1.51e+00	0	36	104	0	60	44738
2026-01-29 22:54:46.81	110.84	36.42	-46.1	-60.8	3.6	1.51e+00	0	36	104	0	60	44610
2026-01-29 22:54:47.79	111.49	36.33	-46.1	-60.8	3.6	1.51e+00	0	37	104	0	60	44656
2026-01-29 22:54:48.76	112.14	36.25	-46.1	-60.8	3.6	1.51e+00	0	36	104	0	60	44572
2026-01-29 22:54:49.74	112.78	36.16	-46.0	-60.8	3.6	1.51e+00	0	36	104	0	60	44637
2026-01-29 22:54:50.72	113.43	36.07	-46.1	-60.8	3.6	1.51e+00	0	37	104	0	60	44634
2026-01-29 22:54:51.70	114.07	35.97	-46.1	-60.8	3.6	1.51e+00	0	37	104	0	60	44443
2026-01-29 22:54:52.68	114.70	35.87	-46.1	-60.8	3.6	1.51e+00	0	37	104	0	60	44442
2026-01-29 22:54:53.66	115.33	35.77	-46.0	-60.8	3.6	1.51e+00	0	36	104	0	60	44532
2026-01-29 22:54:54.63	115.95	35.66	-46.1	-60.8	3.6	1.51e+00	0	36	104	0	60	44412
2026-01-29 22:54:55.61	116.57	35.55	-46.0	-60.8	3.6	1.51e+00	0	37	104	0	60	44357
2026-01-29 22:54:56.59	117.19	35.44	-46.0	-60.8	3.6	1.51e+00	0	36	104	0	60	44434
2026-01-29 22:54:57.57	117.80	35.32	-46.1	-60.8	3.6	1.51e+00	0	36	104	0	60	44223
2026-01-29 22:54:58.55	118.41	35.21	-46.1	-60.8	3.6	1.51e+00	0	37	104	0	60	44417
2026-01-29 22:54:59.53	119.02	35.08	-46.1	-60.8	3.6	1.51e+00	0	36	104	0	60	44394
2026-01-29 22:55:00.51	119.61	34.96	-46.0	-60.7	3.6	1.51e+00	0	36	104	0	60	44214
2026-01-29 22:55:01.49	120.21	34.83	-46.0	-60.8	3.6	1.51e+00	0	36	104	0	60	44427
2026-01-29 22:55:02.47	120.80	34.70	-46.1	-60.8	3.6	1.51e+00	0	36	104	0	60	44461
2026-01-29 22:55:03.45	121.38	34.57	-46.1	-60.8	3.6	1.51e+00	0	37	104	0	60	44651
2026-01-29 22:55:04.43	121.96	34.44	-46.0	-60.8	3.6	1.51e+00	0	36	104	0	60	44426
2026-01-29 22:55:05.41	122.54	34.30	-46.1	-60.8	3.6	1.51e+00	0	36	104	0	60	44613
2026-01-29 22:55:06.39	123.11	34.16	-46.2	-60.8	3.6	1.51e+00	0	36	104	0	60	44591
2026-01-29 22:55:07.36	123.66	34.02	-46.1	-60.8	3.6	1.51e+00	0	36	104	0	60	44719
2026-01-29 22:55:08.34	124.22	33.88	-46.2	-60.8	3.6	1.51e+00	0	36	104	0	60	44721
2026-01-29 22:55:09.32	124.78	33.73	-46.2	-60.8	3.6	1.51e+00	0	36	104	0	60	44618
2026-01-29 22:55:10.30	125.33	33.59	-46.1	-60.9	3.6	1.51e+00	0	36	104	0	60	44891
2026-01-29 22:55:11.28	125.87	33.44	-46.1	-60.8	3.6	1.51e+00	0	36	104	0	60	44477
2026-01-29 22:55:12.26	126.41	33.29	-46.1	-60.8	3.5	1.51e+00	0	36	104	0	60	44562
2026-01-29 22:55:13.24	126.94	33.13	-46.1	-60.8	3.6	1.51e+00	0	36	104	0	60	44407
2026-01-29 22:55:14.21	127.46	32.98	-46.1	-60.8	3.6	1.51e+00	0	37	104	0	60	44464
2026-01-29 22:55:15.19	127.98	32.82	-46.0	-60.8	3.6	1.51e+00	0	36	104	0	60	44588
2026-01-29 22:55:16.17	128.50	32.67	-46.0	-60.8	3.6	1.51e+00	0	36	104	0	60	44616
2026-01-29 22:55:17.15	129.01	32.51	-45.9	-60.7	3.6	1.51e+00	0	36	104	0	60	44055
2026-01-29 22:55:18.13	129.52	32.35	-46.1	-60.8	3.6	1.51e+00	0	36	104	0	60	44700
2026-01-29 22:55:19.11	130.02	32.19	-46.1	-60.8	3.6	1.51e+00	0	36	104	0	60	44554
2026-01-29 22:55:20.09	130.52	32.02	-46.0	-60.8	3.6	1.51e+00	0	37	104	0	60	44396
2026-01-29 22:55:21.07	131.01	31.86	-46.1	-60.8	3.6	1.51e+00	0	36	104	0	60	44292
2026-01-29 22:55:22.05	131.49	31.70	-46.0	-60.8	3.6	1.51e+00	0	36	104	0	60	44360
2026-01-29 22:55:23.03	131.97	31.53	-46.0	-60.8	3.6	1.51e+00	0	36	104	0	60	44464
2026-01-29 22:55:24.00	132.44	31.37	-46.0	-60.8	3.6	1.51e+00	0	37	104	0	60	44229
2026-01-29 22:55:24.98	132.91	31.20	-46.0	-60.7	3.6	1.51e+00	0	36	104	0	60	44119
2026-01-29 22:55:25.96	133.38	31.03	-45.7	-60.7	3.6	1.51e+00	0	36	104	0	60	44081
2026-01-29 22:55:26.94	133.84	30.86	-45.9	-60.7	3.6	1.51e+00	0	36	104	0	60	43812
2026-01-29 22:55:27.91	134.29	30.69	-45.8	-60.8	3.6	1.51e+00	0	36	104	0	60	44269
2026-01-29 22:55:28.89	134.74	30.52	-46.0	-60.7	3.6	1.51e+00	0	36	104	0	60	44118
2026-01-29 22:55:29.87	135.18	30.35	-45.6	-60.7	3.6	1.51e+00	0	37	104	0	60	43994
2026-01-29 22:55:30.84	135.62	30.18	-45.8	-60.7	3.6	1.51e+00	0	37	104	0	60	44031
2026-01-29 22:55:31.82	136.05	30.01	-45.8	-60.7	3.6	1.51e+00	0	37	104	0	60	43865
2026-01-29 22:55:32.80	136.48	29.84	-45.6	-60.7	3.6	1.51e+00	0	36	104	0	60	43920
2026-01-29 22:55:33.78	136.90	29.66	-46.0	-60.7	3.6	1.51e+00	0	37	104	0	60	43844
2026-01-29 22:55:34.76	137.32	29.49	-46.0	-60.7	3.6	1.51e+00	0	36	104	0	60	43829
2026-01-29 22:55:35.73	137.74	29.32	-46.0	-60.7	3.6	1.51e+00	0	37	104	0	60	43927
2026-01-29 22:55:36.71	138.15	29.15	-45.7	-60.7	3.6	1.51e+00	0	36	104	0	60	43744
2026-01-29 22:55:37.69	138.55	28.97	-45.9	-60.7	3.6	1.51e+00	0	37	104	0	60	44158
2026-01-29 22:55:38.67	138.95	28.80	-46.0	-60.7	3.6	1.51e+00	0	36	104	0	60	44147
2026-01-29 22:55:39.65	139.35	28.62	-45.9	-60.8	3.6	1.51e+00	0	36	104	0	60	44283
2026-01-29 22:55:40.64	139.74	28.45	-46.0	-60.7	3.6	1.51e+00	0	36	104	0	60	44023
2026-01-29 22:55:41.61	140.13	28.28	-46.1	-60.7	3.6	1.51e+00	0	36	104	0	60	44102
2026-01-29 22:55:42.59	140.51	28.10	-46.0	-60.7	3.6	1.51e+00	0	37	104	0	60	43980
2026-01-29 22:55:43.57	140.89	27.93	-46.0	-60.7	3.6	1.51e+00	0	37	104	0	60	43906
2026-01-29 22:55:44.55	141.26	27.75	-46.0	-60.7	3.6	1.51e+00	0	36	104	0	60	43883
2026-01-29 22:55:45.53	141.63	27.58	-46.0	-60.7	3.6	1.51e+00	0	36	104	0	60	44175
2026-01-29 22:55:46.51	142.00	27.41	-46.0	-60.7	3.6	1.51e+00	0	37	104	0	60	43749
2026-01-29 22:55:47.49	142.36	27.23	-46.0	-60.7	3.6	1.51e+00	0	37	104	0	60	43743
2026-01-29 22:55:48.46	142.71	27.06	-46.0	-60.6	3.6	1.51e+00	0	36	104	0	60	43636
2026-01-29 22:55:49.45	143.07	26.89	-46.0	-60.7	3.6	1.51e+00	0	36	104	0	60	43853
2026-01-29 22:55:50.43	143.41	26.72	-45.9	-60.6	3.6	1.51e+00	0	36	104	0	60	43673
2026-01-29 22:55:51.41	143.76	26.54	-46.0	-60.7	3.6	1.51e+00	0	37	104	0	60	43720
2026-01-29 22:55:52.38	144.10	26.37	-46.0	-60.7	3.6	1.51e+00	0	36	104	0	60	43817
2026-01-29 22:55:53.36	144.43	26.20	-46.0	-60.7	3.6	1.51e+00	0	37	104	0	60	43998
2026-01-29 22:55:54.34	144.76	26.03	-46.0	-60.7	3.6	1.51e+00	0	36	104	0	60	44068
2026-01-29 22:55:55.31	145.09	25.86	-46.0	-60.7	3.6	1.51e+00	0	37	104	0	60	43882
2026-01-29 22:55:56.29	145.41	25.69	-46.0	-60.7	3.6	1.51e+00	0	37	104	0	60	44024
2026-01-29 22:55:57.26	145.73	25.52	-46.0	-60.7	3.6	1.51e+00	0	37	104	0	60	43994
2026-01-29 22:55:58.24	146.05	25.35	-46.0	-60.7	3.6	1.51e+00	0	37	104	0	60	44045
2026-01-29 22:55:59.22	146.36	25.18	-46.0	-60.7	3.6	1.51e+00	0	36	104	0	60	43986
2026-01-29 22:56:00.19	146.67	25.02	-46.0	-60.6	3.6	1.51e+00	0	37	104	0	60	43652
2026-01-29 22:56:01.17	146.98	24.85	-46.0	-60.7	3.6	1.51e+00	0	37	104	0	60	43959
2026-01-29 22:56:02.15	147.28	24.68	-46.0	-60.7	3.6	1.51e+00	0	37	104	0	60	44107
2026-01-29 22:56:03.12	147.58	24.52	-45.9	-60.6	3.6	1.51e+00	0	37	104	0	60	43670
2026-01-29 22:56:04.11	147.87	24.35	-46.0	-60.7	3.6	1.51e+00	0	36	104	0	60	43866
2026-01-29 22:56:05.08	148.16	24.18	-45.9	-60.6	3.6	1.51e+00	0	37	104	0	60	43651
2026-01-29 22:56:06.06	148.45	24.02	-46.0	-60.7	3.6	1.51e+00	0	37	104	0	60	43780
2026-01-29 22:56:07.04	148.74	23.86	-46.0	-60.7	3.6	1.51e+00	0	37	104	0	60	43849
2026-01-29 22:56:08.01	149.02	23.69	-45.9	-60.6	3.6	1.51e+00	0	37	104	0	60	43658
2026-01-29 22:56:08.99	149.30	23.53	-45.9	-60.7	3.6	1.51e+00	0	36	104	0	60	43769
2026-01-29 22:56:09.97	149.57	23.37	-46.0	-60.7	3.6	1.51e+00	0	36	104	0	60	43760
2026-01-29 22:56:10.95	149.85	23.21	-46.0	-60.7	3.6	1.51e+00	0	36	104	0	60	43882
2026-01-29 22:56:11.92	150.12	23.05	-45.9	-60.6	3.6	1.51e+00	0	37	104	0	60	43543
2026-01-29 22:56:12.90	150.38	22.88	-45.9	-60.7	3.6	1.51e+00	0	36	104	0	60	43717
2026-01-29 22:56:13.88	150.65	22.72	-46.0	-60.7	3.6	1.51e+00	0	36	104	0	60	43803
2026-01-29 22:56:14.86	150.91	22.57	-45.9	-60.6	3.6	1.51e+00	0	37	104	0	60	43641
2026-01-29 22:56:15.85	151.17	22.40	-45.8	-60.6	3.6	1.51e+00	0	37	104	0	60	43673
2026-01-29 22:56:16.82	151.42	22.25	-45.9	-60.6	3.6	1.51e+00	0	37	104	0	60	43532
2026-01-29 22:56:17.80	151.67	22.09	-45.9	-60.7	3.6	1.51e+00	0	37	104	0	60	43753
2026-01-29 22:56:18.78	151.92	21.93	-46.0	-60.7	3.6	1.51e+00	0	37	104	0	60	43925
2026-01-29 22:56:19.75	152.17	21.78	-45.9	-60.7	3.6	1.51e+00	0	37	104	0	60	43807
2026-01-29 22:56:20.73	152.41	21.63	-46.0	-60.6	3.6	1.51e+00	0	36	104	0	60	43578
2026-01-29 22:56:21.70	152.65	21.47	-45.8	-60.7	3.6	1.51e+00	0	37	104	0	60	43796
2026-01-29 22:56:22.68	152.89	21.32	-45.8	-60.7	3.6	1.51e+00	0	37	104	0	60	43784
2026-01-29 22:56:23.66	153.12	21.17	-45.9	-60.6	3.6	1.51e+00	0	37	104	0	60	43373
2026-01-29 22:56:24.64	153.36	21.01	-45.9	-60.6	3.6	1.51e+00	0	37	104	0	60	43538
2026-01-29 22:56:25.63	153.59	20.86	-45.9	-60.6	3.6	1.51e+00	0	37	104	0	60	43677
2026-01-29 22:56:26.61	153.82	20.71	-45.9	-60.6	3.6	1.51e+00	0	37	104	0	60	43633
2026-01-29 22:56:27.59	154.05	20.56	-45.9	-60.6	3.6	1.51e+00	0	37	104	0	60	43482
2026-01-29 22:56:28.56	154.27	20.41	-45.8	-60.6	3.6	1.51e+00	0	36	104	0	60	43411
2026-01-29 22:56:29.54	154.49	20.26	-45.9	-60.6	3.6	1.51e+00	0	37	104	0	60	43568
2026-01-29 22:56:30.52	154.71	20.12	-45.9	-60.6	3.6	1.51e+00	0	37	104	0	60	43691
2026-01-29 22:56:31.50	154.92	19.97	-45.9	-60.6	3.6	1.51e+00	0	37	104	0	60	43411
2026-01-29 22:56:32.47	155.14	19.82	-45.9	-60.6	3.6	1.51e+00	0	37	104	0	60	43309
2026-01-29 22:56:33.46	155.35	19.68	-45.8	-60.5	3.6	1.51e+00	0	37	104	0	60	43082
2026-01-29 22:56:34.43	155.56	19.53	-45.8	-60.6	3.6	1.51e+00	0	37	104	0	60	43605
2026-01-29 22:56:35.41	155.76	19.39	-45.8	-60.5	3.6	1.51e+00	0	37	104	0	60	43178
2026-01-29 22:56:36.40	155.97	19.24	-45.8	-60.6	3.6	1.51e+00	0	37	104	0	60	43224
2026-01-29 22:56:37.38	156.17	19.10	-45.7	-60.4	3.6	1.51e+00	0	37	104	0	60	42647
2026-01-29 22:56:38.36	156.38	18.96	-45.9	-60.6	3.6	1.51e+00	0	37	104	0	60	43437
2026-01-29 22:56:39.34	156.57	18.82	-45.9	-60.6	3.6	1.51e+00	0	37	104	0	60	43397
2026-01-29 22:56:40.32	156.77	18.68	-45.8	-60.6	3.6	1.51e+00	0	36	104	0	60	43245
2026-01-29 22:56:41.29	156.96	18.54	-45.8	-60.5	3.6	1.51e+00	0	37	104	0	60	43022
2026-01-29 22:56:42.27	157.16	18.40	-45.8	-60.6	3.6	1.51e+00	0	37	104	0	60	43477
2026-01-29 22:56:43.25	157.35	18.26	-45.8	-60.5	3.6	1.51e+00	0	37	104	0	60	43203
2026-01-29 22:56:44.22	157.53	18.12	-45.8	-60.5	3.6	1.51e+00	0	37	104	0	60	43176
2026-01-29 22:56:45.20	157.72	17.99	-45.8	-60.6	3.6	1.51e+00	0	37	104	0	60	43331
2026-01-29 22:56:46.18	157.91	17.85	-45.8	-60.6	3.6	1.51e+00	0	37	104	0	60	43649
2026-01-29 22:56:47.15	158.09	17.72	-45.8	-60.6	3.6	1.51e+00	0	37	104	0	60	43507
2026-01-29 22:56:48.13	158.27	17.58	-45.6	-60.5	3.6	1.51e+00	0	37	104	0	60	43058
2026-01-29 22:56:49.12	158.45	17.45	-45.7	-60.5	3.6	1.51e+00	0	37	104	0	60	42921
2026-01-29 22:56:50.10	158.63	17.31	-45.9	-60.6	3.6	1.51e+00	0	37	104	0	60	43373
2026-01-29 22:56:51.08	158.80	17.18	-45.8	-60.6	3.6	1.51e+00	0	37	104	0	60	43387
2026-01-29 22:56:52.06	158.98	17.05	-45.8	-60.5	3.6	1.51e+00	0	37	104	0	60	43186
2026-01-29 22:56:53.04	159.15	16.92	-45.6	-60.5	3.6	1.51e+00	0	37	104	0	60	43016
2026-01-29 22:56:54.01	159.32	16.79	-45.9	-60.6	3.6	1.51e+00	0	37	104	0	60	43349
2026-01-29 22:56:54.99	159.49	16.66	-45.8	-60.5	3.6	1.51e+00	0	37	104	0	60	43170
2026-01-29 22:56:55.96	159.65	16.53	-45.8	-60.6	3.6	1.51e+00	0	37	104	0	60	43358
2026-01-29 22:56:56.94	159.82	16.40	-45.7	-60.5	3.6	1.51e+00	0	37	104	0	60	43078
2026-01-29 22:56:57.92	159.98	16.27	-45.7	-60.6	3.6	1.51e+00	0	37	104	0	60	43223
2026-01-29 22:56:58.90	160.15	16.15	-45.8	-60.5	3.6	1.51e+00	0	37	104	0	60	43049
2026-01-29 22:56:59.87	160.31	16.02	-45.7	-60.6	3.6	1.51e+00	0	37	104	0	60	43305
2026-01-29 22:57:00.85	160.47	15.90	-45.8	-60.5	3.6	1.51e+00	0	37	104	0	60	43038
2026-01-29 22:57:01.83	160.62	15.77	-45.7	-60.6	3.6	1.51e+00	0	37	104	0	60	43394
2026-01-29 22:57:02.81	160.78	15.65	-45.8	-60.6	3.6	1.51e+00	0	37	104	0	60	43325
2026-01-29 22:57:03.79	160.93	15.52	-45.8	-60.5	3.6	1.51e+00	0	37	104	0	60	43196
2026-01-29 22:57:04.77	161.09	15.40	-45.8	-60.5	3.6	1.51e+00	0	37	104	0	60	42966
2026-01-29 22:57:05.74	161.24	15.28	-45.9	-60.6	3.6	1.51e+00	0	37	104	0	60	43252
2026-01-29 22:57:06.72	161.39	15.16	-45.8	-60.5	3.6	1.51e+00	0	37	104	0	60	43180
2026-01-29 22:57:07.70	161.54	15.03	-45.8	-60.5	3.6	1.51e+00	0	37	104	0	60	42998
2026-01-29 22:57:08.68	161.69	14.91	-45.7	-60.5	3.6	1.51e+00	0	37	104	0	60	42961
2026-01-29 22:57:09.65	161.83	14.79	-45.8	-60.6	3.6	1.51e+00	0	37	104	0	60	43230
2026-01-29 22:57:10.63	161.98	14.68	-45.7	-60.6	3.5	1.51e+00	0	37	104	0	60	43315
2026-01-29 22:57:11.61	162.12	14.56	-45.5	-60.5	3.6	1.51e+00	0	37	104	0	60	43006
2026-01-29 22:57:12.59	162.26	14.44	-45.7	-60.5	3.5	1.51e+00	0	37	104	0	60	43026
2026-01-29 22:57:13.57	162.40	14.32	-45.5	-60.5	3.6	1.51e+00	0	37	104	0	60	43155
2026-01-29 22:57:14.55	162.54	14.20	-45.6	-60.5	3.6	1.51e+00	0	37	104	0	60	43059
2026-01-29 22:57:15.52	162.68	14.09	-45.6	-60.5	3.6	1.51e+00	0	37	104	0	60	42863
2026-01-29 22:57:16.50	162.82	13.97	-45.6	-60.5	3.6	1.51e+00	0	37	104	0	60	43059
2026-01-29 22:57:17.48	162.95	13.86	-45.7	-60.5	3.6	1.51e+00	0	37	104	0	60	42917
2026-01-29 22:57:18.46	163.09	13.74	-45.8	-60.5	3.6	1.51e+00	0	37	104	0	60	42879
2026-01-29 22:57:19.44	163.22	13.63	-45.7	-60.5	3.6	1.51e+00	0	37	104	0	60	42855
2026-01-29 22:57:20.42	163.36	13.51	-45.6	-60.5	3.6	1.51e+00	0	37	104	0	60	42873
2026-01-29 22:57:21.39	163.49	13.40	-45.6	-60.4	3.6	1.51e+00	0	37	104	0	60	42583
2026-01-29 22:57:22.37	163.62	13.29	-45.7	-60.5	3.6	1.51e+00	0	37	104	0	60	42868
2026-01-29 22:57:23.35	163.74	13.18	-45.5	-60.4	3.6	1.51e+00	0	37	104	0	60	42700
2026-01-29 22:57:24.32	163.87	13.07	-45.6	-60.4	3.6	1.51e+00	0	37	104	0	60	42702
2026-01-29 22:57:25.30	164.00	12.96	-45.3	-60.4	3.6	1.51e+00	0	37	104	0	60	42620
2026-01-29 22:57:26.28	164.12	12.85	-45.7	-60.5	3.6	1.51e+00	0	37	104	0	60	42935
2026-01-29 22:57:27.26	164.25	12.74	-45.2	-60.5	3.6	1.51e+00	0	37	104	0	60	42821
2026-01-29 22:57:28.23	164.37	12.63	-45.4	-60.4	3.6	1.51e+00	0	37	104	0	60	42500
2026-01-29 22:57:29.22	164.49	12.52	-44.9	-60.4	3.6	1.51e+00	0	37	104	0	60	42400
2026-01-29 22:57:30.19	164.61	12.41	-45.5	-60.5	3.6	1.51e+00	0	37	104	0	60	42846
2026-01-29 22:57:31.17	164.73	12.31	-45.1	-60.4	3.6	1.51e+00	0	37	104	0	60	42563
2026-01-29 22:57:32.15	164.85	12.20	-45.1	-60.4	3.6	1.51e+00	0	37	104	0	60	42483
2026-01-29 22:57:33.13	164.97	12.09	-45.0	-60.4	3.6	1.51e+00	0	37	104	0	60	42358
2026-01-29 22:57:34.11	165.09	11.99	-45.3	-60.4	3.6	1.51e+00	0	37	104	0	60	42697
2026-01-29 22:57:35.09	165.21	11.88	-45.1	-60.4	3.6	1.51e+00	0	37	104	0	60	42682
2026-01-29 22:57:36.07	165.32	11.78	-45.1	-60.4	3.6	1.51e+00	0	37	104	0	60	42249
2026-01-29 22:57:37.04	165.44	11.67	-45.1	-60.4	3.6	1.51e+00	0	37	104	0	60	42250
2026-01-29 22:57:38.02	165.55	11.57	-45.4	-60.4	3.6	1.51e+00	0	37	104	0	60	42571
2026-01-29 22:57:39.00	165.66	11.47	-45.2	-60.4	3.6	1.51e+00	0	37	104	0	60	42563
2026-01-29 22:57:39.97	165.77	11.37	-45.0	-60.4	3.6	1.51e+00	0	37	104	0	60	42466
2026-01-29 22:57:40.95	165.88	11.26	-45.4	-60.3	3.6	1.51e+00	0	37	104	0	60	42098
2026-01-29 22:57:41.92	165.99	11.16	-45.3	-60.5	3.6	1.51e+00	0	37	104	0	60	42832
2026-01-29 22:57:42.90	166.10	11.06	-45.2	-60.4	3.6	1.51e+00	0	37	104	0	60	42399
2026-01-29 22:57:43.87	166.21	10.96	-45.2	-60.4	3.6	1.51e+00	0	37	104	0	60	42557
2026-01-29 22:57:44.85	166.31	10.86	-45.6	-60.3	3.6	1.51e+00	0	37	104	0	60	41983
2026-01-29 22:57:45.83	166.42	10.76	-45.1	-60.4	3.6	1.51e+00	0	37	104	0	60	42340
2026-01-29 22:57:46.81	166.53	10.66	-45.3	-60.3	3.6	1.51e+00	0	37	104	0	60	42140
2026-01-29 22:57:47.78	166.63	10.56	-45.2	-60.3	3.6	1.51e+00	0	37	104	0	60	42105
2026-01-29 22:57:48.76	166.73	10.47	-45.6	-60.3	3.6	1.51e+00	0	37	104	0	60	41774
2026-01-29 22:57:49.73	166.84	10.37	-45.0	-60.4	3.6	1.51e+00	0	37	104	0	60	42311
2026-01-29 22:57:50.71	166.94	10.27	-45.1	-60.3	3.6	1.51e+00	0	37	104	0	60	42125
2026-01-29 22:57:51.69	167.04	10.17	-45.4	-60.3	3.5	1.51e+00	0	37	104	0	60	42069
2026-01-29 22:57:52.66	167.14	10.08	-45.5	-60.3	3.6	1.51e+00	0	37	104	0	60	42026
2026-01-29 22:57:53.64	167.24	9.98	-45.1	-60.3	3.6	1.51e+00	0	37	104	0	60	42216
2026-01-29 22:57:54.62	167.34	9.89	-45.1	-60.3	3.6	1.51e+00	0	37	104	0	60	41938
2026-01-29 22:57:55.59	167.44	9.79	-45.1	-60.3	3.6	1.51e+00	0	37	104	0	60	41837
2026-01-29 22:57:56.57	167.53	9.70	-45.5	-60.2	3.6	1.51e+00	0	37	104	0	60	41635
2026-01-29 22:57:57.55	167.63	9.60	-45.2	-60.3	3.6	1.51e+00	0	37	104	0	60	41894
2026-01-29 22:57:58.53	167.73	9.51	-45.3	-60.3	3.6	1.51e+00	0	37	104	0	60	42174
2026-01-29 22:57:59.51	167.82	9.41	-45.3	-60.2	3.6	1.51e+00	0	37	104	0	60	41725
2026-01-29 22:58:00.48	167.92	9.32	-45.4	-60.2	3.6	1.51e+00	0	37	104	0	60	41578
2026-01-29 22:58:01.45	168.01	9.23	-45.4	-60.2	3.5	1.51e+00	0	37	104	0	60	41628
2026-01-29 22:58:02.43	168.10	9.14	-45.2	-60.3	3.6	1.51e+00	0	37	104	0	60	42052
2026-01-29 22:58:03.40	168.19	9.05	-45.5	-60.2	3.6	1.51e+00	0	37	104	0	60	41609
2026-01-29 22:58:04.38	168.28	8.95	-45.3	-60.2	3.6	1.51e+00	0	37	104	0	60	41330
2026-01-29 22:58:05.35	168.37	8.86	-45.5	-60.2	3.6	1.51e+00	0	37	104	0	60	41413
2026-01-29 22:58:06.33	168.47	8.77	-45.2	-60.3	3.6	1.51e+00	0	37	104	0	60	42153
2026-01-29 22:58:07.31	168.56	8.68	-45.4	-60.2	3.6	1.51e+00	0	37	104	0	60	41648
2026-01-29 22:58:08.29	168.64	8.59	-45.5	-60.2	3.6	1.51e+00	0	37	104	0	60	41272
2026-01-29 22:58:09.27	168.73	8.50	-45.5	-60.2	3.6	1.51e+00	0	37	104	0	60	41631
2026-01-29 22:58:10.24	168.82	8.41	-45.1	-60.3	3.6	1.51e+00	0	37	104	0	60	42151
2026-01-29 22:58:11.22	168.91	8.33	-45.4	-60.2	3.6	1.51e+00	0	37	104	0	60	41474
2026-01-29 22:58:12.20	168.99	8.24	-45.4	-60.2	3.6	1.51e+00	0	37	104	0	60	41321
2026-01-29 22:58:13.17	169.08	8.15	-45.3	-60.2	3.6	1.51e+00	0	37	104	0	60	41450
2026-01-29 22:58:14.15	169.16	8.06	-45.0	-60.2	3.6	1.51e+00	0	37	104	0	60	41728
2026-01-29 22:58:15.13	169.25	7.97	-45.2	-60.2	3.6	1.51e+00	0	37	104	0	60	41462
2026-01-29 22:58:16.11	169.33	7.89	-45.3	-60.2	3.6	1.51e+00	0	37	104	0	60	41353
2026-01-29 22:58:17.08	169.42	7.80	-45.1	-60.1	3.6	1.51e+00	0	37	104	0	60	40904
2026-01-29 22:58:18.06	169.50	7.72	-45.1	-60.2	3.6	1.51e+00	0	37	104	0	60	41603
2026-01-29 22:58:19.04	169.58	7.63	-45.3	-60.2	3.6	1.51e+00	0	37	104	0	60	41429
2026-01-29 22:58:20.02	169.66	7.54	-45.2	-60.1	3.6	1.51e+00	0	37	104	0	60	41103
2026-01-29 22:58:21.00	169.74	7.46	-45.1	-60.1	3.6	1.51e+00	0	37	104	0	60	40854
2026-01-29 22:58:21.98	169.82	7.37	-45.1	-60.3	3.6	1.51e+00	0	37	104	0	60	41777
2026-01-29 22:58:22.96	169.90	7.29	-45.5	-60.2	3.6	1.51e+00	0	37	104	0	60	41293
2026-01-29 22:58:23.93	169.98	7.20	-45.3	-60.1	3.6	1.51e+00	0	37	104	0	60	41252
2026-01-29 22:58:24.91	170.06	7.12	-45.1	-60.0	3.6	1.51e+00	0	37	104	0	60	40690
2026-01-29 22:58:25.88	170.14	7.04	-45.3	-60.2	3.6	1.51e+00	0	37	104	0	60	41466
2026-01-29 22:58:26.86	170.22	6.95	-45.4	-60.1	3.6	1.51e+00	0	37	104	0	60	40947
2026-01-29 22:58:27.84	170.30	6.87	-45.4	-60.1	3.6	1.51e+00	0	37	104	0	60	41136
2026-01-29 22:58:28.81	170.37	6.79	-45.2	-60.0	3.6	1.51e+00	0	37	104	0	60	40480
2026-01-29 22:58:29.79	170.45	6.71	-45.3	-60.2	3.6	1.51e+00	0	37	104	0	60	41691
2026-01-29 22:58:30.77	170.52	6.63	-45.4	-60.2	3.6	1.51e+00	0	37	104	0	60	41459
2026-01-29 22:58:31.75	170.60	6.54	-45.4	-60.1	3.6	1.51e+00	0	37	104	0	60	41236
2026-01-29 22:58:32.73	170.67	6.46	-45.3	-60.0	3.6	1.51e+00	0	37	104	0	60	40730
2026-01-29 22:58:33.70	170.75	6.38	-45.4	-60.2	3.6	1.51e+00	0	37	104	0	60	41443
2026-01-29 22:58:34.67	170.82	6.30	-45.4	-60.2	3.6	1.51e+00	0	37	104	0	60	41591
2026-01-29 22:58:35.65	170.89	6.22	-45.4	-60.2	3.6	1.51e+00	0	37	104	0	60	41439
2026-01-29 22:58:36.63	170.97	6.14	-45.3	-60.1	3.6	1.51e+00	0	37	104	0	60	40827
2026-01-29 22:58:37.61	171.04	6.06	-45.4	-60.3	3.6	1.51e+00	0	37	104	0	60	41862
2026-01-29 22:58:38.59	171.11	5.98	-45.4	-60.2	3.6	1.51e+00	0	37	104	0	60	41539
2026-01-29 22:58:39.57	171.18	5.90	-45.3	-60.1	3.6	1.51e+00	0	37	104	0	60	41155
2026-01-29 22:58:40.54	171.25	5.82	-45.1	-60.0	3.6	1.51e+00	0	37	104	0	60	40650
2026-01-29 22:58:41.51	171.32	5.75	-45.3	-60.2	3.6	1.51e+00	0	37	104	0	60	41416
2026-01-29 22:58:42.49	171.39	5.67	-45.3	-60.2	3.6	1.51e+00	0	37	104	0	60	41606
2026-01-29 22:58:43.47	171.46	5.59	-45.2	-60.1	3.6	1.51e+00	0	37	104	0	60	41120
2026-01-29 22:58:44.45	171.53	5.51	-45.1	-60.0	3.6	1.51e+00	0	37	104	0	60	40560
2026-01-29 22:58:45.43	171.60	5.43	-45.1	-60.1	3.6	1.51e+00	0	37	104	0	60	41219
2026-01-29 22:58:46.40	171.67	5.36	-45.3	-60.3	3.6	1.51e+00	0	37	104	0	60	41826
2026-01-29 22:58:47.38	171.74	5.28	-45.3	-60.1	3.6	1.51e+00	0	37	104	0	60	41219
2026-01-29 22:58:48.36	171.80	5.20	-45.1	-60.0	3.6	1.51e+00	0	37	104	0	60	40401
2026-01-29 22:58:49.34	171.87	5.13	-45.2	-60.0	3.6	1.51e+00	0	37	104	0	60	40715
2026-01-29 22:58:50.32	171.94	5.05	-45.2	-60.0	3.6	1.51e+00	0	37	104	0	60	40659
2026-01-29 22:58:51.30	172.00	4.98	-45.1	-60.1	3.6	1.51e+00	0	37	104	0	60	40914
2026-01-29 22:58:52.28	172.07	4.90	-45.4	-60.2	3.6	1.51e+00	0	37	104	0	60	41352
2026-01-29 22:58:53.26	172.13	4.83	-45.2	-60.0	3.6	1.51e+00	0	37	104	0	60	40591
2026-01-29 22:58:54.24	172.20	4.75	-45.0	-60.0	3.6	1.51e+00	0	37	104	0	60	40459
2026-01-29 22:58:55.22	172.26	4.68	-45.2	-59.9	3.6	1.51e+00	0	37	104	0	60	40241
2026-01-29 22:58:56.19	172.33	4.60	-45.0	-59.8	3.6	1.51e+00	0	37	104	0	60	39844
2026-01-29 22:58:57.17	172.39	4.53	-44.9	-59.8	3.6	1.51e+00	0	37	104	0	60	39464
2026-01-29 22:58:58.15	172.45	4.45	-45.2	-60.0	3.6	1.51e+00	0	37	104	0	60	40333
2026-01-29 22:58:59.13	172.52	4.38	-45.0	-59.8	3.6	1.51e+00	0	37	104	0	60	39750
2026-01-29 22:59:00.11	172.58	4.31	-45.4	-60.1	3.6	1.51e+00	0	37	104	0	60	41210
2026-01-29 22:59:01.09	172.64	4.23	-45.1	-59.8	3.6	1.51e+00	0	37	104	0	60	39581
2026-01-29 22:59:02.07	172.70	4.16	-45.0	-60.0	3.6	1.51e+00	0	37	104	0	60	40353
2026-01-29 22:59:03.05	172.76	4.09	-45.0	-59.8	3.6	1.51e+00	0	37	104	0	60	39819
2026-01-29 22:59:04.03	172.83	4.01	-44.9	-59.6	3.6	1.51e+00	0	37	104	0	60	38880
2026-01-29 22:59:05.01	172.89	3.94	-45.1	-59.8	3.6	1.51e+00	0	37	104	0	60	39598
2026-01-29 22:59:05.99	172.95	3.87	-44.7	-59.5	3.6	1.51e+00	0	37	104	0	60	38356
2026-01-29 22:59:06.97	173.01	3.80	-44.9	-59.7	3.6	1.51e+00	0	37	104	0	60	39062
2026-01-29 22:59:07.94	173.07	3.73	-45.1	-59.9	3.6	1.51e+00	0	37	104	0	60	40006
2026-01-29 22:59:08.92	173.12	3.65	-44.9	-59.7	3.6	1.51e+00	0	37	104	0	60	38973
2026-01-29 22:59:09.90	173.18	3.58	-45.0	-59.8	3.6	1.51e+00	0	37	104	0	60	39681
2026-01-29 22:59:10.88	173.24	3.51	-44.8	-59.6	3.6	1.51e+00	0	37	104	0	60	38559
2026-01-29 22:59:11.86	173.30	3.44	-45.0	-59.8	3.6	1.51e+00	0	37	104	0	60	39635
2026-01-29 22:59:12.84	173.36	3.37	-44.8	-59.6	3.6	1.51e+00	0	37	104	0	60	38610
2026-01-29 22:59:13.82	173.42	3.30	-45.0	-59.8	3.6	1.51e+00	0	37	104	0	60	39502
2026-01-29 22:59:14.79	173.47	3.23	-44.6	-59.4	3.6	1.51e+00	0	37	104	0	60	38011
2026-01-29 22:59:15.77	173.53	3.16	-45.2	-59.9	3.6	1.51e+00	0	37	104	0	60	39985
2026-01-29 22:59:16.75	173.59	3.09	-44.8	-59.5	3.6	1.51e+00	0	37	104	0	60	38213
2026-01-29 22:59:17.73	173.64	3.02	-44.8	-59.4	3.5	1.51e+00	0	37	104	0	60	38035
2026-01-29 22:59:18.71	173.70	2.95	-44.9	-59.7	3.6	1.51e+00	0	37	104	0	60	39094
2026-01-29 22:59:19.69	173.75	2.88	-45.2	-60.2	3.6	1.51e+00	0	37	104	0	60	41272
2026-01-29 22:59:20.67	173.81	2.82	-45.6	-60.3	3.6	1.51e+00	0	37	104	0	60	41849
2026-01-29 22:59:21.65	173.86	2.75	-45.8	-60.4	3.6	1.51e+00	0	37	104	0	60	42680
2026-01-29 22:59:22.63	173.92	2.68	-45.9	-60.6	3.6	1.51e+00	0	37	104	0	60	43268
2026-01-29 22:59:23.60	173.97	2.61	-46.0	-60.7	3.6	1.51e+00	0	37	104	0	60	43721
2026-01-29 22:59:24.58	174.03	2.54	-46.0	-60.7	3.6	1.51e+00	0	37	104	0	60	43894
2026-01-29 22:59:25.56	174.08	2.48	-46.1	-60.8	3.6	1.51e+00	0	37	104	0	60	44324
2026-01-29 22:59:26.53	174.13	2.41	-46.1	-60.8	3.6	1.51e+00	0	37	104	0	60	44233
2026-01-29 22:59:27.51	174.19	2.34	-45.9	-60.9	3.6	1.51e+00	0	37	104	0	60	44829
2026-01-29 22:59:28.49	174.24	2.27	-46.0	-60.8	3.6	1.51e+00	0	37	104	0	60	44409
2026-01-29 22:59:29.47	174.29	2.21	-46.1	-60.9	3.6	1.51e+00	0	37	104	0	60	44837
2026-01-29 22:59:30.45	174.35	2.14	-46.2	-60.9	3.6	1.51e+00	0	37	104	0	60	44860
2026-01-29 22:59:31.42	174.40	2.07	-46.2	-60.9	3.6	1.51e+00	0	37	104	0	60	44847
2026-01-29 22:59:32.40	174.45	2.01	-46.2	-60.9	3.6	1.51e+00	0	37	104	0	60	44991
2026-01-29 22:59:33.38	174.50	1.94	-46.2	-60.9	3.6	1.51e+00	0	37	104	0	60	45196
2026-01-29 22:59:34.36	174.55	1.88	-46.3	-60.9	3.6	1.51e+00	0	37	104	0	60	45233
2026-01-29 22:59:35.34	174.60	1.81	-46.3	-61.0	3.6	1.51e+00	0	37	104	0	60	45265
2026-01-29 22:59:36.32	174.65	1.74	-46.2	-60.9	3.6	1.51e+00	0	37	104	0	60	44845
2026-01-29 22:59:37.30	174.70	1.68	-45.9	-60.9	3.6	1.51e+00	0	37	104	0	60	44882
2026-01-29 22:59:38.28	174.75	1.61	-45.9	-60.9	3.6	1.51e+00	0	37	104	0	60	44795
2026-01-29 22:59:39.26	174.80	1.55	-46.2	-60.8	3.6	1.51e+00	0	37	104	0	60	44623
2026-01-29 22:59:40.24	174.85	1.48	-46.2	-60.9	3.6	1.51e+00	0	37	104	0	60	44868
2026-01-29 22:59:41.22	174.90	1.42	-46.1	-60.9	3.6	1.51e+00	0	37	104	0	60	44782
2026-01-29 22:59:42.20	174.95	1.35	-46.2	-60.9	3.6	1.51e+00	0	37	104	0	60	45177
2026-01-29 22:59:43.19	175.00	1.29	-46.2	-60.9	3.6	1.51e+00	0	37	104	0	60	45171
2026-01-29 22:59:44.17	175.05	1.23	-46.2	-60.9	3.5	1.51e+00	0	37	104	0	60	44979
2026-01-29 22:59:45.14	175.10	1.16	-46.2	-60.9	3.6	1.51e+00	0	37	104	0	60	44984
2026-01-29 22:59:46.12	175.15	1.10	-46.2	-60.9	3.6	1.51e+00	0	37	104	0	60	44877
2026-01-29 22:59:47.10	175.19	1.03	-46.1	-60.9	3.6	1.51e+00	0	37	104	0	60	44807
2026-01-29 22:59:48.08	175.24	0.97	-46.1	-60.9	3.6	1.51e+00	0	37	104	0	60	45050
2026-01-29 22:59:49.05	175.29	0.91	-46.1	-60.8	3.6	1.51e+00	0	37	104	0	60	44603
2026-01-29 22:59:50.03	175.34	0.85	-46.1	-60.9	3.6	1.51e+00	0	37	104	0	60	44916
2026-01-29 22:59:51.01	175.38	0.78	-46.1	-60.8	3.6	1.51e+00	0	37	104	0	60	44687
2026-01-29 22:59:51.98	175.43	0.72	-46.1	-60.8	3.6	1.51e+00	0	37	104	0	60	44624
2026-01-29 22:59:52.96	175.47	0.66	-46.1	-60.8	3.6	1.51e+00	0	37	104	0	60	44583
2026-01-29 22:59:53.94	175.52	0.60	-46.1	-60.9	3.6	1.51e+00	0	37	104	0	60	44764
2026-01-29 22:59:54.92	175.57	0.53	-46.1	-60.9	3.6	1.51e+00	0	37	104	0	60	44746
2026-01-29 22:59:55.90	175.61	0.47	-46.1	-60.8	3.6	1.51e+00	0	37	104	0	60	44463
2026-01-29 22:59:56.88	175.66	0.41	-46.1	-60.8	3.6	1.51e+00	0	37	104	0	60	44716
2026-01-29 22:59:57.86	175.70	0.35	-46.1	-60.8	3.6	1.51e+00	0	37	104	0	60	44706
2026-01-29 22:59:58.84	175.75	0.28	-46.1	-60.8	3.6	1.51e+00	0	37	104	0	60	44493
2026-01-29 22:59:59.82	175.79	0.22	-46.1	-60.8	3.6	1.51e+00	0	37	104	0	60	44543
2026-01-29 23:00:00.80	175.84	0.16	-46.1	-60.8	3.6	1.51e+00	0	37	104	0	60	44581
2026-01-29 23:00:01.77	175.88	0.10	-46.1	-60.8	3.6	1.51e+00	0	37	104	0	60	44656
2026-01-29 23:00:02.75	175.93	0.04	-46.1	-60.8	3.6	1.51e+00	0	37	104	0	60	44656

#Closed at: 2026-01-29 23:00:03
#Recorded file [0 MB]: D:/lorett/data/35029_260130_104854.dat