passes_logs/2026/01/29/R4.6S_Anadyr/R4.6S_Anadyr__20260129_041454_FENGYUN_3D_rec.log

#Pass ID: 20260129_041454_FENGYUN 3D
#Satellite: FENGYUN 3D
#Configuration: FENGYUN 3D
#almurnet v.1.7.20251203
#Start time: 2026-01-29 04:14:57

#Version: 2.2.20231116
#Station: R4.6S_Anadyr
#Location: 177.4865 lon 64.73178 lat
#TLE: 1 43010U 17072A   26027.97130493  .00000326  00000+0  17586-3 0  9998
#TLE: 2 43010  98.9960 359.9900 0002514  87.8428 272.3036 14.19701925425097

#Time	Az	El	Level	Level2	SNR	BER	BlckErr	Temp	State	Recorded	gain1	gain2
2026-01-29 04:14:57.54	207.13	0.17	-48.8	-59.4	3.3	8.41e-01	0	31	0	0	60	33916
2026-01-29 04:14:58.54	207.20	0.23	-48.9	-61.0	3.6	8.44e-01	0	31	104	0	60	40677
2026-01-29 04:14:59.55	207.26	0.28	-49.0	-61.1	3.6	8.45e-01	0	31	104	0	60	41219
2026-01-29 04:15:00.56	207.32	0.33	-48.8	-61.0	3.6	8.44e-01	0	31	104	0	60	40462
2026-01-29 04:15:01.57	207.39	0.39	-48.8	-60.9	3.6	8.45e-01	0	31	104	0	60	39940
2026-01-29 04:15:02.58	207.45	0.44	-48.7	-60.8	3.6	8.45e-01	0	31	104	0	60	39857
2026-01-29 04:15:03.59	207.52	0.49	-48.7	-60.8	3.6	8.45e-01	0	31	104	0	60	39686
2026-01-29 04:15:04.60	207.58	0.55	-48.7	-60.8	3.6	8.46e-01	0	31	104	0	60	39742
2026-01-29 04:15:05.61	207.65	0.60	-48.7	-60.8	3.6	8.44e-01	0	31	104	0	60	39746
2026-01-29 04:15:06.62	207.71	0.66	-48.5	-60.8	3.6	8.44e-01	0	31	104	0	60	39767
2026-01-29 04:15:07.63	207.78	0.71	-48.5	-60.8	3.6	8.45e-01	0	31	104	0	60	39636
2026-01-29 04:15:08.64	207.84	0.76	-48.5	-60.8	3.6	8.45e-01	0	31	104	0	60	39531
2026-01-29 04:15:09.65	207.91	0.82	-48.6	-60.7	3.6	8.46e-01	0	31	104	0	60	39349
2026-01-29 04:15:10.66	207.97	0.87	-48.5	-60.7	3.6	8.45e-01	0	31	104	0	60	39135
2026-01-29 04:15:11.67	208.04	0.93	-48.5	-60.6	3.6	8.45e-01	0	31	104	0	60	38919
2026-01-29 04:15:12.68	208.11	0.98	-48.5	-60.6	3.6	8.46e-01	0	31	104	0	60	38680
2026-01-29 04:15:13.69	208.17	1.04	-48.4	-60.6	3.6	8.45e-01	0	31	104	0	60	38588
2026-01-29 04:15:14.70	208.24	1.09	-48.4	-60.5	3.5	8.46e-01	0	31	104	0	60	38214
2026-01-29 04:15:15.71	208.31	1.15	-48.3	-60.4	3.6	8.44e-01	0	31	104	0	60	37663
2026-01-29 04:15:16.72	208.38	1.20	-48.1	-60.3	3.6	8.45e-01	0	31	104	0	60	37218
2026-01-29 04:15:17.73	208.44	1.25	-47.8	-60.1	3.6	8.45e-01	0	31	104	0	60	36437
2026-01-29 04:15:18.74	208.51	1.31	-47.7	-59.7	3.6	8.46e-01	0	31	104	0	60	35032
2026-01-29 04:15:19.75	208.58	1.36	-47.2	-59.2	3.6	8.45e-01	0	31	104	0	60	33025
2026-01-29 04:15:20.76	208.65	1.42	-47.2	-59.2	3.6	8.45e-01	0	31	104	0	60	32938
2026-01-29 04:15:21.77	208.72	1.47	-47.2	-59.2	3.6	8.45e-01	0	31	104	0	60	33091
2026-01-29 04:15:22.78	208.79	1.53	-47.2	-59.2	3.6	8.45e-01	0	31	104	0	60	33135
2026-01-29 04:15:23.79	208.86	1.58	-47.2	-59.2	3.6	8.45e-01	0	31	104	0	60	33109
2026-01-29 04:15:24.80	208.92	1.64	-47.2	-59.2	3.6	8.45e-01	0	32	104	0	60	33072
2026-01-29 04:15:25.81	208.99	1.70	-47.2	-59.2	3.6	8.45e-01	0	32	104	0	60	33096
2026-01-29 04:15:26.82	209.06	1.75	-47.1	-59.1	3.6	8.46e-01	0	32	104	0	60	32740
2026-01-29 04:15:27.83	209.13	1.81	-47.1	-59.1	3.6	8.46e-01	0	31	104	0	60	32699
2026-01-29 04:15:28.84	209.20	1.86	-47.1	-59.1	3.6	8.45e-01	0	31	104	0	60	32545
2026-01-29 04:15:29.85	209.28	1.92	-47.1	-59.0	3.6	8.46e-01	0	32	104	0	60	32350
2026-01-29 04:15:30.86	209.35	1.97	-47.1	-59.0	3.6	8.46e-01	0	32	104	0	60	32344
2026-01-29 04:15:31.87	209.42	2.03	-47.1	-59.1	3.6	8.46e-01	0	32	104	0	60	32500
2026-01-29 04:15:32.88	209.49	2.08	-47.1	-58.9	3.6	8.44e-01	0	32	104	0	60	31791
2026-01-29 04:15:33.89	209.56	2.14	-47.1	-58.8	3.5	8.45e-01	0	32	104	0	60	31558
2026-01-29 04:15:34.90	209.63	2.20	-47.1	-58.8	3.6	8.45e-01	0	32	104	0	60	31660
2026-01-29 04:15:35.91	209.71	2.25	-47.1	-59.0	3.6	8.45e-01	0	32	104	0	60	32335
2026-01-29 04:15:36.92	209.78	2.31	-47.2	-59.2	3.5	8.45e-01	0	32	104	0	60	33030
2026-01-29 04:15:37.93	209.85	2.37	-47.1	-58.9	3.6	8.46e-01	0	32	104	0	60	32004
2026-01-29 04:15:38.94	209.92	2.42	-47.1	-58.2	3.5	8.43e-01	0	32	104	0	60	29241
2026-01-29 04:15:39.95	210.00	2.48	-46.9	-57.1	3.7	8.44e-01	0	32	104	0	60	25778
2026-01-29 04:15:40.96	210.07	2.53	-46.9	-56.9	3.8	8.43e-01	0	32	104	0	60	25175
2026-01-29 04:15:41.97	210.14	2.59	-46.9	-57.1	3.6	8.44e-01	0	32	104	0	60	25864
2026-01-29 04:15:42.98	210.22	2.65	-46.8	-56.3	3.9	8.44e-01	0	32	104	0	60	23481
2026-01-29 04:15:43.99	210.29	2.70	-46.3	-51.7	5.5	8.17e-01	0	32	0	0	60	13943
2026-01-29 04:15:45.00	210.37	2.76	-44.9	-48.5	9.1	1.08e-01	0	32	0	4194304	60	9570
2026-01-29 04:15:46.01	210.44	2.82	-43.3	-45.7	12.4	1.74e-03	0	32	0	9437184	60	7002
2026-01-29 04:15:47.02	210.52	2.87	-41.9	-43.7	14.7	5.70e-06	0	32	0	15728640	58	6216
2026-01-29 04:15:48.03	210.59	2.93	-41.3	-42.9	15.3	0.00e+00	0	32	0	20971520	56	6355
2026-01-29 04:15:49.04	210.67	2.99	-40.5	-42.0	16.1	0.00e+00	0	32	0	26214400	54	6434
2026-01-29 04:15:50.05	210.74	3.05	-40.3	-41.7	16.5	0.00e+00	0	32	0	32505856	54	6179
2026-01-29 04:15:51.06	210.82	3.10	-40.7	-42.1	16.0	0.00e+00	0	32	0	37748736	54	6538
2026-01-29 04:15:52.07	210.90	3.16	-41.7	-43.4	14.7	0.00e+00	0	32	0	44040192	54	7558
2026-01-29 04:15:53.08	210.97	3.22	-41.3	-42.9	15.3	0.00e+00	0	32	0	49283072	54	7101
2026-01-29 04:15:54.09	211.05	3.28	-40.9	-42.5	15.6	0.00e+00	0	32	0	55574528	54	6791
2026-01-29 04:15:55.10	211.13	3.33	-47.0	-58.7	3.6	8.39e-01	0	32	104	58720256	60	31024
2026-01-29 04:15:56.11	211.21	3.39	-46.7	-56.0	4.0	8.42e-01	0	32	104	58720256	60	22739
2026-01-29 04:15:57.12	211.28	3.45	-37.1	-38.0	20.6	0.00e+00	0	32	0	60817408	46	6430
2026-01-29 04:15:58.13	211.36	3.51	-36.2	-37.0	21.5	0.00e+00	0	32	0	66060288	46	5737
2026-01-29 04:15:59.14	211.44	3.56	-36.1	-37.0	21.3	0.00e+00	0	32	0	71303168	46	5728
2026-01-29 04:16:00.15	211.52	3.62	-35.9	-36.8	21.7	0.00e+00	0	32	0	77594624	46	5598
2026-01-29 04:16:01.16	211.60	3.68	-35.5	-36.3	22.1	0.00e+00	0	32	0	82837504	44	5948
2026-01-29 04:16:02.17	211.68	3.74	-35.9	-36.7	21.6	0.00e+00	0	32	0	89128960	44	6238
2026-01-29 04:16:03.18	211.76	3.80	-35.7	-36.5	22.0	0.00e+00	0	32	0	94371840	44	6058
2026-01-29 04:16:04.19	211.84	3.85	-35.7	-36.5	22.1	0.00e+00	0	32	0	99614720	44	6067
2026-01-29 04:16:05.20	211.92	3.91	-35.2	-35.9	22.5	0.00e+00	0	32	0	105906176	44	5690
2026-01-29 04:16:06.21	212.00	3.97	-35.2	-36.0	22.4	0.00e+00	0	32	0	111149056	44	5711
2026-01-29 04:16:07.22	212.08	4.03	-35.1	-35.9	22.6	0.00e+00	0	32	0	117440512	44	5691
2026-01-29 04:16:08.23	212.16	4.09	-35.2	-36.0	22.6	0.00e+00	0	32	0	122683392	44	5732
2026-01-29 04:16:09.23	212.24	4.15	-35.0	-35.7	22.5	0.00e+00	0	32	0	127926272	44	5554
2026-01-29 04:16:10.24	212.32	4.21	-35.0	-35.8	22.4	0.00e+00	0	32	0	134217728	44	5592
2026-01-29 04:16:11.25	212.41	4.26	-35.0	-35.8	22.6	0.00e+00	0	32	0	139460608	44	5576
2026-01-29 04:16:12.26	212.49	4.32	-34.8	-35.5	22.9	0.00e+00	0	32	0	145752064	44	5425
2026-01-29 04:16:13.27	212.57	4.38	-35.1	-35.9	22.5	0.00e+00	0	32	0	150994944	42	6320
2026-01-29 04:16:14.28	212.66	4.44	-34.7	-35.5	23.0	0.00e+00	0	32	0	157286400	42	6051
2026-01-29 04:16:15.29	212.74	4.50	-35.0	-35.8	22.6	0.00e+00	0	32	0	162529280	42	6297
2026-01-29 04:16:16.30	212.82	4.56	-35.0	-35.8	22.7	0.00e+00	0	32	0	168820736	42	6292
2026-01-29 04:16:17.31	212.91	4.62	-34.8	-35.6	22.9	0.00e+00	0	32	0	174063616	42	6125
2026-01-29 04:16:18.32	212.99	4.68	-35.0	-35.8	22.8	0.00e+00	0	32	0	179306496	42	6270
2026-01-29 04:16:19.34	213.08	4.74	-34.9	-35.7	22.8	0.00e+00	0	32	0	185597952	42	6193
2026-01-29 04:16:20.35	213.16	4.80	-34.7	-35.4	23.0	0.00e+00	0	32	0	190840832	42	6014
2026-01-29 04:16:21.36	213.25	4.86	-34.9	-35.7	22.7	0.00e+00	0	32	0	197132288	42	6216
2026-01-29 04:16:22.36	213.33	4.92	-35.2	-36.0	22.6	0.00e+00	0	32	0	202375168	42	6423
2026-01-29 04:16:23.37	213.42	4.98	-35.0	-35.8	22.7	0.00e+00	0	32	0	207618048	42	6267
2026-01-29 04:16:24.38	213.51	5.04	-35.0	-35.8	22.7	0.00e+00	0	32	0	213909504	42	6248
2026-01-29 04:16:25.39	213.59	5.10	-35.4	-36.1	22.6	0.00e+00	0	32	0	219152384	42	6536
2026-01-29 04:16:26.40	213.68	5.16	-35.1	-35.9	22.7	0.00e+00	0	32	0	225443840	42	6321
2026-01-29 04:16:27.41	213.77	5.22	-35.1	-35.8	22.8	0.00e+00	0	32	0	230686720	42	6314
2026-01-29 04:16:28.42	213.85	5.28	-35.2	-36.0	22.6	0.00e+00	0	32	0	235929600	42	6428
2026-01-29 04:16:29.43	213.94	5.34	-35.0	-35.7	22.9	0.00e+00	0	32	0	242221056	42	6217
2026-01-29 04:16:30.44	214.03	5.40	-34.8	-35.6	23.0	0.00e+00	0	32	0	247463936	42	6120
2026-01-29 04:16:31.45	214.12	5.46	-35.0	-35.7	22.9	0.00e+00	0	32	0	253755392	42	6233
2026-01-29 04:16:32.46	214.21	5.52	-35.2	-35.9	22.8	0.00e+00	0	32	0	258998272	42	6374
2026-01-29 04:16:33.48	214.30	5.58	-34.6	-35.3	23.3	0.00e+00	0	32	0	265289728	42	5932
2026-01-29 04:16:34.48	214.39	5.64	-34.8	-35.5	23.1	0.00e+00	0	32	0	270532608	42	6066
2026-01-29 04:16:35.49	214.48	5.70	-34.7	-35.4	23.2	0.00e+00	0	32	0	275775488	42	6026
2026-01-29 04:16:36.50	214.57	5.76	-34.7	-35.4	23.2	0.00e+00	0	32	0	282066944	42	6008
2026-01-29 04:16:37.52	214.66	5.82	-34.6	-35.4	23.2	0.00e+00	0	32	0	287309824	42	5972
2026-01-29 04:16:38.52	214.75	5.88	-34.5	-35.3	23.3	0.00e+00	0	32	0	293601280	42	5902
2026-01-29 04:16:39.54	214.85	5.95	-34.8	-35.5	23.1	0.00e+00	0	32	0	298844160	42	6078
2026-01-29 04:16:40.54	214.94	6.01	-34.6	-35.4	23.3	0.00e+00	0	32	0	304087040	42	5988
2026-01-29 04:16:41.56	215.03	6.07	-34.3	-35.0	23.6	0.00e+00	0	32	0	310378496	42	5758
2026-01-29 04:16:42.57	215.12	6.13	-34.6	-35.4	23.4	0.00e+00	0	32	0	315621376	42	5984
2026-01-29 04:16:43.58	215.22	6.19	-34.4	-35.1	23.6	0.00e+00	0	32	0	321912832	42	5802
2026-01-29 04:16:44.59	215.31	6.25	-34.5	-35.2	23.4	0.00e+00	0	32	0	327155712	42	5886
2026-01-29 04:16:45.60	215.40	6.32	-34.5	-35.2	23.4	0.00e+00	0	32	0	333447168	42	5879
2026-01-29 04:16:46.61	215.50	6.38	-34.5	-35.3	23.4	0.00e+00	0	32	0	338690048	42	5912
2026-01-29 04:16:47.62	215.59	6.44	-34.6	-35.4	23.3	0.00e+00	0	32	0	343932928	42	5984
2026-01-29 04:16:48.63	215.69	6.50	-34.4	-35.2	23.5	0.00e+00	0	32	0	350224384	42	5863
2026-01-29 04:16:49.64	215.78	6.56	-34.4	-35.1	23.6	0.00e+00	0	32	0	355467264	42	5801
2026-01-29 04:16:50.65	215.88	6.63	-34.4	-35.1	23.5	0.00e+00	0	32	0	361758720	42	5820
2026-01-29 04:16:51.66	215.98	6.69	-34.2	-34.9	23.7	0.00e+00	0	32	0	367001600	42	5691
2026-01-29 04:16:52.66	216.07	6.75	-34.3	-35.1	23.6	0.00e+00	0	32	0	373293056	42	5774
2026-01-29 04:16:53.67	216.17	6.81	-34.3	-35.0	23.7	0.00e+00	0	32	0	378535936	42	5750
2026-01-29 04:16:54.68	216.27	6.87	-34.2	-34.9	23.7	0.00e+00	0	32	0	383778816	42	5650
2026-01-29 04:16:55.69	216.36	6.94	-34.2	-34.9	23.7	0.00e+00	0	32	0	390070272	42	5693
2026-01-29 04:16:56.70	216.46	7.00	-34.2	-34.9	23.8	0.00e+00	0	32	0	395313152	42	5661
2026-01-29 04:16:57.71	216.56	7.06	-34.2	-35.0	23.7	0.00e+00	0	32	0	401604608	42	5699
2026-01-29 04:16:58.72	216.66	7.12	-34.0	-34.7	24.0	0.00e+00	0	32	0	406847488	42	5542
2026-01-29 04:16:59.73	216.76	7.19	-34.0	-34.7	24.0	0.00e+00	0	32	0	412090368	42	5541
2026-01-29 04:17:00.74	216.86	7.25	-34.1	-34.8	23.8	0.00e+00	0	32	0	418381824	42	5615
2026-01-29 04:17:01.75	216.96	7.31	-34.0	-34.7	23.9	0.00e+00	0	32	0	423624704	42	5531
2026-01-29 04:17:02.76	217.06	7.38	-34.1	-34.8	23.9	0.00e+00	0	32	0	429916160	42	5583
2026-01-29 04:17:03.77	217.16	7.44	-33.8	-34.6	24.2	0.00e+00	0	32	0	435159040	42	5453
2026-01-29 04:17:04.78	217.26	7.50	-34.0	-34.7	24.0	0.00e+00	0	32	0	440401920	42	5512
2026-01-29 04:17:05.79	217.37	7.57	-34.0	-34.7	24.0	0.00e+00	0	32	0	446693376	42	5560
2026-01-29 04:17:06.80	217.47	7.63	-33.9	-34.6	24.1	0.00e+00	0	32	0	451936256	42	5465
2026-01-29 04:17:07.81	217.57	7.69	-34.0	-34.7	24.0	0.00e+00	0	32	0	458227712	42	5528
2026-01-29 04:17:08.82	217.68	7.76	-33.9	-34.6	24.1	0.00e+00	0	32	0	463470592	42	5455
2026-01-29 04:17:09.83	217.78	7.82	-34.0	-34.7	24.1	0.00e+00	0	32	0	469762048	42	5528
2026-01-29 04:17:10.84	217.88	7.88	-34.0	-34.7	24.0	0.00e+00	0	32	0	475004928	42	5544
2026-01-29 04:17:11.85	217.99	7.95	-34.0	-34.7	24.1	0.00e+00	0	32	0	481296384	42	5523
2026-01-29 04:17:12.86	218.09	8.01	-33.8	-34.5	24.2	0.00e+00	0	32	0	486539264	42	5428
2026-01-29 04:17:13.87	218.20	8.08	-33.9	-34.7	24.1	0.00e+00	0	32	0	491782144	42	5512
2026-01-29 04:17:14.87	218.30	8.14	-33.9	-34.7	24.2	0.00e+00	0	32	0	498073600	42	5503
2026-01-29 04:17:15.88	218.41	8.20	-34.0	-34.7	24.1	0.00e+00	0	32	0	503316480	42	5534
2026-01-29 04:17:16.89	218.52	8.27	-34.0	-34.8	24.0	0.00e+00	0	32	0	508559360	42	5589
2026-01-29 04:17:17.90	218.63	8.33	-34.2	-34.9	24.0	0.00e+00	0	32	0	514850816	42	5691
2026-01-29 04:17:18.91	218.73	8.40	-34.0	-34.7	24.1	0.00e+00	0	32	0	520093696	42	5539
2026-01-29 04:17:19.92	218.84	8.46	-33.9	-34.6	24.2	0.00e+00	0	32	0	526385152	42	5497
2026-01-29 04:17:20.93	218.95	8.53	-34.0	-34.7	24.1	0.00e+00	0	32	0	531628032	42	5540
2026-01-29 04:17:21.94	219.06	8.59	-34.1	-34.8	24.1	0.00e+00	0	32	0	536870912	42	5624
2026-01-29 04:17:22.95	219.17	8.65	-33.9	-34.6	24.2	0.00e+00	0	32	0	543162368	42	5490
2026-01-29 04:17:23.96	219.28	8.72	-34.0	-34.7	24.1	0.00e+00	0	32	0	548405248	42	5556
2026-01-29 04:17:24.97	219.39	8.78	-33.8	-34.5	24.2	0.00e+00	0	32	0	554696704	42	5417
2026-01-29 04:17:25.98	219.50	8.85	-33.8	-34.5	24.3	0.00e+00	0	32	0	559939584	42	5410
2026-01-29 04:17:26.99	219.61	8.91	-33.7	-34.4	24.4	0.00e+00	0	32	0	566231040	42	5348
2026-01-29 04:17:28.00	219.72	8.98	-33.5	-34.2	24.5	0.00e+00	0	32	0	571473920	40	5865
2026-01-29 04:17:29.01	219.84	9.04	-33.7	-34.4	24.5	0.00e+00	0	32	0	577765376	40	5977
2026-01-29 04:17:30.02	219.95	9.11	-33.7	-34.4	24.3	0.00e+00	0	32	0	583008256	40	5981
2026-01-29 04:17:31.03	220.06	9.18	-33.5	-34.2	24.6	0.00e+00	0	32	0	588251136	40	5875
2026-01-29 04:17:32.04	220.18	9.24	-33.7	-34.4	24.5	0.00e+00	0	32	0	594542592	40	5990
2026-01-29 04:17:33.05	220.29	9.31	-33.6	-34.3	24.4	0.00e+00	0	32	0	599785472	40	5955
2026-01-29 04:17:34.06	220.41	9.37	-33.8	-34.5	24.3	0.00e+00	0	32	0	606076928	40	6042
2026-01-29 04:17:35.07	220.52	9.44	-33.8	-34.5	24.3	0.00e+00	0	32	0	611319808	40	6059
2026-01-29 04:17:36.08	220.64	9.50	-33.8	-34.5	24.4	0.00e+00	0	32	0	616562688	40	6040
2026-01-29 04:17:37.09	220.75	9.57	-33.5	-34.2	24.6	0.00e+00	0	32	0	622854144	40	5886
2026-01-29 04:17:38.10	220.87	9.63	-33.6	-34.3	24.4	0.00e+00	0	32	0	628097024	40	5963
2026-01-29 04:17:39.11	220.99	9.70	-33.6	-34.3	24.5	0.00e+00	0	32	0	634388480	40	5949
2026-01-29 04:17:40.12	221.11	9.77	-33.4	-34.1	24.7	0.00e+00	0	32	0	639631360	40	5782
2026-01-29 04:17:41.13	221.23	9.83	-33.3	-34.0	24.7	0.00e+00	0	32	0	644874240	40	5747
2026-01-29 04:17:42.14	221.34	9.90	-33.4	-34.1	24.7	0.00e+00	0	32	0	651165696	40	5808
2026-01-29 04:17:43.15	221.46	9.96	-33.3	-34.0	24.8	0.00e+00	0	32	0	656408576	40	5697
2026-01-29 04:17:44.16	221.58	10.03	-33.0	-33.7	25.0	0.00e+00	0	32	0	662700032	40	5550
2026-01-29 04:17:45.17	221.71	10.10	-33.0	-33.7	25.1	0.00e+00	0	32	0	667942912	40	5536
2026-01-29 04:17:46.17	221.82	10.16	-33.1	-33.8	25.0	0.00e+00	0	32	0	674234368	40	5612
2026-01-29 04:17:47.18	221.95	10.23	-33.1	-33.8	25.0	0.00e+00	0	32	0	679477248	40	5580
2026-01-29 04:17:48.19	222.07	10.30	-33.2	-33.9	24.9	0.00e+00	0	32	0	684720128	40	5664
2026-01-29 04:17:49.20	222.19	10.36	-33.4	-34.1	24.7	0.00e+00	0	32	0	691011584	40	5776
2026-01-29 04:17:50.21	222.31	10.43	-33.4	-34.0	24.8	0.00e+00	0	32	0	696254464	40	5756
2026-01-29 04:17:51.22	222.44	10.50	-33.2	-33.8	24.9	0.00e+00	0	32	0	702545920	40	5613
2026-01-29 04:17:52.24	222.56	10.56	-33.3	-33.9	24.9	0.00e+00	0	32	0	707788800	40	5690
2026-01-29 04:17:53.24	222.69	10.63	-33.4	-34.1	24.7	0.00e+00	0	32	0	713031680	40	5805
2026-01-29 04:17:54.25	222.81	10.70	-33.1	-33.8	25.0	0.00e+00	0	32	0	719323136	40	5580
2026-01-29 04:17:55.26	222.94	10.76	-33.0	-33.7	25.1	0.00e+00	0	32	0	724566016	40	5548
2026-01-29 04:17:56.27	223.07	10.83	-33.1	-33.8	25.0	0.00e+00	0	32	0	730857472	40	5591
2026-01-29 04:17:57.28	223.19	10.90	-33.0	-33.7	25.1	0.00e+00	0	32	0	736100352	40	5524
2026-01-29 04:17:58.30	223.32	10.97	-32.9	-33.6	25.2	0.00e+00	0	32	0	741343232	40	5485
2026-01-29 04:17:59.30	223.45	11.03	-33.0	-33.7	25.1	0.00e+00	0	32	0	747634688	40	5515
2026-01-29 04:18:00.31	223.58	11.10	-33.0	-33.6	25.1	0.00e+00	0	32	0	752877568	40	5484
2026-01-29 04:18:01.32	223.71	11.17	-33.0	-33.6	25.2	0.00e+00	0	32	0	759169024	40	5502
2026-01-29 04:18:02.33	223.84	11.23	-33.1	-33.7	25.1	0.00e+00	0	32	0	764411904	40	5544
2026-01-29 04:18:03.34	223.97	11.30	-33.1	-33.8	25.0	0.00e+00	0	32	0	770703360	40	5582
2026-01-29 04:18:04.35	224.10	11.37	-33.1	-33.8	25.0	0.00e+00	0	32	0	775946240	40	5603
2026-01-29 04:18:05.36	224.23	11.44	-33.3	-34.0	24.9	0.00e+00	0	32	0	782237696	40	5735
2026-01-29 04:18:06.38	224.36	11.51	-33.2	-33.9	24.9	0.00e+00	0	32	0	787480576	40	5675
2026-01-29 04:18:07.38	224.50	11.57	-33.1	-33.8	25.0	0.00e+00	0	32	0	792723456	40	5592
2026-01-29 04:18:08.40	224.63	11.64	-33.1	-33.8	25.0	0.00e+00	0	32	0	799014912	40	5583
2026-01-29 04:18:09.41	224.76	11.71	-33.1	-33.8	25.0	0.00e+00	0	32	0	804257792	40	5600
2026-01-29 04:18:10.41	224.90	11.78	-33.3	-34.0	24.9	0.00e+00	0	32	0	810549248	40	5749
2026-01-29 04:18:11.43	225.03	11.84	-33.1	-33.8	25.1	0.00e+00	0	32	0	815792128	40	5567
2026-01-29 04:18:12.44	225.17	11.91	-33.3	-34.0	24.9	0.00e+00	0	32	0	821035008	40	5696
2026-01-29 04:18:13.44	225.31	11.98	-33.2	-33.9	25.0	0.00e+00	0	32	0	827326464	40	5643
2026-01-29 04:18:14.45	225.44	12.05	-33.3	-34.0	24.9	0.00e+00	0	32	0	832569344	40	5702
2026-01-29 04:18:15.46	225.58	12.12	-33.2	-33.8	25.0	0.00e+00	0	32	0	838860800	40	5626
2026-01-29 04:18:16.47	225.72	12.18	-33.1	-33.9	25.0	0.00e+00	0	32	0	844103680	40	5642
2026-01-29 04:18:17.48	225.86	12.25	-33.2	-33.9	25.0	0.00e+00	0	32	0	849346560	40	5641
2026-01-29 04:18:18.49	226.00	12.32	-33.0	-33.7	25.0	0.00e+00	0	32	0	855638016	40	5524
2026-01-29 04:18:19.50	226.14	12.39	-33.0	-33.7	25.1	0.00e+00	0	32	0	860880896	40	5508
2026-01-29 04:18:20.51	226.28	12.46	-32.9	-33.6	25.1	0.00e+00	0	32	0	867172352	40	5489
2026-01-29 04:18:21.52	226.42	12.52	-32.9	-33.6	25.3	0.00e+00	0	32	0	872415232	40	5461
2026-01-29 04:18:22.53	226.56	12.59	-33.0	-33.7	25.1	0.00e+00	0	32	0	878706688	40	5530
2026-01-29 04:18:23.54	226.70	12.66	-33.1	-33.8	24.9	0.00e+00	0	32	0	883949568	40	5627
2026-01-29 04:18:24.55	226.85	12.73	-33.2	-33.9	25.1	0.00e+00	0	32	0	889192448	40	5677
2026-01-29 04:18:25.56	226.99	12.80	-33.0	-33.6	25.1	0.00e+00	0	32	0	895483904	40	5501
2026-01-29 04:18:26.57	227.14	12.87	-33.1	-33.8	25.0	0.00e+00	0	32	0	900726784	40	5574
2026-01-29 04:18:27.58	227.28	12.94	-33.1	-33.8	25.0	0.00e+00	0	32	0	907018240	40	5567
2026-01-29 04:18:28.59	227.43	13.00	-33.0	-33.7	25.1	0.00e+00	0	32	0	912261120	40	5527
2026-01-29 04:18:29.60	227.57	13.07	-32.9	-33.6	25.2	0.00e+00	0	32	0	918552576	40	5487
2026-01-29 04:18:30.61	227.72	13.14	-33.0	-33.7	25.1	0.00e+00	0	32	0	923795456	40	5530
2026-01-29 04:18:31.62	227.87	13.21	-32.7	-33.4	25.3	0.00e+00	0	32	0	929038336	40	5371
2026-01-29 04:18:32.63	228.02	13.28	-32.7	-33.3	25.4	0.00e+00	0	32	0	935329792	38	5949
2026-01-29 04:18:33.64	228.17	13.35	-32.5	-33.2	25.6	0.00e+00	0	32	0	940572672	38	5852
2026-01-29 04:18:34.65	228.32	13.42	-32.5	-33.1	25.6	0.00e+00	0	32	0	946864128	38	5818
2026-01-29 04:18:35.66	228.47	13.48	-32.5	-33.1	25.6	0.00e+00	0	32	0	952107008	38	5824
2026-01-29 04:18:36.66	228.62	13.55	-32.6	-33.3	25.5	0.00e+00	0	32	0	957349888	38	5948
2026-01-29 04:18:37.67	228.77	13.62	-32.4	-33.0	25.7	0.00e+00	0	32	0	963641344	38	5750
2026-01-29 04:18:38.68	228.92	13.69	-32.4	-33.0	25.8	0.00e+00	0	32	0	968884224	38	5758
2026-01-29 04:18:39.70	229.08	13.76	-32.4	-33.0	25.7	0.00e+00	0	32	0	975175680	38	5743
2026-01-29 04:18:40.71	229.23	13.83	-32.3	-33.0	25.8	0.00e+00	0	32	0	980418560	38	5718
2026-01-29 04:18:41.72	229.39	13.90	-32.3	-32.9	25.8	0.00e+00	0	32	0	986710016	38	5693
2026-01-29 04:18:42.73	229.54	13.96	-32.4	-33.1	25.7	0.00e+00	0	32	0	991952896	38	5766
2026-01-29 04:18:43.73	229.70	14.03	-32.4	-33.0	25.7	0.00e+00	0	32	0	997195776	38	5753
2026-01-29 04:18:44.74	229.85	14.10	-32.4	-33.0	25.7	0.00e+00	0	32	0	1003487232	38	5761
2026-01-29 04:18:45.75	230.01	14.17	-32.4	-33.1	25.7	0.00e+00	0	32	0	1008730112	38	5776
2026-01-29 04:18:46.76	230.17	14.24	-32.4	-33.1	25.6	0.00e+00	0	32	0	1015021568	38	5817
2026-01-29 04:18:47.77	230.33	14.31	-32.5	-33.1	25.7	0.00e+00	0	32	0	1020264448	38	5814
2026-01-29 04:18:48.78	230.49	14.38	-32.5	-33.1	25.6	0.00e+00	0	32	0	1025507328	38	5822
2026-01-29 04:18:49.79	230.65	14.44	-32.5	-33.2	25.7	0.00e+00	0	32	0	1031798784	38	5846
2026-01-29 04:18:50.79	230.81	14.51	-32.7	-33.4	25.6	0.00e+00	0	32	0	1037041664	38	5967
2026-01-29 04:18:51.80	230.97	14.58	-32.5	-33.1	25.7	0.00e+00	0	32	0	1043333120	38	5824
2026-01-29 04:18:52.81	231.13	14.65	-32.5	-33.2	25.6	0.00e+00	0	32	0	1048576000	38	5875
2026-01-29 04:18:53.82	231.30	14.72	-32.5	-33.2	25.6	0.00e+00	0	32	0	1053818880	38	5842
2026-01-29 04:18:54.83	231.46	14.79	-32.6	-33.3	25.5	0.00e+00	0	32	0	1060110336	38	5926
2026-01-29 04:18:55.84	231.62	14.86	-32.4	-33.1	25.7	0.00e+00	0	32	0	1065353216	38	5797
2026-01-29 04:18:56.85	231.79	14.92	-32.5	-33.2	25.6	0.00e+00	0	32	0	1071644672	38	5850
2026-01-29 04:18:57.86	231.96	14.99	-32.3	-33.0	25.7	0.00e+00	0	32	0	1076887552	38	5700
2026-01-29 04:18:58.86	232.12	15.06	-32.3	-32.9	25.9	0.00e+00	0	32	0	1083179008	38	5690
2026-01-29 04:18:59.88	232.29	15.13	-32.2	-32.8	25.9	0.00e+00	0	32	0	1088421888	38	5601
2026-01-29 04:19:00.88	232.46	15.20	-32.2	-32.9	25.9	0.00e+00	0	32	0	1093664768	38	5651
2026-01-29 04:19:01.89	232.63	15.27	-32.2	-32.9	25.9	0.00e+00	0	32	0	1099956224	38	5642
2026-01-29 04:19:02.90	232.80	15.33	-32.2	-32.8	25.9	0.00e+00	0	32	0	1105199104	38	5628
2026-01-29 04:19:03.91	232.97	15.40	-32.1	-32.8	26.0	0.00e+00	0	32	0	1111490560	38	5591
2026-01-29 04:19:04.92	233.14	15.47	-32.2	-32.9	25.9	0.00e+00	0	32	0	1116733440	38	5651
2026-01-29 04:19:05.93	233.31	15.54	-31.9	-32.5	26.2	0.00e+00	0	32	0	1121976320	38	5429
2026-01-29 04:19:06.94	233.48	15.61	-31.9	-32.6	26.2	0.00e+00	0	32	0	1128267776	38	5443
2026-01-29 04:19:07.95	233.66	15.68	-31.8	-32.5	26.2	0.00e+00	0	32	0	1133510656	38	5409
2026-01-29 04:19:08.96	233.83	15.74	-31.9	-32.5	26.1	0.00e+00	0	32	0	1139802112	38	5431
2026-01-29 04:19:09.97	234.01	15.81	-31.9	-32.6	26.1	0.00e+00	0	32	0	1145044992	38	5442
2026-01-29 04:19:10.98	234.18	15.88	-31.8	-32.4	26.3	0.00e+00	0	32	0	1150287872	36	6011
2026-01-29 04:19:11.99	234.36	15.95	-32.0	-32.7	26.1	0.00e+00	0	32	0	1156579328	36	6199
2026-01-29 04:19:13.00	234.54	16.01	-31.8	-32.5	26.2	0.00e+00	0	32	0	1161822208	36	6065
2026-01-29 04:19:14.01	234.72	16.08	-31.7	-32.4	26.3	0.00e+00	0	32	0	1168113664	36	5982
2026-01-29 04:19:15.02	234.90	16.15	-31.8	-32.4	26.3	0.00e+00	0	32	0	1173356544	36	6030
2026-01-29 04:19:16.03	235.08	16.22	-31.7	-32.4	26.3	0.00e+00	0	32	0	1179648000	36	5977
2026-01-29 04:19:17.04	235.26	16.29	-31.7	-32.3	26.4	0.00e+00	0	32	0	1184890880	36	5955
2026-01-29 04:19:18.05	235.44	16.35	-31.6	-32.3	26.4	0.00e+00	0	32	0	1190133760	36	5911
2026-01-29 04:19:19.06	235.62	16.42	-31.7	-32.3	26.4	0.00e+00	0	32	0	1196425216	36	5939
2026-01-29 04:19:20.07	235.80	16.49	-31.7	-32.4	26.3	0.00e+00	0	32	0	1201668096	36	5998
2026-01-29 04:19:21.08	235.99	16.55	-31.9	-32.6	26.1	0.00e+00	0	32	0	1207959552	36	6156
2026-01-29 04:19:22.09	236.17	16.62	-31.7	-32.3	26.4	0.00e+00	0	32	0	1213202432	36	5921
2026-01-29 04:19:23.10	236.36	16.69	-31.7	-32.3	26.4	0.00e+00	0	32	0	1218445312	36	5922
2026-01-29 04:19:24.10	236.54	16.75	-31.5	-32.1	26.6	0.00e+00	0	32	0	1224736768	36	5827
2026-01-29 04:19:25.11	236.73	16.82	-31.4	-32.0	26.6	0.00e+00	0	32	0	1229979648	36	5751
2026-01-29 04:19:26.12	236.92	16.89	-31.6	-32.2	26.5	0.00e+00	0	32	0	1236271104	36	5870
2026-01-29 04:19:27.13	237.11	16.95	-31.6	-32.3	26.5	0.00e+00	0	32	0	1241513984	36	5900
2026-01-29 04:19:28.14	237.29	17.02	-31.6	-32.2	26.5	0.00e+00	0	32	0	1246756864	36	5863
2026-01-29 04:19:29.15	237.49	17.09	-31.7	-32.3	26.5	0.00e+00	0	32	0	1253048320	36	5939
2026-01-29 04:19:30.16	237.68	17.15	-31.5	-32.2	26.5	0.00e+00	0	32	0	1258291200	36	5875
2026-01-29 04:19:31.17	237.87	17.22	-31.5	-32.1	26.5	0.00e+00	0	32	0	1264582656	36	5821
2026-01-29 04:19:32.18	238.06	17.29	-31.4	-32.0	26.7	0.00e+00	0	32	0	1269825536	36	5759
2026-01-29 04:19:33.19	238.25	17.35	-31.3	-32.0	26.7	0.00e+00	0	32	0	1276116992	36	5705
2026-01-29 04:19:34.20	238.45	17.42	-31.2	-31.8	26.8	0.00e+00	0	32	0	1281359872	36	5630
2026-01-29 04:19:35.21	238.64	17.48	-31.3	-31.9	26.8	0.00e+00	0	32	0	1287651328	36	5636
2026-01-29 04:19:36.21	238.84	17.55	-31.3	-31.9	26.8	0.00e+00	0	32	0	1292894208	36	5657
2026-01-29 04:19:37.22	239.04	17.61	-31.2	-31.8	26.9	0.00e+00	0	32	0	1298137088	36	5599
2026-01-29 04:19:38.23	239.23	17.68	-31.1	-31.8	27.0	0.00e+00	0	32	0	1304428544	36	5581
2026-01-29 04:19:39.24	239.43	17.74	-31.1	-31.8	26.9	0.00e+00	0	32	0	1309671424	36	5579
2026-01-29 04:19:40.25	239.63	17.81	-31.1	-31.8	26.9	0.00e+00	0	32	0	1315962880	36	5578
2026-01-29 04:19:41.26	239.83	17.87	-31.1	-31.7	26.9	0.00e+00	0	32	0	1321205760	36	5538
2026-01-29 04:19:42.27	240.03	17.94	-31.1	-31.8	27.0	0.00e+00	0	32	0	1326448640	36	5571
2026-01-29 04:19:43.29	240.24	18.00	-31.2	-31.9	26.8	0.00e+00	0	32	0	1332740096	36	5631
2026-01-29 04:19:44.30	240.44	18.06	-31.1	-31.7	27.0	0.00e+00	0	32	0	1337982976	36	5564
2026-01-29 04:19:45.30	240.64	18.13	-31.3	-32.0	26.7	0.00e+00	0	32	0	1344274432	36	5699
2026-01-29 04:19:46.31	240.84	18.19	-31.3	-31.9	26.8	0.00e+00	0	32	0	1349517312	36	5691
2026-01-29 04:19:47.32	241.05	18.25	-31.3	-32.0	26.8	0.00e+00	0	32	0	1354760192	36	5715
2026-01-29 04:19:48.33	241.26	18.32	-31.3	-31.9	26.8	0.00e+00	0	32	0	1361051648	36	5680
2026-01-29 04:19:49.34	241.46	18.38	-31.3	-31.9	26.7	0.00e+00	0	32	0	1366294528	36	5654
2026-01-29 04:19:50.34	241.67	18.44	-31.3	-32.0	26.7	0.00e+00	0	32	0	1372585984	36	5715
2026-01-29 04:19:51.35	241.88	18.51	-31.3	-32.0	26.8	0.00e+00	0	32	0	1377828864	36	5707
2026-01-29 04:19:52.36	242.09	18.57	-31.3	-32.0	26.7	0.00e+00	0	32	0	1384120320	36	5700
2026-01-29 04:19:53.37	242.30	18.63	-31.2	-31.8	26.8	0.00e+00	0	32	0	1389363200	36	5588
2026-01-29 04:19:54.38	242.51	18.69	-31.1	-31.8	26.9	0.00e+00	0	32	0	1394606080	36	5592
2026-01-29 04:19:55.39	242.72	18.75	-31.0	-31.6	27.1	0.00e+00	0	32	0	1400897536	36	5462
2026-01-29 04:19:56.40	242.93	18.82	-30.9	-31.6	27.0	0.00e+00	0	32	0	1406140416	36	5451
2026-01-29 04:19:57.41	243.15	18.88	-30.9	-31.5	26.9	0.00e+00	0	32	0	1412431872	36	5415
2026-01-29 04:19:58.42	243.36	18.94	-31.0	-31.6	26.9	0.00e+00	0	32	0	1417674752	36	5468
2026-01-29 04:19:59.43	243.58	19.00	-31.0	-31.6	27.0	0.00e+00	0	32	0	1422917632	36	5485
2026-01-29 04:20:00.44	243.79	19.06	-31.0	-31.6	27.0	0.00e+00	0	32	0	1429209088	36	5491
2026-01-29 04:20:01.45	244.01	19.12	-31.0	-31.7	26.9	0.00e+00	0	32	0	1434451968	36	5526
2026-01-29 04:20:02.46	244.23	19.18	-31.2	-31.8	26.8	0.00e+00	0	32	0	1440743424	36	5592
2026-01-29 04:20:03.47	244.44	19.24	-31.0	-31.6	27.0	0.00e+00	0	32	0	1445986304	36	5487
2026-01-29 04:20:04.48	244.66	19.30	-30.8	-31.4	27.2	0.00e+00	0	32	0	1451229184	36	5343
2026-01-29 04:20:05.48	244.88	19.36	-30.8	-31.4	27.1	0.00e+00	0	32	0	1457520640	34	5996
2026-01-29 04:20:06.49	245.10	19.42	-30.7	-31.2	27.2	0.00e+00	0	32	0	1462763520	34	5893
2026-01-29 04:20:07.50	245.32	19.48	-30.8	-31.4	27.1	0.00e+00	0	32	0	1469054976	34	6012
2026-01-29 04:20:08.52	245.55	19.54	-30.8	-31.4	27.1	0.00e+00	0	32	0	1474297856	34	5992
2026-01-29 04:20:09.52	245.77	19.59	-30.9	-31.5	27.1	0.00e+00	0	32	0	1480589312	34	6064
2026-01-29 04:20:10.53	246.00	19.65	-31.1	-31.8	26.9	0.00e+00	0	32	0	1485832192	34	6266
2026-01-29 04:20:11.55	246.22	19.71	-31.1	-31.7	26.9	0.00e+00	0	32	0	1491075072	34	6207
2026-01-29 04:20:12.55	246.45	19.77	-31.0	-31.6	27.0	0.00e+00	0	32	0	1497366528	34	6169
2026-01-29 04:20:13.56	246.67	19.82	-30.8	-31.5	27.1	0.00e+00	0	32	0	1502609408	34	6044
2026-01-29 04:20:14.57	246.90	19.88	-30.7	-31.3	27.3	0.00e+00	0	32	0	1508900864	34	5950
2026-01-29 04:20:15.58	247.13	19.94	-30.6	-31.2	27.3	0.00e+00	0	32	0	1514143744	34	5894
2026-01-29 04:20:16.59	247.36	19.99	-30.5	-31.2	27.3	0.00e+00	0	32	0	1519386624	34	5845
2026-01-29 04:20:17.60	247.59	20.05	-30.5	-31.1	27.4	0.00e+00	0	32	0	1525678080	34	5819
2026-01-29 04:20:18.61	247.82	20.10	-30.6	-31.3	27.1	0.00e+00	0	32	0	1530920960	34	5920
2026-01-29 04:20:19.62	248.05	20.16	-30.7	-31.4	27.2	0.00e+00	0	32	0	1537212416	34	5979
2026-01-29 04:20:20.63	248.28	20.21	-30.8	-31.4	27.1	0.00e+00	0	32	0	1542455296	34	6028
2026-01-29 04:20:21.64	248.52	20.27	-30.8	-31.4	27.1	0.00e+00	0	32	0	1547698176	34	6033
2026-01-29 04:20:22.65	248.75	20.32	-30.7	-31.4	27.3	0.00e+00	0	32	0	1553989632	34	5994
2026-01-29 04:20:23.65	248.98	20.38	-30.9	-31.5	27.1	0.00e+00	0	32	0	1559232512	34	6072
2026-01-29 04:20:24.66	249.22	20.43	-30.7	-31.4	27.2	0.00e+00	0	32	0	1565523968	34	5980
2026-01-29 04:20:25.67	249.46	20.48	-30.7	-31.3	27.2	0.00e+00	0	32	0	1570766848	34	5905
2026-01-29 04:20:26.68	249.69	20.53	-30.5	-31.2	27.3	0.00e+00	0	32	0	1577058304	34	5849
2026-01-29 04:20:27.69	249.93	20.59	-30.6	-31.3	27.4	0.00e+00	0	32	0	1582301184	34	5900
2026-01-29 04:20:28.70	250.17	20.64	-30.5	-31.1	27.5	0.00e+00	0	32	0	1588592640	34	5779
2026-01-29 04:20:29.71	250.41	20.69	-30.3	-31.0	27.5	0.00e+00	0	32	0	1593835520	34	5702
2026-01-29 04:20:30.72	250.65	20.74	-30.2	-30.9	27.6	0.00e+00	0	32	0	1599078400	34	5633
2026-01-29 04:20:31.73	250.89	20.79	-30.3	-30.9	27.5	0.00e+00	0	32	0	1605369856	34	5648
2026-01-29 04:20:32.74	251.13	20.84	-30.4	-31.0	27.5	0.00e+00	0	32	0	1610612736	34	5732
2026-01-29 04:20:33.75	251.38	20.89	-30.5	-31.1	27.4	0.00e+00	0	32	0	1616904192	34	5802
2026-01-29 04:20:34.76	251.62	20.94	-30.5	-31.1	27.4	0.00e+00	0	32	0	1622147072	34	5812
2026-01-29 04:20:35.76	251.86	20.99	-30.4	-31.1	27.4	0.00e+00	0	32	0	1627389952	34	5784
2026-01-29 04:20:36.77	252.11	21.04	-30.4	-31.0	27.4	0.00e+00	0	32	0	1633681408	34	5730
2026-01-29 04:20:37.78	252.35	21.09	-30.2	-30.8	27.6	0.00e+00	0	32	0	1638924288	34	5621
2026-01-29 04:20:38.79	252.60	21.13	-30.2	-30.9	27.5	0.00e+00	0	32	0	1644167168	34	5638
2026-01-29 04:20:39.80	252.85	21.18	-30.2	-30.9	27.6	0.00e+00	0	32	0	1650458624	34	5653
2026-01-29 04:20:40.81	253.09	21.23	-30.3	-30.9	27.4	0.00e+00	0	32	0	1655701504	34	5679
2026-01-29 04:20:41.82	253.34	21.27	-30.1	-30.8	27.6	0.00e+00	0	32	0	1661992960	34	5579
2026-01-29 04:20:42.83	253.59	21.32	-30.1	-30.7	27.7	0.00e+00	0	32	0	1667235840	34	5555
2026-01-29 04:20:43.84	253.84	21.37	-30.3	-30.9	27.5	0.00e+00	0	32	0	1673527296	34	5689
2026-01-29 04:20:44.85	254.09	21.41	-30.5	-31.1	27.4	0.00e+00	0	32	0	1678770176	34	5805
2026-01-29 04:20:45.85	254.34	21.45	-30.5	-31.2	27.3	0.00e+00	0	32	0	1685061632	34	5833
2026-01-29 04:20:46.86	254.59	21.50	-30.6	-31.2	27.3	0.00e+00	0	32	0	1690304512	34	5874
2026-01-29 04:20:47.88	254.85	21.54	-30.3	-31.0	27.5	0.00e+00	0	32	0	1695547392	34	5730
2026-01-29 04:20:48.88	255.10	21.58	-30.3	-30.9	27.5	0.00e+00	0	32	0	1701838848	34	5662
2026-01-29 04:20:49.90	255.36	21.63	-30.2	-30.9	27.6	0.00e+00	0	32	0	1707081728	34	5632
2026-01-29 04:20:50.90	255.61	21.67	-30.3	-31.0	27.5	0.00e+00	0	32	0	1713373184	34	5698
2026-01-29 04:20:51.91	255.87	21.71	-30.3	-30.9	27.5	0.00e+00	0	32	0	1718616064	34	5694
2026-01-29 04:20:52.92	256.12	21.75	-30.3	-30.9	27.5	0.00e+00	0	32	0	1723858944	34	5680
2026-01-29 04:20:53.93	256.38	21.79	-30.4	-31.0	27.5	0.00e+00	0	32	0	1730150400	34	5757
2026-01-29 04:20:54.94	256.64	21.83	-30.4	-31.1	27.4	0.00e+00	0	32	0	1735393280	34	5767
2026-01-29 04:20:55.95	256.89	21.87	-30.6	-31.2	27.3	0.00e+00	0	32	0	1741684736	34	5889
2026-01-29 04:20:56.96	257.15	21.91	-30.4	-31.1	27.4	0.00e+00	0	32	0	1746927616	34	5776
2026-01-29 04:20:57.97	257.41	21.95	-30.4	-31.0	27.5	0.00e+00	0	32	0	1752170496	34	5734
2026-01-29 04:20:58.98	257.67	21.99	-30.4	-31.0	27.5	0.00e+00	0	32	0	1758461952	34	5748
2026-01-29 04:20:59.99	257.93	22.03	-30.2	-30.8	27.6	0.00e+00	0	32	0	1763704832	34	5601
2026-01-29 04:21:01.00	258.20	22.06	-30.1	-30.7	27.7	0.00e+00	0	32	0	1769996288	34	5563
2026-01-29 04:21:02.01	258.46	22.10	-30.0	-30.6	27.7	0.00e+00	0	32	0	1775239168	34	5491
2026-01-29 04:21:03.02	258.72	22.13	-30.0	-30.6	27.8	0.00e+00	0	32	0	1781530624	34	5479
2026-01-29 04:21:04.03	258.98	22.17	-29.9	-30.6	27.9	0.00e+00	0	32	0	1786773504	34	5440
2026-01-29 04:21:05.04	259.25	22.20	-29.9	-30.5	27.8	0.00e+00	0	32	0	1792016384	34	5427
2026-01-29 04:21:06.05	259.51	22.24	-30.0	-30.6	27.7	0.00e+00	0	32	0	1798307840	34	5500
2026-01-29 04:21:07.06	259.78	22.27	-30.1	-30.7	27.6	0.00e+00	0	32	0	1803550720	34	5553
2026-01-29 04:21:08.07	260.04	22.30	-30.1	-30.8	27.7	0.00e+00	0	32	0	1809842176	34	5610
2026-01-29 04:21:09.08	260.31	22.34	-30.1	-30.7	27.6	0.00e+00	0	32	0	1815085056	34	5525
2026-01-29 04:21:10.09	260.57	22.37	-30.0	-30.6	27.8	0.00e+00	0	32	0	1820327936	34	5468
2026-01-29 04:21:11.10	260.84	22.40	-30.0	-30.7	27.8	0.00e+00	0	32	0	1826619392	34	5516
2026-01-29 04:21:12.11	261.11	22.43	-30.1	-30.8	27.7	0.00e+00	0	32	0	1831862272	34	5567
2026-01-29 04:21:13.12	261.38	22.46	-30.1	-30.8	27.6	0.00e+00	0	32	0	1838153728	34	5588
2026-01-29 04:21:14.13	261.64	22.49	-30.2	-30.9	27.6	0.00e+00	0	32	0	1843396608	34	5669
2026-01-29 04:21:15.14	261.91	22.52	-30.3	-30.9	27.5	0.00e+00	0	32	0	1848639488	34	5672
2026-01-29 04:21:16.15	262.18	22.55	-30.3	-30.9	27.6	0.00e+00	0	32	0	1854930944	34	5665
2026-01-29 04:21:17.16	262.45	22.57	-30.2	-30.8	27.5	0.00e+00	0	32	0	1860173824	34	5614
2026-01-29 04:21:18.17	262.72	22.60	-30.3	-30.9	27.5	0.00e+00	0	32	0	1866465280	34	5666
2026-01-29 04:21:19.17	262.99	22.63	-30.2	-30.8	27.6	0.00e+00	0	32	0	1871708160	34	5630
2026-01-29 04:21:20.18	263.26	22.65	-30.2	-30.8	27.6	0.00e+00	0	32	0	1877999616	34	5630
2026-01-29 04:21:21.19	263.53	22.68	-30.1	-30.7	27.7	0.00e+00	0	32	0	1883242496	34	5531
2026-01-29 04:21:22.20	263.81	22.70	-29.9	-30.5	27.8	0.00e+00	0	32	0	1889533952	34	5381
2026-01-29 04:21:23.21	264.08	22.73	-29.9	-30.5	27.9	0.00e+00	0	32	0	1894776832	34	5379
2026-01-29 04:21:24.22	264.35	22.75	-29.9	-30.5	27.8	0.00e+00	0	32	0	1900019712	34	5410
2026-01-29 04:21:25.23	264.63	22.77	-30.1	-30.7	27.6	0.00e+00	0	32	0	1906311168	34	5536
2026-01-29 04:21:26.24	264.90	22.79	-30.0	-30.7	27.8	0.00e+00	0	32	0	1911554048	34	5516
2026-01-29 04:21:27.25	265.17	22.81	-29.8	-30.4	28.0	0.00e+00	0	32	0	1917845504	34	5368
2026-01-29 04:21:28.26	265.45	22.83	-29.8	-30.3	28.0	0.00e+00	0	32	0	1923088384	32	5961
2026-01-29 04:21:29.27	265.72	22.85	-29.7	-30.3	28.0	0.00e+00	0	32	0	1928331264	32	5939
2026-01-29 04:21:30.28	266.00	22.87	-29.7	-30.4	28.0	0.00e+00	0	32	0	1934622720	32	5968
2026-01-29 04:21:31.29	266.27	22.89	-29.9	-30.4	27.9	0.00e+00	0	32	0	1939865600	32	6032
2026-01-29 04:21:32.30	266.55	22.91	-30.0	-30.6	27.8	0.00e+00	0	32	0	1945108480	32	6115
2026-01-29 04:21:33.31	266.82	22.93	-29.9	-30.5	27.9	0.00e+00	0	32	0	1951399936	32	6092
2026-01-29 04:21:34.32	267.10	22.94	-29.8	-30.4	28.0	0.00e+00	0	32	0	1956642816	32	5979
2026-01-29 04:21:35.33	267.38	22.96	-29.6	-30.2	28.1	0.00e+00	0	32	0	1962934272	32	5858
2026-01-29 04:21:36.33	267.65	22.98	-29.7	-30.3	28.0	0.00e+00	0	32	0	1968177152	32	5944
2026-01-29 04:21:37.34	267.93	22.99	-29.7	-30.3	28.0	0.00e+00	0	32	0	1974468608	32	5951
2026-01-29 04:21:38.35	268.21	23.00	-30.0	-30.7	27.8	0.00e+00	0	32	0	1979711488	32	6175
2026-01-29 04:21:39.37	268.49	23.02	-30.1	-30.7	27.7	0.00e+00	0	32	0	1986002944	32	6218
2026-01-29 04:21:40.38	268.76	23.03	-30.2	-30.8	27.6	0.00e+00	0	32	0	1991245824	32	6304
2026-01-29 04:21:41.38	269.04	23.04	-30.3	-30.9	27.5	0.00e+00	0	32	0	1996488704	32	6349
2026-01-29 04:21:42.39	269.32	23.05	-30.0	-30.6	27.7	0.00e+00	0	32	0	2002780160	32	6148
2026-01-29 04:21:43.41	269.60	23.06	-30.2	-30.8	27.6	0.00e+00	0	32	0	2008023040	32	6284
2026-01-29 04:21:44.42	269.88	23.07	-29.9	-30.5	27.8	0.00e+00	0	32	0	2014314496	32	6082
2026-01-29 04:21:45.43	270.15	23.08	-29.9	-30.6	27.8	0.00e+00	0	32	0	2019557376	32	6118
2026-01-29 04:21:46.43	270.43	23.09	-29.9	-30.5	27.8	0.00e+00	0	32	0	2024800256	32	6060
2026-01-29 04:21:47.44	270.71	23.10	-30.0	-30.6	27.8	0.00e+00	0	32	0	2031091712	32	6171
2026-01-29 04:21:48.45	270.99	23.11	-30.0	-30.7	27.8	0.00e+00	0	32	0	2036334592	32	6174
2026-01-29 04:21:49.46	271.27	23.11	-30.0	-30.6	27.7	0.00e+00	0	32	0	2042626048	32	6135
2026-01-29 04:21:50.48	271.55	23.12	-29.9	-30.5	27.8	0.00e+00	0	32	0	2047868928	32	6067
2026-01-29 04:21:51.49	271.83	23.12	-29.9	-30.5	27.8	0.00e+00	0	32	0	2053111808	32	6052
2026-01-29 04:21:52.50	272.11	23.13	-29.7	-30.3	28.0	0.00e+00	0	32	0	2059403264	32	5920
2026-01-29 04:21:53.51	272.39	23.13	-29.8	-30.4	27.8	0.00e+00	0	32	0	2064646144	32	6010
2026-01-29 04:21:54.52	272.67	23.13	-29.8	-30.4	27.9	0.00e+00	0	32	0	2070937600	32	5981
2026-01-29 04:21:55.53	272.95	23.14	-29.9	-30.5	27.7	0.00e+00	0	32	0	2076180480	32	6064
2026-01-29 04:21:56.54	273.23	23.14	-30.0	-30.6	27.8	0.00e+00	0	32	0	2082471936	32	6164
2026-01-29 04:21:57.55	273.51	23.14	-30.1	-30.7	27.6	0.00e+00	0	32	0	2087714816	32	6234
2026-01-29 04:21:58.56	273.79	23.14	-30.0	-30.7	27.6	0.00e+00	0	32	0	2094006272	32	6203
2026-01-29 04:21:59.57	274.07	23.14	-30.1	-30.7	27.7	0.00e+00	0	32	0	2099249152	32	6212
2026-01-29 04:22:00.58	274.35	23.14	-30.3	-31.0	27.5	0.00e+00	0	32	0	2104492032	32	6397
2026-01-29 04:22:01.58	274.62	23.14	-30.1	-30.7	27.7	0.00e+00	0	32	0	2110783488	32	6218
2026-01-29 04:22:02.59	274.90	23.13	-30.0	-30.6	27.7	0.00e+00	0	32	0	2116026368	32	6120
2026-01-29 04:22:03.60	275.18	23.13	-29.8	-30.4	27.9	0.00e+00	0	32	0	2122317824	32	6003
2026-01-29 04:22:04.61	275.46	23.13	-29.8	-30.3	27.8	0.00e+00	0	32	0	2127560704	32	5958
2026-01-29 04:22:05.62	275.74	23.12	-29.9	-30.5	27.8	0.00e+00	0	32	0	2132803584	32	6053
2026-01-29 04:22:06.63	276.02	23.12	-29.9	-30.5	27.8	0.00e+00	0	32	0	2139095040	32	6060
2026-01-29 04:22:07.64	276.30	23.11	-30.0	-30.6	27.8	0.00e+00	0	32	0	2144337920	32	6161
2026-01-29 04:22:08.65	276.58	23.10	-29.8	-30.4	27.8	0.00e+00	0	32	0	2150629376	32	6032
2026-01-29 04:22:09.66	276.86	23.10	-29.9	-30.5	27.7	0.00e+00	0	32	0	2155872256	32	6049
2026-01-29 04:22:10.67	277.14	23.09	-29.9	-30.6	27.8	0.00e+00	0	32	0	2161115136	32	6153
2026-01-29 04:22:11.68	277.41	23.08	-30.0	-30.7	27.7	0.00e+00	0	32	0	2167406592	32	6200
2026-01-29 04:22:12.69	277.69	23.07	-29.9	-30.5	27.6	0.00e+00	0	32	0	2172649472	32	6093
2026-01-29 04:22:13.70	277.97	23.06	-29.8	-30.5	27.6	0.00e+00	0	32	0	2178940928	32	6044
2026-01-29 04:22:14.71	278.25	23.05	-29.8	-30.5	27.8	0.00e+00	0	32	0	2184183808	32	6044
2026-01-29 04:22:15.71	278.52	23.04	-29.9	-30.6	27.8	0.00e+00	0	32	0	2190475264	32	6117
2026-01-29 04:22:16.72	278.80	23.02	-29.9	-30.5	27.8	0.00e+00	0	32	0	2195718144	32	6084
2026-01-29 04:22:17.73	279.08	23.01	-29.9	-30.6	27.8	0.00e+00	0	32	0	2200961024	32	6143
2026-01-29 04:22:18.74	279.36	23.00	-30.0	-30.6	27.8	0.00e+00	0	32	0	2207252480	32	6136
2026-01-29 04:22:19.75	279.63	22.98	-29.8	-30.4	27.9	0.00e+00	0	32	0	2212495360	32	6005
2026-01-29 04:22:20.76	279.91	22.97	-29.9	-30.6	27.9	0.00e+00	0	32	0	2218786816	32	6110
2026-01-29 04:22:21.77	280.19	22.95	-30.0	-30.6	27.7	0.00e+00	0	32	0	2224029696	32	6162
2026-01-29 04:22:22.78	280.46	22.94	-30.2	-30.8	27.7	0.00e+00	0	32	0	2229272576	32	6282
2026-01-29 04:22:23.79	280.74	22.92	-30.1	-30.8	27.7	0.00e+00	0	32	0	2235564032	32	6273
2026-01-29 04:22:24.80	281.01	22.90	-30.1	-30.7	27.7	0.00e+00	0	32	0	2240806912	32	6183
2026-01-29 04:22:25.81	281.29	22.88	-30.1	-30.7	27.6	0.00e+00	0	32	0	2247098368	32	6224
2026-01-29 04:22:26.82	281.56	22.87	-30.1	-30.7	27.7	0.00e+00	0	32	0	2252341248	32	6185
2026-01-29 04:22:27.83	281.84	22.85	-29.9	-30.6	27.8	0.00e+00	0	32	0	2257584128	32	6126
2026-01-29 04:22:28.83	282.11	22.83	-30.0	-30.6	27.7	0.00e+00	0	32	0	2263875584	32	6173
2026-01-29 04:22:29.84	282.38	22.81	-30.2	-30.8	27.6	0.00e+00	0	32	0	2269118464	32	6249
2026-01-29 04:22:30.85	282.66	22.78	-30.2	-30.8	27.6	0.00e+00	0	32	0	2275409920	32	6251
2026-01-29 04:22:31.86	282.93	22.76	-30.2	-30.8	27.7	0.00e+00	0	32	0	2280652800	32	6308
2026-01-29 04:22:32.87	283.20	22.74	-30.0	-30.6	27.6	0.00e+00	0	32	0	2286944256	32	6162
2026-01-29 04:22:33.88	283.48	22.72	-29.9	-30.5	27.8	0.00e+00	0	32	0	2292187136	32	6072
2026-01-29 04:22:34.89	283.75	22.69	-29.9	-30.5	27.8	0.00e+00	0	32	0	2297430016	32	6078
2026-01-29 04:22:35.90	284.02	22.67	-30.0	-30.5	27.8	0.00e+00	0	32	0	2303721472	32	6092
2026-01-29 04:22:36.91	284.29	22.64	-30.0	-30.6	27.7	0.00e+00	0	32	0	2308964352	32	6137
2026-01-29 04:22:37.92	284.56	22.62	-30.1	-30.8	27.6	0.00e+00	0	32	0	2315255808	32	6315
2026-01-29 04:22:38.93	284.83	22.59	-30.1	-30.7	27.6	0.00e+00	0	32	0	2320498688	32	6185
2026-01-29 04:22:39.94	285.10	22.56	-30.2	-30.8	27.6	0.00e+00	0	32	0	2325741568	32	6296
2026-01-29 04:22:40.95	285.37	22.53	-30.2	-30.8	27.7	0.00e+00	0	32	0	2332033024	32	6273
2026-01-29 04:22:41.96	285.64	22.51	-30.1	-30.7	27.7	0.00e+00	0	32	0	2337275904	32	6235
2026-01-29 04:22:42.97	285.91	22.48	-30.3	-30.9	27.6	0.00e+00	0	32	0	2343567360	32	6359
2026-01-29 04:22:43.98	286.17	22.45	-30.2	-30.8	27.5	0.00e+00	0	32	0	2348810240	32	6275
2026-01-29 04:22:44.99	286.44	22.42	-30.2	-30.8	27.6	0.00e+00	0	32	0	2354053120	32	6314
2026-01-29 04:22:46.00	286.71	22.39	-30.2	-30.8	27.5	0.00e+00	0	32	0	2360344576	32	6287
2026-01-29 04:22:47.00	286.97	22.36	-30.2	-30.9	27.6	0.00e+00	0	32	0	2365587456	32	6349
2026-01-29 04:22:48.01	287.24	22.32	-30.2	-30.8	27.5	0.00e+00	0	32	0	2371878912	32	6312
2026-01-29 04:22:49.02	287.50	22.29	-30.1	-30.8	27.7	0.00e+00	0	32	0	2377121792	32	6265
2026-01-29 04:22:50.03	287.77	22.26	-30.2	-30.8	27.6	0.00e+00	0	32	0	2383413248	32	6263
2026-01-29 04:22:51.04	288.03	22.23	-30.2	-30.9	27.5	0.00e+00	0	32	0	2388656128	32	6323
2026-01-29 04:22:52.05	288.29	22.19	-30.2	-30.8	27.5	0.00e+00	0	32	0	2394947584	32	6290
2026-01-29 04:22:53.07	288.56	22.16	-30.3	-30.8	27.5	0.00e+00	0	32	0	2400190464	32	6301
2026-01-29 04:22:54.07	288.82	22.12	-30.3	-30.8	27.6	0.00e+00	0	32	0	2405433344	32	6312
2026-01-29 04:22:55.08	289.08	22.09	-30.2	-30.8	27.5	0.00e+00	0	32	0	2411724800	32	6296
2026-01-29 04:22:56.10	289.35	22.05	-30.5	-31.2	27.3	0.00e+00	0	32	0	2416967680	32	6543
2026-01-29 04:22:57.10	289.60	22.01	-30.3	-31.0	27.5	0.00e+00	0	32	0	2423259136	32	6457
2026-01-29 04:22:58.11	289.86	21.97	-30.2	-30.9	27.6	0.00e+00	0	32	0	2428502016	32	6357
2026-01-29 04:22:59.13	290.13	21.94	-30.2	-30.8	27.6	0.00e+00	0	32	0	2433744896	32	6303
2026-01-29 04:23:00.14	290.38	21.90	-30.1	-30.7	27.6	0.00e+00	0	32	0	2440036352	32	6202
2026-01-29 04:23:01.14	290.64	21.86	-30.1	-30.6	27.7	0.00e+00	0	32	0	2445279232	32	6157
2026-01-29 04:23:02.15	290.90	21.82	-30.2	-30.7	27.6	0.00e+00	0	32	0	2451570688	32	6230
2026-01-29 04:23:03.16	291.15	21.78	-30.3	-31.0	27.5	0.00e+00	0	32	0	2456813568	32	6405
2026-01-29 04:23:04.17	291.41	21.74	-30.3	-31.0	27.4	0.00e+00	0	32	0	2462056448	32	6461
2026-01-29 04:23:05.18	291.66	21.70	-30.4	-30.9	27.4	0.00e+00	0	32	0	2468347904	32	6373
2026-01-29 04:23:06.19	291.92	21.66	-30.3	-30.9	27.5	0.00e+00	0	32	0	2473590784	32	6361
2026-01-29 04:23:07.20	292.17	21.61	-30.3	-31.0	27.5	0.00e+00	0	32	0	2479882240	32	6408
2026-01-29 04:23:08.21	292.43	21.57	-30.4	-31.1	27.3	0.00e+00	0	32	0	2485125120	32	6488
2026-01-29 04:23:09.22	292.68	21.53	-30.7	-31.3	27.2	0.00e+00	0	32	0	2491416576	32	6667
2026-01-29 04:23:10.23	292.93	21.48	-30.8	-31.4	27.1	0.00e+00	0	32	0	2496659456	34	5982
2026-01-29 04:23:11.24	293.18	21.44	-30.8	-31.5	27.1	0.00e+00	0	32	0	2501902336	34	6043
2026-01-29 04:23:12.25	293.43	21.40	-30.8	-31.4	27.0	0.00e+00	0	32	0	2508193792	34	6013
2026-01-29 04:23:13.26	293.68	21.35	-31.0	-31.7	27.1	0.00e+00	0	32	0	2513436672	34	6208
2026-01-29 04:23:14.26	293.93	21.31	-30.8	-31.5	27.0	0.00e+00	0	32	0	2519728128	34	6051
2026-01-29 04:23:15.27	294.18	21.26	-30.5	-31.2	27.3	0.00e+00	0	32	0	2524971008	34	5838
2026-01-29 04:23:16.28	294.43	21.21	-30.5	-31.2	27.2	0.00e+00	0	32	0	2530213888	34	5848
2026-01-29 04:23:17.29	294.67	21.17	-30.4	-31.1	27.4	0.00e+00	0	32	0	2536505344	34	5783
2026-01-29 04:23:18.30	294.92	21.12	-30.5	-31.1	27.2	0.00e+00	0	32	0	2541748224	34	5828
2026-01-29 04:23:19.31	295.16	21.07	-30.6	-31.3	27.4	0.00e+00	0	32	0	2548039680	34	5911
2026-01-29 04:23:20.32	295.41	21.02	-30.7	-31.4	27.4	0.00e+00	0	32	0	2553282560	34	5971
2026-01-29 04:23:21.33	295.65	20.98	-30.9	-31.5	27.2	0.00e+00	0	32	0	2558525440	34	6098
2026-01-29 04:23:22.33	295.89	20.93	-31.1	-31.8	27.2	0.00e+00	0	32	0	2564816896	34	6273
2026-01-29 04:23:23.34	296.14	20.88	-30.9	-31.5	27.2	0.00e+00	0	32	0	2570059776	34	6047
2026-01-29 04:23:24.35	296.38	20.83	-30.8	-31.4	27.3	0.00e+00	0	32	0	2576351232	34	5980
2026-01-29 04:23:25.36	296.62	20.78	-30.8	-31.4	27.4	0.00e+00	0	32	0	2581594112	34	5991
2026-01-29 04:23:26.37	296.86	20.73	-30.7	-31.4	27.3	0.00e+00	0	32	0	2587885568	34	5981
2026-01-29 04:23:27.38	297.10	20.68	-30.8	-31.4	27.4	0.00e+00	0	32	0	2593128448	34	5966
2026-01-29 04:23:28.39	297.34	20.63	-30.7	-31.3	27.4	0.00e+00	0	32	0	2598371328	34	5935
2026-01-29 04:23:29.40	297.57	20.57	-30.8	-31.5	27.2	0.00e+00	0	32	0	2604662784	34	6043
2026-01-29 04:23:30.41	297.81	20.52	-30.8	-31.4	27.3	0.00e+00	0	32	0	2609905664	34	6009
2026-01-29 04:23:31.42	298.05	20.47	-30.7	-31.3	27.4	0.00e+00	0	32	0	2616197120	34	5936
2026-01-29 04:23:32.43	298.28	20.42	-30.8	-31.4	27.3	0.00e+00	0	32	0	2621440000	34	5975
2026-01-29 04:23:33.44	298.52	20.36	-30.8	-31.5	27.3	0.00e+00	0	32	0	2626682880	34	6077
2026-01-29 04:23:34.45	298.75	20.31	-30.8	-31.4	27.4	0.00e+00	0	32	0	2632974336	34	6020
2026-01-29 04:23:35.46	298.98	20.26	-30.9	-31.5	27.2	0.00e+00	0	32	0	2638217216	34	6076
2026-01-29 04:23:36.47	299.22	20.20	-30.8	-31.4	27.2	0.00e+00	0	32	0	2644508672	34	6015
2026-01-29 04:23:37.48	299.45	20.15	-30.9	-31.6	27.1	0.00e+00	0	32	0	2649751552	34	6135
2026-01-29 04:23:38.49	299.68	20.09	-30.9	-31.6	27.1	0.00e+00	0	32	0	2654994432	34	6134
2026-01-29 04:23:39.50	299.91	20.04	-31.0	-31.6	27.1	0.00e+00	0	32	0	2661285888	34	6108
2026-01-29 04:23:40.51	300.14	19.98	-31.1	-31.7	27.2	0.00e+00	0	32	0	2666528768	34	6219
2026-01-29 04:23:41.52	300.37	19.93	-30.9	-31.5	27.1	0.00e+00	0	32	0	2672820224	34	6073
2026-01-29 04:23:42.52	300.59	19.87	-30.8	-31.5	27.3	0.00e+00	0	32	0	2678063104	34	6092
2026-01-29 04:23:43.54	300.82	19.81	-30.9	-31.6	27.2	0.00e+00	0	32	0	2684354560	34	6142
2026-01-29 04:23:44.54	301.04	19.76	-30.9	-31.6	27.1	0.00e+00	0	32	0	2689597440	34	6150
2026-01-29 04:23:45.55	301.27	19.70	-31.1	-31.7	27.1	0.00e+00	0	32	0	2695888896	34	6202
2026-01-29 04:23:46.56	301.49	19.64	-31.0	-31.6	27.0	0.00e+00	0	32	0	2701131776	34	6142
2026-01-29 04:23:47.57	301.71	19.58	-31.0	-31.5	27.2	0.00e+00	0	32	0	2706374656	34	6102
2026-01-29 04:23:48.58	301.94	19.53	-31.0	-31.7	27.1	0.00e+00	0	32	0	2712666112	34	6211
2026-01-29 04:23:49.59	302.16	19.47	-31.0	-31.6	27.0	0.00e+00	0	32	0	2717908992	34	6156
2026-01-29 04:23:50.60	302.38	19.41	-31.1	-31.7	26.9	0.00e+00	0	32	0	2724200448	34	6181
2026-01-29 04:23:51.61	302.60	19.35	-31.0	-31.7	27.1	0.00e+00	0	32	0	2729443328	34	6174
2026-01-29 04:23:52.62	302.82	19.29	-30.9	-31.6	27.1	0.00e+00	0	32	0	2734686208	34	6143
2026-01-29 04:23:53.63	303.04	19.23	-31.0	-31.5	27.1	0.00e+00	0	32	0	2740977664	34	6086
2026-01-29 04:23:54.64	303.25	19.17	-31.0	-31.6	27.0	0.00e+00	0	32	0	2746220544	34	6124
2026-01-29 04:23:55.65	303.47	19.11	-31.2	-31.9	26.9	0.00e+00	0	32	0	2752512000	34	6378
2026-01-29 04:23:56.66	303.69	19.05	-31.2	-31.9	26.8	0.00e+00	0	32	0	2757754880	34	6388
2026-01-29 04:23:57.67	303.90	18.99	-31.3	-32.1	26.8	0.00e+00	0	32	0	2762997760	34	6479
2026-01-29 04:23:58.68	304.12	18.93	-31.4	-32.0	26.7	0.00e+00	0	32	0	2769289216	34	6444
2026-01-29 04:23:59.69	304.33	18.87	-31.3	-32.0	26.8	0.00e+00	0	32	0	2774532096	34	6397
2026-01-29 04:24:00.70	304.54	18.81	-31.4	-32.1	26.7	0.00e+00	0	32	0	2780823552	34	6467
2026-01-29 04:24:01.71	304.75	18.75	-31.3	-31.9	26.9	0.00e+00	0	32	0	2786066432	34	6335
2026-01-29 04:24:02.72	304.96	18.69	-31.3	-32.0	26.8	0.00e+00	0	32	0	2792357888	34	6400
2026-01-29 04:24:03.73	305.17	18.63	-31.2	-31.8	26.9	0.00e+00	0	32	0	2797600768	34	6296
2026-01-29 04:24:04.74	305.38	18.56	-31.2	-31.8	26.9	0.00e+00	0	32	0	2802843648	34	6275
2026-01-29 04:24:05.75	305.59	18.50	-31.2	-31.9	26.9	0.00e+00	0	32	0	2809135104	34	6362
2026-01-29 04:24:06.76	305.80	18.44	-31.1	-31.8	27.0	0.00e+00	0	32	0	2814377984	34	6263
2026-01-29 04:24:07.77	306.01	18.38	-31.2	-31.8	27.0	0.00e+00	0	32	0	2820669440	34	6291
2026-01-29 04:24:08.78	306.21	18.31	-31.3	-32.0	26.9	0.00e+00	0	32	0	2825912320	34	6435
2026-01-29 04:24:09.78	306.41	18.25	-31.3	-31.9	26.9	0.00e+00	0	32	0	2831155200	34	6330
2026-01-29 04:24:10.80	306.62	18.19	-31.5	-32.2	26.7	0.00e+00	0	32	0	2837446656	34	6560
2026-01-29 04:24:11.81	306.82	18.12	-31.4	-32.1	26.8	0.00e+00	0	32	0	2842689536	34	6493
2026-01-29 04:24:12.82	307.03	18.06	-31.3	-31.8	26.8	0.00e+00	0	32	0	2848980992	34	6307
2026-01-29 04:24:13.83	307.23	18.00	-31.3	-31.9	26.8	0.00e+00	0	32	0	2854223872	34	6326
2026-01-29 04:24:14.84	307.43	17.93	-31.3	-31.9	26.7	0.00e+00	0	32	0	2859466752	34	6333
2026-01-29 04:24:15.85	307.63	17.87	-31.6	-32.2	26.6	0.00e+00	0	32	0	2865758208	34	6597
2026-01-29 04:24:16.86	307.83	17.81	-31.7	-32.4	26.5	0.00e+00	0	32	0	2871001088	34	6714
2026-01-29 04:24:17.87	308.03	17.74	-31.8	-32.5	26.4	0.00e+00	0	32	0	2877292544	36	6052
2026-01-29 04:24:18.88	308.22	17.68	-31.9	-32.6	26.4	0.00e+00	0	32	0	2882535424	36	6146
2026-01-29 04:24:19.89	308.42	17.61	-31.8	-32.4	26.5	0.00e+00	0	32	0	2888826880	36	5974
2026-01-29 04:24:20.90	308.62	17.55	-31.8	-32.5	26.4	0.00e+00	0	32	0	2894069760	36	6082
2026-01-29 04:24:21.91	308.81	17.48	-31.9	-32.6	26.3	0.00e+00	0	32	0	2900361216	36	6142
2026-01-29 04:24:22.92	309.00	17.42	-31.9	-32.6	26.4	0.00e+00	0	32	0	2905604096	36	6168
2026-01-29 04:24:23.93	309.20	17.35	-32.0	-32.6	26.2	0.00e+00	0	32	0	2910846976	36	6122
2026-01-29 04:24:24.94	309.39	17.29	-32.1	-32.7	26.1	0.00e+00	0	32	0	2917138432	36	6237
2026-01-29 04:24:25.94	309.58	17.22	-32.3	-33.0	26.0	0.00e+00	0	32	0	2922381312	36	6444
2026-01-29 04:24:26.95	309.77	17.16	-32.1	-32.9	26.2	0.00e+00	0	32	0	2928672768	36	6343
2026-01-29 04:24:27.96	309.96	17.09	-32.0	-32.7	26.3	0.00e+00	0	32	0	2933915648	36	6220
2026-01-29 04:24:28.97	310.15	17.02	-31.8	-32.4	26.3	0.00e+00	0	32	0	2939158528	36	6005
2026-01-29 04:24:29.98	310.34	16.96	-31.8	-32.4	26.3	0.00e+00	0	32	0	2945449984	36	5995
2026-01-29 04:24:30.99	310.53	16.89	-31.9	-32.6	26.3	0.00e+00	0	32	0	2950692864	36	6133
2026-01-29 04:24:32.00	310.71	16.83	-31.8	-32.3	26.4	0.00e+00	0	32	0	2956984320	36	5964
2026-01-29 04:24:33.01	310.90	16.76	-31.8	-32.6	26.1	0.00e+00	0	32	0	2962227200	36	6110
2026-01-29 04:24:34.02	311.09	16.69	-31.8	-32.5	26.0	0.00e+00	0	32	0	2967470080	36	6070
2026-01-29 04:24:35.03	311.27	16.63	-31.8	-32.4	26.2	0.00e+00	0	32	0	2973761536	36	5986
2026-01-29 04:24:36.04	311.45	16.56	-31.7	-32.4	26.4	0.00e+00	0	32	0	2979004416	36	6022
2026-01-29 04:24:37.05	311.64	16.49	-31.8	-32.3	26.1	0.00e+00	0	32	0	2985295872	36	5947
2026-01-29 04:24:38.06	311.82	16.43	-31.7	-32.3	26.4	0.00e+00	0	32	0	2990538752	36	5914
2026-01-29 04:24:39.07	312.00	16.36	-31.7	-32.3	26.3	0.00e+00	0	32	0	2996830208	36	5900
2026-01-29 04:24:40.08	312.18	16.29	-31.7	-32.3	26.2	0.00e+00	0	32	0	3002073088	36	5903
2026-01-29 04:24:41.09	312.36	16.23	-31.7	-32.5	26.2	0.00e+00	0	32	0	3007315968	36	6043
2026-01-29 04:24:42.10	312.54	16.16	-31.8	-32.4	26.1	0.00e+00	0	32	0	3013607424	36	6001
2026-01-29 04:24:43.11	312.72	16.09	-31.8	-32.4	26.1	0.00e+00	0	32	0	3018850304	36	5980
2026-01-29 04:24:44.12	312.90	16.03	-31.9	-32.5	26.2	0.00e+00	0	32	0	3025141760	36	6075
2026-01-29 04:24:45.13	313.07	15.96	-32.0	-32.6	26.1	0.00e+00	0	32	0	3030384640	36	6115
2026-01-29 04:24:46.14	313.25	15.89	-31.9	-32.6	26.3	0.00e+00	0	32	0	3035627520	36	6127
2026-01-29 04:24:47.14	313.42	15.82	-32.1	-32.8	26.1	0.00e+00	0	32	0	3041918976	36	6297
2026-01-29 04:24:48.15	313.60	15.76	-32.2	-32.9	26.1	0.00e+00	0	32	0	3047161856	36	6319
2026-01-29 04:24:49.16	313.77	15.69	-32.1	-32.7	26.1	0.00e+00	0	32	0	3053453312	36	6240
2026-01-29 04:24:50.17	313.94	15.62	-32.1	-32.7	26.1	0.00e+00	0	32	0	3058696192	36	6192
2026-01-29 04:24:51.18	314.11	15.55	-32.1	-32.7	26.1	0.00e+00	0	32	0	3063939072	36	6192
2026-01-29 04:24:52.19	314.29	15.49	-32.3	-32.8	26.0	0.00e+00	0	32	0	3070230528	36	6316
2026-01-29 04:24:53.20	314.46	15.42	-32.1	-32.7	26.2	0.00e+00	0	32	0	3075473408	36	6223
2026-01-29 04:24:54.21	314.63	15.35	-32.2	-33.0	26.0	0.00e+00	0	32	0	3081764864	36	6400
2026-01-29 04:24:55.22	314.80	15.28	-32.3	-33.1	25.9	0.00e+00	0	32	0	3087007744	36	6475
2026-01-29 04:24:56.23	314.96	15.22	-32.5	-33.2	25.7	0.00e+00	0	32	0	3093299200	36	6608
2026-01-29 04:24:57.24	315.13	15.15	-32.6	-33.2	25.6	0.00e+00	0	32	0	3098542080	36	6613
2026-01-29 04:24:58.25	315.30	15.08	-32.6	-33.4	25.5	0.00e+00	0	32	0	3104833536	38	5994
2026-01-29 04:24:59.26	315.46	15.01	-32.6	-33.3	25.8	0.00e+00	0	32	0	3110076416	38	5922
2026-01-29 04:25:00.27	315.63	14.94	-32.7	-33.3	25.5	0.00e+00	0	32	0	3115319296	38	5952
2026-01-29 04:25:01.28	315.79	14.88	-32.5	-33.2	25.7	0.00e+00	0	32	0	3121610752	38	5836
2026-01-29 04:25:02.28	315.96	14.81	-32.6	-33.2	25.7	0.00e+00	0	32	0	3126853632	38	5882
2026-01-29 04:25:03.29	316.12	14.74	-32.5	-33.1	25.7	0.00e+00	0	32	0	3132096512	38	5823
2026-01-29 04:25:04.30	316.28	14.67	-32.9	-33.5	25.4	0.00e+00	0	32	0	3138387968	38	6049
2026-01-29 04:25:05.31	316.44	14.60	-32.2	-32.8	26.0	0.00e+00	0	32	0	3143630848	38	5608
2026-01-29 04:25:06.32	316.61	14.54	-32.4	-33.1	25.9	0.00e+00	0	32	0	3149922304	38	5802
2026-01-29 04:25:07.33	316.77	14.47	-32.4	-33.1	25.8	0.00e+00	0	32	0	3155165184	38	5824
2026-01-29 04:25:08.34	316.93	14.40	-32.7	-33.3	25.6	0.00e+00	0	32	0	3160408064	38	5902
2026-01-29 04:25:09.35	317.08	14.33	-32.4	-33.0	25.8	0.00e+00	0	32	0	3166699520	38	5741
2026-01-29 04:25:10.36	317.24	14.26	-32.5	-33.1	25.7	0.00e+00	0	32	0	3171942400	38	5766
2026-01-29 04:25:11.37	317.40	14.20	-32.6	-33.4	25.6	0.00e+00	0	32	0	3178233856	38	5972
2026-01-29 04:25:12.38	317.56	14.13	-32.5	-33.1	25.7	0.00e+00	0	32	0	3183476736	38	5816
2026-01-29 04:25:13.38	317.71	14.06	-32.3	-33.1	25.8	0.00e+00	0	32	0	3188719616	38	5769
2026-01-29 04:25:14.39	317.87	13.99	-32.5	-33.1	25.7	0.00e+00	0	32	0	3195011072	38	5769
2026-01-29 04:25:15.40	318.02	13.92	-32.4	-33.0	25.8	0.00e+00	0	32	0	3201302528	38	5707
2026-01-29 04:25:16.41	318.18	13.85	-32.5	-33.2	25.7	0.00e+00	0	32	0	3206545408	38	5869
2026-01-29 04:25:17.42	318.33	13.79	-32.5	-33.2	25.7	0.00e+00	0	32	0	3211788288	38	5891
2026-01-29 04:25:18.43	318.48	13.72	-32.5	-33.1	25.7	0.00e+00	0	32	0	3218079744	38	5779
2026-01-29 04:25:19.44	318.63	13.65	-32.6	-33.2	25.6	0.00e+00	0	32	0	3223322624	38	5863
2026-01-29 04:25:20.45	318.79	13.58	-32.6	-33.2	25.6	0.00e+00	0	32	0	3229614080	38	5853
2026-01-29 04:25:21.46	318.94	13.51	-32.5	-33.1	25.8	0.00e+00	0	32	0	3234856960	38	5772
2026-01-29 04:25:22.47	319.09	13.45	-32.5	-33.3	25.7	0.00e+00	0	32	0	3240099840	38	5916
2026-01-29 04:25:23.48	319.24	13.38	-32.6	-33.3	25.6	0.00e+00	0	32	0	3246391296	38	5928
2026-01-29 04:25:24.49	319.38	13.31	-32.6	-33.2	25.6	0.00e+00	0	32	0	3251634176	38	5869
2026-01-29 04:25:25.50	319.53	13.24	-32.6	-33.1	25.6	0.00e+00	0	32	0	3257925632	38	5826
2026-01-29 04:25:26.51	319.68	13.17	-32.6	-33.2	25.6	0.00e+00	0	32	0	3263168512	38	5888
2026-01-29 04:25:27.52	319.83	13.11	-32.7	-33.3	25.5	0.00e+00	0	32	0	3268411392	38	5933
2026-01-29 04:25:28.53	319.97	13.04	-32.8	-33.6	25.4	0.00e+00	0	32	0	3274702848	38	6107
2026-01-29 04:25:29.54	320.12	12.97	-32.9	-33.5	25.3	0.00e+00	0	32	0	3279945728	38	6082
2026-01-29 04:25:30.55	320.26	12.90	-32.9	-33.5	25.4	0.00e+00	0	32	0	3286237184	38	6053
2026-01-29 04:25:31.56	320.41	12.83	-32.9	-33.6	25.3	0.00e+00	0	32	0	3291480064	38	6165
2026-01-29 04:25:32.57	320.55	12.77	-33.0	-33.7	25.3	0.00e+00	0	32	0	3296722944	38	6232
2026-01-29 04:25:33.58	320.69	12.70	-32.8	-33.6	25.4	0.00e+00	0	32	0	3303014400	38	6132
2026-01-29 04:25:34.59	320.84	12.63	-32.9	-33.5	25.3	0.00e+00	0	32	0	3308257280	38	6055
2026-01-29 04:25:35.59	320.98	12.56	-32.8	-33.4	25.4	0.00e+00	0	32	0	3314548736	38	5995
2026-01-29 04:25:36.60	321.12	12.50	-32.7	-33.4	25.5	0.00e+00	0	32	0	3319791616	38	5997
2026-01-29 04:25:37.61	321.26	12.43	-32.9	-33.5	25.3	0.00e+00	0	32	0	3326083072	38	6071
2026-01-29 04:25:38.62	321.40	12.36	-32.9	-33.4	25.3	0.00e+00	0	32	0	3331325952	38	6027
2026-01-29 04:25:39.63	321.54	12.29	-33.0	-33.5	25.2	0.00e+00	0	32	0	3336568832	38	6102
2026-01-29 04:25:40.64	321.67	12.23	-32.8	-33.4	25.4	0.00e+00	0	32	0	3342860288	38	6016
2026-01-29 04:25:41.65	321.81	12.16	-32.8	-33.4	25.3	0.00e+00	0	32	0	3348103168	38	6011
2026-01-29 04:25:42.66	321.95	12.09	-32.9	-33.5	25.2	0.00e+00	0	32	0	3354394624	38	6093
2026-01-29 04:25:43.67	322.09	12.02	-33.0	-33.8	25.2	0.00e+00	0	32	0	3359637504	38	6282
2026-01-29 04:25:44.68	322.22	11.96	-33.1	-33.7	25.1	0.00e+00	0	32	0	3364880384	38	6244
2026-01-29 04:25:45.69	322.36	11.89	-33.0	-33.8	25.1	0.00e+00	0	32	0	3371171840	38	6266
2026-01-29 04:25:46.70	322.49	11.82	-33.3	-33.9	24.8	0.00e+00	0	32	0	3376414720	38	6378
2026-01-29 04:25:47.71	322.63	11.75	-33.3	-34.1	24.9	0.00e+00	0	32	0	3382706176	38	6476
2026-01-29 04:25:48.72	322.76	11.69	-33.4	-34.1	24.9	0.00e+00	0	32	0	3387949056	38	6489
2026-01-29 04:25:49.73	322.89	11.62	-33.6	-34.2	24.6	0.00e+00	0	32	0	3393191936	38	6598
2026-01-29 04:25:50.74	323.03	11.55	-33.9	-34.5	24.4	0.00e+00	0	32	0	3399483392	40	6088
2026-01-29 04:25:51.75	323.16	11.49	-33.9	-34.6	24.4	0.00e+00	0	32	0	3404726272	40	6160
2026-01-29 04:25:52.76	323.29	11.42	-34.4	-35.0	24.0	0.00e+00	0	32	0	3411017728	40	6438
2026-01-29 04:25:53.77	323.42	11.35	-34.0	-34.8	24.1	0.00e+00	0	32	0	3416260608	40	6292
2026-01-29 04:25:54.78	323.55	11.28	-34.2	-34.8	24.1	0.00e+00	0	32	0	3422552064	40	6275
2026-01-29 04:25:55.78	323.68	11.22	-34.6	-35.4	23.9	0.00e+00	0	32	0	3427794944	40	6714
2026-01-29 04:25:56.79	323.81	11.15	-34.3	-35.0	23.7	0.00e+00	0	32	0	3433037824	40	6437
2026-01-29 04:25:57.80	323.94	11.08	-34.0	-34.6	24.2	0.00e+00	0	32	0	3439329280	40	6152
2026-01-29 04:25:58.81	324.06	11.02	-34.1	-34.9	24.1	0.00e+00	0	32	0	3444572160	40	6358
2026-01-29 04:25:59.82	324.19	10.95	-34.1	-34.8	24.0	0.00e+00	0	32	0	3450863616	40	6283
2026-01-29 04:26:00.83	324.32	10.88	-34.4	-35.1	23.8	0.00e+00	0	32	0	3456106496	40	6510
2026-01-29 04:26:01.84	324.44	10.82	-33.9	-34.5	24.3	0.00e+00	0	32	0	3461349376	40	6080
2026-01-29 04:26:02.85	324.57	10.75	-34.1	-34.8	24.1	0.00e+00	0	32	0	3467640832	40	6289
2026-01-29 04:26:03.86	324.69	10.69	-33.8	-34.6	24.4	0.00e+00	0	32	0	3472883712	40	6115
2026-01-29 04:26:04.87	324.82	10.62	-33.9	-34.6	24.3	0.00e+00	0	32	0	3479175168	40	6134
2026-01-29 04:26:05.88	324.94	10.55	-34.2	-35.0	24.0	0.00e+00	0	32	0	3484418048	40	6392
2026-01-29 04:26:06.89	325.07	10.49	-34.1	-34.7	24.1	0.00e+00	0	32	0	3489660928	40	6235
2026-01-29 04:26:07.90	325.19	10.42	-33.9	-34.7	24.2	0.00e+00	0	32	0	3495952384	40	6183
2026-01-29 04:26:08.91	325.31	10.35	-33.7	-34.5	24.3	0.00e+00	0	32	0	3501195264	40	6039
2026-01-29 04:26:09.92	325.43	10.29	-33.7	-34.4	24.6	0.00e+00	0	32	0	3507486720	40	6007
2026-01-29 04:26:10.93	325.56	10.22	-33.5	-34.2	24.6	0.00e+00	0	32	0	3512729600	40	5842
2026-01-29 04:26:11.94	325.68	10.16	-33.6	-34.3	24.6	0.00e+00	0	32	0	3519021056	40	5949
2026-01-29 04:26:12.95	325.80	10.09	-33.4	-34.0	24.7	0.00e+00	0	32	0	3524263936	40	5750
2026-01-29 04:26:13.95	325.92	10.03	-33.4	-34.0	24.6	0.00e+00	0	32	0	3530555392	40	5746
2026-01-29 04:26:14.96	326.03	9.96	-33.5	-34.1	24.7	0.00e+00	0	32	0	3535798272	40	5811
2026-01-29 04:26:15.97	326.15	9.90	-33.5	-34.3	24.6	0.00e+00	0	32	0	3541041152	40	5912
2026-01-29 04:26:16.98	326.27	9.83	-33.6	-34.3	24.5	0.00e+00	0	32	0	3547332608	40	5899
2026-01-29 04:26:17.99	326.39	9.76	-33.6	-34.3	24.4	0.00e+00	0	32	0	3552575488	40	5956
2026-01-29 04:26:19.00	326.51	9.70	-33.7	-34.3	24.4	0.00e+00	0	32	0	3558866944	40	5940
2026-01-29 04:26:20.01	326.62	9.63	-33.8	-34.5	24.4	0.00e+00	0	32	0	3564109824	40	6076
2026-01-29 04:26:21.02	326.74	9.57	-33.7	-34.3	24.3	0.00e+00	0	32	0	3569352704	40	5956
2026-01-29 04:26:22.03	326.86	9.50	-33.8	-34.4	24.3	0.00e+00	0	32	0	3575644160	40	6012
2026-01-29 04:26:23.04	326.97	9.44	-33.9	-34.6	24.2	0.00e+00	0	32	0	3580887040	40	6159
2026-01-29 04:26:24.05	327.09	9.37	-34.0	-34.8	24.0	0.00e+00	0	32	0	3587178496	40	6278
2026-01-29 04:26:25.06	327.20	9.31	-34.0	-34.7	24.1	0.00e+00	0	32	0	3592421376	40	6199
2026-01-29 04:26:26.07	327.31	9.24	-34.0	-34.6	24.1	0.00e+00	0	32	0	3597664256	40	6136
2026-01-29 04:26:27.08	327.43	9.18	-34.3	-35.1	23.9	0.00e+00	0	32	0	3603955712	40	6503
