passes_logs/2026/01/29/R4.6S_Anadyr/R4.6S_Anadyr__20260129_204037_NOAA_20_JPSS-1_rec.log

#Pass ID: 20260129_204037_NOAA 20 (JPSS-1)
#Satellite: NOAA 20 (JPSS-1)
#Configuration: NOAA 20
#almurnet v.1.7.20251203
#Start time: 2026-01-29 20:40:39

#Version: 2.2.20231116
#Station: R4.6S_Anadyr
#Location: 177.4865 lon 64.73178 lat
#TLE: 1 43013U 17073A   26028.86313978  .00000144  00000+0  89200-4 0  9993
#TLE: 2 43013  98.7648 329.6571 0000891  20.0014 340.1197 14.19541559424709

#Time	Az	El	Level	Level2	SNR	BER	BlckErr	Temp	State	Recorded	gain1	gain2
2026-01-29 20:40:39.12	74.60	0.06	-49.1	-64.0	3.6	1.51e+00	0	31	0	0	60	57309
2026-01-29 20:40:40.13	74.53	0.12	-49.1	-64.3	3.6	1.51e+00	0	32	104	0	60	59199
2026-01-29 20:40:41.14	74.46	0.17	-49.1	-64.2	3.6	1.51e+00	0	33	104	0	60	58941
2026-01-29 20:40:42.15	74.38	0.22	-49.1	-64.3	3.6	1.51e+00	0	32	104	0	60	59297
2026-01-29 20:40:43.17	74.31	0.27	-49.1	-64.3	3.6	1.51e+00	0	33	104	0	60	59521
2026-01-29 20:40:44.18	74.24	0.32	-49.1	-64.3	3.6	1.51e+00	0	32	104	0	60	59440
2026-01-29 20:40:45.18	74.17	0.37	-49.1	-64.3	3.6	1.51e+00	0	33	104	0	60	59293
2026-01-29 20:40:46.20	74.10	0.42	-49.1	-64.3	3.6	1.51e+00	0	33	104	0	60	59216
2026-01-29 20:40:47.21	74.02	0.47	-49.0	-64.3	3.6	1.51e+00	0	33	104	0	60	59382
2026-01-29 20:40:48.22	73.95	0.52	-49.1	-64.4	3.6	1.51e+00	0	33	104	0	60	59652
2026-01-29 20:40:49.23	73.88	0.57	-49.2	-64.4	3.6	1.51e+00	0	33	104	0	60	59909
2026-01-29 20:40:50.24	73.80	0.63	-49.2	-64.3	3.6	1.51e+00	0	33	104	0	60	59574
2026-01-29 20:40:51.25	73.73	0.68	-49.2	-64.4	3.6	1.51e+00	0	33	104	0	60	59745
2026-01-29 20:40:52.26	73.66	0.73	-49.2	-64.3	3.6	1.51e+00	0	33	104	0	60	59586
2026-01-29 20:40:53.27	73.58	0.78	-49.1	-64.3	3.6	1.51e+00	0	33	104	0	60	59610
2026-01-29 20:40:54.28	73.51	0.83	-49.2	-64.4	3.6	1.51e+00	0	33	104	0	60	59841
2026-01-29 20:40:55.29	73.43	0.88	-49.1	-64.4	3.6	1.51e+00	0	33	104	0	60	60008
2026-01-29 20:40:56.30	73.36	0.93	-49.1	-64.3	3.6	1.51e+00	0	33	104	0	60	59232
2026-01-29 20:40:57.31	73.28	0.99	-48.9	-64.2	3.6	1.51e+00	0	33	104	0	60	58916
2026-01-29 20:40:58.32	73.21	1.04	-48.9	-64.2	3.5	1.51e+00	0	33	104	0	60	58368
2026-01-29 20:40:59.33	73.13	1.09	-48.8	-64.1	3.6	1.51e+00	0	33	104	0	60	58093
2026-01-29 20:41:00.34	73.06	1.14	-48.7	-64.0	3.6	1.51e+00	0	33	104	0	60	57338
2026-01-29 20:41:01.35	72.98	1.19	-48.6	-63.9	3.6	1.51e+00	0	33	104	0	60	56542
2026-01-29 20:41:02.36	72.90	1.24	-48.5	-63.7	3.6	1.51e+00	0	33	104	0	60	55087
2026-01-29 20:41:03.37	72.83	1.30	-48.2	-63.4	3.6	1.51e+00	0	33	104	0	60	53514
2026-01-29 20:41:04.38	72.75	1.35	-47.6	-62.8	3.6	1.51e+00	0	33	104	0	60	49971
2026-01-29 20:41:05.39	72.67	1.40	-47.5	-62.7	3.6	1.51e+00	0	33	104	0	60	49606
2026-01-29 20:41:06.40	72.59	1.45	-47.5	-62.7	3.6	1.51e+00	0	33	104	0	60	49543
2026-01-29 20:41:07.41	72.52	1.50	-47.5	-62.8	3.6	1.51e+00	0	33	104	0	60	49645
2026-01-29 20:41:08.42	72.44	1.56	-47.5	-62.7	3.6	1.51e+00	0	33	104	0	60	49396
2026-01-29 20:41:09.43	72.36	1.61	-47.5	-62.8	3.6	1.51e+00	0	33	104	0	60	49790
2026-01-29 20:41:10.44	72.28	1.66	-47.5	-62.7	3.6	1.51e+00	0	33	104	0	60	49525
2026-01-29 20:41:11.45	72.20	1.71	-47.5	-62.7	3.6	1.51e+00	0	33	104	0	60	49298
2026-01-29 20:41:12.46	72.12	1.76	-47.5	-62.7	3.6	1.51e+00	0	33	104	0	60	49066
2026-01-29 20:41:13.47	72.04	1.82	-47.5	-62.6	3.5	1.51e+00	0	33	104	0	60	48992
2026-01-29 20:41:14.48	71.96	1.87	-47.5	-62.7	3.6	1.51e+00	0	33	104	0	60	49320
2026-01-29 20:41:15.49	71.88	1.92	-47.5	-62.7	3.6	1.51e+00	0	33	104	0	60	49311
2026-01-29 20:41:16.50	71.80	1.97	-47.5	-62.7	3.6	1.51e+00	0	33	104	0	60	49244
2026-01-29 20:41:17.51	71.72	2.03	-47.5	-62.7	3.6	1.51e+00	0	33	104	0	60	49564
2026-01-29 20:41:18.52	71.64	2.08	-47.5	-62.7	3.6	1.51e+00	0	33	104	0	60	49514
2026-01-29 20:41:19.52	71.56	2.13	-47.5	-62.7	3.6	1.51e+00	0	33	104	0	60	49374
2026-01-29 20:41:20.53	71.48	2.18	-47.5	-62.6	3.6	1.51e+00	0	33	104	0	60	48728
2026-01-29 20:41:21.55	71.39	2.24	-47.5	-62.6	3.6	1.51e+00	0	33	104	0	60	48588
2026-01-29 20:41:22.56	71.31	2.29	-47.5	-62.6	3.6	1.51e+00	0	33	104	0	60	48959
2026-01-29 20:41:23.57	71.23	2.34	-47.5	-62.7	3.6	1.51e+00	0	33	104	0	60	49146
2026-01-29 20:41:24.58	71.14	2.39	-47.5	-62.7	3.6	1.51e+00	0	33	104	0	60	49188
2026-01-29 20:41:25.59	71.06	2.45	-47.5	-62.7	3.6	1.51e+00	0	33	104	0	60	49117
2026-01-29 20:41:26.60	70.98	2.50	-47.5	-62.6	3.6	1.51e+00	0	33	104	0	60	48978
2026-01-29 20:41:27.61	70.89	2.55	-47.5	-62.7	3.6	1.51e+00	0	33	104	0	60	49091
2026-01-29 20:41:28.62	70.81	2.60	-47.5	-62.7	3.6	1.51e+00	0	33	104	0	60	49447
2026-01-29 20:41:29.63	70.72	2.66	-47.5	-62.7	3.6	1.51e+00	0	33	104	0	60	49244
2026-01-29 20:41:30.64	70.64	2.71	-47.5	-62.3	3.6	1.51e+00	0	33	104	0	60	46929
2026-01-29 20:41:31.65	70.55	2.76	-47.5	-62.0	3.6	1.51e+00	0	33	104	0	60	45662
2026-01-29 20:41:32.66	70.47	2.82	-47.5	-62.4	3.6	1.51e+00	0	33	104	0	60	47816
2026-01-29 20:41:33.67	70.38	2.87	-47.5	-62.6	3.6	1.51e+00	0	33	104	0	60	48495
2026-01-29 20:41:34.68	70.30	2.92	-47.3	-59.2	3.7	1.51e+00	0	33	104	0	60	32994
2026-01-29 20:41:35.69	70.21	2.98	-47.0	-55.6	6.1	4.39e-01	92	33	104	0	60	21825
2026-01-29 20:41:36.70	70.12	3.03	-46.2	-51.7	9.6	6.40e-02	90	33	0	1048576	60	13907
2026-01-29 20:41:37.71	70.04	3.08	-46.9	-54.7	6.0	4.55e-03	92	33	0	3145728	60	19566
2026-01-29 20:41:38.72	69.95	3.13	-47.6	-62.8	3.6	8.77e-01	0	33	104	4194304	60	49922
2026-01-29 20:41:39.73	69.86	3.19	-44.0	-46.9	15.2	1.32e+00	11	33	104	4194304	60	7992
2026-01-29 20:41:40.74	69.77	3.24	-43.8	-46.4	14.0	0.00e+00	90	33	0	4194304	58	8503
2026-01-29 20:41:41.75	69.68	3.29	-45.3	-49.6	7.5	4.54e-04	0	33	0	6291456	58	12251
2026-01-29 20:41:42.76	69.60	3.35	-45.7	-50.6	5.6	1.49e+00	0	33	104	6291456	60	12230
2026-01-29 20:41:43.77	69.51	3.40	-44.2	-47.3	14.4	8.44e-02	0	34	104	6291456	60	8417
2026-01-29 20:41:44.78	69.42	3.46	-44.1	-46.9	14.7	0.00e+00	92	33	0	7340032	60	8007
2026-01-29 20:41:45.79	69.33	3.51	-44.1	-47.0	14.7	0.00e+00	92	33	0	9437184	60	8126
2026-01-29 20:41:46.80	69.24	3.56	-44.5	-47.7	13.9	0.00e+00	92	33	0	11534336	60	8811
2026-01-29 20:41:47.81	69.15	3.62	-44.7	-48.0	13.7	2.20e-06	92	33	0	13631488	60	9101
2026-01-29 20:41:48.82	69.06	3.67	-44.1	-47.0	14.7	0.00e+00	32	33	0	14680064	60	8079
2026-01-29 20:41:49.83	68.96	3.72	-44.8	-48.2	13.1	1.50e-06	92	34	0	16777216	60	9340
2026-01-29 20:41:50.84	68.87	3.78	-44.7	-48.0	13.7	1.60e-05	0	33	0	18874368	60	9048
2026-01-29 20:41:51.85	68.78	3.83	-44.4	-47.5	14.6	0.00e+00	92	33	0	20971520	60	8556
2026-01-29 20:41:52.86	68.69	3.88	-44.0	-46.7	15.1	0.00e+00	92	34	0	23068672	60	7826
2026-01-29 20:41:53.87	68.60	3.94	-43.8	-46.4	15.6	1.50e-06	92	34	0	24117248	60	7553
2026-01-29 20:41:54.88	68.50	3.99	-43.1	-45.2	16.8	0.00e+00	90	34	0	26214400	60	6600
2026-01-29 20:41:55.89	68.41	4.05	-42.4	-44.3	17.5	0.00e+00	6	33	0	28311552	58	6690
2026-01-29 20:41:56.90	68.32	4.10	-42.6	-44.5	17.5	7.00e-07	92	34	0	30408704	58	6835
2026-01-29 20:41:57.91	68.22	4.15	-42.3	-44.2	17.8	0.00e+00	7	34	0	32505856	58	6540
2026-01-29 20:41:58.92	68.13	4.21	-42.3	-44.1	17.9	0.00e+00	90	33	0	33554432	58	6522
2026-01-29 20:41:59.93	68.03	4.26	-42.4	-44.2	17.8	0.00e+00	6	33	0	35651584	58	6613
2026-01-29 20:42:00.94	67.94	4.32	-42.3	-44.2	17.8	0.00e+00	92	33	0	37748736	58	6569
2026-01-29 20:42:01.95	67.84	4.37	-42.3	-44.1	17.9	0.00e+00	92	34	0	39845888	58	6512
2026-01-29 20:42:02.95	67.75	4.42	-42.1	-43.9	18.1	0.00e+00	8	34	0	41943040	58	6353
2026-01-29 20:42:03.96	67.65	4.48	-42.5	-44.4	17.4	0.00e+00	92	33	0	42991616	58	6764
2026-01-29 20:42:04.97	67.56	4.53	-42.6	-44.6	17.4	0.00e+00	0	33	0	45088768	58	6876
2026-01-29 20:42:05.99	67.46	4.59	-42.5	-44.4	17.7	0.00e+00	90	33	0	47185920	58	6732
2026-01-29 20:42:06.99	67.36	4.64	-42.4	-44.3	17.9	0.00e+00	15	33	0	49283072	58	6616
2026-01-29 20:42:08.00	67.26	4.70	-42.4	-44.2	17.8	0.00e+00	90	33	0	51380224	58	6609
2026-01-29 20:42:09.01	67.17	4.75	-42.5	-44.3	17.7	0.00e+00	92	34	0	53477376	58	6685
2026-01-29 20:42:10.02	67.07	4.80	-42.2	-44.0	18.1	0.00e+00	92	34	0	54525952	58	6405
2026-01-29 20:42:11.03	66.97	4.86	-42.4	-44.2	17.9	0.00e+00	92	33	0	56623104	58	6606
2026-01-29 20:42:12.05	66.87	4.91	-42.5	-44.4	17.7	0.00e+00	7	34	0	58720256	58	6728
2026-01-29 20:42:13.06	66.77	4.97	-42.2	-44.0	18.0	0.00e+00	91	33	0	60817408	58	6426
2026-01-29 20:42:14.07	66.67	5.02	-42.4	-44.2	17.9	0.00e+00	49	33	0	62914560	58	6587
2026-01-29 20:42:15.07	66.57	5.08	-42.4	-44.3	17.8	0.00e+00	90	33	0	63963136	58	6664
2026-01-29 20:42:16.08	66.47	5.13	-42.3	-44.1	18.0	0.00e+00	92	33	0	66060288	58	6518
2026-01-29 20:42:17.09	66.37	5.19	-42.3	-44.1	18.0	0.00e+00	90	33	0	68157440	58	6480
2026-01-29 20:42:18.10	66.27	5.24	-42.4	-44.2	17.9	0.00e+00	92	33	0	70254592	58	6594
2026-01-29 20:42:19.11	66.16	5.29	-42.4	-44.3	17.8	0.00e+00	2	33	0	72351744	58	6620
2026-01-29 20:42:20.12	66.06	5.35	-42.4	-44.2	17.9	0.00e+00	92	33	0	73400320	58	6592
2026-01-29 20:42:21.13	65.96	5.40	-42.5	-44.3	17.9	0.00e+00	0	33	0	75497472	58	6649
2026-01-29 20:42:22.14	65.86	5.46	-42.2	-44.0	18.1	0.00e+00	92	34	0	77594624	58	6426
2026-01-29 20:42:23.15	65.75	5.51	-42.1	-43.9	18.2	0.00e+00	2	34	0	79691776	58	6348
2026-01-29 20:42:24.16	65.65	5.57	-42.1	-43.8	18.3	0.00e+00	92	34	0	81788928	58	6311
2026-01-29 20:42:25.17	65.55	5.62	-42.1	-43.8	18.4	0.00e+00	92	34	0	82837504	58	6278
2026-01-29 20:42:26.18	65.44	5.68	-42.0	-43.7	18.5	0.00e+00	79	34	0	84934656	58	6222
2026-01-29 20:42:27.19	65.34	5.73	-42.1	-43.8	18.3	0.00e+00	92	34	0	87031808	58	6271
2026-01-29 20:42:28.20	65.23	5.79	-42.1	-43.8	18.4	0.00e+00	58	34	0	89128960	58	6271
2026-01-29 20:42:29.21	65.12	5.84	-42.0	-43.6	18.5	0.00e+00	90	34	0	91226112	58	6166
2026-01-29 20:42:30.22	65.02	5.90	-42.0	-43.7	18.5	0.00e+00	0	34	0	92274688	58	6183
2026-01-29 20:42:31.23	64.91	5.95	-41.8	-43.5	18.7	0.00e+00	92	34	0	94371840	58	6050
2026-01-29 20:42:32.24	64.80	6.01	-41.6	-43.2	18.9	0.00e+00	92	34	0	96468992	56	6540
2026-01-29 20:42:33.25	64.70	6.06	-41.8	-43.4	18.8	0.00e+00	92	33	0	98566144	56	6698
2026-01-29 20:42:34.26	64.59	6.12	-41.6	-43.2	19.1	0.00e+00	92	33	0	100663296	56	6553
2026-01-29 20:42:35.27	64.48	6.17	-41.7	-43.3	18.9	0.00e+00	0	33	0	101711872	56	6681
2026-01-29 20:42:36.28	64.37	6.23	-41.9	-43.5	18.7	0.00e+00	92	34	0	103809024	56	6836
2026-01-29 20:42:37.29	64.26	6.28	-41.3	-42.8	19.5	0.00e+00	4	34	0	105906176	56	6253
2026-01-29 20:42:38.30	64.15	6.34	-41.6	-43.1	19.2	0.00e+00	91	33	0	108003328	56	6507
2026-01-29 20:42:39.31	64.04	6.39	-41.8	-43.4	18.9	0.00e+00	91	34	0	110100480	56	6694
2026-01-29 20:42:40.32	63.93	6.45	-41.6	-43.1	19.3	0.00e+00	92	34	0	111149056	56	6488
2026-01-29 20:42:41.33	63.82	6.50	-41.3	-42.8	19.6	0.00e+00	92	33	0	113246208	56	6247
2026-01-29 20:42:42.33	63.71	6.56	-41.5	-42.9	19.4	0.00e+00	7	34	0	115343360	56	6379
2026-01-29 20:42:43.34	63.60	6.61	-41.7	-43.3	19.1	0.00e+00	91	34	0	117440512	56	6637
2026-01-29 20:42:44.35	63.49	6.67	-41.7	-43.2	19.1	0.00e+00	26	34	0	119537664	56	6612
2026-01-29 20:42:45.36	63.38	6.72	-41.3	-42.7	19.7	0.00e+00	92	34	0	121634816	56	6220
2026-01-29 20:42:46.37	63.26	6.78	-41.1	-42.5	19.8	0.00e+00	31	34	0	122683392	56	6093
2026-01-29 20:42:47.39	63.15	6.83	-41.0	-42.4	19.8	0.00e+00	90	34	0	124780544	56	6021
2026-01-29 20:42:48.40	63.03	6.89	-41.0	-42.4	19.9	0.00e+00	92	34	0	126877696	56	6004
2026-01-29 20:42:49.40	62.92	6.94	-41.1	-42.4	19.9	0.00e+00	61	34	0	128974848	56	6021
2026-01-29 20:42:50.41	62.81	7.00	-41.2	-42.6	19.7	0.00e+00	90	34	0	131072000	56	6149
2026-01-29 20:42:51.43	62.69	7.05	-41.3	-42.7	19.2	0.00e+00	0	34	0	132120576	56	6175
2026-01-29 20:42:52.43	62.57	7.11	-41.4	-42.8	19.5	0.00e+00	91	34	0	134217728	56	6291
2026-01-29 20:42:53.44	62.46	7.16	-41.2	-42.6	19.6	0.00e+00	76	34	0	136314880	56	6155
2026-01-29 20:42:54.45	62.34	7.22	-41.1	-42.5	19.9	0.00e+00	92	34	0	138412032	56	6084
2026-01-29 20:42:55.46	62.22	7.27	-41.1	-42.5	19.9	0.00e+00	92	34	0	140509184	56	6077
2026-01-29 20:42:56.47	62.11	7.33	-41.1	-42.5	19.9	0.00e+00	88	34	0	141557760	56	6065
2026-01-29 20:42:57.48	61.99	7.39	-41.1	-42.4	19.9	0.00e+00	92	34	0	143654912	56	6023
2026-01-29 20:42:58.49	61.87	7.44	-41.1	-42.5	19.9	0.00e+00	0	34	0	145752064	56	6058
2026-01-29 20:42:59.50	61.75	7.50	-41.0	-42.4	20.0	0.00e+00	91	34	0	147849216	56	5966
2026-01-29 20:43:00.51	61.63	7.55	-40.8	-42.1	20.3	0.00e+00	0	34	0	149946368	56	5787
2026-01-29 20:43:01.52	61.51	7.61	-40.8	-42.2	20.3	0.00e+00	90	34	0	150994944	56	5838
2026-01-29 20:43:02.53	61.39	7.66	-40.7	-42.0	20.4	0.00e+00	91	34	0	153092096	54	6396
2026-01-29 20:43:03.54	61.27	7.72	-40.6	-41.9	20.4	0.00e+00	90	34	0	155189248	54	6375
2026-01-29 20:43:04.55	61.15	7.77	-40.8	-42.1	20.2	0.00e+00	92	34	0	157286400	54	6493
2026-01-29 20:43:05.56	61.03	7.83	-40.8	-42.1	20.2	0.00e+00	14	33	0	159383552	54	6476
2026-01-29 20:43:06.57	60.91	7.88	-40.8	-42.1	20.2	0.00e+00	91	34	0	160432128	54	6513
2026-01-29 20:43:07.58	60.78	7.94	-40.9	-42.3	20.1	0.00e+00	2	34	0	162529280	54	6622
2026-01-29 20:43:08.59	60.66	7.99	-41.1	-42.4	19.9	0.00e+00	91	34	0	164626432	54	6766
2026-01-29 20:43:09.60	60.54	8.05	-41.1	-42.4	19.9	0.00e+00	26	34	0	166723584	54	6763
2026-01-29 20:43:10.61	60.41	8.10	-41.0	-42.4	20.0	0.00e+00	91	33	0	168820736	54	6702
2026-01-29 20:43:11.62	60.29	8.16	-41.0	-42.3	20.0	0.00e+00	90	34	0	169869312	54	6682
2026-01-29 20:43:12.63	60.16	8.21	-40.9	-42.2	20.3	0.00e+00	67	34	0	171966464	54	6594
2026-01-29 20:43:13.64	60.04	8.27	-41.0	-42.3	20.1	0.00e+00	91	34	0	174063616	54	6662
2026-01-29 20:43:14.65	59.91	8.33	-41.0	-42.4	19.9	0.00e+00	64	34	0	176160768	54	6707
2026-01-29 20:43:15.66	59.78	8.38	-40.8	-42.1	20.1	0.00e+00	91	34	0	178257920	54	6526
2026-01-29 20:43:16.67	59.66	8.44	-40.9	-42.3	20.1	0.00e+00	66	34	0	179306496	54	6629
2026-01-29 20:43:17.68	59.53	8.49	-40.9	-42.2	20.1	0.00e+00	91	34	0	181403648	54	6594
2026-01-29 20:43:18.69	59.40	8.55	-40.8	-42.1	20.4	0.00e+00	91	34	0	183500800	54	6468
2026-01-29 20:43:19.70	59.27	8.60	-40.7	-42.0	20.4	0.00e+00	91	34	0	185597952	54	6416
2026-01-29 20:43:20.71	59.14	8.66	-40.7	-42.0	20.4	0.00e+00	90	34	0	187695104	54	6394
2026-01-29 20:43:21.72	59.02	8.71	-40.6	-41.8	20.6	0.00e+00	0	34	0	189792256	54	6291
2026-01-29 20:43:22.73	58.89	8.77	-40.5	-41.7	20.7	0.00e+00	92	34	0	190840832	54	6228
2026-01-29 20:43:23.74	58.75	8.82	-40.5	-41.7	20.7	0.00e+00	0	34	0	192937984	54	6219
2026-01-29 20:43:24.75	58.62	8.88	-40.5	-41.7	20.7	0.00e+00	91	34	0	195035136	54	6242
2026-01-29 20:43:25.76	58.49	8.93	-40.4	-41.6	20.7	0.00e+00	90	34	0	197132288	54	6163
2026-01-29 20:43:26.77	58.36	8.99	-40.5	-41.7	20.7	0.00e+00	92	34	0	199229440	54	6223
2026-01-29 20:43:27.78	58.23	9.04	-40.4	-41.7	20.7	0.00e+00	92	34	0	200278016	54	6202
2026-01-29 20:43:28.79	58.09	9.10	-40.5	-41.8	20.6	0.00e+00	47	34	0	202375168	54	6251
2026-01-29 20:43:29.80	57.96	9.15	-40.4	-41.7	20.6	0.00e+00	92	34	0	204472320	54	6182
2026-01-29 20:43:30.81	57.83	9.21	-40.4	-41.6	20.7	0.00e+00	49	34	0	206569472	54	6159
2026-01-29 20:43:31.82	57.69	9.26	-40.4	-41.6	20.7	0.00e+00	92	34	0	208666624	54	6172
2026-01-29 20:43:32.83	57.56	9.32	-40.4	-41.6	20.8	0.00e+00	24	34	0	209715200	54	6157
2026-01-29 20:43:33.84	57.42	9.37	-40.4	-41.6	20.8	0.00e+00	92	34	0	211812352	54	6150
2026-01-29 20:43:34.85	57.29	9.43	-40.4	-41.6	20.8	0.00e+00	92	34	0	213909504	54	6150
2026-01-29 20:43:35.86	57.15	9.48	-40.4	-41.6	20.8	0.00e+00	49	34	0	216006656	54	6137
2026-01-29 20:43:36.87	57.01	9.53	-40.4	-41.6	20.9	0.00e+00	92	34	0	218103808	54	6150
2026-01-29 20:43:37.88	56.87	9.59	-40.3	-41.5	21.0	0.00e+00	59	34	0	219152384	54	6092
2026-01-29 20:43:38.89	56.74	9.64	-40.3	-41.5	21.0	0.00e+00	92	34	0	221249536	54	6070
2026-01-29 20:43:39.90	56.60	9.70	-40.3	-41.6	20.9	0.00e+00	0	34	0	223346688	54	6115
2026-01-29 20:43:40.91	56.46	9.75	-40.4	-41.6	20.9	0.00e+00	92	34	0	225443840	54	6154
2026-01-29 20:43:41.92	56.32	9.81	-40.4	-41.6	20.9	0.00e+00	92	34	0	227540992	54	6155
2026-01-29 20:43:42.93	56.18	9.86	-40.4	-41.7	20.9	7.00e-07	4	34	0	228589568	54	6188
2026-01-29 20:43:43.94	56.04	9.92	-40.6	-41.8	20.7	0.00e+00	92	34	0	230686720	54	6302
2026-01-29 20:43:44.95	55.90	9.97	-40.7	-41.9	20.6	0.00e+00	0	34	0	232783872	54	6387
2026-01-29 20:43:45.96	55.75	10.02	-40.5	-41.8	20.7	0.00e+00	92	34	0	234881024	54	6263
2026-01-29 20:43:46.97	55.61	10.08	-40.6	-41.9	20.6	0.00e+00	0	34	0	236978176	54	6336
2026-01-29 20:43:47.98	55.47	10.13	-40.7	-42.0	20.6	0.00e+00	92	34	0	238026752	54	6401
2026-01-29 20:43:48.99	55.32	10.19	-40.5	-41.7	20.8	0.00e+00	92	34	0	240123904	54	6200
2026-01-29 20:43:50.00	55.18	10.24	-40.5	-41.8	20.8	0.00e+00	71	34	0	242221056	54	6251
2026-01-29 20:43:51.01	55.04	10.30	-40.3	-41.5	21.0	0.00e+00	92	34	0	244318208	54	6078
2026-01-29 20:43:52.02	54.89	10.35	-40.5	-41.7	20.9	0.00e+00	60	34	0	246415360	54	6197
2026-01-29 20:43:53.03	54.75	10.40	-40.3	-41.5	21.0	0.00e+00	92	34	0	247463936	54	6084
2026-01-29 20:43:54.04	54.60	10.46	-40.4	-41.6	21.0	0.00e+00	49	34	0	249561088	54	6128
2026-01-29 20:43:55.05	54.45	10.51	-40.5	-41.7	21.0	0.00e+00	92	34	0	251658240	54	6186
2026-01-29 20:43:56.06	54.30	10.56	-40.6	-41.8	20.8	0.00e+00	92	34	0	253755392	54	6287
2026-01-29 20:43:57.07	54.16	10.62	-40.5	-41.7	20.8	0.00e+00	92	34	0	255852544	54	6221
2026-01-29 20:43:58.08	54.01	10.67	-40.7	-42.0	20.7	0.00e+00	92	34	0	257949696	54	6404
2026-01-29 20:43:59.09	53.86	10.72	-40.5	-41.7	20.9	0.00e+00	0	34	0	258998272	54	6214
2026-01-29 20:44:00.10	53.71	10.78	-40.5	-41.7	20.8	0.00e+00	92	34	0	261095424	54	6231
2026-01-29 20:44:01.11	53.56	10.83	-40.6	-41.9	20.7	0.00e+00	0	34	0	263192576	54	6325
2026-01-29 20:44:02.12	53.41	10.88	-40.6	-41.8	20.8	0.00e+00	92	34	0	265289728	54	6278
2026-01-29 20:44:03.13	53.26	10.94	-40.7	-41.9	20.7	0.00e+00	6	34	0	267386880	54	6352
2026-01-29 20:44:04.14	53.11	10.99	-40.5	-41.8	20.8	0.00e+00	28	34	0	268435456	54	6264
2026-01-29 20:44:05.15	52.95	11.04	-40.5	-41.8	20.8	0.00e+00	92	34	0	270532608	54	6256
2026-01-29 20:44:06.16	52.80	11.10	-40.4	-41.6	21.0	0.00e+00	35	34	0	272629760	54	6142
2026-01-29 20:44:07.17	52.65	11.15	-40.4	-41.6	21.0	0.00e+00	92	34	0	274726912	54	6144
2026-01-29 20:44:08.18	52.49	11.20	-40.2	-41.4	21.2	0.00e+00	35	34	0	276824064	54	5975
2026-01-29 20:44:09.19	52.34	11.26	-40.2	-41.4	21.3	0.00e+00	92	34	0	277872640	54	5983
2026-01-29 20:44:10.20	52.18	11.31	-40.2	-41.4	21.2	0.00e+00	0	34	0	279969792	54	5990
2026-01-29 20:44:11.21	52.03	11.36	-40.1	-41.2	21.3	0.00e+00	92	34	0	282066944	54	5894
2026-01-29 20:44:12.22	51.87	11.41	-40.1	-41.3	21.3	0.00e+00	89	34	0	284164096	54	5898
2026-01-29 20:44:13.23	51.71	11.46	-40.0	-41.2	21.5	0.00e+00	80	34	0	286261248	54	5834
2026-01-29 20:44:14.24	51.56	11.52	-40.1	-41.2	21.4	0.00e+00	90	34	0	287309824	54	5887
2026-01-29 20:44:15.25	51.40	11.57	-39.9	-41.0	21.7	0.00e+00	7	34	0	289406976	54	5713
2026-01-29 20:44:16.26	51.24	11.62	-40.1	-41.2	21.5	0.00e+00	92	34	0	291504128	54	5867
2026-01-29 20:44:17.27	51.08	11.67	-39.9	-41.1	21.6	0.00e+00	59	34	0	293601280	54	5774
2026-01-29 20:44:18.28	50.92	11.72	-39.8	-40.9	21.7	0.00e+00	92	34	0	295698432	54	5683
2026-01-29 20:44:19.29	50.76	11.78	-39.8	-40.9	21.8	0.00e+00	29	34	0	297795584	52	6340
2026-01-29 20:44:20.30	50.60	11.83	-39.3	-40.4	22.1	0.00e+00	71	34	0	298844160	52	5977
2026-01-29 20:44:21.31	50.44	11.88	-39.3	-40.3	22.3	0.00e+00	92	34	0	300941312	52	5937
2026-01-29 20:44:22.32	50.28	11.93	-39.4	-40.4	22.2	0.00e+00	7	34	0	303038464	52	5996
2026-01-29 20:44:23.33	50.11	11.98	-39.5	-40.5	22.1	0.00e+00	90	34	0	305135616	52	6093
2026-01-29 20:44:24.34	49.95	12.03	-39.2	-40.3	22.3	0.00e+00	34	34	0	307232768	52	5910
2026-01-29 20:44:25.35	49.79	12.08	-38.9	-39.9	22.7	0.00e+00	92	34	0	308281344	52	5666
2026-01-29 20:44:26.36	49.62	12.13	-38.8	-39.8	22.7	0.00e+00	0	34	0	310378496	52	5583
2026-01-29 20:44:27.37	49.46	12.19	-38.9	-39.9	22.7	0.00e+00	0	34	0	312475648	52	5636
2026-01-29 20:44:28.38	49.29	12.24	-38.8	-39.7	22.8	0.00e+00	92	34	0	314572800	52	5560
2026-01-29 20:44:29.39	49.13	12.29	-38.8	-39.8	22.7	0.00e+00	33	34	0	316669952	52	5611
2026-01-29 20:44:30.40	48.96	12.34	-38.9	-39.9	22.7	0.00e+00	92	34	0	317718528	52	5658
2026-01-29 20:44:31.41	48.79	12.39	-38.9	-39.9	22.7	0.00e+00	47	34	0	319815680	52	5643
2026-01-29 20:44:32.42	48.63	12.44	-38.8	-39.8	22.8	0.00e+00	92	34	0	321912832	52	5577
2026-01-29 20:44:33.43	48.46	12.49	-38.8	-39.7	22.8	0.00e+00	55	34	0	324009984	52	5563
2026-01-29 20:44:34.44	48.29	12.54	-38.9	-39.9	22.8	0.00e+00	6	34	0	326107136	52	5635
2026-01-29 20:44:35.45	48.12	12.59	-38.8	-39.8	22.7	0.00e+00	92	34	0	327155712	52	5608
2026-01-29 20:44:36.46	47.95	12.63	-38.8	-39.8	22.7	0.00e+00	50	34	0	329252864	52	5618
2026-01-29 20:44:37.47	47.78	12.68	-38.8	-39.7	22.7	0.00e+00	90	34	0	331350016	50	6241
2026-01-29 20:44:38.48	47.61	12.73	-38.7	-39.7	22.9	0.00e+00	48	34	0	333447168	50	6189
2026-01-29 20:44:39.49	47.44	12.78	-38.8	-39.8	22.7	0.00e+00	92	34	0	335544320	50	6305
2026-01-29 20:44:40.50	47.26	12.83	-38.7	-39.7	22.9	0.00e+00	0	34	0	336592896	50	6202
2026-01-29 20:44:41.51	47.09	12.88	-38.5	-39.4	23.0	0.00e+00	90	34	0	338690048	50	6008
2026-01-29 20:44:42.52	46.92	12.93	-38.4	-39.3	23.2	0.00e+00	22	34	0	340787200	50	5940
2026-01-29 20:44:43.53	46.74	12.98	-38.4	-39.3	23.2	0.00e+00	5	34	0	342884352	50	5936
2026-01-29 20:44:44.54	46.57	13.02	-38.2	-39.2	23.3	0.00e+00	92	34	0	344981504	50	5843
2026-01-29 20:44:45.55	46.39	13.07	-38.1	-39.0	23.5	0.00e+00	34	34	0	346030080	50	5745
2026-01-29 20:44:46.56	46.22	13.12	-38.1	-39.0	23.5	0.00e+00	90	34	0	348127232	50	5757
2026-01-29 20:44:47.57	46.04	13.17	-38.1	-39.0	23.5	0.00e+00	0	34	0	350224384	50	5722
2026-01-29 20:44:48.58	45.86	13.22	-38.1	-39.0	23.6	0.00e+00	90	34	0	352321536	50	5732
2026-01-29 20:44:49.59	45.69	13.26	-38.2	-39.1	23.4	0.00e+00	0	34	0	354418688	50	5811
2026-01-29 20:44:50.60	45.51	13.31	-37.9	-38.8	23.6	0.00e+00	53	34	0	355467264	50	5608
2026-01-29 20:44:51.61	45.33	13.36	-38.0	-39.0	23.5	0.00e+00	92	34	0	357564416	50	5697
2026-01-29 20:44:52.62	45.15	13.40	-37.8	-38.7	23.5	0.00e+00	53	34	0	359661568	50	5545
2026-01-29 20:44:53.63	44.97	13.45	-38.0	-38.9	23.6	0.00e+00	90	34	0	361758720	50	5634
2026-01-29 20:44:54.64	44.79	13.50	-37.9	-38.8	23.6	0.00e+00	7	34	0	363855872	50	5584
2026-01-29 20:44:55.65	44.61	13.54	-37.8	-38.7	23.7	0.00e+00	92	34	0	365953024	50	5547
2026-01-29 20:44:56.66	44.43	13.59	-37.8	-38.7	23.7	0.00e+00	54	34	0	367001600	50	5536
2026-01-29 20:44:57.67	44.24	13.63	-37.9	-38.8	23.7	0.00e+00	90	34	0	369098752	50	5572
2026-01-29 20:44:58.68	44.06	13.68	-38.1	-39.0	23.5	0.00e+00	92	34	0	371195904	50	5719
2026-01-29 20:44:59.69	43.88	13.73	-38.1	-38.9	23.6	0.00e+00	6	34	0	373293056	50	5692
2026-01-29 20:45:00.70	43.69	13.77	-38.1	-39.0	23.5	0.00e+00	91	34	0	375390208	50	5730
2026-01-29 20:45:01.71	43.51	13.82	-38.2	-39.1	23.4	0.00e+00	6	34	0	376438784	50	5802
2026-01-29 20:45:02.72	43.33	13.86	-38.1	-39.1	23.5	0.00e+00	92	34	0	378535936	50	5768
2026-01-29 20:45:03.73	43.14	13.90	-38.2	-39.1	23.4	0.00e+00	0	34	0	380633088	50	5796
2026-01-29 20:45:04.74	42.95	13.95	-38.3	-39.2	23.3	0.00e+00	92	34	0	382730240	50	5846
2026-01-29 20:45:05.75	42.77	13.99	-38.4	-39.3	23.2	0.00e+00	92	34	0	384827392	50	5928
2026-01-29 20:45:06.76	42.58	14.04	-38.3	-39.3	23.3	0.00e+00	0	34	0	385875968	50	5906
2026-01-29 20:45:07.77	42.39	14.08	-38.3	-39.3	23.3	0.00e+00	92	34	0	387973120	50	5911
2026-01-29 20:45:08.78	42.20	14.12	-38.3	-39.3	23.2	0.00e+00	0	34	0	390070272	50	5915
2026-01-29 20:45:09.79	42.01	14.17	-38.3	-39.3	23.2	0.00e+00	90	34	0	392167424	50	5900
2026-01-29 20:45:10.80	41.83	14.21	-38.4	-39.3	23.2	0.00e+00	34	34	0	394264576	50	5961
2026-01-29 20:45:11.81	41.64	14.25	-38.2	-39.1	23.4	0.00e+00	92	34	0	395313152	50	5803
2026-01-29 20:45:12.82	41.44	14.29	-38.3	-39.3	23.2	0.00e+00	16	34	0	397410304	50	5902
2026-01-29 20:45:13.83	41.25	14.34	-38.3	-39.2	23.3	0.00e+00	46	34	0	399507456	50	5878
2026-01-29 20:45:14.84	41.06	14.38	-38.3	-39.2	23.3	0.00e+00	92	34	0	401604608	50	5839
2026-01-29 20:45:15.85	40.87	14.42	-38.2	-39.1	23.4	0.00e+00	47	34	0	403701760	50	5795
2026-01-29 20:45:16.86	40.68	14.46	-38.3	-39.2	23.4	0.00e+00	92	34	0	404750336	50	5844
2026-01-29 20:45:17.87	40.48	14.50	-38.3	-39.3	23.3	0.00e+00	47	34	0	406847488	50	5897
2026-01-29 20:45:18.88	40.29	14.54	-38.4	-39.3	23.2	0.00e+00	92	34	0	408944640	50	5963
2026-01-29 20:45:19.88	40.10	14.58	-38.3	-39.2	23.3	0.00e+00	46	34	0	411041792	50	5865
2026-01-29 20:45:20.89	39.90	14.62	-38.0	-38.9	23.6	0.00e+00	34	34	0	413138944	50	5684
2026-01-29 20:45:21.90	39.71	14.66	-38.0	-38.9	23.7	0.00e+00	92	34	0	414187520	50	5694
2026-01-29 20:45:22.92	39.51	14.70	-38.2	-39.2	23.3	0.00e+00	0	34	0	416284672	50	5836
2026-01-29 20:45:23.92	39.31	14.74	-38.3	-39.2	23.4	0.00e+00	92	34	0	418381824	50	5885
2026-01-29 20:45:24.93	39.12	14.78	-38.3	-39.2	23.4	0.00e+00	0	34	0	420478976	50	5873
2026-01-29 20:45:25.94	38.92	14.82	-38.2	-39.1	23.4	0.00e+00	92	34	0	422576128	50	5813
2026-01-29 20:45:26.95	38.72	14.86	-37.9	-38.8	23.6	0.00e+00	22	34	0	423624704	50	5584
2026-01-29 20:45:27.96	38.52	14.90	-37.9	-38.8	23.7	0.00e+00	92	34	0	425721856	50	5571
2026-01-29 20:45:28.97	38.32	14.94	-37.9	-38.8	23.7	0.00e+00	72	34	0	427819008	50	5593
2026-01-29 20:45:29.98	38.13	14.98	-38.0	-38.9	23.6	0.00e+00	34	34	0	429916160	50	5644
2026-01-29 20:45:30.99	37.93	15.01	-37.8	-38.7	23.8	0.00e+00	92	34	0	432013312	50	5549
2026-01-29 20:45:32.00	37.72	15.05	-37.8	-38.7	23.8	0.00e+00	33	34	0	434110464	50	5503
2026-01-29 20:45:33.01	37.52	15.09	-37.8	-38.7	23.7	0.00e+00	92	34	0	435159040	48	6220
2026-01-29 20:45:34.02	37.32	15.12	-37.9	-38.8	23.8	0.00e+00	34	34	0	437256192	48	6271
2026-01-29 20:45:35.03	37.12	15.16	-38.0	-38.9	23.6	0.00e+00	92	34	0	439353344	48	6321
2026-01-29 20:45:36.04	36.92	15.20	-38.2	-39.0	23.4	0.00e+00	92	34	0	441450496	48	6460
2026-01-29 20:45:37.05	36.71	15.23	-37.9	-38.7	23.7	0.00e+00	47	34	0	443547648	48	6238
2026-01-29 20:45:38.05	36.51	15.27	-37.7	-38.6	23.8	0.00e+00	92	34	0	444596224	48	6124
2026-01-29 20:45:39.06	36.31	15.30	-37.6	-38.5	23.9	0.00e+00	0	34	0	446693376	48	6063
2026-01-29 20:45:40.07	36.10	15.34	-37.5	-38.4	24.1	0.00e+00	90	34	0	448790528	48	5980
2026-01-29 20:45:41.08	35.90	15.37	-37.6	-38.5	24.0	0.00e+00	47	34	0	450887680	48	6044
2026-01-29 20:45:42.09	35.69	15.41	-37.7	-38.5	23.9	0.00e+00	92	34	0	452984832	48	6083
2026-01-29 20:45:43.10	35.49	15.44	-37.7	-38.6	23.9	0.00e+00	0	34	0	454033408	48	6123
2026-01-29 20:45:44.11	35.28	15.47	-37.6	-38.4	24.0	0.00e+00	51	34	0	456130560	48	6029
2026-01-29 20:45:45.12	35.07	15.51	-37.5	-38.4	24.0	0.00e+00	88	34	0	458227712	48	5977
2026-01-29 20:45:46.13	34.87	15.54	-37.6	-38.4	24.0	0.00e+00	0	34	0	460324864	48	6022
2026-01-29 20:45:47.14	34.66	15.57	-37.7	-38.6	23.9	0.00e+00	92	34	0	462422016	48	6138
2026-01-29 20:45:48.15	34.45	15.60	-37.6	-38.5	23.9	0.00e+00	0	34	0	463470592	48	6065
2026-01-29 20:45:49.16	34.24	15.64	-37.8	-38.6	23.8	0.00e+00	91	34	0	465567744	48	6170
2026-01-29 20:45:50.17	34.03	15.67	-37.8	-38.7	23.8	0.00e+00	35	34	0	467664896	48	6181
2026-01-29 20:45:51.18	33.82	15.70	-37.9	-38.8	23.7	0.00e+00	91	34	0	469762048	48	6265
2026-01-29 20:45:52.19	33.61	15.73	-37.7	-38.6	23.9	0.00e+00	91	34	0	471859200	48	6112
2026-01-29 20:45:53.20	33.40	15.76	-37.8	-38.7	23.8	0.00e+00	36	34	0	472907776	48	6208
2026-01-29 20:45:54.21	33.19	15.79	-37.9	-38.8	23.7	0.00e+00	92	34	0	475004928	48	6260
2026-01-29 20:45:55.22	32.98	15.82	-38.2	-39.0	23.6	0.00e+00	0	34	0	477102080	48	6463
2026-01-29 20:45:56.23	32.77	15.85	-38.0	-38.9	23.7	0.00e+00	92	34	0	479199232	48	6335
2026-01-29 20:45:57.24	32.56	15.88	-37.9	-38.8	23.8	0.00e+00	2	34	0	481296384	48	6252
2026-01-29 20:45:58.25	32.34	15.91	-37.8	-38.6	23.8	0.00e+00	92	34	0	482344960	48	6163
2026-01-29 20:45:59.26	32.13	15.93	-37.8	-38.6	23.9	0.00e+00	77	34	0	484442112	48	6162
2026-01-29 20:46:00.27	31.92	15.96	-37.9	-38.8	23.5	0.00e+00	46	34	0	486539264	48	6301
2026-01-29 20:46:01.28	31.70	15.99	-38.0	-38.9	23.7	0.00e+00	91	34	0	488636416	48	6318
2026-01-29 20:46:02.29	31.49	16.02	-37.9	-38.8	23.6	0.00e+00	0	34	0	490733568	48	6296
2026-01-29 20:46:03.30	31.27	16.04	-37.9	-38.8	23.8	0.00e+00	92	34	0	491782144	48	6248
2026-01-29 20:46:04.31	31.06	16.07	-37.7	-38.6	23.9	0.00e+00	0	34	0	493879296	48	6132
2026-01-29 20:46:05.32	30.84	16.10	-38.0	-38.9	23.7	0.00e+00	92	34	0	495976448	48	6329
2026-01-29 20:46:06.33	30.63	16.12	-38.2	-39.1	23.6	0.00e+00	0	34	0	498073600	48	6473
2026-01-29 20:46:07.34	30.41	16.15	-38.1	-39.0	23.5	0.00e+00	29	34	0	500170752	48	6420
2026-01-29 20:46:08.35	30.20	16.17	-38.0	-38.9	23.7	0.00e+00	90	34	0	502267904	48	6342
2026-01-29 20:46:09.36	29.98	16.20	-38.0	-38.9	23.7	0.00e+00	0	34	0	503316480	48	6335
2026-01-29 20:46:10.37	29.76	16.22	-38.1	-39.0	23.4	0.00e+00	91	34	0	505413632	48	6457
2026-01-29 20:46:11.38	29.54	16.24	-38.2	-39.1	23.5	0.00e+00	0	34	0	507510784	48	6526
2026-01-29 20:46:12.38	29.33	16.27	-38.3	-39.2	23.2	0.00e+00	92	34	0	509607936	48	6612
2026-01-29 20:46:13.39	29.11	16.29	-38.5	-39.4	23.1	0.00e+00	46	34	0	511705088	48	6745
2026-01-29 20:46:14.40	28.89	16.31	-38.7	-39.6	23.1	0.00e+00	91	34	0	512753664	48	6909
2026-01-29 20:46:15.41	28.67	16.33	-38.7	-39.6	23.0	0.00e+00	34	34	0	514850816	48	6925
2026-01-29 20:46:16.42	28.45	16.36	-38.6	-39.5	23.1	0.00e+00	35	34	0	516947968	48	6839
2026-01-29 20:46:17.43	28.23	16.38	-38.6	-39.6	23.0	0.00e+00	92	34	0	519045120	48	6858
2026-01-29 20:46:18.44	28.02	16.40	-38.5	-39.4	23.2	0.00e+00	0	34	0	521142272	48	6749
2026-01-29 20:46:19.45	27.79	16.42	-38.6	-39.6	23.1	0.00e+00	91	34	0	522190848	48	6867
2026-01-29 20:46:20.46	27.57	16.44	-38.5	-39.4	23.3	0.00e+00	47	34	0	524288000	48	6727
2026-01-29 20:46:21.47	27.35	16.46	-38.4	-39.3	23.3	0.00e+00	92	34	0	526385152	48	6673
2026-01-29 20:46:22.48	27.13	16.48	-38.2	-39.1	23.5	0.00e+00	0	34	0	528482304	48	6526
2026-01-29 20:46:23.49	26.91	16.50	-38.1	-39.0	23.6	0.00e+00	0	34	0	530579456	48	6391
2026-01-29 20:46:24.50	26.69	16.51	-38.0	-38.9	23.6	0.00e+00	92	34	0	531628032	48	6356
2026-01-29 20:46:25.51	26.47	16.53	-38.2	-39.1	23.5	0.00e+00	0	34	0	533725184	48	6493
2026-01-29 20:46:26.52	26.25	16.55	-38.3	-39.2	23.4	0.00e+00	0	34	0	535822336	48	6576
2026-01-29 20:46:27.53	26.02	16.57	-38.4	-39.3	23.4	0.00e+00	0	34	0	537919488	48	6645
2026-01-29 20:46:28.54	25.80	16.58	-38.3	-39.2	23.4	0.00e+00	34	34	0	540016640	48	6591
2026-01-29 20:46:29.55	25.58	16.60	-38.3	-39.2	23.3	0.00e+00	0	34	0	541065216	48	6598
2026-01-29 20:46:30.56	25.36	16.62	-38.4	-39.3	23.4	0.00e+00	33	34	0	543162368	48	6631
2026-01-29 20:46:31.57	25.13	16.63	-38.5	-39.5	23.1	0.00e+00	92	34	0	545259520	48	6790
2026-01-29 20:46:32.58	24.91	16.65	-38.6	-39.5	23.1	0.00e+00	0	34	0	547356672	48	6846
2026-01-29 20:46:33.59	24.69	16.66	-38.7	-39.7	22.9	0.00e+00	92	34	0	549453824	48	6934
2026-01-29 20:46:34.60	24.46	16.67	-38.6	-39.5	23.1	0.00e+00	52	34	0	550502400	48	6837
2026-01-29 20:46:35.61	24.24	16.69	-38.4	-39.4	23.2	0.00e+00	32	34	0	552599552	48	6706
2026-01-29 20:46:36.62	24.01	16.70	-38.4	-39.3	23.2	0.00e+00	52	34	0	554696704	48	6679
2026-01-29 20:46:37.63	23.79	16.71	-38.5	-39.4	23.2	0.00e+00	34	34	0	556793856	48	6738
2026-01-29 20:46:38.64	23.56	16.73	-38.6	-39.5	23.1	0.00e+00	90	34	0	558891008	48	6825
2026-01-29 20:46:39.65	23.34	16.74	-38.8	-39.7	23.0	0.00e+00	7	34	0	559939584	48	7000
2026-01-29 20:46:40.66	23.11	16.75	-38.8	-39.7	22.9	0.00e+00	92	34	0	562036736	50	6239
2026-01-29 20:46:41.67	22.89	16.76	-38.7	-39.7	23.0	0.00e+00	0	34	0	564133888	50	6179
2026-01-29 20:46:42.68	22.66	16.77	-38.9	-39.9	22.8	0.00e+00	6	34	0	566231040	50	6333
2026-01-29 20:46:43.69	22.44	16.78	-38.7	-39.6	23.1	0.00e+00	0	34	0	568328192	50	6147
2026-01-29 20:46:44.70	22.21	16.79	-38.8	-39.7	22.9	0.00e+00	6	34	0	570425344	50	6233
2026-01-29 20:46:45.71	21.99	16.80	-38.8	-39.7	22.9	0.00e+00	0	34	0	571473920	50	6244
2026-01-29 20:46:46.72	21.76	16.81	-39.0	-40.0	22.8	0.00e+00	0	34	0	573571072	50	6430
2026-01-29 20:46:47.73	21.53	16.82	-38.9	-39.8	22.8	0.00e+00	90	34	0	575668224	50	6302
2026-01-29 20:46:48.74	21.31	16.82	-38.8	-39.8	22.8	0.00e+00	0	34	0	577765376	50	6291
2026-01-29 20:46:49.75	21.08	16.83	-38.8	-39.8	22.9	0.00e+00	34	34	0	579862528	50	6261
2026-01-29 20:46:50.76	20.86	16.84	-38.6	-39.6	23.1	0.00e+00	0	34	0	580911104	50	6107
2026-01-29 20:46:51.77	20.63	16.84	-38.6	-39.6	23.1	0.00e+00	34	34	0	583008256	50	6124
2026-01-29 20:46:52.78	20.40	16.85	-38.6	-39.5	23.1	0.00e+00	0	34	0	585105408	50	6056
2026-01-29 20:46:53.79	20.18	16.86	-38.6	-39.6	23.1	0.00e+00	46	34	0	587202560	50	6137
2026-01-29 20:46:54.80	19.95	16.86	-38.6	-39.5	23.1	0.00e+00	92	34	0	589299712	50	6093
2026-01-29 20:46:55.81	19.72	16.87	-38.6	-39.5	23.1	0.00e+00	48	34	0	590348288	50	6074
2026-01-29 20:46:56.82	19.49	16.87	-38.6	-39.5	23.1	0.00e+00	91	34	0	592445440	50	6095
2026-01-29 20:46:57.84	19.27	16.87	-38.4	-39.3	23.3	0.00e+00	36	34	0	594542592	50	5960
2026-01-29 20:46:58.85	19.04	16.88	-38.6	-39.5	23.0	0.00e+00	46	34	0	596639744	50	6075
2026-01-29 20:46:59.86	18.81	16.88	-38.7	-39.6	23.0	0.00e+00	0	34	0	598736896	50	6147
2026-01-29 20:47:00.87	18.58	16.88	-38.8	-39.8	22.9	0.00e+00	50	34	0	599785472	50	6259
2026-01-29 20:47:01.88	18.36	16.88	-38.9	-39.9	22.8	0.00e+00	92	34	0	601882624	50	6339
2026-01-29 20:47:02.89	18.13	16.88	-39.1	-40.1	22.6	0.00e+00	0	34	0	603979776	50	6523
2026-01-29 20:47:03.90	17.90	16.89	-39.1	-40.1	22.6	0.00e+00	92	34	0	606076928	50	6491
2026-01-29 20:47:04.91	17.68	16.89	-39.1	-40.1	22.6	0.00e+00	0	34	0	608174080	50	6494
2026-01-29 20:47:05.92	17.45	16.89	-38.9	-39.9	22.8	0.00e+00	2	34	0	609222656	50	6321
2026-01-29 20:47:06.93	17.22	16.88	-38.8	-39.8	23.0	0.00e+00	0	34	0	611319808	50	6284
2026-01-29 20:47:07.94	16.99	16.88	-38.5	-39.5	23.2	0.00e+00	33	34	0	613416960	50	6038
2026-01-29 20:47:08.95	16.77	16.88	-38.4	-39.4	23.3	0.00e+00	48	34	0	615514112	50	5973
2026-01-29 20:47:09.96	16.54	16.88	-38.5	-39.4	23.3	0.00e+00	0	34	0	617611264	50	5989
2026-01-29 20:47:10.97	16.31	16.88	-38.5	-39.4	23.2	0.00e+00	90	34	0	618659840	50	5999
2026-01-29 20:47:11.98	16.09	16.88	-38.6	-39.5	23.0	0.00e+00	34	34	0	620756992	50	6090
2026-01-29 20:47:12.99	15.86	16.87	-38.6	-39.6	22.9	0.00e+00	92	34	0	622854144	50	6107
2026-01-29 20:47:14.00	15.63	16.87	-38.5	-39.5	23.1	0.00e+00	34	34	0	624951296	50	6040
2026-01-29 20:47:15.01	15.41	16.86	-38.5	-39.4	23.2	0.00e+00	0	34	0	627048448	50	6005
2026-01-29 20:47:16.02	15.18	16.86	-38.5	-39.4	23.2	0.00e+00	0	34	0	628097024	50	6010
2026-01-29 20:47:17.03	14.95	16.85	-38.6	-39.6	23.1	0.00e+00	47	34	0	630194176	50	6136
2026-01-29 20:47:18.04	14.72	16.85	-38.6	-39.5	23.0	0.00e+00	92	34	0	632291328	50	6095
2026-01-29 20:47:19.05	14.50	16.84	-38.8	-39.7	23.1	0.00e+00	48	34	0	634388480	50	6209
2026-01-29 20:47:20.06	14.27	16.84	-38.6	-39.6	23.0	0.00e+00	92	34	0	636485632	50	6108
2026-01-29 20:47:21.07	14.05	16.83	-38.7	-39.7	23.0	0.00e+00	50	34	0	638582784	50	6186
2026-01-29 20:47:22.08	13.82	16.82	-38.5	-39.5	23.2	0.00e+00	48	34	0	639631360	50	6048
2026-01-29 20:47:23.09	13.59	16.81	-38.4	-39.3	23.3	0.00e+00	0	34	0	641728512	50	5955
2026-01-29 20:47:24.10	13.37	16.81	-38.2	-39.1	23.5	0.00e+00	0	34	0	643825664	50	5815
2026-01-29 20:47:25.11	13.14	16.80	-38.2	-39.1	23.4	0.00e+00	92	34	0	645922816	50	5818
2026-01-29 20:47:26.12	12.92	16.79	-38.2	-39.1	23.5	0.00e+00	0	34	0	648019968	50	5826
2026-01-29 20:47:27.13	12.69	16.78	-38.1	-39.0	23.5	0.00e+00	91	34	0	649068544	50	5756
2026-01-29 20:47:28.14	12.46	16.77	-38.2	-39.1	23.5	0.00e+00	34	34	0	651165696	50	5778
2026-01-29 20:47:29.15	12.24	16.76	-38.3	-39.2	23.4	0.00e+00	59	34	0	653262848	50	5873
2026-01-29 20:47:30.16	12.01	16.75	-38.4	-39.3	23.3	0.00e+00	0	34	0	655360000	50	5934
2026-01-29 20:47:31.17	11.79	16.74	-38.2	-39.1	23.4	0.00e+00	0	34	0	657457152	50	5804
2026-01-29 20:47:32.18	11.56	16.72	-38.3	-39.2	23.4	0.00e+00	34	34	0	658505728	50	5864
2026-01-29 20:47:33.19	11.34	16.71	-38.2	-39.1	23.4	0.00e+00	47	34	0	660602880	50	5770
2026-01-29 20:47:34.20	11.12	16.70	-38.2	-39.1	23.5	0.00e+00	90	34	0	662700032	50	5828
2026-01-29 20:47:35.21	10.89	16.69	-38.1	-39.0	23.6	0.00e+00	47	34	0	664797184	50	5755
2026-01-29 20:47:36.22	10.67	16.67	-38.1	-39.0	23.7	0.00e+00	92	34	0	666894336	50	5736
2026-01-29 20:47:37.23	10.44	16.66	-38.1	-39.0	23.7	0.00e+00	35	34	0	667942912	50	5711
2026-01-29 20:47:38.24	10.22	16.64	-38.0	-38.9	23.8	0.00e+00	0	34	0	670040064	50	5639
2026-01-29 20:47:39.25	10.00	16.63	-37.9	-38.8	23.9	0.00e+00	0	34	0	672137216	50	5589
2026-01-29 20:47:40.26	9.77	16.61	-37.8	-38.7	23.9	0.00e+00	48	34	0	674234368	50	5530
2026-01-29 20:47:41.27	9.55	16.60	-37.8	-38.7	23.8	0.00e+00	92	34	0	676331520	50	5532
2026-01-29 20:47:42.28	9.33	16.58	-37.9	-38.8	23.8	0.00e+00	47	34	0	677380096	50	5575
2026-01-29 20:47:43.29	9.11	16.56	-37.7	-38.6	23.9	0.00e+00	55	34	0	679477248	48	6127
2026-01-29 20:47:44.30	8.88	16.55	-37.6	-38.5	23.8	0.00e+00	0	34	0	681574400	48	6050
2026-01-29 20:47:45.31	8.66	16.53	-37.7	-38.6	23.9	0.00e+00	0	34	0	683671552	48	6136
2026-01-29 20:47:46.32	8.44	16.51	-37.6	-38.4	24.1	0.00e+00	0	34	0	685768704	48	6002
2026-01-29 20:47:47.33	8.22	16.49	-37.5	-38.3	24.1	0.00e+00	0	34	0	686817280	48	5946
2026-01-29 20:47:48.34	8.00	16.47	-37.6	-38.4	24.1	0.00e+00	92	34	0	688914432	48	6014
2026-01-29 20:47:49.35	7.78	16.46	-37.7	-38.6	23.9	0.00e+00	34	34	0	691011584	48	6127
2026-01-29 20:47:50.36	7.56	16.44	-37.7	-38.6	23.8	0.00e+00	92	34	0	693108736	48	6144
2026-01-29 20:47:51.37	7.34	16.42	-38.0	-38.9	23.7	0.00e+00	0	34	0	695205888	48	6349
2026-01-29 20:47:52.38	7.12	16.39	-37.8	-38.7	23.8	0.00e+00	40	34	0	696254464	48	6239
2026-01-29 20:47:53.39	6.90	16.37	-37.9	-38.8	23.8	0.00e+00	48	34	0	698351616	48	6260
2026-01-29 20:47:54.40	6.68	16.35	-37.8	-38.7	23.8	0.00e+00	0	34	0	700448768	48	6211
2026-01-29 20:47:55.41	6.46	16.33	-38.0	-38.9	23.8	0.00e+00	27	34	0	702545920	48	6340
2026-01-29 20:47:56.42	6.24	16.31	-37.9	-38.8	23.7	0.00e+00	48	34	0	704643072	48	6250
2026-01-29 20:47:57.43	6.02	16.29	-37.8	-38.7	23.9	0.00e+00	92	34	0	706740224	48	6195
2026-01-29 20:47:58.44	5.80	16.26	-37.9	-38.8	23.8	0.00e+00	49	34	0	707788800	48	6258
2026-01-29 20:47:59.45	5.59	16.24	-38.0	-38.9	23.7	0.00e+00	30	34	0	709885952	48	6333
2026-01-29 20:48:00.46	5.37	16.22	-38.0	-38.9	23.7	0.00e+00	6	34	0	711983104	48	6330
2026-01-29 20:48:01.47	5.15	16.19	-38.1	-39.0	23.7	0.00e+00	5	34	0	714080256	48	6396
2026-01-29 20:48:02.48	4.94	16.17	-38.1	-39.0	23.5	0.00e+00	0	34	0	716177408	48	6426
2026-01-29 20:48:03.49	4.72	16.14	-38.2	-39.1	23.6	0.00e+00	0	34	0	717225984	48	6519
2026-01-29 20:48:04.50	4.50	16.12	-38.1	-39.0	23.7	0.00e+00	92	34	0	719323136	48	6438
2026-01-29 20:48:05.51	4.29	16.09	-38.1	-39.0	23.7	0.00e+00	0	34	0	721420288	48	6400
2026-01-29 20:48:06.52	4.07	16.07	-38.2	-39.1	23.5	0.00e+00	92	34	0	723517440	48	6503
2026-01-29 20:48:07.53	3.86	16.04	-38.3	-39.2	23.6	0.00e+00	6	34	0	725614592	48	6548
2026-01-29 20:48:08.54	3.64	16.01	-38.2	-39.1	23.5	0.00e+00	0	34	0	726663168	48	6479
2026-01-29 20:48:09.55	3.43	15.99	-38.3	-39.2	23.4	0.00e+00	4	34	0	728760320	48	6571
2026-01-29 20:48:10.56	3.22	15.96	-38.5	-39.5	23.2	0.00e+00	32	34	0	730857472	48	6782
2026-01-29 20:48:11.57	3.00	15.93	-38.5	-39.5	23.1	0.00e+00	92	34	0	732954624	50	6055
2026-01-29 20:48:12.58	2.79	15.90	-38.7	-39.7	23.0	0.00e+00	33	34	0	735051776	50	6197
2026-01-29 20:48:13.59	2.58	15.87	-38.7	-39.6	23.1	0.00e+00	91	34	0	736100352	50	6154
2026-01-29 20:48:14.60	2.37	15.84	-38.6	-39.6	23.2	0.00e+00	33	34	0	738197504	50	6119
2026-01-29 20:48:15.61	2.15	15.81	-38.6	-39.5	23.3	0.00e+00	54	34	0	740294656	50	6068
2026-01-29 20:48:16.62	1.94	15.78	-38.6	-39.6	23.1	0.00e+00	33	34	0	742391808	50	6114
2026-01-29 20:48:17.63	1.73	15.75	-38.5	-39.5	23.3	0.00e+00	4	34	0	744488960	50	6041
2026-01-29 20:48:18.64	1.52	15.72	-38.6	-39.5	23.2	0.00e+00	92	34	0	746586112	50	6079
2026-01-29 20:48:19.65	1.31	15.69	-38.6	-39.5	23.2	0.00e+00	7	34	0	747634688	50	6087
2026-01-29 20:48:20.66	1.10	15.66	-38.8	-39.7	23.1	0.00e+00	92	34	0	749731840	50	6218
2026-01-29 20:48:21.67	0.90	15.63	-38.7	-39.6	23.1	0.00e+00	52	34	0	751828992	50	6119
2026-01-29 20:48:22.67	0.69	15.60	-38.6	-39.5	23.1	0.00e+00	92	34	0	753926144	50	6078
2026-01-29 20:48:23.68	0.48	15.57	-38.6	-39.6	23.1	0.00e+00	51	34	0	754974720	50	6127
2026-01-29 20:48:24.69	0.27	15.53	-38.6	-39.5	23.3	0.00e+00	6	34	0	757071872	50	6066
2026-01-29 20:48:25.70	0.07	15.50	-38.4	-39.3	23.5	0.00e+00	0	34	0	759169024	50	5935
2026-01-29 20:48:26.71	359.86	15.47	-38.3	-39.3	23.4	0.00e+00	7	34	0	761266176	50	5913
2026-01-29 20:48:27.72	359.65	15.43	-38.2	-39.1	23.5	0.00e+00	90	34	0	763363328	50	5783
2026-01-29 20:48:28.73	359.45	15.40	-38.2	-39.1	23.6	0.00e+00	6	34	0	764411904	50	5773
2026-01-29 20:48:29.74	359.24	15.37	-38.1	-39.0	23.6	0.00e+00	91	34	0	766509056	50	5726
2026-01-29 20:48:30.75	359.04	15.33	-38.3	-39.2	23.5	0.00e+00	33	34	0	768606208	50	5833
2026-01-29 20:48:31.76	358.83	15.30	-38.2	-39.1	23.5	0.00e+00	32	34	0	770703360	50	5778
2026-01-29 20:48:32.77	358.63	15.26	-38.5	-39.5	23.3	0.00e+00	21	34	0	772800512	50	6039
2026-01-29 20:48:33.78	358.43	15.23	-38.6	-39.5	23.3	0.00e+00	0	34	0	774897664	50	6071
2026-01-29 20:48:34.79	358.22	15.19	-38.5	-39.5	23.2	0.00e+00	10	34	0	775946240	50	6040
2026-01-29 20:48:35.80	358.02	15.16	-38.4	-39.3	23.0	0.00e+00	33	34	0	778043392	50	5936
2026-01-29 20:48:36.80	357.82	15.12	-38.5	-39.4	23.3	0.00e+00	92	34	0	780140544	50	5988
2026-01-29 20:48:37.82	357.62	15.08	-38.2	-39.1	23.5	0.00e+00	28	34	0	782237696	50	5791
2026-01-29 20:48:38.82	357.42	15.05	-38.3	-39.3	23.4	0.00e+00	28	34	0	784334848	50	5910
2026-01-29 20:48:39.84	357.22	15.01	-38.4	-39.3	23.4	0.00e+00	53	34	0	785383424	50	5919
2026-01-29 20:48:40.85	357.02	14.97	-38.4	-39.4	23.3	0.00e+00	53	34	0	787480576	50	5982
2026-01-29 20:48:41.86	356.82	14.93	-38.6	-39.5	23.1	0.00e+00	25	34	0	789577728	50	6067
2026-01-29 20:48:42.87	356.62	14.89	-38.6	-39.6	23.2	0.00e+00	54	34	0	791674880	50	6106
2026-01-29 20:48:43.87	356.42	14.86	-38.5	-39.4	23.3	0.00e+00	91	34	0	793772032	50	6015
2026-01-29 20:48:44.89	356.22	14.82	-38.4	-39.3	23.2	0.00e+00	53	34	0	794820608	50	5950
2026-01-29 20:48:45.89	356.03	14.78	-38.2	-39.1	23.2	0.00e+00	92	34	0	796917760	50	5764
2026-01-29 20:48:46.90	355.83	14.74	-38.2	-39.1	23.3	0.00e+00	0	34	0	799014912	50	5816
2026-01-29 20:48:47.91	355.64	14.70	-38.1	-39.0	23.6	0.00e+00	0	34	0	801112064	50	5723
2026-01-29 20:48:48.92	355.44	14.66	-38.0	-38.9	23.5	0.00e+00	0	34	0	803209216	50	5659
2026-01-29 20:48:49.93	355.25	14.62	-38.1	-39.0	23.4	0.00e+00	0	34	0	804257792	50	5750
2026-01-29 20:48:50.94	355.05	14.58	-38.2	-39.1	23.4	0.00e+00	92	34	0	806354944	50	5826
2026-01-29 20:48:51.95	354.86	14.54	-38.3	-39.3	23.3	0.00e+00	33	34	0	808452096	50	5902
2026-01-29 20:48:52.96	354.66	14.50	-38.5	-39.4	23.3	0.00e+00	92	34	0	810549248	50	6002
2026-01-29 20:48:53.97	354.47	14.46	-38.5	-39.4	23.1	0.00e+00	33	34	0	812646400	50	6026
2026-01-29 20:48:54.98	354.28	14.42	-38.6	-39.6	23.0	0.00e+00	33	34	0	813694976	50	6132
2026-01-29 20:48:56.00	354.09	14.37	-38.7	-39.6	23.1	0.00e+00	30	34	0	815792128	50	6172
2026-01-29 20:48:57.00	353.90	14.33	-38.6	-39.6	23.2	0.00e+00	33	34	0	817889280	50	6137
2026-01-29 20:48:58.02	353.70	14.29	-38.5	-39.5	23.2	0.00e+00	72	34	0	819986432	50	6052
2026-01-29 20:48:59.03	353.51	14.25	-38.4	-39.3	23.4	0.00e+00	0	34	0	822083584	50	5925
2026-01-29 20:49:00.04	353.32	14.20	-38.3	-39.2	23.3	0.00e+00	92	34	0	823132160	50	5874
2026-01-29 20:49:01.05	353.13	14.16	-38.3	-39.3	23.4	0.00e+00	48	34	0	825229312	50	5898
2026-01-29 20:49:02.06	352.95	14.12	-38.5	-39.5	23.2	0.00e+00	0	34	0	827326464	50	6062
2026-01-29 20:49:03.07	352.76	14.07	-38.5	-39.4	23.2	0.00e+00	49	34	0	829423616	50	6009
2026-01-29 20:49:04.08	352.57	14.03	-38.7	-39.6	23.1	0.00e+00	51	34	0	831520768	50	6143
2026-01-29 20:49:05.08	352.39	13.99	-38.7	-39.7	22.9	0.00e+00	85	34	0	832569344	50	6184
2026-01-29 20:49:06.09	352.20	13.94	-38.8	-39.8	23.0	0.00e+00	0	34	0	834666496	50	6261
2026-01-29 20:49:07.10	352.01	13.90	-38.8	-39.7	23.0	0.00e+00	92	34	0	836763648	50	6220
2026-01-29 20:49:08.11	351.83	13.86	-38.9	-39.9	22.9	0.00e+00	2	34	0	838860800	50	6318
2026-01-29 20:49:09.12	351.64	13.81	-39.0	-39.9	22.9	0.00e+00	59	34	0	840957952	50	6371
2026-01-29 20:49:10.13	351.46	13.77	-38.8	-39.8	22.8	0.00e+00	0	34	0	843055104	50	6286
2026-01-29 20:49:11.14	351.28	13.72	-38.9	-39.9	22.7	0.00e+00	0	34	0	844103680	50	6346
2026-01-29 20:49:12.15	351.09	13.68	-39.1	-40.1	22.7	0.00e+00	0	34	0	846200832	50	6488
2026-01-29 20:49:13.16	350.91	13.63	-39.2	-40.3	22.5	0.00e+00	26	34	0	848297984	50	6627
2026-01-29 20:49:14.17	350.73	13.58	-39.3	-40.4	22.5	0.00e+00	92	34	0	850395136	50	6698
2026-01-29 20:49:15.18	350.55	13.54	-39.2	-40.2	22.3	0.00e+00	0	34	0	852492288	50	6578
2026-01-29 20:49:16.19	350.37	13.49	-39.3	-40.3	22.4	0.00e+00	92	34	0	853540864	50	6687
2026-01-29 20:49:17.20	350.19	13.45	-39.4	-40.4	22.2	0.00e+00	48	34	0	855638016	50	6724
2026-01-29 20:49:18.20	350.01	13.40	-39.4	-40.5	22.2	0.00e+00	47	34	0	857735168	50	6781
2026-01-29 20:49:19.21	349.83	13.35	-39.5	-40.5	22.2	0.00e+00	50	34	0	859832320	50	6834
2026-01-29 20:49:20.22	349.65	13.31	-39.5	-40.5	22.1	0.00e+00	34	34	0	861929472	50	6822
2026-01-29 20:49:21.23	349.48	13.26	-39.7	-40.7	21.9	0.00e+00	92	34	0	862978048	50	6981
2026-01-29 20:49:22.25	349.30	13.21	-39.8	-40.9	21.8	0.00e+00	2	34	0	865075200	52	6338
2026-01-29 20:49:23.26	349.12	13.16	-39.9	-41.0	21.8	0.00e+00	92	34	0	867172352	52	6403
2026-01-29 20:49:24.27	348.94	13.12	-39.9	-41.0	21.7	0.00e+00	48	34	0	869269504	52	6464
2026-01-29 20:49:25.28	348.77	13.07	-40.1	-41.2	21.6	0.00e+00	2	34	0	871366656	52	6585
2026-01-29 20:49:26.29	348.59	13.02	-40.2	-41.3	21.4	0.00e+00	48	34	0	872415232	52	6664
2026-01-29 20:49:27.30	348.42	12.97	-40.3	-41.4	21.3	0.00e+00	0	34	0	874512384	52	6751
2026-01-29 20:49:28.31	348.25	12.92	-40.2	-41.4	21.4	0.00e+00	21	34	0	876609536	52	6740
2026-01-29 20:49:29.31	348.07	12.88	-40.2	-41.3	21.4	0.00e+00	3	34	0	878706688	52	6690
2026-01-29 20:49:30.32	347.90	12.83	-40.1	-41.3	21.5	0.00e+00	90	34	0	880803840	52	6634
2026-01-29 20:49:31.33	347.73	12.78	-40.1	-41.3	21.4	0.00e+00	0	34	0	881852416	52	6640
2026-01-29 20:49:32.34	347.56	12.73	-39.9	-41.0	21.6	0.00e+00	44	34	0	883949568	52	6430
2026-01-29 20:49:33.35	347.39	12.68	-40.0	-41.1	21.6	0.00e+00	0	34	0	886046720	52	6523
2026-01-29 20:49:34.36	347.22	12.63	-40.1	-41.3	21.5	0.00e+00	31	34	0	888143872	52	6616
2026-01-29 20:49:35.37	347.05	12.58	-40.2	-41.4	21.2	0.00e+00	0	34	0	890241024	52	6713
2026-01-29 20:49:36.38	346.88	12.53	-40.4	-41.6	21.2	0.00e+00	0	34	0	891289600	52	6913
2026-01-29 20:49:37.39	346.71	12.48	-40.4	-41.6	21.0	0.00e+00	92	34	0	893386752	52	6922
2026-01-29 20:49:38.40	346.54	12.43	-40.6	-41.8	21.0	0.00e+00	2	34	0	895483904	52	7040
2026-01-29 20:49:39.41	346.38	12.38	-40.6	-41.9	21.0	0.00e+00	0	34	0	897581056	52	7103
2026-01-29 20:49:40.42	346.21	12.33	-40.4	-41.6	21.1	0.00e+00	26	34	0	899678208	52	6907
2026-01-29 20:49:41.43	346.04	12.28	-40.6	-41.8	21.0	0.00e+00	26	34	0	900726784	52	7057
2026-01-29 20:49:42.44	345.88	12.23	-40.6	-41.8	20.9	0.00e+00	0	34	0	902823936	52	7074
2026-01-29 20:49:43.45	345.71	12.18	-40.6	-41.9	21.0	0.00e+00	5	34	0	904921088	52	7129
2026-01-29 20:49:44.46	345.55	12.13	-40.5	-41.7	21.0	0.00e+00	92	34	0	907018240	52	6991
2026-01-29 20:49:45.47	345.38	12.08	-40.6	-41.8	20.9	0.00e+00	56	34	0	909115392	52	7084
2026-01-29 20:49:46.48	345.22	12.03	-40.7	-42.0	20.8	0.00e+00	91	34	0	911212544	52	7220
2026-01-29 20:49:47.49	345.06	11.98	-40.7	-42.0	20.6	0.00e+00	5	34	0	912261120	54	6456
2026-01-29 20:49:48.49	344.90	11.93	-40.7	-42.0	20.7	0.00e+00	0	34	0	914358272	54	6456
2026-01-29 20:49:49.50	344.74	11.88	-40.7	-42.1	20.7	0.00e+00	6	34	0	916455424	54	6474
2026-01-29 20:49:50.51	344.58	11.83	-40.9	-42.2	20.6	0.00e+00	0	34	0	918552576	54	6607
2026-01-29 20:49:51.52	344.41	11.77	-40.8	-42.2	20.6	0.00e+00	16	34	0	920649728	54	6555
2026-01-29 20:49:52.53	344.25	11.72	-40.9	-42.2	20.5	0.00e+00	0	34	0	921698304	54	6602
2026-01-29 20:49:53.54	344.10	11.67	-40.9	-42.2	20.6	0.00e+00	90	34	0	923795456	54	6580
2026-01-29 20:49:54.55	343.94	11.62	-40.8	-42.1	20.8	0.00e+00	31	34	0	925892608	54	6490
2026-01-29 20:49:55.56	343.78	11.57	-40.8	-42.1	20.6	0.00e+00	0	34	0	927989760	54	6502
2026-01-29 20:49:56.57	343.62	11.52	-40.7	-42.0	20.7	0.00e+00	30	34	0	930086912	54	6451
2026-01-29 20:49:57.58	343.46	11.46	-40.6	-41.9	20.8	0.00e+00	30	34	0	931135488	54	6353
2026-01-29 20:49:58.59	343.31	11.41	-40.7	-42.0	20.8	0.00e+00	0	34	0	933232640	54	6425
2026-01-29 20:49:59.60	343.15	11.36	-40.8	-42.1	20.7	0.00e+00	30	34	0	935329792	54	6480
2026-01-29 20:50:00.60	343.00	11.31	-40.9	-42.2	20.6	0.00e+00	92	34	0	937426944	54	6563
2026-01-29 20:50:01.61	342.84	11.25	-40.9	-42.2	20.5	0.00e+00	0	34	0	939524096	54	6590
2026-01-29 20:50:02.62	342.69	11.20	-41.0	-42.3	20.4	0.00e+00	92	34	0	940572672	54	6666
2026-01-29 20:50:03.63	342.54	11.15	-40.9	-42.2	20.5	0.00e+00	58	34	0	942669824	54	6589
2026-01-29 20:50:04.64	342.38	11.10	-40.9	-42.2	20.5	0.00e+00	56	34	0	944766976	54	6585
2026-01-29 20:50:05.65	342.23	11.04	-40.7	-42.0	20.7	0.00e+00	5	34	0	946864128	54	6409
2026-01-29 20:50:06.66	342.08	10.99	-40.6	-41.9	20.9	0.00e+00	6	34	0	948961280	54	6366
2026-01-29 20:50:07.67	341.93	10.94	-40.5	-41.7	21.1	0.00e+00	90	34	0	950009856	54	6236
2026-01-29 20:50:08.68	341.78	10.88	-40.5	-41.7	21.2	0.00e+00	6	34	0	952107008	54	6216
2026-01-29 20:50:09.69	341.63	10.83	-40.5	-41.7	21.0	0.00e+00	92	34	0	954204160	54	6205
2026-01-29 20:50:10.70	341.48	10.78	-40.3	-41.5	21.0	0.00e+00	6	34	0	956301312	54	6098
2026-01-29 20:50:11.71	341.33	10.72	-40.3	-41.5	21.2	0.00e+00	7	34	0	958398464	54	6056
2026-01-29 20:50:12.72	341.18	10.67	-40.3	-41.5	21.2	0.00e+00	7	34	0	959447040	54	6058
2026-01-29 20:50:13.72	341.03	10.62	-40.2	-41.4	21.2	0.00e+00	6	34	0	961544192	54	5975
2026-01-29 20:50:14.73	340.88	10.57	-40.1	-41.3	21.2	0.00e+00	0	34	0	963641344	54	5931
2026-01-29 20:50:15.74	340.74	10.51	-40.0	-41.1	21.5	0.00e+00	0	34	0	965738496	54	5817
2026-01-29 20:50:16.75	340.59	10.46	-40.0	-41.2	21.4	0.00e+00	92	34	0	967835648	54	5845
2026-01-29 20:50:17.76	340.45	10.40	-40.2	-41.4	21.4	0.00e+00	0	34	0	968884224	54	6014
2026-01-29 20:50:18.77	340.30	10.35	-40.0	-41.1	21.5	0.00e+00	92	34	0	970981376	54	5812
2026-01-29 20:50:19.78	340.16	10.30	-39.9	-41.0	21.6	0.00e+00	0	34	0	973078528	54	5752
2026-01-29 20:50:20.79	340.01	10.24	-39.9	-41.0	21.6	0.00e+00	30	34	0	975175680	54	5745
2026-01-29 20:50:21.80	339.87	10.19	-39.9	-41.1	21.6	0.00e+00	79	34	0	977272832	52	6467
2026-01-29 20:50:22.81	339.72	10.13	-39.8	-40.9	21.7	0.00e+00	32	34	0	979369984	52	6379
2026-01-29 20:50:23.82	339.58	10.08	-39.8	-41.0	21.7	0.00e+00	92	34	0	980418560	52	6415
2026-01-29 20:50:24.83	339.44	10.03	-39.7	-40.8	21.8	0.00e+00	32	34	0	982515712	52	6305
2026-01-29 20:50:25.84	339.30	9.97	-39.6	-40.7	21.8	0.00e+00	91	34	0	984612864	52	6245
2026-01-29 20:50:26.85	339.16	9.92	-39.7	-40.8	22.0	0.00e+00	0	34	0	986710016	52	6272
2026-01-29 20:50:27.86	339.02	9.86	-39.5	-40.6	21.9	0.00e+00	0	34	0	988807168	52	6171
2026-01-29 20:50:28.87	338.88	9.81	-39.6	-40.7	21.9	0.00e+00	0	34	0	989855744	52	6186
2026-01-29 20:50:29.88	338.74	9.75	-39.5	-40.6	22.0	0.00e+00	51	34	0	991952896	52	6131
2026-01-29 20:50:30.88	338.60	9.70	-39.5	-40.6	22.1	0.00e+00	84	34	0	994050048	52	6128
2026-01-29 20:50:31.90	338.46	9.65	-39.3	-40.4	22.2	0.00e+00	2	34	0	996147200	52	5970
2026-01-29 20:50:32.91	338.32	9.59	-39.0	-40.0	22.4	0.00e+00	92	34	0	998244352	52	5747
2026-01-29 20:50:33.91	338.19	9.54	-39.1	-40.1	22.3	0.00e+00	0	34	0	999292928	52	5795
2026-01-29 20:50:34.92	338.05	9.48	-39.1	-40.1	22.4	0.00e+00	0	34	0	1001390080	52	5811
2026-01-29 20:50:35.93	337.91	9.43	-39.0	-40.1	22.6	0.00e+00	0	34	0	1003487232	52	5772
2026-01-29 20:50:36.94	337.78	9.37	-39.0	-40.1	22.5	0.00e+00	29	34	0	1005584384	52	5779
2026-01-29 20:50:37.95	337.64	9.32	-38.9	-39.9	22.4	0.00e+00	0	34	0	1007681536	52	5682
2026-01-29 20:50:38.96	337.51	9.26	-38.8	-39.8	22.6	0.00e+00	23	34	0	1008730112	50	6254
2026-01-29 20:50:39.97	337.37	9.21	-39.0	-40.0	22.5	0.00e+00	92	34	0	1010827264	50	6456
2026-01-29 20:50:40.98	337.24	9.15	-38.8	-39.8	22.6	0.00e+00	0	34	0	1012924416	50	6267
2026-01-29 20:50:41.99	337.11	9.10	-38.8	-39.8	22.6	0.00e+00	64	34	0	1015021568	50	6268
2026-01-29 20:50:43.00	336.98	9.04	-38.7	-39.7	22.7	0.00e+00	0	34	0	1017118720	50	6209
2026-01-29 20:50:44.01	336.84	8.99	-38.7	-39.7	22.7	0.00e+00	57	34	0	1018167296	50	6234
2026-01-29 20:50:45.02	336.71	8.94	-38.6	-39.6	22.9	0.00e+00	64	34	0	1020264448	50	6128
2026-01-29 20:50:46.03	336.58	8.88	-38.7	-39.7	22.7	0.00e+00	57	34	0	1022361600	50	6184
2026-01-29 20:50:47.04	336.45	8.83	-38.5	-39.5	22.9	0.00e+00	92	34	0	1024458752	50	6044
2026-01-29 20:50:48.05	336.32	8.77	-38.6	-39.6	22.4	0.00e+00	0	34	0	1026555904	50	6149
2026-01-29 20:50:49.06	336.19	8.72	-38.7	-39.6	22.9	0.00e+00	92	34	0	1027604480	50	6171
2026-01-29 20:50:50.07	336.06	8.66	-38.9	-39.9	22.4	0.00e+00	51	34	0	1029701632	50	6327
2026-01-29 20:50:51.08	335.93	8.61	-38.9	-39.9	22.4	0.00e+00	0	34	0	1031798784	50	6370
2026-01-29 20:50:52.09	335.80	8.55	-38.9	-39.9	22.4	0.00e+00	0	34	0	1033895936	50	6331
2026-01-29 20:50:53.10	335.68	8.50	-38.8	-39.8	22.2	0.00e+00	0	34	0	1035993088	50	6268
2026-01-29 20:50:54.11	335.55	8.44	-39.1	-40.1	22.3	0.00e+00	92	34	0	1037041664	50	6506
2026-01-29 20:50:55.12	335.42	8.38	-39.0	-40.1	22.1	0.00e+00	0	34	0	1039138816	50	6479
2026-01-29 20:50:56.12	335.30	8.33	-39.1	-40.2	22.2	0.00e+00	91	34	0	1041235968	50	6575
2026-01-29 20:50:57.13	335.17	8.28	-38.9	-39.9	22.4	0.00e+00	0	34	0	1043333120	50	6370
2026-01-29 20:50:58.14	335.05	8.22	-38.8	-39.9	22.5	0.00e+00	35	34	0	1045430272	50	6325
2026-01-29 20:50:59.15	334.92	8.16	-38.9	-39.9	22.4	0.00e+00	0	34	0	1047527424	50	6348
2026-01-29 20:51:00.16	334.80	8.11	-39.1	-40.1	22.3	0.00e+00	0	34	0	1048576000	50	6513
2026-01-29 20:51:01.17	334.68	8.05	-38.9	-39.9	22.4	0.00e+00	0	34	0	1050673152	50	6351
2026-01-29 20:51:02.18	334.55	8.00	-38.8	-39.9	22.4	0.00e+00	0	34	0	1052770304	50	6320
2026-01-29 20:51:03.19	334.43	7.94	-38.9	-40.0	22.3	0.00e+00	92	34	0	1054867456	50	6392
2026-01-29 20:51:04.20	334.31	7.89	-39.0	-40.0	22.2	0.00e+00	51	34	0	1056964608	50	6462
2026-01-29 20:51:05.21	334.19	7.83	-39.2	-40.2	22.1	0.00e+00	92	34	0	1058013184	50	6596
2026-01-29 20:51:06.22	334.06	7.78	-39.2	-40.3	22.0	0.00e+00	0	34	0	1060110336	50	6645
2026-01-29 20:51:07.23	333.94	7.72	-39.3	-40.4	21.9	0.00e+00	0	34	0	1062207488	50	6715
2026-01-29 20:51:08.24	333.82	7.67	-39.2	-40.3	22.0	0.00e+00	57	34	0	1064304640	50	6661
2026-01-29 20:51:09.25	333.70	7.61	-39.4	-40.5	21.8	0.00e+00	56	34	0	1066401792	50	6809
2026-01-29 20:51:10.26	333.58	7.56	-39.5	-40.6	21.7	0.00e+00	92	34	0	1067450368	50	6883
2026-01-29 20:51:11.27	333.46	7.50	-39.3	-40.4	22.0	0.00e+00	2	34	0	1069547520	50	6707
2026-01-29 20:51:12.28	333.35	7.45	-39.1	-40.1	22.0	0.00e+00	92	34	0	1071644672	50	6537
2026-01-29 20:51:13.28	333.23	7.39	-39.3	-40.4	21.7	0.00e+00	0	34	0	1073741824	50	6757
2026-01-29 20:51:14.29	333.11	7.34	-39.6	-40.7	21.6	0.00e+00	0	34	0	1075838976	50	6976
2026-01-29 20:51:15.30	332.99	7.28	-39.5	-40.6	21.5	0.00e+00	0	34	0	1076887552	50	6914
2026-01-29 20:51:16.31	332.88	7.23	-39.3	-40.4	21.8	0.00e+00	0	34	0	1078984704	50	6720
2026-01-29 20:51:17.32	332.76	7.17	-39.2	-40.3	21.9	0.00e+00	90	34	0	1081081856	50	6634
2026-01-29 20:51:18.33	332.65	7.12	-39.4	-40.5	21.8	0.00e+00	0	34	0	1083179008	50	6805
2026-01-29 20:51:19.34	332.53	7.06	-39.2	-40.3	21.8	0.00e+00	92	34	0	1085276160	50	6670
2026-01-29 20:51:20.36	332.41	7.01	-39.4	-40.5	21.6	0.00e+00	0	34	0	1086324736	50	6839
2026-01-29 20:51:21.37	332.30	6.95	-39.2	-40.3	21.9	0.00e+00	61	34	0	1088421888	50	6644
2026-01-29 20:51:22.37	332.19	6.90	-39.2	-40.2	21.9	0.00e+00	0	34	0	1090519040	50	6606
2026-01-29 20:51:23.38	332.07	6.84	-39.1	-40.2	22.0	0.00e+00	0	34	0	1092616192	50	6567
2026-01-29 20:51:24.39	331.96	6.79	-39.4	-40.5	21.7	0.00e+00	0	34	0	1094713344	50	6801
2026-01-29 20:51:25.40	331.85	6.73	-39.4	-40.5	21.7	0.00e+00	24	34	0	1095761920	50	6796
2026-01-29 20:51:26.41	331.74	6.68	-39.5	-40.6	21.6	0.00e+00	92	34	0	1097859072	50	6860
2026-01-29 20:51:27.42	331.62	6.62	-39.6	-40.7	21.5	0.00e+00	28	34	0	1099956224	50	6956
2026-01-29 20:51:28.43	331.51	6.57	-39.5	-40.7	21.6	0.00e+00	92	34	0	1102053376	50	6932
2026-01-29 20:51:29.44	331.40	6.51	-39.7	-40.8	21.4	0.00e+00	55	34	0	1104150528	50	7086
2026-01-29 20:51:30.45	331.29	6.46	-39.8	-41.0	21.3	0.00e+00	0	34	0	1105199104	52	6421
2026-01-29 20:51:31.46	331.18	6.40	-39.9	-41.0	21.2	0.00e+00	0	34	0	1107296256	52	6461
2026-01-29 20:51:32.47	331.07	6.35	-39.9	-41.1	21.2	0.00e+00	5	34	0	1109393408	52	6490
2026-01-29 20:51:33.48	330.96	6.29	-40.0	-41.2	21.1	0.00e+00	92	34	0	1111490560	52	6577
2026-01-29 20:51:34.49	330.85	6.24	-40.2	-41.4	21.1	0.00e+00	0	34	0	1113587712	52	6716
2026-01-29 20:51:35.50	330.75	6.18	-40.2	-41.4	20.9	0.00e+00	92	34	0	1115684864	52	6748
2026-01-29 20:51:36.52	330.64	6.13	-40.1	-41.3	21.0	0.00e+00	6	34	0	1116733440	52	6661
2026-01-29 20:51:37.53	330.53	6.07	-40.2	-41.4	20.7	0.00e+00	0	34	0	1118830592	52	6752
2026-01-29 20:51:38.53	330.42	6.02	-40.2	-41.5	20.9	0.00e+00	0	34	0	1120927744	52	6773
2026-01-29 20:51:39.54	330.32	5.96	-40.0	-41.2	20.9	0.00e+00	20	34	0	1123024896	52	6576
2026-01-29 20:51:40.55	330.21	5.91	-40.2	-41.5	20.7	0.00e+00	83	34	0	1125122048	52	6799
2026-01-29 20:51:41.56	330.10	5.85	-40.4	-41.7	20.5	0.00e+00	0	34	0	1126170624	52	6965
2026-01-29 20:51:42.57	330.00	5.80	-40.3	-41.5	20.7	0.00e+00	91	34	0	1128267776	52	6837
2026-01-29 20:51:43.58	329.89	5.74	-40.5	-41.8	20.6	0.00e+00	26	34	0	1130364928	52	7015
2026-01-29 20:51:44.59	329.79	5.69	-40.5	-41.7	20.5	0.00e+00	27	34	0	1132462080	52	6996
2026-01-29 20:51:45.60	329.69	5.63	-40.6	-41.8	20.6	0.00e+00	4	34	0	1134559232	52	7078
2026-01-29 20:51:46.61	329.58	5.58	-40.5	-41.7	20.5	0.00e+00	60	34	0	1135607808	52	6986
2026-01-29 20:51:47.62	329.48	5.52	-40.7	-42.0	20.2	0.00e+00	0	34	0	1137704960	52	7218
2026-01-29 20:51:48.63	329.37	5.47	-40.6	-41.9	20.3	0.00e+00	66	35	0	1139802112	54	6335
2026-01-29 20:51:49.64	329.27	5.41	-40.8	-42.1	20.2	0.00e+00	92	34	0	1141899264	54	6507
2026-01-29 20:51:50.64	329.17	5.36	-40.9	-42.3	19.9	0.00e+00	7	34	0	1143996416	54	6632
2026-01-29 20:51:51.65	329.07	5.30	-40.8	-42.2	20.1	0.00e+00	95	34	0	1145044992	54	6551
2026-01-29 20:51:52.66	328.97	5.25	-40.6	-41.9	20.3	0.00e+00	6	34	0	1147142144	54	6367
2026-01-29 20:51:53.67	328.87	5.20	-41.3	-42.7	19.6	0.00e+00	7	34	0	1149239296	54	6974
2026-01-29 20:51:54.68	328.77	5.14	-41.1	-42.5	19.8	0.00e+00	60	34	0	1151336448	54	6781
2026-01-29 20:51:55.69	328.67	5.09	-40.8	-42.2	20.2	0.00e+00	7	34	0	1153433600	54	6547
2026-01-29 20:51:56.70	328.57	5.03	-41.0	-42.3	19.8	0.00e+00	92	34	0	1154482176	54	6681
2026-01-29 20:51:57.71	328.47	4.98	-41.0	-42.4	19.9	0.00e+00	2	34	0	1156579328	54	6762
2026-01-29 20:51:58.72	328.37	4.92	-41.2	-42.6	19.6	0.00e+00	90	35	0	1158676480	54	6894
2026-01-29 20:51:59.73	328.27	4.87	-40.9	-42.3	20.0	0.00e+00	6	34	0	1160773632	54	6627
2026-01-29 20:52:00.74	328.17	4.81	-41.1	-42.5	19.7	0.00e+00	0	34	0	1162870784	54	6834
2026-01-29 20:52:01.75	328.07	4.76	-41.3	-42.8	19.5	0.00e+00	27	34	0	1163919360	54	7015
2026-01-29 20:52:02.76	327.97	4.71	-41.1	-42.5	19.8	0.00e+00	0	34	0	1166016512	54	6788
2026-01-29 20:52:03.77	327.88	4.65	-41.1	-42.6	19.6	0.00e+00	50	35	0	1168113664	54	6880
2026-01-29 20:52:04.78	327.78	4.60	-41.1	-42.6	19.5	0.00e+00	23	34	0	1170210816	54	6872
2026-01-29 20:52:05.79	327.68	4.54	-41.3	-42.8	19.3	0.00e+00	92	34	0	1172307968	54	7042
2026-01-29 20:52:06.80	327.59	4.49	-41.0	-42.5	19.8	0.00e+00	55	35	0	1173356544	54	6777
2026-01-29 20:52:07.80	327.49	4.44	-41.1	-42.5	19.6	0.00e+00	90	34	0	1175453696	54	6848
2026-01-29 20:52:08.81	327.40	4.38	-41.5	-43.0	19.1	0.00e+00	53	35	0	1177550848	54	7201
2026-01-29 20:52:09.82	327.30	4.33	-41.7	-43.3	18.6	0.00e+00	55	34	0	1179648000	54	7471
2026-01-29 20:52:10.83	327.21	4.27	-41.8	-43.4	18.9	0.00e+00	21	34	0	1181745152	56	6715
2026-01-29 20:52:11.84	327.11	4.22	-42.0	-43.7	18.7	0.00e+00	61	34	0	1183842304	56	6950
2026-01-29 20:52:12.85	327.02	4.17	-41.6	-43.2	18.9	0.00e+00	91	35	0	1184890880	56	6556
2026-01-29 20:52:13.86	326.93	4.11	-41.6	-43.2	18.8	0.00e+00	0	34	0	1186988032	56	6578
2026-01-29 20:52:14.86	326.83	4.06	-41.5	-43.1	19.1	0.00e+00	92	34	0	1189085184	56	6486
2026-01-29 20:52:15.88	326.74	4.00	-41.4	-43.0	19.2	0.00e+00	54	34	0	1191182336	56	6401
2026-01-29 20:52:16.88	326.65	3.95	-41.9	-43.5	18.6	0.00e+00	0	34	0	1192230912	56	6846
