passes_logs/2026/01/29/R4.6S_Anadyr/R4.6S_Anadyr__20260129_163257_NOAA_21_JPSS-2_rec.log

#Pass ID: 20260129_163257_NOAA 21 (JPSS-2)
#Satellite: NOAA 21 (JPSS-2)
#Configuration: NOAA-21
#almurnet v.1.7.20251203
#Start time: 2026-01-29 16:33:00

#Version: 2.2.20231116
#Station: R4.6S_Anadyr
#Location: 177.4865 lon 64.73178 lat
#TLE: 1 54234U 22150A   26028.89828222  .00000145  00000+0  89569-4 0  9997
#TLE: 2 54234  98.7511 329.6308 0000927 198.8651 161.2491 14.19540676166783

#Time	Az	El	Level	Level2	SNR	BER	BlckErr	Temp	State	Recorded	gain1	gain2
2026-01-29 16:33:00.66	26.53	0.16	-49.1	-66.8	3.4	3.02e+01	0	27	0	0	60	84425
2026-01-29 16:33:01.66	26.49	0.22	-48.9	-61.8	3.5	1.52e+00	0	29	104	0	60	43253
2026-01-29 16:33:02.68	26.45	0.28	-49.1	-61.9	3.5	1.52e+00	0	28	104	0	60	43888
2026-01-29 16:33:03.69	26.40	0.33	-49.0	-61.9	3.5	1.52e+00	0	29	104	0	60	43464
2026-01-29 16:33:04.70	26.36	0.39	-48.9	-61.8	3.5	1.52e+00	0	29	104	0	60	43003
2026-01-29 16:33:05.71	26.32	0.45	-48.9	-61.7	3.5	1.52e+00	0	29	104	0	60	42849
2026-01-29 16:33:06.72	26.27	0.51	-48.9	-61.8	3.5	1.52e+00	0	29	104	0	60	43022
2026-01-29 16:33:07.73	26.23	0.56	-48.9	-61.8	3.5	1.52e+00	0	29	104	0	60	43020
2026-01-29 16:33:08.74	26.19	0.62	-48.9	-61.8	3.5	1.52e+00	0	29	104	0	60	43080
2026-01-29 16:33:09.75	26.14	0.68	-48.9	-61.8	3.5	1.52e+00	0	29	104	0	60	43048
2026-01-29 16:33:10.76	26.10	0.74	-48.9	-61.8	3.5	1.52e+00	0	29	104	0	60	43034
2026-01-29 16:33:11.77	26.05	0.80	-48.9	-61.8	3.5	1.52e+00	0	29	104	0	60	42936
2026-01-29 16:33:12.77	26.01	0.85	-48.9	-61.8	3.5	1.52e+00	0	29	104	0	60	43059
2026-01-29 16:33:13.79	25.96	0.91	-48.9	-61.7	3.5	1.52e+00	0	29	104	0	60	42498
2026-01-29 16:33:14.80	25.92	0.97	-48.8	-61.7	3.5	1.52e+00	0	29	104	0	60	42443
2026-01-29 16:33:15.81	25.87	1.03	-48.8	-61.6	3.5	1.52e+00	0	29	104	0	60	42259
2026-01-29 16:33:16.82	25.83	1.09	-48.7	-61.6	3.5	1.52e+00	0	29	104	0	60	41980
2026-01-29 16:33:17.83	25.78	1.15	-48.6	-61.4	3.5	1.52e+00	0	29	104	0	60	41397
2026-01-29 16:33:18.84	25.74	1.21	-48.5	-61.4	3.5	1.52e+00	0	29	104	0	60	41021
2026-01-29 16:33:19.85	25.69	1.27	-48.4	-61.3	3.5	1.52e+00	0	29	104	0	60	40696
2026-01-29 16:33:20.86	25.65	1.32	-48.3	-61.2	3.5	1.52e+00	0	29	104	0	60	40298
2026-01-29 16:33:21.87	25.60	1.38	-48.2	-61.1	3.5	1.52e+00	0	29	104	0	60	39859
2026-01-29 16:33:22.88	25.55	1.44	-48.1	-60.9	3.5	1.52e+00	0	29	104	0	60	38888
2026-01-29 16:33:23.88	25.51	1.50	-47.8	-60.7	3.5	1.52e+00	0	29	104	0	60	38016
2026-01-29 16:33:24.89	25.46	1.56	-47.5	-60.4	3.5	1.51e+00	0	29	104	0	60	36641
2026-01-29 16:33:25.90	25.41	1.62	-47.5	-60.3	3.5	1.52e+00	0	29	104	0	60	36443
2026-01-29 16:33:26.91	25.36	1.68	-47.5	-60.3	3.5	1.52e+00	0	29	104	0	60	36503
2026-01-29 16:33:27.92	25.32	1.74	-47.5	-60.3	3.5	1.52e+00	0	29	104	0	60	36419
2026-01-29 16:33:28.93	25.27	1.80	-47.5	-60.3	3.5	1.52e+00	0	29	104	0	60	36523
2026-01-29 16:33:29.94	25.22	1.86	-47.5	-60.3	3.5	1.52e+00	0	29	104	0	60	36402
2026-01-29 16:33:30.95	25.17	1.92	-47.5	-60.3	3.5	1.52e+00	0	29	104	0	60	36360
2026-01-29 16:33:31.96	25.12	1.98	-47.5	-60.3	3.5	1.52e+00	0	29	104	0	60	36250
2026-01-29 16:33:32.97	25.07	2.04	-47.5	-60.3	3.5	1.52e+00	0	29	104	0	60	36267
2026-01-29 16:33:33.98	25.03	2.10	-47.5	-60.2	3.5	1.51e+00	0	29	104	0	60	35911
2026-01-29 16:33:35.00	24.98	2.16	-47.5	-60.1	3.5	1.52e+00	0	29	104	0	60	35703
2026-01-29 16:33:36.00	24.93	2.22	-47.5	-60.2	3.5	1.52e+00	0	29	104	0	60	35973
2026-01-29 16:33:37.02	24.88	2.28	-47.5	-60.2	3.5	1.52e+00	0	29	104	0	60	35915
2026-01-29 16:33:38.02	24.83	2.34	-47.5	-60.2	3.5	1.52e+00	0	29	104	0	60	36093
2026-01-29 16:33:39.03	24.78	2.40	-47.5	-60.3	3.5	1.51e+00	0	29	104	0	60	36215
2026-01-29 16:33:40.04	24.73	2.46	-47.5	-60.3	3.5	1.52e+00	0	30	104	0	60	36254
2026-01-29 16:33:41.05	24.68	2.53	-47.5	-60.2	3.5	1.52e+00	0	30	104	0	60	35977
2026-01-29 16:33:42.07	24.63	2.59	-47.5	-60.2	3.4	1.52e+00	0	29	104	0	60	35825
2026-01-29 16:33:43.08	24.57	2.65	-47.5	-60.2	3.5	1.52e+00	0	29	104	0	60	35998
2026-01-29 16:33:44.09	24.52	2.71	-47.5	-60.2	3.5	1.52e+00	0	30	104	0	60	35995
2026-01-29 16:33:45.09	24.47	2.77	-47.5	-60.0	3.5	1.52e+00	0	29	104	0	60	35014
2026-01-29 16:33:46.10	24.42	2.83	-47.4	-59.6	3.5	1.52e+00	0	29	104	0	60	33574
2026-01-29 16:33:47.11	24.37	2.89	-47.4	-59.2	3.5	1.51e+00	0	29	104	0	60	32067
2026-01-29 16:33:48.12	24.32	2.96	-47.4	-59.3	3.5	1.51e+00	0	29	104	0	60	32416
2026-01-29 16:33:49.13	24.26	3.02	-47.4	-59.7	3.5	1.52e+00	0	29	104	0	60	33906
2026-01-29 16:33:50.14	24.21	3.08	-47.5	-60.3	3.5	1.52e+00	0	29	104	0	60	36157
2026-01-29 16:33:51.15	24.16	3.14	-47.4	-59.8	3.5	1.52e+00	0	30	104	0	60	34267
2026-01-29 16:33:52.16	24.11	3.21	-47.1	-56.6	4.4	1.51e+00	0	29	104	0	60	23612
2026-01-29 16:33:53.17	24.05	3.27	-46.4	-52.0	6.9	2.89e-01	122	30	0	1048576	60	13931
2026-01-29 16:33:54.18	24.00	3.33	-45.2	-49.1	10.1	3.13e-02	122	29	0	4194304	60	9991
2026-01-29 16:33:55.19	23.95	3.39	-44.2	-47.1	12.3	5.54e-04	125	29	0	7340032	60	7971
2026-01-29 16:33:56.20	23.89	3.46	-43.2	-45.7	13.9	1.14e-05	123	29	0	10485760	60	6757
2026-01-29 16:33:57.21	23.84	3.52	-42.4	-44.5	15.3	0.00e+00	121	30	0	13631488	58	6578
2026-01-29 16:33:58.22	23.78	3.58	-42.7	-45.0	13.3	0.00e+00	122	29	0	16777216	56	7862
2026-01-29 16:33:59.23	23.73	3.64	-47.4	-58.9	3.5	1.51e+00	0	30	104	16777216	60	30971
2026-01-29 16:34:00.24	23.67	3.71	-46.1	-51.8	4.6	1.51e+00	0	29	104	16777216	60	13601
2026-01-29 16:34:01.25	23.62	3.77	-44.0	-47.1	13.4	5.26e-03	122	30	0	16777216	60	7961
2026-01-29 16:34:02.26	23.56	3.84	-38.3	-39.5	19.7	0.00e+00	121	30	0	19922944	50	5919
2026-01-29 16:34:03.27	23.51	3.90	-47.3	-59.4	3.5	1.52e+00	0	30	104	20971520	60	32589
2026-01-29 16:34:04.28	23.45	3.96	-39.6	-41.3	17.7	0.00e+00	123	29	104	20971520	52	6493
2026-01-29 16:34:05.29	23.39	4.03	-39.1	-40.5	18.9	0.00e+00	122	30	0	23068672	52	5860
2026-01-29 16:34:06.30	23.34	4.09	-38.9	-40.2	19.1	0.00e+00	120	29	0	26214400	52	5695
2026-01-29 16:34:07.31	23.28	4.15	-38.5	-39.8	19.6	0.00e+00	123	29	0	29360128	50	6091
2026-01-29 16:34:08.32	23.22	4.22	-38.6	-39.9	19.5	0.00e+00	120	30	0	32505856	50	6155
2026-01-29 16:34:09.33	23.17	4.28	-38.2	-39.4	20.0	0.00e+00	122	30	0	35651584	50	5842
2026-01-29 16:34:10.34	23.11	4.35	-37.9	-39.0	20.4	0.00e+00	123	30	0	38797312	48	6275
2026-01-29 16:34:11.35	23.05	4.41	-37.8	-38.9	20.5	0.00e+00	120	30	0	41943040	48	6182
2026-01-29 16:34:12.36	22.99	4.48	-38.1	-39.3	20.2	0.00e+00	123	30	0	45088768	48	6483
2026-01-29 16:34:13.37	22.93	4.54	-38.1	-39.3	20.0	0.00e+00	120	30	0	48234496	48	6489
2026-01-29 16:34:14.38	22.87	4.61	-38.2	-39.4	20.2	0.00e+00	121	30	0	51380224	48	6542
2026-01-29 16:34:15.39	22.82	4.67	-38.5	-39.7	20.0	0.00e+00	122	30	0	54525952	48	6764
2026-01-29 16:34:16.40	22.76	4.74	-38.1	-39.3	20.3	0.00e+00	120	30	0	57671680	48	6448
2026-01-29 16:34:17.41	22.70	4.80	-38.2	-39.4	20.3	0.00e+00	123	29	0	60817408	48	6544
2026-01-29 16:34:18.42	22.64	4.87	-37.5	-38.7	20.9	0.00e+00	122	30	0	63963136	48	5996
2026-01-29 16:34:19.43	22.58	4.93	-37.7	-38.8	20.7	0.00e+00	123	30	0	67108864	48	6106
2026-01-29 16:34:20.44	22.52	5.00	-37.2	-38.2	21.2	0.00e+00	120	30	0	70254592	48	5710
2026-01-29 16:34:21.45	22.46	5.07	-37.3	-38.4	21.1	0.00e+00	122	30	0	73400320	48	5847
2026-01-29 16:34:22.46	22.39	5.13	-37.6	-38.7	20.8	0.00e+00	122	30	0	76546048	48	6034
2026-01-29 16:34:23.47	22.33	5.20	-37.6	-38.8	20.8	0.00e+00	123	30	0	79691776	48	6090
2026-01-29 16:34:24.48	22.27	5.26	-37.3	-38.4	21.0	0.00e+00	121	30	0	82837504	48	5835
2026-01-29 16:34:25.49	22.21	5.33	-37.2	-38.3	21.2	0.00e+00	122	30	0	85983232	48	5784
2026-01-29 16:34:26.50	22.15	5.40	-37.2	-38.3	21.3	0.00e+00	122	30	0	89128960	48	5744
2026-01-29 16:34:27.50	22.09	5.46	-37.6	-38.7	20.9	0.00e+00	122	29	0	92274688	48	6043
2026-01-29 16:34:28.51	22.02	5.53	-37.5	-38.6	20.9	0.00e+00	123	30	0	95420416	48	5961
2026-01-29 16:34:29.52	21.96	5.60	-37.8	-38.9	20.8	0.00e+00	120	30	0	98566144	48	6174
2026-01-29 16:34:30.54	21.89	5.67	-37.8	-39.0	20.6	0.00e+00	122	30	0	101711872	48	6210
2026-01-29 16:34:31.55	21.83	5.73	-38.0	-39.2	20.5	0.00e+00	122	29	0	104857600	48	6368
2026-01-29 16:34:32.56	21.77	5.80	-37.8	-39.0	20.6	0.00e+00	123	30	0	108003328	48	6225
2026-01-29 16:34:33.57	21.70	5.87	-38.0	-39.2	20.4	0.00e+00	123	30	0	111149056	48	6360
2026-01-29 16:34:34.58	21.64	5.94	-37.7	-38.9	20.8	0.00e+00	123	30	0	114294784	48	6141
2026-01-29 16:34:35.59	21.57	6.00	-37.7	-38.8	20.9	0.00e+00	120	30	0	117440512	48	6110
2026-01-29 16:34:36.60	21.51	6.07	-38.2	-39.4	20.2	0.00e+00	123	30	0	120586240	48	6534
2026-01-29 16:34:37.61	21.44	6.14	-38.4	-39.7	20.2	0.00e+00	123	30	0	123731968	48	6738
2026-01-29 16:34:38.62	21.38	6.21	-37.8	-39.0	20.7	0.00e+00	120	30	0	126877696	48	6218
2026-01-29 16:34:39.64	21.31	6.28	-38.0	-39.2	20.7	0.00e+00	123	30	0	130023424	48	6383
2026-01-29 16:34:40.64	21.24	6.34	-37.4	-38.6	21.1	0.00e+00	121	30	0	133169152	48	5929
2026-01-29 16:34:41.65	21.18	6.41	-37.7	-38.8	21.1	0.00e+00	123	30	0	136314880	48	6097
2026-01-29 16:34:42.66	21.11	6.48	-37.5	-38.6	21.3	0.00e+00	120	30	0	139460608	48	5962
2026-01-29 16:34:43.67	21.04	6.55	-37.1	-38.1	21.5	0.00e+00	122	30	0	142606336	48	5652
2026-01-29 16:34:44.68	20.97	6.62	-36.7	-37.8	21.8	0.00e+00	123	30	0	145752064	46	6087
2026-01-29 16:34:45.70	20.90	6.69	-36.9	-37.9	21.7	0.00e+00	123	30	0	148897792	46	6196
2026-01-29 16:34:46.71	20.83	6.76	-36.6	-37.7	21.9	0.00e+00	122	30	0	152043520	46	6025
2026-01-29 16:34:47.72	20.77	6.83	-36.7	-37.8	21.9	0.00e+00	120	30	0	155189248	46	6071
2026-01-29 16:34:48.73	20.70	6.90	-36.6	-37.7	21.9	0.00e+00	123	30	0	158334976	46	6010
2026-01-29 16:34:49.73	20.63	6.97	-36.6	-37.7	21.9	0.00e+00	123	30	0	161480704	46	6015
2026-01-29 16:34:50.74	20.56	7.04	-36.7	-37.8	21.9	0.00e+00	122	30	0	164626432	46	6068
2026-01-29 16:34:51.76	20.49	7.11	-36.6	-37.6	22.0	0.00e+00	122	30	0	167772160	46	5969
2026-01-29 16:34:52.77	20.41	7.18	-36.6	-37.7	22.0	0.00e+00	122	30	0	170917888	46	6003
2026-01-29 16:34:53.78	20.34	7.25	-36.7	-37.7	21.8	0.00e+00	122	30	0	174063616	46	6064
2026-01-29 16:34:54.79	20.27	7.32	-37.0	-38.0	21.8	0.00e+00	121	30	0	177209344	46	6247
2026-01-29 16:34:55.80	20.20	7.39	-36.7	-37.7	21.9	0.00e+00	122	30	0	180355072	46	6062
2026-01-29 16:34:56.81	20.13	7.46	-36.8	-37.9	21.8	0.00e+00	123	30	0	183500800	46	6170
2026-01-29 16:34:57.82	20.06	7.53	-36.4	-37.5	22.1	0.00e+00	122	30	0	186646528	46	5882
2026-01-29 16:34:58.83	19.98	7.60	-36.3	-37.4	22.2	0.00e+00	122	30	0	189792256	46	5802
2026-01-29 16:34:59.84	19.91	7.67	-36.4	-37.4	22.1	0.00e+00	123	30	0	192937984	46	5846
2026-01-29 16:35:00.85	19.83	7.75	-36.3	-37.3	22.3	0.00e+00	123	30	0	196083712	46	5776
2026-01-29 16:35:01.86	19.76	7.82	-36.2	-37.2	22.4	0.00e+00	122	30	0	199229440	46	5696
2026-01-29 16:35:02.87	19.69	7.89	-36.2	-37.2	22.3	0.00e+00	122	30	0	202375168	46	5695
2026-01-29 16:35:03.88	19.61	7.96	-36.3	-37.3	22.4	0.00e+00	123	30	0	205520896	46	5736
2026-01-29 16:35:04.89	19.54	8.03	-36.4	-37.4	22.3	0.00e+00	120	30	0	208666624	46	5843
2026-01-29 16:35:05.90	19.46	8.11	-36.1	-37.1	22.4	0.00e+00	123	30	0	211812352	46	5659
2026-01-29 16:35:06.91	19.38	8.18	-36.1	-37.1	22.6	0.00e+00	123	30	0	214958080	46	5606
2026-01-29 16:35:07.92	19.31	8.25	-36.3	-37.3	22.4	0.00e+00	123	30	0	218103808	46	5763
2026-01-29 16:35:08.93	19.23	8.32	-36.1	-37.1	22.6	0.00e+00	123	30	0	221249536	46	5636
2026-01-29 16:35:09.94	19.15	8.40	-36.1	-37.1	22.7	0.00e+00	122	30	0	224395264	46	5613
2026-01-29 16:35:10.95	19.08	8.47	-35.9	-36.9	22.7	0.00e+00	123	30	0	227540992	46	5507
2026-01-29 16:35:11.96	19.00	8.54	-36.0	-37.0	22.7	0.00e+00	122	30	0	230686720	46	5547
2026-01-29 16:35:12.97	18.92	8.62	-35.9	-36.9	22.7	0.00e+00	122	30	0	233832448	46	5508
2026-01-29 16:35:13.98	18.84	8.69	-36.0	-37.0	22.7	0.00e+00	120	30	0	236978176	46	5562
2026-01-29 16:35:14.99	18.76	8.76	-35.7	-36.7	22.9	0.00e+00	122	30	0	240123904	44	5997
2026-01-29 16:35:16.00	18.68	8.84	-35.9	-36.9	22.7	0.00e+00	120	30	0	243269632	44	6141
2026-01-29 16:35:17.01	18.60	8.91	-35.7	-36.7	22.8	0.00e+00	123	30	0	246415360	44	6040
2026-01-29 16:35:18.02	18.52	8.99	-35.6	-36.6	23.0	0.00e+00	120	30	0	249561088	44	5952
2026-01-29 16:35:19.03	18.44	9.06	-35.6	-36.6	23.1	0.00e+00	123	30	0	252706816	44	5951
2026-01-29 16:35:20.04	18.36	9.13	-35.5	-36.5	23.1	0.00e+00	122	30	0	255852544	44	5886
2026-01-29 16:35:21.05	18.27	9.21	-35.4	-36.3	23.3	0.00e+00	122	30	0	258998272	44	5773
2026-01-29 16:35:22.07	18.19	9.28	-35.3	-36.3	23.3	0.00e+00	122	30	0	262144000	44	5764
2026-01-29 16:35:23.07	18.11	9.36	-35.4	-36.4	23.1	0.00e+00	123	30	0	266338304	44	5827
2026-01-29 16:35:24.09	18.02	9.43	-35.6	-36.6	23.0	0.00e+00	122	30	0	269484032	44	5957
2026-01-29 16:35:25.09	17.94	9.51	-35.3	-36.3	23.3	0.00e+00	120	30	0	271581184	44	5726
2026-01-29 16:35:26.10	17.86	9.58	-35.5	-36.4	23.3	0.00e+00	123	30	0	274726912	44	5828
2026-01-29 16:35:27.11	17.77	9.66	-35.5	-36.4	23.1	0.00e+00	122	30	0	277872640	44	5857
2026-01-29 16:35:28.12	17.69	9.74	-35.2	-36.2	23.4	0.00e+00	123	30	0	282066944	44	5672
2026-01-29 16:35:29.13	17.60	9.81	-35.3	-36.2	23.3	0.00e+00	122	30	0	285212672	44	5709
2026-01-29 16:35:30.15	17.52	9.89	-35.2	-36.1	23.4	0.00e+00	122	30	0	288358400	44	5628
2026-01-29 16:35:31.16	17.43	9.97	-35.3	-36.2	23.3	0.00e+00	123	30	0	291504128	44	5700
2026-01-29 16:35:32.17	17.34	10.04	-35.3	-36.2	23.3	0.00e+00	123	30	0	294649856	44	5708
2026-01-29 16:35:33.18	17.25	10.12	-35.3	-36.2	23.3	0.00e+00	123	30	0	297795584	44	5713
2026-01-29 16:35:34.19	17.17	10.20	-35.3	-36.2	23.4	0.00e+00	120	30	0	300941312	44	5697
2026-01-29 16:35:35.20	17.08	10.27	-35.3	-36.3	23.2	0.00e+00	122	30	0	304087040	44	5753
2026-01-29 16:35:36.21	16.99	10.35	-35.3	-36.3	23.4	0.00e+00	122	30	0	307232768	44	5732
2026-01-29 16:35:37.22	16.90	10.43	-35.2	-36.1	23.6	0.00e+00	123	30	0	310378496	44	5649
2026-01-29 16:35:38.23	16.81	10.50	-35.1	-36.0	23.6	0.00e+00	121	30	0	313524224	44	5590
2026-01-29 16:35:39.24	16.72	10.58	-35.2	-36.1	23.5	0.00e+00	122	30	0	316669952	44	5647
2026-01-29 16:35:40.26	16.63	10.66	-35.1	-36.0	23.5	0.00e+00	124	30	0	319815680	44	5578
2026-01-29 16:35:41.27	16.54	10.74	-35.0	-36.0	23.6	0.00e+00	123	30	0	322961408	44	5546
2026-01-29 16:35:42.28	16.44	10.82	-35.0	-36.0	23.6	0.00e+00	123	30	0	326107136	44	5533
2026-01-29 16:35:43.29	16.35	10.90	-35.1	-36.0	23.5	0.00e+00	122	30	0	329252864	44	5593
2026-01-29 16:35:44.30	16.26	10.97	-35.1	-36.0	23.5	0.00e+00	123	30	0	332398592	44	5572
2026-01-29 16:35:45.31	16.16	11.05	-35.0	-35.9	23.6	0.00e+00	122	30	0	335544320	44	5500
2026-01-29 16:35:46.32	16.07	11.13	-35.0	-35.9	23.6	0.00e+00	121	30	0	338690048	44	5496
2026-01-29 16:35:47.33	15.98	11.21	-35.0	-35.9	23.5	0.00e+00	122	30	0	341835776	44	5524
2026-01-29 16:35:48.34	15.88	11.29	-35.1	-36.0	23.5	0.00e+00	123	30	0	344981504	44	5568
2026-01-29 16:35:49.35	15.79	11.37	-35.1	-36.0	23.5	0.00e+00	123	30	0	348127232	44	5579
2026-01-29 16:35:50.36	15.69	11.45	-35.0	-35.9	23.5	0.00e+00	122	30	0	351272960	44	5505
2026-01-29 16:35:51.37	15.59	11.53	-34.9	-35.9	23.6	0.00e+00	122	30	0	354418688	44	5496
2026-01-29 16:35:52.38	15.50	11.61	-35.1	-36.1	23.6	0.00e+00	123	30	0	357564416	44	5620
2026-01-29 16:35:53.39	15.40	11.69	-34.9	-35.8	23.7	0.00e+00	122	30	0	360710144	44	5436
2026-01-29 16:35:54.40	15.30	11.77	-34.9	-35.8	23.8	0.00e+00	123	30	0	363855872	44	5467
2026-01-29 16:35:55.41	15.20	11.85	-34.9	-35.8	23.7	0.00e+00	122	30	0	367001600	44	5452
2026-01-29 16:35:56.42	15.10	11.93	-34.8	-35.8	23.9	0.00e+00	122	30	0	370147328	44	5415
2026-01-29 16:35:57.44	15.00	12.01	-34.9	-35.8	23.8	0.00e+00	122	30	0	373293056	42	6085
2026-01-29 16:35:58.45	14.90	12.09	-35.0	-35.9	23.8	0.00e+00	123	30	0	376438784	42	6189
2026-01-29 16:35:59.46	14.80	12.17	-34.8	-35.7	23.9	0.00e+00	123	30	0	379584512	42	6044
2026-01-29 16:36:00.47	14.70	12.26	-34.8	-35.7	23.8	0.00e+00	123	30	0	382730240	42	6024
2026-01-29 16:36:01.48	14.59	12.34	-34.6	-35.6	24.0	0.00e+00	122	30	0	385875968	42	5928
2026-01-29 16:36:02.49	14.49	12.42	-34.7	-35.6	23.9	0.00e+00	122	30	0	389021696	42	5969
2026-01-29 16:36:03.50	14.39	12.50	-34.9	-35.8	23.8	0.00e+00	123	30	0	392167424	42	6101
2026-01-29 16:36:04.51	14.28	12.58	-34.8	-35.7	23.9	0.00e+00	122	30	0	395313152	42	6011
2026-01-29 16:36:05.52	14.18	12.67	-34.8	-35.7	23.8	0.00e+00	120	30	0	398458880	42	6060
2026-01-29 16:36:06.53	14.07	12.75	-34.8	-35.7	24.0	0.00e+00	123	30	0	401604608	42	6009
2026-01-29 16:36:07.54	13.97	12.83	-34.7	-35.6	23.9	0.00e+00	122	30	0	404750336	42	5948
2026-01-29 16:36:08.55	13.86	12.91	-34.8	-35.7	23.9	0.00e+00	122	30	0	407896064	42	6054
2026-01-29 16:36:09.56	13.75	13.00	-34.7	-35.7	24.0	0.00e+00	120	30	0	411041792	42	5998
2026-01-29 16:36:10.57	13.65	13.08	-34.8	-35.7	24.0	0.00e+00	123	30	0	414187520	42	6021
2026-01-29 16:36:11.58	13.54	13.16	-34.6	-35.5	24.1	0.00e+00	122	30	0	417333248	42	5923
2026-01-29 16:36:12.59	13.43	13.25	-34.6	-35.5	24.1	0.00e+00	123	30	0	420478976	42	5925
2026-01-29 16:36:13.60	13.32	13.33	-34.6	-35.5	24.1	0.00e+00	120	30	0	423624704	42	5878
2026-01-29 16:36:14.61	13.21	13.41	-34.6	-35.5	24.1	0.00e+00	123	30	0	426770432	42	5883
2026-01-29 16:36:15.62	13.10	13.50	-34.6	-35.5	24.1	0.00e+00	123	30	0	429916160	42	5867
2026-01-29 16:36:16.63	12.98	13.58	-34.5	-35.4	24.1	0.00e+00	122	30	0	433061888	42	5831
2026-01-29 16:36:17.64	12.87	13.67	-34.6	-35.5	24.1	0.00e+00	123	30	0	436207616	42	5874
2026-01-29 16:36:18.65	12.76	13.75	-34.7	-35.7	23.9	0.00e+00	120	30	0	439353344	42	6000
2026-01-29 16:36:19.66	12.65	13.84	-34.6	-35.5	24.1	0.00e+00	123	30	0	442499072	42	5877
2026-01-29 16:36:20.67	12.53	13.92	-34.6	-35.5	24.1	0.00e+00	122	30	0	445644800	42	5861
2026-01-29 16:36:21.68	12.42	14.01	-34.7	-35.6	23.9	0.00e+00	123	30	0	448790528	42	5949
2026-01-29 16:36:22.69	12.30	14.09	-34.6	-35.6	24.1	0.00e+00	120	30	0	451936256	42	5929
2026-01-29 16:36:23.70	12.18	14.18	-34.7	-35.6	24.0	0.00e+00	122	30	0	455081984	42	5982
2026-01-29 16:36:24.71	12.07	14.26	-34.6	-35.5	24.1	0.00e+00	120	30	0	458227712	42	5893
2026-01-29 16:36:25.72	11.95	14.35	-34.7	-35.6	24.0	0.00e+00	123	30	0	461373440	42	5939
2026-01-29 16:36:26.73	11.83	14.44	-34.7	-35.6	24.1	0.00e+00	122	30	0	464519168	42	5946
2026-01-29 16:36:27.74	11.71	14.52	-34.6	-35.6	24.1	0.00e+00	123	30	0	467664896	42	5932
2026-01-29 16:36:28.75	11.59	14.61	-34.5	-35.4	24.2	0.00e+00	122	30	0	470810624	42	5846
2026-01-29 16:36:29.76	11.47	14.70	-34.5	-35.4	24.1	0.00e+00	123	30	0	473956352	42	5855
2026-01-29 16:36:30.77	11.35	14.78	-34.6	-35.5	24.1	0.00e+00	122	30	0	477102080	42	5905
2026-01-29 16:36:31.78	11.23	14.87	-34.8	-35.7	24.0	0.00e+00	120	30	0	480247808	42	6028
2026-01-29 16:36:32.79	11.10	14.96	-34.7	-35.7	24.0	0.00e+00	123	30	0	483393536	42	6002
2026-01-29 16:36:33.80	10.98	15.04	-34.9	-35.8	23.9	0.00e+00	122	30	0	486539264	42	6108
2026-01-29 16:36:34.81	10.86	15.13	-34.8	-35.8	23.8	0.00e+00	122	30	0	489684992	42	6072
2026-01-29 16:36:35.82	10.73	15.22	-34.8	-35.7	23.9	0.00e+00	120	30	0	492830720	42	6008
2026-01-29 16:36:36.83	10.61	15.31	-34.9	-35.9	23.8	0.00e+00	122	30	0	495976448	42	6148
2026-01-29 16:36:37.84	10.48	15.40	-34.7	-35.7	24.0	0.00e+00	120	30	0	499122176	42	5997
2026-01-29 16:36:38.86	10.35	15.48	-34.7	-35.7	23.9	0.00e+00	122	30	0	502267904	42	6010
2026-01-29 16:36:39.87	10.22	15.57	-34.7	-35.7	24.0	0.00e+00	123	30	0	505413632	42	6003
2026-01-29 16:36:40.88	10.09	15.66	-34.9	-35.8	23.9	0.00e+00	123	30	0	508559360	42	6094
2026-01-29 16:36:41.89	9.96	15.75	-34.9	-35.8	24.0	0.00e+00	123	30	0	511705088	42	6087
2026-01-29 16:36:42.90	9.83	15.84	-34.9	-35.9	23.8	0.00e+00	123	30	0	514850816	42	6135
2026-01-29 16:36:43.91	9.70	15.93	-35.0	-35.9	23.8	0.00e+00	123	30	0	517996544	42	6178
2026-01-29 16:36:44.92	9.57	16.02	-35.0	-36.0	23.8	0.00e+00	122	30	0	521142272	42	6226
2026-01-29 16:36:45.93	9.44	16.11	-35.1	-36.0	23.7	0.00e+00	120	30	0	524288000	42	6250
2026-01-29 16:36:46.94	9.30	16.20	-35.3	-36.2	23.7	0.00e+00	122	30	0	527433728	42	6398
2026-01-29 16:36:47.95	9.17	16.29	-35.1	-36.0	23.8	0.00e+00	120	30	0	530579456	42	6273
2026-01-29 16:36:48.96	9.03	16.38	-35.2	-36.1	23.7	0.00e+00	122	30	0	533725184	42	6330
2026-01-29 16:36:49.97	8.90	16.47	-35.0	-36.0	23.9	0.00e+00	120	30	0	537919488	42	6226
2026-01-29 16:36:50.98	8.76	16.56	-34.9	-35.8	23.9	0.00e+00	122	30	0	541065216	42	6105
2026-01-29 16:36:51.99	8.62	16.65	-35.1	-36.1	23.8	0.00e+00	123	30	0	543162368	42	6283
2026-01-29 16:36:53.00	8.48	16.74	-35.3	-36.3	23.6	0.00e+00	122	30	0	546308096	42	6426
2026-01-29 16:36:54.01	8.34	16.83	-35.3	-36.2	23.6	0.00e+00	122	30	0	549453824	42	6410
2026-01-29 16:36:55.03	8.20	16.92	-35.5	-36.4	23.4	0.00e+00	123	30	0	553648128	42	6554
2026-01-29 16:36:56.04	8.06	17.01	-35.5	-36.5	23.4	0.00e+00	122	30	0	556793856	42	6624
2026-01-29 16:36:57.04	7.92	17.10	-35.4	-36.4	23.5	0.00e+00	120	30	0	559939584	42	6522
2026-01-29 16:36:58.06	7.77	17.19	-35.4	-36.4	23.4	0.00e+00	123	30	0	563085312	42	6519
2026-01-29 16:36:59.07	7.63	17.29	-35.3	-36.3	23.6	0.00e+00	122	30	0	565182464	42	6444
2026-01-29 16:37:00.08	7.48	17.38	-35.4	-36.3	23.5	0.00e+00	120	30	0	569376768	42	6479
2026-01-29 16:37:01.09	7.34	17.47	-35.1	-36.1	23.8	0.00e+00	123	30	0	572522496	42	6280
2026-01-29 16:37:02.08	7.20	17.56	-35.3	-36.2	23.7	0.00e+00	120	30	0	575668224	42	6399
2026-01-29 16:37:03.09	7.05	17.65	-35.1	-36.1	23.8	0.00e+00	123	30	0	578813952	42	6278
2026-01-29 16:37:04.10	6.90	17.74	-35.1	-36.0	23.8	0.00e+00	121	30	0	581959680	42	6217
2026-01-29 16:37:05.11	6.75	17.84	-35.1	-36.0	23.8	0.00e+00	123	30	0	585105408	42	6275
2026-01-29 16:37:06.12	6.60	17.93	-34.6	-35.6	24.1	0.00e+00	120	30	0	588251136	42	5931
2026-01-29 16:37:07.13	6.45	18.02	-34.6	-35.5	24.1	0.00e+00	123	30	0	591396864	42	5914
2026-01-29 16:37:08.14	6.30	18.11	-34.7	-35.6	24.1	0.00e+00	123	30	0	594542592	42	5981
2026-01-29 16:37:09.15	6.14	18.21	-34.7	-35.7	24.1	0.00e+00	120	30	0	597688320	42	5995
2026-01-29 16:37:10.16	5.99	18.30	-34.6	-35.5	24.1	0.00e+00	123	30	0	600834048	42	5891
2026-01-29 16:37:11.17	5.83	18.39	-34.7	-35.6	24.1	0.00e+00	120	30	0	603979776	42	5986
2026-01-29 16:37:12.18	5.68	18.49	-34.5	-35.4	24.2	0.00e+00	122	30	0	607125504	42	5842
2026-01-29 16:37:13.19	5.52	18.58	-34.6	-35.6	24.2	0.00e+00	123	30	0	610271232	42	5927
2026-01-29 16:37:14.20	5.36	18.67	-34.8	-35.7	24.0	0.00e+00	120	30	0	613416960	42	6028
2026-01-29 16:37:15.21	5.20	18.77	-34.7	-35.6	24.2	0.00e+00	123	30	0	616562688	42	5958
2026-01-29 16:37:16.22	5.04	18.86	-34.5	-35.4	24.3	0.00e+00	120	30	0	619708416	42	5800
2026-01-29 16:37:17.23	4.88	18.96	-34.7	-35.6	24.2	0.00e+00	123	30	0	622854144	42	5958
2026-01-29 16:37:18.24	4.72	19.05	-34.4	-35.2	24.5	0.00e+00	123	30	0	625999872	42	5723
2026-01-29 16:37:19.25	4.55	19.14	-34.4	-35.3	24.5	0.00e+00	120	30	0	629145600	42	5739
2026-01-29 16:37:20.26	4.39	19.24	-34.0	-34.8	24.7	0.00e+00	122	30	0	632291328	42	5460
2026-01-29 16:37:21.27	4.23	19.33	-34.0	-34.9	24.7	0.00e+00	120	30	0	635437056	42	5491
2026-01-29 16:37:22.28	4.06	19.43	-34.0	-34.8	24.7	0.00e+00	123	30	0	638582784	42	5458
2026-01-29 16:37:23.29	3.89	19.52	-33.9	-34.7	24.8	0.00e+00	123	30	0	641728512	42	5387
2026-01-29 16:37:24.31	3.72	19.62	-33.9	-34.7	24.8	0.00e+00	122	30	0	644874240	42	5403
2026-01-29 16:37:25.32	3.55	19.71	-33.7	-34.6	24.9	0.00e+00	123	30	0	648019968	40	5956
2026-01-29 16:37:26.33	3.38	19.81	-33.9	-34.7	24.8	0.00e+00	123	30	0	651165696	40	6060
2026-01-29 16:37:27.34	3.21	19.90	-33.7	-34.5	24.9	0.00e+00	122	30	0	654311424	40	5923
2026-01-29 16:37:28.35	3.04	20.00	-33.7	-34.5	25.0	0.00e+00	123	30	0	657457152	40	5919
2026-01-29 16:37:29.36	2.86	20.09	-33.6	-34.5	24.9	0.00e+00	123	30	0	660602880	40	5864
2026-01-29 16:37:30.37	2.69	20.19	-33.7	-34.6	24.9	0.00e+00	123	30	0	663748608	40	5967
2026-01-29 16:37:31.37	2.51	20.28	-33.8	-34.7	24.8	0.00e+00	123	30	0	666894336	40	6006
2026-01-29 16:37:32.39	2.33	20.38	-33.6	-34.5	24.9	0.00e+00	122	30	0	670040064	40	5904
2026-01-29 16:37:33.40	2.16	20.47	-33.7	-34.6	24.8	0.00e+00	123	30	0	673185792	40	5943
2026-01-29 16:37:34.40	1.98	20.57	-33.6	-34.5	24.9	0.00e+00	120	30	0	676331520	40	5868
2026-01-29 16:37:35.42	1.80	20.67	-33.7	-34.6	24.9	0.00e+00	122	30	0	679477248	40	5929
2026-01-29 16:37:36.43	1.61	20.76	-33.6	-34.5	25.0	0.00e+00	122	30	0	682622976	40	5910
2026-01-29 16:37:37.44	1.43	20.86	-33.6	-34.5	25.0	0.00e+00	123	30	0	685768704	40	5875
2026-01-29 16:37:38.45	1.25	20.95	-33.7	-34.5	24.9	0.00e+00	120	30	0	688914432	40	5910
2026-01-29 16:37:39.45	1.06	21.05	-33.6	-34.5	25.0	0.00e+00	123	30	0	692060160	40	5878
2026-01-29 16:37:40.46	0.88	21.14	-33.7	-34.5	24.9	0.00e+00	122	30	0	695205888	40	5920
2026-01-29 16:37:41.47	0.69	21.24	-33.8	-34.7	24.9	0.00e+00	123	30	0	698351616	40	6019
2026-01-29 16:37:42.48	0.50	21.33	-33.8	-34.7	24.8	0.00e+00	122	30	0	701497344	40	6015
2026-01-29 16:37:43.49	0.31	21.43	-33.6	-34.5	25.0	0.00e+00	123	30	0	704643072	40	5860
2026-01-29 16:37:44.50	0.12	21.53	-33.5	-34.4	25.0	0.00e+00	123	30	0	707788800	40	5819
2026-01-29 16:37:45.51	359.93	21.62	-33.6	-34.4	24.9	0.00e+00	122	30	0	710934528	40	5852
2026-01-29 16:37:46.53	359.73	21.72	-33.4	-34.3	25.1	0.00e+00	123	30	0	714080256	40	5750
2026-01-29 16:37:47.54	359.54	21.82	-33.5	-34.4	25.0	0.00e+00	122	30	0	717225984	40	5830
2026-01-29 16:37:48.55	359.34	21.91	-33.5	-34.4	25.1	0.00e+00	122	30	0	720371712	40	5803
2026-01-29 16:37:49.56	359.14	22.01	-33.6	-34.4	25.0	0.00e+00	123	30	0	723517440	40	5850
2026-01-29 16:37:50.57	358.94	22.10	-33.5	-34.4	24.9	0.00e+00	123	30	0	726663168	40	5814
2026-01-29 16:37:51.58	358.74	22.20	-33.6	-34.5	24.9	0.00e+00	122	30	0	729808896	40	5874
2026-01-29 16:37:52.59	358.54	22.30	-33.4	-34.3	25.0	0.00e+00	120	30	0	732954624	40	5766
2026-01-29 16:37:53.60	358.34	22.39	-33.5	-34.3	25.1	0.00e+00	123	30	0	736100352	40	5790
2026-01-29 16:37:54.61	358.14	22.49	-33.5	-34.4	25.0	0.00e+00	122	30	0	739246080	40	5835
2026-01-29 16:37:55.62	357.93	22.58	-33.5	-34.3	25.0	0.00e+00	122	30	0	742391808	40	5777
2026-01-29 16:37:56.64	357.72	22.68	-33.5	-34.4	25.0	0.00e+00	123	30	0	745537536	40	5813
2026-01-29 16:37:57.65	357.52	22.78	-33.5	-34.3	25.1	0.00e+00	122	30	0	748683264	40	5778
2026-01-29 16:37:58.66	357.31	22.87	-33.7	-34.5	24.8	0.00e+00	120	30	0	751828992	40	5926
2026-01-29 16:37:59.67	357.10	22.97	-33.8	-34.7	24.7	0.00e+00	122	30	0	754974720	40	6003
2026-01-29 16:38:00.68	356.89	23.06	-34.0	-34.9	24.5	0.00e+00	123	30	0	758120448	40	6174
2026-01-29 16:38:01.69	356.67	23.16	-33.8	-34.7	24.8	0.00e+00	123	30	0	761266176	40	6024
2026-01-29 16:38:02.70	356.46	23.26	-33.9	-34.8	24.8	0.00e+00	116	30	0	764411904	40	6090
2026-01-29 16:38:03.71	356.24	23.35	-33.6	-34.5	25.0	0.00e+00	123	30	0	767557632	40	5892
2026-01-29 16:38:04.72	356.03	23.45	-33.6	-34.5	25.1	0.00e+00	122	30	0	770703360	40	5873
2026-01-29 16:38:05.73	355.81	23.54	-33.4	-34.3	25.1	0.00e+00	123	30	0	773849088	40	5726
2026-01-29 16:38:06.74	355.59	23.64	-33.3	-34.1	25.1	0.00e+00	120	30	0	776994816	40	5658
2026-01-29 16:38:07.74	355.37	23.73	-33.3	-34.2	25.1	0.00e+00	123	30	0	780140544	40	5698
2026-01-29 16:38:08.75	355.15	23.83	-33.6	-34.5	24.9	0.00e+00	122	30	0	783286272	40	5860
2026-01-29 16:38:09.76	354.93	23.92	-33.8	-34.7	24.8	0.00e+00	122	30	0	786432000	40	6017
2026-01-29 16:38:10.77	354.70	24.01	-33.8	-34.7	24.9	0.00e+00	123	30	0	789577728	40	5997
2026-01-29 16:38:11.78	354.48	24.11	-33.7	-34.6	25.0	0.00e+00	123	30	0	792723456	40	5936
2026-01-29 16:38:12.79	354.25	24.20	-33.7	-34.6	25.0	0.00e+00	123	30	0	795869184	40	5971
2026-01-29 16:38:13.80	354.02	24.30	-33.6	-34.5	24.9	0.00e+00	120	30	0	799014912	40	5897
2026-01-29 16:38:14.81	353.79	24.39	-33.6	-34.5	25.1	0.00e+00	123	30	0	802160640	40	5868
2026-01-29 16:38:15.82	353.56	24.49	-33.5	-34.4	25.1	0.00e+00	123	30	0	805306368	40	5822
2026-01-29 16:38:16.83	353.32	24.58	-33.8	-34.6	24.9	0.00e+00	123	30	0	808452096	40	5976
2026-01-29 16:38:17.84	353.09	24.67	-33.5	-34.4	25.0	0.00e+00	122	30	0	811597824	40	5801
2026-01-29 16:38:18.85	352.85	24.77	-33.6	-34.4	25.0	0.00e+00	123	30	0	814743552	40	5856
2026-01-29 16:38:19.86	352.62	24.86	-33.6	-34.4	25.0	0.00e+00	122	30	0	817889280	40	5848
2026-01-29 16:38:20.87	352.38	24.95	-33.7	-34.6	24.8	0.00e+00	120	30	0	821035008	40	5983
2026-01-29 16:38:21.88	352.14	25.04	-33.6	-34.5	25.0	0.00e+00	123	30	0	824180736	40	5883
2026-01-29 16:38:22.89	351.89	25.14	-33.5	-34.4	25.1	0.00e+00	123	30	0	827326464	40	5839
2026-01-29 16:38:23.90	351.65	25.23	-33.7	-34.6	24.9	0.00e+00	122	30	0	831520768	40	5934
2026-01-29 16:38:24.91	351.41	25.32	-33.7	-34.6	24.7	0.00e+00	120	30	0	833617920	40	5978
2026-01-29 16:38:25.92	351.16	25.41	-33.8	-34.7	24.7	0.00e+00	123	30	0	836763648	40	6021
2026-01-29 16:38:26.93	350.91	25.50	-34.0	-34.9	24.6	0.00e+00	122	30	0	839909376	40	6142
2026-01-29 16:38:27.94	350.66	25.60	-34.3	-35.2	24.4	0.00e+00	123	30	0	843055104	40	6401
2026-01-29 16:38:28.95	350.41	25.69	-34.5	-35.4	24.3	0.00e+00	122	30	0	846200832	40	6539
2026-01-29 16:38:29.96	350.16	25.78	-34.6	-35.5	24.3	0.00e+00	120	30	0	850395136	40	6579
2026-01-29 16:38:30.97	349.91	25.87	-34.6	-35.6	24.3	0.00e+00	122	30	0	853540864	40	6665
2026-01-29 16:38:31.98	349.65	25.96	-34.7	-35.6	24.3	0.00e+00	120	30	0	856686592	40	6705
2026-01-29 16:38:32.99	349.40	26.05	-34.6	-35.5	24.3	0.00e+00	123	30	0	858783744	42	5902
2026-01-29 16:38:34.00	349.14	26.14	-34.5	-35.4	24.4	0.00e+00	123	30	0	862978048	42	5848
2026-01-29 16:38:35.01	348.88	26.22	-34.4	-35.3	24.4	0.00e+00	123	30	0	866123776	42	5791
2026-01-29 16:38:36.02	348.62	26.31	-34.5	-35.4	24.4	0.00e+00	123	30	0	869269504	42	5813
2026-01-29 16:38:37.03	348.36	26.40	-34.5	-35.4	24.4	0.00e+00	121	30	0	872415232	42	5823
2026-01-29 16:38:38.04	348.09	26.49	-34.4	-35.3	24.6	0.00e+00	123	30	0	875560960	42	5730
2026-01-29 16:38:39.06	347.83	26.58	-34.1	-34.9	24.8	0.00e+00	120	30	0	878706688	42	5524
2026-01-29 16:38:40.06	347.56	26.66	-33.9	-34.8	24.8	0.00e+00	120	30	0	881852416	42	5441
2026-01-29 16:38:41.07	347.29	26.75	-34.1	-35.0	24.7	0.00e+00	122	30	0	884998144	42	5567
2026-01-29 16:38:42.09	347.02	26.84	-34.0	-34.9	24.8	0.00e+00	121	30	0	888143872	42	5502
2026-01-29 16:38:43.10	346.75	26.92	-34.2	-35.1	24.5	0.00e+00	122	30	0	891289600	42	5622
2026-01-29 16:38:44.11	346.48	27.01	-34.3	-35.3	24.4	0.00e+00	123	30	0	894435328	42	5730
2026-01-29 16:38:45.12	346.21	27.09	-34.5	-35.4	24.2	0.00e+00	122	30	0	897581056	42	5853
2026-01-29 16:38:46.13	345.93	27.18	-34.5	-35.4	24.3	0.00e+00	120	30	0	900726784	42	5838
2026-01-29 16:38:47.14	345.65	27.26	-34.3	-35.1	24.6	0.00e+00	122	30	0	903872512	42	5654
2026-01-29 16:38:48.15	345.37	27.34	-34.1	-35.0	24.7	0.00e+00	122	30	0	907018240	42	5548
2026-01-29 16:38:49.16	345.09	27.43	-34.2	-35.1	24.7	0.00e+00	123	30	0	910163968	42	5623
2026-01-29 16:38:50.16	344.82	27.51	-34.3	-35.2	24.6	0.00e+00	122	30	0	913309696	42	5675
2026-01-29 16:38:51.18	344.53	27.59	-34.3	-35.2	24.6	0.00e+00	122	30	0	916455424	42	5676
2026-01-29 16:38:52.19	344.25	27.67	-34.3	-35.2	24.4	0.00e+00	120	30	0	919601152	42	5685
2026-01-29 16:38:53.20	343.96	27.75	-34.2	-35.1	24.4	0.00e+00	123	30	0	922746880	42	5653
2026-01-29 16:38:54.21	343.67	27.83	-34.2	-35.1	24.6	0.00e+00	120	30	0	925892608	42	5649
2026-01-29 16:38:55.22	343.38	27.91	-34.1	-35.0	24.7	0.00e+00	123	30	0	929038336	42	5582
2026-01-29 16:38:56.23	343.09	27.99	-33.9	-34.8	24.9	0.00e+00	122	30	0	932184064	42	5415
2026-01-29 16:38:57.24	342.80	28.07	-33.9	-34.7	24.9	0.00e+00	122	30	0	935329792	42	5393
2026-01-29 16:38:58.25	342.51	28.15	-33.9	-34.8	24.7	0.00e+00	120	30	0	938475520	42	5450
2026-01-29 16:38:59.26	342.22	28.23	-34.2	-35.1	24.6	0.00e+00	123	30	0	941621248	42	5601
2026-01-29 16:39:00.27	341.92	28.30	-34.4	-35.3	24.4	0.00e+00	121	30	0	944766976	42	5755
2026-01-29 16:39:01.28	341.62	28.38	-34.5	-35.4	24.5	0.00e+00	123	30	0	947912704	42	5811
2026-01-29 16:39:02.29	341.32	28.45	-34.4	-35.3	24.5	0.00e+00	120	30	0	951058432	42	5748
2026-01-29 16:39:03.30	341.02	28.53	-34.6	-35.5	24.3	0.00e+00	123	30	0	954204160	42	5903
2026-01-29 16:39:04.31	340.72	28.60	-34.6	-35.5	24.3	0.00e+00	123	30	0	957349888	42	5914
2026-01-29 16:39:05.32	340.42	28.68	-34.6	-35.5	24.2	0.00e+00	120	30	0	960495616	42	5896
2026-01-29 16:39:06.33	340.12	28.75	-34.7	-35.6	24.1	0.00e+00	123	30	0	963641344	42	5984
2026-01-29 16:39:07.34	339.81	28.82	-34.7	-35.6	24.2	0.00e+00	120	30	0	966787072	42	5993
2026-01-29 16:39:08.35	339.50	28.89	-34.6	-35.5	24.3	0.00e+00	122	30	0	969932800	42	5905
2026-01-29 16:39:09.36	339.19	28.96	-34.3	-35.2	24.6	0.00e+00	120	30	0	973078528	42	5694
2026-01-29 16:39:10.37	338.88	29.03	-34.4	-35.3	24.5	0.00e+00	122	30	0	976224256	42	5728
2026-01-29 16:39:11.38	338.57	29.10	-34.2	-35.0	24.6	0.00e+00	120	30	0	979369984	42	5589
2026-01-29 16:39:12.39	338.26	29.17	-34.2	-35.1	24.5	0.00e+00	123	30	0	982515712	42	5596
2026-01-29 16:39:13.40	337.95	29.24	-34.2	-35.1	24.6	0.00e+00	120	30	0	985661440	42	5615
2026-01-29 16:39:14.41	337.63	29.30	-34.1	-35.0	24.7	0.00e+00	123	30	0	988807168	42	5579
2026-01-29 16:39:15.43	337.31	29.37	-34.4	-35.2	24.6	0.00e+00	122	30	0	991952896	42	5720
2026-01-29 16:39:16.43	337.00	29.43	-34.2	-35.0	24.7	0.00e+00	122	30	0	995098624	42	5587
2026-01-29 16:39:17.45	336.68	29.50	-34.2	-35.1	24.7	0.00e+00	123	30	0	998244352	42	5613
2026-01-29 16:39:18.46	336.36	29.56	-34.2	-35.1	24.7	0.00e+00	123	30	0	1001390080	42	5626
2026-01-29 16:39:19.47	336.03	29.62	-34.5	-35.4	24.3	0.00e+00	122	30	0	1004535808	42	5831
2026-01-29 16:39:20.48	335.71	29.68	-34.5	-35.4	24.3	0.00e+00	123	30	0	1007681536	42	5815
2026-01-29 16:39:21.49	335.39	29.74	-34.6	-35.5	24.4	0.00e+00	120	30	0	1010827264	42	5891
2026-01-29 16:39:22.50	335.06	29.80	-34.4	-35.3	24.5	0.00e+00	123	30	0	1013972992	42	5768
2026-01-29 16:39:23.51	334.74	29.86	-34.6	-35.5	24.3	0.00e+00	122	30	0	1017118720	42	5904
2026-01-29 16:39:24.52	334.41	29.92	-34.7	-35.6	24.2	0.00e+00	122	30	0	1020264448	42	5939
2026-01-29 16:39:25.53	334.08	29.98	-34.9	-35.8	24.1	0.00e+00	123	30	0	1023410176	42	6106
2026-01-29 16:39:26.54	333.75	30.03	-35.0	-35.9	24.1	0.00e+00	120	30	0	1026555904	42	6150
2026-01-29 16:39:27.55	333.42	30.09	-34.9	-35.8	24.2	0.00e+00	123	30	0	1029701632	42	6092
2026-01-29 16:39:28.56	333.09	30.14	-35.0	-35.9	24.1	0.00e+00	123	30	0	1032847360	42	6181
2026-01-29 16:39:29.57	332.75	30.19	-34.9	-35.8	24.2	0.00e+00	123	30	0	1035993088	42	6099
2026-01-29 16:39:30.59	332.41	30.24	-34.9	-35.8	24.2	0.00e+00	120	30	0	1039138816	42	6079
2026-01-29 16:39:31.60	332.08	30.30	-34.8	-35.7	24.3	0.00e+00	123	30	0	1042284544	42	6029
2026-01-29 16:39:32.61	331.74	30.34	-35.0	-35.9	24.1	0.00e+00	123	30	0	1045430272	42	6161
2026-01-29 16:39:33.62	331.40	30.39	-35.2	-36.1	23.9	0.00e+00	123	30	0	1048576000	42	6317
2026-01-29 16:39:34.63	331.07	30.44	-35.1	-36.0	24.0	0.00e+00	123	30	0	1051721728	42	6262
2026-01-29 16:39:35.64	330.73	30.49	-35.1	-36.0	24.0	0.00e+00	122	30	0	1054867456	42	6255
2026-01-29 16:39:36.65	330.38	30.53	-34.9	-35.9	24.1	0.00e+00	120	30	0	1058013184	42	6138
2026-01-29 16:39:37.66	330.04	30.58	-35.1	-36.0	24.1	0.00e+00	123	30	0	1061158912	42	6257
2026-01-29 16:39:38.67	329.70	30.62	-35.0	-35.9	24.1	0.00e+00	120	30	0	1064304640	42	6192
2026-01-29 16:39:39.68	329.36	30.66	-34.9	-35.8	24.2	0.00e+00	123	30	0	1067450368	42	6132
2026-01-29 16:39:40.69	329.01	30.70	-35.0	-35.9	24.1	0.00e+00	122	30	0	1070596096	42	6179
2026-01-29 16:39:41.70	328.67	30.74	-34.9	-35.8	24.3	0.00e+00	123	30	0	1073741824	42	6087
2026-01-29 16:39:42.71	328.32	30.78	-35.1	-36.0	24.1	0.00e+00	123	30	0	1076887552	42	6236
2026-01-29 16:39:43.72	327.97	30.82	-35.3	-36.2	23.8	0.00e+00	123	30	0	1080033280	42	6421
2026-01-29 16:39:44.73	327.63	30.86	-35.3	-36.2	23.8	0.00e+00	123	30	0	1083179008	42	6393
2026-01-29 16:39:45.74	327.28	30.89	-35.4	-36.3	23.9	0.00e+00	123	30	0	1086324736	42	6486
2026-01-29 16:39:46.75	326.93	30.93	-35.4	-36.4	23.7	0.00e+00	120	30	0	1089470464	42	6519
2026-01-29 16:39:47.76	326.58	30.96	-35.4	-36.3	23.8	0.00e+00	123	30	0	1092616192	42	6453
2026-01-29 16:39:48.77	326.23	30.99	-35.5	-36.4	23.8	0.00e+00	123	30	0	1095761920	42	6543
2026-01-29 16:39:49.78	325.88	31.02	-35.3	-36.2	23.8	0.00e+00	123	30	0	1098907648	42	6396
2026-01-29 16:39:50.79	325.52	31.05	-35.0	-35.9	24.1	0.00e+00	121	30	0	1102053376	42	6191
2026-01-29 16:39:51.80	325.17	31.08	-35.2	-36.1	24.0	0.00e+00	122	30	0	1105199104	42	6335
2026-01-29 16:39:52.81	324.82	31.11	-35.1	-36.1	24.0	0.00e+00	122	30	0	1108344832	42	6281
2026-01-29 16:39:53.82	324.46	31.14	-35.1	-36.0	24.0	0.00e+00	123	30	0	1111490560	42	6230
2026-01-29 16:39:54.83	324.11	31.16	-34.9	-35.8	24.2	0.00e+00	122	30	0	1114636288	42	6097
2026-01-29 16:39:55.85	323.75	31.18	-34.8	-35.6	24.4	0.00e+00	123	30	0	1117782016	42	5994
2026-01-29 16:39:56.86	323.40	31.21	-34.7	-35.6	24.2	0.00e+00	122	30	0	1121976320	42	5962
2026-01-29 16:39:57.87	323.04	31.23	-34.6	-35.5	24.3	0.00e+00	123	30	0	1125122048	42	5876
2026-01-29 16:39:58.88	322.68	31.25	-34.6	-35.5	24.4	0.00e+00	123	30	0	1127219200	42	5872
2026-01-29 16:39:59.89	322.33	31.27	-34.6	-35.5	24.4	0.00e+00	123	30	0	1130364928	42	5889
2026-01-29 16:40:00.90	321.97	31.28	-34.6	-35.5	24.4	0.00e+00	122	30	0	1133510656	42	5891
2026-01-29 16:40:01.91	321.61	31.30	-34.9	-35.8	24.2	0.00e+00	123	30	0	1137704960	42	6094
2026-01-29 16:40:02.92	321.25	31.31	-34.9	-35.8	24.2	0.00e+00	120	30	0	1140850688	42	6091
2026-01-29 16:40:03.93	320.89	31.33	-34.8	-35.7	24.3	0.00e+00	122	30	0	1143996416	42	6001
2026-01-29 16:40:04.94	320.53	31.34	-34.8	-35.7	24.2	0.00e+00	123	30	0	1147142144	42	6032
2026-01-29 16:40:05.95	320.18	31.35	-34.9	-35.8	24.2	0.00e+00	123	30	0	1150287872	42	6091
2026-01-29 16:40:06.96	319.82	31.36	-35.0	-35.9	24.1	0.00e+00	122	30	0	1153433600	42	6143
2026-01-29 16:40:07.97	319.46	31.37	-34.9	-35.9	24.2	0.00e+00	122	30	0	1156579328	42	6153
2026-01-29 16:40:08.98	319.10	31.38	-35.0	-36.0	24.1	0.00e+00	122	30	0	1159725056	42	6207
2026-01-29 16:40:09.99	318.74	31.38	-35.2	-36.2	24.0	0.00e+00	123	30	0	1162870784	42	6353
2026-01-29 16:40:11.00	318.38	31.39	-35.4	-36.3	23.8	0.00e+00	122	30	0	1166016512	42	6457
2026-01-29 16:40:12.01	318.02	31.39	-35.6	-36.5	23.8	0.00e+00	123	30	0	1169162240	42	6628
2026-01-29 16:40:13.02	317.66	31.39	-35.5	-36.4	23.7	0.00e+00	123	30	0	1172307968	42	6561
2026-01-29 16:40:14.03	317.30	31.40	-35.3	-36.2	23.9	0.00e+00	123	30	0	1175453696	42	6396
2026-01-29 16:40:15.04	316.94	31.40	-35.1	-36.0	24.1	0.00e+00	120	30	0	1178599424	42	6274
2026-01-29 16:40:16.05	316.58	31.39	-35.0	-36.0	24.1	0.00e+00	122	30	0	1181745152	42	6207
2026-01-29 16:40:17.06	316.22	31.39	-34.7	-35.6	24.3	0.00e+00	120	30	0	1184890880	42	5961
2026-01-29 16:40:18.07	315.86	31.39	-34.6	-35.5	24.5	0.00e+00	123	30	0	1188036608	42	5896
2026-01-29 16:40:19.08	315.50	31.38	-34.9	-35.8	24.3	0.00e+00	120	30	0	1191182336	42	6088
2026-01-29 16:40:20.09	315.14	31.37	-35.1	-36.1	24.1	0.00e+00	123	30	0	1194328064	42	6279
2026-01-29 16:40:21.10	314.78	31.37	-35.3	-36.2	24.0	0.00e+00	122	30	0	1197473792	42	6392
2026-01-29 16:40:22.11	314.42	31.36	-35.3	-36.3	23.9	0.00e+00	120	30	0	1200619520	42	6432
2026-01-29 16:40:23.13	314.05	31.35	-35.4	-36.4	23.7	0.00e+00	123	30	0	1203765248	42	6520
2026-01-29 16:40:24.14	313.70	31.33	-35.4	-36.4	23.8	0.00e+00	123	30	0	1206910976	42	6506
2026-01-29 16:40:25.15	313.34	31.32	-35.2	-36.2	23.8	0.00e+00	122	30	0	1210056704	42	6367
2026-01-29 16:40:26.16	312.98	31.31	-35.2	-36.1	24.1	0.00e+00	123	30	0	1213202432	42	6298
2026-01-29 16:40:27.17	312.62	31.29	-35.1	-36.0	24.1	0.00e+00	123	30	0	1216348160	42	6254
2026-01-29 16:40:28.18	312.26	31.27	-35.0	-35.8	24.3	0.00e+00	122	30	0	1219493888	42	6130
2026-01-29 16:40:29.19	311.90	31.26	-34.7	-35.6	24.4	0.00e+00	122	30	0	1222639616	42	5973
2026-01-29 16:40:30.20	311.55	31.24	-34.8	-35.7	24.3	0.00e+00	123	30	0	1225785344	42	6047
2026-01-29 16:40:31.21	311.19	31.22	-34.4	-35.2	24.5	0.00e+00	121	30	0	1228931072	42	5721
2026-01-29 16:40:32.22	310.83	31.19	-34.6	-35.5	24.3	0.00e+00	122	30	0	1232076800	42	5859
2026-01-29 16:40:33.23	310.48	31.17	-34.6	-35.5	24.2	0.00e+00	123	30	0	1235222528	42	5904
2026-01-29 16:40:34.24	310.12	31.15	-34.8	-35.8	24.1	0.00e+00	123	30	0	1238368256	42	6066
2026-01-29 16:40:35.25	309.77	31.12	-35.0	-36.0	24.0	0.00e+00	122	30	0	1241513984	42	6209
2026-01-29 16:40:36.26	309.42	31.09	-35.0	-36.0	24.0	0.00e+00	120	30	0	1244659712	42	6224
2026-01-29 16:40:37.27	309.06	31.07	-34.9	-35.9	24.1	0.00e+00	123	30	0	1247805440	42	6150
2026-01-29 16:40:38.28	308.71	31.04	-35.0	-35.9	24.1	0.00e+00	120	30	0	1250951168	42	6186
2026-01-29 16:40:39.29	308.36	31.01	-34.8	-35.7	24.2	0.00e+00	120	30	0	1254096896	42	6043
2026-01-29 16:40:40.30	308.01	30.98	-34.9	-35.8	24.0	0.00e+00	123	30	0	1257242624	42	6089
2026-01-29 16:40:41.31	307.66	30.94	-35.0	-36.0	23.8	0.00e+00	123	30	0	1260388352	42	6222
2026-01-29 16:40:42.32	307.31	30.91	-35.2	-36.1	23.8	0.00e+00	122	30	0	1263534080	42	6336
2026-01-29 16:40:43.33	306.96	30.87	-35.2	-36.1	23.9	0.00e+00	120	30	0	1266679808	42	6333
2026-01-29 16:40:44.34	306.61	30.84	-35.1	-36.0	24.0	0.00e+00	123	30	0	1269825536	42	6258
2026-01-29 16:40:45.35	306.26	30.80	-35.1	-36.0	24.1	0.00e+00	120	30	0	1272971264	42	6214
2026-01-29 16:40:46.36	305.91	30.76	-35.1	-36.0	24.1	0.00e+00	122	30	0	1276116992	42	6231
2026-01-29 16:40:47.37	305.57	30.72	-34.8	-35.7	24.2	0.00e+00	122	30	0	1279262720	42	6030
2026-01-29 16:40:48.38	305.22	30.68	-34.8	-35.7	24.3	0.00e+00	122	30	0	1282408448	42	6023
2026-01-29 16:40:49.39	304.88	30.64	-34.7	-35.6	24.3	0.00e+00	123	30	0	1285554176	42	5962
2026-01-29 16:40:50.40	304.53	30.60	-34.8	-35.7	24.3	0.00e+00	122	30	0	1288699904	42	6004
2026-01-29 16:40:51.41	304.19	30.55	-34.8	-35.7	24.3	0.00e+00	123	30	0	1291845632	42	6029
2026-01-29 16:40:52.42	303.85	30.51	-35.0	-35.9	24.1	0.00e+00	122	30	0	1294991360	42	6163
2026-01-29 16:40:53.43	303.51	30.46	-35.2	-36.1	24.0	0.00e+00	122	30	0	1298137088	42	6336
2026-01-29 16:40:54.44	303.17	30.41	-35.3	-36.3	23.9	0.00e+00	120	30	0	1301282816	42	6436
2026-01-29 16:40:55.45	302.83	30.37	-35.4	-36.3	23.9	0.00e+00	123	30	0	1304428544	42	6489
2026-01-29 16:40:56.46	302.49	30.32	-35.4	-36.4	23.8	0.00e+00	123	30	0	1307574272	42	6510
2026-01-29 16:40:57.47	302.16	30.27	-35.1	-36.0	24.2	0.00e+00	122	30	0	1310720000	42	6261
2026-01-29 16:40:58.48	301.82	30.22	-34.8	-35.7	24.3	0.00e+00	121	30	0	1313865728	42	6008
2026-01-29 16:40:59.49	301.49	30.16	-34.8	-35.7	24.3	0.00e+00	123	30	0	1317011456	42	6002
2026-01-29 16:41:00.50	301.15	30.11	-34.6	-35.5	24.4	0.00e+00	122	30	0	1320157184	42	5893
2026-01-29 16:41:01.51	300.82	30.06	-34.8	-35.7	24.1	0.00e+00	123	30	0	1323302912	42	6043
2026-01-29 16:41:02.52	300.49	30.00	-34.9	-35.8	24.0	0.00e+00	122	30	0	1326448640	42	6101
2026-01-29 16:41:03.53	300.16	29.94	-34.9	-35.8	24.1	0.00e+00	122	30	0	1329594368	42	6087
2026-01-29 16:41:04.54	299.83	29.89	-34.9	-35.8	24.1	0.00e+00	122	30	0	1332740096	42	6097
2026-01-29 16:41:05.55	299.50	29.83	-34.9	-35.8	24.2	0.00e+00	120	30	0	1335885824	42	6111
2026-01-29 16:41:06.56	299.18	29.77	-34.7	-35.6	24.3	0.00e+00	123	30	0	1339031552	42	5967
2026-01-29 16:41:07.58	298.85	29.71	-34.9	-35.8	24.1	0.00e+00	123	30	0	1342177280	42	6103
2026-01-29 16:41:08.59	298.52	29.65	-35.0	-36.0	24.0	0.00e+00	120	30	0	1345323008	42	6239
2026-01-29 16:41:09.59	298.20	29.59	-35.2	-36.2	23.9	0.00e+00	123	30	0	1348468736	42	6357
2026-01-29 16:41:10.60	297.88	29.52	-35.3	-36.2	23.9	0.00e+00	122	30	0	1351614464	42	6417
2026-01-29 16:41:11.61	297.56	29.46	-35.2	-36.1	23.9	0.00e+00	123	30	0	1354760192	42	6334
2026-01-29 16:41:12.62	297.24	29.40	-35.0	-35.9	24.1	0.00e+00	122	30	0	1357905920	42	6176
2026-01-29 16:41:13.63	296.93	29.33	-34.8	-35.7	24.3	0.00e+00	122	30	0	1361051648	42	6012
2026-01-29 16:41:14.64	296.61	29.26	-34.6	-35.5	24.5	0.00e+00	122	30	0	1364197376	42	5868
2026-01-29 16:41:15.65	296.29	29.20	-34.6	-35.5	24.4	0.00e+00	120	30	0	1367343104	42	5917
2026-01-29 16:41:16.66	295.98	29.13	-34.5	-35.4	24.5	0.00e+00	122	30	0	1370488832	42	5834
2026-01-29 16:41:17.67	295.67	29.06	-34.7	-35.6	24.5	0.00e+00	123	30	0	1373634560	42	5934
2026-01-29 16:41:18.68	295.36	28.99	-34.9	-35.8	24.3	0.00e+00	123	30	0	1376780288	42	6079
2026-01-29 16:41:19.69	295.05	28.92	-35.0	-35.9	24.2	0.00e+00	123	30	0	1379926016	42	6176
2026-01-29 16:41:20.70	294.74	28.85	-34.9	-35.8	24.2	0.00e+00	122	30	0	1383071744	42	6121
2026-01-29 16:41:21.71	294.43	28.78	-34.6	-35.5	24.5	0.00e+00	122	30	0	1386217472	42	5888
2026-01-29 16:41:22.73	294.12	28.71	-34.5	-35.4	24.5	0.00e+00	123	30	0	1389363200	42	5845
2026-01-29 16:41:23.74	293.82	28.63	-34.4	-35.2	24.6	0.00e+00	123	30	0	1392508928	42	5708
2026-01-29 16:41:24.75	293.52	28.56	-34.4	-35.3	24.7	0.00e+00	122	30	0	1395654656	42	5734
2026-01-29 16:41:25.76	293.21	28.48	-34.4	-35.3	24.7	0.00e+00	123	30	0	1398800384	42	5755
2026-01-29 16:41:26.77	292.91	28.41	-34.5	-35.3	24.6	0.00e+00	123	30	0	1401946112	42	5790
2026-01-29 16:41:27.78	292.62	28.33	-34.6	-35.5	24.5	0.00e+00	122	30	0	1405091840	42	5863
2026-01-29 16:41:28.79	292.32	28.26	-34.7	-35.6	24.3	0.00e+00	123	30	0	1408237568	42	5942
2026-01-29 16:41:29.80	292.02	28.18	-34.6	-35.5	24.4	0.00e+00	120	30	0	1411383296	42	5899
2026-01-29 16:41:30.81	291.73	28.10	-34.3	-35.1	24.6	0.00e+00	123	30	0	1415577600	42	5651
2026-01-29 16:41:31.82	291.44	28.02	-34.1	-35.0	24.7	0.00e+00	123	30	0	1418723328	42	5579
2026-01-29 16:41:32.83	291.14	27.94	-34.0	-34.9	24.6	0.00e+00	123	30	0	1420820480	42	5496
2026-01-29 16:41:33.84	290.85	27.87	-34.1	-35.0	24.6	0.00e+00	122	30	0	1423966208	42	5584
2026-01-29 16:41:34.85	290.57	27.78	-34.2	-35.1	24.5	0.00e+00	121	30	0	1428160512	42	5639
2026-01-29 16:41:35.86	290.28	27.70	-34.4	-35.4	24.4	0.00e+00	122	30	0	1431306240	42	5800
2026-01-29 16:41:36.87	289.99	27.62	-34.5	-35.4	24.3	0.00e+00	122	30	0	1434451968	42	5852
2026-01-29 16:41:37.89	289.71	27.54	-34.6	-35.5	24.3	0.00e+00	123	30	0	1437597696	42	5879
2026-01-29 16:41:38.90	289.42	27.46	-34.6	-35.5	24.4	0.00e+00	122	30	0	1440743424	42	5896
2026-01-29 16:41:39.91	289.14	27.37	-34.5	-35.3	24.5	0.00e+00	122	30	0	1443889152	42	5785
2026-01-29 16:41:40.92	288.86	27.29	-34.0	-34.9	24.9	0.00e+00	123	30	0	1447034880	42	5489
2026-01-29 16:41:41.93	288.58	27.21	-33.9	-34.8	25.0	0.00e+00	122	30	0	1450180608	42	5411
2026-01-29 16:41:42.94	288.31	27.12	-33.8	-34.7	25.0	0.00e+00	122	30	0	1453326336	42	5378
2026-01-29 16:41:43.95	288.03	27.04	-33.7	-34.5	25.2	0.00e+00	123	30	0	1456472064	40	5898
2026-01-29 16:41:44.96	287.76	26.95	-33.7	-34.6	25.1	0.00e+00	122	30	0	1459617792	40	5958
2026-01-29 16:41:45.96	287.49	26.87	-34.0	-34.9	24.8	0.00e+00	123	30	0	1462763520	40	6148
2026-01-29 16:41:46.97	287.22	26.78	-34.2	-35.1	24.7	0.00e+00	122	30	0	1465909248	40	6305
2026-01-29 16:41:47.98	286.95	26.70	-34.5	-35.4	24.5	0.00e+00	123	30	0	1469054976	40	6523
2026-01-29 16:41:48.99	286.68	26.61	-34.1	-35.0	24.6	0.00e+00	123	30	0	1472200704	40	6266
2026-01-29 16:41:50.00	286.41	26.52	-34.1	-35.0	24.5	0.00e+00	123	30	0	1475346432	40	6230
2026-01-29 16:41:51.01	286.15	26.43	-34.0	-34.9	24.6	0.00e+00	123	30	0	1478492160	40	6141
2026-01-29 16:41:52.02	285.88	26.34	-33.8	-34.7	24.8	0.00e+00	122	30	0	1481637888	40	6005
2026-01-29 16:41:53.03	285.62	26.26	-33.4	-34.2	25.2	0.00e+00	120	30	0	1484783616	40	5710
2026-01-29 16:41:54.04	285.36	26.17	-33.5	-34.4	25.1	0.00e+00	123	30	0	1487929344	40	5809
2026-01-29 16:41:55.05	285.10	26.08	-33.7	-34.6	25.0	0.00e+00	122	30	0	1491075072	40	5967
2026-01-29 16:41:56.06	284.84	25.99	-33.9	-34.8	24.9	0.00e+00	123	30	0	1494220800	40	6081
2026-01-29 16:41:57.07	284.59	25.90	-34.1	-35.0	24.8	0.00e+00	122	30	0	1497366528	40	6265
2026-01-29 16:41:58.08	284.33	25.81	-34.2	-35.1	24.6	0.00e+00	122	30	0	1500512256	40	6321
2026-01-29 16:41:59.09	284.08	25.72	-34.3	-35.2	24.5	0.00e+00	120	30	0	1503657984	40	6405
2026-01-29 16:42:00.10	283.83	25.63	-34.3	-35.2	24.4	0.00e+00	123	30	0	1506803712	40	6384
2026-01-29 16:42:01.11	283.58	25.53	-34.2	-35.1	24.6	0.00e+00	123	30	0	1509949440	40	6332
2026-01-29 16:42:02.12	283.33	25.44	-34.2	-35.1	24.7	0.00e+00	120	30	0	1513095168	40	6321
2026-01-29 16:42:03.13	283.08	25.35	-34.1	-35.0	24.8	0.00e+00	122	30	0	1516240896	40	6230
2026-01-29 16:42:04.15	282.83	25.26	-34.2	-35.1	24.7	0.00e+00	120	30	0	1519386624	40	6300
2026-01-29 16:42:05.15	282.59	25.17	-34.3	-35.2	24.6	0.00e+00	122	30	0	1522532352	40	6418
2026-01-29 16:42:06.17	282.34	25.07	-34.6	-35.5	24.4	0.00e+00	122	30	0	1525678080	40	6584
2026-01-29 16:42:07.18	282.10	24.98	-34.7	-35.6	24.3	0.00e+00	122	30	0	1528823808	40	6699
2026-01-29 16:42:08.19	281.86	24.89	-34.7	-35.6	24.3	0.00e+00	123	30	0	1531969536	42	5937
2026-01-29 16:42:09.20	281.62	24.79	-34.7	-35.6	24.2	0.00e+00	122	30	0	1535115264	42	5968
2026-01-29 16:42:10.21	281.39	24.70	-34.8	-35.7	24.3	0.00e+00	123	30	0	1538260992	42	6023
2026-01-29 16:42:11.21	281.15	24.61	-34.4	-35.3	24.6	0.00e+00	120	30	0	1541406720	42	5738
2026-01-29 16:42:12.22	280.92	24.51	-34.2	-35.1	24.8	0.00e+00	123	30	0	1544552448	42	5627
2026-01-29 16:42:13.23	280.68	24.42	-34.2	-35.1	24.8	0.00e+00	122	30	0	1547698176	42	5608
2026-01-29 16:42:14.24	280.45	24.32	-34.2	-35.1	24.7	0.00e+00	123	30	0	1550843904	42	5635
2026-01-29 16:42:15.25	280.22	24.23	-34.4	-35.3	24.6	0.00e+00	123	30	0	1553989632	42	5736
2026-01-29 16:42:16.26	279.99	24.14	-34.5	-35.4	24.5	0.00e+00	123	30	0	1557135360	42	5834
2026-01-29 16:42:17.27	279.77	24.04	-34.5	-35.4	24.5	0.00e+00	123	30	0	1560281088	42	5816
2026-01-29 16:42:18.28	279.54	23.95	-34.5	-35.4	24.4	0.00e+00	123	30	0	1563426816	42	5849
2026-01-29 16:42:19.29	279.31	23.85	-34.4	-35.3	24.5	0.00e+00	123	30	0	1566572544	42	5747
2026-01-29 16:42:20.30	279.09	23.76	-34.2	-35.1	24.5	0.00e+00	120	30	0	1569718272	42	5646
2026-01-29 16:42:21.31	278.87	23.66	-34.2	-35.1	24.5	0.00e+00	122	30	0	1572864000	42	5629
2026-01-29 16:42:22.33	278.65	23.56	-34.2	-35.1	24.6	0.00e+00	123	30	0	1576009728	42	5624
2026-01-29 16:42:23.34	278.43	23.47	-34.2	-35.0	24.7	0.00e+00	123	30	0	1579155456	42	5590
2026-01-29 16:42:24.35	278.21	23.37	-34.2	-35.2	24.7	0.00e+00	123	30	0	1582301184	42	5663
2026-01-29 16:42:25.36	277.99	23.28	-34.3	-35.2	24.6	0.00e+00	120	30	0	1585446912	42	5707
2026-01-29 16:42:26.37	277.78	23.18	-34.4	-35.3	24.7	0.00e+00	123	30	0	1588592640	42	5726
2026-01-29 16:42:27.37	277.56	23.09	-34.3	-35.2	24.7	0.00e+00	123	30	0	1591738368	42	5669
2026-01-29 16:42:28.39	277.35	22.99	-34.5	-35.3	24.5	0.00e+00	123	30	0	1594884096	42	5780
2026-01-29 16:42:29.40	277.14	22.89	-34.1	-35.0	24.7	0.00e+00	122	30	0	1598029824	42	5569
2026-01-29 16:42:30.41	276.93	22.80	-34.1	-34.9	24.9	0.00e+00	123	30	0	1601175552	42	5516
2026-01-29 16:42:31.41	276.72	22.70	-33.8	-34.7	25.0	0.00e+00	120	30	0	1604321280	42	5388
2026-01-29 16:42:32.42	276.51	22.61	-34.0	-34.9	24.9	0.00e+00	123	30	0	1607467008	42	5470
2026-01-29 16:42:33.43	276.31	22.51	-34.1	-34.9	24.7	0.00e+00	122	30	0	1610612736	42	5528
2026-01-29 16:42:34.44	276.10	22.41	-34.1	-35.0	24.7	0.00e+00	122	30	0	1613758464	42	5580
2026-01-29 16:42:35.45	275.90	22.32	-34.1	-35.0	24.7	0.00e+00	120	30	0	1616904192	42	5578
2026-01-29 16:42:36.46	275.70	22.22	-34.1	-35.0	24.7	0.00e+00	122	30	0	1620049920	42	5540
2026-01-29 16:42:37.47	275.49	22.12	-34.0	-34.8	24.9	0.00e+00	123	30	0	1623195648	42	5457
2026-01-29 16:42:38.48	275.29	22.03	-34.0	-34.9	24.8	0.00e+00	122	30	0	1626341376	42	5486
2026-01-29 16:42:39.49	275.10	21.93	-33.8	-34.7	25.0	0.00e+00	122	30	0	1629487104	42	5374
2026-01-29 16:42:40.50	274.90	21.83	-33.8	-34.7	25.0	0.00e+00	122	30	0	1632632832	42	5368
2026-01-29 16:42:41.50	274.70	21.74	-33.8	-34.7	25.0	0.00e+00	120	30	0	1635778560	42	5345
2026-01-29 16:42:42.52	274.51	21.64	-33.9	-34.8	24.9	0.00e+00	122	30	0	1638924288	42	5430
2026-01-29 16:42:43.53	274.31	21.55	-34.1	-35.0	24.7	0.00e+00	120	30	0	1642070016	42	5540
2026-01-29 16:42:44.54	274.12	21.45	-34.0	-34.9	24.9	0.00e+00	122	30	0	1645215744	42	5496
2026-01-29 16:42:45.55	273.93	21.35	-34.2	-35.1	24.6	0.00e+00	122	30	0	1648361472	42	5634
2026-01-29 16:42:46.55	273.74	21.26	-34.3	-35.2	24.5	0.00e+00	121	30	0	1651507200	42	5672
2026-01-29 16:42:47.57	273.55	21.16	-34.1	-34.9	24.8	0.00e+00	122	30	0	1654652928	42	5510
2026-01-29 16:42:48.57	273.36	21.07	-34.1	-35.0	24.7	0.00e+00	120	30	0	1657798656	42	5562
2026-01-29 16:42:49.58	273.18	20.97	-34.2	-35.1	24.6	0.00e+00	123	30	0	1660944384	42	5604
2026-01-29 16:42:50.59	272.99	20.87	-34.4	-35.2	24.6	0.00e+00	123	30	0	1664090112	42	5718
2026-01-29 16:42:51.60	272.81	20.78	-34.4	-35.3	24.5	0.00e+00	123	30	0	1667235840	42	5770
2026-01-29 16:42:52.61	272.62	20.68	-34.5	-35.4	24.5	0.00e+00	120	30	0	1670381568	42	5839
2026-01-29 16:42:53.62	272.44	20.58	-34.5	-35.5	24.4	0.00e+00	122	30	0	1673527296	42	5862
2026-01-29 16:42:54.63	272.26	20.49	-34.6	-35.6	24.3	0.00e+00	120	30	0	1676673024	42	5936
2026-01-29 16:42:55.64	272.08	20.39	-34.5	-35.4	24.4	0.00e+00	123	30	0	1679818752	42	5819
2026-01-29 16:42:56.65	271.90	20.30	-34.5	-35.4	24.4	0.00e+00	123	30	0	1682964480	42	5815
2026-01-29 16:42:57.66	271.73	20.20	-34.4	-35.3	24.3	0.00e+00	123	30	0	1686110208	42	5758
2026-01-29 16:42:58.67	271.55	20.11	-34.3	-35.2	24.4	0.00e+00	123	30	0	1689255936	42	5696
2026-01-29 16:42:59.69	271.37	20.01	-34.4	-35.2	24.4	0.00e+00	123	30	0	1692401664	42	5720
2026-01-29 16:43:00.70	271.20	19.91	-34.0	-34.9	24.7	0.00e+00	120	30	0	1695547392	42	5492
2026-01-29 16:43:01.71	271.03	19.82	-33.8	-34.7	24.8	0.00e+00	123	30	0	1698693120	42	5375
2026-01-29 16:43:02.72	270.85	19.72	-33.8	-34.7	24.9	0.00e+00	123	30	0	1701838848	42	5362
2026-01-29 16:43:03.73	270.68	19.63	-33.8	-34.6	24.9	0.00e+00	121	30	0	1704984576	42	5330
2026-01-29 16:43:04.74	270.51	19.53	-33.8	-34.7	24.9	0.00e+00	123	30	0	1708130304	40	6006
2026-01-29 16:43:05.75	270.34	19.44	-33.7	-34.6	25.0	0.00e+00	123	30	0	1711276032	40	5936
2026-01-29 16:43:06.76	270.18	19.34	-33.7	-34.6	25.0	0.00e+00	123	30	0	1714421760	40	5959
2026-01-29 16:43:07.77	270.01	19.25	-33.7	-34.5	25.0	0.00e+00	123	30	0	1717567488	40	5911
2026-01-29 16:43:08.78	269.85	19.15	-33.9	-34.8	24.8	0.00e+00	122	30	0	1720713216	40	6078
2026-01-29 16:43:09.79	269.68	19.06	-34.1	-34.9	24.7	0.00e+00	120	30	0	1723858944	40	6202
2026-01-29 16:43:10.80	269.52	18.96	-34.3	-35.2	24.6	0.00e+00	123	30	0	1728053248	40	6377
2026-01-29 16:43:11.81	269.35	18.87	-34.5	-35.4	24.5	0.00e+00	123	30	0	1731198976	40	6520
2026-01-29 16:43:12.82	269.19	18.77	-34.6	-35.5	24.4	0.00e+00	123	30	0	1734344704	40	6634
2026-01-29 16:43:13.83	269.03	18.68	-34.6	-35.5	24.4	0.00e+00	120	30	0	1736441856	40	6635
2026-01-29 16:43:14.84	268.87	18.59	-34.6	-35.6	24.3	0.00e+00	123	30	0	1739587584	40	6651
2026-01-29 16:43:15.85	268.72	18.49	-34.5	-35.4	24.3	0.00e+00	122	30	0	1742733312	40	6522
2026-01-29 16:43:16.86	268.56	18.40	-34.5	-35.4	24.3	0.00e+00	122	30	0	1746927616	40	6506
2026-01-29 16:43:17.87	268.40	18.31	-34.5	-35.4	24.2	0.00e+00	122	30	0	1750073344	40	6548
2026-01-29 16:43:18.88	268.25	18.21	-34.6	-35.5	24.3	0.00e+00	123	30	0	1753219072	40	6589
2026-01-29 16:43:19.89	268.09	18.12	-34.5	-35.4	24.3	0.00e+00	121	30	0	1756364800	40	6554
2026-01-29 16:43:20.90	267.94	18.03	-34.6	-35.6	24.3	0.00e+00	123	30	0	1759510528	40	6659
2026-01-29 16:43:21.91	267.79	17.93	-34.6	-35.5	24.3	0.00e+00	123	30	0	1762656256	40	6622
2026-01-29 16:43:22.92	267.63	17.84	-34.6	-35.5	24.4	0.00e+00	123	30	0	1765801984	40	6603
2026-01-29 16:43:23.93	267.48	17.75	-34.8	-35.6	24.3	0.00e+00	120	30	0	1768947712	42	5993
2026-01-29 16:43:24.94	267.33	17.65	-34.8	-35.7	24.2	0.00e+00	123	30	0	1772093440	42	6043
2026-01-29 16:43:25.95	267.18	17.56	-34.9	-35.8	24.0	0.00e+00	123	30	0	1775239168	42	6110
2026-01-29 16:43:26.96	267.04	17.47	-34.9	-35.8	24.0	0.00e+00	123	30	0	1778384896	42	6115
2026-01-29 16:43:27.96	266.89	17.38	-34.9	-35.8	23.9	0.00e+00	123	30	0	1781530624	42	6099
2026-01-29 16:43:28.98	266.74	17.28	-34.6	-35.6	24.0	0.00e+00	123	30	0	1784676352	42	5930
2026-01-29 16:43:29.98	266.60	17.19	-34.7	-35.6	24.0	0.00e+00	122	30	0	1787822080	42	5987
2026-01-29 16:43:30.99	266.46	17.10	-34.5	-35.4	24.2	0.00e+00	122	30	0	1790967808	42	5801
2026-01-29 16:43:32.00	266.31	17.01	-34.5	-35.4	24.2	0.00e+00	120	30	0	1794113536	42	5852
2026-01-29 16:43:33.01	266.17	16.92	-34.3	-35.2	24.5	0.00e+00	120	30	0	1797259264	42	5712
2026-01-29 16:43:34.02	266.03	16.83	-34.3	-35.2	24.5	0.00e+00	120	30	0	1800404992	42	5670
2026-01-29 16:43:35.03	265.89	16.74	-34.3	-35.2	24.5	0.00e+00	120	30	0	1803550720	42	5681
2026-01-29 16:43:36.04	265.75	16.65	-34.4	-35.3	24.5	0.00e+00	123	30	0	1806696448	42	5735
2026-01-29 16:43:37.05	265.61	16.55	-34.5	-35.4	24.4	0.00e+00	122	30	0	1809842176	42	5831
2026-01-29 16:43:38.06	265.47	16.46	-34.7	-35.6	24.2	0.00e+00	123	30	0	1812987904	42	5991
2026-01-29 16:43:39.07	265.33	16.37	-34.8	-35.7	24.1	0.00e+00	122	30	0	1816133632	42	6026
2026-01-29 16:43:40.08	265.20	16.28	-34.8	-35.8	24.0	0.00e+00	123	30	0	1819279360	42	6073
2026-01-29 16:43:41.09	265.06	16.19	-35.0	-35.9	23.9	0.00e+00	123	30	0	1822425088	42	6167
2026-01-29 16:43:42.10	264.93	16.10	-35.0	-35.9	23.9	0.00e+00	122	30	0	1825570816	42	6189
2026-01-29 16:43:43.11	264.79	16.01	-34.9	-35.9	23.9	0.00e+00	123	30	0	1828716544	42	6147
2026-01-29 16:43:44.12	264.66	15.92	-35.1	-36.0	23.8	0.00e+00	121	30	0	1831862272	42	6255
2026-01-29 16:43:45.13	264.53	15.83	-35.2	-36.1	23.7	0.00e+00	123	30	0	1835008000	42	6348
2026-01-29 16:43:46.14	264.39	15.74	-35.1	-36.0	23.9	0.00e+00	121	30	0	1838153728	42	6247
2026-01-29 16:43:47.15	264.26	15.66	-35.0	-36.0	23.8	0.00e+00	123	30	0	1841299456	42	6228
2026-01-29 16:43:48.16	264.13	15.57	-35.2	-36.2	23.7	0.00e+00	120	30	0	1844445184	42	6369
2026-01-29 16:43:49.17	264.00	15.48	-34.8	-35.7	24.1	0.00e+00	122	30	0	1847590912	42	6036
2026-01-29 16:43:50.18	263.88	15.39	-34.8	-35.7	24.0	0.00e+00	120	30	0	1850736640	42	6055
2026-01-29 16:43:51.19	263.75	15.30	-34.9	-35.8	24.0	0.00e+00	123	30	0	1853882368	42	6127
2026-01-29 16:43:52.20	263.62	15.21	-34.9	-35.8	24.0	0.00e+00	123	30	0	1857028096	42	6107
2026-01-29 16:43:53.21	263.49	15.12	-35.0	-35.9	23.9	0.00e+00	122	30	0	1860173824	42	6196
2026-01-29 16:43:54.22	263.37	15.04	-34.9	-35.8	24.1	0.00e+00	123	30	0	1863319552	42	6080
2026-01-29 16:43:55.23	263.24	14.95	-34.8	-35.7	24.1	0.00e+00	120	30	0	1866465280	42	6054
2026-01-29 16:43:56.24	263.12	14.86	-35.0	-35.9	23.9	0.00e+00	122	30	0	1869611008	42	6147
2026-01-29 16:43:57.25	263.00	14.77	-35.0	-35.9	23.9	0.00e+00	123	30	0	1872756736	42	6174
2026-01-29 16:43:58.26	262.87	14.69	-35.1	-36.1	23.8	0.00e+00	120	30	0	1875902464	42	6299
2026-01-29 16:43:59.27	262.75	14.60	-35.1	-36.0	23.8	0.00e+00	122	30	0	1879048192	42	6271
2026-01-29 16:44:00.28	262.63	14.51	-35.2	-36.2	23.8	0.00e+00	123	30	0	1882193920	42	6371
2026-01-29 16:44:01.29	262.51	14.43	-35.3	-36.2	23.7	0.00e+00	122	30	0	1885339648	42	6422
2026-01-29 16:44:02.30	262.39	14.34	-35.3	-36.2	23.7	0.00e+00	122	30	0	1888485376	42	6416
2026-01-29 16:44:03.31	262.27	14.25	-35.2	-36.1	23.7	0.00e+00	123	30	0	1891631104	42	6347
2026-01-29 16:44:04.32	262.16	14.17	-35.3	-36.2	23.6	0.00e+00	120	30	0	1894776832	42	6389
2026-01-29 16:44:05.33	262.04	14.08	-35.2	-36.1	23.6	0.00e+00	122	30	0	1897922560	42	6315
2026-01-29 16:44:06.34	261.92	14.00	-35.0	-36.0	23.7	0.00e+00	123	30	0	1901068288	42	6219
2026-01-29 16:44:07.35	261.81	13.91	-34.9	-35.8	23.8	0.00e+00	123	30	0	1904214016	42	6128
2026-01-29 16:44:08.36	261.69	13.82	-34.6	-35.5	24.1	0.00e+00	120	30	0	1907359744	42	5902
2026-01-29 16:44:09.37	261.57	13.74	-34.6	-35.5	24.1	0.00e+00	123	30	0	1910505472	42	5921
2026-01-29 16:44:10.38	261.46	13.65	-34.5	-35.4	24.2	0.00e+00	122	30	0	1913651200	42	5835
2026-01-29 16:44:11.39	261.35	13.57	-34.6	-35.5	24.2	0.00e+00	123	30	0	1916796928	42	5872
2026-01-29 16:44:12.40	261.23	13.48	-34.7	-35.6	24.2	0.00e+00	122	30	0	1919942656	42	5945
2026-01-29 16:44:13.41	261.12	13.40	-34.7	-35.6	24.2	0.00e+00	123	30	0	1923088384	42	5944
2026-01-29 16:44:14.42	261.01	13.32	-34.9	-35.8	24.0	0.00e+00	122	30	0	1926234112	42	6072
2026-01-29 16:44:15.43	260.90	13.23	-35.0	-36.0	23.9	0.00e+00	122	30	0	1929379840	42	6216
2026-01-29 16:44:16.44	260.79	13.15	-35.1	-36.1	23.8	0.00e+00	120	30	0	1932525568	42	6278
2026-01-29 16:44:17.45	260.68	13.06	-35.3	-36.2	23.7	0.00e+00	123	30	0	1935671296	42	6387
2026-01-29 16:44:18.46	260.57	12.98	-35.3	-36.3	23.6	0.00e+00	120	30	0	1938817024	42	6428
2026-01-29 16:44:19.47	260.46	12.90	-35.6	-36.5	23.4	0.00e+00	123	30	0	1941962752	42	6618
2026-01-29 16:44:20.48	260.36	12.81	-35.6	-36.6	23.3	0.00e+00	123	30	0	1945108480	44	5951
2026-01-29 16:44:21.49	260.25	12.73	-35.8	-36.7	23.2	0.00e+00	122	30	0	1948254208	44	6062
2026-01-29 16:44:22.50	260.14	12.65	-35.8	-36.8	23.1	0.00e+00	123	30	0	1951399936	44	6118
