passes_logs/2026/01/29/R4.6S_Anadyr/R4.6S_Anadyr__20260129_082343_KOSAR1-5_rec.log

#Pass ID: 20260129_082343_KOSAR1-5
#Satellite: KOSAR1-5
#Configuration: KOSAR1-5
#almurnet v.1.7.20251203
#Start time: 2026-01-29 08:23:45

#Version: 2.2.20231116
#Station: R4.6S_Anadyr
#Location: 177.4865 lon 64.73178 lat
#TLE: 1 67264U 25313S   26027.89307552  .00010412  00000+0  48021-3 0  9990
#TLE: 2 67264  97.4176 104.8503 0016482 138.1720 222.0778 15.20312014  4613

#Time	Az	El	Level	Level2	SNR	BER	BlckErr	Temp	State	Recorded	gain1	gain2
2026-01-29 08:23:45.24	128.01	0.08	-45.8	-60.2	3.5	1.51e+00	0	26	0	0	60	41575
2026-01-29 08:23:46.24	127.96	0.14	-46.1	-60.7	3.6	1.51e+00	0	27	104	0	60	44207
2026-01-29 08:23:47.25	127.91	0.20	-45.6	-60.2	3.6	1.51e+00	0	27	104	0	60	41664
2026-01-29 08:23:48.26	127.86	0.27	-45.7	-60.5	3.6	1.51e+00	0	27	104	0	60	42760
2026-01-29 08:23:49.27	127.81	0.33	-45.5	-60.2	3.6	1.51e+00	0	27	104	0	60	41607
2026-01-29 08:23:50.28	127.76	0.39	-45.4	-60.0	3.6	1.51e+00	0	27	104	0	60	40756
2026-01-29 08:23:51.29	127.71	0.45	-45.4	-60.2	3.6	1.51e+00	0	27	104	0	60	41330
2026-01-29 08:23:52.30	127.66	0.52	-45.5	-60.1	3.6	1.51e+00	0	27	104	0	60	41135
2026-01-29 08:23:53.31	127.61	0.58	-45.4	-60.1	3.6	1.51e+00	0	27	104	0	60	41042
2026-01-29 08:23:54.32	127.56	0.64	-45.5	-60.2	3.6	1.51e+00	0	27	104	0	60	41309
2026-01-29 08:23:55.33	127.51	0.71	-45.4	-60.1	3.6	1.51e+00	0	27	104	0	60	41263
2026-01-29 08:23:56.34	127.46	0.77	-45.2	-60.1	3.6	1.51e+00	0	27	104	0	60	40857
2026-01-29 08:23:57.35	127.40	0.83	-45.4	-60.1	3.6	1.51e+00	0	27	104	0	60	41030
2026-01-29 08:23:58.36	127.35	0.90	-45.4	-60.1	3.6	1.51e+00	0	27	104	0	60	40982
2026-01-29 08:23:59.37	127.30	0.96	-45.2	-60.0	3.6	1.51e+00	0	27	104	0	60	40665
2026-01-29 08:24:00.38	127.25	1.03	-45.4	-60.1	3.6	1.51e+00	0	27	104	0	60	41094
2026-01-29 08:24:01.38	127.19	1.09	-45.3	-60.1	3.6	1.51e+00	0	27	104	0	60	41197
2026-01-29 08:24:02.40	127.14	1.16	-45.3	-60.1	3.6	1.51e+00	0	27	104	0	60	41200
2026-01-29 08:24:03.41	127.09	1.22	-45.3	-60.0	3.6	1.51e+00	0	27	104	0	60	40682
2026-01-29 08:24:04.42	127.03	1.29	-45.2	-60.0	3.6	1.51e+00	0	27	104	0	60	40502
2026-01-29 08:24:05.43	126.98	1.35	-45.1	-59.9	3.6	1.51e+00	0	27	104	0	60	40308
2026-01-29 08:24:06.44	126.92	1.42	-45.1	-59.9	3.6	1.51e+00	0	27	104	0	60	39944
2026-01-29 08:24:07.45	126.87	1.48	-45.0	-59.7	3.6	1.51e+00	0	27	104	0	60	39337
2026-01-29 08:24:08.46	126.81	1.55	-44.7	-59.7	3.6	1.51e+00	0	27	104	0	60	39088
2026-01-29 08:24:09.47	126.76	1.61	-44.4	-59.5	3.6	1.51e+00	0	27	104	0	60	38369
2026-01-29 08:24:10.48	126.70	1.68	-44.3	-59.1	3.6	1.51e+00	0	27	104	0	60	36442
2026-01-29 08:24:11.49	126.65	1.75	-44.2	-59.0	3.6	1.51e+00	0	27	104	0	60	36160
2026-01-29 08:24:12.50	126.59	1.81	-44.2	-58.9	3.6	1.51e+00	0	27	104	0	60	35839
2026-01-29 08:24:13.51	126.53	1.88	-44.2	-58.9	3.6	1.51e+00	0	27	104	0	60	35896
2026-01-29 08:24:14.52	126.47	1.95	-44.2	-58.9	3.6	1.51e+00	0	27	104	0	60	35924
2026-01-29 08:24:15.53	126.42	2.01	-44.2	-59.0	3.6	1.51e+00	0	27	104	0	60	35941
2026-01-29 08:24:16.54	126.36	2.08	-44.2	-58.9	3.6	1.51e+00	0	27	104	0	60	35829
2026-01-29 08:24:17.55	126.30	2.15	-44.2	-58.9	3.6	1.51e+00	0	27	104	0	60	35831
2026-01-29 08:24:18.56	126.24	2.22	-44.2	-59.0	3.6	1.51e+00	0	27	104	0	60	35994
2026-01-29 08:24:19.57	126.18	2.28	-44.2	-59.0	3.6	1.51e+00	0	27	104	0	60	36053
2026-01-29 08:24:20.58	126.12	2.35	-44.2	-58.9	3.6	1.51e+00	0	27	104	0	60	35852
2026-01-29 08:24:21.59	126.06	2.42	-44.2	-58.9	3.6	1.51e+00	0	27	104	0	60	35868
2026-01-29 08:24:22.60	126.00	2.49	-44.2	-58.9	3.6	1.51e+00	0	27	104	0	60	35769
2026-01-29 08:24:23.61	125.94	2.56	-44.2	-58.9	3.6	1.51e+00	0	27	104	0	60	35639
2026-01-29 08:24:24.62	125.88	2.62	-44.2	-59.0	3.6	1.51e+00	0	27	104	0	60	35945
2026-01-29 08:24:25.63	125.82	2.69	-44.2	-58.9	3.6	1.51e+00	0	27	104	0	60	35881
2026-01-29 08:24:26.64	125.76	2.76	-44.2	-58.9	3.6	1.51e+00	0	27	104	0	60	35754
2026-01-29 08:24:27.65	125.70	2.83	-44.2	-58.9	3.6	1.51e+00	0	28	104	0	60	35679
2026-01-29 08:24:28.66	125.63	2.90	-44.2	-58.9	3.6	1.51e+00	0	28	104	0	60	35901
2026-01-29 08:24:29.67	125.57	2.97	-44.2	-58.9	3.6	1.51e+00	0	27	104	0	60	35732
2026-01-29 08:24:30.68	125.51	3.04	-44.2	-58.9	3.6	1.51e+00	0	28	104	0	60	35608
2026-01-29 08:24:31.69	125.44	3.11	-44.2	-58.9	3.6	1.51e+00	0	27	104	0	60	35619
2026-01-29 08:24:32.70	125.38	3.18	-44.2	-58.9	3.6	1.51e+00	0	27	104	0	60	35708
2026-01-29 08:24:33.71	125.31	3.25	-44.2	-58.9	3.6	1.51e+00	0	27	104	0	60	35849
2026-01-29 08:24:34.72	125.25	3.32	-44.2	-58.9	3.6	1.51e+00	0	27	104	0	60	35852
2026-01-29 08:24:35.73	125.18	3.39	-44.2	-58.9	3.6	1.51e+00	0	28	104	0	60	35685
2026-01-29 08:24:36.74	125.12	3.46	-44.2	-58.9	3.6	1.51e+00	0	28	104	0	60	35808
2026-01-29 08:24:37.75	125.05	3.54	-44.2	-58.9	3.6	1.51e+00	0	28	104	0	60	35804
2026-01-29 08:24:38.76	124.98	3.61	-44.2	-58.8	3.6	1.51e+00	0	28	104	0	60	35522
2026-01-29 08:24:39.77	124.92	3.68	-44.2	-58.9	3.6	1.51e+00	0	28	104	0	60	35734
2026-01-29 08:24:40.79	124.85	3.75	-44.2	-58.9	3.6	1.51e+00	0	28	104	0	60	35671
2026-01-29 08:24:41.80	124.78	3.82	-44.2	-58.9	3.6	1.51e+00	0	28	104	0	60	35788
2026-01-29 08:24:42.81	124.71	3.90	-44.2	-58.9	3.6	1.51e+00	0	28	104	0	60	35684
2026-01-29 08:24:43.82	124.64	3.97	-44.5	-59.3	3.6	1.51e+00	0	28	104	0	60	37506
2026-01-29 08:24:44.83	124.57	4.04	-44.4	-59.1	3.6	1.51e+00	0	28	104	0	60	36659
2026-01-29 08:24:45.84	124.50	4.12	-44.2	-58.9	3.6	1.51e+00	0	28	104	0	60	35762
2026-01-29 08:24:46.85	124.43	4.19	-44.3	-59.0	3.6	1.51e+00	0	28	104	0	60	36244
2026-01-29 08:24:47.86	124.36	4.26	-44.2	-59.0	3.6	1.51e+00	0	28	104	0	60	36103
2026-01-29 08:24:48.87	124.29	4.34	-44.3	-59.1	3.6	1.51e+00	0	28	104	0	60	36522
2026-01-29 08:24:49.88	124.22	4.41	-44.2	-58.9	3.6	1.51e+00	0	28	104	0	60	35885
2026-01-29 08:24:50.89	124.15	4.48	-44.3	-59.1	3.6	1.51e+00	0	28	104	0	60	36395
2026-01-29 08:24:51.90	124.07	4.56	-44.2	-59.0	3.6	1.51e+00	0	28	104	0	60	36172
2026-01-29 08:24:52.91	124.00	4.63	-44.4	-59.2	3.6	1.51e+00	0	28	104	0	60	36783
2026-01-29 08:24:53.92	123.93	4.71	-44.2	-59.0	3.6	1.51e+00	0	28	104	0	60	36247
2026-01-29 08:24:54.93	123.85	4.78	-44.3	-59.1	3.6	1.51e+00	0	28	104	0	60	36598
2026-01-29 08:24:55.94	123.78	4.86	-44.2	-59.0	3.6	1.51e+00	0	28	104	0	60	36336
2026-01-29 08:24:56.95	123.70	4.94	-44.3	-59.2	3.6	1.51e+00	0	28	104	0	60	37007
2026-01-29 08:24:57.96	123.63	5.01	-44.3	-59.1	3.6	1.51e+00	0	28	104	0	60	36392
2026-01-29 08:24:58.96	123.55	5.09	-44.4	-59.2	3.6	1.51e+00	0	28	104	0	60	37027
2026-01-29 08:24:59.98	123.47	5.16	-44.3	-59.1	3.6	1.51e+00	0	28	104	0	60	36470
2026-01-29 08:25:00.99	123.40	5.24	-44.5	-59.2	3.6	1.51e+00	0	28	104	0	60	37020
2026-01-29 08:25:02.00	123.32	5.32	-44.2	-59.1	3.6	1.51e+00	0	28	104	0	60	36665
2026-01-29 08:25:03.00	123.24	5.39	-44.5	-59.3	3.6	1.51e+00	0	28	104	0	60	37327
2026-01-29 08:25:04.02	123.16	5.47	-44.3	-59.2	3.6	1.51e+00	0	28	104	0	60	36989
2026-01-29 08:25:05.02	123.08	5.55	-44.4	-59.3	3.6	1.51e+00	0	28	104	0	60	37292
2026-01-29 08:25:06.04	123.00	5.63	-44.4	-59.1	3.6	1.51e+00	0	28	104	0	60	36721
2026-01-29 08:25:07.04	122.92	5.71	-44.1	-59.3	3.6	1.51e+00	0	28	104	0	60	37255
2026-01-29 08:25:08.05	122.84	5.79	-44.4	-59.2	3.6	1.51e+00	0	28	104	0	60	36824
2026-01-29 08:25:09.06	122.76	5.86	-44.1	-59.3	3.6	1.51e+00	0	28	104	0	60	37304
2026-01-29 08:25:10.07	122.68	5.94	-44.4	-59.2	3.6	1.51e+00	0	28	104	0	60	37063
2026-01-29 08:25:11.08	122.59	6.02	-44.4	-59.3	3.6	1.51e+00	0	28	104	0	60	37363
2026-01-29 08:25:12.09	122.51	6.10	-44.4	-59.2	3.6	1.51e+00	0	28	104	0	60	36974
2026-01-29 08:25:13.10	122.42	6.18	-44.3	-59.3	3.6	1.51e+00	0	28	104	0	60	37471
2026-01-29 08:25:14.11	122.34	6.26	-44.4	-59.3	3.6	1.51e+00	0	28	104	0	60	37222
2026-01-29 08:25:15.12	122.25	6.34	-43.9	-59.3	3.6	1.51e+00	0	28	104	0	60	37503
2026-01-29 08:25:16.12	122.17	6.42	-44.1	-59.3	3.6	1.51e+00	0	28	104	0	60	37217
2026-01-29 08:25:17.13	122.08	6.50	-44.1	-59.4	3.6	1.51e+00	0	28	104	0	60	37683
2026-01-29 08:25:18.14	122.00	6.59	-44.1	-59.3	3.6	1.51e+00	0	28	104	0	60	37330
2026-01-29 08:25:19.15	121.91	6.67	-44.1	-59.4	3.6	1.51e+00	0	28	104	0	60	37836
2026-01-29 08:25:20.16	121.82	6.75	-44.3	-59.3	3.6	1.51e+00	0	28	104	0	60	37383
2026-01-29 08:25:21.17	121.73	6.83	-44.4	-59.4	3.6	1.51e+00	0	28	104	0	60	37914
2026-01-29 08:25:22.18	121.64	6.91	-43.7	-59.3	3.6	1.51e+00	0	28	104	0	60	37386
2026-01-29 08:25:23.19	121.55	7.00	-44.4	-59.4	3.6	1.51e+00	0	28	104	0	60	37794
2026-01-29 08:25:24.20	121.46	7.08	-43.9	-59.3	3.6	1.51e+00	0	28	104	0	60	37549
2026-01-29 08:25:25.21	121.37	7.16	-44.6	-59.4	3.6	1.51e+00	0	28	104	0	60	37867
2026-01-29 08:25:26.22	121.27	7.25	-44.1	-59.3	3.6	1.51e+00	0	28	104	0	60	37600
2026-01-29 08:25:27.23	121.18	7.33	-44.6	-59.4	3.6	1.51e+00	0	28	104	0	60	38017
2026-01-29 08:25:28.24	121.09	7.42	-44.2	-59.4	3.6	1.51e+00	0	28	104	0	60	37757
2026-01-29 08:25:29.25	120.99	7.50	-44.6	-59.4	3.6	1.51e+00	0	28	104	0	60	38051
2026-01-29 08:25:30.25	120.90	7.59	-44.6	-59.4	3.6	1.51e+00	0	28	104	0	60	37974
2026-01-29 08:25:31.26	120.80	7.67	-44.7	-59.5	3.6	1.51e+00	0	28	104	0	60	38148
2026-01-29 08:25:32.27	120.70	7.76	-44.6	-59.4	3.6	1.51e+00	0	28	104	0	60	38002
2026-01-29 08:25:33.28	120.61	7.84	-44.6	-59.5	3.6	1.51e+00	0	28	104	0	60	38085
2026-01-29 08:25:34.29	120.51	7.93	-44.6	-59.4	3.6	1.51e+00	0	28	104	0	60	37970
2026-01-29 08:25:35.30	120.41	8.02	-44.7	-59.5	3.6	1.51e+00	0	28	104	0	60	38243
2026-01-29 08:25:36.31	120.31	8.10	-44.6	-59.4	3.6	1.51e+00	0	28	104	0	60	38047
2026-01-29 08:25:37.32	120.21	8.19	-44.7	-59.4	3.6	1.51e+00	0	28	104	0	60	37883
2026-01-29 08:25:38.33	120.11	8.28	-44.6	-59.4	3.6	1.51e+00	0	28	104	0	60	37856
2026-01-29 08:25:39.34	120.00	8.36	-44.7	-59.4	3.6	1.51e+00	0	28	104	0	60	37967
2026-01-29 08:25:40.35	119.90	8.45	-44.7	-59.4	3.6	1.51e+00	0	28	104	0	60	37818
2026-01-29 08:25:41.36	119.80	8.54	-44.6	-59.5	3.6	1.51e+00	0	28	104	0	60	38084
2026-01-29 08:25:42.37	119.69	8.63	-44.7	-59.5	3.6	1.51e+00	0	28	104	0	60	38123
2026-01-29 08:25:43.38	119.59	8.72	-44.7	-59.5	3.6	1.51e+00	0	28	104	0	60	38198
2026-01-29 08:25:44.38	119.48	8.81	-44.6	-59.5	3.6	1.51e+00	0	28	104	0	60	38152
2026-01-29 08:25:45.38	119.38	8.90	-44.7	-59.5	3.6	1.51e+00	0	28	104	0	60	38184
2026-01-29 08:25:46.39	119.27	8.99	-44.8	-59.5	3.6	1.51e+00	0	28	104	0	60	38251
2026-01-29 08:25:47.40	119.16	9.08	-44.8	-59.5	3.6	1.51e+00	0	28	104	0	60	38188
2026-01-29 08:25:48.41	119.05	9.17	-44.7	-59.5	3.6	1.51e+00	0	28	104	0	60	38222
2026-01-29 08:25:49.42	118.94	9.26	-44.8	-59.5	3.6	1.51e+00	0	28	104	0	60	38311
2026-01-29 08:25:50.43	118.83	9.35	-44.6	-59.5	3.5	1.51e+00	0	28	104	0	60	38304
2026-01-29 08:25:51.44	118.72	9.45	-44.8	-59.5	3.6	1.51e+00	0	28	104	0	60	38261
2026-01-29 08:25:52.45	118.60	9.54	-44.8	-59.5	3.6	1.51e+00	0	28	104	0	60	38114
2026-01-29 08:25:53.46	118.49	9.63	-44.8	-59.5	3.6	1.51e+00	0	28	104	0	60	38272
2026-01-29 08:25:54.47	118.37	9.72	-44.7	-59.5	3.6	1.51e+00	0	28	104	0	60	38414
2026-01-29 08:25:55.48	118.26	9.82	-44.7	-59.5	3.6	1.51e+00	0	28	104	0	60	38370
2026-01-29 08:25:56.49	118.14	9.91	-44.7	-59.5	3.6	1.51e+00	0	28	104	0	60	38268
2026-01-29 08:25:57.50	118.02	10.01	-44.8	-59.5	3.6	1.51e+00	0	28	104	0	60	38293
2026-01-29 08:25:58.51	117.91	10.10	-44.8	-59.5	3.6	1.51e+00	0	28	104	0	60	38397
2026-01-29 08:25:59.52	117.79	10.20	-44.8	-59.5	3.6	1.51e+00	0	28	104	0	60	38167
2026-01-29 08:26:00.53	117.66	10.29	-44.8	-59.5	3.6	1.51e+00	0	28	104	0	60	38260
2026-01-29 08:26:01.54	117.54	10.39	-44.8	-59.5	3.6	1.51e+00	0	28	104	0	60	38399
2026-01-29 08:26:02.54	117.42	10.48	-44.8	-59.5	3.6	1.51e+00	0	28	104	0	60	38331
2026-01-29 08:26:03.55	117.30	10.58	-44.8	-59.5	3.6	1.51e+00	0	28	104	0	60	38178
2026-01-29 08:26:04.56	117.17	10.68	-44.7	-59.5	3.6	1.51e+00	0	28	104	0	60	38508
2026-01-29 08:26:05.57	117.05	10.77	-44.7	-59.5	3.6	1.51e+00	0	28	104	0	60	38446
2026-01-29 08:26:06.58	116.92	10.87	-44.7	-59.5	3.6	1.51e+00	0	28	104	0	60	38371
2026-01-29 08:26:07.59	116.79	10.97	-44.8	-59.6	3.6	1.51e+00	0	28	104	0	60	38562
2026-01-29 08:26:08.60	116.66	11.07	-44.8	-59.5	3.6	1.51e+00	0	28	104	0	60	38289
2026-01-29 08:26:09.61	116.53	11.17	-44.8	-59.5	3.6	1.51e+00	0	28	104	0	60	38433
2026-01-29 08:26:10.62	116.40	11.27	-44.7	-59.6	3.6	1.51e+00	0	28	104	0	60	38587
2026-01-29 08:26:11.63	116.27	11.37	-44.7	-59.6	3.6	1.51e+00	0	28	104	0	60	38581
2026-01-29 08:26:12.64	116.14	11.47	-44.8	-59.6	3.6	1.51e+00	0	28	104	0	60	38718
2026-01-29 08:26:13.65	116.00	11.57	-44.8	-59.6	3.5	1.51e+00	0	28	104	0	60	38720
2026-01-29 08:26:14.66	115.87	11.67	-44.9	-59.6	3.6	1.51e+00	0	28	104	0	60	38691
2026-01-29 08:26:15.67	115.73	11.77	-44.8	-59.6	3.6	1.51e+00	0	28	104	0	60	38660
2026-01-29 08:26:16.67	115.59	11.87	-44.9	-59.6	3.6	1.51e+00	0	28	104	0	60	38852
2026-01-29 08:26:17.68	115.45	11.98	-44.9	-59.6	3.6	1.51e+00	0	28	104	0	60	38690
2026-01-29 08:26:18.69	115.31	12.08	-44.8	-59.6	3.6	1.51e+00	0	28	104	0	60	38955
2026-01-29 08:26:19.70	115.17	12.18	-44.7	-59.6	3.6	1.51e+00	0	28	104	0	60	38685
2026-01-29 08:26:20.71	115.03	12.29	-44.9	-59.7	3.6	1.51e+00	0	28	104	0	60	39019
2026-01-29 08:26:21.72	114.88	12.39	-44.8	-59.6	3.6	1.51e+00	0	28	104	0	60	38832
2026-01-29 08:26:22.73	114.74	12.49	-44.9	-59.7	3.6	1.51e+00	0	28	104	0	60	39098
2026-01-29 08:26:23.74	114.59	12.60	-44.8	-59.6	3.6	1.51e+00	0	28	104	0	60	38739
2026-01-29 08:26:24.75	114.44	12.70	-44.9	-59.7	3.6	1.51e+00	0	28	104	0	60	39061
2026-01-29 08:26:25.76	114.29	12.81	-44.9	-59.6	3.6	1.51e+00	0	28	104	0	60	38716
2026-01-29 08:26:26.77	114.14	12.92	-44.9	-59.7	3.6	1.51e+00	0	28	104	0	60	39192
2026-01-29 08:26:27.78	113.99	13.02	-44.9	-59.7	3.6	1.51e+00	0	28	104	0	60	38971
2026-01-29 08:26:28.79	113.84	13.13	-44.9	-59.7	3.6	1.51e+00	0	28	104	0	60	39045
2026-01-29 08:26:29.80	113.68	13.24	-44.8	-59.6	3.6	1.51e+00	0	28	104	0	60	38927
2026-01-29 08:26:30.81	113.53	13.35	-44.8	-59.7	3.6	1.51e+00	0	28	104	0	60	39023
2026-01-29 08:26:31.82	113.37	13.45	-44.9	-59.7	3.6	1.51e+00	0	28	104	0	60	38964
2026-01-29 08:26:32.83	113.21	13.56	-44.5	-59.7	3.6	1.51e+00	0	28	104	0	60	39078
2026-01-29 08:26:33.83	113.05	13.67	-44.9	-59.7	3.6	1.51e+00	0	28	104	0	60	39015
2026-01-29 08:26:34.84	112.89	13.78	-44.9	-59.7	3.6	1.51e+00	0	28	104	0	60	39241
2026-01-29 08:26:35.85	112.73	13.89	-44.7	-59.7	3.6	1.51e+00	0	28	104	0	60	39018
2026-01-29 08:26:36.86	112.56	14.00	-44.9	-59.7	3.6	1.51e+00	0	28	104	0	60	39219
2026-01-29 08:26:37.87	112.40	14.11	-44.8	-59.7	3.6	1.51e+00	0	28	104	0	60	39177
2026-01-29 08:26:38.88	112.23	14.23	-44.3	-59.7	3.6	1.51e+00	0	28	104	0	60	39075
2026-01-29 08:26:39.89	112.06	14.34	-44.9	-59.7	3.6	1.51e+00	0	28	104	0	60	39217
2026-01-29 08:26:40.90	111.89	14.45	-44.8	-59.7	3.6	1.51e+00	0	28	104	0	60	39381
2026-01-29 08:26:41.91	111.72	14.56	-44.5	-59.7	3.6	1.51e+00	0	28	104	0	60	39240
2026-01-29 08:26:42.92	111.54	14.68	-44.8	-59.8	3.6	1.51e+00	0	28	104	0	60	39570
2026-01-29 08:26:43.93	111.37	14.79	-44.4	-59.7	3.6	1.51e+00	0	28	104	0	60	39357
2026-01-29 08:26:44.94	111.19	14.91	-44.9	-59.7	3.6	1.51e+00	0	28	104	0	60	39397
2026-01-29 08:26:45.95	111.01	15.02	-44.7	-59.8	3.6	1.51e+00	0	28	104	0	60	39589
2026-01-29 08:26:46.96	110.83	15.14	-44.5	-59.7	3.6	1.51e+00	0	28	104	0	60	39366
2026-01-29 08:26:47.96	110.65	15.25	-44.7	-59.8	3.6	1.51e+00	0	28	104	0	60	39466
2026-01-29 08:26:48.98	110.46	15.37	-44.8	-59.7	3.6	1.51e+00	0	28	104	0	60	39268
2026-01-29 08:26:49.98	110.28	15.48	-44.7	-59.8	3.6	1.51e+00	0	28	104	0	60	39429
2026-01-29 08:26:50.99	110.09	15.60	-44.6	-59.7	3.6	1.51e+00	0	28	104	0	60	39328
2026-01-29 08:26:52.00	109.90	15.72	-44.6	-59.8	3.6	1.51e+00	0	28	104	0	60	39445
2026-01-29 08:26:53.01	109.71	15.84	-44.9	-59.8	3.6	1.51e+00	0	28	104	0	60	39476
2026-01-29 08:26:54.02	109.52	15.96	-44.9	-59.8	3.6	1.51e+00	0	28	104	0	60	39472
2026-01-29 08:26:55.03	109.32	16.07	-44.8	-59.8	3.6	1.51e+00	0	28	104	0	60	39527
2026-01-29 08:26:56.04	109.13	16.19	-44.7	-59.7	3.6	1.51e+00	0	28	104	0	60	39360
2026-01-29 08:26:57.05	108.93	16.31	-45.0	-59.8	3.6	1.51e+00	0	28	104	0	60	39794
2026-01-29 08:26:58.06	108.73	16.43	-45.0	-59.7	3.6	1.51e+00	0	28	104	0	60	39382
2026-01-29 08:26:59.07	108.53	16.56	-44.8	-59.8	3.6	1.51e+00	0	28	104	0	60	39564
2026-01-29 08:27:00.08	108.32	16.68	-44.8	-59.7	3.6	1.51e+00	0	28	104	0	60	39353
2026-01-29 08:27:01.08	108.12	16.80	-45.0	-59.8	3.6	1.51e+00	0	28	104	0	60	39553
2026-01-29 08:27:02.09	107.91	16.92	-44.9	-59.8	3.6	1.51e+00	0	28	104	0	60	39542
2026-01-29 08:27:03.11	107.70	17.04	-45.0	-59.8	3.6	1.51e+00	0	28	104	0	60	39671
2026-01-29 08:27:04.11	107.49	17.17	-45.0	-59.8	3.6	1.51e+00	0	28	104	0	60	39562
2026-01-29 08:27:05.12	107.27	17.29	-45.0	-59.8	3.6	1.51e+00	0	28	104	0	60	39579
2026-01-29 08:27:06.13	107.06	17.41	-45.0	-59.8	3.6	1.51e+00	0	28	104	0	60	39554
2026-01-29 08:27:07.14	106.84	17.54	-45.0	-59.8	3.6	1.51e+00	0	28	104	0	60	39861
2026-01-29 08:27:08.15	106.62	17.66	-45.0	-59.8	3.6	1.51e+00	0	28	104	0	60	39546
2026-01-29 08:27:09.16	106.40	17.79	-45.0	-59.8	3.6	1.51e+00	0	28	104	0	60	39847
2026-01-29 08:27:10.17	106.17	17.91	-45.0	-59.8	3.6	1.51e+00	0	28	104	0	60	39729
2026-01-29 08:27:11.18	105.94	18.04	-45.0	-59.9	3.6	1.51e+00	0	28	104	0	60	39867
2026-01-29 08:27:12.18	105.72	18.16	-44.9	-59.9	3.6	1.51e+00	0	28	104	0	60	40058
2026-01-29 08:27:13.19	105.48	18.29	-45.1	-59.9	3.6	1.51e+00	0	28	104	0	60	40034
2026-01-29 08:27:14.20	105.25	18.42	-44.9	-59.8	3.6	1.51e+00	0	28	104	0	60	39733
2026-01-29 08:27:15.21	105.01	18.55	-45.1	-59.9	3.6	1.51e+00	0	28	104	0	60	40171
2026-01-29 08:27:16.22	104.78	18.67	-45.1	-59.8	3.6	1.51e+00	0	29	104	0	60	39818
2026-01-29 08:27:17.22	104.54	18.80	-45.0	-59.9	3.6	1.51e+00	0	28	104	0	60	40006
2026-01-29 08:27:18.23	104.29	18.93	-45.0	-59.9	3.6	1.51e+00	0	28	104	0	60	40002
2026-01-29 08:27:19.24	104.05	19.06	-45.1	-59.9	3.6	1.51e+00	0	28	104	0	60	40020
2026-01-29 08:27:20.25	103.80	19.19	-45.1	-59.9	3.6	1.51e+00	0	28	104	0	60	39871
2026-01-29 08:27:21.26	103.55	19.32	-45.1	-59.9	3.6	1.51e+00	0	28	104	0	60	39906
2026-01-29 08:27:22.26	103.30	19.45	-45.0	-59.9	3.6	1.51e+00	0	28	104	0	60	39888
2026-01-29 08:27:23.27	103.04	19.58	-45.0	-59.9	3.6	1.51e+00	0	28	104	0	60	40108
2026-01-29 08:27:24.28	102.79	19.71	-45.0	-59.9	3.6	1.51e+00	0	28	104	0	60	39883
2026-01-29 08:27:25.29	102.53	19.84	-44.9	-59.9	3.6	1.51e+00	0	28	104	0	60	40046
2026-01-29 08:27:26.30	102.26	19.97	-45.0	-59.9	3.6	1.51e+00	0	28	104	0	60	39997
2026-01-29 08:27:27.31	102.00	20.10	-45.1	-59.9	3.5	1.51e+00	0	28	104	0	60	40019
2026-01-29 08:27:28.32	101.73	20.24	-45.0	-59.9	3.6	1.51e+00	0	28	104	0	60	39968
2026-01-29 08:27:29.33	101.46	20.37	-45.1	-59.9	3.6	1.51e+00	0	28	104	0	60	40248
2026-01-29 08:27:30.33	101.19	20.50	-45.1	-59.9	3.6	1.51e+00	0	28	104	0	60	40039
2026-01-29 08:27:31.34	100.91	20.63	-45.1	-59.9	3.6	1.51e+00	0	28	104	0	60	40094
2026-01-29 08:27:32.35	100.63	20.77	-45.1	-59.9	3.6	1.51e+00	0	28	104	0	60	40034
2026-01-29 08:27:33.36	100.35	20.90	-45.1	-59.9	3.6	1.51e+00	0	29	104	0	60	40267
2026-01-29 08:27:34.37	100.06	21.03	-44.4	-59.9	3.6	1.51e+00	0	28	104	0	60	39992
2026-01-29 08:27:35.38	99.78	21.17	-44.8	-59.9	3.6	1.51e+00	0	28	104	0	60	40156
2026-01-29 08:27:36.39	99.48	21.30	-44.9	-60.0	3.6	1.51e+00	0	28	104	0	60	40394
2026-01-29 08:27:37.40	99.19	21.44	-44.9	-59.9	3.6	1.51e+00	0	28	104	0	60	39874
2026-01-29 08:27:38.41	98.89	21.57	-44.9	-59.9	3.6	1.51e+00	0	28	104	0	60	40291
2026-01-29 08:27:39.42	98.60	21.71	-44.3	-59.9	3.6	1.51e+00	0	28	104	0	60	40165
2026-01-29 08:27:40.43	98.29	21.84	-44.4	-59.9	3.6	1.51e+00	0	29	104	0	60	40033
2026-01-29 08:27:41.44	97.99	21.98	-44.9	-59.9	3.6	1.51e+00	0	28	104	0	60	40095
2026-01-29 08:27:42.44	97.68	22.11	-44.9	-59.9	3.6	1.51e+00	0	29	104	0	60	40084
2026-01-29 08:27:43.45	97.37	22.24	-45.1	-59.9	3.6	1.51e+00	0	28	104	0	60	40161
2026-01-29 08:27:44.46	97.06	22.38	-45.1	-59.9	3.6	1.51e+00	0	29	104	0	60	40216
2026-01-29 08:27:45.47	96.74	22.51	-44.7	-60.0	3.6	1.51e+00	0	28	104	0	60	40346
2026-01-29 08:27:46.48	96.42	22.65	-44.6	-59.9	3.6	1.51e+00	0	28	104	0	60	39950
2026-01-29 08:27:47.49	96.09	22.78	-44.7	-59.9	3.6	1.51e+00	0	28	104	0	60	39865
2026-01-29 08:27:48.50	95.77	22.92	-44.8	-59.9	3.6	1.51e+00	0	28	104	0	60	40148
2026-01-29 08:27:49.51	95.44	23.06	-45.1	-59.9	3.6	1.51e+00	0	29	104	0	60	40238
2026-01-29 08:27:50.52	95.10	23.19	-45.1	-60.0	3.6	1.51e+00	0	28	104	0	60	40370
2026-01-29 08:27:51.52	94.77	23.32	-44.7	-60.0	3.6	1.51e+00	0	28	104	0	60	40341
2026-01-29 08:27:52.53	94.43	23.46	-44.7	-59.9	3.6	1.51e+00	0	29	104	0	60	40146
2026-01-29 08:27:53.54	94.08	23.59	-44.9	-59.9	3.6	1.51e+00	0	29	104	0	60	40117
2026-01-29 08:27:54.55	93.74	23.73	-44.6	-59.9	3.6	1.51e+00	0	29	104	0	60	40106
2026-01-29 08:27:55.56	93.39	23.86	-44.9	-59.9	3.6	1.51e+00	0	29	104	0	60	40237
2026-01-29 08:27:56.57	93.03	24.00	-44.3	-59.9	3.6	1.51e+00	0	29	104	0	60	40109
2026-01-29 08:27:57.58	92.68	24.13	-44.7	-59.9	3.6	1.51e+00	0	29	104	0	60	40073
2026-01-29 08:27:58.59	92.31	24.26	-43.4	-60.0	3.6	1.51e+00	0	29	104	0	60	40534
2026-01-29 08:27:59.59	91.95	24.40	-43.7	-59.9	3.6	1.51e+00	0	29	104	0	60	40210
2026-01-29 08:28:00.60	91.59	24.53	-45.1	-60.0	3.6	1.51e+00	0	29	104	0	60	40420
2026-01-29 08:28:01.61	91.22	24.66	-44.6	-60.0	3.6	1.51e+00	0	28	104	0	60	40362
2026-01-29 08:28:02.62	90.84	24.79	-45.1	-59.9	3.6	1.51e+00	0	29	104	0	60	40255
2026-01-29 08:28:03.63	90.46	24.93	-44.6	-59.9	3.5	1.51e+00	0	29	104	0	60	40137
2026-01-29 08:28:04.64	90.08	25.06	-45.0	-59.9	3.6	1.51e+00	0	29	104	0	60	40218
2026-01-29 08:28:05.65	89.70	25.19	-45.0	-60.0	3.6	1.51e+00	0	29	104	0	60	40410
2026-01-29 08:28:06.65	89.31	25.32	-45.0	-59.9	3.6	1.51e+00	0	29	104	0	60	40231
2026-01-29 08:28:07.66	88.92	25.45	-44.9	-59.9	3.6	1.51e+00	0	28	104	0	60	40294
2026-01-29 08:28:08.67	88.52	25.58	-45.0	-59.9	3.5	1.51e+00	0	29	104	0	60	40104
2026-01-29 08:28:09.68	88.12	25.71	-45.2	-59.9	3.6	1.51e+00	0	29	104	0	60	40103
2026-01-29 08:28:10.69	87.72	25.83	-45.2	-60.0	3.6	1.51e+00	0	29	104	0	60	40450
2026-01-29 08:28:11.70	87.31	25.96	-45.1	-60.0	3.6	1.51e+00	0	29	104	0	60	40388
2026-01-29 08:28:12.71	86.90	26.09	-45.1	-59.9	3.6	1.51e+00	0	29	104	0	60	40292
2026-01-29 08:28:13.72	86.49	26.21	-45.1	-60.0	3.6	1.51e+00	0	28	104	0	60	40527
2026-01-29 08:28:14.73	86.07	26.34	-45.2	-60.0	3.6	1.51e+00	0	29	104	0	60	40436
2026-01-29 08:28:15.74	85.65	26.46	-45.2	-59.9	3.6	1.51e+00	0	29	104	0	60	40098
2026-01-29 08:28:16.75	85.23	26.59	-44.7	-59.9	3.6	1.51e+00	0	29	104	0	60	40320
2026-01-29 08:28:17.76	84.80	26.71	-44.7	-59.9	3.6	1.51e+00	0	28	104	0	60	40257
2026-01-29 08:28:18.77	84.37	26.83	-42.6	-60.0	3.6	1.51e+00	0	29	104	0	60	40463
2026-01-29 08:28:19.78	83.93	26.95	-43.7	-60.0	3.6	1.51e+00	0	29	104	0	60	40428
2026-01-29 08:28:20.79	83.49	27.07	-43.1	-60.0	3.6	1.51e+00	0	29	104	0	60	40428
2026-01-29 08:28:21.79	83.05	27.19	-43.9	-60.0	3.6	1.51e+00	0	29	104	0	60	40484
2026-01-29 08:28:22.80	82.60	27.30	-44.7	-60.0	3.6	1.51e+00	0	29	104	0	60	40468
2026-01-29 08:28:23.82	82.15	27.42	-44.7	-59.9	3.6	1.51e+00	0	29	104	0	60	40139
2026-01-29 08:28:24.82	81.70	27.53	-44.9	-59.9	3.6	1.51e+00	0	29	104	0	60	40180
2026-01-29 08:28:25.83	81.24	27.65	-45.2	-60.0	3.6	1.51e+00	0	29	104	0	60	40456
2026-01-29 08:28:26.84	80.78	27.76	-45.2	-60.0	3.6	1.51e+00	0	29	104	0	60	40542
2026-01-29 08:28:27.85	80.32	27.87	-45.2	-60.0	3.6	1.51e+00	0	29	104	0	60	40369
2026-01-29 08:28:28.86	79.85	27.98	-44.9	-60.0	3.6	1.51e+00	0	29	104	0	60	40629
2026-01-29 08:28:29.87	79.38	28.09	-45.3	-60.0	3.6	1.51e+00	0	29	104	0	60	40484
2026-01-29 08:28:30.88	78.90	28.19	-44.4	-60.0	3.6	1.51e+00	0	29	104	0	60	40655
2026-01-29 08:28:31.89	78.42	28.30	-45.0	-60.0	3.6	1.51e+00	0	29	104	0	60	40512
2026-01-29 08:28:32.90	77.94	28.40	-43.7	-60.0	3.6	1.51e+00	0	29	104	0	60	40644
2026-01-29 08:28:33.91	77.46	28.50	-43.2	-60.0	3.6	1.51e+00	0	29	104	0	60	40400
2026-01-29 08:28:34.92	76.97	28.60	-44.7	-59.9	3.6	1.51e+00	0	29	104	0	60	40321
2026-01-29 08:28:35.93	76.47	28.70	-44.4	-60.0	3.6	1.51e+00	0	29	104	0	60	40416
2026-01-29 08:28:36.94	75.98	28.80	-45.2	-60.0	3.6	1.51e+00	0	29	104	0	60	40571
2026-01-29 08:28:37.95	75.48	28.89	-45.1	-60.0	3.6	1.51e+00	0	28	104	0	60	40699
2026-01-29 08:28:38.96	74.98	28.98	-45.0	-60.0	3.6	1.51e+00	0	29	104	0	60	40712
2026-01-29 08:28:39.96	74.48	29.07	-45.2	-60.0	3.6	1.51e+00	0	29	104	0	60	40556
2026-01-29 08:28:40.97	73.97	29.16	-45.2	-60.0	3.6	1.51e+00	0	29	104	0	60	40478
2026-01-29 08:28:41.98	73.46	29.25	-45.3	-60.0	3.6	1.51e+00	0	29	104	0	60	40541
2026-01-29 08:28:42.99	72.95	29.33	-45.3	-60.0	3.6	1.51e+00	0	28	104	0	60	40688
2026-01-29 08:28:44.00	72.43	29.42	-45.2	-60.0	3.6	1.51e+00	0	29	104	0	60	40531
2026-01-29 08:28:45.01	71.91	29.50	-45.3	-60.0	3.6	1.51e+00	0	29	104	0	60	40691
2026-01-29 08:28:46.02	71.39	29.57	-45.3	-60.0	3.6	1.51e+00	0	29	104	0	60	40673
2026-01-29 08:28:47.03	70.86	29.65	-45.0	-60.1	3.6	1.51e+00	0	29	104	0	60	40791
2026-01-29 08:28:48.04	70.33	29.72	-45.0	-60.0	3.6	1.51e+00	0	29	104	0	60	40356
2026-01-29 08:28:49.05	69.80	29.79	-45.3	-60.0	3.6	1.51e+00	0	29	104	0	60	40521
2026-01-29 08:28:50.05	69.28	29.86	-45.1	-60.0	3.6	1.51e+00	0	29	104	0	60	40680
2026-01-29 08:28:51.07	68.74	29.93	-44.8	-60.0	3.6	1.51e+00	0	29	104	0	60	40585
2026-01-29 08:28:52.08	68.20	29.99	-45.1	-60.0	3.6	1.51e+00	0	29	104	0	60	40366
2026-01-29 08:28:53.08	67.66	30.05	-45.3	-60.1	3.6	1.51e+00	0	29	104	0	60	40824
2026-01-29 08:28:54.09	67.12	30.11	-45.2	-60.0	3.6	1.51e+00	0	29	104	0	60	40744
2026-01-29 08:28:55.10	66.58	30.17	-45.3	-60.0	3.6	1.51e+00	0	29	104	0	60	40493
2026-01-29 08:28:56.11	66.03	30.22	-45.2	-60.0	3.6	1.51e+00	0	29	104	0	60	40421
2026-01-29 08:28:57.12	65.48	30.27	-45.3	-60.0	3.6	1.51e+00	0	29	104	0	60	40621
2026-01-29 08:28:58.13	64.93	30.32	-45.0	-60.0	3.6	1.51e+00	0	29	104	0	60	40776
2026-01-29 08:28:59.14	64.38	30.37	-45.2	-60.0	3.6	1.51e+00	0	29	104	0	60	40540
2026-01-29 08:29:00.15	63.83	30.41	-45.3	-60.0	3.6	1.51e+00	0	29	104	0	60	40495
2026-01-29 08:29:01.15	63.28	30.45	-45.2	-60.0	3.6	1.51e+00	0	29	104	0	60	40757
2026-01-29 08:29:02.16	62.72	30.49	-44.9	-60.0	3.6	1.51e+00	0	29	104	0	60	40617
2026-01-29 08:29:03.17	62.16	30.53	-45.2	-60.0	3.6	1.51e+00	0	29	104	0	60	40718
2026-01-29 08:29:04.18	61.60	30.56	-45.3	-60.0	3.6	1.51e+00	0	29	104	0	60	40527
2026-01-29 08:29:05.19	61.04	30.59	-44.9	-60.0	3.6	1.51e+00	0	29	104	0	60	40671
2026-01-29 08:29:06.19	60.49	30.61	-43.4	-60.1	3.6	1.51e+00	0	29	104	0	60	40878
2026-01-29 08:29:07.20	59.92	30.64	-44.1	-60.0	3.6	1.51e+00	0	29	104	0	60	40780
2026-01-29 08:29:08.21	59.36	30.66	-43.3	-60.0	3.6	1.51e+00	0	29	104	0	60	40732
2026-01-29 08:29:09.22	58.80	30.68	-44.5	-60.0	3.6	1.51e+00	0	29	104	0	60	40590
2026-01-29 08:29:10.23	58.23	30.69	-45.0	-60.0	3.6	1.51e+00	0	29	104	0	60	40660
2026-01-29 08:29:11.24	57.67	30.70	-45.2	-60.1	3.6	1.51e+00	0	29	104	0	60	40818
2026-01-29 08:29:12.25	57.10	30.71	-45.3	-60.0	3.6	1.51e+00	0	29	104	0	60	40620
2026-01-29 08:29:13.26	56.53	30.72	-45.1	-60.0	3.6	1.51e+00	0	29	104	0	60	40545
2026-01-29 08:29:14.27	55.97	30.72	-45.3	-60.0	3.6	1.51e+00	0	29	104	0	60	40506
2026-01-29 08:29:15.28	55.40	30.72	-45.1	-60.0	3.6	1.51e+00	0	29	104	0	60	40754
2026-01-29 08:29:16.28	54.84	30.72	-44.9	-60.0	3.6	1.51e+00	0	29	104	0	60	40660
2026-01-29 08:29:17.29	54.28	30.71	-45.4	-60.1	3.6	1.51e+00	0	28	104	0	60	40807
2026-01-29 08:29:18.30	53.71	30.70	-43.4	-60.1	3.6	1.51e+00	0	29	104	0	60	40795
2026-01-29 08:29:19.31	53.14	30.69	-44.1	-60.1	3.6	1.51e+00	0	29	104	0	60	40820
2026-01-29 08:29:20.32	52.58	30.68	-44.0	-60.0	3.6	1.51e+00	0	29	104	0	60	40617
2026-01-29 08:29:21.33	52.02	30.66	-43.8	-60.0	3.6	1.51e+00	0	29	104	0	60	40714
2026-01-29 08:29:22.34	51.45	30.64	-45.0	-60.1	3.6	1.51e+00	0	29	104	0	60	40860
2026-01-29 08:29:23.35	50.89	30.62	-45.1	-60.0	3.6	1.51e+00	0	29	104	0	60	40702
2026-01-29 08:29:24.36	50.33	30.59	-44.8	-60.0	3.6	1.51e+00	0	29	104	0	60	40633
2026-01-29 08:29:25.37	49.77	30.56	-45.2	-60.1	3.6	1.51e+00	0	29	104	0	60	40797
2026-01-29 08:29:26.38	49.21	30.53	-45.3	-60.1	3.6	1.51e+00	0	29	104	0	60	40815
2026-01-29 08:29:27.39	48.65	30.50	-45.0	-60.0	3.6	1.51e+00	0	29	104	0	60	40786
2026-01-29 08:29:28.40	48.09	30.46	-44.8	-60.0	3.6	1.51e+00	0	29	104	0	60	40529
2026-01-29 08:29:29.41	47.54	30.42	-45.0	-60.1	3.5	1.51e+00	0	29	104	0	60	40876
2026-01-29 08:29:30.41	46.99	30.38	-45.4	-60.1	3.6	1.51e+00	0	29	104	0	60	40816
2026-01-29 08:29:31.42	46.44	30.33	-45.3	-60.1	3.6	1.51e+00	0	29	104	0	60	40891
2026-01-29 08:29:32.43	45.88	30.29	-45.3	-60.0	3.6	1.51e+00	0	29	104	0	60	40531
2026-01-29 08:29:33.44	45.34	30.24	-45.4	-60.1	3.6	1.51e+00	0	29	104	0	60	41039
2026-01-29 08:29:34.45	44.79	30.18	-45.4	-60.0	3.6	1.51e+00	0	29	104	0	60	40672
2026-01-29 08:29:35.46	44.24	30.13	-45.3	-60.1	3.6	1.51e+00	0	29	104	0	60	40868
2026-01-29 08:29:36.47	43.70	30.07	-45.3	-60.1	3.6	1.51e+00	0	29	104	0	60	40834
2026-01-29 08:29:37.48	43.16	30.01	-45.3	-60.1	3.6	1.51e+00	0	29	104	0	60	40804
2026-01-29 08:29:38.49	42.62	29.94	-45.1	-60.1	3.6	1.51e+00	0	29	104	0	60	40897
2026-01-29 08:29:39.50	42.09	29.88	-45.1	-60.1	3.6	1.51e+00	0	29	104	0	60	40910
2026-01-29 08:29:40.51	41.55	29.81	-45.2	-60.1	3.6	1.51e+00	0	29	104	0	60	40867
2026-01-29 08:29:41.52	41.02	29.74	-45.1	-60.1	3.6	1.51e+00	0	29	104	0	60	41136
2026-01-29 08:29:42.53	40.49	29.67	-44.2	-60.1	3.6	1.51e+00	0	29	104	0	60	41008
2026-01-29 08:29:43.54	39.97	29.59	-45.1	-60.1	3.6	1.51e+00	0	29	104	0	60	40800
2026-01-29 08:29:44.54	39.45	29.51	-45.1	-60.0	3.6	1.51e+00	0	29	104	0	60	40727
2026-01-29 08:29:45.55	38.93	29.43	-44.9	-60.1	3.6	1.51e+00	0	29	104	0	60	40943
2026-01-29 08:29:46.56	38.41	29.35	-45.3	-60.1	3.6	1.51e+00	0	29	104	0	60	40918
2026-01-29 08:29:47.57	37.89	29.27	-44.2	-60.0	3.6	1.51e+00	0	28	104	0	60	40786
2026-01-29 08:29:48.58	37.38	29.18	-43.8	-60.1	3.6	1.51e+00	0	29	104	0	60	40801
2026-01-29 08:29:49.59	36.87	29.09	-45.1	-60.1	3.6	1.51e+00	0	29	104	0	60	40876
2026-01-29 08:29:50.60	36.37	29.00	-45.2	-60.0	3.5	1.51e+00	0	29	104	0	60	40754
2026-01-29 08:29:51.61	35.87	28.91	-45.1	-60.0	3.6	1.51e+00	0	29	104	0	60	40585
2026-01-29 08:29:52.62	35.37	28.82	-45.0	-60.0	3.6	1.51e+00	0	29	104	0	60	40740
2026-01-29 08:29:53.63	34.87	28.72	-44.7	-60.1	3.6	1.51e+00	0	29	104	0	60	40891
2026-01-29 08:29:54.64	34.38	28.62	-45.3	-60.0	3.6	1.51e+00	0	29	104	0	60	40713
2026-01-29 08:29:55.65	33.89	28.53	-45.2	-60.0	3.6	1.51e+00	0	29	104	0	60	40726
2026-01-29 08:29:56.66	33.40	28.42	-45.3	-60.0	3.6	1.51e+00	0	29	104	0	60	40509
2026-01-29 08:29:57.67	32.92	28.32	-45.4	-60.1	3.6	1.51e+00	0	29	104	0	60	40963
2026-01-29 08:29:58.68	32.44	28.22	-45.3	-60.0	3.6	1.51e+00	0	29	104	0	60	40777
2026-01-29 08:29:59.69	31.96	28.11	-45.2	-60.1	3.6	1.51e+00	0	29	104	0	60	40817
2026-01-29 08:30:00.69	31.49	28.00	-45.2	-60.1	3.6	1.51e+00	0	29	104	0	60	41003
2026-01-29 08:30:01.70	31.03	27.90	-45.3	-60.1	3.6	1.51e+00	0	29	104	0	60	40796
2026-01-29 08:30:02.71	30.56	27.78	-45.2	-60.1	3.6	1.51e+00	0	29	104	0	60	40908
2026-01-29 08:30:03.72	30.10	27.67	-45.2	-60.0	3.6	1.51e+00	0	29	104	0	60	40672
2026-01-29 08:30:04.73	29.64	27.56	-45.3	-60.0	3.6	1.51e+00	0	29	104	0	60	40644
2026-01-29 08:30:05.74	29.18	27.45	-45.3	-60.0	3.6	1.51e+00	0	29	104	0	60	40685
2026-01-29 08:30:06.75	28.73	27.33	-45.3	-60.0	3.5	1.51e+00	0	29	104	0	60	40777
2026-01-29 08:30:07.76	28.29	27.21	-45.3	-60.0	3.6	1.51e+00	0	29	104	0	60	40588
2026-01-29 08:30:08.77	27.84	27.10	-45.2	-60.0	3.6	1.51e+00	0	29	104	0	60	40610
2026-01-29 08:30:09.78	27.40	26.98	-45.3	-60.0	3.6	1.51e+00	0	29	104	0	60	40654
2026-01-29 08:30:10.79	26.96	26.86	-45.3	-60.0	3.6	1.51e+00	0	29	104	0	60	40629
2026-01-29 08:30:11.80	26.53	26.73	-45.2	-60.0	3.6	1.51e+00	0	29	104	0	60	40598
2026-01-29 08:30:12.81	26.10	26.61	-45.1	-60.0	3.6	1.51e+00	0	29	104	0	60	40665
2026-01-29 08:30:13.82	25.68	26.49	-45.2	-59.9	3.6	1.51e+00	0	29	104	0	60	40296
2026-01-29 08:30:14.83	25.25	26.37	-45.3	-60.1	3.6	1.51e+00	0	29	104	0	60	40848
2026-01-29 08:30:15.84	24.83	26.24	-45.3	-60.0	3.6	1.51e+00	0	29	104	0	60	40663
2026-01-29 08:30:16.85	24.42	26.11	-45.2	-60.0	3.6	1.51e+00	0	29	104	0	60	40698
2026-01-29 08:30:17.86	24.01	25.99	-45.3	-60.0	3.6	1.51e+00	0	29	104	0	60	40461
2026-01-29 08:30:18.87	23.60	25.86	-45.3	-60.0	3.6	1.51e+00	0	29	104	0	60	40696
2026-01-29 08:30:19.88	23.20	25.73	-45.3	-60.0	3.6	1.51e+00	0	29	104	0	60	40429
2026-01-29 08:30:20.89	22.80	25.60	-45.3	-60.0	3.6	1.51e+00	0	29	104	0	60	40667
2026-01-29 08:30:21.89	22.40	25.48	-45.3	-60.0	3.5	1.51e+00	0	29	104	0	60	40459
2026-01-29 08:30:22.90	22.01	25.35	-45.3	-60.0	3.6	1.51e+00	0	29	104	0	60	40573
2026-01-29 08:30:23.91	21.62	25.22	-45.3	-60.0	3.6	1.51e+00	0	29	104	0	60	40638
2026-01-29 08:30:24.92	21.23	25.08	-45.3	-60.0	3.6	1.51e+00	0	28	104	0	60	40632
2026-01-29 08:30:25.93	20.85	24.95	-45.3	-60.0	3.6	1.51e+00	0	29	104	0	60	40405
2026-01-29 08:30:26.94	20.47	24.82	-45.3	-60.0	3.6	1.51e+00	0	29	104	0	60	40737
2026-01-29 08:30:27.95	20.10	24.69	-45.3	-60.0	3.6	1.51e+00	0	29	104	0	60	40574
2026-01-29 08:30:28.96	19.73	24.56	-45.2	-60.0	3.6	1.51e+00	0	29	104	0	60	40480
2026-01-29 08:30:29.97	19.36	24.42	-45.3	-60.0	3.6	1.51e+00	0	29	104	0	60	40684
2026-01-29 08:30:30.98	18.99	24.29	-45.2	-60.0	3.6	1.51e+00	0	29	104	0	60	40512
2026-01-29 08:30:31.99	18.63	24.16	-45.3	-60.0	3.6	1.51e+00	0	29	104	0	60	40513
2026-01-29 08:30:33.00	18.27	24.02	-45.2	-60.0	3.6	1.51e+00	0	29	104	0	60	40432
2026-01-29 08:30:34.01	17.92	23.89	-45.3	-60.0	3.6	1.51e+00	0	29	104	0	60	40413
2026-01-29 08:30:35.02	17.57	23.75	-45.3	-60.0	3.6	1.51e+00	0	29	104	0	60	40526
2026-01-29 08:30:36.03	17.22	23.62	-45.3	-59.9	3.6	1.51e+00	0	29	104	0	60	40245
2026-01-29 08:30:37.04	16.87	23.48	-45.3	-60.0	3.6	1.51e+00	0	29	104	0	60	40637
2026-01-29 08:30:38.05	16.53	23.35	-45.3	-60.0	3.6	1.51e+00	0	29	104	0	60	40448
2026-01-29 08:30:39.05	16.20	23.21	-45.2	-59.9	3.6	1.51e+00	0	29	104	0	60	40322
2026-01-29 08:30:40.06	15.86	23.08	-45.2	-60.0	3.6	1.51e+00	0	29	104	0	60	40562
2026-01-29 08:30:41.07	15.53	22.94	-45.2	-60.0	3.6	1.51e+00	0	29	104	0	60	40370
2026-01-29 08:30:42.08	15.21	22.81	-45.2	-60.0	3.6	1.51e+00	0	29	104	0	60	40604
2026-01-29 08:30:43.09	14.88	22.67	-45.2	-60.0	3.6	1.51e+00	0	29	104	0	60	40445
2026-01-29 08:30:44.10	14.56	22.54	-45.2	-60.0	3.6	1.51e+00	0	29	104	0	60	40403
2026-01-29 08:30:45.11	14.24	22.40	-45.3	-59.9	3.6	1.51e+00	0	29	104	0	60	40263
2026-01-29 08:30:46.11	13.93	22.27	-45.1	-60.0	3.6	1.51e+00	0	29	104	0	60	40347
2026-01-29 08:30:47.12	13.62	22.13	-45.2	-59.9	3.6	1.51e+00	0	29	104	0	60	40205
2026-01-29 08:30:48.13	13.31	22.00	-45.3	-59.9	3.6	1.51e+00	0	29	104	0	60	40213
2026-01-29 08:30:49.14	13.00	21.86	-45.2	-59.9	3.6	1.51e+00	0	29	104	0	60	40241
2026-01-29 08:30:50.15	12.70	21.73	-45.3	-59.9	3.6	1.51e+00	0	29	104	0	60	40297
2026-01-29 08:30:51.16	12.40	21.59	-45.2	-59.9	3.6	1.51e+00	0	29	104	0	60	40267
2026-01-29 08:30:52.17	12.10	21.46	-45.2	-59.9	3.6	1.51e+00	0	29	104	0	60	40136
2026-01-29 08:30:53.18	11.81	21.33	-45.3	-59.9	3.6	1.51e+00	0	29	104	0	60	40250
2026-01-29 08:30:54.19	11.51	21.19	-45.0	-59.9	3.6	1.51e+00	0	29	104	0	60	40109
2026-01-29 08:30:55.20	11.23	21.06	-45.2	-60.0	3.6	1.51e+00	0	29	104	0	60	40426
2026-01-29 08:30:56.21	10.94	20.92	-45.2	-59.9	3.6	1.51e+00	0	29	104	0	60	40124
2026-01-29 08:30:57.22	10.66	20.79	-44.9	-60.0	3.6	1.51e+00	0	29	104	0	60	40359
2026-01-29 08:30:58.22	10.38	20.66	-45.2	-59.9	3.6	1.51e+00	0	29	104	0	60	40089
2026-01-29 08:30:59.23	10.10	20.52	-45.2	-59.9	3.6	1.51e+00	0	29	104	0	60	40240
2026-01-29 08:31:00.24	9.83	20.39	-45.1	-59.9	3.6	1.51e+00	0	28	104	0	60	40101
2026-01-29 08:31:01.25	9.56	20.26	-45.1	-60.0	3.6	1.51e+00	0	29	104	0	60	40333
2026-01-29 08:31:02.26	9.29	20.13	-45.2	-59.9	3.5	1.51e+00	0	29	104	0	60	40175
2026-01-29 08:31:03.27	9.02	19.99	-45.0	-59.9	3.6	1.51e+00	0	29	104	0	60	39982
2026-01-29 08:31:04.28	8.76	19.86	-45.1	-59.9	3.6	1.51e+00	0	29	104	0	60	40037
2026-01-29 08:31:05.29	8.50	19.73	-45.2	-59.9	3.6	1.51e+00	0	29	104	0	60	40284
2026-01-29 08:31:06.30	8.24	19.60	-45.0	-59.9	3.6	1.51e+00	0	29	104	0	60	40225
2026-01-29 08:31:07.31	7.98	19.47	-45.2	-59.9	3.6	1.51e+00	0	29	104	0	60	40109
2026-01-29 08:31:08.32	7.73	19.34	-45.1	-59.9	3.6	1.51e+00	0	29	104	0	60	40229
2026-01-29 08:31:09.33	7.48	19.21	-45.2	-59.9	3.6	1.51e+00	0	29	104	0	60	40024
2026-01-29 08:31:10.34	7.23	19.08	-45.1	-59.9	3.6	1.51e+00	0	29	104	0	60	40030
2026-01-29 08:31:11.35	6.98	18.95	-45.2	-59.9	3.6	1.51e+00	0	29	104	0	60	40087
2026-01-29 08:31:12.35	6.74	18.82	-45.1	-59.9	3.6	1.51e+00	0	29	104	0	60	39997
2026-01-29 08:31:13.36	6.50	18.69	-45.0	-59.8	3.6	1.51e+00	0	29	104	0	60	39857
2026-01-29 08:31:14.37	6.26	18.56	-45.0	-59.9	3.6	1.51e+00	0	29	104	0	60	39973
2026-01-29 08:31:15.38	6.03	18.44	-45.1	-59.9	3.6	1.51e+00	0	29	104	0	60	39907
2026-01-29 08:31:16.39	5.79	18.31	-45.0	-59.9	3.6	1.51e+00	0	29	104	0	60	40022
2026-01-29 08:31:17.40	5.56	18.18	-45.1	-59.9	3.6	1.51e+00	0	29	104	0	60	39932
2026-01-29 08:31:18.41	5.33	18.05	-45.1	-59.8	3.6	1.51e+00	0	29	104	0	60	39817
2026-01-29 08:31:19.42	5.10	17.93	-45.1	-59.9	3.6	1.51e+00	0	29	104	0	60	40032
2026-01-29 08:31:20.43	4.88	17.80	-45.1	-59.9	3.6	1.51e+00	0	29	104	0	60	39900
2026-01-29 08:31:21.44	4.66	17.68	-45.2	-59.9	3.6	1.51e+00	0	29	104	0	60	40208
2026-01-29 08:31:22.44	4.44	17.55	-45.1	-59.9	3.6	1.51e+00	0	29	104	0	60	40133
2026-01-29 08:31:23.45	4.22	17.43	-45.2	-59.9	3.6	1.51e+00	0	29	104	0	60	40200
2026-01-29 08:31:24.46	4.00	17.30	-45.2	-59.9	3.5	1.51e+00	0	29	104	0	60	40161
2026-01-29 08:31:25.47	3.79	17.18	-45.3	-60.0	3.6	1.51e+00	0	29	104	0	60	40416
2026-01-29 08:31:26.48	3.57	17.06	-45.2	-60.0	3.6	1.51e+00	0	29	104	0	60	40348
2026-01-29 08:31:27.49	3.36	16.93	-45.2	-60.0	3.6	1.51e+00	0	29	104	0	60	40514
2026-01-29 08:31:28.50	3.16	16.81	-45.2	-59.9	3.6	1.51e+00	0	29	104	0	60	40154
2026-01-29 08:31:29.51	2.95	16.69	-45.2	-59.9	3.6	1.51e+00	0	29	104	0	60	40236
2026-01-29 08:31:30.52	2.74	16.57	-45.2	-59.9	3.5	1.51e+00	0	29	104	0	60	39948
2026-01-29 08:31:31.53	2.54	16.45	-45.1	-59.9	3.6	1.51e+00	0	29	104	0	60	39885
2026-01-29 08:31:32.54	2.34	16.33	-45.0	-59.9	3.6	1.51e+00	0	29	104	0	60	40028
2026-01-29 08:31:33.55	2.14	16.21	-45.1	-59.9	3.6	1.51e+00	0	29	104	0	60	40067
2026-01-29 08:31:34.56	1.95	16.09	-45.0	-59.8	3.6	1.51e+00	0	29	104	0	60	39807
2026-01-29 08:31:35.57	1.75	15.97	-45.0	-59.8	3.6	1.51e+00	0	29	104	0	60	39737
2026-01-29 08:31:36.57	1.56	15.85	-44.7	-59.8	3.6	1.51e+00	0	29	104	0	60	39793
2026-01-29 08:31:37.58	1.37	15.73	-44.7	-59.8	3.6	1.51e+00	0	29	104	0	60	39678
2026-01-29 08:31:38.59	1.18	15.61	-44.8	-59.8	3.6	1.51e+00	0	29	104	0	60	39722
2026-01-29 08:31:39.60	0.99	15.50	-45.0	-59.8	3.6	1.51e+00	0	29	104	0	60	39534
2026-01-29 08:31:40.61	0.81	15.38	-45.1	-59.9	3.6	1.51e+00	0	29	104	0	60	39975
2026-01-29 08:31:41.62	0.62	15.26	-45.1	-59.8	3.6	1.51e+00	0	29	104	0	60	39582
2026-01-29 08:31:42.63	0.44	15.15	-45.0	-59.8	3.6	1.51e+00	0	29	104	0	60	39650
2026-01-29 08:31:43.64	0.26	15.03	-45.1	-59.8	3.6	1.51e+00	0	29	104	0	60	39550
2026-01-29 08:31:44.65	0.08	14.92	-45.1	-59.8	3.6	1.51e+00	0	29	104	0	60	39476
2026-01-29 08:31:45.66	359.90	14.80	-45.1	-59.8	3.6	1.51e+00	0	29	104	0	60	39477
2026-01-29 08:31:46.67	359.73	14.69	-45.1	-59.7	3.6	1.51e+00	0	29	104	0	60	39403
2026-01-29 08:31:47.68	359.55	14.57	-45.1	-59.8	3.6	1.51e+00	0	29	104	0	60	39518
2026-01-29 08:31:48.69	359.38	14.46	-45.0	-59.8	3.6	1.51e+00	0	29	104	0	60	39480
2026-01-29 08:31:49.69	359.21	14.35	-45.1	-59.7	3.6	1.51e+00	0	29	104	0	60	39285
2026-01-29 08:31:50.71	359.04	14.23	-45.0	-59.7	3.6	1.51e+00	0	29	104	0	60	39295
2026-01-29 08:31:51.72	358.87	14.12	-44.9	-59.8	3.6	1.51e+00	0	29	104	0	60	39415
2026-01-29 08:31:52.73	358.71	14.01	-45.0	-59.8	3.6	1.51e+00	0	29	104	0	60	39558
2026-01-29 08:31:53.73	358.54	13.90	-45.0	-59.7	3.6	1.51e+00	0	29	104	0	60	39102
2026-01-29 08:31:54.74	358.38	13.79	-44.9	-59.7	3.6	1.51e+00	0	29	104	0	60	39234
2026-01-29 08:31:55.75	358.22	13.68	-45.0	-59.7	3.6	1.51e+00	0	29	104	0	60	39214
2026-01-29 08:31:56.76	358.06	13.57	-45.0	-59.7	3.6	1.51e+00	0	29	104	0	60	39214
2026-01-29 08:31:57.77	357.90	13.46	-44.9	-59.7	3.6	1.51e+00	0	29	104	0	60	39070
2026-01-29 08:31:58.78	357.74	13.35	-44.9	-59.7	3.6	1.51e+00	0	29	104	0	60	39131
2026-01-29 08:31:59.79	357.58	13.24	-45.0	-59.7	3.6	1.51e+00	0	29	104	0	60	39203
2026-01-29 08:32:00.80	357.43	13.14	-45.0	-59.7	3.6	1.51e+00	0	29	104	0	60	39176
2026-01-29 08:32:01.81	357.28	13.03	-45.0	-59.7	3.6	1.51e+00	0	29	104	0	60	39013
2026-01-29 08:32:02.82	357.12	12.92	-44.9	-59.7	3.6	1.51e+00	0	29	104	0	60	39155
2026-01-29 08:32:03.83	356.97	12.82	-44.9	-59.6	3.6	1.51e+00	0	29	104	0	60	38874
2026-01-29 08:32:04.84	356.82	12.71	-45.0	-59.6	3.6	1.51e+00	0	29	104	0	60	38849
2026-01-29 08:32:05.85	356.68	12.60	-44.9	-59.7	3.6	1.51e+00	0	29	104	0	60	39079
2026-01-29 08:32:06.86	356.53	12.50	-44.9	-59.7	3.6	1.51e+00	0	29	104	0	60	39075
2026-01-29 08:32:07.87	356.38	12.39	-44.9	-59.6	3.6	1.51e+00	0	29	104	0	60	38936
2026-01-29 08:32:08.88	356.24	12.29	-45.0	-59.7	3.6	1.51e+00	0	29	104	0	60	38964
2026-01-29 08:32:09.89	356.10	12.19	-44.9	-59.6	3.6	1.51e+00	0	29	104	0	60	38734
2026-01-29 08:32:10.90	355.96	12.08	-44.9	-59.7	3.6	1.51e+00	0	29	104	0	60	38957
2026-01-29 08:32:11.91	355.81	11.98	-44.9	-59.7	3.6	1.51e+00	0	29	104	0	60	38993
2026-01-29 08:32:12.91	355.68	11.88	-44.8	-59.6	3.5	1.51e+00	0	29	104	0	60	38760
2026-01-29 08:32:13.92	355.54	11.78	-44.9	-59.6	3.6	1.51e+00	0	29	104	0	60	38738
2026-01-29 08:32:14.93	355.40	11.67	-44.9	-59.7	3.6	1.51e+00	0	29	104	0	60	39045
2026-01-29 08:32:15.94	355.27	11.57	-44.9	-59.7	3.6	1.51e+00	0	29	104	0	60	38970
2026-01-29 08:32:16.95	355.13	11.47	-44.9	-59.6	3.6	1.51e+00	0	29	104	0	60	38923
2026-01-29 08:32:17.96	355.00	11.37	-44.7	-59.6	3.6	1.51e+00	0	29	104	0	60	38604
2026-01-29 08:32:18.97	354.87	11.27	-44.9	-59.6	3.6	1.51e+00	0	29	104	0	60	38672
2026-01-29 08:32:19.98	354.74	11.17	-44.9	-59.7	3.6	1.51e+00	0	29	104	0	60	38986
2026-01-29 08:32:20.99	354.61	11.07	-44.9	-59.6	3.6	1.51e+00	0	29	104	0	60	38921
2026-01-29 08:32:22.00	354.48	10.97	-44.9	-59.5	3.6	1.51e+00	0	29	104	0	60	38451
2026-01-29 08:32:23.01	354.35	10.88	-44.9	-59.6	3.6	1.51e+00	0	29	104	0	60	38950
2026-01-29 08:32:24.02	354.22	10.78	-44.9	-59.6	3.6	1.51e+00	0	29	104	0	60	38835
2026-01-29 08:32:25.03	354.10	10.68	-45.0	-59.7	3.6	1.51e+00	0	29	104	0	60	39224
2026-01-29 08:32:26.04	353.97	10.58	-44.9	-59.6	3.6	1.51e+00	0	29	104	0	60	38746
2026-01-29 08:32:27.04	353.85	10.49	-45.0	-59.8	3.6	1.51e+00	0	29	104	0	60	39488
2026-01-29 08:32:28.05	353.73	10.39	-45.1	-59.8	3.6	1.51e+00	0	29	104	0	60	39682
2026-01-29 08:32:29.06	353.60	10.29	-45.1	-59.8	3.6	1.51e+00	0	29	104	0	60	39527
2026-01-29 08:32:30.07	353.48	10.20	-45.0	-59.7	3.6	1.51e+00	0	29	104	0	60	39011
2026-01-29 08:32:31.08	353.36	10.10	-44.9	-59.7	3.6	1.51e+00	0	29	104	0	60	39146
2026-01-29 08:32:32.09	353.25	10.01	-45.0	-59.7	3.6	1.51e+00	0	29	104	0	60	38983
2026-01-29 08:32:33.10	353.13	9.91	-45.0	-59.7	3.6	1.51e+00	0	29	104	0	60	39259
2026-01-29 08:32:34.11	353.01	9.82	-44.9	-59.6	3.6	1.51e+00	0	29	104	0	60	38701
2026-01-29 08:32:35.12	352.90	9.73	-45.0	-59.6	3.6	1.51e+00	0	29	104	0	60	38922
2026-01-29 08:32:36.13	352.78	9.63	-45.0	-59.7	3.6	1.51e+00	0	29	104	0	60	39080
2026-01-29 08:32:37.14	352.67	9.54	-45.0	-59.7	3.6	1.51e+00	0	29	104	0	60	39174
2026-01-29 08:32:38.15	352.55	9.45	-44.9	-59.6	3.6	1.51e+00	0	29	104	0	60	38841
2026-01-29 08:32:39.16	352.44	9.35	-44.9	-59.7	3.6	1.51e+00	0	29	104	0	60	38988
2026-01-29 08:32:40.17	352.33	9.26	-45.0	-59.7	3.6	1.51e+00	0	29	104	0	60	39213
2026-01-29 08:32:41.18	352.22	9.17	-45.0	-59.7	3.6	1.51e+00	0	29	104	0	60	39285
2026-01-29 08:32:42.19	352.11	9.08	-44.9	-59.6	3.6	1.51e+00	0	29	104	0	60	38904
2026-01-29 08:32:43.19	352.00	8.99	-44.9	-59.6	3.6	1.51e+00	0	29	104	0	60	38782
2026-01-29 08:32:44.20	351.90	8.90	-45.0	-59.8	3.6	1.51e+00	0	29	104	0	60	39651
2026-01-29 08:32:45.21	351.79	8.81	-44.9	-59.7	3.6	1.51e+00	0	29	104	0	60	38993
2026-01-29 08:32:46.22	351.68	8.72	-44.9	-59.6	3.6	1.51e+00	0	29	104	0	60	38628
2026-01-29 08:32:47.23	351.58	8.63	-44.9	-59.6	3.6	1.51e+00	0	29	104	0	60	38887
2026-01-29 08:32:48.24	351.47	8.54	-45.0	-59.7	3.6	1.51e+00	0	29	104	0	60	39357
2026-01-29 08:32:49.25	351.37	8.45	-44.9	-59.6	3.6	1.51e+00	0	29	104	0	60	38940
2026-01-29 08:32:50.26	351.27	8.36	-44.8	-59.6	3.6	1.51e+00	0	29	104	0	60	38703
2026-01-29 08:32:51.27	351.17	8.27	-44.9	-59.7	3.6	1.51e+00	0	29	104	0	60	39033
2026-01-29 08:32:52.28	351.07	8.19	-45.1	-59.8	3.6	1.51e+00	0	29	104	0	60	39618
2026-01-29 08:32:53.29	350.96	8.10	-44.9	-59.7	3.6	1.51e+00	0	29	104	0	60	39089
2026-01-29 08:32:54.30	350.87	8.01	-44.9	-59.5	3.6	1.51e+00	0	29	104	0	60	38464
2026-01-29 08:32:55.31	350.77	7.93	-45.0	-59.7	3.6	1.51e+00	0	29	104	0	60	39147
2026-01-29 08:32:56.32	350.67	7.84	-45.1	-59.8	3.6	1.51e+00	0	29	104	0	60	39650
2026-01-29 08:32:57.33	350.57	7.75	-44.9	-59.7	3.6	1.51e+00	0	29	104	0	60	39035
2026-01-29 08:32:58.33	350.48	7.67	-44.8	-59.6	3.6	1.51e+00	0	29	104	0	60	38701
2026-01-29 08:32:59.34	350.38	7.58	-44.9	-59.7	3.6	1.51e+00	0	29	104	0	60	39050
2026-01-29 08:33:00.35	350.28	7.50	-45.1	-59.8	3.6	1.51e+00	0	29	104	0	60	39723
2026-01-29 08:33:01.36	350.19	7.41	-45.0	-59.7	3.6	1.51e+00	0	29	104	0	60	38980
2026-01-29 08:33:02.37	350.10	7.33	-44.7	-59.6	3.6	1.51e+00	0	29	104	0	60	38526
2026-01-29 08:33:03.38	350.00	7.24	-44.9	-59.7	3.6	1.51e+00	0	29	104	0	60	39089
2026-01-29 08:33:04.39	349.91	7.16	-45.1	-59.8	3.6	1.51e+00	0	29	104	0	60	39476
2026-01-29 08:33:05.40	349.82	7.08	-44.9	-59.6	3.6	1.51e+00	0	29	104	0	60	38780
2026-01-29 08:33:06.41	349.73	6.99	-44.7	-59.5	3.6	1.51e+00	0	29	104	0	60	38328
2026-01-29 08:33:07.42	349.64	6.91	-44.9	-59.6	3.6	1.51e+00	0	29	104	0	60	38854
2026-01-29 08:33:08.43	349.55	6.83	-45.0	-59.8	3.6	1.51e+00	0	29	104	0	60	39561
2026-01-29 08:33:09.44	349.46	6.74	-44.9	-59.6	3.6	1.51e+00	0	29	104	0	60	38782
2026-01-29 08:33:10.45	349.37	6.66	-44.8	-59.5	3.6	1.51e+00	0	29	104	0	60	38467
2026-01-29 08:33:11.46	349.28	6.58	-44.9	-59.7	3.6	1.51e+00	0	29	104	0	60	39023
2026-01-29 08:33:12.47	349.20	6.50	-45.1	-59.7	3.6	1.51e+00	0	29	104	0	60	39300
2026-01-29 08:33:13.48	349.11	6.42	-44.9	-59.6	3.6	1.51e+00	0	29	104	0	60	38769
2026-01-29 08:33:14.49	349.03	6.34	-44.8	-59.5	3.6	1.51e+00	0	29	104	0	60	38137
2026-01-29 08:33:15.50	348.94	6.26	-44.9	-59.7	3.6	1.51e+00	0	29	104	0	60	39002
2026-01-29 08:33:16.51	348.86	6.18	-45.1	-59.7	3.6	1.51e+00	0	29	104	0	60	39312
2026-01-29 08:33:17.52	348.77	6.10	-44.8	-59.6	3.6	1.51e+00	0	29	104	0	60	38579
2026-01-29 08:33:18.52	348.69	6.02	-44.7	-59.5	3.6	1.51e+00	0	29	104	0	60	38077
2026-01-29 08:33:19.53	348.61	5.94	-44.9	-59.6	3.6	1.51e+00	0	29	104	0	60	38851
2026-01-29 08:33:20.54	348.53	5.86	-45.2	-59.9	3.6	1.51e+00	0	29	104	0	60	39997
2026-01-29 08:33:21.55	348.44	5.78	-44.7	-59.4	3.6	1.51e+00	0	29	104	0	60	38023
2026-01-29 08:33:22.56	348.36	5.70	-44.5	-59.2	3.6	1.51e+00	0	29	104	0	60	36902
2026-01-29 08:33:23.57	348.28	5.62	-43.8	-58.5	3.6	1.51e+00	0	29	104	0	60	34132
2026-01-29 08:33:24.58	348.20	5.54	-44.0	-58.7	3.6	1.51e+00	0	29	104	0	60	34936
2026-01-29 08:33:25.59	348.12	5.47	-44.7	-59.6	3.6	1.51e+00	0	29	104	0	60	38649
2026-01-29 08:33:26.61	348.04	5.39	-44.9	-59.6	3.6	1.51e+00	0	29	104	0	60	38795
2026-01-29 08:33:27.62	347.97	5.31	-44.6	-59.3	3.6	1.51e+00	0	29	104	0	60	37243
2026-01-29 08:33:28.63	347.89	5.23	-44.0	-58.7	3.6	1.51e+00	0	29	104	0	60	35063
2026-01-29 08:33:29.64	347.81	5.16	-44.7	-59.4	3.6	1.51e+00	0	29	104	0	60	37876
2026-01-29 08:33:30.65	347.74	5.08	-44.7	-59.4	3.6	1.51e+00	0	29	104	0	60	38055
2026-01-29 08:33:31.66	347.66	5.00	-43.4	-58.1	3.6	1.51e+00	0	29	104	0	60	32628
2026-01-29 08:33:32.67	347.58	4.93	-42.7	-57.4	3.6	1.51e+00	0	29	104	0	60	30081
2026-01-29 08:33:33.67	347.51	4.85	-42.4	-57.1	3.6	1.51e+00	0	29	104	0	60	29001
2026-01-29 08:33:34.68	347.44	4.78	-42.0	-56.8	3.6	1.51e+00	0	29	104	0	60	27999
2026-01-29 08:33:35.69	347.36	4.70	-41.5	-56.3	3.6	1.51e+00	0	29	104	0	58	29801
2026-01-29 08:33:36.70	347.29	4.63	-42.2	-57.0	3.6	1.51e+00	0	29	104	0	58	32153
2026-01-29 08:33:37.71	347.22	4.55	-43.6	-58.3	3.6	1.51e+00	0	29	104	0	60	33185
2026-01-29 08:33:38.72	347.14	4.48	-42.1	-56.8	3.6	1.51e+00	0	29	104	0	60	27978
2026-01-29 08:33:39.73	347.07	4.40	-42.8	-57.5	3.6	1.51e+00	0	29	104	0	58	34262
2026-01-29 08:33:40.74	347.00	4.33	-41.8	-56.6	3.6	1.51e+00	0	29	104	0	60	27331
2026-01-29 08:33:41.75	346.93	4.25	-41.0	-55.8	3.6	1.51e+00	0	29	104	0	58	27931
2026-01-29 08:33:42.76	346.86	4.18	-40.7	-55.4	3.6	1.51e+00	0	29	104	0	56	30223
2026-01-29 08:33:43.77	346.79	4.11	-40.5	-55.3	3.6	1.51e+00	0	29	104	0	56	29582
2026-01-29 08:33:44.78	346.72	4.03	-41.0	-55.7	3.6	1.51e+00	0	29	104	0	56	31238
2026-01-29 08:33:45.79	346.65	3.96	-42.3	-57.0	3.6	1.51e+00	0	29	104	0	58	32138
2026-01-29 08:33:46.80	346.58	3.89	-42.0	-56.7	3.6	1.51e+00	0	29	104	0	58	30956
2026-01-29 08:33:47.81	346.51	3.81	-40.8	-55.6	3.6	1.51e+00	0	29	104	0	58	27321
2026-01-29 08:33:48.82	346.45	3.74	-40.6	-55.4	3.6	1.51e+00	0	29	104	0	56	29927
2026-01-29 08:33:49.83	346.38	3.67	-40.5	-55.2	3.6	1.51e+00	0	29	104	0	56	29501
2026-01-29 08:33:50.84	346.31	3.60	-40.5	-55.2	3.6	1.51e+00	0	29	104	0	56	29358
2026-01-29 08:33:51.84	346.25	3.53	-40.4	-55.2	3.6	1.51e+00	0	29	104	0	56	29339
2026-01-29 08:33:52.85	346.18	3.46	-40.7	-55.4	3.6	1.51e+00	0	29	104	0	56	29995
2026-01-29 08:33:53.87	346.11	3.38	-41.3	-56.0	3.6	1.51e+00	0	29	104	0	56	32150
2026-01-29 08:33:54.88	346.05	3.31	-40.8	-55.5	3.6	1.51e+00	0	29	104	0	56	30577
2026-01-29 08:33:55.88	345.99	3.24	-41.1	-55.8	3.6	1.51e+00	0	29	104	0	56	31479
2026-01-29 08:33:56.89	345.92	3.17	-40.8	-55.4	3.6	1.51e+00	0	29	104	0	56	30230
2026-01-29 08:33:57.90	345.86	3.10	-40.6	-55.3	3.6	1.51e+00	0	29	104	0	56	29636
2026-01-29 08:33:58.91	345.79	3.03	-40.5	-55.2	3.6	1.51e+00	0	29	104	0	56	29511
2026-01-29 08:33:59.92	345.73	2.96	-40.8	-55.5	3.6	1.51e+00	0	29	104	0	56	30384
2026-01-29 08:34:00.93	345.67	2.89	-42.3	-57.0	3.6	1.51e+00	0	29	104	0	58	32256
2026-01-29 08:34:01.94	345.61	2.82	-44.8	-59.7	3.6	1.51e+00	0	29	104	0	60	39154
2026-01-29 08:34:02.95	345.55	2.75	-45.1	-60.0	3.6	1.51e+00	0	29	104	0	60	40561
2026-01-29 08:34:03.95	345.49	2.68	-45.3	-60.1	3.6	1.51e+00	0	29	104	0	60	41048
2026-01-29 08:34:04.97	345.42	2.61	-45.5	-60.3	3.6	1.51e+00	0	29	104	0	60	41783
2026-01-29 08:34:05.97	345.36	2.55	-45.4	-60.3	3.6	1.51e+00	0	29	104	0	60	42043
2026-01-29 08:34:06.98	345.30	2.48	-45.7	-60.4	3.6	1.51e+00	0	29	104	0	60	42541
2026-01-29 08:34:07.99	345.24	2.41	-45.7	-60.4	3.6	1.51e+00	0	29	104	0	60	42683
2026-01-29 08:34:09.00	345.18	2.34	-45.6	-60.5	3.6	1.51e+00	0	29	104	0	60	43021
2026-01-29 08:34:10.02	345.12	2.27	-45.8	-60.5	3.6	1.51e+00	0	29	104	0	60	43182
2026-01-29 08:34:11.03	345.07	2.20	-46.1	-60.8	3.6	1.51e+00	0	29	104	0	60	44224
2026-01-29 08:34:12.04	345.01	2.14	-45.6	-60.6	3.6	1.51e+00	0	29	104	0	60	43417
2026-01-29 08:34:13.05	344.95	2.07	-45.7	-60.6	3.6	1.51e+00	0	29	104	0	60	43341
2026-01-29 08:34:14.06	344.89	2.00	-45.7	-60.4	3.6	1.51e+00	0	29	104	0	60	42601
2026-01-29 08:34:15.07	344.84	1.94	-45.8	-60.6	3.6	1.51e+00	0	29	104	0	60	43305
2026-01-29 08:34:16.08	344.78	1.87	-45.5	-60.4	3.6	1.51e+00	0	29	104	0	60	42414
2026-01-29 08:34:17.09	344.72	1.80	-45.5	-60.3	3.6	1.51e+00	0	29	104	0	60	42041
2026-01-29 08:34:18.09	344.67	1.74	-45.3	-60.2	3.6	1.51e+00	0	29	104	0	60	41282
2026-01-29 08:34:19.11	344.61	1.67	-45.3	-60.1	3.6	1.51e+00	0	29	104	0	60	41086
2026-01-29 08:34:20.11	344.56	1.60	-45.4	-60.1	3.6	1.51e+00	0	29	104	0	60	41019
2026-01-29 08:34:21.12	344.50	1.54	-45.5	-60.2	3.6	1.51e+00	0	29	104	0	60	41714
2026-01-29 08:34:22.13	344.45	1.47	-45.5	-60.2	3.6	1.51e+00	0	29	104	0	60	41727
2026-01-29 08:34:23.14	344.39	1.41	-45.5	-60.2	3.6	1.51e+00	0	29	104	0	60	41476
2026-01-29 08:34:24.15	344.34	1.34	-45.5	-60.2	3.6	1.51e+00	0	29	104	0	60	41463
2026-01-29 08:34:25.16	344.28	1.28	-45.5	-60.2	3.6	1.51e+00	0	29	104	0	60	41400
2026-01-29 08:34:26.17	344.23	1.21	-45.5	-60.2	3.6	1.51e+00	0	29	104	0	60	41451
2026-01-29 08:34:27.18	344.18	1.15	-45.5	-60.2	3.6	1.51e+00	0	29	104	0	60	41330
2026-01-29 08:34:28.19	344.12	1.08	-45.4	-60.2	3.6	1.51e+00	0	29	104	0	60	41288
2026-01-29 08:34:29.20	344.07	1.02	-45.4	-60.2	3.6	1.51e+00	0	29	104	0	60	41284
2026-01-29 08:34:30.21	344.02	0.95	-45.4	-60.1	3.6	1.51e+00	0	29	104	0	60	40981
2026-01-29 08:34:31.22	343.97	0.89	-45.4	-60.1	3.6	1.51e+00	0	29	104	0	60	40953
2026-01-29 08:34:32.23	343.92	0.82	-45.4	-60.1	3.6	1.51e+00	0	29	104	0	60	41240
2026-01-29 08:34:33.24	343.86	0.76	-45.4	-60.1	3.6	1.51e+00	0	29	104	0	60	41132
2026-01-29 08:34:34.25	343.81	0.70	-45.4	-60.1	3.6	1.51e+00	0	29	104	0	60	41068
2026-01-29 08:34:35.26	343.76	0.63	-45.5	-60.2	3.6	1.51e+00	0	29	104	0	60	41433
2026-01-29 08:34:36.27	343.71	0.57	-45.5	-60.2	3.6	1.51e+00	0	29	104	0	60	41572
2026-01-29 08:34:37.28	343.66	0.50	-45.4	-60.1	3.6	1.51e+00	0	29	104	0	60	41142
2026-01-29 08:34:38.29	343.61	0.44	-45.4	-60.1	3.6	1.51e+00	0	29	104	0	60	41144
2026-01-29 08:34:39.30	343.56	0.38	-45.5	-60.3	3.6	1.51e+00	0	29	104	0	60	41883
2026-01-29 08:34:40.31	343.51	0.32	-45.5	-60.2	3.6	1.51e+00	0	29	104	0	60	41625
2026-01-29 08:34:41.32	343.47	0.25	-45.4	-60.1	3.6	1.51e+00	0	29	104	0	60	41055
2026-01-29 08:34:42.33	343.42	0.19	-45.6	-60.3	3.6	1.51e+00	0	29	104	0	60	42032
2026-01-29 08:34:43.34	343.37	0.13	-45.5	-60.2	3.6	1.51e+00	0	29	104	0	60	41723
2026-01-29 08:34:44.35	343.32	0.07	-45.5	-60.2	3.6	1.51e+00	0	29	104	0	60	41485
2026-01-29 08:34:45.36	343.27	0.00	-45.4	-60.1	3.6	1.51e+00	0	29	104	0	60	41263
2026-01-29 08:34:46.37	343.23	-0.06	-45.5	-60.2	3.6	1.51e+00	0	29	104	0	60	41686

#Closed at: 2026-01-29 08:34:46
#Recorded file [0 MB]: D:/lorett/data/35029_260129_202345.dat