passes_logs/2026/01/29/R4.6S_Anadyr/R4.6S_Anadyr__20260129_122210_NOAA_20_JPSS-1_rec.log

#Pass ID: 20260129_122210_NOAA 20 (JPSS-1)
#Satellite: NOAA 20 (JPSS-1)
#Configuration: NOAA 20
#almurnet v.1.7.20251203
#Start time: 2026-01-29 12:22:12

#Version: 2.2.20231116
#Station: R4.6S_Anadyr
#Location: 177.4865 lon 64.73178 lat
#TLE: 1 43013U 17073A   26028.86313978  .00000144  00000+0  89200-4 0  9993
#TLE: 2 43013  98.7648 329.6571 0000891  20.0014 340.1197 14.19541559424709

#Time	Az	El	Level	Level2	SNR	BER	BlckErr	Temp	State	Recorded	gain1	gain2
2026-01-29 12:22:12.98	19.17	0.10	-48.8	-63.7	3.5	1.51e+00	0	28	0	0	60	55541
2026-01-29 12:22:13.99	19.24	0.15	-49.0	-64.1	3.6	1.51e+00	0	30	104	0	60	58107
2026-01-29 12:22:15.00	19.32	0.20	-48.9	-64.1	3.6	1.51e+00	0	30	104	0	60	57899
2026-01-29 12:22:16.01	19.39	0.25	-48.9	-64.1	3.6	1.51e+00	0	30	104	0	60	57947
2026-01-29 12:22:17.02	19.47	0.30	-48.9	-64.1	3.6	1.51e+00	0	30	104	0	60	58188
2026-01-29 12:22:18.03	19.55	0.35	-48.9	-64.1	3.6	1.51e+00	0	30	104	0	60	57843
2026-01-29 12:22:19.03	19.62	0.40	-48.9	-64.1	3.6	1.51e+00	0	30	104	0	60	57893
2026-01-29 12:22:20.04	19.70	0.45	-48.9	-64.1	3.6	1.51e+00	0	30	104	0	60	57868
2026-01-29 12:22:21.05	19.77	0.50	-48.9	-64.1	3.6	1.51e+00	0	30	104	0	60	58235
2026-01-29 12:22:22.06	19.85	0.55	-48.9	-64.1	3.6	1.51e+00	0	30	104	0	60	57886
2026-01-29 12:22:23.07	19.93	0.60	-48.9	-64.1	3.6	1.51e+00	0	30	104	0	60	57844
2026-01-29 12:22:24.08	20.01	0.65	-48.9	-64.1	3.6	1.51e+00	0	30	104	0	60	57985
2026-01-29 12:22:25.09	20.08	0.70	-48.9	-64.2	3.6	1.51e+00	0	30	104	0	60	58373
2026-01-29 12:22:26.10	20.16	0.75	-48.8	-64.0	3.6	1.51e+00	0	30	104	0	60	57558
2026-01-29 12:22:27.11	20.24	0.80	-48.8	-64.0	3.6	1.51e+00	0	30	104	0	60	57586
2026-01-29 12:22:28.12	20.32	0.85	-48.8	-64.0	3.6	1.51e+00	0	30	104	0	60	57277
2026-01-29 12:22:29.13	20.40	0.90	-48.7	-63.9	3.6	1.51e+00	0	30	104	0	60	56847
2026-01-29 12:22:30.14	20.47	0.95	-48.6	-63.8	3.6	1.51e+00	0	30	104	0	60	56264
2026-01-29 12:22:31.15	20.55	1.00	-48.6	-63.8	3.6	1.51e+00	0	30	104	0	60	56163
2026-01-29 12:22:32.15	20.63	1.05	-48.5	-63.7	3.6	1.51e+00	0	30	104	0	60	55418
2026-01-29 12:22:33.17	20.71	1.10	-48.3	-63.6	3.6	1.51e+00	0	30	104	0	60	54523
2026-01-29 12:22:34.18	20.79	1.15	-48.3	-63.5	3.6	1.51e+00	0	30	104	0	60	53842
2026-01-29 12:22:35.19	20.87	1.20	-48.2	-63.4	3.6	1.51e+00	0	30	104	0	60	53516
2026-01-29 12:22:36.19	20.95	1.25	-48.0	-63.2	3.6	1.51e+00	0	30	104	0	60	52316
2026-01-29 12:22:37.21	21.03	1.30	-47.7	-62.9	3.6	1.51e+00	0	30	104	0	60	50366
2026-01-29 12:22:38.21	21.11	1.35	-47.4	-62.6	3.5	1.51e+00	0	30	104	0	60	48670
2026-01-29 12:22:39.23	21.19	1.40	-47.3	-62.5	3.6	1.51e+00	0	30	104	0	60	48302
2026-01-29 12:22:40.24	21.27	1.45	-47.3	-62.5	3.6	1.51e+00	0	30	104	0	60	48099
2026-01-29 12:22:41.25	21.36	1.50	-47.3	-62.5	3.6	1.51e+00	0	30	104	0	60	48024
2026-01-29 12:22:42.25	21.44	1.55	-47.3	-62.5	3.6	1.51e+00	0	30	104	0	60	48218
2026-01-29 12:22:43.26	21.52	1.60	-47.3	-62.5	3.6	1.51e+00	0	30	104	0	60	48167
2026-01-29 12:22:44.27	21.60	1.65	-47.3	-62.5	3.6	1.51e+00	0	30	104	0	60	48056
2026-01-29 12:22:45.28	21.68	1.70	-47.3	-62.5	3.6	1.51e+00	0	30	104	0	60	48094
2026-01-29 12:22:46.29	21.77	1.75	-47.3	-62.4	3.6	1.51e+00	0	30	104	0	60	47842
2026-01-29 12:22:47.30	21.85	1.80	-47.3	-62.4	3.6	1.51e+00	0	30	104	0	60	47879
2026-01-29 12:22:48.31	21.93	1.85	-47.3	-62.4	3.6	1.51e+00	0	30	104	0	60	47487
2026-01-29 12:22:49.32	22.02	1.90	-47.3	-62.4	3.6	1.51e+00	0	30	104	0	60	47681
2026-01-29 12:22:50.33	22.10	1.95	-47.3	-62.3	3.6	1.51e+00	0	30	104	0	60	47359
2026-01-29 12:22:51.34	22.18	2.00	-47.3	-62.4	3.6	1.51e+00	0	30	104	0	60	47724
2026-01-29 12:22:52.35	22.27	2.05	-47.3	-62.4	3.6	1.51e+00	0	30	104	0	60	47645
2026-01-29 12:22:53.36	22.35	2.11	-47.3	-62.4	3.6	1.51e+00	0	30	104	0	60	47812
2026-01-29 12:22:54.37	22.44	2.16	-47.3	-62.4	3.6	1.51e+00	0	30	104	0	60	47887
2026-01-29 12:22:55.38	22.52	2.21	-47.3	-62.4	3.6	1.51e+00	0	30	104	0	60	47816
2026-01-29 12:22:56.39	22.61	2.26	-47.3	-62.4	3.6	1.51e+00	0	30	104	0	60	47625
2026-01-29 12:22:57.40	22.70	2.31	-47.3	-62.1	3.6	1.51e+00	0	30	104	0	60	46060
2026-01-29 12:22:58.41	22.78	2.36	-47.3	-61.6	3.6	1.51e+00	0	30	104	0	60	43539
2026-01-29 12:22:59.42	22.87	2.41	-47.3	-61.7	3.6	1.51e+00	0	30	104	0	60	43775
2026-01-29 12:23:00.43	22.95	2.46	-47.3	-61.9	3.6	1.51e+00	0	30	104	0	60	45158
2026-01-29 12:23:01.44	23.04	2.51	-47.2	-61.2	3.6	1.51e+00	0	30	104	0	60	41704
2026-01-29 12:23:02.45	23.13	2.57	-47.0	-57.3	5.0	1.24e+00	92	30	104	0	60	26634
2026-01-29 12:23:03.46	23.22	2.62	-46.0	-51.5	9.3	1.67e-01	20	30	0	1048576	60	13537
2026-01-29 12:23:04.47	23.30	2.67	-45.3	-49.5	12.4	1.73e-03	5	30	0	3145728	60	10788
2026-01-29 12:23:05.48	23.39	2.72	-43.8	-46.7	14.9	3.80e-06	0	30	0	5242880	60	7830
2026-01-29 12:23:06.49	23.48	2.77	-42.2	-44.2	17.2	0.00e+00	0	30	0	6291456	58	6588
2026-01-29 12:23:07.50	23.57	2.82	-42.0	-43.9	17.6	0.00e+00	92	30	0	8388608	58	6375
2026-01-29 12:23:08.51	23.66	2.87	-42.0	-43.9	17.7	0.00e+00	0	30	0	10485760	56	7123
2026-01-29 12:23:09.52	23.75	2.93	-42.4	-44.5	16.9	0.00e+00	92	30	0	12582912	56	7669
2026-01-29 12:23:10.53	23.84	2.98	-42.9	-45.2	16.1	0.00e+00	0	31	0	14680064	58	7398
2026-01-29 12:23:11.54	23.93	3.03	-42.8	-45.0	17.1	0.00e+00	6	30	0	15728640	58	7176
2026-01-29 12:23:12.55	24.02	3.08	-44.1	-47.2	12.6	0.00e+00	0	31	0	17825792	58	9342
2026-01-29 12:23:13.56	24.11	3.13	-43.3	-45.9	15.6	1.38e+00	0	31	104	18874368	60	7107
2026-01-29 12:23:14.57	24.20	3.18	-44.1	-46.9	15.3	2.65e-02	34	31	0	19922944	60	7961
2026-01-29 12:23:15.57	24.29	3.24	-43.4	-46.0	14.5	0.00e+00	0	31	0	20971520	58	8115
2026-01-29 12:23:16.58	24.38	3.29	-44.8	-48.6	13.8	1.42e+00	92	31	104	22020096	60	9690
2026-01-29 12:23:17.59	24.47	3.34	-42.3	-44.2	17.4	0.00e+00	64	30	0	23068672	58	6596
2026-01-29 12:23:18.60	24.56	3.39	-42.0	-43.9	17.8	0.00e+00	24	31	0	24117248	58	6356
2026-01-29 12:23:19.61	24.65	3.44	-41.4	-43.1	18.4	0.00e+00	63	31	0	26214400	56	6468
2026-01-29 12:23:20.62	24.75	3.50	-41.7	-43.4	18.2	0.00e+00	23	31	0	28311552	56	6729
2026-01-29 12:23:21.63	24.84	3.55	-41.9	-43.7	17.9	0.00e+00	7	31	0	30408704	56	6956
2026-01-29 12:23:22.64	24.93	3.60	-41.9	-43.7	18.1	0.00e+00	24	31	0	31457280	56	6937
2026-01-29 12:23:23.65	25.03	3.65	-41.9	-43.7	18.0	0.00e+00	92	31	0	33554432	56	6979
2026-01-29 12:23:24.66	25.12	3.70	-41.6	-43.3	18.4	0.00e+00	6	31	0	35651584	56	6669
2026-01-29 12:23:25.67	25.21	3.76	-41.6	-43.3	18.4	0.00e+00	92	31	0	37748736	56	6638
2026-01-29 12:23:26.68	25.31	3.81	-41.5	-43.1	18.6	0.00e+00	25	31	0	39845888	56	6535
2026-01-29 12:23:27.69	25.40	3.86	-41.5	-43.2	18.6	0.00e+00	7	31	0	41943040	56	6574
2026-01-29 12:23:28.70	25.50	3.91	-41.3	-42.9	18.9	0.00e+00	4	31	0	42991616	56	6369
2026-01-29 12:23:29.70	25.59	3.97	-41.6	-43.2	18.6	0.00e+00	0	31	0	45088768	56	6580
2026-01-29 12:23:30.71	25.69	4.02	-41.3	-42.9	18.9	0.00e+00	91	31	0	47185920	56	6381
2026-01-29 12:23:31.72	25.79	4.07	-41.4	-43.0	18.9	0.00e+00	7	31	0	49283072	56	6409
2026-01-29 12:23:32.73	25.88	4.12	-41.2	-42.8	19.1	0.00e+00	92	31	0	51380224	56	6251
2026-01-29 12:23:33.74	25.98	4.18	-41.5	-43.1	18.7	0.00e+00	0	31	0	52428800	56	6520
2026-01-29 12:23:34.75	26.08	4.23	-41.1	-42.7	19.2	0.00e+00	63	31	0	54525952	56	6192
2026-01-29 12:23:35.76	26.17	4.28	-41.4	-43.0	18.7	0.00e+00	0	31	0	56623104	56	6395
2026-01-29 12:23:36.77	26.27	4.33	-41.8	-43.5	18.3	0.00e+00	59	30	0	58720256	56	6802
2026-01-29 12:23:37.78	26.37	4.39	-41.8	-43.5	18.4	0.00e+00	60	31	0	60817408	56	6808
2026-01-29 12:23:38.79	26.47	4.44	-41.4	-43.0	18.8	0.00e+00	0	31	0	61865984	56	6444
2026-01-29 12:23:39.80	26.57	4.49	-41.5	-43.1	18.9	0.00e+00	92	31	0	63963136	56	6493
2026-01-29 12:23:40.80	26.66	4.54	-41.4	-43.0	18.7	0.00e+00	65	31	0	66060288	56	6435
2026-01-29 12:23:41.81	26.76	4.60	-41.6	-43.2	18.8	0.00e+00	91	31	0	68157440	56	6596
2026-01-29 12:23:42.82	26.86	4.65	-41.5	-43.1	18.8	0.00e+00	16	31	0	70254592	56	6516
2026-01-29 12:23:43.83	26.96	4.70	-41.4	-43.0	18.8	0.00e+00	58	31	0	71303168	56	6414
2026-01-29 12:23:44.84	27.06	4.76	-41.2	-42.8	19.0	0.00e+00	54	31	0	73400320	56	6250
2026-01-29 12:23:45.85	27.16	4.81	-41.3	-42.8	19.0	0.00e+00	0	31	0	75497472	56	6292
2026-01-29 12:23:46.86	27.26	4.86	-41.1	-42.7	19.3	0.00e+00	90	31	0	77594624	56	6181
2026-01-29 12:23:47.87	27.37	4.92	-40.9	-42.4	19.5	0.00e+00	0	31	0	79691776	56	5980
2026-01-29 12:23:48.88	27.47	4.97	-40.8	-42.2	19.7	0.00e+00	91	31	0	80740352	56	5855
2026-01-29 12:23:49.89	27.57	5.02	-40.6	-42.0	19.9	0.00e+00	17	31	0	82837504	54	6439
2026-01-29 12:23:50.90	27.67	5.07	-40.5	-41.9	20.0	0.00e+00	0	31	0	84934656	54	6368
2026-01-29 12:23:51.91	27.78	5.13	-40.7	-42.1	19.8	0.00e+00	0	31	0	87031808	54	6476
2026-01-29 12:23:52.92	27.88	5.18	-40.5	-41.8	20.1	0.00e+00	0	31	0	89128960	54	6312
2026-01-29 12:23:53.93	27.98	5.23	-40.5	-41.9	20.1	0.00e+00	91	31	0	90177536	54	6319
2026-01-29 12:23:54.94	28.09	5.29	-40.7	-42.1	19.8	0.00e+00	2	31	0	92274688	54	6527
2026-01-29 12:23:55.94	28.19	5.34	-40.8	-42.2	19.8	0.00e+00	90	31	0	94371840	54	6607
2026-01-29 12:23:56.95	28.29	5.39	-40.4	-41.7	20.2	0.00e+00	0	31	0	96468992	54	6220
2026-01-29 12:23:57.96	28.40	5.45	-40.5	-41.9	20.0	0.00e+00	64	31	0	98566144	54	6377
2026-01-29 12:23:58.97	28.50	5.50	-40.6	-42.0	20.1	0.00e+00	64	31	0	99614720	54	6398
2026-01-29 12:23:59.98	28.61	5.55	-40.3	-41.6	20.4	0.00e+00	0	31	0	101711872	54	6155
2026-01-29 12:24:00.98	28.72	5.61	-40.2	-41.5	20.3	0.00e+00	0	31	0	103809024	54	6080
2026-01-29 12:24:01.99	28.82	5.66	-40.3	-41.6	20.3	0.00e+00	23	31	0	105906176	54	6173
2026-01-29 12:24:03.00	28.93	5.71	-39.9	-41.2	20.8	0.00e+00	91	31	0	108003328	54	5852
2026-01-29 12:24:04.01	29.04	5.77	-39.7	-40.9	21.1	0.00e+00	64	31	0	110100480	52	6342
2026-01-29 12:24:05.02	29.14	5.82	-40.2	-41.5	20.6	0.00e+00	90	31	0	111149056	52	6798
2026-01-29 12:24:06.03	29.25	5.88	-40.2	-41.5	20.5	0.00e+00	16	31	0	113246208	52	6819
2026-01-29 12:24:07.04	29.36	5.93	-40.0	-41.2	20.9	0.00e+00	59	31	0	115343360	52	6566
2026-01-29 12:24:08.04	29.47	5.98	-39.7	-40.8	21.3	0.00e+00	48	31	0	117440512	52	6302
2026-01-29 12:24:09.05	29.58	6.04	-39.7	-40.9	21.2	0.00e+00	0	31	0	119537664	52	6324
2026-01-29 12:24:10.06	29.69	6.09	-39.8	-41.1	21.0	0.00e+00	90	31	0	120586240	52	6471
2026-01-29 12:24:11.07	29.80	6.14	-39.7	-40.8	21.2	0.00e+00	0	31	0	122683392	52	6306
2026-01-29 12:24:12.07	29.91	6.20	-39.6	-40.8	21.2	0.00e+00	90	31	0	124780544	52	6276
2026-01-29 12:24:13.08	30.02	6.25	-39.9	-41.1	21.0	0.00e+00	0	31	0	126877696	52	6507
2026-01-29 12:24:14.09	30.13	6.30	-39.8	-41.0	21.0	0.00e+00	0	31	0	127926272	52	6455
2026-01-29 12:24:15.10	30.24	6.36	-39.8	-41.0	21.0	0.00e+00	0	31	0	130023424	52	6428
2026-01-29 12:24:16.11	30.35	6.41	-39.8	-40.9	21.1	0.00e+00	0	31	0	132120576	52	6389
2026-01-29 12:24:17.11	30.46	6.47	-39.8	-41.0	20.9	0.00e+00	90	31	0	134217728	52	6462
2026-01-29 12:24:18.12	30.57	6.52	-40.0	-41.2	20.8	0.00e+00	2	31	0	136314880	52	6580
2026-01-29 12:24:19.13	30.69	6.57	-39.6	-40.8	21.3	0.00e+00	92	31	0	138412032	52	6288
2026-01-29 12:24:20.14	30.80	6.63	-39.7	-40.8	21.2	0.00e+00	66	31	0	139460608	52	6296
2026-01-29 12:24:21.15	30.91	6.68	-39.7	-40.8	21.1	0.00e+00	65	31	0	141557760	52	6301
2026-01-29 12:24:22.16	31.03	6.74	-39.9	-41.1	20.9	0.00e+00	0	31	0	143654912	52	6490
2026-01-29 12:24:23.17	31.14	6.79	-39.9	-41.1	20.9	0.00e+00	65	31	0	145752064	52	6469
2026-01-29 12:24:24.18	31.26	6.84	-39.5	-40.7	21.2	0.00e+00	0	31	0	147849216	52	6186
2026-01-29 12:24:25.19	31.37	6.90	-39.5	-40.7	21.4	0.00e+00	54	31	0	148897792	52	6177
2026-01-29 12:24:26.20	31.49	6.95	-39.7	-40.9	21.2	0.00e+00	90	31	0	150994944	52	6380
2026-01-29 12:24:27.21	31.61	7.01	-39.7	-40.8	21.2	0.00e+00	0	31	0	153092096	52	6314
2026-01-29 12:24:28.21	31.72	7.06	-39.6	-40.7	21.3	0.00e+00	75	31	0	155189248	52	6225
2026-01-29 12:24:29.22	31.84	7.11	-39.7	-40.8	21.3	0.00e+00	17	31	0	157286400	52	6317
2026-01-29 12:24:30.23	31.96	7.17	-39.5	-40.7	21.4	0.00e+00	66	31	0	158334976	52	6205
2026-01-29 12:24:31.24	32.07	7.22	-39.6	-40.8	21.3	0.00e+00	0	31	0	160432128	52	6281
2026-01-29 12:24:32.25	32.19	7.28	-39.6	-40.8	21.4	0.00e+00	0	31	0	162529280	52	6262
2026-01-29 12:24:33.26	32.31	7.33	-39.4	-40.6	21.5	0.00e+00	92	31	0	164626432	52	6124
2026-01-29 12:24:34.27	32.43	7.39	-39.5	-40.6	21.4	0.00e+00	0	31	0	166723584	52	6140
2026-01-29 12:24:35.28	32.55	7.44	-39.4	-40.6	21.5	0.00e+00	90	31	0	167772160	52	6110
2026-01-29 12:24:36.29	32.67	7.49	-39.4	-40.5	21.6	0.00e+00	2	31	0	169869312	52	6085
2026-01-29 12:24:37.30	32.79	7.55	-39.2	-40.3	21.8	0.00e+00	0	31	0	171966464	52	5937
2026-01-29 12:24:38.31	32.91	7.60	-39.3	-40.4	21.7	0.00e+00	0	31	0	174063616	52	5976
2026-01-29 12:24:39.32	33.03	7.66	-39.3	-40.4	21.8	0.00e+00	0	31	0	176160768	52	5991
2026-01-29 12:24:40.33	33.15	7.71	-39.2	-40.2	21.8	0.00e+00	92	31	0	177209344	52	5896
2026-01-29 12:24:41.34	33.28	7.77	-39.1	-40.2	21.9	0.00e+00	2	31	0	179306496	52	5874
2026-01-29 12:24:42.35	33.40	7.82	-39.3	-40.4	21.8	0.00e+00	92	31	0	181403648	52	5966
2026-01-29 12:24:43.36	33.52	7.87	-39.0	-40.0	22.1	0.00e+00	0	31	0	183500800	52	5749
2026-01-29 12:24:44.37	33.65	7.93	-39.1	-40.1	22.0	0.00e+00	17	31	0	185597952	52	5812
2026-01-29 12:24:45.38	33.77	7.98	-39.2	-40.2	21.9	0.00e+00	66	31	0	186646528	52	5875
2026-01-29 12:24:46.39	33.89	8.04	-39.2	-40.3	21.9	0.00e+00	63	31	0	188743680	52	5907
2026-01-29 12:24:47.39	34.02	8.09	-39.2	-40.3	21.8	0.00e+00	54	31	0	190840832	52	5936
2026-01-29 12:24:48.40	34.14	8.15	-39.2	-40.3	22.0	0.00e+00	57	31	0	192937984	52	5899
2026-01-29 12:24:49.41	34.27	8.20	-39.2	-40.3	21.8	0.00e+00	90	31	0	195035136	52	5929
2026-01-29 12:24:50.42	34.40	8.25	-39.1	-40.2	22.0	0.00e+00	0	31	0	196083712	52	5864
2026-01-29 12:24:51.43	34.52	8.31	-39.1	-40.2	22.0	0.00e+00	29	31	0	198180864	52	5844
2026-01-29 12:24:52.44	34.65	8.36	-39.0	-40.1	22.0	0.00e+00	17	31	0	200278016	52	5799
2026-01-29 12:24:53.45	34.78	8.42	-39.1	-40.2	22.0	0.00e+00	5	31	0	202375168	52	5834
2026-01-29 12:24:54.46	34.91	8.47	-39.0	-40.1	22.1	0.00e+00	18	31	0	204472320	52	5780
2026-01-29 12:24:55.47	35.03	8.53	-39.2	-40.2	22.0	0.00e+00	23	31	0	206569472	52	5885
2026-01-29 12:24:56.47	35.16	8.58	-39.0	-40.1	22.1	0.00e+00	92	31	0	207618048	52	5799
2026-01-29 12:24:57.48	35.29	8.63	-39.2	-40.2	22.0	0.00e+00	6	31	0	209715200	52	5894
2026-01-29 12:24:58.49	35.42	8.69	-39.1	-40.2	22.0	0.00e+00	92	31	0	211812352	52	5855
2026-01-29 12:24:59.50	35.55	8.74	-39.1	-40.2	21.9	0.00e+00	5	31	0	213909504	52	5864
2026-01-29 12:25:00.50	35.68	8.80	-39.1	-40.2	21.9	0.00e+00	6	31	0	216006656	52	5856
2026-01-29 12:25:01.51	35.81	8.85	-39.2	-40.3	22.0	0.00e+00	0	31	0	217055232	52	5903
2026-01-29 12:25:02.52	35.94	8.91	-39.2	-40.3	21.9	0.00e+00	0	31	0	219152384	52	5918
2026-01-29 12:25:03.53	36.08	8.96	-39.2	-40.3	21.8	0.00e+00	55	31	0	221249536	52	5903
2026-01-29 12:25:04.54	36.21	9.01	-39.1	-40.2	22.0	0.00e+00	5	31	0	223346688	52	5861
2026-01-29 12:25:05.55	36.34	9.07	-39.2	-40.2	22.0	0.00e+00	92	31	0	225443840	52	5891
2026-01-29 12:25:06.55	36.47	9.12	-39.1	-40.2	22.0	0.00e+00	0	31	0	226492416	52	5876
2026-01-29 12:25:07.56	36.61	9.18	-39.1	-40.1	22.0	0.00e+00	62	31	0	228589568	52	5818
2026-01-29 12:25:08.57	36.74	9.23	-39.0	-40.1	22.1	0.00e+00	65	31	0	230686720	52	5795
2026-01-29 12:25:09.58	36.88	9.28	-39.1	-40.2	22.0	0.00e+00	65	31	0	232783872	52	5841
2026-01-29 12:25:10.59	37.01	9.34	-39.1	-40.1	22.1	0.00e+00	0	31	0	234881024	52	5811
2026-01-29 12:25:11.60	37.15	9.39	-39.0	-40.0	22.2	0.00e+00	56	31	0	235929600	52	5733
2026-01-29 12:25:12.61	37.29	9.45	-38.9	-39.9	22.3	0.00e+00	90	31	0	238026752	52	5687
2026-01-29 12:25:13.62	37.42	9.50	-38.9	-39.9	22.3	0.00e+00	0	31	0	240123904	50	6365
2026-01-29 12:25:14.63	37.56	9.56	-38.9	-39.9	22.3	0.00e+00	91	31	0	242221056	50	6348
2026-01-29 12:25:15.64	37.70	9.61	-38.9	-40.0	22.3	0.00e+00	63	31	0	244318208	50	6401
2026-01-29 12:25:16.65	37.84	9.66	-38.9	-40.0	22.2	0.00e+00	20	31	0	245366784	50	6397
2026-01-29 12:25:17.66	37.98	9.72	-38.9	-39.9	22.3	0.00e+00	5	31	0	247463936	50	6387
2026-01-29 12:25:18.67	38.12	9.77	-38.8	-39.8	22.4	0.00e+00	5	31	0	249561088	50	6316
2026-01-29 12:25:19.67	38.25	9.83	-38.8	-39.8	22.4	0.00e+00	91	31	0	251658240	50	6301
2026-01-29 12:25:20.68	38.39	9.88	-38.7	-39.7	22.5	0.00e+00	6	31	0	253755392	50	6237
2026-01-29 12:25:21.69	38.54	9.93	-38.5	-39.5	22.7	0.00e+00	92	31	0	254803968	50	6074
2026-01-29 12:25:22.70	38.68	9.99	-38.6	-39.6	22.6	0.00e+00	6	31	0	256901120	50	6165
2026-01-29 12:25:23.70	38.82	10.04	-38.4	-39.3	22.8	0.00e+00	7	31	0	258998272	50	5952
2026-01-29 12:25:24.71	38.96	10.09	-38.6	-39.6	22.6	0.00e+00	4	31	0	261095424	50	6160
2026-01-29 12:25:25.72	39.10	10.15	-38.2	-39.2	22.9	0.00e+00	5	31	0	263192576	50	5847
2026-01-29 12:25:26.73	39.25	10.20	-38.2	-39.2	22.9	0.00e+00	0	31	0	264241152	50	5841
2026-01-29 12:25:27.74	39.39	10.26	-38.2	-39.2	23.0	0.00e+00	6	31	0	266338304	50	5830
2026-01-29 12:25:28.75	39.54	10.31	-37.9	-38.9	23.2	0.00e+00	90	31	0	268435456	50	5649
2026-01-29 12:25:29.75	39.68	10.36	-38.0	-38.9	23.3	0.00e+00	61	31	0	270532608	50	5655
2026-01-29 12:25:30.76	39.82	10.42	-38.0	-39.0	23.2	0.00e+00	66	31	0	272629760	50	5709
2026-01-29 12:25:31.77	39.97	10.47	-38.0	-38.9	23.2	0.00e+00	0	31	0	273678336	50	5680
2026-01-29 12:25:32.78	40.12	10.52	-38.1	-39.1	23.1	0.00e+00	66	31	0	275775488	50	5777
2026-01-29 12:25:33.79	40.26	10.58	-37.9	-38.9	23.3	0.00e+00	0	31	0	277872640	50	5632
2026-01-29 12:25:34.80	40.41	10.63	-37.9	-38.8	23.3	0.00e+00	15	31	0	279969792	50	5628
2026-01-29 12:25:35.81	40.56	10.68	-37.8	-38.7	23.4	0.00e+00	92	31	0	282066944	50	5540
2026-01-29 12:25:36.82	40.71	10.74	-37.7	-38.6	23.4	0.00e+00	20	31	0	283115520	48	6139
2026-01-29 12:25:37.82	40.86	10.79	-37.7	-38.6	23.5	0.00e+00	92	31	0	285212672	48	6118
2026-01-29 12:25:38.83	41.01	10.84	-37.7	-38.6	23.5	0.00e+00	67	31	0	287309824	48	6144
2026-01-29 12:25:39.84	41.16	10.90	-37.7	-38.7	23.4	0.00e+00	16	31	0	289406976	48	6177
2026-01-29 12:25:40.85	41.31	10.95	-37.7	-38.6	23.4	0.00e+00	15	31	0	291504128	48	6131
2026-01-29 12:25:41.86	41.46	11.00	-37.7	-38.6	23.1	0.00e+00	15	31	0	292552704	48	6137
2026-01-29 12:25:42.87	41.61	11.06	-37.7	-38.6	23.5	0.00e+00	89	31	0	294649856	48	6138
2026-01-29 12:25:43.88	41.76	11.11	-37.7	-38.7	23.5	0.00e+00	0	31	0	296747008	48	6175
2026-01-29 12:25:44.89	41.92	11.16	-37.8	-38.7	23.4	0.00e+00	90	31	0	298844160	48	6215
2026-01-29 12:25:45.90	42.07	11.21	-38.0	-38.9	23.2	0.00e+00	0	31	0	300941312	48	6356
2026-01-29 12:25:46.90	42.22	11.27	-37.9	-38.9	23.2	0.00e+00	0	31	0	303038464	48	6321
2026-01-29 12:25:47.91	42.38	11.32	-38.0	-38.9	23.2	0.00e+00	0	31	0	304087040	48	6343
2026-01-29 12:25:48.92	42.53	11.37	-37.9	-38.8	23.3	0.00e+00	0	31	0	306184192	48	6294
2026-01-29 12:25:49.93	42.69	11.42	-38.0	-38.9	23.3	0.00e+00	0	31	0	308281344	48	6343
2026-01-29 12:25:50.94	42.84	11.48	-37.7	-38.6	23.6	0.00e+00	0	31	0	310378496	48	6124
2026-01-29 12:25:51.95	43.00	11.53	-37.8	-38.7	23.4	0.00e+00	92	31	0	312475648	48	6193
2026-01-29 12:25:52.96	43.16	11.58	-37.8	-38.7	23.5	0.00e+00	0	31	0	313524224	48	6205
2026-01-29 12:25:53.97	43.31	11.63	-37.8	-38.7	23.5	0.00e+00	65	31	0	315621376	48	6235
2026-01-29 12:25:54.98	43.47	11.69	-37.8	-38.7	23.4	0.00e+00	0	31	0	317718528	48	6234
2026-01-29 12:25:55.99	43.63	11.74	-37.8	-38.7	23.4	0.00e+00	66	31	0	319815680	48	6243
2026-01-29 12:25:57.00	43.79	11.79	-37.7	-38.6	23.5	0.00e+00	41	31	0	321912832	48	6161
2026-01-29 12:25:58.01	43.95	11.84	-37.8	-38.7	23.5	0.00e+00	15	31	0	322961408	48	6179
2026-01-29 12:25:59.02	44.11	11.89	-37.8	-38.7	23.4	0.00e+00	92	31	0	325058560	48	6239
2026-01-29 12:26:00.03	44.27	11.94	-37.8	-38.8	23.4	0.00e+00	61	31	0	327155712	48	6248
2026-01-29 12:26:01.03	44.43	12.00	-37.8	-38.8	23.4	0.00e+00	92	31	0	329252864	48	6247
2026-01-29 12:26:02.04	44.59	12.05	-37.8	-38.7	23.3	0.00e+00	19	31	0	331350016	48	6214
2026-01-29 12:26:03.05	44.76	12.10	-37.7	-38.6	23.4	0.00e+00	0	31	0	332398592	48	6158
2026-01-29 12:26:04.06	44.92	12.15	-37.7	-38.6	23.6	0.00e+00	15	31	0	334495744	48	6127
2026-01-29 12:26:05.07	45.08	12.20	-37.7	-38.6	23.6	0.00e+00	16	31	0	336592896	48	6111
2026-01-29 12:26:06.07	45.25	12.25	-37.7	-38.6	23.5	0.00e+00	35	31	0	338690048	48	6129
2026-01-29 12:26:07.09	45.41	12.30	-37.7	-38.6	23.6	0.00e+00	0	31	0	340787200	48	6112
2026-01-29 12:26:08.09	45.58	12.35	-37.7	-38.6	23.5	0.00e+00	92	31	0	341835776	48	6154
2026-01-29 12:26:09.10	45.74	12.40	-37.9	-38.8	23.4	0.00e+00	0	31	0	343932928	48	6287
2026-01-29 12:26:10.11	45.91	12.46	-37.8	-38.7	23.5	0.00e+00	0	31	0	346030080	48	6190
2026-01-29 12:26:11.13	46.08	12.51	-37.9	-38.9	23.3	0.00e+00	0	31	0	348127232	48	6325
2026-01-29 12:26:12.14	46.25	12.56	-38.0	-38.9	23.3	0.00e+00	0	31	0	350224384	48	6357
2026-01-29 12:26:13.15	46.41	12.61	-38.0	-39.0	23.2	0.00e+00	66	31	0	351272960	48	6403
2026-01-29 12:26:14.16	46.58	12.66	-38.0	-38.9	23.3	0.00e+00	0	31	0	353370112	48	6356
2026-01-29 12:26:15.17	46.75	12.71	-38.0	-38.9	23.3	0.00e+00	91	31	0	355467264	48	6383
2026-01-29 12:26:16.18	46.92	12.76	-38.0	-38.9	23.3	0.00e+00	62	31	0	357564416	48	6356
2026-01-29 12:26:17.19	47.09	12.81	-38.1	-39.0	23.1	0.00e+00	92	31	0	359661568	48	6426
2026-01-29 12:26:18.20	47.26	12.86	-38.1	-39.0	23.2	0.00e+00	0	31	0	360710144	48	6463
2026-01-29 12:26:19.20	47.43	12.91	-38.1	-39.0	23.2	0.00e+00	0	31	0	362807296	48	6438
2026-01-29 12:26:20.21	47.61	12.96	-38.2	-39.2	23.1	0.00e+00	57	31	0	364904448	48	6566
2026-01-29 12:26:21.22	47.78	13.01	-38.3	-39.2	22.9	0.00e+00	14	31	0	367001600	48	6588
2026-01-29 12:26:22.23	47.95	13.05	-38.3	-39.2	23.0	0.00e+00	92	31	0	369098752	48	6599
2026-01-29 12:26:23.24	48.13	13.10	-38.3	-39.3	23.0	0.00e+00	14	31	0	370147328	48	6658
2026-01-29 12:26:24.25	48.30	13.15	-38.5	-39.5	22.7	0.00e+00	92	31	0	372244480	48	6802
2026-01-29 12:26:25.26	48.48	13.20	-38.5	-39.5	22.8	0.00e+00	15	31	0	374341632	48	6815
2026-01-29 12:26:26.26	48.65	13.25	-38.5	-39.5	22.8	0.00e+00	0	31	0	376438784	48	6806
2026-01-29 12:26:27.27	48.83	13.30	-38.5	-39.5	22.8	0.00e+00	0	31	0	378535936	48	6796
2026-01-29 12:26:28.28	49.00	13.35	-38.6	-39.6	22.7	0.00e+00	0	31	0	379584512	48	6890
2026-01-29 12:26:29.29	49.18	13.39	-38.8	-39.8	22.5	0.00e+00	92	31	0	381681664	48	7025
2026-01-29 12:26:30.30	49.36	13.44	-38.9	-40.0	22.4	0.00e+00	0	31	0	383778816	50	6399
2026-01-29 12:26:31.31	49.54	13.49	-39.0	-40.1	22.3	0.00e+00	92	31	0	385875968	50	6479
2026-01-29 12:26:32.32	49.71	13.54	-39.1	-40.2	22.3	0.00e+00	0	31	0	387973120	50	6550
2026-01-29 12:26:33.33	49.89	13.59	-39.1	-40.1	22.2	0.00e+00	92	31	0	389021696	50	6522
2026-01-29 12:26:34.34	50.07	13.63	-39.3	-40.3	22.1	0.00e+00	0	31	0	391118848	50	6667
2026-01-29 12:26:35.35	50.25	13.68	-39.2	-40.3	22.0	0.00e+00	0	31	0	393216000	50	6632
2026-01-29 12:26:36.35	50.43	13.73	-39.4	-40.5	21.8	0.00e+00	0	31	0	395313152	50	6831
2026-01-29 12:26:37.36	50.62	13.77	-39.4	-40.5	21.9	0.00e+00	65	31	0	397410304	50	6794
2026-01-29 12:26:38.37	50.80	13.82	-39.5	-40.6	21.8	0.00e+00	92	31	0	399507456	50	6872
2026-01-29 12:26:39.38	50.98	13.87	-39.6	-40.6	21.8	0.00e+00	0	31	0	400556032	50	6926
2026-01-29 12:26:40.39	51.16	13.91	-39.4	-40.5	21.9	0.00e+00	92	31	0	402653184	50	6820
2026-01-29 12:26:41.40	51.35	13.96	-39.4	-40.5	21.9	0.00e+00	17	31	0	404750336	50	6830
2026-01-29 12:26:42.41	51.53	14.01	-39.6	-40.7	21.8	0.00e+00	0	31	0	406847488	50	6956
2026-01-29 12:26:43.42	51.72	14.05	-39.7	-40.8	21.7	0.00e+00	0	31	0	408944640	50	7031
2026-01-29 12:26:44.43	51.90	14.10	-39.7	-40.8	21.7	0.00e+00	66	31	0	409993216	50	7074
2026-01-29 12:26:45.44	52.09	14.14	-39.7	-40.8	21.6	0.00e+00	72	31	0	412090368	52	6309
2026-01-29 12:26:46.45	52.28	14.19	-39.8	-41.0	21.6	0.00e+00	7	31	0	414187520	52	6393
2026-01-29 12:26:47.46	52.46	14.23	-39.8	-40.9	21.6	0.00e+00	92	31	0	416284672	52	6390
2026-01-29 12:26:48.47	52.65	14.28	-40.0	-41.1	21.4	0.00e+00	14	31	0	418381824	52	6525
2026-01-29 12:26:49.47	52.84	14.32	-39.9	-41.1	21.4	0.00e+00	5	31	0	419430400	52	6482
2026-01-29 12:26:50.48	53.03	14.37	-40.1	-41.3	21.3	0.00e+00	0	31	0	421527552	52	6641
2026-01-29 12:26:51.49	53.22	14.41	-40.1	-41.3	21.3	0.00e+00	7	31	0	423624704	52	6675
2026-01-29 12:26:52.50	53.41	14.46	-40.2	-41.4	21.1	0.00e+00	91	31	0	425721856	52	6712
2026-01-29 12:26:53.52	53.60	14.50	-40.2	-41.4	21.0	0.00e+00	0	31	0	427819008	52	6746
2026-01-29 12:26:54.52	53.79	14.54	-40.2	-41.4	21.0	0.00e+00	91	31	0	428867584	52	6743
2026-01-29 12:26:55.53	53.98	14.59	-40.2	-41.4	21.1	0.00e+00	0	31	0	430964736	52	6697
2026-01-29 12:26:56.54	54.17	14.63	-40.1	-41.3	21.2	0.00e+00	92	31	0	433061888	52	6650
2026-01-29 12:26:57.55	54.36	14.67	-40.2	-41.4	21.1	0.00e+00	5	31	0	435159040	52	6747
2026-01-29 12:26:58.56	54.56	14.72	-40.1	-41.3	21.3	0.00e+00	0	31	0	437256192	52	6663
2026-01-29 12:26:59.57	54.75	14.76	-40.2	-41.4	21.1	0.00e+00	0	31	0	438304768	52	6747
2026-01-29 12:27:00.58	54.95	14.80	-40.2	-41.4	21.1	0.00e+00	66	31	0	440401920	52	6740
2026-01-29 12:27:01.59	55.14	14.84	-40.4	-41.6	21.0	0.00e+00	92	31	0	442499072	52	6849
2026-01-29 12:27:02.59	55.33	14.88	-40.4	-41.6	21.0	0.00e+00	18	31	0	444596224	52	6861
2026-01-29 12:27:03.60	55.53	14.93	-40.4	-41.6	20.9	0.00e+00	90	31	0	446693376	52	6926
2026-01-29 12:27:04.61	55.73	14.97	-40.4	-41.7	20.9	0.00e+00	67	31	0	447741952	52	6943
2026-01-29 12:27:05.62	55.92	15.01	-40.3	-41.5	21.0	0.00e+00	0	31	0	449839104	52	6833
2026-01-29 12:27:06.63	56.12	15.05	-40.3	-41.5	21.1	0.00e+00	23	31	0	451936256	52	6771
2026-01-29 12:27:07.63	56.32	15.09	-40.1	-41.2	21.3	0.00e+00	60	31	0	454033408	52	6596
2026-01-29 12:27:08.64	56.52	15.13	-40.0	-41.2	21.4	0.00e+00	92	31	0	456130560	52	6567
2026-01-29 12:27:09.65	56.72	15.17	-39.8	-40.9	21.5	0.00e+00	5	31	0	457179136	52	6376
2026-01-29 12:27:10.66	56.91	15.21	-39.9	-41.0	21.6	0.00e+00	92	31	0	459276288	52	6427
2026-01-29 12:27:11.67	57.11	15.25	-39.4	-40.5	22.0	0.00e+00	25	31	0	461373440	52	6066
2026-01-29 12:27:12.68	57.32	15.29	-39.3	-40.4	22.0	0.00e+00	6	31	0	463470592	52	6007
2026-01-29 12:27:13.69	57.52	15.33	-39.4	-40.4	22.1	0.00e+00	0	31	0	465567744	52	6020
2026-01-29 12:27:14.70	57.72	15.37	-39.3	-40.3	22.2	0.00e+00	6	31	0	467664896	52	5946
2026-01-29 12:27:15.71	57.92	15.41	-39.3	-40.3	22.2	0.00e+00	0	31	0	468713472	52	5949
2026-01-29 12:27:16.72	58.12	15.44	-39.2	-40.3	22.1	0.00e+00	6	31	0	470810624	52	5926
2026-01-29 12:27:17.73	58.33	15.48	-39.2	-40.2	22.3	0.00e+00	92	31	0	472907776	52	5876
2026-01-29 12:27:18.74	58.53	15.52	-39.0	-40.0	22.4	0.00e+00	0	31	0	475004928	52	5738
2026-01-29 12:27:19.75	58.74	15.56	-38.9	-40.0	22.5	0.00e+00	66	31	0	477102080	52	5702
2026-01-29 12:27:20.76	58.94	15.59	-38.9	-40.0	22.5	0.00e+00	68	31	0	478150656	52	5699
2026-01-29 12:27:21.77	59.15	15.63	-38.7	-39.7	22.7	0.00e+00	66	31	0	480247808	50	6179
2026-01-29 12:27:22.77	59.35	15.67	-38.6	-39.6	22.4	0.00e+00	0	31	0	482344960	50	6135
2026-01-29 12:27:23.78	59.56	15.70	-38.7	-39.7	22.4	0.00e+00	0	31	0	484442112	50	6216
2026-01-29 12:27:24.79	59.76	15.74	-38.3	-39.2	23.0	0.00e+00	90	31	0	485490688	50	5869
2026-01-29 12:27:25.80	59.97	15.78	-38.2	-39.1	23.1	0.00e+00	67	31	0	487587840	50	5821
2026-01-29 12:27:26.81	60.18	15.81	-38.0	-39.0	23.4	0.00e+00	90	31	0	489684992	50	5697
2026-01-29 12:27:27.82	60.39	15.85	-37.8	-38.7	23.6	0.00e+00	67	31	0	491782144	50	5563
2026-01-29 12:27:28.83	60.59	15.88	-37.8	-38.7	23.6	0.00e+00	13	31	0	493879296	50	5531
2026-01-29 12:27:29.84	60.80	15.92	-37.8	-38.7	23.6	0.00e+00	14	31	0	495976448	50	5542
2026-01-29 12:27:30.85	61.01	15.95	-37.8	-38.7	23.4	0.00e+00	14	31	0	497025024	50	5559
2026-01-29 12:27:31.86	61.22	15.98	-37.9	-38.8	23.4	0.00e+00	60	31	0	499122176	50	5587
2026-01-29 12:27:32.87	61.43	16.02	-37.9	-38.8	23.5	0.00e+00	2	31	0	501219328	50	5614
2026-01-29 12:27:33.88	61.64	16.05	-38.0	-38.9	23.4	0.00e+00	90	31	0	503316480	50	5679
2026-01-29 12:27:34.89	61.86	16.08	-38.0	-38.9	23.4	0.00e+00	15	31	0	505413632	50	5680
2026-01-29 12:27:35.90	62.07	16.12	-38.1	-39.0	23.3	0.00e+00	48	31	0	506462208	50	5758
2026-01-29 12:27:36.91	62.28	16.15	-38.1	-39.0	23.1	0.00e+00	0	31	0	508559360	50	5753
2026-01-29 12:27:37.91	62.49	16.18	-38.3	-39.2	23.1	0.00e+00	0	31	0	510656512	50	5855
2026-01-29 12:27:38.92	62.70	16.21	-38.3	-39.2	23.2	0.00e+00	15	31	0	512753664	50	5857
2026-01-29 12:27:39.93	62.92	16.24	-38.4	-39.4	23.0	0.00e+00	0	31	0	514850816	50	5988
2026-01-29 12:27:40.94	63.13	16.27	-38.5	-39.5	22.9	0.00e+00	90	31	0	515899392	50	6042
2026-01-29 12:27:41.95	63.35	16.30	-38.7	-39.6	22.7	0.00e+00	0	31	0	517996544	50	6163
2026-01-29 12:27:42.96	63.56	16.33	-38.6	-39.6	22.8	0.00e+00	89	31	0	520093696	50	6128
2026-01-29 12:27:43.97	63.78	16.36	-38.4	-39.4	23.0	0.00e+00	66	31	0	522190848	50	5988
2026-01-29 12:27:44.98	63.99	16.39	-38.5	-39.4	23.0	0.00e+00	0	31	0	524288000	50	6024
2026-01-29 12:27:45.99	64.21	16.42	-38.4	-39.4	23.0	0.00e+00	0	31	0	525336576	50	5968
2026-01-29 12:27:46.99	64.42	16.45	-38.5	-39.5	22.8	0.00e+00	4	31	0	527433728	50	6077
2026-01-29 12:27:48.00	64.64	16.48	-38.4	-39.4	23.0	0.00e+00	91	31	0	529530880	50	6008
2026-01-29 12:27:49.01	64.86	16.51	-38.6	-39.6	22.8	0.00e+00	14	31	0	531628032	50	6161
2026-01-29 12:27:50.02	65.08	16.54	-38.5	-39.6	22.8	0.00e+00	92	31	0	533725184	50	6111
2026-01-29 12:27:51.03	65.30	16.56	-38.6	-39.6	22.8	0.00e+00	13	31	0	534773760	50	6157
2026-01-29 12:27:52.04	65.51	16.59	-38.6	-39.6	22.8	0.00e+00	16	31	0	536870912	50	6148
2026-01-29 12:27:53.04	65.73	16.62	-38.6	-39.6	22.8	0.00e+00	0	31	0	538968064	50	6143
2026-01-29 12:27:54.05	65.95	16.64	-38.7	-39.7	22.7	0.00e+00	0	31	0	541065216	50	6200
2026-01-29 12:27:55.06	66.17	16.67	-38.6	-39.6	22.8	0.00e+00	90	31	0	543162368	50	6172
2026-01-29 12:27:56.07	66.39	16.70	-38.8	-39.8	22.6	0.00e+00	2	31	0	544210944	50	6260
2026-01-29 12:27:57.08	66.61	16.72	-38.8	-39.8	22.6	0.00e+00	92	31	0	546308096	50	6261
2026-01-29 12:27:58.09	66.83	16.75	-38.8	-39.8	22.6	0.00e+00	0	31	0	548405248	50	6308
2026-01-29 12:27:59.11	67.06	16.77	-38.7	-39.7	22.6	0.00e+00	0	31	0	550502400	50	6235
2026-01-29 12:28:00.11	67.27	16.79	-38.7	-39.6	22.7	0.00e+00	0	31	0	552599552	50	6160
2026-01-29 12:28:01.12	67.50	16.82	-38.8	-39.8	22.6	0.00e+00	2	31	0	553648128	50	6269
2026-01-29 12:28:02.13	67.72	16.84	-38.6	-39.6	22.7	0.00e+00	0	31	0	555745280	50	6146
2026-01-29 12:28:03.14	67.94	16.86	-38.7	-39.7	22.5	0.00e+00	0	31	0	557842432	50	6230
2026-01-29 12:28:04.15	68.17	16.89	-38.7	-39.7	22.7	0.00e+00	92	31	0	559939584	50	6219
2026-01-29 12:28:05.16	68.39	16.91	-38.8	-39.7	22.7	0.00e+00	0	31	0	562036736	50	6238
2026-01-29 12:28:06.17	68.61	16.93	-38.6	-39.5	22.7	0.00e+00	90	31	0	564133888	50	6095
2026-01-29 12:28:07.18	68.84	16.95	-38.6	-39.6	22.7	0.00e+00	62	31	0	565182464	50	6150
2026-01-29 12:28:08.19	69.06	16.97	-38.7	-39.7	22.7	0.00e+00	0	31	0	567279616	50	6220
2026-01-29 12:28:09.20	69.28	16.99	-38.8	-39.8	22.7	0.00e+00	35	31	0	569376768	50	6255
2026-01-29 12:28:10.21	69.51	17.01	-38.7	-39.7	22.7	0.00e+00	0	31	0	571473920	50	6242
2026-01-29 12:28:11.22	69.74	17.03	-38.8	-39.8	22.6	0.00e+00	91	31	0	573571072	50	6275
2026-01-29 12:28:12.23	69.96	17.05	-38.8	-39.8	22.7	0.00e+00	19	31	0	574619648	50	6266
2026-01-29 12:28:13.24	70.19	17.07	-38.9	-39.9	22.6	0.00e+00	92	31	0	576716800	50	6327
2026-01-29 12:28:14.25	70.41	17.09	-38.8	-39.8	22.7	0.00e+00	12	31	0	578813952	50	6255
2026-01-29 12:28:15.26	70.64	17.11	-38.5	-39.5	22.7	0.00e+00	2	31	0	580911104	50	6050
2026-01-29 12:28:16.27	70.87	17.13	-38.4	-39.4	23.0	0.00e+00	18	31	0	583008256	50	5969
2026-01-29 12:28:17.27	71.09	17.14	-38.2	-39.1	23.2	0.00e+00	0	31	0	584056832	50	5802
2026-01-29 12:28:18.28	71.32	17.16	-38.3	-39.2	23.1	0.00e+00	12	31	0	586153984	50	5883
2026-01-29 12:28:19.29	71.54	17.18	-38.3	-39.3	23.1	0.00e+00	0	31	0	588251136	50	5897
2026-01-29 12:28:20.30	71.77	17.19	-38.4	-39.3	23.0	0.00e+00	91	31	0	590348288	50	5942
2026-01-29 12:28:21.30	72.00	17.21	-38.5	-39.5	22.9	0.00e+00	0	31	0	592445440	50	6074
2026-01-29 12:28:22.31	72.23	17.22	-38.5	-39.4	22.9	0.00e+00	92	31	0	593494016	50	6031
2026-01-29 12:28:23.32	72.45	17.24	-38.6	-39.6	22.8	0.00e+00	0	31	0	595591168	50	6125
2026-01-29 12:28:24.33	72.68	17.25	-38.8	-39.8	22.6	0.00e+00	0	31	0	597688320	50	6275
2026-01-29 12:28:25.34	72.91	17.27	-39.0	-40.1	22.5	0.00e+00	0	31	0	599785472	50	6477
2026-01-29 12:28:26.35	73.14	17.28	-39.1	-40.1	22.3	0.00e+00	0	31	0	601882624	50	6522
2026-01-29 12:28:27.36	73.37	17.29	-39.2	-40.3	22.2	0.00e+00	91	31	0	602931200	50	6629
2026-01-29 12:28:28.37	73.60	17.31	-39.4	-40.4	22.1	0.00e+00	66	31	0	605028352	50	6759
2026-01-29 12:28:29.38	73.83	17.32	-39.3	-40.4	22.1	0.00e+00	92	31	0	607125504	50	6730
2026-01-29 12:28:30.39	74.06	17.33	-39.2	-40.3	22.2	0.00e+00	65	31	0	609222656	50	6639
2026-01-29 12:28:31.40	74.29	17.34	-38.9	-39.9	22.6	0.00e+00	65	31	0	611319808	50	6384
2026-01-29 12:28:32.41	74.52	17.35	-39.0	-40.0	22.4	0.00e+00	21	31	0	612368384	50	6418
2026-01-29 12:28:33.42	74.75	17.36	-38.8	-39.8	22.7	0.00e+00	17	31	0	614465536	50	6277
2026-01-29 12:28:34.43	74.98	17.37	-38.5	-39.4	22.9	0.00e+00	88	31	0	616562688	50	6027
2026-01-29 12:28:35.43	75.21	17.38	-38.6	-39.6	22.9	0.00e+00	0	31	0	618659840	50	6146
2026-01-29 12:28:36.44	75.44	17.39	-38.7	-39.7	22.8	0.00e+00	92	31	0	620756992	50	6177
2026-01-29 12:28:37.45	75.67	17.40	-38.8	-39.7	22.7	0.00e+00	19	31	0	621805568	50	6226
2026-01-29 12:28:38.46	75.90	17.41	-38.6	-39.6	22.8	0.00e+00	7	31	0	623902720	50	6150
2026-01-29 12:28:39.47	76.13	17.42	-38.6	-39.6	22.7	0.00e+00	19	31	0	625999872	50	6115
2026-01-29 12:28:40.48	76.36	17.42	-38.7	-39.7	22.7	0.00e+00	6	31	0	628097024	50	6180
2026-01-29 12:28:41.49	76.59	17.43	-38.9	-39.9	22.5	0.00e+00	80	31	0	630194176	50	6383
2026-01-29 12:28:42.50	76.82	17.44	-39.0	-40.0	22.4	0.00e+00	0	31	0	632291328	50	6420
2026-01-29 12:28:43.51	77.06	17.44	-39.0	-40.0	22.4	0.00e+00	92	31	0	633339904	50	6460
2026-01-29 12:28:44.52	77.29	17.45	-38.8	-39.9	22.5	0.00e+00	0	31	0	635437056	50	6364
2026-01-29 12:28:45.52	77.52	17.45	-38.7	-39.8	22.6	0.00e+00	74	31	0	637534208	50	6246
2026-01-29 12:28:46.54	77.75	17.46	-38.7	-39.8	22.6	0.00e+00	7	31	0	639631360	50	6265
2026-01-29 12:28:47.54	77.98	17.46	-38.6	-39.6	22.8	0.00e+00	0	31	0	641728512	50	6146
2026-01-29 12:28:48.55	78.21	17.47	-38.7	-39.7	22.8	0.00e+00	0	31	0	642777088	50	6205
2026-01-29 12:28:49.56	78.44	17.47	-38.6	-39.5	22.9	0.00e+00	7	31	0	644874240	50	6090
2026-01-29 12:28:50.57	78.68	17.47	-38.6	-39.6	22.8	0.00e+00	92	31	0	646971392	50	6134
2026-01-29 12:28:51.58	78.91	17.48	-38.5	-39.5	22.9	0.00e+00	63	31	0	649068544	50	6087
2026-01-29 12:28:52.59	79.14	17.48	-38.6	-39.6	22.8	0.00e+00	90	31	0	650117120	50	6145
2026-01-29 12:28:53.60	79.37	17.48	-38.6	-39.6	22.9	0.00e+00	19	31	0	652214272	50	6144
2026-01-29 12:28:54.61	79.60	17.48	-38.8	-39.8	22.6	0.00e+00	65	31	0	654311424	50	6249
2026-01-29 12:28:55.61	79.83	17.48	-38.6	-39.6	22.9	0.00e+00	67	31	0	656408576	50	6156
2026-01-29 12:28:56.62	80.07	17.48	-38.7	-39.7	22.8	0.00e+00	66	31	0	658505728	50	6184
2026-01-29 12:28:57.63	80.30	17.48	-38.7	-39.7	22.7	0.00e+00	65	31	0	660602880	50	6179
2026-01-29 12:28:58.64	80.53	17.48	-38.7	-39.6	22.8	0.00e+00	65	31	0	661651456	50	6162
2026-01-29 12:28:59.65	80.76	17.48	-38.7	-39.6	22.7	0.00e+00	92	31	0	663748608	50	6170
2026-01-29 12:29:00.66	81.00	17.48	-38.8	-39.8	22.6	0.00e+00	20	31	0	665845760	50	6246
2026-01-29 12:29:01.67	81.23	17.48	-38.6	-39.6	22.7	0.00e+00	14	31	0	667942912	50	6158
2026-01-29 12:29:02.68	81.46	17.47	-38.7	-39.7	22.4	0.00e+00	21	31	0	670040064	50	6228
2026-01-29 12:29:03.69	81.69	17.47	-38.5	-39.5	22.5	0.00e+00	19	31	0	671088640	50	6077
2026-01-29 12:29:04.70	81.92	17.47	-38.5	-39.6	22.8	0.00e+00	0	31	0	673185792	50	6104
2026-01-29 12:29:05.71	82.16	17.46	-38.4	-39.4	22.8	0.00e+00	0	31	0	675282944	50	6020
2026-01-29 12:29:06.71	82.39	17.46	-38.3	-39.4	23.0	0.00e+00	92	31	0	677380096	50	5965
2026-01-29 12:29:07.72	82.62	17.46	-38.4	-39.4	23.0	0.00e+00	0	31	0	679477248	50	6002
2026-01-29 12:29:08.73	82.85	17.45	-38.2	-39.2	23.1	0.00e+00	92	31	0	680525824	50	5863
2026-01-29 12:29:09.74	83.08	17.44	-38.4	-39.4	23.1	0.00e+00	7	31	0	682622976	50	5984
2026-01-29 12:29:10.75	83.31	17.44	-38.3	-39.2	23.1	0.00e+00	0	31	0	684720128	50	5879
2026-01-29 12:29:11.76	83.54	17.43	-38.4	-39.3	23.1	0.00e+00	0	31	0	686817280	50	5952
2026-01-29 12:29:12.77	83.78	17.42	-38.5	-39.5	23.0	0.00e+00	0	31	0	688914432	50	6050
2026-01-29 12:29:13.78	84.01	17.42	-38.7	-39.7	22.8	0.00e+00	92	31	0	689963008	50	6174
2026-01-29 12:29:14.79	84.24	17.41	-38.7	-39.7	22.7	0.00e+00	67	31	0	692060160	50	6213
2026-01-29 12:29:15.80	84.47	17.40	-38.6	-39.7	22.8	0.00e+00	92	31	0	694157312	50	6175
2026-01-29 12:29:16.81	84.70	17.39	-38.7	-39.7	22.8	0.00e+00	15	31	0	696254464	50	6194
2026-01-29 12:29:17.82	84.93	17.38	-38.4	-39.3	23.1	0.00e+00	66	31	0	698351616	50	5931
2026-01-29 12:29:18.83	85.16	17.37	-38.2	-39.1	23.2	0.00e+00	15	31	0	699400192	50	5805
2026-01-29 12:29:19.83	85.39	17.36	-38.0	-38.9	23.4	0.00e+00	66	31	0	701497344	50	5688
2026-01-29 12:29:20.84	85.62	17.35	-37.9	-38.8	23.5	0.00e+00	92	31	0	703594496	50	5592
2026-01-29 12:29:21.85	85.85	17.34	-37.9	-38.8	23.6	0.00e+00	0	31	0	705691648	50	5585
2026-01-29 12:29:22.86	86.08	17.33	-37.9	-38.8	23.5	0.00e+00	92	31	0	707788800	50	5576
2026-01-29 12:29:23.87	86.31	17.32	-38.0	-38.9	23.4	0.00e+00	2	31	0	708837376	50	5689
2026-01-29 12:29:24.87	86.54	17.31	-38.1	-39.0	23.4	0.00e+00	91	31	0	710934528	50	5755
2026-01-29 12:29:25.88	86.77	17.29	-38.1	-39.0	23.3	0.00e+00	13	31	0	713031680	50	5748
2026-01-29 12:29:26.89	87.00	17.28	-38.1	-39.0	23.1	0.00e+00	15	31	0	715128832	50	5735
2026-01-29 12:29:27.90	87.23	17.27	-38.1	-39.0	23.3	0.00e+00	0	31	0	717225984	50	5748
2026-01-29 12:29:28.91	87.46	17.25	-38.1	-39.0	23.3	0.00e+00	0	31	0	718274560	50	5733
2026-01-29 12:29:29.92	87.68	17.24	-38.2	-39.1	23.2	0.00e+00	91	31	0	720371712	50	5799
2026-01-29 12:29:30.93	87.91	17.22	-38.1	-39.1	23.2	0.00e+00	0	31	0	722468864	50	5769
2026-01-29 12:29:31.94	88.14	17.21	-38.0	-38.9	23.4	0.00e+00	90	31	0	724566016	50	5680
2026-01-29 12:29:32.95	88.37	17.19	-37.9	-38.8	23.4	0.00e+00	67	31	0	726663168	50	5619
2026-01-29 12:29:33.95	88.60	17.18	-37.9	-38.8	23.4	0.00e+00	0	31	0	728760320	50	5620
2026-01-29 12:29:34.96	88.82	17.16	-37.8	-38.7	23.6	0.00e+00	0	31	0	729808896	50	5552
2026-01-29 12:29:35.97	89.05	17.14	-37.8	-38.7	23.6	0.00e+00	0	31	0	731906048	48	6190
2026-01-29 12:29:36.98	89.28	17.13	-37.7	-38.6	23.7	0.00e+00	91	31	0	734003200	48	6104
2026-01-29 12:29:37.99	89.50	17.11	-37.5	-38.4	23.8	0.00e+00	60	31	0	736100352	48	6018
2026-01-29 12:29:39.00	89.73	17.09	-37.4	-38.3	23.8	0.00e+00	92	31	0	738197504	48	5937
2026-01-29 12:29:40.01	89.96	17.07	-37.5	-38.4	23.8	0.00e+00	60	31	0	739246080	48	5978
2026-01-29 12:29:41.02	90.18	17.05	-37.5	-38.4	23.9	0.00e+00	23	31	0	741343232	48	5970
2026-01-29 12:29:42.03	90.41	17.03	-37.5	-38.4	23.8	0.00e+00	53	31	0	743440384	48	5974
2026-01-29 12:29:43.04	90.64	17.01	-37.6	-38.5	23.9	0.00e+00	59	31	0	745537536	48	6045
2026-01-29 12:29:44.05	90.86	16.99	-37.6	-38.5	23.7	0.00e+00	91	31	0	747634688	48	6056
2026-01-29 12:29:45.06	91.09	16.97	-37.4	-38.3	24.0	0.00e+00	17	31	0	748683264	48	5943
2026-01-29 12:29:46.07	91.31	16.95	-37.3	-38.2	24.0	0.00e+00	92	31	0	750780416	48	5848
2026-01-29 12:29:47.07	91.53	16.93	-37.4	-38.3	24.0	0.00e+00	0	31	0	752877568	48	5912
2026-01-29 12:29:48.08	91.76	16.91	-37.3	-38.1	24.0	0.00e+00	86	31	0	754974720	48	5824
2026-01-29 12:29:49.09	91.98	16.89	-37.4	-38.3	23.9	0.00e+00	2	31	0	757071872	48	5943
2026-01-29 12:29:50.10	92.20	16.86	-37.6	-38.5	23.7	0.00e+00	0	31	0	758120448	48	6098
2026-01-29 12:29:51.11	92.43	16.84	-37.8	-38.7	23.4	0.00e+00	12	31	0	760217600	48	6213
2026-01-29 12:29:52.12	92.65	16.82	-37.8	-38.7	23.5	0.00e+00	0	31	0	762314752	48	6222
2026-01-29 12:29:53.13	92.87	16.79	-37.7	-38.6	23.6	0.00e+00	91	31	0	764411904	48	6170
2026-01-29 12:29:54.14	93.10	16.77	-37.6	-38.5	23.7	0.00e+00	0	31	0	766509056	48	6087
2026-01-29 12:29:55.15	93.32	16.75	-37.6	-38.5	23.7	0.00e+00	91	31	0	767557632	48	6044
2026-01-29 12:29:56.16	93.54	16.72	-37.5	-38.4	23.7	0.00e+00	0	31	0	769654784	48	5976
2026-01-29 12:29:57.17	93.76	16.70	-37.2	-38.1	24.0	0.00e+00	65	31	0	771751936	48	5820
2026-01-29 12:29:58.18	93.98	16.67	-37.1	-38.0	24.1	0.00e+00	0	31	0	773849088	48	5740
2026-01-29 12:29:59.19	94.20	16.64	-37.1	-37.9	24.2	0.00e+00	0	31	0	775946240	48	5694
2026-01-29 12:30:00.20	94.42	16.62	-37.1	-37.9	24.3	0.00e+00	91	31	0	776994816	48	5684
2026-01-29 12:30:01.21	94.64	16.59	-36.8	-37.6	24.5	0.00e+00	17	31	0	779091968	48	5477
2026-01-29 12:30:02.21	94.86	16.56	-36.8	-37.7	24.5	0.00e+00	92	31	0	781189120	46	6181
2026-01-29 12:30:03.22	95.08	16.54	-36.6	-37.4	24.7	0.00e+00	0	31	0	783286272	46	5991
2026-01-29 12:30:04.23	95.29	16.51	-36.6	-37.4	24.5	0.00e+00	16	31	0	785383424	46	6015
2026-01-29 12:30:05.24	95.51	16.48	-36.6	-37.4	24.6	0.00e+00	17	31	0	786432000	46	5999
2026-01-29 12:30:06.25	95.73	16.45	-36.6	-37.4	24.7	0.00e+00	21	31	0	788529152	46	6017
2026-01-29 12:30:07.26	95.95	16.42	-36.7	-37.5	24.5	0.00e+00	40	31	0	790626304	46	6059
2026-01-29 12:30:08.27	96.16	16.39	-36.8	-37.6	24.5	0.00e+00	22	31	0	792723456	46	6153
2026-01-29 12:30:09.28	96.38	16.36	-36.9	-37.8	24.2	0.00e+00	92	31	0	794820608	46	6305
2026-01-29 12:30:10.29	96.60	16.33	-36.9	-37.8	24.4	0.00e+00	0	31	0	795869184	46	6259
2026-01-29 12:30:11.30	96.81	16.30	-37.0	-37.9	24.3	0.00e+00	0	31	0	797966336	46	6365
2026-01-29 12:30:12.31	97.03	16.27	-37.1	-38.0	24.2	0.00e+00	0	31	0	800063488	46	6408
2026-01-29 12:30:13.32	97.24	16.24	-37.2	-38.2	24.0	0.00e+00	0	31	0	802160640	46	6543
2026-01-29 12:30:14.33	97.46	16.21	-37.2	-38.1	24.1	0.00e+00	0	31	0	804257792	46	6531
2026-01-29 12:30:15.34	97.67	16.18	-36.8	-37.7	24.5	0.00e+00	2	31	0	805306368	46	6183
2026-01-29 12:30:16.34	97.88	16.15	-36.5	-37.4	24.7	0.00e+00	92	31	0	807403520	46	5975
2026-01-29 12:30:17.35	98.10	16.11	-36.5	-37.3	24.8	0.00e+00	63	31	0	809500672	46	5908
2026-01-29 12:30:18.36	98.31	16.08	-36.6	-37.4	24.7	0.00e+00	92	31	0	811597824	46	6015
2026-01-29 12:30:19.37	98.52	16.05	-36.7	-37.5	24.7	0.00e+00	0	31	0	813694976	46	6065
2026-01-29 12:30:20.38	98.73	16.01	-36.6	-37.4	24.6	0.00e+00	65	31	0	814743552	46	5981
2026-01-29 12:30:21.39	98.94	15.98	-36.6	-37.4	24.6	0.00e+00	49	31	0	816840704	46	6027
2026-01-29 12:30:22.40	99.15	15.95	-36.6	-37.5	24.6	0.00e+00	17	31	0	818937856	46	6037
2026-01-29 12:30:23.41	99.36	15.91	-36.7	-37.5	24.5	0.00e+00	92	31	0	821035008	46	6084
2026-01-29 12:30:24.42	99.57	15.88	-36.9	-37.8	24.3	0.00e+00	16	31	0	823132160	46	6251
2026-01-29 12:30:25.43	99.78	15.84	-37.1	-37.9	24.2	0.00e+00	92	31	0	825229312	46	6375
2026-01-29 12:30:26.44	99.99	15.81	-37.2	-38.0	24.1	0.00e+00	0	31	0	826277888	46	6463
2026-01-29 12:30:27.45	100.20	15.77	-37.1	-38.0	24.2	0.00e+00	6	31	0	828375040	46	6426
2026-01-29 12:30:28.46	100.41	15.74	-37.2	-38.1	24.1	0.00e+00	19	31	0	830472192	46	6477
2026-01-29 12:30:29.46	100.61	15.70	-37.1	-38.0	24.2	0.00e+00	5	31	0	832569344	46	6403
2026-01-29 12:30:30.47	100.82	15.66	-37.1	-37.9	24.2	0.00e+00	44	31	0	834666496	46	6374
2026-01-29 12:30:31.48	101.03	15.63	-37.1	-37.9	24.2	0.00e+00	18	31	0	835715072	46	6360
2026-01-29 12:30:32.49	101.23	15.59	-37.1	-37.9	24.2	0.00e+00	92	31	0	837812224	46	6374
2026-01-29 12:30:33.50	101.44	15.55	-37.1	-38.0	24.0	0.00e+00	7	31	0	839909376	46	6434
2026-01-29 12:30:34.51	101.64	15.51	-37.2	-38.0	23.8	0.00e+00	0	31	0	842006528	46	6460
2026-01-29 12:30:35.51	101.85	15.48	-37.1	-38.0	24.1	0.00e+00	6	31	0	844103680	46	6423
2026-01-29 12:30:36.52	102.05	15.44	-37.1	-37.9	24.2	0.00e+00	0	31	0	845152256	46	6387
2026-01-29 12:30:37.53	102.25	15.40	-37.0	-37.8	24.1	0.00e+00	6	31	0	847249408	46	6309
2026-01-29 12:30:38.54	102.46	15.36	-37.2	-38.0	24.0	0.00e+00	0	31	0	849346560	46	6438
2026-01-29 12:30:39.55	102.66	15.32	-37.2	-38.1	24.0	0.00e+00	92	31	0	851443712	46	6472
2026-01-29 12:30:40.56	102.86	15.28	-37.4	-38.3	23.8	0.00e+00	59	31	0	853540864	46	6619
2026-01-29 12:30:41.57	103.06	15.24	-37.6	-38.5	23.6	0.00e+00	92	31	0	854589440	46	6807
2026-01-29 12:30:42.58	103.26	15.20	-37.9	-38.8	23.3	0.00e+00	60	31	0	856686592	48	6273
2026-01-29 12:30:43.58	103.46	15.16	-38.2	-39.1	23.0	0.00e+00	62	31	0	858783744	48	6526
2026-01-29 12:30:44.59	103.66	15.12	-38.4	-39.4	22.5	0.00e+00	24	31	0	860880896	48	6735
2026-01-29 12:30:45.60	103.86	15.08	-38.5	-39.6	22.6	0.00e+00	20	31	0	862978048	48	6879
2026-01-29 12:30:46.61	104.06	15.04	-38.6	-39.8	22.5	0.00e+00	89	31	0	864026624	48	7039
2026-01-29 12:30:47.62	104.26	15.00	-38.6	-39.9	22.3	0.00e+00	21	31	0	866123776	50	6354
2026-01-29 12:30:48.62	104.45	14.96	-38.7	-40.0	22.2	0.00e+00	91	31	0	868220928	50	6444
2026-01-29 12:30:49.63	104.65	14.92	-38.8	-40.0	22.3	0.00e+00	0	31	0	870318080	50	6432
2026-01-29 12:30:50.64	104.85	14.88	-38.9	-40.0	22.3	0.00e+00	65	31	0	872415232	50	6454
2026-01-29 12:30:51.65	105.04	14.83	-39.1	-40.2	22.1	0.00e+00	23	31	0	873463808	50	6584
2026-01-29 12:30:52.65	105.24	14.79	-38.9	-40.0	22.3	0.00e+00	7	31	0	875560960	50	6409
2026-01-29 12:30:53.66	105.43	14.75	-38.9	-40.0	22.3	0.00e+00	51	31	0	877658112	50	6400
2026-01-29 12:30:54.67	105.63	14.71	-38.9	-39.9	22.4	0.00e+00	7	31	0	879755264	50	6387
2026-01-29 12:30:55.68	105.82	14.66	-38.8	-39.9	22.5	0.00e+00	92	31	0	881852416	50	6344
2026-01-29 12:30:56.69	106.02	14.62	-38.6	-39.7	22.7	0.00e+00	21	31	0	882900992	50	6174
2026-01-29 12:30:57.70	106.21	14.58	-38.6	-39.6	22.7	0.00e+00	92	31	0	884998144	50	6154
2026-01-29 12:30:58.71	106.40	14.53	-38.5	-39.5	22.7	0.00e+00	0	31	0	887095296	50	6088
2026-01-29 12:30:59.71	106.59	14.49	-38.4	-39.6	22.7	0.00e+00	8	31	0	889192448	50	6118
2026-01-29 12:31:00.72	106.78	14.44	-38.4	-39.7	22.7	0.00e+00	0	31	0	891289600	50	6185
2026-01-29 12:31:01.73	106.97	14.40	-38.6	-39.8	22.5	0.00e+00	6	31	0	892338176	50	6274
2026-01-29 12:31:02.74	107.16	14.36	-38.7	-39.9	22.5	0.00e+00	90	31	0	894435328	50	6325
2026-01-29 12:31:03.74	107.35	14.31	-38.8	-40.0	22.4	0.00e+00	0	31	0	896532480	50	6397
2026-01-29 12:31:04.75	107.54	14.27	-38.8	-40.0	22.4	0.00e+00	92	31	0	898629632	50	6411
2026-01-29 12:31:05.76	107.73	14.22	-39.0	-40.1	22.2	0.00e+00	0	31	0	900726784	50	6492
2026-01-29 12:31:06.77	107.92	14.18	-39.1	-40.2	22.1	0.00e+00	0	31	0	901775360	50	6576
2026-01-29 12:31:07.78	108.10	14.13	-39.2	-40.3	21.9	0.00e+00	53	31	0	903872512	50	6632
2026-01-29 12:31:08.79	108.29	14.08	-39.3	-40.4	21.7	0.00e+00	60	31	0	905969664	50	6747
2026-01-29 12:31:09.80	108.48	14.04	-39.4	-40.5	21.7	0.00e+00	59	31	0	908066816	50	6808
2026-01-29 12:31:10.81	108.66	13.99	-39.5	-40.6	21.7	0.00e+00	23	31	0	910163968	50	6911
2026-01-29 12:31:11.82	108.85	13.95	-39.5	-40.7	21.6	0.00e+00	92	31	0	911212544	50	6932
2026-01-29 12:31:12.83	109.03	13.90	-39.3	-40.4	21.9	0.00e+00	60	31	0	913309696	50	6715
2026-01-29 12:31:13.84	109.22	13.85	-39.3	-40.3	21.9	0.00e+00	92	31	0	915406848	50	6688
2026-01-29 12:31:14.85	109.40	13.81	-39.1	-40.2	22.1	0.00e+00	0	31	0	917504000	50	6540
2026-01-29 12:31:15.86	109.58	13.76	-39.0	-40.0	22.2	0.00e+00	18	31	0	919601152	50	6413
2026-01-29 12:31:16.87	109.77	13.71	-39.0	-40.1	22.3	0.00e+00	0	31	0	921698304	50	6466
2026-01-29 12:31:17.88	109.95	13.66	-39.0	-40.0	22.2	0.00e+00	17	31	0	922746880	50	6459
2026-01-29 12:31:18.89	110.13	13.62	-39.0	-40.0	22.3	0.00e+00	92	31	0	924844032	50	6425
2026-01-29 12:31:19.90	110.31	13.57	-39.0	-40.1	22.1	0.00e+00	2	31	0	926941184	50	6503
2026-01-29 12:31:20.91	110.49	13.52	-39.0	-40.1	22.2	0.00e+00	92	31	0	929038336	50	6487
2026-01-29 12:31:21.92	110.67	13.47	-38.8	-39.8	22.4	0.00e+00	2	31	0	931135488	50	6287
2026-01-29 12:31:22.93	110.85	13.42	-38.7	-39.7	22.5	0.00e+00	0	31	0	932184064	50	6210
2026-01-29 12:31:23.94	111.03	13.38	-38.5	-39.5	22.6	0.00e+00	0	31	0	934281216	50	6084
2026-01-29 12:31:24.95	111.20	13.33	-38.3	-39.3	22.8	0.00e+00	63	31	0	936378368	50	5914
2026-01-29 12:31:25.96	111.38	13.28	-38.1	-39.1	23.0	0.00e+00	92	31	0	938475520	50	5770
2026-01-29 12:31:26.97	111.56	13.23	-38.0	-38.9	23.1	0.00e+00	63	31	0	940572672	50	5682
2026-01-29 12:31:27.98	111.73	13.18	-38.1	-39.1	22.9	0.00e+00	92	31	0	941621248	50	5763
2026-01-29 12:31:28.99	111.91	13.13	-38.0	-38.9	23.1	0.00e+00	63	31	0	943718400	50	5694
2026-01-29 12:31:29.99	112.08	13.08	-38.1	-39.1	23.0	0.00e+00	19	31	0	945815552	50	5790
2026-01-29 12:31:31.00	112.26	13.03	-38.3	-39.3	22.9	0.00e+00	3	31	0	947912704	50	5904
2026-01-29 12:31:32.01	112.43	12.98	-38.2	-39.2	22.7	0.00e+00	17	31	0	950009856	50	5862
2026-01-29 12:31:33.02	112.61	12.93	-38.5	-39.5	22.7	0.00e+00	90	31	0	951058432	50	6060
2026-01-29 12:31:34.03	112.78	12.88	-38.6	-39.6	22.6	0.00e+00	17	31	0	953155584	50	6160
2026-01-29 12:31:35.04	112.95	12.83	-38.9	-40.0	22.2	0.00e+00	92	31	0	955252736	50	6412
2026-01-29 12:31:36.05	113.12	12.78	-38.8	-39.9	22.2	0.00e+00	22	31	0	957349888	50	6337
2026-01-29 12:31:37.06	113.29	12.73	-38.9	-40.0	22.2	0.00e+00	57	31	0	959447040	50	6393
2026-01-29 12:31:38.06	113.46	12.68	-39.0	-40.1	22.0	0.00e+00	23	31	0	960495616	50	6474
2026-01-29 12:31:39.07	113.63	12.63	-39.1	-40.2	22.0	0.00e+00	0	31	0	962592768	50	6545
2026-01-29 12:31:40.08	113.80	12.58	-39.1	-40.1	22.0	0.00e+00	33	31	0	964689920	50	6535
2026-01-29 12:31:41.09	113.97	12.53	-39.1	-40.2	21.9	0.00e+00	0	31	0	966787072	50	6599
2026-01-29 12:31:42.10	114.14	12.48	-38.6	-39.6	22.4	0.00e+00	92	31	0	968884224	50	6168
2026-01-29 12:31:43.11	114.31	12.43	-38.2	-39.2	22.8	0.00e+00	0	31	0	969932800	50	5881
2026-01-29 12:31:44.12	114.47	12.38	-37.9	-39.0	23.0	0.00e+00	92	31	0	972029952	50	5727
2026-01-29 12:31:45.13	114.64	12.33	-38.0	-39.0	23.0	0.00e+00	2	31	0	974127104	50	5759
2026-01-29 12:31:46.14	114.81	12.28	-37.7	-38.7	23.3	0.00e+00	0	31	0	976224256	48	6237
2026-01-29 12:31:47.15	114.97	12.22	-37.5	-38.5	23.5	0.00e+00	0	31	0	978321408	48	6037
2026-01-29 12:31:48.16	115.14	12.17	-37.5	-38.4	23.6	0.00e+00	0	31	0	979369984	48	6017
2026-01-29 12:31:49.17	115.30	12.12	-37.7	-38.6	23.4	0.00e+00	90	31	0	981467136	48	6130
2026-01-29 12:31:50.18	115.47	12.07	-37.9	-38.9	23.1	0.00e+00	65	31	0	983564288	48	6320
2026-01-29 12:31:51.19	115.63	12.02	-38.0	-39.0	23.1	0.00e+00	90	31	0	985661440	48	6421
2026-01-29 12:31:52.20	115.79	11.97	-38.0	-39.0	23.0	0.00e+00	65	31	0	987758592	48	6447
2026-01-29 12:31:53.21	115.95	11.91	-38.0	-39.0	23.1	0.00e+00	80	31	0	989855744	48	6406
2026-01-29 12:31:54.22	116.12	11.86	-38.0	-39.0	23.0	0.00e+00	0	31	0	990904320	48	6440
2026-01-29 12:31:55.22	116.27	11.81	-37.9	-38.9	22.9	0.00e+00	0	31	0	993001472	48	6383
2026-01-29 12:31:56.23	116.44	11.76	-37.9	-38.9	23.1	0.00e+00	0	31	0	995098624	48	6376
2026-01-29 12:31:57.24	116.60	11.71	-38.0	-39.0	23.1	0.00e+00	64	31	0	997195776	48	6416
2026-01-29 12:31:58.25	116.75	11.65	-37.9	-38.9	23.2	0.00e+00	92	31	0	999292928	48	6320
2026-01-29 12:31:59.26	116.91	11.60	-38.0	-39.0	23.0	0.00e+00	19	31	0	1000341504	48	6396
2026-01-29 12:32:00.27	117.07	11.55	-38.1	-39.0	23.0	0.00e+00	66	31	0	1002438656	48	6453
2026-01-29 12:32:01.28	117.23	11.49	-38.3	-39.2	22.9	0.00e+00	19	31	0	1004535808	48	6600
2026-01-29 12:32:02.29	117.39	11.44	-38.2	-39.1	23.0	0.00e+00	0	31	0	1006632960	48	6527
2026-01-29 12:32:03.30	117.54	11.39	-38.2	-39.2	22.9	0.00e+00	0	31	0	1008730112	48	6553
2026-01-29 12:32:04.31	117.70	11.34	-38.1	-39.0	23.0	0.00e+00	0	31	0	1009778688	48	6456
2026-01-29 12:32:05.32	117.86	11.28	-37.9	-38.9	23.1	0.00e+00	92	31	0	1011875840	48	6352
2026-01-29 12:32:06.33	118.01	11.23	-38.0	-38.9	23.1	0.00e+00	2	31	0	1013972992	48	6367
2026-01-29 12:32:07.34	118.16	11.18	-37.7	-38.7	23.3	0.00e+00	92	31	0	1016070144	48	6193
2026-01-29 12:32:08.35	118.32	11.12	-37.8	-38.8	23.2	0.00e+00	0	31	0	1018167296	48	6252
2026-01-29 12:32:09.36	118.47	11.07	-37.7	-38.6	23.3	0.00e+00	0	31	0	1019215872	48	6145
2026-01-29 12:32:10.37	118.63	11.02	-37.7	-38.7	23.2	0.00e+00	0	31	0	1021313024	48	6185
2026-01-29 12:32:11.38	118.78	10.96	-37.9	-38.9	23.1	0.00e+00	0	31	0	1023410176	48	6355
2026-01-29 12:32:12.39	118.93	10.91	-38.2	-39.3	22.7	0.00e+00	92	31	0	1025507328	48	6618
2026-01-29 12:32:13.40	119.08	10.86	-38.3	-39.3	22.7	0.00e+00	55	31	0	1027604480	48	6668
2026-01-29 12:32:14.41	119.23	10.80	-38.6	-39.6	22.4	0.00e+00	92	31	0	1028653056	48	6885
2026-01-29 12:32:15.42	119.38	10.75	-38.3	-39.3	22.6	0.00e+00	62	31	0	1030750208	48	6634
2026-01-29 12:32:16.43	119.53	10.70	-38.3	-39.3	22.7	0.00e+00	20	31	0	1032847360	48	6651
2026-01-29 12:32:17.44	119.68	10.64	-38.1	-39.1	22.9	0.00e+00	20	31	0	1034944512	48	6525
2026-01-29 12:32:18.45	119.83	10.59	-38.1	-39.0	23.0	0.00e+00	0	31	0	1037041664	48	6448
2026-01-29 12:32:19.46	119.98	10.53	-38.0	-39.0	23.0	0.00e+00	49	31	0	1038090240	48	6394
2026-01-29 12:32:20.47	120.12	10.48	-37.8	-38.8	23.2	0.00e+00	6	31	0	1040187392	48	6259
2026-01-29 12:32:21.48	120.27	10.43	-37.9	-38.9	23.1	0.00e+00	91	31	0	1042284544	48	6318
2026-01-29 12:32:22.49	120.42	10.37	-37.9	-38.9	23.1	0.00e+00	20	31	0	1044381696	48	6339
2026-01-29 12:32:23.50	120.56	10.32	-38.1	-39.0	22.9	0.00e+00	92	31	0	1046478848	48	6445
2026-01-29 12:32:24.51	120.71	10.26	-38.3	-39.2	22.8	0.00e+00	0	31	0	1047527424	48	6606
2026-01-29 12:32:25.52	120.85	10.21	-38.4	-39.4	22.6	0.00e+00	0	31	0	1049624576	48	6727
2026-01-29 12:32:26.53	121.00	10.16	-38.5	-39.6	22.5	0.00e+00	0	31	0	1051721728	48	6858
2026-01-29 12:32:27.54	121.14	10.10	-38.6	-39.6	22.4	0.00e+00	0	31	0	1053818880	48	6888
2026-01-29 12:32:28.55	121.29	10.05	-38.6	-39.7	22.3	0.00e+00	90	31	0	1055916032	48	6937
2026-01-29 12:32:29.56	121.43	9.99	-38.7	-39.7	22.2	0.00e+00	62	31	0	1058013184	48	6985
2026-01-29 12:32:30.56	121.57	9.94	-38.5	-39.5	22.5	0.00e+00	92	31	0	1059061760	48	6772
2026-01-29 12:32:31.57	121.71	9.88	-38.4	-39.4	22.7	0.00e+00	0	31	0	1061158912	48	6731
2026-01-29 12:32:32.58	121.85	9.83	-38.0	-38.9	23.0	0.00e+00	61	31	0	1063256064	48	6378
2026-01-29 12:32:33.59	121.99	9.78	-37.9	-38.9	23.1	0.00e+00	0	31	0	1065353216	48	6319
2026-01-29 12:32:34.60	122.14	9.72	-38.0	-39.0	23.0	0.00e+00	25	31	0	1067450368	48	6432
2026-01-29 12:32:35.61	122.28	9.67	-38.1	-39.0	22.9	0.00e+00	92	31	0	1068498944	48	6448
2026-01-29 12:32:36.62	122.41	9.61	-38.2	-39.2	22.8	0.00e+00	54	31	0	1070596096	48	6551
2026-01-29 12:32:37.63	122.55	9.56	-38.4	-39.4	22.6	0.00e+00	90	31	0	1072693248	48	6704
2026-01-29 12:32:38.64	122.69	9.50	-38.5	-39.5	22.4	0.00e+00	54	31	0	1074790400	48	6800
2026-01-29 12:32:39.65	122.83	9.45	-38.7	-39.7	22.3	0.00e+00	30	31	0	1076887552	48	6969
2026-01-29 12:32:40.66	122.97	9.39	-38.7	-39.8	22.3	0.00e+00	5	31	0	1077936128	50	6269
2026-01-29 12:32:41.67	123.10	9.34	-38.7	-39.8	22.2	0.00e+00	0	31	0	1080033280	50	6272
2026-01-29 12:32:42.68	123.24	9.28	-38.6	-39.6	22.3	0.00e+00	41	31	0	1082130432	50	6173
2026-01-29 12:32:43.69	123.38	9.23	-38.6	-39.6	22.3	0.00e+00	34	31	0	1084227584	50	6156
2026-01-29 12:32:44.70	123.51	9.17	-38.6	-39.7	22.3	0.00e+00	92	31	0	1086324736	50	6187
2026-01-29 12:32:45.71	123.65	9.12	-38.6	-39.6	22.3	0.00e+00	0	31	0	1087373312	50	6148
2026-01-29 12:32:46.72	123.78	9.07	-38.7	-39.7	22.2	0.00e+00	92	31	0	1089470464	50	6227
2026-01-29 12:32:47.73	123.92	9.01	-38.7	-39.7	22.2	0.00e+00	7	31	0	1091567616	50	6205
2026-01-29 12:32:48.74	124.05	8.96	-38.8	-39.8	22.1	0.00e+00	7	31	0	1093664768	50	6317
2026-01-29 12:32:49.75	124.18	8.90	-38.9	-39.9	22.0	0.00e+00	0	31	0	1095761920	50	6390
2026-01-29 12:32:50.76	124.31	8.85	-39.0	-40.1	21.8	0.00e+00	61	31	0	1096810496	50	6517
2026-01-29 12:32:51.77	124.45	8.79	-39.2	-40.3	21.7	0.00e+00	92	31	0	1098907648	50	6680
2026-01-29 12:32:52.78	124.58	8.74	-39.3	-40.4	21.6	0.00e+00	61	31	0	1101004800	50	6737
2026-01-29 12:32:53.79	124.71	8.68	-39.4	-40.6	21.4	0.00e+00	92	31	0	1103101952	50	6851
2026-01-29 12:32:54.80	124.84	8.63	-39.4	-40.6	21.4	0.00e+00	20	31	0	1105199104	50	6867
2026-01-29 12:32:55.81	124.97	8.57	-39.6	-40.8	21.2	0.00e+00	62	31	0	1106247680	50	7044
2026-01-29 12:32:56.82	125.10	8.52	-39.2	-40.4	21.4	0.00e+00	20	31	0	1108344832	50	6711
2026-01-29 12:32:57.83	125.23	8.46	-39.2	-40.4	21.3	0.00e+00	19	31	0	1110441984	50	6693
2026-01-29 12:32:58.84	125.36	8.41	-39.3	-40.4	21.6	0.00e+00	88	31	0	1112539136	50	6759
2026-01-29 12:32:59.85	125.49	8.35	-39.2	-40.3	21.6	0.00e+00	21	31	0	1114636288	50	6618
2026-01-29 12:33:00.86	125.61	8.30	-39.0	-40.1	21.8	0.00e+00	91	31	0	1115684864	50	6532
2026-01-29 12:33:01.87	125.74	8.24	-39.1	-40.3	21.7	0.00e+00	18	31	0	1117782016	50	6629
2026-01-29 12:33:02.88	125.87	8.19	-39.2	-40.4	21.5	0.00e+00	91	31	0	1119879168	50	6742
2026-01-29 12:33:03.89	125.99	8.13	-39.4	-40.6	21.1	0.00e+00	0	31	0	1121976320	50	6868
2026-01-29 12:33:04.90	126.12	8.08	-39.4	-40.6	21.0	0.00e+00	0	31	0	1124073472	50	6881
2026-01-29 12:33:05.91	126.25	8.02	-39.5	-40.7	21.2	0.00e+00	70	31	0	1126170624	50	6986
2026-01-29 12:33:06.92	126.37	7.97	-39.5	-40.6	21.3	0.00e+00	0	31	0	1127219200	50	6921
2026-01-29 12:33:07.92	126.49	7.91	-39.5	-40.7	21.3	0.00e+00	92	31	0	1129316352	50	6944
2026-01-29 12:33:08.93	126.62	7.86	-39.6	-40.8	21.1	0.00e+00	0	31	0	1131413504	50	7042
2026-01-29 12:33:09.94	126.74	7.80	-39.7	-41.0	21.0	0.00e+00	92	31	0	1133510656	52	6405
2026-01-29 12:33:10.95	126.86	7.75	-39.6	-40.8	21.2	0.00e+00	0	31	0	1135607808	52	6309
2026-01-29 12:33:11.96	126.99	7.69	-39.6	-40.8	21.3	0.00e+00	56	31	0	1136656384	52	6252
2026-01-29 12:33:12.97	127.11	7.64	-39.5	-40.7	21.3	0.00e+00	0	31	0	1138753536	52	6186
2026-01-29 12:33:13.98	127.23	7.58	-39.5	-40.7	21.2	0.00e+00	0	31	0	1140850688	52	6190
2026-01-29 12:33:14.99	127.35	7.53	-39.6	-40.7	21.1	0.00e+00	92	31	0	1142947840	52	6242
2026-01-29 12:33:16.00	127.47	7.48	-39.4	-40.5	21.4	0.00e+00	60	31	0	1145044992	52	6079
2026-01-29 12:33:17.01	127.60	7.42	-39.5	-40.6	21.3	0.00e+00	90	31	0	1146093568	52	6173
2026-01-29 12:33:18.02	127.72	7.37	-39.6	-40.8	21.1	0.00e+00	21	31	0	1148190720	52	6292
2026-01-29 12:33:19.02	127.83	7.31	-39.7	-40.9	21.0	0.00e+00	24	31	0	1150287872	52	6376
2026-01-29 12:33:20.03	127.95	7.26	-39.8	-41.1	20.8	0.00e+00	19	31	0	1152385024	52	6507
2026-01-29 12:33:21.04	128.07	7.20	-39.9	-41.3	20.7	0.00e+00	0	31	0	1154482176	52	6621
2026-01-29 12:33:22.05	128.19	7.15	-40.1	-41.5	20.5	0.00e+00	91	31	0	1155530752	52	6779
2026-01-29 12:33:23.06	128.31	7.09	-40.3	-41.7	20.3	0.00e+00	0	31	0	1157627904	52	6941
2026-01-29 12:33:24.07	128.43	7.04	-40.3	-41.7	20.3	0.00e+00	92	31	0	1159725056	52	6940
2026-01-29 12:33:25.07	128.54	6.98	-40.2	-41.6	20.3	0.00e+00	22	31	0	1161822208	52	6886
2026-01-29 12:33:26.08	128.66	6.93	-40.2	-41.6	20.3	0.00e+00	92	31	0	1163919360	52	6891
2026-01-29 12:33:27.09	128.78	6.87	-40.0	-41.3	20.7	0.00e+00	0	31	0	1164967936	52	6623
2026-01-29 12:33:28.11	128.89	6.82	-40.0	-41.3	20.6	0.00e+00	0	31	0	1167065088	52	6648
2026-01-29 12:33:29.11	129.01	6.77	-40.0	-41.4	20.5	0.00e+00	0	31	0	1169162240	52	6694
2026-01-29 12:33:30.12	129.12	6.71	-40.1	-41.4	20.5	0.00e+00	0	31	0	1171259392	52	6714
2026-01-29 12:33:31.14	129.24	6.66	-39.9	-41.2	20.7	0.00e+00	92	31	0	1173356544	52	6558
2026-01-29 12:33:32.15	129.35	6.60	-40.0	-41.3	20.6	0.00e+00	0	31	0	1174405120	52	6637
2026-01-29 12:33:33.16	129.47	6.55	-40.0	-41.3	20.6	0.00e+00	92	31	0	1176502272	52	6630
2026-01-29 12:33:34.17	129.58	6.49	-40.0	-41.4	20.4	0.00e+00	0	31	0	1178599424	52	6711
2026-01-29 12:33:35.17	129.69	6.44	-40.0	-41.4	20.4	0.00e+00	0	31	0	1180696576	52	6717
2026-01-29 12:33:36.19	129.81	6.38	-40.2	-41.6	20.3	0.00e+00	0	31	0	1182793728	52	6874
2026-01-29 12:33:37.20	129.92	6.33	-40.3	-41.7	20.3	0.00e+00	27	31	0	1183842304	52	6944
2026-01-29 12:33:38.21	130.03	6.27	-40.1	-41.4	20.5	0.00e+00	91	31	0	1185939456	52	6713
2026-01-29 12:33:39.22	130.14	6.22	-40.0	-41.3	20.6	0.00e+00	0	31	0	1188036608	52	6659
2026-01-29 12:33:40.23	130.25	6.17	-40.2	-41.5	20.4	0.00e+00	92	31	0	1190133760	52	6838
2026-01-29 12:33:41.23	130.36	6.11	-40.0	-41.3	20.5	0.00e+00	27	31	0	1192230912	52	6678
2026-01-29 12:33:42.25	130.47	6.06	-39.9	-41.2	20.7	0.00e+00	2	31	0	1194328064	52	6580
2026-01-29 12:33:43.26	130.58	6.00	-40.0	-41.3	20.6	0.00e+00	2	31	0	1195376640	52	6629
2026-01-29 12:33:44.26	130.69	5.95	-40.0	-41.3	20.6	0.00e+00	20	31	0	1197473792	52	6621
2026-01-29 12:33:45.27	130.80	5.89	-39.9	-41.2	20.6	0.00e+00	37	31	0	1199570944	52	6608
2026-01-29 12:33:46.28	130.91	5.84	-40.0	-41.3	20.6	0.00e+00	0	31	0	1201668096	52	6658
2026-01-29 12:33:47.29	131.02	5.79	-40.0	-41.4	20.5	0.00e+00	91	31	0	1202716672	52	6694
2026-01-29 12:33:48.30	131.13	5.73	-40.1	-41.5	20.3	0.00e+00	2	31	0	1204813824	52	6796
2026-01-29 12:33:49.31	131.23	5.68	-40.4	-41.8	20.1	0.00e+00	6	31	0	1206910976	52	7022
