passes_logs/2026/01/29/R4.6S_Anadyr/R4.6S_Anadyr__20260129_010701_NOAA_21_JPSS-2_rec.log

#Pass ID: 20260129_010701_NOAA 21 (JPSS-2)
#Satellite: NOAA 21 (JPSS-2)
#Configuration: NOAA-21
#almurnet v.1.7.20251203
#Start time: 2026-01-29 01:07:02

#Version: 2.2.20231116
#Station: R4.6S_Anadyr
#Location: 177.4865 lon 64.73178 lat
#TLE: 1 54234U 22150A   26027.91149249  .00000141  00000+0  87546-4 0  9993
#TLE: 2 54234  98.7510 328.6558 0000880 202.8718 157.2419 14.19540177166642

#Time	Az	El	Level	Level2	SNR	BER	BlckErr	Temp	State	Recorded	gain1	gain2
2026-01-29 01:07:02.14	178.95	0.05	-45.5	-59.9	3.5	1.51e+00	0	28	0	0	60	40134
2026-01-29 01:07:03.14	178.98	0.11	-48.7	-61.5	3.5	1.52e+00	0	30	104	0	60	41842
2026-01-29 01:07:04.16	179.01	0.17	-48.5	-61.6	3.5	1.52e+00	0	30	104	0	60	41959
2026-01-29 01:07:05.16	179.04	0.23	-48.7	-61.5	3.5	1.52e+00	0	30	104	0	60	41846
2026-01-29 01:07:06.17	179.07	0.29	-48.6	-61.5	3.5	1.52e+00	0	30	104	0	60	41841
2026-01-29 01:07:07.18	179.11	0.35	-48.6	-61.5	3.5	1.52e+00	0	30	104	0	60	41876
2026-01-29 01:07:08.19	179.14	0.41	-48.7	-61.5	3.5	1.52e+00	0	30	104	0	60	41903
2026-01-29 01:07:09.20	179.17	0.47	-48.7	-61.6	3.5	1.52e+00	0	30	104	0	60	42044
2026-01-29 01:07:10.21	179.20	0.53	-48.7	-61.6	3.5	1.52e+00	0	30	104	0	60	42087
2026-01-29 01:07:11.22	179.23	0.59	-48.7	-61.6	3.5	1.52e+00	0	30	104	0	60	42289
2026-01-29 01:07:12.23	179.26	0.65	-48.7	-61.6	3.5	1.52e+00	0	30	104	0	60	42375
2026-01-29 01:07:13.24	179.29	0.71	-48.7	-61.7	3.5	1.52e+00	0	30	104	0	60	42489
2026-01-29 01:07:14.25	179.32	0.77	-48.6	-61.5	3.5	1.52e+00	0	30	104	0	60	41941
2026-01-29 01:07:15.26	179.36	0.83	-48.7	-61.6	3.5	1.52e+00	0	30	104	0	60	42074
2026-01-29 01:07:16.27	179.39	0.89	-48.7	-61.6	3.5	1.52e+00	0	30	104	0	60	42090
2026-01-29 01:07:17.28	179.42	0.95	-48.6	-61.5	3.5	1.52e+00	0	30	104	0	60	41553
2026-01-29 01:07:18.29	179.45	1.01	-48.3	-61.5	3.5	1.52e+00	0	30	104	0	60	41615
2026-01-29 01:07:19.30	179.48	1.07	-48.4	-61.4	3.5	1.52e+00	0	30	104	0	60	41230
2026-01-29 01:07:20.31	179.52	1.14	-48.3	-61.3	3.5	1.52e+00	0	30	104	0	60	40584
2026-01-29 01:07:21.32	179.55	1.20	-48.3	-61.2	3.5	1.52e+00	0	30	104	0	60	40110
2026-01-29 01:07:22.33	179.58	1.26	-48.1	-60.9	3.5	1.52e+00	0	30	104	0	60	39064
2026-01-29 01:07:23.34	179.62	1.32	-48.0	-60.8	3.5	1.52e+00	0	30	104	0	60	38678
2026-01-29 01:07:24.35	179.65	1.38	-47.9	-60.7	3.5	1.52e+00	0	30	104	0	60	38102
2026-01-29 01:07:25.36	179.68	1.44	-47.6	-60.5	3.5	1.52e+00	0	30	104	0	60	37000
2026-01-29 01:07:26.37	179.71	1.50	-47.3	-60.1	3.5	1.52e+00	0	30	104	0	60	35622
2026-01-29 01:07:27.38	179.75	1.57	-47.3	-60.1	3.5	1.52e+00	0	30	104	0	60	35652
2026-01-29 01:07:28.39	179.78	1.63	-47.3	-60.1	3.5	1.52e+00	0	30	104	0	60	35345
2026-01-29 01:07:29.40	179.81	1.69	-47.3	-60.0	3.5	1.52e+00	0	30	104	0	60	35246
2026-01-29 01:07:30.41	179.85	1.75	-47.3	-60.0	3.5	1.52e+00	0	30	104	0	60	34981
2026-01-29 01:07:31.42	179.88	1.82	-47.3	-60.0	3.5	1.51e+00	0	30	104	0	60	35051
2026-01-29 01:07:32.43	179.92	1.88	-47.3	-60.1	3.5	1.52e+00	0	30	104	0	60	35318
2026-01-29 01:07:33.44	179.95	1.94	-47.3	-60.0	3.5	1.52e+00	0	30	104	0	60	35244
2026-01-29 01:07:34.45	179.98	2.00	-47.3	-60.0	3.5	1.51e+00	0	30	104	0	60	35268
2026-01-29 01:07:35.46	180.02	2.07	-47.3	-60.1	3.5	1.52e+00	0	30	104	0	60	35346
2026-01-29 01:07:36.47	180.05	2.13	-47.3	-60.0	3.5	1.52e+00	0	30	104	0	60	35063
2026-01-29 01:07:37.48	180.09	2.19	-47.3	-60.1	3.5	1.52e+00	0	30	104	0	60	35426
2026-01-29 01:07:38.49	180.12	2.26	-47.3	-60.1	3.5	1.52e+00	0	30	104	0	60	35302
2026-01-29 01:07:39.50	180.16	2.32	-47.3	-60.1	3.5	1.52e+00	0	30	104	0	60	35433
2026-01-29 01:07:40.51	180.19	2.38	-47.3	-59.8	3.5	1.51e+00	0	30	104	0	60	34385
2026-01-29 01:07:41.52	180.23	2.45	-47.3	-59.9	3.5	1.52e+00	0	30	104	0	60	34816
2026-01-29 01:07:42.53	180.26	2.51	-47.2	-59.1	3.5	1.52e+00	0	30	104	0	60	31728
2026-01-29 01:07:43.54	180.30	2.58	-47.2	-58.7	3.5	1.51e+00	0	31	104	0	60	30233
2026-01-29 01:07:44.55	180.33	2.64	-47.2	-58.8	3.6	1.51e+00	0	30	104	0	60	30631
2026-01-29 01:07:45.56	180.37	2.70	-47.2	-59.0	3.5	1.51e+00	0	30	104	0	60	31304
2026-01-29 01:07:46.57	180.40	2.77	-47.2	-59.7	3.5	1.52e+00	0	30	104	0	60	33783
2026-01-29 01:07:47.58	180.44	2.83	-47.2	-59.8	3.5	1.52e+00	0	31	104	0	60	34280
2026-01-29 01:07:48.59	180.48	2.90	-47.0	-57.5	3.9	1.51e+00	0	30	104	0	60	26247
2026-01-29 01:07:49.60	180.51	2.96	-46.2	-51.9	6.7	3.24e-01	0	30	0	1048576	60	13866
2026-01-29 01:07:50.61	180.55	3.03	-44.9	-48.7	10.7	1.72e-02	0	31	0	4194304	60	9503
2026-01-29 01:07:51.62	180.58	3.09	-43.7	-46.5	13.0	1.61e-04	0	31	0	7340032	60	7436
2026-01-29 01:07:52.63	180.62	3.16	-42.1	-44.1	15.3	3.00e-06	0	31	0	10485760	58	6350
2026-01-29 01:07:53.64	180.66	3.22	-41.2	-42.9	16.6	0.00e+00	0	31	0	13631488	56	6187
2026-01-29 01:07:54.65	180.69	3.29	-39.4	-40.8	18.5	0.00e+00	0	30	0	16777216	52	6115
2026-01-29 01:07:55.66	180.73	3.36	-39.2	-40.6	18.7	0.00e+00	0	31	0	19922944	52	5943
2026-01-29 01:07:56.67	180.77	3.42	-38.2	-39.5	19.7	0.00e+00	0	30	0	23068672	50	5859
2026-01-29 01:07:57.68	180.81	3.49	-37.9	-39.1	19.9	0.00e+00	0	30	0	26214400	50	5658
2026-01-29 01:07:58.69	180.84	3.55	-38.1	-39.4	19.7	0.00e+00	0	31	0	29360128	50	5823
2026-01-29 01:07:59.70	180.88	3.62	-38.9	-40.3	18.9	0.00e+00	0	30	0	32505856	50	6444
2026-01-29 01:08:00.71	180.92	3.69	-38.3	-39.6	19.5	0.00e+00	0	31	0	35651584	50	5936
2026-01-29 01:08:01.72	180.96	3.75	-46.0	-51.7	6.1	1.94e-04	0	31	0	38797312	60	13481
2026-01-29 01:08:02.72	180.99	3.82	-39.1	-40.8	18.1	0.00e+00	0	31	104	38797312	50	6862
2026-01-29 01:08:03.73	181.03	3.89	-43.3	-45.8	14.1	0.00e+00	0	31	0	40894464	56	8597
2026-01-29 01:08:04.74	181.07	3.95	-42.9	-45.4	12.5	0.00e+00	0	30	0	44040192	54	9243
2026-01-29 01:08:05.75	181.11	4.02	-41.0	-42.7	17.7	0.00e+00	0	31	0	47185920	56	6009
2026-01-29 01:08:06.76	181.15	4.09	-39.7	-41.1	18.4	0.00e+00	0	31	0	50331648	52	6347
2026-01-29 01:08:07.77	181.19	4.16	-39.6	-41.0	18.8	0.00e+00	0	31	0	53477376	52	6273
2026-01-29 01:08:08.78	181.23	4.22	-39.7	-41.1	18.5	0.00e+00	0	31	0	56623104	52	6340
2026-01-29 01:08:09.79	181.27	4.29	-38.1	-39.3	20.1	0.00e+00	0	31	0	59768832	50	5736
2026-01-29 01:08:10.80	181.31	4.36	-38.5	-39.7	19.6	0.00e+00	0	31	0	62914560	50	6056
2026-01-29 01:08:11.81	181.35	4.43	-38.8	-40.1	19.5	0.00e+00	0	31	0	66060288	50	6287
2026-01-29 01:08:12.82	181.39	4.50	-38.6	-39.9	19.8	0.00e+00	0	31	0	69206016	50	6145
2026-01-29 01:08:13.83	181.43	4.57	-38.8	-40.1	19.6	0.00e+00	0	31	0	72351744	50	6317
2026-01-29 01:08:14.84	181.47	4.63	-38.8	-40.1	19.7	0.00e+00	0	31	0	75497472	50	6280
2026-01-29 01:08:15.85	181.51	4.70	-38.1	-39.3	20.1	0.00e+00	0	31	0	78643200	50	5761
2026-01-29 01:08:16.86	181.55	4.77	-38.5	-39.8	20.0	0.00e+00	0	31	0	81788928	50	6089
2026-01-29 01:08:17.87	181.59	4.84	-39.0	-40.3	19.5	0.00e+00	0	31	0	84934656	50	6424
2026-01-29 01:08:18.88	181.63	4.91	-37.6	-38.7	20.8	0.00e+00	0	31	0	88080384	48	6051
2026-01-29 01:08:19.89	181.67	4.98	-37.7	-38.9	20.7	0.00e+00	0	31	0	91226112	48	6165
2026-01-29 01:08:20.90	181.71	5.05	-37.1	-38.3	21.2	0.00e+00	0	31	0	94371840	48	5728
2026-01-29 01:08:21.91	181.75	5.12	-37.4	-38.5	21.0	0.00e+00	0	31	0	97517568	48	5881
2026-01-29 01:08:22.91	181.79	5.19	-37.2	-38.3	21.1	0.00e+00	0	30	0	100663296	48	5776
2026-01-29 01:08:23.92	181.83	5.26	-37.1	-38.3	21.3	0.00e+00	0	31	0	103809024	48	5732
2026-01-29 01:08:24.93	181.88	5.33	-37.2	-38.3	21.2	0.00e+00	0	31	0	106954752	48	5735
2026-01-29 01:08:25.95	181.92	5.40	-37.1	-38.2	21.2	0.00e+00	0	31	0	110100480	48	5700
2026-01-29 01:08:26.95	181.96	5.47	-36.9	-38.0	21.3	0.00e+00	0	31	0	113246208	48	5567
2026-01-29 01:08:27.96	182.00	5.54	-36.8	-37.9	21.5	0.00e+00	0	31	0	116391936	48	5481
2026-01-29 01:08:28.98	182.05	5.62	-36.8	-37.9	21.6	0.00e+00	0	31	0	119537664	46	6150
2026-01-29 01:08:29.99	182.09	5.69	-36.9	-37.9	21.6	0.00e+00	0	31	0	122683392	46	6203
2026-01-29 01:08:30.99	182.13	5.76	-36.3	-37.3	21.9	0.00e+00	0	31	0	125829120	46	5787
2026-01-29 01:08:32.00	182.17	5.83	-37.0	-38.0	21.5	0.00e+00	0	31	0	128974848	46	6267
2026-01-29 01:08:33.01	182.22	5.90	-36.7	-37.8	21.6	0.00e+00	0	31	0	132120576	46	6098
2026-01-29 01:08:34.02	182.26	5.97	-37.4	-38.5	21.1	0.00e+00	0	31	0	135266304	46	6595
2026-01-29 01:08:35.03	182.31	6.05	-36.8	-37.8	21.7	0.00e+00	0	31	0	138412032	46	6113
2026-01-29 01:08:36.04	182.35	6.12	-36.8	-37.9	21.6	0.00e+00	0	31	0	141557760	46	6176
2026-01-29 01:08:37.05	182.39	6.19	-37.0	-38.0	21.5	0.00e+00	0	31	0	144703488	46	6265
2026-01-29 01:08:38.06	182.44	6.26	-36.7	-37.8	21.7	0.00e+00	0	31	0	147849216	46	6072
2026-01-29 01:08:39.07	182.48	6.34	-36.8	-37.9	21.5	0.00e+00	0	31	0	150994944	46	6164
2026-01-29 01:08:40.08	182.53	6.41	-36.7	-37.7	21.7	0.00e+00	0	31	0	154140672	46	6041
2026-01-29 01:08:41.09	182.57	6.48	-36.7	-37.7	21.7	0.00e+00	0	31	0	157286400	46	6056
2026-01-29 01:08:42.10	182.62	6.56	-36.6	-37.6	21.8	0.00e+00	0	31	0	160432128	46	5982
2026-01-29 01:08:43.11	182.66	6.63	-36.7	-37.7	21.9	0.00e+00	0	31	0	164626432	46	6039
2026-01-29 01:08:44.12	182.71	6.71	-36.3	-37.3	22.0	0.00e+00	0	31	0	167772160	46	5772
2026-01-29 01:08:45.13	182.76	6.78	-36.3	-37.4	22.1	0.00e+00	0	31	0	170917888	46	5806
2026-01-29 01:08:46.13	182.80	6.85	-36.3	-37.3	22.1	0.00e+00	0	31	0	173015040	46	5757
2026-01-29 01:08:47.15	182.85	6.93	-36.5	-37.5	21.9	0.00e+00	0	31	0	176160768	46	5880
2026-01-29 01:08:48.15	182.89	7.00	-36.6	-37.7	21.8	0.00e+00	0	31	0	180355072	46	6007
2026-01-29 01:08:49.16	182.94	7.08	-36.3	-37.3	22.1	0.00e+00	0	31	0	183500800	46	5761
2026-01-29 01:08:50.17	182.99	7.15	-36.2	-37.2	22.1	0.00e+00	0	31	0	186646528	46	5720
2026-01-29 01:08:51.18	183.04	7.23	-36.2	-37.2	22.1	0.00e+00	0	31	0	189792256	46	5696
2026-01-29 01:08:52.19	183.08	7.30	-36.0	-37.0	22.4	0.00e+00	0	31	0	192937984	46	5565
2026-01-29 01:08:53.20	183.13	7.38	-36.1	-37.1	22.4	0.00e+00	0	31	0	196083712	46	5610
2026-01-29 01:08:54.21	183.18	7.46	-36.0	-36.9	22.5	0.00e+00	0	31	0	199229440	46	5520
2026-01-29 01:08:55.22	183.23	7.53	-35.8	-36.8	22.6	0.00e+00	0	31	0	202375168	46	5418
2026-01-29 01:08:56.23	183.28	7.61	-35.9	-36.9	22.6	0.00e+00	0	31	0	205520896	46	5484
2026-01-29 01:08:57.24	183.32	7.69	-35.9	-36.9	22.5	0.00e+00	0	31	0	208666624	46	5501
2026-01-29 01:08:58.25	183.37	7.76	-35.9	-36.9	22.6	0.00e+00	0	31	0	211812352	46	5481
2026-01-29 01:08:59.26	183.42	7.84	-35.9	-36.9	22.6	0.00e+00	0	31	0	214958080	46	5475
2026-01-29 01:09:00.27	183.47	7.92	-35.9	-36.8	22.6	0.00e+00	0	31	0	218103808	46	5467
2026-01-29 01:09:01.27	183.52	7.99	-35.9	-36.9	22.6	0.00e+00	0	31	0	221249536	46	5514
2026-01-29 01:09:02.28	183.57	8.07	-35.7	-36.7	22.7	0.00e+00	0	31	0	224395264	46	5389
2026-01-29 01:09:03.29	183.62	8.15	-35.8	-36.8	22.6	0.00e+00	0	31	0	227540992	44	6084
2026-01-29 01:09:04.30	183.67	8.23	-35.6	-36.6	22.7	0.00e+00	0	31	0	230686720	44	5980
2026-01-29 01:09:05.31	183.72	8.31	-35.5	-36.5	22.9	0.00e+00	0	31	0	233832448	44	5870
2026-01-29 01:09:06.32	183.77	8.39	-35.4	-36.4	23.0	0.00e+00	0	31	0	236978176	44	5816
2026-01-29 01:09:07.33	183.82	8.47	-35.7	-36.7	22.7	0.00e+00	0	31	0	240123904	44	6049
2026-01-29 01:09:08.34	183.87	8.54	-35.9	-36.9	22.7	0.00e+00	0	31	0	243269632	44	6170
2026-01-29 01:09:09.35	183.93	8.62	-35.7	-36.6	22.8	0.00e+00	0	31	0	246415360	44	5993
2026-01-29 01:09:10.35	183.98	8.70	-35.7	-36.7	22.7	0.00e+00	0	31	0	249561088	44	6007
2026-01-29 01:09:11.36	184.03	8.78	-35.5	-36.5	22.9	0.00e+00	0	31	0	252706816	44	5893
2026-01-29 01:09:12.37	184.08	8.86	-35.7	-36.7	22.8	0.00e+00	0	31	0	255852544	44	6018
2026-01-29 01:09:13.38	184.14	8.94	-35.4	-36.4	23.0	0.00e+00	0	31	0	258998272	44	5811
2026-01-29 01:09:14.39	184.19	9.02	-35.4	-36.4	23.0	0.00e+00	0	31	0	262144000	44	5812
2026-01-29 01:09:15.40	184.24	9.11	-35.5	-36.5	22.9	0.00e+00	0	31	0	265289728	44	5883
2026-01-29 01:09:16.41	184.30	9.19	-35.4	-36.4	23.0	0.00e+00	0	31	0	268435456	44	5822
2026-01-29 01:09:17.42	184.35	9.27	-35.4	-36.3	23.0	0.00e+00	0	31	0	271581184	44	5789
2026-01-29 01:09:18.43	184.40	9.35	-35.4	-36.4	23.0	0.00e+00	0	31	0	274726912	44	5799
2026-01-29 01:09:19.44	184.46	9.43	-35.5	-36.5	22.9	0.00e+00	0	31	0	277872640	44	5874
2026-01-29 01:09:20.45	184.51	9.51	-35.4	-36.4	23.0	0.00e+00	0	31	0	281018368	44	5833
2026-01-29 01:09:21.46	184.57	9.60	-35.4	-36.4	23.1	0.00e+00	0	31	0	284164096	44	5802
2026-01-29 01:09:22.47	184.62	9.68	-35.2	-36.1	23.2	0.00e+00	0	31	0	287309824	44	5658
2026-01-29 01:09:23.48	184.68	9.76	-35.3	-36.2	23.1	0.00e+00	0	31	0	290455552	44	5701
2026-01-29 01:09:24.49	184.73	9.84	-35.1	-36.1	23.2	0.00e+00	0	31	0	293601280	44	5614
2026-01-29 01:09:25.50	184.79	9.93	-35.1	-36.1	23.2	0.00e+00	0	31	0	296747008	44	5638
2026-01-29 01:09:26.51	184.85	10.01	-35.1	-36.0	23.3	0.00e+00	0	31	0	299892736	44	5577
2026-01-29 01:09:27.52	184.90	10.10	-35.1	-36.1	23.3	0.00e+00	0	31	0	303038464	44	5605
2026-01-29 01:09:28.53	184.96	10.18	-35.0	-36.0	23.3	0.00e+00	0	31	0	306184192	44	5552
2026-01-29 01:09:29.54	185.02	10.26	-35.1	-36.1	23.2	0.00e+00	0	31	0	309329920	44	5614
2026-01-29 01:09:30.55	185.07	10.35	-35.0	-35.9	23.4	0.00e+00	0	31	0	312475648	44	5522
2026-01-29 01:09:31.55	185.13	10.43	-35.1	-36.0	23.3	0.00e+00	0	31	0	315621376	44	5566
2026-01-29 01:09:32.56	185.19	10.52	-34.9	-35.9	23.4	0.00e+00	0	31	0	318767104	44	5490
2026-01-29 01:09:33.57	185.25	10.60	-35.2	-36.1	23.2	0.00e+00	0	31	0	321912832	44	5647
2026-01-29 01:09:34.58	185.31	10.69	-35.0	-36.0	23.3	0.00e+00	0	31	0	325058560	44	5550
2026-01-29 01:09:35.59	185.37	10.78	-35.2	-36.1	23.3	0.00e+00	0	31	0	328204288	44	5646
2026-01-29 01:09:36.60	185.43	10.86	-35.2	-36.1	23.4	0.00e+00	0	31	0	331350016	44	5634
2026-01-29 01:09:37.61	185.49	10.95	-34.9	-35.9	23.4	0.00e+00	0	31	0	334495744	44	5477
2026-01-29 01:09:38.62	185.55	11.03	-35.2	-36.1	23.3	0.00e+00	0	31	0	337641472	44	5632
2026-01-29 01:09:39.63	185.61	11.12	-34.8	-35.7	23.6	0.00e+00	0	31	0	340787200	44	5380
2026-01-29 01:09:40.64	185.67	11.21	-34.8	-35.8	23.5	0.00e+00	0	31	0	343932928	44	5431
2026-01-29 01:09:41.65	185.73	11.30	-34.9	-35.9	23.4	0.00e+00	0	31	0	347078656	44	5469
2026-01-29 01:09:42.66	185.79	11.39	-35.1	-36.1	23.4	0.00e+00	0	31	0	350224384	44	5619
2026-01-29 01:09:43.67	185.85	11.47	-35.0	-35.9	23.4	0.00e+00	0	31	0	353370112	44	5519
2026-01-29 01:09:44.68	185.92	11.56	-34.9	-35.8	23.5	0.00e+00	0	31	0	356515840	44	5465
2026-01-29 01:09:45.69	185.98	11.65	-34.7	-35.7	23.7	0.00e+00	0	31	0	359661568	42	6005
2026-01-29 01:09:46.70	186.04	11.74	-34.9	-35.8	23.6	0.00e+00	0	31	0	362807296	42	6116
2026-01-29 01:09:47.71	186.10	11.83	-34.8	-35.7	23.8	0.00e+00	0	31	0	365953024	42	6022
2026-01-29 01:09:48.72	186.17	11.92	-34.6	-35.6	23.8	0.00e+00	0	31	0	369098752	42	5934
2026-01-29 01:09:49.73	186.23	12.01	-34.6	-35.5	23.9	0.00e+00	0	31	0	372244480	42	5870
2026-01-29 01:09:50.74	186.30	12.10	-34.7	-35.6	23.7	0.00e+00	0	31	0	375390208	42	5947
2026-01-29 01:09:51.75	186.36	12.19	-34.6	-35.5	23.8	0.00e+00	0	31	0	378535936	42	5912
2026-01-29 01:09:52.76	186.43	12.28	-34.5	-35.4	24.0	0.00e+00	0	31	0	381681664	42	5817
2026-01-29 01:09:53.77	186.49	12.37	-34.5	-35.5	23.9	0.00e+00	0	31	0	384827392	42	5872
2026-01-29 01:09:54.78	186.56	12.46	-34.5	-35.4	24.0	0.00e+00	0	31	0	387973120	42	5811
2026-01-29 01:09:55.79	186.63	12.56	-34.6	-35.5	23.8	0.00e+00	0	31	0	391118848	42	5917
2026-01-29 01:09:56.80	186.69	12.65	-34.5	-35.4	24.0	0.00e+00	0	31	0	394264576	42	5811
2026-01-29 01:09:57.81	186.76	12.74	-34.5	-35.4	23.9	0.00e+00	0	31	0	397410304	42	5854
2026-01-29 01:09:58.82	186.83	12.83	-34.5	-35.4	24.0	0.00e+00	0	31	0	400556032	42	5826
2026-01-29 01:09:59.83	186.89	12.93	-34.5	-35.5	23.9	0.00e+00	0	31	0	403701760	42	5866
2026-01-29 01:10:00.84	186.96	13.02	-34.5	-35.4	24.0	0.00e+00	0	31	0	406847488	42	5799
2026-01-29 01:10:01.85	187.03	13.12	-34.4	-35.4	23.9	0.00e+00	0	31	0	409993216	42	5800
2026-01-29 01:10:02.86	187.10	13.21	-34.4	-35.3	24.0	0.00e+00	0	31	0	413138944	42	5782
2026-01-29 01:10:03.87	187.17	13.30	-34.5	-35.4	23.9	0.00e+00	0	31	0	416284672	42	5825
2026-01-29 01:10:04.88	187.24	13.40	-34.5	-35.4	23.9	0.00e+00	0	31	0	419430400	42	5832
2026-01-29 01:10:05.89	187.31	13.49	-34.6	-35.5	23.9	0.00e+00	0	31	0	422576128	42	5897
2026-01-29 01:10:06.90	187.38	13.59	-34.6	-35.5	23.9	0.00e+00	0	31	0	425721856	42	5878
2026-01-29 01:10:07.91	187.45	13.69	-34.8	-35.7	23.9	0.00e+00	0	31	0	428867584	42	6030
2026-01-29 01:10:08.91	187.52	13.78	-34.6	-35.6	23.8	0.00e+00	0	31	0	432013312	42	5936
2026-01-29 01:10:09.92	187.60	13.88	-34.6	-35.5	23.9	0.00e+00	0	31	0	435159040	42	5915
2026-01-29 01:10:10.93	187.67	13.97	-34.4	-35.3	24.1	0.00e+00	0	31	0	438304768	42	5758
2026-01-29 01:10:11.94	187.74	14.07	-34.5	-35.4	23.9	0.00e+00	0	31	0	441450496	42	5828
2026-01-29 01:10:12.95	187.82	14.17	-34.5	-35.4	23.9	0.00e+00	0	31	0	444596224	42	5853
2026-01-29 01:10:13.96	187.89	14.27	-34.6	-35.5	23.9	0.00e+00	0	31	0	447741952	42	5890
2026-01-29 01:10:14.97	187.96	14.37	-34.4	-35.3	24.0	0.00e+00	0	31	0	450887680	42	5770
2026-01-29 01:10:15.98	188.04	14.46	-34.5	-35.5	23.9	0.00e+00	0	31	0	454033408	42	5859
2026-01-29 01:10:16.99	188.11	14.56	-34.4	-35.3	24.0	0.00e+00	0	31	0	457179136	42	5764
2026-01-29 01:10:17.99	188.19	14.66	-34.5	-35.5	23.9	0.00e+00	0	31	0	460324864	42	5865
2026-01-29 01:10:19.00	188.27	14.76	-34.5	-35.4	24.0	0.00e+00	0	31	0	463470592	42	5827
2026-01-29 01:10:20.01	188.34	14.86	-34.7	-35.6	23.9	0.00e+00	0	31	0	466616320	42	5968
2026-01-29 01:10:21.02	188.42	14.96	-34.6	-35.5	24.0	0.00e+00	0	31	0	469762048	42	5912
2026-01-29 01:10:22.03	188.50	15.06	-34.6	-35.5	23.9	0.00e+00	0	31	0	472907776	42	5915
2026-01-29 01:10:23.04	188.58	15.16	-34.6	-35.5	23.9	0.00e+00	0	31	0	476053504	42	5926
2026-01-29 01:10:24.05	188.66	15.27	-34.7	-35.6	23.9	0.00e+00	0	31	0	479199232	42	5944
2026-01-29 01:10:25.06	188.74	15.37	-34.6	-35.6	23.9	0.00e+00	0	31	0	482344960	42	5937
2026-01-29 01:10:26.07	188.82	15.47	-34.8	-35.7	23.8	0.00e+00	0	31	0	485490688	42	6024
2026-01-29 01:10:27.08	188.90	15.57	-34.9	-35.8	23.7	0.00e+00	0	31	0	488636416	42	6109
2026-01-29 01:10:28.09	188.98	15.68	-35.0	-36.0	23.6	0.00e+00	0	31	0	491782144	42	6232
2026-01-29 01:10:29.10	189.06	15.78	-34.8	-35.7	23.8	0.00e+00	0	31	0	494927872	42	6053
2026-01-29 01:10:30.11	189.14	15.88	-34.8	-35.7	23.7	0.00e+00	0	31	0	498073600	42	6039
2026-01-29 01:10:31.12	189.22	15.99	-34.8	-35.8	23.7	0.00e+00	0	31	0	501219328	42	6065
2026-01-29 01:10:32.13	189.31	16.09	-34.7	-35.7	23.8	0.00e+00	0	31	0	504365056	42	6000
2026-01-29 01:10:33.14	189.39	16.20	-34.9	-35.8	23.7	0.00e+00	0	31	0	507510784	42	6106
2026-01-29 01:10:34.15	189.47	16.30	-34.8	-35.7	23.8	0.00e+00	0	31	0	510656512	42	6040
2026-01-29 01:10:35.15	189.56	16.41	-34.8	-35.7	23.8	0.00e+00	0	31	0	513802240	42	6040
2026-01-29 01:10:36.16	189.64	16.51	-34.8	-35.7	23.8	0.00e+00	0	31	0	516947968	42	6063
2026-01-29 01:10:37.17	189.73	16.62	-34.9	-35.8	23.7	0.00e+00	0	31	0	520093696	42	6096
2026-01-29 01:10:38.18	189.82	16.73	-34.6	-35.5	24.0	0.00e+00	0	31	0	523239424	42	5916
2026-01-29 01:10:39.19	189.90	16.83	-34.6	-35.6	23.9	0.00e+00	0	31	0	526385152	42	5936
2026-01-29 01:10:40.20	189.99	16.94	-34.7	-35.6	23.9	0.00e+00	0	31	0	529530880	42	5965
2026-01-29 01:10:41.21	190.08	17.05	-34.7	-35.6	23.9	0.00e+00	0	31	0	533725184	42	5991
2026-01-29 01:10:42.22	190.17	17.16	-34.7	-35.6	23.9	0.00e+00	0	31	0	535822336	42	5942
2026-01-29 01:10:43.23	190.26	17.27	-34.6	-35.5	24.0	0.00e+00	0	31	0	538968064	42	5882
2026-01-29 01:10:44.24	190.35	17.38	-34.6	-35.5	23.9	0.00e+00	0	31	0	542113792	42	5895
2026-01-29 01:10:45.25	190.44	17.49	-34.5	-35.4	24.0	0.00e+00	0	31	0	545259520	42	5855
2026-01-29 01:10:46.26	190.53	17.60	-34.6	-35.5	23.9	0.00e+00	0	31	0	549453824	42	5884
2026-01-29 01:10:47.26	190.62	17.71	-34.5	-35.5	23.9	0.00e+00	0	31	0	552599552	42	5864
2026-01-29 01:10:48.27	190.71	17.82	-34.6	-35.5	24.0	0.00e+00	0	31	0	555745280	42	5916
2026-01-29 01:10:49.28	190.81	17.93	-34.5	-35.4	24.0	0.00e+00	0	31	0	558891008	42	5850
2026-01-29 01:10:50.29	190.90	18.04	-34.5	-35.4	24.0	0.00e+00	0	31	0	560988160	42	5849
2026-01-29 01:10:51.30	191.00	18.16	-34.5	-35.4	24.0	0.00e+00	0	31	0	564133888	42	5828
2026-01-29 01:10:52.31	191.09	18.27	-34.3	-35.2	24.2	0.00e+00	0	31	0	568328192	42	5708
2026-01-29 01:10:53.32	191.19	18.38	-34.3	-35.2	24.2	0.00e+00	0	31	0	571473920	42	5695
2026-01-29 01:10:54.33	191.28	18.50	-34.2	-35.1	24.3	0.00e+00	0	31	0	574619648	42	5608
2026-01-29 01:10:55.34	191.38	18.61	-34.3	-35.2	24.2	0.00e+00	0	31	0	577765376	42	5672
2026-01-29 01:10:56.35	191.48	18.73	-34.2	-35.1	24.4	0.00e+00	0	31	0	580911104	42	5611
2026-01-29 01:10:57.36	191.58	18.84	-34.2	-35.1	24.3	0.00e+00	0	31	0	584056832	42	5617
2026-01-29 01:10:58.37	191.68	18.96	-34.3	-35.2	24.2	0.00e+00	0	31	0	587202560	42	5681
2026-01-29 01:10:59.38	191.78	19.07	-34.1	-35.0	24.4	0.00e+00	0	31	0	590348288	42	5575
2026-01-29 01:11:00.39	191.88	19.19	-34.1	-35.0	24.5	0.00e+00	0	31	0	593494016	42	5550
2026-01-29 01:11:01.40	191.98	19.31	-34.2	-35.1	24.4	0.00e+00	0	31	0	596639744	42	5625
2026-01-29 01:11:02.41	192.08	19.42	-34.3	-35.2	24.3	0.00e+00	0	31	0	599785472	42	5673
2026-01-29 01:11:03.42	192.19	19.54	-34.3	-35.2	24.3	0.00e+00	0	31	0	602931200	42	5676
2026-01-29 01:11:04.43	192.29	19.66	-34.0	-34.9	24.5	0.00e+00	0	31	0	606076928	42	5503
2026-01-29 01:11:05.44	192.40	19.78	-34.1	-35.0	24.5	0.00e+00	0	31	0	609222656	42	5551
2026-01-29 01:11:06.45	192.50	19.90	-34.0	-34.9	24.4	0.00e+00	0	31	0	612368384	42	5522
2026-01-29 01:11:07.45	192.61	20.02	-34.0	-34.9	24.5	0.00e+00	0	31	0	615514112	42	5486
2026-01-29 01:11:08.46	192.71	20.14	-33.8	-34.7	24.7	0.00e+00	0	31	0	618659840	42	5384
2026-01-29 01:11:09.48	192.82	20.26	-33.9	-34.8	24.6	0.00e+00	0	31	0	621805568	42	5444
2026-01-29 01:11:10.49	192.93	20.38	-33.7	-34.6	24.7	0.00e+00	0	31	0	624951296	40	5967
2026-01-29 01:11:11.49	193.04	20.50	-33.7	-34.6	24.7	0.00e+00	0	31	0	628097024	40	5989
2026-01-29 01:11:12.50	193.15	20.63	-33.6	-34.5	24.8	0.00e+00	0	31	0	631242752	40	5880
2026-01-29 01:11:13.51	193.26	20.75	-33.6	-34.5	24.8	0.00e+00	0	31	0	634388480	40	5901
2026-01-29 01:11:14.52	193.37	20.87	-33.5	-34.3	24.9	0.00e+00	0	31	0	637534208	40	5776
2026-01-29 01:11:15.53	193.49	21.00	-33.5	-34.3	24.9	0.00e+00	0	31	0	640679936	40	5780
2026-01-29 01:11:16.54	193.60	21.12	-33.3	-34.2	25.1	0.00e+00	0	31	0	643825664	40	5698
2026-01-29 01:11:17.55	193.72	21.25	-33.2	-34.1	25.2	0.00e+00	0	31	0	646971392	40	5628
2026-01-29 01:11:18.56	193.83	21.37	-33.4	-34.2	25.0	0.00e+00	0	31	0	650117120	40	5707
2026-01-29 01:11:19.57	193.95	21.50	-33.2	-34.1	25.2	0.00e+00	0	31	0	653262848	40	5604
2026-01-29 01:11:20.58	194.07	21.62	-33.2	-34.0	25.1	0.00e+00	0	31	0	656408576	40	5585
2026-01-29 01:11:21.59	194.18	21.75	-33.1	-34.0	25.2	0.00e+00	0	31	0	659554304	40	5569
2026-01-29 01:11:22.60	194.30	21.88	-33.1	-33.9	25.2	0.00e+00	0	31	0	662700032	40	5520
2026-01-29 01:11:23.61	194.42	22.01	-33.0	-33.9	25.3	0.00e+00	0	31	0	665845760	40	5503
2026-01-29 01:11:24.61	194.54	22.13	-33.1	-34.0	25.1	0.00e+00	0	31	0	668991488	40	5560
2026-01-29 01:11:25.62	194.67	22.26	-33.0	-33.8	25.3	0.00e+00	0	31	0	672137216	40	5464
2026-01-29 01:11:26.63	194.79	22.39	-33.0	-33.9	25.3	0.00e+00	0	31	0	675282944	40	5486
2026-01-29 01:11:27.64	194.91	22.52	-32.9	-33.7	25.4	0.00e+00	0	31	0	678428672	40	5397
2026-01-29 01:11:28.65	195.04	22.65	-32.8	-33.7	25.4	0.00e+00	0	31	0	681574400	40	5370
2026-01-29 01:11:29.66	195.17	22.78	-32.9	-33.7	25.4	0.00e+00	0	31	0	684720128	40	5377
2026-01-29 01:11:30.67	195.29	22.92	-33.0	-33.8	25.3	0.00e+00	0	31	0	687865856	40	5458
2026-01-29 01:11:31.68	195.42	23.05	-33.0	-33.8	25.3	0.00e+00	0	31	0	691011584	40	5445
2026-01-29 01:11:32.69	195.55	23.18	-33.0	-33.9	25.3	0.00e+00	0	31	0	694157312	40	5478
2026-01-29 01:11:33.70	195.68	23.32	-33.0	-33.9	25.2	0.00e+00	0	31	0	697303040	40	5498
2026-01-29 01:11:34.71	195.81	23.45	-33.0	-33.9	25.3	0.00e+00	0	31	0	700448768	40	5475
2026-01-29 01:11:35.72	195.95	23.58	-33.0	-33.9	25.2	0.00e+00	0	31	0	703594496	40	5481
2026-01-29 01:11:36.73	196.08	23.72	-33.1	-34.0	25.2	0.00e+00	0	31	0	706740224	40	5551
2026-01-29 01:11:37.74	196.22	23.85	-33.1	-33.9	25.1	0.00e+00	0	31	0	709885952	40	5514
2026-01-29 01:11:38.75	196.35	23.99	-33.1	-34.0	25.2	0.00e+00	0	31	0	713031680	40	5549
2026-01-29 01:11:39.76	196.49	24.13	-33.1	-33.9	25.2	0.00e+00	0	31	0	716177408	40	5518
2026-01-29 01:11:40.77	196.63	24.26	-33.1	-34.0	25.2	0.00e+00	0	31	0	719323136	40	5569
2026-01-29 01:11:41.78	196.77	24.40	-33.0	-33.9	25.2	0.00e+00	0	31	0	722468864	40	5506
2026-01-29 01:11:42.79	196.91	24.54	-33.1	-34.0	25.2	0.00e+00	0	31	0	725614592	40	5564
2026-01-29 01:11:43.80	197.05	24.68	-33.1	-34.0	25.2	0.00e+00	0	31	0	728760320	40	5559
2026-01-29 01:11:44.81	197.19	24.82	-33.2	-34.0	25.1	0.00e+00	0	31	0	731906048	40	5574
2026-01-29 01:11:45.82	197.34	24.96	-33.3	-34.1	25.1	0.00e+00	0	31	0	735051776	40	5629
2026-01-29 01:11:46.83	197.48	25.10	-33.3	-34.2	25.0	0.00e+00	0	31	0	738197504	40	5699
2026-01-29 01:11:47.84	197.63	25.24	-33.5	-34.3	25.0	0.00e+00	0	31	0	741343232	40	5780
2026-01-29 01:11:48.85	197.78	25.38	-33.6	-34.5	24.9	0.00e+00	0	31	0	744488960	40	5882
2026-01-29 01:11:49.86	197.93	25.52	-33.8	-34.7	24.7	0.00e+00	0	31	0	747634688	40	6028
2026-01-29 01:11:50.87	198.08	25.67	-33.7	-34.6	24.7	0.00e+00	0	31	0	750780416	40	5959
2026-01-29 01:11:51.88	198.23	25.81	-33.7	-34.6	24.8	0.00e+00	0	31	0	753926144	40	5932
2026-01-29 01:11:52.88	198.38	25.95	-33.8	-34.6	24.7	0.00e+00	0	31	0	757071872	40	5981
2026-01-29 01:11:53.90	198.54	26.10	-33.7	-34.6	24.8	0.00e+00	0	31	0	760217600	40	5948
2026-01-29 01:11:54.91	198.70	26.24	-33.7	-34.6	24.8	0.00e+00	0	31	0	763363328	40	5952
2026-01-29 01:11:55.92	198.85	26.39	-33.7	-34.5	24.7	0.00e+00	0	31	0	766509056	40	5922
2026-01-29 01:11:56.93	199.01	26.53	-33.8	-34.6	24.8	0.00e+00	0	31	0	769654784	40	5985
2026-01-29 01:11:57.94	199.17	26.68	-33.8	-34.7	24.7	0.00e+00	0	31	0	772800512	40	6031
2026-01-29 01:11:58.95	199.33	26.83	-33.9	-34.8	24.6	0.00e+00	0	31	0	775946240	40	6093
2026-01-29 01:11:59.96	199.50	26.98	-34.1	-35.0	24.5	0.00e+00	0	31	0	779091968	40	6224
2026-01-29 01:12:00.97	199.66	27.13	-34.1	-34.9	24.6	0.00e+00	0	31	0	782237696	40	6200
2026-01-29 01:12:01.98	199.83	27.27	-34.1	-35.0	24.5	0.00e+00	0	31	0	785383424	40	6217
2026-01-29 01:12:02.98	199.99	27.42	-34.1	-35.0	24.5	0.00e+00	0	31	0	788529152	40	6222
2026-01-29 01:12:03.99	200.16	27.57	-34.2	-35.1	24.4	0.00e+00	0	31	0	791674880	40	6305
2026-01-29 01:12:05.00	200.34	27.72	-34.2	-35.1	24.4	0.00e+00	0	31	0	794820608	40	6320
2026-01-29 01:12:06.01	200.51	27.87	-34.2	-35.1	24.4	0.00e+00	0	31	0	797966336	40	6317
2026-01-29 01:12:07.02	200.68	28.03	-34.1	-35.0	24.5	0.00e+00	0	31	0	801112064	40	6261
2026-01-29 01:12:08.03	200.86	28.18	-34.1	-35.0	24.5	0.00e+00	0	31	0	804257792	40	6226
2026-01-29 01:12:09.04	201.03	28.33	-34.1	-35.0	24.5	0.00e+00	0	31	0	807403520	40	6241
2026-01-29 01:12:10.05	201.21	28.48	-34.0	-34.9	24.6	0.00e+00	0	31	0	810549248	40	6181
2026-01-29 01:12:11.06	201.39	28.64	-34.3	-35.1	24.5	0.00e+00	0	31	0	813694976	40	6338
2026-01-29 01:12:12.07	201.58	28.79	-34.1	-35.0	24.6	0.00e+00	0	31	0	816840704	40	6211
2026-01-29 01:12:13.08	201.76	28.95	-34.2	-35.1	24.5	0.00e+00	0	31	0	819986432	40	6299
2026-01-29 01:12:14.09	201.95	29.10	-34.1	-35.0	24.5	0.00e+00	0	31	0	823132160	40	6264
2026-01-29 01:12:15.10	202.13	29.26	-34.2	-35.1	24.4	0.00e+00	0	31	0	826277888	40	6308
2026-01-29 01:12:16.11	202.32	29.42	-34.2	-35.1	24.5	0.00e+00	0	31	0	829423616	40	6280
2026-01-29 01:12:17.12	202.52	29.57	-34.3	-35.2	24.3	0.00e+00	0	31	0	832569344	40	6369
2026-01-29 01:12:18.13	202.71	29.73	-34.2	-35.1	24.4	0.00e+00	0	31	0	835715072	40	6340
2026-01-29 01:12:19.13	202.90	29.89	-34.4	-35.2	24.3	0.00e+00	0	31	0	838860800	40	6421
2026-01-29 01:12:20.15	203.10	30.05	-34.0	-34.9	24.6	0.00e+00	0	31	0	842006528	40	6186
2026-01-29 01:12:21.15	203.30	30.21	-34.3	-35.2	24.5	0.00e+00	0	31	0	845152256	40	6404
2026-01-29 01:12:22.16	203.50	30.37	-34.4	-35.3	24.3	0.00e+00	0	31	0	848297984	40	6456
2026-01-29 01:12:23.17	203.70	30.53	-34.4	-35.3	24.3	0.00e+00	0	31	0	851443712	40	6470
2026-01-29 01:12:24.18	203.90	30.69	-34.2	-35.1	24.5	0.00e+00	0	31	0	854589440	40	6347
2026-01-29 01:12:25.19	204.11	30.85	-34.3	-35.2	24.4	0.00e+00	0	31	0	857735168	40	6400
2026-01-29 01:12:26.20	204.32	31.01	-34.4	-35.3	24.4	0.00e+00	0	31	0	860880896	40	6427
2026-01-29 01:12:27.21	204.53	31.17	-34.2	-35.1	24.4	0.00e+00	0	31	0	864026624	40	6318
2026-01-29 01:12:28.22	204.74	31.34	-34.3	-35.2	24.3	0.00e+00	0	31	0	867172352	40	6369
2026-01-29 01:12:29.23	204.96	31.50	-33.9	-34.8	24.5	0.00e+00	0	31	0	870318080	40	6122
2026-01-29 01:12:30.24	205.17	31.66	-33.8	-34.7	24.7	0.00e+00	0	31	0	873463808	40	6017
2026-01-29 01:12:31.25	205.39	31.83	-33.8	-34.7	24.6	0.00e+00	0	31	0	876609536	40	6050
2026-01-29 01:12:32.26	205.61	31.99	-34.0	-34.9	24.5	0.00e+00	0	31	0	879755264	40	6167
2026-01-29 01:12:33.26	205.84	32.16	-34.0	-34.9	24.6	0.00e+00	0	31	0	882900992	40	6135
2026-01-29 01:12:34.28	206.06	32.32	-34.2	-35.1	24.4	0.00e+00	0	31	0	886046720	40	6296
2026-01-29 01:12:35.29	206.29	32.49	-34.1	-35.0	24.5	0.00e+00	0	31	0	889192448	40	6256
2026-01-29 01:12:36.30	206.52	32.66	-34.3	-35.2	24.4	0.00e+00	0	31	0	892338176	40	6373
2026-01-29 01:12:37.30	206.75	32.82	-34.3	-35.2	24.4	0.00e+00	0	31	0	896532480	40	6361
2026-01-29 01:12:38.32	206.99	32.99	-34.2	-35.1	24.4	0.00e+00	0	31	0	899678208	40	6287
2026-01-29 01:12:39.33	207.23	33.16	-34.0	-34.9	24.5	0.00e+00	0	31	0	901775360	40	6139
2026-01-29 01:12:40.34	207.47	33.33	-33.8	-34.7	24.8	0.00e+00	0	31	0	904921088	40	6024
2026-01-29 01:12:41.34	207.71	33.49	-33.8	-34.7	24.8	0.00e+00	0	31	0	908066816	40	6024
2026-01-29 01:12:42.35	207.95	33.66	-34.0	-34.9	24.5	0.00e+00	0	31	0	912261120	40	6183
2026-01-29 01:12:43.36	208.20	33.83	-34.1	-35.0	24.5	0.00e+00	0	31	0	915406848	40	6233
2026-01-29 01:12:44.37	208.45	34.00	-34.3	-35.2	24.4	0.00e+00	0	31	0	918552576	40	6406
2026-01-29 01:12:45.38	208.70	34.17	-34.4	-35.4	24.2	0.00e+00	0	31	0	921698304	40	6506
2026-01-29 01:12:46.39	208.95	34.34	-34.6	-35.5	24.1	0.00e+00	0	31	0	923795456	40	6636
2026-01-29 01:12:47.40	209.21	34.51	-34.7	-35.6	24.0	0.00e+00	0	31	0	926941184	40	6668
2026-01-29 01:12:48.41	209.47	34.68	-34.6	-35.5	24.2	0.00e+00	0	31	0	931135488	40	6582
2026-01-29 01:12:49.42	209.73	34.85	-34.6	-35.5	24.2	0.00e+00	0	31	0	934281216	40	6616
2026-01-29 01:12:50.42	210.00	35.02	-34.7	-35.7	24.1	0.00e+00	0	31	0	937426944	42	6003
2026-01-29 01:12:51.43	210.26	35.19	-34.9	-35.9	23.9	0.00e+00	0	31	0	940572672	42	6136
2026-01-29 01:12:52.44	210.54	35.37	-34.9	-35.8	23.9	0.00e+00	0	31	0	943718400	42	6083
2026-01-29 01:12:53.45	210.81	35.54	-35.1	-36.0	23.9	0.00e+00	0	31	0	946864128	42	6237
2026-01-29 01:12:54.47	211.09	35.71	-35.1	-36.0	23.8	0.00e+00	0	31	0	950009856	42	6271
2026-01-29 01:12:55.48	211.37	35.88	-35.1	-36.0	23.8	0.00e+00	0	31	0	953155584	42	6232
2026-01-29 01:12:56.49	211.65	36.06	-35.2	-36.1	23.7	0.00e+00	0	31	0	956301312	42	6296
2026-01-29 01:12:57.50	211.94	36.23	-35.3	-36.3	23.6	0.00e+00	0	31	0	959447040	42	6463
2026-01-29 01:12:58.51	212.22	36.40	-35.5	-36.5	23.4	0.00e+00	0	31	0	962592768	42	6594
2026-01-29 01:12:59.51	212.51	36.57	-35.7	-36.7	23.2	0.00e+00	0	31	0	965738496	42	6744
2026-01-29 01:13:00.52	212.81	36.75	-35.9	-36.9	23.0	0.00e+00	0	31	0	968884224	44	6174
2026-01-29 01:13:01.53	213.10	36.92	-35.8	-36.8	23.1	0.00e+00	0	31	0	972029952	44	6076
2026-01-29 01:13:02.54	213.41	37.09	-35.8	-36.8	23.2	0.00e+00	0	31	0	975175680	44	6078
2026-01-29 01:13:03.54	213.71	37.27	-35.9	-36.9	23.1	0.00e+00	0	31	0	978321408	44	6154
2026-01-29 01:13:04.55	214.01	37.44	-36.0	-37.0	23.0	0.00e+00	0	31	0	981467136	44	6225
2026-01-29 01:13:05.56	214.32	37.61	-36.2	-37.2	22.9	0.00e+00	0	31	0	984612864	44	6358
2026-01-29 01:13:06.57	214.64	37.79	-36.1	-37.1	22.9	0.00e+00	0	31	0	987758592	44	6293
2026-01-29 01:13:07.58	214.95	37.96	-36.1	-37.1	23.0	0.00e+00	0	31	0	990904320	44	6288
2026-01-29 01:13:08.58	215.27	38.13	-36.0	-36.9	23.1	0.00e+00	0	31	0	994050048	44	6190
2026-01-29 01:13:09.59	215.59	38.30	-36.0	-36.9	23.1	0.00e+00	0	31	0	997195776	44	6201
2026-01-29 01:13:10.60	215.92	38.48	-36.2	-37.2	22.8	0.00e+00	0	31	0	1000341504	44	6418
2026-01-29 01:13:11.61	216.25	38.65	-36.2	-37.1	22.8	0.00e+00	0	31	0	1003487232	44	6344
2026-01-29 01:13:12.62	216.58	38.82	-36.1	-37.1	23.0	0.00e+00	0	31	0	1006632960	44	6283
2026-01-29 01:13:13.63	216.92	39.00	-36.1	-37.0	23.0	0.00e+00	0	31	0	1009778688	44	6274
2026-01-29 01:13:14.64	217.26	39.17	-36.2	-37.2	22.9	0.00e+00	0	31	0	1012924416	44	6353
2026-01-29 01:13:15.66	217.61	39.34	-36.4	-37.4	22.8	0.00e+00	0	31	0	1016070144	44	6507
2026-01-29 01:13:16.66	217.95	39.51	-36.4	-37.5	22.6	0.00e+00	0	31	0	1019215872	44	6578
2026-01-29 01:13:17.68	218.31	39.68	-36.3	-37.3	22.7	0.00e+00	0	31	0	1022361600	44	6488
2026-01-29 01:13:18.68	218.66	39.85	-36.4	-37.4	22.6	0.00e+00	0	31	0	1025507328	44	6568
2026-01-29 01:13:19.69	219.02	40.02	-36.3	-37.3	22.8	0.00e+00	0	31	0	1028653056	44	6446
2026-01-29 01:13:20.70	219.38	40.19	-36.3	-37.3	22.7	0.00e+00	0	31	0	1031798784	44	6475
2026-01-29 01:13:21.71	219.75	40.36	-36.6	-37.6	22.5	0.00e+00	0	31	0	1034944512	44	6672
2026-01-29 01:13:22.72	220.12	40.53	-36.7	-37.7	22.5	0.00e+00	0	31	0	1038090240	44	6740
2026-01-29 01:13:23.73	220.49	40.70	-36.9	-38.0	22.2	0.00e+00	0	31	0	1041235968	46	6207
2026-01-29 01:13:24.74	220.87	40.87	-36.7	-37.8	22.3	0.00e+00	0	31	0	1044381696	46	6081
2026-01-29 01:13:25.75	221.25	41.04	-36.9	-37.9	22.0	0.00e+00	0	31	0	1047527424	46	6190
2026-01-29 01:13:26.76	221.64	41.20	-36.8	-37.9	22.0	0.00e+00	0	31	0	1050673152	46	6184
2026-01-29 01:13:27.77	222.03	41.37	-36.8	-37.9	22.0	0.00e+00	0	31	0	1053818880	46	6163
2026-01-29 01:13:28.78	222.42	41.54	-36.8	-37.9	22.0	0.00e+00	0	31	0	1056964608	46	6143
2026-01-29 01:13:29.79	222.82	41.70	-36.8	-37.8	22.2	0.00e+00	0	31	0	1060110336	46	6127
2026-01-29 01:13:30.80	223.22	41.87	-36.7	-37.7	22.3	0.00e+00	0	31	0	1063256064	46	6045
2026-01-29 01:13:31.81	223.62	42.03	-36.7	-37.7	22.4	0.00e+00	0	31	0	1066401792	46	6048
2026-01-29 01:13:32.82	224.03	42.19	-36.8	-37.8	22.2	0.00e+00	0	31	0	1069547520	46	6120
2026-01-29 01:13:33.83	224.45	42.35	-36.8	-37.8	22.4	0.00e+00	0	31	0	1072693248	46	6121
2026-01-29 01:13:34.84	224.86	42.51	-36.6	-37.6	22.5	0.00e+00	0	31	0	1075838976	46	5975
2026-01-29 01:13:35.85	225.29	42.67	-36.5	-37.5	22.6	0.00e+00	0	31	0	1078984704	46	5898
2026-01-29 01:13:36.85	225.71	42.83	-36.4	-37.4	22.7	0.00e+00	0	31	0	1082130432	46	5797
2026-01-29 01:13:37.86	226.14	42.99	-36.3	-37.3	22.7	0.00e+00	0	31	0	1085276160	46	5739
2026-01-29 01:13:38.87	226.57	43.14	-36.4	-37.4	22.6	0.00e+00	0	31	0	1088421888	46	5832
2026-01-29 01:13:39.88	227.01	43.30	-36.4	-37.4	22.6	0.00e+00	0	31	0	1091567616	46	5825
2026-01-29 01:13:40.89	227.45	43.45	-36.5	-37.5	22.6	0.00e+00	0	31	0	1094713344	46	5868
2026-01-29 01:13:41.90	227.90	43.60	-36.8	-37.8	22.3	0.00e+00	0	31	0	1097859072	46	6130
2026-01-29 01:13:42.91	228.35	43.75	-37.2	-38.3	21.9	0.00e+00	0	31	0	1101004800	46	6436
2026-01-29 01:13:43.92	228.81	43.90	-37.2	-38.3	21.9	0.00e+00	0	31	0	1104150528	46	6428
2026-01-29 01:13:44.92	229.26	44.05	-37.0	-38.1	21.9	0.00e+00	0	31	0	1107296256	46	6294
2026-01-29 01:13:45.93	229.72	44.20	-36.9	-38.0	22.0	0.00e+00	0	31	0	1110441984	46	6218
2026-01-29 01:13:46.94	230.19	44.34	-36.5	-37.5	22.4	0.00e+00	0	31	0	1113587712	46	5912
2026-01-29 01:13:47.95	230.66	44.49	-36.7	-37.7	22.4	0.00e+00	0	31	0	1116733440	46	6023
2026-01-29 01:13:48.96	231.14	44.63	-37.1	-38.1	22.1	0.00e+00	0	31	0	1119879168	46	6342
2026-01-29 01:13:49.97	231.62	44.77	-37.1	-38.1	22.1	0.00e+00	0	31	0	1123024896	46	6334
2026-01-29 01:13:50.98	232.11	44.91	-36.8	-37.8	22.4	0.00e+00	0	31	0	1126170624	46	6083
2026-01-29 01:13:51.99	232.59	45.05	-36.6	-37.6	22.3	0.00e+00	0	31	0	1129316352	46	5983
2026-01-29 01:13:53.00	233.09	45.18	-36.4	-37.4	22.4	0.00e+00	0	31	0	1132462080	46	5847
2026-01-29 01:13:54.01	233.58	45.32	-36.0	-37.0	22.6	0.00e+00	0	31	0	1135607808	46	5587
2026-01-29 01:13:55.02	234.09	45.45	-35.9	-36.9	22.7	0.00e+00	0	31	0	1138753536	46	5514
2026-01-29 01:13:56.03	234.59	45.58	-35.8	-36.7	22.8	0.00e+00	0	31	0	1141899264	44	6059
2026-01-29 01:13:57.04	235.10	45.71	-35.5	-36.4	23.4	0.00e+00	0	31	0	1145044992	44	5824
2026-01-29 01:13:58.05	235.61	45.83	-35.7	-36.6	23.3	0.00e+00	0	31	0	1148190720	44	5986
2026-01-29 01:13:59.06	236.13	45.95	-35.9	-36.9	23.1	0.00e+00	0	31	0	1151336448	44	6160
2026-01-29 01:14:00.07	236.65	46.08	-36.1	-37.1	23.0	0.00e+00	0	31	0	1154482176	44	6295
2026-01-29 01:14:01.08	237.18	46.20	-36.2	-37.2	22.7	0.00e+00	0	31	0	1157627904	44	6372
2026-01-29 01:14:02.09	237.71	46.31	-36.4	-37.5	22.6	0.00e+00	0	31	0	1160773632	44	6589
2026-01-29 01:14:03.10	238.24	46.43	-36.4	-37.4	22.6	0.00e+00	0	31	0	1163919360	44	6510
2026-01-29 01:14:04.10	238.77	46.54	-36.0	-37.0	22.8	0.00e+00	0	31	0	1167065088	44	6236
2026-01-29 01:14:05.11	239.31	46.65	-36.2	-37.2	22.8	0.00e+00	0	31	0	1170210816	44	6354
2026-01-29 01:14:06.12	239.86	46.75	-36.2	-37.1	23.0	0.00e+00	0	31	0	1173356544	44	6348
2026-01-29 01:14:07.14	240.41	46.86	-36.6	-37.5	22.6	0.00e+00	0	31	0	1176502272	44	6645
2026-01-29 01:14:08.14	240.96	46.96	-36.7	-37.7	22.4	0.00e+00	0	31	0	1179648000	44	6746
2026-01-29 01:14:09.15	241.51	47.06	-37.1	-38.1	22.1	0.00e+00	0	31	0	1182793728	46	6310
2026-01-29 01:14:10.16	242.07	47.16	-37.2	-38.3	22.0	0.00e+00	0	31	0	1185939456	46	6434
2026-01-29 01:14:11.17	242.63	47.25	-37.0	-38.1	22.2	0.00e+00	0	31	0	1189085184	46	6279
2026-01-29 01:14:12.18	243.20	47.34	-36.8	-37.8	22.4	0.00e+00	0	31	0	1192230912	46	6083
2026-01-29 01:14:13.19	243.77	47.43	-36.1	-37.1	23.1	0.00e+00	0	31	0	1195376640	46	5618
2026-01-29 01:14:14.20	244.34	47.52	-36.1	-37.1	23.0	0.00e+00	0	31	0	1198522368	46	5609
2026-01-29 01:14:15.21	244.91	47.60	-36.1	-37.1	23.0	0.00e+00	0	31	0	1201668096	46	5595
2026-01-29 01:14:16.22	245.49	47.68	-36.5	-37.5	22.5	0.00e+00	0	31	0	1204813824	46	5862
2026-01-29 01:14:17.23	246.07	47.76	-36.7	-37.8	22.3	0.00e+00	0	31	0	1207959552	46	6067
2026-01-29 01:14:18.24	246.65	47.83	-36.5	-37.5	22.6	0.00e+00	0	31	0	1211105280	46	5870
2026-01-29 01:14:19.25	247.24	47.90	-36.1	-37.0	23.1	0.00e+00	0	31	0	1214251008	46	5565
2026-01-29 01:14:20.26	247.83	47.97	-35.4	-36.4	23.5	0.00e+00	0	31	0	1217396736	44	5802
2026-01-29 01:14:21.26	248.41	48.04	-35.9	-36.8	23.1	0.00e+00	0	31	0	1220542464	44	6128
2026-01-29 01:14:22.27	249.01	48.10	-36.0	-36.9	23.1	0.00e+00	0	31	0	1223688192	44	6198
2026-01-29 01:14:23.28	249.60	48.16	-36.0	-36.9	23.1	0.00e+00	0	31	0	1226833920	44	6189
2026-01-29 01:14:24.29	250.20	48.21	-35.9	-36.8	23.2	0.00e+00	0	31	0	1229979648	44	6114
2026-01-29 01:14:25.30	250.80	48.26	-35.9	-36.9	22.9	0.00e+00	0	31	0	1233125376	44	6175
2026-01-29 01:14:26.31	251.40	48.31	-36.1	-37.1	22.6	0.00e+00	0	31	0	1236271104	44	6315
2026-01-29 01:14:27.32	252.01	48.36	-36.0	-36.9	22.7	0.00e+00	0	31	0	1239416832	44	6205
2026-01-29 01:14:28.33	252.61	48.40	-35.7	-36.7	23.2	0.00e+00	0	31	0	1242562560	44	6024
2026-01-29 01:14:29.34	253.22	48.44	-35.9	-36.8	23.2	0.00e+00	0	31	0	1245708288	44	6117
2026-01-29 01:14:30.34	253.82	48.47	-36.3	-37.2	22.9	0.00e+00	0	31	0	1248854016	44	6409
2026-01-29 01:14:31.35	254.43	48.50	-36.4	-37.4	22.5	0.00e+00	0	31	0	1251999744	44	6534
2026-01-29 01:14:32.37	255.05	48.53	-36.5	-37.5	22.5	0.00e+00	0	31	0	1255145472	44	6621
2026-01-29 01:14:33.38	255.66	48.56	-36.4	-37.4	22.7	0.00e+00	0	31	0	1258291200	44	6533
2026-01-29 01:14:34.38	256.27	48.58	-36.1	-37.1	23.1	0.00e+00	0	31	0	1261436928	44	6281
2026-01-29 01:14:35.39	256.88	48.60	-36.1	-37.1	22.9	0.00e+00	0	31	0	1264582656	44	6292
2026-01-29 01:14:36.40	257.49	48.61	-36.0	-37.0	23.0	0.00e+00	0	31	0	1267728384	44	6236
2026-01-29 01:14:37.41	258.11	48.62	-36.1	-37.0	23.1	0.00e+00	0	31	0	1270874112	44	6272
2026-01-29 01:14:38.42	258.72	48.63	-36.1	-37.0	23.2	0.00e+00	0	31	0	1274019840	44	6258
2026-01-29 01:14:39.43	259.34	48.64	-36.0	-37.0	22.9	0.00e+00	0	31	0	1277165568	44	6225
2026-01-29 01:14:40.44	259.95	48.64	-36.4	-37.4	22.8	0.00e+00	0	31	0	1280311296	44	6505
2026-01-29 01:14:41.45	260.57	48.64	-36.2	-37.1	23.0	0.00e+00	0	31	0	1283457024	44	6336
2026-01-29 01:14:42.46	261.18	48.63	-36.2	-37.1	23.0	0.00e+00	0	31	0	1287651328	44	6322
2026-01-29 01:14:43.47	261.80	48.62	-36.2	-37.2	22.9	0.00e+00	0	31	0	1289748480	44	6376
2026-01-29 01:14:44.48	262.41	48.61	-36.1	-37.0	23.1	0.00e+00	0	31	0	1292894208	44	6249
2026-01-29 01:14:45.49	263.03	48.59	-36.1	-37.0	23.1	0.00e+00	0	31	0	1296039936	44	6256
2026-01-29 01:14:46.50	263.64	48.57	-35.8	-36.7	23.3	0.00e+00	0	31	0	1299185664	44	6033
2026-01-29 01:14:47.51	264.25	48.55	-35.6	-36.5	23.4	0.00e+00	0	31	0	1303379968	44	5911
2026-01-29 01:14:48.52	264.86	48.52	-36.0	-37.0	22.9	0.00e+00	0	31	0	1306525696	44	6210
2026-01-29 01:14:49.53	265.47	48.49	-36.2	-37.2	22.8	0.00e+00	0	31	0	1309671424	44	6416
2026-01-29 01:14:50.54	266.08	48.46	-36.4	-37.3	22.7	0.00e+00	0	31	0	1311768576	44	6493
2026-01-29 01:14:51.55	266.69	48.42	-36.3	-37.2	22.8	0.00e+00	0	31	0	1314914304	44	6421
2026-01-29 01:14:52.56	267.29	48.38	-36.4	-37.3	22.7	0.00e+00	0	31	0	1319108608	44	6491
2026-01-29 01:14:53.57	267.90	48.34	-36.3	-37.3	23.0	0.00e+00	0	31	0	1322254336	44	6461
2026-01-29 01:14:54.58	268.50	48.29	-36.6	-37.6	22.6	0.00e+00	0	31	0	1325400064	44	6695
2026-01-29 01:14:55.59	269.10	48.24	-36.9	-37.9	22.3	0.00e+00	0	31	0	1328545792	46	6178
2026-01-29 01:14:56.60	269.70	48.18	-36.9	-38.0	22.3	0.00e+00	0	31	0	1331691520	46	6211
2026-01-29 01:14:57.61	270.30	48.13	-37.1	-38.2	22.2	0.00e+00	0	31	0	1334837248	46	6355
2026-01-29 01:14:58.62	270.89	48.07	-36.9	-38.0	22.3	0.00e+00	0	31	0	1337982976	46	6224
2026-01-29 01:14:59.63	271.48	48.00	-36.7	-37.7	22.5	0.00e+00	0	31	0	1341128704	46	6031
2026-01-29 01:15:00.64	272.07	47.94	-36.6	-37.6	22.5	0.00e+00	0	31	0	1344274432	46	5973
2026-01-29 01:15:01.65	272.66	47.87	-36.8	-37.8	22.4	0.00e+00	0	31	0	1347420160	46	6102
2026-01-29 01:15:02.65	273.24	47.80	-36.9	-37.9	22.2	0.00e+00	0	31	0	1350565888	46	6202
2026-01-29 01:15:03.66	273.82	47.72	-37.3	-38.3	21.9	0.00e+00	0	31	0	1353711616	46	6485
2026-01-29 01:15:04.67	274.40	47.64	-37.2	-38.2	22.0	0.00e+00	0	31	0	1356857344	46	6402
2026-01-29 01:15:05.68	274.97	47.56	-36.9	-37.9	22.4	0.00e+00	0	31	0	1360003072	46	6164
2026-01-29 01:15:06.69	275.54	47.48	-36.6	-37.6	22.6	0.00e+00	0	31	0	1363148800	46	5993
2026-01-29 01:15:07.70	276.11	47.39	-35.9	-36.8	23.1	0.00e+00	0	31	0	1366294528	46	5444
2026-01-29 01:15:08.71	276.68	47.30	-35.8	-36.8	23.2	0.00e+00	0	31	0	1369440256	44	6079
2026-01-29 01:15:09.71	277.24	47.21	-36.2	-37.2	22.9	0.00e+00	0	31	0	1372585984	44	6388
2026-01-29 01:15:10.73	277.80	47.11	-36.3	-37.2	22.9	0.00e+00	0	31	0	1375731712	44	6418
2026-01-29 01:15:11.74	278.36	47.02	-36.4	-37.4	22.7	0.00e+00	0	31	0	1378877440	44	6536
2026-01-29 01:15:12.74	278.91	46.92	-36.7	-37.7	22.5	0.00e+00	0	31	0	1382023168	44	6770
2026-01-29 01:15:13.75	279.46	46.81	-36.4	-37.4	22.7	0.00e+00	0	31	0	1385168896	44	6519
2026-01-29 01:15:14.76	280.00	46.71	-36.3	-37.3	22.6	0.00e+00	0	31	0	1388314624	44	6431
2026-01-29 01:15:15.77	280.54	46.60	-36.0	-37.0	23.0	0.00e+00	0	31	0	1391460352	44	6227
2026-01-29 01:15:16.78	281.08	46.49	-36.1	-37.0	23.2	0.00e+00	0	31	0	1394606080	44	6252
2026-01-29 01:15:17.79	281.61	46.38	-36.4	-37.4	22.7	0.00e+00	0	31	0	1397751808	44	6558
2026-01-29 01:15:18.80	282.15	46.26	-36.8	-37.8	22.5	0.00e+00	0	31	0	1400897536	46	6103
2026-01-29 01:15:19.81	282.67	46.14	-37.1	-38.1	22.1	0.00e+00	0	31	0	1404043264	46	6339
2026-01-29 01:15:20.82	283.19	46.02	-37.1	-38.1	22.1	0.00e+00	0	31	0	1407188992	46	6348
2026-01-29 01:15:21.83	283.71	45.90	-36.9	-37.9	22.3	0.00e+00	0	31	0	1410334720	46	6181
2026-01-29 01:15:22.84	284.23	45.78	-36.6	-37.6	22.5	0.00e+00	0	31	0	1413480448	46	5949
2026-01-29 01:15:23.85	284.74	45.65	-35.8	-36.7	23.3	0.00e+00	0	31	0	1416626176	46	5372
2026-01-29 01:15:24.86	285.24	45.52	-35.4	-36.3	23.6	0.00e+00	0	31	0	1419771904	44	5756
2026-01-29 01:15:25.87	285.75	45.39	-35.7	-36.6	23.4	0.00e+00	0	31	0	1422917632	44	5948
2026-01-29 01:15:26.88	286.24	45.26	-35.8	-36.8	23.2	0.00e+00	0	31	0	1426063360	44	6075
2026-01-29 01:15:27.89	286.74	45.13	-36.0	-37.0	23.0	0.00e+00	0	31	0	1429209088	44	6242
2026-01-29 01:15:28.90	287.23	44.99	-36.1	-37.0	22.7	0.00e+00	0	31	0	1432354816	44	6260
2026-01-29 01:15:29.91	287.71	44.85	-35.7	-36.7	23.2	0.00e+00	0	31	0	1435500544	44	6011
2026-01-29 01:15:30.92	288.20	44.71	-35.7	-36.7	23.2	0.00e+00	0	31	0	1438646272	44	6001
2026-01-29 01:15:31.93	288.67	44.57	-36.0	-37.0	23.0	0.00e+00	0	31	0	1441792000	44	6235
2026-01-29 01:15:32.94	289.15	44.43	-36.1	-37.0	22.9	0.00e+00	0	31	0	1444937728	44	6269
2026-01-29 01:15:33.95	289.62	44.28	-36.4	-37.3	22.7	0.00e+00	0	31	0	1448083456	44	6489
2026-01-29 01:15:34.96	290.08	44.14	-36.4	-37.4	22.7	0.00e+00	0	31	0	1451229184	44	6500
2026-01-29 01:15:35.97	290.54	43.99	-36.3	-37.3	22.4	0.00e+00	0	31	0	1454374912	44	6424
2026-01-29 01:15:36.98	291.00	43.84	-36.4	-37.4	22.2	0.00e+00	0	31	0	1457520640	44	6555
2026-01-29 01:15:37.99	291.45	43.69	-36.6	-37.6	22.4	0.00e+00	0	31	0	1460666368	44	6680
2026-01-29 01:15:39.00	291.90	43.54	-36.5	-37.5	22.4	0.00e+00	0	31	0	1463812096	44	6575
2026-01-29 01:15:40.01	292.34	43.39	-36.6	-37.6	22.4	0.00e+00	0	31	0	1466957824	44	6679
2026-01-29 01:15:41.02	292.78	43.24	-36.9	-37.9	22.2	0.00e+00	0	31	0	1470103552	46	6187
2026-01-29 01:15:42.03	293.22	43.08	-37.2	-38.3	21.8	0.00e+00	0	31	0	1473249280	46	6445
2026-01-29 01:15:43.04	293.65	42.92	-37.4	-38.5	21.8	0.00e+00	0	31	0	1476395008	46	6580
2026-01-29 01:15:44.05	294.08	42.77	-37.5	-38.6	21.6	0.00e+00	0	31	0	1479540736	46	6686
2026-01-29 01:15:45.06	294.50	42.61	-37.5	-38.6	21.4	0.00e+00	0	31	0	1482686464	46	6725
2026-01-29 01:15:46.07	294.92	42.45	-37.2	-38.3	21.7	0.00e+00	0	31	0	1485832192	46	6465
2026-01-29 01:15:47.08	295.33	42.29	-37.2	-38.2	21.8	0.00e+00	0	31	0	1488977920	46	6423
2026-01-29 01:15:48.09	295.74	42.13	-36.9	-37.9	22.2	0.00e+00	0	31	0	1492123648	46	6196
2026-01-29 01:15:49.10	296.15	41.97	-36.6	-37.6	22.6	0.00e+00	0	31	0	1495269376	46	5964
2026-01-29 01:15:50.10	296.55	41.80	-36.4	-37.4	22.7	0.00e+00	0	31	0	1498415104	46	5812
2026-01-29 01:15:51.11	296.95	41.64	-36.5	-37.4	22.8	0.00e+00	0	31	0	1501560832	46	5838
2026-01-29 01:15:52.12	297.34	41.48	-36.6	-37.6	22.6	0.00e+00	0	31	0	1504706560	46	5956
2026-01-29 01:15:53.13	297.73	41.31	-36.5	-37.5	22.7	0.00e+00	0	31	0	1507852288	46	5895
2026-01-29 01:15:54.14	298.12	41.15	-36.3	-37.3	22.9	0.00e+00	0	31	0	1510998016	46	5751
2026-01-29 01:15:55.15	298.50	40.98	-36.1	-37.0	22.9	0.00e+00	0	31	0	1514143744	46	5585
2026-01-29 01:15:56.16	298.88	40.81	-35.9	-36.9	23.2	0.00e+00	0	31	0	1517289472	46	5491
2026-01-29 01:15:57.17	299.26	40.64	-35.9	-36.9	23.1	0.00e+00	0	31	0	1520435200	46	5482
2026-01-29 01:15:58.18	299.63	40.48	-35.8	-36.7	23.3	0.00e+00	0	31	0	1523580928	46	5400
2026-01-29 01:15:59.19	299.99	40.31	-35.7	-36.7	23.3	0.00e+00	0	31	0	1526726656	44	6022
2026-01-29 01:16:00.20	300.36	40.14	-36.1	-37.0	23.0	0.00e+00	0	31	0	1529872384	44	6259
2026-01-29 01:16:01.21	300.72	39.97	-36.2	-37.1	22.8	0.00e+00	0	31	0	1533018112	44	6348
2026-01-29 01:16:02.22	301.07	39.80	-36.4	-37.4	22.5	0.00e+00	0	31	0	1536163840	44	6566
2026-01-29 01:16:03.23	301.43	39.63	-36.5	-37.5	22.4	0.00e+00	0	31	0	1539309568	44	6638
2026-01-29 01:16:04.24	301.78	39.46	-36.3	-37.3	22.6	0.00e+00	0	31	0	1542455296	44	6449
2026-01-29 01:16:05.25	302.12	39.29	-36.4	-37.4	22.6	0.00e+00	0	31	0	1545601024	44	6523
2026-01-29 01:16:06.26	302.46	39.12	-36.3	-37.3	22.8	0.00e+00	0	31	0	1548746752	44	6476
2026-01-29 01:16:07.27	302.80	38.94	-36.5	-37.5	22.7	0.00e+00	0	31	0	1551892480	44	6577
2026-01-29 01:16:08.28	303.14	38.77	-36.3	-37.3	22.8	0.00e+00	0	31	0	1555038208	44	6483
2026-01-29 01:16:09.29	303.47	38.60	-36.5	-37.5	22.7	0.00e+00	0	31	0	1558183936	44	6594
2026-01-29 01:16:10.30	303.79	38.43	-36.6	-37.6	22.5	0.00e+00	0	31	0	1561329664	44	6676
2026-01-29 01:16:11.30	304.12	38.26	-36.5	-37.5	22.7	0.00e+00	0	31	0	1564475392	44	6614
2026-01-29 01:16:12.31	304.44	38.08	-36.2	-37.2	22.8	0.00e+00	0	31	0	1567621120	44	6376
2026-01-29 01:16:13.32	304.75	37.91	-35.9	-36.8	23.2	0.00e+00	0	31	0	1570766848	44	6134
2026-01-29 01:16:14.33	305.07	37.74	-35.6	-36.5	23.4	0.00e+00	0	31	0	1573912576	44	5907
2026-01-29 01:16:15.34	305.38	37.57	-35.1	-36.0	23.9	0.00e+00	0	31	0	1577058304	44	5574
2026-01-29 01:16:16.35	305.69	37.39	-34.8	-35.7	24.1	0.00e+00	0	31	0	1580204032	42	6016
2026-01-29 01:16:17.36	305.99	37.22	-34.8	-35.7	24.0	0.00e+00	0	31	0	1583349760	42	6060
2026-01-29 01:16:18.37	306.29	37.05	-34.8	-35.7	24.1	0.00e+00	0	31	0	1586495488	42	6030
2026-01-29 01:16:19.38	306.59	36.88	-34.9	-35.8	24.0	0.00e+00	0	31	0	1589641216	42	6114
2026-01-29 01:16:20.39	306.89	36.70	-35.0	-35.9	24.0	0.00e+00	0	31	0	1592786944	42	6152
2026-01-29 01:16:21.40	307.18	36.53	-34.9	-35.8	24.0	0.00e+00	0	31	0	1595932672	42	6073
2026-01-29 01:16:22.41	307.47	36.36	-34.8	-35.7	24.2	0.00e+00	0	31	0	1599078400	42	6056
2026-01-29 01:16:23.42	307.76	36.19	-34.9	-35.9	24.0	0.00e+00	0	31	0	1602224128	42	6145
2026-01-29 01:16:24.42	308.04	36.02	-35.0	-35.9	23.8	0.00e+00	0	31	0	1605369856	42	6201
2026-01-29 01:16:25.43	308.32	35.85	-35.2	-36.1	23.8	0.00e+00	0	31	0	1608515584	42	6337
2026-01-29 01:16:26.44	308.60	35.67	-35.0	-35.9	24.0	0.00e+00	0	31	0	1611661312	42	6177
2026-01-29 01:16:27.45	308.87	35.50	-35.1	-36.1	23.9	0.00e+00	0	31	0	1614807040	42	6287
2026-01-29 01:16:28.46	309.14	35.33	-34.9	-35.8	24.0	0.00e+00	0	31	0	1617952768	42	6121
2026-01-29 01:16:29.47	309.41	35.16	-35.0	-35.9	24.0	0.00e+00	0	31	0	1621098496	42	6151
2026-01-29 01:16:30.48	309.68	34.99	-35.0	-35.9	24.0	0.00e+00	0	31	0	1624244224	42	6155
2026-01-29 01:16:31.49	309.94	34.82	-34.9	-35.9	24.0	0.00e+00	0	31	0	1627389952	42	6136
2026-01-29 01:16:32.50	310.20	34.65	-35.0	-35.9	23.9	0.00e+00	0	31	0	1630535680	42	6200
2026-01-29 01:16:33.51	310.46	34.48	-35.2	-36.2	23.6	0.00e+00	0	31	0	1633681408	42	6379
2026-01-29 01:16:34.52	310.72	34.31	-35.5	-36.5	23.4	0.00e+00	0	31	0	1636827136	42	6589
2026-01-29 01:16:35.53	310.97	34.14	-35.6	-36.6	23.5	0.00e+00	0	31	0	1639972864	42	6664
2026-01-29 01:16:36.54	311.22	33.97	-35.5	-36.4	23.5	0.00e+00	0	31	0	1643118592	42	6559
2026-01-29 01:16:37.55	311.47	33.80	-35.3	-36.2	23.8	0.00e+00	0	31	0	1647312896	42	6382
2026-01-29 01:16:38.56	311.71	33.64	-35.3	-36.2	23.8	0.00e+00	0	31	0	1650458624	42	6361
2026-01-29 01:16:39.57	311.96	33.47	-34.9	-35.8	24.0	0.00e+00	0	31	0	1652555776	42	6097
2026-01-29 01:16:40.58	312.20	33.30	-35.0	-35.9	23.9	0.00e+00	0	31	0	1655701504	42	6168
2026-01-29 01:16:41.59	312.43	33.13	-35.1	-36.0	23.8	0.00e+00	0	31	0	1658847232	42	6236
2026-01-29 01:16:42.60	312.67	32.97	-35.2	-36.2	23.6	0.00e+00	0	31	0	1661992960	42	6380
2026-01-29 01:16:43.61	312.90	32.80	-35.3	-36.3	23.6	0.00e+00	0	31	0	1666187264	42	6435
2026-01-29 01:16:44.62	313.13	32.63	-35.3	-36.2	23.7	0.00e+00	0	31	0	1669332992	42	6411
2026-01-29 01:16:45.63	313.36	32.47	-35.1	-36.0	23.8	0.00e+00	0	31	0	1672478720	42	6234
2026-01-29 01:16:46.64	313.59	32.30	-34.9	-35.9	24.0	0.00e+00	0	31	0	1675624448	42	6136
2026-01-29 01:16:47.66	313.82	32.14	-34.7	-35.6	24.2	0.00e+00	0	31	0	1678770176	42	5962
2026-01-29 01:16:48.66	314.04	31.98	-34.6	-35.5	24.2	0.00e+00	0	31	0	1681915904	42	5916
2026-01-29 01:16:49.67	314.26	31.81	-34.3	-35.2	24.4	0.00e+00	0	31	0	1685061632	42	5709
2026-01-29 01:16:50.68	314.47	31.65	-34.4	-35.3	24.3	0.00e+00	0	31	0	1688207360	42	5757
2026-01-29 01:16:51.69	314.69	31.49	-34.2	-35.1	24.4	0.00e+00	0	31	0	1691353088	42	5656
2026-01-29 01:16:52.70	314.90	31.32	-34.2	-35.1	24.4	0.00e+00	0	31	0	1694498816	42	5624
2026-01-29 01:16:53.71	315.11	31.16	-34.2	-35.1	24.4	0.00e+00	0	31	0	1697644544	42	5630
2026-01-29 01:16:54.72	315.32	31.00	-34.2	-35.0	24.5	0.00e+00	0	31	0	1700790272	42	5590
2026-01-29 01:16:55.73	315.53	30.84	-34.0	-34.9	24.6	0.00e+00	0	31	0	1703936000	42	5508
2026-01-29 01:16:56.74	315.74	30.68	-34.2	-35.1	24.4	0.00e+00	0	31	0	1707081728	42	5617
2026-01-29 01:16:57.75	315.94	30.52	-34.2	-35.1	24.5	0.00e+00	0	31	0	1710227456	42	5605
2026-01-29 01:16:58.76	316.14	30.36	-34.2	-35.1	24.4	0.00e+00	0	31	0	1713373184	42	5629
2026-01-29 01:16:59.77	316.34	30.20	-34.1	-35.0	24.5	0.00e+00	0	31	0	1716518912	42	5569
2026-01-29 01:17:00.78	316.54	30.04	-34.2	-35.1	24.5	0.00e+00	0	31	0	1719664640	42	5623
2026-01-29 01:17:01.79	316.73	29.89	-34.2	-35.1	24.6	0.00e+00	0	31	0	1722810368	42	5610
2026-01-29 01:17:02.80	316.93	29.73	-34.3	-35.2	24.4	0.00e+00	0	31	0	1725956096	42	5717
2026-01-29 01:17:03.81	317.12	29.57	-34.3	-35.2	24.4	0.00e+00	0	31	0	1729101824	42	5673
2026-01-29 01:17:04.82	317.31	29.42	-34.4	-35.3	24.2	0.00e+00	0	31	0	1732247552	42	5780
2026-01-29 01:17:05.82	317.50	29.26	-34.3	-35.2	24.4	0.00e+00	0	31	0	1735393280	42	5669
2026-01-29 01:17:06.84	317.68	29.10	-34.3	-35.2	24.2	0.00e+00	0	31	0	1738539008	42	5666
2026-01-29 01:17:07.84	317.87	28.95	-34.2	-35.0	24.2	0.00e+00	0	31	0	1741684736	42	5584
2026-01-29 01:17:08.85	318.05	28.80	-34.1	-35.0	24.2	0.00e+00	0	31	0	1744830464	42	5558
2026-01-29 01:17:09.86	318.23	28.64	-34.2	-35.1	24.2	0.00e+00	0	31	0	1747976192	42	5603
2026-01-29 01:17:10.87	318.41	28.49	-34.1	-35.0	24.3	0.00e+00	0	31	0	1751121920	42	5564
2026-01-29 01:17:11.88	318.59	28.34	-33.9	-34.8	24.4	0.00e+00	0	31	0	1754267648	42	5447
2026-01-29 01:17:12.89	318.77	28.19	-34.0	-34.8	24.5	0.00e+00	0	31	0	1757413376	42	5464
2026-01-29 01:17:13.90	318.94	28.04	-34.0	-34.9	24.4	0.00e+00	0	31	0	1760559104	42	5515
2026-01-29 01:17:14.91	319.12	27.88	-34.1	-34.9	24.4	0.00e+00	0	31	0	1763704832	42	5530
2026-01-29 01:17:15.92	319.29	27.73	-34.1	-35.0	24.4	0.00e+00	0	31	0	1766850560	42	5566
2026-01-29 01:17:16.93	319.46	27.58	-34.3	-35.2	24.5	0.00e+00	0	31	0	1769996288	42	5663
2026-01-29 01:17:17.94	319.63	27.44	-33.8	-34.7	24.7	0.00e+00	0	31	0	1773142016	42	5384
2026-01-29 01:17:18.94	319.79	27.29	-33.9	-34.8	24.7	0.00e+00	0	31	0	1776287744	42	5428
2026-01-29 01:17:19.95	319.96	27.14	-33.8	-34.6	24.8	0.00e+00	0	31	0	1779433472	42	5317
2026-01-29 01:17:20.96	320.12	26.99	-33.7	-34.6	24.9	0.00e+00	0	31	0	1782579200	40	5945
2026-01-29 01:17:21.97	320.28	26.85	-33.6	-34.5	24.8	0.00e+00	0	31	0	1785724928	40	5868
2026-01-29 01:17:22.98	320.44	26.70	-33.7	-34.6	24.7	0.00e+00	0	31	0	1788870656	40	5946
2026-01-29 01:17:23.99	320.60	26.55	-33.8	-34.7	24.7	0.00e+00	0	31	0	1792016384	40	6041
2026-01-29 01:17:25.00	320.76	26.41	-33.9	-34.7	24.7	0.00e+00	0	31	0	1795162112	40	6064
2026-01-29 01:17:26.01	320.92	26.27	-33.9	-34.8	24.7	0.00e+00	0	31	0	1798307840	40	6087
2026-01-29 01:17:27.02	321.08	26.12	-34.0	-34.9	24.6	0.00e+00	0	31	0	1801453568	40	6151
2026-01-29 01:17:28.03	321.23	25.98	-33.9	-34.8	24.5	0.00e+00	0	31	0	1804599296	40	6123
2026-01-29 01:17:29.04	321.38	25.83	-33.8	-34.7	24.8	0.00e+00	0	31	0	1807745024	40	6013
2026-01-29 01:17:30.05	321.53	25.69	-33.6	-34.5	24.8	0.00e+00	0	31	0	1810890752	40	5891
2026-01-29 01:17:31.06	321.68	25.55	-33.5	-34.4	24.9	0.00e+00	0	31	0	1814036480	40	5823
2026-01-29 01:17:32.07	321.83	25.41	-33.4	-34.2	24.9	0.00e+00	0	31	0	1817182208	40	5719
2026-01-29 01:17:33.08	321.98	25.27	-33.2	-34.0	25.1	0.00e+00	0	31	0	1820327936	40	5577
2026-01-29 01:17:34.09	322.13	25.13	-33.2	-34.1	25.0	0.00e+00	0	31	0	1823473664	40	5597
2026-01-29 01:17:35.10	322.27	24.99	-33.0	-33.9	25.1	0.00e+00	0	31	0	1826619392	40	5505
2026-01-29 01:17:36.11	322.42	24.85	-33.1	-33.9	25.0	0.00e+00	0	31	0	1829765120	40	5527
2026-01-29 01:17:37.12	322.56	24.71	-33.1	-34.0	25.0	0.00e+00	0	31	0	1832910848	40	5537
2026-01-29 01:17:38.13	322.70	24.57	-33.1	-34.0	24.9	0.00e+00	0	31	0	1836056576	40	5536
2026-01-29 01:17:39.13	322.84	24.44	-33.2	-34.1	24.9	0.00e+00	0	31	0	1839202304	40	5628
2026-01-29 01:17:40.14	322.98	24.30	-33.2	-34.1	24.9	0.00e+00	0	31	0	1842348032	40	5617
2026-01-29 01:17:41.15	323.12	24.16	-33.3	-34.1	24.9	0.00e+00	0	31	0	1845493760	40	5651
2026-01-29 01:17:42.16	323.25	24.03	-33.4	-34.3	24.9	0.00e+00	0	31	0	1848639488	40	5776
2026-01-29 01:17:43.17	323.39	23.89	-33.4	-34.3	24.9	0.00e+00	0	31	0	1851785216	40	5751
2026-01-29 01:17:44.18	323.52	23.76	-33.5	-34.3	24.9	0.00e+00	0	31	0	1854930944	40	5788
2026-01-29 01:17:45.19	323.66	23.62	-33.4	-34.3	25.0	0.00e+00	0	31	0	1858076672	40	5732
2026-01-29 01:17:46.20	323.79	23.49	-33.4	-34.3	24.9	0.00e+00	0	31	0	1861222400	40	5771
2026-01-29 01:17:47.21	323.92	23.36	-33.4	-34.3	24.7	0.00e+00	0	31	0	1864368128	40	5756
2026-01-29 01:17:48.22	324.05	23.23	-33.5	-34.4	24.7	0.00e+00	0	31	0	1867513856	40	5839
2026-01-29 01:17:49.23	324.18	23.09	-33.5	-34.4	24.6	0.00e+00	0	31	0	1870659584	40	5800
2026-01-29 01:17:50.24	324.31	22.96	-33.6	-34.5	24.5	0.00e+00	0	31	0	1873805312	40	5859
2026-01-29 01:17:51.25	324.44	22.83	-33.6	-34.5	24.5	0.00e+00	0	31	0	1876951040	40	5894
2026-01-29 01:17:52.26	324.56	22.70	-33.6	-34.5	24.5	0.00e+00	0	31	0	1880096768	40	5893
2026-01-29 01:17:53.27	324.69	22.57	-33.7	-34.6	24.5	0.00e+00	0	31	0	1883242496	40	5935
2026-01-29 01:17:54.28	324.81	22.44	-33.7	-34.6	24.4	0.00e+00	0	31	0	1886388224	40	5939
2026-01-29 01:17:55.29	324.93	22.31	-33.8	-34.7	24.4	0.00e+00	0	31	0	1889533952	40	6019
2026-01-29 01:17:56.30	325.06	22.19	-33.9	-34.8	24.3	0.00e+00	0	31	0	1892679680	40	6102
2026-01-29 01:17:57.31	325.18	22.06	-33.8	-34.7	24.5	0.00e+00	0	31	0	1895825408	40	6003
2026-01-29 01:17:58.32	325.30	21.93	-33.8	-34.6	24.6	0.00e+00	0	31	0	1898971136	40	5992
2026-01-29 01:17:59.33	325.42	21.80	-33.8	-34.6	24.6	0.00e+00	0	31	0	1902116864	40	5993
2026-01-29 01:18:00.34	325.53	21.68	-33.8	-34.7	24.6	0.00e+00	0	31	0	1905262592	40	6007
2026-01-29 01:18:01.34	325.65	21.55	-33.9	-34.8	24.4	0.00e+00	0	31	0	1908408320	40	6115
2026-01-29 01:18:02.35	325.77	21.43	-33.9	-34.8	24.4	0.00e+00	0	31	0	1911554048	40	6101
2026-01-29 01:18:03.36	325.88	21.30	-34.1	-35.0	24.4	0.00e+00	0	31	0	1914699776	40	6258
2026-01-29 01:18:04.37	326.00	21.18	-34.3	-35.2	24.2	0.00e+00	0	31	0	1917845504	40	6351
2026-01-29 01:18:05.38	326.11	21.06	-34.4	-35.3	24.2	0.00e+00	0	31	0	1920991232	40	6497
2026-01-29 01:18:06.39	326.22	20.93	-34.4	-35.4	24.2	0.00e+00	0	31	0	1924136960	40	6509
2026-01-29 01:18:07.40	326.34	20.81	-34.6	-35.6	24.0	0.00e+00	0	31	0	1927282688	40	6656
2026-01-29 01:18:08.41	326.45	20.69	-34.5	-35.4	24.2	0.00e+00	0	31	0	1930428416	40	6525
2026-01-29 01:18:09.42	326.56	20.57	-34.6	-35.5	24.1	0.00e+00	0	31	0	1933574144	40	6636
2026-01-29 01:18:10.43	326.67	20.44	-34.5	-35.4	24.2	0.00e+00	0	31	0	1936719872	40	6552
2026-01-29 01:18:11.44	326.78	20.32	-34.4	-35.3	24.3	0.00e+00	0	31	0	1939865600	40	6468
2026-01-29 01:18:12.45	326.88	20.20	-34.4	-35.3	24.2	0.00e+00	0	31	0	1943011328	40	6489
2026-01-29 01:18:13.46	326.99	20.08	-34.3	-35.2	24.4	0.00e+00	0	31	0	1946157056	40	6383
2026-01-29 01:18:14.47	327.10	19.96	-34.2	-35.1	24.4	0.00e+00	0	31	0	1949302784	40	6318
2026-01-29 01:18:15.48	327.20	19.85	-34.2	-35.1	24.4	0.00e+00	0	31	0	1952448512	40	6293
2026-01-29 01:18:16.49	327.31	19.73	-34.2	-35.1	24.4	0.00e+00	0	31	0	1955594240	40	6290
2026-01-29 01:18:17.50	327.41	19.61	-34.0	-34.9	24.4	0.00e+00	0	31	0	1958739968	40	6177
2026-01-29 01:18:18.51	327.52	19.49	-34.0	-34.9	24.4	0.00e+00	0	31	0	1961885696	40	6179
2026-01-29 01:18:19.52	327.62	19.38	-34.1	-35.0	24.3	0.00e+00	0	31	0	1965031424	40	6211
2026-01-29 01:18:20.53	327.72	19.26	-33.9	-34.8	24.4	0.00e+00	0	31	0	1968177152	40	6077
2026-01-29 01:18:21.54	327.82	19.14	-33.8	-34.7	24.5	0.00e+00	0	31	0	1971322880	40	6008
2026-01-29 01:18:22.55	327.92	19.03	-33.7	-34.6	24.5	0.00e+00	0	31	0	1974468608	40	5931
2026-01-29 01:18:23.56	328.02	18.91	-33.8	-34.7	24.5	0.00e+00	0	31	0	1977614336	40	6004
2026-01-29 01:18:24.58	328.12	18.80	-33.6	-34.5	24.6	0.00e+00	0	31	0	1980760064	40	5911
2026-01-29 01:18:25.59	328.22	18.68	-33.6	-34.4	24.7	0.00e+00	0	31	0	1983905792	40	5858
2026-01-29 01:18:26.60	328.32	18.57	-33.5	-34.4	24.7	0.00e+00	0	31	0	1987051520	40	5832
2026-01-29 01:18:27.61	328.41	18.46	-33.5	-34.4	24.7	0.00e+00	0	31	0	1990197248	40	5795
2026-01-29 01:18:28.62	328.51	18.34	-33.5	-34.4	24.7	0.00e+00	0	31	0	1993342976	40	5800
2026-01-29 01:18:29.62	328.60	18.23	-33.5	-34.4	24.8	0.00e+00	0	31	0	1996488704	40	5796
2026-01-29 01:18:30.63	328.70	18.12	-33.4	-34.2	24.9	0.00e+00	0	31	0	1999634432	40	5702
2026-01-29 01:18:31.64	328.79	18.01	-33.4	-34.2	24.9	0.00e+00	0	31	0	2002780160	40	5723
2026-01-29 01:18:32.65	328.89	17.90	-33.4	-34.3	24.9	0.00e+00	0	31	0	2006974464	40	5746
