passes_logs/2026/01/29/R4.6S_Anadyr/R4.6S_Anadyr__20260129_184208_SUOMI_NPP_rec.log

#Pass ID: 20260129_184208_SUOMI NPP
#Satellite: SUOMI NPP
#Configuration: NPP
#almurnet v.1.7.20251203
#Start time: 2026-01-29 18:42:10

#Version: 2.2.20231116
#Station: R4.6S_Anadyr
#Location: 177.4865 lon 64.73178 lat
#TLE: 1 37849U 11061A   26028.91916408  .00000155  00000+0  94467-4 0  9990
#TLE: 2 37849  98.7824 330.8488 0002045  39.4457 320.6868 14.19531289738686

#Time	Az	El	Level	Level2	SNR	BER	BlckErr	Temp	State	Recorded	gain1	gain2
2026-01-29 18:42:10.55	42.67	0.08	-48.8	-60.5	3.5	8.45e-01	0	29	0	0	60	38227
2026-01-29 18:42:11.56	42.59	0.13	-49.0	-64.2	3.6	1.51e+00	0	30	104	0	60	58673
2026-01-29 18:42:12.57	42.52	0.18	-49.0	-64.2	3.6	1.51e+00	0	30	104	0	60	58445
2026-01-29 18:42:13.58	42.45	0.23	-49.0	-64.2	3.6	1.51e+00	0	30	104	0	60	58625
2026-01-29 18:42:14.59	42.37	0.28	-49.0	-64.2	3.6	1.51e+00	0	30	104	0	60	58359
2026-01-29 18:42:15.60	42.30	0.33	-49.0	-64.2	3.6	1.51e+00	0	30	104	0	60	58356
2026-01-29 18:42:16.61	42.22	0.38	-48.9	-64.2	3.6	1.51e+00	0	30	104	0	60	58749
2026-01-29 18:42:17.62	42.15	0.43	-49.0	-64.2	3.6	1.51e+00	0	30	104	0	60	58519
2026-01-29 18:42:18.63	42.07	0.48	-49.0	-64.2	3.6	1.51e+00	0	30	104	0	60	58690
2026-01-29 18:42:19.64	42.00	0.53	-49.0	-64.2	3.6	1.51e+00	0	30	104	0	60	58792
2026-01-29 18:42:20.65	41.92	0.58	-49.0	-64.3	3.6	1.51e+00	0	30	104	0	60	59082
2026-01-29 18:42:21.66	41.85	0.63	-49.0	-64.2	3.6	1.51e+00	0	30	104	0	60	58827
2026-01-29 18:42:22.67	41.77	0.68	-49.0	-64.2	3.6	1.51e+00	0	30	104	0	60	58918
2026-01-29 18:42:23.68	41.70	0.73	-48.9	-64.2	3.6	1.51e+00	0	30	104	0	60	58510
2026-01-29 18:42:24.69	41.62	0.78	-48.9	-64.1	3.6	1.51e+00	0	30	104	0	60	58195
2026-01-29 18:42:25.70	41.54	0.83	-48.9	-64.2	3.6	1.51e+00	0	30	104	0	60	58377
2026-01-29 18:42:26.71	41.47	0.88	-48.9	-64.1	3.6	1.51e+00	0	30	104	0	60	57889
2026-01-29 18:42:27.72	41.39	0.93	-48.9	-64.1	3.6	1.51e+00	0	30	104	0	60	58003
2026-01-29 18:42:28.73	41.31	0.99	-48.8	-64.0	3.6	1.51e+00	0	30	104	0	60	57198
2026-01-29 18:42:29.74	41.23	1.04	-48.8	-64.0	3.6	1.51e+00	0	30	104	0	60	57043
2026-01-29 18:42:30.75	41.15	1.09	-48.7	-63.9	3.6	1.51e+00	0	30	104	0	60	56542
2026-01-29 18:42:31.76	41.08	1.14	-48.6	-63.8	3.6	1.51e+00	0	30	104	0	60	56139
2026-01-29 18:42:32.77	41.00	1.19	-48.5	-63.7	3.6	1.51e+00	0	30	104	0	60	55108
2026-01-29 18:42:33.78	40.92	1.24	-48.3	-63.4	3.6	1.51e+00	0	30	104	0	60	53747
2026-01-29 18:42:34.80	40.84	1.29	-48.1	-63.2	3.6	1.51e+00	0	30	104	0	60	52230
2026-01-29 18:42:35.81	40.76	1.34	-47.5	-62.7	3.6	1.51e+00	0	30	104	0	60	49395
2026-01-29 18:42:36.81	40.68	1.39	-47.4	-62.6	3.6	1.51e+00	0	30	104	0	60	48793
2026-01-29 18:42:37.82	40.60	1.44	-47.4	-62.6	3.6	1.51e+00	0	30	104	0	60	48531
2026-01-29 18:42:38.84	40.52	1.49	-47.4	-62.6	3.6	1.51e+00	0	30	104	0	60	48653
2026-01-29 18:42:39.85	40.44	1.55	-47.4	-62.6	3.6	1.51e+00	0	30	104	0	60	48563
2026-01-29 18:42:40.85	40.36	1.60	-47.4	-62.6	3.6	1.51e+00	0	30	104	0	60	48902
2026-01-29 18:42:41.86	40.28	1.65	-47.4	-62.6	3.6	1.51e+00	0	31	104	0	60	48532
2026-01-29 18:42:42.87	40.19	1.70	-47.4	-62.5	3.6	1.51e+00	0	31	104	0	60	48456
2026-01-29 18:42:43.88	40.11	1.75	-47.4	-62.5	3.6	1.51e+00	0	31	104	0	60	48395
2026-01-29 18:42:44.89	40.03	1.80	-47.4	-62.6	3.6	1.51e+00	0	31	104	0	60	48901
2026-01-29 18:42:45.90	39.95	1.85	-47.4	-62.6	3.6	1.51e+00	0	31	104	0	60	48546
2026-01-29 18:42:46.91	39.87	1.90	-47.4	-62.6	3.6	1.51e+00	0	31	104	0	60	48608
2026-01-29 18:42:47.92	39.78	1.95	-47.4	-62.6	3.6	1.51e+00	0	30	104	0	60	48530
2026-01-29 18:42:48.93	39.70	2.01	-47.4	-62.5	3.6	1.51e+00	0	30	104	0	60	48014
2026-01-29 18:42:49.94	39.62	2.06	-47.4	-62.5	3.6	1.51e+00	0	31	104	0	60	48063
2026-01-29 18:42:50.95	39.53	2.11	-47.4	-62.4	3.6	1.51e+00	0	31	104	0	60	47812
2026-01-29 18:42:51.96	39.45	2.16	-47.4	-62.5	3.6	1.51e+00	0	31	104	0	60	47961
2026-01-29 18:42:52.97	39.36	2.21	-47.4	-62.5	3.6	1.51e+00	0	31	104	0	60	48415
2026-01-29 18:42:53.98	39.28	2.26	-47.4	-62.5	3.6	1.51e+00	0	31	104	0	60	48189
2026-01-29 18:42:54.99	39.19	2.31	-47.4	-62.5	3.6	1.51e+00	0	31	104	0	60	48459
2026-01-29 18:42:56.00	39.11	2.37	-47.4	-62.5	3.6	1.51e+00	0	31	104	0	60	48337
2026-01-29 18:42:57.01	39.02	2.42	-47.4	-62.5	3.6	1.51e+00	0	30	104	0	60	48089
2026-01-29 18:42:58.02	38.94	2.47	-47.4	-62.5	3.6	1.51e+00	0	31	104	0	60	48137
2026-01-29 18:42:59.03	38.85	2.52	-47.4	-62.5	3.6	1.51e+00	0	31	104	0	60	48456
2026-01-29 18:43:00.04	38.76	2.57	-47.4	-62.5	3.6	1.51e+00	0	31	104	0	60	48245
2026-01-29 18:43:01.05	38.68	2.62	-47.4	-62.2	3.6	1.51e+00	0	31	104	0	60	46741
2026-01-29 18:43:02.06	38.59	2.68	-47.4	-61.8	3.6	1.51e+00	0	31	104	0	60	44439
2026-01-29 18:43:03.07	38.50	2.73	-47.4	-62.0	3.6	1.51e+00	0	31	104	0	60	45614
2026-01-29 18:43:04.08	38.41	2.78	-47.4	-62.5	3.6	1.51e+00	0	31	104	0	60	48005
2026-01-29 18:43:05.09	38.32	2.83	-47.3	-60.7	3.6	1.51e+00	0	31	104	0	60	39363
2026-01-29 18:43:06.10	38.24	2.88	-47.0	-56.3	5.3	1.33e+00	50	31	104	0	60	23733
2026-01-29 18:43:07.11	38.15	2.94	-46.3	-52.1	9.0	6.97e-02	0	31	0	1048576	60	14514
2026-01-29 18:43:08.12	38.06	2.99	-45.3	-49.4	12.0	3.96e-03	0	31	0	3145728	60	10677
2026-01-29 18:43:09.13	37.97	3.04	-44.5	-47.9	13.5	8.62e-05	92	31	0	5242880	60	8978
2026-01-29 18:43:10.14	37.88	3.09	-47.4	-62.4	3.6	1.51e+00	0	31	104	6291456	60	47590
2026-01-29 18:43:11.15	37.79	3.14	-46.2	-52.0	10.6	1.06e+00	91	31	104	6291456	60	14389
2026-01-29 18:43:12.16	37.70	3.20	-47.3	-62.2	3.6	4.34e-01	0	31	104	6291456	60	46707
2026-01-29 18:43:13.17	37.61	3.25	-47.5	-61.2	3.7	1.51e+00	0	31	104	6291456	60	41632
2026-01-29 18:43:14.18	37.51	3.30	-44.1	-47.2	14.2	9.08e-01	0	31	104	6291456	60	8279
2026-01-29 18:43:15.19	37.42	3.35	-43.7	-46.4	15.1	0.00e+00	40	31	0	7340032	60	7546
2026-01-29 18:43:16.20	37.33	3.40	-43.8	-46.5	14.9	2.20e-06	92	31	0	8388608	60	7645
2026-01-29 18:43:17.21	37.24	3.46	-43.1	-45.4	16.2	0.00e+00	0	31	0	10485760	60	6730
2026-01-29 18:43:18.22	37.15	3.51	-43.1	-45.4	16.3	0.00e+00	50	31	0	12582912	60	6707
2026-01-29 18:43:19.23	37.05	3.56	-42.9	-45.1	16.5	0.00e+00	0	31	0	14680064	58	7294
2026-01-29 18:43:20.24	36.96	3.61	-41.9	-43.7	17.8	0.00e+00	92	31	0	16777216	58	6225
2026-01-29 18:43:21.25	36.87	3.67	-41.4	-43.1	18.6	0.00e+00	0	31	0	17825792	56	6485
2026-01-29 18:43:22.26	36.77	3.72	-42.0	-43.8	17.8	0.00e+00	32	31	0	19922944	56	7037
2026-01-29 18:43:23.27	36.68	3.77	-41.9	-43.6	18.1	0.00e+00	56	31	0	22020096	56	6897
2026-01-29 18:43:24.28	36.58	3.82	-42.0	-43.8	17.9	0.00e+00	0	31	0	24117248	56	7054
2026-01-29 18:43:25.29	36.49	3.88	-41.9	-43.6	18.0	0.00e+00	50	31	0	26214400	56	6921
2026-01-29 18:43:26.30	36.39	3.93	-41.8	-43.5	18.1	0.00e+00	0	31	0	27262976	56	6830
2026-01-29 18:43:27.31	36.30	3.98	-41.7	-43.4	18.3	0.00e+00	73	31	0	29360128	56	6741
2026-01-29 18:43:28.32	36.20	4.03	-41.5	-43.1	18.6	0.00e+00	0	31	0	31457280	56	6529
2026-01-29 18:43:29.33	36.10	4.09	-41.7	-43.4	18.3	0.00e+00	92	31	0	33554432	56	6730
2026-01-29 18:43:30.33	36.01	4.14	-41.8	-43.5	18.2	0.00e+00	53	31	0	35651584	56	6779
2026-01-29 18:43:31.34	35.91	4.19	-41.7	-43.5	18.3	0.00e+00	0	31	0	36700160	56	6775
2026-01-29 18:43:32.36	35.81	4.24	-41.5	-43.2	18.6	0.00e+00	75	31	0	38797312	56	6552
2026-01-29 18:43:33.36	35.71	4.30	-41.9	-43.7	18.0	0.00e+00	0	31	0	40894464	56	6947
2026-01-29 18:43:34.37	35.62	4.35	-41.8	-43.5	18.3	0.00e+00	92	31	0	42991616	56	6811
2026-01-29 18:43:35.38	35.52	4.40	-42.2	-44.0	17.5	0.00e+00	0	31	0	45088768	56	7246
2026-01-29 18:43:36.39	35.42	4.45	-42.1	-43.9	18.1	0.00e+00	92	31	0	46137344	56	7109
2026-01-29 18:43:37.40	35.32	4.51	-42.1	-44.0	17.9	0.00e+00	0	31	0	48234496	56	7200
2026-01-29 18:43:38.41	35.22	4.56	-42.0	-43.8	18.1	0.00e+00	0	31	0	50331648	56	7028
2026-01-29 18:43:39.42	35.12	4.61	-42.0	-43.8	18.0	0.00e+00	76	31	0	52428800	56	7083
2026-01-29 18:43:40.43	35.02	4.66	-41.8	-43.5	18.3	0.00e+00	0	31	0	54525952	56	6819
2026-01-29 18:43:41.44	34.92	4.72	-42.1	-44.0	17.9	0.00e+00	92	31	0	55574528	56	7192
2026-01-29 18:43:42.45	34.82	4.77	-42.3	-44.1	17.8	0.00e+00	0	31	0	57671680	56	7303
2026-01-29 18:43:43.46	34.71	4.82	-41.9	-43.6	18.3	0.00e+00	92	31	0	59768832	56	6918
2026-01-29 18:43:44.47	34.61	4.88	-41.9	-43.7	18.2	0.00e+00	0	31	0	61865984	56	6966
2026-01-29 18:43:45.48	34.51	4.93	-42.2	-44.0	18.0	0.00e+00	0	31	0	63963136	56	7230
2026-01-29 18:43:46.49	34.41	4.98	-42.1	-43.9	18.1	0.00e+00	90	31	0	66060288	56	7141
2026-01-29 18:43:47.50	34.30	5.04	-42.1	-43.9	18.1	0.00e+00	0	31	0	67108864	56	7097
2026-01-29 18:43:48.51	34.20	5.09	-41.8	-43.5	18.4	0.00e+00	92	31	0	69206016	56	6796
2026-01-29 18:43:49.52	34.10	5.14	-41.8	-43.4	18.4	0.00e+00	0	31	0	71303168	56	6766
2026-01-29 18:43:50.53	33.99	5.19	-41.8	-43.5	18.3	0.00e+00	90	31	0	73400320	56	6819
2026-01-29 18:43:51.54	33.89	5.25	-41.8	-43.5	18.4	0.00e+00	0	31	0	75497472	56	6813
2026-01-29 18:43:52.55	33.78	5.30	-41.7	-43.4	18.6	0.00e+00	0	31	0	76546048	56	6711
2026-01-29 18:43:53.56	33.68	5.35	-41.7	-43.4	18.6	0.00e+00	90	31	0	78643200	56	6722
2026-01-29 18:43:54.57	33.57	5.41	-41.8	-43.5	18.5	0.00e+00	0	31	0	80740352	56	6815
2026-01-29 18:43:55.58	33.46	5.46	-41.7	-43.3	18.7	0.00e+00	49	31	0	82837504	56	6661
2026-01-29 18:43:56.60	33.36	5.51	-41.6	-43.3	18.8	0.00e+00	0	31	0	84934656	56	6619
2026-01-29 18:43:57.60	33.25	5.57	-41.6	-43.3	18.7	0.00e+00	90	31	0	85983232	56	6653
2026-01-29 18:43:58.62	33.14	5.62	-41.6	-43.2	18.9	0.00e+00	33	31	0	88080384	56	6600
2026-01-29 18:43:59.62	33.03	5.67	-41.9	-43.7	18.3	0.00e+00	61	31	0	90177536	56	6991
2026-01-29 18:44:00.63	32.93	5.73	-41.7	-43.3	18.7	0.00e+00	52	31	0	92274688	56	6678
2026-01-29 18:44:01.64	32.82	5.78	-41.5	-43.1	18.8	0.00e+00	0	31	0	94371840	56	6517
2026-01-29 18:44:02.65	32.71	5.83	-41.8	-43.6	18.5	0.00e+00	55	31	0	95420416	56	6872
2026-01-29 18:44:03.66	32.60	5.88	-41.8	-43.5	18.6	0.00e+00	0	31	0	97517568	56	6813
2026-01-29 18:44:04.67	32.49	5.94	-41.7	-43.3	18.5	0.00e+00	92	31	0	99614720	56	6682
2026-01-29 18:44:05.68	32.38	5.99	-41.9	-43.6	18.3	0.00e+00	0	31	0	101711872	56	6886
2026-01-29 18:44:06.69	32.27	6.04	-41.8	-43.4	18.6	0.00e+00	92	31	0	103809024	56	6746
2026-01-29 18:44:07.70	32.16	6.10	-41.9	-43.7	18.4	0.00e+00	0	31	0	104857600	56	6952
2026-01-29 18:44:08.71	32.04	6.15	-41.9	-43.6	18.5	0.00e+00	0	31	0	106954752	56	6904
2026-01-29 18:44:09.72	31.93	6.20	-42.0	-43.7	18.4	0.00e+00	92	31	0	109051904	56	6962
2026-01-29 18:44:10.73	31.82	6.26	-42.3	-44.1	17.9	0.00e+00	0	31	0	111149056	56	7336
2026-01-29 18:44:11.74	31.71	6.31	-42.0	-43.7	18.3	0.00e+00	35	31	0	113246208	56	6991
2026-01-29 18:44:12.75	31.59	6.36	-41.8	-43.5	18.6	0.00e+00	0	31	0	114294784	56	6838
2026-01-29 18:44:13.76	31.48	6.42	-41.8	-43.5	18.6	0.00e+00	0	31	0	116391936	56	6783
2026-01-29 18:44:14.77	31.37	6.47	-41.6	-43.2	18.9	0.00e+00	0	31	0	118489088	56	6603
2026-01-29 18:44:15.78	31.25	6.52	-41.4	-43.1	19.1	0.00e+00	0	31	0	120586240	56	6465
2026-01-29 18:44:16.79	31.14	6.58	-41.4	-42.9	19.1	0.00e+00	92	31	0	122683392	56	6360
2026-01-29 18:44:17.80	31.02	6.63	-41.4	-43.0	19.2	0.00e+00	0	31	0	123731968	56	6403
2026-01-29 18:44:18.81	30.90	6.68	-41.4	-43.0	19.1	0.00e+00	68	31	0	125829120	56	6392
2026-01-29 18:44:19.82	30.79	6.74	-41.4	-43.0	19.1	0.00e+00	0	31	0	127926272	56	6425
2026-01-29 18:44:20.83	30.67	6.79	-41.4	-43.0	19.2	0.00e+00	0	31	0	130023424	56	6402
2026-01-29 18:44:21.84	30.55	6.84	-41.1	-42.6	19.4	0.00e+00	0	31	0	132120576	56	6155
2026-01-29 18:44:22.85	30.44	6.90	-41.0	-42.4	19.6	0.00e+00	0	31	0	134217728	56	6011
2026-01-29 18:44:23.86	30.32	6.95	-41.0	-42.5	19.7	0.00e+00	92	31	0	135266304	56	6068
2026-01-29 18:44:24.87	30.20	7.00	-40.7	-42.1	19.8	0.00e+00	0	31	0	137363456	54	6523
2026-01-29 18:44:25.88	30.08	7.06	-40.4	-41.8	20.1	0.00e+00	92	31	0	139460608	54	6258
2026-01-29 18:44:26.89	29.96	7.11	-40.5	-41.9	20.1	0.00e+00	0	31	0	141557760	54	6327
2026-01-29 18:44:27.90	29.84	7.16	-40.3	-41.7	20.3	0.00e+00	0	31	0	143654912	54	6177
2026-01-29 18:44:28.91	29.72	7.22	-40.3	-41.6	20.3	0.00e+00	0	31	0	144703488	54	6121
2026-01-29 18:44:29.92	29.60	7.27	-40.3	-41.6	20.3	0.00e+00	0	31	0	146800640	54	6126
2026-01-29 18:44:30.92	29.48	7.32	-40.4	-41.7	20.1	0.00e+00	74	31	0	148897792	54	6236
2026-01-29 18:44:31.93	29.36	7.37	-40.3	-41.6	20.2	0.00e+00	0	31	0	150994944	54	6171
2026-01-29 18:44:32.94	29.24	7.43	-40.4	-41.7	20.2	0.00e+00	72	31	0	153092096	54	6203
2026-01-29 18:44:33.95	29.11	7.48	-40.4	-41.7	20.0	0.00e+00	0	31	0	154140672	54	6227
2026-01-29 18:44:34.96	28.99	7.53	-40.3	-41.6	19.9	0.00e+00	0	31	0	156237824	54	6113
2026-01-29 18:44:35.97	28.87	7.59	-40.5	-41.8	20.1	0.00e+00	0	31	0	158334976	54	6293
2026-01-29 18:44:36.98	28.74	7.64	-40.4	-41.7	20.1	0.00e+00	0	31	0	160432128	54	6233
2026-01-29 18:44:37.99	28.62	7.69	-40.2	-41.5	20.5	0.00e+00	58	31	0	162529280	54	6062
2026-01-29 18:44:39.01	28.49	7.75	-40.4	-41.8	20.2	0.00e+00	0	31	0	163577856	54	6249
2026-01-29 18:44:40.02	28.37	7.80	-40.5	-41.9	20.1	0.00e+00	80	31	0	165675008	54	6325
2026-01-29 18:44:41.03	28.24	7.85	-40.4	-41.7	20.3	0.00e+00	0	31	0	167772160	54	6220
2026-01-29 18:44:42.03	28.11	7.90	-40.4	-41.7	20.2	0.00e+00	0	31	0	169869312	54	6195
2026-01-29 18:44:43.05	27.99	7.96	-40.2	-41.5	20.4	0.00e+00	0	31	0	171966464	54	6060
2026-01-29 18:44:44.06	27.86	8.01	-40.4	-41.8	20.3	0.00e+00	0	31	0	173015040	54	6253
2026-01-29 18:44:45.07	27.73	8.06	-40.6	-42.0	20.1	0.00e+00	17	31	0	175112192	54	6408
2026-01-29 18:44:46.08	27.60	8.12	-40.6	-41.9	20.1	0.00e+00	0	31	0	177209344	54	6370
2026-01-29 18:44:47.09	27.47	8.17	-40.6	-42.0	20.0	0.00e+00	57	31	0	179306496	54	6396
2026-01-29 18:44:48.10	27.35	8.22	-40.7	-42.1	20.0	0.00e+00	0	31	0	181403648	54	6493
2026-01-29 18:44:49.11	27.22	8.28	-40.7	-42.1	19.9	0.00e+00	0	31	0	182452224	54	6507
2026-01-29 18:44:50.12	27.09	8.33	-40.6	-42.0	20.1	0.00e+00	0	31	0	184549376	54	6417
2026-01-29 18:44:51.13	26.95	8.38	-40.6	-42.0	20.0	0.00e+00	0	31	0	186646528	54	6418
2026-01-29 18:44:52.14	26.82	8.43	-40.7	-42.0	20.0	0.00e+00	16	31	0	188743680	54	6453
2026-01-29 18:44:53.15	26.69	8.49	-40.5	-41.8	20.4	0.00e+00	0	31	0	190840832	54	6278
2026-01-29 18:44:54.16	26.56	8.54	-40.4	-41.7	20.3	0.00e+00	18	31	0	191889408	54	6232
2026-01-29 18:44:55.17	26.43	8.59	-40.2	-41.5	20.5	0.00e+00	31	31	0	193986560	54	6035
2026-01-29 18:44:56.18	26.29	8.64	-40.5	-41.8	20.3	0.00e+00	92	31	0	196083712	54	6281
2026-01-29 18:44:57.18	26.16	8.70	-40.7	-42.0	20.0	0.00e+00	0	31	0	198180864	54	6464
2026-01-29 18:44:58.20	26.03	8.75	-40.4	-41.7	20.3	0.00e+00	0	31	0	200278016	54	6242
2026-01-29 18:44:59.20	25.89	8.80	-40.6	-42.0	19.9	0.00e+00	0	31	0	202375168	54	6421
2026-01-29 18:45:00.21	25.76	8.85	-40.8	-42.1	20.0	0.00e+00	0	31	0	203423744	54	6533
2026-01-29 18:45:01.22	25.62	8.91	-40.5	-41.9	20.2	0.00e+00	92	31	0	205520896	54	6320
2026-01-29 18:45:02.24	25.48	8.96	-40.6	-41.9	20.2	0.00e+00	31	31	0	207618048	54	6380
2026-01-29 18:45:03.25	25.35	9.01	-40.4	-41.7	20.4	0.00e+00	75	31	0	209715200	54	6178
2026-01-29 18:45:04.25	25.21	9.06	-40.3	-41.6	20.5	0.00e+00	0	31	0	211812352	54	6140
2026-01-29 18:45:05.26	25.07	9.11	-40.2	-41.5	20.6	0.00e+00	0	31	0	212860928	54	6044
2026-01-29 18:45:06.27	24.94	9.17	-40.4	-41.6	20.3	0.00e+00	8	31	0	214958080	54	6166
2026-01-29 18:45:07.28	24.80	9.22	-40.4	-41.6	20.4	0.00e+00	0	31	0	217055232	54	6172
2026-01-29 18:45:08.29	24.66	9.27	-40.3	-41.5	20.5	0.00e+00	53	31	0	219152384	54	6101
2026-01-29 18:45:09.30	24.52	9.32	-40.3	-41.6	20.5	0.00e+00	0	31	0	221249536	54	6125
2026-01-29 18:45:10.32	24.38	9.37	-40.2	-41.5	20.6	0.00e+00	60	31	0	222298112	54	6062
2026-01-29 18:45:11.33	24.24	9.43	-40.4	-41.6	20.6	0.00e+00	0	31	0	224395264	54	6157
2026-01-29 18:45:12.33	24.10	9.48	-40.3	-41.5	20.5	0.00e+00	0	31	0	226492416	54	6080
2026-01-29 18:45:13.35	23.95	9.53	-40.3	-41.5	20.6	0.00e+00	0	31	0	228589568	54	6083
2026-01-29 18:45:14.35	23.81	9.58	-40.4	-41.7	20.3	0.00e+00	0	31	0	230686720	54	6217
2026-01-29 18:45:15.36	23.67	9.63	-40.5	-41.8	20.2	0.00e+00	38	31	0	231735296	54	6284
2026-01-29 18:45:16.37	23.53	9.68	-40.6	-42.0	20.1	0.00e+00	0	31	0	233832448	54	6411
2026-01-29 18:45:17.38	23.38	9.74	-40.8	-42.2	19.9	0.00e+00	56	31	0	235929600	54	6540
2026-01-29 18:45:18.40	23.24	9.79	-40.9	-42.4	19.8	0.00e+00	0	31	0	238026752	54	6708
2026-01-29 18:45:19.40	23.09	9.84	-41.0	-42.5	19.6	0.00e+00	0	31	0	240123904	54	6792
2026-01-29 18:45:20.41	22.95	9.89	-41.0	-42.5	19.8	0.00e+00	0	31	0	242221056	54	6789
2026-01-29 18:45:21.42	22.80	9.94	-40.9	-42.4	19.8	0.00e+00	0	31	0	243269632	54	6700
2026-01-29 18:45:22.43	22.66	9.99	-41.1	-42.5	19.9	0.00e+00	63	31	0	245366784	54	6814
2026-01-29 18:45:23.44	22.51	10.04	-40.8	-42.2	20.0	0.00e+00	0	31	0	247463936	54	6551
2026-01-29 18:45:24.45	22.36	10.09	-40.6	-42.0	20.2	0.00e+00	92	31	0	249561088	54	6412
2026-01-29 18:45:25.46	22.22	10.14	-40.7	-42.0	20.2	0.00e+00	0	31	0	251658240	54	6436
2026-01-29 18:45:26.47	22.07	10.20	-40.5	-41.8	20.4	0.00e+00	7	31	0	252706816	54	6316
2026-01-29 18:45:27.48	21.92	10.25	-40.6	-41.9	20.3	0.00e+00	0	31	0	254803968	54	6357
2026-01-29 18:45:28.49	21.77	10.30	-40.6	-41.9	20.4	0.00e+00	0	31	0	256901120	54	6361
2026-01-29 18:45:29.50	21.62	10.35	-40.6	-41.9	20.2	0.00e+00	49	31	0	258998272	54	6336
2026-01-29 18:45:30.51	21.47	10.40	-40.3	-41.5	20.6	0.00e+00	0	31	0	260046848	54	6095
2026-01-29 18:45:31.52	21.32	10.45	-40.2	-41.5	20.7	0.00e+00	92	31	0	262144000	54	6056
2026-01-29 18:45:32.53	21.17	10.50	-39.8	-40.9	21.2	0.00e+00	0	31	0	264241152	52	6381
2026-01-29 18:45:33.54	21.01	10.55	-39.9	-41.1	21.1	0.00e+00	80	31	0	266338304	52	6488
2026-01-29 18:45:34.55	20.86	10.60	-39.9	-41.0	21.1	0.00e+00	0	31	0	268435456	52	6460
2026-01-29 18:45:35.56	20.71	10.65	-39.7	-40.8	21.1	0.00e+00	0	31	0	270532608	52	6307
2026-01-29 18:45:36.57	20.55	10.70	-39.4	-40.5	21.5	0.00e+00	50	31	0	271581184	52	6067
2026-01-29 18:45:37.58	20.40	10.75	-39.6	-40.8	21.3	0.00e+00	0	31	0	273678336	52	6267
2026-01-29 18:45:38.59	20.24	10.80	-39.4	-40.6	21.5	0.00e+00	49	31	0	275775488	52	6111
2026-01-29 18:45:39.60	20.09	10.85	-39.3	-40.4	21.4	0.00e+00	0	31	0	277872640	52	5992
2026-01-29 18:45:40.61	19.93	10.90	-39.0	-40.1	21.8	0.00e+00	90	31	0	279969792	52	5800
2026-01-29 18:45:41.62	19.78	10.95	-39.1	-40.2	21.9	0.00e+00	0	31	0	281018368	52	5842
2026-01-29 18:45:42.63	19.62	10.99	-39.1	-40.2	21.9	0.00e+00	0	31	0	283115520	52	5864
2026-01-29 18:45:43.64	19.46	11.04	-38.9	-40.0	22.1	0.00e+00	0	31	0	285212672	52	5725
2026-01-29 18:45:44.65	19.30	11.09	-38.8	-39.9	22.0	0.00e+00	0	31	0	287309824	52	5665
2026-01-29 18:45:45.66	19.15	11.14	-38.7	-39.7	22.3	0.00e+00	60	31	0	289406976	50	6233
2026-01-29 18:45:46.67	18.99	11.19	-38.7	-39.7	22.2	0.00e+00	0	31	0	290455552	50	6222
2026-01-29 18:45:47.68	18.83	11.24	-38.6	-39.6	22.3	0.00e+00	92	31	0	292552704	50	6139
2026-01-29 18:45:48.69	18.67	11.29	-38.5	-39.5	22.5	0.00e+00	0	31	0	294649856	50	6037
2026-01-29 18:45:49.70	18.51	11.34	-38.5	-39.6	22.3	0.00e+00	0	31	0	296747008	50	6112
2026-01-29 18:45:50.71	18.35	11.38	-38.6	-39.6	22.3	0.00e+00	0	31	0	298844160	50	6148
2026-01-29 18:45:51.72	18.18	11.43	-38.7	-39.7	22.1	0.00e+00	0	31	0	299892736	50	6207
2026-01-29 18:45:52.73	18.02	11.48	-38.7	-39.7	22.1	0.00e+00	58	31	0	301989888	50	6243
2026-01-29 18:45:53.74	17.86	11.53	-38.9	-39.9	22.0	0.00e+00	0	31	0	304087040	50	6382
2026-01-29 18:45:54.75	17.70	11.58	-38.9	-39.9	22.1	0.00e+00	61	31	0	306184192	50	6372
2026-01-29 18:45:55.76	17.53	11.62	-38.8	-39.9	22.1	0.00e+00	0	31	0	308281344	50	6343
2026-01-29 18:45:56.77	17.37	11.67	-38.8	-39.8	22.0	0.00e+00	0	31	0	310378496	50	6309
2026-01-29 18:45:57.78	17.20	11.72	-38.9	-40.0	22.1	0.00e+00	0	31	0	311427072	50	6455
2026-01-29 18:45:58.79	17.04	11.77	-38.8	-39.8	22.2	0.00e+00	0	31	0	313524224	50	6310
2026-01-29 18:45:59.80	16.87	11.81	-38.6	-39.6	22.2	0.00e+00	56	31	0	315621376	50	6167
2026-01-29 18:46:00.80	16.71	11.86	-38.6	-39.6	22.2	0.00e+00	0	31	0	317718528	50	6138
2026-01-29 18:46:01.81	16.54	11.91	-38.3	-39.3	22.6	0.00e+00	79	31	0	319815680	50	5930
2026-01-29 18:46:02.82	16.37	11.95	-38.1	-39.0	22.8	0.00e+00	0	31	0	320864256	50	5751
2026-01-29 18:46:03.83	16.20	12.00	-38.0	-39.0	22.8	0.00e+00	0	31	0	322961408	50	5732
2026-01-29 18:46:04.84	16.03	12.04	-38.1	-39.0	22.9	0.00e+00	0	31	0	325058560	50	5748
2026-01-29 18:46:05.85	15.86	12.09	-38.2	-39.2	22.7	0.00e+00	0	31	0	327155712	50	5862
2026-01-29 18:46:06.86	15.69	12.14	-38.3	-39.2	22.6	0.00e+00	24	31	0	328204288	50	5895
2026-01-29 18:46:07.87	15.52	12.18	-38.3	-39.3	22.6	0.00e+00	0	31	0	330301440	50	5907
2026-01-29 18:46:08.88	15.35	12.23	-38.3	-39.3	22.7	0.00e+00	89	31	0	332398592	50	5897
2026-01-29 18:46:09.89	15.18	12.27	-38.2	-39.2	22.6	0.00e+00	0	31	0	334495744	50	5864
2026-01-29 18:46:10.90	15.01	12.32	-38.4	-39.4	22.5	0.00e+00	92	31	0	336592896	50	6014
2026-01-29 18:46:11.91	14.84	12.36	-38.5	-39.5	22.3	0.00e+00	0	31	0	338690048	50	6094
2026-01-29 18:46:12.92	14.66	12.41	-38.8	-39.9	22.1	0.00e+00	0	31	0	339738624	50	6335
2026-01-29 18:46:13.93	14.49	12.45	-38.8	-39.9	22.1	0.00e+00	0	31	0	341835776	50	6336
2026-01-29 18:46:14.94	14.32	12.50	-38.6	-39.7	22.3	0.00e+00	0	31	0	343932928	50	6176
2026-01-29 18:46:15.95	14.14	12.54	-38.5	-39.6	22.3	0.00e+00	56	31	0	346030080	50	6135
2026-01-29 18:46:16.96	13.97	12.59	-38.4	-39.4	22.6	0.00e+00	0	31	0	348127232	50	6005
2026-01-29 18:46:17.97	13.79	12.63	-38.2	-39.2	22.8	0.00e+00	78	31	0	349175808	50	5831
2026-01-29 18:46:18.98	13.61	12.67	-37.7	-38.6	23.2	0.00e+00	0	31	0	351272960	50	5464
2026-01-29 18:46:19.99	13.44	12.72	-37.5	-38.4	23.3	0.00e+00	0	31	0	353370112	48	5983
2026-01-29 18:46:21.00	13.26	12.76	-37.5	-38.4	23.4	0.00e+00	0	31	0	355467264	48	6003
2026-01-29 18:46:22.01	13.08	12.81	-37.4	-38.3	23.4	0.00e+00	0	31	0	357564416	48	5913
2026-01-29 18:46:23.02	12.90	12.85	-37.5	-38.4	23.4	0.00e+00	73	31	0	358612992	48	5975
2026-01-29 18:46:24.03	12.72	12.89	-37.4	-38.3	23.4	0.00e+00	0	31	0	360710144	48	5920
2026-01-29 18:46:25.04	12.54	12.93	-37.3	-38.3	23.5	0.00e+00	58	31	0	362807296	48	5900
2026-01-29 18:46:26.05	12.36	12.98	-37.4	-38.3	23.4	0.00e+00	0	31	0	364904448	48	5913
2026-01-29 18:46:27.06	12.18	13.02	-37.4	-38.3	23.4	0.00e+00	0	31	0	367001600	48	5931
2026-01-29 18:46:28.07	12.00	13.06	-37.6	-38.6	22.9	0.00e+00	0	31	0	368050176	48	6118
2026-01-29 18:46:29.08	11.82	13.10	-37.8	-38.8	22.5	0.00e+00	0	31	0	370147328	48	6267
2026-01-29 18:46:30.09	11.64	13.14	-38.2	-39.2	22.7	0.00e+00	23	31	0	372244480	48	6598
2026-01-29 18:46:31.10	11.46	13.19	-38.2	-39.2	22.7	0.00e+00	0	31	0	374341632	48	6591
2026-01-29 18:46:32.11	11.27	13.23	-38.3	-39.3	22.6	0.00e+00	91	31	0	376438784	48	6637
2026-01-29 18:46:33.12	11.09	13.27	-38.3	-39.3	22.6	0.00e+00	0	31	0	377487360	48	6632
2026-01-29 18:46:34.13	10.91	13.31	-38.3	-39.3	22.6	0.00e+00	0	31	0	379584512	48	6666
2026-01-29 18:46:35.14	10.72	13.35	-38.4	-39.4	22.6	0.00e+00	0	31	0	381681664	48	6761
2026-01-29 18:46:36.15	10.54	13.39	-38.5	-39.5	22.6	0.00e+00	7	31	0	383778816	48	6793
2026-01-29 18:46:37.16	10.35	13.43	-38.3	-39.3	22.6	0.00e+00	32	31	0	385875968	48	6651
2026-01-29 18:46:38.17	10.16	13.47	-38.3	-39.3	22.7	0.00e+00	0	31	0	387973120	48	6654
2026-01-29 18:46:39.18	9.98	13.51	-38.4	-39.5	22.5	0.00e+00	89	31	0	389021696	48	6770
2026-01-29 18:46:40.19	9.79	13.55	-38.6	-39.7	22.3	0.00e+00	0	31	0	391118848	48	6959
2026-01-29 18:46:41.20	9.60	13.59	-38.7	-39.8	22.4	0.00e+00	31	31	0	393216000	48	7070
2026-01-29 18:46:42.21	9.41	13.63	-38.9	-40.0	22.2	0.00e+00	0	31	0	395313152	50	6438
2026-01-29 18:46:43.22	9.23	13.66	-39.1	-40.2	21.8	0.00e+00	0	31	0	397410304	50	6555
2026-01-29 18:46:44.23	9.04	13.70	-39.1	-40.3	21.8	0.00e+00	56	31	0	398458880	50	6654
2026-01-29 18:46:45.24	8.85	13.74	-38.7	-39.7	22.3	0.00e+00	0	31	0	400556032	50	6228
2026-01-29 18:46:46.25	8.66	13.78	-38.6	-39.6	22.3	0.00e+00	51	31	0	402653184	50	6149
2026-01-29 18:46:47.26	8.47	13.82	-38.1	-39.1	22.8	0.00e+00	0	31	0	404750336	50	5811
2026-01-29 18:46:48.27	8.27	13.85	-38.0	-38.9	22.9	0.00e+00	52	31	0	406847488	50	5678
2026-01-29 18:46:49.28	8.08	13.89	-38.1	-39.0	22.9	0.00e+00	0	31	0	407896064	50	5744
2026-01-29 18:46:50.29	7.89	13.93	-38.1	-39.1	22.7	0.00e+00	0	31	0	409993216	50	5772
2026-01-29 18:46:51.30	7.70	13.96	-38.2	-39.2	22.8	0.00e+00	0	31	0	412090368	50	5868
2026-01-29 18:46:52.31	7.50	14.00	-38.2	-39.2	22.9	0.00e+00	0	31	0	414187520	50	5874
2026-01-29 18:46:53.32	7.31	14.04	-38.1	-39.1	22.8	0.00e+00	92	31	0	416284672	50	5787
2026-01-29 18:46:54.33	7.12	14.07	-37.9	-38.9	23.0	0.00e+00	0	31	0	417333248	50	5653
2026-01-29 18:46:55.33	6.92	14.11	-37.9	-38.8	23.1	0.00e+00	92	31	0	419430400	50	5593
2026-01-29 18:46:56.34	6.73	14.14	-37.9	-38.8	23.0	0.00e+00	0	31	0	421527552	50	5622
2026-01-29 18:46:57.35	6.53	14.18	-38.0	-38.9	22.8	0.00e+00	0	31	0	423624704	50	5671
2026-01-29 18:46:58.36	6.34	14.21	-37.8	-38.8	23.1	0.00e+00	16	31	0	425721856	50	5570
2026-01-29 18:46:59.37	6.14	14.25	-37.7	-38.6	23.3	0.00e+00	0	31	0	426770432	48	6133
2026-01-29 18:47:00.38	5.94	14.28	-37.7	-38.6	23.2	0.00e+00	33	31	0	428867584	48	6123
2026-01-29 18:47:01.39	5.75	14.31	-37.7	-38.6	23.2	0.00e+00	0	31	0	430964736	48	6165
2026-01-29 18:47:02.40	5.55	14.35	-37.9	-38.9	23.0	0.00e+00	92	31	0	433061888	48	6329
2026-01-29 18:47:03.41	5.35	14.38	-38.2	-39.3	22.7	0.00e+00	0	31	0	435159040	48	6620
2026-01-29 18:47:04.42	5.15	14.41	-38.4	-39.5	22.6	0.00e+00	0	31	0	436207616	48	6790
2026-01-29 18:47:05.43	4.95	14.45	-38.6	-39.6	22.5	0.00e+00	0	31	0	438304768	48	6905
2026-01-29 18:47:06.44	4.75	14.48	-38.1	-39.1	22.8	0.00e+00	0	31	0	440401920	48	6490
2026-01-29 18:47:07.45	4.55	14.51	-38.2	-39.2	22.9	0.00e+00	59	31	0	442499072	48	6607
2026-01-29 18:47:08.46	4.35	14.54	-37.8	-38.7	23.1	0.00e+00	0	31	0	444596224	48	6216
2026-01-29 18:47:09.47	4.15	14.57	-37.7	-38.6	23.2	0.00e+00	60	31	0	445644800	48	6144
2026-01-29 18:47:10.48	3.95	14.60	-37.6	-38.5	22.6	0.00e+00	0	31	0	447741952	48	6050
2026-01-29 18:47:11.49	3.75	14.63	-37.4	-38.3	23.4	0.00e+00	31	31	0	449839104	48	5918
2026-01-29 18:47:12.50	3.55	14.66	-37.2	-38.1	23.7	0.00e+00	0	31	0	451936256	48	5787
2026-01-29 18:47:13.51	3.34	14.69	-37.1	-37.9	23.8	0.00e+00	0	31	0	454033408	48	5675
2026-01-29 18:47:14.52	3.14	14.72	-37.2	-38.0	23.7	0.00e+00	52	31	0	456130560	48	5747
2026-01-29 18:47:15.53	2.94	14.75	-37.1	-38.0	23.7	0.00e+00	0	31	0	457179136	48	5727
2026-01-29 18:47:16.54	2.73	14.78	-37.4	-38.3	23.4	0.00e+00	88	31	0	459276288	48	5911
2026-01-29 18:47:17.55	2.53	14.81	-37.5	-38.4	23.4	0.00e+00	0	31	0	461373440	48	5983
2026-01-29 18:47:18.56	2.33	14.84	-37.5	-38.4	23.4	0.00e+00	0	31	0	463470592	48	6018
2026-01-29 18:47:19.57	2.12	14.87	-37.8	-38.7	23.3	0.00e+00	0	31	0	465567744	48	6224
2026-01-29 18:47:20.58	1.91	14.90	-37.8	-38.8	23.2	0.00e+00	0	31	0	466616320	48	6247
2026-01-29 18:47:21.59	1.71	14.92	-37.8	-38.8	23.2	0.00e+00	50	31	0	468713472	48	6266
2026-01-29 18:47:22.60	1.50	14.95	-37.5	-38.4	23.3	0.00e+00	0	31	0	470810624	48	6029
2026-01-29 18:47:23.61	1.30	14.98	-37.4	-38.3	23.6	0.00e+00	50	31	0	472907776	48	5916
2026-01-29 18:47:24.62	1.09	15.00	-37.3	-38.2	23.6	0.00e+00	0	31	0	475004928	48	5846
2026-01-29 18:47:25.63	0.88	15.03	-37.4	-38.3	23.5	0.00e+00	2	31	0	476053504	48	5923
2026-01-29 18:47:26.64	0.67	15.05	-37.6	-38.5	23.3	0.00e+00	0	31	0	478150656	48	6080
2026-01-29 18:47:27.65	0.47	15.08	-37.9	-38.8	23.1	0.00e+00	0	31	0	480247808	48	6292
2026-01-29 18:47:28.66	0.26	15.10	-38.0	-39.0	23.0	0.00e+00	0	31	0	482344960	48	6420
2026-01-29 18:47:29.67	0.05	15.13	-37.9	-38.8	23.1	0.00e+00	0	31	0	484442112	48	6268
2026-01-29 18:47:30.68	359.84	15.15	-37.9	-38.9	23.1	0.00e+00	52	31	0	485490688	48	6327
2026-01-29 18:47:31.69	359.63	15.18	-38.1	-39.0	23.0	0.00e+00	0	31	0	487587840	48	6450
2026-01-29 18:47:32.70	359.42	15.20	-38.2	-39.1	22.8	0.00e+00	90	31	0	489684992	48	6521
2026-01-29 18:47:33.71	359.21	15.22	-38.2	-39.2	22.9	0.00e+00	0	31	0	491782144	48	6556
2026-01-29 18:47:34.72	359.00	15.25	-38.3	-39.3	22.7	0.00e+00	0	31	0	493879296	48	6619
2026-01-29 18:47:35.73	358.79	15.27	-38.4	-39.4	22.5	0.00e+00	0	31	0	494927872	48	6705
2026-01-29 18:47:36.74	358.58	15.29	-38.2	-39.1	22.8	0.00e+00	0	31	0	497025024	48	6537
2026-01-29 18:47:37.75	358.37	15.31	-38.1	-39.1	22.9	0.00e+00	64	31	0	499122176	48	6487
2026-01-29 18:47:38.76	358.16	15.33	-38.0	-39.0	22.9	0.00e+00	0	31	0	501219328	48	6412
2026-01-29 18:47:39.77	357.94	15.36	-38.1	-39.0	22.9	0.00e+00	80	31	0	503316480	48	6461
2026-01-29 18:47:40.78	357.73	15.38	-38.2	-39.2	22.9	0.00e+00	0	31	0	504365056	48	6568
2026-01-29 18:47:41.79	357.52	15.40	-38.2	-39.1	22.9	0.00e+00	0	31	0	506462208	48	6538
2026-01-29 18:47:42.80	357.31	15.42	-38.2	-39.2	22.7	0.00e+00	0	31	0	508559360	48	6571
2026-01-29 18:47:43.81	357.09	15.43	-38.3	-39.3	22.7	0.00e+00	0	31	0	510656512	48	6635
2026-01-29 18:47:44.82	356.88	15.45	-38.0	-39.0	23.1	0.00e+00	40	31	0	512753664	48	6409
2026-01-29 18:47:45.83	356.67	15.47	-37.9	-38.8	23.2	0.00e+00	0	31	0	513802240	48	6284
2026-01-29 18:47:46.84	356.45	15.49	-37.6	-38.5	23.2	0.00e+00	92	31	0	515899392	48	6099
2026-01-29 18:47:47.84	356.24	15.51	-37.6	-38.5	23.2	0.00e+00	0	31	0	517996544	48	6072
2026-01-29 18:47:48.85	356.03	15.53	-37.7	-38.7	23.3	0.00e+00	0	31	0	520093696	48	6180
2026-01-29 18:47:49.87	355.81	15.54	-37.7	-38.6	23.3	0.00e+00	0	31	0	522190848	48	6128
2026-01-29 18:47:50.88	355.59	15.56	-37.5	-38.4	23.4	0.00e+00	0	31	0	524288000	48	5983
2026-01-29 18:47:51.89	355.38	15.58	-37.4	-38.2	23.4	0.00e+00	57	31	0	525336576	48	5882
2026-01-29 18:47:52.89	355.17	15.59	-37.4	-38.2	23.6	0.00e+00	0	31	0	527433728	48	5896
2026-01-29 18:47:53.90	354.95	15.61	-37.5	-38.4	23.5	0.00e+00	92	31	0	529530880	48	5997
2026-01-29 18:47:54.91	354.73	15.62	-37.5	-38.4	23.5	0.00e+00	0	31	0	531628032	48	6004
2026-01-29 18:47:55.92	354.52	15.64	-37.7	-38.6	23.2	0.00e+00	0	31	0	533725184	48	6172
2026-01-29 18:47:56.93	354.30	15.65	-37.9	-38.8	23.1	0.00e+00	0	31	0	534773760	48	6298
2026-01-29 18:47:57.94	354.09	15.66	-37.9	-38.8	23.0	0.00e+00	0	31	0	536870912	48	6300
2026-01-29 18:47:58.95	353.87	15.68	-38.0	-39.0	22.9	0.00e+00	24	31	0	538968064	48	6404
2026-01-29 18:47:59.96	353.65	15.69	-38.0	-39.0	22.9	0.00e+00	0	31	0	541065216	48	6403
2026-01-29 18:48:00.97	353.44	15.70	-38.0	-39.0	23.0	0.00e+00	91	31	0	543162368	48	6410
2026-01-29 18:48:01.98	353.22	15.72	-37.8	-38.7	23.2	0.00e+00	0	31	0	544210944	48	6241
2026-01-29 18:48:02.99	353.00	15.73	-38.0	-39.0	23.0	0.00e+00	13	31	0	546308096	48	6408
2026-01-29 18:48:04.00	352.78	15.74	-38.0	-39.0	23.0	0.00e+00	0	31	0	548405248	48	6420
2026-01-29 18:48:05.01	352.57	15.75	-38.2	-39.2	22.8	0.00e+00	0	31	0	550502400	48	6540
2026-01-29 18:48:06.02	352.35	15.76	-38.6	-39.6	22.4	0.00e+00	8	31	0	552599552	48	6908
2026-01-29 18:48:07.03	352.13	15.77	-38.7	-39.7	22.4	0.00e+00	0	31	0	553648128	48	6993
2026-01-29 18:48:08.04	351.91	15.78	-38.5	-39.5	22.5	0.00e+00	92	31	0	555745280	48	6837
2026-01-29 18:48:09.05	351.69	15.79	-38.7	-39.8	22.4	0.00e+00	0	31	0	557842432	50	6252
2026-01-29 18:48:10.06	351.47	15.80	-38.5	-39.5	22.6	0.00e+00	56	31	0	559939584	50	6054
2026-01-29 18:48:11.07	351.26	15.81	-38.4	-39.4	22.6	0.00e+00	0	31	0	562036736	50	6032
2026-01-29 18:48:12.09	351.03	15.82	-38.2	-39.2	22.8	0.00e+00	0	31	0	563085312	50	5855
2026-01-29 18:48:13.09	350.82	15.82	-38.5	-39.5	22.7	0.00e+00	0	31	0	565182464	50	6050
2026-01-29 18:48:14.10	350.60	15.83	-38.2	-39.1	22.9	0.00e+00	0	31	0	567279616	50	5813
2026-01-29 18:48:15.11	350.38	15.84	-38.3	-39.3	22.9	0.00e+00	91	31	0	569376768	50	5898
2026-01-29 18:48:16.13	350.16	15.84	-38.4	-39.4	22.7	0.00e+00	0	31	0	571473920	50	5967
2026-01-29 18:48:17.14	349.94	15.85	-38.2	-39.2	22.1	9.30e-05	26	31	0	572522496	50	5861
2026-01-29 18:48:18.15	349.72	15.85	-38.2	-39.3	21.8	1.83e-03	0	31	0	574619648	50	5901
2026-01-29 18:48:19.16	349.50	15.86	-38.3	-39.3	22.0	1.79e-03	0	31	0	576716800	50	5939
2026-01-29 18:48:20.17	349.28	15.86	-38.2	-39.3	22.4	0.00e+00	31	31	0	578813952	50	5911
2026-01-29 18:48:21.18	349.06	15.87	-38.0	-39.0	22.8	0.00e+00	0	31	0	580911104	50	5711
2026-01-29 18:48:22.19	348.84	15.87	-37.9	-38.9	22.8	0.00e+00	45	31	0	581959680	50	5636
2026-01-29 18:48:23.20	348.62	15.88	-37.9	-38.9	23.0	0.00e+00	0	31	0	584056832	50	5632
2026-01-29 18:48:24.21	348.40	15.88	-37.9	-38.9	22.8	0.00e+00	92	31	0	586153984	50	5685
2026-01-29 18:48:25.22	348.18	15.88	-38.1	-39.1	22.5	0.00e+00	0	31	0	588251136	50	5822
2026-01-29 18:48:26.23	347.96	15.88	-38.2	-39.2	22.6	7.00e-07	0	31	0	590348288	50	5887
2026-01-29 18:48:27.24	347.74	15.88	-38.4	-39.4	22.7	1.06e-05	0	31	0	592445440	50	5988
2026-01-29 18:48:28.25	347.52	15.89	-38.3	-39.3	22.8	0.00e+00	0	31	0	593494016	50	5910
2026-01-29 18:48:29.26	347.30	15.89	-38.4	-39.4	22.7	0.00e+00	43	31	0	595591168	50	6028
2026-01-29 18:48:30.27	347.08	15.89	-38.3	-39.3	22.9	0.00e+00	0	31	0	597688320	50	5920
2026-01-29 18:48:31.28	346.86	15.89	-38.3	-39.2	22.8	0.00e+00	92	31	0	599785472	50	5889
2026-01-29 18:48:32.29	346.64	15.89	-38.1	-39.1	22.9	0.00e+00	0	31	0	601882624	50	5764
2026-01-29 18:48:33.29	346.43	15.89	-38.2	-39.2	22.8	0.00e+00	0	31	0	602931200	50	5836
2026-01-29 18:48:34.30	346.21	15.88	-37.9	-38.9	23.0	0.00e+00	0	31	0	605028352	50	5635
2026-01-29 18:48:35.31	345.99	15.88	-37.7	-38.6	23.3	0.00e+00	0	31	0	607125504	48	6145
2026-01-29 18:48:36.32	345.77	15.88	-37.7	-38.7	23.2	0.00e+00	17	31	0	609222656	48	6188
2026-01-29 18:48:37.33	345.55	15.88	-37.4	-38.3	23.5	0.00e+00	0	31	0	611319808	48	5948
2026-01-29 18:48:38.34	345.33	15.87	-37.4	-38.3	23.5	0.00e+00	54	31	0	612368384	48	5925
2026-01-29 18:48:39.35	345.11	15.87	-37.5	-38.3	23.5	0.00e+00	0	31	0	614465536	48	5963
2026-01-29 18:48:40.36	344.89	15.87	-37.8	-38.8	23.3	0.00e+00	55	31	0	616562688	48	6262
2026-01-29 18:48:41.37	344.67	15.86	-37.8	-38.8	23.1	0.00e+00	0	31	0	618659840	48	6246
2026-01-29 18:48:42.38	344.45	15.86	-37.9	-38.9	23.0	0.00e+00	0	31	0	620756992	48	6339
2026-01-29 18:48:43.39	344.23	15.85	-38.1	-39.1	22.8	0.00e+00	49	31	0	621805568	48	6467
2026-01-29 18:48:44.40	344.01	15.85	-38.2	-39.2	22.9	0.00e+00	0	31	0	623902720	48	6546
2026-01-29 18:48:45.41	343.79	15.84	-38.2	-39.2	22.8	0.00e+00	53	31	0	625999872	48	6591
2026-01-29 18:48:46.42	343.57	15.84	-38.4	-39.4	22.1	0.00e+00	0	31	0	628097024	48	6727
2026-01-29 18:48:47.43	343.35	15.83	-38.6	-39.6	22.4	0.00e+00	90	31	0	630194176	48	6867
2026-01-29 18:48:48.44	343.13	15.82	-38.7	-39.7	22.3	0.00e+00	0	31	0	631242752	48	7001
2026-01-29 18:48:49.45	342.91	15.81	-38.7	-39.8	22.3	0.00e+00	0	31	0	633339904	50	6279
2026-01-29 18:48:50.46	342.70	15.81	-38.8	-39.9	22.3	0.00e+00	0	31	0	635437056	50	6326
2026-01-29 18:48:51.47	342.48	15.80	-38.9	-39.9	22.3	0.00e+00	33	31	0	637534208	50	6368
2026-01-29 18:48:52.48	342.26	15.79	-38.8	-39.8	22.4	0.00e+00	46	31	0	639631360	50	6298
2026-01-29 18:48:53.49	342.04	15.78	-38.7	-39.8	22.5	0.00e+00	0	31	0	640679936	50	6247
2026-01-29 18:48:54.50	341.82	15.77	-38.5	-39.5	22.6	0.00e+00	92	31	0	642777088	50	6056
2026-01-29 18:48:55.51	341.60	15.76	-38.5	-39.6	22.5	0.00e+00	0	31	0	644874240	50	6112
2026-01-29 18:48:56.52	341.39	15.75	-38.3	-39.3	22.7	0.00e+00	0	31	0	646971392	50	5945
2026-01-29 18:48:57.53	341.17	15.74	-38.4	-39.4	22.6	0.00e+00	0	31	0	649068544	50	5976
2026-01-29 18:48:58.54	340.95	15.73	-38.1	-39.0	23.0	0.00e+00	0	31	0	650117120	50	5760
2026-01-29 18:48:59.55	340.73	15.71	-38.0	-39.0	23.0	0.00e+00	46	31	0	652214272	50	5720
2026-01-29 18:49:00.56	340.52	15.70	-37.9	-38.9	23.0	0.00e+00	0	31	0	654311424	50	5650
2026-01-29 18:49:01.57	340.30	15.69	-37.9	-38.8	23.0	0.00e+00	69	31	0	656408576	50	5611
2026-01-29 18:49:02.58	340.08	15.68	-38.1	-39.1	23.0	0.00e+00	0	31	0	658505728	50	5795
2026-01-29 18:49:03.59	339.87	15.66	-37.9	-38.9	23.1	0.00e+00	0	31	0	660602880	50	5641
2026-01-29 18:49:04.60	339.65	15.65	-38.1	-39.0	22.9	0.00e+00	0	31	0	661651456	50	5749
2026-01-29 18:49:05.61	339.43	15.63	-38.2	-39.2	22.9	0.00e+00	0	31	0	663748608	50	5829
2026-01-29 18:49:06.62	339.22	15.62	-38.2	-39.2	23.0	0.00e+00	36	31	0	665845760	50	5834
2026-01-29 18:49:07.63	339.00	15.60	-37.8	-38.7	23.2	0.00e+00	0	31	0	667942912	50	5540
2026-01-29 18:49:08.64	338.79	15.59	-37.8	-38.7	23.3	0.00e+00	80	31	0	670040064	50	5548
2026-01-29 18:49:09.65	338.57	15.57	-37.5	-38.5	23.3	0.00e+00	0	31	0	671088640	48	6041
2026-01-29 18:49:10.66	338.35	15.56	-37.4	-38.3	23.5	0.00e+00	0	31	0	673185792	48	5930
2026-01-29 18:49:11.67	338.14	15.54	-37.5	-38.4	23.5	0.00e+00	0	31	0	675282944	48	6017
2026-01-29 18:49:12.68	337.92	15.52	-37.5	-38.4	23.3	0.00e+00	0	31	0	677380096	48	6024
2026-01-29 18:49:13.69	337.71	15.50	-37.6	-38.5	23.4	0.00e+00	53	31	0	679477248	48	6067
2026-01-29 18:49:14.70	337.50	15.49	-37.6	-38.5	23.3	0.00e+00	0	31	0	680525824	48	6095
2026-01-29 18:49:15.71	337.28	15.47	-37.7	-38.6	23.2	0.00e+00	50	31	0	682622976	48	6163
2026-01-29 18:49:16.72	337.07	15.45	-37.7	-38.6	23.2	0.00e+00	0	31	0	684720128	48	6172
2026-01-29 18:49:17.73	336.86	15.43	-37.6	-38.6	23.3	0.00e+00	92	31	0	686817280	48	6114
2026-01-29 18:49:18.74	336.64	15.41	-37.6	-38.6	23.1	0.00e+00	0	31	0	688914432	48	6120
2026-01-29 18:49:19.75	336.43	15.39	-37.7	-38.7	23.2	0.00e+00	0	31	0	689963008	48	6195
2026-01-29 18:49:20.76	336.22	15.37	-37.9	-38.9	22.9	0.00e+00	0	31	0	692060160	48	6353
2026-01-29 18:49:21.77	336.00	15.35	-38.0	-39.0	22.7	0.00e+00	0	31	0	694157312	48	6422
2026-01-29 18:49:22.78	335.79	15.33	-38.3	-39.3	22.8	0.00e+00	53	31	0	696254464	48	6631
2026-01-29 18:49:23.79	335.58	15.31	-38.1	-39.1	22.8	0.00e+00	0	31	0	698351616	48	6518
2026-01-29 18:49:24.80	335.37	15.29	-38.2	-39.2	22.8	0.00e+00	92	31	0	699400192	48	6573
2026-01-29 18:49:25.81	335.16	15.26	-38.4	-39.4	22.6	0.00e+00	0	31	0	701497344	48	6762
2026-01-29 18:49:26.82	334.95	15.24	-38.5	-39.6	22.5	0.00e+00	0	31	0	703594496	48	6860
2026-01-29 18:49:27.83	334.74	15.22	-38.6	-39.7	22.3	0.00e+00	0	31	0	705691648	48	6940
2026-01-29 18:49:28.84	334.53	15.20	-38.8	-39.8	22.4	0.00e+00	0	31	0	707788800	50	6291
2026-01-29 18:49:29.85	334.32	15.17	-38.7	-39.7	22.4	0.00e+00	50	31	0	708837376	50	6235
2026-01-29 18:49:30.86	334.11	15.15	-38.2	-39.2	22.9	0.00e+00	0	31	0	710934528	50	5871
2026-01-29 18:49:31.87	333.90	15.12	-38.1	-39.1	22.9	0.00e+00	87	31	0	713031680	50	5791
2026-01-29 18:49:32.88	333.69	15.10	-38.0	-39.0	23.0	0.00e+00	0	31	0	715128832	50	5718
2026-01-29 18:49:33.89	333.48	15.07	-37.7	-38.6	23.0	0.00e+00	0	31	0	717225984	48	6171
2026-01-29 18:49:34.90	333.27	15.05	-37.7	-38.6	23.3	0.00e+00	0	31	0	718274560	48	6152
2026-01-29 18:49:35.91	333.07	15.02	-37.6	-38.5	23.3	0.00e+00	0	31	0	720371712	48	6090
2026-01-29 18:49:36.92	332.86	15.00	-37.5	-38.4	23.4	0.00e+00	32	31	0	722468864	48	6026
2026-01-29 18:49:37.93	332.65	14.97	-37.5	-38.4	23.4	0.00e+00	0	31	0	724566016	48	5989
2026-01-29 18:49:38.94	332.45	14.94	-37.5	-38.4	23.4	0.00e+00	92	31	0	726663168	48	6007
2026-01-29 18:49:39.95	332.24	14.92	-37.4	-38.3	23.6	0.00e+00	0	31	0	728760320	48	5911
2026-01-29 18:49:40.96	332.03	14.89	-37.7	-38.6	23.5	0.00e+00	0	32	0	729808896	48	6123
2026-01-29 18:49:41.97	331.83	14.86	-37.8	-38.7	23.3	0.00e+00	0	31	0	731906048	48	6205
2026-01-29 18:49:42.98	331.62	14.83	-38.0	-38.9	23.1	0.00e+00	0	31	0	734003200	48	6376
2026-01-29 18:49:43.99	331.42	14.81	-38.0	-39.0	23.0	0.00e+00	2	31	0	736100352	48	6411
2026-01-29 18:49:45.00	331.22	14.78	-38.1	-39.1	23.0	0.00e+00	0	31	0	738197504	48	6477
2026-01-29 18:49:46.01	331.01	14.75	-38.4	-39.4	22.7	0.00e+00	91	31	0	739246080	48	6723
2026-01-29 18:49:47.02	330.81	14.72	-38.3	-39.3	22.8	0.00e+00	0	31	0	741343232	48	6664
2026-01-29 18:49:48.03	330.61	14.69	-38.4	-39.4	22.7	0.00e+00	0	31	0	743440384	48	6721
2026-01-29 18:49:49.04	330.40	14.66	-38.6	-39.7	22.6	0.00e+00	0	31	0	745537536	48	6932
2026-01-29 18:49:50.05	330.20	14.63	-38.5	-39.5	22.6	0.00e+00	0	31	0	747634688	48	6780
2026-01-29 18:49:51.06	330.00	14.60	-38.4	-39.4	22.6	0.00e+00	31	31	0	748683264	48	6769
2026-01-29 18:49:52.07	329.80	14.57	-38.7	-39.7	22.5	0.00e+00	0	31	0	750780416	50	6190
2026-01-29 18:49:53.08	329.60	14.53	-38.6	-39.6	22.5	0.00e+00	92	31	0	752877568	50	6129
2026-01-29 18:49:54.09	329.40	14.50	-38.7	-39.8	22.5	0.00e+00	0	31	0	754974720	50	6253
2026-01-29 18:49:55.10	329.20	14.47	-38.7	-39.7	22.5	0.00e+00	92	31	0	757071872	50	6197
2026-01-29 18:49:56.11	329.00	14.44	-38.8	-39.8	22.3	0.00e+00	0	31	0	758120448	50	6303
2026-01-29 18:49:57.12	328.80	14.41	-38.5	-39.5	22.7	0.00e+00	0	31	0	760217600	50	6051
2026-01-29 18:49:58.13	328.60	14.37	-38.6	-39.6	22.7	0.00e+00	0	32	0	762314752	50	6110
2026-01-29 18:49:59.14	328.40	14.34	-38.3	-39.3	22.8	0.00e+00	0	32	0	764411904	50	5910
2026-01-29 18:50:00.15	328.20	14.31	-38.2	-39.2	22.9	0.00e+00	26	31	0	766509056	50	5841
2026-01-29 18:50:01.15	328.01	14.27	-38.0	-38.9	23.0	0.00e+00	0	32	0	767557632	50	5666
2026-01-29 18:50:02.16	327.81	14.24	-38.0	-39.0	22.9	0.00e+00	92	31	0	769654784	50	5711
2026-01-29 18:50:03.17	327.61	14.20	-38.0	-38.9	23.0	0.00e+00	0	31	0	771751936	50	5694
2026-01-29 18:50:04.18	327.42	14.17	-38.1	-39.0	23.0	0.00e+00	0	31	0	773849088	50	5760
2026-01-29 18:50:05.19	327.22	14.13	-38.0	-38.9	23.1	0.00e+00	0	31	0	775946240	50	5659
2026-01-29 18:50:06.20	327.03	14.10	-38.1	-39.0	22.9	0.00e+00	0	31	0	776994816	50	5735
2026-01-29 18:50:07.21	326.83	14.06	-38.2	-39.1	22.9	0.00e+00	49	31	0	779091968	50	5792
2026-01-29 18:50:08.22	326.64	14.03	-37.9	-38.9	23.2	0.00e+00	0	32	0	781189120	50	5633
2026-01-29 18:50:09.23	326.45	13.99	-37.7	-38.6	23.3	0.00e+00	61	31	0	783286272	48	6163
2026-01-29 18:50:10.24	326.25	13.96	-37.8	-38.8	23.2	0.00e+00	29	31	0	785383424	48	6246
2026-01-29 18:50:11.25	326.06	13.92	-37.8	-38.8	23.1	0.00e+00	0	31	0	786432000	48	6259
2026-01-29 18:50:12.26	325.87	13.88	-37.4	-38.3	23.5	0.00e+00	0	31	0	788529152	48	5939
2026-01-29 18:50:13.27	325.68	13.85	-37.2	-38.1	23.2	0.00e+00	0	31	0	790626304	48	5783
2026-01-29 18:50:14.28	325.48	13.81	-37.2	-38.0	23.6	0.00e+00	57	31	0	792723456	48	5734
2026-01-29 18:50:15.29	325.29	13.77	-37.3	-38.2	23.6	0.00e+00	0	31	0	794820608	48	5866
2026-01-29 18:50:16.30	325.10	13.73	-37.5	-38.4	23.5	0.00e+00	56	31	0	796917760	48	6007
2026-01-29 18:50:17.31	324.91	13.69	-37.7	-38.6	23.2	0.00e+00	0	31	0	797966336	48	6123
2026-01-29 18:50:18.32	324.72	13.66	-37.7	-38.6	23.3	0.00e+00	0	31	0	800063488	48	6108
2026-01-29 18:50:19.33	324.54	13.62	-37.9	-38.9	23.1	0.00e+00	0	31	0	802160640	48	6321
2026-01-29 18:50:20.34	324.35	13.58	-37.9	-38.9	23.0	0.00e+00	0	31	0	804257792	48	6355
2026-01-29 18:50:21.35	324.16	13.54	-38.1	-39.1	22.9	0.00e+00	53	31	0	806354944	48	6498
2026-01-29 18:50:22.36	323.97	13.50	-38.1	-39.1	22.9	0.00e+00	0	31	0	807403520	48	6508
2026-01-29 18:50:23.37	323.79	13.46	-38.3	-39.3	22.7	0.00e+00	92	31	0	809500672	48	6632
2026-01-29 18:50:24.38	323.60	13.42	-38.6	-39.6	22.5	0.00e+00	0	31	0	811597824	48	6927
2026-01-29 18:50:25.39	323.41	13.38	-38.8	-39.8	22.4	0.00e+00	25	32	0	813694976	50	6295
2026-01-29 18:50:26.40	323.23	13.34	-38.9	-40.0	22.1	0.00e+00	0	31	0	815792128	50	6429
2026-01-29 18:50:27.41	323.04	13.30	-39.1	-40.2	21.8	0.00e+00	0	31	0	816840704	50	6579
2026-01-29 18:50:28.42	322.86	13.26	-39.0	-40.0	22.1	0.00e+00	49	31	0	818937856	50	6446
2026-01-29 18:50:29.43	322.68	13.22	-38.7	-39.8	22.3	0.00e+00	0	31	0	821035008	50	6270
2026-01-29 18:50:30.43	322.49	13.18	-38.9	-39.9	22.2	0.00e+00	52	31	0	823132160	50	6384
2026-01-29 18:50:31.44	322.31	13.14	-38.9	-39.9	22.0	0.00e+00	0	31	0	825229312	50	6369
2026-01-29 18:50:32.46	322.13	13.09	-38.7	-39.7	22.4	0.00e+00	33	31	0	826277888	50	6211
2026-01-29 18:50:33.47	321.95	13.05	-38.9	-39.9	22.3	0.00e+00	0	31	0	828375040	50	6370
2026-01-29 18:50:34.48	321.77	13.01	-38.8	-39.9	22.3	0.00e+00	0	31	0	830472192	50	6318
2026-01-29 18:50:35.49	321.58	12.97	-38.9	-39.9	22.1	0.00e+00	0	31	0	832569344	50	6344
2026-01-29 18:50:36.50	321.40	12.92	-38.9	-40.0	22.0	0.00e+00	0	31	0	834666496	50	6429
2026-01-29 18:50:37.51	321.23	12.88	-39.1	-40.1	22.1	0.00e+00	53	31	0	835715072	50	6518
2026-01-29 18:50:38.52	321.05	12.84	-39.1	-40.1	22.1	0.00e+00	0	31	0	837812224	50	6527
2026-01-29 18:50:39.53	320.87	12.80	-39.0	-40.1	22.1	0.00e+00	92	31	0	839909376	50	6508
2026-01-29 18:50:40.54	320.69	12.75	-39.0	-40.0	22.3	0.00e+00	0	31	0	842006528	50	6449
2026-01-29 18:50:41.55	320.51	12.71	-39.0	-40.1	22.1	0.00e+00	0	31	0	844103680	50	6492
2026-01-29 18:50:42.56	320.34	12.66	-39.0	-40.1	22.2	0.00e+00	0	32	0	846200832	50	6506
2026-01-29 18:50:43.57	320.16	12.62	-38.9	-40.0	22.3	0.00e+00	0	31	0	847249408	50	6401
2026-01-29 18:50:44.58	319.98	12.58	-39.0	-40.0	22.3	0.00e+00	45	31	0	849346560	50	6398
2026-01-29 18:50:45.59	319.81	12.53	-39.0	-40.1	22.2	0.00e+00	0	32	0	851443712	50	6465
2026-01-29 18:50:46.60	319.63	12.49	-39.0	-40.0	22.0	0.00e+00	92	31	0	853540864	50	6459
2026-01-29 18:50:47.61	319.46	12.44	-39.0	-40.1	22.1	0.00e+00	0	31	0	855638016	50	6481
2026-01-29 18:50:48.62	319.29	12.40	-38.8	-39.9	22.3	0.00e+00	0	32	0	856686592	50	6319
2026-01-29 18:50:49.63	319.11	12.35	-38.8	-39.8	22.5	0.00e+00	0	31	0	858783744	50	6293
2026-01-29 18:50:50.64	318.94	12.31	-38.7	-39.6	22.4	0.00e+00	0	31	0	860880896	50	6156
2026-01-29 18:50:51.65	318.77	12.26	-38.4	-39.3	22.7	0.00e+00	51	31	0	862978048	50	5963
2026-01-29 18:50:52.66	318.60	12.22	-38.4	-39.3	22.8	0.00e+00	0	31	0	865075200	50	5951
2026-01-29 18:50:53.67	318.43	12.17	-38.5	-39.4	22.7	0.00e+00	92	31	0	866123776	50	6001
2026-01-29 18:50:54.68	318.26	12.13	-38.4	-39.4	22.8	0.00e+00	0	31	0	868220928	50	6005
2026-01-29 18:50:55.69	318.09	12.08	-38.7	-39.7	22.5	0.00e+00	0	31	0	870318080	50	6193
2026-01-29 18:50:56.70	317.92	12.03	-38.9	-39.9	22.3	0.00e+00	0	32	0	872415232	50	6342
2026-01-29 18:50:57.71	317.75	11.99	-39.3	-40.3	21.9	0.00e+00	0	31	0	874512384	50	6679
2026-01-29 18:50:58.72	317.58	11.94	-39.4	-40.5	21.8	0.00e+00	49	32	0	875560960	50	6831
2026-01-29 18:50:59.73	317.41	11.89	-39.7	-40.9	21.4	0.00e+00	0	32	0	877658112	50	7123
2026-01-29 18:51:00.74	317.24	11.85	-39.9	-41.1	21.2	0.00e+00	92	32	0	879755264	52	6524
2026-01-29 18:51:01.75	317.08	11.80	-40.1	-41.2	21.2	0.00e+00	0	32	0	881852416	52	6606
2026-01-29 18:51:02.76	316.91	11.75	-40.0	-41.2	21.2	0.00e+00	44	32	0	883949568	52	6572
2026-01-29 18:51:03.77	316.75	11.71	-39.7	-40.8	21.5	0.00e+00	0	32	0	884998144	52	6302
2026-01-29 18:51:04.78	316.58	11.66	-39.5	-40.6	21.8	0.00e+00	0	32	0	887095296	52	6122
2026-01-29 18:51:05.79	316.42	11.61	-39.5	-40.5	21.6	0.00e+00	0	32	0	889192448	52	6101
2026-01-29 18:51:06.79	316.25	11.56	-39.3	-40.4	21.7	0.00e+00	0	32	0	891289600	52	5978
2026-01-29 18:51:07.81	316.09	11.52	-39.4	-40.4	21.8	0.00e+00	90	31	0	893386752	52	6020
2026-01-29 18:51:08.81	315.93	11.47	-39.5	-40.5	21.5	0.00e+00	0	32	0	894435328	52	6095
2026-01-29 18:51:09.83	315.76	11.42	-39.8	-40.9	21.4	0.00e+00	79	31	0	896532480	52	6377
2026-01-29 18:51:10.84	315.60	11.37	-40.2	-41.4	21.0	0.00e+00	0	31	0	898629632	52	6716
2026-01-29 18:51:11.84	315.44	11.32	-40.8	-42.2	20.5	0.00e+00	0	31	0	900726784	52	7341
2026-01-29 18:51:12.86	315.28	11.28	-41.5	-43.0	19.5	0.00e+00	0	32	0	902823936	54	7236
2026-01-29 18:51:13.87	315.12	11.23	-42.1	-43.7	18.9	0.00e+00	0	31	0	904921088	56	6992
2026-01-29 18:51:14.88	314.96	11.18	-42.2	-43.9	18.7	0.00e+00	79	32	0	905969664	56	7115
2026-01-29 18:51:15.89	314.80	11.13	-42.3	-44.0	18.5	0.00e+00	0	31	0	908066816	56	7240
2026-01-29 18:51:16.90	314.64	11.08	-42.2	-43.8	18.9	0.00e+00	90	31	0	910163968	56	7072
2026-01-29 18:51:17.91	314.48	11.03	-41.9	-43.6	19.1	0.00e+00	0	32	0	912261120	56	6857
2026-01-29 18:51:18.92	314.33	10.98	-41.7	-43.3	19.3	0.00e+00	0	32	0	914358272	56	6624
2026-01-29 18:51:19.93	314.17	10.93	-42.0	-43.7	19.0	0.00e+00	0	31	0	915406848	56	6948
2026-01-29 18:51:20.94	314.01	10.88	-41.5	-42.9	19.7	0.00e+00	0	32	0	917504000	56	6387
2026-01-29 18:51:21.95	313.86	10.83	-41.3	-42.8	19.8	0.00e+00	60	31	0	919601152	56	6247
2026-01-29 18:51:22.96	313.70	10.79	-41.2	-42.6	20.0	0.00e+00	0	31	0	921698304	56	6118
2026-01-29 18:51:23.97	313.55	10.74	-41.1	-42.5	20.1	0.00e+00	92	31	0	923795456	56	6062
2026-01-29 18:51:24.98	313.39	10.69	-41.0	-42.4	20.0	0.00e+00	0	31	0	924844032	56	5978
2026-01-29 18:51:25.99	313.24	10.64	-40.5	-41.8	20.5	0.00e+00	0	31	0	926941184	54	6271
2026-01-29 18:51:27.00	313.09	10.59	-40.3	-41.5	20.8	0.00e+00	0	31	0	929038336	54	6099
2026-01-29 18:51:28.01	312.93	10.54	-40.2	-41.4	20.9	0.00e+00	0	32	0	931135488	54	6029
2026-01-29 18:51:29.02	312.78	10.49	-40.0	-41.1	21.1	0.00e+00	56	32	0	933232640	54	5823
2026-01-29 18:51:30.03	312.63	10.44	-39.9	-41.0	21.2	0.00e+00	0	31	0	934281216	54	5739
2026-01-29 18:51:31.04	312.48	10.38	-39.9	-41.0	21.2	0.00e+00	81	31	0	936378368	52	6430
2026-01-29 18:51:32.05	312.33	10.33	-39.9	-41.0	21.3	0.00e+00	0	32	0	938475520	52	6439
2026-01-29 18:51:33.06	312.18	10.28	-39.8	-40.9	21.3	0.00e+00	0	31	0	940572672	52	6366
2026-01-29 18:51:34.07	312.03	10.23	-40.0	-41.2	21.1	0.00e+00	0	31	0	942669824	52	6541
2026-01-29 18:51:35.08	311.88	10.18	-40.1	-41.3	21.0	0.00e+00	0	32	0	943718400	52	6667
2026-01-29 18:51:36.09	311.73	10.13	-40.1	-41.3	21.1	0.00e+00	23	31	0	945815552	52	6640
2026-01-29 18:51:37.10	311.58	10.08	-40.2	-41.3	21.1	0.00e+00	0	31	0	947912704	52	6676
2026-01-29 18:51:38.11	311.44	10.03	-39.7	-40.8	21.1	0.00e+00	91	31	0	950009856	52	6291
2026-01-29 18:51:39.12	311.29	9.98	-39.6	-40.7	21.4	0.00e+00	0	31	0	952107008	52	6208
2026-01-29 18:51:40.13	311.14	9.93	-39.6	-40.7	21.5	0.00e+00	0	31	0	953155584	52	6223
2026-01-29 18:51:41.14	311.00	9.88	-39.5	-40.6	21.6	0.00e+00	0	31	0	955252736	52	6129
2026-01-29 18:51:42.15	310.85	9.83	-39.4	-40.5	21.7	0.00e+00	0	31	0	957349888	52	6038
2026-01-29 18:51:43.16	310.71	9.77	-39.3	-40.4	21.8	0.00e+00	0	32	0	959447040	52	6026
2026-01-29 18:51:44.17	310.56	9.72	-39.5	-40.6	21.6	0.00e+00	0	31	0	961544192	52	6116
2026-01-29 18:51:45.18	310.42	9.67	-39.3	-40.4	21.8	0.00e+00	92	31	0	962592768	52	5974
2026-01-29 18:51:46.19	310.28	9.62	-39.2	-40.2	21.9	0.00e+00	0	31	0	964689920	52	5878
2026-01-29 18:51:47.20	310.13	9.57	-39.3	-40.4	21.8	0.00e+00	57	31	0	966787072	52	6011
2026-01-29 18:51:48.21	309.99	9.52	-39.4	-40.6	21.6	0.00e+00	0	31	0	968884224	52	6121
2026-01-29 18:51:49.22	309.85	9.46	-39.6	-40.7	21.5	0.00e+00	0	32	0	970981376	52	6213
2026-01-29 18:51:50.23	309.71	9.41	-39.6	-40.8	21.5	0.00e+00	0	31	0	973078528	52	6248
2026-01-29 18:51:51.24	309.57	9.36	-39.7	-40.9	21.4	0.00e+00	0	32	0	974127104	52	6319
2026-01-29 18:51:52.25	309.43	9.31	-39.7	-40.9	21.3	0.00e+00	92	32	0	976224256	52	6351
2026-01-29 18:51:53.26	309.29	9.26	-39.9	-41.0	21.3	0.00e+00	0	32	0	978321408	52	6463
2026-01-29 18:51:54.27	309.15	9.21	-40.2	-41.4	20.9	0.00e+00	90	31	0	980418560	52	6758
2026-01-29 18:51:55.28	309.01	9.15	-40.2	-41.4	20.7	0.00e+00	0	31	0	982515712	52	6757
2026-01-29 18:51:56.28	308.87	9.10	-39.9	-41.1	21.0	0.00e+00	0	31	0	983564288	52	6511
2026-01-29 18:51:57.29	308.74	9.05	-39.9	-41.1	21.1	0.00e+00	0	31	0	985661440	52	6518
2026-01-29 18:51:58.30	308.60	9.00	-39.7	-40.9	21.3	0.00e+00	0	31	0	987758592	52	6338
2026-01-29 18:51:59.31	308.46	8.95	-39.7	-40.9	21.2	0.00e+00	39	31	0	989855744	52	6336
2026-01-29 18:52:00.32	308.33	8.89	-39.8	-40.9	21.2	0.00e+00	0	31	0	991952896	52	6378
2026-01-29 18:52:01.33	308.19	8.84	-39.7	-40.9	21.3	0.00e+00	59	31	0	993001472	52	6324
2026-01-29 18:52:02.34	308.05	8.79	-39.9	-41.0	21.2	0.00e+00	0	32	0	995098624	52	6443
2026-01-29 18:52:03.35	307.92	8.74	-39.7	-40.9	21.4	0.00e+00	0	32	0	997195776	52	6343
2026-01-29 18:52:04.36	307.79	8.68	-39.8	-41.0	21.3	0.00e+00	0	31	0	999292928	52	6404
2026-01-29 18:52:05.37	307.65	8.63	-39.6	-40.7	21.6	0.00e+00	0	31	0	1001390080	52	6213
2026-01-29 18:52:06.38	307.52	8.58	-39.5	-40.7	21.5	0.00e+00	36	31	0	1002438656	52	6185
2026-01-29 18:52:07.39	307.39	8.53	-39.5	-40.6	21.6	0.00e+00	0	31	0	1004535808	52	6170
2026-01-29 18:52:08.40	307.25	8.47	-39.4	-40.5	21.6	0.00e+00	92	32	0	1006632960	52	6088
2026-01-29 18:52:09.41	307.12	8.42	-39.1	-40.2	22.0	0.00e+00	0	32	0	1008730112	52	5844
2026-01-29 18:52:10.42	306.99	8.37	-38.9	-39.9	22.1	0.00e+00	0	32	0	1010827264	52	5685
2026-01-29 18:52:11.43	306.86	8.31	-38.7	-39.8	22.2	0.00e+00	0	31	0	1011875840	50	6256
2026-01-29 18:52:12.44	306.73	8.26	-38.4	-39.4	22.6	0.00e+00	0	31	0	1013972992	50	5987
2026-01-29 18:52:13.45	306.60	8.21	-38.3	-39.3	22.6	0.00e+00	47	32	0	1016070144	50	5935
2026-01-29 18:52:14.47	306.47	8.16	-38.4	-39.3	22.6	0.00e+00	0	32	0	1018167296	50	5964
2026-01-29 18:52:15.48	306.34	8.10	-38.4	-39.4	22.4	0.00e+00	91	31	0	1020264448	50	5999
2026-01-29 18:52:16.48	306.21	8.05	-38.6	-39.6	22.4	0.00e+00	0	31	0	1021313024	50	6169
2026-01-29 18:52:17.49	306.09	8.00	-38.5	-39.5	22.4	0.00e+00	47	31	0	1023410176	50	6046
2026-01-29 18:52:18.50	305.96	7.94	-38.7	-39.7	22.1	0.00e+00	0	31	0	1025507328	50	6203
2026-01-29 18:52:19.51	305.83	7.89	-38.5	-39.5	22.3	0.00e+00	0	31	0	1027604480	50	6072
2026-01-29 18:52:20.52	305.71	7.84	-38.8	-39.8	22.2	0.00e+00	45	31	0	1029701632	50	6308
2026-01-29 18:52:21.53	305.58	7.79	-38.6	-39.6	22.3	0.00e+00	0	31	0	1030750208	50	6128
2026-01-29 18:52:22.54	305.45	7.73	-38.7	-39.8	22.2	0.00e+00	92	31	0	1032847360	50	6251
2026-01-29 18:52:23.55	305.33	7.68	-38.6	-39.6	22.2	0.00e+00	0	31	0	1034944512	50	6172
2026-01-29 18:52:24.56	305.20	7.63	-38.6	-39.6	22.4	0.00e+00	50	31	0	1037041664	50	6140
2026-01-29 18:52:25.57	305.08	7.57	-38.3	-39.3	22.6	0.00e+00	0	31	0	1039138816	50	5911
2026-01-29 18:52:26.58	304.96	7.52	-38.3	-39.2	22.7	0.00e+00	0	31	0	1041235968	50	5878
2026-01-29 18:52:27.59	304.83	7.47	-38.5	-39.4	22.4	0.00e+00	44	31	0	1042284544	50	6020
2026-01-29 18:52:28.60	304.71	7.41	-38.5	-39.6	22.4	0.00e+00	0	31	0	1044381696	50	6106
2026-01-29 18:52:29.61	304.59	7.36	-38.5	-39.6	22.3	0.00e+00	41	31	0	1046478848	50	6109
2026-01-29 18:52:30.62	304.47	7.31	-38.7	-39.7	22.3	0.00e+00	0	31	0	1048576000	50	6219
2026-01-29 18:52:31.63	304.34	7.25	-38.7	-39.7	22.2	0.00e+00	65	31	0	1050673152	50	6187
2026-01-29 18:52:32.64	304.22	7.20	-38.6	-39.7	22.2	0.00e+00	0	31	0	1051721728	50	6201
2026-01-29 18:52:33.65	304.10	7.15	-39.0	-40.0	21.9	0.00e+00	0	31	0	1053818880	50	6463
2026-01-29 18:52:34.66	303.98	7.10	-39.3	-40.5	21.5	0.00e+00	0	31	0	1055916032	50	6789
2026-01-29 18:52:35.67	303.86	7.04	-39.1	-40.2	21.8	0.00e+00	0	31	0	1058013184	50	6589
2026-01-29 18:52:36.68	303.74	6.99	-39.2	-40.4	21.7	0.00e+00	43	31	0	1060110336	50	6693
2026-01-29 18:52:37.69	303.63	6.94	-39.4	-40.5	21.5	0.00e+00	0	31	0	1061158912	50	6843
2026-01-29 18:52:38.70	303.51	6.88	-39.4	-40.5	21.5	0.00e+00	60	31	0	1063256064	50	6799
2026-01-29 18:52:39.71	303.39	6.83	-39.5	-40.7	21.3	0.00e+00	0	31	0	1065353216	50	6943
2026-01-29 18:52:40.72	303.27	6.78	-39.5	-40.7	21.3	0.00e+00	0	31	0	1067450368	50	6944
2026-01-29 18:52:41.73	303.16	6.72	-39.7	-40.9	21.1	0.00e+00	0	31	0	1069547520	50	7108
2026-01-29 18:52:42.74	303.04	6.67	-39.3	-40.4	21.6	0.00e+00	0	31	0	1070596096	52	6028
2026-01-29 18:52:43.75	302.92	6.62	-39.5	-40.6	21.3	0.00e+00	51	31	0	1072693248	52	6137
2026-01-29 18:52:44.76	302.81	6.56	-39.5	-40.6	21.0	0.00e+00	0	31	0	1074790400	52	6156
2026-01-29 18:52:45.77	302.69	6.51	-39.5	-40.7	21.4	0.00e+00	92	31	0	1076887552	52	6174
2026-01-29 18:52:46.78	302.58	6.46	-39.6	-40.7	21.3	0.00e+00	0	31	0	1078984704	52	6244
2026-01-29 18:52:47.79	302.46	6.40	-39.9	-41.1	20.9	0.00e+00	0	31	0	1080033280	52	6507
2026-01-29 18:52:48.80	302.35	6.35	-39.9	-41.1	20.9	0.00e+00	0	31	0	1082130432	52	6533
2026-01-29 18:52:49.81	302.24	6.30	-39.6	-40.8	21.2	0.00e+00	0	31	0	1084227584	52	6253
2026-01-29 18:52:50.81	302.12	6.24	-39.5	-40.6	21.1	0.00e+00	43	31	0	1086324736	52	6162
2026-01-29 18:52:51.82	302.01	6.19	-39.4	-40.6	20.9	0.00e+00	0	31	0	1088421888	52	6114
2026-01-29 18:52:52.83	301.90	6.14	-39.5	-40.6	21.1	0.00e+00	81	31	0	1089470464	52	6139
2026-01-29 18:52:53.84	301.79	6.08	-39.4	-40.6	21.3	0.00e+00	0	31	0	1091567616	52	6128
2026-01-29 18:52:54.85	301.68	6.03	-39.4	-40.6	21.4	0.00e+00	54	31	0	1093664768	52	6108
2026-01-29 18:52:55.86	301.57	5.98	-39.3	-40.5	21.5	0.00e+00	0	32	0	1095761920	52	6040
2026-01-29 18:52:56.87	301.45	5.92	-39.1	-40.1	21.7	0.00e+00	0	32	0	1097859072	52	5816
2026-01-29 18:52:57.88	301.34	5.87	-39.4	-40.5	21.6	0.00e+00	49	32	0	1098907648	52	6071
2026-01-29 18:52:58.89	301.23	5.82	-39.5	-40.7	21.3	0.00e+00	0	31	0	1101004800	52	6180
2026-01-29 18:52:59.90	301.13	5.77	-39.2	-40.3	21.6	0.00e+00	92	31	0	1103101952	52	5902
2026-01-29 18:53:00.91	301.02	5.71	-39.0	-40.1	21.8	0.00e+00	2	31	0	1105199104	52	5792
2026-01-29 18:53:01.92	300.91	5.66	-39.4	-40.5	21.4	0.00e+00	87	32	0	1107296256	52	6084
2026-01-29 18:53:02.93	300.80	5.61	-39.5	-40.6	21.3	0.00e+00	0	32	0	1109393408	52	6158
2026-01-29 18:53:03.94	300.69	5.55	-39.6	-40.7	21.2	0.00e+00	0	32	0	1110441984	52	6230
2026-01-29 18:53:04.95	300.58	5.50	-39.4	-40.5	21.4	0.00e+00	0	32	0	1112539136	52	6073
2026-01-29 18:53:05.96	300.48	5.45	-39.5	-40.6	21.4	0.00e+00	0	31	0	1114636288	52	6153
2026-01-29 18:53:06.97	300.37	5.39	-39.8	-41.0	20.8	0.00e+00	79	31	0	1116733440	52	6462
2026-01-29 18:53:07.98	300.27	5.34	-39.9	-41.2	20.7	0.00e+00	0	31	0	1118830592	52	6550
2026-01-29 18:53:08.99	300.16	5.29	-40.0	-41.2	20.6	0.00e+00	88	32	0	1119879168	52	6613
2026-01-29 18:53:10.00	300.05	5.23	-40.4	-41.7	20.2	0.00e+00	0	31	0	1121976320	52	6975
2026-01-29 18:53:11.01	299.95	5.18	-40.5	-41.8	20.2	0.00e+00	0	31	0	1124073472	52	7067
2026-01-29 18:53:12.02	299.85	5.13	-40.3	-41.6	20.2	0.00e+00	0	31	0	1126170624	52	6885
2026-01-29 18:53:13.03	299.74	5.08	-40.3	-41.6	20.4	0.00e+00	0	31	0	1128267776	52	6893
2026-01-29 18:53:14.04	299.64	5.02	-40.2	-41.5	20.4	0.00e+00	52	31	0	1129316352	52	6803
2026-01-29 18:53:15.05	299.53	4.97	-39.9	-41.1	20.7	0.00e+00	0	31	0	1131413504	52	6529
2026-01-29 18:53:16.06	299.43	4.92	-40.0	-41.2	20.6	0.00e+00	66	32	0	1133510656	52	6590
2026-01-29 18:53:17.07	299.33	4.86	-39.7	-41.0	20.9	0.00e+00	0	32	0	1135607808	52	6405
2026-01-29 18:53:18.08	299.23	4.81	-39.6	-40.8	20.9	0.00e+00	0	31	0	1137704960	52	6274
2026-01-29 18:53:19.09	299.12	4.76	-39.5	-40.7	21.1	0.00e+00	0	32	0	1138753536	52	6193
2026-01-29 18:53:20.10	299.02	4.70	-39.5	-40.7	21.2	0.00e+00	0	31	0	1140850688	52	6195
2026-01-29 18:53:21.11	298.92	4.65	-39.7	-40.9	21.0	0.00e+00	73	32	0	1142947840	52	6322
2026-01-29 18:53:22.12	298.82	4.60	-39.3	-40.5	21.3	0.00e+00	0	31	0	1145044992	52	6042
2026-01-29 18:53:23.13	298.72	4.55	-39.8	-41.0	20.6	0.00e+00	91	31	0	1147142144	52	6436
2026-01-29 18:53:24.14	298.62	4.49	-39.9	-41.2	20.6	0.00e+00	0	31	0	1148190720	52	6543
2026-01-29 18:53:25.15	298.52	4.44	-39.7	-40.9	20.7	0.00e+00	0	32	0	1150287872	52	6383
2026-01-29 18:53:26.16	298.42	4.39	-40.0	-41.2	20.4	0.00e+00	0	32	0	1152385024	52	6609
2026-01-29 18:53:27.17	298.32	4.34	-39.7	-40.9	20.8	0.00e+00	0	31	0	1154482176	52	6338
2026-01-29 18:53:28.18	298.23	4.28	-39.7	-40.9	20.7	0.00e+00	49	32	0	1156579328	52	6318
2026-01-29 18:53:29.19	298.13	4.23	-39.5	-40.7	20.9	0.00e+00	0	31	0	1157627904	52	6216
2026-01-29 18:53:30.20	298.03	4.18	-40.1	-41.4	20.3	0.00e+00	89	31	0	1159725056	52	6743
2026-01-29 18:53:31.21	297.93	4.12	-39.9	-41.1	20.5	0.00e+00	0	31	0	1161822208	52	6513
2026-01-29 18:53:32.22	297.84	4.07	-40.2	-41.5	20.4	0.00e+00	0	32	0	1163919360	52	6810
2026-01-29 18:53:33.23	297.74	4.02	-40.8	-42.2	19.5	0.00e+00	0	32	0	1166016512	54	6561
2026-01-29 18:53:34.24	297.64	3.97	-39.9	-41.2	20.4	0.00e+00	29	31	0	1167065088	54	5846
2026-01-29 18:53:35.25	297.55	3.91	-40.7	-42.1	19.7	0.00e+00	41	31	0	1169162240	54	6480
2026-01-29 18:53:36.26	297.45	3.86	-41.0	-42.5	19.4	0.00e+00	0	31	0	1171259392	54	6785
2026-01-29 18:53:37.27	297.36	3.81	-40.9	-42.4	19.2	0.00e+00	91	31	0	1173356544	54	6753
2026-01-29 18:53:38.28	297.26	3.76	-41.3	-42.9	18.8	0.00e+00	0	31	0	1175453696	54	7144
2026-01-29 18:53:39.28	297.17	3.70	-41.4	-43.0	18.9	0.00e+00	90	32	0	1177550848	54	7205
2026-01-29 18:53:40.29	297.07	3.65	-41.4	-43.0	18.8	0.00e+00	0	32	0	1178599424	54	7175
2026-01-29 18:53:41.30	296.98	3.60	-41.3	-43.0	18.7	0.00e+00	0	32	0	1180696576	54	7180
2026-01-29 18:53:42.31	296.89	3.55	-41.5	-43.1	18.9	0.00e+00	16	31	0	1182793728	56	6473
2026-01-29 18:53:43.32	296.79	3.50	-41.6	-43.3	18.3	0.00e+00	0	31	0	1184890880	56	6653
2026-01-29 18:53:44.33	296.70	3.44	-41.2	-42.7	18.8	0.00e+00	92	32	0	1186988032	56	6232
2026-01-29 18:53:45.34	296.61	3.39	-42.0	-43.8	18.1	0.00e+00	0	31	0	1188036608	56	7061
2026-01-29 18:53:46.35	296.52	3.34	-40.9	-42.4	19.3	0.00e+00	90	32	0	1190133760	56	5978
2026-01-29 18:53:47.36	296.42	3.29	-42.0	-43.7	18.0	0.00e+00	0	31	0	1192230912	56	7004
2026-01-29 18:53:48.37	296.33	3.23	-41.3	-42.9	18.8	0.00e+00	0	32	0	1194328064	56	6357
2026-01-29 18:53:49.38	296.24	3.18	-41.4	-43.0	18.8	0.00e+00	0	32	0	1196425216	56	6457
