passes_logs/2026/01/29/R4.6S_Anadyr/R4.6S_Anadyr__20260129_065146_KOSAR1-5_rec.log

#Pass ID: 20260129_065146_KOSAR1-5
#Satellite: KOSAR1-5
#Configuration: KOSAR1-5
#almurnet v.1.7.20251203
#Start time: 2026-01-29 06:51:46

#Version: 2.2.20231116
#Station: R4.6S_Anadyr
#Location: 177.4865 lon 64.73178 lat
#TLE: 1 67264U 25313S   26027.89307552  .00010412  00000+0  48021-3 0  9990
#TLE: 2 67264  97.4176 104.8503 0016482 138.1720 222.0778 15.20312014  4613

#Time	Az	El	Level	Level2	SNR	BER	BlckErr	Temp	State	Recorded	gain1	gain2
2026-01-29 06:51:46.65	86.20	0.02	-49.1	-66.8	3.5	3.03e+01	0	25	0	0	60	84122
2026-01-29 06:51:47.66	86.09	0.08	-46.8	-61.4	3.6	1.51e+00	0	26	104	0	60	47814
2026-01-29 06:51:48.67	85.99	0.13	-46.3	-61.0	3.6	1.51e+00	0	26	104	0	60	45684
2026-01-29 06:51:49.68	85.88	0.18	-46.2	-61.0	3.6	1.51e+00	0	27	104	0	60	45486
2026-01-29 06:51:50.69	85.78	0.23	-46.4	-61.0	3.6	1.51e+00	0	27	104	0	60	45680
2026-01-29 06:51:51.70	85.67	0.28	-45.9	-60.7	3.6	1.51e+00	0	26	104	0	60	43823
2026-01-29 06:51:52.71	85.56	0.33	-45.4	-60.1	3.6	1.51e+00	0	27	104	0	60	40899
2026-01-29 06:51:53.72	85.46	0.38	-45.6	-60.3	3.6	1.51e+00	0	27	104	0	60	41795
2026-01-29 06:51:54.73	85.35	0.43	-45.4	-60.1	3.6	1.51e+00	0	27	104	0	60	41160
2026-01-29 06:51:55.74	85.24	0.49	-45.4	-60.1	3.6	1.51e+00	0	27	104	0	60	40903
2026-01-29 06:51:56.75	85.13	0.54	-45.3	-60.0	3.6	1.51e+00	0	27	104	0	60	40353
2026-01-29 06:51:57.76	85.02	0.59	-45.2	-60.0	3.6	1.51e+00	0	27	104	0	60	40423
2026-01-29 06:51:58.77	84.91	0.64	-45.0	-60.0	3.6	1.51e+00	0	27	104	0	60	40458
2026-01-29 06:51:59.78	84.80	0.69	-45.2	-60.0	3.6	1.51e+00	0	27	104	0	60	40359
2026-01-29 06:52:00.79	84.69	0.74	-45.3	-60.0	3.6	1.51e+00	0	27	104	0	60	40574
2026-01-29 06:52:01.80	84.58	0.80	-45.1	-60.0	3.6	1.51e+00	0	27	104	0	60	40526
2026-01-29 06:52:02.81	84.47	0.85	-45.3	-60.0	3.6	1.51e+00	0	27	104	0	60	40750
2026-01-29 06:52:03.82	84.36	0.90	-44.2	-60.0	3.6	1.51e+00	0	27	104	0	60	40433
2026-01-29 06:52:04.83	84.24	0.95	-45.2	-60.0	3.5	1.51e+00	0	27	104	0	60	40370
2026-01-29 06:52:05.84	84.13	1.00	-45.2	-59.9	3.6	1.51e+00	0	27	104	0	60	40317
2026-01-29 06:52:06.85	84.02	1.05	-44.9	-59.9	3.6	1.51e+00	0	27	104	0	60	40125
2026-01-29 06:52:07.85	83.90	1.11	-43.0	-59.8	3.6	1.51e+00	0	27	104	0	60	39827
2026-01-29 06:52:08.86	83.79	1.16	-43.4	-59.7	3.6	1.51e+00	0	27	104	0	60	39400
2026-01-29 06:52:09.87	83.67	1.21	-44.2	-59.6	3.6	1.51e+00	0	27	104	0	60	38651
2026-01-29 06:52:10.89	83.56	1.26	-44.0	-59.4	3.6	1.51e+00	0	27	104	0	60	37929
2026-01-29 06:52:11.90	83.44	1.31	-44.3	-59.0	3.6	1.51e+00	0	27	104	0	60	36225
2026-01-29 06:52:12.91	83.32	1.37	-43.3	-58.7	3.6	1.51e+00	0	27	104	0	60	35078
2026-01-29 06:52:13.92	83.21	1.42	-43.2	-58.7	3.6	1.51e+00	0	27	104	0	60	34922
2026-01-29 06:52:14.93	83.09	1.47	-43.2	-58.7	3.6	1.51e+00	0	27	104	0	60	34951
2026-01-29 06:52:15.94	82.97	1.52	-43.2	-58.7	3.6	1.51e+00	0	27	104	0	60	34962
2026-01-29 06:52:16.95	82.85	1.58	-43.2	-58.7	3.6	1.51e+00	0	27	104	0	60	35033
2026-01-29 06:52:17.96	82.73	1.63	-43.1	-58.7	3.6	1.51e+00	0	27	104	0	60	34770
2026-01-29 06:52:18.97	82.61	1.68	-43.2	-58.7	3.6	1.51e+00	0	27	104	0	60	34980
2026-01-29 06:52:19.97	82.49	1.73	-43.2	-58.7	3.6	1.51e+00	0	27	104	0	60	35033
2026-01-29 06:52:20.98	82.37	1.78	-43.1	-58.7	3.6	1.51e+00	0	27	104	0	60	35055
2026-01-29 06:52:21.99	82.25	1.84	-43.1	-58.7	3.6	1.51e+00	0	27	104	0	60	34908
2026-01-29 06:52:23.00	82.13	1.89	-43.1	-58.7	3.6	1.51e+00	0	27	104	0	60	34817
2026-01-29 06:52:24.01	82.00	1.94	-43.2	-58.7	3.6	1.51e+00	0	27	104	0	60	34862
2026-01-29 06:52:25.02	81.88	1.99	-43.1	-58.7	3.6	1.51e+00	0	27	104	0	60	34961
2026-01-29 06:52:26.03	81.76	2.05	-43.1	-58.7	3.6	1.51e+00	0	27	104	0	60	34813
2026-01-29 06:52:27.04	81.63	2.10	-43.1	-58.6	3.6	1.51e+00	0	27	104	0	60	34690
2026-01-29 06:52:28.05	81.50	2.15	-43.1	-58.7	3.6	1.51e+00	0	27	104	0	60	34734
2026-01-29 06:52:29.06	81.38	2.20	-43.2	-58.7	3.6	1.51e+00	0	27	104	0	60	34725
2026-01-29 06:52:30.07	81.25	2.26	-43.2	-58.7	3.6	1.51e+00	0	27	104	0	60	34855
2026-01-29 06:52:31.08	81.13	2.31	-43.1	-58.7	3.6	1.51e+00	0	27	104	0	60	34818
2026-01-29 06:52:32.09	81.00	2.36	-43.1	-58.6	3.6	1.51e+00	0	27	104	0	60	34583
2026-01-29 06:52:33.10	80.87	2.41	-43.2	-58.7	3.6	1.51e+00	0	27	104	0	60	34782
2026-01-29 06:52:34.11	80.74	2.47	-43.1	-58.7	3.6	1.51e+00	0	27	104	0	60	34910
2026-01-29 06:52:35.12	80.61	2.52	-43.1	-58.7	3.6	1.51e+00	0	27	104	0	60	34805
2026-01-29 06:52:36.13	80.48	2.57	-43.1	-58.6	3.6	1.51e+00	0	27	104	0	60	34620
2026-01-29 06:52:37.14	80.35	2.62	-43.2	-58.7	3.6	1.51e+00	0	27	104	0	60	34899
2026-01-29 06:52:38.15	80.22	2.68	-43.2	-58.7	3.6	1.51e+00	0	27	104	0	60	34915
2026-01-29 06:52:39.15	80.09	2.73	-43.1	-58.6	3.6	1.51e+00	0	28	104	0	60	34596
2026-01-29 06:52:40.16	79.96	2.78	-43.2	-58.7	3.6	1.51e+00	0	27	104	0	60	34799
2026-01-29 06:52:41.17	79.82	2.84	-43.1	-58.6	3.6	1.51e+00	0	27	104	0	60	34645
2026-01-29 06:52:42.18	79.69	2.89	-43.1	-58.6	3.6	1.51e+00	0	27	104	0	60	34640
2026-01-29 06:52:43.19	79.55	2.94	-43.1	-58.7	3.6	1.51e+00	0	28	104	0	60	34758
2026-01-29 06:52:44.20	79.42	2.99	-43.1	-58.7	3.6	1.51e+00	0	27	104	0	60	34833
2026-01-29 06:52:45.21	79.28	3.05	-43.1	-58.7	3.6	1.51e+00	0	27	104	0	60	34850
2026-01-29 06:52:46.22	79.15	3.10	-42.6	-58.7	3.6	1.51e+00	0	28	104	0	60	35008
2026-01-29 06:52:47.23	79.01	3.15	-41.4	-58.6	3.6	1.51e+00	0	28	104	0	58	38684
2026-01-29 06:52:48.24	78.87	3.20	-43.2	-58.7	3.6	1.51e+00	0	28	104	0	60	34835
2026-01-29 06:52:49.25	78.73	3.26	-43.5	-58.8	3.6	1.51e+00	0	27	104	0	60	35474
2026-01-29 06:52:50.26	78.59	3.31	-43.5	-58.7	3.6	1.51e+00	0	28	104	0	60	34800
2026-01-29 06:52:51.27	78.45	3.36	-43.3	-58.8	3.6	1.51e+00	0	28	104	0	60	35264
2026-01-29 06:52:52.28	78.31	3.42	-41.9	-58.7	3.6	1.51e+00	0	28	104	0	58	39137
2026-01-29 06:52:53.28	78.17	3.47	-44.1	-58.9	3.6	1.51e+00	0	27	104	0	60	35686
2026-01-29 06:52:54.29	78.03	3.52	-43.0	-58.7	3.6	1.51e+00	0	28	104	0	60	34747
2026-01-29 06:52:55.30	77.89	3.57	-43.1	-58.8	3.6	1.51e+00	0	28	104	0	60	35388
2026-01-29 06:52:56.31	77.75	3.63	-43.5	-58.8	3.6	1.51e+00	0	28	104	0	60	35332
2026-01-29 06:52:57.32	77.60	3.68	-43.5	-58.9	3.6	1.51e+00	0	28	104	0	60	35724
2026-01-29 06:52:58.33	77.46	3.73	-43.4	-58.7	3.6	1.51e+00	0	28	104	0	60	35119
2026-01-29 06:52:59.34	77.32	3.79	-43.5	-58.8	3.6	1.51e+00	0	28	104	0	60	35507
2026-01-29 06:53:00.35	77.17	3.84	-43.4	-58.8	3.6	1.51e+00	0	28	104	0	60	35363
2026-01-29 06:53:01.36	77.02	3.89	-43.7	-58.9	3.5	1.51e+00	0	28	104	0	60	35898
2026-01-29 06:53:02.37	76.88	3.94	-42.7	-58.8	3.6	1.51e+00	0	28	104	0	60	35367
2026-01-29 06:53:03.38	76.73	4.00	-42.5	-58.8	3.6	1.51e+00	0	28	104	0	58	39775
2026-01-29 06:53:04.39	76.58	4.05	-43.3	-58.9	3.6	1.51e+00	0	28	104	0	60	35792
2026-01-29 06:53:05.40	76.43	4.10	-42.5	-59.0	3.6	1.51e+00	0	28	104	0	60	36045
2026-01-29 06:53:06.41	76.28	4.16	-43.7	-58.9	3.6	1.51e+00	0	28	104	0	60	35566
2026-01-29 06:53:07.42	76.13	4.21	-43.9	-58.9	3.6	1.51e+00	0	28	104	0	60	35690
2026-01-29 06:53:08.43	75.98	4.26	-42.0	-58.9	3.6	1.51e+00	0	28	104	0	58	39982
2026-01-29 06:53:09.43	75.83	4.31	-44.2	-58.9	3.6	1.51e+00	0	28	104	0	60	35842
2026-01-29 06:53:10.45	75.67	4.37	-44.0	-58.9	3.6	1.51e+00	0	28	104	0	60	35772
2026-01-29 06:53:11.45	75.52	4.42	-44.0	-58.9	3.6	1.51e+00	0	28	104	0	60	35912
2026-01-29 06:53:12.46	75.37	4.47	-43.8	-58.9	3.6	1.51e+00	0	28	104	0	60	35934
2026-01-29 06:53:13.47	75.21	4.52	-44.2	-59.0	3.6	1.51e+00	0	28	104	0	60	35969
2026-01-29 06:53:14.48	75.06	4.58	-43.6	-58.9	3.6	1.51e+00	0	28	104	0	60	35848
2026-01-29 06:53:15.49	74.90	4.63	-42.8	-59.0	3.6	1.51e+00	0	28	104	0	60	36018
2026-01-29 06:53:16.50	74.74	4.68	-44.2	-59.0	3.6	1.51e+00	0	28	104	0	60	36051
2026-01-29 06:53:17.51	74.59	4.73	-42.4	-59.0	3.6	1.51e+00	0	28	104	0	60	36171
2026-01-29 06:53:18.52	74.43	4.79	-40.6	-59.0	3.6	1.51e+00	0	28	104	0	56	45380
2026-01-29 06:53:19.53	74.27	4.84	-43.7	-59.0	3.6	1.51e+00	0	28	104	0	60	36353
2026-01-29 06:53:20.54	74.11	4.89	-43.0	-59.1	3.6	1.51e+00	0	28	104	0	60	36583
2026-01-29 06:53:21.55	73.95	4.94	-41.2	-59.0	3.6	1.51e+00	0	28	104	0	60	36171
2026-01-29 06:53:22.56	73.79	5.00	-43.6	-59.0	3.6	1.51e+00	0	28	104	0	60	36175
2026-01-29 06:53:23.57	73.63	5.05	-41.9	-59.0	3.5	1.51e+00	0	28	104	0	60	36079
2026-01-29 06:53:24.58	73.46	5.10	-43.3	-59.1	3.6	1.51e+00	0	28	104	0	60	36677
2026-01-29 06:53:25.58	73.30	5.15	-43.0	-59.0	3.6	1.51e+00	0	28	104	0	60	36119
2026-01-29 06:53:26.59	73.14	5.21	-40.5	-59.0	3.6	1.51e+00	0	28	104	0	60	36315
2026-01-29 06:53:27.60	72.97	5.26	-42.6	-59.0	3.6	1.51e+00	0	28	104	0	58	40752
2026-01-29 06:53:28.61	72.80	5.31	-41.5	-59.2	3.6	1.51e+00	0	28	104	0	60	37021
2026-01-29 06:53:29.62	72.64	5.36	-40.6	-59.1	3.6	1.51e+00	0	28	104	0	56	46136
2026-01-29 06:53:30.63	72.47	5.41	-42.5	-59.1	3.6	1.51e+00	0	28	104	0	60	36581
2026-01-29 06:53:31.64	72.30	5.47	-40.5	-59.1	3.6	1.51e+00	0	28	104	0	56	45958
2026-01-29 06:53:32.65	72.13	5.52	-42.5	-59.2	3.6	1.51e+00	0	28	104	0	60	36988
2026-01-29 06:53:33.66	71.96	5.57	-43.8	-59.1	3.6	1.51e+00	0	28	104	0	58	40847
2026-01-29 06:53:34.67	71.79	5.62	-40.3	-59.1	3.6	1.51e+00	0	28	104	0	54	51570
2026-01-29 06:53:35.67	71.62	5.67	-43.0	-59.2	3.6	1.51e+00	0	28	104	0	60	36947
2026-01-29 06:53:36.68	71.45	5.72	-42.3	-59.3	3.6	1.51e+00	0	28	104	0	60	37262
2026-01-29 06:53:37.69	71.28	5.78	-42.0	-59.1	3.5	1.51e+00	0	28	104	0	58	41166
2026-01-29 06:53:38.70	71.10	5.83	-43.0	-59.2	3.6	1.51e+00	0	28	104	0	60	37022
2026-01-29 06:53:39.72	70.93	5.88	-42.5	-59.2	3.6	1.51e+00	0	28	104	0	60	37121
2026-01-29 06:53:40.73	70.75	5.93	-44.4	-59.3	3.6	1.51e+00	0	28	104	0	60	37388
2026-01-29 06:53:41.74	70.58	5.98	-43.6	-59.2	3.6	1.51e+00	0	28	104	0	60	36983
2026-01-29 06:53:42.75	70.40	6.03	-44.3	-59.3	3.6	1.51e+00	0	28	104	0	60	37207
2026-01-29 06:53:43.76	70.22	6.09	-44.5	-59.2	3.6	1.51e+00	0	28	104	0	60	37079
2026-01-29 06:53:44.76	70.04	6.14	-44.2	-59.3	3.6	1.51e+00	0	28	104	0	60	37221
2026-01-29 06:53:45.77	69.87	6.19	-41.9	-59.2	3.6	1.51e+00	0	28	104	0	60	37006
2026-01-29 06:53:46.78	69.69	6.24	-44.0	-59.2	3.6	1.51e+00	0	28	104	0	60	37199
2026-01-29 06:53:47.79	69.50	6.29	-43.2	-59.2	3.6	1.51e+00	0	28	104	0	60	37089
2026-01-29 06:53:48.80	69.32	6.34	-44.5	-59.3	3.6	1.51e+00	0	28	104	0	60	37332
2026-01-29 06:53:49.81	69.14	6.39	-43.3	-59.2	3.6	1.51e+00	0	28	104	0	60	36927
2026-01-29 06:53:50.82	68.96	6.44	-41.5	-59.2	3.6	1.51e+00	0	28	104	0	58	41462
2026-01-29 06:53:51.82	68.77	6.49	-44.2	-59.3	3.6	1.51e+00	0	28	104	0	60	37278
2026-01-29 06:53:52.83	68.59	6.54	-41.5	-59.3	3.6	1.51e+00	0	28	104	0	60	37441
2026-01-29 06:53:53.84	68.40	6.59	-41.1	-59.2	3.6	1.51e+00	0	28	104	0	56	46533
2026-01-29 06:53:54.85	68.22	6.64	-38.0	-59.2	3.6	1.51e+00	0	28	104	0	52	58691
2026-01-29 06:53:55.86	68.03	6.69	-39.0	-59.2	3.6	1.51e+00	0	28	104	0	50	66007
2026-01-29 06:53:56.86	67.84	6.74	-39.3	-59.2	3.6	1.51e+00	0	28	104	0	52	58820
2026-01-29 06:53:57.87	67.65	6.79	-41.3	-59.2	3.6	1.51e+00	0	28	104	0	56	46637
2026-01-29 06:53:58.88	67.46	6.84	-43.0	-59.2	3.6	1.51e+00	0	28	104	0	58	41625
2026-01-29 06:53:59.89	67.27	6.89	-39.1	-59.2	3.6	1.51e+00	0	28	104	0	54	52314
2026-01-29 06:54:00.90	67.08	6.94	-43.0	-59.4	3.6	1.51e+00	0	28	104	0	60	37695
2026-01-29 06:54:01.90	66.89	6.99	-42.3	-59.2	3.6	1.51e+00	0	28	104	0	58	41534
2026-01-29 06:54:02.91	66.70	7.04	-43.5	-59.3	3.5	1.51e+00	0	28	104	0	60	37553
2026-01-29 06:54:03.92	66.50	7.09	-44.3	-59.3	3.6	1.51e+00	0	28	104	0	60	37221
2026-01-29 06:54:04.93	66.31	7.14	-43.5	-59.4	3.6	1.51e+00	0	28	104	0	60	37822
2026-01-29 06:54:05.94	66.11	7.19	-42.3	-59.3	3.6	1.51e+00	0	28	104	0	60	37483
2026-01-29 06:54:06.95	65.92	7.23	-44.0	-59.4	3.6	1.51e+00	0	28	104	0	60	37677
2026-01-29 06:54:07.96	65.72	7.28	-43.6	-59.4	3.6	1.51e+00	0	28	104	0	60	37640
2026-01-29 06:54:08.97	65.52	7.33	-44.6	-59.4	3.6	1.51e+00	0	28	104	0	60	37990
2026-01-29 06:54:09.98	65.32	7.38	-42.3	-59.4	3.6	1.51e+00	0	28	104	0	60	37639
2026-01-29 06:54:10.98	65.12	7.43	-39.7	-59.3	3.6	1.51e+00	0	28	104	0	54	52771
2026-01-29 06:54:11.99	64.92	7.47	-43.7	-59.3	3.6	1.51e+00	0	28	104	0	60	37606
2026-01-29 06:54:13.00	64.72	7.52	-43.3	-59.4	3.6	1.51e+00	0	28	104	0	60	37791
2026-01-29 06:54:14.01	64.52	7.57	-39.4	-59.3	3.6	1.51e+00	0	28	104	0	52	59303
2026-01-29 06:54:15.02	64.32	7.62	-38.7	-59.3	3.6	1.51e+00	0	28	104	0	54	52922
2026-01-29 06:54:16.03	64.11	7.66	-41.8	-59.3	3.6	1.51e+00	0	28	104	0	60	37540
2026-01-29 06:54:17.04	63.91	7.71	-41.9	-59.3	3.6	1.51e+00	0	28	104	0	58	42104
2026-01-29 06:54:18.05	63.70	7.76	-41.9	-59.3	3.6	1.51e+00	0	28	104	0	60	37624
2026-01-29 06:54:19.05	63.50	7.81	-43.2	-59.4	3.6	1.51e+00	0	28	104	0	58	42318
2026-01-29 06:54:20.06	63.29	7.85	-38.8	-59.3	3.6	1.51e+00	0	28	104	0	54	52943
2026-01-29 06:54:21.07	63.08	7.90	-43.6	-59.4	3.6	1.51e+00	0	28	104	0	60	37960
2026-01-29 06:54:22.08	62.87	7.94	-43.8	-59.4	3.6	1.51e+00	0	28	104	0	60	37762
2026-01-29 06:54:23.09	62.66	7.99	-43.0	-59.5	3.6	1.51e+00	0	28	104	0	60	38099
2026-01-29 06:54:24.10	62.45	8.04	-44.4	-59.4	3.6	1.51e+00	0	28	104	0	60	37739
2026-01-29 06:54:25.10	62.24	8.08	-43.9	-59.5	3.6	1.51e+00	0	28	104	0	60	38152
2026-01-29 06:54:26.11	62.03	8.13	-44.2	-59.4	3.6	1.51e+00	0	28	104	0	60	37893
2026-01-29 06:54:27.12	61.81	8.17	-42.4	-59.4	3.6	1.51e+00	0	28	104	0	60	38026
2026-01-29 06:54:28.13	61.60	8.22	-43.9	-59.4	3.6	1.51e+00	0	28	104	0	60	37745
2026-01-29 06:54:29.14	61.38	8.26	-44.0	-59.5	3.6	1.51e+00	0	28	104	0	60	38167
2026-01-29 06:54:30.15	61.17	8.31	-44.0	-59.4	3.6	1.51e+00	0	28	104	0	60	37825
2026-01-29 06:54:31.16	60.95	8.35	-40.8	-59.4	3.6	1.51e+00	0	28	104	0	56	47847
2026-01-29 06:54:32.17	60.73	8.40	-43.5	-59.4	3.6	1.51e+00	0	28	104	0	60	37771
2026-01-29 06:54:33.18	60.52	8.44	-43.7	-59.5	3.6	1.51e+00	0	28	104	0	60	38240
2026-01-29 06:54:34.19	60.30	8.48	-44.0	-59.4	3.6	1.51e+00	0	28	104	0	60	37965
2026-01-29 06:54:35.19	60.08	8.53	-44.0	-59.5	3.6	1.51e+00	0	28	104	0	60	38224
2026-01-29 06:54:36.20	59.86	8.57	-43.4	-59.4	3.6	1.51e+00	0	28	104	0	60	37951
2026-01-29 06:54:37.21	59.64	8.61	-42.7	-59.5	3.6	1.51e+00	0	28	104	0	60	38375
2026-01-29 06:54:38.22	59.41	8.66	-44.5	-59.4	3.6	1.51e+00	0	28	104	0	60	37902
2026-01-29 06:54:39.23	59.19	8.70	-44.8	-59.5	3.6	1.51e+00	0	28	104	0	60	38172
2026-01-29 06:54:40.23	58.97	8.74	-44.4	-59.4	3.6	1.51e+00	0	28	104	0	60	38001
2026-01-29 06:54:41.24	58.74	8.78	-44.8	-59.5	3.6	1.51e+00	0	28	104	0	60	38220
2026-01-29 06:54:42.25	58.52	8.82	-44.7	-59.5	3.6	1.51e+00	0	28	104	0	60	38089
2026-01-29 06:54:43.26	58.29	8.87	-44.1	-59.5	3.6	1.51e+00	0	28	104	0	60	38191
2026-01-29 06:54:44.27	58.06	8.91	-44.8	-59.5	3.6	1.51e+00	0	28	104	0	60	38104
2026-01-29 06:54:45.28	57.84	8.95	-44.6	-59.5	3.6	1.51e+00	0	28	104	0	60	38278
2026-01-29 06:54:46.29	57.61	8.99	-44.7	-59.4	3.6	1.51e+00	0	28	104	0	60	37935
2026-01-29 06:54:47.30	57.38	9.03	-44.8	-59.5	3.6	1.51e+00	0	28	104	0	60	38238
2026-01-29 06:54:48.31	57.15	9.07	-43.8	-59.5	3.6	1.51e+00	0	28	104	0	60	38233
2026-01-29 06:54:49.32	56.92	9.11	-44.2	-59.5	3.6	1.51e+00	0	28	104	0	60	38434
2026-01-29 06:54:50.33	56.68	9.15	-44.4	-59.5	3.6	1.51e+00	0	28	104	0	60	38211
2026-01-29 06:54:51.34	56.45	9.19	-44.8	-59.5	3.6	1.51e+00	0	28	104	0	60	38170
2026-01-29 06:54:52.35	56.22	9.23	-44.8	-59.5	3.6	1.51e+00	0	28	104	0	60	38286
2026-01-29 06:54:53.35	55.98	9.26	-44.5	-59.5	3.6	1.51e+00	0	28	104	0	60	38257
2026-01-29 06:54:54.36	55.75	9.30	-44.5	-59.5	3.6	1.51e+00	0	28	104	0	60	38389
2026-01-29 06:54:55.37	55.51	9.34	-44.6	-59.5	3.6	1.51e+00	0	28	104	0	60	38227
2026-01-29 06:54:56.38	55.28	9.38	-44.3	-59.5	3.6	1.51e+00	0	28	104	0	60	38461
2026-01-29 06:54:57.39	55.04	9.42	-44.1	-59.5	3.6	1.51e+00	0	28	104	0	60	38353
2026-01-29 06:54:58.40	54.80	9.45	-41.9	-59.5	3.6	1.51e+00	0	28	104	0	60	38270
2026-01-29 06:54:59.40	54.56	9.49	-43.5	-59.6	3.6	1.51e+00	0	28	104	0	60	38560
2026-01-29 06:55:00.41	54.32	9.53	-44.8	-59.6	3.6	1.51e+00	0	28	104	0	60	38540
2026-01-29 06:55:01.42	54.08	9.56	-44.2	-59.6	3.6	1.51e+00	0	28	104	0	60	38567
2026-01-29 06:55:02.43	53.84	9.60	-43.4	-59.5	3.6	1.51e+00	0	28	104	0	60	38290
2026-01-29 06:55:03.44	53.60	9.63	-43.2	-59.6	3.6	1.51e+00	0	28	104	0	60	38598
2026-01-29 06:55:04.45	53.36	9.67	-43.4	-59.5	3.6	1.51e+00	0	28	104	0	60	38472
2026-01-29 06:55:05.46	53.11	9.70	-43.9	-59.5	3.6	1.51e+00	0	28	104	0	60	38233
2026-01-29 06:55:06.47	52.87	9.74	-44.8	-59.5	3.6	1.51e+00	0	28	104	0	60	38466
2026-01-29 06:55:07.48	52.62	9.77	-44.5	-59.5	3.6	1.51e+00	0	28	104	0	60	38472
2026-01-29 06:55:08.49	52.38	9.80	-43.7	-59.6	3.6	1.51e+00	0	28	104	0	60	38650
2026-01-29 06:55:09.50	52.13	9.84	-44.6	-59.6	3.5	1.51e+00	0	28	104	0	60	38562
2026-01-29 06:55:10.51	51.89	9.87	-44.6	-59.5	3.6	1.51e+00	0	28	104	0	60	38466
2026-01-29 06:55:11.52	51.64	9.90	-44.6	-59.5	3.5	1.51e+00	0	28	104	0	60	38465
2026-01-29 06:55:12.53	51.39	9.94	-44.0	-59.6	3.6	1.51e+00	0	28	104	0	60	38692
2026-01-29 06:55:13.54	51.14	9.97	-44.7	-59.5	3.6	1.51e+00	0	28	104	0	60	38437
2026-01-29 06:55:14.55	50.89	10.00	-44.2	-59.5	3.6	1.51e+00	0	28	104	0	60	38321
2026-01-29 06:55:15.56	50.64	10.03	-44.6	-59.6	3.6	1.51e+00	0	28	104	0	60	38724
2026-01-29 06:55:16.57	50.39	10.06	-44.6	-59.6	3.5	1.51e+00	0	28	104	0	60	38892
2026-01-29 06:55:17.57	50.14	10.09	-44.2	-59.6	3.5	1.51e+00	0	28	104	0	60	38608
2026-01-29 06:55:18.58	49.89	10.12	-43.6	-59.6	3.6	1.51e+00	0	28	104	0	60	38588
2026-01-29 06:55:19.59	49.63	10.15	-44.1	-59.6	3.6	1.51e+00	0	28	104	0	60	38591
2026-01-29 06:55:20.60	49.38	10.18	-44.6	-59.6	3.6	1.51e+00	0	28	104	0	60	38640
2026-01-29 06:55:21.61	49.13	10.21	-43.7	-59.6	3.6	1.51e+00	0	28	104	0	60	38692
2026-01-29 06:55:22.62	48.87	10.23	-42.9	-59.5	3.6	1.51e+00	0	28	104	0	60	38492
2026-01-29 06:55:23.63	48.62	10.26	-43.2	-59.6	3.6	1.51e+00	0	28	104	0	60	38564
2026-01-29 06:55:24.63	48.36	10.29	-44.7	-59.6	3.6	1.51e+00	0	28	104	0	60	38681
2026-01-29 06:55:25.64	48.11	10.32	-42.7	-59.6	3.6	1.51e+00	0	28	104	0	60	38541
2026-01-29 06:55:26.65	47.85	10.34	-43.1	-59.6	3.6	1.51e+00	0	28	104	0	60	38539
2026-01-29 06:55:27.66	47.59	10.37	-43.2	-59.5	3.6	1.51e+00	0	28	104	0	60	38453
2026-01-29 06:55:28.67	47.33	10.39	-43.7	-59.6	3.6	1.51e+00	0	28	104	0	60	38850
2026-01-29 06:55:29.67	47.08	10.42	-44.2	-59.6	3.6	1.51e+00	0	28	104	0	60	38628
2026-01-29 06:55:30.68	46.82	10.44	-44.5	-59.6	3.6	1.51e+00	0	28	104	0	60	38586
2026-01-29 06:55:31.69	46.56	10.47	-44.0	-59.5	3.6	1.51e+00	0	28	104	0	60	38445
2026-01-29 06:55:32.70	46.30	10.49	-44.2	-59.6	3.6	1.51e+00	0	28	104	0	60	38760
2026-01-29 06:55:33.71	46.03	10.52	-44.1	-59.6	3.6	1.51e+00	0	28	104	0	60	38701
2026-01-29 06:55:34.72	45.77	10.54	-44.2	-59.6	3.6	1.51e+00	0	28	104	0	60	38828
2026-01-29 06:55:35.73	45.51	10.56	-43.6	-59.6	3.6	1.51e+00	0	28	104	0	60	38807
2026-01-29 06:55:36.74	45.25	10.58	-44.0	-59.6	3.6	1.51e+00	0	28	104	0	60	38853
2026-01-29 06:55:37.75	44.98	10.60	-44.6	-59.6	3.6	1.51e+00	0	28	104	0	60	38839
2026-01-29 06:55:38.75	44.72	10.62	-44.5	-59.6	3.6	1.51e+00	0	28	104	0	60	38651
2026-01-29 06:55:39.76	44.46	10.65	-43.6	-59.7	3.6	1.51e+00	0	28	104	0	60	38987
2026-01-29 06:55:40.77	44.20	10.67	-43.4	-59.6	3.6	1.51e+00	0	28	104	0	60	38759
2026-01-29 06:55:41.78	43.93	10.68	-44.5	-59.6	3.6	1.51e+00	0	28	104	0	60	38754
2026-01-29 06:55:42.79	43.66	10.70	-44.9	-59.6	3.6	1.51e+00	0	28	104	0	60	38949
2026-01-29 06:55:43.80	43.40	10.72	-44.7	-59.6	3.6	1.51e+00	0	28	104	0	60	38839
2026-01-29 06:55:44.81	43.13	10.74	-44.2	-59.7	3.5	1.51e+00	0	28	104	0	60	38958
2026-01-29 06:55:45.82	42.87	10.76	-44.8	-59.6	3.6	1.51e+00	0	28	104	0	60	38648
2026-01-29 06:55:46.83	42.60	10.78	-44.3	-59.6	3.6	1.51e+00	0	28	104	0	60	38729
2026-01-29 06:55:47.84	42.33	10.79	-44.6	-59.6	3.6	1.51e+00	0	28	104	0	60	38882
2026-01-29 06:55:48.85	42.06	10.81	-44.2	-59.6	3.6	1.51e+00	0	28	104	0	60	38829
2026-01-29 06:55:49.86	41.80	10.82	-44.7	-59.6	3.6	1.51e+00	0	28	104	0	60	38831
2026-01-29 06:55:50.87	41.53	10.84	-44.5	-59.6	3.6	1.51e+00	0	28	104	0	60	38925
2026-01-29 06:55:51.87	41.26	10.85	-44.9	-59.6	3.6	1.51e+00	0	28	104	0	60	38754
2026-01-29 06:55:52.88	40.99	10.87	-44.0	-59.7	3.6	1.51e+00	0	28	104	0	60	39052
2026-01-29 06:55:53.89	40.72	10.88	-44.7	-59.6	3.6	1.51e+00	0	28	104	0	60	38747
2026-01-29 06:55:54.90	40.45	10.89	-44.8	-59.6	3.6	1.51e+00	0	28	104	0	60	38889
2026-01-29 06:55:55.90	40.19	10.91	-44.9	-59.6	3.6	1.51e+00	0	28	104	0	60	38778
2026-01-29 06:55:56.91	39.91	10.92	-44.7	-59.6	3.6	1.51e+00	0	28	104	0	60	38902
2026-01-29 06:55:57.92	39.64	10.93	-44.9	-59.6	3.6	1.51e+00	0	28	104	0	60	38629
2026-01-29 06:55:58.93	39.37	10.94	-44.8	-59.6	3.6	1.51e+00	0	28	104	0	60	38825
2026-01-29 06:55:59.94	39.10	10.95	-44.9	-59.6	3.6	1.51e+00	0	28	104	0	60	38721
2026-01-29 06:56:00.94	38.83	10.96	-44.2	-59.6	3.6	1.51e+00	0	28	104	0	60	38880
2026-01-29 06:56:01.95	38.56	10.97	-44.9	-59.7	3.6	1.51e+00	0	28	104	0	60	38999
2026-01-29 06:56:02.96	38.29	10.98	-44.2	-59.7	3.6	1.51e+00	0	28	104	0	60	39052
2026-01-29 06:56:03.97	38.02	10.99	-44.7	-59.6	3.6	1.51e+00	0	28	104	0	60	38828
2026-01-29 06:56:04.98	37.75	11.00	-44.7	-59.7	3.6	1.51e+00	0	28	104	0	60	39063
2026-01-29 06:56:05.99	37.47	11.01	-44.9	-59.6	3.6	1.51e+00	0	28	104	0	60	38664
2026-01-29 06:56:07.00	37.20	11.01	-44.9	-59.6	3.6	1.51e+00	0	28	104	0	60	38912
2026-01-29 06:56:08.01	36.93	11.02	-44.4	-59.6	3.6	1.51e+00	0	28	104	0	60	38945
2026-01-29 06:56:09.02	36.66	11.02	-44.8	-59.7	3.6	1.51e+00	0	28	104	0	60	39121
2026-01-29 06:56:10.03	36.38	11.03	-44.7	-59.6	3.6	1.51e+00	0	28	104	0	60	38750
2026-01-29 06:56:11.03	36.11	11.03	-44.8	-59.6	3.6	1.51e+00	0	28	104	0	60	38781
2026-01-29 06:56:12.05	35.84	11.04	-44.9	-59.6	3.6	1.51e+00	0	28	104	0	60	38940
2026-01-29 06:56:13.05	35.57	11.04	-44.6	-59.7	3.6	1.51e+00	0	28	104	0	60	39033
2026-01-29 06:56:14.06	35.29	11.05	-44.8	-59.6	3.6	1.51e+00	0	28	104	0	60	38915
2026-01-29 06:56:15.07	35.02	11.05	-44.9	-59.6	3.6	1.51e+00	0	28	104	0	60	38915
2026-01-29 06:56:16.08	34.74	11.05	-44.9	-59.7	3.6	1.51e+00	0	28	104	0	60	39288
2026-01-29 06:56:17.09	34.47	11.05	-44.9	-59.7	3.6	1.51e+00	0	28	104	0	60	39004
2026-01-29 06:56:18.10	34.20	11.05	-44.8	-59.6	3.6	1.51e+00	0	28	104	0	60	38861
2026-01-29 06:56:19.10	33.93	11.05	-44.9	-59.7	3.6	1.51e+00	0	28	104	0	60	39077
2026-01-29 06:56:20.11	33.65	11.05	-44.9	-59.6	3.6	1.51e+00	0	28	104	0	60	38817
2026-01-29 06:56:21.12	33.38	11.05	-44.8	-59.7	3.6	1.51e+00	0	28	104	0	60	38956
2026-01-29 06:56:22.13	33.11	11.05	-44.8	-59.6	3.6	1.51e+00	0	28	104	0	60	38685
2026-01-29 06:56:23.14	32.83	11.05	-44.9	-59.6	3.5	1.51e+00	0	28	104	0	60	38874
2026-01-29 06:56:24.15	32.56	11.05	-44.8	-59.6	3.6	1.51e+00	0	28	104	0	60	38787
2026-01-29 06:56:25.16	32.29	11.04	-44.7	-59.7	3.6	1.51e+00	0	28	104	0	60	38963
2026-01-29 06:56:26.17	32.01	11.04	-44.8	-59.6	3.6	1.51e+00	0	28	104	0	60	38915
2026-01-29 06:56:27.18	31.74	11.04	-44.9	-59.6	3.6	1.51e+00	0	28	104	0	60	38928
2026-01-29 06:56:28.19	31.47	11.03	-44.9	-59.6	3.6	1.51e+00	0	28	104	0	60	38942
2026-01-29 06:56:29.20	31.19	11.03	-44.9	-59.7	3.6	1.51e+00	0	28	104	0	60	38979
2026-01-29 06:56:30.21	30.92	11.02	-44.8	-59.6	3.6	1.51e+00	0	28	104	0	60	38817
2026-01-29 06:56:31.22	30.65	11.02	-44.9	-59.6	3.6	1.51e+00	0	28	104	0	60	38842
2026-01-29 06:56:32.23	30.37	11.01	-44.8	-59.6	3.6	1.51e+00	0	28	104	0	60	38812
2026-01-29 06:56:33.24	30.10	11.00	-44.8	-59.6	3.6	1.51e+00	0	28	104	0	60	38799
2026-01-29 06:56:34.25	29.83	11.00	-43.9	-59.6	3.6	1.51e+00	0	28	104	0	60	38776
2026-01-29 06:56:35.26	29.56	10.99	-44.7	-59.6	3.6	1.51e+00	0	28	104	0	60	38864
2026-01-29 06:56:36.27	29.28	10.98	-44.6	-59.6	3.6	1.51e+00	0	28	104	0	60	38724
2026-01-29 06:56:37.28	29.01	10.97	-44.9	-59.7	3.6	1.51e+00	0	28	104	0	60	39028
2026-01-29 06:56:38.29	28.74	10.96	-44.1	-59.7	3.6	1.51e+00	0	28	104	0	60	39011
2026-01-29 06:56:39.29	28.47	10.95	-44.9	-59.6	3.6	1.51e+00	0	28	104	0	60	38701
2026-01-29 06:56:40.30	28.20	10.94	-44.9	-59.6	3.6	1.51e+00	0	28	104	0	60	38837
2026-01-29 06:56:41.31	27.93	10.93	-44.7	-59.6	3.6	1.51e+00	0	28	104	0	60	38930
2026-01-29 06:56:42.32	27.66	10.92	-44.3	-59.7	3.6	1.51e+00	0	28	104	0	60	38993
2026-01-29 06:56:43.33	27.39	10.91	-44.2	-59.6	3.5	1.51e+00	0	28	104	0	60	38913
2026-01-29 06:56:44.34	27.12	10.89	-44.3	-59.6	3.6	1.51e+00	0	28	104	0	60	38782
2026-01-29 06:56:45.35	26.85	10.88	-44.9	-59.6	3.6	1.51e+00	0	28	104	0	60	38843
2026-01-29 06:56:46.36	26.58	10.87	-44.4	-59.6	3.6	1.51e+00	0	28	104	0	60	38712
2026-01-29 06:56:47.37	26.31	10.85	-44.5	-59.6	3.6	1.51e+00	0	28	104	0	60	38762
2026-01-29 06:56:48.38	26.04	10.84	-44.8	-59.6	3.6	1.51e+00	0	28	104	0	60	38695
2026-01-29 06:56:49.39	25.77	10.82	-44.3	-59.6	3.6	1.51e+00	0	28	104	0	60	38917
2026-01-29 06:56:50.40	25.50	10.81	-44.9	-59.6	3.6	1.51e+00	0	28	104	0	60	38792
2026-01-29 06:56:51.41	25.24	10.79	-44.6	-59.6	3.6	1.51e+00	0	28	104	0	60	38751
2026-01-29 06:56:52.42	24.97	10.77	-44.3	-59.6	3.6	1.51e+00	0	28	104	0	60	38852
2026-01-29 06:56:53.42	24.70	10.76	-44.8	-59.6	3.6	1.51e+00	0	28	104	0	60	38937
2026-01-29 06:56:54.43	24.44	10.74	-44.8	-59.6	3.6	1.51e+00	0	28	104	0	60	38672
2026-01-29 06:56:55.45	24.17	10.72	-44.7	-59.7	3.6	1.51e+00	0	28	104	0	60	39103
2026-01-29 06:56:56.45	23.90	10.70	-44.1	-59.6	3.6	1.51e+00	0	28	104	0	60	38790
2026-01-29 06:56:57.46	23.64	10.68	-44.0	-59.6	3.6	1.51e+00	0	28	104	0	60	38796
2026-01-29 06:56:58.47	23.37	10.66	-44.9	-59.6	3.6	1.51e+00	0	28	104	0	60	38733
2026-01-29 06:56:59.49	23.11	10.64	-44.6	-59.6	3.6	1.51e+00	0	28	104	0	60	38859
2026-01-29 06:57:00.49	22.85	10.62	-44.5	-59.6	3.5	1.51e+00	0	28	104	0	60	38849
2026-01-29 06:57:01.50	22.58	10.60	-44.8	-59.6	3.6	1.51e+00	0	28	104	0	60	38680
2026-01-29 06:57:02.51	22.32	10.58	-44.8	-59.6	3.6	1.51e+00	0	28	104	0	60	38840
2026-01-29 06:57:03.52	22.06	10.56	-44.6	-59.6	3.6	1.51e+00	0	28	104	0	60	38736
2026-01-29 06:57:04.53	21.79	10.53	-43.5	-59.6	3.5	1.51e+00	0	28	104	0	60	38811
2026-01-29 06:57:05.53	21.53	10.51	-44.4	-59.6	3.6	1.51e+00	0	28	104	0	60	38812
2026-01-29 06:57:06.54	21.27	10.49	-44.8	-59.6	3.6	1.51e+00	0	28	104	0	60	38781
2026-01-29 06:57:07.55	21.01	10.46	-44.8	-59.6	3.6	1.51e+00	0	28	104	0	60	38793
2026-01-29 06:57:08.56	20.75	10.44	-43.6	-59.6	3.6	1.51e+00	0	28	104	0	60	38821
2026-01-29 06:57:09.57	20.49	10.41	-44.7	-59.6	3.6	1.51e+00	0	28	104	0	60	38628
2026-01-29 06:57:10.58	20.23	10.39	-44.9	-59.6	3.6	1.51e+00	0	28	104	0	60	38583
2026-01-29 06:57:11.59	19.97	10.36	-44.8	-59.6	3.6	1.51e+00	0	28	104	0	60	38768
2026-01-29 06:57:12.60	19.72	10.34	-44.3	-59.6	3.6	1.51e+00	0	28	104	0	60	38833
2026-01-29 06:57:13.61	19.46	10.31	-44.7	-59.6	3.6	1.51e+00	0	28	104	0	60	38525
2026-01-29 06:57:14.62	19.20	10.28	-44.7	-59.6	3.6	1.51e+00	0	28	104	0	60	38659
2026-01-29 06:57:15.62	18.95	10.26	-44.5	-59.6	3.6	1.51e+00	0	28	104	0	60	38584
2026-01-29 06:57:16.64	18.69	10.23	-44.5	-59.6	3.6	1.51e+00	0	28	104	0	60	38604
2026-01-29 06:57:17.65	18.43	10.20	-44.4	-59.5	3.5	1.51e+00	0	28	104	0	60	38480
2026-01-29 06:57:18.66	18.18	10.17	-44.3	-59.6	3.6	1.51e+00	0	28	104	0	60	38645
2026-01-29 06:57:19.67	17.93	10.14	-44.1	-59.6	3.6	1.51e+00	0	28	104	0	60	38605
2026-01-29 06:57:20.68	17.67	10.11	-44.5	-59.6	3.6	1.51e+00	0	28	104	0	60	38805
2026-01-29 06:57:21.68	17.42	10.08	-44.4	-59.6	3.6	1.51e+00	0	28	104	0	60	38563
2026-01-29 06:57:22.69	17.17	10.05	-44.8	-59.6	3.6	1.51e+00	0	28	104	0	60	38526
2026-01-29 06:57:23.70	16.92	10.02	-44.9	-59.6	3.6	1.51e+00	0	28	104	0	60	38679
2026-01-29 06:57:24.71	16.67	9.99	-44.9	-59.6	3.6	1.51e+00	0	28	104	0	60	38573
2026-01-29 06:57:25.72	16.42	9.96	-44.5	-59.6	3.6	1.51e+00	0	28	104	0	60	38511
2026-01-29 06:57:26.73	16.17	9.93	-44.8	-59.6	3.6	1.51e+00	0	28	104	0	60	38541
2026-01-29 06:57:27.74	15.92	9.90	-44.9	-59.6	3.6	1.51e+00	0	28	104	0	60	38529
2026-01-29 06:57:28.75	15.67	9.86	-44.8	-59.6	3.6	1.51e+00	0	28	104	0	60	38821
2026-01-29 06:57:29.76	15.43	9.83	-44.8	-59.6	3.6	1.51e+00	0	28	104	0	60	38540
2026-01-29 06:57:30.77	15.18	9.80	-44.9	-59.5	3.6	1.51e+00	0	28	104	0	60	38508
2026-01-29 06:57:31.77	14.94	9.76	-44.8	-59.6	3.6	1.51e+00	0	28	104	0	60	38531
2026-01-29 06:57:32.78	14.69	9.73	-44.7	-59.6	3.6	1.51e+00	0	28	104	0	60	38627
2026-01-29 06:57:33.79	14.45	9.69	-44.8	-59.6	3.6	1.51e+00	0	28	104	0	60	38544
2026-01-29 06:57:34.80	14.20	9.66	-44.8	-59.6	3.6	1.51e+00	0	28	104	0	60	38561
2026-01-29 06:57:35.81	13.96	9.62	-44.8	-59.5	3.6	1.51e+00	0	28	104	0	60	38497
2026-01-29 06:57:36.82	13.72	9.59	-44.5	-59.5	3.6	1.51e+00	0	28	104	0	60	38465
2026-01-29 06:57:37.83	13.48	9.55	-44.8	-59.5	3.6	1.51e+00	0	28	104	0	60	38341
2026-01-29 06:57:38.84	13.23	9.52	-44.8	-59.5	3.6	1.51e+00	0	28	104	0	60	38411
2026-01-29 06:57:39.85	12.99	9.48	-44.8	-59.5	3.6	1.51e+00	0	28	104	0	60	38384
2026-01-29 06:57:40.86	12.76	9.44	-44.6	-59.5	3.6	1.51e+00	0	28	104	0	60	38364
2026-01-29 06:57:41.87	12.52	9.41	-44.8	-59.5	3.6	1.51e+00	0	28	104	0	60	38433
2026-01-29 06:57:42.88	12.28	9.37	-44.8	-59.5	3.6	1.51e+00	0	28	104	0	60	38394
2026-01-29 06:57:43.89	12.04	9.33	-44.7	-59.5	3.6	1.51e+00	0	28	104	0	60	38356
2026-01-29 06:57:44.90	11.81	9.29	-44.5	-59.6	3.6	1.51e+00	0	28	104	0	60	38553
2026-01-29 06:57:45.91	11.57	9.25	-44.7	-59.5	3.6	1.51e+00	0	28	104	0	60	38262
2026-01-29 06:57:46.92	11.34	9.22	-44.8	-59.5	3.6	1.51e+00	0	28	104	0	60	38466
2026-01-29 06:57:47.93	11.10	9.18	-44.8	-59.5	3.6	1.51e+00	0	28	104	0	60	38289
2026-01-29 06:57:48.94	10.87	9.14	-44.7	-59.5	3.6	1.51e+00	0	28	104	0	60	38341
2026-01-29 06:57:49.95	10.64	9.10	-44.8	-59.5	3.6	1.51e+00	0	28	104	0	60	38267
2026-01-29 06:57:50.96	10.40	9.06	-44.8	-59.5	3.6	1.51e+00	0	28	104	0	60	38201
2026-01-29 06:57:51.97	10.17	9.02	-44.8	-59.5	3.6	1.51e+00	0	28	104	0	60	38272
2026-01-29 06:57:52.98	9.94	8.98	-44.6	-59.5	3.6	1.51e+00	0	28	104	0	60	38448
2026-01-29 06:57:53.99	9.71	8.94	-44.8	-59.4	3.6	1.51e+00	0	28	104	0	60	38015
2026-01-29 06:57:55.00	9.49	8.89	-44.7	-59.5	3.6	1.51e+00	0	28	104	0	60	38273
2026-01-29 06:57:56.01	9.26	8.85	-44.8	-59.5	3.6	1.51e+00	0	28	104	0	60	38197
2026-01-29 06:57:57.01	9.03	8.81	-44.8	-59.6	3.6	1.51e+00	0	28	104	0	60	38653
2026-01-29 06:57:58.03	8.81	8.77	-44.8	-59.5	3.6	1.51e+00	0	28	104	0	60	38172
2026-01-29 06:57:59.03	8.58	8.73	-44.6	-59.5	3.6	1.51e+00	0	28	104	0	60	38330
2026-01-29 06:58:00.04	8.36	8.69	-44.7	-59.5	3.6	1.51e+00	0	28	104	0	60	38112
2026-01-29 06:58:01.05	8.14	8.64	-44.6	-59.5	3.6	1.51e+00	0	28	104	0	60	38492
2026-01-29 06:58:02.06	7.91	8.60	-44.5	-59.5	3.6	1.51e+00	0	28	104	0	60	38155
2026-01-29 06:58:03.07	7.69	8.56	-44.6	-59.5	3.6	1.51e+00	0	28	104	0	60	38333
2026-01-29 06:58:04.08	7.47	8.51	-44.6	-59.5	3.6	1.51e+00	0	28	104	0	60	38076
2026-01-29 06:58:05.09	7.25	8.47	-44.8	-59.5	3.6	1.51e+00	0	28	104	0	60	38311
2026-01-29 06:58:06.10	7.03	8.43	-44.7	-59.4	3.6	1.51e+00	0	28	104	0	60	37937
2026-01-29 06:58:07.11	6.81	8.38	-44.7	-59.5	3.6	1.51e+00	0	28	104	0	60	38102
2026-01-29 06:58:08.12	6.59	8.34	-44.6	-59.4	3.6	1.51e+00	0	28	104	0	60	38038
2026-01-29 06:58:09.12	6.38	8.29	-44.8	-59.5	3.6	1.51e+00	0	28	104	0	60	38327
2026-01-29 06:58:10.14	6.16	8.25	-44.8	-59.4	3.6	1.51e+00	0	28	104	0	60	38061
2026-01-29 06:58:11.15	5.95	8.20	-44.6	-59.4	3.6	1.51e+00	0	28	104	0	60	38056
2026-01-29 06:58:12.16	5.73	8.16	-44.4	-59.4	3.6	1.51e+00	0	28	104	0	60	37998
2026-01-29 06:58:13.17	5.52	8.11	-44.8	-59.5	3.6	1.51e+00	0	28	104	0	60	38203
2026-01-29 06:58:14.18	5.30	8.07	-44.5	-59.4	3.6	1.51e+00	0	28	104	0	60	37794
2026-01-29 06:58:15.19	5.09	8.02	-44.7	-59.5	3.5	1.51e+00	0	28	104	0	60	38093
2026-01-29 06:58:16.19	4.88	7.98	-44.6	-59.4	3.6	1.51e+00	0	28	104	0	60	37985
2026-01-29 06:58:17.20	4.67	7.93	-44.8	-59.5	3.6	1.51e+00	0	28	104	0	60	38083
2026-01-29 06:58:18.21	4.46	7.88	-44.7	-59.4	3.6	1.51e+00	0	28	104	0	60	37826
2026-01-29 06:58:19.22	4.26	7.84	-44.7	-59.4	3.6	1.51e+00	0	28	104	0	60	37762
2026-01-29 06:58:20.23	4.05	7.79	-44.6	-59.4	3.5	1.51e+00	0	28	104	0	60	38033
2026-01-29 06:58:21.24	3.84	7.74	-44.8	-59.4	3.6	1.51e+00	0	28	104	0	60	38056
2026-01-29 06:58:22.25	3.64	7.70	-44.6	-59.5	3.6	1.51e+00	0	28	104	0	60	38118
2026-01-29 06:58:23.26	3.43	7.65	-44.7	-59.4	3.6	1.51e+00	0	28	104	0	60	38032
2026-01-29 06:58:24.27	3.23	7.60	-44.7	-59.4	3.6	1.51e+00	0	28	104	0	60	37981
2026-01-29 06:58:25.28	3.02	7.55	-44.8	-59.5	3.6	1.51e+00	0	28	104	0	60	38254
2026-01-29 06:58:26.29	2.82	7.50	-44.6	-59.4	3.6	1.51e+00	0	28	104	0	60	37905
2026-01-29 06:58:27.30	2.62	7.46	-44.7	-59.4	3.6	1.51e+00	0	28	104	0	60	38044
2026-01-29 06:58:28.31	2.42	7.41	-44.7	-59.4	3.6	1.51e+00	0	28	104	0	60	37866
2026-01-29 06:58:29.31	2.22	7.36	-44.8	-59.4	3.6	1.51e+00	0	28	104	0	60	37908
2026-01-29 06:58:30.32	2.02	7.31	-44.7	-59.3	3.6	1.51e+00	0	28	104	0	60	37620
2026-01-29 06:58:31.33	1.82	7.26	-44.7	-59.4	3.6	1.51e+00	0	28	104	0	60	37725
2026-01-29 06:58:32.34	1.62	7.22	-44.6	-59.4	3.6	1.51e+00	0	28	104	0	60	37724
2026-01-29 06:58:33.35	1.43	7.17	-44.7	-59.4	3.6	1.51e+00	0	28	104	0	60	37915
2026-01-29 06:58:34.36	1.23	7.12	-44.7	-59.3	3.6	1.51e+00	0	28	104	0	60	37558
2026-01-29 06:58:35.37	1.04	7.07	-44.6	-59.4	3.6	1.51e+00	0	28	104	0	60	37747
2026-01-29 06:58:36.38	0.84	7.02	-44.6	-59.4	3.6	1.51e+00	0	28	104	0	60	37641
2026-01-29 06:58:37.39	0.65	6.97	-44.7	-59.4	3.6	1.51e+00	0	28	104	0	60	37873
2026-01-29 06:58:38.40	0.46	6.92	-44.6	-59.3	3.6	1.51e+00	0	28	104	0	60	37441
2026-01-29 06:58:39.41	0.26	6.87	-44.6	-59.3	3.6	1.51e+00	0	28	104	0	60	37620
2026-01-29 06:58:40.42	0.07	6.82	-44.7	-59.4	3.6	1.51e+00	0	28	104	0	60	37816
2026-01-29 06:58:41.43	359.88	6.77	-44.7	-59.3	3.6	1.51e+00	0	28	104	0	60	37560
2026-01-29 06:58:42.43	359.70	6.72	-44.6	-59.3	3.6	1.51e+00	0	28	104	0	60	37449
2026-01-29 06:58:43.44	359.51	6.67	-44.6	-59.4	3.6	1.51e+00	0	28	104	0	60	37635
2026-01-29 06:58:44.45	359.32	6.62	-44.6	-59.3	3.6	1.51e+00	0	28	104	0	60	37472
2026-01-29 06:58:45.46	359.13	6.57	-44.5	-59.3	3.6	1.51e+00	0	28	104	0	60	37596
2026-01-29 06:58:46.47	358.95	6.52	-44.5	-59.3	3.6	1.51e+00	0	28	104	0	60	37206
2026-01-29 06:58:47.48	358.76	6.47	-44.6	-59.3	3.6	1.51e+00	0	28	104	0	60	37404
2026-01-29 06:58:48.49	358.58	6.42	-44.6	-59.3	3.6	1.51e+00	0	28	104	0	60	37617
2026-01-29 06:58:49.50	358.39	6.37	-44.6	-59.3	3.6	1.51e+00	0	28	104	0	60	37571
2026-01-29 06:58:50.51	358.21	6.32	-44.5	-59.2	3.6	1.51e+00	0	28	104	0	60	37026
2026-01-29 06:58:51.52	358.03	6.27	-44.4	-59.4	3.6	1.51e+00	0	28	104	0	60	37732
2026-01-29 06:58:52.53	357.85	6.21	-44.6	-59.4	3.5	1.51e+00	0	28	104	0	60	37788
2026-01-29 06:58:53.54	357.67	6.16	-44.7	-59.4	3.6	1.51e+00	0	28	104	0	60	38045
2026-01-29 06:58:54.55	357.49	6.11	-44.9	-59.6	3.6	1.51e+00	0	28	104	0	60	38804
2026-01-29 06:58:55.56	357.31	6.06	-44.5	-59.3	3.6	1.51e+00	0	28	104	0	60	37387
2026-01-29 06:58:56.57	357.13	6.01	-44.5	-59.3	3.6	1.51e+00	0	28	104	0	60	37310
2026-01-29 06:58:57.57	356.96	5.96	-44.5	-59.2	3.6	1.51e+00	0	28	104	0	60	36952
2026-01-29 06:58:58.58	356.78	5.91	-44.5	-59.2	3.6	1.51e+00	0	28	104	0	60	36965
2026-01-29 06:58:59.59	356.61	5.86	-44.4	-59.2	3.6	1.51e+00	0	28	104	0	60	36816
2026-01-29 06:59:00.60	356.43	5.80	-44.6	-59.2	3.6	1.51e+00	0	28	104	0	60	37149
2026-01-29 06:59:01.61	356.26	5.75	-44.4	-59.1	3.6	1.51e+00	0	28	104	0	60	36725
2026-01-29 06:59:02.62	356.08	5.70	-44.4	-59.1	3.6	1.51e+00	0	28	104	0	60	36549
2026-01-29 06:59:03.63	355.91	5.65	-44.5	-59.2	3.6	1.51e+00	0	28	104	0	60	36932
2026-01-29 06:59:04.64	355.74	5.60	-44.5	-59.1	3.6	1.51e+00	0	28	104	0	60	36758
2026-01-29 06:59:05.65	355.57	5.54	-44.3	-59.1	3.6	1.51e+00	0	28	104	0	60	36663
2026-01-29 06:59:06.66	355.40	5.49	-44.4	-59.1	3.6	1.51e+00	0	28	104	0	60	36505
2026-01-29 06:59:07.67	355.23	5.44	-44.4	-59.1	3.6	1.51e+00	0	28	104	0	60	36761
2026-01-29 06:59:08.68	355.06	5.39	-44.5	-59.2	3.5	1.51e+00	0	28	104	0	60	36992
2026-01-29 06:59:09.69	354.89	5.34	-44.3	-59.1	3.6	1.51e+00	0	28	104	0	60	36469
2026-01-29 06:59:10.69	354.73	5.28	-44.4	-59.1	3.6	1.51e+00	0	28	104	0	60	36685
2026-01-29 06:59:11.71	354.56	5.23	-44.5	-59.2	3.6	1.51e+00	0	28	104	0	60	36895
2026-01-29 06:59:12.71	354.40	5.18	-44.5	-59.3	3.6	1.51e+00	0	28	104	0	60	37219
2026-01-29 06:59:13.72	354.23	5.13	-44.4	-59.2	3.6	1.51e+00	0	28	104	0	60	36778
2026-01-29 06:59:14.73	354.07	5.07	-44.8	-59.5	3.6	1.51e+00	0	28	104	0	60	38092
2026-01-29 06:59:15.74	353.91	5.02	-44.5	-59.3	3.6	1.51e+00	0	28	104	0	60	37232
2026-01-29 06:59:16.75	353.74	4.97	-44.9	-59.6	3.6	1.51e+00	0	28	104	0	60	38799
2026-01-29 06:59:17.76	353.58	4.92	-44.6	-59.3	3.6	1.51e+00	0	28	104	0	60	37428
2026-01-29 06:59:18.77	353.42	4.86	-44.5	-59.2	3.6	1.51e+00	0	28	104	0	60	37121
2026-01-29 06:59:19.78	353.26	4.81	-44.6	-59.3	3.6	1.51e+00	0	28	104	0	60	37462
2026-01-29 06:59:20.79	353.10	4.76	-44.7	-59.4	3.6	1.51e+00	0	28	104	0	60	37943
2026-01-29 06:59:21.79	352.95	4.71	-44.5	-59.2	3.6	1.51e+00	0	28	104	0	60	36982
2026-01-29 06:59:22.80	352.79	4.65	-44.5	-59.1	3.6	1.51e+00	0	28	104	0	60	36755
2026-01-29 06:59:23.81	352.63	4.60	-44.6	-59.3	3.6	1.51e+00	0	28	104	0	60	37583
2026-01-29 06:59:24.82	352.48	4.55	-44.7	-59.4	3.6	1.51e+00	0	28	104	0	60	37997
2026-01-29 06:59:25.82	352.32	4.50	-44.5	-59.2	3.6	1.51e+00	0	28	104	0	60	36889
2026-01-29 06:59:26.83	352.17	4.44	-44.5	-59.2	3.6	1.51e+00	0	28	104	0	60	37039
2026-01-29 06:59:27.84	352.01	4.39	-44.7	-59.4	3.6	1.51e+00	0	28	104	0	60	37644
2026-01-29 06:59:28.85	351.86	4.34	-44.8	-59.4	3.6	1.51e+00	0	28	104	0	60	38042
2026-01-29 06:59:29.86	351.71	4.28	-44.5	-59.2	3.6	1.51e+00	0	28	104	0	60	36965
2026-01-29 06:59:30.87	351.55	4.23	-44.5	-59.2	3.5	1.51e+00	0	28	104	0	60	37057
2026-01-29 06:59:31.88	351.40	4.18	-44.7	-59.4	3.6	1.51e+00	0	28	104	0	60	37941
2026-01-29 06:59:32.89	351.25	4.13	-44.7	-59.4	3.6	1.51e+00	0	28	104	0	60	38027
2026-01-29 06:59:33.90	351.10	4.07	-44.6	-59.2	3.6	1.51e+00	0	28	104	0	60	36997
2026-01-29 06:59:34.91	350.95	4.02	-44.4	-59.1	3.6	1.51e+00	0	28	104	0	60	36520
2026-01-29 06:59:35.92	350.80	3.97	-44.8	-59.5	3.6	1.51e+00	0	28	104	0	60	38314
2026-01-29 06:59:36.93	350.66	3.91	-44.6	-59.3	3.6	1.51e+00	0	28	104	0	60	37330
2026-01-29 06:59:37.94	350.51	3.86	-44.5	-59.2	3.6	1.51e+00	0	28	104	0	60	36887
2026-01-29 06:59:38.95	350.36	3.81	-44.1	-59.0	3.6	1.51e+00	0	28	104	0	60	36109
2026-01-29 06:59:39.96	350.22	3.75	-44.5	-59.2	3.5	1.51e+00	0	28	104	0	60	37140
2026-01-29 06:59:40.97	350.07	3.70	-44.5	-59.2	3.6	1.51e+00	0	28	104	0	60	36885
2026-01-29 06:59:41.98	349.93	3.65	-44.4	-59.0	3.6	1.51e+00	0	28	104	0	60	36342
2026-01-29 06:59:42.99	349.79	3.60	-44.2	-59.0	3.6	1.51e+00	0	28	104	0	60	35996
2026-01-29 06:59:44.00	349.64	3.54	-44.4	-59.2	3.6	1.51e+00	0	28	104	0	60	37179
2026-01-29 06:59:45.01	349.50	3.49	-44.4	-59.2	3.5	1.51e+00	0	28	104	0	60	36779
2026-01-29 06:59:46.02	349.36	3.44	-44.1	-59.0	3.6	1.51e+00	0	28	104	0	60	35962
2026-01-29 06:59:47.03	349.22	3.38	-43.8	-58.6	3.6	1.51e+00	0	28	104	0	60	34579
2026-01-29 06:59:48.03	349.08	3.33	-44.4	-59.1	3.6	1.51e+00	0	28	104	0	60	36417
2026-01-29 06:59:49.04	348.94	3.28	-43.9	-58.6	3.6	1.51e+00	0	28	104	0	60	34601
2026-01-29 06:59:50.05	348.80	3.22	-43.5	-58.2	3.6	1.51e+00	0	28	104	0	60	33111
2026-01-29 06:59:51.06	348.66	3.17	-43.3	-58.3	3.6	1.51e+00	0	28	104	0	60	33283
2026-01-29 06:59:52.07	348.52	3.12	-42.7	-57.8	3.6	1.51e+00	0	28	104	0	60	31314
2026-01-29 06:59:53.08	348.39	3.07	-42.5	-57.3	3.6	1.51e+00	0	28	104	0	60	29859
2026-01-29 06:59:54.09	348.25	3.01	-41.2	-55.9	3.6	1.51e+00	0	28	104	0	58	28485
2026-01-29 06:59:55.10	348.12	2.96	-41.5	-56.1	3.6	1.51e+00	0	28	104	0	58	29190
2026-01-29 06:59:56.11	347.98	2.91	-44.5	-59.2	3.6	1.51e+00	0	28	104	0	60	37018
2026-01-29 06:59:57.12	347.85	2.85	-45.1	-59.9	3.6	1.51e+00	0	28	104	0	60	39906
2026-01-29 06:59:58.13	347.71	2.80	-45.1	-60.0	3.6	1.51e+00	0	28	104	0	60	40696
2026-01-29 06:59:59.14	347.58	2.75	-45.4	-60.2	3.6	1.51e+00	0	28	104	0	60	41270
2026-01-29 07:00:00.15	347.45	2.70	-45.4	-60.2	3.6	1.51e+00	0	28	104	0	60	41290
2026-01-29 07:00:01.16	347.31	2.64	-45.5	-60.3	3.6	1.51e+00	0	28	104	0	60	41817
2026-01-29 07:00:02.17	347.18	2.59	-45.5	-60.4	3.6	1.51e+00	0	28	104	0	60	42242
2026-01-29 07:00:03.18	347.05	2.54	-45.6	-60.4	3.6	1.51e+00	0	28	104	0	60	42628
2026-01-29 07:00:04.19	346.92	2.48	-45.7	-60.4	3.6	1.51e+00	0	28	104	0	60	42655
2026-01-29 07:00:05.20	346.79	2.43	-45.8	-60.5	3.6	1.51e+00	0	28	104	0	60	43022
2026-01-29 07:00:06.21	346.66	2.38	-45.6	-60.5	3.6	1.51e+00	0	28	104	0	60	42815
2026-01-29 07:00:07.22	346.54	2.33	-45.7	-60.4	3.6	1.51e+00	0	28	104	0	60	42272
2026-01-29 07:00:08.23	346.41	2.27	-45.9	-60.6	3.6	1.51e+00	0	28	104	0	60	43431
2026-01-29 07:00:09.24	346.28	2.22	-45.7	-60.4	3.6	1.51e+00	0	28	104	0	60	42412
2026-01-29 07:00:10.25	346.15	2.17	-45.5	-60.3	3.6	1.51e+00	0	28	104	0	60	41904
2026-01-29 07:00:11.26	346.03	2.11	-45.5	-60.2	3.6	1.51e+00	0	28	104	0	60	41635
2026-01-29 07:00:12.27	345.90	2.06	-45.1	-60.1	3.6	1.51e+00	0	28	104	0	60	41234
2026-01-29 07:00:13.28	345.78	2.01	-45.3	-60.1	3.6	1.51e+00	0	28	104	0	60	41029
2026-01-29 07:00:14.29	345.65	1.96	-45.3	-60.0	3.6	1.51e+00	0	28	104	0	60	40441
2026-01-29 07:00:15.30	345.53	1.90	-45.5	-60.1	3.6	1.51e+00	0	28	104	0	60	41261
2026-01-29 07:00:16.31	345.41	1.85	-45.4	-60.1	3.6	1.51e+00	0	28	104	0	60	41200
2026-01-29 07:00:17.32	345.29	1.80	-45.4	-60.1	3.6	1.51e+00	0	28	104	0	60	41240
2026-01-29 07:00:18.33	345.16	1.75	-45.4	-60.1	3.6	1.51e+00	0	28	104	0	60	41223
2026-01-29 07:00:19.34	345.04	1.69	-45.5	-60.2	3.6	1.51e+00	0	28	104	0	60	41391
2026-01-29 07:00:20.35	344.92	1.64	-45.5	-60.1	3.6	1.51e+00	0	28	104	0	60	41216
2026-01-29 07:00:21.36	344.80	1.59	-45.4	-60.1	3.6	1.51e+00	0	28	104	0	60	41195
2026-01-29 07:00:22.37	344.68	1.54	-45.4	-60.1	3.6	1.51e+00	0	28	104	0	60	41137
2026-01-29 07:00:23.38	344.56	1.48	-45.4	-60.0	3.6	1.51e+00	0	28	104	0	60	40745
2026-01-29 07:00:24.39	344.45	1.43	-45.4	-60.1	3.6	1.51e+00	0	28	104	0	60	40802
2026-01-29 07:00:25.40	344.33	1.38	-45.3	-60.0	3.6	1.51e+00	0	28	104	0	60	40688
2026-01-29 07:00:26.41	344.21	1.33	-45.4	-60.1	3.6	1.51e+00	0	28	104	0	60	41059
2026-01-29 07:00:27.42	344.09	1.27	-45.3	-60.0	3.6	1.51e+00	0	28	104	0	60	40755
2026-01-29 07:00:28.43	343.98	1.22	-45.5	-60.2	3.6	1.51e+00	0	28	104	0	60	41428
2026-01-29 07:00:29.44	343.86	1.17	-45.5	-60.3	3.6	1.51e+00	0	28	104	0	60	41753
2026-01-29 07:00:30.45	343.75	1.12	-45.4	-60.1	3.6	1.51e+00	0	28	104	0	60	41114
2026-01-29 07:00:31.46	343.63	1.07	-45.4	-60.0	3.6	1.51e+00	0	28	104	0	60	40753
2026-01-29 07:00:32.47	343.52	1.01	-45.5	-60.2	3.6	1.51e+00	0	28	104	0	60	41603
2026-01-29 07:00:33.47	343.41	0.96	-45.4	-60.1	3.6	1.51e+00	0	28	104	0	60	40938
2026-01-29 07:00:34.48	343.29	0.91	-45.5	-60.2	3.6	1.51e+00	0	28	104	0	60	41305
2026-01-29 07:00:35.49	343.18	0.86	-45.5	-60.2	3.6	1.51e+00	0	28	104	0	60	41558
2026-01-29 07:00:36.50	343.07	0.81	-45.4	-60.1	3.6	1.51e+00	0	28	104	0	60	41016
2026-01-29 07:00:37.51	342.96	0.75	-45.4	-60.1	3.6	1.51e+00	0	28	104	0	60	41076
2026-01-29 07:00:38.52	342.85	0.70	-45.5	-60.1	3.6	1.51e+00	0	28	104	0	60	41133
2026-01-29 07:00:39.53	342.74	0.65	-45.5	-60.2	3.6	1.51e+00	0	28	104	0	60	41532
2026-01-29 07:00:40.54	342.63	0.60	-45.4	-60.1	3.6	1.51e+00	0	28	104	0	60	41101
2026-01-29 07:00:41.55	342.52	0.55	-45.4	-60.1	3.6	1.51e+00	0	28	104	0	60	41171
2026-01-29 07:00:42.56	342.41	0.50	-45.5	-60.2	3.6	1.51e+00	0	28	104	0	60	41554
2026-01-29 07:00:43.57	342.30	0.44	-45.6	-60.3	3.6	1.51e+00	0	28	104	0	60	41871
2026-01-29 07:00:44.58	342.19	0.39	-45.4	-60.1	3.6	1.51e+00	0	28	104	0	60	41031
2026-01-29 07:00:45.59	342.08	0.34	-45.4	-60.1	3.6	1.51e+00	0	28	104	0	60	41182
2026-01-29 07:00:46.60	341.98	0.29	-45.5	-60.1	3.6	1.51e+00	0	28	104	0	60	41138
2026-01-29 07:00:47.61	341.87	0.24	-45.5	-60.2	3.6	1.51e+00	0	28	104	0	60	41707
2026-01-29 07:00:48.62	341.76	0.19	-45.8	-60.5	3.6	1.51e+00	0	28	104	0	60	42717
2026-01-29 07:00:49.63	341.66	0.13	-45.7	-60.4	3.6	1.51e+00	0	28	104	0	60	42618
2026-01-29 07:00:50.64	341.55	0.08	-45.8	-60.6	3.6	1.51e+00	0	28	104	0	60	43270
2026-01-29 07:00:51.65	341.45	0.03	-45.6	-60.3	3.6	1.51e+00	0	28	104	0	60	41904
2026-01-29 07:00:52.66	341.35	-0.02	-45.7	-60.4	3.6	1.51e+00	0	28	104	0	60	42226

#Closed at: 2026-01-29 07:00:53
#Recorded file [0 MB]: D:/lorett/data/35029_260129_185146.dat