passes_logs/2026/01/29/R4.6S_Anadyr/R4.6S_Anadyr__20260129_170239_SUOMI_NPP_rec.log

#Pass ID: 20260129_170239_SUOMI NPP
#Satellite: SUOMI NPP
#Configuration: NPP
#almurnet v.1.7.20251203
#Start time: 2026-01-29 17:02:40

#Version: 2.2.20231116
#Station: R4.6S_Anadyr
#Location: 177.4865 lon 64.73178 lat
#TLE: 1 37849U 11061A   26028.91916408  .00000155  00000+0  94467-4 0  9990
#TLE: 2 37849  98.7824 330.8488 0002045  39.4457 320.6868 14.19531289738686

#Time	Az	El	Level	Level2	SNR	BER	BlckErr	Temp	State	Recorded	gain1	gain2
2026-01-29 17:02:40.65	28.87	0.08	-48.8	-61.4	3.5	1.52e+00	0	27	0	0	60	41209
2026-01-29 17:02:41.66	28.82	0.13	-48.8	-64.0	3.6	1.51e+00	0	28	104	0	60	57339
2026-01-29 17:02:42.67	28.77	0.19	-48.9	-64.0	3.6	1.51e+00	0	28	104	0	60	57250
2026-01-29 17:02:43.68	28.72	0.25	-48.9	-64.1	3.6	1.51e+00	0	28	104	0	60	57748
2026-01-29 17:02:44.69	28.67	0.30	-48.9	-64.0	3.6	1.51e+00	0	28	104	0	60	57580
2026-01-29 17:02:45.70	28.62	0.36	-48.9	-64.1	3.6	1.51e+00	0	28	104	0	60	57707
2026-01-29 17:02:46.71	28.57	0.41	-48.9	-64.1	3.6	1.51e+00	0	28	104	0	60	57852
2026-01-29 17:02:47.72	28.51	0.47	-48.9	-64.1	3.6	1.51e+00	0	28	104	0	60	57972
2026-01-29 17:02:48.73	28.46	0.53	-48.9	-64.1	3.6	1.51e+00	0	28	104	0	60	58179
2026-01-29 17:02:49.74	28.41	0.58	-48.9	-64.2	3.6	1.51e+00	0	28	104	0	60	58353
2026-01-29 17:02:50.75	28.36	0.64	-48.9	-64.1	3.6	1.51e+00	0	28	104	0	60	58030
2026-01-29 17:02:51.76	28.30	0.70	-48.9	-64.1	3.6	1.51e+00	0	28	104	0	60	57863
2026-01-29 17:02:52.77	28.25	0.75	-48.9	-64.1	3.6	1.51e+00	0	28	104	0	60	57663
2026-01-29 17:02:53.78	28.20	0.81	-48.9	-64.0	3.6	1.51e+00	0	28	104	0	60	57374
2026-01-29 17:02:54.79	28.14	0.86	-48.8	-64.1	3.6	1.51e+00	0	28	104	0	60	57670
2026-01-29 17:02:55.80	28.09	0.92	-48.8	-64.0	3.6	1.51e+00	0	29	104	0	60	57179
2026-01-29 17:02:56.81	28.04	0.98	-48.7	-63.9	3.6	1.51e+00	0	29	104	0	60	56397
2026-01-29 17:02:57.82	27.98	1.04	-48.6	-63.8	3.6	1.51e+00	0	28	104	0	60	56305
2026-01-29 17:02:58.83	27.93	1.09	-48.5	-63.8	3.6	1.51e+00	0	29	104	0	60	55781
2026-01-29 17:02:59.84	27.87	1.15	-48.4	-63.7	3.6	1.51e+00	0	28	104	0	60	55216
2026-01-29 17:03:00.85	27.82	1.21	-48.4	-63.6	3.6	1.51e+00	0	29	104	0	60	54890
2026-01-29 17:03:01.86	27.76	1.26	-48.3	-63.5	3.6	1.51e+00	0	29	104	0	60	53949
2026-01-29 17:03:02.87	27.71	1.32	-48.1	-63.3	3.6	1.51e+00	0	29	104	0	60	53076
2026-01-29 17:03:03.88	27.65	1.38	-47.9	-63.1	3.6	1.51e+00	0	29	104	0	60	51722
2026-01-29 17:03:04.89	27.60	1.44	-47.6	-62.8	3.6	1.51e+00	0	29	104	0	60	49708
2026-01-29 17:03:05.90	27.54	1.49	-47.5	-62.6	3.6	1.51e+00	0	29	104	0	60	48672
2026-01-29 17:03:06.91	27.49	1.55	-47.5	-62.6	3.6	1.51e+00	0	29	104	0	60	48896
2026-01-29 17:03:07.92	27.43	1.61	-47.5	-62.6	3.6	1.51e+00	0	29	104	0	60	48761
2026-01-29 17:03:08.93	27.37	1.67	-47.5	-62.6	3.6	1.51e+00	0	29	104	0	60	48818
2026-01-29 17:03:09.94	27.32	1.73	-47.5	-62.6	3.6	1.51e+00	0	29	104	0	60	48865
2026-01-29 17:03:10.95	27.26	1.78	-47.5	-62.6	3.6	1.51e+00	0	29	104	0	60	48860
2026-01-29 17:03:11.96	27.20	1.84	-47.4	-62.6	3.6	1.51e+00	0	29	104	0	60	48872
2026-01-29 17:03:12.97	27.14	1.90	-47.4	-62.6	3.6	1.51e+00	0	29	104	0	60	48849
2026-01-29 17:03:13.98	27.09	1.96	-47.4	-62.6	3.6	1.51e+00	0	29	104	0	60	48517
2026-01-29 17:03:14.99	27.03	2.02	-47.4	-62.6	3.6	1.51e+00	0	29	104	0	60	48798
2026-01-29 17:03:16.00	26.97	2.07	-47.4	-62.6	3.6	1.51e+00	0	29	104	0	60	48516
2026-01-29 17:03:17.01	26.91	2.13	-47.4	-62.5	3.6	1.51e+00	0	29	104	0	60	48446
2026-01-29 17:03:18.02	26.85	2.19	-47.5	-62.5	3.6	1.51e+00	0	29	104	0	60	48405
2026-01-29 17:03:19.03	26.79	2.25	-47.4	-62.5	3.6	1.51e+00	0	29	104	0	60	48397
2026-01-29 17:03:20.04	26.73	2.31	-47.4	-62.6	3.6	1.51e+00	0	29	104	0	60	48663
2026-01-29 17:03:21.05	26.67	2.37	-47.5	-62.6	3.6	1.51e+00	0	29	104	0	60	48869
2026-01-29 17:03:22.06	26.61	2.43	-47.4	-62.6	3.6	1.51e+00	0	29	104	0	60	48500
2026-01-29 17:03:23.07	26.55	2.49	-47.4	-62.6	3.6	1.51e+00	0	29	104	0	60	48673
2026-01-29 17:03:24.08	26.49	2.55	-47.4	-62.6	3.6	1.51e+00	0	29	104	0	60	48770
2026-01-29 17:03:25.09	26.43	2.61	-47.4	-62.6	3.6	1.51e+00	0	29	104	0	60	48894
2026-01-29 17:03:26.10	26.37	2.66	-47.4	-62.6	3.6	1.51e+00	0	29	104	0	60	48606
2026-01-29 17:03:27.11	26.31	2.72	-47.4	-62.4	3.6	1.51e+00	0	29	104	0	60	47489
2026-01-29 17:03:28.12	26.25	2.78	-47.4	-62.1	3.6	1.51e+00	0	29	104	0	60	46163
2026-01-29 17:03:29.13	26.19	2.84	-47.4	-62.0	3.6	1.51e+00	0	29	104	0	60	45547
2026-01-29 17:03:30.14	26.12	2.90	-47.4	-62.2	3.6	1.51e+00	0	29	104	0	60	46367
2026-01-29 17:03:31.15	26.06	2.96	-47.4	-62.6	3.6	1.51e+00	0	29	104	0	60	48664
2026-01-29 17:03:32.16	26.00	3.02	-47.4	-61.7	3.6	1.51e+00	0	29	104	0	60	43912
2026-01-29 17:03:33.17	25.94	3.08	-47.2	-58.7	4.2	1.46e+00	27	29	104	0	60	31107
2026-01-29 17:03:34.18	25.87	3.14	-46.9	-54.7	6.0	5.84e-01	90	29	0	0	60	19611
2026-01-29 17:03:35.19	25.81	3.20	-46.2	-51.8	9.1	1.34e-01	0	29	0	2097152	60	14055
2026-01-29 17:03:36.21	25.75	3.26	-45.2	-49.2	12.1	8.73e-03	60	29	0	4194304	60	10413
2026-01-29 17:03:37.21	25.68	3.32	-44.9	-48.5	13.0	2.25e-04	0	29	0	6291456	60	9600
2026-01-29 17:03:38.23	25.62	3.39	-44.5	-47.8	13.2	3.00e-06	0	29	0	8388608	60	8863
2026-01-29 17:03:39.24	25.55	3.45	-47.5	-60.6	3.8	7.57e-01	0	29	104	8388608	60	38834
2026-01-29 17:03:40.25	25.49	3.51	-42.8	-45.0	16.4	6.83e-01	0	29	104	8388608	60	6401
2026-01-29 17:03:41.26	25.42	3.57	-47.4	-62.4	3.6	1.35e+00	0	29	104	8388608	60	47548
2026-01-29 17:03:42.26	25.36	3.63	-46.9	-54.8	9.7	1.50e+00	0	29	104	8388608	60	19869
2026-01-29 17:03:43.27	25.29	3.69	-45.4	-49.7	12.2	9.35e-04	92	29	0	9437184	60	11015
2026-01-29 17:03:44.28	25.23	3.75	-44.7	-48.2	13.0	1.14e-05	0	29	0	11534336	60	9342
2026-01-29 17:03:45.29	25.16	3.81	-43.7	-46.4	15.0	1.50e-06	0	29	0	12582912	60	7540
2026-01-29 17:03:46.30	25.09	3.87	-44.4	-47.5	13.9	0.00e+00	0	29	0	14680064	60	8578
2026-01-29 17:03:47.31	25.03	3.93	-43.3	-45.7	16.0	0.00e+00	0	29	0	16777216	60	6962
2026-01-29 17:03:48.32	24.96	4.00	-43.3	-45.7	15.9	0.00e+00	85	29	0	18874368	60	6969
2026-01-29 17:03:49.33	24.89	4.06	-43.3	-45.8	15.9	0.00e+00	0	29	0	20971520	60	7041
2026-01-29 17:03:50.34	24.83	4.12	-43.6	-46.1	15.5	0.00e+00	90	29	0	22020096	60	7297
2026-01-29 17:03:51.35	24.76	4.18	-43.5	-46.0	15.7	0.00e+00	0	29	0	24117248	60	7191
2026-01-29 17:03:52.36	24.69	4.24	-43.8	-46.4	16.1	0.00e+00	70	29	0	26214400	60	7563
2026-01-29 17:03:53.37	24.62	4.31	-43.1	-45.4	15.9	0.00e+00	0	29	0	28311552	60	6736
2026-01-29 17:03:54.38	24.55	4.37	-43.3	-45.7	16.1	0.00e+00	0	29	0	30408704	60	6984
2026-01-29 17:03:55.39	24.48	4.43	-42.8	-44.9	16.5	0.00e+00	0	29	0	31457280	58	7155
2026-01-29 17:03:56.40	24.41	4.49	-42.6	-44.7	17.1	0.00e+00	0	29	0	33554432	58	6946
2026-01-29 17:03:57.41	24.34	4.56	-42.7	-44.8	16.8	0.00e+00	54	29	0	35651584	58	7086
2026-01-29 17:03:58.42	24.27	4.62	-42.0	-43.7	17.7	0.00e+00	0	29	0	37748736	56	7004
2026-01-29 17:03:59.43	24.20	4.68	-42.1	-44.0	17.6	0.00e+00	90	29	0	39845888	56	7208
2026-01-29 17:04:00.44	24.13	4.74	-42.5	-44.5	17.7	0.00e+00	0	29	0	40894464	56	7628
2026-01-29 17:04:01.45	24.06	4.81	-42.2	-44.1	17.5	0.00e+00	0	29	0	42991616	56	7273
2026-01-29 17:04:02.46	23.99	4.87	-42.3	-44.2	17.3	0.00e+00	0	29	0	45088768	56	7414
2026-01-29 17:04:03.47	23.92	4.93	-42.5	-44.5	17.3	0.00e+00	0	29	0	47185920	56	7638
2026-01-29 17:04:04.48	23.85	5.00	-42.1	-43.9	18.0	0.00e+00	31	29	0	49283072	56	7097
2026-01-29 17:04:05.49	23.77	5.06	-42.4	-44.3	17.5	0.00e+00	0	29	0	50331648	56	7467
2026-01-29 17:04:06.50	23.70	5.12	-41.3	-42.9	19.0	0.00e+00	90	29	0	52428800	56	6373
2026-01-29 17:04:07.51	23.63	5.19	-41.6	-43.2	18.4	0.00e+00	0	29	0	54525952	56	6605
2026-01-29 17:04:08.52	23.55	5.25	-41.4	-43.0	18.8	0.00e+00	0	29	0	56623104	56	6436
2026-01-29 17:04:09.53	23.48	5.31	-41.2	-42.8	19.0	0.00e+00	0	29	0	58720256	56	6280
2026-01-29 17:04:10.54	23.41	5.38	-41.5	-43.1	18.7	0.00e+00	0	29	0	59768832	56	6495
2026-01-29 17:04:11.55	23.33	5.44	-41.1	-42.6	19.3	0.00e+00	0	29	0	61865984	56	6150
2026-01-29 17:04:12.56	23.26	5.51	-41.3	-42.9	19.0	0.00e+00	0	29	0	63963136	56	6319
2026-01-29 17:04:13.57	23.18	5.57	-41.5	-43.1	18.7	0.00e+00	83	29	0	66060288	56	6518
2026-01-29 17:04:14.58	23.11	5.63	-41.3	-42.8	18.9	0.00e+00	0	29	0	68157440	56	6313
2026-01-29 17:04:15.59	23.03	5.70	-41.5	-43.2	18.7	0.00e+00	0	29	0	69206016	56	6541
2026-01-29 17:04:16.60	22.95	5.76	-41.4	-42.9	19.0	0.00e+00	0	29	0	71303168	56	6375
2026-01-29 17:04:17.61	22.88	5.83	-41.7	-43.3	18.7	0.00e+00	0	29	0	73400320	56	6690
2026-01-29 17:04:18.62	22.80	5.89	-41.5	-43.1	18.8	0.00e+00	86	29	0	75497472	56	6494
2026-01-29 17:04:19.63	22.72	5.96	-41.2	-42.7	19.3	0.00e+00	0	29	0	77594624	56	6241
2026-01-29 17:04:20.64	22.65	6.02	-41.1	-42.7	19.2	0.00e+00	92	29	0	79691776	56	6178
2026-01-29 17:04:21.65	22.57	6.09	-41.3	-42.9	18.9	0.00e+00	0	29	0	80740352	56	6349
2026-01-29 17:04:22.65	22.49	6.15	-41.2	-42.8	19.1	0.00e+00	0	29	0	82837504	56	6271
2026-01-29 17:04:23.66	22.41	6.22	-41.0	-42.4	19.4	0.00e+00	0	29	0	84934656	56	6010
2026-01-29 17:04:24.67	22.33	6.28	-41.2	-42.7	19.3	0.00e+00	0	29	0	87031808	56	6189
2026-01-29 17:04:25.68	22.25	6.35	-40.9	-42.4	19.6	0.00e+00	56	29	0	89128960	56	5975
2026-01-29 17:04:26.69	22.17	6.41	-40.8	-42.2	19.7	0.00e+00	0	29	0	90177536	56	5882
2026-01-29 17:04:27.70	22.09	6.48	-40.7	-42.1	19.7	0.00e+00	72	29	0	92274688	54	6495
2026-01-29 17:04:28.71	22.01	6.54	-40.9	-42.3	19.7	0.00e+00	0	29	0	94371840	54	6658
2026-01-29 17:04:29.72	21.93	6.61	-40.7	-42.1	19.7	0.00e+00	0	29	0	96468992	54	6512
2026-01-29 17:04:30.73	21.85	6.68	-40.7	-42.2	19.7	0.00e+00	0	29	0	98566144	54	6551
2026-01-29 17:04:31.74	21.77	6.74	-40.8	-42.3	19.7	0.00e+00	0	29	0	99614720	54	6639
2026-01-29 17:04:32.75	21.69	6.81	-40.4	-41.7	20.2	0.00e+00	14	29	0	101711872	54	6233
2026-01-29 17:04:33.76	21.60	6.88	-40.5	-41.9	20.0	0.00e+00	0	29	0	103809024	54	6331
2026-01-29 17:04:34.77	21.52	6.94	-40.6	-42.0	19.6	0.00e+00	92	29	0	105906176	54	6419
2026-01-29 17:04:35.78	21.44	7.01	-40.8	-42.3	19.6	0.00e+00	0	29	0	108003328	54	6625
2026-01-29 17:04:36.79	21.35	7.08	-40.2	-41.5	20.2	0.00e+00	92	29	0	109051904	54	6048
2026-01-29 17:04:37.80	21.27	7.14	-40.3	-41.6	20.2	0.00e+00	0	29	0	111149056	54	6104
2026-01-29 17:04:38.80	21.19	7.21	-40.4	-41.8	20.1	0.00e+00	0	29	0	113246208	54	6270
2026-01-29 17:04:39.81	21.10	7.28	-40.2	-41.5	20.4	0.00e+00	0	29	0	115343360	54	6041
2026-01-29 17:04:40.82	21.02	7.34	-40.0	-41.3	20.5	0.00e+00	0	29	0	117440512	54	5926
2026-01-29 17:04:41.83	20.93	7.41	-40.0	-41.2	20.6	0.00e+00	92	29	0	118489088	54	5895
2026-01-29 17:04:42.84	20.84	7.48	-40.1	-41.4	20.5	0.00e+00	0	29	0	120586240	54	5979
2026-01-29 17:04:43.85	20.76	7.55	-40.2	-41.5	20.4	0.00e+00	73	29	0	122683392	54	6038
2026-01-29 17:04:44.86	20.67	7.61	-40.4	-41.7	20.3	0.00e+00	0	29	0	124780544	54	6192
2026-01-29 17:04:45.87	20.58	7.68	-40.1	-41.4	20.4	0.00e+00	0	29	0	126877696	54	5991
2026-01-29 17:04:46.88	20.50	7.75	-40.0	-41.3	20.5	0.00e+00	0	29	0	127926272	54	5915
2026-01-29 17:04:47.89	20.41	7.82	-39.9	-41.2	20.6	0.00e+00	0	29	0	130023424	54	5836
2026-01-29 17:04:48.90	20.32	7.88	-39.9	-41.2	20.7	0.00e+00	5	29	0	132120576	54	5845
2026-01-29 17:04:49.91	20.23	7.95	-40.2	-41.5	20.4	0.00e+00	0	29	0	134217728	54	6042
2026-01-29 17:04:50.92	20.14	8.02	-40.2	-41.5	20.6	0.00e+00	92	29	0	136314880	54	6068
2026-01-29 17:04:51.93	20.05	8.09	-40.1	-41.4	20.5	0.00e+00	0	29	0	137363456	54	5965
2026-01-29 17:04:52.94	19.96	8.16	-40.3	-41.6	20.4	0.00e+00	0	29	0	139460608	54	6125
2026-01-29 17:04:53.95	19.87	8.23	-40.4	-41.7	20.2	0.00e+00	0	29	0	141557760	54	6198
2026-01-29 17:04:54.96	19.78	8.30	-40.3	-41.6	20.4	0.00e+00	0	29	0	143654912	54	6119
2026-01-29 17:04:55.98	19.68	8.37	-40.6	-41.9	20.0	0.00e+00	77	29	0	145752064	54	6385
2026-01-29 17:04:56.99	19.59	8.43	-40.3	-41.6	20.3	0.00e+00	0	29	0	147849216	54	6141
2026-01-29 17:04:58.00	19.50	8.50	-40.1	-41.3	20.5	0.00e+00	81	29	0	148897792	54	5964
2026-01-29 17:04:59.01	19.41	8.57	-40.3	-41.6	20.4	0.00e+00	0	29	0	150994944	54	6121
2026-01-29 17:05:00.02	19.31	8.64	-40.2	-41.5	20.4	0.00e+00	0	29	0	153092096	54	6098
2026-01-29 17:05:01.03	19.22	8.71	-40.1	-41.3	20.5	0.00e+00	0	29	0	155189248	54	5957
2026-01-29 17:05:02.04	19.12	8.78	-40.0	-41.3	20.7	0.00e+00	0	29	0	157286400	54	5898
2026-01-29 17:05:03.05	19.03	8.85	-40.0	-41.3	20.6	0.00e+00	73	29	0	158334976	54	5917
2026-01-29 17:05:04.06	18.93	8.92	-40.1	-41.4	20.7	0.00e+00	0	29	0	160432128	52	6729
2026-01-29 17:05:05.07	18.84	8.99	-40.1	-41.3	20.7	0.00e+00	91	29	0	162529280	52	6689
2026-01-29 17:05:06.08	18.74	9.06	-40.2	-41.5	20.5	0.00e+00	0	29	0	164626432	52	6770
2026-01-29 17:05:07.09	18.64	9.13	-40.1	-41.4	20.6	0.00e+00	79	29	0	166723584	52	6697
2026-01-29 17:05:08.10	18.55	9.20	-40.1	-41.3	20.6	0.00e+00	0	29	0	167772160	52	6671
2026-01-29 17:05:09.11	18.45	9.27	-40.0	-41.3	20.6	0.00e+00	0	29	0	169869312	52	6644
2026-01-29 17:05:10.12	18.35	9.34	-40.0	-41.2	20.9	0.00e+00	63	29	0	171966464	52	6563
2026-01-29 17:05:11.13	18.25	9.41	-40.1	-41.4	20.7	0.00e+00	30	29	0	174063616	52	6733
2026-01-29 17:05:12.13	18.15	9.48	-40.1	-41.4	20.7	0.00e+00	92	29	0	176160768	52	6697
2026-01-29 17:05:13.15	18.05	9.55	-40.0	-41.3	20.8	0.00e+00	0	29	0	177209344	52	6645
2026-01-29 17:05:14.16	17.95	9.63	-40.2	-41.4	20.6	0.00e+00	92	29	0	179306496	52	6766
2026-01-29 17:05:15.17	17.85	9.70	-40.0	-41.2	20.9	0.00e+00	0	29	0	181403648	52	6604
2026-01-29 17:05:16.18	17.75	9.77	-40.1	-41.4	20.6	0.00e+00	0	29	0	183500800	52	6735
2026-01-29 17:05:17.19	17.65	9.84	-40.0	-41.3	20.7	0.00e+00	0	29	0	185597952	52	6661
2026-01-29 17:05:18.20	17.55	9.91	-40.1	-41.4	20.7	0.00e+00	0	29	0	186646528	52	6708
2026-01-29 17:05:19.21	17.44	9.98	-40.0	-41.3	20.8	0.00e+00	5	29	0	188743680	52	6622
2026-01-29 17:05:20.22	17.34	10.05	-40.2	-41.5	20.5	0.00e+00	0	29	0	190840832	52	6847
2026-01-29 17:05:21.23	17.23	10.13	-40.0	-41.3	20.8	0.00e+00	92	29	0	192937984	52	6653
2026-01-29 17:05:22.24	17.13	10.20	-40.3	-41.6	20.8	0.00e+00	0	29	0	195035136	52	6887
2026-01-29 17:05:23.25	17.02	10.27	-40.1	-41.3	20.8	0.00e+00	0	29	0	196083712	52	6689
2026-01-29 17:05:24.26	16.92	10.34	-39.8	-41.0	21.1	0.00e+00	0	29	0	198180864	52	6456
2026-01-29 17:05:25.27	16.81	10.41	-39.9	-41.1	20.9	0.00e+00	0	29	0	200278016	52	6483
2026-01-29 17:05:26.28	16.71	10.49	-39.7	-40.9	21.1	0.00e+00	0	29	0	202375168	52	6374
2026-01-29 17:05:27.29	16.60	10.56	-39.9	-41.1	21.0	0.00e+00	0	29	0	204472320	52	6481
2026-01-29 17:05:28.30	16.49	10.63	-39.9	-41.1	21.1	0.00e+00	42	29	0	205520896	52	6476
2026-01-29 17:05:29.30	16.38	10.70	-39.5	-40.6	21.3	0.00e+00	0	29	0	207618048	52	6146
2026-01-29 17:05:30.31	16.28	10.78	-39.6	-40.7	21.4	0.00e+00	0	29	0	209715200	52	6218
2026-01-29 17:05:31.33	16.16	10.85	-39.6	-40.8	21.1	0.00e+00	0	29	0	211812352	52	6306
2026-01-29 17:05:32.33	16.06	10.92	-39.7	-40.8	21.2	0.00e+00	0	29	0	213909504	52	6311
2026-01-29 17:05:33.34	15.95	11.00	-40.0	-41.2	20.8	0.00e+00	7	29	0	214958080	52	6577
2026-01-29 17:05:34.35	15.83	11.07	-39.8	-41.0	21.1	0.00e+00	0	29	0	217055232	52	6416
2026-01-29 17:05:35.36	15.72	11.14	-39.9	-41.1	21.1	0.00e+00	90	29	0	219152384	52	6524
2026-01-29 17:05:36.37	15.61	11.22	-39.8	-40.9	21.1	0.00e+00	0	29	0	221249536	52	6384
2026-01-29 17:05:37.38	15.50	11.29	-39.7	-40.9	21.2	0.00e+00	0	29	0	223346688	52	6354
2026-01-29 17:05:38.39	15.38	11.36	-39.5	-40.6	21.4	0.00e+00	0	29	0	225443840	52	6164
2026-01-29 17:05:39.40	15.27	11.44	-39.6	-40.7	21.3	0.00e+00	0	29	0	226492416	52	6209
2026-01-29 17:05:40.41	15.15	11.51	-39.6	-40.8	21.3	0.00e+00	80	29	0	228589568	52	6247
2026-01-29 17:05:41.43	15.04	11.59	-39.6	-40.7	21.3	0.00e+00	0	29	0	230686720	52	6211
2026-01-29 17:05:42.43	14.92	11.66	-39.6	-40.7	21.3	0.00e+00	62	29	0	232783872	52	6215
2026-01-29 17:05:43.45	14.81	11.74	-39.5	-40.6	21.3	0.00e+00	0	29	0	234881024	52	6128
2026-01-29 17:05:44.46	14.69	11.81	-39.3	-40.4	21.7	0.00e+00	0	29	0	235929600	52	5967
2026-01-29 17:05:45.47	14.57	11.88	-39.3	-40.4	21.7	0.00e+00	0	29	0	238026752	52	6017
2026-01-29 17:05:46.48	14.45	11.96	-39.3	-40.5	21.5	0.00e+00	0	29	0	240123904	52	6034
2026-01-29 17:05:47.49	14.33	12.03	-39.3	-40.4	21.6	0.00e+00	1	29	0	242221056	52	6020
2026-01-29 17:05:48.50	14.21	12.11	-39.1	-40.2	21.9	0.00e+00	0	29	0	244318208	52	5858
2026-01-29 17:05:49.51	14.09	12.18	-39.1	-40.1	21.8	0.00e+00	41	29	0	245366784	52	5806
2026-01-29 17:05:50.52	13.97	12.26	-39.0	-40.1	22.0	0.00e+00	0	29	0	247463936	52	5771
2026-01-29 17:05:51.53	13.85	12.33	-38.9	-40.0	22.0	0.00e+00	55	29	0	249561088	52	5713
2026-01-29 17:05:52.54	13.73	12.41	-39.1	-40.2	21.8	0.00e+00	0	29	0	251658240	52	5867
2026-01-29 17:05:53.55	13.61	12.48	-39.0	-40.1	21.9	0.00e+00	0	29	0	253755392	52	5794
2026-01-29 17:05:54.56	13.48	12.56	-39.1	-40.1	21.9	0.00e+00	0	29	0	254803968	52	5825
2026-01-29 17:05:55.57	13.36	12.63	-39.3	-40.4	21.5	0.00e+00	0	29	0	256901120	52	6010
2026-01-29 17:05:56.57	13.24	12.71	-39.4	-40.5	21.5	0.00e+00	92	29	0	258998272	52	6061
2026-01-29 17:05:57.58	13.11	12.79	-39.6	-40.8	21.2	0.00e+00	0	29	0	261095424	52	6276
2026-01-29 17:05:58.59	12.98	12.86	-39.8	-41.0	21.0	0.00e+00	70	29	0	263192576	52	6427
2026-01-29 17:05:59.60	12.86	12.94	-39.8	-41.0	21.2	0.00e+00	0	29	0	264241152	52	6444
2026-01-29 17:06:00.61	12.73	13.01	-39.8	-41.0	20.9	0.00e+00	0	29	0	266338304	52	6446
2026-01-29 17:06:01.62	12.60	13.09	-39.7	-40.9	20.7	0.00e+00	0	29	0	268435456	52	6355
2026-01-29 17:06:02.63	12.47	13.17	-39.7	-40.9	21.1	0.00e+00	33	29	0	270532608	52	6320
2026-01-29 17:06:03.64	12.34	13.24	-39.5	-40.7	21.3	0.00e+00	92	29	0	272629760	52	6175
2026-01-29 17:06:04.65	12.21	13.32	-39.6	-40.8	21.3	0.00e+00	0	29	0	273678336	52	6266
2026-01-29 17:06:05.66	12.08	13.39	-39.6	-40.7	21.5	0.00e+00	91	29	0	275775488	52	6203
2026-01-29 17:06:06.67	11.95	13.47	-39.5	-40.6	21.5	0.00e+00	0	29	0	277872640	52	6131
2026-01-29 17:06:07.68	11.82	13.55	-39.5	-40.6	21.5	0.00e+00	0	29	0	279969792	52	6140
2026-01-29 17:06:08.69	11.69	13.62	-39.5	-40.6	21.6	0.00e+00	0	29	0	282066944	52	6139
2026-01-29 17:06:09.70	11.55	13.70	-39.5	-40.6	21.5	0.00e+00	0	29	0	284164096	52	6171
2026-01-29 17:06:10.72	11.42	13.78	-39.2	-40.3	21.9	0.00e+00	84	29	0	285212672	52	5955
2026-01-29 17:06:11.72	11.28	13.86	-38.9	-40.0	22.1	0.00e+00	0	29	0	287309824	52	5738
2026-01-29 17:06:12.73	11.15	13.93	-38.8	-39.9	22.1	0.00e+00	92	29	0	289406976	52	5639
2026-01-29 17:06:13.75	11.01	14.01	-38.7	-39.7	22.3	0.00e+00	0	29	0	291504128	50	6206
2026-01-29 17:06:14.75	10.87	14.09	-38.5	-39.5	22.4	0.00e+00	0	29	0	293601280	50	6075
2026-01-29 17:06:15.76	10.74	14.16	-38.3	-39.3	22.6	0.00e+00	0	29	0	294649856	50	5924
2026-01-29 17:06:16.77	10.60	14.24	-38.6	-39.6	22.4	0.00e+00	0	29	0	296747008	50	6141
2026-01-29 17:06:17.78	10.46	14.32	-38.6	-39.6	22.3	0.00e+00	37	29	0	298844160	50	6149
2026-01-29 17:06:18.79	10.32	14.40	-38.2	-39.2	22.7	0.00e+00	0	29	0	300941312	50	5856
2026-01-29 17:06:19.80	10.18	14.47	-38.4	-39.4	22.5	0.00e+00	74	29	0	303038464	50	5995
2026-01-29 17:06:20.81	10.04	14.55	-38.4	-39.4	22.6	0.00e+00	0	29	0	304087040	50	5973
2026-01-29 17:06:21.82	9.89	14.63	-38.2	-39.2	22.7	0.00e+00	24	29	0	306184192	50	5836
2026-01-29 17:06:22.83	9.75	14.71	-38.2	-39.2	22.6	0.00e+00	0	29	0	308281344	50	5831
2026-01-29 17:06:23.84	9.61	14.78	-37.9	-38.9	22.9	0.00e+00	0	29	0	310378496	50	5650
2026-01-29 17:06:24.85	9.46	14.86	-38.1	-39.1	22.7	0.00e+00	2	29	0	312475648	50	5770
2026-01-29 17:06:25.86	9.32	14.94	-38.2	-39.2	22.6	0.00e+00	0	29	0	313524224	50	5848
2026-01-29 17:06:26.87	9.17	15.02	-37.9	-38.9	22.8	0.00e+00	79	29	0	315621376	50	5644
2026-01-29 17:06:27.88	9.02	15.10	-38.3	-39.3	22.6	0.00e+00	0	29	0	317718528	50	5902
2026-01-29 17:06:28.89	8.88	15.18	-38.4	-39.4	22.5	0.00e+00	92	29	0	319815680	50	6000
2026-01-29 17:06:29.90	8.73	15.25	-38.5	-39.5	22.4	0.00e+00	0	29	0	321912832	50	6069
2026-01-29 17:06:30.91	8.58	15.33	-38.5	-39.6	22.4	0.00e+00	0	29	0	322961408	50	6124
2026-01-29 17:06:31.92	8.43	15.41	-38.5	-39.5	22.5	0.00e+00	0	29	0	325058560	50	6096
2026-01-29 17:06:32.93	8.28	15.49	-38.5	-39.5	22.5	0.00e+00	0	29	0	327155712	50	6083
2026-01-29 17:06:33.94	8.12	15.57	-38.4	-39.4	22.6	0.00e+00	92	29	0	329252864	50	5974
2026-01-29 17:06:34.95	7.97	15.65	-38.4	-39.4	22.6	0.00e+00	0	29	0	331350016	50	5973
2026-01-29 17:06:35.96	7.82	15.72	-38.7	-39.7	22.3	0.00e+00	46	29	0	332398592	50	6210
2026-01-29 17:06:36.97	7.66	15.80	-38.3	-39.3	22.6	0.00e+00	0	29	0	334495744	50	5924
2026-01-29 17:06:37.98	7.51	15.88	-38.5	-39.6	22.4	0.00e+00	0	29	0	336592896	50	6134
2026-01-29 17:06:38.99	7.35	15.96	-38.6	-39.6	22.3	0.00e+00	0	29	0	338690048	50	6171
2026-01-29 17:06:40.00	7.20	16.04	-38.5	-39.5	22.4	0.00e+00	0	29	0	340787200	50	6074
2026-01-29 17:06:41.01	7.04	16.12	-38.5	-39.6	22.4	0.00e+00	0	29	0	341835776	50	6115
2026-01-29 17:06:42.02	6.88	16.20	-38.4	-39.4	22.5	0.00e+00	0	30	0	343932928	50	6020
2026-01-29 17:06:43.03	6.72	16.27	-38.5	-39.5	22.5	0.00e+00	18	29	0	346030080	50	6069
2026-01-29 17:06:44.04	6.56	16.35	-38.3	-39.3	22.5	0.00e+00	0	29	0	348127232	50	5947
2026-01-29 17:06:45.05	6.40	16.43	-38.2	-39.1	22.1	0.00e+00	0	29	0	350224384	50	5817
2026-01-29 17:06:46.06	6.24	16.51	-38.3	-39.3	22.1	0.00e+00	0	29	0	351272960	50	5947
2026-01-29 17:06:47.07	6.07	16.59	-38.7	-39.7	22.3	0.00e+00	6	29	0	353370112	50	6225
2026-01-29 17:06:48.07	5.91	16.67	-38.8	-39.8	22.2	0.00e+00	71	29	0	355467264	50	6289
2026-01-29 17:06:49.08	5.75	16.75	-38.9	-40.0	22.1	0.00e+00	10	29	0	357564416	50	6424
2026-01-29 17:06:50.09	5.58	16.83	-39.1	-40.2	21.8	0.00e+00	91	29	0	359661568	50	6608
2026-01-29 17:06:51.10	5.42	16.90	-39.1	-40.2	22.2	0.00e+00	0	29	0	361758720	50	6553
2026-01-29 17:06:52.11	5.25	16.98	-38.7	-39.8	22.2	0.00e+00	10	29	0	362807296	50	6269
2026-01-29 17:06:53.13	5.08	17.06	-38.8	-39.9	22.2	0.00e+00	0	30	0	364904448	50	6331
2026-01-29 17:06:54.14	4.91	17.14	-39.0	-40.1	22.1	0.00e+00	0	29	0	367001600	50	6478
2026-01-29 17:06:55.15	4.74	17.22	-39.0	-40.0	22.1	0.00e+00	92	29	0	369098752	50	6451
2026-01-29 17:06:56.15	4.57	17.30	-39.3	-40.4	21.7	0.00e+00	0	29	0	371195904	50	6720
2026-01-29 17:06:57.16	4.40	17.38	-39.3	-40.4	21.7	0.00e+00	80	29	0	372244480	50	6720
2026-01-29 17:06:58.18	4.22	17.46	-39.7	-40.8	21.5	0.00e+00	0	29	0	374341632	50	7085
2026-01-29 17:06:59.19	4.05	17.54	-39.2	-40.3	21.9	0.00e+00	90	29	0	376438784	50	6673
2026-01-29 17:07:00.18	3.88	17.61	-39.0	-40.1	22.2	0.00e+00	0	29	0	378535936	50	6514
2026-01-29 17:07:01.18	3.71	17.69	-38.9	-40.0	22.1	0.00e+00	0	29	0	380633088	50	6403
2026-01-29 17:07:02.19	3.53	17.77	-38.9	-40.0	22.1	0.00e+00	9	29	0	381681664	50	6396
2026-01-29 17:07:03.20	3.35	17.85	-38.9	-39.9	22.1	0.00e+00	0	29	0	383778816	50	6348
2026-01-29 17:07:04.21	3.17	17.93	-38.9	-40.0	22.1	0.00e+00	92	29	0	385875968	50	6431
2026-01-29 17:07:05.22	3.00	18.01	-39.2	-40.3	22.0	0.00e+00	0	29	0	387973120	50	6638
2026-01-29 17:07:06.23	2.81	18.09	-39.2	-40.3	22.2	0.00e+00	92	29	0	390070272	50	6623
2026-01-29 17:07:07.24	2.63	18.16	-38.9	-39.9	22.2	0.00e+00	0	29	0	391118848	50	6380
2026-01-29 17:07:08.25	2.45	18.24	-38.9	-40.0	22.1	0.00e+00	0	29	0	393216000	50	6401
2026-01-29 17:07:09.26	2.27	18.32	-39.0	-40.0	22.1	0.00e+00	0	29	0	395313152	50	6424
2026-01-29 17:07:10.27	2.08	18.40	-38.9	-40.0	22.2	0.00e+00	0	29	0	397410304	50	6416
2026-01-29 17:07:11.28	1.90	18.48	-38.6	-39.6	22.4	0.00e+00	82	29	0	399507456	50	6116
2026-01-29 17:07:12.29	1.71	18.56	-38.5	-39.5	22.6	0.00e+00	0	30	0	400556032	50	6067
2026-01-29 17:07:13.30	1.53	18.63	-38.7	-39.8	22.3	0.00e+00	87	29	0	402653184	50	6251
2026-01-29 17:07:14.31	1.34	18.71	-38.7	-39.7	22.3	0.00e+00	0	29	0	404750336	50	6205
2026-01-29 17:07:15.32	1.15	18.79	-38.9	-39.9	22.2	0.00e+00	0	29	0	406847488	50	6356
2026-01-29 17:07:16.34	0.96	18.87	-39.0	-40.0	22.1	0.00e+00	0	29	0	408944640	50	6432
2026-01-29 17:07:17.35	0.77	18.95	-39.1	-40.2	22.0	0.00e+00	0	30	0	409993216	50	6585
2026-01-29 17:07:18.36	0.58	19.02	-38.9	-39.9	22.1	0.00e+00	87	29	0	412090368	50	6370
2026-01-29 17:07:19.37	0.38	19.10	-39.1	-40.1	21.8	0.00e+00	0	29	0	414187520	50	6539
2026-01-29 17:07:20.38	0.19	19.18	-38.9	-40.0	22.1	0.00e+00	91	30	0	416284672	50	6427
2026-01-29 17:07:21.39	360.00	19.26	-39.1	-40.2	22.0	0.00e+00	0	29	0	418381824	50	6561
2026-01-29 17:07:22.40	359.80	19.33	-38.6	-39.6	22.4	0.00e+00	0	29	0	419430400	50	6152
2026-01-29 17:07:23.41	359.60	19.41	-38.5	-39.4	22.6	0.00e+00	0	29	0	421527552	50	6029
2026-01-29 17:07:24.42	359.40	19.49	-38.3	-39.3	22.7	0.00e+00	0	29	0	423624704	50	5907
2026-01-29 17:07:25.43	359.21	19.57	-38.1	-39.0	23.0	0.00e+00	65	29	0	425721856	50	5750
2026-01-29 17:07:26.44	359.01	19.64	-37.9	-38.8	23.1	0.00e+00	0	29	0	427819008	50	5606
2026-01-29 17:07:27.45	358.81	19.72	-37.9	-38.8	23.0	0.00e+00	92	30	0	429916160	50	5614
2026-01-29 17:07:28.46	358.60	19.80	-38.5	-39.5	22.5	0.00e+00	0	30	0	430964736	50	6068
2026-01-29 17:07:29.47	358.40	19.87	-38.4	-39.4	22.6	0.00e+00	0	29	0	433061888	50	6022
2026-01-29 17:07:30.48	358.20	19.95	-38.7	-39.8	22.3	0.00e+00	0	30	0	435159040	50	6279
2026-01-29 17:07:31.49	357.99	20.03	-38.9	-39.9	22.1	0.00e+00	0	29	0	437256192	50	6390
2026-01-29 17:07:32.50	357.79	20.10	-38.8	-39.9	22.4	0.00e+00	3	29	0	439353344	50	6339
2026-01-29 17:07:33.51	357.58	20.18	-38.7	-39.8	22.0	0.00e+00	0	30	0	440401920	50	6259
2026-01-29 17:07:34.52	357.37	20.25	-38.6	-39.6	22.5	0.00e+00	57	30	0	442499072	50	6151
2026-01-29 17:07:35.53	357.16	20.33	-38.8	-39.8	22.1	0.00e+00	0	29	0	444596224	50	6293
2026-01-29 17:07:36.54	356.95	20.40	-39.0	-40.0	22.1	0.00e+00	72	29	0	446693376	50	6461
2026-01-29 17:07:37.55	356.74	20.48	-39.1	-40.2	22.1	0.00e+00	0	30	0	448790528	50	6586
2026-01-29 17:07:38.56	356.53	20.55	-38.6	-39.7	22.5	0.00e+00	0	30	0	449839104	50	6198
2026-01-29 17:07:39.57	356.31	20.63	-38.4	-39.4	22.6	0.00e+00	0	30	0	451936256	50	6023
2026-01-29 17:07:40.58	356.10	20.70	-37.9	-38.9	23.1	0.00e+00	0	29	0	454033408	50	5658
2026-01-29 17:07:41.59	355.88	20.78	-37.5	-38.4	23.4	0.00e+00	53	30	0	456130560	48	6005
2026-01-29 17:07:42.60	355.67	20.85	-37.5	-38.5	23.3	0.00e+00	0	30	0	458227712	48	6045
2026-01-29 17:07:43.61	355.45	20.93	-37.5	-38.4	23.3	0.00e+00	92	30	0	459276288	48	6006
2026-01-29 17:07:44.62	355.23	21.00	-37.6	-38.6	23.4	0.00e+00	0	30	0	461373440	48	6116
2026-01-29 17:07:45.63	355.01	21.07	-37.6	-38.6	23.2	0.00e+00	0	30	0	463470592	48	6118
2026-01-29 17:07:46.64	354.79	21.15	-37.5	-38.4	23.3	0.00e+00	0	30	0	465567744	48	6006
2026-01-29 17:07:47.65	354.57	21.22	-37.7	-38.7	23.0	0.00e+00	0	30	0	467664896	48	6199
2026-01-29 17:07:48.66	354.35	21.29	-37.4	-38.3	23.5	0.00e+00	92	30	0	468713472	48	5930
2026-01-29 17:07:49.67	354.12	21.37	-37.1	-38.0	23.8	0.00e+00	0	29	0	470810624	48	5719
2026-01-29 17:07:50.68	353.90	21.44	-36.8	-37.7	23.8	0.00e+00	88	29	0	472907776	48	5520
2026-01-29 17:07:51.69	353.67	21.51	-36.9	-37.8	23.8	0.00e+00	0	29	0	475004928	48	5596
2026-01-29 17:07:52.70	353.44	21.58	-37.0	-37.9	24.0	0.00e+00	0	30	0	477102080	48	5632
2026-01-29 17:07:53.71	353.22	21.65	-36.9	-37.7	23.9	0.00e+00	0	29	0	478150656	48	5565
2026-01-29 17:07:54.72	352.99	21.72	-36.9	-37.8	23.8	0.00e+00	0	30	0	480247808	48	5597
2026-01-29 17:07:55.73	352.76	21.79	-36.6	-37.4	24.2	0.00e+00	6	30	0	482344960	46	6029
2026-01-29 17:07:56.74	352.53	21.86	-36.6	-37.4	24.2	0.00e+00	0	30	0	484442112	46	5998
2026-01-29 17:07:57.75	352.29	21.94	-36.5	-37.3	24.2	0.00e+00	89	29	0	486539264	46	5915
2026-01-29 17:07:58.76	352.06	22.01	-36.7	-37.5	24.2	0.00e+00	0	30	0	487587840	46	6071
2026-01-29 17:07:59.77	351.82	22.07	-36.9	-37.8	23.8	0.00e+00	0	30	0	489684992	46	6281
2026-01-29 17:08:00.78	351.59	22.14	-37.2	-38.1	23.6	0.00e+00	0	29	0	491782144	46	6478
2026-01-29 17:08:01.79	351.35	22.21	-37.2	-38.1	23.8	0.00e+00	0	29	0	493879296	46	6482
2026-01-29 17:08:02.80	351.11	22.28	-36.9	-37.8	23.8	0.00e+00	9	30	0	495976448	46	6267
2026-01-29 17:08:03.81	350.88	22.35	-36.8	-37.6	24.0	0.00e+00	0	30	0	498073600	46	6160
2026-01-29 17:08:04.82	350.64	22.42	-36.1	-37.0	24.6	0.00e+00	92	29	0	499122176	46	5699
2026-01-29 17:08:05.83	350.39	22.49	-36.0	-36.8	24.6	0.00e+00	0	30	0	501219328	46	5628
2026-01-29 17:08:06.84	350.15	22.55	-36.3	-37.1	24.5	0.00e+00	0	30	0	503316480	46	5788
2026-01-29 17:08:07.85	349.91	22.62	-36.4	-37.2	24.4	0.00e+00	0	30	0	505413632	46	5889
2026-01-29 17:08:08.86	349.67	22.69	-36.4	-37.3	24.3	0.00e+00	0	29	0	507510784	46	5931
2026-01-29 17:08:09.87	349.42	22.75	-36.5	-37.3	24.2	0.00e+00	8	30	0	508559360	46	5943
2026-01-29 17:08:10.88	349.17	22.82	-36.6	-37.5	23.7	0.00e+00	0	30	0	510656512	46	6080
2026-01-29 17:08:11.89	348.93	22.88	-36.4	-37.3	24.2	0.00e+00	89	29	0	512753664	46	5929
2026-01-29 17:08:12.90	348.68	22.95	-36.6	-37.5	24.2	0.00e+00	0	30	0	514850816	46	6063
2026-01-29 17:08:13.91	348.43	23.01	-36.6	-37.5	24.3	0.00e+00	20	30	0	516947968	46	6036
2026-01-29 17:08:14.92	348.18	23.08	-36.4	-37.2	24.4	0.00e+00	0	30	0	517996544	46	5853
2026-01-29 17:08:15.93	347.93	23.14	-36.4	-37.2	24.3	0.00e+00	0	29	0	520093696	46	5874
2026-01-29 17:08:16.94	347.67	23.20	-36.6	-37.5	24.2	0.00e+00	16	30	0	522190848	46	6039
2026-01-29 17:08:17.95	347.42	23.26	-36.4	-37.3	24.4	0.00e+00	0	30	0	524288000	46	5909
2026-01-29 17:08:18.96	347.17	23.33	-36.3	-37.1	24.4	0.00e+00	92	30	0	526385152	46	5772
2026-01-29 17:08:19.97	346.91	23.39	-36.6	-37.4	24.2	0.00e+00	0	30	0	527433728	46	6009
2026-01-29 17:08:20.98	346.65	23.45	-36.4	-37.2	24.3	0.00e+00	92	30	0	529530880	46	5886
2026-01-29 17:08:21.99	346.40	23.51	-36.7	-37.6	23.8	0.00e+00	0	30	0	531628032	46	6111
2026-01-29 17:08:22.99	346.14	23.57	-36.9	-37.8	24.0	0.00e+00	0	29	0	533725184	46	6264
2026-01-29 17:08:24.00	345.88	23.63	-36.8	-37.7	24.0	0.00e+00	0	30	0	535822336	46	6245
2026-01-29 17:08:25.01	345.62	23.69	-36.8	-37.7	24.0	0.00e+00	0	29	0	536870912	46	6202
2026-01-29 17:08:26.02	345.36	23.75	-36.3	-37.2	24.3	0.00e+00	0	29	0	538968064	46	5846
2026-01-29 17:08:27.03	345.10	23.81	-36.3	-37.1	24.4	0.00e+00	0	30	0	541065216	46	5802
2026-01-29 17:08:28.04	344.83	23.86	-36.2	-37.0	24.5	0.00e+00	29	29	0	543162368	46	5755
2026-01-29 17:08:29.05	344.57	23.92	-36.5	-37.3	24.4	0.00e+00	0	30	0	545259520	46	5936
2026-01-29 17:08:30.06	344.30	23.98	-36.6	-37.4	24.1	0.00e+00	0	30	0	546308096	46	6014
2026-01-29 17:08:31.07	344.04	24.03	-36.7	-37.5	24.1	0.00e+00	0	30	0	548405248	46	6096
2026-01-29 17:08:32.08	343.77	24.09	-36.5	-37.4	24.2	0.00e+00	6	30	0	550502400	46	5972
2026-01-29 17:08:33.09	343.50	24.14	-36.5	-37.3	24.2	0.00e+00	15	30	0	552599552	46	5929
2026-01-29 17:08:34.10	343.23	24.20	-36.6	-37.4	24.2	0.00e+00	0	30	0	554696704	46	6025
2026-01-29 17:08:35.11	342.96	24.25	-36.6	-37.4	24.1	0.00e+00	48	29	0	556793856	46	6002
2026-01-29 17:08:36.12	342.69	24.30	-37.0	-37.9	23.9	0.00e+00	24	30	0	557842432	46	6323
2026-01-29 17:08:37.13	342.42	24.36	-37.1	-38.0	23.8	0.00e+00	0	29	0	559939584	46	6452
2026-01-29 17:08:38.14	342.14	24.41	-37.0	-37.9	23.8	0.00e+00	0	29	0	562036736	46	6382
2026-01-29 17:08:39.15	341.87	24.46	-37.0	-37.8	23.9	0.00e+00	8	30	0	564133888	46	6308
2026-01-29 17:08:40.17	341.59	24.51	-36.7	-37.6	24.2	0.00e+00	84	30	0	566231040	46	6129
2026-01-29 17:08:41.18	341.32	24.56	-36.7	-37.6	24.2	0.00e+00	0	30	0	567279616	46	6140
2026-01-29 17:08:42.19	341.04	24.61	-36.8	-37.7	24.0	0.00e+00	92	30	0	569376768	46	6175
2026-01-29 17:08:43.19	340.77	24.66	-36.7	-37.6	23.8	0.00e+00	0	30	0	571473920	46	6121
2026-01-29 17:08:44.20	340.49	24.71	-36.7	-37.6	24.1	0.00e+00	66	30	0	573571072	46	6130
2026-01-29 17:08:45.22	340.21	24.76	-36.6	-37.5	24.1	0.00e+00	0	30	0	575668224	46	6039
2026-01-29 17:08:46.23	339.93	24.80	-36.6	-37.5	24.2	0.00e+00	0	30	0	576716800	46	6046
2026-01-29 17:08:47.23	339.65	24.85	-36.4	-37.2	24.3	0.00e+00	60	30	0	578813952	46	5871
2026-01-29 17:08:48.24	339.37	24.89	-36.0	-36.8	24.7	0.00e+00	0	30	0	580911104	46	5618
2026-01-29 17:08:49.25	339.08	24.94	-36.2	-37.0	24.4	0.00e+00	87	30	0	583008256	46	5733
2026-01-29 17:08:50.26	338.80	24.98	-36.3	-37.1	24.4	0.00e+00	0	30	0	585105408	46	5818
2026-01-29 17:08:51.27	338.52	25.03	-36.3	-37.1	24.5	0.00e+00	0	30	0	586153984	46	5784
2026-01-29 17:08:52.28	338.23	25.07	-36.4	-37.2	24.0	0.00e+00	0	30	0	588251136	46	5853
2026-01-29 17:08:53.29	337.94	25.11	-36.4	-37.2	24.3	0.00e+00	0	30	0	590348288	46	5850
2026-01-29 17:08:54.30	337.66	25.15	-36.1	-36.9	24.7	0.00e+00	3	30	0	592445440	46	5647
2026-01-29 17:08:55.31	337.37	25.19	-36.1	-36.9	24.5	0.00e+00	0	30	0	594542592	46	5663
2026-01-29 17:08:56.32	337.08	25.23	-36.5	-37.3	24.2	0.00e+00	20	30	0	595591168	46	5947
2026-01-29 17:08:57.33	336.79	25.27	-36.9	-37.8	23.9	0.00e+00	0	30	0	597688320	46	6280
2026-01-29 17:08:58.34	336.50	25.31	-37.3	-38.2	23.6	0.00e+00	91	30	0	599785472	46	6581
2026-01-29 17:08:59.35	336.21	25.35	-37.8	-38.8	23.3	0.00e+00	0	30	0	601882624	46	7025
2026-01-29 17:09:00.36	335.92	25.39	-37.8	-38.7	23.4	0.00e+00	0	30	0	603979776	48	6203
2026-01-29 17:09:01.37	335.63	25.42	-37.8	-38.7	23.2	0.00e+00	0	30	0	606076928	48	6238
2026-01-29 17:09:02.38	335.34	25.46	-38.1	-39.1	22.9	0.00e+00	0	30	0	607125504	48	6507
2026-01-29 17:09:03.39	335.05	25.49	-38.4	-39.4	22.6	0.00e+00	92	30	0	609222656	48	6743
2026-01-29 17:09:04.40	334.75	25.53	-38.7	-39.8	22.4	0.00e+00	0	30	0	611319808	48	7021
2026-01-29 17:09:05.41	334.46	25.56	-38.8	-39.8	22.4	0.00e+00	90	30	0	613416960	50	6299
2026-01-29 17:09:06.42	334.16	25.59	-38.6	-39.7	22.5	0.00e+00	0	30	0	615514112	50	6177
2026-01-29 17:09:07.43	333.87	25.62	-38.4	-39.4	22.8	0.00e+00	0	30	0	616562688	50	5967
2026-01-29 17:09:08.44	333.57	25.65	-37.7	-38.6	23.3	0.00e+00	0	30	0	618659840	50	5493
2026-01-29 17:09:09.45	333.28	25.68	-37.5	-38.4	23.5	0.00e+00	0	30	0	620756992	48	5971
2026-01-29 17:09:10.46	332.98	25.71	-37.4	-38.3	23.5	0.00e+00	86	30	0	622854144	48	5952
2026-01-29 17:09:11.47	332.68	25.74	-37.7	-38.6	23.2	0.00e+00	0	30	0	624951296	48	6112
2026-01-29 17:09:12.48	332.38	25.77	-37.9	-38.8	23.2	0.00e+00	92	30	0	625999872	48	6279
2026-01-29 17:09:13.48	332.09	25.80	-38.5	-39.5	22.7	0.00e+00	0	29	0	628097024	48	6802
2026-01-29 17:09:14.50	331.79	25.82	-38.9	-39.9	22.3	0.00e+00	0	30	0	630194176	48	7143
2026-01-29 17:09:15.51	331.49	25.85	-38.8	-39.8	22.4	0.00e+00	0	30	0	632291328	50	6310
2026-01-29 17:09:16.51	331.19	25.87	-38.5	-39.5	22.6	0.00e+00	0	30	0	634388480	50	6093
2026-01-29 17:09:17.52	330.89	25.89	-38.2	-39.2	22.9	0.00e+00	86	30	0	635437056	50	5831
2026-01-29 17:09:18.53	330.59	25.92	-37.9	-38.9	23.1	0.00e+00	0	30	0	637534208	50	5650
2026-01-29 17:09:19.54	330.29	25.94	-37.9	-38.9	23.0	0.00e+00	90	30	0	639631360	50	5655
2026-01-29 17:09:20.55	329.98	25.96	-38.6	-39.6	22.5	0.00e+00	0	30	0	641728512	50	6132
2026-01-29 17:09:21.56	329.68	25.98	-38.9	-39.9	22.2	0.00e+00	0	30	0	643825664	50	6387
2026-01-29 17:09:22.57	329.38	26.00	-39.5	-40.6	21.7	0.00e+00	0	30	0	644874240	50	6897
2026-01-29 17:09:23.58	329.08	26.01	-39.2	-40.3	22.0	0.00e+00	0	30	0	646971392	50	6651
2026-01-29 17:09:24.59	328.77	26.03	-39.1	-40.1	22.1	0.00e+00	5	30	0	649068544	50	6532
2026-01-29 17:09:25.60	328.47	26.05	-38.6	-39.6	22.6	0.00e+00	0	30	0	651165696	50	6169
2026-01-29 17:09:26.61	328.17	26.06	-38.6	-39.6	22.5	0.00e+00	92	30	0	653262848	50	6126
2026-01-29 17:09:27.62	327.86	26.08	-38.1	-39.0	23.0	0.00e+00	0	30	0	654311424	50	5752
2026-01-29 17:09:28.63	327.56	26.09	-38.0	-39.0	23.0	0.00e+00	5	30	0	656408576	50	5711
2026-01-29 17:09:29.64	327.25	26.11	-38.3	-39.2	23.0	0.00e+00	0	30	0	658505728	50	5889
2026-01-29 17:09:30.65	326.95	26.12	-38.1	-39.1	23.0	0.00e+00	0	30	0	660602880	50	5788
2026-01-29 17:09:31.65	326.64	26.13	-38.3	-39.2	22.9	0.00e+00	0	30	0	662700032	50	5892
2026-01-29 17:09:32.66	326.34	26.14	-38.5	-39.5	22.8	0.00e+00	0	30	0	663748608	50	6075
2026-01-29 17:09:33.67	326.03	26.15	-38.7	-39.7	22.5	0.00e+00	55	30	0	665845760	50	6202
2026-01-29 17:09:34.68	325.73	26.16	-38.6	-39.6	22.7	0.00e+00	0	30	0	667942912	50	6162
2026-01-29 17:09:35.69	325.42	26.16	-38.8	-39.8	22.4	0.00e+00	92	29	0	670040064	50	6314
2026-01-29 17:09:36.70	325.11	26.17	-39.1	-40.1	22.3	0.00e+00	0	30	0	672137216	50	6533
2026-01-29 17:09:37.71	324.81	26.18	-39.1	-40.2	22.1	0.00e+00	0	30	0	674234368	50	6562
2026-01-29 17:09:38.72	324.50	26.18	-39.3	-40.3	22.0	0.00e+00	0	30	0	675282944	50	6680
2026-01-29 17:09:39.73	324.20	26.18	-39.2	-40.3	22.1	0.00e+00	0	30	0	677380096	50	6650
2026-01-29 17:09:40.74	323.89	26.19	-38.7	-39.7	22.7	0.00e+00	90	30	0	679477248	50	6226
2026-01-29 17:09:41.75	323.58	26.19	-38.0	-38.9	23.1	0.00e+00	0	30	0	681574400	50	5676
2026-01-29 17:09:42.76	323.28	26.19	-38.0	-38.9	23.2	0.00e+00	90	30	0	683671552	50	5679
2026-01-29 17:09:43.77	322.97	26.19	-37.8	-38.7	23.4	0.00e+00	0	30	0	684720128	50	5528
2026-01-29 17:09:44.78	322.66	26.19	-37.5	-38.3	23.5	0.00e+00	0	30	0	686817280	48	5957
2026-01-29 17:09:45.79	322.36	26.19	-37.9	-38.8	23.2	0.00e+00	0	30	0	688914432	48	6303
2026-01-29 17:09:46.80	322.05	26.19	-38.5	-39.5	22.7	0.00e+00	0	30	0	691011584	48	6788
2026-01-29 17:09:47.82	321.74	26.18	-39.1	-40.1	22.2	0.00e+00	92	30	0	693108736	50	6518
2026-01-29 17:09:48.83	321.43	26.18	-39.4	-40.5	21.9	0.00e+00	0	30	0	694157312	50	6814
2026-01-29 17:09:49.84	321.13	26.17	-39.2	-40.3	22.0	0.00e+00	92	30	0	696254464	50	6678
2026-01-29 17:09:50.85	320.82	26.17	-38.9	-40.0	22.5	0.00e+00	0	30	0	698351616	50	6399
2026-01-29 17:09:51.86	320.51	26.16	-38.6	-39.6	22.8	0.00e+00	0	30	0	700448768	50	6129
2026-01-29 17:09:52.87	320.21	26.15	-38.5	-39.5	22.7	0.00e+00	0	30	0	702545920	50	6095
2026-01-29 17:09:53.88	319.90	26.14	-38.3	-39.3	22.8	0.00e+00	0	30	0	703594496	50	5938
2026-01-29 17:09:54.88	319.60	26.14	-38.3	-39.3	22.9	0.00e+00	9	29	0	705691648	50	5900
2026-01-29 17:09:55.89	319.29	26.12	-38.1	-39.0	22.5	0.00e+00	0	29	0	707788800	50	5756
2026-01-29 17:09:56.90	318.99	26.11	-37.7	-38.6	23.4	0.00e+00	92	30	0	709885952	50	5499
2026-01-29 17:09:57.91	318.68	26.10	-37.7	-38.5	23.2	0.00e+00	0	30	0	711983104	48	6092
2026-01-29 17:09:58.92	318.38	26.09	-37.6	-38.5	23.5	0.00e+00	0	29	0	713031680	48	6044
2026-01-29 17:09:59.93	318.07	26.07	-37.5	-38.3	23.6	0.00e+00	0	29	0	715128832	48	5942
2026-01-29 17:10:00.94	317.77	26.06	-37.5	-38.4	23.6	0.00e+00	0	30	0	717225984	48	5985
2026-01-29 17:10:01.95	317.47	26.04	-37.4	-38.2	23.7	0.00e+00	56	30	0	719323136	48	5893
2026-01-29 17:10:02.96	317.16	26.03	-36.9	-37.8	24.0	0.00e+00	0	29	0	721420288	48	5591
2026-01-29 17:10:03.97	316.86	26.01	-36.9	-37.8	24.1	0.00e+00	63	30	0	722468864	48	5568
2026-01-29 17:10:04.98	316.56	25.99	-36.7	-37.5	24.2	0.00e+00	0	30	0	724566016	48	5400
2026-01-29 17:10:05.99	316.25	25.97	-36.6	-37.4	24.2	0.00e+00	92	29	0	726663168	46	5998
2026-01-29 17:10:07.00	315.95	25.95	-36.4	-37.2	24.5	0.00e+00	23	30	0	728760320	46	5868
2026-01-29 17:10:08.01	315.65	25.93	-36.0	-36.7	24.8	0.00e+00	0	29	0	730857472	46	5556
2026-01-29 17:10:09.02	315.35	25.91	-35.5	-36.2	25.1	0.00e+00	0	30	0	731906048	44	5875
2026-01-29 17:10:10.03	315.05	25.89	-35.5	-36.2	25.2	0.00e+00	0	30	0	734003200	44	5859
2026-01-29 17:10:11.04	314.75	25.86	-35.5	-36.3	25.0	0.00e+00	0	29	0	736100352	44	5919
2026-01-29 17:10:12.05	314.45	25.84	-35.9	-36.6	24.8	0.00e+00	0	30	0	738197504	44	6158
2026-01-29 17:10:13.06	314.15	25.81	-35.5	-36.3	25.1	0.00e+00	54	29	0	740294656	44	5900
2026-01-29 17:10:14.07	313.85	25.79	-35.7	-36.4	24.9	0.00e+00	0	30	0	742391808	44	6019
2026-01-29 17:10:15.08	313.55	25.76	-35.5	-36.2	25.0	0.00e+00	0	29	0	743440384	44	5855
2026-01-29 17:10:16.09	313.25	25.73	-35.5	-36.3	25.1	0.00e+00	0	30	0	745537536	44	5928
2026-01-29 17:10:17.10	312.95	25.70	-35.7	-36.5	24.9	0.00e+00	0	29	0	747634688	44	6054
2026-01-29 17:10:18.11	312.66	25.67	-36.1	-36.9	24.5	0.00e+00	81	30	0	749731840	44	6376
2026-01-29 17:10:19.12	312.36	25.64	-36.5	-37.3	24.4	0.00e+00	0	30	0	751828992	44	6688
2026-01-29 17:10:20.13	312.06	25.61	-36.8	-37.7	24.2	0.00e+00	73	30	0	752877568	44	6942
2026-01-29 17:10:21.14	311.77	25.58	-36.7	-37.5	24.2	0.00e+00	0	30	0	754974720	46	6077
2026-01-29 17:10:22.15	311.47	25.55	-36.9	-37.7	24.0	0.00e+00	0	30	0	757071872	46	6236
2026-01-29 17:10:23.16	311.18	25.51	-36.8	-37.6	24.0	0.00e+00	6	30	0	759169024	46	6160
2026-01-29 17:10:24.17	310.88	25.48	-36.5	-37.3	24.4	0.00e+00	0	30	0	761266176	46	5964
2026-01-29 17:10:25.18	310.59	25.45	-36.7	-37.5	24.3	0.00e+00	69	30	0	762314752	46	6083
2026-01-29 17:10:26.19	310.30	25.41	-36.5	-37.3	24.3	0.00e+00	0	30	0	764411904	46	5936
2026-01-29 17:10:27.20	310.01	25.37	-36.5	-37.3	24.4	0.00e+00	92	30	0	766509056	46	5947
2026-01-29 17:10:28.21	309.72	25.34	-36.7	-37.5	24.2	0.00e+00	0	30	0	768606208	46	6075
2026-01-29 17:10:29.22	309.43	25.30	-36.8	-37.6	24.2	0.00e+00	0	30	0	770703360	46	6109
2026-01-29 17:10:30.23	309.14	25.26	-36.8	-37.6	24.2	0.00e+00	0	30	0	771751936	46	6126
2026-01-29 17:10:31.24	308.85	25.22	-36.9	-37.7	24.1	0.00e+00	0	29	0	773849088	46	6236
2026-01-29 17:10:32.25	308.56	25.18	-37.4	-38.3	23.3	0.00e+00	8	30	0	775946240	46	6654
2026-01-29 17:10:33.26	308.27	25.14	-38.1	-39.1	23.0	0.00e+00	0	30	0	778043392	48	6466
2026-01-29 17:10:34.27	307.99	25.10	-38.2	-39.2	23.0	0.00e+00	92	30	0	780140544	48	6553
2026-01-29 17:10:35.28	307.70	25.05	-38.1	-39.0	23.1	0.00e+00	0	29	0	781189120	48	6464
2026-01-29 17:10:36.29	307.42	25.01	-38.1	-39.0	23.1	0.00e+00	32	30	0	783286272	48	6453
2026-01-29 17:10:37.30	307.13	24.97	-37.5	-38.4	23.7	0.00e+00	0	30	0	785383424	48	5995
2026-01-29 17:10:38.31	306.85	24.92	-37.3	-38.2	23.7	0.00e+00	0	29	0	787480576	48	5869
2026-01-29 17:10:39.32	306.57	24.88	-37.3	-38.1	23.8	0.00e+00	2	30	0	789577728	48	5826
2026-01-29 17:10:40.33	306.28	24.83	-37.7	-38.6	23.5	0.00e+00	0	30	0	790626304	48	6139
2026-01-29 17:10:41.34	306.00	24.79	-37.7	-38.6	23.4	0.00e+00	32	29	0	792723456	48	6164
2026-01-29 17:10:42.35	305.72	24.74	-38.1	-39.0	23.1	0.00e+00	0	30	0	794820608	48	6419
2026-01-29 17:10:43.36	305.44	24.69	-38.3	-39.2	22.9	0.00e+00	86	30	0	796917760	48	6603
2026-01-29 17:10:44.37	305.16	24.64	-38.4	-39.4	22.9	0.00e+00	0	30	0	799014912	48	6704
2026-01-29 17:10:45.38	304.89	24.59	-38.3	-39.2	22.9	0.00e+00	0	30	0	800063488	48	6599
2026-01-29 17:10:46.39	304.61	24.54	-38.5	-39.5	22.6	0.00e+00	0	30	0	802160640	48	6784
2026-01-29 17:10:47.40	304.33	24.49	-38.5	-39.5	22.7	0.00e+00	0	30	0	804257792	50	6056
2026-01-29 17:10:48.40	304.06	24.44	-39.0	-40.1	22.3	0.00e+00	28	30	0	806354944	50	6479
2026-01-29 17:10:49.41	303.79	24.39	-39.4	-40.5	22.0	0.00e+00	0	30	0	808452096	50	6792
2026-01-29 17:10:50.42	303.52	24.34	-39.6	-40.7	21.8	0.00e+00	87	30	0	810549248	50	7000
2026-01-29 17:10:51.43	303.24	24.29	-39.4	-40.5	21.7	0.00e+00	0	30	0	811597824	50	6848
2026-01-29 17:10:52.44	302.97	24.23	-39.0	-40.1	22.3	0.00e+00	0	30	0	813694976	50	6480
2026-01-29 17:10:53.45	302.70	24.18	-38.7	-39.7	22.6	0.00e+00	0	30	0	815792128	50	6205
2026-01-29 17:10:54.46	302.43	24.12	-38.5	-39.5	22.7	0.00e+00	0	30	0	817889280	50	6053
2026-01-29 17:10:55.47	302.16	24.07	-38.1	-39.0	22.9	0.00e+00	6	30	0	819986432	50	5746
2026-01-29 17:10:56.48	301.90	24.01	-38.4	-39.3	22.8	0.00e+00	0	30	0	821035008	50	5940
2026-01-29 17:10:57.49	301.63	23.96	-38.5	-39.4	22.7	0.00e+00	90	30	0	823132160	50	6003
2026-01-29 17:10:58.50	301.36	23.90	-38.4	-39.3	22.9	0.00e+00	0	30	0	825229312	50	5935
2026-01-29 17:10:59.51	301.10	23.84	-38.5	-39.5	22.8	0.00e+00	0	30	0	827326464	50	6070
2026-01-29 17:11:00.52	300.84	23.78	-38.4	-39.4	22.9	0.00e+00	0	30	0	829423616	50	5983
2026-01-29 17:11:01.53	300.57	23.73	-38.5	-39.4	22.7	0.00e+00	0	30	0	830472192	50	5986
2026-01-29 17:11:02.54	300.31	23.67	-38.0	-38.9	23.0	0.00e+00	87	30	0	832569344	50	5679
2026-01-29 17:11:03.55	300.05	23.61	-37.9	-38.7	23.2	0.00e+00	0	30	0	834666496	50	5564
2026-01-29 17:11:04.56	299.79	23.55	-37.9	-38.9	23.2	0.00e+00	67	30	0	836763648	50	5632
2026-01-29 17:11:05.57	299.53	23.49	-37.9	-38.8	23.3	0.00e+00	0	30	0	838860800	50	5604
2026-01-29 17:11:06.58	299.27	23.43	-38.0	-38.9	23.0	0.00e+00	0	30	0	839909376	50	5662
2026-01-29 17:11:07.59	299.02	23.36	-38.1	-39.0	22.9	0.00e+00	0	30	0	842006528	50	5716
2026-01-29 17:11:08.60	298.76	23.30	-38.4	-39.3	22.9	0.00e+00	0	30	0	844103680	50	5957
2026-01-29 17:11:09.61	298.51	23.24	-38.9	-39.9	22.4	0.00e+00	41	30	0	846200832	50	6364
2026-01-29 17:11:10.62	298.25	23.18	-39.4	-40.5	21.9	0.00e+00	0	30	0	848297984	50	6814
2026-01-29 17:11:11.63	298.00	23.11	-39.5	-40.6	21.8	0.00e+00	74	30	0	849346560	52	6160
2026-01-29 17:11:12.64	297.75	23.05	-39.7	-40.9	21.6	0.00e+00	0	30	0	851443712	52	6330
2026-01-29 17:11:13.65	297.50	22.99	-39.2	-40.2	22.1	0.00e+00	48	30	0	853540864	52	5896
2026-01-29 17:11:14.66	297.25	22.92	-39.1	-40.1	22.4	0.00e+00	0	30	0	855638016	52	5785
2026-01-29 17:11:15.67	297.00	22.86	-38.4	-39.3	22.6	0.00e+00	0	30	0	857735168	50	5956
2026-01-29 17:11:16.69	296.75	22.79	-38.1	-39.0	23.1	0.00e+00	14	30	0	858783744	50	5745
2026-01-29 17:11:17.69	296.51	22.72	-38.4	-39.4	22.8	0.00e+00	0	30	0	860880896	50	5998
2026-01-29 17:11:18.71	296.26	22.66	-38.7	-39.7	22.5	0.00e+00	73	30	0	862978048	50	6193
2026-01-29 17:11:19.72	296.01	22.59	-38.5	-39.4	22.6	0.00e+00	0	30	0	865075200	50	6030
2026-01-29 17:11:20.73	295.77	22.52	-38.9	-40.0	22.3	0.00e+00	11	30	0	867172352	50	6391
2026-01-29 17:11:21.74	295.53	22.46	-39.0	-40.0	22.4	0.00e+00	0	30	0	868220928	50	6440
2026-01-29 17:11:22.75	295.29	22.39	-38.9	-39.9	22.4	0.00e+00	0	30	0	870318080	50	6357
2026-01-29 17:11:23.76	295.05	22.32	-38.7	-39.8	22.6	0.00e+00	0	30	0	872415232	50	6249
2026-01-29 17:11:24.77	294.81	22.25	-38.3	-39.3	22.7	0.00e+00	0	30	0	874512384	50	5914
2026-01-29 17:11:25.78	294.57	22.18	-37.8	-38.7	22.6	0.00e+00	90	30	0	876609536	50	5532
2026-01-29 17:11:26.79	294.33	22.11	-37.3	-38.2	23.7	0.00e+00	0	30	0	878706688	48	5854
2026-01-29 17:11:27.80	294.10	22.04	-37.3	-38.1	23.8	0.00e+00	92	30	0	879755264	48	5825
2026-01-29 17:11:28.81	293.86	21.97	-37.2	-38.0	23.9	0.00e+00	0	30	0	881852416	48	5741
2026-01-29 17:11:29.82	293.63	21.90	-37.3	-38.2	23.8	0.00e+00	0	30	0	883949568	48	5852
2026-01-29 17:11:30.83	293.40	21.83	-37.6	-38.5	23.5	0.00e+00	0	29	0	886046720	48	6058
2026-01-29 17:11:31.84	293.17	21.76	-38.2	-39.2	22.9	0.00e+00	0	30	0	888143872	48	6555
2026-01-29 17:11:32.85	292.94	21.69	-38.4	-39.4	22.8	0.00e+00	90	30	0	889192448	48	6740
2026-01-29 17:11:33.86	292.71	21.62	-38.8	-39.8	22.5	0.00e+00	0	30	0	891289600	48	7087
2026-01-29 17:11:34.87	292.48	21.55	-38.8	-39.8	22.5	0.00e+00	91	30	0	893386752	50	6275
2026-01-29 17:11:35.88	292.25	21.48	-38.6	-39.7	22.6	0.00e+00	0	30	0	895483904	50	6183
2026-01-29 17:11:36.89	292.02	21.40	-38.3	-39.2	22.9	0.00e+00	0	30	0	897581056	50	5875
2026-01-29 17:11:37.89	291.80	21.33	-37.9	-38.9	23.2	0.00e+00	0	30	0	898629632	50	5644
2026-01-29 17:11:38.90	291.58	21.26	-37.6	-38.5	23.5	0.00e+00	0	30	0	900726784	48	6082
2026-01-29 17:11:39.91	291.35	21.19	-36.7	-37.5	24.2	0.00e+00	73	30	0	902823936	46	6083
2026-01-29 17:11:40.92	291.13	21.11	-36.5	-37.3	24.5	0.00e+00	0	30	0	904921088	46	5929
2026-01-29 17:11:41.93	290.91	21.04	-36.2	-37.0	24.5	0.00e+00	72	30	0	907018240	46	5715
2026-01-29 17:11:42.94	290.69	20.97	-36.3	-37.1	24.5	0.00e+00	0	30	0	908066816	46	5810
2026-01-29 17:11:43.95	290.47	20.89	-36.3	-37.1	24.4	0.00e+00	0	30	0	910163968	46	5821
2026-01-29 17:11:44.96	290.26	20.82	-37.0	-37.8	24.0	0.00e+00	0	30	0	912261120	46	6297
2026-01-29 17:11:45.97	290.04	20.74	-37.2	-38.0	23.8	0.00e+00	0	30	0	914358272	46	6436
2026-01-29 17:11:46.97	289.83	20.67	-37.2	-38.1	23.8	0.00e+00	0	30	0	916455424	46	6466
2026-01-29 17:11:47.98	289.61	20.60	-37.3	-38.1	23.8	0.00e+00	0	30	0	917504000	46	6503
2026-01-29 17:11:48.99	289.40	20.52	-37.3	-38.1	23.7	0.00e+00	88	30	0	919601152	46	6508
2026-01-29 17:11:50.00	289.18	20.45	-37.2	-38.1	23.8	0.00e+00	0	30	0	921698304	46	6492
2026-01-29 17:11:51.01	288.97	20.37	-37.3	-38.2	23.7	0.00e+00	0	30	0	923795456	46	6552
2026-01-29 17:11:52.02	288.76	20.29	-37.2	-38.1	23.6	0.00e+00	0	30	0	925892608	46	6491
2026-01-29 17:11:53.03	288.55	20.22	-37.4	-38.2	23.4	0.00e+00	0	30	0	926941184	46	6606
2026-01-29 17:11:54.04	288.35	20.14	-37.3	-38.2	23.7	0.00e+00	0	30	0	929038336	46	6570
2026-01-29 17:11:55.05	288.14	20.07	-37.2	-38.1	23.8	0.00e+00	0	30	0	931135488	46	6480
2026-01-29 17:11:56.06	287.93	19.99	-37.1	-38.0	23.7	0.00e+00	77	30	0	933232640	46	6405
2026-01-29 17:11:57.07	287.73	19.91	-37.3	-38.2	23.7	0.00e+00	9	30	0	935329792	46	6549
2026-01-29 17:11:58.08	287.52	19.84	-37.4	-38.3	23.6	0.00e+00	81	30	0	936378368	46	6620
2026-01-29 17:11:59.09	287.32	19.76	-37.5	-38.4	23.8	0.00e+00	0	30	0	938475520	46	6714
2026-01-29 17:12:00.10	287.12	19.68	-37.2	-38.1	23.6	0.00e+00	9	30	0	940572672	46	6519
2026-01-29 17:12:01.11	286.92	19.61	-37.2	-38.1	23.7	0.00e+00	0	30	0	942669824	46	6496
2026-01-29 17:12:02.12	286.72	19.53	-37.3	-38.3	23.6	0.00e+00	0	30	0	944766976	46	6616
2026-01-29 17:12:03.13	286.52	19.45	-37.3	-38.1	23.7	0.00e+00	92	30	0	946864128	46	6519
2026-01-29 17:12:04.14	286.32	19.38	-37.7	-38.6	23.2	0.00e+00	0	30	0	947912704	46	6873
2026-01-29 17:12:05.15	286.12	19.30	-37.9	-38.8	23.2	0.00e+00	90	30	0	950009856	48	6301
2026-01-29 17:12:06.16	285.93	19.22	-38.0	-38.9	23.1	0.00e+00	0	30	0	952107008	48	6347
2026-01-29 17:12:07.17	285.73	19.14	-37.7	-38.6	23.2	0.00e+00	23	30	0	954204160	48	6109
2026-01-29 17:12:08.18	285.54	19.06	-37.4	-38.2	23.6	0.00e+00	0	30	0	956301312	48	5896
2026-01-29 17:12:09.19	285.34	18.99	-37.1	-37.9	23.8	0.00e+00	0	30	0	957349888	48	5692
2026-01-29 17:12:10.20	285.15	18.91	-36.9	-37.7	24.0	0.00e+00	27	30	0	959447040	48	5524
2026-01-29 17:12:11.21	284.96	18.83	-37.2	-38.0	23.8	0.00e+00	0	30	0	961544192	48	5757
2026-01-29 17:12:12.22	284.77	18.75	-37.4	-38.2	23.5	0.00e+00	77	30	0	963641344	48	5892
2026-01-29 17:12:13.23	284.58	18.67	-37.6	-38.6	23.3	0.00e+00	0	30	0	965738496	48	6115
2026-01-29 17:12:14.24	284.39	18.60	-37.7	-38.6	23.4	0.00e+00	0	30	0	966787072	48	6161
2026-01-29 17:12:15.25	284.21	18.52	-37.4	-38.3	23.6	0.00e+00	0	30	0	968884224	48	5960
2026-01-29 17:12:16.26	284.02	18.44	-37.2	-38.1	23.8	0.00e+00	0	30	0	970981376	48	5805
2026-01-29 17:12:17.27	283.84	18.36	-36.9	-37.7	24.0	0.00e+00	6	30	0	973078528	48	5531
2026-01-29 17:12:18.28	283.65	18.28	-36.6	-37.4	24.1	0.00e+00	0	30	0	975175680	46	5998
2026-01-29 17:12:19.29	283.47	18.20	-36.5	-37.3	24.3	0.00e+00	92	30	0	976224256	46	5919
2026-01-29 17:12:20.30	283.29	18.12	-36.4	-37.2	24.3	0.00e+00	0	30	0	978321408	46	5890
2026-01-29 17:12:21.31	283.10	18.05	-36.5	-37.3	24.4	0.00e+00	0	30	0	980418560	46	5917
2026-01-29 17:12:22.32	282.92	17.97	-36.4	-37.2	24.4	0.00e+00	0	30	0	982515712	46	5837
2026-01-29 17:12:23.33	282.74	17.89	-36.3	-37.1	24.4	0.00e+00	0	30	0	984612864	46	5803
2026-01-29 17:12:24.34	282.57	17.81	-36.3	-37.1	24.4	0.00e+00	0	30	0	985661440	46	5798
2026-01-29 17:12:25.34	282.39	17.73	-36.7	-37.5	24.1	0.00e+00	0	30	0	987758592	46	6066
2026-01-29 17:12:26.35	282.21	17.65	-36.8	-37.7	24.0	0.00e+00	90	30	0	989855744	46	6210
2026-01-29 17:12:27.36	282.04	17.57	-37.1	-38.0	23.8	0.00e+00	0	30	0	991952896	46	6399
2026-01-29 17:12:28.37	281.86	17.49	-37.2	-38.1	23.7	0.00e+00	64	30	0	994050048	46	6525
2026-01-29 17:12:29.38	281.69	17.42	-37.3	-38.2	23.7	0.00e+00	0	30	0	995098624	46	6597
2026-01-29 17:12:30.39	281.52	17.34	-36.9	-37.7	24.0	0.00e+00	0	30	0	997195776	46	6242
2026-01-29 17:12:31.40	281.34	17.26	-36.7	-37.5	24.2	0.00e+00	0	30	0	999292928	46	6103
2026-01-29 17:12:32.42	281.17	17.18	-36.6	-37.4	24.3	0.00e+00	0	30	0	1001390080	46	5991
2026-01-29 17:12:33.43	281.00	17.10	-36.5	-37.4	24.3	0.00e+00	90	30	0	1003487232	46	5982
2026-01-29 17:12:34.44	280.83	17.02	-36.4	-37.3	24.4	0.00e+00	0	30	0	1004535808	46	5907
2026-01-29 17:12:35.45	280.66	16.94	-36.6	-37.4	24.2	0.00e+00	92	30	0	1006632960	46	5976
2026-01-29 17:12:36.46	280.50	16.86	-36.7	-37.5	24.0	0.00e+00	0	30	0	1008730112	46	6090
2026-01-29 17:12:37.47	280.33	16.78	-36.7	-37.5	24.1	0.00e+00	0	30	0	1010827264	46	6063
2026-01-29 17:12:38.48	280.16	16.70	-36.7	-37.6	24.0	0.00e+00	2	30	0	1012924416	46	6134
2026-01-29 17:12:39.49	280.00	16.62	-36.8	-37.6	24.0	0.00e+00	0	30	0	1015021568	46	6168
2026-01-29 17:12:40.50	279.84	16.54	-36.8	-37.7	23.9	0.00e+00	92	30	0	1016070144	46	6194
2026-01-29 17:12:41.51	279.67	16.47	-36.9	-37.8	23.8	0.00e+00	0	30	0	1018167296	46	6271
2026-01-29 17:12:42.52	279.51	16.39	-37.1	-38.0	23.7	0.00e+00	92	30	0	1020264448	46	6419
2026-01-29 17:12:43.52	279.35	16.31	-37.1	-38.0	23.9	0.00e+00	0	30	0	1022361600	46	6426
2026-01-29 17:12:44.54	279.19	16.23	-37.0	-37.9	23.8	0.00e+00	0	30	0	1024458752	46	6319
2026-01-29 17:12:45.54	279.03	16.15	-37.0	-37.9	23.8	0.00e+00	0	30	0	1025507328	46	6344
2026-01-29 17:12:46.55	278.87	16.07	-36.7	-37.5	24.2	0.00e+00	0	30	0	1027604480	46	6083
2026-01-29 17:12:47.56	278.71	15.99	-36.4	-37.2	24.3	0.00e+00	90	30	0	1029701632	46	5853
2026-01-29 17:12:48.57	278.56	15.91	-36.4	-37.2	24.4	0.00e+00	0	30	0	1031798784	46	5839
2026-01-29 17:12:49.58	278.40	15.84	-36.4	-37.2	24.3	0.00e+00	92	30	0	1033895936	46	5839
2026-01-29 17:12:50.59	278.24	15.76	-36.2	-37.0	24.5	0.00e+00	0	30	0	1034944512	46	5738
2026-01-29 17:12:51.60	278.09	15.68	-36.5	-37.3	24.1	0.00e+00	0	30	0	1037041664	46	5940
2026-01-29 17:12:52.61	277.94	15.60	-36.8	-37.7	23.9	0.00e+00	0	30	0	1039138816	46	6197
2026-01-29 17:12:53.62	277.78	15.52	-37.3	-38.2	23.6	0.00e+00	0	30	0	1041235968	46	6550
2026-01-29 17:12:54.63	277.63	15.44	-37.8	-38.7	23.1	0.00e+00	77	30	0	1043333120	46	6975
2026-01-29 17:12:55.64	277.48	15.36	-38.1	-39.0	22.5	0.00e+00	0	30	0	1044381696	48	6447
2026-01-29 17:12:56.65	277.33	15.29	-38.2	-39.1	22.8	0.00e+00	83	30	0	1046478848	48	6512
2026-01-29 17:12:57.66	277.18	15.21	-38.0	-38.9	23.0	0.00e+00	0	30	0	1048576000	48	6347
2026-01-29 17:12:58.67	277.03	15.13	-37.9	-38.8	23.1	0.00e+00	0	30	0	1050673152	48	6303
2026-01-29 17:12:59.68	276.88	15.05	-37.8	-38.7	23.0	0.00e+00	0	30	0	1052770304	48	6226
2026-01-29 17:13:00.69	276.74	14.97	-37.4	-38.3	22.7	0.00e+00	0	30	0	1053818880	48	5958
2026-01-29 17:13:01.70	276.59	14.89	-37.2	-38.0	23.6	0.00e+00	52	30	0	1055916032	48	5752
2026-01-29 17:13:02.71	276.44	14.82	-37.0	-37.9	23.7	0.00e+00	0	30	0	1058013184	48	5653
2026-01-29 17:13:03.72	276.30	14.74	-37.2	-38.1	23.6	0.00e+00	91	30	0	1060110336	48	5776
2026-01-29 17:13:04.73	276.15	14.66	-36.9	-37.8	23.8	0.00e+00	0	30	0	1062207488	48	5599
2026-01-29 17:13:05.74	276.01	14.58	-37.0	-37.9	23.7	0.00e+00	49	30	0	1063256064	48	5674
2026-01-29 17:13:06.75	275.87	14.50	-36.8	-37.6	23.9	0.00e+00	0	30	0	1065353216	48	5491
2026-01-29 17:13:07.76	275.73	14.43	-36.8	-37.6	24.0	0.00e+00	0	30	0	1067450368	46	6147
2026-01-29 17:13:08.77	275.58	14.35	-36.9	-37.7	24.0	0.00e+00	9	30	0	1069547520	46	6231
2026-01-29 17:13:09.78	275.44	14.27	-37.1	-38.0	23.8	0.00e+00	0	30	0	1071644672	46	6435
2026-01-29 17:13:10.79	275.30	14.19	-37.4	-38.2	23.5	0.00e+00	74	30	0	1072693248	46	6613
2026-01-29 17:13:11.80	275.17	14.12	-37.6	-38.6	23.1	0.00e+00	0	30	0	1074790400	46	6850
2026-01-29 17:13:12.81	275.03	14.04	-38.0	-39.0	22.9	0.00e+00	82	30	0	1076887552	48	6408
2026-01-29 17:13:13.83	274.89	13.96	-38.4	-39.4	22.6	0.00e+00	0	30	0	1078984704	48	6708
2026-01-29 17:13:14.83	274.75	13.88	-38.8	-39.9	22.3	0.00e+00	0	30	0	1081081856	50	6348
2026-01-29 17:13:15.85	274.62	13.80	-38.6	-39.6	22.4	0.00e+00	14	30	0	1083179008	50	6145
2026-01-29 17:13:16.85	274.48	13.73	-38.6	-39.6	22.4	0.00e+00	0	30	0	1084227584	50	6172
2026-01-29 17:13:17.87	274.35	13.65	-38.4	-39.3	22.7	0.00e+00	84	30	0	1086324736	50	5947
2026-01-29 17:13:18.88	274.21	13.57	-38.2	-39.2	22.7	0.00e+00	0	30	0	1088421888	50	5855
2026-01-29 17:13:19.89	274.08	13.50	-37.6	-38.5	23.3	0.00e+00	92	30	0	1090519040	48	6091
2026-01-29 17:13:20.90	273.95	13.42	-37.4	-38.2	23.6	0.00e+00	0	30	0	1092616192	48	5882
2026-01-29 17:13:21.91	273.81	13.34	-37.5	-38.4	23.5	0.00e+00	0	30	0	1093664768	48	5976
2026-01-29 17:13:22.92	273.68	13.27	-36.9	-37.7	23.8	0.00e+00	0	30	0	1095761920	46	6223
2026-01-29 17:13:23.93	273.55	13.19	-37.0	-37.9	23.7	0.00e+00	0	30	0	1097859072	46	6335
2026-01-29 17:13:24.94	273.42	13.11	-36.9	-37.8	23.8	0.00e+00	8	30	0	1099956224	46	6264
2026-01-29 17:13:25.95	273.29	13.04	-37.4	-38.3	23.5	0.00e+00	0	30	0	1102053376	46	6624
2026-01-29 17:13:26.96	273.17	12.96	-37.5	-38.3	23.3	0.00e+00	92	30	0	1103101952	46	6689
2026-01-29 17:13:27.97	273.04	12.89	-37.5	-38.4	23.4	0.00e+00	0	30	0	1105199104	46	6740
2026-01-29 17:13:28.98	272.91	12.81	-37.8	-38.7	23.1	0.00e+00	0	30	0	1107296256	46	6983
2026-01-29 17:13:29.99	272.78	12.73	-37.4	-38.3	23.5	0.00e+00	0	30	0	1109393408	48	5910
2026-01-29 17:13:31.00	272.66	12.66	-37.4	-38.2	23.4	0.00e+00	0	30	0	1111490560	48	5887
2026-01-29 17:13:32.01	272.53	12.58	-37.3	-38.2	23.5	0.00e+00	79	30	0	1112539136	48	5870
2026-01-29 17:13:33.02	272.41	12.51	-37.4	-38.3	23.4	0.00e+00	0	30	0	1114636288	48	5930
2026-01-29 17:13:34.03	272.29	12.43	-37.5	-38.4	23.3	0.00e+00	74	30	0	1116733440	48	5966
2026-01-29 17:13:35.04	272.16	12.36	-37.7	-38.5	23.3	0.00e+00	0	30	0	1118830592	48	6102
2026-01-29 17:13:36.05	272.04	12.28	-38.1	-39.0	22.9	0.00e+00	0	30	0	1120927744	48	6436
2026-01-29 17:13:37.06	271.92	12.20	-38.1	-39.1	22.8	0.00e+00	0	30	0	1123024896	48	6482
2026-01-29 17:13:38.07	271.80	12.13	-38.4	-39.4	22.6	0.00e+00	0	30	0	1124073472	48	6744
2026-01-29 17:13:39.08	271.68	12.05	-38.4	-39.4	22.5	0.00e+00	0	30	0	1126170624	48	6732
2026-01-29 17:13:40.09	271.56	11.98	-38.6	-39.6	22.3	0.00e+00	0	30	0	1128267776	48	6856
2026-01-29 17:13:41.10	271.44	11.90	-38.4	-39.4	22.5	0.00e+00	91	30	0	1130364928	48	6724
2026-01-29 17:13:42.11	271.32	11.83	-38.8	-39.8	22.2	0.00e+00	0	30	0	1131413504	50	6305
2026-01-29 17:13:43.12	271.20	11.76	-38.8	-39.8	22.2	0.00e+00	0	30	0	1133510656	50	6273
2026-01-29 17:13:44.13	271.08	11.68	-38.9	-39.9	22.0	0.00e+00	0	30	0	1135607808	50	6356
2026-01-29 17:13:45.14	270.97	11.61	-39.0	-40.0	22.1	0.00e+00	0	30	0	1137704960	50	6445
2026-01-29 17:13:46.15	270.85	11.53	-39.0	-40.0	21.9	0.00e+00	63	30	0	1139802112	50	6446
2026-01-29 17:13:47.16	270.73	11.46	-39.0	-40.1	22.0	0.00e+00	0	30	0	1141899264	50	6479
2026-01-29 17:13:48.18	270.62	11.38	-39.2	-40.3	21.8	0.00e+00	92	30	0	1142947840	50	6658
2026-01-29 17:13:49.18	270.51	11.31	-39.6	-40.8	21.4	0.00e+00	0	30	0	1145044992	50	7016
2026-01-29 17:13:50.20	270.39	11.24	-39.6	-40.7	21.5	0.00e+00	16	30	0	1147142144	52	6204
2026-01-29 17:13:51.21	270.28	11.16	-39.6	-40.7	21.3	0.00e+00	0	30	0	1149239296	52	6245
2026-01-29 17:13:52.22	270.16	11.09	-39.7	-40.8	21.3	0.00e+00	0	30	0	1151336448	52	6301
2026-01-29 17:13:53.23	270.05	11.01	-39.7	-40.9	21.2	0.00e+00	2	30	0	1152385024	52	6340
2026-01-29 17:13:54.24	269.94	10.94	-39.7	-40.8	21.4	0.00e+00	0	30	0	1154482176	52	6298
2026-01-29 17:13:55.25	269.83	10.87	-39.5	-40.6	21.4	0.00e+00	15	30	0	1156579328	52	6167
2026-01-29 17:13:56.26	269.72	10.79	-39.3	-40.4	21.7	0.00e+00	0	30	0	1158676480	52	6004
2026-01-29 17:13:57.27	269.61	10.72	-39.0	-40.1	22.1	0.00e+00	92	30	0	1160773632	52	5794
2026-01-29 17:13:58.28	269.50	10.65	-38.7	-39.7	22.3	0.00e+00	0	30	0	1161822208	50	6182
2026-01-29 17:13:59.29	269.39	10.58	-38.7	-39.7	22.4	0.00e+00	0	30	0	1163919360	50	6180
2026-01-29 17:14:00.30	269.28	10.50	-38.7	-39.7	22.3	0.00e+00	0	30	0	1166016512	50	6182
2026-01-29 17:14:01.31	269.18	10.43	-38.9	-39.9	22.1	0.00e+00	0	30	0	1168113664	50	6375
2026-01-29 17:14:02.32	269.07	10.36	-38.4	-39.3	22.6	0.00e+00	77	30	0	1170210816	50	5939
2026-01-29 17:14:03.33	268.96	10.29	-38.7	-39.7	22.2	0.00e+00	0	30	0	1171259392	50	6191
2026-01-29 17:14:04.34	268.86	10.21	-39.0	-40.0	22.0	0.00e+00	67	30	0	1173356544	50	6446
2026-01-29 17:14:05.35	268.75	10.14	-39.2	-40.2	21.7	0.00e+00	0	30	0	1175453696	50	6604
2026-01-29 17:14:06.36	268.65	10.07	-39.2	-40.3	21.8	0.00e+00	0	30	0	1177550848	50	6616
2026-01-29 17:14:07.37	268.54	10.00	-39.2	-40.3	21.6	0.00e+00	0	30	0	1179648000	50	6662
2026-01-29 17:14:08.38	268.44	9.93	-39.3	-40.4	21.6	0.00e+00	0	30	0	1180696576	50	6767
2026-01-29 17:14:09.39	268.33	9.85	-39.4	-40.5	21.6	0.00e+00	87	30	0	1182793728	50	6780
2026-01-29 17:14:10.40	268.23	9.78	-39.5	-40.6	21.5	0.00e+00	0	30	0	1184890880	50	6880
2026-01-29 17:14:11.41	268.13	9.71	-39.3	-40.4	21.6	0.00e+00	92	30	0	1186988032	50	6739
2026-01-29 17:14:12.42	268.03	9.64	-39.2	-40.3	21.6	0.00e+00	0	30	0	1189085184	50	6661
2026-01-29 17:14:13.43	267.93	9.57	-39.1	-40.2	21.9	0.00e+00	0	30	0	1191182336	50	6556
2026-01-29 17:14:14.44	267.83	9.50	-38.9	-39.9	21.9	0.00e+00	0	30	0	1192230912	50	6384
2026-01-29 17:14:15.44	267.73	9.43	-38.7	-39.7	22.0	0.00e+00	0	30	0	1194328064	50	6236
2026-01-29 17:14:16.45	267.63	9.36	-38.8	-39.9	22.1	0.00e+00	86	30	0	1196425216	50	6322
2026-01-29 17:14:17.47	267.53	9.28	-38.7	-39.7	22.0	0.00e+00	0	30	0	1198522368	50	6225
