passes_logs/2026/01/29/R4.6S_Anadyr/R4.6S_Anadyr__20260129_161504_AQUA_rec.log

#Pass ID: 20260129_161504_AQUA
#Satellite: AQUA
#Configuration: AQUA
#almurnet v.1.7.20251203
#Start time: 2026-01-29 16:15:06

#Version: 2.2.20231116
#Station: R4.6S_Anadyr
#Location: 177.4865 lon 64.73178 lat
#TLE: 1 27424U 02022A   26028.91948147  .00001781  00000+0  36607-3 0  9997
#TLE: 2 27424  98.4103 355.5827 0001815  62.4290   1.4641 14.61871847262923

#Time	Az	El	Level	Level2	SNR	BER	BlckErr	Temp	State	Recorded	gain1	gain2
2026-01-29 16:15:06.29	19.71	0.10	-48.7	-63.7	3.5	1.51e+00	0	27	0	0	60	55307
2026-01-29 16:15:07.30	19.72	0.16	-49.4	-67.3	3.5	3.02e+01	0	28	104	0	60	88977
2026-01-29 16:15:08.31	19.73	0.22	-49.2	-67.1	3.5	3.02e+01	0	28	104	0	60	87360
2026-01-29 16:15:09.32	19.74	0.28	-49.2	-67.0	3.5	3.02e+01	0	28	104	0	60	86329
2026-01-29 16:15:10.33	19.75	0.35	-49.1	-67.0	3.5	3.02e+01	0	28	104	0	60	85969
2026-01-29 16:15:11.34	19.76	0.41	-49.1	-67.0	3.5	3.02e+01	0	28	104	0	60	85959
2026-01-29 16:15:12.35	19.77	0.47	-49.1	-67.0	3.5	3.02e+01	0	28	104	0	60	85971
2026-01-29 16:15:13.35	19.78	0.53	-49.1	-66.9	3.5	3.02e+01	0	28	104	0	60	85641
2026-01-29 16:15:14.37	19.79	0.60	-49.1	-67.0	3.5	3.02e+01	0	28	104	0	60	86443
2026-01-29 16:15:15.38	19.81	0.66	-49.2	-67.1	3.5	3.02e+01	0	28	104	0	60	86679
2026-01-29 16:15:16.39	19.82	0.72	-49.1	-67.0	3.5	3.02e+01	0	28	104	0	60	86085
2026-01-29 16:15:17.40	19.83	0.79	-49.0	-67.0	3.5	3.02e+01	0	28	104	0	60	86111
2026-01-29 16:15:18.41	19.84	0.85	-49.1	-67.0	3.5	3.02e+01	0	29	104	0	60	85840
2026-01-29 16:15:19.42	19.85	0.91	-49.1	-66.9	3.5	3.02e+01	0	29	104	0	60	85429
2026-01-29 16:15:20.43	19.86	0.98	-49.0	-66.9	3.5	3.02e+01	0	29	104	0	60	84937
2026-01-29 16:15:21.44	19.87	1.04	-48.9	-66.9	3.5	3.02e+01	0	29	104	0	60	84932
2026-01-29 16:15:22.45	19.88	1.11	-48.9	-66.8	3.5	3.02e+01	0	28	104	0	60	83727
2026-01-29 16:15:23.46	19.89	1.17	-48.9	-66.7	3.5	3.02e+01	0	29	104	0	60	83530
2026-01-29 16:15:24.47	19.90	1.24	-48.7	-66.6	3.5	3.02e+01	0	29	104	0	60	82649
2026-01-29 16:15:25.48	19.91	1.30	-48.4	-66.5	3.5	3.02e+01	0	29	104	0	60	81314
2026-01-29 16:15:26.49	19.92	1.37	-48.5	-66.4	3.5	3.02e+01	0	29	104	0	60	80537
2026-01-29 16:15:27.50	19.93	1.43	-48.3	-66.3	3.5	3.02e+01	0	29	104	0	60	79203
2026-01-29 16:15:28.51	19.95	1.50	-48.3	-66.2	3.5	3.02e+01	0	29	104	0	60	78412
2026-01-29 16:15:29.52	19.96	1.56	-48.0	-66.0	3.5	3.02e+01	0	28	104	0	60	76557
2026-01-29 16:15:30.53	19.97	1.63	-47.9	-65.7	3.5	3.02e+01	0	29	104	0	60	74275
2026-01-29 16:15:31.54	19.98	1.69	-47.9	-65.7	3.5	3.02e+01	0	29	104	0	60	74001
2026-01-29 16:15:32.55	19.99	1.76	-47.9	-65.7	3.5	3.02e+01	0	29	104	0	60	73974
2026-01-29 16:15:33.57	20.00	1.82	-47.9	-65.6	3.5	3.02e+01	0	29	104	0	60	73488
2026-01-29 16:15:34.57	20.01	1.89	-47.8	-65.6	3.5	3.02e+01	0	29	104	0	60	73467
2026-01-29 16:15:35.59	20.02	1.96	-47.9	-65.6	3.5	3.02e+01	0	29	104	0	60	73523
2026-01-29 16:15:36.60	20.03	2.02	-47.9	-65.6	3.5	3.02e+01	0	29	104	0	60	73667
2026-01-29 16:15:37.61	20.05	2.09	-47.9	-65.7	3.5	3.02e+01	0	29	104	0	60	73974
2026-01-29 16:15:38.62	20.06	2.16	-47.9	-65.7	3.5	3.02e+01	0	29	104	0	60	73896
2026-01-29 16:15:39.63	20.07	2.22	-47.9	-65.7	3.5	3.02e+01	0	29	104	0	60	74076
2026-01-29 16:15:40.64	20.08	2.29	-47.9	-65.7	3.5	3.02e+01	0	29	104	0	60	74102
2026-01-29 16:15:41.65	20.09	2.36	-47.9	-65.7	3.5	3.02e+01	0	29	104	0	60	74311
2026-01-29 16:15:42.66	20.10	2.43	-47.9	-65.7	3.5	3.02e+01	0	29	104	0	60	74085
2026-01-29 16:15:43.67	20.11	2.49	-47.8	-65.5	3.5	3.02e+01	0	29	104	0	60	72818
2026-01-29 16:15:44.68	20.13	2.56	-47.8	-65.4	3.5	3.02e+01	0	29	104	0	60	71387
2026-01-29 16:15:45.69	20.14	2.63	-47.7	-65.1	3.5	3.02e+01	0	29	104	0	60	69073
2026-01-29 16:15:46.70	20.15	2.70	-47.7	-64.7	3.5	3.02e+01	0	29	104	0	60	66173
2026-01-29 16:15:47.71	20.16	2.77	-47.6	-64.2	3.5	3.02e+01	0	29	104	0	60	62564
2026-01-29 16:15:48.72	20.17	2.84	-47.6	-64.2	3.5	3.02e+01	0	29	104	0	60	62608
2026-01-29 16:15:49.73	20.18	2.90	-47.6	-64.3	3.5	3.02e+01	0	29	104	0	60	63239
2026-01-29 16:15:50.74	20.20	2.97	-47.6	-64.2	3.5	3.02e+01	0	29	104	0	60	62564
2026-01-29 16:15:51.75	20.21	3.04	-47.3	-63.3	3.5	3.02e+01	0	29	104	0	60	56130
2026-01-29 16:15:52.76	20.22	3.11	-47.2	-62.8	3.5	3.02e+01	0	29	104	0	60	52949
2026-01-29 16:15:53.77	20.23	3.18	-46.1	-59.7	3.5	3.02e+01	0	29	104	0	60	37032
2026-01-29 16:15:54.78	20.24	3.25	-45.2	-57.9	3.5	3.02e+01	0	29	104	0	60	30085
2026-01-29 16:15:55.79	20.25	3.32	-44.1	-56.1	3.5	3.02e+01	0	29	104	0	60	24599
2026-01-29 16:15:56.80	20.27	3.39	-42.4	-53.7	3.5	3.02e+01	0	29	104	0	60	18553
2026-01-29 16:15:57.81	20.28	3.46	-41.6	-52.7	3.5	3.02e+01	0	29	104	0	58	18528
2026-01-29 16:15:58.82	20.29	3.53	-40.9	-51.7	3.5	3.02e+01	0	29	104	0	56	18590
2026-01-29 16:15:59.83	20.30	3.60	-40.8	-51.6	3.5	3.02e+01	0	29	104	0	54	20712
2026-01-29 16:16:00.84	20.31	3.68	-40.1	-50.7	3.5	3.02e+01	0	29	104	0	54	18722
2026-01-29 16:16:01.85	20.33	3.75	-40.7	-51.5	3.5	3.02e+01	0	29	104	0	54	20455
2026-01-29 16:16:02.86	20.34	3.82	-41.3	-52.2	3.5	3.02e+01	0	29	104	0	56	19736
2026-01-29 16:16:03.87	20.35	3.89	-42.1	-53.1	3.5	3.02e+01	0	29	104	0	56	21948
2026-01-29 16:16:04.88	20.36	3.96	-39.1	-49.6	3.5	3.02e+01	0	29	104	0	54	16430
2026-01-29 16:16:05.89	20.38	4.03	-43.9	-55.8	3.5	3.02e+01	0	29	104	0	60	23831
2026-01-29 16:16:06.90	20.39	4.11	-47.6	-65.5	3.5	3.02e+01	0	29	104	0	60	72113
2026-01-29 16:16:07.90	20.40	4.18	-41.0	-51.9	3.5	3.02e+01	0	29	104	0	58	16996
2026-01-29 16:16:08.91	20.41	4.25	-47.7	-64.4	3.5	3.02e+01	0	29	104	0	60	63659
2026-01-29 16:16:09.92	20.43	4.32	-41.5	-52.4	3.5	3.02e+01	0	29	104	0	60	16019
2026-01-29 16:16:10.93	20.44	4.40	-41.0	-51.8	3.5	3.02e+01	0	29	104	0	58	16878
2026-01-29 16:16:11.94	20.45	4.47	-40.9	-51.8	3.5	3.02e+01	0	29	104	0	56	18803
2026-01-29 16:16:12.95	20.46	4.54	-37.9	-48.3	3.5	3.02e+01	0	29	104	0	50	17729
2026-01-29 16:16:13.96	20.48	4.62	-41.1	-52.0	3.6	3.02e+01	0	29	104	0	54	21617
2026-01-29 16:16:14.97	20.49	4.69	-47.9	-65.6	3.5	3.02e+01	0	29	104	0	60	73113
2026-01-29 16:16:15.98	20.50	4.77	-44.3	-56.4	3.5	3.02e+01	0	29	104	0	60	25402
2026-01-29 16:16:16.99	20.51	4.84	-47.9	-65.3	3.5	3.02e+01	0	29	104	0	60	71040
2026-01-29 16:16:18.00	20.53	4.91	-40.6	-51.3	3.5	3.02e+01	0	29	104	0	56	17719
2026-01-29 16:16:19.01	20.54	4.99	-40.2	-50.9	3.5	3.02e+01	0	29	104	0	54	19122
2026-01-29 16:16:20.02	20.55	5.06	-40.2	-50.9	3.5	3.02e+01	0	29	104	0	54	19061
2026-01-29 16:16:21.03	20.57	5.14	-47.2	-62.3	3.5	3.02e+01	0	29	104	0	60	50203
2026-01-29 16:16:22.03	20.58	5.22	-40.2	-51.0	3.5	3.02e+01	0	29	104	0	52	21567
2026-01-29 16:16:23.04	20.59	5.29	-48.0	-65.8	3.5	3.02e+01	0	29	104	0	60	74673
2026-01-29 16:16:24.05	20.60	5.37	-44.5	-56.6	3.5	3.02e+01	0	29	104	0	60	26032
2026-01-29 16:16:25.06	20.62	5.44	-47.9	-65.5	3.5	3.02e+01	0	29	104	0	60	72771
2026-01-29 16:16:26.07	20.63	5.52	-43.8	-55.5	3.5	3.02e+01	0	29	104	0	60	22816
2026-01-29 16:16:27.08	20.64	5.60	-43.6	-55.1	3.5	3.02e+01	0	29	104	0	60	21792
2026-01-29 16:16:28.10	20.66	5.68	-41.8	-52.8	3.5	3.02e+01	0	29	104	0	60	16720
2026-01-29 16:16:29.11	20.67	5.75	-47.5	-63.8	3.5	3.02e+01	0	29	104	0	60	59578
2026-01-29 16:16:30.12	20.68	5.83	-48.0	-65.8	3.5	3.02e+01	0	29	104	0	60	75257
2026-01-29 16:16:31.12	20.70	5.91	-44.0	-55.7	3.5	3.02e+01	0	29	104	0	60	23452
2026-01-29 16:16:32.13	20.71	5.99	-37.8	-48.2	3.5	3.02e+01	0	29	104	0	50	17627
2026-01-29 16:16:33.15	20.72	6.07	-48.2	-66.0	3.5	3.02e+01	0	29	104	0	60	76428
2026-01-29 16:16:34.15	20.74	6.14	-38.0	-48.4	3.5	3.02e+01	0	29	104	0	50	18073
2026-01-29 16:16:35.16	20.75	6.22	-37.3	-47.6	3.5	3.02e+01	0	29	104	0	50	16482
2026-01-29 16:16:36.17	20.77	6.30	-37.5	-47.8	3.5	3.02e+01	0	29	104	0	50	16789
2026-01-29 16:16:37.18	20.78	6.38	-40.6	-51.3	3.5	3.02e+01	0	29	104	0	54	20059
2026-01-29 16:16:38.19	20.79	6.46	-39.0	-49.5	3.5	3.02e+01	0	29	104	0	54	16319
2026-01-29 16:16:39.20	20.81	6.54	-48.0	-64.9	3.5	3.02e+01	0	29	104	0	60	67394
2026-01-29 16:16:40.21	20.82	6.62	-40.2	-50.8	3.5	3.02e+01	0	29	104	0	60	13345
2026-01-29 16:16:41.22	20.84	6.70	-48.1	-65.7	3.5	3.02e+01	0	29	104	0	60	74465
2026-01-29 16:16:42.22	20.85	6.78	-38.0	-48.4	3.5	3.02e+01	0	29	104	0	52	16096
2026-01-29 16:16:43.23	20.86	6.86	-37.7	-48.1	3.5	3.02e+01	0	29	104	0	50	17358
2026-01-29 16:16:44.24	20.88	6.94	-37.2	-47.5	3.5	3.02e+01	0	29	104	0	50	16317
2026-01-29 16:16:45.25	20.89	7.03	-43.8	-55.4	3.5	3.02e+01	0	29	104	0	60	22615
2026-01-29 16:16:46.26	20.91	7.11	-38.2	-48.6	3.5	3.02e+01	0	29	104	0	50	18466
2026-01-29 16:16:47.27	20.92	7.19	-48.2	-65.6	3.5	3.02e+01	0	29	104	0	60	72983
2026-01-29 16:16:48.28	20.93	7.27	-41.9	-52.8	3.5	3.02e+01	0	29	104	0	60	16891
2026-01-29 16:16:49.29	20.95	7.36	-48.2	-66.1	3.5	3.02e+01	0	29	104	0	60	77934
2026-01-29 16:16:50.30	20.96	7.44	-41.8	-52.7	3.5	3.02e+01	0	29	104	0	60	16575
2026-01-29 16:16:51.31	20.98	7.52	-42.5	-53.5	3.5	3.02e+01	0	29	104	0	60	18201
2026-01-29 16:16:52.32	20.99	7.61	-41.1	-51.8	3.5	3.02e+01	0	29	104	0	60	15001
2026-01-29 16:16:53.33	21.01	7.69	-38.5	-48.9	3.5	3.02e+01	0	29	104	0	50	18987
2026-01-29 16:16:54.34	21.02	7.78	-46.5	-59.9	3.6	3.02e+01	0	29	104	0	60	37952
2026-01-29 16:16:55.35	21.04	7.86	-42.5	-53.6	3.5	3.02e+01	0	29	104	0	60	18465
2026-01-29 16:16:56.36	21.05	7.95	-39.0	-49.5	3.5	3.02e+01	0	29	104	0	52	18126
2026-01-29 16:16:57.37	21.07	8.03	-48.1	-64.4	3.5	3.02e+01	0	29	104	0	60	63829
2026-01-29 16:16:58.38	21.08	8.12	-39.5	-50.1	3.5	3.02e+01	0	29	104	0	54	17321
2026-01-29 16:16:59.39	21.10	8.20	-39.7	-50.3	3.5	3.02e+01	0	29	104	0	54	17840
2026-01-29 16:17:00.40	21.11	8.29	-37.6	-47.9	3.6	3.02e+01	0	29	104	0	50	17080
2026-01-29 16:17:01.40	21.13	8.37	-39.9	-50.4	3.5	3.02e+01	0	29	104	0	56	16098
2026-01-29 16:17:02.41	21.14	8.46	-39.4	-49.9	3.6	3.02e+01	0	29	104	0	56	15227
2026-01-29 16:17:03.42	21.16	8.55	-48.1	-64.5	3.6	3.02e+01	0	29	104	0	60	64848
2026-01-29 16:17:04.43	21.17	8.64	-40.9	-51.7	3.5	3.02e+01	0	29	104	0	56	18532
2026-01-29 16:17:05.44	21.19	8.73	-48.1	-64.6	3.5	3.02e+01	0	29	104	0	60	65252
2026-01-29 16:17:06.45	21.21	8.81	-42.2	-53.1	3.5	3.02e+01	0	29	104	0	60	17409
2026-01-29 16:17:07.46	21.22	8.90	-42.0	-52.9	3.5	3.02e+01	0	29	104	0	60	16943
2026-01-29 16:17:08.46	21.24	8.99	-37.6	-47.9	3.5	3.02e+01	0	29	104	0	52	15154
2026-01-29 16:17:09.47	21.25	9.08	-40.7	-51.3	3.6	3.02e+01	0	29	104	0	50	25245
2026-01-29 16:17:10.48	21.27	9.17	-40.3	-50.9	3.2	3.02e+01	0	29	104	0	60	13527
2026-01-29 16:17:11.48	21.28	9.26	-39.4	-49.9	3.3	3.02e+01	0	29	104	0	56	15186
2026-01-29 16:17:12.49	21.30	9.35	-40.6	-51.3	3.5	3.02e+01	0	29	104	0	50	25154
2026-01-29 16:17:13.50	21.32	9.44	-46.1	-58.9	3.5	3.02e+01	0	29	104	0	60	33825
2026-01-29 16:17:14.51	21.33	9.53	-36.9	-47.2	3.5	3.02e+01	0	29	104	0	50	15750
2026-01-29 16:17:15.53	21.35	9.62	-36.8	-47.0	3.5	3.02e+01	0	29	104	0	48	17252
2026-01-29 16:17:16.53	21.37	9.72	-42.9	-53.9	3.5	3.02e+01	0	29	104	0	54	27034
2026-01-29 16:17:17.54	21.38	9.81	-38.7	-49.1	3.5	3.02e+01	0	29	104	0	56	13837
2026-01-29 16:17:18.55	21.40	9.90	-40.8	-51.4	3.5	3.02e+01	0	29	104	0	50	25480
2026-01-29 16:17:19.57	21.42	10.00	-43.7	-55.2	3.5	3.02e+01	0	29	104	0	60	22162
2026-01-29 16:17:20.58	21.43	10.09	-38.5	-48.9	3.5	3.02e+01	0	29	104	0	48	21272
2026-01-29 16:17:21.58	21.45	10.18	-46.1	-58.9	3.5	3.02e+01	0	29	104	0	60	33837
2026-01-29 16:17:22.59	21.47	10.28	-40.5	-51.1	3.5	3.02e+01	0	29	104	0	56	17462
2026-01-29 16:17:23.60	21.48	10.37	-41.1	-51.8	3.5	3.02e+01	0	29	104	0	56	18809
2026-01-29 16:17:24.61	21.50	10.47	-37.3	-47.6	3.5	3.02e+01	0	29	104	0	50	16407
2026-01-29 16:17:25.62	21.52	10.56	-36.3	-46.5	3.5	3.02e+01	0	29	104	0	46	18269
2026-01-29 16:17:26.63	21.53	10.66	-42.1	-52.9	3.4	3.02e+01	0	29	104	0	50	30053
2026-01-29 16:17:27.64	21.55	10.75	-43.0	-54.4	3.5	3.02e+01	0	29	104	0	60	20120
2026-01-29 16:17:28.65	21.57	10.85	-39.3	-49.8	3.4	3.02e+01	0	29	104	0	48	23683
2026-01-29 16:17:29.66	21.59	10.95	-42.9	-54.1	3.5	3.02e+01	0	29	104	0	60	19447
2026-01-29 16:17:30.67	21.60	11.05	-39.1	-49.6	3.5	3.02e+01	0	29	104	0	54	16451
2026-01-29 16:17:31.68	21.62	11.14	-37.2	-47.5	3.5	3.02e+01	0	29	104	0	50	16157
2026-01-29 16:17:32.69	21.64	11.24	-38.2	-48.7	3.5	3.02e+01	0	29	104	0	48	20855
2026-01-29 16:17:33.70	21.66	11.34	-35.9	-46.2	3.5	3.02e+01	0	29	104	0	46	17527
2026-01-29 16:17:34.71	21.68	11.44	-46.4	-59.5	3.5	3.02e+01	0	29	104	0	60	36480
2026-01-29 16:17:35.72	21.69	11.54	-42.4	-53.5	3.5	3.02e+01	0	29	104	0	60	18137
2026-01-29 16:17:36.73	21.71	11.64	-44.0	-55.9	3.5	3.02e+01	0	29	104	0	54	34058
2026-01-29 16:17:37.74	21.73	11.74	-38.3	-48.7	3.5	3.02e+01	0	29	104	0	54	14856
2026-01-29 16:17:38.74	21.75	11.84	-36.7	-47.0	3.5	3.02e+01	0	29	104	0	48	17179
2026-01-29 16:17:39.75	21.77	11.94	-36.2	-46.4	3.5	3.02e+01	0	29	104	0	48	16117
2026-01-29 16:17:40.76	21.79	12.05	-43.4	-54.7	3.5	3.02e+01	0	29	104	0	56	26350
2026-01-29 16:17:41.77	21.81	12.15	-35.5	-45.6	3.5	3.02e+01	0	29	104	0	46	16495
2026-01-29 16:17:42.77	21.82	12.25	-46.9	-60.2	3.5	3.02e+01	0	29	104	0	60	39475
2026-01-29 16:17:43.78	21.84	12.36	-45.2	-57.4	3.5	3.02e+01	0	29	104	0	60	28676
2026-01-29 16:17:44.79	21.86	12.46	-46.3	-59.2	3.5	3.02e+01	0	29	104	0	58	39454
2026-01-29 16:17:45.80	21.88	12.56	-43.2	-54.4	3.5	3.02e+01	0	29	104	0	60	20204
2026-01-29 16:17:46.81	21.90	12.67	-42.1	-53.0	3.5	3.02e+01	0	29	104	0	58	19359
2026-01-29 16:17:47.82	21.92	12.78	-41.7	-52.5	3.5	3.02e+01	0	29	104	0	58	18196
2026-01-29 16:17:48.83	21.94	12.88	-48.5	-65.6	3.5	3.02e+01	0	29	104	0	60	73033
2026-01-29 16:17:49.84	21.96	12.99	-48.5	-66.1	3.5	3.02e+01	0	29	104	0	60	78050
2026-01-29 16:17:50.85	21.98	13.10	-44.5	-56.3	3.6	3.02e+01	0	29	104	0	58	28267
2026-01-29 16:17:51.86	22.00	13.20	-36.7	-47.0	3.5	3.02e+01	0	29	104	0	48	17150
2026-01-29 16:17:52.87	22.02	13.31	-48.4	-64.8	3.5	3.02e+01	0	29	104	0	60	67124
2026-01-29 16:17:53.88	22.04	13.42	-38.1	-48.5	3.5	3.02e+01	0	29	104	0	52	16266
2026-01-29 16:17:54.89	22.06	13.53	-37.6	-48.0	3.6	3.02e+01	0	29	104	0	50	17168
2026-01-29 16:17:55.90	22.08	13.64	-36.5	-46.8	3.5	3.02e+01	0	29	104	0	48	16724
2026-01-29 16:17:56.90	22.10	13.75	-40.1	-50.7	3.5	3.02e+01	0	29	104	0	52	20915
2026-01-29 16:17:57.91	22.12	13.86	-36.5	-46.8	3.5	3.02e+01	0	29	104	0	46	18819
2026-01-29 16:17:58.92	22.14	13.97	-48.7	-66.6	3.5	3.02e+01	0	29	104	0	60	82209
2026-01-29 16:17:59.93	22.16	14.08	-43.2	-54.3	3.5	3.02e+01	0	29	104	0	60	20078
2026-01-29 16:18:00.94	22.18	14.20	-48.6	-66.0	3.5	3.02e+01	0	29	104	0	60	76392
2026-01-29 16:18:01.95	22.20	14.31	-36.8	-47.0	3.5	3.02e+01	0	29	104	0	50	15388
2026-01-29 16:18:02.96	22.23	14.42	-36.7	-46.9	3.5	3.02e+01	0	29	104	0	48	17003
2026-01-29 16:18:03.97	22.25	14.54	-36.1	-46.3	3.5	3.02e+01	0	29	104	0	48	15825
2026-01-29 16:18:04.98	22.27	14.65	-46.8	-60.2	3.5	3.02e+01	0	29	104	0	60	39414
2026-01-29 16:18:05.99	22.29	14.77	-36.7	-46.9	3.5	3.02e+01	0	29	104	0	46	19060
2026-01-29 16:18:07.00	22.31	14.89	-48.6	-66.1	3.5	3.02e+01	0	30	104	0	60	77268
2026-01-29 16:18:08.01	22.34	15.00	-42.9	-54.0	3.5	3.02e+01	0	30	104	0	60	19356
2026-01-29 16:18:09.02	22.36	15.12	-48.7	-66.4	3.5	3.02e+01	0	30	104	0	60	80158
2026-01-29 16:18:10.03	22.38	15.24	-39.4	-49.7	3.5	3.02e+01	0	29	104	0	54	16698
2026-01-29 16:18:11.04	22.40	15.36	-37.7	-47.9	3.5	3.02e+01	0	30	104	0	50	17038
2026-01-29 16:18:12.05	22.42	15.48	-36.4	-46.7	3.6	3.02e+01	0	29	104	0	48	16540
2026-01-29 16:18:13.06	22.45	15.60	-40.4	-51.0	3.5	3.02e+01	0	29	104	0	54	19328
2026-01-29 16:18:14.07	22.47	15.72	-36.8	-47.0	3.5	3.02e+01	0	30	104	0	46	19343
2026-01-29 16:18:15.08	22.49	15.84	-48.7	-66.0	3.5	3.02e+01	0	29	104	0	60	76569
2026-01-29 16:18:16.09	22.52	15.96	-45.8	-58.2	3.6	3.02e+01	0	30	104	0	60	31321
2026-01-29 16:18:17.10	22.54	16.08	-48.5	-65.7	3.5	3.02e+01	0	30	104	0	60	74138
2026-01-29 16:18:18.11	22.56	16.21	-41.1	-51.7	3.5	3.02e+01	0	29	104	0	58	16612
2026-01-29 16:18:19.12	22.59	16.33	-39.4	-49.8	3.5	3.02e+01	0	29	104	0	54	16847
2026-01-29 16:18:20.13	22.61	16.46	-39.1	-49.6	3.5	3.02e+01	0	29	104	0	54	16326
2026-01-29 16:18:21.14	22.64	16.58	-42.8	-53.9	3.5	3.02e+01	0	29	104	0	60	19169
2026-01-29 16:18:22.15	22.66	16.71	-36.7	-46.9	3.5	3.02e+01	0	29	104	0	46	19151
2026-01-29 16:18:23.16	22.69	16.84	-48.8	-66.4	3.5	3.02e+01	0	29	104	0	60	80723
2026-01-29 16:18:24.17	22.71	16.96	-40.3	-50.9	3.6	3.02e+01	0	30	104	0	60	13505
2026-01-29 16:18:25.18	22.73	17.09	-48.8	-66.5	3.5	3.02e+01	0	29	104	0	60	81721
2026-01-29 16:18:26.19	22.76	17.22	-39.1	-49.5	3.5	3.02e+01	0	29	104	0	54	16172
2026-01-29 16:18:27.20	22.79	17.35	-39.0	-49.3	3.5	3.02e+01	0	30	104	0	52	17834
2026-01-29 16:18:28.21	22.81	17.48	-37.8	-48.0	3.6	3.02e+01	0	29	104	0	52	15380
2026-01-29 16:18:29.22	22.84	17.61	-36.6	-46.9	3.5	3.02e+01	0	29	104	0	48	16897
2026-01-29 16:18:30.23	22.86	17.74	-36.1	-46.3	3.5	3.02e+01	0	29	104	0	46	17854
2026-01-29 16:18:31.24	22.89	17.88	-48.6	-66.4	3.5	3.02e+01	0	29	104	0	60	80658
2026-01-29 16:18:32.24	22.91	18.01	-39.9	-50.4	3.5	3.02e+01	0	30	104	0	60	12807
2026-01-29 16:18:33.25	22.94	18.15	-48.4	-66.5	3.5	3.02e+01	0	30	104	0	60	80884
2026-01-29 16:18:34.26	22.97	18.28	-36.3	-46.5	3.5	3.02e+01	0	30	104	0	48	16218
2026-01-29 16:18:35.27	22.99	18.42	-35.9	-46.1	3.6	3.02e+01	0	29	104	0	46	17304
2026-01-29 16:18:36.28	23.02	18.55	-35.8	-46.0	3.5	3.02e+01	0	29	104	0	46	17258
2026-01-29 16:18:37.29	23.05	18.69	-40.9	-51.6	3.5	3.02e+01	0	30	104	0	56	18470
2026-01-29 16:18:38.30	23.08	18.83	-36.0	-46.3	3.6	3.02e+01	0	29	104	0	48	15866
2026-01-29 16:18:39.31	23.10	18.97	-48.7	-65.9	3.5	3.02e+01	0	29	104	0	60	76298
2026-01-29 16:18:40.32	23.13	19.11	-40.0	-50.6	3.5	3.02e+01	0	29	104	0	60	13034
2026-01-29 16:18:41.33	23.16	19.25	-48.7	-66.1	3.5	3.02e+01	0	29	104	0	60	77322
2026-01-29 16:18:42.34	23.19	19.39	-41.6	-52.3	3.5	3.02e+01	0	29	104	0	58	17715
2026-01-29 16:18:43.35	23.22	19.54	-40.3	-50.8	3.5	3.02e+01	0	29	104	0	56	16771
2026-01-29 16:18:44.36	23.25	19.68	-38.5	-48.8	3.5	3.02e+01	0	29	104	0	52	16886
2026-01-29 16:18:45.36	23.28	19.83	-38.1	-48.5	3.5	3.02e+01	0	29	104	0	54	14387
2026-01-29 16:18:46.38	23.31	19.97	-36.4	-46.6	3.6	3.02e+01	0	29	104	0	46	18435
2026-01-29 16:18:47.38	23.33	20.12	-48.3	-64.2	3.5	3.02e+01	0	29	104	0	60	62692
2026-01-29 16:18:48.39	23.36	20.27	-37.1	-47.4	3.5	3.02e+01	0	29	104	0	52	14220
2026-01-29 16:18:49.40	23.39	20.42	-48.5	-64.7	3.5	3.02e+01	0	30	104	0	60	66447
2026-01-29 16:18:50.41	23.43	20.56	-38.8	-49.2	3.5	3.02e+01	0	29	104	0	54	15711
2026-01-29 16:18:51.42	23.46	20.72	-37.1	-47.4	3.6	3.02e+01	0	30	104	0	50	15968
2026-01-29 16:18:52.43	23.49	20.87	-36.0	-46.1	3.5	3.02e+01	0	29	104	0	48	15581
2026-01-29 16:18:53.44	23.52	21.02	-36.9	-47.2	3.5	3.02e+01	0	29	104	0	50	15613
2026-01-29 16:18:54.45	23.55	21.17	-36.5	-46.7	3.5	3.02e+01	0	29	104	0	46	18598
2026-01-29 16:18:55.46	23.58	21.33	-45.8	-58.2	3.5	3.02e+01	0	29	104	0	60	31158
2026-01-29 16:18:56.47	23.61	21.48	-36.3	-46.5	3.5	3.02e+01	0	29	104	0	46	18217
2026-01-29 16:18:57.48	23.65	21.64	-46.4	-59.2	3.6	3.02e+01	0	30	104	0	60	35192
2026-01-29 16:18:58.49	23.68	21.80	-38.7	-49.1	3.5	3.02e+01	0	29	104	0	52	17474
2026-01-29 16:18:59.50	23.71	21.96	-37.3	-47.6	3.5	3.02e+01	0	30	104	0	50	16405
2026-01-29 16:19:00.51	23.75	22.12	-36.9	-47.3	3.5	3.02e+01	0	29	104	0	48	17704
2026-01-29 16:19:01.52	23.78	22.28	-36.1	-46.4	3.5	3.02e+01	0	30	104	0	48	15967
2026-01-29 16:19:02.53	23.81	22.44	-40.1	-50.5	3.5	3.02e+01	0	30	104	0	48	25863
2026-01-29 16:19:03.53	23.85	22.60	-45.7	-58.1	3.5	3.02e+01	0	30	104	0	60	30794
2026-01-29 16:19:04.54	23.88	22.77	-37.2	-47.5	3.5	3.02e+01	0	30	104	0	48	18187
2026-01-29 16:19:05.55	23.92	22.93	-45.5	-57.5	3.6	3.02e+01	0	29	104	0	60	28968
2026-01-29 16:19:06.56	23.95	23.10	-38.7	-49.1	3.5	3.02e+01	0	29	104	0	52	17394
2026-01-29 16:19:07.57	23.99	23.27	-37.0	-47.3	3.5	3.02e+01	0	29	104	0	50	15804
2026-01-29 16:19:08.58	24.03	23.44	-37.3	-47.6	3.5	3.02e+01	0	29	104	0	48	18438
2026-01-29 16:19:09.59	24.06	23.61	-35.7	-45.9	3.5	3.02e+01	0	29	104	0	48	15212
2026-01-29 16:19:10.59	24.10	23.78	-41.4	-52.0	3.5	3.02e+01	0	29	104	0	50	27224
2026-01-29 16:19:11.61	24.14	23.95	-43.7	-55.0	3.5	3.02e+01	0	30	104	0	60	21607
2026-01-29 16:19:12.62	24.17	24.13	-41.3	-51.9	3.5	3.02e+01	0	30	104	0	50	27032
2026-01-29 16:19:13.63	24.21	24.30	-42.5	-53.4	3.5	3.02e+01	0	30	104	0	60	18022
2026-01-29 16:19:14.64	24.25	24.48	-38.5	-48.8	3.5	3.02e+01	0	30	104	0	52	16894
2026-01-29 16:19:15.65	24.29	24.66	-37.2	-47.4	3.5	3.02e+01	0	29	104	0	50	16103
2026-01-29 16:19:16.66	24.33	24.84	-39.5	-49.9	3.5	3.02e+01	0	30	104	0	50	21450
2026-01-29 16:19:17.67	24.37	25.02	-35.8	-46.0	3.5	3.02e+01	0	29	104	0	46	17264
2026-01-29 16:19:18.68	24.41	25.20	-47.5	-61.1	3.5	3.02e+01	0	30	104	0	60	43852
2026-01-29 16:19:19.69	24.45	25.38	-44.4	-56.0	3.6	3.02e+01	0	30	104	0	60	24327
2026-01-29 16:19:20.70	24.49	25.57	-43.0	-53.9	3.5	3.02e+01	0	30	104	0	52	30299
2026-01-29 16:19:21.71	24.53	25.75	-42.0	-52.9	3.5	3.02e+01	0	30	104	0	60	16907
2026-01-29 16:19:22.72	24.57	25.94	-38.4	-48.8	3.5	3.02e+01	0	30	104	0	52	16740
2026-01-29 16:19:23.73	24.61	26.13	-37.0	-47.2	3.5	3.02e+01	0	29	104	0	50	15745
2026-01-29 16:19:24.73	24.66	26.32	-39.8	-50.3	3.5	3.02e+01	0	29	104	0	50	22293
2026-01-29 16:19:25.75	24.70	26.51	-35.4	-45.6	3.5	3.02e+01	0	29	104	0	44	18436
2026-01-29 16:19:26.75	24.74	26.70	-48.3	-63.5	3.5	3.02e+01	0	29	104	0	60	57840
2026-01-29 16:19:27.76	24.79	26.90	-43.9	-55.4	3.5	3.02e+01	0	29	104	0	60	22585
2026-01-29 16:19:28.77	24.83	27.09	-47.5	-61.6	3.4	3.02e+01	0	30	104	0	60	46499
2026-01-29 16:19:29.78	24.88	27.29	-37.0	-47.3	3.5	3.02e+01	0	30	104	0	50	15877
2026-01-29 16:19:30.79	24.92	27.49	-36.1	-46.4	3.5	3.02e+01	0	30	104	0	48	15971
2026-01-29 16:19:31.80	24.97	27.69	-36.2	-46.4	3.6	3.02e+01	0	29	104	0	48	16036
2026-01-29 16:19:32.81	25.02	27.89	-45.4	-57.6	3.5	3.02e+01	0	30	104	0	60	29121
2026-01-29 16:19:33.82	25.06	28.10	-35.7	-46.0	3.5	3.02e+01	0	30	104	0	46	17117
2026-01-29 16:19:34.82	25.11	28.30	-48.7	-65.6	3.5	3.02e+01	0	29	104	0	60	73212
2026-01-29 16:19:35.83	25.16	28.51	-46.8	-60.0	3.5	3.02e+01	0	29	104	0	60	38634
2026-01-29 16:19:36.84	25.21	28.72	-48.5	-65.2	3.5	3.02e+01	0	30	104	0	60	70349
2026-01-29 16:19:37.85	25.26	28.93	-42.7	-53.6	3.5	3.02e+01	0	29	104	0	60	18492
2026-01-29 16:19:38.86	25.31	29.14	-40.5	-51.1	3.5	3.02e+01	0	29	104	0	56	17303
2026-01-29 16:19:39.87	25.36	29.35	-40.0	-50.5	3.5	3.02e+01	0	29	104	0	54	18256
2026-01-29 16:19:40.88	25.41	29.57	-38.3	-48.6	3.5	3.02e+01	0	30	104	0	50	18458
2026-01-29 16:19:41.89	25.47	29.79	-48.8	-65.9	3.5	3.02e+01	0	30	104	0	60	75489
2026-01-29 16:19:42.90	25.52	30.01	-46.1	-58.7	3.5	3.02e+01	0	29	104	0	60	33124
2026-01-29 16:19:43.90	25.57	30.23	-36.8	-47.1	3.5	3.02e+01	0	30	104	0	50	15461
2026-01-29 16:19:44.92	25.63	30.45	-48.0	-62.8	3.5	3.02e+01	0	29	104	0	60	52988
2026-01-29 16:19:45.93	25.68	30.68	-38.2	-48.6	3.5	3.02e+01	0	30	104	0	54	14599
2026-01-29 16:19:46.93	25.74	30.90	-37.4	-47.8	3.5	3.02e+01	0	30	104	0	50	16748
2026-01-29 16:19:47.94	25.80	31.13	-36.3	-46.5	3.5	3.02e+01	0	29	104	0	48	16300
2026-01-29 16:19:48.95	25.85	31.36	-48.1	-63.3	3.5	3.02e+01	0	30	104	0	60	56208
2026-01-29 16:19:49.96	25.91	31.59	-47.5	-61.6	3.5	3.02e+01	0	30	104	0	60	46064
2026-01-29 16:19:50.97	25.97	31.83	-48.7	-65.5	3.5	3.02e+01	0	30	104	0	60	72106
2026-01-29 16:19:51.98	26.03	32.06	-39.5	-50.0	3.5	3.02e+01	0	30	104	0	54	17189
2026-01-29 16:19:52.98	26.09	32.30	-48.8	-65.2	3.5	3.02e+01	0	30	104	0	60	70192
2026-01-29 16:19:53.99	26.15	32.54	-39.0	-49.4	3.5	3.02e+01	0	30	104	0	54	16053
2026-01-29 16:19:55.00	26.21	32.78	-37.5	-47.6	3.6	3.02e+01	0	30	104	0	50	16509
2026-01-29 16:19:56.01	26.28	33.02	-36.5	-46.7	3.5	3.02e+01	0	30	104	0	48	16567
2026-01-29 16:19:57.02	26.34	33.27	-44.5	-56.2	3.5	3.02e+01	0	29	104	0	60	24921
2026-01-29 16:19:58.02	26.41	33.52	-36.9	-47.2	3.5	3.02e+01	0	30	104	0	46	19795
2026-01-29 16:19:59.03	26.47	33.77	-48.6	-64.7	3.5	3.02e+01	0	30	104	0	60	66032
2026-01-29 16:20:00.04	26.54	34.02	-44.8	-56.5	3.5	3.02e+01	0	29	104	0	60	25723
2026-01-29 16:20:01.05	26.61	34.28	-48.9	-66.3	3.5	3.02e+01	0	29	104	0	60	79520
2026-01-29 16:20:02.06	26.68	34.53	-39.5	-49.9	3.5	3.02e+01	0	30	104	0	54	17089
2026-01-29 16:20:03.07	26.75	34.79	-38.2	-48.6	3.6	3.02e+01	0	29	104	0	52	16332
2026-01-29 16:20:04.08	26.82	35.05	-37.3	-47.6	3.5	3.02e+01	0	29	104	0	50	16358
2026-01-29 16:20:05.09	26.89	35.32	-44.8	-56.5	3.5	3.02e+01	0	29	104	0	60	25858
2026-01-29 16:20:06.10	26.97	35.58	-38.1	-48.5	3.5	3.02e+01	0	30	104	0	48	20419
2026-01-29 16:20:07.11	27.04	35.85	-48.8	-65.0	3.5	3.02e+01	0	30	104	0	60	68589
2026-01-29 16:20:08.12	27.12	36.12	-43.2	-54.3	3.5	3.02e+01	0	29	104	0	60	19941
2026-01-29 16:20:09.13	27.20	36.40	-48.8	-66.3	3.5	3.02e+01	0	29	104	0	60	79688
2026-01-29 16:20:10.13	27.27	36.67	-40.2	-50.6	3.5	3.02e+01	0	30	104	0	56	16506
2026-01-29 16:20:11.15	27.35	36.95	-38.7	-49.1	3.5	3.02e+01	0	29	104	0	52	17350
2026-01-29 16:20:12.16	27.44	37.23	-38.2	-48.6	3.5	3.02e+01	0	30	104	0	52	16362
2026-01-29 16:20:13.17	27.52	37.52	-43.9	-55.4	3.6	3.02e+01	0	30	104	0	60	22537
2026-01-29 16:20:14.18	27.60	37.80	-38.1	-48.4	3.5	3.02e+01	0	30	104	0	50	18066
2026-01-29 16:20:15.18	27.69	38.09	-48.7	-65.1	3.5	3.02e+01	0	29	104	0	60	69442
2026-01-29 16:20:16.19	27.77	38.38	-42.7	-53.7	3.5	3.02e+01	0	30	104	0	60	18547
2026-01-29 16:20:17.20	27.86	38.67	-49.0	-66.4	3.5	3.02e+01	0	30	104	0	60	80272
2026-01-29 16:20:18.21	27.95	38.97	-41.2	-51.9	3.5	3.02e+01	0	30	104	0	58	16943
2026-01-29 16:20:19.22	28.04	39.27	-39.6	-50.1	3.5	3.02e+01	0	30	104	0	54	17310
2026-01-29 16:20:20.23	28.14	39.57	-38.2	-48.6	3.5	3.02e+01	0	29	104	0	52	16380
2026-01-29 16:20:21.24	28.23	39.87	-43.6	-54.8	3.5	3.02e+01	0	30	104	0	60	21082
2026-01-29 16:20:22.25	28.33	40.18	-37.7	-48.1	3.5	3.02e+01	0	30	104	0	50	17354
2026-01-29 16:20:23.25	28.43	40.49	-48.6	-65.0	3.5	3.02e+01	0	30	104	0	60	68807
2026-01-29 16:20:24.26	28.53	40.80	-39.7	-50.2	3.4	3.02e+01	0	30	104	0	60	12417
2026-01-29 16:20:25.27	28.63	41.11	-49.0	-66.4	3.5	3.02e+01	0	29	104	0	60	80390
2026-01-29 16:20:26.28	28.74	41.43	-37.7	-48.2	3.5	3.02e+01	0	30	104	0	50	17495
2026-01-29 16:20:27.29	28.84	41.75	-37.3	-47.6	3.5	3.02e+01	0	29	104	0	50	16404
2026-01-29 16:20:28.30	28.95	42.08	-36.7	-46.9	3.5	3.02e+01	0	30	104	0	48	17007
2026-01-29 16:20:29.30	29.06	42.40	-45.3	-57.2	3.5	3.02e+01	0	29	104	0	60	27818
2026-01-29 16:20:30.31	29.17	42.73	-36.9	-47.2	3.5	3.02e+01	0	30	104	0	48	17632
2026-01-29 16:20:31.32	29.29	43.06	-48.3	-64.5	3.5	3.02e+01	0	30	104	0	60	64276
2026-01-29 16:20:32.33	29.41	43.40	-37.5	-47.8	3.5	3.02e+01	0	30	104	0	54	13353
2026-01-29 16:20:33.33	29.53	43.73	-48.6	-65.4	3.6	3.02e+01	0	30	104	0	60	72034
2026-01-29 16:20:34.34	29.65	44.07	-38.6	-49.0	3.5	3.02e+01	0	30	104	0	52	17196
2026-01-29 16:20:35.35	29.77	44.42	-38.9	-49.3	3.5	3.02e+01	0	30	104	0	52	17765
2026-01-29 16:20:36.36	29.90	44.77	-36.9	-47.2	3.5	3.02e+01	0	30	104	0	52	13978
2026-01-29 16:20:37.37	30.03	45.12	-35.0	-45.1	3.5	3.02e+01	0	30	104	0	46	15570
2026-01-29 16:20:38.37	30.16	45.47	-36.2	-46.4	3.5	3.02e+01	0	30	104	0	46	17973
2026-01-29 16:20:39.38	30.30	45.83	-48.6	-64.3	3.5	3.02e+01	0	29	104	0	60	63132
2026-01-29 16:20:40.39	30.44	46.19	-36.7	-47.0	3.5	3.02e+01	0	30	104	0	52	13672
2026-01-29 16:20:41.40	30.58	46.55	-48.4	-64.0	3.5	3.02e+01	0	30	104	0	60	60646
2026-01-29 16:20:42.41	30.73	46.92	-38.8	-49.3	3.5	3.02e+01	0	30	104	0	52	17866
2026-01-29 16:20:43.42	30.88	47.29	-37.4	-47.7	3.5	3.02e+01	0	30	104	0	50	16591
2026-01-29 16:20:44.43	31.03	47.66	-36.2	-46.5	3.5	3.02e+01	0	30	104	0	48	16172
2026-01-29 16:20:45.44	31.19	48.04	-38.4	-48.8	3.5	3.02e+01	0	30	104	0	56	13344
2026-01-29 16:20:46.45	31.35	48.41	-36.5	-46.8	3.5	3.02e+01	0	30	104	0	46	18841
2026-01-29 16:20:47.46	31.52	48.80	-47.7	-61.9	3.5	3.02e+01	0	29	104	0	60	47963
2026-01-29 16:20:48.47	31.68	49.18	-36.5	-46.8	3.5	3.02e+01	0	30	104	0	48	16827
2026-01-29 16:20:49.48	31.86	49.57	-45.1	-57.0	3.5	3.02e+01	0	30	104	0	60	27364
2026-01-29 16:20:50.48	32.03	49.96	-39.1	-49.5	3.5	3.02e+01	0	29	104	0	52	18137
2026-01-29 16:20:51.50	32.22	50.36	-38.6	-48.9	3.5	3.02e+01	0	29	104	0	52	16995
2026-01-29 16:20:52.50	32.40	50.76	-35.4	-45.7	3.5	3.02e+01	0	30	104	0	48	14749
2026-01-29 16:20:53.51	32.59	51.16	-35.0	-45.1	3.5	3.02e+01	0	29	104	0	46	15483
2026-01-29 16:20:54.52	32.79	51.57	-41.5	-52.2	3.5	3.02e+01	0	29	104	0	48	31134
2026-01-29 16:20:55.53	32.99	51.97	-47.4	-61.2	3.5	3.02e+01	0	30	104	0	60	44375
2026-01-29 16:20:56.53	33.20	52.38	-36.0	-46.1	3.5	3.02e+01	0	29	104	0	46	17454
2026-01-29 16:20:57.54	33.41	52.80	-43.1	-54.1	3.5	3.02e+01	0	30	104	0	60	19489
2026-01-29 16:20:58.55	33.63	53.22	-37.4	-47.7	3.5	3.02e+01	0	30	104	0	50	16645
2026-01-29 16:20:59.56	33.86	53.64	-37.2	-47.5	3.5	3.02e+01	0	29	104	0	50	16243
2026-01-29 16:21:00.57	34.09	54.07	-34.4	-44.5	3.5	3.02e+01	0	30	104	0	44	16188
2026-01-29 16:21:01.58	34.33	54.49	-34.3	-44.4	3.5	3.02e+01	0	30	104	0	44	16108
2026-01-29 16:21:02.59	34.58	54.93	-43.6	-54.8	3.4	3.02e+01	0	30	104	0	50	37526
2026-01-29 16:21:03.60	34.83	55.36	-47.2	-60.7	3.5	3.02e+01	0	30	104	0	60	41552
2026-01-29 16:21:04.61	35.10	55.80	-40.2	-50.8	3.4	3.02e+01	0	29	104	0	48	26622
2026-01-29 16:21:05.62	35.37	56.24	-42.9	-53.8	3.7	3.02e+01	0	30	104	0	60	18785
2026-01-29 16:21:06.63	35.65	56.68	-39.0	-49.4	3.5	3.02e+01	0	30	104	0	52	18001
2026-01-29 16:21:07.63	35.93	57.13	-38.7	-49.1	3.5	3.02e+01	0	30	104	0	52	17373
2026-01-29 16:21:08.64	36.23	57.58	-36.0	-46.3	3.5	3.02e+01	0	30	104	0	46	17731
2026-01-29 16:21:09.65	36.54	58.03	-36.4	-46.6	3.5	3.02e+01	0	30	104	0	48	16379
2026-01-29 16:21:10.66	36.86	58.49	-48.7	-65.0	3.5	3.02e+01	0	30	104	0	60	68352
2026-01-29 16:21:11.67	37.19	58.95	-47.1	-60.7	3.5	3.02e+01	0	30	104	0	60	41816
2026-01-29 16:21:12.68	37.53	59.41	-42.1	-52.8	3.5	3.02e+01	0	30	104	0	52	26611
2026-01-29 16:21:13.69	37.89	59.87	-40.9	-51.5	3.5	3.02e+01	0	30	104	0	60	14498
2026-01-29 16:21:14.70	38.25	60.34	-39.8	-50.4	3.5	3.02e+01	0	30	104	0	54	17902
2026-01-29 16:21:15.71	38.63	60.81	-39.2	-49.7	3.5	3.02e+01	0	29	104	0	54	16655
2026-01-29 16:21:16.72	39.03	61.28	-45.1	-56.8	3.5	3.02e+01	0	30	104	0	58	29885
2026-01-29 16:21:17.73	39.44	61.76	-38.0	-48.4	3.5	3.02e+01	0	29	104	0	50	18058
2026-01-29 16:21:18.74	39.86	62.24	-48.7	-65.3	3.5	3.02e+01	0	29	104	0	60	70482
2026-01-29 16:21:19.75	40.31	62.71	-44.2	-55.6	3.5	3.02e+01	0	29	104	0	60	23083
2026-01-29 16:21:20.76	40.77	63.19	-44.3	-55.7	3.4	3.02e+01	0	29	104	0	56	29594
2026-01-29 16:21:21.76	41.25	63.67	-42.0	-52.9	3.5	3.02e+01	0	30	104	0	60	16932
2026-01-29 16:21:22.77	41.75	64.16	-42.0	-53.0	3.5	3.02e+01	0	30	104	0	58	19281
2026-01-29 16:21:23.78	42.27	64.64	-41.3	-51.9	3.5	3.02e+01	0	30	104	0	58	17068
2026-01-29 16:21:24.79	42.81	65.13	-44.6	-56.1	3.5	3.02e+01	0	30	104	0	60	24701
2026-01-29 16:21:25.80	43.38	65.62	-40.8	-51.6	3.5	3.02e+01	0	30	104	0	58	16452
2026-01-29 16:21:26.81	43.98	66.11	-48.8	-65.6	3.5	3.02e+01	0	29	104	0	60	73548
2026-01-29 16:21:27.82	44.60	66.60	-48.5	-64.3	3.5	3.02e+01	0	30	104	0	60	63283
2026-01-29 16:21:28.83	45.25	67.09	-48.1	-63.3	3.5	3.02e+01	0	30	104	0	60	56021
2026-01-29 16:21:29.84	45.93	67.58	-43.0	-53.9	3.5	3.02e+01	0	30	104	0	60	19000
2026-01-29 16:21:30.84	46.64	68.07	-43.1	-54.5	3.5	3.02e+01	0	30	104	0	60	20544
2026-01-29 16:21:31.85	47.39	68.56	-42.3	-52.9	3.5	3.02e+01	0	30	104	0	60	17027
2026-01-29 16:21:32.86	48.18	69.05	-44.7	-56.3	3.5	3.02e+01	0	29	104	0	60	25024
2026-01-29 16:21:33.87	49.01	69.53	-42.0	-53.3	3.5	3.02e+01	0	30	104	0	60	17752
2026-01-29 16:21:34.88	49.88	70.02	-48.9	-65.7	3.5	3.02e+01	0	30	104	0	60	74227
2026-01-29 16:21:35.89	50.80	70.51	-48.7	-65.1	3.5	3.02e+01	0	30	104	0	60	68989
2026-01-29 16:21:36.90	51.77	70.99	-48.3	-63.7	3.4	3.02e+01	0	30	104	0	60	59213
2026-01-29 16:21:37.91	52.79	71.47	-41.9	-52.8	3.5	3.02e+01	0	30	104	0	60	16833
2026-01-29 16:21:38.92	53.87	71.94	-41.8	-52.9	3.5	3.02e+01	0	30	104	0	58	18965
2026-01-29 16:21:39.93	55.01	72.41	-40.9	-51.5	3.6	3.02e+01	0	30	104	0	56	18135
2026-01-29 16:21:40.94	56.22	72.88	-45.8	-58.2	3.5	3.02e+01	0	30	104	0	60	31261
2026-01-29 16:21:41.94	57.48	73.34	-39.2	-49.5	3.5	3.02e+01	0	30	104	0	52	18168
2026-01-29 16:21:42.95	58.84	73.79	-48.8	-65.4	3.5	3.02e+01	0	30	104	0	60	72071
2026-01-29 16:21:43.96	60.27	74.24	-47.3	-61.1	3.5	3.02e+01	0	30	104	0	60	43634
2026-01-29 16:21:44.96	61.78	74.68	-47.7	-62.0	3.5	3.02e+01	0	30	104	0	60	48316
2026-01-29 16:21:45.97	63.39	75.11	-42.2	-53.0	3.5	3.02e+01	0	30	104	0	60	17174
2026-01-29 16:21:46.98	65.10	75.52	-43.2	-54.6	3.5	3.02e+01	0	30	104	0	60	20645
2026-01-29 16:21:47.99	66.91	75.93	-42.7	-53.6	3.5	3.02e+01	0	30	104	0	60	18449
2026-01-29 16:21:49.00	68.84	76.33	-38.5	-49.0	3.5	3.02e+01	0	30	104	0	52	17282
2026-01-29 16:21:50.01	70.88	76.71	-39.0	-49.4	3.5	3.02e+01	0	30	104	0	52	18098
2026-01-29 16:21:51.02	73.04	77.07	-48.8	-65.6	3.5	3.02e+01	0	30	104	0	60	73638
2026-01-29 16:21:52.03	75.32	77.42	-47.7	-62.3	3.5	3.02e+01	0	30	104	0	60	50012
2026-01-29 16:21:53.03	77.71	77.74	-48.7	-65.7	3.5	3.02e+01	0	30	104	0	60	74061
2026-01-29 16:21:54.04	80.26	78.04	-42.6	-53.6	3.5	3.02e+01	0	30	104	0	58	20764
2026-01-29 16:21:55.05	82.93	78.32	-41.8	-52.3	3.5	3.02e+01	0	30	104	0	58	17897
2026-01-29 16:21:56.06	85.74	78.58	-41.0	-52.0	3.5	3.02e+01	0	30	104	0	58	17093
2026-01-29 16:21:57.07	88.67	78.81	-43.6	-54.8	3.5	3.02e+01	0	30	104	0	60	21146
2026-01-29 16:21:58.08	91.71	79.00	-49.0	-66.3	3.5	3.02e+01	0	30	104	0	60	79512
2026-01-29 16:21:59.09	94.86	79.17	-48.8	-65.6	3.5	3.02e+01	0	30	104	0	60	72982
2026-01-29 16:22:00.10	98.10	79.30	-40.2	-50.7	3.5	3.02e+01	0	30	104	0	58	14742
2026-01-29 16:22:01.11	101.41	79.40	-48.8	-65.7	3.5	3.02e+01	0	30	104	0	60	73838
2026-01-29 16:22:02.12	104.77	79.47	-40.6	-51.1	3.4	3.02e+01	0	30	104	0	58	15576
2026-01-29 16:22:03.13	108.17	79.50	-42.1	-52.8	3.4	3.02e+01	0	30	104	0	56	21109
2026-01-29 16:22:04.14	111.57	79.49	-40.0	-41.8	20.9	3.02e+01	0	30	104	0	56	5975
2026-01-29 16:22:05.15	114.96	79.45	-48.8	-59.7	4.7	3.02e+01	25	30	0	524288	60	37206
2026-01-29 16:22:06.16	118.31	79.37	-47.4	-53.6	13.8	3.02e+01	53	30	104	524288	60	18394
2026-01-29 16:22:07.17	121.59	79.26	-49.1	-64.2	3.6	3.02e+01	0	30	104	1572864	60	62121
2026-01-29 16:22:08.17	124.77	79.11	-37.8	-39.2	27.0	3.02e+01	59	30	0	1572864	50	6214
2026-01-29 16:22:09.19	127.91	78.93	-48.8	-60.0	6.4	3.02e+01	92	30	104	2621440	60	38595
2026-01-29 16:22:10.19	130.88	78.72	-37.7	-39.1	27.1	3.02e+01	58	30	0	3145728	50	6139
2026-01-29 16:22:11.21	133.79	78.48	-37.9	-39.3	27.0	3.02e+01	55	30	0	5242880	50	6319
2026-01-29 16:22:12.22	136.54	78.21	-37.2	-38.4	27.7	3.02e+01	59	30	0	7340032	50	5723
2026-01-29 16:22:13.22	139.14	77.93	-37.4	-38.7	27.5	3.02e+01	57	30	0	8912896	48	6586
2026-01-29 16:22:14.24	141.66	77.61	-37.8	-39.2	26.9	3.02e+01	60	30	0	11010048	48	6974
2026-01-29 16:22:15.25	144.02	77.28	-37.5	-38.8	27.4	3.02e+01	58	30	0	12582912	50	5947
2026-01-29 16:22:16.26	146.26	76.92	-37.2	-38.5	27.4	3.02e+01	58	30	0	14680064	50	5752
2026-01-29 16:22:17.26	148.35	76.56	-37.7	-39.1	27.0	3.02e+01	45	30	0	16777216	50	6152
2026-01-29 16:22:18.28	150.36	76.17	-37.6	-38.9	27.1	3.02e+01	58	30	0	18350080	50	6029
2026-01-29 16:22:19.29	152.24	75.76	-37.7	-39.0	27.2	3.02e+01	53	30	0	20447232	50	6099
2026-01-29 16:22:20.29	154.00	75.36	-37.4	-38.8	27.3	3.02e+01	58	30	0	22020096	50	5927
2026-01-29 16:22:21.30	155.67	74.93	-37.9	-39.3	26.9	3.02e+01	60	30	0	24117248	50	6335
2026-01-29 16:22:22.31	157.24	74.50	-37.6	-39.0	27.1	3.02e+01	61	30	0	26214400	50	6074
2026-01-29 16:22:23.32	158.73	74.05	-37.4	-38.7	27.3	3.02e+01	62	30	0	27787264	50	5926
2026-01-29 16:22:24.33	160.13	73.60	-37.7	-39.0	27.1	3.02e+01	57	30	0	29884416	50	6122
2026-01-29 16:22:25.34	161.45	73.14	-38.8	-40.3	24.1	3.02e+01	45	30	0	31457280	50	7081
2026-01-29 16:22:26.35	162.70	72.68	-37.7	-39.0	27.1	3.02e+01	60	30	0	33554432	50	6098
2026-01-29 16:22:27.36	163.88	72.21	-37.7	-39.0	27.2	3.02e+01	60	30	0	35651584	50	6094
2026-01-29 16:22:28.37	164.99	71.74	-38.5	-39.9	26.2	3.02e+01	61	30	0	37224448	50	6804
2026-01-29 16:22:29.38	166.05	71.26	-38.0	-39.4	26.7	3.02e+01	62	30	0	39321600	50	6373
2026-01-29 16:22:30.39	167.05	70.78	-38.1	-39.4	26.7	3.02e+01	58	30	0	40894464	50	6411
2026-01-29 16:22:31.40	168.00	70.29	-38.4	-39.8	26.4	3.02e+01	62	30	0	42991616	50	6726
2026-01-29 16:22:32.41	168.90	69.81	-38.6	-40.1	26.1	3.02e+01	58	30	0	45088768	50	6893
2026-01-29 16:22:33.42	169.75	69.32	-38.3	-39.8	26.4	3.02e+01	58	30	0	46661632	50	6657
2026-01-29 16:22:34.43	170.56	68.83	-38.6	-40.0	26.1	3.02e+01	60	30	0	48758784	50	6881
2026-01-29 16:22:35.43	171.33	68.34	-38.7	-40.1	26.1	3.02e+01	61	30	0	50855936	50	6915
2026-01-29 16:22:36.44	172.07	67.85	-38.4	-39.8	26.4	3.02e+01	60	30	0	52428800	50	6694
2026-01-29 16:22:37.45	172.77	67.36	-38.2	-39.6	26.6	3.02e+01	56	30	0	54525952	50	6510
2026-01-29 16:22:38.46	173.44	66.87	-38.2	-39.6	26.6	3.02e+01	50	30	0	56098816	50	6517
2026-01-29 16:22:39.47	174.07	66.38	-37.4	-38.7	27.4	3.02e+01	59	30	0	58195968	50	5875
2026-01-29 16:22:40.48	174.69	65.88	-38.3	-39.8	26.2	3.02e+01	59	30	0	60293120	50	6652
2026-01-29 16:22:41.49	175.27	65.39	-38.4	-39.8	26.3	3.02e+01	61	30	0	61865984	50	6709
2026-01-29 16:22:42.50	175.83	64.91	-38.7	-40.1	26.3	3.02e+01	61	30	0	63963136	50	6940
2026-01-29 16:22:43.51	176.36	64.42	-37.2	-38.5	27.6	3.02e+01	46	29	0	65536000	50	5770
2026-01-29 16:22:44.52	176.88	63.93	-37.2	-38.5	27.6	3.02e+01	59	30	0	67633152	48	6483
2026-01-29 16:22:45.53	177.37	63.45	-36.8	-38.1	27.9	3.02e+01	58	30	0	69730304	48	6181
2026-01-29 16:22:46.54	177.84	62.96	-36.4	-37.6	28.3	3.02e+01	46	30	0	71303168	48	5850
2026-01-29 16:22:47.55	178.29	62.48	-36.8	-38.1	27.8	3.02e+01	60	30	0	73400320	48	6152
2026-01-29 16:22:48.56	178.73	62.00	-36.1	-37.3	28.6	3.02e+01	59	30	0	75497472	46	6315
2026-01-29 16:22:49.57	179.15	61.53	-35.9	-37.1	28.8	3.02e+01	59	30	0	77070336	46	6197
2026-01-29 16:22:50.58	179.55	61.05	-36.5	-37.8	28.1	3.02e+01	58	30	0	79167488	46	6699
2026-01-29 16:22:51.58	179.94	60.58	-36.0	-37.2	28.7	3.02e+01	50	29	0	80740352	46	6262
2026-01-29 16:22:52.60	180.32	60.11	-36.0	-37.2	28.7	3.02e+01	59	30	0	82837504	46	6263
2026-01-29 16:22:53.61	180.68	59.64	-36.0	-37.2	28.7	3.02e+01	58	29	0	84934656	46	6229
2026-01-29 16:22:54.62	181.03	59.18	-35.8	-37.1	28.7	3.02e+01	50	30	0	86507520	46	6151
2026-01-29 16:22:55.63	181.36	58.71	-35.4	-36.6	29.1	3.02e+01	55	30	0	88604672	46	5854
2026-01-29 16:22:56.64	181.69	58.26	-35.6	-36.9	28.9	3.02e+01	59	30	0	90177536	46	5996
2026-01-29 16:22:57.65	182.00	57.80	-35.4	-36.5	29.3	3.02e+01	57	30	0	92274688	46	5789
2026-01-29 16:22:58.65	182.30	57.35	-35.3	-36.6	29.3	3.02e+01	57	30	0	93847552	46	5795
2026-01-29 16:22:59.66	182.60	56.90	-35.1	-36.3	29.4	3.02e+01	51	30	0	95944704	46	5641
2026-01-29 16:23:00.67	182.88	56.45	-34.9	-36.1	29.7	3.02e+01	58	29	0	98041856	44	6165
2026-01-29 16:23:01.68	183.16	56.01	-34.4	-35.5	30.1	3.02e+01	60	30	0	99614720	44	5785
2026-01-29 16:23:02.69	183.43	55.57	-34.5	-35.7	30.0	3.02e+01	45	30	0	101711872	44	5866
2026-01-29 16:23:03.70	183.69	55.13	-34.5	-35.7	29.9	3.02e+01	60	29	0	103809024	44	5873
2026-01-29 16:23:04.71	183.94	54.69	-34.1	-35.3	30.3	3.02e+01	60	29	0	105381888	44	5630
2026-01-29 16:23:05.72	184.18	54.26	-33.9	-35.1	30.5	3.02e+01	60	30	0	107479040	42	6170
2026-01-29 16:23:06.73	184.42	53.83	-34.2	-35.4	30.2	3.02e+01	60	30	0	109051904	42	6401
2026-01-29 16:23:07.74	184.65	53.41	-34.4	-35.6	30.1	3.02e+01	58	30	0	111149056	42	6539
2026-01-29 16:23:08.75	184.87	52.99	-34.3	-35.5	30.2	3.02e+01	58	30	0	113246208	42	6429
2026-01-29 16:23:09.76	185.09	52.57	-34.3	-35.5	30.1	3.02e+01	63	30	0	114819072	42	6449
2026-01-29 16:23:10.77	185.30	52.15	-34.3	-35.5	30.2	3.02e+01	48	29	0	116916224	42	6462
2026-01-29 16:23:11.78	185.50	51.74	-34.4	-35.6	30.1	3.02e+01	59	30	0	119013376	42	6515
2026-01-29 16:23:12.79	185.70	51.33	-34.6	-35.8	29.9	3.02e+01	62	29	0	120586240	42	6655
2026-01-29 16:23:13.79	185.90	50.93	-34.6	-35.8	29.9	3.02e+01	62	30	0	122683392	42	6702
2026-01-29 16:23:14.80	186.09	50.53	-34.6	-35.7	30.0	3.02e+01	61	30	0	124256256	42	6646
2026-01-29 16:23:15.82	186.27	50.13	-35.0	-36.2	29.6	3.02e+01	50	30	0	126353408	44	6268
2026-01-29 16:23:16.82	186.45	49.73	-35.2	-36.4	29.4	3.02e+01	56	29	0	128450560	44	6369
2026-01-29 16:23:17.83	186.63	49.34	-35.1	-36.3	29.4	3.02e+01	59	29	0	130023424	44	6329
2026-01-29 16:23:18.85	186.80	48.95	-35.1	-36.3	29.5	3.02e+01	63	30	0	132120576	44	6337
2026-01-29 16:23:19.85	186.96	48.57	-35.1	-36.4	29.4	3.02e+01	53	29	0	133693440	44	6351
2026-01-29 16:23:20.87	187.13	48.18	-35.1	-36.3	29.5	3.02e+01	52	29	0	135790592	44	6282
2026-01-29 16:23:21.87	187.29	47.80	-34.8	-36.0	29.7	3.02e+01	59	29	0	137887744	44	6096
2026-01-29 16:23:22.88	187.44	47.43	-35.0	-36.2	29.6	3.02e+01	62	29	0	139460608	44	6262
2026-01-29 16:23:23.89	187.59	47.06	-34.9	-36.1	29.7	3.02e+01	45	29	0	141557760	44	6179
2026-01-29 16:23:24.90	187.74	46.69	-35.0	-36.2	29.6	3.02e+01	58	29	0	143130624	44	6217
2026-01-29 16:23:25.91	187.89	46.32	-35.0	-36.2	29.6	3.02e+01	60	30	0	145227776	44	6234
2026-01-29 16:23:26.92	188.03	45.96	-35.3	-36.5	29.3	3.02e+01	58	30	0	147324928	44	6472
2026-01-29 16:23:27.93	188.17	45.60	-35.3	-36.5	29.4	3.02e+01	56	29	0	148897792	44	6444
2026-01-29 16:23:28.94	188.30	45.24	-35.3	-36.6	29.3	3.02e+01	52	29	0	150994944	44	6519
2026-01-29 16:23:29.95	188.43	44.89	-35.0	-36.2	29.6	3.02e+01	57	30	0	152567808	44	6213
2026-01-29 16:23:30.96	188.56	44.54	-35.0	-36.2	29.6	3.02e+01	61	29	0	154664960	44	6254
2026-01-29 16:23:31.97	188.69	44.19	-35.1	-36.3	29.5	3.02e+01	54	29	0	156762112	44	6288
2026-01-29 16:23:32.98	188.81	43.84	-35.2	-36.4	29.4	3.02e+01	57	30	0	158334976	44	6419
2026-01-29 16:23:33.99	188.93	43.50	-35.1	-36.3	29.3	3.02e+01	59	29	0	160432128	44	6332
2026-01-29 16:23:35.00	189.05	43.17	-35.1	-36.2	29.5	3.02e+01	60	29	0	162004992	44	6263
2026-01-29 16:23:36.01	189.17	42.83	-35.3	-36.5	29.3	3.02e+01	58	29	0	164102144	44	6438
2026-01-29 16:23:37.02	189.28	42.50	-35.5	-36.7	29.2	3.02e+01	51	29	0	166199296	44	6640
2026-01-29 16:23:38.03	189.39	42.17	-35.4	-36.7	29.2	3.02e+01	59	29	0	167772160	44	6594
2026-01-29 16:23:39.04	189.50	41.84	-35.5	-36.8	29.1	3.02e+01	53	29	0	169869312	44	6657
2026-01-29 16:23:40.05	189.61	41.52	-35.9	-37.1	28.8	3.02e+01	46	29	0	171966464	44	6915
2026-01-29 16:23:41.06	189.72	41.20	-35.7	-36.9	28.9	3.02e+01	58	29	0	173539328	44	6772
2026-01-29 16:23:42.07	189.82	40.88	-35.9	-37.2	28.7	3.02e+01	61	30	0	175636480	44	6994
2026-01-29 16:23:43.08	189.92	40.57	-36.2	-37.4	28.5	3.02e+01	58	30	0	177209344	46	6391
2026-01-29 16:23:44.09	190.02	40.25	-36.7	-38.0	28.1	3.02e+01	59	30	0	179306496	46	6826
2026-01-29 16:23:45.10	190.12	39.94	-36.6	-38.0	28.1	3.02e+01	52	30	0	181403648	46	6815
2026-01-29 16:23:46.11	190.21	39.64	-36.1	-37.4	28.6	3.02e+01	56	30	0	182976512	46	6368
2026-01-29 16:23:47.12	190.31	39.33	-35.9	-37.2	28.8	3.02e+01	63	29	0	185073664	46	6214
2026-01-29 16:23:48.13	190.40	39.03	-35.9	-37.1	28.8	3.02e+01	60	30	0	187170816	46	6186
2026-01-29 16:23:49.14	190.49	38.73	-36.0	-37.2	28.6	3.02e+01	61	30	0	188743680	46	6273
2026-01-29 16:23:50.15	190.58	38.44	-36.1	-37.4	28.7	3.02e+01	46	29	0	190840832	46	6381
2026-01-29 16:23:51.16	190.67	38.15	-36.1	-37.4	28.6	3.02e+01	59	30	0	192413696	46	6383
2026-01-29 16:23:52.17	190.75	37.85	-36.2	-37.5	28.5	3.02e+01	58	29	0	194510848	46	6457
2026-01-29 16:23:53.18	190.84	37.57	-35.9	-37.2	28.7	3.02e+01	44	30	0	196608000	46	6237
2026-01-29 16:23:54.19	190.92	37.28	-35.9	-37.1	28.7	3.02e+01	59	29	0	198180864	46	6204
2026-01-29 16:23:55.20	191.00	37.00	-35.6	-36.8	29.1	3.02e+01	60	30	0	200278016	46	5987
2026-01-29 16:23:56.21	191.08	36.72	-35.3	-36.6	29.3	3.02e+01	60	29	0	201850880	46	5799
2026-01-29 16:23:57.22	191.16	36.44	-35.3	-36.5	29.4	3.02e+01	58	30	0	203948032	46	5739
2026-01-29 16:23:58.23	191.24	36.17	-35.1	-36.3	29.6	3.02e+01	44	30	0	206045184	46	5643
2026-01-29 16:23:59.24	191.32	35.89	-35.1	-36.3	29.5	3.02e+01	57	29	0	207618048	46	5625
2026-01-29 16:24:00.25	191.39	35.62	-35.1	-36.3	29.5	3.02e+01	59	29	0	209715200	46	5641
2026-01-29 16:24:01.26	191.47	35.35	-34.8	-36.0	29.7	3.02e+01	53	30	0	211812352	44	6086
2026-01-29 16:24:02.27	191.54	35.09	-34.6	-35.8	29.9	3.02e+01	60	29	0	213385216	44	5976
2026-01-29 16:24:03.28	191.61	34.82	-34.7	-35.9	29.8	3.02e+01	56	29	0	215482368	44	6064
2026-01-29 16:24:04.29	191.68	34.56	-34.9	-36.2	29.7	3.02e+01	58	30	0	217055232	44	6206
2026-01-29 16:24:05.30	191.75	34.30	-34.8	-36.0	29.7	3.02e+01	63	29	0	219152384	44	6133
2026-01-29 16:24:06.31	191.82	34.05	-34.9	-36.1	29.6	3.02e+01	60	29	0	221249536	44	6187
2026-01-29 16:24:07.32	191.89	33.79	-34.8	-36.0	29.7	3.02e+01	62	29	0	222822400	44	6100
2026-01-29 16:24:08.33	191.96	33.54	-34.4	-35.6	30.0	3.02e+01	59	30	0	224919552	44	5822
2026-01-29 16:24:09.34	192.02	33.29	-34.4	-35.6	30.1	3.02e+01	46	30	0	226492416	44	5800
2026-01-29 16:24:10.34	192.08	33.04	-34.1	-35.2	30.3	3.02e+01	59	29	0	228589568	44	5587
2026-01-29 16:24:11.35	192.15	32.80	-34.1	-35.3	30.3	3.02e+01	61	30	0	230162432	44	5620
2026-01-29 16:24:12.36	192.21	32.55	-33.9	-35.1	30.5	3.02e+01	58	29	0	232259584	42	6155
2026-01-29 16:24:13.37	192.27	32.31	-33.9	-35.1	30.5	3.02e+01	59	29	0	234356736	42	6145
2026-01-29 16:24:14.38	192.33	32.07	-33.9	-35.0	30.5	3.02e+01	56	30	0	235929600	42	6126
2026-01-29 16:24:15.39	192.39	31.83	-33.9	-35.1	30.5	3.02e+01	60	30	0	238026752	42	6174
2026-01-29 16:24:16.40	192.45	31.60	-33.9	-35.1	30.5	3.02e+01	60	30	0	240123904	42	6177
2026-01-29 16:24:17.41	192.51	31.36	-34.0	-35.2	30.4	3.02e+01	46	30	0	241696768	42	6208
2026-01-29 16:24:18.42	192.57	31.13	-34.1	-35.2	30.4	3.02e+01	59	30	0	243793920	42	6266
2026-01-29 16:24:19.43	192.63	30.90	-34.2	-35.4	30.2	3.02e+01	57	29	0	245366784	42	6411
2026-01-29 16:24:20.44	192.68	30.67	-34.0	-35.2	30.5	3.02e+01	51	29	0	247463936	42	6235
2026-01-29 16:24:21.45	192.74	30.45	-34.0	-35.2	30.4	3.02e+01	58	29	0	249561088	42	6207
2026-01-29 16:24:22.46	192.79	30.22	-34.0	-35.2	30.5	3.02e+01	53	30	0	251133952	42	6207
2026-01-29 16:24:23.47	192.85	30.00	-34.0	-35.2	30.4	3.02e+01	58	30	0	253231104	42	6207
2026-01-29 16:24:24.48	192.90	29.78	-34.1	-35.3	30.3	3.02e+01	58	30	0	254803968	42	6313
2026-01-29 16:24:25.49	192.95	29.56	-34.3	-35.5	30.3	3.02e+01	61	30	0	256901120	42	6437
2026-01-29 16:24:26.50	193.00	29.34	-34.3	-35.5	30.1	3.02e+01	61	30	0	258998272	42	6436
2026-01-29 16:24:27.51	193.05	29.13	-34.3	-35.5	30.1	3.02e+01	45	30	0	260571136	42	6432
2026-01-29 16:24:28.52	193.10	28.91	-34.3	-35.5	30.1	3.02e+01	59	29	0	262668288	42	6438
2026-01-29 16:24:29.53	193.15	28.70	-34.3	-35.4	30.1	3.02e+01	59	30	0	264765440	42	6423
2026-01-29 16:24:30.54	193.20	28.49	-34.2	-35.4	30.2	3.02e+01	46	30	0	266338304	42	6368
2026-01-29 16:24:31.55	193.25	28.28	-34.3	-35.4	30.0	3.02e+01	60	29	0	268435456	42	6412
2026-01-29 16:24:32.56	193.30	28.08	-34.2	-35.3	30.1	3.02e+01	60	30	0	270008320	42	6329
2026-01-29 16:24:33.57	193.35	27.87	-34.2	-35.4	30.2	3.02e+01	60	29	0	272105472	42	6363
2026-01-29 16:24:34.58	193.39	27.67	-34.3	-35.4	30.1	3.02e+01	56	30	0	274202624	42	6409
2026-01-29 16:24:35.59	193.44	27.47	-34.3	-35.5	30.2	3.02e+01	49	30	0	275775488	42	6430
2026-01-29 16:24:36.59	193.49	27.27	-34.3	-35.5	30.1	3.02e+01	57	30	0	277872640	42	6451
2026-01-29 16:24:37.60	193.53	27.07	-34.4	-35.6	30.1	3.02e+01	59	30	0	279445504	42	6530
2026-01-29 16:24:38.61	193.58	26.87	-34.4	-35.6	30.0	3.02e+01	48	30	0	281542656	42	6555
2026-01-29 16:24:39.62	193.62	26.67	-34.5	-35.7	30.0	3.02e+01	49	30	0	283639808	42	6603
2026-01-29 16:24:40.63	193.66	26.48	-34.6	-35.8	29.9	3.02e+01	61	30	0	285212672	42	6721
2026-01-29 16:24:41.64	193.71	26.29	-34.5	-35.7	30.0	3.02e+01	61	29	0	287309824	42	6619
2026-01-29 16:24:42.65	193.75	26.10	-34.7	-35.9	29.8	3.02e+01	58	29	0	288882688	42	6750
2026-01-29 16:24:43.66	193.79	25.91	-34.8	-36.0	29.7	3.02e+01	45	29	0	290979840	42	6844
2026-01-29 16:24:44.67	193.83	25.72	-34.9	-36.1	29.7	3.02e+01	60	30	0	293076992	42	6912
2026-01-29 16:24:45.68	193.87	25.53	-35.0	-36.2	29.6	3.02e+01	56	30	0	294649856	42	6977
2026-01-29 16:24:46.69	193.92	25.34	-35.0	-36.2	29.5	3.02e+01	49	29	0	296747008	44	6224
2026-01-29 16:24:47.70	193.96	25.16	-35.1	-36.3	29.4	3.02e+01	59	30	0	298319872	44	6331
2026-01-29 16:24:48.71	194.00	24.98	-35.1	-36.4	29.4	3.02e+01	61	30	0	300417024	44	6363
2026-01-29 16:24:49.72	194.04	24.79	-35.2	-36.4	29.3	3.02e+01	59	30	0	302514176	44	6408
2026-01-29 16:24:50.73	194.07	24.61	-35.2	-36.4	29.4	3.02e+01	61	30	0	304087040	44	6381
2026-01-29 16:24:51.74	194.11	24.44	-35.2	-36.4	29.3	3.02e+01	46	30	0	306184192	44	6410
2026-01-29 16:24:52.74	194.15	24.26	-35.3	-36.5	29.2	3.02e+01	57	30	0	308281344	44	6455
2026-01-29 16:24:53.75	194.19	24.08	-35.3	-36.5	29.2	3.02e+01	59	30	0	309854208	44	6488
2026-01-29 16:24:54.76	194.23	23.91	-35.3	-36.6	29.2	3.02e+01	59	30	0	311951360	44	6501
2026-01-29 16:24:55.77	194.26	23.73	-35.2	-36.5	29.3	3.02e+01	59	30	0	313524224	44	6426
2026-01-29 16:24:56.78	194.30	23.56	-35.3	-36.6	29.1	3.02e+01	52	30	0	315621376	44	6499
2026-01-29 16:24:57.80	194.34	23.39	-35.1	-36.3	29.2	3.02e+01	59	30	0	317718528	44	6341
2026-01-29 16:24:58.80	194.37	23.22	-35.2	-36.4	29.3	3.02e+01	55	30	0	319291392	44	6393
2026-01-29 16:24:59.81	194.41	23.05	-35.2	-36.4	29.2	3.02e+01	53	30	0	321388544	44	6387
2026-01-29 16:25:00.82	194.44	22.88	-35.2	-36.4	29.2	3.02e+01	54	29	0	322961408	44	6400
2026-01-29 16:25:01.83	194.48	22.72	-35.2	-36.4	29.2	3.02e+01	62	30	0	325058560	44	6377
2026-01-29 16:25:02.84	194.51	22.55	-35.2	-36.4	29.3	3.02e+01	62	30	0	327155712	44	6358
2026-01-29 16:25:03.85	194.55	22.39	-35.1	-36.3	29.3	3.02e+01	59	30	0	328728576	44	6291
2026-01-29 16:25:04.86	194.58	22.22	-35.1	-36.3	29.3	3.02e+01	55	30	0	330825728	44	6291
2026-01-29 16:25:05.87	194.61	22.06	-35.0	-36.2	29.5	3.02e+01	56	29	0	332922880	44	6215
2026-01-29 16:25:06.88	194.65	21.90	-35.1	-36.3	29.4	3.02e+01	60	30	0	334495744	44	6316
2026-01-29 16:25:07.89	194.68	21.74	-34.9	-36.1	29.6	3.02e+01	47	30	0	336592896	44	6143
2026-01-29 16:25:08.90	194.71	21.58	-35.1	-36.3	29.4	3.02e+01	59	29	0	338165760	44	6311
2026-01-29 16:25:09.91	194.74	21.42	-35.0	-36.1	29.5	3.02e+01	61	30	0	340262912	44	6201
2026-01-29 16:25:10.92	194.78	21.27	-34.9	-36.1	29.6	3.02e+01	58	30	0	342360064	44	6150
2026-01-29 16:25:11.93	194.81	21.11	-35.0	-36.2	29.4	3.02e+01	62	30	0	343932928	44	6213
2026-01-29 16:25:12.94	194.84	20.96	-34.8	-36.0	29.5	3.02e+01	57	30	0	346030080	44	6112
2026-01-29 16:25:13.95	194.87	20.80	-34.8	-36.0	29.6	3.02e+01	61	30	0	347602944	44	6086
2026-01-29 16:25:14.96	194.90	20.65	-34.8	-36.0	29.5	3.02e+01	60	29	0	349700096	44	6069
2026-01-29 16:25:15.97	194.93	20.50	-34.8	-36.0	29.6	3.02e+01	48	30	0	351797248	44	6102
2026-01-29 16:25:16.98	194.96	20.35	-34.8	-36.0	29.5	3.02e+01	61	30	0	353370112	44	6116
2026-01-29 16:25:17.99	194.99	20.20	-34.8	-36.0	29.5	3.02e+01	62	30	0	355467264	44	6126
2026-01-29 16:25:19.00	195.02	20.05	-34.7	-35.9	29.7	3.02e+01	59	30	0	357040128	44	6046
2026-01-29 16:25:20.01	195.05	19.90	-34.8	-35.9	29.7	3.02e+01	58	30	0	359137280	44	6063
2026-01-29 16:25:21.03	195.08	19.75	-34.9	-36.1	29.6	3.02e+01	54	30	0	361234432	44	6160
2026-01-29 16:25:22.04	195.11	19.61	-34.9	-36.1	29.5	3.02e+01	58	30	0	362807296	44	6156
2026-01-29 16:25:23.05	195.14	19.46	-34.8	-36.0	29.6	3.02e+01	60	30	0	364904448	44	6117
2026-01-29 16:25:24.06	195.16	19.32	-34.9	-36.1	29.6	3.02e+01	47	30	0	367001600	44	6140
2026-01-29 16:25:25.07	195.19	19.18	-34.8	-36.0	29.6	3.02e+01	59	30	0	368574464	44	6111
2026-01-29 16:25:26.08	195.22	19.03	-34.8	-36.0	29.6	3.02e+01	61	30	0	370671616	44	6121
2026-01-29 16:25:27.09	195.25	18.89	-34.8	-36.0	29.6	3.02e+01	59	30	0	372244480	44	6115
2026-01-29 16:25:28.10	195.28	18.75	-34.8	-36.0	29.6	3.02e+01	59	30	0	374341632	44	6123
2026-01-29 16:25:29.10	195.30	18.62	-34.9	-36.1	29.5	3.02e+01	50	30	0	376438784	44	6150
2026-01-29 16:25:30.11	195.33	18.48	-35.0	-36.2	29.5	3.02e+01	60	30	0	378011648	44	6225
2026-01-29 16:25:31.12	195.36	18.34	-35.0	-36.2	29.5	3.02e+01	55	30	0	380108800	44	6259
2026-01-29 16:25:32.13	195.38	18.20	-35.0	-36.2	29.4	3.02e+01	50	30	0	381681664	44	6257
2026-01-29 16:25:33.14	195.41	18.07	-35.0	-36.2	29.4	3.02e+01	58	30	0	383778816	44	6255
2026-01-29 16:25:34.15	195.44	17.93	-35.3	-36.5	29.2	3.02e+01	58	30	0	385875968	44	6490
2026-01-29 16:25:35.16	195.46	17.80	-35.1	-36.3	29.4	3.02e+01	58	30	0	387448832	44	6310
2026-01-29 16:25:36.17	195.49	17.66	-35.1	-36.3	29.4	3.02e+01	59	30	0	389545984	44	6344
2026-01-29 16:25:37.18	195.51	17.53	-35.0	-36.3	29.4	3.02e+01	54	30	0	391118848	44	6290
2026-01-29 16:25:38.19	195.54	17.40	-35.1	-36.3	29.3	3.02e+01	61	30	0	393216000	44	6306
2026-01-29 16:25:39.20	195.56	17.27	-35.1	-36.3	29.2	3.02e+01	61	29	0	395313152	44	6336
2026-01-29 16:25:40.21	195.59	17.14	-35.0	-36.2	29.3	3.02e+01	60	30	0	396886016	44	6244
2026-01-29 16:25:41.22	195.61	17.01	-35.0	-36.2	29.3	3.02e+01	56	30	0	398983168	44	6256
2026-01-29 16:25:42.23	195.64	16.88	-35.1	-36.4	29.2	3.02e+01	59	30	0	401080320	44	6367
2026-01-29 16:25:43.24	195.66	16.75	-35.1	-36.3	29.1	3.02e+01	58	30	0	402653184	44	6310
2026-01-29 16:25:44.25	195.68	16.62	-35.1	-36.3	29.1	3.02e+01	59	30	0	404750336	44	6307
2026-01-29 16:25:45.26	195.71	16.49	-35.2	-36.4	29.1	3.02e+01	45	29	0	406323200	44	6389
2026-01-29 16:25:46.27	195.73	16.37	-34.9	-36.1	29.4	3.02e+01	57	30	0	408420352	44	6171
2026-01-29 16:25:47.28	195.76	16.24	-34.9	-36.1	29.3	3.02e+01	58	30	0	410517504	44	6155
2026-01-29 16:25:48.29	195.78	16.12	-34.8	-36.0	29.4	3.02e+01	60	30	0	412090368	44	6074
2026-01-29 16:25:49.30	195.80	15.99	-35.0	-36.2	29.3	3.02e+01	58	30	0	414187520	44	6238
2026-01-29 16:25:50.31	195.83	15.87	-34.7	-35.9	29.5	3.02e+01	45	30	0	416284672	44	6050
2026-01-29 16:25:51.32	195.85	15.75	-34.7	-35.9	29.5	3.02e+01	58	30	0	417857536	44	6050
2026-01-29 16:25:52.33	195.87	15.63	-34.9	-36.1	29.4	3.02e+01	59	30	0	419954688	44	6159
2026-01-29 16:25:53.34	195.89	15.50	-34.7	-35.9	29.4	3.02e+01	45	30	0	421527552	44	6037
2026-01-29 16:25:54.35	195.92	15.38	-34.8	-36.0	29.4	3.02e+01	57	30	0	423624704	44	6093
2026-01-29 16:25:55.36	195.94	15.26	-34.7	-35.8	29.5	3.02e+01	61	30	0	425721856	44	5986
2026-01-29 16:25:56.37	195.96	15.14	-34.7	-35.9	29.3	3.02e+01	56	30	0	427294720	44	6043
2026-01-29 16:25:57.38	195.98	15.03	-34.8	-35.9	29.5	3.02e+01	58	30	0	429391872	44	6059
2026-01-29 16:25:58.39	196.00	14.91	-34.7	-35.9	29.5	3.02e+01	46	30	0	430964736	44	6025
2026-01-29 16:25:59.40	196.03	14.79	-34.7	-35.8	29.5	3.02e+01	52	30	0	433061888	44	5989
2026-01-29 16:26:00.41	196.05	14.67	-34.8	-35.9	29.5	3.02e+01	56	30	0	435159040	44	6064
2026-01-29 16:26:01.42	196.07	14.56	-34.7	-35.9	29.5	3.02e+01	45	29	0	436731904	44	6053
2026-01-29 16:26:02.43	196.09	14.44	-34.7	-35.9	29.5	3.02e+01	59	30	0	438829056	44	6036
2026-01-29 16:26:03.44	196.11	14.33	-34.8	-35.9	29.4	3.02e+01	61	30	0	440401920	44	6064
2026-01-29 16:26:04.45	196.13	14.21	-34.7	-35.9	29.5	3.02e+01	58	30	0	442499072	44	6042
2026-01-29 16:26:05.46	196.15	14.10	-34.9	-36.1	29.4	3.02e+01	61	30	0	444596224	44	6148
2026-01-29 16:26:06.47	196.17	13.98	-34.7	-35.9	29.6	3.02e+01	48	30	0	446169088	44	6037
2026-01-29 16:26:07.48	196.19	13.87	-34.8	-36.0	29.5	3.02e+01	58	30	0	448266240	44	6066
2026-01-29 16:26:08.49	196.21	13.76	-34.7	-35.9	29.5	3.02e+01	61	30	0	449839104	44	6042
2026-01-29 16:26:09.50	196.23	13.65	-34.7	-35.9	29.5	3.02e+01	60	30	0	451936256	44	6042
2026-01-29 16:26:10.51	196.25	13.54	-34.8	-36.0	29.4	3.02e+01	60	30	0	454033408	44	6075
2026-01-29 16:26:11.52	196.27	13.43	-35.0	-36.2	29.3	3.02e+01	44	30	0	455606272	44	6208
2026-01-29 16:26:12.53	196.29	13.32	-34.7	-35.9	29.5	3.02e+01	62	30	0	457703424	44	6004
2026-01-29 16:26:13.54	196.31	13.21	-34.9	-36.1	29.4	3.02e+01	61	30	0	459276288	44	6174
2026-01-29 16:26:14.55	196.33	13.10	-34.7	-35.9	29.6	3.02e+01	49	30	0	461373440	44	6038
2026-01-29 16:26:15.56	196.35	12.99	-34.8	-36.0	29.5	3.02e+01	53	30	0	463470592	44	6110
2026-01-29 16:26:16.57	196.37	12.88	-34.9	-36.1	29.4	3.02e+01	60	30	0	465043456	44	6147
2026-01-29 16:26:17.58	196.39	12.78	-34.9	-36.1	29.4	3.02e+01	56	30	0	467140608	44	6145
2026-01-29 16:26:18.59	196.41	12.67	-34.9	-36.1	29.4	3.02e+01	58	30	0	469237760	44	6183
2026-01-29 16:26:19.60	196.43	12.56	-34.8	-36.0	29.5	3.02e+01	48	30	0	470810624	44	6080
2026-01-29 16:26:20.61	196.45	12.46	-34.9	-36.1	29.3	3.02e+01	57	30	0	472907776	44	6167
2026-01-29 16:26:21.61	196.46	12.35	-34.8	-35.9	29.5	3.02e+01	58	30	0	474480640	44	6063
2026-01-29 16:26:22.62	196.48	12.25	-34.9	-36.1	29.4	3.02e+01	50	30	0	476577792	44	6175
2026-01-29 16:26:23.63	196.50	12.14	-35.0	-36.2	29.2	3.02e+01	59	30	0	478674944	44	6267
2026-01-29 16:26:24.64	196.52	12.04	-35.2	-36.4	29.1	3.02e+01	59	30	0	480247808	44	6370
2026-01-29 16:26:25.65	196.54	11.94	-34.8	-36.0	29.5	3.02e+01	57	30	0	482344960	44	6066
2026-01-29 16:26:26.66	196.56	11.84	-35.1	-36.3	29.2	3.02e+01	54	29	0	484442112	44	6285
2026-01-29 16:26:27.67	196.57	11.73	-35.0	-36.2	29.4	3.02e+01	44	30	0	486014976	44	6216
2026-01-29 16:26:28.68	196.59	11.63	-35.2	-36.4	29.1	3.02e+01	60	30	0	488112128	44	6357
2026-01-29 16:26:29.69	196.61	11.53	-35.1	-36.3	29.2	3.02e+01	56	30	0	489684992	44	6283
2026-01-29 16:26:30.70	196.63	11.43	-35.1	-36.2	29.2	3.02e+01	47	30	0	491782144	44	6273
2026-01-29 16:26:31.71	196.64	11.33	-35.0	-36.1	29.3	3.02e+01	58	30	0	493879296	44	6204
2026-01-29 16:26:32.72	196.66	11.23	-35.0	-36.1	29.2	3.02e+01	59	30	0	495452160	44	6204
2026-01-29 16:26:33.73	196.68	11.13	-35.0	-36.2	29.3	3.02e+01	61	30	0	497549312	44	6226
2026-01-29 16:26:34.74	196.70	11.03	-35.0	-36.2	29.3	3.02e+01	58	30	0	499122176	44	6209
2026-01-29 16:26:35.75	196.71	10.93	-35.0	-36.2	29.3	3.02e+01	44	30	0	501219328	44	6273
2026-01-29 16:26:36.76	196.73	10.83	-35.2	-36.4	29.1	3.02e+01	64	30	0	503316480	44	6410
2026-01-29 16:26:37.77	196.75	10.74	-35.1	-36.3	29.2	3.02e+01	58	30	0	504889344	44	6307
2026-01-29 16:26:38.78	196.76	10.64	-35.2	-36.4	29.1	3.02e+01	45	30	0	506986496	44	6383
2026-01-29 16:26:39.79	196.78	10.54	-35.2	-36.4	29.1	3.02e+01	56	30	0	508559360	44	6389
2026-01-29 16:26:40.79	196.80	10.45	-35.2	-36.4	29.1	3.02e+01	51	30	0	510656512	44	6385
2026-01-29 16:26:41.80	196.81	10.35	-35.1	-36.4	29.1	3.02e+01	60	30	0	512753664	44	6352
2026-01-29 16:26:42.81	196.83	10.26	-35.2	-36.4	29.0	3.02e+01	56	30	0	514326528	44	6400
2026-01-29 16:26:43.83	196.85	10.16	-35.2	-36.4	29.1	3.02e+01	52	30	0	516423680	44	6404
2026-01-29 16:26:44.84	196.86	10.06	-35.2	-36.4	29.1	3.02e+01	57	30	0	517996544	44	6395
2026-01-29 16:26:45.84	196.88	9.97	-35.3	-36.5	29.0	3.02e+01	59	30	0	520093696	44	6477
2026-01-29 16:26:46.85	196.90	9.88	-35.4	-36.6	28.9	3.02e+01	61	30	0	522190848	44	6556
2026-01-29 16:26:47.86	196.91	9.78	-35.4	-36.6	28.9	3.02e+01	59	30	0	523763712	44	6525
2026-01-29 16:26:48.87	196.93	9.69	-35.5	-36.7	28.8	3.02e+01	45	30	0	525860864	44	6596
2026-01-29 16:26:49.88	196.94	9.60	-35.5	-36.7	28.8	3.02e+01	60	30	0	527433728	44	6646
2026-01-29 16:26:50.89	196.96	9.51	-35.4	-36.6	28.8	3.02e+01	58	30	0	529530880	44	6556
2026-01-29 16:26:51.90	196.97	9.41	-35.4	-36.7	28.8	3.02e+01	46	30	0	531628032	44	6589
2026-01-29 16:26:52.91	196.99	9.32	-35.7	-36.9	28.6	3.02e+01	60	30	0	533200896	44	6786
2026-01-29 16:26:53.92	197.01	9.23	-35.5	-36.7	28.8	3.02e+01	62	30	0	535298048	44	6639
2026-01-29 16:26:54.94	197.02	9.14	-35.5	-36.8	28.8	3.02e+01	58	30	0	537395200	44	6661
2026-01-29 16:26:55.95	197.04	9.05	-35.7	-36.9	28.6	3.02e+01	59	30	0	538968064	44	6761
2026-01-29 16:26:56.95	197.05	8.96	-35.6	-36.8	28.7	3.02e+01	60	30	0	541065216	44	6673
2026-01-29 16:26:57.96	197.07	8.87	-35.4	-36.7	28.8	3.02e+01	59	30	0	542638080	44	6579
2026-01-29 16:26:58.97	197.08	8.78	-35.7	-36.9	28.6	3.02e+01	62	30	0	544735232	44	6787
2026-01-29 16:26:59.98	197.10	8.69	-35.5	-36.8	28.7	3.02e+01	48	30	0	546832384	44	6662
2026-01-29 16:27:00.99	197.11	8.60	-35.7	-36.9	28.7	3.02e+01	61	30	0	548405248	44	6773
2026-01-29 16:27:02.00	197.13	8.51	-35.7	-37.0	28.5	3.02e+01	63	30	0	550502400	44	6843
2026-01-29 16:27:03.01	197.14	8.43	-35.8	-37.0	28.5	3.02e+01	60	30	0	552599552	44	6841
2026-01-29 16:27:04.01	197.16	8.34	-35.8	-37.0	28.5	3.02e+01	58	30	0	554172416	44	6861
2026-01-29 16:27:05.02	197.17	8.25	-35.8	-37.1	28.4	3.02e+01	51	30	0	556269568	44	6935
2026-01-29 16:27:06.03	197.19	8.16	-36.1	-37.4	28.2	3.02e+01	60	30	0	557842432	46	6366
2026-01-29 16:27:07.04	197.20	8.08	-36.1	-37.3	28.3	3.02e+01	60	30	0	559939584	46	6347
2026-01-29 16:27:08.06	197.21	7.99	-36.0	-37.3	28.3	3.02e+01	46	30	0	562036736	46	6325
2026-01-29 16:27:09.06	197.23	7.90	-36.0	-37.3	28.2	3.02e+01	60	30	0	563609600	46	6301
