passes_logs/2026/01/29/R4.6S_Anadyr/R4.6S_Anadyr__20260129_131213_NOAA_21_JPSS-2_rec.log

#Pass ID: 20260129_131213_NOAA 21 (JPSS-2)
#Satellite: NOAA 21 (JPSS-2)
#Configuration: NOAA-21
#almurnet v.1.7.20251203
#Start time: 2026-01-29 13:12:15

#Version: 2.2.20231116
#Station: R4.6S_Anadyr
#Location: 177.4865 lon 64.73178 lat
#TLE: 1 54234U 22150A   26028.89828222  .00000145  00000+0  89569-4 0  9997
#TLE: 2 54234  98.7511 329.6308 0000927 198.8651 161.2491 14.19540676166783

#Time	Az	El	Level	Level2	SNR	BER	BlckErr	Temp	State	Recorded	gain1	gain2
2026-01-29 13:12:15.06	18.74	0.07	-48.9	-63.8	3.5	1.51e+00	0	27	0	0	60	55844
2026-01-29 13:12:16.06	18.79	0.12	-50.0	-62.9	3.5	1.51e+00	0	28	104	0	60	48861
2026-01-29 13:12:17.07	18.84	0.18	-49.4	-62.2	3.5	1.52e+00	0	28	104	0	60	45043
2026-01-29 13:12:18.08	18.89	0.24	-49.4	-62.2	3.5	1.52e+00	0	28	104	0	60	45060
2026-01-29 13:12:19.09	18.94	0.29	-49.1	-61.9	3.5	1.52e+00	0	28	104	0	60	43921
2026-01-29 13:12:20.10	18.99	0.35	-48.9	-61.7	3.5	1.52e+00	0	28	104	0	60	42702
2026-01-29 13:12:21.11	19.04	0.40	-48.8	-61.7	3.5	1.52e+00	0	28	104	0	60	42602
2026-01-29 13:12:22.12	19.09	0.46	-48.8	-61.6	3.5	1.52e+00	0	28	104	0	60	42431
2026-01-29 13:12:23.13	19.15	0.52	-48.8	-61.6	3.5	1.52e+00	0	29	104	0	60	42288
2026-01-29 13:12:24.14	19.20	0.57	-48.8	-61.7	3.5	1.52e+00	0	28	104	0	60	42455
2026-01-29 13:12:25.15	19.25	0.63	-48.8	-61.7	3.5	1.51e+00	0	29	104	0	60	42592
2026-01-29 13:12:26.16	19.30	0.69	-48.8	-61.7	3.5	1.52e+00	0	29	104	0	60	42476
2026-01-29 13:12:27.18	19.35	0.74	-48.8	-61.7	3.5	1.52e+00	0	29	104	0	60	42535
2026-01-29 13:12:28.18	19.40	0.80	-48.7	-61.6	3.5	1.52e+00	0	29	104	0	60	42213
2026-01-29 13:12:29.19	19.46	0.86	-48.7	-61.6	3.5	1.51e+00	0	29	104	0	60	41996
2026-01-29 13:12:30.20	19.51	0.91	-48.7	-61.6	3.5	1.52e+00	0	29	104	0	60	41959
2026-01-29 13:12:31.21	19.56	0.97	-48.6	-61.5	3.5	1.52e+00	0	29	104	0	60	41487
2026-01-29 13:12:32.22	19.61	1.03	-48.5	-61.4	3.5	1.52e+00	0	29	104	0	60	41327
2026-01-29 13:12:33.23	19.67	1.08	-48.5	-61.3	3.5	1.52e+00	0	29	104	0	60	40714
2026-01-29 13:12:34.24	19.72	1.14	-48.3	-61.2	3.5	1.52e+00	0	29	104	0	60	40219
2026-01-29 13:12:35.25	19.77	1.20	-48.1	-61.1	3.5	1.51e+00	0	29	104	0	60	39692
2026-01-29 13:12:36.26	19.83	1.26	-48.1	-61.0	3.5	1.51e+00	0	29	104	0	60	39523
2026-01-29 13:12:37.27	19.88	1.31	-48.0	-60.8	3.5	1.52e+00	0	29	104	0	60	38589
2026-01-29 13:12:38.28	19.93	1.37	-47.9	-60.7	3.5	1.52e+00	0	29	104	0	60	38042
2026-01-29 13:12:39.29	19.99	1.43	-47.6	-60.4	3.5	1.52e+00	0	29	104	0	60	36898
2026-01-29 13:12:40.30	20.04	1.49	-47.4	-60.2	3.5	1.51e+00	0	29	104	0	60	35820
2026-01-29 13:12:41.31	20.10	1.54	-47.4	-60.2	3.5	1.52e+00	0	29	104	0	60	35738
2026-01-29 13:12:42.32	20.15	1.60	-47.4	-60.1	3.5	1.51e+00	0	29	104	0	60	35668
2026-01-29 13:12:43.33	20.21	1.66	-47.4	-60.1	3.5	1.52e+00	0	29	104	0	60	35476
2026-01-29 13:12:44.34	20.26	1.72	-47.3	-60.0	3.5	1.52e+00	0	29	104	0	60	35119
2026-01-29 13:12:45.35	20.32	1.78	-47.3	-59.9	3.5	1.52e+00	0	29	104	0	60	34785
2026-01-29 13:12:46.36	20.37	1.84	-47.3	-60.0	3.5	1.52e+00	0	29	104	0	60	35092
2026-01-29 13:12:47.37	20.43	1.89	-47.3	-60.0	3.5	1.52e+00	0	29	104	0	60	35008
2026-01-29 13:12:48.38	20.48	1.95	-47.3	-60.1	3.5	1.51e+00	0	29	104	0	60	35599
2026-01-29 13:12:49.39	20.54	2.01	-47.3	-60.1	3.5	1.52e+00	0	29	104	0	60	35329
2026-01-29 13:12:50.40	20.60	2.07	-47.3	-60.1	3.5	1.52e+00	0	29	104	0	60	35408
2026-01-29 13:12:51.41	20.65	2.13	-47.3	-60.1	3.5	1.52e+00	0	29	104	0	60	35467
2026-01-29 13:12:52.42	20.71	2.19	-47.3	-60.1	3.5	1.52e+00	0	29	104	0	60	35687
2026-01-29 13:12:53.43	20.77	2.25	-47.3	-60.1	3.5	1.51e+00	0	29	104	0	60	35546
2026-01-29 13:12:54.44	20.82	2.31	-47.3	-60.0	3.6	1.52e+00	0	29	104	0	60	35224
2026-01-29 13:12:55.45	20.88	2.37	-47.3	-59.8	3.5	1.52e+00	0	29	104	0	60	34122
2026-01-29 13:12:56.46	20.94	2.42	-47.3	-59.5	3.5	1.51e+00	0	29	104	0	60	33227
2026-01-29 13:12:57.47	21.00	2.48	-47.3	-59.2	3.5	1.51e+00	0	29	104	0	60	32181
2026-01-29 13:12:58.48	21.05	2.54	-47.3	-59.4	3.5	1.52e+00	0	29	104	0	60	32895
2026-01-29 13:12:59.49	21.11	2.60	-47.3	-60.1	3.5	1.52e+00	0	29	104	0	60	35460
2026-01-29 13:13:00.50	21.17	2.66	-47.3	-59.3	3.5	1.52e+00	0	29	104	0	60	32216
2026-01-29 13:13:01.51	21.23	2.72	-46.7	-55.0	5.0	1.50e+00	2	29	104	0	60	19840
2026-01-29 13:13:02.52	21.29	2.78	-45.8	-50.6	8.3	1.35e-01	123	29	0	1048576	60	11879
2026-01-29 13:13:03.53	21.35	2.84	-44.7	-48.2	11.4	2.05e-03	123	29	0	4194304	60	8973
2026-01-29 13:13:04.54	21.41	2.90	-42.3	-44.5	14.9	0.00e+00	123	29	0	7340032	58	6617
2026-01-29 13:13:05.55	21.47	2.96	-40.8	-42.5	16.7	0.00e+00	122	29	0	10485760	56	5925
2026-01-29 13:13:06.56	21.52	3.03	-39.6	-41.1	18.3	0.00e+00	123	29	0	13631488	52	6297
2026-01-29 13:13:07.57	21.58	3.09	-38.8	-40.2	19.3	0.00e+00	123	29	0	16777216	52	5663
2026-01-29 13:13:08.58	21.64	3.15	-38.4	-39.6	19.6	0.00e+00	120	29	0	19922944	50	5984
2026-01-29 13:13:09.59	21.71	3.21	-38.4	-39.7	19.5	0.00e+00	123	29	0	23068672	50	6008
2026-01-29 13:13:10.60	21.77	3.27	-38.9	-40.3	19.0	0.00e+00	123	29	0	26214400	50	6434
2026-01-29 13:13:11.61	21.83	3.33	-39.5	-41.0	18.0	0.00e+00	120	29	0	29360128	50	6998
2026-01-29 13:13:12.62	21.89	3.39	-40.6	-42.2	16.9	0.00e+00	123	29	0	32505856	52	7163
2026-01-29 13:13:13.63	21.95	3.45	-37.8	-39.0	20.4	0.00e+00	123	29	0	35651584	50	5551
2026-01-29 13:13:14.64	22.01	3.51	-39.1	-40.5	18.9	0.00e+00	122	29	0	38797312	50	6607
2026-01-29 13:13:15.65	22.07	3.57	-43.3	-46.0	11.2	0.00e+00	123	29	0	41943040	54	9836
2026-01-29 13:13:16.66	22.13	3.64	-46.2	-52.8	4.3	1.51e+00	0	29	104	41943040	60	15390
2026-01-29 13:13:17.67	22.20	3.70	-38.8	-40.5	17.2	0.00e+00	123	29	104	41943040	48	7383
2026-01-29 13:13:18.68	22.26	3.76	-42.0	-43.9	16.4	6.00e-04	123	29	0	44040192	60	5480
2026-01-29 13:13:19.69	22.32	3.82	-39.6	-41.1	18.5	0.00e+00	122	29	0	47185920	54	5610
2026-01-29 13:13:20.70	22.38	3.88	-38.8	-40.1	19.2	0.00e+00	123	29	0	50331648	52	5655
2026-01-29 13:13:21.71	22.45	3.95	-38.7	-40.0	19.6	0.00e+00	123	29	0	53477376	52	5544
2026-01-29 13:13:22.72	22.51	4.01	-38.8	-40.1	19.3	0.00e+00	120	29	0	56623104	50	6310
2026-01-29 13:13:23.73	22.57	4.07	-38.7	-40.0	19.4	0.00e+00	121	29	0	59768832	50	6236
2026-01-29 13:13:24.73	22.64	4.13	-39.0	-40.3	19.4	0.00e+00	121	29	0	62914560	50	6469
2026-01-29 13:13:25.74	22.70	4.20	-38.9	-40.2	19.2	0.00e+00	123	29	0	66060288	50	6423
2026-01-29 13:13:26.75	22.77	4.26	-38.7	-40.0	19.4	0.00e+00	123	29	0	69206016	50	6239
2026-01-29 13:13:27.76	22.83	4.32	-38.9	-40.2	19.4	0.00e+00	123	29	0	72351744	50	6392
2026-01-29 13:13:28.77	22.90	4.38	-38.7	-40.0	19.4	0.00e+00	120	29	0	76546048	50	6264
2026-01-29 13:13:29.78	22.96	4.45	-39.2	-40.6	18.9	0.00e+00	123	29	0	78643200	50	6687
2026-01-29 13:13:30.79	23.03	4.51	-38.8	-40.1	19.4	0.00e+00	122	29	0	81788928	50	6309
2026-01-29 13:13:31.80	23.09	4.57	-38.7	-39.9	19.6	0.00e+00	122	29	0	84934656	50	6191
2026-01-29 13:13:32.81	23.16	4.64	-37.9	-39.1	20.4	0.00e+00	123	29	0	88080384	50	5607
2026-01-29 13:13:33.82	23.22	4.70	-38.1	-39.4	20.1	0.00e+00	123	29	0	91226112	50	5792
2026-01-29 13:13:34.83	23.29	4.76	-37.8	-39.0	20.4	0.00e+00	122	29	0	95420416	50	5577
2026-01-29 13:13:35.84	23.36	4.83	-37.5	-38.7	20.7	0.00e+00	123	29	0	98566144	48	5998
2026-01-29 13:13:36.85	23.43	4.89	-37.6	-38.7	20.6	0.00e+00	122	29	0	101711872	48	6028
2026-01-29 13:13:37.86	23.49	4.96	-37.7	-38.8	20.6	0.00e+00	120	29	0	103809024	48	6126
2026-01-29 13:13:38.87	23.56	5.02	-37.5	-38.6	20.8	0.00e+00	123	29	0	106954752	48	5971
2026-01-29 13:13:39.87	23.63	5.08	-37.5	-38.6	20.8	0.00e+00	123	29	0	111149056	48	5971
2026-01-29 13:13:40.88	23.70	5.15	-37.5	-38.7	20.7	0.00e+00	123	29	0	114294784	48	6010
2026-01-29 13:13:41.89	23.76	5.21	-37.4	-38.5	20.9	0.00e+00	123	29	0	117440512	48	5914
2026-01-29 13:13:42.90	23.83	5.28	-37.3	-38.4	21.0	0.00e+00	122	29	0	120586240	48	5848
2026-01-29 13:13:43.91	23.90	5.34	-37.4	-38.6	21.0	0.00e+00	122	29	0	123731968	48	5931
2026-01-29 13:13:44.92	23.97	5.41	-37.2	-38.3	21.1	0.00e+00	122	29	0	126877696	48	5739
2026-01-29 13:13:45.93	24.04	5.47	-37.0	-38.1	21.3	0.00e+00	122	29	0	130023424	48	5645
2026-01-29 13:13:46.94	24.11	5.54	-36.8	-37.9	21.5	0.00e+00	122	29	0	133169152	48	5503
2026-01-29 13:13:47.95	24.18	5.60	-37.2	-38.3	21.2	0.00e+00	122	29	0	136314880	48	5748
2026-01-29 13:13:48.96	24.25	5.67	-37.0	-38.1	21.3	0.00e+00	123	30	0	139460608	48	5635
2026-01-29 13:13:49.97	24.32	5.73	-37.1	-38.2	21.3	0.00e+00	120	29	0	142606336	48	5688
2026-01-29 13:13:50.98	24.39	5.80	-37.1	-38.2	21.2	0.00e+00	122	29	0	145752064	48	5688
2026-01-29 13:13:51.99	24.46	5.87	-37.1	-38.2	21.3	0.00e+00	123	29	0	148897792	48	5697
2026-01-29 13:13:53.00	24.54	5.93	-36.7	-37.8	21.7	0.00e+00	122	29	0	152043520	46	6098
2026-01-29 13:13:54.01	24.61	6.00	-37.0	-38.1	21.3	0.00e+00	122	29	0	155189248	46	6335
2026-01-29 13:13:55.02	24.68	6.07	-36.8	-37.9	21.6	0.00e+00	123	29	0	158334976	46	6174
2026-01-29 13:13:56.02	24.75	6.13	-37.1	-38.2	21.5	0.00e+00	120	29	0	161480704	46	6358
2026-01-29 13:13:57.03	24.82	6.20	-37.2	-38.3	21.2	0.00e+00	122	29	0	164626432	46	6424
2026-01-29 13:13:58.04	24.90	6.26	-37.0	-38.0	21.5	0.00e+00	123	30	0	167772160	46	6267
2026-01-29 13:13:59.05	24.97	6.33	-36.7	-37.7	21.8	0.00e+00	123	30	0	170917888	46	6050
2026-01-29 13:14:00.07	25.05	6.40	-36.7	-37.8	21.7	0.00e+00	123	30	0	174063616	46	6086
2026-01-29 13:14:01.07	25.12	6.47	-36.6	-37.7	21.8	0.00e+00	122	30	0	177209344	46	6029
2026-01-29 13:14:02.09	25.19	6.53	-36.6	-37.6	21.8	0.00e+00	120	30	0	180355072	46	5981
2026-01-29 13:14:03.09	25.27	6.60	-36.8	-37.8	21.7	0.00e+00	122	29	0	183500800	46	6115
2026-01-29 13:14:04.10	25.34	6.67	-36.7	-37.7	21.8	0.00e+00	123	29	0	186646528	46	6055
2026-01-29 13:14:05.11	25.42	6.73	-36.5	-37.5	22.0	0.00e+00	123	30	0	189792256	46	5904
2026-01-29 13:14:06.12	25.49	6.80	-36.5	-37.5	22.0	0.00e+00	122	30	0	192937984	46	5899
2026-01-29 13:14:07.13	25.57	6.87	-36.5	-37.5	21.9	0.00e+00	123	29	0	196083712	46	5922
2026-01-29 13:14:08.14	25.65	6.94	-36.3	-37.4	22.1	0.00e+00	123	30	0	199229440	46	5809
2026-01-29 13:14:09.16	25.72	7.01	-36.4	-37.4	22.1	0.00e+00	123	30	0	202375168	46	5851
2026-01-29 13:14:10.17	25.80	7.08	-36.5	-37.5	22.0	0.00e+00	119	30	0	205520896	46	5899
2026-01-29 13:14:11.17	25.88	7.14	-36.7	-37.7	21.8	0.00e+00	122	30	0	208666624	46	6058
2026-01-29 13:14:12.18	25.96	7.21	-36.4	-37.5	22.1	0.00e+00	120	29	0	211812352	46	5892
2026-01-29 13:14:13.19	26.03	7.28	-36.3	-37.3	22.3	0.00e+00	123	30	0	214958080	46	5782
2026-01-29 13:14:14.20	26.11	7.35	-36.2	-37.3	22.3	0.00e+00	123	30	0	218103808	46	5729
2026-01-29 13:14:15.21	26.19	7.42	-36.3	-37.3	22.2	0.00e+00	123	30	0	221249536	46	5752
2026-01-29 13:14:16.22	26.27	7.49	-36.4	-37.4	22.1	0.00e+00	123	30	0	224395264	46	5847
2026-01-29 13:14:17.23	26.35	7.56	-36.5	-37.5	22.0	0.00e+00	120	30	0	227540992	46	5915
2026-01-29 13:14:18.24	26.43	7.63	-36.6	-37.7	21.9	0.00e+00	123	30	0	230686720	46	5999
2026-01-29 13:14:19.24	26.51	7.70	-36.2	-37.2	22.3	0.00e+00	120	29	0	233832448	46	5686
2026-01-29 13:14:20.26	26.59	7.77	-36.3	-37.4	22.2	0.00e+00	122	30	0	236978176	46	5818
2026-01-29 13:14:21.26	26.67	7.84	-36.2	-37.3	22.3	0.00e+00	123	30	0	240123904	46	5747
2026-01-29 13:14:22.27	26.75	7.91	-36.3	-37.4	22.2	0.00e+00	123	30	0	243269632	46	5801
2026-01-29 13:14:23.28	26.83	7.98	-36.3	-37.3	22.2	0.00e+00	123	30	0	246415360	46	5766
2026-01-29 13:14:24.29	26.92	8.05	-36.4	-37.4	22.1	0.00e+00	121	30	0	249561088	46	5844
2026-01-29 13:14:25.30	27.00	8.12	-36.4	-37.4	22.1	0.00e+00	122	30	0	252706816	46	5843
2026-01-29 13:14:26.31	27.08	8.19	-36.5	-37.6	22.0	0.00e+00	123	30	0	255852544	46	5947
2026-01-29 13:14:27.32	27.16	8.26	-36.4	-37.5	22.2	0.00e+00	123	30	0	258998272	46	5860
2026-01-29 13:14:28.33	27.25	8.33	-36.3	-37.3	22.2	0.00e+00	122	30	0	262144000	46	5790
2026-01-29 13:14:29.34	27.33	8.40	-36.3	-37.4	22.2	0.00e+00	122	30	0	265289728	46	5814
2026-01-29 13:14:30.35	27.42	8.47	-36.4	-37.4	22.2	0.00e+00	120	30	0	268435456	46	5849
2026-01-29 13:14:31.36	27.50	8.54	-36.5	-37.6	22.0	0.00e+00	123	30	0	271581184	46	5928
2026-01-29 13:14:32.37	27.59	8.62	-36.4	-37.5	22.1	0.00e+00	122	30	0	274726912	46	5870
2026-01-29 13:14:33.38	27.67	8.69	-36.3	-37.3	22.2	0.00e+00	122	30	0	277872640	46	5759
2026-01-29 13:14:34.39	27.76	8.76	-36.4	-37.4	22.0	0.00e+00	122	30	0	281018368	46	5837
2026-01-29 13:14:35.40	27.84	8.83	-36.1	-37.1	22.4	0.00e+00	122	30	0	284164096	46	5625
2026-01-29 13:14:36.41	27.93	8.90	-36.2	-37.2	22.3	0.00e+00	123	30	0	287309824	46	5695
2026-01-29 13:14:37.42	28.02	8.98	-36.2	-37.2	22.3	0.00e+00	123	30	0	290455552	46	5702
2026-01-29 13:14:38.43	28.11	9.05	-36.2	-37.2	22.4	0.00e+00	123	30	0	293601280	46	5674
2026-01-29 13:14:39.43	28.19	9.12	-36.1	-37.2	22.4	0.00e+00	122	30	0	296747008	46	5666
2026-01-29 13:14:40.44	28.28	9.19	-36.1	-37.1	22.4	0.00e+00	120	30	0	299892736	46	5604
2026-01-29 13:14:41.45	28.37	9.27	-36.0	-37.0	22.5	0.00e+00	123	30	0	303038464	46	5558
2026-01-29 13:14:42.46	28.46	9.34	-36.1	-37.1	22.5	0.00e+00	122	30	0	306184192	46	5619
2026-01-29 13:14:43.47	28.55	9.41	-36.0	-37.1	22.4	0.00e+00	123	30	0	309329920	46	5609
2026-01-29 13:14:44.48	28.64	9.49	-36.2	-37.2	22.4	0.00e+00	122	30	0	312475648	46	5705
2026-01-29 13:14:45.49	28.73	9.56	-36.1	-37.1	22.6	0.00e+00	122	29	0	315621376	46	5607
2026-01-29 13:14:46.50	28.82	9.63	-35.9	-36.9	22.6	0.00e+00	120	30	0	318767104	46	5514
2026-01-29 13:14:47.51	28.91	9.71	-35.9	-36.9	22.7	0.00e+00	123	30	0	321912832	46	5505
2026-01-29 13:14:48.52	29.00	9.78	-35.9	-36.9	22.7	0.00e+00	123	30	0	325058560	46	5524
2026-01-29 13:14:49.53	29.10	9.86	-35.9	-36.9	22.7	0.00e+00	123	30	0	328204288	46	5491
2026-01-29 13:14:50.54	29.19	9.93	-35.8	-36.8	22.7	0.00e+00	123	30	0	331350016	46	5448
2026-01-29 13:14:51.55	29.28	10.01	-35.9	-36.9	22.7	0.00e+00	120	30	0	334495744	46	5504
2026-01-29 13:14:52.56	29.37	10.08	-35.6	-36.6	22.9	0.00e+00	122	30	0	337641472	44	5980
2026-01-29 13:14:53.57	29.47	10.15	-35.8	-36.8	22.8	0.00e+00	120	30	0	340787200	44	6068
2026-01-29 13:14:54.57	29.56	10.23	-35.7	-36.6	22.9	0.00e+00	122	30	0	343932928	44	5989
2026-01-29 13:14:55.58	29.66	10.30	-35.6	-36.6	22.9	0.00e+00	123	30	0	347078656	44	5968
2026-01-29 13:14:56.59	29.75	10.38	-35.5	-36.4	23.0	0.00e+00	122	30	0	350224384	44	5842
2026-01-29 13:14:57.60	29.85	10.46	-35.4	-36.4	23.1	0.00e+00	123	30	0	353370112	44	5807
2026-01-29 13:14:58.61	29.95	10.53	-35.4	-36.4	23.2	0.00e+00	118	30	0	356515840	44	5799
2026-01-29 13:14:59.62	30.04	10.61	-35.3	-36.3	23.2	0.00e+00	123	30	0	359661568	44	5755
2026-01-29 13:15:00.63	30.14	10.68	-35.2	-36.1	23.4	0.00e+00	122	30	0	362807296	44	5636
2026-01-29 13:15:01.64	30.24	10.76	-35.3	-36.2	23.3	0.00e+00	122	30	0	365953024	44	5710
2026-01-29 13:15:02.65	30.34	10.84	-35.4	-36.3	23.3	0.00e+00	123	30	0	369098752	44	5763
2026-01-29 13:15:03.66	30.43	10.91	-35.3	-36.2	23.3	0.00e+00	123	30	0	372244480	44	5702
2026-01-29 13:15:04.67	30.53	10.99	-35.2	-36.2	23.3	0.00e+00	123	30	0	375390208	44	5672
2026-01-29 13:15:05.68	30.63	11.07	-35.1	-36.1	23.4	0.00e+00	122	30	0	378535936	44	5622
2026-01-29 13:15:06.69	30.73	11.14	-35.1	-36.1	23.5	0.00e+00	123	30	0	381681664	44	5620
2026-01-29 13:15:07.70	30.83	11.22	-35.1	-36.1	23.4	0.00e+00	123	30	0	384827392	44	5620
2026-01-29 13:15:08.71	30.94	11.30	-35.2	-36.2	23.2	0.00e+00	123	30	0	387973120	44	5700
2026-01-29 13:15:09.72	31.04	11.38	-35.0	-36.0	23.5	0.00e+00	120	30	0	391118848	44	5544
2026-01-29 13:15:10.73	31.14	11.45	-35.1	-36.0	23.4	0.00e+00	123	30	0	394264576	44	5594
2026-01-29 13:15:11.73	31.24	11.53	-35.2	-36.1	23.4	0.00e+00	123	30	0	397410304	44	5634
2026-01-29 13:15:12.74	31.34	11.61	-35.2	-36.2	23.3	0.00e+00	123	30	0	400556032	44	5673
2026-01-29 13:15:13.75	31.45	11.69	-35.2	-36.2	23.2	0.00e+00	120	30	0	403701760	44	5695
2026-01-29 13:15:14.76	31.55	11.77	-35.1	-36.0	23.4	0.00e+00	123	30	0	406847488	44	5586
2026-01-29 13:15:15.77	31.66	11.84	-34.9	-35.8	23.7	0.00e+00	122	30	0	409993216	44	5424
2026-01-29 13:15:16.78	31.76	11.92	-35.0	-35.9	23.5	0.00e+00	120	30	0	413138944	44	5503
2026-01-29 13:15:17.79	31.87	12.00	-34.9	-35.8	23.7	0.00e+00	123	30	0	416284672	44	5422
2026-01-29 13:15:18.80	31.98	12.08	-34.9	-35.8	23.6	0.00e+00	123	30	0	419430400	44	5443
2026-01-29 13:15:19.81	32.08	12.16	-34.8	-35.7	23.7	0.00e+00	123	30	0	422576128	44	5379
2026-01-29 13:15:20.82	32.19	12.24	-34.9	-35.8	23.7	0.00e+00	123	30	0	425721856	44	5426
2026-01-29 13:15:21.83	32.30	12.32	-34.9	-35.8	23.6	0.00e+00	122	30	0	428867584	44	5438
2026-01-29 13:15:22.84	32.41	12.40	-34.7	-35.6	23.8	0.00e+00	123	30	0	432013312	42	5968
2026-01-29 13:15:23.85	32.52	12.48	-34.7	-35.7	23.8	0.00e+00	122	30	0	435159040	42	5999
2026-01-29 13:15:24.86	32.63	12.56	-34.8	-35.7	23.8	0.00e+00	120	30	0	438304768	42	6031
2026-01-29 13:15:25.87	32.74	12.64	-34.7	-35.6	23.8	0.00e+00	123	30	0	442499072	42	5967
2026-01-29 13:15:26.88	32.85	12.72	-34.7	-35.6	23.9	0.00e+00	123	30	0	444596224	42	5954
2026-01-29 13:15:27.89	32.96	12.80	-34.7	-35.6	23.8	0.00e+00	123	30	0	447741952	42	5961
2026-01-29 13:15:28.90	33.07	12.88	-34.8	-35.7	23.7	0.00e+00	122	30	0	450887680	42	6035
2026-01-29 13:15:29.91	33.18	12.96	-34.7	-35.6	23.8	0.00e+00	123	30	0	454033408	42	5991
2026-01-29 13:15:30.91	33.30	13.04	-34.9	-35.8	23.8	0.00e+00	123	30	0	457179136	42	6083
2026-01-29 13:15:31.92	33.41	13.12	-34.7	-35.6	23.8	0.00e+00	123	30	0	461373440	42	5984
2026-01-29 13:15:32.93	33.53	13.21	-34.6	-35.6	23.9	0.00e+00	123	30	0	464519168	42	5932
2026-01-29 13:15:33.94	33.64	13.29	-34.8	-35.7	23.7	0.00e+00	123	29	0	467664896	42	6055
2026-01-29 13:15:34.95	33.76	13.37	-34.9	-35.8	23.7	0.00e+00	122	30	0	469762048	42	6072
2026-01-29 13:15:35.96	33.87	13.45	-34.7	-35.6	23.8	0.00e+00	123	30	0	472907776	42	5950
2026-01-29 13:15:36.97	33.99	13.53	-34.8	-35.7	23.8	0.00e+00	123	30	0	477102080	42	6019
2026-01-29 13:15:37.98	34.11	13.62	-34.7	-35.6	23.9	0.00e+00	123	30	0	480247808	42	5946
2026-01-29 13:15:38.99	34.23	13.70	-34.8	-35.7	23.8	0.00e+00	120	30	0	483393536	42	6009
2026-01-29 13:15:40.00	34.34	13.78	-34.9	-35.8	23.7	0.00e+00	122	30	0	486539264	42	6098
2026-01-29 13:15:41.01	34.46	13.86	-35.0	-35.9	23.6	0.00e+00	123	30	0	489684992	42	6201
2026-01-29 13:15:42.02	34.58	13.95	-34.8	-35.7	23.8	0.00e+00	122	30	0	491782144	42	6052
2026-01-29 13:15:43.03	34.71	14.03	-34.9	-35.8	23.9	0.00e+00	123	30	0	495976448	42	6100
2026-01-29 13:15:44.04	34.83	14.11	-34.8	-35.8	23.7	0.00e+00	123	30	0	499122176	42	6073
2026-01-29 13:15:45.05	34.95	14.20	-34.8	-35.8	23.7	0.00e+00	120	30	0	502267904	42	6078
2026-01-29 13:15:46.06	35.07	14.28	-34.6	-35.5	23.9	0.00e+00	123	30	0	505413632	42	5915
2026-01-29 13:15:47.07	35.20	14.37	-34.7	-35.6	23.8	0.00e+00	123	30	0	508559360	42	5990
2026-01-29 13:15:48.08	35.32	14.45	-34.8	-35.7	23.8	0.00e+00	123	30	0	511705088	42	6053
2026-01-29 13:15:49.09	35.44	14.53	-34.8	-35.7	23.7	0.00e+00	120	30	0	514850816	42	6048
2026-01-29 13:15:50.10	35.57	14.62	-34.9	-35.8	23.7	0.00e+00	122	30	0	517996544	42	6098
2026-01-29 13:15:51.10	35.69	14.70	-35.0	-35.9	23.5	0.00e+00	120	30	0	521142272	42	6171
2026-01-29 13:15:52.11	35.82	14.79	-35.0	-36.0	23.5	0.00e+00	123	30	0	524288000	42	6206
2026-01-29 13:15:53.13	35.95	14.87	-34.9	-35.8	23.8	0.00e+00	120	30	0	527433728	42	6099
2026-01-29 13:15:54.13	36.08	14.96	-34.9	-35.9	23.7	0.00e+00	122	30	0	530579456	42	6159
2026-01-29 13:15:55.14	36.21	15.04	-35.0	-36.0	23.6	0.00e+00	120	30	0	533725184	42	6207
2026-01-29 13:15:56.15	36.34	15.13	-35.0	-36.0	23.7	0.00e+00	122	30	0	536870912	42	6213
2026-01-29 13:15:57.16	36.47	15.21	-35.1	-36.0	23.6	0.00e+00	122	30	0	540016640	42	6274
2026-01-29 13:15:58.17	36.60	15.30	-35.2	-36.2	23.5	0.00e+00	123	30	0	543162368	42	6356
2026-01-29 13:15:59.18	36.73	15.39	-35.3	-36.2	23.5	0.00e+00	122	30	0	546308096	42	6406
2026-01-29 13:16:00.19	36.86	15.47	-35.4	-36.3	23.4	0.00e+00	123	30	0	549453824	42	6472
2026-01-29 13:16:01.20	37.00	15.56	-35.3	-36.3	23.4	0.00e+00	122	30	0	552599552	42	6428
2026-01-29 13:16:02.21	37.13	15.65	-35.3	-36.3	23.4	0.00e+00	123	30	0	555745280	42	6433
2026-01-29 13:16:03.22	37.27	15.73	-35.3	-36.3	23.4	0.00e+00	120	30	0	558891008	42	6435
2026-01-29 13:16:04.23	37.40	15.82	-35.3	-36.2	23.5	0.00e+00	122	30	0	562036736	42	6397
2026-01-29 13:16:05.24	37.54	15.91	-35.4	-36.3	23.4	0.00e+00	123	30	0	565182464	42	6482
2026-01-29 13:16:06.24	37.67	15.99	-35.3	-36.3	23.5	0.00e+00	123	30	0	568328192	42	6425
2026-01-29 13:16:07.25	37.81	16.08	-35.5	-36.5	23.3	0.00e+00	122	30	0	571473920	42	6592
2026-01-29 13:16:08.26	37.95	16.17	-35.4	-36.3	23.4	0.00e+00	123	30	0	574619648	42	6480
2026-01-29 13:16:09.27	38.09	16.25	-35.4	-36.3	23.4	0.00e+00	120	30	0	577765376	42	6493
2026-01-29 13:16:10.27	38.23	16.34	-35.2	-36.2	23.6	0.00e+00	123	30	0	580911104	42	6392
2026-01-29 13:16:11.28	38.37	16.43	-35.2	-36.2	23.5	0.00e+00	123	30	0	584056832	42	6379
2026-01-29 13:16:12.29	38.51	16.52	-35.3	-36.2	23.5	0.00e+00	122	30	0	587202560	42	6415
2026-01-29 13:16:13.30	38.65	16.61	-35.1	-36.1	23.6	0.00e+00	123	30	0	590348288	42	6308
2026-01-29 13:16:14.31	38.80	16.69	-35.1	-36.0	23.7	0.00e+00	120	30	0	593494016	42	6241
2026-01-29 13:16:15.32	38.94	16.78	-35.1	-36.0	23.7	0.00e+00	123	30	0	596639744	42	6228
2026-01-29 13:16:16.33	39.09	16.87	-35.1	-36.0	23.7	0.00e+00	123	30	0	599785472	42	6236
2026-01-29 13:16:17.34	39.23	16.96	-34.9	-35.9	23.8	0.00e+00	123	30	0	602931200	42	6141
2026-01-29 13:16:18.34	39.38	17.05	-35.0	-35.9	23.8	0.00e+00	122	30	0	606076928	42	6165
2026-01-29 13:16:19.35	39.53	17.14	-35.0	-35.9	23.7	0.00e+00	122	30	0	609222656	42	6172
2026-01-29 13:16:20.36	39.67	17.23	-34.9	-35.8	23.8	0.00e+00	123	30	0	612368384	42	6076
2026-01-29 13:16:21.37	39.82	17.32	-34.8	-35.8	23.9	0.00e+00	123	30	0	615514112	42	6076
2026-01-29 13:16:22.38	39.97	17.41	-34.7	-35.6	24.0	0.00e+00	122	30	0	618659840	42	5973
2026-01-29 13:16:23.39	40.12	17.50	-34.7	-35.7	24.0	0.00e+00	120	30	0	621805568	42	6000
2026-01-29 13:16:24.40	40.28	17.59	-34.7	-35.6	23.9	0.00e+00	122	30	0	624951296	42	5972
2026-01-29 13:16:25.41	40.43	17.68	-34.9	-35.8	23.9	0.00e+00	122	30	0	628097024	42	6074
2026-01-29 13:16:26.42	40.58	17.77	-34.6	-35.5	24.0	0.00e+00	120	30	0	631242752	42	5909
2026-01-29 13:16:27.43	40.74	17.86	-34.6	-35.5	24.1	0.00e+00	123	30	0	634388480	42	5910
2026-01-29 13:16:28.44	40.89	17.95	-34.7	-35.6	23.9	0.00e+00	121	30	0	637534208	42	5975
2026-01-29 13:16:29.45	41.05	18.04	-34.6	-35.5	24.0	0.00e+00	123	30	0	640679936	42	5906
2026-01-29 13:16:30.46	41.21	18.13	-34.7	-35.6	23.9	0.00e+00	122	30	0	643825664	42	5983
2026-01-29 13:16:31.47	41.36	18.22	-34.7	-35.6	23.8	0.00e+00	122	30	0	646971392	42	5989
2026-01-29 13:16:32.47	41.52	18.31	-34.5	-35.4	24.0	0.00e+00	123	30	0	650117120	42	5852
2026-01-29 13:16:33.48	41.68	18.40	-34.6	-35.5	24.0	0.00e+00	122	30	0	653262848	42	5874
2026-01-29 13:16:34.49	41.84	18.49	-34.6	-35.5	24.0	0.00e+00	120	30	0	656408576	42	5892
2026-01-29 13:16:35.50	42.01	18.58	-34.7	-35.6	23.9	0.00e+00	120	30	0	659554304	42	5985
2026-01-29 13:16:36.51	42.17	18.67	-34.6	-35.5	24.0	0.00e+00	122	30	0	662700032	42	5901
2026-01-29 13:16:37.52	42.33	18.77	-34.7	-35.6	23.9	0.00e+00	123	30	0	665845760	42	5991
2026-01-29 13:16:38.53	42.50	18.86	-34.8	-35.7	23.8	0.00e+00	123	30	0	668991488	42	6023
2026-01-29 13:16:39.54	42.66	18.95	-34.8	-35.7	23.8	0.00e+00	123	30	0	672137216	42	6021
2026-01-29 13:16:40.55	42.83	19.04	-34.8	-35.8	23.7	0.00e+00	123	30	0	675282944	42	6075
2026-01-29 13:16:41.56	43.00	19.13	-34.7	-35.6	23.9	0.00e+00	120	30	0	678428672	42	5945
2026-01-29 13:16:42.57	43.17	19.23	-34.6	-35.6	24.0	0.00e+00	123	30	0	681574400	42	5939
2026-01-29 13:16:43.58	43.34	19.32	-34.7	-35.6	23.9	0.00e+00	122	30	0	684720128	42	5986
2026-01-29 13:16:44.59	43.51	19.41	-34.6	-35.5	24.0	0.00e+00	122	30	0	687865856	42	5888
2026-01-29 13:16:45.60	43.68	19.50	-34.7	-35.6	24.0	0.00e+00	123	30	0	691011584	42	5962
2026-01-29 13:16:46.60	43.85	19.59	-34.5	-35.5	24.2	0.00e+00	123	30	0	694157312	42	5875
2026-01-29 13:16:47.62	44.02	19.69	-34.6	-35.5	24.2	0.00e+00	122	30	0	697303040	42	5885
2026-01-29 13:16:48.63	44.20	19.78	-34.5	-35.4	24.1	0.00e+00	123	30	0	700448768	42	5828
2026-01-29 13:16:49.64	44.37	19.87	-34.3	-35.2	24.3	0.00e+00	123	30	0	703594496	42	5718
2026-01-29 13:16:50.65	44.55	19.97	-34.2	-35.1	24.4	0.00e+00	123	30	0	706740224	42	5604
2026-01-29 13:16:51.66	44.73	20.06	-34.1	-35.0	24.5	0.00e+00	123	30	0	709885952	42	5561
2026-01-29 13:16:52.66	44.91	20.15	-34.2	-35.1	24.4	0.00e+00	123	30	0	713031680	42	5604
2026-01-29 13:16:53.67	45.09	20.25	-34.2	-35.1	24.3	0.00e+00	123	30	0	716177408	42	5622
2026-01-29 13:16:54.68	45.27	20.34	-33.8	-34.7	24.6	0.00e+00	123	30	0	719323136	42	5389
2026-01-29 13:16:55.69	45.45	20.43	-33.7	-34.6	24.8	0.00e+00	123	30	0	722468864	40	5965
2026-01-29 13:16:56.70	45.63	20.53	-33.8	-34.7	24.7	0.00e+00	120	30	0	725614592	40	6007
2026-01-29 13:16:57.71	45.82	20.62	-33.8	-34.7	24.7	0.00e+00	122	30	0	728760320	40	6024
2026-01-29 13:16:58.72	46.00	20.71	-33.9	-34.8	24.6	0.00e+00	122	30	0	731906048	40	6097
2026-01-29 13:16:59.73	46.19	20.81	-33.7	-34.6	24.7	0.00e+00	120	30	0	735051776	40	5932
2026-01-29 13:17:00.74	46.38	20.90	-33.6	-34.5	24.9	0.00e+00	122	30	0	738197504	40	5890
2026-01-29 13:17:01.75	46.57	20.99	-33.8	-34.7	24.6	0.00e+00	122	30	0	741343232	40	6005
2026-01-29 13:17:02.76	46.76	21.09	-33.8	-34.6	24.7	0.00e+00	123	30	0	744488960	40	5989
2026-01-29 13:17:03.77	46.95	21.18	-33.6	-34.5	24.7	0.00e+00	123	30	0	747634688	40	5888
2026-01-29 13:17:04.78	47.14	21.27	-33.7	-34.5	24.7	0.00e+00	123	30	0	750780416	40	5923
2026-01-29 13:17:05.78	47.33	21.37	-33.7	-34.5	24.6	0.00e+00	122	30	0	753926144	40	5926
2026-01-29 13:17:06.79	47.52	21.46	-33.8	-34.7	24.5	0.00e+00	123	30	0	757071872	40	6008
2026-01-29 13:17:07.80	47.72	21.55	-33.6	-34.5	24.8	0.00e+00	123	30	0	760217600	40	5893
2026-01-29 13:17:08.81	47.92	21.65	-33.6	-34.5	24.7	0.00e+00	123	30	0	763363328	40	5922
2026-01-29 13:17:09.82	48.11	21.74	-33.6	-34.5	24.8	0.00e+00	122	30	0	766509056	40	5899
2026-01-29 13:17:10.83	48.31	21.84	-33.8	-34.7	24.7	0.00e+00	122	30	0	769654784	40	6001
2026-01-29 13:17:11.84	48.51	21.93	-33.8	-34.7	24.7	0.00e+00	120	30	0	772800512	40	6037
2026-01-29 13:17:12.85	48.71	22.02	-33.8	-34.7	24.7	0.00e+00	122	30	0	775946240	40	6042
2026-01-29 13:17:13.86	48.92	22.12	-33.8	-34.7	24.7	0.00e+00	122	30	0	779091968	40	5999
2026-01-29 13:17:14.87	49.12	22.21	-33.5	-34.4	24.9	0.00e+00	122	30	0	782237696	40	5795
2026-01-29 13:17:15.88	49.33	22.31	-33.5	-34.4	24.9	0.00e+00	123	30	0	785383424	40	5814
2026-01-29 13:17:16.89	49.53	22.40	-33.5	-34.4	24.9	0.00e+00	122	30	0	788529152	40	5827
2026-01-29 13:17:17.89	49.74	22.49	-33.4	-34.3	24.9	0.00e+00	123	30	0	791674880	40	5736
2026-01-29 13:17:18.91	49.95	22.59	-33.5	-34.4	24.9	0.00e+00	123	30	0	794820608	40	5796
2026-01-29 13:17:19.92	50.16	22.68	-33.4	-34.2	24.9	0.00e+00	123	30	0	797966336	40	5723
2026-01-29 13:17:20.93	50.37	22.77	-33.4	-34.3	24.8	0.00e+00	122	30	0	801112064	40	5727
2026-01-29 13:17:21.94	50.58	22.87	-33.4	-34.3	24.9	0.00e+00	123	30	0	804257792	40	5726
2026-01-29 13:17:22.95	50.80	22.96	-33.5	-34.4	24.9	0.00e+00	122	30	0	807403520	40	5801
2026-01-29 13:17:23.96	51.01	23.06	-33.6	-34.4	24.9	0.00e+00	122	30	0	810549248	40	5855
2026-01-29 13:17:24.97	51.23	23.15	-33.6	-34.5	24.8	0.00e+00	123	30	0	813694976	40	5861
2026-01-29 13:17:25.98	51.44	23.24	-33.6	-34.5	24.9	0.00e+00	120	30	0	816840704	40	5875
2026-01-29 13:17:26.99	51.66	23.34	-33.7	-34.5	24.7	0.00e+00	123	30	0	819986432	40	5925
2026-01-29 13:17:28.00	51.88	23.43	-33.7	-34.6	24.7	0.00e+00	122	30	0	823132160	40	5930
2026-01-29 13:17:29.01	52.10	23.52	-33.8	-34.7	24.6	0.00e+00	123	30	0	826277888	40	6004
2026-01-29 13:17:30.02	52.33	23.61	-33.9	-34.8	24.6	0.00e+00	123	30	0	829423616	40	6072
2026-01-29 13:17:31.03	52.55	23.71	-33.9	-34.8	24.7	0.00e+00	122	30	0	832569344	40	6126
2026-01-29 13:17:32.04	52.77	23.80	-33.9	-34.7	24.7	0.00e+00	123	30	0	835715072	40	6062
2026-01-29 13:17:33.05	53.00	23.89	-33.9	-34.8	24.7	0.00e+00	123	30	0	838860800	40	6104
2026-01-29 13:17:34.05	53.23	23.98	-34.0	-34.9	24.6	0.00e+00	120	30	0	842006528	40	6173
2026-01-29 13:17:35.07	53.46	24.08	-33.9	-34.8	24.7	0.00e+00	122	30	0	845152256	40	6078
2026-01-29 13:17:36.08	53.69	24.17	-33.9	-34.8	24.7	0.00e+00	120	30	0	849346560	40	6125
2026-01-29 13:17:37.09	53.92	24.26	-33.8	-34.7	24.6	0.00e+00	122	30	0	852492288	40	6061
2026-01-29 13:17:38.09	54.15	24.35	-33.7	-34.6	24.8	0.00e+00	123	30	0	855638016	40	5950
2026-01-29 13:17:39.11	54.39	24.45	-33.8	-34.7	24.7	0.00e+00	123	30	0	857735168	40	6016
2026-01-29 13:17:40.12	54.62	24.54	-33.8	-34.7	24.7	0.00e+00	122	30	0	860880896	40	6015
2026-01-29 13:17:41.13	54.86	24.63	-33.8	-34.7	24.8	0.00e+00	122	30	0	865075200	40	6013
2026-01-29 13:17:42.13	55.10	24.72	-33.9	-34.7	24.7	0.00e+00	123	30	0	868220928	40	6061
2026-01-29 13:17:43.14	55.34	24.81	-33.9	-34.8	24.6	0.00e+00	122	30	0	871366656	40	6119
2026-01-29 13:17:44.14	55.57	24.90	-34.1	-35.0	24.6	0.00e+00	120	30	0	874512384	40	6208
2026-01-29 13:17:45.15	55.82	24.99	-34.4	-35.3	24.4	0.00e+00	120	30	0	877658112	40	6452
2026-01-29 13:17:46.16	56.06	25.08	-34.2	-35.1	24.5	0.00e+00	123	30	0	879755264	40	6321
2026-01-29 13:17:47.17	56.31	25.17	-34.3	-35.2	24.5	0.00e+00	123	30	0	883949568	40	6369
2026-01-29 13:17:48.18	56.55	25.26	-34.3	-35.2	24.5	0.00e+00	123	30	0	887095296	40	6385
2026-01-29 13:17:49.19	56.80	25.35	-34.2	-35.1	24.5	0.00e+00	121	30	0	890241024	40	6296
2026-01-29 13:17:50.20	57.05	25.44	-34.1	-35.0	24.6	0.00e+00	123	30	0	893386752	40	6248
2026-01-29 13:17:51.21	57.30	25.53	-34.1	-35.0	24.5	0.00e+00	123	30	0	896532480	40	6225
2026-01-29 13:17:52.22	57.55	25.62	-34.1	-35.0	24.4	0.00e+00	122	30	0	899678208	40	6231
2026-01-29 13:17:53.23	57.81	25.71	-34.0	-34.9	24.4	0.00e+00	122	30	0	902823936	40	6195
2026-01-29 13:17:54.24	58.06	25.80	-34.1	-35.0	24.5	0.00e+00	123	30	0	905969664	40	6233
2026-01-29 13:17:55.25	58.32	25.89	-34.1	-35.0	24.5	0.00e+00	120	30	0	909115392	40	6233
2026-01-29 13:17:56.26	58.58	25.97	-34.0	-34.9	24.7	0.00e+00	122	30	0	912261120	40	6146
2026-01-29 13:17:57.27	58.83	26.06	-34.0	-34.9	24.7	0.00e+00	123	30	0	915406848	40	6190
2026-01-29 13:17:58.29	59.10	26.15	-34.1	-34.9	24.7	0.00e+00	123	30	0	918552576	40	6197
2026-01-29 13:17:59.30	59.36	26.24	-34.0	-34.9	24.8	0.00e+00	122	30	0	921698304	40	6137
2026-01-29 13:18:00.31	59.62	26.32	-34.0	-34.9	24.6	0.00e+00	123	30	0	924844032	40	6180
2026-01-29 13:18:01.32	59.89	26.41	-34.0	-34.9	24.5	0.00e+00	120	30	0	927989760	40	6180
2026-01-29 13:18:02.33	60.15	26.49	-34.0	-34.9	24.5	0.00e+00	123	30	0	931135488	40	6177
2026-01-29 13:18:03.33	60.42	26.58	-33.9	-34.8	24.5	0.00e+00	122	30	0	934281216	40	6116
2026-01-29 13:18:04.34	60.69	26.66	-33.9	-34.8	24.4	0.00e+00	123	30	0	937426944	40	6068
2026-01-29 13:18:05.35	60.96	26.75	-33.8	-34.7	24.5	0.00e+00	123	30	0	940572672	40	6015
2026-01-29 13:18:06.35	61.23	26.83	-33.8	-34.7	24.5	0.00e+00	122	30	0	943718400	40	5995
2026-01-29 13:18:07.36	61.50	26.92	-33.8	-34.7	24.6	0.00e+00	123	30	0	946864128	40	6035
2026-01-29 13:18:08.37	61.78	27.00	-33.8	-34.7	24.7	0.00e+00	120	30	0	950009856	40	6043
2026-01-29 13:18:09.38	62.05	27.08	-33.9	-34.8	24.6	0.00e+00	123	30	0	953155584	40	6091
2026-01-29 13:18:10.39	62.33	27.16	-33.9	-34.7	24.6	0.00e+00	122	30	0	956301312	40	6062
2026-01-29 13:18:11.40	62.61	27.25	-33.8	-34.7	24.7	0.00e+00	121	30	0	959447040	40	6002
2026-01-29 13:18:12.41	62.89	27.33	-33.9	-34.8	24.6	0.00e+00	123	30	0	962592768	40	6113
2026-01-29 13:18:13.42	63.17	27.41	-33.7	-34.6	24.7	0.00e+00	123	30	0	965738496	40	5945
2026-01-29 13:18:14.43	63.45	27.49	-33.9	-34.8	24.2	0.00e+00	122	30	0	968884224	40	6122
2026-01-29 13:18:15.44	63.74	27.57	-34.0	-34.9	24.1	0.00e+00	122	30	0	972029952	40	6173
2026-01-29 13:18:16.44	64.02	27.65	-33.9	-34.8	24.1	0.00e+00	123	30	0	975175680	40	6095
2026-01-29 13:18:17.45	64.31	27.73	-33.9	-34.8	24.5	0.00e+00	123	30	0	978321408	40	6099
2026-01-29 13:18:18.46	64.60	27.81	-33.9	-34.8	24.6	0.00e+00	122	30	0	981467136	40	6093
2026-01-29 13:18:19.47	64.89	27.88	-33.8	-34.6	24.9	0.00e+00	123	30	0	984612864	40	5986
2026-01-29 13:18:20.48	65.18	27.96	-33.6	-34.5	24.9	0.00e+00	123	30	0	987758592	40	5900
2026-01-29 13:18:21.49	65.47	28.04	-33.9	-34.8	24.8	0.00e+00	120	30	0	990904320	40	6073
2026-01-29 13:18:22.49	65.76	28.11	-33.9	-34.8	24.7	0.00e+00	123	30	0	994050048	40	6065
2026-01-29 13:18:23.50	66.06	28.19	-34.0	-34.9	24.5	0.00e+00	123	30	0	997195776	40	6189
2026-01-29 13:18:24.51	66.36	28.27	-34.2	-35.1	24.3	0.00e+00	123	30	0	1000341504	40	6300
2026-01-29 13:18:25.52	66.65	28.34	-34.0	-34.9	24.5	0.00e+00	122	30	0	1003487232	40	6186
2026-01-29 13:18:26.53	66.95	28.41	-34.2	-35.1	24.4	0.00e+00	122	30	0	1006632960	40	6298
2026-01-29 13:18:27.54	67.26	28.49	-34.2	-35.1	24.4	0.00e+00	122	30	0	1009778688	40	6346
2026-01-29 13:18:28.55	67.56	28.56	-34.3	-35.2	24.5	0.00e+00	123	30	0	1012924416	40	6357
2026-01-29 13:18:29.56	67.86	28.63	-33.9	-34.8	24.7	0.00e+00	123	30	0	1016070144	40	6096
2026-01-29 13:18:30.57	68.17	28.70	-33.8	-34.7	24.8	0.00e+00	120	30	0	1019215872	40	6027
2026-01-29 13:18:31.58	68.47	28.77	-33.8	-34.6	24.9	0.00e+00	123	30	0	1022361600	40	5978
2026-01-29 13:18:32.59	68.78	28.84	-33.9	-34.8	24.7	0.00e+00	123	30	0	1025507328	40	6110
2026-01-29 13:18:33.60	69.09	28.91	-34.1	-35.0	24.6	0.00e+00	122	30	0	1028653056	40	6208
2026-01-29 13:18:34.61	69.40	28.98	-34.2	-35.1	24.4	0.00e+00	122	30	0	1031798784	40	6282
2026-01-29 13:18:35.62	69.71	29.05	-34.4	-35.3	24.4	0.00e+00	122	30	0	1034944512	40	6484
2026-01-29 13:18:36.63	70.03	29.11	-34.2	-35.1	24.5	0.00e+00	120	30	0	1038090240	40	6321
2026-01-29 13:18:37.64	70.34	29.18	-34.3	-35.2	24.5	0.00e+00	123	30	0	1041235968	40	6387
2026-01-29 13:18:38.65	70.66	29.25	-34.1	-35.0	24.5	0.00e+00	123	30	0	1044381696	40	6250
2026-01-29 13:18:39.65	70.97	29.31	-33.8	-34.6	24.8	0.00e+00	122	30	0	1047527424	40	5994
2026-01-29 13:18:40.66	71.29	29.37	-33.7	-34.6	24.8	0.00e+00	123	30	0	1050673152	40	5953
2026-01-29 13:18:41.67	71.61	29.44	-33.8	-34.7	24.8	0.00e+00	123	30	0	1053818880	40	6010
2026-01-29 13:18:42.69	71.93	29.50	-33.8	-34.7	24.8	0.00e+00	123	30	0	1056964608	40	6039
2026-01-29 13:18:43.70	72.25	29.56	-33.9	-34.8	24.7	0.00e+00	123	30	0	1060110336	40	6098
2026-01-29 13:18:44.70	72.57	29.62	-34.0	-34.9	24.6	0.00e+00	122	30	0	1063256064	40	6192
2026-01-29 13:18:45.71	72.90	29.68	-34.2	-35.0	24.5	0.00e+00	123	30	0	1066401792	40	6274
2026-01-29 13:18:46.73	73.23	29.74	-34.2	-35.1	24.5	0.00e+00	123	30	0	1069547520	40	6292
2026-01-29 13:18:47.73	73.55	29.80	-34.1	-35.0	24.5	0.00e+00	123	30	0	1072693248	40	6266
2026-01-29 13:18:48.74	73.88	29.86	-34.3	-35.2	24.5	0.00e+00	123	30	0	1075838976	40	6375
2026-01-29 13:18:49.75	74.21	29.91	-34.3	-35.2	24.3	0.00e+00	123	30	0	1078984704	40	6378
2026-01-29 13:18:50.76	74.54	29.97	-34.1	-35.0	24.5	0.00e+00	122	30	0	1082130432	40	6225
2026-01-29 13:18:51.77	74.87	30.02	-34.0	-34.9	24.6	0.00e+00	122	30	0	1085276160	40	6135
2026-01-29 13:18:52.78	75.20	30.07	-34.2	-35.1	24.4	0.00e+00	120	30	0	1088421888	40	6311
2026-01-29 13:18:53.79	75.53	30.13	-34.2	-35.1	24.4	0.00e+00	122	30	0	1091567616	40	6287
2026-01-29 13:18:54.80	75.87	30.18	-34.4	-35.3	24.3	0.00e+00	120	30	0	1094713344	40	6453
2026-01-29 13:18:55.81	76.20	30.23	-34.5	-35.4	24.3	0.00e+00	122	30	0	1097859072	40	6565
2026-01-29 13:18:56.82	76.54	30.28	-34.6	-35.5	24.3	0.00e+00	122	30	0	1101004800	40	6593
2026-01-29 13:18:57.83	76.88	30.33	-34.6	-35.5	24.3	0.00e+00	123	30	0	1104150528	40	6596
2026-01-29 13:18:58.83	77.21	30.38	-34.5	-35.4	24.3	0.00e+00	123	30	0	1107296256	40	6526
2026-01-29 13:18:59.85	77.55	30.42	-34.6	-35.5	24.0	0.00e+00	123	30	0	1110441984	40	6629
2026-01-29 13:19:00.86	77.89	30.47	-34.6	-35.5	24.0	0.00e+00	121	30	0	1113587712	40	6645
2026-01-29 13:19:01.87	78.24	30.51	-34.6	-35.5	24.1	0.00e+00	123	30	0	1116733440	40	6625
2026-01-29 13:19:02.87	78.58	30.56	-34.5	-35.4	24.3	0.00e+00	120	30	0	1119879168	40	6555
2026-01-29 13:19:03.88	78.92	30.60	-34.4	-35.3	24.4	0.00e+00	122	30	0	1123024896	40	6458
2026-01-29 13:19:04.89	79.26	30.64	-34.4	-35.3	24.4	0.00e+00	121	30	0	1126170624	40	6457
2026-01-29 13:19:05.90	79.61	30.68	-34.5	-35.4	24.3	0.00e+00	122	30	0	1129316352	40	6522
2026-01-29 13:19:06.91	79.95	30.72	-34.6	-35.5	23.9	0.00e+00	123	30	0	1132462080	40	6599
2026-01-29 13:19:07.92	80.30	30.76	-34.8	-35.7	24.0	0.00e+00	123	30	0	1135607808	42	6056
2026-01-29 13:19:08.93	80.65	30.80	-34.9	-35.8	24.0	0.00e+00	123	30	0	1138753536	42	6089
2026-01-29 13:19:09.94	81.00	30.83	-34.4	-35.3	24.5	0.00e+00	123	30	0	1141899264	42	5751
2026-01-29 13:19:10.95	81.34	30.87	-34.3	-35.2	24.5	0.00e+00	122	30	0	1145044992	42	5698
2026-01-29 13:19:11.96	81.69	30.90	-34.2	-35.1	24.6	0.00e+00	123	30	0	1148190720	42	5637
2026-01-29 13:19:12.97	82.04	30.93	-34.5	-35.3	24.3	0.00e+00	123	30	0	1151336448	42	5791
2026-01-29 13:19:13.98	82.40	30.97	-34.4	-35.3	24.3	0.00e+00	122	30	0	1154482176	42	5789
2026-01-29 13:19:14.99	82.75	31.00	-34.6	-35.6	24.2	0.00e+00	123	30	0	1157627904	42	5932
2026-01-29 13:19:16.00	83.10	31.03	-34.6	-35.6	24.1	0.00e+00	123	30	0	1160773632	42	5933
2026-01-29 13:19:17.01	83.45	31.05	-34.6	-35.5	24.2	0.00e+00	123	30	0	1163919360	42	5903
2026-01-29 13:19:18.02	83.81	31.08	-34.6	-35.5	24.4	0.00e+00	123	30	0	1167065088	42	5875
2026-01-29 13:19:19.03	84.16	31.11	-34.4	-35.3	24.2	0.00e+00	122	30	0	1170210816	42	5730
2026-01-29 13:19:20.04	84.52	31.13	-34.5	-35.4	24.4	0.00e+00	123	30	0	1173356544	42	5809
2026-01-29 13:19:21.05	84.87	31.16	-34.4	-35.3	24.4	0.00e+00	123	30	0	1176502272	42	5778
2026-01-29 13:19:22.05	85.22	31.18	-34.4	-35.3	24.4	0.00e+00	122	30	0	1179648000	42	5772
2026-01-29 13:19:23.06	85.58	31.20	-34.4	-35.3	24.5	0.00e+00	122	30	0	1182793728	42	5738
2026-01-29 13:19:24.07	85.94	31.22	-34.4	-35.3	24.4	0.00e+00	120	30	0	1185939456	42	5775
2026-01-29 13:19:25.08	86.29	31.24	-34.5	-35.4	24.3	0.00e+00	123	30	0	1189085184	42	5835
2026-01-29 13:19:26.09	86.65	31.26	-34.5	-35.4	24.4	0.00e+00	122	30	0	1192230912	42	5856
2026-01-29 13:19:27.10	87.01	31.27	-34.8	-35.7	24.1	0.00e+00	123	30	0	1195376640	42	6031
2026-01-29 13:19:28.11	87.37	31.29	-34.7	-35.7	24.2	0.00e+00	123	30	0	1198522368	42	5995
2026-01-29 13:19:29.12	87.73	31.30	-34.8	-35.7	24.1	0.00e+00	123	30	0	1201668096	42	6039
2026-01-29 13:19:30.13	88.09	31.32	-34.7	-35.6	24.1	0.00e+00	122	30	0	1204813824	42	5991
2026-01-29 13:19:31.14	88.45	31.33	-34.7	-35.7	24.0	0.00e+00	123	30	0	1207959552	42	6003
2026-01-29 13:19:32.15	88.81	31.34	-34.6	-35.5	24.1	0.00e+00	122	30	0	1211105280	42	5898
2026-01-29 13:19:33.16	89.17	31.35	-34.7	-35.6	24.1	0.00e+00	122	30	0	1214251008	42	5930
2026-01-29 13:19:34.17	89.53	31.36	-34.8	-35.7	24.0	0.00e+00	122	30	0	1217396736	42	6039
2026-01-29 13:19:35.18	89.89	31.36	-34.8	-35.7	24.2	0.00e+00	121	30	0	1220542464	42	6000
2026-01-29 13:19:36.19	90.25	31.37	-34.7	-35.6	24.1	0.00e+00	123	30	0	1223688192	42	5993
2026-01-29 13:19:37.20	90.61	31.37	-34.9	-35.8	24.0	0.00e+00	123	30	0	1226833920	42	6103
2026-01-29 13:19:38.21	90.97	31.38	-34.7	-35.6	24.1	0.00e+00	123	30	0	1229979648	42	5983
2026-01-29 13:19:39.22	91.33	31.38	-34.7	-35.6	24.1	0.00e+00	122	30	0	1233125376	42	5980
2026-01-29 13:19:40.22	91.69	31.38	-34.7	-35.6	24.0	0.00e+00	120	30	0	1237319680	42	5969
2026-01-29 13:19:41.23	92.05	31.38	-34.7	-35.6	24.1	0.00e+00	123	30	0	1240465408	42	5964
2026-01-29 13:19:42.24	92.41	31.38	-34.5	-35.4	24.3	0.00e+00	123	30	0	1242562560	42	5816
2026-01-29 13:19:43.25	92.77	31.37	-34.6	-35.5	24.3	0.00e+00	123	30	0	1245708288	42	5912
2026-01-29 13:19:44.26	93.13	31.37	-34.4	-35.3	24.3	0.00e+00	120	30	0	1248854016	42	5746
2026-01-29 13:19:45.27	93.49	31.36	-34.2	-35.1	24.5	0.00e+00	123	30	0	1253048320	42	5603
2026-01-29 13:19:46.28	93.85	31.36	-34.4	-35.3	24.3	0.00e+00	123	30	0	1256194048	42	5759
2026-01-29 13:19:47.29	94.21	31.35	-34.5	-35.4	24.2	0.00e+00	123	30	0	1259339776	42	5831
2026-01-29 13:19:48.30	94.57	31.34	-34.5	-35.4	24.2	0.00e+00	123	30	0	1262485504	42	5854
2026-01-29 13:19:49.31	94.93	31.33	-34.5	-35.4	24.2	0.00e+00	123	30	0	1265631232	42	5856
2026-01-29 13:19:50.32	95.29	31.32	-34.4	-35.3	24.3	0.00e+00	123	30	0	1268776960	42	5783
2026-01-29 13:19:51.33	95.65	31.31	-34.3	-35.2	24.4	0.00e+00	122	30	0	1271922688	42	5667
2026-01-29 13:19:52.34	96.01	31.29	-34.3	-35.1	24.3	0.00e+00	122	30	0	1275068416	42	5651
2026-01-29 13:19:53.35	96.37	31.28	-34.3	-35.1	24.2	0.00e+00	123	30	0	1278214144	42	5653
2026-01-29 13:19:54.36	96.72	31.26	-34.4	-35.3	24.3	0.00e+00	123	30	0	1281359872	42	5745
2026-01-29 13:19:55.37	97.08	31.24	-34.4	-35.3	24.4	0.00e+00	123	30	0	1284505600	42	5748
2026-01-29 13:19:56.38	97.44	31.22	-34.5	-35.4	24.4	0.00e+00	122	30	0	1287651328	42	5801
2026-01-29 13:19:57.38	97.79	31.20	-34.4	-35.4	24.2	0.00e+00	120	30	0	1290797056	42	5792
2026-01-29 13:19:58.39	98.15	31.18	-34.5	-35.4	24.2	0.00e+00	123	30	0	1293942784	42	5826
2026-01-29 13:19:59.40	98.51	31.16	-34.2	-35.1	24.3	0.00e+00	120	30	0	1297088512	42	5657
2026-01-29 13:20:00.42	98.87	31.14	-34.3	-35.2	24.3	0.00e+00	123	30	0	1300234240	42	5718
2026-01-29 13:20:01.42	99.22	31.11	-34.3	-35.2	24.4	0.00e+00	123	30	0	1303379968	42	5683
2026-01-29 13:20:02.43	99.57	31.09	-34.4	-35.3	24.2	0.00e+00	122	30	0	1306525696	42	5765
2026-01-29 13:20:03.44	99.93	31.06	-34.1	-35.0	24.4	0.00e+00	123	30	0	1309671424	42	5556
2026-01-29 13:20:04.45	100.28	31.03	-34.5	-35.4	24.1	0.00e+00	122	30	0	1312817152	42	5837
2026-01-29 13:20:05.46	100.63	31.00	-34.7	-35.7	24.1	0.00e+00	122	30	0	1315962880	42	6001
2026-01-29 13:20:06.47	100.99	30.97	-34.7	-35.6	24.1	0.00e+00	122	30	0	1319108608	42	5967
2026-01-29 13:20:07.48	101.34	30.94	-34.7	-35.7	24.1	0.00e+00	123	30	0	1322254336	42	6001
2026-01-29 13:20:08.49	101.69	30.91	-34.5	-35.4	24.2	0.00e+00	122	30	0	1325400064	42	5841
2026-01-29 13:20:09.50	102.04	30.88	-34.3	-35.2	24.4	0.00e+00	123	30	0	1328545792	42	5678
2026-01-29 13:20:10.51	102.39	30.84	-34.3	-35.2	24.4	0.00e+00	122	30	0	1331691520	42	5698
2026-01-29 13:20:11.52	102.74	30.80	-34.1	-35.0	24.5	0.00e+00	121	30	0	1334837248	42	5568
2026-01-29 13:20:12.53	103.09	30.77	-34.3	-35.1	24.5	0.00e+00	122	30	0	1337982976	42	5651
2026-01-29 13:20:13.54	103.43	30.73	-34.1	-35.0	24.6	0.00e+00	123	30	0	1341128704	42	5536
2026-01-29 13:20:14.55	103.78	30.69	-34.3	-35.2	24.5	0.00e+00	123	30	0	1344274432	42	5696
2026-01-29 13:20:15.56	104.13	30.65	-34.6	-35.5	24.2	0.00e+00	122	30	0	1347420160	42	5906
2026-01-29 13:20:16.57	104.47	30.61	-34.6	-35.5	24.3	0.00e+00	122	30	0	1350565888	42	5922
2026-01-29 13:20:17.58	104.82	30.57	-34.5	-35.4	24.3	0.00e+00	123	30	0	1353711616	42	5850
2026-01-29 13:20:18.59	105.16	30.52	-34.6	-35.5	24.3	0.00e+00	122	30	0	1356857344	42	5888
2026-01-29 13:20:19.60	105.50	30.48	-34.7	-35.7	24.2	0.00e+00	123	30	0	1360003072	42	6002
2026-01-29 13:20:20.61	105.84	30.43	-34.6	-35.5	24.3	0.00e+00	122	30	0	1363148800	42	5918
2026-01-29 13:20:21.62	106.18	30.39	-34.5	-35.4	24.4	0.00e+00	122	30	0	1366294528	42	5808
2026-01-29 13:20:22.63	106.52	30.34	-34.5	-35.4	24.3	0.00e+00	122	30	0	1369440256	42	5804
2026-01-29 13:20:23.63	106.86	30.29	-34.7	-35.6	24.2	0.00e+00	122	30	0	1372585984	42	5948
2026-01-29 13:20:24.64	107.20	30.24	-34.7	-35.6	24.1	0.00e+00	123	30	0	1375731712	42	5954
2026-01-29 13:20:25.65	107.53	30.19	-34.7	-35.6	24.1	0.00e+00	122	30	0	1378877440	42	5941
2026-01-29 13:20:26.66	107.87	30.14	-34.9	-35.8	24.0	0.00e+00	123	30	0	1382023168	42	6097
2026-01-29 13:20:27.67	108.20	30.09	-34.4	-35.3	24.5	0.00e+00	122	30	0	1385168896	42	5747
2026-01-29 13:20:28.68	108.53	30.03	-34.3	-35.2	24.6	0.00e+00	123	30	0	1388314624	42	5683
2026-01-29 13:20:29.69	108.87	29.98	-34.1	-34.9	24.6	0.00e+00	120	30	0	1391460352	42	5526
2026-01-29 13:20:30.70	109.20	29.92	-34.2	-35.1	24.6	0.00e+00	123	30	0	1394606080	42	5637
2026-01-29 13:20:31.71	109.53	29.87	-34.2	-35.1	24.5	0.00e+00	120	30	0	1397751808	42	5644
2026-01-29 13:20:32.72	109.86	29.81	-34.3	-35.2	24.4	0.00e+00	122	30	0	1400897536	42	5707
2026-01-29 13:20:33.73	110.18	29.75	-34.7	-35.6	24.2	0.00e+00	123	30	0	1404043264	42	5969
2026-01-29 13:20:34.74	110.51	29.69	-34.3	-35.2	24.5	0.00e+00	123	30	0	1407188992	42	5684
2026-01-29 13:20:35.75	110.84	29.63	-34.3	-35.1	24.5	0.00e+00	123	30	0	1410334720	42	5657
2026-01-29 13:20:36.76	111.16	29.57	-34.0	-34.9	24.6	0.00e+00	122	30	0	1413480448	42	5505
2026-01-29 13:20:37.77	111.48	29.51	-33.9	-34.8	24.7	0.00e+00	120	30	0	1416626176	42	5450
2026-01-29 13:20:38.78	111.81	29.45	-34.0	-34.9	24.7	0.00e+00	122	30	0	1419771904	42	5505
2026-01-29 13:20:39.79	112.13	29.39	-33.9	-34.8	24.7	0.00e+00	123	30	0	1422917632	42	5414
2026-01-29 13:20:40.79	112.44	29.32	-34.1	-35.0	24.6	0.00e+00	123	30	0	1426063360	42	5573
2026-01-29 13:20:41.80	112.76	29.26	-34.3	-35.1	24.5	0.00e+00	123	30	0	1429209088	42	5648
2026-01-29 13:20:42.81	113.08	29.19	-34.3	-35.2	24.4	0.00e+00	122	30	0	1432354816	42	5718
2026-01-29 13:20:43.82	113.39	29.13	-34.5	-35.4	24.4	0.00e+00	120	30	0	1435500544	42	5807
2026-01-29 13:20:44.83	113.71	29.06	-34.5	-35.4	24.4	0.00e+00	123	30	0	1438646272	42	5834
2026-01-29 13:20:45.84	114.02	28.99	-34.6	-35.5	24.3	0.00e+00	120	30	0	1441792000	42	5888
2026-01-29 13:20:46.85	114.33	28.92	-34.2	-35.1	24.6	0.00e+00	123	30	0	1444937728	42	5602
2026-01-29 13:20:47.86	114.64	28.85	-34.3	-35.2	24.4	0.00e+00	120	30	0	1448083456	42	5704
2026-01-29 13:20:48.87	114.95	28.78	-34.2	-35.1	24.6	0.00e+00	123	30	0	1451229184	42	5599
2026-01-29 13:20:49.88	115.26	28.71	-34.3	-35.2	24.5	0.00e+00	120	30	0	1454374912	42	5695
2026-01-29 13:20:50.89	115.57	28.64	-34.2	-35.0	24.5	0.00e+00	122	30	0	1457520640	42	5594
2026-01-29 13:20:51.90	115.87	28.57	-34.1	-35.0	24.7	0.00e+00	123	30	0	1460666368	42	5583
2026-01-29 13:20:52.91	116.17	28.50	-34.2	-35.1	24.5	0.00e+00	122	30	0	1463812096	42	5632
2026-01-29 13:20:53.92	116.48	28.42	-34.4	-35.3	24.4	0.00e+00	122	30	0	1466957824	42	5737
2026-01-29 13:20:54.93	116.78	28.35	-34.4	-35.3	24.3	0.00e+00	122	30	0	1470103552	42	5750
2026-01-29 13:20:55.94	117.08	28.27	-34.3	-35.2	24.4	0.00e+00	120	30	0	1473249280	42	5709
2026-01-29 13:20:56.94	117.37	28.20	-34.1	-35.0	24.6	0.00e+00	122	30	0	1476395008	42	5558
2026-01-29 13:20:57.95	117.67	28.12	-34.2	-35.0	24.6	0.00e+00	123	30	0	1479540736	42	5580
2026-01-29 13:20:58.96	117.97	28.05	-33.8	-34.7	24.8	0.00e+00	123	30	0	1482686464	42	5391
2026-01-29 13:20:59.97	118.26	27.97	-34.0	-34.9	24.6	0.00e+00	123	30	0	1485832192	42	5479
2026-01-29 13:21:00.98	118.55	27.89	-34.1	-35.0	24.6	0.00e+00	120	30	0	1488977920	42	5580
2026-01-29 13:21:01.99	118.84	27.81	-34.0	-34.9	24.7	0.00e+00	122	30	0	1492123648	42	5521
2026-01-29 13:21:03.00	119.13	27.73	-34.0	-34.9	24.7	0.00e+00	122	30	0	1495269376	42	5511
2026-01-29 13:21:04.01	119.42	27.65	-33.9	-34.8	24.8	0.00e+00	123	30	0	1498415104	42	5425
2026-01-29 13:21:05.02	119.71	27.57	-33.8	-34.7	24.9	0.00e+00	122	30	0	1501560832	42	5349
2026-01-29 13:21:06.03	120.00	27.49	-33.8	-34.7	24.7	0.00e+00	122	30	0	1504706560	42	5381
2026-01-29 13:21:07.04	120.28	27.41	-33.9	-34.8	24.6	0.00e+00	123	30	0	1507852288	42	5432
2026-01-29 13:21:08.05	120.56	27.33	-34.0	-34.8	24.8	0.00e+00	122	30	0	1510998016	42	5467
2026-01-29 13:21:09.06	120.85	27.25	-33.5	-34.4	24.9	0.00e+00	120	30	0	1514143744	40	5833
2026-01-29 13:21:10.07	121.13	27.17	-33.6	-34.4	24.9	0.00e+00	123	30	0	1517289472	40	5848
2026-01-29 13:21:11.08	121.40	27.08	-33.5	-34.3	25.0	0.00e+00	122	30	0	1520435200	40	5788
2026-01-29 13:21:12.09	121.68	27.00	-33.4	-34.3	25.0	0.00e+00	122	30	0	1523580928	40	5736
2026-01-29 13:21:13.10	121.96	26.92	-33.4	-34.3	24.9	0.00e+00	123	30	0	1526726656	40	5728
2026-01-29 13:21:14.11	122.23	26.83	-33.3	-34.1	25.1	0.00e+00	122	30	0	1529872384	40	5643
2026-01-29 13:21:15.12	122.51	26.75	-33.2	-34.1	25.1	0.00e+00	123	30	0	1533018112	40	5624
2026-01-29 13:21:16.13	122.78	26.66	-33.0	-33.8	25.3	0.00e+00	120	30	0	1536163840	40	5438
2026-01-29 13:21:17.13	123.04	26.58	-32.9	-33.8	25.2	0.00e+00	125	30	0	1539309568	40	5435
2026-01-29 13:21:18.14	123.31	26.49	-32.9	-33.7	25.0	0.00e+00	123	30	0	1542455296	40	5404
2026-01-29 13:21:19.15	123.58	26.41	-33.0	-33.9	24.8	0.00e+00	123	30	0	1545601024	40	5489
2026-01-29 13:21:20.17	123.85	26.32	-33.3	-34.1	24.8	0.00e+00	120	30	0	1548746752	40	5649
2026-01-29 13:21:21.17	124.11	26.23	-33.4	-34.3	24.9	0.00e+00	123	30	0	1551892480	40	5781
2026-01-29 13:21:22.18	124.37	26.15	-33.4	-34.3	24.8	0.00e+00	123	30	0	1555038208	40	5737
2026-01-29 13:21:23.19	124.64	26.06	-33.5	-34.4	24.9	0.00e+00	122	30	0	1558183936	40	5813
2026-01-29 13:21:24.20	124.90	25.97	-33.3	-34.2	24.9	0.00e+00	122	30	0	1561329664	40	5698
2026-01-29 13:21:25.21	125.16	25.88	-33.4	-34.3	24.9	0.00e+00	123	30	0	1564475392	40	5735
2026-01-29 13:21:26.22	125.41	25.79	-33.5	-34.4	24.7	0.00e+00	122	30	0	1567621120	40	5845
2026-01-29 13:21:27.22	125.67	25.71	-33.5	-34.4	24.7	0.00e+00	123	30	0	1570766848	40	5804
2026-01-29 13:21:28.23	125.92	25.62	-33.7	-34.6	24.5	0.00e+00	122	30	0	1573912576	40	5971
2026-01-29 13:21:29.24	126.18	25.53	-33.9	-34.8	24.5	0.00e+00	123	30	0	1577058304	40	6100
2026-01-29 13:21:30.25	126.43	25.44	-33.7	-34.7	24.6	0.00e+00	120	30	0	1580204032	40	6003
2026-01-29 13:21:31.26	126.68	25.35	-33.6	-34.6	24.7	0.00e+00	123	30	0	1583349760	40	5930
2026-01-29 13:21:32.27	126.93	25.26	-33.8	-34.7	24.6	0.00e+00	123	30	0	1586495488	40	6054
2026-01-29 13:21:33.28	127.18	25.17	-33.9	-34.8	24.5	0.00e+00	122	30	0	1589641216	40	6077
2026-01-29 13:21:34.29	127.42	25.07	-33.8	-34.6	24.8	0.00e+00	122	30	0	1592786944	40	5983
2026-01-29 13:21:35.30	127.67	24.98	-33.6	-34.5	24.8	0.00e+00	120	30	0	1595932672	40	5906
2026-01-29 13:21:36.31	127.91	24.89	-33.5	-34.4	24.9	0.00e+00	123	30	0	1599078400	40	5842
2026-01-29 13:21:37.32	128.15	24.80	-33.4	-34.3	25.0	0.00e+00	120	30	0	1603272704	40	5762
2026-01-29 13:21:38.33	128.39	24.71	-33.4	-34.2	25.1	0.00e+00	122	30	0	1606418432	40	5714
2026-01-29 13:21:39.34	128.63	24.62	-33.2	-34.0	25.2	0.00e+00	123	30	0	1608515584	40	5587
2026-01-29 13:21:40.35	128.87	24.53	-33.2	-34.1	25.1	0.00e+00	120	30	0	1611661312	40	5630
2026-01-29 13:21:41.36	129.11	24.43	-33.2	-34.1	25.0	0.00e+00	120	30	0	1614807040	40	5597
2026-01-29 13:21:42.37	129.34	24.34	-33.3	-34.2	25.0	0.00e+00	122	30	0	1617952768	40	5671
2026-01-29 13:21:43.38	129.58	24.25	-33.3	-34.1	25.1	0.00e+00	120	30	0	1622147072	40	5643
2026-01-29 13:21:44.38	129.81	24.16	-33.3	-34.2	25.0	0.00e+00	123	30	0	1625292800	40	5689
2026-01-29 13:21:45.39	130.04	24.06	-33.6	-34.4	24.8	0.00e+00	122	30	0	1628438528	40	5857
2026-01-29 13:21:46.40	130.27	23.97	-33.4	-34.3	25.0	0.00e+00	123	30	0	1630535680	40	5760
2026-01-29 13:21:47.41	130.50	23.88	-33.6	-34.5	24.7	0.00e+00	120	30	0	1633681408	40	5909
2026-01-29 13:21:48.42	130.73	23.78	-33.5	-34.3	24.9	0.00e+00	120	30	0	1637875712	40	5773
2026-01-29 13:21:49.43	130.95	23.69	-33.7	-34.6	24.6	0.00e+00	120	30	0	1641021440	40	5962
2026-01-29 13:21:50.44	131.18	23.60	-33.7	-34.6	24.7	0.00e+00	123	30	0	1644167168	40	5947
2026-01-29 13:21:51.45	131.40	23.50	-33.7	-34.6	24.7	0.00e+00	123	30	0	1647312896	40	5958
2026-01-29 13:21:52.46	131.62	23.41	-33.9	-34.8	24.4	0.00e+00	123	30	0	1650458624	40	6132
2026-01-29 13:21:53.47	131.84	23.31	-34.0	-34.9	24.4	0.00e+00	122	30	0	1653604352	40	6161
2026-01-29 13:21:54.48	132.06	23.22	-33.9	-34.8	24.5	0.00e+00	123	30	0	1656750080	40	6116
2026-01-29 13:21:55.49	132.28	23.13	-33.9	-34.8	24.5	0.00e+00	122	30	0	1659895808	40	6092
2026-01-29 13:21:56.50	132.50	23.03	-33.9	-34.8	24.6	0.00e+00	123	30	0	1663041536	40	6079
2026-01-29 13:21:57.51	132.72	22.94	-33.9	-34.8	24.6	0.00e+00	122	30	0	1666187264	40	6098
2026-01-29 13:21:58.52	132.93	22.84	-33.9	-34.8	24.6	0.00e+00	122	30	0	1669332992	40	6127
2026-01-29 13:21:59.53	133.14	22.75	-33.7	-34.6	24.7	0.00e+00	123	30	0	1672478720	40	5936
2026-01-29 13:22:00.54	133.36	22.66	-33.7	-34.6	24.7	0.00e+00	122	30	0	1675624448	40	5934
2026-01-29 13:22:01.55	133.57	22.56	-33.6	-34.4	24.8	0.00e+00	123	30	0	1678770176	40	5850
2026-01-29 13:22:02.56	133.78	22.47	-33.7	-34.6	24.7	0.00e+00	123	30	0	1681915904	40	5930
2026-01-29 13:22:03.57	133.98	22.37	-33.7	-34.6	24.6	0.00e+00	123	30	0	1685061632	40	5940
2026-01-29 13:22:04.58	134.19	22.28	-33.7	-34.6	24.7	0.00e+00	120	30	0	1688207360	40	5931
2026-01-29 13:22:05.59	134.40	22.18	-33.5	-34.4	24.8	0.00e+00	123	30	0	1691353088	40	5808
2026-01-29 13:22:06.60	134.60	22.09	-33.5	-34.4	24.7	0.00e+00	122	30	0	1694498816	40	5828
2026-01-29 13:22:07.60	134.80	21.99	-33.4	-34.3	24.9	0.00e+00	123	30	0	1697644544	40	5748
2026-01-29 13:22:08.61	135.01	21.90	-33.5	-34.4	24.7	0.00e+00	122	30	0	1700790272	40	5830
2026-01-29 13:22:09.62	135.21	21.81	-33.4	-34.3	24.9	0.00e+00	123	30	0	1703936000	40	5741
2026-01-29 13:22:10.63	135.41	21.71	-33.4	-34.2	25.0	0.00e+00	123	30	0	1707081728	40	5716
2026-01-29 13:22:11.64	135.61	21.62	-33.5	-34.4	24.8	0.00e+00	120	30	0	1710227456	40	5814
2026-01-29 13:22:12.65	135.80	21.52	-33.4	-34.3	24.9	0.00e+00	123	30	0	1713373184	40	5734
2026-01-29 13:22:13.66	136.00	21.43	-33.5	-34.3	24.9	0.00e+00	122	30	0	1716518912	40	5766
2026-01-29 13:22:14.67	136.19	21.33	-33.4	-34.3	25.0	0.00e+00	123	30	0	1719664640	40	5760
2026-01-29 13:22:15.68	136.39	21.24	-33.5	-34.4	24.9	0.00e+00	122	30	0	1722810368	40	5801
2026-01-29 13:22:16.69	136.58	21.14	-33.6	-34.4	24.9	0.00e+00	121	30	0	1725956096	40	5841
2026-01-29 13:22:17.70	136.77	21.05	-33.5	-34.4	24.9	0.00e+00	123	30	0	1729101824	40	5840
2026-01-29 13:22:18.71	136.96	20.96	-33.7	-34.5	24.8	0.00e+00	122	30	0	1732247552	40	5921
2026-01-29 13:22:19.72	137.15	20.86	-33.7	-34.6	24.7	0.00e+00	122	30	0	1735393280	40	5948
2026-01-29 13:22:20.73	137.34	20.77	-33.8	-34.6	24.7	0.00e+00	123	30	0	1738539008	40	5984
2026-01-29 13:22:21.74	137.53	20.67	-33.8	-34.7	24.7	0.00e+00	123	30	0	1741684736	40	5999
2026-01-29 13:22:22.75	137.72	20.58	-33.9	-34.7	24.7	0.00e+00	123	30	0	1744830464	40	6054
2026-01-29 13:22:23.76	137.90	20.48	-34.0	-34.8	24.6	0.00e+00	122	30	0	1747976192	40	6131
2026-01-29 13:22:24.77	138.08	20.39	-34.0	-34.8	24.6	0.00e+00	122	30	0	1751121920	40	6134
2026-01-29 13:22:25.78	138.27	20.30	-33.8	-34.6	24.6	0.00e+00	123	30	0	1754267648	40	5990
2026-01-29 13:22:26.79	138.45	20.20	-33.9	-34.8	24.6	0.00e+00	122	30	0	1757413376	40	6083
2026-01-29 13:22:27.80	138.63	20.11	-33.7	-34.6	24.7	0.00e+00	120	30	0	1760559104	40	5969
2026-01-29 13:22:28.81	138.81	20.01	-33.7	-34.6	24.7	0.00e+00	120	30	0	1763704832	40	5970
2026-01-29 13:22:29.82	138.99	19.92	-33.8	-34.6	24.7	0.00e+00	122	30	0	1766850560	40	5992
2026-01-29 13:22:30.83	139.17	19.83	-33.7	-34.5	24.8	0.00e+00	122	30	0	1769996288	40	5919
2026-01-29 13:22:31.83	139.34	19.73	-33.6	-34.5	24.9	0.00e+00	123	30	0	1773142016	40	5887
2026-01-29 13:22:32.84	139.52	19.64	-33.7	-34.6	24.7	0.00e+00	123	30	0	1776287744	40	5963
2026-01-29 13:22:33.85	139.69	19.55	-33.6	-34.5	24.8	0.00e+00	122	30	0	1779433472	40	5906
2026-01-29 13:22:34.86	139.86	19.45	-33.7	-34.6	24.8	0.00e+00	123	30	0	1782579200	40	5943
2026-01-29 13:22:35.87	140.04	19.36	-33.6	-34.5	24.9	0.00e+00	122	30	0	1785724928	40	5865
2026-01-29 13:22:36.88	140.21	19.27	-33.6	-34.5	24.8	0.00e+00	122	30	0	1788870656	40	5903
2026-01-29 13:22:37.89	140.38	19.17	-33.6	-34.4	24.9	0.00e+00	123	30	0	1792016384	40	5839
2026-01-29 13:22:38.89	140.54	19.08	-33.8	-34.7	24.7	0.00e+00	122	30	0	1795162112	40	6041
2026-01-29 13:22:39.91	140.71	18.99	-33.5	-34.4	24.8	0.00e+00	122	30	0	1798307840	40	5823
2026-01-29 13:22:40.91	140.88	18.90	-33.6	-34.5	24.7	0.00e+00	123	30	0	1801453568	40	5899
2026-01-29 13:22:41.92	141.05	18.80	-33.6	-34.5	24.8	0.00e+00	122	30	0	1804599296	40	5900
2026-01-29 13:22:42.93	141.21	18.71	-33.7	-34.6	24.7	0.00e+00	122	30	0	1807745024	40	5938
2026-01-29 13:22:43.94	141.38	18.62	-33.5	-34.4	24.8	0.00e+00	123	30	0	1810890752	40	5806
2026-01-29 13:22:44.95	141.54	18.53	-33.4	-34.3	24.9	0.00e+00	122	30	0	1814036480	40	5741
2026-01-29 13:22:45.96	141.70	18.44	-33.5	-34.4	24.7	0.00e+00	123	30	0	1817182208	40	5814
2026-01-29 13:22:46.97	141.86	18.34	-33.6	-34.5	24.7	0.00e+00	120	30	0	1820327936	40	5861
2026-01-29 13:22:47.98	142.02	18.25	-33.6	-34.5	24.7	0.00e+00	123	30	0	1823473664	40	5907
2026-01-29 13:22:48.99	142.18	18.16	-33.6	-34.5	24.6	0.00e+00	120	30	0	1826619392	40	5877
2026-01-29 13:22:50.00	142.34	18.07	-33.7	-34.6	24.5	0.00e+00	120	30	0	1829765120	40	5946
2026-01-29 13:22:51.01	142.50	17.98	-33.8	-34.6	24.5	0.00e+00	123	30	0	1832910848	40	5979
2026-01-29 13:22:52.02	142.66	17.89	-33.7	-34.6	24.5	0.00e+00	120	30	0	1836056576	40	5972
2026-01-29 13:22:53.03	142.81	17.79	-33.7	-34.6	24.5	0.00e+00	122	30	0	1839202304	40	5938
2026-01-29 13:22:54.03	142.97	17.70	-33.7	-34.6	24.5	0.00e+00	120	29	0	1842348032	40	5978
2026-01-29 13:22:55.05	143.12	17.61	-33.8	-34.7	24.5	0.00e+00	120	30	0	1845493760	40	6001
2026-01-29 13:22:56.06	143.28	17.52	-33.8	-34.7	24.5	0.00e+00	123	30	0	1848639488	40	6014
2026-01-29 13:22:57.06	143.43	17.43	-33.9	-34.8	24.4	0.00e+00	123	30	0	1851785216	40	6126
2026-01-29 13:22:58.07	143.58	17.34	-33.8	-34.7	24.5	0.00e+00	123	30	0	1854930944	40	6030
2026-01-29 13:22:59.08	143.73	17.25	-33.9	-34.8	24.4	0.00e+00	123	30	0	1858076672	40	6110
2026-01-29 13:23:00.10	143.88	17.16	-34.1	-35.0	24.3	0.00e+00	123	29	0	1861222400	40	6246
2026-01-29 13:23:01.11	144.03	17.07	-34.1	-35.0	24.3	0.00e+00	120	30	0	1864368128	40	6251
2026-01-29 13:23:02.12	144.18	16.98	-34.2	-35.1	24.2	0.00e+00	123	30	0	1867513856	40	6316
2026-01-29 13:23:03.13	144.32	16.89	-34.3	-35.2	24.2	0.00e+00	122	30	0	1870659584	40	6391
2026-01-29 13:23:04.14	144.47	16.80	-34.3	-35.2	24.2	0.00e+00	123	30	0	1873805312	40	6420
2026-01-29 13:23:05.15	144.62	16.71	-34.3	-35.2	24.3	0.00e+00	120	30	0	1876951040	40	6377
2026-01-29 13:23:06.16	144.76	16.62	-34.2	-35.1	24.3	0.00e+00	123	30	0	1880096768	40	6333
2026-01-29 13:23:07.16	144.90	16.53	-34.3	-35.2	24.2	0.00e+00	121	30	0	1883242496	40	6406
2026-01-29 13:23:08.17	145.05	16.44	-34.3	-35.2	24.2	0.00e+00	122	30	0	1886388224	40	6422
2026-01-29 13:23:09.18	145.19	16.36	-34.4	-35.3	24.1	0.00e+00	123	30	0	1889533952	40	6487
2026-01-29 13:23:10.19	145.33	16.27	-34.4	-35.3	24.1	0.00e+00	123	30	0	1892679680	40	6497
2026-01-29 13:23:11.20	145.47	16.18	-34.6	-35.5	24.0	0.00e+00	123	29	0	1895825408	40	6592
2026-01-29 13:23:12.21	145.61	16.09	-34.6	-35.5	23.9	0.00e+00	123	30	0	1898971136	40	6642
2026-01-29 13:23:13.22	145.75	16.00	-34.8	-35.7	23.8	0.00e+00	122	30	0	1902116864	42	6062
2026-01-29 13:23:14.23	145.89	15.91	-34.8	-35.8	23.8	0.00e+00	120	30	0	1905262592	42	6080
2026-01-29 13:23:15.24	146.02	15.83	-34.7	-35.7	23.9	0.00e+00	122	30	0	1908408320	42	6014
2026-01-29 13:23:16.25	146.16	15.74	-34.8	-35.8	23.8	0.00e+00	123	30	0	1911554048	42	6074
2026-01-29 13:23:17.25	146.30	15.65	-34.9	-35.8	23.8	0.00e+00	122	30	0	1914699776	42	6097
2026-01-29 13:23:18.26	146.43	15.56	-34.9	-35.8	23.7	0.00e+00	122	30	0	1917845504	42	6114
2026-01-29 13:23:19.27	146.57	15.48	-35.0	-35.9	23.6	0.00e+00	123	30	0	1920991232	42	6188
2026-01-29 13:23:20.28	146.70	15.39	-34.9	-35.8	23.7	0.00e+00	122	30	0	1924136960	42	6118
2026-01-29 13:23:21.29	146.83	15.30	-35.0	-35.9	23.5	0.00e+00	122	30	0	1927282688	42	6203
2026-01-29 13:23:22.30	146.96	15.22	-35.0	-36.0	23.6	0.00e+00	122	30	0	1930428416	42	6237
2026-01-29 13:23:23.31	147.10	15.13	-35.2	-36.1	23.5	0.00e+00	120	30	0	1933574144	42	6336
2026-01-29 13:23:24.32	147.23	15.04	-35.2	-36.2	23.5	0.00e+00	123	30	0	1936719872	42	6369
2026-01-29 13:23:25.33	147.36	14.96	-35.3	-36.2	23.5	0.00e+00	123	30	0	1939865600	42	6410
2026-01-29 13:23:26.34	147.49	14.87	-35.2	-36.1	23.5	0.00e+00	123	30	0	1943011328	42	6327
2026-01-29 13:23:27.35	147.61	14.79	-35.2	-36.1	23.6	0.00e+00	120	30	0	1946157056	42	6340
2026-01-29 13:23:28.36	147.74	14.70	-35.1	-36.1	23.6	0.00e+00	120	30	0	1949302784	42	6295
2026-01-29 13:23:29.37	147.87	14.61	-35.2	-36.1	23.5	0.00e+00	123	30	0	1952448512	42	6337
2026-01-29 13:23:30.38	148.00	14.53	-35.1	-36.1	23.6	0.00e+00	122	30	0	1955594240	42	6287
2026-01-29 13:23:31.39	148.12	14.44	-35.1	-36.0	23.7	0.00e+00	122	30	0	1958739968	42	6225
2026-01-29 13:23:32.40	148.25	14.36	-35.2	-36.2	23.6	0.00e+00	121	30	0	1961885696	42	6352
2026-01-29 13:23:33.41	148.37	14.27	-35.0	-36.0	23.7	0.00e+00	120	30	0	1965031424	42	6208
2026-01-29 13:23:34.42	148.49	14.19	-35.1	-36.0	23.6	0.00e+00	122	30	0	1969225728	42	6248
2026-01-29 13:23:35.43	148.62	14.11	-35.3	-36.2	23.5	0.00e+00	123	30	0	1971322880	42	6379
2026-01-29 13:23:36.44	148.74	14.02	-35.2	-36.1	23.5	0.00e+00	122	30	0	1974468608	42	6307
2026-01-29 13:23:37.45	148.86	13.94	-35.3	-36.3	23.3	0.00e+00	123	30	0	1977614336	42	6426
