passes_logs/2026/01/29/R4.6S_Anadyr/R4.6S_Anadyr__20260129_154300_NOAA_20_JPSS-1_rec.log

#Pass ID: 20260129_154300_NOAA 20 (JPSS-1)
#Satellite: NOAA 20 (JPSS-1)
#Configuration: NOAA 20
#almurnet v.1.7.20251203
#Start time: 2026-01-29 15:43:03

#Version: 2.2.20231116
#Station: R4.6S_Anadyr
#Location: 177.4865 lon 64.73178 lat
#TLE: 1 43013U 17073A   26028.86313978  .00000144  00000+0  89200-4 0  9993
#TLE: 2 43013  98.7648 329.6571 0000891  20.0014 340.1197 14.19541559424709

#Time	Az	El	Level	Level2	SNR	BER	BlckErr	Temp	State	Recorded	gain1	gain2
2026-01-29 15:43:03.16	23.15	0.15	-48.7	-63.7	3.5	1.51e+00	0	27	0	0	60	55321
2026-01-29 15:43:04.17	23.13	0.21	-48.8	-64.0	3.6	1.51e+00	0	28	104	0	60	57569
2026-01-29 15:43:05.18	23.10	0.27	-48.8	-64.0	3.6	1.51e+00	0	28	104	0	60	57319
2026-01-29 15:43:06.19	23.08	0.33	-48.8	-64.0	3.6	1.51e+00	0	28	104	0	60	57271
2026-01-29 15:43:07.20	23.06	0.39	-48.8	-64.0	3.6	1.51e+00	0	28	104	0	60	57547
2026-01-29 15:43:08.21	23.04	0.45	-48.8	-64.0	3.6	1.51e+00	0	29	104	0	60	57557
2026-01-29 15:43:09.22	23.01	0.51	-48.9	-64.0	3.6	1.51e+00	0	29	104	0	60	57595
2026-01-29 15:43:10.23	22.99	0.57	-48.9	-64.1	3.6	1.51e+00	0	29	104	0	60	57983
2026-01-29 15:43:11.24	22.97	0.63	-48.9	-64.1	3.6	1.51e+00	0	29	104	0	60	57880
2026-01-29 15:43:12.25	22.94	0.69	-48.9	-64.1	3.6	1.51e+00	0	29	104	0	60	57798
2026-01-29 15:43:13.26	22.92	0.75	-48.9	-64.1	3.6	1.51e+00	0	29	104	0	60	57699
2026-01-29 15:43:14.27	22.89	0.81	-48.8	-64.0	3.6	1.51e+00	0	29	104	0	60	57320
2026-01-29 15:43:15.28	22.87	0.87	-48.8	-64.0	3.6	1.51e+00	0	29	104	0	60	57068
2026-01-29 15:43:16.29	22.85	0.93	-48.7	-64.0	3.6	1.51e+00	0	29	104	0	60	56967
2026-01-29 15:43:17.30	22.82	0.99	-48.7	-63.9	3.6	1.51e+00	0	29	104	0	60	56698
2026-01-29 15:43:18.31	22.80	1.05	-48.7	-63.9	3.6	1.51e+00	0	29	104	0	60	56351
2026-01-29 15:43:19.32	22.77	1.12	-48.6	-63.8	3.6	1.51e+00	0	29	104	0	60	55989
2026-01-29 15:43:20.32	22.75	1.18	-48.5	-63.7	3.6	1.51e+00	0	29	104	0	60	55108
2026-01-29 15:43:21.33	22.73	1.24	-48.4	-63.6	3.6	1.51e+00	0	29	104	0	60	54551
2026-01-29 15:43:22.34	22.70	1.30	-48.2	-63.5	3.6	1.51e+00	0	29	104	0	60	53847
2026-01-29 15:43:23.35	22.68	1.36	-48.2	-63.4	3.6	1.51e+00	0	29	104	0	60	53175
2026-01-29 15:43:24.36	22.65	1.42	-48.0	-63.2	3.6	1.51e+00	0	29	104	0	60	52150
2026-01-29 15:43:25.37	22.63	1.49	-47.8	-63.0	3.6	1.51e+00	0	29	104	0	60	50907
2026-01-29 15:43:26.38	22.60	1.55	-47.6	-62.7	3.6	1.51e+00	0	29	104	0	60	49115
2026-01-29 15:43:27.39	22.58	1.61	-47.5	-62.6	3.5	1.51e+00	0	29	104	0	60	48667
2026-01-29 15:43:28.40	22.55	1.67	-47.5	-62.6	3.6	1.51e+00	0	29	104	0	60	48503
2026-01-29 15:43:29.41	22.52	1.74	-47.5	-62.5	3.6	1.51e+00	0	29	104	0	60	48443
2026-01-29 15:43:30.42	22.50	1.80	-47.5	-62.5	3.6	1.51e+00	0	29	104	0	60	48403
2026-01-29 15:43:31.44	22.47	1.86	-47.5	-62.4	3.6	1.51e+00	0	29	104	0	60	47872
2026-01-29 15:43:32.45	22.45	1.93	-47.5	-62.3	3.6	1.51e+00	0	29	104	0	60	47321
2026-01-29 15:43:33.45	22.42	1.99	-47.5	-62.4	3.6	1.51e+00	0	29	104	0	60	47816
2026-01-29 15:43:34.46	22.39	2.05	-47.5	-62.4	3.6	1.51e+00	0	29	104	0	60	47400
2026-01-29 15:43:35.47	22.37	2.11	-47.5	-62.4	3.6	1.51e+00	0	29	104	0	60	47826
2026-01-29 15:43:36.48	22.34	2.18	-47.5	-62.5	3.6	1.51e+00	0	29	104	0	60	47958
2026-01-29 15:43:37.49	22.32	2.24	-47.5	-62.6	3.6	1.51e+00	0	29	104	0	60	48507
2026-01-29 15:43:38.50	22.29	2.31	-47.5	-62.5	3.6	1.51e+00	0	29	104	0	60	48456
2026-01-29 15:43:39.51	22.26	2.37	-47.5	-62.6	3.6	1.51e+00	0	29	104	0	60	48482
2026-01-29 15:43:40.52	22.23	2.43	-47.5	-62.6	3.6	1.51e+00	0	29	104	0	60	48571
2026-01-29 15:43:41.53	22.21	2.50	-47.5	-62.5	3.6	1.51e+00	0	29	104	0	60	48418
2026-01-29 15:43:42.54	22.18	2.56	-47.5	-62.6	3.6	1.51e+00	0	29	104	0	60	48542
2026-01-29 15:43:43.55	22.15	2.63	-47.5	-62.5	3.6	1.51e+00	0	29	104	0	60	48312
2026-01-29 15:43:44.56	22.13	2.69	-47.5	-62.2	3.6	1.51e+00	0	29	104	0	60	46440
2026-01-29 15:43:45.57	22.10	2.76	-47.4	-61.7	3.6	1.51e+00	0	29	104	0	60	44006
2026-01-29 15:43:46.58	22.07	2.82	-47.4	-61.0	3.6	1.51e+00	0	29	104	0	60	40470
2026-01-29 15:43:47.59	22.04	2.89	-47.4	-60.6	3.6	1.51e+00	0	29	104	0	60	38920
2026-01-29 15:43:48.60	22.01	2.95	-47.4	-60.3	3.6	1.49e+00	0	29	104	0	60	37323
2026-01-29 15:43:49.61	21.99	3.02	-47.4	-60.5	3.6	1.49e+00	0	29	104	0	60	38105
2026-01-29 15:43:50.62	21.96	3.08	-47.4	-61.2	3.6	1.50e+00	0	29	104	0	60	41721
2026-01-29 15:43:51.63	21.93	3.15	-47.4	-62.1	3.6	1.51e+00	0	29	104	0	60	46178
2026-01-29 15:43:52.64	21.90	3.21	-47.4	-60.9	3.6	1.51e+00	0	29	104	0	60	39866
2026-01-29 15:43:53.65	21.87	3.28	-47.2	-57.7	4.8	1.48e+00	7	29	104	0	60	27642
2026-01-29 15:43:54.66	21.84	3.35	-46.7	-53.8	7.0	3.93e-01	92	29	0	1048576	60	17677
2026-01-29 15:43:55.67	21.81	3.41	-46.3	-52.1	9.2	3.79e-02	6	29	0	2097152	60	14619
2026-01-29 15:43:56.68	21.78	3.48	-45.0	-48.8	12.8	2.37e-03	55	29	0	4194304	60	9915
2026-01-29 15:43:57.69	21.75	3.54	-44.8	-48.3	13.3	7.00e-07	0	29	0	6291456	60	9389
2026-01-29 15:43:58.70	21.72	3.61	-43.9	-46.7	14.9	0.00e+00	56	29	0	8388608	60	7826
2026-01-29 15:43:59.71	21.70	3.68	-43.4	-45.9	16.0	0.00e+00	92	29	0	10485760	60	7091
2026-01-29 15:44:00.72	21.67	3.75	-42.9	-45.1	16.7	0.00e+00	56	29	0	11534336	60	6501
2026-01-29 15:44:01.73	21.64	3.81	-45.4	-49.5	11.5	2.13e-05	88	29	0	13631488	60	10849
2026-01-29 15:44:02.74	21.60	3.88	-41.0	-42.6	19.3	6.17e-05	57	29	0	15728640	56	6120
2026-01-29 15:44:03.75	21.57	3.95	-47.3	-59.1	3.4	0.00e+00	27	29	0	17825792	60	32459
2026-01-29 15:44:04.76	21.54	4.02	-47.1	-56.0	4.2	1.51e+00	0	29	104	17825792	60	22691
2026-01-29 15:44:05.77	21.51	4.08	-42.2	-44.2	16.6	6.66e-04	24	29	0	17825792	54	8261
2026-01-29 15:44:06.78	21.48	4.15	-41.3	-42.9	18.8	2.20e-06	42	29	0	19922944	58	5667
2026-01-29 15:44:07.79	21.45	4.22	-41.4	-43.0	18.8	0.00e+00	2	29	0	20971520	56	6463
2026-01-29 15:44:08.80	21.42	4.29	-40.5	-41.9	19.7	0.00e+00	90	29	0	23068672	54	6371
2026-01-29 15:44:09.81	21.39	4.36	-40.5	-41.9	19.6	0.00e+00	0	29	0	25165824	54	6371
2026-01-29 15:44:10.82	21.36	4.42	-40.0	-41.3	20.4	0.00e+00	91	29	0	27262976	54	5952
2026-01-29 15:44:11.83	21.33	4.49	-40.3	-41.6	20.0	0.00e+00	0	29	0	29360128	54	6171
2026-01-29 15:44:12.84	21.29	4.56	-39.5	-40.7	20.9	0.00e+00	0	29	0	30408704	52	6184
2026-01-29 15:44:13.85	21.26	4.63	-39.6	-40.9	21.0	0.00e+00	0	29	0	32505856	52	6348
2026-01-29 15:44:14.85	21.23	4.70	-39.6	-40.8	21.0	0.00e+00	0	29	0	34603008	52	6286
2026-01-29 15:44:15.86	21.20	4.77	-39.2	-40.3	21.2	0.00e+00	92	29	0	36700160	52	5953
2026-01-29 15:44:16.87	21.16	4.84	-39.1	-40.3	21.2	0.00e+00	0	29	0	37748736	52	5931
2026-01-29 15:44:17.88	21.13	4.91	-39.3	-40.5	21.3	0.00e+00	69	29	0	39845888	52	6044
2026-01-29 15:44:18.89	21.10	4.98	-39.2	-40.3	21.4	0.00e+00	4	29	0	41943040	52	5946
2026-01-29 15:44:19.90	21.07	5.05	-38.7	-39.8	21.8	0.00e+00	0	29	0	44040192	52	5610
2026-01-29 15:44:20.91	21.03	5.12	-39.1	-40.2	21.5	0.00e+00	49	29	0	46137344	50	6602
2026-01-29 15:44:21.92	21.00	5.19	-38.9	-40.1	21.6	0.00e+00	0	29	0	48234496	50	6465
2026-01-29 15:44:22.92	20.97	5.26	-39.2	-40.3	21.4	0.00e+00	90	29	0	49283072	50	6684
2026-01-29 15:44:23.93	20.93	5.33	-38.9	-40.0	21.7	0.00e+00	57	29	0	51380224	50	6454
2026-01-29 15:44:24.94	20.90	5.40	-39.0	-40.1	21.6	0.00e+00	91	29	0	53477376	50	6513
2026-01-29 15:44:25.95	20.86	5.47	-38.9	-40.0	21.8	0.00e+00	26	29	0	55574528	50	6397
2026-01-29 15:44:26.96	20.83	5.54	-39.0	-40.1	21.6	0.00e+00	0	29	0	57671680	50	6536
2026-01-29 15:44:27.97	20.80	5.62	-39.0	-40.1	21.7	0.00e+00	23	29	0	58720256	50	6484
2026-01-29 15:44:28.98	20.76	5.69	-39.0	-40.1	21.7	0.00e+00	25	29	0	60817408	50	6490
2026-01-29 15:44:29.99	20.73	5.76	-39.0	-40.1	21.7	0.00e+00	89	29	0	62914560	50	6507
2026-01-29 15:44:30.99	20.69	5.83	-39.2	-40.3	21.7	0.00e+00	25	29	0	65011712	50	6673
2026-01-29 15:44:32.00	20.66	5.90	-39.0	-40.1	21.6	0.00e+00	92	29	0	67108864	50	6466
2026-01-29 15:44:33.02	20.62	5.98	-38.9	-40.0	22.0	0.00e+00	25	29	0	68157440	50	6432
2026-01-29 15:44:34.02	20.58	6.05	-38.8	-39.9	21.9	0.00e+00	92	29	0	70254592	50	6351
2026-01-29 15:44:35.03	20.55	6.12	-39.0	-40.0	21.7	0.00e+00	2	29	0	72351744	50	6463
2026-01-29 15:44:36.04	20.51	6.19	-39.0	-40.0	21.8	0.00e+00	2	29	0	74448896	50	6464
2026-01-29 15:44:37.05	20.48	6.27	-38.6	-39.7	22.1	0.00e+00	0	29	0	76546048	50	6197
2026-01-29 15:44:38.06	20.44	6.34	-38.6	-39.6	22.2	0.00e+00	0	29	0	77594624	50	6152
2026-01-29 15:44:39.07	20.40	6.42	-38.6	-39.6	22.2	0.00e+00	92	29	0	79691776	50	6139
2026-01-29 15:44:40.08	20.37	6.49	-38.5	-39.6	22.1	0.00e+00	52	29	0	81788928	50	6118
2026-01-29 15:44:41.09	20.33	6.56	-38.5	-39.6	22.1	0.00e+00	92	29	0	83886080	50	6129
2026-01-29 15:44:42.10	20.29	6.64	-38.8	-39.9	22.0	0.00e+00	0	29	0	85983232	50	6319
2026-01-29 15:44:43.11	20.25	6.71	-38.6	-39.6	22.2	0.00e+00	0	29	0	87031808	50	6171
2026-01-29 15:44:44.12	20.22	6.79	-38.5	-39.6	22.2	0.00e+00	0	29	0	89128960	50	6116
2026-01-29 15:44:45.13	20.18	6.86	-38.4	-39.4	22.4	0.00e+00	55	29	0	91226112	50	6021
2026-01-29 15:44:46.14	20.14	6.94	-38.6	-39.6	22.2	0.00e+00	92	29	0	93323264	50	6138
2026-01-29 15:44:47.14	20.10	7.01	-38.4	-39.3	22.5	0.00e+00	57	29	0	95420416	50	5962
2026-01-29 15:44:48.15	20.06	7.09	-38.4	-39.5	22.4	0.00e+00	92	29	0	96468992	50	6034
2026-01-29 15:44:49.16	20.02	7.16	-38.4	-39.4	22.5	0.00e+00	25	29	0	98566144	50	6012
2026-01-29 15:44:50.17	19.98	7.24	-38.7	-39.8	22.1	0.00e+00	0	29	0	100663296	50	6281
2026-01-29 15:44:51.18	19.95	7.31	-38.4	-39.4	22.5	0.00e+00	0	29	0	102760448	50	5983
2026-01-29 15:44:52.19	19.91	7.39	-38.5	-39.5	22.4	0.00e+00	2	29	0	104857600	50	6074
2026-01-29 15:44:53.20	19.87	7.47	-38.5	-39.5	22.4	0.00e+00	58	29	0	105906176	50	6060
2026-01-29 15:44:54.21	19.83	7.54	-38.5	-39.5	22.3	0.00e+00	2	29	0	108003328	50	6096
2026-01-29 15:44:55.22	19.79	7.62	-38.4	-39.4	22.5	0.00e+00	92	29	0	110100480	50	5973
2026-01-29 15:44:56.23	19.75	7.70	-38.4	-39.4	22.5	0.00e+00	0	29	0	112197632	50	5982
2026-01-29 15:44:57.23	19.70	7.77	-38.5	-39.6	22.4	0.00e+00	92	29	0	114294784	50	6117
2026-01-29 15:44:58.25	19.66	7.85	-38.6	-39.6	22.5	0.00e+00	0	29	0	116391936	50	6148
2026-01-29 15:44:59.26	19.62	7.93	-38.4	-39.4	22.5	0.00e+00	0	29	0	117440512	50	5985
2026-01-29 15:45:00.27	19.58	8.01	-38.3	-39.3	22.7	0.00e+00	0	29	0	119537664	50	5957
2026-01-29 15:45:01.28	19.54	8.09	-38.2	-39.2	22.7	0.00e+00	0	29	0	121634816	50	5887
2026-01-29 15:45:02.29	19.50	8.17	-38.4	-39.4	22.6	0.00e+00	92	29	0	123731968	50	5969
2026-01-29 15:45:03.30	19.45	8.24	-38.3	-39.3	22.5	0.00e+00	0	29	0	125829120	50	5957
2026-01-29 15:45:04.31	19.41	8.32	-38.4	-39.3	22.6	0.00e+00	92	29	0	126877696	50	5964
2026-01-29 15:45:05.32	19.37	8.40	-38.3	-39.3	22.7	0.00e+00	0	29	0	128974848	50	5913
2026-01-29 15:45:06.33	19.33	8.48	-38.1	-39.1	23.0	0.00e+00	0	29	0	131072000	50	5784
2026-01-29 15:45:07.34	19.28	8.56	-38.2	-39.1	22.9	0.00e+00	0	29	0	133169152	50	5810
2026-01-29 15:45:08.35	19.24	8.64	-38.1	-39.1	22.9	0.00e+00	51	29	0	135266304	50	5763
2026-01-29 15:45:09.36	19.20	8.72	-38.2	-39.1	22.8	0.00e+00	52	29	0	136314880	50	5806
2026-01-29 15:45:10.37	19.15	8.80	-38.2	-39.2	22.8	0.00e+00	50	29	0	138412032	50	5832
2026-01-29 15:45:11.37	19.11	8.88	-38.4	-39.4	22.5	0.00e+00	91	29	0	140509184	50	6028
2026-01-29 15:45:12.38	19.06	8.96	-38.3	-39.3	22.8	0.00e+00	29	29	0	142606336	50	5938
2026-01-29 15:45:13.39	19.02	9.04	-37.9	-38.9	23.2	0.00e+00	6	29	0	144703488	50	5640
2026-01-29 15:45:14.40	18.97	9.13	-37.9	-38.8	23.3	0.00e+00	5	29	0	145752064	50	5591
2026-01-29 15:45:15.41	18.93	9.21	-38.0	-38.9	23.1	0.00e+00	5	29	0	147849216	50	5671
2026-01-29 15:45:16.42	18.88	9.29	-38.1	-39.1	23.0	0.00e+00	0	29	0	149946368	50	5771
2026-01-29 15:45:17.43	18.84	9.37	-37.9	-38.8	23.2	0.00e+00	0	30	0	152043520	50	5626
2026-01-29 15:45:18.44	18.79	9.45	-38.0	-39.0	23.0	0.00e+00	92	29	0	154140672	50	5724
2026-01-29 15:45:19.45	18.74	9.54	-38.0	-39.0	23.1	0.00e+00	7	29	0	155189248	50	5710
2026-01-29 15:45:20.45	18.70	9.62	-38.0	-39.0	23.1	0.00e+00	92	29	0	157286400	50	5723
2026-01-29 15:45:21.46	18.65	9.70	-38.0	-38.9	23.2	0.00e+00	5	29	0	159383552	50	5681
2026-01-29 15:45:22.47	18.60	9.79	-38.0	-39.0	23.1	0.00e+00	5	29	0	161480704	50	5702
2026-01-29 15:45:23.48	18.56	9.87	-38.0	-38.9	23.2	0.00e+00	0	29	0	163577856	50	5683
2026-01-29 15:45:24.49	18.51	9.95	-37.9	-38.9	23.1	0.00e+00	57	29	0	164626432	50	5636
2026-01-29 15:45:25.50	18.46	10.04	-37.9	-38.8	23.3	0.00e+00	92	29	0	166723584	50	5607
2026-01-29 15:45:26.51	18.41	10.12	-38.0	-38.9	23.2	0.00e+00	56	29	0	168820736	50	5669
2026-01-29 15:45:27.52	18.36	10.21	-37.8	-38.8	23.2	0.00e+00	91	29	0	170917888	50	5570
2026-01-29 15:45:28.53	18.31	10.29	-37.8	-38.7	23.3	0.00e+00	26	30	0	173015040	50	5553
2026-01-29 15:45:29.55	18.26	10.38	-37.7	-38.6	23.5	0.00e+00	0	29	0	174063616	48	6168
2026-01-29 15:45:30.55	18.21	10.46	-37.8	-38.8	23.3	0.00e+00	27	30	0	176160768	48	6261
2026-01-29 15:45:31.56	18.16	10.55	-37.8	-38.8	23.3	0.00e+00	57	29	0	178257920	48	6264
2026-01-29 15:45:32.58	18.11	10.63	-37.9	-38.8	23.2	0.00e+00	49	29	0	180355072	48	6308
2026-01-29 15:45:33.59	18.06	10.72	-38.0	-39.0	23.0	0.00e+00	28	30	0	182452224	48	6400
2026-01-29 15:45:34.60	18.01	10.81	-38.1	-39.1	23.1	0.00e+00	92	29	0	184549376	48	6509
2026-01-29 15:45:35.60	17.96	10.89	-38.0	-38.9	23.2	0.00e+00	27	30	0	185597952	48	6358
2026-01-29 15:45:36.61	17.91	10.98	-38.0	-38.9	23.2	0.00e+00	83	29	0	187695104	48	6354
2026-01-29 15:45:37.62	17.86	11.07	-38.0	-38.9	23.2	0.00e+00	0	29	0	189792256	48	6380
2026-01-29 15:45:38.63	17.80	11.16	-37.9	-38.8	23.3	0.00e+00	0	29	0	191889408	48	6287
2026-01-29 15:45:39.64	17.75	11.24	-38.0	-38.9	23.3	0.00e+00	0	29	0	193986560	48	6379
2026-01-29 15:45:40.65	17.70	11.33	-38.0	-38.9	23.2	0.00e+00	7	29	0	195035136	48	6348
2026-01-29 15:45:41.66	17.65	11.42	-37.8	-38.7	23.4	0.00e+00	92	29	0	197132288	48	6192
2026-01-29 15:45:42.67	17.59	11.51	-37.8	-38.7	23.4	0.00e+00	7	29	0	199229440	48	6217
2026-01-29 15:45:43.68	17.54	11.60	-37.7	-38.6	23.5	0.00e+00	92	29	0	201326592	48	6111
2026-01-29 15:45:44.69	17.48	11.69	-37.7	-38.6	23.5	0.00e+00	0	29	0	203423744	48	6173
2026-01-29 15:45:45.70	17.43	11.78	-37.7	-38.6	23.5	0.00e+00	60	29	0	204472320	48	6142
2026-01-29 15:45:46.71	17.37	11.87	-37.7	-38.6	23.5	0.00e+00	0	30	0	206569472	48	6164
2026-01-29 15:45:47.72	17.32	11.96	-37.8	-38.7	23.5	0.00e+00	0	29	0	208666624	48	6205
2026-01-29 15:45:48.73	17.26	12.05	-37.9	-38.8	23.3	0.00e+00	92	30	0	210763776	48	6271
2026-01-29 15:45:49.74	17.21	12.14	-38.0	-38.9	23.3	0.00e+00	60	29	0	212860928	48	6340
2026-01-29 15:45:50.75	17.15	12.23	-38.0	-38.9	23.2	0.00e+00	91	30	0	213909504	48	6359
2026-01-29 15:45:51.76	17.09	12.32	-37.7	-38.6	23.5	0.00e+00	23	29	0	216006656	48	6163
2026-01-29 15:45:52.77	17.03	12.42	-37.7	-38.6	23.6	0.00e+00	60	29	0	218103808	48	6134
2026-01-29 15:45:53.78	16.98	12.51	-37.7	-38.6	23.7	0.00e+00	0	30	0	220200960	48	6115
2026-01-29 15:45:54.79	16.92	12.60	-37.7	-38.6	23.5	0.00e+00	22	29	0	222298112	48	6144
2026-01-29 15:45:55.80	16.86	12.69	-37.7	-38.6	23.5	0.00e+00	45	29	0	223346688	48	6126
2026-01-29 15:45:56.81	16.80	12.79	-37.9	-38.8	23.4	0.00e+00	22	29	0	225443840	48	6284
2026-01-29 15:45:57.82	16.74	12.88	-37.6	-38.5	23.5	0.00e+00	92	30	0	227540992	48	6095
2026-01-29 15:45:58.83	16.68	12.97	-37.7	-38.6	23.6	0.00e+00	0	30	0	229638144	48	6157
2026-01-29 15:45:59.84	16.62	13.07	-37.8	-38.7	23.6	0.00e+00	91	30	0	231735296	48	6182
2026-01-29 15:46:00.85	16.56	13.16	-37.7	-38.5	23.7	0.00e+00	0	30	0	232783872	48	6103
2026-01-29 15:46:01.86	16.50	13.26	-37.8	-38.7	23.5	0.00e+00	2	29	0	234881024	48	6189
2026-01-29 15:46:02.86	16.44	13.35	-37.6	-38.4	23.7	0.00e+00	0	30	0	236978176	48	6031
2026-01-29 15:46:03.87	16.38	13.45	-37.7	-38.6	23.5	0.00e+00	0	29	0	239075328	48	6143
2026-01-29 15:46:04.88	16.31	13.54	-37.6	-38.5	23.6	0.00e+00	90	29	0	241172480	48	6081
2026-01-29 15:46:05.89	16.25	13.64	-37.6	-38.5	23.6	0.00e+00	57	29	0	242221056	48	6083
2026-01-29 15:46:06.90	16.19	13.74	-37.5	-38.4	23.7	0.00e+00	90	29	0	244318208	48	6015
2026-01-29 15:46:07.90	16.13	13.83	-37.5	-38.4	23.7	0.00e+00	55	29	0	246415360	48	6017
2026-01-29 15:46:08.92	16.06	13.93	-37.6	-38.5	23.7	0.00e+00	54	29	0	248512512	48	6044
2026-01-29 15:46:09.92	16.00	14.03	-37.8	-38.7	23.6	0.00e+00	39	29	0	250609664	48	6194
2026-01-29 15:46:10.94	15.93	14.13	-37.4	-38.3	23.8	0.00e+00	4	30	0	252706816	48	5922
2026-01-29 15:46:11.94	15.87	14.22	-37.5	-38.4	23.7	0.00e+00	90	30	0	253755392	48	6018
2026-01-29 15:46:12.96	15.80	14.32	-37.5	-38.4	23.8	0.00e+00	27	30	0	255852544	48	5968
2026-01-29 15:46:13.96	15.74	14.42	-37.5	-38.3	23.8	0.00e+00	92	30	0	257949696	48	5958
2026-01-29 15:46:14.97	15.67	14.52	-37.5	-38.4	23.8	0.00e+00	55	30	0	260046848	48	5991
2026-01-29 15:46:15.98	15.60	14.62	-37.4	-38.3	23.9	0.00e+00	2	30	0	262144000	48	5930
2026-01-29 15:46:16.99	15.53	14.72	-37.4	-38.3	23.9	0.00e+00	2	30	0	263192576	48	5924
2026-01-29 15:46:18.00	15.47	14.82	-37.4	-38.3	23.8	0.00e+00	2	30	0	265289728	48	5923
2026-01-29 15:46:19.01	15.40	14.92	-37.5	-38.4	23.7	0.00e+00	4	29	0	267386880	48	6007
2026-01-29 15:46:20.02	15.33	15.02	-37.5	-38.4	23.8	0.00e+00	2	30	0	269484032	48	5978
2026-01-29 15:46:21.03	15.26	15.13	-37.4	-38.3	23.9	0.00e+00	92	30	0	271581184	48	5944
2026-01-29 15:46:22.04	15.19	15.23	-37.4	-38.3	23.8	0.00e+00	0	30	0	272629760	48	5923
2026-01-29 15:46:23.05	15.12	15.33	-37.4	-38.3	23.9	0.00e+00	92	30	0	274726912	48	5922
2026-01-29 15:46:24.06	15.05	15.43	-37.5	-38.3	23.9	0.00e+00	0	30	0	276824064	48	5959
2026-01-29 15:46:25.07	14.97	15.54	-37.5	-38.3	23.9	0.00e+00	0	30	0	278921216	48	5946
2026-01-29 15:46:26.07	14.90	15.64	-37.5	-38.3	23.9	0.00e+00	0	30	0	281018368	48	5949
2026-01-29 15:46:27.08	14.83	15.74	-37.4	-38.3	23.9	0.00e+00	0	30	0	282066944	48	5926
2026-01-29 15:46:28.09	14.76	15.85	-37.5	-38.4	23.9	0.00e+00	92	30	0	284164096	48	6016
2026-01-29 15:46:29.10	14.68	15.95	-37.3	-38.1	24.0	0.00e+00	62	30	0	286261248	48	5814
2026-01-29 15:46:30.11	14.61	16.06	-37.4	-38.2	24.0	0.00e+00	92	30	0	288358400	48	5895
2026-01-29 15:46:31.12	14.53	16.16	-37.4	-38.2	23.9	0.00e+00	0	30	0	290455552	48	5870
2026-01-29 15:46:32.13	14.46	16.27	-37.4	-38.2	24.0	0.00e+00	20	30	0	291504128	48	5880
2026-01-29 15:46:33.14	14.38	16.38	-37.4	-38.2	23.9	0.00e+00	60	30	0	293601280	48	5893
2026-01-29 15:46:34.15	14.30	16.48	-37.3	-38.2	24.0	0.00e+00	0	30	0	295698432	48	5860
2026-01-29 15:46:35.16	14.23	16.59	-37.5	-38.3	23.8	0.00e+00	92	30	0	297795584	48	5951
2026-01-29 15:46:36.17	14.15	16.70	-37.4	-38.3	24.0	0.00e+00	21	30	0	299892736	48	5900
2026-01-29 15:46:37.18	14.07	16.81	-37.5	-38.4	23.8	0.00e+00	92	30	0	300941312	48	6004
2026-01-29 15:46:38.19	13.99	16.92	-37.4	-38.3	24.0	0.00e+00	25	30	0	303038464	48	5909
2026-01-29 15:46:39.20	13.91	17.02	-37.5	-38.4	23.9	0.00e+00	0	30	0	305135616	48	5968
2026-01-29 15:46:40.21	13.83	17.13	-37.4	-38.3	24.0	0.00e+00	19	30	0	307232768	48	5927
2026-01-29 15:46:41.22	13.75	17.24	-37.4	-38.3	24.0	0.00e+00	21	30	0	309329920	48	5911
2026-01-29 15:46:42.23	13.67	17.35	-37.5	-38.4	23.9	0.00e+00	60	30	0	310378496	48	6008
2026-01-29 15:46:43.24	13.59	17.46	-37.4	-38.3	24.0	0.00e+00	0	30	0	312475648	48	5927
2026-01-29 15:46:44.25	13.51	17.58	-37.4	-38.2	24.0	0.00e+00	92	30	0	314572800	48	5892
2026-01-29 15:46:45.26	13.42	17.69	-37.5	-38.4	23.9	0.00e+00	0	30	0	316669952	48	5975
2026-01-29 15:46:46.27	13.34	17.80	-37.3	-38.1	24.1	0.00e+00	23	30	0	318767104	48	5820
2026-01-29 15:46:47.28	13.25	17.91	-37.4	-38.3	24.1	0.00e+00	59	30	0	320864256	48	5919
2026-01-29 15:46:48.29	13.17	18.02	-37.3	-38.1	24.1	0.00e+00	0	30	0	321912832	48	5809
2026-01-29 15:46:49.30	13.08	18.14	-37.3	-38.1	24.2	0.00e+00	0	30	0	324009984	48	5815
2026-01-29 15:46:50.31	13.00	18.25	-37.2	-38.1	24.2	0.00e+00	0	30	0	326107136	48	5798
2026-01-29 15:46:51.32	12.91	18.37	-37.4	-38.3	24.0	0.00e+00	91	30	0	328204288	48	5905
2026-01-29 15:46:52.33	12.82	18.48	-37.2	-38.0	24.2	0.00e+00	27	30	0	330301440	48	5759
2026-01-29 15:46:53.34	12.73	18.60	-37.3	-38.1	24.1	0.00e+00	91	30	0	331350016	48	5826
2026-01-29 15:46:54.35	12.64	18.71	-37.3	-38.2	24.0	0.00e+00	55	30	0	333447168	48	5868
2026-01-29 15:46:55.35	12.55	18.83	-37.3	-38.1	24.1	0.00e+00	21	30	0	335544320	48	5801
2026-01-29 15:46:56.36	12.46	18.94	-37.3	-38.2	24.1	0.00e+00	62	30	0	337641472	48	5852
2026-01-29 15:46:57.37	12.37	19.06	-37.3	-38.1	24.2	0.00e+00	5	30	0	339738624	48	5816
2026-01-29 15:46:58.38	12.28	19.18	-37.4	-38.2	24.0	0.00e+00	92	30	0	340787200	48	5864
2026-01-29 15:46:59.39	12.19	19.30	-37.4	-38.2	24.1	0.00e+00	5	30	0	342884352	48	5872
2026-01-29 15:47:00.40	12.09	19.41	-37.5	-38.4	23.9	0.00e+00	90	30	0	344981504	48	5975
2026-01-29 15:47:01.41	12.00	19.53	-37.6	-38.5	23.7	0.00e+00	26	30	0	347078656	48	6045
2026-01-29 15:47:02.42	11.90	19.65	-37.6	-38.5	23.5	0.00e+00	51	30	0	349175808	48	6062
2026-01-29 15:47:03.43	11.81	19.77	-37.6	-38.5	23.8	0.00e+00	0	29	0	350224384	48	6056
2026-01-29 15:47:04.44	11.71	19.89	-37.7	-38.6	23.7	0.00e+00	5	30	0	352321536	48	6134
2026-01-29 15:47:05.45	11.61	20.01	-37.7	-38.6	23.7	0.00e+00	82	30	0	354418688	48	6166
2026-01-29 15:47:06.46	11.51	20.13	-37.8	-38.7	23.7	0.00e+00	0	30	0	356515840	48	6203
2026-01-29 15:47:07.47	11.41	20.26	-37.8	-38.6	23.7	0.00e+00	92	30	0	358612992	48	6163
2026-01-29 15:47:08.48	11.31	20.38	-37.8	-38.7	23.6	0.00e+00	0	30	0	359661568	48	6233
2026-01-29 15:47:09.49	11.21	20.50	-38.0	-38.9	23.5	0.00e+00	56	30	0	361758720	48	6337
2026-01-29 15:47:10.50	11.11	20.63	-38.0	-38.9	23.5	0.00e+00	0	30	0	363855872	48	6330
2026-01-29 15:47:11.51	11.01	20.75	-38.1	-39.0	23.5	0.00e+00	0	30	0	365953024	48	6410
2026-01-29 15:47:12.52	10.91	20.87	-38.1	-39.0	23.4	0.00e+00	0	30	0	368050176	48	6420
2026-01-29 15:47:13.53	10.80	21.00	-38.1	-39.0	23.4	0.00e+00	0	30	0	369098752	48	6444
2026-01-29 15:47:14.54	10.70	21.12	-38.2	-39.1	23.3	0.00e+00	90	30	0	371195904	48	6527
2026-01-29 15:47:15.55	10.59	21.25	-38.3	-39.3	23.2	0.00e+00	28	30	0	373293056	48	6648
2026-01-29 15:47:16.55	10.48	21.38	-38.2	-39.2	23.2	0.00e+00	90	30	0	375390208	48	6549
2026-01-29 15:47:17.56	10.38	21.50	-38.3	-39.3	23.2	0.00e+00	30	30	0	377487360	48	6628
2026-01-29 15:47:18.57	10.27	21.63	-38.4	-39.4	23.1	0.00e+00	56	30	0	378535936	48	6696
2026-01-29 15:47:19.58	10.16	21.76	-38.4	-39.3	23.1	0.00e+00	0	30	0	380633088	48	6685
2026-01-29 15:47:20.59	10.05	21.89	-38.3	-39.2	23.3	0.00e+00	24	30	0	382730240	48	6567
2026-01-29 15:47:21.60	9.93	22.02	-38.2	-39.2	23.2	0.00e+00	92	30	0	384827392	48	6551
2026-01-29 15:47:22.61	9.82	22.15	-38.4	-39.3	23.2	0.00e+00	25	30	0	386924544	48	6654
2026-01-29 15:47:23.62	9.71	22.28	-38.3	-39.3	23.1	0.00e+00	92	30	0	387973120	48	6644
2026-01-29 15:47:24.63	9.59	22.41	-38.2	-39.2	23.3	0.00e+00	6	30	0	390070272	48	6554
2026-01-29 15:47:25.64	9.48	22.54	-38.2	-39.2	23.3	0.00e+00	0	30	0	392167424	48	6557
2026-01-29 15:47:26.65	9.36	22.67	-38.3	-39.2	23.3	0.00e+00	0	30	0	394264576	48	6579
2026-01-29 15:47:27.66	9.24	22.80	-38.4	-39.3	23.1	0.00e+00	0	30	0	396361728	48	6689
2026-01-29 15:47:28.67	9.13	22.94	-38.2	-39.2	23.2	0.00e+00	0	30	0	397410304	48	6548
2026-01-29 15:47:29.68	9.01	23.07	-38.4	-39.4	23.1	0.00e+00	60	30	0	399507456	48	6706
2026-01-29 15:47:30.69	8.88	23.20	-38.4	-39.4	23.1	0.00e+00	92	30	0	401604608	48	6727
2026-01-29 15:47:31.70	8.76	23.34	-38.6	-39.5	23.0	0.00e+00	0	30	0	403701760	48	6821
2026-01-29 15:47:32.71	8.64	23.47	-38.6	-39.6	22.8	0.00e+00	90	29	0	405798912	48	6875
2026-01-29 15:47:33.72	8.52	23.61	-38.6	-39.6	22.9	0.00e+00	0	30	0	406847488	48	6874
2026-01-29 15:47:34.73	8.39	23.75	-38.7	-39.7	22.8	0.00e+00	25	30	0	408944640	48	6959
2026-01-29 15:47:35.74	8.26	23.88	-38.8	-39.8	22.7	0.00e+00	55	30	0	411041792	50	6268
2026-01-29 15:47:36.74	8.14	24.02	-38.9	-39.9	22.7	0.00e+00	18	30	0	413138944	50	6326
2026-01-29 15:47:37.75	8.01	24.16	-39.0	-40.0	22.6	0.00e+00	90	30	0	415236096	50	6400
2026-01-29 15:47:38.76	7.88	24.29	-38.9	-39.9	22.8	0.00e+00	19	30	0	417333248	50	6320
2026-01-29 15:47:39.77	7.75	24.43	-38.8	-39.8	22.8	0.00e+00	90	30	0	418381824	50	6298
2026-01-29 15:47:40.78	7.62	24.57	-38.8	-39.8	22.8	0.00e+00	2	30	0	420478976	50	6293
2026-01-29 15:47:41.79	7.48	24.71	-38.7	-39.7	23.0	0.00e+00	22	30	0	422576128	50	6198
2026-01-29 15:47:42.80	7.35	24.86	-38.9	-39.9	22.7	0.00e+00	0	30	0	424673280	50	6348
2026-01-29 15:47:43.81	7.21	25.00	-39.1	-40.1	22.5	0.00e+00	0	30	0	426770432	50	6529
2026-01-29 15:47:44.82	7.08	25.14	-39.0	-40.0	22.5	0.00e+00	90	30	0	427819008	50	6434
2026-01-29 15:47:45.83	6.94	25.28	-39.1	-40.1	22.5	0.00e+00	0	30	0	429916160	50	6513
2026-01-29 15:47:46.84	6.80	25.42	-39.2	-40.2	22.4	0.00e+00	92	30	0	432013312	50	6579
2026-01-29 15:47:47.85	6.66	25.57	-39.2	-40.2	22.4	0.00e+00	0	30	0	434110464	50	6560
2026-01-29 15:47:48.86	6.52	25.71	-39.4	-40.5	22.2	0.00e+00	31	30	0	436207616	50	6777
2026-01-29 15:47:49.87	6.37	25.86	-39.2	-40.3	22.4	0.00e+00	0	30	0	437256192	50	6629
2026-01-29 15:47:50.88	6.23	26.00	-39.2	-40.2	22.3	0.00e+00	58	30	0	439353344	50	6609
2026-01-29 15:47:51.89	6.08	26.15	-39.4	-40.5	22.2	0.00e+00	0	30	0	441450496	50	6785
2026-01-29 15:47:52.90	5.93	26.30	-39.4	-40.4	22.3	0.00e+00	0	30	0	443547648	50	6732
2026-01-29 15:47:53.91	5.78	26.44	-39.5	-40.5	22.1	0.00e+00	90	30	0	445644800	50	6820
2026-01-29 15:47:54.92	5.63	26.59	-39.4	-40.4	22.3	0.00e+00	0	30	0	446693376	50	6741
2026-01-29 15:47:55.93	5.48	26.74	-39.3	-40.3	22.3	0.00e+00	89	30	0	448790528	50	6645
2026-01-29 15:47:56.93	5.33	26.89	-39.5	-40.6	22.1	0.00e+00	25	30	0	450887680	50	6852
2026-01-29 15:47:57.94	5.17	27.04	-39.5	-40.6	22.0	0.00e+00	23	30	0	452984832	50	6876
2026-01-29 15:47:58.95	5.02	27.19	-39.4	-40.4	22.3	0.00e+00	42	30	0	455081984	52	6003
2026-01-29 15:47:59.96	4.86	27.34	-39.3	-40.3	22.4	0.00e+00	19	30	0	456130560	52	5925
2026-01-29 15:48:00.97	4.70	27.49	-39.4	-40.5	22.2	0.00e+00	92	30	0	458227712	52	6061
2026-01-29 15:48:01.98	4.54	27.64	-39.3	-40.4	22.4	0.00e+00	0	30	0	460324864	52	5974
2026-01-29 15:48:02.99	4.38	27.79	-39.2	-40.2	22.6	0.00e+00	92	30	0	462422016	52	5838
2026-01-29 15:48:04.00	4.21	27.95	-39.2	-40.3	22.4	0.00e+00	24	30	0	464519168	52	5899
2026-01-29 15:48:05.01	4.05	28.10	-39.2	-40.2	22.5	0.00e+00	25	30	0	465567744	52	5855
2026-01-29 15:48:06.02	3.88	28.26	-39.1	-40.1	22.6	0.00e+00	0	30	0	467664896	52	5777
2026-01-29 15:48:07.03	3.71	28.41	-39.2	-40.2	22.6	0.00e+00	0	30	0	469762048	52	5840
2026-01-29 15:48:08.04	3.54	28.57	-39.3	-40.3	22.5	0.00e+00	92	30	0	471859200	52	5927
2026-01-29 15:48:09.05	3.37	28.72	-39.1	-40.1	22.6	0.00e+00	0	30	0	473956352	52	5779
2026-01-29 15:48:10.06	3.19	28.88	-39.2	-40.2	22.5	0.00e+00	92	30	0	475004928	52	5859
2026-01-29 15:48:11.07	3.02	29.04	-38.9	-39.9	22.6	0.00e+00	0	30	0	477102080	52	5671
2026-01-29 15:48:12.07	2.84	29.19	-39.0	-40.0	22.5	0.00e+00	92	30	0	479199232	52	5756
2026-01-29 15:48:13.08	2.66	29.35	-39.1	-40.1	22.4	0.00e+00	0	29	0	481296384	52	5824
2026-01-29 15:48:14.09	2.48	29.51	-39.2	-40.2	22.5	0.00e+00	0	30	0	483393536	52	5832
2026-01-29 15:48:15.10	2.30	29.67	-39.0	-40.0	22.6	0.00e+00	0	30	0	485490688	52	5735
2026-01-29 15:48:16.11	2.11	29.83	-39.2	-40.2	22.5	0.00e+00	64	29	0	486539264	52	5854
2026-01-29 15:48:17.12	1.93	29.99	-39.2	-40.3	22.4	0.00e+00	92	30	0	488636416	52	5903
2026-01-29 15:48:18.13	1.74	30.15	-39.1	-40.1	22.5	0.00e+00	0	30	0	490733568	52	5814
2026-01-29 15:48:19.14	1.55	30.31	-39.2	-40.2	22.5	0.00e+00	0	30	0	492830720	52	5846
2026-01-29 15:48:20.15	1.35	30.48	-39.3	-40.3	22.4	0.00e+00	63	30	0	494927872	52	5916
2026-01-29 15:48:21.16	1.16	30.64	-39.4	-40.4	22.3	0.00e+00	23	30	0	495976448	52	6000
2026-01-29 15:48:22.17	0.96	30.80	-39.5	-40.5	22.2	0.00e+00	31	30	0	498073600	52	6088
2026-01-29 15:48:23.18	0.77	30.97	-39.5	-40.6	22.1	0.00e+00	2	30	0	500170752	52	6109
2026-01-29 15:48:24.19	0.56	31.13	-39.5	-40.5	22.1	0.00e+00	90	30	0	502267904	52	6097
2026-01-29 15:48:25.20	0.36	31.30	-39.6	-40.7	22.0	0.00e+00	0	30	0	504365056	52	6183
2026-01-29 15:48:26.21	0.16	31.46	-39.8	-40.8	21.7	0.00e+00	48	30	0	505413632	52	6298
2026-01-29 15:48:27.22	359.95	31.63	-39.8	-40.9	21.1	0.00e+00	0	30	0	507510784	52	6332
2026-01-29 15:48:28.23	359.74	31.79	-40.1	-41.2	21.4	0.00e+00	0	30	0	509607936	52	6615
2026-01-29 15:48:29.24	359.53	31.96	-40.1	-41.2	21.5	0.00e+00	0	30	0	511705088	52	6615
2026-01-29 15:48:30.25	359.32	32.13	-40.0	-41.2	21.6	0.00e+00	0	29	0	513802240	52	6546
2026-01-29 15:48:31.26	359.10	32.30	-40.2	-41.3	21.5	0.00e+00	92	30	0	514850816	52	6649
2026-01-29 15:48:32.27	358.88	32.46	-39.9	-41.0	21.8	0.00e+00	0	30	0	516947968	52	6451
2026-01-29 15:48:33.28	358.66	32.63	-40.0	-41.1	21.7	0.00e+00	90	30	0	519045120	52	6512
2026-01-29 15:48:34.29	358.44	32.80	-40.1	-41.2	21.6	0.00e+00	0	30	0	521142272	52	6574
2026-01-29 15:48:35.30	358.21	32.97	-39.9	-41.0	21.8	0.00e+00	0	30	0	523239424	52	6423
2026-01-29 15:48:36.31	357.99	33.14	-40.0	-41.1	21.6	0.00e+00	0	30	0	524288000	52	6484
2026-01-29 15:48:37.32	357.76	33.31	-40.1	-41.2	21.6	0.00e+00	0	30	0	526385152	52	6579
2026-01-29 15:48:38.33	357.52	33.49	-40.1	-41.2	21.6	0.00e+00	0	29	0	528482304	52	6585
2026-01-29 15:48:39.34	357.29	33.66	-40.0	-41.1	21.7	0.00e+00	63	30	0	530579456	52	6492
2026-01-29 15:48:40.35	357.05	33.83	-39.8	-40.9	21.9	0.00e+00	92	29	0	532676608	52	6364
2026-01-29 15:48:41.36	356.81	34.00	-39.8	-40.8	21.9	0.00e+00	19	30	0	533725184	52	6305
2026-01-29 15:48:42.37	356.57	34.17	-39.9	-40.9	21.8	0.00e+00	30	30	0	535822336	52	6388
2026-01-29 15:48:43.38	356.32	34.35	-39.9	-41.0	21.7	0.00e+00	0	30	0	537919488	52	6413
2026-01-29 15:48:44.39	356.07	34.52	-39.7	-40.8	22.0	0.00e+00	24	30	0	540016640	52	6265
2026-01-29 15:48:45.40	355.82	34.69	-39.7	-40.7	22.0	0.00e+00	0	30	0	542113792	52	6244
2026-01-29 15:48:46.41	355.57	34.87	-39.5	-40.6	22.1	0.00e+00	24	30	0	543162368	52	6113
2026-01-29 15:48:47.42	355.31	35.04	-39.5	-40.6	22.1	0.00e+00	92	30	0	545259520	52	6118
2026-01-29 15:48:48.43	355.05	35.22	-39.6	-40.7	22.1	0.00e+00	6	30	0	547356672	52	6199
2026-01-29 15:48:49.44	354.79	35.39	-39.6	-40.7	22.0	0.00e+00	92	30	0	549453824	52	6176
2026-01-29 15:48:50.45	354.53	35.57	-39.6	-40.7	22.1	0.00e+00	0	30	0	551550976	52	6185
2026-01-29 15:48:51.46	354.26	35.74	-39.7	-40.7	22.1	0.00e+00	4	30	0	553648128	52	6224
2026-01-29 15:48:52.47	353.99	35.92	-39.5	-40.6	22.3	0.00e+00	0	30	0	554696704	52	6121
2026-01-29 15:48:53.48	353.72	36.10	-39.6	-40.6	22.1	0.00e+00	0	30	0	556793856	52	6153
2026-01-29 15:48:54.48	353.44	36.27	-39.7	-40.8	22.0	0.00e+00	92	30	0	558891008	52	6261
2026-01-29 15:48:55.49	353.16	36.45	-39.7	-40.8	22.0	0.00e+00	0	30	0	560988160	52	6278
2026-01-29 15:48:56.50	352.88	36.62	-39.6	-40.7	22.1	0.00e+00	90	30	0	563085312	52	6175
2026-01-29 15:48:57.51	352.60	36.80	-39.4	-40.4	22.3	0.00e+00	4	30	0	564133888	52	6030
2026-01-29 15:48:58.52	352.31	36.98	-39.6	-40.6	22.1	0.00e+00	64	30	0	566231040	52	6148
2026-01-29 15:48:59.53	352.01	37.15	-39.5	-40.6	22.1	0.00e+00	25	30	0	568328192	52	6139
2026-01-29 15:49:00.54	351.72	37.33	-39.8	-40.8	22.0	0.00e+00	29	30	0	570425344	52	6301
2026-01-29 15:49:01.55	351.42	37.51	-40.0	-41.1	21.8	0.00e+00	0	30	0	572522496	52	6473
2026-01-29 15:49:02.57	351.12	37.69	-40.0	-41.1	21.5	0.00e+00	30	30	0	573571072	52	6505
2026-01-29 15:49:03.58	350.81	37.86	-39.9	-41.0	21.9	0.00e+00	92	30	0	575668224	52	6417
2026-01-29 15:49:04.59	350.50	38.04	-39.5	-40.6	22.1	0.00e+00	23	30	0	577765376	52	6124
2026-01-29 15:49:05.60	350.19	38.22	-39.4	-40.4	22.4	0.00e+00	90	30	0	579862528	52	6003
2026-01-29 15:49:06.61	349.88	38.40	-39.5	-40.5	22.2	0.00e+00	26	30	0	581959680	52	6088
2026-01-29 15:49:07.62	349.56	38.57	-39.7	-40.7	21.9	0.00e+00	7	30	0	583008256	52	6234
2026-01-29 15:49:08.63	349.23	38.75	-39.9	-41.0	21.8	0.00e+00	0	30	0	585105408	52	6443
2026-01-29 15:49:09.63	348.91	38.93	-39.7	-40.7	22.1	0.00e+00	6	30	0	587202560	52	6229
2026-01-29 15:49:10.64	348.58	39.10	-39.3	-40.4	22.4	0.00e+00	92	30	0	589299712	52	5971
2026-01-29 15:49:11.65	348.25	39.28	-39.4	-40.4	22.3	0.00e+00	0	30	0	591396864	52	6012
2026-01-29 15:49:12.66	347.91	39.46	-39.3	-40.3	22.4	0.00e+00	92	30	0	592445440	52	5939
2026-01-29 15:49:13.67	347.57	39.63	-39.4	-40.4	22.4	0.00e+00	0	30	0	594542592	52	6028
2026-01-29 15:49:14.68	347.23	39.81	-39.6	-40.6	22.2	0.00e+00	65	30	0	596639744	52	6158
2026-01-29 15:49:15.69	346.88	39.98	-39.4	-40.4	22.3	0.00e+00	0	30	0	598736896	52	6028
2026-01-29 15:49:16.70	346.53	40.16	-39.4	-40.4	22.4	0.00e+00	59	30	0	600834048	52	5998
2026-01-29 15:49:17.71	346.17	40.33	-39.5	-40.6	22.2	0.00e+00	37	30	0	601882624	52	6129
2026-01-29 15:49:18.72	345.81	40.51	-39.6	-40.6	22.1	0.00e+00	64	30	0	603979776	52	6141
2026-01-29 15:49:19.73	345.45	40.68	-39.9	-41.0	21.8	0.00e+00	90	30	0	606076928	52	6445
2026-01-29 15:49:20.74	345.08	40.85	-40.1	-41.2	21.5	0.00e+00	65	30	0	608174080	52	6577
2026-01-29 15:49:21.75	344.71	41.03	-40.1	-41.2	21.6	0.00e+00	64	29	0	610271232	52	6552
2026-01-29 15:49:22.76	344.33	41.20	-39.8	-40.9	21.7	0.00e+00	64	29	0	611319808	52	6377
2026-01-29 15:49:23.77	343.95	41.37	-40.1	-41.2	21.6	0.00e+00	18	30	0	613416960	52	6582
2026-01-29 15:49:24.78	343.57	41.54	-40.4	-41.6	21.2	0.00e+00	47	30	0	615514112	52	6862
2026-01-29 15:49:25.79	343.18	41.71	-40.4	-41.6	21.2	0.00e+00	16	30	0	617611264	52	6911
2026-01-29 15:49:26.80	342.79	41.88	-40.5	-41.7	21.1	0.00e+00	92	30	0	619708416	52	6993
2026-01-29 15:49:27.81	342.40	42.05	-40.5	-41.7	21.1	0.00e+00	16	30	0	621805568	52	6993
2026-01-29 15:49:28.82	341.99	42.22	-40.3	-41.5	21.3	0.00e+00	92	30	0	622854144	52	6832
2026-01-29 15:49:29.83	341.59	42.39	-40.2	-41.3	21.5	0.00e+00	0	30	0	624951296	52	6684
2026-01-29 15:49:30.84	341.18	42.55	-40.1	-41.3	21.5	0.00e+00	0	30	0	627048448	52	6628
2026-01-29 15:49:31.85	340.77	42.72	-39.8	-40.9	21.9	0.00e+00	0	30	0	629145600	52	6388
2026-01-29 15:49:32.86	340.35	42.88	-39.5	-40.6	22.2	0.00e+00	2	30	0	631242752	52	6146
2026-01-29 15:49:33.87	339.93	43.05	-39.6	-40.6	22.0	0.00e+00	92	30	0	632291328	52	6164
2026-01-29 15:49:34.88	339.50	43.21	-39.6	-40.6	22.2	0.00e+00	0	30	0	634388480	52	6161
2026-01-29 15:49:35.89	339.07	43.37	-39.7	-40.8	22.1	0.00e+00	91	30	0	636485632	52	6273
2026-01-29 15:49:36.90	338.64	43.53	-39.5	-40.5	22.2	0.00e+00	0	30	0	638582784	52	6092
2026-01-29 15:49:37.91	338.20	43.69	-39.3	-40.3	22.4	0.00e+00	0	29	0	640679936	52	5938
2026-01-29 15:49:38.92	337.76	43.85	-39.2	-40.2	22.5	0.00e+00	0	30	0	641728512	52	5890
2026-01-29 15:49:39.92	337.31	44.00	-39.2	-40.2	22.5	0.00e+00	64	29	0	643825664	52	5842
2026-01-29 15:49:40.93	336.86	44.16	-39.1	-40.2	22.6	0.00e+00	90	30	0	645922816	52	5836
2026-01-29 15:49:41.94	336.40	44.31	-38.6	-39.6	23.1	0.00e+00	65	30	0	648019968	50	6151
2026-01-29 15:49:42.95	335.94	44.46	-38.2	-39.2	23.4	0.00e+00	90	30	0	650117120	50	5848
2026-01-29 15:49:43.96	335.48	44.61	-37.9	-38.8	23.5	0.00e+00	65	30	0	651165696	50	5578
2026-01-29 15:49:44.97	335.01	44.76	-37.8	-38.7	23.9	0.00e+00	92	30	0	653262848	50	5532
2026-01-29 15:49:45.98	334.53	44.91	-37.9	-38.8	23.7	0.00e+00	2	30	0	655360000	50	5615
2026-01-29 15:49:46.99	334.05	45.05	-38.0	-38.9	23.6	0.00e+00	0	30	0	657457152	50	5673
2026-01-29 15:49:48.00	333.57	45.20	-38.2	-39.2	23.5	0.00e+00	58	30	0	659554304	50	5850
2026-01-29 15:49:49.01	333.08	45.34	-38.1	-39.0	23.6	0.00e+00	19	30	0	660602880	50	5730
2026-01-29 15:49:50.02	332.59	45.48	-38.1	-39.1	23.4	0.00e+00	90	30	0	662700032	50	5769
2026-01-29 15:49:51.03	332.09	45.62	-38.2	-39.1	22.5	0.00e+00	0	30	0	664797184	50	5777
2026-01-29 15:49:52.04	331.59	45.76	-38.2	-39.1	23.5	0.00e+00	90	30	0	666894336	50	5814
2026-01-29 15:49:53.05	331.09	45.89	-37.8	-38.7	23.8	0.00e+00	0	30	0	668991488	50	5540
2026-01-29 15:49:54.06	330.58	46.02	-37.8	-38.7	23.9	0.00e+00	0	30	0	670040064	50	5550
2026-01-29 15:49:55.07	330.06	46.15	-37.9	-38.7	23.8	0.00e+00	0	30	0	672137216	50	5565
2026-01-29 15:49:56.08	329.55	46.28	-37.8	-38.7	23.9	0.00e+00	65	30	0	674234368	48	6191
2026-01-29 15:49:57.09	329.02	46.41	-38.1	-39.0	23.5	0.00e+00	92	30	0	676331520	48	6446
2026-01-29 15:49:58.10	328.50	46.53	-38.3	-39.3	23.3	0.00e+00	0	30	0	678428672	48	6627
2026-01-29 15:49:59.11	327.97	46.65	-38.7	-39.7	22.2	0.00e+00	92	30	0	679477248	48	6971
2026-01-29 15:50:00.12	327.43	46.77	-39.2	-40.2	22.4	0.00e+00	0	30	0	681574400	50	6608
2026-01-29 15:50:01.13	326.89	46.89	-39.7	-40.8	22.0	0.00e+00	16	30	0	683671552	50	7046
2026-01-29 15:50:02.14	326.35	47.00	-40.0	-41.2	21.6	0.00e+00	2	30	0	685768704	52	6600
2026-01-29 15:50:03.15	325.80	47.12	-40.2	-41.4	21.5	0.00e+00	0	30	0	687865856	52	6736
2026-01-29 15:50:04.16	325.25	47.22	-40.3	-41.6	21.4	0.00e+00	91	30	0	689963008	52	6859
2026-01-29 15:50:05.17	324.70	47.33	-40.1	-41.3	21.4	0.00e+00	18	30	0	691011584	52	6678
2026-01-29 15:50:06.18	324.14	47.43	-40.5	-41.7	21.0	0.00e+00	92	30	0	693108736	52	6997
2026-01-29 15:50:07.19	323.58	47.54	-40.3	-41.5	21.2	0.00e+00	0	30	0	695205888	52	6835
2026-01-29 15:50:08.20	323.01	47.63	-40.7	-42.0	20.9	0.00e+00	59	30	0	697303040	54	6448
2026-01-29 15:50:09.21	322.44	47.73	-41.0	-42.5	20.4	0.00e+00	23	30	0	699400192	54	6775
2026-01-29 15:50:10.22	321.87	47.82	-41.0	-42.4	20.5	0.00e+00	0	30	0	700448768	54	6739
2026-01-29 15:50:11.23	321.29	47.91	-41.0	-42.4	20.4	0.00e+00	54	30	0	702545920	54	6712
2026-01-29 15:50:12.24	320.71	48.00	-40.8	-42.1	20.7	0.00e+00	0	29	0	704643072	54	6527
2026-01-29 15:50:13.25	320.13	48.08	-40.7	-42.0	20.8	0.00e+00	92	30	0	706740224	54	6440
2026-01-29 15:50:14.26	319.54	48.16	-40.9	-42.3	20.5	0.00e+00	0	30	0	708837376	54	6645
2026-01-29 15:50:15.27	318.96	48.24	-41.3	-42.7	20.2	0.00e+00	33	30	0	709885952	54	6956
2026-01-29 15:50:16.28	318.36	48.31	-41.5	-43.0	19.9	0.00e+00	0	30	0	711983104	54	7211
2026-01-29 15:50:17.29	317.77	48.38	-41.7	-43.3	19.6	0.00e+00	0	30	0	714080256	54	7449
2026-01-29 15:50:18.30	317.17	48.45	-42.0	-43.6	19.4	0.00e+00	0	30	0	716177408	56	6893
2026-01-29 15:50:19.31	316.57	48.51	-41.6	-43.1	20.0	0.00e+00	0	30	0	718274560	56	6466
2026-01-29 15:50:20.32	315.97	48.58	-41.1	-42.4	20.6	0.00e+00	92	30	0	719323136	56	5996
2026-01-29 15:50:21.33	315.36	48.63	-41.0	-42.4	20.5	0.00e+00	18	30	0	721420288	56	5965
2026-01-29 15:50:22.33	314.76	48.69	-41.1	-42.5	20.5	0.00e+00	92	30	0	723517440	56	6046
2026-01-29 15:50:23.34	314.15	48.74	-40.5	-41.7	21.1	0.00e+00	17	30	0	725614592	54	6185
2026-01-29 15:50:24.35	313.54	48.79	-40.1	-41.2	21.6	0.00e+00	63	30	0	727711744	54	5891
2026-01-29 15:50:25.36	312.93	48.83	-40.1	-41.2	21.6	0.00e+00	19	30	0	728760320	54	5896
2026-01-29 15:50:26.37	312.32	48.87	-40.1	-41.3	21.5	0.00e+00	0	30	0	730857472	54	5923
2026-01-29 15:50:27.38	311.70	48.91	-40.1	-41.3	21.5	0.00e+00	92	30	0	732954624	54	5935
2026-01-29 15:50:28.39	311.08	48.94	-40.1	-41.3	21.7	0.00e+00	5	30	0	735051776	54	5925
2026-01-29 15:50:29.40	310.46	48.97	-39.9	-41.0	21.9	0.00e+00	92	30	0	737148928	54	5710
2026-01-29 15:50:30.41	309.84	49.00	-39.8	-40.9	22.0	0.00e+00	19	30	0	738197504	52	6360
2026-01-29 15:50:31.42	309.22	49.02	-39.5	-40.5	22.4	0.00e+00	90	30	0	740294656	52	6072
2026-01-29 15:50:32.43	308.60	49.04	-39.4	-40.4	22.4	0.00e+00	6	30	0	742391808	52	5999
2026-01-29 15:50:33.44	307.98	49.05	-39.7	-40.8	22.0	0.00e+00	7	30	0	744488960	52	6304
2026-01-29 15:50:34.45	307.36	49.06	-39.6	-40.7	22.1	0.00e+00	0	30	0	746586112	52	6188
2026-01-29 15:50:35.46	306.73	49.07	-39.5	-40.6	22.2	0.00e+00	5	30	0	747634688	52	6123
2026-01-29 15:50:36.47	306.11	49.08	-39.8	-40.8	22.0	0.00e+00	92	30	0	749731840	52	6304
2026-01-29 15:50:37.47	305.49	49.08	-40.0	-41.1	21.6	0.00e+00	0	30	0	751828992	52	6516
2026-01-29 15:50:38.48	304.87	49.07	-39.8	-40.9	21.9	0.00e+00	92	30	0	753926144	52	6327
2026-01-29 15:50:39.49	304.24	49.07	-39.2	-40.2	22.5	0.00e+00	0	30	0	756023296	52	5870
2026-01-29 15:50:40.50	303.62	49.06	-39.2	-40.2	22.6	0.00e+00	0	30	0	758120448	52	5849
2026-01-29 15:50:41.51	303.00	49.04	-39.1	-40.1	22.6	0.00e+00	0	30	0	759169024	52	5801
2026-01-29 15:50:42.52	302.38	49.03	-39.1	-40.0	22.7	0.00e+00	62	30	0	761266176	52	5756
2026-01-29 15:50:43.53	301.75	49.01	-39.0	-39.9	22.8	0.00e+00	92	30	0	763363328	52	5682
2026-01-29 15:50:44.54	301.13	48.98	-39.3	-40.3	22.6	0.00e+00	28	29	0	765460480	52	5935
2026-01-29 15:50:45.55	300.51	48.95	-39.7	-40.8	22.2	0.00e+00	90	29	0	767557632	52	6247
2026-01-29 15:50:46.56	299.90	48.92	-39.5	-40.6	22.2	0.00e+00	62	30	0	768606208	52	6127
2026-01-29 15:50:47.57	299.28	48.89	-39.7	-40.7	22.1	0.00e+00	63	30	0	770703360	52	6241
2026-01-29 15:50:48.58	298.66	48.85	-39.7	-40.8	22.0	0.00e+00	22	30	0	772800512	52	6288
2026-01-29 15:50:49.59	298.05	48.80	-39.7	-40.7	22.2	0.00e+00	0	30	0	774897664	52	6223
2026-01-29 15:50:50.60	297.44	48.76	-39.6	-40.7	22.1	0.00e+00	39	30	0	776994816	52	6193
2026-01-29 15:50:51.61	296.83	48.71	-39.7	-40.7	22.2	0.00e+00	7	30	0	778043392	52	6234
2026-01-29 15:50:52.62	296.22	48.65	-39.8	-40.9	22.0	0.00e+00	92	30	0	780140544	52	6333
2026-01-29 15:50:53.63	295.61	48.60	-39.5	-40.5	22.3	0.00e+00	7	30	0	782237696	52	6064
2026-01-29 15:50:54.64	295.01	48.54	-39.3	-40.3	22.4	0.00e+00	0	30	0	784334848	52	5957
2026-01-29 15:50:55.65	294.41	48.48	-39.6	-40.6	22.1	0.00e+00	0	30	0	786432000	52	6149
2026-01-29 15:50:56.66	293.81	48.41	-39.6	-40.6	22.2	0.00e+00	0	30	0	787480576	52	6167
2026-01-29 15:50:57.67	293.21	48.34	-39.6	-40.7	22.1	0.00e+00	0	30	0	789577728	52	6200
2026-01-29 15:50:58.67	292.63	48.27	-39.8	-40.9	21.7	0.00e+00	0	30	0	791674880	52	6368
2026-01-29 15:50:59.68	292.03	48.19	-40.3	-41.5	21.5	0.00e+00	91	30	0	793772032	52	6771
2026-01-29 15:51:00.69	291.45	48.11	-40.2	-41.4	21.5	0.00e+00	0	30	0	795869184	52	6700
2026-01-29 15:51:01.70	290.86	48.03	-40.1	-41.3	21.6	0.00e+00	92	30	0	796917760	52	6619
2026-01-29 15:51:02.71	290.28	47.94	-39.9	-41.0	21.8	0.00e+00	64	30	0	799014912	52	6416
2026-01-29 15:51:03.72	289.70	47.86	-39.7	-40.8	22.1	0.00e+00	63	30	0	801112064	52	6276
2026-01-29 15:51:04.73	289.13	47.76	-39.8	-40.9	21.9	0.00e+00	34	30	0	803209216	52	6323
2026-01-29 15:51:05.74	288.56	47.67	-39.8	-40.9	22.0	0.00e+00	64	30	0	805306368	52	6362
2026-01-29 15:51:06.75	287.99	47.57	-40.0	-41.1	21.9	0.00e+00	91	30	0	806354944	52	6535
2026-01-29 15:51:07.76	287.42	47.47	-40.1	-41.2	21.7	0.00e+00	58	30	0	808452096	52	6603
2026-01-29 15:51:08.77	286.86	47.37	-40.0	-41.0	21.7	0.00e+00	92	30	0	810549248	52	6460
2026-01-29 15:51:09.78	286.31	47.26	-40.0	-41.2	21.6	0.00e+00	22	30	0	812646400	52	6540
2026-01-29 15:51:10.78	285.76	47.16	-40.0	-41.1	21.8	0.00e+00	23	30	0	814743552	52	6514
2026-01-29 15:51:11.79	285.21	47.05	-40.1	-41.2	21.7	0.00e+00	21	30	0	815792128	52	6565
2026-01-29 15:51:12.80	284.67	46.93	-40.1	-41.2	21.7	0.00e+00	0	30	0	817889280	52	6603
2026-01-29 15:51:13.81	284.12	46.82	-39.8	-40.8	22.0	0.00e+00	47	30	0	819986432	52	6310
2026-01-29 15:51:14.82	283.59	46.70	-39.6	-40.6	22.0	0.00e+00	0	30	0	822083584	52	6146
2026-01-29 15:51:15.83	283.05	46.58	-39.8	-40.9	22.0	0.00e+00	92	30	0	824180736	52	6355
2026-01-29 15:51:16.84	282.52	46.46	-39.9	-41.0	21.9	0.00e+00	0	30	0	826277888	52	6406
2026-01-29 15:51:17.85	282.00	46.33	-40.3	-41.4	21.6	0.00e+00	90	30	0	827326464	52	6720
2026-01-29 15:51:18.85	281.48	46.20	-40.0	-41.1	21.8	0.00e+00	0	30	0	829423616	52	6490
2026-01-29 15:51:19.86	280.97	46.07	-39.6	-40.6	22.2	0.00e+00	0	30	0	831520768	52	6167
2026-01-29 15:51:20.87	280.46	45.94	-39.3	-40.3	22.6	0.00e+00	0	30	0	833617920	52	5931
2026-01-29 15:51:21.88	279.95	45.81	-38.9	-39.9	22.9	0.00e+00	61	30	0	835715072	52	5664
2026-01-29 15:51:22.89	279.44	45.67	-38.6	-39.5	23.1	0.00e+00	92	30	0	836763648	50	6080
2026-01-29 15:51:23.90	278.94	45.53	-38.7	-39.6	23.2	0.00e+00	64	30	0	838860800	50	6138
2026-01-29 15:51:24.91	278.45	45.39	-38.5	-39.4	23.3	0.00e+00	92	30	0	840957952	50	5991
2026-01-29 15:51:25.92	277.96	45.25	-38.4	-39.3	23.2	0.00e+00	64	30	0	843055104	50	5956
2026-01-29 15:51:26.93	277.47	45.11	-38.7	-39.6	23.2	0.00e+00	61	30	0	845152256	50	6153
2026-01-29 15:51:27.94	276.99	44.96	-38.3	-39.2	23.4	0.00e+00	57	30	0	846200832	50	5886
2026-01-29 15:51:28.95	276.51	44.82	-37.9	-38.8	23.9	0.00e+00	63	30	0	848297984	50	5606
2026-01-29 15:51:29.96	276.04	44.67	-38.0	-38.9	23.7	0.00e+00	91	30	0	850395136	50	5655
2026-01-29 15:51:30.97	275.57	44.52	-37.8	-38.7	23.8	0.00e+00	3	30	0	852492288	50	5534
2026-01-29 15:51:31.98	275.11	44.36	-38.0	-38.9	23.6	0.00e+00	92	30	0	854589440	50	5695
2026-01-29 15:51:32.99	274.65	44.21	-38.2	-39.1	23.5	0.00e+00	0	30	0	855638016	50	5790
2026-01-29 15:51:34.00	274.20	44.06	-37.8	-38.7	24.0	0.00e+00	0	30	0	857735168	50	5543
2026-01-29 15:51:35.01	273.75	43.90	-37.2	-38.0	24.5	0.00e+00	0	30	0	859832320	48	5717
2026-01-29 15:51:36.02	273.30	43.74	-37.1	-38.0	24.5	0.00e+00	2	30	0	861929472	48	5705
2026-01-29 15:51:37.03	272.86	43.58	-37.1	-37.9	24.6	0.00e+00	83	30	0	864026624	48	5691
2026-01-29 15:51:38.04	272.42	43.42	-37.3	-38.1	24.4	0.00e+00	0	30	0	865075200	48	5808
2026-01-29 15:51:39.05	271.99	43.26	-37.3	-38.1	24.5	0.00e+00	92	30	0	867172352	48	5823
2026-01-29 15:51:40.05	271.56	43.10	-37.3	-38.1	24.5	0.00e+00	0	30	0	869269504	48	5789
2026-01-29 15:51:41.06	271.14	42.94	-37.0	-37.8	24.6	0.00e+00	74	30	0	871366656	48	5607
2026-01-29 15:51:42.07	270.72	42.77	-36.9	-37.6	24.9	0.00e+00	0	30	0	873463808	48	5494
2026-01-29 15:51:43.08	270.30	42.61	-36.7	-37.5	24.9	0.00e+00	0	30	0	874512384	46	6072
2026-01-29 15:51:44.10	269.89	42.44	-36.9	-37.6	24.8	0.00e+00	0	30	0	876609536	46	6173
2026-01-29 15:51:45.10	269.48	42.28	-37.1	-37.9	24.6	0.00e+00	64	30	0	878706688	46	6324
2026-01-29 15:51:46.11	269.08	42.11	-37.4	-38.2	24.4	0.00e+00	92	30	0	880803840	46	6585
2026-01-29 15:51:47.12	268.68	41.94	-37.5	-38.4	24.2	0.00e+00	0	30	0	882900992	46	6729
2026-01-29 15:51:48.13	268.29	41.77	-37.8	-38.7	23.9	0.00e+00	92	30	0	883949568	46	6941
2026-01-29 15:51:49.14	267.90	41.60	-37.6	-38.5	24.1	0.00e+00	17	30	0	886046720	48	6034
2026-01-29 15:51:50.15	267.51	41.43	-37.6	-38.5	24.0	0.00e+00	65	30	0	888143872	48	6068
2026-01-29 15:51:51.16	267.13	41.25	-37.7	-38.5	24.0	0.00e+00	63	30	0	890241024	48	6095
2026-01-29 15:51:52.17	266.75	41.08	-37.7	-38.6	24.0	0.00e+00	16	30	0	892338176	48	6143
2026-01-29 15:51:53.18	266.38	40.91	-37.9	-38.7	23.8	0.00e+00	92	30	0	894435328	48	6234
2026-01-29 15:51:54.19	266.01	40.73	-37.7	-38.6	23.8	0.00e+00	0	30	0	895483904	48	6112
2026-01-29 15:51:55.20	265.64	40.56	-37.9	-38.7	23.9	0.00e+00	92	30	0	897581056	48	6224
2026-01-29 15:51:56.21	265.28	40.39	-37.6	-38.5	24.0	0.00e+00	18	30	0	899678208	48	6064
2026-01-29 15:51:57.22	264.92	40.21	-37.8	-38.6	24.0	0.00e+00	4	30	0	901775360	48	6167
2026-01-29 15:51:58.22	264.57	40.04	-37.8	-38.7	23.9	0.00e+00	18	30	0	902823936	48	6219
2026-01-29 15:51:59.23	264.22	39.86	-38.0	-38.9	23.8	0.00e+00	0	30	0	904921088	48	6349
2026-01-29 15:52:00.24	263.87	39.69	-38.2	-39.1	23.6	0.00e+00	92	30	0	907018240	48	6523
2026-01-29 15:52:01.25	263.53	39.51	-37.8	-38.7	23.9	0.00e+00	0	30	0	909115392	48	6203
2026-01-29 15:52:02.26	263.19	39.33	-37.8	-38.6	23.9	0.00e+00	91	30	0	911212544	48	6162
2026-01-29 15:52:03.27	262.86	39.16	-37.6	-38.4	24.0	0.00e+00	0	30	0	912261120	48	6012
2026-01-29 15:52:04.28	262.53	38.98	-37.7	-38.6	24.1	0.00e+00	84	30	0	914358272	48	6107
2026-01-29 15:52:05.29	262.20	38.80	-38.0	-38.8	23.8	0.00e+00	61	30	0	916455424	48	6306
2026-01-29 15:52:06.30	261.87	38.62	-38.1	-39.0	23.7	0.00e+00	55	30	0	918552576	48	6409
2026-01-29 15:52:07.31	261.55	38.45	-38.4	-39.3	23.4	0.00e+00	0	30	0	920649728	48	6636
2026-01-29 15:52:08.32	261.23	38.27	-38.5	-39.4	23.2	0.00e+00	56	30	0	922746880	48	6714
2026-01-29 15:52:09.33	260.92	38.09	-38.5	-39.5	23.2	0.00e+00	90	30	0	923795456	48	6789
2026-01-29 15:52:10.34	260.61	37.91	-38.7	-39.6	23.1	0.00e+00	0	30	0	925892608	48	6890
2026-01-29 15:52:11.35	260.30	37.73	-38.8	-39.8	23.1	0.00e+00	22	30	0	927989760	50	6270
2026-01-29 15:52:12.36	260.00	37.56	-38.7	-39.7	22.9	0.00e+00	55	30	0	930086912	50	6208
2026-01-29 15:52:13.36	259.70	37.38	-39.0	-39.9	22.8	0.00e+00	56	30	0	932184064	50	6376
2026-01-29 15:52:14.37	259.40	37.20	-39.1	-40.1	22.6	0.00e+00	25	30	0	933232640	50	6517
2026-01-29 15:52:15.38	259.11	37.03	-39.3	-40.3	22.4	0.00e+00	20	30	0	935329792	50	6645
2026-01-29 15:52:16.39	258.82	36.85	-39.2	-40.2	22.5	0.00e+00	90	30	0	937426944	50	6575
2026-01-29 15:52:17.41	258.53	36.67	-39.2	-40.2	22.5	0.00e+00	5	30	0	939524096	50	6607
2026-01-29 15:52:18.42	258.24	36.49	-39.5	-40.5	22.3	0.00e+00	91	30	0	941621248	50	6818
2026-01-29 15:52:19.43	257.96	36.31	-39.8	-40.9	22.0	0.00e+00	6	30	0	942669824	52	6336
2026-01-29 15:52:20.44	257.68	36.14	-40.1	-41.2	21.7	0.00e+00	0	30	0	944766976	52	6550
2026-01-29 15:52:21.44	257.41	35.96	-40.4	-41.6	21.4	0.00e+00	0	30	0	946864128	52	6853
2026-01-29 15:52:22.45	257.14	35.79	-40.4	-41.6	21.3	0.00e+00	5	30	0	948961280	52	6892
2026-01-29 15:52:23.46	256.87	35.61	-40.7	-41.9	21.0	0.00e+00	0	30	0	951058432	52	7105
2026-01-29 15:52:24.47	256.60	35.43	-40.7	-41.9	21.0	0.00e+00	5	30	0	952107008	52	7134
2026-01-29 15:52:25.48	256.34	35.26	-40.6	-41.7	21.2	0.00e+00	92	30	0	954204160	54	6244
2026-01-29 15:52:26.49	256.08	35.08	-40.6	-41.8	21.1	0.00e+00	58	30	0	956301312	54	6287
2026-01-29 15:52:27.50	255.82	34.91	-40.8	-42.0	20.8	0.00e+00	0	30	0	958398464	54	6462
2026-01-29 15:52:28.51	255.56	34.73	-40.8	-42.0	20.9	0.00e+00	0	30	0	960495616	54	6431
2026-01-29 15:52:29.52	255.31	34.56	-41.1	-42.4	20.6	0.00e+00	0	30	0	961544192	54	6739
2026-01-29 15:52:30.52	255.06	34.39	-41.1	-42.3	20.5	0.00e+00	0	30	0	963641344	54	6687
2026-01-29 15:52:31.53	254.82	34.21	-41.2	-42.5	20.5	0.00e+00	29	30	0	965738496	54	6822
2026-01-29 15:52:32.54	254.57	34.04	-41.3	-42.6	20.3	0.00e+00	92	30	0	967835648	54	6914
2026-01-29 15:52:33.56	254.33	33.86	-41.3	-42.6	20.2	0.00e+00	0	30	0	969932800	54	6884
2026-01-29 15:52:34.56	254.09	33.69	-41.3	-42.6	20.3	0.00e+00	92	30	0	970981376	54	6914
2026-01-29 15:52:35.57	253.85	33.52	-41.3	-42.7	20.2	0.00e+00	58	30	0	973078528	54	6939
2026-01-29 15:52:36.58	253.62	33.35	-41.1	-42.4	20.4	0.00e+00	34	30	0	975175680	54	6735
2026-01-29 15:52:37.59	253.39	33.18	-41.1	-42.4	20.2	0.00e+00	30	30	0	977272832	54	6693
2026-01-29 15:52:38.60	253.16	33.01	-41.1	-42.4	20.4	0.00e+00	7	30	0	979369984	54	6700
2026-01-29 15:52:39.61	252.93	32.83	-41.2	-42.5	20.4	0.00e+00	88	30	0	980418560	54	6786
2026-01-29 15:52:40.62	252.71	32.66	-40.8	-42.0	20.9	0.00e+00	7	30	0	982515712	54	6454
2026-01-29 15:52:41.63	252.49	32.49	-40.8	-42.0	21.0	0.00e+00	92	30	0	984612864	54	6443
2026-01-29 15:52:42.64	252.27	32.33	-40.6	-41.7	21.1	0.00e+00	6	30	0	986710016	54	6244
2026-01-29 15:52:43.65	252.05	32.16	-40.6	-41.8	21.2	0.00e+00	6	30	0	988807168	54	6263
2026-01-29 15:52:44.66	251.83	31.99	-40.4	-41.5	21.4	0.00e+00	8	30	0	990904320	54	6083
2026-01-29 15:52:45.67	251.62	31.82	-40.4	-41.6	21.3	0.00e+00	0	30	0	991952896	54	6117
2026-01-29 15:52:46.68	251.41	31.65	-40.3	-41.4	21.4	0.00e+00	65	30	0	994050048	54	6012
2026-01-29 15:52:47.69	251.20	31.49	-40.2	-41.3	21.5	0.00e+00	0	30	0	996147200	54	5947
2026-01-29 15:52:48.70	250.99	31.32	-40.1	-41.2	21.7	0.00e+00	91	30	0	998244352	54	5864
2026-01-29 15:52:49.71	250.79	31.15	-40.1	-41.2	21.7	0.00e+00	60	30	0	1000341504	54	5852
2026-01-29 15:52:50.72	250.59	30.99	-39.9	-41.0	21.7	0.00e+00	91	30	0	1001390080	54	5748
2026-01-29 15:52:51.73	250.39	30.82	-40.0	-41.1	21.7	0.00e+00	60	30	0	1003487232	54	5776
2026-01-29 15:52:52.74	250.19	30.66	-39.8	-40.9	22.0	0.00e+00	21	30	0	1005584384	52	6318
2026-01-29 15:52:53.75	249.99	30.50	-39.8	-40.9	21.9	0.00e+00	0	30	0	1007681536	52	6359
2026-01-29 15:52:54.76	249.80	30.33	-39.6	-40.6	22.2	0.00e+00	21	30	0	1009778688	52	6165
2026-01-29 15:52:55.76	249.61	30.17	-39.8	-40.8	21.9	0.00e+00	92	30	0	1010827264	52	6311
2026-01-29 15:52:56.77	249.42	30.01	-39.8	-40.9	21.9	0.00e+00	60	30	0	1012924416	52	6367
2026-01-29 15:52:57.78	249.23	29.85	-40.0	-41.1	21.7	0.00e+00	92	30	0	1015021568	52	6539
2026-01-29 15:52:58.79	249.04	29.69	-40.2	-41.4	21.6	0.00e+00	0	30	0	1017118720	52	6693
2026-01-29 15:52:59.80	248.86	29.53	-40.2	-41.3	21.6	0.00e+00	2	30	0	1019215872	52	6639
2026-01-29 15:53:00.81	248.68	29.37	-40.0	-41.1	21.7	0.00e+00	2	30	0	1020264448	52	6532
2026-01-29 15:53:01.82	248.50	29.21	-39.9	-40.9	21.9	0.00e+00	22	30	0	1022361600	52	6388
2026-01-29 15:53:02.83	248.32	29.05	-39.7	-40.8	22.1	0.00e+00	91	30	0	1024458752	52	6270
2026-01-29 15:53:03.84	248.14	28.89	-39.4	-40.4	22.4	0.00e+00	0	30	0	1026555904	52	6024
2026-01-29 15:53:04.85	247.97	28.73	-39.5	-40.5	22.4	0.00e+00	91	30	0	1028653056	52	6061
2026-01-29 15:53:05.86	247.79	28.58	-39.4	-40.4	22.4	0.00e+00	0	30	0	1029701632	52	6026
2026-01-29 15:53:06.87	247.62	28.42	-39.4	-40.4	22.3	0.00e+00	27	30	0	1031798784	52	6003
2026-01-29 15:53:07.87	247.45	28.27	-39.3	-40.3	22.4	0.00e+00	0	30	0	1033895936	52	5943
2026-01-29 15:53:08.88	247.28	28.11	-39.4	-40.4	22.4	0.00e+00	0	30	0	1035993088	52	5984
2026-01-29 15:53:09.89	247.11	27.96	-39.6	-40.7	22.1	0.00e+00	0	30	0	1038090240	52	6180
2026-01-29 15:53:10.90	246.95	27.80	-39.9	-40.9	21.8	0.00e+00	54	30	0	1039138816	52	6387
2026-01-29 15:53:11.91	246.79	27.65	-40.0	-41.2	21.7	0.00e+00	92	30	0	1041235968	52	6554
2026-01-29 15:53:12.92	246.62	27.50	-40.1	-41.2	21.5	0.00e+00	53	30	0	1043333120	52	6593
2026-01-29 15:53:13.93	246.46	27.35	-40.0	-41.2	21.7	0.00e+00	92	30	0	1045430272	52	6562
2026-01-29 15:53:14.94	246.30	27.19	-39.9	-41.0	21.8	0.00e+00	3	30	0	1047527424	52	6425
2026-01-29 15:53:15.95	246.15	27.04	-39.8	-40.9	21.9	0.00e+00	23	30	0	1048576000	52	6365
2026-01-29 15:53:16.96	245.99	26.89	-39.6	-40.7	22.0	0.00e+00	43	30	0	1050673152	52	6195
2026-01-29 15:53:17.97	245.84	26.74	-39.4	-40.5	22.3	0.00e+00	21	30	0	1052770304	52	6065
2026-01-29 15:53:18.98	245.68	26.59	-39.4	-40.4	22.3	0.00e+00	92	30	0	1054867456	52	6008
2026-01-29 15:53:19.99	245.53	26.44	-39.2	-40.3	22.4	0.00e+00	22	30	0	1056964608	52	5908
2026-01-29 15:53:21.00	245.38	26.30	-39.1	-40.1	22.6	0.00e+00	92	30	0	1059061760	52	5815
2026-01-29 15:53:22.01	245.23	26.15	-39.2	-40.3	22.4	0.00e+00	25	30	0	1060110336	52	5906
2026-01-29 15:53:23.01	245.09	26.00	-39.0	-40.0	22.7	0.00e+00	0	30	0	1062207488	52	5749
2026-01-29 15:53:24.02	244.94	25.86	-39.1	-40.2	22.5	0.00e+00	22	30	0	1064304640	52	5830
2026-01-29 15:53:25.03	244.79	25.71	-39.2	-40.2	22.4	0.00e+00	0	30	0	1066401792	52	5849
2026-01-29 15:53:26.04	244.65	25.57	-39.2	-40.3	22.4	0.00e+00	92	30	0	1068498944	52	5913
2026-01-29 15:53:27.05	244.51	25.42	-39.3	-40.4	22.3	0.00e+00	2	30	0	1069547520	52	5986
2026-01-29 15:53:28.06	244.37	25.28	-39.5	-40.5	22.3	0.00e+00	92	30	0	1071644672	52	6073
2026-01-29 15:53:29.07	244.23	25.13	-39.5	-40.6	22.1	0.00e+00	0	30	0	1073741824	52	6144
2026-01-29 15:53:30.08	244.09	24.99	-39.5	-40.6	22.2	0.00e+00	2	30	0	1075838976	52	6118
2026-01-29 15:53:31.09	243.95	24.85	-39.5	-40.5	22.3	0.00e+00	0	30	0	1077936128	52	6084
2026-01-29 15:53:32.10	243.82	24.71	-39.3	-40.4	22.3	0.00e+00	0	30	0	1078984704	52	5982
2026-01-29 15:53:33.11	243.68	24.57	-39.4	-40.4	22.4	0.00e+00	0	30	0	1081081856	52	5995
2026-01-29 15:53:34.12	243.55	24.43	-39.2	-40.2	22.5	0.00e+00	61	30	0	1083179008	52	5868
2026-01-29 15:53:35.13	243.42	24.29	-39.3	-40.3	22.5	0.00e+00	92	30	0	1085276160	52	5931
2026-01-29 15:53:36.14	243.29	24.15	-39.0	-40.0	22.7	0.00e+00	20	30	0	1087373312	52	5714
2026-01-29 15:53:37.15	243.16	24.01	-39.1	-40.1	22.6	0.00e+00	92	30	0	1088421888	52	5791
2026-01-29 15:53:38.16	243.03	23.87	-39.1	-40.1	22.6	0.00e+00	0	30	0	1090519040	52	5771
2026-01-29 15:53:39.17	242.90	23.73	-38.9	-39.9	22.8	0.00e+00	0	30	0	1092616192	52	5657
2026-01-29 15:53:40.18	242.78	23.60	-39.0	-40.0	22.6	0.00e+00	0	30	0	1094713344	52	5742
2026-01-29 15:53:41.19	242.65	23.46	-39.0	-39.9	22.7	0.00e+00	0	30	0	1096810496	52	5679
2026-01-29 15:53:42.20	242.53	23.32	-38.8	-39.7	22.8	0.00e+00	90	30	0	1097859072	52	5552
2026-01-29 15:53:43.21	242.40	23.19	-38.7	-39.7	22.9	0.00e+00	28	30	0	1099956224	50	6211
2026-01-29 15:53:44.22	242.28	23.05	-38.7	-39.7	23.0	0.00e+00	91	30	0	1102053376	50	6205
2026-01-29 15:53:45.23	242.16	22.92	-38.7	-39.7	23.0	0.00e+00	0	30	0	1104150528	50	6199
2026-01-29 15:53:46.24	242.04	22.79	-38.6	-39.6	23.0	0.00e+00	0	30	0	1106247680	50	6112
2026-01-29 15:53:47.25	241.92	22.65	-38.8	-39.8	22.8	0.00e+00	0	30	0	1107296256	50	6275
2026-01-29 15:53:48.26	241.81	22.52	-38.7	-39.6	22.9	0.00e+00	0	30	0	1109393408	50	6147
2026-01-29 15:53:49.27	241.69	22.39	-38.7	-39.6	23.0	0.00e+00	91	30	0	1111490560	50	6164
2026-01-29 15:53:50.27	241.57	22.26	-38.7	-39.6	23.0	0.00e+00	0	30	0	1113587712	50	6143
2026-01-29 15:53:51.28	241.46	22.13	-38.7	-39.7	22.9	0.00e+00	92	30	0	1115684864	50	6193
2026-01-29 15:53:52.29	241.35	22.00	-38.8	-39.8	22.9	0.00e+00	0	30	0	1116733440	50	6265
2026-01-29 15:53:53.30	241.23	21.87	-38.7	-39.7	22.9	0.00e+00	56	30	0	1118830592	50	6190
2026-01-29 15:53:54.31	241.12	21.74	-38.9	-39.8	22.8	0.00e+00	2	30	0	1120927744	50	6317
2026-01-29 15:53:55.32	241.01	21.61	-39.0	-40.0	22.6	0.00e+00	0	30	0	1123024896	50	6442
2026-01-29 15:53:56.33	240.90	21.48	-38.8	-39.8	22.9	0.00e+00	0	30	0	1125122048	50	6270
2026-01-29 15:53:57.34	240.79	21.35	-38.9	-39.8	22.8	0.00e+00	24	30	0	1127219200	50	6310
2026-01-29 15:53:58.35	240.69	21.23	-38.8	-39.8	22.8	0.00e+00	92	30	0	1128267776	50	6255
2026-01-29 15:53:59.36	240.58	21.10	-38.8	-39.8	22.8	0.00e+00	56	30	0	1130364928	50	6264
2026-01-29 15:54:00.37	240.47	20.97	-38.8	-39.7	22.8	0.00e+00	92	30	0	1132462080	50	6224
2026-01-29 15:54:01.38	240.37	20.85	-38.8	-39.8	22.9	0.00e+00	26	30	0	1134559232	50	6256
2026-01-29 15:54:02.39	240.26	20.72	-38.7	-39.6	22.9	0.00e+00	0	30	0	1136656384	50	6169
2026-01-29 15:54:03.40	240.16	20.60	-38.8	-39.7	22.9	0.00e+00	0	30	0	1137704960	50	6227
2026-01-29 15:54:04.41	240.06	20.47	-38.8	-39.7	22.9	0.00e+00	5	30	0	1139802112	50	6240
2026-01-29 15:54:05.42	239.95	20.35	-38.8	-39.8	22.8	0.00e+00	89	30	0	1141899264	50	6278
2026-01-29 15:54:06.43	239.85	20.23	-38.8	-39.8	22.9	0.00e+00	5	30	0	1143996416	50	6254
2026-01-29 15:54:07.44	239.75	20.11	-38.9	-39.9	22.7	0.00e+00	92	30	0	1146093568	50	6356
2026-01-29 15:54:08.45	239.65	19.98	-39.0	-40.0	22.7	0.00e+00	6	30	0	1147142144	50	6404
2026-01-29 15:54:09.46	239.55	19.86	-39.1	-40.1	22.5	0.00e+00	29	30	0	1149239296	50	6508
2026-01-29 15:54:10.47	239.46	19.74	-39.1	-40.1	22.6	0.00e+00	0	30	0	1151336448	50	6479
2026-01-29 15:54:11.48	239.36	19.62	-39.1	-40.1	22.4	0.00e+00	48	30	0	1153433600	50	6519
2026-01-29 15:54:12.49	239.26	19.50	-39.2	-40.2	22.4	0.00e+00	38	30	0	1155530752	50	6561
2026-01-29 15:54:13.50	239.17	19.38	-39.1	-40.2	22.4	0.00e+00	51	30	0	1156579328	50	6551
2026-01-29 15:54:14.51	239.07	19.26	-38.9	-39.9	22.7	0.00e+00	92	30	0	1158676480	50	6346
2026-01-29 15:54:15.52	238.98	19.14	-39.0	-40.0	22.6	0.00e+00	0	30	0	1160773632	50	6413
2026-01-29 15:54:16.53	238.89	19.03	-39.0	-40.0	22.5	0.00e+00	60	30	0	1162870784	50	6424
2026-01-29 15:54:17.54	238.79	18.91	-38.9	-39.9	22.5	0.00e+00	0	30	0	1164967936	50	6371
2026-01-29 15:54:18.55	238.70	18.79	-39.0	-40.0	22.6	0.00e+00	29	30	0	1166016512	50	6450
2026-01-29 15:54:19.56	238.61	18.67	-38.9	-39.9	22.6	0.00e+00	0	30	0	1168113664	50	6385
2026-01-29 15:54:20.57	238.52	18.56	-38.9	-39.9	22.7	0.00e+00	30	30	0	1170210816	50	6381
2026-01-29 15:54:21.57	238.43	18.44	-38.9	-39.9	22.7	0.00e+00	92	30	0	1172307968	50	6324
2026-01-29 15:54:22.58	238.34	18.33	-38.9	-39.9	22.7	0.00e+00	7	30	0	1174405120	50	6373
2026-01-29 15:54:23.59	238.26	18.21	-39.0	-40.0	22.6	0.00e+00	92	30	0	1175453696	50	6443
2026-01-29 15:54:24.60	238.17	18.10	-39.1	-40.1	22.5	0.00e+00	29	30	0	1177550848	50	6508
2026-01-29 15:54:25.61	238.08	17.99	-38.9	-40.0	22.6	0.00e+00	0	30	0	1179648000	50	6391
2026-01-29 15:54:26.62	238.00	17.87	-39.1	-40.1	22.6	0.00e+00	32	30	0	1181745152	50	6495
2026-01-29 15:54:27.63	237.91	17.76	-39.2	-40.3	22.3	0.00e+00	8	30	0	1183842304	50	6629
2026-01-29 15:54:28.64	237.83	17.65	-39.2	-40.2	22.4	0.00e+00	90	30	0	1184890880	50	6580
2026-01-29 15:54:29.65	237.74	17.53	-39.4	-40.4	22.2	0.00e+00	0	30	0	1186988032	50	6759
2026-01-29 15:54:30.66	237.66	17.42	-39.3	-40.4	22.2	0.00e+00	91	30	0	1189085184	50	6721
2026-01-29 15:54:31.67	237.57	17.31	-39.4	-40.5	22.1	0.00e+00	0	30	0	1191182336	50	6787
2026-01-29 15:54:32.68	237.49	17.20	-39.5	-40.6	22.0	0.00e+00	0	30	0	1193279488	50	6894
2026-01-29 15:54:33.69	237.41	17.09	-39.7	-40.8	21.8	0.00e+00	54	30	0	1195376640	52	6293
2026-01-29 15:54:34.70	237.33	16.98	-39.6	-40.7	21.9	0.00e+00	0	30	0	1196425216	52	6215
2026-01-29 15:54:35.71	237.25	16.87	-39.7	-40.8	21.8	0.00e+00	91	30	0	1198522368	52	6269
2026-01-29 15:54:36.72	237.17	16.76	-39.7	-40.8	21.8	0.00e+00	51	30	0	1200619520	52	6314
2026-01-29 15:54:37.73	237.09	16.65	-39.7	-40.8	21.9	0.00e+00	92	30	0	1202716672	52	6258
