passes_logs/2026/01/29/R4.6S_Anadyr/R4.6S_Anadyr__20260129_120141_SUOMI_NPP_rec.log

#Pass ID: 20260129_120141_SUOMI NPP
#Satellite: SUOMI NPP
#Configuration: NPP
#almurnet v.1.7.20251203
#Start time: 2026-01-29 12:01:44

#Version: 2.2.20231116
#Station: R4.6S_Anadyr
#Location: 177.4865 lon 64.73178 lat
#TLE: 1 37849U 11061A   26028.91916408  .00000155  00000+0  94467-4 0  9990
#TLE: 2 37849  98.7824 330.8488 0002045  39.4457 320.6868 14.19531289738686

#Time	Az	El	Level	Level2	SNR	BER	BlckErr	Temp	State	Recorded	gain1	gain2
2026-01-29 12:01:44.44	19.98	0.14	-48.9	-62.6	3.3	1.54e+00	0	30	0	0	60	48813
2026-01-29 12:01:45.44	20.07	0.19	-48.9	-64.1	3.6	1.51e+00	0	30	104	0	60	57784
2026-01-29 12:01:46.45	20.16	0.23	-48.9	-64.1	3.6	1.51e+00	0	30	104	0	60	58088
2026-01-29 12:01:47.46	20.25	0.28	-48.9	-64.1	3.6	1.51e+00	0	30	104	0	60	58013
2026-01-29 12:01:48.47	20.33	0.32	-48.9	-64.2	3.6	1.51e+00	0	30	104	0	60	58320
2026-01-29 12:01:49.48	20.42	0.37	-48.9	-64.1	3.6	1.51e+00	0	30	104	0	60	58054
2026-01-29 12:01:50.49	20.51	0.41	-48.9	-64.1	3.6	1.51e+00	0	30	104	0	60	58145
2026-01-29 12:01:51.50	20.60	0.46	-48.9	-64.2	3.6	1.51e+00	0	30	104	0	60	58387
2026-01-29 12:01:52.51	20.69	0.50	-48.9	-64.1	3.6	1.51e+00	0	30	104	0	60	58213
2026-01-29 12:01:53.52	20.78	0.55	-48.9	-64.1	3.6	1.51e+00	0	30	104	0	60	58199
2026-01-29 12:01:54.53	20.87	0.59	-48.9	-64.1	3.6	1.51e+00	0	30	104	0	60	57866
2026-01-29 12:01:55.54	20.95	0.64	-48.8	-64.0	3.6	1.51e+00	0	30	104	0	60	57052
2026-01-29 12:01:56.55	21.04	0.68	-48.8	-63.9	3.6	1.51e+00	0	30	104	0	60	56930
2026-01-29 12:01:57.55	21.13	0.73	-48.8	-64.0	3.6	1.51e+00	0	30	104	0	60	57023
2026-01-29 12:01:58.57	21.23	0.77	-48.6	-63.8	3.6	1.51e+00	0	30	104	0	60	56112
2026-01-29 12:01:59.58	21.32	0.82	-48.6	-63.8	3.6	1.51e+00	0	30	104	0	60	55868
2026-01-29 12:02:00.59	21.41	0.86	-48.5	-63.7	3.6	1.51e+00	0	30	104	0	60	55381
2026-01-29 12:02:01.60	21.50	0.91	-48.4	-63.6	3.5	1.51e+00	0	30	104	0	60	54662
2026-01-29 12:02:02.61	21.59	0.95	-48.3	-63.5	3.6	1.51e+00	0	30	104	0	60	53962
2026-01-29 12:02:03.62	21.68	1.00	-48.2	-63.4	3.6	1.51e+00	0	30	104	0	60	53367
2026-01-29 12:02:04.62	21.77	1.04	-48.0	-63.2	3.6	1.51e+00	0	30	104	0	60	52281
2026-01-29 12:02:05.63	21.86	1.09	-47.7	-62.9	3.6	1.51e+00	0	30	104	0	60	50423
2026-01-29 12:02:06.64	21.96	1.13	-47.4	-62.6	3.6	1.51e+00	0	30	104	0	60	48530
2026-01-29 12:02:07.65	22.05	1.18	-47.4	-62.5	3.6	1.51e+00	0	30	104	0	60	48256
2026-01-29 12:02:08.66	22.14	1.22	-47.4	-62.5	3.6	1.51e+00	0	30	104	0	60	48121
2026-01-29 12:02:09.67	22.23	1.27	-47.4	-62.5	3.6	1.51e+00	0	30	104	0	60	48198
2026-01-29 12:02:10.68	22.33	1.31	-47.4	-62.5	3.6	1.51e+00	0	30	104	0	60	47957
2026-01-29 12:02:11.69	22.42	1.36	-47.4	-62.5	3.6	1.51e+00	0	30	104	0	60	48182
2026-01-29 12:02:12.70	22.52	1.40	-47.4	-62.5	3.6	1.51e+00	0	30	104	0	60	48306
2026-01-29 12:02:13.71	22.61	1.45	-47.4	-62.6	3.6	1.51e+00	0	30	104	0	60	48578
2026-01-29 12:02:14.71	22.70	1.49	-47.4	-62.5	3.6	1.51e+00	0	30	104	0	60	48374
2026-01-29 12:02:15.73	22.80	1.54	-47.4	-62.5	3.6	1.51e+00	0	30	104	0	60	48357
2026-01-29 12:02:16.74	22.89	1.58	-47.4	-62.5	3.6	1.51e+00	0	30	104	0	60	48209
2026-01-29 12:02:17.75	22.99	1.63	-47.4	-62.5	3.6	1.51e+00	0	30	104	0	60	48089
2026-01-29 12:02:18.75	23.08	1.67	-47.4	-62.5	3.6	1.51e+00	0	30	104	0	60	48294
2026-01-29 12:02:19.76	23.18	1.72	-47.4	-62.5	3.6	1.51e+00	0	30	104	0	60	48436
2026-01-29 12:02:20.77	23.28	1.76	-47.4	-62.5	3.6	1.51e+00	0	30	104	0	60	48057
2026-01-29 12:02:21.78	23.37	1.81	-47.4	-62.5	3.6	1.51e+00	0	30	104	0	60	48117
2026-01-29 12:02:22.79	23.47	1.85	-47.4	-62.5	3.6	1.51e+00	0	30	104	0	60	48075
2026-01-29 12:02:23.80	23.57	1.90	-47.4	-62.5	3.6	1.51e+00	0	30	104	0	60	48408
2026-01-29 12:02:24.81	23.66	1.94	-47.4	-62.5	3.6	1.51e+00	0	30	104	0	60	48292
2026-01-29 12:02:25.82	23.76	1.99	-47.4	-62.5	3.6	1.51e+00	0	30	104	0	60	48367
2026-01-29 12:02:26.83	23.86	2.04	-47.4	-62.5	3.6	1.51e+00	0	30	104	0	60	48047
2026-01-29 12:02:27.84	23.96	2.08	-47.4	-62.3	3.6	1.51e+00	0	30	104	0	60	47258
2026-01-29 12:02:28.85	24.06	2.13	-47.4	-62.4	3.6	1.51e+00	0	30	104	0	60	47419
2026-01-29 12:02:29.86	24.15	2.17	-47.4	-62.4	3.6	1.51e+00	0	30	104	0	60	47584
2026-01-29 12:02:30.87	24.25	2.22	-47.4	-62.4	3.6	1.51e+00	0	30	104	0	60	47769
2026-01-29 12:02:31.88	24.35	2.26	-47.4	-62.4	3.6	1.51e+00	0	30	104	0	60	47876
2026-01-29 12:02:32.89	24.45	2.31	-47.4	-62.4	3.6	1.51e+00	0	30	104	0	60	47924
2026-01-29 12:02:33.90	24.55	2.35	-47.4	-62.5	3.6	1.51e+00	0	30	104	0	60	48097
2026-01-29 12:02:34.91	24.65	2.40	-47.4	-62.5	3.6	1.51e+00	0	31	104	0	60	47945
2026-01-29 12:02:35.92	24.75	2.44	-47.3	-62.0	3.6	1.51e+00	0	30	104	0	60	45450
2026-01-29 12:02:36.93	24.85	2.49	-47.3	-61.2	3.6	1.51e+00	0	30	104	0	60	41668
2026-01-29 12:02:37.94	24.95	2.53	-47.3	-61.0	3.6	1.51e+00	0	30	104	0	60	40515
2026-01-29 12:02:38.94	25.05	2.58	-47.3	-61.8	3.6	1.51e+00	0	30	104	0	60	44594
2026-01-29 12:02:39.95	25.16	2.62	-47.2	-59.8	3.6	1.51e+00	0	30	104	0	60	35519
2026-01-29 12:02:40.96	25.26	2.67	-46.7	-54.3	7.3	8.13e-01	0	31	0	0	60	18826
2026-01-29 12:02:41.97	25.36	2.71	-45.1	-49.1	12.6	3.98e-03	69	31	0	2097152	60	10278
2026-01-29 12:02:42.98	25.46	2.76	-43.6	-46.2	15.6	0.00e+00	0	30	0	3145728	60	7399
2026-01-29 12:02:43.99	25.57	2.81	-42.3	-44.3	17.4	0.00e+00	0	30	0	5242880	58	6689
2026-01-29 12:02:45.00	25.67	2.85	-40.3	-41.8	19.5	0.00e+00	0	30	0	7340032	54	6257
2026-01-29 12:02:46.01	25.77	2.90	-40.7	-42.3	19.1	0.00e+00	0	30	0	9437184	54	6620
2026-01-29 12:02:47.02	25.88	2.94	-40.4	-41.8	19.4	0.00e+00	64	30	0	11534336	54	6304
2026-01-29 12:02:48.03	25.98	2.99	-41.2	-42.9	18.3	0.00e+00	0	30	0	12582912	54	7107
2026-01-29 12:02:49.04	26.08	3.03	-42.8	-45.1	16.3	0.00e+00	69	30	0	14680064	58	7263
2026-01-29 12:02:50.05	26.19	3.08	-40.4	-41.8	19.5	0.00e+00	0	30	0	16777216	52	7056
2026-01-29 12:02:51.06	26.29	3.12	-40.7	-42.2	19.2	0.00e+00	0	30	0	18874368	52	7411
2026-01-29 12:02:52.07	26.40	3.17	-47.4	-62.0	3.6	5.60e-01	0	30	104	19922944	60	45693
2026-01-29 12:02:53.08	26.50	3.21	-47.1	-59.0	3.7	1.50e+00	0	30	104	19922944	60	32231
2026-01-29 12:02:54.09	26.61	3.26	-46.4	-52.3	9.0	2.37e-03	0	31	0	19922944	60	14963
2026-01-29 12:02:55.09	26.71	3.30	-41.2	-42.9	18.5	0.00e+00	0	30	0	22020096	56	6346
2026-01-29 12:02:56.10	26.82	3.35	-41.1	-42.7	18.6	0.00e+00	43	31	0	24117248	56	6185
2026-01-29 12:02:57.11	26.93	3.39	-41.4	-43.1	18.2	0.00e+00	0	30	0	25165824	56	6534
2026-01-29 12:02:58.12	27.04	3.44	-41.5	-43.2	18.1	0.00e+00	34	31	0	27262976	56	6614
2026-01-29 12:02:59.13	27.14	3.49	-41.9	-43.7	18.1	0.00e+00	0	31	0	29360128	56	6998
2026-01-29 12:03:00.14	27.25	3.53	-41.7	-43.5	18.3	0.00e+00	0	31	0	31457280	56	6814
2026-01-29 12:03:01.15	27.36	3.58	-41.6	-43.3	18.3	0.00e+00	0	31	0	33554432	56	6650
2026-01-29 12:03:02.16	27.47	3.62	-41.7	-43.4	17.9	0.00e+00	0	31	0	34603008	56	6746
2026-01-29 12:03:03.17	27.58	3.67	-41.5	-43.2	18.3	0.00e+00	65	31	0	36700160	56	6606
2026-01-29 12:03:04.18	27.68	3.71	-41.6	-43.3	18.1	0.00e+00	0	31	0	38797312	56	6654
2026-01-29 12:03:05.19	27.79	3.76	-41.8	-43.5	18.1	0.00e+00	92	31	0	40894464	56	6836
2026-01-29 12:03:06.19	27.90	3.80	-41.7	-43.5	18.1	0.00e+00	0	31	0	42991616	56	6817
2026-01-29 12:03:07.20	28.01	3.85	-41.0	-42.6	18.8	0.00e+00	0	31	0	45088768	56	6148
2026-01-29 12:03:08.21	28.12	3.89	-41.6	-43.3	18.2	0.00e+00	0	31	0	46137344	56	6648
2026-01-29 12:03:09.22	28.23	3.94	-41.5	-43.2	18.4	0.00e+00	0	30	0	48234496	56	6551
2026-01-29 12:03:10.23	28.34	3.98	-41.3	-42.9	18.7	0.00e+00	49	31	0	50331648	56	6351
2026-01-29 12:03:11.23	28.45	4.03	-41.2	-42.7	18.8	0.00e+00	29	31	0	52428800	56	6240
2026-01-29 12:03:12.24	28.57	4.07	-41.0	-42.5	19.1	0.00e+00	76	31	0	53477376	56	6096
2026-01-29 12:03:13.26	28.68	4.12	-40.8	-42.3	19.5	0.00e+00	0	31	0	55574528	56	5922
2026-01-29 12:03:14.26	28.79	4.16	-40.6	-42.1	19.4	0.00e+00	0	31	0	57671680	54	6483
2026-01-29 12:03:15.27	28.90	4.21	-40.8	-42.3	19.2	0.00e+00	0	30	0	59768832	54	6621
2026-01-29 12:03:16.28	29.02	4.25	-40.5	-42.0	19.7	0.00e+00	0	31	0	61865984	54	6409
2026-01-29 12:03:17.29	29.13	4.30	-40.7	-42.1	19.4	0.00e+00	0	31	0	62914560	54	6519
2026-01-29 12:03:18.30	29.24	4.34	-40.5	-41.9	19.7	0.00e+00	0	31	0	65011712	54	6340
2026-01-29 12:03:19.31	29.36	4.39	-40.6	-42.0	19.5	0.00e+00	87	31	0	67108864	54	6457
2026-01-29 12:03:20.31	29.47	4.43	-40.5	-41.9	19.7	0.00e+00	0	31	0	69206016	54	6324
2026-01-29 12:03:21.32	29.58	4.48	-40.4	-41.8	19.7	0.00e+00	30	31	0	71303168	54	6310
2026-01-29 12:03:22.33	29.70	4.52	-40.5	-41.9	19.5	0.00e+00	0	30	0	73400320	54	6361
2026-01-29 12:03:23.34	29.81	4.57	-40.6	-42.1	19.6	0.00e+00	0	30	0	74448896	54	6497
2026-01-29 12:03:24.35	29.93	4.62	-40.3	-41.7	19.8	0.00e+00	0	31	0	76546048	54	6207
2026-01-29 12:03:25.36	30.05	4.66	-40.4	-41.8	19.8	0.00e+00	0	31	0	78643200	54	6264
2026-01-29 12:03:26.37	30.16	4.71	-40.2	-41.6	19.9	0.00e+00	77	31	0	80740352	54	6128
2026-01-29 12:03:27.38	30.28	4.75	-40.3	-41.7	20.0	0.00e+00	0	30	0	82837504	54	6179
2026-01-29 12:03:28.39	30.40	4.80	-39.9	-41.2	20.3	0.00e+00	71	30	0	83886080	54	5879
2026-01-29 12:03:29.40	30.51	4.84	-40.3	-41.7	19.9	0.00e+00	0	31	0	85983232	54	6202
2026-01-29 12:03:30.41	30.63	4.89	-39.9	-41.2	20.4	0.00e+00	0	31	0	88080384	54	5888
2026-01-29 12:03:31.42	30.75	4.93	-39.6	-40.8	20.7	0.00e+00	0	31	0	90177536	52	6309
2026-01-29 12:03:32.43	30.87	4.98	-39.9	-41.2	20.4	0.00e+00	0	31	0	92274688	52	6579
2026-01-29 12:03:33.44	30.99	5.02	-39.9	-41.2	20.7	0.00e+00	60	31	0	93323264	52	6546
2026-01-29 12:03:34.45	31.10	5.06	-40.0	-41.3	20.4	0.00e+00	0	31	0	95420416	52	6625
2026-01-29 12:03:35.45	31.22	5.11	-39.5	-40.6	20.9	0.00e+00	68	31	0	97517568	52	6172
2026-01-29 12:03:36.46	31.34	5.15	-39.4	-40.6	20.8	0.00e+00	0	31	0	99614720	52	6134
2026-01-29 12:03:37.47	31.46	5.20	-39.4	-40.6	20.9	0.00e+00	0	31	0	101711872	52	6145
2026-01-29 12:03:38.48	31.58	5.24	-39.2	-40.4	21.0	0.00e+00	0	31	0	102760448	52	6011
2026-01-29 12:03:39.49	31.70	5.29	-39.6	-40.8	21.0	0.00e+00	0	31	0	104857600	52	6280
2026-01-29 12:03:40.51	31.83	5.33	-39.5	-40.7	20.9	0.00e+00	65	31	0	106954752	52	6177
2026-01-29 12:03:41.51	31.95	5.38	-39.4	-40.6	21.0	0.00e+00	0	30	0	109051904	52	6145
2026-01-29 12:03:42.52	32.07	5.42	-39.5	-40.7	20.9	0.00e+00	90	31	0	111149056	52	6201
2026-01-29 12:03:43.53	32.19	5.47	-39.3	-40.5	20.9	0.00e+00	0	31	0	112197632	52	6102
2026-01-29 12:03:44.54	32.31	5.51	-39.4	-40.5	21.1	0.00e+00	0	31	0	114294784	52	6101
2026-01-29 12:03:45.55	32.44	5.56	-39.3	-40.5	21.2	0.00e+00	0	31	0	116391936	52	6060
2026-01-29 12:03:46.56	32.56	5.60	-39.5	-40.8	20.9	0.00e+00	0	31	0	118489088	52	6257
2026-01-29 12:03:47.56	32.68	5.65	-39.4	-40.5	21.1	0.00e+00	0	31	0	120586240	52	6103
2026-01-29 12:03:48.57	32.81	5.69	-39.6	-40.8	21.0	0.00e+00	0	31	0	121634816	52	6266
2026-01-29 12:03:49.58	32.93	5.73	-38.9	-40.1	21.5	0.00e+00	71	31	0	123731968	52	5781
2026-01-29 12:03:50.59	33.06	5.78	-39.0	-40.1	21.5	0.00e+00	0	31	0	125829120	52	5797
2026-01-29 12:03:51.60	33.18	5.82	-38.8	-40.0	21.6	0.00e+00	0	31	0	127926272	52	5699
2026-01-29 12:03:52.61	33.31	5.87	-39.2	-40.3	21.1	0.00e+00	0	31	0	130023424	52	5959
2026-01-29 12:03:53.62	33.43	5.91	-39.4	-40.6	21.2	0.00e+00	0	31	0	131072000	52	6164
2026-01-29 12:03:54.63	33.56	5.96	-39.0	-40.1	21.5	0.00e+00	64	31	0	133169152	52	5812
2026-01-29 12:03:55.64	33.68	6.00	-39.1	-40.3	21.3	0.00e+00	0	31	0	135266304	52	5909
2026-01-29 12:03:56.65	33.81	6.04	-39.3	-40.5	21.1	0.00e+00	68	31	0	137363456	52	6045
2026-01-29 12:03:57.66	33.94	6.09	-39.5	-40.7	20.9	0.00e+00	0	31	0	139460608	52	6179
2026-01-29 12:03:58.67	34.07	6.13	-39.4	-40.6	21.1	0.00e+00	37	31	0	141557760	52	6141
2026-01-29 12:03:59.68	34.19	6.18	-39.5	-40.7	21.0	0.00e+00	0	31	0	142606336	52	6183
2026-01-29 12:04:00.69	34.32	6.22	-39.5	-40.7	21.0	0.00e+00	0	31	0	144703488	52	6189
2026-01-29 12:04:01.70	34.45	6.26	-39.3	-40.5	21.2	0.00e+00	56	31	0	146800640	52	6082
2026-01-29 12:04:02.70	34.58	6.31	-39.7	-40.9	20.8	0.00e+00	0	31	0	148897792	52	6381
2026-01-29 12:04:03.71	34.71	6.35	-39.3	-40.5	21.1	0.00e+00	65	31	0	150994944	52	6035
2026-01-29 12:04:04.72	34.84	6.40	-39.5	-40.7	20.9	0.00e+00	0	31	0	152043520	52	6174
2026-01-29 12:04:05.73	34.97	6.44	-39.1	-40.3	21.3	0.00e+00	91	31	0	154140672	52	5915
2026-01-29 12:04:06.74	35.10	6.48	-39.4	-40.6	21.1	0.00e+00	0	31	0	156237824	52	6119
2026-01-29 12:04:07.75	35.23	6.53	-39.7	-40.9	20.8	0.00e+00	0	31	0	158334976	52	6359
2026-01-29 12:04:08.76	35.36	6.57	-39.6	-40.8	21.0	0.00e+00	16	31	0	160432128	52	6284
2026-01-29 12:04:09.77	35.49	6.61	-39.8	-41.1	20.7	0.00e+00	0	31	0	161480704	52	6475
2026-01-29 12:04:10.78	35.63	6.66	-39.3	-40.4	21.3	0.00e+00	66	31	0	163577856	52	6022
2026-01-29 12:04:11.79	35.76	6.70	-39.5	-40.7	20.9	0.00e+00	0	31	0	165675008	52	6245
2026-01-29 12:04:12.80	35.89	6.74	-39.5	-40.7	21.0	0.00e+00	92	31	0	167772160	52	6201
2026-01-29 12:04:13.81	36.03	6.79	-39.6	-40.8	20.9	0.00e+00	0	31	0	169869312	52	6305
2026-01-29 12:04:14.82	36.16	6.83	-39.9	-41.1	20.7	0.00e+00	0	31	0	170917888	52	6502
2026-01-29 12:04:15.83	36.29	6.87	-39.8	-41.0	20.8	0.00e+00	0	31	0	173015040	52	6451
2026-01-29 12:04:16.83	36.43	6.92	-40.0	-41.2	20.5	0.00e+00	0	31	0	175112192	52	6605
2026-01-29 12:04:17.84	36.56	6.96	-39.8	-41.0	20.7	0.00e+00	29	31	0	177209344	52	6433
2026-01-29 12:04:18.85	36.70	7.00	-39.7	-41.0	20.8	0.00e+00	0	31	0	179306496	52	6399
2026-01-29 12:04:19.86	36.83	7.05	-39.5	-40.7	21.0	0.00e+00	74	31	0	180355072	52	6191
2026-01-29 12:04:20.87	36.97	7.09	-39.6	-40.7	21.2	0.00e+00	0	31	0	182452224	52	6241
2026-01-29 12:04:21.88	37.10	7.13	-39.5	-40.7	21.0	0.00e+00	0	31	0	184549376	52	6187
2026-01-29 12:04:22.89	37.24	7.18	-39.3	-40.4	21.4	0.00e+00	0	31	0	186646528	52	6004
2026-01-29 12:04:23.90	37.38	7.22	-39.3	-40.5	21.3	0.00e+00	0	31	0	188743680	52	6066
2026-01-29 12:04:24.90	37.51	7.26	-39.4	-40.6	21.1	0.00e+00	26	31	0	189792256	52	6129
2026-01-29 12:04:25.91	37.65	7.30	-39.2	-40.4	21.3	0.00e+00	0	31	0	191889408	52	5994
2026-01-29 12:04:26.92	37.79	7.35	-39.4	-40.5	21.2	0.00e+00	91	31	0	193986560	52	6090
2026-01-29 12:04:27.93	37.93	7.39	-39.6	-40.8	20.8	0.00e+00	0	31	0	196083712	52	6253
2026-01-29 12:04:28.94	38.07	7.43	-39.8	-41.1	20.7	0.00e+00	0	31	0	198180864	52	6488
2026-01-29 12:04:29.95	38.21	7.47	-39.6	-40.8	21.0	0.00e+00	0	31	0	199229440	52	6260
2026-01-29 12:04:30.96	38.35	7.52	-39.8	-41.1	20.8	0.00e+00	0	31	0	201326592	52	6478
2026-01-29 12:04:31.97	38.49	7.56	-39.5	-40.7	21.1	0.00e+00	0	31	0	203423744	52	6192
2026-01-29 12:04:32.98	38.63	7.60	-39.4	-40.5	21.2	0.00e+00	0	31	0	205520896	52	6095
2026-01-29 12:04:33.99	38.77	7.64	-39.3	-40.5	21.2	0.00e+00	71	31	0	207618048	52	6057
2026-01-29 12:04:35.00	38.91	7.68	-39.3	-40.4	21.3	0.00e+00	0	31	0	208666624	52	5995
2026-01-29 12:04:36.01	39.05	7.73	-39.4	-40.5	21.2	0.00e+00	71	31	0	210763776	52	6099
2026-01-29 12:04:37.02	39.20	7.77	-39.5	-40.7	21.1	0.00e+00	0	31	0	212860928	52	6201
2026-01-29 12:04:38.03	39.34	7.81	-39.5	-40.7	21.1	0.00e+00	0	31	0	214958080	52	6185
2026-01-29 12:04:39.03	39.48	7.85	-39.6	-40.8	21.0	0.00e+00	0	31	0	217055232	52	6266
2026-01-29 12:04:40.04	39.62	7.89	-39.6	-40.8	21.1	0.00e+00	0	31	0	218103808	52	6307
2026-01-29 12:04:41.05	39.77	7.93	-39.9	-41.1	20.8	0.00e+00	36	31	0	220200960	52	6527
2026-01-29 12:04:42.06	39.91	7.98	-39.8	-41.0	20.9	0.00e+00	0	31	0	222298112	52	6458
2026-01-29 12:04:43.07	40.06	8.02	-39.7	-40.9	21.0	0.00e+00	53	31	0	224395264	52	6364
2026-01-29 12:04:44.08	40.20	8.06	-39.4	-40.6	21.2	0.00e+00	0	31	0	226492416	52	6112
2026-01-29 12:04:45.09	40.35	8.10	-39.5	-40.7	21.2	0.00e+00	0	31	0	227540992	52	6225
2026-01-29 12:04:46.10	40.49	8.14	-39.3	-40.5	21.2	0.00e+00	0	31	0	229638144	52	6047
2026-01-29 12:04:47.11	40.64	8.18	-39.4	-40.5	21.3	0.00e+00	0	31	0	231735296	52	6092
2026-01-29 12:04:48.12	40.79	8.22	-39.4	-40.6	21.3	0.00e+00	59	31	0	233832448	52	6129
2026-01-29 12:04:49.13	40.93	8.26	-39.3	-40.4	21.4	0.00e+00	0	31	0	235929600	52	6010
2026-01-29 12:04:50.14	41.08	8.30	-39.7	-40.9	21.0	0.00e+00	92	31	0	238026752	52	6340
2026-01-29 12:04:51.15	41.23	8.35	-39.9	-41.1	20.6	0.00e+00	0	31	0	239075328	52	6503
2026-01-29 12:04:52.16	41.38	8.39	-39.8	-41.0	20.8	0.00e+00	0	31	0	241172480	52	6445
2026-01-29 12:04:53.17	41.53	8.43	-39.8	-41.1	20.9	0.00e+00	0	31	0	243269632	52	6465
2026-01-29 12:04:54.18	41.67	8.47	-40.0	-41.3	20.7	0.00e+00	33	31	0	245366784	52	6650
2026-01-29 12:04:55.19	41.82	8.51	-40.1	-41.3	20.6	0.00e+00	12	31	0	247463936	52	6687
2026-01-29 12:04:56.20	41.97	8.55	-40.2	-41.5	20.5	0.00e+00	0	31	0	248512512	52	6816
2026-01-29 12:04:57.20	42.12	8.59	-40.2	-41.5	20.5	0.00e+00	92	31	0	250609664	52	6790
2026-01-29 12:04:58.21	42.27	8.63	-39.9	-41.2	20.8	0.00e+00	0	31	0	252706816	52	6544
2026-01-29 12:04:59.22	42.42	8.67	-39.8	-41.0	20.9	0.00e+00	0	31	0	254803968	52	6448
2026-01-29 12:05:00.23	42.58	8.71	-39.8	-41.0	21.0	0.00e+00	0	31	0	256901120	52	6417
2026-01-29 12:05:01.24	42.73	8.75	-39.8	-41.0	20.9	0.00e+00	0	31	0	257949696	52	6403
2026-01-29 12:05:02.25	42.88	8.79	-39.5	-40.7	21.2	0.00e+00	0	31	0	260046848	52	6192
2026-01-29 12:05:03.26	43.03	8.82	-39.6	-40.7	21.1	0.00e+00	0	31	0	262144000	52	6220
2026-01-29 12:05:04.27	43.19	8.86	-39.7	-40.9	21.1	0.00e+00	92	31	0	264241152	52	6355
2026-01-29 12:05:05.28	43.34	8.90	-39.6	-40.8	21.1	0.00e+00	0	31	0	266338304	52	6261
2026-01-29 12:05:06.29	43.49	8.94	-39.7	-40.9	20.9	0.00e+00	0	31	0	267386880	52	6358
2026-01-29 12:05:07.30	43.65	8.98	-39.8	-41.1	20.9	0.00e+00	0	31	0	269484032	52	6468
2026-01-29 12:05:08.30	43.80	9.02	-39.9	-41.1	20.9	0.00e+00	0	31	0	271581184	52	6503
2026-01-29 12:05:09.31	43.95	9.06	-39.8	-41.0	21.0	0.00e+00	0	31	0	273678336	52	6438
2026-01-29 12:05:10.32	44.11	9.10	-39.9	-41.2	20.8	0.00e+00	0	31	0	275775488	52	6542
2026-01-29 12:05:11.33	44.27	9.14	-40.1	-41.3	20.6	0.00e+00	90	31	0	276824064	52	6685
2026-01-29 12:05:12.34	44.42	9.17	-40.2	-41.5	20.6	0.00e+00	0	31	0	278921216	52	6779
2026-01-29 12:05:13.35	44.58	9.21	-40.1	-41.4	20.6	0.00e+00	72	31	0	281018368	52	6735
2026-01-29 12:05:14.36	44.74	9.25	-40.2	-41.5	20.5	0.00e+00	0	31	0	283115520	52	6818
2026-01-29 12:05:15.37	44.89	9.29	-40.3	-41.6	20.5	0.00e+00	0	31	0	285212672	52	6872
2026-01-29 12:05:16.37	45.05	9.33	-40.4	-41.7	20.3	0.00e+00	16	31	0	286261248	52	6944
2026-01-29 12:05:17.38	45.21	9.36	-40.3	-41.6	20.4	0.00e+00	0	31	0	288358400	52	6924
2026-01-29 12:05:18.39	45.37	9.40	-40.5	-41.9	20.2	0.00e+00	65	31	0	290455552	52	7094
2026-01-29 12:05:19.40	45.52	9.44	-40.5	-41.8	20.4	0.00e+00	0	31	0	292552704	52	7031
2026-01-29 12:05:20.41	45.68	9.48	-40.4	-41.7	20.3	0.00e+00	90	31	0	294649856	52	6939
2026-01-29 12:05:21.42	45.84	9.51	-40.3	-41.6	20.5	0.00e+00	0	31	0	295698432	52	6849
2026-01-29 12:05:22.43	46.00	9.55	-40.2	-41.5	20.4	0.00e+00	0	31	0	297795584	52	6832
2026-01-29 12:05:23.44	46.16	9.59	-40.4	-41.7	20.4	0.00e+00	0	31	0	299892736	52	6973
2026-01-29 12:05:24.45	46.33	9.62	-40.1	-41.4	20.6	0.00e+00	0	31	0	301989888	52	6708
2026-01-29 12:05:25.46	46.49	9.66	-40.1	-41.3	20.7	0.00e+00	17	31	0	304087040	52	6680
2026-01-29 12:05:26.47	46.65	9.70	-40.0	-41.3	20.7	0.00e+00	0	31	0	306184192	52	6644
2026-01-29 12:05:27.48	46.81	9.73	-40.0	-41.3	20.6	0.00e+00	53	31	0	307232768	52	6622
2026-01-29 12:05:28.49	46.97	9.77	-39.9	-41.1	20.9	0.00e+00	0	31	0	309329920	52	6532
2026-01-29 12:05:29.50	47.14	9.80	-39.9	-41.1	20.8	0.00e+00	0	31	0	311427072	52	6521
2026-01-29 12:05:30.51	47.30	9.84	-39.9	-41.1	20.6	0.00e+00	0	31	0	313524224	52	6508
2026-01-29 12:05:31.52	47.46	9.88	-39.8	-41.0	20.9	0.00e+00	0	31	0	315621376	52	6452
2026-01-29 12:05:32.53	47.63	9.91	-39.5	-40.7	21.2	0.00e+00	64	31	0	316669952	52	6189
2026-01-29 12:05:33.54	47.79	9.95	-39.6	-40.8	21.2	0.00e+00	0	31	0	318767104	52	6265
2026-01-29 12:05:34.55	47.96	9.98	-39.6	-40.8	21.2	0.00e+00	74	31	0	320864256	52	6290
2026-01-29 12:05:35.55	48.12	10.02	-39.5	-40.7	21.2	0.00e+00	0	31	0	322961408	52	6201
2026-01-29 12:05:36.56	48.29	10.05	-39.7	-40.9	21.2	0.00e+00	0	31	0	325058560	52	6341
2026-01-29 12:05:37.57	48.45	10.09	-40.0	-41.2	20.8	0.00e+00	0	31	0	326107136	52	6589
2026-01-29 12:05:38.58	48.62	10.12	-40.0	-41.2	20.8	0.00e+00	0	31	0	328204288	52	6597
2026-01-29 12:05:39.59	48.79	10.16	-40.0	-41.2	20.8	0.00e+00	66	31	0	330301440	52	6604
2026-01-29 12:05:40.60	48.95	10.19	-39.8	-41.0	21.0	0.00e+00	0	31	0	332398592	52	6446
2026-01-29 12:05:41.61	49.12	10.23	-39.7	-40.9	21.1	0.00e+00	91	31	0	334495744	52	6336
2026-01-29 12:05:42.62	49.29	10.26	-39.7	-40.9	21.1	0.00e+00	0	31	0	335544320	52	6341
2026-01-29 12:05:43.63	49.46	10.29	-39.5	-40.6	21.3	0.00e+00	87	31	0	337641472	52	6172
2026-01-29 12:05:44.64	49.62	10.33	-39.6	-40.8	21.2	0.00e+00	0	31	0	339738624	52	6302
2026-01-29 12:05:45.65	49.79	10.36	-39.4	-40.5	21.4	0.00e+00	0	31	0	341835776	52	6063
2026-01-29 12:05:46.66	49.96	10.39	-39.2	-40.3	21.6	0.00e+00	0	31	0	343932928	52	5917
2026-01-29 12:05:47.67	50.13	10.43	-39.2	-40.3	21.5	0.00e+00	0	31	0	344981504	52	5935
2026-01-29 12:05:48.68	50.30	10.46	-39.4	-40.5	21.4	0.00e+00	42	31	0	347078656	52	6103
2026-01-29 12:05:49.68	50.47	10.49	-39.4	-40.6	21.3	0.00e+00	0	31	0	349175808	52	6127
2026-01-29 12:05:50.69	50.64	10.52	-39.5	-40.7	21.2	0.00e+00	86	31	0	351272960	52	6188
2026-01-29 12:05:51.70	50.81	10.56	-39.5	-40.7	21.2	0.00e+00	0	31	0	353370112	52	6217
2026-01-29 12:05:52.71	50.99	10.59	-39.6	-40.7	21.2	0.00e+00	0	31	0	354418688	52	6231
2026-01-29 12:05:53.71	51.16	10.62	-39.8	-41.0	20.9	0.00e+00	0	31	0	356515840	52	6443
2026-01-29 12:05:54.72	51.33	10.65	-39.8	-41.0	21.1	0.00e+00	0	31	0	358612992	52	6397
2026-01-29 12:05:55.73	51.50	10.68	-39.6	-40.8	21.1	0.00e+00	69	31	0	360710144	52	6289
2026-01-29 12:05:56.74	51.67	10.72	-39.7	-40.8	21.1	0.00e+00	0	31	0	362807296	52	6309
2026-01-29 12:05:57.75	51.85	10.75	-39.7	-40.9	21.0	0.00e+00	86	31	0	363855872	52	6383
2026-01-29 12:05:58.76	52.02	10.78	-39.7	-40.9	21.2	0.00e+00	0	31	0	365953024	52	6334
2026-01-29 12:05:59.77	52.20	10.81	-39.7	-40.8	21.2	0.00e+00	0	31	0	368050176	52	6304
2026-01-29 12:06:00.75	52.37	10.84	-39.9	-41.1	20.9	0.00e+00	0	31	0	370147328	52	6528
2026-01-29 12:06:01.76	52.54	10.87	-39.7	-40.9	21.1	0.00e+00	0	31	0	372244480	52	6374
2026-01-29 12:06:02.77	52.72	10.90	-39.8	-41.0	21.0	0.00e+00	2	31	0	373293056	52	6436
2026-01-29 12:06:03.78	52.89	10.93	-39.8	-41.0	21.0	0.00e+00	0	31	0	375390208	52	6411
2026-01-29 12:06:04.79	53.07	10.96	-39.6	-40.8	21.2	0.00e+00	90	31	0	377487360	52	6273
2026-01-29 12:06:05.80	53.24	10.99	-39.3	-40.5	21.5	0.00e+00	0	31	0	379584512	52	6044
2026-01-29 12:06:06.81	53.42	11.02	-39.4	-40.5	21.5	0.00e+00	0	31	0	381681664	52	6102
2026-01-29 12:06:07.82	53.60	11.05	-39.3	-40.4	21.6	0.00e+00	0	31	0	382730240	52	6014
2026-01-29 12:06:08.83	53.77	11.08	-39.3	-40.4	21.6	0.00e+00	0	31	0	384827392	52	5982
2026-01-29 12:06:09.84	53.95	11.11	-39.2	-40.3	21.6	0.00e+00	40	31	0	386924544	52	5955
2026-01-29 12:06:10.84	54.13	11.14	-38.8	-39.9	22.0	0.00e+00	0	31	0	389021696	52	5655
2026-01-29 12:06:11.85	54.31	11.16	-39.0	-40.1	21.6	0.00e+00	85	31	0	391118848	52	5816
2026-01-29 12:06:12.86	54.49	11.19	-39.3	-40.4	21.4	0.00e+00	62	31	0	392167424	52	6027
2026-01-29 12:06:13.87	54.66	11.22	-39.6	-40.8	21.2	0.00e+00	0	31	0	394264576	52	6291
2026-01-29 12:06:14.88	54.84	11.25	-40.0	-41.2	20.8	0.00e+00	0	31	0	396361728	52	6590
2026-01-29 12:06:15.89	55.02	11.28	-40.0	-41.3	20.8	0.00e+00	0	31	0	398458880	52	6628
2026-01-29 12:06:16.90	55.20	11.30	-40.2	-41.4	20.7	0.00e+00	0	31	0	400556032	52	6744
2026-01-29 12:06:17.91	55.38	11.33	-40.0	-41.2	20.9	0.00e+00	0	31	0	402653184	52	6556
2026-01-29 12:06:18.92	55.56	11.36	-40.0	-41.2	20.8	0.00e+00	70	31	0	403701760	52	6569
2026-01-29 12:06:19.93	55.75	11.38	-39.5	-40.7	21.2	0.00e+00	0	31	0	405798912	52	6188
2026-01-29 12:06:20.94	55.93	11.41	-39.3	-40.5	21.5	0.00e+00	92	31	0	407896064	52	6039
2026-01-29 12:06:21.95	56.11	11.44	-39.0	-40.1	21.7	0.00e+00	0	31	0	409993216	52	5800
2026-01-29 12:06:22.95	56.29	11.46	-39.0	-40.1	21.8	0.00e+00	0	31	0	412090368	52	5778
2026-01-29 12:06:23.96	56.47	11.49	-39.1	-40.2	21.7	0.00e+00	0	31	0	413138944	52	5886
2026-01-29 12:06:24.97	56.65	11.51	-39.4	-40.6	21.5	0.00e+00	0	31	0	415236096	52	6109
2026-01-29 12:06:25.98	56.84	11.54	-39.7	-40.9	21.1	0.00e+00	7	31	0	417333248	52	6323
2026-01-29 12:06:26.99	57.02	11.57	-39.4	-40.6	21.4	0.00e+00	0	31	0	419430400	52	6117
2026-01-29 12:06:28.00	57.20	11.59	-39.6	-40.7	21.3	0.00e+00	73	31	0	420478976	52	6238
2026-01-29 12:06:29.01	57.39	11.61	-39.3	-40.4	21.6	0.00e+00	0	31	0	422576128	52	5978
2026-01-29 12:06:30.02	57.57	11.64	-38.9	-40.0	21.9	0.00e+00	0	31	0	424673280	52	5739
2026-01-29 12:06:31.02	57.75	11.66	-38.6	-39.6	21.9	0.00e+00	0	31	0	426770432	52	5493
2026-01-29 12:06:32.03	57.94	11.69	-38.5	-39.5	22.4	0.00e+00	0	31	0	428867584	50	6053
2026-01-29 12:06:33.04	58.12	11.71	-38.7	-39.7	22.3	0.00e+00	17	31	0	430964736	50	6229
2026-01-29 12:06:34.05	58.31	11.73	-38.6	-39.7	22.2	0.00e+00	0	31	0	432013312	50	6193
2026-01-29 12:06:35.06	58.49	11.76	-38.7	-39.8	22.1	0.00e+00	53	31	0	434110464	50	6252
2026-01-29 12:06:36.07	58.68	11.78	-39.1	-40.2	21.5	0.00e+00	0	31	0	436207616	50	6608
2026-01-29 12:06:37.08	58.87	11.80	-39.4	-40.5	21.4	0.00e+00	0	31	0	438304768	50	6837
2026-01-29 12:06:38.09	59.05	11.83	-39.4	-40.6	21.4	0.00e+00	0	31	0	440401920	50	6886
2026-01-29 12:06:39.10	59.24	11.85	-39.6	-40.8	21.3	0.00e+00	0	31	0	441450496	52	6259
2026-01-29 12:06:40.11	59.43	11.87	-39.6	-40.7	21.4	0.00e+00	45	31	0	443547648	52	6235
2026-01-29 12:06:41.12	59.61	11.89	-39.1	-40.2	21.7	0.00e+00	0	31	0	445644800	52	5876
2026-01-29 12:06:42.13	59.80	11.91	-39.1	-40.2	21.8	0.00e+00	53	31	0	447741952	52	5834
2026-01-29 12:06:43.14	59.99	11.93	-39.3	-40.4	21.6	0.00e+00	0	31	0	449839104	52	5999
2026-01-29 12:06:44.15	60.18	11.96	-39.6	-40.8	21.2	0.00e+00	18	31	0	450887680	52	6257
2026-01-29 12:06:45.16	60.37	11.98	-40.1	-41.4	20.6	0.00e+00	0	31	0	452984832	52	6703
2026-01-29 12:06:46.16	60.55	12.00	-40.8	-42.2	20.0	0.00e+00	0	31	0	455081984	52	7370
2026-01-29 12:06:47.17	60.74	12.02	-41.0	-42.4	19.8	0.00e+00	70	31	0	457179136	54	6749
2026-01-29 12:06:48.18	60.93	12.04	-40.8	-42.2	19.9	0.00e+00	27	31	0	459276288	54	6566
2026-01-29 12:06:49.19	61.12	12.06	-40.6	-41.9	20.4	0.00e+00	68	31	0	460324864	54	6377
2026-01-29 12:06:50.19	61.31	12.08	-40.4	-41.7	20.3	0.00e+00	0	31	0	462422016	54	6230
2026-01-29 12:06:51.20	61.50	12.09	-40.3	-41.6	20.2	0.00e+00	90	31	0	464519168	54	6145
2026-01-29 12:06:52.21	61.69	12.11	-39.5	-40.7	21.3	0.00e+00	0	31	0	466616320	52	6205
2026-01-29 12:06:53.22	61.88	12.13	-39.6	-40.7	21.3	0.00e+00	0	31	0	468713472	52	6239
2026-01-29 12:06:54.23	62.07	12.15	-39.7	-40.9	21.2	0.00e+00	0	31	0	469762048	52	6335
2026-01-29 12:06:55.23	62.26	12.17	-40.1	-41.4	20.7	0.00e+00	0	31	0	471859200	52	6717
2026-01-29 12:06:56.24	62.45	12.19	-40.4	-41.7	20.5	0.00e+00	70	31	0	473956352	52	6969
2026-01-29 12:06:57.25	62.64	12.20	-40.5	-41.8	20.4	0.00e+00	0	31	0	476053504	52	7041
2026-01-29 12:06:58.26	62.83	12.22	-40.5	-41.8	20.4	0.00e+00	90	31	0	478150656	52	7051
2026-01-29 12:06:59.27	63.02	12.24	-40.4	-41.7	20.6	0.00e+00	0	31	0	479199232	52	6956
2026-01-29 12:07:00.28	63.21	12.25	-40.3	-41.6	20.6	0.00e+00	0	31	0	481296384	52	6896
2026-01-29 12:07:01.29	63.41	12.27	-40.2	-41.4	20.7	0.00e+00	0	31	0	483393536	52	6769
2026-01-29 12:07:02.30	63.60	12.29	-40.4	-41.7	20.5	0.00e+00	0	31	0	485490688	52	6954
2026-01-29 12:07:03.31	63.79	12.30	-40.5	-41.8	20.4	0.00e+00	17	31	0	487587840	52	7084
2026-01-29 12:07:04.32	63.98	12.32	-40.8	-42.2	20.0	0.00e+00	0	31	0	488636416	54	6568
2026-01-29 12:07:05.32	64.17	12.33	-41.1	-42.6	19.5	0.00e+00	87	31	0	490733568	54	6899
2026-01-29 12:07:06.33	64.37	12.35	-41.1	-42.6	19.7	0.00e+00	0	31	0	492830720	54	6874
2026-01-29 12:07:07.34	64.56	12.36	-41.3	-42.8	19.4	0.00e+00	0	31	0	494927872	54	7086
2026-01-29 12:07:08.36	64.76	12.38	-41.0	-42.4	19.9	0.00e+00	0	31	0	497025024	54	6716
2026-01-29 12:07:09.36	64.95	12.39	-40.6	-42.0	20.2	0.00e+00	0	31	0	499122176	54	6406
2026-01-29 12:07:10.37	65.14	12.41	-39.8	-41.0	21.0	0.00e+00	68	31	0	500170752	54	5754
2026-01-29 12:07:11.38	65.34	12.42	-39.7	-40.9	21.1	0.00e+00	0	31	0	502267904	52	6359
2026-01-29 12:07:12.39	65.53	12.43	-39.5	-40.6	21.3	0.00e+00	82	31	0	504365056	52	6162
2026-01-29 12:07:13.40	65.73	12.45	-39.5	-40.6	21.4	0.00e+00	0	31	0	506462208	52	6150
2026-01-29 12:07:14.41	65.92	12.46	-39.7	-40.9	21.3	0.00e+00	33	31	0	508559360	52	6342
2026-01-29 12:07:15.42	66.11	12.47	-39.8	-41.1	21.0	0.00e+00	0	31	0	509607936	52	6470
2026-01-29 12:07:16.42	66.31	12.48	-39.6	-40.8	21.1	0.00e+00	0	31	0	511705088	52	6261
2026-01-29 12:07:17.43	66.50	12.50	-39.6	-40.8	21.2	0.00e+00	25	31	0	513802240	52	6282
2026-01-29 12:07:18.44	66.70	12.51	-39.7	-40.9	21.1	0.00e+00	0	31	0	515899392	52	6371
2026-01-29 12:07:19.46	66.89	12.52	-39.4	-40.6	21.3	0.00e+00	72	31	0	517996544	52	6132
2026-01-29 12:07:20.46	67.09	12.53	-38.9	-39.9	21.9	0.00e+00	0	31	0	519045120	52	5680
2026-01-29 12:07:21.47	67.28	12.54	-38.5	-39.6	22.2	0.00e+00	92	31	0	521142272	50	6110
2026-01-29 12:07:22.48	67.48	12.55	-38.5	-39.5	22.3	0.00e+00	0	31	0	523239424	50	6074
2026-01-29 12:07:23.49	67.68	12.56	-38.4	-39.4	22.4	0.00e+00	0	31	0	525336576	50	5997
2026-01-29 12:07:24.50	67.87	12.57	-38.3	-39.3	22.5	0.00e+00	0	31	0	527433728	50	5934
2026-01-29 12:07:25.51	68.07	12.58	-38.4	-39.5	22.4	0.00e+00	0	31	0	528482304	50	6043
2026-01-29 12:07:26.52	68.26	12.59	-38.4	-39.4	22.5	0.00e+00	92	31	0	530579456	50	5992
2026-01-29 12:07:27.53	68.46	12.60	-38.4	-39.5	22.4	0.00e+00	0	31	0	532676608	50	6044
2026-01-29 12:07:28.54	68.66	12.61	-38.4	-39.4	22.3	0.00e+00	92	31	0	534773760	50	5995
2026-01-29 12:07:29.55	68.85	12.61	-38.3	-39.4	22.4	0.00e+00	0	31	0	536870912	50	5969
2026-01-29 12:07:30.56	69.05	12.62	-38.3	-39.3	22.4	0.00e+00	0	31	0	537919488	50	5947
2026-01-29 12:07:31.56	69.25	12.63	-38.2	-39.3	22.5	0.00e+00	0	31	0	540016640	50	5914
2026-01-29 12:07:32.57	69.44	12.64	-38.5	-39.5	22.3	0.00e+00	0	31	0	542113792	50	6092
2026-01-29 12:07:33.58	69.64	12.64	-38.6	-39.7	22.2	0.00e+00	31	31	0	544210944	50	6178
2026-01-29 12:07:34.59	69.84	12.65	-38.9	-40.0	21.9	0.00e+00	0	31	0	546308096	50	6435
2026-01-29 12:07:35.60	70.03	12.66	-38.8	-39.9	21.9	0.00e+00	70	31	0	547356672	50	6380
2026-01-29 12:07:36.61	70.23	12.66	-38.6	-39.7	22.1	0.00e+00	0	31	0	549453824	50	6207
2026-01-29 12:07:37.62	70.43	12.67	-38.5	-39.6	22.1	0.00e+00	0	31	0	551550976	50	6171
2026-01-29 12:07:38.63	70.63	12.68	-38.5	-39.6	22.3	0.00e+00	0	31	0	553648128	50	6149
2026-01-29 12:07:39.64	70.82	12.68	-38.5	-39.6	22.2	0.00e+00	0	31	0	555745280	50	6151
2026-01-29 12:07:40.65	71.02	12.69	-38.3	-39.4	22.4	0.00e+00	69	31	0	556793856	50	6011
2026-01-29 12:07:41.66	71.22	12.69	-38.5	-39.7	22.3	0.00e+00	0	31	0	558891008	50	6179
2026-01-29 12:07:42.67	71.42	12.69	-38.3	-39.4	22.3	0.00e+00	92	31	0	560988160	50	6017
2026-01-29 12:07:43.68	71.61	12.70	-38.5	-39.6	22.3	0.00e+00	0	31	0	563085312	50	6105
2026-01-29 12:07:44.69	71.81	12.70	-38.6	-39.7	22.2	0.00e+00	21	31	0	565182464	50	6208
2026-01-29 12:07:45.70	72.01	12.71	-38.8	-39.8	22.2	0.00e+00	0	31	0	566231040	50	6314
2026-01-29 12:07:46.71	72.21	12.71	-38.5	-39.5	22.3	0.00e+00	0	31	0	568328192	50	6085
2026-01-29 12:07:47.72	72.41	12.71	-38.5	-39.6	22.2	0.00e+00	0	31	0	570425344	50	6115
2026-01-29 12:07:48.72	72.60	12.71	-38.4	-39.4	22.4	0.00e+00	0	31	0	572522496	50	6017
2026-01-29 12:07:49.73	72.80	12.72	-38.5	-39.6	22.3	0.00e+00	90	31	0	574619648	50	6116
2026-01-29 12:07:50.74	73.00	12.72	-38.7	-39.7	22.2	0.00e+00	0	31	0	575668224	50	6224
2026-01-29 12:07:51.75	73.20	12.72	-38.6	-39.7	22.2	0.00e+00	92	31	0	577765376	50	6195
2026-01-29 12:07:52.76	73.40	12.72	-38.7	-39.8	22.2	0.00e+00	0	31	0	579862528	50	6291
2026-01-29 12:07:53.77	73.59	12.72	-38.6	-39.7	22.2	0.00e+00	0	31	0	581959680	50	6205
2026-01-29 12:07:54.78	73.79	12.72	-38.4	-39.5	22.4	0.00e+00	0	31	0	584056832	50	6054
2026-01-29 12:07:55.79	73.99	12.72	-38.5	-39.6	22.3	0.00e+00	0	31	0	585105408	50	6118
2026-01-29 12:07:56.80	74.19	12.72	-38.4	-39.4	22.4	0.00e+00	32	31	0	587202560	50	6025
2026-01-29 12:07:57.81	74.39	12.72	-38.2	-39.3	22.6	0.00e+00	0	31	0	589299712	50	5901
2026-01-29 12:07:58.82	74.58	12.72	-38.3	-39.3	22.4	0.00e+00	73	31	0	591396864	50	5944
2026-01-29 12:07:59.83	74.78	12.72	-38.5	-39.6	22.2	0.00e+00	0	31	0	593494016	50	6124
2026-01-29 12:08:00.83	74.98	12.72	-38.8	-39.8	22.0	0.00e+00	0	31	0	595591168	50	6310
2026-01-29 12:08:01.84	75.18	12.72	-38.7	-39.8	21.9	0.00e+00	0	31	0	596639744	50	6303
2026-01-29 12:08:02.85	75.38	12.72	-38.5	-39.6	22.2	0.00e+00	0	31	0	598736896	50	6131
2026-01-29 12:08:03.86	75.57	12.71	-38.5	-39.6	22.2	0.00e+00	72	31	0	600834048	50	6149
2026-01-29 12:08:04.87	75.77	12.71	-38.1	-39.2	22.6	0.00e+00	0	31	0	602931200	50	5833
2026-01-29 12:08:05.88	75.97	12.71	-37.8	-38.8	22.9	0.00e+00	75	31	0	605028352	50	5597
2026-01-29 12:08:06.89	76.17	12.71	-37.7	-38.7	22.9	0.00e+00	0	31	0	606076928	48	6220
2026-01-29 12:08:07.90	76.37	12.70	-37.8	-38.7	22.9	0.00e+00	0	31	0	608174080	48	6244
2026-01-29 12:08:08.91	76.56	12.70	-37.5	-38.5	23.1	0.00e+00	0	31	0	610271232	48	6038
2026-01-29 12:08:09.92	76.76	12.69	-37.6	-38.6	23.0	0.00e+00	0	31	0	612368384	48	6140
2026-01-29 12:08:10.93	76.96	12.69	-37.6	-38.6	23.1	0.00e+00	72	31	0	614465536	48	6120
2026-01-29 12:08:11.94	77.16	12.69	-37.9	-38.9	22.8	0.00e+00	0	31	0	615514112	48	6323
2026-01-29 12:08:12.95	77.35	12.68	-37.6	-38.6	23.0	0.00e+00	91	31	0	617611264	48	6106
2026-01-29 12:08:13.96	77.55	12.68	-37.5	-38.5	23.0	0.00e+00	0	31	0	619708416	48	6051
2026-01-29 12:08:14.97	77.75	12.67	-37.5	-38.5	22.8	0.00e+00	0	31	0	621805568	48	6059
2026-01-29 12:08:15.98	77.95	12.66	-37.3	-38.3	22.6	0.00e+00	0	31	0	623902720	48	5897
2026-01-29 12:08:16.99	78.14	12.66	-37.3	-38.2	23.2	0.00e+00	33	31	0	624951296	48	5889
2026-01-29 12:08:17.99	78.34	12.65	-37.3	-38.2	23.2	0.00e+00	0	31	0	627048448	48	5880
2026-01-29 12:08:19.00	78.54	12.64	-37.4	-38.4	22.9	0.00e+00	0	31	0	629145600	48	5992
2026-01-29 12:08:20.01	78.73	12.64	-37.6	-38.5	23.0	0.00e+00	76	31	0	631242752	48	6088
2026-01-29 12:08:21.02	78.93	12.63	-37.9	-38.8	22.7	0.00e+00	0	31	0	633339904	48	6316
2026-01-29 12:08:22.03	79.13	12.62	-38.1	-39.1	22.6	0.00e+00	0	31	0	634388480	48	6466
2026-01-29 12:08:23.04	79.33	12.61	-38.0	-39.0	22.7	0.00e+00	0	31	0	636485632	48	6404
2026-01-29 12:08:24.05	79.52	12.61	-38.1	-39.1	22.7	0.00e+00	0	31	0	638582784	48	6467
2026-01-29 12:08:25.06	79.72	12.60	-38.0	-38.9	22.7	0.00e+00	0	31	0	640679936	48	6390
2026-01-29 12:08:26.07	79.92	12.59	-37.7	-38.7	23.0	0.00e+00	0	31	0	642777088	48	6193
2026-01-29 12:08:27.07	80.11	12.58	-37.8	-38.8	22.8	0.00e+00	57	31	0	643825664	48	6257
2026-01-29 12:08:28.08	80.31	12.57	-37.7	-38.7	23.0	0.00e+00	0	31	0	645922816	48	6211
2026-01-29 12:08:29.09	80.50	12.56	-37.5	-38.4	23.2	0.00e+00	92	31	0	648019968	48	6017
2026-01-29 12:08:30.10	80.70	12.55	-37.7	-38.7	23.0	0.00e+00	0	31	0	650117120	48	6179
2026-01-29 12:08:31.11	80.90	12.54	-37.9	-38.9	22.9	0.00e+00	0	31	0	652214272	48	6346
2026-01-29 12:08:32.12	81.09	12.53	-37.9	-38.9	22.9	0.00e+00	0	31	0	653262848	48	6324
2026-01-29 12:08:33.13	81.29	12.52	-38.0	-39.0	22.5	0.00e+00	0	31	0	655360000	48	6459
2026-01-29 12:08:34.14	81.48	12.51	-38.1	-39.1	22.6	0.00e+00	56	31	0	657457152	48	6508
2026-01-29 12:08:35.15	81.68	12.49	-38.1	-39.1	22.6	0.00e+00	0	31	0	659554304	48	6491
2026-01-29 12:08:36.16	81.87	12.48	-37.9	-38.8	22.9	0.00e+00	92	31	0	661651456	48	6300
2026-01-29 12:08:37.17	82.07	12.47	-37.5	-38.4	23.1	0.00e+00	0	31	0	663748608	48	6026
2026-01-29 12:08:38.18	82.26	12.46	-37.5	-38.4	23.2	0.00e+00	29	31	0	664797184	48	5999
2026-01-29 12:08:39.19	82.46	12.45	-37.4	-38.4	23.2	0.00e+00	33	31	0	666894336	48	5984
2026-01-29 12:08:40.19	82.65	12.43	-37.3	-38.2	23.2	0.00e+00	0	31	0	668991488	48	5896
2026-01-29 12:08:41.20	82.85	12.42	-37.4	-38.3	23.3	0.00e+00	53	31	0	671088640	48	5964
2026-01-29 12:08:42.21	83.04	12.41	-37.4	-38.4	23.2	0.00e+00	0	31	0	673185792	48	5977
2026-01-29 12:08:43.22	83.23	12.39	-37.4	-38.4	23.2	0.00e+00	92	31	0	674234368	48	5968
2026-01-29 12:08:44.23	83.43	12.38	-37.4	-38.3	23.2	0.00e+00	0	31	0	676331520	48	5928
2026-01-29 12:08:45.24	83.62	12.36	-37.4	-38.4	23.1	0.00e+00	27	31	0	678428672	48	5989
2026-01-29 12:08:46.25	83.82	12.35	-37.4	-38.4	23.2	0.00e+00	0	31	0	680525824	48	5984
2026-01-29 12:08:47.26	84.01	12.33	-37.5	-38.5	23.0	0.00e+00	0	31	0	682622976	48	6062
2026-01-29 12:08:48.27	84.20	12.32	-37.5	-38.4	23.1	0.00e+00	37	31	0	683671552	48	6005
2026-01-29 12:08:49.28	84.40	12.30	-37.6	-38.6	23.0	0.00e+00	0	31	0	685768704	48	6111
2026-01-29 12:08:50.29	84.59	12.29	-37.4	-38.3	23.2	0.00e+00	92	31	0	687865856	48	5945
2026-01-29 12:08:51.30	84.78	12.27	-37.5	-38.4	23.1	0.00e+00	0	31	0	689963008	48	6026
2026-01-29 12:08:52.30	84.97	12.25	-37.6	-38.5	23.1	0.00e+00	11	31	0	692060160	48	6085
2026-01-29 12:08:53.31	85.16	12.24	-37.5	-38.4	23.2	0.00e+00	0	31	0	693108736	48	6002
2026-01-29 12:08:54.32	85.36	12.22	-37.5	-38.5	23.0	0.00e+00	0	31	0	695205888	48	6055
2026-01-29 12:08:55.33	85.55	12.20	-37.5	-38.5	23.1	0.00e+00	3	31	0	697303040	48	6061
2026-01-29 12:08:56.34	85.74	12.18	-37.3	-38.3	23.3	0.00e+00	0	31	0	699400192	48	5914
2026-01-29 12:08:57.35	85.93	12.17	-37.4	-38.3	23.2	0.00e+00	92	31	0	701497344	48	5951
2026-01-29 12:08:58.36	86.12	12.15	-37.1	-38.1	23.2	0.00e+00	0	31	0	702545920	48	5767
2026-01-29 12:08:59.36	86.31	12.13	-37.0	-37.9	23.5	0.00e+00	74	31	0	704643072	48	5692
2026-01-29 12:09:00.37	86.50	12.11	-37.0	-38.0	23.5	0.00e+00	0	31	0	706740224	48	5746
2026-01-29 12:09:01.38	86.69	12.09	-37.1	-38.0	23.4	0.00e+00	0	31	0	708837376	48	5756
2026-01-29 12:09:02.39	86.88	12.07	-37.1	-38.1	23.4	0.00e+00	0	31	0	710934528	48	5786
2026-01-29 12:09:03.39	87.07	12.05	-37.1	-38.0	23.4	0.00e+00	0	31	0	711983104	48	5729
2026-01-29 12:09:04.41	87.26	12.03	-37.3	-38.2	23.2	0.00e+00	90	31	0	714080256	48	5886
2026-01-29 12:09:05.41	87.45	12.01	-37.2	-38.1	23.4	0.00e+00	0	31	0	716177408	48	5821
2026-01-29 12:09:06.42	87.64	11.99	-37.3	-38.3	23.3	0.00e+00	72	31	0	718274560	48	5903
2026-01-29 12:09:07.43	87.83	11.97	-37.0	-38.0	23.5	0.00e+00	0	31	0	720371712	48	5713
2026-01-29 12:09:08.44	88.02	11.95	-37.0	-38.0	23.6	0.00e+00	0	31	0	721420288	48	5704
2026-01-29 12:09:09.45	88.20	11.93	-37.0	-38.0	23.6	0.00e+00	0	31	0	723517440	48	5698
2026-01-29 12:09:10.46	88.39	11.91	-36.8	-37.7	23.7	0.00e+00	0	31	0	725614592	48	5504
2026-01-29 12:09:11.46	88.58	11.89	-36.8	-37.7	23.8	0.00e+00	23	31	0	727711744	48	5515
2026-01-29 12:09:12.47	88.77	11.87	-36.8	-37.7	23.5	0.00e+00	0	31	0	729808896	48	5547
2026-01-29 12:09:13.48	88.95	11.85	-36.9	-37.9	23.6	0.00e+00	77	31	0	730857472	48	5631
2026-01-29 12:09:14.49	89.14	11.82	-37.0	-37.9	23.6	0.00e+00	0	31	0	732954624	48	5676
2026-01-29 12:09:15.50	89.33	11.80	-36.9	-37.9	23.5	0.00e+00	0	31	0	735051776	48	5681
2026-01-29 12:09:16.51	89.52	11.78	-37.0	-38.0	23.5	0.00e+00	0	31	0	737148928	48	5744
2026-01-29 12:09:17.52	89.70	11.75	-37.0	-37.9	23.5	0.00e+00	0	31	0	739246080	48	5692
2026-01-29 12:09:18.53	89.89	11.73	-36.7	-37.6	23.8	0.00e+00	17	31	0	740294656	48	5461
2026-01-29 12:09:19.54	90.07	11.71	-36.6	-37.5	24.0	0.00e+00	0	31	0	742391808	46	6041
2026-01-29 12:09:20.55	90.26	11.68	-36.7	-37.6	23.8	0.00e+00	67	31	0	744488960	46	6118
2026-01-29 12:09:21.56	90.44	11.66	-36.5	-37.3	24.0	0.00e+00	0	31	0	746586112	46	5947
2026-01-29 12:09:22.57	90.63	11.64	-36.6	-37.5	23.9	0.00e+00	0	31	0	748683264	46	6052
2026-01-29 12:09:23.58	90.81	11.61	-36.7	-37.6	23.8	0.00e+00	0	31	0	749731840	46	6156
2026-01-29 12:09:24.59	91.00	11.59	-36.8	-37.7	23.7	0.00e+00	0	31	0	751828992	46	6180
2026-01-29 12:09:25.60	91.18	11.56	-36.9	-37.8	23.7	0.00e+00	64	31	0	753926144	46	6247
2026-01-29 12:09:26.61	91.37	11.54	-36.9	-37.8	23.6	0.00e+00	0	31	0	756023296	46	6298
2026-01-29 12:09:27.62	91.55	11.51	-36.6	-37.5	23.7	0.00e+00	92	31	0	758120448	46	6069
2026-01-29 12:09:28.63	91.73	11.48	-36.6	-37.5	23.7	0.00e+00	0	31	0	760217600	46	6045
2026-01-29 12:09:29.63	91.91	11.46	-36.7	-37.6	23.8	0.00e+00	9	31	0	761266176	46	6127
2026-01-29 12:09:30.64	92.10	11.43	-36.8	-37.7	23.6	0.00e+00	0	31	0	763363328	46	6219
2026-01-29 12:09:31.65	92.28	11.41	-36.9	-37.8	23.7	0.00e+00	0	31	0	765460480	46	6273
2026-01-29 12:09:32.66	92.46	11.38	-37.0	-38.0	23.6	0.00e+00	66	31	0	767557632	46	6396
2026-01-29 12:09:33.67	92.64	11.35	-37.1	-38.0	23.7	0.00e+00	0	31	0	769654784	46	6395
2026-01-29 12:09:34.68	92.82	11.32	-36.8	-37.7	23.7	0.00e+00	87	31	0	770703360	46	6219
2026-01-29 12:09:35.69	93.00	11.30	-37.0	-37.9	23.6	0.00e+00	0	31	0	772800512	46	6322
2026-01-29 12:09:36.70	93.18	11.27	-36.8	-37.7	23.6	0.00e+00	92	31	0	774897664	46	6203
2026-01-29 12:09:37.71	93.36	11.24	-37.1	-38.0	23.4	0.00e+00	0	31	0	776994816	46	6401
2026-01-29 12:09:38.71	93.54	11.21	-37.0	-37.9	23.4	0.00e+00	0	31	0	779091968	46	6375
2026-01-29 12:09:39.73	93.72	11.19	-37.2	-38.1	23.4	0.00e+00	0	31	0	780140544	46	6499
2026-01-29 12:09:40.73	93.90	11.16	-37.1	-38.0	23.4	0.00e+00	0	31	0	782237696	46	6416
2026-01-29 12:09:41.74	94.08	11.13	-37.3	-38.2	23.2	0.00e+00	66	31	0	784334848	46	6572
2026-01-29 12:09:42.75	94.26	11.10	-37.4	-38.3	23.2	0.00e+00	0	31	0	786432000	46	6654
2026-01-29 12:09:43.76	94.44	11.07	-37.5	-38.4	23.1	0.00e+00	92	31	0	788529152	46	6744
2026-01-29 12:09:44.76	94.61	11.04	-37.4	-38.4	23.2	0.00e+00	0	31	0	789577728	46	6696
2026-01-29 12:09:45.77	94.79	11.01	-37.5	-38.5	23.1	0.00e+00	0	31	0	791674880	46	6835
2026-01-29 12:09:46.78	94.97	10.98	-37.5	-38.5	23.0	0.00e+00	0	31	0	793772032	46	6800
2026-01-29 12:09:47.79	95.14	10.95	-37.7	-38.7	22.9	0.00e+00	0	31	0	795869184	48	6215
2026-01-29 12:09:48.80	95.32	10.92	-37.8	-38.8	22.8	0.00e+00	0	31	0	797966336	48	6289
2026-01-29 12:09:49.81	95.50	10.89	-38.1	-39.1	22.7	0.00e+00	0	31	0	799014912	48	6506
2026-01-29 12:09:50.82	95.67	10.86	-38.2	-39.3	22.4	0.00e+00	78	31	0	801112064	48	6623
2026-01-29 12:09:51.83	95.85	10.83	-38.6	-39.7	22.0	0.00e+00	0	31	0	803209216	48	6937
2026-01-29 12:09:52.84	96.02	10.80	-39.0	-40.1	21.8	0.00e+00	0	31	0	805306368	50	6521
2026-01-29 12:09:53.85	96.20	10.77	-39.1	-40.2	21.8	0.00e+00	0	31	0	807403520	50	6566
2026-01-29 12:09:54.86	96.37	10.74	-38.6	-39.7	22.1	0.00e+00	0	31	0	808452096	50	6206
2026-01-29 12:09:55.87	96.55	10.71	-38.5	-39.6	22.1	0.00e+00	0	31	0	810549248	50	6133
2026-01-29 12:09:56.88	96.72	10.67	-38.8	-39.8	21.9	0.00e+00	0	31	0	812646400	50	6314
2026-01-29 12:09:57.89	96.89	10.64	-38.5	-39.5	22.2	0.00e+00	90	31	0	814743552	50	6063
2026-01-29 12:09:58.90	97.07	10.61	-38.2	-39.3	22.3	0.00e+00	0	31	0	816840704	50	5905
2026-01-29 12:09:59.90	97.24	10.58	-38.3	-39.3	22.1	0.00e+00	0	31	0	817889280	50	5947
2026-01-29 12:10:00.91	97.41	10.55	-38.1	-39.1	22.3	0.00e+00	0	31	0	819986432	50	5824
2026-01-29 12:10:01.92	97.58	10.51	-38.2	-39.2	22.4	0.00e+00	0	31	0	822083584	50	5891
2026-01-29 12:10:02.93	97.75	10.48	-38.5	-39.5	22.1	0.00e+00	0	31	0	824180736	50	6094
2026-01-29 12:10:03.94	97.92	10.45	-38.4	-39.5	22.0	0.00e+00	0	31	0	826277888	50	6097
2026-01-29 12:10:04.94	98.09	10.41	-38.9	-40.1	21.6	0.00e+00	92	31	0	827326464	50	6473
2026-01-29 12:10:05.95	98.26	10.38	-39.2	-40.4	21.3	0.00e+00	0	31	0	829423616	50	6705
2026-01-29 12:10:06.96	98.43	10.35	-39.4	-40.6	21.1	0.00e+00	92	31	0	831520768	50	6873
2026-01-29 12:10:07.97	98.60	10.31	-39.9	-41.1	20.8	0.00e+00	0	31	0	833617920	52	6514
2026-01-29 12:10:08.98	98.77	10.28	-39.5	-40.7	21.1	0.00e+00	0	31	0	835715072	52	6225
2026-01-29 12:10:09.99	98.94	10.25	-39.4	-40.6	21.2	0.00e+00	24	31	0	836763648	52	6127
2026-01-29 12:10:11.00	99.11	10.21	-39.4	-40.6	21.1	0.00e+00	0	31	0	838860800	52	6164
2026-01-29 12:10:12.01	99.28	10.18	-39.0	-40.2	21.6	0.00e+00	67	31	0	840957952	52	5835
2026-01-29 12:10:13.02	99.44	10.14	-38.9	-40.1	21.5	0.00e+00	0	31	0	843055104	52	5822
2026-01-29 12:10:14.03	99.61	10.11	-39.1	-40.3	21.5	0.00e+00	91	31	0	845152256	52	5904
2026-01-29 12:10:15.04	99.78	10.07	-39.3	-40.5	21.3	0.00e+00	0	31	0	846200832	52	6071
2026-01-29 12:10:16.05	99.94	10.04	-39.6	-40.9	20.8	0.00e+00	0	31	0	848297984	52	6318
2026-01-29 12:10:17.05	100.11	10.00	-39.9	-41.2	20.7	0.00e+00	0	31	0	850395136	52	6568
2026-01-29 12:10:18.06	100.27	9.97	-39.9	-41.1	20.7	0.00e+00	0	31	0	852492288	52	6512
2026-01-29 12:10:19.07	100.44	9.93	-39.8	-41.1	20.8	0.00e+00	10	31	0	854589440	52	6486
2026-01-29 12:10:20.08	100.60	9.90	-40.0	-41.2	20.7	0.00e+00	0	31	0	856686592	52	6598
2026-01-29 12:10:21.09	100.77	9.86	-39.8	-41.1	20.8	0.00e+00	42	31	0	857735168	52	6483
2026-01-29 12:10:22.10	100.93	9.82	-39.4	-40.6	21.0	0.00e+00	0	31	0	859832320	52	6105
2026-01-29 12:10:23.11	101.10	9.79	-39.1	-40.2	21.4	0.00e+00	0	31	0	861929472	52	5891
2026-01-29 12:10:24.12	101.26	9.75	-39.2	-40.4	21.4	0.00e+00	0	31	0	864026624	52	6017
2026-01-29 12:10:25.13	101.42	9.72	-39.4	-40.6	21.2	0.00e+00	0	31	0	866123776	52	6144
2026-01-29 12:10:26.14	101.59	9.68	-39.5	-40.7	21.1	0.00e+00	42	31	0	867172352	52	6216
2026-01-29 12:10:27.15	101.75	9.64	-39.6	-40.9	21.1	0.00e+00	0	31	0	869269504	52	6325
2026-01-29 12:10:28.16	101.91	9.61	-39.7	-41.0	20.9	0.00e+00	92	31	0	871366656	52	6405
2026-01-29 12:10:29.17	102.07	9.57	-39.8	-41.1	20.8	0.00e+00	30	31	0	873463808	52	6504
2026-01-29 12:10:30.18	102.23	9.53	-39.4	-40.9	21.0	0.00e+00	1	31	0	875560960	52	6328
2026-01-29 12:10:31.19	102.39	9.49	-39.5	-41.0	20.9	0.00e+00	0	31	0	876609536	52	6453
2026-01-29 12:10:32.20	102.55	9.46	-39.5	-41.0	20.9	0.00e+00	28	31	0	878706688	52	6450
2026-01-29 12:10:33.21	102.71	9.42	-39.2	-40.7	21.2	0.00e+00	14	31	0	880803840	52	6185
2026-01-29 12:10:34.21	102.87	9.38	-39.6	-41.2	20.7	0.00e+00	0	31	0	882900992	52	6600
2026-01-29 12:10:35.22	103.03	9.34	-39.5	-41.1	20.8	0.00e+00	92	31	0	884998144	52	6490
2026-01-29 12:10:36.23	103.19	9.31	-39.7	-41.2	20.7	0.00e+00	0	31	0	886046720	52	6608
2026-01-29 12:10:37.24	103.35	9.27	-39.8	-41.2	20.5	0.00e+00	92	31	0	888143872	52	6603
2026-01-29 12:10:38.25	103.51	9.23	-39.7	-41.1	20.7	0.00e+00	0	31	0	890241024	52	6483
2026-01-29 12:10:39.26	103.66	9.19	-39.8	-41.2	20.5	0.00e+00	0	31	0	892338176	52	6615
2026-01-29 12:10:40.27	103.82	9.15	-39.6	-41.2	20.6	0.00e+00	0	31	0	894435328	52	6545
2026-01-29 12:10:41.28	103.98	9.11	-39.8	-41.3	20.5	0.00e+00	0	31	0	895483904	52	6628
2026-01-29 12:10:42.29	104.13	9.07	-39.9	-41.3	20.5	0.00e+00	91	31	0	897581056	52	6646
2026-01-29 12:10:43.30	104.29	9.04	-39.9	-41.3	20.5	0.00e+00	0	31	0	899678208	52	6622
2026-01-29 12:10:44.31	104.44	9.00	-40.2	-41.6	20.3	0.00e+00	40	31	0	901775360	52	6909
2026-01-29 12:10:45.31	104.60	8.96	-40.1	-41.6	20.3	0.00e+00	0	31	0	903872512	52	6855
2026-01-29 12:10:46.32	104.75	8.92	-40.2	-41.6	20.2	0.00e+00	0	31	0	904921088	52	6900
2026-01-29 12:10:47.33	104.91	8.88	-40.0	-41.4	20.4	0.00e+00	0	31	0	907018240	52	6752
2026-01-29 12:10:48.34	105.06	8.84	-39.9	-41.2	20.6	0.00e+00	0	31	0	909115392	52	6577
2026-01-29 12:10:49.35	105.21	8.80	-39.7	-40.9	20.9	0.00e+00	68	31	0	911212544	52	6379
2026-01-29 12:10:50.36	105.37	8.76	-39.4	-40.6	21.2	0.00e+00	0	31	0	913309696	52	6121
2026-01-29 12:10:51.37	105.52	8.72	-39.2	-40.4	21.3	0.00e+00	92	31	0	914358272	52	5978
2026-01-29 12:10:52.38	105.67	8.68	-39.0	-40.1	21.7	0.00e+00	0	31	0	916455424	52	5796
2026-01-29 12:10:53.39	105.82	8.64	-38.7	-39.8	21.8	0.00e+00	0	31	0	918552576	52	5626
2026-01-29 12:10:54.39	105.97	8.60	-38.7	-39.7	21.9	0.00e+00	0	31	0	920649728	50	6234
2026-01-29 12:10:55.41	106.13	8.56	-38.6	-39.6	22.0	0.00e+00	0	31	0	922746880	50	6165
2026-01-29 12:10:56.41	106.28	8.52	-38.9	-40.0	21.6	0.00e+00	37	31	0	924844032	50	6442
2026-01-29 12:10:57.43	106.43	8.48	-39.3	-40.4	21.3	0.00e+00	0	31	0	925892608	50	6752
2026-01-29 12:10:58.43	106.58	8.44	-39.4	-40.6	21.1	0.00e+00	92	31	0	927989760	50	6866
2026-01-29 12:10:59.44	106.73	8.40	-39.8	-41.1	20.7	0.00e+00	0	31	0	930086912	52	6500
2026-01-29 12:11:00.45	106.88	8.36	-39.6	-40.8	20.9	0.00e+00	0	31	0	932184064	52	6281
2026-01-29 12:11:01.46	107.02	8.32	-39.9	-41.2	20.4	0.00e+00	0	31	0	934281216	52	6565
2026-01-29 12:11:02.47	107.17	8.28	-40.1	-41.4	20.3	0.00e+00	0	31	0	935329792	52	6694
2026-01-29 12:11:03.48	107.32	8.23	-39.8	-41.1	20.6	0.00e+00	61	31	0	937426944	52	6489
2026-01-29 12:11:04.50	107.47	8.19	-39.8	-41.2	20.6	0.00e+00	0	31	0	939524096	52	6555
2026-01-29 12:11:05.50	107.61	8.15	-39.7	-41.0	20.8	0.00e+00	80	31	0	941621248	52	6399
2026-01-29 12:11:06.51	107.76	8.11	-39.6	-40.8	20.8	0.00e+00	0	31	0	943718400	52	6309
2026-01-29 12:11:07.52	107.91	8.07	-39.5	-40.8	21.0	0.00e+00	0	31	0	944766976	52	6302
2026-01-29 12:11:08.53	108.05	8.03	-39.2	-40.5	21.2	0.00e+00	0	31	0	946864128	52	6070
2026-01-29 12:11:09.54	108.20	7.99	-39.1	-40.3	21.4	0.00e+00	0	31	0	948961280	52	5945
2026-01-29 12:11:10.55	108.34	7.94	-39.3	-40.4	21.3	0.00e+00	0	31	0	951058432	52	6017
2026-01-29 12:11:11.55	108.49	7.90	-39.0	-40.4	21.3	0.00e+00	0	31	0	953155584	52	5996
2026-01-29 12:11:12.56	108.63	7.86	-38.8	-40.3	21.3	0.00e+00	90	31	0	954204160	52	5938
2026-01-29 12:11:13.57	108.78	7.82	-38.9	-40.5	21.1	0.00e+00	0	31	0	956301312	52	6070
2026-01-29 12:11:14.58	108.92	7.78	-39.2	-40.6	21.2	0.00e+00	22	31	0	958398464	52	6124
2026-01-29 12:11:15.59	109.06	7.73	-39.1	-40.3	21.3	0.00e+00	0	31	0	960495616	52	5948
2026-01-29 12:11:16.60	109.20	7.69	-39.0	-40.3	21.4	0.00e+00	0	31	0	962592768	52	5915
2026-01-29 12:11:17.61	109.35	7.65	-38.9	-40.1	21.4	0.00e+00	0	31	0	963641344	52	5794
2026-01-29 12:11:18.62	109.49	7.61	-39.0	-40.3	21.3	0.00e+00	0	31	0	965738496	52	5927
2026-01-29 12:11:19.63	109.63	7.57	-39.1	-40.3	21.3	0.00e+00	91	31	0	967835648	52	5931
2026-01-29 12:11:20.64	109.77	7.52	-38.7	-39.9	21.7	0.00e+00	0	31	0	969932800	50	6348
2026-01-29 12:11:21.65	109.91	7.48	-38.9	-40.0	21.5	0.00e+00	71	31	0	972029952	50	6452
2026-01-29 12:11:22.66	110.05	7.44	-38.9	-40.0	21.5	0.00e+00	0	31	0	973078528	50	6429
2026-01-29 12:11:23.67	110.19	7.39	-38.7	-39.8	21.6	0.00e+00	0	31	0	975175680	50	6299
2026-01-29 12:11:24.67	110.33	7.35	-39.0	-40.2	21.4	0.00e+00	0	31	0	977272832	50	6549
2026-01-29 12:11:25.68	110.47	7.31	-38.9	-40.1	21.4	0.00e+00	0	31	0	979369984	50	6481
2026-01-29 12:11:26.69	110.61	7.27	-39.1	-40.3	21.3	0.00e+00	18	31	0	981467136	50	6629
2026-01-29 12:11:27.70	110.75	7.22	-38.9	-40.1	21.5	0.00e+00	0	31	0	982515712	50	6488
2026-01-29 12:11:28.71	110.88	7.18	-38.8	-40.0	21.5	0.00e+00	82	31	0	984612864	50	6420
2026-01-29 12:11:29.72	111.02	7.14	-39.0	-40.1	21.5	0.00e+00	0	31	0	986710016	50	6490
2026-01-29 12:11:30.73	111.16	7.09	-38.7	-39.8	21.7	0.00e+00	0	31	0	988807168	50	6317
2026-01-29 12:11:31.74	111.30	7.05	-38.8	-40.0	21.6	0.00e+00	0	31	0	990904320	50	6412
2026-01-29 12:11:32.75	111.43	7.01	-38.5	-39.6	21.8	0.00e+00	0	31	0	991952896	50	6153
2026-01-29 12:11:33.76	111.57	6.96	-38.5	-39.6	21.8	0.00e+00	25	31	0	994050048	50	6145
2026-01-29 12:11:34.77	111.70	6.92	-38.3	-39.4	22.0	0.00e+00	0	31	0	996147200	50	6009
2026-01-29 12:11:35.77	111.84	6.88	-38.4	-39.4	22.0	0.00e+00	91	31	0	998244352	50	6026
2026-01-29 12:11:36.78	111.97	6.83	-38.4	-39.4	22.0	0.00e+00	0	31	0	1000341504	50	6032
2026-01-29 12:11:37.79	112.11	6.79	-38.6	-39.7	21.7	0.00e+00	4	31	0	1001390080	50	6235
2026-01-29 12:11:38.80	112.24	6.75	-38.8	-40.0	21.5	0.00e+00	0	31	0	1003487232	50	6429
2026-01-29 12:11:39.81	112.37	6.70	-38.9	-40.1	21.5	0.00e+00	0	31	0	1005584384	50	6476
2026-01-29 12:11:40.82	112.51	6.66	-39.1	-40.3	21.2	0.00e+00	17	31	0	1007681536	50	6667
2026-01-29 12:11:41.83	112.64	6.61	-39.2	-40.4	21.2	0.00e+00	0	31	0	1009778688	50	6721
2026-01-29 12:11:42.83	112.77	6.57	-38.9	-40.1	21.4	0.00e+00	90	31	0	1010827264	50	6468
2026-01-29 12:11:43.84	112.90	6.53	-39.1	-40.3	21.2	0.00e+00	0	31	0	1012924416	50	6643
2026-01-29 12:11:44.86	113.04	6.48	-38.9	-40.1	21.4	0.00e+00	26	31	0	1015021568	50	6497
2026-01-29 12:11:45.86	113.17	6.44	-39.1	-40.2	21.2	0.00e+00	0	31	0	1017118720	50	6611
2026-01-29 12:11:46.87	113.30	6.39	-39.2	-40.4	21.0	0.00e+00	0	31	0	1019215872	50	6737
2026-01-29 12:11:47.88	113.43	6.35	-39.1	-40.2	21.2	0.00e+00	64	31	0	1021313024	50	6603
2026-01-29 12:11:48.89	113.56	6.31	-39.3	-40.5	21.0	0.00e+00	0	31	0	1022361600	50	6779
2026-01-29 12:11:49.90	113.69	6.26	-39.2	-40.4	21.0	0.00e+00	56	31	0	1024458752	50	6750
2026-01-29 12:11:50.91	113.82	6.22	-39.2	-40.5	21.0	0.00e+00	0	31	0	1026555904	50	6772
2026-01-29 12:11:51.92	113.95	6.17	-39.2	-40.5	21.0	0.00e+00	32	31	0	1028653056	50	6804
2026-01-29 12:11:52.93	114.08	6.13	-39.4	-40.7	20.9	0.00e+00	0	31	0	1030750208	50	6955
2026-01-29 12:11:53.94	114.20	6.08	-39.3	-40.5	21.0	0.00e+00	0	31	0	1031798784	50	6846
2026-01-29 12:11:54.95	114.33	6.04	-39.4	-40.7	20.9	0.00e+00	0	31	0	1033895936	50	6933
2026-01-29 12:11:55.96	114.46	6.00	-39.4	-40.6	20.9	0.00e+00	0	31	0	1035993088	50	6910
2026-01-29 12:11:56.97	114.59	5.95	-39.2	-40.4	21.1	0.00e+00	73	31	0	1038090240	50	6737
2026-01-29 12:11:57.98	114.71	5.91	-39.1	-40.3	21.1	0.00e+00	0	31	0	1040187392	50	6676
2026-01-29 12:11:58.99	114.84	5.86	-38.9	-40.2	21.2	0.00e+00	92	31	0	1041235968	50	6584
2026-01-29 12:11:59.99	114.97	5.82	-38.8	-40.1	21.3	0.00e+00	0	31	0	1043333120	50	6497
2026-01-29 12:12:01.00	115.09	5.77	-38.9	-40.1	21.3	0.00e+00	0	31	0	1045430272	50	6500
2026-01-29 12:12:02.01	115.22	5.73	-38.8	-40.0	21.5	0.00e+00	0	31	0	1047527424	50	6399
2026-01-29 12:12:03.02	115.34	5.68	-38.8	-39.9	21.4	0.00e+00	0	31	0	1049624576	50	6373
2026-01-29 12:12:04.03	115.47	5.64	-39.1	-40.3	21.2	0.00e+00	21	31	0	1050673152	50	6652
2026-01-29 12:12:05.04	115.59	5.59	-39.1	-40.4	21.0	0.00e+00	0	31	0	1052770304	50	6711
2026-01-29 12:12:06.05	115.71	5.55	-39.2	-40.4	21.0	0.00e+00	91	31	0	1054867456	50	6750
2026-01-29 12:12:07.06	115.84	5.50	-39.5	-40.7	20.6	0.00e+00	0	31	0	1056964608	50	6986
2026-01-29 12:12:08.07	115.96	5.46	-39.5	-40.7	20.7	0.00e+00	0	31	0	1059061760	50	6988
2026-01-29 12:12:09.08	116.08	5.41	-39.7	-41.0	20.5	0.00e+00	0	31	0	1060110336	50	7199
2026-01-29 12:12:10.08	116.21	5.37	-39.6	-40.9	20.6	0.00e+00	0	31	0	1062207488	52	6347
2026-01-29 12:12:11.09	116.33	5.32	-39.7	-41.0	20.4	0.00e+00	45	31	0	1064304640	52	6441
2026-01-29 12:12:12.10	116.45	5.28	-40.0	-41.3	20.2	0.00e+00	0	31	0	1066401792	52	6664
2026-01-29 12:12:13.11	116.57	5.23	-39.9	-41.2	20.2	0.00e+00	92	31	0	1068498944	52	6583
2026-01-29 12:12:14.12	116.69	5.19	-39.7	-41.0	20.2	0.00e+00	0	31	0	1069547520	52	6452
2026-01-29 12:12:15.13	116.81	5.14	-39.6	-40.9	20.4	0.00e+00	36	31	0	1071644672	52	6375
2026-01-29 12:12:16.14	116.93	5.10	-40.0	-41.4	20.0	0.00e+00	0	31	0	1073741824	52	6711
2026-01-29 12:12:17.15	117.05	5.05	-39.8	-41.2	20.2	0.00e+00	0	31	0	1075838976	52	6564
2026-01-29 12:12:18.16	117.17	5.01	-39.2	-40.5	20.8	0.00e+00	63	31	0	1077936128	52	6062
2026-01-29 12:12:19.17	117.29	4.96	-39.5	-40.8	20.6	0.00e+00	0	31	0	1078984704	52	6294
2026-01-29 12:12:20.18	117.41	4.92	-39.5	-40.8	20.5	0.00e+00	90	31	0	1081081856	52	6306
2026-01-29 12:12:21.19	117.53	4.87	-39.5	-41.0	20.4	0.00e+00	0	31	0	1083179008	52	6447
2026-01-29 12:12:22.20	117.65	4.83	-39.6	-41.2	20.2	0.00e+00	92	31	0	1085276160	52	6554
2026-01-29 12:12:23.20	117.76	4.78	-39.4	-40.9	20.4	0.00e+00	0	31	0	1087373312	52	6332
2026-01-29 12:12:24.21	117.88	4.73	-39.6	-41.0	20.3	0.00e+00	0	31	0	1088421888	52	6456
2026-01-29 12:12:25.22	118.00	4.69	-39.8	-41.1	20.2	0.00e+00	0	31	0	1090519040	52	6537
2026-01-29 12:12:26.23	118.11	4.64	-39.5	-40.8	20.4	0.00e+00	28	31	0	1092616192	52	6300
2026-01-29 12:12:27.24	118.23	4.60	-39.7	-41.1	20.3	0.00e+00	59	31	0	1094713344	52	6490
2026-01-29 12:12:28.25	118.35	4.55	-39.3	-40.6	20.6	0.00e+00	0	31	0	1096810496	52	6162
2026-01-29 12:12:29.26	118.46	4.51	-39.7	-41.1	20.2	0.00e+00	92	31	0	1098907648	52	6483
2026-01-29 12:12:30.27	118.58	4.46	-39.8	-41.2	20.1	0.00e+00	0	31	0	1099956224	52	6596
2026-01-29 12:12:31.28	118.69	4.42	-39.8	-41.3	20.1	0.00e+00	0	31	0	1102053376	52	6643
2026-01-29 12:12:32.29	118.81	4.37	-40.0	-41.5	19.8	0.00e+00	0	31	0	1104150528	52	6831
2026-01-29 12:12:33.30	118.92	4.32	-39.8	-41.2	20.1	0.00e+00	0	31	0	1106247680	52	6603
2026-01-29 12:12:34.31	119.04	4.28	-39.8	-41.3	20.0	0.00e+00	81	31	0	1108344832	52	6623
2026-01-29 12:12:35.31	119.15	4.23	-39.9	-41.3	20.0	0.00e+00	0	31	0	1109393408	52	6647
2026-01-29 12:12:36.32	119.26	4.19	-40.1	-41.6	19.8	0.00e+00	92	31	0	1111490560	52	6853
2026-01-29 12:12:37.33	119.37	4.14	-40.3	-41.8	19.6	0.00e+00	0	31	0	1113587712	52	7042
2026-01-29 12:12:38.34	119.49	4.10	-40.1	-41.5	19.8	0.00e+00	0	31	0	1115684864	52	6839
2026-01-29 12:12:39.35	119.60	4.05	-40.2	-41.7	19.6	0.00e+00	0	31	0	1116733440	52	7005
2026-01-29 12:12:40.36	119.71	4.01	-40.0	-41.5	19.9	0.00e+00	0	31	0	1118830592	52	6823
2026-01-29 12:12:41.37	119.82	3.96	-40.2	-41.8	19.5	0.00e+00	13	31	0	1120927744	52	7074
2026-01-29 12:12:42.38	119.93	3.91	-40.3	-42.1	19.2	0.00e+00	0	31	0	1123024896	52	7256
2026-01-29 12:12:43.39	120.05	3.87	-40.0	-41.7	19.5	0.00e+00	76	31	0	1125122048	52	6988
2026-01-29 12:12:44.40	120.16	3.82	-40.1	-41.8	19.4	0.00e+00	0	31	0	1127219200	52	7072
2026-01-29 12:12:45.41	120.27	3.78	-40.2	-42.0	19.3	0.00e+00	0	31	0	1128267776	52	7190
2026-01-29 12:12:46.42	120.38	3.73	-40.4	-42.1	19.3	0.00e+00	0	31	0	1130364928	52	7257
2026-01-29 12:12:47.43	120.49	3.69	-40.6	-42.3	19.0	0.00e+00	0	31	0	1132462080	52	7435
2026-01-29 12:12:48.44	120.60	3.64	-40.7	-42.4	18.9	0.00e+00	58	31	0	1134559232	52	7554
2026-01-29 12:12:49.45	120.70	3.59	-40.6	-42.2	19.1	0.00e+00	0	31	0	1136656384	52	7372
2026-01-29 12:12:50.46	120.81	3.55	-41.3	-43.1	18.3	0.00e+00	92	31	0	1137704960	54	7311
2026-01-29 12:12:51.47	120.92	3.50	-41.1	-42.9	18.3	0.00e+00	0	31	0	1139802112	54	7092
2026-01-29 12:12:52.48	121.03	3.46	-40.9	-42.6	18.6	0.00e+00	0	31	0	1141899264	54	6901
2026-01-29 12:12:53.49	121.14	3.41	-40.9	-42.5	18.6	0.00e+00	0	31	0	1143996416	54	6832
2026-01-29 12:12:54.50	121.24	3.37	-40.8	-42.4	18.7	0.00e+00	0	31	0	1146093568	54	6740
2026-01-29 12:12:55.51	121.35	3.32	-41.4	-43.2	18.0	0.00e+00	13	31	0	1147142144	54	7375
2026-01-29 12:12:56.51	121.46	3.27	-40.8	-42.4	18.7	0.00e+00	0	31	0	1149239296	54	6754
2026-01-29 12:12:57.52	121.56	3.23	-40.8	-42.4	18.7	0.00e+00	91	31	0	1151336448	54	6715
2026-01-29 12:12:58.53	121.67	3.18	-41.0	-42.7	18.4	0.00e+00	0	31	0	1153433600	54	6975
2026-01-29 12:12:59.54	121.78	3.14	-40.7	-42.4	18.7	0.00e+00	91	31	0	1155530752	54	6699
2026-01-29 12:13:00.55	121.88	3.09	-41.0	-42.8	18.5	0.00e+00	0	31	0	1156579328	54	7016
2026-01-29 12:13:01.56	121.99	3.04	-40.8	-42.5	18.4	0.00e+00	0	31	0	1158676480	54	6779
2026-01-29 12:13:02.57	122.09	3.00	-46.8	-61.9	3.6	0.00e+00	7	31	104	1160773632	60	44911
2026-01-29 12:13:03.58	122.20	2.95	-47.2	-63.1	3.6	1.51e+00	0	31	104	1160773632	60	51712
2026-01-29 12:13:04.59	122.30	2.91	-48.2	-63.4	3.6	1.51e+00	0	31	104	1160773632	60	53458
2026-01-29 12:13:05.60	122.40	2.86	-48.0	-63.5	3.6	1.51e+00	0	31	104	1160773632	60	54254
2026-01-29 12:13:06.61	122.51	2.82	-47.1	-63.7	3.5	1.51e+00	0	31	104	1160773632	60	55357
2026-01-29 12:13:07.62	122.61	2.77	-48.6	-63.8	3.6	1.51e+00	0	31	104	1160773632	60	56178
2026-01-29 12:13:08.63	122.71	2.72	-48.7	-63.9	3.6	1.51e+00	0	31	104	1160773632	60	56943
2026-01-29 12:13:09.64	122.82	2.68	-48.4	-63.9	3.6	1.51e+00	0	31	104	1160773632	60	56477
2026-01-29 12:13:10.65	122.92	2.63	-48.8	-64.0	3.6	1.51e+00	0	31	104	1160773632	60	57403
2026-01-29 12:13:11.66	123.02	2.59	-48.8	-64.0	3.6	1.51e+00	0	31	104	1160773632	60	57520
2026-01-29 12:13:12.67	123.12	2.54	-48.8	-64.0	3.6	1.51e+00	0	31	104	1160773632	60	57510
2026-01-29 12:13:13.67	123.22	2.50	-48.9	-64.1	3.6	1.51e+00	0	31	104	1160773632	60	57968
2026-01-29 12:13:14.68	123.32	2.45	-48.9	-64.1	3.6	1.51e+00	0	31	104	1160773632	60	57810
2026-01-29 12:13:15.69	123.42	2.40	-48.9	-64.1	3.6	1.51e+00	0	31	104	1160773632	60	58008
2026-01-29 12:13:16.70	123.53	2.36	-48.9	-64.1	3.6	1.51e+00	0	31	104	1160773632	60	57893
2026-01-29 12:13:17.71	123.63	2.31	-48.9	-64.1	3.6	1.51e+00	0	31	104	1160773632	60	57689
2026-01-29 12:13:18.72	123.73	2.27	-48.9	-64.1	3.6	1.51e+00	0	31	104	1160773632	60	57743
2026-01-29 12:13:19.73	123.83	2.22	-48.8	-64.1	3.6	1.51e+00	0	31	104	1160773632	60	57762
2026-01-29 12:13:20.74	123.92	2.18	-48.8	-64.1	3.6	1.51e+00	0	31	104	1160773632	60	57868
2026-01-29 12:13:21.75	124.02	2.13	-48.9	-64.1	3.6	1.51e+00	0	31	104	1160773632	60	57845
2026-01-29 12:13:22.76	124.12	2.08	-48.8	-64.0	3.6	1.51e+00	0	31	104	1160773632	60	57203
2026-01-29 12:13:23.77	124.22	2.04	-48.8	-64.0	3.6	1.51e+00	0	31	104	1160773632	60	57504
2026-01-29 12:13:24.78	124.32	1.99	-48.9	-64.1	3.6	1.51e+00	0	31	104	1160773632	60	57679
