passes_logs/2026/01/29/R4.6S_Anadyr/R4.6S_Anadyr__20260129_145241_NOAA_21_JPSS-2_rec.log

#Pass ID: 20260129_145241_NOAA 21 (JPSS-2)
#Satellite: NOAA 21 (JPSS-2)
#Configuration: NOAA-21
#almurnet v.1.7.20251203
#Start time: 2026-01-29 14:52:43

#Version: 2.2.20231116
#Station: R4.6S_Anadyr
#Location: 177.4865 lon 64.73178 lat
#TLE: 1 54234U 22150A   26028.89828222  .00000145  00000+0  89569-4 0  9997
#TLE: 2 54234  98.7511 329.6308 0000927 198.8651 161.2491 14.19540676166783

#Time	Az	El	Level	Level2	SNR	BER	BlckErr	Temp	State	Recorded	gain1	gain2
2026-01-29 14:52:43.63	20.82	0.13	-49.0	-66.7	3.5	3.02e+01	0	26	0	0	60	83402
2026-01-29 14:52:44.62	20.82	0.19	-48.7	-61.6	3.5	1.52e+00	0	27	104	0	60	42258
2026-01-29 14:52:45.63	20.82	0.25	-48.8	-61.6	3.5	1.52e+00	0	28	104	0	60	42235
2026-01-29 14:52:46.64	20.82	0.31	-48.8	-61.6	3.5	1.52e+00	0	28	104	0	60	42234
2026-01-29 14:52:47.65	20.82	0.37	-48.8	-61.6	3.5	1.52e+00	0	28	104	0	60	42278
2026-01-29 14:52:48.66	20.82	0.43	-48.8	-61.6	3.5	1.52e+00	0	28	104	0	60	42195
2026-01-29 14:52:49.68	20.82	0.49	-48.8	-61.6	3.5	1.52e+00	0	28	104	0	60	42416
2026-01-29 14:52:50.69	20.82	0.55	-48.8	-61.7	3.5	1.51e+00	0	28	104	0	60	42695
2026-01-29 14:52:51.70	20.82	0.61	-48.8	-61.7	3.5	1.52e+00	0	28	104	0	60	42618
2026-01-29 14:52:52.71	20.82	0.68	-48.8	-61.7	3.5	1.52e+00	0	28	104	0	60	42652
2026-01-29 14:52:53.72	20.82	0.74	-48.8	-61.7	3.5	1.52e+00	0	28	104	0	60	42446
2026-01-29 14:52:54.73	20.82	0.80	-48.8	-61.7	3.5	1.52e+00	0	28	104	0	60	42497
2026-01-29 14:52:55.74	20.82	0.86	-48.8	-61.6	3.5	1.52e+00	0	28	104	0	60	42340
2026-01-29 14:52:56.75	20.82	0.92	-48.7	-61.6	3.5	1.52e+00	0	28	104	0	60	42120
2026-01-29 14:52:57.76	20.82	0.98	-48.7	-61.6	3.5	1.51e+00	0	28	104	0	60	42012
2026-01-29 14:52:58.77	20.82	1.05	-48.7	-61.5	3.5	1.52e+00	0	28	104	0	60	41804
2026-01-29 14:52:59.78	20.82	1.11	-48.6	-61.4	3.5	1.52e+00	0	28	104	0	60	41458
2026-01-29 14:53:00.79	20.82	1.17	-48.5	-61.4	3.5	1.52e+00	0	28	104	0	60	41120
2026-01-29 14:53:01.80	20.82	1.23	-48.3	-61.2	3.5	1.52e+00	0	28	104	0	60	40332
2026-01-29 14:53:02.81	20.82	1.30	-48.1	-61.0	3.5	1.52e+00	0	28	104	0	60	39578
2026-01-29 14:53:03.82	20.81	1.36	-48.0	-61.0	3.5	1.52e+00	0	28	104	0	60	39274
2026-01-29 14:53:04.83	20.81	1.42	-48.0	-60.8	3.5	1.52e+00	0	28	104	0	60	38662
2026-01-29 14:53:05.84	20.81	1.49	-47.8	-60.6	3.5	1.52e+00	0	28	104	0	60	37634
2026-01-29 14:53:06.85	20.81	1.55	-47.6	-60.5	3.5	1.52e+00	0	28	104	0	60	37181
2026-01-29 14:53:07.86	20.81	1.61	-47.3	-59.9	3.5	1.52e+00	0	28	104	0	60	34839
2026-01-29 14:53:08.87	20.81	1.68	-47.3	-59.9	3.5	1.52e+00	0	28	104	0	60	34661
2026-01-29 14:53:09.88	20.81	1.74	-47.2	-59.7	3.5	1.52e+00	0	28	104	0	60	33783
2026-01-29 14:53:10.89	20.81	1.80	-47.3	-59.9	3.5	1.52e+00	0	28	104	0	60	34810
2026-01-29 14:53:11.90	20.81	1.87	-47.3	-59.9	3.5	1.52e+00	0	28	104	0	60	34566
2026-01-29 14:53:12.91	20.81	1.93	-47.3	-59.9	3.5	1.52e+00	0	28	104	0	60	34869
2026-01-29 14:53:13.92	20.81	2.00	-47.3	-60.1	3.5	1.52e+00	0	28	104	0	60	35402
2026-01-29 14:53:14.93	20.81	2.06	-47.3	-60.1	3.5	1.52e+00	0	28	104	0	60	35448
2026-01-29 14:53:15.94	20.81	2.13	-47.3	-60.1	3.5	1.52e+00	0	28	104	0	60	35435
2026-01-29 14:53:16.95	20.81	2.19	-47.3	-60.1	3.5	1.52e+00	0	28	104	0	60	35382
2026-01-29 14:53:17.95	20.81	2.25	-47.3	-60.0	3.5	1.52e+00	0	28	104	0	60	35150
2026-01-29 14:53:18.96	20.81	2.32	-47.3	-59.9	3.5	1.52e+00	0	28	104	0	60	34667
2026-01-29 14:53:19.97	20.81	2.38	-47.2	-59.5	3.5	1.52e+00	0	28	104	0	60	33084
2026-01-29 14:53:20.98	20.81	2.45	-47.2	-59.3	3.5	1.52e+00	0	28	104	0	60	32338
2026-01-29 14:53:21.99	20.81	2.52	-47.1	-58.2	3.5	1.51e+00	0	28	104	0	60	28481
2026-01-29 14:53:23.00	20.81	2.58	-47.0	-57.4	3.9	1.49e+00	0	28	104	0	60	26127
2026-01-29 14:53:24.01	20.81	2.65	-47.0	-57.2	3.6	1.48e+00	0	28	104	0	60	25414
2026-01-29 14:53:25.02	20.80	2.71	-47.1	-57.9	3.7	1.50e+00	0	28	104	0	60	27612
2026-01-29 14:53:26.03	20.80	2.78	-47.1	-57.8	3.7	1.50e+00	0	28	104	0	60	27298
2026-01-29 14:53:27.04	20.80	2.85	-47.1	-58.4	3.7	1.51e+00	0	28	104	0	60	29157
2026-01-29 14:53:28.06	20.80	2.91	-47.1	-58.3	3.6	1.51e+00	0	28	104	0	60	28704
2026-01-29 14:53:29.06	20.80	2.98	-47.0	-56.8	3.6	1.45e+00	0	28	104	0	60	24246
2026-01-29 14:53:30.07	20.80	3.04	-46.4	-52.9	5.8	4.48e-01	122	28	0	0	60	15426
2026-01-29 14:53:31.08	20.80	3.11	-45.7	-50.4	8.4	8.03e-02	123	28	0	3145728	60	11619
2026-01-29 14:53:32.10	20.80	3.18	-44.6	-48.1	11.3	3.20e-03	122	28	0	6291456	60	8899
2026-01-29 14:53:33.11	20.80	3.25	-43.7	-46.6	12.8	7.24e-05	123	28	0	9437184	60	7495
2026-01-29 14:53:34.11	20.80	3.31	-42.5	-44.7	14.8	0.00e+00	123	29	0	12582912	58	6761
2026-01-29 14:53:35.13	20.80	3.38	-41.7	-43.6	15.8	0.00e+00	120	28	0	15728640	56	6698
2026-01-29 14:53:36.14	20.80	3.45	-41.5	-43.4	16.0	0.00e+00	123	28	0	18874368	56	6563
2026-01-29 14:53:37.15	20.79	3.52	-41.2	-43.0	16.3	0.00e+00	122	28	0	22020096	54	7002
2026-01-29 14:53:38.16	20.79	3.59	-40.6	-42.2	17.1	0.00e+00	123	28	0	25165824	54	6386
2026-01-29 14:53:39.17	20.79	3.65	-40.6	-42.2	17.0	0.00e+00	122	28	0	28311552	54	6416
2026-01-29 14:53:40.18	20.79	3.72	-41.0	-42.8	16.5	0.00e+00	123	28	0	31457280	54	6838
2026-01-29 14:53:41.19	20.79	3.79	-41.1	-42.8	16.7	0.00e+00	121	28	0	34603008	54	6877
2026-01-29 14:53:42.19	20.79	3.86	-38.3	-39.6	19.6	0.00e+00	123	28	0	37748736	50	5949
2026-01-29 14:53:43.20	20.79	3.93	-38.6	-39.9	19.3	0.00e+00	120	28	0	40894464	50	6175
2026-01-29 14:53:44.21	20.79	4.00	-47.1	-57.9	3.7	1.51e+00	0	28	104	42991616	60	27485
2026-01-29 14:53:45.22	20.79	4.07	-41.1	-43.2	16.9	7.74e-01	122	28	104	42991616	58	5695
2026-01-29 14:53:46.23	20.78	4.13	-47.1	-58.6	3.5	1.52e+00	0	28	104	42991616	60	29857
2026-01-29 14:53:47.24	20.78	4.20	-38.6	-40.3	18.4	2.62e-01	120	29	104	42991616	50	6424
2026-01-29 14:53:48.25	20.78	4.27	-38.5	-39.8	19.7	0.00e+00	122	28	0	44040192	50	6071
2026-01-29 14:53:49.26	20.78	4.34	-38.1	-39.3	20.0	0.00e+00	123	28	0	47185920	50	5781
2026-01-29 14:53:50.27	20.78	4.41	-38.6	-39.8	19.5	0.00e+00	123	28	0	50331648	50	6129
2026-01-29 14:53:51.28	20.78	4.48	-38.2	-39.4	20.0	0.00e+00	123	29	0	53477376	50	5831
2026-01-29 14:53:52.29	20.78	4.56	-38.5	-39.7	19.7	0.00e+00	122	28	0	56623104	50	6057
2026-01-29 14:53:53.30	20.78	4.63	-38.4	-39.6	19.9	0.00e+00	123	28	0	59768832	50	5992
2026-01-29 14:53:54.30	20.77	4.70	-38.6	-39.9	19.7	0.00e+00	122	29	0	62914560	50	6166
2026-01-29 14:53:55.31	20.77	4.77	-38.4	-39.6	20.0	0.00e+00	122	29	0	66060288	50	5961
2026-01-29 14:53:56.32	20.77	4.84	-37.6	-38.8	20.6	0.00e+00	120	29	0	69206016	48	6093
2026-01-29 14:53:57.33	20.77	4.91	-37.6	-38.8	20.7	0.00e+00	123	29	0	72351744	48	6068
2026-01-29 14:53:58.34	20.77	4.98	-37.8	-39.0	20.4	0.00e+00	123	29	0	75497472	48	6251
2026-01-29 14:53:59.34	20.77	5.05	-37.5	-38.7	20.7	0.00e+00	122	29	0	78643200	48	6004
2026-01-29 14:54:00.35	20.76	5.12	-37.7	-38.9	20.6	0.00e+00	123	28	0	81788928	48	6159
2026-01-29 14:54:01.36	20.76	5.20	-37.3	-38.4	20.9	0.00e+00	123	28	0	84934656	48	5836
2026-01-29 14:54:02.37	20.76	5.27	-37.5	-38.6	20.8	0.00e+00	123	29	0	88080384	48	5964
2026-01-29 14:54:03.38	20.76	5.34	-37.4	-38.5	20.8	0.00e+00	123	29	0	91226112	48	5890
2026-01-29 14:54:04.39	20.76	5.41	-37.3	-38.4	20.9	0.00e+00	123	29	0	94371840	48	5846
2026-01-29 14:54:05.40	20.76	5.49	-37.4	-38.6	20.8	0.00e+00	123	28	0	97517568	48	5936
2026-01-29 14:54:06.41	20.75	5.56	-37.1	-38.2	21.2	0.00e+00	123	29	0	100663296	48	5707
2026-01-29 14:54:07.42	20.75	5.63	-37.2	-38.3	21.1	0.00e+00	123	29	0	103809024	48	5748
2026-01-29 14:54:08.43	20.75	5.71	-37.3	-38.4	21.0	0.00e+00	123	29	0	106954752	48	5837
2026-01-29 14:54:09.44	20.75	5.78	-37.1	-38.3	21.2	0.00e+00	123	29	0	110100480	48	5732
2026-01-29 14:54:10.45	20.75	5.86	-37.2	-38.3	21.1	0.00e+00	122	29	0	113246208	48	5728
2026-01-29 14:54:11.46	20.74	5.93	-37.2	-38.3	21.1	0.00e+00	122	29	0	116391936	48	5754
2026-01-29 14:54:12.46	20.74	6.00	-36.9	-38.0	21.4	0.00e+00	123	29	0	119537664	48	5589
2026-01-29 14:54:13.47	20.74	6.08	-37.0	-38.1	21.3	0.00e+00	122	29	0	122683392	48	5616
2026-01-29 14:54:14.48	20.74	6.15	-37.0	-38.1	21.4	0.00e+00	123	29	0	125829120	48	5603
2026-01-29 14:54:15.49	20.74	6.23	-36.9	-38.0	21.4	0.00e+00	122	29	0	128974848	48	5559
2026-01-29 14:54:16.50	20.73	6.30	-37.0	-38.1	21.3	0.00e+00	122	29	0	132120576	48	5600
2026-01-29 14:54:17.51	20.73	6.38	-36.9	-37.9	21.4	0.00e+00	123	29	0	135266304	48	5528
2026-01-29 14:54:18.52	20.73	6.46	-36.9	-38.0	21.4	0.00e+00	120	29	0	138412032	48	5557
2026-01-29 14:54:19.53	20.73	6.53	-36.8	-37.9	21.5	0.00e+00	122	29	0	142606336	48	5472
2026-01-29 14:54:20.54	20.72	6.61	-36.9	-37.9	21.5	0.00e+00	122	29	0	144703488	46	6202
2026-01-29 14:54:21.55	20.72	6.68	-36.9	-38.0	21.5	0.00e+00	122	29	0	147849216	46	6269
2026-01-29 14:54:22.56	20.72	6.76	-36.7	-37.7	21.8	0.00e+00	123	29	0	150994944	46	6046
2026-01-29 14:54:23.57	20.72	6.84	-36.7	-37.8	21.7	0.00e+00	123	29	0	154140672	46	6083
2026-01-29 14:54:24.58	20.72	6.91	-36.7	-37.8	21.6	0.00e+00	121	29	0	158334976	46	6111
2026-01-29 14:54:25.59	20.71	6.99	-36.6	-37.6	21.8	0.00e+00	123	29	0	161480704	46	5970
2026-01-29 14:54:26.60	20.71	7.07	-37.1	-38.1	21.3	0.00e+00	123	29	0	164626432	46	6346
2026-01-29 14:54:27.61	20.71	7.15	-37.0	-38.0	21.5	0.00e+00	123	29	0	166723584	46	6269
2026-01-29 14:54:28.62	20.71	7.23	-37.2	-38.3	21.2	0.00e+00	122	29	0	169869312	46	6454
2026-01-29 14:54:29.63	20.70	7.30	-37.2	-38.3	21.5	0.00e+00	123	29	0	173015040	46	6450
2026-01-29 14:54:30.64	20.70	7.38	-36.7	-37.8	21.8	0.00e+00	122	29	0	177209344	46	6093
2026-01-29 14:54:31.65	20.70	7.46	-37.1	-38.2	21.5	0.00e+00	123	29	0	180355072	46	6384
2026-01-29 14:54:32.66	20.69	7.54	-37.0	-38.1	21.5	0.00e+00	123	29	0	183500800	46	6302
2026-01-29 14:54:33.67	20.69	7.62	-37.1	-38.2	21.4	0.00e+00	122	29	0	186646528	46	6371
2026-01-29 14:54:34.68	20.69	7.70	-37.4	-38.5	21.1	0.00e+00	123	29	0	189792256	46	6619
2026-01-29 14:54:35.69	20.69	7.78	-37.3	-38.4	21.4	0.00e+00	122	29	0	192937984	46	6527
2026-01-29 14:54:36.70	20.68	7.86	-37.0	-38.1	21.6	0.00e+00	122	29	0	196083712	46	6308
2026-01-29 14:54:37.71	20.68	7.94	-36.5	-37.5	22.0	0.00e+00	123	29	0	199229440	46	5903
2026-01-29 14:54:38.72	20.68	8.02	-36.4	-37.5	22.0	0.00e+00	122	29	0	202375168	46	5881
2026-01-29 14:54:39.73	20.67	8.10	-36.4	-37.4	22.1	0.00e+00	122	29	0	205520896	46	5850
2026-01-29 14:54:40.74	20.67	8.18	-36.3	-37.4	22.2	0.00e+00	120	29	0	208666624	46	5803
2026-01-29 14:54:41.74	20.67	8.26	-36.3	-37.4	22.1	0.00e+00	123	29	0	211812352	46	5800
2026-01-29 14:54:42.75	20.67	8.34	-36.3	-37.3	22.2	0.00e+00	123	29	0	214958080	46	5791
2026-01-29 14:54:43.76	20.66	8.43	-36.2	-37.3	22.3	0.00e+00	122	29	0	218103808	46	5741
2026-01-29 14:54:44.77	20.66	8.51	-36.2	-37.2	22.3	0.00e+00	123	29	0	221249536	46	5701
2026-01-29 14:54:45.78	20.66	8.59	-36.2	-37.2	22.3	0.00e+00	123	29	0	224395264	46	5684
2026-01-29 14:54:46.79	20.65	8.67	-36.1	-37.1	22.4	0.00e+00	123	29	0	227540992	46	5644
2026-01-29 14:54:47.80	20.65	8.76	-36.0	-37.1	22.4	0.00e+00	122	29	0	230686720	46	5596
2026-01-29 14:54:48.81	20.65	8.84	-36.1	-37.2	22.4	0.00e+00	122	29	0	233832448	46	5671
2026-01-29 14:54:49.82	20.64	8.92	-36.0	-37.0	22.5	0.00e+00	123	29	0	236978176	46	5551
2026-01-29 14:54:50.82	20.64	9.00	-36.0	-37.0	22.4	0.00e+00	123	29	0	240123904	46	5549
2026-01-29 14:54:51.83	20.64	9.09	-35.9	-36.9	22.5	0.00e+00	120	29	0	243269632	46	5525
2026-01-29 14:54:52.84	20.63	9.17	-36.1	-37.1	22.3	0.00e+00	122	29	0	246415360	46	5640
2026-01-29 14:54:53.85	20.63	9.26	-36.1	-37.1	22.4	0.00e+00	122	29	0	249561088	46	5620
2026-01-29 14:54:54.87	20.62	9.34	-36.0	-37.1	22.5	0.00e+00	123	29	0	252706816	46	5596
2026-01-29 14:54:55.88	20.62	9.43	-36.0	-37.0	22.5	0.00e+00	123	29	0	255852544	46	5540
2026-01-29 14:54:56.88	20.62	9.51	-36.2	-37.3	22.3	0.00e+00	122	29	0	258998272	46	5729
2026-01-29 14:54:57.89	20.61	9.60	-35.8	-36.8	22.7	0.00e+00	121	29	0	262144000	46	5431
2026-01-29 14:54:58.90	20.61	9.68	-35.9	-36.9	22.5	0.00e+00	123	29	0	265289728	46	5525
2026-01-29 14:54:59.91	20.61	9.77	-35.9	-36.9	22.6	0.00e+00	123	29	0	268435456	46	5505
2026-01-29 14:55:00.92	20.60	9.86	-35.9	-36.9	22.6	0.00e+00	122	29	0	271581184	46	5493
2026-01-29 14:55:01.93	20.60	9.94	-35.7	-36.7	22.8	0.00e+00	123	29	0	274726912	46	5391
2026-01-29 14:55:02.94	20.59	10.03	-35.7	-36.7	22.8	0.00e+00	122	29	0	277872640	44	6028
2026-01-29 14:55:03.95	20.59	10.12	-35.6	-36.5	23.0	0.00e+00	123	29	0	281018368	44	5925
2026-01-29 14:55:04.96	20.58	10.21	-35.5	-36.5	22.9	0.00e+00	122	29	0	284164096	44	5902
2026-01-29 14:55:05.97	20.58	10.30	-35.7	-36.7	22.8	0.00e+00	122	29	0	287309824	44	6032
2026-01-29 14:55:06.98	20.58	10.38	-35.5	-36.5	23.0	0.00e+00	123	29	0	290455552	44	5883
2026-01-29 14:55:07.99	20.57	10.47	-35.6	-36.6	22.9	0.00e+00	123	29	0	293601280	44	5929
2026-01-29 14:55:09.00	20.57	10.56	-35.6	-36.6	22.9	0.00e+00	123	29	0	296747008	44	5944
2026-01-29 14:55:10.01	20.56	10.65	-35.4	-36.4	23.1	0.00e+00	122	29	0	299892736	44	5798
2026-01-29 14:55:11.02	20.56	10.74	-35.4	-36.4	23.1	0.00e+00	120	29	0	303038464	44	5803
2026-01-29 14:55:12.03	20.55	10.83	-35.3	-36.3	23.2	0.00e+00	123	29	0	306184192	44	5763
2026-01-29 14:55:13.04	20.55	10.92	-35.4	-36.4	23.1	0.00e+00	122	29	0	309329920	44	5835
2026-01-29 14:55:14.04	20.55	11.01	-35.4	-36.3	23.1	0.00e+00	120	29	0	312475648	44	5782
2026-01-29 14:55:15.06	20.54	11.10	-35.2	-36.2	23.3	0.00e+00	123	29	0	315621376	44	5696
2026-01-29 14:55:16.06	20.54	11.19	-35.3	-36.2	23.2	0.00e+00	123	29	0	318767104	44	5701
2026-01-29 14:55:17.07	20.53	11.29	-35.3	-36.3	23.1	0.00e+00	123	29	0	321912832	44	5760
2026-01-29 14:55:18.08	20.53	11.38	-35.3	-36.2	23.2	0.00e+00	123	29	0	325058560	44	5714
2026-01-29 14:55:19.09	20.52	11.47	-35.3	-36.2	23.3	0.00e+00	123	29	0	328204288	44	5715
2026-01-29 14:55:20.10	20.52	11.56	-35.1	-36.1	23.5	0.00e+00	123	29	0	331350016	44	5625
2026-01-29 14:55:21.11	20.51	11.66	-35.1	-36.1	23.3	0.00e+00	120	29	0	334495744	44	5605
2026-01-29 14:55:22.12	20.51	11.75	-35.3	-36.3	23.3	0.00e+00	123	29	0	337641472	44	5763
2026-01-29 14:55:23.13	20.50	11.84	-35.1	-36.0	23.3	0.00e+00	123	29	0	340787200	44	5591
2026-01-29 14:55:24.14	20.50	11.94	-35.0	-36.0	23.5	0.00e+00	121	29	0	343932928	44	5554
2026-01-29 14:55:25.15	20.49	12.03	-35.1	-36.1	23.4	0.00e+00	120	29	0	347078656	44	5618
2026-01-29 14:55:26.16	20.49	12.13	-34.9	-35.9	23.6	0.00e+00	123	29	0	350224384	44	5486
2026-01-29 14:55:27.16	20.48	12.22	-35.1	-36.0	23.4	0.00e+00	123	29	0	353370112	44	5581
2026-01-29 14:55:28.18	20.47	12.32	-34.8	-35.7	23.7	0.00e+00	123	29	0	356515840	44	5398
2026-01-29 14:55:29.18	20.47	12.42	-35.0	-35.9	23.6	0.00e+00	122	29	0	359661568	44	5504
2026-01-29 14:55:30.19	20.46	12.51	-34.9	-35.9	23.7	0.00e+00	123	29	0	362807296	44	5480
2026-01-29 14:55:31.20	20.46	12.61	-34.8	-35.8	23.7	0.00e+00	122	29	0	365953024	44	5420
2026-01-29 14:55:32.21	20.45	12.71	-34.8	-35.8	23.7	0.00e+00	122	29	0	369098752	44	5422
2026-01-29 14:55:33.22	20.45	12.80	-35.0	-35.9	23.6	0.00e+00	123	29	0	372244480	44	5512
2026-01-29 14:55:34.23	20.44	12.90	-34.9	-35.8	23.7	0.00e+00	123	29	0	375390208	44	5452
2026-01-29 14:55:35.24	20.43	13.00	-34.9	-35.8	23.7	0.00e+00	120	29	0	378535936	44	5435
2026-01-29 14:55:36.25	20.43	13.10	-34.7	-35.7	23.9	0.00e+00	122	29	0	381681664	42	6001
2026-01-29 14:55:37.26	20.42	13.20	-34.6	-35.5	23.9	0.00e+00	120	29	0	384827392	42	5919
2026-01-29 14:55:38.26	20.42	13.30	-34.5	-35.4	24.0	0.00e+00	120	29	0	387973120	42	5854
2026-01-29 14:55:39.28	20.41	13.40	-34.7	-35.6	23.9	0.00e+00	123	29	0	391118848	42	5990
2026-01-29 14:55:40.29	20.40	13.50	-34.5	-35.5	24.0	0.00e+00	120	29	0	394264576	42	5864
2026-01-29 14:55:41.30	20.40	13.60	-34.6	-35.5	24.0	0.00e+00	123	29	0	397410304	42	5866
2026-01-29 14:55:42.30	20.39	13.70	-34.6	-35.5	23.9	0.00e+00	123	29	0	400556032	42	5917
2026-01-29 14:55:43.31	20.38	13.80	-34.5	-35.4	24.1	0.00e+00	120	29	0	403701760	42	5823
2026-01-29 14:55:44.32	20.38	13.90	-34.6	-35.5	24.0	0.00e+00	120	29	0	406847488	42	5910
2026-01-29 14:55:45.33	20.37	14.01	-34.6	-35.5	24.0	0.00e+00	123	29	0	409993216	42	5910
2026-01-29 14:55:46.34	20.36	14.11	-34.6	-35.6	24.0	0.00e+00	122	29	0	413138944	42	5933
2026-01-29 14:55:47.35	20.36	14.21	-34.7	-35.6	24.0	0.00e+00	122	29	0	416284672	42	5939
2026-01-29 14:55:48.36	20.35	14.32	-34.7	-35.6	23.9	0.00e+00	122	29	0	419430400	42	5993
2026-01-29 14:55:49.37	20.34	14.42	-34.6	-35.5	24.0	0.00e+00	122	29	0	422576128	42	5878
2026-01-29 14:55:50.38	20.34	14.53	-34.6	-35.5	24.1	0.00e+00	122	29	0	425721856	42	5891
2026-01-29 14:55:51.39	20.33	14.63	-34.6	-35.5	24.0	0.00e+00	123	29	0	428867584	42	5877
2026-01-29 14:55:52.40	20.32	14.74	-34.4	-35.3	24.2	0.00e+00	123	29	0	432013312	42	5755
2026-01-29 14:55:53.41	20.32	14.84	-34.4	-35.4	24.2	0.00e+00	122	29	0	435159040	42	5798
2026-01-29 14:55:54.42	20.31	14.95	-34.4	-35.2	24.2	0.00e+00	122	29	0	438304768	42	5713
2026-01-29 14:55:55.43	20.30	15.06	-34.4	-35.3	24.2	0.00e+00	123	29	0	441450496	42	5748
2026-01-29 14:55:56.44	20.29	15.16	-34.5	-35.4	24.1	0.00e+00	123	29	0	444596224	42	5820
2026-01-29 14:55:57.45	20.29	15.27	-34.5	-35.4	24.1	0.00e+00	120	29	0	447741952	42	5796
2026-01-29 14:55:58.46	20.28	15.38	-34.4	-35.3	24.1	0.00e+00	120	29	0	450887680	42	5761
2026-01-29 14:55:59.47	20.27	15.49	-34.3	-35.2	24.2	0.00e+00	122	29	0	454033408	42	5693
2026-01-29 14:56:00.48	20.26	15.60	-34.4	-35.3	24.2	0.00e+00	123	29	0	457179136	42	5777
2026-01-29 14:56:01.49	20.25	15.71	-34.4	-35.3	24.2	0.00e+00	123	29	0	460324864	42	5782
2026-01-29 14:56:02.50	20.25	15.82	-34.3	-35.2	24.3	0.00e+00	120	29	0	463470592	42	5666
2026-01-29 14:56:03.51	20.24	15.93	-34.5	-35.4	24.1	0.00e+00	122	29	0	466616320	42	5823
2026-01-29 14:56:04.52	20.23	16.04	-34.4	-35.3	24.2	0.00e+00	123	29	0	469762048	42	5758
2026-01-29 14:56:05.53	20.22	16.15	-34.5	-35.4	24.1	0.00e+00	122	29	0	472907776	42	5833
2026-01-29 14:56:06.54	20.21	16.27	-34.5	-35.4	24.2	0.00e+00	123	29	0	476053504	42	5828
2026-01-29 14:56:07.55	20.20	16.38	-34.6	-35.5	24.1	0.00e+00	123	29	0	479199232	42	5867
2026-01-29 14:56:08.56	20.20	16.49	-34.5	-35.5	24.1	0.00e+00	123	29	0	482344960	42	5865
2026-01-29 14:56:09.57	20.19	16.61	-34.6	-35.5	23.9	0.00e+00	120	29	0	485490688	42	5921
2026-01-29 14:56:10.58	20.18	16.72	-34.6	-35.5	24.0	0.00e+00	123	29	0	488636416	42	5914
2026-01-29 14:56:11.59	20.17	16.84	-34.6	-35.5	24.1	0.00e+00	120	29	0	491782144	42	5876
2026-01-29 14:56:12.60	20.16	16.95	-34.6	-35.5	24.1	0.00e+00	122	29	0	494927872	42	5873
2026-01-29 14:56:13.61	20.15	17.07	-34.7	-35.6	24.1	0.00e+00	120	29	0	498073600	42	5943
2026-01-29 14:56:14.62	20.14	17.19	-34.4	-35.3	24.2	0.00e+00	122	29	0	501219328	42	5779
2026-01-29 14:56:15.63	20.13	17.30	-34.6	-35.5	24.1	0.00e+00	121	29	0	504365056	42	5872
2026-01-29 14:56:16.64	20.12	17.42	-34.4	-35.3	24.2	0.00e+00	123	29	0	508559360	42	5758
2026-01-29 14:56:17.65	20.11	17.54	-34.6	-35.5	24.1	0.00e+00	120	29	0	510656512	42	5906
2026-01-29 14:56:18.66	20.10	17.66	-34.4	-35.3	24.2	0.00e+00	122	29	0	513802240	42	5773
2026-01-29 14:56:19.67	20.09	17.78	-34.4	-35.3	24.2	0.00e+00	120	29	0	516947968	42	5776
2026-01-29 14:56:20.68	20.09	17.90	-34.5	-35.4	24.2	0.00e+00	120	29	0	520093696	42	5847
2026-01-29 14:56:21.69	20.08	18.02	-34.5	-35.4	24.1	0.00e+00	123	29	0	524288000	42	5852
2026-01-29 14:56:22.70	20.07	18.14	-34.5	-35.4	24.1	0.00e+00	120	29	0	527433728	42	5835
2026-01-29 14:56:23.71	20.05	18.27	-34.5	-35.4	24.2	0.00e+00	123	29	0	530579456	42	5810
2026-01-29 14:56:24.72	20.04	18.39	-34.5	-35.4	24.1	0.00e+00	122	29	0	532676608	42	5844
2026-01-29 14:56:25.73	20.03	18.51	-34.5	-35.4	24.1	0.00e+00	123	29	0	535822336	42	5834
2026-01-29 14:56:26.74	20.02	18.64	-34.5	-35.4	24.1	0.00e+00	123	29	0	540016640	42	5820
2026-01-29 14:56:27.75	20.01	18.76	-34.5	-35.4	24.2	0.00e+00	122	29	0	543162368	42	5817
2026-01-29 14:56:28.76	20.00	18.89	-34.6	-35.5	24.1	0.00e+00	120	29	0	546308096	42	5874
2026-01-29 14:56:29.77	19.99	19.01	-34.4	-35.3	24.3	0.00e+00	122	29	0	549453824	42	5751
2026-01-29 14:56:30.78	19.98	19.14	-34.5	-35.4	24.3	0.00e+00	123	29	0	552599552	42	5804
2026-01-29 14:56:31.78	19.97	19.26	-34.4	-35.3	24.3	0.00e+00	123	29	0	555745280	42	5729
2026-01-29 14:56:32.79	19.96	19.39	-34.5	-35.4	24.1	0.00e+00	123	29	0	558891008	42	5845
2026-01-29 14:56:33.80	19.95	19.52	-34.4	-35.3	24.2	0.00e+00	123	29	0	562036736	42	5758
2026-01-29 14:56:34.81	19.93	19.65	-34.4	-35.3	24.2	0.00e+00	123	29	0	565182464	42	5756
2026-01-29 14:56:35.82	19.92	19.78	-34.4	-35.3	24.2	0.00e+00	123	29	0	568328192	42	5775
2026-01-29 14:56:36.83	19.91	19.91	-34.3	-35.2	24.3	0.00e+00	121	29	0	571473920	42	5696
2026-01-29 14:56:37.84	19.90	20.04	-34.3	-35.2	24.3	0.00e+00	123	29	0	574619648	42	5669
2026-01-29 14:56:38.85	19.89	20.17	-34.2	-35.1	24.4	0.00e+00	122	29	0	577765376	42	5624
2026-01-29 14:56:39.86	19.88	20.30	-34.2	-35.1	24.4	0.00e+00	122	29	0	580911104	42	5650
2026-01-29 14:56:40.86	19.86	20.44	-34.0	-34.9	24.5	0.00e+00	127	29	0	584056832	42	5519
2026-01-29 14:56:41.87	19.85	20.57	-34.2	-35.1	24.5	0.00e+00	123	29	0	587202560	42	5609
2026-01-29 14:56:42.88	19.84	20.71	-33.9	-34.8	24.7	0.00e+00	122	29	0	590348288	42	5446
2026-01-29 14:56:43.89	19.82	20.84	-34.0	-34.9	24.6	0.00e+00	123	29	0	593494016	42	5493
2026-01-29 14:56:44.90	19.81	20.98	-34.1	-35.0	24.6	0.00e+00	123	29	0	596639744	42	5540
2026-01-29 14:56:45.91	19.80	21.11	-34.0	-34.9	24.6	0.00e+00	121	29	0	599785472	42	5501
2026-01-29 14:56:46.92	19.79	21.25	-33.9	-34.8	24.7	0.00e+00	122	29	0	602931200	42	5449
2026-01-29 14:56:47.93	19.77	21.39	-33.9	-34.8	24.7	0.00e+00	123	29	0	606076928	42	5436
2026-01-29 14:56:48.94	19.76	21.53	-33.9	-34.7	24.7	0.00e+00	122	29	0	609222656	42	5404
2026-01-29 14:56:49.95	19.74	21.67	-33.6	-34.4	24.9	0.00e+00	120	29	0	612368384	40	5858
2026-01-29 14:56:50.96	19.73	21.81	-33.5	-34.4	25.0	0.00e+00	123	29	0	615514112	40	5797
2026-01-29 14:56:51.97	19.72	21.95	-33.5	-34.4	25.0	0.00e+00	120	29	0	618659840	40	5813
2026-01-29 14:56:52.98	19.70	22.09	-33.4	-34.2	25.2	0.00e+00	123	29	0	621805568	40	5704
2026-01-29 14:56:53.99	19.69	22.24	-33.3	-34.2	25.1	0.00e+00	123	29	0	624951296	40	5681
2026-01-29 14:56:55.00	19.67	22.38	-33.2	-34.0	25.2	0.00e+00	122	29	0	628097024	40	5589
2026-01-29 14:56:56.01	19.66	22.52	-33.2	-34.0	25.2	0.00e+00	122	29	0	631242752	40	5572
2026-01-29 14:56:57.03	19.64	22.67	-33.1	-33.9	25.3	0.00e+00	123	29	0	634388480	40	5525
2026-01-29 14:56:58.04	19.63	22.82	-33.0	-33.8	25.3	0.00e+00	123	29	0	637534208	40	5465
2026-01-29 14:56:59.05	19.61	22.97	-33.0	-33.9	25.4	0.00e+00	123	29	0	640679936	40	5497
2026-01-29 14:57:00.06	19.60	23.11	-32.9	-33.8	25.4	0.00e+00	122	29	0	643825664	40	5419
2026-01-29 14:57:01.07	19.58	23.26	-32.9	-33.8	25.5	0.00e+00	121	29	0	646971392	40	5411
2026-01-29 14:57:02.08	19.57	23.41	-32.8	-33.6	25.5	0.00e+00	123	29	0	650117120	40	5315
2026-01-29 14:57:03.09	19.55	23.56	-32.8	-33.6	25.4	0.00e+00	123	29	0	653262848	40	5331
2026-01-29 14:57:04.10	19.53	23.71	-32.7	-33.5	25.6	0.00e+00	123	29	0	656408576	38	5886
2026-01-29 14:57:05.11	19.52	23.87	-32.8	-33.6	25.5	0.00e+00	122	29	0	659554304	38	5975
2026-01-29 14:57:06.12	19.50	24.02	-32.6	-33.5	25.7	0.00e+00	122	29	0	662700032	38	5875
2026-01-29 14:57:07.13	19.48	24.17	-32.7	-33.6	25.5	0.00e+00	122	29	0	665845760	38	5955
2026-01-29 14:57:08.14	19.47	24.33	-32.8	-33.6	25.6	0.00e+00	120	29	0	668991488	38	5957
2026-01-29 14:57:09.15	19.45	24.48	-32.8	-33.6	25.5	0.00e+00	123	29	0	672137216	38	5983
2026-01-29 14:57:10.16	19.43	24.64	-32.8	-33.6	25.5	0.00e+00	120	29	0	675282944	38	5982
2026-01-29 14:57:11.17	19.41	24.80	-32.8	-33.7	25.5	0.00e+00	123	29	0	678428672	38	6007
2026-01-29 14:57:12.18	19.40	24.96	-32.9	-33.7	25.5	0.00e+00	122	29	0	681574400	38	6050
2026-01-29 14:57:13.18	19.38	25.12	-32.9	-33.8	25.4	0.00e+00	121	29	0	684720128	38	6083
2026-01-29 14:57:14.19	19.36	25.28	-33.0	-33.8	25.3	0.00e+00	121	29	0	687865856	38	6107
2026-01-29 14:57:15.20	19.34	25.44	-33.0	-33.9	25.3	0.00e+00	122	29	0	691011584	38	6152
2026-01-29 14:57:16.21	19.32	25.60	-33.2	-34.0	25.2	0.00e+00	123	29	0	694157312	38	6267
2026-01-29 14:57:17.22	19.30	25.77	-33.2	-34.1	25.1	0.00e+00	123	29	0	697303040	38	6301
2026-01-29 14:57:18.23	19.29	25.93	-33.4	-34.3	25.0	0.00e+00	123	29	0	700448768	38	6455
2026-01-29 14:57:19.24	19.27	26.10	-33.5	-34.4	24.9	0.00e+00	123	29	0	703594496	38	6509
2026-01-29 14:57:20.25	19.25	26.26	-33.6	-34.5	24.9	0.00e+00	120	29	0	706740224	38	6591
2026-01-29 14:57:21.26	19.23	26.43	-33.8	-34.7	24.8	0.00e+00	123	29	0	709885952	40	6011
2026-01-29 14:57:22.27	19.21	26.60	-33.9	-34.7	24.7	0.00e+00	123	29	0	713031680	40	6055
2026-01-29 14:57:23.28	19.18	26.77	-34.1	-35.0	24.5	0.00e+00	123	29	0	716177408	40	6231
2026-01-29 14:57:24.29	19.16	26.94	-34.1	-35.0	24.6	0.00e+00	122	29	0	719323136	40	6256
2026-01-29 14:57:25.30	19.14	27.11	-34.3	-35.2	24.4	0.00e+00	123	29	0	722468864	40	6407
2026-01-29 14:57:26.31	19.12	27.29	-34.2	-35.1	24.5	0.00e+00	123	29	0	725614592	40	6326
2026-01-29 14:57:27.32	19.10	27.46	-34.4	-35.3	24.3	0.00e+00	123	29	0	728760320	40	6491
2026-01-29 14:57:28.33	19.08	27.64	-34.4	-35.3	24.4	0.00e+00	123	29	0	731906048	40	6467
2026-01-29 14:57:29.34	19.06	27.81	-34.4	-35.3	24.3	0.00e+00	122	29	0	735051776	40	6493
2026-01-29 14:57:30.35	19.03	27.99	-34.7	-35.6	24.2	0.00e+00	120	29	0	738197504	40	6668
2026-01-29 14:57:31.36	19.01	28.17	-34.7	-35.6	24.1	0.00e+00	120	29	0	741343232	42	5974
2026-01-29 14:57:32.37	18.99	28.35	-34.8	-35.7	24.2	0.00e+00	123	29	0	744488960	42	6009
2026-01-29 14:57:33.38	18.96	28.53	-34.8	-35.7	24.2	0.00e+00	122	29	0	747634688	42	6048
2026-01-29 14:57:34.39	18.94	28.71	-35.0	-36.0	23.9	0.00e+00	122	29	0	750780416	42	6212
2026-01-29 14:57:35.40	18.92	28.90	-34.7	-35.6	24.2	0.00e+00	123	29	0	753926144	42	5990
2026-01-29 14:57:36.41	18.89	29.08	-34.8	-35.7	24.1	0.00e+00	123	29	0	757071872	42	5996
2026-01-29 14:57:37.42	18.87	29.27	-34.8	-35.7	24.1	0.00e+00	120	29	0	760217600	42	6029
2026-01-29 14:57:38.43	18.84	29.45	-34.7	-35.6	24.3	0.00e+00	122	29	0	763363328	42	5953
2026-01-29 14:57:39.44	18.82	29.64	-34.6	-35.5	24.3	0.00e+00	121	29	0	766509056	42	5878
2026-01-29 14:57:40.45	18.79	29.83	-34.5	-35.4	24.3	0.00e+00	122	29	0	769654784	42	5832
2026-01-29 14:57:41.46	18.77	30.02	-34.3	-35.1	24.6	0.00e+00	120	29	0	772800512	42	5657
2026-01-29 14:57:42.47	18.74	30.21	-34.2	-35.1	24.6	0.00e+00	123	29	0	775946240	42	5637
2026-01-29 14:57:43.48	18.71	30.41	-34.1	-35.0	24.7	0.00e+00	122	29	0	779091968	42	5532
2026-01-29 14:57:44.49	18.68	30.60	-34.0	-34.8	24.8	0.00e+00	122	29	0	782237696	42	5458
2026-01-29 14:57:45.50	18.66	30.80	-34.0	-34.8	24.8	0.00e+00	123	29	0	785383424	42	5459
2026-01-29 14:57:46.51	18.63	31.00	-33.9	-34.7	24.9	0.00e+00	123	29	0	788529152	42	5388
2026-01-29 14:57:47.52	18.60	31.19	-33.9	-34.7	24.8	0.00e+00	120	29	0	791674880	42	5394
2026-01-29 14:57:48.53	18.57	31.39	-33.8	-34.6	24.9	0.00e+00	123	29	0	794820608	42	5332
2026-01-29 14:57:49.54	18.54	31.60	-33.9	-34.7	24.9	0.00e+00	122	29	0	797966336	40	6042
2026-01-29 14:57:50.56	18.51	31.80	-33.8	-34.7	24.8	0.00e+00	123	29	0	801112064	40	6024
2026-01-29 14:57:51.56	18.48	32.00	-33.7	-34.6	24.9	0.00e+00	123	29	0	804257792	40	5973
2026-01-29 14:57:52.58	18.45	32.21	-33.8	-34.7	24.9	0.00e+00	120	29	0	807403520	40	6037
2026-01-29 14:57:53.58	18.42	32.42	-34.0	-34.8	24.8	0.00e+00	122	29	0	810549248	40	6111
2026-01-29 14:57:54.59	18.39	32.62	-34.1	-35.0	24.6	0.00e+00	121	29	0	813694976	40	6207
2026-01-29 14:57:55.60	18.36	32.83	-34.2	-35.0	24.5	0.00e+00	122	29	0	816840704	40	6270
2026-01-29 14:57:56.61	18.33	33.05	-34.2	-35.1	24.6	0.00e+00	120	29	0	819986432	40	6327
2026-01-29 14:57:57.62	18.29	33.26	-34.4	-35.3	24.4	0.00e+00	122	29	0	823132160	40	6482
2026-01-29 14:57:58.63	18.26	33.47	-34.6	-35.5	24.3	0.00e+00	123	29	0	826277888	40	6641
2026-01-29 14:57:59.64	18.23	33.69	-34.9	-35.8	24.0	0.00e+00	123	29	0	829423616	42	6101
2026-01-29 14:58:00.65	18.19	33.91	-35.2	-36.1	23.7	0.00e+00	122	29	0	832569344	42	6314
2026-01-29 14:58:01.66	18.16	34.13	-35.5	-36.4	23.5	0.00e+00	123	29	0	835715072	42	6573
2026-01-29 14:58:02.67	18.12	34.35	-35.7	-36.7	23.3	0.00e+00	123	29	0	838860800	42	6727
2026-01-29 14:58:03.68	18.09	34.57	-35.9	-36.9	23.1	0.00e+00	122	29	0	842006528	44	6168
2026-01-29 14:58:04.69	18.05	34.79	-36.0	-37.0	23.0	0.00e+00	122	29	0	846200832	44	6231
2026-01-29 14:58:05.70	18.01	35.02	-35.9	-36.9	23.1	0.00e+00	123	29	0	848297984	44	6152
2026-01-29 14:58:06.70	17.98	35.24	-35.9	-36.8	23.1	0.00e+00	123	29	0	851443712	44	6109
2026-01-29 14:58:07.71	17.94	35.47	-36.0	-36.9	23.1	0.00e+00	123	29	0	854589440	44	6196
2026-01-29 14:58:08.72	17.90	35.70	-35.9	-36.9	23.2	0.00e+00	123	29	0	857735168	44	6155
2026-01-29 14:58:09.73	17.86	35.93	-36.1	-37.1	23.1	0.00e+00	122	29	0	861929472	44	6281
2026-01-29 14:58:10.74	17.82	36.17	-36.2	-37.2	22.9	0.00e+00	122	29	0	865075200	44	6382
2026-01-29 14:58:11.75	17.78	36.40	-36.3	-37.3	22.8	0.00e+00	120	29	0	868220928	44	6452
2026-01-29 14:58:12.76	17.74	36.64	-36.2	-37.2	22.8	0.00e+00	123	29	0	871366656	44	6374
2026-01-29 14:58:13.77	17.70	36.88	-36.2	-37.2	22.8	0.00e+00	122	29	0	873463808	44	6357
2026-01-29 14:58:14.78	17.66	37.12	-36.1	-37.0	22.9	0.00e+00	123	29	0	876609536	44	6270
2026-01-29 14:58:15.79	17.61	37.36	-36.0	-36.9	22.9	0.00e+00	120	29	0	880803840	44	6167
2026-01-29 14:58:16.80	17.57	37.60	-36.2	-37.1	22.8	0.00e+00	127	29	0	883949568	44	6342
2026-01-29 14:58:17.81	17.53	37.85	-36.2	-37.2	22.6	0.00e+00	123	29	0	887095296	44	6398
2026-01-29 14:58:18.82	17.48	38.10	-36.4	-37.3	22.4	0.00e+00	123	29	0	890241024	44	6498
2026-01-29 14:58:19.83	17.43	38.34	-36.2	-37.2	22.5	0.00e+00	122	29	0	893386752	44	6419
2026-01-29 14:58:20.84	17.39	38.60	-36.5	-37.5	22.5	0.00e+00	123	29	0	896532480	44	6597
2026-01-29 14:58:21.85	17.34	38.85	-36.2	-37.2	22.7	0.00e+00	120	29	0	899678208	44	6404
2026-01-29 14:58:22.86	17.29	39.10	-36.2	-37.1	22.9	0.00e+00	123	29	0	902823936	44	6338
2026-01-29 14:58:23.87	17.24	39.36	-36.0	-37.0	23.1	0.00e+00	122	29	0	905969664	44	6245
2026-01-29 14:58:24.88	17.19	39.62	-36.3	-37.2	22.9	0.00e+00	123	29	0	909115392	44	6401
2026-01-29 14:58:25.89	17.14	39.88	-36.5	-37.4	22.8	0.00e+00	122	29	0	912261120	44	6571
2026-01-29 14:58:26.90	17.09	40.14	-36.4	-37.4	22.9	0.00e+00	123	29	0	915406848	44	6541
2026-01-29 14:58:27.91	17.04	40.41	-36.4	-37.4	22.9	0.00e+00	123	29	0	918552576	44	6507
2026-01-29 14:58:28.92	16.98	40.67	-36.2	-37.2	23.0	0.00e+00	122	29	0	921698304	44	6374
2026-01-29 14:58:29.93	16.93	40.94	-36.2	-37.1	23.0	0.00e+00	123	29	0	924844032	44	6335
2026-01-29 14:58:30.94	16.87	41.21	-36.1	-37.0	23.2	0.00e+00	123	29	0	927989760	44	6268
2026-01-29 14:58:31.95	16.82	41.48	-36.2	-37.1	23.0	0.00e+00	122	29	0	931135488	44	6340
2026-01-29 14:58:32.96	16.76	41.76	-36.3	-37.2	23.0	0.00e+00	122	29	0	934281216	44	6421
2026-01-29 14:58:33.97	16.70	42.03	-36.5	-37.5	22.8	0.00e+00	122	29	0	937426944	44	6607
2026-01-29 14:58:34.98	16.64	42.31	-36.7	-37.7	22.6	0.00e+00	120	29	0	940572672	44	6777
2026-01-29 14:58:35.99	16.58	42.59	-36.9	-37.9	22.4	0.00e+00	122	29	0	943718400	46	6197
2026-01-29 14:58:37.00	16.52	42.87	-37.0	-38.0	22.3	0.00e+00	122	29	0	946864128	46	6256
2026-01-29 14:58:38.01	16.45	43.16	-37.1	-38.1	22.3	0.00e+00	122	29	0	950009856	46	6322
2026-01-29 14:58:39.02	16.39	43.44	-37.1	-38.1	22.3	0.00e+00	122	29	0	953155584	46	6336
2026-01-29 14:58:40.03	16.32	43.73	-37.1	-38.1	22.3	0.00e+00	123	29	0	956301312	46	6296
2026-01-29 14:58:41.04	16.26	44.02	-37.1	-38.1	22.3	0.00e+00	123	29	0	959447040	46	6300
2026-01-29 14:58:42.06	16.19	44.32	-36.9	-37.9	22.5	0.00e+00	123	29	0	962592768	46	6147
2026-01-29 14:58:43.06	16.12	44.61	-36.9	-37.9	22.5	0.00e+00	123	29	0	965738496	46	6153
2026-01-29 14:58:44.07	16.05	44.91	-36.9	-37.9	22.4	0.00e+00	122	29	0	968884224	46	6148
2026-01-29 14:58:45.08	15.97	45.21	-37.1	-38.1	22.4	0.00e+00	122	29	0	972029952	46	6280
2026-01-29 14:58:46.09	15.90	45.51	-37.1	-38.1	22.2	0.00e+00	123	29	0	975175680	46	6329
2026-01-29 14:58:47.10	15.83	45.82	-37.1	-38.1	22.2	0.00e+00	123	29	0	978321408	46	6279
2026-01-29 14:58:48.11	15.75	46.12	-37.1	-38.2	22.2	0.00e+00	122	29	0	981467136	46	6352
2026-01-29 14:58:49.13	15.67	46.43	-37.0	-38.0	22.2	0.00e+00	122	29	0	984612864	46	6222
2026-01-29 14:58:50.14	15.59	46.74	-37.0	-38.1	22.2	0.00e+00	123	29	0	987758592	46	6296
2026-01-29 14:58:51.15	15.51	47.06	-36.9	-38.0	22.2	0.00e+00	123	29	0	990904320	46	6206
2026-01-29 14:58:52.16	15.42	47.37	-36.5	-37.5	22.6	0.00e+00	123	29	0	994050048	46	5918
2026-01-29 14:58:53.17	15.34	47.69	-36.7	-37.7	22.5	0.00e+00	123	29	0	997195776	46	6026
2026-01-29 14:58:54.18	15.25	48.01	-36.3	-37.3	22.9	0.00e+00	123	29	0	1000341504	46	5766
2026-01-29 14:58:55.19	15.16	48.33	-36.3	-37.2	23.0	0.00e+00	121	29	0	1003487232	46	5710
2026-01-29 14:58:56.20	15.07	48.66	-36.1	-37.0	23.1	0.00e+00	122	29	0	1006632960	46	5579
2026-01-29 14:58:57.21	14.98	48.98	-36.1	-37.1	22.9	0.00e+00	123	29	0	1009778688	46	5599
2026-01-29 14:58:58.22	14.88	49.31	-35.9	-36.9	23.0	0.00e+00	123	29	0	1012924416	46	5480
2026-01-29 14:58:59.23	14.78	49.65	-36.2	-37.2	22.8	0.00e+00	120	29	0	1016070144	46	5713
2026-01-29 14:59:00.24	14.68	49.98	-36.0	-37.0	23.1	0.00e+00	122	29	0	1019215872	46	5569
2026-01-29 14:59:01.25	14.58	50.32	-36.1	-37.1	23.1	0.00e+00	123	29	0	1022361600	46	5615
2026-01-29 14:59:02.26	14.48	50.66	-36.3	-37.2	23.1	0.00e+00	123	29	0	1025507328	46	5712
2026-01-29 14:59:03.27	14.37	51.00	-36.2	-37.2	23.1	0.00e+00	122	29	0	1028653056	46	5660
2026-01-29 14:59:04.28	14.26	51.34	-36.1	-37.0	23.1	0.00e+00	123	29	0	1031798784	46	5592
2026-01-29 14:59:05.29	14.15	51.69	-36.2	-37.2	22.9	0.00e+00	122	29	0	1034944512	46	5669
2026-01-29 14:59:06.30	14.04	52.03	-36.0	-36.9	23.0	0.00e+00	123	29	0	1038090240	46	5524
2026-01-29 14:59:07.31	13.92	52.39	-35.6	-36.6	23.3	0.00e+00	122	29	0	1041235968	44	5941
2026-01-29 14:59:08.32	13.80	52.74	-35.6	-36.6	23.3	0.00e+00	122	29	0	1044381696	44	5945
2026-01-29 14:59:09.33	13.67	53.09	-35.8	-36.8	23.2	0.00e+00	122	29	0	1047527424	44	6075
2026-01-29 14:59:10.34	13.55	53.45	-35.6	-36.6	23.5	0.00e+00	120	29	0	1050673152	44	5927
2026-01-29 14:59:11.35	13.42	53.81	-35.2	-36.2	23.7	0.00e+00	122	29	0	1053818880	44	5667
2026-01-29 14:59:12.36	13.28	54.18	-34.6	-35.5	24.1	0.00e+00	122	29	0	1056964608	42	5880
2026-01-29 14:59:13.37	13.15	54.54	-34.5	-35.4	24.3	0.00e+00	122	29	0	1060110336	42	5825
2026-01-29 14:59:14.38	13.01	54.91	-34.2	-35.1	24.4	0.00e+00	122	29	0	1063256064	42	5648
2026-01-29 14:59:15.39	12.86	55.28	-34.0	-34.9	24.6	0.00e+00	122	29	0	1066401792	42	5486
2026-01-29 14:59:16.40	12.71	55.65	-34.1	-34.9	24.6	0.00e+00	122	29	0	1069547520	42	5528
2026-01-29 14:59:17.40	12.56	56.02	-33.9	-34.8	24.8	0.00e+00	123	29	0	1072693248	42	5436
2026-01-29 14:59:18.41	12.41	56.40	-33.8	-34.7	24.9	0.00e+00	123	29	0	1075838976	42	5375
2026-01-29 14:59:19.42	12.24	56.78	-33.7	-34.6	25.0	0.00e+00	123	29	0	1078984704	40	5964
2026-01-29 14:59:20.43	12.08	57.16	-33.5	-34.4	25.0	0.00e+00	122	29	0	1082130432	40	5813
2026-01-29 14:59:21.44	11.91	57.55	-33.5	-34.3	25.2	0.00e+00	123	29	0	1085276160	40	5767
2026-01-29 14:59:22.45	11.73	57.93	-33.3	-34.1	25.3	0.00e+00	123	29	0	1088421888	40	5656
2026-01-29 14:59:23.46	11.55	58.32	-33.2	-34.1	25.3	0.00e+00	123	29	0	1091567616	40	5608
2026-01-29 14:59:24.47	11.37	58.71	-33.1	-33.9	25.3	0.00e+00	123	29	0	1094713344	40	5524
2026-01-29 14:59:25.48	11.17	59.11	-33.1	-34.0	25.1	0.00e+00	120	29	0	1097859072	40	5552
2026-01-29 14:59:26.49	10.98	59.50	-33.4	-34.3	25.0	0.00e+00	123	29	0	1101004800	40	5759
2026-01-29 14:59:27.50	10.77	59.90	-33.3	-34.2	25.2	0.00e+00	123	29	0	1104150528	40	5684
2026-01-29 14:59:28.51	10.56	60.30	-33.4	-34.2	25.1	0.00e+00	122	29	0	1107296256	40	5705
2026-01-29 14:59:29.52	10.34	60.70	-33.4	-34.3	25.1	0.00e+00	122	29	0	1110441984	40	5751
2026-01-29 14:59:30.53	10.12	61.11	-33.5	-34.4	25.0	0.00e+00	122	29	0	1113587712	40	5824
2026-01-29 14:59:31.54	9.89	61.51	-33.1	-33.9	25.1	0.00e+00	122	29	0	1116733440	40	5503
2026-01-29 14:59:32.55	9.65	61.92	-33.0	-33.9	25.1	0.00e+00	122	29	0	1119879168	40	5475
2026-01-29 14:59:33.56	9.40	62.33	-33.0	-33.9	25.1	0.00e+00	120	29	0	1123024896	40	5509
2026-01-29 14:59:34.57	9.14	62.75	-32.9	-33.7	25.5	0.00e+00	122	29	0	1126170624	40	5380
2026-01-29 14:59:35.58	8.87	63.16	-32.7	-33.5	25.5	0.00e+00	123	29	0	1129316352	38	5912
2026-01-29 14:59:36.59	8.60	63.58	-32.5	-33.4	25.4	0.00e+00	122	29	0	1132462080	38	5793
2026-01-29 14:59:37.60	8.31	64.00	-32.6	-33.4	25.4	0.00e+00	122	29	0	1135607808	38	5854
2026-01-29 14:59:38.61	8.01	64.42	-32.5	-33.3	25.6	0.00e+00	123	29	0	1138753536	38	5748
2026-01-29 14:59:39.62	7.71	64.84	-32.5	-33.3	25.8	0.00e+00	122	29	0	1141899264	38	5767
2026-01-29 14:59:40.63	7.39	65.26	-32.4	-33.2	25.9	0.00e+00	122	29	0	1145044992	38	5710
2026-01-29 14:59:41.64	7.05	65.69	-32.4	-33.3	25.7	0.00e+00	120	29	0	1148190720	38	5726
2026-01-29 14:59:42.65	6.71	66.12	-32.2	-33.0	26.0	0.00e+00	122	29	0	1151336448	38	5578
2026-01-29 14:59:43.66	6.35	66.54	-32.3	-33.1	25.9	0.00e+00	122	29	0	1154482176	38	5650
2026-01-29 14:59:44.67	5.97	66.97	-32.2	-33.0	25.9	0.00e+00	123	29	0	1157627904	38	5592
2026-01-29 14:59:45.68	5.58	67.41	-32.3	-33.1	25.9	0.00e+00	121	29	0	1161822208	38	5643
2026-01-29 14:59:46.70	5.17	67.84	-32.2	-33.0	26.0	0.00e+00	122	29	0	1164967936	38	5552
2026-01-29 14:59:47.70	4.75	68.27	-32.2	-33.0	26.1	0.00e+00	120	29	0	1167065088	38	5552
2026-01-29 14:59:48.71	4.30	68.70	-32.4	-33.3	25.8	0.00e+00	123	29	0	1170210816	38	5730
2026-01-29 14:59:49.73	3.83	69.14	-32.8	-33.7	25.5	0.00e+00	123	29	0	1173356544	38	5997
2026-01-29 14:59:50.73	3.35	69.58	-33.2	-34.0	25.3	0.00e+00	120	29	0	1177550848	38	6248
2026-01-29 14:59:51.75	2.84	70.02	-33.2	-34.1	25.3	0.00e+00	122	29	0	1180696576	38	6320
2026-01-29 14:59:52.76	2.30	70.45	-33.1	-34.0	25.3	0.00e+00	123	29	0	1183842304	38	6252
2026-01-29 14:59:53.77	1.74	70.89	-33.4	-34.3	25.2	0.00e+00	123	29	0	1186988032	38	6454
2026-01-29 14:59:54.78	1.15	71.33	-33.1	-33.9	25.4	0.00e+00	123	29	0	1189085184	38	6185
2026-01-29 14:59:55.79	0.54	71.76	-33.2	-34.1	25.3	0.00e+00	123	29	0	1193279488	38	6312
2026-01-29 14:59:56.80	359.88	72.20	-33.0	-33.9	25.5	0.00e+00	120	29	0	1196425216	38	6152
2026-01-29 14:59:57.80	359.21	72.63	-32.7	-33.5	25.5	0.00e+00	120	29	0	1199570944	38	5902
2026-01-29 14:59:58.81	358.48	73.07	-32.8	-33.6	25.5	0.00e+00	123	29	0	1202716672	38	5981
2026-01-29 14:59:59.82	357.72	73.50	-32.8	-33.6	25.6	0.00e+00	120	29	0	1205862400	38	5957
2026-01-29 15:00:00.83	356.91	73.93	-32.9	-33.7	25.4	0.00e+00	123	29	0	1209008128	38	6057
2026-01-29 15:00:01.84	356.06	74.37	-32.9	-33.8	25.2	0.00e+00	123	29	0	1212153856	38	6103
2026-01-29 15:00:02.85	355.16	74.79	-33.0	-33.8	25.2	0.00e+00	122	29	0	1215299584	38	6131
2026-01-29 15:00:03.86	354.20	75.22	-32.9	-33.8	25.3	0.00e+00	123	29	0	1218445312	38	6088
2026-01-29 15:00:04.87	353.18	75.65	-32.8	-33.7	24.9	0.00e+00	123	29	0	1221591040	38	6023
2026-01-29 15:00:05.88	352.10	76.07	-32.6	-33.5	25.2	0.00e+00	123	29	0	1224736768	38	5906
2026-01-29 15:00:06.89	350.94	76.48	-32.3	-33.1	25.3	0.00e+00	120	29	0	1227882496	38	5659
2026-01-29 15:00:07.90	349.72	76.89	-32.7	-33.5	25.2	0.00e+00	122	29	0	1231028224	38	5920
2026-01-29 15:00:08.91	348.41	77.30	-32.9	-33.8	25.2	0.00e+00	123	29	0	1234173952	38	6077
2026-01-29 15:00:09.92	347.01	77.70	-33.1	-33.9	25.0	0.00e+00	122	29	0	1237319680	38	6199
2026-01-29 15:00:10.93	345.52	78.10	-33.0	-33.9	25.2	0.00e+00	122	29	0	1240465408	38	6139
2026-01-29 15:00:11.94	343.92	78.48	-32.8	-33.7	25.4	0.00e+00	120	29	0	1243611136	38	6005
2026-01-29 15:00:12.95	342.21	78.86	-32.7	-33.6	25.6	0.00e+00	122	29	0	1246756864	38	5956
2026-01-29 15:00:13.96	340.37	79.23	-33.0	-33.8	25.3	0.00e+00	123	29	0	1249902592	38	6097
2026-01-29 15:00:14.97	338.41	79.59	-33.3	-34.1	25.2	0.00e+00	120	29	0	1253048320	38	6322
2026-01-29 15:00:15.98	336.31	79.93	-33.1	-34.0	25.3	0.00e+00	122	29	0	1256194048	38	6250
2026-01-29 15:00:16.99	334.05	80.26	-32.8	-33.7	25.6	0.00e+00	123	29	0	1259339776	38	5998
2026-01-29 15:00:18.00	331.64	80.58	-32.6	-33.4	25.7	0.00e+00	123	29	0	1262485504	38	5818
2026-01-29 15:00:19.01	329.07	80.88	-32.8	-33.7	25.5	0.00e+00	120	29	0	1265631232	38	6006
2026-01-29 15:00:20.02	326.32	81.16	-33.0	-33.9	25.2	0.00e+00	122	29	0	1268776960	38	6156
2026-01-29 15:00:21.03	323.40	81.42	-33.2	-34.0	25.0	0.00e+00	120	29	0	1271922688	38	6273
2026-01-29 15:00:22.04	320.30	81.66	-33.2	-34.1	25.2	0.00e+00	122	29	0	1275068416	38	6284
2026-01-29 15:00:23.05	317.02	81.87	-33.3	-34.2	24.9	0.00e+00	123	29	0	1278214144	38	6367
2026-01-29 15:00:24.06	313.59	82.05	-33.4	-34.3	24.7	0.00e+00	122	29	0	1281359872	38	6481
2026-01-29 15:00:25.07	310.00	82.20	-33.3	-34.1	25.1	0.00e+00	122	29	0	1284505600	38	6338
2026-01-29 15:00:26.08	306.28	82.32	-33.1	-34.0	25.4	0.00e+00	122	29	0	1287651328	38	6218
2026-01-29 15:00:27.09	302.46	82.41	-33.3	-34.2	25.2	0.00e+00	122	29	0	1290797056	38	6371
2026-01-29 15:00:28.10	298.56	82.47	-33.3	-34.2	25.1	0.00e+00	123	29	0	1293942784	38	6417
2026-01-29 15:00:29.11	294.63	82.49	-33.3	-34.2	25.2	0.00e+00	122	29	0	1297088512	38	6376
2026-01-29 15:00:30.12	290.69	82.47	-33.0	-33.9	25.5	0.00e+00	120	29	0	1300234240	38	6164
2026-01-29 15:00:31.13	286.79	82.42	-33.1	-33.9	25.4	0.00e+00	122	29	0	1303379968	38	6183
2026-01-29 15:00:32.14	282.95	82.34	-33.4	-34.3	25.0	0.00e+00	122	29	0	1306525696	38	6467
2026-01-29 15:00:33.15	279.22	82.22	-33.8	-34.7	24.8	0.00e+00	122	29	0	1309671424	38	6778
2026-01-29 15:00:34.16	275.61	82.07	-33.7	-34.5	24.9	0.00e+00	122	29	0	1312817152	40	5918
2026-01-29 15:00:35.17	272.15	81.89	-33.5	-34.4	24.8	0.00e+00	120	29	0	1315962880	40	5817
2026-01-29 15:00:36.18	268.86	81.68	-33.7	-34.6	24.9	0.00e+00	122	29	0	1319108608	40	5974
2026-01-29 15:00:37.19	265.74	81.45	-33.6	-34.5	25.1	0.00e+00	123	29	0	1322254336	40	5893
2026-01-29 15:00:38.20	262.79	81.19	-33.3	-34.1	25.2	0.00e+00	123	29	0	1325400064	40	5641
2026-01-29 15:00:39.21	260.02	80.92	-33.4	-34.2	24.7	0.00e+00	123	29	0	1328545792	40	5705
2026-01-29 15:00:40.22	257.42	80.62	-32.9	-33.8	24.9	0.00e+00	123	29	0	1331691520	40	5430
2026-01-29 15:00:41.23	254.98	80.31	-33.2	-34.1	25.0	0.00e+00	123	29	0	1334837248	40	5651
2026-01-29 15:00:42.24	252.71	79.98	-33.3	-34.2	25.2	0.00e+00	122	29	0	1337982976	40	5672
2026-01-29 15:00:43.25	250.59	79.63	-33.5	-34.4	24.8	0.00e+00	120	29	0	1341128704	40	5822
2026-01-29 15:00:44.26	248.60	79.27	-34.0	-35.0	24.5	0.00e+00	122	29	0	1344274432	40	6209
2026-01-29 15:00:45.27	246.75	78.91	-33.7	-34.6	24.8	0.00e+00	123	29	0	1347420160	40	5961
2026-01-29 15:00:46.28	245.03	78.53	-33.4	-34.3	24.9	0.00e+00	122	29	0	1350565888	40	5760
2026-01-29 15:00:47.29	243.41	78.14	-33.2	-34.1	25.2	0.00e+00	123	29	0	1353711616	40	5629
2026-01-29 15:00:48.30	241.91	77.75	-33.0	-33.8	25.4	0.00e+00	120	29	0	1356857344	40	5439
2026-01-29 15:00:49.31	240.50	77.35	-32.6	-33.4	25.9	0.00e+00	122	29	0	1360003072	38	5856
2026-01-29 15:00:50.32	239.17	76.94	-32.3	-33.1	26.0	0.00e+00	120	29	0	1363148800	38	5623
2026-01-29 15:00:51.33	237.94	76.53	-32.4	-33.3	25.7	0.00e+00	123	29	0	1366294528	38	5745
2026-01-29 15:00:52.34	236.78	76.11	-32.8	-33.6	25.6	0.00e+00	123	29	0	1369440256	38	5973
2026-01-29 15:00:53.35	235.68	75.69	-32.6	-33.4	25.5	0.00e+00	123	29	0	1372585984	38	5833
2026-01-29 15:00:54.36	234.66	75.27	-32.5	-33.4	25.5	0.00e+00	123	29	0	1375731712	38	5820
2026-01-29 15:00:55.37	233.69	74.84	-32.7	-33.6	25.6	0.00e+00	121	29	0	1378877440	38	5942
2026-01-29 15:00:56.38	232.78	74.41	-33.0	-33.9	25.4	0.00e+00	123	29	0	1382023168	38	6185
2026-01-29 15:00:57.38	231.93	73.99	-32.8	-33.6	25.3	0.00e+00	122	29	0	1385168896	38	5961
2026-01-29 15:00:58.39	231.11	73.55	-32.8	-33.7	24.8	0.00e+00	122	29	0	1388314624	38	6012
2026-01-29 15:00:59.40	230.34	73.12	-32.5	-33.3	25.3	0.00e+00	123	29	0	1391460352	38	5765
2026-01-29 15:01:00.41	229.62	72.68	-32.2	-33.0	25.5	0.00e+00	122	29	0	1394606080	38	5570
2026-01-29 15:01:01.42	228.93	72.25	-31.9	-32.7	25.8	0.00e+00	122	29	0	1397751808	38	5370
2026-01-29 15:01:02.43	228.27	71.81	-31.9	-32.8	25.8	0.00e+00	123	29	0	1400897536	36	6075
2026-01-29 15:01:03.44	227.65	71.37	-32.5	-33.3	25.7	0.00e+00	122	29	0	1404043264	36	6481
2026-01-29 15:01:04.45	227.05	70.93	-33.3	-34.2	24.6	0.00e+00	123	29	0	1407188992	38	6370
2026-01-29 15:01:05.46	226.49	70.49	-33.5	-34.5	24.4	0.00e+00	123	29	0	1410334720	38	6586
2026-01-29 15:01:06.47	225.95	70.06	-32.8	-33.6	24.9	0.00e+00	122	29	0	1413480448	38	5974
2026-01-29 15:01:07.48	225.44	69.62	-32.6	-33.4	25.5	0.00e+00	123	29	0	1416626176	38	5831
2026-01-29 15:01:08.49	224.95	69.18	-32.4	-33.3	25.7	0.00e+00	123	29	0	1419771904	38	5740
2026-01-29 15:01:09.50	224.48	68.75	-33.1	-34.0	25.2	0.00e+00	122	29	0	1422917632	38	6255
2026-01-29 15:01:10.50	224.04	68.32	-34.1	-35.0	24.6	0.00e+00	122	29	0	1426063360	40	6256
2026-01-29 15:01:11.51	223.61	67.88	-34.4	-35.4	24.4	0.00e+00	122	29	0	1429209088	40	6528
2026-01-29 15:01:12.53	223.20	67.44	-34.2	-35.1	24.5	0.00e+00	123	29	0	1432354816	40	6295
2026-01-29 15:01:13.54	222.80	67.01	-33.4	-34.3	25.0	0.00e+00	123	29	0	1435500544	40	5758
2026-01-29 15:01:14.55	222.42	66.58	-32.9	-33.7	25.5	0.00e+00	122	29	0	1438646272	40	5377
2026-01-29 15:01:15.56	222.06	66.15	-31.9	-32.7	26.1	0.00e+00	123	29	0	1441792000	38	5397
2026-01-29 15:01:16.56	221.72	65.73	-31.4	-32.2	26.0	0.00e+00	123	29	0	1444937728	36	5697
2026-01-29 15:01:17.57	221.38	65.30	-31.6	-32.5	25.9	0.00e+00	120	29	0	1448083456	36	5866
2026-01-29 15:01:18.58	221.06	64.88	-32.2	-33.0	26.1	0.00e+00	122	29	0	1451229184	36	6236
2026-01-29 15:01:19.59	220.75	64.45	-32.5	-33.3	25.7	0.00e+00	120	29	0	1454374912	36	6476
2026-01-29 15:01:20.60	220.45	64.03	-32.7	-33.5	25.1	0.00e+00	122	29	0	1457520640	36	6642
2026-01-29 15:01:21.61	220.16	63.61	-32.6	-33.5	25.4	0.00e+00	122	29	0	1460666368	36	6606
2026-01-29 15:01:22.62	219.89	63.19	-32.5	-33.3	25.6	0.00e+00	123	29	0	1463812096	36	6447
2026-01-29 15:01:23.62	219.62	62.78	-32.1	-32.9	26.0	0.00e+00	120	29	0	1466957824	36	6184
2026-01-29 15:01:24.63	219.36	62.37	-32.4	-33.2	25.8	0.00e+00	122	29	0	1470103552	36	6373
2026-01-29 15:01:25.65	219.11	61.95	-33.7	-34.5	25.1	0.00e+00	122	29	0	1473249280	38	6630
2026-01-29 15:01:26.65	218.87	61.54	-34.5	-35.5	24.4	0.00e+00	120	29	0	1476395008	40	6576
2026-01-29 15:01:27.66	218.64	61.14	-34.5	-35.5	24.0	0.00e+00	122	29	0	1479540736	40	6598
2026-01-29 15:01:28.67	218.41	60.73	-33.8	-34.7	24.3	0.00e+00	122	29	0	1482686464	40	6048
2026-01-29 15:01:29.69	218.19	60.32	-33.4	-34.3	24.8	0.00e+00	122	29	0	1485832192	40	5741
2026-01-29 15:01:30.70	217.98	59.92	-33.1	-33.9	25.2	0.00e+00	122	29	0	1488977920	40	5521
2026-01-29 15:01:31.70	217.77	59.53	-32.6	-33.4	25.7	0.00e+00	123	29	0	1492123648	38	5840
2026-01-29 15:01:32.71	217.57	59.13	-32.6	-33.4	25.7	0.00e+00	122	29	0	1495269376	38	5837
2026-01-29 15:01:33.72	217.38	58.73	-32.7	-33.5	25.6	0.00e+00	123	29	0	1498415104	38	5906
2026-01-29 15:01:34.73	217.19	58.34	-33.6	-34.4	25.1	0.00e+00	122	29	0	1501560832	38	6573
2026-01-29 15:01:35.74	217.01	57.95	-34.6	-35.5	24.3	0.00e+00	123	29	0	1505755136	40	6608
2026-01-29 15:01:36.75	216.83	57.56	-35.1	-36.0	24.0	0.00e+00	123	29	0	1507852288	42	6275
2026-01-29 15:01:37.76	216.66	57.18	-35.0	-35.9	24.0	0.00e+00	120	29	0	1510998016	42	6192
2026-01-29 15:01:38.77	216.50	56.79	-34.6	-35.5	24.1	0.00e+00	122	29	0	1514143744	42	5919
2026-01-29 15:01:39.78	216.33	56.41	-34.0	-34.8	24.8	0.00e+00	122	29	0	1518338048	42	5459
2026-01-29 15:01:40.79	216.18	56.03	-33.5	-34.3	25.2	0.00e+00	122	29	0	1521483776	40	5755
2026-01-29 15:01:41.80	216.02	55.66	-33.5	-34.4	25.0	0.00e+00	122	29	0	1524629504	40	5830
2026-01-29 15:01:42.81	215.87	55.28	-34.1	-34.9	24.4	0.00e+00	120	29	0	1527775232	40	6196
2026-01-29 15:01:43.82	215.73	54.91	-34.7	-35.6	23.9	0.00e+00	123	29	0	1529872384	40	6725
2026-01-29 15:01:44.83	215.59	54.54	-35.2	-36.2	23.4	0.00e+00	122	29	0	1533018112	42	6377
2026-01-29 15:01:45.84	215.45	54.18	-36.0	-37.0	23.1	0.00e+00	120	29	0	1537212416	44	6235
2026-01-29 15:01:46.85	215.32	53.81	-36.4	-37.4	22.8	0.00e+00	122	29	0	1540358144	44	6543
2026-01-29 15:01:47.86	215.19	53.45	-36.5	-37.5	22.7	0.00e+00	123	29	0	1543503872	44	6642
2026-01-29 15:01:48.87	215.06	53.09	-36.1	-37.1	22.9	0.00e+00	123	29	0	1546649600	44	6326
2026-01-29 15:01:49.88	214.93	52.73	-35.6	-36.6	23.3	0.00e+00	122	29	0	1549795328	44	5949
2026-01-29 15:01:50.89	214.81	52.38	-35.1	-36.0	23.7	0.00e+00	120	29	0	1552941056	44	5538
2026-01-29 15:01:51.90	214.69	52.03	-34.9	-35.8	24.0	0.00e+00	123	29	0	1556086784	44	5421
2026-01-29 15:01:52.91	214.58	51.68	-35.3	-36.3	23.8	0.00e+00	123	29	0	1559232512	44	5741
2026-01-29 15:01:53.92	214.47	51.33	-35.4	-36.3	23.8	0.00e+00	122	29	0	1562378240	44	5730
2026-01-29 15:01:54.93	214.36	50.98	-35.3	-36.2	23.8	0.00e+00	123	29	0	1565523968	44	5724
2026-01-29 15:01:55.94	214.25	50.64	-35.3	-36.2	23.9	0.00e+00	124	29	0	1568669696	44	5715
2026-01-29 15:01:56.95	214.14	50.30	-35.4	-36.3	23.6	0.00e+00	123	29	0	1571815424	44	5740
2026-01-29 15:01:57.96	214.04	49.96	-35.7	-36.7	23.2	0.00e+00	122	29	0	1574961152	44	6000
2026-01-29 15:01:58.97	213.94	49.63	-36.4	-37.3	22.8	0.00e+00	120	29	0	1578106880	44	6498
2026-01-29 15:01:59.98	213.84	49.29	-36.9	-37.9	22.4	0.00e+00	120	29	0	1581252608	46	6167
2026-01-29 15:02:00.99	213.75	48.96	-37.1	-38.1	22.3	0.00e+00	123	29	0	1584398336	46	6293
2026-01-29 15:02:02.00	213.65	48.63	-36.9	-37.9	22.1	0.00e+00	123	29	0	1587544064	46	6182
2026-01-29 15:02:03.01	213.56	48.31	-36.7	-37.7	22.2	0.00e+00	122	29	0	1590689792	46	6023
2026-01-29 15:02:04.02	213.47	47.99	-36.4	-37.4	22.5	0.00e+00	122	29	0	1593835520	46	5821
2026-01-29 15:02:05.03	213.38	47.66	-36.0	-37.0	22.8	0.00e+00	123	29	0	1596981248	46	5544
2026-01-29 15:02:06.03	213.30	47.35	-35.9	-36.8	23.2	0.00e+00	123	29	0	1600126976	46	5444
2026-01-29 15:02:07.05	213.21	47.03	-35.9	-36.8	23.2	0.00e+00	123	29	0	1603272704	46	5465
2026-01-29 15:02:08.06	213.13	46.71	-36.2	-37.1	23.0	0.00e+00	122	29	0	1606418432	46	5645
2026-01-29 15:02:09.06	213.05	46.40	-36.6	-37.6	22.6	0.00e+00	122	29	0	1609564160	46	5972
2026-01-29 15:02:10.07	212.97	46.09	-37.2	-38.3	21.9	0.00e+00	122	29	0	1612709888	46	6440
2026-01-29 15:02:11.08	212.90	45.79	-37.5	-38.6	21.6	0.00e+00	122	29	0	1615855616	46	6693
2026-01-29 15:02:12.09	212.82	45.48	-37.4	-38.5	21.9	0.00e+00	122	29	0	1619001344	46	6576
2026-01-29 15:02:13.10	212.75	45.18	-37.1	-38.1	22.2	0.00e+00	120	29	0	1622147072	46	6331
2026-01-29 15:02:14.11	212.67	44.88	-37.0	-38.0	22.4	0.00e+00	123	29	0	1625292800	46	6220
2026-01-29 15:02:15.12	212.60	44.58	-36.9	-37.9	22.4	0.00e+00	122	29	0	1628438528	46	6167
2026-01-29 15:02:16.13	212.53	44.28	-36.7	-37.7	22.7	0.00e+00	122	29	0	1631584256	46	6027
2026-01-29 15:02:17.14	212.46	43.99	-36.8	-37.7	22.6	0.00e+00	123	29	0	1634729984	46	6062
2026-01-29 15:02:18.15	212.39	43.70	-37.1	-38.1	22.0	0.00e+00	123	29	0	1637875712	46	6314
2026-01-29 15:02:19.16	212.33	43.41	-37.5	-38.7	21.2	0.00e+00	123	29	0	1641021440	46	6740
2026-01-29 15:02:20.17	212.26	43.12	-37.9	-39.1	21.0	0.00e+00	122	29	0	1644167168	48	6288
2026-01-29 15:02:21.18	212.20	42.83	-37.7	-38.8	21.7	0.00e+00	120	29	0	1647312896	48	6099
2026-01-29 15:02:22.19	212.14	42.55	-37.1	-38.1	22.3	0.00e+00	122	29	0	1650458624	48	5614
2026-01-29 15:02:23.20	212.08	42.27	-37.0	-38.1	22.4	0.00e+00	122	29	0	1653604352	48	5599
2026-01-29 15:02:24.21	212.02	41.99	-36.9	-37.9	22.4	0.00e+00	122	29	0	1656750080	48	5470
2026-01-29 15:02:25.22	211.96	41.71	-36.1	-37.0	23.2	0.00e+00	123	29	0	1659895808	46	5576
2026-01-29 15:02:26.23	211.90	41.43	-35.9	-36.8	23.4	0.00e+00	122	29	0	1663041536	46	5426
2026-01-29 15:02:27.24	211.84	41.16	-36.3	-37.2	23.0	0.00e+00	123	29	0	1666187264	46	5716
2026-01-29 15:02:28.25	211.79	40.89	-36.1	-37.0	23.0	0.00e+00	123	29	0	1669332992	46	5594
2026-01-29 15:02:29.26	211.73	40.62	-36.3	-37.3	22.7	0.00e+00	123	29	0	1672478720	46	5780
2026-01-29 15:02:30.26	211.68	40.36	-36.5	-37.5	22.7	0.00e+00	123	29	0	1675624448	46	5868
2026-01-29 15:02:31.27	211.62	40.09	-36.5	-37.5	22.7	0.00e+00	122	29	0	1678770176	46	5871
2026-01-29 15:02:32.28	211.57	39.83	-36.6	-37.6	22.6	0.00e+00	123	29	0	1681915904	46	5928
2026-01-29 15:02:33.29	211.52	39.56	-36.5	-37.5	22.8	0.00e+00	123	29	0	1685061632	46	5864
2026-01-29 15:02:34.30	211.47	39.31	-36.6	-37.6	22.7	0.00e+00	123	29	0	1688207360	46	5944
2026-01-29 15:02:35.31	211.42	39.05	-36.7	-37.7	22.6	0.00e+00	123	29	0	1691353088	46	6030
2026-01-29 15:02:36.32	211.37	38.79	-36.9	-37.9	22.5	0.00e+00	123	29	0	1694498816	46	6177
2026-01-29 15:02:37.33	211.32	38.54	-36.9	-37.9	22.3	0.00e+00	123	29	0	1697644544	46	6181
2026-01-29 15:02:38.34	211.28	38.29	-36.6	-37.7	22.4	0.00e+00	120	29	0	1700790272	46	6003
2026-01-29 15:02:39.35	211.23	38.04	-36.3	-37.3	22.8	0.00e+00	122	29	0	1703936000	46	5749
2026-01-29 15:02:40.36	211.18	37.79	-36.3	-37.3	22.9	0.00e+00	120	29	0	1707081728	46	5776
2026-01-29 15:02:41.37	211.14	37.54	-36.0	-37.0	23.3	0.00e+00	123	29	0	1710227456	46	5531
2026-01-29 15:02:42.38	211.09	37.30	-35.8	-36.7	23.5	0.00e+00	122	29	0	1713373184	46	5398
2026-01-29 15:02:43.39	211.05	37.05	-35.8	-36.8	23.3	0.00e+00	121	29	0	1716518912	44	6089
2026-01-29 15:02:44.40	211.01	36.81	-35.6	-36.5	23.5	0.00e+00	123	29	0	1719664640	44	5910
2026-01-29 15:02:45.41	210.97	36.57	-35.5	-36.4	23.5	0.00e+00	123	29	0	1722810368	44	5837
2026-01-29 15:02:46.42	210.92	36.33	-35.5	-36.5	23.4	0.00e+00	123	29	0	1725956096	44	5897
2026-01-29 15:02:47.43	210.88	36.10	-35.7	-36.6	23.4	0.00e+00	122	29	0	1729101824	44	5983
2026-01-29 15:02:48.44	210.84	35.86	-35.9	-36.8	23.3	0.00e+00	122	29	0	1732247552	44	6111
2026-01-29 15:02:49.45	210.80	35.63	-35.7	-36.6	23.6	0.00e+00	120	29	0	1735393280	44	5985
2026-01-29 15:02:50.46	210.76	35.40	-35.4	-36.4	23.7	0.00e+00	123	29	0	1738539008	44	5820
2026-01-29 15:02:51.47	210.73	35.17	-35.5	-36.4	23.6	0.00e+00	122	29	0	1741684736	44	5858
2026-01-29 15:02:52.48	210.69	34.94	-35.3	-36.2	23.8	0.00e+00	122	29	0	1744830464	44	5681
2026-01-29 15:02:53.49	210.65	34.72	-35.1	-36.0	23.9	0.00e+00	122	29	0	1747976192	44	5589
2026-01-29 15:02:54.50	210.61	34.49	-35.0	-35.9	24.0	0.00e+00	122	29	0	1751121920	44	5509
2026-01-29 15:02:55.51	210.58	34.27	-35.0	-35.9	24.0	0.00e+00	122	29	0	1754267648	44	5478
2026-01-29 15:02:56.52	210.54	34.05	-34.7	-35.6	24.2	0.00e+00	120	29	0	1757413376	42	5964
2026-01-29 15:02:57.53	210.51	33.83	-34.7	-35.6	24.2	0.00e+00	123	29	0	1760559104	42	5971
2026-01-29 15:02:58.54	210.47	33.61	-34.5	-35.4	24.3	0.00e+00	122	29	0	1763704832	42	5820
2026-01-29 15:02:59.55	210.44	33.39	-34.5	-35.4	24.2	0.00e+00	123	29	0	1766850560	42	5799
2026-01-29 15:03:00.56	210.40	33.18	-34.4	-35.3	24.3	0.00e+00	121	29	0	1769996288	42	5753
2026-01-29 15:03:01.57	210.37	32.96	-34.5	-35.4	24.2	0.00e+00	122	29	0	1773142016	42	5840
2026-01-29 15:03:02.58	210.34	32.75	-34.7	-35.6	24.2	0.00e+00	123	29	0	1776287744	42	5950
2026-01-29 15:03:03.59	210.31	32.54	-34.6	-35.5	24.2	0.00e+00	123	29	0	1779433472	42	5910
2026-01-29 15:03:04.60	210.28	32.33	-34.7	-35.6	24.2	0.00e+00	123	29	0	1782579200	42	5976
2026-01-29 15:03:05.61	210.24	32.12	-34.8	-35.7	24.2	0.00e+00	122	29	0	1785724928	42	6031
2026-01-29 15:03:06.62	210.21	31.92	-34.8	-35.7	24.2	0.00e+00	122	29	0	1788870656	42	6007
2026-01-29 15:03:07.63	210.18	31.71	-34.7	-35.6	24.2	0.00e+00	123	29	0	1792016384	42	5991
2026-01-29 15:03:08.64	210.15	31.51	-34.5	-35.4	24.4	0.00e+00	122	29	0	1795162112	42	5843
2026-01-29 15:03:09.65	210.12	31.30	-34.5	-35.4	24.4	0.00e+00	123	29	0	1798307840	42	5810
2026-01-29 15:03:10.65	210.09	31.10	-34.4	-35.3	24.4	0.00e+00	120	29	0	1801453568	42	5781
2026-01-29 15:03:11.66	210.07	30.91	-34.5	-35.4	24.4	0.00e+00	122	29	0	1804599296	42	5798
2026-01-29 15:03:12.67	210.04	30.71	-34.6	-35.5	24.4	0.00e+00	123	29	0	1807745024	42	5866
2026-01-29 15:03:13.68	210.01	30.51	-34.6	-35.4	24.5	0.00e+00	122	29	0	1810890752	42	5856
2026-01-29 15:03:14.69	209.98	30.31	-34.5	-35.4	24.5	0.00e+00	122	29	0	1814036480	42	5816
2026-01-29 15:03:15.70	209.95	30.12	-34.3	-35.2	24.6	0.00e+00	120	29	0	1817182208	42	5681
2026-01-29 15:03:16.71	209.93	29.93	-34.4	-35.2	24.6	0.00e+00	123	29	0	1820327936	42	5720
2026-01-29 15:03:17.72	209.90	29.74	-34.2	-35.1	24.6	0.00e+00	123	29	0	1823473664	42	5641
2026-01-29 15:03:18.73	209.87	29.55	-34.5	-35.4	24.4	0.00e+00	122	29	0	1826619392	42	5800
2026-01-29 15:03:19.74	209.85	29.36	-34.5	-35.4	24.4	0.00e+00	123	29	0	1829765120	42	5843
2026-01-29 15:03:20.75	209.82	29.17	-34.6	-35.5	24.4	0.00e+00	123	29	0	1832910848	42	5875
2026-01-29 15:03:21.76	209.80	28.98	-34.7	-35.6	24.3	0.00e+00	122	29	0	1836056576	42	5969
2026-01-29 15:03:22.77	209.77	28.80	-34.7	-35.7	24.1	0.00e+00	122	29	0	1839202304	42	6007
2026-01-29 15:03:23.78	209.75	28.61	-34.8	-35.7	24.2	0.00e+00	123	29	0	1843396608	42	6026
2026-01-29 15:03:24.79	209.73	28.43	-34.8	-35.7	24.2	0.00e+00	123	29	0	1845493760	42	6041
2026-01-29 15:03:25.80	209.70	28.25	-34.9	-35.8	24.1	0.00e+00	123	29	0	1848639488	42	6118
2026-01-29 15:03:26.82	209.68	28.06	-34.7	-35.6	24.2	0.00e+00	123	29	0	1851785216	42	5989
2026-01-29 15:03:27.82	209.65	27.89	-34.5	-35.4	24.4	0.00e+00	123	29	0	1854930944	42	5795
2026-01-29 15:03:28.83	209.63	27.71	-34.4	-35.3	24.5	0.00e+00	120	29	0	1859125248	42	5754
2026-01-29 15:03:29.84	209.61	27.53	-34.2	-35.1	24.6	0.00e+00	123	29	0	1862270976	42	5642
2026-01-29 15:03:30.85	209.59	27.36	-34.0	-34.8	24.8	0.00e+00	120	29	0	1865416704	42	5465
2026-01-29 15:03:31.86	209.56	27.18	-33.7	-34.6	24.9	0.00e+00	123	29	0	1868562432	42	5318
2026-01-29 15:03:32.87	209.54	27.01	-33.7	-34.6	24.9	0.00e+00	123	29	0	1870659584	40	5930
2026-01-29 15:03:33.88	209.52	26.83	-33.6	-34.4	25.0	0.00e+00	123	29	0	1873805312	40	5856
2026-01-29 15:03:34.89	209.50	26.66	-33.5	-34.4	24.9	0.00e+00	123	29	0	1877999616	40	5827
2026-01-29 15:03:35.90	209.48	26.49	-33.5	-34.3	25.0	0.00e+00	122	29	0	1881145344	40	5776
2026-01-29 15:03:36.91	209.46	26.32	-33.4	-34.3	25.0	0.00e+00	120	29	0	1884291072	40	5745
2026-01-29 15:03:37.92	209.44	26.15	-33.5	-34.4	25.0	0.00e+00	123	29	0	1887436800	40	5816
2026-01-29 15:03:38.92	209.42	25.99	-33.3	-34.2	25.0	0.00e+00	120	29	0	1890582528	40	5698
2026-01-29 15:03:39.93	209.40	25.82	-33.4	-34.3	24.9	0.00e+00	122	29	0	1893728256	40	5728
2026-01-29 15:03:40.94	209.38	25.66	-33.5	-34.4	24.8	0.00e+00	122	29	0	1896873984	40	5796
2026-01-29 15:03:41.95	209.36	25.49	-33.6	-34.5	24.9	0.00e+00	123	29	0	1900019712	40	5859
2026-01-29 15:03:42.96	209.34	25.33	-33.4	-34.2	24.9	0.00e+00	123	29	0	1903165440	40	5712
2026-01-29 15:03:43.97	209.32	25.17	-33.5	-34.4	24.8	0.00e+00	123	29	0	1906311168	40	5830
2026-01-29 15:03:44.98	209.30	25.00	-33.6	-34.4	24.8	0.00e+00	123	29	0	1909456896	40	5845
2026-01-29 15:03:45.99	209.28	24.84	-33.5	-34.4	24.8	0.00e+00	123	29	0	1912602624	40	5812
2026-01-29 15:03:47.00	209.26	24.68	-33.6	-34.5	24.6	0.00e+00	122	29	0	1915748352	40	5908
2026-01-29 15:03:48.01	209.25	24.53	-33.7	-34.6	24.7	0.00e+00	123	29	0	1918894080	40	5928
2026-01-29 15:03:49.02	209.23	24.37	-33.7	-34.6	24.6	0.00e+00	123	29	0	1922039808	40	5948
2026-01-29 15:03:50.02	209.21	24.21	-33.8	-34.7	24.5	0.00e+00	122	29	0	1925185536	40	6034
2026-01-29 15:03:51.03	209.19	24.06	-33.9	-34.8	24.5	0.00e+00	123	29	0	1928331264	40	6082
2026-01-29 15:03:52.04	209.18	23.90	-33.9	-34.8	24.5	0.00e+00	123	29	0	1931476992	40	6088
2026-01-29 15:03:53.05	209.16	23.75	-34.0	-34.8	24.5	0.00e+00	123	29	0	1934622720	40	6121
2026-01-29 15:03:54.06	209.14	23.60	-34.0	-34.9	24.5	0.00e+00	123	29	0	1937768448	40	6146
2026-01-29 15:03:55.07	209.12	23.44	-33.8	-34.7	24.7	0.00e+00	122	29	0	1940914176	40	6030
2026-01-29 15:03:56.08	209.11	23.29	-33.8	-34.6	24.8	0.00e+00	122	29	0	1944059904	40	5986
2026-01-29 15:03:57.09	209.09	23.14	-33.7	-34.5	24.9	0.00e+00	123	29	0	1947205632	40	5917
2026-01-29 15:03:58.10	209.08	22.99	-33.6	-34.4	25.0	0.00e+00	122	29	0	1950351360	40	5835
2026-01-29 15:03:59.11	209.06	22.85	-33.5	-34.4	25.0	0.00e+00	122	29	0	1953497088	40	5798
2026-01-29 15:04:00.12	209.04	22.70	-33.5	-34.3	25.0	0.00e+00	122	29	0	1956642816	40	5780
2026-01-29 15:04:01.13	209.03	22.55	-33.5	-34.4	25.0	0.00e+00	122	29	0	1959788544	40	5813
2026-01-29 15:04:02.14	209.01	22.40	-33.4	-34.3	25.1	0.00e+00	122	29	0	1962934272	40	5729
2026-01-29 15:04:03.15	209.00	22.26	-33.3	-34.2	25.1	0.00e+00	122	29	0	1966080000	40	5666
2026-01-29 15:04:04.16	208.98	22.12	-33.4	-34.3	25.0	0.00e+00	123	29	0	1969225728	40	5731
2026-01-29 15:04:05.17	208.97	21.97	-33.4	-34.3	25.0	0.00e+00	123	29	0	1972371456	40	5736
