passes_logs/2026/01/29/R4.6S_Anadyr/R4.6S_Anadyr__20260129_212930_NOAA_21_JPSS-2_rec.log

#Pass ID: 20260129_212930_NOAA 21 (JPSS-2)
#Satellite: NOAA 21 (JPSS-2)
#Configuration: NOAA-21
#almurnet v.1.7.20251203
#Start time: 2026-01-29 21:29:33

#Version: 2.2.20231116
#Station: R4.6S_Anadyr
#Location: 177.4865 lon 64.73178 lat
#TLE: 1 54234U 22150A   26029.46216196  .00000141  00000+0  87503-4 0  9994
#TLE: 2 54234  98.7512 330.1880 0000955 196.3413 163.7732 14.19540905166865

#Time	Az	El	Level	Level2	SNR	BER	BlckErr	Temp	State	Recorded	gain1	gain2
2026-01-29 21:29:33.09	91.54	0.15	-49.1	-60.5	3.3	1.54e+00	0	34	0	0	60	37333
2026-01-29 21:29:34.09	91.48	0.21	-49.1	-62.0	3.5	1.52e+00	0	34	104	0	60	44285
2026-01-29 21:29:35.10	91.42	0.26	-49.1	-62.0	3.5	1.52e+00	0	34	104	0	60	44243
2026-01-29 21:29:36.11	91.36	0.32	-49.1	-62.0	3.5	1.52e+00	0	34	104	0	60	44166
2026-01-29 21:29:37.12	91.29	0.37	-49.1	-62.0	3.5	1.52e+00	0	34	104	0	60	44333
2026-01-29 21:29:38.13	91.23	0.42	-49.0	-62.0	3.5	1.52e+00	0	34	104	0	60	44295
2026-01-29 21:29:39.14	91.17	0.48	-49.1	-62.0	3.5	1.51e+00	0	34	104	0	60	44007
2026-01-29 21:29:40.15	91.11	0.53	-49.2	-62.0	3.5	1.52e+00	0	34	104	0	60	44428
2026-01-29 21:29:41.16	91.05	0.59	-49.2	-62.1	3.5	1.52e+00	0	34	104	0	60	44446
2026-01-29 21:29:42.17	90.98	0.64	-49.2	-62.1	3.5	1.52e+00	0	34	104	0	60	44560
2026-01-29 21:29:43.18	90.92	0.69	-49.2	-62.1	3.5	1.52e+00	0	34	104	0	60	44581
2026-01-29 21:29:44.19	90.86	0.75	-49.1	-62.0	3.5	1.52e+00	0	34	104	0	60	44430
2026-01-29 21:29:45.20	90.79	0.80	-49.1	-62.0	3.5	1.52e+00	0	34	104	0	60	44197
2026-01-29 21:29:46.21	90.73	0.86	-49.1	-62.0	3.5	1.52e+00	0	34	104	0	60	44249
2026-01-29 21:29:47.22	90.67	0.91	-49.1	-62.0	3.5	1.51e+00	0	34	104	0	60	43959
2026-01-29 21:29:48.23	90.60	0.97	-49.1	-62.0	3.5	1.52e+00	0	34	104	0	60	44071
2026-01-29 21:29:49.24	90.54	1.02	-49.0	-61.9	3.5	1.52e+00	0	34	104	0	60	43836
2026-01-29 21:29:50.25	90.47	1.08	-49.0	-61.8	3.5	1.52e+00	0	34	104	0	60	43349
2026-01-29 21:29:51.26	90.41	1.13	-48.9	-61.7	3.5	1.52e+00	0	34	104	0	60	42862
2026-01-29 21:29:52.27	90.34	1.19	-48.8	-61.7	3.5	1.52e+00	0	34	104	0	60	42443
2026-01-29 21:29:53.28	90.28	1.24	-48.6	-61.6	3.5	1.51e+00	0	34	104	0	60	41984
2026-01-29 21:29:54.29	90.21	1.30	-48.3	-61.4	3.5	1.52e+00	0	34	104	0	60	41088
2026-01-29 21:29:55.30	90.15	1.35	-48.1	-60.8	3.5	1.52e+00	0	34	104	0	60	38615
2026-01-29 21:29:56.31	90.08	1.41	-47.6	-60.4	3.5	1.52e+00	0	34	104	0	60	36602
2026-01-29 21:29:57.32	90.01	1.46	-47.5	-60.3	3.5	1.52e+00	0	34	104	0	60	36139
2026-01-29 21:29:58.33	89.95	1.52	-47.5	-60.2	3.5	1.52e+00	0	34	104	0	60	35982
2026-01-29 21:29:59.35	89.88	1.57	-47.5	-60.2	3.5	1.52e+00	0	34	104	0	60	35991
2026-01-29 21:30:00.35	89.81	1.63	-47.5	-60.2	3.5	1.52e+00	0	34	104	0	60	35880
2026-01-29 21:30:01.37	89.74	1.68	-47.5	-60.2	3.5	1.52e+00	0	35	104	0	60	35999
2026-01-29 21:30:02.38	89.68	1.74	-47.5	-60.3	3.5	1.52e+00	0	34	104	0	60	36278
2026-01-29 21:30:03.38	89.61	1.80	-47.5	-60.3	3.5	1.52e+00	0	35	104	0	60	36419
2026-01-29 21:30:04.39	89.54	1.85	-47.5	-60.3	3.5	1.52e+00	0	35	104	0	60	36532
2026-01-29 21:30:05.40	89.47	1.91	-47.5	-60.3	3.5	1.51e+00	0	34	104	0	60	36341
2026-01-29 21:30:06.41	89.40	1.96	-47.5	-60.3	3.5	1.52e+00	0	35	104	0	60	36267
2026-01-29 21:30:07.42	89.33	2.02	-47.5	-60.3	3.5	1.52e+00	0	35	104	0	60	36196
2026-01-29 21:30:08.43	89.26	2.07	-47.5	-60.3	3.5	1.52e+00	0	35	104	0	60	36341
2026-01-29 21:30:09.45	89.19	2.13	-47.5	-60.2	3.5	1.51e+00	0	35	104	0	60	36009
2026-01-29 21:30:10.46	89.12	2.19	-47.5	-60.1	3.5	1.51e+00	0	35	104	0	60	35608
2026-01-29 21:30:11.47	89.05	2.24	-47.5	-60.3	3.5	1.52e+00	0	35	104	0	60	36241
2026-01-29 21:30:12.48	88.98	2.30	-47.5	-60.3	3.5	1.52e+00	0	35	104	0	60	36350
2026-01-29 21:30:13.49	88.91	2.36	-47.5	-60.3	3.5	1.52e+00	0	35	104	0	60	36451
2026-01-29 21:30:14.50	88.84	2.41	-47.5	-60.3	3.5	1.52e+00	0	35	104	0	60	36251
2026-01-29 21:30:15.51	88.77	2.47	-47.5	-60.2	3.5	1.52e+00	0	35	104	0	60	35992
2026-01-29 21:30:16.52	88.70	2.53	-47.5	-60.3	3.5	1.52e+00	0	35	104	0	60	36158
2026-01-29 21:30:17.52	88.63	2.58	-47.5	-60.3	3.5	1.52e+00	0	35	104	0	60	36388
2026-01-29 21:30:18.53	88.55	2.64	-47.5	-60.2	3.5	1.52e+00	0	35	104	0	60	36077
2026-01-29 21:30:19.54	88.48	2.70	-47.5	-59.9	3.5	1.51e+00	0	35	104	0	60	34751
2026-01-29 21:30:20.56	88.41	2.75	-47.4	-59.5	3.5	1.52e+00	0	35	104	0	60	33051
2026-01-29 21:30:21.57	88.33	2.81	-47.4	-59.4	3.5	1.51e+00	0	35	104	0	60	32652
2026-01-29 21:30:22.58	88.26	2.87	-47.5	-60.0	3.5	1.52e+00	0	35	104	0	60	34961
2026-01-29 21:30:23.59	88.19	2.93	-47.5	-59.6	3.5	1.51e+00	0	35	104	0	60	33513
2026-01-29 21:30:24.60	88.11	2.98	-47.1	-56.3	4.4	1.51e+00	3	35	104	0	60	22990
2026-01-29 21:30:25.61	88.04	3.04	-45.9	-50.5	8.5	1.21e-01	0	35	0	1048576	60	11796
2026-01-29 21:30:26.62	87.96	3.10	-44.5	-47.6	11.8	1.62e-03	0	35	0	4194304	60	8427
2026-01-29 21:30:27.63	87.89	3.15	-42.4	-44.6	15.0	7.00e-07	0	35	0	7340032	58	6659
2026-01-29 21:30:28.64	87.81	3.21	-47.5	-58.8	3.6	2.05e-05	0	35	104	9437184	60	30404
2026-01-29 21:30:29.64	87.74	3.27	-47.6	-59.2	3.5	1.52e+00	0	35	104	9437184	60	32079
2026-01-29 21:30:30.66	87.66	3.33	-40.2	-42.1	17.9	1.47e+00	0	35	104	9437184	58	5020
2026-01-29 21:30:31.66	87.59	3.38	-39.8	-41.3	17.6	0.00e+00	0	35	0	10485760	52	6469
2026-01-29 21:30:32.68	87.51	3.44	-41.3	-43.2	14.5	0.00e+00	0	35	0	13631488	50	8981
2026-01-29 21:30:33.68	87.43	3.50	-41.6	-43.9	16.3	3.43e-02	0	35	104	13631488	60	5488
2026-01-29 21:30:34.70	87.36	3.56	-38.8	-40.1	19.5	0.00e+00	0	35	0	15728640	52	5637
2026-01-29 21:30:35.71	87.28	3.62	-38.6	-39.9	19.5	0.00e+00	0	35	0	18874368	50	6176
2026-01-29 21:30:36.72	87.20	3.67	-38.7	-40.0	19.5	0.00e+00	0	35	0	22020096	50	6243
2026-01-29 21:30:37.73	87.12	3.73	-38.7	-40.0	19.6	0.00e+00	0	35	0	25165824	50	6221
2026-01-29 21:30:38.74	87.05	3.79	-37.8	-39.0	20.5	0.00e+00	0	35	0	28311552	50	5556
2026-01-29 21:30:39.75	86.97	3.85	-38.1	-39.3	20.2	0.00e+00	0	35	0	31457280	48	6447
2026-01-29 21:30:40.76	86.89	3.91	-39.0	-40.3	19.3	0.00e+00	0	35	0	34603008	50	6498
2026-01-29 21:30:41.77	86.81	3.97	-38.8	-40.1	19.5	0.00e+00	0	35	0	37748736	50	6322
2026-01-29 21:30:42.78	86.73	4.02	-38.6	-39.8	19.8	0.00e+00	0	35	0	40894464	50	6094
2026-01-29 21:30:43.79	86.65	4.08	-38.5	-39.7	19.8	0.00e+00	0	35	0	44040192	50	6064
2026-01-29 21:30:44.80	86.57	4.14	-38.2	-39.4	20.2	0.00e+00	0	35	0	47185920	50	5797
2026-01-29 21:30:45.81	86.49	4.20	-38.3	-39.6	20.0	0.00e+00	0	35	0	50331648	50	5928
2026-01-29 21:30:46.82	86.41	4.26	-38.0	-39.2	20.4	0.00e+00	0	35	0	53477376	50	5709
2026-01-29 21:30:47.83	86.33	4.32	-37.9	-39.1	20.6	0.00e+00	0	35	0	56623104	50	5597
2026-01-29 21:30:48.84	86.24	4.38	-37.9	-39.0	20.6	0.00e+00	0	35	0	59768832	48	6273
2026-01-29 21:30:49.85	86.16	4.44	-38.3	-39.5	20.2	0.00e+00	0	35	0	62914560	48	6615
2026-01-29 21:30:50.86	86.08	4.50	-38.1	-39.3	20.3	0.00e+00	0	35	0	66060288	48	6495
2026-01-29 21:30:51.87	86.00	4.55	-38.0	-39.2	20.6	0.00e+00	0	35	0	69206016	48	6351
2026-01-29 21:30:52.88	85.91	4.61	-38.1	-39.3	20.4	0.00e+00	0	35	0	72351744	48	6444
2026-01-29 21:30:53.89	85.83	4.67	-38.0	-39.2	20.5	0.00e+00	0	35	0	75497472	48	6394
2026-01-29 21:30:54.90	85.75	4.73	-37.9	-39.1	20.5	0.00e+00	0	35	0	78643200	48	6310
2026-01-29 21:30:55.91	85.66	4.79	-38.1	-39.3	20.4	0.00e+00	0	35	0	81788928	48	6430
2026-01-29 21:30:56.93	85.58	4.85	-38.0	-39.1	20.6	0.00e+00	0	35	0	84934656	48	6327
2026-01-29 21:30:57.94	85.49	4.91	-38.3	-39.5	20.2	0.00e+00	0	35	0	88080384	48	6625
2026-01-29 21:30:58.95	85.41	4.97	-38.1	-39.3	20.3	0.00e+00	0	35	0	91226112	48	6479
2026-01-29 21:30:59.96	85.32	5.03	-37.7	-38.8	20.8	0.00e+00	0	35	0	94371840	48	6126
2026-01-29 21:31:00.96	85.24	5.09	-37.7	-38.9	20.8	0.00e+00	0	35	0	97517568	48	6149
2026-01-29 21:31:01.98	85.15	5.15	-37.6	-38.7	20.9	0.00e+00	0	35	0	100663296	48	6052
2026-01-29 21:31:02.99	85.06	5.21	-37.5	-38.7	21.0	0.00e+00	0	35	0	103809024	48	6000
2026-01-29 21:31:04.00	84.98	5.27	-37.6	-38.7	21.0	0.00e+00	0	35	0	106954752	48	6029
2026-01-29 21:31:05.01	84.89	5.33	-37.3	-38.4	21.2	0.00e+00	0	35	0	110100480	48	5834
2026-01-29 21:31:06.02	84.80	5.39	-37.5	-38.6	21.0	0.00e+00	0	35	0	113246208	48	5943
2026-01-29 21:31:07.03	84.71	5.45	-37.5	-38.7	20.9	0.00e+00	0	35	0	116391936	48	6013
2026-01-29 21:31:08.04	84.62	5.51	-37.2	-38.3	21.4	0.00e+00	0	35	0	119537664	48	5729
2026-01-29 21:31:09.05	84.54	5.57	-37.4	-38.5	21.2	0.00e+00	0	35	0	122683392	48	5885
2026-01-29 21:31:10.06	84.45	5.63	-37.1	-38.2	21.4	0.00e+00	0	35	0	125829120	48	5698
2026-01-29 21:31:11.07	84.36	5.69	-37.1	-38.2	21.4	0.00e+00	0	35	0	128974848	48	5709
2026-01-29 21:31:12.08	84.27	5.75	-37.1	-38.2	21.5	0.00e+00	0	35	0	132120576	48	5677
2026-01-29 21:31:13.09	84.18	5.82	-38.4	-39.6	21.0	0.00e+00	0	35	0	135266304	52	5336
2026-01-29 21:31:14.10	84.09	5.88	-37.1	-38.2	21.2	0.00e+00	0	35	0	138412032	48	5680
2026-01-29 21:31:15.11	83.99	5.94	-35.7	-36.7	22.8	0.00e+00	0	35	0	141557760	46	5391
2026-01-29 21:31:16.12	83.90	6.00	-37.1	-38.2	21.4	0.00e+00	0	35	0	144703488	44	7153
2026-01-29 21:31:17.14	83.81	6.06	-38.4	-39.7	20.3	0.00e+00	0	35	0	147849216	50	5997
2026-01-29 21:31:18.15	83.72	6.12	-37.7	-38.9	21.0	0.00e+00	0	35	0	150994944	48	6139
2026-01-29 21:31:19.16	83.62	6.18	-37.8	-39.0	21.1	0.00e+00	0	35	0	154140672	48	6207
2026-01-29 21:31:20.17	83.53	6.24	-37.4	-38.6	21.3	0.00e+00	0	35	0	157286400	48	5932
2026-01-29 21:31:21.18	83.44	6.30	-36.8	-37.9	21.8	0.00e+00	0	35	0	160432128	48	5495
2026-01-29 21:31:22.19	83.34	6.37	-37.0	-38.1	21.7	0.00e+00	0	35	0	163577856	48	5615
2026-01-29 21:31:23.20	83.25	6.43	-36.8	-37.9	21.8	0.00e+00	0	35	0	166723584	46	6175
2026-01-29 21:31:24.21	83.15	6.49	-36.9	-38.0	21.7	0.00e+00	0	35	0	169869312	46	6227
2026-01-29 21:31:25.22	83.06	6.55	-36.8	-37.9	21.8	0.00e+00	0	35	0	173015040	46	6170
2026-01-29 21:31:26.23	82.96	6.61	-36.9	-38.0	21.8	0.00e+00	0	35	0	176160768	46	6262
2026-01-29 21:31:27.24	82.87	6.67	-36.9	-38.0	21.8	0.00e+00	0	35	0	179306496	46	6231
2026-01-29 21:31:28.25	82.77	6.74	-36.9	-37.9	21.8	0.00e+00	0	35	0	182452224	46	6197
2026-01-29 21:31:29.27	82.67	6.80	-36.9	-38.0	21.8	0.00e+00	0	35	0	185597952	46	6267
2026-01-29 21:31:30.28	82.58	6.86	-36.9	-38.0	21.8	0.00e+00	0	35	0	188743680	46	6243
2026-01-29 21:31:31.29	82.48	6.92	-36.8	-37.9	21.9	0.00e+00	0	35	0	191889408	46	6151
2026-01-29 21:31:32.30	82.38	6.98	-36.8	-37.9	21.9	0.00e+00	0	35	0	195035136	46	6156
2026-01-29 21:31:33.31	82.28	7.05	-36.7	-37.8	22.0	0.00e+00	0	35	0	198180864	46	6107
2026-01-29 21:31:34.32	82.18	7.11	-36.7	-37.8	22.0	0.00e+00	0	35	0	201326592	46	6101
2026-01-29 21:31:35.33	82.08	7.17	-36.7	-37.8	22.0	0.00e+00	0	35	0	204472320	46	6106
2026-01-29 21:31:36.34	81.98	7.23	-36.5	-37.6	22.2	0.00e+00	0	35	0	207618048	46	5936
2026-01-29 21:31:37.35	81.88	7.30	-36.6	-37.7	22.1	0.00e+00	0	35	0	210763776	46	6005
2026-01-29 21:31:38.36	81.78	7.36	-36.6	-37.6	22.2	0.00e+00	0	35	0	213909504	46	5970
2026-01-29 21:31:39.37	81.68	7.42	-36.6	-37.6	22.2	0.00e+00	0	35	0	217055232	46	5963
2026-01-29 21:31:40.38	81.58	7.48	-36.5	-37.5	22.3	0.00e+00	0	35	0	220200960	46	5897
2026-01-29 21:31:41.39	81.48	7.55	-36.6	-37.7	22.2	0.00e+00	0	35	0	223346688	46	6015
2026-01-29 21:31:42.40	81.37	7.61	-36.4	-37.4	22.4	0.00e+00	0	35	0	226492416	46	5816
2026-01-29 21:31:43.41	81.27	7.67	-36.5	-37.5	22.2	0.00e+00	0	35	0	229638144	46	5901
2026-01-29 21:31:44.42	81.17	7.73	-36.4	-37.4	22.3	0.00e+00	0	35	0	232783872	46	5833
2026-01-29 21:31:45.43	81.06	7.80	-36.4	-37.5	22.3	0.00e+00	0	35	0	235929600	46	5865
2026-01-29 21:31:46.44	80.96	7.86	-36.4	-37.5	22.3	0.00e+00	0	35	0	239075328	46	5880
2026-01-29 21:31:47.45	80.85	7.92	-36.3	-37.3	22.4	0.00e+00	0	35	0	242221056	46	5778
2026-01-29 21:31:48.46	80.75	7.99	-36.6	-37.7	22.2	0.00e+00	0	35	0	245366784	46	5998
2026-01-29 21:31:49.47	80.64	8.05	-36.6	-37.6	22.2	0.00e+00	0	35	0	248512512	46	5980
2026-01-29 21:31:50.48	80.54	8.11	-36.4	-37.4	22.4	0.00e+00	0	35	0	251658240	46	5835
2026-01-29 21:31:51.49	80.43	8.18	-36.4	-37.4	22.3	0.00e+00	0	35	0	254803968	46	5857
2026-01-29 21:31:52.50	80.32	8.24	-36.3	-37.4	22.5	0.00e+00	0	35	0	258998272	46	5813
2026-01-29 21:31:53.51	80.21	8.30	-36.3	-37.4	22.4	0.00e+00	0	35	0	262144000	46	5819
2026-01-29 21:31:54.52	80.11	8.37	-36.4	-37.5	22.4	0.00e+00	0	35	0	264241152	46	5876
2026-01-29 21:31:55.53	80.00	8.43	-36.3	-37.4	22.4	0.00e+00	0	35	0	267386880	46	5817
2026-01-29 21:31:56.54	79.89	8.49	-36.3	-37.4	22.3	0.00e+00	0	35	0	270532608	46	5810
2026-01-29 21:31:57.55	79.78	8.56	-36.3	-37.3	22.4	0.00e+00	0	35	0	274726912	46	5767
2026-01-29 21:31:58.56	79.67	8.62	-36.2	-37.2	22.4	0.00e+00	0	35	0	277872640	46	5720
2026-01-29 21:31:59.57	79.56	8.69	-36.3	-37.4	22.3	0.00e+00	0	35	0	281018368	46	5796
2026-01-29 21:32:00.58	79.45	8.75	-36.4	-37.5	22.3	0.00e+00	0	35	0	284164096	46	5877
2026-01-29 21:32:01.59	79.33	8.81	-36.5	-37.5	22.3	0.00e+00	0	35	0	287309824	46	5914
2026-01-29 21:32:02.60	79.22	8.88	-36.3	-37.4	22.4	0.00e+00	0	35	0	290455552	46	5812
2026-01-29 21:32:03.61	79.11	8.94	-36.4	-37.5	22.3	0.00e+00	0	35	0	293601280	46	5885
2026-01-29 21:32:04.63	79.00	9.01	-36.4	-37.4	22.4	0.00e+00	0	35	0	296747008	46	5829
2026-01-29 21:32:05.64	78.88	9.07	-36.3	-37.4	22.4	0.00e+00	0	35	0	299892736	46	5808
2026-01-29 21:32:06.65	78.77	9.13	-36.5	-37.5	22.4	0.00e+00	0	35	0	303038464	46	5897
2026-01-29 21:32:07.66	78.65	9.20	-36.1	-37.1	22.7	0.00e+00	0	35	0	306184192	46	5659
2026-01-29 21:32:08.67	78.54	9.26	-36.2	-37.3	22.5	0.00e+00	0	35	0	309329920	46	5729
2026-01-29 21:32:09.68	78.42	9.33	-36.1	-37.1	22.7	0.00e+00	0	35	0	312475648	46	5633
2026-01-29 21:32:10.69	78.31	9.39	-35.8	-36.8	22.9	0.00e+00	0	35	0	315621376	46	5422
2026-01-29 21:32:11.70	78.19	9.46	-35.9	-36.9	22.8	0.00e+00	0	35	0	318767104	46	5525
2026-01-29 21:32:12.71	78.07	9.52	-36.1	-37.1	22.6	0.00e+00	0	35	0	321912832	46	5659
2026-01-29 21:32:13.73	77.95	9.59	-35.9	-36.9	22.8	0.00e+00	0	35	0	325058560	46	5494
2026-01-29 21:32:14.74	77.83	9.65	-35.7	-36.7	22.9	0.00e+00	0	35	0	328204288	44	6035
2026-01-29 21:32:15.75	77.72	9.72	-36.3	-37.3	22.5	0.00e+00	0	35	0	331350016	44	6477
2026-01-29 21:32:16.76	77.60	9.78	-36.4	-37.4	22.4	0.00e+00	0	35	0	334495744	44	6569
2026-01-29 21:32:17.77	77.48	9.85	-36.1	-37.1	22.6	0.00e+00	0	35	0	337641472	44	6338
2026-01-29 21:32:18.77	77.36	9.91	-36.0	-37.0	22.7	0.00e+00	0	35	0	340787200	44	6271
2026-01-29 21:32:19.79	77.23	9.98	-36.1	-37.2	22.7	0.00e+00	0	35	0	343932928	44	6354
2026-01-29 21:32:20.79	77.11	10.04	-36.3	-37.3	22.5	0.00e+00	0	35	0	347078656	44	6450
2026-01-29 21:32:21.80	76.99	10.10	-36.1	-37.1	22.7	0.00e+00	0	35	0	350224384	44	6350
2026-01-29 21:32:22.81	76.87	10.17	-36.1	-37.2	22.8	0.00e+00	0	35	0	353370112	44	6367
2026-01-29 21:32:23.82	76.74	10.23	-35.7	-36.7	23.0	0.00e+00	0	35	0	356515840	44	6025
2026-01-29 21:32:24.83	76.62	10.30	-35.6	-36.6	23.1	0.00e+00	0	35	0	359661568	44	5948
2026-01-29 21:32:25.84	76.50	10.37	-35.4	-36.3	23.3	0.00e+00	0	35	0	362807296	44	5789
2026-01-29 21:32:26.85	76.37	10.43	-35.5	-36.5	23.1	0.00e+00	0	35	0	365953024	44	5900
2026-01-29 21:32:27.87	76.24	10.50	-35.6	-36.6	23.1	0.00e+00	0	35	0	369098752	44	5948
2026-01-29 21:32:28.87	76.12	10.56	-35.5	-36.5	23.1	0.00e+00	0	35	0	372244480	44	5912
2026-01-29 21:32:29.88	75.99	10.63	-35.6	-36.6	23.0	0.00e+00	0	35	0	375390208	44	5962
2026-01-29 21:32:30.90	75.86	10.69	-35.6	-36.6	23.0	0.00e+00	0	35	0	378535936	44	5973
2026-01-29 21:32:31.91	75.74	10.76	-35.6	-36.6	23.1	0.00e+00	0	35	0	381681664	44	5958
2026-01-29 21:32:32.92	75.61	10.82	-35.6	-36.6	23.0	0.00e+00	0	35	0	384827392	44	5986
2026-01-29 21:32:33.93	75.48	10.89	-35.7	-36.7	23.0	0.00e+00	0	35	0	387973120	44	6050
2026-01-29 21:32:34.94	75.35	10.95	-35.7	-36.6	23.2	0.00e+00	0	35	0	391118848	44	5994
2026-01-29 21:32:35.95	75.22	11.02	-35.3	-36.3	23.5	0.00e+00	0	35	0	394264576	44	5760
2026-01-29 21:32:36.96	75.09	11.08	-35.4	-36.3	23.4	0.00e+00	0	35	0	397410304	44	5788
2026-01-29 21:32:37.97	74.96	11.15	-35.2	-36.2	23.6	0.00e+00	0	35	0	400556032	44	5661
2026-01-29 21:32:38.98	74.82	11.22	-35.2	-36.2	23.6	0.00e+00	0	35	0	403701760	44	5666
2026-01-29 21:32:39.99	74.69	11.28	-35.1	-36.1	23.7	0.00e+00	0	35	0	406847488	44	5611
2026-01-29 21:32:41.00	74.56	11.35	-35.0	-36.0	23.7	0.00e+00	0	35	0	409993216	44	5535
2026-01-29 21:32:42.01	74.42	11.41	-35.3	-36.3	23.4	0.00e+00	0	35	0	413138944	44	5746
2026-01-29 21:32:43.02	74.29	11.48	-35.3	-36.3	23.4	0.00e+00	0	35	0	416284672	44	5748
2026-01-29 21:32:44.03	74.15	11.54	-35.3	-36.2	23.4	0.00e+00	0	35	0	419430400	44	5715
2026-01-29 21:32:45.04	74.02	11.61	-35.2	-36.1	23.5	0.00e+00	0	35	0	422576128	44	5644
2026-01-29 21:32:46.05	73.88	11.68	-35.5	-36.4	23.4	0.00e+00	0	35	0	425721856	44	5836
2026-01-29 21:32:47.06	73.75	11.74	-35.1	-36.1	23.6	0.00e+00	0	35	0	428867584	44	5618
2026-01-29 21:32:48.07	73.61	11.81	-35.2	-36.2	23.5	0.00e+00	0	35	0	432013312	44	5676
2026-01-29 21:32:49.08	73.47	11.87	-35.0	-36.0	23.7	0.00e+00	0	35	0	435159040	44	5558
2026-01-29 21:32:50.09	73.33	11.94	-35.0	-36.0	23.7	0.00e+00	0	35	0	438304768	44	5552
2026-01-29 21:32:51.10	73.19	12.00	-35.1	-36.0	23.8	0.00e+00	0	35	0	441450496	44	5562
2026-01-29 21:32:52.11	73.05	12.07	-34.9	-35.8	23.8	0.00e+00	0	35	0	444596224	44	5455
2026-01-29 21:32:53.12	72.91	12.14	-35.0	-35.9	23.8	0.00e+00	0	35	0	447741952	44	5513
2026-01-29 21:32:54.13	72.77	12.20	-34.8	-35.8	23.9	0.00e+00	0	35	0	450887680	44	5407
2026-01-29 21:32:55.14	72.63	12.27	-34.8	-35.7	23.9	0.00e+00	0	35	0	454033408	44	5399
2026-01-29 21:32:56.15	72.48	12.33	-34.8	-35.7	23.9	0.00e+00	0	35	0	457179136	44	5362
2026-01-29 21:32:57.16	72.34	12.40	-34.9	-35.8	23.7	0.00e+00	0	35	0	460324864	44	5424
2026-01-29 21:32:58.17	72.20	12.47	-35.0	-35.9	23.6	0.00e+00	0	35	0	463470592	44	5529
2026-01-29 21:32:59.18	72.05	12.53	-35.1	-36.0	23.6	0.00e+00	0	35	0	466616320	44	5556
2026-01-29 21:33:00.20	71.91	12.60	-35.2	-36.1	23.5	0.00e+00	0	35	0	469762048	44	5630
2026-01-29 21:33:01.21	71.76	12.66	-35.3	-36.2	23.5	0.00e+00	0	36	0	472907776	44	5707
2026-01-29 21:33:02.22	71.61	12.73	-35.4	-36.4	23.4	0.00e+00	0	35	0	476053504	44	5795
2026-01-29 21:33:03.23	71.47	12.79	-35.3	-36.2	23.5	0.00e+00	0	35	0	479199232	44	5707
2026-01-29 21:33:04.24	71.32	12.86	-35.2	-36.2	23.6	0.00e+00	0	35	0	482344960	44	5690
2026-01-29 21:33:05.25	71.17	12.93	-35.2	-36.1	23.7	0.00e+00	0	35	0	485490688	44	5623
2026-01-29 21:33:06.26	71.02	12.99	-35.2	-36.2	23.7	0.00e+00	0	35	0	488636416	44	5682
2026-01-29 21:33:07.27	70.87	13.06	-35.0	-36.0	23.8	0.00e+00	0	35	0	491782144	44	5545
2026-01-29 21:33:08.28	70.72	13.12	-35.1	-36.1	23.7	0.00e+00	0	36	0	494927872	44	5607
2026-01-29 21:33:09.29	70.57	13.19	-35.2	-36.2	23.6	0.00e+00	0	35	0	498073600	44	5677
2026-01-29 21:33:10.30	70.42	13.25	-35.1	-36.0	23.8	0.00e+00	0	35	0	501219328	44	5558
2026-01-29 21:33:11.31	70.26	13.32	-35.0	-36.0	23.8	0.00e+00	0	35	0	504365056	44	5537
2026-01-29 21:33:12.32	70.11	13.39	-35.1	-36.1	23.7	0.00e+00	0	36	0	507510784	44	5608
2026-01-29 21:33:13.33	69.96	13.45	-35.2	-36.1	23.7	0.00e+00	0	35	0	510656512	44	5625
2026-01-29 21:33:14.34	69.80	13.52	-35.2	-36.2	23.7	0.00e+00	0	35	0	513802240	44	5667
2026-01-29 21:33:15.35	69.65	13.58	-35.3	-36.3	23.6	0.00e+00	0	35	0	516947968	44	5743
2026-01-29 21:33:16.37	69.49	13.65	-35.1	-36.0	23.8	0.00e+00	0	35	0	520093696	44	5594
2026-01-29 21:33:17.37	69.33	13.71	-35.2	-36.1	23.7	0.00e+00	0	35	0	523239424	44	5645
2026-01-29 21:33:18.38	69.17	13.78	-35.1	-36.0	23.8	0.00e+00	0	35	0	526385152	44	5585
2026-01-29 21:33:19.39	69.02	13.84	-35.3	-36.2	23.6	0.00e+00	0	35	0	529530880	44	5684
2026-01-29 21:33:20.40	68.86	13.91	-35.1	-36.0	23.7	0.00e+00	0	35	0	533725184	44	5558
2026-01-29 21:33:21.41	68.70	13.97	-35.1	-36.0	23.7	0.00e+00	0	35	0	535822336	44	5583
2026-01-29 21:33:22.42	68.54	14.04	-35.2	-36.1	23.6	0.00e+00	0	35	0	538968064	44	5654
2026-01-29 21:33:23.43	68.38	14.11	-35.4	-36.4	23.4	0.00e+00	0	35	0	542113792	44	5804
2026-01-29 21:33:24.44	68.21	14.17	-35.4	-36.4	23.4	0.00e+00	0	35	0	545259520	44	5832
2026-01-29 21:33:25.45	68.05	14.24	-35.4	-36.3	23.5	0.00e+00	0	35	0	549453824	44	5787
2026-01-29 21:33:26.46	67.89	14.30	-35.2	-36.1	23.7	0.00e+00	0	35	0	552599552	44	5656
2026-01-29 21:33:27.47	67.72	14.37	-35.2	-36.1	23.7	0.00e+00	0	35	0	555745280	44	5637
2026-01-29 21:33:28.48	67.56	14.43	-35.3	-36.3	23.7	0.00e+00	0	35	0	557842432	44	5737
2026-01-29 21:33:29.49	67.39	14.49	-35.4	-36.3	23.4	0.00e+00	0	36	0	560988160	44	5767
2026-01-29 21:33:30.50	67.23	14.56	-35.1	-36.1	23.7	0.00e+00	0	36	0	565182464	44	5616
2026-01-29 21:33:31.51	67.06	14.62	-35.2	-36.1	23.7	0.00e+00	0	35	0	568328192	44	5647
2026-01-29 21:33:32.52	66.89	14.69	-35.2	-36.2	23.6	0.00e+00	0	35	0	571473920	44	5665
2026-01-29 21:33:33.53	66.72	14.75	-35.2	-36.1	23.7	0.00e+00	0	35	0	574619648	44	5651
2026-01-29 21:33:34.54	66.55	14.82	-35.2	-36.1	23.7	0.00e+00	0	35	0	577765376	44	5641
2026-01-29 21:33:35.55	66.38	14.88	-35.1	-36.0	23.8	0.00e+00	0	35	0	580911104	44	5582
2026-01-29 21:33:36.56	66.21	14.95	-35.1	-36.0	23.7	0.00e+00	0	35	0	584056832	44	5568
2026-01-29 21:33:37.57	66.04	15.01	-35.0	-35.9	23.9	0.00e+00	0	35	0	587202560	44	5503
2026-01-29 21:33:38.58	65.87	15.07	-34.9	-35.8	23.9	0.00e+00	0	35	0	590348288	44	5433
2026-01-29 21:33:39.59	65.70	15.14	-34.9	-35.8	24.0	0.00e+00	0	35	0	593494016	44	5420
2026-01-29 21:33:40.61	65.52	15.20	-35.0	-35.9	23.9	0.00e+00	0	36	0	596639744	44	5511
2026-01-29 21:33:41.62	65.35	15.27	-34.9	-35.9	23.9	0.00e+00	0	35	0	599785472	44	5474
2026-01-29 21:33:42.63	65.17	15.33	-34.8	-35.7	24.0	0.00e+00	0	35	0	602931200	44	5398
2026-01-29 21:33:43.64	65.00	15.39	-34.8	-35.7	24.0	0.00e+00	0	35	0	606076928	44	5401
2026-01-29 21:33:44.65	64.82	15.46	-34.9	-35.8	23.9	0.00e+00	0	35	0	609222656	44	5459
2026-01-29 21:33:45.66	64.64	15.52	-35.1	-36.1	23.7	0.00e+00	0	36	0	612368384	44	5601
2026-01-29 21:33:46.67	64.46	15.58	-35.1	-36.0	23.8	0.00e+00	0	35	0	615514112	44	5560
2026-01-29 21:33:47.68	64.28	15.65	-35.0	-35.9	23.8	0.00e+00	0	35	0	618659840	44	5521
2026-01-29 21:33:48.69	64.11	15.71	-35.0	-36.0	23.8	0.00e+00	0	36	0	621805568	44	5549
2026-01-29 21:33:49.70	63.92	15.77	-34.9	-35.8	24.0	0.00e+00	0	35	0	624951296	44	5450
2026-01-29 21:33:50.71	63.74	15.84	-35.0	-36.0	23.8	0.00e+00	0	36	0	628097024	44	5540
2026-01-29 21:33:51.72	63.56	15.90	-35.1	-36.1	23.7	0.00e+00	0	36	0	631242752	44	5613
2026-01-29 21:33:52.73	63.38	15.96	-35.3	-36.2	23.6	0.00e+00	0	35	0	634388480	44	5691
2026-01-29 21:33:53.74	63.19	16.02	-35.2	-36.2	23.7	0.00e+00	0	35	0	637534208	44	5675
2026-01-29 21:33:54.75	63.01	16.09	-35.3	-36.2	23.6	0.00e+00	0	36	0	640679936	44	5712
2026-01-29 21:33:55.76	62.83	16.15	-35.4	-36.3	23.6	0.00e+00	0	36	0	643825664	44	5762
2026-01-29 21:33:56.77	62.64	16.21	-35.4	-36.3	23.6	0.00e+00	0	35	0	646971392	44	5767
2026-01-29 21:33:57.78	62.45	16.27	-35.2	-36.2	23.7	0.00e+00	0	35	0	650117120	44	5668
2026-01-29 21:33:58.79	62.27	16.33	-35.2	-36.2	23.7	0.00e+00	0	35	0	653262848	44	5679
2026-01-29 21:33:59.80	62.08	16.39	-35.3	-36.2	23.6	0.00e+00	0	36	0	656408576	44	5693
2026-01-29 21:34:00.81	61.89	16.46	-35.3	-36.2	23.6	0.00e+00	0	36	0	659554304	44	5710
2026-01-29 21:34:01.82	61.70	16.52	-35.3	-36.3	23.6	0.00e+00	0	35	0	662700032	44	5751
2026-01-29 21:34:02.83	61.51	16.58	-35.5	-36.4	23.6	0.00e+00	0	36	0	665845760	44	5825
2026-01-29 21:34:03.84	61.32	16.64	-35.6	-36.6	23.4	0.00e+00	0	35	0	668991488	44	5944
2026-01-29 21:34:04.85	61.12	16.70	-35.4	-36.3	23.6	0.00e+00	0	35	0	672137216	44	5774
2026-01-29 21:34:05.86	60.93	16.76	-35.4	-36.4	23.6	0.00e+00	0	36	0	675282944	44	5813
2026-01-29 21:34:06.87	60.74	16.82	-35.3	-36.2	23.7	0.00e+00	0	35	0	678428672	44	5709
2026-01-29 21:34:07.88	60.54	16.88	-35.3	-36.2	23.7	0.00e+00	0	36	0	681574400	44	5710
2026-01-29 21:34:08.89	60.35	16.94	-35.2	-36.2	23.7	0.00e+00	0	36	0	684720128	44	5676
2026-01-29 21:34:09.90	60.15	17.00	-35.4	-36.4	23.5	0.00e+00	0	36	0	687865856	44	5792
2026-01-29 21:34:10.91	59.95	17.06	-35.3	-36.2	23.6	0.00e+00	0	36	0	691011584	44	5701
2026-01-29 21:34:11.92	59.76	17.12	-35.4	-36.3	23.6	0.00e+00	0	36	0	694157312	44	5764
2026-01-29 21:34:12.93	59.56	17.18	-35.3	-36.2	23.6	0.00e+00	0	35	0	697303040	44	5700
2026-01-29 21:34:13.94	59.36	17.23	-35.3	-36.2	23.5	0.00e+00	0	35	0	700448768	44	5712
2026-01-29 21:34:14.95	59.16	17.29	-35.3	-36.3	23.6	0.00e+00	0	36	0	703594496	44	5749
2026-01-29 21:34:15.96	58.96	17.35	-35.4	-36.4	23.6	0.00e+00	0	35	0	706740224	44	5809
2026-01-29 21:34:16.97	58.76	17.41	-35.4	-36.4	23.6	0.00e+00	0	35	0	709885952	44	5809
2026-01-29 21:34:17.98	58.55	17.47	-35.4	-36.3	23.6	0.00e+00	0	35	0	713031680	44	5779
2026-01-29 21:34:18.99	58.35	17.53	-35.4	-36.4	23.6	0.00e+00	0	36	0	716177408	44	5810
2026-01-29 21:34:20.00	58.15	17.58	-35.3	-36.2	23.7	0.00e+00	0	36	0	719323136	44	5724
2026-01-29 21:34:21.01	57.94	17.64	-35.3	-36.2	23.6	0.00e+00	0	35	0	722468864	44	5676
2026-01-29 21:34:22.02	57.74	17.70	-35.2	-36.1	23.8	0.00e+00	0	35	0	725614592	44	5640
2026-01-29 21:34:23.03	57.53	17.75	-35.2	-36.1	23.8	0.00e+00	0	35	0	728760320	44	5634
2026-01-29 21:34:24.04	57.32	17.81	-35.0	-35.9	23.9	0.00e+00	0	35	0	731906048	44	5479
2026-01-29 21:34:25.05	57.12	17.87	-35.0	-35.9	23.9	0.00e+00	0	35	0	735051776	44	5528
2026-01-29 21:34:26.06	56.91	17.92	-35.0	-35.9	23.9	0.00e+00	0	35	0	738197504	44	5476
2026-01-29 21:34:27.07	56.70	17.98	-35.1	-36.0	23.9	0.00e+00	0	36	0	741343232	44	5551
2026-01-29 21:34:28.08	56.49	18.03	-34.8	-35.7	24.0	0.00e+00	0	35	0	744488960	44	5378
2026-01-29 21:34:29.09	56.28	18.09	-34.9	-35.8	24.0	0.00e+00	0	35	0	747634688	42	6104
2026-01-29 21:34:30.10	56.07	18.14	-34.9	-35.8	24.1	0.00e+00	0	35	0	750780416	42	6106
2026-01-29 21:34:31.11	55.85	18.20	-34.5	-35.4	24.3	0.00e+00	0	36	0	753926144	42	5833
2026-01-29 21:34:32.12	55.64	18.25	-34.6	-35.5	24.3	0.00e+00	0	36	0	757071872	42	5905
2026-01-29 21:34:33.13	55.43	18.30	-34.6	-35.5	24.3	0.00e+00	0	35	0	760217600	42	5909
2026-01-29 21:34:34.14	55.21	18.36	-34.4	-35.3	24.5	0.00e+00	0	35	0	763363328	42	5777
2026-01-29 21:34:35.15	55.00	18.41	-34.4	-35.3	24.4	0.00e+00	0	35	0	766509056	42	5759
2026-01-29 21:34:36.16	54.78	18.46	-34.4	-35.3	24.3	0.00e+00	0	35	0	769654784	42	5784
2026-01-29 21:34:37.17	54.56	18.52	-34.5	-35.4	24.3	0.00e+00	0	35	0	772800512	42	5839
2026-01-29 21:34:38.19	54.34	18.57	-34.5	-35.5	24.3	0.00e+00	0	35	0	775946240	42	5868
2026-01-29 21:34:39.20	54.12	18.62	-34.4	-35.3	24.3	0.00e+00	0	35	0	779091968	42	5775
2026-01-29 21:34:40.20	53.91	18.67	-34.5	-35.4	24.3	0.00e+00	0	35	0	782237696	42	5850
2026-01-29 21:34:41.22	53.68	18.73	-34.6	-35.5	24.2	0.00e+00	0	35	0	785383424	42	5903
2026-01-29 21:34:42.22	53.47	18.78	-34.4	-35.3	24.3	0.00e+00	0	35	0	788529152	42	5764
2026-01-29 21:34:43.23	53.24	18.83	-34.4	-35.3	24.4	0.00e+00	0	35	0	791674880	42	5755
2026-01-29 21:34:44.25	53.02	18.88	-34.5	-35.4	24.2	0.00e+00	0	36	0	794820608	42	5858
2026-01-29 21:34:45.26	52.80	18.93	-34.5	-35.4	24.3	0.00e+00	0	35	0	797966336	42	5822
2026-01-29 21:34:46.27	52.57	18.98	-34.4	-35.3	24.5	0.00e+00	0	36	0	801112064	42	5768
2026-01-29 21:34:47.28	52.35	19.03	-34.6	-35.5	24.3	0.00e+00	0	36	0	804257792	42	5868
2026-01-29 21:34:48.29	52.12	19.08	-34.6	-35.5	24.3	0.00e+00	0	35	0	807403520	42	5921
2026-01-29 21:34:49.30	51.90	19.12	-34.5	-35.4	24.5	0.00e+00	0	36	0	810549248	42	5807
2026-01-29 21:34:50.31	51.67	19.17	-34.4	-35.3	24.5	0.00e+00	0	36	0	813694976	42	5778
2026-01-29 21:34:51.32	51.44	19.22	-34.4	-35.3	24.4	0.00e+00	0	35	0	816840704	42	5787
2026-01-29 21:34:52.33	51.22	19.27	-34.3	-35.2	24.4	0.00e+00	0	36	0	819986432	42	5672
2026-01-29 21:34:53.34	50.99	19.31	-34.4	-35.2	24.5	0.00e+00	0	36	0	823132160	42	5723
2026-01-29 21:34:54.35	50.76	19.36	-34.4	-35.3	24.5	0.00e+00	0	35	0	827326464	42	5726
2026-01-29 21:34:55.36	50.53	19.41	-34.4	-35.2	24.5	0.00e+00	0	36	0	829423616	42	5722
2026-01-29 21:34:56.37	50.30	19.45	-34.1	-35.0	24.7	0.00e+00	0	36	0	832569344	42	5552
2026-01-29 21:34:57.38	50.06	19.50	-34.1	-35.0	24.7	0.00e+00	0	35	0	835715072	42	5565
2026-01-29 21:34:58.39	49.83	19.54	-34.1	-34.9	24.6	0.00e+00	0	36	0	838860800	42	5515
2026-01-29 21:34:59.40	49.60	19.59	-33.9	-34.8	24.8	0.00e+00	0	35	0	843055104	42	5425
2026-01-29 21:35:00.41	49.37	19.63	-33.9	-34.8	24.7	0.00e+00	0	35	0	846200832	42	5449
2026-01-29 21:35:01.42	49.13	19.68	-33.9	-34.8	24.7	0.00e+00	0	35	0	849346560	42	5443
2026-01-29 21:35:02.43	48.90	19.72	-34.0	-34.9	24.7	0.00e+00	0	36	0	851443712	42	5487
2026-01-29 21:35:03.44	48.66	19.76	-34.1	-35.0	24.6	0.00e+00	0	36	0	854589440	42	5539
2026-01-29 21:35:04.45	48.42	19.81	-34.2	-35.1	24.5	0.00e+00	0	35	0	858783744	42	5609
2026-01-29 21:35:05.46	48.19	19.85	-34.2	-35.1	24.5	0.00e+00	0	36	0	861929472	42	5620
2026-01-29 21:35:06.47	47.95	19.89	-34.3	-35.2	24.5	0.00e+00	0	36	0	865075200	42	5719
2026-01-29 21:35:07.48	47.71	19.93	-34.1	-35.0	24.7	0.00e+00	0	36	0	868220928	42	5579
2026-01-29 21:35:08.49	47.47	19.97	-34.2	-35.1	24.6	0.00e+00	0	36	0	871366656	42	5609
2026-01-29 21:35:09.50	47.23	20.01	-34.1	-35.0	24.6	0.00e+00	0	36	0	874512384	42	5560
2026-01-29 21:35:10.51	46.99	20.05	-34.0	-34.9	24.7	0.00e+00	0	35	0	877658112	42	5516
2026-01-29 21:35:11.52	46.75	20.09	-34.1	-35.0	24.7	0.00e+00	0	35	0	880803840	42	5550
2026-01-29 21:35:12.53	46.51	20.13	-33.9	-34.8	24.9	0.00e+00	0	36	0	883949568	42	5438
2026-01-29 21:35:13.54	46.27	20.17	-34.0	-34.8	24.8	0.00e+00	0	35	0	887095296	42	5465
2026-01-29 21:35:14.56	46.02	20.21	-34.1	-34.9	24.8	0.00e+00	0	36	0	890241024	42	5518
2026-01-29 21:35:15.57	45.78	20.24	-34.1	-35.0	24.7	0.00e+00	0	36	0	893386752	42	5576
2026-01-29 21:35:16.58	45.54	20.28	-34.1	-35.0	24.8	0.00e+00	0	35	0	896532480	42	5547
2026-01-29 21:35:17.59	45.29	20.32	-34.0	-34.8	24.9	0.00e+00	0	36	0	899678208	42	5454
2026-01-29 21:35:18.60	45.05	20.35	-34.0	-34.9	24.8	0.00e+00	0	35	0	902823936	42	5508
2026-01-29 21:35:19.61	44.80	20.39	-33.9	-34.8	24.8	0.00e+00	0	36	0	905969664	42	5435
2026-01-29 21:35:20.62	44.56	20.42	-34.2	-35.1	24.7	0.00e+00	0	36	0	909115392	42	5616
2026-01-29 21:35:21.63	44.31	20.46	-34.0	-34.9	24.7	0.00e+00	0	36	0	912261120	42	5503
2026-01-29 21:35:22.64	44.06	20.49	-34.0	-34.9	24.8	0.00e+00	0	36	0	915406848	42	5504
2026-01-29 21:35:23.65	43.81	20.52	-34.1	-35.0	24.6	0.00e+00	0	36	0	918552576	42	5582
2026-01-29 21:35:24.66	43.57	20.56	-34.2	-35.0	24.6	0.00e+00	0	36	0	921698304	42	5592
2026-01-29 21:35:25.67	43.32	20.59	-34.1	-35.0	24.7	0.00e+00	0	36	0	924844032	42	5565
2026-01-29 21:35:26.68	43.07	20.62	-34.2	-35.0	24.7	0.00e+00	0	35	0	927989760	42	5587
2026-01-29 21:35:27.69	42.82	20.65	-34.2	-35.1	24.7	0.00e+00	0	36	0	931135488	42	5623
2026-01-29 21:35:28.70	42.57	20.68	-34.2	-35.0	24.6	0.00e+00	0	36	0	934281216	42	5593
2026-01-29 21:35:29.71	42.32	20.71	-34.3	-35.2	24.5	0.00e+00	0	35	0	937426944	42	5670
2026-01-29 21:35:30.72	42.06	20.74	-34.3	-35.2	24.5	0.00e+00	0	36	0	940572672	42	5670
2026-01-29 21:35:31.73	41.81	20.77	-34.3	-35.1	24.7	0.00e+00	0	36	0	943718400	42	5653
2026-01-29 21:35:32.74	41.56	20.80	-34.3	-35.1	24.6	0.00e+00	0	36	0	946864128	42	5652
2026-01-29 21:35:33.75	41.31	20.83	-34.1	-35.0	24.7	0.00e+00	0	36	0	950009856	42	5570
2026-01-29 21:35:34.76	41.05	20.85	-34.2	-35.1	24.8	0.00e+00	0	36	0	953155584	42	5595
2026-01-29 21:35:35.77	40.80	20.88	-34.0	-34.9	24.9	0.00e+00	0	35	0	956301312	42	5490
2026-01-29 21:35:36.78	40.55	20.91	-34.2	-35.1	24.7	0.00e+00	0	36	0	959447040	42	5612
2026-01-29 21:35:37.79	40.29	20.93	-34.1	-35.0	24.6	0.00e+00	0	36	0	962592768	42	5533
2026-01-29 21:35:38.80	40.04	20.96	-34.0	-34.9	24.8	0.00e+00	0	36	0	965738496	42	5513
2026-01-29 21:35:39.81	39.78	20.98	-34.2	-35.0	24.8	0.00e+00	0	36	0	968884224	42	5588
2026-01-29 21:35:40.82	39.53	21.01	-34.0	-34.9	24.8	0.00e+00	0	36	0	972029952	42	5512
2026-01-29 21:35:41.83	39.27	21.03	-34.0	-34.8	24.9	0.00e+00	0	36	0	975175680	42	5455
2026-01-29 21:35:42.84	39.01	21.05	-34.0	-34.9	24.8	0.00e+00	0	36	0	978321408	42	5473
2026-01-29 21:35:43.85	38.76	21.08	-34.2	-35.0	24.6	0.00e+00	0	36	0	981467136	42	5591
2026-01-29 21:35:44.86	38.50	21.10	-34.1	-35.0	24.6	0.00e+00	0	36	0	984612864	42	5574
2026-01-29 21:35:45.87	38.24	21.12	-34.2	-35.1	24.7	0.00e+00	0	35	0	987758592	42	5611
2026-01-29 21:35:46.88	37.98	21.14	-34.1	-35.0	24.7	0.00e+00	0	36	0	990904320	42	5586
2026-01-29 21:35:47.89	37.72	21.16	-34.2	-35.1	24.6	0.00e+00	0	36	0	994050048	42	5615
2026-01-29 21:35:48.90	37.47	21.18	-34.2	-35.0	24.7	0.00e+00	0	35	0	997195776	42	5592
2026-01-29 21:35:49.91	37.21	21.20	-34.1	-34.9	24.7	0.00e+00	0	35	0	1000341504	42	5521
2026-01-29 21:35:50.92	36.95	21.21	-34.1	-35.0	24.6	0.00e+00	0	35	0	1003487232	42	5562
2026-01-29 21:35:51.93	36.69	21.23	-34.3	-35.1	24.5	0.00e+00	0	36	0	1006632960	42	5658
2026-01-29 21:35:52.94	36.43	21.25	-34.2	-35.1	24.7	0.00e+00	0	36	0	1009778688	42	5627
2026-01-29 21:35:53.95	36.17	21.26	-34.4	-35.2	24.5	0.00e+00	0	36	0	1012924416	42	5721
2026-01-29 21:35:54.96	35.91	21.28	-34.3	-35.2	24.6	0.00e+00	0	36	0	1016070144	42	5709
2026-01-29 21:35:55.97	35.65	21.29	-34.2	-35.0	24.8	0.00e+00	0	36	0	1019215872	42	5592
2026-01-29 21:35:56.99	35.38	21.31	-34.2	-35.1	24.7	0.00e+00	0	36	0	1022361600	42	5630
2026-01-29 21:35:58.00	35.12	21.32	-34.1	-35.0	24.8	0.00e+00	0	36	0	1025507328	42	5556
2026-01-29 21:35:59.01	34.86	21.34	-34.2	-35.0	24.7	0.00e+00	0	36	0	1028653056	42	5593
2026-01-29 21:36:00.02	34.60	21.35	-34.2	-35.0	24.7	0.00e+00	0	36	0	1031798784	42	5582
2026-01-29 21:36:01.03	34.34	21.36	-34.2	-35.1	24.7	0.00e+00	0	36	0	1034944512	42	5613
2026-01-29 21:36:02.04	34.08	21.37	-34.0	-34.9	24.8	0.00e+00	0	36	0	1038090240	42	5490
2026-01-29 21:36:03.05	33.81	21.38	-34.1	-35.0	24.7	0.00e+00	0	36	0	1041235968	42	5550
2026-01-29 21:36:04.06	33.55	21.39	-34.1	-34.9	24.8	0.00e+00	0	36	0	1044381696	42	5520
2026-01-29 21:36:05.07	33.29	21.40	-34.0	-34.9	24.9	0.00e+00	0	35	0	1047527424	42	5475
2026-01-29 21:36:06.08	33.03	21.41	-34.2	-35.0	24.8	0.00e+00	0	36	0	1050673152	42	5585
2026-01-29 21:36:07.09	32.76	21.42	-34.2	-35.0	24.8	0.00e+00	0	36	0	1053818880	42	5580
2026-01-29 21:36:08.10	32.50	21.42	-34.2	-35.1	24.7	0.00e+00	0	36	0	1056964608	42	5613
2026-01-29 21:36:09.11	32.24	21.43	-34.3	-35.2	24.5	0.00e+00	0	36	0	1060110336	42	5681
2026-01-29 21:36:10.12	31.97	21.44	-34.4	-35.3	24.5	0.00e+00	0	36	0	1063256064	42	5732
2026-01-29 21:36:11.13	31.71	21.44	-34.3	-35.2	24.7	0.00e+00	0	36	0	1066401792	42	5682
2026-01-29 21:36:12.14	31.45	21.45	-34.1	-34.9	24.8	0.00e+00	0	36	0	1069547520	42	5521
2026-01-29 21:36:13.15	31.18	21.45	-34.1	-35.0	24.7	0.00e+00	0	36	0	1072693248	42	5553
2026-01-29 21:36:14.16	30.92	21.45	-34.1	-35.0	24.6	0.00e+00	0	36	0	1075838976	42	5546
2026-01-29 21:36:15.17	30.66	21.46	-34.2	-35.1	24.5	0.00e+00	0	36	0	1078984704	42	5597
2026-01-29 21:36:16.18	30.39	21.46	-34.0	-34.8	24.8	0.00e+00	0	36	0	1082130432	42	5467
2026-01-29 21:36:17.19	30.13	21.46	-34.0	-34.9	24.8	0.00e+00	0	35	0	1085276160	42	5479
2026-01-29 21:36:18.20	29.87	21.46	-33.9	-34.8	24.8	0.00e+00	0	35	0	1088421888	42	5443
2026-01-29 21:36:19.21	29.60	21.46	-34.0	-34.9	24.7	0.00e+00	0	36	0	1091567616	42	5497
2026-01-29 21:36:20.22	29.34	21.46	-34.2	-35.1	24.6	0.00e+00	0	36	0	1094713344	42	5599
2026-01-29 21:36:21.23	29.08	21.46	-34.2	-35.1	24.6	0.00e+00	0	36	0	1097859072	42	5651
2026-01-29 21:36:22.24	28.81	21.46	-34.2	-35.1	24.6	0.00e+00	0	36	0	1101004800	42	5619
2026-01-29 21:36:23.25	28.55	21.46	-34.3	-35.1	24.5	0.00e+00	0	36	0	1104150528	42	5657
2026-01-29 21:36:24.26	28.29	21.45	-34.3	-35.2	24.5	0.00e+00	0	36	0	1107296256	42	5670
2026-01-29 21:36:25.27	28.02	21.45	-34.3	-35.2	24.5	0.00e+00	0	36	0	1110441984	42	5662
2026-01-29 21:36:26.29	27.76	21.44	-34.4	-35.2	24.6	0.00e+00	0	36	0	1113587712	42	5719
2026-01-29 21:36:27.30	27.49	21.44	-34.4	-35.2	24.4	0.00e+00	0	36	0	1117782016	42	5722
2026-01-29 21:36:28.31	27.23	21.43	-34.4	-35.3	24.4	0.00e+00	0	36	0	1119879168	42	5788
2026-01-29 21:36:29.32	26.97	21.43	-34.5	-35.4	24.5	0.00e+00	0	36	0	1123024896	42	5831
2026-01-29 21:36:30.33	26.70	21.42	-34.7	-35.6	24.5	0.00e+00	0	36	0	1126170624	42	5953
2026-01-29 21:36:31.34	26.44	21.41	-34.5	-35.4	24.5	0.00e+00	0	36	0	1129316352	42	5834
2026-01-29 21:36:32.35	26.18	21.41	-34.4	-35.3	24.6	0.00e+00	0	36	0	1133510656	42	5758
2026-01-29 21:36:33.36	25.92	21.40	-34.4	-35.3	24.6	0.00e+00	0	36	0	1136656384	42	5757
2026-01-29 21:36:34.37	25.65	21.39	-34.4	-35.3	24.6	0.00e+00	0	36	0	1139802112	42	5750
2026-01-29 21:36:35.38	25.39	21.38	-34.2	-35.0	24.7	0.00e+00	0	36	0	1142947840	42	5589
2026-01-29 21:36:36.39	25.13	21.37	-34.2	-35.1	24.7	0.00e+00	0	36	0	1145044992	42	5600
2026-01-29 21:36:37.40	24.87	21.35	-34.2	-35.0	24.7	0.00e+00	0	36	0	1149239296	42	5590
2026-01-29 21:36:38.41	24.61	21.34	-34.3	-35.1	24.7	0.00e+00	0	36	0	1152385024	42	5655
2026-01-29 21:36:39.42	24.34	21.33	-34.1	-35.0	24.7	0.00e+00	0	36	0	1155530752	42	5564
2026-01-29 21:36:40.43	24.08	21.32	-34.1	-35.0	24.7	0.00e+00	0	36	0	1158676480	42	5534
2026-01-29 21:36:41.44	23.82	21.30	-34.1	-35.0	24.8	0.00e+00	0	35	0	1161822208	42	5537
2026-01-29 21:36:42.45	23.56	21.29	-34.2	-35.0	24.7	0.00e+00	0	35	0	1164967936	42	5587
2026-01-29 21:36:43.46	23.30	21.27	-34.1	-35.0	24.7	0.00e+00	0	36	0	1168113664	42	5543
2026-01-29 21:36:44.47	23.04	21.26	-34.3	-35.2	24.6	0.00e+00	0	36	0	1171259392	42	5712
2026-01-29 21:36:45.48	22.78	21.24	-34.2	-35.1	24.7	0.00e+00	0	36	0	1174405120	42	5604
2026-01-29 21:36:46.48	22.52	21.22	-34.4	-35.3	24.5	0.00e+00	0	36	0	1177550848	42	5767
2026-01-29 21:36:47.49	22.26	21.21	-34.4	-35.3	24.5	0.00e+00	0	36	0	1180696576	42	5768
2026-01-29 21:36:48.50	22.01	21.19	-34.6	-35.5	24.4	0.00e+00	0	36	0	1183842304	42	5859
2026-01-29 21:36:49.51	21.75	21.17	-34.5	-35.3	24.6	0.00e+00	0	36	0	1186988032	42	5783
2026-01-29 21:36:50.52	21.49	21.15	-34.2	-35.1	24.7	0.00e+00	0	36	0	1190133760	42	5636
2026-01-29 21:36:51.53	21.23	21.13	-34.3	-35.2	24.7	0.00e+00	0	36	0	1193279488	42	5692
2026-01-29 21:36:52.54	20.97	21.11	-34.3	-35.1	24.7	0.00e+00	0	36	0	1196425216	42	5650
2026-01-29 21:36:53.54	20.72	21.09	-34.3	-35.2	24.5	0.00e+00	0	36	0	1199570944	42	5687
2026-01-29 21:36:54.55	20.46	21.07	-34.4	-35.3	24.6	0.00e+00	0	36	0	1202716672	42	5754
2026-01-29 21:36:55.56	20.20	21.05	-34.2	-35.1	24.7	0.00e+00	0	35	0	1205862400	42	5621
2026-01-29 21:36:56.57	19.95	21.02	-34.1	-34.9	24.8	0.00e+00	0	36	0	1209008128	42	5521
2026-01-29 21:36:57.58	19.69	21.00	-34.2	-35.1	24.6	0.00e+00	0	36	0	1212153856	42	5625
2026-01-29 21:36:58.59	19.44	20.97	-34.1	-34.9	24.7	0.00e+00	0	36	0	1215299584	42	5520
2026-01-29 21:36:59.60	19.18	20.95	-34.0	-34.8	24.7	0.00e+00	0	36	0	1218445312	42	5460
2026-01-29 21:37:00.61	18.93	20.92	-34.0	-34.9	24.6	0.00e+00	0	36	0	1221591040	42	5529
2026-01-29 21:37:01.62	18.67	20.90	-34.1	-35.0	24.6	0.00e+00	0	36	0	1224736768	42	5539
2026-01-29 21:37:02.55	18.44	20.87	-34.3	-35.1	24.6	0.00e+00	0	36	0	1227882496	42	5650
2026-01-29 21:37:03.56	18.19	20.85	-34.2	-35.1	24.6	0.00e+00	0	36	0	1231028224	42	5630
2026-01-29 21:37:04.57	17.93	20.82	-34.2	-35.1	24.6	0.00e+00	0	36	0	1234173952	42	5617
2026-01-29 21:37:05.58	17.68	20.79	-34.3	-35.2	24.6	0.00e+00	0	36	0	1237319680	42	5666
2026-01-29 21:37:06.59	17.43	20.76	-34.4	-35.3	24.5	0.00e+00	0	36	0	1240465408	42	5726
2026-01-29 21:37:07.60	17.18	20.73	-34.3	-35.2	24.5	0.00e+00	0	36	0	1243611136	42	5715
2026-01-29 21:37:08.61	16.93	20.70	-34.4	-35.3	24.5	0.00e+00	0	36	0	1246756864	42	5733
2026-01-29 21:37:09.62	16.68	20.67	-34.5	-35.4	24.4	0.00e+00	0	36	0	1249902592	42	5818
2026-01-29 21:37:10.63	16.43	20.64	-34.5	-35.4	24.4	0.00e+00	0	36	0	1253048320	42	5815
2026-01-29 21:37:11.64	16.18	20.61	-34.6	-35.5	24.3	0.00e+00	0	36	0	1256194048	42	5912
2026-01-29 21:37:12.65	15.93	20.58	-34.9	-35.8	24.1	0.00e+00	0	36	0	1259339776	42	6128
2026-01-29 21:37:13.66	15.68	20.55	-34.8	-35.8	24.0	0.00e+00	0	36	0	1262485504	42	6083
2026-01-29 21:37:14.66	15.43	20.52	-34.5	-35.4	24.2	0.00e+00	0	36	0	1265631232	42	5855
2026-01-29 21:37:15.67	15.19	20.48	-34.6	-35.5	24.3	0.00e+00	0	36	0	1268776960	42	5887
2026-01-29 21:37:16.68	14.94	20.45	-34.6	-35.4	24.4	0.00e+00	0	36	0	1271922688	42	5856
2026-01-29 21:37:17.69	14.69	20.41	-34.4	-35.3	24.4	0.00e+00	0	36	0	1275068416	42	5748
2026-01-29 21:37:18.70	14.45	20.38	-34.2	-35.0	24.6	0.00e+00	0	36	0	1278214144	42	5594
2026-01-29 21:37:19.71	14.20	20.34	-34.3	-35.2	24.5	0.00e+00	0	36	0	1281359872	42	5677
2026-01-29 21:37:20.72	13.96	20.31	-34.3	-35.2	24.5	0.00e+00	0	36	0	1284505600	42	5694
2026-01-29 21:37:21.73	13.71	20.27	-34.3	-35.2	24.5	0.00e+00	0	36	0	1287651328	42	5705
2026-01-29 21:37:22.74	13.47	20.23	-34.5	-35.4	24.5	0.00e+00	0	36	0	1290797056	42	5855
2026-01-29 21:37:23.75	13.23	20.20	-34.2	-35.1	24.6	0.00e+00	0	36	0	1293942784	42	5645
2026-01-29 21:37:24.76	12.98	20.16	-34.4	-35.3	24.5	0.00e+00	0	36	0	1297088512	42	5726
2026-01-29 21:37:25.78	12.74	20.12	-34.3	-35.2	24.5	0.00e+00	0	36	0	1300234240	42	5705
2026-01-29 21:37:26.79	12.50	20.08	-34.5	-35.4	24.5	0.00e+00	0	36	0	1303379968	42	5802
2026-01-29 21:37:27.80	12.26	20.04	-34.4	-35.3	24.6	0.00e+00	0	36	0	1306525696	42	5777
2026-01-29 21:37:28.81	12.02	20.00	-34.4	-35.2	24.6	0.00e+00	0	36	0	1309671424	42	5723
2026-01-29 21:37:29.82	11.78	19.96	-34.5	-35.4	24.5	0.00e+00	0	36	0	1312817152	42	5802
2026-01-29 21:37:30.83	11.54	19.92	-34.4	-35.2	24.6	0.00e+00	0	36	0	1315962880	42	5715
2026-01-29 21:37:31.84	11.30	19.88	-34.4	-35.3	24.6	0.00e+00	0	36	0	1319108608	42	5754
2026-01-29 21:37:32.85	11.07	19.84	-34.3	-35.2	24.6	0.00e+00	0	36	0	1322254336	42	5683
2026-01-29 21:37:33.86	10.83	19.80	-34.3	-35.3	24.6	0.00e+00	0	36	0	1325400064	42	5727
2026-01-29 21:37:34.87	10.59	19.75	-34.3	-35.2	24.6	0.00e+00	0	36	0	1328545792	42	5701
2026-01-29 21:37:35.88	10.36	19.71	-34.2	-35.1	24.8	0.00e+00	0	36	0	1331691520	42	5609
2026-01-29 21:37:36.89	10.13	19.67	-34.2	-35.1	24.8	0.00e+00	0	36	0	1334837248	42	5635
2026-01-29 21:37:37.90	9.89	19.62	-33.9	-34.8	24.9	0.00e+00	0	36	0	1337982976	42	5414
2026-01-29 21:37:38.91	9.66	19.58	-34.0	-34.9	24.8	0.00e+00	0	36	0	1341128704	42	5485
2026-01-29 21:37:39.92	9.43	19.53	-33.8	-34.7	24.9	0.00e+00	0	36	0	1344274432	42	5367
2026-01-29 21:37:40.93	9.19	19.49	-34.1	-35.0	24.7	0.00e+00	0	36	0	1347420160	42	5555
2026-01-29 21:37:41.93	8.97	19.44	-34.3	-35.2	24.6	0.00e+00	0	36	0	1350565888	42	5663
2026-01-29 21:37:42.94	8.74	19.40	-34.3	-35.2	24.5	0.00e+00	0	36	0	1353711616	42	5715
2026-01-29 21:37:43.95	8.51	19.35	-34.4	-35.3	24.5	0.00e+00	0	36	0	1356857344	42	5734
2026-01-29 21:37:44.96	8.28	19.30	-34.5	-35.4	24.4	0.00e+00	0	36	0	1360003072	42	5849
2026-01-29 21:37:45.97	8.05	19.26	-34.6	-35.5	24.4	0.00e+00	0	36	0	1363148800	42	5880
2026-01-29 21:37:46.98	7.82	19.21	-34.7	-35.6	24.3	0.00e+00	0	36	0	1366294528	42	5961
2026-01-29 21:37:47.99	7.59	19.16	-34.8	-35.7	24.3	0.00e+00	0	36	0	1369440256	42	6038
2026-01-29 21:37:49.00	7.37	19.11	-34.8	-35.7	24.4	0.00e+00	0	36	0	1372585984	42	6016
2026-01-29 21:37:50.01	7.14	19.07	-34.8	-35.7	24.3	0.00e+00	0	36	0	1375731712	42	6029
2026-01-29 21:37:51.02	6.92	19.02	-34.7	-35.6	24.4	0.00e+00	0	36	0	1378877440	42	5992
2026-01-29 21:37:52.03	6.69	18.97	-34.8	-35.7	24.3	0.00e+00	0	36	0	1382023168	42	6005
2026-01-29 21:37:53.04	6.47	18.92	-34.7	-35.6	24.4	0.00e+00	0	36	0	1385168896	42	5945
2026-01-29 21:37:54.05	6.25	18.87	-34.7	-35.7	24.2	0.00e+00	0	36	0	1388314624	42	5999
2026-01-29 21:37:55.06	6.03	18.82	-34.6	-35.5	24.3	0.00e+00	0	36	0	1391460352	42	5877
2026-01-29 21:37:56.07	5.81	18.77	-34.5	-35.4	24.4	0.00e+00	0	36	0	1394606080	42	5815
2026-01-29 21:37:57.08	5.59	18.72	-34.5	-35.4	24.4	0.00e+00	0	36	0	1397751808	42	5802
2026-01-29 21:37:58.09	5.37	18.66	-34.5	-35.4	24.4	0.00e+00	0	36	0	1400897536	42	5829
2026-01-29 21:37:59.10	5.15	18.61	-34.3	-35.2	24.6	0.00e+00	0	36	0	1404043264	42	5709
2026-01-29 21:38:00.11	4.93	18.56	-34.4	-35.3	24.6	0.00e+00	0	36	0	1407188992	42	5771
2026-01-29 21:38:01.12	4.71	18.51	-34.4	-35.3	24.6	0.00e+00	0	36	0	1410334720	42	5783
2026-01-29 21:38:02.13	4.50	18.46	-34.7	-35.6	24.5	0.00e+00	0	36	0	1413480448	42	5958
2026-01-29 21:38:03.14	4.28	18.40	-34.8	-35.7	24.4	0.00e+00	0	36	0	1416626176	42	6001
2026-01-29 21:38:04.15	4.07	18.35	-34.9	-35.8	24.2	0.00e+00	0	36	0	1419771904	42	6073
2026-01-29 21:38:05.16	3.85	18.30	-34.8	-35.7	24.3	0.00e+00	0	36	0	1422917632	42	6052
2026-01-29 21:38:06.17	3.64	18.24	-34.9	-35.9	24.2	0.00e+00	0	36	0	1426063360	42	6144
2026-01-29 21:38:07.18	3.43	18.19	-34.8	-35.7	24.2	0.00e+00	0	36	0	1429209088	42	6007
2026-01-29 21:38:08.19	3.21	18.13	-34.8	-35.7	24.2	0.00e+00	0	36	0	1432354816	42	6059
2026-01-29 21:38:09.20	3.00	18.08	-34.7	-35.6	24.3	0.00e+00	0	36	0	1435500544	42	5985
2026-01-29 21:38:10.21	2.79	18.02	-34.7	-35.7	24.2	0.00e+00	0	36	0	1438646272	42	6005
2026-01-29 21:38:11.22	2.58	17.97	-34.6	-35.5	24.4	0.00e+00	0	36	0	1441792000	42	5872
2026-01-29 21:38:12.23	2.37	17.91	-34.8	-35.7	24.3	0.00e+00	0	36	0	1444937728	42	5998
2026-01-29 21:38:13.24	2.17	17.86	-34.5	-35.4	24.5	0.00e+00	0	36	0	1448083456	42	5798
2026-01-29 21:38:14.25	1.96	17.80	-34.6	-35.5	24.4	0.00e+00	0	36	0	1451229184	42	5893
2026-01-29 21:38:15.26	1.75	17.74	-34.4	-35.3	24.6	0.00e+00	0	36	0	1454374912	42	5780
2026-01-29 21:38:16.27	1.55	17.69	-34.4	-35.3	24.6	0.00e+00	0	36	0	1458569216	42	5775
2026-01-29 21:38:17.28	1.34	17.63	-34.4	-35.3	24.5	0.00e+00	0	36	0	1460666368	42	5763
2026-01-29 21:38:18.29	1.14	17.57	-34.4	-35.3	24.5	0.00e+00	0	36	0	1463812096	42	5756
2026-01-29 21:38:19.29	0.94	17.52	-34.5	-35.3	24.5	0.00e+00	0	36	0	1466957824	42	5790
2026-01-29 21:38:20.30	0.73	17.46	-34.5	-35.4	24.4	0.00e+00	0	36	0	1470103552	42	5842
2026-01-29 21:38:21.31	0.53	17.40	-34.7	-35.6	24.3	0.00e+00	0	36	0	1473249280	42	5935
2026-01-29 21:38:22.32	0.33	17.34	-34.8	-35.7	24.3	0.00e+00	0	36	0	1477443584	42	6031
2026-01-29 21:38:23.33	0.13	17.28	-34.8	-35.7	24.2	0.00e+00	0	36	0	1480589312	42	6052
2026-01-29 21:38:24.34	359.93	17.23	-34.9	-35.8	24.1	0.00e+00	0	36	0	1482686464	42	6096
2026-01-29 21:38:25.35	359.73	17.17	-34.8	-35.7	24.2	0.00e+00	0	36	0	1485832192	42	6062
2026-01-29 21:38:26.36	359.54	17.11	-34.9	-35.8	24.0	0.00e+00	0	36	0	1488977920	42	6132
2026-01-29 21:38:27.37	359.34	17.05	-34.8	-35.7	24.1	0.00e+00	0	36	0	1493172224	42	6025
2026-01-29 21:38:28.38	359.14	16.99	-34.8	-35.8	24.1	0.00e+00	0	36	0	1496317952	42	6067
2026-01-29 21:38:29.39	358.95	16.93	-34.8	-35.8	24.1	0.00e+00	0	36	0	1499463680	42	6066
2026-01-29 21:38:30.40	358.75	16.87	-34.8	-35.7	24.1	0.00e+00	0	36	0	1502609408	42	6054
2026-01-29 21:38:31.41	358.56	16.81	-34.8	-35.7	24.2	0.00e+00	0	36	0	1505755136	42	6052
2026-01-29 21:38:32.42	358.37	16.75	-34.8	-35.7	24.2	0.00e+00	0	36	0	1508900864	42	6039
2026-01-29 21:38:33.43	358.17	16.69	-34.8	-35.7	24.2	0.00e+00	0	36	0	1512046592	42	6060
2026-01-29 21:38:34.44	357.98	16.63	-35.0	-35.9	24.0	0.00e+00	0	36	0	1515192320	42	6202
2026-01-29 21:38:35.45	357.79	16.57	-35.1	-36.0	24.0	0.00e+00	0	36	0	1518338048	42	6263
2026-01-29 21:38:36.46	357.60	16.51	-34.9	-35.8	24.0	0.00e+00	0	36	0	1521483776	42	6113
2026-01-29 21:38:37.46	357.41	16.45	-35.0	-35.9	24.0	0.00e+00	0	36	0	1524629504	42	6154
2026-01-29 21:38:38.47	357.23	16.39	-35.0	-35.9	24.0	0.00e+00	0	36	0	1527775232	42	6201
2026-01-29 21:38:39.48	357.04	16.33	-35.0	-35.9	24.0	0.00e+00	0	36	0	1530920960	42	6195
2026-01-29 21:38:40.49	356.85	16.26	-35.1	-36.0	24.1	0.00e+00	0	36	0	1534066688	42	6251
2026-01-29 21:38:41.50	356.67	16.20	-34.9	-35.9	24.1	0.00e+00	0	36	0	1537212416	42	6143
2026-01-29 21:38:42.51	356.48	16.14	-35.0	-36.0	24.0	0.00e+00	0	36	0	1540358144	42	6206
2026-01-29 21:38:43.52	356.30	16.08	-35.0	-35.9	24.1	0.00e+00	0	36	0	1543503872	42	6159
2026-01-29 21:38:44.53	356.11	16.02	-35.1	-36.0	24.1	0.00e+00	0	36	0	1546649600	42	6254
2026-01-29 21:38:45.54	355.93	15.95	-35.1	-36.0	24.1	0.00e+00	0	36	0	1549795328	42	6223
2026-01-29 21:38:46.55	355.75	15.89	-35.2	-36.1	24.0	0.00e+00	0	36	0	1552941056	42	6321
2026-01-29 21:38:47.56	355.57	15.83	-35.1	-36.0	24.0	0.00e+00	0	36	0	1556086784	42	6256
2026-01-29 21:38:48.57	355.38	15.77	-35.2	-36.1	23.9	0.00e+00	0	36	0	1559232512	42	6315
2026-01-29 21:38:49.58	355.20	15.70	-35.0	-36.0	24.1	0.00e+00	0	36	0	1562378240	42	6221
2026-01-29 21:38:50.59	355.03	15.64	-35.1	-36.0	24.0	0.00e+00	0	36	0	1565523968	42	6212
2026-01-29 21:38:51.59	354.85	15.58	-35.0	-35.9	24.0	0.00e+00	0	36	0	1568669696	42	6179
2026-01-29 21:38:52.60	354.67	15.52	-34.9	-35.8	24.1	0.00e+00	0	36	0	1571815424	42	6117
2026-01-29 21:38:53.61	354.49	15.45	-34.9	-35.8	24.1	0.00e+00	0	36	0	1574961152	42	6109
2026-01-29 21:38:54.62	354.32	15.39	-34.9	-35.8	24.1	0.00e+00	0	36	0	1578106880	42	6123
2026-01-29 21:38:55.63	354.14	15.33	-35.1	-36.0	24.0	0.00e+00	0	36	0	1581252608	42	6228
2026-01-29 21:38:56.64	353.97	15.26	-35.1	-36.0	24.0	0.00e+00	0	36	0	1584398336	42	6267
2026-01-29 21:38:57.65	353.79	15.20	-35.1	-36.0	24.0	0.00e+00	0	36	0	1587544064	42	6273
2026-01-29 21:38:58.67	353.62	15.13	-35.2	-36.1	23.9	0.00e+00	0	36	0	1590689792	42	6341
2026-01-29 21:38:59.68	353.45	15.07	-35.4	-36.4	23.8	0.00e+00	0	36	0	1593835520	42	6515
2026-01-29 21:39:00.69	353.28	15.01	-35.4	-36.4	23.7	0.00e+00	0	36	0	1596981248	42	6503
2026-01-29 21:39:01.70	353.11	14.94	-35.2	-36.1	23.9	0.00e+00	0	36	0	1600126976	42	6326
2026-01-29 21:39:02.70	352.94	14.88	-35.2	-36.1	23.8	0.00e+00	0	36	0	1603272704	42	6331
2026-01-29 21:39:03.71	352.77	14.81	-35.3	-36.2	23.9	0.00e+00	0	36	0	1606418432	42	6366
2026-01-29 21:39:04.72	352.60	14.75	-35.1	-36.0	23.9	0.00e+00	0	36	0	1609564160	42	6250
2026-01-29 21:39:05.73	352.43	14.69	-35.1	-36.0	24.0	0.00e+00	0	36	0	1612709888	42	6254
2026-01-29 21:39:06.74	352.26	14.62	-35.0	-35.9	24.0	0.00e+00	0	36	0	1615855616	42	6196
2026-01-29 21:39:07.75	352.10	14.56	-35.1	-36.0	24.0	0.00e+00	0	36	0	1619001344	42	6270
2026-01-29 21:39:08.76	351.93	14.49	-35.3	-36.2	23.9	0.00e+00	0	36	0	1622147072	42	6379
2026-01-29 21:39:09.77	351.77	14.43	-35.2	-36.1	23.9	0.00e+00	0	36	0	1625292800	42	6338
2026-01-29 21:39:10.78	351.60	14.36	-35.2	-36.1	23.9	0.00e+00	0	36	0	1628438528	42	6344
2026-01-29 21:39:11.79	351.44	14.30	-35.4	-36.3	23.7	0.00e+00	0	36	0	1631584256	42	6457
2026-01-29 21:39:12.80	351.28	14.23	-35.6	-36.5	23.5	0.00e+00	0	36	0	1634729984	42	6632
2026-01-29 21:39:13.81	351.12	14.17	-35.6	-36.6	23.5	0.00e+00	0	36	0	1637875712	42	6691
2026-01-29 21:39:14.82	350.95	14.10	-35.5	-36.4	23.6	0.00e+00	0	36	0	1641021440	42	6557
2026-01-29 21:39:15.83	350.79	14.04	-35.4	-36.4	23.7	0.00e+00	0	36	0	1644167168	42	6501
2026-01-29 21:39:16.84	350.63	13.97	-35.5	-36.5	23.6	0.00e+00	0	36	0	1647312896	42	6577
2026-01-29 21:39:17.84	350.48	13.91	-35.2	-36.1	23.9	0.00e+00	0	36	0	1650458624	42	6297
2026-01-29 21:39:18.85	350.32	13.84	-35.2	-36.2	23.8	0.00e+00	0	36	0	1653604352	42	6375
2026-01-29 21:39:19.86	350.16	13.78	-35.0	-36.0	23.9	0.00e+00	0	36	0	1656750080	42	6230
2026-01-29 21:39:20.87	350.00	13.71	-35.2	-36.1	23.8	0.00e+00	0	36	0	1659895808	42	6303
2026-01-29 21:39:21.88	349.85	13.65	-35.1	-36.0	23.8	0.00e+00	0	36	0	1663041536	42	6249
2026-01-29 21:39:22.89	349.69	13.58	-35.1	-36.0	23.8	0.00e+00	0	36	0	1666187264	42	6267
2026-01-29 21:39:23.90	349.54	13.52	-35.2	-36.1	23.8	0.00e+00	0	36	0	1669332992	42	6344
2026-01-29 21:39:24.91	349.38	13.45	-35.2	-36.1	23.8	0.00e+00	0	36	0	1672478720	42	6321
2026-01-29 21:39:25.92	349.23	13.39	-35.1	-36.0	23.8	0.00e+00	0	36	0	1675624448	42	6277
2026-01-29 21:39:26.93	349.08	13.32	-35.1	-36.0	23.8	0.00e+00	0	36	0	1678770176	42	6274
2026-01-29 21:39:27.94	348.92	13.25	-35.1	-36.0	23.7	0.00e+00	0	36	0	1681915904	42	6272
2026-01-29 21:39:28.95	348.77	13.19	-35.1	-36.0	23.8	0.00e+00	0	36	0	1685061632	42	6271
2026-01-29 21:39:29.96	348.62	13.12	-35.2	-36.1	23.7	0.00e+00	0	36	0	1688207360	42	6326
2026-01-29 21:39:30.97	348.47	13.06	-35.2	-36.1	23.8	0.00e+00	0	36	0	1691353088	42	6331
2026-01-29 21:39:31.98	348.32	12.99	-35.2	-36.2	23.7	0.00e+00	0	36	0	1694498816	42	6379
2026-01-29 21:39:32.99	348.17	12.93	-35.3	-36.2	23.6	0.00e+00	0	36	0	1697644544	42	6412
2026-01-29 21:39:34.00	348.03	12.86	-35.5	-36.4	23.6	0.00e+00	0	36	0	1700790272	42	6546
2026-01-29 21:39:35.01	347.88	12.80	-35.6	-36.5	23.4	0.00e+00	0	36	0	1703936000	42	6619
2026-01-29 21:39:36.02	347.73	12.73	-35.6	-36.6	23.3	0.00e+00	0	36	0	1707081728	44	5941
2026-01-29 21:39:37.03	347.59	12.66	-35.9	-36.8	23.1	0.00e+00	0	36	0	1710227456	44	6119
2026-01-29 21:39:38.04	347.44	12.60	-35.9	-36.9	23.0	0.00e+00	0	36	0	1713373184	44	6157
2026-01-29 21:39:39.05	347.30	12.53	-35.9	-36.9	23.0	0.00e+00	0	36	0	1716518912	44	6136
2026-01-29 21:39:40.06	347.15	12.47	-36.1	-37.1	22.7	0.00e+00	0	36	0	1719664640	44	6323
2026-01-29 21:39:41.07	347.01	12.40	-36.2	-37.2	22.8	0.00e+00	0	36	0	1722810368	44	6402
2026-01-29 21:39:42.08	346.87	12.34	-35.7	-36.6	23.2	0.00e+00	0	36	0	1725956096	44	5990
2026-01-29 21:39:43.10	346.72	12.27	-35.5	-36.5	23.4	0.00e+00	0	36	0	1729101824	44	5873
2026-01-29 21:39:44.11	346.58	12.20	-35.7	-36.7	23.2	0.00e+00	0	36	0	1732247552	44	6001
2026-01-29 21:39:45.12	346.44	12.14	-35.9	-36.9	23.2	0.00e+00	0	36	0	1735393280	44	6162
2026-01-29 21:39:46.13	346.30	12.07	-35.9	-36.9	23.1	0.00e+00	0	36	0	1738539008	44	6172
2026-01-29 21:39:47.13	346.16	12.01	-36.1	-37.1	23.1	0.00e+00	0	36	0	1741684736	44	6322
2026-01-29 21:39:48.15	346.02	11.94	-35.7	-36.6	23.4	0.00e+00	0	36	0	1744830464	44	5963
2026-01-29 21:39:49.16	345.88	11.88	-35.9	-36.9	23.1	0.00e+00	0	36	0	1747976192	44	6154
2026-01-29 21:39:50.17	345.75	11.81	-36.1	-37.1	23.0	0.00e+00	0	36	0	1751121920	44	6301
2026-01-29 21:39:51.18	345.61	11.74	-36.3	-37.3	22.8	0.00e+00	0	36	0	1754267648	44	6478
2026-01-29 21:39:52.19	345.47	11.68	-36.4	-37.5	22.7	0.00e+00	0	36	0	1757413376	44	6592
2026-01-29 21:39:53.20	345.34	11.61	-36.5	-37.5	22.6	0.00e+00	0	36	0	1760559104	44	6643
2026-01-29 21:39:54.21	345.20	11.55	-36.6	-37.6	22.5	0.00e+00	0	36	0	1763704832	44	6671
2026-01-29 21:39:55.22	345.07	11.48	-36.5	-37.6	22.5	0.00e+00	0	36	0	1766850560	44	6657
2026-01-29 21:39:56.23	344.93	11.42	-36.5	-37.5	22.6	0.00e+00	0	36	0	1769996288	44	6617
2026-01-29 21:39:57.24	344.80	11.35	-36.4	-37.5	22.5	0.00e+00	0	36	0	1773142016	44	6600
2026-01-29 21:39:58.25	344.67	11.29	-36.4	-37.5	22.6	0.00e+00	0	36	0	1776287744	44	6584
2026-01-29 21:39:59.26	344.53	11.22	-36.1	-37.1	22.8	0.00e+00	0	36	0	1779433472	44	6345
2026-01-29 21:40:00.27	344.40	11.15	-36.1	-37.1	22.9	0.00e+00	0	36	0	1782579200	44	6349
2026-01-29 21:40:01.28	344.27	11.09	-36.2	-37.2	22.9	0.00e+00	0	36	0	1785724928	44	6356
2026-01-29 21:40:02.28	344.14	11.02	-36.3	-37.3	22.8	0.00e+00	0	36	0	1788870656	44	6451
2026-01-29 21:40:03.29	344.01	10.96	-36.3	-37.2	22.9	0.00e+00	0	36	0	1792016384	44	6415
2026-01-29 21:40:04.30	343.88	10.89	-36.2	-37.2	22.8	0.00e+00	0	36	0	1795162112	44	6410
2026-01-29 21:40:05.31	343.76	10.83	-36.5	-37.5	22.6	0.00e+00	0	36	0	1798307840	44	6606
2026-01-29 21:40:06.32	343.63	10.76	-36.4	-37.4	22.7	0.00e+00	0	36	0	1801453568	44	6534
2026-01-29 21:40:07.33	343.50	10.70	-36.7	-37.7	22.5	0.00e+00	0	36	0	1804599296	44	6734
2026-01-29 21:40:08.34	343.37	10.63	-36.8	-37.9	22.3	0.00e+00	0	36	0	1807745024	46	6145
2026-01-29 21:40:09.35	343.25	10.57	-36.9	-37.9	22.3	0.00e+00	0	36	0	1810890752	46	6171
2026-01-29 21:40:10.36	343.12	10.50	-36.9	-38.0	22.2	0.00e+00	0	36	0	1814036480	46	6224
2026-01-29 21:40:11.37	343.00	10.44	-36.8	-37.8	22.2	0.00e+00	0	36	0	1818230784	46	6126
2026-01-29 21:40:12.38	342.87	10.37	-36.8	-37.8	22.2	0.00e+00	0	36	0	1821376512	46	6131
2026-01-29 21:40:13.39	342.75	10.31	-36.7	-37.8	22.3	0.00e+00	0	36	0	1823473664	46	6082
2026-01-29 21:40:14.40	342.63	10.24	-36.6	-37.7	22.3	0.00e+00	0	36	0	1826619392	46	5996
2026-01-29 21:40:15.41	342.50	10.18	-36.4	-37.4	22.5	0.00e+00	0	36	0	1829765120	46	5834
2026-01-29 21:40:16.42	342.38	10.11	-36.3	-37.3	22.7	0.00e+00	0	36	0	1833959424	46	5751
2026-01-29 21:40:17.43	342.26	10.05	-36.5	-37.5	22.6	0.00e+00	0	36	0	1837105152	46	5877
2026-01-29 21:40:18.44	342.14	9.98	-36.6	-37.6	22.5	0.00e+00	0	36	0	1840250880	46	5946
2026-01-29 21:40:19.45	342.02	9.92	-36.6	-37.6	22.5	0.00e+00	0	36	0	1843396608	46	5980
2026-01-29 21:40:20.46	341.90	9.85	-36.4	-37.4	22.6	0.00e+00	0	36	0	1846542336	46	5823
2026-01-29 21:40:21.47	341.78	9.79	-36.7	-37.7	22.5	0.00e+00	0	36	0	1848639488	46	6018
2026-01-29 21:40:22.47	341.66	9.72	-36.6	-37.6	22.6	0.00e+00	0	36	0	1852833792	46	5939
2026-01-29 21:40:23.48	341.54	9.66	-36.8	-37.8	22.3	0.00e+00	0	36	0	1855979520	46	6093
2026-01-29 21:40:24.49	341.42	9.60	-37.0	-38.0	22.2	0.00e+00	0	36	0	1859125248	46	6261
2026-01-29 21:40:25.50	341.31	9.53	-36.9	-37.9	22.3	0.00e+00	0	36	0	1862270976	46	6188
2026-01-29 21:40:26.51	341.19	9.47	-36.9	-37.9	22.2	0.00e+00	0	36	0	1865416704	46	6170
2026-01-29 21:40:27.52	341.07	9.40	-37.1	-38.1	22.0	0.00e+00	0	36	0	1868562432	46	6350
2026-01-29 21:40:28.53	340.96	9.34	-37.0	-38.1	22.1	0.00e+00	0	36	0	1871708160	46	6303
2026-01-29 21:40:29.54	340.84	9.27	-37.1	-38.1	22.0	0.00e+00	0	36	0	1874853888	46	6307
2026-01-29 21:40:30.55	340.73	9.21	-36.8	-37.8	22.2	0.00e+00	0	36	0	1877999616	46	6110
2026-01-29 21:40:31.56	340.61	9.14	-36.9	-37.9	22.1	0.00e+00	0	36	0	1881145344	46	6182
2026-01-29 21:40:32.57	340.50	9.08	-36.9	-37.9	22.0	0.00e+00	0	36	0	1884291072	46	6179
2026-01-29 21:40:33.57	340.39	9.02	-37.0	-38.1	21.9	0.00e+00	0	36	0	1887436800	46	6285
2026-01-29 21:40:34.58	340.28	8.95	-36.8	-37.8	22.2	0.00e+00	0	36	0	1890582528	46	6098
2026-01-29 21:40:35.59	340.16	8.89	-36.5	-37.5	22.5	0.00e+00	0	36	0	1893728256	46	5914
2026-01-29 21:40:36.60	340.05	8.83	-36.6	-37.6	22.4	0.00e+00	0	36	0	1896873984	46	5980
2026-01-29 21:40:37.62	339.94	8.76	-36.9	-37.9	22.3	0.00e+00	0	36	0	1900019712	46	6178
2026-01-29 21:40:38.63	339.83	8.70	-36.7	-37.7	22.4	0.00e+00	0	36	0	1903165440	46	6046
2026-01-29 21:40:39.64	339.72	8.63	-36.8	-37.8	22.3	0.00e+00	0	36	0	1906311168	46	6123
2026-01-29 21:40:40.65	339.61	8.57	-37.0	-38.0	22.2	0.00e+00	0	36	0	1909456896	46	6236
2026-01-29 21:40:41.66	339.50	8.51	-37.0	-38.0	22.3	0.00e+00	0	36	0	1912602624	46	6242
2026-01-29 21:40:42.67	339.39	8.44	-37.1	-38.1	22.1	0.00e+00	0	36	0	1915748352	46	6333
2026-01-29 21:40:43.68	339.28	8.38	-37.3	-38.3	21.9	0.00e+00	0	36	0	1918894080	46	6463
2026-01-29 21:40:44.68	339.18	8.32	-37.4	-38.4	21.8	0.00e+00	0	36	0	1922039808	46	6553
2026-01-29 21:40:45.69	339.07	8.25	-37.8	-38.9	21.4	0.00e+00	0	36	0	1925185536	46	6907
2026-01-29 21:40:46.70	338.96	8.19	-37.6	-38.7	21.5	0.00e+00	0	36	0	1928331264	48	6025
2026-01-29 21:40:47.71	338.86	8.13	-37.8	-38.9	21.4	0.00e+00	0	36	0	1931476992	48	6155
2026-01-29 21:40:48.73	338.75	8.06	-37.7	-38.8	21.4	0.00e+00	0	36	0	1934622720	48	6090
2026-01-29 21:40:49.74	338.65	8.00	-37.5	-38.6	21.3	0.00e+00	0	36	0	1937768448	48	5981
2026-01-29 21:40:50.75	338.54	7.94	-37.5	-38.5	21.5	0.00e+00	0	36	0	1940914176	48	5915
2026-01-29 21:40:51.76	338.44	7.87	-37.2	-38.2	21.7	0.00e+00	0	36	0	1944059904	48	5717
2026-01-29 21:40:52.77	338.33	7.81	-37.2	-38.3	21.6	0.00e+00	0	36	0	1947205632	48	5777
2026-01-29 21:40:53.78	338.23	7.75	-37.0	-38.0	21.8	0.00e+00	0	36	0	1950351360	48	5577
2026-01-29 21:40:54.79	338.13	7.68	-37.0	-38.0	21.9	0.00e+00	0	36	0	1953497088	48	5565
2026-01-29 21:40:55.80	338.02	7.62	-37.0	-38.0	22.0	0.00e+00	0	36	0	1956642816	48	5592
2026-01-29 21:40:56.81	337.92	7.56	-36.7	-37.7	22.2	0.00e+00	0	36	0	1959788544	46	6031
2026-01-29 21:40:57.82	337.82	7.50	-36.8	-37.8	22.2	0.00e+00	0	36	0	1962934272	46	6109
2026-01-29 21:40:58.83	337.72	7.43	-36.9	-37.9	22.1	0.00e+00	0	36	0	1966080000	46	6200
2026-01-29 21:40:59.84	337.62	7.37	-36.8	-37.8	22.3	0.00e+00	0	36	0	1969225728	46	6112
2026-01-29 21:41:00.85	337.52	7.31	-36.8	-37.9	22.0	0.00e+00	0	36	0	1972371456	46	6144
2026-01-29 21:41:01.86	337.42	7.25	-37.2	-38.2	21.8	0.00e+00	0	36	0	1975517184	46	6390
2026-01-29 21:41:02.87	337.32	7.18	-37.5	-38.6	21.7	0.00e+00	0	36	0	1978662912	46	6679
2026-01-29 21:41:03.88	337.22	7.12	-37.4	-38.5	21.7	0.00e+00	0	36	0	1981808640	46	6583
2026-01-29 21:41:04.89	337.12	7.06	-37.6	-38.6	21.4	0.00e+00	0	36	0	1984954368	46	6706
2026-01-29 21:41:05.90	337.02	7.00	-37.6	-38.7	21.3	0.00e+00	0	36	0	1988100096	48	6053
2026-01-29 21:41:06.91	336.93	6.94	-37.6	-38.7	21.3	0.00e+00	0	36	0	1991245824	48	6023
2026-01-29 21:41:07.92	336.83	6.87	-37.8	-38.9	21.2	0.00e+00	0	36	0	1994391552	48	6200
2026-01-29 21:41:08.93	336.73	6.81	-38.0	-39.1	20.9	0.00e+00	0	36	0	1997537280	48	6315
2026-01-29 21:41:09.94	336.64	6.75	-37.8	-38.9	21.1	0.00e+00	0	36	0	2000683008	48	6150
2026-01-29 21:41:10.95	336.54	6.69	-38.0	-39.2	20.8	0.00e+00	0	36	0	2003828736	48	6368
2026-01-29 21:41:11.96	336.44	6.63	-38.0	-39.2	20.8	0.00e+00	0	36	0	2006974464	48	6377
