passes_logs/2026/01/29/R4.6S_Anadyr/R4.6S_Anadyr__20260129_230801_NOAA_21_JPSS-2_rec.log

#Pass ID: 20260129_230801_NOAA 21 (JPSS-2)
#Satellite: NOAA 21 (JPSS-2)
#Configuration: NOAA-21
#almurnet v.1.7.20251203
#Start time: 2026-01-29 23:08:03

#Version: 2.2.20231116
#Station: R4.6S_Anadyr
#Location: 177.4865 lon 64.73178 lat
#TLE: 1 54234U 22150A   26029.46216196  .00000141  00000+0  87503-4 0  9994
#TLE: 2 54234  98.7512 330.1880 0000955 196.3413 163.7732 14.19540905166865

#Time	Az	El	Level	Level2	SNR	BER	BlckErr	Temp	State	Recorded	gain1	gain2
2026-01-29 23:08:03.80	129.66	0.12	-46.1	-60.5	3.5	1.51e+00	0	34	0	0	60	43168
2026-01-29 23:08:04.77	129.64	0.18	-49.3	-62.2	3.5	1.52e+00	0	35	104	0	60	45197
2026-01-29 23:08:05.74	129.61	0.23	-49.3	-62.2	3.5	1.52e+00	0	35	104	0	60	45400
2026-01-29 23:08:06.72	129.59	0.29	-49.3	-62.2	3.5	1.52e+00	0	35	104	0	60	45457
2026-01-29 23:08:07.70	129.56	0.35	-49.3	-62.2	3.5	1.52e+00	0	35	104	0	60	45213
2026-01-29 23:08:08.68	129.54	0.41	-49.3	-62.2	3.5	1.52e+00	0	35	104	0	60	45338
2026-01-29 23:08:09.66	129.51	0.47	-49.3	-62.3	3.5	1.52e+00	0	36	104	0	60	45523
2026-01-29 23:08:10.64	129.48	0.53	-49.3	-62.2	3.5	1.52e+00	0	35	104	0	60	45369
2026-01-29 23:08:11.61	129.46	0.58	-49.3	-62.2	3.5	1.52e+00	0	36	104	0	60	45449
2026-01-29 23:08:12.59	129.43	0.64	-49.3	-62.2	3.5	1.52e+00	0	36	104	0	60	45196
2026-01-29 23:08:13.57	129.40	0.70	-49.3	-62.2	3.5	1.52e+00	0	36	104	0	60	45471
2026-01-29 23:08:14.55	129.38	0.76	-49.3	-62.3	3.5	1.52e+00	0	36	104	0	60	45633
2026-01-29 23:08:15.53	129.35	0.82	-49.3	-62.2	3.5	1.52e+00	0	36	104	0	60	45292
2026-01-29 23:08:16.50	129.32	0.88	-49.3	-62.2	3.5	1.52e+00	0	36	104	0	60	45453
2026-01-29 23:08:17.48	129.30	0.94	-49.3	-62.2	3.5	1.52e+00	0	36	104	0	60	45422
2026-01-29 23:08:18.46	129.27	1.00	-49.3	-62.3	3.5	1.52e+00	0	36	104	0	60	45598
2026-01-29 23:08:19.44	129.24	1.06	-49.3	-62.2	3.5	1.52e+00	0	36	104	0	60	45337
2026-01-29 23:08:20.42	129.21	1.11	-49.3	-62.2	3.5	1.52e+00	0	36	104	0	60	45404
2026-01-29 23:08:21.40	129.19	1.17	-49.3	-62.3	3.5	1.52e+00	0	36	104	0	60	45545
2026-01-29 23:08:22.39	129.16	1.24	-49.3	-62.3	3.5	1.51e+00	0	36	104	0	60	45588
2026-01-29 23:08:23.37	129.13	1.30	-49.3	-62.3	3.5	1.52e+00	0	36	104	0	60	45536
2026-01-29 23:08:24.35	129.10	1.36	-49.3	-62.2	3.5	1.52e+00	0	36	104	0	60	45195
2026-01-29 23:08:25.32	129.08	1.41	-49.3	-62.2	3.5	1.52e+00	0	36	104	0	60	45270
2026-01-29 23:08:26.31	129.05	1.48	-49.3	-62.2	3.5	1.51e+00	0	36	104	0	60	45325
2026-01-29 23:08:27.28	129.02	1.54	-49.3	-62.2	3.5	1.52e+00	0	36	104	0	60	45267
2026-01-29 23:08:28.26	128.99	1.60	-49.3	-62.2	3.5	1.52e+00	0	36	104	0	60	45231
2026-01-29 23:08:29.24	128.96	1.66	-49.3	-62.3	3.5	1.52e+00	0	36	104	0	60	45654
2026-01-29 23:08:30.22	128.93	1.72	-49.3	-62.2	3.5	1.52e+00	0	36	104	0	60	45404
2026-01-29 23:08:31.19	128.91	1.78	-49.3	-62.2	3.5	1.52e+00	0	36	104	0	60	45229
2026-01-29 23:08:32.17	128.88	1.84	-49.3	-62.3	3.5	1.52e+00	0	36	104	0	60	45513
2026-01-29 23:08:33.14	128.85	1.90	-49.3	-62.2	3.5	1.52e+00	0	36	104	0	60	45152
2026-01-29 23:08:34.13	128.82	1.96	-49.3	-62.2	3.5	1.52e+00	0	36	104	0	60	45275
2026-01-29 23:08:35.11	128.79	2.02	-49.3	-62.2	3.5	1.52e+00	0	36	104	0	60	45303
2026-01-29 23:08:36.09	128.76	2.08	-49.3	-62.2	3.5	1.52e+00	0	36	104	0	60	45448
2026-01-29 23:08:37.07	128.73	2.15	-49.3	-62.2	3.5	1.52e+00	0	36	104	0	60	45430
2026-01-29 23:08:38.04	128.70	2.21	-49.3	-62.3	3.5	1.52e+00	0	36	104	0	60	45489
2026-01-29 23:08:39.02	128.67	2.27	-49.3	-62.3	3.5	1.52e+00	0	36	104	0	60	45587
2026-01-29 23:08:40.00	128.64	2.33	-49.3	-62.3	3.5	1.52e+00	0	36	104	0	60	45561
2026-01-29 23:08:40.98	128.61	2.39	-49.3	-62.2	3.5	1.52e+00	0	36	104	0	60	45183
2026-01-29 23:08:41.96	128.58	2.46	-49.3	-62.2	3.5	1.52e+00	0	36	104	0	60	45366
2026-01-29 23:08:42.94	128.55	2.52	-49.3	-62.3	3.5	1.52e+00	0	36	104	0	60	45668
2026-01-29 23:08:43.92	128.52	2.58	-49.3	-62.2	3.5	1.52e+00	0	36	104	0	60	45446
2026-01-29 23:08:44.90	128.49	2.64	-49.3	-62.3	3.5	1.52e+00	0	36	104	0	60	45639
2026-01-29 23:08:45.88	128.46	2.71	-49.3	-62.2	3.5	1.52e+00	0	36	104	0	60	45361
2026-01-29 23:08:46.86	128.43	2.77	-49.3	-62.2	3.5	1.52e+00	0	36	104	0	60	45431
2026-01-29 23:08:47.84	128.40	2.83	-49.3	-62.3	3.5	1.52e+00	0	36	104	0	60	45581
2026-01-29 23:08:48.81	128.36	2.89	-49.3	-62.3	3.5	1.52e+00	0	36	104	0	60	45743
2026-01-29 23:08:49.79	128.33	2.96	-49.3	-62.3	3.5	1.52e+00	0	36	104	0	60	45539
2026-01-29 23:08:50.76	128.30	3.02	-49.3	-62.2	3.5	1.52e+00	0	36	104	0	60	45410
2026-01-29 23:08:51.74	128.27	3.08	-49.3	-62.3	3.5	1.52e+00	0	36	104	0	60	45516
2026-01-29 23:08:52.72	128.24	3.15	-49.3	-62.2	3.5	1.52e+00	0	36	104	0	60	45333
2026-01-29 23:08:53.70	128.21	3.21	-49.3	-62.2	3.5	1.52e+00	0	36	104	0	60	45472
2026-01-29 23:08:54.68	128.17	3.28	-49.3	-62.3	3.5	1.51e+00	0	36	104	0	60	45606
2026-01-29 23:08:55.66	128.14	3.34	-49.3	-62.2	3.5	1.52e+00	0	36	104	0	60	45336
2026-01-29 23:08:56.64	128.11	3.40	-49.3	-62.3	3.5	1.52e+00	0	36	104	0	60	45494
2026-01-29 23:08:57.62	128.08	3.47	-49.3	-62.3	3.5	1.51e+00	0	36	104	0	60	45519
2026-01-29 23:08:58.61	128.04	3.53	-49.3	-62.3	3.5	1.52e+00	0	36	104	0	60	45581
2026-01-29 23:08:59.59	128.01	3.60	-49.3	-62.2	3.5	1.52e+00	0	36	104	0	60	45370
2026-01-29 23:09:00.57	127.98	3.66	-49.3	-62.3	3.5	1.51e+00	0	36	104	0	60	45604
2026-01-29 23:09:01.55	127.94	3.73	-49.3	-62.3	3.5	1.52e+00	0	36	104	0	60	45615
2026-01-29 23:09:02.53	127.91	3.79	-49.3	-62.2	3.5	1.52e+00	0	36	104	0	60	45312
2026-01-29 23:09:03.51	127.88	3.86	-49.3	-62.2	3.5	1.52e+00	0	36	104	0	60	45220
2026-01-29 23:09:04.49	127.84	3.92	-49.3	-62.2	3.5	1.51e+00	0	36	104	0	60	45368
2026-01-29 23:09:05.47	127.81	3.99	-49.3	-62.3	3.5	1.52e+00	0	36	104	0	60	45491
2026-01-29 23:09:06.45	127.78	4.06	-49.3	-62.3	3.5	1.52e+00	0	36	104	0	60	45481
2026-01-29 23:09:07.43	127.74	4.12	-49.3	-62.2	3.5	1.52e+00	0	36	104	0	60	45421
2026-01-29 23:09:08.41	127.71	4.19	-49.3	-62.3	3.5	1.52e+00	0	36	104	0	60	45602
2026-01-29 23:09:09.39	127.67	4.25	-49.3	-62.2	3.5	1.52e+00	0	36	104	0	60	45472
2026-01-29 23:09:10.37	127.64	4.32	-49.3	-62.2	3.5	1.51e+00	0	36	104	0	60	45419
2026-01-29 23:09:11.35	127.60	4.39	-49.3	-62.3	3.5	1.52e+00	0	36	104	0	60	45631
2026-01-29 23:09:12.33	127.57	4.45	-49.3	-62.2	3.5	1.52e+00	0	36	104	0	60	45471
2026-01-29 23:09:13.30	127.53	4.52	-49.3	-62.3	3.5	1.52e+00	0	37	104	0	60	45715
2026-01-29 23:09:14.28	127.50	4.59	-49.3	-62.3	3.5	1.52e+00	0	36	104	0	60	45808
2026-01-29 23:09:15.27	127.46	4.65	-49.3	-62.3	3.5	1.52e+00	0	37	104	0	60	45536
2026-01-29 23:09:16.25	127.43	4.72	-49.3	-62.2	3.5	1.52e+00	0	36	104	0	60	45474
2026-01-29 23:09:17.23	127.39	4.79	-49.3	-62.3	3.5	1.52e+00	0	36	104	0	60	45554
2026-01-29 23:09:18.21	127.35	4.86	-49.3	-62.2	3.5	1.52e+00	0	36	104	0	60	45313
2026-01-29 23:09:19.19	127.32	4.92	-49.3	-62.2	3.5	1.52e+00	0	37	104	0	60	45418
2026-01-29 23:09:20.17	127.28	4.99	-49.3	-62.2	3.5	1.52e+00	0	37	104	0	60	45361
2026-01-29 23:09:21.15	127.24	5.06	-49.3	-62.3	3.5	1.52e+00	0	37	104	0	60	45535
2026-01-29 23:09:22.13	127.21	5.13	-49.3	-62.3	3.5	1.52e+00	0	37	104	0	60	45623
2026-01-29 23:09:23.10	127.17	5.20	-49.3	-62.2	3.5	1.52e+00	0	37	104	0	60	45381
2026-01-29 23:09:24.08	127.13	5.26	-49.3	-62.3	3.5	1.51e+00	0	37	104	0	60	45567
2026-01-29 23:09:25.06	127.10	5.33	-49.3	-62.3	3.5	1.52e+00	0	36	104	0	60	45612
2026-01-29 23:09:26.04	127.06	5.40	-49.3	-62.3	3.5	1.52e+00	0	37	104	0	60	45815
2026-01-29 23:09:27.02	127.02	5.47	-49.3	-62.3	3.5	1.51e+00	0	36	104	0	60	45610
2026-01-29 23:09:28.00	126.98	5.54	-49.3	-62.2	3.5	1.52e+00	0	37	104	0	60	45427
2026-01-29 23:09:28.98	126.94	5.61	-49.3	-62.3	3.5	1.52e+00	0	37	104	0	60	45610
2026-01-29 23:09:29.96	126.91	5.68	-49.3	-62.3	3.5	1.52e+00	0	36	104	0	60	45586
2026-01-29 23:09:30.94	126.87	5.75	-49.3	-62.2	3.5	1.52e+00	0	37	104	0	60	45457
2026-01-29 23:09:31.93	126.83	5.82	-49.3	-62.2	3.5	1.52e+00	0	37	104	0	60	45363
2026-01-29 23:09:32.91	126.79	5.89	-49.3	-62.2	3.5	1.51e+00	0	37	104	0	60	45431
2026-01-29 23:09:33.88	126.75	5.96	-49.3	-62.3	3.5	1.52e+00	0	37	104	0	60	45532
2026-01-29 23:09:34.87	126.71	6.03	-49.3	-62.2	3.5	1.52e+00	0	36	104	0	60	45358
2026-01-29 23:09:35.84	126.67	6.10	-49.3	-62.3	3.5	1.52e+00	0	37	104	0	60	45532
2026-01-29 23:09:36.83	126.63	6.17	-49.3	-62.3	3.5	1.52e+00	0	37	104	0	60	45917
2026-01-29 23:09:37.80	126.59	6.24	-49.3	-62.3	3.5	1.52e+00	0	36	104	0	60	45579
2026-01-29 23:09:38.79	126.55	6.31	-49.3	-62.2	3.5	1.52e+00	0	37	104	0	60	45461
2026-01-29 23:09:39.77	126.51	6.39	-49.3	-62.2	3.5	1.52e+00	0	37	104	0	60	45449
2026-01-29 23:09:40.75	126.47	6.46	-49.3	-62.2	3.5	1.52e+00	0	37	104	0	60	45441
2026-01-29 23:09:41.73	126.43	6.53	-49.3	-62.3	3.5	1.52e+00	0	37	104	0	60	45638
2026-01-29 23:09:42.71	126.39	6.60	-49.3	-62.2	3.5	1.52e+00	0	37	104	0	60	45436
2026-01-29 23:09:43.69	126.35	6.67	-49.3	-62.3	3.5	1.52e+00	0	37	104	0	60	45688
2026-01-29 23:09:44.67	126.30	6.74	-49.3	-62.3	3.5	1.52e+00	0	37	104	0	60	45482
2026-01-29 23:09:45.65	126.26	6.82	-49.3	-62.3	3.5	1.52e+00	0	37	104	0	60	45477
2026-01-29 23:09:46.63	126.22	6.89	-49.3	-62.3	3.5	1.52e+00	0	37	104	0	60	45578
2026-01-29 23:09:47.61	126.18	6.96	-49.3	-62.3	3.5	1.52e+00	0	37	104	0	60	45593
2026-01-29 23:09:48.59	126.14	7.04	-49.3	-62.2	3.5	1.52e+00	0	37	104	0	60	45353
2026-01-29 23:09:49.57	126.09	7.11	-49.3	-62.3	3.5	1.52e+00	0	37	104	0	60	45540
2026-01-29 23:09:50.55	126.05	7.18	-49.3	-62.2	3.5	1.52e+00	0	37	104	0	60	45335
2026-01-29 23:09:51.52	126.01	7.26	-49.3	-62.3	3.5	1.52e+00	0	37	104	0	60	45522
2026-01-29 23:09:52.50	125.96	7.33	-49.3	-62.3	3.5	1.51e+00	0	37	104	0	60	45562
2026-01-29 23:09:53.48	125.92	7.40	-49.3	-62.2	3.5	1.51e+00	0	37	104	0	60	45403
2026-01-29 23:09:54.47	125.88	7.48	-49.3	-62.3	3.5	1.52e+00	0	37	104	0	60	45772
2026-01-29 23:09:55.45	125.83	7.55	-49.3	-62.3	3.5	1.52e+00	0	37	104	0	60	45701
2026-01-29 23:09:56.43	125.79	7.63	-49.3	-62.3	3.5	1.52e+00	0	37	104	0	60	45633
2026-01-29 23:09:57.41	125.74	7.70	-49.3	-62.2	3.5	1.52e+00	0	37	104	0	60	45328
2026-01-29 23:09:58.38	125.70	7.78	-49.3	-62.2	3.5	1.52e+00	0	37	104	0	60	45445
2026-01-29 23:09:59.36	125.65	7.85	-49.3	-62.3	3.5	1.52e+00	0	37	104	0	60	45542
2026-01-29 23:10:00.34	125.61	7.93	-49.3	-62.2	3.5	1.52e+00	0	37	104	0	60	45430
2026-01-29 23:10:01.32	125.56	8.00	-49.3	-62.3	3.5	1.52e+00	0	37	104	0	60	45570
2026-01-29 23:10:02.30	125.52	8.08	-49.3	-62.3	3.5	1.52e+00	0	37	104	0	60	45572
2026-01-29 23:10:03.28	125.47	8.15	-49.3	-62.2	3.5	1.52e+00	0	37	104	0	60	45414
2026-01-29 23:10:04.25	125.43	8.23	-49.3	-62.2	3.5	1.52e+00	0	37	104	0	60	45379
2026-01-29 23:10:05.23	125.38	8.31	-49.3	-62.2	3.5	1.52e+00	0	37	104	0	60	45331
2026-01-29 23:10:06.21	125.33	8.38	-49.3	-62.3	3.5	1.51e+00	0	37	104	0	60	45600
2026-01-29 23:10:07.18	125.29	8.46	-49.3	-62.3	3.5	1.52e+00	0	37	104	0	60	45542
2026-01-29 23:10:08.16	125.24	8.54	-49.3	-62.3	3.5	1.52e+00	0	37	104	0	60	45520
2026-01-29 23:10:09.14	125.19	8.61	-49.3	-62.3	3.5	1.52e+00	0	37	104	0	60	45697
2026-01-29 23:10:10.12	125.14	8.69	-49.3	-62.3	3.5	1.52e+00	0	37	104	0	60	45596
2026-01-29 23:10:11.10	125.10	8.77	-49.3	-62.3	3.5	1.52e+00	0	37	104	0	60	45607
2026-01-29 23:10:12.08	125.05	8.85	-49.3	-62.3	3.5	1.52e+00	0	37	104	0	60	45564
2026-01-29 23:10:13.06	125.00	8.92	-49.3	-62.3	3.5	1.52e+00	0	37	104	0	60	45538
2026-01-29 23:10:14.03	124.95	9.00	-49.3	-62.3	3.5	1.52e+00	0	37	104	0	60	45829
2026-01-29 23:10:15.01	124.90	9.08	-49.3	-62.3	3.5	1.51e+00	0	37	104	0	60	45650
2026-01-29 23:10:16.00	124.85	9.16	-49.3	-62.3	3.5	1.52e+00	0	37	104	0	60	45536
2026-01-29 23:10:16.98	124.80	9.24	-49.3	-62.3	3.5	1.52e+00	0	37	104	0	60	45643
2026-01-29 23:10:17.95	124.75	9.32	-49.3	-62.2	3.5	1.52e+00	0	37	104	0	60	45338
2026-01-29 23:10:18.93	124.70	9.40	-49.3	-62.3	3.5	1.52e+00	0	37	104	0	60	45886
2026-01-29 23:10:19.91	124.65	9.48	-49.3	-62.3	3.5	1.52e+00	0	37	104	0	60	45804
2026-01-29 23:10:20.89	124.60	9.56	-49.3	-62.2	3.5	1.52e+00	0	37	104	0	60	45438
2026-01-29 23:10:21.87	124.55	9.64	-49.3	-62.2	3.5	1.52e+00	0	37	104	0	60	45302
2026-01-29 23:10:22.85	124.50	9.72	-49.3	-62.3	3.5	1.52e+00	0	37	104	0	60	45622
2026-01-29 23:10:23.83	124.44	9.80	-49.3	-62.3	3.5	1.52e+00	0	37	104	0	60	45735
2026-01-29 23:10:24.81	124.39	9.88	-49.3	-62.3	3.5	1.52e+00	0	37	104	0	60	45596
2026-01-29 23:10:25.79	124.34	9.96	-49.3	-62.2	3.5	1.52e+00	0	37	104	0	60	45476
2026-01-29 23:10:26.76	124.29	10.04	-49.3	-62.3	3.5	1.52e+00	0	37	104	0	60	45583
2026-01-29 23:10:27.74	124.23	10.12	-49.3	-62.2	3.5	1.52e+00	0	37	104	0	60	45397
2026-01-29 23:10:28.71	124.18	10.20	-49.3	-62.3	3.5	1.52e+00	0	37	104	0	60	45502
2026-01-29 23:10:29.69	124.13	10.29	-49.3	-62.3	3.5	1.52e+00	0	37	104	0	60	45497
2026-01-29 23:10:30.67	124.07	10.37	-49.3	-62.3	3.5	1.51e+00	0	37	104	0	60	45635
2026-01-29 23:10:31.64	124.02	10.45	-49.3	-62.3	3.5	1.52e+00	0	37	104	0	60	45582
2026-01-29 23:10:32.62	123.97	10.53	-49.3	-62.3	3.5	1.52e+00	0	37	104	0	60	45498
2026-01-29 23:10:33.60	123.91	10.62	-49.3	-62.3	3.5	1.52e+00	0	37	104	0	60	45604
2026-01-29 23:10:34.58	123.86	10.70	-49.3	-62.2	3.5	1.52e+00	0	37	104	0	60	45354
2026-01-29 23:10:35.56	123.80	10.78	-49.3	-62.3	3.5	1.52e+00	0	37	104	0	60	45645
2026-01-29 23:10:36.54	123.74	10.87	-49.3	-62.2	3.5	1.52e+00	0	37	104	0	60	45370
2026-01-29 23:10:37.52	123.69	10.95	-49.3	-62.2	3.5	1.51e+00	0	37	104	0	60	45379
2026-01-29 23:10:38.49	123.63	11.04	-49.3	-62.3	3.5	1.52e+00	0	37	104	0	60	45699
2026-01-29 23:10:39.47	123.57	11.12	-49.3	-62.3	3.5	1.52e+00	0	37	104	0	60	45680
2026-01-29 23:10:40.45	123.52	11.21	-49.3	-62.2	3.5	1.52e+00	0	37	104	0	60	45427
2026-01-29 23:10:41.43	123.46	11.29	-49.3	-62.3	3.5	1.52e+00	0	37	104	0	60	45554
2026-01-29 23:10:42.41	123.40	11.38	-49.3	-62.3	3.5	1.52e+00	0	37	104	0	60	45483
2026-01-29 23:10:43.38	123.34	11.46	-49.3	-62.3	3.5	1.52e+00	0	37	104	0	60	45676
2026-01-29 23:10:44.36	123.28	11.55	-49.3	-62.2	3.5	1.52e+00	0	37	104	0	60	45268
2026-01-29 23:10:45.35	123.22	11.63	-49.3	-62.2	3.5	1.52e+00	0	37	104	0	60	45333
2026-01-29 23:10:46.33	123.17	11.72	-49.3	-62.3	3.5	1.52e+00	0	37	104	0	60	45561
2026-01-29 23:10:47.31	123.11	11.81	-49.3	-62.3	3.5	1.52e+00	0	37	104	0	60	45525
2026-01-29 23:10:48.28	123.05	11.89	-49.3	-62.3	3.5	1.52e+00	0	37	104	0	60	45666
2026-01-29 23:10:49.26	122.99	11.98	-49.3	-62.2	3.5	1.52e+00	0	37	104	0	60	45453
2026-01-29 23:10:50.24	122.92	12.07	-49.3	-62.3	3.5	1.52e+00	0	37	104	0	60	45522
2026-01-29 23:10:51.22	122.86	12.16	-49.3	-62.3	3.5	1.52e+00	0	37	104	0	60	45517
2026-01-29 23:10:52.19	122.80	12.25	-49.3	-62.3	3.5	1.52e+00	0	37	104	0	60	45596
2026-01-29 23:10:53.18	122.74	12.33	-49.3	-62.2	3.5	1.52e+00	0	37	104	0	60	45389
2026-01-29 23:10:54.16	122.68	12.42	-49.3	-62.3	3.5	1.52e+00	0	37	104	0	60	45530
2026-01-29 23:10:55.14	122.61	12.51	-49.3	-62.3	3.5	1.52e+00	0	37	104	0	60	45513
2026-01-29 23:10:56.12	122.55	12.60	-49.3	-62.3	3.5	1.52e+00	0	37	104	0	60	45534
2026-01-29 23:10:57.10	122.49	12.69	-49.3	-62.3	3.5	1.52e+00	0	37	104	0	60	45577
2026-01-29 23:10:58.07	122.42	12.78	-49.3	-62.3	3.5	1.52e+00	0	37	104	0	60	45683
2026-01-29 23:10:59.05	122.36	12.87	-49.3	-62.3	3.5	1.52e+00	0	37	104	0	60	45630
2026-01-29 23:11:00.03	122.29	12.96	-49.3	-62.3	3.5	1.52e+00	0	37	104	0	60	45673
2026-01-29 23:11:01.02	122.23	13.05	-49.3	-62.3	3.5	1.52e+00	0	37	104	0	60	45537
2026-01-29 23:11:02.01	122.16	13.15	-49.3	-62.2	3.5	1.52e+00	0	37	104	0	60	45465
2026-01-29 23:11:02.98	122.10	13.24	-49.3	-62.3	3.5	1.52e+00	0	37	104	0	60	45529
2026-01-29 23:11:03.96	122.03	13.33	-49.3	-62.3	3.5	1.52e+00	0	37	104	0	60	45650
2026-01-29 23:11:04.94	121.96	13.42	-49.3	-62.3	3.5	1.52e+00	0	37	104	0	60	45626
2026-01-29 23:11:05.92	121.89	13.51	-49.3	-62.3	3.5	1.52e+00	0	37	104	0	60	45912
2026-01-29 23:11:06.90	121.83	13.61	-49.3	-62.2	3.5	1.52e+00	0	37	104	0	60	45396
2026-01-29 23:11:07.88	121.76	13.70	-49.3	-62.3	3.5	1.52e+00	0	37	104	0	60	45572
2026-01-29 23:11:08.86	121.69	13.79	-49.3	-62.3	3.5	1.52e+00	0	37	104	0	60	45867
2026-01-29 23:11:09.84	121.62	13.89	-49.3	-62.3	3.5	1.52e+00	0	37	104	0	60	45775
2026-01-29 23:11:10.82	121.55	13.98	-49.3	-62.3	3.5	1.52e+00	0	37	104	0	60	45586
2026-01-29 23:11:11.80	121.48	14.07	-49.3	-62.3	3.5	1.52e+00	0	37	104	0	60	45532
2026-01-29 23:11:12.77	121.41	14.17	-49.3	-62.3	3.5	1.52e+00	0	37	104	0	60	45554
2026-01-29 23:11:13.75	121.34	14.26	-49.3	-62.3	3.5	1.52e+00	0	37	104	0	60	45652
2026-01-29 23:11:14.73	121.27	14.36	-49.3	-62.3	3.5	1.52e+00	0	37	104	0	60	45597
2026-01-29 23:11:15.71	121.19	14.45	-49.3	-62.3	3.5	1.52e+00	0	37	104	0	60	45505
2026-01-29 23:11:16.69	121.12	14.55	-49.3	-62.3	3.5	1.52e+00	0	37	104	0	60	45551
2026-01-29 23:11:17.67	121.05	14.65	-49.3	-62.2	3.5	1.52e+00	0	37	104	0	60	45452
2026-01-29 23:11:18.65	120.98	14.74	-49.3	-62.3	3.5	1.52e+00	0	37	104	0	60	45775
2026-01-29 23:11:19.63	120.90	14.84	-49.3	-62.2	3.5	1.52e+00	0	37	104	0	60	45114
2026-01-29 23:11:20.61	120.83	14.94	-49.3	-62.2	3.5	1.52e+00	0	37	104	0	60	45434
2026-01-29 23:11:21.58	120.75	15.03	-49.3	-62.2	3.5	1.52e+00	0	37	104	0	60	45449
2026-01-29 23:11:22.56	120.68	15.13	-49.3	-62.2	3.5	1.52e+00	0	37	104	0	60	45380
2026-01-29 23:11:23.54	120.60	15.23	-49.3	-62.3	3.5	1.52e+00	0	37	104	0	60	45501
2026-01-29 23:11:24.52	120.52	15.33	-49.3	-62.3	3.5	1.52e+00	0	37	104	0	60	45541
2026-01-29 23:11:25.50	120.45	15.43	-49.3	-62.3	3.5	1.51e+00	0	37	104	0	60	45690
2026-01-29 23:11:26.48	120.37	15.53	-49.3	-62.3	3.5	1.52e+00	0	37	104	0	60	45665
2026-01-29 23:11:27.45	120.29	15.63	-49.3	-62.3	3.5	1.52e+00	0	37	104	0	60	45663
2026-01-29 23:11:28.43	120.21	15.73	-49.3	-62.3	3.5	1.52e+00	0	37	104	0	60	45661
2026-01-29 23:11:29.41	120.13	15.83	-49.3	-62.3	3.5	1.52e+00	0	37	104	0	60	45499
2026-01-29 23:11:30.40	120.05	15.93	-49.3	-62.3	3.5	1.51e+00	0	37	104	0	60	45511
2026-01-29 23:11:31.38	119.97	16.03	-49.3	-62.3	3.5	1.51e+00	0	37	104	0	60	45629
2026-01-29 23:11:32.36	119.89	16.13	-49.3	-62.3	3.5	1.52e+00	0	37	104	0	60	45680
2026-01-29 23:11:33.34	119.81	16.23	-49.3	-62.2	3.5	1.52e+00	0	37	104	0	60	45439
2026-01-29 23:11:34.32	119.73	16.33	-49.3	-62.2	3.5	1.52e+00	0	37	104	0	60	45435
2026-01-29 23:11:35.29	119.65	16.44	-49.3	-62.3	3.5	1.52e+00	0	37	104	0	60	45552
2026-01-29 23:11:36.28	119.56	16.54	-49.3	-62.3	3.5	1.52e+00	0	37	104	0	60	45527
2026-01-29 23:11:37.26	119.48	16.64	-49.3	-62.2	3.5	1.52e+00	0	37	104	0	60	45430
2026-01-29 23:11:38.24	119.39	16.75	-49.3	-62.3	3.5	1.52e+00	0	37	104	0	60	45503
2026-01-29 23:11:39.22	119.31	16.85	-49.3	-62.3	3.5	1.52e+00	0	37	104	0	60	45659
2026-01-29 23:11:40.19	119.22	16.95	-49.3	-62.3	3.5	1.52e+00	0	37	104	0	60	45516
2026-01-29 23:11:41.17	119.14	17.06	-49.3	-62.3	3.5	1.52e+00	0	37	104	0	60	45542
2026-01-29 23:11:42.15	119.05	17.16	-49.3	-62.3	3.5	1.52e+00	0	37	104	0	60	45561
2026-01-29 23:11:43.13	118.96	17.27	-49.3	-62.2	3.5	1.52e+00	0	37	104	0	60	45272
2026-01-29 23:11:44.11	118.87	17.38	-49.3	-62.3	3.5	1.52e+00	0	37	104	0	60	45525
2026-01-29 23:11:45.10	118.78	17.48	-49.3	-62.2	3.5	1.52e+00	0	37	104	0	60	45444
2026-01-29 23:11:46.08	118.70	17.59	-49.3	-62.2	3.5	1.52e+00	0	37	104	0	60	45266
2026-01-29 23:11:47.06	118.61	17.70	-49.3	-62.3	3.5	1.52e+00	0	37	104	0	60	45772
2026-01-29 23:11:48.03	118.52	17.80	-49.3	-62.3	3.5	1.52e+00	0	37	104	0	60	45608
2026-01-29 23:11:49.01	118.42	17.91	-49.3	-62.3	3.5	1.52e+00	0	37	104	0	60	45644
2026-01-29 23:11:49.99	118.33	18.02	-49.3	-62.2	3.5	1.51e+00	0	37	104	0	60	45340
2026-01-29 23:11:50.97	118.24	18.13	-49.3	-62.3	3.5	1.51e+00	0	37	104	0	60	45524
2026-01-29 23:11:51.95	118.15	18.24	-49.3	-62.3	3.5	1.52e+00	0	37	104	0	60	45509
2026-01-29 23:11:52.93	118.05	18.35	-49.3	-62.3	3.5	1.52e+00	0	37	104	0	60	45582
2026-01-29 23:11:53.91	117.96	18.46	-49.3	-62.2	3.5	1.52e+00	0	37	104	0	60	45473
2026-01-29 23:11:54.90	117.86	18.57	-49.3	-62.2	3.5	1.51e+00	0	37	104	0	60	45465
2026-01-29 23:11:55.88	117.76	18.68	-49.3	-62.3	3.5	1.52e+00	0	37	104	0	60	45717
2026-01-29 23:11:56.85	117.67	18.79	-49.3	-62.3	3.5	1.52e+00	0	37	104	0	60	45846
2026-01-29 23:11:57.83	117.57	18.90	-49.3	-62.3	3.5	1.52e+00	0	37	104	0	60	45567
2026-01-29 23:11:58.81	117.47	19.01	-49.3	-62.3	3.5	1.52e+00	0	37	104	0	60	45558
2026-01-29 23:11:59.78	117.37	19.12	-49.3	-62.3	3.5	1.52e+00	0	37	104	0	60	45610
2026-01-29 23:12:00.76	117.27	19.24	-49.3	-62.3	3.5	1.51e+00	0	37	104	0	60	45543
2026-01-29 23:12:01.73	117.17	19.35	-49.3	-62.3	3.5	1.52e+00	0	37	104	0	60	45685
2026-01-29 23:12:02.71	117.07	19.46	-49.3	-62.2	3.5	1.52e+00	0	37	104	0	60	45396
2026-01-29 23:12:03.69	116.97	19.58	-49.3	-62.3	3.5	1.52e+00	0	37	104	0	60	45573
2026-01-29 23:12:04.68	116.86	19.69	-49.3	-62.3	3.5	1.52e+00	0	37	104	0	60	45681
2026-01-29 23:12:05.65	116.76	19.81	-49.3	-62.3	3.5	1.52e+00	0	37	104	0	60	45542
2026-01-29 23:12:06.63	116.66	19.92	-49.3	-62.2	3.5	1.52e+00	0	37	104	0	60	45429
2026-01-29 23:12:07.61	116.55	20.04	-49.3	-62.3	3.5	1.52e+00	0	37	104	0	60	45496
2026-01-29 23:12:08.59	116.45	20.15	-49.3	-62.3	3.5	1.52e+00	0	37	104	0	60	45602
2026-01-29 23:12:09.57	116.34	20.27	-49.3	-62.3	3.5	1.52e+00	0	37	104	0	60	45477
2026-01-29 23:12:10.55	116.23	20.39	-49.3	-62.3	3.5	1.52e+00	0	37	104	0	60	45729
2026-01-29 23:12:11.52	116.12	20.50	-49.3	-62.3	3.5	1.52e+00	0	37	104	0	60	45596
2026-01-29 23:12:12.50	116.01	20.62	-49.3	-62.3	3.5	1.52e+00	0	37	104	0	60	45588
2026-01-29 23:12:13.48	115.90	20.74	-49.3	-62.3	3.5	1.52e+00	0	37	104	0	60	45633
2026-01-29 23:12:14.46	115.79	20.86	-49.3	-62.3	3.5	1.51e+00	0	37	104	0	60	45708
2026-01-29 23:12:15.44	115.68	20.98	-49.3	-62.3	3.5	1.52e+00	0	37	104	0	60	45623
2026-01-29 23:12:16.42	115.57	21.10	-49.3	-62.2	3.5	1.51e+00	0	37	104	0	60	45458
2026-01-29 23:12:17.40	115.45	21.22	-49.3	-62.3	3.5	1.52e+00	0	37	104	0	60	45508
2026-01-29 23:12:18.37	115.34	21.34	-49.3	-62.3	3.5	1.52e+00	0	37	104	0	60	45520
2026-01-29 23:12:19.36	115.22	21.46	-49.3	-62.2	3.5	1.52e+00	0	37	104	0	60	45377
2026-01-29 23:12:20.34	115.10	21.58	-49.3	-62.2	3.5	1.52e+00	0	37	104	0	60	45437
2026-01-29 23:12:21.32	114.99	21.70	-49.3	-62.3	3.5	1.52e+00	0	37	104	0	60	45580
2026-01-29 23:12:22.29	114.87	21.82	-49.3	-62.3	3.5	1.52e+00	0	37	104	0	60	45575
2026-01-29 23:12:23.27	114.75	21.95	-49.3	-62.3	3.5	1.51e+00	0	37	104	0	60	45481
2026-01-29 23:12:24.25	114.63	22.07	-49.3	-62.3	3.5	1.52e+00	0	37	104	0	60	45571
2026-01-29 23:12:25.23	114.51	22.19	-49.3	-62.3	3.5	1.52e+00	0	37	104	0	60	45798
2026-01-29 23:12:26.20	114.38	22.32	-49.3	-62.2	3.5	1.52e+00	0	37	104	0	60	45455
2026-01-29 23:12:27.18	114.26	22.44	-49.3	-62.3	3.5	1.52e+00	0	37	104	0	60	45543
2026-01-29 23:12:28.16	114.14	22.57	-49.3	-62.3	3.5	1.52e+00	0	37	104	0	60	45479
2026-01-29 23:12:29.14	114.01	22.69	-49.3	-62.2	3.5	1.52e+00	0	37	104	0	60	45399
2026-01-29 23:12:30.12	113.88	22.82	-49.3	-62.3	3.5	1.51e+00	0	37	104	0	60	45594
2026-01-29 23:12:31.10	113.76	22.95	-49.3	-62.3	3.5	1.52e+00	0	37	104	0	60	45552
2026-01-29 23:12:32.08	113.63	23.07	-49.3	-62.3	3.5	1.52e+00	0	37	104	0	60	45567
2026-01-29 23:12:33.05	113.50	23.20	-49.3	-62.3	3.5	1.51e+00	0	37	104	0	60	45482
2026-01-29 23:12:34.03	113.37	23.33	-49.3	-62.2	3.5	1.52e+00	0	37	104	0	60	45470
2026-01-29 23:12:35.01	113.24	23.46	-49.3	-62.3	3.5	1.51e+00	0	37	104	0	60	45528
2026-01-29 23:12:35.99	113.10	23.58	-49.3	-62.2	3.5	1.52e+00	0	37	104	0	60	45414
2026-01-29 23:12:36.97	112.97	23.71	-49.3	-62.3	3.5	1.51e+00	0	37	104	0	60	45587
2026-01-29 23:12:37.94	112.83	23.84	-49.3	-62.2	3.5	1.52e+00	0	37	104	0	60	45311
2026-01-29 23:12:38.92	112.70	23.97	-49.3	-62.2	3.5	1.51e+00	0	37	104	0	60	45476
2026-01-29 23:12:39.90	112.56	24.10	-49.3	-62.2	3.5	1.52e+00	0	37	104	0	60	45456
2026-01-29 23:12:40.88	112.42	24.23	-49.3	-62.2	3.5	1.52e+00	0	37	104	0	60	45336
2026-01-29 23:12:41.86	112.28	24.37	-49.3	-62.3	3.5	1.52e+00	0	37	104	0	60	45502
2026-01-29 23:12:42.84	112.14	24.50	-49.3	-62.2	3.5	1.52e+00	0	37	104	0	60	45473
2026-01-29 23:12:43.82	112.00	24.63	-49.3	-62.2	3.5	1.52e+00	0	37	104	0	60	45368
2026-01-29 23:12:44.80	111.85	24.76	-49.3	-62.2	3.5	1.52e+00	0	37	104	0	60	45403
2026-01-29 23:12:45.78	111.71	24.90	-49.3	-62.3	3.5	1.52e+00	0	37	104	0	60	45606
2026-01-29 23:12:46.75	111.56	25.03	-49.3	-62.3	3.5	1.52e+00	0	37	104	0	60	45728
2026-01-29 23:12:47.73	111.42	25.17	-49.3	-62.3	3.5	1.52e+00	0	37	104	0	60	45537
2026-01-29 23:12:48.71	111.27	25.30	-49.3	-62.3	3.5	1.52e+00	0	37	104	0	60	45578
2026-01-29 23:12:49.69	111.12	25.44	-49.3	-62.3	3.5	1.52e+00	0	37	104	0	60	45664
2026-01-29 23:12:50.67	110.96	25.57	-49.3	-62.2	3.5	1.51e+00	0	37	104	0	60	45344
2026-01-29 23:12:51.65	110.81	25.71	-49.3	-62.3	3.5	1.52e+00	0	37	104	0	60	45596
2026-01-29 23:12:52.63	110.66	25.85	-49.3	-62.3	3.5	1.52e+00	0	37	104	0	60	45686
2026-01-29 23:12:53.61	110.50	25.98	-49.3	-62.3	3.5	1.52e+00	0	37	104	0	60	45584
2026-01-29 23:12:54.59	110.35	26.12	-49.3	-62.3	3.5	1.52e+00	0	37	104	0	60	45544
2026-01-29 23:12:55.57	110.19	26.26	-49.3	-62.3	3.5	1.52e+00	0	37	104	0	60	45595
2026-01-29 23:12:56.55	110.03	26.40	-49.3	-62.3	3.5	1.52e+00	0	37	104	0	60	45524
2026-01-29 23:12:57.53	109.87	26.54	-49.3	-62.3	3.5	1.52e+00	0	37	104	0	60	45532
2026-01-29 23:12:58.51	109.70	26.68	-49.3	-62.2	3.5	1.52e+00	0	37	104	0	60	45383
2026-01-29 23:12:59.48	109.54	26.82	-49.3	-62.3	3.5	1.51e+00	0	37	104	0	60	45641
2026-01-29 23:13:00.46	109.38	26.96	-49.3	-62.2	3.5	1.52e+00	0	37	104	0	60	45469
2026-01-29 23:13:01.44	109.21	27.10	-49.3	-62.3	3.5	1.52e+00	0	37	104	0	60	45539
2026-01-29 23:13:02.42	109.04	27.24	-49.3	-62.3	3.5	1.52e+00	0	37	104	0	60	45481
2026-01-29 23:13:03.39	108.87	27.38	-49.3	-62.2	3.5	1.52e+00	0	37	104	0	60	45345
2026-01-29 23:13:04.37	108.70	27.52	-49.3	-62.2	3.5	1.52e+00	0	37	104	0	60	45398
2026-01-29 23:13:05.35	108.53	27.66	-49.3	-62.2	3.6	1.52e+00	0	37	104	0	60	45137
2026-01-29 23:13:06.33	108.35	27.81	-49.3	-62.3	3.5	1.52e+00	0	37	104	0	60	45530
2026-01-29 23:13:07.31	108.18	27.95	-49.3	-62.3	3.5	1.52e+00	0	37	104	0	60	45547
2026-01-29 23:13:08.29	108.00	28.10	-49.3	-62.3	3.5	1.51e+00	0	37	104	0	60	45518
2026-01-29 23:13:09.27	107.82	28.24	-49.3	-62.2	3.5	1.52e+00	0	37	104	0	60	45370
2026-01-29 23:13:10.25	107.64	28.39	-49.3	-62.3	3.5	1.52e+00	0	37	104	0	60	45540
2026-01-29 23:13:11.23	107.46	28.53	-49.3	-62.3	3.5	1.52e+00	0	37	104	0	60	45598
2026-01-29 23:13:12.21	107.27	28.68	-49.3	-62.3	3.5	1.51e+00	0	37	104	0	60	45737
2026-01-29 23:13:13.19	107.09	28.82	-49.3	-62.2	3.5	1.52e+00	0	37	104	0	60	45446
2026-01-29 23:13:14.16	106.90	28.97	-49.3	-62.2	3.5	1.52e+00	0	37	104	0	60	45263
2026-01-29 23:13:15.14	106.71	29.12	-49.3	-62.2	3.5	1.52e+00	0	37	104	0	60	45324
2026-01-29 23:13:16.12	106.52	29.26	-49.3	-62.3	3.5	1.52e+00	0	37	104	0	60	45549
2026-01-29 23:13:17.10	106.33	29.41	-49.3	-62.3	3.5	1.52e+00	0	37	104	0	60	45569
2026-01-29 23:13:18.08	106.13	29.56	-49.3	-62.2	3.5	1.51e+00	0	37	104	0	60	45377
2026-01-29 23:13:19.05	105.94	29.71	-49.3	-62.2	3.5	1.52e+00	0	37	104	0	60	45309
2026-01-29 23:13:20.03	105.74	29.86	-49.3	-62.2	3.5	1.51e+00	0	37	104	0	60	45389
2026-01-29 23:13:21.01	105.54	30.01	-49.3	-62.3	3.5	1.52e+00	0	37	104	0	60	45598
2026-01-29 23:13:21.98	105.34	30.15	-49.3	-62.3	3.5	1.52e+00	0	37	104	0	60	45728
2026-01-29 23:13:22.96	105.13	30.30	-49.3	-62.3	3.5	1.52e+00	0	37	104	0	60	45677
2026-01-29 23:13:23.94	104.93	30.46	-49.3	-62.2	3.5	1.52e+00	0	37	104	0	60	45308
2026-01-29 23:13:24.92	104.72	30.61	-49.3	-62.3	3.5	1.52e+00	0	37	104	0	60	45478
2026-01-29 23:13:25.90	104.51	30.76	-49.3	-62.3	3.5	1.52e+00	0	37	104	0	60	45588
2026-01-29 23:13:26.88	104.30	30.91	-49.3	-62.2	3.5	1.52e+00	0	37	104	0	60	45308
2026-01-29 23:13:27.86	104.08	31.06	-49.3	-62.3	3.5	1.51e+00	0	37	104	0	60	45480
2026-01-29 23:13:28.84	103.87	31.21	-49.3	-62.2	3.5	1.52e+00	0	37	104	0	60	45381
2026-01-29 23:13:29.82	103.65	31.37	-49.3	-62.3	3.5	1.52e+00	0	37	104	0	60	45513
2026-01-29 23:13:30.79	103.43	31.52	-49.3	-62.3	3.5	1.52e+00	0	37	104	0	60	45600
2026-01-29 23:13:31.77	103.21	31.67	-49.3	-62.2	3.5	1.52e+00	0	37	104	0	60	45465
2026-01-29 23:13:32.76	102.98	31.83	-49.3	-62.3	3.5	1.52e+00	0	37	104	0	60	45562
2026-01-29 23:13:33.73	102.76	31.98	-49.3	-62.2	3.5	1.52e+00	0	37	104	0	60	45449
2026-01-29 23:13:34.71	102.53	32.13	-49.3	-62.2	3.5	1.52e+00	0	37	104	0	60	45417
2026-01-29 23:13:35.70	102.29	32.29	-49.3	-62.2	3.5	1.52e+00	0	37	104	0	60	45261
2026-01-29 23:13:36.68	102.06	32.44	-49.3	-62.2	3.5	1.51e+00	0	37	104	0	60	45442
2026-01-29 23:13:37.66	101.82	32.60	-49.3	-62.3	3.5	1.52e+00	0	37	104	0	60	45532
2026-01-29 23:13:38.63	101.59	32.75	-49.3	-62.3	3.5	1.52e+00	0	37	104	0	60	45585
2026-01-29 23:13:39.62	101.35	32.91	-49.3	-62.2	3.5	1.52e+00	0	37	104	0	60	45279
2026-01-29 23:13:40.60	101.10	33.07	-49.3	-62.2	3.5	1.52e+00	0	37	104	0	60	45458
2026-01-29 23:13:41.58	100.86	33.22	-49.3	-62.3	3.5	1.52e+00	0	37	104	0	60	45605
2026-01-29 23:13:42.56	100.61	33.38	-49.3	-62.2	3.5	1.52e+00	0	37	104	0	60	45407
2026-01-29 23:13:43.54	100.36	33.54	-49.3	-62.3	3.5	1.52e+00	0	37	104	0	60	45531
2026-01-29 23:13:44.52	100.11	33.69	-49.3	-62.2	3.5	1.52e+00	0	37	104	0	60	45276
2026-01-29 23:13:45.50	99.86	33.85	-49.3	-62.3	3.5	1.52e+00	0	37	104	0	60	45746
2026-01-29 23:13:46.48	99.60	34.01	-49.3	-62.3	3.5	1.52e+00	0	37	104	0	60	45591
2026-01-29 23:13:47.46	99.34	34.16	-49.3	-62.2	3.5	1.52e+00	0	37	104	0	60	45382
2026-01-29 23:13:48.44	99.08	34.32	-49.3	-62.2	3.5	1.52e+00	0	37	104	0	60	45418
2026-01-29 23:13:49.43	98.81	34.48	-49.3	-62.3	3.5	1.52e+00	0	37	104	0	60	45628
2026-01-29 23:13:50.41	98.54	34.63	-49.3	-62.2	3.5	1.51e+00	0	37	104	0	60	45403
2026-01-29 23:13:51.38	98.27	34.79	-49.3	-62.2	3.5	1.52e+00	0	37	104	0	60	45336
2026-01-29 23:13:52.36	98.00	34.95	-49.3	-62.3	3.5	1.52e+00	0	37	104	0	60	45513
2026-01-29 23:13:53.35	97.72	35.11	-49.3	-62.2	3.5	1.52e+00	0	37	104	0	60	45319
2026-01-29 23:13:54.32	97.45	35.26	-49.3	-62.3	3.5	1.51e+00	0	37	104	0	60	45641
2026-01-29 23:13:55.30	97.17	35.42	-49.3	-62.2	3.5	1.52e+00	0	37	104	0	60	45409
2026-01-29 23:13:56.28	96.89	35.58	-49.3	-62.3	3.5	1.52e+00	0	37	104	0	60	45687
2026-01-29 23:13:57.25	96.60	35.73	-49.3	-62.3	3.5	1.52e+00	0	37	104	0	60	45501
2026-01-29 23:13:58.23	96.31	35.89	-49.3	-62.2	3.5	1.52e+00	0	37	104	0	60	45383
2026-01-29 23:13:59.21	96.02	36.05	-49.3	-62.2	3.5	1.51e+00	0	37	104	0	60	45372
2026-01-29 23:14:00.19	95.73	36.20	-49.3	-62.2	3.5	1.52e+00	0	37	104	0	60	45453
2026-01-29 23:14:01.17	95.43	36.36	-49.3	-62.2	3.5	1.52e+00	0	37	104	0	60	45417
2026-01-29 23:14:02.14	95.13	36.52	-49.3	-62.3	3.5	1.51e+00	0	37	104	0	60	45680
2026-01-29 23:14:03.12	94.83	36.67	-49.3	-62.2	3.5	1.52e+00	0	37	104	0	60	45284
2026-01-29 23:14:04.10	94.52	36.83	-49.3	-62.2	3.5	1.51e+00	0	37	104	0	60	45298
2026-01-29 23:14:05.08	94.21	36.99	-49.3	-62.3	3.5	1.52e+00	0	37	104	0	60	45556
2026-01-29 23:14:06.05	93.91	37.14	-49.3	-62.2	3.5	1.52e+00	0	37	104	0	60	45390
2026-01-29 23:14:07.03	93.59	37.30	-49.3	-62.2	3.5	1.52e+00	0	37	104	0	60	45390
2026-01-29 23:14:08.01	93.27	37.45	-49.3	-62.3	3.5	1.52e+00	0	37	104	0	60	45592
2026-01-29 23:14:08.98	92.96	37.61	-49.3	-62.2	3.5	1.52e+00	0	37	104	0	60	45374
2026-01-29 23:14:09.96	92.63	37.76	-49.3	-62.2	3.5	1.52e+00	0	37	104	0	60	45345
2026-01-29 23:14:10.94	92.30	37.92	-49.3	-62.2	3.5	1.52e+00	0	37	104	0	60	45421
2026-01-29 23:14:11.91	91.98	38.07	-49.3	-62.3	3.5	1.51e+00	0	37	104	0	60	45604
2026-01-29 23:14:12.90	91.64	38.22	-49.3	-62.2	3.5	1.52e+00	0	37	104	0	60	45446
2026-01-29 23:14:13.88	91.30	38.38	-49.3	-62.3	3.5	1.52e+00	0	37	104	0	60	45566
2026-01-29 23:14:14.86	90.96	38.53	-49.3	-62.2	3.5	1.51e+00	0	37	104	0	60	45464
2026-01-29 23:14:15.84	90.62	38.68	-49.3	-62.2	3.5	1.51e+00	0	37	104	0	60	45178
2026-01-29 23:14:16.82	90.27	38.83	-49.3	-62.2	3.5	1.52e+00	0	37	104	0	60	45423
2026-01-29 23:14:17.79	89.93	38.98	-49.3	-62.2	3.5	1.52e+00	0	37	104	0	60	45311
2026-01-29 23:14:18.77	89.57	39.14	-49.3	-62.2	3.5	1.52e+00	0	37	104	0	60	45308
2026-01-29 23:14:19.75	89.22	39.29	-49.3	-62.2	3.5	1.52e+00	0	37	104	0	60	45425
2026-01-29 23:14:20.72	88.86	39.43	-49.3	-62.3	3.5	1.52e+00	0	37	104	0	60	45609
2026-01-29 23:14:21.71	88.50	39.58	-49.3	-62.2	3.5	1.52e+00	0	37	104	0	60	45433
2026-01-29 23:14:22.69	88.13	39.73	-49.3	-62.2	3.5	1.52e+00	0	37	104	0	60	45393
2026-01-29 23:14:23.67	87.76	39.88	-49.3	-62.3	3.5	1.52e+00	0	37	104	0	60	45533
2026-01-29 23:14:24.65	87.39	40.03	-49.3	-62.2	3.5	1.52e+00	0	37	104	0	60	45369
2026-01-29 23:14:25.62	87.01	40.17	-49.3	-62.2	3.5	1.52e+00	0	37	104	0	60	45410
2026-01-29 23:14:26.60	86.63	40.32	-49.3	-62.3	3.5	1.52e+00	0	37	104	0	60	45560
2026-01-29 23:14:27.58	86.25	40.46	-49.3	-62.2	3.5	1.52e+00	0	37	104	0	60	45431
2026-01-29 23:14:28.56	85.87	40.60	-49.3	-62.2	3.5	1.52e+00	0	37	104	0	60	45369
2026-01-29 23:14:29.54	85.48	40.75	-49.3	-62.2	3.5	1.52e+00	0	37	104	0	60	45398
2026-01-29 23:14:30.51	85.09	40.89	-49.3	-62.3	3.5	1.52e+00	0	37	104	0	60	45540
2026-01-29 23:14:31.49	84.69	41.03	-49.3	-62.3	3.5	1.52e+00	0	37	104	0	60	45561
2026-01-29 23:14:32.46	84.29	41.17	-49.3	-62.3	3.5	1.52e+00	0	37	104	0	60	45513
2026-01-29 23:14:33.44	83.89	41.30	-49.3	-62.2	3.5	1.52e+00	0	37	104	0	60	45252
2026-01-29 23:14:34.42	83.48	41.44	-49.3	-62.2	3.5	1.52e+00	0	37	104	0	60	45273
2026-01-29 23:14:35.40	83.07	41.58	-49.3	-62.3	3.5	1.52e+00	0	37	104	0	60	45572
2026-01-29 23:14:36.38	82.66	41.71	-49.3	-62.2	3.5	1.52e+00	0	37	104	0	60	45374
2026-01-29 23:14:37.36	82.24	41.85	-49.3	-62.2	3.5	1.52e+00	0	37	104	0	60	45202
2026-01-29 23:14:38.34	81.82	41.98	-49.3	-62.2	3.5	1.52e+00	0	37	104	0	60	45378
2026-01-29 23:14:39.32	81.39	42.11	-49.3	-62.2	3.5	1.52e+00	0	37	104	0	60	45352
2026-01-29 23:14:40.31	80.96	42.24	-49.3	-62.3	3.5	1.52e+00	0	37	104	0	60	45560
2026-01-29 23:14:41.29	80.53	42.37	-49.3	-62.2	3.5	1.52e+00	0	37	104	0	60	45358
2026-01-29 23:14:42.26	80.10	42.50	-49.3	-62.3	3.5	1.52e+00	0	37	104	0	60	45584
2026-01-29 23:14:43.24	79.66	42.62	-49.3	-62.3	3.5	1.52e+00	0	37	104	0	60	45498
2026-01-29 23:14:44.21	79.22	42.75	-49.3	-62.2	3.5	1.52e+00	0	37	104	0	60	45386
2026-01-29 23:14:45.19	78.78	42.87	-49.3	-62.2	3.5	1.52e+00	0	37	104	0	60	45369
2026-01-29 23:14:46.17	78.33	42.99	-49.3	-62.2	3.5	1.52e+00	0	37	104	0	60	45274
2026-01-29 23:14:47.14	77.88	43.11	-49.3	-62.2	3.5	1.52e+00	0	37	104	0	60	45447
2026-01-29 23:14:48.13	77.42	43.23	-49.3	-62.2	3.5	1.52e+00	0	37	104	0	60	45306
2026-01-29 23:14:49.10	76.97	43.34	-49.3	-62.2	3.5	1.52e+00	0	37	104	0	60	45474
2026-01-29 23:14:50.09	76.50	43.46	-49.3	-62.3	3.5	1.52e+00	0	37	104	0	60	45645
2026-01-29 23:14:51.06	76.04	43.57	-49.3	-62.3	3.5	1.52e+00	0	37	104	0	60	45553
2026-01-29 23:14:52.04	75.57	43.68	-49.3	-62.3	3.5	1.52e+00	0	37	104	0	60	45499
2026-01-29 23:14:53.02	75.10	43.79	-49.3	-62.2	3.5	1.51e+00	0	37	104	0	60	45408
2026-01-29 23:14:54.00	74.62	43.90	-49.3	-62.2	3.5	1.52e+00	0	37	104	0	60	45467
2026-01-29 23:14:54.98	74.15	44.00	-49.3	-62.2	3.5	1.52e+00	0	37	104	0	60	45373
2026-01-29 23:14:55.96	73.67	44.10	-49.3	-62.2	3.5	1.52e+00	0	37	104	0	60	45292
2026-01-29 23:14:56.94	73.18	44.21	-49.3	-62.2	3.5	1.52e+00	0	37	104	0	60	45440
2026-01-29 23:14:57.93	72.69	44.31	-49.3	-62.2	3.5	1.52e+00	0	37	104	0	60	45414
2026-01-29 23:14:58.91	72.20	44.40	-49.3	-62.2	3.5	1.52e+00	0	37	104	0	60	45456
2026-01-29 23:14:59.88	71.71	44.50	-49.3	-62.3	3.5	1.52e+00	0	37	104	0	60	45517
2026-01-29 23:15:00.86	71.21	44.59	-49.3	-62.3	3.5	1.51e+00	0	37	104	0	60	45530
2026-01-29 23:15:01.84	70.71	44.68	-49.3	-62.2	3.5	1.52e+00	0	37	104	0	60	45356
2026-01-29 23:15:02.81	70.22	44.77	-49.3	-62.2	3.5	1.52e+00	0	37	104	0	60	45143
2026-01-29 23:15:03.79	69.71	44.85	-49.3	-62.2	3.5	1.52e+00	0	37	104	0	60	45444
2026-01-29 23:15:04.77	69.20	44.94	-49.3	-62.2	3.5	1.52e+00	0	37	104	0	60	45446
2026-01-29 23:15:05.75	68.69	45.02	-49.3	-62.3	3.5	1.52e+00	0	37	104	0	60	45670
2026-01-29 23:15:06.72	68.19	45.10	-49.3	-62.3	3.5	1.52e+00	0	37	104	0	60	45610
2026-01-29 23:15:07.70	67.67	45.17	-49.3	-62.2	3.5	1.52e+00	0	37	104	0	60	45342
2026-01-29 23:15:08.68	67.15	45.25	-49.3	-62.2	3.5	1.52e+00	0	37	104	0	60	45337
2026-01-29 23:15:09.66	66.63	45.32	-49.3	-62.2	3.5	1.52e+00	0	37	104	0	60	45431
2026-01-29 23:15:10.64	66.11	45.39	-49.3	-62.2	3.5	1.52e+00	0	37	104	0	60	45306
2026-01-29 23:15:11.62	65.59	45.45	-49.3	-62.2	3.5	1.51e+00	0	37	104	0	60	45330
2026-01-29 23:15:12.60	65.06	45.52	-49.3	-62.3	3.5	1.52e+00	0	37	104	0	60	45495
2026-01-29 23:15:13.59	64.52	45.58	-49.3	-62.3	3.5	1.52e+00	0	37	104	0	60	45480
2026-01-29 23:15:14.57	63.99	45.64	-49.3	-62.2	3.5	1.52e+00	0	37	104	0	60	45353
2026-01-29 23:15:15.55	63.46	45.70	-49.3	-62.2	3.5	1.52e+00	0	37	104	0	60	45436
2026-01-29 23:15:16.52	62.93	45.75	-49.3	-62.3	3.5	1.52e+00	0	37	104	0	60	45583
2026-01-29 23:15:17.50	62.40	45.80	-49.3	-62.3	3.5	1.52e+00	0	37	104	0	60	45584
2026-01-29 23:15:18.48	61.86	45.85	-49.3	-62.3	3.5	1.52e+00	0	37	104	0	60	45612
2026-01-29 23:15:19.46	61.32	45.89	-49.3	-62.2	3.5	1.52e+00	0	37	104	0	60	45333
2026-01-29 23:15:20.44	60.78	45.94	-49.3	-62.2	3.5	1.52e+00	0	37	104	0	60	45457
2026-01-29 23:15:21.42	60.23	45.98	-49.3	-62.2	3.5	1.52e+00	0	37	104	0	60	45295
2026-01-29 23:15:22.39	59.69	46.01	-49.3	-62.2	3.5	1.52e+00	0	37	104	0	60	45194
2026-01-29 23:15:23.38	59.14	46.05	-49.3	-62.2	3.5	1.51e+00	0	37	104	0	60	45465
2026-01-29 23:15:24.35	58.60	46.08	-49.3	-62.3	3.5	1.52e+00	0	37	104	0	60	45642
2026-01-29 23:15:25.33	58.06	46.11	-49.3	-62.2	3.5	1.52e+00	0	37	104	0	60	45425
2026-01-29 23:15:26.31	57.51	46.13	-49.3	-62.3	3.5	1.52e+00	0	37	104	0	60	45614
2026-01-29 23:15:27.29	56.96	46.15	-49.3	-62.2	3.5	1.52e+00	0	37	104	0	60	45396
2026-01-29 23:15:28.27	56.41	46.17	-49.3	-62.2	3.5	1.52e+00	0	37	104	0	60	45435
2026-01-29 23:15:29.25	55.86	46.19	-49.3	-62.3	3.5	1.52e+00	0	37	104	0	60	45614
2026-01-29 23:15:30.23	55.31	46.20	-49.3	-62.3	3.5	1.52e+00	0	37	104	0	60	45651
2026-01-29 23:15:31.21	54.76	46.22	-49.3	-62.3	3.5	1.52e+00	0	37	104	0	60	45778
2026-01-29 23:15:32.19	54.20	46.22	-49.3	-62.2	3.5	1.51e+00	0	37	104	0	60	45278
2026-01-29 23:15:33.17	53.65	46.23	-49.3	-62.3	3.5	1.51e+00	0	37	104	0	60	45503
2026-01-29 23:15:34.14	53.11	46.23	-49.3	-62.2	3.5	1.52e+00	0	37	104	0	60	45312
2026-01-29 23:15:35.12	52.55	46.23	-49.3	-62.2	3.5	1.52e+00	0	37	104	0	60	45341
2026-01-29 23:15:36.10	52.00	46.23	-49.3	-62.2	3.5	1.52e+00	0	37	104	0	60	45383
2026-01-29 23:15:37.07	51.45	46.22	-49.3	-62.3	3.4	1.52e+00	0	37	104	0	60	45490
2026-01-29 23:15:38.05	50.90	46.21	-49.3	-62.2	3.5	1.52e+00	0	37	104	0	60	45439
2026-01-29 23:15:39.03	50.35	46.20	-49.3	-62.2	3.5	1.52e+00	0	37	104	0	60	45308
2026-01-29 23:15:40.01	49.80	46.18	-49.3	-62.2	3.5	1.52e+00	0	37	104	0	60	45472
2026-01-29 23:15:40.99	49.25	46.16	-49.3	-62.2	3.5	1.52e+00	0	37	104	0	60	45450
2026-01-29 23:15:41.97	48.70	46.14	-49.3	-62.2	3.5	1.52e+00	0	37	104	0	60	45455
2026-01-29 23:15:42.95	48.15	46.12	-49.3	-62.2	3.5	1.51e+00	0	37	104	0	60	45404
2026-01-29 23:15:43.92	47.61	46.09	-49.3	-62.2	3.5	1.52e+00	0	37	104	0	60	45463
2026-01-29 23:15:44.90	47.06	46.06	-49.3	-62.3	3.5	1.52e+00	0	37	104	0	60	45584
2026-01-29 23:15:45.88	46.52	46.03	-49.3	-62.3	3.5	1.52e+00	0	37	104	0	60	45511
2026-01-29 23:15:46.87	45.97	45.99	-49.3	-62.2	3.5	1.51e+00	0	37	104	0	60	45319
2026-01-29 23:15:47.85	45.43	45.96	-49.3	-62.3	3.5	1.52e+00	0	37	104	0	60	45535
2026-01-29 23:15:48.82	44.89	45.91	-49.3	-62.3	3.5	1.52e+00	0	37	104	0	60	45506
2026-01-29 23:15:49.80	44.35	45.87	-49.3	-62.3	3.5	1.52e+00	0	37	104	0	60	45482
2026-01-29 23:15:50.78	43.81	45.82	-49.3	-62.3	3.5	1.52e+00	0	37	104	0	60	45531
2026-01-29 23:15:51.76	43.27	45.78	-49.3	-62.2	3.5	1.52e+00	0	37	104	0	60	45376
2026-01-29 23:15:52.73	42.74	45.72	-49.3	-62.2	3.5	1.52e+00	0	37	104	0	60	45374
2026-01-29 23:15:53.72	42.20	45.67	-49.3	-62.2	3.5	1.52e+00	0	37	104	0	60	45417
2026-01-29 23:15:54.70	41.67	45.61	-49.3	-62.3	3.5	1.51e+00	0	37	104	0	60	45532
2026-01-29 23:15:55.68	41.14	45.55	-49.3	-62.3	3.5	1.52e+00	0	37	104	0	60	45707
2026-01-29 23:15:56.66	40.62	45.49	-49.3	-62.3	3.5	1.52e+00	0	37	104	0	60	45623
2026-01-29 23:15:57.64	40.09	45.42	-49.3	-62.2	3.5	1.51e+00	0	37	104	0	60	45388
2026-01-29 23:15:58.62	39.57	45.36	-49.3	-62.2	3.5	1.52e+00	0	37	104	0	60	45419
2026-01-29 23:15:59.60	39.05	45.28	-49.3	-62.2	3.5	1.52e+00	0	37	104	0	60	45436
2026-01-29 23:16:00.58	38.53	45.21	-49.3	-62.2	3.5	1.52e+00	0	37	104	0	60	45267
2026-01-29 23:16:01.56	38.01	45.14	-49.3	-62.2	3.5	1.52e+00	0	37	104	0	60	45433
2026-01-29 23:16:02.54	37.50	45.06	-49.3	-62.2	3.5	1.52e+00	0	37	104	0	60	45371
2026-01-29 23:16:03.52	36.99	44.98	-49.3	-62.3	3.5	1.52e+00	0	37	104	0	60	45509
2026-01-29 23:16:04.50	36.48	44.90	-49.3	-62.3	3.5	1.52e+00	0	37	104	0	60	45776
2026-01-29 23:16:05.48	35.97	44.81	-49.3	-62.2	3.5	1.52e+00	0	37	104	0	60	45408
2026-01-29 23:16:06.46	35.47	44.72	-49.3	-62.2	3.5	1.52e+00	0	37	104	0	60	45430
2026-01-29 23:16:07.44	34.97	44.64	-49.3	-62.2	3.5	1.52e+00	0	37	104	0	60	45307
2026-01-29 23:16:08.42	34.47	44.54	-49.3	-62.2	3.5	1.52e+00	0	37	104	0	60	45320
2026-01-29 23:16:09.39	33.98	44.45	-49.3	-62.2	3.5	1.52e+00	0	37	104	0	60	45448
2026-01-29 23:16:10.37	33.49	44.36	-49.3	-62.2	3.5	1.52e+00	0	37	104	0	60	45363
2026-01-29 23:16:11.35	33.01	44.26	-49.3	-62.2	3.5	1.51e+00	0	37	104	0	60	45290
2026-01-29 23:16:12.33	32.52	44.16	-49.3	-62.2	3.5	1.52e+00	0	37	104	0	60	45294
2026-01-29 23:16:13.30	32.04	44.06	-49.3	-62.3	3.5	1.52e+00	0	37	104	0	60	45568
2026-01-29 23:16:14.28	31.56	43.95	-49.3	-62.2	3.5	1.52e+00	0	37	104	0	60	45475
2026-01-29 23:16:15.26	31.09	43.85	-49.3	-62.3	3.5	1.51e+00	0	37	104	0	60	45653
2026-01-29 23:16:16.24	30.61	43.74	-49.3	-62.2	3.5	1.52e+00	0	37	104	0	60	45447
2026-01-29 23:16:17.22	30.15	43.63	-49.3	-62.3	3.5	1.52e+00	0	37	104	0	60	45511
2026-01-29 23:16:18.20	29.68	43.52	-49.3	-62.3	3.5	1.52e+00	0	37	104	0	60	45542
2026-01-29 23:16:19.18	29.22	43.40	-49.3	-62.2	3.5	1.52e+00	0	37	104	0	60	45365
2026-01-29 23:16:20.15	28.76	43.29	-49.3	-62.3	3.5	1.52e+00	0	37	104	0	60	45575
2026-01-29 23:16:21.13	28.30	43.17	-49.3	-62.2	3.5	1.52e+00	0	37	104	0	60	45394
2026-01-29 23:16:22.11	27.85	43.05	-49.3	-62.3	3.5	1.52e+00	0	37	104	0	60	45581
2026-01-29 23:16:23.09	27.40	42.93	-49.3	-62.3	3.5	1.51e+00	0	37	104	0	60	45663
2026-01-29 23:16:24.07	26.96	42.81	-49.3	-62.2	3.5	1.52e+00	0	37	104	0	60	45399
2026-01-29 23:16:25.04	26.52	42.69	-49.3	-62.2	3.5	1.52e+00	0	37	104	0	60	45371
2026-01-29 23:16:26.02	26.08	42.57	-49.3	-62.2	3.5	1.52e+00	0	37	104	0	60	45455
2026-01-29 23:16:27.00	25.64	42.44	-49.3	-62.2	3.5	1.52e+00	0	37	104	0	60	45438
2026-01-29 23:16:27.98	25.21	42.31	-49.3	-62.2	3.5	1.52e+00	0	37	104	0	60	45328
2026-01-29 23:16:28.96	24.78	42.18	-49.3	-62.3	3.5	1.52e+00	0	37	104	0	60	45543
2026-01-29 23:16:29.94	24.35	42.05	-49.3	-62.2	3.5	1.52e+00	0	37	104	0	60	45461
2026-01-29 23:16:30.92	23.93	41.92	-49.3	-62.2	3.5	1.52e+00	0	37	104	0	60	45340
2026-01-29 23:16:31.90	23.51	41.79	-49.3	-62.2	3.5	1.52e+00	0	37	104	0	60	45440
2026-01-29 23:16:32.88	23.10	41.66	-49.3	-62.3	3.5	1.51e+00	0	37	104	0	60	45552
2026-01-29 23:16:33.86	22.69	41.52	-49.3	-62.3	3.5	1.51e+00	0	37	104	0	60	45687
2026-01-29 23:16:34.84	22.28	41.38	-49.3	-62.2	3.5	1.52e+00	0	37	104	0	60	45451
2026-01-29 23:16:35.82	21.87	41.25	-49.3	-62.2	3.5	1.52e+00	0	37	104	0	60	45365
2026-01-29 23:16:36.79	21.48	41.11	-49.3	-62.2	3.5	1.52e+00	0	37	104	0	60	45426
2026-01-29 23:16:37.77	21.08	40.97	-49.3	-62.3	3.5	1.52e+00	0	37	104	0	60	45753
2026-01-29 23:16:38.75	20.68	40.83	-49.3	-62.2	3.5	1.52e+00	0	37	104	0	60	45309
2026-01-29 23:16:39.73	20.29	40.69	-49.3	-62.2	3.5	1.52e+00	0	37	104	0	60	45456
2026-01-29 23:16:40.71	19.91	40.54	-49.3	-62.3	3.5	1.52e+00	0	37	104	0	60	45556
2026-01-29 23:16:41.70	19.52	40.40	-49.3	-62.2	3.5	1.52e+00	0	37	104	0	60	45387
2026-01-29 23:16:42.67	19.14	40.26	-49.3	-62.3	3.5	1.52e+00	0	37	104	0	60	45597
2026-01-29 23:16:43.65	18.76	40.11	-49.3	-62.2	3.5	1.52e+00	0	37	104	0	60	45365
2026-01-29 23:16:44.63	18.39	39.96	-49.3	-62.3	3.5	1.52e+00	0	37	104	0	60	45636
2026-01-29 23:16:45.61	18.02	39.82	-49.3	-62.3	3.5	1.52e+00	0	37	104	0	60	45527
2026-01-29 23:16:46.59	17.65	39.67	-49.3	-62.2	3.5	1.52e+00	0	37	104	0	60	45390
2026-01-29 23:16:47.56	17.29	39.52	-49.3	-62.2	3.5	1.52e+00	0	37	104	0	60	45476
2026-01-29 23:16:48.54	16.93	39.37	-49.3	-62.3	3.5	1.52e+00	0	37	104	0	60	45883
2026-01-29 23:16:49.52	16.58	39.23	-49.3	-62.2	3.5	1.52e+00	0	37	104	0	60	45411
2026-01-29 23:16:50.50	16.22	39.08	-49.3	-62.3	3.5	1.52e+00	0	37	104	0	60	45575
2026-01-29 23:16:51.47	15.87	38.93	-49.3	-62.2	3.5	1.52e+00	0	37	104	0	60	45453
2026-01-29 23:16:52.45	15.53	38.77	-49.3	-62.2	3.5	1.51e+00	0	37	104	0	60	45454
2026-01-29 23:16:53.43	15.18	38.62	-49.3	-62.2	3.5	1.52e+00	0	37	104	0	60	45373
2026-01-29 23:16:54.40	14.85	38.47	-49.3	-62.2	3.5	1.52e+00	0	37	104	0	60	45428
2026-01-29 23:16:55.38	14.51	38.32	-49.3	-62.2	3.5	1.52e+00	0	37	104	0	60	45338
2026-01-29 23:16:56.36	14.17	38.17	-49.3	-62.3	3.5	1.52e+00	0	37	104	0	60	45556
2026-01-29 23:16:57.34	13.84	38.01	-49.3	-62.2	3.5	1.52e+00	0	37	104	0	60	45446
2026-01-29 23:16:58.32	13.52	37.86	-49.3	-62.2	3.5	1.52e+00	0	37	104	0	60	45237
2026-01-29 23:16:59.31	13.19	37.70	-49.3	-62.2	3.5	1.52e+00	0	37	104	0	60	45429
2026-01-29 23:17:00.29	12.86	37.55	-49.3	-62.3	3.5	1.52e+00	0	37	104	0	60	45573
2026-01-29 23:17:01.26	12.55	37.39	-49.3	-62.2	3.5	1.52e+00	0	37	104	0	60	45423
2026-01-29 23:17:02.24	12.23	37.24	-49.3	-62.3	3.5	1.52e+00	0	37	104	0	60	45571
2026-01-29 23:17:03.22	11.92	37.08	-49.3	-62.2	3.5	1.52e+00	0	37	104	0	60	45310
2026-01-29 23:17:04.20	11.61	36.93	-49.3	-62.2	3.5	1.52e+00	0	37	104	0	60	45121
2026-01-29 23:17:05.18	11.30	36.77	-49.3	-62.2	3.5	1.52e+00	0	37	104	0	60	45449
2026-01-29 23:17:06.16	11.00	36.62	-49.3	-62.2	3.5	1.52e+00	0	37	104	0	60	45467
2026-01-29 23:17:07.13	10.70	36.46	-49.3	-62.2	3.5	1.52e+00	0	37	104	0	60	45357
2026-01-29 23:17:08.11	10.40	36.31	-49.3	-62.3	3.5	1.52e+00	0	37	104	0	60	45599
2026-01-29 23:17:09.08	10.11	36.15	-49.3	-62.3	3.5	1.52e+00	0	37	104	0	60	45567
2026-01-29 23:17:10.06	9.82	35.99	-49.3	-62.3	3.5	1.52e+00	0	37	104	0	60	45564
2026-01-29 23:17:11.04	9.53	35.84	-49.3	-62.2	3.5	1.51e+00	0	37	104	0	60	45388
2026-01-29 23:17:12.02	9.24	35.68	-49.3	-62.3	3.5	1.52e+00	0	37	104	0	60	45656
2026-01-29 23:17:12.99	8.96	35.52	-49.3	-62.3	3.5	1.52e+00	0	37	104	0	60	45623
2026-01-29 23:17:13.97	8.68	35.37	-49.3	-62.2	3.5	1.52e+00	0	37	104	0	60	45471
2026-01-29 23:17:14.95	8.40	35.21	-49.3	-62.3	3.5	1.52e+00	0	37	104	0	60	45541
2026-01-29 23:17:15.93	8.13	35.05	-49.3	-62.3	3.5	1.52e+00	0	37	104	0	60	45514
2026-01-29 23:17:16.91	7.85	34.90	-49.3	-62.3	3.5	1.52e+00	0	37	104	0	60	45638
2026-01-29 23:17:17.89	7.58	34.74	-49.3	-62.2	3.5	1.52e+00	0	37	104	0	60	45396
2026-01-29 23:17:18.87	7.32	34.58	-49.3	-62.3	3.5	1.51e+00	0	37	104	0	60	45573
2026-01-29 23:17:19.84	7.05	34.43	-49.3	-62.3	3.5	1.52e+00	0	37	104	0	60	45481
2026-01-29 23:17:20.82	6.79	34.27	-49.3	-62.3	3.5	1.52e+00	0	37	104	0	60	45508
2026-01-29 23:17:21.79	6.53	34.12	-49.3	-62.3	3.5	1.52e+00	0	37	104	0	60	45513
2026-01-29 23:17:22.77	6.28	33.96	-49.3	-62.2	3.5	1.51e+00	0	37	104	0	60	45229
2026-01-29 23:17:23.75	6.02	33.80	-49.3	-62.3	3.5	1.52e+00	0	37	104	0	60	45593
2026-01-29 23:17:24.73	5.77	33.65	-49.3	-62.3	3.5	1.52e+00	0	37	104	0	60	45542
2026-01-29 23:17:25.71	5.52	33.49	-49.3	-62.3	3.5	1.52e+00	0	37	104	0	60	45664
2026-01-29 23:17:26.68	5.27	33.34	-49.3	-62.2	3.5	1.52e+00	0	37	104	0	60	45312
2026-01-29 23:17:27.67	5.02	33.18	-49.3	-62.2	3.5	1.52e+00	0	37	104	0	60	45361
2026-01-29 23:17:28.65	4.78	33.03	-49.3	-62.3	3.5	1.51e+00	0	37	104	0	60	45530
2026-01-29 23:17:29.63	4.54	32.87	-49.3	-62.2	3.5	1.52e+00	0	38	104	0	60	45471
2026-01-29 23:17:30.60	4.30	32.72	-49.3	-62.3	3.5	1.52e+00	0	37	104	0	60	45612
2026-01-29 23:17:31.58	4.07	32.56	-49.3	-62.2	3.5	1.52e+00	0	38	104	0	60	45285
2026-01-29 23:17:32.56	3.83	32.41	-49.3	-62.3	3.5	1.52e+00	0	37	104	0	60	45487
2026-01-29 23:17:33.53	3.61	32.26	-49.3	-62.2	3.5	1.52e+00	0	37	104	0	60	45322
2026-01-29 23:17:34.51	3.38	32.10	-49.3	-62.2	3.5	1.52e+00	0	38	104	0	60	45408
2026-01-29 23:17:35.49	3.15	31.95	-49.3	-62.2	3.5	1.52e+00	0	37	104	0	60	45384
2026-01-29 23:17:36.47	2.92	31.79	-49.3	-62.2	3.5	1.52e+00	0	37	104	0	60	45400
2026-01-29 23:17:37.45	2.70	31.64	-49.3	-62.2	3.5	1.52e+00	0	37	104	0	60	45475
2026-01-29 23:17:38.43	2.48	31.49	-49.3	-62.3	3.5	1.52e+00	0	37	104	0	60	45611
2026-01-29 23:17:39.41	2.26	31.34	-49.3	-62.2	3.5	1.52e+00	0	37	104	0	60	45288
2026-01-29 23:17:40.39	2.04	31.18	-49.3	-62.2	3.5	1.52e+00	0	37	104	0	60	45397
2026-01-29 23:17:41.38	1.83	31.03	-49.3	-62.3	3.5	1.52e+00	0	37	104	0	60	45656
2026-01-29 23:17:42.37	1.61	30.88	-49.3	-62.2	3.5	1.52e+00	0	37	104	0	60	45330
2026-01-29 23:17:43.36	1.40	30.73	-49.3	-62.3	3.5	1.52e+00	0	37	104	0	60	45604
2026-01-29 23:17:44.34	1.19	30.57	-49.3	-62.3	3.5	1.52e+00	0	37	104	0	60	45672
2026-01-29 23:17:45.32	0.99	30.42	-49.3	-62.2	3.5	1.52e+00	0	37	104	0	60	45392
2026-01-29 23:17:46.30	0.78	30.27	-49.3	-62.3	3.5	1.52e+00	0	37	104	0	60	45542
2026-01-29 23:17:47.28	0.58	30.12	-49.3	-62.3	3.5	1.51e+00	0	37	104	0	60	45605
2026-01-29 23:17:48.26	0.38	29.98	-49.3	-62.2	3.5	1.52e+00	0	37	104	0	60	45343
2026-01-29 23:17:49.24	0.18	29.83	-49.3	-62.2	3.5	1.52e+00	0	37	104	0	60	45433
2026-01-29 23:17:50.22	359.98	29.68	-49.3	-62.2	3.5	1.52e+00	0	37	104	0	60	45325
2026-01-29 23:17:51.21	359.78	29.53	-49.3	-62.2	3.5	1.52e+00	0	37	104	0	60	45231
2026-01-29 23:17:52.18	359.59	29.38	-49.3	-62.3	3.5	1.52e+00	0	37	104	0	60	45640
2026-01-29 23:17:53.16	359.40	29.23	-49.3	-62.2	3.5	1.52e+00	0	37	104	0	60	45391
2026-01-29 23:17:54.15	359.21	29.09	-49.3	-62.2	3.5	1.52e+00	0	37	104	0	60	45362
2026-01-29 23:17:55.13	359.02	28.94	-49.3	-62.2	3.5	1.52e+00	0	37	104	0	60	45368
2026-01-29 23:17:56.11	358.83	28.79	-49.3	-62.2	3.5	1.52e+00	0	37	104	0	60	45385
2026-01-29 23:17:57.09	358.65	28.65	-49.3	-62.2	3.5	1.52e+00	0	37	104	0	60	45410
2026-01-29 23:17:58.07	358.47	28.50	-49.3	-62.2	3.5	1.52e+00	0	37	104	0	60	45416
2026-01-29 23:17:59.07	358.28	28.35	-49.3	-62.2	3.5	1.52e+00	0	37	104	0	60	45220
2026-01-29 23:18:00.08	358.10	28.21	-49.3	-62.3	3.5	1.51e+00	0	37	104	0	60	45747
2026-01-29 23:18:01.09	357.91	28.06	-49.3	-62.3	3.5	1.52e+00	0	37	104	0	60	45487
2026-01-29 23:18:02.09	357.73	27.91	-49.3	-62.2	3.5	1.52e+00	0	37	104	0	60	45238
2026-01-29 23:18:03.10	357.55	27.76	-49.3	-62.2	3.5	1.52e+00	0	37	104	0	60	45376
2026-01-29 23:18:04.11	357.38	27.62	-49.3	-62.2	3.5	1.52e+00	0	37	104	0	60	45387
2026-01-29 23:18:05.11	357.20	27.47	-49.3	-62.2	3.5	1.52e+00	0	37	104	0	60	45445
2026-01-29 23:18:06.11	357.03	27.33	-49.3	-62.3	3.5	1.52e+00	0	37	104	0	60	45513
2026-01-29 23:18:07.11	356.86	27.18	-49.3	-62.2	3.5	1.52e+00	0	37	104	0	60	45383
2026-01-29 23:18:08.11	356.69	27.04	-49.3	-62.3	3.5	1.51e+00	0	37	104	0	60	45531
2026-01-29 23:18:09.11	356.52	26.90	-49.3	-62.3	3.5	1.52e+00	0	37	104	0	60	45612
2026-01-29 23:18:10.10	356.35	26.76	-49.3	-62.2	3.5	1.51e+00	0	37	104	0	60	45431
2026-01-29 23:18:11.10	356.19	26.61	-49.3	-62.2	3.5	1.51e+00	0	37	104	0	60	45356
2026-01-29 23:18:12.10	356.02	26.47	-49.3	-62.2	3.5	1.52e+00	0	37	104	0	60	45342
2026-01-29 23:18:13.09	355.86	26.33	-49.3	-62.2	3.5	1.52e+00	0	37	104	0	60	45180
2026-01-29 23:18:14.09	355.70	26.19	-49.3	-62.3	3.5	1.52e+00	0	37	104	0	60	45560
2026-01-29 23:18:15.09	355.54	26.05	-49.3	-62.2	3.5	1.52e+00	0	37	104	0	60	45418
2026-01-29 23:18:16.09	355.38	25.91	-49.3	-62.2	3.5	1.52e+00	0	37	104	0	60	45456
2026-01-29 23:18:17.09	355.23	25.77	-49.3	-62.2	3.5	1.52e+00	0	37	104	0	60	45316
2026-01-29 23:18:18.08	355.07	25.63	-49.3	-62.2	3.5	1.52e+00	0	37	104	0	60	45321
2026-01-29 23:18:19.08	354.92	25.50	-49.3	-62.2	3.5	1.52e+00	0	37	104	0	60	45334
2026-01-29 23:18:20.08	354.77	25.36	-49.3	-62.3	3.5	1.52e+00	0	37	104	0	60	45503
2026-01-29 23:18:21.08	354.62	25.22	-49.3	-62.3	3.5	1.52e+00	0	37	104	0	60	45535
2026-01-29 23:18:22.08	354.47	25.08	-49.3	-62.3	3.5	1.52e+00	0	37	104	0	60	45483
2026-01-29 23:18:23.08	354.32	24.95	-49.3	-62.3	3.5	1.52e+00	0	37	104	0	60	45480
2026-01-29 23:18:24.07	354.17	24.81	-49.3	-62.2	3.5	1.52e+00	0	37	104	0	60	45298
2026-01-29 23:18:25.07	354.02	24.68	-49.3	-62.2	3.5	1.52e+00	0	37	104	0	60	45427
2026-01-29 23:18:26.06	353.88	24.54	-49.3	-62.2	3.5	1.51e+00	0	37	104	0	60	45443
2026-01-29 23:18:27.06	353.74	24.41	-49.3	-62.2	3.5	1.52e+00	0	37	104	0	60	45365
2026-01-29 23:18:28.06	353.60	24.28	-49.3	-62.3	3.5	1.52e+00	0	37	104	0	60	45670
2026-01-29 23:18:29.05	353.46	24.14	-49.3	-62.2	3.5	1.51e+00	0	37	104	0	60	45422
2026-01-29 23:18:30.06	353.32	24.01	-49.3	-62.2	3.5	1.52e+00	0	37	104	0	60	45383
2026-01-29 23:18:31.07	353.18	23.88	-49.3	-62.2	3.5	1.52e+00	0	37	104	0	60	45299
2026-01-29 23:18:32.08	353.04	23.74	-49.3	-62.3	3.5	1.52e+00	0	37	104	0	60	45567
2026-01-29 23:18:33.09	352.90	23.61	-49.3	-62.2	3.5	1.51e+00	0	37	104	0	60	45411
2026-01-29 23:18:34.10	352.76	23.48	-49.3	-62.2	3.5	1.52e+00	0	37	104	0	60	45469
2026-01-29 23:18:35.11	352.63	23.35	-49.3	-62.3	3.5	1.52e+00	0	37	104	0	60	45517
2026-01-29 23:18:36.12	352.49	23.21	-49.3	-62.2	3.5	1.52e+00	0	37	104	0	60	45432
2026-01-29 23:18:37.13	352.36	23.08	-49.3	-62.2	3.5	1.52e+00	0	37	104	0	60	45318
2026-01-29 23:18:38.14	352.23	22.95	-49.3	-62.3	3.5	1.52e+00	0	37	104	0	60	45592
2026-01-29 23:18:39.15	352.10	22.82	-49.3	-62.3	3.5	1.52e+00	0	37	104	0	60	45499
2026-01-29 23:18:40.16	351.97	22.69	-49.3	-62.2	3.5	1.52e+00	0	37	104	0	60	45373
2026-01-29 23:18:41.17	351.84	22.57	-49.3	-62.2	3.5	1.51e+00	0	37	104	0	60	45316
2026-01-29 23:18:42.18	351.71	22.44	-49.3	-62.3	3.5	1.52e+00	0	37	104	0	60	45716
2026-01-29 23:18:43.19	351.59	22.31	-49.3	-62.2	3.5	1.52e+00	0	37	104	0	60	45256
2026-01-29 23:18:44.20	351.46	22.18	-49.3	-62.2	3.5	1.51e+00	0	37	104	0	60	45407
2026-01-29 23:18:45.21	351.34	22.05	-49.3	-62.3	3.5	1.52e+00	0	37	104	0	60	45645
2026-01-29 23:18:46.22	351.21	21.93	-49.3	-62.2	3.5	1.52e+00	0	37	104	0	60	45308
2026-01-29 23:18:47.23	351.09	21.80	-49.3	-62.3	3.5	1.52e+00	0	37	104	0	60	45541
2026-01-29 23:18:48.24	350.97	21.68	-49.3	-62.2	3.5	1.52e+00	0	37	104	0	60	45233
2026-01-29 23:18:49.25	350.85	21.55	-49.3	-62.2	3.5	1.51e+00	0	37	104	0	60	45466
2026-01-29 23:18:50.26	350.73	21.43	-49.3	-62.2	3.5	1.52e+00	0	37	104	0	60	45408
2026-01-29 23:18:51.27	350.61	21.30	-49.3	-62.3	3.5	1.52e+00	0	37	104	0	60	45536
2026-01-29 23:18:52.28	350.50	21.18	-49.3	-62.2	3.5	1.51e+00	0	37	104	0	60	45334
2026-01-29 23:18:53.29	350.38	21.06	-49.3	-62.2	3.5	1.52e+00	0	37	104	0	60	45422
2026-01-29 23:18:54.30	350.27	20.93	-49.3	-62.3	3.5	1.52e+00	0	37	104	0	60	45661
2026-01-29 23:18:55.31	350.15	20.81	-49.3	-62.3	3.5	1.52e+00	0	37	104	0	60	45498
2026-01-29 23:18:56.32	350.04	20.69	-49.3	-62.2	3.5	1.52e+00	0	37	104	0	60	45348
2026-01-29 23:18:57.33	349.93	20.57	-49.3	-62.3	3.5	1.52e+00	0	37	104	0	60	45719
2026-01-29 23:18:58.34	349.81	20.45	-49.3	-62.2	3.5	1.52e+00	0	37	104	0	60	45469
2026-01-29 23:18:59.35	349.70	20.33	-49.3	-62.2	3.5	1.51e+00	0	37	104	0	60	45363
2026-01-29 23:19:00.36	349.59	20.21	-49.3	-62.2	3.5	1.52e+00	0	37	104	0	60	45464
2026-01-29 23:19:01.37	349.48	20.09	-49.3	-62.3	3.5	1.52e+00	0	37	104	0	60	45652
2026-01-29 23:19:02.38	349.38	19.97	-49.3	-62.3	3.5	1.52e+00	0	37	104	0	60	45515
2026-01-29 23:19:03.39	349.27	19.85	-49.3	-62.3	3.5	1.52e+00	0	37	104	0	60	45631
2026-01-29 23:19:04.40	349.16	19.73	-49.3	-62.3	3.5	1.52e+00	0	37	104	0	60	45571
2026-01-29 23:19:05.41	349.06	19.62	-49.3	-62.2	3.5	1.52e+00	0	37	104	0	60	45336
2026-01-29 23:19:06.42	348.95	19.50	-49.3	-62.2	3.5	1.52e+00	0	37	104	0	60	45265
2026-01-29 23:19:07.43	348.85	19.38	-49.3	-62.2	3.5	1.52e+00	0	37	104	0	60	45369
2026-01-29 23:19:08.44	348.75	19.27	-49.3	-62.3	3.5	1.52e+00	0	37	104	0	60	45568
2026-01-29 23:19:09.45	348.64	19.15	-49.3	-62.3	3.5	1.52e+00	0	37	104	0	60	45647
2026-01-29 23:19:10.46	348.54	19.04	-49.3	-62.3	3.5	1.52e+00	0	37	104	0	60	45555
2026-01-29 23:19:11.47	348.44	18.92	-49.3	-62.3	3.5	1.52e+00	0	37	104	0	60	45693
2026-01-29 23:19:12.47	348.34	18.81	-49.3	-62.2	3.5	1.52e+00	0	37	104	0	60	45340
2026-01-29 23:19:13.49	348.24	18.69	-49.3	-62.3	3.5	1.52e+00	0	37	104	0	60	45699
2026-01-29 23:19:14.50	348.15	18.58	-49.3	-62.2	3.5	1.52e+00	0	37	104	0	60	45443
2026-01-29 23:19:15.51	348.05	18.47	-49.3	-62.3	3.5	1.52e+00	0	37	104	0	60	45628
2026-01-29 23:19:16.52	347.95	18.35	-49.3	-62.2	3.5	1.52e+00	0	37	104	0	60	45341
2026-01-29 23:19:17.53	347.86	18.24	-49.3	-62.3	3.5	1.52e+00	0	37	104	0	60	45606
2026-01-29 23:19:18.54	347.76	18.13	-49.3	-62.3	3.5	1.52e+00	0	37	104	0	60	45750
2026-01-29 23:19:19.55	347.67	18.02	-49.3	-62.2	3.5	1.52e+00	0	37	104	0	60	45382
2026-01-29 23:19:20.56	347.57	17.91	-49.3	-62.3	3.5	1.52e+00	0	37	104	0	60	45608
2026-01-29 23:19:21.57	347.48	17.80	-49.3	-62.2	3.5	1.51e+00	0	37	104	0	60	45147
2026-01-29 23:19:22.58	347.39	17.69	-49.3	-62.2	3.5	1.52e+00	0	37	104	0	60	45399
2026-01-29 23:19:23.59	347.29	17.58	-49.3	-62.2	3.5	1.52e+00	0	37	104	0	60	45459
2026-01-29 23:19:24.60	347.20	17.47	-49.3	-62.3	3.5	1.52e+00	0	37	104	0	60	45615
2026-01-29 23:19:25.61	347.11	17.36	-49.3	-62.3	3.5	1.51e+00	0	37	104	0	60	45594
2026-01-29 23:19:26.62	347.02	17.25	-49.3	-62.2	3.5	1.52e+00	0	37	104	0	60	45310
2026-01-29 23:19:27.63	346.93	17.14	-49.3	-62.3	3.5	1.52e+00	0	37	104	0	60	45494
2026-01-29 23:19:28.64	346.85	17.03	-49.3	-62.3	3.5	1.52e+00	0	37	104	0	60	45509
2026-01-29 23:19:29.65	346.76	16.93	-49.3	-62.3	3.5	1.52e+00	0	37	104	0	60	45687
2026-01-29 23:19:30.66	346.67	16.82	-49.3	-62.3	3.5	1.52e+00	0	37	104	0	60	45623
2026-01-29 23:19:31.67	346.58	16.71	-49.3	-62.3	3.5	1.52e+00	0	37	104	0	60	45487
2026-01-29 23:19:32.68	346.50	16.61	-49.3	-62.2	3.5	1.52e+00	0	37	104	0	60	45353
2026-01-29 23:19:33.69	346.41	16.50	-49.3	-62.2	3.5	1.52e+00	0	37	104	0	60	45446
2026-01-29 23:19:34.70	346.33	16.40	-49.3	-62.2	3.5	1.52e+00	0	37	104	0	60	45445
2026-01-29 23:19:35.71	346.25	16.29	-49.3	-62.3	3.5	1.52e+00	0	37	104	0	60	45617
2026-01-29 23:19:36.72	346.16	16.19	-49.3	-62.3	3.5	1.52e+00	0	37	104	0	60	45563
2026-01-29 23:19:37.73	346.08	16.08	-49.3	-62.3	3.5	1.52e+00	0	37	104	0	60	45621
2026-01-29 23:19:38.74	346.00	15.98	-49.3	-62.3	3.5	1.51e+00	0	37	104	0	60	45627
2026-01-29 23:19:39.76	345.92	15.87	-49.3	-62.2	3.5	1.52e+00	0	37	104	0	60	45360
2026-01-29 23:19:40.76	345.84	15.77	-49.3	-62.3	3.5	1.52e+00	0	37	104	0	60	45489
2026-01-29 23:19:41.78	345.75	15.67	-49.3	-62.2	3.5	1.52e+00	0	37	104	0	60	45416
2026-01-29 23:19:42.79	345.67	15.57	-49.3	-62.2	3.5	1.52e+00	0	37	104	0	60	45424
2026-01-29 23:19:43.80	345.60	15.46	-49.3	-62.3	3.5	1.52e+00	0	37	104	0	60	45576
2026-01-29 23:19:44.81	345.52	15.36	-49.3	-62.3	3.5	1.52e+00	0	37	104	0	60	45565
2026-01-29 23:19:45.82	345.44	15.26	-49.3	-62.2	3.5	1.52e+00	0	37	104	0	60	45464
2026-01-29 23:19:46.83	345.36	15.16	-49.3	-62.2	3.5	1.52e+00	0	37	104	0	60	45453
2026-01-29 23:19:47.84	345.28	15.06	-49.3	-62.2	3.5	1.52e+00	0	37	104	0	60	45437
2026-01-29 23:19:48.85	345.21	14.96	-49.3	-62.3	3.5	1.52e+00	0	37	104	0	60	45552
2026-01-29 23:19:49.86	345.13	14.86	-49.3	-62.3	3.5	1.52e+00	0	37	104	0	60	45523
2026-01-29 23:19:50.87	345.06	14.76	-49.3	-62.3	3.5	1.52e+00	0	37	104	0	60	45572
2026-01-29 23:19:51.88	344.98	14.66	-49.3	-62.3	3.5	1.52e+00	0	37	104	0	60	45703
2026-01-29 23:19:52.89	344.91	14.56	-49.3	-62.3	3.5	1.52e+00	0	37	104	0	60	45569
2026-01-29 23:19:53.90	344.83	14.46	-49.3	-62.3	3.5	1.51e+00	0	37	104	0	60	45480
2026-01-29 23:19:54.91	344.76	14.37	-49.3	-62.2	3.5	1.52e+00	0	37	104	0	60	45449
2026-01-29 23:19:55.92	344.69	14.27	-49.3	-62.2	3.5	1.52e+00	0	37	104	0	60	45300
2026-01-29 23:19:56.92	344.62	14.17	-49.3	-62.3	3.5	1.52e+00	0	37	104	0	60	45751
2026-01-29 23:19:57.93	344.54	14.07	-49.3	-62.3	3.5	1.52e+00	0	37	104	0	60	45574
2026-01-29 23:19:58.94	344.47	13.98	-49.3	-62.3	3.5	1.52e+00	0	37	104	0	60	45497
2026-01-29 23:19:59.95	344.40	13.88	-49.3	-62.2	3.5	1.52e+00	0	37	104	0	60	45473
2026-01-29 23:20:00.96	344.33	13.79	-49.3	-62.2	3.5	1.52e+00	0	37	104	0	60	45295
2026-01-29 23:20:01.97	344.26	13.69	-49.3	-62.3	3.5	1.52e+00	0	37	104	0	60	45737
2026-01-29 23:20:02.98	344.19	13.59	-49.3	-62.3	3.5	1.52e+00	0	37	104	0	60	45598
2026-01-29 23:20:03.99	344.12	13.50	-49.3	-62.2	3.5	1.51e+00	0	37	104	0	60	45073
2026-01-29 23:20:05.00	344.06	13.40	-49.3	-62.2	3.5	1.52e+00	0	37	104	0	60	45241
2026-01-29 23:20:06.01	343.99	13.31	-49.3	-62.2	3.5	1.52e+00	0	37	104	0	60	45241
2026-01-29 23:20:07.02	343.92	13.22	-49.3	-62.2	3.5	1.51e+00	0	37	104	0	60	45395
2026-01-29 23:20:08.03	343.85	13.12	-49.3	-62.3	3.5	1.52e+00	0	37	104	0	60	45593
2026-01-29 23:20:09.04	343.79	13.03	-49.3	-62.2	3.5	1.52e+00	0	37	104	0	60	45287
2026-01-29 23:20:10.05	343.72	12.94	-49.3	-62.3	3.5	1.52e+00	0	37	104	0	60	45482
2026-01-29 23:20:11.06	343.65	12.84	-49.3	-62.2	3.5	1.52e+00	0	37	104	0	60	45368
