passes_logs/2026/01/29/R4.6S_Anadyr/R4.6S_Anadyr__20260129_004058_KOSAR1-5_rec.log

#Pass ID: 20260129_004058_KOSAR1-5
#Satellite: KOSAR1-5
#Configuration: KOSAR1-5
#almurnet v.1.7.20251203
#Start time: 2026-01-29 00:41:02

#Version: 2.2.20231116
#Station: R4.6S_Anadyr
#Location: 177.4865 lon 64.73178 lat
#TLE: 1 67264U 25313S   26027.76143924  .00010916  00000+0  50329-3 0  9990
#TLE: 2 67264  97.4176 104.7207 0016474 138.6036 221.6451 15.20309833  4594

#Time	Az	El	Level	Level2	SNR	BER	BlckErr	Temp	State	Recorded	gain1	gain2
2026-01-29 00:41:02.29	16.59	0.22	-46.0	-59.2	3.3	1.54e+00	0	30	0	0	60	37147
2026-01-29 00:41:03.30	16.55	0.28	-45.5	-60.3	3.6	1.51e+00	0	30	104	0	60	41932
2026-01-29 00:41:04.30	16.50	0.34	-45.5	-60.2	3.6	1.51e+00	0	30	104	0	60	41399
2026-01-29 00:41:05.31	16.46	0.41	-45.5	-60.2	3.6	1.51e+00	0	30	104	0	60	41715
2026-01-29 00:41:06.32	16.41	0.47	-45.5	-60.3	3.6	1.51e+00	0	30	104	0	60	41763
2026-01-29 00:41:07.33	16.37	0.53	-45.6	-60.3	3.6	1.51e+00	0	30	104	0	60	41747
2026-01-29 00:41:08.34	16.32	0.60	-45.5	-60.3	3.6	1.51e+00	0	30	104	0	60	41840
2026-01-29 00:41:09.35	16.28	0.66	-45.6	-60.3	3.6	1.51e+00	0	30	104	0	60	41842
2026-01-29 00:41:10.36	16.23	0.72	-44.5	-60.3	3.6	1.51e+00	0	30	104	0	60	41745
2026-01-29 00:41:11.37	16.18	0.79	-45.6	-60.3	3.6	1.51e+00	0	30	104	0	60	41786
2026-01-29 00:41:12.38	16.14	0.85	-45.5	-60.3	3.6	1.51e+00	0	30	104	0	60	41745
2026-01-29 00:41:13.39	16.09	0.92	-45.5	-60.2	3.6	1.51e+00	0	30	104	0	60	41621
2026-01-29 00:41:14.40	16.04	0.98	-45.5	-60.2	3.6	1.51e+00	0	30	104	0	60	41430
2026-01-29 00:41:15.41	15.99	1.04	-45.4	-60.2	3.6	1.51e+00	0	30	104	0	60	41304
2026-01-29 00:41:16.42	15.95	1.11	-45.5	-60.2	3.6	1.51e+00	0	30	104	0	60	41382
2026-01-29 00:41:17.43	15.90	1.17	-45.3	-60.0	3.6	1.51e+00	0	31	104	0	60	40626
2026-01-29 00:41:18.44	15.85	1.24	-45.1	-59.9	3.6	1.51e+00	0	31	104	0	60	40095
2026-01-29 00:41:19.45	15.80	1.30	-45.0	-59.7	3.6	1.51e+00	0	31	104	0	60	39085
2026-01-29 00:41:20.46	15.75	1.37	-44.8	-59.5	3.6	1.51e+00	0	31	104	0	60	38174
2026-01-29 00:41:21.47	15.70	1.44	-44.6	-59.3	3.6	1.51e+00	0	31	104	0	60	37472
2026-01-29 00:41:22.48	15.65	1.50	-44.4	-59.1	3.6	1.51e+00	0	31	104	0	60	36682
2026-01-29 00:41:23.49	15.60	1.57	-44.3	-59.1	3.6	1.51e+00	0	31	104	0	60	36369
2026-01-29 00:41:24.50	15.55	1.63	-44.3	-59.1	3.6	1.51e+00	0	31	104	0	60	36374
2026-01-29 00:41:25.51	15.50	1.70	-44.3	-59.0	3.6	1.51e+00	0	31	104	0	60	36221
2026-01-29 00:41:26.52	15.45	1.77	-44.3	-59.0	3.6	1.51e+00	0	31	104	0	60	36186
2026-01-29 00:41:27.53	15.40	1.83	-44.3	-59.0	3.6	1.51e+00	0	31	104	0	60	36087
2026-01-29 00:41:28.54	15.34	1.90	-44.3	-59.0	3.6	1.51e+00	0	31	104	0	60	36063
2026-01-29 00:41:29.55	15.29	1.97	-44.3	-59.0	3.6	1.51e+00	0	31	104	0	60	35955
2026-01-29 00:41:30.56	15.24	2.04	-44.3	-59.0	3.6	1.51e+00	0	31	104	0	60	36129
2026-01-29 00:41:31.57	15.19	2.10	-44.3	-59.0	3.6	1.51e+00	0	31	104	0	60	36202
2026-01-29 00:41:32.58	15.13	2.17	-44.3	-59.0	3.6	1.51e+00	0	31	104	0	60	35994
2026-01-29 00:41:33.59	15.08	2.24	-44.3	-58.9	3.6	1.51e+00	0	31	104	0	60	35935
2026-01-29 00:41:34.60	15.03	2.31	-44.3	-59.0	3.6	1.51e+00	0	31	104	0	60	36033
2026-01-29 00:41:35.61	14.97	2.38	-44.3	-59.0	3.6	1.51e+00	0	31	104	0	60	36155
2026-01-29 00:41:36.62	14.92	2.44	-44.3	-59.0	3.6	1.51e+00	0	31	104	0	60	35975
2026-01-29 00:41:37.63	14.86	2.51	-44.3	-59.0	3.6	1.51e+00	0	31	104	0	60	35966
2026-01-29 00:41:38.64	14.81	2.58	-44.3	-59.0	3.6	1.51e+00	0	31	104	0	60	36121
2026-01-29 00:41:39.65	14.75	2.65	-44.3	-58.9	3.6	1.51e+00	0	31	104	0	60	35924
2026-01-29 00:41:40.66	14.70	2.72	-44.3	-59.0	3.6	1.51e+00	0	31	104	0	60	36137
2026-01-29 00:41:41.67	14.64	2.79	-44.3	-59.0	3.6	1.51e+00	0	31	104	0	60	36083
2026-01-29 00:41:42.68	14.58	2.86	-44.3	-59.0	3.6	1.51e+00	0	31	104	0	60	36124
2026-01-29 00:41:43.69	14.53	2.93	-44.3	-59.0	3.6	1.51e+00	0	31	104	0	60	36126
2026-01-29 00:41:44.70	14.47	3.00	-44.3	-59.0	3.6	1.51e+00	0	31	104	0	60	35991
2026-01-29 00:41:45.71	14.41	3.07	-44.3	-59.0	3.6	1.51e+00	0	31	104	0	60	36073
2026-01-29 00:41:46.72	14.35	3.14	-44.3	-59.0	3.6	1.51e+00	0	31	104	0	60	36204
2026-01-29 00:41:47.73	14.29	3.21	-44.3	-59.0	3.6	1.51e+00	0	31	104	0	60	35983
2026-01-29 00:41:48.74	14.23	3.28	-44.3	-59.0	3.6	1.51e+00	0	31	104	0	60	36050
2026-01-29 00:41:49.75	14.18	3.35	-44.3	-59.0	3.6	1.51e+00	0	31	104	0	60	36099
2026-01-29 00:41:50.76	14.12	3.42	-44.3	-59.0	3.6	1.51e+00	0	31	104	0	60	35976
2026-01-29 00:41:51.77	14.06	3.50	-44.3	-58.9	3.6	1.51e+00	0	31	104	0	60	35849
2026-01-29 00:41:52.78	13.99	3.57	-44.3	-59.0	3.6	1.51e+00	0	31	104	0	60	36242
2026-01-29 00:41:53.79	13.93	3.64	-44.3	-58.9	3.6	1.51e+00	0	31	104	0	60	35914
2026-01-29 00:41:54.80	13.87	3.71	-44.3	-58.9	3.6	1.51e+00	0	31	104	0	60	35927
2026-01-29 00:41:55.81	13.81	3.79	-44.3	-59.0	3.6	1.51e+00	0	31	104	0	60	35977
2026-01-29 00:41:56.82	13.75	3.86	-44.3	-59.0	3.6	1.51e+00	0	31	104	0	60	36016
2026-01-29 00:41:57.83	13.69	3.93	-44.3	-59.0	3.6	1.51e+00	0	31	104	0	60	36225
2026-01-29 00:41:58.84	13.62	4.00	-44.2	-59.1	3.6	1.51e+00	0	31	104	0	60	36474
2026-01-29 00:41:59.85	13.56	4.08	-44.3	-59.1	3.6	1.51e+00	0	31	104	0	60	36440
2026-01-29 00:42:00.86	13.49	4.15	-44.5	-59.2	3.6	1.51e+00	0	31	104	0	60	37034
2026-01-29 00:42:01.87	13.43	4.23	-44.3	-59.0	3.6	1.51e+00	0	31	104	0	60	36124
2026-01-29 00:42:02.88	13.37	4.30	-44.5	-59.2	3.6	1.51e+00	0	31	104	0	60	36962
2026-01-29 00:42:03.89	13.30	4.37	-44.4	-59.1	3.6	1.51e+00	0	31	104	0	60	36466
2026-01-29 00:42:04.90	13.23	4.45	-44.4	-59.2	3.6	1.51e+00	0	31	104	0	60	37161
2026-01-29 00:42:05.91	13.17	4.52	-44.4	-59.0	3.5	1.51e+00	0	31	104	0	60	36264
2026-01-29 00:42:06.92	13.10	4.60	-44.5	-59.2	3.6	1.51e+00	0	31	104	0	60	36988
2026-01-29 00:42:07.93	13.03	4.68	-44.3	-59.1	3.6	1.51e+00	0	31	104	0	60	36490
2026-01-29 00:42:08.94	12.97	4.75	-44.5	-59.2	3.6	1.51e+00	0	31	104	0	60	37130
2026-01-29 00:42:09.95	12.90	4.83	-44.4	-59.1	3.6	1.51e+00	0	31	104	0	60	36604
2026-01-29 00:42:10.96	12.83	4.90	-44.6	-59.3	3.6	1.51e+00	0	31	104	0	60	37268
2026-01-29 00:42:11.97	12.76	4.98	-44.5	-59.2	3.6	1.51e+00	0	31	104	0	60	36843
2026-01-29 00:42:12.98	12.69	5.06	-44.6	-59.2	3.6	1.51e+00	0	31	104	0	60	37187
2026-01-29 00:42:13.99	12.62	5.13	-44.4	-59.1	3.6	1.51e+00	0	31	104	0	60	36765
2026-01-29 00:42:15.00	12.55	5.21	-44.5	-59.2	3.6	1.51e+00	0	31	104	0	60	37181
2026-01-29 00:42:16.01	12.48	5.29	-44.5	-59.2	3.6	1.51e+00	0	31	104	0	60	37107
2026-01-29 00:42:17.01	12.41	5.37	-44.7	-59.3	3.6	1.51e+00	0	31	104	0	60	37599
2026-01-29 00:42:18.02	12.34	5.44	-44.5	-59.2	3.6	1.51e+00	0	31	104	0	60	36849
2026-01-29 00:42:19.03	12.26	5.52	-44.6	-59.4	3.6	1.51e+00	0	31	104	0	60	37747
2026-01-29 00:42:20.04	12.19	5.60	-44.6	-59.3	3.6	1.51e+00	0	31	104	0	60	37292
2026-01-29 00:42:21.05	12.12	5.68	-44.6	-59.3	3.6	1.51e+00	0	31	104	0	60	37578
2026-01-29 00:42:22.06	12.04	5.76	-44.6	-59.2	3.6	1.51e+00	0	31	104	0	60	37170
2026-01-29 00:42:23.07	11.97	5.84	-44.5	-59.4	3.6	1.51e+00	0	31	104	0	60	37836
2026-01-29 00:42:24.08	11.89	5.92	-44.5	-59.3	3.6	1.51e+00	0	31	104	0	60	37208
2026-01-29 00:42:25.09	11.82	6.00	-44.6	-59.4	3.6	1.51e+00	0	31	104	0	60	37844
2026-01-29 00:42:26.10	11.74	6.08	-44.6	-59.3	3.6	1.51e+00	0	31	104	0	60	37359
2026-01-29 00:42:27.11	11.66	6.16	-44.7	-59.5	3.6	1.51e+00	0	31	104	0	60	38079
2026-01-29 00:42:28.11	11.59	6.24	-44.6	-59.3	3.6	1.51e+00	0	31	104	0	60	37490
2026-01-29 00:42:29.12	11.51	6.32	-44.8	-59.4	3.6	1.51e+00	0	31	104	0	60	38053
2026-01-29 00:42:30.13	11.43	6.40	-44.6	-59.3	3.6	1.51e+00	0	31	104	0	60	37561
2026-01-29 00:42:31.14	11.35	6.48	-44.7	-59.5	3.6	1.51e+00	0	31	104	0	60	38162
2026-01-29 00:42:32.15	11.27	6.57	-44.6	-59.4	3.6	1.51e+00	0	31	104	0	60	37721
2026-01-29 00:42:33.16	11.19	6.65	-44.7	-59.5	3.6	1.51e+00	0	31	104	0	60	38145
2026-01-29 00:42:34.17	11.11	6.73	-44.7	-59.3	3.6	1.51e+00	0	31	104	0	60	37593
2026-01-29 00:42:35.18	11.03	6.82	-44.6	-59.5	3.6	1.51e+00	0	31	104	0	60	38122
2026-01-29 00:42:36.19	10.95	6.90	-44.7	-59.4	3.6	1.51e+00	0	31	104	0	60	37954
2026-01-29 00:42:37.20	10.86	6.98	-44.6	-59.4	3.6	1.51e+00	0	31	104	0	60	37975
2026-01-29 00:42:38.21	10.78	7.07	-44.6	-59.4	3.6	1.51e+00	0	31	104	0	60	37952
2026-01-29 00:42:39.22	10.69	7.15	-44.7	-59.5	3.6	1.51e+00	0	31	104	0	60	38276
2026-01-29 00:42:40.23	10.61	7.24	-44.7	-59.4	3.6	1.51e+00	0	31	104	0	60	37987
2026-01-29 00:42:41.24	10.52	7.32	-44.8	-59.5	3.6	1.51e+00	0	31	104	0	60	38401
2026-01-29 00:42:42.25	10.44	7.41	-44.7	-59.4	3.6	1.51e+00	0	31	104	0	60	38002
2026-01-29 00:42:43.26	10.35	7.49	-44.7	-59.5	3.6	1.51e+00	0	31	104	0	60	38165
2026-01-29 00:42:44.26	10.26	7.58	-44.8	-59.5	3.6	1.51e+00	0	31	104	0	60	38156
2026-01-29 00:42:45.27	10.18	7.66	-44.8	-59.6	3.6	1.51e+00	0	31	104	0	60	38600
2026-01-29 00:42:46.28	10.09	7.75	-44.5	-59.5	3.6	1.51e+00	0	31	104	0	60	38095
2026-01-29 00:42:47.29	10.00	7.84	-44.8	-59.5	3.6	1.51e+00	0	31	104	0	60	38281
2026-01-29 00:42:48.30	9.91	7.92	-44.8	-59.6	3.6	1.51e+00	0	31	104	0	60	38534
2026-01-29 00:42:49.31	9.82	8.01	-44.9	-59.5	3.6	1.51e+00	0	31	104	0	60	38430
2026-01-29 00:42:50.32	9.72	8.10	-44.8	-59.5	3.5	1.51e+00	0	31	104	0	60	38382
2026-01-29 00:42:51.33	9.63	8.19	-44.8	-59.5	3.6	1.51e+00	0	31	104	0	60	38493
2026-01-29 00:42:52.34	9.54	8.28	-44.8	-59.5	3.6	1.51e+00	0	31	104	0	60	38336
2026-01-29 00:42:53.35	9.44	8.37	-44.8	-59.5	3.6	1.51e+00	0	31	104	0	60	38368
2026-01-29 00:42:54.36	9.35	8.46	-44.8	-59.5	3.6	1.51e+00	0	31	104	0	60	38410
2026-01-29 00:42:55.37	9.25	8.55	-44.9	-59.6	3.6	1.51e+00	0	31	104	0	60	38644
2026-01-29 00:42:56.38	9.16	8.64	-44.8	-59.5	3.6	1.51e+00	0	31	104	0	60	38458
2026-01-29 00:42:57.39	9.06	8.73	-44.7	-59.6	3.6	1.51e+00	0	31	104	0	60	38603
2026-01-29 00:42:58.40	8.96	8.82	-44.8	-59.5	3.6	1.51e+00	0	31	104	0	60	38356
2026-01-29 00:42:59.40	8.87	8.91	-44.5	-59.6	3.6	1.51e+00	0	31	104	0	60	38772
2026-01-29 00:43:00.42	8.77	9.00	-44.8	-59.6	3.6	1.51e+00	0	31	104	0	60	38634
2026-01-29 00:43:01.42	8.67	9.09	-44.8	-59.6	3.6	1.51e+00	0	31	104	0	60	38872
2026-01-29 00:43:02.43	8.57	9.18	-44.7	-59.6	3.6	1.51e+00	0	31	104	0	60	38648
2026-01-29 00:43:03.44	8.46	9.28	-44.7	-59.6	3.6	1.51e+00	0	31	104	0	60	38687
2026-01-29 00:43:04.45	8.36	9.37	-44.6	-59.6	3.6	1.51e+00	0	31	104	0	60	38724
2026-01-29 00:43:05.46	8.26	9.46	-44.7	-59.6	3.6	1.51e+00	0	31	104	0	60	38624
2026-01-29 00:43:06.47	8.15	9.56	-44.8	-59.6	3.6	1.51e+00	0	31	104	0	60	38804
2026-01-29 00:43:07.48	8.05	9.65	-44.9	-59.6	3.6	1.51e+00	0	31	104	0	60	38868
2026-01-29 00:43:08.48	7.94	9.75	-44.9	-59.6	3.6	1.51e+00	0	31	104	0	60	38693
2026-01-29 00:43:09.49	7.84	9.84	-45.0	-59.6	3.6	1.51e+00	0	31	104	0	60	38789
2026-01-29 00:43:10.50	7.73	9.94	-44.9	-59.7	3.6	1.51e+00	0	31	104	0	60	39115
2026-01-29 00:43:11.51	7.62	10.03	-44.9	-59.7	3.6	1.51e+00	0	31	104	0	60	38987
2026-01-29 00:43:12.52	7.51	10.13	-45.0	-59.6	3.6	1.51e+00	0	31	104	0	60	38930
2026-01-29 00:43:13.53	7.40	10.23	-44.9	-59.6	3.6	1.51e+00	0	31	104	0	60	38731
2026-01-29 00:43:14.54	7.29	10.33	-44.9	-59.6	3.5	1.51e+00	0	31	104	0	60	38823
2026-01-29 00:43:15.54	7.17	10.42	-45.0	-59.7	3.6	1.51e+00	0	31	104	0	60	39009
2026-01-29 00:43:16.55	7.06	10.52	-44.9	-59.7	3.6	1.51e+00	0	31	104	0	60	39042
2026-01-29 00:43:17.56	6.95	10.62	-44.9	-59.7	3.6	1.51e+00	0	31	104	0	60	38968
2026-01-29 00:43:18.57	6.83	10.72	-45.0	-59.6	3.6	1.51e+00	0	31	104	0	60	38809
2026-01-29 00:43:19.58	6.71	10.82	-45.0	-59.7	3.6	1.51e+00	0	31	104	0	60	39341
2026-01-29 00:43:20.59	6.60	10.92	-45.0	-59.7	3.6	1.51e+00	0	31	104	0	60	39079
2026-01-29 00:43:21.60	6.48	11.02	-44.9	-59.6	3.6	1.51e+00	0	31	104	0	60	38907
2026-01-29 00:43:22.61	6.36	11.12	-45.0	-59.7	3.6	1.51e+00	0	31	104	0	60	39130
2026-01-29 00:43:23.62	6.24	11.22	-44.9	-59.7	3.6	1.51e+00	0	31	104	0	60	39057
2026-01-29 00:43:24.63	6.12	11.32	-45.0	-59.7	3.6	1.51e+00	0	31	104	0	60	39195
2026-01-29 00:43:25.64	5.99	11.42	-44.8	-59.7	3.6	1.51e+00	0	31	104	0	60	39060
2026-01-29 00:43:26.65	5.87	11.53	-44.9	-59.7	3.6	1.51e+00	0	31	104	0	60	38974
2026-01-29 00:43:27.66	5.75	11.63	-45.0	-59.7	3.6	1.51e+00	0	31	104	0	60	39096
2026-01-29 00:43:28.67	5.62	11.73	-45.0	-59.7	3.6	1.51e+00	0	31	104	0	60	39297
2026-01-29 00:43:29.68	5.49	11.84	-44.9	-59.7	3.6	1.51e+00	0	31	104	0	60	39159
2026-01-29 00:43:30.69	5.36	11.94	-45.0	-59.8	3.6	1.51e+00	0	31	104	0	60	39512
2026-01-29 00:43:31.69	5.24	12.05	-44.9	-59.8	3.6	1.51e+00	0	31	104	0	60	39516
2026-01-29 00:43:32.70	5.10	12.15	-45.0	-59.7	3.6	1.51e+00	0	31	104	0	60	39285
2026-01-29 00:43:33.71	4.97	12.26	-45.0	-59.7	3.6	1.51e+00	0	31	104	0	60	39217
2026-01-29 00:43:34.72	4.84	12.36	-45.0	-59.7	3.5	1.51e+00	0	31	104	0	60	39366
2026-01-29 00:43:35.73	4.71	12.47	-45.0	-59.7	3.6	1.51e+00	0	31	104	0	60	39370
2026-01-29 00:43:36.74	4.57	12.58	-45.1	-59.8	3.6	1.51e+00	0	31	104	0	60	39584
2026-01-29 00:43:37.75	4.43	12.69	-45.0	-59.7	3.5	1.51e+00	0	31	104	0	60	39276
2026-01-29 00:43:38.76	4.30	12.80	-45.1	-59.7	3.6	1.51e+00	0	31	104	0	60	39305
2026-01-29 00:43:39.77	4.16	12.90	-45.0	-59.7	3.6	1.51e+00	0	31	104	0	60	39276
2026-01-29 00:43:40.78	4.02	13.01	-45.1	-59.8	3.6	1.51e+00	0	31	104	0	60	39564
2026-01-29 00:43:41.79	3.87	13.12	-45.0	-59.7	3.6	1.51e+00	0	31	104	0	60	39151
2026-01-29 00:43:42.80	3.73	13.23	-45.1	-59.8	3.6	1.51e+00	0	31	104	0	60	39591
2026-01-29 00:43:43.81	3.59	13.34	-45.1	-59.8	3.6	1.51e+00	0	31	104	0	60	39488
2026-01-29 00:43:44.82	3.44	13.46	-45.1	-59.8	3.6	1.51e+00	0	31	104	0	60	39485
2026-01-29 00:43:45.83	3.29	13.57	-45.1	-59.7	3.5	1.51e+00	0	31	104	0	60	39372
2026-01-29 00:43:46.83	3.15	13.68	-45.1	-59.8	3.6	1.51e+00	0	31	104	0	60	39621
2026-01-29 00:43:47.84	3.00	13.79	-45.0	-59.8	3.6	1.51e+00	0	31	104	0	60	39497
2026-01-29 00:43:48.85	2.85	13.91	-45.1	-59.8	3.6	1.51e+00	0	31	104	0	60	39781
2026-01-29 00:43:49.86	2.69	14.02	-45.1	-59.8	3.6	1.51e+00	0	31	104	0	60	39485
2026-01-29 00:43:50.87	2.54	14.13	-45.2	-59.9	3.6	1.51e+00	0	31	104	0	60	40282
2026-01-29 00:43:51.88	2.38	14.25	-45.2	-59.9	3.6	1.51e+00	0	32	104	0	60	39921
2026-01-29 00:43:52.89	2.23	14.37	-45.2	-59.9	3.6	1.51e+00	0	31	104	0	60	40237
2026-01-29 00:43:53.90	2.07	14.48	-45.2	-59.8	3.6	1.51e+00	0	31	104	0	60	39858
2026-01-29 00:43:54.91	1.91	14.60	-45.2	-60.0	3.6	1.51e+00	0	32	104	0	60	40375
2026-01-29 00:43:55.92	1.74	14.72	-45.3	-60.0	3.6	1.51e+00	0	31	104	0	60	40561
2026-01-29 00:43:56.93	1.58	14.83	-45.1	-59.9	3.6	1.51e+00	0	31	104	0	60	40252
2026-01-29 00:43:57.94	1.42	14.95	-45.0	-59.8	3.6	1.51e+00	0	31	104	0	60	39760
2026-01-29 00:43:58.95	1.25	15.07	-45.1	-59.8	3.6	1.51e+00	0	32	104	0	60	39812
2026-01-29 00:43:59.96	1.08	15.19	-45.1	-59.8	3.6	1.51e+00	0	31	104	0	60	39862
2026-01-29 00:44:00.97	0.91	15.31	-45.1	-59.9	3.6	1.51e+00	0	32	104	0	60	40162
2026-01-29 00:44:01.98	0.74	15.43	-45.1	-59.8	3.6	1.51e+00	0	32	104	0	60	39697
2026-01-29 00:44:02.99	0.57	15.55	-45.1	-59.8	3.6	1.51e+00	0	31	104	0	60	39817
2026-01-29 00:44:04.00	0.39	15.67	-45.1	-59.8	3.5	1.51e+00	0	31	104	0	60	39720
2026-01-29 00:44:05.01	0.22	15.80	-45.2	-59.8	3.6	1.51e+00	0	31	104	0	60	39846
2026-01-29 00:44:06.02	0.04	15.92	-45.1	-59.8	3.6	1.51e+00	0	31	104	0	60	39643
2026-01-29 00:44:07.02	359.86	16.04	-45.0	-59.8	3.6	1.51e+00	0	32	104	0	60	39611
2026-01-29 00:44:08.03	359.68	16.16	-45.1	-59.8	3.6	1.51e+00	0	31	104	0	60	39642
2026-01-29 00:44:09.04	359.49	16.29	-45.1	-59.8	3.6	1.51e+00	0	31	104	0	60	39724
2026-01-29 00:44:10.05	359.31	16.41	-45.1	-59.9	3.6	1.51e+00	0	31	104	0	60	39987
2026-01-29 00:44:11.06	359.12	16.54	-45.1	-59.9	3.6	1.51e+00	0	31	104	0	60	39959
2026-01-29 00:44:12.07	358.93	16.67	-45.1	-59.8	3.6	1.51e+00	0	31	104	0	60	39746
2026-01-29 00:44:13.08	358.74	16.79	-45.2	-59.9	3.6	1.51e+00	0	32	104	0	60	39928
2026-01-29 00:44:14.09	358.55	16.92	-45.1	-59.8	3.6	1.51e+00	0	31	104	0	60	39862
2026-01-29 00:44:15.10	358.35	17.05	-45.1	-59.9	3.6	1.51e+00	0	31	104	0	60	39899
2026-01-29 00:44:16.11	358.15	17.18	-45.1	-59.9	3.6	1.51e+00	0	31	104	0	60	39974
2026-01-29 00:44:17.12	357.96	17.30	-45.1	-59.8	3.6	1.51e+00	0	31	104	0	60	39746
2026-01-29 00:44:18.13	357.75	17.43	-45.1	-59.8	3.6	1.51e+00	0	31	104	0	60	39806
2026-01-29 00:44:19.14	357.55	17.56	-45.1	-59.9	3.6	1.51e+00	0	32	104	0	60	39951
2026-01-29 00:44:20.15	357.35	17.70	-45.2	-59.9	3.6	1.51e+00	0	32	104	0	60	39922
2026-01-29 00:44:21.16	357.14	17.83	-45.1	-59.9	3.6	1.51e+00	0	31	104	0	60	39939
2026-01-29 00:44:22.17	356.93	17.96	-45.1	-59.9	3.6	1.51e+00	0	32	104	0	60	40073
2026-01-29 00:44:23.18	356.72	18.09	-45.2	-59.9	3.6	1.51e+00	0	31	104	0	60	39936
2026-01-29 00:44:24.19	356.50	18.22	-45.2	-59.9	3.6	1.51e+00	0	32	104	0	60	40045
2026-01-29 00:44:25.20	356.29	18.36	-45.2	-59.9	3.6	1.51e+00	0	32	104	0	60	40272
2026-01-29 00:44:26.21	356.07	18.49	-45.2	-59.9	3.6	1.51e+00	0	31	104	0	60	40115
2026-01-29 00:44:27.22	355.85	18.63	-45.2	-59.9	3.6	1.51e+00	0	32	104	0	60	39934
2026-01-29 00:44:28.22	355.63	18.76	-45.2	-59.9	3.6	1.51e+00	0	32	104	0	60	39949
2026-01-29 00:44:29.23	355.40	18.89	-45.2	-59.9	3.6	1.51e+00	0	32	104	0	60	40126
2026-01-29 00:44:30.24	355.17	19.03	-45.2	-59.9	3.6	1.51e+00	0	32	104	0	60	40115
2026-01-29 00:44:31.25	354.94	19.17	-45.2	-59.9	3.6	1.51e+00	0	32	104	0	60	40114
2026-01-29 00:44:32.26	354.71	19.30	-45.2	-59.9	3.6	1.51e+00	0	31	104	0	60	40057
2026-01-29 00:44:33.27	354.47	19.44	-45.2	-59.9	3.5	1.51e+00	0	31	104	0	60	40176
2026-01-29 00:44:34.28	354.24	19.58	-45.3	-59.9	3.6	1.51e+00	0	32	104	0	60	40220
2026-01-29 00:44:35.29	354.00	19.72	-45.2	-59.9	3.6	1.51e+00	0	31	104	0	60	40139
2026-01-29 00:44:36.30	353.75	19.86	-45.2	-59.9	3.6	1.51e+00	0	32	104	0	60	40162
2026-01-29 00:44:37.31	353.51	20.00	-45.3	-60.0	3.6	1.51e+00	0	31	104	0	60	40476
2026-01-29 00:44:38.32	353.26	20.14	-45.3	-60.0	3.6	1.51e+00	0	32	104	0	60	40531
2026-01-29 00:44:39.33	353.01	20.28	-45.3	-60.1	3.6	1.51e+00	0	32	104	0	60	40869
2026-01-29 00:44:40.34	352.76	20.42	-45.3	-60.1	3.6	1.51e+00	0	32	104	0	60	40810
2026-01-29 00:44:41.35	352.50	20.56	-45.4	-60.1	3.6	1.51e+00	0	32	104	0	60	40834
2026-01-29 00:44:42.36	352.24	20.71	-45.3	-60.1	3.6	1.51e+00	0	32	104	0	60	40969
2026-01-29 00:44:43.37	351.98	20.85	-45.5	-60.2	3.6	1.51e+00	0	32	104	0	60	41661
2026-01-29 00:44:44.38	351.71	20.99	-45.3	-60.1	3.6	1.51e+00	0	32	104	0	60	40883
2026-01-29 00:44:45.38	351.45	21.13	-45.5	-60.2	3.6	1.51e+00	0	32	104	0	60	41504
2026-01-29 00:44:46.39	351.18	21.28	-45.5	-60.2	3.6	1.51e+00	0	32	104	0	60	41608
2026-01-29 00:44:47.40	350.91	21.42	-45.4	-60.1	3.6	1.51e+00	0	32	104	0	60	41159
2026-01-29 00:44:48.42	350.63	21.57	-45.3	-60.1	3.6	1.51e+00	0	31	104	0	60	40831
2026-01-29 00:44:49.42	350.35	21.71	-45.3	-60.2	3.6	1.51e+00	0	31	104	0	60	41275
2026-01-29 00:44:50.43	350.07	21.86	-45.4	-60.1	3.6	1.51e+00	0	31	104	0	60	41123
2026-01-29 00:44:51.44	349.78	22.00	-45.4	-60.1	3.6	1.51e+00	0	32	104	0	60	41085
2026-01-29 00:44:52.45	349.50	22.15	-45.4	-60.1	3.6	1.51e+00	0	32	104	0	60	41068
2026-01-29 00:44:53.46	349.21	22.30	-45.3	-60.1	3.6	1.51e+00	0	31	104	0	60	41212
2026-01-29 00:44:54.47	348.91	22.44	-45.4	-60.1	3.6	1.51e+00	0	32	104	0	60	40824
2026-01-29 00:44:55.48	348.61	22.59	-45.4	-60.1	3.6	1.51e+00	0	32	104	0	60	40970
2026-01-29 00:44:56.49	348.31	22.74	-45.3	-60.1	3.6	1.51e+00	0	31	104	0	60	40891
2026-01-29 00:44:57.50	348.01	22.89	-45.4	-60.1	3.6	1.51e+00	0	32	104	0	60	41238
2026-01-29 00:44:58.51	347.70	23.03	-45.3	-60.1	3.6	1.51e+00	0	32	104	0	60	41215
2026-01-29 00:44:59.52	347.39	23.18	-45.3	-60.1	3.6	1.51e+00	0	31	104	0	60	41143
2026-01-29 00:45:00.53	347.07	23.33	-45.3	-60.1	3.6	1.51e+00	0	32	104	0	60	40916
2026-01-29 00:45:01.54	346.76	23.48	-45.4	-60.1	3.6	1.51e+00	0	31	104	0	60	41075
2026-01-29 00:45:02.55	346.44	23.63	-45.3	-60.1	3.6	1.51e+00	0	32	104	0	60	41115
2026-01-29 00:45:03.56	346.11	23.78	-45.4	-60.1	3.6	1.51e+00	0	31	104	0	60	41109
2026-01-29 00:45:04.57	345.78	23.93	-45.4	-60.1	3.6	1.51e+00	0	32	104	0	60	40955
2026-01-29 00:45:05.58	345.45	24.08	-45.4	-60.1	3.6	1.51e+00	0	31	104	0	60	41090
2026-01-29 00:45:06.59	345.11	24.23	-45.4	-60.1	3.5	1.51e+00	0	32	104	0	60	40979
2026-01-29 00:45:07.59	344.78	24.38	-45.4	-60.1	3.6	1.51e+00	0	31	104	0	60	40962
2026-01-29 00:45:08.60	344.44	24.53	-45.4	-60.1	3.6	1.51e+00	0	32	104	0	60	41184
2026-01-29 00:45:09.61	344.09	24.68	-45.4	-60.1	3.6	1.51e+00	0	32	104	0	60	40955
2026-01-29 00:45:10.62	343.74	24.83	-45.3	-60.0	3.6	1.51e+00	0	31	104	0	60	40774
2026-01-29 00:45:11.63	343.39	24.98	-45.3	-60.1	3.6	1.51e+00	0	32	104	0	60	41046
2026-01-29 00:45:12.64	343.03	25.13	-45.3	-60.1	3.6	1.51e+00	0	31	104	0	60	40970
2026-01-29 00:45:13.65	342.67	25.28	-45.4	-60.1	3.6	1.51e+00	0	32	104	0	60	41035
2026-01-29 00:45:14.66	342.30	25.42	-45.4	-60.1	3.6	1.51e+00	0	31	104	0	60	40915
2026-01-29 00:45:15.67	341.93	25.57	-45.4	-60.1	3.6	1.51e+00	0	31	104	0	60	40952
2026-01-29 00:45:16.68	341.56	25.72	-45.3	-60.1	3.6	1.51e+00	0	31	104	0	60	40832
2026-01-29 00:45:17.69	341.18	25.87	-45.3	-60.1	3.6	1.51e+00	0	32	104	0	60	41081
2026-01-29 00:45:18.70	340.80	26.02	-45.3	-60.1	3.6	1.51e+00	0	31	104	0	60	41050
2026-01-29 00:45:19.70	340.42	26.17	-45.4	-60.1	3.6	1.51e+00	0	31	104	0	60	41059
2026-01-29 00:45:20.71	340.03	26.32	-45.4	-60.1	3.6	1.51e+00	0	32	104	0	60	41072
2026-01-29 00:45:21.72	339.64	26.46	-45.4	-60.1	3.6	1.51e+00	0	31	104	0	60	41031
2026-01-29 00:45:22.73	339.24	26.61	-45.3	-60.1	3.5	1.51e+00	0	31	104	0	60	40930
2026-01-29 00:45:23.74	338.84	26.76	-45.4	-60.1	3.6	1.51e+00	0	32	104	0	60	41130
2026-01-29 00:45:24.75	338.43	26.91	-45.3	-60.1	3.5	1.51e+00	0	31	104	0	60	40916
2026-01-29 00:45:25.76	338.02	27.05	-45.4	-60.1	3.6	1.51e+00	0	32	104	0	60	41197
2026-01-29 00:45:26.77	337.61	27.20	-45.4	-60.1	3.6	1.51e+00	0	32	104	0	60	41140
2026-01-29 00:45:27.77	337.19	27.34	-45.4	-60.1	3.6	1.51e+00	0	31	104	0	60	40831
2026-01-29 00:45:28.78	336.77	27.48	-45.4	-60.1	3.6	1.51e+00	0	32	104	0	60	40952
2026-01-29 00:45:29.79	336.34	27.63	-45.4	-60.1	3.6	1.51e+00	0	32	104	0	60	41193
2026-01-29 00:45:30.80	335.91	27.77	-45.4	-60.1	3.6	1.51e+00	0	32	104	0	60	41017
2026-01-29 00:45:31.81	335.48	27.91	-45.4	-60.1	3.6	1.51e+00	0	32	104	0	60	41134
2026-01-29 00:45:32.82	335.04	28.05	-45.3	-60.1	3.6	1.51e+00	0	32	104	0	60	40986
2026-01-29 00:45:33.82	334.60	28.19	-45.3	-60.1	3.6	1.51e+00	0	32	104	0	60	40919
2026-01-29 00:45:34.83	334.15	28.33	-45.3	-60.1	3.6	1.51e+00	0	32	104	0	60	41104
2026-01-29 00:45:35.84	333.70	28.47	-45.2	-60.1	3.6	1.51e+00	0	32	104	0	60	41019
2026-01-29 00:45:36.85	333.24	28.61	-45.4	-60.1	3.6	1.51e+00	0	32	104	0	60	41026
2026-01-29 00:45:37.86	332.78	28.74	-45.2	-60.2	3.6	1.51e+00	0	31	104	0	60	41420
2026-01-29 00:45:38.87	332.31	28.88	-45.3	-60.2	3.6	1.51e+00	0	32	104	0	60	41440
2026-01-29 00:45:39.88	331.84	29.01	-45.4	-60.2	3.6	1.51e+00	0	32	104	0	60	41293
2026-01-29 00:45:40.89	331.37	29.15	-45.3	-60.1	3.6	1.51e+00	0	32	104	0	60	41224
2026-01-29 00:45:41.90	330.89	29.28	-45.3	-60.2	3.6	1.51e+00	0	32	104	0	60	41411
2026-01-29 00:45:42.91	330.41	29.41	-45.1	-60.1	3.6	1.51e+00	0	32	104	0	60	41235
2026-01-29 00:45:43.92	329.92	29.54	-45.1	-60.2	3.6	1.51e+00	0	32	104	0	60	41277
2026-01-29 00:45:44.93	329.43	29.66	-45.0	-60.1	3.6	1.51e+00	0	32	104	0	60	41101
2026-01-29 00:45:45.94	328.94	29.79	-45.3	-60.2	3.6	1.51e+00	0	31	104	0	60	41506
2026-01-29 00:45:46.95	328.44	29.91	-45.0	-60.2	3.6	1.51e+00	0	32	104	0	60	41572
2026-01-29 00:45:47.96	327.93	30.04	-45.4	-60.2	3.6	1.51e+00	0	32	104	0	60	41601
2026-01-29 00:45:48.97	327.42	30.16	-45.1	-60.2	3.6	1.51e+00	0	32	104	0	60	41707
2026-01-29 00:45:49.98	326.91	30.28	-45.5	-60.2	3.6	1.51e+00	0	31	104	0	60	41589
2026-01-29 00:45:50.98	326.40	30.39	-45.3	-60.2	3.5	1.51e+00	0	32	104	0	60	41281
2026-01-29 00:45:51.99	325.88	30.51	-45.5	-60.2	3.6	1.51e+00	0	32	104	0	60	41302
2026-01-29 00:45:53.00	325.36	30.62	-45.3	-60.1	3.6	1.51e+00	0	31	104	0	60	41236
2026-01-29 00:45:54.01	324.83	30.73	-45.3	-60.2	3.6	1.51e+00	0	31	104	0	60	41456
2026-01-29 00:45:55.02	324.29	30.84	-45.5	-60.2	3.6	1.51e+00	0	32	104	0	60	41593
2026-01-29 00:45:56.02	323.76	30.95	-45.3	-60.2	3.6	1.51e+00	0	32	104	0	60	41691
2026-01-29 00:45:57.04	323.22	31.05	-45.5	-60.1	3.6	1.51e+00	0	32	104	0	60	41230
2026-01-29 00:45:58.05	322.67	31.15	-45.4	-60.2	3.6	1.51e+00	0	32	104	0	60	41671
2026-01-29 00:45:59.05	322.13	31.25	-45.3	-60.2	3.6	1.51e+00	0	32	104	0	60	41662
2026-01-29 00:46:00.06	321.58	31.35	-45.2	-60.2	3.6	1.51e+00	0	32	104	0	60	41401
2026-01-29 00:46:01.07	321.02	31.45	-45.3	-60.2	3.6	1.51e+00	0	32	104	0	60	41315
2026-01-29 00:46:02.08	320.47	31.54	-45.5	-60.3	3.6	1.51e+00	0	32	104	0	60	41877
2026-01-29 00:46:03.09	319.90	31.63	-45.4	-60.2	3.6	1.51e+00	0	32	104	0	60	41696
2026-01-29 00:46:04.10	319.34	31.72	-45.5	-60.2	3.6	1.51e+00	0	32	104	0	60	41545
2026-01-29 00:46:05.11	318.77	31.80	-45.3	-60.2	3.6	1.51e+00	0	31	104	0	60	41553
2026-01-29 00:46:06.12	318.20	31.89	-45.5	-60.2	3.6	1.51e+00	0	31	104	0	60	41631
2026-01-29 00:46:07.13	317.62	31.97	-45.5	-60.2	3.6	1.51e+00	0	32	104	0	60	41567
2026-01-29 00:46:08.14	317.04	32.04	-45.5	-60.2	3.5	1.51e+00	0	32	104	0	60	41386
2026-01-29 00:46:09.15	316.46	32.12	-45.5	-60.2	3.6	1.51e+00	0	31	104	0	60	41473
2026-01-29 00:46:10.16	315.88	32.19	-45.4	-60.3	3.6	1.51e+00	0	32	104	0	60	41749
2026-01-29 00:46:11.17	315.29	32.26	-45.2	-60.2	3.6	1.51e+00	0	32	104	0	60	41689
2026-01-29 00:46:12.18	314.70	32.32	-45.2	-60.2	3.6	1.51e+00	0	32	104	0	60	41667
2026-01-29 00:46:13.19	314.11	32.38	-45.3	-60.2	3.5	1.51e+00	0	32	104	0	60	41614
2026-01-29 00:46:14.20	313.52	32.44	-45.5	-60.4	3.6	1.51e+00	0	32	104	0	60	42319
2026-01-29 00:46:15.21	312.92	32.50	-45.6	-60.3	3.6	1.51e+00	0	32	104	0	60	41908
2026-01-29 00:46:16.22	312.32	32.55	-45.5	-60.3	3.6	1.51e+00	0	32	104	0	60	41857
2026-01-29 00:46:17.23	311.72	32.60	-45.5	-60.3	3.6	1.51e+00	0	31	104	0	60	41926
2026-01-29 00:46:18.24	311.12	32.65	-45.4	-60.3	3.6	1.51e+00	0	32	104	0	60	41975
2026-01-29 00:46:19.25	310.51	32.69	-45.2	-60.3	3.6	1.51e+00	0	31	104	0	60	42069
2026-01-29 00:46:20.26	309.91	32.73	-45.3	-60.2	3.6	1.51e+00	0	31	104	0	60	41589
2026-01-29 00:46:21.27	309.30	32.77	-45.1	-60.2	3.6	1.51e+00	0	32	104	0	60	41600
2026-01-29 00:46:22.28	308.69	32.80	-45.1	-60.3	3.6	1.51e+00	0	32	104	0	60	41842
2026-01-29 00:46:23.29	308.08	32.83	-45.3	-60.3	3.6	1.51e+00	0	31	104	0	60	41802
2026-01-29 00:46:24.30	307.47	32.85	-45.1	-60.2	3.5	1.51e+00	0	32	104	0	60	41483
2026-01-29 00:46:25.30	306.86	32.88	-45.4	-60.3	3.6	1.51e+00	0	32	104	0	60	41906
2026-01-29 00:46:26.31	306.25	32.89	-45.3	-60.3	3.6	1.51e+00	0	31	104	0	60	41848
2026-01-29 00:46:27.32	305.63	32.91	-45.3	-60.2	3.6	1.51e+00	0	32	104	0	60	41704
2026-01-29 00:46:28.34	305.01	32.92	-45.3	-60.2	3.6	1.51e+00	0	32	104	0	60	41486
2026-01-29 00:46:29.34	304.40	32.93	-45.2	-60.3	3.6	1.51e+00	0	32	104	0	60	41890
2026-01-29 00:46:30.35	303.79	32.94	-45.0	-60.3	3.6	1.51e+00	0	32	104	0	60	42124
2026-01-29 00:46:31.36	303.17	32.94	-44.9	-60.3	3.6	1.51e+00	0	32	104	0	60	41842
2026-01-29 00:46:32.37	302.56	32.94	-44.8	-60.2	3.6	1.51e+00	0	32	104	0	60	41599
2026-01-29 00:46:33.38	301.94	32.93	-44.6	-60.3	3.6	1.51e+00	0	32	104	0	60	41955
2026-01-29 00:46:34.39	301.33	32.92	-44.6	-60.3	3.6	1.51e+00	0	32	104	0	60	41995
2026-01-29 00:46:35.39	300.72	32.91	-44.5	-60.2	3.6	1.51e+00	0	32	104	0	60	41500
2026-01-29 00:46:36.40	300.10	32.89	-44.5	-60.3	3.6	1.51e+00	0	32	104	0	60	41810
2026-01-29 00:46:37.41	299.49	32.87	-44.8	-60.3	3.6	1.51e+00	0	32	104	0	60	42002
2026-01-29 00:46:38.42	298.87	32.85	-44.9	-60.3	3.6	1.51e+00	0	32	104	0	60	41866
2026-01-29 00:46:39.43	298.26	32.82	-44.8	-60.1	3.6	1.51e+00	0	32	104	0	60	41171
2026-01-29 00:46:40.44	297.65	32.79	-44.7	-60.2	3.6	1.51e+00	0	32	104	0	60	41510
2026-01-29 00:46:41.45	297.04	32.76	-45.0	-60.2	3.6	1.51e+00	0	32	104	0	60	41431
2026-01-29 00:46:42.46	296.43	32.72	-45.2	-60.2	3.6	1.51e+00	0	32	104	0	60	41517
2026-01-29 00:46:43.47	295.83	32.68	-45.2	-60.2	3.6	1.51e+00	0	32	104	0	60	41355
2026-01-29 00:46:44.48	295.22	32.64	-45.2	-60.1	3.6	1.51e+00	0	32	104	0	60	41240
2026-01-29 00:46:45.49	294.62	32.59	-45.2	-60.2	3.6	1.51e+00	0	32	104	0	60	41308
2026-01-29 00:46:46.50	294.02	32.54	-45.4	-60.2	3.6	1.51e+00	0	32	104	0	60	41529
2026-01-29 00:46:47.51	293.42	32.49	-45.3	-60.1	3.6	1.51e+00	0	32	104	0	60	41203
2026-01-29 00:46:48.52	292.82	32.43	-45.4	-60.2	3.6	1.51e+00	0	32	104	0	60	41368
2026-01-29 00:46:49.53	292.22	32.38	-45.4	-60.2	3.6	1.51e+00	0	32	104	0	60	41583
2026-01-29 00:46:50.54	291.63	32.31	-45.5	-60.2	3.6	1.51e+00	0	32	104	0	60	41719
2026-01-29 00:46:51.55	291.04	32.25	-45.4	-60.2	3.6	1.51e+00	0	32	104	0	60	41550
2026-01-29 00:46:52.56	290.45	32.18	-45.4	-60.1	3.6	1.51e+00	0	32	104	0	60	41233
2026-01-29 00:46:53.57	289.87	32.11	-45.4	-60.2	3.6	1.51e+00	0	32	104	0	60	41354
2026-01-29 00:46:54.58	289.29	32.03	-45.4	-60.2	3.6	1.51e+00	0	32	104	0	60	41404
2026-01-29 00:46:55.60	288.70	31.95	-45.4	-60.2	3.5	1.51e+00	0	32	104	0	60	41512
2026-01-29 00:46:56.60	288.13	31.87	-45.4	-60.2	3.6	1.51e+00	0	32	104	0	60	41392
2026-01-29 00:46:57.61	287.56	31.79	-45.5	-60.2	3.6	1.51e+00	0	32	104	0	60	41415
2026-01-29 00:46:58.62	286.99	31.71	-45.4	-60.2	3.6	1.51e+00	0	32	104	0	60	41383
2026-01-29 00:46:59.63	286.42	31.62	-45.4	-60.1	3.6	1.51e+00	0	32	104	0	60	41180
2026-01-29 00:47:00.64	285.86	31.53	-45.4	-60.1	3.6	1.51e+00	0	32	104	0	60	41229
2026-01-29 00:47:01.65	285.30	31.43	-45.5	-60.1	3.6	1.51e+00	0	32	104	0	60	41164
2026-01-29 00:47:02.66	284.74	31.34	-45.5	-60.2	3.6	1.51e+00	0	32	104	0	60	41492
2026-01-29 00:47:03.67	284.19	31.24	-45.5	-60.2	3.6	1.51e+00	0	32	104	0	60	41503
2026-01-29 00:47:04.68	283.64	31.14	-45.5	-60.2	3.6	1.51e+00	0	32	104	0	60	41326
2026-01-29 00:47:05.68	283.10	31.03	-45.5	-60.2	3.6	1.51e+00	0	32	104	0	60	41422
2026-01-29 00:47:06.69	282.56	30.93	-45.5	-60.1	3.6	1.51e+00	0	32	104	0	60	41225
2026-01-29 00:47:07.70	282.02	30.82	-45.4	-60.1	3.6	1.51e+00	0	32	104	0	60	41100
2026-01-29 00:47:08.71	281.49	30.71	-45.5	-60.1	3.6	1.51e+00	0	32	104	0	60	41102
2026-01-29 00:47:09.72	280.96	30.60	-45.5	-60.1	3.6	1.51e+00	0	32	104	0	60	41180
2026-01-29 00:47:10.72	280.44	30.48	-45.5	-60.2	3.6	1.51e+00	0	32	104	0	60	41593
2026-01-29 00:47:11.73	279.91	30.37	-45.4	-60.1	3.6	1.51e+00	0	32	104	0	60	41208
2026-01-29 00:47:12.74	279.40	30.25	-45.4	-60.1	3.6	1.51e+00	0	32	104	0	60	40922
2026-01-29 00:47:13.75	278.88	30.13	-45.4	-60.2	3.6	1.51e+00	0	32	104	0	60	41305
2026-01-29 00:47:14.76	278.37	30.01	-45.4	-60.1	3.6	1.51e+00	0	31	104	0	60	41031
2026-01-29 00:47:15.77	277.87	29.89	-45.4	-60.1	3.6	1.51e+00	0	32	104	0	60	41154
2026-01-29 00:47:16.78	277.37	29.76	-45.5	-60.1	3.6	1.51e+00	0	32	104	0	60	41253
2026-01-29 00:47:17.79	276.87	29.63	-45.5	-60.2	3.6	1.51e+00	0	32	104	0	60	41446
2026-01-29 00:47:18.80	276.38	29.51	-45.5	-60.1	3.6	1.51e+00	0	32	104	0	60	41184
2026-01-29 00:47:19.81	275.89	29.38	-45.4	-60.1	3.6	1.51e+00	0	32	104	0	60	40988
2026-01-29 00:47:20.82	275.40	29.25	-45.4	-60.1	3.6	1.51e+00	0	32	104	0	60	40977
2026-01-29 00:47:21.83	274.92	29.11	-45.5	-60.2	3.6	1.51e+00	0	32	104	0	60	41339
2026-01-29 00:47:22.84	274.45	28.98	-45.5	-60.2	3.6	1.51e+00	0	32	104	0	60	41341
2026-01-29 00:47:23.85	273.98	28.84	-45.5	-60.1	3.6	1.51e+00	0	31	104	0	60	41156
2026-01-29 00:47:24.86	273.51	28.71	-45.4	-60.1	3.6	1.51e+00	0	32	104	0	60	41158
2026-01-29 00:47:25.87	273.05	28.57	-45.5	-60.2	3.6	1.51e+00	0	32	104	0	60	41295
2026-01-29 00:47:26.88	272.59	28.43	-45.4	-60.1	3.6	1.51e+00	0	32	104	0	60	40981
2026-01-29 00:47:27.88	272.14	28.29	-45.4	-60.1	3.6	1.51e+00	0	32	104	0	60	41035
2026-01-29 00:47:28.89	271.69	28.15	-45.4	-60.1	3.6	1.51e+00	0	32	104	0	60	41117
2026-01-29 00:47:29.90	271.24	28.01	-45.5	-60.1	3.6	1.51e+00	0	32	104	0	60	41194
2026-01-29 00:47:30.91	270.80	27.87	-45.4	-60.1	3.6	1.51e+00	0	32	104	0	60	40912
2026-01-29 00:47:31.92	270.36	27.73	-45.4	-60.1	3.6	1.51e+00	0	32	104	0	60	41041
2026-01-29 00:47:32.93	269.93	27.58	-45.4	-60.1	3.6	1.51e+00	0	31	104	0	60	41109
2026-01-29 00:47:33.94	269.50	27.44	-45.4	-60.2	3.6	1.51e+00	0	32	104	0	60	41304
2026-01-29 00:47:34.95	269.08	27.29	-45.4	-60.1	3.6	1.51e+00	0	32	104	0	60	40893
2026-01-29 00:47:35.96	268.66	27.15	-45.4	-60.1	3.6	1.51e+00	0	31	104	0	60	40811
2026-01-29 00:47:36.97	268.24	27.00	-45.4	-60.1	3.6	1.51e+00	0	32	104	0	60	41007
2026-01-29 00:47:37.98	267.83	26.85	-45.4	-60.1	3.6	1.51e+00	0	31	104	0	60	41074
2026-01-29 00:47:38.99	267.43	26.71	-45.4	-60.1	3.6	1.51e+00	0	32	104	0	60	40960
2026-01-29 00:47:40.00	267.02	26.56	-45.4	-60.1	3.6	1.51e+00	0	32	104	0	60	40811
2026-01-29 00:47:41.01	266.62	26.41	-45.4	-60.1	3.6	1.51e+00	0	32	104	0	60	40890
2026-01-29 00:47:42.02	266.23	26.26	-45.4	-60.1	3.6	1.51e+00	0	32	104	0	60	41172
2026-01-29 00:47:43.02	265.84	26.11	-45.4	-60.0	3.6	1.51e+00	0	32	104	0	60	40764
2026-01-29 00:47:44.03	265.45	25.96	-45.4	-60.0	3.6	1.51e+00	0	32	104	0	60	40626
2026-01-29 00:47:45.04	265.07	25.81	-45.4	-60.1	3.6	1.51e+00	0	32	104	0	60	40871
2026-01-29 00:47:46.05	264.69	25.66	-45.4	-60.1	3.6	1.51e+00	0	32	104	0	60	41019
2026-01-29 00:47:47.06	264.32	25.51	-45.4	-60.0	3.6	1.51e+00	0	32	104	0	60	40777
2026-01-29 00:47:48.07	263.95	25.36	-45.4	-60.0	3.6	1.51e+00	0	32	104	0	60	40773
2026-01-29 00:47:49.08	263.58	25.21	-45.3	-60.0	3.6	1.51e+00	0	32	104	0	60	40780
2026-01-29 00:47:50.09	263.22	25.06	-45.4	-60.1	3.6	1.51e+00	0	32	104	0	60	40963
2026-01-29 00:47:51.10	262.86	24.91	-45.4	-60.1	3.6	1.51e+00	0	32	104	0	60	40850
2026-01-29 00:47:52.11	262.50	24.76	-45.4	-60.1	3.6	1.51e+00	0	32	104	0	60	40924
2026-01-29 00:47:53.12	262.15	24.61	-45.4	-60.1	3.6	1.51e+00	0	31	104	0	60	40813
2026-01-29 00:47:54.12	261.81	24.46	-45.4	-60.0	3.6	1.51e+00	0	32	104	0	60	40789
2026-01-29 00:47:55.13	261.46	24.31	-45.4	-60.1	3.6	1.51e+00	0	32	104	0	60	40819
2026-01-29 00:47:56.14	261.12	24.16	-45.3	-60.0	3.6	1.51e+00	0	32	104	0	60	40451
2026-01-29 00:47:57.14	260.79	24.01	-45.3	-60.0	3.6	1.51e+00	0	32	104	0	60	40740
2026-01-29 00:47:58.15	260.45	23.86	-45.4	-60.0	3.6	1.51e+00	0	32	104	0	60	40531
2026-01-29 00:47:59.16	260.13	23.71	-45.3	-60.0	3.6	1.51e+00	0	32	104	0	60	40567
2026-01-29 00:48:00.17	259.80	23.56	-45.3	-60.0	3.6	1.51e+00	0	32	104	0	60	40468
2026-01-29 00:48:01.18	259.48	23.41	-45.3	-60.0	3.6	1.51e+00	0	32	104	0	60	40607
2026-01-29 00:48:02.19	259.16	23.26	-45.4	-60.0	3.6	1.51e+00	0	32	104	0	60	40531
2026-01-29 00:48:03.20	258.84	23.11	-45.3	-60.0	3.6	1.51e+00	0	32	104	0	60	40698
2026-01-29 00:48:04.21	258.53	22.96	-45.3	-60.0	3.6	1.51e+00	0	32	104	0	60	40480
2026-01-29 00:48:05.22	258.22	22.81	-45.3	-60.0	3.6	1.51e+00	0	32	104	0	60	40352
2026-01-29 00:48:06.23	257.91	22.66	-45.3	-60.0	3.6	1.51e+00	0	32	104	0	60	40652
2026-01-29 00:48:07.24	257.61	22.51	-45.3	-60.0	3.6	1.51e+00	0	32	104	0	60	40668
2026-01-29 00:48:08.25	257.31	22.36	-45.3	-60.0	3.6	1.51e+00	0	32	104	0	60	40432
2026-01-29 00:48:09.26	257.02	22.21	-45.3	-60.0	3.6	1.51e+00	0	32	104	0	60	40568
2026-01-29 00:48:10.27	256.72	22.06	-45.3	-60.0	3.6	1.51e+00	0	32	104	0	60	40499
2026-01-29 00:48:11.28	256.43	21.92	-45.3	-59.9	3.6	1.51e+00	0	32	104	0	60	40132
2026-01-29 00:48:12.28	256.15	21.77	-45.3	-60.0	3.6	1.51e+00	0	32	104	0	60	40547
2026-01-29 00:48:13.29	255.87	21.62	-45.3	-60.0	3.6	1.51e+00	0	32	104	0	60	40558
2026-01-29 00:48:14.30	255.59	21.48	-45.3	-60.0	3.6	1.51e+00	0	32	104	0	60	40463
2026-01-29 00:48:15.31	255.31	21.33	-45.3	-60.0	3.6	1.51e+00	0	32	104	0	60	40501
2026-01-29 00:48:16.32	255.04	21.19	-45.3	-60.0	3.6	1.51e+00	0	32	104	0	60	40325
2026-01-29 00:48:17.33	254.76	21.04	-45.3	-59.9	3.6	1.51e+00	0	32	104	0	60	40214
2026-01-29 00:48:18.34	254.50	20.90	-45.3	-60.0	3.6	1.51e+00	0	32	104	0	60	40446
2026-01-29 00:48:19.35	254.23	20.75	-45.3	-59.9	3.6	1.51e+00	0	32	104	0	60	40206
2026-01-29 00:48:20.36	253.97	20.61	-45.3	-60.0	3.6	1.51e+00	0	32	104	0	60	40410
2026-01-29 00:48:21.37	253.71	20.47	-45.3	-60.0	3.6	1.51e+00	0	32	104	0	60	40328
2026-01-29 00:48:22.38	253.45	20.32	-45.3	-60.0	3.6	1.51e+00	0	32	104	0	60	40339
2026-01-29 00:48:23.38	253.20	20.18	-45.3	-59.9	3.6	1.51e+00	0	32	104	0	60	40268
2026-01-29 00:48:24.40	252.94	20.04	-45.2	-60.0	3.6	1.51e+00	0	32	104	0	60	40395
2026-01-29 00:48:25.41	252.69	19.90	-45.3	-59.9	3.6	1.51e+00	0	32	104	0	60	40281
2026-01-29 00:48:26.41	252.45	19.76	-45.3	-60.0	3.6	1.51e+00	0	32	104	0	60	40411
2026-01-29 00:48:27.42	252.21	19.62	-45.3	-59.9	3.6	1.51e+00	0	32	104	0	60	40034
2026-01-29 00:48:28.43	251.96	19.48	-45.2	-59.9	3.6	1.51e+00	0	32	104	0	60	40229
2026-01-29 00:48:29.44	251.73	19.34	-45.2	-59.9	3.6	1.51e+00	0	31	104	0	60	40228
2026-01-29 00:48:30.45	251.49	19.20	-45.2	-59.9	3.6	1.51e+00	0	32	104	0	60	40093
2026-01-29 00:48:31.46	251.26	19.06	-45.3	-59.9	3.6	1.51e+00	0	32	104	0	60	40264
2026-01-29 00:48:32.47	251.02	18.92	-45.2	-59.9	3.6	1.51e+00	0	32	104	0	60	40106
2026-01-29 00:48:33.48	250.80	18.79	-45.2	-59.9	3.6	1.51e+00	0	32	104	0	60	40258
2026-01-29 00:48:34.49	250.57	18.65	-45.3	-59.9	3.6	1.51e+00	0	32	104	0	60	40295
2026-01-29 00:48:35.50	250.34	18.51	-45.3	-59.9	3.6	1.51e+00	0	31	104	0	60	40072
2026-01-29 00:48:36.50	250.12	18.38	-45.3	-60.0	3.6	1.51e+00	0	32	104	0	60	40421
2026-01-29 00:48:37.52	249.90	18.24	-45.2	-59.9	3.6	1.51e+00	0	32	104	0	60	39995
2026-01-29 00:48:38.52	249.69	18.11	-45.2	-59.9	3.6	1.51e+00	0	32	104	0	60	40053
2026-01-29 00:48:39.53	249.47	17.98	-45.2	-59.9	3.6	1.51e+00	0	32	104	0	60	40094
2026-01-29 00:48:40.54	249.26	17.84	-45.2	-59.9	3.6	1.51e+00	0	32	104	0	60	40080
2026-01-29 00:48:41.55	249.05	17.71	-45.2	-59.9	3.6	1.51e+00	0	32	104	0	60	40305
2026-01-29 00:48:42.56	248.84	17.58	-45.2	-59.9	3.6	1.51e+00	0	32	104	0	60	40107
2026-01-29 00:48:43.57	248.63	17.45	-45.2	-59.9	3.6	1.51e+00	0	32	104	0	60	40196
2026-01-29 00:48:44.58	248.43	17.32	-45.2	-59.9	3.6	1.51e+00	0	32	104	0	60	40128
2026-01-29 00:48:45.59	248.23	17.19	-45.2	-59.8	3.6	1.51e+00	0	32	104	0	60	39819
2026-01-29 00:48:46.60	248.03	17.06	-45.2	-59.9	3.6	1.51e+00	0	32	104	0	60	40194
2026-01-29 00:48:47.61	247.83	16.93	-45.2	-59.9	3.6	1.51e+00	0	32	104	0	60	40022
2026-01-29 00:48:48.62	247.63	16.80	-45.2	-59.9	3.6	1.51e+00	0	32	104	0	60	40065
2026-01-29 00:48:49.62	247.44	16.67	-45.2	-59.8	3.6	1.51e+00	0	32	104	0	60	39775
2026-01-29 00:48:50.63	247.25	16.54	-45.1	-59.8	3.6	1.51e+00	0	32	104	0	60	39561
2026-01-29 00:48:51.64	247.06	16.42	-45.1	-59.8	3.6	1.51e+00	0	32	104	0	60	39586
2026-01-29 00:48:52.65	246.87	16.29	-45.2	-59.8	3.6	1.51e+00	0	32	104	0	60	39647
2026-01-29 00:48:53.66	246.68	16.17	-45.1	-59.9	3.6	1.51e+00	0	32	104	0	60	39900
2026-01-29 00:48:54.67	246.50	16.04	-45.1	-59.8	3.6	1.51e+00	0	32	104	0	60	39793
2026-01-29 00:48:55.68	246.31	15.92	-45.1	-59.8	3.6	1.51e+00	0	32	104	0	60	39565
2026-01-29 00:48:56.69	246.13	15.79	-45.2	-59.9	3.6	1.51e+00	0	32	104	0	60	39976
2026-01-29 00:48:57.70	245.95	15.67	-45.1	-59.8	3.6	1.51e+00	0	32	104	0	60	39627
2026-01-29 00:48:58.71	245.78	15.55	-45.1	-59.7	3.6	1.51e+00	0	32	104	0	60	39184
2026-01-29 00:48:59.72	245.60	15.42	-45.1	-59.8	3.6	1.51e+00	0	32	104	0	60	39552
2026-01-29 00:49:00.73	245.43	15.30	-45.1	-59.8	3.6	1.51e+00	0	32	104	0	60	39637
2026-01-29 00:49:01.74	245.25	15.18	-45.1	-59.8	3.6	1.51e+00	0	32	104	0	60	39706
2026-01-29 00:49:02.75	245.08	15.06	-45.1	-59.8	3.6	1.51e+00	0	32	104	0	60	39612
2026-01-29 00:49:03.75	244.92	14.94	-45.1	-59.8	3.5	1.51e+00	0	32	104	0	60	39414
2026-01-29 00:49:04.76	244.75	14.82	-45.1	-59.7	3.6	1.51e+00	0	32	104	0	60	39393
2026-01-29 00:49:05.77	244.58	14.70	-45.0	-59.7	3.6	1.51e+00	0	32	104	0	60	39158
2026-01-29 00:49:06.78	244.42	14.58	-45.1	-59.7	3.6	1.51e+00	0	32	104	0	60	39358
2026-01-29 00:49:07.79	244.26	14.46	-45.0	-59.7	3.6	1.51e+00	0	31	104	0	60	39293
2026-01-29 00:49:08.80	244.09	14.35	-45.0	-59.8	3.6	1.51e+00	0	32	104	0	60	39597
2026-01-29 00:49:09.81	243.94	14.23	-45.0	-59.7	3.6	1.51e+00	0	32	104	0	60	39236
2026-01-29 00:49:10.82	243.78	14.11	-44.9	-59.7	3.6	1.51e+00	0	32	104	0	60	39069
2026-01-29 00:49:11.83	243.62	14.00	-45.1	-59.8	3.6	1.51e+00	0	32	104	0	60	39579
2026-01-29 00:49:12.84	243.47	13.88	-44.9	-59.7	3.6	1.51e+00	0	32	104	0	60	39351
2026-01-29 00:49:13.85	243.31	13.77	-45.0	-59.7	3.6	1.51e+00	0	32	104	0	60	39037
2026-01-29 00:49:14.85	243.16	13.65	-44.9	-59.6	3.6	1.51e+00	0	31	104	0	60	38752
2026-01-29 00:49:15.87	243.01	13.54	-44.9	-59.6	3.6	1.51e+00	0	31	104	0	60	38697
2026-01-29 00:49:16.88	242.86	13.43	-45.0	-59.7	3.6	1.51e+00	0	31	104	0	60	39021
2026-01-29 00:49:17.89	242.71	13.31	-44.8	-59.5	3.6	1.51e+00	0	32	104	0	60	38427
2026-01-29 00:49:18.90	242.56	13.20	-44.8	-59.5	3.5	1.51e+00	0	31	104	0	60	38427
2026-01-29 00:49:19.90	242.42	13.09	-44.9	-59.5	3.6	1.51e+00	0	32	104	0	60	38494
2026-01-29 00:49:20.91	242.28	12.98	-45.0	-59.6	3.6	1.51e+00	0	32	104	0	60	38756
2026-01-29 00:49:21.92	242.13	12.87	-44.8	-59.4	3.6	1.51e+00	0	32	104	0	60	37992
2026-01-29 00:49:22.93	241.99	12.76	-44.7	-59.4	3.6	1.51e+00	0	32	104	0	60	37899
2026-01-29 00:49:23.94	241.85	12.65	-44.8	-59.5	3.6	1.51e+00	0	32	104	0	60	38401
2026-01-29 00:49:24.95	241.71	12.54	-44.8	-59.5	3.6	1.51e+00	0	32	104	0	60	38379
2026-01-29 00:49:25.96	241.58	12.43	-44.6	-59.3	3.6	1.51e+00	0	32	104	0	60	37627
2026-01-29 00:49:26.97	241.44	12.32	-44.5	-59.4	3.6	1.51e+00	0	32	104	0	60	37645
2026-01-29 00:49:27.98	241.31	12.22	-44.7	-59.4	3.6	1.51e+00	0	32	104	0	60	37876
2026-01-29 00:49:28.99	241.17	12.11	-44.7	-59.3	3.6	1.51e+00	0	32	104	0	60	37619
2026-01-29 00:49:29.99	241.04	12.00	-44.5	-59.1	3.6	1.51e+00	0	32	104	0	60	36735
2026-01-29 00:49:31.00	240.91	11.90	-44.5	-59.3	3.6	1.51e+00	0	32	104	0	60	37381
2026-01-29 00:49:32.01	240.78	11.79	-44.6	-59.4	3.6	1.51e+00	0	32	104	0	60	37998
2026-01-29 00:49:33.02	240.65	11.69	-44.6	-59.3	3.6	1.51e+00	0	32	104	0	60	37528
2026-01-29 00:49:34.03	240.52	11.58	-44.4	-59.2	3.6	1.51e+00	0	32	104	0	60	36783
2026-01-29 00:49:35.04	240.39	11.48	-44.4	-59.2	3.6	1.51e+00	0	32	104	0	60	36835
2026-01-29 00:49:36.05	240.27	11.38	-44.5	-59.2	3.6	1.51e+00	0	32	104	0	60	37198
2026-01-29 00:49:37.06	240.14	11.27	-44.5	-59.3	3.6	1.51e+00	0	32	104	0	60	37263
2026-01-29 00:49:38.07	240.02	11.17	-44.2	-59.1	3.6	1.51e+00	0	32	104	0	60	36714
2026-01-29 00:49:39.08	239.90	11.07	-44.4	-59.1	3.6	1.51e+00	0	32	104	0	60	36565
2026-01-29 00:49:40.09	239.78	10.97	-44.5	-59.2	3.6	1.51e+00	0	32	104	0	60	37109
2026-01-29 00:49:41.10	239.66	10.86	-44.4	-59.1	3.6	1.51e+00	0	32	104	0	60	36763
2026-01-29 00:49:42.11	239.54	10.76	-44.3	-59.1	3.6	1.51e+00	0	32	104	0	60	36421
2026-01-29 00:49:43.12	239.42	10.66	-44.2	-59.0	3.6	1.51e+00	0	32	104	0	60	36350
2026-01-29 00:49:44.13	239.30	10.56	-44.3	-59.1	3.6	1.51e+00	0	32	104	0	60	36361
2026-01-29 00:49:45.14	239.18	10.46	-44.4	-59.2	3.6	1.51e+00	0	31	104	0	60	36916
2026-01-29 00:49:46.15	239.07	10.36	-44.2	-59.1	3.6	1.51e+00	0	32	104	0	60	36426
2026-01-29 00:49:47.16	238.95	10.26	-44.0	-59.1	3.6	1.51e+00	0	32	104	0	60	36456
2026-01-29 00:49:48.16	238.84	10.17	-43.9	-59.1	3.6	1.51e+00	0	32	104	0	60	36523
2026-01-29 00:49:49.17	238.73	10.07	-44.4	-59.1	3.6	1.51e+00	0	32	104	0	60	36402
2026-01-29 00:49:50.18	238.62	9.97	-43.6	-59.0	3.6	1.51e+00	0	32	104	0	60	36060
2026-01-29 00:49:51.18	238.51	9.88	-43.7	-59.0	3.6	1.51e+00	0	32	104	0	60	36089
2026-01-29 00:49:52.19	238.40	9.78	-44.0	-59.0	3.6	1.51e+00	0	32	104	0	60	36287
2026-01-29 00:49:53.20	238.29	9.68	-44.3	-59.1	3.6	1.51e+00	0	32	104	0	60	36381
2026-01-29 00:49:54.21	238.18	9.59	-43.0	-59.0	3.6	1.51e+00	0	32	104	0	60	36321
2026-01-29 00:49:55.22	238.08	9.49	-44.6	-59.3	3.6	1.51e+00	0	31	104	0	60	37611
2026-01-29 00:49:56.23	237.97	9.40	-44.0	-59.0	3.6	1.51e+00	0	32	104	0	60	36281
2026-01-29 00:49:57.24	237.86	9.30	-44.4	-59.1	3.6	1.51e+00	0	32	104	0	60	36453
2026-01-29 00:49:58.25	237.76	9.21	-44.1	-59.2	3.6	1.51e+00	0	31	104	0	60	36864
2026-01-29 00:49:59.26	237.66	9.11	-44.5	-59.4	3.6	1.51e+00	0	32	104	0	60	37646
2026-01-29 00:50:00.27	237.55	9.02	-44.3	-59.2	3.6	1.51e+00	0	32	104	0	60	36861
2026-01-29 00:50:01.28	237.45	8.93	-44.7	-59.7	3.6	1.51e+00	0	32	104	0	60	39007
2026-01-29 00:50:02.30	237.35	8.83	-44.2	-59.4	3.6	1.51e+00	0	32	104	0	60	37875
2026-01-29 00:50:03.30	237.25	8.74	-44.1	-59.1	3.6	1.51e+00	0	32	104	0	60	36640
2026-01-29 00:50:04.32	237.15	8.65	-44.8	-59.5	3.6	1.51e+00	0	31	104	0	60	38165
2026-01-29 00:50:05.33	237.05	8.56	-43.9	-59.0	3.6	1.51e+00	0	32	104	0	60	36269
2026-01-29 00:50:06.33	236.96	8.47	-44.3	-59.9	3.6	1.51e+00	0	32	104	0	60	40024
2026-01-29 00:50:07.34	236.86	8.38	-44.3	-59.3	3.6	1.51e+00	0	31	104	0	60	37375
2026-01-29 00:50:08.35	236.76	8.29	-44.4	-59.4	3.6	1.51e+00	0	32	104	0	60	37988
2026-01-29 00:50:09.36	236.67	8.20	-44.4	-59.5	3.6	1.51e+00	0	32	104	0	60	38283
2026-01-29 00:50:10.37	236.57	8.11	-44.2	-59.3	3.6	1.51e+00	0	32	104	0	60	37383
2026-01-29 00:50:11.38	236.48	8.02	-44.4	-59.9	3.6	1.51e+00	0	32	104	0	60	40170
2026-01-29 00:50:12.39	236.38	7.93	-45.4	-61.7	3.6	1.51e+00	0	32	104	0	60	49133
2026-01-29 00:50:13.41	236.29	7.84	-44.9	-60.6	3.6	1.51e+00	0	32	104	0	60	43667
2026-01-29 00:50:14.41	236.20	7.75	-44.2	-59.3	3.6	1.51e+00	0	32	104	0	60	37411
2026-01-29 00:50:15.43	236.11	7.66	-44.1	-59.5	3.6	1.51e+00	0	32	104	0	60	38255
2026-01-29 00:50:16.43	236.02	7.58	-44.1	-59.7	3.6	1.51e+00	0	32	104	0	60	39186
2026-01-29 00:50:17.45	235.93	7.49	-44.3	-60.0	3.6	1.51e+00	0	32	104	0	60	40782
2026-01-29 00:50:18.46	235.84	7.40	-45.1	-61.2	3.6	1.51e+00	0	32	104	0	60	46828
2026-01-29 00:50:19.46	235.75	7.32	-47.3	-62.4	3.6	1.51e+00	0	32	104	0	60	53495
2026-01-29 00:50:20.48	235.66	7.23	-46.6	-62.0	3.6	1.51e+00	0	32	104	0	60	51227
2026-01-29 00:50:21.49	235.58	7.15	-47.3	-62.4	3.6	1.51e+00	0	32	104	0	60	53610
2026-01-29 00:50:22.50	235.49	7.06	-47.7	-63.2	3.6	1.51e+00	0	32	104	0	60	58911
2026-01-29 00:50:23.50	235.41	6.98	-45.6	-61.5	3.6	1.51e+00	0	32	104	0	60	48192
2026-01-29 00:50:24.51	235.32	6.89	-45.9	-61.5	3.6	1.51e+00	0	32	104	0	60	47964
2026-01-29 00:50:25.52	235.24	6.81	-45.9	-61.8	3.6	1.51e+00	0	31	104	0	60	49724
2026-01-29 00:50:26.53	235.15	6.72	-46.2	-62.0	3.6	1.51e+00	0	32	104	0	60	50917
2026-01-29 00:50:27.54	235.07	6.64	-46.8	-62.3	3.6	1.51e+00	0	32	104	0	60	52755
2026-01-29 00:50:28.55	234.99	6.56	-41.6	-58.7	3.6	1.51e+00	0	32	104	0	60	35012
2026-01-29 00:50:29.56	234.91	6.47	-42.4	-59.1	3.6	1.51e+00	0	32	104	0	58	40842
2026-01-29 00:50:30.57	234.82	6.39	-43.3	-59.6	3.6	1.51e+00	0	32	104	0	60	38869
2026-01-29 00:50:31.58	234.74	6.31	-41.6	-58.6	3.6	1.51e+00	0	32	104	0	58	38842
2026-01-29 00:50:32.59	234.66	6.22	-41.3	-58.9	3.6	1.51e+00	0	32	104	0	58	39936
2026-01-29 00:50:33.60	234.58	6.14	-41.9	-59.4	3.6	1.51e+00	0	32	104	0	58	42667
2026-01-29 00:50:34.61	234.51	6.06	-42.4	-59.5	3.6	1.51e+00	0	31	104	0	60	38495
2026-01-29 00:50:35.62	234.43	5.98	-41.8	-58.5	3.6	1.51e+00	0	32	104	0	60	34217
2026-01-29 00:50:36.63	234.35	5.90	-42.8	-58.7	3.6	1.51e+00	0	32	104	0	60	34899
2026-01-29 00:50:37.64	234.27	5.82	-42.2	-58.5	3.6	1.51e+00	0	31	104	0	60	34159
2026-01-29 00:50:38.65	234.20	5.74	-42.6	-58.6	3.6	1.51e+00	0	32	104	0	60	34407
2026-01-29 00:50:39.66	234.12	5.66	-42.0	-58.6	3.6	1.51e+00	0	32	104	0	60	34401
2026-01-29 00:50:40.66	234.04	5.58	-42.2	-58.6	3.6	1.51e+00	0	31	104	0	60	34442
2026-01-29 00:50:41.67	233.97	5.50	-43.9	-59.6	3.6	1.51e+00	0	31	104	0	60	38667
2026-01-29 00:50:42.68	233.90	5.42	-44.6	-59.8	3.6	1.51e+00	0	32	104	0	60	39805
2026-01-29 00:50:43.68	233.82	5.34	-44.7	-59.8	3.6	1.51e+00	0	32	104	0	60	39639
2026-01-29 00:50:44.69	233.75	5.26	-44.4	-59.7	3.6	1.51e+00	0	32	104	0	60	39027
2026-01-29 00:50:45.70	233.68	5.18	-44.8	-60.0	3.6	1.51e+00	0	32	104	0	60	40785
2026-01-29 00:50:46.71	233.60	5.11	-44.3	-59.5	3.6	1.51e+00	0	32	104	0	60	38372
2026-01-29 00:50:47.72	233.53	5.03	-44.6	-59.7	3.6	1.51e+00	0	32	104	0	60	39100
2026-01-29 00:50:48.73	233.46	4.95	-44.8	-59.9	3.6	1.51e+00	0	32	104	0	60	40076
2026-01-29 00:50:49.74	233.39	4.87	-43.8	-59.6	3.6	1.51e+00	0	32	104	0	60	38525
2026-01-29 00:50:50.75	233.32	4.80	-44.6	-59.8	3.6	1.51e+00	0	32	104	0	60	39452
2026-01-29 00:50:51.76	233.25	4.72	-44.1	-60.1	3.6	1.51e+00	0	32	104	0	60	41234
2026-01-29 00:50:52.76	233.18	4.64	-44.1	-59.7	3.6	1.51e+00	0	31	104	0	60	39209
2026-01-29 00:50:53.77	233.11	4.57	-44.2	-60.2	3.6	1.51e+00	0	32	104	0	60	41273
2026-01-29 00:50:54.78	233.04	4.49	-43.7	-59.8	3.6	1.51e+00	0	32	104	0	60	39413
2026-01-29 00:50:55.79	232.98	4.42	-43.7	-59.5	3.6	1.51e+00	0	32	104	0	60	38486
2026-01-29 00:50:56.80	232.91	4.34	-43.7	-59.5	3.6	1.51e+00	0	31	104	0	60	38222
2026-01-29 00:50:57.81	232.84	4.26	-44.6	-60.0	3.6	1.51e+00	0	31	104	0	60	40716
2026-01-29 00:50:58.82	232.77	4.19	-45.0	-60.5	3.6	1.51e+00	0	31	104	0	60	42802
2026-01-29 00:50:59.83	232.71	4.12	-44.5	-60.1	3.6	1.51e+00	0	32	104	0	60	41104
2026-01-29 00:51:00.84	232.64	4.04	-44.5	-59.5	3.6	1.51e+00	0	31	104	0	60	38367
2026-01-29 00:51:01.85	232.58	3.97	-44.4	-60.0	3.6	1.51e+00	0	31	104	0	60	40582
2026-01-29 00:51:02.86	232.51	3.89	-44.0	-59.0	3.5	1.51e+00	0	32	104	0	60	36219
2026-01-29 00:51:03.87	232.45	3.82	-43.8	-58.7	3.6	1.51e+00	0	32	104	0	60	34918
2026-01-29 00:51:04.88	232.38	3.74	-43.9	-58.8	3.6	1.51e+00	0	32	104	0	60	35470
2026-01-29 00:51:05.89	232.32	3.67	-44.5	-60.2	3.6	1.51e+00	0	32	104	0	60	41292
2026-01-29 00:51:06.90	232.26	3.60	-44.1	-59.1	3.6	1.51e+00	0	32	104	0	60	36614
2026-01-29 00:51:07.91	232.20	3.53	-44.6	-59.8	3.6	1.51e+00	0	32	104	0	60	39661
2026-01-29 00:51:08.92	232.13	3.45	-43.8	-59.4	3.6	1.51e+00	0	32	104	0	60	38026
2026-01-29 00:51:09.92	232.07	3.38	-44.2	-59.5	3.6	1.51e+00	0	32	104	0	60	38080
2026-01-29 00:51:10.94	232.01	3.31	-44.0	-59.5	3.6	1.51e+00	0	31	104	0	60	38271
2026-01-29 00:51:11.95	231.95	3.24	-43.9	-59.6	3.6	1.51e+00	0	32	104	0	60	38732
2026-01-29 00:51:12.95	231.89	3.17	-43.8	-59.8	3.6	1.51e+00	0	32	104	0	60	39479
2026-01-29 00:51:13.96	231.83	3.09	-43.7	-59.7	3.6	1.51e+00	0	32	104	0	60	39097
2026-01-29 00:51:14.97	231.77	3.02	-43.9	-59.4	3.6	1.51e+00	0	32	104	0	60	37889
2026-01-29 00:51:15.98	231.71	2.95	-45.5	-61.0	3.6	1.51e+00	0	32	104	0	60	45724
2026-01-29 00:51:16.99	231.65	2.88	-43.8	-60.2	3.6	1.51e+00	0	32	104	0	60	41454
2026-01-29 00:51:18.00	231.59	2.81	-44.4	-59.3	3.6	1.51e+00	0	31	104	0	60	37311
2026-01-29 00:51:19.01	231.53	2.74	-45.2	-60.0	3.6	1.51e+00	0	32	104	0	60	40476
2026-01-29 00:51:20.02	231.48	2.67	-45.4	-60.1	3.6	1.51e+00	0	32	104	0	60	41222
2026-01-29 00:51:21.03	231.42	2.60	-45.5	-60.2	3.6	1.51e+00	0	32	104	0	60	41658
2026-01-29 00:51:22.04	231.36	2.53	-45.6	-60.3	3.6	1.51e+00	0	31	104	0	60	41988
2026-01-29 00:51:23.05	231.30	2.46	-45.6	-60.3	3.6	1.51e+00	0	31	104	0	60	42137
2026-01-29 00:51:24.06	231.25	2.39	-45.7	-60.4	3.6	1.51e+00	0	31	104	0	60	42431
2026-01-29 00:51:25.07	231.19	2.32	-45.7	-60.4	3.6	1.51e+00	0	31	104	0	60	42661
2026-01-29 00:51:26.09	231.14	2.25	-45.7	-60.4	3.6	1.51e+00	0	31	104	0	60	42418
2026-01-29 00:51:27.10	231.08	2.18	-45.7	-60.4	3.6	1.51e+00	0	32	104	0	60	42299
2026-01-29 00:51:28.11	231.03	2.11	-45.7	-60.4	3.6	1.51e+00	0	31	104	0	60	42458
2026-01-29 00:51:29.12	230.97	2.05	-45.7	-60.5	3.6	1.51e+00	0	32	104	0	60	42749
2026-01-29 00:51:30.12	230.92	1.98	-45.6	-60.3	3.6	1.51e+00	0	31	104	0	60	42125
2026-01-29 00:51:31.14	230.86	1.91	-45.3	-60.2	3.6	1.51e+00	0	32	104	0	60	41719
2026-01-29 00:51:32.15	230.81	1.84	-45.5	-60.4	3.6	1.51e+00	0	31	104	0	60	42378
2026-01-29 00:51:33.16	230.76	1.77	-45.4	-60.2	3.6	1.51e+00	0	31	104	0	60	41669
2026-01-29 00:51:34.17	230.70	1.71	-45.3	-60.2	3.6	1.51e+00	0	31	104	0	60	41473
2026-01-29 00:51:35.18	230.65	1.64	-45.4	-60.1	3.6	1.51e+00	0	31	104	0	60	40965
2026-01-29 00:51:36.19	230.60	1.57	-45.5	-60.2	3.6	1.51e+00	0	31	104	0	60	41670
2026-01-29 00:51:37.20	230.55	1.51	-45.4	-60.1	3.6	1.51e+00	0	31	104	0	60	41263
2026-01-29 00:51:38.21	230.49	1.44	-45.3	-60.1	3.6	1.51e+00	0	31	104	0	60	40953
2026-01-29 00:51:39.22	230.44	1.37	-45.2	-60.0	3.6	1.51e+00	0	31	104	0	60	40766
2026-01-29 00:51:40.22	230.39	1.31	-45.2	-60.0	3.6	1.51e+00	0	31	104	0	60	40769
2026-01-29 00:51:41.24	230.34	1.24	-45.3	-60.0	3.6	1.51e+00	0	31	104	0	60	40767
2026-01-29 00:51:42.25	230.29	1.18	-45.4	-60.0	3.6	1.51e+00	0	31	104	0	60	40604
2026-01-29 00:51:43.26	230.24	1.11	-45.4	-60.1	3.6	1.51e+00	0	31	104	0	60	41190
2026-01-29 00:51:44.27	230.19	1.04	-45.3	-60.0	3.6	1.51e+00	0	31	104	0	60	40672
2026-01-29 00:51:45.28	230.14	0.98	-45.3	-60.1	3.6	1.51e+00	0	31	104	0	60	40894
2026-01-29 00:51:46.29	230.09	0.91	-45.3	-60.0	3.6	1.51e+00	0	31	104	0	60	40574
2026-01-29 00:51:47.30	230.04	0.85	-45.3	-60.0	3.6	1.51e+00	0	31	104	0	60	40626
2026-01-29 00:51:48.30	229.99	0.78	-45.3	-60.0	3.6	1.51e+00	0	31	104	0	60	40562
2026-01-29 00:51:49.31	229.95	0.72	-45.4	-60.1	3.6	1.51e+00	0	31	104	0	60	40843
2026-01-29 00:51:50.32	229.90	0.65	-45.3	-60.0	3.6	1.51e+00	0	32	104	0	60	40716
2026-01-29 00:51:51.33	229.85	0.59	-45.4	-60.1	3.6	1.51e+00	0	32	104	0	60	40978
2026-01-29 00:51:52.34	229.80	0.53	-45.3	-60.0	3.6	1.51e+00	0	32	104	0	60	40593
2026-01-29 00:51:53.35	229.76	0.46	-45.4	-60.1	3.6	1.51e+00	0	31	104	0	60	40975
2026-01-29 00:51:54.37	229.71	0.40	-45.4	-60.1	3.6	1.51e+00	0	31	104	0	60	41179
2026-01-29 00:51:55.38	229.66	0.33	-45.4	-60.0	3.6	1.51e+00	0	32	104	0	60	40771
2026-01-29 00:51:56.38	229.62	0.27	-45.4	-60.1	3.6	1.51e+00	0	31	104	0	60	41152
2026-01-29 00:51:57.39	229.57	0.21	-45.4	-60.1	3.6	1.51e+00	0	31	104	0	60	41181
2026-01-29 00:51:58.41	229.52	0.14	-45.4	-60.0	3.6	1.51e+00	0	32	104	0	60	40780
2026-01-29 00:51:59.42	229.48	0.08	-45.4	-60.1	3.6	1.51e+00	0	31	104	0	60	41176
2026-01-29 00:52:00.43	229.43	0.02	-45.3	-60.0	3.6	1.51e+00	0	31	104	0	60	40593
2026-01-29 00:52:01.43	229.39	-0.04	-45.3	-60.0	3.6	1.51e+00	0	31	104	0	60	40731

#Closed at: 2026-01-29 00:52:02
#Recorded file [0 MB]: D:/lorett/data/35029_260129_124102.dat