passes_logs/2026/01/29/R4.6S_Anadyr/R4.6S_Anadyr__20260129_220818_TY-39_rec.log

#Pass ID: 20260129_220818_TY-39
#Satellite: TY-39
#Configuration: TY-39
#almurnet v.1.7.20251203
#Start time: 2026-01-29 22:08:24

#Version: 2.2.20231116
#Station: R4.6S_Anadyr
#Location: 177.4865 lon 64.73178 lat
#TLE: 1 51832U 22019J   26028.98355140  .00004481  00000-0  21254-3 0  9990
#TLE: 2 51832  97.3627  95.3313 0008690   7.4089 352.7273 15.19745294216656

#Time	Az	El	Level	Level2	SNR	BER	BlckErr	Temp	State	Recorded	gain1	gain2
2026-01-29 22:08:24.62	19.33	0.37	-49.2	-61.7	3.5	1.52e+00	0	33	0	0	60	42655
2026-01-29 22:08:25.62	19.38	0.43	-49.4	-51.8	3.6	0.00e+00	0	34	104	0	60	47507
2026-01-29 22:08:26.63	19.42	0.49	-49.5	-51.9	3.6	0.00e+00	0	34	104	0	60	48443
2026-01-29 22:08:27.64	19.47	0.56	-49.5	-51.9	3.6	0.00e+00	0	34	104	0	60	48402
2026-01-29 22:08:28.65	19.51	0.62	-49.4	-51.9	3.6	0.00e+00	0	34	104	0	60	48291
2026-01-29 22:08:29.67	19.55	0.69	-49.5	-52.0	3.6	0.00e+00	0	35	104	0	60	48639
2026-01-29 22:08:30.68	19.60	0.75	-49.5	-52.0	3.6	0.00e+00	0	35	104	0	60	48803
2026-01-29 22:08:31.69	19.64	0.81	-49.3	-51.8	3.6	0.00e+00	0	35	104	0	60	47796
2026-01-29 22:08:32.70	19.69	0.88	-49.3	-51.8	3.6	0.00e+00	0	35	104	0	60	47685
2026-01-29 22:08:33.71	19.73	0.94	-49.4	-51.9	3.6	0.00e+00	0	35	104	0	60	48078
2026-01-29 22:08:34.72	19.78	1.01	-49.3	-51.8	3.6	0.00e+00	0	35	104	0	60	47426
2026-01-29 22:08:35.73	19.83	1.07	-49.2	-51.7	3.6	0.00e+00	0	35	104	0	60	46994
2026-01-29 22:08:36.74	19.87	1.14	-49.3	-51.8	3.6	0.00e+00	0	35	104	0	60	47556
2026-01-29 22:08:37.75	19.92	1.20	-49.1	-51.6	3.6	0.00e+00	0	35	104	0	60	46354
2026-01-29 22:08:38.76	19.96	1.27	-49.2	-51.6	3.6	0.00e+00	0	35	104	0	60	46774
2026-01-29 22:08:39.77	20.01	1.34	-49.0	-51.5	3.6	0.00e+00	0	35	104	0	60	45894
2026-01-29 22:08:40.78	20.06	1.40	-48.5	-51.0	3.6	0.00e+00	0	35	104	0	60	43687
2026-01-29 22:08:41.79	20.11	1.47	-48.6	-51.1	3.6	0.00e+00	0	35	104	0	60	44056
2026-01-29 22:08:42.80	20.15	1.53	-48.7	-51.2	3.6	0.00e+00	0	35	104	0	60	44247
2026-01-29 22:08:43.81	20.20	1.60	-48.6	-51.0	3.6	0.00e+00	0	35	104	0	60	43469
2026-01-29 22:08:44.82	20.25	1.67	-48.4	-50.8	3.6	0.00e+00	0	35	104	0	60	42674
2026-01-29 22:08:45.83	20.30	1.73	-48.0	-50.5	3.6	0.00e+00	0	35	104	0	60	41142
2026-01-29 22:08:46.84	20.35	1.80	-48.0	-50.5	3.6	0.00e+00	0	35	104	0	60	40989
2026-01-29 22:08:47.85	20.39	1.87	-48.0	-50.5	3.6	0.00e+00	0	35	104	0	60	41059
2026-01-29 22:08:48.86	20.44	1.93	-48.0	-50.5	3.6	0.00e+00	0	35	104	0	60	41028
2026-01-29 22:08:49.87	20.49	2.00	-48.0	-50.5	3.6	0.00e+00	0	35	104	0	60	41107
2026-01-29 22:08:50.88	20.54	2.07	-48.0	-50.5	3.6	0.00e+00	0	35	104	0	60	40974
2026-01-29 22:08:51.89	20.59	2.14	-48.0	-50.5	3.6	0.00e+00	0	35	104	0	60	40878
2026-01-29 22:08:52.90	20.64	2.21	-48.0	-50.5	3.6	0.00e+00	0	35	104	0	60	41046
2026-01-29 22:08:53.91	20.69	2.27	-48.0	-50.5	3.6	0.00e+00	0	35	104	0	60	40822
2026-01-29 22:08:54.92	20.74	2.34	-48.0	-50.5	3.6	0.00e+00	0	35	104	0	60	41016
2026-01-29 22:08:55.93	20.79	2.41	-48.0	-50.5	3.6	0.00e+00	0	35	104	0	60	41002
2026-01-29 22:08:56.94	20.85	2.48	-48.0	-50.5	3.6	0.00e+00	0	36	104	0	60	41061
2026-01-29 22:08:57.95	20.90	2.55	-48.0	-50.5	3.6	0.00e+00	0	35	104	0	60	40948
2026-01-29 22:08:58.96	20.95	2.62	-48.0	-50.5	3.6	0.00e+00	0	35	104	0	60	40895
2026-01-29 22:08:59.97	21.00	2.69	-48.0	-50.5	3.6	0.00e+00	0	36	104	0	60	41074
2026-01-29 22:09:00.98	21.05	2.76	-48.0	-50.5	3.6	0.00e+00	0	36	104	0	60	41022
2026-01-29 22:09:01.99	21.11	2.83	-48.0	-50.5	3.6	0.00e+00	0	36	104	0	60	41172
2026-01-29 22:09:03.00	21.16	2.90	-48.0	-50.5	3.6	0.00e+00	0	35	104	0	60	40869
2026-01-29 22:09:04.01	21.21	2.97	-48.0	-50.5	3.6	0.00e+00	0	36	104	0	60	40865
2026-01-29 22:09:05.02	21.26	3.04	-48.0	-50.5	3.6	0.00e+00	0	36	104	0	60	41064
2026-01-29 22:09:06.03	21.32	3.11	-48.0	-50.5	3.6	0.00e+00	0	36	104	0	60	40968
2026-01-29 22:09:07.04	21.37	3.18	-48.0	-50.5	3.6	0.00e+00	0	36	104	0	60	40951
2026-01-29 22:09:08.05	21.43	3.25	-48.0	-50.5	3.6	0.00e+00	0	36	104	0	60	41063
2026-01-29 22:09:09.06	21.48	3.33	-48.0	-50.5	3.6	0.00e+00	0	36	104	0	60	41022
2026-01-29 22:09:10.07	21.54	3.40	-48.0	-50.5	3.6	0.00e+00	0	36	104	0	60	40837
2026-01-29 22:09:11.08	21.59	3.47	-48.0	-50.5	3.6	0.00e+00	0	36	104	0	60	40853
2026-01-29 22:09:12.09	21.65	3.54	-48.0	-50.5	3.6	0.00e+00	0	36	104	0	60	41157
2026-01-29 22:09:13.10	21.70	3.61	-48.0	-50.5	3.6	0.00e+00	0	36	104	0	60	41109
2026-01-29 22:09:14.11	21.76	3.69	-48.0	-50.5	3.6	0.00e+00	0	36	104	0	60	40954
2026-01-29 22:09:15.12	21.82	3.76	-48.0	-50.5	3.6	0.00e+00	0	36	104	0	60	41119
2026-01-29 22:09:16.13	21.87	3.83	-48.0	-50.5	3.6	0.00e+00	0	36	104	0	60	41071
2026-01-29 22:09:17.14	21.93	3.91	-48.0	-50.5	3.6	0.00e+00	0	36	104	0	60	40811
2026-01-29 22:09:18.15	21.99	3.98	-48.0	-50.5	3.6	0.00e+00	0	36	104	0	60	40981
2026-01-29 22:09:19.16	22.05	4.05	-48.0	-50.5	3.6	0.00e+00	0	36	104	0	60	40983
2026-01-29 22:09:20.17	22.10	4.13	-48.2	-50.7	3.6	0.00e+00	0	36	104	0	60	41817
2026-01-29 22:09:21.18	22.16	4.20	-48.1	-50.5	3.6	0.00e+00	0	36	104	0	60	41226
2026-01-29 22:09:22.19	22.22	4.28	-48.2	-50.8	3.6	0.00e+00	0	36	104	0	60	42284
2026-01-29 22:09:23.19	22.28	4.35	-48.2	-50.7	3.6	0.00e+00	0	36	104	0	60	42033
2026-01-29 22:09:24.20	22.34	4.43	-48.0	-50.5	3.6	0.00e+00	0	36	104	0	60	41101
2026-01-29 22:09:25.21	22.40	4.50	-48.1	-50.6	3.6	0.00e+00	0	36	104	0	60	41518
2026-01-29 22:09:26.22	22.46	4.58	-46.1	-46.9	3.7	0.00e+00	0	36	104	0	60	27148
2026-01-29 22:09:27.23	22.52	4.65	-33.8	-34.1	13.5	3.39e-02	0	36	0	8388608	46	13902
2026-01-29 22:09:28.24	22.58	4.73	-47.6	-49.8	3.6	4.64e-02	0	36	104	41943040	60	37671
2026-01-29 22:09:29.25	22.64	4.81	-33.7	-34.0	11.1	0.00e+00	0	36	104	41943040	42	17334
2026-01-29 22:09:30.26	22.70	4.88	-33.3	-33.7	13.4	9.01e-05	0	36	0	100663296	42	16783
2026-01-29 22:09:31.27	22.77	4.96	-33.7	-34.1	13.3	0.00e+00	0	36	0	176160768	42	17458
2026-01-29 22:09:32.28	22.83	5.04	-33.2	-33.6	13.7	0.00e+00	0	36	0	251658240	40	18478
2026-01-29 22:09:33.29	22.89	5.12	-32.4	-32.8	14.2	0.00e+00	0	36	0	327155712	40	16911
2026-01-29 22:09:34.30	22.96	5.19	-31.9	-32.3	14.4	0.00e+00	0	36	0	402653184	38	17843
2026-01-29 22:09:35.31	23.02	5.27	-31.9	-32.3	14.5	0.00e+00	0	36	0	478150656	38	17986
2026-01-29 22:09:36.31	23.08	5.35	-30.5	-31.0	15.1	0.00e+00	0	36	0	553648128	36	17217
2026-01-29 22:09:37.32	23.15	5.43	-30.1	-30.5	15.2	0.00e+00	0	37	0	629145600	36	16417
2026-01-29 22:09:38.33	23.21	5.51	-30.1	-30.5	15.3	0.00e+00	0	37	0	704643072	36	16394
2026-01-29 22:09:39.34	23.28	5.59	-29.8	-30.2	15.3	0.00e+00	0	37	0	780140544	36	15854
2026-01-29 22:09:40.35	23.34	5.67	-29.9	-30.4	15.3	0.00e+00	0	37	0	855638016	34	18039
2026-01-29 22:09:41.37	23.41	5.75	-29.8	-30.2	15.4	0.00e+00	0	37	0	931135488	34	17693
2026-01-29 22:09:42.38	23.48	5.83	-29.7	-30.1	15.4	0.00e+00	0	36	0	1006632960	34	17473
2026-01-29 22:09:43.39	23.54	5.91	-29.6	-30.1	15.4	0.00e+00	0	37	0	1082130432	34	17442
2026-01-29 22:09:44.39	23.61	5.99	-29.5	-30.0	15.5	0.00e+00	0	37	0	1157627904	34	17227
2026-01-29 22:09:45.40	23.68	6.07	-29.3	-29.8	15.6	0.00e+00	0	37	0	1233125376	34	16847
2026-01-29 22:09:46.42	23.75	6.15	-29.5	-29.9	15.5	0.00e+00	0	37	0	1308622848	34	17184
2026-01-29 22:09:47.43	23.82	6.23	-29.7	-30.1	15.4	0.00e+00	0	37	0	1384120320	34	17521
2026-01-29 22:09:48.44	23.89	6.32	-29.9	-30.3	15.4	0.00e+00	0	37	0	1468006400	34	17877
2026-01-29 22:09:49.45	23.96	6.40	-29.5	-30.0	15.4	0.00e+00	0	37	0	1543503872	34	17241
2026-01-29 22:09:50.46	24.03	6.48	-29.4	-29.8	15.5	0.00e+00	0	37	0	1610612736	34	16909
2026-01-29 22:09:51.47	24.10	6.56	-30.1	-30.6	15.3	0.00e+00	0	37	0	1686110208	34	18445
2026-01-29 22:09:52.48	24.17	6.65	-29.3	-29.8	15.6	0.00e+00	0	37	0	1761607680	34	16844
2026-01-29 22:09:53.49	24.24	6.73	-29.2	-29.6	15.6	0.00e+00	0	37	0	1845493760	34	16568
2026-01-29 22:09:54.49	24.31	6.81	-29.2	-29.6	15.7	0.00e+00	0	37	0	1920991232	34	16589
2026-01-29 22:09:55.50	24.38	6.90	-29.3	-29.7	15.6	0.00e+00	0	37	0	1996488704	34	16708
2026-01-29 22:09:56.51	24.46	6.98	-29.1	-29.6	15.7	0.00e+00	0	37	0	2071986176	34	16446
2026-01-29 22:09:57.52	24.53	7.07	-29.1	-29.6	15.7	0.00e+00	0	37	0	2147483648	34	16466
2026-01-29 22:09:58.53	24.60	7.15	-29.0	-29.5	15.7	0.00e+00	0	37	0	2222981120	34	16299
2026-01-29 22:09:59.54	24.68	7.24	-28.8	-29.3	15.8	0.00e+00	0	37	0	2298478592	34	15939
2026-01-29 22:10:00.54	24.75	7.32	-29.1	-29.5	15.7	0.00e+00	0	37	0	2373976064	34	16315
2026-01-29 22:10:01.55	24.83	7.41	-29.1	-29.5	15.7	0.00e+00	0	37	0	2449473536	34	16373
2026-01-29 22:10:02.55	24.90	7.50	-28.8	-29.2	15.8	0.00e+00	0	37	0	2524971008	34	15822
2026-01-29 22:10:03.56	24.98	7.58	-28.9	-29.4	15.7	0.00e+00	0	37	0	2600468480	34	16071
2026-01-29 22:10:04.57	25.06	7.67	-28.9	-29.4	15.8	0.00e+00	0	37	0	2675965952	34	16139
2026-01-29 22:10:05.58	25.14	7.76	-29.0	-29.4	15.8	0.00e+00	0	37	0	2751463424	34	16114
2026-01-29 22:10:06.59	25.21	7.85	-28.9	-29.3	15.8	0.00e+00	0	37	0	2826960896	34	15974
2026-01-29 22:10:07.60	25.29	7.94	-28.9	-29.3	15.8	0.00e+00	0	37	0	2902458368	34	15950
2026-01-29 22:10:08.61	25.37	8.03	-28.9	-29.4	15.7	0.00e+00	0	37	0	2977955840	34	16060
2026-01-29 22:10:09.62	25.45	8.11	-28.6	-29.1	15.9	0.00e+00	0	37	0	3053453312	32	17505
2026-01-29 22:10:10.63	25.53	8.20	-28.7	-29.1	15.8	0.00e+00	0	37	0	3128950784	32	17580
2026-01-29 22:10:11.63	25.61	8.29	-28.7	-29.1	15.8	0.00e+00	0	37	0	3204448256	32	17572
2026-01-29 22:10:12.65	25.70	8.38	-28.8	-29.2	15.8	0.00e+00	0	37	0	3279945728	32	17678
2026-01-29 22:10:13.66	25.78	8.48	-28.6	-29.1	15.9	0.00e+00	0	37	0	3355443200	32	17465
2026-01-29 22:10:14.66	25.86	8.57	-28.7	-29.1	15.9	0.00e+00	0	37	0	3430940672	32	17447
2026-01-29 22:10:15.67	25.94	8.66	-28.4	-28.8	15.9	0.00e+00	0	37	0	3506438144	32	16991
2026-01-29 22:10:16.68	26.03	8.75	-28.6	-29.0	15.9	0.00e+00	0	37	0	3581935616	32	17315
2026-01-29 22:10:17.69	26.11	8.84	-28.7	-29.2	15.8	0.00e+00	0	37	0	3657433088	32	17633
2026-01-29 22:10:18.70	26.20	8.94	-28.7	-29.1	15.8	0.00e+00	0	37	0	3732930560	32	17596
2026-01-29 22:10:19.71	26.28	9.03	-28.5	-28.9	15.9	0.00e+00	0	37	0	3808428032	32	17183
2026-01-29 22:10:20.72	26.37	9.12	-28.5	-29.0	15.9	0.00e+00	0	37	0	3883925504	32	17306
2026-01-29 22:10:21.73	26.46	9.22	-28.3	-28.8	16.0	0.00e+00	0	37	0	3959422976	32	16894
2026-01-29 22:10:22.74	26.55	9.31	-28.3	-28.8	15.9	0.00e+00	0	37	0	4034920448	32	16904
2026-01-29 22:10:23.75	26.63	9.41	-28.3	-28.7	16.0	0.00e+00	0	37	0	4110417920	32	16770
2026-01-29 22:10:24.76	26.72	9.50	-28.2	-28.7	16.0	0.00e+00	0	37	0	4185915392	32	16628
2026-01-29 22:10:25.77	26.81	9.60	-28.5	-28.9	16.0	0.00e+00	0	37	0	4261412864	32	17107
2026-01-29 22:10:26.78	26.90	9.69	-28.4	-28.8	16.0	0.00e+00	0	37	0	4336910336	32	16970
2026-01-29 22:10:27.79	27.00	9.79	-28.3	-28.8	15.9	0.00e+00	0	37	0	4412407808	32	16898
2026-01-29 22:10:28.80	27.09	9.89	-28.2	-28.6	16.0	0.00e+00	0	37	0	4487905280	32	16535
2026-01-29 22:10:29.80	27.18	9.99	-27.9	-28.3	16.1	0.00e+00	0	37	0	4563402752	32	16050
2026-01-29 22:10:30.81	27.27	10.08	-28.0	-28.4	16.0	0.00e+00	0	37	0	4638900224	32	16217
2026-01-29 22:10:31.82	27.37	10.18	-28.1	-28.6	16.0	0.00e+00	0	37	0	4714397696	32	16493
2026-01-29 22:10:32.83	27.46	10.28	-27.9	-28.4	15.9	0.00e+00	0	37	0	4798283776	32	16141
2026-01-29 22:10:33.84	27.56	10.38	-28.2	-28.7	15.7	0.00e+00	0	37	0	4873781248	32	16692
2026-01-29 22:10:34.85	27.65	10.48	-28.5	-28.9	15.7	0.00e+00	0	37	0	4940890112	32	17116
2026-01-29 22:10:35.86	27.75	10.58	-28.5	-29.0	15.8	0.00e+00	0	37	0	5016387584	32	17278
2026-01-29 22:10:36.87	27.85	10.68	-28.6	-29.1	15.8	0.00e+00	0	37	0	5091885056	32	17455
2026-01-29 22:10:37.88	27.95	10.78	-28.3	-28.7	16.0	0.00e+00	0	37	0	5167382528	32	16777
2026-01-29 22:10:38.89	28.05	10.89	-27.7	-28.2	16.1	0.00e+00	0	37	0	5251268608	30	17625
2026-01-29 22:10:39.90	28.15	10.99	-27.7	-28.2	16.1	0.00e+00	0	37	0	5326766080	30	17676
2026-01-29 22:10:40.91	28.25	11.09	-27.7	-28.1	16.2	0.00e+00	0	37	0	5402263552	30	17542
2026-01-29 22:10:41.92	28.35	11.19	-27.6	-28.1	16.2	0.00e+00	0	37	0	5477761024	30	17472
2026-01-29 22:10:42.93	28.46	11.30	-27.6	-28.0	16.1	0.00e+00	0	37	0	5544869888	30	17369
2026-01-29 22:10:43.93	28.56	11.40	-27.6	-28.1	16.1	0.00e+00	0	37	0	5628755968	30	17439
2026-01-29 22:10:44.94	28.66	11.51	-27.6	-28.0	16.0	0.00e+00	0	37	0	5704253440	30	17305
2026-01-29 22:10:45.95	28.77	11.61	-27.7	-28.1	16.0	0.00e+00	0	38	0	5779750912	30	17580
2026-01-29 22:10:46.96	28.87	11.72	-27.4	-27.9	16.0	0.00e+00	0	37	0	5855248384	30	17084
2026-01-29 22:10:47.97	28.98	11.83	-27.4	-27.9	16.0	0.00e+00	0	37	0	5930745856	30	17122
2026-01-29 22:10:48.98	29.09	11.93	-27.4	-27.8	16.1	0.00e+00	0	37	0	6006243328	30	16992
2026-01-29 22:10:49.99	29.20	12.04	-27.5	-27.9	15.9	0.00e+00	0	37	0	6081740800	30	17139
2026-01-29 22:10:51.00	29.31	12.15	-27.3	-27.8	15.9	0.00e+00	0	37	0	6157238272	30	16871
2026-01-29 22:10:52.01	29.42	12.26	-27.4	-27.8	15.9	0.00e+00	0	38	0	6232735744	30	16976
2026-01-29 22:10:53.02	29.53	12.37	-27.2	-27.6	16.1	0.00e+00	0	38	0	6308233216	30	16609
2026-01-29 22:10:54.03	29.65	12.48	-27.1	-27.6	16.2	0.00e+00	0	37	0	6383730688	30	16466
2026-01-29 22:10:55.03	29.76	12.59	-27.1	-27.6	16.1	0.00e+00	0	38	0	6459228160	30	16476
2026-01-29 22:10:56.04	29.87	12.70	-27.2	-27.7	16.1	0.00e+00	0	38	0	6534725632	30	16636
2026-01-29 22:10:57.05	29.99	12.81	-27.3	-27.7	16.1	0.00e+00	0	38	0	6610223104	30	16807
2026-01-29 22:10:58.06	30.11	12.92	-27.0	-27.5	16.3	0.00e+00	0	37	0	6685720576	30	16293
2026-01-29 22:10:59.07	30.22	13.03	-27.1	-27.6	16.3	0.00e+00	0	38	0	6761218048	30	16517
2026-01-29 22:11:00.08	30.34	13.15	-26.9	-27.3	16.3	0.00e+00	0	37	0	6836715520	30	16042
2026-01-29 22:11:01.09	30.46	13.26	-27.0	-27.5	16.3	0.00e+00	0	38	0	6912212992	30	16240
2026-01-29 22:11:02.10	30.58	13.38	-26.8	-27.3	16.4	0.00e+00	0	38	0	6987710464	30	15927
2026-01-29 22:11:03.11	30.71	13.49	-26.8	-27.3	16.4	0.00e+00	0	38	0	7063207936	30	15939
2026-01-29 22:11:04.12	30.83	13.61	-27.0	-27.5	16.3	0.00e+00	0	38	0	7138705408	30	16295
2026-01-29 22:11:05.13	30.95	13.72	-27.1	-27.5	16.4	0.00e+00	0	38	0	7214202880	30	16385
2026-01-29 22:11:06.14	31.08	13.84	-27.1	-27.6	16.3	0.00e+00	0	38	0	7289700352	30	16496
2026-01-29 22:11:07.15	31.20	13.96	-26.9	-27.3	16.4	0.00e+00	0	38	0	7365197824	30	15955
2026-01-29 22:11:08.16	31.33	14.08	-26.7	-27.2	16.4	0.00e+00	0	38	0	7440695296	30	15689
2026-01-29 22:11:09.16	31.46	14.19	-26.7	-27.1	16.5	0.00e+00	0	38	0	7516192768	28	17592
2026-01-29 22:11:10.17	31.59	14.31	-26.6	-27.0	16.4	0.00e+00	0	38	0	7591690240	28	17379
2026-01-29 22:11:11.18	31.72	14.43	-26.7	-27.2	16.4	0.00e+00	0	38	0	7667187712	28	17693
2026-01-29 22:11:12.19	31.85	14.55	-26.7	-27.1	16.4	0.00e+00	0	38	0	7742685184	28	17583
2026-01-29 22:11:13.20	31.99	14.68	-26.5	-27.0	16.3	0.00e+00	0	38	0	7818182656	28	17275
2026-01-29 22:11:14.21	32.12	14.80	-26.6	-27.0	16.4	0.00e+00	0	38	0	7893680128	28	17374
2026-01-29 22:11:15.22	32.26	14.92	-26.6	-27.1	16.4	0.00e+00	0	38	0	7969177600	28	17476
2026-01-29 22:11:16.24	32.40	15.04	-26.6	-27.0	16.4	0.00e+00	0	38	0	8053063680	28	17382
2026-01-29 22:11:17.24	32.54	15.17	-26.7	-27.1	16.4	0.00e+00	0	38	0	8128561152	28	17597
2026-01-29 22:11:18.25	32.68	15.29	-26.6	-27.1	16.4	0.00e+00	0	38	0	8204058624	28	17406
2026-01-29 22:11:19.26	32.82	15.42	-26.2	-26.7	16.5	0.00e+00	0	38	0	8271167488	28	16694
2026-01-29 22:11:20.27	32.96	15.54	-26.3	-26.8	16.5	0.00e+00	0	38	0	8346664960	28	16817
2026-01-29 22:11:21.28	33.10	15.67	-26.2	-26.7	16.5	0.00e+00	0	38	0	8422162432	28	16634
2026-01-29 22:11:22.29	33.25	15.80	-26.2	-26.6	16.5	0.00e+00	0	38	0	8506048512	28	16570
2026-01-29 22:11:23.30	33.40	15.93	-26.2	-26.6	16.5	0.00e+00	0	38	0	8581545984	28	16590
2026-01-29 22:11:24.31	33.55	16.06	-26.2	-26.7	16.4	0.00e+00	0	38	0	8657043456	28	16716
2026-01-29 22:11:25.32	33.70	16.19	-26.0	-26.5	16.5	0.00e+00	0	38	0	8732540928	28	16327
2026-01-29 22:11:26.33	33.85	16.32	-26.1	-26.5	16.3	0.00e+00	0	38	0	8799649792	28	16405
2026-01-29 22:11:27.34	34.00	16.45	-25.9	-26.3	16.4	0.00e+00	0	38	0	8883535872	28	16002
2026-01-29 22:11:28.35	34.15	16.58	-25.9	-26.4	16.4	0.00e+00	0	38	0	8959033344	28	16158
2026-01-29 22:11:29.35	34.31	16.71	-25.9	-26.3	16.5	0.00e+00	0	38	0	9034530816	28	15975
2026-01-29 22:11:30.36	34.47	16.85	-26.1	-26.5	16.4	0.00e+00	0	38	0	9110028288	28	16380
2026-01-29 22:11:31.37	34.63	16.98	-26.0	-26.4	16.5	0.00e+00	0	38	0	9185525760	28	16174
2026-01-29 22:11:32.38	34.79	17.11	-25.8	-26.2	16.5	0.00e+00	0	38	0	9261023232	28	15837
2026-01-29 22:11:33.39	34.95	17.25	-25.8	-26.2	16.4	0.00e+00	0	38	0	9336520704	26	17742
2026-01-29 22:11:34.40	35.11	17.39	-25.8	-26.2	16.5	0.00e+00	0	38	0	9412018176	26	17762
2026-01-29 22:11:35.41	35.28	17.52	-25.8	-26.2	16.6	0.00e+00	0	38	0	9487515648	26	17681
2026-01-29 22:11:36.42	35.45	17.66	-25.6	-26.1	16.7	0.00e+00	0	38	0	9563013120	26	17472
2026-01-29 22:11:37.43	35.62	17.80	-25.7	-26.2	16.5	0.00e+00	0	38	0	9638510592	26	17669
2026-01-29 22:11:38.44	35.79	17.94	-25.5	-26.0	16.5	0.00e+00	0	38	0	9714008064	26	17227
2026-01-29 22:11:39.45	35.96	18.08	-25.5	-26.0	16.5	0.00e+00	0	38	0	9789505536	26	17257
2026-01-29 22:11:40.46	36.13	18.22	-25.5	-26.0	16.7	0.00e+00	0	38	0	9865003008	26	17287
2026-01-29 22:11:41.47	36.31	18.37	-25.6	-26.1	16.5	0.00e+00	0	38	0	9940500480	26	17408
2026-01-29 22:11:42.48	36.49	18.51	-25.5	-25.9	16.3	0.00e+00	0	38	0	10015997952	26	17167
2026-01-29 22:11:43.49	36.67	18.65	-25.3	-25.8	16.4	0.00e+00	0	38	0	10091495424	26	16882
2026-01-29 22:11:44.50	36.85	18.80	-25.4	-25.9	16.5	0.00e+00	0	38	0	10166992896	26	17049
2026-01-29 22:11:45.51	37.04	18.94	-25.3	-25.7	16.7	0.00e+00	0	38	0	10242490368	26	16748
2026-01-29 22:11:46.52	37.22	19.09	-25.3	-25.7	16.6	0.00e+00	0	38	0	10317987840	26	16766
2026-01-29 22:11:47.53	37.41	19.23	-25.2	-25.6	16.5	0.00e+00	0	38	0	10393485312	26	16570
2026-01-29 22:11:48.54	37.60	19.38	-25.2	-25.6	16.6	0.00e+00	0	38	0	10468982784	26	16599
2026-01-29 22:11:49.55	37.79	19.53	-25.2	-25.7	16.7	0.00e+00	0	38	0	10544480256	26	16678
2026-01-29 22:11:50.56	37.99	19.68	-25.2	-25.7	16.8	0.00e+00	0	38	0	10619977728	26	16706
2026-01-29 22:11:51.57	38.18	19.83	-25.0	-25.5	16.7	0.00e+00	0	38	0	10695475200	26	16263
2026-01-29 22:11:52.58	38.38	19.98	-25.1	-25.5	16.7	0.00e+00	0	38	0	10779361280	26	16377
2026-01-29 22:11:53.59	38.58	20.13	-24.9	-25.4	16.8	0.00e+00	0	38	0	10854858752	26	16136
2026-01-29 22:11:54.60	38.79	20.29	-24.9	-25.4	16.7	0.00e+00	0	38	0	10930356224	26	16123
2026-01-29 22:11:55.61	38.99	20.44	-24.9	-25.4	16.7	0.00e+00	0	38	0	10997465088	26	16085
2026-01-29 22:11:56.62	39.20	20.60	-25.0	-25.5	16.6	0.00e+00	0	38	0	11072962560	26	16283
2026-01-29 22:11:57.63	39.41	20.75	-25.2	-25.7	16.7	0.00e+00	0	38	0	11156848640	26	16712
2026-01-29 22:11:58.64	39.62	20.91	-25.0	-25.4	16.6	0.00e+00	0	38	0	11232346112	26	16189
2026-01-29 22:11:59.65	39.84	21.06	-24.7	-25.2	16.7	0.00e+00	0	38	0	11307843584	24	17637
2026-01-29 22:12:00.66	40.05	21.22	-24.7	-25.2	16.7	0.00e+00	0	38	0	11383341056	24	17650
2026-01-29 22:12:01.67	40.27	21.38	-24.6	-25.1	16.9	0.00e+00	0	38	0	11458838528	24	17482
2026-01-29 22:12:02.68	40.49	21.54	-24.6	-25.1	16.7	0.00e+00	0	38	0	11525947392	24	17479
2026-01-29 22:12:03.69	40.72	21.70	-24.6	-25.1	16.7	0.00e+00	0	38	0	11609833472	24	17412
2026-01-29 22:12:04.70	40.95	21.86	-24.6	-25.0	16.8	0.00e+00	0	38	0	11685330944	24	17394
2026-01-29 22:12:05.71	41.18	22.03	-24.6	-25.0	16.7	0.00e+00	0	38	0	11760828416	24	17335
2026-01-29 22:12:06.71	41.41	22.19	-24.4	-24.9	16.8	0.00e+00	0	38	0	11836325888	24	17089
2026-01-29 22:12:07.73	41.64	22.35	-24.4	-24.9	16.8	0.00e+00	0	38	0	11911823360	24	17108
2026-01-29 22:12:08.74	41.88	22.52	-24.3	-24.8	16.8	0.00e+00	0	38	0	11987320832	24	16864
2026-01-29 22:12:09.75	42.12	22.68	-24.3	-24.8	16.8	0.00e+00	0	38	0	12062818304	24	16889
2026-01-29 22:12:10.75	42.36	22.85	-24.3	-24.8	16.7	0.00e+00	0	38	0	12138315776	24	16861
2026-01-29 22:12:11.76	42.61	23.02	-24.3	-24.7	16.9	0.00e+00	0	38	0	12213813248	24	16737
2026-01-29 22:12:12.77	42.86	23.19	-24.2	-24.7	16.8	0.00e+00	0	38	0	12289310720	24	16624
2026-01-29 22:12:13.78	43.11	23.35	-24.2	-24.7	16.7	0.00e+00	0	38	0	12364808192	24	16679
2026-01-29 22:12:14.79	43.37	23.53	-24.1	-24.6	16.9	0.00e+00	0	38	0	12440305664	24	16434
2026-01-29 22:12:15.80	43.63	23.70	-24.0	-24.5	16.9	0.00e+00	0	38	0	12515803136	24	16348
2026-01-29 22:12:16.81	43.89	23.87	-24.1	-24.6	16.8	0.00e+00	0	38	0	12591300608	24	16434
2026-01-29 22:12:17.82	44.15	24.04	-23.9	-24.4	16.9	0.00e+00	0	38	0	12666798080	24	16156
2026-01-29 22:12:18.83	44.42	24.21	-24.1	-24.5	16.8	0.00e+00	0	38	0	12742295552	24	16324
2026-01-29 22:12:19.83	44.69	24.39	-23.8	-24.3	16.9	0.00e+00	0	38	0	12817793024	24	15912
2026-01-29 22:12:20.84	44.96	24.56	-23.9	-24.4	16.9	0.00e+00	0	38	0	12893290496	24	16080
2026-01-29 22:12:21.85	45.24	24.74	-23.8	-24.3	16.9	0.00e+00	0	38	0	12968787968	24	15957
2026-01-29 22:12:22.86	45.52	24.91	-23.8	-24.2	16.9	0.00e+00	0	38	0	13044285440	24	15851
2026-01-29 22:12:23.87	45.81	25.09	-23.7	-24.2	16.8	0.00e+00	0	38	0	13119782912	22	17714
2026-01-29 22:12:24.88	46.10	25.27	-23.6	-24.1	16.8	0.00e+00	0	38	0	13195280384	22	17532
2026-01-29 22:12:25.89	46.39	25.45	-23.7	-24.2	16.8	0.00e+00	0	38	0	13270777856	22	17704
2026-01-29 22:12:26.90	46.68	25.63	-23.6	-24.0	16.9	0.00e+00	0	38	0	13346275328	22	17307
2026-01-29 22:12:27.91	46.98	25.81	-23.6	-24.0	16.9	0.00e+00	0	38	0	13421772800	22	17380
2026-01-29 22:12:28.92	47.29	25.99	-23.6	-24.0	16.9	0.00e+00	0	38	0	13497270272	22	17342
2026-01-29 22:12:29.93	47.59	26.17	-23.6	-24.1	16.8	0.00e+00	0	38	0	13581156352	22	17475
2026-01-29 22:12:30.94	47.90	26.35	-23.5	-23.9	16.8	0.00e+00	0	38	0	13656653824	22	17168
2026-01-29 22:12:31.95	48.22	26.54	-23.5	-23.9	16.8	0.00e+00	0	38	0	13723762688	22	17109
2026-01-29 22:12:32.96	48.53	26.72	-23.4	-23.9	16.9	0.00e+00	0	38	0	13799260160	22	17005
2026-01-29 22:12:33.97	48.86	26.91	-23.3	-23.8	16.8	0.00e+00	0	38	0	13874757632	22	16956
2026-01-29 22:12:34.98	49.18	27.09	-23.4	-23.9	16.9	0.00e+00	0	38	0	13950255104	22	17076
2026-01-29 22:12:35.99	49.51	27.28	-23.2	-23.7	16.9	0.00e+00	0	38	0	14034141184	22	16674
2026-01-29 22:12:36.99	49.85	27.46	-23.3	-23.8	16.9	0.00e+00	0	38	0	14109638656	22	16823
2026-01-29 22:12:38.00	50.18	27.65	-23.1	-23.6	16.9	0.00e+00	0	38	0	14185136128	22	16462
2026-01-29 22:12:39.01	50.53	27.84	-23.2	-23.7	17.0	0.00e+00	0	38	0	14252244992	22	16709
2026-01-29 22:12:40.02	50.88	28.02	-23.1	-23.6	17.0	0.00e+00	0	38	0	14327742464	22	16531
2026-01-29 22:12:41.03	51.23	28.21	-23.1	-23.6	17.0	0.00e+00	0	38	0	14411628544	22	16488
2026-01-29 22:12:42.04	51.58	28.40	-23.0	-23.5	16.9	0.00e+00	0	38	0	14487126016	22	16362
2026-01-29 22:12:43.05	51.94	28.59	-23.1	-23.6	17.0	0.00e+00	0	38	0	14562623488	22	16483
2026-01-29 22:12:44.06	52.31	28.78	-23.0	-23.5	17.0	0.00e+00	0	38	0	14638120960	22	16355
2026-01-29 22:12:45.07	52.68	28.97	-23.0	-23.5	17.0	0.00e+00	0	38	0	14713618432	22	16296
2026-01-29 22:12:46.08	53.06	29.16	-22.8	-23.2	16.9	0.00e+00	0	38	0	14789115904	22	15846
2026-01-29 22:12:47.09	53.44	29.35	-22.7	-23.2	16.8	0.00e+00	0	38	0	14864613376	20	17643
2026-01-29 22:12:48.10	53.82	29.54	-22.7	-23.2	16.9	0.00e+00	0	38	0	14940110848	20	17692
2026-01-29 22:12:49.11	54.21	29.73	-22.9	-23.3	16.9	0.00e+00	0	38	0	15015608320	20	17976
2026-01-29 22:12:50.12	54.60	29.92	-22.9	-23.4	16.9	0.00e+00	0	38	0	15091105792	20	18015
2026-01-29 22:12:51.13	55.00	30.11	-22.7	-23.2	16.9	0.00e+00	0	38	0	15166603264	20	17687
2026-01-29 22:12:52.14	55.41	30.31	-22.9	-23.4	17.0	0.00e+00	0	38	0	15242100736	20	18101
2026-01-29 22:12:53.15	55.82	30.50	-22.6	-23.1	17.0	0.00e+00	0	38	0	15317598208	20	17431
2026-01-29 22:12:54.16	56.23	30.69	-22.8	-23.2	17.0	0.00e+00	0	38	0	15393095680	20	17804
2026-01-29 22:12:55.17	56.65	30.88	-22.6	-23.0	17.0	0.00e+00	0	38	0	15468593152	20	17383
2026-01-29 22:12:56.18	57.08	31.07	-22.4	-22.9	17.0	0.00e+00	0	38	0	15544090624	20	17100
2026-01-29 22:12:57.19	57.51	31.26	-22.5	-22.9	17.1	0.00e+00	0	38	0	15619588096	20	17140
2026-01-29 22:12:58.20	57.95	31.45	-22.4	-22.8	17.0	0.00e+00	0	38	0	15695085568	20	16995
2026-01-29 22:12:59.21	58.39	31.64	-22.3	-22.7	16.9	0.00e+00	0	38	0	15770583040	20	16733
2026-01-29 22:13:00.22	58.84	31.83	-22.4	-22.8	16.8	0.00e+00	0	38	0	15846080512	20	16913
2026-01-29 22:13:01.23	59.29	32.02	-22.2	-22.7	17.0	0.00e+00	0	38	0	15921577984	20	16635
2026-01-29 22:13:02.24	59.75	32.21	-22.3	-22.7	17.0	0.00e+00	0	38	0	15997075456	20	16784
2026-01-29 22:13:03.25	60.21	32.40	-22.2	-22.6	17.0	0.00e+00	0	38	0	16072572928	20	16586
2026-01-29 22:13:04.26	60.68	32.59	-22.1	-22.6	17.0	0.00e+00	0	38	0	16148070400	20	16501
2026-01-29 22:13:05.27	61.16	32.78	-22.1	-22.6	17.1	0.00e+00	0	38	0	16223567872	20	16482
2026-01-29 22:13:06.28	61.64	32.97	-22.1	-22.6	17.1	0.00e+00	0	38	0	16299065344	20	16505
2026-01-29 22:13:07.29	62.13	33.15	-22.0	-22.4	17.0	0.00e+00	0	38	0	16382951424	20	16203
2026-01-29 22:13:08.30	62.62	33.34	-22.1	-22.6	17.1	0.00e+00	0	38	0	16450060288	20	16474
2026-01-29 22:13:09.31	63.12	33.52	-22.1	-22.6	17.1	0.00e+00	0	38	0	16525557760	20	16498
2026-01-29 22:13:10.32	63.63	33.70	-21.9	-22.4	17.1	0.00e+00	0	38	0	16601055232	20	16154
2026-01-29 22:13:11.33	64.14	33.89	-21.9	-22.4	17.1	0.00e+00	0	38	0	16676552704	20	16172
2026-01-29 22:13:12.33	64.65	34.07	-21.8	-22.3	17.1	0.00e+00	0	38	0	16760438784	20	15914
2026-01-29 22:13:13.35	65.18	34.25	-21.9	-22.3	17.1	0.00e+00	0	38	0	16835936256	20	15998
2026-01-29 22:13:14.36	65.71	34.43	-21.8	-22.2	17.0	0.00e+00	0	38	0	16911433728	18	17762
2026-01-29 22:13:15.37	66.25	34.60	-21.7	-22.1	17.1	0.00e+00	0	38	0	16978542592	18	17583
2026-01-29 22:13:16.38	66.79	34.78	-21.7	-22.1	17.1	0.00e+00	0	38	0	17054040064	18	17590
2026-01-29 22:13:17.39	67.34	34.95	-21.7	-22.1	17.1	0.00e+00	0	38	0	17137926144	18	17584
2026-01-29 22:13:18.39	67.89	35.13	-21.7	-22.2	17.0	0.00e+00	0	38	0	17213423616	18	17726
2026-01-29 22:13:19.41	68.45	35.30	-21.6	-22.0	17.1	0.00e+00	0	38	0	17288921088	18	17361
2026-01-29 22:13:20.41	69.02	35.46	-21.5	-22.0	17.1	0.00e+00	0	38	0	17364418560	18	17299
2026-01-29 22:13:21.42	69.59	35.63	-21.6	-22.1	17.0	0.00e+00	0	38	0	17439916032	18	17440
2026-01-29 22:13:22.43	70.17	35.80	-21.6	-22.1	17.0	0.00e+00	0	38	0	17515413504	18	17471
2026-01-29 22:13:23.44	70.75	35.96	-21.8	-22.2	17.1	0.00e+00	0	38	0	17590910976	18	17735
2026-01-29 22:13:24.45	71.35	36.12	-21.5	-21.9	17.1	0.00e+00	0	38	0	17666408448	18	17168
2026-01-29 22:13:25.45	71.94	36.28	-21.5	-22.0	17.1	0.00e+00	0	38	0	17741905920	18	17248
2026-01-29 22:13:26.46	72.54	36.43	-21.5	-22.0	17.2	0.00e+00	0	38	0	17817403392	18	17245
2026-01-29 22:13:27.47	73.15	36.59	-21.5	-21.9	17.1	0.00e+00	0	38	0	17892900864	18	17175
2026-01-29 22:13:28.48	73.77	36.74	-21.3	-21.8	17.1	0.00e+00	0	38	0	17968398336	18	16910
2026-01-29 22:13:29.48	74.38	36.88	-21.4	-21.8	17.1	0.00e+00	0	38	0	18043895808	18	16951
2026-01-29 22:13:30.49	75.01	37.03	-21.3	-21.8	17.1	0.00e+00	0	38	0	18119393280	18	16832
2026-01-29 22:13:31.50	75.64	37.17	-21.4	-21.8	17.1	0.00e+00	0	38	0	18194890752	18	16948
2026-01-29 22:13:32.51	76.28	37.31	-21.3	-21.7	17.1	0.00e+00	0	38	0	18270388224	18	16776
2026-01-29 22:13:33.52	76.93	37.44	-21.2	-21.7	17.1	0.00e+00	0	38	0	18345885696	18	16669
2026-01-29 22:13:34.53	77.58	37.58	-21.2	-21.7	17.1	0.00e+00	0	38	0	18421383168	18	16635
2026-01-29 22:13:35.54	78.23	37.70	-21.2	-21.6	17.1	0.00e+00	0	38	0	18496880640	18	16582
2026-01-29 22:13:36.55	78.89	37.83	-21.2	-21.7	17.1	0.00e+00	0	38	0	18572378112	18	16647
2026-01-29 22:13:37.56	79.56	37.95	-21.1	-21.6	17.2	0.00e+00	0	38	0	18647875584	18	16516
2026-01-29 22:13:38.57	80.23	38.07	-21.2	-21.6	17.1	0.00e+00	0	38	0	18723373056	18	16610
2026-01-29 22:13:39.58	80.91	38.19	-21.1	-21.6	17.1	0.00e+00	0	38	0	18798870528	18	16466
2026-01-29 22:13:40.59	81.59	38.30	-21.0	-21.5	17.1	0.00e+00	0	38	0	18874368000	18	16375
2026-01-29 22:13:41.60	82.28	38.40	-21.0	-21.5	17.1	0.00e+00	0	38	0	18949865472	18	16294
2026-01-29 22:13:42.61	82.97	38.51	-21.1	-21.6	17.1	0.00e+00	0	38	0	19025362944	18	16506
2026-01-29 22:13:43.62	83.66	38.61	-21.0	-21.5	17.1	0.00e+00	0	38	0	19100860416	18	16337
2026-01-29 22:13:44.63	84.36	38.70	-21.0	-21.5	17.2	0.00e+00	0	38	0	19176357888	18	16336
2026-01-29 22:13:45.64	85.07	38.79	-21.0	-21.5	17.1	0.00e+00	0	38	0	19251855360	18	16293
2026-01-29 22:13:46.65	85.77	38.88	-21.1	-21.5	17.1	0.00e+00	0	38	0	19327352832	18	16398
2026-01-29 22:13:47.66	86.49	38.96	-21.2	-21.7	17.1	0.00e+00	0	38	0	19402850304	18	16638
2026-01-29 22:13:48.67	87.20	39.03	-21.0	-21.4	17.1	0.00e+00	0	38	0	19478347776	18	16175
2026-01-29 22:13:49.68	87.92	39.11	-21.0	-21.5	17.1	0.00e+00	0	38	0	19553845248	18	16333
2026-01-29 22:13:50.69	88.64	39.17	-21.0	-21.5	17.1	0.00e+00	0	38	0	19637731328	18	16262
2026-01-29 22:13:51.70	89.37	39.24	-21.2	-21.6	17.1	0.00e+00	0	38	0	19704840192	18	16551
2026-01-29 22:13:52.71	90.10	39.30	-21.1	-21.6	17.0	0.00e+00	0	38	0	19780337664	18	16459
2026-01-29 22:13:53.72	90.83	39.35	-20.9	-21.4	17.0	0.00e+00	0	38	0	19855835136	18	16075
2026-01-29 22:13:54.73	91.56	39.40	-21.1	-21.5	17.1	0.00e+00	0	38	0	19931332608	18	16390
2026-01-29 22:13:55.73	92.29	39.44	-20.9	-21.3	17.1	0.00e+00	0	38	0	20015218688	18	16027
2026-01-29 22:13:56.74	93.02	39.48	-20.9	-21.4	17.1	0.00e+00	0	38	0	20090716160	18	16183
2026-01-29 22:13:57.75	93.76	39.51	-21.1	-21.6	17.1	0.00e+00	0	38	0	20166213632	18	16493
2026-01-29 22:13:58.76	94.50	39.54	-20.9	-21.3	17.1	0.00e+00	0	38	0	20241711104	18	16009
2026-01-29 22:13:59.77	95.24	39.56	-20.9	-21.3	17.1	0.00e+00	0	38	0	20308819968	18	16047
2026-01-29 22:14:00.78	95.99	39.58	-21.0	-21.5	17.1	0.00e+00	0	38	0	20384317440	18	16263
2026-01-29 22:14:01.79	96.73	39.60	-20.8	-21.3	17.1	0.00e+00	0	38	0	20468203520	18	15953
2026-01-29 22:14:02.80	97.47	39.60	-21.0	-21.5	17.1	0.00e+00	0	38	0	20543700992	18	16306
2026-01-29 22:14:03.81	98.22	39.61	-21.0	-21.5	17.1	0.00e+00	0	38	0	20619198464	18	16313
2026-01-29 22:14:04.82	98.96	39.60	-21.0	-21.5	17.1	0.00e+00	0	38	0	20694695936	18	16302
2026-01-29 22:14:05.83	99.71	39.60	-20.9	-21.3	17.1	0.00e+00	0	38	0	20770193408	18	16010
2026-01-29 22:14:06.84	100.45	39.58	-20.9	-21.4	17.1	0.00e+00	0	38	0	20845690880	18	16076
2026-01-29 22:14:07.85	101.19	39.57	-21.0	-21.4	17.1	0.00e+00	0	38	0	20921188352	18	16189
2026-01-29 22:14:08.85	101.93	39.54	-20.9	-21.3	17.1	0.00e+00	0	38	0	20996685824	18	16029
2026-01-29 22:14:09.86	102.67	39.52	-20.9	-21.3	17.2	0.00e+00	0	38	0	21072183296	18	16032
2026-01-29 22:14:10.87	103.41	39.48	-20.9	-21.3	17.1	0.00e+00	0	38	0	21147680768	18	16048
2026-01-29 22:14:11.89	104.15	39.44	-20.9	-21.4	17.1	0.00e+00	0	38	0	21223178240	18	16078
2026-01-29 22:14:12.89	104.88	39.40	-20.9	-21.4	17.1	0.00e+00	0	38	0	21298675712	18	16097
2026-01-29 22:14:13.90	105.61	39.35	-20.9	-21.3	17.2	0.00e+00	0	38	0	21374173184	18	16013
2026-01-29 22:14:14.91	106.34	39.30	-21.0	-21.5	17.1	0.00e+00	0	38	0	21449670656	18	16259
2026-01-29 22:14:15.92	107.07	39.24	-21.0	-21.5	17.1	0.00e+00	0	38	0	21525168128	18	16269
2026-01-29 22:14:16.93	107.80	39.18	-21.0	-21.5	17.3	0.00e+00	0	38	0	21600665600	18	16283
2026-01-29 22:14:17.94	108.52	39.11	-21.0	-21.5	17.1	0.00e+00	0	38	0	21676163072	18	16340
2026-01-29 22:14:18.95	109.24	39.04	-20.9	-21.4	17.2	0.00e+00	0	38	0	21751660544	18	16153
2026-01-29 22:14:19.96	109.96	38.96	-21.1	-21.6	17.1	0.00e+00	0	38	0	21827158016	18	16466
2026-01-29 22:14:20.97	110.67	38.88	-20.9	-21.4	17.2	0.00e+00	0	38	0	21902655488	18	16153
2026-01-29 22:14:21.98	111.38	38.80	-21.1	-21.6	17.1	0.00e+00	0	38	0	21978152960	18	16453
2026-01-29 22:14:22.99	112.08	38.71	-21.1	-21.6	17.1	0.00e+00	0	38	0	22053650432	18	16509
2026-01-29 22:14:23.99	112.78	38.61	-21.1	-21.6	17.1	0.00e+00	0	38	0	22129147904	18	16451
2026-01-29 22:14:25.00	113.47	38.52	-21.0	-21.5	17.2	0.00e+00	0	38	0	22204645376	18	16295
2026-01-29 22:14:26.01	114.17	38.41	-21.1	-21.6	17.1	0.00e+00	0	38	0	22280142848	18	16452
2026-01-29 22:14:27.02	114.85	38.31	-21.2	-21.7	17.1	0.00e+00	0	38	0	22355640320	18	16622
2026-01-29 22:14:28.03	115.54	38.20	-21.2	-21.6	17.1	0.00e+00	0	38	0	22431137792	18	16581
2026-01-29 22:14:29.04	116.21	38.08	-21.2	-21.7	17.1	0.00e+00	0	38	0	22506635264	18	16667
2026-01-29 22:14:30.05	116.89	37.96	-21.3	-21.7	17.1	0.00e+00	0	38	0	22582132736	18	16739
2026-01-29 22:14:31.06	117.55	37.84	-21.2	-21.6	17.2	0.00e+00	0	38	0	22657630208	18	16572
2026-01-29 22:14:32.07	118.22	37.72	-21.2	-21.7	17.1	0.00e+00	0	38	0	22733127680	18	16629
2026-01-29 22:14:33.08	118.87	37.59	-21.3	-21.7	17.2	0.00e+00	0	38	0	22817013760	18	16773
2026-01-29 22:14:34.09	119.53	37.45	-21.2	-21.7	17.2	0.00e+00	0	38	0	22892511232	18	16646
2026-01-29 22:14:35.10	120.17	37.32	-21.3	-21.7	17.2	0.00e+00	0	38	0	22959620096	18	16803
2026-01-29 22:14:36.11	120.81	37.18	-21.3	-21.7	17.1	0.00e+00	0	38	0	23035117568	18	16735
2026-01-29 22:14:37.12	121.45	37.04	-21.4	-21.9	17.1	0.00e+00	0	38	0	23110615040	18	17115
2026-01-29 22:14:38.13	122.08	36.89	-21.3	-21.7	17.1	0.00e+00	0	38	0	23194501120	18	16747
2026-01-29 22:14:39.14	122.70	36.75	-21.3	-21.8	17.1	0.00e+00	0	38	0	23269998592	18	16822
2026-01-29 22:14:40.15	123.32	36.60	-21.3	-21.8	17.1	0.00e+00	0	38	0	23345496064	18	16915
2026-01-29 22:14:41.16	123.93	36.44	-21.3	-21.8	17.1	0.00e+00	0	39	0	23420993536	18	16864
2026-01-29 22:14:42.16	124.53	36.29	-21.4	-21.9	17.1	0.00e+00	0	38	0	23496491008	18	17012
2026-01-29 22:14:43.17	125.12	36.13	-21.5	-21.9	17.1	0.00e+00	0	38	0	23563599872	18	17164
2026-01-29 22:14:44.18	125.72	35.97	-21.6	-22.0	17.1	0.00e+00	0	38	0	23647485952	18	17371
2026-01-29 22:14:45.19	126.30	35.81	-21.5	-21.9	17.1	0.00e+00	0	38	0	23722983424	18	17201
2026-01-29 22:14:46.20	126.89	35.64	-21.5	-21.9	17.1	0.00e+00	0	38	0	23798480896	18	17173
2026-01-29 22:14:47.21	127.46	35.47	-21.5	-22.0	17.1	0.00e+00	0	38	0	23873978368	18	17262
2026-01-29 22:14:48.22	128.03	35.30	-21.7	-22.1	17.1	0.00e+00	0	38	0	23949475840	18	17575
2026-01-29 22:14:49.23	128.59	35.13	-21.6	-22.0	17.0	0.00e+00	0	39	0	24024973312	18	17325
2026-01-29 22:14:50.24	129.15	34.96	-21.6	-22.1	17.1	0.00e+00	0	39	0	24100470784	18	17436
2026-01-29 22:14:51.25	129.70	34.79	-21.6	-22.1	17.0	0.00e+00	0	38	0	24175968256	18	17465
2026-01-29 22:14:52.26	130.24	34.61	-21.6	-22.1	17.0	0.00e+00	0	38	0	24251465728	18	17495
2026-01-29 22:14:53.27	130.78	34.43	-21.7	-22.2	17.1	0.00e+00	0	38	0	24326963200	18	17739
2026-01-29 22:14:54.27	131.30	34.26	-21.7	-22.2	17.1	0.00e+00	0	38	0	24402460672	18	17619
2026-01-29 22:14:55.28	131.83	34.08	-21.9	-22.4	17.1	0.00e+00	0	39	0	24477958144	18	18057
2026-01-29 22:14:56.29	132.35	33.89	-21.8	-22.2	17.1	0.00e+00	0	38	0	24553455616	18	17749
2026-01-29 22:14:57.30	132.86	33.71	-21.8	-22.3	17.1	0.00e+00	0	39	0	24628953088	18	17854
2026-01-29 22:14:58.31	133.37	33.53	-22.0	-22.4	17.1	0.00e+00	0	39	0	24704450560	18	18154
2026-01-29 22:14:59.32	133.87	33.34	-21.9	-22.4	17.1	0.00e+00	0	38	0	24779948032	18	18099
2026-01-29 22:15:00.33	134.36	33.16	-21.9	-22.4	17.1	0.00e+00	0	38	0	24855445504	18	18061
2026-01-29 22:15:01.34	134.85	32.97	-22.1	-22.6	17.1	0.00e+00	0	38	0	24930942976	18	18495
2026-01-29 22:15:02.35	135.34	32.78	-22.0	-22.5	17.1	0.00e+00	0	38	0	25006440448	18	18281
2026-01-29 22:15:03.36	135.81	32.59	-22.0	-22.5	17.1	0.00e+00	0	38	0	25081937920	18	18314
2026-01-29 22:15:04.37	136.29	32.41	-22.1	-22.5	17.1	0.00e+00	0	38	0	25157435392	18	18360
2026-01-29 22:15:05.38	136.75	32.22	-22.1	-22.6	17.0	0.00e+00	0	38	0	25232932864	18	18484
2026-01-29 22:15:06.39	137.21	32.03	-22.2	-22.6	17.1	0.00e+00	0	38	0	25308430336	18	18602
2026-01-29 22:15:07.39	137.66	31.84	-22.3	-22.7	17.1	0.00e+00	0	39	0	25383927808	18	18831
2026-01-29 22:15:08.40	138.11	31.65	-22.2	-22.7	17.1	0.00e+00	0	38	0	25459425280	18	18803
2026-01-29 22:15:09.41	138.55	31.46	-22.3	-22.8	17.1	0.00e+00	0	38	0	25534922752	18	18943
2026-01-29 22:15:10.42	138.99	31.26	-22.3	-22.8	17.0	0.00e+00	0	39	0	25610420224	18	18939
2026-01-29 22:15:11.43	139.42	31.07	-22.4	-22.9	17.1	0.00e+00	0	38	0	25685917696	18	19100
2026-01-29 22:15:12.44	139.85	30.88	-22.4	-22.9	17.0	0.00e+00	0	39	0	25761415168	18	19229
2026-01-29 22:15:13.45	140.27	30.69	-22.6	-23.0	17.0	0.00e+00	0	38	0	25836912640	18	19486
2026-01-29 22:15:14.46	140.69	30.50	-22.4	-22.9	17.1	0.00e+00	0	38	0	25912410112	18	19220
2026-01-29 22:15:15.47	141.10	30.30	-22.5	-23.0	17.1	0.00e+00	0	38	0	25987907584	18	19393
2026-01-29 22:15:16.48	141.50	30.11	-22.6	-23.0	17.1	0.00e+00	0	38	0	26063405056	18	19485
2026-01-29 22:15:17.49	141.90	29.92	-22.6	-23.0	17.1	0.00e+00	0	39	0	26147291136	18	19518
2026-01-29 22:15:18.50	142.30	29.73	-22.5	-23.0	17.1	0.00e+00	0	38	0	26222788608	18	19457
2026-01-29 22:15:19.51	142.69	29.54	-22.6	-23.1	17.1	0.00e+00	0	39	0	26289897472	18	19653
2026-01-29 22:15:20.52	143.08	29.35	-22.7	-23.1	17.1	0.00e+00	0	38	0	26365394944	18	19745
2026-01-29 22:15:21.52	143.45	29.16	-22.7	-23.2	17.0	0.00e+00	0	38	0	26440892416	18	19765
2026-01-29 22:15:22.53	143.83	28.97	-22.8	-23.3	17.0	0.00e+00	0	38	0	26524778496	20	17838
2026-01-29 22:15:23.54	144.20	28.77	-22.8	-23.3	17.0	0.00e+00	0	38	0	26600275968	20	17867
2026-01-29 22:15:24.56	144.57	28.58	-22.9	-23.4	17.0	0.00e+00	0	38	0	26675773440	20	18103
2026-01-29 22:15:25.57	144.93	28.39	-22.9	-23.3	17.0	0.00e+00	0	38	0	26751270912	20	17985
2026-01-29 22:15:26.58	145.29	28.20	-22.9	-23.4	17.0	0.00e+00	0	38	0	26818379776	20	18152
2026-01-29 22:15:27.59	145.64	28.01	-23.0	-23.5	17.0	0.00e+00	0	38	0	26902265856	20	18287
2026-01-29 22:15:28.60	145.99	27.83	-23.0	-23.4	17.0	0.00e+00	0	38	0	26977763328	20	18177
2026-01-29 22:15:29.61	146.34	27.64	-23.1	-23.6	17.0	0.00e+00	0	38	0	27053260800	20	18464
2026-01-29 22:15:30.62	146.68	27.45	-23.1	-23.5	17.0	0.00e+00	0	38	0	27128758272	20	18391
2026-01-29 22:15:31.63	147.01	27.26	-23.1	-23.6	17.1	0.00e+00	0	38	0	27204255744	20	18462
2026-01-29 22:15:32.64	147.34	27.08	-23.2	-23.7	17.0	0.00e+00	0	39	0	27279753216	20	18768
2026-01-29 22:15:33.65	147.67	26.89	-23.2	-23.7	17.0	0.00e+00	0	39	0	27355250688	20	18789
2026-01-29 22:15:34.66	147.99	26.71	-23.4	-23.9	17.0	0.00e+00	0	38	0	27430748160	20	19107
2026-01-29 22:15:35.67	148.31	26.52	-23.3	-23.8	17.0	0.00e+00	0	39	0	27506245632	20	18861
2026-01-29 22:15:36.68	148.63	26.34	-23.5	-24.0	17.0	0.00e+00	0	38	0	27581743104	20	19389
2026-01-29 22:15:37.69	148.94	26.15	-23.4	-23.8	17.0	0.00e+00	0	38	0	27657240576	20	19058
2026-01-29 22:15:38.70	149.25	25.97	-23.5	-24.0	16.9	0.00e+00	0	38	0	27732738048	20	19395
2026-01-29 22:15:39.71	149.55	25.79	-23.5	-24.0	17.0	0.00e+00	0	38	0	27808235520	20	19426
2026-01-29 22:15:40.72	149.85	25.61	-23.5	-23.9	17.0	0.00e+00	0	38	0	27883732992	20	19245
2026-01-29 22:15:41.73	150.14	25.43	-23.5	-24.0	16.9	0.00e+00	0	38	0	27959230464	20	19388
2026-01-29 22:15:42.74	150.44	25.25	-23.7	-24.2	16.9	0.00e+00	0	39	0	28034727936	20	19800
2026-01-29 22:15:43.75	150.73	25.07	-23.7	-24.1	17.0	0.00e+00	0	38	0	28110225408	20	19731
2026-01-29 22:15:44.75	151.01	24.89	-23.7	-24.2	17.0	0.00e+00	0	38	0	28185722880	22	17605
2026-01-29 22:15:45.76	151.29	24.72	-23.9	-24.3	17.0	0.00e+00	0	38	0	28261220352	22	18000
2026-01-29 22:15:46.77	151.57	24.54	-23.8	-24.3	16.9	0.00e+00	0	38	0	28336717824	22	17957
2026-01-29 22:15:47.78	151.84	24.36	-23.8	-24.3	16.9	0.00e+00	0	38	0	28412215296	22	17810
2026-01-29 22:15:48.79	152.12	24.19	-23.9	-24.4	16.9	0.00e+00	0	39	0	28487712768	22	18035
2026-01-29 22:15:49.80	152.38	24.02	-23.9	-24.4	16.9	0.00e+00	0	39	0	28563210240	22	18119
2026-01-29 22:15:50.82	152.65	23.84	-24.0	-24.4	16.9	0.00e+00	0	38	0	28638707712	22	18211
2026-01-29 22:15:51.83	152.91	23.67	-24.0	-24.5	16.9	0.00e+00	0	38	0	28714205184	22	18223
2026-01-29 22:15:52.84	153.17	23.50	-24.0	-24.5	16.9	0.00e+00	0	39	0	28798091264	22	18230
2026-01-29 22:15:53.85	153.43	23.33	-24.1	-24.6	16.9	0.00e+00	0	39	0	28873588736	22	18503
2026-01-29 22:15:54.85	153.68	23.16	-24.1	-24.6	16.9	0.00e+00	0	39	0	28949086208	22	18576
2026-01-29 22:15:55.86	153.93	22.99	-24.1	-24.6	16.9	0.00e+00	0	39	0	29016195072	22	18443
2026-01-29 22:15:56.87	154.18	22.82	-24.2	-24.7	16.9	0.00e+00	0	38	0	29091692544	22	18769
2026-01-29 22:15:57.88	154.42	22.65	-24.2	-24.7	16.9	0.00e+00	0	39	0	29175578624	22	18769
2026-01-29 22:15:58.89	154.66	22.49	-24.3	-24.8	16.8	0.00e+00	0	39	0	29251076096	22	18907
2026-01-29 22:15:59.90	154.90	22.32	-24.3	-24.8	16.9	0.00e+00	0	39	0	29326573568	22	18968
2026-01-29 22:16:00.91	155.14	22.16	-24.4	-24.8	16.9	0.00e+00	0	38	0	29402071040	22	19066
2026-01-29 22:16:01.93	155.37	21.99	-24.4	-24.9	16.9	0.00e+00	0	39	0	29477568512	22	19084
2026-01-29 22:16:02.93	155.60	21.83	-24.5	-25.0	16.9	0.00e+00	0	38	0	29553065984	22	19463
2026-01-29 22:16:03.95	155.83	21.67	-24.5	-24.9	16.9	0.00e+00	0	39	0	29628563456	22	19282
2026-01-29 22:16:04.95	156.05	21.51	-24.6	-25.0	16.9	0.00e+00	0	39	0	29704060928	22	19471
2026-01-29 22:16:05.96	156.27	21.35	-24.5	-25.0	16.9	0.00e+00	0	39	0	29779558400	22	19411
2026-01-29 22:16:06.97	156.49	21.19	-24.6	-25.1	16.8	0.00e+00	0	39	0	29855055872	22	19534
2026-01-29 22:16:07.98	156.71	21.03	-24.7	-25.2	16.9	0.00e+00	0	39	0	29930553344	24	17716
2026-01-29 22:16:08.99	156.93	20.87	-24.7	-25.2	16.9	0.00e+00	0	39	0	30006050816	24	17604
2026-01-29 22:16:10.00	157.14	20.71	-24.8	-25.3	16.8	0.00e+00	0	38	0	30081548288	24	17815
2026-01-29 22:16:11.01	157.35	20.56	-24.7	-25.2	16.8	0.00e+00	0	39	0	30157045760	24	17699
2026-01-29 22:16:12.02	157.56	20.40	-24.8	-25.2	16.8	0.00e+00	0	39	0	30232543232	24	17785
2026-01-29 22:16:13.03	157.76	20.25	-24.9	-25.3	16.8	0.00e+00	0	38	0	30308040704	24	17980
2026-01-29 22:16:14.04	157.96	20.09	-25.0	-25.4	16.8	0.00e+00	0	39	0	30383538176	24	18182
2026-01-29 22:16:15.05	158.17	19.94	-24.9	-25.4	16.8	0.00e+00	0	39	0	30459035648	24	18042
2026-01-29 22:16:16.06	158.36	19.79	-25.0	-25.4	16.8	0.00e+00	0	39	0	30534533120	24	18173
2026-01-29 22:16:17.07	158.56	19.64	-25.0	-25.5	16.8	0.00e+00	0	38	0	30610030592	24	18305
2026-01-29 22:16:18.08	158.76	19.49	-25.1	-25.5	16.8	0.00e+00	0	39	0	30685528064	24	18385
2026-01-29 22:16:19.09	158.95	19.34	-25.1	-25.6	16.8	0.00e+00	0	38	0	30761025536	24	18560
2026-01-29 22:16:20.10	159.14	19.19	-25.1	-25.6	16.8	0.00e+00	0	39	0	30836523008	24	18563
2026-01-29 22:16:21.11	159.33	19.04	-25.2	-25.6	16.8	0.00e+00	0	39	0	30912020480	24	18593
2026-01-29 22:16:22.12	159.51	18.90	-25.3	-25.8	16.7	0.00e+00	0	39	0	30987517952	24	18912
2026-01-29 22:16:23.12	159.69	18.75	-25.3	-25.8	16.7	0.00e+00	0	39	0	31063015424	24	18899
2026-01-29 22:16:24.13	159.88	18.61	-25.3	-25.8	16.7	0.00e+00	0	39	0	31138512896	24	18908
2026-01-29 22:16:25.14	160.06	18.46	-25.3	-25.8	16.7	0.00e+00	0	38	0	31214010368	24	18994
2026-01-29 22:16:26.15	160.24	18.32	-25.3	-25.8	16.7	0.00e+00	0	38	0	31289507840	24	18993
2026-01-29 22:16:27.16	160.41	18.18	-25.3	-25.8	16.7	0.00e+00	0	39	0	31365005312	24	18993
2026-01-29 22:16:28.17	160.59	18.04	-25.4	-25.9	16.7	0.00e+00	0	39	0	31440502784	24	19103
2026-01-29 22:16:29.18	160.76	17.90	-25.6	-26.0	16.7	0.00e+00	0	39	0	31516000256	24	19506
2026-01-29 22:16:30.19	160.93	17.76	-25.5	-26.0	16.7	0.00e+00	0	39	0	31599886336	24	19357
2026-01-29 22:16:31.20	161.10	17.62	-25.7	-26.2	16.7	0.00e+00	0	38	0	31666995200	24	19921
2026-01-29 22:16:32.21	161.27	17.48	-25.7	-26.1	16.7	0.00e+00	0	38	0	31742492672	24	19687
2026-01-29 22:16:33.22	161.43	17.34	-25.7	-26.2	16.7	0.00e+00	0	39	0	31817990144	26	17637
2026-01-29 22:16:34.23	161.60	17.20	-25.8	-26.3	16.6	0.00e+00	0	39	0	31893487616	26	17821
2026-01-29 22:16:35.23	161.76	17.07	-25.8	-26.3	16.6	0.00e+00	0	39	0	31977373696	26	17847
2026-01-29 22:16:36.24	161.92	16.93	-25.8	-26.2	16.6	0.00e+00	0	39	0	32052871168	26	17761
2026-01-29 22:16:37.25	162.08	16.80	-25.9	-26.4	16.6	0.00e+00	0	39	0	32128368640	26	18036
2026-01-29 22:16:38.26	162.24	16.66	-25.9	-26.4	16.6	0.00e+00	0	39	0	32203866112	26	18054
2026-01-29 22:16:39.27	162.39	16.53	-25.8	-26.3	16.6	0.00e+00	0	39	0	32270974976	26	17937
2026-01-29 22:16:40.28	162.55	16.40	-25.9	-26.4	16.6	0.00e+00	0	39	0	32354861056	26	18092
2026-01-29 22:16:41.29	162.70	16.27	-25.9	-26.4	16.6	0.00e+00	0	39	0	32430358528	26	18092
2026-01-29 22:16:42.30	162.85	16.13	-26.0	-26.5	16.6	0.00e+00	0	39	0	32505856000	26	18327
2026-01-29 22:16:43.31	163.00	16.00	-26.2	-26.6	16.6	0.00e+00	0	39	0	32581353472	26	18632
2026-01-29 22:16:44.32	163.15	15.88	-26.2	-26.7	16.6	0.00e+00	0	39	0	32656850944	26	18652
2026-01-29 22:16:45.33	163.30	15.75	-26.1	-26.6	16.6	0.00e+00	0	39	0	32732348416	26	18573
2026-01-29 22:16:46.34	163.44	15.62	-26.1	-26.6	16.6	0.00e+00	0	39	0	32807845888	26	18471
2026-01-29 22:16:47.35	163.59	15.49	-26.1	-26.6	16.6	0.00e+00	0	39	0	32883343360	26	18570
2026-01-29 22:16:48.35	163.73	15.37	-26.2	-26.7	16.6	0.00e+00	0	39	0	32958840832	26	18698
2026-01-29 22:16:49.36	163.87	15.24	-26.4	-26.8	16.5	0.00e+00	0	39	0	33034338304	26	19044
2026-01-29 22:16:50.37	164.01	15.11	-26.3	-26.8	16.5	0.00e+00	0	39	0	33109835776	26	18907
2026-01-29 22:16:51.38	164.15	14.99	-26.3	-26.8	16.5	0.00e+00	0	38	0	33185333248	26	18932
2026-01-29 22:16:52.39	164.29	14.87	-26.5	-26.9	16.5	0.00e+00	0	39	0	33260830720	26	19253
2026-01-29 22:16:53.40	164.42	14.74	-26.4	-26.9	16.5	0.00e+00	0	39	0	33336328192	26	19173
2026-01-29 22:16:54.41	164.56	14.62	-26.4	-26.9	16.5	0.00e+00	0	38	0	33411825664	26	19170
2026-01-29 22:16:55.43	164.69	14.50	-26.6	-27.0	16.4	0.00e+00	0	39	0	33487323136	26	19473
2026-01-29 22:16:56.44	164.82	14.38	-26.6	-27.1	16.4	0.00e+00	0	39	0	33562820608	26	19690
2026-01-29 22:16:57.45	164.95	14.25	-26.7	-27.1	16.5	0.00e+00	0	39	0	33638318080	28	17567
2026-01-29 22:16:58.46	165.08	14.13	-26.6	-27.1	16.5	0.00e+00	0	38	0	33713815552	28	17438
2026-01-29 22:16:59.47	165.21	14.02	-26.6	-27.1	16.5	0.00e+00	0	38	0	33789313024	28	17470
2026-01-29 22:17:00.48	165.34	13.90	-26.8	-27.2	16.5	0.00e+00	0	38	0	33864810496	28	17790
2026-01-29 22:17:01.49	165.47	13.78	-27.0	-27.4	16.4	0.00e+00	0	38	0	33940307968	28	18205
2026-01-29 22:17:02.50	165.59	13.66	-26.8	-27.2	16.5	0.00e+00	0	38	0	34015805440	28	17780
2026-01-29 22:17:03.51	165.72	13.54	-26.8	-27.3	16.4	0.00e+00	0	39	0	34091302912	28	17893
2026-01-29 22:17:04.52	165.84	13.43	-26.7	-27.2	16.4	0.00e+00	0	39	0	34166800384	28	17638
2026-01-29 22:17:05.53	165.96	13.31	-26.9	-27.3	16.4	0.00e+00	0	39	0	34242297856	28	17990
2026-01-29 22:17:06.54	166.08	13.20	-27.0	-27.5	16.4	0.00e+00	0	38	0	34326183936	28	18378
2026-01-29 22:17:07.55	166.20	13.08	-27.0	-27.5	16.4	0.00e+00	0	38	0	34393292800	28	18296
2026-01-29 22:17:08.55	166.32	12.97	-26.9	-27.4	16.5	0.00e+00	0	38	0	34468790272	28	18100
2026-01-29 22:17:09.57	166.44	12.86	-26.9	-27.4	16.4	0.00e+00	0	38	0	34544287744	28	18086
2026-01-29 22:17:10.57	166.55	12.75	-27.0	-27.5	16.4	0.00e+00	0	38	0	34619785216	28	18383
2026-01-29 22:17:11.58	166.67	12.63	-27.0	-27.4	16.4	0.00e+00	0	38	0	34703671296	28	18190
2026-01-29 22:17:12.59	166.78	12.52	-27.1	-27.5	16.4	0.00e+00	0	38	0	34779168768	28	18423
2026-01-29 22:17:13.60	166.90	12.41	-27.1	-27.5	16.3	0.00e+00	0	39	0	34854666240	28	18408
2026-01-29 22:17:14.61	167.01	12.30	-27.1	-27.6	16.4	0.00e+00	0	38	0	34930163712	28	18566
2026-01-29 22:17:15.62	167.12	12.19	-27.2	-27.6	16.2	0.00e+00	0	38	0	34997272576	28	18643
2026-01-29 22:17:16.63	167.23	12.08	-27.3	-27.8	16.3	0.00e+00	0	38	0	35081158656	28	18867
2026-01-29 22:17:17.64	167.34	11.97	-27.3	-27.7	16.3	0.00e+00	0	39	0	35156656128	28	18834
2026-01-29 22:17:18.65	167.45	11.87	-27.4	-27.9	16.3	0.00e+00	0	38	0	35232153600	28	19213
2026-01-29 22:17:19.66	167.56	11.76	-27.3	-27.8	16.3	0.00e+00	0	39	0	35307651072	28	18922
2026-01-29 22:17:20.67	167.67	11.65	-27.4	-27.9	16.3	0.00e+00	0	39	0	35383148544	28	19146
2026-01-29 22:17:21.68	167.77	11.55	-27.4	-27.9	16.3	0.00e+00	0	39	0	35458646016	28	19230
2026-01-29 22:17:22.69	167.88	11.44	-27.4	-27.9	16.3	0.00e+00	0	38	0	35534143488	28	19218
2026-01-29 22:17:23.70	167.98	11.33	-27.6	-28.0	16.2	0.00e+00	0	39	0	35609640960	28	19502
2026-01-29 22:17:24.71	168.08	11.23	-27.7	-28.2	16.3	0.00e+00	0	39	0	35685138432	28	19755
2026-01-29 22:17:25.72	168.19	11.13	-27.7	-28.2	16.2	0.00e+00	0	38	0	35760635904	30	17731
2026-01-29 22:17:26.73	168.29	11.02	-27.8	-28.2	16.3	0.00e+00	0	39	0	35836133376	30	17783
2026-01-29 22:17:27.74	168.39	10.92	-27.7	-28.1	16.2	0.00e+00	0	39	0	35911630848	30	17562
2026-01-29 22:17:28.75	168.49	10.82	-27.7	-28.2	16.1	0.00e+00	0	39	0	35987128320	30	17698
2026-01-29 22:17:29.76	168.59	10.71	-27.7	-28.2	16.1	0.00e+00	0	39	0	36062625792	30	17678
2026-01-29 22:17:30.77	168.69	10.61	-27.9	-28.3	15.9	0.00e+00	0	39	0	36138123264	30	17950
2026-01-29 22:17:31.78	168.79	10.51	-27.9	-28.4	15.6	0.00e+00	0	39	0	36213620736	30	18014
2026-01-29 22:17:32.79	168.88	10.41	-27.8	-28.2	15.3	0.00e+00	0	38	0	36289118208	30	17611
2026-01-29 22:17:33.80	168.98	10.31	-27.9	-28.4	15.5	0.00e+00	0	39	0	36364615680	30	18062
2026-01-29 22:17:34.81	169.07	10.21	-28.0	-28.4	15.8	0.00e+00	0	39	0	36440113152	30	18156
2026-01-29 22:17:35.82	169.17	10.11	-27.9	-28.4	15.9	0.00e+00	0	39	0	36515610624	30	18125
2026-01-29 22:17:36.83	169.26	10.01	-28.0	-28.4	16.0	0.00e+00	0	39	0	36591108096	30	18165
2026-01-29 22:17:37.84	169.36	9.91	-28.0	-28.5	16.0	0.00e+00	0	39	0	36666605568	30	18326
2026-01-29 22:17:38.85	169.45	9.81	-28.0	-28.5	16.0	0.00e+00	0	39	0	36742103040	30	18357
2026-01-29 22:17:39.86	169.54	9.72	-28.1	-28.5	16.1	0.00e+00	0	39	0	36817600512	30	18428
2026-01-29 22:17:40.87	169.63	9.62	-28.2	-28.6	16.1	0.00e+00	0	39	0	36893097984	30	18638
2026-01-29 22:17:41.88	169.72	9.52	-28.1	-28.6	16.0	0.00e+00	0	39	0	36976984064	30	18443
2026-01-29 22:17:42.89	169.81	9.43	-28.3	-28.7	16.0	0.00e+00	0	39	0	37052481536	30	18804
2026-01-29 22:17:43.90	169.90	9.33	-28.2	-28.7	16.0	0.00e+00	0	39	0	37119590400	30	18703
2026-01-29 22:17:44.91	169.99	9.24	-28.2	-28.7	16.0	0.00e+00	0	39	0	37195087872	30	18720
2026-01-29 22:17:45.92	170.07	9.14	-28.3	-28.8	16.0	0.00e+00	0	39	0	37270585344	30	18909
2026-01-29 22:17:46.93	170.16	9.05	-28.3	-28.7	16.0	0.00e+00	0	39	0	37354471424	30	18841
2026-01-29 22:17:47.94	170.25	8.95	-28.3	-28.8	16.0	0.00e+00	0	39	0	37429968896	30	18943
2026-01-29 22:17:48.95	170.33	8.86	-28.3	-28.7	16.0	0.00e+00	0	39	0	37505466368	30	18827
2026-01-29 22:17:49.96	170.42	8.77	-28.5	-28.9	15.9	0.00e+00	0	39	0	37580963840	30	19250
2026-01-29 22:17:50.97	170.50	8.67	-28.4	-28.9	15.9	0.00e+00	0	39	0	37656461312	30	19094
2026-01-29 22:17:51.98	170.59	8.58	-28.5	-29.0	15.9	0.00e+00	0	39	0	37723570176	30	19344
2026-01-29 22:17:52.99	170.67	8.49	-28.5	-28.9	15.8	0.00e+00	0	39	0	37807456256	30	19285
2026-01-29 22:17:54.00	170.75	8.40	-28.5	-28.9	15.9	0.00e+00	0	39	0	37882953728	30	19276
2026-01-29 22:17:55.01	170.83	8.31	-28.5	-29.0	15.8	0.00e+00	0	39	0	37958451200	30	19325
2026-01-29 22:17:56.02	170.91	8.22	-28.5	-29.0	15.9	0.00e+00	0	39	0	38033948672	30	19413
2026-01-29 22:17:57.03	171.00	8.13	-28.7	-29.1	15.9	0.00e+00	0	39	0	38109446144	30	19698
2026-01-29 22:17:58.04	171.08	8.04	-28.6	-29.1	15.8	0.00e+00	0	39	0	38184943616	30	19671
2026-01-29 22:17:59.04	171.15	7.95	-28.6	-29.1	15.8	0.00e+00	0	39	0	38260441088	32	17509
2026-01-29 22:18:00.05	171.23	7.86	-28.7	-29.2	15.8	0.00e+00	0	39	0	38335938560	32	17665
2026-01-29 22:18:01.06	171.31	7.77	-28.8	-29.3	15.8	0.00e+00	0	39	0	38411436032	32	17823
2026-01-29 22:18:02.07	171.39	7.68	-28.8	-29.3	15.7	0.00e+00	0	39	0	38486933504	32	17830
2026-01-29 22:18:03.08	171.47	7.59	-29.0	-29.5	15.7	0.00e+00	0	39	0	38562430976	32	18338
2026-01-29 22:18:04.09	171.54	7.50	-29.0	-29.5	15.8	0.00e+00	0	39	0	38637928448	32	18271
2026-01-29 22:18:05.10	171.62	7.42	-29.0	-29.5	15.7	0.00e+00	0	39	0	38713425920	32	18295
2026-01-29 22:18:06.11	171.69	7.33	-29.1	-29.6	15.7	0.00e+00	0	39	0	38788923392	32	18441
2026-01-29 22:18:07.12	171.77	7.24	-29.2	-29.6	15.6	0.00e+00	0	39	0	38864420864	32	18638
2026-01-29 22:18:08.13	171.84	7.16	-29.3	-29.7	15.7	0.00e+00	0	39	0	38939918336	32	18836
2026-01-29 22:18:09.14	171.92	7.07	-29.6	-30.0	15.5	0.00e+00	0	39	0	39015415808	32	19458
2026-01-29 22:18:10.15	171.99	6.99	-29.2	-29.7	15.6	0.00e+00	0	39	0	39090913280	32	18708
2026-01-29 22:18:11.15	172.06	6.90	-29.3	-29.8	15.6	0.00e+00	0	39	0	39166410752	32	18887
2026-01-29 22:18:12.17	172.14	6.81	-29.2	-29.7	15.6	0.00e+00	0	39	0	39241908224	32	18721
2026-01-29 22:18:13.17	172.21	6.73	-29.2	-29.7	15.7	0.00e+00	0	39	0	39317405696	32	18682
2026-01-29 22:18:14.18	172.28	6.65	-29.4	-29.8	15.6	0.00e+00	0	39	0	39392903168	32	19003
2026-01-29 22:18:15.19	172.35	6.56	-29.2	-29.7	15.5	0.00e+00	0	39	0	39468400640	32	18738
2026-01-29 22:18:16.20	172.42	6.48	-29.4	-29.8	15.5	0.00e+00	0	39	0	39543898112	32	19002
2026-01-29 22:18:17.21	172.49	6.40	-29.2	-29.7	15.7	0.00e+00	0	39	0	39619395584	32	18670
2026-01-29 22:18:18.22	172.56	6.31	-29.4	-29.9	3.6	0.00e+00	0	39	104	39694893056	32	19098
2026-01-29 22:18:19.23	172.63	6.23	-48.3	-50.8	3.6	0.00e+00	0	38	104	39694893056	60	42633
2026-01-29 22:18:20.24	172.70	6.15	-48.3	-50.8	3.6	0.00e+00	0	38	104	39694893056	60	42488
2026-01-29 22:18:21.25	172.77	6.07	-48.3	-50.8	3.6	0.00e+00	0	38	104	39694893056	60	42373
2026-01-29 22:18:22.26	172.84	5.98	-48.3	-50.9	3.6	0.00e+00	0	38	104	39694893056	60	42730
2026-01-29 22:18:23.27	172.90	5.90	-48.3	-50.8	3.6	0.00e+00	0	38	104	39694893056	60	42681
2026-01-29 22:18:24.28	172.97	5.82	-48.3	-50.8	3.6	0.00e+00	0	38	104	39694893056	60	42392
2026-01-29 22:18:25.29	173.04	5.74	-48.6	-51.1	3.6	0.00e+00	0	38	104	39694893056	60	43859
2026-01-29 22:18:26.31	173.10	5.66	-48.6	-51.1	3.6	0.00e+00	0	38	104	39694893056	60	43769
2026-01-29 22:18:27.32	173.17	5.58	-48.4	-50.9	3.6	0.00e+00	0	38	104	39694893056	60	42805
2026-01-29 22:18:28.33	173.23	5.50	-48.3	-50.8	3.6	0.00e+00	0	38	104	39694893056	60	42523
2026-01-29 22:18:29.33	173.30	5.42	-48.5	-51.0	3.6	0.00e+00	0	38	104	39694893056	60	43381
2026-01-29 22:18:30.34	173.36	5.34	-48.3	-50.8	3.6	0.00e+00	0	38	104	39694893056	60	42274
2026-01-29 22:18:31.35	173.43	5.26	-48.2	-50.7	3.6	0.00e+00	0	38	104	39694893056	60	42148
2026-01-29 22:18:32.36	173.49	5.18	-48.2	-50.7	3.6	0.00e+00	0	38	104	39694893056	60	41950
2026-01-29 22:18:33.38	173.55	5.11	-48.6	-51.1	3.6	0.00e+00	0	38	104	39694893056	60	43821
2026-01-29 22:18:34.38	173.62	5.03	-48.5	-50.9	3.6	0.00e+00	0	38	104	39694893056	60	43196
2026-01-29 22:18:35.39	173.68	4.95	-48.5	-51.0	3.6	0.00e+00	0	38	104	39694893056	60	43613
2026-01-29 22:18:36.40	173.74	4.87	-48.3	-50.8	3.6	0.00e+00	0	38	104	39694893056	60	42424
2026-01-29 22:18:37.41	173.80	4.80	-48.6	-51.1	3.6	0.00e+00	0	38	104	39694893056	60	43834
2026-01-29 22:18:38.42	173.86	4.72	-48.5	-51.0	3.6	0.00e+00	0	38	104	39694893056	60	43246
2026-01-29 22:18:39.43	173.92	4.64	-48.4	-50.9	3.5	0.00e+00	0	38	104	39694893056	60	42968
2026-01-29 22:18:40.44	173.98	4.57	-48.4	-50.9	3.6	0.00e+00	0	38	104	39694893056	60	42728
2026-01-29 22:18:41.45	174.04	4.49	-48.5	-51.0	3.6	0.00e+00	0	38	104	39694893056	60	43286
2026-01-29 22:18:42.45	174.10	4.41	-48.4	-50.9	3.6	0.00e+00	0	38	104	39694893056	60	43019
2026-01-29 22:18:43.46	174.16	4.34	-48.4	-50.9	3.6	0.00e+00	0	38	104	39694893056	60	42847
2026-01-29 22:18:44.47	174.22	4.26	-48.4	-50.8	3.6	0.00e+00	0	38	104	39694893056	60	42673
2026-01-29 22:18:45.48	174.28	4.19	-48.3	-50.8	3.6	0.00e+00	0	38	104	39694893056	60	42600
2026-01-29 22:18:46.49	174.34	4.11	-48.2	-50.7	3.6	0.00e+00	0	38	104	39694893056	60	42084
2026-01-29 22:18:47.50	174.40	4.04	-48.5	-50.9	3.6	0.00e+00	0	38	104	39694893056	60	42828
2026-01-29 22:18:48.51	174.45	3.96	-48.3	-50.8	3.6	0.00e+00	0	38	104	39694893056	60	42490
2026-01-29 22:18:49.52	174.51	3.89	-48.2	-50.7	3.6	0.00e+00	0	38	104	39694893056	60	42217
2026-01-29 22:18:50.53	174.57	3.82	-48.2	-50.7	3.6	0.00e+00	0	38	104	39694893056	60	41829
2026-01-29 22:18:51.54	174.62	3.74	-48.3	-50.8	3.6	0.00e+00	0	38	104	39694893056	60	42249
2026-01-29 22:18:52.55	174.68	3.67	-48.1	-50.6	3.6	0.00e+00	0	38	104	39694893056	60	41720
2026-01-29 22:18:53.56	174.74	3.60	-48.3	-50.7	3.6	0.00e+00	0	38	104	39694893056	60	42165
2026-01-29 22:18:54.57	174.79	3.52	-48.2	-50.7	3.6	0.00e+00	0	38	104	39694893056	60	41936
2026-01-29 22:18:55.58	174.85	3.45	-48.0	-50.6	3.6	0.00e+00	0	38	104	39694893056	60	41281
2026-01-29 22:18:56.59	174.90	3.38	-48.3	-50.8	3.6	0.00e+00	0	38	104	39694893056	60	42371
2026-01-29 22:18:57.60	174.96	3.31	-48.2	-50.7	3.6	0.00e+00	0	38	104	39694893056	60	42160
2026-01-29 22:18:58.61	175.01	3.23	-48.3	-50.8	3.6	0.00e+00	0	38	104	39694893056	60	42600
2026-01-29 22:18:59.62	175.06	3.16	-48.1	-50.6	3.6	0.00e+00	0	38	104	39694893056	60	41510
2026-01-29 22:19:00.63	175.12	3.09	-48.3	-50.7	3.6	0.00e+00	0	38	104	39694893056	60	42194
2026-01-29 22:19:01.64	175.17	3.02	-48.5	-51.0	3.6	0.00e+00	0	38	104	39694893056	60	43286
2026-01-29 22:19:02.65	175.22	2.95	-48.7	-51.2	3.6	0.00e+00	0	38	104	39694893056	60	44531
2026-01-29 22:19:03.66	175.28	2.88	-48.9	-51.3	3.6	0.00e+00	0	38	104	39694893056	60	45217
2026-01-29 22:19:04.67	175.33	2.81	-49.2	-51.6	3.6	0.00e+00	0	38	104	39694893056	60	46577
2026-01-29 22:19:05.67	175.38	2.74	-49.3	-51.7	3.6	0.00e+00	0	38	104	39694893056	60	47100
2026-01-29 22:19:06.68	175.43	2.67	-49.3	-51.8	3.6	0.00e+00	0	38	104	39694893056	60	47604
2026-01-29 22:19:07.69	175.48	2.60	-49.3	-51.7	3.6	0.00e+00	0	38	104	39694893056	60	47074
2026-01-29 22:19:08.70	175.53	2.53	-49.3	-51.8	3.6	0.00e+00	0	38	104	39694893056	60	47706
2026-01-29 22:19:09.71	175.59	2.46	-49.1	-51.6	3.6	0.00e+00	0	38	104	39694893056	60	46785
2026-01-29 22:19:10.72	175.64	2.39	-49.4	-51.8	3.6	0.00e+00	0	38	104	39694893056	60	47891
2026-01-29 22:19:11.73	175.69	2.32	-49.5	-51.9	3.6	0.00e+00	0	38	104	39694893056	60	48365
2026-01-29 22:19:12.74	175.74	2.25	-49.3	-51.8	3.6	0.00e+00	0	38	104	39694893056	60	47682
2026-01-29 22:19:13.75	175.79	2.18	-49.5	-52.0	3.6	0.00e+00	0	38	104	39694893056	60	48611
2026-01-29 22:19:14.76	175.84	2.11	-49.5	-52.0	3.6	0.00e+00	0	38	104	39694893056	60	48842
2026-01-29 22:19:15.77	175.89	2.04	-49.5	-52.0	3.6	0.00e+00	0	38	104	39694893056	60	48636
2026-01-29 22:19:16.78	175.93	1.98	-49.5	-51.9	3.6	0.00e+00	0	38	104	39694893056	60	48467
2026-01-29 22:19:17.79	175.98	1.91	-49.5	-52.0	3.6	0.00e+00	0	38	104	39694893056	60	48529
2026-01-29 22:19:18.80	176.03	1.84	-49.5	-51.9	3.6	0.00e+00	0	38	104	39694893056	60	48342
2026-01-29 22:19:19.81	176.08	1.77	-49.5	-52.0	3.6	0.00e+00	0	38	104	39694893056	60	48512
2026-01-29 22:19:20.82	176.13	1.71	-49.5	-51.9	3.6	0.00e+00	0	38	104	39694893056	60	48438
2026-01-29 22:19:21.84	176.18	1.64	-49.4	-51.9	3.6	0.00e+00	0	38	104	39694893056	60	48398
2026-01-29 22:19:22.85	176.22	1.57	-49.4	-51.8	3.6	0.00e+00	0	38	104	39694893056	60	47910
2026-01-29 22:19:23.86	176.27	1.50	-49.4	-51.9	3.6	0.00e+00	0	38	104	39694893056	60	48247
2026-01-29 22:19:24.87	176.32	1.44	-49.3	-51.8	3.6	0.00e+00	0	38	104	39694893056	60	47482
2026-01-29 22:19:25.88	176.36	1.37	-49.5	-51.9	3.6	0.00e+00	0	38	104	39694893056	60	48303
2026-01-29 22:19:26.88	176.41	1.31	-49.4	-51.9	3.6	0.00e+00	0	38	104	39694893056	60	48090
2026-01-29 22:19:27.89	176.46	1.24	-49.5	-51.9	3.6	0.00e+00	0	38	104	39694893056	60	48136
2026-01-29 22:19:28.91	176.50	1.17	-49.4	-51.9	3.6	0.00e+00	0	38	104	39694893056	60	48110
2026-01-29 22:19:29.91	176.55	1.11	-49.4	-51.9	3.6	0.00e+00	0	38	104	39694893056	60	48232
2026-01-29 22:19:30.92	176.59	1.04	-49.4	-51.9	3.6	0.00e+00	0	38	104	39694893056	60	48160
2026-01-29 22:19:31.93	176.64	0.98	-49.4	-51.9	3.6	0.00e+00	0	38	104	39694893056	60	48313
2026-01-29 22:19:32.94	176.68	0.91	-49.4	-51.9	3.6	0.00e+00	0	38	104	39694893056	60	48132
2026-01-29 22:19:33.95	176.73	0.85	-49.4	-51.9	3.6	0.00e+00	0	38	104	39694893056	60	48422
2026-01-29 22:19:34.96	176.77	0.78	-49.4	-51.9	3.6	0.00e+00	0	38	104	39694893056	60	48315
2026-01-29 22:19:35.97	176.82	0.72	-49.4	-51.9	3.6	0.00e+00	0	38	104	39694893056	60	48123
2026-01-29 22:19:36.98	176.86	0.65	-49.4	-51.9	3.6	0.00e+00	0	38	104	39694893056	60	48272
2026-01-29 22:19:37.99	176.91	0.59	-49.4	-51.9	3.6	0.00e+00	0	38	104	39694893056	60	48157
2026-01-29 22:19:39.00	176.95	0.53	-49.4	-52.0	3.6	0.00e+00	0	38	104	39694893056	60	48521
2026-01-29 22:19:40.01	176.99	0.46	-49.4	-51.9	3.6	0.00e+00	0	38	104	39694893056	60	48102
2026-01-29 22:19:41.02	177.04	0.40	-49.4	-51.9	3.6	0.00e+00	0	38	104	39694893056	60	48045
2026-01-29 22:19:42.03	177.08	0.33	-49.4	-51.9	3.6	0.00e+00	0	38	104	39694893056	60	48352
2026-01-29 22:19:43.04	177.12	0.27	-49.4	-51.9	3.5	0.00e+00	0	38	104	39694893056	60	48284
2026-01-29 22:19:44.05	177.16	0.21	-49.5	-51.9	3.6	0.00e+00	0	38	104	39694893056	60	48176
2026-01-29 22:19:45.07	177.21	0.14	-49.5	-51.9	3.6	0.00e+00	0	38	104	39694893056	60	48181
