passes_logs/2026/01/29/R4.6S_Anadyr/R4.6S_Anadyr__20260129_143731_AQUA_rec.log

#Pass ID: 20260129_143731_AQUA
#Satellite: AQUA
#Configuration: AQUA
#almurnet v.1.7.20251203
#Start time: 2026-01-29 14:37:33

#Version: 2.2.20231116
#Station: R4.6S_Anadyr
#Location: 177.4865 lon 64.73178 lat
#TLE: 1 27424U 02022A   26028.91948147  .00001781  00000+0  36607-3 0  9997
#TLE: 2 27424  98.4103 355.5827 0001815  62.4290   1.4641 14.61871847262923

#Time	Az	El	Level	Level2	SNR	BER	BlckErr	Temp	State	Recorded	gain1	gain2
2026-01-29 14:37:33.88	20.58	0.10	-48.7	-63.7	3.5	1.51e+00	0	26	0	0	60	55382
2026-01-29 14:37:34.88	20.65	0.16	-49.3	-67.2	3.5	3.02e+01	0	27	104	0	60	87784
2026-01-29 14:37:35.89	20.72	0.21	-49.4	-67.2	3.5	3.02e+01	0	27	104	0	60	87984
2026-01-29 14:37:36.90	20.79	0.27	-49.1	-67.0	3.5	3.02e+01	0	27	104	0	60	86221
2026-01-29 14:37:37.91	20.86	0.32	-49.1	-66.9	3.5	3.02e+01	0	27	104	0	60	85187
2026-01-29 14:37:38.92	20.93	0.38	-49.0	-66.9	3.5	3.02e+01	0	27	104	0	60	85104
2026-01-29 14:37:39.93	21.00	0.43	-49.1	-66.9	3.5	3.02e+01	0	27	104	0	60	84997
2026-01-29 14:37:40.94	21.07	0.49	-49.0	-66.9	3.5	3.02e+01	0	27	104	0	60	84882
2026-01-29 14:37:41.95	21.14	0.54	-49.1	-66.9	3.5	3.02e+01	0	27	104	0	60	85420
2026-01-29 14:37:42.96	21.22	0.60	-49.1	-66.9	3.5	3.02e+01	0	27	104	0	60	85284
2026-01-29 14:37:43.97	21.29	0.65	-49.0	-66.9	3.5	3.02e+01	0	27	104	0	60	85306
2026-01-29 14:37:44.98	21.36	0.71	-49.0	-66.9	3.5	3.02e+01	0	27	104	0	60	84960
2026-01-29 14:37:45.99	21.43	0.76	-48.8	-66.8	3.5	3.02e+01	0	27	104	0	60	84670
2026-01-29 14:37:47.00	21.50	0.82	-48.9	-66.8	3.5	3.02e+01	0	28	104	0	60	84521
2026-01-29 14:37:48.01	21.58	0.87	-48.9	-66.8	3.5	3.02e+01	0	27	104	0	60	84434
2026-01-29 14:37:49.02	21.65	0.93	-48.9	-66.7	3.5	3.02e+01	0	27	104	0	60	83476
2026-01-29 14:37:50.03	21.72	0.99	-48.3	-66.6	3.5	3.02e+01	0	28	104	0	60	82699
2026-01-29 14:37:51.04	21.80	1.04	-48.5	-66.6	3.5	3.02e+01	0	27	104	0	60	82042
2026-01-29 14:37:52.05	21.87	1.10	-48.6	-66.5	3.5	3.02e+01	0	28	104	0	60	81481
2026-01-29 14:37:53.06	21.94	1.15	-48.4	-66.4	3.5	3.02e+01	0	27	104	0	60	80384
2026-01-29 14:37:54.07	22.02	1.21	-48.3	-66.3	3.5	3.02e+01	0	27	104	0	60	79170
2026-01-29 14:37:55.08	22.09	1.27	-48.3	-66.2	3.5	3.02e+01	0	28	104	0	60	78785
2026-01-29 14:37:56.09	22.17	1.32	-48.1	-65.9	3.5	3.02e+01	0	28	104	0	60	76279
2026-01-29 14:37:57.10	22.24	1.38	-47.9	-65.8	3.5	3.02e+01	0	28	104	0	60	75208
2026-01-29 14:37:58.11	22.32	1.43	-47.6	-65.3	3.5	3.02e+01	0	27	104	0	60	71190
2026-01-29 14:37:59.12	22.40	1.49	-47.5	-65.2	3.5	3.02e+01	0	28	104	0	60	70139
2026-01-29 14:38:00.13	22.47	1.55	-47.5	-65.2	3.5	3.02e+01	0	28	104	0	60	70346
2026-01-29 14:38:01.14	22.55	1.60	-47.5	-65.1	3.5	3.02e+01	0	28	104	0	60	69495
2026-01-29 14:38:02.15	22.62	1.66	-47.5	-65.3	3.5	3.02e+01	0	28	104	0	60	70612
2026-01-29 14:38:03.16	22.70	1.72	-47.5	-65.4	3.5	3.02e+01	0	28	104	0	60	71336
2026-01-29 14:38:04.17	22.78	1.77	-47.5	-65.3	3.5	3.02e+01	0	28	104	0	60	71149
2026-01-29 14:38:05.18	22.86	1.83	-47.5	-65.4	3.5	3.02e+01	0	28	104	0	60	71691
2026-01-29 14:38:06.19	22.93	1.89	-47.5	-65.4	3.5	3.02e+01	0	28	104	0	60	71553
2026-01-29 14:38:07.20	23.01	1.95	-47.5	-65.4	3.5	3.02e+01	0	28	104	0	60	71755
2026-01-29 14:38:08.21	23.09	2.00	-47.5	-65.3	3.5	3.02e+01	0	28	104	0	60	71219
2026-01-29 14:38:09.22	23.17	2.06	-47.5	-65.2	3.5	3.02e+01	0	28	104	0	60	70082
2026-01-29 14:38:10.23	23.25	2.12	-47.5	-65.0	3.5	3.02e+01	0	28	104	0	60	68054
2026-01-29 14:38:11.24	23.33	2.18	-47.5	-65.0	3.5	3.02e+01	0	28	104	0	60	68460
2026-01-29 14:38:12.25	23.41	2.23	-47.5	-65.0	3.5	3.02e+01	0	28	104	0	60	68580
2026-01-29 14:38:13.26	23.49	2.29	-47.5	-65.1	3.5	3.02e+01	0	28	104	0	60	68866
2026-01-29 14:38:14.27	23.57	2.35	-47.5	-64.8	3.5	3.02e+01	0	28	104	0	60	67162
2026-01-29 14:38:15.29	23.65	2.41	-47.5	-65.1	3.5	3.02e+01	0	28	104	0	60	68892
2026-01-29 14:38:16.30	23.73	2.46	-47.5	-65.1	3.5	3.02e+01	0	28	104	0	60	69273
2026-01-29 14:38:17.31	23.81	2.52	-47.5	-65.1	3.5	3.02e+01	0	28	104	0	60	69219
2026-01-29 14:38:18.32	23.90	2.58	-47.4	-64.1	3.5	3.02e+01	0	28	104	0	60	61895
2026-01-29 14:38:19.33	23.98	2.64	-47.4	-63.0	3.5	3.02e+01	0	28	104	0	60	54506
2026-01-29 14:38:20.34	24.06	2.70	-47.4	-62.5	3.9	3.02e+01	0	28	104	0	60	51310
2026-01-29 14:38:21.35	24.14	2.76	-47.4	-63.9	3.5	3.02e+01	0	28	104	0	60	60311
2026-01-29 14:38:22.36	24.23	2.81	-47.2	-60.0	5.5	3.02e+01	0	28	104	0	60	38355
2026-01-29 14:38:23.37	24.31	2.87	-46.3	-53.1	11.6	3.02e+01	62	28	0	1048576	60	17461
2026-01-29 14:38:24.38	24.39	2.93	-44.6	-48.5	16.9	3.02e+01	59	28	0	3145728	60	10199
2026-01-29 14:38:25.39	24.48	2.99	-42.6	-45.3	20.0	3.02e+01	45	28	0	4718592	60	7059
2026-01-29 14:38:26.40	24.56	3.05	-40.2	-42.1	22.8	3.02e+01	61	28	0	6815744	56	6205
2026-01-29 14:38:27.41	24.65	3.11	-39.3	-41.0	23.7	3.02e+01	57	28	0	8912896	52	6878
2026-01-29 14:38:28.42	24.73	3.17	-38.2	-39.7	25.0	3.02e+01	57	28	0	10485760	52	5918
2026-01-29 14:38:29.43	24.82	3.23	-38.1	-39.6	25.1	3.02e+01	60	28	0	12582912	50	6543
2026-01-29 14:38:30.44	24.90	3.29	-39.3	-41.0	23.8	3.02e+01	51	28	0	14155776	52	6876
2026-01-29 14:38:31.44	24.99	3.35	-41.4	-43.6	21.2	3.02e+01	61	28	0	16252928	54	8229
2026-01-29 14:38:32.46	25.08	3.41	-40.3	-42.2	23.1	3.02e+01	58	28	0	18350080	56	6254
2026-01-29 14:38:33.46	25.16	3.46	-38.2	-39.8	24.9	3.02e+01	59	28	0	19922944	52	5961
2026-01-29 14:38:34.47	25.25	3.52	-40.2	-42.2	21.4	3.02e+01	58	28	0	22020096	52	7835
2026-01-29 14:38:35.48	25.34	3.58	-47.0	-57.5	4.4	3.02e+01	0	28	104	22544384	60	28878
2026-01-29 14:38:36.49	25.43	3.64	-39.1	-41.1	22.2	3.02e+01	59	28	104	22544384	56	5489
2026-01-29 14:38:37.50	25.52	3.70	-45.0	-49.1	17.6	3.02e+01	62	28	0	23592960	60	11020
2026-01-29 14:38:38.51	25.60	3.76	-42.1	-44.5	20.9	3.02e+01	47	28	0	25690112	58	7252
2026-01-29 14:38:39.52	25.69	3.82	-42.1	-44.5	20.3	3.02e+01	57	28	0	27787264	58	7249
2026-01-29 14:38:40.53	25.78	3.88	-42.6	-45.2	19.9	3.02e+01	61	28	0	29360128	58	7852
2026-01-29 14:38:41.54	25.87	3.94	-41.7	-43.9	21.3	3.02e+01	60	28	0	31457280	58	6761
2026-01-29 14:38:42.55	25.96	4.00	-39.7	-41.5	23.6	3.02e+01	61	28	0	33554432	54	6435
2026-01-29 14:38:43.56	26.05	4.07	-39.3	-41.0	24.0	3.02e+01	51	28	0	35127296	54	6092
2026-01-29 14:38:44.57	26.15	4.13	-39.1	-40.7	24.2	3.02e+01	60	28	0	37224448	54	5921
2026-01-29 14:38:45.58	26.24	4.19	-38.2	-39.7	25.2	3.02e+01	59	28	0	38797312	52	5896
2026-01-29 14:38:46.59	26.33	4.25	-38.0	-39.5	24.7	3.02e+01	38	28	0	40894464	52	5734
2026-01-29 14:38:47.60	26.42	4.31	-38.6	-40.2	24.7	3.02e+01	60	28	0	42991616	50	7005
2026-01-29 14:38:48.61	26.51	4.37	-38.6	-40.1	24.9	3.02e+01	59	28	0	44564480	50	6961
2026-01-29 14:38:49.61	26.61	4.43	-38.0	-39.5	25.5	3.02e+01	60	28	0	46661632	50	6485
2026-01-29 14:38:50.63	26.70	4.49	-37.8	-39.2	25.8	3.02e+01	58	28	0	48234496	50	6265
2026-01-29 14:38:51.63	26.79	4.55	-38.0	-39.6	25.5	3.02e+01	57	28	0	50331648	50	6503
2026-01-29 14:38:52.64	26.89	4.61	-38.5	-40.1	25.0	3.02e+01	59	28	0	52428800	50	6922
2026-01-29 14:38:53.65	26.98	4.68	-38.2	-39.7	25.3	3.02e+01	58	28	0	54001664	50	6582
2026-01-29 14:38:54.66	27.08	4.74	-37.5	-38.9	26.1	3.02e+01	50	28	0	56098816	50	6056
2026-01-29 14:38:55.67	27.17	4.80	-37.6	-39.1	26.1	3.02e+01	59	28	0	57671680	50	6163
2026-01-29 14:38:56.68	27.27	4.86	-37.8	-39.2	25.8	3.02e+01	59	28	0	59768832	50	6277
2026-01-29 14:38:57.69	27.37	4.92	-38.1	-39.6	25.6	3.02e+01	56	28	0	61865984	50	6531
2026-01-29 14:38:58.70	27.46	4.98	-37.7	-39.2	25.9	3.02e+01	62	28	0	63438848	50	6224
2026-01-29 14:38:59.71	27.56	5.05	-37.6	-39.0	26.1	3.02e+01	59	28	0	65536000	50	6116
2026-01-29 14:39:00.72	27.66	5.11	-37.6	-39.0	26.2	3.02e+01	58	28	0	67108864	50	6107
2026-01-29 14:39:01.73	27.76	5.17	-37.5	-38.9	26.1	3.02e+01	57	28	0	69206016	50	6038
2026-01-29 14:39:02.74	27.86	5.23	-37.4	-38.9	26.4	3.02e+01	45	28	0	71303168	50	6012
2026-01-29 14:39:03.74	27.95	5.30	-37.4	-38.8	26.4	3.02e+01	60	28	0	72876032	50	5942
2026-01-29 14:39:04.75	28.05	5.36	-37.5	-38.9	26.2	3.02e+01	51	28	0	74973184	50	6037
2026-01-29 14:39:05.76	28.15	5.42	-37.3	-38.8	26.4	3.02e+01	53	28	0	76546048	50	5942
2026-01-29 14:39:06.77	28.25	5.48	-37.5	-39.0	26.2	3.02e+01	61	28	0	78643200	50	6100
2026-01-29 14:39:07.78	28.36	5.55	-37.6	-39.0	26.2	3.02e+01	53	28	0	80740352	50	6133
2026-01-29 14:39:08.79	28.46	5.61	-37.4	-38.9	26.3	3.02e+01	60	28	0	82313216	50	6007
2026-01-29 14:39:09.79	28.56	5.67	-37.5	-38.9	26.2	3.02e+01	59	28	0	84410368	50	6024
2026-01-29 14:39:10.80	28.66	5.74	-37.4	-38.9	26.3	3.02e+01	60	28	0	86507520	50	6008
2026-01-29 14:39:11.81	28.76	5.80	-37.4	-38.8	26.4	3.02e+01	62	28	0	88080384	50	5955
2026-01-29 14:39:12.82	28.87	5.86	-37.5	-38.9	26.3	3.02e+01	45	28	0	90177536	50	6030
2026-01-29 14:39:13.82	28.97	5.93	-37.3	-38.7	26.5	3.02e+01	55	28	0	91750400	50	5902
2026-01-29 14:39:14.83	29.07	5.99	-37.3	-38.7	26.5	3.02e+01	59	28	0	93847552	50	5893
2026-01-29 14:39:15.84	29.18	6.05	-37.3	-38.7	26.4	3.02e+01	48	28	0	95944704	50	5893
2026-01-29 14:39:16.85	29.28	6.12	-37.3	-38.8	26.4	3.02e+01	58	28	0	97517568	50	5927
2026-01-29 14:39:17.86	29.39	6.18	-37.2	-38.6	26.6	3.02e+01	61	28	0	99614720	50	5809
2026-01-29 14:39:18.87	29.49	6.24	-37.2	-38.6	26.6	3.02e+01	63	28	0	101187584	50	5817
2026-01-29 14:39:19.88	29.60	6.31	-37.1	-38.4	26.8	3.02e+01	57	28	0	103284736	50	5721
2026-01-29 14:39:20.89	29.71	6.37	-37.1	-38.5	26.7	3.02e+01	45	28	0	104857600	50	5758
2026-01-29 14:39:21.90	29.81	6.44	-36.9	-38.3	26.8	3.02e+01	58	28	0	106954752	48	6311
2026-01-29 14:39:22.91	29.92	6.50	-37.0	-38.4	26.7	3.02e+01	54	28	0	109051904	48	6405
2026-01-29 14:39:23.92	30.03	6.57	-37.1	-38.5	26.7	3.02e+01	51	28	0	110624768	48	6455
2026-01-29 14:39:24.92	30.14	6.63	-37.0	-38.4	26.7	3.02e+01	51	28	0	112721920	48	6420
2026-01-29 14:39:25.93	30.25	6.69	-37.1	-38.5	26.6	3.02e+01	61	28	0	114819072	48	6498
2026-01-29 14:39:26.94	30.36	6.76	-37.1	-38.6	26.6	3.02e+01	58	28	0	116391936	48	6511
2026-01-29 14:39:27.96	30.47	6.83	-37.2	-38.7	26.4	3.02e+01	58	28	0	118489088	48	6591
2026-01-29 14:39:28.96	30.58	6.89	-36.8	-38.2	26.9	3.02e+01	52	28	0	120061952	48	6241
2026-01-29 14:39:29.98	30.69	6.96	-37.0	-38.4	26.8	3.02e+01	60	28	0	122159104	48	6390
2026-01-29 14:39:30.99	30.80	7.02	-37.0	-38.3	26.9	3.02e+01	61	28	0	124256256	48	6345
2026-01-29 14:39:32.00	30.92	7.09	-37.1	-38.5	26.8	3.02e+01	46	28	0	125829120	48	6450
2026-01-29 14:39:33.00	31.03	7.15	-37.0	-38.4	26.6	3.02e+01	58	28	0	127926272	48	6405
2026-01-29 14:39:34.01	31.14	7.22	-37.3	-38.7	26.7	3.02e+01	59	28	0	130023424	48	6620
2026-01-29 14:39:35.03	31.26	7.28	-37.0	-38.3	26.9	3.02e+01	61	28	0	131596288	48	6340
2026-01-29 14:39:36.04	31.37	7.35	-37.2	-38.6	26.7	3.02e+01	58	28	0	133693440	48	6524
2026-01-29 14:39:37.05	31.49	7.41	-37.1	-38.5	26.8	3.02e+01	52	28	0	135266304	48	6427
2026-01-29 14:39:38.06	31.60	7.48	-37.0	-38.3	26.9	3.02e+01	61	28	0	137363456	48	6346
2026-01-29 14:39:39.06	31.72	7.55	-36.8	-38.2	27.0	3.02e+01	56	28	0	139460608	48	6230
2026-01-29 14:39:40.07	31.84	7.61	-36.9	-38.3	27.0	3.02e+01	45	28	0	141033472	48	6316
2026-01-29 14:39:41.08	31.95	7.68	-36.8	-38.1	27.2	3.02e+01	60	28	0	143130624	48	6174
2026-01-29 14:39:42.09	32.07	7.74	-36.7	-38.1	27.3	3.02e+01	59	28	0	144703488	48	6150
2026-01-29 14:39:43.10	32.19	7.81	-36.8	-38.1	27.2	3.02e+01	59	28	0	146800640	48	6179
2026-01-29 14:39:44.11	32.31	7.88	-36.4	-37.8	27.5	3.02e+01	52	28	0	148897792	48	5931
2026-01-29 14:39:45.12	32.43	7.94	-36.7	-38.0	27.2	3.02e+01	52	28	0	150470656	48	6104
2026-01-29 14:39:46.13	32.55	8.01	-36.7	-38.0	27.3	3.02e+01	61	28	0	152567808	48	6117
2026-01-29 14:39:47.14	32.67	8.08	-36.9	-38.2	27.1	3.02e+01	59	28	0	154664960	48	6269
2026-01-29 14:39:48.15	32.79	8.14	-36.8	-38.1	27.3	3.02e+01	60	28	0	156237824	48	6167
2026-01-29 14:39:49.16	32.91	8.21	-36.7	-38.0	27.3	3.02e+01	59	28	0	158334976	48	6089
2026-01-29 14:39:50.17	33.04	8.28	-36.6	-38.0	27.3	3.02e+01	48	28	0	159907840	48	6073
2026-01-29 14:39:51.18	33.16	8.35	-36.6	-38.0	27.4	3.02e+01	61	28	0	162004992	48	6073
2026-01-29 14:39:52.19	33.28	8.41	-36.4	-37.7	27.6	3.02e+01	56	28	0	164102144	48	5909
2026-01-29 14:39:53.20	33.41	8.48	-36.6	-37.9	27.4	3.02e+01	46	28	0	165675008	48	6027
2026-01-29 14:39:54.21	33.53	8.55	-36.7	-38.0	27.4	3.02e+01	60	28	0	167772160	48	6096
2026-01-29 14:39:55.22	33.66	8.62	-36.6	-38.0	27.4	3.02e+01	61	28	0	169345024	48	6084
2026-01-29 14:39:56.23	33.78	8.68	-36.6	-37.9	27.5	3.02e+01	56	28	0	171442176	48	6012
2026-01-29 14:39:57.24	33.91	8.75	-36.6	-38.0	27.4	3.02e+01	61	28	0	173015040	48	6070
2026-01-29 14:39:58.25	34.04	8.82	-36.4	-37.7	27.6	3.02e+01	54	28	0	175112192	48	5899
2026-01-29 14:39:59.26	34.17	8.89	-36.2	-37.6	27.7	3.02e+01	59	28	0	177209344	48	5816
2026-01-29 14:40:00.26	34.29	8.95	-36.3	-37.7	27.6	3.02e+01	59	28	0	178782208	48	5871
2026-01-29 14:40:01.27	34.42	9.02	-36.3	-37.7	27.7	3.02e+01	55	28	0	180879360	48	5864
2026-01-29 14:40:02.28	34.55	9.09	-36.4	-37.8	27.5	3.02e+01	58	28	0	182976512	48	5969
2026-01-29 14:40:03.29	34.68	9.16	-36.4	-37.8	27.5	3.02e+01	56	28	0	184549376	48	5977
2026-01-29 14:40:04.30	34.81	9.23	-36.3	-37.7	27.6	3.02e+01	57	28	0	186646528	48	5901
2026-01-29 14:40:05.31	34.95	9.30	-36.3	-37.7	27.6	3.02e+01	58	28	0	188219392	48	5905
2026-01-29 14:40:06.32	35.08	9.36	-36.4	-37.7	27.6	3.02e+01	55	28	0	190316544	48	5917
2026-01-29 14:40:07.33	35.21	9.43	-36.2	-37.5	27.8	3.02e+01	60	28	0	192413696	48	5787
2026-01-29 14:40:08.34	35.34	9.50	-36.3	-37.7	27.7	3.02e+01	62	28	0	193986560	48	5860
2026-01-29 14:40:09.35	35.48	9.57	-36.4	-37.7	27.7	3.02e+01	44	28	0	196083712	48	5876
2026-01-29 14:40:10.36	35.61	9.64	-36.4	-37.7	27.6	3.02e+01	60	28	0	198180864	48	5908
2026-01-29 14:40:11.37	35.75	9.71	-36.3	-37.6	27.7	3.02e+01	57	28	0	199753728	48	5852
2026-01-29 14:40:12.37	35.89	9.78	-36.2	-37.5	27.9	3.02e+01	59	28	0	201850880	48	5743
2026-01-29 14:40:13.38	36.02	9.85	-36.2	-37.5	27.9	3.02e+01	59	28	0	203423744	48	5749
2026-01-29 14:40:14.39	36.16	9.92	-36.1	-37.4	27.9	3.02e+01	51	28	0	205520896	48	5696
2026-01-29 14:40:15.40	36.30	9.99	-36.1	-37.4	28.0	3.02e+01	60	28	0	207618048	48	5720
2026-01-29 14:40:16.41	36.44	10.05	-36.1	-37.4	28.0	3.02e+01	60	28	0	209190912	48	5719
2026-01-29 14:40:17.43	36.58	10.12	-36.1	-37.4	28.0	3.02e+01	48	28	0	211288064	48	5700
2026-01-29 14:40:18.44	36.72	10.19	-36.2	-37.5	28.0	3.02e+01	60	28	0	212860928	48	5742
2026-01-29 14:40:19.44	36.86	10.26	-36.3	-37.6	27.8	3.02e+01	48	28	0	214958080	48	5815
2026-01-29 14:40:20.45	37.00	10.33	-36.1	-37.4	27.9	3.02e+01	59	28	0	217055232	48	5701
2026-01-29 14:40:21.46	37.14	10.40	-36.0	-37.3	28.1	3.02e+01	58	28	0	218628096	48	5605
2026-01-29 14:40:22.47	37.29	10.47	-35.9	-37.2	28.2	3.02e+01	50	28	0	220725248	46	6214
2026-01-29 14:40:23.48	37.43	10.54	-36.0	-37.3	28.1	3.02e+01	61	28	0	222298112	46	6282
2026-01-29 14:40:24.49	37.58	10.61	-36.0	-37.3	28.2	3.02e+01	61	28	0	224395264	46	6289
2026-01-29 14:40:25.50	37.72	10.68	-36.0	-37.3	28.2	3.02e+01	63	28	0	226492416	46	6293
2026-01-29 14:40:26.51	37.87	10.75	-36.0	-37.2	28.2	3.02e+01	61	28	0	228065280	46	6260
2026-01-29 14:40:27.52	38.02	10.82	-35.8	-37.1	28.3	3.02e+01	44	28	0	230162432	46	6152
2026-01-29 14:40:28.53	38.16	10.89	-35.8	-37.1	28.3	3.02e+01	60	28	0	231735296	46	6161
2026-01-29 14:40:29.54	38.31	10.96	-35.8	-37.0	28.3	3.02e+01	59	28	0	233832448	46	6118
2026-01-29 14:40:30.55	38.46	11.03	-35.8	-37.1	28.4	3.02e+01	45	28	0	235929600	46	6162
2026-01-29 14:40:31.56	38.61	11.11	-35.8	-37.1	28.4	3.02e+01	61	28	0	237502464	46	6142
2026-01-29 14:40:32.57	38.76	11.18	-35.8	-37.1	28.4	3.02e+01	55	28	0	239599616	46	6150
2026-01-29 14:40:33.58	38.91	11.25	-35.8	-37.1	28.4	3.02e+01	59	28	0	241172480	46	6139
2026-01-29 14:40:34.59	39.07	11.32	-35.7	-37.0	28.5	3.02e+01	58	28	0	243269632	46	6093
2026-01-29 14:40:35.60	39.22	11.39	-35.7	-37.0	28.5	3.02e+01	56	28	0	245366784	46	6076
2026-01-29 14:40:36.61	39.37	11.46	-35.6	-36.9	28.5	3.02e+01	57	28	0	246939648	46	6019
2026-01-29 14:40:37.62	39.53	11.53	-35.6	-36.9	28.6	3.02e+01	59	28	0	249036800	46	6006
2026-01-29 14:40:38.63	39.68	11.60	-35.6	-36.8	28.6	3.02e+01	46	28	0	251133952	46	5989
2026-01-29 14:40:39.64	39.84	11.67	-35.7	-36.9	28.5	3.02e+01	56	28	0	252706816	46	6053
2026-01-29 14:40:40.65	39.99	11.74	-35.7	-37.0	28.5	3.02e+01	59	28	0	254803968	46	6078
2026-01-29 14:40:41.66	40.15	11.81	-35.6	-36.9	28.5	3.02e+01	61	28	0	256376832	46	6042
2026-01-29 14:40:42.67	40.31	11.89	-35.7	-37.0	28.5	3.02e+01	57	28	0	258473984	46	6068
2026-01-29 14:40:43.67	40.47	11.96	-35.4	-36.7	28.7	3.02e+01	44	28	0	260571136	46	5888
2026-01-29 14:40:44.68	40.63	12.03	-35.5	-36.8	28.7	3.02e+01	57	28	0	262144000	46	5931
2026-01-29 14:40:45.69	40.79	12.10	-35.3	-36.6	28.8	3.02e+01	59	28	0	264241152	46	5831
2026-01-29 14:40:46.70	40.95	12.17	-35.5	-36.8	28.6	3.02e+01	43	28	0	266338304	46	5994
2026-01-29 14:40:47.71	41.11	12.24	-35.6	-37.0	28.5	3.02e+01	62	28	0	267911168	46	6071
2026-01-29 14:40:48.72	41.28	12.31	-35.4	-36.7	28.7	3.02e+01	58	28	0	270008320	46	5919
2026-01-29 14:40:49.73	41.44	12.38	-35.4	-36.7	28.7	3.02e+01	57	28	0	271581184	46	5890
2026-01-29 14:40:50.74	41.61	12.45	-35.6	-36.8	28.6	3.02e+01	60	28	0	273678336	46	5984
2026-01-29 14:40:51.75	41.77	12.53	-35.4	-36.6	28.8	3.02e+01	51	28	0	275775488	46	5853
2026-01-29 14:40:52.76	41.94	12.60	-35.4	-36.6	28.8	3.02e+01	59	28	0	277348352	46	5842
2026-01-29 14:40:53.77	42.11	12.67	-35.5	-36.7	28.7	3.02e+01	58	28	0	279445504	46	5901
2026-01-29 14:40:54.78	42.28	12.74	-35.7	-37.0	28.5	3.02e+01	45	28	0	281018368	46	6074
2026-01-29 14:40:55.79	42.44	12.81	-35.7	-37.0	28.5	3.02e+01	59	28	0	283115520	46	6088
2026-01-29 14:40:56.80	42.61	12.88	-35.7	-37.0	28.5	3.02e+01	44	28	0	285212672	46	6071
2026-01-29 14:40:57.81	42.79	12.96	-35.5	-36.7	28.8	3.02e+01	54	28	0	286785536	46	5888
2026-01-29 14:40:58.82	42.96	13.03	-35.4	-36.6	28.8	3.02e+01	57	28	0	288882688	46	5826
2026-01-29 14:40:59.83	43.13	13.10	-35.4	-36.6	28.8	3.02e+01	55	28	0	290455552	46	5833
2026-01-29 14:41:00.84	43.30	13.17	-35.3	-36.5	28.9	3.02e+01	57	28	0	292552704	46	5775
2026-01-29 14:41:01.84	43.48	13.24	-35.2	-36.4	29.0	3.02e+01	62	28	0	294649856	46	5724
2026-01-29 14:41:02.85	43.65	13.31	-35.4	-36.6	28.8	3.02e+01	60	28	0	296222720	46	5832
2026-01-29 14:41:03.86	43.83	13.39	-35.3	-36.5	28.9	3.02e+01	53	28	0	298319872	46	5772
2026-01-29 14:41:04.87	44.01	13.46	-35.4	-36.6	28.9	3.02e+01	51	28	0	299892736	46	5848
2026-01-29 14:41:05.88	44.18	13.53	-35.4	-36.7	28.9	3.02e+01	58	28	0	301989888	46	5867
2026-01-29 14:41:06.89	44.36	13.60	-35.6	-36.8	28.7	3.02e+01	59	28	0	304087040	46	5985
2026-01-29 14:41:07.90	44.54	13.67	-35.3	-36.5	29.0	3.02e+01	45	28	0	305659904	46	5758
2026-01-29 14:41:08.91	44.72	13.74	-35.3	-36.6	28.9	3.02e+01	60	28	0	307757056	46	5798
2026-01-29 14:41:09.92	44.91	13.82	-35.2	-36.4	29.1	3.02e+01	59	28	0	309329920	46	5713
2026-01-29 14:41:10.93	45.09	13.89	-35.2	-36.5	29.0	3.02e+01	60	28	0	311427072	46	5730
2026-01-29 14:41:11.94	45.27	13.96	-35.2	-36.4	29.1	3.02e+01	60	28	0	313524224	46	5699
2026-01-29 14:41:12.95	45.46	14.03	-35.2	-36.5	29.0	3.02e+01	54	28	0	315097088	46	5764
2026-01-29 14:41:13.96	45.64	14.10	-35.2	-36.5	29.0	3.02e+01	56	28	0	317194240	46	5771
2026-01-29 14:41:14.97	45.83	14.17	-35.2	-36.5	29.0	3.02e+01	63	28	0	319291392	46	5787
2026-01-29 14:41:15.98	46.01	14.24	-35.1	-36.4	29.1	3.02e+01	46	28	0	320864256	46	5679
2026-01-29 14:41:16.98	46.20	14.32	-35.0	-36.3	29.2	3.02e+01	57	28	0	322961408	46	5603
2026-01-29 14:41:17.99	46.39	14.39	-34.9	-36.1	29.3	3.02e+01	62	28	0	324534272	44	6199
2026-01-29 14:41:19.00	46.58	14.46	-34.9	-36.2	29.3	3.02e+01	61	28	0	326631424	44	6211
2026-01-29 14:41:20.01	46.77	14.53	-35.0	-36.2	29.2	3.02e+01	60	28	0	328728576	44	6238
2026-01-29 14:41:21.02	46.96	14.60	-34.9	-36.2	29.3	3.02e+01	51	28	0	330301440	44	6219
2026-01-29 14:41:22.03	47.16	14.67	-34.9	-36.2	29.3	3.02e+01	59	28	0	332398592	44	6214
2026-01-29 14:41:23.04	47.35	14.74	-35.0	-36.3	29.2	3.02e+01	59	28	0	334495744	44	6286
2026-01-29 14:41:24.05	47.54	14.81	-35.0	-36.3	29.2	3.02e+01	46	28	0	336068608	44	6286
2026-01-29 14:41:25.06	47.74	14.89	-35.0	-36.3	29.2	3.02e+01	55	28	0	338165760	44	6290
2026-01-29 14:41:26.07	47.94	14.96	-35.2	-36.4	29.0	3.02e+01	58	28	0	339738624	44	6404
2026-01-29 14:41:27.08	48.14	15.03	-35.0	-36.2	29.3	3.02e+01	60	28	0	341835776	44	6236
2026-01-29 14:41:28.09	48.33	15.10	-35.0	-36.2	29.2	3.02e+01	60	28	0	343932928	44	6254
2026-01-29 14:41:29.10	48.53	15.17	-34.9	-36.1	29.2	3.02e+01	55	28	0	345505792	44	6198
2026-01-29 14:41:30.11	48.73	15.24	-34.9	-36.2	29.3	3.02e+01	61	28	0	347602944	44	6211
2026-01-29 14:41:31.12	48.94	15.31	-34.9	-36.2	29.3	3.02e+01	57	28	0	349175808	44	6213
2026-01-29 14:41:32.13	49.14	15.38	-35.1	-36.3	29.2	3.02e+01	49	28	0	351272960	44	6335
2026-01-29 14:41:33.14	49.34	15.45	-35.0	-36.2	29.2	3.02e+01	59	28	0	352845824	44	6249
2026-01-29 14:41:34.14	49.55	15.52	-35.0	-36.2	29.3	3.02e+01	45	28	0	354942976	44	6225
2026-01-29 14:41:35.15	49.75	15.59	-34.9	-36.1	29.4	3.02e+01	60	28	0	357040128	44	6154
2026-01-29 14:41:36.16	49.96	15.66	-34.8	-36.0	29.3	3.02e+01	61	28	0	358612992	44	6121
2026-01-29 14:41:37.17	50.17	15.73	-34.9	-36.2	29.3	3.02e+01	44	28	0	360710144	44	6220
2026-01-29 14:41:38.18	50.38	15.80	-35.0	-36.2	29.2	3.02e+01	59	28	0	362807296	44	6265
2026-01-29 14:41:39.19	50.58	15.87	-34.9	-36.1	29.4	3.02e+01	57	28	0	364380160	44	6158
2026-01-29 14:41:40.20	50.80	15.94	-34.8	-36.0	29.5	3.02e+01	59	28	0	366477312	44	6120
2026-01-29 14:41:41.21	51.01	16.01	-34.9	-36.1	29.4	3.02e+01	59	28	0	368050176	44	6171
2026-01-29 14:41:42.22	51.22	16.08	-34.8	-36.0	29.5	3.02e+01	44	28	0	370147328	44	6113
2026-01-29 14:41:43.23	51.43	16.15	-34.8	-36.0	29.5	3.02e+01	58	28	0	372244480	44	6101
2026-01-29 14:41:44.24	51.65	16.22	-34.9	-36.2	29.3	3.02e+01	59	28	0	373817344	44	6207
2026-01-29 14:41:45.25	51.87	16.29	-34.9	-36.1	29.3	3.02e+01	43	28	0	375914496	44	6173
2026-01-29 14:41:46.26	52.08	16.36	-35.0	-36.2	29.3	3.02e+01	57	28	0	377487360	44	6234
2026-01-29 14:41:47.27	52.30	16.42	-34.9	-36.1	29.4	3.02e+01	59	28	0	379584512	44	6145
2026-01-29 14:41:48.28	52.52	16.49	-34.8	-36.0	29.4	3.02e+01	52	28	0	381681664	44	6103
2026-01-29 14:41:49.29	52.74	16.56	-34.8	-36.0	29.5	3.02e+01	61	28	0	383254528	44	6104
2026-01-29 14:41:50.30	52.96	16.63	-34.7	-36.0	29.5	3.02e+01	61	28	0	385351680	44	6094
2026-01-29 14:41:51.31	53.18	16.70	-34.8	-36.0	29.5	3.02e+01	60	28	0	387448832	44	6127
2026-01-29 14:41:52.32	53.41	16.77	-34.8	-36.0	29.5	3.02e+01	60	28	0	389021696	44	6113
2026-01-29 14:41:53.32	53.63	16.83	-34.9	-36.1	29.4	3.02e+01	44	28	0	391118848	44	6187
2026-01-29 14:41:54.33	53.85	16.90	-34.9	-36.1	29.4	3.02e+01	60	28	0	392691712	44	6183
2026-01-29 14:41:55.34	54.08	16.97	-34.8	-36.0	29.5	3.02e+01	62	28	0	394788864	44	6089
2026-01-29 14:41:56.36	54.31	17.03	-34.7	-35.9	29.5	3.02e+01	60	28	0	396886016	44	6057
2026-01-29 14:41:57.37	54.54	17.10	-34.9	-36.1	29.4	3.02e+01	59	28	0	398458880	44	6179
2026-01-29 14:41:58.38	54.77	17.17	-34.9	-36.2	29.4	3.02e+01	47	28	0	400556032	44	6207
2026-01-29 14:41:59.38	55.00	17.23	-34.9	-36.1	29.4	3.02e+01	60	28	0	402128896	44	6203
2026-01-29 14:42:00.39	55.23	17.30	-34.8	-36.0	29.5	3.02e+01	62	28	0	404226048	44	6073
2026-01-29 14:42:01.40	55.46	17.37	-34.6	-35.8	29.6	3.02e+01	47	28	0	406323200	44	5990
2026-01-29 14:42:02.41	55.69	17.43	-34.7	-35.9	29.6	3.02e+01	59	28	0	407896064	44	6024
2026-01-29 14:42:03.42	55.93	17.50	-34.7	-36.0	29.5	3.02e+01	58	28	0	409993216	44	6106
2026-01-29 14:42:04.43	56.17	17.56	-34.8	-36.1	29.4	3.02e+01	58	28	0	411566080	44	6200
2026-01-29 14:42:05.44	56.40	17.63	-34.8	-36.2	29.3	3.02e+01	57	28	0	413663232	44	6217
2026-01-29 14:42:06.45	56.64	17.69	-34.8	-36.1	29.4	3.02e+01	52	28	0	415760384	44	6137
2026-01-29 14:42:07.46	56.88	17.76	-35.0	-36.3	29.2	3.02e+01	53	28	0	417333248	44	6287
2026-01-29 14:42:08.47	57.12	17.82	-34.8	-36.1	29.4	3.02e+01	60	28	0	419430400	44	6189
2026-01-29 14:42:09.48	57.36	17.88	-34.7	-36.0	29.5	3.02e+01	59	28	0	421003264	44	6100
2026-01-29 14:42:10.49	57.60	17.95	-34.6	-36.0	29.5	3.02e+01	58	28	0	423100416	44	6098
2026-01-29 14:42:11.50	57.85	18.01	-34.7	-36.0	29.5	3.02e+01	46	28	0	425197568	44	6097
2026-01-29 14:42:12.50	58.09	18.07	-34.8	-36.0	29.5	3.02e+01	61	28	0	426770432	44	6121
2026-01-29 14:42:13.51	58.33	18.14	-34.9	-36.2	29.4	3.02e+01	58	28	0	428867584	44	6221
2026-01-29 14:42:14.52	58.58	18.20	-34.9	-36.1	29.4	3.02e+01	45	28	0	430964736	44	6158
2026-01-29 14:42:15.53	58.83	18.26	-35.0	-36.2	29.4	3.02e+01	61	28	0	432537600	44	6220
2026-01-29 14:42:16.54	59.08	18.32	-34.8	-36.0	29.5	3.02e+01	57	28	0	434634752	44	6104
2026-01-29 14:42:17.55	59.33	18.38	-34.9	-36.1	29.4	3.02e+01	61	28	0	436207616	44	6178
2026-01-29 14:42:18.56	59.58	18.44	-34.9	-36.1	29.5	3.02e+01	59	28	0	438304768	44	6161
2026-01-29 14:42:19.57	59.83	18.50	-34.7	-36.0	29.5	3.02e+01	48	28	0	440401920	44	6122
2026-01-29 14:42:20.58	60.08	18.56	-34.5	-36.0	29.5	3.02e+01	57	28	0	441974784	44	6109
2026-01-29 14:42:21.59	60.34	18.62	-34.6	-36.0	29.5	3.02e+01	60	28	0	444071936	44	6096
2026-01-29 14:42:22.59	60.59	18.68	-34.7	-36.1	29.5	3.02e+01	44	28	0	445644800	44	6137
2026-01-29 14:42:23.60	60.84	18.74	-34.7	-36.0	29.5	3.02e+01	58	28	0	447741952	44	6116
2026-01-29 14:42:24.61	61.10	18.80	-34.7	-36.0	29.5	3.02e+01	60	28	0	449839104	44	6070
2026-01-29 14:42:25.62	61.36	18.86	-34.7	-35.9	29.5	3.02e+01	58	28	0	451411968	44	6046
2026-01-29 14:42:26.63	61.62	18.92	-34.9	-36.1	29.4	3.02e+01	60	28	0	453509120	44	6198
2026-01-29 14:42:27.64	61.88	18.98	-34.9	-36.1	29.3	3.02e+01	44	28	0	455606272	44	6193
2026-01-29 14:42:28.65	62.14	19.03	-34.6	-35.9	29.6	3.02e+01	58	28	0	457179136	44	6021
2026-01-29 14:42:29.66	62.40	19.09	-34.7	-35.9	29.5	3.02e+01	60	28	0	459276288	44	6054
2026-01-29 14:42:30.67	62.66	19.15	-34.9	-36.1	29.4	3.02e+01	44	28	0	460849152	44	6188
2026-01-29 14:42:31.67	62.92	19.20	-35.0	-36.2	29.3	3.02e+01	58	28	0	462946304	44	6261
2026-01-29 14:42:32.68	63.19	19.26	-34.8	-36.0	29.4	3.02e+01	59	28	0	464519168	44	6125
2026-01-29 14:42:33.69	63.46	19.31	-34.9	-36.1	29.4	3.02e+01	62	28	0	466616320	44	6152
2026-01-29 14:42:34.70	63.72	19.37	-35.0	-36.2	29.2	3.02e+01	58	28	0	468713472	44	6264
2026-01-29 14:42:35.71	63.99	19.42	-34.9	-36.1	29.4	3.02e+01	45	28	0	470286336	44	6160
2026-01-29 14:42:36.72	64.26	19.48	-34.8	-36.0	29.4	3.02e+01	61	28	0	472383488	44	6110
2026-01-29 14:42:37.73	64.53	19.53	-34.9	-36.1	29.4	3.02e+01	58	28	0	473956352	44	6183
2026-01-29 14:42:38.74	64.80	19.58	-34.9	-36.1	29.4	3.02e+01	57	28	0	476053504	44	6196
2026-01-29 14:42:39.75	65.07	19.63	-34.9	-36.1	29.4	3.02e+01	59	28	0	478150656	44	6203
2026-01-29 14:42:40.76	65.35	19.69	-34.9	-36.2	29.4	3.02e+01	59	28	0	479723520	44	6229
2026-01-29 14:42:41.77	65.62	19.74	-34.9	-36.3	29.4	3.02e+01	57	28	0	481820672	44	6285
2026-01-29 14:42:42.78	65.89	19.79	-34.9	-36.2	29.4	3.02e+01	63	28	0	483917824	44	6260
2026-01-29 14:42:43.78	66.17	19.84	-34.6	-36.0	29.5	3.02e+01	51	28	0	485490688	44	6111
2026-01-29 14:42:44.79	66.44	19.89	-34.8	-36.1	29.4	3.02e+01	57	28	0	487587840	44	6163
2026-01-29 14:42:45.80	66.72	19.94	-34.9	-36.2	29.4	3.02e+01	51	28	0	489160704	44	6261
2026-01-29 14:42:46.81	67.00	19.99	-35.0	-36.2	29.3	3.02e+01	58	28	0	491257856	44	6263
2026-01-29 14:42:47.82	67.28	20.03	-34.9	-36.2	29.4	3.02e+01	59	28	0	493355008	44	6212
2026-01-29 14:42:48.83	67.56	20.08	-35.0	-36.2	29.4	3.02e+01	48	28	0	494927872	44	6229
2026-01-29 14:42:49.84	67.84	20.13	-35.0	-36.3	29.3	3.02e+01	56	28	0	497025024	44	6288
2026-01-29 14:42:50.85	68.12	20.17	-35.0	-36.2	29.3	3.02e+01	57	28	0	499122176	44	6275
2026-01-29 14:42:51.86	68.41	20.22	-35.1	-36.3	29.3	3.02e+01	45	28	0	500695040	44	6304
2026-01-29 14:42:52.87	68.69	20.27	-34.9	-36.1	29.4	3.02e+01	56	28	0	502792192	44	6198
2026-01-29 14:42:53.88	68.98	20.31	-35.0	-36.2	29.3	3.02e+01	58	28	0	504365056	44	6266
2026-01-29 14:42:54.89	69.26	20.35	-35.0	-36.2	29.4	3.02e+01	61	28	0	506462208	44	6263
2026-01-29 14:42:55.90	69.55	20.40	-34.9	-36.1	29.4	3.02e+01	59	28	0	508559360	44	6198
2026-01-29 14:42:56.91	69.84	20.44	-35.0	-36.2	29.4	3.02e+01	60	28	0	510132224	44	6215
2026-01-29 14:42:57.92	70.12	20.48	-34.9	-36.1	29.4	3.02e+01	58	28	0	512229376	44	6202
2026-01-29 14:42:58.92	70.41	20.53	-35.0	-36.2	29.4	3.02e+01	56	28	0	513802240	44	6234
2026-01-29 14:42:59.93	70.70	20.57	-35.1	-36.4	29.2	3.02e+01	47	28	0	515899392	44	6355
2026-01-29 14:43:00.94	70.99	20.61	-35.0	-36.2	29.3	3.02e+01	63	28	0	517996544	44	6256
2026-01-29 14:43:01.95	71.28	20.65	-34.9	-36.2	29.4	3.02e+01	61	28	0	519569408	44	6232
2026-01-29 14:43:02.96	71.57	20.69	-35.0	-36.2	29.4	3.02e+01	59	28	0	521666560	44	6257
2026-01-29 14:43:03.97	71.87	20.72	-35.1	-36.3	29.3	3.02e+01	61	28	0	523239424	44	6338
2026-01-29 14:43:04.98	72.16	20.76	-35.1	-36.4	29.3	3.02e+01	52	28	0	525336576	44	6354
2026-01-29 14:43:05.99	72.45	20.80	-34.8	-36.3	29.4	3.02e+01	60	28	0	527433728	44	6278
2026-01-29 14:43:07.00	72.75	20.84	-34.9	-36.4	29.2	3.02e+01	60	28	0	529006592	44	6375
2026-01-29 14:43:08.01	73.05	20.87	-35.1	-36.4	29.2	3.02e+01	44	28	0	531103744	44	6380
2026-01-29 14:43:09.02	73.34	20.91	-34.9	-36.2	29.4	3.02e+01	60	28	0	532676608	44	6246
2026-01-29 14:43:10.03	73.64	20.94	-34.8	-36.1	29.5	3.02e+01	61	28	0	534773760	44	6179
2026-01-29 14:43:11.04	73.94	20.98	-35.0	-36.3	29.2	3.02e+01	59	28	0	536870912	44	6320
2026-01-29 14:43:12.05	74.24	21.01	-35.0	-36.2	29.4	3.02e+01	61	28	0	538443776	44	6235
2026-01-29 14:43:13.06	74.54	21.04	-35.1	-36.3	29.2	3.02e+01	52	28	0	540540928	44	6329
2026-01-29 14:43:14.06	74.83	21.07	-35.1	-36.4	29.3	3.02e+01	60	28	0	542113792	44	6356
2026-01-29 14:43:15.07	75.13	21.10	-35.1	-36.3	29.3	3.02e+01	59	28	0	544210944	44	6297
2026-01-29 14:43:16.08	75.44	21.13	-35.1	-36.3	29.3	3.02e+01	48	28	0	546308096	44	6299
2026-01-29 14:43:17.09	75.74	21.16	-35.1	-36.3	29.2	3.02e+01	60	28	0	547880960	44	6308
2026-01-29 14:43:18.10	76.04	21.19	-35.2	-36.4	29.3	3.02e+01	46	28	0	549978112	44	6418
2026-01-29 14:43:19.11	76.34	21.22	-35.0	-36.2	29.2	3.02e+01	59	28	0	552075264	44	6275
2026-01-29 14:43:20.12	76.65	21.25	-35.2	-36.4	29.2	3.02e+01	58	28	0	553648128	44	6395
2026-01-29 14:43:21.13	76.95	21.28	-35.1	-36.3	29.4	3.02e+01	55	28	0	555745280	44	6299
2026-01-29 14:43:22.14	77.26	21.30	-35.2	-36.4	29.3	3.02e+01	59	28	0	557318144	44	6414
2026-01-29 14:43:23.15	77.56	21.33	-35.0	-36.3	29.3	3.02e+01	58	28	0	559415296	44	6280
2026-01-29 14:43:24.16	77.87	21.35	-35.1	-36.3	29.3	3.02e+01	63	28	0	561512448	44	6298
2026-01-29 14:43:25.17	78.17	21.37	-35.0	-36.3	29.4	3.02e+01	58	28	0	563085312	44	6284
2026-01-29 14:43:26.18	78.48	21.40	-35.0	-36.2	29.3	3.02e+01	43	28	0	565182464	44	6242
2026-01-29 14:43:27.19	78.79	21.42	-35.1	-36.4	29.2	3.02e+01	59	28	0	566755328	44	6356
2026-01-29 14:43:28.20	79.09	21.44	-35.0	-36.3	29.4	3.02e+01	58	28	0	568852480	44	6293
2026-01-29 14:43:29.21	79.40	21.46	-35.1	-36.3	29.3	3.02e+01	45	28	0	570949632	44	6331
2026-01-29 14:43:30.21	79.71	21.48	-34.9	-36.2	29.4	3.02e+01	59	28	0	572522496	44	6223
2026-01-29 14:43:31.22	80.02	21.50	-35.0	-36.3	29.3	3.02e+01	59	28	0	574619648	44	6328
2026-01-29 14:43:32.23	80.33	21.52	-35.0	-36.3	29.3	3.02e+01	58	28	0	576192512	44	6335
2026-01-29 14:43:33.24	80.64	21.54	-35.1	-36.4	29.2	3.02e+01	57	28	0	578289664	44	6356
2026-01-29 14:43:34.25	80.95	21.55	-34.9	-36.2	29.3	3.02e+01	60	28	0	580386816	44	6255
2026-01-29 14:43:35.26	81.26	21.57	-34.9	-36.1	29.5	3.02e+01	57	28	0	581959680	44	6174
2026-01-29 14:43:36.27	81.57	21.58	-35.0	-36.2	29.3	3.02e+01	59	28	0	584056832	44	6261
2026-01-29 14:43:37.28	81.88	21.60	-35.1	-36.3	29.2	3.02e+01	45	28	0	585629696	44	6322
2026-01-29 14:43:38.29	82.19	21.61	-35.2	-36.4	29.2	3.02e+01	57	28	0	587726848	44	6353
2026-01-29 14:43:39.30	82.50	21.62	-35.1	-36.3	29.3	3.02e+01	59	28	0	589824000	44	6294
2026-01-29 14:43:40.30	82.81	21.63	-35.1	-36.3	29.3	3.02e+01	60	28	0	591396864	44	6335
2026-01-29 14:43:41.31	83.12	21.65	-35.2	-36.4	29.2	3.02e+01	61	28	0	593494016	44	6423
2026-01-29 14:43:42.32	83.44	21.66	-34.7	-35.9	29.6	3.02e+01	46	28	0	595591168	44	6050
2026-01-29 14:43:43.33	83.75	21.66	-34.9	-36.1	29.5	3.02e+01	58	28	0	597164032	44	6139
2026-01-29 14:43:44.34	84.06	21.67	-35.0	-36.2	29.3	3.02e+01	58	28	0	599261184	44	6272
2026-01-29 14:43:45.35	84.37	21.68	-34.9	-36.2	29.4	3.02e+01	46	28	0	600834048	44	6206
2026-01-29 14:43:46.36	84.69	21.69	-34.9	-36.2	29.4	3.02e+01	58	28	0	602931200	44	6206
2026-01-29 14:43:47.36	85.00	21.69	-34.8	-36.1	29.5	3.02e+01	61	28	0	605028352	44	6135
2026-01-29 14:43:48.37	85.31	21.70	-34.8	-36.0	29.6	3.02e+01	61	28	0	606601216	44	6123
2026-01-29 14:43:49.38	85.62	21.70	-34.9	-36.1	29.4	3.02e+01	54	28	0	608698368	44	6175
2026-01-29 14:43:50.39	85.94	21.71	-34.9	-36.1	29.5	3.02e+01	52	28	0	610271232	44	6182
2026-01-29 14:43:51.40	86.25	21.71	-35.0	-36.2	29.4	3.02e+01	62	28	0	612368384	44	6245
2026-01-29 14:43:52.41	86.56	21.71	-34.8	-36.0	29.5	3.02e+01	57	28	0	614465536	44	6128
2026-01-29 14:43:53.42	86.88	21.71	-34.8	-36.1	29.5	3.02e+01	49	28	0	616038400	44	6151
2026-01-29 14:43:54.43	87.19	21.71	-34.8	-36.1	29.4	3.02e+01	58	28	0	618135552	44	6184
2026-01-29 14:43:55.44	87.51	21.71	-34.7	-36.0	29.5	3.02e+01	55	28	0	619708416	44	6110
2026-01-29 14:43:56.45	87.82	21.71	-34.8	-36.2	29.4	3.02e+01	58	28	0	621805568	44	6214
2026-01-29 14:43:57.46	88.13	21.71	-34.8	-36.1	29.5	3.02e+01	60	28	0	623902720	44	6157
2026-01-29 14:43:58.47	88.45	21.70	-34.8	-36.0	29.5	3.02e+01	49	28	0	625475584	44	6124
2026-01-29 14:43:59.48	88.76	21.70	-34.9	-36.2	29.5	3.02e+01	57	28	0	627572736	44	6216
2026-01-29 14:44:00.48	89.07	21.70	-35.0	-36.2	29.4	3.02e+01	60	28	0	629145600	44	6213
2026-01-29 14:44:01.49	89.38	21.69	-34.7	-35.9	29.6	3.02e+01	57	28	0	631242752	44	6041
2026-01-29 14:44:02.50	89.70	21.68	-34.8	-36.0	29.6	3.02e+01	58	28	0	633339904	44	6105
2026-01-29 14:44:03.51	90.01	21.68	-34.9	-36.1	29.5	3.02e+01	47	28	0	634912768	44	6157
2026-01-29 14:44:04.52	90.32	21.67	-34.8	-36.0	29.5	3.02e+01	59	28	0	637009920	44	6121
2026-01-29 14:44:05.53	90.64	21.66	-34.7	-36.0	29.6	3.02e+01	58	28	0	638582784	44	6079
2026-01-29 14:44:06.54	90.95	21.65	-34.9	-36.1	29.5	3.02e+01	45	28	0	640679936	44	6179
2026-01-29 14:44:07.55	91.26	21.64	-34.7	-35.9	29.7	3.02e+01	65	28	0	642777088	44	6035
2026-01-29 14:44:08.56	91.57	21.63	-34.8	-36.0	29.4	3.02e+01	59	28	0	644349952	44	6115
2026-01-29 14:44:09.57	91.89	21.61	-34.8	-36.0	29.5	3.02e+01	57	28	0	646447104	44	6105
2026-01-29 14:44:10.58	92.20	21.60	-34.6	-35.8	29.6	3.02e+01	59	28	0	648544256	44	5974
2026-01-29 14:44:11.59	92.51	21.59	-34.8	-36.0	29.6	3.02e+01	45	28	0	650117120	44	6073
2026-01-29 14:44:12.60	92.82	21.57	-34.8	-36.0	29.5	3.02e+01	57	28	0	652214272	44	6126
2026-01-29 14:44:13.61	93.13	21.56	-34.8	-36.0	29.5	3.02e+01	60	28	0	653787136	44	6099
2026-01-29 14:44:14.62	93.44	21.54	-34.7	-35.9	29.6	3.02e+01	53	28	0	655884288	44	6015
2026-01-29 14:44:15.63	93.75	21.52	-34.8	-36.0	29.6	3.02e+01	61	28	0	657981440	44	6078
2026-01-29 14:44:16.64	94.06	21.51	-34.9	-36.1	29.6	3.02e+01	59	28	0	659554304	44	6164
2026-01-29 14:44:17.65	94.37	21.49	-34.8	-36.0	29.5	3.02e+01	57	28	0	661651456	44	6102
2026-01-29 14:44:18.66	94.68	21.47	-35.0	-36.2	29.4	3.02e+01	56	28	0	663748608	44	6238
2026-01-29 14:44:19.67	94.99	21.45	-34.8	-36.0	29.5	3.02e+01	45	28	0	665321472	44	6100
2026-01-29 14:44:20.68	95.30	21.43	-34.6	-35.8	29.7	3.02e+01	57	28	0	667418624	44	5965
2026-01-29 14:44:21.69	95.60	21.40	-34.7	-35.9	29.6	3.02e+01	58	28	0	668991488	44	6037
2026-01-29 14:44:22.70	95.91	21.38	-34.7	-35.9	29.5	3.02e+01	46	28	0	671088640	44	6055
2026-01-29 14:44:23.71	96.22	21.36	-34.6	-35.8	29.7	3.02e+01	58	28	0	673185792	44	5974
2026-01-29 14:44:24.72	96.53	21.33	-34.6	-35.8	29.7	3.02e+01	60	28	0	674758656	44	5932
2026-01-29 14:44:25.73	96.83	21.31	-34.5	-35.7	29.7	3.02e+01	58	28	0	676855808	44	5888
2026-01-29 14:44:26.74	97.14	21.28	-34.7	-35.9	29.6	3.02e+01	61	28	0	678428672	44	6006
2026-01-29 14:44:27.75	97.44	21.26	-34.7	-35.9	29.6	3.02e+01	54	28	0	680525824	44	6046
2026-01-29 14:44:28.76	97.75	21.23	-34.7	-35.9	29.6	3.02e+01	61	28	0	682622976	44	6004
2026-01-29 14:44:29.77	98.05	21.20	-34.5	-35.7	29.7	3.02e+01	59	28	0	684195840	44	5914
2026-01-29 14:44:30.78	98.35	21.17	-34.8	-36.0	29.5	3.02e+01	46	28	0	686292992	44	6081
2026-01-29 14:44:31.79	98.66	21.14	-34.7	-36.0	29.5	3.02e+01	61	28	0	687865856	44	6071
2026-01-29 14:44:32.80	98.96	21.11	-34.5	-35.7	29.8	3.02e+01	44	28	0	689963008	44	5880
2026-01-29 14:44:33.81	99.26	21.08	-34.5	-35.7	29.8	3.02e+01	59	28	0	692060160	44	5895
2026-01-29 14:44:34.82	99.56	21.05	-34.5	-35.7	29.6	3.02e+01	63	28	0	693633024	44	5922
2026-01-29 14:44:35.83	99.86	21.02	-34.5	-35.7	29.7	3.02e+01	45	28	0	695730176	44	5907
2026-01-29 14:44:36.84	100.16	20.98	-34.6	-35.8	29.7	3.02e+01	60	28	0	697303040	44	5946
2026-01-29 14:44:37.85	100.46	20.95	-34.6	-35.8	29.7	3.02e+01	57	28	0	699400192	44	5958
2026-01-29 14:44:38.86	100.76	20.92	-34.5	-35.7	29.8	3.02e+01	58	28	0	701497344	44	5882
2026-01-29 14:44:39.87	101.05	20.88	-34.6	-35.8	29.6	3.02e+01	58	28	0	703070208	44	5978
2026-01-29 14:44:40.87	101.35	20.85	-34.6	-35.8	29.6	3.02e+01	45	28	0	705167360	44	5989
2026-01-29 14:44:41.88	101.64	20.81	-34.4	-35.6	29.9	3.02e+01	56	28	0	706740224	44	5796
2026-01-29 14:44:42.89	101.94	20.77	-34.4	-35.6	29.8	3.02e+01	60	28	0	708837376	44	5826
2026-01-29 14:44:43.90	102.23	20.73	-34.4	-35.6	29.9	3.02e+01	51	28	0	710934528	44	5816
2026-01-29 14:44:44.91	102.53	20.69	-34.4	-35.5	29.8	3.02e+01	58	28	0	712507392	44	5788
2026-01-29 14:44:45.92	102.82	20.66	-34.6	-35.8	29.7	3.02e+01	59	28	0	714604544	44	5932
2026-01-29 14:44:46.93	103.11	20.62	-34.4	-35.6	29.7	3.02e+01	53	28	0	716701696	44	5848
2026-01-29 14:44:47.94	103.41	20.58	-34.5	-35.7	29.7	3.02e+01	60	28	0	718274560	44	5902
2026-01-29 14:44:48.94	103.69	20.53	-34.5	-35.6	29.8	3.02e+01	53	28	0	720371712	44	5856
2026-01-29 14:44:49.96	103.99	20.49	-34.3	-35.5	29.9	3.02e+01	64	28	0	721944576	44	5743
2026-01-29 14:44:50.96	104.27	20.45	-34.5	-35.7	29.8	3.02e+01	56	28	0	724041728	44	5872
2026-01-29 14:44:51.97	104.56	20.41	-34.5	-35.7	29.7	3.02e+01	47	28	0	726138880	44	5919
2026-01-29 14:44:52.98	104.85	20.36	-34.7	-35.9	29.5	3.02e+01	60	28	0	727711744	44	6008
2026-01-29 14:44:53.99	105.14	20.32	-34.8	-36.0	29.4	3.02e+01	57	28	0	729808896	44	6092
2026-01-29 14:44:55.00	105.42	20.27	-34.6	-35.8	29.6	3.02e+01	60	28	0	731906048	44	5944
2026-01-29 14:44:56.01	105.71	20.23	-34.3	-35.4	29.9	3.02e+01	63	28	0	733478912	44	5722
2026-01-29 14:44:57.02	105.99	20.18	-34.3	-35.5	29.9	3.02e+01	48	28	0	735576064	44	5750
2026-01-29 14:44:58.03	106.27	20.14	-34.4	-35.6	29.9	3.02e+01	59	28	0	737148928	44	5826
2026-01-29 14:44:59.04	106.56	20.09	-34.2	-35.3	30.0	3.02e+01	60	28	0	739246080	44	5659
2026-01-29 14:45:00.05	106.84	20.04	-34.4	-35.5	29.8	3.02e+01	48	28	0	741343232	44	5790
2026-01-29 14:45:01.06	107.12	19.99	-34.4	-35.6	29.8	3.02e+01	60	28	0	742916096	44	5816
2026-01-29 14:45:02.07	107.40	19.94	-34.5	-35.7	29.7	3.02e+01	59	28	0	745013248	44	5867
2026-01-29 14:45:03.08	107.68	19.90	-34.4	-35.6	29.7	3.02e+01	60	28	0	746586112	44	5843
2026-01-29 14:45:04.09	107.95	19.85	-34.3	-35.5	29.9	3.02e+01	61	28	0	748683264	44	5776
2026-01-29 14:45:05.09	108.23	19.80	-34.3	-35.5	29.9	3.02e+01	53	28	0	750780416	44	5750
2026-01-29 14:45:06.10	108.50	19.74	-34.4	-35.6	29.8	3.02e+01	59	28	0	752353280	44	5838
2026-01-29 14:45:07.11	108.78	19.69	-34.3	-35.5	29.9	3.02e+01	57	28	0	754450432	44	5763
2026-01-29 14:45:08.13	109.06	19.64	-34.3	-35.4	30.0	3.02e+01	58	28	0	756023296	44	5721
2026-01-29 14:45:09.14	109.33	19.59	-34.1	-35.3	30.0	3.02e+01	61	28	0	758120448	44	5632
2026-01-29 14:45:10.15	109.60	19.54	-34.2	-35.4	30.0	3.02e+01	46	28	0	760217600	44	5683
2026-01-29 14:45:11.16	109.87	19.48	-34.3	-35.5	29.9	3.02e+01	60	28	0	761790464	44	5733
2026-01-29 14:45:12.17	110.14	19.43	-34.3	-35.5	29.9	3.02e+01	60	28	0	763887616	44	5745
2026-01-29 14:45:13.18	110.41	19.37	-34.3	-35.5	29.8	3.02e+01	44	28	0	765460480	44	5780
2026-01-29 14:45:14.19	110.68	19.32	-34.4	-35.6	29.8	3.02e+01	59	28	0	767557632	44	5793
2026-01-29 14:45:15.19	110.94	19.26	-34.3	-35.5	29.9	3.02e+01	58	28	0	769654784	44	5741
2026-01-29 14:45:16.20	111.21	19.21	-34.3	-35.4	29.9	3.02e+01	59	28	0	771227648	44	5719
2026-01-29 14:45:17.21	111.48	19.15	-34.2	-35.4	30.0	3.02e+01	59	28	0	773324800	44	5700
2026-01-29 14:45:18.22	111.74	19.10	-34.1	-35.3	30.1	3.02e+01	45	28	0	774897664	44	5635
2026-01-29 14:45:19.23	112.00	19.04	-34.1	-35.2	30.1	3.02e+01	57	28	0	776994816	44	5579
2026-01-29 14:45:20.24	112.27	18.98	-34.1	-35.2	30.1	3.02e+01	58	28	0	779091968	44	5594
2026-01-29 14:45:21.25	112.53	18.92	-34.2	-35.4	29.9	3.02e+01	45	28	0	780664832	44	5703
2026-01-29 14:45:22.26	112.79	18.86	-34.3	-35.5	29.8	3.02e+01	58	28	0	782761984	44	5786
2026-01-29 14:45:23.27	113.05	18.81	-34.4	-35.6	29.8	3.02e+01	59	28	0	784859136	44	5827
2026-01-29 14:45:24.28	113.30	18.75	-34.3	-35.5	29.8	3.02e+01	61	28	0	786432000	44	5769
2026-01-29 14:45:25.29	113.56	18.69	-34.2	-35.4	29.9	3.02e+01	61	28	0	788529152	44	5685
2026-01-29 14:45:26.30	113.82	18.63	-34.2	-35.4	29.9	3.02e+01	45	28	0	790102016	44	5669
2026-01-29 14:45:27.31	114.07	18.57	-34.0	-35.1	30.1	3.02e+01	61	28	0	792199168	44	5529
2026-01-29 14:45:28.32	114.33	18.51	-34.1	-35.3	30.0	3.02e+01	56	28	0	794296320	44	5595
2026-01-29 14:45:29.33	114.58	18.45	-34.1	-35.3	30.0	3.02e+01	53	28	0	795869184	44	5611
2026-01-29 14:45:30.34	114.83	18.38	-34.0	-35.2	30.1	3.02e+01	59	28	0	797966336	44	5586
2026-01-29 14:45:31.35	115.08	18.32	-34.1	-35.3	30.0	3.02e+01	60	28	0	800063488	44	5627
2026-01-29 14:45:32.36	115.33	18.26	-34.2	-35.4	30.0	3.02e+01	61	28	0	801636352	44	5674
2026-01-29 14:45:33.37	115.58	18.20	-34.0	-35.2	30.1	3.02e+01	57	28	0	803733504	44	5573
2026-01-29 14:45:34.38	115.83	18.14	-34.0	-35.2	30.1	3.02e+01	55	28	0	805306368	44	5566
2026-01-29 14:45:35.39	116.07	18.07	-34.1	-35.3	30.1	3.02e+01	59	28	0	807403520	44	5600
2026-01-29 14:45:36.40	116.32	18.01	-34.1	-35.3	30.0	3.02e+01	64	28	0	809500672	44	5597
2026-01-29 14:45:37.41	116.56	17.95	-34.1	-35.3	29.9	3.02e+01	47	28	0	811073536	44	5613
2026-01-29 14:45:38.42	116.81	17.88	-34.1	-35.3	30.0	3.02e+01	59	28	0	813170688	44	5637
2026-01-29 14:45:39.43	117.05	17.82	-34.2	-35.4	29.9	3.02e+01	57	28	0	814743552	44	5695
2026-01-29 14:45:40.44	117.29	17.75	-34.0	-35.2	30.0	3.02e+01	58	28	0	816840704	44	5582
2026-01-29 14:45:41.45	117.53	17.69	-34.1	-35.3	29.9	3.02e+01	60	28	0	818937856	44	5620
2026-01-29 14:45:42.46	117.77	17.62	-34.1	-35.3	30.0	3.02e+01	53	28	0	820510720	44	5605
2026-01-29 14:45:43.47	118.01	17.56	-34.2	-35.4	29.9	3.02e+01	58	28	0	822607872	44	5699
2026-01-29 14:45:44.48	118.25	17.49	-34.2	-35.4	29.9	3.02e+01	58	28	0	824180736	44	5673
2026-01-29 14:45:45.49	118.48	17.43	-34.0	-35.2	30.1	3.02e+01	59	28	0	826277888	44	5564
2026-01-29 14:45:46.50	118.72	17.36	-34.1	-35.3	30.0	3.02e+01	59	28	0	828375040	44	5599
2026-01-29 14:45:47.51	118.95	17.29	-34.0	-35.2	30.1	3.02e+01	42	28	0	829947904	42	6216
2026-01-29 14:45:48.52	119.18	17.23	-34.0	-35.2	30.1	3.02e+01	60	28	0	832045056	42	6219
2026-01-29 14:45:49.53	119.42	17.16	-34.1	-35.2	30.1	3.02e+01	61	28	0	833617920	42	6275
2026-01-29 14:45:50.54	119.65	17.09	-34.1	-35.3	30.0	3.02e+01	44	28	0	835715072	42	6317
2026-01-29 14:45:51.54	119.87	17.03	-34.2	-35.3	29.9	3.02e+01	59	28	0	837812224	42	6345
2026-01-29 14:45:52.55	120.10	16.96	-34.1	-35.3	30.0	3.02e+01	59	28	0	839385088	42	6287
2026-01-29 14:45:53.56	120.33	16.89	-34.2	-35.4	29.9	3.02e+01	60	28	0	841482240	42	6385
2026-01-29 14:45:54.57	120.56	16.83	-34.1	-35.3	30.0	3.02e+01	59	28	0	843055104	42	6293
2026-01-29 14:45:55.58	120.78	16.76	-34.1	-35.3	30.0	3.02e+01	45	28	0	845152256	42	6337
2026-01-29 14:45:56.59	121.01	16.69	-34.1	-35.3	30.0	3.02e+01	60	28	0	847249408	42	6295
2026-01-29 14:45:57.60	121.23	16.62	-34.0	-35.2	30.1	3.02e+01	58	28	0	848822272	42	6246
2026-01-29 14:45:58.61	121.45	16.55	-34.1	-35.3	30.0	3.02e+01	49	28	0	850919424	42	6287
2026-01-29 14:45:59.62	121.67	16.48	-33.9	-35.1	30.1	3.02e+01	59	28	0	853016576	42	6162
2026-01-29 14:46:00.63	121.89	16.41	-34.0	-35.2	30.1	3.02e+01	59	28	0	854589440	42	6216
2026-01-29 14:46:01.64	122.11	16.35	-34.1	-35.3	30.0	3.02e+01	59	28	0	856686592	42	6287
2026-01-29 14:46:02.65	122.33	16.28	-34.1	-35.3	30.0	3.02e+01	59	28	0	858259456	42	6326
2026-01-29 14:46:03.66	122.55	16.21	-34.1	-35.3	30.0	3.02e+01	44	28	0	860356608	42	6290
2026-01-29 14:46:04.67	122.76	16.14	-34.2	-35.4	30.0	3.02e+01	58	28	0	862453760	42	6363
2026-01-29 14:46:05.67	122.98	16.07	-34.1	-35.3	30.0	3.02e+01	58	28	0	864026624	42	6310
2026-01-29 14:46:06.68	123.19	16.00	-34.0	-35.2	30.0	3.02e+01	52	28	0	866123776	42	6255
2026-01-29 14:46:07.69	123.40	15.93	-34.0	-35.2	30.0	3.02e+01	58	28	0	868220928	42	6235
2026-01-29 14:46:08.70	123.62	15.86	-34.2	-35.4	29.9	3.02e+01	57	28	0	869793792	42	6355
2026-01-29 14:46:09.71	123.83	15.79	-34.0	-35.2	30.0	3.02e+01	53	28	0	871890944	42	6247
2026-01-29 14:46:10.72	124.04	15.72	-34.1	-35.2	30.0	3.02e+01	60	28	0	873463808	42	6271
2026-01-29 14:46:11.73	124.25	15.65	-34.1	-35.2	30.0	3.02e+01	55	28	0	875560960	42	6262
2026-01-29 14:46:12.74	124.45	15.58	-34.0	-35.2	30.1	3.02e+01	59	28	0	877658112	42	6212
2026-01-29 14:46:13.75	124.66	15.51	-34.1	-35.3	29.9	3.02e+01	61	28	0	879230976	42	6291
2026-01-29 14:46:14.76	124.87	15.43	-34.0	-35.2	30.0	3.02e+01	60	28	0	881328128	42	6250
2026-01-29 14:46:15.77	125.07	15.36	-34.1	-35.2	30.0	3.02e+01	61	28	0	882900992	42	6268
2026-01-29 14:46:16.78	125.27	15.29	-34.1	-35.3	29.9	3.02e+01	50	28	0	884998144	42	6291
2026-01-29 14:46:17.79	125.48	15.22	-34.1	-35.3	30.0	3.02e+01	58	28	0	887095296	42	6305
2026-01-29 14:46:18.80	125.68	15.15	-34.1	-35.3	30.0	3.02e+01	59	28	0	888668160	42	6292
2026-01-29 14:46:19.81	125.88	15.08	-34.2	-35.4	29.8	3.02e+01	45	28	0	890765312	42	6394
2026-01-29 14:46:20.83	126.08	15.01	-34.1	-35.3	29.9	3.02e+01	60	28	0	892338176	42	6311
2026-01-29 14:46:21.84	126.28	14.94	-34.2	-35.4	29.8	3.02e+01	58	28	0	894435328	42	6375
2026-01-29 14:46:22.84	126.48	14.86	-34.1	-35.3	30.0	3.02e+01	58	28	0	896532480	42	6283
2026-01-29 14:46:23.86	126.67	14.79	-34.0	-35.2	30.0	3.02e+01	58	28	0	898105344	42	6256
2026-01-29 14:46:24.87	126.87	14.72	-34.1	-35.3	29.9	3.02e+01	52	28	0	900202496	42	6286
2026-01-29 14:46:25.88	127.07	14.65	-34.1	-35.3	29.9	3.02e+01	57	28	0	901775360	42	6300
2026-01-29 14:46:26.89	127.26	14.58	-34.2	-35.4	29.8	3.02e+01	58	28	0	903872512	42	6355
2026-01-29 14:46:27.90	127.45	14.51	-34.2	-35.4	29.8	3.02e+01	46	28	0	905969664	42	6352
2026-01-29 14:46:28.91	127.64	14.43	-34.3	-35.5	29.7	3.02e+01	60	28	0	907542528	42	6465
2026-01-29 14:46:29.92	127.83	14.36	-34.1	-35.3	29.8	3.02e+01	58	28	0	909639680	42	6314
2026-01-29 14:46:30.93	128.02	14.29	-34.2	-35.4	29.8	3.02e+01	59	28	0	911212544	42	6366
2026-01-29 14:46:31.94	128.21	14.22	-34.2	-35.4	29.8	3.02e+01	60	28	0	913309696	42	6392
2026-01-29 14:46:32.95	128.40	14.15	-34.2	-35.4	29.9	3.02e+01	52	28	0	915406848	42	6359
2026-01-29 14:46:33.96	128.59	14.07	-34.2	-35.4	29.8	3.02e+01	62	28	0	916979712	42	6354
2026-01-29 14:46:34.97	128.78	14.00	-34.3	-35.5	29.7	3.02e+01	58	28	0	919076864	42	6466
2026-01-29 14:46:35.98	128.96	13.93	-34.2	-35.4	29.7	3.02e+01	47	28	0	921174016	42	6417
2026-01-29 14:46:36.99	129.14	13.86	-34.2	-35.4	29.8	3.02e+01	59	28	0	922746880	42	6385
2026-01-29 14:46:38.00	129.33	13.78	-34.3	-35.4	29.7	3.02e+01	63	28	0	924844032	42	6422
2026-01-29 14:46:39.01	129.51	13.71	-34.3	-35.4	29.7	3.02e+01	55	28	0	926416896	42	6412
2026-01-29 14:46:40.02	129.69	13.64	-34.2	-35.4	29.8	3.02e+01	60	28	0	928514048	42	6356
2026-01-29 14:46:41.03	129.87	13.57	-34.2	-35.3	29.9	3.02e+01	55	28	0	930611200	42	6348
2026-01-29 14:46:42.04	130.05	13.50	-34.3	-35.5	29.8	3.02e+01	59	29	0	932184064	42	6465
2026-01-29 14:46:43.05	130.23	13.42	-34.2	-35.4	29.8	3.02e+01	61	28	0	934281216	42	6383
2026-01-29 14:46:44.06	130.41	13.35	-34.3	-35.4	29.7	3.02e+01	47	29	0	936378368	42	6423
2026-01-29 14:46:45.07	130.59	13.28	-34.3	-35.5	29.7	3.02e+01	58	29	0	937951232	42	6436
2026-01-29 14:46:46.08	130.76	13.21	-34.2	-35.4	29.8	3.02e+01	59	28	0	940048384	42	6382
2026-01-29 14:46:47.09	130.94	13.13	-34.3	-35.5	29.6	3.02e+01	58	28	0	941621248	42	6452
2026-01-29 14:46:48.10	131.11	13.06	-34.4	-35.6	29.6	3.02e+01	55	28	0	943718400	42	6535
2026-01-29 14:46:49.11	131.29	12.99	-34.3	-35.5	29.6	3.02e+01	52	28	0	945815552	42	6487
2026-01-29 14:46:50.12	131.46	12.92	-34.4	-35.6	29.6	3.02e+01	58	29	0	947388416	42	6551
2026-01-29 14:46:51.13	131.63	12.85	-34.3	-35.4	29.7	3.02e+01	57	29	0	949485568	42	6419
2026-01-29 14:46:52.13	131.80	12.77	-34.4	-35.5	29.6	3.02e+01	61	28	0	951058432	42	6491
2026-01-29 14:46:53.14	131.97	12.70	-34.5	-35.7	29.5	3.02e+01	60	28	0	953155584	42	6624
2026-01-29 14:46:54.15	132.14	12.63	-34.4	-35.6	29.5	3.02e+01	49	28	0	955252736	42	6565
2026-01-29 14:46:55.16	132.31	12.56	-34.5	-35.7	29.4	3.02e+01	60	28	0	956825600	42	6638
2026-01-29 14:46:56.17	132.47	12.49	-34.4	-35.6	29.6	3.02e+01	60	28	0	958922752	42	6554
2026-01-29 14:46:57.18	132.64	12.41	-34.4	-35.6	29.6	3.02e+01	55	28	0	960495616	42	6507
2026-01-29 14:46:58.19	132.81	12.34	-34.5	-35.7	29.5	3.02e+01	58	28	0	962592768	42	6577
2026-01-29 14:46:59.20	132.97	12.27	-34.4	-35.6	29.6	3.02e+01	59	28	0	964689920	42	6569
2026-01-29 14:47:00.21	133.14	12.20	-34.4	-35.6	29.5	3.02e+01	57	28	0	966262784	42	6571
2026-01-29 14:47:01.22	133.30	12.13	-34.4	-35.6	29.5	3.02e+01	61	28	0	968359936	42	6564
2026-01-29 14:47:02.23	133.46	12.05	-34.5	-35.7	29.5	3.02e+01	46	28	0	969932800	42	6608
2026-01-29 14:47:03.24	133.62	11.98	-34.5	-35.7	29.5	3.02e+01	62	28	0	972029952	42	6604
2026-01-29 14:47:04.25	133.78	11.91	-34.6	-35.8	29.3	3.02e+01	59	28	0	974127104	42	6684
2026-01-29 14:47:05.26	133.94	11.84	-34.5	-35.7	29.5	3.02e+01	54	28	0	975699968	42	6577
2026-01-29 14:47:06.27	134.10	11.77	-34.4	-35.5	29.6	3.02e+01	60	28	0	977797120	42	6498
2026-01-29 14:47:07.28	134.26	11.70	-34.5	-35.7	29.5	3.02e+01	63	28	0	979369984	42	6579
2026-01-29 14:47:08.29	134.42	11.62	-34.5	-35.7	29.5	3.02e+01	61	28	0	981467136	42	6590
2026-01-29 14:47:09.30	134.57	11.55	-34.5	-35.7	29.4	3.02e+01	59	28	0	983564288	42	6647
2026-01-29 14:47:10.31	134.73	11.48	-34.7	-35.9	29.3	3.02e+01	61	28	0	985137152	42	6755
2026-01-29 14:47:11.32	134.89	11.41	-34.6	-35.8	29.4	3.02e+01	60	28	0	987234304	42	6714
2026-01-29 14:47:12.33	135.04	11.34	-34.6	-35.8	29.4	3.02e+01	59	28	0	989331456	42	6672
2026-01-29 14:47:13.34	135.19	11.27	-34.7	-35.9	29.3	3.02e+01	45	28	0	990904320	42	6746
2026-01-29 14:47:14.35	135.35	11.19	-34.8	-36.0	29.2	3.02e+01	62	28	0	993001472	42	6844
2026-01-29 14:47:15.36	135.50	11.12	-34.8	-36.0	29.3	3.02e+01	58	28	0	994574336	42	6829
2026-01-29 14:47:16.37	135.65	11.05	-34.8	-36.0	29.2	3.02e+01	59	28	0	996671488	42	6871
2026-01-29 14:47:17.38	135.80	10.98	-34.8	-36.0	29.2	3.02e+01	61	28	0	998768640	42	6872
2026-01-29 14:47:18.38	135.95	10.91	-34.9	-36.2	29.1	3.02e+01	52	28	0	1000341504	42	6980
2026-01-29 14:47:19.39	136.10	10.84	-34.8	-36.1	29.1	3.02e+01	56	28	0	1002438656	44	6135
2026-01-29 14:47:20.40	136.24	10.77	-35.0	-36.2	29.0	3.02e+01	60	28	0	1004011520	44	6237
2026-01-29 14:47:21.41	136.39	10.70	-34.8	-36.0	29.1	3.02e+01	49	29	0	1006108672	44	6129
2026-01-29 14:47:22.42	136.54	10.63	-34.9	-36.1	29.0	3.02e+01	59	28	0	1008205824	44	6176
2026-01-29 14:47:23.43	136.68	10.56	-34.8	-36.0	29.2	3.02e+01	61	28	0	1009778688	44	6089
2026-01-29 14:47:24.44	136.83	10.49	-34.8	-36.0	29.1	3.02e+01	54	29	0	1011875840	44	6097
2026-01-29 14:47:25.45	136.97	10.42	-34.8	-36.0	29.1	3.02e+01	59	28	0	1013972992	44	6125
2026-01-29 14:47:26.46	137.12	10.35	-34.8	-36.0	29.1	3.02e+01	44	28	0	1015545856	44	6132
2026-01-29 14:47:27.46	137.26	10.28	-34.9	-36.1	28.9	3.02e+01	59	28	0	1017643008	44	6189
2026-01-29 14:47:28.48	137.40	10.20	-35.0	-36.2	28.9	3.02e+01	62	28	0	1019215872	44	6242
2026-01-29 14:47:29.49	137.55	10.13	-35.1	-36.3	28.8	3.02e+01	46	28	0	1021313024	44	6329
2026-01-29 14:47:30.50	137.69	10.06	-35.1	-36.3	28.8	3.02e+01	59	28	0	1023410176	44	6332
2026-01-29 14:47:31.50	137.83	9.99	-35.1	-36.3	28.7	3.02e+01	47	29	0	1024983040	44	6337
2026-01-29 14:47:32.51	137.96	9.92	-34.9	-36.1	28.9	3.02e+01	59	28	0	1027080192	44	6199
2026-01-29 14:47:33.52	138.10	9.85	-34.8	-36.0	29.0	3.02e+01	60	28	0	1028653056	44	6094
2026-01-29 14:47:34.53	138.24	9.79	-34.7	-36.0	29.1	3.02e+01	55	28	0	1030750208	44	6068
2026-01-29 14:47:35.54	138.38	9.72	-34.8	-36.1	29.0	3.02e+01	59	29	0	1032847360	44	6149
2026-01-29 14:47:36.55	138.52	9.65	-34.9	-36.1	28.9	3.02e+01	57	28	0	1034420224	44	6200
2026-01-29 14:47:37.56	138.65	9.58	-34.8	-36.0	29.0	3.02e+01	57	28	0	1036517376	44	6112
2026-01-29 14:47:38.57	138.79	9.51	-35.0	-36.2	28.8	3.02e+01	61	28	0	1038090240	44	6255
2026-01-29 14:47:39.58	138.92	9.44	-35.1	-36.4	28.7	3.02e+01	45	29	0	1040187392	44	6378
2026-01-29 14:47:40.59	139.06	9.37	-35.2	-36.4	28.6	3.02e+01	59	29	0	1042284544	44	6412
2026-01-29 14:47:41.60	139.19	9.30	-35.4	-36.7	28.4	3.02e+01	59	29	0	1043857408	44	6606
2026-01-29 14:47:42.61	139.32	9.23	-35.5	-36.8	28.3	3.02e+01	49	28	0	1045954560	44	6678
2026-01-29 14:47:43.62	139.45	9.16	-35.8	-37.0	28.0	3.02e+01	60	28	0	1047527424	44	6875
2026-01-29 14:47:44.63	139.59	9.09	-35.9	-37.2	27.7	3.02e+01	59	28	0	1049624576	44	7010
2026-01-29 14:47:45.64	139.72	9.02	-36.2	-37.5	27.6	3.02e+01	59	28	0	1051721728	46	6445
2026-01-29 14:47:46.65	139.85	8.95	-36.4	-37.8	27.3	3.02e+01	58	29	0	1053294592	46	6670
2026-01-29 14:47:47.66	139.98	8.88	-36.7	-38.1	26.9	3.02e+01	44	28	0	1055391744	46	6930
2026-01-29 14:47:48.67	140.11	8.82	-37.0	-38.4	26.5	3.02e+01	52	28	0	1057488896	48	6377
2026-01-29 14:47:49.68	140.23	8.75	-37.3	-38.7	26.3	3.02e+01	59	28	0	1059061760	48	6607
2026-01-29 14:47:50.69	140.36	8.68	-37.4	-38.9	25.9	3.02e+01	49	28	0	1061158912	48	6742
2026-01-29 14:47:51.70	140.49	8.61	-37.6	-39.1	25.7	3.02e+01	63	28	0	1062731776	48	6895
2026-01-29 14:47:52.71	140.61	8.54	-37.8	-39.3	25.5	3.02e+01	57	28	0	1064828928	48	7062
2026-01-29 14:47:53.72	140.74	8.47	-38.0	-39.5	25.2	3.02e+01	59	28	0	1066926080	50	6485
2026-01-29 14:47:54.73	140.87	8.41	-38.2	-39.8	24.9	3.02e+01	56	28	0	1068498944	50	6655
2026-01-29 14:47:55.74	140.99	8.34	-38.4	-40.0	24.6	3.02e+01	60	28	0	1070596096	50	6847
2026-01-29 14:47:56.75	141.11	8.27	-38.4	-40.1	24.5	3.02e+01	59	28	0	1072168960	50	6893
2026-01-29 14:47:57.76	141.24	8.20	-38.6	-40.2	24.4	3.02e+01	60	29	0	1074266112	50	7002
2026-01-29 14:47:58.77	141.36	8.14	-38.7	-40.3	24.3	3.02e+01	58	28	0	1076363264	50	7110
2026-01-29 14:47:59.78	141.48	8.07	-38.4	-40.1	24.5	3.02e+01	62	28	0	1077936128	50	6912
2026-01-29 14:48:00.78	141.60	8.00	-38.5	-40.1	24.6	3.02e+01	51	28	0	1080033280	50	6915
2026-01-29 14:48:01.80	141.72	7.93	-38.4	-40.1	24.7	3.02e+01	57	28	0	1082130432	50	6888
2026-01-29 14:48:02.80	141.84	7.87	-38.4	-40.0	24.7	3.02e+01	60	28	0	1083703296	50	6851
2026-01-29 14:48:03.81	141.96	7.80	-38.3	-39.9	24.8	3.02e+01	53	28	0	1085800448	50	6783
2026-01-29 14:48:04.82	142.08	7.73	-38.3	-39.9	24.9	3.02e+01	62	28	0	1087373312	50	6751
2026-01-29 14:48:05.83	142.20	7.67	-38.1	-39.6	25.1	3.02e+01	60	28	0	1089470464	50	6555
2026-01-29 14:48:06.84	142.32	7.60	-38.1	-39.6	25.2	3.02e+01	59	28	0	1091567616	50	6548
2026-01-29 14:48:07.85	142.44	7.53	-38.0	-39.5	25.2	3.02e+01	59	28	0	1093140480	50	6492
2026-01-29 14:48:08.86	142.55	7.46	-37.8	-39.3	25.5	3.02e+01	45	29	0	1095237632	50	6323
2026-01-29 14:48:09.87	142.67	7.40	-37.8	-39.3	25.6	3.02e+01	60	28	0	1096810496	50	6281
2026-01-29 14:48:10.88	142.79	7.33	-37.5	-39.0	25.8	3.02e+01	63	28	0	1098907648	50	6099
2026-01-29 14:48:11.89	142.90	7.27	-37.6	-39.1	25.6	3.02e+01	49	28	0	1101004800	50	6169
2026-01-29 14:48:12.90	143.02	7.20	-37.3	-38.8	26.0	3.02e+01	58	28	0	1102577664	50	5973
2026-01-29 14:48:13.91	143.13	7.13	-37.3	-38.8	26.0	3.02e+01	57	28	0	1104674816	50	5956
2026-01-29 14:48:14.92	143.24	7.07	-37.3	-38.7	26.1	3.02e+01	59	28	0	1106247680	50	5918
2026-01-29 14:48:15.93	143.36	7.00	-37.2	-38.7	26.2	3.02e+01	60	28	0	1108344832	50	5868
2026-01-29 14:48:16.94	143.47	6.93	-37.2	-38.6	26.2	3.02e+01	57	29	0	1110441984	50	5824
2026-01-29 14:48:17.95	143.58	6.87	-37.2	-38.7	26.2	3.02e+01	62	28	0	1112014848	50	5871
2026-01-29 14:48:18.96	143.69	6.80	-37.4	-38.9	26.1	3.02e+01	59	28	0	1114112000	50	6003
2026-01-29 14:48:19.97	143.80	6.74	-37.2	-38.7	26.2	3.02e+01	47	28	0	1115684864	50	5875
2026-01-29 14:48:20.98	143.91	6.67	-37.3	-38.7	26.1	3.02e+01	61	29	0	1117782016	50	5897
2026-01-29 14:48:21.99	144.02	6.61	-37.3	-38.7	26.2	3.02e+01	60	28	0	1119879168	50	5897
2026-01-29 14:48:23.00	144.13	6.54	-37.5	-38.9	26.0	3.02e+01	60	28	0	1121452032	50	6064
2026-01-29 14:48:24.01	144.24	6.48	-37.2	-38.6	26.3	3.02e+01	60	29	0	1123549184	50	5813
2026-01-29 14:48:25.02	144.35	6.41	-37.1	-38.6	26.2	3.02e+01	51	29	0	1125646336	50	5803
2026-01-29 14:48:26.03	144.46	6.35	-36.9	-38.3	26.4	3.02e+01	60	29	0	1127219200	48	6337
2026-01-29 14:48:27.04	144.57	6.28	-37.1	-38.5	26.2	3.02e+01	53	28	0	1129316352	48	6487
2026-01-29 14:48:28.04	144.67	6.22	-37.1	-38.5	26.2	3.02e+01	47	28	0	1130889216	48	6459
2026-01-29 14:48:29.06	144.78	6.15	-37.0	-38.4	26.3	3.02e+01	60	28	0	1132986368	48	6398
2026-01-29 14:48:30.06	144.89	6.09	-37.1	-38.6	26.2	3.02e+01	59	28	0	1135083520	48	6510
2026-01-29 14:48:31.07	144.99	6.02	-37.1	-38.5	26.3	3.02e+01	58	28	0	1136656384	48	6466
2026-01-29 14:48:32.08	145.10	5.96	-37.2	-38.6	26.3	3.02e+01	61	28	0	1138753536	48	6533
2026-01-29 14:48:33.09	145.20	5.90	-37.2	-38.7	26.2	3.02e+01	55	29	0	1140326400	48	6577
2026-01-29 14:48:34.10	145.30	5.83	-37.1	-38.6	26.4	3.02e+01	56	28	0	1142423552	48	6506
2026-01-29 14:48:35.11	145.41	5.77	-37.1	-38.6	26.3	3.02e+01	59	28	0	1144520704	48	6508
2026-01-29 14:48:36.12	145.51	5.70	-37.4	-38.9	26.1	3.02e+01	63	28	0	1146093568	48	6746
2026-01-29 14:48:37.13	145.61	5.64	-37.1	-38.5	26.4	3.02e+01	58	28	0	1148190720	48	6486
2026-01-29 14:48:38.14	145.72	5.58	-37.0	-38.4	26.4	3.02e+01	47	28	0	1150287872	48	6362
2026-01-29 14:48:39.15	145.82	5.51	-37.3	-38.7	26.2	3.02e+01	60	28	0	1151860736	48	6641
2026-01-29 14:48:40.16	145.92	5.45	-37.1	-38.6	26.3	3.02e+01	57	29	0	1153957888	48	6507
2026-01-29 14:48:41.17	146.02	5.39	-37.0	-38.5	26.4	3.02e+01	44	29	0	1155530752	48	6426
2026-01-29 14:48:42.18	146.12	5.32	-36.9	-38.3	26.5	3.02e+01	58	29	0	1157627904	48	6346
2026-01-29 14:48:43.18	146.22	5.26	-37.0	-38.4	26.3	3.02e+01	58	28	0	1159200768	48	6419
2026-01-29 14:48:44.19	146.32	5.20	-37.3	-38.7	26.2	3.02e+01	57	28	0	1161297920	48	6621
2026-01-29 14:48:45.20	146.42	5.13	-37.3	-38.7	26.1	3.02e+01	58	28	0	1163395072	48	6616
2026-01-29 14:48:46.21	146.51	5.07	-36.9	-38.3	26.5	3.02e+01	49	28	0	1164967936	48	6314
2026-01-29 14:48:47.22	146.61	5.01	-37.0	-38.4	26.4	3.02e+01	59	28	0	1167065088	48	6421
2026-01-29 14:48:48.23	146.71	4.94	-37.0	-38.5	26.4	3.02e+01	58	28	0	1168637952	48	6428
2026-01-29 14:48:49.24	146.81	4.88	-36.9	-38.3	26.4	3.02e+01	37	29	0	1170735104	48	6327
2026-01-29 14:48:50.25	146.90	4.82	-37.1	-38.5	26.3	3.02e+01	58	28	0	1172832256	48	6464
2026-01-29 14:48:51.26	147.00	4.76	-37.2	-38.6	26.3	3.02e+01	58	28	0	1174405120	48	6543
2026-01-29 14:48:52.27	147.10	4.70	-37.1	-38.5	26.4	3.02e+01	60	28	0	1176502272	48	6449
2026-01-29 14:48:53.28	147.19	4.63	-37.5	-38.9	25.9	3.02e+01	60	29	0	1178599424	48	6783
2026-01-29 14:48:54.29	147.29	4.57	-37.4	-38.9	26.0	3.02e+01	51	28	0	1180172288	48	6757
2026-01-29 14:48:55.29	147.38	4.51	-37.2	-38.7	26.0	3.02e+01	58	28	0	1182269440	48	6619
2026-01-29 14:48:56.30	147.47	4.45	-37.3	-38.8	26.0	3.02e+01	60	28	0	1183842304	48	6657
2026-01-29 14:48:57.31	147.57	4.39	-37.3	-38.8	26.0	3.02e+01	55	28	0	1185939456	48	6672
2026-01-29 14:48:58.33	147.66	4.32	-37.5	-39.0	25.7	3.02e+01	59	28	0	1188036608	48	6811
2026-01-29 14:48:59.33	147.75	4.26	-37.3	-38.8	25.9	3.02e+01	58	28	0	1189609472	48	6662
2026-01-29 14:49:00.34	147.85	4.20	-37.5	-39.0	25.7	3.02e+01	59	29	0	1191706624	48	6853
2026-01-29 14:49:01.35	147.94	4.14	-37.3	-38.7	25.9	3.02e+01	62	28	0	1193803776	48	6623
2026-01-29 14:49:02.36	148.03	4.08	-37.4	-38.8	25.9	3.02e+01	49	29	0	1195376640	48	6719
2026-01-29 14:49:03.37	148.12	4.02	-37.4	-38.9	25.7	3.02e+01	61	28	0	1197473792	48	6729
2026-01-29 14:49:04.38	148.21	3.96	-37.7	-39.2	25.5	3.02e+01	61	28	0	1199046656	48	6980
2026-01-29 14:49:05.39	148.30	3.89	-37.3	-38.8	25.7	3.02e+01	45	28	0	1201143808	48	6679
2026-01-29 14:49:06.40	148.39	3.83	-37.5	-38.9	25.5	3.02e+01	60	28	0	1203240960	48	6802
