passes_logs/2026/01/29/R4.6S_Anadyr/R4.6S_Anadyr__20260129_093550_TY-42_rec.log

#Pass ID: 20260129_093550_TY-42
#Satellite: TY-42
#Configuration: TY-42_900M
#almurnet v.1.7.20251203
#Start time: 2026-01-29 09:36:22

#Version: 2.2.20231116
#Station: R4.6S_Anadyr
#Location: 177.4865 lon 64.73178 lat
#TLE: 1 64048U 25103A   26028.87012731  .00008010  00000-0  38191-3 0 09994
#TLE: 2 64048 097.4122 104.0273 0001827 094.4790 293.3217 15.19170538 38926

#Time	Az	El	Level	Level2	SNR	BER	BlckErr	Temp	State	Recorded	gain1	gain2
2026-01-29 09:36:22.67	165.70	2.15	-45.4	-59.8	3.5	1.51e+00	0	27	0	0	60	39707
2026-01-29 09:36:23.67	165.71	2.22	-47.6	-50.1	6.1	0.00e+00	0	28	104	0	60	38967
2026-01-29 09:36:24.68	165.73	2.30	-47.6	-50.0	6.1	0.00e+00	0	28	104	0	60	38854
2026-01-29 09:36:25.69	165.74	2.37	-47.6	-50.1	6.1	0.00e+00	0	29	104	0	60	39025
2026-01-29 09:36:26.70	165.76	2.44	-47.6	-50.1	6.1	0.00e+00	0	29	104	0	60	38959
2026-01-29 09:36:27.71	165.77	2.51	-47.6	-50.1	6.1	0.00e+00	0	29	104	0	60	38983
2026-01-29 09:36:28.72	165.79	2.58	-47.6	-50.1	6.1	0.00e+00	0	29	104	0	60	39082
2026-01-29 09:36:29.73	165.80	2.66	-47.6	-50.0	6.0	0.00e+00	0	29	104	0	60	38946
2026-01-29 09:36:30.74	165.82	2.73	-47.6	-50.0	6.1	0.00e+00	0	29	104	0	60	38940
2026-01-29 09:36:31.75	165.83	2.80	-47.6	-50.1	6.1	0.00e+00	0	29	104	0	60	38989
2026-01-29 09:36:32.76	165.85	2.88	-47.6	-50.0	6.1	0.00e+00	0	29	104	0	60	38909
2026-01-29 09:36:33.77	165.86	2.95	-47.6	-50.1	6.1	0.00e+00	0	29	104	0	60	38979
2026-01-29 09:36:34.78	165.88	3.02	-47.6	-50.1	6.1	0.00e+00	0	29	104	0	60	38963
2026-01-29 09:36:35.79	165.89	3.10	-47.6	-50.1	6.1	0.00e+00	0	29	104	0	60	39037
2026-01-29 09:36:36.80	165.91	3.17	-47.6	-50.1	6.1	0.00e+00	0	29	104	0	60	38998
2026-01-29 09:36:37.82	165.92	3.25	-47.6	-50.1	6.0	0.00e+00	0	29	104	0	60	38970
2026-01-29 09:36:38.83	165.94	3.32	-47.6	-50.0	6.1	0.00e+00	0	29	104	0	60	38930
2026-01-29 09:36:39.84	165.96	3.40	-47.6	-50.0	6.1	0.00e+00	0	29	104	0	60	38791
2026-01-29 09:36:40.85	165.97	3.47	-47.6	-50.1	6.1	0.00e+00	0	29	104	0	60	38987
2026-01-29 09:36:41.86	165.99	3.55	-47.6	-50.0	6.1	0.00e+00	0	29	104	0	60	38607
2026-01-29 09:36:42.87	166.00	3.62	-47.6	-50.1	6.1	0.00e+00	0	29	104	0	60	39072
2026-01-29 09:36:43.88	166.02	3.70	-47.6	-50.1	6.1	0.00e+00	0	29	104	0	60	39050
2026-01-29 09:36:44.89	166.04	3.78	-47.6	-50.0	6.1	0.00e+00	0	29	104	0	60	38923
2026-01-29 09:36:45.90	166.05	3.85	-47.6	-50.0	6.1	0.00e+00	0	29	104	0	60	38937
2026-01-29 09:36:46.91	166.07	3.93	-47.6	-50.0	6.1	0.00e+00	0	29	104	0	60	38937
2026-01-29 09:36:47.92	166.09	4.01	-47.6	-50.1	6.1	0.00e+00	0	29	104	0	60	39076
2026-01-29 09:36:48.93	166.10	4.09	-47.6	-50.0	6.1	0.00e+00	0	29	104	0	60	38800
2026-01-29 09:36:49.93	166.12	4.16	-47.6	-50.1	6.1	0.00e+00	0	29	104	0	60	39118
2026-01-29 09:36:50.94	166.14	4.24	-47.7	-50.1	6.1	0.00e+00	0	29	104	0	60	39339
2026-01-29 09:36:51.95	166.15	4.32	-47.6	-50.1	6.1	0.00e+00	0	30	104	0	60	38970
2026-01-29 09:36:52.96	166.17	4.40	-47.7	-50.2	6.1	0.00e+00	0	30	104	0	60	39435
2026-01-29 09:36:53.97	166.19	4.48	-47.9	-50.3	6.1	0.00e+00	0	30	104	0	60	40138
2026-01-29 09:36:54.98	166.21	4.56	-47.7	-50.2	6.1	0.00e+00	0	30	104	0	60	39449
2026-01-29 09:36:55.98	166.22	4.64	-47.6	-50.1	6.1	0.00e+00	0	30	104	0	60	39302
2026-01-29 09:36:56.99	166.24	4.72	-47.7	-50.2	6.1	0.00e+00	0	30	104	0	60	39760
2026-01-29 09:36:58.00	166.26	4.80	-47.9	-50.3	6.1	0.00e+00	0	30	104	0	60	40307
2026-01-29 09:36:59.01	166.28	4.88	-47.6	-50.1	6.1	0.00e+00	0	30	104	0	60	39246
2026-01-29 09:37:00.02	166.29	4.96	-47.8	-50.3	6.1	0.00e+00	0	30	104	0	60	40235
2026-01-29 09:37:01.00	166.31	5.04	-47.8	-50.3	6.1	0.00e+00	0	30	104	0	60	40093
2026-01-29 09:37:02.01	166.33	5.12	-48.0	-50.4	6.1	0.00e+00	0	30	104	0	60	40618
2026-01-29 09:37:03.02	166.35	5.20	-47.8	-50.3	6.1	0.00e+00	0	30	104	0	60	39929
2026-01-29 09:37:04.03	166.36	5.29	-47.9	-50.4	6.1	0.00e+00	0	30	104	0	60	40464
2026-01-29 09:37:05.03	166.38	5.37	-47.9	-50.4	6.1	0.00e+00	0	30	104	0	60	40353
2026-01-29 09:37:06.04	166.40	5.45	-48.0	-50.5	6.1	0.00e+00	0	30	104	0	60	41055
2026-01-29 09:37:07.05	166.42	5.53	-45.8	-47.5	6.3	0.00e+00	0	30	104	0	60	28890
2026-01-29 09:37:08.06	166.44	5.62	-31.7	-32.0	13.8	0.00e+00	1965	30	104	0	40	15500
2026-01-29 09:37:09.06	166.46	5.70	-30.7	-31.1	14.6	6.18e-02	0	30	0	109051904	38	15532
2026-01-29 09:37:10.07	166.48	5.79	-29.4	-29.8	15.1	6.18e-02	0	30	0	226492416	34	16969
2026-01-29 09:37:11.08	166.49	5.87	-28.9	-29.3	15.2	1.24e-02	0	30	0	335544320	34	15982
2026-01-29 09:37:12.09	166.51	5.96	-28.0	-28.4	15.6	1.24e-02	0	30	0	452984832	32	16195
2026-01-29 09:37:13.10	166.53	6.04	-28.1	-28.5	15.5	2.32e-03	0	30	0	562036736	32	16357
2026-01-29 09:37:14.11	166.55	6.13	-28.0	-28.4	15.6	2.32e-03	0	30	0	679477248	32	16107
2026-01-29 09:37:15.12	166.57	6.21	-27.7	-28.2	15.6	1.55e-03	0	30	0	788529152	30	17613
2026-01-29 09:37:16.13	166.59	6.30	-27.4	-27.9	15.8	1.55e-03	0	30	0	905969664	30	17013
2026-01-29 09:37:17.14	166.61	6.39	-27.5	-27.9	15.8	1.55e-03	0	30	0	1015021568	30	17084
2026-01-29 09:37:18.15	166.63	6.48	-27.5	-28.0	15.8	1.04e-03	0	30	0	1132462080	30	17231
2026-01-29 09:37:19.16	166.65	6.56	-27.4	-27.8	15.7	1.04e-03	0	30	0	1249902592	30	16980
2026-01-29 09:37:20.17	166.67	6.65	-27.4	-27.8	15.8	7.63e-04	0	30	0	1358954496	30	16940
2026-01-29 09:37:21.18	166.69	6.74	-27.3	-27.7	15.8	7.63e-04	0	30	0	1476395008	30	16800
2026-01-29 09:37:22.19	166.71	6.83	-27.5	-28.0	15.8	7.63e-04	0	30	0	1585446912	30	17253
2026-01-29 09:37:23.20	166.73	6.92	-27.7	-28.2	15.7	8.06e-04	0	30	0	1694498816	30	17604
2026-01-29 09:37:24.21	166.75	7.01	-27.4	-27.8	15.8	8.06e-04	0	30	0	1811939328	30	16937
2026-01-29 09:37:25.22	166.77	7.10	-27.4	-27.8	15.8	8.55e-04	0	30	0	1929379840	30	16957
2026-01-29 09:37:26.23	166.79	7.19	-27.1	-27.5	15.8	8.55e-04	0	31	0	2038431744	30	16416
2026-01-29 09:37:27.24	166.81	7.28	-27.2	-27.6	15.8	6.21e-04	0	31	0	2155872256	30	16596
2026-01-29 09:37:28.25	166.83	7.37	-27.1	-27.6	15.9	6.21e-04	0	31	0	2264924160	30	16429
2026-01-29 09:37:29.26	166.86	7.47	-27.1	-27.5	15.9	6.21e-04	0	31	0	2382364672	30	16390
2026-01-29 09:37:30.27	166.88	7.56	-26.9	-27.3	15.9	4.69e-04	0	31	0	2499805184	30	15995
2026-01-29 09:37:31.28	166.90	7.65	-26.9	-27.4	15.9	4.69e-04	0	31	0	2608857088	30	16107
2026-01-29 09:37:32.29	166.92	7.75	-27.0	-27.4	15.9	4.36e-04	0	31	0	2717908992	30	16218
2026-01-29 09:37:33.29	166.94	7.84	-26.9	-27.3	15.9	3.65e-04	0	31	0	2835349504	30	15934
2026-01-29 09:37:34.30	166.96	7.93	-26.8	-27.3	15.9	3.65e-04	0	31	0	2944401408	30	15877
2026-01-29 09:37:35.31	166.98	8.03	-26.9	-27.3	15.9	5.29e-04	0	31	0	3061841920	28	17895
2026-01-29 09:37:36.32	167.01	8.12	-26.6	-27.1	16.0	5.29e-04	0	31	0	3179282432	28	17434
2026-01-29 09:37:37.33	167.03	8.22	-26.7	-27.2	16.0	3.38e-04	0	31	0	3288334336	28	17629
2026-01-29 09:37:38.34	167.05	8.32	-26.5	-26.9	16.0	3.38e-04	0	31	0	3405774848	28	17192
2026-01-29 09:37:39.31	167.07	8.41	-26.5	-26.9	16.0	3.38e-04	0	31	0	3506438144	28	17150
2026-01-29 09:37:40.29	167.10	8.50	-26.5	-27.0	16.0	2.94e-04	0	31	0	3623878656	28	17214
2026-01-29 09:37:41.30	167.12	8.60	-26.5	-26.9	16.0	2.94e-04	0	31	0	3732930560	28	17111
2026-01-29 09:37:42.31	167.14	8.70	-26.6	-27.1	16.0	2.94e-04	0	31	0	3850371072	28	17409
2026-01-29 09:37:43.32	167.17	8.80	-26.4	-26.8	16.0	2.67e-04	0	31	0	3967811584	28	16970
2026-01-29 09:37:44.33	167.19	8.90	-26.3	-26.7	16.0	2.67e-04	0	31	0	4076863488	28	16726
2026-01-29 09:37:45.33	167.21	9.00	-26.4	-26.8	16.0	3.05e-04	0	31	0	4185915392	28	16980
2026-01-29 09:37:46.34	167.24	9.10	-26.3	-26.7	16.1	3.05e-04	0	31	0	4303355904	28	16748
2026-01-29 09:37:47.35	167.26	9.20	-26.3	-26.7	16.1	3.43e-04	0	31	0	4412407808	28	16766
2026-01-29 09:37:48.36	167.28	9.30	-26.4	-26.8	16.1	3.43e-04	0	31	0	4529848320	28	16919
2026-01-29 09:37:49.37	167.31	9.40	-26.2	-26.6	16.1	3.43e-04	0	31	0	4647288832	28	16593
2026-01-29 09:37:50.37	167.33	9.50	-26.3	-26.7	16.1	1.69e-04	0	31	0	4756340736	28	16767
2026-01-29 09:37:51.39	167.36	9.61	-26.1	-26.5	16.1	1.69e-04	0	31	0	4873781248	28	16358
2026-01-29 09:37:52.39	167.38	9.71	-25.8	-26.2	16.2	1.42e-04	0	31	0	4982833152	28	15728
2026-01-29 09:37:53.40	167.41	9.81	-25.9	-26.3	16.1	1.42e-04	0	31	0	5091885056	26	17960
2026-01-29 09:37:54.41	167.43	9.92	-26.0	-26.4	16.1	1.42e-04	0	31	0	5209325568	26	18142
2026-01-29 09:37:55.42	167.46	10.02	-25.9	-26.4	16.0	1.85e-04	0	31	0	5326766080	26	18047
2026-01-29 09:37:56.43	167.48	10.13	-25.9	-26.3	16.0	3.05e-04	0	31	0	5435817984	26	17874
2026-01-29 09:37:57.44	167.51	10.24	-25.8	-26.3	16.1	3.05e-04	0	31	0	5553258496	26	17818
2026-01-29 09:37:58.44	167.53	10.34	-25.9	-26.3	16.0	2.67e-04	0	31	0	5662310400	26	17935
2026-01-29 09:37:59.45	167.56	10.45	-25.5	-26.0	16.1	2.67e-04	0	31	0	5779750912	26	17212
2026-01-29 09:38:00.46	167.59	10.56	-25.5	-25.9	16.2	2.67e-04	0	31	0	5897191424	26	17145
2026-01-29 09:38:01.47	167.61	10.67	-25.5	-25.9	16.2	1.20e-04	0	31	0	6006243328	26	17125
2026-01-29 09:38:02.48	167.64	10.78	-25.3	-25.8	16.2	1.20e-04	0	31	0	6115295232	26	16857
2026-01-29 09:38:03.49	167.67	10.89	-25.3	-25.8	16.2	1.20e-04	0	31	0	6232735744	26	16851
2026-01-29 09:38:04.50	167.70	11.00	-25.3	-25.7	16.3	1.36e-04	0	31	0	6341787648	26	16709
2026-01-29 09:38:05.51	167.72	11.11	-25.3	-25.7	16.3	1.36e-04	0	31	0	6459228160	26	16759
2026-01-29 09:38:06.52	167.75	11.22	-25.2	-25.6	16.3	3.81e-05	0	31	0	6576668672	26	16615
2026-01-29 09:38:07.53	167.78	11.33	-25.2	-25.6	16.3	3.81e-05	0	31	0	6685720576	26	16583
2026-01-29 09:38:08.54	167.81	11.45	-25.1	-25.6	16.3	3.81e-05	0	31	0	6803161088	26	16455
2026-01-29 09:38:09.55	167.83	11.56	-25.1	-25.5	16.3	3.81e-05	0	31	0	6912212992	26	16324
2026-01-29 09:38:10.56	167.86	11.68	-25.1	-25.6	16.3	3.81e-05	0	31	0	7029653504	26	16508
2026-01-29 09:38:11.57	167.89	11.79	-25.0	-25.4	16.3	2.72e-05	0	31	0	7138705408	26	16227
2026-01-29 09:38:12.58	167.92	11.91	-24.9	-25.3	16.4	2.72e-05	0	31	0	7256145920	26	16019
2026-01-29 09:38:13.59	167.95	12.03	-24.8	-25.3	16.4	2.17e-05	0	31	0	7365197824	26	15883
2026-01-29 09:38:14.59	167.98	12.14	-24.8	-25.2	16.4	2.17e-05	0	31	0	7482638336	26	15848
2026-01-29 09:38:15.61	168.01	12.26	-24.8	-25.2	16.4	5.40e-06	0	31	0	7591690240	26	15828
2026-01-29 09:38:16.61	168.04	12.38	-24.8	-25.2	16.4	5.40e-06	0	31	0	7709130752	24	17792
2026-01-29 09:38:17.62	168.07	12.50	-24.6	-25.1	16.4	1.63e-05	0	31	0	7826571264	24	17495
2026-01-29 09:38:18.63	168.10	12.62	-24.7	-25.1	16.4	1.63e-05	0	31	0	7935623168	24	17568
2026-01-29 09:38:19.64	168.13	12.75	-24.7	-25.2	16.4	2.17e-05	0	31	0	8044675072	24	17690
2026-01-29 09:38:20.65	168.16	12.87	-24.7	-25.2	16.4	2.17e-05	0	31	0	8162115584	24	17675
2026-01-29 09:38:21.66	168.19	12.99	-24.6	-25.0	16.4	4.35e-05	0	31	0	8271167488	24	17338
2026-01-29 09:38:22.66	168.23	13.11	-24.6	-25.0	16.4	4.35e-05	0	31	0	8388608000	24	17359
2026-01-29 09:38:23.67	168.26	13.24	-24.6	-25.0	16.4	4.35e-05	0	32	0	8506048512	24	17383
2026-01-29 09:38:24.68	168.29	13.37	-24.5	-24.9	16.4	5.40e-06	0	31	0	8615100416	24	17170
2026-01-29 09:38:25.69	168.32	13.49	-24.4	-24.8	16.4	5.40e-06	0	31	0	8732540928	24	16988
2026-01-29 09:38:26.70	168.36	13.62	-24.4	-24.9	16.4	5.40e-06	0	31	0	8841592832	24	17043
2026-01-29 09:38:27.71	168.39	13.75	-24.4	-24.8	16.4	5.40e-06	0	31	0	8950644736	24	16947
2026-01-29 09:38:28.72	168.42	13.88	-24.4	-24.9	16.4	1.08e-05	0	32	0	9068085248	24	17093
2026-01-29 09:38:29.73	168.46	14.01	-24.4	-24.9	16.4	1.08e-05	0	32	0	9185525760	24	17008
2026-01-29 09:38:30.74	168.49	14.14	-24.3	-24.8	16.4	1.63e-05	0	31	0	9294577664	24	16828
2026-01-29 09:38:31.75	168.53	14.27	-24.2	-24.6	16.4	1.63e-05	0	32	0	9412018176	24	16533
2026-01-29 09:38:32.76	168.56	14.40	-24.1	-24.6	16.4	1.63e-05	0	32	0	9521070080	24	16510
2026-01-29 09:38:33.77	168.60	14.54	-24.1	-24.5	16.4	5.40e-06	0	32	0	9638510592	24	16393
2026-01-29 09:38:34.78	168.63	14.67	-24.1	-24.5	16.5	5.40e-06	0	32	0	9755951104	24	16339
2026-01-29 09:38:35.78	168.67	14.81	-23.9	-24.4	16.5	5.40e-06	0	32	0	9865003008	24	16131
2026-01-29 09:38:36.79	168.70	14.94	-24.0	-24.5	16.4	5.40e-06	0	32	0	9974054912	24	16339
2026-01-29 09:38:37.80	168.74	15.08	-23.8	-24.2	16.5	5.40e-06	0	32	0	10091495424	22	17763
2026-01-29 09:38:38.81	168.78	15.22	-23.7	-24.1	16.6	1.08e-05	0	32	0	10200547328	22	17586
2026-01-29 09:38:39.82	168.81	15.36	-23.7	-24.2	16.5	1.08e-05	0	32	0	10317987840	22	17604
2026-01-29 09:38:40.82	168.85	15.50	-23.7	-24.2	16.6	0.00e+00	0	32	0	10435428352	22	17713
2026-01-29 09:38:41.83	168.89	15.64	-23.6	-24.0	16.5	0.00e+00	0	32	0	10544480256	22	17332
2026-01-29 09:38:42.84	168.93	15.78	-23.6	-24.1	16.5	0.00e+00	0	32	0	10661920768	22	17432
2026-01-29 09:38:43.85	168.97	15.93	-23.5	-24.0	16.6	0.00e+00	0	32	0	10770972672	22	17239
2026-01-29 09:38:44.86	169.00	16.07	-23.6	-24.0	16.6	0.00e+00	0	32	0	10880024576	22	17345
2026-01-29 09:38:45.86	169.04	16.22	-23.5	-23.9	16.6	0.00e+00	0	32	0	11005853696	22	17198
2026-01-29 09:38:46.87	169.08	16.37	-23.4	-23.8	16.5	0.00e+00	0	32	0	11114905600	22	16975
2026-01-29 09:38:47.88	169.12	16.51	-23.4	-23.8	16.6	0.00e+00	0	32	0	11223957504	22	16998
2026-01-29 09:38:48.89	169.16	16.66	-23.3	-23.8	16.5	0.00e+00	0	32	0	11341398016	22	16878
2026-01-29 09:38:49.90	169.21	16.82	-23.3	-23.8	16.6	0.00e+00	0	32	0	11450449920	22	16878
2026-01-29 09:38:50.90	169.25	16.97	-23.1	-23.5	16.6	0.00e+00	0	32	0	11567890432	22	16388
2026-01-29 09:38:51.91	169.29	17.12	-23.0	-23.5	16.6	0.00e+00	0	32	0	11685330944	22	16334
2026-01-29 09:38:52.92	169.33	17.27	-23.1	-23.6	16.6	0.00e+00	0	32	0	11794382848	22	16523
2026-01-29 09:38:53.93	169.37	17.43	-23.0	-23.5	16.6	0.00e+00	0	32	0	11903434752	22	16346
2026-01-29 09:38:54.94	169.42	17.59	-23.0	-23.4	16.6	0.00e+00	0	32	0	12020875264	22	16234
2026-01-29 09:38:55.95	169.46	17.74	-22.8	-23.2	16.6	0.00e+00	0	32	0	12129927168	22	15849
2026-01-29 09:38:56.96	169.51	17.90	-22.7	-23.2	16.6	5.40e-06	0	32	0	12247367680	20	17654
2026-01-29 09:38:57.97	169.55	18.06	-22.6	-23.1	16.6	5.40e-06	0	32	0	12364808192	20	17522
2026-01-29 09:38:58.98	169.60	18.23	-22.7	-23.1	16.6	0.00e+00	0	32	0	12473860096	20	17533
2026-01-29 09:38:59.99	169.64	18.39	-22.5	-23.0	16.6	0.00e+00	0	32	0	12591300608	20	17306
2026-01-29 09:39:01.00	169.69	18.55	-22.5	-22.9	16.6	0.00e+00	0	32	0	12700352512	20	17179
2026-01-29 09:39:02.01	169.74	18.72	-22.5	-22.9	16.6	0.00e+00	0	32	0	12809404416	20	17121
2026-01-29 09:39:03.01	169.78	18.89	-22.3	-22.8	16.6	0.00e+00	0	32	0	12935233536	20	16855
2026-01-29 09:39:04.02	169.83	19.06	-22.4	-22.9	16.7	0.00e+00	0	32	0	13044285440	20	17025
2026-01-29 09:39:05.03	169.88	19.23	-22.2	-22.6	16.7	0.00e+00	0	32	0	13153337344	20	16606
2026-01-29 09:39:06.04	169.93	19.40	-21.9	-22.4	16.7	0.00e+00	0	32	0	13270777856	20	16195
2026-01-29 09:39:07.05	169.98	19.57	-21.9	-22.4	16.7	0.00e+00	0	32	0	13379829760	20	16093
2026-01-29 09:39:08.06	170.03	19.75	-22.0	-22.5	16.7	0.00e+00	0	32	0	13497270272	20	16331
2026-01-29 09:39:09.07	170.08	19.92	-22.2	-22.6	16.7	0.00e+00	0	32	0	13614710784	20	16573
2026-01-29 09:39:10.08	170.13	20.10	-21.9	-22.3	16.7	0.00e+00	0	32	0	13723762688	20	16024
2026-01-29 09:39:11.09	170.19	20.28	-21.8	-22.2	16.8	0.00e+00	0	32	0	13832814592	18	17780
2026-01-29 09:39:12.10	170.24	20.46	-21.7	-22.2	16.8	0.00e+00	0	32	0	13950255104	18	17661
2026-01-29 09:39:13.11	170.29	20.65	-21.7	-22.2	16.7	0.00e+00	0	32	0	14059307008	18	17706
2026-01-29 09:39:14.12	170.35	20.83	-21.5	-22.0	16.8	0.00e+00	0	32	0	14176747520	18	17253
2026-01-29 09:39:15.12	170.40	21.01	-21.5	-22.0	16.8	0.00e+00	0	32	0	14294188032	18	17222
2026-01-29 09:39:16.13	170.46	21.20	-21.5	-22.0	16.7	0.00e+00	0	32	0	14403239936	18	17237
2026-01-29 09:39:17.14	170.52	21.39	-21.3	-21.8	16.8	0.00e+00	0	32	0	14520680448	18	16867
2026-01-29 09:39:18.15	170.57	21.58	-21.4	-21.9	16.8	0.00e+00	0	32	0	14629732352	18	17087
2026-01-29 09:39:19.16	170.63	21.78	-21.4	-21.8	16.8	0.00e+00	0	32	0	14747172864	18	16961
2026-01-29 09:39:20.17	170.69	21.97	-21.1	-21.6	16.8	0.00e+00	0	32	0	14864613376	18	16512
2026-01-29 09:39:21.18	170.75	22.17	-21.1	-21.5	16.8	0.00e+00	0	32	0	14973665280	18	16405
2026-01-29 09:39:22.18	170.81	22.37	-21.0	-21.5	16.8	0.00e+00	0	32	0	15082717184	18	16298
2026-01-29 09:39:23.19	170.87	22.57	-21.2	-21.6	16.8	0.00e+00	0	32	0	15200157696	18	16592
2026-01-29 09:39:24.20	170.93	22.77	-20.9	-21.4	16.8	0.00e+00	0	32	0	15309209600	18	16083
2026-01-29 09:39:25.21	171.00	22.97	-20.8	-21.3	16.8	0.00e+00	0	32	0	15426650112	18	15923
2026-01-29 09:39:26.22	171.06	23.18	-20.7	-21.1	16.8	0.00e+00	0	32	0	15544090624	16	17562
2026-01-29 09:39:27.23	171.12	23.39	-20.6	-21.0	16.8	0.00e+00	0	32	0	15653142528	16	17329
2026-01-29 09:39:28.24	171.19	23.60	-20.6	-21.1	16.9	0.00e+00	0	32	0	15762194432	16	17408
2026-01-29 09:39:29.24	171.26	23.81	-20.3	-20.8	16.9	0.00e+00	0	32	0	15879634944	16	16852
2026-01-29 09:39:30.25	171.32	24.02	-20.3	-20.8	16.9	0.00e+00	0	32	0	15988686848	16	16816
2026-01-29 09:39:31.26	171.39	24.24	-20.1	-20.5	16.9	0.00e+00	0	32	0	16106127360	16	16365
2026-01-29 09:39:32.27	171.46	24.46	-19.9	-20.3	16.9	0.00e+00	0	32	0	16223567872	16	16010
2026-01-29 09:39:33.28	171.53	24.68	-19.9	-20.4	16.9	0.00e+00	0	32	0	16332619776	16	16089
2026-01-29 09:39:34.28	171.60	24.90	-19.9	-20.3	16.9	0.00e+00	0	32	0	16450060288	16	16045
2026-01-29 09:39:35.29	171.68	25.13	-19.8	-20.3	16.9	0.00e+00	0	32	0	16559112192	16	15909
2026-01-29 09:39:36.30	171.75	25.36	-19.5	-19.9	17.0	0.00e+00	0	32	0	16668164096	14	17164
2026-01-29 09:39:37.31	171.82	25.59	-19.4	-19.9	16.9	0.00e+00	0	32	0	16793993216	14	17072
2026-01-29 09:39:38.32	171.90	25.82	-19.4	-19.9	16.9	0.00e+00	0	32	0	16903045120	14	17065
2026-01-29 09:39:39.33	171.98	26.05	-19.4	-19.9	16.9	0.00e+00	0	32	0	17012097024	14	17046
2026-01-29 09:39:40.34	172.06	26.29	-19.1	-19.6	17.0	0.00e+00	0	32	0	17129537536	14	16522
2026-01-29 09:39:41.35	172.14	26.53	-19.1	-19.6	17.0	0.00e+00	0	32	0	17238589440	14	16519
2026-01-29 09:39:42.36	172.22	26.78	-19.1	-19.6	17.0	0.00e+00	0	32	0	17356029952	14	16548
2026-01-29 09:39:43.36	172.30	27.02	-18.9	-19.4	17.0	0.00e+00	0	32	0	17473470464	14	16054
2026-01-29 09:39:44.37	172.38	27.27	-18.8	-19.2	17.0	0.00e+00	0	32	0	17582522368	14	15831
2026-01-29 09:39:45.38	172.47	27.52	-18.7	-19.2	17.0	0.00e+00	0	32	0	17691574272	12	17610
2026-01-29 09:39:46.39	172.55	27.77	-18.7	-19.1	17.0	0.00e+00	0	32	0	17809014784	12	17599
2026-01-29 09:39:47.40	172.64	28.03	-18.5	-18.9	17.0	0.00e+00	0	32	0	17918066688	12	17176
2026-01-29 09:39:48.41	172.73	28.29	-18.5	-18.9	17.0	0.00e+00	0	32	0	18035507200	12	17098
2026-01-29 09:39:49.41	172.82	28.54	-18.5	-19.0	17.0	0.00e+00	0	32	0	18152947712	12	17217
2026-01-29 09:39:50.42	172.91	28.81	-18.4	-18.9	17.0	0.00e+00	0	32	0	18261999616	12	17024
2026-01-29 09:39:51.43	173.01	29.08	-18.3	-18.7	17.1	0.00e+00	0	32	0	18379440128	12	16705
2026-01-29 09:39:52.44	173.10	29.35	-18.2	-18.7	17.1	0.00e+00	0	32	0	18488492032	12	16667
2026-01-29 09:39:53.45	173.20	29.62	-18.2	-18.7	17.0	0.00e+00	0	32	0	18597543936	12	16657
2026-01-29 09:39:54.46	173.30	29.90	-18.0	-18.5	17.0	0.00e+00	0	32	0	18714984448	12	16294
2026-01-29 09:39:55.46	173.40	30.17	-17.8	-18.2	17.1	0.00e+00	0	32	0	18832424960	12	15850
2026-01-29 09:39:56.47	173.50	30.46	-17.8	-18.3	17.1	0.00e+00	0	32	0	18941476864	12	15898
2026-01-29 09:39:57.48	173.61	30.74	-17.6	-18.1	17.1	0.00e+00	0	32	0	19058917376	10	17401
2026-01-29 09:39:58.49	173.71	31.03	-17.7	-18.1	17.1	0.00e+00	0	32	0	19167969280	10	17562
2026-01-29 09:39:59.50	173.82	31.33	-17.6	-18.0	17.1	0.00e+00	0	32	0	19285409792	10	17383
2026-01-29 09:40:00.51	173.93	31.62	-17.3	-17.7	17.1	0.00e+00	0	32	0	19402850304	10	16763
2026-01-29 09:40:01.52	174.04	31.92	-17.3	-17.8	17.1	0.00e+00	0	32	0	19511902208	10	16861
2026-01-29 09:40:02.53	174.16	32.22	-17.3	-17.7	17.2	0.00e+00	0	32	0	19620954112	10	16689
2026-01-29 09:40:03.54	174.28	32.53	-17.1	-17.5	17.2	0.00e+00	0	32	0	19738394624	10	16419
2026-01-29 09:40:04.55	174.40	32.84	-16.9	-17.4	17.2	0.00e+00	0	32	0	19847446528	10	16055
2026-01-29 09:40:05.56	174.52	33.15	-16.7	-17.1	17.2	0.00e+00	0	32	0	19964887040	8	17580
2026-01-29 09:40:06.57	174.64	33.47	-16.6	-17.1	17.2	0.00e+00	0	32	0	20082327552	8	17427
2026-01-29 09:40:07.58	174.77	33.79	-16.6	-17.0	17.2	0.00e+00	0	32	0	20191379456	8	17364
2026-01-29 09:40:08.59	174.90	34.12	-16.6	-17.0	17.2	0.00e+00	0	32	0	20308819968	8	17360
2026-01-29 09:40:09.60	175.03	34.45	-16.5	-16.9	17.2	0.00e+00	0	32	0	20417871872	8	17101
2026-01-29 09:40:10.61	175.16	34.78	-16.5	-16.9	17.2	0.00e+00	0	32	0	20526923776	8	17086
2026-01-29 09:40:11.62	175.30	35.11	-16.4	-16.9	17.2	0.00e+00	0	32	0	20652752896	8	17050
2026-01-29 09:40:12.63	175.44	35.45	-16.4	-16.8	17.2	0.00e+00	0	32	0	20761804800	8	16860
2026-01-29 09:40:13.64	175.59	35.80	-16.3	-16.7	17.2	0.00e+00	0	32	0	20870856704	8	16639
2026-01-29 09:40:14.64	175.73	36.14	-15.8	-16.2	17.3	0.00e+00	0	32	0	20988297216	8	15717
2026-01-29 09:40:15.66	175.88	36.50	-15.7	-16.1	17.4	0.00e+00	0	32	0	21097349120	6	17491
2026-01-29 09:40:16.66	176.04	36.85	-15.6	-16.0	17.3	0.00e+00	0	32	0	21214789632	6	17293
2026-01-29 09:40:17.67	176.19	37.22	-15.5	-15.9	17.4	0.00e+00	0	32	0	21332230144	6	17063
2026-01-29 09:40:18.68	176.36	37.58	-15.3	-15.8	17.4	0.00e+00	0	32	0	21441282048	6	16817
2026-01-29 09:40:19.69	176.52	37.95	-15.3	-15.7	17.4	0.00e+00	0	32	0	21550333952	6	16714
2026-01-29 09:40:20.70	176.69	38.33	-15.2	-15.6	17.4	0.00e+00	0	32	0	21667774464	6	16465
2026-01-29 09:40:21.70	176.86	38.70	-15.1	-15.5	17.4	0.00e+00	0	32	0	21776826368	6	16269
2026-01-29 09:40:22.71	177.04	39.09	-15.0	-15.5	17.4	0.00e+00	0	32	0	21894266880	6	16251
2026-01-29 09:40:23.72	177.22	39.47	-14.8	-15.2	17.5	0.00e+00	0	32	0	22011707392	6	15866
2026-01-29 09:40:24.74	177.40	39.87	-14.7	-15.1	17.4	0.00e+00	0	32	0	22120759296	4	17516
2026-01-29 09:40:25.74	177.59	40.26	-14.7	-15.1	17.5	0.00e+00	0	32	0	22238199808	4	17572
2026-01-29 09:40:26.75	177.79	40.67	-14.5	-15.0	17.5	0.00e+00	0	32	0	22347251712	4	17233
2026-01-29 09:40:27.76	177.99	41.07	-14.5	-14.9	17.5	0.00e+00	0	32	0	22464692224	4	17067
2026-01-29 09:40:28.77	178.19	41.49	-14.3	-14.7	17.6	0.00e+00	0	32	0	22582132736	4	16797
2026-01-29 09:40:29.78	178.40	41.90	-14.2	-14.6	17.6	0.00e+00	0	32	0	22691184640	4	16457
2026-01-29 09:40:30.79	178.62	42.33	-14.3	-14.7	17.6	0.00e+00	0	32	0	22800236544	4	16691
2026-01-29 09:40:31.80	178.84	42.75	-13.9	-14.3	17.6	0.00e+00	0	32	0	22917677056	4	15959
2026-01-29 09:40:32.81	179.07	43.18	-14.0	-14.4	17.6	0.00e+00	0	32	0	23035117568	4	16193
2026-01-29 09:40:33.82	179.31	43.62	-13.8	-14.2	17.6	0.00e+00	0	32	0	23144169472	2	17777
2026-01-29 09:40:34.82	179.55	44.06	-13.7	-14.1	17.7	0.00e+00	0	32	0	23261609984	2	17454
2026-01-29 09:40:35.83	179.80	44.51	-13.6	-14.0	17.7	0.00e+00	0	32	0	23370661888	2	17366
2026-01-29 09:40:36.84	180.05	44.96	-13.7	-14.1	17.7	0.00e+00	0	32	0	23479713792	2	17488
2026-01-29 09:40:37.85	180.31	45.42	-13.5	-13.9	17.7	0.00e+00	0	32	0	23597154304	2	17148
2026-01-29 09:40:38.86	180.59	45.88	-13.4	-13.8	17.7	0.00e+00	0	32	0	23714594816	2	16838
2026-01-29 09:40:39.87	180.87	46.35	-13.3	-13.7	17.7	0.00e+00	0	32	0	23823646720	2	16758
2026-01-29 09:40:40.88	181.15	46.82	-13.3	-13.7	17.7	0.00e+00	0	32	0	23941087232	2	16633
2026-01-29 09:40:41.89	181.45	47.30	-13.1	-13.5	17.7	0.00e+00	0	32	0	24050139136	2	16269
2026-01-29 09:40:42.90	181.76	47.79	-13.0	-13.4	17.7	0.00e+00	0	32	0	24167579648	2	16224
2026-01-29 09:40:43.91	182.07	48.28	-12.9	-13.2	17.8	0.00e+00	0	32	0	24285020160	2	15849
2026-01-29 09:40:44.92	182.40	48.77	-12.9	-13.3	17.8	0.00e+00	0	32	0	24394072064	2	15877
2026-01-29 09:40:45.93	182.74	49.27	-11.9	-12.3	17.9	0.00e+00	0	32	0	24511512576	46	17036
2026-01-29 09:40:46.94	183.09	49.77	-12.0	-12.4	17.9	0.00e+00	0	32	0	24620564480	46	17346
2026-01-29 09:40:47.95	183.45	50.29	-12.0	-12.4	17.9	0.00e+00	0	32	0	24729616384	46	17211
2026-01-29 09:40:48.96	183.82	50.80	-11.7	-12.1	17.9	0.00e+00	0	32	0	24847056896	46	16717
2026-01-29 09:40:49.97	184.21	51.32	-11.6	-12.0	17.9	0.00e+00	0	32	0	24964497408	46	16523
2026-01-29 09:40:50.98	184.61	51.85	-11.4	-11.8	17.9	0.00e+00	0	32	0	25073549312	46	16174
2026-01-29 09:40:51.99	185.03	52.38	-11.3	-11.7	17.9	0.00e+00	0	32	0	25190989824	46	15894
2026-01-29 09:40:53.00	185.46	52.91	-11.4	-11.7	17.9	0.00e+00	0	32	0	25300041728	46	16037
2026-01-29 09:40:54.01	185.91	53.45	-11.1	-11.5	18.0	0.00e+00	0	32	0	25409093632	44	17512
2026-01-29 09:40:55.02	186.37	54.00	-11.1	-11.5	18.0	0.00e+00	0	32	0	25534922752	44	17471
2026-01-29 09:40:56.02	186.85	54.54	-11.0	-11.3	18.0	0.00e+00	0	32	0	25643974656	44	17179
2026-01-29 09:40:57.03	187.35	55.09	-11.0	-11.4	18.0	0.00e+00	0	32	0	25753026560	44	17241
2026-01-29 09:40:58.04	187.87	55.65	-10.9	-11.3	18.0	0.00e+00	0	32	0	25870467072	44	17114
2026-01-29 09:40:59.05	188.42	56.21	-10.9	-11.3	18.0	0.00e+00	0	32	0	25979518976	44	17074
2026-01-29 09:41:00.06	188.98	56.78	-10.8	-11.2	18.0	0.00e+00	0	32	0	26096959488	44	16839
2026-01-29 09:41:01.07	189.57	57.34	-10.6	-11.0	18.0	0.00e+00	0	32	0	26214400000	44	16491
2026-01-29 09:41:02.08	190.19	57.92	-10.7	-11.1	18.0	0.00e+00	0	32	0	26323451904	44	16620
2026-01-29 09:41:03.09	190.83	58.49	-10.5	-10.8	18.0	0.00e+00	0	32	0	26440892416	44	16227
2026-01-29 09:41:04.10	191.50	59.07	-10.4	-10.8	18.0	0.00e+00	0	32	0	26549944320	44	16143
2026-01-29 09:41:05.11	192.20	59.65	-10.5	-10.9	18.0	0.00e+00	0	32	0	26658996224	44	16353
2026-01-29 09:41:06.12	192.94	60.23	-10.4	-10.8	18.0	0.00e+00	0	32	0	26776436736	44	16071
2026-01-29 09:41:07.13	193.70	60.81	-10.2	-10.6	18.0	0.00e+00	0	32	0	26893877248	44	15801
2026-01-29 09:41:08.13	194.50	61.39	-10.2	-10.6	18.0	0.00e+00	0	32	0	27002929152	44	15737
2026-01-29 09:41:09.14	195.34	61.98	-10.2	-10.5	18.0	0.00e+00	0	32	0	27120369664	42	17538
2026-01-29 09:41:10.15	196.23	62.56	-10.1	-10.5	18.0	0.00e+00	0	32	0	27229421568	42	17405
2026-01-29 09:41:11.16	197.16	63.15	-10.1	-10.5	18.1	0.00e+00	0	32	0	27346862080	42	17427
2026-01-29 09:41:12.17	198.13	63.73	-10.0	-10.3	18.1	0.00e+00	0	32	0	27464302592	42	17173
2026-01-29 09:41:13.18	199.16	64.31	-10.0	-10.4	18.1	0.00e+00	0	32	0	27573354496	42	17298
2026-01-29 09:41:14.19	200.24	64.89	-9.9	-10.2	18.1	0.00e+00	0	32	0	27682406400	42	16975
2026-01-29 09:41:15.20	201.38	65.46	-9.9	-10.2	18.1	0.00e+00	0	33	0	27799846912	42	16948
2026-01-29 09:41:16.21	202.57	66.03	-10.0	-10.3	18.1	0.00e+00	0	32	0	27917287424	42	17153
2026-01-29 09:41:17.22	203.83	66.60	-9.9	-10.2	18.1	0.00e+00	0	32	0	28026339328	42	16968
2026-01-29 09:41:18.23	205.16	67.16	-9.9	-10.2	18.1	0.00e+00	0	32	0	28143779840	42	16954
2026-01-29 09:41:19.24	206.56	67.71	-9.8	-10.1	18.1	0.00e+00	0	33	0	28252831744	42	16750
2026-01-29 09:41:20.25	208.04	68.25	-48.6	-51.1	6.1	0.00e+00	0	32	104	28261220352	60	44117
2026-01-29 09:41:21.26	209.60	68.78	-48.7	-51.2	6.1	0.00e+00	0	32	104	28261220352	60	44505
2026-01-29 09:41:22.27	211.25	69.30	-48.7	-51.2	6.1	0.00e+00	0	32	104	28261220352	60	44332
2026-01-29 09:41:23.28	212.99	69.80	-48.5	-51.1	6.1	0.00e+00	0	32	104	28261220352	60	43889
2026-01-29 09:41:24.29	214.82	70.29	-48.9	-51.3	6.1	0.00e+00	0	32	104	28261220352	60	45085
2026-01-29 09:41:25.29	216.73	70.76	-48.8	-51.3	6.1	0.00e+00	0	32	104	28261220352	60	44823
2026-01-29 09:41:26.30	218.76	71.21	-48.8	-51.3	6.1	0.00e+00	0	32	104	28261220352	60	45084
2026-01-29 09:41:27.31	220.89	71.65	-48.8	-51.3	6.1	0.00e+00	0	32	104	28261220352	60	45055
2026-01-29 09:41:28.32	223.13	72.05	-48.7	-51.2	6.1	0.00e+00	0	32	104	28261220352	60	44385
2026-01-29 09:41:29.33	225.48	72.44	-48.6	-51.2	6.1	0.00e+00	0	32	104	28261220352	60	44320
2026-01-29 09:41:30.33	227.91	72.79	-48.6	-51.1	6.1	0.00e+00	0	32	104	28261220352	60	44069
2026-01-29 09:41:31.34	230.46	73.12	-48.7	-51.1	6.1	0.00e+00	0	32	104	28261220352	60	44154
2026-01-29 09:41:32.35	233.12	73.41	-48.6	-51.1	6.1	0.00e+00	0	32	104	28261220352	60	43889
2026-01-29 09:41:33.36	235.88	73.67	-48.7	-51.1	6.1	0.00e+00	0	32	104	28261220352	60	44114
2026-01-29 09:41:34.37	238.72	73.90	-48.8	-51.3	6.1	0.00e+00	0	32	104	28261220352	60	44771
2026-01-29 09:41:35.38	241.63	74.08	-48.8	-51.2	6.1	0.00e+00	0	32	104	28261220352	60	44601
2026-01-29 09:41:36.39	244.61	74.23	-48.6	-51.1	6.1	0.00e+00	0	32	104	28261220352	60	43833
2026-01-29 09:41:37.40	247.64	74.33	-48.7	-51.2	6.1	0.00e+00	0	32	104	28261220352	60	44410
2026-01-29 09:41:38.41	250.70	74.39	-48.7	-51.2	6.1	0.00e+00	0	32	104	28261220352	60	44342
2026-01-29 09:41:39.42	253.78	74.41	-48.7	-51.1	6.1	0.00e+00	0	32	104	28261220352	60	44109
2026-01-29 09:41:40.43	256.86	74.39	-48.5	-51.0	6.1	0.00e+00	0	32	104	28261220352	60	43599
2026-01-29 09:41:41.44	259.92	74.32	-48.6	-51.1	6.1	0.00e+00	0	32	104	28261220352	60	43836
2026-01-29 09:41:42.45	262.94	74.21	-48.6	-51.1	6.1	0.00e+00	0	32	104	28261220352	60	43770
2026-01-29 09:41:43.46	265.91	74.06	-48.5	-51.1	6.1	0.00e+00	0	32	104	28261220352	60	43819
2026-01-29 09:41:44.47	268.82	73.87	-48.7	-51.2	6.1	0.00e+00	0	32	104	28261220352	60	44525
2026-01-29 09:41:45.48	271.65	73.64	-48.6	-51.1	6.1	0.00e+00	0	32	104	28261220352	60	43852
2026-01-29 09:41:46.49	274.39	73.38	-48.5	-51.1	6.1	0.00e+00	0	32	104	28261220352	60	43825
2026-01-29 09:41:47.50	277.03	73.08	-48.6	-51.1	6.1	0.00e+00	0	32	104	28261220352	60	43714
2026-01-29 09:41:48.50	279.55	72.75	-48.4	-50.9	6.1	0.00e+00	0	32	104	28261220352	60	42960
2026-01-29 09:41:49.51	281.99	72.39	-48.4	-50.9	6.1	0.00e+00	0	32	104	28261220352	60	42925
2026-01-29 09:41:50.52	284.32	72.01	-48.5	-51.1	6.1	0.00e+00	0	32	104	28261220352	60	43763
2026-01-29 09:41:51.53	286.55	71.60	-48.3	-50.9	6.1	0.00e+00	0	32	104	28261220352	60	42955
2026-01-29 09:41:52.54	288.67	71.16	-48.4	-51.0	6.1	0.00e+00	0	32	104	28261220352	60	43303
2026-01-29 09:41:53.55	290.68	70.71	-48.3	-50.9	6.1	0.00e+00	0	32	104	28261220352	60	43064
2026-01-29 09:41:54.55	292.58	70.24	-48.3	-50.8	6.1	0.00e+00	0	32	104	28261220352	60	42589
2026-01-29 09:41:55.56	294.40	69.74	-48.5	-51.0	6.1	0.00e+00	0	32	104	28261220352	60	43335
2026-01-29 09:41:56.57	296.12	69.24	-48.7	-51.2	6.1	0.00e+00	0	32	104	28261220352	60	44304
2026-01-29 09:41:57.58	297.75	68.72	-48.5	-51.1	6.1	0.00e+00	0	32	104	28261220352	60	43712
2026-01-29 09:41:58.59	299.30	68.19	-48.4	-51.0	6.1	0.00e+00	0	32	104	28261220352	60	43280
2026-01-29 09:41:59.60	300.77	67.65	-48.7	-51.2	6.1	0.00e+00	0	32	104	28261220352	60	44544
2026-01-29 09:42:00.60	302.15	67.10	-48.8	-51.3	6.1	0.00e+00	0	32	104	28261220352	60	44826
2026-01-29 09:42:01.61	303.47	66.54	-48.8	-51.3	6.1	0.00e+00	0	32	104	28261220352	60	44911
2026-01-29 09:42:02.62	304.72	65.98	-48.7	-51.2	6.1	0.00e+00	0	32	104	28261220352	60	44719
2026-01-29 09:42:03.63	305.91	65.41	-48.8	-51.3	6.1	0.00e+00	0	32	104	28261220352	60	44829
2026-01-29 09:42:04.63	307.03	64.84	-48.8	-51.3	6.1	0.00e+00	0	32	104	28261220352	60	45021
2026-01-29 09:42:05.64	308.10	64.27	-48.8	-51.3	6.1	0.00e+00	0	32	104	28261220352	60	44932
2026-01-29 09:42:06.65	309.12	63.69	-48.8	-51.3	6.1	0.00e+00	0	32	104	28261220352	60	45059
2026-01-29 09:42:07.66	310.09	63.10	-48.8	-51.3	6.1	0.00e+00	0	32	104	28261220352	60	45005
2026-01-29 09:42:08.67	311.02	62.52	-48.8	-51.3	6.0	0.00e+00	0	32	104	28261220352	60	44783
2026-01-29 09:42:09.68	311.90	61.94	-48.8	-51.3	6.1	0.00e+00	0	32	104	28261220352	60	44747
2026-01-29 09:42:10.68	312.73	61.36	-48.8	-51.2	6.1	0.00e+00	0	32	104	28261220352	60	44634
2026-01-29 09:42:11.69	313.53	60.78	-48.9	-51.3	6.1	0.00e+00	0	32	104	28261220352	60	45061
2026-01-29 09:42:12.70	314.29	60.20	-48.8	-51.3	6.1	0.00e+00	0	32	104	28261220352	60	44728
2026-01-29 09:42:13.71	315.02	59.62	-48.8	-51.3	6.1	0.00e+00	0	32	104	28261220352	60	44849
2026-01-29 09:42:14.72	315.72	59.04	-48.8	-51.2	6.1	0.00e+00	0	32	104	28261220352	60	44686
2026-01-29 09:42:15.73	316.39	58.46	-48.6	-51.1	6.1	0.00e+00	0	32	104	28261220352	60	44099
2026-01-29 09:42:16.74	317.03	57.89	-48.7	-51.2	6.1	0.00e+00	0	32	104	28261220352	60	44606
2026-01-29 09:42:17.75	317.64	57.32	-48.8	-51.3	6.1	0.00e+00	0	32	104	28261220352	60	44850
2026-01-29 09:42:18.76	318.23	56.75	-48.8	-51.3	6.1	0.00e+00	0	32	104	28261220352	60	44793
2026-01-29 09:42:19.77	318.79	56.19	-48.8	-51.3	6.1	0.00e+00	0	32	104	28261220352	60	44889
2026-01-29 09:42:20.78	319.33	55.63	-48.8	-51.3	6.1	0.00e+00	0	32	104	28261220352	60	45045
2026-01-29 09:42:21.79	319.85	55.08	-48.8	-51.3	6.1	0.00e+00	0	32	104	28261220352	60	44906
2026-01-29 09:42:22.80	320.35	54.53	-48.9	-51.3	6.1	0.00e+00	0	32	104	28261220352	60	45202
2026-01-29 09:42:23.81	320.83	53.98	-48.8	-51.3	6.1	0.00e+00	0	32	104	28261220352	60	44967
2026-01-29 09:42:24.82	321.29	53.44	-48.8	-51.3	6.0	0.00e+00	0	32	104	28261220352	60	45113
2026-01-29 09:42:25.82	321.73	52.90	-48.9	-51.4	6.1	0.00e+00	0	32	104	28261220352	60	45263
2026-01-29 09:42:26.84	322.17	52.37	-48.9	-51.4	6.1	0.00e+00	0	32	104	28261220352	60	45505
2026-01-29 09:42:27.84	322.58	51.84	-48.9	-51.4	6.1	0.00e+00	0	32	104	28261220352	60	45480
2026-01-29 09:42:28.85	322.98	51.32	-48.9	-51.4	6.1	0.00e+00	0	32	104	28261220352	60	45521
2026-01-29 09:42:29.86	323.36	50.80	-48.9	-51.4	6.1	0.00e+00	0	32	104	28261220352	60	45346
2026-01-29 09:42:30.87	323.73	50.29	-48.9	-51.4	6.1	0.00e+00	0	32	104	28261220352	60	45579
2026-01-29 09:42:31.88	324.09	49.78	-48.9	-51.4	6.1	0.00e+00	0	32	104	28261220352	60	45371
2026-01-29 09:42:32.89	324.44	49.28	-49.0	-51.4	6.1	0.00e+00	0	32	104	28261220352	60	45703
2026-01-29 09:42:33.90	324.78	48.78	-48.9	-51.4	6.0	0.00e+00	0	32	104	28261220352	60	45731
2026-01-29 09:42:34.90	325.10	48.29	-48.9	-51.4	6.1	0.00e+00	0	32	104	28261220352	60	45752
2026-01-29 09:42:35.91	325.42	47.80	-49.0	-51.4	6.1	0.00e+00	0	32	104	28261220352	60	45687
2026-01-29 09:42:36.92	325.72	47.32	-49.0	-51.4	6.1	0.00e+00	0	32	104	28261220352	60	45748
2026-01-29 09:42:37.93	326.02	46.85	-49.0	-51.4	6.1	0.00e+00	0	32	104	28261220352	60	45661
2026-01-29 09:42:38.94	326.31	46.37	-49.0	-51.5	6.1	0.00e+00	0	32	104	28261220352	60	45981
2026-01-29 09:42:39.95	326.58	45.91	-48.9	-51.4	6.1	0.00e+00	0	32	104	28261220352	60	45380
2026-01-29 09:42:40.96	326.86	45.45	-48.9	-51.4	6.1	0.00e+00	0	32	104	28261220352	60	45460
2026-01-29 09:42:41.97	327.12	44.99	-48.9	-51.3	6.1	0.00e+00	0	32	104	28261220352	60	45149
2026-01-29 09:42:42.98	327.37	44.54	-48.9	-51.5	6.1	0.00e+00	0	32	104	28261220352	60	45848
2026-01-29 09:42:43.99	327.62	44.09	-48.9	-51.4	6.1	0.00e+00	0	32	104	28261220352	60	45429
2026-01-29 09:42:45.00	327.86	43.65	-48.9	-51.4	6.0	0.00e+00	0	32	104	28261220352	60	45542
2026-01-29 09:42:46.00	328.09	43.22	-48.9	-51.4	6.1	0.00e+00	0	32	104	28261220352	60	45573
2026-01-29 09:42:47.01	328.32	42.79	-48.9	-51.4	6.1	0.00e+00	0	32	104	28261220352	60	45262
2026-01-29 09:42:48.02	328.54	42.37	-48.9	-51.4	6.1	0.00e+00	0	32	104	28261220352	60	45448
2026-01-29 09:42:49.03	328.76	41.95	-49.0	-51.5	6.1	0.00e+00	0	32	104	28261220352	60	45976
2026-01-29 09:42:50.04	328.97	41.53	-48.8	-51.4	6.1	0.00e+00	0	32	104	28261220352	60	45250
2026-01-29 09:42:51.05	329.18	41.12	-48.8	-51.3	6.1	0.00e+00	0	32	104	28261220352	60	45083
2026-01-29 09:42:52.06	329.38	40.72	-48.9	-51.4	6.1	0.00e+00	0	32	104	28261220352	60	45451
2026-01-29 09:42:53.07	329.57	40.32	-48.9	-51.5	6.1	0.00e+00	0	32	104	28261220352	60	45783
2026-01-29 09:42:54.08	329.76	39.92	-48.9	-51.4	6.1	0.00e+00	0	32	104	28261220352	60	45418
2026-01-29 09:42:55.09	329.95	39.53	-48.9	-51.4	6.1	0.00e+00	0	32	104	28261220352	60	45563
2026-01-29 09:42:56.10	330.13	39.14	-48.9	-51.4	6.1	0.00e+00	0	32	104	28261220352	60	45350
2026-01-29 09:42:57.11	330.30	38.76	-48.8	-51.3	6.1	0.00e+00	0	32	104	28261220352	60	45093
2026-01-29 09:42:58.11	330.47	38.39	-48.9	-51.4	6.1	0.00e+00	0	32	104	28261220352	60	45503
2026-01-29 09:42:59.12	330.64	38.01	-49.0	-51.5	6.1	0.00e+00	0	32	104	28261220352	60	45786
2026-01-29 09:43:00.14	330.81	37.64	-48.9	-51.4	6.1	0.00e+00	0	32	104	28261220352	60	45342
2026-01-29 09:43:01.15	330.97	37.28	-48.9	-51.4	6.1	0.00e+00	0	32	104	28261220352	60	45649
2026-01-29 09:43:02.15	331.12	36.92	-48.9	-51.4	6.1	0.00e+00	0	32	104	28261220352	60	45419
2026-01-29 09:43:03.16	331.28	36.56	-48.9	-51.4	6.1	0.00e+00	0	32	104	28261220352	60	45513
2026-01-29 09:43:04.17	331.43	36.21	-49.0	-51.4	6.1	0.00e+00	0	32	104	28261220352	60	45666
2026-01-29 09:43:05.18	331.58	35.87	-48.9	-51.4	6.1	0.00e+00	0	32	104	28261220352	60	45508
2026-01-29 09:43:06.19	331.72	35.52	-48.8	-51.3	6.1	0.00e+00	0	32	104	28261220352	60	45237
2026-01-29 09:43:07.20	331.86	35.18	-48.9	-51.4	6.1	0.00e+00	0	32	104	28261220352	60	45473
2026-01-29 09:43:08.21	332.00	34.85	-48.9	-51.4	6.1	0.00e+00	0	32	104	28261220352	60	45612
2026-01-29 09:43:09.22	332.13	34.52	-48.9	-51.3	6.1	0.00e+00	0	32	104	28261220352	60	45176
2026-01-29 09:43:10.23	332.26	34.19	-48.9	-51.3	6.1	0.00e+00	0	32	104	28261220352	60	45159
2026-01-29 09:43:11.23	332.39	33.87	-48.9	-51.3	6.1	0.00e+00	0	32	104	28261220352	60	45155
2026-01-29 09:43:12.24	332.52	33.55	-48.8	-51.3	6.1	0.00e+00	0	32	104	28261220352	60	45108
2026-01-29 09:43:13.25	332.64	33.23	-48.9	-51.4	6.1	0.00e+00	0	32	104	28261220352	60	45423
2026-01-29 09:43:14.26	332.77	32.92	-48.9	-51.4	6.1	0.00e+00	0	32	104	28261220352	60	45329
2026-01-29 09:43:15.27	332.88	32.61	-48.9	-51.4	6.1	0.00e+00	0	32	104	28261220352	60	45288
2026-01-29 09:43:16.28	333.00	32.31	-48.9	-51.3	6.1	0.00e+00	0	32	104	28261220352	60	45237
2026-01-29 09:43:17.29	333.12	32.01	-48.9	-51.4	6.1	0.00e+00	0	32	104	28261220352	60	45336
2026-01-29 09:43:18.30	333.23	31.71	-48.9	-51.4	6.1	0.00e+00	0	32	104	28261220352	60	45489
2026-01-29 09:43:19.31	333.34	31.41	-48.9	-51.4	6.1	0.00e+00	0	32	104	28261220352	60	45646
2026-01-29 09:43:20.32	333.45	31.12	-48.9	-51.3	6.1	0.00e+00	0	32	104	28261220352	60	45196
2026-01-29 09:43:21.33	333.56	30.83	-48.9	-51.4	6.1	0.00e+00	0	32	104	28261220352	60	45495
2026-01-29 09:43:22.34	333.66	30.55	-48.9	-51.5	6.1	0.00e+00	0	32	104	28261220352	60	45818
2026-01-29 09:43:23.35	333.76	30.27	-48.8	-51.3	6.1	0.00e+00	0	32	104	28261220352	60	44991
2026-01-29 09:43:24.36	333.86	29.99	-48.8	-51.3	6.1	0.00e+00	0	32	104	28261220352	60	44762
2026-01-29 09:43:25.37	333.96	29.71	-48.8	-51.2	6.1	0.00e+00	0	32	104	28261220352	60	44628
2026-01-29 09:43:26.38	334.06	29.44	-48.9	-51.3	6.1	0.00e+00	0	32	104	28261220352	60	45141
2026-01-29 09:43:27.39	334.16	29.17	-48.8	-51.2	6.1	0.00e+00	0	32	104	28261220352	60	44646
2026-01-29 09:43:28.40	334.25	28.91	-48.8	-51.3	6.1	0.00e+00	0	32	104	28261220352	60	45063
2026-01-29 09:43:29.41	334.34	28.64	-48.8	-51.3	6.1	0.00e+00	0	32	104	28261220352	60	44826
2026-01-29 09:43:30.42	334.43	28.38	-48.6	-51.1	6.1	0.00e+00	0	32	104	28261220352	60	44155
2026-01-29 09:43:31.43	334.52	28.12	-48.9	-51.4	6.1	0.00e+00	0	32	104	28261220352	60	45451
2026-01-29 09:43:32.43	334.61	27.87	-48.8	-51.3	6.1	0.00e+00	0	32	104	28261220352	60	45047
2026-01-29 09:43:33.44	334.70	27.62	-48.9	-51.4	6.1	0.00e+00	0	32	104	28261220352	60	45386
2026-01-29 09:43:34.45	334.78	27.37	-48.9	-51.4	6.0	0.00e+00	0	32	104	28261220352	60	45258
2026-01-29 09:43:35.46	334.86	27.12	-48.9	-51.3	6.1	0.00e+00	0	32	104	28261220352	60	45021
2026-01-29 09:43:36.47	334.95	26.88	-48.9	-51.4	6.1	0.00e+00	0	32	104	28261220352	60	45341
2026-01-29 09:43:37.48	335.03	26.64	-48.9	-51.3	6.1	0.00e+00	0	32	104	28261220352	60	45218
2026-01-29 09:43:38.49	335.11	26.40	-48.8	-51.3	6.1	0.00e+00	0	32	104	28261220352	60	44886
2026-01-29 09:43:39.50	335.19	26.16	-48.8	-51.3	6.1	0.00e+00	0	32	104	28261220352	60	45051
2026-01-29 09:43:40.51	335.26	25.92	-48.9	-51.3	6.1	0.00e+00	0	32	104	28261220352	60	45203
2026-01-29 09:43:41.52	335.34	25.69	-48.8	-51.3	6.1	0.00e+00	0	32	104	28261220352	60	44927
2026-01-29 09:43:42.53	335.42	25.46	-48.8	-51.3	6.0	0.00e+00	0	32	104	28261220352	60	44873
2026-01-29 09:43:43.54	335.49	25.24	-48.9	-51.3	6.1	0.00e+00	0	32	104	28261220352	60	45093
2026-01-29 09:43:44.55	335.56	25.01	-48.9	-51.3	6.1	0.00e+00	0	32	104	28261220352	60	45135
2026-01-29 09:43:45.56	335.63	24.79	-48.8	-51.3	6.1	0.00e+00	0	32	104	28261220352	60	45116
2026-01-29 09:43:46.57	335.70	24.57	-48.8	-51.3	6.1	0.00e+00	0	32	104	28261220352	60	45130
2026-01-29 09:43:47.58	335.77	24.35	-48.8	-51.3	6.1	0.00e+00	0	32	104	28261220352	60	45105
2026-01-29 09:43:48.58	335.84	24.14	-48.8	-51.3	6.1	0.00e+00	0	32	104	28261220352	60	44843
2026-01-29 09:43:49.59	335.91	23.92	-48.8	-51.2	6.1	0.00e+00	0	32	104	28261220352	60	44686
2026-01-29 09:43:50.60	335.98	23.71	-48.8	-51.2	6.1	0.00e+00	0	32	104	28261220352	60	44662
2026-01-29 09:43:51.61	336.04	23.50	-48.8	-51.3	6.0	0.00e+00	0	32	104	28261220352	60	44756
2026-01-29 09:43:52.62	336.11	23.29	-48.8	-51.3	6.1	0.00e+00	0	32	104	28261220352	60	44931
2026-01-29 09:43:53.63	336.17	23.09	-48.8	-51.3	6.1	0.00e+00	0	32	104	28261220352	60	44941
2026-01-29 09:43:54.64	336.24	22.88	-48.8	-51.3	6.1	0.00e+00	0	32	104	28261220352	60	44862
2026-01-29 09:43:55.65	336.30	22.68	-48.8	-51.3	6.1	0.00e+00	0	32	104	28261220352	60	44823
2026-01-29 09:43:56.66	336.36	22.48	-48.7	-51.3	6.1	0.00e+00	0	32	104	28261220352	60	44913
2026-01-29 09:43:57.67	336.42	22.28	-48.8	-51.2	6.1	0.00e+00	0	32	104	28261220352	60	44697
2026-01-29 09:43:58.68	336.48	22.09	-48.7	-51.2	6.1	0.00e+00	0	32	104	28261220352	60	44363
2026-01-29 09:43:59.69	336.54	21.89	-48.7	-51.2	6.1	0.00e+00	0	32	104	28261220352	60	44338
2026-01-29 09:44:00.70	336.60	21.70	-48.6	-51.2	6.1	0.00e+00	0	32	104	28261220352	60	44215
2026-01-29 09:44:01.70	336.65	21.51	-48.7	-51.3	6.1	0.00e+00	0	32	104	28261220352	60	44834
2026-01-29 09:44:02.72	336.71	21.32	-48.7	-51.2	6.1	0.00e+00	0	32	104	28261220352	60	44682
2026-01-29 09:44:03.72	336.77	21.14	-48.7	-51.2	6.1	0.00e+00	0	32	104	28261220352	60	44660
2026-01-29 09:44:04.73	336.82	20.95	-48.5	-51.1	6.1	0.00e+00	0	32	104	28261220352	60	43837
2026-01-29 09:44:05.74	336.88	20.77	-48.7	-51.2	6.1	0.00e+00	0	32	104	28261220352	60	44324
2026-01-29 09:44:06.75	336.93	20.58	-48.7	-51.2	6.1	0.00e+00	0	32	104	28261220352	60	44247
2026-01-29 09:44:07.76	336.98	20.40	-48.7	-51.1	6.1	0.00e+00	0	32	104	28261220352	60	44187
2026-01-29 09:44:08.77	337.04	20.22	-48.6	-51.1	6.1	0.00e+00	0	32	104	28261220352	60	44203
2026-01-29 09:44:09.78	337.09	20.05	-48.6	-51.1	6.1	0.00e+00	0	32	104	28261220352	60	44018
2026-01-29 09:44:10.79	337.14	19.87	-48.5	-51.0	6.1	0.00e+00	0	32	104	28261220352	60	43582
2026-01-29 09:44:11.80	337.19	19.70	-48.6	-51.2	6.1	0.00e+00	0	32	104	28261220352	60	44324
2026-01-29 09:44:12.81	337.24	19.52	-48.4	-50.9	6.1	0.00e+00	0	32	104	28261220352	60	43130
2026-01-29 09:44:13.82	337.29	19.35	-48.6	-51.1	6.1	0.00e+00	0	32	104	28261220352	60	44037
2026-01-29 09:44:14.83	337.34	19.18	-48.6	-51.1	6.1	0.00e+00	0	32	104	28261220352	60	44074
2026-01-29 09:44:15.84	337.39	19.01	-48.6	-51.0	6.1	0.00e+00	0	32	104	28261220352	60	43704
2026-01-29 09:44:16.85	337.44	18.85	-48.5	-51.1	6.1	0.00e+00	0	32	104	28261220352	60	43960
2026-01-29 09:44:17.86	337.48	18.68	-48.5	-51.0	6.1	0.00e+00	0	32	104	28261220352	60	43501
2026-01-29 09:44:18.86	337.53	18.52	-48.4	-50.9	6.1	0.00e+00	0	32	104	28261220352	60	42957
2026-01-29 09:44:19.87	337.58	18.36	-48.6	-51.1	6.1	0.00e+00	0	32	104	28261220352	60	44148
2026-01-29 09:44:20.88	337.62	18.19	-48.5	-51.1	6.1	0.00e+00	0	32	104	28261220352	60	43756
2026-01-29 09:44:21.89	337.67	18.03	-48.5	-51.1	6.1	0.00e+00	0	32	104	28261220352	60	43934
2026-01-29 09:44:22.90	337.71	17.87	-48.6	-51.1	6.1	0.00e+00	0	32	104	28261220352	60	44091
2026-01-29 09:44:23.91	337.76	17.72	-48.6	-51.1	6.1	0.00e+00	0	32	104	28261220352	60	43887
2026-01-29 09:44:24.92	337.80	17.56	-48.6	-51.1	6.1	0.00e+00	0	32	104	28261220352	60	43794
2026-01-29 09:44:25.92	337.84	17.41	-48.5	-51.0	6.1	0.00e+00	0	32	104	28261220352	60	43500
2026-01-29 09:44:26.93	337.89	17.25	-48.6	-51.1	6.1	0.00e+00	0	32	104	28261220352	60	43936
2026-01-29 09:44:27.94	337.93	17.10	-48.6	-51.1	6.1	0.00e+00	0	32	104	28261220352	60	44103
2026-01-29 09:44:28.95	337.97	16.95	-48.6	-51.1	6.1	0.00e+00	0	32	104	28261220352	60	43820
2026-01-29 09:44:29.96	338.01	16.80	-48.6	-51.1	6.1	0.00e+00	0	32	104	28261220352	60	43904
2026-01-29 09:44:30.97	338.06	16.65	-48.6	-51.0	6.0	0.00e+00	0	32	104	28261220352	60	43670
2026-01-29 09:44:31.98	338.10	16.50	-48.6	-51.0	6.1	0.00e+00	0	32	104	28261220352	60	43649
2026-01-29 09:44:32.99	338.14	16.35	-48.5	-51.1	6.1	0.00e+00	0	32	104	28261220352	60	43809
2026-01-29 09:44:34.00	338.18	16.21	-48.6	-51.1	6.1	0.00e+00	0	32	104	28261220352	60	44084
2026-01-29 09:44:35.00	338.22	16.07	-48.5	-51.0	6.1	0.00e+00	0	32	104	28261220352	60	43677
2026-01-29 09:44:36.01	338.25	15.92	-48.6	-51.0	6.1	0.00e+00	0	32	104	28261220352	60	43574
2026-01-29 09:44:37.02	338.29	15.78	-48.6	-51.0	6.1	0.00e+00	0	32	104	28261220352	60	43662
2026-01-29 09:44:38.02	338.33	15.64	-48.6	-51.1	6.1	0.00e+00	0	32	104	28261220352	60	43812
2026-01-29 09:44:39.03	338.37	15.50	-48.5	-51.0	6.1	0.00e+00	0	32	104	28261220352	60	43501
2026-01-29 09:44:40.04	338.41	15.36	-48.6	-51.0	6.1	0.00e+00	0	32	104	28261220352	60	43697
2026-01-29 09:44:41.05	338.44	15.22	-48.6	-51.1	6.1	0.00e+00	0	32	104	28261220352	60	43790
2026-01-29 09:44:42.06	338.48	15.08	-48.5	-51.1	6.1	0.00e+00	0	32	104	28261220352	60	43786
2026-01-29 09:44:43.07	338.52	14.95	-48.5	-51.0	6.1	0.00e+00	0	32	104	28261220352	60	43646
2026-01-29 09:44:44.08	338.55	14.81	-48.5	-51.1	6.1	0.00e+00	0	32	104	28261220352	60	43743
2026-01-29 09:44:45.09	338.59	14.68	-48.6	-51.1	6.1	0.00e+00	0	32	104	28261220352	60	43820
2026-01-29 09:44:46.10	338.63	14.54	-48.5	-51.1	6.1	0.00e+00	0	32	104	28261220352	60	43722
2026-01-29 09:44:47.11	338.66	14.41	-48.5	-51.0	6.1	0.00e+00	0	32	104	28261220352	60	43616
2026-01-29 09:44:48.12	338.70	14.28	-48.5	-51.0	6.1	0.00e+00	0	32	104	28261220352	60	43352
2026-01-29 09:44:49.13	338.73	14.15	-48.5	-51.0	6.1	0.00e+00	0	32	104	28261220352	60	43625
2026-01-29 09:44:50.14	338.76	14.02	-48.5	-51.0	6.1	0.00e+00	0	32	104	28261220352	60	43607
2026-01-29 09:44:51.15	338.80	13.89	-48.5	-51.0	6.1	0.00e+00	0	32	104	28261220352	60	43589
2026-01-29 09:44:52.16	338.83	13.76	-48.6	-51.1	6.1	0.00e+00	0	32	104	28261220352	60	43761
2026-01-29 09:44:53.17	338.87	13.63	-48.5	-51.0	6.1	0.00e+00	0	32	104	28261220352	60	43695
2026-01-29 09:44:54.18	338.90	13.51	-48.6	-51.1	6.1	0.00e+00	0	32	104	28261220352	60	43717
2026-01-29 09:44:55.19	338.93	13.38	-48.5	-51.0	6.1	0.00e+00	0	32	104	28261220352	60	43697
2026-01-29 09:44:56.20	338.96	13.26	-48.6	-51.1	6.1	0.00e+00	0	32	104	28261220352	60	43920
2026-01-29 09:44:57.21	339.00	13.13	-48.5	-51.0	6.1	0.00e+00	0	32	104	28261220352	60	43546
2026-01-29 09:44:58.22	339.03	13.01	-48.5	-51.0	6.1	0.00e+00	0	32	104	28261220352	60	43272
2026-01-29 09:44:59.23	339.06	12.89	-48.5	-51.1	6.1	0.00e+00	0	32	104	28261220352	60	43758
2026-01-29 09:45:00.24	339.09	12.77	-48.5	-51.0	6.1	0.00e+00	0	32	104	28261220352	60	43554
2026-01-29 09:45:01.25	339.12	12.65	-48.5	-51.0	6.1	0.00e+00	0	32	104	28261220352	60	43478
2026-01-29 09:45:02.26	339.15	12.53	-48.5	-51.0	6.1	0.00e+00	0	32	104	28261220352	60	43546
2026-01-29 09:45:03.27	339.18	12.41	-48.5	-51.0	6.1	0.00e+00	0	32	104	28261220352	60	43433
2026-01-29 09:45:04.27	339.21	12.29	-48.5	-51.0	6.1	0.00e+00	0	32	104	28261220352	60	43534
2026-01-29 09:45:05.28	339.24	12.17	-48.5	-51.0	6.1	0.00e+00	0	32	104	28261220352	60	43344
2026-01-29 09:45:06.29	339.27	12.06	-48.5	-51.0	6.1	0.00e+00	0	32	104	28261220352	60	43361
2026-01-29 09:45:07.30	339.30	11.94	-48.4	-50.9	6.1	0.00e+00	0	32	104	28261220352	60	42859
2026-01-29 09:45:08.30	339.33	11.83	-48.5	-50.9	6.1	0.00e+00	0	32	104	28261220352	60	43165
2026-01-29 09:45:09.31	339.36	11.71	-48.4	-50.9	6.1	0.00e+00	0	32	104	28261220352	60	43121
2026-01-29 09:45:10.32	339.39	11.60	-48.4	-50.9	6.1	0.00e+00	0	32	104	28261220352	60	42901
2026-01-29 09:45:11.33	339.42	11.48	-48.2	-50.7	6.1	0.00e+00	0	32	104	28261220352	60	42218
2026-01-29 09:45:12.34	339.45	11.37	-48.4	-50.9	6.1	0.00e+00	0	32	104	28261220352	60	43157
2026-01-29 09:45:13.35	339.48	11.26	-48.2	-50.7	6.1	0.00e+00	0	32	104	28261220352	60	42114
2026-01-29 09:45:14.35	339.50	11.15	-48.3	-50.8	6.1	0.00e+00	0	32	104	28261220352	60	42673
2026-01-29 09:45:15.36	339.53	11.04	-48.1	-50.6	6.1	0.00e+00	0	32	104	28261220352	60	41614
2026-01-29 09:45:16.37	339.56	10.93	-48.3	-50.8	6.1	0.00e+00	0	32	104	28261220352	60	42690
2026-01-29 09:45:17.37	339.59	10.82	-48.0	-50.6	6.1	0.00e+00	0	32	104	28261220352	60	41501
2026-01-29 09:45:18.38	339.61	10.71	-48.1	-50.6	6.1	0.00e+00	0	32	104	28261220352	60	41566
2026-01-29 09:45:19.39	339.64	10.60	-48.0	-50.5	6.1	0.00e+00	0	32	104	28261220352	60	41185
2026-01-29 09:45:20.39	339.67	10.50	-47.9	-50.5	6.1	0.00e+00	0	32	104	28261220352	60	40968
2026-01-29 09:45:21.40	339.69	10.39	-48.2	-50.8	6.1	0.00e+00	0	32	104	28261220352	60	42236
2026-01-29 09:45:22.41	339.72	10.28	-47.9	-50.5	6.1	0.00e+00	0	32	104	28261220352	60	40993
2026-01-29 09:45:23.42	339.75	10.18	-47.5	-50.1	6.1	0.00e+00	0	32	104	28261220352	60	39334
2026-01-29 09:45:24.43	339.77	10.07	-47.8	-50.4	6.1	0.00e+00	0	32	104	28261220352	60	40664
2026-01-29 09:45:25.44	339.80	9.97	-48.1	-50.6	6.1	0.00e+00	0	32	104	28261220352	60	41740
2026-01-29 09:45:26.44	339.82	9.86	-48.0	-50.6	6.1	0.00e+00	0	32	104	28261220352	60	41268
2026-01-29 09:45:27.45	339.85	9.76	-48.3	-50.8	6.1	0.00e+00	0	32	104	28261220352	60	42627
2026-01-29 09:45:28.46	339.87	9.66	-48.2	-50.7	6.1	0.00e+00	0	32	104	28261220352	60	41998
2026-01-29 09:45:29.47	339.90	9.56	-48.2	-50.7	6.1	0.00e+00	0	32	104	28261220352	60	42063
2026-01-29 09:45:30.48	339.92	9.45	-48.2	-50.7	6.1	0.00e+00	0	32	104	28261220352	60	42005
2026-01-29 09:45:31.49	339.95	9.35	-47.8	-50.4	6.1	0.00e+00	0	32	104	28261220352	60	40604
2026-01-29 09:45:32.50	339.97	9.25	-47.7	-50.4	6.1	0.00e+00	0	32	104	28261220352	60	40446
2026-01-29 09:45:33.51	340.00	9.15	-47.7	-50.4	6.1	0.00e+00	0	32	104	28261220352	60	40345
2026-01-29 09:45:34.52	340.02	9.05	-48.0	-50.6	6.1	0.00e+00	0	32	104	28261220352	60	41663
2026-01-29 09:45:35.52	340.04	8.95	-48.2	-50.7	6.1	0.00e+00	0	32	104	28261220352	60	42162
2026-01-29 09:45:36.53	340.07	8.86	-48.3	-50.7	6.1	0.00e+00	0	32	104	28261220352	60	42186
2026-01-29 09:45:37.54	340.09	8.76	-48.2	-50.7	6.1	0.00e+00	0	32	104	28261220352	60	42011
2026-01-29 09:45:38.55	340.12	8.66	-48.2	-50.8	6.1	0.00e+00	0	32	104	28261220352	60	42383
2026-01-29 09:45:39.56	340.14	8.56	-48.3	-50.8	6.1	0.00e+00	0	32	104	28261220352	60	42249
2026-01-29 09:45:40.57	340.16	8.47	-48.3	-50.8	6.1	0.00e+00	0	32	104	28261220352	60	42368
2026-01-29 09:45:41.58	340.19	8.37	-48.3	-50.7	6.1	0.00e+00	0	32	104	28261220352	60	42198
2026-01-29 09:45:42.59	340.21	8.27	-48.3	-50.8	6.1	0.00e+00	0	32	104	28261220352	60	42302
2026-01-29 09:45:43.60	340.23	8.18	-48.3	-50.7	6.1	0.00e+00	0	32	104	28261220352	60	42213
2026-01-29 09:45:44.61	340.25	8.08	-48.3	-50.8	6.1	0.00e+00	0	32	104	28261220352	60	42337
2026-01-29 09:45:45.62	340.28	7.99	-48.3	-50.8	6.1	0.00e+00	0	32	104	28261220352	60	42264
2026-01-29 09:45:46.63	340.30	7.90	-48.2	-50.7	6.1	0.00e+00	0	32	104	28261220352	60	41952
2026-01-29 09:45:47.64	340.32	7.80	-48.3	-50.7	6.1	0.00e+00	0	32	104	28261220352	60	42159
2026-01-29 09:45:48.65	340.34	7.71	-48.3	-50.8	6.1	0.00e+00	0	32	104	28261220352	60	42237
2026-01-29 09:45:49.65	340.36	7.62	-48.2	-50.7	6.1	0.00e+00	0	32	104	28261220352	60	42112
2026-01-29 09:45:50.66	340.39	7.53	-48.1	-50.6	6.1	0.00e+00	0	32	104	28261220352	60	41424
2026-01-29 09:45:51.67	340.41	7.44	-48.2	-50.7	6.1	0.00e+00	0	32	104	28261220352	60	42061
2026-01-29 09:45:52.68	340.43	7.35	-48.2	-50.7	6.1	0.00e+00	0	32	104	28261220352	60	42116
2026-01-29 09:45:53.69	340.45	7.25	-48.2	-50.7	6.1	0.00e+00	0	32	104	28261220352	60	41892
2026-01-29 09:45:54.70	340.47	7.16	-48.0	-50.5	6.1	0.00e+00	0	32	104	28261220352	60	41166
2026-01-29 09:45:55.71	340.49	7.07	-48.2	-50.7	6.1	0.00e+00	0	32	104	28261220352	60	42146
2026-01-29 09:45:56.72	340.51	6.99	-48.1	-50.6	6.1	0.00e+00	0	32	104	28261220352	60	41311
2026-01-29 09:45:57.72	340.53	6.90	-48.1	-50.6	6.1	0.00e+00	0	32	104	28261220352	60	41344
2026-01-29 09:45:58.73	340.56	6.81	-47.9	-50.4	6.1	0.00e+00	0	32	104	28261220352	60	40514
2026-01-29 09:45:59.74	340.58	6.72	-48.1	-50.6	6.1	0.00e+00	0	32	104	28261220352	60	41628
2026-01-29 09:46:00.75	340.60	6.63	-48.0	-50.6	6.1	0.00e+00	0	32	104	28261220352	60	41293
2026-01-29 09:46:01.76	340.62	6.55	-48.0	-50.5	6.1	0.00e+00	0	32	104	28261220352	60	41058
2026-01-29 09:46:02.77	340.64	6.46	-47.6	-50.0	6.1	0.00e+00	0	32	104	28261220352	60	38950
2026-01-29 09:46:03.77	340.66	6.37	-48.0	-50.6	6.1	0.00e+00	0	32	104	28261220352	60	41265
2026-01-29 09:46:04.78	340.68	6.29	-47.3	-49.8	6.0	0.00e+00	0	32	104	28261220352	60	37787
2026-01-29 09:46:05.79	340.70	6.20	-47.2	-49.7	6.1	0.00e+00	0	32	104	28261220352	60	37450
2026-01-29 09:46:06.80	340.72	6.12	-46.8	-49.3	6.1	0.00e+00	0	32	104	28261220352	60	35739
2026-01-29 09:46:07.81	340.74	6.03	-46.6	-49.1	6.1	0.00e+00	0	32	104	28261220352	60	34830
2026-01-29 09:46:08.82	340.76	5.95	-46.2	-48.7	6.1	0.00e+00	0	32	104	28261220352	60	33513
2026-01-29 09:46:09.83	340.78	5.86	-45.2	-47.7	6.1	0.00e+00	0	32	104	28261220352	60	29773
2026-01-29 09:46:10.84	340.80	5.78	-45.5	-48.1	6.1	0.00e+00	0	32	104	28261220352	60	31004
2026-01-29 09:46:11.85	340.81	5.69	-47.6	-50.1	6.1	0.00e+00	0	32	104	28261220352	60	39387
2026-01-29 09:46:12.86	340.83	5.61	-45.3	-47.8	6.1	0.00e+00	0	32	104	28261220352	60	30111
2026-01-29 09:46:13.87	340.85	5.53	-45.6	-48.2	6.1	0.00e+00	0	32	104	28261220352	60	31318
2026-01-29 09:46:14.88	340.87	5.44	-45.2	-47.7	6.1	0.00e+00	0	32	104	28261220352	60	29769
2026-01-29 09:46:15.89	340.89	5.36	-45.0	-47.5	6.1	0.00e+00	0	32	104	28261220352	60	29062
2026-01-29 09:46:16.90	340.91	5.28	-44.8	-47.3	6.1	0.00e+00	0	32	104	28261220352	60	28359
2026-01-29 09:46:17.91	340.93	5.20	-44.5	-47.0	6.1	0.00e+00	0	32	104	28261220352	60	27377
2026-01-29 09:46:18.92	340.95	5.12	-44.6	-47.1	6.1	0.00e+00	0	32	104	28261220352	60	27795
2026-01-29 09:46:19.93	340.96	5.04	-46.6	-49.1	6.1	0.00e+00	0	32	104	28261220352	60	34792
2026-01-29 09:46:20.93	340.98	4.96	-44.5	-47.0	6.1	0.00e+00	0	32	104	28261220352	60	27531
2026-01-29 09:46:21.94	341.00	4.88	-44.7	-47.2	6.1	0.00e+00	0	32	104	28261220352	60	28142
2026-01-29 09:46:22.96	341.02	4.80	-44.5	-47.0	6.1	0.00e+00	0	32	104	28261220352	60	27460
2026-01-29 09:46:23.96	341.04	4.72	-44.5	-47.0	6.1	0.00e+00	0	32	104	28261220352	60	27384
2026-01-29 09:46:24.97	341.06	4.64	-44.4	-46.9	6.1	0.00e+00	0	32	104	28261220352	60	26960
2026-01-29 09:46:25.98	341.07	4.56	-44.3	-46.8	6.1	0.00e+00	0	32	104	28261220352	60	26905
2026-01-29 09:46:26.99	341.09	4.48	-44.4	-46.9	6.1	0.00e+00	0	32	104	28261220352	60	27046
2026-01-29 09:46:28.00	341.11	4.40	-45.1	-47.7	6.1	0.00e+00	0	32	104	28261220352	60	29590
2026-01-29 09:46:29.01	341.13	4.32	-44.5	-46.9	6.1	0.00e+00	0	32	104	28261220352	60	27256
2026-01-29 09:46:30.02	341.14	4.25	-44.5	-47.0	6.1	0.00e+00	0	32	104	28261220352	60	27404
2026-01-29 09:46:31.02	341.16	4.17	-44.4	-46.9	6.1	0.00e+00	0	32	104	28261220352	60	27019
2026-01-29 09:46:32.03	341.18	4.09	-44.4	-46.9	6.1	0.00e+00	0	32	104	28261220352	60	27038
2026-01-29 09:46:33.04	341.20	4.01	-44.3	-46.8	6.1	0.00e+00	0	32	104	28261220352	60	26909
2026-01-29 09:46:34.06	341.21	3.94	-44.3	-46.8	6.1	0.00e+00	0	32	104	28261220352	60	26743
2026-01-29 09:46:35.06	341.23	3.86	-44.2	-46.7	6.1	0.00e+00	0	32	104	28261220352	60	26419
2026-01-29 09:46:36.07	341.25	3.79	-44.6	-47.0	6.1	0.00e+00	0	32	104	28261220352	60	27529
2026-01-29 09:46:37.08	341.26	3.71	-44.4	-46.8	6.1	0.00e+00	0	32	104	28261220352	60	26940
2026-01-29 09:46:38.09	341.28	3.63	-44.4	-46.9	6.1	0.00e+00	0	32	104	28261220352	60	26963
2026-01-29 09:46:39.10	341.30	3.56	-44.2	-46.7	6.1	0.00e+00	0	32	104	28261220352	60	26434
2026-01-29 09:46:40.10	341.31	3.48	-44.4	-47.0	6.1	0.00e+00	0	32	104	28261220352	60	27292
2026-01-29 09:46:41.11	341.33	3.41	-44.3	-46.8	6.1	0.00e+00	0	32	104	28261220352	60	26848
2026-01-29 09:46:42.11	341.35	3.34	-44.3	-46.8	6.1	0.00e+00	0	32	104	28261220352	60	26755
2026-01-29 09:46:43.12	341.36	3.26	-44.2	-46.7	6.1	0.00e+00	0	32	104	28261220352	60	26480
2026-01-29 09:46:44.13	341.38	3.19	-44.4	-46.9	6.1	0.00e+00	0	32	104	28261220352	60	27238
2026-01-29 09:46:45.14	341.40	3.11	-44.3	-46.8	6.1	0.00e+00	0	32	104	28261220352	60	26790
2026-01-29 09:46:46.15	341.41	3.04	-44.2	-46.7	6.1	0.00e+00	0	32	104	28261220352	60	26449
2026-01-29 09:46:47.16	341.43	2.97	-45.3	-47.8	6.1	0.00e+00	0	32	104	28261220352	60	30076
2026-01-29 09:46:48.17	341.44	2.89	-48.0	-50.5	6.1	0.00e+00	0	32	104	28261220352	60	40882
2026-01-29 09:46:49.18	341.46	2.82	-48.3	-50.7	6.1	0.00e+00	0	32	104	28261220352	60	42128
2026-01-29 09:46:50.19	341.48	2.75	-48.6	-51.0	6.1	0.00e+00	0	32	104	28261220352	60	43435
2026-01-29 09:46:51.19	341.49	2.68	-48.7	-51.2	6.1	0.00e+00	0	32	104	28261220352	60	44345
2026-01-29 09:46:52.20	341.51	2.61	-48.8	-51.3	6.1	0.00e+00	0	32	104	28261220352	60	44729
2026-01-29 09:46:53.21	341.52	2.53	-48.8	-51.3	6.1	0.00e+00	0	32	104	28261220352	60	45127
2026-01-29 09:46:54.22	341.54	2.46	-48.9	-51.4	6.1	0.00e+00	0	32	104	28261220352	60	45340
2026-01-29 09:46:55.23	341.55	2.39	-49.0	-51.4	6.1	0.00e+00	0	32	104	28261220352	60	45728
2026-01-29 09:46:56.24	341.57	2.32	-48.9	-51.4	6.1	0.00e+00	0	32	104	28261220352	60	45455
2026-01-29 09:46:57.25	341.59	2.25	-48.9	-51.4	6.1	0.00e+00	0	32	104	28261220352	60	45530
2026-01-29 09:46:58.26	341.60	2.18	-48.9	-51.4	6.1	0.00e+00	0	32	104	28261220352	60	45361
2026-01-29 09:46:59.27	341.62	2.11	-48.8	-51.3	6.1	0.00e+00	0	32	104	28261220352	60	45001
2026-01-29 09:47:00.28	341.63	2.04	-49.0	-51.4	6.1	0.00e+00	0	32	104	28261220352	60	45609
2026-01-29 09:47:01.29	341.65	1.97	-48.2	-50.9	6.1	0.00e+00	0	32	104	28261220352	60	42974
2026-01-29 09:47:02.30	341.66	1.90	-48.8	-51.3	6.1	0.00e+00	0	32	104	28261220352	60	45034
2026-01-29 09:47:03.31	341.68	1.83	-48.9	-51.4	6.1	0.00e+00	0	32	104	28261220352	60	45595
2026-01-29 09:47:04.31	341.69	1.76	-48.9	-51.4	6.1	0.00e+00	0	32	104	28261220352	60	45406
2026-01-29 09:47:05.32	341.71	1.69	-48.8	-51.3	6.1	0.00e+00	0	32	104	28261220352	60	45057
2026-01-29 09:47:06.33	341.72	1.62	-48.7	-51.2	6.1	0.00e+00	0	32	104	28261220352	60	44403
2026-01-29 09:47:07.34	341.74	1.55	-48.6	-51.2	6.1	0.00e+00	0	32	104	28261220352	60	44308
2026-01-29 09:47:08.35	341.75	1.49	-48.8	-51.3	6.1	0.00e+00	0	32	104	28261220352	60	45008
2026-01-29 09:47:09.36	341.77	1.42	-48.9	-51.4	6.1	0.00e+00	0	32	104	28261220352	60	45393
2026-01-29 09:47:10.37	341.78	1.35	-48.9	-51.3	6.1	0.00e+00	0	32	104	28261220352	60	45203
2026-01-29 09:47:11.38	341.79	1.28	-48.9	-51.4	6.1	0.00e+00	0	32	104	28261220352	60	45278
2026-01-29 09:47:12.39	341.81	1.21	-48.9	-51.4	6.1	0.00e+00	0	32	104	28261220352	60	45365
2026-01-29 09:47:13.40	341.82	1.15	-48.9	-51.3	6.1	0.00e+00	0	32	104	28261220352	60	45212
2026-01-29 09:47:14.40	341.84	1.08	-48.9	-51.3	6.0	0.00e+00	0	32	104	28261220352	60	45189
2026-01-29 09:47:15.41	341.85	1.01	-48.9	-51.3	6.1	0.00e+00	0	32	104	28261220352	60	45076
2026-01-29 09:47:16.42	341.87	0.95	-48.9	-51.3	6.1	0.00e+00	0	32	104	28261220352	60	45123
2026-01-29 09:47:17.43	341.88	0.88	-48.9	-51.4	6.1	0.00e+00	0	32	104	28261220352	60	45258
2026-01-29 09:47:18.44	341.89	0.81	-48.9	-51.4	6.1	0.00e+00	0	32	104	28261220352	60	45536
2026-01-29 09:47:19.45	341.91	0.75	-48.9	-51.3	6.1	0.00e+00	0	32	104	28261220352	60	45144
2026-01-29 09:47:20.46	341.92	0.68	-48.9	-51.3	6.1	0.00e+00	0	32	104	28261220352	60	45103
2026-01-29 09:47:21.47	341.94	0.62	-48.9	-51.3	6.1	0.00e+00	0	32	104	28261220352	60	45142
2026-01-29 09:47:22.48	341.95	0.55	-48.9	-51.4	6.1	0.00e+00	0	32	104	28261220352	60	45318
2026-01-29 09:47:23.49	341.96	0.49	-48.9	-51.3	6.1	0.00e+00	0	32	104	28261220352	60	45076
2026-01-29 09:47:24.50	341.98	0.42	-48.9	-51.3	6.1	0.00e+00	0	32	104	28261220352	60	45232
2026-01-29 09:47:25.51	341.99	0.35	-48.9	-51.3	6.1	0.00e+00	0	32	104	28261220352	60	45148
2026-01-29 09:47:26.52	342.01	0.29	-48.9	-51.3	6.1	0.00e+00	0	32	104	28261220352	60	45197
2026-01-29 09:47:27.53	342.02	0.23	-48.9	-51.4	6.1	0.00e+00	0	32	104	28261220352	60	45380
2026-01-29 09:47:28.54	342.03	0.16	-48.9	-51.3	6.1	0.00e+00	0	32	104	28261220352	60	44903
2026-01-29 09:47:29.55	342.05	0.10	-48.9	-51.3	6.1	0.00e+00	0	32	104	28261220352	60	44978
2026-01-29 09:47:30.55	342.06	0.03	-48.9	-51.3	6.1	0.00e+00	0	32	104	28261220352	60	45069
2026-01-29 09:47:31.57	342.07	-0.03	-48.8	-51.3	6.1	0.00e+00	0	32	104	28261220352	60	44933
2026-01-29 09:47:32.58	342.09	-0.10	-48.9	-51.3	6.1	0.00e+00	0	32	104	28261220352	60	45216

#Closed at: 2026-01-29 09:47:32
#Recorded file [28261 MB]: D:/lorett/data/35029_260129_213622.dat