passes_logs/2026/01/29/R4.6S_Anadyr/R4.6S_Anadyr__20260129_140236_NOAA_20_JPSS-1_rec.log

#Pass ID: 20260129_140236_NOAA 20 (JPSS-1)
#Satellite: NOAA 20 (JPSS-1)
#Configuration: NOAA 20
#almurnet v.1.7.20251203
#Start time: 2026-01-29 14:02:39

#Version: 2.2.20231116
#Station: R4.6S_Anadyr
#Location: 177.4865 lon 64.73178 lat
#TLE: 1 43013U 17073A   26028.86313978  .00000144  00000+0  89200-4 0  9993
#TLE: 2 43013  98.7648 329.6571 0000891  20.0014 340.1197 14.19541559424709

#Time	Az	El	Level	Level2	SNR	BER	BlckErr	Temp	State	Recorded	gain1	gain2
2026-01-29 14:02:39.26	19.44	0.18	-48.9	-62.7	3.3	1.54e+00	0	27	0	0	60	49341
2026-01-29 14:02:40.27	19.47	0.24	-48.8	-64.0	3.6	1.51e+00	0	27	104	0	60	57314
2026-01-29 14:02:41.28	19.49	0.30	-48.8	-64.0	3.6	1.51e+00	0	27	104	0	60	57314
2026-01-29 14:02:42.29	19.52	0.36	-48.8	-64.0	3.6	1.51e+00	0	27	104	0	60	57361
2026-01-29 14:02:43.30	19.54	0.42	-48.8	-64.0	3.6	1.51e+00	0	27	104	0	60	57165
2026-01-29 14:02:44.31	19.57	0.48	-48.8	-64.0	3.6	1.51e+00	0	27	104	0	60	57317
2026-01-29 14:02:45.32	19.59	0.54	-48.8	-64.0	3.6	1.51e+00	0	27	104	0	60	56985
2026-01-29 14:02:46.33	19.62	0.60	-48.7	-63.9	3.6	1.51e+00	0	27	104	0	60	56737
2026-01-29 14:02:47.34	19.64	0.66	-48.7	-63.9	3.6	1.51e+00	0	27	104	0	60	56811
2026-01-29 14:02:48.35	19.67	0.72	-48.7	-63.9	3.6	1.51e+00	0	27	104	0	60	56469
2026-01-29 14:02:49.36	19.69	0.78	-48.6	-63.8	3.6	1.51e+00	0	27	104	0	60	56235
2026-01-29 14:02:50.37	19.72	0.84	-48.6	-63.8	3.6	1.51e+00	0	27	104	0	60	56004
2026-01-29 14:02:51.38	19.75	0.90	-48.6	-63.7	3.6	1.51e+00	0	27	104	0	60	55647
2026-01-29 14:02:52.39	19.77	0.96	-48.5	-63.7	3.5	1.51e+00	0	27	104	0	60	55155
2026-01-29 14:02:53.40	19.80	1.02	-48.4	-63.5	3.6	1.51e+00	0	27	104	0	60	53985
2026-01-29 14:02:54.41	19.82	1.08	-48.2	-63.4	3.6	1.51e+00	0	28	104	0	60	53271
2026-01-29 14:02:55.42	19.85	1.14	-48.1	-63.3	3.6	1.51e+00	0	27	104	0	60	53058
2026-01-29 14:02:56.43	19.88	1.21	-47.9	-63.1	3.6	1.51e+00	0	27	104	0	60	51538
2026-01-29 14:02:57.44	19.90	1.27	-47.9	-63.0	3.6	1.51e+00	0	28	104	0	60	51051
2026-01-29 14:02:58.45	19.93	1.33	-47.8	-62.9	3.6	1.51e+00	0	28	104	0	60	50441
2026-01-29 14:02:59.46	19.96	1.39	-47.4	-62.6	3.6	1.51e+00	0	28	104	0	60	48682
2026-01-29 14:03:00.47	19.98	1.45	-47.3	-62.4	3.6	1.51e+00	0	27	104	0	60	47828
2026-01-29 14:03:01.48	20.01	1.51	-47.3	-62.4	3.6	1.51e+00	0	27	104	0	60	47431
2026-01-29 14:03:02.49	20.04	1.58	-47.3	-62.4	3.6	1.51e+00	0	27	104	0	60	47796
2026-01-29 14:03:03.50	20.06	1.64	-47.3	-62.4	3.6	1.51e+00	0	27	104	0	60	47598
2026-01-29 14:03:04.51	20.09	1.70	-47.3	-62.3	3.6	1.51e+00	0	28	104	0	60	47130
2026-01-29 14:03:05.52	20.12	1.76	-47.3	-62.4	3.6	1.51e+00	0	28	104	0	60	47667
2026-01-29 14:03:06.53	20.15	1.83	-47.3	-62.4	3.6	1.51e+00	0	28	104	0	60	47857
2026-01-29 14:03:07.53	20.17	1.89	-47.3	-62.4	3.6	1.51e+00	0	28	104	0	60	47902
2026-01-29 14:03:08.55	20.20	1.95	-47.3	-62.4	3.6	1.51e+00	0	28	104	0	60	47745
2026-01-29 14:03:09.56	20.23	2.01	-47.3	-62.4	3.6	1.51e+00	0	28	104	0	60	47871
2026-01-29 14:03:10.57	20.26	2.08	-47.3	-62.4	3.6	1.51e+00	0	27	104	0	60	47835
2026-01-29 14:03:11.57	20.28	2.14	-47.3	-62.5	3.6	1.51e+00	0	28	104	0	60	47935
2026-01-29 14:03:12.58	20.31	2.20	-47.3	-62.4	3.6	1.51e+00	0	28	104	0	60	47414
2026-01-29 14:03:13.60	20.34	2.27	-47.3	-62.1	3.6	1.51e+00	0	28	104	0	60	46116
2026-01-29 14:03:14.61	20.37	2.33	-47.2	-61.5	3.6	1.51e+00	0	28	104	0	60	43207
2026-01-29 14:03:15.62	20.40	2.40	-47.2	-61.2	3.6	1.51e+00	0	28	104	0	60	41543
2026-01-29 14:03:16.63	20.42	2.46	-47.2	-60.9	3.6	1.51e+00	0	28	104	0	60	40202
2026-01-29 14:03:17.64	20.45	2.52	-47.2	-60.7	3.6	1.51e+00	0	28	104	0	60	39166
2026-01-29 14:03:18.65	20.48	2.59	-47.2	-61.2	3.6	1.51e+00	0	28	104	0	60	41337
2026-01-29 14:03:19.66	20.51	2.65	-47.2	-61.4	3.6	1.51e+00	0	28	104	0	60	42256
2026-01-29 14:03:20.66	20.54	2.72	-47.2	-60.5	3.6	1.51e+00	0	28	104	0	60	38274
2026-01-29 14:03:21.67	20.57	2.78	-47.0	-56.9	4.5	1.45e+00	7	28	0	0	60	25258
2026-01-29 14:03:22.68	20.59	2.85	-46.7	-54.1	6.5	3.57e-01	0	28	0	2097152	60	18267
2026-01-29 14:03:23.69	20.62	2.91	-46.0	-51.4	9.6	5.98e-02	0	28	0	4194304	60	13378
2026-01-29 14:03:24.70	20.65	2.98	-45.0	-48.8	12.5	9.14e-03	89	28	0	5242880	60	9996
2026-01-29 14:03:25.71	20.68	3.04	-44.2	-47.4	14.0	2.20e-06	0	28	0	7340032	60	8480
2026-01-29 14:03:26.72	20.71	3.11	-43.6	-46.2	15.3	0.00e+00	92	28	0	9437184	60	7422
2026-01-29 14:03:27.73	20.74	3.17	-42.3	-44.4	17.0	0.00e+00	0	28	0	11534336	58	6716
2026-01-29 14:03:28.74	20.77	3.24	-42.2	-44.3	17.3	0.00e+00	0	28	0	13631488	58	6638
2026-01-29 14:03:29.75	20.80	3.30	-41.6	-43.4	17.9	0.00e+00	64	28	0	14680064	58	6011
2026-01-29 14:03:30.76	20.83	3.37	-41.6	-43.4	17.9	0.00e+00	65	28	0	16777216	56	6754
2026-01-29 14:03:31.77	20.86	3.44	-41.5	-43.3	18.1	0.00e+00	15	28	0	18874368	56	6629
2026-01-29 14:03:32.78	20.89	3.50	-41.5	-43.3	18.1	0.00e+00	63	28	0	20971520	56	6652
2026-01-29 14:03:33.79	20.92	3.57	-42.8	-45.0	16.4	0.00e+00	92	28	0	23068672	56	8096
2026-01-29 14:03:34.80	20.95	3.64	-42.5	-44.5	17.0	0.00e+00	17	28	0	24117248	56	7682
2026-01-29 14:03:35.81	20.98	3.70	-43.7	-46.5	14.6	0.00e+00	17	28	0	26214400	58	8558
2026-01-29 14:03:36.82	21.01	3.77	-46.4	-53.5	3.7	0.00e+00	33	28	0	28311552	60	17124
2026-01-29 14:03:37.83	21.04	3.84	-45.0	-49.2	5.7	1.50e+00	0	28	104	28311552	60	10381
2026-01-29 14:03:38.84	21.07	3.90	-46.4	-53.0	6.9	7.03e-04	57	28	0	28311552	60	16181
2026-01-29 14:03:39.85	21.10	3.97	-44.0	-46.9	14.8	1.07e-01	23	28	0	30408704	60	7989
2026-01-29 14:03:40.86	21.13	4.04	-43.7	-46.4	15.1	0.00e+00	92	28	0	31457280	60	7583
2026-01-29 14:03:41.87	21.16	4.11	-43.5	-46.2	15.4	0.00e+00	21	28	0	33554432	60	7370
2026-01-29 14:03:42.88	21.20	4.18	-43.0	-45.4	16.3	0.00e+00	91	28	0	35651584	60	6710
2026-01-29 14:03:43.89	21.23	4.24	-43.0	-45.4	16.2	0.00e+00	0	28	0	37748736	60	6697
2026-01-29 14:03:44.90	21.26	4.31	-42.7	-44.9	16.8	0.00e+00	0	28	0	39845888	58	7130
2026-01-29 14:03:45.91	21.29	4.38	-42.0	-43.9	17.9	0.00e+00	0	28	0	40894464	58	6382
2026-01-29 14:03:46.91	21.32	4.45	-41.7	-43.5	18.3	0.00e+00	0	28	0	42991616	58	6077
2026-01-29 14:03:47.92	21.35	4.52	-41.4	-43.1	18.6	0.00e+00	91	28	0	45088768	56	6513
2026-01-29 14:03:48.93	21.38	4.59	-41.5	-43.2	18.5	0.00e+00	63	28	0	47185920	56	6565
2026-01-29 14:03:49.94	21.42	4.66	-41.4	-43.0	18.4	0.00e+00	92	28	0	49283072	56	6452
2026-01-29 14:03:50.95	21.45	4.72	-41.5	-43.2	18.8	0.00e+00	64	28	0	50331648	56	6546
2026-01-29 14:03:51.96	21.48	4.79	-41.3	-42.9	18.6	0.00e+00	64	28	0	52428800	56	6388
2026-01-29 14:03:52.97	21.51	4.86	-42.0	-43.8	18.2	0.00e+00	0	28	0	54525952	56	7038
2026-01-29 14:03:53.98	21.55	4.93	-41.4	-43.1	18.7	0.00e+00	17	28	0	56623104	56	6476
2026-01-29 14:03:54.99	21.58	5.00	-40.3	-41.7	19.8	0.00e+00	63	28	0	58720256	54	6222
2026-01-29 14:03:56.00	21.61	5.07	-40.7	-42.2	19.5	0.00e+00	17	28	0	59768832	54	6591
2026-01-29 14:03:57.00	21.64	5.14	-41.3	-42.9	18.7	0.00e+00	92	28	0	61865984	54	7109
2026-01-29 14:03:58.01	21.68	5.21	-41.4	-43.0	18.7	0.00e+00	16	28	0	63963136	54	7244
2026-01-29 14:03:59.02	21.71	5.28	-41.0	-42.5	19.3	0.00e+00	92	28	0	66060288	54	6819
2026-01-29 14:04:00.03	21.74	5.36	-40.4	-41.7	20.0	0.00e+00	0	28	0	68157440	54	6240
2026-01-29 14:04:01.04	21.78	5.43	-40.5	-41.9	19.8	0.00e+00	18	28	0	69206016	54	6353
2026-01-29 14:04:02.05	21.81	5.50	-40.6	-42.0	19.9	0.00e+00	0	28	0	71303168	54	6423
2026-01-29 14:04:03.05	21.84	5.57	-40.3	-41.7	20.2	0.00e+00	0	28	0	73400320	54	6178
2026-01-29 14:04:04.06	21.88	5.64	-40.5	-41.9	19.8	0.00e+00	92	28	0	75497472	54	6387
2026-01-29 14:04:05.07	21.91	5.71	-40.2	-41.6	20.3	0.00e+00	0	28	0	77594624	54	6106
2026-01-29 14:04:06.08	21.95	5.78	-40.2	-41.5	20.4	0.00e+00	1	28	0	78643200	54	6073
2026-01-29 14:04:07.09	21.98	5.86	-40.2	-41.5	20.3	0.00e+00	2	28	0	80740352	54	6056
2026-01-29 14:04:08.10	22.02	5.93	-40.2	-41.5	20.5	0.00e+00	0	28	0	82837504	54	6058
2026-01-29 14:04:09.11	22.05	6.00	-40.0	-41.3	20.4	0.00e+00	0	28	0	84934656	54	5946
2026-01-29 14:04:10.11	22.08	6.07	-40.3	-41.6	20.2	0.00e+00	0	28	0	87031808	54	6130
2026-01-29 14:04:11.12	22.12	6.15	-40.2	-41.5	20.3	0.00e+00	58	28	0	88080384	54	6093
2026-01-29 14:04:12.13	22.15	6.22	-40.2	-41.5	20.3	0.00e+00	60	28	0	90177536	54	6064
2026-01-29 14:04:13.14	22.19	6.29	-40.2	-41.6	20.3	0.00e+00	92	28	0	92274688	54	6118
2026-01-29 14:04:14.15	22.23	6.37	-40.0	-41.3	20.5	0.00e+00	60	28	0	94371840	54	5938
2026-01-29 14:04:15.16	22.26	6.44	-40.1	-41.4	20.4	0.00e+00	7	28	0	96468992	54	6013
2026-01-29 14:04:16.17	22.30	6.52	-40.1	-41.4	20.4	0.00e+00	0	28	0	97517568	54	6005
2026-01-29 14:04:17.18	22.33	6.59	-40.1	-41.4	20.5	0.00e+00	17	28	0	99614720	54	5986
2026-01-29 14:04:18.18	22.37	6.66	-39.8	-41.1	20.8	0.00e+00	64	28	0	101711872	54	5771
2026-01-29 14:04:19.19	22.40	6.74	-39.8	-41.0	20.8	0.00e+00	0	28	0	103809024	54	5759
2026-01-29 14:04:20.20	22.44	6.81	-39.9	-41.1	20.8	0.00e+00	92	28	0	105906176	52	6518
2026-01-29 14:04:21.20	22.48	6.89	-39.9	-41.2	20.7	0.00e+00	67	28	0	106954752	52	6564
2026-01-29 14:04:22.21	22.51	6.96	-40.1	-41.3	20.6	0.00e+00	61	28	0	109051904	52	6675
2026-01-29 14:04:23.22	22.55	7.04	-39.8	-41.0	20.9	0.00e+00	15	28	0	111149056	52	6440
2026-01-29 14:04:24.23	22.59	7.11	-39.9	-41.1	20.8	0.00e+00	0	28	0	113246208	52	6492
2026-01-29 14:04:25.24	22.62	7.19	-39.9	-41.2	20.7	0.00e+00	17	28	0	115343360	52	6558
2026-01-29 14:04:26.25	22.66	7.27	-40.1	-41.4	20.6	0.00e+00	0	28	0	116391936	52	6703
2026-01-29 14:04:27.26	22.70	7.34	-39.8	-41.0	20.8	0.00e+00	92	28	0	118489088	52	6454
2026-01-29 14:04:28.27	22.74	7.42	-39.7	-40.9	21.1	0.00e+00	16	28	0	120586240	52	6345
2026-01-29 14:04:29.28	22.78	7.50	-39.8	-41.0	20.8	0.00e+00	92	28	0	122683392	52	6442
2026-01-29 14:04:30.29	22.81	7.57	-39.7	-40.9	21.0	0.00e+00	0	28	0	124780544	52	6335
2026-01-29 14:04:31.29	22.85	7.65	-39.8	-41.0	21.0	0.00e+00	0	28	0	126877696	52	6392
2026-01-29 14:04:32.30	22.89	7.73	-39.7	-40.9	20.9	0.00e+00	0	28	0	127926272	52	6357
2026-01-29 14:04:33.31	22.93	7.80	-39.8	-41.0	20.9	0.00e+00	0	28	0	130023424	52	6413
2026-01-29 14:04:34.32	22.97	7.88	-39.7	-40.8	21.1	0.00e+00	65	28	0	132120576	52	6314
2026-01-29 14:04:35.33	23.01	7.96	-39.6	-40.7	21.1	0.00e+00	0	28	0	134217728	52	6228
2026-01-29 14:04:36.33	23.04	8.04	-39.6	-40.7	21.1	0.00e+00	92	28	0	136314880	52	6236
2026-01-29 14:04:37.34	23.08	8.12	-39.5	-40.6	21.3	0.00e+00	0	28	0	137363456	52	6138
2026-01-29 14:04:38.35	23.12	8.20	-39.4	-40.6	21.3	0.00e+00	58	28	0	139460608	52	6136
2026-01-29 14:04:39.36	23.16	8.28	-39.4	-40.6	21.3	0.00e+00	0	28	0	141557760	52	6121
2026-01-29 14:04:40.37	23.20	8.35	-39.4	-40.6	21.3	0.00e+00	60	28	0	143654912	52	6129
2026-01-29 14:04:41.37	23.24	8.43	-39.6	-40.7	21.2	0.00e+00	0	28	0	145752064	52	6235
2026-01-29 14:04:42.38	23.28	8.51	-39.6	-40.8	21.1	0.00e+00	0	28	0	146800640	52	6287
2026-01-29 14:04:43.39	23.32	8.59	-39.7	-40.9	21.0	0.00e+00	92	28	0	148897792	52	6333
2026-01-29 14:04:44.40	23.36	8.67	-39.4	-40.6	21.4	0.00e+00	59	28	0	150994944	52	6122
2026-01-29 14:04:45.41	23.41	8.75	-39.4	-40.5	21.4	0.00e+00	92	28	0	153092096	52	6094
2026-01-29 14:04:46.42	23.45	8.84	-39.4	-40.5	21.5	0.00e+00	17	28	0	155189248	52	6070
2026-01-29 14:04:47.42	23.49	8.92	-39.2	-40.3	21.6	0.00e+00	14	28	0	156237824	52	5916
2026-01-29 14:04:48.43	23.53	9.00	-39.2	-40.3	21.7	0.00e+00	16	28	0	158334976	52	5908
2026-01-29 14:04:49.44	23.57	9.08	-39.1	-40.1	21.8	0.00e+00	17	28	0	160432128	52	5828
2026-01-29 14:04:50.45	23.61	9.16	-39.1	-40.2	21.8	0.00e+00	92	28	0	162529280	52	5842
2026-01-29 14:04:51.45	23.65	9.24	-39.1	-40.2	21.8	0.00e+00	0	28	0	164626432	52	5877
2026-01-29 14:04:52.46	23.70	9.32	-39.1	-40.1	21.8	0.00e+00	92	28	0	165675008	52	5825
2026-01-29 14:04:53.47	23.74	9.41	-39.0	-40.1	21.9	0.00e+00	17	28	0	167772160	52	5809
2026-01-29 14:04:54.48	23.78	9.49	-39.1	-40.2	21.8	0.00e+00	0	28	0	169869312	52	5855
2026-01-29 14:04:55.49	23.82	9.57	-39.2	-40.3	21.8	0.00e+00	0	28	0	171966464	52	5918
2026-01-29 14:04:56.50	23.87	9.66	-39.1	-40.1	21.9	0.00e+00	5	28	0	174063616	52	5818
2026-01-29 14:04:57.51	23.91	9.74	-38.9	-40.0	22.0	0.00e+00	58	28	0	175112192	52	5723
2026-01-29 14:04:58.52	23.95	9.82	-38.9	-40.0	22.1	0.00e+00	0	28	0	177209344	52	5729
2026-01-29 14:04:59.53	24.00	9.91	-38.9	-39.9	22.1	0.00e+00	92	28	0	179306496	50	6359
2026-01-29 14:05:00.53	24.04	9.99	-38.9	-40.0	22.1	0.00e+00	65	28	0	181403648	50	6392
2026-01-29 14:05:01.54	24.09	10.08	-38.9	-39.9	22.2	0.00e+00	0	28	0	183500800	50	6362
2026-01-29 14:05:02.55	24.13	10.16	-38.9	-39.9	22.1	0.00e+00	65	28	0	184549376	50	6378
2026-01-29 14:05:03.56	24.18	10.25	-38.9	-40.0	22.1	0.00e+00	66	28	0	186646528	50	6401
2026-01-29 14:05:04.57	24.22	10.33	-38.7	-39.8	22.3	0.00e+00	0	28	0	188743680	50	6252
2026-01-29 14:05:05.58	24.27	10.42	-38.7	-39.7	22.4	0.00e+00	0	28	0	190840832	50	6227
2026-01-29 14:05:06.58	24.31	10.50	-38.6	-39.6	22.4	0.00e+00	92	28	0	192937984	50	6161
2026-01-29 14:05:07.59	24.36	10.59	-38.8	-39.8	22.3	0.00e+00	28	28	0	193986560	50	6295
2026-01-29 14:05:08.60	24.40	10.68	-38.7	-39.7	22.4	0.00e+00	92	28	0	196083712	50	6221
2026-01-29 14:05:09.61	24.45	10.76	-38.7	-39.7	22.4	0.00e+00	66	28	0	198180864	50	6243
2026-01-29 14:05:10.62	24.50	10.85	-38.6	-39.6	22.5	0.00e+00	66	28	0	200278016	50	6159
2026-01-29 14:05:11.62	24.54	10.94	-38.7	-39.7	22.4	0.00e+00	24	28	0	202375168	50	6203
2026-01-29 14:05:12.63	24.59	11.03	-38.7	-39.7	22.4	0.00e+00	21	28	0	203423744	50	6229
2026-01-29 14:05:13.64	24.64	11.11	-38.8	-39.8	22.3	0.00e+00	92	28	0	205520896	50	6304
2026-01-29 14:05:14.65	24.68	11.20	-38.8	-39.8	22.3	0.00e+00	6	28	0	207618048	50	6304
2026-01-29 14:05:15.65	24.73	11.29	-38.7	-39.7	22.4	0.00e+00	92	28	0	209715200	50	6204
2026-01-29 14:05:16.66	24.78	11.38	-38.9	-40.0	22.3	0.00e+00	25	28	0	211812352	50	6408
2026-01-29 14:05:17.67	24.83	11.47	-38.8	-39.8	22.5	0.00e+00	6	28	0	212860928	50	6271
2026-01-29 14:05:18.68	24.88	11.56	-38.5	-39.5	22.7	0.00e+00	0	28	0	214958080	50	6052
2026-01-29 14:05:19.69	24.92	11.65	-38.6	-39.6	22.6	0.00e+00	0	28	0	217055232	50	6159
2026-01-29 14:05:20.70	24.97	11.74	-38.4	-39.4	22.7	0.00e+00	24	28	0	219152384	50	6024
2026-01-29 14:05:21.70	25.02	11.83	-38.4	-39.4	22.8	0.00e+00	7	28	0	221249536	50	5999
2026-01-29 14:05:22.71	25.07	11.92	-38.5	-39.5	22.7	0.00e+00	91	28	0	222298112	50	6037
2026-01-29 14:05:23.72	25.12	12.01	-38.6	-39.6	22.5	0.00e+00	0	28	0	224395264	50	6171
2026-01-29 14:05:24.73	25.17	12.10	-38.5	-39.5	22.6	0.00e+00	92	28	0	226492416	50	6060
2026-01-29 14:05:25.74	25.22	12.20	-38.6	-39.5	22.7	0.00e+00	0	28	0	228589568	50	6098
2026-01-29 14:05:26.75	25.27	12.29	-38.3	-39.3	22.9	0.00e+00	68	28	0	230686720	50	5904
2026-01-29 14:05:27.76	25.32	12.38	-38.4	-39.4	22.7	0.00e+00	0	28	0	231735296	50	6016
2026-01-29 14:05:28.77	25.38	12.47	-38.5	-39.5	22.7	0.00e+00	68	28	0	233832448	50	6043
2026-01-29 14:05:29.78	25.43	12.57	-38.5	-39.5	22.7	0.00e+00	92	28	0	235929600	50	6061
2026-01-29 14:05:30.79	25.48	12.66	-38.3	-39.2	23.0	0.00e+00	63	28	0	238026752	50	5883
2026-01-29 14:05:31.80	25.53	12.76	-38.2	-39.2	23.0	0.00e+00	92	28	0	240123904	50	5864
2026-01-29 14:05:32.81	25.58	12.85	-38.1	-39.0	23.1	0.00e+00	20	28	0	241172480	50	5753
2026-01-29 14:05:33.81	25.64	12.94	-38.1	-39.0	23.2	0.00e+00	67	28	0	243269632	50	5723
2026-01-29 14:05:34.82	25.69	13.04	-38.0	-38.9	23.2	0.00e+00	14	28	0	245366784	50	5695
2026-01-29 14:05:35.83	25.74	13.13	-38.1	-39.0	23.1	0.00e+00	0	28	0	247463936	50	5728
2026-01-29 14:05:36.84	25.80	13.23	-38.0	-38.9	23.2	0.00e+00	60	28	0	249561088	50	5687
2026-01-29 14:05:37.85	25.85	13.33	-37.9	-38.9	23.3	0.00e+00	0	28	0	251658240	50	5636
2026-01-29 14:05:38.86	25.91	13.42	-37.9	-38.9	23.3	0.00e+00	92	28	0	252706816	50	5643
2026-01-29 14:05:39.87	25.96	13.52	-38.0	-38.9	23.3	0.00e+00	17	28	0	254803968	50	5671
2026-01-29 14:05:40.87	26.01	13.62	-38.0	-38.9	23.3	0.00e+00	0	28	0	256901120	50	5664
2026-01-29 14:05:41.88	26.07	13.71	-38.2	-39.1	23.1	0.00e+00	0	28	0	258998272	50	5801
2026-01-29 14:05:42.89	26.13	13.81	-37.9	-38.8	23.3	0.00e+00	0	28	0	261095424	50	5614
2026-01-29 14:05:43.90	26.18	13.91	-38.0	-39.0	23.2	0.00e+00	0	28	0	262144000	50	5713
2026-01-29 14:05:44.91	26.24	14.01	-38.0	-38.9	23.2	0.00e+00	0	28	0	264241152	50	5675
2026-01-29 14:05:45.92	26.29	14.11	-37.9	-38.8	23.3	0.00e+00	91	28	0	266338304	50	5620
2026-01-29 14:05:46.93	26.35	14.21	-37.9	-38.8	23.5	0.00e+00	4	28	0	268435456	50	5580
2026-01-29 14:05:47.93	26.41	14.31	-37.7	-38.6	23.5	0.00e+00	91	28	0	270532608	48	6155
2026-01-29 14:05:48.94	26.47	14.41	-37.7	-38.6	23.6	0.00e+00	0	28	0	271581184	48	6112
2026-01-29 14:05:49.95	26.52	14.51	-37.7	-38.6	23.6	0.00e+00	0	28	0	273678336	48	6126
2026-01-29 14:05:50.96	26.58	14.61	-37.7	-38.6	23.5	0.00e+00	42	28	0	275775488	48	6151
2026-01-29 14:05:51.97	26.64	14.71	-37.7	-38.6	23.6	0.00e+00	0	28	0	277872640	48	6128
2026-01-29 14:05:52.98	26.70	14.81	-37.7	-38.6	23.5	0.00e+00	91	28	0	279969792	48	6118
2026-01-29 14:05:53.99	26.76	14.92	-37.7	-38.6	23.5	0.00e+00	69	28	0	281018368	48	6161
2026-01-29 14:05:55.00	26.82	15.02	-37.5	-38.4	23.7	0.00e+00	92	28	0	283115520	48	6006
2026-01-29 14:05:56.01	26.88	15.12	-37.5	-38.4	23.8	0.00e+00	19	28	0	285212672	48	6008
2026-01-29 14:05:57.02	26.94	15.22	-37.5	-38.4	23.7	0.00e+00	19	28	0	287309824	48	5996
2026-01-29 14:05:58.03	27.00	15.33	-37.5	-38.4	23.8	0.00e+00	12	28	0	289406976	48	6021
2026-01-29 14:05:59.04	27.07	15.43	-37.4	-38.3	23.8	0.00e+00	13	28	0	290455552	48	5948
2026-01-29 14:06:00.05	27.13	15.54	-37.4	-38.3	23.8	0.00e+00	31	28	0	292552704	48	5904
2026-01-29 14:06:01.05	27.19	15.64	-37.5	-38.3	23.8	0.00e+00	2	28	0	294649856	48	5961
2026-01-29 14:06:02.06	27.25	15.75	-37.4	-38.2	23.9	0.00e+00	92	28	0	296747008	48	5892
2026-01-29 14:06:03.07	27.32	15.85	-37.3	-38.2	23.9	0.00e+00	0	28	0	298844160	48	5854
2026-01-29 14:06:04.08	27.38	15.96	-37.4	-38.2	24.0	0.00e+00	92	28	0	299892736	48	5883
2026-01-29 14:06:05.09	27.44	16.07	-37.3	-38.2	24.0	0.00e+00	2	28	0	301989888	48	5856
2026-01-29 14:06:06.10	27.51	16.17	-37.3	-38.1	24.0	0.00e+00	0	28	0	304087040	48	5821
2026-01-29 14:06:07.11	27.57	16.28	-37.3	-38.2	24.0	0.00e+00	0	28	0	306184192	48	5863
2026-01-29 14:06:08.12	27.64	16.39	-37.2	-38.1	24.1	0.00e+00	2	28	0	308281344	48	5762
2026-01-29 14:06:09.13	27.70	16.50	-37.2	-38.1	24.0	0.00e+00	92	28	0	309329920	48	5801
2026-01-29 14:06:10.14	27.77	16.61	-37.2	-38.1	24.1	0.00e+00	0	28	0	311427072	48	5802
2026-01-29 14:06:11.14	27.84	16.72	-37.2	-38.1	24.1	0.00e+00	92	28	0	313524224	48	5776
2026-01-29 14:06:12.15	27.90	16.83	-37.2	-38.0	24.1	0.00e+00	0	28	0	315621376	48	5751
2026-01-29 14:06:13.16	27.97	16.94	-37.3	-38.1	24.0	0.00e+00	0	28	0	317718528	48	5817
2026-01-29 14:06:14.18	28.04	17.05	-37.0	-37.9	24.1	0.00e+00	22	28	0	319815680	48	5649
2026-01-29 14:06:15.18	28.11	17.16	-37.0	-37.9	24.1	0.00e+00	12	28	0	320864256	48	5653
2026-01-29 14:06:16.19	28.18	17.27	-37.0	-37.9	24.2	0.00e+00	92	28	0	322961408	48	5653
2026-01-29 14:06:17.20	28.25	17.39	-37.0	-37.8	24.2	0.00e+00	69	28	0	325058560	48	5620
2026-01-29 14:06:18.21	28.32	17.50	-37.1	-37.9	24.2	0.00e+00	91	28	0	327155712	48	5669
2026-01-29 14:06:19.21	28.39	17.61	-37.0	-37.9	24.3	0.00e+00	0	28	0	328204288	48	5640
2026-01-29 14:06:20.22	28.46	17.72	-36.8	-37.6	24.6	0.00e+00	17	28	0	330301440	48	5466
2026-01-29 14:06:21.23	28.53	17.84	-36.8	-37.7	24.4	0.00e+00	12	28	0	332398592	48	5523
2026-01-29 14:06:22.24	28.60	17.95	-36.8	-37.6	24.5	0.00e+00	9	28	0	334495744	48	5496
2026-01-29 14:06:23.25	28.67	18.07	-36.7	-37.5	24.6	0.00e+00	90	28	0	336592896	46	6064
2026-01-29 14:06:24.26	28.75	18.19	-36.8	-37.6	24.6	0.00e+00	11	28	0	337641472	46	6126
2026-01-29 14:06:25.27	28.82	18.30	-36.6	-37.4	24.6	0.00e+00	92	28	0	339738624	46	6002
2026-01-29 14:06:26.28	28.89	18.42	-36.7	-37.5	24.7	0.00e+00	0	28	0	341835776	46	6057
2026-01-29 14:06:27.29	28.97	18.54	-36.6	-37.4	24.7	0.00e+00	0	28	0	343932928	46	5997
2026-01-29 14:06:28.29	29.04	18.65	-36.7	-37.5	24.7	0.00e+00	0	28	0	346030080	46	6077
2026-01-29 14:06:29.30	29.12	18.77	-36.6	-37.4	24.7	0.00e+00	0	28	0	348127232	46	5999
2026-01-29 14:06:30.31	29.19	18.89	-36.7	-37.5	24.6	0.00e+00	0	28	0	349175808	46	6086
2026-01-29 14:06:31.32	29.27	19.01	-36.5	-37.3	24.9	0.00e+00	0	28	0	351272960	46	5936
2026-01-29 14:06:32.33	29.35	19.13	-36.6	-37.4	24.7	0.00e+00	90	28	0	353370112	46	5992
2026-01-29 14:06:33.34	29.43	19.25	-36.5	-37.3	24.8	0.00e+00	69	28	0	355467264	46	5932
2026-01-29 14:06:34.35	29.51	19.37	-36.6	-37.4	24.7	0.00e+00	27	28	0	357564416	46	5978
2026-01-29 14:06:35.36	29.58	19.49	-36.6	-37.5	24.8	0.00e+00	2	28	0	358612992	46	6044
2026-01-29 14:06:36.37	29.66	19.62	-36.6	-37.4	24.7	0.00e+00	0	28	0	360710144	46	5984
2026-01-29 14:06:37.38	29.74	19.74	-36.5	-37.3	24.7	0.00e+00	69	28	0	362807296	46	5942
2026-01-29 14:06:38.39	29.83	19.86	-36.6	-37.4	24.7	0.00e+00	13	28	0	364904448	46	5995
2026-01-29 14:06:39.40	29.91	19.99	-36.6	-37.4	24.7	0.00e+00	92	28	0	367001600	46	6031
2026-01-29 14:06:40.41	29.99	20.11	-36.6	-37.4	24.8	0.00e+00	69	28	0	368050176	46	5995
2026-01-29 14:06:41.41	30.07	20.23	-36.3	-37.1	25.0	0.00e+00	92	28	0	370147328	46	5768
2026-01-29 14:06:42.42	30.16	20.36	-36.4	-37.2	24.9	0.00e+00	0	28	0	372244480	46	5884
2026-01-29 14:06:43.43	30.24	20.49	-36.5	-37.3	24.9	0.00e+00	0	28	0	374341632	46	5928
2026-01-29 14:06:44.44	30.32	20.61	-36.5	-37.3	24.8	0.00e+00	19	28	0	376438784	46	5943
2026-01-29 14:06:45.45	30.41	20.74	-36.5	-37.3	24.9	0.00e+00	13	28	0	377487360	46	5932
2026-01-29 14:06:46.46	30.50	20.87	-36.5	-37.3	24.8	0.00e+00	63	28	0	379584512	46	5907
2026-01-29 14:06:47.47	30.58	21.00	-36.3	-37.1	25.0	0.00e+00	14	28	0	381681664	46	5783
2026-01-29 14:06:48.48	30.67	21.13	-36.3	-37.1	24.9	0.00e+00	90	28	0	383778816	46	5828
2026-01-29 14:06:49.49	30.76	21.26	-36.3	-37.1	25.0	0.00e+00	0	28	0	385875968	46	5795
2026-01-29 14:06:50.50	30.85	21.39	-36.2	-36.9	25.1	0.00e+00	5	28	0	386924544	46	5695
2026-01-29 14:06:51.51	30.94	21.52	-36.2	-37.0	25.1	0.00e+00	6	28	0	389021696	46	5701
2026-01-29 14:06:52.52	31.03	21.65	-36.2	-37.0	25.1	0.00e+00	7	28	0	391118848	46	5710
2026-01-29 14:06:53.52	31.12	21.78	-36.3	-37.1	25.0	0.00e+00	0	28	0	393216000	46	5770
2026-01-29 14:06:54.53	31.21	21.91	-36.3	-37.1	24.9	0.00e+00	0	28	0	395313152	46	5770
2026-01-29 14:06:55.54	31.30	22.05	-36.2	-37.0	25.0	0.00e+00	92	28	0	396361728	46	5708
2026-01-29 14:06:56.55	31.40	22.18	-36.3	-37.1	25.0	0.00e+00	0	28	0	398458880	46	5787
2026-01-29 14:06:57.56	31.49	22.32	-36.3	-37.1	25.0	0.00e+00	92	28	0	400556032	46	5814
2026-01-29 14:06:58.57	31.58	22.45	-36.4	-37.2	24.9	0.00e+00	64	28	0	402653184	46	5879
2026-01-29 14:06:59.57	31.68	22.59	-36.2	-37.0	25.1	0.00e+00	62	28	0	404750336	46	5728
2026-01-29 14:07:00.55	31.77	22.72	-36.5	-37.3	24.8	0.00e+00	63	28	0	405798912	46	5963
2026-01-29 14:07:01.55	31.87	22.86	-36.2	-37.0	25.1	0.00e+00	0	28	0	407896064	46	5704
2026-01-29 14:07:02.56	31.97	22.99	-36.2	-37.0	25.1	0.00e+00	7	28	0	409993216	46	5737
2026-01-29 14:07:03.57	32.07	23.13	-36.2	-36.9	25.1	0.00e+00	69	28	0	412090368	46	5688
2026-01-29 14:07:04.58	32.17	23.27	-36.2	-37.0	24.9	0.00e+00	95	28	0	414187520	46	5748
2026-01-29 14:07:05.59	32.27	23.41	-36.2	-37.0	25.1	0.00e+00	0	28	0	415236096	46	5711
2026-01-29 14:07:06.60	32.37	23.55	-36.2	-37.0	25.1	0.00e+00	62	28	0	417333248	46	5737
2026-01-29 14:07:07.61	32.47	23.69	-36.1	-36.8	25.3	0.00e+00	61	28	0	419430400	46	5626
2026-01-29 14:07:08.62	32.57	23.84	-36.1	-36.9	25.2	0.00e+00	23	28	0	421527552	46	5673
2026-01-29 14:07:09.63	32.68	23.98	-36.1	-36.9	25.3	0.00e+00	31	28	0	423624704	46	5655
2026-01-29 14:07:10.64	32.78	24.12	-36.2	-37.0	25.2	0.00e+00	15	28	0	424673280	46	5704
2026-01-29 14:07:11.64	32.89	24.26	-36.2	-37.0	25.1	0.00e+00	91	28	0	426770432	46	5757
2026-01-29 14:07:12.65	32.99	24.41	-36.3	-37.0	25.1	0.00e+00	17	28	0	428867584	46	5756
2026-01-29 14:07:13.66	33.10	24.55	-36.2	-37.0	25.1	0.00e+00	90	28	0	430964736	46	5738
2026-01-29 14:07:14.67	33.21	24.70	-36.2	-37.0	25.1	0.00e+00	24	28	0	433061888	46	5720
2026-01-29 14:07:15.68	33.32	24.85	-36.3	-37.1	25.0	0.00e+00	0	28	0	434110464	46	5814
2026-01-29 14:07:16.69	33.43	25.00	-36.2	-36.9	25.2	0.00e+00	0	28	0	436207616	46	5689
2026-01-29 14:07:17.70	33.54	25.14	-36.3	-37.1	25.0	0.00e+00	6	28	0	438304768	46	5788
2026-01-29 14:07:18.71	33.66	25.29	-36.3	-37.1	25.0	0.00e+00	90	28	0	440401920	46	5803
2026-01-29 14:07:19.72	33.77	25.44	-36.3	-37.1	25.0	0.00e+00	0	28	0	442499072	46	5814
2026-01-29 14:07:20.73	33.88	25.59	-36.5	-37.3	24.8	0.00e+00	92	28	0	444596224	46	5958
2026-01-29 14:07:21.73	34.00	25.74	-36.6	-37.4	24.8	0.00e+00	71	28	0	445644800	46	6000
2026-01-29 14:07:22.75	34.12	25.90	-36.8	-37.6	24.6	0.00e+00	0	28	0	447741952	46	6112
2026-01-29 14:07:23.75	34.23	26.05	-36.7	-37.6	24.6	0.00e+00	0	28	0	449839104	46	6108
2026-01-29 14:07:24.76	34.35	26.20	-36.8	-37.6	24.3	0.00e+00	0	28	0	451936256	46	6150
2026-01-29 14:07:25.77	34.47	26.36	-36.9	-37.7	24.5	0.00e+00	6	28	0	452984832	46	6200
2026-01-29 14:07:26.78	34.60	26.51	-37.0	-37.8	24.4	0.00e+00	11	28	0	455081984	46	6262
2026-01-29 14:07:27.79	34.72	26.67	-37.2	-38.0	24.3	0.00e+00	91	28	0	457179136	46	6431
2026-01-29 14:07:28.79	34.84	26.82	-37.2	-38.1	24.3	0.00e+00	9	28	0	459276288	46	6503
2026-01-29 14:07:29.80	34.97	26.98	-37.4	-38.2	24.1	0.00e+00	90	28	0	461373440	46	6599
2026-01-29 14:07:30.81	35.09	27.14	-37.4	-38.3	24.1	0.00e+00	15	28	0	462422016	46	6618
2026-01-29 14:07:31.82	35.22	27.30	-37.5	-38.3	24.1	0.00e+00	16	28	0	464519168	46	6659
2026-01-29 14:07:32.83	35.35	27.46	-37.5	-38.3	24.0	0.00e+00	0	28	0	466616320	46	6691
2026-01-29 14:07:33.84	35.48	27.62	-37.6	-38.5	23.9	0.00e+00	0	28	0	468713472	46	6825
2026-01-29 14:07:34.85	35.61	27.78	-37.7	-38.6	23.8	0.00e+00	92	28	0	470810624	48	6116
2026-01-29 14:07:35.86	35.74	27.94	-37.8	-38.7	23.7	0.00e+00	12	28	0	472907776	48	6225
2026-01-29 14:07:36.86	35.87	28.10	-37.8	-38.7	23.6	0.00e+00	90	28	0	473956352	48	6222
2026-01-29 14:07:37.87	36.01	28.27	-37.9	-38.8	23.6	0.00e+00	0	28	0	476053504	48	6267
2026-01-29 14:07:38.88	36.14	28.43	-38.1	-39.0	23.4	0.00e+00	0	28	0	478150656	48	6453
2026-01-29 14:07:39.89	36.28	28.60	-38.1	-39.1	23.4	0.00e+00	0	28	0	480247808	48	6467
2026-01-29 14:07:40.90	36.42	28.76	-38.2	-39.1	23.4	0.00e+00	0	28	0	482344960	48	6503
2026-01-29 14:07:41.91	36.56	28.93	-38.2	-39.2	23.3	0.00e+00	92	28	0	483393536	48	6543
2026-01-29 14:07:42.92	36.70	29.10	-38.4	-39.3	23.2	0.00e+00	0	28	0	485490688	48	6652
2026-01-29 14:07:43.93	36.85	29.27	-38.4	-39.4	23.1	0.00e+00	91	28	0	487587840	48	6711
2026-01-29 14:07:44.94	36.99	29.44	-38.6	-39.6	22.8	0.00e+00	71	28	0	489684992	48	6891
2026-01-29 14:07:45.95	37.14	29.61	-38.9	-39.8	22.6	0.00e+00	0	28	0	491782144	50	6317
2026-01-29 14:07:46.96	37.29	29.78	-39.1	-40.2	22.2	0.00e+00	3	28	0	492830720	50	6563
2026-01-29 14:07:47.97	37.43	29.95	-39.4	-40.5	22.0	0.00e+00	0	28	0	494927872	50	6788
2026-01-29 14:07:48.98	37.59	30.12	-39.6	-40.6	22.0	0.00e+00	45	28	0	497025024	50	6914
2026-01-29 14:07:49.99	37.74	30.30	-39.8	-40.9	21.6	0.00e+00	71	28	0	499122176	52	6376
2026-01-29 14:07:50.99	37.89	30.47	-40.0	-41.1	21.5	0.00e+00	92	28	0	501219328	52	6533
2026-01-29 14:07:52.00	38.05	30.65	-40.2	-41.3	21.4	0.00e+00	12	28	0	502267904	52	6668
2026-01-29 14:07:53.01	38.20	30.82	-40.2	-41.4	21.3	0.00e+00	92	28	0	504365056	52	6735
2026-01-29 14:07:54.02	38.36	31.00	-40.1	-41.3	21.4	0.00e+00	71	28	0	506462208	52	6652
2026-01-29 14:07:55.03	38.52	31.18	-40.0	-41.1	21.6	0.00e+00	0	28	0	508559360	52	6530
2026-01-29 14:07:56.04	38.69	31.36	-39.9	-41.0	21.7	0.00e+00	0	28	0	510656512	52	6455
2026-01-29 14:07:57.05	38.85	31.54	-39.7	-40.8	22.0	0.00e+00	2	28	0	511705088	52	6268
2026-01-29 14:07:58.06	39.02	31.72	-39.4	-40.5	22.1	0.00e+00	91	28	0	513802240	52	6040
2026-01-29 14:07:59.07	39.18	31.90	-39.6	-40.7	22.0	0.00e+00	11	28	0	515899392	52	6191
2026-01-29 14:08:00.07	39.35	32.08	-39.6	-40.7	22.0	0.00e+00	90	28	0	517996544	52	6185
2026-01-29 14:08:01.08	39.52	32.26	-39.5	-40.5	22.1	0.00e+00	2	28	0	520093696	52	6091
2026-01-29 14:08:02.09	39.70	32.45	-39.4	-40.5	22.2	0.00e+00	0	28	0	521142272	52	6065
2026-01-29 14:08:03.10	39.87	32.63	-39.4	-40.4	22.2	0.00e+00	2	28	0	523239424	52	6020
2026-01-29 14:08:04.11	40.05	32.82	-39.4	-40.4	22.1	0.00e+00	0	28	0	525336576	52	5983
2026-01-29 14:08:05.11	40.23	33.00	-39.1	-40.1	22.5	0.00e+00	0	28	0	527433728	52	5773
2026-01-29 14:08:06.13	40.41	33.19	-39.0	-40.0	22.6	0.00e+00	72	28	0	529530880	52	5760
2026-01-29 14:08:07.13	40.59	33.38	-38.9	-39.9	22.6	0.00e+00	92	28	0	530579456	52	5675
2026-01-29 14:08:08.14	40.78	33.57	-39.1	-40.1	22.6	0.00e+00	71	28	0	532676608	52	5785
2026-01-29 14:08:09.15	40.96	33.76	-38.9	-39.9	22.7	0.00e+00	30	28	0	534773760	52	5639
2026-01-29 14:08:10.16	41.15	33.95	-38.9	-39.9	22.7	0.00e+00	0	28	0	536870912	52	5665
2026-01-29 14:08:11.17	41.35	34.14	-38.9	-39.8	22.8	0.00e+00	0	28	0	538968064	52	5628
2026-01-29 14:08:12.18	41.54	34.33	-38.9	-39.9	22.6	0.00e+00	0	28	0	541065216	52	5683
2026-01-29 14:08:13.19	41.74	34.53	-38.8	-39.8	22.8	0.00e+00	72	28	0	542113792	52	5585
2026-01-29 14:08:14.19	41.93	34.72	-38.6	-39.5	23.1	0.00e+00	90	28	0	544210944	50	6065
2026-01-29 14:08:15.21	42.14	34.91	-38.5	-39.5	23.0	0.00e+00	72	28	0	546308096	50	6034
2026-01-29 14:08:16.21	42.34	35.11	-38.6	-39.5	23.1	0.00e+00	90	28	0	548405248	50	6074
2026-01-29 14:08:17.22	42.54	35.31	-38.6	-39.6	22.9	0.00e+00	71	28	0	549453824	50	6118
2026-01-29 14:08:18.23	42.75	35.50	-38.6	-39.6	22.5	0.00e+00	0	28	0	551550976	50	6107
2026-01-29 14:08:19.24	42.96	35.70	-38.6	-39.5	22.5	0.00e+00	0	28	0	553648128	50	6087
2026-01-29 14:08:20.25	43.18	35.90	-38.6	-39.6	22.9	0.00e+00	2	28	0	555745280	50	6121
2026-01-29 14:08:21.26	43.39	36.10	-38.3	-39.3	23.2	0.00e+00	90	28	0	557842432	50	5912
2026-01-29 14:08:22.26	43.61	36.30	-38.1	-39.0	23.6	0.00e+00	10	28	0	559939584	50	5739
2026-01-29 14:08:23.27	43.83	36.50	-37.7	-38.6	23.8	0.00e+00	92	28	0	560988160	48	6108
2026-01-29 14:08:24.28	44.05	36.70	-37.6	-38.5	24.0	0.00e+00	0	28	0	563085312	48	6038
2026-01-29 14:08:25.29	44.28	36.91	-37.6	-38.4	23.9	0.00e+00	0	28	0	565182464	48	6021
2026-01-29 14:08:26.30	44.51	37.11	-37.4	-38.3	24.1	0.00e+00	0	28	0	567279616	48	5934
2026-01-29 14:08:27.31	44.74	37.32	-37.5	-38.3	24.0	0.00e+00	0	28	0	569376768	48	5951
2026-01-29 14:08:28.32	44.98	37.52	-37.4	-38.3	24.0	0.00e+00	26	28	0	570425344	48	5903
2026-01-29 14:08:29.33	45.21	37.73	-37.5	-38.4	24.1	0.00e+00	71	28	0	572522496	48	5995
2026-01-29 14:08:30.34	45.45	37.93	-37.1	-38.0	24.4	0.00e+00	92	28	0	574619648	48	5723
2026-01-29 14:08:31.35	45.70	38.14	-37.2	-38.0	24.4	0.00e+00	0	28	0	576716800	48	5731
2026-01-29 14:08:32.36	45.94	38.35	-36.9	-37.7	24.5	0.00e+00	92	28	0	578813952	48	5560
2026-01-29 14:08:33.37	46.19	38.56	-37.0	-37.8	24.5	0.00e+00	0	28	0	579862528	48	5629
2026-01-29 14:08:34.37	46.45	38.77	-37.2	-38.0	24.2	0.00e+00	0	28	0	581959680	48	5747
2026-01-29 14:08:35.38	46.70	38.98	-37.3	-38.1	24.2	0.00e+00	0	28	0	584056832	48	5795
2026-01-29 14:08:36.39	46.96	39.19	-37.3	-38.1	24.4	0.00e+00	70	28	0	586153984	48	5826
2026-01-29 14:08:37.40	47.23	39.40	-37.2	-38.0	24.4	0.00e+00	90	28	0	588251136	48	5744
2026-01-29 14:08:38.41	47.49	39.61	-36.9	-37.7	24.6	0.00e+00	17	28	0	589299712	48	5519
2026-01-29 14:08:39.41	47.76	39.83	-37.1	-37.9	24.4	0.00e+00	90	28	0	591396864	48	5656
2026-01-29 14:08:40.42	48.03	40.04	-36.8	-37.7	24.6	0.00e+00	15	28	0	593494016	48	5506
2026-01-29 14:08:41.43	48.31	40.25	-36.8	-37.6	24.8	0.00e+00	17	28	0	595591168	46	6140
2026-01-29 14:08:42.44	48.59	40.47	-36.7	-37.5	24.7	0.00e+00	0	28	0	597688320	46	6086
2026-01-29 14:08:43.45	48.87	40.68	-36.8	-37.6	24.7	0.00e+00	0	28	0	598736896	46	6142
2026-01-29 14:08:44.46	49.16	40.90	-36.8	-37.7	24.6	0.00e+00	90	28	0	600834048	46	6185
2026-01-29 14:08:45.47	49.45	41.12	-37.0	-37.8	24.5	0.00e+00	10	28	0	602931200	46	6287
2026-01-29 14:08:46.48	49.75	41.33	-37.1	-38.0	24.4	0.00e+00	91	28	0	605028352	46	6405
2026-01-29 14:08:47.49	50.05	41.55	-37.1	-37.9	24.3	0.00e+00	0	28	0	607125504	46	6352
2026-01-29 14:08:48.50	50.35	41.77	-37.2	-38.0	24.4	0.00e+00	12	28	0	608174080	46	6423
2026-01-29 14:08:49.51	50.66	41.99	-37.3	-38.1	24.3	0.00e+00	0	28	0	610271232	46	6500
2026-01-29 14:08:50.51	50.97	42.20	-37.4	-38.2	24.1	0.00e+00	0	28	0	612368384	46	6592
2026-01-29 14:08:51.52	51.29	42.42	-37.5	-38.4	24.0	0.00e+00	5	28	0	614465536	46	6715
2026-01-29 14:08:52.53	51.61	42.64	-37.8	-38.7	23.5	0.00e+00	71	28	0	616562688	48	6212
2026-01-29 14:08:53.54	51.93	42.86	-38.0	-38.9	23.5	0.00e+00	92	28	0	617611264	48	6352
2026-01-29 14:08:54.55	52.26	43.08	-38.1	-39.0	23.4	0.00e+00	0	28	0	619708416	48	6424
2026-01-29 14:08:55.56	52.59	43.30	-37.8	-38.6	23.8	0.00e+00	92	28	0	621805568	48	6171
2026-01-29 14:08:56.57	52.93	43.52	-37.9	-38.8	23.6	0.00e+00	69	28	0	623902720	48	6261
2026-01-29 14:08:57.58	53.28	43.74	-37.5	-38.4	24.0	0.00e+00	0	28	0	625999872	48	5980
2026-01-29 14:08:58.59	53.62	43.96	-37.6	-38.5	23.9	0.00e+00	0	28	0	628097024	48	6080
2026-01-29 14:08:59.59	53.97	44.18	-37.9	-38.8	23.6	0.00e+00	72	28	0	629145600	48	6290
2026-01-29 14:09:00.60	54.33	44.40	-38.6	-39.6	23.0	0.00e+00	90	28	0	631242752	48	6861
2026-01-29 14:09:01.61	54.69	44.62	-39.0	-40.0	22.3	0.00e+00	71	28	0	633339904	50	6412
2026-01-29 14:09:02.61	55.06	44.84	-39.3	-40.4	22.3	0.00e+00	92	28	0	635437056	50	6695
2026-01-29 14:09:03.62	55.43	45.06	-39.2	-40.2	22.4	0.00e+00	15	28	0	637534208	50	6550
2026-01-29 14:09:04.63	55.80	45.29	-39.0	-39.9	22.7	0.00e+00	6	28	0	638582784	50	6385
2026-01-29 14:09:05.64	56.19	45.51	-39.0	-40.0	22.6	0.00e+00	5	28	0	640679936	50	6436
2026-01-29 14:09:06.65	56.58	45.73	-39.0	-40.0	22.6	0.00e+00	6	28	0	642777088	50	6431
2026-01-29 14:09:07.66	56.97	45.95	-39.2	-40.2	22.5	0.00e+00	89	28	0	644874240	50	6574
2026-01-29 14:09:08.67	57.37	46.17	-39.5	-40.6	22.1	0.00e+00	20	28	0	645922816	50	6872
2026-01-29 14:09:09.68	57.77	46.39	-40.0	-41.1	21.6	0.00e+00	92	28	0	648019968	52	6494
2026-01-29 14:09:10.69	58.18	46.61	-40.5	-41.7	21.1	0.00e+00	0	28	0	650117120	52	6960
2026-01-29 14:09:11.70	58.60	46.83	-40.9	-42.2	20.6	0.00e+00	92	28	0	652214272	54	6589
2026-01-29 14:09:12.71	59.02	47.04	-40.9	-42.2	20.5	0.00e+00	7	28	0	654311424	54	6586
2026-01-29 14:09:13.72	59.45	47.26	-40.8	-42.0	20.8	0.00e+00	6	28	0	656408576	54	6427
2026-01-29 14:09:14.73	59.88	47.48	-40.6	-41.8	20.8	0.00e+00	69	28	0	657457152	54	6300
2026-01-29 14:09:15.74	60.32	47.70	-40.9	-42.1	20.6	0.00e+00	72	28	0	659554304	54	6536
2026-01-29 14:09:16.74	60.76	47.91	-41.0	-42.3	20.3	0.00e+00	92	28	0	661651456	54	6650
2026-01-29 14:09:17.75	61.21	48.12	-41.1	-42.4	20.0	0.00e+00	0	28	0	663748608	54	6739
2026-01-29 14:09:18.76	61.67	48.34	-41.2	-42.6	20.2	0.00e+00	93	28	0	665845760	54	6853
2026-01-29 14:09:19.77	62.13	48.55	-41.1	-42.4	20.4	0.00e+00	71	28	0	666894336	54	6763
2026-01-29 14:09:20.78	62.60	48.77	-40.7	-42.0	20.7	0.00e+00	72	28	0	668991488	54	6426
2026-01-29 14:09:21.79	63.08	48.98	-40.6	-41.8	20.9	0.00e+00	22	28	0	671088640	54	6300
2026-01-29 14:09:22.80	63.56	49.19	-40.4	-41.6	21.2	0.00e+00	72	28	0	673185792	54	6127
2026-01-29 14:09:23.81	64.05	49.40	-40.3	-41.5	21.1	0.00e+00	92	28	0	675282944	54	6066
2026-01-29 14:09:24.82	64.55	49.60	-40.2	-41.3	21.3	0.00e+00	71	28	0	676331520	54	5941
2026-01-29 14:09:25.83	65.05	49.81	-40.1	-41.3	21.4	0.00e+00	90	28	0	678428672	54	5915
2026-01-29 14:09:26.84	65.56	50.02	-40.1	-41.2	21.4	0.00e+00	9	28	0	680525824	54	5885
2026-01-29 14:09:27.85	66.08	50.22	-40.1	-41.2	21.5	0.00e+00	0	28	0	682622976	54	5862
2026-01-29 14:09:28.85	66.60	50.42	-39.6	-40.6	22.1	0.00e+00	8	28	0	684720128	52	6154
2026-01-29 14:09:29.86	67.13	50.62	-39.1	-40.1	22.6	0.00e+00	9	28	0	685768704	52	5788
2026-01-29 14:09:30.87	67.67	50.82	-38.8	-39.8	22.7	0.00e+00	88	28	0	687865856	52	5614
2026-01-29 14:09:31.88	68.21	51.02	-38.8	-39.8	22.5	0.00e+00	2	28	0	689963008	50	6262
2026-01-29 14:09:32.89	68.77	51.21	-38.5	-39.5	23.0	0.00e+00	92	28	0	692060160	50	6051
2026-01-29 14:09:33.89	69.32	51.41	-38.6	-39.6	22.9	0.00e+00	0	28	0	694157312	50	6125
2026-01-29 14:09:34.90	69.89	51.60	-38.5	-39.4	23.3	0.00e+00	91	28	0	695205888	50	6008
2026-01-29 14:09:35.91	70.46	51.79	-38.0	-38.9	23.6	0.00e+00	0	28	0	697303040	50	5673
2026-01-29 14:09:36.92	71.04	51.97	-36.9	-37.7	24.6	0.00e+00	0	28	0	699400192	48	5561
2026-01-29 14:09:37.93	71.63	52.16	-36.6	-37.4	24.7	0.00e+00	0	28	0	701497344	46	5999
2026-01-29 14:09:38.93	72.22	52.34	-36.2	-37.0	24.8	0.00e+00	4	28	0	703594496	46	5738
2026-01-29 14:09:39.94	72.82	52.52	-36.4	-37.2	24.9	0.00e+00	92	28	0	704643072	46	5866
2026-01-29 14:09:40.95	73.43	52.70	-36.5	-37.3	24.9	0.00e+00	0	28	0	706740224	46	5935
2026-01-29 14:09:41.96	74.05	52.87	-36.6	-37.4	24.8	0.00e+00	90	28	0	708837376	46	6011
2026-01-29 14:09:42.96	74.67	53.04	-36.5	-37.3	24.9	0.00e+00	67	28	0	710934528	46	5909
2026-01-29 14:09:43.97	75.30	53.21	-36.6	-37.4	24.8	0.00e+00	67	28	0	713031680	46	6004
2026-01-29 14:09:44.98	75.94	53.38	-36.8	-37.7	24.5	0.00e+00	70	28	0	714080256	46	6188
2026-01-29 14:09:45.99	76.58	53.54	-36.7	-37.5	24.7	0.00e+00	10	28	0	716177408	46	6067
2026-01-29 14:09:47.00	77.24	53.70	-36.6	-37.4	24.7	0.00e+00	92	28	0	718274560	46	6022
2026-01-29 14:09:48.00	77.89	53.85	-36.2	-37.0	25.1	0.00e+00	71	28	0	720371712	46	5739
2026-01-29 14:09:49.01	78.56	54.01	-36.7	-37.5	24.7	0.00e+00	90	28	0	722468864	46	6102
2026-01-29 14:09:50.02	79.23	54.16	-36.8	-37.7	24.6	0.00e+00	0	28	0	724566016	46	6174
2026-01-29 14:09:51.03	79.92	54.30	-36.6	-37.4	24.4	0.00e+00	0	28	0	725614592	46	5974
2026-01-29 14:09:52.04	80.60	54.45	-36.3	-37.1	25.1	0.00e+00	11	28	0	727711744	46	5807
2026-01-29 14:09:53.05	81.30	54.58	-36.3	-37.1	25.1	0.00e+00	10	28	0	729808896	46	5796
2026-01-29 14:09:54.06	82.00	54.72	-36.3	-37.1	25.1	0.00e+00	89	28	0	731906048	46	5796
2026-01-29 14:09:55.07	82.71	54.85	-36.3	-37.1	25.1	0.00e+00	0	28	0	732954624	46	5799
2026-01-29 14:09:56.08	83.43	54.98	-36.8	-37.6	24.7	0.00e+00	92	28	0	735051776	46	6111
2026-01-29 14:09:57.08	84.14	55.10	-36.9	-37.7	24.5	0.00e+00	0	28	0	737148928	46	6235
2026-01-29 14:09:58.09	84.87	55.22	-37.0	-37.8	24.6	0.00e+00	39	28	0	739246080	46	6290
2026-01-29 14:09:59.10	85.60	55.33	-37.0	-37.8	24.5	0.00e+00	2	28	0	741343232	46	6313
2026-01-29 14:10:00.11	86.34	55.44	-37.6	-38.5	23.9	0.00e+00	0	28	0	742391808	46	6807
2026-01-29 14:10:01.12	87.09	55.55	-38.2	-39.1	23.4	0.00e+00	2	28	0	744488960	48	6470
2026-01-29 14:10:02.13	87.84	55.65	-37.8	-38.7	23.7	0.00e+00	0	28	0	746586112	48	6213
2026-01-29 14:10:03.14	88.59	55.75	-38.0	-38.9	23.5	0.00e+00	91	28	0	748683264	48	6343
2026-01-29 14:10:04.15	89.35	55.84	-38.0	-38.9	23.4	0.00e+00	0	28	0	750780416	48	6381
2026-01-29 14:10:05.15	90.11	55.93	-38.7	-39.7	22.7	0.00e+00	90	28	0	752877568	48	6989
2026-01-29 14:10:06.16	90.88	56.01	-39.1	-40.1	22.5	0.00e+00	0	28	0	753926144	50	6475
2026-01-29 14:10:07.17	91.66	56.09	-39.5	-40.6	21.9	0.00e+00	16	28	0	756023296	50	6908
2026-01-29 14:10:08.18	92.44	56.16	-39.9	-41.1	21.7	0.00e+00	13	28	0	758120448	52	6479
2026-01-29 14:10:09.19	93.22	56.23	-39.5	-40.6	22.0	0.00e+00	67	28	0	760217600	52	6127
2026-01-29 14:10:10.20	94.01	56.29	-39.4	-40.4	22.2	0.00e+00	68	28	0	762314752	52	6011
2026-01-29 14:10:11.21	94.80	56.35	-40.2	-41.3	21.3	0.00e+00	0	28	0	763363328	52	6666
2026-01-29 14:10:12.22	95.59	56.40	-41.2	-42.6	20.1	0.00e+00	92	28	0	765460480	54	6867
2026-01-29 14:10:13.23	96.38	56.45	-41.4	-42.8	20.0	0.00e+00	15	28	0	767557632	54	7057
2026-01-29 14:10:14.24	97.18	56.49	-40.8	-42.0	20.7	0.00e+00	92	28	0	769654784	54	6444
2026-01-29 14:10:15.25	97.98	56.53	-40.3	-41.5	21.3	0.00e+00	9	28	0	771751936	54	6072
2026-01-29 14:10:16.26	98.79	56.56	-39.6	-40.7	22.1	0.00e+00	6	28	0	772800512	54	5555
2026-01-29 14:10:17.27	99.59	56.58	-39.2	-40.2	22.5	0.00e+00	0	28	0	774897664	52	5842
2026-01-29 14:10:18.28	100.40	56.60	-39.1	-40.0	22.7	0.00e+00	0	28	0	776994816	52	5761
2026-01-29 14:10:19.29	101.21	56.62	-38.7	-39.7	22.8	0.00e+00	92	28	0	779091968	50	6182
2026-01-29 14:10:20.30	102.01	56.63	-38.4	-39.3	23.2	0.00e+00	0	28	0	781189120	50	5911
2026-01-29 14:10:21.30	102.81	56.63	-38.3	-39.2	23.3	0.00e+00	92	28	0	782237696	50	5850
2026-01-29 14:10:22.32	103.63	56.63	-38.8	-39.8	22.8	0.00e+00	0	28	0	784334848	50	6261
2026-01-29 14:10:23.32	104.43	56.63	-38.6	-39.6	23.0	0.00e+00	0	28	0	786432000	50	6144
2026-01-29 14:10:24.33	105.24	56.62	-38.6	-39.6	23.0	0.00e+00	0	28	0	788529152	50	6105
2026-01-29 14:10:25.34	106.04	56.60	-38.3	-39.2	23.0	0.00e+00	71	28	0	790626304	50	5861
2026-01-29 14:10:26.35	106.85	56.58	-39.1	-40.1	22.3	0.00e+00	92	28	0	791674880	50	6495
2026-01-29 14:10:27.36	107.65	56.55	-39.9	-41.0	21.7	0.00e+00	0	28	0	793772032	52	6438
2026-01-29 14:10:28.37	108.46	56.51	-38.7	-39.7	22.8	0.00e+00	92	28	0	795869184	52	5536
2026-01-29 14:10:29.38	109.26	56.48	-38.7	-39.6	22.9	0.00e+00	9	28	0	797966336	50	6154
2026-01-29 14:10:30.39	110.06	56.43	-38.8	-39.8	22.7	0.00e+00	11	28	0	800063488	50	6276
2026-01-29 14:10:31.40	110.85	56.38	-39.2	-40.2	22.3	0.00e+00	70	28	0	801112064	50	6575
2026-01-29 14:10:32.41	111.64	56.33	-39.2	-40.2	22.4	0.00e+00	72	28	0	803209216	50	6604
2026-01-29 14:10:33.42	112.43	56.27	-38.7	-39.7	22.9	0.00e+00	91	28	0	805306368	50	6188
2026-01-29 14:10:34.43	113.22	56.21	-39.1	-40.1	22.4	0.00e+00	6	28	0	807403520	50	6533
2026-01-29 14:10:35.43	113.99	56.14	-40.5	-41.7	20.9	0.00e+00	92	28	0	809500672	52	6982
2026-01-29 14:10:36.44	114.77	56.06	-40.9	-42.2	20.5	0.00e+00	5	28	0	810549248	54	6577
2026-01-29 14:10:37.45	115.55	55.98	-40.0	-41.1	21.5	0.00e+00	92	28	0	812646400	54	5795
2026-01-29 14:10:38.46	116.32	55.90	-39.7	-40.8	22.1	0.00e+00	17	28	0	814743552	52	6247
2026-01-29 14:10:39.47	117.08	55.81	-40.1	-41.2	21.2	0.00e+00	17	28	0	816840704	52	6605
2026-01-29 14:10:40.47	117.83	55.72	-41.2	-42.5	20.1	0.00e+00	6	28	0	818937856	54	6842
2026-01-29 14:10:41.48	118.59	55.62	-40.6	-41.8	21.2	0.00e+00	8	28	0	821035008	54	6293
2026-01-29 14:10:42.49	119.34	55.51	-39.1	-40.1	22.5	0.00e+00	92	28	0	822083584	52	5806
2026-01-29 14:10:43.50	120.08	55.41	-38.7	-39.7	22.8	0.00e+00	5	28	0	824180736	50	6199
2026-01-29 14:10:44.51	120.82	55.30	-38.8	-39.8	22.8	0.00e+00	92	28	0	826277888	50	6277
2026-01-29 14:10:45.52	121.55	55.18	-38.7	-39.7	22.9	0.00e+00	0	28	0	828375040	50	6182
2026-01-29 14:10:46.53	122.28	55.06	-38.5	-39.5	23.1	0.00e+00	0	28	0	830472192	50	6048
2026-01-29 14:10:47.54	123.00	54.93	-38.1	-39.0	23.5	0.00e+00	0	28	0	831520768	50	5718
2026-01-29 14:10:48.55	123.71	54.80	-37.7	-38.5	23.9	0.00e+00	70	28	0	833617920	48	6081
2026-01-29 14:10:49.56	124.42	54.67	-36.8	-37.6	24.7	0.00e+00	90	28	0	835715072	48	5487
2026-01-29 14:10:50.57	125.12	54.54	-36.5	-37.3	24.9	0.00e+00	0	28	0	837812224	46	5937
2026-01-29 14:10:51.58	125.81	54.39	-36.1	-36.9	25.4	0.00e+00	92	28	0	839909376	46	5642
2026-01-29 14:10:52.59	126.50	54.25	-35.0	-35.7	26.2	0.00e+00	70	28	0	840957952	44	5558
2026-01-29 14:10:53.60	127.18	54.10	-34.7	-35.4	26.4	0.00e+00	82	28	0	843055104	42	5984
2026-01-29 14:10:54.60	127.85	53.95	-34.4	-35.1	26.7	0.00e+00	71	28	0	845152256	42	5787
2026-01-29 14:10:55.61	128.51	53.80	-34.9	-35.6	26.3	0.00e+00	16	28	0	847249408	42	6131
2026-01-29 14:10:56.62	129.17	53.64	-34.4	-35.1	26.6	0.00e+00	0	28	0	849346560	42	5820
2026-01-29 14:10:57.63	129.83	53.48	-34.2	-34.9	27.0	0.00e+00	8	28	0	850395136	42	5653
2026-01-29 14:10:58.64	130.47	53.31	-33.9	-34.6	27.0	0.00e+00	92	28	0	852492288	42	5471
2026-01-29 14:10:59.65	131.11	53.15	-34.1	-34.8	26.8	0.00e+00	7	28	0	854589440	42	5610
2026-01-29 14:11:00.66	131.74	52.98	-34.4	-35.2	26.7	0.00e+00	67	28	0	856686592	42	5832
2026-01-29 14:11:01.67	132.36	52.80	-34.6	-35.4	26.6	0.00e+00	16	28	0	858783744	42	5972
2026-01-29 14:11:02.67	132.97	52.63	-34.6	-35.3	26.6	0.00e+00	8	28	0	859832320	42	5908
2026-01-29 14:11:03.68	133.58	52.45	-34.4	-35.0	26.8	0.00e+00	8	28	0	861929472	42	5761
2026-01-29 14:11:04.69	134.18	52.27	-34.5	-35.2	26.7	0.00e+00	6	28	0	864026624	42	5853
2026-01-29 14:11:05.70	134.78	52.09	-35.6	-36.3	25.7	0.00e+00	92	28	0	866123776	42	6670
2026-01-29 14:11:06.71	135.36	51.90	-36.9	-37.7	24.6	0.00e+00	0	28	0	868220928	46	6235
2026-01-29 14:11:07.71	135.94	51.71	-37.1	-37.9	24.5	0.00e+00	92	28	0	869269504	46	6363
2026-01-29 14:11:08.72	136.51	51.52	-36.9	-37.7	24.6	0.00e+00	0	28	0	871366656	46	6197
2026-01-29 14:11:09.73	137.07	51.33	-36.9	-37.7	24.5	0.00e+00	0	28	0	873463808	46	6201
2026-01-29 14:11:10.74	137.63	51.13	-38.9	-39.9	22.6	0.00e+00	0	28	0	875560960	48	7104
2026-01-29 14:11:11.75	138.18	50.94	-40.6	-41.9	20.9	0.00e+00	0	28	0	877658112	52	7096
2026-01-29 14:11:12.76	138.72	50.74	-40.6	-41.9	21.0	0.00e+00	92	28	0	878706688	54	6361
2026-01-29 14:11:13.76	139.26	50.54	-39.7	-40.8	21.8	0.00e+00	65	28	0	880803840	54	5609
2026-01-29 14:11:14.77	139.79	50.34	-39.1	-40.1	22.5	0.00e+00	92	28	0	882900992	52	5823
2026-01-29 14:11:15.78	140.31	50.14	-40.0	-41.2	21.5	0.00e+00	71	28	0	884998144	52	6559
2026-01-29 14:11:16.79	140.82	49.93	-42.5	-44.2	18.7	0.00e+00	13	28	0	887095296	56	7410
2026-01-29 14:11:17.79	141.33	49.73	-43.5	-45.5	17.7	0.00e+00	11	28	0	888143872	58	7663
2026-01-29 14:11:18.80	141.83	49.52	-41.2	-42.6	20.8	0.00e+00	71	28	0	890241024	56	6116
2026-01-29 14:11:19.81	142.32	49.31	-40.1	-41.2	21.5	0.00e+00	45	28	0	892338176	54	5852
2026-01-29 14:11:20.82	142.81	49.10	-40.0	-41.1	21.6	0.00e+00	9	28	0	894435328	54	5807
2026-01-29 14:11:21.83	143.29	48.89	-40.7	-42.0	20.8	0.00e+00	92	28	0	896532480	54	6404
2026-01-29 14:11:22.83	143.77	48.68	-41.5	-42.9	20.1	0.00e+00	2	28	0	897581056	54	7099
2026-01-29 14:11:23.84	144.23	48.46	-41.3	-42.6	20.2	0.00e+00	90	28	0	899678208	54	6894
2026-01-29 14:11:24.85	144.70	48.25	-40.3	-41.5	21.2	0.00e+00	2	28	0	901775360	54	6100
2026-01-29 14:11:25.86	145.15	48.03	-40.1	-41.2	21.6	0.00e+00	0	28	0	903872512	54	5880
2026-01-29 14:11:26.87	145.60	47.82	-39.9	-40.9	21.8	0.00e+00	0	28	0	905969664	54	5682
2026-01-29 14:11:27.88	146.05	47.60	-40.5	-41.6	21.2	0.00e+00	2	28	0	907018240	54	6144
2026-01-29 14:11:28.88	146.48	47.38	-42.3	-43.9	19.0	0.00e+00	92	28	0	909115392	56	7117
2026-01-29 14:11:29.89	146.91	47.16	-42.5	-44.2	18.8	0.00e+00	0	28	0	911212544	58	6576
2026-01-29 14:11:30.90	147.34	46.95	-40.8	-42.1	21.0	0.00e+00	91	28	0	913309696	56	5768
2026-01-29 14:11:31.91	147.76	46.73	-39.3	-40.3	22.4	0.00e+00	2	28	0	915406848	52	5935
2026-01-29 14:11:32.91	148.17	46.51	-39.3	-40.3	22.5	0.00e+00	0	28	0	916455424	52	5927
2026-01-29 14:11:33.92	148.58	46.29	-40.0	-41.2	21.6	0.00e+00	0	28	0	918552576	52	6551
2026-01-29 14:11:34.93	148.98	46.07	-40.8	-42.1	20.6	0.00e+00	72	28	0	920649728	54	6498
2026-01-29 14:11:35.94	149.38	45.85	-41.0	-42.3	20.5	0.00e+00	23	28	0	922746880	54	6678
2026-01-29 14:11:36.95	149.77	45.63	-40.8	-42.0	21.0	0.00e+00	0	28	0	924844032	54	6443
2026-01-29 14:11:37.96	150.16	45.40	-39.4	-40.5	22.4	0.00e+00	95	28	0	925892608	52	6066
2026-01-29 14:11:38.97	150.54	45.18	-39.0	-40.0	22.9	0.00e+00	4	28	0	927989760	52	5724
2026-01-29 14:11:39.98	150.92	44.96	-39.1	-40.1	22.7	0.00e+00	87	28	0	930086912	52	5780
2026-01-29 14:11:40.99	151.29	44.74	-40.1	-41.2	21.7	0.00e+00	66	28	0	932184064	52	6544
2026-01-29 14:11:42.00	151.65	44.52	-40.7	-41.9	21.0	0.00e+00	15	28	0	934281216	52	7126
2026-01-29 14:11:43.01	152.01	44.29	-40.3	-41.5	21.3	0.00e+00	56	28	0	935329792	54	6055
2026-01-29 14:11:44.02	152.37	44.07	-39.6	-40.7	22.1	0.00e+00	66	28	0	937426944	52	6177
2026-01-29 14:11:45.03	152.72	43.85	-39.5	-40.6	22.2	0.00e+00	91	28	0	939524096	52	6104
2026-01-29 14:11:46.04	153.07	43.63	-40.0	-41.2	21.6	0.00e+00	11	28	0	941621248	52	6552
2026-01-29 14:11:47.05	153.41	43.41	-40.2	-41.4	21.5	0.00e+00	90	28	0	943718400	52	6713
2026-01-29 14:11:48.05	153.74	43.19	-39.9	-40.9	21.8	0.00e+00	13	28	0	945815552	52	6374
2026-01-29 14:11:49.06	154.08	42.97	-39.2	-40.2	22.5	0.00e+00	2	28	0	946864128	52	5861
2026-01-29 14:11:50.07	154.40	42.75	-40.1	-41.2	21.7	0.00e+00	0	28	0	948961280	52	6546
2026-01-29 14:11:51.08	154.73	42.53	-41.5	-42.8	19.8	0.00e+00	2	28	0	951058432	54	7073
2026-01-29 14:11:52.09	155.05	42.31	-42.3	-43.9	19.2	0.00e+00	89	28	0	953155584	56	7117
2026-01-29 14:11:53.10	155.36	42.09	-40.4	-41.6	21.4	0.00e+00	0	28	0	955252736	54	6110
2026-01-29 14:11:54.11	155.67	41.87	-39.0	-40.0	22.8	0.00e+00	91	28	0	956301312	52	5713
2026-01-29 14:11:55.12	155.98	41.65	-38.4	-39.3	23.3	0.00e+00	0	28	0	958398464	50	5921
2026-01-29 14:11:56.13	156.28	41.43	-38.4	-39.3	23.3	0.00e+00	70	28	0	960495616	50	5943
2026-01-29 14:11:57.14	156.58	41.21	-39.5	-40.5	22.2	0.00e+00	0	28	0	962592768	50	6810
2026-01-29 14:11:58.15	156.88	40.99	-40.3	-41.5	21.1	0.00e+00	0	28	0	964689920	52	6811
2026-01-29 14:11:59.16	157.17	40.78	-41.1	-42.4	20.4	0.00e+00	70	28	0	965738496	54	6707
2026-01-29 14:12:00.17	157.45	40.56	-40.9	-42.2	20.6	0.00e+00	69	28	0	967835648	54	6605
2026-01-29 14:12:01.18	157.74	40.34	-40.2	-41.4	21.4	0.00e+00	92	28	0	969932800	54	6002
2026-01-29 14:12:02.18	158.01	40.13	-39.8	-40.9	21.9	0.00e+00	0	28	0	972029952	54	5657
2026-01-29 14:12:03.19	158.29	39.91	-39.6	-40.6	22.0	0.00e+00	0	28	0	974127104	54	5502
2026-01-29 14:12:04.20	158.56	39.70	-38.8	-39.8	22.7	0.00e+00	70	28	0	975175680	50	6273
2026-01-29 14:12:05.21	158.83	39.49	-39.9	-41.1	21.7	0.00e+00	11	28	0	977272832	52	6470
2026-01-29 14:12:06.22	159.10	39.27	-41.4	-42.8	20.0	0.00e+00	67	28	0	979369984	54	7086
2026-01-29 14:12:07.23	159.36	39.06	-41.8	-43.3	19.6	0.00e+00	0	28	0	981467136	56	6691
2026-01-29 14:12:08.24	159.62	38.85	-39.9	-41.0	21.9	0.00e+00	90	28	0	983564288	54	5741
2026-01-29 14:12:09.24	159.87	38.64	-38.3	-39.2	23.4	0.00e+00	2	28	0	984612864	50	5852
2026-01-29 14:12:10.25	160.12	38.43	-37.8	-38.7	23.9	0.00e+00	92	28	0	986710016	50	5520
2026-01-29 14:12:11.26	160.37	38.22	-37.4	-38.3	24.0	0.00e+00	0	28	0	988807168	48	5916
2026-01-29 14:12:12.27	160.62	38.01	-38.5	-39.5	22.6	0.00e+00	18	28	0	990904320	48	6804
2026-01-29 14:12:13.28	160.86	37.80	-40.3	-41.5	21.0	0.00e+00	0	28	0	993001472	52	6840
2026-01-29 14:12:14.29	161.10	37.59	-41.1	-42.5	20.2	0.00e+00	2	28	0	994050048	54	6785
2026-01-29 14:12:15.29	161.34	37.39	-40.2	-41.4	21.4	0.00e+00	89	28	0	996147200	54	5975
2026-01-29 14:12:16.30	161.57	37.18	-39.0	-40.0	22.5	0.00e+00	0	28	0	998244352	52	5746
2026-01-29 14:12:17.31	161.80	36.98	-38.4	-39.3	23.5	0.00e+00	92	28	0	1000341504	50	5948
2026-01-29 14:12:18.32	162.03	36.77	-37.4	-38.2	24.1	0.00e+00	0	28	0	1002438656	48	5864
2026-01-29 14:12:19.33	162.26	36.57	-37.2	-38.0	24.3	0.00e+00	0	28	0	1003487232	48	5748
2026-01-29 14:12:20.34	162.48	36.37	-37.1	-37.9	24.4	0.00e+00	68	28	0	1005584384	48	5665
2026-01-29 14:12:21.35	162.70	36.16	-37.4	-38.2	24.1	0.00e+00	68	28	0	1007681536	48	5857
2026-01-29 14:12:22.36	162.92	35.96	-37.7	-38.6	23.9	0.00e+00	0	28	0	1009778688	48	6116
2026-01-29 14:12:23.37	163.13	35.76	-38.0	-38.9	23.6	0.00e+00	67	28	0	1011875840	48	6368
2026-01-29 14:12:24.38	163.35	35.56	-38.2	-39.2	23.4	0.00e+00	91	28	0	1013972992	48	6546
2026-01-29 14:12:25.39	163.56	35.36	-38.4	-39.3	23.2	0.00e+00	16	28	0	1015021568	48	6665
2026-01-29 14:12:26.40	163.76	35.16	-38.4	-39.3	23.2	0.00e+00	90	28	0	1017118720	48	6650
2026-01-29 14:12:27.41	163.97	34.97	-38.1	-39.0	23.4	0.00e+00	0	28	0	1019215872	48	6449
2026-01-29 14:12:28.42	164.17	34.77	-37.8	-38.7	23.7	0.00e+00	67	28	0	1021313024	48	6206
2026-01-29 14:12:29.43	164.37	34.57	-37.8	-38.6	23.9	0.00e+00	25	28	0	1023410176	48	6153
2026-01-29 14:12:30.44	164.57	34.38	-37.4	-38.2	24.2	0.00e+00	6	28	0	1024458752	48	5895
2026-01-29 14:12:31.45	164.76	34.19	-37.7	-38.6	23.8	0.00e+00	90	28	0	1026555904	48	6107
2026-01-29 14:12:32.45	164.96	33.99	-38.1	-39.0	23.5	0.00e+00	13	28	0	1028653056	48	6411
2026-01-29 14:12:33.46	165.15	33.80	-38.6	-39.5	22.9	0.00e+00	90	28	0	1030750208	48	6809
2026-01-29 14:12:34.47	165.34	33.61	-39.3	-40.3	22.3	0.00e+00	6	28	0	1031798784	50	6654
2026-01-29 14:12:35.48	165.52	33.42	-39.7	-40.7	21.9	0.00e+00	0	28	0	1033895936	50	6988
2026-01-29 14:12:36.49	165.71	33.23	-40.0	-41.1	21.6	0.00e+00	7	28	0	1035993088	52	6491
2026-01-29 14:12:37.50	165.89	33.04	-39.9	-41.0	21.7	0.00e+00	0	28	0	1038090240	52	6435
2026-01-29 14:12:38.50	166.07	32.86	-39.9	-41.0	21.7	0.00e+00	79	28	0	1040187392	52	6406
2026-01-29 14:12:39.51	166.25	32.67	-39.4	-40.4	22.2	0.00e+00	0	28	0	1042284544	52	6016
2026-01-29 14:12:40.52	166.42	32.48	-39.4	-40.4	22.3	0.00e+00	92	28	0	1043333120	52	6012
2026-01-29 14:12:41.53	166.60	32.30	-38.7	-39.7	22.8	0.00e+00	5	28	0	1045430272	52	5551
2026-01-29 14:12:42.54	166.77	32.11	-38.6	-39.6	23.0	0.00e+00	0	28	0	1047527424	50	6127
2026-01-29 14:12:43.55	166.94	31.93	-39.0	-39.9	22.6	0.00e+00	0	28	0	1049624576	50	6383
2026-01-29 14:12:44.56	167.11	31.75	-38.9	-39.9	22.6	0.00e+00	65	28	0	1051721728	50	6351
2026-01-29 14:12:45.56	167.28	31.57	-39.3	-40.3	22.3	0.00e+00	67	28	0	1052770304	50	6656
2026-01-29 14:12:46.57	167.44	31.38	-39.6	-40.7	21.9	0.00e+00	66	28	0	1054867456	50	6950
2026-01-29 14:12:47.58	167.60	31.20	-39.8	-40.9	21.7	0.00e+00	91	28	0	1056964608	52	6347
2026-01-29 14:12:48.59	167.77	31.03	-39.9	-41.0	21.7	0.00e+00	18	28	0	1059061760	52	6409
2026-01-29 14:12:49.60	167.93	30.85	-40.0	-41.1	21.4	0.00e+00	90	28	0	1061158912	52	6515
2026-01-29 14:12:50.61	168.08	30.67	-40.2	-41.4	21.4	0.00e+00	18	28	0	1062207488	52	6724
2026-01-29 14:12:51.62	168.24	30.49	-39.9	-41.1	21.6	0.00e+00	64	28	0	1064304640	52	6466
2026-01-29 14:12:52.62	168.39	30.32	-40.1	-41.2	21.5	0.00e+00	62	28	0	1066401792	52	6560
2026-01-29 14:12:53.63	168.55	30.14	-39.8	-40.9	21.8	0.00e+00	6	28	0	1068498944	52	6342
2026-01-29 14:12:54.64	168.70	29.97	-39.8	-40.8	21.8	0.00e+00	91	28	0	1070596096	52	6307
2026-01-29 14:12:55.65	168.85	29.80	-40.0	-41.1	21.5	0.00e+00	19	28	0	1071644672	52	6485
2026-01-29 14:12:56.66	169.00	29.62	-39.8	-40.9	21.7	0.00e+00	92	28	0	1073741824	52	6361
2026-01-29 14:12:57.67	169.15	29.45	-39.9	-41.0	21.6	0.00e+00	8	28	0	1075838976	52	6418
2026-01-29 14:12:58.68	169.29	29.28	-39.9	-41.1	21.6	0.00e+00	7	28	0	1077936128	52	6475
2026-01-29 14:12:59.69	169.44	29.11	-39.6	-40.7	22.0	0.00e+00	6	28	0	1080033280	52	6180
2026-01-29 14:13:00.70	169.58	28.94	-39.3	-40.3	22.2	0.00e+00	0	28	0	1081081856	52	5924
2026-01-29 14:13:01.71	169.72	28.77	-39.0	-40.0	22.5	0.00e+00	90	28	0	1083179008	52	5748
2026-01-29 14:13:02.72	169.86	28.61	-38.8	-39.8	22.7	0.00e+00	8	28	0	1085276160	52	5617
2026-01-29 14:13:03.73	170.00	28.44	-38.8	-39.8	22.7	0.00e+00	89	28	0	1087373312	50	6256
2026-01-29 14:13:04.73	170.13	28.27	-38.8	-39.8	22.7	0.00e+00	67	28	0	1089470464	50	6268
2026-01-29 14:13:05.74	170.27	28.11	-38.9	-39.9	22.6	0.00e+00	67	28	0	1090519040	50	6325
2026-01-29 14:13:06.75	170.40	27.95	-39.1	-40.1	22.4	0.00e+00	0	28	0	1092616192	50	6504
2026-01-29 14:13:07.76	170.54	27.78	-39.3	-40.4	22.2	0.00e+00	61	28	0	1094713344	50	6696
2026-01-29 14:13:08.77	170.67	27.62	-39.6	-40.6	22.0	0.00e+00	0	28	0	1096810496	50	6926
2026-01-29 14:13:09.78	170.80	27.46	-39.9	-41.0	21.6	0.00e+00	18	28	0	1098907648	52	6432
2026-01-29 14:13:10.79	170.93	27.30	-39.9	-41.0	21.6	0.00e+00	92	28	0	1099956224	52	6412
2026-01-29 14:13:11.80	171.06	27.14	-39.9	-41.0	21.5	0.00e+00	21	28	0	1102053376	52	6456
2026-01-29 14:13:12.81	171.18	26.98	-39.7	-40.8	21.9	0.00e+00	92	28	0	1104150528	52	6262
2026-01-29 14:13:13.82	171.31	26.82	-39.3	-40.4	22.1	0.00e+00	21	28	0	1106247680	52	6004
2026-01-29 14:13:14.83	171.43	26.66	-39.4	-40.4	22.1	0.00e+00	0	28	0	1108344832	52	6016
2026-01-29 14:13:15.84	171.55	26.50	-39.3	-40.3	22.2	0.00e+00	15	28	0	1110441984	52	5919
2026-01-29 14:13:16.85	171.68	26.35	-39.5	-40.5	22.0	0.00e+00	0	28	0	1111490560	52	6083
2026-01-29 14:13:17.86	171.80	26.19	-39.1	-40.1	22.4	0.00e+00	91	28	0	1113587712	52	5825
2026-01-29 14:13:18.87	171.92	26.04	-38.7	-39.6	22.9	0.00e+00	16	28	0	1115684864	50	6165
2026-01-29 14:13:19.88	172.04	25.88	-38.6	-39.6	22.9	0.00e+00	92	28	0	1117782016	50	6130
2026-01-29 14:13:20.89	172.15	25.73	-38.8	-39.8	22.7	0.00e+00	2	28	0	1119879168	50	6257
2026-01-29 14:13:21.90	172.27	25.58	-39.0	-40.0	22.5	0.00e+00	0	28	0	1120927744	50	6438
2026-01-29 14:13:22.91	172.38	25.42	-39.0	-40.1	22.5	0.00e+00	2	28	0	1123024896	50	6471
2026-01-29 14:13:23.91	172.50	25.28	-39.0	-40.1	22.5	0.00e+00	0	28	0	1125122048	50	6478
2026-01-29 14:13:24.92	172.61	25.12	-39.0	-40.0	22.4	0.00e+00	0	28	0	1127219200	50	6439
2026-01-29 14:13:25.93	172.72	24.98	-39.0	-40.0	22.4	0.00e+00	67	28	0	1129316352	50	6435
2026-01-29 14:13:26.94	172.83	24.83	-38.8	-39.8	22.7	0.00e+00	90	28	0	1130364928	50	6263
2026-01-29 14:13:27.95	172.94	24.68	-38.6	-39.6	22.9	0.00e+00	0	28	0	1132462080	50	6123
2026-01-29 14:13:28.96	173.05	24.53	-38.5	-39.5	22.9	0.00e+00	90	28	0	1134559232	50	6087
2026-01-29 14:13:29.97	173.16	24.38	-38.2	-39.2	23.3	0.00e+00	66	28	0	1136656384	50	5835
2026-01-29 14:13:30.97	173.27	24.24	-38.0	-38.9	23.5	0.00e+00	5	28	0	1138753536	50	5662
2026-01-29 14:13:31.98	173.37	24.09	-38.0	-38.9	23.5	0.00e+00	0	28	0	1139802112	50	5667
2026-01-29 14:13:32.99	173.48	23.95	-37.8	-38.7	23.7	0.00e+00	15	28	0	1141899264	50	5531
2026-01-29 14:13:34.00	173.58	23.81	-37.7	-38.6	23.7	0.00e+00	92	28	0	1143996416	48	6149
2026-01-29 14:13:35.01	173.69	23.66	-37.5	-38.4	23.9	0.00e+00	16	28	0	1146093568	48	5985
2026-01-29 14:13:36.02	173.79	23.52	-37.6	-38.5	23.8	0.00e+00	91	28	0	1148190720	48	6071
2026-01-29 14:13:37.03	173.89	23.38	-37.4	-38.2	24.1	0.00e+00	23	28	0	1149239296	48	5868
2026-01-29 14:13:38.04	173.99	23.24	-37.2	-38.0	24.2	0.00e+00	21	28	0	1151336448	48	5743
2026-01-29 14:13:39.05	174.09	23.10	-37.2	-38.1	24.2	0.00e+00	0	28	0	1153433600	48	5765
2026-01-29 14:13:40.06	174.19	22.96	-37.1	-38.0	24.3	0.00e+00	21	28	0	1155530752	48	5697
2026-01-29 14:13:41.07	174.29	22.82	-37.2	-38.1	24.1	0.00e+00	89	28	0	1157627904	48	5782
2026-01-29 14:13:42.08	174.39	22.68	-37.3	-38.1	24.1	0.00e+00	0	28	0	1158676480	48	5828
2026-01-29 14:13:43.09	174.48	22.54	-37.3	-38.2	24.0	0.00e+00	92	28	0	1160773632	48	5867
2026-01-29 14:13:44.09	174.58	22.41	-37.4	-38.3	24.0	0.00e+00	0	28	0	1162870784	48	5907
2026-01-29 14:13:45.10	174.67	22.27	-37.5	-38.4	23.9	0.00e+00	32	28	0	1164967936	48	6006
2026-01-29 14:13:46.11	174.77	22.14	-37.6	-38.5	23.8	0.00e+00	0	28	0	1167065088	48	6047
2026-01-29 14:13:47.12	174.86	22.00	-37.6	-38.5	23.8	0.00e+00	0	28	0	1168113664	48	6098
2026-01-29 14:13:48.13	174.95	21.87	-37.7	-38.6	23.7	0.00e+00	17	28	0	1170210816	48	6151
2026-01-29 14:13:49.14	175.05	21.73	-37.7	-38.7	23.6	0.00e+00	66	28	0	1172307968	48	6184
2026-01-29 14:13:50.15	175.14	21.60	-37.8	-38.7	23.6	0.00e+00	92	28	0	1174405120	48	6199
2026-01-29 14:13:51.16	175.23	21.47	-37.7	-38.6	23.7	0.00e+00	0	28	0	1176502272	48	6142
2026-01-29 14:13:52.17	175.32	21.33	-37.5	-38.3	23.8	0.00e+00	92	28	0	1177550848	48	5960
2026-01-29 14:13:53.18	175.41	21.20	-37.2	-38.1	24.1	0.00e+00	66	28	0	1179648000	48	5797
2026-01-29 14:13:54.19	175.49	21.07	-37.1	-37.9	24.3	0.00e+00	2	28	0	1181745152	48	5661
2026-01-29 14:13:55.20	175.58	20.94	-37.1	-37.9	24.2	0.00e+00	0	28	0	1183842304	48	5689
2026-01-29 14:13:56.21	175.67	20.81	-36.8	-37.6	24.5	0.00e+00	17	28	0	1185939456	48	5469
2026-01-29 14:13:57.22	175.75	20.68	-36.6	-37.4	24.7	0.00e+00	92	28	0	1186988032	46	6023
2026-01-29 14:13:58.23	175.84	20.56	-36.5	-37.3	24.8	0.00e+00	16	28	0	1189085184	46	5940
2026-01-29 14:13:59.24	175.92	20.43	-36.3	-37.0	24.9	0.00e+00	92	28	0	1191182336	46	5748
2026-01-29 14:14:00.25	176.01	20.30	-36.2	-37.0	25.1	0.00e+00	0	28	0	1193279488	46	5723
2026-01-29 14:14:01.26	176.09	20.18	-36.2	-37.0	25.1	0.00e+00	54	28	0	1195376640	46	5717
2026-01-29 14:14:02.27	176.17	20.05	-36.0	-36.7	25.2	0.00e+00	0	28	0	1196425216	46	5559
2026-01-29 14:14:03.28	176.26	19.92	-36.0	-36.8	25.3	0.00e+00	0	28	0	1198522368	46	5571
2026-01-29 14:14:04.29	176.34	19.80	-36.0	-36.7	25.3	0.00e+00	91	28	0	1200619520	46	5558
2026-01-29 14:14:05.29	176.42	19.68	-36.0	-36.8	25.1	0.00e+00	0	28	0	1202716672	46	5612
2026-01-29 14:14:06.30	176.50	19.55	-36.1	-36.9	25.1	0.00e+00	92	28	0	1204813824	46	5683
2026-01-29 14:14:07.31	176.58	19.43	-36.3	-37.1	25.0	0.00e+00	0	28	0	1205862400	46	5769
2026-01-29 14:14:08.32	176.66	19.31	-36.3	-37.1	25.0	0.00e+00	9	28	0	1207959552	46	5792
2026-01-29 14:14:09.33	176.74	19.19	-36.4	-37.2	24.8	0.00e+00	0	28	0	1210056704	46	5860
2026-01-29 14:14:10.34	176.81	19.06	-36.3	-37.1	24.9	0.00e+00	0	28	0	1212153856	46	5814
2026-01-29 14:14:11.35	176.89	18.94	-36.4	-37.2	24.7	0.00e+00	0	28	0	1214251008	46	5886
2026-01-29 14:14:12.36	176.97	18.82	-36.4	-37.3	24.8	0.00e+00	0	28	0	1216348160	46	5900
2026-01-29 14:14:13.37	177.04	18.70	-36.6	-37.4	24.6	0.00e+00	92	28	0	1217396736	46	6017
