passes_logs/2026/01/29/R4.6S_Anadyr/R4.6S_Anadyr__20260129_095711_KOSAR1-5_rec.log

#Pass ID: 20260129_095711_KOSAR1-5
#Satellite: KOSAR1-5
#Configuration: KOSAR1-5
#almurnet v.1.7.20251203
#Start time: 2026-01-29 09:57:17

#Version: 2.2.20231116
#Station: R4.6S_Anadyr
#Location: 177.4865 lon 64.73178 lat
#TLE: 1 67264U 25313S   26027.89307552  .00010412  00000+0  48021-3 0  9990
#TLE: 2 67264  97.4176 104.8503 0016482 138.1720 222.0778 15.20312014  4613

#Time	Az	El	Level	Level2	SNR	BER	BlckErr	Temp	State	Recorded	gain1	gain2
2026-01-29 09:57:17.26	172.22	0.34	-48.9	-50.4	5.7	0.00e+00	0	27	0	0	60	40731
2026-01-29 09:57:18.24	172.25	0.40	-45.4	-60.1	3.6	1.51e+00	0	29	104	0	60	41256
2026-01-29 09:57:19.22	172.27	0.46	-45.5	-60.2	3.6	1.51e+00	0	29	104	0	60	41585
2026-01-29 09:57:20.19	172.30	0.53	-45.3	-60.2	3.6	1.51e+00	0	29	104	0	60	41594
2026-01-29 09:57:21.17	172.32	0.59	-45.0	-60.2	3.6	1.51e+00	0	29	104	0	60	41528
2026-01-29 09:57:22.15	172.35	0.65	-45.0	-60.2	3.6	1.51e+00	0	29	104	0	60	41466
2026-01-29 09:57:23.13	172.37	0.72	-45.4	-60.2	3.6	1.51e+00	0	29	104	0	60	41592
2026-01-29 09:57:24.10	172.40	0.78	-45.4	-60.2	3.6	1.51e+00	0	29	104	0	60	41423
2026-01-29 09:57:25.08	172.42	0.85	-45.4	-60.2	3.6	1.51e+00	0	29	104	0	60	41342
2026-01-29 09:57:26.06	172.45	0.91	-45.5	-60.1	3.6	1.51e+00	0	29	104	0	60	41206
2026-01-29 09:57:27.04	172.47	0.97	-45.5	-60.2	3.6	1.51e+00	0	29	104	0	60	41520
2026-01-29 09:57:28.02	172.50	1.04	-45.5	-60.2	3.6	1.51e+00	0	29	104	0	60	41350
2026-01-29 09:57:28.99	172.52	1.10	-45.5	-60.2	3.6	1.51e+00	0	29	104	0	60	41336
2026-01-29 09:57:29.97	172.55	1.17	-45.4	-60.1	3.6	1.51e+00	0	29	104	0	60	41262
2026-01-29 09:57:30.94	172.57	1.23	-45.4	-60.1	3.6	1.51e+00	0	29	104	0	60	41199
2026-01-29 09:57:31.92	172.60	1.30	-45.1	-60.1	3.6	1.51e+00	0	29	104	0	60	40916
2026-01-29 09:57:32.90	172.63	1.37	-45.3	-60.1	3.6	1.51e+00	0	29	104	0	60	40899
2026-01-29 09:57:33.87	172.65	1.43	-45.0	-60.0	3.6	1.51e+00	0	29	104	0	60	40574
2026-01-29 09:57:34.85	172.68	1.50	-45.1	-59.9	3.5	1.51e+00	0	29	104	0	60	40065
2026-01-29 09:57:35.82	172.71	1.56	-44.9	-59.8	3.5	1.51e+00	0	29	104	0	60	39638
2026-01-29 09:57:36.80	172.73	1.63	-44.8	-59.6	3.6	1.51e+00	0	29	104	0	60	38848
2026-01-29 09:57:37.77	172.76	1.69	-44.3	-59.4	3.6	1.51e+00	0	29	104	0	60	37960
2026-01-29 09:57:38.75	172.79	1.76	-44.2	-59.0	3.6	1.51e+00	0	29	104	0	60	35982
2026-01-29 09:57:39.73	172.81	1.83	-44.1	-58.9	3.5	1.51e+00	0	29	104	0	60	35645
2026-01-29 09:57:40.71	172.84	1.90	-44.1	-58.8	3.6	1.51e+00	0	29	104	0	60	35352
2026-01-29 09:57:41.69	172.87	1.96	-44.1	-58.9	3.5	1.51e+00	0	29	104	0	60	35581
2026-01-29 09:57:42.66	172.89	2.03	-44.1	-58.8	3.6	1.51e+00	0	29	104	0	60	35403
2026-01-29 09:57:43.64	172.92	2.10	-44.1	-58.9	3.6	1.51e+00	0	29	104	0	60	35546
2026-01-29 09:57:44.61	172.95	2.17	-44.1	-58.8	3.6	1.51e+00	0	29	104	0	60	35299
2026-01-29 09:57:45.59	172.98	2.23	-44.1	-58.8	3.6	1.51e+00	0	29	104	0	60	35401
2026-01-29 09:57:46.57	173.01	2.30	-44.1	-58.8	3.6	1.51e+00	0	29	104	0	60	35384
2026-01-29 09:57:47.54	173.03	2.37	-44.1	-58.8	3.6	1.51e+00	0	29	104	0	60	35285
2026-01-29 09:57:48.52	173.06	2.44	-44.0	-58.9	3.6	1.51e+00	0	29	104	0	60	35536
2026-01-29 09:57:49.50	173.09	2.51	-44.0	-58.8	3.5	1.51e+00	0	29	104	0	60	35425
2026-01-29 09:57:50.48	173.12	2.58	-44.1	-58.8	3.6	1.51e+00	0	29	104	0	60	35356
2026-01-29 09:57:51.47	173.15	2.65	-44.1	-58.8	3.6	1.51e+00	0	29	104	0	60	35445
2026-01-29 09:57:52.44	173.18	2.72	-44.0	-58.8	3.6	1.51e+00	0	29	104	0	60	35360
2026-01-29 09:57:53.42	173.21	2.79	-44.0	-58.8	3.6	1.51e+00	0	29	104	0	60	35394
2026-01-29 09:57:54.40	173.24	2.86	-44.0	-58.8	3.6	1.51e+00	0	29	104	0	60	35298
2026-01-29 09:57:55.38	173.27	2.93	-44.0	-58.9	3.6	1.51e+00	0	29	104	0	60	35528
2026-01-29 09:57:56.36	173.30	3.00	-44.0	-58.8	3.6	1.51e+00	0	29	104	0	60	35384
2026-01-29 09:57:57.33	173.32	3.07	-44.0	-58.9	3.6	1.51e+00	0	30	104	0	60	35535
2026-01-29 09:57:58.31	173.35	3.14	-44.0	-58.8	3.6	1.51e+00	0	29	104	0	60	35352
2026-01-29 09:57:59.29	173.38	3.21	-44.0	-58.8	3.6	1.51e+00	0	29	104	0	60	35481
2026-01-29 09:58:00.27	173.42	3.28	-44.0	-58.8	3.6	1.51e+00	0	30	104	0	60	35362
2026-01-29 09:58:01.24	173.45	3.36	-44.0	-58.8	3.6	1.51e+00	0	29	104	0	60	35301
2026-01-29 09:58:02.22	173.48	3.43	-44.0	-58.8	3.6	1.51e+00	0	29	104	0	60	35450
2026-01-29 09:58:03.20	173.51	3.50	-44.0	-58.8	3.6	1.51e+00	0	29	104	0	60	35498
2026-01-29 09:58:04.18	173.54	3.57	-44.0	-58.8	3.6	1.51e+00	0	30	104	0	60	35407
2026-01-29 09:58:05.16	173.57	3.65	-44.0	-58.8	3.6	1.51e+00	0	29	104	0	60	35441
2026-01-29 09:58:06.13	173.60	3.72	-44.0	-58.8	3.6	1.51e+00	0	29	104	0	60	35328
2026-01-29 09:58:07.12	173.63	3.79	-44.0	-58.8	3.6	1.51e+00	0	30	104	0	60	35221
2026-01-29 09:58:08.10	173.66	3.87	-44.0	-58.8	3.6	1.51e+00	0	30	104	0	60	35327
2026-01-29 09:58:09.08	173.70	3.94	-44.0	-58.8	3.6	1.51e+00	0	29	104	0	60	35298
2026-01-29 09:58:10.05	173.73	4.01	-44.0	-58.8	3.6	1.51e+00	0	29	104	0	60	35201
2026-01-29 09:58:11.03	173.76	4.09	-44.0	-58.8	3.6	1.51e+00	0	30	104	0	60	35344
2026-01-29 09:58:12.01	173.79	4.16	-44.0	-58.8	3.6	1.51e+00	0	30	104	0	60	35362
2026-01-29 09:58:12.99	173.82	4.24	-44.3	-59.0	3.6	1.51e+00	0	30	104	0	60	35946
2026-01-29 09:58:13.96	173.86	4.31	-44.2	-58.9	3.6	1.51e+00	0	29	104	0	60	35682
2026-01-29 09:58:14.95	173.89	4.39	-44.1	-59.0	3.6	1.51e+00	0	29	104	0	60	36054
2026-01-29 09:58:15.93	173.92	4.46	-44.5	-59.2	3.6	1.51e+00	0	29	104	0	60	36870
2026-01-29 09:58:16.90	173.96	4.54	-44.3	-59.1	3.6	1.51e+00	0	30	104	0	60	36647
2026-01-29 09:58:17.89	173.99	4.62	-44.4	-59.1	3.6	1.51e+00	0	30	104	0	60	36569
2026-01-29 09:58:18.87	174.02	4.69	-44.6	-59.3	3.6	1.51e+00	0	30	104	0	60	37545
2026-01-29 09:58:19.85	174.06	4.77	-44.7	-59.4	3.6	1.51e+00	0	30	104	0	60	37874
2026-01-29 09:58:20.83	174.09	4.85	-44.3	-59.1	3.6	1.51e+00	0	30	104	0	60	36541
2026-01-29 09:58:21.81	174.13	4.93	-44.4	-59.1	3.6	1.51e+00	0	30	104	0	60	36771
2026-01-29 09:58:22.79	174.16	5.00	-44.7	-59.3	3.6	1.51e+00	0	30	104	0	60	37569
2026-01-29 09:58:23.77	174.20	5.08	-44.7	-59.4	3.6	1.51e+00	0	30	104	0	60	37882
2026-01-29 09:58:24.75	174.23	5.16	-44.5	-59.2	3.6	1.51e+00	0	30	104	0	60	37160
2026-01-29 09:58:25.73	174.27	5.24	-44.3	-59.3	3.6	1.51e+00	0	30	104	0	60	37206
2026-01-29 09:58:26.71	174.30	5.32	-44.7	-59.4	3.6	1.51e+00	0	30	104	0	60	37826
2026-01-29 09:58:27.69	174.34	5.40	-44.7	-59.4	3.5	1.51e+00	0	30	104	0	60	37941
2026-01-29 09:58:28.67	174.37	5.48	-44.7	-59.4	3.6	1.51e+00	0	30	104	0	60	37762
2026-01-29 09:58:29.65	174.41	5.56	-44.5	-59.3	3.6	1.51e+00	0	30	104	0	60	37612
2026-01-29 09:58:30.63	174.45	5.64	-44.6	-59.4	3.6	1.51e+00	0	30	104	0	60	37775
2026-01-29 09:58:31.61	174.48	5.72	-44.7	-59.5	3.5	1.51e+00	0	30	104	0	60	38357
2026-01-29 09:58:32.58	174.52	5.80	-44.6	-59.3	3.6	1.51e+00	0	30	104	0	60	37496
2026-01-29 09:58:33.56	174.56	5.88	-44.7	-59.5	3.6	1.51e+00	0	30	104	0	60	38172
2026-01-29 09:58:34.54	174.60	5.96	-44.7	-59.5	3.6	1.51e+00	0	30	104	0	60	38507
2026-01-29 09:58:35.52	174.63	6.04	-44.8	-59.6	3.6	1.51e+00	0	30	104	0	60	38907
2026-01-29 09:58:36.50	174.67	6.13	-44.6	-59.5	3.6	1.51e+00	0	30	104	0	60	38346
2026-01-29 09:58:37.48	174.71	6.21	-44.8	-59.6	3.6	1.51e+00	0	30	104	0	60	38942
2026-01-29 09:58:38.47	174.75	6.29	-44.6	-59.5	3.6	1.51e+00	0	30	104	0	60	38467
2026-01-29 09:58:39.45	174.79	6.38	-44.8	-59.7	3.6	1.51e+00	0	30	104	0	60	39028
2026-01-29 09:58:40.43	174.83	6.46	-44.6	-59.6	3.6	1.51e+00	0	30	104	0	60	38916
2026-01-29 09:58:41.41	174.86	6.54	-44.7	-59.6	3.6	1.51e+00	0	30	104	0	60	38661
2026-01-29 09:58:42.39	174.90	6.63	-44.7	-59.6	3.6	1.51e+00	0	30	104	0	60	38716
2026-01-29 09:58:43.37	174.94	6.71	-45.0	-59.8	3.6	1.51e+00	0	30	104	0	60	39616
2026-01-29 09:58:44.34	174.98	6.80	-44.8	-59.7	3.6	1.51e+00	0	30	104	0	60	39148
2026-01-29 09:58:45.33	175.02	6.88	-44.7	-59.6	3.6	1.51e+00	0	30	104	0	60	38755
2026-01-29 09:58:46.30	175.06	6.97	-44.9	-59.7	3.6	1.51e+00	0	30	104	0	60	39368
2026-01-29 09:58:47.28	175.10	7.06	-44.8	-59.7	3.6	1.51e+00	0	30	104	0	60	39392
2026-01-29 09:58:48.26	175.15	7.14	-44.9	-59.7	3.6	1.51e+00	0	30	104	0	60	39123
2026-01-29 09:58:49.24	175.19	7.23	-44.6	-59.5	3.6	1.51e+00	0	30	104	0	60	38408
2026-01-29 09:58:50.22	175.23	7.32	-44.8	-59.7	3.6	1.51e+00	0	30	104	0	60	39275
2026-01-29 09:58:51.20	175.27	7.41	-45.5	-60.4	3.6	1.51e+00	0	30	104	0	60	42480
2026-01-29 09:58:52.18	175.31	7.49	-45.0	-60.0	3.6	1.51e+00	0	30	104	0	60	40337
2026-01-29 09:58:53.16	175.35	7.58	-44.8	-59.6	3.6	1.51e+00	0	30	104	0	60	38931
2026-01-29 09:58:54.14	175.40	7.67	-44.9	-59.8	3.6	1.51e+00	0	30	104	0	60	39634
2026-01-29 09:58:55.12	175.44	7.76	-44.8	-59.8	3.6	1.51e+00	0	30	104	0	60	39473
2026-01-29 09:58:56.09	175.48	7.85	-44.9	-59.8	3.6	1.51e+00	0	30	104	0	60	39434
2026-01-29 09:58:57.07	175.53	7.94	-44.8	-59.7	3.6	1.51e+00	0	30	104	0	60	39037
2026-01-29 09:58:58.05	175.57	8.03	-44.8	-59.7	3.6	1.51e+00	0	30	104	0	60	38959
2026-01-29 09:58:59.03	175.62	8.12	-44.9	-59.7	3.6	1.51e+00	0	30	104	0	60	39346
2026-01-29 09:59:00.01	175.66	8.21	-44.9	-59.9	3.6	1.51e+00	0	30	104	0	60	39940
2026-01-29 09:59:01.00	175.71	8.31	-44.8	-59.7	3.6	1.51e+00	0	30	104	0	60	39032
2026-01-29 09:59:01.98	175.75	8.40	-44.9	-59.6	3.6	1.51e+00	0	30	104	0	60	38594
2026-01-29 09:59:02.96	175.80	8.49	-44.9	-59.8	3.6	1.51e+00	0	30	104	0	60	39695
2026-01-29 09:59:03.94	175.84	8.59	-44.9	-59.8	3.6	1.51e+00	0	30	104	0	60	39689
2026-01-29 09:59:04.92	175.89	8.68	-44.7	-59.5	3.6	1.51e+00	0	30	104	0	60	38403
2026-01-29 09:59:05.91	175.94	8.77	-44.8	-59.6	3.6	1.51e+00	0	30	104	0	60	38900
2026-01-29 09:59:06.89	175.98	8.87	-45.0	-59.8	3.6	1.51e+00	0	30	104	0	60	39689
2026-01-29 09:59:07.87	176.03	8.96	-44.8	-59.8	3.6	1.51e+00	0	30	104	0	60	39751
2026-01-29 09:59:08.86	176.08	9.06	-44.7	-59.7	3.6	1.51e+00	0	30	104	0	60	39126
2026-01-29 09:59:09.83	176.13	9.16	-44.8	-59.8	3.6	1.51e+00	0	30	104	0	60	39500
2026-01-29 09:59:10.81	176.17	9.25	-44.9	-59.7	3.6	1.51e+00	0	30	104	0	60	39364
2026-01-29 09:59:11.79	176.22	9.35	-44.8	-59.8	3.6	1.51e+00	0	30	104	0	60	39594
2026-01-29 09:59:12.78	176.27	9.45	-44.7	-59.7	3.6	1.51e+00	0	30	104	0	60	39258
2026-01-29 09:59:13.76	176.32	9.55	-44.8	-59.8	3.6	1.51e+00	0	30	104	0	60	39576
2026-01-29 09:59:14.73	176.37	9.65	-44.9	-59.8	3.6	1.51e+00	0	30	104	0	60	39558
2026-01-29 09:59:15.71	176.42	9.74	-44.8	-59.8	3.6	1.51e+00	0	30	104	0	60	39536
2026-01-29 09:59:16.69	176.47	9.84	-44.8	-59.7	3.6	1.51e+00	0	30	104	0	60	39109
2026-01-29 09:59:17.67	176.52	9.94	-44.6	-59.7	3.6	1.51e+00	0	30	104	0	60	39243
2026-01-29 09:59:18.65	176.58	10.05	-44.8	-59.8	3.6	1.51e+00	0	30	104	0	60	39536
2026-01-29 09:59:19.63	176.63	10.15	-44.7	-59.8	3.6	1.51e+00	0	30	104	0	60	39723
2026-01-29 09:59:20.61	176.68	10.25	-44.7	-59.7	3.6	1.51e+00	0	30	104	0	60	39321
2026-01-29 09:59:21.59	176.73	10.35	-44.7	-59.7	3.6	1.51e+00	0	30	104	0	60	39306
2026-01-29 09:59:22.57	176.79	10.45	-44.9	-59.7	3.6	1.51e+00	0	30	104	0	60	39367
2026-01-29 09:59:23.55	176.84	10.56	-44.9	-59.8	3.6	1.51e+00	0	30	104	0	60	39749
2026-01-29 09:59:24.53	176.89	10.66	-44.7	-59.8	3.6	1.51e+00	0	30	104	0	60	39425
2026-01-29 09:59:25.52	176.95	10.77	-44.6	-59.8	3.6	1.51e+00	0	30	104	0	60	39449
2026-01-29 09:59:26.50	177.00	10.87	-44.7	-59.8	3.6	1.51e+00	0	30	104	0	60	39727
2026-01-29 09:59:27.48	177.06	10.98	-44.8	-59.9	3.6	1.51e+00	0	30	104	0	60	40088
2026-01-29 09:59:28.46	177.11	11.08	-44.8	-59.8	3.6	1.51e+00	0	30	104	0	60	39738
2026-01-29 09:59:29.44	177.17	11.19	-44.6	-59.8	3.6	1.51e+00	0	30	104	0	60	39530
2026-01-29 09:59:30.42	177.23	11.30	-44.5	-59.8	3.6	1.51e+00	0	30	104	0	60	39776
2026-01-29 09:59:31.40	177.28	11.41	-45.0	-60.0	3.6	1.51e+00	0	30	104	0	60	40613
2026-01-29 09:59:32.38	177.34	11.52	-44.8	-59.9	3.6	1.51e+00	0	30	104	0	60	40053
2026-01-29 09:59:33.36	177.40	11.63	-44.5	-59.8	3.6	1.51e+00	0	30	104	0	60	39607
2026-01-29 09:59:34.34	177.46	11.74	-44.7	-59.9	3.6	1.51e+00	0	30	104	0	60	40033
2026-01-29 09:59:35.31	177.52	11.84	-44.7	-60.0	3.6	1.51e+00	0	30	104	0	60	40391
2026-01-29 09:59:36.29	177.58	11.96	-44.8	-59.9	3.6	1.51e+00	0	30	104	0	60	40035
2026-01-29 09:59:37.27	177.64	12.07	-44.7	-59.8	3.6	1.51e+00	0	30	104	0	60	39717
2026-01-29 09:59:38.25	177.70	12.18	-44.9	-59.8	3.6	1.51e+00	0	30	104	0	60	39839
2026-01-29 09:59:39.23	177.76	12.29	-44.9	-60.0	3.6	1.51e+00	0	30	104	0	60	40375
2026-01-29 09:59:40.21	177.82	12.41	-44.8	-60.0	3.6	1.51e+00	0	30	104	0	60	40367
2026-01-29 09:59:41.18	177.88	12.52	-44.7	-59.9	3.6	1.51e+00	0	30	104	0	60	39864
2026-01-29 09:59:42.16	177.95	12.64	-44.9	-59.8	3.6	1.51e+00	0	30	104	0	60	39753
2026-01-29 09:59:43.14	178.01	12.75	-44.9	-60.0	3.6	1.51e+00	0	30	104	0	60	40540
2026-01-29 09:59:44.12	178.07	12.87	-44.9	-59.9	3.6	1.51e+00	0	30	104	0	60	40314
2026-01-29 09:59:45.09	178.14	12.99	-44.8	-59.9	3.6	1.51e+00	0	30	104	0	60	39950
2026-01-29 09:59:46.07	178.20	13.10	-45.1	-59.9	3.6	1.51e+00	0	30	104	0	60	39995
2026-01-29 09:59:47.05	178.27	13.22	-45.1	-60.0	3.6	1.51e+00	0	30	104	0	60	40332
2026-01-29 09:59:48.03	178.34	13.34	-45.1	-60.0	3.6	1.51e+00	0	30	104	0	60	40593
2026-01-29 09:59:49.01	178.40	13.46	-44.8	-59.9	3.6	1.51e+00	0	30	104	0	60	39936
2026-01-29 09:59:49.99	178.47	13.58	-45.1	-59.9	3.6	1.51e+00	0	30	104	0	60	40097
2026-01-29 09:59:50.97	178.54	13.71	-44.9	-59.9	3.6	1.51e+00	0	30	104	0	60	40318
2026-01-29 09:59:51.95	178.61	13.83	-45.1	-60.0	3.6	1.51e+00	0	30	104	0	60	40506
2026-01-29 09:59:52.93	178.68	13.95	-44.7	-59.9	3.6	1.51e+00	0	30	104	0	60	40235
2026-01-29 09:59:53.90	178.75	14.08	-45.1	-60.0	3.6	1.51e+00	0	30	104	0	60	40360
2026-01-29 09:59:54.88	178.82	14.20	-45.0	-60.0	3.6	1.51e+00	0	30	104	0	60	40587
2026-01-29 09:59:55.86	178.89	14.33	-45.1	-60.0	3.6	1.51e+00	0	30	104	0	60	40380
2026-01-29 09:59:56.84	178.96	14.45	-45.1	-59.9	3.6	1.51e+00	0	30	104	0	60	40045
2026-01-29 09:59:57.82	179.04	14.58	-45.2	-59.9	3.6	1.51e+00	0	30	104	0	60	40225
2026-01-29 09:59:58.80	179.11	14.71	-45.0	-60.0	3.6	1.51e+00	0	30	104	0	60	40512
2026-01-29 09:59:59.78	179.18	14.84	-45.2	-60.0	3.6	1.51e+00	0	30	104	0	60	40469
2026-01-29 10:00:00.76	179.26	14.97	-45.1	-59.9	3.6	1.51e+00	0	30	104	0	60	40037
2026-01-29 10:00:01.74	179.33	15.10	-45.2	-59.9	3.6	1.51e+00	0	30	104	0	60	40287
2026-01-29 10:00:02.71	179.41	15.23	-45.2	-60.0	3.6	1.51e+00	0	30	104	0	60	40413
2026-01-29 10:00:03.69	179.49	15.36	-45.1	-60.0	3.6	1.51e+00	0	30	104	0	60	40598
2026-01-29 10:00:04.67	179.57	15.50	-45.2	-59.9	3.6	1.51e+00	0	30	104	0	60	40179
2026-01-29 10:00:05.64	179.64	15.63	-45.2	-59.9	3.6	1.51e+00	0	30	104	0	60	40212
2026-01-29 10:00:06.62	179.72	15.76	-45.2	-60.0	3.6	1.51e+00	0	30	104	0	60	40578
2026-01-29 10:00:07.60	179.80	15.90	-45.1	-59.9	3.6	1.51e+00	0	30	104	0	60	40319
2026-01-29 10:00:08.58	179.89	16.04	-45.2	-60.0	3.6	1.51e+00	0	30	104	0	60	40518
2026-01-29 10:00:09.56	179.97	16.18	-45.2	-60.0	3.6	1.51e+00	0	30	104	0	60	40420
2026-01-29 10:00:10.53	180.05	16.31	-45.2	-60.0	3.6	1.51e+00	0	30	104	0	60	40396
2026-01-29 10:00:11.51	180.14	16.46	-45.2	-60.0	3.6	1.51e+00	0	30	104	0	60	40634
2026-01-29 10:00:12.49	180.22	16.60	-45.1	-60.0	3.6	1.51e+00	0	30	104	0	60	40558
2026-01-29 10:00:13.47	180.31	16.74	-45.2	-60.0	3.6	1.51e+00	0	30	104	0	60	40450
2026-01-29 10:00:14.45	180.39	16.88	-45.2	-60.0	3.6	1.51e+00	0	30	104	0	60	40486
2026-01-29 10:00:15.43	180.48	17.03	-45.2	-60.1	3.6	1.51e+00	0	30	104	0	60	40909
2026-01-29 10:00:16.40	180.57	17.17	-45.2	-60.0	3.6	1.51e+00	0	30	104	0	60	40608
2026-01-29 10:00:17.38	180.66	17.32	-45.1	-59.9	3.6	1.51e+00	0	30	104	0	60	40302
2026-01-29 10:00:18.36	180.75	17.46	-45.1	-60.0	3.6	1.51e+00	0	30	104	0	60	40616
2026-01-29 10:00:19.34	180.84	17.61	-45.1	-60.1	3.6	1.51e+00	0	30	104	0	60	40963
2026-01-29 10:00:20.31	180.93	17.76	-45.2	-60.0	3.6	1.51e+00	0	30	104	0	60	40702
2026-01-29 10:00:21.29	181.03	17.91	-45.2	-59.9	3.6	1.51e+00	0	30	104	0	60	40169
2026-01-29 10:00:22.27	181.12	18.06	-45.2	-60.0	3.6	1.51e+00	0	30	104	0	60	40454
2026-01-29 10:00:23.25	181.22	18.22	-45.2	-60.0	3.6	1.51e+00	0	30	104	0	60	40768
2026-01-29 10:00:24.23	181.31	18.37	-45.0	-60.0	3.6	1.51e+00	0	30	104	0	60	40471
2026-01-29 10:00:25.22	181.41	18.53	-45.2	-59.9	3.6	1.51e+00	0	30	104	0	60	40214
2026-01-29 10:00:26.20	181.51	18.68	-45.1	-60.0	3.6	1.51e+00	0	30	104	0	60	40516
2026-01-29 10:00:27.18	181.61	18.84	-45.2	-60.0	3.6	1.51e+00	0	30	104	0	60	40734
2026-01-29 10:00:28.16	181.71	19.00	-45.2	-60.1	3.6	1.51e+00	0	30	104	0	60	40888
2026-01-29 10:00:29.14	181.81	19.16	-44.9	-59.9	3.6	1.51e+00	0	30	104	0	60	40266
2026-01-29 10:00:30.12	181.92	19.32	-45.2	-60.0	3.6	1.51e+00	0	30	104	0	60	40534
2026-01-29 10:00:31.10	182.02	19.49	-45.0	-60.1	3.6	1.51e+00	0	30	104	0	60	40925
2026-01-29 10:00:32.08	182.13	19.65	-45.1	-60.1	3.6	1.51e+00	0	30	104	0	60	41182
2026-01-29 10:00:33.06	182.24	19.82	-45.1	-60.0	3.6	1.51e+00	0	30	104	0	60	40419
2026-01-29 10:00:34.04	182.35	19.98	-45.2	-60.0	3.6	1.51e+00	0	30	104	0	60	40653
2026-01-29 10:00:35.02	182.46	20.15	-45.3	-60.1	3.6	1.51e+00	0	30	104	0	60	40857
2026-01-29 10:00:36.00	182.57	20.32	-45.3	-60.1	3.6	1.51e+00	0	30	104	0	60	40928
2026-01-29 10:00:36.98	182.68	20.49	-45.1	-60.0	3.6	1.51e+00	0	30	104	0	60	40749
2026-01-29 10:00:37.95	182.79	20.66	-45.3	-60.1	3.6	1.51e+00	0	30	104	0	60	40813
2026-01-29 10:00:38.93	182.91	20.83	-45.2	-60.1	3.6	1.51e+00	0	30	104	0	60	41058
2026-01-29 10:00:39.91	183.03	21.01	-45.3	-60.1	3.6	1.51e+00	0	30	104	0	60	41042
2026-01-29 10:00:40.89	183.14	21.18	-45.2	-60.1	3.6	1.51e+00	0	30	104	0	60	40894
2026-01-29 10:00:41.86	183.26	21.36	-45.2	-60.0	3.6	1.51e+00	0	30	104	0	60	40647
2026-01-29 10:00:42.84	183.38	21.54	-45.2	-60.1	3.6	1.51e+00	0	30	104	0	60	40943
2026-01-29 10:00:43.82	183.51	21.72	-45.3	-60.1	3.6	1.51e+00	0	30	104	0	60	41052
2026-01-29 10:00:44.80	183.63	21.90	-45.2	-60.1	3.6	1.51e+00	0	30	104	0	60	40833
2026-01-29 10:00:45.77	183.76	22.08	-45.3	-60.0	3.6	1.51e+00	0	30	104	0	60	40670
2026-01-29 10:00:46.75	183.88	22.27	-45.3	-60.1	3.6	1.51e+00	0	30	104	0	60	40999
2026-01-29 10:00:47.73	184.01	22.46	-45.3	-60.1	3.6	1.51e+00	0	30	104	0	60	41125
2026-01-29 10:00:48.71	184.15	22.64	-45.3	-60.1	3.5	1.51e+00	0	30	104	0	60	41060
2026-01-29 10:00:49.69	184.28	22.83	-45.2	-60.1	3.6	1.51e+00	0	30	104	0	60	40796
2026-01-29 10:00:50.67	184.41	23.03	-45.2	-60.2	3.6	1.51e+00	0	30	104	0	60	41330
2026-01-29 10:00:51.65	184.55	23.22	-45.2	-60.1	3.6	1.51e+00	0	30	104	0	60	41177
2026-01-29 10:00:52.62	184.69	23.41	-45.3	-60.1	3.6	1.51e+00	0	30	104	0	60	41082
2026-01-29 10:00:53.60	184.83	23.61	-45.3	-60.1	3.6	1.51e+00	0	30	104	0	60	40908
2026-01-29 10:00:54.58	184.97	23.81	-45.2	-60.1	3.6	1.51e+00	0	30	104	0	60	41178
2026-01-29 10:00:55.56	185.11	24.01	-45.2	-60.1	3.6	1.51e+00	0	30	104	0	60	41245
2026-01-29 10:00:56.55	185.26	24.21	-45.2	-60.1	3.6	1.51e+00	0	30	104	0	60	41044
2026-01-29 10:00:57.53	185.41	24.41	-45.1	-60.0	3.6	1.51e+00	0	30	104	0	60	40780
2026-01-29 10:00:58.51	185.56	24.62	-45.1	-60.1	3.6	1.51e+00	0	30	104	0	60	40837
2026-01-29 10:00:59.49	185.71	24.83	-45.3	-60.1	3.6	1.51e+00	0	30	104	0	60	40800
2026-01-29 10:01:00.47	185.87	25.03	-45.1	-60.1	3.6	1.51e+00	0	30	104	0	60	40944
2026-01-29 10:01:01.45	186.03	25.24	-45.1	-60.1	3.6	1.51e+00	0	30	104	0	60	40992
2026-01-29 10:01:02.42	186.18	25.45	-45.1	-60.1	3.6	1.51e+00	0	30	104	0	60	41027
2026-01-29 10:01:03.40	186.35	25.67	-45.2	-60.1	3.6	1.51e+00	0	30	104	0	60	41252
2026-01-29 10:01:04.37	186.51	25.88	-45.1	-60.1	3.6	1.51e+00	0	30	104	0	60	41135
2026-01-29 10:01:05.35	186.67	26.10	-45.1	-60.1	3.6	1.51e+00	0	30	104	0	60	41071
2026-01-29 10:01:06.32	186.84	26.32	-45.1	-60.1	3.6	1.51e+00	0	30	104	0	60	41025
2026-01-29 10:01:07.30	187.01	26.54	-45.2	-60.2	3.6	1.51e+00	0	30	104	0	60	41362
2026-01-29 10:01:08.27	187.19	26.76	-45.0	-60.1	3.6	1.51e+00	0	30	104	0	60	41117
2026-01-29 10:01:09.25	187.36	26.99	-45.0	-60.1	3.6	1.51e+00	0	30	104	0	60	40980
2026-01-29 10:01:10.23	187.54	27.22	-45.0	-60.1	3.6	1.51e+00	0	30	104	0	60	40870
2026-01-29 10:01:11.21	187.72	27.45	-45.1	-60.2	3.6	1.51e+00	0	30	104	0	60	41424
2026-01-29 10:01:12.19	187.91	27.68	-45.0	-60.1	3.6	1.51e+00	0	30	104	0	60	41238
2026-01-29 10:01:13.17	188.10	27.91	-45.0	-60.1	3.6	1.51e+00	0	30	104	0	60	41069
2026-01-29 10:01:14.14	188.29	28.15	-45.0	-60.1	3.5	1.51e+00	0	30	104	0	60	41260
2026-01-29 10:01:15.12	188.48	28.38	-45.0	-60.2	3.6	1.51e+00	0	30	104	0	60	41423
2026-01-29 10:01:16.10	188.68	28.62	-44.9	-60.2	3.6	1.51e+00	0	30	104	0	60	41418
2026-01-29 10:01:17.08	188.88	28.87	-44.9	-60.1	3.6	1.51e+00	0	30	104	0	60	40824
2026-01-29 10:01:18.06	189.08	29.11	-44.9	-60.1	3.6	1.51e+00	0	30	104	0	60	41124
2026-01-29 10:01:19.03	189.29	29.36	-44.9	-60.2	3.6	1.51e+00	0	30	104	0	60	41292
2026-01-29 10:01:20.01	189.50	29.60	-44.9	-60.2	3.5	1.51e+00	0	30	104	0	60	41409
2026-01-29 10:01:21.00	189.71	29.86	-44.8	-60.1	3.6	1.51e+00	0	30	104	0	60	41100
2026-01-29 10:01:21.98	189.93	30.11	-45.0	-60.1	3.6	1.51e+00	0	30	104	0	60	41233
2026-01-29 10:01:22.96	190.15	30.37	-44.7	-60.1	3.6	1.51e+00	0	30	104	0	60	41175
2026-01-29 10:01:23.94	190.38	30.63	-44.8	-60.2	3.6	1.51e+00	0	30	104	0	60	41306
2026-01-29 10:01:24.92	190.60	30.89	-44.8	-60.1	3.6	1.51e+00	0	30	104	0	60	41150
2026-01-29 10:01:25.90	190.84	31.15	-44.8	-60.2	3.6	1.51e+00	0	30	104	0	60	41347
2026-01-29 10:01:26.88	191.07	31.41	-44.8	-60.2	3.6	1.51e+00	0	30	104	0	60	41461
2026-01-29 10:01:27.86	191.32	31.68	-44.8	-60.1	3.6	1.51e+00	0	30	104	0	60	41111
2026-01-29 10:01:28.84	191.56	31.95	-44.8	-60.1	3.6	1.51e+00	0	30	104	0	60	41096
2026-01-29 10:01:29.82	191.81	32.22	-44.8	-60.1	3.6	1.51e+00	0	30	104	0	60	41154
2026-01-29 10:01:30.80	192.06	32.50	-44.9	-60.2	3.6	1.51e+00	0	30	104	0	60	41308
2026-01-29 10:01:31.78	192.32	32.78	-44.8	-60.2	3.6	1.51e+00	0	30	104	0	60	41278
2026-01-29 10:01:32.76	192.59	33.06	-44.9	-60.1	3.6	1.51e+00	0	30	104	0	60	41235
2026-01-29 10:01:33.73	192.85	33.33	-45.0	-60.1	3.6	1.51e+00	0	30	104	0	60	41088
2026-01-29 10:01:34.71	193.12	33.62	-44.8	-60.2	3.6	1.51e+00	0	30	104	0	60	41269
2026-01-29 10:01:35.69	193.40	33.91	-44.8	-60.2	3.6	1.51e+00	0	30	104	0	60	41312
2026-01-29 10:01:36.67	193.69	34.19	-44.8	-60.1	3.6	1.51e+00	0	30	104	0	60	41042
2026-01-29 10:01:37.65	193.98	34.49	-45.0	-60.1	3.6	1.51e+00	0	30	104	0	60	41078
2026-01-29 10:01:38.63	194.27	34.78	-44.8	-60.1	3.6	1.51e+00	0	30	104	0	60	41170
2026-01-29 10:01:39.61	194.57	35.08	-44.9	-60.2	3.6	1.51e+00	0	30	104	0	60	41318
2026-01-29 10:01:40.59	194.87	35.38	-45.0	-60.1	3.6	1.51e+00	0	30	104	0	60	40998
2026-01-29 10:01:41.56	195.18	35.67	-44.9	-60.1	3.6	1.51e+00	0	30	104	0	60	41055
2026-01-29 10:01:42.54	195.50	35.98	-44.9	-60.2	3.6	1.51e+00	0	30	104	0	60	41505
2026-01-29 10:01:43.52	195.82	36.28	-45.0	-60.2	3.6	1.51e+00	0	30	104	0	60	41491
2026-01-29 10:01:44.50	196.16	36.59	-45.0	-60.2	3.6	1.51e+00	0	30	104	0	60	41379
2026-01-29 10:01:45.48	196.49	36.90	-44.9	-60.1	3.6	1.51e+00	0	30	104	0	60	41190
2026-01-29 10:01:46.46	196.84	37.22	-45.0	-60.1	3.6	1.51e+00	0	30	104	0	60	41129
2026-01-29 10:01:47.43	197.18	37.53	-45.1	-60.2	3.6	1.51e+00	0	30	104	0	60	41718
2026-01-29 10:01:48.42	197.54	37.85	-45.2	-60.2	3.6	1.51e+00	0	30	104	0	60	41649
2026-01-29 10:01:49.39	197.91	38.17	-45.1	-60.2	3.6	1.51e+00	0	30	104	0	60	41663
2026-01-29 10:01:50.37	198.28	38.49	-45.1	-60.2	3.6	1.51e+00	0	30	104	0	60	41555
2026-01-29 10:01:51.35	198.66	38.81	-45.1	-60.2	3.6	1.51e+00	0	30	104	0	60	41727
2026-01-29 10:01:52.33	199.05	39.14	-45.2	-60.2	3.6	1.51e+00	0	30	104	0	60	41552
2026-01-29 10:01:53.31	199.44	39.47	-45.1	-60.2	3.6	1.51e+00	0	30	104	0	60	41611
2026-01-29 10:01:54.29	199.85	39.80	-45.2	-60.2	3.6	1.51e+00	0	30	104	0	60	41417
2026-01-29 10:01:55.27	200.26	40.13	-45.2	-60.3	3.6	1.51e+00	0	30	104	0	60	41767
2026-01-29 10:01:56.25	200.69	40.47	-45.2	-60.2	3.6	1.51e+00	0	30	104	0	60	41495
2026-01-29 10:01:57.23	201.12	40.80	-45.1	-60.2	3.6	1.51e+00	0	30	104	0	60	41507
2026-01-29 10:01:58.21	201.56	41.14	-45.3	-60.2	3.6	1.51e+00	0	30	104	0	60	41425
2026-01-29 10:01:59.19	202.01	41.48	-45.2	-60.2	3.6	1.51e+00	0	31	104	0	60	41546
2026-01-29 10:02:00.17	202.47	41.82	-45.3	-60.1	3.5	1.51e+00	0	30	104	0	60	41243
2026-01-29 10:02:01.15	202.94	42.17	-45.2	-60.1	3.6	1.51e+00	0	30	104	0	60	41003
2026-01-29 10:02:02.13	203.43	42.51	-45.3	-60.2	3.6	1.51e+00	0	30	104	0	60	41565
2026-01-29 10:02:03.11	203.92	42.86	-45.1	-60.2	3.6	1.51e+00	0	30	104	0	60	41606
2026-01-29 10:02:04.09	204.42	43.21	-45.3	-60.2	3.6	1.51e+00	0	31	104	0	60	41495
2026-01-29 10:02:05.07	204.94	43.56	-45.2	-60.2	3.6	1.51e+00	0	30	104	0	60	41269
2026-01-29 10:02:06.05	205.46	43.91	-45.3	-60.2	3.6	1.51e+00	0	30	104	0	60	41570
2026-01-29 10:02:07.03	206.00	44.26	-45.2	-60.2	3.6	1.51e+00	0	30	104	0	60	41347
2026-01-29 10:02:08.01	206.55	44.61	-45.2	-60.2	3.6	1.51e+00	0	30	104	0	60	41568
2026-01-29 10:02:08.99	207.12	44.96	-45.2	-60.1	3.6	1.51e+00	0	30	104	0	60	41064
2026-01-29 10:02:09.96	207.69	45.31	-45.2	-60.2	3.6	1.51e+00	0	30	104	0	60	41373
2026-01-29 10:02:10.94	208.28	45.67	-45.2	-60.1	3.6	1.51e+00	0	31	104	0	60	41195
2026-01-29 10:02:11.92	208.88	46.02	-45.4	-60.2	3.5	1.51e+00	0	30	104	0	60	41519
2026-01-29 10:02:12.90	209.50	46.38	-45.3	-60.2	3.6	1.51e+00	0	30	104	0	60	41545
2026-01-29 10:02:13.87	210.13	46.73	-45.4	-60.2	3.6	1.51e+00	0	30	104	0	60	41550
2026-01-29 10:02:14.85	210.77	47.08	-45.4	-60.2	3.6	1.51e+00	0	30	104	0	60	41686
2026-01-29 10:02:15.83	211.44	47.43	-45.3	-60.2	3.6	1.51e+00	0	31	104	0	60	41360
2026-01-29 10:02:16.80	212.11	47.78	-45.3	-60.2	3.6	1.51e+00	0	30	104	0	60	41332
2026-01-29 10:02:17.78	212.80	48.13	-45.4	-60.2	3.6	1.51e+00	0	30	104	0	60	41642
2026-01-29 10:02:18.76	213.51	48.48	-45.3	-60.2	3.6	1.51e+00	0	30	104	0	60	41350
2026-01-29 10:02:19.73	214.23	48.82	-45.3	-60.2	3.6	1.51e+00	0	31	104	0	60	41471
2026-01-29 10:02:20.71	214.97	49.17	-45.4	-60.1	3.6	1.51e+00	0	30	104	0	60	41248
2026-01-29 10:02:21.69	215.73	49.52	-45.3	-60.2	3.6	1.51e+00	0	30	104	0	60	41385
2026-01-29 10:02:22.67	216.51	49.86	-45.4	-60.2	3.6	1.51e+00	0	30	104	0	60	41532
2026-01-29 10:02:23.65	217.31	50.20	-45.4	-60.2	3.6	1.51e+00	0	31	104	0	60	41475
2026-01-29 10:02:24.62	218.11	50.53	-45.3	-60.1	3.6	1.51e+00	0	31	104	0	60	41188
2026-01-29 10:02:25.60	218.94	50.86	-45.4	-60.2	3.6	1.51e+00	0	30	104	0	60	41520
2026-01-29 10:02:26.58	219.80	51.19	-45.4	-60.2	3.6	1.51e+00	0	30	104	0	60	41568
2026-01-29 10:02:27.57	220.67	51.52	-45.4	-60.2	3.6	1.51e+00	0	30	104	0	60	41522
2026-01-29 10:02:28.54	221.56	51.84	-45.4	-60.2	3.6	1.51e+00	0	31	104	0	60	41390
2026-01-29 10:02:29.52	222.47	52.15	-45.4	-60.2	3.6	1.51e+00	0	31	104	0	60	41413
2026-01-29 10:02:30.50	223.39	52.46	-45.4	-60.2	3.6	1.51e+00	0	31	104	0	60	41568
2026-01-29 10:02:31.48	224.34	52.77	-45.4	-60.2	3.6	1.51e+00	0	31	104	0	60	41548
2026-01-29 10:02:32.46	225.31	53.07	-45.4	-60.2	3.6	1.51e+00	0	30	104	0	60	41326
2026-01-29 10:02:33.45	226.31	53.36	-45.4	-60.2	3.6	1.51e+00	0	31	104	0	60	41287
2026-01-29 10:02:34.42	227.31	53.65	-45.4	-60.2	3.6	1.51e+00	0	31	104	0	60	41346
2026-01-29 10:02:35.40	228.34	53.93	-45.5	-60.2	3.6	1.51e+00	0	30	104	0	60	41407
2026-01-29 10:02:36.38	229.39	54.20	-45.4	-60.2	3.6	1.51e+00	0	30	104	0	60	41346
2026-01-29 10:02:37.36	230.46	54.46	-45.4	-60.2	3.6	1.51e+00	0	30	104	0	60	41434
2026-01-29 10:02:38.34	231.55	54.72	-45.4	-60.2	3.6	1.51e+00	0	30	104	0	60	41370
2026-01-29 10:02:39.31	232.65	54.96	-45.4	-60.1	3.6	1.51e+00	0	30	104	0	60	41194
2026-01-29 10:02:40.30	233.79	55.20	-45.5	-60.2	3.6	1.51e+00	0	30	104	0	60	41430
2026-01-29 10:02:41.27	234.93	55.42	-45.4	-60.2	3.6	1.51e+00	0	30	104	0	60	41355
2026-01-29 10:02:42.25	236.09	55.64	-45.4	-60.2	3.6	1.51e+00	0	30	104	0	60	41279
2026-01-29 10:02:43.23	237.28	55.85	-45.5	-60.2	3.6	1.51e+00	0	30	104	0	60	41639
2026-01-29 10:02:44.21	238.48	56.04	-45.4	-60.2	3.6	1.51e+00	0	30	104	0	60	41418
2026-01-29 10:02:45.19	239.70	56.22	-45.4	-60.1	3.6	1.51e+00	0	30	104	0	60	41203
2026-01-29 10:02:46.17	240.93	56.40	-45.4	-60.2	3.6	1.51e+00	0	31	104	0	60	41401
2026-01-29 10:02:47.15	242.18	56.56	-45.4	-60.2	3.6	1.51e+00	0	31	104	0	60	41491
2026-01-29 10:02:48.12	243.43	56.70	-45.4	-60.2	3.6	1.51e+00	0	30	104	0	60	41431
2026-01-29 10:02:49.10	244.71	56.84	-45.4	-60.2	3.6	1.51e+00	0	31	104	0	60	41420
2026-01-29 10:02:50.07	245.98	56.96	-45.4	-60.2	3.6	1.51e+00	0	31	104	0	60	41654
2026-01-29 10:02:51.05	247.28	57.06	-45.4	-60.2	3.6	1.51e+00	0	30	104	0	60	41452
2026-01-29 10:02:52.03	248.59	57.16	-45.4	-60.2	3.6	1.51e+00	0	30	104	0	60	41585
2026-01-29 10:02:53.01	249.91	57.24	-45.4	-60.1	3.6	1.51e+00	0	30	104	0	60	41148
2026-01-29 10:02:53.99	251.23	57.31	-45.4	-60.2	3.6	1.51e+00	0	30	104	0	60	41484
2026-01-29 10:02:54.97	252.56	57.36	-45.4	-60.2	3.6	1.51e+00	0	31	104	0	60	41522
2026-01-29 10:02:55.95	253.90	57.40	-45.4	-60.2	3.6	1.51e+00	0	30	104	0	60	41578
2026-01-29 10:02:56.93	255.23	57.42	-45.4	-60.2	3.6	1.51e+00	0	31	104	0	60	41350
2026-01-29 10:02:57.91	256.57	57.43	-45.3	-60.2	3.6	1.51e+00	0	31	104	0	60	41558
2026-01-29 10:02:58.89	257.91	57.42	-45.3	-60.2	3.6	1.51e+00	0	30	104	0	60	41593
2026-01-29 10:02:59.87	259.25	57.40	-45.4	-60.2	3.6	1.51e+00	0	31	104	0	60	41472
2026-01-29 10:03:00.84	260.57	57.37	-45.3	-60.2	3.6	1.51e+00	0	31	104	0	60	41297
2026-01-29 10:03:01.82	261.91	57.32	-45.3	-60.2	3.5	1.51e+00	0	30	104	0	60	41727
2026-01-29 10:03:02.80	263.23	57.26	-45.3	-60.2	3.6	1.51e+00	0	30	104	0	60	41529
2026-01-29 10:03:03.77	264.54	57.18	-45.2	-60.2	3.6	1.51e+00	0	31	104	0	60	41558
2026-01-29 10:03:04.75	265.85	57.09	-45.2	-60.2	3.6	1.51e+00	0	30	104	0	60	41378
2026-01-29 10:03:05.72	267.14	56.99	-45.2	-60.1	3.6	1.51e+00	0	31	104	0	60	41241
2026-01-29 10:03:06.70	268.43	56.87	-45.2	-60.2	3.6	1.51e+00	0	30	104	0	60	41472
2026-01-29 10:03:07.68	269.71	56.74	-45.1	-60.2	3.6	1.51e+00	0	31	104	0	60	41470
2026-01-29 10:03:08.66	270.97	56.59	-45.0	-60.2	3.6	1.51e+00	0	30	104	0	60	41302
2026-01-29 10:03:09.64	272.23	56.44	-45.0	-60.2	3.6	1.51e+00	0	30	104	0	60	41394
2026-01-29 10:03:10.61	273.45	56.27	-45.2	-60.2	3.6	1.51e+00	0	31	104	0	60	41672
2026-01-29 10:03:11.59	274.67	56.09	-45.1	-60.3	3.6	1.51e+00	0	30	104	0	60	41745
2026-01-29 10:03:12.57	275.88	55.90	-45.1	-60.2	3.6	1.51e+00	0	31	104	0	60	41345
2026-01-29 10:03:13.55	277.07	55.70	-45.1	-60.3	3.6	1.51e+00	0	31	104	0	60	41763
2026-01-29 10:03:14.53	278.24	55.48	-45.0	-60.2	3.6	1.51e+00	0	31	104	0	60	41348
2026-01-29 10:03:15.50	279.38	55.26	-45.3	-60.2	3.6	1.51e+00	0	31	104	0	60	41512
2026-01-29 10:03:16.47	280.50	55.03	-45.2	-60.2	3.6	1.51e+00	0	31	104	0	60	41633
2026-01-29 10:03:17.45	281.62	54.78	-45.1	-60.2	3.6	1.51e+00	0	30	104	0	60	41333
2026-01-29 10:03:18.43	282.71	54.53	-45.2	-60.2	3.6	1.51e+00	0	30	104	0	60	41350
2026-01-29 10:03:19.41	283.79	54.27	-45.3	-60.2	3.6	1.51e+00	0	30	104	0	60	41590
2026-01-29 10:03:20.38	284.83	54.00	-45.3	-60.2	3.6	1.51e+00	0	31	104	0	60	41332
2026-01-29 10:03:21.36	285.87	53.73	-45.3	-60.2	3.6	1.51e+00	0	30	104	0	60	41421
2026-01-29 10:03:22.34	286.89	53.44	-45.3	-60.2	3.6	1.51e+00	0	30	104	0	60	41456
2026-01-29 10:03:23.32	287.88	53.15	-45.3	-60.2	3.6	1.51e+00	0	30	104	0	60	41613
2026-01-29 10:03:24.30	288.86	52.86	-45.3	-60.2	3.6	1.51e+00	0	30	104	0	60	41576
2026-01-29 10:03:25.27	289.80	52.56	-45.2	-60.2	3.6	1.51e+00	0	30	104	0	60	41410
2026-01-29 10:03:26.25	290.74	52.25	-45.2	-60.3	3.6	1.51e+00	0	31	104	0	60	41876
2026-01-29 10:03:27.23	291.65	51.93	-45.2	-60.2	3.6	1.51e+00	0	31	104	0	60	41648
2026-01-29 10:03:28.20	292.54	51.62	-45.1	-60.2	3.6	1.51e+00	0	31	104	0	60	41412
2026-01-29 10:03:29.18	293.42	51.29	-45.2	-60.2	3.6	1.51e+00	0	31	104	0	60	41383
2026-01-29 10:03:30.15	294.26	50.97	-45.2	-60.2	3.6	1.51e+00	0	31	104	0	60	41433
2026-01-29 10:03:31.13	295.10	50.64	-45.1	-60.2	3.6	1.51e+00	0	31	104	0	60	41475
2026-01-29 10:03:32.10	295.91	50.30	-45.2	-60.3	3.6	1.51e+00	0	30	104	0	60	41795
2026-01-29 10:03:33.08	296.72	49.97	-45.1	-60.3	3.6	1.51e+00	0	31	104	0	60	41835
2026-01-29 10:03:34.06	297.50	49.63	-45.1	-60.3	3.5	1.51e+00	0	30	104	0	60	41783
2026-01-29 10:03:35.04	298.27	49.28	-45.2	-60.2	3.6	1.51e+00	0	31	104	0	60	41740
2026-01-29 10:03:36.02	299.01	48.94	-45.1	-60.2	3.6	1.51e+00	0	31	104	0	60	41735
2026-01-29 10:03:36.99	299.74	48.59	-45.1	-60.2	3.6	1.51e+00	0	31	104	0	60	41627
2026-01-29 10:03:37.97	300.45	48.24	-45.2	-60.2	3.6	1.51e+00	0	31	104	0	60	41623
2026-01-29 10:03:38.95	301.15	47.89	-45.4	-60.2	3.6	1.51e+00	0	31	104	0	60	41514
2026-01-29 10:03:39.94	301.84	47.54	-45.4	-60.2	3.6	1.51e+00	0	31	104	0	60	41710
2026-01-29 10:03:40.91	302.50	47.19	-45.4	-60.2	3.6	1.51e+00	0	31	104	0	60	41632
2026-01-29 10:03:41.89	303.15	46.84	-45.3	-60.3	3.6	1.51e+00	0	31	104	0	60	41919
2026-01-29 10:03:42.86	303.78	46.49	-45.2	-60.2	3.6	1.51e+00	0	31	104	0	60	41674
2026-01-29 10:03:43.84	304.41	46.13	-45.4	-60.3	3.6	1.51e+00	0	31	104	0	60	41813
2026-01-29 10:03:44.82	305.01	45.78	-45.4	-60.2	3.6	1.51e+00	0	31	104	0	60	41640
2026-01-29 10:03:45.79	305.60	45.43	-45.3	-60.3	3.6	1.51e+00	0	31	104	0	60	41897
2026-01-29 10:03:46.77	306.18	45.07	-45.3	-60.2	3.6	1.51e+00	0	31	104	0	60	41655
2026-01-29 10:03:47.75	306.75	44.72	-45.3	-60.3	3.6	1.51e+00	0	31	104	0	60	42031
2026-01-29 10:03:48.72	307.30	44.37	-45.2	-60.3	3.6	1.51e+00	0	31	104	0	60	41814
2026-01-29 10:03:49.70	307.84	44.02	-45.3	-60.3	3.6	1.51e+00	0	31	104	0	60	41762
2026-01-29 10:03:50.68	308.37	43.67	-45.4	-60.2	3.6	1.51e+00	0	31	104	0	60	41598
2026-01-29 10:03:51.66	308.89	43.32	-45.4	-60.2	3.6	1.51e+00	0	31	104	0	60	41709
2026-01-29 10:03:52.64	309.40	42.97	-45.4	-60.2	3.6	1.51e+00	0	31	104	0	60	41619
2026-01-29 10:03:53.61	309.89	42.63	-45.4	-60.3	3.6	1.51e+00	0	31	104	0	60	41758
2026-01-29 10:03:54.59	310.38	42.28	-45.4	-60.3	3.6	1.51e+00	0	31	104	0	60	41767
2026-01-29 10:03:55.57	310.85	41.94	-45.4	-60.3	3.6	1.51e+00	0	31	104	0	60	41923
2026-01-29 10:03:56.54	311.31	41.60	-45.5	-60.3	3.6	1.51e+00	0	31	104	0	60	41928
2026-01-29 10:03:57.52	311.77	41.26	-45.4	-60.2	3.6	1.51e+00	0	31	104	0	60	41588
2026-01-29 10:03:58.50	312.21	40.92	-45.5	-60.3	3.6	1.51e+00	0	31	104	0	60	41890
2026-01-29 10:03:59.48	312.65	40.58	-45.5	-60.2	3.6	1.51e+00	0	31	104	0	60	41657
2026-01-29 10:04:00.46	313.07	40.25	-45.5	-60.2	3.6	1.51e+00	0	31	104	0	60	41453
2026-01-29 10:04:01.43	313.49	39.92	-45.4	-60.2	3.6	1.51e+00	0	31	104	0	60	41708
2026-01-29 10:04:02.41	313.89	39.59	-45.4	-60.2	3.6	1.51e+00	0	30	104	0	60	41663
2026-01-29 10:04:03.38	314.29	39.26	-45.5	-60.2	3.6	1.51e+00	0	30	104	0	60	41702
2026-01-29 10:04:04.36	314.68	38.93	-45.5	-60.2	3.6	1.51e+00	0	30	104	0	60	41603
2026-01-29 10:04:05.34	315.07	38.61	-45.4	-60.3	3.6	1.51e+00	0	31	104	0	60	42038
2026-01-29 10:04:06.31	315.44	38.29	-45.6	-60.3	3.6	1.51e+00	0	31	104	0	60	41822
2026-01-29 10:04:07.29	315.81	37.97	-45.4	-60.3	3.6	1.51e+00	0	31	104	0	60	41964
2026-01-29 10:04:08.26	316.16	37.65	-45.5	-60.3	3.6	1.51e+00	0	31	104	0	60	41860
2026-01-29 10:04:09.24	316.52	37.33	-45.5	-60.3	3.6	1.51e+00	0	31	104	0	60	41813
2026-01-29 10:04:10.22	316.86	37.02	-45.5	-60.2	3.6	1.51e+00	0	31	104	0	60	41681
2026-01-29 10:04:11.20	317.20	36.71	-45.4	-60.3	3.6	1.51e+00	0	31	104	0	60	41802
2026-01-29 10:04:12.18	317.53	36.40	-45.5	-60.3	3.6	1.51e+00	0	31	104	0	60	41833
2026-01-29 10:04:13.16	317.86	36.09	-45.5	-60.2	3.6	1.51e+00	0	31	104	0	60	41635
2026-01-29 10:04:14.14	318.18	35.79	-45.5	-60.3	3.6	1.51e+00	0	30	104	0	60	41840
2026-01-29 10:04:15.11	318.49	35.49	-45.6	-60.3	3.6	1.51e+00	0	31	104	0	60	42050
2026-01-29 10:04:16.09	318.80	35.19	-45.6	-60.3	3.6	1.51e+00	0	31	104	0	60	41793
2026-01-29 10:04:17.07	319.10	34.89	-45.5	-60.3	3.6	1.51e+00	0	31	104	0	60	41801
2026-01-29 10:04:18.04	319.40	34.60	-45.5	-60.3	3.6	1.51e+00	0	31	104	0	60	41900
2026-01-29 10:04:19.02	319.69	34.31	-45.5	-60.3	3.6	1.51e+00	0	31	104	0	60	41977
2026-01-29 10:04:20.00	319.97	34.02	-45.4	-60.2	3.6	1.51e+00	0	31	104	0	60	41698
2026-01-29 10:04:20.98	320.25	33.73	-45.5	-60.3	3.6	1.51e+00	0	31	104	0	60	41810
2026-01-29 10:04:21.95	320.53	33.45	-45.5	-60.3	3.6	1.51e+00	0	31	104	0	60	41895
2026-01-29 10:04:22.93	320.80	33.17	-45.3	-60.3	3.6	1.51e+00	0	31	104	0	60	41783
2026-01-29 10:04:23.91	321.06	32.89	-45.4	-60.3	3.6	1.51e+00	0	31	104	0	60	41932
2026-01-29 10:04:24.88	321.32	32.61	-45.4	-60.3	3.6	1.51e+00	0	31	104	0	60	41760
2026-01-29 10:04:25.86	321.57	32.34	-45.4	-60.3	3.6	1.51e+00	0	31	104	0	60	41779
2026-01-29 10:04:26.84	321.83	32.06	-45.5	-60.2	3.6	1.51e+00	0	31	104	0	60	41724
2026-01-29 10:04:27.81	322.07	31.79	-45.5	-60.3	3.6	1.51e+00	0	31	104	0	60	41909
2026-01-29 10:04:28.79	322.31	31.53	-45.4	-60.2	3.6	1.51e+00	0	31	104	0	60	41627
2026-01-29 10:04:29.76	322.55	31.26	-45.2	-60.2	3.6	1.51e+00	0	31	104	0	60	41705
2026-01-29 10:04:30.74	322.78	31.00	-45.6	-60.3	3.6	1.51e+00	0	31	104	0	60	42030
2026-01-29 10:04:31.72	323.02	30.74	-45.6	-60.3	3.6	1.51e+00	0	31	104	0	60	41848
2026-01-29 10:04:32.69	323.24	30.48	-45.5	-60.2	3.6	1.51e+00	0	31	104	0	60	41410
2026-01-29 10:04:33.67	323.46	30.22	-45.5	-60.3	3.6	1.51e+00	0	31	104	0	60	41795
2026-01-29 10:04:34.64	323.68	29.97	-45.5	-60.2	3.6	1.51e+00	0	31	104	0	60	41674
2026-01-29 10:04:35.62	323.90	29.72	-45.5	-60.2	3.6	1.51e+00	0	31	104	0	60	41644
2026-01-29 10:04:36.60	324.11	29.47	-45.5	-60.2	3.6	1.51e+00	0	31	104	0	60	41446
2026-01-29 10:04:37.58	324.32	29.22	-45.5	-60.3	3.6	1.51e+00	0	31	104	0	60	41875
2026-01-29 10:04:38.55	324.52	28.98	-45.5	-60.3	3.6	1.51e+00	0	31	104	0	60	41747
2026-01-29 10:04:39.53	324.72	28.74	-45.5	-60.3	3.6	1.51e+00	0	31	104	0	60	41980
2026-01-29 10:04:40.51	324.92	28.49	-45.5	-60.2	3.6	1.51e+00	0	31	104	0	60	41612
2026-01-29 10:04:41.49	325.12	28.26	-45.5	-60.2	3.6	1.51e+00	0	31	104	0	60	41475
2026-01-29 10:04:42.47	325.31	28.02	-45.5	-60.3	3.6	1.51e+00	0	31	104	0	60	41778
2026-01-29 10:04:43.44	325.50	27.79	-45.5	-60.2	3.6	1.51e+00	0	31	104	0	60	41734
2026-01-29 10:04:44.42	325.68	27.55	-45.3	-60.2	3.6	1.51e+00	0	31	104	0	60	41656
2026-01-29 10:04:45.40	325.87	27.32	-45.4	-60.2	3.6	1.51e+00	0	31	104	0	60	41581
2026-01-29 10:04:46.37	326.05	27.10	-45.5	-60.3	3.6	1.51e+00	0	31	104	0	60	41763
2026-01-29 10:04:47.35	326.22	26.87	-45.4	-60.2	3.6	1.51e+00	0	31	104	0	60	41699
2026-01-29 10:04:48.33	326.40	26.64	-45.5	-60.3	3.6	1.51e+00	0	30	104	0	60	41788
2026-01-29 10:04:49.30	326.57	26.42	-45.5	-60.2	3.6	1.51e+00	0	31	104	0	60	41455
2026-01-29 10:04:50.27	326.74	26.21	-45.5	-60.2	3.6	1.51e+00	0	31	104	0	60	41594
2026-01-29 10:04:51.25	326.91	25.99	-45.5	-60.2	3.6	1.51e+00	0	31	104	0	60	41641
2026-01-29 10:04:52.24	327.07	25.77	-45.4	-60.2	3.6	1.51e+00	0	31	104	0	60	41573
2026-01-29 10:04:53.22	327.24	25.55	-45.5	-60.2	3.6	1.51e+00	0	31	104	0	60	41470
2026-01-29 10:04:54.19	327.40	25.34	-45.5	-60.2	3.6	1.51e+00	0	31	104	0	60	41688
2026-01-29 10:04:55.17	327.55	25.13	-45.5	-60.2	3.6	1.51e+00	0	31	104	0	60	41582
2026-01-29 10:04:56.16	327.71	24.92	-45.5	-60.2	3.6	1.51e+00	0	31	104	0	60	41590
2026-01-29 10:04:57.14	327.87	24.71	-45.4	-60.2	3.5	1.51e+00	0	31	104	0	60	41324
2026-01-29 10:04:58.11	328.02	24.51	-45.6	-60.3	3.6	1.51e+00	0	30	104	0	60	41892
2026-01-29 10:04:59.09	328.17	24.30	-45.5	-60.3	3.6	1.51e+00	0	31	104	0	60	41868
2026-01-29 10:05:00.07	328.31	24.10	-45.5	-60.2	3.6	1.51e+00	0	31	104	0	60	41559
2026-01-29 10:05:01.04	328.46	23.90	-45.5	-60.2	3.6	1.51e+00	0	31	104	0	60	41499
2026-01-29 10:05:02.01	328.60	23.71	-45.4	-60.3	3.6	1.51e+00	0	31	104	0	60	41768
2026-01-29 10:05:02.99	328.74	23.51	-45.6	-60.3	3.6	1.51e+00	0	31	104	0	60	41858
2026-01-29 10:05:03.97	328.88	23.31	-45.5	-60.2	3.6	1.51e+00	0	30	104	0	60	41550
2026-01-29 10:05:04.95	329.02	23.12	-45.4	-60.2	3.6	1.51e+00	0	31	104	0	60	41418
2026-01-29 10:05:05.93	329.15	22.93	-45.5	-60.2	3.6	1.51e+00	0	30	104	0	60	41350
2026-01-29 10:05:06.91	329.29	22.74	-45.5	-60.2	3.6	1.51e+00	0	31	104	0	60	41458
2026-01-29 10:05:07.89	329.42	22.55	-45.4	-60.2	3.6	1.51e+00	0	31	104	0	60	41556
2026-01-29 10:05:08.87	329.55	22.36	-45.5	-60.2	3.5	1.51e+00	0	31	104	0	60	41375
2026-01-29 10:05:09.84	329.68	22.18	-45.5	-60.2	3.6	1.51e+00	0	31	104	0	60	41408
2026-01-29 10:05:10.82	329.81	21.99	-45.5	-60.2	3.6	1.51e+00	0	31	104	0	60	41646
2026-01-29 10:05:11.80	329.93	21.81	-45.4	-60.2	3.6	1.51e+00	0	31	104	0	60	41594
2026-01-29 10:05:12.77	330.06	21.63	-45.4	-60.2	3.6	1.51e+00	0	31	104	0	60	41305
2026-01-29 10:05:13.75	330.18	21.45	-45.5	-60.2	3.6	1.51e+00	0	31	104	0	60	41609
2026-01-29 10:05:14.73	330.30	21.27	-45.5	-60.2	3.6	1.51e+00	0	31	104	0	60	41633
2026-01-29 10:05:15.70	330.42	21.10	-45.4	-60.2	3.6	1.51e+00	0	31	104	0	60	41403
2026-01-29 10:05:16.69	330.54	20.92	-45.2	-60.1	3.6	1.51e+00	0	31	104	0	60	41039
2026-01-29 10:05:17.66	330.65	20.75	-45.5	-60.1	3.6	1.51e+00	0	31	104	0	60	41246
2026-01-29 10:05:18.64	330.77	20.57	-45.4	-60.2	3.6	1.51e+00	0	31	104	0	60	41316
2026-01-29 10:05:19.62	330.88	20.40	-45.4	-60.2	3.6	1.51e+00	0	31	104	0	60	41393
2026-01-29 10:05:20.60	330.99	20.23	-45.4	-60.2	3.6	1.51e+00	0	31	104	0	60	41294
2026-01-29 10:05:21.58	331.10	20.06	-45.3	-60.2	3.6	1.51e+00	0	31	104	0	60	41303
2026-01-29 10:05:22.55	331.21	19.90	-45.4	-60.2	3.5	1.51e+00	0	31	104	0	60	41335
2026-01-29 10:05:23.53	331.32	19.73	-45.3	-60.1	3.6	1.51e+00	0	31	104	0	60	41251
2026-01-29 10:05:24.51	331.43	19.57	-45.3	-60.1	3.6	1.51e+00	0	31	104	0	60	40947
2026-01-29 10:05:25.48	331.53	19.41	-45.3	-60.1	3.6	1.51e+00	0	31	104	0	60	41100
2026-01-29 10:05:26.46	331.64	19.25	-45.3	-60.2	3.6	1.51e+00	0	31	104	0	60	41324
2026-01-29 10:05:27.44	331.74	19.08	-45.3	-60.2	3.6	1.51e+00	0	31	104	0	60	41345
2026-01-29 10:05:28.42	331.84	18.92	-45.2	-60.1	3.6	1.51e+00	0	31	104	0	60	41000
2026-01-29 10:05:29.39	331.94	18.77	-45.2	-60.1	3.6	1.51e+00	0	31	104	0	60	41004
2026-01-29 10:05:30.37	332.04	18.61	-45.3	-60.1	3.6	1.51e+00	0	31	104	0	60	40864
2026-01-29 10:05:31.35	332.14	18.45	-45.3	-60.1	3.6	1.51e+00	0	31	104	0	60	40895
2026-01-29 10:05:32.32	332.24	18.30	-45.3	-60.1	3.6	1.51e+00	0	31	104	0	60	40843
2026-01-29 10:05:33.30	332.34	18.15	-45.2	-60.0	3.6	1.51e+00	0	31	104	0	60	40575
2026-01-29 10:05:34.27	332.43	18.00	-45.3	-60.1	3.6	1.51e+00	0	31	104	0	60	40809
2026-01-29 10:05:35.25	332.53	17.85	-45.3	-60.1	3.5	1.51e+00	0	31	104	0	60	40986
2026-01-29 10:05:36.22	332.62	17.70	-45.2	-60.0	3.6	1.51e+00	0	31	104	0	60	40649
2026-01-29 10:05:37.20	332.71	17.55	-45.2	-60.0	3.6	1.51e+00	0	31	104	0	60	40733
2026-01-29 10:05:38.18	332.80	17.40	-45.0	-60.0	3.6	1.51e+00	0	31	104	0	60	40768
2026-01-29 10:05:39.16	332.89	17.25	-45.3	-60.1	3.6	1.51e+00	0	31	104	0	60	40862
2026-01-29 10:05:40.14	332.98	17.11	-45.2	-60.1	3.6	1.51e+00	0	31	104	0	60	41024
2026-01-29 10:05:41.12	333.07	16.96	-45.2	-60.0	3.6	1.51e+00	0	30	104	0	60	40502
2026-01-29 10:05:42.09	333.16	16.82	-45.2	-60.1	3.6	1.51e+00	0	31	104	0	60	40852
2026-01-29 10:05:43.07	333.24	16.68	-45.2	-60.1	3.6	1.51e+00	0	31	104	0	60	40825
2026-01-29 10:05:44.05	333.33	16.54	-45.2	-60.0	3.6	1.51e+00	0	31	104	0	60	40586
2026-01-29 10:05:45.03	333.41	16.39	-45.2	-60.0	3.6	1.51e+00	0	31	104	0	60	40489
2026-01-29 10:05:46.01	333.50	16.25	-45.2	-60.0	3.6	1.51e+00	0	31	104	0	60	40726
2026-01-29 10:05:46.99	333.58	16.12	-45.1	-60.0	3.6	1.51e+00	0	30	104	0	60	40776
2026-01-29 10:05:47.97	333.66	15.98	-45.3	-60.1	3.6	1.51e+00	0	30	104	0	60	40826
2026-01-29 10:05:48.95	333.75	15.84	-45.1	-60.0	3.6	1.51e+00	0	31	104	0	60	40579
2026-01-29 10:05:49.93	333.83	15.71	-45.2	-60.0	3.6	1.51e+00	0	31	104	0	60	40565
2026-01-29 10:05:50.90	333.91	15.57	-45.1	-60.0	3.6	1.51e+00	0	31	104	0	60	40710
2026-01-29 10:05:51.88	333.98	15.44	-45.3	-60.0	3.6	1.51e+00	0	31	104	0	60	40659
2026-01-29 10:05:52.85	334.06	15.31	-45.3	-60.0	3.6	1.51e+00	0	30	104	0	60	40667
2026-01-29 10:05:53.83	334.14	15.17	-45.2	-60.0	3.6	1.51e+00	0	31	104	0	60	40403
2026-01-29 10:05:54.81	334.22	15.04	-45.1	-60.1	3.6	1.51e+00	0	31	104	0	60	40798
2026-01-29 10:05:55.78	334.29	14.91	-45.2	-60.0	3.6	1.51e+00	0	31	104	0	60	40479
2026-01-29 10:05:56.76	334.37	14.78	-45.2	-59.9	3.6	1.51e+00	0	31	104	0	60	40284
2026-01-29 10:05:57.74	334.44	14.65	-45.1	-60.0	3.6	1.51e+00	0	30	104	0	60	40629
2026-01-29 10:05:58.72	334.52	14.53	-45.2	-60.0	3.6	1.51e+00	0	31	104	0	60	40424
2026-01-29 10:05:59.69	334.59	14.40	-45.0	-60.0	3.6	1.51e+00	0	31	104	0	60	40521
2026-01-29 10:06:00.67	334.66	14.27	-45.2	-60.0	3.6	1.51e+00	0	31	104	0	60	40452
2026-01-29 10:06:01.65	334.73	14.15	-45.0	-60.0	3.6	1.51e+00	0	30	104	0	60	40541
2026-01-29 10:06:02.62	334.80	14.03	-45.0	-60.0	3.6	1.51e+00	0	30	104	0	60	40347
2026-01-29 10:06:03.60	334.87	13.90	-45.1	-60.0	3.6	1.51e+00	0	31	104	0	60	40458
2026-01-29 10:06:04.58	334.94	13.78	-44.8	-59.9	3.6	1.51e+00	0	30	104	0	60	40240
2026-01-29 10:06:05.56	335.01	13.66	-45.0	-60.0	3.6	1.51e+00	0	31	104	0	60	40395
2026-01-29 10:06:06.54	335.08	13.54	-44.8	-60.0	3.6	1.51e+00	0	31	104	0	60	40570
2026-01-29 10:06:07.52	335.15	13.41	-45.0	-60.0	3.6	1.51e+00	0	31	104	0	60	40386
2026-01-29 10:06:08.50	335.22	13.29	-45.0	-59.9	3.6	1.51e+00	0	31	104	0	60	40082
2026-01-29 10:06:09.47	335.28	13.18	-44.9	-59.9	3.6	1.51e+00	0	31	104	0	60	40198
2026-01-29 10:06:10.45	335.35	13.06	-45.0	-59.9	3.6	1.51e+00	0	31	104	0	60	40209
2026-01-29 10:06:11.42	335.41	12.94	-45.1	-59.9	3.6	1.51e+00	0	31	104	0	60	40118
2026-01-29 10:06:12.40	335.48	12.82	-44.9	-59.9	3.6	1.51e+00	0	31	104	0	60	40176
2026-01-29 10:06:13.39	335.54	12.71	-45.0	-59.9	3.6	1.51e+00	0	31	104	0	60	40176
2026-01-29 10:06:14.36	335.61	12.59	-44.9	-59.9	3.6	1.51e+00	0	31	104	0	60	40205
2026-01-29 10:06:15.35	335.67	12.48	-45.1	-60.0	3.6	1.51e+00	0	31	104	0	60	40352
2026-01-29 10:06:16.33	335.73	12.36	-44.8	-59.9	3.6	1.51e+00	0	31	104	0	60	40083
2026-01-29 10:06:17.31	335.79	12.25	-44.8	-59.8	3.6	1.51e+00	0	31	104	0	60	39831
2026-01-29 10:06:18.28	335.85	12.14	-45.0	-59.9	3.6	1.51e+00	0	31	104	0	60	40173
2026-01-29 10:06:19.26	335.92	12.02	-45.1	-59.9	3.6	1.51e+00	0	31	104	0	60	39923
2026-01-29 10:06:20.24	335.98	11.91	-45.0	-59.9	3.6	1.51e+00	0	31	104	0	60	40159
2026-01-29 10:06:21.23	336.04	11.80	-44.7	-59.9	3.6	1.51e+00	0	31	104	0	60	40013
2026-01-29 10:06:22.21	336.10	11.69	-45.1	-59.9	3.6	1.51e+00	0	31	104	0	60	40061
2026-01-29 10:06:23.18	336.15	11.58	-45.1	-59.9	3.6	1.51e+00	0	31	104	0	60	40133
2026-01-29 10:06:24.16	336.21	11.47	-45.1	-59.9	3.6	1.51e+00	0	31	104	0	60	40106
2026-01-29 10:06:25.15	336.27	11.36	-44.7	-59.9	3.6	1.51e+00	0	31	104	0	60	40151
2026-01-29 10:06:26.12	336.33	11.26	-45.1	-59.8	3.6	1.51e+00	0	31	104	0	60	39830
2026-01-29 10:06:27.10	336.39	11.15	-45.0	-59.9	3.6	1.51e+00	0	31	104	0	60	40323
2026-01-29 10:06:28.08	336.44	11.04	-45.1	-59.9	3.6	1.51e+00	0	31	104	0	60	39975
2026-01-29 10:06:29.06	336.50	10.94	-45.1	-59.9	3.6	1.51e+00	0	31	104	0	60	39974
2026-01-29 10:06:30.04	336.55	10.83	-45.0	-59.8	3.6	1.51e+00	0	31	104	0	60	39816
2026-01-29 10:06:31.02	336.61	10.73	-45.1	-59.9	3.6	1.51e+00	0	31	104	0	60	40054
2026-01-29 10:06:32.00	336.66	10.62	-45.0	-59.8	3.6	1.51e+00	0	31	104	0	60	39746
2026-01-29 10:06:32.98	336.72	10.52	-45.1	-59.9	3.6	1.51e+00	0	30	104	0	60	40088
2026-01-29 10:06:33.95	336.77	10.42	-44.9	-59.9	3.6	1.51e+00	0	31	104	0	60	40134
2026-01-29 10:06:34.94	336.83	10.31	-45.2	-59.9	3.6	1.51e+00	0	31	104	0	60	40115
2026-01-29 10:06:35.92	336.88	10.21	-45.0	-59.9	3.6	1.51e+00	0	31	104	0	60	40074
2026-01-29 10:06:36.90	336.93	10.11	-45.1	-59.9	3.6	1.51e+00	0	31	104	0	60	39977
2026-01-29 10:06:37.87	336.98	10.01	-45.0	-59.9	3.6	1.51e+00	0	31	104	0	60	39975
2026-01-29 10:06:38.84	337.04	9.91	-45.0	-59.8	3.6	1.51e+00	0	31	104	0	60	39830
2026-01-29 10:06:39.83	337.09	9.81	-45.1	-59.8	3.6	1.51e+00	0	31	104	0	60	39696
2026-01-29 10:06:40.80	337.14	9.71	-45.0	-59.8	3.6	1.51e+00	0	31	104	0	60	39741
2026-01-29 10:06:41.78	337.19	9.61	-45.0	-59.9	3.6	1.51e+00	0	31	104	0	60	39901
2026-01-29 10:06:42.76	337.24	9.51	-45.0	-59.8	3.6	1.51e+00	0	31	104	0	60	39817
2026-01-29 10:06:43.74	337.29	9.41	-45.0	-59.8	3.6	1.51e+00	0	31	104	0	60	39574
2026-01-29 10:06:44.72	337.34	9.32	-45.1	-59.8	3.6	1.51e+00	0	31	104	0	60	39646
2026-01-29 10:06:45.70	337.39	9.22	-45.0	-59.8	3.6	1.51e+00	0	31	104	0	60	39589
2026-01-29 10:06:46.68	337.44	9.12	-45.1	-59.8	3.6	1.51e+00	0	31	104	0	60	39624
2026-01-29 10:06:47.66	337.48	9.03	-45.0	-59.8	3.6	1.51e+00	0	31	104	0	60	39478
2026-01-29 10:06:48.64	337.53	8.93	-45.0	-59.8	3.6	1.51e+00	0	31	104	0	60	39614
2026-01-29 10:06:49.61	337.58	8.84	-45.0	-59.8	3.6	1.51e+00	0	31	104	0	60	39462
2026-01-29 10:06:50.59	337.63	8.74	-45.0	-59.8	3.6	1.51e+00	0	31	104	0	60	39514
2026-01-29 10:06:51.56	337.67	8.65	-45.0	-59.8	3.6	1.51e+00	0	31	104	0	60	39551
2026-01-29 10:06:52.54	337.72	8.56	-45.0	-59.7	3.6	1.51e+00	0	31	104	0	60	39167
2026-01-29 10:06:53.52	337.77	8.46	-45.0	-59.8	3.6	1.51e+00	0	31	104	0	60	39474
2026-01-29 10:06:54.50	337.81	8.37	-45.0	-59.7	3.6	1.51e+00	0	31	104	0	60	39372
2026-01-29 10:06:55.48	337.86	8.28	-45.0	-59.8	3.6	1.51e+00	0	31	104	0	60	39434
2026-01-29 10:06:56.46	337.90	8.19	-44.9	-59.7	3.6	1.51e+00	0	31	104	0	60	39343
2026-01-29 10:06:57.44	337.95	8.10	-45.0	-59.8	3.6	1.51e+00	0	31	104	0	60	39417
2026-01-29 10:06:58.42	337.99	8.00	-44.9	-59.7	3.6	1.51e+00	0	31	104	0	60	39217
2026-01-29 10:06:59.40	338.04	7.91	-44.9	-59.7	3.6	1.51e+00	0	31	104	0	60	39361
2026-01-29 10:07:00.37	338.08	7.82	-44.9	-59.7	3.6	1.51e+00	0	31	104	0	60	39154
2026-01-29 10:07:01.35	338.13	7.73	-44.9	-59.7	3.6	1.51e+00	0	31	104	0	60	39378
2026-01-29 10:07:02.33	338.17	7.65	-44.9	-59.7	3.5	1.51e+00	0	31	104	0	60	38986
2026-01-29 10:07:03.31	338.21	7.56	-44.9	-59.7	3.6	1.51e+00	0	31	104	0	60	39284
2026-01-29 10:07:04.29	338.26	7.47	-44.8	-59.6	3.6	1.51e+00	0	31	104	0	60	38606
2026-01-29 10:07:05.27	338.30	7.38	-44.7	-59.7	3.6	1.51e+00	0	31	104	0	60	39178
2026-01-29 10:07:06.25	338.34	7.29	-44.7	-59.5	3.6	1.51e+00	0	31	104	0	60	38445
2026-01-29 10:07:07.22	338.38	7.21	-44.9	-59.7	3.6	1.51e+00	0	31	104	0	60	39085
2026-01-29 10:07:08.20	338.42	7.12	-44.6	-59.5	3.6	1.51e+00	0	31	104	0	60	38211
2026-01-29 10:07:09.18	338.47	7.03	-44.8	-59.6	3.6	1.51e+00	0	31	104	0	60	38827
2026-01-29 10:07:10.15	338.51	6.95	-44.7	-59.4	3.6	1.51e+00	0	31	104	0	60	38046
2026-01-29 10:07:11.13	338.55	6.86	-44.8	-59.6	3.6	1.51e+00	0	31	104	0	60	38591
2026-01-29 10:07:12.11	338.59	6.78	-44.7	-59.4	3.6	1.51e+00	0	31	104	0	60	37987
2026-01-29 10:07:13.09	338.63	6.69	-44.8	-59.6	3.6	1.51e+00	0	31	104	0	60	38633
2026-01-29 10:07:14.06	338.67	6.61	-44.6	-59.4	3.6	1.51e+00	0	31	104	0	60	37760
2026-01-29 10:07:15.04	338.71	6.52	-44.8	-59.6	3.6	1.51e+00	0	31	104	0	60	38666
2026-01-29 10:07:16.02	338.75	6.44	-44.5	-59.2	3.6	1.51e+00	0	31	104	0	60	37113
2026-01-29 10:07:17.00	338.79	6.36	-44.6	-59.5	3.6	1.51e+00	0	31	104	0	60	38278
2026-01-29 10:07:17.97	338.83	6.27	-44.4	-59.2	3.6	1.51e+00	0	31	104	0	60	37107
2026-01-29 10:07:18.95	338.87	6.19	-44.7	-59.4	3.6	1.51e+00	0	31	104	0	60	37962
2026-01-29 10:07:19.92	338.90	6.11	-44.0	-58.8	3.6	1.51e+00	0	31	104	0	60	35409
2026-01-29 10:07:20.90	338.94	6.03	-44.7	-59.4	3.6	1.51e+00	0	30	104	0	60	37975
2026-01-29 10:07:21.88	338.98	5.94	-43.8	-58.7	3.6	1.51e+00	0	31	104	0	60	34754
2026-01-29 10:07:22.85	339.02	5.86	-43.3	-58.1	3.6	1.51e+00	0	31	104	0	60	32759
2026-01-29 10:07:23.83	339.06	5.78	-42.7	-57.4	3.6	1.51e+00	0	31	104	0	60	30164
2026-01-29 10:07:24.81	339.09	5.70	-41.2	-55.9	3.6	1.51e+00	0	31	104	0	58	28525
2026-01-29 10:07:25.79	339.13	5.62	-42.5	-57.3	3.6	1.51e+00	0	31	104	0	58	33299
2026-01-29 10:07:26.77	339.17	5.54	-44.3	-59.1	3.6	1.51e+00	0	31	104	0	60	36579
2026-01-29 10:07:27.75	339.20	5.46	-42.4	-57.1	3.6	1.51e+00	0	31	104	0	60	28966
2026-01-29 10:07:28.73	339.24	5.38	-42.9	-57.6	3.6	1.51e+00	0	31	104	0	60	30802
2026-01-29 10:07:29.71	339.28	5.30	-42.0	-56.8	3.6	1.51e+00	0	31	104	0	60	27954
2026-01-29 10:07:30.68	339.31	5.22	-41.5	-56.3	3.6	1.51e+00	0	31	104	0	58	29598
2026-01-29 10:07:31.66	339.35	5.14	-41.3	-56.0	3.6	1.51e+00	0	31	104	0	58	28789
2026-01-29 10:07:32.64	339.39	5.07	-41.2	-55.8	3.6	1.51e+00	0	31	104	0	58	28076
2026-01-29 10:07:33.61	339.42	4.99	-41.2	-55.9	3.6	1.51e+00	0	31	104	0	58	28441
2026-01-29 10:07:34.59	339.46	4.91	-42.5	-57.2	3.6	1.51e+00	0	31	104	0	58	33105
2026-01-29 10:07:35.57	339.49	4.83	-41.8	-56.6	3.6	1.51e+00	0	31	104	0	60	27335
2026-01-29 10:07:36.55	339.53	4.76	-41.6	-56.3	3.6	1.51e+00	0	31	104	0	58	29875
2026-01-29 10:07:37.53	339.56	4.68	-41.5	-56.2	3.6	1.51e+00	0	31	104	0	58	29393
2026-01-29 10:07:38.50	339.59	4.60	-41.3	-55.9	3.6	1.51e+00	0	31	104	0	58	28528
2026-01-29 10:07:39.48	339.63	4.53	-41.2	-55.9	3.6	1.51e+00	0	31	104	0	58	28346
2026-01-29 10:07:40.46	339.66	4.45	-41.1	-55.9	3.6	1.51e+00	0	31	104	0	58	28236
2026-01-29 10:07:41.44	339.70	4.38	-41.1	-55.8	3.6	1.51e+00	0	31	104	0	58	28131
2026-01-29 10:07:42.43	339.73	4.30	-41.2	-55.9	3.6	1.51e+00	0	31	104	0	58	28264
2026-01-29 10:07:43.41	339.76	4.22	-41.3	-56.0	3.6	1.51e+00	0	31	104	0	58	28650
2026-01-29 10:07:44.39	339.80	4.15	-41.3	-56.0	3.6	1.51e+00	0	31	104	0	58	28659
2026-01-29 10:07:45.36	339.83	4.08	-41.3	-56.0	3.6	1.51e+00	0	31	104	0	58	28863
2026-01-29 10:07:46.34	339.86	4.00	-41.1	-55.9	3.6	1.51e+00	0	31	104	0	58	28277
2026-01-29 10:07:47.32	339.90	3.93	-41.1	-55.8	3.6	1.51e+00	0	31	104	0	58	28068
2026-01-29 10:07:48.30	339.93	3.85	-41.0	-55.8	3.6	1.51e+00	0	31	104	0	58	28109
2026-01-29 10:07:49.28	339.96	3.78	-41.1	-55.8	3.6	1.51e+00	0	31	104	0	58	27973
2026-01-29 10:07:50.26	339.99	3.71	-41.1	-55.9	3.6	1.51e+00	0	31	104	0	58	28270
2026-01-29 10:07:51.23	340.03	3.63	-41.2	-55.9	3.6	1.51e+00	0	31	104	0	58	28286
2026-01-29 10:07:52.21	340.06	3.56	-41.2	-55.9	3.6	1.51e+00	0	31	104	0	58	28293
2026-01-29 10:07:53.19	340.09	3.49	-41.3	-56.0	3.6	1.51e+00	0	31	104	0	58	28783
2026-01-29 10:07:54.16	340.12	3.42	-41.2	-55.9	3.6	1.51e+00	0	31	104	0	58	28415
2026-01-29 10:07:55.14	340.15	3.34	-41.3	-56.0	3.6	1.51e+00	0	30	104	0	58	28659
2026-01-29 10:07:56.12	340.18	3.27	-41.2	-55.9	3.6	1.51e+00	0	31	104	0	58	28462
2026-01-29 10:07:57.10	340.21	3.20	-41.3	-56.0	3.6	1.51e+00	0	31	104	0	58	28751
2026-01-29 10:07:58.07	340.24	3.13	-41.1	-55.8	3.6	1.51e+00	0	31	104	0	58	28147
2026-01-29 10:07:59.05	340.27	3.06	-41.3	-56.0	3.6	1.51e+00	0	31	104	0	58	28811
2026-01-29 10:08:00.03	340.31	2.99	-42.2	-56.9	3.6	1.51e+00	0	31	104	0	58	31793
2026-01-29 10:08:01.00	340.34	2.92	-44.7	-59.5	3.6	1.51e+00	0	31	104	0	60	38359
2026-01-29 10:08:01.98	340.37	2.85	-45.0	-59.9	3.6	1.51e+00	0	31	104	0	60	39959
2026-01-29 10:08:02.96	340.40	2.78	-45.2	-60.0	3.6	1.51e+00	0	31	104	0	60	40643
2026-01-29 10:08:03.95	340.43	2.71	-45.4	-60.2	3.6	1.51e+00	0	31	104	0	60	41318
2026-01-29 10:08:04.92	340.46	2.64	-45.4	-60.3	3.6	1.51e+00	0	31	104	0	60	41925
2026-01-29 10:08:05.91	340.49	2.57	-45.5	-60.4	3.6	1.51e+00	0	31	104	0	60	42435
2026-01-29 10:08:06.88	340.51	2.50	-45.8	-60.5	3.6	1.51e+00	0	31	104	0	60	42782
2026-01-29 10:08:07.86	340.54	2.43	-45.5	-60.5	3.6	1.51e+00	0	31	104	0	60	42755
2026-01-29 10:08:08.83	340.57	2.36	-45.8	-60.5	3.6	1.51e+00	0	31	104	0	60	42891
2026-01-29 10:08:09.81	340.60	2.29	-45.8	-60.5	3.6	1.51e+00	0	31	104	0	60	42914
2026-01-29 10:08:10.78	340.63	2.23	-45.8	-60.6	3.6	1.51e+00	0	31	104	0	60	43391
2026-01-29 10:08:11.76	340.66	2.16	-45.9	-60.7	3.6	1.51e+00	0	31	104	0	60	43827
2026-01-29 10:08:12.74	340.69	2.09	-45.7	-60.5	3.6	1.51e+00	0	31	104	0	60	43082
2026-01-29 10:08:13.72	340.72	2.02	-45.5	-60.5	3.6	1.51e+00	0	31	104	0	60	42807
2026-01-29 10:08:14.69	340.74	1.96	-45.5	-60.4	3.6	1.51e+00	0	31	104	0	60	42420
2026-01-29 10:08:15.67	340.77	1.89	-45.8	-60.6	3.6	1.51e+00	0	31	104	0	60	43321
2026-01-29 10:08:16.65	340.80	1.82	-45.5	-60.3	3.6	1.51e+00	0	31	104	0	60	41877
2026-01-29 10:08:17.63	340.83	1.75	-45.5	-60.3	3.6	1.51e+00	0	31	104	0	60	41782
2026-01-29 10:08:18.60	340.86	1.69	-45.5	-60.3	3.6	1.51e+00	0	31	104	0	60	41817
2026-01-29 10:08:19.58	340.88	1.62	-45.5	-60.2	3.6	1.51e+00	0	31	104	0	60	41638
2026-01-29 10:08:20.56	340.91	1.55	-45.4	-60.2	3.6	1.51e+00	0	31	104	0	60	41723
2026-01-29 10:08:21.53	340.94	1.49	-45.4	-60.1	3.6	1.51e+00	0	31	104	0	60	41004
2026-01-29 10:08:22.51	340.96	1.42	-45.7	-60.4	3.6	1.51e+00	0	31	104	0	60	42512
2026-01-29 10:08:23.49	340.99	1.36	-45.6	-60.3	3.6	1.51e+00	0	31	104	0	60	41844
2026-01-29 10:08:24.47	341.02	1.29	-45.5	-60.2	3.6	1.51e+00	0	31	104	0	60	41498
2026-01-29 10:08:25.44	341.05	1.23	-45.5	-60.2	3.6	1.51e+00	0	31	104	0	60	41696
2026-01-29 10:08:26.42	341.07	1.16	-45.5	-60.2	3.5	1.51e+00	0	31	104	0	60	41555
2026-01-29 10:08:27.40	341.10	1.10	-45.5	-60.3	3.6	1.51e+00	0	31	104	0	60	41774
2026-01-29 10:08:28.38	341.13	1.03	-45.5	-60.2	3.6	1.51e+00	0	31	104	0	60	41519
2026-01-29 10:08:29.35	341.15	0.97	-45.5	-60.2	3.6	1.51e+00	0	31	104	0	60	41296
2026-01-29 10:08:30.33	341.18	0.90	-45.5	-60.2	3.6	1.51e+00	0	31	104	0	60	41717
2026-01-29 10:08:31.31	341.20	0.84	-45.5	-60.2	3.6	1.51e+00	0	31	104	0	60	41442
2026-01-29 10:08:32.29	341.23	0.78	-45.4	-60.1	3.6	1.51e+00	0	31	104	0	60	41217
2026-01-29 10:08:33.26	341.26	0.71	-45.4	-60.1	3.6	1.51e+00	0	31	104	0	60	41087
2026-01-29 10:08:34.24	341.28	0.65	-45.4	-60.1	3.6	1.51e+00	0	31	104	0	60	41083
2026-01-29 10:08:35.22	341.31	0.58	-45.4	-60.2	3.6	1.51e+00	0	31	104	0	60	41367
2026-01-29 10:08:36.19	341.33	0.52	-45.4	-60.1	3.6	1.51e+00	0	31	104	0	60	40940
2026-01-29 10:08:37.17	341.36	0.46	-45.5	-60.2	3.6	1.51e+00	0	31	104	0	60	41341
2026-01-29 10:08:38.14	341.38	0.40	-45.4	-60.1	3.6	1.51e+00	0	31	104	0	60	41138
2026-01-29 10:08:39.12	341.41	0.33	-45.4	-60.2	3.6	1.51e+00	0	31	104	0	60	41274
2026-01-29 10:08:40.09	341.43	0.27	-45.4	-60.2	3.6	1.51e+00	0	31	104	0	60	41302
2026-01-29 10:08:41.08	341.46	0.21	-45.5	-60.2	3.6	1.51e+00	0	31	104	0	60	41451
2026-01-29 10:08:42.05	341.48	0.15	-45.4	-60.1	3.6	1.51e+00	0	31	104	0	60	41084
2026-01-29 10:08:43.03	341.51	0.08	-45.5	-60.2	3.6	1.51e+00	0	31	104	0	60	41534
2026-01-29 10:08:44.01	341.53	0.02	-45.5	-60.2	3.6	1.51e+00	0	31	104	0	60	41498

#Closed at: 2026-01-29 10:08:44
#Recorded file [0 MB]: D:/lorett/data/35029_260129_215717.dat