passes_logs/2026/01/29/R4.6S_Anadyr/R4.6S_Anadyr__20260129_193914_FENGYUN_3D_rec.log

#Pass ID: 20260129_193914_FENGYUN 3D
#Satellite: FENGYUN 3D
#Configuration: FENGYUN 3D
#almurnet v.1.7.20251203
#Start time: 2026-01-29 19:39:17

#Version: 2.2.20231116
#Station: R4.6S_Anadyr
#Location: 177.4865 lon 64.73178 lat
#TLE: 1 43010U 17072A   26028.95797775  .00000451  00000+0  23492-3 0  9991
#TLE: 2 43010  98.9958   0.9922 0002505  85.7480 274.3981 14.19703224425237

#Time	Az	El	Level	Level2	SNR	BER	BlckErr	Temp	State	Recorded	gain1	gain2
2026-01-29 19:39:17.58	33.25	0.16	-49.0	-59.6	3.3	8.39e-01	0	31	0	0	60	34572
2026-01-29 19:39:18.58	33.19	0.22	-48.9	-61.1	3.6	8.45e-01	0	31	104	0	60	40883
2026-01-29 19:39:19.59	33.13	0.27	-49.0	-61.1	3.6	8.45e-01	0	31	104	0	60	41133
2026-01-29 19:39:20.60	33.07	0.32	-49.0	-61.1	3.6	8.46e-01	0	31	104	0	60	41122
2026-01-29 19:39:21.61	33.01	0.38	-48.9	-61.2	3.6	8.44e-01	0	31	104	0	60	41294
2026-01-29 19:39:22.62	32.95	0.43	-49.0	-61.1	3.6	8.46e-01	0	31	104	0	60	41214
2026-01-29 19:39:23.63	32.89	0.49	-49.0	-61.2	3.5	8.46e-01	0	31	104	0	60	41375
2026-01-29 19:39:24.64	32.83	0.54	-49.0	-61.1	3.6	8.46e-01	0	31	104	0	60	41206
2026-01-29 19:39:25.65	32.76	0.59	-49.0	-61.1	3.6	8.44e-01	0	31	104	0	60	41173
2026-01-29 19:39:26.66	32.70	0.65	-49.0	-61.1	3.6	8.45e-01	0	31	104	0	60	41137
2026-01-29 19:39:27.67	32.64	0.70	-48.9	-61.1	3.6	8.45e-01	0	31	104	0	60	40853
2026-01-29 19:39:28.68	32.58	0.76	-48.9	-61.1	3.6	8.45e-01	0	31	104	0	60	40819
2026-01-29 19:39:29.69	32.51	0.81	-48.8	-60.9	3.6	8.46e-01	0	31	104	0	60	40209
2026-01-29 19:39:30.70	32.45	0.87	-48.8	-60.9	3.5	8.46e-01	0	31	104	0	60	39956
2026-01-29 19:39:31.71	32.39	0.92	-48.7	-60.8	3.6	8.45e-01	0	31	104	0	60	39851
2026-01-29 19:39:32.72	32.32	0.97	-48.7	-60.8	3.6	8.44e-01	0	31	104	0	60	39681
2026-01-29 19:39:33.73	32.26	1.03	-48.6	-60.8	3.6	8.46e-01	0	31	104	0	60	39545
2026-01-29 19:39:34.74	32.19	1.08	-48.6	-60.7	3.6	8.45e-01	0	31	104	0	60	38980
2026-01-29 19:39:35.76	32.13	1.14	-48.4	-60.5	3.5	8.46e-01	0	31	104	0	60	38387
2026-01-29 19:39:36.76	32.06	1.19	-48.3	-60.4	3.6	8.46e-01	0	31	104	0	60	37791
2026-01-29 19:39:37.78	32.00	1.25	-48.1	-60.2	3.6	8.46e-01	0	31	104	0	60	36999
2026-01-29 19:39:38.78	31.93	1.30	-47.8	-59.9	3.6	8.46e-01	0	31	104	0	60	35909
2026-01-29 19:39:39.80	31.87	1.36	-47.4	-59.5	3.6	8.46e-01	0	31	104	0	60	34028
2026-01-29 19:39:40.81	31.80	1.41	-47.4	-59.4	3.6	8.45e-01	0	31	104	0	60	33826
2026-01-29 19:39:41.82	31.73	1.47	-47.4	-59.4	3.6	8.46e-01	0	31	104	0	60	33645
2026-01-29 19:39:42.83	31.67	1.52	-47.4	-59.4	3.6	8.46e-01	0	31	104	0	60	33703
2026-01-29 19:39:43.84	31.60	1.58	-47.4	-59.5	3.6	8.44e-01	0	32	104	0	60	34081
2026-01-29 19:39:44.85	31.53	1.64	-47.4	-59.5	3.6	8.45e-01	0	32	104	0	60	33979
2026-01-29 19:39:45.86	31.47	1.69	-47.4	-59.5	3.6	8.46e-01	0	32	104	0	60	34070
2026-01-29 19:39:46.87	31.40	1.75	-47.4	-59.5	3.6	8.45e-01	0	32	104	0	60	34202
2026-01-29 19:39:47.88	31.33	1.80	-47.4	-59.5	3.6	8.44e-01	0	32	104	0	60	34241
2026-01-29 19:39:48.89	31.26	1.86	-47.4	-59.5	3.6	8.46e-01	0	32	104	0	60	34080
2026-01-29 19:39:49.90	31.19	1.91	-47.4	-59.4	3.6	8.44e-01	0	32	104	0	60	33764
2026-01-29 19:39:50.91	31.13	1.97	-47.4	-59.4	3.6	8.46e-01	0	32	104	0	60	33545
2026-01-29 19:39:51.92	31.06	2.02	-47.4	-59.2	3.6	8.45e-01	0	32	104	0	60	33043
2026-01-29 19:39:52.93	30.99	2.08	-47.4	-59.2	3.5	8.45e-01	0	31	104	0	60	33030
2026-01-29 19:39:53.94	30.92	2.14	-47.4	-59.3	3.6	8.45e-01	0	31	104	0	60	33271
2026-01-29 19:39:54.95	30.85	2.19	-47.4	-59.4	3.6	8.44e-01	0	32	104	0	60	33835
2026-01-29 19:39:55.96	30.78	2.25	-47.4	-59.5	3.6	8.46e-01	0	32	104	0	60	33953
2026-01-29 19:39:56.98	30.71	2.31	-47.4	-59.4	3.6	8.46e-01	0	32	104	0	60	33851
2026-01-29 19:39:57.99	30.64	2.36	-47.4	-59.3	3.6	8.45e-01	0	32	104	0	60	33498
2026-01-29 19:39:59.00	30.57	2.42	-47.4	-59.4	3.6	8.45e-01	0	32	104	0	60	33636
2026-01-29 19:40:00.00	30.50	2.47	-47.4	-59.4	3.5	8.45e-01	0	32	104	0	60	33825
2026-01-29 19:40:01.01	30.42	2.53	-47.4	-59.5	3.6	8.46e-01	0	32	104	0	60	33974
2026-01-29 19:40:02.02	30.35	2.59	-47.4	-59.1	3.6	8.45e-01	0	32	104	0	60	32636
2026-01-29 19:40:03.03	30.28	2.64	-47.3	-58.8	3.6	8.45e-01	0	32	104	0	60	31565
2026-01-29 19:40:04.04	30.21	2.70	-47.3	-58.4	3.5	8.45e-01	0	32	104	0	60	30135
2026-01-29 19:40:05.05	30.14	2.76	-47.3	-58.5	3.6	8.43e-01	0	32	104	0	60	30322
2026-01-29 19:40:06.06	30.06	2.81	-47.4	-59.3	3.6	8.45e-01	0	32	104	0	60	33471
2026-01-29 19:40:07.07	29.99	2.87	-47.3	-58.3	3.6	8.46e-01	0	32	104	0	60	29612
2026-01-29 19:40:08.08	29.92	2.93	-46.6	-53.4	5.5	8.26e-01	0	32	0	0	60	17000
2026-01-29 19:40:09.09	29.84	2.99	-45.1	-48.6	9.5	3.86e-02	0	32	0	5242880	60	9724
2026-01-29 19:40:10.10	29.77	3.04	-42.8	-44.9	13.5	4.20e-04	0	32	0	10485760	60	6356
2026-01-29 19:40:11.11	29.69	3.10	-41.7	-43.4	15.1	0.00e+00	0	32	0	16777216	58	6009
2026-01-29 19:40:12.12	29.62	3.16	-40.0	-41.3	17.1	0.00e+00	0	32	0	22020096	54	5960
2026-01-29 19:40:13.13	29.54	3.21	-42.7	-44.6	14.0	1.60e-05	0	32	0	28311552	58	6926
2026-01-29 19:40:14.14	29.47	3.27	-41.3	-42.8	16.9	0.00e+00	0	32	0	33554432	54	7048
2026-01-29 19:40:15.15	29.39	3.33	-47.2	-58.6	3.6	8.45e-01	0	32	104	36700160	60	30853
2026-01-29 19:40:16.16	29.32	3.39	-47.1	-55.9	5.0	8.40e-01	0	32	104	36700160	60	22529
2026-01-29 19:40:17.17	29.24	3.44	-41.1	-42.6	15.9	0.00e+00	0	32	0	38797312	54	6897
2026-01-29 19:40:18.18	29.16	3.50	-39.4	-40.5	18.1	0.00e+00	0	32	0	44040192	52	6083
2026-01-29 19:40:19.19	29.09	3.56	-38.5	-39.6	19.0	0.00e+00	0	32	0	50331648	50	6137
2026-01-29 19:40:20.20	29.01	3.62	-37.7	-38.7	20.0	0.00e+00	0	32	0	55574528	50	5555
2026-01-29 19:40:21.21	28.93	3.68	-35.6	-36.4	22.1	0.00e+00	0	32	0	61865984	44	5995
2026-01-29 19:40:22.22	28.85	3.73	-36.8	-37.7	20.9	0.00e+00	0	32	0	67108864	44	6984
2026-01-29 19:40:23.23	28.78	3.79	-36.2	-37.1	21.6	0.00e+00	0	32	0	72351744	46	5779
2026-01-29 19:40:24.24	28.70	3.85	-36.4	-37.3	21.4	0.00e+00	0	32	0	78643200	46	5912
2026-01-29 19:40:25.25	28.62	3.91	-36.1	-36.9	21.6	0.00e+00	0	32	0	83886080	46	5662
2026-01-29 19:40:26.26	28.54	3.97	-35.7	-36.5	22.2	0.00e+00	0	32	0	90177536	44	6075
2026-01-29 19:40:27.27	28.46	4.02	-36.0	-36.8	21.9	0.00e+00	0	32	0	95420416	44	6273
2026-01-29 19:40:28.28	28.38	4.08	-36.3	-37.2	21.4	0.00e+00	0	32	0	101711872	44	6546
2026-01-29 19:40:29.30	28.30	4.14	-36.5	-37.3	21.4	0.00e+00	0	32	0	106954752	44	6681
2026-01-29 19:40:30.31	28.22	4.20	-36.4	-37.2	21.5	0.00e+00	0	32	0	112197632	44	6600
2026-01-29 19:40:31.32	28.14	4.26	-37.1	-38.0	20.7	0.00e+00	0	32	0	118489088	46	6441
2026-01-29 19:40:32.33	28.06	4.32	-37.1	-38.0	20.7	0.00e+00	0	32	0	123731968	46	6394
2026-01-29 19:40:33.33	27.98	4.38	-36.5	-37.4	21.5	0.00e+00	0	32	0	130023424	46	5979
2026-01-29 19:40:34.35	27.89	4.44	-36.4	-37.3	21.6	0.00e+00	0	32	0	135266304	46	5919
2026-01-29 19:40:35.36	27.81	4.49	-36.3	-37.1	21.5	0.00e+00	0	32	0	140509184	46	5821
2026-01-29 19:40:36.37	27.73	4.55	-36.2	-37.0	21.7	0.00e+00	0	32	0	146800640	46	5743
2026-01-29 19:40:37.38	27.65	4.61	-36.4	-37.2	21.6	0.00e+00	0	32	0	152043520	46	5868
2026-01-29 19:40:38.39	27.56	4.67	-36.6	-37.4	21.5	0.00e+00	0	32	0	158334976	46	5999
2026-01-29 19:40:39.40	27.48	4.73	-36.7	-37.6	21.2	0.00e+00	0	32	0	163577856	46	6126
2026-01-29 19:40:40.41	27.39	4.79	-36.0	-36.8	22.0	0.00e+00	0	32	0	169869312	46	5594
2026-01-29 19:40:41.42	27.31	4.85	-35.7	-36.5	22.2	0.00e+00	0	32	0	175112192	44	6083
2026-01-29 19:40:42.43	27.23	4.91	-36.0	-36.8	22.0	0.00e+00	0	32	0	180355072	44	6291
2026-01-29 19:40:43.43	27.14	4.97	-35.7	-36.5	22.3	0.00e+00	0	32	0	186646528	44	6072
2026-01-29 19:40:44.45	27.06	5.03	-35.7	-36.4	22.3	0.00e+00	0	32	0	191889408	44	6009
2026-01-29 19:40:45.46	26.97	5.09	-35.7	-36.4	22.4	0.00e+00	0	32	0	198180864	44	6029
2026-01-29 19:40:46.46	26.88	5.15	-35.9	-36.7	22.1	0.00e+00	0	32	0	203423744	44	6207
2026-01-29 19:40:47.48	26.80	5.21	-35.8	-36.7	22.2	0.00e+00	0	32	0	208666624	44	6174
2026-01-29 19:40:48.49	26.71	5.27	-35.9	-36.8	22.0	0.00e+00	0	32	0	214958080	44	6259
2026-01-29 19:40:49.50	26.62	5.33	-36.0	-36.9	22.0	0.00e+00	0	32	0	220200960	44	6327
2026-01-29 19:40:50.51	26.54	5.39	-36.0	-36.8	22.0	0.00e+00	0	32	0	226492416	44	6291
2026-01-29 19:40:51.52	26.45	5.45	-35.6	-36.4	22.4	0.00e+00	0	32	0	231735296	44	5979
2026-01-29 19:40:52.52	26.36	5.51	-35.7	-36.5	22.5	0.00e+00	0	32	0	236978176	44	6060
2026-01-29 19:40:53.53	26.27	5.57	-35.9	-36.7	22.3	0.00e+00	0	32	0	243269632	44	6184
2026-01-29 19:40:54.54	26.18	5.63	-35.8	-36.6	22.4	0.00e+00	0	32	0	248512512	44	6133
2026-01-29 19:40:55.55	26.09	5.69	-35.7	-36.5	22.4	0.00e+00	0	32	0	254803968	44	6094
2026-01-29 19:40:56.56	26.00	5.75	-36.0	-36.8	22.2	0.00e+00	0	32	0	260046848	44	6285
2026-01-29 19:40:57.57	25.91	5.81	-35.7	-36.4	22.4	0.00e+00	0	32	0	266338304	44	6024
2026-01-29 19:40:58.58	25.82	5.87	-35.8	-36.6	22.3	0.00e+00	0	32	0	271581184	44	6143
2026-01-29 19:40:59.59	25.73	5.93	-35.5	-36.2	22.7	0.00e+00	0	32	0	277872640	44	5892
2026-01-29 19:41:00.60	25.64	5.99	-35.5	-36.3	22.6	0.00e+00	0	32	0	283115520	44	5911
2026-01-29 19:41:01.61	25.55	6.05	-35.4	-36.2	22.7	0.00e+00	0	32	0	288358400	44	5852
2026-01-29 19:41:02.62	25.45	6.11	-35.5	-36.3	22.7	0.00e+00	0	32	0	294649856	44	5904
2026-01-29 19:41:03.63	25.36	6.17	-35.2	-35.9	23.0	0.00e+00	0	32	0	299892736	44	5694
2026-01-29 19:41:04.64	25.27	6.24	-35.3	-36.0	22.9	0.00e+00	0	32	0	306184192	44	5743
2026-01-29 19:41:05.65	25.18	6.30	-35.5	-36.3	22.8	0.00e+00	0	32	0	311427072	44	5897
2026-01-29 19:41:06.66	25.08	6.36	-35.2	-36.0	22.9	0.00e+00	0	32	0	316669952	44	5745
2026-01-29 19:41:07.67	24.99	6.42	-35.2	-36.0	22.9	0.00e+00	0	32	0	322961408	44	5715
2026-01-29 19:41:08.68	24.89	6.48	-35.5	-36.2	22.8	0.00e+00	0	32	0	328204288	44	5890
2026-01-29 19:41:09.69	24.80	6.54	-35.3	-36.0	23.0	0.00e+00	0	32	0	334495744	44	5755
2026-01-29 19:41:10.71	24.70	6.60	-35.2	-36.0	22.9	0.00e+00	0	32	0	339738624	44	5709
2026-01-29 19:41:11.72	24.60	6.67	-35.3	-36.1	23.0	0.00e+00	0	32	0	344981504	44	5799
2026-01-29 19:41:12.73	24.51	6.73	-35.2	-35.9	23.0	0.00e+00	0	32	0	351272960	44	5691
2026-01-29 19:41:13.74	24.41	6.79	-35.4	-36.2	22.8	0.00e+00	0	32	0	356515840	44	5831
2026-01-29 19:41:14.75	24.31	6.85	-35.3	-36.1	22.9	0.00e+00	0	32	0	362807296	44	5779
2026-01-29 19:41:15.76	24.22	6.91	-35.3	-36.1	23.0	0.00e+00	0	32	0	368050176	44	5771
2026-01-29 19:41:16.77	24.12	6.97	-35.1	-35.9	23.1	0.00e+00	0	32	0	374341632	44	5655
2026-01-29 19:41:17.78	24.02	7.04	-35.2	-35.9	23.1	0.00e+00	0	32	0	379584512	44	5674
2026-01-29 19:41:18.79	23.92	7.10	-35.3	-36.1	22.8	0.00e+00	0	32	0	385875968	44	5800
2026-01-29 19:41:19.80	23.82	7.16	-35.1	-35.8	23.2	0.00e+00	0	32	0	391118848	44	5629
2026-01-29 19:41:20.81	23.72	7.22	-35.2	-36.0	23.1	0.00e+00	0	32	0	396361728	44	5729
2026-01-29 19:41:21.82	23.62	7.28	-35.0	-35.8	23.2	0.00e+00	0	32	0	402653184	44	5582
2026-01-29 19:41:22.83	23.52	7.35	-35.0	-35.7	23.3	0.00e+00	0	32	0	407896064	44	5559
2026-01-29 19:41:23.84	23.42	7.41	-34.9	-35.7	23.4	0.00e+00	0	32	0	414187520	44	5521
2026-01-29 19:41:24.85	23.32	7.47	-34.8	-35.5	23.5	0.00e+00	0	32	0	419430400	44	5432
2026-01-29 19:41:25.86	23.22	7.53	-34.8	-35.6	23.4	0.00e+00	0	32	0	424673280	44	5452
2026-01-29 19:41:26.87	23.11	7.60	-34.9	-35.6	23.4	0.00e+00	0	32	0	430964736	44	5480
2026-01-29 19:41:27.88	23.01	7.66	-34.7	-35.4	23.6	0.00e+00	0	32	0	436207616	42	6033
2026-01-29 19:41:28.89	22.91	7.72	-34.8	-35.6	23.5	0.00e+00	0	32	0	442499072	42	6112
2026-01-29 19:41:29.90	22.80	7.78	-34.8	-35.5	23.6	0.00e+00	0	32	0	447741952	42	6101
2026-01-29 19:41:30.91	22.70	7.85	-34.8	-35.5	23.5	0.00e+00	0	32	0	452984832	42	6076
2026-01-29 19:41:31.92	22.59	7.91	-35.1	-35.8	23.3	0.00e+00	0	32	0	459276288	42	6289
2026-01-29 19:41:32.93	22.49	7.97	-34.9	-35.6	23.5	0.00e+00	0	32	0	464519168	42	6146
2026-01-29 19:41:33.95	22.38	8.04	-34.8	-35.6	23.6	0.00e+00	0	32	0	470810624	42	6118
2026-01-29 19:41:34.96	22.27	8.10	-34.8	-35.5	23.6	0.00e+00	0	32	0	476053504	42	6048
2026-01-29 19:41:35.97	22.17	8.16	-35.0	-35.7	23.5	0.00e+00	0	32	0	482344960	42	6201
2026-01-29 19:41:36.98	22.06	8.23	-34.9	-35.7	23.5	0.00e+00	0	32	0	487587840	42	6197
2026-01-29 19:41:37.99	21.95	8.29	-34.9	-35.7	23.7	0.00e+00	0	32	0	493879296	42	6203
2026-01-29 19:41:39.00	21.84	8.35	-34.8	-35.5	23.6	0.00e+00	0	32	0	499122176	42	6076
2026-01-29 19:41:40.01	21.74	8.42	-34.8	-35.5	23.6	0.00e+00	0	32	0	504365056	42	6093
2026-01-29 19:41:41.02	21.63	8.48	-35.0	-35.8	23.5	0.00e+00	0	32	0	510656512	42	6262
2026-01-29 19:41:42.03	21.52	8.54	-35.0	-35.7	23.4	0.00e+00	0	32	0	515899392	42	6232
2026-01-29 19:41:43.04	21.41	8.61	-34.5	-35.3	23.8	0.00e+00	0	32	0	522190848	42	5911
2026-01-29 19:41:44.05	21.30	8.67	-34.6	-35.3	24.0	0.00e+00	0	32	0	527433728	42	5926
2026-01-29 19:41:45.06	21.18	8.73	-34.5	-35.2	24.0	0.00e+00	0	32	0	532676608	42	5886
2026-01-29 19:41:46.07	21.07	8.80	-34.3	-35.0	24.1	0.00e+00	0	32	0	538968064	42	5723
2026-01-29 19:41:47.08	20.96	8.86	-34.3	-35.0	24.2	0.00e+00	0	32	0	544210944	42	5741
2026-01-29 19:41:48.09	20.85	8.92	-34.5	-35.3	24.0	0.00e+00	0	32	0	550502400	42	5899
2026-01-29 19:41:49.10	20.73	8.99	-34.5	-35.3	24.0	0.00e+00	0	32	0	555745280	42	5900
2026-01-29 19:41:50.11	20.62	9.05	-34.6	-35.3	23.9	0.00e+00	0	32	0	560988160	42	5935
2026-01-29 19:41:51.12	20.51	9.12	-34.5	-35.2	24.0	0.00e+00	0	32	0	567279616	42	5860
2026-01-29 19:41:52.13	20.39	9.18	-34.5	-35.3	24.0	0.00e+00	0	32	0	572522496	42	5902
2026-01-29 19:41:53.14	20.28	9.24	-34.7	-35.4	23.8	0.00e+00	0	32	0	578813952	42	6032
2026-01-29 19:41:54.15	20.16	9.31	-34.8	-35.5	23.8	0.00e+00	0	32	0	584056832	42	6096
2026-01-29 19:41:55.16	20.04	9.37	-34.5	-35.3	24.0	0.00e+00	0	32	0	590348288	42	5916
2026-01-29 19:41:56.17	19.93	9.44	-34.5	-35.2	24.0	0.00e+00	0	32	0	595591168	42	5893
2026-01-29 19:41:57.18	19.81	9.50	-34.4	-35.1	24.0	0.00e+00	0	32	0	600834048	42	5820
2026-01-29 19:41:58.19	19.69	9.57	-34.3	-35.0	24.2	0.00e+00	0	32	0	607125504	42	5754
2026-01-29 19:41:59.20	19.57	9.63	-34.3	-35.0	24.2	0.00e+00	0	32	0	612368384	42	5744
2026-01-29 19:42:00.21	19.46	9.69	-34.1	-34.8	24.4	0.00e+00	0	32	0	618659840	42	5595
2026-01-29 19:42:01.22	19.34	9.76	-34.1	-34.8	24.4	0.00e+00	0	32	0	623902720	42	5608
2026-01-29 19:42:02.23	19.22	9.82	-34.1	-34.8	24.5	0.00e+00	0	32	0	629145600	42	5584
2026-01-29 19:42:03.24	19.09	9.89	-34.0	-34.7	24.5	0.00e+00	0	32	0	635437056	42	5516
2026-01-29 19:42:04.25	18.97	9.95	-33.9	-34.6	24.6	0.00e+00	0	32	0	640679936	42	5475
2026-01-29 19:42:05.26	18.85	10.02	-33.8	-34.5	24.7	0.00e+00	0	32	0	646971392	42	5417
2026-01-29 19:42:06.27	18.73	10.08	-33.8	-34.4	24.6	0.00e+00	0	32	0	652214272	40	6033
2026-01-29 19:42:07.28	18.61	10.15	-33.7	-34.4	24.7	0.00e+00	0	32	0	657457152	40	6002
2026-01-29 19:42:08.29	18.48	10.21	-33.8	-34.5	24.7	0.00e+00	0	32	0	663748608	40	6080
2026-01-29 19:42:09.30	18.36	10.28	-33.9	-34.5	24.6	0.00e+00	0	32	0	668991488	40	6101
2026-01-29 19:42:10.31	18.23	10.34	-33.7	-34.4	24.7	0.00e+00	0	32	0	675282944	40	6011
2026-01-29 19:42:11.32	18.11	10.41	-33.7	-34.4	24.7	0.00e+00	0	32	0	680525824	40	5973
2026-01-29 19:42:12.33	17.98	10.47	-33.7	-34.4	24.8	0.00e+00	0	32	0	686817280	40	6022
2026-01-29 19:42:13.34	17.86	10.54	-33.8	-34.5	24.8	0.00e+00	0	32	0	692060160	40	6048
2026-01-29 19:42:14.35	17.73	10.60	-33.7	-34.4	24.8	0.00e+00	0	32	0	698351616	40	6025
2026-01-29 19:42:15.36	17.60	10.67	-33.7	-34.4	24.7	0.00e+00	0	32	0	703594496	40	6019
2026-01-29 19:42:16.37	17.48	10.73	-33.8	-34.5	24.7	0.00e+00	0	32	0	708837376	40	6078
2026-01-29 19:42:17.38	17.35	10.80	-33.8	-34.5	24.7	0.00e+00	0	32	0	715128832	40	6054
2026-01-29 19:42:18.39	17.22	10.86	-34.0	-34.7	24.6	0.00e+00	0	32	0	720371712	40	6180
2026-01-29 19:42:19.40	17.09	10.93	-33.8	-34.5	24.8	0.00e+00	0	32	0	726663168	40	6050
2026-01-29 19:42:20.41	16.96	10.99	-33.6	-34.3	24.9	0.00e+00	0	32	0	731906048	40	5945
2026-01-29 19:42:21.42	16.83	11.06	-33.6	-34.2	25.0	0.00e+00	0	32	0	737148928	40	5885
2026-01-29 19:42:22.43	16.70	11.12	-33.6	-34.3	24.9	0.00e+00	0	32	0	743440384	40	5900
2026-01-29 19:42:23.44	16.56	11.19	-33.6	-34.3	24.9	0.00e+00	0	32	0	748683264	40	5948
2026-01-29 19:42:24.45	16.43	11.25	-33.6	-34.3	24.9	0.00e+00	0	32	0	754974720	40	5905
2026-01-29 19:42:25.46	16.30	11.32	-33.6	-34.3	24.9	0.00e+00	0	32	0	760217600	40	5913
2026-01-29 19:42:26.47	16.16	11.38	-33.6	-34.3	24.9	0.00e+00	0	32	0	765460480	40	5909
2026-01-29 19:42:27.48	16.03	11.45	-33.5	-34.2	25.0	0.00e+00	0	32	0	771751936	40	5880
2026-01-29 19:42:28.49	15.89	11.51	-33.5	-34.2	25.0	0.00e+00	0	32	0	776994816	40	5855
2026-01-29 19:42:29.50	15.76	11.58	-33.3	-34.0	25.2	0.00e+00	0	32	0	783286272	40	5714
2026-01-29 19:42:30.51	15.62	11.64	-33.2	-33.9	25.3	0.00e+00	0	32	0	788529152	40	5669
2026-01-29 19:42:31.52	15.48	11.71	-33.2	-33.8	25.3	0.00e+00	0	32	0	794820608	40	5617
2026-01-29 19:42:32.53	15.35	11.77	-33.2	-33.9	25.3	0.00e+00	0	32	0	800063488	40	5632
2026-01-29 19:42:33.54	15.21	11.84	-33.2	-33.9	25.2	0.00e+00	0	32	0	806354944	40	5642
2026-01-29 19:42:34.55	15.07	11.91	-33.4	-34.1	25.1	0.00e+00	0	32	0	811597824	40	5793
2026-01-29 19:42:35.57	14.93	11.97	-33.2	-33.9	25.3	0.00e+00	0	32	0	816840704	40	5654
2026-01-29 19:42:36.58	14.79	12.04	-33.3	-34.0	25.2	0.00e+00	0	32	0	823132160	40	5697
2026-01-29 19:42:37.59	14.65	12.10	-33.5	-34.1	25.2	0.00e+00	0	32	0	828375040	40	5822
2026-01-29 19:42:38.60	14.51	12.17	-33.3	-34.0	25.2	0.00e+00	0	32	0	834666496	40	5734
2026-01-29 19:42:39.61	14.36	12.23	-33.4	-34.1	25.2	0.00e+00	0	32	0	839909376	40	5793
2026-01-29 19:42:40.62	14.22	12.30	-33.4	-34.1	25.1	0.00e+00	0	32	0	845152256	40	5807
2026-01-29 19:42:41.63	14.08	12.36	-33.3	-34.0	25.2	0.00e+00	0	32	0	851443712	40	5745
2026-01-29 19:42:42.63	13.93	12.43	-33.4	-34.1	25.1	0.00e+00	0	32	0	856686592	40	5788
2026-01-29 19:42:43.65	13.79	12.50	-33.4	-34.1	25.1	0.00e+00	0	32	0	862978048	40	5811
2026-01-29 19:42:44.66	13.64	12.56	-33.4	-34.1	25.1	0.00e+00	0	32	0	868220928	40	5790
2026-01-29 19:42:45.67	13.50	12.63	-33.4	-34.1	25.2	0.00e+00	0	32	0	873463808	40	5807
2026-01-29 19:42:46.68	13.35	12.69	-33.3	-34.0	25.2	0.00e+00	0	32	0	879755264	40	5702
2026-01-29 19:42:47.69	13.20	12.76	-33.4	-34.1	25.3	0.00e+00	0	32	0	884998144	40	5771
2026-01-29 19:42:48.70	13.05	12.82	-33.2	-33.9	25.4	0.00e+00	0	32	0	891289600	40	5646
2026-01-29 19:42:49.71	12.91	12.89	-33.1	-33.7	25.5	0.00e+00	0	32	0	896532480	40	5552
2026-01-29 19:42:50.72	12.76	12.95	-33.2	-33.9	25.4	0.00e+00	0	32	0	902823936	40	5649
2026-01-29 19:42:51.73	12.61	13.02	-33.1	-33.7	25.5	0.00e+00	0	32	0	908066816	40	5561
2026-01-29 19:42:52.74	12.46	13.08	-33.0	-33.7	25.6	0.00e+00	0	32	0	914358272	40	5517
2026-01-29 19:42:53.75	12.30	13.15	-32.9	-33.5	25.7	0.00e+00	0	32	0	919601152	40	5430
2026-01-29 19:42:54.76	12.15	13.21	-32.9	-33.6	25.6	0.00e+00	0	32	0	924844032	40	5457
2026-01-29 19:42:55.77	12.00	13.28	-32.9	-33.5	25.7	0.00e+00	0	32	0	931135488	40	5435
2026-01-29 19:42:56.78	11.85	13.34	-32.8	-33.5	25.7	0.00e+00	0	32	0	936378368	40	5397
2026-01-29 19:42:57.79	11.69	13.41	-32.8	-33.4	25.8	0.00e+00	0	32	0	942669824	38	6012
2026-01-29 19:42:58.79	11.54	13.47	-32.7	-33.3	25.9	0.00e+00	0	32	0	947912704	38	5959
2026-01-29 19:42:59.80	11.38	13.54	-32.6	-33.3	25.9	0.00e+00	0	32	0	953155584	38	5929
2026-01-29 19:43:00.82	11.22	13.60	-32.6	-33.3	25.9	0.00e+00	0	32	0	959447040	38	5920
2026-01-29 19:43:01.83	11.07	13.67	-32.7	-33.4	25.8	0.00e+00	0	32	0	964689920	38	5973
2026-01-29 19:43:02.84	10.91	13.73	-32.9	-33.6	25.8	0.00e+00	0	32	0	970981376	38	6108
2026-01-29 19:43:03.85	10.75	13.80	-32.9	-33.5	25.7	0.00e+00	0	32	0	976224256	38	6099
2026-01-29 19:43:04.86	10.59	13.86	-32.9	-33.5	25.7	0.00e+00	0	32	0	981467136	38	6086
2026-01-29 19:43:05.87	10.43	13.93	-32.7	-33.4	25.8	0.00e+00	0	32	0	987758592	38	5980
2026-01-29 19:43:06.88	10.27	13.99	-32.8	-33.4	25.8	0.00e+00	0	32	0	993001472	38	6027
2026-01-29 19:43:07.89	10.11	14.06	-32.6	-33.3	25.8	0.00e+00	0	32	0	999292928	38	5932
2026-01-29 19:43:08.90	9.95	14.12	-32.7	-33.4	25.8	0.00e+00	0	32	0	1004535808	38	5985
2026-01-29 19:43:09.91	9.79	14.19	-32.8	-33.5	25.8	0.00e+00	0	32	0	1010827264	38	6063
2026-01-29 19:43:10.92	9.62	14.25	-32.7	-33.4	25.8	0.00e+00	0	32	0	1016070144	38	5984
2026-01-29 19:43:11.93	9.46	14.32	-32.7	-33.4	25.8	0.00e+00	0	32	0	1021313024	38	5965
2026-01-29 19:43:12.94	9.29	14.38	-32.9	-33.6	25.7	0.00e+00	0	32	0	1027604480	38	6129
2026-01-29 19:43:13.95	9.13	14.45	-32.7	-33.4	25.9	0.00e+00	0	32	0	1032847360	38	5969
2026-01-29 19:43:14.96	8.96	14.51	-32.8	-33.5	25.7	0.00e+00	0	32	0	1039138816	38	6073
2026-01-29 19:43:15.97	8.79	14.57	-32.9	-33.6	25.6	0.00e+00	0	32	0	1044381696	38	6106
2026-01-29 19:43:16.98	8.63	14.64	-32.9	-33.6	25.7	0.00e+00	0	32	0	1049624576	38	6134
2026-01-29 19:43:17.99	8.46	14.70	-33.0	-33.7	25.6	0.00e+00	0	32	0	1055916032	38	6210
2026-01-29 19:43:19.00	8.29	14.77	-32.8	-33.5	25.8	0.00e+00	0	32	0	1061158912	38	6071
2026-01-29 19:43:20.01	8.12	14.83	-33.0	-33.7	25.7	0.00e+00	0	32	0	1067450368	38	6192
2026-01-29 19:43:21.02	7.95	14.89	-33.0	-33.6	25.6	0.00e+00	0	32	0	1072693248	38	6158
2026-01-29 19:43:22.03	7.78	14.96	-32.7	-33.3	25.9	0.00e+00	0	32	0	1077936128	38	5947
2026-01-29 19:43:23.04	7.60	15.02	-32.6	-33.3	26.0	0.00e+00	0	32	0	1084227584	38	5907
2026-01-29 19:43:24.05	7.43	15.08	-32.5	-33.2	26.0	0.00e+00	0	32	0	1089470464	38	5854
2026-01-29 19:43:25.06	7.26	15.15	-32.6	-33.2	26.0	0.00e+00	0	32	0	1095761920	38	5884
2026-01-29 19:43:26.07	7.08	15.21	-32.6	-33.2	26.0	0.00e+00	0	32	0	1101004800	38	5887
2026-01-29 19:43:27.08	6.91	15.27	-32.5	-33.2	26.1	0.00e+00	0	32	0	1107296256	38	5841
2026-01-29 19:43:28.09	6.73	15.34	-32.5	-33.1	26.1	0.00e+00	0	32	0	1112539136	38	5828
2026-01-29 19:43:29.10	6.55	15.40	-32.3	-32.9	26.3	0.00e+00	0	32	0	1118830592	38	5669
2026-01-29 19:43:30.11	6.38	15.46	-32.2	-32.9	26.3	0.00e+00	0	32	0	1124073472	38	5633
2026-01-29 19:43:31.12	6.20	15.53	-32.3	-33.0	26.3	0.00e+00	0	32	0	1129316352	38	5720
2026-01-29 19:43:32.13	6.02	15.59	-32.3	-32.9	26.2	0.00e+00	0	32	0	1135607808	38	5675
2026-01-29 19:43:33.14	5.84	15.65	-32.4	-33.0	26.2	0.00e+00	0	32	0	1140850688	38	5746
2026-01-29 19:43:34.15	5.66	15.71	-32.4	-33.1	26.1	0.00e+00	0	32	0	1147142144	38	5791
2026-01-29 19:43:35.16	5.48	15.78	-32.5	-33.1	26.1	0.00e+00	0	32	0	1152385024	38	5814
2026-01-29 19:43:36.17	5.29	15.84	-32.5	-33.2	26.1	0.00e+00	0	32	0	1157627904	38	5852
2026-01-29 19:43:37.18	5.11	15.90	-32.4	-33.1	26.1	0.00e+00	0	32	0	1163919360	38	5793
2026-01-29 19:43:38.19	4.93	15.96	-32.4	-33.1	26.2	0.00e+00	0	33	0	1169162240	38	5793
2026-01-29 19:43:39.20	4.74	16.02	-32.4	-33.1	26.1	0.00e+00	0	32	0	1175453696	38	5800
2026-01-29 19:43:40.21	4.56	16.08	-32.4	-33.0	26.2	0.00e+00	0	32	0	1180696576	38	5758
2026-01-29 19:43:41.22	4.37	16.15	-32.4	-33.1	26.2	0.00e+00	0	32	0	1185939456	38	5786
2026-01-29 19:43:42.23	4.19	16.21	-32.2	-32.9	26.3	0.00e+00	0	32	0	1192230912	38	5639
2026-01-29 19:43:43.24	4.00	16.27	-32.2	-32.9	26.4	0.00e+00	0	32	0	1197473792	38	5649
2026-01-29 19:43:44.25	3.81	16.33	-32.3	-32.9	26.4	0.00e+00	0	32	0	1203765248	38	5678
2026-01-29 19:43:45.26	3.62	16.39	-32.3	-33.0	26.2	0.00e+00	0	32	0	1209008128	38	5717
2026-01-29 19:43:46.27	3.43	16.45	-32.2	-32.9	26.4	0.00e+00	0	32	0	1215299584	38	5669
2026-01-29 19:43:47.28	3.24	16.51	-32.4	-33.1	26.2	0.00e+00	0	32	0	1220542464	38	5799
2026-01-29 19:43:48.29	3.05	16.57	-32.3	-32.9	26.4	0.00e+00	0	32	0	1226833920	38	5654
2026-01-29 19:43:49.30	2.86	16.63	-32.3	-33.0	26.3	0.00e+00	0	32	0	1232076800	38	5715
2026-01-29 19:43:50.31	2.66	16.69	-32.2	-32.8	26.4	0.00e+00	0	32	0	1237319680	38	5591
2026-01-29 19:43:51.32	2.47	16.75	-32.4	-33.0	26.3	0.00e+00	0	32	0	1243611136	38	5752
2026-01-29 19:43:52.33	2.27	16.81	-32.2	-32.8	26.4	0.00e+00	0	32	0	1248854016	38	5615
2026-01-29 19:43:53.34	2.08	16.87	-32.2	-32.8	26.4	0.00e+00	0	32	0	1255145472	38	5626
2026-01-29 19:43:54.35	1.88	16.93	-32.2	-32.9	26.4	0.00e+00	0	32	0	1260388352	38	5653
2026-01-29 19:43:55.36	1.69	16.99	-32.4	-33.0	26.3	0.00e+00	0	32	0	1265631232	38	5757
2026-01-29 19:43:56.37	1.49	17.05	-32.5	-33.1	26.1	0.00e+00	0	32	0	1271922688	38	5819
2026-01-29 19:43:57.38	1.29	17.10	-32.4	-33.0	26.3	0.00e+00	0	32	0	1277165568	38	5753
2026-01-29 19:43:58.39	1.09	17.16	-32.1	-32.7	26.5	0.00e+00	0	32	0	1283457024	38	5552
2026-01-29 19:43:59.40	0.89	17.22	-31.7	-32.4	26.8	0.00e+00	0	32	0	1288699904	38	5339
2026-01-29 19:44:00.41	0.69	17.28	-31.7	-32.4	26.8	0.00e+00	0	32	0	1293942784	36	5972
2026-01-29 19:44:01.42	0.49	17.34	-31.7	-32.3	26.8	0.00e+00	0	32	0	1300234240	36	5930
2026-01-29 19:44:02.43	0.29	17.39	-31.8	-32.4	26.7	0.00e+00	0	32	0	1305477120	36	6015
2026-01-29 19:44:03.44	0.08	17.45	-31.7	-32.4	26.8	0.00e+00	0	32	0	1311768576	36	5971
2026-01-29 19:44:04.45	359.88	17.51	-31.8	-32.5	26.6	0.00e+00	0	32	0	1317011456	36	6056
2026-01-29 19:44:05.46	359.67	17.56	-31.9	-32.6	26.6	0.00e+00	0	32	0	1322254336	36	6122
2026-01-29 19:44:06.47	359.47	17.62	-31.9	-32.6	26.5	0.00e+00	0	32	0	1328545792	36	6139
2026-01-29 19:44:07.48	359.26	17.68	-31.9	-32.5	26.7	0.00e+00	0	32	0	1333788672	36	6083
2026-01-29 19:44:08.49	359.05	17.73	-31.9	-32.6	26.7	0.00e+00	0	33	0	1340080128	36	6107
2026-01-29 19:44:09.50	358.85	17.79	-31.7	-32.4	26.7	0.00e+00	0	33	0	1345323008	36	5983
2026-01-29 19:44:10.51	358.64	17.84	-31.8	-32.5	26.7	0.00e+00	0	32	0	1351614464	36	6058
2026-01-29 19:44:11.52	358.43	17.90	-32.1	-32.7	26.5	0.00e+00	0	32	0	1356857344	36	6238
2026-01-29 19:44:12.53	358.22	17.95	-31.9	-32.5	26.6	0.00e+00	0	33	0	1362100224	36	6076
2026-01-29 19:44:13.54	358.01	18.01	-32.0	-32.6	26.6	0.00e+00	0	32	0	1368391680	36	6123
2026-01-29 19:44:14.55	357.80	18.06	-31.9	-32.5	26.7	0.00e+00	0	32	0	1373634560	36	6090
2026-01-29 19:44:15.56	357.58	18.11	-31.7	-32.4	26.8	0.00e+00	0	33	0	1379926016	36	5988
2026-01-29 19:44:16.57	357.37	18.17	-31.6	-32.2	26.9	0.00e+00	0	32	0	1385168896	36	5890
2026-01-29 19:44:17.58	357.16	18.22	-31.5	-32.1	27.0	0.00e+00	0	32	0	1390411776	36	5822
2026-01-29 19:44:18.59	356.94	18.27	-31.5	-32.2	26.9	0.00e+00	0	32	0	1396703232	36	5866
2026-01-29 19:44:19.60	356.73	18.33	-31.4	-32.0	27.0	0.00e+00	0	32	0	1401946112	36	5758
2026-01-29 19:44:20.61	356.51	18.38	-31.3	-31.9	27.1	0.00e+00	0	32	0	1408237568	36	5655
2026-01-29 19:44:21.62	356.29	18.43	-31.3	-31.9	27.2	0.00e+00	0	32	0	1413480448	36	5644
2026-01-29 19:44:22.63	356.07	18.48	-31.3	-32.0	27.1	0.00e+00	0	32	0	1419771904	36	5699
2026-01-29 19:44:23.64	355.86	18.53	-31.4	-32.0	27.0	0.00e+00	0	32	0	1425014784	36	5738
2026-01-29 19:44:24.65	355.64	18.59	-31.3	-32.0	27.2	0.00e+00	0	32	0	1431306240	36	5696
2026-01-29 19:44:25.66	355.42	18.64	-31.3	-31.9	27.2	0.00e+00	0	32	0	1436549120	36	5670
2026-01-29 19:44:26.67	355.20	18.69	-31.3	-31.9	27.1	0.00e+00	0	32	0	1441792000	36	5687
2026-01-29 19:44:27.69	354.97	18.74	-31.2	-31.9	27.2	0.00e+00	0	33	0	1448083456	36	5647
2026-01-29 19:44:28.70	354.75	18.79	-31.5	-32.1	27.0	0.00e+00	0	32	0	1453326336	36	5810
2026-01-29 19:44:29.71	354.53	18.84	-31.5	-32.1	27.1	0.00e+00	0	33	0	1459617792	36	5802
2026-01-29 19:44:30.72	354.30	18.89	-31.6	-32.3	27.0	0.00e+00	0	32	0	1464860672	36	5902
2026-01-29 19:44:31.73	354.08	18.93	-31.3	-31.9	27.2	0.00e+00	0	32	0	1470103552	36	5663
2026-01-29 19:44:32.74	353.85	18.98	-31.2	-31.8	27.3	0.00e+00	0	33	0	1476395008	36	5615
2026-01-29 19:44:33.75	353.63	19.03	-31.2	-31.8	27.3	0.00e+00	0	32	0	1481637888	36	5577
2026-01-29 19:44:34.76	353.40	19.08	-31.0	-31.7	27.4	0.00e+00	0	33	0	1487929344	36	5529
2026-01-29 19:44:35.77	353.17	19.12	-31.1	-31.8	27.3	0.00e+00	0	33	0	1493172224	36	5578
2026-01-29 19:44:36.78	352.95	19.17	-31.2	-31.8	27.3	0.00e+00	0	32	0	1498415104	36	5628
2026-01-29 19:44:37.79	352.72	19.22	-31.3	-31.9	27.2	0.00e+00	0	32	0	1504706560	36	5654
2026-01-29 19:44:38.80	352.49	19.26	-31.2	-31.9	27.2	0.00e+00	0	32	0	1509949440	36	5633
2026-01-29 19:44:39.81	352.26	19.31	-31.1	-31.7	27.4	0.00e+00	0	32	0	1516240896	36	5565
2026-01-29 19:44:40.82	352.03	19.35	-31.2	-31.9	27.3	0.00e+00	0	32	0	1521483776	36	5640
2026-01-29 19:44:41.83	351.79	19.40	-31.0	-31.7	27.4	0.00e+00	0	32	0	1527775232	36	5517
2026-01-29 19:44:42.84	351.56	19.44	-31.1	-31.7	27.4	0.00e+00	0	32	0	1533018112	36	5524
2026-01-29 19:44:43.85	351.33	19.49	-31.2	-31.8	27.3	0.00e+00	0	32	0	1539309568	36	5627
2026-01-29 19:44:44.86	351.10	19.53	-31.3	-32.0	27.2	0.00e+00	0	32	0	1544552448	36	5714
2026-01-29 19:44:45.87	350.86	19.57	-31.3	-32.0	27.2	0.00e+00	0	32	0	1549795328	36	5720
2026-01-29 19:44:46.88	350.63	19.62	-31.6	-32.2	27.1	0.00e+00	0	32	0	1556086784	36	5896
2026-01-29 19:44:47.89	350.39	19.66	-31.4	-32.0	27.2	0.00e+00	0	32	0	1561329664	36	5730
2026-01-29 19:44:48.90	350.15	19.70	-31.3	-31.9	27.2	0.00e+00	0	32	0	1567621120	36	5650
2026-01-29 19:44:49.91	349.92	19.74	-31.3	-32.0	27.2	0.00e+00	0	32	0	1572864000	36	5700
2026-01-29 19:44:50.92	349.68	19.78	-31.4	-32.0	27.2	0.00e+00	0	32	0	1578106880	36	5743
2026-01-29 19:44:51.93	349.44	19.82	-31.5	-32.1	27.1	0.00e+00	0	32	0	1584398336	36	5802
2026-01-29 19:44:52.94	349.20	19.86	-31.5	-32.1	27.1	0.00e+00	0	32	0	1589641216	36	5798
2026-01-29 19:44:53.95	348.96	19.90	-31.5	-32.1	27.2	0.00e+00	0	32	0	1595932672	36	5824
2026-01-29 19:44:54.96	348.72	19.94	-31.6	-32.2	27.0	0.00e+00	0	32	0	1601175552	36	5858
2026-01-29 19:44:55.97	348.48	19.98	-31.4	-32.1	27.1	0.00e+00	0	32	0	1606418432	36	5811
2026-01-29 19:44:56.98	348.24	20.02	-31.5	-32.1	27.1	0.00e+00	0	32	0	1612709888	36	5817
2026-01-29 19:44:57.99	348.00	20.06	-31.4	-32.0	27.1	0.00e+00	0	32	0	1617952768	36	5745
2026-01-29 19:44:59.00	347.76	20.09	-31.4	-32.0	27.2	0.00e+00	0	32	0	1624244224	36	5737
2026-01-29 19:45:00.01	347.51	20.13	-31.2	-31.8	27.3	0.00e+00	0	32	0	1629487104	36	5609
2026-01-29 19:45:01.02	347.27	20.17	-31.0	-31.6	27.5	0.00e+00	0	32	0	1635778560	36	5486
2026-01-29 19:45:02.03	347.03	20.20	-31.1	-31.7	27.4	0.00e+00	0	32	0	1641021440	36	5547
2026-01-29 19:45:03.04	346.78	20.24	-31.0	-31.7	27.4	0.00e+00	0	32	0	1647312896	36	5508
2026-01-29 19:45:04.05	346.54	20.27	-31.2	-31.8	27.4	0.00e+00	0	32	0	1652555776	36	5617
2026-01-29 19:45:05.06	346.29	20.31	-30.8	-31.4	27.5	0.00e+00	0	32	0	1657798656	36	5368
2026-01-29 19:45:06.07	346.04	20.34	-30.6	-31.3	27.7	0.00e+00	0	33	0	1664090112	34	5910
2026-01-29 19:45:07.08	345.80	20.37	-30.6	-31.3	27.8	0.00e+00	0	32	0	1669332992	34	5937
2026-01-29 19:45:08.09	345.55	20.41	-30.6	-31.2	27.8	0.00e+00	0	32	0	1675624448	34	5864
2026-01-29 19:45:09.10	345.30	20.44	-30.6	-31.3	27.8	0.00e+00	0	33	0	1680867328	34	5904
2026-01-29 19:45:10.11	345.05	20.47	-30.6	-31.3	27.8	0.00e+00	0	33	0	1686110208	34	5900
2026-01-29 19:45:11.12	344.80	20.50	-30.7	-31.4	27.7	0.00e+00	0	32	0	1692401664	34	5966
2026-01-29 19:45:12.13	344.55	20.53	-30.7	-31.3	27.7	0.00e+00	0	33	0	1697644544	34	5939
2026-01-29 19:45:13.14	344.30	20.56	-30.6	-31.3	27.7	0.00e+00	0	32	0	1703936000	34	5908
2026-01-29 19:45:14.15	344.05	20.59	-30.7	-31.3	27.6	0.00e+00	0	32	0	1709178880	34	5925
2026-01-29 19:45:15.16	343.80	20.62	-30.7	-31.3	27.8	0.00e+00	0	33	0	1714421760	34	5929
2026-01-29 19:45:16.17	343.55	20.65	-30.6	-31.2	27.7	0.00e+00	0	33	0	1720713216	34	5871
2026-01-29 19:45:17.18	343.30	20.68	-30.6	-31.2	27.7	0.00e+00	0	33	0	1725956096	34	5888
2026-01-29 19:45:18.19	343.04	20.70	-30.7	-31.3	27.7	0.00e+00	0	32	0	1732247552	34	5916
2026-01-29 19:45:19.20	342.79	20.73	-30.7	-31.3	27.6	0.00e+00	0	32	0	1737490432	34	5961
2026-01-29 19:45:20.21	342.54	20.76	-30.9	-31.5	27.5	0.00e+00	0	33	0	1743781888	34	6076
2026-01-29 19:45:21.22	342.28	20.78	-30.9	-31.6	27.4	0.00e+00	0	33	0	1749024768	34	6123
2026-01-29 19:45:22.23	342.03	20.81	-30.9	-31.6	27.6	0.00e+00	0	32	0	1755316224	34	6123
2026-01-29 19:45:23.25	341.77	20.83	-30.7	-31.4	27.7	0.00e+00	0	32	0	1760559104	34	5984
2026-01-29 19:45:24.26	341.52	20.86	-30.8	-31.4	27.6	0.00e+00	0	33	0	1765801984	34	6024
2026-01-29 19:45:25.27	341.26	20.88	-30.7	-31.4	27.7	0.00e+00	0	32	0	1772093440	34	5984
2026-01-29 19:45:26.28	341.01	20.90	-30.9	-31.6	27.5	0.00e+00	0	32	0	1777336320	34	6104
2026-01-29 19:45:27.29	340.75	20.92	-31.0	-31.6	27.4	0.00e+00	0	32	0	1783627776	34	6157
2026-01-29 19:45:28.30	340.49	20.94	-31.1	-31.8	27.4	0.00e+00	0	32	0	1788870656	34	6271
2026-01-29 19:45:29.31	340.24	20.97	-31.1	-31.7	27.3	0.00e+00	0	32	0	1794113536	34	6236
2026-01-29 19:45:30.32	339.98	20.99	-31.1	-31.7	27.3	0.00e+00	0	33	0	1800404992	34	6215
2026-01-29 19:45:31.33	339.72	21.01	-31.1	-31.7	27.4	0.00e+00	0	32	0	1805647872	34	6240
2026-01-29 19:45:32.34	339.46	21.02	-31.1	-31.6	27.4	0.00e+00	0	33	0	1811939328	34	6161
2026-01-29 19:45:33.35	339.20	21.04	-30.9	-31.5	27.5	0.00e+00	0	32	0	1817182208	34	6064
2026-01-29 19:45:34.36	338.94	21.06	-30.8	-31.4	27.6	0.00e+00	0	32	0	1822425088	34	6024
2026-01-29 19:45:35.37	338.69	21.08	-30.8	-31.4	27.6	0.00e+00	0	33	0	1828716544	34	6002
2026-01-29 19:45:36.38	338.43	21.10	-30.9	-31.5	27.5	0.00e+00	0	33	0	1833959424	34	6071
2026-01-29 19:45:37.39	338.17	21.11	-30.8	-31.4	27.5	0.00e+00	0	33	0	1840250880	34	5987
2026-01-29 19:45:38.40	337.91	21.13	-31.1	-31.7	27.4	0.00e+00	0	33	0	1845493760	34	6224
2026-01-29 19:45:39.41	337.65	21.14	-30.9	-31.5	27.5	0.00e+00	0	32	0	1851785216	34	6082
2026-01-29 19:45:40.42	337.39	21.16	-30.8	-31.5	27.5	0.00e+00	0	33	0	1857028096	34	6060
2026-01-29 19:45:41.43	337.13	21.17	-30.8	-31.5	27.6	0.00e+00	0	32	0	1862270976	34	6045
2026-01-29 19:45:42.44	336.87	21.18	-30.7	-31.3	27.7	0.00e+00	0	33	0	1868562432	34	5948
2026-01-29 19:45:43.45	336.60	21.19	-30.7	-31.3	27.6	0.00e+00	0	32	0	1873805312	34	5942
2026-01-29 19:45:44.46	336.34	21.21	-30.7	-31.3	27.7	0.00e+00	0	33	0	1880096768	34	5961
2026-01-29 19:45:45.47	336.08	21.22	-30.7	-31.4	27.8	0.00e+00	0	33	0	1885339648	34	5970
2026-01-29 19:45:46.48	335.82	21.23	-30.6	-31.3	27.8	0.00e+00	0	32	0	1890582528	34	5917
2026-01-29 19:45:47.49	335.56	21.24	-30.6	-31.2	27.8	0.00e+00	0	32	0	1896873984	34	5874
2026-01-29 19:45:48.50	335.30	21.25	-30.6	-31.2	27.8	0.00e+00	0	33	0	1902116864	34	5863
2026-01-29 19:45:49.51	335.03	21.26	-30.7	-31.4	27.7	0.00e+00	0	33	0	1908408320	34	5985
2026-01-29 19:45:50.52	334.77	21.26	-30.8	-31.5	27.5	0.00e+00	0	33	0	1913651200	34	6045
2026-01-29 19:45:51.54	334.51	21.27	-30.9	-31.5	27.5	0.00e+00	0	33	0	1919942656	34	6085
2026-01-29 19:45:52.54	334.25	21.28	-30.9	-31.5	27.6	0.00e+00	0	32	0	1925185536	34	6102
2026-01-29 19:45:53.56	333.98	21.28	-31.0	-31.7	27.4	0.00e+00	0	33	0	1930428416	34	6182
2026-01-29 19:45:54.56	333.72	21.29	-31.1	-31.7	27.4	0.00e+00	0	33	0	1936719872	34	6229
2026-01-29 19:45:55.58	333.46	21.29	-31.2	-31.9	27.2	0.00e+00	0	33	0	1941962752	34	6327
2026-01-29 19:45:56.59	333.19	21.30	-31.2	-31.8	27.3	0.00e+00	0	33	0	1948254208	34	6286
2026-01-29 19:45:57.60	332.93	21.30	-31.1	-31.7	27.4	0.00e+00	0	32	0	1953497088	34	6225
2026-01-29 19:45:58.61	332.67	21.30	-31.1	-31.7	27.4	0.00e+00	0	32	0	1959788544	34	6233
2026-01-29 19:45:59.62	332.40	21.31	-30.9	-31.5	27.6	0.00e+00	0	32	0	1965031424	34	6060
2026-01-29 19:46:00.63	332.14	21.31	-31.1	-31.7	27.4	0.00e+00	0	32	0	1970274304	34	6179
2026-01-29 19:46:01.64	331.88	21.31	-30.8	-31.4	27.6	0.00e+00	0	33	0	1976565760	34	6004
2026-01-29 19:46:02.65	331.62	21.31	-30.8	-31.4	27.7	0.00e+00	0	32	0	1981808640	34	5971
2026-01-29 19:46:03.66	331.35	21.31	-30.7	-31.3	27.6	0.00e+00	0	32	0	1988100096	34	5951
2026-01-29 19:46:04.67	331.09	21.31	-30.7	-31.3	27.7	0.00e+00	0	33	0	1993342976	34	5942
2026-01-29 19:46:05.68	330.83	21.31	-30.8	-31.4	27.7	0.00e+00	0	33	0	1998585856	34	6019
2026-01-29 19:46:06.68	330.57	21.30	-30.7	-31.4	27.7	0.00e+00	0	33	0	2004877312	34	5966
2026-01-29 19:46:07.69	330.30	21.30	-30.8	-31.5	27.6	0.00e+00	0	33	0	2010120192	34	6054
2026-01-29 19:46:08.70	330.04	21.30	-30.8	-31.4	27.6	0.00e+00	0	33	0	2016411648	34	6020
2026-01-29 19:46:09.71	329.78	21.29	-30.8	-31.5	27.6	0.00e+00	0	32	0	2021654528	34	6066
2026-01-29 19:46:10.72	329.51	21.29	-30.8	-31.5	27.5	0.00e+00	0	32	0	2026897408	34	6068
2026-01-29 19:46:11.73	329.25	21.28	-30.9	-31.6	27.5	0.00e+00	0	33	0	2033188864	34	6116
2026-01-29 19:46:12.75	328.99	21.28	-31.0	-31.7	27.4	0.00e+00	0	33	0	2038431744	34	6190
2026-01-29 19:46:13.76	328.72	21.27	-31.0	-31.6	27.4	0.00e+00	0	33	0	2044723200	34	6172
2026-01-29 19:46:14.77	328.46	21.26	-31.0	-31.7	27.4	0.00e+00	0	32	0	2049966080	34	6191
2026-01-29 19:46:15.78	328.20	21.25	-31.0	-31.6	27.3	0.00e+00	0	32	0	2056257536	34	6155
2026-01-29 19:46:16.79	327.94	21.25	-30.9	-31.5	27.4	0.00e+00	0	32	0	2061500416	34	6075
2026-01-29 19:46:17.80	327.67	21.24	-31.1	-31.7	27.4	0.00e+00	0	33	0	2067791872	34	6199
2026-01-29 19:46:18.81	327.41	21.23	-31.0	-31.7	27.4	0.00e+00	0	32	0	2073034752	34	6181
2026-01-29 19:46:19.81	327.15	21.22	-31.1	-31.8	27.3	0.00e+00	0	33	0	2078277632	34	6275
2026-01-29 19:46:20.82	326.89	21.20	-31.0	-31.7	27.4	0.00e+00	0	32	0	2084569088	34	6184
2026-01-29 19:46:21.83	326.63	21.19	-31.1	-31.7	27.4	0.00e+00	0	32	0	2089811968	34	6183
2026-01-29 19:46:22.84	326.37	21.18	-30.9	-31.5	27.6	0.00e+00	0	32	0	2096103424	34	6062
2026-01-29 19:46:23.86	326.11	21.17	-30.9	-31.5	27.5	0.00e+00	0	32	0	2101346304	34	6062
2026-01-29 19:46:24.87	325.85	21.15	-31.0	-31.6	27.5	0.00e+00	0	33	0	2106589184	34	6118
2026-01-29 19:46:25.87	325.59	21.14	-30.9	-31.4	27.6	0.00e+00	0	33	0	2112880640	34	6025
2026-01-29 19:46:26.88	325.33	21.12	-30.8	-31.5	27.6	0.00e+00	0	32	0	2118123520	34	6035
2026-01-29 19:46:27.89	325.07	21.11	-30.8	-31.4	27.7	0.00e+00	0	33	0	2124414976	34	6005
2026-01-29 19:46:28.90	324.81	21.09	-30.8	-31.4	27.5	0.00e+00	0	32	0	2129657856	34	6018
2026-01-29 19:46:29.91	324.55	21.08	-30.8	-31.4	27.6	0.00e+00	0	32	0	2134900736	34	6021
2026-01-29 19:46:30.92	324.29	21.06	-30.8	-31.5	27.6	0.00e+00	0	32	0	2141192192	34	6077
2026-01-29 19:46:31.93	324.03	21.04	-30.9	-31.5	27.6	0.00e+00	0	32	0	2146435072	34	6086
2026-01-29 19:46:32.95	323.77	21.02	-30.9	-31.6	27.5	0.00e+00	0	32	0	2152726528	34	6120
2026-01-29 19:46:33.96	323.51	21.00	-30.8	-31.4	27.7	0.00e+00	0	32	0	2157969408	34	6023
2026-01-29 19:46:34.96	323.26	20.98	-30.8	-31.4	27.7	0.00e+00	0	33	0	2164260864	34	6026
2026-01-29 19:46:35.97	323.00	20.96	-30.7	-31.4	27.7	0.00e+00	0	33	0	2169503744	34	5965
2026-01-29 19:46:36.99	322.74	20.94	-30.8	-31.4	27.7	0.00e+00	0	32	0	2175795200	34	5984
2026-01-29 19:46:37.99	322.49	20.92	-30.7	-31.4	27.7	0.00e+00	0	32	0	2181038080	34	5994
2026-01-29 19:46:39.01	322.23	20.90	-30.7	-31.3	27.7	0.00e+00	0	33	0	2186280960	34	5937
2026-01-29 19:46:40.02	321.97	20.87	-30.7	-31.2	27.8	0.00e+00	0	32	0	2192572416	34	5885
2026-01-29 19:46:41.03	321.71	20.85	-30.7	-31.5	27.7	0.00e+00	0	32	0	2197815296	34	6037
2026-01-29 19:46:42.03	321.46	20.83	-30.6	-31.2	27.8	0.00e+00	0	32	0	2203058176	34	5865
2026-01-29 19:46:43.04	321.21	20.80	-30.6	-31.2	27.8	0.00e+00	0	32	0	2209349632	34	5837
2026-01-29 19:46:44.06	320.95	20.78	-30.5	-31.2	27.9	0.00e+00	0	32	0	2214592512	34	5835
2026-01-29 19:46:45.07	320.70	20.75	-30.7	-31.3	27.7	0.00e+00	0	33	0	2220883968	34	5927
2026-01-29 19:46:46.08	320.44	20.73	-30.7	-31.3	27.7	0.00e+00	0	32	0	2226126848	34	5940
2026-01-29 19:46:47.08	320.19	20.70	-30.8	-31.4	27.6	0.00e+00	0	33	0	2231369728	34	5975
2026-01-29 19:46:48.09	319.94	20.67	-30.8	-31.4	27.7	0.00e+00	0	32	0	2237661184	34	6009
2026-01-29 19:46:49.11	319.68	20.64	-30.8	-31.4	27.6	0.00e+00	0	32	0	2242904064	34	5983
2026-01-29 19:46:50.11	319.43	20.62	-30.7	-31.4	27.7	0.00e+00	0	32	0	2249195520	34	5986
2026-01-29 19:46:51.12	319.18	20.59	-30.7	-31.3	27.8	0.00e+00	0	33	0	2254438400	34	5939
2026-01-29 19:46:52.13	318.93	20.56	-30.9	-31.5	27.7	0.00e+00	0	32	0	2259681280	34	6061
2026-01-29 19:46:53.14	318.68	20.53	-30.8	-31.5	27.6	0.00e+00	0	32	0	2265972736	34	6039
2026-01-29 19:46:54.15	318.43	20.50	-30.9	-31.5	27.6	0.00e+00	0	32	0	2271215616	34	6040
2026-01-29 19:46:55.16	318.18	20.46	-30.9	-31.6	27.6	0.00e+00	0	32	0	2277507072	34	6126
2026-01-29 19:46:56.17	317.93	20.43	-30.8	-31.4	27.7	0.00e+00	0	32	0	2282749952	34	5985
2026-01-29 19:46:57.18	317.69	20.40	-30.7	-31.3	27.7	0.00e+00	0	33	0	2289041408	34	5916
2026-01-29 19:46:58.20	317.44	20.37	-30.5	-31.2	27.8	0.00e+00	0	33	0	2294284288	34	5842
2026-01-29 19:46:59.21	317.19	20.33	-30.6	-31.3	27.8	0.00e+00	0	33	0	2300575744	34	5924
2026-01-29 19:47:00.22	316.94	20.30	-30.7	-31.4	27.7	0.00e+00	0	33	0	2305818624	34	5989
2026-01-29 19:47:01.23	316.70	20.27	-30.9	-31.6	27.6	0.00e+00	0	32	0	2311061504	34	6108
2026-01-29 19:47:02.24	316.45	20.23	-30.9	-31.5	27.6	0.00e+00	0	33	0	2317352960	34	6082
2026-01-29 19:47:03.25	316.20	20.20	-31.0	-31.5	27.5	0.00e+00	0	33	0	2322595840	34	6101
2026-01-29 19:47:04.26	315.96	20.16	-31.2	-31.8	27.3	0.00e+00	0	32	0	2328887296	34	6254
2026-01-29 19:47:05.27	315.72	20.12	-31.0	-31.7	27.6	0.00e+00	0	32	0	2334130176	34	6183
2026-01-29 19:47:06.28	315.47	20.09	-31.1	-31.8	27.5	0.00e+00	0	32	0	2339373056	34	6273
2026-01-29 19:47:07.29	315.23	20.05	-31.3	-31.9	27.3	0.00e+00	0	32	0	2345664512	34	6337
2026-01-29 19:47:08.30	314.99	20.01	-31.5	-32.2	27.1	0.00e+00	0	33	0	2350907392	34	6575
2026-01-29 19:47:09.31	314.75	19.97	-31.4	-32.1	27.1	0.00e+00	0	32	0	2357198848	34	6532
2026-01-29 19:47:10.32	314.51	19.93	-31.4	-32.1	27.0	0.00e+00	0	32	0	2362441728	34	6486
2026-01-29 19:47:11.32	314.27	19.90	-31.2	-31.9	27.3	0.00e+00	0	32	0	2367684608	34	6372
2026-01-29 19:47:12.33	314.03	19.86	-31.2	-31.7	27.3	0.00e+00	0	32	0	2373976064	34	6231
2026-01-29 19:47:13.35	313.79	19.82	-31.3	-31.9	27.2	0.00e+00	0	33	0	2379218944	34	6351
2026-01-29 19:47:14.36	313.55	19.78	-31.4	-32.1	27.2	0.00e+00	0	33	0	2385510400	34	6494
2026-01-29 19:47:15.37	313.31	19.73	-31.3	-31.9	27.2	0.00e+00	0	32	0	2390753280	34	6328
2026-01-29 19:47:16.38	313.07	19.69	-31.0	-31.6	27.5	0.00e+00	0	33	0	2397044736	34	6145
2026-01-29 19:47:17.39	312.84	19.65	-30.9	-31.4	27.6	0.00e+00	0	32	0	2402287616	34	6018
2026-01-29 19:47:18.40	312.60	19.61	-30.9	-31.6	27.6	0.00e+00	0	33	0	2408579072	34	6132
2026-01-29 19:47:19.41	312.37	19.57	-30.9	-31.4	27.6	0.00e+00	0	33	0	2413821952	34	6024
2026-01-29 19:47:20.42	312.13	19.52	-31.1	-31.7	27.4	0.00e+00	0	33	0	2419064832	34	6224
2026-01-29 19:47:21.43	311.90	19.48	-31.0	-31.6	27.5	0.00e+00	0	32	0	2425356288	34	6120
2026-01-29 19:47:22.44	311.66	19.43	-31.0	-31.6	27.5	0.00e+00	0	33	0	2430599168	34	6148
2026-01-29 19:47:23.45	311.43	19.39	-31.1	-31.8	27.4	0.00e+00	0	32	0	2436890624	34	6286
2026-01-29 19:47:24.47	311.20	19.34	-31.1	-31.8	27.2	0.00e+00	0	33	0	2442133504	34	6291
2026-01-29 19:47:25.47	310.97	19.30	-31.3	-31.9	27.2	0.00e+00	0	33	0	2447376384	34	6348
2026-01-29 19:47:26.49	310.74	19.25	-31.3	-31.9	27.2	0.00e+00	0	32	0	2453667840	34	6359
2026-01-29 19:47:27.49	310.51	19.21	-31.3	-31.9	27.1	0.00e+00	0	32	0	2458910720	34	6353
2026-01-29 19:47:28.51	310.28	19.16	-31.4	-32.1	27.2	0.00e+00	0	33	0	2465202176	34	6480
2026-01-29 19:47:29.51	310.05	19.11	-31.5	-32.1	27.1	0.00e+00	0	33	0	2470445056	34	6497
2026-01-29 19:47:30.53	309.82	19.07	-31.2	-31.9	27.2	0.00e+00	0	32	0	2475687936	34	6371
2026-01-29 19:47:31.54	309.59	19.02	-31.4	-32.0	27.2	0.00e+00	0	32	0	2481979392	34	6441
2026-01-29 19:47:32.55	309.37	18.97	-31.4	-32.0	27.2	0.00e+00	0	32	0	2487222272	34	6442
2026-01-29 19:47:33.56	309.14	18.92	-31.5	-32.2	27.2	0.00e+00	0	32	0	2493513728	34	6566
2026-01-29 19:47:34.57	308.92	18.87	-31.5	-32.1	27.2	0.00e+00	0	33	0	2498756608	34	6472
2026-01-29 19:47:35.58	308.69	18.82	-31.2	-31.8	27.3	0.00e+00	0	32	0	2505048064	34	6274
2026-01-29 19:47:36.59	308.47	18.78	-31.2	-31.8	27.3	0.00e+00	0	33	0	2510290944	34	6280
2026-01-29 19:47:37.60	308.25	18.73	-31.3	-32.0	27.2	0.00e+00	0	32	0	2516582400	34	6392
2026-01-29 19:47:38.61	308.03	18.68	-31.4	-32.0	27.1	0.00e+00	0	32	0	2521825280	34	6439
2026-01-29 19:47:39.62	307.81	18.62	-31.5	-32.1	27.0	0.00e+00	0	32	0	2527068160	34	6515
2026-01-29 19:47:40.63	307.59	18.57	-31.6	-32.2	26.9	0.00e+00	0	32	0	2533359616	34	6561
2026-01-29 19:47:41.64	307.37	18.52	-31.5	-32.1	27.1	0.00e+00	0	32	0	2538602496	34	6501
2026-01-29 19:47:42.65	307.15	18.47	-31.5	-32.1	27.1	0.00e+00	0	32	0	2544893952	34	6534
2026-01-29 19:47:43.66	306.93	18.42	-31.6	-32.4	27.0	0.00e+00	0	32	0	2550136832	34	6697
2026-01-29 19:47:44.67	306.71	18.37	-31.6	-32.3	26.9	0.00e+00	0	32	0	2555379712	34	6630
2026-01-29 19:47:45.68	306.49	18.31	-31.7	-32.2	26.9	0.00e+00	0	32	0	2561671168	34	6612
2026-01-29 19:47:46.68	306.28	18.26	-31.7	-32.3	26.9	0.00e+00	0	33	0	2566914048	34	6669
2026-01-29 19:47:47.69	306.07	18.21	-31.7	-32.4	26.9	0.00e+00	0	32	0	2573205504	36	5988
2026-01-29 19:47:48.70	305.85	18.16	-31.9	-32.5	26.8	0.00e+00	0	33	0	2578448384	36	6087
2026-01-29 19:47:49.71	305.64	18.10	-31.8	-32.4	26.8	0.00e+00	0	33	0	2583691264	36	6022
2026-01-29 19:47:50.72	305.43	18.05	-31.9	-32.6	26.8	0.00e+00	0	33	0	2589982720	36	6127
2026-01-29 19:47:51.73	305.21	17.99	-31.9	-32.5	26.7	0.00e+00	0	33	0	2595225600	36	6093
2026-01-29 19:47:52.74	305.00	17.94	-32.0	-32.5	26.7	0.00e+00	0	33	0	2601517056	36	6102
2026-01-29 19:47:53.75	304.79	17.88	-31.9	-32.5	26.7	0.00e+00	0	33	0	2606759936	36	6072
2026-01-29 19:47:54.76	304.58	17.83	-31.8	-32.4	26.7	0.00e+00	0	33	0	2613051392	36	5996
2026-01-29 19:47:55.77	304.37	17.77	-31.8	-32.5	26.9	0.00e+00	0	33	0	2618294272	36	6051
2026-01-29 19:47:56.78	304.16	17.72	-31.7	-32.4	26.8	0.00e+00	0	33	0	2623537152	36	5987
2026-01-29 19:47:57.79	303.96	17.66	-31.9	-32.6	26.8	0.00e+00	0	33	0	2629828608	36	6115
2026-01-29 19:47:58.80	303.75	17.61	-32.0	-32.6	26.7	0.00e+00	0	33	0	2635071488	36	6110
2026-01-29 19:47:59.81	303.55	17.55	-32.0	-32.6	26.6	0.00e+00	0	33	0	2641362944	36	6120
2026-01-29 19:48:00.82	303.34	17.49	-31.8	-32.4	26.8	0.00e+00	0	33	0	2646605824	36	5976
2026-01-29 19:48:01.83	303.14	17.44	-31.9	-32.4	26.9	0.00e+00	0	33	0	2651848704	36	6031
2026-01-29 19:48:02.84	302.93	17.38	-31.7	-32.4	26.9	0.00e+00	0	33	0	2658140160	36	5985
2026-01-29 19:48:03.85	302.73	17.32	-31.7	-32.4	26.9	0.00e+00	0	33	0	2663383040	36	5995
2026-01-29 19:48:04.86	302.53	17.26	-31.6	-32.2	27.0	0.00e+00	0	32	0	2669674496	36	5854
2026-01-29 19:48:05.87	302.33	17.21	-31.7	-32.3	26.9	0.00e+00	0	33	0	2674917376	36	5911
2026-01-29 19:48:06.88	302.13	17.15	-31.7	-32.2	26.9	0.00e+00	0	33	0	2680160256	36	5886
2026-01-29 19:48:07.89	301.93	17.09	-31.7	-32.5	26.9	0.00e+00	0	33	0	2686451712	36	6043
2026-01-29 19:48:08.90	301.73	17.03	-31.7	-32.4	26.8	0.00e+00	0	32	0	2691694592	36	5980
2026-01-29 19:48:09.91	301.53	16.97	-31.8	-32.6	26.7	0.00e+00	0	33	0	2697986048	36	6112
2026-01-29 19:48:10.92	301.33	16.91	-31.9	-32.6	26.8	0.00e+00	0	32	0	2703228928	36	6120
2026-01-29 19:48:11.93	301.14	16.85	-31.8	-32.4	26.8	0.00e+00	0	32	0	2709520384	36	6005
2026-01-29 19:48:12.94	300.94	16.79	-31.9	-32.5	26.8	0.00e+00	0	32	0	2714763264	36	6081
2026-01-29 19:48:13.95	300.75	16.73	-32.0	-32.7	26.8	0.00e+00	0	33	0	2721054720	36	6238
2026-01-29 19:48:14.96	300.55	16.68	-32.1	-32.6	26.6	0.00e+00	0	32	0	2726297600	36	6152
2026-01-29 19:48:15.97	300.36	16.62	-32.1	-32.8	26.6	0.00e+00	0	32	0	2731540480	36	6260
2026-01-29 19:48:16.98	300.17	16.56	-32.2	-32.9	26.6	0.00e+00	0	33	0	2737831936	36	6320
2026-01-29 19:48:17.99	299.97	16.49	-32.1	-32.8	26.6	0.00e+00	0	33	0	2743074816	36	6253
2026-01-29 19:48:19.00	299.78	16.43	-32.1	-32.7	26.4	0.00e+00	0	33	0	2749366272	36	6206
2026-01-29 19:48:20.01	299.59	16.37	-32.3	-32.9	26.4	0.00e+00	0	32	0	2754609152	36	6360
2026-01-29 19:48:21.02	299.40	16.31	-32.3	-32.9	26.3	0.00e+00	0	32	0	2759852032	36	6387
2026-01-29 19:48:22.03	299.21	16.25	-32.3	-33.0	26.4	0.00e+00	0	33	0	2766143488	36	6431
2026-01-29 19:48:23.04	299.03	16.19	-32.2	-32.9	26.6	0.00e+00	0	33	0	2771386368	36	6359
2026-01-29 19:48:24.06	298.84	16.13	-32.2	-32.8	26.5	0.00e+00	0	33	0	2777677824	36	6310
2026-01-29 19:48:25.07	298.65	16.07	-32.3	-32.9	26.3	0.00e+00	0	33	0	2782920704	36	6322
2026-01-29 19:48:26.07	298.47	16.01	-32.2	-32.9	26.3	0.00e+00	0	33	0	2788163584	36	6364
2026-01-29 19:48:27.08	298.28	15.94	-32.2	-32.9	26.4	0.00e+00	0	33	0	2794455040	36	6350
2026-01-29 19:48:28.09	298.10	15.88	-32.4	-33.0	26.2	0.00e+00	0	33	0	2799697920	36	6395
2026-01-29 19:48:29.10	297.91	15.82	-32.3	-33.1	26.3	0.00e+00	0	33	0	2805989376	36	6476
2026-01-29 19:48:30.11	297.73	15.76	-32.2	-32.9	26.2	0.00e+00	0	33	0	2811232256	36	6365
2026-01-29 19:48:31.12	297.55	15.70	-32.3	-33.0	26.2	0.00e+00	0	33	0	2817523712	36	6396
2026-01-29 19:48:32.13	297.37	15.63	-32.1	-32.7	26.2	0.00e+00	0	33	0	2822766592	36	6225
2026-01-29 19:48:33.14	297.19	15.57	-32.1	-32.6	26.2	0.00e+00	0	33	0	2829058048	36	6163
2026-01-29 19:48:34.15	297.01	15.51	-32.2	-32.9	26.0	0.00e+00	0	32	0	2834300928	36	6389
2026-01-29 19:48:35.16	296.83	15.45	-32.3	-32.9	26.2	0.00e+00	0	33	0	2839543808	36	6341
2026-01-29 19:48:36.17	296.65	15.38	-32.3	-33.0	26.0	0.00e+00	0	33	0	2845835264	36	6419
2026-01-29 19:48:37.18	296.48	15.32	-32.2	-32.9	26.2	0.00e+00	0	33	0	2851078144	36	6363
2026-01-29 19:48:38.19	296.30	15.26	-32.2	-33.0	26.1	0.00e+00	0	33	0	2857369600	36	6413
2026-01-29 19:48:39.20	296.12	15.19	-32.1	-32.8	26.2	0.00e+00	0	33	0	2862612480	36	6284
2026-01-29 19:48:40.21	295.95	15.13	-32.0	-32.6	26.3	0.00e+00	0	33	0	2867855360	36	6139
2026-01-29 19:48:41.22	295.77	15.07	-32.0	-32.7	26.2	0.00e+00	0	33	0	2874146816	36	6177
2026-01-29 19:48:42.23	295.60	15.00	-32.1	-32.8	26.2	0.00e+00	0	33	0	2879389696	36	6276
2026-01-29 19:48:43.24	295.43	14.94	-32.3	-32.9	25.9	0.00e+00	0	33	0	2885681152	36	6332
2026-01-29 19:48:44.25	295.26	14.87	-32.4	-32.9	25.8	0.00e+00	0	33	0	2890924032	36	6385
2026-01-29 19:48:45.26	295.09	14.81	-32.5	-33.3	25.8	0.00e+00	0	33	0	2896166912	36	6638
2026-01-29 19:48:46.27	294.92	14.75	-32.6	-33.2	25.8	0.00e+00	0	33	0	2902458368	36	6572
2026-01-29 19:48:47.28	294.75	14.68	-32.5	-33.1	26.0	0.00e+00	0	33	0	2907701248	36	6536
2026-01-29 19:48:48.30	294.57	14.62	-32.4	-33.1	26.1	0.00e+00	0	33	0	2913992704	36	6512
2026-01-29 19:48:49.31	294.41	14.55	-32.4	-33.1	26.0	0.00e+00	0	32	0	2919235584	36	6502
2026-01-29 19:48:50.32	294.24	14.49	-32.4	-33.2	26.2	0.00e+00	0	32	0	2925527040	36	6558
2026-01-29 19:48:51.32	294.07	14.43	-32.5	-33.3	26.0	0.00e+00	0	33	0	2930769920	36	6617
2026-01-29 19:48:52.33	293.91	14.36	-32.5	-33.3	25.9	0.00e+00	0	32	0	2936012800	36	6640
2026-01-29 19:48:53.34	293.74	14.30	-32.6	-33.4	25.9	0.00e+00	0	33	0	2942304256	36	6717
2026-01-29 19:48:54.35	293.58	14.23	-32.6	-33.1	26.1	0.00e+00	0	33	0	2947547136	36	6532
2026-01-29 19:48:55.36	293.41	14.17	-32.7	-33.3	26.0	0.00e+00	0	33	0	2953838592	36	6624
2026-01-29 19:48:56.37	293.25	14.10	-32.5	-33.3	26.1	0.00e+00	0	33	0	2959081472	36	6642
2026-01-29 19:48:57.38	293.09	14.04	-32.5	-33.3	26.0	0.00e+00	0	33	0	2964324352	36	6618
2026-01-29 19:48:58.39	292.93	13.97	-32.6	-33.3	26.0	0.00e+00	0	33	0	2970615808	36	6623
2026-01-29 19:48:59.40	292.77	13.91	-32.7	-33.3	25.9	0.00e+00	0	33	0	2975858688	36	6674
2026-01-29 19:49:00.41	292.61	13.84	-32.6	-33.2	26.0	0.00e+00	0	33	0	2982150144	38	5892
2026-01-29 19:49:01.42	292.45	13.78	-32.8	-33.5	25.7	0.00e+00	0	33	0	2987393024	38	6043
2026-01-29 19:49:02.43	292.29	13.71	-32.6	-33.2	26.0	0.00e+00	0	32	0	2992635904	38	5865
2026-01-29 19:49:03.44	292.13	13.65	-32.7	-33.4	25.8	0.00e+00	0	33	0	2998927360	38	6028
2026-01-29 19:49:04.45	291.97	13.58	-32.7	-33.3	25.8	0.00e+00	0	33	0	3004170240	38	5920
2026-01-29 19:49:05.46	291.82	13.52	-32.8	-33.5	25.7	0.00e+00	0	33	0	3010461696	38	6058
2026-01-29 19:49:06.47	291.66	13.45	-32.9	-33.7	25.6	0.00e+00	0	33	0	3015704576	38	6179
2026-01-29 19:49:07.48	291.50	13.39	-33.0	-33.6	25.7	0.00e+00	0	33	0	3021996032	38	6152
2026-01-29 19:49:08.49	291.35	13.32	-33.0	-33.8	25.5	0.00e+00	0	33	0	3027238912	38	6257
2026-01-29 19:49:09.50	291.20	13.26	-33.1	-33.8	25.5	0.00e+00	0	33	0	3033530368	38	6286
2026-01-29 19:49:10.51	291.04	13.19	-33.2	-34.0	25.3	0.00e+00	0	33	0	3038773248	38	6420
2026-01-29 19:49:11.52	290.89	13.13	-33.5	-34.2	25.2	0.00e+00	0	33	0	3044016128	38	6561
2026-01-29 19:49:12.53	290.74	13.06	-33.3	-34.0	25.4	0.00e+00	0	33	0	3050307584	38	6427
2026-01-29 19:49:13.54	290.59	13.00	-33.3	-33.9	25.4	0.00e+00	0	33	0	3055550464	38	6383
2026-01-29 19:49:14.55	290.44	12.93	-33.2	-33.9	25.4	0.00e+00	0	33	0	3061841920	38	6336
2026-01-29 19:49:15.56	290.29	12.86	-33.0	-33.6	25.6	0.00e+00	0	33	0	3067084800	38	6165
2026-01-29 19:49:16.57	290.14	12.80	-33.0	-33.5	25.7	0.00e+00	0	33	0	3072327680	38	6101
2026-01-29 19:49:17.58	289.99	12.73	-33.1	-33.8	25.6	0.00e+00	0	33	0	3078619136	38	6304
2026-01-29 19:49:18.59	289.84	12.67	-33.0	-33.7	25.7	0.00e+00	0	33	0	3083862016	38	6231
2026-01-29 19:49:19.60	289.69	12.60	-33.1	-33.7	25.4	0.00e+00	0	33	0	3090153472	38	6231
2026-01-29 19:49:20.61	289.55	12.54	-33.2	-33.8	25.4	0.00e+00	0	33	0	3095396352	38	6299
2026-01-29 19:49:21.62	289.40	12.47	-33.1	-33.7	25.5	0.00e+00	0	33	0	3100639232	38	6181
2026-01-29 19:49:22.63	289.26	12.41	-33.0	-33.7	25.5	0.00e+00	0	33	0	3106930688	38	6240
2026-01-29 19:49:23.64	289.11	12.34	-33.1	-33.7	25.5	0.00e+00	0	33	0	3112173568	38	6227
2026-01-29 19:49:24.65	288.97	12.27	-33.0	-33.6	25.4	0.00e+00	0	33	0	3118465024	38	6157
2026-01-29 19:49:25.66	288.83	12.21	-33.2	-33.7	25.5	0.00e+00	0	33	0	3123707904	38	6244
2026-01-29 19:49:26.67	288.68	12.14	-33.2	-33.9	25.5	0.00e+00	0	33	0	3129999360	38	6350
2026-01-29 19:49:27.68	288.54	12.08	-33.2	-33.8	25.4	0.00e+00	0	33	0	3135242240	38	6291
2026-01-29 19:49:28.69	288.40	12.01	-33.2	-34.0	25.3	0.00e+00	0	32	0	3141533696	38	6431
2026-01-29 19:49:29.70	288.26	11.95	-33.3	-34.1	25.3	0.00e+00	0	33	0	3146776576	38	6467
2026-01-29 19:49:30.71	288.12	11.88	-33.4	-34.1	25.2	0.00e+00	0	33	0	3152019456	38	6466
2026-01-29 19:49:31.72	287.98	11.82	-33.4	-34.0	25.2	0.00e+00	0	33	0	3158310912	38	6462
2026-01-29 19:49:32.73	287.84	11.75	-33.6	-34.2	25.2	0.00e+00	0	33	0	3163553792	38	6607
2026-01-29 19:49:33.74	287.70	11.68	-33.6	-34.3	25.1	0.00e+00	0	33	0	3169845248	38	6676
2026-01-29 19:49:34.75	287.57	11.62	-33.6	-34.4	25.1	0.00e+00	0	33	0	3175088128	38	6696
2026-01-29 19:49:35.76	287.43	11.55	-33.6	-34.2	25.1	0.00e+00	0	33	0	3180331008	38	6580
2026-01-29 19:49:36.77	287.29	11.49	-33.6	-34.2	25.1	0.00e+00	0	33	0	3186622464	38	6612
2026-01-29 19:49:37.78	287.16	11.42	-33.7	-34.3	25.0	0.00e+00	0	33	0	3191865344	38	6685
2026-01-29 19:49:38.79	287.02	11.36	-33.6	-34.2	25.1	0.00e+00	0	33	0	3198156800	38	6565
2026-01-29 19:49:39.80	286.89	11.29	-33.5	-34.2	25.0	0.00e+00	0	33	0	3203399680	38	6614
2026-01-29 19:49:40.81	286.75	11.23	-33.5	-34.1	25.0	0.00e+00	0	33	0	3208642560	38	6521
2026-01-29 19:49:41.82	286.62	11.16	-33.7	-34.3	25.0	0.00e+00	0	33	0	3214934016	38	6669
2026-01-29 19:49:42.84	286.49	11.09	-33.6	-34.2	25.0	0.00e+00	0	33	0	3220176896	40	5890
2026-01-29 19:49:43.84	286.36	11.03	-33.8	-34.4	24.9	0.00e+00	0	33	0	3226468352	40	6004
2026-01-29 19:49:44.85	286.22	10.96	-33.7	-34.3	24.8	0.00e+00	0	33	0	3231711232	40	5962
2026-01-29 19:49:45.86	286.09	10.90	-33.8	-34.4	24.9	0.00e+00	0	33	0	3238002688	40	6011
2026-01-29 19:49:46.88	285.96	10.83	-33.7	-34.3	24.9	0.00e+00	0	33	0	3243245568	40	5931
2026-01-29 19:49:47.88	285.83	10.77	-33.7	-34.5	24.8	0.00e+00	0	33	0	3249537024	40	6051
2026-01-29 19:49:48.89	285.71	10.70	-33.8	-34.4	24.8	0.00e+00	0	32	0	3254779904	40	6006
2026-01-29 19:49:49.91	285.58	10.64	-33.9	-34.5	24.6	0.00e+00	0	33	0	3260022784	40	6103
2026-01-29 19:49:50.92	285.45	10.57	-33.8	-34.5	24.8	0.00e+00	0	33	0	3266314240	40	6051
2026-01-29 19:49:51.93	285.32	10.51	-34.0	-34.6	24.6	0.00e+00	0	33	0	3271557120	40	6140
2026-01-29 19:49:52.94	285.19	10.44	-33.6	-34.4	24.9	0.00e+00	0	33	0	3277848576	40	5988
2026-01-29 19:49:53.95	285.07	10.38	-33.7	-34.3	24.8	0.00e+00	0	33	0	3283091456	40	5904
2026-01-29 19:49:54.96	284.94	10.31	-33.7	-34.5	24.9	0.00e+00	0	33	0	3288334336	40	6064
2026-01-29 19:49:55.97	284.82	10.25	-33.9	-34.5	24.7	0.00e+00	0	33	0	3294625792	40	6048
2026-01-29 19:49:56.98	284.69	10.18	-33.9	-34.7	24.6	0.00e+00	0	33	0	3299868672	40	6182
2026-01-29 19:49:57.99	284.57	10.12	-34.0	-34.8	24.7	0.00e+00	0	33	0	3306160128	40	6267
2026-01-29 19:49:59.00	284.45	10.05	-34.1	-34.9	24.5	0.00e+00	0	33	0	3311403008	40	6360
2026-01-29 19:50:00.00	284.32	9.99	-34.0	-34.8	24.6	0.00e+00	0	33	0	3316645888	40	6282
2026-01-29 19:50:01.01	284.20	9.92	-34.0	-34.8	24.5	0.00e+00	0	33	0	3322937344	40	6263
2026-01-29 19:50:02.02	284.08	9.86	-34.0	-34.8	24.6	0.00e+00	0	33	0	3328180224	40	6254
2026-01-29 19:50:03.03	283.96	9.80	-33.9	-34.6	24.6	0.00e+00	0	33	0	3334471680	40	6116
2026-01-29 19:50:04.04	283.84	9.73	-34.1	-34.8	24.6	0.00e+00	0	33	0	3339714560	40	6316
2026-01-29 19:50:05.05	283.72	9.67	-34.0	-34.6	24.5	0.00e+00	0	33	0	3346006016	40	6169
2026-01-29 19:50:06.06	283.60	9.60	-34.2	-34.8	24.4	0.00e+00	0	33	0	3351248896	40	6263
2026-01-29 19:50:07.07	283.48	9.54	-34.5	-35.1	24.1	0.00e+00	0	33	0	3356491776	40	6530
2026-01-29 19:50:08.08	283.36	9.47	-34.5	-35.1	24.1	0.00e+00	0	33	0	3362783232	40	6491
2026-01-29 19:50:09.09	283.25	9.41	-34.6	-35.4	24.0	0.00e+00	0	33	0	3368026112	40	6720
2026-01-29 19:50:10.10	283.13	9.34	-34.7	-35.4	23.9	0.00e+00	0	33	0	3374317568	42	5992
2026-01-29 19:50:11.10	283.01	9.28	-34.9	-35.5	23.8	0.00e+00	0	33	0	3379560448	42	6091
2026-01-29 19:50:12.11	282.90	9.22	-34.5	-35.3	24.1	0.00e+00	0	33	0	3384803328	42	5952
2026-01-29 19:50:13.12	282.78	9.15	-34.5	-35.3	24.1	0.00e+00	0	33	0	3391094784	42	5962
2026-01-29 19:50:14.14	282.66	9.09	-34.7	-35.5	23.8	0.00e+00	0	33	0	3396337664	42	6086
2026-01-29 19:50:15.14	282.55	9.02	-34.5	-35.1	24.1	0.00e+00	0	32	0	3402629120	42	5815
2026-01-29 19:50:16.15	282.44	8.96	-34.5	-35.3	24.0	0.00e+00	0	33	0	3407872000	42	5945
2026-01-29 19:50:17.16	282.32	8.90	-34.7	-35.5	23.9	0.00e+00	0	33	0	3413114880	42	6041
2026-01-29 19:50:18.17	282.21	8.83	-34.5	-35.2	24.0	0.00e+00	0	33	0	3419406336	42	5848
2026-01-29 19:50:19.18	282.10	8.77	-34.7	-35.3	23.9	0.00e+00	0	33	0	3424649216	42	5938
2026-01-29 19:50:20.19	281.98	8.70	-34.6	-35.3	23.9	0.00e+00	0	33	0	3430940672	42	5898
2026-01-29 19:50:21.20	281.87	8.64	-34.7	-35.4	23.9	0.00e+00	0	33	0	3436183552	42	6000
2026-01-29 19:50:22.21	281.76	8.58	-34.6	-35.2	24.0	0.00e+00	0	32	0	3442475008	42	5877
2026-01-29 19:50:23.22	281.65	8.51	-34.6	-35.2	23.9	0.00e+00	0	33	0	3447717888	42	5891
2026-01-29 19:50:24.23	281.54	8.45	-34.7	-35.4	23.9	0.00e+00	0	33	0	3452960768	42	6003
2026-01-29 19:50:25.24	281.43	8.39	-34.7	-35.5	23.9	0.00e+00	0	33	0	3459252224	42	6038
2026-01-29 19:50:26.25	281.32	8.32	-34.6	-35.3	23.8	0.00e+00	0	33	0	3464495104	42	5924
2026-01-29 19:50:27.26	281.21	8.26	-34.5	-35.3	24.0	0.00e+00	0	33	0	3470786560	42	5941
2026-01-29 19:50:28.27	281.11	8.20	-34.5	-35.3	23.9	0.00e+00	0	33	0	3476029440	42	5898
2026-01-29 19:50:29.28	281.00	8.13	-34.6	-35.3	23.9	0.00e+00	0	33	0	3481272320	42	5903
2026-01-29 19:50:30.29	280.89	8.07	-34.6	-35.2	24.0	0.00e+00	0	33	0	3487563776	42	5853
2026-01-29 19:50:31.30	280.78	8.01	-34.7	-35.4	23.9	0.00e+00	0	33	0	3492806656	42	5972
2026-01-29 19:50:32.31	280.68	7.94	-34.8	-35.4	23.7	0.00e+00	0	33	0	3499098112	42	6025
2026-01-29 19:50:33.32	280.57	7.88	-34.9	-35.5	23.6	0.00e+00	0	33	0	3504340992	42	6075
2026-01-29 19:50:34.33	280.47	7.82	-34.9	-35.7	23.6	0.00e+00	0	33	0	3509583872	42	6228
2026-01-29 19:50:35.35	280.36	7.75	-34.9	-35.6	23.7	0.00e+00	0	33	0	3515875328	42	6151
2026-01-29 19:50:36.36	280.26	7.69	-34.9	-35.5	23.5	0.00e+00	0	33	0	3521118208	42	6094
2026-01-29 19:50:37.36	280.15	7.63	-35.1	-35.8	23.4	0.00e+00	0	32	0	3527409664	42	6302
2026-01-29 19:50:38.37	280.05	7.57	-35.0	-35.7	23.6	0.00e+00	0	33	0	3532652544	42	6174
2026-01-29 19:50:39.38	279.95	7.50	-34.9	-35.7	23.6	0.00e+00	0	33	0	3538944000	42	6242
2026-01-29 19:50:40.39	279.84	7.44	-34.9	-35.6	23.7	0.00e+00	0	33	0	3544186880	42	6133
2026-01-29 19:50:41.41	279.74	7.38	-35.0	-35.8	23.5	0.00e+00	0	33	0	3550478336	42	6275
2026-01-29 19:50:42.42	279.64	7.32	-35.1	-35.9	23.4	0.00e+00	0	33	0	3555721216	42	6337
2026-01-29 19:50:43.43	279.54	7.25	-35.1	-35.8	23.5	0.00e+00	0	33	0	3560964096	42	6264
2026-01-29 19:50:44.44	279.44	7.19	-35.1	-35.7	23.4	0.00e+00	0	33	0	3567255552	42	6234
2026-01-29 19:50:45.45	279.34	7.13	-35.2	-35.9	23.3	0.00e+00	0	33	0	3572498432	42	6334
2026-01-29 19:50:46.46	279.24	7.07	-35.1	-35.9	23.5	0.00e+00	0	33	0	3578789888	42	6334
2026-01-29 19:50:47.47	279.14	7.00	-35.1	-35.8	23.3	0.00e+00	0	33	0	3584032768	42	6261
2026-01-29 19:50:48.48	279.04	6.94	-35.1	-35.7	23.4	0.00e+00	0	33	0	3589275648	42	6236
2026-01-29 19:50:49.49	278.94	6.88	-35.0	-35.8	23.6	0.00e+00	0	33	0	3595567104	42	6281
2026-01-29 19:50:50.50	278.84	6.82	-35.2	-35.9	23.3	0.00e+00	0	33	0	3600809984	42	6333
2026-01-29 19:50:51.51	278.74	6.76	-35.0	-35.6	23.2	0.00e+00	0	33	0	3607101440	42	6168
2026-01-29 19:50:52.52	278.65	6.69	-34.9	-35.6	23.4	0.00e+00	0	33	0	3612344320	42	6173
