passes_logs/2026/01/29/R4.6S_Anadyr/R4.6S_Anadyr__20260129_025305_AQUA_rec.log

#Pass ID: 20260129_025305_AQUA
#Satellite: AQUA
#Configuration: AQUA
#almurnet v.1.7.20251203
#Start time: 2026-01-29 02:53:07

#Version: 2.2.20231116
#Station: R4.6S_Anadyr
#Location: 177.4865 lon 64.73178 lat
#TLE: 1 27424U 02022A   26027.96263068  .00001625  00000+0  33481-3 0  9997
#TLE: 2 27424  98.4102 354.6095 0001839  63.4368   7.7786 14.61867353262782

#Time	Az	El	Level	Level2	SNR	BER	BlckErr	Temp	State	Recorded	gain1	gain2
2026-01-29 02:53:07.51	180.49	0.13	-48.7	-60.4	3.5	8.45e-01	0	31	0	0	60	37764
2026-01-29 02:53:08.52	180.52	0.19	-48.9	-66.9	3.5	3.03e+01	0	32	104	0	60	85484
2026-01-29 02:53:09.53	180.56	0.25	-48.9	-67.0	3.5	3.03e+01	0	33	104	0	60	85803
2026-01-29 02:53:10.54	180.59	0.31	-49.1	-67.0	3.5	3.03e+01	0	33	104	0	60	86178
2026-01-29 02:53:11.55	180.63	0.37	-49.2	-67.1	3.5	3.03e+01	0	33	104	0	60	87108
2026-01-29 02:53:12.56	180.67	0.43	-49.1	-67.1	3.5	3.03e+01	0	33	104	0	60	87010
2026-01-29 02:53:13.57	180.70	0.50	-49.1	-67.1	3.5	3.03e+01	0	33	104	0	60	86812
2026-01-29 02:53:14.58	180.74	0.56	-48.9	-67.0	3.5	3.03e+01	0	33	104	0	60	86613
2026-01-29 02:53:15.59	180.77	0.62	-49.1	-67.1	3.5	3.03e+01	0	33	104	0	60	87600
2026-01-29 02:53:16.60	180.81	0.68	-49.0	-67.1	3.5	3.03e+01	0	33	104	0	60	87044
2026-01-29 02:53:17.61	180.85	0.74	-49.2	-67.1	3.5	3.03e+01	0	33	104	0	60	87401
2026-01-29 02:53:18.62	180.88	0.81	-49.2	-67.1	3.5	3.03e+01	0	33	104	0	60	86990
2026-01-29 02:53:19.63	180.92	0.87	-49.2	-67.0	3.5	3.03e+01	0	33	104	0	60	86584
2026-01-29 02:53:20.64	180.96	0.93	-49.1	-67.1	3.5	3.03e+01	0	33	104	0	60	86781
2026-01-29 02:53:21.65	181.00	0.99	-49.2	-67.1	3.5	3.03e+01	0	33	104	0	60	86866
2026-01-29 02:53:22.66	181.03	1.06	-49.2	-67.1	3.5	3.03e+01	0	33	104	0	60	86883
2026-01-29 02:53:23.67	181.07	1.12	-49.1	-66.9	3.5	3.03e+01	0	33	104	0	60	85536
2026-01-29 02:53:24.68	181.11	1.18	-49.0	-66.9	3.5	3.03e+01	0	33	104	0	60	85532
2026-01-29 02:53:25.69	181.15	1.25	-49.0	-66.8	3.5	3.03e+01	0	33	104	0	60	83951
2026-01-29 02:53:26.70	181.18	1.31	-48.7	-66.7	3.5	3.03e+01	0	33	104	0	60	83354
2026-01-29 02:53:27.71	181.22	1.37	-48.6	-66.6	3.5	3.03e+01	0	33	104	0	60	82207
2026-01-29 02:53:28.72	181.26	1.44	-48.4	-66.5	3.5	3.03e+01	0	33	104	0	60	81212
2026-01-29 02:53:29.73	181.30	1.50	-48.0	-66.3	3.5	3.03e+01	0	33	104	0	60	79880
2026-01-29 02:53:30.74	181.34	1.56	-47.6	-66.1	3.5	3.03e+01	0	33	104	0	60	77756
2026-01-29 02:53:31.75	181.38	1.63	-48.0	-65.9	3.5	3.03e+01	0	33	104	0	60	75497
2026-01-29 02:53:32.76	181.42	1.69	-48.0	-65.8	3.5	3.03e+01	0	33	104	0	60	75108
2026-01-29 02:53:33.77	181.46	1.76	-48.0	-65.8	3.5	3.03e+01	0	33	104	0	60	75107
2026-01-29 02:53:34.77	181.49	1.82	-48.0	-65.9	3.5	3.03e+01	0	33	104	0	60	75700
2026-01-29 02:53:35.78	181.53	1.88	-48.0	-65.8	3.5	3.03e+01	0	33	104	0	60	75198
2026-01-29 02:53:36.79	181.57	1.95	-48.0	-65.8	3.5	3.03e+01	0	33	104	0	60	75001
2026-01-29 02:53:37.80	181.61	2.01	-48.0	-65.6	3.5	3.03e+01	0	33	104	0	60	73687
2026-01-29 02:53:38.81	181.65	2.08	-48.0	-65.5	3.5	3.03e+01	0	33	104	0	60	72565
2026-01-29 02:53:39.82	181.69	2.15	-48.0	-65.7	3.5	3.03e+01	0	33	104	0	60	73859
2026-01-29 02:53:40.83	181.74	2.21	-48.0	-65.5	3.5	3.03e+01	0	33	104	0	60	72118
2026-01-29 02:53:41.84	181.78	2.28	-48.0	-65.7	3.5	3.03e+01	0	33	104	0	60	73840
2026-01-29 02:53:42.84	181.82	2.34	-48.0	-65.5	3.5	3.03e+01	0	33	104	0	60	72464
2026-01-29 02:53:43.86	181.86	2.41	-48.0	-65.2	3.5	3.03e+01	0	33	104	0	60	70005
2026-01-29 02:53:44.86	181.90	2.47	-48.0	-65.1	3.5	3.03e+01	0	33	104	0	60	69438
2026-01-29 02:53:45.87	181.94	2.54	-48.0	-65.2	3.5	3.03e+01	0	33	104	0	60	69966
2026-01-29 02:53:46.88	181.98	2.61	-48.0	-65.7	3.5	3.03e+01	0	33	104	0	60	74180
2026-01-29 02:53:47.89	182.02	2.67	-48.0	-65.7	3.5	3.03e+01	0	33	104	0	60	74199
2026-01-29 02:53:48.90	182.07	2.74	-48.0	-64.7	3.5	3.03e+01	0	33	104	0	60	65786
2026-01-29 02:53:49.91	182.11	2.81	-47.9	-63.2	3.8	3.03e+01	0	33	104	0	60	55481
2026-01-29 02:53:50.92	182.15	2.87	-47.9	-62.1	4.1	3.03e+01	0	33	104	0	60	48811
2026-01-29 02:53:51.93	182.19	2.94	-47.8	-61.7	4.5	3.03e+01	0	33	104	0	60	46635
2026-01-29 02:53:52.94	182.24	3.01	-47.9	-63.0	3.6	3.03e+01	0	33	104	0	60	54622
2026-01-29 02:53:53.94	182.28	3.08	-48.0	-65.0	3.5	3.03e+01	0	33	104	0	60	68694
2026-01-29 02:53:54.95	182.32	3.14	-47.7	-60.1	5.7	3.03e+01	39	33	104	0	60	38890
2026-01-29 02:53:55.96	182.36	3.21	-46.8	-53.5	11.5	3.03e+01	92	33	0	524288	60	18204
2026-01-29 02:53:56.97	182.41	3.28	-45.3	-49.4	16.1	3.03e+01	92	33	0	2621440	60	11331
2026-01-29 02:53:57.98	182.45	3.35	-43.1	-45.8	19.8	3.03e+01	92	33	0	4718592	60	7474
2026-01-29 02:53:58.99	182.50	3.42	-41.7	-43.8	21.6	3.03e+01	92	33	0	6291456	58	6673
2026-01-29 02:54:00.00	182.54	3.49	-40.2	-42.0	23.2	3.03e+01	91	33	0	8388608	56	6103
2026-01-29 02:54:01.01	182.58	3.55	-38.9	-40.5	24.7	3.03e+01	92	33	0	9961472	54	5736
2026-01-29 02:54:02.02	182.63	3.62	-38.6	-40.2	25.0	3.03e+01	92	33	0	12058624	52	6223
2026-01-29 02:54:03.03	182.67	3.69	-37.9	-39.4	24.8	3.03e+01	92	33	0	14155776	52	5692
2026-01-29 02:54:04.04	182.72	3.76	-38.8	-40.4	24.8	3.03e+01	92	33	0	15728640	50	7182
2026-01-29 02:54:05.05	182.76	3.83	-39.4	-41.0	24.1	3.03e+01	90	33	0	17825792	52	6848
2026-01-29 02:54:06.06	182.81	3.90	-38.2	-39.7	25.5	3.03e+01	92	33	0	19398656	52	5876
2026-01-29 02:54:07.07	182.86	3.97	-40.5	-42.5	22.3	3.03e+01	92	33	0	21495808	54	7232
2026-01-29 02:54:08.08	182.90	4.04	-47.3	-55.9	6.7	3.03e+01	92	33	0	23592960	60	24029
2026-01-29 02:54:09.09	182.95	4.11	-47.6	-58.5	6.5	3.03e+01	90	33	104	23592960	60	32374
2026-01-29 02:54:10.09	182.99	4.18	-40.4	-42.3	23.0	3.03e+01	92	33	0	24641536	52	7985
2026-01-29 02:54:11.10	183.04	4.25	-38.5	-40.1	25.2	3.03e+01	92	33	0	26738688	52	6148
2026-01-29 02:54:12.11	183.09	4.32	-38.6	-40.2	25.2	3.03e+01	92	33	0	28835840	52	6250
2026-01-29 02:54:13.12	183.13	4.39	-38.0	-39.5	25.7	3.03e+01	90	33	0	30408704	50	6435
2026-01-29 02:54:14.13	183.18	4.47	-37.6	-39.1	26.0	3.03e+01	90	33	0	32505856	50	6150
2026-01-29 02:54:15.14	183.23	4.54	-37.7	-39.2	26.1	3.03e+01	92	33	0	34078720	50	6232
2026-01-29 02:54:16.15	183.28	4.61	-37.5	-39.0	26.3	3.03e+01	91	33	0	36175872	50	6084
2026-01-29 02:54:17.16	183.32	4.68	-37.5	-38.9	26.4	3.03e+01	91	33	0	38273024	50	6048
2026-01-29 02:54:18.17	183.37	4.75	-37.6	-39.0	26.2	3.03e+01	89	33	0	39845888	50	6126
2026-01-29 02:54:19.18	183.42	4.83	-37.4	-38.9	26.4	3.03e+01	91	33	0	41943040	50	6013
2026-01-29 02:54:20.19	183.47	4.90	-37.6	-39.1	26.2	3.03e+01	89	33	0	44040192	50	6147
2026-01-29 02:54:21.20	183.52	4.97	-37.2	-38.6	26.6	3.03e+01	92	34	0	45613056	50	5858
2026-01-29 02:54:22.21	183.57	5.04	-37.3	-38.7	26.7	3.03e+01	90	33	0	47710208	50	5885
2026-01-29 02:54:23.22	183.62	5.12	-37.5	-38.9	26.5	3.03e+01	92	33	0	49283072	50	6040
2026-01-29 02:54:24.23	183.67	5.19	-37.4	-38.8	26.6	3.03e+01	92	34	0	51380224	50	5963
2026-01-29 02:54:25.24	183.72	5.26	-37.3	-38.7	26.6	3.03e+01	92	34	0	53477376	50	5922
2026-01-29 02:54:26.24	183.77	5.34	-37.2	-38.6	26.6	3.03e+01	92	33	0	55050240	48	6569
2026-01-29 02:54:27.26	183.82	5.41	-36.9	-38.4	27.0	3.03e+01	92	34	0	57147392	48	6364
2026-01-29 02:54:28.26	183.87	5.48	-37.2	-38.7	26.7	3.03e+01	90	33	0	58720256	48	6588
2026-01-29 02:54:29.28	183.92	5.56	-37.1	-38.5	26.8	3.03e+01	92	34	0	60817408	48	6452
2026-01-29 02:54:30.28	183.97	5.63	-36.9	-38.4	27.1	3.03e+01	90	33	0	62914560	48	6373
2026-01-29 02:54:31.29	184.02	5.71	-37.2	-38.7	26.9	3.03e+01	90	33	0	64487424	48	6607
2026-01-29 02:54:32.30	184.07	5.78	-36.9	-38.3	27.0	3.03e+01	90	34	0	66584576	48	6347
2026-01-29 02:54:33.31	184.13	5.86	-36.9	-38.3	27.0	3.03e+01	89	34	0	68157440	48	6342
2026-01-29 02:54:34.32	184.18	5.93	-37.0	-38.4	27.0	3.03e+01	91	33	0	70254592	48	6382
2026-01-29 02:54:35.33	184.23	6.01	-36.8	-38.2	27.1	3.03e+01	92	33	0	72351744	48	6231
2026-01-29 02:54:36.34	184.28	6.09	-37.0	-38.5	26.9	3.03e+01	90	33	0	73924608	48	6427
2026-01-29 02:54:37.35	184.34	6.16	-36.9	-38.3	27.2	3.03e+01	92	33	0	76021760	48	6323
2026-01-29 02:54:38.36	184.39	6.24	-37.0	-38.4	26.9	3.03e+01	91	33	0	77594624	48	6391
2026-01-29 02:54:39.37	184.45	6.32	-37.2	-38.7	26.8	3.03e+01	92	34	0	79691776	48	6578
2026-01-29 02:54:40.38	184.50	6.39	-36.9	-38.3	27.1	3.03e+01	92	33	0	81788928	48	6347
2026-01-29 02:54:41.39	184.55	6.47	-36.8	-38.2	27.3	3.03e+01	92	34	0	83361792	48	6218
2026-01-29 02:54:42.40	184.61	6.55	-36.7	-38.1	27.3	3.03e+01	90	33	0	85458944	48	6176
2026-01-29 02:54:43.41	184.66	6.63	-36.7	-38.2	27.3	3.03e+01	92	34	0	87556096	48	6207
2026-01-29 02:54:44.42	184.72	6.70	-36.8	-38.2	27.3	3.03e+01	92	34	0	89128960	48	6230
2026-01-29 02:54:45.43	184.77	6.78	-36.7	-38.1	27.4	3.03e+01	92	34	0	91226112	48	6135
2026-01-29 02:54:46.44	184.83	6.86	-36.7	-38.1	27.3	3.03e+01	92	34	0	92798976	48	6176
2026-01-29 02:54:47.45	184.89	6.94	-36.6	-38.0	27.5	3.03e+01	92	34	0	94896128	48	6083
2026-01-29 02:54:48.46	184.94	7.02	-36.6	-38.0	27.5	3.03e+01	92	34	0	96993280	48	6075
2026-01-29 02:54:49.47	185.00	7.10	-36.8	-38.1	27.3	3.03e+01	92	34	0	98566144	48	6172
2026-01-29 02:54:50.48	185.06	7.18	-36.6	-37.9	27.5	3.03e+01	90	34	0	100663296	48	6018
2026-01-29 02:54:51.49	185.11	7.26	-36.6	-37.9	27.5	3.03e+01	92	34	0	102236160	48	6026
2026-01-29 02:54:52.50	185.17	7.34	-36.7	-38.1	27.3	3.03e+01	92	33	0	104333312	48	6155
2026-01-29 02:54:53.50	185.23	7.41	-36.6	-37.9	27.5	3.03e+01	92	34	0	106430464	48	6034
2026-01-29 02:54:54.51	185.29	7.50	-36.7	-38.0	27.5	3.03e+01	92	34	0	108003328	48	6109
2026-01-29 02:54:55.52	185.35	7.58	-36.5	-37.8	27.6	3.03e+01	92	34	0	110100480	48	5986
2026-01-29 02:54:56.53	185.41	7.66	-36.6	-37.9	27.6	3.03e+01	92	34	0	112197632	48	6053
2026-01-29 02:54:57.54	185.46	7.74	-36.5	-37.8	27.6	3.03e+01	92	34	0	113770496	48	5979
2026-01-29 02:54:58.55	185.52	7.82	-36.4	-37.7	27.8	3.03e+01	92	34	0	115867648	48	5879
2026-01-29 02:54:59.56	185.58	7.90	-36.4	-37.7	27.7	3.03e+01	92	34	0	117440512	48	5918
2026-01-29 02:55:00.57	185.65	7.98	-36.4	-37.7	27.8	3.03e+01	90	34	0	119537664	48	5879
2026-01-29 02:55:01.58	185.71	8.07	-36.5	-37.8	27.7	3.03e+01	92	34	0	121634816	48	5958
2026-01-29 02:55:02.59	185.77	8.15	-36.3	-37.7	27.9	3.03e+01	90	34	0	123207680	48	5861
2026-01-29 02:55:03.60	185.83	8.23	-36.3	-37.7	27.9	3.03e+01	92	33	0	125304832	48	5871
2026-01-29 02:55:04.61	185.89	8.31	-36.3	-37.6	27.8	3.03e+01	90	34	0	126877696	48	5839
2026-01-29 02:55:05.62	185.95	8.40	-36.2	-37.5	28.0	3.03e+01	91	34	0	128974848	48	5744
2026-01-29 02:55:06.63	186.02	8.48	-36.2	-37.5	28.0	3.03e+01	91	34	0	131072000	48	5785
2026-01-29 02:55:07.64	186.08	8.57	-36.1	-37.4	28.0	3.03e+01	91	34	0	132644864	48	5721
2026-01-29 02:55:08.65	186.14	8.65	-36.1	-37.5	28.0	3.03e+01	90	34	0	134742016	48	5734
2026-01-29 02:55:09.66	186.21	8.73	-36.1	-37.5	28.0	3.03e+01	91	34	0	136314880	48	5732
2026-01-29 02:55:10.67	186.27	8.82	-36.2	-37.5	28.0	3.03e+01	91	34	0	138412032	48	5778
2026-01-29 02:55:11.68	186.33	8.90	-36.2	-37.5	28.0	3.03e+01	90	34	0	140509184	48	5742
2026-01-29 02:55:12.69	186.40	8.99	-36.1	-37.4	28.1	3.03e+01	92	34	0	142082048	48	5713
2026-01-29 02:55:13.70	186.46	9.08	-36.2	-37.6	27.9	3.03e+01	90	34	0	144179200	48	5809
2026-01-29 02:55:14.71	186.53	9.16	-36.2	-37.6	28.1	3.03e+01	91	34	0	145752064	48	5795
2026-01-29 02:55:15.72	186.60	9.25	-36.1	-37.4	28.2	3.03e+01	92	34	0	147849216	46	6362
2026-01-29 02:55:16.73	186.66	9.33	-36.0	-37.3	28.3	3.03e+01	92	34	0	149946368	46	6338
2026-01-29 02:55:17.74	186.73	9.42	-35.9	-37.2	28.4	3.03e+01	91	34	0	151519232	46	6232
2026-01-29 02:55:18.75	186.80	9.51	-36.1	-37.4	28.2	3.03e+01	90	34	0	153616384	46	6394
2026-01-29 02:55:19.76	186.86	9.60	-35.7	-37.0	28.5	3.03e+01	92	34	0	155713536	46	6108
2026-01-29 02:55:20.77	186.93	9.68	-35.9	-37.2	28.4	3.03e+01	90	34	0	157286400	46	6259
2026-01-29 02:55:21.78	187.00	9.77	-35.7	-37.0	28.6	3.03e+01	90	34	0	159383552	46	6095
2026-01-29 02:55:22.79	187.07	9.86	-35.8	-37.1	28.4	3.03e+01	91	34	0	160956416	46	6138
2026-01-29 02:55:23.80	187.14	9.95	-35.6	-36.9	28.6	3.03e+01	91	34	0	163053568	46	6005
2026-01-29 02:55:24.81	187.21	10.04	-35.7	-37.0	28.6	3.03e+01	91	34	0	165150720	46	6079
2026-01-29 02:55:25.82	187.28	10.13	-35.8	-37.1	28.4	3.03e+01	91	34	0	166723584	46	6181
2026-01-29 02:55:26.83	187.35	10.22	-35.8	-37.1	28.6	3.03e+01	92	34	0	168820736	46	6162
2026-01-29 02:55:27.83	187.42	10.31	-35.8	-37.1	28.4	3.03e+01	92	34	0	170393600	46	6198
2026-01-29 02:55:28.84	187.49	10.40	-35.8	-37.2	28.5	3.03e+01	92	34	0	172490752	46	6211
2026-01-29 02:55:29.85	187.56	10.49	-35.9	-37.2	28.3	3.03e+01	92	34	0	174587904	46	6245
2026-01-29 02:55:30.86	187.64	10.58	-36.1	-37.4	28.2	3.03e+01	91	34	0	176160768	46	6420
2026-01-29 02:55:31.87	187.71	10.67	-35.8	-37.1	28.5	3.03e+01	92	34	0	178257920	46	6192
2026-01-29 02:55:32.89	187.78	10.76	-36.0	-37.2	28.3	3.03e+01	92	34	0	180355072	46	6271
2026-01-29 02:55:33.89	187.86	10.86	-35.9	-37.2	28.4	3.03e+01	92	34	0	181927936	46	6252
2026-01-29 02:55:34.90	187.93	10.95	-35.9	-37.2	28.4	3.03e+01	92	34	0	184025088	46	6230
2026-01-29 02:55:35.91	188.00	11.04	-36.0	-37.3	28.2	3.03e+01	92	34	0	185597952	46	6348
2026-01-29 02:55:36.92	188.08	11.13	-35.8	-37.1	28.4	3.03e+01	92	34	0	187695104	46	6195
2026-01-29 02:55:37.93	188.16	11.23	-35.7	-36.9	28.6	3.03e+01	92	34	0	189792256	46	6048
2026-01-29 02:55:38.94	188.23	11.32	-35.7	-37.0	28.5	3.03e+01	92	34	0	191365120	46	6101
2026-01-29 02:55:39.95	188.31	11.42	-35.9	-37.1	28.5	3.03e+01	92	34	0	193462272	46	6203
2026-01-29 02:55:40.96	188.39	11.51	-36.0	-37.3	28.4	3.03e+01	92	34	0	195035136	46	6284
2026-01-29 02:55:41.97	188.46	11.61	-36.0	-37.3	28.3	3.03e+01	90	34	0	197132288	46	6328
2026-01-29 02:55:42.98	188.54	11.70	-35.5	-36.8	28.7	3.03e+01	92	34	0	199229440	46	5945
2026-01-29 02:55:43.99	188.62	11.80	-35.6	-36.9	28.7	3.03e+01	92	34	0	200802304	46	6047
2026-01-29 02:55:44.99	188.70	11.89	-35.6	-36.8	28.7	3.03e+01	92	34	0	202899456	46	5981
2026-01-29 02:55:46.00	188.78	11.99	-35.6	-36.9	28.7	3.03e+01	92	34	0	204472320	46	6006
2026-01-29 02:55:47.01	188.86	12.09	-35.6	-36.9	28.6	3.03e+01	92	34	0	206569472	46	6045
2026-01-29 02:55:48.02	188.94	12.18	-35.5	-36.8	28.7	3.03e+01	92	34	0	208666624	46	5955
2026-01-29 02:55:49.03	189.02	12.28	-35.7	-37.0	28.6	3.03e+01	92	34	0	210239488	46	6078
2026-01-29 02:55:50.04	189.10	12.38	-35.4	-36.7	28.8	3.03e+01	92	34	0	212336640	46	5894
2026-01-29 02:55:51.05	189.19	12.48	-35.4	-36.7	28.8	3.03e+01	92	34	0	213909504	46	5860
2026-01-29 02:55:52.06	189.27	12.58	-35.4	-36.7	28.8	3.03e+01	90	34	0	216006656	46	5892
2026-01-29 02:55:53.07	189.35	12.68	-35.4	-36.7	28.9	3.03e+01	92	34	0	218103808	46	5866
2026-01-29 02:55:54.08	189.44	12.78	-35.3	-36.6	29.0	3.03e+01	92	34	0	219676672	46	5804
2026-01-29 02:55:55.09	189.52	12.88	-35.3	-36.6	29.0	3.03e+01	92	34	0	221773824	46	5793
2026-01-29 02:55:56.10	189.61	12.98	-35.1	-36.3	29.2	3.03e+01	92	34	0	223870976	46	5640
2026-01-29 02:55:57.11	189.70	13.08	-35.1	-36.4	29.2	3.03e+01	92	34	0	225443840	46	5688
2026-01-29 02:55:58.12	189.78	13.18	-35.3	-36.5	29.1	3.03e+01	89	34	0	227540992	46	5781
2026-01-29 02:55:59.13	189.87	13.28	-35.3	-36.5	29.0	3.03e+01	89	34	0	229113856	46	5775
2026-01-29 02:56:00.14	189.96	13.38	-35.3	-36.6	29.1	3.03e+01	89	34	0	231211008	46	5807
2026-01-29 02:56:01.15	190.05	13.49	-35.4	-36.7	29.0	3.03e+01	92	34	0	233308160	46	5867
2026-01-29 02:56:02.16	190.14	13.59	-35.3	-36.6	29.0	3.03e+01	92	34	0	234881024	46	5806
2026-01-29 02:56:03.17	190.23	13.69	-35.4	-36.7	28.9	3.03e+01	91	34	0	236978176	46	5864
2026-01-29 02:56:04.18	190.32	13.80	-35.3	-36.5	29.1	3.03e+01	90	34	0	238551040	46	5775
2026-01-29 02:56:05.19	190.41	13.90	-35.3	-36.6	29.0	3.03e+01	92	34	0	240648192	46	5812
2026-01-29 02:56:06.20	190.50	14.00	-35.0	-36.3	29.3	3.03e+01	90	34	0	242745344	46	5600
2026-01-29 02:56:07.21	190.59	14.11	-35.1	-36.3	29.2	3.03e+01	91	34	0	244318208	46	5654
2026-01-29 02:56:08.22	190.69	14.22	-35.2	-36.5	29.1	3.03e+01	91	34	0	246415360	46	5732
2026-01-29 02:56:09.23	190.78	14.32	-35.2	-36.4	29.2	3.03e+01	92	34	0	248512512	46	5685
2026-01-29 02:56:10.24	190.87	14.43	-35.2	-36.5	29.0	3.03e+01	92	34	0	250085376	46	5741
2026-01-29 02:56:11.25	190.97	14.54	-35.3	-36.5	29.0	3.03e+01	92	34	0	252182528	46	5788
2026-01-29 02:56:12.26	191.06	14.64	-35.0	-36.3	29.3	3.03e+01	92	34	0	253755392	46	5617
2026-01-29 02:56:13.27	191.16	14.75	-35.1	-36.4	29.2	3.03e+01	92	34	0	255852544	46	5677
2026-01-29 02:56:14.28	191.26	14.86	-35.0	-36.3	29.3	3.03e+01	89	34	0	257949696	46	5603
2026-01-29 02:56:15.29	191.36	14.97	-34.9	-36.1	29.3	3.03e+01	92	34	0	259522560	44	6180
2026-01-29 02:56:16.30	191.46	15.08	-35.0	-36.2	29.3	3.03e+01	91	34	0	261619712	44	6241
2026-01-29 02:56:17.31	191.56	15.19	-35.0	-36.2	29.4	3.03e+01	92	34	0	263192576	44	6252
2026-01-29 02:56:18.32	191.66	15.30	-35.0	-36.2	29.4	3.03e+01	92	34	0	265289728	44	6250
2026-01-29 02:56:19.32	191.76	15.41	-35.0	-36.2	29.4	3.03e+01	92	34	0	267386880	44	6263
2026-01-29 02:56:20.33	191.86	15.52	-34.9	-36.1	29.5	3.03e+01	84	34	0	268959744	44	6162
2026-01-29 02:56:21.34	191.96	15.63	-34.9	-36.1	29.5	3.03e+01	92	34	0	271056896	44	6163
2026-01-29 02:56:22.35	192.06	15.74	-34.8	-36.0	29.5	3.03e+01	91	34	0	272629760	44	6128
2026-01-29 02:56:23.36	192.17	15.85	-34.9	-36.1	29.4	3.03e+01	88	34	0	274726912	44	6171
2026-01-29 02:56:24.37	192.27	15.97	-34.7	-35.9	29.6	3.03e+01	92	34	0	276824064	44	6038
2026-01-29 02:56:25.38	192.38	16.08	-34.7	-35.9	29.5	3.03e+01	92	34	0	278396928	44	6058
2026-01-29 02:56:26.39	192.49	16.19	-34.7	-35.9	29.6	3.03e+01	92	34	0	280494080	44	6042
2026-01-29 02:56:27.40	192.59	16.31	-34.8	-36.0	29.6	3.03e+01	92	34	0	282066944	44	6088
2026-01-29 02:56:28.41	192.70	16.42	-34.8	-36.0	29.5	3.03e+01	92	34	0	284164096	44	6122
2026-01-29 02:56:29.42	192.81	16.54	-35.0	-36.2	29.4	3.03e+01	92	34	0	286261248	44	6250
2026-01-29 02:56:30.43	192.92	16.66	-35.0	-36.2	29.4	3.03e+01	92	34	0	287834112	44	6222
2026-01-29 02:56:31.44	193.03	16.77	-34.9	-36.1	29.4	3.03e+01	92	34	0	289931264	44	6185
2026-01-29 02:56:32.45	193.14	16.89	-34.9	-36.1	29.4	3.03e+01	92	34	0	292028416	44	6167
2026-01-29 02:56:33.46	193.26	17.01	-34.8	-36.0	29.4	3.03e+01	90	34	0	293601280	44	6133
2026-01-29 02:56:34.47	193.37	17.13	-34.7	-35.9	29.6	3.03e+01	92	34	0	295698432	44	6033
2026-01-29 02:56:35.48	193.49	17.25	-34.7	-35.9	29.7	3.03e+01	92	34	0	297271296	44	5998
2026-01-29 02:56:36.49	193.60	17.36	-34.7	-35.8	29.7	3.03e+01	92	34	0	299368448	44	5988
2026-01-29 02:56:37.50	193.72	17.48	-34.8	-36.0	29.6	3.03e+01	90	34	0	301465600	44	6098
2026-01-29 02:56:38.51	193.83	17.60	-34.7	-35.9	29.7	3.03e+01	92	34	0	303038464	44	5999
2026-01-29 02:56:39.52	193.95	17.73	-34.9	-36.1	29.4	3.03e+01	92	34	0	305135616	44	6191
2026-01-29 02:56:40.52	194.07	17.85	-34.7	-35.9	29.7	3.03e+01	92	34	0	306708480	44	6004
2026-01-29 02:56:41.53	194.19	17.97	-34.9	-36.1	29.5	3.03e+01	92	34	0	308805632	44	6172
2026-01-29 02:56:42.54	194.31	18.09	-34.7	-35.9	29.6	3.03e+01	92	34	0	310902784	44	6059
2026-01-29 02:56:43.55	194.44	18.21	-34.7	-35.9	29.6	3.03e+01	92	34	0	312475648	44	6030
2026-01-29 02:56:44.56	194.56	18.34	-34.7	-35.9	29.7	3.03e+01	92	34	0	314572800	44	6021
2026-01-29 02:56:45.57	194.68	18.46	-34.7	-35.8	29.7	3.03e+01	92	34	0	316669952	44	5994
2026-01-29 02:56:46.58	194.81	18.59	-34.8	-35.9	29.6	3.03e+01	92	34	0	318242816	44	6060
2026-01-29 02:56:47.59	194.94	18.71	-34.7	-35.9	29.7	3.03e+01	92	34	0	320339968	44	6055
2026-01-29 02:56:48.60	195.06	18.84	-34.7	-35.9	29.6	3.03e+01	92	34	0	321912832	44	6045
2026-01-29 02:56:49.61	195.19	18.97	-34.9	-36.0	29.5	3.03e+01	92	34	0	324009984	44	6134
2026-01-29 02:56:50.62	195.32	19.09	-34.8	-36.0	29.6	3.03e+01	90	34	0	325582848	44	6068
2026-01-29 02:56:51.63	195.45	19.22	-34.7	-35.9	29.7	3.03e+01	92	34	0	327680000	44	6038
2026-01-29 02:56:52.64	195.58	19.35	-34.7	-35.9	29.7	3.03e+01	92	34	0	329777152	44	6010
2026-01-29 02:56:53.65	195.72	19.48	-34.6	-35.8	29.7	3.03e+01	90	34	0	331350016	44	5968
2026-01-29 02:56:54.66	195.85	19.61	-34.8	-36.0	29.6	3.03e+01	92	34	0	333447168	44	6072
2026-01-29 02:56:55.67	195.99	19.74	-34.9	-36.1	29.5	3.03e+01	91	34	0	335020032	44	6175
2026-01-29 02:56:56.68	196.12	19.87	-35.0	-36.2	29.4	3.03e+01	92	34	0	337117184	44	6236
2026-01-29 02:56:57.69	196.26	20.00	-35.1	-36.3	29.4	3.03e+01	91	34	0	339214336	44	6307
2026-01-29 02:56:58.70	196.40	20.13	-35.1	-36.3	29.3	3.03e+01	90	34	0	340787200	44	6304
2026-01-29 02:56:59.70	196.54	20.26	-35.1	-36.3	29.3	3.03e+01	91	34	0	342884352	44	6292
2026-01-29 02:57:00.71	196.68	20.40	-34.8	-36.0	29.6	3.03e+01	92	34	0	344981504	44	6116
2026-01-29 02:57:01.72	196.82	20.53	-34.7	-35.9	29.7	3.03e+01	88	34	0	346554368	44	6006
2026-01-29 02:57:02.73	196.97	20.66	-34.8	-36.0	29.6	3.03e+01	90	34	0	348651520	44	6103
2026-01-29 02:57:03.74	197.11	20.80	-34.9	-36.1	29.4	3.03e+01	92	34	0	350224384	44	6198
2026-01-29 02:57:04.75	197.26	20.93	-35.0	-36.2	29.4	3.03e+01	92	34	0	352321536	44	6213
2026-01-29 02:57:05.76	197.41	21.07	-35.1	-36.3	29.4	3.03e+01	92	34	0	354418688	44	6329
2026-01-29 02:57:06.77	197.56	21.21	-34.8	-36.0	29.5	3.03e+01	91	34	0	355991552	44	6109
2026-01-29 02:57:07.77	197.71	21.34	-34.8	-36.0	29.6	3.03e+01	92	34	0	358088704	44	6118
2026-01-29 02:57:08.78	197.86	21.48	-34.9	-36.1	29.5	3.03e+01	92	34	0	360185856	44	6173
2026-01-29 02:57:09.79	198.01	21.62	-35.1	-36.3	29.4	3.03e+01	92	34	0	361758720	44	6320
2026-01-29 02:57:10.80	198.17	21.76	-35.1	-36.3	29.3	3.03e+01	91	34	0	363855872	44	6347
2026-01-29 02:57:11.81	198.32	21.90	-35.2	-36.4	29.3	3.03e+01	92	34	0	365428736	44	6358
2026-01-29 02:57:12.82	198.48	22.04	-35.3	-36.5	29.2	3.03e+01	91	34	0	367525888	44	6432
2026-01-29 02:57:13.83	198.64	22.18	-35.3	-36.5	29.2	3.03e+01	91	34	0	369623040	44	6474
2026-01-29 02:57:14.84	198.80	22.32	-35.2	-36.5	29.3	3.03e+01	90	34	0	371195904	44	6431
2026-01-29 02:57:15.85	198.96	22.47	-35.3	-36.5	29.2	3.03e+01	90	34	0	373293056	44	6445
2026-01-29 02:57:16.86	199.12	22.61	-35.2	-36.4	29.4	3.03e+01	92	34	0	374865920	44	6361
2026-01-29 02:57:17.87	199.29	22.75	-35.1	-36.3	29.4	3.03e+01	92	34	0	376963072	44	6338
2026-01-29 02:57:18.89	199.46	22.90	-35.2	-36.4	29.3	3.03e+01	90	34	0	379060224	44	6408
2026-01-29 02:57:19.90	199.63	23.04	-35.1	-36.3	29.4	3.03e+01	90	34	0	380633088	44	6316
2026-01-29 02:57:20.91	199.80	23.19	-35.2	-36.4	29.3	3.03e+01	87	34	0	382730240	44	6391
2026-01-29 02:57:21.92	199.97	23.34	-35.1	-36.3	29.5	3.03e+01	91	34	0	384303104	44	6280
2026-01-29 02:57:22.93	200.14	23.48	-35.1	-36.3	29.4	3.03e+01	92	34	0	386400256	44	6303
2026-01-29 02:57:23.93	200.31	23.63	-35.1	-36.3	29.4	3.03e+01	90	34	0	388497408	44	6343
2026-01-29 02:57:24.94	200.49	23.78	-35.2	-36.5	29.2	3.03e+01	91	34	0	390070272	44	6429
2026-01-29 02:57:25.95	200.67	23.93	-35.2	-36.4	29.4	3.03e+01	92	34	0	392167424	44	6357
2026-01-29 02:57:26.96	200.85	24.08	-35.1	-36.3	29.4	3.03e+01	91	34	0	393740288	44	6320
2026-01-29 02:57:27.97	201.03	24.23	-35.2	-36.4	29.3	3.03e+01	92	34	0	395837440	44	6369
2026-01-29 02:57:28.98	201.21	24.38	-35.2	-36.4	29.3	3.03e+01	92	34	0	397934592	44	6364
2026-01-29 02:57:29.99	201.40	24.53	-35.1	-36.3	29.4	3.03e+01	90	34	0	399507456	44	6330
2026-01-29 02:57:31.00	201.59	24.68	-35.0	-36.2	29.5	3.03e+01	92	34	0	401604608	44	6258
2026-01-29 02:57:32.01	201.78	24.84	-35.1	-36.3	29.4	3.03e+01	92	34	0	403177472	44	6317
2026-01-29 02:57:33.02	201.97	24.99	-35.3	-36.5	29.2	3.03e+01	92	34	0	405274624	44	6445
2026-01-29 02:57:34.03	202.16	25.14	-35.1	-36.3	29.4	3.03e+01	91	34	0	407371776	44	6340
2026-01-29 02:57:35.04	202.35	25.30	-35.1	-36.3	29.4	3.03e+01	92	34	0	408944640	44	6308
2026-01-29 02:57:36.05	202.55	25.45	-35.1	-36.3	29.4	3.03e+01	92	34	0	411041792	44	6292
2026-01-29 02:57:37.06	202.75	25.61	-35.0	-36.2	29.5	3.03e+01	92	34	0	413138944	44	6217
2026-01-29 02:57:38.07	202.95	25.77	-35.1	-36.3	29.5	3.03e+01	90	34	0	414711808	44	6309
2026-01-29 02:57:39.07	203.15	25.92	-35.2	-36.4	29.3	3.03e+01	90	34	0	416808960	44	6365
2026-01-29 02:57:40.09	203.36	26.08	-35.2	-36.4	29.3	3.03e+01	92	34	0	418381824	44	6376
2026-01-29 02:57:41.10	203.56	26.24	-35.0	-36.2	29.5	3.03e+01	92	34	0	420478976	44	6264
2026-01-29 02:57:42.10	203.77	26.40	-34.8	-36.0	29.6	3.03e+01	90	34	0	422576128	44	6118
2026-01-29 02:57:43.11	203.98	26.56	-34.9	-36.1	29.6	3.03e+01	88	34	0	424148992	44	6199
2026-01-29 02:57:44.12	204.20	26.72	-35.2	-36.4	29.3	3.03e+01	89	34	0	426246144	44	6403
2026-01-29 02:57:45.13	204.41	26.88	-35.2	-36.4	29.4	3.03e+01	92	34	0	428343296	44	6387
2026-01-29 02:57:46.14	204.63	27.04	-35.0	-36.2	29.5	3.03e+01	92	34	0	429916160	44	6241
2026-01-29 02:57:47.15	204.85	27.21	-35.1	-36.3	29.4	3.03e+01	91	34	0	432013312	44	6296
2026-01-29 02:57:48.16	205.07	27.37	-35.1	-36.3	29.4	3.03e+01	91	34	0	433586176	44	6344
2026-01-29 02:57:49.17	205.30	27.53	-35.2	-36.4	29.4	3.03e+01	91	34	0	435683328	44	6368
2026-01-29 02:57:50.18	205.52	27.70	-35.0	-36.2	29.5	3.03e+01	92	34	0	437780480	44	6253
2026-01-29 02:57:51.19	205.75	27.86	-34.9	-36.1	29.5	3.03e+01	91	34	0	439353344	44	6197
2026-01-29 02:57:52.20	205.98	28.03	-34.9	-36.1	29.6	3.03e+01	90	34	0	441450496	44	6164
2026-01-29 02:57:53.21	206.22	28.20	-35.1	-36.2	29.4	3.03e+01	90	34	0	443023360	44	6275
2026-01-29 02:57:54.22	206.45	28.36	-35.0	-36.2	29.4	3.03e+01	89	34	0	445120512	44	6251
2026-01-29 02:57:55.23	206.69	28.53	-35.0	-36.2	29.5	3.03e+01	91	34	0	447217664	44	6268
2026-01-29 02:57:56.24	206.94	28.70	-35.0	-36.2	29.5	3.03e+01	92	34	0	448790528	44	6221
2026-01-29 02:57:57.24	207.18	28.86	-35.1	-36.3	29.4	3.03e+01	92	34	0	450887680	44	6306
2026-01-29 02:57:58.26	207.43	29.04	-35.1	-36.3	29.4	3.03e+01	92	34	0	452460544	44	6330
2026-01-29 02:57:59.27	207.68	29.21	-35.1	-36.3	29.4	3.03e+01	90	34	0	454557696	44	6324
2026-01-29 02:58:00.27	207.93	29.37	-35.0	-36.2	29.5	3.03e+01	91	34	0	456654848	44	6268
2026-01-29 02:58:01.28	208.18	29.54	-35.2	-36.4	29.3	3.03e+01	91	34	0	458227712	44	6357
2026-01-29 02:58:02.29	208.44	29.72	-35.0	-36.2	29.5	3.03e+01	87	34	0	460324864	44	6248
2026-01-29 02:58:03.30	208.70	29.89	-35.0	-36.2	29.5	3.03e+01	91	34	0	461897728	44	6234
2026-01-29 02:58:04.31	208.96	30.06	-35.0	-36.2	29.5	3.03e+01	92	34	0	463994880	44	6266
2026-01-29 02:58:05.32	209.23	30.23	-34.9	-36.1	29.5	3.03e+01	92	34	0	466092032	44	6152
2026-01-29 02:58:06.33	209.50	30.40	-35.2	-36.4	29.4	3.03e+01	91	34	0	467664896	44	6352
2026-01-29 02:58:07.34	209.77	30.58	-35.1	-36.4	29.4	3.03e+01	92	34	0	469762048	44	6354
2026-01-29 02:58:08.35	210.04	30.75	-35.0	-36.2	29.5	3.03e+01	90	34	0	471334912	44	6235
2026-01-29 02:58:09.36	210.32	30.93	-35.1	-36.3	29.5	3.03e+01	92	34	0	473432064	44	6303
2026-01-29 02:58:10.37	210.60	31.10	-35.1	-36.3	29.4	3.03e+01	91	34	0	475529216	44	6345
2026-01-29 02:58:11.38	210.89	31.28	-35.2	-36.4	29.3	3.03e+01	92	34	0	477102080	44	6423
2026-01-29 02:58:12.39	211.17	31.45	-35.1	-36.3	29.5	3.03e+01	90	34	0	479199232	44	6308
2026-01-29 02:58:13.40	211.46	31.63	-35.1	-36.3	29.4	3.03e+01	90	34	0	481296384	44	6344
2026-01-29 02:58:14.41	211.76	31.80	-35.4	-36.6	29.2	3.03e+01	92	34	0	482869248	44	6564
2026-01-29 02:58:15.42	212.05	31.98	-35.4	-36.7	29.2	3.03e+01	92	34	0	484966400	44	6578
2026-01-29 02:58:16.43	212.35	32.16	-35.3	-36.5	29.3	3.03e+01	92	34	0	486539264	44	6471
2026-01-29 02:58:17.44	212.66	32.33	-35.3	-36.4	29.4	3.03e+01	90	34	0	488636416	44	6421
2026-01-29 02:58:18.45	212.96	32.51	-35.3	-36.5	29.3	3.03e+01	92	34	0	490733568	44	6451
2026-01-29 02:58:19.45	213.27	32.69	-35.3	-36.6	29.3	3.03e+01	92	34	0	492306432	44	6511
2026-01-29 02:58:20.46	213.59	32.87	-35.5	-36.7	29.1	3.03e+01	92	34	0	494403584	44	6632
2026-01-29 02:58:21.47	213.90	33.04	-35.4	-36.6	29.3	3.03e+01	91	34	0	496500736	44	6506
2026-01-29 02:58:22.48	214.22	33.22	-35.4	-36.6	29.1	3.03e+01	92	34	0	498073600	44	6556
2026-01-29 02:58:23.49	214.55	33.40	-35.5	-36.7	29.1	3.03e+01	91	34	0	500170752	44	6618
2026-01-29 02:58:24.50	214.88	33.58	-35.4	-36.6	29.2	3.03e+01	90	34	0	501743616	44	6526
2026-01-29 02:58:25.51	215.21	33.76	-35.5	-36.7	29.2	3.03e+01	92	34	0	503840768	44	6608
2026-01-29 02:58:26.52	215.54	33.94	-35.6	-36.8	29.0	3.03e+01	92	34	0	505937920	44	6704
2026-01-29 02:58:27.53	215.88	34.11	-35.8	-37.0	28.9	3.03e+01	91	34	0	507510784	44	6849
2026-01-29 02:58:28.54	216.22	34.29	-35.4	-36.6	29.1	3.03e+01	90	34	0	509607936	44	6565
2026-01-29 02:58:29.55	216.57	34.47	-35.4	-36.7	29.2	3.03e+01	91	34	0	511180800	44	6578
2026-01-29 02:58:30.56	216.92	34.65	-35.6	-36.9	29.0	3.03e+01	92	34	0	513277952	44	6748
2026-01-29 02:58:31.57	217.27	34.83	-35.8	-37.0	28.8	3.03e+01	91	34	0	515375104	44	6870
2026-01-29 02:58:32.58	217.63	35.01	-35.8	-37.0	28.8	3.03e+01	91	34	0	516947968	44	6862
2026-01-29 02:58:33.59	217.99	35.19	-36.1	-37.3	28.5	3.03e+01	91	34	0	519045120	46	6330
2026-01-29 02:58:34.59	218.36	35.36	-35.8	-37.1	28.7	3.03e+01	92	34	0	520617984	46	6147
2026-01-29 02:58:35.60	218.73	35.54	-35.9	-37.1	28.8	3.03e+01	92	34	0	522715136	46	6190
2026-01-29 02:58:36.61	219.10	35.72	-36.0	-37.2	28.7	3.03e+01	92	34	0	524812288	46	6273
2026-01-29 02:58:37.62	219.48	35.89	-35.7	-36.9	28.9	3.03e+01	90	34	0	526385152	46	6054
2026-01-29 02:58:38.63	219.86	36.07	-36.0	-37.3	28.7	3.03e+01	92	34	0	528482304	46	6311
2026-01-29 02:58:39.64	220.25	36.25	-36.2	-37.5	28.5	3.03e+01	92	34	0	530055168	46	6426
2026-01-29 02:58:40.65	220.64	36.42	-36.0	-37.2	28.7	3.03e+01	87	34	0	532152320	46	6273
2026-01-29 02:58:41.66	221.04	36.60	-35.9	-37.2	28.7	3.03e+01	91	34	0	534249472	46	6227
2026-01-29 02:58:42.67	221.43	36.78	-36.0	-37.2	28.7	3.03e+01	92	34	0	535822336	46	6275
2026-01-29 02:58:43.68	221.84	36.95	-35.8	-37.0	28.8	3.03e+01	92	34	0	537919488	46	6110
2026-01-29 02:58:44.69	222.25	37.12	-35.7	-37.0	29.0	3.03e+01	91	34	0	539492352	46	6077
2026-01-29 02:58:45.70	222.66	37.30	-35.8	-37.0	28.8	3.03e+01	91	34	0	541589504	46	6124
2026-01-29 02:58:46.71	223.08	37.47	-35.8	-37.0	28.9	3.03e+01	92	34	0	543686656	46	6119
2026-01-29 02:58:47.72	223.50	37.64	-35.9	-37.1	28.8	3.03e+01	92	34	0	545259520	46	6156
2026-01-29 02:58:48.73	223.92	37.81	-35.8	-37.1	28.8	3.03e+01	92	34	0	547356672	46	6154
2026-01-29 02:58:49.74	224.35	37.99	-35.7	-36.9	29.1	3.03e+01	92	34	0	549453824	46	6022
2026-01-29 02:58:50.75	224.79	38.16	-35.7	-37.0	28.8	3.03e+01	92	34	0	551026688	46	6088
2026-01-29 02:58:51.76	225.23	38.32	-35.5	-36.7	29.2	3.03e+01	92	34	0	553123840	46	5870
2026-01-29 02:58:52.77	225.67	38.49	-35.7	-36.9	29.0	3.03e+01	92	34	0	554696704	46	6024
2026-01-29 02:58:53.77	226.12	38.66	-35.6	-36.8	29.1	3.03e+01	91	34	0	556793856	46	5964
2026-01-29 02:58:54.78	226.57	38.82	-35.6	-36.8	29.1	3.03e+01	92	34	0	558891008	46	5956
2026-01-29 02:58:55.79	227.03	38.99	-35.7	-36.9	29.1	3.03e+01	91	34	0	560463872	46	6020
2026-01-29 02:58:56.80	227.49	39.15	-35.6	-36.8	29.0	3.03e+01	91	34	0	562561024	46	5981
2026-01-29 02:58:57.81	227.96	39.31	-35.3	-36.5	29.3	3.03e+01	91	34	0	564133888	46	5790
2026-01-29 02:58:58.82	228.43	39.47	-35.4	-36.6	29.2	3.03e+01	91	34	0	566231040	46	5820
2026-01-29 02:58:59.83	228.91	39.63	-35.3	-36.5	29.3	3.03e+01	89	34	0	568328192	46	5790
2026-01-29 02:59:00.84	229.39	39.79	-35.3	-36.5	29.3	3.03e+01	92	34	0	569901056	46	5787
2026-01-29 02:59:01.85	229.88	39.95	-35.3	-36.6	29.3	3.03e+01	92	34	0	571998208	46	5803
2026-01-29 02:59:02.86	230.37	40.10	-35.2	-36.4	29.4	3.03e+01	87	34	0	573571072	46	5686
2026-01-29 02:59:03.87	230.87	40.26	-35.3	-36.5	29.3	3.03e+01	92	34	0	575668224	46	5735
2026-01-29 02:59:04.88	231.37	40.41	-35.0	-36.1	29.7	3.03e+01	92	34	0	577765376	46	5522
2026-01-29 02:59:05.89	231.87	40.56	-35.1	-36.3	29.5	3.03e+01	92	34	0	579338240	46	5615
2026-01-29 02:59:06.90	232.38	40.71	-35.2	-36.4	29.4	3.03e+01	91	34	0	581435392	46	5705
2026-01-29 02:59:07.91	232.90	40.85	-34.8	-36.0	29.7	3.03e+01	92	34	0	583008256	44	6112
2026-01-29 02:59:08.91	233.41	41.00	-34.6	-35.8	29.9	3.03e+01	92	34	0	585105408	44	5983
2026-01-29 02:59:09.92	233.93	41.14	-35.0	-36.2	29.7	3.03e+01	91	34	0	587202560	44	6237
2026-01-29 02:59:10.93	234.46	41.28	-34.8	-35.9	29.8	3.03e+01	90	34	0	588775424	44	6056
2026-01-29 02:59:11.94	235.00	41.42	-34.5	-35.7	30.0	3.03e+01	92	34	0	590872576	44	5874
2026-01-29 02:59:12.95	235.53	41.56	-34.5	-35.7	30.0	3.03e+01	92	34	0	592969728	44	5880
2026-01-29 02:59:13.96	236.08	41.69	-34.4	-35.6	30.0	3.03e+01	90	34	0	594542592	44	5831
2026-01-29 02:59:14.97	236.62	41.82	-34.6	-35.7	30.0	3.03e+01	92	34	0	596639744	44	5925
2026-01-29 02:59:15.98	237.17	41.95	-34.7	-35.9	29.8	3.03e+01	90	34	0	598212608	44	6047
2026-01-29 02:59:16.99	237.73	42.08	-34.4	-35.5	30.1	3.03e+01	92	34	0	600309760	44	5777
2026-01-29 02:59:18.00	238.29	42.20	-34.4	-35.6	30.2	3.03e+01	92	34	0	602406912	44	5804
2026-01-29 02:59:19.01	238.85	42.32	-34.6	-35.8	30.0	3.03e+01	90	34	0	603979776	44	5953
2026-01-29 02:59:20.02	239.42	42.44	-34.5	-35.6	30.1	3.03e+01	92	34	0	606076928	44	5851
2026-01-29 02:59:21.03	240.00	42.56	-34.7	-35.9	29.8	3.03e+01	92	34	0	607649792	44	6005
2026-01-29 02:59:22.04	240.57	42.67	-34.8	-36.0	29.8	3.03e+01	91	34	0	609746944	44	6086
2026-01-29 02:59:23.05	241.15	42.79	-34.4	-35.5	30.2	3.03e+01	92	34	0	611844096	44	5767
2026-01-29 02:59:24.06	241.74	42.89	-34.7	-35.9	29.9	3.03e+01	92	34	0	613416960	44	6005
2026-01-29 02:59:25.07	242.33	43.00	-34.4	-35.6	30.0	3.03e+01	92	34	0	615514112	44	5818
2026-01-29 02:59:26.08	242.92	43.10	-34.5	-35.7	30.0	3.03e+01	92	34	0	617611264	44	5876
2026-01-29 02:59:27.09	243.52	43.20	-34.6	-35.8	29.9	3.03e+01	90	34	0	619184128	44	5939
2026-01-29 02:59:28.10	244.12	43.30	-34.3	-35.5	30.2	3.03e+01	90	34	0	621281280	44	5732
2026-01-29 02:59:29.11	244.72	43.39	-34.4	-35.6	30.1	3.03e+01	90	34	0	622854144	44	5792
2026-01-29 02:59:30.12	245.33	43.48	-34.2	-35.3	30.3	3.03e+01	92	34	0	624951296	44	5653
2026-01-29 02:59:31.13	245.94	43.57	-34.2	-35.4	30.4	3.03e+01	90	34	0	627048448	44	5667
2026-01-29 02:59:32.13	246.55	43.65	-34.3	-35.5	30.2	3.03e+01	92	34	0	628621312	44	5739
2026-01-29 02:59:33.14	247.16	43.73	-34.3	-35.5	30.2	3.03e+01	91	34	0	630718464	44	5744
2026-01-29 02:59:34.15	247.78	43.81	-34.2	-35.4	30.2	3.03e+01	90	34	0	632291328	44	5669
2026-01-29 02:59:35.16	248.41	43.88	-34.5	-35.7	30.0	3.03e+01	91	34	0	634388480	44	5888
2026-01-29 02:59:36.17	249.03	43.95	-34.2	-35.3	30.3	3.03e+01	90	34	0	636485632	44	5623
2026-01-29 02:59:37.18	249.66	44.01	-34.4	-35.5	30.2	3.03e+01	91	34	0	638058496	44	5780
2026-01-29 02:59:38.19	250.29	44.08	-34.4	-35.5	30.0	3.03e+01	91	34	0	640155648	44	5787
2026-01-29 02:59:39.20	250.92	44.13	-34.4	-35.5	30.1	3.03e+01	90	34	0	641728512	44	5775
2026-01-29 02:59:40.21	251.56	44.19	-34.4	-35.6	30.2	3.03e+01	90	34	0	643825664	44	5822
2026-01-29 02:59:41.22	252.20	44.24	-34.7	-35.9	29.9	3.03e+01	91	34	0	645922816	44	6036
2026-01-29 02:59:42.23	252.84	44.29	-34.3	-35.5	30.3	3.03e+01	91	34	0	647495680	44	5749
2026-01-29 02:59:43.24	253.48	44.33	-34.4	-35.6	30.1	3.03e+01	92	34	0	649592832	44	5814
2026-01-29 02:59:44.25	254.12	44.37	-34.3	-35.5	30.2	3.03e+01	92	34	0	651165696	44	5749
2026-01-29 02:59:45.26	254.76	44.41	-34.5	-35.7	30.1	3.03e+01	92	34	0	653262848	44	5896
2026-01-29 02:59:46.27	255.41	44.44	-34.5	-35.6	30.0	3.03e+01	92	34	0	655360000	44	5855
2026-01-29 02:59:47.28	256.06	44.47	-34.5	-35.7	30.0	3.03e+01	91	34	0	656932864	44	5889
2026-01-29 02:59:48.28	256.70	44.49	-34.4	-35.6	30.1	3.03e+01	91	34	0	659030016	44	5803
2026-01-29 02:59:49.29	257.35	44.51	-34.5	-35.7	30.0	3.03e+01	91	34	0	661127168	44	5892
2026-01-29 02:59:50.30	258.00	44.53	-34.6	-35.8	29.9	3.03e+01	90	34	0	662700032	44	5942
2026-01-29 02:59:51.31	258.65	44.54	-34.6	-35.8	30.0	3.03e+01	92	34	0	664797184	44	5951
2026-01-29 02:59:52.32	259.30	44.55	-34.5	-35.7	30.1	3.03e+01	91	34	0	666370048	44	5876
2026-01-29 02:59:53.33	259.95	44.55	-34.5	-35.7	30.0	3.03e+01	91	34	0	668467200	44	5876
2026-01-29 02:59:54.34	260.60	44.55	-34.6	-35.8	29.9	3.03e+01	92	34	0	670564352	44	5977
2026-01-29 02:59:55.35	261.25	44.55	-34.5	-35.7	30.1	3.03e+01	92	34	0	672137216	44	5903
2026-01-29 02:59:56.36	261.90	44.54	-34.5	-35.6	30.1	3.03e+01	92	34	0	674234368	44	5857
2026-01-29 02:59:57.37	262.55	44.53	-34.6	-35.8	29.9	3.03e+01	92	34	0	675807232	44	5949
2026-01-29 02:59:58.38	263.20	44.51	-34.7	-35.9	29.9	3.03e+01	92	34	0	677904384	44	5995
2026-01-29 02:59:59.39	263.85	44.50	-34.7	-35.9	29.9	3.03e+01	92	34	0	680001536	44	6016
2026-01-29 03:00:00.40	264.50	44.47	-34.8	-36.0	29.8	3.03e+01	92	34	0	681574400	44	6088
2026-01-29 03:00:01.41	265.14	44.44	-34.9	-36.0	29.9	3.03e+01	92	34	0	683671552	44	6132
2026-01-29 03:00:02.42	265.79	44.41	-35.0	-36.2	29.5	3.03e+01	92	34	0	685244416	44	6268
2026-01-29 03:00:03.43	266.44	44.38	-35.1	-36.3	29.8	3.03e+01	86	34	0	687341568	44	6304
2026-01-29 03:00:04.44	267.08	44.34	-35.0	-36.3	29.5	3.03e+01	92	34	0	689438720	44	6281
2026-01-29 03:00:05.44	267.71	44.30	-35.0	-36.2	29.8	3.03e+01	92	34	0	691011584	44	6254
2026-01-29 03:00:06.45	268.35	44.25	-35.1	-36.3	29.6	3.03e+01	92	34	0	693108736	44	6294
2026-01-29 03:00:07.46	268.99	44.20	-35.0	-36.2	29.5	3.03e+01	92	34	0	694681600	44	6217
2026-01-29 03:00:08.47	269.62	44.15	-35.1	-36.3	29.5	3.03e+01	90	34	0	696778752	44	6315
2026-01-29 03:00:09.48	270.26	44.09	-35.2	-36.4	29.4	3.03e+01	92	34	0	698875904	44	6386
2026-01-29 03:00:10.49	270.89	44.03	-35.4	-36.6	29.3	3.03e+01	92	34	0	700448768	44	6546
2026-01-29 03:00:11.50	271.52	43.96	-35.2	-36.4	29.5	3.03e+01	91	34	0	702545920	44	6365
2026-01-29 03:00:12.51	272.14	43.89	-35.2	-36.3	29.5	3.03e+01	92	34	0	704118784	44	6349
2026-01-29 03:00:13.52	272.76	43.82	-35.1	-36.3	29.6	3.03e+01	92	34	0	706215936	44	6339
2026-01-29 03:00:14.53	273.38	43.75	-35.2	-36.4	29.6	3.03e+01	91	34	0	708313088	44	6376
2026-01-29 03:00:15.54	274.00	43.67	-34.7	-35.9	29.8	3.03e+01	90	34	0	709885952	44	6036
2026-01-29 03:00:16.55	274.62	43.59	-34.8	-36.0	29.9	3.03e+01	91	34	0	711983104	44	6096
2026-01-29 03:00:17.56	275.23	43.50	-35.1	-36.3	29.6	3.03e+01	91	34	0	714080256	44	6287
2026-01-29 03:00:18.57	275.83	43.41	-34.8	-36.0	29.9	3.03e+01	91	34	0	715653120	44	6084
2026-01-29 03:00:19.58	276.44	43.32	-34.9	-36.1	29.7	3.03e+01	90	34	0	717750272	44	6182
2026-01-29 03:00:20.58	277.03	43.23	-34.8	-36.0	29.8	3.03e+01	92	34	0	719323136	44	6088
2026-01-29 03:00:21.59	277.63	43.13	-34.9	-36.1	29.8	3.03e+01	92	34	0	721420288	44	6138
2026-01-29 03:00:22.60	278.22	43.03	-35.0	-36.2	29.6	3.03e+01	92	34	0	723517440	44	6215
2026-01-29 03:00:23.61	278.81	42.92	-34.9	-36.1	29.7	3.03e+01	92	34	0	725090304	44	6177
2026-01-29 03:00:24.62	279.39	42.81	-35.1	-36.3	29.6	3.03e+01	90	34	0	727187456	44	6309
2026-01-29 03:00:25.63	279.97	42.70	-35.1	-36.3	29.6	3.03e+01	92	34	0	729284608	44	6333
2026-01-29 03:00:26.64	280.55	42.59	-35.2	-36.5	29.5	3.03e+01	91	34	0	730857472	44	6427
2026-01-29 03:00:27.65	281.12	42.48	-34.9	-36.1	29.7	3.03e+01	91	34	0	732954624	44	6156
2026-01-29 03:00:28.66	281.69	42.36	-35.1	-36.3	29.6	3.03e+01	92	34	0	734527488	44	6289
2026-01-29 03:00:29.67	282.26	42.24	-34.9	-36.0	29.8	3.03e+01	91	34	0	736624640	44	6123
2026-01-29 03:00:30.68	282.82	42.11	-35.1	-36.3	29.6	3.03e+01	91	34	0	738721792	44	6282
2026-01-29 03:00:31.69	283.37	41.99	-35.2	-36.4	29.4	3.03e+01	91	34	0	740294656	44	6408
2026-01-29 03:00:32.70	283.92	41.86	-35.0	-36.3	29.6	3.03e+01	90	34	0	742391808	44	6281
2026-01-29 03:00:33.71	284.47	41.73	-35.1	-36.3	29.6	3.03e+01	91	34	0	743964672	44	6324
2026-01-29 03:00:34.72	285.01	41.59	-35.2	-36.4	29.4	3.03e+01	92	34	0	746061824	44	6398
2026-01-29 03:00:35.73	285.55	41.46	-35.2	-36.4	29.6	3.03e+01	92	34	0	748158976	44	6416
2026-01-29 03:00:36.74	286.08	41.32	-35.3	-36.5	29.4	3.03e+01	92	34	0	749731840	44	6444
2026-01-29 03:00:37.75	286.61	41.18	-35.3	-36.5	29.2	3.03e+01	92	34	0	751828992	44	6479
2026-01-29 03:00:38.75	287.13	41.04	-35.5	-36.7	29.2	3.03e+01	92	34	0	753401856	44	6594
2026-01-29 03:00:39.76	287.65	40.90	-35.5	-36.7	29.3	3.03e+01	92	34	0	755499008	44	6605
2026-01-29 03:00:40.77	288.16	40.75	-35.2	-36.4	29.5	3.03e+01	91	34	0	757596160	44	6362
2026-01-29 03:00:41.79	288.68	40.60	-35.3	-36.5	29.5	3.03e+01	92	34	0	759169024	44	6471
2026-01-29 03:00:42.79	289.18	40.46	-35.3	-36.5	29.4	3.03e+01	92	34	0	761266176	44	6457
2026-01-29 03:00:43.80	289.68	40.30	-35.4	-36.6	29.3	3.03e+01	92	34	0	762839040	44	6522
2026-01-29 03:00:44.81	290.17	40.15	-35.4	-36.6	29.3	3.03e+01	87	34	0	764936192	44	6555
2026-01-29 03:00:45.82	290.67	40.00	-35.5	-36.7	29.3	3.03e+01	92	34	0	767033344	44	6587
2026-01-29 03:00:46.84	291.16	39.84	-35.3	-36.5	29.4	3.03e+01	92	34	0	768606208	44	6438
2026-01-29 03:00:47.84	291.63	39.68	-35.4	-36.6	29.3	3.03e+01	91	34	0	770703360	44	6507
2026-01-29 03:00:48.85	292.11	39.53	-35.2	-36.5	29.4	3.03e+01	91	34	0	772276224	44	6430
2026-01-29 03:00:49.86	292.58	39.37	-35.4	-36.6	29.4	3.03e+01	92	34	0	774373376	44	6536
2026-01-29 03:00:50.87	293.05	39.21	-35.4	-36.6	29.1	3.03e+01	91	34	0	776470528	44	6567
2026-01-29 03:00:51.88	293.51	39.04	-35.1	-36.3	29.6	3.03e+01	92	34	0	778043392	44	6325
2026-01-29 03:00:52.89	293.97	38.88	-35.1	-36.3	29.6	3.03e+01	92	34	0	780140544	44	6309
2026-01-29 03:00:53.90	294.42	38.71	-35.5	-36.8	29.2	3.03e+01	92	34	0	782237696	44	6651
2026-01-29 03:00:54.91	294.87	38.55	-35.5	-36.7	29.2	3.03e+01	91	34	0	783810560	44	6630
2026-01-29 03:00:55.92	295.32	38.38	-35.1	-36.3	29.6	3.03e+01	92	34	0	785907712	44	6307
2026-01-29 03:00:56.93	295.76	38.21	-35.3	-36.5	29.3	3.03e+01	92	34	0	787480576	44	6455
2026-01-29 03:00:57.94	296.19	38.05	-35.4	-36.6	29.3	3.03e+01	92	34	0	789577728	44	6548
2026-01-29 03:00:58.95	296.62	37.88	-35.1	-36.3	29.5	3.03e+01	90	34	0	791674880	44	6350
2026-01-29 03:00:59.96	297.05	37.71	-35.0	-36.2	29.7	3.03e+01	92	34	0	793247744	44	6248
2026-01-29 03:01:00.97	297.47	37.53	-35.0	-36.3	29.6	3.03e+01	91	34	0	795344896	44	6308
2026-01-29 03:01:01.98	297.89	37.36	-34.9	-36.1	29.7	3.03e+01	91	34	0	797442048	44	6194
2026-01-29 03:01:02.99	298.30	37.19	-34.7	-35.9	29.9	3.03e+01	92	34	0	799014912	44	6011
2026-01-29 03:01:04.00	298.71	37.02	-34.7	-35.9	29.9	3.03e+01	88	34	0	801112064	44	6046
2026-01-29 03:01:05.00	299.11	36.84	-34.8	-36.0	29.8	3.03e+01	92	35	0	802684928	44	6122
2026-01-29 03:01:06.01	299.51	36.67	-34.6	-35.9	29.9	3.03e+01	92	34	0	804782080	44	5996
2026-01-29 03:01:07.02	299.90	36.50	-34.6	-35.9	30.0	3.03e+01	92	34	0	806879232	44	6005
2026-01-29 03:01:08.03	300.29	36.32	-34.6	-35.8	30.1	3.03e+01	90	34	0	808452096	44	5943
2026-01-29 03:01:09.04	300.68	36.14	-34.4	-35.5	30.2	3.03e+01	90	34	0	810549248	44	5783
2026-01-29 03:01:10.05	301.06	35.97	-34.2	-35.4	30.4	3.03e+01	92	34	0	812122112	44	5679
2026-01-29 03:01:11.06	301.44	35.79	-34.4	-35.6	30.2	3.03e+01	90	34	0	814219264	44	5807
2026-01-29 03:01:12.07	301.82	35.62	-34.2	-35.4	30.3	3.03e+01	92	34	0	815792128	44	5711
2026-01-29 03:01:13.08	302.19	35.44	-34.3	-35.5	30.2	3.03e+01	92	34	0	817889280	44	5775
2026-01-29 03:01:14.09	302.55	35.26	-34.3	-35.5	30.3	3.03e+01	92	34	0	819986432	44	5745
2026-01-29 03:01:15.10	302.91	35.08	-34.0	-35.2	30.5	3.03e+01	92	34	0	821559296	44	5547
2026-01-29 03:01:16.11	303.27	34.91	-34.2	-35.4	30.3	3.03e+01	90	34	0	823656448	44	5699
2026-01-29 03:01:17.12	303.63	34.73	-34.0	-35.1	30.4	3.03e+01	92	34	0	825753600	44	5510
2026-01-29 03:01:18.13	303.98	34.55	-33.7	-34.8	30.9	3.03e+01	90	34	0	827326464	42	5952
2026-01-29 03:01:19.13	304.32	34.38	-33.7	-34.9	30.8	3.03e+01	92	34	0	829423616	42	5995
2026-01-29 03:01:20.14	304.66	34.20	-34.0	-35.1	30.6	3.03e+01	91	34	0	830996480	42	6185
2026-01-29 03:01:21.15	305.00	34.02	-34.0	-35.2	30.6	3.03e+01	91	34	0	833093632	42	6216
2026-01-29 03:01:22.16	305.34	33.84	-33.9	-35.0	30.6	3.03e+01	90	34	0	835190784	42	6104
2026-01-29 03:01:23.17	305.67	33.66	-33.8	-35.0	30.7	3.03e+01	92	34	0	836763648	42	6084
2026-01-29 03:01:24.18	306.00	33.49	-33.6	-34.8	30.8	3.03e+01	91	34	0	838860800	42	5951
2026-01-29 03:01:25.19	306.32	33.31	-33.6	-34.8	30.9	3.03e+01	90	34	0	840433664	42	5933
2026-01-29 03:01:26.20	306.64	33.13	-33.5	-34.6	30.9	3.03e+01	90	34	0	842530816	42	5854
2026-01-29 03:01:27.21	306.96	32.96	-33.4	-34.5	31.0	3.03e+01	91	34	0	844627968	42	5789
2026-01-29 03:01:28.22	307.27	32.78	-33.4	-34.5	31.1	3.03e+01	92	34	0	846200832	42	5762
2026-01-29 03:01:29.23	307.58	32.60	-33.5	-34.6	31.0	3.03e+01	92	34	0	848297984	42	5853
2026-01-29 03:01:30.24	307.89	32.43	-33.7	-34.9	30.7	3.03e+01	90	34	0	850395136	42	5996
2026-01-29 03:01:31.25	308.19	32.25	-33.8	-35.0	30.6	3.03e+01	92	34	0	851968000	42	6091
2026-01-29 03:01:32.26	308.49	32.07	-33.4	-34.5	30.9	3.03e+01	92	34	0	854065152	42	5777
2026-01-29 03:01:33.27	308.79	31.90	-33.4	-34.5	31.0	3.03e+01	90	34	0	855638016	42	5791
2026-01-29 03:01:34.27	309.08	31.72	-33.1	-34.2	31.3	3.03e+01	91	34	0	857735168	42	5558
2026-01-29 03:01:35.28	309.37	31.55	-33.3	-34.4	31.2	3.03e+01	92	34	0	859832320	42	5696
2026-01-29 03:01:36.29	309.66	31.37	-33.4	-34.6	31.0	3.03e+01	91	34	0	861405184	42	5812
2026-01-29 03:01:37.30	309.94	31.20	-33.5	-34.6	31.0	3.03e+01	90	34	0	863502336	42	5840
2026-01-29 03:01:38.31	310.22	31.03	-33.5	-34.7	30.9	3.03e+01	90	34	0	865075200	42	5868
2026-01-29 03:01:39.32	310.50	30.85	-33.7	-34.9	30.8	3.03e+01	92	34	0	867172352	42	6002
2026-01-29 03:01:40.33	310.78	30.68	-33.6	-34.7	30.8	3.03e+01	91	34	0	869269504	42	5908
2026-01-29 03:01:41.34	311.05	30.51	-33.7	-34.8	30.7	3.03e+01	91	34	0	870842368	42	5972
2026-01-29 03:01:42.35	311.32	30.34	-33.7	-34.8	30.8	3.03e+01	87	34	0	872939520	42	5955
2026-01-29 03:01:43.35	311.58	30.17	-33.5	-34.7	30.8	3.03e+01	89	34	0	874512384	42	5879
2026-01-29 03:01:44.36	311.84	29.99	-33.3	-34.4	31.1	3.03e+01	90	34	0	876609536	42	5723
2026-01-29 03:01:45.37	312.10	29.82	-33.3	-34.5	31.0	3.03e+01	90	34	0	878706688	42	5736
2026-01-29 03:01:46.38	312.36	29.65	-33.6	-34.7	30.9	3.03e+01	92	34	0	880279552	42	5889
2026-01-29 03:01:47.39	312.62	29.48	-33.6	-34.8	30.8	3.03e+01	92	34	0	882376704	42	5944
2026-01-29 03:01:48.40	312.87	29.31	-33.7	-34.9	30.6	3.03e+01	92	34	0	883949568	42	6022
2026-01-29 03:01:49.41	313.12	29.14	-33.7	-34.8	30.8	3.03e+01	90	34	0	886046720	42	5953
2026-01-29 03:01:50.42	313.37	28.98	-33.6	-34.8	30.8	3.03e+01	92	34	0	888143872	42	5960
2026-01-29 03:01:51.43	313.61	28.81	-33.7	-34.8	30.7	3.03e+01	92	34	0	889716736	42	5985
2026-01-29 03:01:52.44	313.85	28.64	-33.8	-35.0	30.6	3.03e+01	92	34	0	891813888	42	6098
2026-01-29 03:01:53.44	314.09	28.48	-33.8	-35.0	30.7	3.03e+01	90	34	0	893911040	42	6073
2026-01-29 03:01:54.46	314.33	28.31	-33.9	-35.0	30.6	3.03e+01	92	34	0	895483904	42	6114
2026-01-29 03:01:55.46	314.56	28.15	-33.8	-35.0	30.6	3.03e+01	92	34	0	897581056	42	6100
2026-01-29 03:01:56.47	314.79	27.98	-34.0	-35.1	30.6	3.03e+01	92	34	0	899153920	42	6191
2026-01-29 03:01:57.48	315.02	27.82	-34.1	-35.2	30.4	3.03e+01	92	34	0	901251072	42	6250
2026-01-29 03:01:58.49	315.25	27.65	-34.0	-35.2	30.5	3.03e+01	92	34	0	903348224	42	6226
2026-01-29 03:01:59.50	315.47	27.49	-34.2	-35.3	30.4	3.03e+01	92	34	0	904921088	42	6348
2026-01-29 03:02:00.51	315.70	27.33	-34.2	-35.4	30.2	3.03e+01	90	34	0	907018240	42	6362
2026-01-29 03:02:01.52	315.92	27.17	-34.1	-35.3	30.2	3.03e+01	92	34	0	908591104	42	6308
2026-01-29 03:02:02.53	316.13	27.00	-34.2	-35.3	30.3	3.03e+01	92	34	0	910688256	42	6329
2026-01-29 03:02:03.54	316.35	26.84	-34.0	-35.1	30.5	3.03e+01	92	34	0	912785408	42	6191
2026-01-29 03:02:04.54	316.56	26.68	-34.0	-35.1	30.4	3.03e+01	92	34	0	914358272	42	6176
2026-01-29 03:02:05.56	316.77	26.52	-33.8	-34.9	30.6	3.03e+01	92	34	0	916455424	42	6051
2026-01-29 03:02:06.57	316.98	26.37	-33.8	-34.9	30.6	3.03e+01	90	34	0	918028288	42	6027
2026-01-29 03:02:07.58	317.19	26.21	-33.9	-35.0	30.6	3.03e+01	92	34	0	920125440	42	6128
2026-01-29 03:02:08.58	317.39	26.05	-34.2	-35.4	30.4	3.03e+01	92	34	0	922222592	42	6354
2026-01-29 03:02:09.59	317.60	25.89	-34.4	-35.6	30.0	3.03e+01	92	34	0	923795456	42	6561
2026-01-29 03:02:10.60	317.80	25.74	-34.7	-35.9	30.0	3.03e+01	92	34	0	925892608	42	6741
2026-01-29 03:02:11.61	318.00	25.58	-34.6	-35.7	30.0	3.03e+01	92	34	0	927465472	42	6646
2026-01-29 03:02:12.62	318.19	25.43	-34.6	-35.8	29.9	3.03e+01	92	34	0	929562624	42	6680
2026-01-29 03:02:13.63	318.39	25.27	-34.4	-35.6	30.0	3.03e+01	91	34	0	931659776	42	6499
2026-01-29 03:02:14.64	318.58	25.12	-34.3	-35.5	30.1	3.03e+01	91	34	0	933232640	42	6454
2026-01-29 03:02:15.65	318.77	24.97	-34.2	-35.4	30.3	3.03e+01	91	34	0	935329792	42	6354
2026-01-29 03:02:16.66	318.96	24.81	-34.3	-35.4	30.2	3.03e+01	92	34	0	936902656	42	6410
2026-01-29 03:02:17.67	319.15	24.66	-34.3	-35.4	30.2	3.03e+01	92	34	0	938999808	42	6406
2026-01-29 03:02:18.68	319.34	24.51	-34.4	-35.5	30.1	3.03e+01	89	34	0	941096960	42	6489
2026-01-29 03:02:19.69	319.52	24.36	-34.4	-35.6	30.0	3.03e+01	91	34	0	942669824	42	6531
2026-01-29 03:02:20.69	319.70	24.21	-34.3	-35.5	30.1	3.03e+01	92	34	0	944766976	42	6471
2026-01-29 03:02:21.70	319.88	24.06	-34.3	-35.5	30.1	3.03e+01	58	34	0	946864128	42	6477
2026-01-29 03:02:22.71	320.06	23.91	-34.2	-35.3	30.2	3.03e+01	55	34	0	948436992	42	6345
2026-01-29 03:02:23.72	320.24	23.77	-34.1	-35.3	30.3	3.03e+01	61	34	0	950534144	42	6312
2026-01-29 03:02:24.73	320.41	23.62	-34.1	-35.2	30.4	3.03e+01	60	34	0	952107008	42	6242
2026-01-29 03:02:25.74	320.58	23.47	-34.3	-35.4	30.3	3.03e+01	55	34	0	954204160	42	6400
2026-01-29 03:02:26.75	320.76	23.33	-34.4	-35.5	30.1	3.03e+01	59	34	0	956301312	42	6484
2026-01-29 03:02:27.76	320.93	23.18	-34.3	-35.5	30.1	3.03e+01	46	34	0	957874176	42	6452
2026-01-29 03:02:28.77	321.09	23.04	-34.4	-35.6	30.1	3.03e+01	60	34	0	959971328	42	6500
2026-01-29 03:02:29.77	321.26	22.90	-34.3	-35.5	30.2	3.03e+01	56	34	0	961544192	42	6444
2026-01-29 03:02:30.78	321.43	22.75	-34.4	-35.6	30.1	3.03e+01	53	34	0	963641344	42	6533
2026-01-29 03:02:31.79	321.59	22.61	-34.4	-35.5	30.1	3.03e+01	60	34	0	965738496	42	6486
2026-01-29 03:02:32.80	321.75	22.47	-34.4	-35.6	30.1	3.03e+01	60	34	0	967311360	42	6543
2026-01-29 03:02:33.81	321.91	22.33	-34.4	-35.6	30.0	3.03e+01	58	34	0	969408512	42	6531
2026-01-29 03:02:34.82	322.07	22.19	-34.5	-35.6	29.9	3.03e+01	60	34	0	970981376	42	6568
2026-01-29 03:02:35.83	322.23	22.05	-34.5	-35.7	30.0	3.03e+01	47	34	0	973078528	42	6594
2026-01-29 03:02:36.84	322.39	21.91	-34.3	-35.5	30.1	3.03e+01	59	34	0	975175680	42	6430
2026-01-29 03:02:37.85	322.54	21.77	-34.1	-35.3	30.2	3.03e+01	57	34	0	976748544	42	6297
2026-01-29 03:02:38.86	322.70	21.63	-34.1	-35.3	30.3	3.03e+01	44	34	0	978845696	42	6282
2026-01-29 03:02:39.87	322.85	21.49	-34.3	-35.4	30.2	3.03e+01	56	34	0	980418560	42	6410
2026-01-29 03:02:40.88	323.00	21.35	-34.3	-35.5	30.2	3.03e+01	61	34	0	982515712	42	6439
2026-01-29 03:02:41.88	323.15	21.22	-34.3	-35.5	30.1	3.03e+01	58	34	0	984612864	42	6446
2026-01-29 03:02:42.89	323.30	21.08	-34.3	-35.5	30.1	3.03e+01	55	34	0	986185728	42	6442
2026-01-29 03:02:43.90	323.44	20.95	-34.2	-35.4	30.2	3.03e+01	57	34	0	988282880	42	6395
2026-01-29 03:02:44.91	323.59	20.81	-34.3	-35.4	30.1	3.03e+01	58	34	0	989855744	42	6407
2026-01-29 03:02:45.92	323.73	20.68	-34.1	-35.3	30.2	3.03e+01	57	34	0	991952896	42	6315
2026-01-29 03:02:46.93	323.88	20.55	-34.2	-35.3	30.2	3.03e+01	44	34	0	994050048	42	6338
2026-01-29 03:02:47.94	324.02	20.41	-34.2	-35.4	30.3	3.03e+01	59	34	0	995622912	42	6368
2026-01-29 03:02:48.95	324.16	20.28	-34.3	-35.4	30.1	3.03e+01	59	34	0	997720064	42	6415
2026-01-29 03:02:49.96	324.30	20.15	-34.1	-35.3	30.3	3.03e+01	60	34	0	999817216	42	6311
2026-01-29 03:02:50.97	324.44	20.02	-34.1	-35.2	30.3	3.03e+01	57	34	0	1001390080	42	6245
2026-01-29 03:02:51.98	324.57	19.89	-34.1	-35.3	30.3	3.03e+01	46	34	0	1003487232	42	6285
2026-01-29 03:02:52.99	324.71	19.76	-34.1	-35.2	30.3	3.03e+01	59	34	0	1005060096	42	6275
2026-01-29 03:02:53.99	324.84	19.63	-34.1	-35.2	30.4	3.03e+01	60	34	0	1007157248	42	6271
2026-01-29 03:02:55.00	324.98	19.50	-34.1	-35.3	30.4	3.03e+01	47	34	0	1009254400	42	6286
2026-01-29 03:02:56.01	325.11	19.38	-34.1	-35.3	30.4	3.03e+01	60	34	0	1010827264	42	6280
2026-01-29 03:02:57.02	325.24	19.25	-34.1	-35.2	30.4	3.03e+01	59	34	0	1012924416	42	6251
2026-01-29 03:02:58.03	325.37	19.12	-34.1	-35.3	30.3	3.03e+01	58	34	0	1015021568	42	6302
2026-01-29 03:02:59.04	325.50	19.00	-34.1	-35.3	30.3	3.03e+01	62	34	0	1016594432	42	6278
2026-01-29 03:03:00.04	325.63	18.87	-34.3	-35.4	30.2	3.03e+01	52	34	0	1018691584	42	6403
2026-01-29 03:03:01.05	325.75	18.75	-34.2	-35.4	30.2	3.03e+01	58	34	0	1020264448	42	6353
2026-01-29 03:03:02.06	325.88	18.62	-34.3	-35.5	30.1	3.03e+01	62	34	0	1022361600	42	6435
2026-01-29 03:03:03.07	326.00	18.50	-34.4	-35.5	29.9	3.03e+01	59	34	0	1024458752	42	6496
2026-01-29 03:03:04.08	326.13	18.38	-34.4	-35.6	30.1	3.03e+01	58	34	0	1026031616	42	6555
2026-01-29 03:03:05.09	326.25	18.25	-34.0	-35.2	30.3	3.03e+01	48	34	0	1028128768	42	6241
2026-01-29 03:03:06.10	326.37	18.13	-34.3	-35.5	30.1	3.03e+01	60	34	0	1029701632	42	6444
2026-01-29 03:03:07.11	326.49	18.01	-34.0	-35.2	30.3	3.03e+01	62	34	0	1031798784	42	6240
2026-01-29 03:03:08.12	326.61	17.89	-34.1	-35.3	30.2	3.03e+01	47	34	0	1033371648	42	6312
2026-01-29 03:03:09.13	326.73	17.77	-34.2	-35.3	30.2	3.03e+01	59	34	0	1035468800	42	6346
2026-01-29 03:03:10.14	326.85	17.65	-34.3	-35.5	30.1	3.03e+01	57	34	0	1037565952	42	6438
2026-01-29 03:03:11.15	326.97	17.53	-34.3	-35.4	30.2	3.03e+01	61	34	0	1039138816	42	6414
2026-01-29 03:03:12.16	327.08	17.41	-34.3	-35.5	30.2	3.03e+01	58	34	0	1041235968	42	6442
2026-01-29 03:03:13.17	327.20	17.29	-34.1	-35.3	30.3	3.03e+01	44	34	0	1043333120	42	6307
2026-01-29 03:03:14.17	327.31	17.17	-34.0	-35.1	30.4	3.03e+01	61	34	0	1044905984	42	6193
2026-01-29 03:03:15.18	327.42	17.06	-34.0	-35.2	30.3	3.03e+01	60	34	0	1047003136	42	6242
2026-01-29 03:03:16.19	327.54	16.94	-33.9	-35.1	30.4	3.03e+01	48	34	0	1048576000	42	6159
2026-01-29 03:03:17.20	327.65	16.82	-34.0	-35.2	30.4	3.03e+01	60	34	0	1050673152	42	6210
2026-01-29 03:03:18.21	327.76	16.71	-34.0	-35.2	30.4	3.03e+01	57	34	0	1052770304	42	6207
2026-01-29 03:03:19.22	327.87	16.59	-34.0	-35.2	30.3	3.03e+01	58	34	0	1054343168	42	6217
2026-01-29 03:03:20.23	327.98	16.48	-34.0	-35.2	30.3	3.03e+01	61	34	0	1056440320	42	6239
2026-01-29 03:03:21.24	328.09	16.36	-34.0	-35.2	30.2	3.03e+01	57	34	0	1058013184	42	6221
2026-01-29 03:03:22.25	328.19	16.25	-34.0	-35.2	30.3	3.03e+01	56	34	0	1060110336	42	6207
2026-01-29 03:03:23.26	328.30	16.14	-33.9	-35.0	30.4	3.03e+01	61	34	0	1062207488	42	6108
2026-01-29 03:03:24.27	328.40	16.02	-34.0	-35.1	30.3	3.03e+01	45	34	0	1063780352	42	6183
2026-01-29 03:03:25.28	328.51	15.91	-33.9	-35.1	30.4	3.03e+01	59	34	0	1065877504	42	6146
2026-01-29 03:03:26.29	328.61	15.80	-34.0	-35.1	30.4	3.03e+01	58	34	0	1067974656	42	6194
2026-01-29 03:03:27.30	328.72	15.69	-34.1	-35.2	30.3	3.03e+01	56	34	0	1069547520	42	6276
2026-01-29 03:03:28.31	328.82	15.58	-34.0	-35.2	30.2	3.03e+01	58	34	0	1071644672	42	6244
2026-01-29 03:03:29.31	328.92	15.47	-34.0	-35.2	30.3	3.03e+01	46	34	0	1073217536	42	6224
2026-01-29 03:03:30.32	329.02	15.36	-34.0	-35.2	30.3	3.03e+01	59	34	0	1075314688	42	6245
2026-01-29 03:03:31.33	329.12	15.25	-34.1	-35.3	30.2	3.03e+01	59	34	0	1077411840	42	6325
2026-01-29 03:03:32.34	329.22	15.14	-34.2	-35.3	30.2	3.03e+01	46	34	0	1078984704	42	6338
2026-01-29 03:03:33.35	329.32	15.03	-34.2	-35.4	30.0	3.03e+01	57	34	0	1081081856	42	6351
2026-01-29 03:03:34.36	329.42	14.92	-34.1	-35.3	30.2	3.03e+01	63	34	0	1082654720	42	6312
2026-01-29 03:03:35.37	329.51	14.82	-34.3	-35.5	30.1	3.03e+01	57	34	0	1084751872	42	6439
2026-01-29 03:03:36.38	329.61	14.71	-34.3	-35.4	30.0	3.03e+01	60	34	0	1086849024	42	6415
2026-01-29 03:03:37.39	329.71	14.60	-34.2	-35.4	30.0	3.03e+01	51	34	0	1088421888	42	6403
2026-01-29 03:03:38.40	329.80	14.50	-34.3	-35.5	30.0	3.03e+01	58	34	0	1090519040	42	6429
2026-01-29 03:03:39.41	329.90	14.39	-34.2	-35.4	30.0	3.03e+01	58	34	0	1092091904	42	6406
2026-01-29 03:03:40.42	329.99	14.29	-34.3	-35.5	30.0	3.03e+01	44	34	0	1094189056	42	6459
2026-01-29 03:03:41.43	330.08	14.18	-34.2	-35.4	30.0	3.03e+01	60	34	0	1096286208	42	6407
2026-01-29 03:03:42.43	330.17	14.08	-34.3	-35.5	30.0	3.03e+01	49	34	0	1097859072	42	6483
2026-01-29 03:03:43.44	330.27	13.97	-34.3	-35.5	30.0	3.03e+01	59	34	0	1099956224	42	6444
2026-01-29 03:03:44.45	330.36	13.87	-34.3	-35.5	29.9	3.03e+01	58	34	0	1101529088	42	6441
2026-01-29 03:03:45.46	330.45	13.77	-34.4	-35.6	29.9	3.03e+01	50	34	0	1103626240	42	6541
2026-01-29 03:03:46.47	330.54	13.66	-34.5	-35.6	29.8	3.03e+01	58	34	0	1105723392	42	6567
2026-01-29 03:03:47.48	330.63	13.56	-34.3	-35.5	30.0	3.03e+01	62	34	0	1107296256	42	6471
2026-01-29 03:03:48.49	330.72	13.46	-34.4	-35.6	29.9	3.03e+01	60	34	0	1109393408	42	6553
2026-01-29 03:03:49.50	330.80	13.36	-34.3	-35.5	29.9	3.03e+01	58	34	0	1111490560	42	6443
2026-01-29 03:03:50.51	330.89	13.26	-34.4	-35.6	29.8	3.03e+01	50	34	0	1113063424	42	6519
2026-01-29 03:03:51.52	330.98	13.16	-34.5	-35.7	29.8	3.03e+01	56	34	0	1115160576	42	6580
2026-01-29 03:03:52.52	331.06	13.06	-34.5	-35.7	29.6	3.03e+01	61	34	0	1116733440	42	6627
2026-01-29 03:03:53.53	331.15	12.96	-34.6	-35.8	29.6	3.03e+01	44	34	0	1118830592	42	6718
2026-01-29 03:03:54.54	331.23	12.86	-34.5	-35.7	29.6	3.03e+01	60	34	0	1120927744	42	6609
2026-01-29 03:03:55.55	331.32	12.76	-34.6	-35.8	29.5	3.03e+01	61	34	0	1122500608	42	6702
2026-01-29 03:03:56.56	331.40	12.66	-34.5	-35.7	29.6	3.03e+01	58	34	0	1124597760	42	6629
2026-01-29 03:03:57.57	331.49	12.56	-34.6	-35.7	29.7	3.03e+01	55	34	0	1126170624	42	6648
2026-01-29 03:03:58.58	331.57	12.47	-34.7	-35.9	29.4	3.03e+01	54	34	0	1128267776	42	6761
2026-01-29 03:03:59.59	331.65	12.37	-34.8	-36.0	29.4	3.03e+01	58	33	0	1130364928	42	6857
2026-01-29 03:04:00.59	331.73	12.27	-34.9	-36.1	29.3	3.03e+01	61	34	0	1131937792	42	6887
2026-01-29 03:04:01.60	331.81	12.18	-34.9	-36.1	29.4	3.03e+01	47	34	0	1134034944	42	6961
2026-01-29 03:04:02.60	331.89	12.08	-34.6	-35.8	29.6	3.03e+01	61	34	0	1135607808	42	6684
2026-01-29 03:04:03.62	331.97	11.98	-34.7	-35.9	29.6	3.03e+01	60	34	0	1137704960	42	6759
2026-01-29 03:04:04.63	332.05	11.89	-34.7	-35.9	29.5	3.03e+01	61	34	0	1139802112	42	6755
2026-01-29 03:04:05.63	332.13	11.79	-34.8	-36.0	29.5	3.03e+01	61	34	0	1141374976	42	6834
2026-01-29 03:04:06.64	332.21	11.70	-34.7	-35.9	29.5	3.03e+01	53	34	0	1143472128	42	6791
2026-01-29 03:04:07.65	332.29	11.60	-34.8	-36.0	29.3	3.03e+01	59	34	0	1145044992	42	6859
2026-01-29 03:04:08.66	332.36	11.51	-34.9	-36.1	29.4	3.03e+01	55	34	0	1147142144	42	6904
2026-01-29 03:04:09.67	332.44	11.42	-34.8	-36.0	29.3	3.03e+01	44	34	0	1149239296	44	6106
2026-01-29 03:04:10.67	332.52	11.32	-34.8	-36.0	29.4	3.03e+01	58	34	0	1150812160	44	6074
2026-01-29 03:04:11.68	332.59	11.23	-35.0	-36.2	29.2	3.03e+01	59	34	0	1152909312	44	6250
2026-01-29 03:04:12.69	332.67	11.14	-34.9	-36.1	29.3	3.03e+01	60	34	0	1154482176	44	6172
2026-01-29 03:04:13.70	332.74	11.05	-34.9	-36.1	29.3	3.03e+01	58	34	0	1156579328	44	6178
2026-01-29 03:04:14.71	332.82	10.95	-34.9	-36.1	29.3	3.03e+01	54	34	0	1158676480	44	6153
2026-01-29 03:04:15.72	332.89	10.86	-35.0	-36.2	29.2	3.03e+01	59	34	0	1160249344	44	6259
2026-01-29 03:04:16.73	332.97	10.77	-34.9	-36.2	29.2	3.03e+01	61	34	0	1162346496	44	6216
2026-01-29 03:04:17.74	333.04	10.68	-34.9	-36.2	29.2	3.03e+01	53	34	0	1164443648	44	6208
2026-01-29 03:04:18.75	333.11	10.59	-34.9	-36.2	29.3	3.03e+01	60	34	0	1166016512	44	6209
2026-01-29 03:04:19.76	333.18	10.50	-34.9	-36.1	29.3	3.03e+01	62	34	0	1168113664	44	6141
2026-01-29 03:04:20.77	333.26	10.41	-35.0	-36.2	29.2	3.03e+01	60	34	0	1169686528	44	6218
2026-01-29 03:04:21.78	333.33	10.32	-35.0	-36.3	29.1	3.03e+01	61	33	0	1171783680	44	6284
2026-01-29 03:04:22.79	333.40	10.23	-35.1	-36.3	29.1	3.03e+01	51	33	0	1173880832	44	6300
2026-01-29 03:04:23.80	333.47	10.14	-35.3	-36.5	28.9	3.03e+01	60	34	0	1175453696	44	6457
2026-01-29 03:04:24.80	333.54	10.05	-35.4	-36.6	29.0	3.03e+01	60	34	0	1177550848	44	6567
2026-01-29 03:04:25.81	333.61	9.97	-35.2	-36.5	29.0	3.03e+01	58	34	0	1179123712	44	6435
2026-01-29 03:04:26.83	333.68	9.88	-35.3	-36.5	29.0	3.03e+01	57	33	0	1181220864	44	6455
2026-01-29 03:04:27.83	333.75	9.79	-35.2	-36.4	29.0	3.03e+01	54	33	0	1183318016	44	6415
2026-01-29 03:04:28.84	333.81	9.70	-35.1	-36.3	29.1	3.03e+01	60	34	0	1184890880	44	6327
2026-01-29 03:04:29.85	333.88	9.62	-35.7	-45.8	3.6	3.03e+01	0	34	104	1185939456	44	18878
2026-01-29 03:04:30.86	333.95	9.53	-35.6	-45.8	3.6	3.03e+01	0	34	104	1185939456	44	18814
2026-01-29 03:04:31.87	334.02	9.44	-35.7	-45.8	3.6	3.03e+01	0	34	104	1185939456	44	18941
2026-01-29 03:04:32.88	334.08	9.36	-36.5	-46.7	3.6	3.03e+01	0	34	104	1185939456	46	18649
2026-01-29 03:04:33.89	334.15	9.27	-41.4	-52.1	3.4	3.03e+01	0	34	104	1185939456	48	31038
