passes_logs/2026/01/29/R4.6S_Anadyr/R4.6S_Anadyr__20260129_032038_SUOMI_NPP_rec.log

#Pass ID: 20260129_032038_SUOMI NPP
#Satellite: SUOMI NPP
#Configuration: NPP
#almurnet v.1.7.20251203
#Start time: 2026-01-29 03:20:39

#Version: 2.2.20231116
#Station: R4.6S_Anadyr
#Location: 177.4865 lon 64.73178 lat
#TLE: 1 37849U 11061A   26027.93236865  .00000148  00000+0  91411-4 0  9991
#TLE: 2 37849  98.7823 329.8704 0002085  41.3231 318.8102 14.19530777738546

#Time	Az	El	Level	Level2	SNR	BER	BlckErr	Temp	State	Recorded	gain1	gain2
2026-01-29 03:20:39.38	238.49	0.04	-49.2	-66.9	3.4	3.03e+01	0	30	0	0	60	85013
2026-01-29 03:20:40.39	238.58	0.08	-48.7	-63.9	3.6	1.51e+00	0	31	104	0	60	56482
2026-01-29 03:20:41.40	238.67	0.13	-48.7	-64.0	3.6	1.51e+00	0	31	104	0	60	56989
2026-01-29 03:20:42.41	238.76	0.17	-48.8	-64.0	3.6	1.51e+00	0	31	104	0	60	57169
2026-01-29 03:20:43.42	238.86	0.21	-49.0	-64.2	3.6	1.51e+00	0	31	104	0	60	58424
2026-01-29 03:20:44.43	238.95	0.25	-48.9	-64.0	3.6	1.51e+00	0	31	104	0	60	57603
2026-01-29 03:20:45.44	239.05	0.30	-48.9	-64.0	3.6	1.51e+00	0	31	104	0	60	57587
2026-01-29 03:20:46.45	239.14	0.34	-48.9	-64.0	3.6	1.51e+00	0	31	104	0	60	57316
2026-01-29 03:20:47.46	239.23	0.38	-48.8	-64.1	3.6	1.51e+00	0	31	104	0	60	57761
2026-01-29 03:20:48.47	239.33	0.42	-48.8	-64.1	3.6	1.51e+00	0	31	104	0	60	57652
2026-01-29 03:20:49.48	239.42	0.47	-48.8	-64.1	3.6	1.51e+00	0	31	104	0	60	57650
2026-01-29 03:20:50.49	239.52	0.51	-48.8	-64.0	3.6	1.51e+00	0	31	104	0	60	57498
2026-01-29 03:20:51.50	239.61	0.55	-48.7	-64.0	3.6	1.51e+00	0	31	104	0	60	57392
2026-01-29 03:20:52.51	239.71	0.59	-48.9	-64.1	3.6	1.51e+00	0	31	104	0	60	57851
2026-01-29 03:20:53.52	239.81	0.64	-48.9	-64.1	3.6	1.51e+00	0	31	104	0	60	58260
2026-01-29 03:20:54.53	239.90	0.68	-49.0	-64.2	3.6	1.51e+00	0	31	104	0	60	58530
2026-01-29 03:20:55.54	240.00	0.72	-48.9	-64.1	3.6	1.51e+00	0	31	104	0	60	58171
2026-01-29 03:20:56.55	240.10	0.76	-48.9	-64.1	3.6	1.51e+00	0	31	104	0	60	58003
2026-01-29 03:20:57.56	240.19	0.81	-48.9	-64.1	3.6	1.51e+00	0	31	104	0	60	57697
2026-01-29 03:20:58.57	240.29	0.85	-48.9	-64.1	3.6	1.51e+00	0	31	104	0	60	57707
2026-01-29 03:20:59.58	240.39	0.89	-48.8	-64.1	3.6	1.51e+00	0	32	104	0	60	57638
2026-01-29 03:21:00.59	240.49	0.94	-48.8	-64.0	3.6	1.51e+00	0	31	104	0	60	57232
2026-01-29 03:21:01.60	240.58	0.98	-48.7	-63.8	3.6	1.51e+00	0	31	104	0	60	56220
2026-01-29 03:21:02.61	240.68	1.02	-48.5	-63.6	3.6	1.51e+00	0	31	104	0	60	55012
2026-01-29 03:21:03.62	240.78	1.06	-48.2	-63.3	3.6	1.51e+00	0	32	104	0	60	53019
2026-01-29 03:21:04.63	240.88	1.11	-47.6	-62.8	3.6	1.51e+00	0	32	104	0	60	49627
2026-01-29 03:21:05.64	240.98	1.15	-46.8	-61.9	3.6	1.51e+00	0	32	104	0	60	45146
2026-01-29 03:21:06.65	241.08	1.19	-46.8	-61.9	3.6	1.51e+00	0	32	104	0	60	45172
2026-01-29 03:21:07.66	241.18	1.23	-46.8	-61.9	3.6	1.51e+00	0	32	104	0	60	45096
2026-01-29 03:21:08.67	241.28	1.28	-46.8	-61.9	3.6	1.51e+00	0	32	104	0	60	45004
2026-01-29 03:21:09.68	241.38	1.32	-46.8	-61.9	3.6	1.51e+00	0	32	104	0	60	44954
2026-01-29 03:21:10.69	241.48	1.36	-46.8	-61.9	3.5	1.51e+00	0	32	104	0	60	44995
2026-01-29 03:21:11.70	241.58	1.40	-46.8	-61.9	3.6	1.51e+00	0	32	104	0	60	45133
2026-01-29 03:21:12.71	241.68	1.45	-46.8	-61.9	3.6	1.51e+00	0	32	104	0	60	44928
2026-01-29 03:21:13.72	241.78	1.49	-46.8	-61.8	3.6	1.51e+00	0	32	104	0	60	44555
2026-01-29 03:21:14.73	241.88	1.53	-46.8	-61.9	3.6	1.51e+00	0	32	104	0	60	45205
2026-01-29 03:21:15.74	241.99	1.57	-46.8	-61.9	3.6	1.51e+00	0	32	104	0	60	45188
2026-01-29 03:21:16.76	242.09	1.62	-46.8	-61.9	3.6	1.51e+00	0	32	104	0	60	44904
2026-01-29 03:21:17.76	242.19	1.66	-46.8	-61.9	3.6	1.51e+00	0	32	104	0	60	44755
2026-01-29 03:21:18.77	242.29	1.70	-46.8	-61.9	3.6	1.51e+00	0	32	104	0	60	44839
2026-01-29 03:21:19.78	242.40	1.74	-46.8	-61.9	3.6	1.51e+00	0	32	104	0	60	44820
2026-01-29 03:21:20.79	242.50	1.79	-46.8	-61.9	3.6	1.51e+00	0	32	104	0	60	44910
2026-01-29 03:21:21.80	242.60	1.83	-46.8	-61.9	3.6	1.51e+00	0	32	104	0	60	44798
2026-01-29 03:21:22.81	242.71	1.87	-46.8	-61.8	3.6	1.51e+00	0	32	104	0	60	44714
2026-01-29 03:21:23.82	242.81	1.91	-46.8	-61.9	3.6	1.51e+00	0	32	104	0	60	44972
2026-01-29 03:21:24.83	242.92	1.96	-46.8	-61.9	3.6	1.51e+00	0	32	104	0	60	44757
2026-01-29 03:21:25.84	243.02	2.00	-46.8	-61.8	3.6	1.51e+00	0	32	104	0	60	44478
2026-01-29 03:21:26.85	243.13	2.04	-46.8	-61.7	3.6	1.51e+00	0	32	104	0	60	44128
2026-01-29 03:21:27.86	243.23	2.08	-46.8	-61.6	3.6	1.51e+00	0	32	104	0	60	43645
2026-01-29 03:21:28.87	243.34	2.12	-46.8	-61.5	3.6	1.51e+00	0	32	104	0	60	43053
2026-01-29 03:21:29.88	243.44	2.17	-46.8	-61.6	3.6	1.51e+00	0	32	104	0	60	43572
2026-01-29 03:21:30.89	243.55	2.21	-46.8	-61.5	3.6	1.51e+00	0	32	104	0	60	43165
2026-01-29 03:21:31.90	243.66	2.25	-46.8	-61.3	3.6	1.51e+00	0	32	104	0	60	41943
2026-01-29 03:21:32.91	243.76	2.29	-46.7	-61.2	3.6	1.51e+00	0	32	104	0	60	41452
2026-01-29 03:21:33.92	243.87	2.34	-46.7	-60.9	3.6	1.51e+00	0	32	104	0	60	39937
2026-01-29 03:21:34.93	243.98	2.38	-46.7	-60.8	3.6	1.51e+00	0	32	104	0	60	39691
2026-01-29 03:21:35.94	244.09	2.42	-46.7	-60.9	3.6	1.51e+00	0	32	104	0	60	39953
2026-01-29 03:21:36.95	244.19	2.46	-46.7	-60.8	3.6	1.51e+00	0	32	104	0	60	39716
2026-01-29 03:21:37.96	244.30	2.51	-46.7	-60.9	3.6	1.51e+00	0	32	104	0	60	40028
2026-01-29 03:21:38.97	244.41	2.55	-46.7	-61.3	3.6	1.51e+00	0	32	104	0	60	42071
2026-01-29 03:21:39.98	244.52	2.59	-46.8	-61.5	3.6	1.51e+00	0	32	104	0	60	42762
2026-01-29 03:21:40.99	244.63	2.63	-46.7	-61.3	3.6	1.51e+00	0	32	104	0	60	41841
2026-01-29 03:21:42.00	244.74	2.67	-46.7	-60.4	3.6	1.51e+00	0	32	104	0	60	37920
2026-01-29 03:21:43.01	244.85	2.72	-46.6	-59.4	3.8	1.51e+00	0	32	104	0	60	33816
2026-01-29 03:21:44.02	244.96	2.76	-46.6	-58.7	3.7	1.45e+00	0	32	104	0	60	31263
2026-01-29 03:21:45.03	245.07	2.80	-46.5	-57.1	4.1	1.34e+00	49	32	0	0	60	25858
2026-01-29 03:21:46.04	245.18	2.84	-46.6	-56.7	3.9	1.21e+00	3	32	0	1048576	60	24653
2026-01-29 03:21:47.04	245.29	2.88	-46.5	-56.5	4.0	1.29e+00	71	32	0	3145728	60	24294
2026-01-29 03:21:48.05	245.40	2.93	-46.6	-56.9	3.8	1.34e+00	9	32	0	4194304	60	25411
2026-01-29 03:21:49.06	245.51	2.97	-46.6	-58.8	3.7	1.42e+00	0	32	104	4194304	60	31336
2026-01-29 03:21:50.07	245.62	3.01	-46.6	-58.0	3.7	1.42e+00	0	32	104	4194304	60	28871
2026-01-29 03:21:51.08	245.74	3.05	-47.4	-62.5	3.6	8.37e-01	0	32	104	4194304	60	47988
2026-01-29 03:21:52.09	245.85	3.09	-45.4	-50.9	8.1	1.50e+00	6	32	104	4194304	60	12632
2026-01-29 03:21:53.10	245.96	3.14	-46.7	-59.5	3.6	1.19e+00	0	32	104	4194304	60	34071
2026-01-29 03:21:54.11	246.07	3.18	-46.8	-61.2	3.6	1.51e+00	0	32	104	4194304	60	41292
2026-01-29 03:21:55.12	246.19	3.22	-43.8	-46.9	13.9	1.23e+00	91	32	104	4194304	60	8010
2026-01-29 03:21:56.13	246.30	3.26	-43.5	-46.3	14.8	0.00e+00	0	32	0	4194304	60	7508
2026-01-29 03:21:57.14	246.42	3.30	-43.6	-46.4	14.6	0.00e+00	92	32	0	6291456	60	7522
2026-01-29 03:21:58.15	246.53	3.34	-43.4	-46.1	15.2	0.00e+00	91	32	0	8388608	60	7295
2026-01-29 03:21:59.16	246.64	3.39	-43.3	-45.9	15.6	0.00e+00	0	32	0	10485760	60	7116
2026-01-29 03:22:00.17	246.76	3.43	-42.7	-45.0	16.4	0.00e+00	92	32	0	12582912	60	6417
2026-01-29 03:22:01.18	246.88	3.47	-42.4	-44.6	16.7	0.00e+00	0	32	0	13631488	58	6861
2026-01-29 03:22:02.19	246.99	3.51	-42.4	-44.5	16.8	0.00e+00	92	32	0	15728640	58	6794
2026-01-29 03:22:03.20	247.11	3.55	-42.1	-44.1	17.2	0.00e+00	0	32	0	17825792	58	6506
2026-01-29 03:22:04.21	247.22	3.59	-42.1	-44.1	17.2	0.00e+00	92	32	0	19922944	58	6468
2026-01-29 03:22:05.22	247.34	3.64	-41.6	-43.4	17.7	0.00e+00	92	32	0	22020096	56	6756
2026-01-29 03:22:06.23	247.46	3.68	-42.1	-44.0	17.3	0.00e+00	42	32	0	24117248	56	7232
2026-01-29 03:22:07.23	247.57	3.72	-41.6	-43.4	17.9	0.00e+00	92	32	0	25165824	56	6749
2026-01-29 03:22:08.24	247.69	3.76	-41.3	-43.0	18.3	0.00e+00	0	32	0	27262976	56	6421
2026-01-29 03:22:09.26	247.81	3.80	-41.5	-43.2	18.1	0.00e+00	92	32	0	29360128	56	6579
2026-01-29 03:22:10.26	247.93	3.84	-41.4	-43.2	18.3	0.00e+00	0	32	0	31457280	56	6549
2026-01-29 03:22:11.27	248.04	3.88	-41.4	-43.1	18.2	0.00e+00	91	32	0	33554432	56	6509
2026-01-29 03:22:12.28	248.16	3.93	-41.4	-43.0	18.4	0.00e+00	85	32	0	34603008	56	6454
2026-01-29 03:22:13.29	248.28	3.97	-41.5	-43.2	18.3	0.00e+00	92	32	0	36700160	56	6608
2026-01-29 03:22:14.30	248.40	4.01	-41.5	-43.3	18.3	0.00e+00	92	32	0	38797312	56	6622
2026-01-29 03:22:15.31	248.52	4.05	-40.8	-42.3	19.1	0.00e+00	0	32	0	40894464	56	5905
2026-01-29 03:22:16.32	248.64	4.09	-40.6	-42.1	19.5	0.00e+00	38	32	0	42991616	56	5765
2026-01-29 03:22:17.33	248.76	4.13	-40.5	-41.9	19.5	0.00e+00	0	32	0	44040192	54	6390
2026-01-29 03:22:18.34	248.88	4.17	-40.0	-41.4	20.0	0.00e+00	92	32	0	46137344	54	5969
2026-01-29 03:22:19.35	249.00	4.21	-40.1	-41.5	19.8	0.00e+00	38	32	0	48234496	54	6039
2026-01-29 03:22:20.36	249.12	4.25	-40.0	-41.3	20.2	0.00e+00	17	32	0	50331648	54	5964
2026-01-29 03:22:21.37	249.25	4.30	-39.9	-41.3	20.1	0.00e+00	89	32	0	52428800	54	5900
2026-01-29 03:22:22.38	249.37	4.34	-39.9	-41.2	20.0	0.00e+00	0	32	0	53477376	54	5887
2026-01-29 03:22:23.38	249.49	4.38	-40.1	-41.4	19.9	0.00e+00	92	32	0	55574528	54	6030
2026-01-29 03:22:24.39	249.61	4.42	-39.9	-41.2	20.2	0.00e+00	0	32	0	57671680	52	6574
2026-01-29 03:22:25.40	249.74	4.46	-40.2	-41.5	19.9	0.00e+00	92	32	0	59768832	52	6814
2026-01-29 03:22:26.41	249.86	4.50	-40.0	-41.3	20.1	0.00e+00	0	32	0	61865984	52	6650
2026-01-29 03:22:27.42	249.98	4.54	-39.9	-41.2	20.2	0.00e+00	92	32	0	62914560	52	6596
2026-01-29 03:22:28.43	250.11	4.58	-40.2	-41.6	19.9	0.00e+00	92	32	0	65011712	52	6900
2026-01-29 03:22:29.44	250.23	4.62	-39.9	-41.2	20.3	0.00e+00	0	32	0	67108864	52	6614
2026-01-29 03:22:30.45	250.36	4.66	-40.1	-41.5	20.1	0.00e+00	92	32	0	69206016	52	6771
2026-01-29 03:22:31.45	250.48	4.70	-40.1	-41.4	20.1	0.00e+00	0	32	0	71303168	52	6722
2026-01-29 03:22:32.46	250.60	4.74	-40.2	-41.5	20.1	0.00e+00	85	32	0	72351744	52	6806
2026-01-29 03:22:33.47	250.73	4.78	-39.6	-40.8	20.6	0.00e+00	0	32	0	74448896	52	6295
2026-01-29 03:22:34.48	250.86	4.82	-39.7	-41.0	20.5	0.00e+00	92	32	0	76546048	52	6402
2026-01-29 03:22:35.49	250.98	4.86	-39.6	-40.9	20.5	0.00e+00	90	32	0	78643200	52	6321
2026-01-29 03:22:36.50	251.11	4.90	-39.4	-40.6	20.9	0.00e+00	0	32	0	80740352	52	6167
2026-01-29 03:22:37.51	251.24	4.94	-39.4	-40.6	20.7	0.00e+00	64	32	0	81788928	52	6136
2026-01-29 03:22:38.52	251.36	4.98	-39.7	-40.9	20.7	0.00e+00	0	32	0	83886080	52	6340
2026-01-29 03:22:39.53	251.49	5.02	-39.7	-41.0	20.5	0.00e+00	92	32	0	85983232	52	6412
2026-01-29 03:22:40.54	251.62	5.06	-39.8	-41.1	20.5	0.00e+00	0	32	0	88080384	52	6487
2026-01-29 03:22:41.55	251.75	5.10	-40.0	-41.3	20.2	0.00e+00	90	32	0	90177536	52	6644
2026-01-29 03:22:42.56	251.88	5.14	-40.0	-41.3	20.3	0.00e+00	92	32	0	92274688	52	6629
2026-01-29 03:22:43.57	252.00	5.18	-40.1	-41.4	20.2	0.00e+00	0	32	0	93323264	52	6696
2026-01-29 03:22:44.58	252.13	5.22	-40.1	-41.4	20.2	0.00e+00	92	32	0	95420416	52	6754
2026-01-29 03:22:45.58	252.26	5.26	-40.1	-41.4	20.3	0.00e+00	0	32	0	97517568	52	6704
2026-01-29 03:22:46.59	252.39	5.30	-40.0	-41.3	20.4	0.00e+00	91	32	0	99614720	52	6679
2026-01-29 03:22:47.60	252.52	5.34	-39.9	-41.2	20.4	0.00e+00	0	32	0	101711872	52	6592
2026-01-29 03:22:48.60	252.65	5.38	-39.8	-41.0	20.5	0.00e+00	91	32	0	102760448	52	6439
2026-01-29 03:22:49.62	252.78	5.42	-39.9	-41.1	20.5	0.00e+00	0	32	0	104857600	52	6497
2026-01-29 03:22:50.62	252.91	5.46	-39.7	-41.0	20.6	0.00e+00	86	32	0	106954752	52	6402
2026-01-29 03:22:51.63	253.05	5.50	-39.8	-41.0	20.7	0.00e+00	90	32	0	109051904	52	6415
2026-01-29 03:22:52.64	253.18	5.54	-40.0	-41.2	20.5	0.00e+00	0	32	0	111149056	52	6579
2026-01-29 03:22:53.65	253.31	5.58	-40.0	-41.3	20.5	0.00e+00	60	32	0	112197632	52	6616
2026-01-29 03:22:54.66	253.44	5.62	-39.6	-40.8	20.8	0.00e+00	0	32	0	114294784	52	6284
2026-01-29 03:22:55.67	253.58	5.65	-39.6	-40.8	20.8	0.00e+00	91	32	0	116391936	52	6259
2026-01-29 03:22:56.68	253.71	5.69	-39.7	-40.9	20.8	0.00e+00	0	32	0	118489088	52	6389
2026-01-29 03:22:57.69	253.84	5.73	-39.5	-40.7	21.0	0.00e+00	92	32	0	120586240	52	6207
2026-01-29 03:22:58.70	253.98	5.77	-39.6	-40.8	21.0	0.00e+00	92	32	0	121634816	52	6246
2026-01-29 03:22:59.71	254.11	5.81	-39.7	-40.9	20.8	0.00e+00	0	32	0	123731968	52	6381
2026-01-29 03:23:00.72	254.25	5.85	-39.8	-41.0	20.6	0.00e+00	92	32	0	125829120	52	6424
2026-01-29 03:23:01.72	254.38	5.89	-39.9	-41.1	20.6	0.00e+00	0	32	0	127926272	52	6517
2026-01-29 03:23:02.73	254.52	5.93	-39.9	-41.1	20.6	0.00e+00	92	32	0	130023424	52	6525
2026-01-29 03:23:03.74	254.65	5.96	-39.8	-41.0	20.8	0.00e+00	0	32	0	131072000	52	6405
2026-01-29 03:23:04.75	254.79	6.00	-39.7	-40.9	20.7	0.00e+00	92	32	0	133169152	52	6364
2026-01-29 03:23:05.76	254.92	6.04	-39.5	-40.7	21.1	0.00e+00	92	32	0	135266304	52	6198
2026-01-29 03:23:06.77	255.06	6.08	-39.4	-40.6	21.1	0.00e+00	0	32	0	137363456	52	6115
2026-01-29 03:23:07.78	255.20	6.12	-39.4	-40.6	21.1	0.00e+00	92	32	0	139460608	52	6104
2026-01-29 03:23:08.79	255.34	6.16	-39.2	-40.3	21.3	0.00e+00	0	32	0	140509184	52	5948
2026-01-29 03:23:09.80	255.47	6.19	-39.5	-40.6	21.1	0.00e+00	62	32	0	142606336	52	6152
2026-01-29 03:23:10.81	255.61	6.23	-39.5	-40.7	20.9	0.00e+00	0	32	0	144703488	52	6184
2026-01-29 03:23:11.82	255.75	6.27	-39.4	-40.6	21.1	0.00e+00	92	32	0	146800640	52	6118
2026-01-29 03:23:12.83	255.89	6.31	-39.7	-40.9	20.9	0.00e+00	50	32	0	148897792	52	6371
2026-01-29 03:23:13.83	256.03	6.34	-39.5	-40.7	21.0	0.00e+00	19	32	0	149946368	52	6206
2026-01-29 03:23:14.85	256.17	6.38	-39.6	-40.8	21.0	0.00e+00	87	32	0	152043520	52	6263
2026-01-29 03:23:15.86	256.31	6.42	-39.7	-40.9	20.8	0.00e+00	0	32	0	154140672	52	6352
2026-01-29 03:23:16.86	256.45	6.46	-39.8	-41.0	20.8	0.00e+00	90	32	0	156237824	52	6401
2026-01-29 03:23:17.87	256.59	6.49	-39.8	-41.0	20.6	0.00e+00	0	32	0	158334976	52	6459
2026-01-29 03:23:18.89	256.73	6.53	-39.7	-40.9	20.9	0.00e+00	92	32	0	159383552	52	6388
2026-01-29 03:23:19.90	256.87	6.57	-39.8	-41.0	20.8	0.00e+00	59	32	0	161480704	52	6403
2026-01-29 03:23:20.91	257.01	6.61	-39.9	-41.1	20.7	0.00e+00	92	32	0	163577856	52	6486
2026-01-29 03:23:21.91	257.15	6.64	-39.9	-41.1	20.7	0.00e+00	92	32	0	165675008	52	6483
2026-01-29 03:23:22.92	257.30	6.68	-39.8	-41.1	20.7	0.00e+00	0	32	0	167772160	52	6467
2026-01-29 03:23:23.93	257.44	6.72	-39.9	-41.2	20.6	0.00e+00	81	32	0	168820736	52	6542
2026-01-29 03:23:24.94	257.58	6.75	-39.8	-41.1	20.7	0.00e+00	0	32	0	170917888	52	6484
2026-01-29 03:23:25.95	257.73	6.79	-40.1	-41.4	20.5	0.00e+00	92	32	0	173015040	52	6724
2026-01-29 03:23:26.96	257.87	6.83	-39.9	-41.2	20.7	0.00e+00	9	32	0	175112192	52	6544
2026-01-29 03:23:27.97	258.01	6.86	-40.2	-41.5	20.4	0.00e+00	92	32	0	177209344	52	6818
2026-01-29 03:23:28.98	258.16	6.90	-39.9	-41.2	20.6	0.00e+00	92	32	0	178257920	52	6564
2026-01-29 03:23:29.99	258.30	6.93	-39.9	-41.2	20.7	0.00e+00	0	32	0	180355072	52	6541
2026-01-29 03:23:31.00	258.45	6.97	-39.9	-41.2	20.7	0.00e+00	90	32	0	182452224	52	6569
2026-01-29 03:23:32.01	258.59	7.01	-39.9	-41.1	20.6	0.00e+00	0	32	0	184549376	52	6514
2026-01-29 03:23:33.02	258.74	7.04	-39.8	-41.0	20.7	0.00e+00	86	32	0	186646528	52	6444
2026-01-29 03:23:34.03	258.88	7.08	-39.9	-41.1	20.6	0.00e+00	41	32	0	188743680	52	6478
2026-01-29 03:23:35.03	259.03	7.11	-39.8	-41.0	20.8	0.00e+00	90	32	0	189792256	52	6410
2026-01-29 03:23:36.05	259.18	7.15	-40.0	-41.3	20.5	0.00e+00	92	32	0	191889408	52	6649
2026-01-29 03:23:37.06	259.33	7.18	-40.1	-41.3	20.5	0.00e+00	0	32	0	193986560	52	6687
2026-01-29 03:23:38.06	259.47	7.22	-40.2	-41.5	20.4	0.00e+00	58	32	0	196083712	52	6844
2026-01-29 03:23:39.07	259.62	7.25	-40.1	-41.4	20.4	0.00e+00	0	32	0	198180864	52	6732
2026-01-29 03:23:40.08	259.77	7.29	-40.4	-41.7	20.2	0.00e+00	92	32	0	199229440	52	6970
2026-01-29 03:23:41.09	259.92	7.32	-40.4	-41.7	20.1	0.00e+00	0	32	0	201326592	52	6963
2026-01-29 03:23:42.10	260.06	7.36	-40.4	-41.7	20.2	0.00e+00	91	32	0	203423744	52	6989
2026-01-29 03:23:43.11	260.21	7.39	-40.3	-41.6	20.3	0.00e+00	92	33	0	205520896	52	6886
2026-01-29 03:23:44.12	260.36	7.43	-40.1	-41.4	20.6	0.00e+00	0	32	0	207618048	52	6714
2026-01-29 03:23:45.12	260.51	7.46	-40.1	-41.3	20.5	0.00e+00	59	32	0	208666624	52	6663
2026-01-29 03:23:46.13	260.66	7.50	-40.2	-41.5	20.4	0.00e+00	0	32	0	210763776	52	6815
2026-01-29 03:23:47.14	260.81	7.53	-40.1	-41.4	20.6	0.00e+00	87	32	0	212860928	52	6693
2026-01-29 03:23:48.15	260.96	7.56	-39.9	-41.1	20.8	0.00e+00	0	32	0	214958080	52	6536
2026-01-29 03:23:49.16	261.11	7.60	-39.8	-41.1	20.8	0.00e+00	91	32	0	217055232	52	6468
2026-01-29 03:23:50.17	261.27	7.63	-39.9	-41.1	20.7	0.00e+00	90	32	0	218103808	52	6523
2026-01-29 03:23:51.18	261.42	7.67	-39.9	-41.1	20.8	0.00e+00	0	32	0	220200960	52	6499
2026-01-29 03:23:52.19	261.57	7.70	-40.0	-41.2	20.6	0.00e+00	92	32	0	222298112	52	6606
2026-01-29 03:23:53.20	261.72	7.73	-40.1	-41.3	20.5	0.00e+00	0	32	0	224395264	52	6657
2026-01-29 03:23:54.21	261.88	7.77	-40.2	-41.4	20.5	0.00e+00	92	32	0	226492416	52	6748
2026-01-29 03:23:55.22	262.03	7.80	-40.1	-41.3	20.3	0.00e+00	0	32	0	227540992	52	6672
2026-01-29 03:23:56.23	262.18	7.83	-40.2	-41.5	20.4	0.00e+00	92	32	0	229638144	52	6825
2026-01-29 03:23:57.23	262.34	7.87	-40.2	-41.4	20.4	0.00e+00	0	32	0	231735296	52	6737
2026-01-29 03:23:58.24	262.49	7.90	-40.5	-41.8	20.2	0.00e+00	0	32	0	233832448	52	7015
2026-01-29 03:23:59.25	262.64	7.93	-40.3	-41.6	20.3	0.00e+00	92	32	0	235929600	52	6874
2026-01-29 03:24:00.26	262.80	7.96	-40.4	-41.7	20.3	0.00e+00	0	32	0	236978176	52	6928
2026-01-29 03:24:01.27	262.95	8.00	-40.6	-42.0	20.0	0.00e+00	80	32	0	239075328	52	7192
2026-01-29 03:24:02.28	263.11	8.03	-40.5	-41.8	20.1	0.00e+00	0	32	0	241172480	52	7067
2026-01-29 03:24:03.29	263.27	8.06	-40.4	-41.7	20.3	0.00e+00	89	32	0	243269632	54	6194
2026-01-29 03:24:04.30	263.42	8.09	-40.5	-41.7	20.2	0.00e+00	40	32	0	245366784	54	6244
2026-01-29 03:24:05.31	263.58	8.12	-40.3	-41.6	20.3	0.00e+00	90	32	0	246415360	54	6130
2026-01-29 03:24:06.32	263.74	8.16	-40.6	-41.9	20.2	0.00e+00	92	32	0	248512512	54	6354
2026-01-29 03:24:07.33	263.89	8.19	-40.5	-41.8	20.1	0.00e+00	0	32	0	250609664	54	6314
2026-01-29 03:24:08.34	264.05	8.22	-40.5	-41.8	20.2	0.00e+00	89	32	0	252706816	54	6295
2026-01-29 03:24:09.34	264.21	8.25	-40.5	-41.8	20.2	0.00e+00	0	32	0	254803968	54	6312
2026-01-29 03:24:10.35	264.37	8.28	-40.4	-41.6	20.5	0.00e+00	40	32	0	256901120	54	6164
2026-01-29 03:24:11.36	264.52	8.31	-40.1	-41.3	20.5	0.00e+00	0	32	0	257949696	54	5962
2026-01-29 03:24:12.37	264.68	8.34	-40.8	-42.2	20.6	0.00e+00	91	32	0	260046848	58	5239
2026-01-29 03:24:13.37	264.84	8.37	-40.4	-41.7	20.5	0.00e+00	73	32	0	262144000	54	6222
2026-01-29 03:24:14.38	265.00	8.40	-40.2	-41.4	20.5	0.00e+00	0	32	0	264241152	54	6027
2026-01-29 03:24:15.39	265.16	8.43	-40.0	-41.2	20.6	0.00e+00	61	32	0	266338304	54	5850
2026-01-29 03:24:16.40	265.32	8.46	-40.0	-41.2	20.7	0.00e+00	0	32	0	267386880	54	5851
2026-01-29 03:24:17.41	265.48	8.49	-39.8	-41.0	20.9	0.00e+00	92	32	0	269484032	54	5733
2026-01-29 03:24:18.42	265.64	8.52	-40.0	-41.2	20.7	0.00e+00	0	32	0	271581184	54	5854
2026-01-29 03:24:19.43	265.80	8.55	-39.9	-41.1	20.7	0.00e+00	92	32	0	273678336	54	5789
2026-01-29 03:24:20.44	265.96	8.58	-40.1	-41.3	20.8	0.00e+00	79	32	0	274726912	54	5935
2026-01-29 03:24:21.44	266.12	8.61	-40.1	-41.3	20.6	0.00e+00	33	32	0	276824064	54	5944
2026-01-29 03:24:22.45	266.29	8.64	-40.1	-41.3	20.7	0.00e+00	90	32	0	278921216	54	5937
2026-01-29 03:24:23.46	266.45	8.67	-40.2	-41.5	20.5	0.00e+00	0	32	0	281018368	54	6055
2026-01-29 03:24:24.48	266.61	8.70	-40.2	-41.5	20.5	0.00e+00	92	32	0	283115520	54	6044
2026-01-29 03:24:25.48	266.77	8.73	-40.2	-41.4	20.6	0.00e+00	0	32	0	285212672	54	6016
2026-01-29 03:24:26.49	266.94	8.76	-40.3	-41.6	20.4	0.00e+00	92	32	0	286261248	54	6134
2026-01-29 03:24:27.50	267.10	8.79	-40.3	-41.5	20.4	0.00e+00	60	32	0	288358400	54	6084
2026-01-29 03:24:28.51	267.27	8.81	-40.3	-41.5	20.5	0.00e+00	7	32	0	290455552	54	6081
2026-01-29 03:24:29.52	267.43	8.84	-40.0	-41.2	20.8	0.00e+00	90	32	0	292552704	54	5849
2026-01-29 03:24:30.53	267.59	8.87	-39.8	-41.0	20.9	0.00e+00	0	32	0	294649856	52	6396
2026-01-29 03:24:31.54	267.76	8.90	-39.6	-40.7	21.2	0.00e+00	61	32	0	295698432	52	6223
2026-01-29 03:24:32.54	267.92	8.93	-39.4	-40.6	21.3	0.00e+00	0	32	0	297795584	52	6117
2026-01-29 03:24:33.55	268.09	8.95	-39.2	-40.3	21.6	0.00e+00	90	32	0	299892736	52	5908
2026-01-29 03:24:34.56	268.25	8.98	-39.3	-40.5	21.4	0.00e+00	0	32	0	301989888	52	6035
2026-01-29 03:24:35.57	268.42	9.01	-39.5	-40.7	21.3	0.00e+00	90	32	0	304087040	52	6183
2026-01-29 03:24:36.58	268.59	9.03	-39.8	-40.9	21.0	0.00e+00	92	32	0	305135616	52	6383
2026-01-29 03:24:37.59	268.75	9.06	-40.0	-41.2	20.8	0.00e+00	0	32	0	307232768	52	6558
2026-01-29 03:24:38.60	268.92	9.09	-40.3	-41.5	20.5	0.00e+00	64	32	0	309329920	52	6842
2026-01-29 03:24:39.61	269.09	9.11	-40.3	-41.6	20.5	0.00e+00	0	32	0	311427072	52	6886
2026-01-29 03:24:40.62	269.25	9.14	-40.2	-41.5	20.5	0.00e+00	92	32	0	313524224	52	6789
2026-01-29 03:24:41.63	269.42	9.17	-40.1	-41.3	20.7	0.00e+00	0	32	0	314572800	52	6653
2026-01-29 03:24:42.64	269.59	9.19	-40.0	-41.2	20.8	0.00e+00	92	32	0	316669952	52	6611
2026-01-29 03:24:43.65	269.76	9.22	-40.3	-41.6	20.5	0.00e+00	92	32	0	318767104	52	6872
2026-01-29 03:24:44.66	269.93	9.24	-40.4	-41.6	20.4	0.00e+00	0	32	0	320864256	52	6920
2026-01-29 03:24:45.67	270.10	9.27	-40.3	-41.6	20.5	0.00e+00	92	32	0	322961408	52	6868
2026-01-29 03:24:46.67	270.26	9.29	-40.2	-41.4	20.5	0.00e+00	0	32	0	324009984	52	6748
2026-01-29 03:24:47.68	270.43	9.32	-40.2	-41.4	20.7	0.00e+00	90	32	0	326107136	52	6742
2026-01-29 03:24:48.69	270.60	9.34	-40.1	-41.4	20.2	0.00e+00	33	32	0	328204288	52	6701
2026-01-29 03:24:49.70	270.77	9.37	-40.1	-41.3	20.6	0.00e+00	92	32	0	330301440	52	6635
2026-01-29 03:24:50.71	270.94	9.39	-40.0	-41.3	20.8	0.00e+00	92	32	0	332398592	52	6616
2026-01-29 03:24:51.72	271.11	9.41	-39.8	-41.0	20.9	0.00e+00	0	32	0	333447168	52	6409
2026-01-29 03:24:52.73	271.28	9.44	-39.8	-40.9	21.1	0.00e+00	90	32	0	335544320	52	6390
2026-01-29 03:24:53.74	271.45	9.46	-39.5	-40.6	21.4	0.00e+00	0	32	0	337641472	52	6118
2026-01-29 03:24:54.75	271.63	9.48	-39.5	-40.6	21.3	0.00e+00	85	32	0	339738624	52	6118
2026-01-29 03:24:55.76	271.80	9.51	-39.7	-40.9	21.2	0.00e+00	0	32	0	341835776	52	6343
2026-01-29 03:24:56.77	271.97	9.53	-39.6	-40.7	21.2	0.00e+00	92	32	0	342884352	52	6207
2026-01-29 03:24:57.78	272.14	9.55	-39.7	-40.9	21.1	0.00e+00	91	32	0	344981504	52	6342
2026-01-29 03:24:58.79	272.31	9.58	-40.1	-41.3	20.8	0.00e+00	92	32	0	347078656	52	6631
2026-01-29 03:24:59.80	272.49	9.60	-40.5	-41.8	20.4	0.00e+00	92	33	0	349175808	52	7048
2026-01-29 03:25:00.81	272.66	9.62	-40.7	-42.0	20.1	0.00e+00	0	32	0	351272960	52	7234
2026-01-29 03:25:01.82	272.83	9.64	-41.0	-42.3	19.9	0.00e+00	90	32	0	353370112	54	6687
2026-01-29 03:25:02.83	273.01	9.67	-41.1	-42.5	19.6	0.00e+00	0	32	0	354418688	54	6831
2026-01-29 03:25:03.84	273.18	9.69	-41.1	-42.5	19.7	0.00e+00	92	32	0	356515840	54	6783
2026-01-29 03:25:04.85	273.35	9.71	-41.0	-42.4	19.7	0.00e+00	54	32	0	358612992	54	6746
2026-01-29 03:25:05.86	273.53	9.73	-40.8	-42.1	20.0	0.00e+00	91	32	0	360710144	54	6498
2026-01-29 03:25:06.87	273.70	9.75	-40.4	-41.7	20.5	0.00e+00	91	32	0	362807296	54	6207
2026-01-29 03:25:07.88	273.88	9.77	-40.3	-41.5	20.5	0.00e+00	0	32	0	363855872	54	6093
2026-01-29 03:25:08.89	274.05	9.79	-40.0	-41.2	20.9	0.00e+00	91	33	0	365953024	54	5895
2026-01-29 03:25:09.89	274.22	9.81	-39.7	-40.9	21.1	0.00e+00	0	32	0	368050176	52	6342
2026-01-29 03:25:10.91	274.40	9.83	-39.9	-41.0	21.0	0.00e+00	92	32	0	370147328	52	6454
2026-01-29 03:25:11.91	274.57	9.85	-39.9	-41.1	20.9	0.00e+00	0	33	0	372244480	52	6511
2026-01-29 03:25:12.92	274.75	9.87	-39.9	-41.1	21.0	0.00e+00	90	32	0	373293056	52	6489
2026-01-29 03:25:13.93	274.93	9.89	-40.2	-41.5	20.6	0.00e+00	92	33	0	375390208	52	6778
2026-01-29 03:25:14.94	275.10	9.91	-40.0	-41.2	20.8	0.00e+00	0	32	0	377487360	52	6604
2026-01-29 03:25:15.95	275.28	9.93	-39.9	-41.1	21.0	0.00e+00	92	32	0	379584512	52	6505
2026-01-29 03:25:16.96	275.46	9.95	-39.8	-40.9	21.1	0.00e+00	0	32	0	381681664	52	6380
2026-01-29 03:25:17.97	275.63	9.97	-39.7	-40.9	21.1	0.00e+00	92	32	0	382730240	52	6343
2026-01-29 03:25:18.98	275.81	9.98	-39.5	-40.6	21.4	0.00e+00	0	33	0	384827392	52	6107
2026-01-29 03:25:19.99	275.99	10.00	-39.3	-40.4	21.6	0.00e+00	90	32	0	386924544	52	5968
2026-01-29 03:25:21.00	276.16	10.02	-39.4	-40.5	21.5	0.00e+00	90	32	0	389021696	52	6069
2026-01-29 03:25:22.01	276.34	10.04	-39.6	-40.7	21.3	0.00e+00	13	32	0	391118848	52	6207
2026-01-29 03:25:23.02	276.52	10.06	-39.9	-41.1	20.9	0.00e+00	92	32	0	392167424	52	6468
2026-01-29 03:25:24.03	276.70	10.07	-40.0	-41.2	20.8	0.00e+00	0	33	0	394264576	52	6571
2026-01-29 03:25:25.04	276.88	10.09	-40.3	-41.5	20.5	0.00e+00	90	33	0	396361728	52	6816
2026-01-29 03:25:26.05	277.05	10.11	-40.2	-41.5	20.7	0.00e+00	0	32	0	398458880	52	6770
2026-01-29 03:25:27.05	277.23	10.12	-39.9	-41.1	21.0	0.00e+00	91	33	0	400556032	52	6514
2026-01-29 03:25:28.06	277.41	10.14	-39.5	-40.6	21.4	0.00e+00	91	32	0	401604608	52	6130
2026-01-29 03:25:29.07	277.59	10.15	-39.4	-40.5	21.5	0.00e+00	92	32	0	403701760	52	6100
2026-01-29 03:25:30.08	277.77	10.17	-39.4	-40.5	21.4	0.00e+00	92	33	0	405798912	52	6037
2026-01-29 03:25:31.09	277.95	10.19	-39.6	-40.7	21.3	0.00e+00	0	33	0	407896064	52	6218
2026-01-29 03:25:32.10	278.13	10.20	-39.9	-41.1	21.0	0.00e+00	92	33	0	409993216	52	6499
2026-01-29 03:25:33.11	278.31	10.22	-40.3	-41.6	20.6	0.00e+00	0	33	0	411041792	52	6856
2026-01-29 03:25:34.12	278.49	10.23	-40.7	-42.0	20.1	0.00e+00	92	33	0	413138944	52	7231
2026-01-29 03:25:35.12	278.67	10.25	-40.4	-41.7	20.4	0.00e+00	0	32	0	415236096	54	6224
2026-01-29 03:25:36.13	278.85	10.26	-40.3	-41.5	20.6	0.00e+00	92	33	0	417333248	54	6078
2026-01-29 03:25:37.14	279.03	10.27	-40.1	-41.3	20.7	0.00e+00	92	33	0	419430400	54	5964
2026-01-29 03:25:38.15	279.21	10.29	-39.7	-40.9	21.1	0.00e+00	0	33	0	421527552	54	5656
2026-01-29 03:25:39.16	279.39	10.30	-39.4	-40.5	21.5	0.00e+00	92	33	0	422576128	52	6044
2026-01-29 03:25:40.17	279.57	10.32	-39.4	-40.4	21.6	0.00e+00	0	33	0	424673280	52	6029
2026-01-29 03:25:41.18	279.75	10.33	-39.6	-40.7	21.3	0.00e+00	92	33	0	426770432	52	6200
2026-01-29 03:25:42.19	279.93	10.34	-39.4	-40.6	21.4	0.00e+00	9	33	0	428867584	52	6104
2026-01-29 03:25:43.20	280.11	10.35	-39.6	-40.7	21.2	0.00e+00	92	33	0	430964736	52	6245
2026-01-29 03:25:44.21	280.29	10.37	-40.0	-41.2	20.8	0.00e+00	92	32	0	432013312	52	6564
2026-01-29 03:25:45.22	280.48	10.38	-40.1	-41.3	20.8	0.00e+00	0	32	0	434110464	52	6651
2026-01-29 03:25:46.23	280.66	10.39	-40.2	-41.4	20.6	0.00e+00	92	32	0	436207616	52	6759
2026-01-29 03:25:47.23	280.84	10.40	-40.1	-41.3	20.8	0.00e+00	0	32	0	438304768	52	6660
2026-01-29 03:25:48.24	281.02	10.41	-40.3	-41.5	20.7	0.00e+00	90	32	0	440401920	52	6791
2026-01-29 03:25:49.25	281.20	10.42	-40.1	-41.3	20.7	0.00e+00	0	32	0	441450496	52	6687
2026-01-29 03:25:50.26	281.38	10.44	-40.6	-41.9	20.3	0.00e+00	92	33	0	443547648	52	7091
2026-01-29 03:25:51.27	281.57	10.45	-40.9	-42.3	19.9	0.00e+00	92	33	0	445644800	54	6616
2026-01-29 03:25:52.28	281.75	10.46	-41.2	-42.7	19.4	0.00e+00	0	32	0	447741952	54	6945
2026-01-29 03:25:53.29	281.93	10.47	-41.7	-43.3	18.9	0.00e+00	55	32	0	449839104	54	7439
2026-01-29 03:25:54.30	282.11	10.48	-42.0	-43.6	18.7	0.00e+00	0	32	0	450887680	56	6902
2026-01-29 03:25:55.31	282.30	10.49	-42.2	-43.9	18.5	0.00e+00	57	32	0	452984832	56	7123
2026-01-29 03:25:56.32	282.48	10.50	-42.2	-43.9	18.4	0.00e+00	0	32	0	455081984	56	7142
2026-01-29 03:25:57.33	282.66	10.50	-42.0	-43.6	18.6	0.00e+00	91	32	0	457179136	56	6918
2026-01-29 03:25:58.34	282.85	10.51	-41.7	-43.3	19.0	0.00e+00	88	32	0	459276288	56	6618
2026-01-29 03:25:59.35	283.03	10.52	-41.3	-42.8	19.6	0.00e+00	0	32	0	460324864	56	6267
2026-01-29 03:26:00.36	283.21	10.53	-41.1	-42.5	19.8	0.00e+00	92	32	0	462422016	56	6054
2026-01-29 03:26:01.37	283.40	10.54	-40.8	-42.1	20.2	0.00e+00	0	32	0	464519168	56	5810
2026-01-29 03:26:02.38	283.58	10.55	-40.9	-42.2	20.0	0.00e+00	68	32	0	466616320	56	5878
2026-01-29 03:26:03.39	283.77	10.55	-41.0	-42.3	20.0	0.00e+00	0	32	0	468713472	56	5939
2026-01-29 03:26:04.40	283.95	10.56	-40.9	-42.3	19.9	0.00e+00	92	32	0	469762048	56	5924
2026-01-29 03:26:05.40	284.13	10.57	-41.0	-42.4	19.9	0.00e+00	92	32	0	471859200	56	5992
2026-01-29 03:26:06.42	284.32	10.58	-41.0	-42.3	19.9	0.00e+00	0	32	0	473956352	56	5945
2026-01-29 03:26:07.42	284.50	10.58	-40.9	-42.2	20.1	0.00e+00	92	32	0	476053504	56	5858
2026-01-29 03:26:08.43	284.68	10.59	-40.7	-42.1	20.1	0.00e+00	0	32	0	478150656	54	6478
2026-01-29 03:26:09.44	284.87	10.59	-40.5	-41.7	20.3	0.00e+00	92	32	0	479199232	54	6245
2026-01-29 03:26:10.45	285.05	10.60	-40.5	-41.8	20.3	0.00e+00	0	32	0	481296384	54	6247
2026-01-29 03:26:11.47	285.24	10.61	-40.6	-41.9	20.2	0.00e+00	92	33	0	483393536	54	6325
2026-01-29 03:26:12.47	285.42	10.61	-40.5	-41.8	20.4	0.00e+00	57	32	0	485490688	54	6268
2026-01-29 03:26:13.49	285.61	10.62	-40.5	-41.8	20.3	0.00e+00	82	33	0	487587840	54	6253
2026-01-29 03:26:14.49	285.79	10.62	-40.6	-41.9	20.2	0.00e+00	92	32	0	489684992	54	6386
2026-01-29 03:26:15.50	285.97	10.63	-40.4	-41.7	20.4	0.00e+00	0	33	0	490733568	54	6197
2026-01-29 03:26:16.51	286.16	10.63	-40.6	-41.9	20.3	0.00e+00	92	32	0	492830720	54	6358
2026-01-29 03:26:17.52	286.34	10.63	-40.2	-41.4	20.7	0.00e+00	0	32	0	494927872	54	5994
2026-01-29 03:26:18.53	286.53	10.64	-39.9	-41.1	21.0	0.00e+00	92	32	0	497025024	54	5766
2026-01-29 03:26:19.54	286.71	10.64	-39.9	-41.1	20.9	0.00e+00	0	32	0	498073600	54	5808
2026-01-29 03:26:20.55	286.90	10.64	-39.7	-40.9	21.1	0.00e+00	92	32	0	500170752	54	5667
2026-01-29 03:26:21.56	287.08	10.65	-39.8	-40.9	21.1	0.00e+00	91	32	0	502267904	52	6377
2026-01-29 03:26:22.57	287.27	10.65	-39.9	-41.1	21.0	0.00e+00	0	33	0	504365056	52	6506
2026-01-29 03:26:23.58	287.45	10.65	-39.8	-41.0	21.1	0.00e+00	60	32	0	506462208	52	6403
2026-01-29 03:26:24.59	287.64	10.65	-40.0	-41.1	21.0	0.00e+00	0	32	0	507510784	52	6527
2026-01-29 03:26:25.60	287.82	10.66	-40.0	-41.2	20.9	0.00e+00	91	32	0	509607936	52	6553
2026-01-29 03:26:26.60	288.01	10.66	-39.9	-41.1	21.1	0.00e+00	0	32	0	511705088	52	6496
2026-01-29 03:26:27.62	288.19	10.66	-39.9	-41.1	21.0	0.00e+00	90	32	0	513802240	52	6483
2026-01-29 03:26:28.62	288.38	10.66	-39.7	-40.8	21.2	0.00e+00	92	32	0	515899392	52	6284
2026-01-29 03:26:29.63	288.56	10.66	-39.6	-40.7	21.3	0.00e+00	0	32	0	517996544	52	6227
2026-01-29 03:26:30.64	288.75	10.66	-39.5	-40.7	21.3	0.00e+00	92	32	0	519045120	52	6178
2026-01-29 03:26:31.65	288.93	10.66	-39.6	-40.8	21.2	0.00e+00	0	32	0	521142272	52	6273
2026-01-29 03:26:32.66	289.12	10.66	-39.6	-40.7	21.3	0.00e+00	88	32	0	523239424	52	6235
2026-01-29 03:26:33.67	289.30	10.66	-39.7	-40.8	21.2	0.00e+00	0	32	0	525336576	52	6297
2026-01-29 03:26:34.67	289.48	10.66	-39.6	-40.7	21.2	0.00e+00	92	32	0	527433728	52	6236
2026-01-29 03:26:35.68	289.67	10.66	-39.8	-40.9	21.1	0.00e+00	90	32	0	528482304	52	6383
2026-01-29 03:26:36.69	289.85	10.66	-39.7	-40.8	21.2	0.00e+00	0	33	0	530579456	52	6286
2026-01-29 03:26:37.70	290.04	10.66	-39.6	-40.8	21.5	0.00e+00	92	33	0	532676608	52	6263
2026-01-29 03:26:38.71	290.22	10.66	-39.3	-40.4	21.4	0.00e+00	0	32	0	534773760	52	6028
2026-01-29 03:26:39.72	290.41	10.65	-39.4	-40.5	21.6	0.00e+00	92	33	0	536870912	52	6068
2026-01-29 03:26:40.73	290.59	10.65	-39.0	-40.1	21.9	0.00e+00	0	32	0	537919488	52	5788
2026-01-29 03:26:41.74	290.78	10.65	-38.9	-39.9	22.0	0.00e+00	90	32	0	540016640	52	5654
2026-01-29 03:26:42.75	290.96	10.65	-39.0	-40.1	21.8	0.00e+00	92	32	0	542113792	52	5798
2026-01-29 03:26:43.76	291.15	10.64	-38.9	-40.0	21.9	0.00e+00	0	33	0	544210944	52	5699
2026-01-29 03:26:44.77	291.33	10.64	-39.0	-40.1	21.9	0.00e+00	92	32	0	546308096	52	5768
2026-01-29 03:26:45.78	291.52	10.64	-39.0	-40.0	21.9	0.00e+00	0	33	0	547356672	52	5753
2026-01-29 03:26:46.79	291.70	10.63	-38.7	-39.7	22.2	0.00e+00	78	33	0	549453824	50	6231
2026-01-29 03:26:47.80	291.89	10.63	-38.7	-39.8	22.0	0.00e+00	0	32	0	551550976	50	6248
2026-01-29 03:26:48.81	292.07	10.63	-38.4	-39.4	22.4	0.00e+00	90	33	0	553648128	50	5988
2026-01-29 03:26:49.82	292.26	10.62	-38.6	-39.6	22.2	0.00e+00	48	33	0	555745280	50	6120
2026-01-29 03:26:50.84	292.44	10.62	-38.5	-39.5	22.2	0.00e+00	92	33	0	556793856	50	6050
2026-01-29 03:26:51.84	292.63	10.61	-38.8	-39.8	22.0	0.00e+00	92	33	0	558891008	50	6283
2026-01-29 03:26:52.85	292.81	10.61	-39.0	-40.1	21.7	0.00e+00	0	33	0	560988160	50	6511
2026-01-29 03:26:53.86	292.99	10.60	-39.3	-40.4	21.5	0.00e+00	90	33	0	563085312	50	6727
2026-01-29 03:26:54.87	293.18	10.60	-39.5	-40.6	21.4	0.00e+00	0	33	0	565182464	50	6904
2026-01-29 03:26:55.88	293.36	10.59	-39.2	-40.3	21.7	0.00e+00	90	33	0	566231040	50	6655
2026-01-29 03:26:56.88	293.54	10.58	-39.3	-40.4	21.5	0.00e+00	0	33	0	568328192	50	6724
2026-01-29 03:26:57.89	293.73	10.58	-39.0	-40.0	21.8	0.00e+00	92	33	0	570425344	50	6430
2026-01-29 03:26:58.90	293.91	10.57	-39.1	-40.2	21.8	0.00e+00	92	32	0	572522496	50	6541
2026-01-29 03:26:59.91	294.10	10.56	-38.9	-40.0	21.9	0.00e+00	0	32	0	574619648	50	6403
2026-01-29 03:27:00.92	294.28	10.56	-39.0	-40.1	21.8	0.00e+00	81	33	0	575668224	50	6477
2026-01-29 03:27:01.94	294.47	10.55	-38.9	-40.0	21.9	0.00e+00	0	33	0	577765376	50	6420
2026-01-29 03:27:02.94	294.65	10.54	-39.1	-40.2	21.8	0.00e+00	84	33	0	579862528	50	6591
2026-01-29 03:27:03.95	294.83	10.53	-38.9	-40.0	21.8	0.00e+00	0	33	0	581959680	50	6437
2026-01-29 03:27:04.96	295.01	10.53	-38.9	-40.0	21.9	0.00e+00	91	33	0	584056832	50	6411
2026-01-29 03:27:05.97	295.20	10.52	-39.0	-40.1	21.9	0.00e+00	92	33	0	586153984	50	6499
2026-01-29 03:27:06.98	295.38	10.51	-38.9	-39.9	21.9	0.00e+00	0	33	0	587202560	50	6375
2026-01-29 03:27:07.99	295.56	10.50	-38.8	-39.9	22.0	0.00e+00	77	33	0	589299712	50	6342
2026-01-29 03:27:09.00	295.75	10.49	-38.6	-39.7	22.3	0.00e+00	0	32	0	591396864	50	6180
2026-01-29 03:27:10.01	295.93	10.48	-38.4	-39.4	22.5	0.00e+00	91	32	0	593494016	50	5996
2026-01-29 03:27:11.02	296.11	10.47	-38.4	-39.4	22.3	0.00e+00	0	33	0	595591168	50	6001
2026-01-29 03:27:12.03	296.29	10.46	-38.4	-39.4	22.4	0.00e+00	92	33	0	596639744	50	5987
2026-01-29 03:27:13.04	296.48	10.45	-38.5	-39.5	22.3	0.00e+00	90	32	0	598736896	50	6098
2026-01-29 03:27:14.05	296.66	10.44	-38.5	-39.5	22.3	0.00e+00	0	33	0	600834048	50	6079
2026-01-29 03:27:15.05	296.84	10.43	-38.6	-39.7	22.3	0.00e+00	92	32	0	602931200	50	6183
2026-01-29 03:27:16.06	297.02	10.42	-38.6	-39.6	22.2	0.00e+00	0	33	0	605028352	50	6133
2026-01-29 03:27:17.07	297.20	10.41	-38.5	-39.6	22.2	0.00e+00	92	33	0	606076928	50	6125
2026-01-29 03:27:18.08	297.38	10.39	-38.4	-39.4	22.5	0.00e+00	0	33	0	608174080	50	5965
2026-01-29 03:27:19.09	297.57	10.38	-38.2	-39.1	22.5	0.00e+00	92	33	0	610271232	50	5825
2026-01-29 03:27:20.10	297.75	10.37	-38.0	-38.9	22.8	0.00e+00	58	33	0	612368384	50	5695
2026-01-29 03:27:21.11	297.93	10.36	-37.7	-38.6	23.0	0.00e+00	0	33	0	614465536	48	6124
2026-01-29 03:27:22.12	298.11	10.35	-37.7	-38.6	23.0	0.00e+00	93	33	0	615514112	48	6119
2026-01-29 03:27:23.13	298.29	10.33	-37.6	-38.5	23.1	0.00e+00	0	33	0	617611264	48	6071
2026-01-29 03:27:24.14	298.47	10.32	-37.8	-38.7	23.0	0.00e+00	92	32	0	619708416	48	6213
2026-01-29 03:27:25.15	298.65	10.31	-37.7	-38.6	23.0	0.00e+00	0	32	0	621805568	48	6168
2026-01-29 03:27:26.16	298.83	10.29	-37.9	-38.9	22.8	0.00e+00	92	32	0	623902720	48	6322
2026-01-29 03:27:27.17	299.01	10.28	-38.1	-39.1	22.6	0.00e+00	28	32	0	624951296	48	6465
2026-01-29 03:27:28.18	299.19	10.27	-38.3	-39.3	22.4	0.00e+00	26	32	0	627048448	48	6676
2026-01-29 03:27:29.19	299.37	10.25	-38.4	-39.4	22.4	0.00e+00	90	32	0	629145600	48	6711
2026-01-29 03:27:30.19	299.55	10.24	-38.3	-39.3	22.4	0.00e+00	0	32	0	631242752	48	6650
2026-01-29 03:27:31.20	299.73	10.22	-38.2	-39.2	22.5	0.00e+00	70	32	0	633339904	48	6580
2026-01-29 03:27:32.21	299.91	10.21	-38.2	-39.1	22.7	0.00e+00	0	33	0	634388480	48	6531
2026-01-29 03:27:33.22	300.09	10.19	-38.2	-39.2	22.4	0.00e+00	92	32	0	636485632	48	6595
2026-01-29 03:27:34.23	300.27	10.18	-38.1	-39.0	22.6	0.00e+00	0	33	0	638582784	48	6434
2026-01-29 03:27:35.24	300.45	10.16	-38.1	-39.0	22.7	0.00e+00	0	32	0	640679936	48	6456
2026-01-29 03:27:36.25	300.63	10.15	-38.2	-39.2	22.6	0.00e+00	92	32	0	642777088	48	6563
2026-01-29 03:27:37.26	300.80	10.13	-38.2	-39.2	22.4	0.00e+00	0	32	0	643825664	48	6569
2026-01-29 03:27:38.27	300.98	10.11	-38.3	-39.3	22.3	0.00e+00	69	32	0	645922816	48	6667
2026-01-29 03:27:39.27	301.16	10.10	-38.3	-39.3	22.4	0.00e+00	0	32	0	648019968	48	6639
2026-01-29 03:27:40.29	301.34	10.08	-38.3	-39.3	22.4	0.00e+00	92	33	0	650117120	48	6645
2026-01-29 03:27:41.29	301.51	10.06	-38.3	-39.3	22.5	0.00e+00	33	33	0	652214272	48	6634
2026-01-29 03:27:42.30	301.69	10.05	-38.3	-39.2	22.5	0.00e+00	34	33	0	653262848	48	6597
2026-01-29 03:27:43.32	301.87	10.03	-38.2	-39.2	22.6	0.00e+00	90	32	0	655360000	48	6559
2026-01-29 03:27:44.33	302.05	10.01	-38.1	-39.1	22.6	0.00e+00	0	32	0	657457152	48	6516
2026-01-29 03:27:45.33	302.22	9.99	-38.3	-39.3	22.5	0.00e+00	39	32	0	659554304	48	6626
2026-01-29 03:27:46.35	302.40	9.97	-38.4	-39.4	22.4	0.00e+00	0	33	0	661651456	48	6725
2026-01-29 03:27:47.36	302.58	9.96	-38.6	-39.6	22.2	0.00e+00	42	32	0	663748608	48	6899
2026-01-29 03:27:48.36	302.75	9.94	-38.7	-39.7	22.1	0.00e+00	0	32	0	664797184	50	6199
2026-01-29 03:27:49.37	302.93	9.92	-38.8	-39.8	22.0	0.00e+00	87	33	0	666894336	50	6288
2026-01-29 03:27:50.38	303.10	9.90	-38.9	-39.9	21.9	0.00e+00	41	33	0	668991488	50	6372
2026-01-29 03:27:51.39	303.28	9.88	-39.2	-40.3	21.7	0.00e+00	0	33	0	671088640	50	6635
2026-01-29 03:27:52.40	303.45	9.86	-39.2	-40.3	21.6	0.00e+00	55	33	0	673185792	50	6677
2026-01-29 03:27:53.41	303.63	9.84	-39.1	-40.2	21.5	0.00e+00	0	33	0	674234368	50	6587
2026-01-29 03:27:54.42	303.80	9.82	-39.2	-40.3	21.6	0.00e+00	90	33	0	676331520	50	6681
2026-01-29 03:27:55.43	303.98	9.80	-38.9	-39.9	21.9	0.00e+00	58	33	0	678428672	50	6385
2026-01-29 03:27:56.44	304.15	9.78	-38.6	-39.7	22.2	0.00e+00	92	33	0	680525824	50	6200
2026-01-29 03:27:57.44	304.33	9.76	-38.6	-39.6	22.2	0.00e+00	92	33	0	682622976	50	6173
2026-01-29 03:27:58.45	304.50	9.74	-38.4	-39.4	22.3	0.00e+00	0	33	0	683671552	50	6006
2026-01-29 03:27:59.46	304.67	9.72	-38.1	-39.1	22.5	0.00e+00	92	33	0	685768704	50	5820
2026-01-29 03:28:00.47	304.85	9.70	-38.1	-39.1	22.6	0.00e+00	0	33	0	687865856	50	5778
2026-01-29 03:28:01.48	305.02	9.68	-38.1	-39.0	22.5	0.00e+00	56	33	0	689963008	50	5756
2026-01-29 03:28:02.49	305.19	9.65	-37.8	-38.7	22.9	0.00e+00	0	33	0	692060160	50	5541
2026-01-29 03:28:03.50	305.37	9.63	-37.6	-38.5	22.9	0.00e+00	92	33	0	693108736	48	6070
2026-01-29 03:28:04.51	305.54	9.61	-37.5	-38.4	23.1	0.00e+00	59	33	0	695205888	48	5983
2026-01-29 03:28:05.52	305.71	9.59	-37.4	-38.3	23.3	0.00e+00	0	33	0	697303040	48	5922
2026-01-29 03:28:06.53	305.88	9.57	-37.1	-38.0	23.4	0.00e+00	92	33	0	699400192	48	5743
2026-01-29 03:28:07.54	306.05	9.54	-37.0	-37.9	23.5	0.00e+00	0	33	0	701497344	48	5644
2026-01-29 03:28:08.55	306.22	9.52	-37.0	-37.9	23.4	0.00e+00	92	32	0	702545920	48	5645
2026-01-29 03:28:09.56	306.40	9.50	-37.0	-37.9	23.5	0.00e+00	0	33	0	704643072	48	5633
2026-01-29 03:28:10.57	306.57	9.47	-37.2	-38.1	23.2	0.00e+00	92	33	0	706740224	48	5808
2026-01-29 03:28:11.58	306.74	9.45	-37.4	-38.3	23.2	0.00e+00	0	33	0	708837376	48	5915
2026-01-29 03:28:12.59	306.91	9.43	-37.6	-38.6	23.1	0.00e+00	0	33	0	710934528	48	6104
2026-01-29 03:28:13.60	307.08	9.40	-37.8	-38.7	22.8	0.00e+00	92	33	0	711983104	48	6211
2026-01-29 03:28:14.61	307.25	9.38	-37.8	-38.7	22.9	0.00e+00	0	33	0	714080256	48	6215
2026-01-29 03:28:15.62	307.42	9.35	-37.8	-38.8	22.8	0.00e+00	49	33	0	716177408	48	6268
2026-01-29 03:28:16.63	307.59	9.33	-37.9	-38.9	22.7	0.00e+00	0	33	0	718274560	48	6332
2026-01-29 03:28:17.63	307.75	9.31	-38.1	-39.1	22.5	0.00e+00	90	33	0	720371712	48	6489
2026-01-29 03:28:18.65	307.92	9.28	-37.8	-38.7	22.9	0.00e+00	0	33	0	721420288	48	6203
2026-01-29 03:28:19.66	308.09	9.26	-37.8	-38.8	22.9	0.00e+00	0	33	0	723517440	48	6248
2026-01-29 03:28:20.66	308.26	9.23	-37.7	-38.6	22.9	0.00e+00	78	33	0	725614592	48	6130
2026-01-29 03:28:21.67	308.43	9.21	-37.7	-38.7	22.9	0.00e+00	0	32	0	727711744	48	6199
2026-01-29 03:28:22.68	308.59	9.18	-37.6	-38.6	22.8	0.00e+00	52	33	0	729808896	48	6116
2026-01-29 03:28:23.69	308.76	9.15	-37.8	-38.7	22.9	0.00e+00	0	33	0	731906048	48	6212
2026-01-29 03:28:24.70	308.93	9.13	-37.8	-38.8	22.6	0.00e+00	92	33	0	732954624	48	6288
2026-01-29 03:28:25.71	309.09	9.10	-38.2	-39.2	22.4	0.00e+00	0	33	0	735051776	48	6551
2026-01-29 03:28:26.72	309.26	9.08	-38.2	-39.2	22.4	0.00e+00	92	33	0	737148928	48	6601
2026-01-29 03:28:27.73	309.43	9.05	-38.5	-39.6	22.0	0.00e+00	51	33	0	739246080	48	6854
2026-01-29 03:28:28.74	309.59	9.02	-38.6	-39.7	22.0	0.00e+00	0	32	0	740294656	50	6186
2026-01-29 03:28:29.75	309.76	9.00	-38.4	-39.4	22.3	0.00e+00	62	32	0	742391808	50	6029
2026-01-29 03:28:30.76	309.92	8.97	-38.1	-39.1	22.5	0.00e+00	0	32	0	744488960	50	5802
2026-01-29 03:28:31.77	310.09	8.94	-37.5	-38.4	22.9	0.00e+00	85	32	0	746586112	48	6020
2026-01-29 03:28:32.78	310.25	8.91	-37.5	-38.5	23.0	0.00e+00	0	33	0	748683264	48	6036
2026-01-29 03:28:33.79	310.42	8.89	-37.2	-38.1	23.3	0.00e+00	92	32	0	749731840	48	5822
2026-01-29 03:28:34.80	310.58	8.86	-37.1	-38.0	23.3	0.00e+00	44	32	0	751828992	48	5736
2026-01-29 03:28:35.81	310.74	8.83	-37.1	-38.0	23.4	0.00e+00	0	32	0	753926144	48	5703
2026-01-29 03:28:36.81	310.91	8.80	-37.2	-38.1	23.2	0.00e+00	55	32	0	756023296	48	5814
2026-01-29 03:28:37.82	311.07	8.78	-37.4	-38.3	23.1	0.00e+00	0	32	0	758120448	48	5938
2026-01-29 03:28:38.84	311.23	8.75	-37.5	-38.5	22.9	0.00e+00	77	32	0	760217600	48	6066
2026-01-29 03:28:39.84	311.39	8.72	-37.9	-38.8	22.8	0.00e+00	0	33	0	761266176	48	6299
2026-01-29 03:28:40.85	311.56	8.69	-37.9	-38.9	22.6	0.00e+00	92	33	0	763363328	48	6341
2026-01-29 03:28:41.86	311.72	8.66	-37.9	-38.9	22.6	0.00e+00	13	33	0	765460480	48	6354
2026-01-29 03:28:42.87	311.88	8.63	-38.0	-38.9	22.5	0.00e+00	0	33	0	767557632	48	6388
2026-01-29 03:28:43.88	312.04	8.60	-37.9	-38.9	22.6	0.00e+00	92	32	0	769654784	48	6367
2026-01-29 03:28:44.89	312.20	8.57	-37.9	-38.9	22.3	0.00e+00	0	33	0	770703360	48	6349
2026-01-29 03:28:45.90	312.36	8.54	-37.8	-38.8	22.7	0.00e+00	91	33	0	772800512	48	6288
2026-01-29 03:28:46.91	312.52	8.52	-37.9	-38.9	22.6	0.00e+00	0	33	0	774897664	48	6345
2026-01-29 03:28:47.92	312.68	8.49	-37.9	-38.9	22.5	0.00e+00	90	33	0	776994816	48	6320
2026-01-29 03:28:48.93	312.84	8.46	-38.0	-39.0	22.4	0.00e+00	0	33	0	779091968	48	6396
2026-01-29 03:28:49.94	313.00	8.43	-38.2	-39.2	22.2	0.00e+00	0	33	0	780140544	48	6594
2026-01-29 03:28:50.95	313.16	8.40	-38.3	-39.4	22.2	0.00e+00	90	33	0	782237696	48	6693
2026-01-29 03:28:51.96	313.32	8.36	-38.4	-39.5	22.0	0.00e+00	0	33	0	784334848	48	6783
2026-01-29 03:28:52.97	313.48	8.33	-38.7	-39.8	21.8	0.00e+00	56	33	0	786432000	50	6296
2026-01-29 03:28:53.98	313.64	8.30	-39.0	-40.1	21.6	0.00e+00	0	33	0	788529152	50	6518
2026-01-29 03:28:54.99	313.79	8.27	-39.3	-40.4	21.2	0.00e+00	92	33	0	789577728	50	6768
2026-01-29 03:28:56.00	313.95	8.24	-39.4	-40.5	21.3	0.00e+00	25	33	0	791674880	50	6835
2026-01-29 03:28:57.01	314.11	8.21	-39.7	-40.9	21.0	0.00e+00	0	33	0	793772032	50	7093
2026-01-29 03:28:58.02	314.26	8.18	-39.4	-40.6	21.2	0.00e+00	90	33	0	795869184	50	6857
2026-01-29 03:28:59.03	314.42	8.15	-39.6	-40.7	21.1	0.00e+00	0	33	0	797966336	50	6984
2026-01-29 03:29:00.04	314.58	8.12	-39.6	-40.7	21.1	0.00e+00	56	33	0	799014912	52	6217
2026-01-29 03:29:01.05	314.73	8.08	-39.6	-40.8	21.0	0.00e+00	0	33	0	801112064	52	6254
2026-01-29 03:29:02.06	314.89	8.05	-39.6	-40.8	21.0	0.00e+00	92	33	0	803209216	52	6289
2026-01-29 03:29:03.06	315.04	8.02	-39.8	-41.1	20.7	0.00e+00	0	33	0	805306368	52	6472
2026-01-29 03:29:04.07	315.20	7.99	-39.8	-41.0	20.7	0.00e+00	62	33	0	807403520	52	6404
2026-01-29 03:29:05.08	315.35	7.96	-39.8	-41.1	20.9	0.00e+00	56	33	0	808452096	52	6484
2026-01-29 03:29:06.09	315.51	7.92	-39.8	-41.1	20.8	0.00e+00	0	33	0	810549248	52	6478
2026-01-29 03:29:07.10	315.66	7.89	-39.9	-41.2	20.6	0.00e+00	58	33	0	812646400	52	6555
2026-01-29 03:29:08.11	315.81	7.86	-40.0	-41.2	20.5	0.00e+00	0	33	0	814743552	52	6589
2026-01-29 03:29:09.12	315.97	7.83	-39.7	-40.9	20.8	0.00e+00	91	33	0	816840704	52	6359
2026-01-29 03:29:10.13	316.12	7.79	-39.9	-41.2	20.6	0.00e+00	0	33	0	817889280	52	6544
2026-01-29 03:29:11.14	316.27	7.76	-40.0	-41.2	20.7	0.00e+00	4	33	0	819986432	52	6601
2026-01-29 03:29:12.15	316.42	7.73	-39.7	-40.9	21.0	0.00e+00	90	33	0	822083584	52	6349
2026-01-29 03:29:13.16	316.57	7.69	-39.7	-40.9	21.0	0.00e+00	0	33	0	824180736	52	6345
2026-01-29 03:29:14.17	316.73	7.66	-39.8	-41.0	20.8	0.00e+00	2	33	0	826277888	52	6410
2026-01-29 03:29:15.18	316.88	7.63	-39.8	-41.0	20.8	0.00e+00	0	33	0	828375040	52	6448
2026-01-29 03:29:16.19	317.03	7.59	-40.1	-41.3	20.6	0.00e+00	87	33	0	829423616	52	6679
2026-01-29 03:29:17.20	317.18	7.56	-40.2	-41.5	20.4	0.00e+00	0	33	0	831520768	52	6808
2026-01-29 03:29:18.21	317.33	7.53	-40.2	-41.5	20.3	0.00e+00	74	33	0	833617920	52	6841
2026-01-29 03:29:19.22	317.48	7.49	-40.2	-41.4	20.4	0.00e+00	57	33	0	835715072	52	6765
2026-01-29 03:29:20.22	317.63	7.46	-40.2	-41.5	20.5	0.00e+00	0	32	0	837812224	52	6789
2026-01-29 03:29:21.23	317.77	7.42	-40.2	-41.5	20.3	0.00e+00	92	33	0	838860800	52	6833
2026-01-29 03:29:22.24	317.92	7.39	-40.1	-41.4	20.5	0.00e+00	0	32	0	840957952	52	6695
2026-01-29 03:29:23.25	318.07	7.36	-40.2	-41.4	20.4	0.00e+00	61	33	0	843055104	52	6763
2026-01-29 03:29:24.26	318.22	7.32	-40.3	-41.6	20.2	0.00e+00	0	33	0	845152256	52	6908
2026-01-29 03:29:25.27	318.37	7.29	-40.8	-42.2	19.6	0.00e+00	92	33	0	847249408	54	6566
2026-01-29 03:29:26.28	318.51	7.25	-41.0	-42.4	19.4	0.00e+00	0	33	0	848297984	54	6745
2026-01-29 03:29:27.29	318.66	7.22	-41.3	-42.9	19.1	0.00e+00	0	32	0	850395136	54	7120
2026-01-29 03:29:28.30	318.81	7.18	-41.6	-43.2	18.6	0.00e+00	56	32	0	852492288	54	7361
2026-01-29 03:29:29.31	318.95	7.15	-42.0	-43.7	18.3	0.00e+00	0	33	0	854589440	56	6946
2026-01-29 03:29:30.32	319.10	7.11	-41.9	-43.6	18.4	0.00e+00	69	32	0	856686592	56	6889
2026-01-29 03:29:31.33	319.25	7.08	-42.0	-43.7	18.3	0.00e+00	0	33	0	857735168	56	6985
2026-01-29 03:29:32.34	319.39	7.04	-41.8	-43.5	18.5	0.00e+00	75	33	0	859832320	56	6831
2026-01-29 03:29:33.35	319.54	7.00	-42.1	-43.9	18.3	0.00e+00	0	32	0	861929472	56	7145
2026-01-29 03:29:34.36	319.68	6.97	-41.9	-43.6	18.5	0.00e+00	0	33	0	864026624	56	6861
2026-01-29 03:29:35.37	319.83	6.93	-41.2	-42.8	19.1	0.00e+00	38	33	0	866123776	56	6252
2026-01-29 03:29:36.38	319.97	6.90	-41.4	-43.0	18.8	0.00e+00	0	33	0	867172352	56	6431
2026-01-29 03:29:37.39	320.11	6.86	-41.3	-42.8	19.2	0.00e+00	37	33	0	869269504	56	6297
2026-01-29 03:29:38.40	320.26	6.83	-41.1	-42.6	19.2	0.00e+00	0	33	0	871366656	56	6166
2026-01-29 03:29:39.41	320.40	6.79	-40.9	-42.3	19.6	0.00e+00	92	33	0	873463808	56	5930
2026-01-29 03:29:40.42	320.54	6.75	-41.0	-42.5	19.3	0.00e+00	0	33	0	875560960	54	6801
2026-01-29 03:29:41.42	320.68	6.72	-40.7	-42.1	19.7	0.00e+00	92	33	0	876609536	54	6501
2026-01-29 03:29:42.43	320.82	6.68	-40.7	-42.1	19.7	0.00e+00	54	33	0	878706688	54	6519
2026-01-29 03:29:43.44	320.97	6.64	-40.7	-42.1	19.6	0.00e+00	0	33	0	880803840	54	6499
2026-01-29 03:29:44.45	321.11	6.61	-41.1	-42.6	19.2	0.00e+00	54	33	0	882900992	54	6868
2026-01-29 03:29:45.46	321.25	6.57	-40.9	-42.4	19.4	0.00e+00	0	33	0	884998144	54	6760
2026-01-29 03:29:46.47	321.39	6.53	-41.2	-42.8	19.0	0.00e+00	92	33	0	886046720	54	7037
2026-01-29 03:29:47.48	321.53	6.50	-41.3	-42.9	19.0	0.00e+00	0	32	0	888143872	54	7110
2026-01-29 03:29:48.49	321.67	6.46	-41.6	-43.3	18.6	0.00e+00	92	33	0	890241024	54	7449
2026-01-29 03:29:49.50	321.81	6.42	-41.4	-43.0	18.8	0.00e+00	58	33	0	892338176	54	7171
2026-01-29 03:29:50.51	321.95	6.39	-41.8	-43.6	18.2	0.00e+00	0	33	0	894435328	56	6855
2026-01-29 03:29:51.52	322.09	6.35	-41.9	-43.6	18.4	0.00e+00	65	33	0	896532480	56	6877
2026-01-29 03:29:52.53	322.22	6.31	-41.5	-43.1	18.8	0.00e+00	0	33	0	897581056	56	6499
2026-01-29 03:29:53.54	322.36	6.27	-41.3	-42.9	18.9	0.00e+00	92	33	0	899678208	56	6355
2026-01-29 03:29:54.55	322.50	6.24	-41.4	-43.0	18.9	0.00e+00	0	33	0	901775360	56	6440
2026-01-29 03:29:55.56	322.64	6.20	-41.1	-42.6	19.3	0.00e+00	91	33	0	903872512	56	6124
2026-01-29 03:29:56.57	322.77	6.16	-41.2	-42.7	19.2	0.00e+00	17	33	0	905969664	56	6212
2026-01-29 03:29:57.58	322.91	6.12	-41.0	-42.5	19.2	0.00e+00	0	33	0	907018240	56	6084
2026-01-29 03:29:58.59	323.05	6.09	-40.9	-42.3	19.5	0.00e+00	91	33	0	909115392	56	5961
2026-01-29 03:29:59.59	323.18	6.05	-40.7	-42.1	19.6	0.00e+00	0	33	0	911212544	54	6512
2026-01-29 03:30:00.60	323.32	6.01	-40.9	-42.4	19.3	0.00e+00	92	33	0	913309696	54	6710
2026-01-29 03:30:01.61	323.45	5.97	-41.0	-42.6	19.4	0.00e+00	0	33	0	915406848	54	6849
2026-01-29 03:30:02.62	323.59	5.93	-41.2	-42.8	18.9	0.00e+00	62	33	0	916455424	54	7020
2026-01-29 03:30:03.63	323.72	5.90	-40.9	-42.4	19.3	0.00e+00	41	33	0	918552576	54	6746
2026-01-29 03:30:04.64	323.86	5.86	-40.9	-42.5	19.4	0.00e+00	0	33	0	920649728	54	6771
2026-01-29 03:30:05.65	323.99	5.82	-40.9	-42.3	19.3	0.00e+00	91	33	0	922746880	54	6674
2026-01-29 03:30:06.66	324.12	5.78	-40.9	-42.4	19.3	0.00e+00	0	33	0	924844032	54	6717
2026-01-29 03:30:07.67	324.26	5.74	-40.9	-42.4	19.2	0.00e+00	52	33	0	925892608	54	6705
2026-01-29 03:30:08.68	324.39	5.70	-40.9	-42.4	19.3	0.00e+00	0	33	0	927989760	54	6725
2026-01-29 03:30:09.69	324.52	5.66	-41.0	-42.5	19.4	0.00e+00	77	33	0	930086912	54	6807
2026-01-29 03:30:10.70	324.66	5.63	-40.5	-42.0	19.6	0.00e+00	0	33	0	932184064	54	6414
2026-01-29 03:30:11.71	324.79	5.59	-40.6	-42.1	19.6	0.00e+00	0	33	0	934281216	54	6477
2026-01-29 03:30:12.72	324.92	5.55	-40.3	-41.7	19.9	0.00e+00	92	33	0	935329792	54	6184
2026-01-29 03:30:13.73	325.05	5.51	-40.1	-41.4	20.2	0.00e+00	0	33	0	937426944	54	6000
2026-01-29 03:30:14.73	325.18	5.47	-40.1	-41.5	19.9	0.00e+00	64	33	0	939524096	54	6046
2026-01-29 03:30:15.75	325.31	5.43	-40.3	-41.7	19.8	0.00e+00	0	33	0	941621248	54	6178
2026-01-29 03:30:16.75	325.44	5.39	-40.1	-41.4	19.9	0.00e+00	93	33	0	943718400	54	6006
2026-01-29 03:30:17.76	325.57	5.35	-40.6	-42.0	19.8	0.00e+00	0	33	0	944766976	54	6403
2026-01-29 03:30:18.77	325.70	5.31	-40.6	-42.0	19.6	0.00e+00	64	33	0	946864128	54	6450
2026-01-29 03:30:19.79	325.83	5.27	-40.5	-41.9	19.6	0.00e+00	51	33	0	948961280	54	6381
2026-01-29 03:30:20.79	325.96	5.24	-40.0	-41.4	20.2	0.00e+00	0	33	0	951058432	54	5965
2026-01-29 03:30:21.80	326.09	5.20	-40.4	-41.8	19.8	0.00e+00	47	33	0	953155584	54	6290
2026-01-29 03:30:22.81	326.22	5.16	-40.5	-41.9	19.6	0.00e+00	0	33	0	954204160	54	6345
2026-01-29 03:30:23.82	326.34	5.12	-40.5	-42.0	19.7	0.00e+00	91	33	0	956301312	54	6405
2026-01-29 03:30:24.83	326.47	5.08	-40.5	-41.9	19.6	0.00e+00	0	33	0	958398464	54	6328
2026-01-29 03:30:25.84	326.60	5.04	-40.5	-42.0	19.7	0.00e+00	58	33	0	960495616	54	6411
2026-01-29 03:30:26.85	326.73	5.00	-40.5	-41.9	19.5	0.00e+00	53	33	0	962592768	54	6339
2026-01-29 03:30:27.86	326.85	4.96	-40.6	-42.0	19.3	0.00e+00	0	33	0	964689920	54	6438
2026-01-29 03:30:28.87	326.98	4.92	-40.6	-42.0	19.6	0.00e+00	92	33	0	965738496	54	6429
2026-01-29 03:30:29.88	327.10	4.88	-40.9	-42.4	19.3	0.00e+00	0	33	0	967835648	54	6702
2026-01-29 03:30:30.89	327.23	4.84	-40.9	-42.4	19.3	0.00e+00	89	33	0	969932800	54	6723
2026-01-29 03:30:31.90	327.36	4.80	-41.2	-42.8	18.7	0.00e+00	0	33	0	972029952	54	7053
2026-01-29 03:30:32.91	327.48	4.76	-40.8	-42.2	19.2	0.00e+00	65	33	0	974127104	54	6610
2026-01-29 03:30:33.92	327.61	4.72	-40.6	-42.1	19.4	0.00e+00	53	33	0	975175680	54	6510
2026-01-29 03:30:34.92	327.73	4.68	-40.6	-42.1	19.4	0.00e+00	0	33	0	977272832	54	6486
2026-01-29 03:30:35.93	327.85	4.64	-40.7	-42.2	19.2	0.00e+00	64	33	0	979369984	54	6554
2026-01-29 03:30:36.94	327.98	4.60	-40.3	-41.7	19.7	0.00e+00	0	33	0	981467136	54	6232
2026-01-29 03:30:37.95	328.10	4.56	-40.2	-41.6	20.0	0.00e+00	0	33	0	983564288	54	6157
2026-01-29 03:30:38.95	328.22	4.52	-40.2	-41.6	19.8	0.00e+00	0	33	0	984612864	54	6146
2026-01-29 03:30:39.96	328.34	4.48	-40.0	-41.4	20.0	0.00e+00	0	33	0	986710016	54	5987
2026-01-29 03:30:40.97	328.47	4.44	-39.9	-41.2	20.2	0.00e+00	0	33	0	988807168	54	5868
2026-01-29 03:30:41.98	328.59	4.40	-39.8	-41.2	20.1	0.00e+00	0	33	0	990904320	54	5838
2026-01-29 03:30:42.99	328.71	4.36	-39.5	-40.7	20.7	0.00e+00	47	33	0	993001472	52	6239
2026-01-29 03:30:44.00	328.83	4.32	-39.8	-41.1	20.3	0.00e+00	0	33	0	994050048	52	6499
2026-01-29 03:30:45.01	328.95	4.28	-40.0	-41.4	20.2	0.00e+00	90	33	0	996147200	52	6709
2026-01-29 03:30:46.02	329.07	4.24	-40.0	-41.4	20.2	0.00e+00	0	33	0	998244352	52	6701
2026-01-29 03:30:47.04	329.19	4.20	-39.8	-41.1	20.1	0.00e+00	0	33	0	1000341504	52	6495
2026-01-29 03:30:48.04	329.31	4.16	-40.2	-41.6	19.7	0.00e+00	0	33	0	1002438656	52	6907
2026-01-29 03:30:49.05	329.43	4.11	-40.0	-41.3	19.9	0.00e+00	0	33	0	1003487232	52	6674
2026-01-29 03:30:50.06	329.55	4.07	-40.2	-41.7	19.7	0.00e+00	53	33	0	1005584384	52	6928
2026-01-29 03:30:51.07	329.67	4.03	-39.5	-40.8	20.5	0.00e+00	0	33	0	1007681536	52	6271
2026-01-29 03:30:52.08	329.79	3.99	-39.2	-40.4	20.7	0.00e+00	75	33	0	1009778688	52	6030
2026-01-29 03:30:53.09	329.91	3.95	-39.5	-40.7	20.3	0.00e+00	0	33	0	1011875840	52	6227
2026-01-29 03:30:54.10	330.03	3.91	-39.1	-40.3	20.5	0.00e+00	0	33	0	1012924416	52	5960
2026-01-29 03:30:55.11	330.15	3.87	-39.6	-40.9	20.2	0.00e+00	0	33	0	1015021568	52	6325
2026-01-29 03:30:56.12	330.26	3.83	-39.4	-40.7	20.2	0.00e+00	0	33	0	1017118720	52	6204
2026-01-29 03:30:57.12	330.38	3.79	-39.5	-40.8	20.2	0.00e+00	55	33	0	1019215872	52	6265
2026-01-29 03:30:58.13	330.50	3.75	-39.3	-40.6	20.2	0.00e+00	0	33	0	1021313024	52	6127
2026-01-29 03:30:59.14	330.61	3.71	-39.6	-40.9	19.8	0.00e+00	78	33	0	1022361600	52	6386
2026-01-29 03:31:00.15	330.73	3.66	-40.0	-41.4	19.3	0.00e+00	0	33	0	1024458752	52	6755
2026-01-29 03:31:01.16	330.85	3.62	-40.0	-41.5	19.2	0.00e+00	0	33	0	1026555904	52	6821
2026-01-29 03:31:02.16	330.96	3.58	-40.3	-42.0	18.3	0.00e+00	0	33	0	1028653056	52	7172
2026-01-29 03:31:03.18	331.08	3.54	-40.6	-42.5	17.6	0.00e+00	0	33	0	1030750208	52	7614
2026-01-29 03:31:04.18	331.19	3.50	-41.3	-43.5	16.1	0.00e+00	56	33	0	1031798784	54	7666
2026-01-29 03:31:05.19	331.31	3.46	-41.9	-44.5	15.3	0.00e+00	0	33	0	1033895936	56	7642
2026-01-29 03:31:06.20	331.42	3.42	-42.2	-45.2	14.3	7.00e-07	91	33	0	1035993088	56	8254
2026-01-29 03:31:07.21	331.53	3.38	-42.6	-46.2	12.7	2.97e-05	0	33	0	1038090240	58	8245
2026-01-29 03:31:08.22	331.65	3.34	-42.8	-47.1	11.6	9.53e-05	58	33	0	1040187392	58	9180
2026-01-29 03:31:09.23	331.76	3.29	-42.9	-47.8	10.5	2.28e-03	0	33	0	1041235968	58	9911
2026-01-29 03:31:10.24	331.87	3.25	-43.4	-49.9	7.5	3.49e-02	0	33	0	1043333120	58	12678
2026-01-29 03:31:11.25	331.99	3.21	-43.4	-50.8	6.2	1.24e-01	2	33	0	1045430272	58	14123
2026-01-29 03:31:12.26	332.10	3.17	-43.5	-51.9	5.0	4.12e-01	0	33	0	1047527424	58	15978
2026-01-29 03:31:13.27	332.21	3.13	-43.6	-53.7	3.9	9.62e-01	78	33	0	1049624576	58	19596
2026-01-29 03:31:14.28	332.32	3.09	-43.6	-56.1	3.7	1.38e+00	0	33	104	1049624576	58	25847
2026-01-29 03:31:15.29	332.44	3.05	-43.6	-57.0	3.6	1.50e+00	0	33	104	1049624576	58	28858
2026-01-29 03:31:16.30	332.55	3.00	-43.6	-57.6	3.6	1.51e+00	0	33	104	1049624576	58	30777
2026-01-29 03:31:17.31	332.66	2.96	-47.5	-62.7	3.6	1.50e+00	0	33	104	1049624576	60	49469
2026-01-29 03:31:18.32	332.77	2.92	-48.0	-63.1	3.6	1.51e+00	0	33	104	1049624576	60	51939
2026-01-29 03:31:19.33	332.88	2.88	-48.2	-63.4	3.6	1.51e+00	0	33	104	1049624576	60	53462
2026-01-29 03:31:20.34	332.99	2.84	-48.4	-63.6	3.6	1.51e+00	0	33	104	1049624576	60	54464
2026-01-29 03:31:21.35	333.10	2.80	-48.5	-63.7	3.6	1.51e+00	0	33	104	1049624576	60	55530
2026-01-29 03:31:22.36	333.21	2.75	-48.6	-63.8	3.6	1.51e+00	0	33	104	1049624576	60	56256
2026-01-29 03:31:23.37	333.32	2.71	-48.7	-63.9	3.6	1.51e+00	0	33	104	1049624576	60	56426
2026-01-29 03:31:24.38	333.43	2.67	-48.8	-64.0	3.6	1.51e+00	0	33	104	1049624576	60	57081
2026-01-29 03:31:25.39	333.54	2.63	-48.8	-64.1	3.6	1.51e+00	0	33	104	1049624576	60	57689
2026-01-29 03:31:26.40	333.65	2.59	-48.8	-64.0	3.6	1.51e+00	0	33	104	1049624576	60	57490
2026-01-29 03:31:27.41	333.75	2.55	-48.9	-64.1	3.6	1.51e+00	0	33	104	1049624576	60	57809
2026-01-29 03:31:28.42	333.86	2.50	-48.9	-64.0	3.6	1.51e+00	0	33	104	1049624576	60	57583
2026-01-29 03:31:29.43	333.97	2.46	-48.9	-64.0	3.6	1.51e+00	0	33	104	1049624576	60	57525
2026-01-29 03:31:30.43	334.08	2.42	-48.9	-64.1	3.6	1.51e+00	0	33	104	1049624576	60	57967
2026-01-29 03:31:31.44	334.18	2.38	-48.9	-64.1	3.6	1.51e+00	0	33	104	1049624576	60	57918
2026-01-29 03:31:32.45	334.29	2.34	-48.8	-64.0	3.6	1.51e+00	0	33	104	1049624576	60	57191
2026-01-29 03:31:33.46	334.40	2.30	-48.8	-63.9	3.6	1.51e+00	0	33	104	1049624576	60	56849
2026-01-29 03:31:34.47	334.50	2.25	-48.7	-63.9	3.6	1.51e+00	0	33	104	1049624576	60	56884
2026-01-29 03:31:35.49	334.61	2.21	-48.7	-63.9	3.6	1.51e+00	0	33	104	1049624576	60	56682
2026-01-29 03:31:36.50	334.71	2.17	-48.7	-64.0	3.6	1.51e+00	0	33	104	1049624576	60	57400
2026-01-29 03:31:37.51	334.82	2.13	-48.7	-64.0	3.6	1.51e+00	0	33	104	1049624576	60	57077
2026-01-29 03:31:38.52	334.93	2.09	-48.7	-63.9	3.6	1.51e+00	0	33	104	1049624576	60	56786
2026-01-29 03:31:39.53	335.03	2.04	-48.7	-63.9	3.6	1.51e+00	0	33	104	1049624576	60	56619
2026-01-29 03:31:40.54	335.13	2.00	-48.7	-63.9	3.6	1.51e+00	0	33	104	1049624576	60	56856
2026-01-29 03:31:41.55	335.24	1.96	-48.7	-63.9	3.6	1.51e+00	0	33	104	1049624576	60	56932
2026-01-29 03:31:42.56	335.34	1.92	-48.7	-63.9	3.6	1.51e+00	0	33	104	1049624576	60	56782
2026-01-29 03:31:43.57	335.45	1.88	-48.7	-63.9	3.6	1.51e+00	0	33	104	1049624576	60	56733
2026-01-29 03:31:44.58	335.55	1.83	-48.7	-64.0	3.6	1.51e+00	0	33	104	1049624576	60	57073
2026-01-29 03:31:45.59	335.65	1.79	-48.7	-64.0	3.6	1.51e+00	0	33	104	1049624576	60	56982
2026-01-29 03:31:46.60	335.76	1.75	-48.7	-63.9	3.6	1.51e+00	0	33	104	1049624576	60	56723
2026-01-29 03:31:47.61	335.86	1.71	-48.7	-63.9	3.6	1.51e+00	0	33	104	1049624576	60	56469
2026-01-29 03:31:48.62	335.96	1.67	-48.7	-63.9	3.6	1.51e+00	0	33	104	1049624576	60	56570
2026-01-29 03:31:49.63	336.06	1.63	-48.7	-63.9	3.6	1.51e+00	0	33	104	1049624576	60	56639
2026-01-29 03:31:50.64	336.16	1.58	-48.7	-63.9	3.6	1.51e+00	0	33	104	1049624576	60	56515
2026-01-29 03:31:51.65	336.27	1.54	-48.7	-63.9	3.6	1.51e+00	0	33	104	1049624576	60	56376
2026-01-29 03:31:52.66	336.37	1.50	-48.7	-63.9	3.6	1.51e+00	0	33	104	1049624576	60	56566
2026-01-29 03:31:53.67	336.47	1.46	-48.7	-63.9	3.6	1.51e+00	0	33	104	1049624576	60	56747
2026-01-29 03:31:54.68	336.57	1.41	-48.7	-63.9	3.6	1.51e+00	0	33	104	1049624576	60	56650
2026-01-29 03:31:55.69	336.67	1.37	-48.7	-64.0	3.6	1.51e+00	0	33	104	1049624576	60	57228
2026-01-29 03:31:56.70	336.77	1.33	-48.7	-63.9	3.6	1.51e+00	0	33	104	1049624576	60	56902
2026-01-29 03:31:57.71	336.87	1.29	-48.7	-63.9	3.6	1.51e+00	0	33	104	1049624576	60	56954
2026-01-29 03:31:58.72	336.97	1.25	-48.8	-64.0	3.6	1.51e+00	0	33	104	1049624576	60	57264
2026-01-29 03:31:59.73	337.07	1.20	-48.7	-64.0	3.6	1.51e+00	0	33	104	1049624576	60	57257
2026-01-29 03:32:00.74	337.17	1.16	-48.7	-64.0	3.6	1.51e+00	0	33	104	1049624576	60	57083
2026-01-29 03:32:01.75	337.26	1.12	-48.7	-63.9	3.6	1.51e+00	0	33	104	1049624576	60	56766
2026-01-29 03:32:02.76	337.36	1.08	-48.7	-64.0	3.6	1.51e+00	0	33	104	1049624576	60	57036
2026-01-29 03:32:03.77	337.46	1.04	-48.7	-64.0	3.5	1.51e+00	0	33	104	1049624576	60	57046
2026-01-29 03:32:04.78	337.56	0.99	-48.7	-63.9	3.6	1.51e+00	0	33	104	1049624576	60	56680
2026-01-29 03:32:05.79	337.66	0.95	-48.7	-63.9	3.5	1.51e+00	0	33	104	1049624576	60	56410
2026-01-29 03:32:06.80	337.75	0.91	-48.7	-63.9	3.6	1.51e+00	0	33	104	1049624576	60	56859
2026-01-29 03:32:07.81	337.85	0.87	-48.7	-64.0	3.6	1.51e+00	0	33	104	1049624576	60	56985
2026-01-29 03:32:08.82	337.95	0.83	-48.7	-63.9	3.6	1.51e+00	0	33	104	1049624576	60	56747
2026-01-29 03:32:09.83	338.04	0.78	-48.7	-63.9	3.6	1.51e+00	0	33	104	1049624576	60	56880
2026-01-29 03:32:10.84	338.14	0.74	-48.8	-64.0	3.6	1.51e+00	0	33	104	1049624576	60	57046
2026-01-29 03:32:11.85	338.24	0.70	-48.7	-64.0	3.6	1.51e+00	0	33	104	1049624576	60	56963
2026-01-29 03:32:12.86	338.33	0.66	-48.7	-63.9	3.6	1.51e+00	0	33	104	1049624576	60	56737
2026-01-29 03:32:13.87	338.43	0.62	-48.7	-63.9	3.6	1.51e+00	0	33	104	1049624576	60	56849
2026-01-29 03:32:14.88	338.52	0.57	-48.7	-63.9	3.6	1.51e+00	0	33	104	1049624576	60	56910
