passes_logs/2026/01/29/R4.6S_Anadyr/R4.6S_Anadyr__20260129_021452_KOSAR1-5_rec.log

#Pass ID: 20260129_021452_KOSAR1-5
#Satellite: KOSAR1-5
#Configuration: KOSAR1-5
#almurnet v.1.7.20251203
#Start time: 2026-01-29 02:14:56

#Version: 2.2.20231116
#Station: R4.6S_Anadyr
#Location: 177.4865 lon 64.73178 lat
#TLE: 1 67264U 25313S   26027.76143924  .00010916  00000+0  50329-3 0  9990
#TLE: 2 67264  97.4176 104.7207 0016474 138.6036 221.6451 15.20309833  4594

#Time	Az	El	Level	Level2	SNR	BER	BlckErr	Temp	State	Recorded	gain1	gain2
2026-01-29 02:14:56.21	18.02	0.19	-49.1	-50.6	5.7	0.00e+00	0	29	0	0	60	41567
2026-01-29 02:14:57.18	17.92	0.24	-45.6	-60.4	3.6	1.51e+00	0	31	104	0	60	42261
2026-01-29 02:14:58.16	17.82	0.29	-45.7	-60.4	3.6	1.51e+00	0	30	104	0	60	42419
2026-01-29 02:14:59.14	17.72	0.34	-45.7	-60.4	3.6	1.51e+00	0	31	104	0	60	42481
2026-01-29 02:15:00.12	17.62	0.39	-45.7	-60.5	3.6	1.51e+00	0	31	104	0	60	43119
2026-01-29 02:15:01.10	17.52	0.44	-45.7	-60.5	3.6	1.51e+00	0	31	104	0	60	43061
2026-01-29 02:15:02.08	17.42	0.49	-45.8	-60.6	3.6	1.51e+00	0	31	104	0	60	43395
2026-01-29 02:15:03.06	17.31	0.54	-45.9	-60.6	3.6	1.51e+00	0	31	104	0	60	43436
2026-01-29 02:15:04.04	17.21	0.59	-45.8	-60.6	3.6	1.51e+00	0	31	104	0	60	43250
2026-01-29 02:15:05.01	17.11	0.64	-45.5	-60.6	3.6	1.51e+00	0	31	104	0	60	43275
2026-01-29 02:15:05.99	17.00	0.69	-45.7	-60.5	3.6	1.51e+00	0	31	104	0	60	42966
2026-01-29 02:15:06.97	16.90	0.75	-45.8	-60.5	3.6	1.51e+00	0	31	104	0	60	43016
2026-01-29 02:15:07.95	16.79	0.80	-45.7	-60.5	3.6	1.51e+00	0	31	104	0	60	42997
2026-01-29 02:15:08.92	16.69	0.85	-46.0	-60.7	3.6	1.51e+00	0	31	104	0	60	43817
2026-01-29 02:15:09.90	16.58	0.90	-45.5	-60.4	3.6	1.51e+00	0	31	104	0	60	42432
2026-01-29 02:15:10.88	16.48	0.95	-45.4	-60.3	3.6	1.51e+00	0	31	104	0	60	42087
2026-01-29 02:15:11.86	16.37	1.00	-45.1	-60.1	3.6	1.51e+00	0	31	104	0	60	41171
2026-01-29 02:15:12.84	16.26	1.05	-45.2	-59.9	3.6	1.51e+00	0	31	104	0	60	40063
2026-01-29 02:15:13.81	16.16	1.10	-44.8	-59.7	3.6	1.51e+00	0	31	104	0	60	39056
2026-01-29 02:15:14.78	16.05	1.15	-44.7	-59.4	3.6	1.51e+00	0	31	104	0	60	37992
2026-01-29 02:15:15.75	15.94	1.20	-44.5	-59.2	3.6	1.51e+00	0	31	104	0	60	36917
2026-01-29 02:15:16.73	15.83	1.25	-44.3	-59.0	3.6	1.51e+00	0	31	104	0	60	36087
2026-01-29 02:15:17.70	15.72	1.30	-44.3	-59.0	3.6	1.51e+00	0	31	104	0	60	36117
2026-01-29 02:15:18.67	15.61	1.36	-44.3	-59.0	3.6	1.51e+00	0	31	104	0	60	36035
2026-01-29 02:15:19.65	15.50	1.41	-44.3	-59.0	3.6	1.51e+00	0	31	104	0	60	36131
2026-01-29 02:15:20.63	15.39	1.46	-44.3	-59.0	3.6	1.51e+00	0	31	104	0	60	36133
2026-01-29 02:15:21.61	15.28	1.51	-44.3	-59.0	3.6	1.51e+00	0	31	104	0	60	36065
2026-01-29 02:15:22.59	15.17	1.56	-44.3	-59.0	3.6	1.51e+00	0	31	104	0	60	36219
2026-01-29 02:15:23.56	15.05	1.61	-44.3	-59.0	3.6	1.51e+00	0	31	104	0	60	36186
2026-01-29 02:15:24.54	14.94	1.66	-44.3	-59.0	3.6	1.51e+00	0	31	104	0	60	36178
2026-01-29 02:15:25.51	14.83	1.71	-44.3	-59.0	3.6	1.51e+00	0	31	104	0	60	36342
2026-01-29 02:15:26.49	14.71	1.77	-44.3	-59.0	3.6	1.51e+00	0	31	104	0	60	36202
2026-01-29 02:15:27.46	14.60	1.82	-44.3	-59.0	3.6	1.51e+00	0	31	104	0	60	36127
2026-01-29 02:15:28.43	14.49	1.87	-44.3	-59.0	3.5	1.51e+00	0	31	104	0	60	36102
2026-01-29 02:15:29.41	14.37	1.92	-44.3	-59.0	3.6	1.51e+00	0	31	104	0	60	36022
2026-01-29 02:15:30.39	14.25	1.97	-44.3	-59.0	3.6	1.51e+00	0	31	104	0	60	36128
2026-01-29 02:15:31.37	14.14	2.02	-44.3	-59.0	3.6	1.51e+00	0	31	104	0	60	36163
2026-01-29 02:15:32.35	14.02	2.08	-44.2	-59.0	3.6	1.51e+00	0	31	104	0	60	36111
2026-01-29 02:15:33.33	13.90	2.13	-44.3	-59.0	3.6	1.51e+00	0	31	104	0	60	36010
2026-01-29 02:15:34.30	13.78	2.18	-44.3	-59.0	3.6	1.51e+00	0	31	104	0	60	36008
2026-01-29 02:15:35.28	13.66	2.23	-44.3	-59.0	3.6	1.51e+00	0	31	104	0	60	36125
2026-01-29 02:15:36.25	13.54	2.28	-44.3	-59.0	3.6	1.51e+00	0	31	104	0	60	36069
2026-01-29 02:15:37.23	13.42	2.33	-44.3	-58.9	3.6	1.51e+00	0	31	104	0	60	35913
2026-01-29 02:15:38.21	13.30	2.39	-44.3	-58.9	3.6	1.51e+00	0	31	104	0	60	35937
2026-01-29 02:15:39.19	13.18	2.44	-44.3	-59.0	3.6	1.51e+00	0	31	104	0	60	36028
2026-01-29 02:15:40.16	13.06	2.49	-44.2	-59.0	3.6	1.51e+00	0	31	104	0	60	35997
2026-01-29 02:15:41.14	12.94	2.54	-44.3	-59.0	3.6	1.51e+00	0	31	104	0	60	36209
2026-01-29 02:15:42.12	12.81	2.59	-44.3	-59.0	3.6	1.51e+00	0	31	104	0	60	36147
2026-01-29 02:15:43.09	12.69	2.64	-44.2	-59.0	3.6	1.51e+00	0	31	104	0	60	36200
2026-01-29 02:15:44.07	12.57	2.70	-44.2	-59.0	3.6	1.51e+00	0	31	104	0	60	35970
2026-01-29 02:15:45.04	12.44	2.75	-44.2	-58.9	3.6	1.51e+00	0	31	104	0	60	35898
2026-01-29 02:15:46.03	12.31	2.80	-44.2	-58.9	3.6	1.51e+00	0	31	104	0	60	35842
2026-01-29 02:15:47.00	12.19	2.85	-44.2	-58.9	3.6	1.51e+00	0	31	104	0	60	35773
2026-01-29 02:15:47.98	12.06	2.91	-44.2	-58.9	3.6	1.51e+00	0	31	104	0	60	35771
2026-01-29 02:15:48.95	11.94	2.96	-44.2	-59.0	3.6	1.51e+00	0	31	104	0	60	35989
2026-01-29 02:15:49.93	11.81	3.01	-44.2	-59.0	3.6	1.51e+00	0	31	104	0	60	36025
2026-01-29 02:15:50.90	11.68	3.06	-44.2	-58.9	3.6	1.51e+00	0	31	104	0	60	35931
2026-01-29 02:15:51.88	11.55	3.11	-44.3	-58.9	3.6	1.51e+00	0	31	104	0	60	35689
2026-01-29 02:15:52.86	11.42	3.17	-44.4	-59.2	3.6	1.51e+00	0	31	104	0	60	36837
2026-01-29 02:15:53.84	11.29	3.22	-44.1	-58.9	3.6	1.51e+00	0	31	104	0	60	35539
2026-01-29 02:15:54.82	11.16	3.27	-44.3	-59.0	3.6	1.51e+00	0	31	104	0	60	36156
2026-01-29 02:15:55.80	11.03	3.32	-44.4	-59.1	3.6	1.51e+00	0	31	104	0	60	36639
2026-01-29 02:15:56.78	10.90	3.38	-44.5	-59.3	3.6	1.51e+00	0	31	104	0	60	37358
2026-01-29 02:15:57.76	10.76	3.43	-44.4	-59.1	3.6	1.51e+00	0	31	104	0	60	36373
2026-01-29 02:15:58.74	10.63	3.48	-44.4	-59.1	3.6	1.51e+00	0	31	104	0	60	36430
2026-01-29 02:15:59.71	10.50	3.53	-44.4	-59.1	3.6	1.51e+00	0	31	104	0	60	36697
2026-01-29 02:16:00.69	10.36	3.58	-44.5	-59.2	3.6	1.51e+00	0	31	104	0	60	37175
2026-01-29 02:16:01.67	10.23	3.64	-44.5	-59.2	3.6	1.51e+00	0	31	104	0	60	37050
2026-01-29 02:16:02.65	10.09	3.69	-44.4	-59.2	3.6	1.51e+00	0	31	104	0	60	36941
2026-01-29 02:16:03.63	9.95	3.74	-44.3	-59.3	3.6	1.51e+00	0	31	104	0	60	37230
2026-01-29 02:16:04.61	9.81	3.79	-44.6	-59.4	3.6	1.51e+00	0	31	104	0	60	37650
2026-01-29 02:16:05.58	9.68	3.85	-44.6	-59.3	3.6	1.51e+00	0	31	104	0	60	37342
2026-01-29 02:16:06.56	9.54	3.90	-44.5	-59.2	3.5	1.51e+00	0	31	104	0	60	37182
2026-01-29 02:16:07.54	9.40	3.95	-44.6	-59.3	3.6	1.51e+00	0	31	104	0	60	37369
2026-01-29 02:16:08.52	9.26	4.00	-44.6	-59.4	3.6	1.51e+00	0	31	104	0	60	37921
2026-01-29 02:16:09.50	9.12	4.06	-44.7	-59.4	3.6	1.51e+00	0	31	104	0	60	37731
2026-01-29 02:16:10.48	8.98	4.11	-44.7	-59.4	3.6	1.51e+00	0	31	104	0	60	37734
2026-01-29 02:16:11.45	8.84	4.16	-44.6	-59.3	3.6	1.51e+00	0	31	104	0	60	37601
2026-01-29 02:16:12.43	8.69	4.21	-44.7	-59.4	3.6	1.51e+00	0	31	104	0	60	37765
2026-01-29 02:16:13.40	8.55	4.27	-44.8	-59.5	3.6	1.51e+00	0	31	104	0	60	38217
2026-01-29 02:16:14.38	8.41	4.32	-44.6	-59.4	3.6	1.51e+00	0	31	104	0	60	37724
2026-01-29 02:16:15.36	8.26	4.37	-44.5	-59.3	3.6	1.51e+00	0	31	104	0	60	37614
2026-01-29 02:16:16.33	8.12	4.42	-44.7	-59.4	3.6	1.51e+00	0	31	104	0	60	37764
2026-01-29 02:16:17.31	7.97	4.47	-44.7	-59.5	3.6	1.51e+00	0	31	104	0	60	38186
2026-01-29 02:16:18.29	7.83	4.53	-44.7	-59.4	3.6	1.51e+00	0	31	104	0	60	37903
2026-01-29 02:16:19.26	7.68	4.58	-44.6	-59.4	3.6	1.51e+00	0	31	104	0	60	37668
2026-01-29 02:16:20.24	7.53	4.63	-44.7	-59.4	3.6	1.51e+00	0	31	104	0	60	37890
2026-01-29 02:16:21.22	7.38	4.68	-44.8	-59.5	3.6	1.51e+00	0	31	104	0	60	38300
2026-01-29 02:16:22.20	7.23	4.74	-44.8	-59.4	3.6	1.51e+00	0	31	104	0	60	37990
2026-01-29 02:16:23.17	7.08	4.79	-44.7	-59.4	3.6	1.51e+00	0	31	104	0	60	37666
2026-01-29 02:16:24.14	6.94	4.84	-44.7	-59.5	3.6	1.51e+00	0	31	104	0	60	38187
2026-01-29 02:16:25.12	6.78	4.89	-44.8	-59.5	3.6	1.51e+00	0	31	104	0	60	38421
2026-01-29 02:16:26.10	6.63	4.95	-44.8	-59.5	3.6	1.51e+00	0	31	104	0	60	38141
2026-01-29 02:16:27.08	6.48	5.00	-44.5	-59.4	3.6	1.51e+00	0	31	104	0	60	37834
2026-01-29 02:16:28.06	6.32	5.05	-44.7	-59.5	3.6	1.51e+00	0	32	104	0	60	38447
2026-01-29 02:16:29.04	6.17	5.10	-44.8	-59.6	3.5	1.51e+00	0	31	104	0	60	38604
2026-01-29 02:16:30.02	6.01	5.16	-44.8	-59.5	3.6	1.51e+00	0	31	104	0	60	38203
2026-01-29 02:16:30.99	5.86	5.21	-44.7	-59.4	3.6	1.51e+00	0	31	104	0	60	38021
2026-01-29 02:16:31.97	5.70	5.26	-44.6	-59.5	3.5	1.51e+00	0	32	104	0	60	38384
2026-01-29 02:16:32.94	5.55	5.31	-44.9	-59.6	3.6	1.51e+00	0	31	104	0	60	38909
2026-01-29 02:16:33.92	5.39	5.36	-44.8	-59.5	3.6	1.51e+00	0	31	104	0	60	38381
2026-01-29 02:16:34.89	5.23	5.41	-44.8	-59.5	3.6	1.51e+00	0	31	104	0	60	38116
2026-01-29 02:16:35.87	5.07	5.47	-44.8	-59.5	3.6	1.51e+00	0	31	104	0	60	38420
2026-01-29 02:16:36.85	4.91	5.52	-45.0	-59.6	3.6	1.51e+00	0	31	104	0	60	38823
2026-01-29 02:16:37.83	4.75	5.57	-44.9	-59.5	3.6	1.51e+00	0	31	104	0	60	38413
2026-01-29 02:16:38.81	4.59	5.62	-44.9	-59.6	3.6	1.51e+00	0	31	104	0	60	38527
2026-01-29 02:16:39.79	4.42	5.68	-44.9	-59.6	3.6	1.51e+00	0	31	104	0	60	38784
2026-01-29 02:16:40.77	4.26	5.73	-44.9	-59.7	3.6	1.51e+00	0	32	104	0	60	39023
2026-01-29 02:16:41.75	4.10	5.78	-44.9	-59.6	3.6	1.51e+00	0	31	104	0	60	38794
2026-01-29 02:16:42.73	3.93	5.83	-45.0	-59.6	3.6	1.51e+00	0	31	104	0	60	38954
2026-01-29 02:16:43.71	3.77	5.88	-44.9	-59.6	3.6	1.51e+00	0	31	104	0	60	38952
2026-01-29 02:16:44.68	3.60	5.93	-45.0	-59.7	3.6	1.51e+00	0	31	104	0	60	39027
2026-01-29 02:16:45.66	3.43	5.99	-45.0	-59.6	3.6	1.51e+00	0	31	104	0	60	38852
2026-01-29 02:16:46.63	3.27	6.04	-45.0	-59.7	3.6	1.51e+00	0	32	104	0	60	39170
2026-01-29 02:16:47.61	3.10	6.09	-45.0	-59.7	3.6	1.51e+00	0	32	104	0	60	39038
2026-01-29 02:16:48.59	2.93	6.14	-44.9	-59.7	3.6	1.51e+00	0	32	104	0	60	39258
2026-01-29 02:16:49.56	2.76	6.19	-44.8	-59.7	3.6	1.51e+00	0	32	104	0	60	39028
2026-01-29 02:16:50.53	2.59	6.24	-44.9	-59.7	3.6	1.51e+00	0	32	104	0	60	39174
2026-01-29 02:16:51.51	2.42	6.29	-44.7	-59.7	3.6	1.51e+00	0	32	104	0	60	39100
2026-01-29 02:16:52.49	2.25	6.34	-44.9	-59.7	3.6	1.51e+00	0	32	104	0	60	39207
2026-01-29 02:16:53.48	2.07	6.40	-44.9	-59.7	3.6	1.51e+00	0	32	104	0	60	39225
2026-01-29 02:16:54.46	1.90	6.45	-45.0	-59.7	3.6	1.51e+00	0	32	104	0	60	39161
2026-01-29 02:16:55.43	1.72	6.50	-45.0	-59.7	3.6	1.51e+00	0	32	104	0	60	39134
2026-01-29 02:16:56.40	1.55	6.55	-45.0	-59.7	3.6	1.51e+00	0	32	104	0	60	39047
2026-01-29 02:16:57.37	1.38	6.60	-45.0	-59.7	3.6	1.51e+00	0	32	104	0	60	39158
2026-01-29 02:16:58.35	1.20	6.65	-44.9	-59.6	3.6	1.51e+00	0	32	104	0	60	38802
2026-01-29 02:16:59.33	1.02	6.70	-44.9	-59.7	3.6	1.51e+00	0	32	104	0	60	39005
2026-01-29 02:17:00.30	0.84	6.75	-45.0	-59.7	3.6	1.51e+00	0	32	104	0	60	39131
2026-01-29 02:17:01.28	0.66	6.80	-45.1	-59.7	3.6	1.51e+00	0	32	104	0	60	39371
2026-01-29 02:17:02.26	0.48	6.85	-44.9	-59.6	3.6	1.51e+00	0	32	104	0	60	38857
2026-01-29 02:17:03.24	0.30	6.90	-45.0	-59.7	3.6	1.51e+00	0	32	104	0	60	39349
2026-01-29 02:17:04.22	0.12	6.95	-44.9	-59.7	3.6	1.51e+00	0	32	104	0	60	39194
2026-01-29 02:17:05.20	359.93	7.00	-45.1	-59.8	3.6	1.51e+00	0	32	104	0	60	39447
2026-01-29 02:17:06.17	359.75	7.05	-44.9	-59.6	3.6	1.51e+00	0	32	104	0	60	38871
2026-01-29 02:17:07.15	359.57	7.10	-45.0	-59.7	3.6	1.51e+00	0	32	104	0	60	39281
2026-01-29 02:17:08.13	359.38	7.15	-45.0	-59.7	3.6	1.51e+00	0	32	104	0	60	39188
2026-01-29 02:17:09.11	359.20	7.20	-45.1	-59.8	3.6	1.51e+00	0	32	104	0	60	39791
2026-01-29 02:17:10.09	359.01	7.25	-44.9	-59.6	3.6	1.51e+00	0	32	104	0	60	38802
2026-01-29 02:17:11.07	358.82	7.30	-45.2	-59.9	3.6	1.51e+00	0	32	104	0	60	40072
2026-01-29 02:17:12.05	358.63	7.35	-45.1	-59.8	3.6	1.51e+00	0	32	104	0	60	39689
2026-01-29 02:17:13.03	358.44	7.40	-45.3	-60.0	3.6	1.51e+00	0	32	104	0	60	40514
2026-01-29 02:17:14.01	358.25	7.45	-45.0	-59.8	3.6	1.51e+00	0	32	104	0	60	39701
2026-01-29 02:17:14.99	358.06	7.50	-45.1	-60.0	3.6	1.51e+00	0	32	104	0	60	40537
2026-01-29 02:17:15.97	357.87	7.55	-45.4	-60.1	3.6	1.51e+00	0	32	104	0	60	41164
2026-01-29 02:17:16.94	357.68	7.60	-44.9	-60.0	3.5	1.51e+00	0	32	104	0	60	40368
2026-01-29 02:17:17.92	357.48	7.65	-44.7	-59.7	3.6	1.51e+00	0	32	104	0	60	39169
2026-01-29 02:17:18.90	357.29	7.69	-45.1	-59.9	3.6	1.51e+00	0	32	104	0	60	39879
2026-01-29 02:17:19.88	357.09	7.74	-45.0	-59.8	3.6	1.51e+00	0	32	104	0	60	39515
2026-01-29 02:17:20.86	356.90	7.79	-45.1	-59.9	3.6	1.51e+00	0	32	104	0	60	39939
2026-01-29 02:17:21.83	356.70	7.84	-45.0	-59.7	3.6	1.51e+00	0	32	104	0	60	39120
2026-01-29 02:17:22.81	356.50	7.89	-45.0	-59.8	3.6	1.51e+00	0	32	104	0	60	39708
2026-01-29 02:17:23.79	356.31	7.93	-45.0	-59.8	3.6	1.51e+00	0	32	104	0	60	39558
2026-01-29 02:17:24.76	356.11	7.98	-45.2	-59.8	3.6	1.51e+00	0	32	104	0	60	39747
2026-01-29 02:17:25.75	355.91	8.03	-45.1	-59.7	3.6	1.51e+00	0	32	104	0	60	39394
2026-01-29 02:17:26.72	355.71	8.08	-45.1	-59.8	3.6	1.51e+00	0	32	104	0	60	39601
2026-01-29 02:17:27.70	355.50	8.12	-45.0	-59.8	3.6	1.51e+00	0	32	104	0	60	39737
2026-01-29 02:17:28.67	355.30	8.17	-45.1	-59.9	3.6	1.51e+00	0	32	104	0	60	39903
2026-01-29 02:17:29.65	355.10	8.22	-45.1	-59.8	3.6	1.51e+00	0	32	104	0	60	39681
2026-01-29 02:17:30.63	354.90	8.27	-45.0	-59.8	3.6	1.51e+00	0	32	104	0	60	39528
2026-01-29 02:17:31.61	354.69	8.31	-45.1	-59.8	3.6	1.51e+00	0	32	104	0	60	39742
2026-01-29 02:17:32.59	354.48	8.36	-45.1	-59.9	3.6	1.51e+00	0	32	104	0	60	39979
2026-01-29 02:17:33.56	354.28	8.40	-45.2	-59.9	3.6	1.51e+00	0	32	104	0	60	39985
2026-01-29 02:17:34.54	354.07	8.45	-45.2	-59.9	3.6	1.51e+00	0	32	104	0	60	40191
2026-01-29 02:17:35.52	353.86	8.50	-45.4	-60.1	3.6	1.51e+00	0	32	104	0	60	40959
2026-01-29 02:17:36.50	353.65	8.54	-45.4	-60.1	3.6	1.51e+00	0	32	104	0	60	41098
2026-01-29 02:17:37.48	353.44	8.59	-45.4	-60.1	3.6	1.51e+00	0	32	104	0	60	40910
2026-01-29 02:17:38.45	353.23	8.63	-45.8	-60.5	3.6	1.51e+00	0	32	104	0	60	43102
2026-01-29 02:17:39.44	353.02	8.68	-45.6	-60.2	3.6	1.51e+00	0	32	104	0	60	41664
2026-01-29 02:17:40.41	352.81	8.72	-45.3	-60.0	3.6	1.51e+00	0	32	104	0	60	40662
2026-01-29 02:17:41.39	352.59	8.77	-45.4	-60.1	3.6	1.51e+00	0	32	104	0	60	41103
2026-01-29 02:17:42.36	352.38	8.81	-45.3	-60.0	3.6	1.51e+00	0	32	104	0	60	40675
2026-01-29 02:17:43.34	352.17	8.85	-45.3	-60.1	3.6	1.51e+00	0	32	104	0	60	41107
2026-01-29 02:17:44.31	351.95	8.90	-45.3	-60.1	3.6	1.51e+00	0	32	104	0	60	40817
2026-01-29 02:17:45.29	351.73	8.94	-45.3	-60.0	3.6	1.51e+00	0	32	104	0	60	40761
2026-01-29 02:17:46.27	351.52	8.99	-45.3	-60.0	3.6	1.51e+00	0	32	104	0	60	40509
2026-01-29 02:17:47.25	351.30	9.03	-45.1	-59.9	3.6	1.51e+00	0	32	104	0	60	40319
2026-01-29 02:17:48.22	351.08	9.07	-45.3	-59.9	3.6	1.51e+00	0	32	104	0	60	40279
2026-01-29 02:17:49.20	350.86	9.11	-45.2	-60.0	3.6	1.51e+00	0	32	104	0	60	40411
2026-01-29 02:17:50.18	350.64	9.16	-45.2	-60.0	3.6	1.51e+00	0	32	104	0	60	40355
2026-01-29 02:17:51.16	350.42	9.20	-45.2	-59.9	3.6	1.51e+00	0	32	104	0	60	39931
2026-01-29 02:17:52.13	350.20	9.24	-45.2	-59.9	3.6	1.51e+00	0	32	104	0	60	40233
2026-01-29 02:17:53.11	349.97	9.28	-45.3	-60.0	3.6	1.51e+00	0	32	104	0	60	40595
2026-01-29 02:17:54.09	349.75	9.33	-45.2	-59.9	3.6	1.51e+00	0	32	104	0	60	40287
2026-01-29 02:17:55.07	349.52	9.37	-45.2	-59.9	3.6	1.51e+00	0	32	104	0	60	40046
2026-01-29 02:17:56.05	349.30	9.41	-45.3	-60.0	3.6	1.51e+00	0	32	104	0	60	40523
2026-01-29 02:17:57.02	349.07	9.45	-45.3	-60.0	3.6	1.51e+00	0	32	104	0	60	40345
2026-01-29 02:17:58.00	348.84	9.49	-45.3	-60.0	3.6	1.51e+00	0	32	104	0	60	40354
2026-01-29 02:17:58.97	348.62	9.53	-45.1	-59.9	3.6	1.51e+00	0	32	104	0	60	40054
2026-01-29 02:17:59.95	348.39	9.57	-45.3	-59.9	3.6	1.51e+00	0	32	104	0	60	40232
2026-01-29 02:18:00.92	348.16	9.61	-45.1	-59.9	3.6	1.51e+00	0	32	104	0	60	40173
2026-01-29 02:18:01.89	347.93	9.65	-45.3	-60.1	3.6	1.51e+00	0	32	104	0	60	41013
2026-01-29 02:18:02.87	347.70	9.69	-45.2	-59.9	3.6	1.51e+00	0	32	104	0	60	40016
2026-01-29 02:18:03.85	347.47	9.73	-45.2	-60.0	3.6	1.51e+00	0	32	104	0	60	40528
2026-01-29 02:18:04.82	347.24	9.76	-45.0	-59.9	3.6	1.51e+00	0	32	104	0	60	40193
2026-01-29 02:18:05.80	347.00	9.80	-45.4	-60.1	3.6	1.51e+00	0	32	104	0	60	40975
2026-01-29 02:18:06.78	346.77	9.84	-45.2	-59.9	3.6	1.51e+00	0	32	104	0	60	40155
2026-01-29 02:18:07.76	346.53	9.88	-45.2	-60.0	3.6	1.51e+00	0	32	104	0	60	40367
2026-01-29 02:18:08.74	346.30	9.91	-45.1	-60.0	3.5	1.51e+00	0	32	104	0	60	40333
2026-01-29 02:18:09.72	346.06	9.95	-45.3	-60.0	3.6	1.51e+00	0	32	104	0	60	40608
2026-01-29 02:18:10.70	345.82	9.99	-45.2	-60.0	3.6	1.51e+00	0	32	104	0	60	40457
2026-01-29 02:18:11.67	345.59	10.02	-45.3	-60.0	3.6	1.51e+00	0	32	104	0	60	40515
2026-01-29 02:18:12.64	345.35	10.06	-45.2	-59.9	3.6	1.51e+00	0	32	104	0	60	40095
2026-01-29 02:18:13.62	345.11	10.10	-45.3	-60.0	3.6	1.51e+00	0	32	104	0	60	40647
2026-01-29 02:18:14.59	344.87	10.13	-45.3	-60.0	3.6	1.51e+00	0	32	104	0	60	40584
2026-01-29 02:18:15.57	344.63	10.17	-45.3	-60.1	3.6	1.51e+00	0	32	104	0	60	40816
2026-01-29 02:18:16.55	344.39	10.20	-45.2	-60.0	3.6	1.51e+00	0	32	104	0	60	40458
2026-01-29 02:18:17.52	344.15	10.23	-45.4	-60.1	3.6	1.51e+00	0	32	104	0	60	41072
2026-01-29 02:18:18.50	343.90	10.27	-45.3	-60.1	3.6	1.51e+00	0	32	104	0	60	40874
2026-01-29 02:18:19.47	343.66	10.30	-45.3	-60.1	3.6	1.51e+00	0	32	104	0	60	40943
2026-01-29 02:18:20.45	343.42	10.33	-45.3	-60.0	3.6	1.51e+00	0	32	104	0	60	40759
2026-01-29 02:18:21.43	343.17	10.37	-45.4	-60.1	3.6	1.51e+00	0	32	104	0	60	41176
2026-01-29 02:18:22.40	342.93	10.40	-45.5	-60.2	3.6	1.51e+00	0	32	104	0	60	41512
2026-01-29 02:18:23.38	342.68	10.43	-45.4	-60.2	3.6	1.51e+00	0	32	104	0	60	41320
2026-01-29 02:18:24.36	342.43	10.46	-45.3	-60.1	3.6	1.51e+00	0	32	104	0	60	40828
2026-01-29 02:18:25.33	342.19	10.49	-45.4	-60.1	3.6	1.51e+00	0	32	104	0	60	40852
2026-01-29 02:18:26.31	341.94	10.53	-45.4	-60.1	3.6	1.51e+00	0	32	104	0	60	41135
2026-01-29 02:18:27.29	341.69	10.56	-45.4	-60.2	3.6	1.51e+00	0	32	104	0	60	41281
2026-01-29 02:18:28.27	341.44	10.59	-45.3	-60.1	3.6	1.51e+00	0	32	104	0	60	40854
2026-01-29 02:18:29.25	341.19	10.62	-45.3	-60.1	3.6	1.51e+00	0	32	104	0	60	40965
2026-01-29 02:18:30.22	340.94	10.65	-45.3	-60.1	3.6	1.51e+00	0	32	104	0	60	40927
2026-01-29 02:18:31.20	340.68	10.67	-45.3	-60.1	3.6	1.51e+00	0	32	104	0	60	41097
2026-01-29 02:18:32.18	340.43	10.70	-45.2	-60.1	3.6	1.51e+00	0	32	104	0	60	40894
2026-01-29 02:18:33.16	340.18	10.73	-45.4	-60.2	3.6	1.51e+00	0	32	104	0	60	41371
2026-01-29 02:18:34.14	339.92	10.76	-44.9	-60.2	3.6	1.51e+00	0	32	104	0	60	41275
2026-01-29 02:18:35.11	339.67	10.79	-45.2	-60.1	3.6	1.51e+00	0	32	104	0	60	40834
2026-01-29 02:18:36.09	339.42	10.81	-45.2	-60.1	3.6	1.51e+00	0	32	104	0	60	40880
2026-01-29 02:18:37.07	339.16	10.84	-45.2	-60.1	3.6	1.51e+00	0	32	104	0	60	41130
2026-01-29 02:18:38.04	338.91	10.87	-45.4	-60.1	3.6	1.51e+00	0	32	104	0	60	41097
2026-01-29 02:18:39.02	338.65	10.89	-45.3	-60.1	3.6	1.51e+00	0	32	104	0	60	41076
2026-01-29 02:18:40.00	338.39	10.92	-45.2	-60.1	3.6	1.51e+00	0	32	104	0	60	41031
2026-01-29 02:18:40.97	338.14	10.94	-45.3	-60.1	3.6	1.51e+00	0	32	104	0	60	40963
2026-01-29 02:18:41.95	337.88	10.97	-45.3	-60.1	3.6	1.51e+00	0	32	104	0	60	41041
2026-01-29 02:18:42.93	337.62	10.99	-45.3	-60.1	3.6	1.51e+00	0	32	104	0	60	41227
2026-01-29 02:18:43.90	337.36	11.01	-45.2	-60.1	3.6	1.51e+00	0	32	104	0	60	40942
2026-01-29 02:18:44.88	337.10	11.04	-45.3	-60.1	3.6	1.51e+00	0	32	104	0	60	40983
2026-01-29 02:18:45.85	336.84	11.06	-45.4	-60.1	3.6	1.51e+00	0	32	104	0	60	41091
2026-01-29 02:18:46.83	336.58	11.08	-45.3	-60.2	3.6	1.51e+00	0	32	104	0	60	41373
2026-01-29 02:18:47.81	336.32	11.10	-45.3	-60.2	3.6	1.51e+00	0	32	104	0	60	41277
2026-01-29 02:18:48.79	336.06	11.12	-45.1	-60.1	3.6	1.51e+00	0	32	104	0	60	41180
2026-01-29 02:18:49.77	335.79	11.14	-45.4	-60.2	3.6	1.51e+00	0	32	104	0	60	41315
2026-01-29 02:18:50.74	335.53	11.16	-45.4	-60.2	3.6	1.51e+00	0	32	104	0	60	41476
2026-01-29 02:18:51.72	335.27	11.18	-45.4	-60.1	3.6	1.51e+00	0	32	104	0	60	41251
2026-01-29 02:18:52.70	335.01	11.20	-45.4	-60.1	3.6	1.51e+00	0	32	104	0	60	40987
2026-01-29 02:18:53.69	334.74	11.22	-45.4	-60.1	3.6	1.51e+00	0	32	104	0	60	41230
2026-01-29 02:18:54.66	334.48	11.24	-45.3	-60.1	3.6	1.51e+00	0	32	104	0	60	41163
2026-01-29 02:18:55.64	334.21	11.26	-45.4	-60.1	3.6	1.51e+00	0	32	104	0	60	41107
2026-01-29 02:18:56.62	333.95	11.27	-45.3	-60.1	3.6	1.51e+00	0	32	104	0	60	40976
2026-01-29 02:18:57.59	333.68	11.29	-45.3	-60.1	3.6	1.51e+00	0	32	104	0	60	40985
2026-01-29 02:18:58.57	333.42	11.31	-45.3	-60.1	3.6	1.51e+00	0	32	104	0	60	40996
2026-01-29 02:18:59.55	333.15	11.32	-45.3	-60.1	3.6	1.51e+00	0	32	104	0	60	41047
2026-01-29 02:19:00.53	332.88	11.34	-45.4	-60.1	3.6	1.51e+00	0	32	104	0	60	41053
2026-01-29 02:19:01.51	332.61	11.35	-45.3	-60.1	3.6	1.51e+00	0	32	104	0	60	40925
2026-01-29 02:19:02.49	332.35	11.37	-45.2	-60.1	3.6	1.51e+00	0	32	104	0	60	40999
2026-01-29 02:19:03.47	332.08	11.38	-45.3	-60.1	3.6	1.51e+00	0	32	104	0	60	40917
2026-01-29 02:19:04.44	331.81	11.39	-45.3	-60.1	3.6	1.51e+00	0	32	104	0	60	40873
2026-01-29 02:19:05.42	331.54	11.41	-45.4	-60.1	3.6	1.51e+00	0	32	104	0	60	41052
2026-01-29 02:19:06.40	331.27	11.42	-45.3	-60.0	3.6	1.51e+00	0	32	104	0	60	40733
2026-01-29 02:19:07.38	331.00	11.43	-45.4	-60.1	3.6	1.51e+00	0	32	104	0	60	41110
2026-01-29 02:19:08.35	330.74	11.44	-45.4	-60.1	3.6	1.51e+00	0	32	104	0	60	40791
2026-01-29 02:19:09.34	330.46	11.45	-45.4	-60.1	3.6	1.51e+00	0	32	104	0	60	40898
2026-01-29 02:19:10.31	330.20	11.46	-45.2	-60.0	3.6	1.51e+00	0	32	104	0	60	40735
2026-01-29 02:19:11.29	329.93	11.47	-45.2	-60.1	3.6	1.51e+00	0	32	104	0	60	40811
2026-01-29 02:19:12.27	329.65	11.48	-45.3	-60.0	3.6	1.51e+00	0	32	104	0	60	40724
2026-01-29 02:19:13.25	329.38	11.49	-45.3	-60.1	3.6	1.51e+00	0	32	104	0	60	40877
2026-01-29 02:19:14.23	329.11	11.50	-45.3	-60.1	3.6	1.51e+00	0	32	104	0	60	40843
2026-01-29 02:19:15.21	328.84	11.51	-45.3	-60.1	3.6	1.51e+00	0	32	104	0	60	40953
2026-01-29 02:19:16.19	328.57	11.51	-45.3	-60.0	3.6	1.51e+00	0	32	104	0	60	40775
2026-01-29 02:19:17.17	328.30	11.52	-45.4	-60.1	3.6	1.51e+00	0	32	104	0	60	41041
2026-01-29 02:19:18.14	328.03	11.53	-45.3	-60.1	3.6	1.51e+00	0	32	104	0	60	40880
2026-01-29 02:19:19.13	327.75	11.53	-45.2	-60.1	3.6	1.51e+00	0	32	104	0	60	41061
2026-01-29 02:19:20.10	327.48	11.54	-45.3	-60.1	3.6	1.51e+00	0	32	104	0	60	40818
2026-01-29 02:19:21.08	327.21	11.54	-45.3	-60.1	3.6	1.51e+00	0	32	104	0	60	41005
2026-01-29 02:19:22.06	326.94	11.54	-45.2	-60.1	3.6	1.51e+00	0	32	104	0	60	41078
2026-01-29 02:19:23.03	326.67	11.55	-45.4	-60.1	3.6	1.51e+00	0	32	104	0	60	40877
2026-01-29 02:19:24.01	326.40	11.55	-45.3	-60.1	3.6	1.51e+00	0	32	104	0	60	40799
2026-01-29 02:19:24.98	326.13	11.55	-45.4	-60.1	3.6	1.51e+00	0	32	104	0	60	41063
2026-01-29 02:19:25.96	325.86	11.56	-45.4	-60.1	3.6	1.51e+00	0	32	104	0	60	40924
2026-01-29 02:19:26.93	325.59	11.56	-45.2	-60.1	3.6	1.51e+00	0	32	104	0	60	41003
2026-01-29 02:19:27.91	325.31	11.56	-45.3	-60.1	3.6	1.51e+00	0	32	104	0	60	40831
2026-01-29 02:19:28.89	325.04	11.56	-45.3	-60.1	3.6	1.51e+00	0	32	104	0	60	40796
2026-01-29 02:19:29.86	324.77	11.56	-45.2	-60.0	3.6	1.51e+00	0	32	104	0	60	40586
2026-01-29 02:19:30.84	324.50	11.56	-45.2	-60.0	3.6	1.51e+00	0	32	104	0	60	40762
2026-01-29 02:19:31.81	324.23	11.55	-45.1	-60.1	3.6	1.51e+00	0	32	104	0	60	40884
2026-01-29 02:19:32.79	323.96	11.55	-45.3	-60.1	3.5	1.51e+00	0	32	104	0	60	40905
2026-01-29 02:19:33.76	323.69	11.55	-45.3	-60.0	3.6	1.51e+00	0	32	104	0	60	40526
2026-01-29 02:19:34.74	323.41	11.55	-45.4	-60.0	3.5	1.51e+00	0	32	104	0	60	40770
2026-01-29 02:19:35.72	323.14	11.54	-45.3	-60.1	3.6	1.51e+00	0	32	104	0	60	40918
2026-01-29 02:19:36.69	322.87	11.54	-45.4	-60.1	3.6	1.51e+00	0	32	104	0	60	41015
2026-01-29 02:19:37.67	322.60	11.54	-45.4	-60.0	3.6	1.51e+00	0	32	104	0	60	40668
2026-01-29 02:19:38.65	322.33	11.53	-45.2	-60.1	3.6	1.51e+00	0	32	104	0	60	40931
2026-01-29 02:19:39.62	322.06	11.52	-45.2	-60.0	3.6	1.51e+00	0	32	104	0	60	40665
2026-01-29 02:19:40.60	321.78	11.52	-45.3	-60.1	3.6	1.51e+00	0	32	104	0	60	40905
2026-01-29 02:19:41.58	321.51	11.51	-45.0	-60.0	3.6	1.51e+00	0	32	104	0	60	40659
2026-01-29 02:19:42.55	321.24	11.50	-45.0	-60.0	3.6	1.51e+00	0	32	104	0	60	40725
2026-01-29 02:19:43.52	320.97	11.50	-45.0	-60.0	3.6	1.51e+00	0	32	104	0	60	40742
2026-01-29 02:19:44.50	320.70	11.49	-45.1	-60.0	3.6	1.51e+00	0	32	104	0	60	40659
2026-01-29 02:19:45.48	320.43	11.48	-45.2	-60.0	3.6	1.51e+00	0	32	104	0	60	40768
2026-01-29 02:19:46.45	320.16	11.47	-45.4	-60.1	3.6	1.51e+00	0	32	104	0	60	40946
2026-01-29 02:19:47.43	319.89	11.46	-45.4	-60.1	3.5	1.51e+00	0	32	104	0	60	40923
2026-01-29 02:19:48.40	319.62	11.45	-45.3	-60.1	3.6	1.51e+00	0	32	104	0	60	40871
2026-01-29 02:19:49.38	319.35	11.44	-45.4	-60.1	3.6	1.51e+00	0	32	104	0	60	40908
2026-01-29 02:19:50.35	319.09	11.43	-45.3	-60.0	3.6	1.51e+00	0	32	104	0	60	40662
2026-01-29 02:19:51.32	318.82	11.42	-45.2	-60.0	3.6	1.51e+00	0	32	104	0	60	40580
2026-01-29 02:19:52.30	318.55	11.40	-45.3	-60.1	3.6	1.51e+00	0	32	104	0	60	40895
2026-01-29 02:19:53.27	318.28	11.39	-45.2	-60.1	3.6	1.51e+00	0	32	104	0	60	41052
2026-01-29 02:19:54.25	318.01	11.38	-45.1	-60.0	3.6	1.51e+00	0	32	104	0	60	40707
2026-01-29 02:19:55.22	317.75	11.36	-45.2	-60.0	3.6	1.51e+00	0	32	104	0	60	40740
2026-01-29 02:19:56.20	317.48	11.35	-45.2	-60.0	3.6	1.51e+00	0	32	104	0	60	40627
2026-01-29 02:19:57.18	317.21	11.33	-45.3	-60.1	3.6	1.51e+00	0	32	104	0	60	41072
2026-01-29 02:19:58.15	316.95	11.32	-45.2	-60.0	3.6	1.51e+00	0	32	104	0	60	40636
2026-01-29 02:19:59.14	316.68	11.30	-45.3	-60.0	3.6	1.51e+00	0	32	104	0	60	40682
2026-01-29 02:20:00.12	316.41	11.29	-45.2	-60.1	3.6	1.51e+00	0	32	104	0	60	40895
2026-01-29 02:20:01.09	316.15	11.27	-45.4	-60.1	3.6	1.51e+00	0	32	104	0	60	41176
2026-01-29 02:20:02.07	315.88	11.25	-45.3	-60.0	3.6	1.51e+00	0	32	104	0	60	40707
2026-01-29 02:20:03.05	315.61	11.23	-45.4	-60.0	3.6	1.51e+00	0	32	104	0	60	40690
2026-01-29 02:20:04.02	315.35	11.22	-45.3	-60.0	3.6	1.51e+00	0	32	104	0	60	40604
2026-01-29 02:20:05.00	315.09	11.20	-45.3	-60.1	3.6	1.51e+00	0	32	104	0	60	40847
2026-01-29 02:20:05.98	314.82	11.18	-45.2	-60.0	3.6	1.51e+00	0	32	104	0	60	40735
2026-01-29 02:20:06.96	314.56	11.16	-45.2	-60.1	3.6	1.51e+00	0	32	104	0	60	40904
2026-01-29 02:20:07.94	314.29	11.14	-45.3	-60.0	3.6	1.51e+00	0	32	104	0	60	40759
2026-01-29 02:20:08.92	314.03	11.12	-45.3	-60.1	3.6	1.51e+00	0	32	104	0	60	40916
2026-01-29 02:20:09.89	313.77	11.10	-45.0	-60.1	3.6	1.51e+00	0	32	104	0	60	40808
2026-01-29 02:20:10.87	313.51	11.07	-45.3	-60.1	3.6	1.51e+00	0	32	104	0	60	40909
2026-01-29 02:20:11.86	313.24	11.05	-45.3	-60.1	3.6	1.51e+00	0	32	104	0	60	40838
2026-01-29 02:20:12.83	312.98	11.03	-45.2	-60.1	3.6	1.51e+00	0	32	104	0	60	40942
2026-01-29 02:20:13.81	312.72	11.01	-45.1	-60.1	3.6	1.51e+00	0	32	104	0	60	40862
2026-01-29 02:20:14.78	312.46	10.98	-45.1	-60.0	3.6	1.51e+00	0	32	104	0	60	40576
2026-01-29 02:20:15.75	312.21	10.96	-45.3	-60.0	3.6	1.51e+00	0	32	104	0	60	40721
2026-01-29 02:20:16.73	311.95	10.93	-45.2	-60.1	3.6	1.51e+00	0	32	104	0	60	40919
2026-01-29 02:20:17.71	311.69	10.91	-45.1	-60.1	3.6	1.51e+00	0	32	104	0	60	40864
2026-01-29 02:20:18.69	311.43	10.88	-45.3	-60.0	3.6	1.51e+00	0	32	104	0	60	40722
2026-01-29 02:20:19.67	311.17	10.86	-45.3	-60.0	3.6	1.51e+00	0	32	104	0	60	40650
2026-01-29 02:20:20.65	310.91	10.83	-45.3	-60.0	3.6	1.51e+00	0	32	104	0	60	40567
2026-01-29 02:20:21.63	310.66	10.80	-45.3	-60.0	3.6	1.51e+00	0	32	104	0	60	40561
2026-01-29 02:20:22.61	310.40	10.78	-45.2	-60.0	3.6	1.51e+00	0	32	104	0	60	40718
2026-01-29 02:20:23.58	310.15	10.75	-45.3	-60.0	3.6	1.51e+00	0	32	104	0	60	40545
2026-01-29 02:20:24.55	309.89	10.72	-45.3	-60.0	3.6	1.51e+00	0	32	104	0	60	40764
2026-01-29 02:20:25.53	309.64	10.69	-45.2	-60.0	3.6	1.51e+00	0	32	104	0	60	40674
2026-01-29 02:20:26.50	309.39	10.67	-45.1	-60.0	3.6	1.51e+00	0	32	104	0	60	40543
2026-01-29 02:20:27.49	309.13	10.64	-45.2	-60.0	3.6	1.51e+00	0	32	104	0	60	40718
2026-01-29 02:20:28.46	308.88	10.61	-45.2	-60.1	3.6	1.51e+00	0	32	104	0	60	40832
2026-01-29 02:20:29.44	308.63	10.58	-45.1	-60.0	3.6	1.51e+00	0	32	104	0	60	40676
2026-01-29 02:20:30.41	308.38	10.55	-44.9	-60.0	3.6	1.51e+00	0	32	104	0	60	40613
2026-01-29 02:20:31.38	308.13	10.52	-44.9	-60.0	3.6	1.51e+00	0	32	104	0	60	40655
2026-01-29 02:20:32.36	307.88	10.48	-45.1	-60.0	3.6	1.51e+00	0	32	104	0	60	40680
2026-01-29 02:20:33.34	307.63	10.45	-44.9	-60.0	3.6	1.51e+00	0	32	104	0	60	40726
2026-01-29 02:20:34.32	307.39	10.42	-45.0	-60.0	3.6	1.51e+00	0	32	104	0	60	40639
2026-01-29 02:20:35.30	307.14	10.39	-45.0	-60.0	3.6	1.51e+00	0	32	104	0	60	40502
2026-01-29 02:20:36.27	306.89	10.36	-44.9	-60.0	3.6	1.51e+00	0	32	104	0	60	40606
2026-01-29 02:20:37.25	306.65	10.32	-44.8	-60.0	3.6	1.51e+00	0	32	104	0	60	40448
2026-01-29 02:20:38.23	306.40	10.29	-44.7	-60.0	3.6	1.51e+00	0	32	104	0	60	40567
2026-01-29 02:20:39.21	306.15	10.26	-44.8	-60.0	3.6	1.51e+00	0	32	104	0	60	40518
2026-01-29 02:20:40.19	305.91	10.22	-44.9	-60.0	3.6	1.51e+00	0	32	104	0	60	40501
2026-01-29 02:20:41.17	305.67	10.19	-45.0	-60.0	3.6	1.51e+00	0	32	104	0	60	40520
2026-01-29 02:20:42.14	305.43	10.15	-44.9	-60.0	3.6	1.51e+00	0	32	104	0	60	40355
2026-01-29 02:20:43.13	305.18	10.12	-45.0	-60.0	3.6	1.51e+00	0	32	104	0	60	40441
2026-01-29 02:20:44.10	304.94	10.08	-44.8	-60.0	3.6	1.51e+00	0	32	104	0	60	40433
2026-01-29 02:20:45.09	304.70	10.04	-45.1	-60.0	3.6	1.51e+00	0	32	104	0	60	40621
2026-01-29 02:20:46.07	304.46	10.01	-45.0	-59.9	3.6	1.51e+00	0	32	104	0	60	40226
2026-01-29 02:20:47.04	304.22	9.97	-45.1	-60.0	3.6	1.51e+00	0	32	104	0	60	40595
2026-01-29 02:20:48.02	303.98	9.94	-45.1	-59.9	3.6	1.51e+00	0	32	104	0	60	40310
2026-01-29 02:20:48.99	303.75	9.90	-45.0	-60.0	3.6	1.51e+00	0	32	104	0	60	40689
2026-01-29 02:20:49.97	303.51	9.86	-45.1	-59.9	3.6	1.51e+00	0	32	104	0	60	40237
2026-01-29 02:20:50.95	303.27	9.82	-45.1	-60.0	3.6	1.51e+00	0	32	104	0	60	40515
2026-01-29 02:20:51.92	303.04	9.78	-45.1	-59.9	3.6	1.51e+00	0	32	104	0	60	40233
2026-01-29 02:20:52.90	302.80	9.75	-45.2	-60.0	3.6	1.51e+00	0	32	104	0	60	40439
2026-01-29 02:20:53.88	302.57	9.71	-45.1	-59.9	3.6	1.51e+00	0	32	104	0	60	40204
2026-01-29 02:20:54.86	302.33	9.67	-45.1	-60.0	3.6	1.51e+00	0	32	104	0	60	40368
2026-01-29 02:20:55.83	302.10	9.63	-45.1	-59.9	3.6	1.51e+00	0	32	104	0	60	40184
2026-01-29 02:20:56.81	301.87	9.59	-45.2	-60.0	3.6	1.51e+00	0	32	104	0	60	40394
2026-01-29 02:20:57.79	301.64	9.55	-45.1	-59.9	3.6	1.51e+00	0	32	104	0	60	40029
2026-01-29 02:20:58.76	301.41	9.51	-45.2	-59.9	3.6	1.51e+00	0	32	104	0	60	40266
2026-01-29 02:20:59.74	301.18	9.47	-45.2	-60.0	3.6	1.51e+00	0	32	104	0	60	40380
2026-01-29 02:21:00.71	300.96	9.43	-45.2	-60.0	3.6	1.51e+00	0	32	104	0	60	40421
2026-01-29 02:21:01.69	300.73	9.39	-45.1	-59.9	3.6	1.51e+00	0	32	104	0	60	40130
2026-01-29 02:21:02.67	300.50	9.35	-45.2	-59.9	3.6	1.51e+00	0	32	104	0	60	40137
2026-01-29 02:21:03.65	300.27	9.30	-45.2	-59.9	3.6	1.51e+00	0	32	104	0	60	40322
2026-01-29 02:21:04.62	300.05	9.26	-45.2	-59.9	3.6	1.51e+00	0	32	104	0	60	40248
2026-01-29 02:21:05.60	299.83	9.22	-45.1	-59.9	3.6	1.51e+00	0	32	104	0	60	39972
2026-01-29 02:21:06.58	299.60	9.18	-45.2	-59.9	3.6	1.51e+00	0	32	104	0	60	40018
2026-01-29 02:21:07.55	299.38	9.14	-45.2	-59.9	3.6	1.51e+00	0	32	104	0	60	40288
2026-01-29 02:21:08.53	299.16	9.09	-45.2	-59.9	3.6	1.51e+00	0	32	104	0	60	39910
2026-01-29 02:21:09.51	298.94	9.05	-45.2	-59.9	3.6	1.51e+00	0	32	104	0	60	39974
2026-01-29 02:21:10.48	298.72	9.01	-45.1	-59.9	3.6	1.51e+00	0	32	104	0	60	39986
2026-01-29 02:21:11.46	298.50	8.96	-45.2	-59.9	3.6	1.51e+00	0	32	104	0	60	39933
2026-01-29 02:21:12.43	298.28	8.92	-45.1	-59.9	3.6	1.51e+00	0	32	104	0	60	40183
2026-01-29 02:21:13.41	298.06	8.87	-45.2	-59.9	3.6	1.51e+00	0	32	104	0	60	40057
2026-01-29 02:21:14.39	297.85	8.83	-45.1	-59.9	3.6	1.51e+00	0	32	104	0	60	39920
2026-01-29 02:21:15.36	297.63	8.79	-45.1	-59.9	3.6	1.51e+00	0	32	104	0	60	40150
2026-01-29 02:21:16.34	297.42	8.74	-45.2	-59.9	3.6	1.51e+00	0	32	104	0	60	39906
2026-01-29 02:21:17.32	297.20	8.70	-45.2	-59.8	3.6	1.51e+00	0	32	104	0	60	39738
2026-01-29 02:21:18.30	296.99	8.65	-45.1	-59.8	3.6	1.51e+00	0	32	104	0	60	39772
2026-01-29 02:21:19.28	296.77	8.61	-45.1	-59.8	3.6	1.51e+00	0	32	104	0	60	39702
2026-01-29 02:21:20.26	296.56	8.56	-45.1	-59.8	3.6	1.51e+00	0	32	104	0	60	39646
2026-01-29 02:21:21.24	296.35	8.51	-45.2	-59.8	3.6	1.51e+00	0	32	104	0	60	39730
2026-01-29 02:21:22.21	296.14	8.47	-45.1	-59.8	3.6	1.51e+00	0	32	104	0	60	39472
2026-01-29 02:21:23.18	295.93	8.42	-45.1	-59.8	3.6	1.51e+00	0	32	104	0	60	39829
2026-01-29 02:21:24.16	295.72	8.38	-45.1	-59.8	3.6	1.51e+00	0	32	104	0	60	39644
2026-01-29 02:21:25.14	295.51	8.33	-45.2	-59.8	3.6	1.51e+00	0	32	104	0	60	39833
2026-01-29 02:21:26.12	295.31	8.28	-45.1	-59.7	3.6	1.51e+00	0	32	104	0	60	39338
2026-01-29 02:21:27.10	295.10	8.24	-45.1	-59.8	3.6	1.51e+00	0	32	104	0	60	39738
2026-01-29 02:21:28.08	294.89	8.19	-45.0	-59.8	3.6	1.51e+00	0	32	104	0	60	39517
2026-01-29 02:21:29.06	294.69	8.14	-45.1	-59.8	3.6	1.51e+00	0	32	104	0	60	39679
2026-01-29 02:21:30.04	294.48	8.09	-45.0	-59.7	3.6	1.51e+00	0	32	104	0	60	39404
2026-01-29 02:21:31.02	294.28	8.05	-45.1	-59.7	3.6	1.51e+00	0	32	104	0	60	39386
2026-01-29 02:21:31.99	294.08	8.00	-45.1	-59.8	3.6	1.51e+00	0	32	104	0	60	39605
2026-01-29 02:21:32.97	293.88	7.95	-45.1	-59.8	3.6	1.51e+00	0	32	104	0	60	39605
2026-01-29 02:21:33.95	293.68	7.90	-45.0	-59.7	3.6	1.51e+00	0	32	104	0	60	39099
2026-01-29 02:21:34.93	293.48	7.85	-45.1	-59.7	3.6	1.51e+00	0	32	104	0	60	39153
2026-01-29 02:21:35.91	293.28	7.81	-45.0	-59.8	3.6	1.51e+00	0	32	104	0	60	39434
2026-01-29 02:21:36.88	293.08	7.76	-45.1	-59.7	3.6	1.51e+00	0	32	104	0	60	39327
2026-01-29 02:21:37.86	292.88	7.71	-45.0	-59.7	3.6	1.51e+00	0	32	104	0	60	39025
2026-01-29 02:21:38.84	292.69	7.66	-45.0	-59.8	3.6	1.51e+00	0	32	104	0	60	39411
2026-01-29 02:21:39.82	292.49	7.61	-45.0	-59.7	3.6	1.51e+00	0	32	104	0	60	39283
2026-01-29 02:21:40.79	292.30	7.56	-45.0	-59.7	3.6	1.51e+00	0	32	104	0	60	39380
2026-01-29 02:21:41.77	292.10	7.51	-45.0	-59.6	3.6	1.51e+00	0	32	104	0	60	38850
2026-01-29 02:21:42.75	291.91	7.46	-45.0	-59.7	3.6	1.51e+00	0	32	104	0	60	39044
2026-01-29 02:21:43.72	291.72	7.41	-45.0	-59.7	3.6	1.51e+00	0	32	104	0	60	39204
2026-01-29 02:21:44.70	291.53	7.36	-45.0	-59.7	3.6	1.51e+00	0	32	104	0	60	39289
2026-01-29 02:21:45.67	291.34	7.32	-45.0	-59.6	3.6	1.51e+00	0	32	104	0	60	38847
2026-01-29 02:21:46.64	291.15	7.27	-45.0	-59.6	3.6	1.51e+00	0	32	104	0	60	38747
2026-01-29 02:21:47.62	290.96	7.22	-45.0	-59.6	3.6	1.51e+00	0	32	104	0	60	38922
2026-01-29 02:21:48.60	290.77	7.17	-45.0	-59.7	3.6	1.51e+00	0	32	104	0	60	39135
2026-01-29 02:21:49.57	290.59	7.12	-44.9	-59.6	3.6	1.51e+00	0	32	104	0	60	38772
2026-01-29 02:21:50.55	290.40	7.07	-44.9	-59.6	3.6	1.51e+00	0	32	104	0	60	38933
2026-01-29 02:21:51.53	290.22	7.02	-45.0	-59.7	3.6	1.51e+00	0	32	104	0	60	39005
2026-01-29 02:21:52.50	290.03	6.97	-45.0	-59.7	3.6	1.51e+00	0	32	104	0	60	38993
2026-01-29 02:21:53.48	289.85	6.91	-45.0	-59.7	3.6	1.51e+00	0	32	104	0	60	38963
2026-01-29 02:21:54.46	289.66	6.86	-44.9	-59.6	3.6	1.51e+00	0	32	104	0	60	38536
2026-01-29 02:21:55.44	289.48	6.81	-44.9	-59.6	3.6	1.51e+00	0	32	104	0	60	38782
2026-01-29 02:21:56.41	289.30	6.76	-45.0	-59.7	3.6	1.51e+00	0	32	104	0	60	39042
2026-01-29 02:21:57.39	289.12	6.71	-45.0	-59.6	3.6	1.51e+00	0	32	104	0	60	38869
2026-01-29 02:21:58.36	288.94	6.66	-44.9	-59.6	3.6	1.51e+00	0	32	104	0	60	38677
2026-01-29 02:21:59.33	288.76	6.61	-44.9	-59.6	3.6	1.51e+00	0	32	104	0	60	38550
2026-01-29 02:22:00.31	288.58	6.56	-44.9	-59.6	3.6	1.51e+00	0	32	104	0	60	38768
2026-01-29 02:22:01.29	288.41	6.51	-45.0	-59.6	3.6	1.51e+00	0	32	104	0	60	38921
2026-01-29 02:22:02.26	288.23	6.46	-44.8	-59.5	3.6	1.51e+00	0	32	104	0	60	38363
2026-01-29 02:22:03.24	288.05	6.41	-44.9	-59.5	3.6	1.51e+00	0	32	104	0	60	38493
2026-01-29 02:22:04.22	287.88	6.35	-44.9	-59.6	3.6	1.51e+00	0	32	104	0	60	38676
2026-01-29 02:22:05.20	287.70	6.30	-44.9	-59.6	3.6	1.51e+00	0	32	104	0	60	38913
2026-01-29 02:22:06.17	287.53	6.25	-44.8	-59.5	3.6	1.51e+00	0	32	104	0	60	38154
2026-01-29 02:22:07.15	287.36	6.20	-44.8	-59.5	3.6	1.51e+00	0	32	104	0	60	38278
2026-01-29 02:22:08.12	287.19	6.15	-44.9	-59.6	3.6	1.51e+00	0	32	104	0	60	38518
2026-01-29 02:22:09.10	287.02	6.10	-44.9	-59.6	3.6	1.51e+00	0	32	104	0	60	38710
2026-01-29 02:22:10.08	286.85	6.04	-44.7	-59.4	3.6	1.51e+00	0	32	104	0	60	37880
2026-01-29 02:22:11.05	286.68	5.99	-44.8	-59.4	3.6	1.51e+00	0	32	104	0	60	38033
2026-01-29 02:22:12.02	286.51	5.94	-44.8	-59.5	3.6	1.51e+00	0	32	104	0	60	38260
2026-01-29 02:22:13.00	286.34	5.89	-44.9	-59.5	3.6	1.51e+00	0	32	104	0	60	38413
2026-01-29 02:22:13.98	286.17	5.84	-44.7	-59.4	3.6	1.51e+00	0	32	104	0	60	37787
2026-01-29 02:22:14.95	286.01	5.79	-44.7	-59.4	3.6	1.51e+00	0	32	104	0	60	37810
2026-01-29 02:22:15.93	285.84	5.73	-44.8	-59.5	3.6	1.51e+00	0	32	104	0	60	38145
2026-01-29 02:22:16.90	285.68	5.68	-44.8	-59.5	3.6	1.51e+00	0	32	104	0	60	38271
2026-01-29 02:22:17.88	285.51	5.63	-44.6	-59.3	3.6	1.51e+00	0	32	104	0	60	37511
2026-01-29 02:22:18.86	285.35	5.58	-44.7	-59.4	3.6	1.51e+00	0	32	104	0	60	37880
2026-01-29 02:22:19.84	285.19	5.52	-44.7	-59.4	3.6	1.51e+00	0	32	104	0	60	37849
2026-01-29 02:22:20.81	285.02	5.47	-44.8	-59.4	3.6	1.51e+00	0	32	104	0	60	37893
2026-01-29 02:22:21.79	284.86	5.42	-44.6	-59.3	3.6	1.51e+00	0	32	104	0	60	37501
2026-01-29 02:22:22.76	284.70	5.37	-44.7	-59.4	3.6	1.51e+00	0	32	104	0	60	37637
2026-01-29 02:22:23.74	284.54	5.32	-44.7	-59.3	3.6	1.51e+00	0	32	104	0	60	37553
2026-01-29 02:22:24.72	284.38	5.26	-44.7	-59.4	3.6	1.51e+00	0	32	104	0	60	37860
2026-01-29 02:22:25.69	284.23	5.21	-44.6	-59.2	3.6	1.51e+00	0	32	104	0	60	37099
2026-01-29 02:22:26.67	284.07	5.16	-44.6	-59.3	3.6	1.51e+00	0	32	104	0	60	37414
2026-01-29 02:22:27.65	283.91	5.11	-44.6	-59.4	3.6	1.51e+00	0	32	104	0	60	37725
2026-01-29 02:22:28.62	283.76	5.05	-44.7	-59.4	3.6	1.51e+00	0	32	104	0	60	37893
2026-01-29 02:22:29.60	283.60	5.00	-44.6	-59.3	3.6	1.51e+00	0	32	104	0	60	37260
2026-01-29 02:22:30.58	283.44	4.95	-44.6	-59.3	3.6	1.51e+00	0	32	104	0	60	37311
2026-01-29 02:22:31.55	283.29	4.90	-44.6	-59.3	3.6	1.51e+00	0	32	104	0	60	37509
2026-01-29 02:22:32.53	283.14	4.84	-44.6	-59.3	3.6	1.51e+00	0	32	104	0	60	37414
2026-01-29 02:22:33.51	282.99	4.79	-44.6	-59.3	3.6	1.51e+00	0	32	104	0	60	37399
2026-01-29 02:22:34.49	282.83	4.74	-44.5	-59.2	3.6	1.51e+00	0	32	104	0	60	37171
2026-01-29 02:22:35.47	282.68	4.68	-44.6	-59.3	3.6	1.51e+00	0	32	104	0	60	37503
2026-01-29 02:22:36.44	282.53	4.63	-44.6	-59.3	3.6	1.51e+00	0	32	104	0	60	37442
2026-01-29 02:22:37.43	282.38	4.58	-44.6	-59.3	3.6	1.51e+00	0	32	104	0	60	37259
2026-01-29 02:22:38.40	282.23	4.53	-44.5	-59.2	3.6	1.51e+00	0	32	104	0	60	36887
2026-01-29 02:22:39.38	282.08	4.47	-44.6	-59.2	3.6	1.51e+00	0	32	104	0	60	37102
2026-01-29 02:22:40.35	281.94	4.42	-44.6	-59.3	3.6	1.51e+00	0	32	104	0	60	37236
2026-01-29 02:22:41.33	281.79	4.37	-44.6	-59.3	3.6	1.51e+00	0	32	104	0	60	37242
2026-01-29 02:22:42.31	281.64	4.31	-44.4	-59.1	3.6	1.51e+00	0	32	104	0	60	36501
2026-01-29 02:22:43.29	281.50	4.26	-44.5	-59.2	3.6	1.51e+00	0	32	104	0	60	36884
2026-01-29 02:22:44.26	281.35	4.21	-44.5	-59.3	3.6	1.51e+00	0	32	104	0	60	37209
2026-01-29 02:22:45.23	281.21	4.16	-44.6	-59.3	3.6	1.51e+00	0	32	104	0	60	37217
2026-01-29 02:22:46.21	281.07	4.10	-44.4	-59.0	3.6	1.51e+00	0	32	104	0	60	36312
2026-01-29 02:22:47.19	280.92	4.05	-44.4	-59.2	3.6	1.51e+00	0	32	104	0	60	36805
2026-01-29 02:22:48.16	280.78	4.00	-44.5	-59.2	3.6	1.51e+00	0	32	104	0	60	36848
2026-01-29 02:22:49.14	280.64	3.95	-44.5	-59.2	3.6	1.51e+00	0	32	104	0	60	37013
2026-01-29 02:22:50.12	280.50	3.89	-44.3	-59.0	3.6	1.51e+00	0	32	104	0	60	36012
2026-01-29 02:22:51.09	280.36	3.84	-44.3	-59.0	3.6	1.51e+00	0	32	104	0	60	36296
2026-01-29 02:22:52.07	280.22	3.79	-44.4	-59.1	3.6	1.51e+00	0	32	104	0	60	36570
2026-01-29 02:22:53.05	280.08	3.74	-44.5	-59.2	3.6	1.51e+00	0	32	104	0	60	37162
2026-01-29 02:22:54.02	279.94	3.68	-44.2	-58.8	3.6	1.51e+00	0	32	104	0	60	35521
2026-01-29 02:22:55.00	279.80	3.63	-44.3	-59.0	3.6	1.51e+00	0	32	104	0	60	36007
2026-01-29 02:22:55.97	279.67	3.58	-44.3	-59.0	3.6	1.51e+00	0	32	104	0	60	36262
2026-01-29 02:22:56.94	279.53	3.53	-44.4	-59.1	3.6	1.51e+00	0	32	104	0	60	36636
2026-01-29 02:22:57.92	279.40	3.47	-44.1	-58.8	3.6	1.51e+00	0	32	104	0	60	35480
2026-01-29 02:22:58.89	279.26	3.42	-44.2	-58.9	3.6	1.51e+00	0	32	104	0	60	35870
2026-01-29 02:22:59.87	279.13	3.37	-44.3	-59.0	3.6	1.51e+00	0	32	104	0	60	36121
2026-01-29 02:23:00.85	278.99	3.31	-44.4	-59.1	3.6	1.51e+00	0	32	104	0	60	36504
2026-01-29 02:23:01.82	278.86	3.26	-44.1	-58.7	3.6	1.51e+00	0	32	104	0	60	34946
2026-01-29 02:23:02.80	278.73	3.21	-44.1	-58.9	3.6	1.51e+00	0	32	104	0	60	35580
2026-01-29 02:23:03.78	278.60	3.16	-44.2	-58.9	3.6	1.51e+00	0	32	104	0	60	35802
2026-01-29 02:23:04.76	278.46	3.10	-44.3	-59.0	3.6	1.51e+00	0	32	104	0	60	36185
2026-01-29 02:23:05.73	278.33	3.05	-44.0	-58.7	3.6	1.51e+00	0	32	104	0	60	34878
2026-01-29 02:23:06.71	278.20	3.00	-44.4	-59.0	3.6	1.51e+00	0	32	104	0	60	36059
2026-01-29 02:23:07.69	278.07	2.95	-45.0	-59.7	3.6	1.51e+00	0	32	104	0	60	39026
2026-01-29 02:23:08.67	277.94	2.89	-45.3	-60.0	3.6	1.51e+00	0	32	104	0	60	40654
2026-01-29 02:23:09.65	277.82	2.84	-45.5	-60.2	3.6	1.51e+00	0	32	104	0	60	41386
2026-01-29 02:23:10.62	277.69	2.79	-45.6	-60.3	3.6	1.51e+00	0	32	104	0	60	42047
2026-01-29 02:23:11.60	277.56	2.74	-45.8	-60.4	3.5	1.51e+00	0	32	104	0	60	42483
2026-01-29 02:23:12.57	277.44	2.69	-45.8	-60.5	3.6	1.51e+00	0	32	104	0	60	43185
2026-01-29 02:23:13.55	277.31	2.63	-45.8	-60.5	3.6	1.51e+00	0	32	104	0	60	43193
2026-01-29 02:23:14.53	277.18	2.58	-45.9	-60.6	3.6	1.51e+00	0	32	104	0	60	43282
2026-01-29 02:23:15.50	277.06	2.53	-45.9	-60.6	3.6	1.51e+00	0	32	104	0	60	43564
2026-01-29 02:23:16.47	276.94	2.48	-45.9	-60.6	3.6	1.51e+00	0	32	104	0	60	43567
2026-01-29 02:23:17.45	276.81	2.42	-46.0	-60.6	3.6	1.51e+00	0	32	104	0	60	43701
2026-01-29 02:23:18.43	276.69	2.37	-45.9	-60.5	3.6	1.51e+00	0	32	104	0	60	43157
2026-01-29 02:23:19.41	276.57	2.32	-45.9	-60.6	3.6	1.51e+00	0	32	104	0	60	43519
2026-01-29 02:23:20.38	276.44	2.27	-45.9	-60.6	3.6	1.51e+00	0	32	104	0	60	43362
2026-01-29 02:23:21.36	276.32	2.22	-45.8	-60.6	3.6	1.51e+00	0	32	104	0	60	43503
2026-01-29 02:23:22.34	276.20	2.16	-45.8	-60.7	3.6	1.51e+00	0	32	104	0	60	43963
2026-01-29 02:23:23.32	276.08	2.11	-45.9	-60.9	3.6	1.51e+00	0	32	104	0	60	44889
2026-01-29 02:23:24.30	275.96	2.06	-45.9	-60.6	3.6	1.51e+00	0	32	104	0	60	43573
2026-01-29 02:23:25.27	275.84	2.01	-45.7	-60.6	3.6	1.51e+00	0	32	104	0	60	43339
2026-01-29 02:23:26.25	275.72	1.95	-45.8	-60.5	3.6	1.51e+00	0	32	104	0	60	43071
2026-01-29 02:23:27.23	275.61	1.90	-46.0	-60.7	3.6	1.51e+00	0	32	104	0	60	43794
2026-01-29 02:23:28.20	275.49	1.85	-45.8	-60.6	3.6	1.51e+00	0	32	104	0	60	43552
2026-01-29 02:23:29.18	275.37	1.80	-45.6	-60.5	3.6	1.51e+00	0	32	104	0	60	42781
2026-01-29 02:23:30.16	275.25	1.75	-45.7	-60.4	3.6	1.51e+00	0	32	104	0	60	42690
2026-01-29 02:23:31.13	275.14	1.70	-45.1	-60.4	3.6	1.51e+00	0	32	104	0	60	42342
2026-01-29 02:23:32.11	275.02	1.64	-45.6	-60.3	3.6	1.51e+00	0	32	104	0	60	42050
2026-01-29 02:23:33.09	274.91	1.59	-45.8	-60.4	3.6	1.51e+00	0	32	104	0	60	42701
2026-01-29 02:23:34.07	274.79	1.54	-45.7	-60.4	3.6	1.51e+00	0	32	104	0	60	42519
2026-01-29 02:23:35.04	274.68	1.49	-45.7	-60.4	3.6	1.51e+00	0	32	104	0	60	42574
2026-01-29 02:23:36.02	274.57	1.44	-45.7	-60.4	3.6	1.51e+00	0	32	104	0	60	42377
2026-01-29 02:23:37.00	274.45	1.39	-45.7	-60.4	3.6	1.51e+00	0	32	104	0	60	42234
2026-01-29 02:23:37.97	274.34	1.33	-45.7	-60.4	3.5	1.51e+00	0	32	104	0	60	42467
2026-01-29 02:23:38.95	274.23	1.28	-45.7	-60.4	3.6	1.51e+00	0	32	104	0	60	42256
2026-01-29 02:23:39.93	274.12	1.23	-45.6	-60.4	3.6	1.51e+00	0	32	104	0	60	42391
2026-01-29 02:23:40.90	274.01	1.18	-45.6	-60.3	3.6	1.51e+00	0	32	104	0	60	42105
2026-01-29 02:23:41.88	273.90	1.13	-45.6	-60.3	3.6	1.51e+00	0	32	104	0	60	41992
2026-01-29 02:23:42.85	273.79	1.08	-45.6	-60.4	3.6	1.51e+00	0	32	104	0	60	42369
2026-01-29 02:23:43.83	273.68	1.03	-45.6	-60.4	3.6	1.51e+00	0	32	104	0	60	42258
2026-01-29 02:23:44.82	273.57	0.97	-45.6	-60.3	3.6	1.51e+00	0	32	104	0	60	42153
2026-01-29 02:23:45.79	273.46	0.92	-45.6	-60.3	3.6	1.51e+00	0	32	104	0	60	42132
2026-01-29 02:23:46.77	273.36	0.87	-45.6	-60.3	3.6	1.51e+00	0	32	104	0	60	42200
2026-01-29 02:23:47.75	273.25	0.82	-45.6	-60.3	3.6	1.51e+00	0	32	104	0	60	42044
2026-01-29 02:23:48.73	273.14	0.77	-45.6	-60.3	3.6	1.51e+00	0	32	104	0	60	42031
2026-01-29 02:23:49.71	273.03	0.72	-45.6	-60.3	3.6	1.51e+00	0	32	104	0	60	41810
2026-01-29 02:23:50.69	272.93	0.67	-45.6	-60.3	3.6	1.51e+00	0	32	104	0	60	41884
2026-01-29 02:23:51.67	272.82	0.62	-45.6	-60.3	3.6	1.51e+00	0	32	104	0	60	41808
2026-01-29 02:23:52.64	272.72	0.56	-45.6	-60.2	3.6	1.51e+00	0	32	104	0	60	41725
2026-01-29 02:23:53.62	272.61	0.51	-45.6	-60.3	3.6	1.51e+00	0	32	104	0	60	41980
2026-01-29 02:23:54.60	272.51	0.46	-45.6	-60.3	3.6	1.51e+00	0	32	104	0	60	41956
2026-01-29 02:23:55.57	272.41	0.41	-45.6	-60.3	3.6	1.51e+00	0	32	104	0	60	41914
2026-01-29 02:23:56.55	272.30	0.36	-45.6	-60.3	3.6	1.51e+00	0	32	104	0	60	41842
2026-01-29 02:23:57.53	272.20	0.31	-45.6	-60.3	3.6	1.51e+00	0	32	104	0	60	42091
2026-01-29 02:23:58.51	272.10	0.26	-45.6	-60.3	3.6	1.51e+00	0	32	104	0	60	41926
2026-01-29 02:23:59.49	272.00	0.21	-45.6	-60.3	3.6	1.51e+00	0	32	104	0	60	42021
2026-01-29 02:24:00.47	271.90	0.16	-45.6	-60.3	3.6	1.51e+00	0	32	104	0	60	42064
2026-01-29 02:24:01.45	271.79	0.11	-45.6	-60.3	3.6	1.51e+00	0	32	104	0	60	41848
2026-01-29 02:24:02.43	271.69	0.06	-45.6	-60.3	3.6	1.51e+00	0	32	104	0	60	42003
2026-01-29 02:24:03.41	271.59	0.01	-45.6	-60.3	3.6	1.51e+00	0	32	104	0	60	41840

#Closed at: 2026-01-29 02:24:04
#Recorded file [0 MB]: D:/lorett/data/35029_260129_141456.dat