passes_logs/2026/01/29/R4.6S_Anadyr/R4.6S_Anadyr__20260129_134202_SUOMI_NPP_rec.log

#Pass ID: 20260129_134202_SUOMI NPP
#Satellite: SUOMI NPP
#Configuration: NPP
#almurnet v.1.7.20251203
#Start time: 2026-01-29 13:42:04

#Version: 2.2.20231116
#Station: R4.6S_Anadyr
#Location: 177.4865 lon 64.73178 lat
#TLE: 1 37849U 11061A   26028.91916408  .00000155  00000+0  94467-4 0  9990
#TLE: 2 37849  98.7824 330.8488 0002045  39.4457 320.6868 14.19531289738686

#Time	Az	El	Level	Level2	SNR	BER	BlckErr	Temp	State	Recorded	gain1	gain2
2026-01-29 13:42:04.33	19.05	0.10	-48.8	-61.4	3.4	1.52e+00	0	26	0	0	60	41238
2026-01-29 13:42:05.33	19.09	0.16	-49.2	-64.4	3.6	1.51e+00	0	27	104	0	60	60320
2026-01-29 13:42:06.34	19.12	0.22	-49.2	-64.4	3.6	1.51e+00	0	27	104	0	60	59676
2026-01-29 13:42:07.35	19.16	0.28	-49.2	-64.4	3.6	1.51e+00	0	27	104	0	60	59666
2026-01-29 13:42:08.36	19.20	0.34	-49.0	-64.2	3.6	1.51e+00	0	27	104	0	60	58542
2026-01-29 13:42:09.37	19.24	0.39	-48.9	-64.1	3.6	1.51e+00	0	28	104	0	60	57817
2026-01-29 13:42:10.38	19.28	0.45	-48.8	-64.0	3.6	1.51e+00	0	28	104	0	60	57305
2026-01-29 13:42:11.39	19.32	0.51	-48.8	-64.0	3.6	1.51e+00	0	27	104	0	60	57599
2026-01-29 13:42:12.40	19.35	0.57	-48.8	-64.0	3.6	1.51e+00	0	28	104	0	60	57114
2026-01-29 13:42:13.41	19.39	0.63	-48.8	-64.0	3.6	1.51e+00	0	28	104	0	60	57259
2026-01-29 13:42:14.42	19.43	0.69	-48.8	-64.0	3.6	1.51e+00	0	28	104	0	60	57232
2026-01-29 13:42:15.43	19.47	0.75	-48.8	-63.9	3.6	1.51e+00	0	28	104	0	60	56763
2026-01-29 13:42:16.44	19.51	0.80	-48.7	-63.9	3.6	1.51e+00	0	28	104	0	60	56852
2026-01-29 13:42:17.45	19.55	0.86	-48.7	-63.9	3.6	1.51e+00	0	28	104	0	60	56505
2026-01-29 13:42:18.46	19.59	0.92	-48.7	-63.9	3.6	1.51e+00	0	28	104	0	60	56406
2026-01-29 13:42:19.47	19.63	0.98	-48.6	-63.8	3.6	1.51e+00	0	28	104	0	60	55681
2026-01-29 13:42:20.47	19.67	1.04	-48.5	-63.7	3.6	1.51e+00	0	28	104	0	60	55178
2026-01-29 13:42:21.49	19.71	1.10	-48.4	-63.6	3.6	1.51e+00	0	28	104	0	60	54553
2026-01-29 13:42:22.49	19.75	1.16	-48.3	-63.5	3.6	1.51e+00	0	28	104	0	60	53799
2026-01-29 13:42:23.50	19.79	1.22	-48.1	-63.4	3.6	1.51e+00	0	28	104	0	60	53302
2026-01-29 13:42:24.51	19.83	1.28	-48.0	-63.2	3.6	1.51e+00	0	28	104	0	60	52479
2026-01-29 13:42:25.52	19.87	1.34	-47.9	-63.1	3.6	1.51e+00	0	28	104	0	60	51501
2026-01-29 13:42:26.53	19.91	1.40	-47.7	-63.0	3.6	1.51e+00	0	28	104	0	60	50810
2026-01-29 13:42:27.54	19.95	1.46	-47.5	-62.6	3.6	1.51e+00	0	28	104	0	60	48970
2026-01-29 13:42:28.55	19.99	1.52	-47.4	-62.5	3.6	1.51e+00	0	28	104	0	60	48383
2026-01-29 13:42:29.56	20.03	1.58	-47.4	-62.6	3.6	1.51e+00	0	28	104	0	60	48572
2026-01-29 13:42:30.57	20.07	1.64	-47.4	-62.5	3.6	1.51e+00	0	28	104	0	60	48051
2026-01-29 13:42:31.58	20.11	1.70	-47.4	-62.4	3.6	1.51e+00	0	28	104	0	60	47644
2026-01-29 13:42:32.59	20.15	1.76	-47.4	-62.4	3.6	1.51e+00	0	28	104	0	60	47457
2026-01-29 13:42:33.60	20.20	1.82	-47.4	-62.5	3.6	1.51e+00	0	28	104	0	60	48234
2026-01-29 13:42:34.61	20.24	1.89	-47.4	-62.5	3.6	1.51e+00	0	28	104	0	60	48025
2026-01-29 13:42:35.62	20.28	1.95	-47.4	-62.5	3.6	1.51e+00	0	28	104	0	60	48199
2026-01-29 13:42:36.63	20.32	2.01	-47.3	-62.5	3.6	1.51e+00	0	28	104	0	60	48123
2026-01-29 13:42:37.63	20.36	2.07	-47.4	-62.5	3.6	1.51e+00	0	28	104	0	60	48188
2026-01-29 13:42:38.64	20.40	2.13	-47.4	-62.5	3.6	1.51e+00	0	28	104	0	60	48298
2026-01-29 13:42:39.65	20.45	2.19	-47.4	-62.5	3.6	1.51e+00	0	28	104	0	60	48214
2026-01-29 13:42:40.66	20.49	2.25	-47.4	-62.5	3.6	1.51e+00	0	28	104	0	60	48360
2026-01-29 13:42:41.67	20.53	2.32	-47.3	-62.4	3.6	1.51e+00	0	28	104	0	60	47849
2026-01-29 13:42:42.68	20.58	2.38	-47.3	-62.4	3.6	1.51e+00	0	28	104	0	60	47488
2026-01-29 13:42:43.69	20.62	2.44	-47.3	-62.1	3.6	1.51e+00	0	28	104	0	60	45776
2026-01-29 13:42:44.70	20.66	2.50	-47.3	-61.7	3.6	1.51e+00	0	28	104	0	60	44174
2026-01-29 13:42:45.71	20.70	2.56	-47.3	-61.5	3.6	1.51e+00	0	28	104	0	60	43186
2026-01-29 13:42:46.72	20.75	2.63	-47.3	-62.1	3.6	1.51e+00	0	28	104	0	60	45924
2026-01-29 13:42:47.73	20.79	2.69	-47.3	-62.4	3.6	1.51e+00	0	28	104	0	60	47385
2026-01-29 13:42:48.74	20.84	2.75	-47.3	-61.3	3.6	1.51e+00	0	28	104	0	60	42207
2026-01-29 13:42:49.75	20.88	2.82	-47.1	-58.6	4.1	1.46e+00	3	28	104	0	60	30829
2026-01-29 13:42:50.76	20.92	2.88	-46.7	-54.0	6.5	7.59e-01	0	28	0	1048576	60	18181
2026-01-29 13:42:51.77	20.97	2.94	-46.0	-51.3	9.7	4.60e-02	0	28	0	3145728	60	13257
2026-01-29 13:42:52.78	21.01	3.00	-45.1	-49.2	12.3	3.88e-03	0	28	0	5242880	60	10399
2026-01-29 13:42:53.79	21.06	3.07	-44.0	-47.0	14.4	3.73e-05	0	28	0	7340032	60	8066
2026-01-29 13:42:54.80	21.10	3.13	-43.4	-46.0	15.5	0.00e+00	0	28	0	8388608	60	7171
2026-01-29 13:42:55.81	21.15	3.20	-42.4	-44.6	16.7	0.00e+00	78	28	0	10485760	58	6875
2026-01-29 13:42:56.82	21.19	3.26	-42.5	-44.6	16.9	0.00e+00	0	28	0	12582912	58	6925
2026-01-29 13:42:57.83	21.24	3.32	-42.3	-44.3	17.2	0.00e+00	75	28	0	14680064	56	7496
2026-01-29 13:42:58.83	21.28	3.39	-42.1	-44.1	17.3	0.00e+00	0	28	0	15728640	56	7332
2026-01-29 13:42:59.85	21.33	3.45	-42.6	-44.8	16.4	0.00e+00	0	28	0	17825792	56	7932
2026-01-29 13:43:00.86	21.38	3.52	-43.3	-45.8	15.7	0.00e+00	48	28	0	19922944	58	7935
2026-01-29 13:43:01.86	21.42	3.58	-44.4	-47.8	13.6	0.00e+00	0	28	0	22020096	60	8847
2026-01-29 13:43:02.88	21.47	3.65	-42.4	-44.4	17.2	0.00e+00	78	28	0	24117248	58	6764
2026-01-29 13:43:03.89	21.51	3.71	-46.3	-53.1	6.0	0.00e+00	0	28	0	25165824	60	16367
2026-01-29 13:43:04.90	21.56	3.77	-47.0	-55.7	4.9	1.53e-03	32	28	0	27262976	60	22004
2026-01-29 13:43:05.90	21.61	3.84	-44.5	-47.8	13.8	1.38e-01	0	28	0	29360128	60	8846
2026-01-29 13:43:06.91	21.65	3.90	-47.4	-62.3	3.6	7.00e-07	0	28	104	30408704	60	47307
2026-01-29 13:43:07.92	21.70	3.97	-43.5	-46.1	6.0	1.48e+00	0	28	104	30408704	60	7327
2026-01-29 13:43:08.94	21.75	4.04	-43.8	-46.6	15.3	0.00e+00	0	28	0	30408704	60	7723
2026-01-29 13:43:09.94	21.80	4.10	-43.4	-46.0	15.7	0.00e+00	78	28	0	32505856	60	7217
2026-01-29 13:43:10.95	21.85	4.17	-42.4	-44.5	17.1	0.00e+00	0	28	0	34603008	58	6818
2026-01-29 13:43:11.96	21.89	4.23	-43.6	-46.3	15.3	0.00e+00	83	28	0	35651584	58	8398
2026-01-29 13:43:12.97	21.94	4.30	-43.0	-45.3	16.4	0.00e+00	0	28	0	37748736	58	7432
2026-01-29 13:43:13.97	21.99	4.36	-43.1	-45.5	16.2	0.00e+00	0	28	0	39845888	58	7642
2026-01-29 13:43:14.98	22.04	4.43	-42.8	-45.1	16.6	0.00e+00	0	28	0	41943040	58	7277
2026-01-29 13:43:15.99	22.09	4.50	-42.6	-44.7	16.8	0.00e+00	0	28	0	44040192	58	6982
2026-01-29 13:43:17.01	22.14	4.56	-42.9	-45.2	16.8	0.00e+00	8	28	0	45088768	58	7394
2026-01-29 13:43:18.02	22.19	4.63	-42.6	-44.7	17.0	0.00e+00	0	28	0	47185920	58	6948
2026-01-29 13:43:19.03	22.23	4.70	-42.6	-44.6	17.3	0.00e+00	79	28	0	49283072	58	6919
2026-01-29 13:43:20.04	22.28	4.77	-42.7	-44.8	17.2	0.00e+00	0	28	0	51380224	58	7040
2026-01-29 13:43:21.05	22.33	4.83	-42.6	-44.7	17.0	0.00e+00	0	28	0	53477376	58	6953
2026-01-29 13:43:22.05	22.38	4.90	-41.8	-43.6	18.1	0.00e+00	0	28	0	54525952	58	6128
2026-01-29 13:43:23.06	22.43	4.97	-41.8	-43.5	18.2	0.00e+00	0	28	0	56623104	56	6835
2026-01-29 13:43:24.07	22.48	5.04	-41.3	-42.9	18.7	0.00e+00	0	28	0	58720256	56	6383
2026-01-29 13:43:25.08	22.53	5.10	-41.5	-43.2	18.4	0.00e+00	0	28	0	60817408	56	6603
2026-01-29 13:43:26.09	22.59	5.17	-41.3	-42.9	18.8	0.00e+00	60	28	0	62914560	56	6361
2026-01-29 13:43:27.10	22.64	5.24	-41.3	-42.9	18.7	0.00e+00	0	28	0	63963136	56	6344
2026-01-29 13:43:28.11	22.69	5.31	-41.2	-42.8	19.0	0.00e+00	36	28	0	66060288	56	6265
2026-01-29 13:43:29.12	22.74	5.38	-41.0	-42.6	19.2	0.00e+00	0	28	0	68157440	56	6106
2026-01-29 13:43:30.13	22.79	5.45	-41.4	-43.0	18.7	0.00e+00	0	28	0	70254592	56	6439
2026-01-29 13:43:31.14	22.84	5.51	-41.0	-42.5	19.2	0.00e+00	0	28	0	72351744	56	6076
2026-01-29 13:43:32.15	22.90	5.58	-41.3	-43.0	18.8	0.00e+00	0	28	0	73400320	56	6395
2026-01-29 13:43:33.16	22.95	5.65	-41.7	-43.4	18.4	0.00e+00	81	28	0	75497472	56	6696
2026-01-29 13:43:34.17	23.00	5.72	-41.7	-43.4	18.1	0.00e+00	30	28	0	77594624	56	6766
2026-01-29 13:43:35.17	23.05	5.79	-41.7	-43.4	18.4	0.00e+00	84	28	0	79691776	56	6717
2026-01-29 13:43:36.18	23.11	5.86	-41.6	-43.2	18.6	0.00e+00	0	28	0	81788928	56	6596
2026-01-29 13:43:37.19	23.16	5.93	-41.2	-42.8	19.0	0.00e+00	0	28	0	83886080	56	6255
2026-01-29 13:43:38.20	23.21	6.00	-41.0	-42.5	19.2	0.00e+00	0	28	0	84934656	56	6056
2026-01-29 13:43:39.21	23.27	6.07	-40.8	-42.3	19.4	0.00e+00	0	28	0	87031808	56	5943
2026-01-29 13:43:40.22	23.32	6.14	-41.1	-42.6	19.2	0.00e+00	56	28	0	89128960	56	6147
2026-01-29 13:43:41.23	23.37	6.21	-41.1	-42.7	19.0	0.00e+00	0	28	0	91226112	56	6208
2026-01-29 13:43:42.24	23.43	6.28	-41.0	-42.6	19.3	0.00e+00	74	28	0	93323264	56	6119
2026-01-29 13:43:43.25	23.48	6.35	-41.1	-42.6	19.2	0.00e+00	0	28	0	94371840	56	6157
2026-01-29 13:43:44.26	23.54	6.42	-40.8	-42.3	19.5	0.00e+00	0	28	0	96468992	56	5951
2026-01-29 13:43:45.27	23.59	6.50	-40.9	-42.4	19.3	0.00e+00	0	28	0	98566144	54	6700
2026-01-29 13:43:46.28	23.65	6.57	-40.8	-42.3	19.5	0.00e+00	0	28	0	100663296	54	6652
2026-01-29 13:43:47.29	23.71	6.64	-40.7	-42.2	19.5	0.00e+00	31	28	0	102760448	54	6584
2026-01-29 13:43:48.30	23.76	6.71	-40.9	-42.3	19.4	0.00e+00	0	28	0	103809024	54	6690
2026-01-29 13:43:49.31	23.82	6.78	-40.6	-42.0	19.6	0.00e+00	84	28	0	105906176	54	6429
2026-01-29 13:43:50.32	23.87	6.85	-40.8	-42.3	19.4	0.00e+00	0	28	0	108003328	54	6669
2026-01-29 13:43:51.32	23.93	6.93	-40.7	-42.2	19.5	0.00e+00	0	28	0	110100480	54	6555
2026-01-29 13:43:52.33	23.99	7.00	-40.7	-42.1	19.6	0.00e+00	0	28	0	112197632	54	6527
2026-01-29 13:43:53.34	24.04	7.07	-40.7	-42.2	19.7	0.00e+00	0	28	0	113246208	54	6566
2026-01-29 13:43:54.35	24.10	7.14	-40.6	-42.0	19.7	0.00e+00	0	28	0	115343360	54	6396
2026-01-29 13:43:55.36	24.16	7.22	-40.7	-42.1	19.7	0.00e+00	0	28	0	117440512	54	6514
2026-01-29 13:43:56.37	24.22	7.29	-40.8	-42.3	19.5	0.00e+00	90	28	0	119537664	54	6652
2026-01-29 13:43:57.38	24.28	7.36	-40.3	-41.7	19.9	0.00e+00	0	28	0	121634816	54	6228
2026-01-29 13:43:58.39	24.34	7.44	-40.5	-41.9	19.9	0.00e+00	0	28	0	122683392	54	6382
2026-01-29 13:43:59.40	24.39	7.51	-40.3	-41.6	20.1	0.00e+00	0	28	0	124780544	54	6150
2026-01-29 13:44:00.40	24.45	7.59	-40.4	-41.8	20.0	0.00e+00	0	28	0	126877696	54	6257
2026-01-29 13:44:01.41	24.51	7.66	-40.2	-41.5	20.2	0.00e+00	0	28	0	128974848	54	6059
2026-01-29 13:44:02.42	24.57	7.73	-40.2	-41.5	20.2	0.00e+00	0	28	0	131072000	54	6087
2026-01-29 13:44:03.43	24.63	7.81	-40.1	-41.4	20.3	0.00e+00	73	28	0	132120576	54	6031
2026-01-29 13:44:04.44	24.69	7.88	-40.0	-41.3	20.4	0.00e+00	0	28	0	134217728	54	5904
2026-01-29 13:44:05.45	24.75	7.96	-39.9	-41.2	20.4	0.00e+00	37	28	0	136314880	54	5880
2026-01-29 13:44:06.46	24.81	8.03	-40.2	-41.5	20.3	0.00e+00	0	28	0	138412032	54	6050
2026-01-29 13:44:07.47	24.87	8.11	-40.0	-41.2	20.4	0.00e+00	0	28	0	140509184	54	5896
2026-01-29 13:44:08.48	24.94	8.18	-40.0	-41.2	20.6	0.00e+00	0	28	0	141557760	54	5885
2026-01-29 13:44:09.49	25.00	8.26	-39.9	-41.2	20.6	0.00e+00	0	28	0	143654912	52	6559
2026-01-29 13:44:10.50	25.06	8.34	-39.8	-41.0	20.8	0.00e+00	75	28	0	145752064	52	6419
2026-01-29 13:44:11.51	25.12	8.41	-39.6	-40.8	20.9	0.00e+00	0	28	0	147849216	52	6315
2026-01-29 13:44:12.52	25.18	8.49	-39.7	-40.9	20.8	0.00e+00	88	28	0	149946368	52	6361
2026-01-29 13:44:13.53	25.25	8.57	-39.7	-40.9	20.7	0.00e+00	0	28	0	150994944	52	6367
2026-01-29 13:44:14.54	25.31	8.64	-39.5	-40.6	21.0	0.00e+00	0	28	0	153092096	52	6173
2026-01-29 13:44:15.55	25.37	8.72	-39.4	-40.6	21.1	0.00e+00	0	28	0	155189248	52	6147
2026-01-29 13:44:16.55	25.44	8.80	-39.5	-40.7	21.1	0.00e+00	0	28	0	157286400	52	6224
2026-01-29 13:44:17.56	25.50	8.87	-39.3	-40.4	21.2	0.00e+00	77	28	0	159383552	52	6029
2026-01-29 13:44:18.57	25.57	8.95	-39.3	-40.5	21.3	0.00e+00	0	28	0	160432128	52	6045
2026-01-29 13:44:19.58	25.63	9.03	-39.5	-40.7	21.0	0.00e+00	78	28	0	162529280	52	6197
2026-01-29 13:44:20.59	25.70	9.11	-39.4	-40.5	21.3	0.00e+00	0	28	0	164626432	52	6080
2026-01-29 13:44:21.60	25.76	9.19	-39.0	-40.1	21.5	0.00e+00	0	28	0	166723584	52	5821
2026-01-29 13:44:22.61	25.83	9.26	-39.1	-40.2	21.4	0.00e+00	0	28	0	168820736	52	5888
2026-01-29 13:44:23.62	25.89	9.34	-39.0	-40.1	21.5	0.00e+00	0	28	0	169869312	52	5803
2026-01-29 13:44:24.63	25.96	9.42	-39.0	-40.1	21.7	0.00e+00	2	28	0	171966464	52	5775
2026-01-29 13:44:25.64	26.03	9.50	-38.9	-40.0	21.7	0.00e+00	0	28	0	174063616	52	5737
2026-01-29 13:44:26.65	26.09	9.58	-38.6	-39.7	21.9	0.00e+00	65	28	0	176160768	50	6201
2026-01-29 13:44:27.66	26.16	9.66	-38.8	-39.9	21.8	0.00e+00	0	28	0	178257920	50	6336
2026-01-29 13:44:28.67	26.23	9.74	-38.8	-39.9	21.8	0.00e+00	0	28	0	180355072	50	6332
2026-01-29 13:44:29.68	26.30	9.82	-38.6	-39.7	21.9	0.00e+00	0	28	0	181403648	50	6178
2026-01-29 13:44:30.69	26.37	9.90	-38.8	-39.8	21.9	0.00e+00	0	28	0	183500800	50	6307
2026-01-29 13:44:31.69	26.43	9.98	-38.6	-39.6	22.0	0.00e+00	79	28	0	185597952	50	6156
2026-01-29 13:44:32.71	26.50	10.06	-38.6	-39.6	22.0	0.00e+00	0	28	0	187695104	50	6162
2026-01-29 13:44:33.71	26.57	10.14	-38.6	-39.6	22.1	0.00e+00	78	29	0	189792256	50	6131
2026-01-29 13:44:34.72	26.64	10.22	-38.6	-39.6	22.1	0.00e+00	0	28	0	190840832	50	6148
2026-01-29 13:44:35.73	26.71	10.30	-38.5	-39.5	22.0	0.00e+00	55	28	0	192937984	50	6097
2026-01-29 13:44:36.74	26.78	10.39	-38.5	-39.5	22.1	0.00e+00	0	28	0	195035136	50	6079
2026-01-29 13:44:37.75	26.85	10.47	-38.6	-39.6	22.1	0.00e+00	0	28	0	197132288	50	6125
2026-01-29 13:44:38.76	26.93	10.55	-38.5	-39.5	22.1	0.00e+00	72	28	0	199229440	50	6096
2026-01-29 13:44:39.77	27.00	10.63	-38.3	-39.3	22.4	0.00e+00	0	28	0	200278016	50	5908
2026-01-29 13:44:40.77	27.07	10.71	-38.4	-39.4	22.2	0.00e+00	56	28	0	202375168	50	6003
2026-01-29 13:44:41.78	27.14	10.80	-38.4	-39.5	22.2	0.00e+00	0	28	0	204472320	50	6046
2026-01-29 13:44:42.79	27.21	10.88	-38.4	-39.5	22.1	0.00e+00	0	28	0	206569472	50	6046
2026-01-29 13:44:43.80	27.29	10.96	-38.6	-39.6	22.1	0.00e+00	0	28	0	208666624	50	6158
2026-01-29 13:44:44.81	27.36	11.05	-38.5	-39.6	22.2	0.00e+00	0	29	0	209715200	50	6114
2026-01-29 13:44:45.82	27.43	11.13	-38.4	-39.4	22.2	0.00e+00	0	28	0	211812352	50	6009
2026-01-29 13:44:46.83	27.51	11.22	-38.4	-39.4	22.3	0.00e+00	0	28	0	213909504	50	6004
2026-01-29 13:44:47.84	27.58	11.30	-38.3	-39.3	22.3	0.00e+00	84	28	0	216006656	50	5953
2026-01-29 13:44:48.85	27.66	11.38	-38.6	-39.7	22.1	0.00e+00	0	28	0	218103808	50	6175
2026-01-29 13:44:49.85	27.73	11.47	-38.3	-39.3	22.3	0.00e+00	85	28	0	219152384	50	5930
2026-01-29 13:44:50.86	27.81	11.55	-38.4	-39.4	22.2	0.00e+00	0	28	0	221249536	50	6027
2026-01-29 13:44:51.87	27.89	11.64	-38.5	-39.5	22.3	0.00e+00	0	28	0	223346688	50	6068
2026-01-29 13:44:52.88	27.96	11.73	-38.4	-39.5	22.1	0.00e+00	0	28	0	225443840	50	6065
2026-01-29 13:44:53.89	28.04	11.81	-38.5	-39.5	22.2	0.00e+00	0	28	0	227540992	50	6098
2026-01-29 13:44:54.90	28.12	11.90	-38.5	-39.6	22.1	0.00e+00	14	29	0	228589568	50	6129
2026-01-29 13:44:55.91	28.20	11.98	-38.8	-39.9	22.0	0.00e+00	0	28	0	230686720	50	6324
2026-01-29 13:44:56.92	28.28	12.07	-38.4	-39.5	22.3	0.00e+00	84	28	0	232783872	50	6051
2026-01-29 13:44:57.93	28.35	12.16	-38.5	-39.5	22.2	0.00e+00	0	28	0	234881024	50	6095
2026-01-29 13:44:58.93	28.43	12.24	-38.4	-39.4	22.3	0.00e+00	0	28	0	236978176	50	5993
2026-01-29 13:44:59.95	28.51	12.33	-38.5	-39.5	22.1	0.00e+00	0	28	0	238026752	50	6100
2026-01-29 13:45:00.96	28.59	12.42	-38.4	-39.5	22.3	0.00e+00	0	29	0	240123904	50	6046
2026-01-29 13:45:01.97	28.68	12.51	-38.5	-39.5	22.2	0.00e+00	0	29	0	242221056	50	6097
2026-01-29 13:45:02.97	28.76	12.60	-38.3	-39.4	22.4	0.00e+00	0	28	0	244318208	50	5968
2026-01-29 13:45:03.98	28.84	12.68	-38.2	-39.2	22.4	0.00e+00	78	28	0	246415360	50	5864
2026-01-29 13:45:04.99	28.92	12.77	-38.2	-39.2	22.5	0.00e+00	0	28	0	248512512	50	5878
2026-01-29 13:45:06.00	29.00	12.86	-38.3	-39.3	22.4	0.00e+00	0	28	0	249561088	50	5947
2026-01-29 13:45:07.01	29.09	12.95	-38.3	-39.4	22.5	0.00e+00	0	28	0	251658240	50	5967
2026-01-29 13:45:08.02	29.17	13.04	-38.3	-39.3	22.5	0.00e+00	0	28	0	253755392	50	5907
2026-01-29 13:45:09.03	29.25	13.13	-38.3	-39.3	22.4	0.00e+00	0	28	0	255852544	50	5933
2026-01-29 13:45:10.04	29.34	13.22	-38.3	-39.3	22.3	0.00e+00	0	28	0	256901120	50	5950
2026-01-29 13:45:11.05	29.42	13.31	-38.4	-39.4	22.3	0.00e+00	87	28	0	258998272	50	6014
2026-01-29 13:45:12.05	29.51	13.40	-38.2	-39.2	22.6	0.00e+00	0	28	0	261095424	50	5859
2026-01-29 13:45:13.06	29.59	13.49	-38.4	-39.4	22.4	0.00e+00	0	28	0	263192576	50	6001
2026-01-29 13:45:14.07	29.68	13.58	-38.3	-39.3	22.5	0.00e+00	0	28	0	265289728	50	5923
2026-01-29 13:45:15.08	29.77	13.68	-38.4	-39.5	22.3	0.00e+00	0	28	0	266338304	50	6043
2026-01-29 13:45:16.09	29.86	13.77	-38.4	-39.4	22.3	0.00e+00	0	28	0	268435456	50	6023
2026-01-29 13:45:17.10	29.94	13.86	-38.0	-39.0	22.7	0.00e+00	0	28	0	270532608	50	5723
2026-01-29 13:45:18.11	30.03	13.95	-38.0	-39.0	22.6	0.00e+00	91	28	0	272629760	50	5727
2026-01-29 13:45:19.12	30.12	14.05	-38.3	-39.3	22.5	0.00e+00	0	28	0	274726912	50	5917
2026-01-29 13:45:20.12	30.21	14.14	-38.1	-39.1	22.6	0.00e+00	92	28	0	276824064	50	5816
2026-01-29 13:45:21.13	30.30	14.23	-38.1	-39.1	22.7	0.00e+00	0	28	0	277872640	50	5778
2026-01-29 13:45:22.14	30.39	14.32	-38.3	-39.3	22.5	0.00e+00	0	28	0	279969792	50	5927
2026-01-29 13:45:23.15	30.48	14.42	-38.1	-39.1	22.6	0.00e+00	0	28	0	282066944	50	5797
2026-01-29 13:45:24.16	30.57	14.51	-38.0	-39.0	22.8	0.00e+00	0	29	0	284164096	50	5749
2026-01-29 13:45:25.17	30.67	14.61	-38.1	-39.1	22.6	0.00e+00	23	29	0	286261248	50	5814
2026-01-29 13:45:26.18	30.76	14.70	-38.1	-39.1	22.6	0.00e+00	0	29	0	287309824	50	5768
2026-01-29 13:45:27.19	30.85	14.80	-38.0	-39.0	22.7	0.00e+00	92	29	0	289406976	50	5722
2026-01-29 13:45:28.20	30.95	14.89	-37.9	-38.9	22.9	0.00e+00	0	29	0	291504128	50	5663
2026-01-29 13:45:29.20	31.04	14.99	-38.2	-39.2	22.6	0.00e+00	0	29	0	293601280	50	5891
2026-01-29 13:45:30.22	31.14	15.09	-38.2	-39.2	22.7	0.00e+00	0	28	0	295698432	50	5880
2026-01-29 13:45:31.22	31.23	15.18	-38.0	-39.0	22.7	0.00e+00	0	29	0	296747008	50	5718
2026-01-29 13:45:32.23	31.33	15.28	-38.2	-39.2	22.6	0.00e+00	73	29	0	298844160	50	5859
2026-01-29 13:45:33.25	31.43	15.38	-37.9	-38.9	22.8	0.00e+00	0	28	0	300941312	50	5675
2026-01-29 13:45:34.26	31.52	15.47	-38.1	-39.1	22.7	0.00e+00	90	29	0	303038464	50	5769
2026-01-29 13:45:35.27	31.62	15.57	-38.0	-38.9	22.8	0.00e+00	0	29	0	305135616	50	5690
2026-01-29 13:45:36.27	31.72	15.67	-37.8	-38.8	22.9	0.00e+00	0	29	0	306184192	50	5603
2026-01-29 13:45:37.28	31.82	15.77	-37.9	-38.8	22.9	0.00e+00	0	29	0	308281344	48	6292
2026-01-29 13:45:38.29	31.92	15.87	-37.9	-38.9	22.9	0.00e+00	0	28	0	310378496	48	6340
2026-01-29 13:45:39.30	32.02	15.96	-37.9	-38.9	22.7	0.00e+00	72	28	0	312475648	48	6344
2026-01-29 13:45:40.30	32.12	16.06	-37.8	-38.8	22.9	0.00e+00	0	28	0	314572800	48	6283
2026-01-29 13:45:41.31	32.22	16.16	-37.6	-38.6	23.1	0.00e+00	92	29	0	315621376	48	6129
2026-01-29 13:45:42.32	32.33	16.26	-37.7	-38.6	23.1	0.00e+00	0	28	0	317718528	48	6165
2026-01-29 13:45:43.33	32.43	16.36	-37.8	-38.7	23.0	0.00e+00	92	28	0	319815680	48	6216
2026-01-29 13:45:44.34	32.53	16.46	-38.1	-39.1	22.8	0.00e+00	0	28	0	321912832	48	6488
2026-01-29 13:45:45.35	32.64	16.56	-38.1	-39.0	22.7	0.00e+00	0	28	0	324009984	48	6439
2026-01-29 13:45:46.36	32.74	16.67	-38.1	-39.1	22.7	0.00e+00	0	29	0	325058560	48	6504
2026-01-29 13:45:47.37	32.85	16.77	-38.3	-39.3	22.7	0.00e+00	0	29	0	327155712	48	6663
2026-01-29 13:45:48.38	32.96	16.87	-38.1	-39.1	22.8	0.00e+00	69	28	0	329252864	48	6478
2026-01-29 13:45:49.39	33.06	16.97	-38.2	-39.2	22.6	0.00e+00	0	28	0	331350016	48	6575
2026-01-29 13:45:50.40	33.17	17.07	-38.1	-39.1	22.7	0.00e+00	92	29	0	333447168	48	6501
2026-01-29 13:45:51.41	33.28	17.18	-38.1	-39.1	22.6	0.00e+00	0	28	0	334495744	48	6514
2026-01-29 13:45:52.42	33.39	17.28	-38.4	-39.4	22.5	0.00e+00	0	29	0	336592896	48	6716
2026-01-29 13:45:53.43	33.50	17.38	-38.3	-39.4	22.5	0.00e+00	0	29	0	338690048	48	6708
2026-01-29 13:45:54.44	33.61	17.49	-38.5	-39.5	22.4	0.00e+00	0	29	0	340787200	48	6799
2026-01-29 13:45:55.45	33.72	17.59	-38.3	-39.3	22.6	0.00e+00	33	28	0	342884352	48	6629
2026-01-29 13:45:56.46	33.83	17.70	-38.3	-39.3	22.5	0.00e+00	0	29	0	344981504	48	6640
2026-01-29 13:45:57.47	33.95	17.80	-38.5	-39.6	22.3	0.00e+00	92	29	0	346030080	48	6874
2026-01-29 13:45:58.48	34.06	17.91	-38.6	-39.7	22.0	0.00e+00	0	28	0	348127232	48	6970
2026-01-29 13:45:59.48	34.18	18.01	-38.9	-40.0	21.8	0.00e+00	0	28	0	350224384	50	6442
2026-01-29 13:46:00.49	34.29	18.12	-38.9	-40.0	21.9	0.00e+00	0	29	0	352321536	50	6427
2026-01-29 13:46:01.50	34.41	18.23	-38.9	-40.0	22.1	0.00e+00	0	28	0	354418688	50	6437
2026-01-29 13:46:02.51	34.52	18.33	-38.9	-40.0	22.1	0.00e+00	0	29	0	355467264	50	6418
2026-01-29 13:46:03.52	34.64	18.44	-39.1	-40.2	21.7	0.00e+00	0	29	0	357564416	50	6552
2026-01-29 13:46:04.53	34.76	18.55	-39.5	-40.7	21.5	0.00e+00	60	29	0	359661568	50	6935
2026-01-29 13:46:05.54	34.88	18.66	-39.5	-40.7	21.4	0.00e+00	0	29	0	361758720	52	6195
2026-01-29 13:46:06.55	35.00	18.76	-39.3	-40.4	21.7	0.00e+00	0	29	0	363855872	52	6011
2026-01-29 13:46:07.56	35.12	18.87	-39.2	-40.4	21.7	0.00e+00	0	29	0	364904448	52	5976
2026-01-29 13:46:08.57	35.24	18.98	-39.4	-40.5	21.7	0.00e+00	0	29	0	367001600	52	6102
2026-01-29 13:46:09.58	35.37	19.09	-39.1	-40.2	22.0	0.00e+00	0	29	0	369098752	52	5867
2026-01-29 13:46:10.59	35.49	19.20	-38.9	-40.0	22.0	0.00e+00	0	28	0	371195904	52	5738
2026-01-29 13:46:11.60	35.61	19.31	-39.0	-40.1	21.9	0.00e+00	57	29	0	373293056	52	5818
2026-01-29 13:46:12.61	35.74	19.42	-38.7	-39.8	22.2	0.00e+00	0	28	0	374341632	52	5587
2026-01-29 13:46:13.62	35.87	19.53	-38.7	-39.7	22.3	0.00e+00	0	29	0	376438784	50	6216
2026-01-29 13:46:14.63	35.99	19.64	-38.7	-39.8	22.2	0.00e+00	0	29	0	378535936	50	6257
2026-01-29 13:46:15.64	36.12	19.75	-39.0	-40.0	22.0	0.00e+00	0	29	0	380633088	50	6455
2026-01-29 13:46:16.65	36.25	19.87	-38.7	-39.7	22.3	0.00e+00	81	29	0	382730240	50	6243
2026-01-29 13:46:17.65	36.38	19.98	-38.8	-39.9	22.0	0.00e+00	0	28	0	383778816	50	6366
2026-01-29 13:46:18.67	36.51	20.09	-38.8	-39.8	22.2	0.00e+00	78	29	0	385875968	50	6313
2026-01-29 13:46:19.67	36.64	20.20	-38.8	-39.9	22.2	0.00e+00	0	29	0	387973120	50	6349
2026-01-29 13:46:20.68	36.77	20.32	-38.7	-39.8	22.2	0.00e+00	86	28	0	390070272	50	6266
2026-01-29 13:46:21.69	36.91	20.43	-38.7	-39.7	22.3	0.00e+00	0	28	0	392167424	50	6196
2026-01-29 13:46:22.70	37.04	20.54	-38.5	-39.5	22.3	0.00e+00	0	29	0	393216000	50	6057
2026-01-29 13:46:23.71	37.18	20.66	-38.6	-39.6	22.3	0.00e+00	0	29	0	395313152	50	6159
2026-01-29 13:46:24.72	37.31	20.77	-39.0	-40.0	22.0	0.00e+00	0	29	0	397410304	50	6460
2026-01-29 13:46:25.73	37.45	20.89	-38.7	-39.8	22.1	0.00e+00	77	29	0	399507456	50	6258
2026-01-29 13:46:26.74	37.59	21.00	-39.1	-40.2	21.8	0.00e+00	0	29	0	401604608	50	6550
2026-01-29 13:46:27.75	37.73	21.12	-39.0	-40.0	22.0	0.00e+00	51	29	0	402653184	50	6430
2026-01-29 13:46:28.76	37.87	21.24	-38.7	-39.8	22.2	0.00e+00	0	29	0	404750336	50	6258
2026-01-29 13:46:29.76	38.01	21.35	-39.0	-40.1	22.0	0.00e+00	0	28	0	406847488	50	6492
2026-01-29 13:46:30.77	38.15	21.47	-39.1	-40.1	22.1	0.00e+00	0	29	0	408944640	50	6525
2026-01-29 13:46:31.78	38.29	21.59	-38.7	-39.7	22.4	0.00e+00	0	29	0	411041792	50	6188
2026-01-29 13:46:32.79	38.44	21.70	-38.6	-39.6	22.4	0.00e+00	44	29	0	413138944	50	6162
2026-01-29 13:46:33.80	38.58	21.82	-38.2	-39.2	22.8	0.00e+00	0	29	0	414187520	50	5849
2026-01-29 13:46:34.81	38.73	21.94	-38.2	-39.2	22.8	0.00e+00	83	29	0	416284672	50	5840
2026-01-29 13:46:35.82	38.88	22.06	-38.2	-39.1	22.9	0.00e+00	0	29	0	418381824	50	5815
2026-01-29 13:46:36.83	39.03	22.18	-37.9	-38.8	23.0	0.00e+00	0	29	0	420478976	50	5628
2026-01-29 13:46:37.84	39.18	22.30	-37.8	-38.7	23.3	0.00e+00	0	29	0	422576128	48	6212
2026-01-29 13:46:38.85	39.33	22.42	-37.6	-38.5	23.3	0.00e+00	0	29	0	423624704	48	6083
2026-01-29 13:46:39.86	39.48	22.54	-37.5	-38.4	23.4	0.00e+00	0	29	0	425721856	48	6026
2026-01-29 13:46:40.87	39.64	22.66	-37.4	-38.3	23.4	0.00e+00	0	29	0	427819008	48	5911
2026-01-29 13:46:41.88	39.79	22.78	-37.5	-38.4	23.4	0.00e+00	63	29	0	429916160	48	5998
2026-01-29 13:46:42.88	39.94	22.90	-37.2	-38.0	23.7	0.00e+00	0	29	0	430964736	48	5756
2026-01-29 13:46:43.89	40.10	23.02	-37.3	-38.2	23.5	0.00e+00	0	28	0	433061888	48	5885
2026-01-29 13:46:44.90	40.26	23.15	-37.8	-38.7	23.3	0.00e+00	0	28	0	435159040	48	6192
2026-01-29 13:46:45.91	40.42	23.27	-37.7	-38.6	23.2	0.00e+00	0	29	0	437256192	48	6122
2026-01-29 13:46:46.92	40.58	23.39	-37.8	-38.8	23.0	0.00e+00	0	29	0	439353344	48	6266
2026-01-29 13:46:47.93	40.74	23.51	-38.1	-39.1	22.8	0.00e+00	0	29	0	441450496	48	6506
2026-01-29 13:46:48.94	40.90	23.64	-38.1	-39.0	22.7	0.00e+00	69	29	0	442499072	48	6459
2026-01-29 13:46:49.95	41.07	23.76	-38.3	-39.3	22.1	0.00e+00	0	29	0	444596224	48	6642
2026-01-29 13:46:50.96	41.23	23.89	-38.3	-39.2	22.6	0.00e+00	0	29	0	446693376	48	6597
2026-01-29 13:46:51.97	41.40	24.01	-38.1	-39.1	22.8	0.00e+00	0	29	0	448790528	48	6492
2026-01-29 13:46:52.98	41.57	24.14	-38.1	-39.1	22.8	0.00e+00	0	29	0	450887680	48	6499
2026-01-29 13:46:53.99	41.74	24.26	-37.8	-38.7	23.2	0.00e+00	56	29	0	451936256	48	6241
2026-01-29 13:46:55.00	41.91	24.39	-37.5	-38.4	23.5	0.00e+00	0	29	0	454033408	48	5965
2026-01-29 13:46:56.00	42.08	24.51	-37.6	-38.5	23.4	0.00e+00	84	29	0	456130560	48	6074
2026-01-29 13:46:57.01	42.25	24.64	-37.5	-38.4	23.4	0.00e+00	0	29	0	458227712	48	6010
2026-01-29 13:46:58.02	42.43	24.77	-37.4	-38.3	23.6	0.00e+00	89	29	0	460324864	48	5932
2026-01-29 13:46:59.03	42.60	24.89	-37.8	-38.7	23.2	0.00e+00	0	29	0	461373440	48	6242
2026-01-29 13:47:00.04	42.78	25.02	-37.9	-38.8	23.0	0.00e+00	0	29	0	463470592	48	6284
2026-01-29 13:47:01.05	42.96	25.15	-37.8	-38.7	23.1	0.00e+00	16	28	0	465567744	48	6199
2026-01-29 13:47:02.06	43.14	25.28	-38.4	-39.4	22.6	0.00e+00	0	29	0	467664896	48	6713
2026-01-29 13:47:03.07	43.32	25.41	-38.4	-39.4	22.6	0.00e+00	60	29	0	469762048	48	6694
2026-01-29 13:47:04.08	43.51	25.53	-38.5	-39.5	22.1	0.00e+00	0	29	0	470810624	48	6830
2026-01-29 13:47:05.09	43.69	25.66	-38.7	-39.7	22.3	0.00e+00	67	29	0	472907776	50	6192
2026-01-29 13:47:06.10	43.88	25.79	-38.2	-39.1	22.9	0.00e+00	0	29	0	475004928	50	5811
2026-01-29 13:47:07.11	44.06	25.92	-38.1	-39.1	22.9	0.00e+00	0	29	0	477102080	50	5777
2026-01-29 13:47:08.12	44.25	26.05	-38.2	-39.1	22.8	0.00e+00	0	29	0	479199232	50	5821
2026-01-29 13:47:09.13	44.44	26.18	-37.8	-38.7	23.1	0.00e+00	0	29	0	480247808	50	5506
2026-01-29 13:47:10.14	44.64	26.31	-37.8	-38.7	23.2	0.00e+00	16	29	0	482344960	48	6181
2026-01-29 13:47:11.15	44.83	26.45	-37.9	-38.9	23.1	0.00e+00	0	29	0	484442112	48	6320
2026-01-29 13:47:12.16	45.03	26.58	-37.7	-38.6	23.2	0.00e+00	84	29	0	486539264	48	6105
2026-01-29 13:47:13.16	45.22	26.71	-38.2	-39.1	22.8	0.00e+00	0	29	0	488636416	48	6528
2026-01-29 13:47:14.17	45.42	26.84	-38.4	-39.4	22.6	0.00e+00	29	29	0	489684992	48	6737
2026-01-29 13:47:15.18	45.62	26.97	-38.7	-39.7	22.5	0.00e+00	0	29	0	491782144	48	6990
2026-01-29 13:47:16.19	45.82	27.10	-38.4	-39.4	22.6	0.00e+00	0	29	0	493879296	48	6736
2026-01-29 13:47:17.20	46.03	27.24	-38.8	-39.8	22.5	0.00e+00	0	29	0	495976448	50	6264
2026-01-29 13:47:18.21	46.23	27.37	-38.8	-39.9	22.4	0.00e+00	0	29	0	498073600	50	6322
2026-01-29 13:47:19.22	46.44	27.50	-38.6	-39.5	22.5	0.00e+00	82	29	0	499122176	50	6090
2026-01-29 13:47:20.23	46.65	27.64	-38.5	-39.4	22.6	0.00e+00	0	29	0	501219328	50	6023
2026-01-29 13:47:21.24	46.86	27.77	-38.2	-39.2	22.9	0.00e+00	56	29	0	503316480	50	5852
2026-01-29 13:47:22.25	47.07	27.91	-38.0	-38.9	23.0	0.00e+00	0	29	0	505413632	50	5650
2026-01-29 13:47:23.26	47.28	28.04	-37.4	-38.3	23.1	0.00e+00	0	29	0	507510784	48	5917
2026-01-29 13:47:24.27	47.50	28.17	-37.7	-38.5	22.6	0.00e+00	0	29	0	509607936	48	6103
2026-01-29 13:47:25.28	47.71	28.31	-37.9	-38.8	23.1	0.00e+00	0	28	0	510656512	48	6254
2026-01-29 13:47:26.28	47.93	28.44	-38.1	-39.0	23.0	0.00e+00	85	29	0	512753664	48	6415
2026-01-29 13:47:27.29	48.15	28.58	-38.4	-39.3	22.7	0.00e+00	0	28	0	514850816	48	6684
2026-01-29 13:47:28.30	48.37	28.71	-38.6	-39.6	22.5	0.00e+00	0	29	0	516947968	48	6874
2026-01-29 13:47:29.32	48.60	28.85	-38.7	-39.7	22.4	0.00e+00	0	29	0	519045120	50	6188
2026-01-29 13:47:30.32	48.83	28.99	-38.7	-39.7	22.2	0.00e+00	0	29	0	520093696	50	6220
2026-01-29 13:47:31.33	49.05	29.12	-38.6	-39.6	22.6	0.00e+00	0	29	0	522190848	50	6109
2026-01-29 13:47:32.34	49.28	29.26	-38.4	-39.3	22.7	0.00e+00	0	29	0	524288000	50	5960
2026-01-29 13:47:33.35	49.52	29.39	-38.4	-39.3	22.5	0.00e+00	72	29	0	526385152	50	5953
2026-01-29 13:47:34.36	49.75	29.53	-38.3	-39.2	22.6	0.00e+00	0	29	0	528482304	50	5869
2026-01-29 13:47:35.37	49.99	29.67	-38.7	-39.7	22.4	0.00e+00	80	28	0	529530880	50	6237
2026-01-29 13:47:36.37	50.22	29.80	-38.5	-39.5	22.7	0.00e+00	0	29	0	531628032	50	6039
2026-01-29 13:47:37.38	50.46	29.94	-39.1	-40.1	22.0	0.00e+00	0	29	0	533725184	50	6539
2026-01-29 13:47:38.39	50.70	30.08	-39.0	-40.0	22.1	0.00e+00	0	29	0	535822336	50	6432
2026-01-29 13:47:39.40	50.95	30.21	-39.0	-40.0	22.2	0.00e+00	0	29	0	537919488	50	6458
2026-01-29 13:47:40.41	51.19	30.35	-38.9	-40.0	22.2	0.00e+00	74	28	0	538968064	50	6401
2026-01-29 13:47:41.42	51.44	30.49	-38.6	-39.6	22.5	0.00e+00	0	29	0	541065216	50	6144
2026-01-29 13:47:42.43	51.69	30.63	-38.5	-39.5	22.6	0.00e+00	85	29	0	543162368	50	6053
2026-01-29 13:47:43.44	51.94	30.76	-38.5	-39.5	22.8	0.00e+00	0	29	0	545259520	50	6076
2026-01-29 13:47:44.45	52.20	30.90	-38.4	-39.3	22.8	0.00e+00	0	29	0	547356672	50	5951
2026-01-29 13:47:45.46	52.45	31.04	-38.6	-39.5	22.6	0.00e+00	0	29	0	548405248	50	6093
2026-01-29 13:47:46.46	52.71	31.18	-38.7	-39.7	22.4	0.00e+00	0	29	0	550502400	50	6181
2026-01-29 13:47:47.47	52.97	31.31	-38.7	-39.6	22.5	0.00e+00	87	29	0	552599552	50	6149
2026-01-29 13:47:48.48	53.23	31.45	-39.1	-40.1	22.1	0.00e+00	0	29	0	554696704	50	6495
2026-01-29 13:47:49.49	53.50	31.59	-39.2	-40.2	22.1	0.00e+00	92	29	0	556793856	50	6555
2026-01-29 13:47:50.50	53.77	31.73	-40.0	-41.1	21.1	0.00e+00	0	29	0	557842432	52	6537
2026-01-29 13:47:51.51	54.04	31.87	-40.9	-42.2	20.1	0.00e+00	0	29	0	559939584	54	6585
2026-01-29 13:47:52.52	54.31	32.00	-41.7	-43.2	19.5	0.00e+00	0	29	0	562036736	54	7389
2026-01-29 13:47:53.53	54.58	32.14	-42.1	-43.7	18.8	0.00e+00	0	29	0	564133888	56	6957
2026-01-29 13:47:54.54	54.86	32.28	-42.7	-44.5	18.2	0.00e+00	81	29	0	566231040	56	7646
2026-01-29 13:47:55.55	55.14	32.42	-42.2	-43.8	18.9	0.00e+00	0	29	0	567279616	58	6258
2026-01-29 13:47:56.56	55.42	32.55	-41.4	-42.7	19.9	0.00e+00	84	29	0	569376768	56	6236
2026-01-29 13:47:57.56	55.70	32.69	-41.0	-42.3	20.4	0.00e+00	0	29	0	571473920	56	5956
2026-01-29 13:47:58.57	55.99	32.83	-40.8	-42.0	20.7	0.00e+00	0	29	0	573571072	54	6436
2026-01-29 13:47:59.58	56.27	32.96	-40.6	-41.8	20.6	0.00e+00	0	29	0	575668224	54	6312
2026-01-29 13:48:00.59	56.56	33.10	-40.6	-41.8	20.5	0.00e+00	0	29	0	577765376	54	6299
2026-01-29 13:48:01.60	56.86	33.24	-41.5	-42.9	19.8	0.00e+00	65	28	0	578813952	54	7121
2026-01-29 13:48:02.60	57.15	33.37	-41.8	-43.2	19.5	0.00e+00	0	28	0	580911104	56	6592
2026-01-29 13:48:03.61	57.45	33.51	-41.8	-43.3	19.5	0.00e+00	80	29	0	583008256	56	6637
2026-01-29 13:48:04.62	57.75	33.64	-41.7	-43.1	19.6	0.00e+00	2	29	0	585105408	56	6534
2026-01-29 13:48:05.63	58.05	33.78	-41.8	-43.3	19.4	0.00e+00	81	28	0	586153984	56	6645
2026-01-29 13:48:06.64	58.36	33.92	-41.4	-42.8	19.7	0.00e+00	0	28	0	588251136	56	6312
2026-01-29 13:48:07.65	58.66	34.05	-41.8	-43.3	19.5	0.00e+00	0	29	0	590348288	56	6678
2026-01-29 13:48:08.66	58.97	34.19	-41.9	-43.4	19.1	0.00e+00	32	28	0	592445440	56	6768
2026-01-29 13:48:09.66	59.28	34.32	-41.8	-43.4	19.4	0.00e+00	0	29	0	594542592	56	6699
2026-01-29 13:48:10.68	59.60	34.45	-41.9	-43.4	19.3	0.00e+00	6	28	0	595591168	56	6739
2026-01-29 13:48:11.68	59.92	34.59	-41.5	-43.0	19.5	0.00e+00	0	29	0	597688320	56	6396
2026-01-29 13:48:12.69	60.24	34.72	-42.0	-43.5	18.9	0.00e+00	81	29	0	599785472	56	6811
2026-01-29 13:48:13.70	60.56	34.85	-42.4	-43.9	18.8	0.00e+00	0	29	0	601882624	56	7163
2026-01-29 13:48:14.71	60.89	34.99	-42.5	-44.2	18.5	0.00e+00	0	29	0	603979776	58	6582
2026-01-29 13:48:15.72	61.21	35.12	-42.4	-44.0	18.9	0.00e+00	0	29	0	606076928	58	6445
2026-01-29 13:48:16.73	61.55	35.25	-42.0	-43.5	18.8	0.00e+00	0	29	0	607125504	58	6094
2026-01-29 13:48:17.74	61.88	35.38	-41.9	-43.4	19.3	0.00e+00	0	29	0	609222656	56	6711
2026-01-29 13:48:18.75	62.22	35.51	-41.7	-43.1	19.6	0.00e+00	0	29	0	611319808	56	6522
2026-01-29 13:48:19.76	62.55	35.64	-41.3	-42.6	20.0	0.00e+00	85	29	0	613416960	56	6113
2026-01-29 13:48:20.77	62.90	35.77	-41.8	-43.2	19.6	0.00e+00	0	29	0	615514112	56	6572
2026-01-29 13:48:21.78	63.24	35.90	-41.4	-42.8	19.8	0.00e+00	0	29	0	616562688	56	6287
2026-01-29 13:48:22.78	63.58	36.03	-41.6	-43.0	19.7	0.00e+00	0	29	0	618659840	56	6402
2026-01-29 13:48:23.80	63.94	36.15	-41.9	-43.3	19.2	0.00e+00	0	29	0	620756992	56	6684
2026-01-29 13:48:24.80	64.29	36.28	-41.7	-43.1	19.5	0.00e+00	4	29	0	622854144	56	6520
2026-01-29 13:48:25.81	64.64	36.41	-41.2	-42.4	20.0	0.00e+00	0	29	0	624951296	56	6033
2026-01-29 13:48:26.82	65.00	36.53	-40.6	-41.8	20.6	0.00e+00	81	29	0	625999872	54	6301
2026-01-29 13:48:27.83	65.36	36.66	-40.4	-41.6	20.8	0.00e+00	0	29	0	628097024	54	6125
2026-01-29 13:48:28.84	65.72	36.78	-40.5	-41.8	20.6	0.00e+00	0	29	0	630194176	54	6254
2026-01-29 13:48:29.85	66.09	36.90	-40.1	-41.2	20.6	0.00e+00	0	28	0	632291328	54	5889
2026-01-29 13:48:30.86	66.46	37.03	-40.9	-42.2	20.3	0.00e+00	0	29	0	634388480	54	6593
2026-01-29 13:48:31.87	66.83	37.15	-41.5	-42.9	19.5	0.00e+00	80	29	0	635437056	54	7115
2026-01-29 13:48:32.88	67.20	37.27	-41.3	-42.6	20.0	0.00e+00	0	29	0	637534208	56	6145
2026-01-29 13:48:33.89	67.58	37.39	-41.1	-42.4	20.3	0.00e+00	42	29	0	639631360	56	6014
2026-01-29 13:48:34.90	67.96	37.51	-40.4	-41.5	20.9	0.00e+00	0	29	0	641728512	54	6093
2026-01-29 13:48:35.90	68.34	37.62	-39.7	-40.8	21.6	0.00e+00	3	29	0	643825664	52	6270
2026-01-29 13:48:36.92	68.73	37.74	-39.5	-40.6	21.8	0.00e+00	0	29	0	644874240	52	6133
2026-01-29 13:48:37.92	69.11	37.86	-39.3	-40.4	21.7	0.00e+00	0	29	0	646971392	52	5978
2026-01-29 13:48:38.93	69.50	37.97	-39.7	-40.8	21.5	0.00e+00	0	29	0	649068544	52	6271
2026-01-29 13:48:39.94	69.89	38.08	-40.2	-41.3	21.1	0.00e+00	0	29	0	651165696	52	6670
2026-01-29 13:48:40.95	70.29	38.20	-40.5	-41.7	20.7	0.00e+00	31	29	0	653262848	52	6933
2026-01-29 13:48:41.96	70.69	38.31	-40.5	-41.7	20.8	0.00e+00	0	29	0	654311424	52	6985
2026-01-29 13:48:42.97	71.09	38.42	-40.6	-41.8	20.7	0.00e+00	81	28	0	656408576	54	6288
2026-01-29 13:48:43.98	71.49	38.53	-39.8	-40.9	21.5	0.00e+00	0	29	0	658505728	54	5673
2026-01-29 13:48:44.99	71.90	38.64	-39.5	-40.6	21.7	0.00e+00	0	28	0	660602880	52	6136
2026-01-29 13:48:46.00	72.31	38.74	-39.7	-40.8	21.8	0.00e+00	0	29	0	662700032	52	6268
2026-01-29 13:48:47.01	72.72	38.85	-39.5	-40.6	21.8	0.00e+00	0	29	0	663748608	52	6112
2026-01-29 13:48:48.02	73.14	38.95	-39.6	-40.7	21.7	0.00e+00	23	28	0	665845760	52	6228
2026-01-29 13:48:49.03	73.55	39.05	-40.0	-41.2	21.3	0.00e+00	0	29	0	667942912	52	6558
2026-01-29 13:48:50.04	73.97	39.15	-40.6	-41.9	20.6	0.00e+00	90	29	0	670040064	52	7104
2026-01-29 13:48:51.05	74.40	39.25	-40.0	-41.1	21.2	0.00e+00	0	29	0	672137216	54	5789
2026-01-29 13:48:52.06	74.82	39.35	-39.4	-40.4	21.9	0.00e+00	0	29	0	674234368	52	6004
2026-01-29 13:48:53.06	75.24	39.45	-38.9	-39.8	22.0	0.00e+00	0	29	0	675282944	52	5626
2026-01-29 13:48:54.07	75.67	39.54	-39.4	-40.5	21.4	0.00e+00	0	29	0	677380096	52	6083
2026-01-29 13:48:55.08	76.11	39.64	-39.3	-40.4	21.9	0.00e+00	70	29	0	679477248	52	5990
2026-01-29 13:48:56.09	76.54	39.73	-38.7	-39.7	22.5	0.00e+00	0	29	0	681574400	50	6193
2026-01-29 13:48:57.10	76.98	39.82	-39.1	-40.2	22.0	0.00e+00	87	28	0	683671552	50	6545
2026-01-29 13:48:58.11	77.42	39.91	-40.4	-41.6	20.9	0.00e+00	0	29	0	684720128	52	6902
2026-01-29 13:48:59.12	77.86	40.00	-41.5	-42.9	19.6	0.00e+00	0	29	0	686817280	54	7147
2026-01-29 13:49:00.12	78.30	40.08	-41.5	-42.9	19.8	0.00e+00	0	29	0	688914432	56	6351
2026-01-29 13:49:01.13	78.75	40.17	-40.8	-42.1	20.3	0.00e+00	0	29	0	691011584	54	6532
2026-01-29 13:49:02.14	79.20	40.25	-40.3	-41.5	20.8	0.00e+00	4	28	0	693108736	54	6042
2026-01-29 13:49:03.15	79.65	40.33	-40.3	-41.4	21.0	0.00e+00	0	29	0	694157312	54	6020
2026-01-29 13:49:04.16	80.10	40.41	-40.0	-41.1	21.2	0.00e+00	92	28	0	696254464	54	5800
2026-01-29 13:49:05.17	80.56	40.49	-39.4	-40.4	21.8	0.00e+00	0	29	0	698351616	52	6016
2026-01-29 13:49:06.18	81.02	40.56	-39.2	-40.3	21.7	0.00e+00	75	29	0	700448768	52	5912
2026-01-29 13:49:07.19	81.48	40.63	-40.0	-41.1	21.0	0.00e+00	0	29	0	702545920	52	6520
2026-01-29 13:49:08.20	81.94	40.71	-41.2	-42.6	19.8	0.00e+00	0	29	0	703594496	54	6867
2026-01-29 13:49:09.21	82.40	40.78	-42.8	-44.6	17.7	0.00e+00	0	28	0	705691648	58	6916
2026-01-29 13:49:10.22	82.87	40.84	-43.1	-44.9	17.8	0.00e+00	0	29	0	707788800	58	7152
2026-01-29 13:49:11.23	83.34	40.91	-41.8	-43.3	19.4	0.00e+00	85	29	0	709885952	56	6623
2026-01-29 13:49:12.24	83.81	40.97	-41.6	-43.0	19.7	0.00e+00	0	29	0	711983104	56	6434
2026-01-29 13:49:13.24	84.27	41.03	-41.7	-43.1	19.5	0.00e+00	19	29	0	713031680	56	6528
2026-01-29 13:49:14.25	84.75	41.09	-41.6	-43.1	19.6	0.00e+00	0	29	0	715128832	56	6499
2026-01-29 13:49:15.26	85.22	41.15	-41.3	-42.7	19.9	0.00e+00	0	29	0	717225984	56	6200
2026-01-29 13:49:16.27	85.70	41.21	-41.5	-42.8	19.7	0.00e+00	0	29	0	719323136	56	6310
2026-01-29 13:49:17.28	86.18	41.26	-42.3	-43.9	18.8	0.00e+00	0	29	0	721420288	56	7118
2026-01-29 13:49:18.29	86.65	41.31	-43.1	-45.0	17.5	0.00e+00	73	29	0	722468864	58	7225
2026-01-29 13:49:19.30	87.14	41.36	-43.9	-46.1	16.8	0.00e+00	0	29	0	724566016	60	7260
2026-01-29 13:49:20.31	87.62	41.41	-43.9	-46.2	16.6	0.00e+00	90	29	0	726663168	60	7377
2026-01-29 13:49:21.32	88.10	41.45	-43.6	-45.7	16.9	0.00e+00	0	29	0	728760320	60	7006
2026-01-29 13:49:22.33	88.59	41.49	-43.6	-45.7	17.2	0.00e+00	0	29	0	730857472	60	6945
2026-01-29 13:49:23.34	89.08	41.54	-43.4	-45.3	17.3	0.00e+00	0	29	0	731906048	60	6690
2026-01-29 13:49:24.34	89.56	41.57	-43.5	-45.5	17.3	0.00e+00	0	29	0	734003200	60	6776
2026-01-29 13:49:25.35	90.05	41.61	-43.2	-45.1	17.9	0.00e+00	19	29	0	736100352	60	6482
2026-01-29 13:49:26.36	90.54	41.64	-43.1	-45.0	17.8	0.00e+00	0	29	0	738197504	60	6401
2026-01-29 13:49:27.37	91.03	41.67	-43.1	-45.0	17.8	0.00e+00	58	29	0	740294656	58	7200
2026-01-29 13:49:28.38	91.52	41.70	-44.4	-46.9	16.0	0.00e+00	0	29	0	741343232	60	7973
2026-01-29 13:49:29.39	92.01	41.73	-45.5	-48.9	13.6	7.00e-07	0	29	0	743440384	60	10125
2026-01-29 13:49:30.40	92.51	41.75	-44.8	-47.6	15.2	0.00e+00	0	29	0	745537536	60	8689
2026-01-29 13:49:31.41	93.00	41.78	-42.9	-44.7	18.1	0.00e+00	0	29	0	747634688	60	6202
2026-01-29 13:49:32.42	93.50	41.80	-41.4	-42.7	20.1	0.00e+00	87	29	0	749731840	56	6238
2026-01-29 13:49:33.43	93.99	41.81	-40.7	-41.9	20.6	0.00e+00	0	29	0	750780416	54	6361
2026-01-29 13:49:34.44	94.49	41.83	-41.1	-42.4	20.0	0.00e+00	83	29	0	752877568	54	6752
2026-01-29 13:49:35.45	94.98	41.84	-42.4	-44.1	18.6	0.00e+00	0	28	0	754974720	56	7280
2026-01-29 13:49:36.46	95.48	41.85	-42.1	-43.7	18.9	0.00e+00	0	29	0	757071872	56	6936
2026-01-29 13:49:37.47	95.98	41.86	-41.8	-43.3	19.4	0.00e+00	0	29	0	759169024	56	6676
2026-01-29 13:49:38.48	96.47	41.87	-40.5	-41.8	20.6	0.00e+00	0	29	0	760217600	56	5584
2026-01-29 13:49:39.49	96.97	41.87	-40.5	-41.7	20.7	0.00e+00	0	29	0	762314752	54	6231
2026-01-29 13:49:40.50	97.47	41.87	-41.2	-42.6	19.7	0.00e+00	0	29	0	764411904	54	6924
2026-01-29 13:49:41.51	97.97	41.87	-42.1	-43.6	18.8	0.00e+00	74	29	0	766509056	56	6900
2026-01-29 13:49:42.52	98.47	41.87	-41.9	-43.3	19.5	0.00e+00	0	29	0	768606208	56	6662
2026-01-29 13:49:43.53	98.96	41.86	-41.5	-42.9	19.9	0.00e+00	92	29	0	770703360	56	6350
2026-01-29 13:49:44.54	99.46	41.85	-40.8	-42.1	20.3	0.00e+00	0	29	0	771751936	54	6511
2026-01-29 13:49:45.55	99.96	41.84	-41.5	-43.0	19.7	0.00e+00	0	29	0	773849088	54	7221
2026-01-29 13:49:46.56	100.45	41.83	-41.9	-43.5	18.8	0.00e+00	64	29	0	775946240	56	6773
2026-01-29 13:49:47.57	100.95	41.81	-41.7	-43.1	19.5	0.00e+00	0	29	0	778043392	56	6528
2026-01-29 13:49:48.58	101.44	41.79	-40.4	-41.5	21.0	0.00e+00	83	29	0	780140544	54	6100
2026-01-29 13:49:49.59	101.94	41.77	-39.6	-40.6	21.3	0.00e+00	0	29	0	781189120	52	6142
2026-01-29 13:49:50.60	102.43	41.75	-40.3	-41.5	20.7	0.00e+00	92	28	0	783286272	52	6782
2026-01-29 13:49:51.60	102.92	41.73	-42.8	-44.6	18.0	0.00e+00	0	29	0	785383424	56	7723
2026-01-29 13:49:52.61	103.42	41.70	-43.6	-45.8	17.0	0.00e+00	0	28	0	787480576	60	7055
2026-01-29 13:49:53.62	103.91	41.67	-42.0	-43.5	19.1	0.00e+00	0	29	0	789577728	58	6091
2026-01-29 13:49:54.63	104.40	41.64	-40.9	-42.2	20.4	0.00e+00	0	29	0	790626304	56	5844
2026-01-29 13:49:55.64	104.89	41.61	-40.7	-41.9	20.4	0.00e+00	10	29	0	792723456	54	6384
2026-01-29 13:49:56.65	105.38	41.57	-41.8	-43.4	19.3	0.00e+00	0	29	0	794820608	54	7513
2026-01-29 13:49:57.66	105.87	41.53	-41.0	-42.5	20.0	0.00e+00	91	29	0	796917760	56	6036
2026-01-29 13:49:58.67	106.35	41.49	-40.5	-41.8	20.8	0.00e+00	0	29	0	799014912	54	6277
2026-01-29 13:49:59.68	106.84	41.45	-40.0	-41.2	21.1	0.00e+00	0	29	0	800063488	54	5856
2026-01-29 13:50:00.68	107.32	41.40	-40.4	-41.6	21.0	0.00e+00	0	29	0	802160640	54	6124
2026-01-29 13:50:01.69	107.80	41.36	-40.9	-42.3	20.2	0.00e+00	0	29	0	804257792	54	6646
2026-01-29 13:50:02.70	108.28	41.31	-40.8	-42.1	20.3	0.00e+00	84	29	0	806354944	54	6478
2026-01-29 13:50:03.71	108.76	41.25	-41.1	-42.5	20.0	0.00e+00	0	29	0	808452096	54	6778
2026-01-29 13:50:04.71	109.24	41.20	-39.9	-41.0	21.3	0.00e+00	72	29	0	809500672	54	5731
2026-01-29 13:50:05.72	109.71	41.15	-40.4	-41.6	20.9	0.00e+00	0	29	0	811597824	54	6117
2026-01-29 13:50:06.73	110.19	41.09	-41.5	-42.9	19.7	0.00e+00	0	29	0	813694976	54	7168
2026-01-29 13:50:07.74	110.66	41.03	-41.5	-42.9	19.8	0.00e+00	0	28	0	815792128	56	6324
2026-01-29 13:50:08.75	111.14	40.97	-41.7	-43.1	19.5	0.00e+00	0	29	0	817889280	56	6521
2026-01-29 13:50:09.76	111.61	40.90	-41.1	-42.4	20.3	0.00e+00	86	29	0	818937856	56	5977
2026-01-29 13:50:10.77	112.07	40.84	-40.7	-42.0	20.3	0.00e+00	0	29	0	821035008	54	6422
2026-01-29 13:50:11.78	112.54	40.77	-40.3	-41.5	20.9	0.00e+00	92	29	0	823132160	54	6079
2026-01-29 13:50:12.78	113.00	40.70	-39.7	-40.9	21.4	0.00e+00	0	29	0	825229312	52	6318
2026-01-29 13:50:13.79	113.46	40.63	-38.8	-39.9	22.3	0.00e+00	0	29	0	827326464	52	5643
2026-01-29 13:50:14.80	113.92	40.55	-38.7	-39.7	22.5	0.00e+00	0	29	0	828375040	50	6189
2026-01-29 13:50:15.81	114.38	40.48	-39.1	-40.2	22.1	0.00e+00	0	29	0	830472192	50	6544
2026-01-29 13:50:16.82	114.84	40.40	-38.6	-39.6	22.5	0.00e+00	0	29	0	832569344	50	6111
2026-01-29 13:50:17.83	115.29	40.32	-38.9	-39.9	22.2	0.00e+00	0	28	0	834666496	50	6387
2026-01-29 13:50:18.84	115.74	40.24	-38.6	-39.6	22.2	0.00e+00	92	29	0	836763648	50	6153
2026-01-29 13:50:19.85	116.19	40.16	-39.2	-40.2	21.8	0.00e+00	0	29	0	838860800	50	6599
2026-01-29 13:50:20.86	116.64	40.07	-39.0	-40.1	22.1	0.00e+00	92	29	0	839909376	50	6481
2026-01-29 13:50:21.87	117.09	39.99	-38.3	-39.3	22.7	0.00e+00	0	29	0	842006528	50	5958
2026-01-29 13:50:22.88	117.53	39.90	-37.3	-38.2	23.5	0.00e+00	0	29	0	844103680	48	5846
2026-01-29 13:50:23.89	117.97	39.81	-37.2	-38.0	23.6	0.00e+00	0	29	0	846200832	48	5758
2026-01-29 13:50:24.90	118.41	39.72	-37.3	-38.2	23.4	0.00e+00	0	29	0	848297984	48	5868
2026-01-29 13:50:25.90	118.84	39.63	-37.7	-38.6	23.4	0.00e+00	88	29	0	849346560	48	6127
2026-01-29 13:50:26.91	119.27	39.53	-36.4	-37.2	24.5	0.00e+00	0	29	0	851443712	48	5240
2026-01-29 13:50:27.92	119.70	39.44	-35.6	-36.4	24.8	0.00e+00	87	29	0	853540864	44	6001
2026-01-29 13:50:28.93	120.13	39.34	-35.2	-36.0	25.1	0.00e+00	0	29	0	855638016	44	5724
2026-01-29 13:50:29.94	120.55	39.24	-35.5	-36.3	25.0	0.00e+00	0	29	0	857735168	44	5912
2026-01-29 13:50:30.95	120.98	39.14	-36.4	-37.3	24.3	0.00e+00	0	29	0	858783744	44	6620
2026-01-29 13:50:31.96	121.40	39.04	-36.6	-37.5	24.1	0.00e+00	0	29	0	860880896	46	6055
2026-01-29 13:50:32.97	121.82	38.93	-36.2	-37.0	24.5	0.00e+00	85	29	0	862978048	46	5705
2026-01-29 13:50:33.98	122.23	38.83	-35.9	-36.7	24.7	0.00e+00	0	29	0	865075200	46	5511
2026-01-29 13:50:34.99	122.64	38.72	-36.0	-36.8	24.6	0.00e+00	86	29	0	867172352	44	6254
2026-01-29 13:50:36.00	123.05	38.62	-36.2	-37.1	24.4	0.00e+00	0	29	0	868220928	44	6480
2026-01-29 13:50:37.01	123.46	38.51	-36.3	-37.1	24.4	0.00e+00	0	29	0	870318080	44	6525
2026-01-29 13:50:38.02	123.87	38.40	-35.7	-36.4	24.9	0.00e+00	0	29	0	872415232	44	6031
2026-01-29 13:50:39.03	124.27	38.29	-34.7	-35.4	25.4	0.00e+00	0	29	0	874512384	44	5345
2026-01-29 13:50:40.03	124.66	38.18	-34.2	-34.9	25.8	0.00e+00	72	29	0	876609536	42	5660
2026-01-29 13:50:41.04	125.06	38.06	-33.9	-34.6	25.6	0.00e+00	0	29	0	877658112	42	5499
2026-01-29 13:50:42.05	125.45	37.95	-33.8	-34.5	25.8	0.00e+00	90	29	0	879755264	42	5434
2026-01-29 13:50:43.06	125.84	37.83	-34.0	-34.7	25.7	0.00e+00	0	29	0	881852416	42	5543
2026-01-29 13:50:44.07	126.23	37.72	-34.0	-34.7	26.0	0.00e+00	20	29	0	883949568	42	5539
2026-01-29 13:50:45.08	126.62	37.60	-34.1	-34.8	25.9	0.00e+00	0	29	0	886046720	42	5583
2026-01-29 13:50:46.09	127.00	37.48	-34.6	-35.3	25.6	0.00e+00	0	29	0	887095296	42	5944
2026-01-29 13:50:47.10	127.38	37.36	-35.1	-35.9	25.1	0.00e+00	5	28	0	889192448	42	6323
2026-01-29 13:50:48.10	127.75	37.24	-35.4	-36.2	25.0	0.00e+00	0	29	0	891289600	42	6577
2026-01-29 13:50:49.11	128.13	37.12	-35.2	-36.0	25.2	0.00e+00	92	29	0	893386752	42	6428
2026-01-29 13:50:50.12	128.50	37.00	-34.3	-35.1	25.6	0.00e+00	0	29	0	895483904	42	5775
2026-01-29 13:50:51.12	128.87	36.88	-34.3	-35.0	25.3	0.00e+00	41	29	0	896532480	42	5730
2026-01-29 13:50:52.13	129.23	36.76	-34.7	-35.4	25.5	0.00e+00	0	29	0	898629632	42	6011
2026-01-29 13:50:53.14	129.60	36.63	-35.1	-35.8	25.3	0.00e+00	0	29	0	900726784	42	6291
2026-01-29 13:50:54.15	129.96	36.51	-35.1	-35.9	25.4	0.00e+00	72	28	0	902823936	42	6342
2026-01-29 13:50:55.16	130.32	36.38	-34.8	-35.5	25.5	0.00e+00	0	29	0	904921088	42	6088
2026-01-29 13:50:56.17	130.67	36.25	-35.1	-35.8	25.3	0.00e+00	80	28	0	905969664	42	6313
2026-01-29 13:50:57.18	131.02	36.13	-35.8	-36.5	24.9	0.00e+00	0	28	0	908066816	42	6848
2026-01-29 13:50:58.19	131.38	36.00	-36.4	-37.2	24.2	0.00e+00	92	29	0	910163968	44	6609
2026-01-29 13:50:59.20	131.72	35.87	-37.0	-37.8	23.9	0.00e+00	0	29	0	912261120	46	6311
2026-01-29 13:51:00.20	132.06	35.74	-36.8	-37.7	24.1	0.00e+00	0	29	0	914358272	46	6217
2026-01-29 13:51:01.21	132.41	35.61	-36.6	-37.5	24.2	0.00e+00	0	29	0	915406848	46	6064
2026-01-29 13:51:02.23	132.75	35.48	-36.3	-37.1	24.5	0.00e+00	0	29	0	917504000	46	5772
2026-01-29 13:51:03.24	133.09	35.35	-36.6	-37.4	24.2	0.00e+00	57	29	0	919601152	46	6024
2026-01-29 13:51:04.24	133.42	35.22	-36.9	-37.7	24.0	0.00e+00	0	29	0	921698304	46	6205
2026-01-29 13:51:05.25	133.75	35.08	-37.0	-37.9	23.9	0.00e+00	92	29	0	923795456	46	6345
2026-01-29 13:51:06.26	134.08	34.95	-36.7	-37.6	24.2	0.00e+00	0	29	0	924844032	46	6134
2026-01-29 13:51:07.27	134.40	34.82	-36.3	-37.1	24.5	0.00e+00	0	29	0	926941184	46	5804
2026-01-29 13:51:08.28	134.73	34.69	-35.1	-35.9	25.3	0.00e+00	0	29	0	929038336	44	5631
2026-01-29 13:51:09.29	135.05	34.55	-35.8	-36.6	24.7	0.00e+00	0	29	0	931135488	44	6131
2026-01-29 13:51:10.30	135.37	34.42	-37.3	-38.2	23.5	0.00e+00	7	29	0	933232640	46	6584
2026-01-29 13:51:11.31	135.68	34.28	-38.7	-39.8	22.3	0.00e+00	0	29	0	935329792	48	7014
2026-01-29 13:51:12.32	136.00	34.15	-39.4	-40.5	21.8	0.00e+00	91	29	0	936378368	50	6824
2026-01-29 13:51:13.33	136.31	34.01	-37.6	-38.5	23.5	0.00e+00	0	29	0	938475520	50	5401
2026-01-29 13:51:14.33	136.61	33.88	-36.9	-37.7	24.0	0.00e+00	0	29	0	940572672	48	5545
2026-01-29 13:51:15.34	136.92	33.74	-37.7	-38.6	23.3	0.00e+00	0	29	0	942669824	48	6158
2026-01-29 13:51:16.35	137.22	33.60	-38.7	-39.7	22.4	0.00e+00	0	29	0	944766976	48	6933
2026-01-29 13:51:17.36	137.52	33.47	-40.7	-42.1	20.2	0.00e+00	73	29	0	945815552	52	7260
2026-01-29 13:51:18.37	137.82	33.33	-42.1	-43.7	18.8	0.00e+00	0	29	0	947912704	56	6997
2026-01-29 13:51:19.38	138.12	33.19	-41.6	-43.1	19.5	0.00e+00	78	28	0	950009856	56	6489
2026-01-29 13:51:20.39	138.41	33.06	-40.2	-41.4	21.3	0.00e+00	0	29	0	952107008	54	5999
2026-01-29 13:51:21.40	138.70	32.92	-38.6	-39.6	22.6	0.00e+00	0	28	0	954204160	52	5444
2026-01-29 13:51:22.41	138.99	32.78	-38.3	-39.2	22.8	0.00e+00	0	29	0	955252736	50	5836
2026-01-29 13:51:23.42	139.27	32.64	-38.8	-39.8	22.4	0.00e+00	0	29	0	957349888	50	6297
2026-01-29 13:51:24.43	139.56	32.51	-40.5	-41.7	20.6	0.00e+00	0	29	0	959447040	52	6961
2026-01-29 13:51:25.44	139.84	32.37	-42.7	-44.6	17.9	0.00e+00	0	29	0	961544192	56	7688
2026-01-29 13:51:26.45	140.12	32.23	-43.2	-45.3	17.5	0.00e+00	83	29	0	963641344	60	6652
2026-01-29 13:51:27.45	140.39	32.09	-42.1	-43.7	19.0	0.00e+00	0	29	0	964689920	58	6204
2026-01-29 13:51:28.47	140.67	31.95	-41.3	-42.6	20.0	0.00e+00	90	29	0	966787072	56	6159
2026-01-29 13:51:29.47	140.94	31.82	-40.7	-41.9	20.6	0.00e+00	0	29	0	968884224	54	6362
2026-01-29 13:51:30.48	141.21	31.68	-39.1	-40.1	22.0	0.00e+00	0	29	0	970981376	52	5828
2026-01-29 13:51:31.49	141.48	31.54	-40.7	-42.0	20.3	0.00e+00	0	29	0	973078528	52	7220
2026-01-29 13:51:32.50	141.74	31.40	-42.2	-43.8	18.6	0.00e+00	0	29	0	974127104	56	7046
2026-01-29 13:51:33.51	142.01	31.26	-43.4	-45.5	16.8	0.00e+00	82	29	0	976224256	58	7619
2026-01-29 13:51:34.52	142.27	31.12	-43.1	-45.0	17.9	0.00e+00	0	29	0	978321408	60	6433
2026-01-29 13:51:35.53	142.53	30.98	-41.7	-43.3	19.2	0.00e+00	92	29	0	980418560	58	5900
2026-01-29 13:51:36.54	142.78	30.85	-41.7	-43.1	20.0	0.00e+00	0	29	0	982515712	56	6507
2026-01-29 13:51:37.55	143.04	30.71	-39.7	-40.8	21.6	0.00e+00	0	29	0	983564288	54	5582
2026-01-29 13:51:38.56	143.29	30.57	-38.3	-39.2	22.9	0.00e+00	0	29	0	985661440	50	5886
2026-01-29 13:51:39.57	143.54	30.43	-38.8	-39.8	22.1	0.00e+00	0	29	0	987758592	50	6268
2026-01-29 13:51:40.58	143.79	30.29	-40.2	-41.3	20.7	0.00e+00	78	29	0	989855744	52	6684
2026-01-29 13:51:41.59	144.03	30.15	-41.6	-43.1	19.5	0.00e+00	0	29	0	991952896	54	7295
2026-01-29 13:51:42.60	144.28	30.02	-41.9	-43.5	19.2	0.00e+00	92	29	0	993001472	56	6782
2026-01-29 13:51:43.61	144.52	29.88	-39.5	-40.7	21.6	0.00e+00	0	29	0	995098624	54	5518
2026-01-29 13:51:44.61	144.76	29.74	-37.9	-38.8	23.2	0.00e+00	0	29	0	997195776	50	5605
2026-01-29 13:51:45.62	145.00	29.61	-37.5	-38.4	23.5	0.00e+00	0	29	0	999292928	48	5985
2026-01-29 13:51:46.63	145.23	29.47	-37.5	-38.4	23.4	0.00e+00	0	29	0	1001390080	48	5978
2026-01-29 13:51:47.64	145.47	29.33	-38.3	-39.2	22.6	0.00e+00	0	29	0	1003487232	48	6579
2026-01-29 13:51:48.65	145.70	29.19	-39.6	-40.6	21.5	0.00e+00	0	28	0	1004535808	50	6921
2026-01-29 13:51:49.66	145.93	29.06	-40.8	-42.2	20.2	0.00e+00	90	29	0	1006632960	52	7355
2026-01-29 13:51:50.67	146.16	28.92	-40.9	-42.3	20.3	0.00e+00	0	29	0	1008730112	54	6654
2026-01-29 13:51:51.68	146.38	28.78	-39.6	-40.8	21.6	0.00e+00	58	28	0	1010827264	52	6267
2026-01-29 13:51:52.69	146.61	28.65	-37.8	-38.7	23.2	0.00e+00	0	29	0	1012924416	50	5555
2026-01-29 13:51:53.70	146.83	28.51	-37.6	-38.5	23.2	0.00e+00	0	29	0	1013972992	48	6051
2026-01-29 13:51:54.71	147.05	28.37	-36.9	-37.7	24.2	0.00e+00	64	29	0	1016070144	48	5527
2026-01-29 13:51:55.72	147.27	28.24	-37.0	-37.9	23.8	0.00e+00	0	28	0	1018167296	46	6321
2026-01-29 13:51:56.73	147.49	28.10	-37.7	-38.6	23.1	0.00e+00	78	29	0	1020264448	48	6171
2026-01-29 13:51:57.74	147.70	27.97	-38.5	-39.5	22.5	0.00e+00	0	29	0	1022361600	48	6839
2026-01-29 13:51:58.75	147.92	27.83	-39.5	-40.6	21.6	0.00e+00	92	29	0	1023410176	50	6919
2026-01-29 13:51:59.76	148.13	27.70	-40.0	-41.2	21.2	0.00e+00	0	29	0	1025507328	52	6548
2026-01-29 13:52:00.77	148.34	27.56	-39.2	-40.4	22.1	0.00e+00	0	29	0	1027604480	52	5966
2026-01-29 13:52:01.78	148.55	27.43	-38.5	-39.5	22.6	0.00e+00	40	29	0	1029701632	50	6099
2026-01-29 13:52:02.78	148.75	27.30	-37.6	-38.6	23.2	0.00e+00	0	29	0	1031798784	48	6114
2026-01-29 13:52:03.80	148.96	27.16	-37.4	-38.3	23.4	0.00e+00	90	28	0	1032847360	48	5963
2026-01-29 13:52:04.80	149.16	27.03	-37.1	-38.0	23.8	0.00e+00	0	28	0	1034944512	48	5719
2026-01-29 13:52:05.81	149.36	26.90	-37.4	-38.3	23.4	0.00e+00	92	29	0	1037041664	48	5927
2026-01-29 13:52:06.82	149.57	26.76	-37.5	-38.4	23.3	0.00e+00	0	29	0	1039138816	48	5985
2026-01-29 13:52:07.83	149.76	26.63	-37.6	-38.5	23.0	0.00e+00	0	29	0	1041235968	48	6056
2026-01-29 13:52:08.84	149.96	26.50	-37.8	-38.8	22.9	0.00e+00	0	29	0	1042284544	48	6260
2026-01-29 13:52:09.85	150.16	26.37	-38.1	-39.1	22.9	0.00e+00	0	29	0	1044381696	48	6491
2026-01-29 13:52:10.86	150.35	26.23	-37.9	-38.9	23.0	0.00e+00	82	29	0	1046478848	48	6323
2026-01-29 13:52:11.87	150.54	26.10	-37.7	-38.6	22.7	0.00e+00	0	29	0	1048576000	48	6116
2026-01-29 13:52:12.88	150.73	25.97	-37.6	-38.5	23.4	0.00e+00	85	29	0	1050673152	48	6068
2026-01-29 13:52:13.89	150.92	25.84	-37.3	-38.2	23.5	0.00e+00	0	29	0	1051721728	48	5879
2026-01-29 13:52:14.90	151.11	25.71	-37.1	-37.9	23.8	0.00e+00	0	29	0	1053818880	48	5687
2026-01-29 13:52:15.90	151.29	25.58	-36.8	-37.6	23.9	0.00e+00	0	29	0	1055916032	48	5468
2026-01-29 13:52:16.91	151.48	25.45	-36.6	-37.4	24.2	0.00e+00	0	29	0	1058013184	46	5987
2026-01-29 13:52:17.92	151.66	25.32	-36.9	-37.7	23.9	0.00e+00	13	29	0	1060110336	46	6235
2026-01-29 13:52:18.93	151.84	25.19	-36.9	-37.8	23.9	0.00e+00	0	29	0	1061158912	46	6258
2026-01-29 13:52:19.94	152.02	25.06	-36.7	-37.5	23.9	0.00e+00	85	29	0	1063256064	46	6103
2026-01-29 13:52:20.95	152.20	24.93	-37.0	-37.8	23.8	0.00e+00	0	29	0	1065353216	46	6307
2026-01-29 13:52:21.96	152.38	24.81	-37.0	-37.8	23.8	0.00e+00	0	29	0	1067450368	46	6296
2026-01-29 13:52:22.96	152.56	24.68	-37.0	-37.9	23.7	0.00e+00	0	29	0	1069547520	46	6350
2026-01-29 13:52:23.97	152.73	24.55	-37.1	-38.0	23.7	0.00e+00	0	29	0	1070596096	46	6453
2026-01-29 13:52:24.98	152.90	24.43	-37.3	-38.2	23.6	0.00e+00	83	29	0	1072693248	46	6545
2026-01-29 13:52:25.99	153.08	24.30	-37.1	-38.0	23.7	0.00e+00	0	29	0	1074790400	46	6398
2026-01-29 13:52:27.00	153.25	24.17	-37.4	-38.3	23.5	0.00e+00	83	29	0	1076887552	46	6622
2026-01-29 13:52:28.01	153.42	24.05	-37.2	-38.1	23.6	0.00e+00	0	29	0	1078984704	46	6509
2026-01-29 13:52:29.02	153.58	23.92	-37.1	-37.9	23.7	0.00e+00	92	29	0	1080033280	46	6380
2026-01-29 13:52:30.02	153.75	23.80	-36.9	-37.8	23.8	0.00e+00	0	28	0	1082130432	46	6271
2026-01-29 13:52:31.03	153.91	23.67	-36.6	-37.4	24.0	0.00e+00	0	29	0	1084227584	46	6010
2026-01-29 13:52:32.04	154.08	23.55	-36.8	-37.7	23.8	0.00e+00	0	29	0	1086324736	46	6196
2026-01-29 13:52:33.05	154.24	23.42	-37.0	-37.8	23.9	0.00e+00	0	29	0	1088421888	46	6300
2026-01-29 13:52:34.06	154.40	23.30	-37.2	-38.0	23.7	0.00e+00	58	29	0	1089470464	46	6436
2026-01-29 13:52:35.07	154.56	23.17	-37.7	-38.6	23.3	0.00e+00	0	29	0	1091567616	46	6911
2026-01-29 13:52:36.08	154.72	23.05	-37.9	-38.8	23.1	0.00e+00	78	29	0	1093664768	48	6302
2026-01-29 13:52:37.08	154.88	22.93	-38.3	-39.3	22.6	0.00e+00	0	29	0	1095761920	48	6620
2026-01-29 13:52:38.10	155.04	22.81	-38.5	-39.5	22.5	0.00e+00	0	29	0	1097859072	50	6072
2026-01-29 13:52:39.11	155.19	22.68	-38.6	-39.6	22.4	0.00e+00	0	29	0	1099956224	50	6152
2026-01-29 13:52:40.12	155.35	22.56	-38.8	-39.8	22.3	0.00e+00	0	29	0	1101004800	50	6296
2026-01-29 13:52:41.12	155.50	22.44	-38.3	-39.3	22.6	0.00e+00	51	29	0	1103101952	50	5910
2026-01-29 13:52:42.13	155.65	22.32	-38.1	-39.0	23.0	0.00e+00	0	29	0	1105199104	50	5742
2026-01-29 13:52:43.14	155.80	22.20	-38.0	-38.9	23.0	0.00e+00	92	29	0	1107296256	50	5686
2026-01-29 13:52:44.15	155.95	22.08	-37.7	-38.6	23.3	0.00e+00	0	29	0	1109393408	48	6111
2026-01-29 13:52:45.16	156.10	21.96	-37.7	-38.6	23.2	0.00e+00	32	29	0	1110441984	48	6115
2026-01-29 13:52:46.16	156.25	21.84	-37.9	-38.8	23.1	0.00e+00	0	29	0	1112539136	48	6309
2026-01-29 13:52:47.17	156.39	21.72	-37.9	-38.7	23.1	0.00e+00	0	29	0	1114636288	48	6243
2026-01-29 13:52:48.18	156.54	21.60	-38.1	-39.0	22.8	0.00e+00	16	29	0	1116733440	48	6439
2026-01-29 13:52:49.19	156.68	21.49	-38.4	-39.4	22.6	0.00e+00	28	29	0	1118830592	48	6720
2026-01-29 13:52:50.20	156.83	21.37	-38.7	-39.8	22.2	0.00e+00	92	29	0	1119879168	48	7009
2026-01-29 13:52:51.21	156.97	21.25	-38.6	-39.6	22.3	0.00e+00	0	29	0	1121976320	50	6167
2026-01-29 13:52:52.22	157.11	21.13	-38.6	-39.7	22.3	0.00e+00	31	29	0	1124073472	50	6184
2026-01-29 13:52:53.22	157.25	21.02	-38.6	-39.6	22.4	0.00e+00	0	29	0	1126170624	50	6126
2026-01-29 13:52:54.23	157.39	20.90	-38.4	-39.4	22.6	0.00e+00	0	29	0	1128267776	50	5975
2026-01-29 13:52:55.24	157.53	20.78	-38.1	-39.1	22.9	0.00e+00	82	29	0	1129316352	50	5773
2026-01-29 13:52:56.25	157.66	20.67	-37.6	-38.6	23.2	0.00e+00	0	29	0	1131413504	48	6105
2026-01-29 13:52:57.26	157.80	20.55	-37.1	-37.9	23.7	0.00e+00	92	29	0	1133510656	48	5672
2026-01-29 13:52:58.27	157.94	20.44	-37.0	-37.8	23.9	0.00e+00	0	29	0	1135607808	48	5597
2026-01-29 13:52:59.28	158.07	20.32	-36.5	-37.3	24.2	0.00e+00	83	29	0	1137704960	46	5901
2026-01-29 13:53:00.29	158.20	20.21	-36.6	-37.4	24.0	0.00e+00	0	28	0	1138753536	46	6023
2026-01-29 13:53:01.30	158.34	20.10	-36.5	-37.3	24.2	0.00e+00	0	29	0	1140850688	46	5924
2026-01-29 13:53:02.31	158.47	19.98	-36.9	-37.7	23.9	0.00e+00	24	29	0	1142947840	46	6206
2026-01-29 13:53:03.32	158.60	19.87	-37.2	-38.1	23.6	0.00e+00	0	29	0	1145044992	46	6476
2026-01-29 13:53:04.33	158.73	19.76	-37.3	-38.2	23.4	0.00e+00	92	29	0	1147142144	46	6561
2026-01-29 13:53:05.34	158.86	19.64	-37.7	-38.6	23.1	0.00e+00	0	29	0	1148190720	46	6915
2026-01-29 13:53:06.35	158.98	19.53	-37.5	-38.4	23.2	0.00e+00	58	29	0	1150287872	48	5975
2026-01-29 13:53:07.36	159.11	19.42	-37.7	-38.6	23.1	0.00e+00	0	29	0	1152385024	48	6153
2026-01-29 13:53:08.37	159.24	19.31	-38.0	-38.9	22.8	0.00e+00	0	29	0	1154482176	48	6374
2026-01-29 13:53:09.38	159.36	19.20	-37.9	-38.8	23.0	0.00e+00	0	29	0	1156579328	48	6308
2026-01-29 13:53:10.39	159.49	19.09	-38.1	-39.0	22.9	0.00e+00	0	29	0	1157627904	48	6451
2026-01-29 13:53:11.40	159.61	18.98	-37.8	-38.7	23.0	0.00e+00	92	29	0	1159725056	48	6239
2026-01-29 13:53:12.41	159.73	18.87	-37.4	-38.2	23.4	0.00e+00	0	29	0	1161822208	48	5881
2026-01-29 13:53:13.42	159.85	18.76	-37.5	-38.3	23.2	0.00e+00	90	28	0	1163919360	48	5960
2026-01-29 13:53:14.43	159.97	18.65	-37.0	-37.9	23.6	0.00e+00	0	29	0	1166016512	48	5655
2026-01-29 13:53:15.44	160.09	18.54	-37.0	-37.8	23.7	0.00e+00	0	29	0	1168113664	48	5602
2026-01-29 13:53:16.45	160.21	18.43	-37.1	-37.9	23.8	0.00e+00	8	29	0	1169162240	48	5674
2026-01-29 13:53:17.46	160.33	18.32	-36.7	-37.5	24.0	0.00e+00	0	29	0	1171259392	46	6073
2026-01-29 13:53:18.46	160.45	18.22	-36.8	-37.7	23.7	0.00e+00	81	28	0	1173356544	46	6181
2026-01-29 13:53:19.48	160.57	18.11	-37.1	-38.0	23.5	0.00e+00	0	29	0	1175453696	46	6417
2026-01-29 13:53:20.48	160.68	18.00	-36.9	-37.7	23.8	0.00e+00	81	29	0	1176502272	46	6212
2026-01-29 13:53:21.49	160.80	17.90	-37.2	-38.1	23.4	0.00e+00	0	29	0	1178599424	46	6518
2026-01-29 13:53:22.50	160.91	17.79	-37.2	-38.1	23.5	0.00e+00	0	29	0	1180696576	46	6526
2026-01-29 13:53:23.51	161.02	17.68	-37.5	-38.4	23.3	0.00e+00	0	29	0	1182793728	46	6706
2026-01-29 13:53:24.52	161.14	17.58	-37.8	-38.8	23.0	0.00e+00	0	28	0	1184890880	46	7019
2026-01-29 13:53:25.53	161.25	17.47	-37.8	-38.7	23.1	0.00e+00	24	29	0	1185939456	48	6198
2026-01-29 13:53:26.54	161.36	17.37	-38.0	-39.0	22.8	0.00e+00	0	29	0	1188036608	48	6398
2026-01-29 13:53:27.55	161.47	17.26	-37.9	-38.9	22.9	0.00e+00	89	29	0	1190133760	48	6352
2026-01-29 13:53:28.56	161.58	17.16	-37.7	-38.7	23.0	0.00e+00	0	29	0	1192230912	48	6188
2026-01-29 13:53:29.57	161.69	17.05	-38.1	-39.0	22.8	0.00e+00	45	29	0	1194328064	48	6452
2026-01-29 13:53:30.58	161.80	16.95	-38.1	-39.1	22.7	0.00e+00	0	28	0	1196425216	48	6493
2026-01-29 13:53:31.59	161.90	16.85	-38.4	-39.3	22.5	0.00e+00	0	29	0	1197473792	48	6690
2026-01-29 13:53:32.60	162.01	16.75	-38.5	-39.5	22.3	0.00e+00	72	29	0	1199570944	48	6822
2026-01-29 13:53:33.60	162.12	16.64	-38.6	-39.6	22.3	0.00e+00	0	28	0	1201668096	50	6138
2026-01-29 13:53:34.61	162.22	16.54	-39.1	-40.2	21.7	0.00e+00	92	29	0	1203765248	50	6589
2026-01-29 13:53:35.62	162.33	16.44	-39.1	-40.1	21.8	0.00e+00	0	29	0	1205862400	50	6537
2026-01-29 13:53:36.63	162.43	16.34	-39.1	-40.1	21.7	0.00e+00	92	29	0	1206910976	50	6524
2026-01-29 13:53:37.64	162.54	16.24	-39.6	-40.8	21.3	0.00e+00	0	29	0	1209008128	50	7048
2026-01-29 13:53:38.65	162.64	16.14	-39.7	-40.9	21.2	0.00e+00	0	28	0	1211105280	50	7096
2026-01-29 13:53:39.66	162.74	16.04	-40.0	-41.2	20.9	0.00e+00	0	28	0	1213202432	52	6615
2026-01-29 13:53:40.67	162.84	15.94	-40.1	-41.3	20.8	0.00e+00	0	28	0	1215299584	52	6688
