passes_logs/2026/01/29/R4.6S_Anadyr/R4.6S_Anadyr__20260129_222804_TY-42_rec.log

#Pass ID: 20260129_222804_TY-42
#Satellite: TY-42
#Configuration: TY-42_900M
#almurnet v.1.7.20251203
#Start time: 2026-01-29 22:28:36

#Version: 2.2.20231116
#Station: R4.6S_Anadyr
#Location: 177.4865 lon 64.73178 lat
#TLE: 1 64048U 25103A   26029.59629630  .00008015  00000-0  38191-3 0 09991
#TLE: 2 64048 097.4120 104.7398 0001761 095.4017 301.3163 15.19189348 39031

#Time	Az	El	Level	Level2	SNR	BER	BlckErr	Temp	State	Recorded	gain1	gain2
2026-01-29 22:28:36.29	21.84	2.00	-49.4	-50.8	3.4	0.00e+00	0	34	0	0	60	42555
2026-01-29 22:28:37.26	21.90	2.06	-48.3	-50.8	6.1	0.00e+00	0	35	104	0	60	42619
2026-01-29 22:28:38.25	21.96	2.13	-48.3	-50.8	6.1	0.00e+00	0	35	104	0	60	42685
2026-01-29 22:28:39.22	22.02	2.19	-48.3	-50.8	6.1	0.00e+00	0	35	104	0	60	42538
2026-01-29 22:28:40.20	22.09	2.25	-48.3	-50.8	6.1	0.00e+00	0	35	104	0	60	42684
2026-01-29 22:28:41.18	22.15	2.32	-48.3	-50.9	6.1	0.00e+00	0	35	104	0	60	42776
2026-01-29 22:28:42.16	22.22	2.38	-48.3	-50.8	6.1	0.00e+00	0	35	104	0	60	42441
2026-01-29 22:28:43.14	22.28	2.45	-48.3	-50.9	6.1	0.00e+00	0	36	104	0	60	42727
2026-01-29 22:28:44.12	22.35	2.51	-48.3	-50.8	6.1	0.00e+00	0	35	104	0	60	42679
2026-01-29 22:28:45.10	22.41	2.58	-48.4	-50.8	6.1	0.00e+00	0	36	104	0	60	42682
2026-01-29 22:28:46.07	22.48	2.64	-48.4	-50.8	6.1	0.00e+00	0	36	104	0	60	42706
2026-01-29 22:28:47.05	22.54	2.71	-48.4	-50.8	6.1	0.00e+00	0	36	104	0	60	42676
2026-01-29 22:28:48.03	22.61	2.77	-48.3	-50.8	6.1	0.00e+00	0	36	104	0	60	42530
2026-01-29 22:28:49.01	22.68	2.84	-48.4	-50.8	6.1	0.00e+00	0	36	104	0	60	42704
2026-01-29 22:28:49.98	22.74	2.90	-48.4	-50.8	6.1	0.00e+00	0	36	104	0	60	42653
2026-01-29 22:28:50.96	22.81	2.97	-48.3	-50.9	6.1	0.00e+00	0	36	104	0	60	42855
2026-01-29 22:28:51.94	22.88	3.04	-48.3	-50.9	6.1	0.00e+00	0	36	104	0	60	42778
2026-01-29 22:28:52.91	22.95	3.10	-48.3	-50.8	6.1	0.00e+00	0	36	104	0	60	42658
2026-01-29 22:28:53.89	23.02	3.17	-48.4	-50.9	6.1	0.00e+00	0	36	104	0	60	42879
2026-01-29 22:28:54.87	23.09	3.24	-48.4	-50.8	6.1	0.00e+00	0	36	104	0	60	42623
2026-01-29 22:28:55.84	23.15	3.30	-48.3	-50.8	6.1	0.00e+00	0	36	104	0	60	42578
2026-01-29 22:28:56.83	23.23	3.37	-48.4	-50.9	6.1	0.00e+00	0	36	104	0	60	42853
2026-01-29 22:28:57.80	23.30	3.44	-48.4	-50.8	6.1	0.00e+00	0	36	104	0	60	42431
2026-01-29 22:28:58.78	23.37	3.51	-48.4	-50.9	6.1	0.00e+00	0	36	104	0	60	42900
2026-01-29 22:28:59.75	23.44	3.57	-48.3	-50.9	6.1	0.00e+00	0	36	104	0	60	42741
2026-01-29 22:29:00.73	23.51	3.64	-48.4	-50.9	6.1	0.00e+00	0	36	104	0	60	42816
2026-01-29 22:29:01.70	23.58	3.71	-48.4	-50.9	6.1	0.00e+00	0	36	104	0	60	42770
2026-01-29 22:29:02.68	23.65	3.78	-48.4	-50.9	6.1	0.00e+00	0	36	104	0	60	42742
2026-01-29 22:29:03.66	23.72	3.85	-48.3	-50.8	6.1	0.00e+00	0	36	104	0	60	42578
2026-01-29 22:29:04.63	23.80	3.91	-48.7	-51.2	6.1	0.00e+00	0	36	104	0	60	44412
2026-01-29 22:29:05.61	23.87	3.98	-48.6	-51.1	6.1	0.00e+00	0	36	104	0	60	43826
2026-01-29 22:29:06.58	23.94	4.05	-48.6	-51.1	6.1	0.00e+00	0	36	104	0	60	43784
2026-01-29 22:29:07.56	24.02	4.12	-48.5	-51.0	6.1	0.00e+00	0	36	104	0	60	43275
2026-01-29 22:29:08.54	24.09	4.19	-48.5	-50.9	6.1	0.00e+00	0	36	104	0	60	43085
2026-01-29 22:29:09.51	24.17	4.26	-48.5	-50.9	6.1	0.00e+00	0	36	104	0	60	43149
2026-01-29 22:29:10.49	24.24	4.33	-48.3	-50.8	6.1	0.00e+00	0	36	104	0	60	42563
2026-01-29 22:29:11.47	24.32	4.40	-48.6	-51.1	6.1	0.00e+00	0	36	104	0	60	43856
2026-01-29 22:29:12.45	24.39	4.47	-48.4	-50.9	6.1	0.00e+00	0	36	104	0	60	42967
2026-01-29 22:29:13.43	24.47	4.54	-48.5	-50.9	6.1	0.00e+00	0	36	104	0	60	43098
2026-01-29 22:29:14.40	24.55	4.61	-48.4	-50.9	6.1	0.00e+00	0	36	104	0	60	43037
2026-01-29 22:29:15.38	24.62	4.68	-48.6	-51.1	6.1	0.00e+00	0	36	104	0	60	43935
2026-01-29 22:29:16.35	24.70	4.75	-48.6	-51.1	6.1	0.00e+00	0	37	104	0	60	43806
2026-01-29 22:29:17.33	24.78	4.82	-48.4	-50.9	6.1	0.00e+00	0	36	104	0	60	42862
2026-01-29 22:29:18.31	24.86	4.89	-48.6	-51.1	6.1	0.00e+00	0	36	104	0	60	43871
2026-01-29 22:29:19.28	24.94	4.97	-48.7	-51.2	6.1	0.00e+00	0	36	104	0	60	44552
2026-01-29 22:29:20.26	25.02	5.04	-48.6	-51.1	6.1	0.00e+00	0	37	104	0	60	43802
2026-01-29 22:29:21.24	25.10	5.11	-48.6	-51.1	6.1	0.00e+00	0	36	104	0	60	43772
2026-01-29 22:29:22.21	25.18	5.18	-48.6	-51.1	6.1	0.00e+00	0	37	104	0	60	43955
2026-01-29 22:29:23.19	25.26	5.26	-48.7	-51.2	6.1	0.00e+00	0	37	104	0	60	44606
2026-01-29 22:29:24.17	25.34	5.33	-48.7	-51.2	6.1	0.00e+00	0	37	104	0	60	44407
2026-01-29 22:29:25.15	25.42	5.40	-48.5	-51.0	6.1	0.00e+00	0	37	104	0	60	43657
2026-01-29 22:29:26.13	25.51	5.48	-48.5	-51.0	6.1	0.00e+00	0	37	104	0	60	43387
2026-01-29 22:29:27.11	25.59	5.55	-48.7	-51.1	6.1	0.00e+00	0	37	104	0	60	44193
2026-01-29 22:29:28.09	25.68	5.62	-48.6	-51.2	6.1	0.00e+00	0	37	104	0	60	44270
2026-01-29 22:29:29.07	25.76	5.70	-48.6	-51.1	6.1	0.00e+00	0	37	104	0	60	44054
2026-01-29 22:29:30.05	25.84	5.77	-42.9	-43.6	7.9	0.00e+00	0	37	104	0	60	18604
2026-01-29 22:29:31.02	25.93	5.85	-46.5	-48.2	6.2	3.32e-02	0	37	104	0	60	31316
2026-01-29 22:29:32.00	26.01	5.92	-33.0	-33.3	11.4	0.00e+00	75	37	104	0	42	16024
2026-01-29 22:29:32.98	26.10	6.00	-47.7	-49.8	6.1	1.93e-02	0	37	104	0	60	37766
2026-01-29 22:29:33.96	26.19	6.07	-32.0	-32.3	13.1	0.00e+00	15	37	104	0	40	15920
2026-01-29 22:29:34.94	26.28	6.15	-31.7	-32.1	15.0	0.00e+00	0	37	0	50331648	38	17442
2026-01-29 22:29:35.92	26.36	6.22	-31.2	-31.6	14.9	2.64e-02	0	37	0	159383552	38	16471
2026-01-29 22:29:36.90	26.45	6.30	-31.9	-32.3	14.6	2.64e-02	0	37	0	268435456	38	17887
2026-01-29 22:29:37.88	26.54	6.38	-30.7	-31.2	15.3	9.16e-03	0	37	0	377487360	38	15688
2026-01-29 22:29:38.85	26.63	6.45	-29.7	-30.1	15.6	9.16e-03	0	37	0	486539264	36	15513
2026-01-29 22:29:39.83	26.72	6.53	-29.1	-29.5	15.8	3.12e-03	0	37	0	603979776	34	16386
2026-01-29 22:29:40.81	26.81	6.61	-28.5	-28.9	16.1	3.12e-03	0	37	0	713031680	32	17113
2026-01-29 22:29:41.79	26.90	6.68	-28.2	-28.6	16.1	3.12e-03	0	37	0	822083584	32	16597
2026-01-29 22:29:42.77	27.00	6.76	-27.9	-28.3	16.2	6.37e-04	0	37	0	931135488	32	15949
2026-01-29 22:29:43.74	27.09	6.84	-27.8	-28.1	16.2	6.37e-04	0	37	0	1040187392	30	17601
2026-01-29 22:29:44.72	27.18	6.92	-27.4	-27.8	16.3	6.37e-04	0	37	0	1149239296	30	16867
2026-01-29 22:29:45.70	27.27	6.99	-27.1	-27.5	16.4	3.43e-04	0	37	0	1258291200	30	16427
2026-01-29 22:29:46.68	27.37	7.07	-27.2	-27.6	16.4	3.43e-04	0	37	0	1367343104	30	16516
2026-01-29 22:29:47.66	27.46	7.15	-27.2	-27.6	16.4	1.31e-04	0	37	0	1484783616	30	16519
2026-01-29 22:29:48.64	27.56	7.23	-27.1	-27.5	16.4	1.31e-04	0	37	0	1593835520	30	16348
2026-01-29 22:29:49.61	27.65	7.31	-27.1	-27.5	16.4	1.20e-04	0	37	0	1702887424	30	16419
2026-01-29 22:29:50.59	27.75	7.39	-27.0	-27.4	16.4	1.20e-04	0	37	0	1811939328	30	16176
2026-01-29 22:29:51.57	27.85	7.47	-26.9	-27.3	16.5	1.20e-04	0	38	0	1920991232	30	15970
2026-01-29 22:29:52.55	27.95	7.55	-26.7	-27.1	16.5	4.35e-05	0	37	0	2030043136	28	17576
2026-01-29 22:29:53.53	28.05	7.63	-27.0	-27.3	16.5	4.35e-05	0	37	0	2139095040	28	18012
2026-01-29 22:29:54.51	28.15	7.71	-26.6	-27.0	16.5	4.35e-05	0	38	0	2256535552	28	17377
2026-01-29 22:29:55.49	28.25	7.79	-26.7	-27.1	16.5	4.35e-05	0	37	0	2365587456	28	17562
2026-01-29 22:29:56.47	28.35	7.87	-26.8	-27.2	16.5	4.35e-05	0	38	0	2474639360	28	17708
2026-01-29 22:29:57.45	28.45	7.96	-26.7	-27.1	16.5	4.35e-05	0	38	0	2583691264	28	17480
2026-01-29 22:29:58.43	28.55	8.04	-26.5	-26.9	16.6	8.71e-05	0	38	0	2692743168	28	17088
2026-01-29 22:29:59.40	28.65	8.12	-26.5	-26.9	16.6	8.71e-05	0	38	0	2801795072	28	17164
2026-01-29 22:30:00.38	28.76	8.20	-26.7	-27.1	16.5	8.71e-05	0	38	0	2910846976	28	17589
2026-01-29 22:30:01.36	28.86	8.29	-26.6	-27.0	16.5	6.53e-05	0	38	0	3028287488	28	17358
2026-01-29 22:30:02.34	28.96	8.37	-26.7	-27.1	16.6	6.53e-05	0	38	0	3128950784	28	17526
2026-01-29 22:30:03.32	29.07	8.45	-26.6	-27.0	16.6	3.26e-05	0	38	0	3246391296	28	17370
2026-01-29 22:30:04.30	29.18	8.54	-26.4	-26.9	16.6	3.26e-05	0	38	0	3355443200	28	17042
2026-01-29 22:30:05.28	29.28	8.62	-26.5	-26.9	16.6	3.26e-05	0	38	0	3464495104	28	17091
2026-01-29 22:30:06.26	29.39	8.70	-26.4	-26.8	16.6	3.26e-05	0	38	0	3573547008	28	16868
2026-01-29 22:30:07.24	29.50	8.79	-26.4	-26.8	16.6	3.26e-05	0	38	0	3682598912	28	16923
2026-01-29 22:30:08.21	29.61	8.87	-26.4	-26.8	16.6	3.26e-05	0	38	0	3800039424	28	16879
2026-01-29 22:30:09.19	29.72	8.96	-26.2	-26.6	16.7	1.63e-05	0	38	0	3900702720	28	16525
2026-01-29 22:30:10.17	29.83	9.04	-26.4	-26.8	16.6	1.63e-05	0	38	0	4018143232	28	16918
2026-01-29 22:30:11.15	29.94	9.13	-26.1	-26.6	16.6	3.26e-05	0	38	0	4118806528	28	16440
2026-01-29 22:30:12.13	30.05	9.22	-26.2	-26.6	16.7	3.26e-05	0	38	0	4236247040	28	16525
2026-01-29 22:30:13.11	30.17	9.30	-26.0	-26.4	16.7	2.72e-05	0	38	0	4345298944	28	16185
2026-01-29 22:30:14.09	30.28	9.39	-26.0	-26.4	16.7	2.72e-05	0	38	0	4454350848	28	16215
2026-01-29 22:30:15.07	30.39	9.48	-26.0	-26.5	16.7	2.72e-05	0	38	0	4563402752	28	16244
2026-01-29 22:30:16.04	30.51	9.56	-26.0	-26.4	16.7	5.40e-06	0	38	0	4672454656	28	16163
2026-01-29 22:30:17.03	30.63	9.65	-26.0	-26.4	16.6	5.40e-06	0	38	0	4789895168	28	16144
2026-01-29 22:30:18.01	30.74	9.74	-25.9	-26.3	16.5	2.72e-05	0	38	0	4898947072	28	15910
2026-01-29 22:30:18.99	30.86	9.83	-25.8	-26.2	16.5	2.72e-05	0	38	0	5007998976	28	15815
2026-01-29 22:30:19.97	30.98	9.92	-25.9	-26.3	16.4	3.81e-05	0	38	0	5117050880	28	16004
2026-01-29 22:30:20.94	31.10	10.01	-25.9	-26.3	16.4	3.81e-05	0	38	0	5226102784	28	15956
2026-01-29 22:30:21.92	31.22	10.10	-25.9	-26.3	16.5	3.81e-05	0	38	0	5335154688	28	15995
2026-01-29 22:30:22.90	31.34	10.19	-25.8	-26.2	16.6	4.90e-05	0	38	0	5444206592	26	17679
2026-01-29 22:30:23.88	31.46	10.28	-25.9	-26.3	16.6	3.81e-05	0	38	0	5553258496	26	17856
2026-01-29 22:30:24.86	31.59	10.37	-25.7	-26.1	16.7	3.81e-05	0	38	0	5670699008	26	17461
2026-01-29 22:30:25.84	31.71	10.46	-25.7	-26.1	16.8	0.00e+00	0	38	0	5779750912	26	17503
2026-01-29 22:30:26.82	31.84	10.55	-25.8	-26.2	16.8	0.00e+00	0	38	0	5888802816	26	17759
2026-01-29 22:30:27.80	31.96	10.64	-25.8	-26.2	16.8	0.00e+00	0	38	0	5997854720	26	17753
2026-01-29 22:30:28.78	32.09	10.73	-25.5	-25.9	16.8	0.00e+00	0	38	0	6106906624	26	17072
2026-01-29 22:30:29.76	32.22	10.83	-25.4	-25.9	16.8	0.00e+00	0	38	0	6224347136	26	17070
2026-01-29 22:30:30.74	32.34	10.92	-25.5	-25.9	16.8	0.00e+00	0	38	0	6325010432	26	17155
2026-01-29 22:30:31.72	32.47	11.01	-25.3	-25.7	16.9	0.00e+00	0	38	0	6442450944	26	16787
2026-01-29 22:30:32.70	32.61	11.11	-25.3	-25.7	16.8	0.00e+00	0	38	0	6543114240	26	16704
2026-01-29 22:30:33.68	32.74	11.20	-25.3	-25.7	16.8	0.00e+00	0	38	0	6660554752	26	16718
2026-01-29 22:30:34.66	32.87	11.29	-25.4	-25.8	16.9	0.00e+00	0	38	0	6769606656	26	16965
2026-01-29 22:30:35.64	33.00	11.39	-25.3	-25.7	16.9	0.00e+00	0	38	0	6878658560	26	16716
2026-01-29 22:30:36.62	33.14	11.48	-25.4	-25.8	16.8	0.00e+00	0	38	0	6987710464	26	16937
2026-01-29 22:30:37.61	33.28	11.58	-25.2	-25.6	16.9	0.00e+00	0	38	0	7105150976	26	16561
2026-01-29 22:30:38.58	33.41	11.67	-25.1	-25.6	16.8	0.00e+00	0	38	0	7214202880	26	16485
2026-01-29 22:30:39.56	33.55	11.77	-25.1	-25.6	16.9	0.00e+00	0	38	0	7323254784	26	16457
2026-01-29 22:30:40.54	33.69	11.87	-25.0	-25.4	16.9	0.00e+00	0	38	0	7432306688	26	16218
2026-01-29 22:30:41.52	33.83	11.96	-25.1	-25.5	16.9	0.00e+00	0	38	0	7541358592	26	16400
2026-01-29 22:30:42.50	33.97	12.06	-25.1	-25.6	16.9	0.00e+00	0	38	0	7650410496	26	16454
2026-01-29 22:30:43.47	34.11	12.16	-25.1	-25.6	16.8	0.00e+00	0	38	0	7759462400	26	16440
2026-01-29 22:30:44.45	34.25	12.25	-25.1	-25.6	16.8	0.00e+00	0	38	0	7868514304	26	16442
2026-01-29 22:30:45.43	34.40	12.35	-25.0	-25.5	16.8	1.08e-05	0	38	0	7977566208	26	16282
2026-01-29 22:30:46.40	34.54	12.45	-24.9	-25.4	16.9	1.08e-05	0	38	0	8086618112	26	16136
2026-01-29 22:30:47.38	34.69	12.55	-25.0	-25.4	16.9	0.00e+00	0	38	0	8204058624	26	16131
2026-01-29 22:30:48.37	34.84	12.65	-25.0	-25.4	16.8	0.00e+00	0	38	0	8313110528	26	16210
2026-01-29 22:30:49.34	34.98	12.75	-25.0	-25.4	16.8	0.00e+00	0	38	0	8422162432	26	16226
2026-01-29 22:30:50.32	35.13	12.85	-24.9	-25.4	16.9	0.00e+00	0	38	0	8531214336	26	16059
2026-01-29 22:30:51.30	35.28	12.95	-25.1	-25.5	16.9	0.00e+00	0	38	0	8640266240	26	16304
2026-01-29 22:30:52.28	35.44	13.05	-25.0	-25.4	16.9	1.08e-05	0	38	0	8749318144	26	16150
2026-01-29 22:30:53.26	35.59	13.15	-25.0	-25.5	16.9	1.08e-05	0	38	0	8866758656	26	16268
2026-01-29 22:30:54.23	35.74	13.25	-24.8	-25.2	17.0	0.00e+00	0	38	0	8967421952	26	15838
2026-01-29 22:30:55.21	35.90	13.35	-24.9	-25.3	16.9	0.00e+00	0	38	0	9084862464	26	16034
2026-01-29 22:30:56.18	36.06	13.45	-24.8	-25.2	17.0	0.00e+00	0	38	0	9193914368	26	15818
2026-01-29 22:30:57.15	36.21	13.56	-24.8	-25.3	17.0	0.00e+00	0	38	0	9294577664	24	17837
2026-01-29 22:30:58.13	36.37	13.66	-24.7	-25.2	17.0	0.00e+00	0	38	0	9412018176	24	17640
2026-01-29 22:30:59.11	36.53	13.76	-24.6	-25.0	17.0	0.00e+00	0	38	0	9521070080	24	17384
2026-01-29 22:31:00.09	36.70	13.87	-24.7	-25.1	17.0	0.00e+00	0	38	0	9630121984	24	17539
2026-01-29 22:31:01.06	36.86	13.97	-24.5	-25.0	17.0	0.00e+00	0	38	0	9739173888	24	17282
2026-01-29 22:31:02.04	37.02	14.07	-24.6	-25.1	17.0	0.00e+00	0	38	0	9848225792	24	17482
2026-01-29 22:31:03.02	37.19	14.18	-24.7	-25.1	17.1	0.00e+00	0	39	0	9957277696	24	17497
2026-01-29 22:31:04.00	37.36	14.28	-24.3	-24.7	17.1	0.00e+00	0	38	0	10066329600	24	16774
2026-01-29 22:31:04.98	37.53	14.39	-24.3	-24.8	17.1	0.00e+00	0	38	0	10183770112	24	16832
2026-01-29 22:31:05.96	37.70	14.50	-24.2	-24.7	17.0	5.40e-06	0	38	0	10284433408	24	16668
2026-01-29 22:31:06.94	37.87	14.60	-24.2	-24.6	17.0	5.40e-06	0	38	0	10401873920	24	16556
2026-01-29 22:31:07.92	38.04	14.71	-24.1	-24.5	17.1	0.00e+00	0	39	0	10510925824	24	16405
2026-01-29 22:31:08.90	38.22	14.82	-24.0	-24.5	17.1	0.00e+00	0	38	0	10619977728	24	16287
2026-01-29 22:31:09.88	38.40	14.93	-24.0	-24.5	17.1	0.00e+00	0	38	0	10729029632	24	16324
2026-01-29 22:31:10.85	38.57	15.03	-24.0	-24.5	17.1	0.00e+00	0	39	0	10838081536	24	16313
2026-01-29 22:31:11.83	38.75	15.14	-24.1	-24.5	17.1	0.00e+00	0	39	0	10947133440	24	16351
2026-01-29 22:31:12.80	38.93	15.25	-24.1	-24.6	17.1	0.00e+00	0	38	0	11056185344	24	16450
2026-01-29 22:31:13.78	39.11	15.36	-23.9	-24.3	17.1	0.00e+00	0	38	0	11173625856	24	16048
2026-01-29 22:31:14.76	39.30	15.47	-23.8	-24.3	17.2	0.00e+00	0	39	0	11282677760	24	15932
2026-01-29 22:31:15.74	39.48	15.58	-23.9	-24.4	17.1	0.00e+00	0	38	0	11391729664	24	16109
2026-01-29 22:31:16.72	39.67	15.69	-23.7	-24.1	17.1	0.00e+00	0	38	0	11500781568	22	17484
2026-01-29 22:31:17.70	39.86	15.80	-23.7	-24.1	17.0	0.00e+00	0	39	0	11609833472	22	17558
2026-01-29 22:31:18.67	40.05	15.91	-23.5	-24.0	16.9	0.00e+00	0	38	0	11718885376	22	17288
2026-01-29 22:31:19.65	40.24	16.02	-23.5	-24.0	16.9	0.00e+00	0	39	0	11827937280	22	17232
2026-01-29 22:31:20.62	40.43	16.14	-23.5	-23.9	17.0	0.00e+00	0	39	0	11936989184	22	17181
2026-01-29 22:31:21.60	40.63	16.25	-23.4	-23.9	17.1	0.00e+00	0	39	0	12046041088	22	17085
2026-01-29 22:31:22.58	40.82	16.36	-23.5	-24.0	17.1	0.00e+00	0	38	0	12163481600	22	17223
2026-01-29 22:31:23.56	41.02	16.47	-23.5	-23.9	17.2	0.00e+00	0	39	0	12272533504	22	17193
2026-01-29 22:31:24.55	41.22	16.59	-23.4	-23.9	17.2	0.00e+00	0	39	0	12381585408	22	17109
2026-01-29 22:31:25.52	41.42	16.70	-23.3	-23.8	17.2	0.00e+00	0	39	0	12490637312	22	16898
2026-01-29 22:31:26.50	41.63	16.82	-23.3	-23.7	17.2	0.00e+00	0	39	0	12599689216	22	16744
2026-01-29 22:31:27.49	41.84	16.93	-23.3	-23.7	17.1	0.00e+00	0	39	0	12708741120	22	16766
2026-01-29 22:31:28.47	42.04	17.05	-23.3	-23.7	17.0	0.00e+00	0	39	0	12826181632	22	16758
2026-01-29 22:31:29.45	42.25	17.17	-23.1	-23.5	17.2	0.00e+00	0	39	0	12926844928	22	16379
2026-01-29 22:31:30.42	42.46	17.28	-23.1	-23.6	17.3	0.00e+00	0	39	0	13044285440	22	16443
2026-01-29 22:31:31.40	42.67	17.40	-23.1	-23.5	17.3	0.00e+00	0	39	0	13153337344	22	16363
2026-01-29 22:31:32.37	42.89	17.51	-23.0	-23.5	17.2	0.00e+00	0	39	0	13262389248	22	16293
2026-01-29 22:31:33.35	43.10	17.63	-22.8	-23.3	17.3	0.00e+00	0	39	0	13371441152	22	15887
2026-01-29 22:31:34.33	43.32	17.75	-22.8	-23.3	17.4	0.00e+00	0	39	0	13480493056	22	15951
2026-01-29 22:31:35.31	43.54	17.87	-22.8	-23.3	17.3	0.00e+00	0	39	0	13597933568	22	15942
2026-01-29 22:31:36.29	43.77	17.98	-22.7	-23.2	17.3	0.00e+00	0	39	0	13698596864	20	17604
2026-01-29 22:31:37.27	43.99	18.10	-22.5	-23.0	17.3	0.00e+00	0	39	0	13816037376	20	17330
2026-01-29 22:31:38.24	44.22	18.22	-22.4	-22.9	17.4	0.00e+00	0	39	0	13925089280	20	17169
2026-01-29 22:31:39.22	44.44	18.34	-22.4	-22.9	17.4	0.00e+00	0	39	0	14034141184	20	17035
2026-01-29 22:31:40.19	44.67	18.46	-22.3	-22.9	17.3	0.00e+00	0	39	0	14143193088	20	17006
2026-01-29 22:31:41.17	44.90	18.58	-22.5	-23.0	17.2	0.00e+00	0	39	0	14252244992	20	17243
2026-01-29 22:31:42.14	45.14	18.70	-22.4	-22.8	17.4	0.00e+00	0	39	0	14361296896	20	16975
2026-01-29 22:31:43.12	45.37	18.82	-22.2	-22.7	17.4	0.00e+00	0	39	0	14470348800	20	16752
2026-01-29 22:31:44.10	45.61	18.94	-22.2	-22.7	17.4	0.00e+00	0	39	0	14579400704	20	16730
2026-01-29 22:31:45.07	45.85	19.06	-22.2	-22.7	17.4	0.00e+00	0	39	0	14688452608	20	16644
2026-01-29 22:31:46.05	46.09	19.18	-22.1	-22.6	17.4	0.00e+00	0	39	0	14797504512	20	16444
2026-01-29 22:31:47.03	46.34	19.30	-22.1	-22.6	17.4	0.00e+00	0	39	0	14914945024	20	16485
2026-01-29 22:31:48.01	46.59	19.43	-22.1	-22.6	17.4	0.00e+00	0	39	0	15015608320	20	16475
2026-01-29 22:31:48.98	46.84	19.55	-22.1	-22.6	17.5	0.00e+00	0	39	0	15133048832	20	16494
2026-01-29 22:31:49.96	47.09	19.67	-21.9	-22.4	17.4	0.00e+00	0	39	0	15242100736	20	16132
2026-01-29 22:31:50.94	47.34	19.79	-21.9	-22.4	17.4	0.00e+00	0	39	0	15351152640	20	16142
2026-01-29 22:31:51.92	47.60	19.92	-21.8	-22.3	17.4	0.00e+00	0	39	0	15460204544	20	16049
2026-01-29 22:31:52.90	47.86	20.04	-21.7	-22.2	17.5	0.00e+00	0	39	0	15569256448	18	17763
2026-01-29 22:31:53.87	48.12	20.16	-21.8	-22.3	17.5	0.00e+00	0	39	0	15678308352	18	17875
2026-01-29 22:31:54.84	48.38	20.29	-21.6	-22.1	17.4	0.00e+00	0	39	0	15787360256	18	17505
2026-01-29 22:31:55.81	48.64	20.41	-21.7	-22.2	17.4	0.00e+00	0	39	0	15904800768	18	17738
2026-01-29 22:31:56.79	48.91	20.53	-21.7	-22.2	17.5	0.00e+00	0	39	0	16005464064	18	17674
2026-01-29 22:31:57.76	49.18	20.66	-21.6	-22.1	17.5	0.00e+00	0	39	0	16122904576	18	17476
2026-01-29 22:31:58.75	49.45	20.78	-21.7	-22.1	17.5	0.00e+00	0	39	0	16223567872	18	17558
2026-01-29 22:31:59.73	49.73	20.91	-21.5	-21.9	17.5	0.00e+00	0	39	0	16341008384	18	17138
2026-01-29 22:32:00.71	50.01	21.03	-21.4	-21.8	17.5	0.00e+00	0	39	0	16450060288	18	16973
2026-01-29 22:32:01.69	50.29	21.16	-21.4	-21.9	17.5	0.00e+00	0	39	0	16559112192	18	17165
2026-01-29 22:32:02.67	50.57	21.28	-21.2	-21.7	17.5	0.00e+00	0	39	0	16668164096	18	16773
2026-01-29 22:32:03.65	50.86	21.41	-21.3	-21.8	17.5	0.00e+00	0	39	0	16777216000	18	16814
2026-01-29 22:32:04.63	51.15	21.54	-21.1	-21.6	17.5	0.00e+00	0	39	0	16894656512	18	16570
2026-01-29 22:32:05.61	51.44	21.66	-21.2	-21.7	17.5	0.00e+00	0	39	0	17003708416	18	16630
2026-01-29 22:32:06.59	51.73	21.79	-21.0	-21.5	17.5	0.00e+00	0	39	0	17112760320	18	16412
2026-01-29 22:32:07.56	52.03	21.91	-21.0	-21.5	17.5	0.00e+00	0	39	0	17221812224	18	16396
2026-01-29 22:32:08.54	52.33	22.04	-21.1	-21.6	17.5	0.00e+00	0	39	0	17330864128	18	16527
2026-01-29 22:32:09.52	52.63	22.17	-21.1	-21.6	17.5	0.00e+00	0	39	0	17439916032	18	16519
2026-01-29 22:32:10.50	52.93	22.29	-21.0	-21.5	17.5	0.00e+00	0	39	0	17548967936	18	16363
2026-01-29 22:32:11.47	53.24	22.42	-21.0	-21.4	17.2	0.00e+00	0	39	0	17658019840	18	16213
2026-01-29 22:32:12.45	53.55	22.54	-20.8	-21.3	17.1	0.00e+00	0	39	0	17767071744	18	15908
2026-01-29 22:32:13.42	53.86	22.67	-20.8	-21.3	17.4	0.00e+00	0	39	0	17884512256	18	15938
2026-01-29 22:32:14.40	54.18	22.79	-20.9	-21.3	17.5	0.00e+00	0	39	0	17985175552	18	16027
2026-01-29 22:32:15.38	54.49	22.92	-20.9	-21.4	17.6	0.00e+00	0	39	0	18102616064	18	16104
2026-01-29 22:32:16.36	54.82	23.05	-20.9	-21.4	17.5	0.00e+00	0	39	0	18211667968	18	16104
2026-01-29 22:32:17.33	55.14	23.17	-20.6	-21.1	17.5	0.00e+00	0	39	0	18320719872	16	17479
2026-01-29 22:32:18.30	55.46	23.30	-20.5	-21.0	17.6	0.00e+00	0	39	0	18429771776	16	17370
2026-01-29 22:32:19.28	55.79	23.42	-20.5	-21.0	17.5	0.00e+00	0	39	0	18538823680	16	17305
2026-01-29 22:32:20.25	56.12	23.55	-20.6	-21.1	17.5	0.00e+00	0	39	0	18647875584	16	17410
2026-01-29 22:32:21.23	56.46	23.67	-20.4	-20.9	17.5	0.00e+00	0	39	0	18756927488	16	17036
2026-01-29 22:32:22.21	56.80	23.80	-20.5	-21.0	17.4	0.00e+00	0	39	0	18874368000	16	17290
2026-01-29 22:32:23.19	57.14	23.92	-20.5	-21.0	17.3	0.00e+00	0	39	0	18975031296	16	17295
2026-01-29 22:32:24.17	57.49	24.05	-20.2	-20.7	17.3	0.00e+00	0	39	0	19092471808	16	16633
2026-01-29 22:32:25.14	57.83	24.17	-20.2	-20.7	17.3	0.00e+00	0	39	0	19193135104	16	16701
2026-01-29 22:32:26.12	58.18	24.30	-20.2	-20.7	17.4	0.00e+00	0	39	0	19310575616	16	16661
2026-01-29 22:32:27.09	58.53	24.42	-20.1	-20.6	17.6	0.00e+00	0	39	0	19419627520	16	16440
2026-01-29 22:32:28.07	58.89	24.54	-20.2	-20.7	17.5	0.00e+00	0	39	0	19528679424	16	16719
2026-01-29 22:32:29.05	59.25	24.67	-20.0	-20.5	17.5	0.00e+00	0	39	0	19637731328	16	16255
2026-01-29 22:32:30.03	59.61	24.79	-20.1	-20.6	17.6	0.00e+00	0	39	0	19746783232	16	16428
2026-01-29 22:32:31.00	59.98	24.91	-20.0	-20.5	17.6	0.00e+00	0	39	0	19855835136	16	16358
2026-01-29 22:32:31.98	60.35	25.03	-19.9	-20.4	17.6	0.00e+00	0	39	0	19964887040	16	16079
2026-01-29 22:32:32.97	60.72	25.15	-19.9	-20.4	17.6	0.00e+00	0	39	0	20082327552	16	16182
2026-01-29 22:32:33.94	61.10	25.27	-19.9	-20.4	17.6	0.00e+00	0	39	0	20191379456	16	16079
2026-01-29 22:32:34.92	61.48	25.40	-19.7	-20.2	17.6	0.00e+00	0	39	0	20300431360	14	17746
2026-01-29 22:32:35.90	61.86	25.52	-19.7	-20.2	17.6	0.00e+00	0	39	0	20409483264	14	17764
2026-01-29 22:32:36.87	62.24	25.63	-19.7	-20.2	17.6	0.00e+00	0	39	0	20518535168	14	17612
2026-01-29 22:32:37.85	62.63	25.75	-19.6	-20.1	17.6	0.00e+00	0	39	0	20627587072	14	17513
2026-01-29 22:32:38.83	63.02	25.87	-19.6	-20.1	17.5	0.00e+00	0	39	0	20736638976	14	17405
2026-01-29 22:32:39.81	63.42	25.99	-19.6	-20.1	17.5	0.00e+00	0	39	0	20854079488	14	17479
2026-01-29 22:32:40.79	63.81	26.11	-19.7	-20.2	17.5	0.00e+00	0	39	0	20954742784	14	17625
2026-01-29 22:32:41.77	64.22	26.22	-19.5	-20.0	17.6	0.00e+00	0	39	0	21072183296	14	17288
2026-01-29 22:32:42.74	64.62	26.34	-19.6	-20.1	17.6	0.00e+00	0	39	0	21181235200	14	17458
2026-01-29 22:32:43.72	65.03	26.45	-19.6	-20.1	17.6	0.00e+00	0	39	0	21290287104	14	17440
2026-01-29 22:32:44.70	65.44	26.56	-19.4	-19.9	17.6	0.00e+00	0	39	0	21399339008	14	17103
2026-01-29 22:32:45.67	65.85	26.68	-19.4	-19.9	17.6	0.00e+00	0	39	0	21508390912	14	17024
2026-01-29 22:32:46.65	66.26	26.79	-19.3	-19.8	17.6	0.00e+00	0	39	0	21617442816	14	16968
2026-01-29 22:32:47.62	66.68	26.90	-19.3	-19.8	17.7	0.00e+00	0	39	0	21726494720	14	16988
2026-01-29 22:32:48.60	67.10	27.01	-19.3	-19.8	17.7	0.00e+00	0	39	0	21835546624	14	16965
2026-01-29 22:32:49.59	67.54	27.12	-19.4	-19.9	17.6	0.00e+00	0	39	0	21944598528	14	17055
2026-01-29 22:32:50.56	67.96	27.22	-19.3	-19.8	17.6	0.00e+00	0	39	0	22062039040	14	16901
2026-01-29 22:32:51.54	68.40	27.33	-19.4	-19.9	17.7	0.00e+00	0	39	0	22171090944	14	17005
2026-01-29 22:32:52.52	68.83	27.44	-19.3	-19.8	17.6	0.00e+00	0	39	0	22280142848	14	16889
2026-01-29 22:32:53.50	69.27	27.54	-19.2	-19.7	17.7	0.00e+00	0	39	0	22389194752	14	16719
2026-01-29 22:32:54.48	69.72	27.64	-19.3	-19.8	17.7	0.00e+00	0	39	0	22498246656	14	16911
2026-01-29 22:32:55.45	70.16	27.74	-19.3	-19.8	17.6	0.00e+00	0	39	0	22607298560	14	16857
2026-01-29 22:32:56.43	70.61	27.85	-19.2	-19.7	17.7	0.00e+00	0	39	0	22716350464	14	16726
2026-01-29 22:32:57.40	71.05	27.94	-19.3	-19.7	17.7	0.00e+00	0	39	0	22825402368	14	16749
2026-01-29 22:32:58.38	71.51	28.04	-19.0	-19.5	17.7	0.00e+00	0	39	0	22934454272	14	16310
2026-01-29 22:32:59.36	71.97	28.14	-19.1	-19.5	17.6	0.00e+00	0	39	0	23043506176	14	16360
2026-01-29 22:33:00.33	72.42	28.23	-19.0	-19.5	17.6	0.00e+00	0	39	0	23160946688	14	16278
2026-01-29 22:33:01.31	72.89	28.33	-18.9	-19.4	17.6	0.00e+00	0	39	0	23269998592	14	16195
2026-01-29 22:33:02.29	73.35	28.42	-18.8	-19.3	17.6	0.00e+00	0	39	0	23379050496	14	15913
2026-01-29 22:33:03.27	73.82	28.51	-18.7	-19.2	17.7	0.00e+00	0	39	0	23488102400	14	15863
2026-01-29 22:33:04.24	74.29	28.60	-18.7	-19.2	17.6	0.00e+00	0	39	0	23597154304	12	17665
2026-01-29 22:33:05.22	74.77	28.69	-18.8	-19.2	17.6	0.00e+00	0	39	0	23706206208	12	17762
2026-01-29 22:33:06.20	75.25	28.77	-18.7	-19.1	17.6	0.00e+00	0	39	0	23815258112	12	17575
2026-01-29 22:33:07.18	75.73	28.86	-18.7	-19.2	17.6	0.00e+00	0	39	0	23924310016	12	17694
2026-01-29 22:33:08.15	76.21	28.94	-18.6	-19.1	17.6	0.00e+00	0	39	0	24033361920	12	17528
2026-01-29 22:33:09.13	76.69	29.02	-18.7	-19.2	17.5	0.00e+00	0	39	0	24150802432	12	17648
2026-01-29 22:33:10.11	77.18	29.10	-18.7	-19.1	17.5	0.00e+00	0	39	0	24259854336	12	17559
2026-01-29 22:33:11.09	77.67	29.17	-18.6	-19.0	17.4	0.00e+00	0	39	0	24368906240	12	17389
2026-01-29 22:33:12.07	78.17	29.25	-18.6	-19.1	17.4	0.00e+00	0	39	0	24477958144	12	17410
2026-01-29 22:33:13.05	78.66	29.32	-18.6	-19.0	17.5	0.00e+00	0	39	0	24587010048	12	17387
2026-01-29 22:33:14.03	79.16	29.39	-18.6	-19.1	17.5	0.00e+00	0	39	0	24696061952	12	17478
2026-01-29 22:33:15.00	79.66	29.46	-18.5	-19.0	17.5	0.00e+00	0	39	0	24805113856	12	17361
2026-01-29 22:33:15.97	80.16	29.53	-18.5	-19.0	17.5	0.00e+00	0	39	0	24914165760	12	17233
2026-01-29 22:33:16.95	80.66	29.59	-18.6	-19.1	17.6	0.00e+00	0	39	0	25023217664	12	17531
2026-01-29 22:33:17.92	81.17	29.66	-18.6	-19.1	17.5	0.00e+00	0	39	0	25140658176	12	17564
2026-01-29 22:33:18.90	81.68	29.72	-18.5	-19.0	17.5	0.00e+00	0	39	0	25241321472	12	17342
2026-01-29 22:33:19.88	82.19	29.78	-18.5	-19.0	17.5	0.00e+00	0	39	0	25358761984	12	17236
2026-01-29 22:33:20.86	82.70	29.83	-18.5	-18.9	17.5	0.00e+00	0	39	0	25459425280	12	17145
2026-01-29 22:33:21.83	83.21	29.89	-18.4	-18.9	17.5	0.00e+00	0	39	0	25576865792	12	17070
2026-01-29 22:33:22.81	83.73	29.94	-18.5	-19.0	17.4	0.00e+00	0	39	0	25685917696	12	17232
2026-01-29 22:33:23.79	84.25	29.99	-18.4	-18.9	17.4	0.00e+00	0	39	0	25794969600	12	17133
2026-01-29 22:33:24.77	84.77	30.04	-18.6	-19.1	17.4	0.00e+00	0	39	0	25904021504	12	17410
2026-01-29 22:33:25.75	85.30	30.08	-18.6	-19.0	17.4	0.00e+00	0	39	0	26013073408	12	17374
2026-01-29 22:33:26.73	85.82	30.12	-18.5	-19.0	17.3	0.00e+00	0	39	0	26130513920	12	17272
2026-01-29 22:33:27.70	86.34	30.16	-18.6	-19.0	17.4	0.00e+00	0	39	0	26231177216	12	17330
2026-01-29 22:33:28.68	86.87	30.20	-18.5	-19.0	17.5	0.00e+00	0	39	0	26348617728	12	17279
2026-01-29 22:33:29.66	87.40	30.24	-18.4	-18.9	17.4	0.00e+00	0	39	0	26457669632	12	17067
2026-01-29 22:33:30.64	87.93	30.27	-18.4	-18.9	17.4	0.00e+00	0	39	0	26566721536	12	17039
2026-01-29 22:33:31.62	88.46	30.30	-18.3	-18.8	17.4	0.00e+00	0	39	0	26675773440	12	16816
2026-01-29 22:33:32.60	88.99	30.33	-18.4	-18.8	17.4	0.00e+00	0	39	0	26784825344	12	16933
2026-01-29 22:33:33.58	89.52	30.36	-18.3	-18.7	17.4	0.00e+00	0	39	0	26893877248	12	16761
2026-01-29 22:33:34.56	90.06	30.38	-18.3	-18.7	17.4	0.00e+00	0	39	0	27011317760	12	16756
2026-01-29 22:33:35.54	90.59	30.40	-18.3	-18.7	17.4	0.00e+00	0	39	0	27120369664	12	16780
2026-01-29 22:33:36.52	91.13	30.42	-18.3	-18.7	17.3	0.00e+00	0	39	0	27229421568	12	16743
2026-01-29 22:33:37.51	91.67	30.44	-18.2	-18.7	17.3	0.00e+00	0	39	0	27338473472	12	16688
2026-01-29 22:33:38.48	92.20	30.45	-18.3	-18.8	17.3	0.00e+00	0	39	0	27447525376	12	16846
2026-01-29 22:33:39.46	92.74	30.46	-18.4	-18.8	17.3	0.00e+00	0	39	0	27556577280	12	16997
2026-01-29 22:33:40.44	93.28	30.47	-18.3	-18.7	17.4	0.00e+00	0	39	0	27665629184	12	16731
2026-01-29 22:33:41.42	93.81	30.47	-18.3	-18.7	17.3	0.00e+00	0	39	0	27783069696	12	16749
2026-01-29 22:33:42.39	94.35	30.48	-18.2	-18.7	17.3	0.00e+00	0	39	0	27892121600	12	16660
2026-01-29 22:33:43.37	94.89	30.48	-18.4	-18.8	17.3	0.00e+00	0	39	0	28001173504	12	16952
2026-01-29 22:33:44.36	95.43	30.47	-18.4	-18.8	17.2	0.00e+00	0	39	0	28110225408	12	16952
2026-01-29 22:33:45.34	95.97	30.47	-18.3	-18.7	17.2	0.00e+00	0	39	0	28219277312	12	16775
2026-01-29 22:33:46.32	96.51	30.46	-18.3	-18.8	17.3	0.00e+00	0	39	0	28328329216	12	16896
2026-01-29 22:33:47.30	97.04	30.45	-18.3	-18.7	17.3	0.00e+00	0	39	0	28437381120	12	16780
2026-01-29 22:33:48.27	97.57	30.44	-18.4	-18.9	17.3	0.00e+00	0	39	0	28554821632	12	17044
2026-01-29 22:33:49.25	98.11	30.43	-18.3	-18.8	17.2	0.00e+00	0	39	0	28655484928	12	16834
2026-01-29 22:33:50.23	98.65	30.41	-18.3	-18.8	17.3	0.00e+00	0	39	0	28772925440	12	16852
2026-01-29 22:33:51.20	99.18	30.39	-18.3	-18.8	17.2	0.00e+00	0	39	0	28881977344	12	16875
2026-01-29 22:33:52.18	99.71	30.37	-18.4	-18.8	17.2	0.00e+00	0	39	0	28991029248	12	16904
2026-01-29 22:33:53.16	100.25	30.34	-18.3	-18.8	17.2	0.00e+00	0	39	0	29100081152	12	16836
2026-01-29 22:33:54.14	100.78	30.31	-18.5	-18.9	17.2	0.00e+00	0	39	0	29209133056	12	17082
2026-01-29 22:33:55.12	101.31	30.28	-18.4	-18.9	17.3	0.00e+00	0	39	0	29318184960	12	17015
2026-01-29 22:33:56.10	101.84	30.25	-18.4	-18.9	17.2	0.00e+00	0	39	0	29427236864	12	17018
2026-01-29 22:33:57.07	102.37	30.22	-18.4	-18.9	17.3	0.00e+00	0	39	0	29544677376	12	17039
2026-01-29 22:33:58.06	102.90	30.18	-18.5	-18.9	17.2	0.00e+00	0	39	0	29653729280	12	17174
2026-01-29 22:33:59.03	103.42	30.14	-18.6	-19.0	17.3	0.00e+00	0	39	0	29762781184	12	17264
2026-01-29 22:34:00.01	103.95	30.10	-18.5	-19.0	17.2	0.00e+00	0	39	0	29871833088	12	17250
2026-01-29 22:34:00.99	104.47	30.05	-18.5	-19.0	17.3	0.00e+00	0	39	0	29980884992	12	17213
2026-01-29 22:34:01.96	104.99	30.00	-18.6	-19.0	17.3	0.00e+00	0	39	0	30089936896	12	17329
2026-01-29 22:34:02.94	105.51	29.96	-18.6	-19.0	17.4	0.00e+00	0	39	0	30198988800	12	17347
2026-01-29 22:34:03.92	106.03	29.90	-18.6	-19.1	17.3	0.00e+00	0	39	0	30316429312	12	17414
2026-01-29 22:34:04.89	106.54	29.85	-18.8	-19.2	17.2	0.00e+00	0	39	0	30417092608	12	17706
2026-01-29 22:34:05.88	107.06	29.79	-18.7	-19.1	17.3	0.00e+00	0	39	0	30534533120	12	17595
2026-01-29 22:34:06.85	107.57	29.74	-18.6	-19.1	17.3	0.00e+00	0	39	0	30635196416	12	17464
2026-01-29 22:34:07.83	108.09	29.68	-18.6	-19.0	17.3	0.00e+00	0	39	0	30752636928	12	17347
2026-01-29 22:34:08.81	108.59	29.61	-18.6	-19.0	17.3	0.00e+00	0	39	0	30861688832	12	17268
2026-01-29 22:34:09.79	109.10	29.55	-18.7	-19.1	17.3	0.00e+00	0	39	0	30970740736	12	17462
2026-01-29 22:34:10.76	109.60	29.48	-18.6	-19.1	17.4	0.00e+00	0	39	0	31079792640	12	17416
2026-01-29 22:34:11.74	110.11	29.41	-18.7	-19.1	17.4	0.00e+00	0	39	0	31188844544	12	17592
2026-01-29 22:34:12.72	110.61	29.34	-18.8	-19.2	17.4	0.00e+00	0	39	0	31306285056	12	17678
2026-01-29 22:34:13.69	111.10	29.27	-18.7	-19.1	17.4	0.00e+00	0	39	0	31406948352	12	17578
2026-01-29 22:34:14.67	111.60	29.20	-18.8	-19.2	17.4	0.00e+00	0	39	0	31524388864	12	17729
2026-01-29 22:34:15.64	112.09	29.12	-18.8	-19.2	17.4	0.00e+00	0	39	0	31625052160	12	17790
2026-01-29 22:34:16.62	112.58	29.04	-18.8	-19.3	17.4	0.00e+00	0	39	0	31742492672	12	17843
2026-01-29 22:34:17.60	113.07	28.96	-18.8	-19.2	17.5	0.00e+00	0	39	0	31851544576	12	17687
2026-01-29 22:34:18.57	113.55	28.88	-18.8	-19.3	17.5	0.00e+00	0	39	0	31960596480	12	17824
2026-01-29 22:34:19.55	114.03	28.80	-19.0	-19.4	17.5	0.00e+00	0	39	0	32069648384	12	18076
2026-01-29 22:34:20.53	114.51	28.71	-19.0	-19.4	17.5	0.00e+00	0	39	0	32178700288	12	18111
2026-01-29 22:34:21.51	114.99	28.62	-19.2	-19.6	17.5	0.00e+00	0	39	0	32296140800	12	18474
2026-01-29 22:34:22.49	115.46	28.53	-19.0	-19.5	17.5	0.00e+00	0	39	0	32396804096	12	18240
2026-01-29 22:34:23.46	115.93	28.44	-19.2	-19.6	17.4	0.00e+00	0	39	0	32514244608	12	18440
2026-01-29 22:34:24.44	116.40	28.35	-19.1	-19.6	17.5	0.00e+00	0	39	0	32614907904	12	18435
2026-01-29 22:34:25.41	116.86	28.26	-19.2	-19.6	17.5	0.00e+00	0	39	0	32732348416	12	18548
2026-01-29 22:34:26.39	117.32	28.16	-19.1	-19.5	17.6	0.00e+00	0	39	0	32841400320	12	18301
2026-01-29 22:34:27.37	117.79	28.07	-19.3	-19.7	17.5	0.00e+00	0	39	0	32950452224	12	18800
2026-01-29 22:34:28.34	118.24	27.97	-19.0	-19.4	17.6	0.00e+00	0	39	0	33059504128	12	18215
2026-01-29 22:34:29.31	118.69	27.87	-19.1	-19.6	17.6	0.00e+00	0	39	0	33168556032	12	18447
2026-01-29 22:34:30.30	119.14	27.77	-19.0	-19.5	17.7	0.00e+00	0	39	0	33277607936	12	18240
2026-01-29 22:34:31.27	119.59	27.67	-19.2	-19.6	17.7	0.00e+00	0	39	0	33386659840	12	18629
2026-01-29 22:34:32.25	120.03	27.57	-19.1	-19.5	17.7	0.00e+00	0	39	0	33495711744	12	18429
2026-01-29 22:34:33.23	120.48	27.46	-19.2	-19.6	17.7	0.00e+00	0	39	0	33604763648	12	18585
2026-01-29 22:34:34.20	120.91	27.36	-19.2	-19.6	17.7	0.00e+00	0	39	0	33713815552	12	18498
2026-01-29 22:34:35.18	121.35	27.25	-19.3	-19.7	17.7	0.00e+00	0	39	0	33831256064	12	18761
2026-01-29 22:34:36.16	121.78	27.14	-19.3	-19.7	17.7	0.00e+00	0	39	0	33931919360	12	18767
2026-01-29 22:34:37.13	122.21	27.03	-19.3	-19.8	17.7	0.00e+00	0	39	0	34049359872	12	18867
2026-01-29 22:34:38.11	122.63	26.92	-19.3	-19.7	17.7	0.00e+00	0	39	0	34158411776	12	18825
2026-01-29 22:34:39.09	123.06	26.81	-19.3	-19.7	17.7	0.00e+00	0	39	0	34267463680	12	18845
2026-01-29 22:34:40.07	123.48	26.70	-19.3	-19.7	17.8	0.00e+00	0	39	0	34376515584	12	18764
2026-01-29 22:34:41.05	123.89	26.59	-19.3	-19.7	17.8	0.00e+00	0	39	0	34485567488	12	18762
2026-01-29 22:34:42.02	124.30	26.47	-19.4	-19.8	17.8	0.00e+00	0	39	0	34594619392	12	19005
2026-01-29 22:34:43.00	124.71	26.36	-19.4	-19.8	17.8	0.00e+00	0	39	0	34703671296	12	18959
2026-01-29 22:34:43.98	125.12	26.24	-19.4	-19.8	17.8	0.00e+00	0	39	0	34821111808	12	19055
2026-01-29 22:34:44.95	125.52	26.13	-19.6	-20.0	17.9	0.00e+00	0	39	0	34921775104	12	19488
2026-01-29 22:34:45.93	125.92	26.01	-19.4	-19.9	17.9	0.00e+00	0	39	0	35039215616	12	19126
2026-01-29 22:34:46.90	126.32	25.89	-19.5	-20.0	17.8	0.00e+00	0	39	0	35139878912	12	19363
2026-01-29 22:34:47.88	126.71	25.78	-19.5	-20.0	17.9	0.00e+00	0	39	0	35257319424	12	19327
2026-01-29 22:34:48.86	127.10	25.66	-19.5	-19.9	17.9	0.00e+00	0	39	0	35366371328	12	19237
2026-01-29 22:34:49.84	127.49	25.54	-19.6	-20.1	17.9	0.00e+00	0	39	0	35475423232	12	19545
2026-01-29 22:34:50.82	127.88	25.42	-19.7	-20.1	17.9	0.00e+00	0	39	0	35584475136	12	19741
2026-01-29 22:34:51.80	128.26	25.29	-19.7	-20.2	17.9	0.00e+00	0	39	0	35693527040	14	17619
2026-01-29 22:34:52.77	128.63	25.17	-19.7	-20.2	17.9	0.00e+00	0	39	0	35810967552	14	17673
2026-01-29 22:34:53.75	129.01	25.05	-19.7	-20.2	17.9	0.00e+00	0	39	0	35911630848	14	17661
2026-01-29 22:34:54.73	129.38	24.93	-19.7	-20.2	17.9	0.00e+00	0	39	0	36029071360	14	17625
2026-01-29 22:34:55.71	129.75	24.81	-19.8	-20.3	17.9	0.00e+00	0	39	0	36138123264	14	17839
2026-01-29 22:34:56.68	130.11	24.68	-19.9	-20.3	17.9	0.00e+00	0	39	0	36247175168	14	17894
2026-01-29 22:34:57.66	130.47	24.56	-19.9	-20.4	17.9	0.00e+00	0	39	0	36356227072	14	18016
2026-01-29 22:34:58.64	130.83	24.44	-20.0	-20.4	17.9	0.00e+00	0	39	0	36465278976	14	18168
2026-01-29 22:34:59.62	131.19	24.31	-20.0	-20.5	17.9	0.00e+00	0	39	0	36574330880	14	18240
2026-01-29 22:35:00.60	131.55	24.19	-20.0	-20.4	17.9	0.00e+00	0	39	0	36683382784	14	18216
2026-01-29 22:35:01.58	131.90	24.06	-20.1	-20.6	17.9	0.00e+00	0	39	0	36800823296	14	18452
2026-01-29 22:35:02.56	132.24	23.93	-20.1	-20.6	17.9	0.00e+00	0	39	0	36909875200	14	18490
2026-01-29 22:35:03.54	132.59	23.81	-20.3	-20.8	17.9	0.00e+00	0	39	0	37018927104	14	18893
2026-01-29 22:35:04.52	132.93	23.68	-20.2	-20.6	17.9	0.00e+00	0	39	0	37127979008	14	18642
2026-01-29 22:35:05.49	133.27	23.56	-20.3	-20.7	17.9	0.00e+00	0	39	0	37237030912	14	18804
2026-01-29 22:35:06.47	133.60	23.43	-20.5	-20.9	17.9	0.00e+00	0	39	0	37346082816	14	19225
2026-01-29 22:35:07.45	133.93	23.30	-20.3	-20.8	17.9	0.00e+00	0	39	0	37455134720	14	18888
2026-01-29 22:35:08.43	134.26	23.18	-20.4	-20.9	17.9	0.00e+00	0	39	0	37572575232	14	19198
2026-01-29 22:35:09.41	134.59	23.05	-20.2	-20.7	17.9	0.00e+00	0	39	0	37681627136	14	18785
2026-01-29 22:35:10.39	134.91	22.92	-20.3	-20.8	17.8	0.00e+00	0	39	0	37790679040	14	18953
2026-01-29 22:35:11.36	135.23	22.80	-20.4	-20.8	17.9	0.00e+00	0	39	0	37899730944	14	19037
2026-01-29 22:35:12.35	135.55	22.67	-20.4	-20.9	17.9	0.00e+00	0	39	0	38008782848	14	19131
2026-01-29 22:35:13.34	135.87	22.54	-20.5	-20.9	17.9	0.00e+00	0	39	0	38117834752	14	19270
2026-01-29 22:35:14.34	136.19	22.41	-20.4	-20.9	17.9	0.00e+00	0	39	0	38235275264	14	19210
2026-01-29 22:35:15.33	136.50	22.28	-20.6	-21.0	17.8	0.00e+00	0	39	0	38344327168	14	19497
2026-01-29 22:35:16.32	136.81	22.15	-20.6	-21.1	17.8	0.00e+00	0	39	0	38453379072	14	19604
2026-01-29 22:35:17.30	137.12	22.03	-20.6	-21.0	17.8	0.00e+00	0	39	0	38562430976	14	19417
2026-01-29 22:35:18.28	137.42	21.90	-20.7	-21.2	17.8	0.00e+00	0	39	0	38679871488	14	19770
2026-01-29 22:35:19.26	137.72	21.77	-20.7	-21.1	17.8	0.00e+00	0	39	0	38788923392	14	19717
2026-01-29 22:35:20.24	138.01	21.65	-20.7	-21.2	17.8	0.00e+00	0	39	0	38897975296	14	19782
2026-01-29 22:35:21.22	138.31	21.52	-20.9	-21.4	17.7	0.00e+00	0	39	0	39007027200	16	18035
2026-01-29 22:35:22.19	138.59	21.39	-20.8	-21.3	17.7	0.00e+00	0	39	0	39116079104	16	17929
2026-01-29 22:35:23.17	138.88	21.27	-21.0	-21.5	17.7	0.00e+00	0	39	0	39225131008	16	18266
2026-01-29 22:35:24.14	139.16	21.14	-20.9	-21.4	17.7	0.00e+00	0	39	0	39334182912	16	18071
2026-01-29 22:35:25.11	139.44	21.02	-20.9	-21.4	17.7	0.00e+00	0	39	0	39443234816	16	18042
2026-01-29 22:35:26.08	139.72	20.89	-20.9	-21.4	17.7	0.00e+00	0	39	0	39552286720	16	18179
2026-01-29 22:35:27.06	140.00	20.77	-21.0	-21.5	17.7	0.00e+00	0	39	0	39669727232	16	18252
2026-01-29 22:35:28.03	140.27	20.64	-21.0	-21.5	17.7	0.00e+00	0	39	0	39770390528	16	18242
2026-01-29 22:35:29.01	140.54	20.51	-21.1	-21.6	17.6	0.00e+00	0	39	0	39887831040	16	18526
2026-01-29 22:35:29.99	140.81	20.39	-21.1	-21.6	17.7	0.00e+00	0	39	0	39996882944	16	18620
2026-01-29 22:35:30.96	141.08	20.27	-21.3	-21.8	17.6	0.00e+00	0	39	0	40105934848	16	18915
2026-01-29 22:35:31.93	141.34	20.14	-21.3	-21.8	17.6	0.00e+00	0	39	0	40214986752	16	18967
2026-01-29 22:35:32.91	141.61	20.02	-21.3	-21.8	17.6	0.00e+00	0	39	0	40324038656	16	18907
2026-01-29 22:35:33.88	141.86	19.89	-21.4	-21.9	17.6	0.00e+00	0	39	0	40433090560	16	19244
2026-01-29 22:35:34.86	142.12	19.77	-21.5	-22.0	17.6	0.00e+00	0	39	0	40542142464	16	19395
2026-01-29 22:35:35.83	142.38	19.65	-21.6	-22.0	17.5	0.00e+00	0	39	0	40651194368	16	19488
2026-01-29 22:35:36.81	142.63	19.52	-21.7	-22.2	17.5	0.00e+00	0	39	0	40760246272	16	19766
2026-01-29 22:35:37.78	142.88	19.40	-21.7	-22.1	17.5	0.00e+00	0	39	0	40869298176	16	19696
2026-01-29 22:35:38.75	143.13	19.28	-21.8	-22.3	17.6	0.00e+00	0	39	0	40978350080	18	17807
2026-01-29 22:35:39.73	143.37	19.16	-21.9	-22.3	17.6	0.00e+00	0	39	0	41087401984	18	18005
2026-01-29 22:35:40.70	143.61	19.03	-21.7	-22.1	17.5	0.00e+00	0	39	0	41196453888	18	17602
2026-01-29 22:35:41.68	143.86	18.91	-21.9	-22.3	17.5	0.00e+00	0	39	0	41305505792	18	17990
2026-01-29 22:35:42.65	144.10	18.79	-21.9	-22.4	17.5	0.00e+00	0	39	0	41414557696	18	18047
2026-01-29 22:35:43.63	144.33	18.67	-21.8	-22.2	17.5	0.00e+00	0	39	0	41531998208	18	17755
2026-01-29 22:35:44.60	144.57	18.55	-21.9	-22.3	17.5	0.00e+00	0	39	0	41632661504	18	17950
2026-01-29 22:35:45.58	144.80	18.43	-21.8	-22.3	17.5	0.00e+00	0	39	0	41750102016	18	17859
2026-01-29 22:35:46.56	145.03	18.31	-21.7	-22.2	17.5	0.00e+00	0	39	0	41859153920	18	17708
2026-01-29 22:35:47.54	145.26	18.19	-49.3	-51.8	6.1	0.00e+00	0	39	104	41917874176	60	47664
2026-01-29 22:35:48.51	145.49	18.07	-49.4	-51.9	6.1	0.00e+00	0	39	104	41917874176	60	48223
2026-01-29 22:35:49.49	145.71	17.95	-49.4	-51.8	6.1	0.00e+00	0	39	104	41917874176	60	47867
2026-01-29 22:35:50.47	145.94	17.83	-49.4	-51.9	6.1	0.00e+00	0	39	104	41917874176	60	48195
2026-01-29 22:35:51.44	146.16	17.71	-49.3	-51.8	6.1	0.00e+00	0	39	104	41917874176	60	47554
2026-01-29 22:35:52.42	146.38	17.59	-49.5	-52.0	6.1	0.00e+00	0	39	104	41917874176	60	48500
2026-01-29 22:35:53.40	146.60	17.47	-49.4	-51.9	6.1	0.00e+00	0	39	104	41917874176	60	48258
2026-01-29 22:35:54.38	146.81	17.36	-49.4	-51.9	6.1	0.00e+00	0	39	104	41917874176	60	48140
2026-01-29 22:35:55.36	147.03	17.24	-49.4	-51.9	6.1	0.00e+00	0	39	104	41917874176	60	47972
2026-01-29 22:35:56.34	147.24	17.12	-48.9	-51.5	6.1	0.00e+00	0	39	104	41917874176	60	45797
2026-01-29 22:35:57.31	147.45	17.01	-49.4	-51.9	6.1	0.00e+00	0	39	104	41917874176	60	47980
2026-01-29 22:35:58.30	147.66	16.89	-49.5	-51.9	6.1	0.00e+00	0	39	104	41917874176	60	48410
2026-01-29 22:35:59.27	147.86	16.77	-49.5	-51.9	6.1	0.00e+00	0	39	104	41917874176	60	48385
2026-01-29 22:36:00.24	148.07	16.66	-49.2	-51.8	6.1	0.00e+00	0	39	104	41917874176	60	47613
2026-01-29 22:36:01.22	148.27	16.54	-49.2	-51.7	6.1	0.00e+00	0	39	104	41917874176	60	47272
2026-01-29 22:36:02.20	148.47	16.43	-49.4	-51.9	6.1	0.00e+00	0	39	104	41917874176	60	48040
2026-01-29 22:36:03.17	148.67	16.32	-49.4	-51.8	6.1	0.00e+00	0	39	104	41917874176	60	47873
2026-01-29 22:36:04.15	148.87	16.20	-49.5	-51.9	6.1	0.00e+00	0	39	104	41917874176	60	48458
2026-01-29 22:36:05.12	149.06	16.09	-49.3	-51.8	6.1	0.00e+00	0	39	104	41917874176	60	47658
2026-01-29 22:36:06.10	149.26	15.98	-49.3	-51.8	6.1	0.00e+00	0	39	104	41917874176	60	47535
2026-01-29 22:36:07.08	149.45	15.86	-49.4	-51.9	6.1	0.00e+00	0	39	104	41917874176	60	48141
2026-01-29 22:36:08.06	149.64	15.75	-49.3	-51.8	6.1	0.00e+00	0	39	104	41917874176	60	47650
2026-01-29 22:36:09.03	149.83	15.64	-48.8	-51.4	6.1	0.00e+00	0	39	104	41917874176	60	45378
2026-01-29 22:36:10.00	150.01	15.53	-49.2	-51.8	6.1	0.00e+00	0	39	104	41917874176	60	47416
2026-01-29 22:36:10.98	150.20	15.42	-49.2	-51.7	6.1	0.00e+00	0	39	104	41917874176	60	47223
2026-01-29 22:36:11.96	150.39	15.31	-49.4	-51.8	6.1	0.00e+00	0	39	104	41917874176	60	47810
2026-01-29 22:36:12.94	150.57	15.20	-49.0	-51.5	6.1	0.00e+00	0	39	104	41917874176	60	46103
2026-01-29 22:36:13.92	150.75	15.09	-48.8	-51.3	6.1	0.00e+00	0	39	104	41917874176	60	45150
2026-01-29 22:36:14.89	150.93	14.98	-48.9	-51.4	6.1	0.00e+00	0	39	104	41917874176	60	45615
2026-01-29 22:36:15.87	151.11	14.87	-49.4	-51.9	6.1	0.00e+00	0	39	104	41917874176	60	48145
2026-01-29 22:36:16.85	151.29	14.76	-49.0	-51.5	6.1	0.00e+00	0	39	104	41917874176	60	46267
2026-01-29 22:36:17.83	151.46	14.65	-48.8	-51.4	6.0	0.00e+00	0	39	104	41917874176	60	45664
2026-01-29 22:36:18.80	151.63	14.55	-48.9	-51.5	6.1	0.00e+00	0	39	104	41917874176	60	45931
2026-01-29 22:36:19.78	151.81	14.44	-48.8	-51.3	6.1	0.00e+00	0	39	104	41917874176	60	45091
2026-01-29 22:36:20.76	151.98	14.33	-49.0	-51.6	6.1	0.00e+00	0	39	104	41917874176	60	46358
2026-01-29 22:36:21.74	152.15	14.22	-49.2	-51.6	6.1	0.00e+00	0	39	104	41917874176	60	46795
2026-01-29 22:36:22.71	152.32	14.12	-49.2	-51.7	6.1	0.00e+00	0	39	104	41917874176	60	47030
2026-01-29 22:36:23.69	152.48	14.01	-48.7	-51.3	6.1	0.00e+00	0	39	104	41917874176	60	45086
2026-01-29 22:36:24.66	152.65	13.91	-48.2	-50.9	6.1	0.00e+00	0	39	104	41917874176	60	42957
2026-01-29 22:36:25.64	152.81	13.80	-49.0	-51.5	6.1	0.00e+00	0	39	104	41917874176	60	46207
2026-01-29 22:36:26.62	152.98	13.70	-49.2	-51.7	6.1	0.00e+00	0	39	104	41917874176	60	47091
2026-01-29 22:36:27.59	153.14	13.60	-48.4	-51.0	6.1	0.00e+00	0	39	104	41917874176	60	43213
2026-01-29 22:36:28.57	153.30	13.49	-48.7	-51.2	6.1	0.00e+00	0	39	104	41917874176	60	44349
2026-01-29 22:36:29.55	153.46	13.39	-48.5	-51.0	6.1	0.00e+00	0	39	104	41917874176	60	43535
2026-01-29 22:36:30.53	153.61	13.28	-48.4	-51.0	6.1	0.00e+00	0	39	104	41917874176	60	43435
2026-01-29 22:36:31.51	153.77	13.18	-48.5	-51.0	6.1	0.00e+00	0	39	104	41917874176	60	43588
2026-01-29 22:36:32.49	153.93	13.08	-48.3	-50.9	6.1	0.00e+00	0	39	104	41917874176	60	42730
2026-01-29 22:36:33.46	154.08	12.98	-48.0	-50.5	6.1	0.00e+00	0	39	104	41917874176	60	41041
2026-01-29 22:36:34.44	154.23	12.88	-48.0	-50.5	6.1	0.00e+00	0	39	104	41917874176	60	40879
2026-01-29 22:36:35.42	154.38	12.78	-48.0	-50.5	6.1	0.00e+00	0	39	104	41917874176	60	40868
2026-01-29 22:36:36.40	154.53	12.68	-48.3	-50.8	6.1	0.00e+00	0	39	104	41917874176	60	42474
2026-01-29 22:36:37.37	154.68	12.58	-48.2	-50.7	6.1	0.00e+00	0	39	104	41917874176	60	41813
2026-01-29 22:36:38.34	154.83	12.48	-47.8	-50.4	6.1	0.00e+00	0	39	104	41917874176	60	40351
2026-01-29 22:36:39.33	154.98	12.38	-48.1	-50.7	6.1	0.00e+00	0	39	104	41917874176	60	41765
2026-01-29 22:36:40.30	155.12	12.28	-48.1	-50.6	6.1	0.00e+00	0	39	104	41917874176	60	41273
2026-01-29 22:36:41.28	155.27	12.18	-48.1	-50.6	6.1	0.00e+00	0	39	104	41917874176	60	41292
2026-01-29 22:36:42.26	155.41	12.08	-48.1	-50.7	6.1	0.00e+00	0	39	104	41917874176	60	41957
2026-01-29 22:36:43.24	155.55	11.98	-48.4	-50.9	6.1	0.00e+00	0	39	104	41917874176	60	43136
2026-01-29 22:36:44.22	155.69	11.88	-48.0	-50.6	6.1	0.00e+00	0	39	104	41917874176	60	41417
2026-01-29 22:36:45.19	155.83	11.79	-48.5	-50.9	6.1	0.00e+00	0	39	104	41917874176	60	42940
2026-01-29 22:36:46.17	155.97	11.69	-48.8	-51.3	6.1	0.00e+00	0	39	104	41917874176	60	44742
2026-01-29 22:36:47.15	156.11	11.59	-48.9	-51.3	6.1	0.00e+00	0	39	104	41917874176	60	45212
2026-01-29 22:36:48.13	156.25	11.50	-48.4	-50.9	6.1	0.00e+00	0	39	104	41917874176	60	43187
2026-01-29 22:36:49.10	156.38	11.40	-48.7	-51.2	6.1	0.00e+00	0	39	104	41917874176	60	44534
2026-01-29 22:36:50.08	156.52	11.31	-49.2	-51.6	6.1	0.00e+00	0	39	104	41917874176	60	46455
2026-01-29 22:36:51.05	156.65	11.21	-48.6	-51.2	6.1	0.00e+00	0	39	104	41917874176	60	44672
2026-01-29 22:36:52.03	156.78	11.12	-48.9	-51.4	6.1	0.00e+00	0	39	104	41917874176	60	45351
2026-01-29 22:36:53.01	156.92	11.02	-49.0	-51.5	6.1	0.00e+00	0	39	104	41917874176	60	45841
2026-01-29 22:36:53.98	157.05	10.93	-49.1	-51.6	6.1	0.00e+00	0	39	104	41917874176	60	46754
2026-01-29 22:36:54.96	157.18	10.84	-48.7	-51.3	6.1	0.00e+00	0	39	104	41917874176	60	45058
2026-01-29 22:36:55.94	157.31	10.74	-48.7	-51.2	6.1	0.00e+00	0	39	104	41917874176	60	44596
2026-01-29 22:36:56.92	157.43	10.65	-49.1	-51.6	6.1	0.00e+00	0	39	104	41917874176	60	46305
2026-01-29 22:36:57.89	157.56	10.56	-48.9	-51.5	6.1	0.00e+00	0	39	104	41917874176	60	45828
2026-01-29 22:36:58.88	157.69	10.47	-49.0	-51.5	6.1	0.00e+00	0	39	104	41917874176	60	46077
2026-01-29 22:36:59.86	157.81	10.37	-48.7	-51.2	6.1	0.00e+00	0	39	104	41917874176	60	44588
2026-01-29 22:37:00.84	157.94	10.28	-49.0	-51.5	6.1	0.00e+00	0	39	104	41917874176	60	46122
2026-01-29 22:37:01.82	158.06	10.19	-49.1	-51.6	6.1	0.00e+00	0	39	104	41917874176	60	46720
2026-01-29 22:37:02.77	158.18	10.10	-49.2	-51.6	6.1	0.00e+00	0	39	104	41917874176	60	46572
2026-01-29 22:37:03.75	158.30	10.01	-49.0	-51.5	6.1	0.00e+00	0	39	104	41917874176	60	45912
2026-01-29 22:37:04.73	158.42	9.92	-49.1	-51.6	6.1	0.00e+00	0	39	104	41917874176	60	46303
2026-01-29 22:37:05.70	158.54	9.83	-49.2	-51.7	6.1	0.00e+00	0	39	104	41917874176	60	47209
2026-01-29 22:37:06.68	158.66	9.74	-49.1	-51.6	6.1	0.00e+00	0	39	104	41917874176	60	46708
2026-01-29 22:37:07.66	158.78	9.65	-49.0	-51.6	6.1	0.00e+00	0	39	104	41917874176	60	46357
2026-01-29 22:37:08.63	158.89	9.57	-49.1	-51.6	6.1	0.00e+00	0	39	104	41917874176	60	46574
2026-01-29 22:37:09.61	159.01	9.48	-49.1	-51.6	6.1	0.00e+00	0	39	104	41917874176	60	46609
2026-01-29 22:37:10.59	159.13	9.39	-49.0	-51.5	6.1	0.00e+00	0	39	104	41917874176	60	46040
2026-01-29 22:37:11.56	159.24	9.30	-48.9	-51.4	6.1	0.00e+00	0	39	104	41917874176	60	45359
2026-01-29 22:37:12.54	159.35	9.21	-49.0	-51.5	6.1	0.00e+00	0	39	104	41917874176	60	45861
2026-01-29 22:37:13.52	159.47	9.13	-48.8	-51.4	6.1	0.00e+00	0	39	104	41917874176	60	45353
2026-01-29 22:37:14.50	159.58	9.04	-49.0	-51.5	6.1	0.00e+00	0	39	104	41917874176	60	45967
2026-01-29 22:37:15.48	159.69	8.95	-48.8	-51.4	6.1	0.00e+00	0	39	104	41917874176	60	45366
2026-01-29 22:37:16.46	159.80	8.87	-48.9	-51.3	6.1	0.00e+00	0	39	104	41917874176	60	45194
2026-01-29 22:37:17.44	159.91	8.78	-49.0	-51.5	6.1	0.00e+00	0	39	104	41917874176	60	45960
2026-01-29 22:37:18.42	160.02	8.70	-49.0	-51.5	6.1	0.00e+00	0	39	104	41917874176	60	46112
2026-01-29 22:37:19.40	160.13	8.61	-49.0	-51.5	6.1	0.00e+00	0	39	104	41917874176	60	46244
2026-01-29 22:37:20.38	160.24	8.53	-48.9	-51.4	6.1	0.00e+00	0	39	104	41917874176	60	45518
2026-01-29 22:37:21.36	160.35	8.44	-49.0	-51.5	6.1	0.00e+00	0	39	104	41917874176	60	46029
2026-01-29 22:37:22.34	160.45	8.36	-49.1	-51.6	6.1	0.00e+00	0	39	104	41917874176	60	46602
2026-01-29 22:37:23.32	160.56	8.27	-48.9	-51.4	6.1	0.00e+00	0	39	104	41917874176	60	45553
2026-01-29 22:37:24.30	160.66	8.19	-49.0	-51.5	6.0	0.00e+00	0	39	104	41917874176	60	45842
2026-01-29 22:37:25.28	160.77	8.10	-49.0	-51.5	6.1	0.00e+00	0	39	104	41917874176	60	45853
2026-01-29 22:37:26.26	160.87	8.02	-49.1	-51.6	6.1	0.00e+00	0	39	104	41917874176	60	46523
2026-01-29 22:37:27.23	160.97	7.94	-48.6	-51.2	6.1	0.00e+00	0	39	104	41917874176	60	44345
2026-01-29 22:37:28.21	161.08	7.86	-48.9	-51.4	6.1	0.00e+00	0	39	104	41917874176	60	45662
2026-01-29 22:37:29.18	161.18	7.78	-49.0	-51.4	6.1	0.00e+00	0	39	104	41917874176	60	45756
2026-01-29 22:37:30.16	161.28	7.69	-48.9	-51.4	6.1	0.00e+00	0	39	104	41917874176	60	45655
2026-01-29 22:37:31.13	161.38	7.61	-48.8	-51.3	6.1	0.00e+00	0	39	104	41917874176	60	45176
2026-01-29 22:37:32.11	161.48	7.53	-48.7	-51.2	6.1	0.00e+00	0	39	104	41917874176	60	44582
2026-01-29 22:37:33.09	161.57	7.45	-48.9	-51.4	6.1	0.00e+00	0	39	104	41917874176	60	45304
2026-01-29 22:37:34.07	161.67	7.37	-48.8	-51.3	6.1	0.00e+00	0	39	104	41917874176	60	44806
2026-01-29 22:37:35.05	161.77	7.29	-48.9	-51.4	6.1	0.00e+00	0	39	104	41917874176	60	45419
2026-01-29 22:37:36.02	161.87	7.21	-48.6	-51.1	6.1	0.00e+00	0	39	104	41917874176	60	44006
2026-01-29 22:37:37.00	161.96	7.13	-48.9	-51.4	6.1	0.00e+00	0	39	104	41917874176	60	45273
2026-01-29 22:37:37.98	162.06	7.05	-48.9	-51.4	6.1	0.00e+00	0	39	104	41917874176	60	45446
2026-01-29 22:37:38.95	162.15	6.97	-48.8	-51.3	6.1	0.00e+00	0	39	104	41917874176	60	44929
2026-01-29 22:37:39.93	162.25	6.89	-48.7	-51.2	6.1	0.00e+00	0	39	104	41917874176	60	44669
2026-01-29 22:37:40.91	162.34	6.81	-48.9	-51.3	6.1	0.00e+00	0	39	104	41917874176	60	44911
2026-01-29 22:37:41.90	162.43	6.73	-49.0	-51.4	6.1	0.00e+00	0	39	104	41917874176	60	45676
2026-01-29 22:37:42.88	162.53	6.65	-48.9	-51.3	6.1	0.00e+00	0	39	104	41917874176	60	45025
2026-01-29 22:37:43.86	162.62	6.58	-48.8	-51.3	6.1	0.00e+00	0	39	104	41917874176	60	45096
2026-01-29 22:37:44.84	162.71	6.50	-48.8	-51.3	6.1	0.00e+00	0	39	104	41917874176	60	45122
2026-01-29 22:37:45.82	162.80	6.42	-48.9	-51.4	6.1	0.00e+00	0	39	104	41917874176	60	45313
2026-01-29 22:37:46.81	162.89	6.34	-48.9	-51.3	6.1	0.00e+00	0	39	104	41917874176	60	45119
2026-01-29 22:37:47.78	162.98	6.27	-48.8	-51.3	6.1	0.00e+00	0	39	104	41917874176	60	45157
2026-01-29 22:37:48.76	163.07	6.19	-48.9	-51.4	6.1	0.00e+00	0	39	104	41917874176	60	45266
2026-01-29 22:37:49.74	163.16	6.11	-48.9	-51.3	6.1	0.00e+00	0	39	104	41917874176	60	45161
2026-01-29 22:37:50.72	163.25	6.04	-48.9	-51.3	6.1	0.00e+00	0	39	104	41917874176	60	45207
2026-01-29 22:37:51.70	163.33	5.96	-48.8	-51.3	6.1	0.00e+00	0	39	104	41917874176	60	44891
2026-01-29 22:37:52.68	163.42	5.88	-48.9	-51.3	6.1	0.00e+00	0	39	104	41917874176	60	45149
2026-01-29 22:37:53.65	163.51	5.81	-48.9	-51.4	6.1	0.00e+00	0	39	104	41917874176	60	45433
2026-01-29 22:37:54.63	163.59	5.73	-48.9	-51.4	6.1	0.00e+00	0	39	104	41917874176	60	45259
2026-01-29 22:37:55.61	163.68	5.66	-48.7	-51.2	6.1	0.00e+00	0	39	104	41917874176	60	44676
2026-01-29 22:37:56.58	163.76	5.58	-48.8	-51.3	6.1	0.00e+00	0	39	104	41917874176	60	44859
2026-01-29 22:37:57.56	163.85	5.51	-48.8	-51.3	6.1	0.00e+00	0	39	104	41917874176	60	44781
2026-01-29 22:37:58.54	163.93	5.43	-48.8	-51.2	6.1	0.00e+00	0	39	104	41917874176	60	44631
2026-01-29 22:37:59.52	164.01	5.36	-48.8	-51.3	6.1	0.00e+00	0	39	104	41917874176	60	44906
2026-01-29 22:38:00.50	164.10	5.29	-48.8	-51.3	6.1	0.00e+00	0	39	104	41917874176	60	44802
2026-01-29 22:38:01.48	164.18	5.21	-48.8	-51.3	6.1	0.00e+00	0	39	104	41917874176	60	44893
2026-01-29 22:38:02.46	164.26	5.14	-48.8	-51.3	6.1	0.00e+00	0	39	104	41917874176	60	44997
2026-01-29 22:38:03.44	164.34	5.07	-48.8	-51.3	6.1	0.00e+00	0	39	104	41917874176	60	44976
2026-01-29 22:38:04.42	164.42	4.99	-48.8	-51.3	6.1	0.00e+00	0	39	104	41917874176	60	45080
2026-01-29 22:38:05.40	164.50	4.92	-48.8	-51.2	6.1	0.00e+00	0	39	104	41917874176	60	44597
2026-01-29 22:38:06.38	164.58	4.85	-48.8	-51.3	6.1	0.00e+00	0	39	104	41917874176	60	45136
2026-01-29 22:38:07.36	164.66	4.77	-48.7	-51.2	6.1	0.00e+00	0	39	104	41917874176	60	44227
2026-01-29 22:38:08.34	164.74	4.70	-48.7	-51.2	6.1	0.00e+00	0	39	104	41917874176	60	44412
2026-01-29 22:38:09.31	164.82	4.63	-48.7	-51.2	6.1	0.00e+00	0	39	104	41917874176	60	44325
2026-01-29 22:38:10.30	164.90	4.56	-48.8	-51.3	6.1	0.00e+00	0	39	104	41917874176	60	44926
2026-01-29 22:38:11.28	164.97	4.49	-48.6	-51.1	6.1	0.00e+00	0	39	104	41917874176	60	44142
2026-01-29 22:38:12.25	165.05	4.42	-48.7	-51.1	6.1	0.00e+00	0	39	104	41917874176	60	44118
2026-01-29 22:38:13.23	165.13	4.35	-48.5	-51.0	6.1	0.00e+00	0	39	104	41917874176	60	43650
2026-01-29 22:38:14.21	165.20	4.27	-48.7	-51.2	6.1	0.00e+00	0	39	104	41917874176	60	44280
2026-01-29 22:38:15.18	165.28	4.21	-48.6	-51.1	6.1	0.00e+00	0	39	104	41917874176	60	43825
2026-01-29 22:38:16.16	165.35	4.13	-48.6	-51.1	6.1	0.00e+00	0	39	104	41917874176	60	43971
2026-01-29 22:38:17.14	165.43	4.06	-48.5	-51.0	6.1	0.00e+00	0	39	104	41917874176	60	43348
2026-01-29 22:38:18.12	165.50	3.99	-48.6	-51.1	6.1	0.00e+00	0	39	104	41917874176	60	43894
2026-01-29 22:38:19.09	165.57	3.93	-48.3	-50.8	6.1	0.00e+00	0	39	104	41917874176	60	42534
2026-01-29 22:38:20.06	165.65	3.86	-48.5	-51.0	6.1	0.00e+00	0	39	104	41917874176	60	43454
2026-01-29 22:38:21.04	165.72	3.79	-48.2	-50.8	6.1	0.00e+00	0	39	104	41917874176	60	42259
2026-01-29 22:38:22.01	165.79	3.72	-48.6	-51.1	6.1	0.00e+00	0	39	104	41917874176	60	43747
2026-01-29 22:38:22.99	165.86	3.65	-48.3	-50.9	6.1	0.00e+00	0	39	104	41917874176	60	42720
2026-01-29 22:38:23.97	165.94	3.58	-48.5	-50.9	6.1	0.00e+00	0	39	104	41917874176	60	43074
2026-01-29 22:38:24.95	166.01	3.51	-48.3	-50.8	6.1	0.00e+00	0	39	104	41917874176	60	42312
2026-01-29 22:38:25.93	166.08	3.44	-48.6	-51.1	6.1	0.00e+00	0	39	104	41917874176	60	43898
2026-01-29 22:38:26.90	166.15	3.38	-48.3	-50.8	6.1	0.00e+00	0	39	104	41917874176	60	42298
2026-01-29 22:38:27.88	166.22	3.31	-48.2	-50.7	6.1	0.00e+00	0	39	104	41917874176	60	42134
2026-01-29 22:38:28.86	166.29	3.24	-48.2	-50.7	6.1	0.00e+00	0	39	104	41917874176	60	41974
2026-01-29 22:38:29.84	166.36	3.17	-48.4	-50.9	6.1	0.00e+00	0	39	104	41917874176	60	42833
2026-01-29 22:38:30.82	166.43	3.11	-48.2	-50.7	6.1	0.00e+00	0	39	104	41917874176	60	42022
2026-01-29 22:38:31.80	166.50	3.04	-48.3	-50.8	6.1	0.00e+00	0	39	104	41917874176	60	42484
2026-01-29 22:38:32.78	166.56	2.97	-48.6	-51.0	6.1	0.00e+00	0	39	104	41917874176	60	43660
2026-01-29 22:38:33.76	166.63	2.90	-48.8	-51.3	6.1	0.00e+00	0	39	104	41917874176	60	44889
2026-01-29 22:38:34.73	166.70	2.84	-48.9	-51.4	6.1	0.00e+00	0	39	104	41917874176	60	45489
2026-01-29 22:38:35.71	166.77	2.77	-48.9	-51.4	6.1	0.00e+00	0	39	104	41917874176	60	45655
2026-01-29 22:38:36.68	166.83	2.71	-48.1	-50.6	6.1	0.00e+00	0	39	104	41917874176	60	41293
2026-01-29 22:38:37.66	166.90	2.64	-49.3	-51.8	6.1	0.00e+00	0	39	104	41917874176	60	47468
2026-01-29 22:38:38.63	166.97	2.57	-49.6	-52.0	6.1	0.00e+00	0	39	104	41917874176	60	48910
2026-01-29 22:38:39.61	167.03	2.51	-49.6	-52.1	6.1	0.00e+00	0	39	104	41917874176	60	49445
2026-01-29 22:38:40.58	167.10	2.44	-49.6	-52.1	6.1	0.00e+00	0	39	104	41917874176	60	49168
2026-01-29 22:38:41.56	167.16	2.38	-49.6	-52.1	6.1	0.00e+00	0	39	104	41917874176	60	49363
2026-01-29 22:38:42.54	167.23	2.31	-49.7	-52.2	6.1	0.00e+00	0	39	104	41917874176	60	49971
2026-01-29 22:38:43.52	167.29	2.25	-49.7	-52.2	6.1	0.00e+00	0	39	104	41917874176	60	49960
2026-01-29 22:38:44.49	167.35	2.18	-49.9	-52.3	6.1	0.00e+00	0	39	104	41917874176	60	50759
2026-01-29 22:38:45.47	167.42	2.12	-50.0	-52.4	6.1	0.00e+00	0	39	104	41917874176	60	51306
2026-01-29 22:38:46.45	167.48	2.05	-49.8	-52.3	6.1	0.00e+00	0	39	104	41917874176	60	50421
2026-01-29 22:38:47.43	167.54	1.99	-49.8	-52.3	6.1	0.00e+00	0	39	104	41917874176	60	50229
2026-01-29 22:38:48.41	167.61	1.93	-49.8	-52.3	6.1	0.00e+00	0	39	104	41917874176	60	50226
2026-01-29 22:38:49.38	167.67	1.86	-49.7	-52.2	6.1	0.00e+00	0	39	104	41917874176	60	49938
2026-01-29 22:38:50.37	167.73	1.80	-49.5	-52.0	6.1	0.00e+00	0	39	104	41917874176	60	48966
2026-01-29 22:38:51.35	167.79	1.73	-49.8	-52.2	6.1	0.00e+00	0	39	104	41917874176	60	50044
2026-01-29 22:38:52.33	167.85	1.67	-49.7	-52.1	6.1	0.00e+00	0	39	104	41917874176	60	49500
2026-01-29 22:38:53.31	167.92	1.61	-49.7	-52.2	6.1	0.00e+00	0	39	104	41917874176	60	50002
2026-01-29 22:38:54.28	167.98	1.54	-49.5	-52.0	6.1	0.00e+00	0	39	104	41917874176	60	48940
2026-01-29 22:38:55.26	168.04	1.48	-49.7	-52.2	6.1	0.00e+00	0	39	104	41917874176	60	49942
2026-01-29 22:38:56.24	168.10	1.42	-49.7	-52.2	6.1	0.00e+00	0	39	104	41917874176	60	50001
2026-01-29 22:38:57.22	168.16	1.35	-49.7	-52.2	6.1	0.00e+00	0	39	104	41917874176	60	49866
2026-01-29 22:38:58.19	168.22	1.29	-49.7	-52.2	6.1	0.00e+00	0	39	104	41917874176	60	49805
2026-01-29 22:38:59.17	168.27	1.23	-49.7	-52.2	6.1	0.00e+00	0	39	104	41917874176	60	49983
2026-01-29 22:39:00.15	168.33	1.17	-49.7	-52.2	6.1	0.00e+00	0	39	104	41917874176	60	49911
2026-01-29 22:39:01.13	168.39	1.11	-49.7	-52.2	6.1	0.00e+00	0	39	104	41917874176	60	49990
2026-01-29 22:39:02.11	168.45	1.04	-49.7	-52.2	6.1	0.00e+00	0	39	104	41917874176	60	49759
2026-01-29 22:39:03.08	168.51	0.98	-49.7	-52.2	6.1	0.00e+00	0	39	104	41917874176	60	49850
2026-01-29 22:39:04.06	168.57	0.92	-49.7	-52.2	6.1	0.00e+00	0	39	104	41917874176	60	49997
2026-01-29 22:39:05.04	168.62	0.86	-49.7	-52.2	6.1	0.00e+00	0	39	104	41917874176	60	49668
2026-01-29 22:39:06.02	168.68	0.80	-49.7	-52.2	6.1	0.00e+00	0	39	104	41917874176	60	49843
2026-01-29 22:39:06.99	168.74	0.74	-49.7	-52.2	6.1	0.00e+00	0	39	104	41917874176	60	49866
2026-01-29 22:39:07.97	168.79	0.68	-49.7	-52.2	6.1	0.00e+00	0	39	104	41917874176	60	50001
2026-01-29 22:39:08.94	168.85	0.62	-49.7	-52.2	6.1	0.00e+00	0	39	104	41917874176	60	49769
2026-01-29 22:39:09.92	168.91	0.55	-49.7	-52.2	6.1	0.00e+00	0	39	104	41917874176	60	49959
2026-01-29 22:39:10.90	168.96	0.49	-49.7	-52.2	6.1	0.00e+00	0	39	104	41917874176	60	49788
2026-01-29 22:39:11.88	169.02	0.43	-49.7	-52.2	6.1	0.00e+00	0	39	104	41917874176	60	49781
2026-01-29 22:39:12.86	169.07	0.37	-49.7	-52.2	6.1	0.00e+00	0	39	104	41917874176	60	49860
2026-01-29 22:39:13.84	169.13	0.31	-49.7	-52.2	6.1	0.00e+00	0	39	104	41917874176	60	50070
2026-01-29 22:39:14.82	169.18	0.25	-49.7	-52.2	6.1	0.00e+00	0	39	104	41917874176	60	49868
2026-01-29 22:39:15.80	169.24	0.19	-49.7	-52.2	6.1	0.00e+00	0	39	104	41917874176	60	49851
2026-01-29 22:39:16.78	169.29	0.13	-49.7	-52.2	6.1	0.00e+00	0	39	104	41917874176	60	50032
2026-01-29 22:39:17.75	169.35	0.07	-49.7	-52.2	6.1	0.00e+00	0	39	104	41917874176	60	49618
2026-01-29 22:39:18.73	169.40	0.01	-49.7	-52.1	6.1	0.00e+00	0	39	104	41917874176	60	49468
2026-01-29 22:39:19.71	169.45	-0.05	-49.7	-52.2	6.1	0.00e+00	0	39	104	41917874176	60	49749

#Closed at: 2026-01-29 22:39:20
#Recorded file [41917 MB]: D:/lorett/data/35029_260130_102836.dat