passes_logs/2026/01/29/R4.6S_Anadyr/R4.6S_Anadyr__20260129_015312_TY-42_rec.log

#Pass ID: 20260129_015312_TY-42
#Satellite: TY-42
#Configuration: TY-42_900M
#almurnet v.1.7.20251203
#Start time: 2026-01-29 01:53:43

#Version: 2.2.20231116
#Station: R4.6S_Anadyr
#Location: 177.4865 lon 64.73178 lat
#TLE: 1 64048U 25103A   26028.60844907  .00008011  00000-0  38191-3 0 09994
#TLE: 2 64048 097.4119 103.7705 0001778 092.6266 304.9547 15.19172955 38886

#Time	Az	El	Level	Level2	SNR	BER	BlckErr	Temp	State	Recorded	gain1	gain2
2026-01-29 01:53:43.28	15.13	1.69	-48.6	-61.1	3.4	1.52e+00	0	29	0	0	60	39845
2026-01-29 01:53:44.28	15.03	1.74	-47.5	-50.1	6.1	0.00e+00	0	30	104	0	60	38981
2026-01-29 01:53:45.29	14.92	1.80	-47.6	-50.0	6.1	0.00e+00	0	30	104	0	60	38812
2026-01-29 01:53:46.30	14.81	1.85	-47.6	-50.0	6.0	0.00e+00	0	30	104	0	60	38920
2026-01-29 01:53:47.31	14.70	1.91	-47.6	-50.0	6.1	0.00e+00	0	30	104	0	60	38848
2026-01-29 01:53:48.32	14.59	1.97	-47.6	-50.1	6.1	0.00e+00	0	30	104	0	60	39061
2026-01-29 01:53:49.33	14.48	2.02	-47.6	-50.0	6.1	0.00e+00	0	30	104	0	60	38747
2026-01-29 01:53:50.34	14.37	2.08	-47.6	-50.0	6.1	0.00e+00	0	31	104	0	60	38846
2026-01-29 01:53:51.35	14.26	2.14	-47.6	-50.0	6.1	0.00e+00	0	30	104	0	60	38926
2026-01-29 01:53:52.36	14.15	2.19	-47.6	-50.0	6.0	0.00e+00	0	31	104	0	60	38933
2026-01-29 01:53:53.37	14.04	2.25	-47.6	-50.0	6.1	0.00e+00	0	31	104	0	60	38876
2026-01-29 01:53:54.38	13.93	2.31	-47.6	-50.0	6.1	0.00e+00	0	31	104	0	60	38770
2026-01-29 01:53:55.39	13.81	2.36	-47.6	-50.1	6.1	0.00e+00	0	31	104	0	60	39028
2026-01-29 01:53:56.40	13.70	2.42	-47.6	-50.1	6.1	0.00e+00	0	31	104	0	60	39084
2026-01-29 01:53:57.41	13.59	2.48	-47.6	-50.0	6.1	0.00e+00	0	31	104	0	60	38868
2026-01-29 01:53:58.42	13.47	2.53	-47.6	-50.1	6.1	0.00e+00	0	31	104	0	60	38976
2026-01-29 01:53:59.42	13.36	2.59	-47.6	-50.1	6.1	0.00e+00	0	31	104	0	60	38968
2026-01-29 01:54:00.44	13.24	2.65	-47.6	-50.0	6.1	0.00e+00	0	31	104	0	60	38953
2026-01-29 01:54:01.44	13.13	2.70	-47.6	-50.0	6.1	0.00e+00	0	31	104	0	60	38805
2026-01-29 01:54:02.45	13.01	2.76	-47.6	-50.1	6.1	0.00e+00	0	31	104	0	60	38965
2026-01-29 01:54:03.46	12.89	2.82	-47.6	-50.0	6.1	0.00e+00	0	31	104	0	60	38897
2026-01-29 01:54:04.47	12.77	2.88	-47.6	-50.1	6.1	0.00e+00	0	31	104	0	60	38963
2026-01-29 01:54:05.48	12.66	2.93	-47.6	-50.1	6.1	0.00e+00	0	31	104	0	60	39036
2026-01-29 01:54:06.49	12.54	2.99	-47.5	-50.0	6.1	0.00e+00	0	31	104	0	60	38942
2026-01-29 01:54:07.50	12.42	3.05	-47.5	-50.0	6.1	0.00e+00	0	31	104	0	60	38673
2026-01-29 01:54:08.51	12.30	3.11	-47.4	-49.9	6.1	0.00e+00	0	31	104	0	60	38113
2026-01-29 01:54:09.52	12.17	3.16	-47.3	-49.7	6.1	0.00e+00	0	31	104	0	60	37572
2026-01-29 01:54:10.53	12.05	3.22	-47.3	-49.7	6.1	0.00e+00	0	31	104	0	60	37385
2026-01-29 01:54:11.54	11.93	3.28	-47.4	-49.8	6.1	0.00e+00	0	31	104	0	60	37689
2026-01-29 01:54:12.55	11.81	3.34	-47.6	-50.0	6.1	0.00e+00	0	31	104	0	60	38639
2026-01-29 01:54:13.56	11.68	3.39	-47.4	-49.8	6.1	0.00e+00	0	31	104	0	60	38027
2026-01-29 01:54:14.57	11.56	3.45	-47.7	-50.1	6.1	0.00e+00	0	31	104	0	60	39314
2026-01-29 01:54:15.58	11.43	3.51	-47.4	-49.8	6.1	0.00e+00	0	31	104	0	60	37974
2026-01-29 01:54:16.59	11.31	3.57	-47.2	-49.6	6.1	0.00e+00	0	31	104	0	60	36885
2026-01-29 01:54:17.60	11.18	3.63	-47.6	-50.1	6.1	0.00e+00	0	31	104	0	60	39147
2026-01-29 01:54:18.61	11.06	3.68	-47.7	-50.2	6.1	0.00e+00	0	31	104	0	60	39839
2026-01-29 01:54:19.62	10.93	3.74	-47.6	-50.0	6.1	0.00e+00	0	31	104	0	60	38542
2026-01-29 01:54:20.63	10.80	3.80	-47.3	-49.6	6.1	0.00e+00	0	31	104	0	60	37064
2026-01-29 01:54:21.63	10.67	3.86	-47.7	-50.2	6.0	0.00e+00	0	31	104	0	60	39777
2026-01-29 01:54:22.64	10.54	3.92	-47.8	-50.2	6.1	0.00e+00	0	31	104	0	60	39841
2026-01-29 01:54:23.65	10.41	3.97	-47.7	-50.1	6.1	0.00e+00	0	31	104	0	60	39176
2026-01-29 01:54:24.66	10.28	4.03	-47.5	-49.9	6.1	0.00e+00	0	31	104	0	60	38178
2026-01-29 01:54:25.67	10.15	4.09	-47.7	-50.2	6.1	0.00e+00	0	31	104	0	60	39741
2026-01-29 01:54:26.68	10.02	4.15	-47.8	-50.4	6.1	0.00e+00	0	31	104	0	60	40391
2026-01-29 01:54:27.69	9.88	4.21	-47.8	-50.2	6.1	0.00e+00	0	31	104	0	60	39842
2026-01-29 01:54:28.70	9.75	4.27	-47.7	-50.2	6.1	0.00e+00	0	31	104	0	60	39462
2026-01-29 01:54:29.71	9.62	4.32	-47.8	-50.2	6.1	0.00e+00	0	31	104	0	60	39861
2026-01-29 01:54:30.72	9.48	4.38	-47.9	-50.4	6.1	0.00e+00	0	31	104	0	60	40641
2026-01-29 01:54:31.73	9.35	4.44	-47.8	-50.3	6.1	0.00e+00	0	31	104	0	60	40292
2026-01-29 01:54:32.73	9.21	4.50	-47.9	-50.3	6.1	0.00e+00	0	31	104	0	60	40190
2026-01-29 01:54:33.74	9.07	4.56	-47.9	-50.4	6.1	0.00e+00	0	31	104	0	60	40372
2026-01-29 01:54:34.75	8.94	4.62	-47.9	-50.4	6.1	0.00e+00	0	32	104	0	60	40519
2026-01-29 01:54:35.76	8.80	4.68	-47.9	-50.4	6.1	0.00e+00	0	32	104	0	60	40568
2026-01-29 01:54:36.77	8.66	4.73	-48.0	-50.4	6.1	0.00e+00	0	32	104	0	60	40654
2026-01-29 01:54:37.78	8.52	4.79	-48.0	-50.5	6.1	0.00e+00	0	31	104	0	60	40809
2026-01-29 01:54:38.79	8.38	4.85	-48.0	-50.6	6.1	0.00e+00	0	32	104	0	60	41387
2026-01-29 01:54:39.81	8.23	4.91	-48.0	-50.5	6.1	0.00e+00	0	32	104	0	60	41099
2026-01-29 01:54:40.81	8.09	4.97	-48.1	-50.6	6.1	0.00e+00	0	32	104	0	60	41463
2026-01-29 01:54:41.82	7.95	5.03	-48.0	-50.5	6.1	0.00e+00	0	32	104	0	60	40992
2026-01-29 01:54:42.83	7.81	5.09	-48.1	-50.6	6.1	0.00e+00	0	32	104	0	60	41510
2026-01-29 01:54:43.84	7.66	5.15	-48.0	-50.5	6.1	0.00e+00	0	32	104	0	60	41011
2026-01-29 01:54:44.84	7.52	5.21	-48.0	-50.5	6.1	0.00e+00	0	32	104	0	60	40941
2026-01-29 01:54:45.85	7.37	5.27	-48.0	-50.4	6.1	0.00e+00	0	32	104	0	60	40680
2026-01-29 01:54:46.86	7.23	5.32	-48.1	-50.5	6.1	0.00e+00	0	32	104	0	60	41249
2026-01-29 01:54:47.87	7.08	5.38	-48.1	-50.6	6.1	0.00e+00	0	32	104	0	60	41341
2026-01-29 01:54:48.88	6.93	5.44	-48.1	-50.6	6.1	0.00e+00	0	32	104	0	60	41617
2026-01-29 01:54:49.89	6.78	5.50	-48.1	-50.5	6.1	0.00e+00	0	32	104	0	60	41260
2026-01-29 01:54:50.90	6.63	5.56	-47.3	-49.6	6.0	0.00e+00	0	32	104	0	60	36880
2026-01-29 01:54:51.91	6.48	5.62	-34.7	-35.0	11.3	0.00e+00	5329	32	104	0	42	19457
2026-01-29 01:54:52.91	6.33	5.68	-33.6	-34.1	13.6	8.14e-02	0	32	0	50331648	42	17401
2026-01-29 01:54:53.92	6.18	5.74	-32.4	-32.8	14.2	8.14e-02	0	32	0	159383552	40	16889
2026-01-29 01:54:54.93	6.02	5.80	-30.0	-30.5	15.5	2.00e-02	0	32	0	276824064	36	16354
2026-01-29 01:54:55.94	5.87	5.86	-28.2	-28.7	16.2	2.00e-02	0	32	0	394264576	32	16772
2026-01-29 01:54:56.95	5.72	5.92	-27.7	-28.2	16.4	8.61e-04	0	32	0	503316480	30	17649
2026-01-29 01:54:57.96	5.56	5.98	-27.5	-28.0	16.3	8.61e-04	0	32	0	620756992	30	17387
2026-01-29 01:54:58.97	5.40	6.04	-27.8	-28.3	16.3	1.25e-04	0	32	0	729808896	30	17834
2026-01-29 01:54:59.98	5.25	6.10	-27.7	-28.1	16.3	1.25e-04	0	32	0	838860800	30	17530
2026-01-29 01:55:00.99	5.09	6.16	-27.6	-28.1	16.4	1.25e-04	0	32	0	964689920	30	17475
2026-01-29 01:55:02.00	4.93	6.21	-27.6	-28.1	16.4	1.69e-04	0	32	0	1073741824	30	17468
2026-01-29 01:55:03.01	4.77	6.27	-27.8	-28.3	16.3	1.69e-04	0	32	0	1182793728	30	17906
2026-01-29 01:55:04.02	4.61	6.33	-27.8	-28.3	16.3	1.69e-04	0	32	0	1300234240	30	17982
2026-01-29 01:55:05.03	4.45	6.39	-27.8	-28.3	16.3	1.69e-04	0	32	0	1409286144	30	17962
2026-01-29 01:55:06.04	4.29	6.45	-27.8	-28.3	16.3	2.45e-04	0	32	0	1526726656	30	17940
2026-01-29 01:55:07.05	4.12	6.51	-27.6	-28.1	16.3	2.45e-04	0	32	0	1644167168	30	17495
2026-01-29 01:55:08.05	3.96	6.57	-27.6	-28.0	16.4	1.85e-04	0	32	0	1753219072	30	17320
2026-01-29 01:55:09.06	3.80	6.63	-27.8	-28.2	16.3	1.85e-04	0	32	0	1862270976	30	17725
2026-01-29 01:55:10.07	3.63	6.69	-27.7	-28.2	16.2	2.34e-04	0	32	0	1979711488	32	15714
2026-01-29 01:55:11.08	3.47	6.75	-27.5	-28.0	16.3	2.34e-04	0	32	0	2088763392	30	17277
2026-01-29 01:55:12.09	3.30	6.81	-27.6	-28.1	16.2	1.85e-04	0	33	0	2206203904	30	17512
2026-01-29 01:55:13.09	3.13	6.87	-27.4	-27.8	16.5	1.85e-04	0	32	0	2323644416	30	16860
2026-01-29 01:55:14.10	2.96	6.93	-27.3	-27.7	16.5	1.85e-04	0	33	0	2432696320	30	16688
2026-01-29 01:55:15.11	2.79	6.99	-27.1	-27.6	16.6	1.09e-04	0	33	0	2550136832	30	16519
2026-01-29 01:55:16.12	2.62	7.05	-27.3	-27.8	16.5	1.09e-04	0	33	0	2659188736	30	16887
2026-01-29 01:55:17.13	2.45	7.11	-27.0	-27.5	16.5	4.35e-05	0	33	0	2768240640	30	16302
2026-01-29 01:55:18.14	2.28	7.16	-27.4	-27.8	16.5	4.35e-05	0	33	0	2885681152	30	16994
2026-01-29 01:55:19.15	2.11	7.22	-27.3	-27.7	16.5	9.80e-05	0	33	0	3003121664	30	16779
2026-01-29 01:55:20.16	1.93	7.28	-27.1	-27.5	16.6	9.80e-05	0	33	0	3112173568	30	16396
2026-01-29 01:55:21.16	1.76	7.34	-26.6	-27.1	16.7	3.81e-05	0	33	0	3229614080	28	17417
2026-01-29 01:55:22.17	1.58	7.40	-27.1	-27.5	16.6	3.81e-05	0	33	0	3338665984	28	18350
2026-01-29 01:55:23.18	1.40	7.46	-26.6	-27.1	16.6	2.72e-05	0	33	0	3456106496	28	17442
2026-01-29 01:55:24.19	1.23	7.52	-26.4	-26.9	16.7	2.72e-05	0	33	0	3573547008	28	17069
2026-01-29 01:55:25.20	1.05	7.58	-26.7	-27.2	16.7	2.72e-05	0	33	0	3682598912	28	17659
2026-01-29 01:55:26.21	0.87	7.64	-26.9	-27.4	16.6	2.17e-05	0	33	0	3791650816	28	18066
2026-01-29 01:55:27.22	0.69	7.70	-26.9	-27.3	16.6	2.17e-05	0	33	0	3909091328	28	17896
2026-01-29 01:55:28.23	0.51	7.76	-26.5	-27.0	16.7	4.90e-05	0	33	0	4018143232	28	17326
2026-01-29 01:55:29.24	0.32	7.81	-26.5	-27.0	16.6	4.90e-05	0	33	0	4135583744	28	17329
2026-01-29 01:55:30.25	0.14	7.87	-26.3	-26.7	16.7	2.72e-05	0	33	0	4253024256	28	16749
2026-01-29 01:55:31.26	359.96	7.93	-26.6	-27.0	16.6	2.72e-05	0	33	0	4362076160	28	17323
2026-01-29 01:55:32.27	359.77	7.99	-26.6	-27.0	16.7	1.08e-05	0	33	0	4479516672	28	17267
2026-01-29 01:55:33.28	359.58	8.05	-26.4	-26.8	16.7	1.08e-05	0	33	0	4588568576	28	16940
2026-01-29 01:55:34.29	359.40	8.11	-26.1	-26.5	16.7	1.08e-05	0	33	0	4697620480	28	16370
2026-01-29 01:55:35.30	359.21	8.17	-26.2	-26.6	16.7	1.08e-05	0	33	0	4823449600	28	16543
2026-01-29 01:55:36.31	359.02	8.23	-26.3	-26.7	16.7	5.40e-06	0	33	0	4932501504	28	16801
2026-01-29 01:55:37.32	358.83	8.28	-26.5	-26.9	16.7	5.40e-06	0	33	0	5041553408	28	17180
2026-01-29 01:55:38.33	358.64	8.34	-26.0	-26.5	16.8	1.63e-05	0	33	0	5158993920	28	16291
2026-01-29 01:55:39.33	358.45	8.40	-26.1	-26.5	16.8	1.63e-05	0	33	0	5268045824	28	16324
2026-01-29 01:55:40.34	358.25	8.46	-26.0	-26.4	16.8	5.40e-06	0	33	0	5385486336	28	16182
2026-01-29 01:55:41.35	358.06	8.52	-26.0	-26.4	16.8	5.40e-06	0	33	0	5502926848	28	16121
2026-01-29 01:55:42.36	357.87	8.57	-26.1	-26.6	16.7	5.40e-06	0	33	0	5611978752	28	16502
2026-01-29 01:55:43.37	357.67	8.63	-26.5	-26.9	16.7	1.08e-05	0	33	0	5721030656	28	17044
2026-01-29 01:55:44.38	357.47	8.69	-26.3	-26.7	16.7	1.08e-05	0	33	0	5838471168	28	16728
2026-01-29 01:55:45.39	357.28	8.75	-26.0	-26.4	16.8	1.63e-05	0	33	0	5947523072	28	16169
2026-01-29 01:55:46.40	357.08	8.81	-26.1	-26.5	16.8	1.63e-05	0	33	0	6064963584	28	16292
2026-01-29 01:55:47.41	356.88	8.86	-25.8	-26.3	16.9	3.81e-05	0	33	0	6182404096	28	15914
2026-01-29 01:55:48.41	356.68	8.92	-26.0	-26.5	16.8	3.81e-05	0	33	0	6291456000	26	18230
2026-01-29 01:55:49.42	356.48	8.98	-26.1	-26.5	16.8	1.63e-05	0	33	0	6408896512	26	18274
2026-01-29 01:55:50.43	356.27	9.03	-26.1	-26.5	16.8	1.63e-05	0	33	0	6517948416	26	18382
2026-01-29 01:55:51.44	356.07	9.09	-26.0	-26.4	16.8	3.81e-05	0	33	0	6635388928	26	18143
2026-01-29 01:55:52.45	355.86	9.15	-26.1	-26.5	16.8	3.81e-05	0	33	0	6744440832	26	18344
2026-01-29 01:55:53.46	355.66	9.21	-26.1	-26.6	16.8	3.81e-05	0	33	0	6861881344	26	18457
2026-01-29 01:55:54.47	355.45	9.26	-26.0	-26.4	16.8	5.40e-06	0	33	0	6970933248	26	18070
2026-01-29 01:55:55.48	355.24	9.32	-26.3	-26.7	16.7	5.40e-06	0	33	0	7088373760	26	18767
2026-01-29 01:55:56.49	355.04	9.38	-25.9	-26.4	16.8	1.08e-05	0	33	0	7197425664	26	18078
2026-01-29 01:55:57.50	354.83	9.43	-26.0	-26.4	16.8	1.08e-05	0	33	0	7314866176	26	18200
2026-01-29 01:55:58.51	354.61	9.49	-25.9	-26.3	16.9	0.00e+00	0	33	0	7432306688	26	17930
2026-01-29 01:55:59.52	354.40	9.54	-25.8	-26.2	16.8	0.00e+00	0	33	0	7541358592	26	17761
2026-01-29 01:56:00.53	354.19	9.60	-25.8	-26.2	16.8	2.17e-05	0	33	0	7650410496	26	17803
2026-01-29 01:56:01.53	353.98	9.65	-25.8	-26.3	16.8	2.17e-05	0	33	0	7767851008	26	17816
2026-01-29 01:56:02.54	353.76	9.71	-25.9	-26.3	16.9	2.17e-05	0	33	0	7885291520	26	17890
2026-01-29 01:56:03.55	353.55	9.77	-26.0	-26.4	16.8	2.17e-05	0	33	0	7994343424	26	18072
2026-01-29 01:56:04.56	353.33	9.82	-25.8	-26.3	16.9	2.17e-05	0	33	0	8111783936	26	17828
2026-01-29 01:56:05.57	353.11	9.88	-25.9	-26.4	16.8	1.63e-05	0	33	0	8220835840	26	18014
2026-01-29 01:56:06.58	352.89	9.93	-25.8	-26.2	16.9	1.63e-05	0	33	0	8338276352	26	17801
2026-01-29 01:56:07.59	352.67	9.99	-26.0	-26.4	16.9	2.17e-05	0	33	0	8447328256	26	18095
2026-01-29 01:56:08.60	352.45	10.04	-26.3	-26.8	16.8	2.17e-05	0	33	0	8564768768	26	18960
2026-01-29 01:56:09.61	352.23	10.09	-26.3	-26.7	16.7	2.17e-05	0	33	0	8682209280	26	18804
2026-01-29 01:56:10.62	352.01	10.15	-26.4	-26.8	16.7	2.17e-05	0	33	0	8791261184	26	19018
2026-01-29 01:56:11.63	351.78	10.20	-26.7	-27.2	16.7	2.17e-05	0	33	0	8900313088	26	19791
2026-01-29 01:56:12.63	351.56	10.25	-26.3	-26.7	16.6	3.81e-05	0	33	0	9017753600	28	16625
2026-01-29 01:56:13.64	351.33	10.31	-25.8	-26.3	16.8	3.81e-05	0	33	0	9135194112	28	15955
2026-01-29 01:56:14.65	351.11	10.36	-25.9	-26.3	16.8	3.26e-05	0	33	0	9244246016	28	15943
2026-01-29 01:56:15.66	350.88	10.41	-26.0	-26.5	16.8	3.26e-05	0	33	0	9361686528	26	18250
2026-01-29 01:56:16.66	350.65	10.47	-26.0	-26.4	16.8	5.40e-06	0	33	0	9470738432	26	18037
2026-01-29 01:56:17.67	350.42	10.52	-25.6	-26.0	16.8	2.17e-05	0	33	0	9588178944	26	17347
2026-01-29 01:56:18.68	350.19	10.57	-25.6	-26.0	16.9	2.17e-05	0	33	0	9697230848	26	17272
2026-01-29 01:56:19.69	349.96	10.62	-25.4	-25.9	16.9	0.00e+00	0	34	0	9806282752	26	17059
2026-01-29 01:56:20.69	349.73	10.68	-25.4	-25.9	16.9	0.00e+00	0	33	0	9923723264	26	17019
2026-01-29 01:56:21.70	349.49	10.73	-25.5	-25.9	16.9	5.40e-06	0	33	0	10041163776	26	17138
2026-01-29 01:56:22.71	349.26	10.78	-25.4	-25.9	16.9	5.40e-06	0	33	0	10150215680	26	17026
2026-01-29 01:56:23.72	349.02	10.83	-25.4	-25.8	16.9	0.00e+00	0	33	0	10267656192	26	17003
2026-01-29 01:56:24.73	348.79	10.88	-25.4	-25.9	16.9	0.00e+00	0	34	0	10376708096	26	17127
2026-01-29 01:56:25.74	348.55	10.93	-25.3	-25.7	16.9	0.00e+00	0	34	0	10485760000	26	16710
2026-01-29 01:56:26.74	348.31	10.98	-25.4	-25.9	16.8	0.00e+00	0	34	0	10611589120	26	17046
2026-01-29 01:56:27.75	348.07	11.03	-25.3	-25.7	16.9	0.00e+00	0	33	0	10720641024	26	16727
2026-01-29 01:56:28.76	347.83	11.08	-25.3	-25.7	16.9	0.00e+00	0	34	0	10829692928	26	16783
2026-01-29 01:56:29.77	347.59	11.13	-25.3	-25.7	16.9	0.00e+00	0	34	0	10947133440	26	16765
2026-01-29 01:56:30.78	347.34	11.18	-25.3	-25.7	16.9	0.00e+00	0	34	0	11056185344	26	16762
2026-01-29 01:56:31.79	347.10	11.23	-25.4	-25.8	16.8	1.08e-05	0	34	0	11173625856	26	16875
2026-01-29 01:56:32.79	346.86	11.27	-25.2	-25.6	16.9	1.08e-05	0	34	0	11291066368	26	16541
2026-01-29 01:56:33.80	346.61	11.32	-25.1	-25.5	16.9	1.08e-05	0	34	0	11400118272	26	16347
2026-01-29 01:56:34.81	346.36	11.37	-25.2	-25.7	16.9	1.08e-05	0	34	0	11517558784	26	16650
2026-01-29 01:56:35.82	346.11	11.42	-25.2	-25.7	16.8	1.08e-05	0	34	0	11626610688	26	16699
2026-01-29 01:56:36.82	345.87	11.47	-25.1	-25.5	16.9	0.00e+00	0	34	0	11735662592	26	16310
2026-01-29 01:56:37.83	345.62	11.51	-25.0	-25.4	16.9	0.00e+00	0	34	0	11853103104	26	16185
2026-01-29 01:56:38.84	345.37	11.56	-25.2	-25.6	16.9	0.00e+00	0	33	0	11970543616	26	16596
2026-01-29 01:56:39.85	345.11	11.60	-25.4	-25.8	16.8	0.00e+00	0	33	0	12079595520	26	16925
2026-01-29 01:56:40.86	344.86	11.65	-25.0	-25.5	16.9	0.00e+00	0	34	0	12197036032	26	16297
2026-01-29 01:56:41.86	344.61	11.70	-24.9	-25.4	16.9	0.00e+00	0	34	0	12306087936	26	16127
2026-01-29 01:56:42.87	344.35	11.74	-25.0	-25.5	16.8	0.00e+00	0	33	0	12415139840	26	16254
2026-01-29 01:56:43.88	344.10	11.79	-25.0	-25.4	16.8	0.00e+00	0	34	0	12532580352	26	16152
2026-01-29 01:56:44.89	343.84	11.83	-25.0	-25.4	16.8	0.00e+00	0	34	0	12641632256	26	16169
2026-01-29 01:56:45.90	343.58	11.87	-25.0	-25.4	16.8	0.00e+00	0	33	0	12759072768	26	16161
2026-01-29 01:56:46.91	343.32	11.92	-25.1	-25.6	16.7	0.00e+00	0	34	0	12876513280	26	16481
2026-01-29 01:56:47.92	343.06	11.96	-24.9	-25.4	16.7	0.00e+00	0	34	0	12985565184	26	16160
2026-01-29 01:56:48.92	342.80	12.00	-25.0	-25.4	16.8	0.00e+00	0	34	0	13103005696	26	16220
2026-01-29 01:56:49.94	342.54	12.05	-25.1	-25.5	16.8	0.00e+00	0	34	0	13212057600	26	16372
2026-01-29 01:56:50.94	342.28	12.09	-25.1	-25.6	16.7	0.00e+00	0	34	0	13329498112	26	16442
2026-01-29 01:56:51.95	342.02	12.13	-25.0	-25.5	16.8	5.40e-06	0	34	0	13438550016	26	16304
2026-01-29 01:56:52.96	341.75	12.17	-25.1	-25.5	16.8	5.40e-06	0	34	0	13555990528	26	16367
2026-01-29 01:56:53.97	341.49	12.21	-25.0	-25.5	16.8	0.00e+00	0	34	0	13665042432	26	16263
2026-01-29 01:56:54.98	341.22	12.25	-25.1	-25.5	16.8	0.00e+00	0	34	0	13782482944	26	16360
2026-01-29 01:56:55.99	340.95	12.29	-25.2	-25.6	16.8	0.00e+00	0	34	0	13891534848	26	16603
2026-01-29 01:56:57.00	340.69	12.33	-25.1	-25.6	16.8	0.00e+00	0	34	0	14008975360	26	16449
2026-01-29 01:56:58.01	340.42	12.37	-25.1	-25.5	16.8	0.00e+00	0	34	0	14126415872	26	16333
2026-01-29 01:56:59.01	340.15	12.41	-25.3	-25.7	16.7	0.00e+00	0	34	0	14235467776	26	16769
2026-01-29 01:57:00.03	339.88	12.45	-25.3	-25.7	16.8	0.00e+00	0	34	0	14344519680	26	16759
2026-01-29 01:57:01.03	339.61	12.48	-25.1	-25.5	16.8	0.00e+00	0	34	0	14461960192	26	16263
2026-01-29 01:57:02.04	339.34	12.52	-25.0	-25.4	16.8	5.40e-06	0	34	0	14571012096	26	16114
2026-01-29 01:57:03.05	339.06	12.56	-25.0	-25.4	16.8	5.40e-06	0	34	0	14688452608	26	16187
2026-01-29 01:57:04.05	338.79	12.59	-25.0	-25.4	16.8	5.40e-06	0	34	0	14805893120	26	16193
2026-01-29 01:57:05.06	338.52	12.63	-25.0	-25.4	16.8	0.00e+00	0	34	0	14914945024	26	16069
2026-01-29 01:57:06.07	338.24	12.66	-24.9	-25.3	16.7	0.00e+00	0	34	0	15032385536	26	15929
2026-01-29 01:57:07.08	337.96	12.70	-24.8	-25.2	16.7	0.00e+00	0	34	0	15141437440	26	15773
2026-01-29 01:57:08.08	337.69	12.73	-25.0	-25.4	16.7	0.00e+00	0	34	0	15250489344	26	16086
2026-01-29 01:57:09.09	337.41	12.77	-24.9	-25.3	16.7	0.00e+00	0	34	0	15376318464	26	15924
2026-01-29 01:57:10.10	337.13	12.80	-25.0	-25.4	16.7	5.40e-06	0	34	0	15485370368	26	16092
2026-01-29 01:57:11.11	336.85	12.83	-25.1	-25.5	16.6	5.40e-06	0	34	0	15594422272	26	16316
2026-01-29 01:57:12.12	336.57	12.86	-25.0	-25.4	16.7	5.40e-06	0	34	0	15711862784	26	16102
2026-01-29 01:57:13.12	336.30	12.90	-25.0	-25.4	16.6	5.40e-06	0	34	0	15820914688	26	16158
2026-01-29 01:57:14.13	336.01	12.93	-25.0	-25.4	16.7	5.40e-06	0	34	0	15938355200	26	16175
2026-01-29 01:57:15.14	335.73	12.96	-25.0	-25.5	16.7	5.40e-06	0	34	0	16055795712	26	16281
2026-01-29 01:57:16.15	335.45	12.99	-25.0	-25.4	16.6	5.40e-06	0	34	0	16164847616	26	16225
2026-01-29 01:57:17.16	335.17	13.02	-25.1	-25.5	16.4	5.40e-06	0	34	0	16273899520	26	16327
2026-01-29 01:57:18.17	334.88	13.05	-25.2	-25.6	16.5	5.40e-06	0	34	0	16391340032	26	16515
2026-01-29 01:57:19.18	334.60	13.07	-25.0	-25.5	16.5	1.08e-05	0	34	0	16500391936	26	16263
2026-01-29 01:57:20.19	334.31	13.10	-25.0	-25.4	16.6	1.08e-05	0	34	0	16617832448	26	16144
2026-01-29 01:57:21.20	334.02	13.13	-25.0	-25.4	16.5	0.00e+00	0	34	0	16735272960	26	16230
2026-01-29 01:57:22.21	333.74	13.16	-25.0	-25.4	16.5	0.00e+00	0	34	0	16844324864	26	16155
2026-01-29 01:57:23.22	333.45	13.18	-24.9	-25.3	16.5	0.00e+00	0	34	0	16961765376	26	15976
2026-01-29 01:57:24.23	333.16	13.21	-25.0	-25.4	16.5	1.08e-05	0	34	0	17070817280	26	16115
2026-01-29 01:57:25.24	332.87	13.23	-24.9	-25.3	16.5	1.08e-05	0	34	0	17179869184	26	15987
2026-01-29 01:57:26.24	332.58	13.26	-25.0	-25.4	16.5	0.00e+00	0	34	0	17305698304	26	16093
2026-01-29 01:57:27.25	332.29	13.28	-25.0	-25.4	16.5	0.00e+00	0	34	0	17414750208	26	16076
2026-01-29 01:57:28.26	332.00	13.30	-25.0	-25.5	16.5	0.00e+00	0	34	0	17523802112	26	16240
2026-01-29 01:57:29.27	331.71	13.33	-25.0	-25.4	16.4	0.00e+00	0	34	0	17641242624	26	16088
2026-01-29 01:57:30.28	331.42	13.35	-24.9	-25.3	16.5	0.00e+00	0	34	0	17750294528	26	16031
2026-01-29 01:57:31.29	331.13	13.37	-25.1	-25.5	16.4	5.40e-06	0	34	0	17867735040	26	16256
2026-01-29 01:57:32.30	330.84	13.39	-25.2	-25.6	16.4	5.40e-06	0	34	0	17985175552	26	16547
2026-01-29 01:57:33.31	330.54	13.41	-25.1	-25.5	16.4	5.40e-06	0	34	0	18094227456	26	16373
2026-01-29 01:57:34.31	330.25	13.43	-25.2	-25.6	16.4	5.40e-06	0	34	0	18203279360	26	16518
2026-01-29 01:57:35.32	329.96	13.45	-25.1	-25.5	16.4	0.00e+00	0	34	0	18320719872	26	16403
2026-01-29 01:57:36.33	329.66	13.47	-25.2	-25.6	16.4	0.00e+00	0	34	0	18429771776	26	16506
2026-01-29 01:57:37.34	329.37	13.49	-25.1	-25.5	16.4	0.00e+00	0	34	0	18547212288	26	16420
2026-01-29 01:57:38.35	329.07	13.50	-25.2	-25.6	16.4	0.00e+00	0	34	0	18664652800	26	16481
2026-01-29 01:57:39.36	328.78	13.52	-25.2	-25.6	16.3	0.00e+00	0	34	0	18773704704	26	16601
2026-01-29 01:57:40.37	328.48	13.53	-25.2	-25.6	16.3	5.40e-06	0	34	0	18891145216	26	16584
2026-01-29 01:57:41.37	328.19	13.55	-25.3	-25.7	16.3	5.40e-06	0	34	0	19000197120	26	16662
2026-01-29 01:57:42.38	327.89	13.56	-25.3	-25.7	16.3	5.40e-06	0	34	0	19109249024	26	16691
2026-01-29 01:57:43.39	327.59	13.58	-25.3	-25.8	16.3	5.40e-06	0	34	0	19226689536	26	16841
2026-01-29 01:57:44.40	327.30	13.59	-25.3	-25.7	16.3	5.40e-06	0	34	0	19344130048	26	16740
2026-01-29 01:57:45.41	327.00	13.60	-25.5	-25.9	16.3	5.40e-06	0	34	0	19453181952	26	17147
2026-01-29 01:57:46.42	326.70	13.62	-25.3	-25.7	16.3	5.40e-06	0	34	0	19570622464	26	16734
2026-01-29 01:57:47.43	326.40	13.63	-25.4	-25.8	16.3	2.72e-05	0	34	0	19679674368	26	16845
2026-01-29 01:57:48.44	326.10	13.64	-25.4	-25.8	16.3	2.72e-05	0	34	0	19797114880	26	16957
2026-01-29 01:57:49.45	325.80	13.65	-25.4	-25.8	16.3	0.00e+00	0	34	0	19914555392	26	16931
2026-01-29 01:57:50.46	325.50	13.66	-25.5	-25.9	16.3	0.00e+00	0	34	0	20023607296	26	17016
2026-01-29 01:57:51.47	325.20	13.66	-25.6	-26.0	16.3	0.00e+00	0	34	0	20132659200	26	17302
2026-01-29 01:57:52.48	324.90	13.67	-25.4	-25.7	16.3	5.40e-06	0	34	0	20250099712	26	16805
2026-01-29 01:57:53.49	324.60	13.68	-25.3	-25.7	16.4	5.40e-06	0	34	0	20359151616	26	16706
2026-01-29 01:57:54.50	324.30	13.69	-25.3	-25.7	16.4	1.08e-05	0	34	0	20476592128	26	16664
2026-01-29 01:57:55.51	324.00	13.69	-25.4	-25.8	16.4	1.08e-05	0	34	0	20594032640	26	16837
2026-01-29 01:57:56.52	323.70	13.70	-25.5	-25.9	16.4	0.00e+00	0	34	0	20703084544	26	17105
2026-01-29 01:57:57.52	323.41	13.70	-25.4	-25.8	16.4	0.00e+00	0	34	0	20820525056	26	16845
2026-01-29 01:57:58.53	323.10	13.71	-25.2	-25.6	16.4	1.08e-05	0	34	0	20929576960	26	16532
2026-01-29 01:57:59.54	322.80	13.71	-25.3	-25.6	16.5	1.08e-05	0	34	0	21038628864	26	16593
2026-01-29 01:58:00.55	322.50	13.71	-25.3	-25.7	16.5	1.08e-05	0	34	0	21156069376	26	16629
2026-01-29 01:58:01.55	322.21	13.71	-25.2	-25.6	16.5	0.00e+00	0	34	0	21273509888	26	16493
2026-01-29 01:58:02.56	321.90	13.71	-25.2	-25.6	16.6	0.00e+00	0	34	0	21382561792	26	16527
2026-01-29 01:58:03.57	321.60	13.71	-25.2	-25.6	16.6	5.40e-06	0	34	0	21500002304	26	16610
2026-01-29 01:58:04.58	321.30	13.71	-25.3	-25.7	16.6	5.40e-06	0	34	0	21609054208	26	16652
2026-01-29 01:58:05.58	321.00	13.71	-25.2	-25.6	16.5	5.40e-06	0	34	0	21726494720	26	16607
2026-01-29 01:58:06.59	320.70	13.71	-25.2	-25.6	16.6	5.40e-06	0	34	0	21843935232	26	16605
2026-01-29 01:58:07.60	320.40	13.71	-25.4	-25.8	16.6	0.00e+00	0	34	0	21952987136	26	16844
2026-01-29 01:58:08.61	320.10	13.71	-25.2	-25.6	16.7	0.00e+00	0	34	0	22062039040	26	16589
2026-01-29 01:58:09.62	319.80	13.70	-25.2	-25.6	16.7	1.08e-05	0	34	0	22179479552	26	16480
2026-01-29 01:58:10.63	319.50	13.70	-25.1	-25.5	16.7	1.08e-05	0	34	0	22288531456	26	16364
2026-01-29 01:58:11.64	319.20	13.69	-25.1	-25.6	16.6	1.08e-05	0	34	0	22405971968	26	16431
2026-01-29 01:58:12.65	318.90	13.69	-25.1	-25.5	16.7	5.40e-06	0	34	0	22523412480	26	16390
2026-01-29 01:58:13.66	318.60	13.68	-25.1	-25.5	16.7	5.40e-06	0	34	0	22632464384	26	16399
2026-01-29 01:58:14.67	318.30	13.67	-25.0	-25.5	16.8	0.00e+00	0	34	0	22749904896	26	16253
2026-01-29 01:58:15.68	318.00	13.67	-25.1	-25.5	16.7	0.00e+00	0	34	0	22858956800	26	16390
2026-01-29 01:58:16.68	317.70	13.66	-25.1	-25.6	16.8	0.00e+00	0	34	0	22968008704	26	16439
2026-01-29 01:58:17.70	317.40	13.65	-25.2	-25.6	16.7	0.00e+00	0	34	0	23085449216	26	16553
2026-01-29 01:58:18.70	317.10	13.64	-25.4	-25.9	16.7	0.00e+00	0	34	0	23202889728	26	17015
2026-01-29 01:58:19.71	316.80	13.63	-25.5	-25.9	16.7	0.00e+00	0	34	0	23311941632	26	17166
2026-01-29 01:58:20.72	316.51	13.62	-48.8	-51.3	6.1	0.00e+00	0	34	104	23362273280	60	45038
2026-01-29 01:58:21.73	316.21	13.61	-48.8	-51.3	6.1	0.00e+00	0	34	104	23362273280	60	45199
2026-01-29 01:58:22.74	315.91	13.59	-48.6	-51.1	6.1	0.00e+00	0	34	104	23362273280	60	44124
2026-01-29 01:58:23.74	315.61	13.58	-48.6	-51.2	6.1	0.00e+00	0	34	104	23362273280	60	44347
2026-01-29 01:58:24.75	315.32	13.57	-48.7	-51.2	6.1	0.00e+00	0	34	104	23362273280	60	44462
2026-01-29 01:58:25.76	315.02	13.55	-48.6	-51.1	6.1	0.00e+00	0	34	104	23362273280	60	44096
2026-01-29 01:58:26.77	314.72	13.54	-48.4	-51.0	6.1	0.00e+00	0	34	104	23362273280	60	43209
2026-01-29 01:58:27.78	314.42	13.52	-48.7	-51.2	6.1	0.00e+00	0	34	104	23362273280	60	44461
2026-01-29 01:58:28.79	314.13	13.51	-48.8	-51.3	6.1	0.00e+00	0	34	104	23362273280	60	44932
2026-01-29 01:58:29.80	313.83	13.49	-48.8	-51.3	6.1	0.00e+00	0	34	104	23362273280	60	45018
2026-01-29 01:58:30.81	313.54	13.47	-48.8	-51.3	6.1	0.00e+00	0	34	104	23362273280	60	45011
2026-01-29 01:58:31.82	313.24	13.45	-48.9	-51.4	6.1	0.00e+00	0	34	104	23362273280	60	45432
2026-01-29 01:58:32.82	312.95	13.44	-48.7	-51.2	6.1	0.00e+00	0	34	104	23362273280	60	44519
2026-01-29 01:58:33.83	312.66	13.42	-48.7	-51.2	6.1	0.00e+00	0	34	104	23362273280	60	44327
2026-01-29 01:58:34.84	312.36	13.40	-48.6	-51.2	6.1	0.00e+00	0	34	104	23362273280	60	44259
2026-01-29 01:58:35.85	312.07	13.38	-48.7	-51.2	6.1	0.00e+00	0	34	104	23362273280	60	44605
2026-01-29 01:58:36.87	311.77	13.36	-48.5	-51.1	6.1	0.00e+00	0	34	104	23362273280	60	43870
2026-01-29 01:58:37.87	311.48	13.33	-48.5	-51.1	6.1	0.00e+00	0	34	104	23362273280	60	43817
2026-01-29 01:58:38.88	311.19	13.31	-48.4	-50.9	6.1	0.00e+00	0	34	104	23362273280	60	43131
2026-01-29 01:58:39.89	310.90	13.29	-48.6	-51.1	6.1	0.00e+00	0	34	104	23362273280	60	44132
2026-01-29 01:58:40.90	310.61	13.26	-48.2	-50.7	6.1	0.00e+00	0	34	104	23362273280	60	42222
2026-01-29 01:58:41.91	310.32	13.24	-48.6	-51.1	6.1	0.00e+00	0	34	104	23362273280	60	44038
2026-01-29 01:58:42.92	310.03	13.22	-48.6	-51.1	6.1	0.00e+00	0	34	104	23362273280	60	43998
2026-01-29 01:58:43.93	309.74	13.19	-48.6	-51.2	6.1	0.00e+00	0	34	104	23362273280	60	44388
2026-01-29 01:58:44.93	309.46	13.16	-48.6	-51.1	6.1	0.00e+00	0	34	104	23362273280	60	44189
2026-01-29 01:58:45.95	309.16	13.14	-48.7	-51.2	6.1	0.00e+00	0	34	104	23362273280	60	44571
2026-01-29 01:58:46.95	308.88	13.11	-48.4	-51.0	6.1	0.00e+00	0	34	104	23362273280	60	43375
2026-01-29 01:58:47.96	308.59	13.08	-48.6	-51.2	6.1	0.00e+00	0	34	104	23362273280	60	44246
2026-01-29 01:58:48.97	308.31	13.05	-48.5	-51.0	6.1	0.00e+00	0	34	104	23362273280	60	43549
2026-01-29 01:58:49.98	308.02	13.03	-48.4	-51.0	6.1	0.00e+00	0	34	104	23362273280	60	43252
2026-01-29 01:58:50.98	307.74	13.00	-48.6	-51.1	6.1	0.00e+00	0	34	104	23362273280	60	43774
2026-01-29 01:58:51.99	307.46	12.97	-48.5	-51.1	6.1	0.00e+00	0	34	104	23362273280	60	43767
2026-01-29 01:58:53.00	307.17	12.94	-48.3	-50.9	6.1	0.00e+00	0	34	104	23362273280	60	42874
2026-01-29 01:58:54.01	306.89	12.91	-48.3	-50.9	6.1	0.00e+00	0	34	104	23362273280	60	42799
2026-01-29 01:58:55.02	306.61	12.87	-48.4	-51.0	6.1	0.00e+00	0	34	104	23362273280	60	43507
2026-01-29 01:58:56.03	306.33	12.84	-48.5	-51.1	6.1	0.00e+00	0	34	104	23362273280	60	43773
2026-01-29 01:58:57.03	306.05	12.81	-48.0	-50.7	6.1	0.00e+00	0	34	104	23362273280	60	41767
2026-01-29 01:58:58.04	305.77	12.78	-48.2	-50.9	6.1	0.00e+00	0	34	104	23362273280	60	42740
2026-01-29 01:58:59.05	305.49	12.74	-48.3	-50.9	6.1	0.00e+00	0	34	104	23362273280	60	43187
2026-01-29 01:59:00.06	305.22	12.71	-48.4	-51.0	6.1	0.00e+00	0	34	104	23362273280	60	43470
2026-01-29 01:59:01.07	304.94	12.67	-48.3	-50.9	6.1	0.00e+00	0	34	104	23362273280	60	42993
2026-01-29 01:59:02.08	304.66	12.64	-48.1	-50.8	6.1	0.00e+00	0	34	104	23362273280	60	42270
2026-01-29 01:59:03.09	304.39	12.60	-48.3	-50.8	6.1	0.00e+00	0	34	104	23362273280	60	42605
2026-01-29 01:59:04.10	304.11	12.57	-48.5	-51.1	6.1	0.00e+00	0	34	104	23362273280	60	43745
2026-01-29 01:59:05.11	303.84	12.53	-48.4	-51.0	6.1	0.00e+00	0	34	104	23362273280	60	43246
2026-01-29 01:59:06.12	303.56	12.49	-48.4	-51.0	6.1	0.00e+00	0	34	104	23362273280	60	43254
2026-01-29 01:59:07.12	303.29	12.46	-48.4	-51.0	6.1	0.00e+00	0	34	104	23362273280	60	43298
2026-01-29 01:59:08.13	303.02	12.42	-48.4	-50.9	6.1	0.00e+00	0	34	104	23362273280	60	43049
2026-01-29 01:59:09.14	302.75	12.38	-48.5	-51.1	6.1	0.00e+00	0	34	104	23362273280	60	43762
2026-01-29 01:59:10.15	302.48	12.34	-48.5	-51.0	6.1	0.00e+00	0	34	104	23362273280	60	43604
2026-01-29 01:59:11.16	302.21	12.30	-48.5	-51.1	6.1	0.00e+00	0	34	104	23362273280	60	43870
2026-01-29 01:59:12.17	301.94	12.26	-48.5	-51.1	6.1	0.00e+00	0	34	104	23362273280	60	43863
2026-01-29 01:59:13.18	301.68	12.22	-48.6	-51.1	6.1	0.00e+00	0	34	104	23362273280	60	44066
2026-01-29 01:59:14.19	301.41	12.18	-48.7	-51.2	6.1	0.00e+00	0	34	104	23362273280	60	44335
2026-01-29 01:59:15.19	301.15	12.14	-48.7	-51.2	6.1	0.00e+00	0	34	104	23362273280	60	44428
2026-01-29 01:59:16.20	300.88	12.10	-48.7	-51.2	6.1	0.00e+00	0	34	104	23362273280	60	44522
2026-01-29 01:59:17.21	300.62	12.06	-48.7	-51.2	6.0	0.00e+00	0	34	104	23362273280	60	44465
2026-01-29 01:59:18.22	300.36	12.01	-48.8	-51.3	6.1	0.00e+00	0	34	104	23362273280	60	44889
2026-01-29 01:59:19.22	300.10	11.97	-48.7	-51.2	6.1	0.00e+00	0	34	104	23362273280	60	44710
2026-01-29 01:59:20.23	299.84	11.93	-48.8	-51.3	6.1	0.00e+00	0	34	104	23362273280	60	45096
2026-01-29 01:59:21.24	299.58	11.88	-48.7	-51.2	6.1	0.00e+00	0	34	104	23362273280	60	44690
2026-01-29 01:59:22.25	299.32	11.84	-48.8	-51.3	6.1	0.00e+00	0	34	104	23362273280	60	44833
2026-01-29 01:59:23.26	299.06	11.80	-48.8	-51.3	6.1	0.00e+00	0	34	104	23362273280	60	44815
2026-01-29 01:59:24.27	298.80	11.75	-48.8	-51.3	6.1	0.00e+00	0	34	104	23362273280	60	45119
2026-01-29 01:59:25.28	298.55	11.71	-48.8	-51.3	6.1	0.00e+00	0	34	104	23362273280	60	45014
2026-01-29 01:59:26.29	298.29	11.66	-48.8	-51.2	6.1	0.00e+00	0	34	104	23362273280	60	44726
2026-01-29 01:59:27.30	298.04	11.61	-48.8	-51.2	6.1	0.00e+00	0	34	104	23362273280	60	44686
2026-01-29 01:59:28.30	297.79	11.57	-48.9	-51.3	6.1	0.00e+00	0	34	104	23362273280	60	45194
2026-01-29 01:59:29.31	297.53	11.52	-48.8	-51.3	6.1	0.00e+00	0	34	104	23362273280	60	44852
2026-01-29 01:59:30.32	297.28	11.47	-48.8	-51.3	6.1	0.00e+00	0	34	104	23362273280	60	44778
2026-01-29 01:59:31.33	297.03	11.43	-48.8	-51.3	6.1	0.00e+00	0	34	104	23362273280	60	44870
2026-01-29 01:59:32.34	296.78	11.38	-48.8	-51.3	6.1	0.00e+00	0	34	104	23362273280	60	44946
2026-01-29 01:59:33.35	296.53	11.33	-48.8	-51.3	6.1	0.00e+00	0	34	104	23362273280	60	44982
2026-01-29 01:59:34.35	296.29	11.28	-48.9	-51.4	6.1	0.00e+00	0	34	104	23362273280	60	45270
2026-01-29 01:59:35.36	296.04	11.24	-48.8	-51.3	6.1	0.00e+00	0	34	104	23362273280	60	44941
2026-01-29 01:59:36.37	295.80	11.19	-48.8	-51.3	6.1	0.00e+00	0	34	104	23362273280	60	44796
2026-01-29 01:59:37.38	295.55	11.14	-48.7	-51.2	6.1	0.00e+00	0	34	104	23362273280	60	44527
2026-01-29 01:59:38.39	295.31	11.09	-48.8	-51.3	6.1	0.00e+00	0	34	104	23362273280	60	45072
2026-01-29 01:59:39.40	295.07	11.04	-48.8	-51.3	6.1	0.00e+00	0	34	104	23362273280	60	44776
2026-01-29 01:59:40.41	294.83	10.99	-48.8	-51.3	6.1	0.00e+00	0	34	104	23362273280	60	44803
2026-01-29 01:59:41.42	294.58	10.94	-48.8	-51.3	6.1	0.00e+00	0	34	104	23362273280	60	44836
2026-01-29 01:59:42.42	294.35	10.89	-48.8	-51.3	6.1	0.00e+00	0	34	104	23362273280	60	44798
2026-01-29 01:59:43.43	294.11	10.84	-48.8	-51.3	6.1	0.00e+00	0	34	104	23362273280	60	45120
2026-01-29 01:59:44.44	293.87	10.79	-48.8	-51.3	6.1	0.00e+00	0	34	104	23362273280	60	44919
2026-01-29 01:59:45.45	293.64	10.73	-48.8	-51.3	6.1	0.00e+00	0	34	104	23362273280	60	44749
2026-01-29 01:59:46.46	293.40	10.68	-48.8	-51.3	6.1	0.00e+00	0	34	104	23362273280	60	44887
2026-01-29 01:59:47.47	293.17	10.63	-48.8	-51.3	6.1	0.00e+00	0	34	104	23362273280	60	44902
2026-01-29 01:59:48.48	292.93	10.58	-48.7	-51.2	6.1	0.00e+00	0	34	104	23362273280	60	44593
2026-01-29 01:59:49.49	292.70	10.53	-48.8	-51.2	6.1	0.00e+00	0	34	104	23362273280	60	44575
2026-01-29 01:59:50.49	292.47	10.47	-48.7	-51.2	6.1	0.00e+00	0	34	104	23362273280	60	44443
2026-01-29 01:59:51.50	292.24	10.42	-48.8	-51.2	6.1	0.00e+00	0	34	104	23362273280	60	44577
2026-01-29 01:59:52.51	292.01	10.37	-48.7	-51.2	6.1	0.00e+00	0	34	104	23362273280	60	44271
2026-01-29 01:59:53.52	291.78	10.32	-48.7	-51.1	6.1	0.00e+00	0	34	104	23362273280	60	43866
2026-01-29 01:59:54.53	291.56	10.26	-48.7	-51.2	6.1	0.00e+00	0	34	104	23362273280	60	44418
2026-01-29 01:59:55.54	291.33	10.21	-48.7	-51.2	6.1	0.00e+00	0	34	104	23362273280	60	44472
2026-01-29 01:59:56.54	291.11	10.15	-48.6	-51.1	6.1	0.00e+00	0	34	104	23362273280	60	44188
2026-01-29 01:59:57.55	290.88	10.10	-48.6	-51.1	6.1	0.00e+00	0	34	104	23362273280	60	44026
2026-01-29 01:59:58.56	290.66	10.05	-48.7	-51.2	6.1	0.00e+00	0	34	104	23362273280	60	44417
2026-01-29 01:59:59.57	290.44	9.99	-48.7	-51.2	6.1	0.00e+00	0	34	104	23362273280	60	44612
2026-01-29 02:00:00.57	290.22	9.94	-48.7	-51.2	6.1	0.00e+00	0	34	104	23362273280	60	44275
2026-01-29 02:00:01.58	290.00	9.88	-48.7	-51.2	6.1	0.00e+00	0	34	104	23362273280	60	44228
2026-01-29 02:00:02.59	289.78	9.83	-48.7	-51.3	6.1	0.00e+00	0	34	104	23362273280	60	45001
2026-01-29 02:00:03.60	289.56	9.77	-48.7	-51.2	6.1	0.00e+00	0	34	104	23362273280	60	44565
2026-01-29 02:00:04.61	289.34	9.72	-48.7	-51.2	6.1	0.00e+00	0	34	104	23362273280	60	44225
2026-01-29 02:00:05.62	289.13	9.66	-48.7	-51.2	6.1	0.00e+00	0	34	104	23362273280	60	44296
2026-01-29 02:00:06.63	288.91	9.60	-48.7	-51.2	6.1	0.00e+00	0	34	104	23362273280	60	44563
2026-01-29 02:00:07.64	288.70	9.55	-48.6	-51.1	6.1	0.00e+00	0	34	104	23362273280	60	44141
2026-01-29 02:00:08.65	288.48	9.49	-48.7	-51.2	6.1	0.00e+00	0	34	104	23362273280	60	44535
2026-01-29 02:00:09.66	288.27	9.44	-48.7	-51.2	6.1	0.00e+00	0	34	104	23362273280	60	44227
2026-01-29 02:00:10.66	288.06	9.38	-48.7	-51.2	6.1	0.00e+00	0	34	104	23362273280	60	44417
2026-01-29 02:00:11.67	287.85	9.32	-48.7	-51.2	6.1	0.00e+00	0	34	104	23362273280	60	44513
2026-01-29 02:00:12.68	287.64	9.27	-48.7	-51.1	6.1	0.00e+00	0	34	104	23362273280	60	44085
2026-01-29 02:00:13.69	287.44	9.21	-48.7	-51.1	6.1	0.00e+00	0	34	104	23362273280	60	44170
2026-01-29 02:00:14.70	287.23	9.15	-48.7	-51.1	6.1	0.00e+00	0	34	104	23362273280	60	44169
2026-01-29 02:00:15.71	287.02	9.10	-48.7	-51.2	6.1	0.00e+00	0	34	104	23362273280	60	44322
2026-01-29 02:00:16.72	286.82	9.04	-48.6	-51.1	6.1	0.00e+00	0	34	104	23362273280	60	44077
2026-01-29 02:00:17.72	286.62	8.98	-48.7	-51.1	6.1	0.00e+00	0	34	104	23362273280	60	44151
2026-01-29 02:00:18.73	286.41	8.92	-48.7	-51.2	6.1	0.00e+00	0	34	104	23362273280	60	44240
2026-01-29 02:00:19.74	286.21	8.87	-48.7	-51.2	6.1	0.00e+00	0	34	104	23362273280	60	44241
2026-01-29 02:00:20.75	286.01	8.81	-48.6	-51.1	6.1	0.00e+00	0	34	104	23362273280	60	44076
2026-01-29 02:00:21.76	285.81	8.75	-48.6	-51.1	6.1	0.00e+00	0	34	104	23362273280	60	43877
2026-01-29 02:00:22.77	285.61	8.69	-48.6	-51.1	6.1	0.00e+00	0	34	104	23362273280	60	43723
2026-01-29 02:00:23.78	285.41	8.64	-48.7	-51.1	6.1	0.00e+00	0	34	104	23362273280	60	43987
2026-01-29 02:00:24.79	285.22	8.58	-48.6	-51.1	6.1	0.00e+00	0	34	104	23362273280	60	43871
2026-01-29 02:00:25.80	285.02	8.52	-48.6	-51.1	6.1	0.00e+00	0	34	104	23362273280	60	43716
2026-01-29 02:00:26.80	284.83	8.46	-48.6	-51.1	6.1	0.00e+00	0	34	104	23362273280	60	44042
2026-01-29 02:00:27.81	284.63	8.40	-48.7	-51.1	6.1	0.00e+00	0	34	104	23362273280	60	44074
2026-01-29 02:00:28.82	284.44	8.34	-48.6	-51.0	6.1	0.00e+00	0	34	104	23362273280	60	43632
2026-01-29 02:00:29.83	284.25	8.29	-48.6	-51.1	6.1	0.00e+00	0	34	104	23362273280	60	43711
2026-01-29 02:00:30.84	284.06	8.23	-48.6	-51.1	6.1	0.00e+00	0	34	104	23362273280	60	43783
2026-01-29 02:00:31.85	283.87	8.17	-48.6	-51.1	6.1	0.00e+00	0	34	104	23362273280	60	44060
2026-01-29 02:00:32.86	283.68	8.11	-48.6	-51.0	6.1	0.00e+00	0	34	104	23362273280	60	43508
2026-01-29 02:00:33.86	283.49	8.05	-48.6	-51.1	6.1	0.00e+00	0	34	104	23362273280	60	43955
2026-01-29 02:00:34.88	283.30	7.99	-48.6	-51.0	6.1	0.00e+00	0	34	104	23362273280	60	43670
2026-01-29 02:00:35.89	283.11	7.93	-48.6	-51.1	6.1	0.00e+00	0	34	104	23362273280	60	43878
2026-01-29 02:00:36.89	282.93	7.87	-48.5	-51.0	6.1	0.00e+00	0	34	104	23362273280	60	43399
2026-01-29 02:00:37.90	282.75	7.82	-48.5	-51.0	6.1	0.00e+00	0	34	104	23362273280	60	43541
2026-01-29 02:00:38.91	282.56	7.76	-48.6	-51.0	6.1	0.00e+00	0	34	104	23362273280	60	43543
2026-01-29 02:00:39.92	282.38	7.70	-48.6	-51.1	6.1	0.00e+00	0	34	104	23362273280	60	43833
2026-01-29 02:00:40.93	282.20	7.64	-48.5	-51.0	6.1	0.00e+00	0	34	104	23362273280	60	43299
2026-01-29 02:00:41.94	282.02	7.58	-48.5	-51.0	6.1	0.00e+00	0	34	104	23362273280	60	43508
2026-01-29 02:00:42.95	281.84	7.52	-48.6	-51.0	6.1	0.00e+00	0	34	104	23362273280	60	43664
2026-01-29 02:00:43.96	281.66	7.46	-48.6	-51.1	6.1	0.00e+00	0	34	104	23362273280	60	43725
2026-01-29 02:00:44.96	281.48	7.40	-48.5	-51.0	6.1	0.00e+00	0	34	104	23362273280	60	43316
2026-01-29 02:00:45.97	281.30	7.34	-48.4	-50.9	6.1	0.00e+00	0	34	104	23362273280	60	43087
2026-01-29 02:00:46.98	281.13	7.28	-48.5	-51.0	6.1	0.00e+00	0	34	104	23362273280	60	43520
2026-01-29 02:00:47.98	280.95	7.22	-48.6	-51.0	6.0	0.00e+00	0	34	104	23362273280	60	43579
2026-01-29 02:00:48.99	280.78	7.16	-48.4	-50.9	6.1	0.00e+00	0	34	104	23362273280	60	42744
2026-01-29 02:00:50.00	280.60	7.10	-48.5	-50.9	6.0	0.00e+00	0	34	104	23362273280	60	43207
2026-01-29 02:00:51.01	280.43	7.04	-48.4	-51.0	6.1	0.00e+00	0	34	104	23362273280	60	43297
2026-01-29 02:00:52.02	280.26	6.99	-48.5	-51.0	6.1	0.00e+00	0	34	104	23362273280	60	43642
2026-01-29 02:00:53.02	280.09	6.93	-48.4	-50.8	6.1	0.00e+00	0	34	104	23362273280	60	42680
2026-01-29 02:00:54.03	279.92	6.87	-48.3	-50.8	6.1	0.00e+00	0	34	104	23362273280	60	42573
2026-01-29 02:00:55.04	279.75	6.81	-48.5	-50.9	6.1	0.00e+00	0	34	104	23362273280	60	43149
2026-01-29 02:00:56.05	279.58	6.75	-48.5	-51.0	6.1	0.00e+00	0	34	104	23362273280	60	43297
2026-01-29 02:00:57.06	279.42	6.69	-48.3	-50.8	6.1	0.00e+00	0	34	104	23362273280	60	42482
2026-01-29 02:00:58.07	279.25	6.63	-48.4	-50.9	6.1	0.00e+00	0	34	104	23362273280	60	42729
2026-01-29 02:00:59.08	279.08	6.57	-48.3	-50.8	6.1	0.00e+00	0	34	104	23362273280	60	42711
2026-01-29 02:01:00.09	278.92	6.51	-48.5	-50.9	6.1	0.00e+00	0	34	104	23362273280	60	43163
2026-01-29 02:01:01.10	278.75	6.45	-48.3	-50.8	6.1	0.00e+00	0	34	104	23362273280	60	42487
2026-01-29 02:01:02.11	278.59	6.39	-48.4	-50.8	6.1	0.00e+00	0	34	104	23362273280	60	42539
2026-01-29 02:01:03.12	278.43	6.33	-48.4	-50.8	6.1	0.00e+00	0	34	104	23362273280	60	42665
2026-01-29 02:01:04.12	278.27	6.27	-48.4	-50.9	6.1	0.00e+00	0	34	104	23362273280	60	43013
2026-01-29 02:01:05.13	278.11	6.21	-48.3	-50.8	6.1	0.00e+00	0	34	104	23362273280	60	42260
2026-01-29 02:01:06.14	277.95	6.15	-48.3	-50.8	6.1	0.00e+00	0	34	104	23362273280	60	42456
2026-01-29 02:01:07.15	277.79	6.09	-48.4	-50.9	6.1	0.00e+00	0	34	104	23362273280	60	42729
2026-01-29 02:01:08.16	277.63	6.03	-48.4	-50.9	6.1	0.00e+00	0	34	104	23362273280	60	42775
2026-01-29 02:01:09.17	277.47	5.97	-48.2	-50.7	6.1	0.00e+00	0	34	104	23362273280	60	42155
2026-01-29 02:01:10.18	277.32	5.91	-48.3	-50.8	6.1	0.00e+00	0	34	104	23362273280	60	42352
2026-01-29 02:01:11.19	277.16	5.85	-48.3	-50.8	6.1	0.00e+00	0	34	104	23362273280	60	42406
2026-01-29 02:01:12.20	277.01	5.79	-48.4	-50.8	6.1	0.00e+00	0	34	104	23362273280	60	42577
2026-01-29 02:01:13.21	276.85	5.73	-48.2	-50.7	6.1	0.00e+00	0	34	104	23362273280	60	41910
2026-01-29 02:01:14.22	276.70	5.67	-48.3	-50.7	6.1	0.00e+00	0	34	104	23362273280	60	42100
2026-01-29 02:01:15.23	276.55	5.61	-48.3	-50.7	6.1	0.00e+00	0	34	104	23362273280	60	42146
2026-01-29 02:01:16.24	276.39	5.55	-48.3	-50.8	6.1	0.00e+00	0	34	104	23362273280	60	42379
2026-01-29 02:01:17.25	276.24	5.50	-48.1	-50.6	6.1	0.00e+00	0	34	104	23362273280	60	41720
2026-01-29 02:01:18.26	276.09	5.44	-48.2	-50.7	6.1	0.00e+00	0	34	104	23362273280	60	42158
2026-01-29 02:01:19.26	275.94	5.38	-48.2	-50.7	6.1	0.00e+00	0	34	104	23362273280	60	41830
2026-01-29 02:01:20.27	275.80	5.32	-48.3	-50.7	6.1	0.00e+00	0	34	104	23362273280	60	42078
2026-01-29 02:01:21.28	275.65	5.26	-48.1	-50.6	6.1	0.00e+00	0	34	104	23362273280	60	41474
2026-01-29 02:01:22.29	275.50	5.20	-48.2	-50.7	6.1	0.00e+00	0	34	104	23362273280	60	41762
2026-01-29 02:01:23.30	275.35	5.14	-48.2	-50.7	6.1	0.00e+00	0	34	104	23362273280	60	41800
2026-01-29 02:01:24.31	275.21	5.08	-48.2	-50.7	6.1	0.00e+00	0	34	104	23362273280	60	41783
2026-01-29 02:01:25.32	275.06	5.02	-48.0	-50.5	6.1	0.00e+00	0	34	104	23362273280	60	41167
2026-01-29 02:01:26.33	274.92	4.96	-48.1	-50.6	6.1	0.00e+00	0	34	104	23362273280	60	41414
2026-01-29 02:01:27.34	274.78	4.90	-48.2	-50.7	6.1	0.00e+00	0	34	104	23362273280	60	41776
2026-01-29 02:01:28.34	274.64	4.84	-48.2	-50.6	6.1	0.00e+00	0	34	104	23362273280	60	41663
2026-01-29 02:01:29.36	274.49	4.78	-48.0	-50.5	6.1	0.00e+00	0	34	104	23362273280	60	40951
2026-01-29 02:01:30.37	274.35	4.72	-48.0	-50.5	6.1	0.00e+00	0	34	104	23362273280	60	41032
2026-01-29 02:01:31.37	274.21	4.67	-48.1	-50.6	6.1	0.00e+00	0	34	104	23362273280	60	41480
2026-01-29 02:01:32.38	274.07	4.61	-48.1	-50.6	6.1	0.00e+00	0	33	104	23362273280	60	41509
2026-01-29 02:01:33.39	273.93	4.55	-48.0	-50.5	6.1	0.00e+00	0	34	104	23362273280	60	40920
2026-01-29 02:01:34.40	273.79	4.49	-48.0	-50.5	6.1	0.00e+00	0	34	104	23362273280	60	40948
2026-01-29 02:01:35.41	273.66	4.43	-48.1	-50.5	6.1	0.00e+00	0	34	104	23362273280	60	41157
2026-01-29 02:01:36.42	273.52	4.37	-48.0	-50.5	6.1	0.00e+00	0	34	104	23362273280	60	41154
2026-01-29 02:01:37.43	273.38	4.31	-47.9	-50.4	6.1	0.00e+00	0	34	104	23362273280	60	40468
2026-01-29 02:01:38.44	273.25	4.25	-48.0	-50.5	6.1	0.00e+00	0	33	104	23362273280	60	40960
2026-01-29 02:01:39.45	273.11	4.19	-48.0	-50.5	6.1	0.00e+00	0	34	104	23362273280	60	41062
2026-01-29 02:01:40.46	272.98	4.14	-48.0	-50.5	6.1	0.00e+00	0	34	104	23362273280	60	40835
2026-01-29 02:01:41.47	272.85	4.08	-47.8	-50.3	6.1	0.00e+00	0	34	104	23362273280	60	40138
2026-01-29 02:01:42.48	272.71	4.02	-47.9	-50.4	6.1	0.00e+00	0	34	104	23362273280	60	40495
2026-01-29 02:01:43.49	272.58	3.96	-48.0	-50.5	6.1	0.00e+00	0	34	104	23362273280	60	40912
2026-01-29 02:01:44.50	272.45	3.90	-47.9	-50.3	6.1	0.00e+00	0	34	104	23362273280	60	40299
2026-01-29 02:01:45.50	272.32	3.84	-47.8	-50.2	6.1	0.00e+00	0	34	104	23362273280	60	39838
2026-01-29 02:01:46.52	272.19	3.79	-47.9	-50.3	6.1	0.00e+00	0	34	104	23362273280	60	40291
2026-01-29 02:01:47.52	272.06	3.73	-47.9	-50.4	6.1	0.00e+00	0	34	104	23362273280	60	40630
2026-01-29 02:01:48.53	271.93	3.67	-47.8	-50.3	6.1	0.00e+00	0	34	104	23362273280	60	39881
2026-01-29 02:01:49.54	271.81	3.61	-47.7	-50.2	6.1	0.00e+00	0	34	104	23362273280	60	39472
2026-01-29 02:01:50.55	271.68	3.55	-47.8	-50.3	6.1	0.00e+00	0	34	104	23362273280	60	39903
2026-01-29 02:01:51.55	271.55	3.50	-47.9	-50.3	6.1	0.00e+00	0	34	104	23362273280	60	40080
2026-01-29 02:01:52.56	271.43	3.44	-47.7	-50.2	6.1	0.00e+00	0	34	104	23362273280	60	39553
2026-01-29 02:01:53.57	271.30	3.38	-47.6	-50.1	6.1	0.00e+00	0	34	104	23362273280	60	39319
2026-01-29 02:01:54.58	271.18	3.32	-47.7	-50.2	6.1	0.00e+00	0	34	104	23362273280	60	39795
2026-01-29 02:01:55.59	271.05	3.26	-47.8	-50.3	6.1	0.00e+00	0	34	104	23362273280	60	39959
2026-01-29 02:01:56.60	270.93	3.21	-47.6	-50.1	6.1	0.00e+00	0	34	104	23362273280	60	39378
2026-01-29 02:01:57.61	270.81	3.15	-47.5	-50.0	6.1	0.00e+00	0	34	104	23362273280	60	38635
2026-01-29 02:01:58.62	270.68	3.09	-47.7	-50.1	6.1	0.00e+00	0	34	104	23362273280	60	39312
2026-01-29 02:01:59.63	270.56	3.03	-47.8	-50.3	6.1	0.00e+00	0	34	104	23362273280	60	39918
2026-01-29 02:02:00.63	270.44	2.97	-48.1	-50.6	6.1	0.00e+00	0	34	104	23362273280	60	41404
2026-01-29 02:02:01.65	270.32	2.92	-48.6	-51.2	6.1	0.00e+00	0	34	104	23362273280	60	44225
2026-01-29 02:02:02.65	270.20	2.86	-48.8	-51.3	6.1	0.00e+00	0	34	104	23362273280	60	44953
2026-01-29 02:02:03.66	270.08	2.80	-49.0	-51.5	6.1	0.00e+00	0	34	104	23362273280	60	45841
2026-01-29 02:02:04.67	269.97	2.75	-49.1	-51.6	6.1	0.00e+00	0	34	104	23362273280	60	46552
2026-01-29 02:02:05.68	269.85	2.69	-49.1	-51.6	6.1	0.00e+00	0	34	104	23362273280	60	46586
2026-01-29 02:02:06.69	269.73	2.63	-49.2	-51.7	6.1	0.00e+00	0	34	104	23362273280	60	47083
2026-01-29 02:02:07.70	269.61	2.57	-49.2	-51.7	6.1	0.00e+00	0	34	104	23362273280	60	47139
2026-01-29 02:02:08.71	269.50	2.52	-49.2	-51.7	6.1	0.00e+00	0	34	104	23362273280	60	46940
2026-01-29 02:02:09.72	269.38	2.46	-49.2	-51.7	6.1	0.00e+00	0	34	104	23362273280	60	47257
2026-01-29 02:02:10.73	269.27	2.40	-49.2	-51.7	6.1	0.00e+00	0	34	104	23362273280	60	47204
2026-01-29 02:02:11.74	269.15	2.35	-49.2	-51.7	6.1	0.00e+00	0	34	104	23362273280	60	47040
2026-01-29 02:02:12.75	269.04	2.29	-49.2	-51.7	6.1	0.00e+00	0	34	104	23362273280	60	46953
2026-01-29 02:02:13.76	268.93	2.23	-49.2	-51.7	6.1	0.00e+00	0	34	104	23362273280	60	47148
2026-01-29 02:02:14.77	268.81	2.17	-49.1	-51.6	6.1	0.00e+00	0	34	104	23362273280	60	46596
2026-01-29 02:02:15.78	268.70	2.12	-49.0	-51.4	6.1	0.00e+00	0	34	104	23362273280	60	45527
2026-01-29 02:02:16.79	268.59	2.06	-48.8	-51.3	6.1	0.00e+00	0	34	104	23362273280	60	45162
2026-01-29 02:02:17.80	268.48	2.00	-49.0	-51.5	6.1	0.00e+00	0	34	104	23362273280	60	46007
2026-01-29 02:02:18.81	268.37	1.95	-49.0	-51.4	6.1	0.00e+00	0	34	104	23362273280	60	45739
2026-01-29 02:02:19.82	268.26	1.89	-49.1	-51.5	6.1	0.00e+00	0	34	104	23362273280	60	46265
2026-01-29 02:02:20.83	268.15	1.84	-49.0	-51.5	6.1	0.00e+00	0	34	104	23362273280	60	46102
2026-01-29 02:02:21.84	268.04	1.78	-48.9	-51.4	6.1	0.00e+00	0	34	104	23362273280	60	45640
2026-01-29 02:02:22.85	267.93	1.72	-49.0	-51.5	6.1	0.00e+00	0	34	104	23362273280	60	46287
2026-01-29 02:02:23.86	267.82	1.67	-49.0	-51.5	6.1	0.00e+00	0	34	104	23362273280	60	46065
2026-01-29 02:02:24.87	267.72	1.61	-48.7	-51.3	6.1	0.00e+00	0	34	104	23362273280	60	44981
2026-01-29 02:02:25.88	267.61	1.55	-49.1	-51.5	6.1	0.00e+00	0	34	104	23362273280	60	46205
2026-01-29 02:02:26.89	267.50	1.50	-49.1	-51.6	6.0	0.00e+00	0	34	104	23362273280	60	46312
2026-01-29 02:02:27.90	267.40	1.44	-49.1	-51.6	6.1	0.00e+00	0	34	104	23362273280	60	46383
2026-01-29 02:02:28.91	267.29	1.39	-49.1	-51.6	6.1	0.00e+00	0	34	104	23362273280	60	46557
2026-01-29 02:02:29.92	267.19	1.33	-49.1	-51.5	6.1	0.00e+00	0	34	104	23362273280	60	46137
2026-01-29 02:02:30.93	267.08	1.28	-49.1	-51.6	6.1	0.00e+00	0	34	104	23362273280	60	46447
2026-01-29 02:02:31.94	266.98	1.22	-49.1	-51.5	6.1	0.00e+00	0	34	104	23362273280	60	46289
2026-01-29 02:02:32.95	266.88	1.16	-49.1	-51.5	6.1	0.00e+00	0	34	104	23362273280	60	46294
2026-01-29 02:02:33.96	266.77	1.11	-49.1	-51.6	6.1	0.00e+00	0	34	104	23362273280	60	46398
2026-01-29 02:02:34.97	266.67	1.05	-49.1	-51.6	6.1	0.00e+00	0	34	104	23362273280	60	46527
2026-01-29 02:02:35.98	266.57	1.00	-49.1	-51.6	6.1	0.00e+00	0	34	104	23362273280	60	46448
2026-01-29 02:02:36.99	266.47	0.94	-49.1	-51.5	6.1	0.00e+00	0	34	104	23362273280	60	46295
2026-01-29 02:02:38.00	266.37	0.89	-49.1	-51.6	6.1	0.00e+00	0	34	104	23362273280	60	46376
2026-01-29 02:02:39.01	266.27	0.83	-49.1	-51.6	6.1	0.00e+00	0	34	104	23362273280	60	46386
2026-01-29 02:02:40.02	266.17	0.78	-49.1	-51.6	6.1	0.00e+00	0	34	104	23362273280	60	46525
2026-01-29 02:02:41.02	266.07	0.72	-49.1	-51.6	6.1	0.00e+00	0	34	104	23362273280	60	46395
2026-01-29 02:02:42.04	265.97	0.67	-49.1	-51.6	6.1	0.00e+00	0	34	104	23362273280	60	46365
2026-01-29 02:02:43.04	265.87	0.61	-49.1	-51.6	6.1	0.00e+00	0	34	104	23362273280	60	46532
2026-01-29 02:02:44.06	265.78	0.56	-49.1	-51.5	6.1	0.00e+00	0	34	104	23362273280	60	46281
2026-01-29 02:02:45.07	265.68	0.50	-49.1	-51.5	6.1	0.00e+00	0	34	104	23362273280	60	46246
2026-01-29 02:02:46.07	265.58	0.45	-49.1	-51.6	6.1	0.00e+00	0	34	104	23362273280	60	46443
2026-01-29 02:02:47.08	265.49	0.39	-49.1	-51.5	6.1	0.00e+00	0	34	104	23362273280	60	46054
2026-01-29 02:02:48.09	265.39	0.34	-49.1	-51.5	6.1	0.00e+00	0	34	104	23362273280	60	46290
2026-01-29 02:02:49.10	265.30	0.28	-49.1	-51.5	6.1	0.00e+00	0	34	104	23362273280	60	46291
2026-01-29 02:02:50.11	265.20	0.23	-49.1	-51.5	6.1	0.00e+00	0	34	104	23362273280	60	46182
2026-01-29 02:02:51.12	265.11	0.18	-49.1	-51.6	6.1	0.00e+00	0	34	104	23362273280	60	46370
2026-01-29 02:02:52.13	265.01	0.12	-49.1	-51.6	6.1	0.00e+00	0	34	104	23362273280	60	46347
2026-01-29 02:02:53.14	264.92	0.07	-49.1	-51.5	6.1	0.00e+00	0	34	104	23362273280	60	46083
2026-01-29 02:02:54.14	264.83	0.01	-49.1	-51.6	6.1	0.00e+00	0	34	104	23362273280	60	46303
2026-01-29 02:02:55.16	264.73	-0.04	-49.1	-51.5	6.1	0.00e+00	0	34	104	23362273280	60	46157

#Closed at: 2026-01-29 02:02:55
#Recorded file [23362 MB]: D:/lorett/data/35029_260129_135343.dat