passes_logs/2026/01/29/R4.6S_Anadyr/R4.6S_Anadyr__20260129_043257_AQUA_rec.log

#Pass ID: 20260129_043257_AQUA
#Satellite: AQUA
#Configuration: AQUA
#almurnet v.1.7.20251203
#Start time: 2026-01-29 04:32:58

#Version: 2.2.20231116
#Station: R4.6S_Anadyr
#Location: 177.4865 lon 64.73178 lat
#TLE: 1 27424U 02022A   26027.96263068  .00001625  00000+0  33481-3 0  9997
#TLE: 2 27424  98.4102 354.6095 0001839  63.4368   7.7786 14.61867353262782

#Time	Az	El	Level	Level2	SNR	BER	BlckErr	Temp	State	Recorded	gain1	gain2
2026-01-29 04:32:58.11	228.20	0.04	-48.6	-60.3	3.5	8.45e-01	0	30	0	0	60	37523
2026-01-29 04:32:59.12	228.30	0.09	-48.7	-67.0	3.5	3.03e+01	0	31	104	0	60	86419
2026-01-29 04:33:00.13	228.39	0.14	-49.2	-67.0	3.5	3.03e+01	0	31	104	0	60	86200
2026-01-29 04:33:01.14	228.49	0.19	-49.2	-67.1	3.5	3.03e+01	0	31	104	0	60	87190
2026-01-29 04:33:02.15	228.58	0.23	-49.3	-67.2	3.5	3.03e+01	0	31	104	0	60	87717
2026-01-29 04:33:03.16	228.68	0.28	-49.3	-67.2	3.5	3.03e+01	0	31	104	0	60	88237
2026-01-29 04:33:04.17	228.77	0.33	-49.0	-67.1	3.5	3.03e+01	0	31	104	0	60	87319
2026-01-29 04:33:05.18	228.87	0.38	-49.1	-67.0	3.5	3.03e+01	0	31	104	0	60	86452
2026-01-29 04:33:06.19	228.97	0.42	-49.0	-67.0	3.5	3.03e+01	0	31	104	0	60	85852
2026-01-29 04:33:07.20	229.06	0.47	-49.0	-67.0	3.5	3.03e+01	0	31	104	0	60	85724
2026-01-29 04:33:08.21	229.16	0.52	-49.0	-66.9	3.5	3.03e+01	0	31	104	0	60	85422
2026-01-29 04:33:09.22	229.26	0.57	-49.1	-67.0	3.5	3.03e+01	0	31	104	0	60	85925
2026-01-29 04:33:10.22	229.35	0.61	-49.0	-66.9	3.5	3.03e+01	0	31	104	0	60	85497
2026-01-29 04:33:11.24	229.45	0.66	-49.0	-66.9	3.5	3.03e+01	0	31	104	0	60	85446
2026-01-29 04:33:12.24	229.55	0.71	-49.0	-66.9	3.5	3.03e+01	0	31	104	0	60	85521
2026-01-29 04:33:13.26	229.65	0.76	-49.1	-67.0	3.5	3.03e+01	0	31	104	0	60	85703
2026-01-29 04:33:14.27	229.75	0.81	-49.0	-66.9	3.5	3.03e+01	0	31	104	0	60	84979
2026-01-29 04:33:15.28	229.85	0.85	-49.0	-66.9	3.5	3.03e+01	0	31	104	0	60	84737
2026-01-29 04:33:16.29	229.95	0.90	-49.0	-66.8	3.5	3.03e+01	0	31	104	0	60	84301
2026-01-29 04:33:17.30	230.05	0.95	-49.0	-66.8	3.5	3.03e+01	0	31	104	0	60	84272
2026-01-29 04:33:18.31	230.15	1.00	-48.7	-66.7	3.5	3.03e+01	0	31	104	0	60	83508
2026-01-29 04:33:19.32	230.25	1.05	-48.7	-66.6	3.5	3.03e+01	0	31	104	0	60	81810
2026-01-29 04:33:20.32	230.35	1.09	-47.9	-66.3	3.5	3.03e+01	0	31	104	0	60	79323
2026-01-29 04:33:21.34	230.45	1.14	-47.6	-66.0	3.5	3.03e+01	0	31	104	0	60	77187
2026-01-29 04:33:22.35	230.55	1.19	-46.1	-65.4	3.5	3.03e+01	0	31	104	0	60	71463
2026-01-29 04:33:23.36	230.66	1.24	-46.4	-64.5	3.5	3.03e+01	0	31	104	0	60	64448
2026-01-29 04:33:24.37	230.76	1.29	-46.2	-64.5	3.5	3.03e+01	0	31	104	0	60	64408
2026-01-29 04:33:25.38	230.86	1.33	-46.2	-64.4	3.5	3.03e+01	0	31	104	0	60	63737
2026-01-29 04:33:26.38	230.96	1.38	-46.2	-64.5	3.5	3.03e+01	0	31	104	0	60	64277
2026-01-29 04:33:27.40	231.07	1.43	-46.2	-64.4	3.5	3.03e+01	0	31	104	0	60	64044
2026-01-29 04:33:28.41	231.17	1.48	-46.2	-64.4	3.5	3.03e+01	0	31	104	0	60	64220
2026-01-29 04:33:29.42	231.27	1.53	-46.2	-64.4	3.5	3.03e+01	0	31	104	0	60	63990
2026-01-29 04:33:30.43	231.38	1.57	-46.2	-64.4	3.5	3.03e+01	0	31	104	0	60	64008
2026-01-29 04:33:31.44	231.48	1.62	-46.2	-64.4	3.5	3.03e+01	0	31	104	0	60	63833
2026-01-29 04:33:32.45	231.59	1.67	-46.2	-64.4	3.5	3.03e+01	0	31	104	0	60	64199
2026-01-29 04:33:33.46	231.70	1.72	-46.2	-64.4	3.5	3.03e+01	0	31	104	0	60	63760
2026-01-29 04:33:34.47	231.80	1.77	-46.2	-64.4	3.5	3.03e+01	0	31	104	0	60	63843
2026-01-29 04:33:35.48	231.91	1.82	-46.2	-64.4	3.5	3.03e+01	0	31	104	0	60	64116
2026-01-29 04:33:36.49	232.01	1.86	-46.2	-64.4	3.5	3.03e+01	0	31	104	0	60	64023
2026-01-29 04:33:37.50	232.12	1.91	-46.2	-64.4	3.5	3.03e+01	0	31	104	0	60	63903
2026-01-29 04:33:38.51	232.23	1.96	-46.2	-64.4	3.5	3.03e+01	0	31	104	0	60	63767
2026-01-29 04:33:39.52	232.34	2.01	-46.2	-64.4	3.5	3.03e+01	0	31	104	0	60	63776
2026-01-29 04:33:40.53	232.44	2.06	-46.2	-64.4	3.5	3.03e+01	0	31	104	0	60	63761
2026-01-29 04:33:41.54	232.55	2.11	-46.2	-64.4	3.5	3.03e+01	0	31	104	0	60	64237
2026-01-29 04:33:42.55	232.66	2.15	-46.2	-64.4	3.5	3.03e+01	0	31	104	0	60	63779
2026-01-29 04:33:43.56	232.77	2.20	-46.2	-64.4	3.5	3.03e+01	0	31	104	0	60	63691
2026-01-29 04:33:44.57	232.88	2.25	-46.2	-64.4	3.5	3.03e+01	0	31	104	0	60	63948
2026-01-29 04:33:45.58	232.99	2.30	-46.1	-64.3	3.5	3.03e+01	0	31	104	0	60	63481
2026-01-29 04:33:46.59	233.10	2.35	-46.2	-64.4	3.5	3.03e+01	0	31	104	0	60	63800
2026-01-29 04:33:47.60	233.21	2.40	-46.2	-64.4	3.5	3.03e+01	0	31	104	0	60	63699
2026-01-29 04:33:48.61	233.32	2.44	-46.2	-64.3	3.5	3.03e+01	0	31	104	0	60	63347
2026-01-29 04:33:49.62	233.43	2.49	-46.2	-64.4	3.5	3.03e+01	0	31	104	0	60	63860
2026-01-29 04:33:50.63	233.55	2.54	-46.2	-64.4	3.5	3.03e+01	0	31	104	0	60	63763
2026-01-29 04:33:51.64	233.66	2.59	-46.2	-64.4	3.5	3.03e+01	0	31	104	0	60	63510
2026-01-29 04:33:52.65	233.77	2.64	-46.2	-64.3	3.5	3.03e+01	0	31	104	0	60	63431
2026-01-29 04:33:53.66	233.89	2.69	-46.2	-64.3	3.5	3.03e+01	0	31	104	0	60	63159
2026-01-29 04:33:54.67	234.00	2.74	-46.2	-64.3	3.5	3.03e+01	0	31	104	0	60	63036
2026-01-29 04:33:55.68	234.11	2.78	-46.2	-64.3	3.5	3.03e+01	0	31	104	0	60	63087
2026-01-29 04:33:56.69	234.23	2.83	-46.1	-64.2	3.5	3.03e+01	0	32	104	0	60	62517
2026-01-29 04:33:57.70	234.34	2.88	-46.1	-64.1	3.5	3.03e+01	0	32	104	0	60	61781
2026-01-29 04:33:58.71	234.46	2.93	-46.2	-64.1	3.5	3.03e+01	0	31	104	0	60	61981
2026-01-29 04:33:59.72	234.57	2.98	-46.2	-64.1	3.5	3.03e+01	0	31	104	0	60	61957
2026-01-29 04:34:00.73	234.69	3.03	-46.2	-64.1	3.5	3.03e+01	0	32	104	0	60	61961
2026-01-29 04:34:01.73	234.80	3.08	-45.5	-64.5	3.5	3.03e+01	0	31	104	0	60	64598
2026-01-29 04:34:02.74	234.92	3.12	-45.5	-64.5	3.5	3.03e+01	0	32	104	0	60	64395
2026-01-29 04:34:03.75	235.04	3.17	-46.3	-64.3	3.5	3.03e+01	0	32	104	0	60	62795
2026-01-29 04:34:04.76	235.15	3.22	-46.0	-64.2	3.5	3.03e+01	0	32	104	0	60	62484
2026-01-29 04:34:05.77	235.27	3.27	-45.5	-64.1	3.5	3.03e+01	0	32	104	0	60	61489
2026-01-29 04:34:06.78	235.39	3.32	-45.0	-64.3	3.5	3.03e+01	0	32	104	0	60	63492
2026-01-29 04:34:07.79	235.51	3.37	-45.9	-64.4	3.5	3.03e+01	0	31	104	0	60	63991
2026-01-29 04:34:08.80	235.63	3.42	-45.0	-64.3	3.5	3.03e+01	0	32	104	0	60	63017
2026-01-29 04:34:09.81	235.75	3.46	-45.4	-64.0	3.5	3.03e+01	0	32	104	0	60	61069
2026-01-29 04:34:10.82	235.87	3.51	-46.1	-63.5	3.5	3.03e+01	0	32	104	0	60	57299
2026-01-29 04:34:11.83	235.99	3.56	-46.4	-63.4	3.5	3.03e+01	0	32	104	0	60	56842
2026-01-29 04:34:12.84	236.11	3.61	-46.9	-63.3	3.5	3.03e+01	0	32	104	0	60	56387
2026-01-29 04:34:13.85	236.23	3.66	-47.1	-62.9	3.6	3.03e+01	0	31	104	0	60	53754
2026-01-29 04:34:14.86	236.35	3.71	-47.0	-63.2	3.5	3.03e+01	0	31	104	0	60	55744
2026-01-29 04:34:15.87	236.47	3.76	-45.5	-64.5	3.5	3.03e+01	0	31	104	0	60	64399
2026-01-29 04:34:16.87	236.60	3.80	-46.5	-63.5	3.5	3.03e+01	0	32	104	0	60	57910
2026-01-29 04:34:17.89	236.72	3.85	-47.0	-64.7	3.5	3.03e+01	0	32	104	0	60	66091
2026-01-29 04:34:18.90	236.84	3.90	-46.7	-63.1	3.5	3.03e+01	0	32	104	0	60	55273
2026-01-29 04:34:19.90	236.97	3.95	-46.6	-62.8	3.7	3.03e+01	0	32	104	0	60	53369
2026-01-29 04:34:20.91	237.09	4.00	-46.4	-62.4	3.6	3.03e+01	0	32	104	0	60	50872
2026-01-29 04:34:21.93	237.22	4.05	-46.5	-62.3	3.9	3.03e+01	0	32	104	0	60	50089
2026-01-29 04:34:22.94	237.34	4.10	-46.3	-61.8	3.9	3.03e+01	0	32	104	0	60	47593
2026-01-29 04:34:23.95	237.47	4.14	-45.5	-64.1	3.5	3.03e+01	0	32	104	0	60	61755
2026-01-29 04:34:24.95	237.59	4.19	-46.4	-64.0	3.5	3.03e+01	0	32	104	0	60	60947
2026-01-29 04:34:25.97	237.72	4.24	-46.6	-63.5	3.5	3.03e+01	0	32	104	0	60	57588
2026-01-29 04:34:26.97	237.85	4.29	-46.6	-62.9	3.5	3.03e+01	0	32	104	0	60	53609
2026-01-29 04:34:27.98	237.97	4.34	-46.6	-62.6	3.8	3.03e+01	0	32	104	0	60	51830
2026-01-29 04:34:28.99	238.10	4.39	-46.3	-62.2	3.9	3.03e+01	0	32	104	0	60	49630
2026-01-29 04:34:30.00	238.23	4.43	-45.5	-61.0	4.4	3.03e+01	0	32	104	0	60	43277
2026-01-29 04:34:31.01	238.36	4.48	-46.3	-62.4	3.8	3.03e+01	0	32	104	0	60	50876
2026-01-29 04:34:32.02	238.49	4.53	-45.9	-63.0	3.5	3.03e+01	0	32	104	0	60	54626
2026-01-29 04:34:33.03	238.62	4.58	-46.5	-64.3	3.5	3.03e+01	0	32	104	0	60	63328
2026-01-29 04:34:34.04	238.75	4.63	-46.2	-56.2	8.5	3.03e+01	90	32	104	0	60	24778
2026-01-29 04:34:35.05	238.88	4.68	-46.1	-54.7	9.8	3.03e+01	92	32	0	1048576	60	20822
2026-01-29 04:34:36.06	239.01	4.73	-46.0	-54.2	10.0	3.03e+01	91	32	0	2621440	60	19786
2026-01-29 04:34:37.07	239.14	4.77	-46.0	-54.1	10.2	3.03e+01	91	32	0	4718592	60	19423
2026-01-29 04:34:38.08	239.27	4.82	-45.8	-53.4	11.1	3.03e+01	91	32	0	6291456	60	17943
2026-01-29 04:34:39.09	239.40	4.87	-45.7	-53.3	11.2	3.03e+01	90	32	0	8388608	60	17843
2026-01-29 04:34:40.10	239.54	4.92	-45.6	-53.1	11.5	3.03e+01	91	32	0	10485760	60	17339
2026-01-29 04:34:41.11	239.67	4.97	-45.5	-52.3	12.4	3.03e+01	90	32	0	12058624	60	15879
2026-01-29 04:34:42.12	239.80	5.02	-45.7	-52.2	12.7	3.03e+01	91	32	0	14155776	60	15613
2026-01-29 04:34:43.13	239.94	5.06	-45.4	-51.5	13.3	3.03e+01	91	32	0	16252928	60	14404
2026-01-29 04:34:44.14	240.07	5.11	-45.0	-51.0	13.7	3.03e+01	90	32	0	17825792	60	13672
2026-01-29 04:34:45.15	240.21	5.16	-44.7	-50.8	13.9	3.03e+01	90	32	0	19922944	60	13376
2026-01-29 04:34:46.16	240.34	5.21	-44.6	-50.3	14.6	3.03e+01	91	32	0	21495808	60	12536
2026-01-29 04:34:47.17	240.48	5.26	-44.5	-49.9	15.0	3.03e+01	91	32	0	23592960	60	11962
2026-01-29 04:34:48.17	240.61	5.30	-44.7	-50.0	14.9	3.03e+01	91	32	0	25165824	60	12131
2026-01-29 04:34:49.18	240.75	5.35	-44.4	-49.0	15.9	3.03e+01	92	32	0	27262976	60	10803
2026-01-29 04:34:50.19	240.89	5.40	-44.4	-48.7	16.3	3.03e+01	92	31	0	29360128	60	10476
2026-01-29 04:34:51.20	241.03	5.45	-44.3	-48.7	16.4	3.03e+01	92	32	0	30932992	60	10422
2026-01-29 04:34:52.21	241.16	5.50	-44.0	-48.3	16.6	3.03e+01	92	32	0	33030144	60	9997
2026-01-29 04:34:53.22	241.30	5.54	-43.8	-47.7	17.3	3.03e+01	90	32	0	34603008	60	9344
2026-01-29 04:34:54.23	241.44	5.59	-44.1	-48.0	17.1	3.03e+01	92	32	0	36700160	60	9691
2026-01-29 04:34:55.24	241.58	5.64	-43.7	-47.2	17.9	3.03e+01	90	32	0	38797312	60	8781
2026-01-29 04:34:56.24	241.72	5.69	-43.6	-46.7	18.4	3.03e+01	92	32	0	40370176	60	8351
2026-01-29 04:34:57.25	241.86	5.73	-43.2	-46.1	19.1	3.03e+01	90	32	0	42467328	60	7760
2026-01-29 04:34:58.26	242.00	5.78	-43.1	-46.0	19.2	3.03e+01	92	32	0	44564480	60	7647
2026-01-29 04:34:59.28	242.15	5.83	-42.6	-45.3	19.9	3.03e+01	90	32	0	46137344	60	7069
2026-01-29 04:35:00.29	242.29	5.88	-42.4	-45.1	20.1	3.03e+01	92	32	0	48234496	60	6910
2026-01-29 04:35:01.29	242.43	5.93	-42.2	-44.7	20.4	3.03e+01	90	32	0	49807360	60	6640
2026-01-29 04:35:02.30	242.57	5.97	-42.2	-44.8	20.4	3.03e+01	92	31	0	51904512	60	6666
2026-01-29 04:35:03.31	242.72	6.02	-41.9	-44.4	20.9	3.03e+01	92	32	0	54001664	60	6369
2026-01-29 04:35:04.32	242.86	6.07	-41.7	-44.2	20.9	3.03e+01	92	32	0	55574528	58	6980
2026-01-29 04:35:05.33	243.01	6.12	-41.9	-44.2	20.9	3.03e+01	92	32	0	57671680	58	7022
2026-01-29 04:35:06.34	243.15	6.16	-41.4	-43.5	21.7	3.03e+01	92	32	0	59768832	58	6477
2026-01-29 04:35:07.34	243.30	6.21	-41.3	-43.4	21.7	3.03e+01	92	32	0	61341696	58	6411
2026-01-29 04:35:08.36	243.44	6.26	-41.1	-43.2	21.9	3.03e+01	90	32	0	63438848	58	6239
2026-01-29 04:35:09.36	243.59	6.30	-41.0	-43.0	22.2	3.03e+01	90	32	0	65011712	56	6842
2026-01-29 04:35:10.37	243.74	6.35	-40.7	-42.7	22.5	3.03e+01	90	31	0	67108864	56	6595
2026-01-29 04:35:11.39	243.89	6.40	-40.7	-42.6	22.7	3.03e+01	92	32	0	69206016	56	6535
2026-01-29 04:35:12.39	244.03	6.45	-40.3	-42.1	23.1	3.03e+01	90	31	0	70778880	56	6169
2026-01-29 04:35:13.40	244.18	6.49	-40.1	-42.0	23.3	3.03e+01	91	31	0	72876032	56	6078
2026-01-29 04:35:14.41	244.33	6.54	-39.9	-41.6	23.5	3.03e+01	90	31	0	74448896	54	6570
2026-01-29 04:35:15.42	244.48	6.59	-39.9	-41.7	23.5	3.03e+01	91	32	0	76546048	54	6604
2026-01-29 04:35:16.43	244.63	6.63	-39.8	-41.5	23.6	3.03e+01	91	31	0	78643200	54	6478
2026-01-29 04:35:17.44	244.78	6.68	-39.6	-41.3	23.9	3.03e+01	90	32	0	80216064	54	6330
2026-01-29 04:35:18.45	244.93	6.73	-39.4	-41.1	24.1	3.03e+01	92	31	0	82313216	54	6150
2026-01-29 04:35:19.46	245.08	6.77	-39.3	-40.9	24.2	3.03e+01	92	31	0	83886080	54	6058
2026-01-29 04:35:20.47	245.24	6.82	-39.2	-40.9	24.3	3.03e+01	92	32	0	85983232	54	6015
2026-01-29 04:35:21.48	245.39	6.87	-39.2	-40.8	24.4	3.03e+01	92	32	0	88080384	54	5987
2026-01-29 04:35:22.49	245.54	6.91	-39.0	-40.6	24.6	3.03e+01	90	32	0	89653248	54	5853
2026-01-29 04:35:23.50	245.70	6.96	-38.7	-40.3	25.0	3.03e+01	92	31	0	91750400	52	6300
2026-01-29 04:35:24.51	245.85	7.01	-38.7	-40.2	25.1	3.03e+01	91	32	0	93323264	52	6248
2026-01-29 04:35:25.52	246.01	7.05	-38.9	-40.5	24.9	3.03e+01	91	32	0	95420416	52	6443
2026-01-29 04:35:26.53	246.16	7.10	-38.7	-40.2	25.1	3.03e+01	90	31	0	97517568	52	6271
2026-01-29 04:35:27.53	246.32	7.14	-38.2	-39.7	25.6	3.03e+01	92	31	0	99090432	52	5903
2026-01-29 04:35:28.55	246.47	7.19	-37.9	-39.4	25.9	3.03e+01	91	32	0	101187584	50	6367
2026-01-29 04:35:29.55	246.63	7.24	-38.0	-39.5	25.7	3.03e+01	91	31	0	102760448	50	6465
2026-01-29 04:35:30.56	246.79	7.28	-38.1	-39.6	25.7	3.03e+01	91	32	0	104857600	50	6527
2026-01-29 04:35:31.57	246.94	7.33	-37.7	-39.1	26.2	3.03e+01	92	31	0	106954752	50	6196
2026-01-29 04:35:32.58	247.10	7.37	-37.5	-38.9	26.3	3.03e+01	92	31	0	108527616	50	6042
2026-01-29 04:35:33.59	247.26	7.42	-37.5	-38.9	26.3	3.03e+01	92	31	0	110624768	50	6061
2026-01-29 04:35:34.60	247.42	7.47	-37.5	-38.9	26.4	3.03e+01	89	32	0	112721920	50	6008
2026-01-29 04:35:35.61	247.58	7.51	-37.3	-38.7	26.6	3.03e+01	92	32	0	114294784	50	5913
2026-01-29 04:35:36.62	247.74	7.56	-37.3	-38.7	26.6	3.03e+01	92	31	0	116391936	50	5859
2026-01-29 04:35:37.63	247.90	7.60	-37.2	-38.6	26.8	3.03e+01	92	31	0	117964800	50	5803
2026-01-29 04:35:38.64	248.06	7.65	-37.4	-38.7	26.6	3.03e+01	92	31	0	120061952	50	5923
2026-01-29 04:35:39.65	248.23	7.69	-37.3	-38.7	26.7	3.03e+01	91	32	0	122159104	50	5896
2026-01-29 04:35:40.65	248.39	7.74	-37.3	-38.7	26.7	3.03e+01	91	31	0	123731968	50	5874
2026-01-29 04:35:41.67	248.55	7.78	-36.9	-38.2	27.1	3.03e+01	91	31	0	125829120	48	6240
2026-01-29 04:35:42.68	248.72	7.83	-36.8	-38.1	27.2	3.03e+01	92	31	0	127926272	48	6203
2026-01-29 04:35:43.69	248.88	7.87	-36.7	-38.0	27.2	3.03e+01	90	31	0	129499136	48	6131
2026-01-29 04:35:44.69	249.04	7.91	-36.8	-38.1	27.2	3.03e+01	91	31	0	131596288	48	6169
2026-01-29 04:35:45.70	249.21	7.96	-36.7	-38.0	27.3	3.03e+01	91	31	0	133169152	48	6105
2026-01-29 04:35:46.71	249.38	8.00	-36.7	-38.1	27.3	3.03e+01	90	31	0	135266304	48	6140
2026-01-29 04:35:47.72	249.54	8.05	-36.8	-38.1	27.2	3.03e+01	92	31	0	136839168	48	6188
2026-01-29 04:35:48.73	249.71	8.09	-36.9	-38.2	27.1	3.03e+01	90	32	0	138936320	48	6253
2026-01-29 04:35:49.74	249.88	8.14	-36.5	-37.9	27.4	3.03e+01	91	31	0	141033472	48	5998
2026-01-29 04:35:50.75	250.04	8.18	-36.4	-37.7	27.6	3.03e+01	92	31	0	142606336	48	5923
2026-01-29 04:35:51.76	250.21	8.22	-36.4	-37.7	27.6	3.03e+01	91	32	0	144703488	48	5871
2026-01-29 04:35:52.77	250.38	8.27	-36.6	-38.0	27.4	3.03e+01	92	31	0	146276352	48	6067
2026-01-29 04:35:53.78	250.55	8.31	-36.6	-38.0	27.3	3.03e+01	91	31	0	148373504	48	6071
2026-01-29 04:35:54.79	250.72	8.35	-36.6	-37.9	27.5	3.03e+01	91	31	0	150470656	48	6019
2026-01-29 04:35:55.79	250.89	8.40	-36.6	-37.9	27.5	3.03e+01	91	31	0	152043520	48	6006
2026-01-29 04:35:56.80	251.06	8.44	-36.6	-38.0	27.4	3.03e+01	90	31	0	154140672	48	6067
2026-01-29 04:35:57.81	251.23	8.48	-36.4	-37.7	27.7	3.03e+01	91	31	0	156237824	48	5913
2026-01-29 04:35:58.82	251.41	8.53	-36.6	-37.9	27.5	3.03e+01	92	31	0	157810688	48	6040
2026-01-29 04:35:59.83	251.58	8.57	-36.6	-37.9	27.4	3.03e+01	92	31	0	159907840	48	6048
2026-01-29 04:36:00.84	251.75	8.61	-36.6	-37.9	27.4	3.03e+01	90	31	0	161480704	48	6047
2026-01-29 04:36:01.85	251.93	8.65	-36.5	-37.9	27.4	3.03e+01	90	31	0	163577856	48	6016
2026-01-29 04:36:02.86	252.10	8.70	-36.5	-37.8	27.5	3.03e+01	92	31	0	165675008	48	5936
2026-01-29 04:36:03.87	252.27	8.74	-36.4	-37.7	27.6	3.03e+01	92	31	0	167247872	48	5860
2026-01-29 04:36:04.88	252.45	8.78	-36.5	-37.8	27.6	3.03e+01	90	31	0	169345024	48	5950
2026-01-29 04:36:05.89	252.63	8.82	-36.3	-37.6	27.7	3.03e+01	92	31	0	170917888	48	5831
2026-01-29 04:36:06.89	252.80	8.86	-36.4	-37.7	27.6	3.03e+01	91	31	0	173015040	48	5876
2026-01-29 04:36:07.90	252.98	8.91	-36.3	-37.6	27.7	3.03e+01	92	31	0	175112192	48	5826
2026-01-29 04:36:08.91	253.16	8.95	-36.3	-37.6	27.7	3.03e+01	90	31	0	176685056	48	5823
2026-01-29 04:36:09.92	253.33	8.99	-36.3	-37.6	27.8	3.03e+01	92	31	0	178782208	48	5853
2026-01-29 04:36:10.93	253.51	9.03	-36.3	-37.5	27.8	3.03e+01	92	31	0	180879360	48	5784
2026-01-29 04:36:11.94	253.69	9.07	-36.6	-37.9	27.6	3.03e+01	91	31	0	182452224	48	6048
2026-01-29 04:36:12.95	253.87	9.11	-36.6	-37.9	27.4	3.03e+01	91	31	0	184549376	48	6041
2026-01-29 04:36:13.96	254.05	9.15	-36.6	-37.9	27.5	3.03e+01	90	32	0	186122240	48	6016
2026-01-29 04:36:14.97	254.23	9.19	-36.3	-37.6	27.7	3.03e+01	91	31	0	188219392	48	5854
2026-01-29 04:36:15.98	254.41	9.23	-36.5	-37.8	27.6	3.03e+01	92	31	0	190316544	48	5942
2026-01-29 04:36:16.99	254.59	9.28	-36.3	-37.6	27.7	3.03e+01	91	31	0	191889408	48	5831
2026-01-29 04:36:18.00	254.78	9.32	-36.3	-37.6	27.8	3.03e+01	93	32	0	193986560	48	5799
2026-01-29 04:36:19.01	254.96	9.36	-36.2	-37.5	27.8	3.03e+01	92	31	0	195559424	48	5788
2026-01-29 04:36:20.02	255.14	9.40	-36.0	-37.3	28.0	3.03e+01	92	32	0	197656576	48	5646
2026-01-29 04:36:21.03	255.33	9.43	-36.1	-37.4	28.0	3.03e+01	92	32	0	199753728	48	5702
2026-01-29 04:36:22.04	255.51	9.47	-36.1	-37.3	27.9	3.03e+01	92	32	0	201326592	48	5654
2026-01-29 04:36:23.05	255.70	9.51	-36.1	-37.4	27.9	3.03e+01	92	31	0	203423744	48	5687
2026-01-29 04:36:24.05	255.88	9.55	-36.1	-37.4	28.0	3.03e+01	92	31	0	204996608	48	5681
2026-01-29 04:36:25.06	256.07	9.59	-36.3	-37.6	27.8	3.03e+01	92	31	0	207093760	48	5800
2026-01-29 04:36:26.07	256.25	9.63	-36.2	-37.5	27.9	3.03e+01	92	32	0	209190912	48	5734
2026-01-29 04:36:27.08	256.44	9.67	-36.3	-37.6	27.8	3.03e+01	92	32	0	210763776	48	5818
2026-01-29 04:36:28.09	256.63	9.71	-36.2	-37.5	27.9	3.03e+01	89	31	0	212860928	48	5778
2026-01-29 04:36:29.10	256.81	9.74	-36.1	-37.4	28.0	3.03e+01	92	32	0	214433792	48	5705
2026-01-29 04:36:30.11	257.00	9.78	-36.1	-37.4	28.0	3.03e+01	92	32	0	216530944	48	5661
2026-01-29 04:36:31.12	257.19	9.82	-36.0	-37.3	28.1	3.03e+01	92	31	0	218628096	46	6298
2026-01-29 04:36:32.13	257.38	9.86	-36.2	-37.4	28.0	3.03e+01	90	32	0	220200960	46	6420
2026-01-29 04:36:33.14	257.57	9.90	-36.2	-37.5	28.0	3.03e+01	92	32	0	222298112	46	6443
2026-01-29 04:36:34.15	257.76	9.93	-36.2	-37.4	28.0	3.03e+01	92	32	0	224395264	46	6413
2026-01-29 04:36:35.16	257.95	9.97	-36.2	-37.5	27.9	3.03e+01	91	32	0	225968128	46	6477
2026-01-29 04:36:36.16	258.14	10.01	-36.0	-37.3	28.1	3.03e+01	90	31	0	228065280	46	6294
2026-01-29 04:36:37.17	258.34	10.04	-35.8	-37.1	28.4	3.03e+01	92	31	0	229638144	46	6139
2026-01-29 04:36:38.18	258.53	10.08	-36.1	-37.3	28.1	3.03e+01	92	32	0	231735296	46	6339
2026-01-29 04:36:39.19	258.72	10.12	-36.2	-37.5	27.9	3.03e+01	92	32	0	233832448	46	6477
2026-01-29 04:36:40.20	258.91	10.15	-36.1	-37.4	28.1	3.03e+01	92	32	0	235405312	46	6367
2026-01-29 04:36:41.21	259.11	10.19	-35.9	-37.1	28.2	3.03e+01	90	32	0	237502464	46	6194
2026-01-29 04:36:42.22	259.30	10.22	-35.9	-37.1	28.3	3.03e+01	92	32	0	239075328	46	6175
2026-01-29 04:36:43.23	259.50	10.26	-35.8	-37.1	28.4	3.03e+01	92	32	0	241172480	46	6168
2026-01-29 04:36:44.24	259.69	10.29	-36.0	-37.3	28.2	3.03e+01	92	32	0	243269632	46	6315
2026-01-29 04:36:45.24	259.89	10.33	-36.0	-37.2	28.2	3.03e+01	92	31	0	244842496	46	6271
2026-01-29 04:36:46.25	260.08	10.36	-35.8	-37.1	28.4	3.03e+01	90	31	0	246939648	46	6148
2026-01-29 04:36:47.27	260.28	10.40	-35.8	-37.0	28.5	3.03e+01	92	31	0	248512512	46	6101
2026-01-29 04:36:48.28	260.48	10.43	-35.8	-37.0	28.4	3.03e+01	90	31	0	250609664	46	6113
2026-01-29 04:36:49.29	260.68	10.46	-36.0	-37.2	28.2	3.03e+01	92	32	0	252706816	46	6265
2026-01-29 04:36:50.29	260.87	10.50	-35.9	-37.2	28.3	3.03e+01	90	32	0	254279680	46	6236
2026-01-29 04:36:51.30	261.07	10.53	-35.8	-37.0	28.4	3.03e+01	92	32	0	256376832	46	6124
2026-01-29 04:36:52.31	261.27	10.57	-35.8	-37.0	28.4	3.03e+01	90	32	0	257949696	46	6123
2026-01-29 04:36:53.32	261.47	10.60	-35.8	-37.1	28.5	3.03e+01	92	31	0	260046848	46	6136
2026-01-29 04:36:54.33	261.67	10.63	-35.9	-37.2	28.3	3.03e+01	92	31	0	262144000	46	6226
2026-01-29 04:36:55.34	261.87	10.66	-36.1	-37.4	28.1	3.03e+01	92	31	0	263716864	46	6377
2026-01-29 04:36:56.35	262.08	10.70	-35.8	-37.1	28.4	3.03e+01	92	31	0	265814016	46	6162
2026-01-29 04:36:57.36	262.28	10.73	-36.0	-37.3	28.2	3.03e+01	92	31	0	267386880	46	6313
2026-01-29 04:36:58.37	262.48	10.76	-35.8	-37.0	28.5	3.03e+01	92	31	0	269484032	46	6105
2026-01-29 04:36:59.38	262.68	10.79	-35.7	-36.9	28.5	3.03e+01	92	32	0	271581184	46	6047
2026-01-29 04:37:00.39	262.88	10.82	-35.7	-37.0	28.5	3.03e+01	90	31	0	273154048	46	6072
2026-01-29 04:37:01.39	263.09	10.85	-35.7	-36.9	28.5	3.03e+01	90	31	0	275251200	46	6047
2026-01-29 04:37:02.40	263.29	10.88	-35.8	-37.0	28.4	3.03e+01	92	31	0	277348352	46	6114
2026-01-29 04:37:03.41	263.49	10.91	-35.7	-37.0	28.5	3.03e+01	92	31	0	278921216	46	6104
2026-01-29 04:37:04.42	263.70	10.94	-35.7	-36.9	28.6	3.03e+01	92	31	0	281018368	46	6028
2026-01-29 04:37:05.43	263.90	10.97	-35.7	-37.0	28.5	3.03e+01	91	31	0	282591232	46	6097
2026-01-29 04:37:06.44	264.11	11.00	-35.6	-36.9	28.6	3.03e+01	92	32	0	284688384	46	5996
2026-01-29 04:37:07.45	264.32	11.03	-35.6	-36.9	28.6	3.03e+01	87	32	0	286785536	46	6004
2026-01-29 04:37:08.46	264.52	11.06	-35.8	-37.1	28.2	3.03e+01	90	31	0	288358400	46	6137
2026-01-29 04:37:09.47	264.73	11.09	-35.7	-36.9	28.4	3.03e+01	92	32	0	290455552	46	6030
2026-01-29 04:37:10.48	264.94	11.12	-35.8	-37.0	28.6	3.03e+01	88	32	0	292552704	46	6099
2026-01-29 04:37:11.49	265.15	11.15	-35.7	-37.0	28.6	3.03e+01	92	32	0	294125568	46	6069
2026-01-29 04:37:12.49	265.35	11.17	-35.6	-36.9	28.6	3.03e+01	90	31	0	296222720	46	6010
2026-01-29 04:37:13.51	265.56	11.20	-35.6	-36.9	28.6	3.03e+01	92	32	0	297795584	46	6002
2026-01-29 04:37:14.52	265.77	11.23	-35.6	-36.8	28.6	3.03e+01	90	32	0	299892736	46	5976
2026-01-29 04:37:15.52	265.98	11.26	-35.6	-36.8	28.7	3.03e+01	92	32	0	301989888	46	5951
2026-01-29 04:37:16.53	266.19	11.28	-35.6	-36.8	28.7	3.03e+01	91	32	0	303562752	46	5966
2026-01-29 04:37:17.54	266.40	11.31	-35.7	-36.9	28.6	3.03e+01	92	32	0	305659904	46	6033
2026-01-29 04:37:18.55	266.61	11.34	-35.6	-36.8	28.7	3.03e+01	90	32	0	307232768	46	5964
2026-01-29 04:37:19.56	266.82	11.36	-35.6	-36.8	28.6	3.03e+01	92	31	0	309329920	46	5985
2026-01-29 04:37:20.57	267.03	11.39	-35.4	-36.6	28.8	3.03e+01	92	32	0	310902784	46	5848
2026-01-29 04:37:21.58	267.24	11.41	-35.4	-36.6	28.8	3.03e+01	91	32	0	312999936	46	5856
2026-01-29 04:37:22.58	267.45	11.44	-35.5	-36.7	28.7	3.03e+01	91	32	0	315097088	46	5907
2026-01-29 04:37:23.59	267.67	11.46	-35.5	-36.7	28.8	3.03e+01	92	32	0	316669952	46	5923
2026-01-29 04:37:24.61	267.88	11.49	-35.7	-36.9	28.6	3.03e+01	92	32	0	318767104	46	6023
2026-01-29 04:37:25.61	268.09	11.51	-35.9	-37.1	28.4	3.03e+01	92	32	0	320864256	46	6187
2026-01-29 04:37:26.62	268.31	11.54	-35.6	-36.8	28.6	3.03e+01	85	32	0	322437120	46	5984
2026-01-29 04:37:27.63	268.52	11.56	-35.5	-36.7	28.7	3.03e+01	91	32	0	324534272	46	5921
2026-01-29 04:37:28.64	268.73	11.58	-35.7	-36.9	28.6	3.03e+01	92	31	0	326107136	46	6037
2026-01-29 04:37:29.65	268.95	11.60	-35.5	-36.7	28.8	3.03e+01	89	31	0	328204288	46	5899
2026-01-29 04:37:30.66	269.16	11.63	-35.4	-36.6	28.9	3.03e+01	92	31	0	330301440	46	5823
2026-01-29 04:37:31.67	269.38	11.65	-35.6	-36.8	28.7	3.03e+01	90	32	0	331874304	46	5984
2026-01-29 04:37:32.68	269.59	11.67	-35.6	-36.8	28.6	3.03e+01	92	31	0	333971456	46	5985
2026-01-29 04:37:33.70	269.81	11.69	-35.5	-36.8	28.7	3.03e+01	91	32	0	335544320	46	5941
2026-01-29 04:37:34.70	270.03	11.71	-35.5	-36.7	28.7	3.03e+01	91	32	0	337641472	46	5891
2026-01-29 04:37:35.71	270.24	11.73	-35.5	-36.7	28.7	3.03e+01	92	32	0	339738624	46	5910
2026-01-29 04:37:36.72	270.46	11.76	-35.6	-36.8	28.7	3.03e+01	92	31	0	341311488	46	5975
2026-01-29 04:37:37.73	270.68	11.78	-35.6	-36.8	28.7	3.03e+01	92	32	0	343408640	46	5962
2026-01-29 04:37:38.74	270.90	11.80	-35.5	-36.7	28.8	3.03e+01	92	32	0	345505792	46	5926
2026-01-29 04:37:39.75	271.11	11.81	-35.4	-36.7	28.9	3.03e+01	92	31	0	347078656	46	5872
2026-01-29 04:37:40.76	271.33	11.83	-35.6	-36.8	28.8	3.03e+01	92	31	0	349175808	46	5939
2026-01-29 04:37:41.77	271.55	11.85	-35.3	-36.5	28.9	3.03e+01	92	31	0	350748672	46	5781
2026-01-29 04:37:42.78	271.77	11.87	-35.5	-36.7	28.8	3.03e+01	92	31	0	352845824	46	5896
2026-01-29 04:37:43.78	271.99	11.89	-35.5	-36.7	28.8	3.03e+01	92	31	0	354942976	46	5901
2026-01-29 04:37:44.79	272.21	11.91	-35.4	-36.6	28.7	3.03e+01	92	32	0	356515840	46	5847
2026-01-29 04:37:45.80	272.42	11.92	-35.4	-36.7	28.9	3.03e+01	92	32	0	358612992	46	5885
2026-01-29 04:37:46.81	272.64	11.94	-35.4	-36.7	28.9	3.03e+01	92	31	0	360185856	46	5876
2026-01-29 04:37:47.82	272.87	11.96	-35.3	-36.6	28.9	3.03e+01	92	31	0	362283008	46	5801
2026-01-29 04:37:48.83	273.09	11.98	-35.3	-36.5	28.9	3.03e+01	84	31	0	364380160	46	5772
2026-01-29 04:37:49.83	273.30	11.99	-35.5	-36.8	28.7	3.03e+01	91	32	0	365953024	46	5942
2026-01-29 04:37:50.85	273.53	12.01	-35.5	-36.7	28.8	3.03e+01	90	32	0	368050176	46	5893
2026-01-29 04:37:51.85	273.75	12.02	-35.5	-36.7	28.8	3.03e+01	90	31	0	369623040	46	5909
2026-01-29 04:37:52.86	273.97	12.04	-35.5	-36.8	28.8	3.03e+01	92	31	0	371720192	46	5935
2026-01-29 04:37:53.87	274.19	12.05	-35.5	-36.7	28.8	3.03e+01	90	31	0	373817344	46	5898
2026-01-29 04:37:54.88	274.41	12.07	-35.4	-36.6	28.8	3.03e+01	92	31	0	375390208	46	5854
2026-01-29 04:37:55.89	274.63	12.08	-35.3	-36.6	28.9	3.03e+01	90	31	0	377487360	46	5811
2026-01-29 04:37:56.90	274.85	12.09	-35.3	-36.6	29.0	3.03e+01	92	31	0	379060224	46	5802
2026-01-29 04:37:57.91	275.08	12.11	-35.3	-36.5	28.9	3.03e+01	92	32	0	381157376	46	5770
2026-01-29 04:37:58.92	275.30	12.12	-35.3	-36.6	28.8	3.03e+01	90	32	0	383254528	46	5809
2026-01-29 04:37:59.93	275.52	12.13	-35.4	-36.6	28.9	3.03e+01	92	31	0	384827392	46	5830
2026-01-29 04:38:00.93	275.74	12.14	-35.4	-36.7	28.9	3.03e+01	92	31	0	386924544	46	5864
2026-01-29 04:38:01.95	275.97	12.16	-35.4	-36.6	28.9	3.03e+01	90	31	0	389021696	46	5856
2026-01-29 04:38:02.95	276.19	12.17	-35.4	-36.6	28.9	3.03e+01	91	32	0	390594560	46	5836
2026-01-29 04:38:03.96	276.41	12.18	-35.4	-36.6	28.9	3.03e+01	89	31	0	392691712	46	5806
2026-01-29 04:38:04.97	276.64	12.19	-35.4	-36.6	28.9	3.03e+01	92	32	0	394264576	46	5832
2026-01-29 04:38:05.98	276.86	12.20	-35.4	-36.7	28.8	3.03e+01	88	31	0	396361728	46	5878
2026-01-29 04:38:06.99	277.09	12.21	-35.3	-36.5	29.0	3.03e+01	92	31	0	398458880	46	5787
2026-01-29 04:38:08.00	277.31	12.22	-35.4	-36.7	28.8	3.03e+01	87	31	0	400031744	46	5882
2026-01-29 04:38:09.01	277.53	12.23	-35.2	-36.4	29.0	3.03e+01	92	31	0	402128896	46	5707
2026-01-29 04:38:10.02	277.76	12.24	-35.3	-36.6	28.9	3.03e+01	91	31	0	403701760	46	5811
2026-01-29 04:38:11.03	277.98	12.25	-35.4	-36.6	28.9	3.03e+01	91	31	0	405798912	46	5848
2026-01-29 04:38:12.04	278.21	12.25	-35.4	-36.7	28.8	3.03e+01	92	31	0	407896064	46	5871
2026-01-29 04:38:13.05	278.43	12.26	-35.3	-36.6	29.0	3.03e+01	92	31	0	409468928	46	5802
2026-01-29 04:38:14.06	278.66	12.27	-35.5	-36.7	28.9	3.03e+01	92	31	0	411566080	46	5900
2026-01-29 04:38:15.07	278.88	12.28	-35.4	-36.6	28.9	3.03e+01	90	32	0	413663232	46	5849
2026-01-29 04:38:16.08	279.11	12.28	-35.4	-36.6	28.9	3.03e+01	90	31	0	415236096	46	5855
2026-01-29 04:38:17.09	279.33	12.29	-35.4	-36.6	28.8	3.03e+01	92	32	0	417333248	46	5842
2026-01-29 04:38:18.10	279.56	12.29	-35.5	-36.7	28.9	3.03e+01	90	32	0	418906112	46	5885
2026-01-29 04:38:19.11	279.78	12.30	-35.3	-36.6	29.0	3.03e+01	91	32	0	421003264	46	5806
2026-01-29 04:38:20.12	280.01	12.30	-35.3	-36.5	29.0	3.03e+01	92	31	0	422576128	46	5741
2026-01-29 04:38:21.12	280.23	12.31	-35.3	-36.5	29.0	3.03e+01	92	31	0	424673280	46	5744
2026-01-29 04:38:22.13	280.46	12.31	-35.4	-36.7	28.9	3.03e+01	92	31	0	426770432	46	5868
2026-01-29 04:38:23.14	280.68	12.32	-35.4	-36.6	28.9	3.03e+01	91	31	0	428343296	46	5837
2026-01-29 04:38:24.15	280.91	12.32	-35.5	-36.7	28.8	3.03e+01	91	32	0	430440448	46	5878
2026-01-29 04:38:25.16	281.14	12.32	-35.2	-36.4	29.1	3.03e+01	90	31	0	432013312	46	5693
2026-01-29 04:38:26.17	281.36	12.33	-35.2	-36.4	29.1	3.03e+01	92	31	0	434110464	46	5710
2026-01-29 04:38:27.18	281.59	12.33	-35.3	-36.6	29.0	3.03e+01	88	31	0	436207616	46	5807
2026-01-29 04:38:28.19	281.81	12.33	-35.2	-36.4	29.1	3.03e+01	92	32	0	437780480	46	5719
2026-01-29 04:38:29.20	282.04	12.33	-35.3	-36.5	29.1	3.03e+01	92	31	0	439877632	46	5762
2026-01-29 04:38:30.20	282.26	12.33	-35.3	-36.6	29.0	3.03e+01	86	32	0	441974784	46	5797
2026-01-29 04:38:31.21	282.49	12.34	-35.2	-36.4	29.0	3.03e+01	92	32	0	443547648	46	5693
2026-01-29 04:38:32.22	282.72	12.34	-35.3	-36.6	28.9	3.03e+01	92	32	0	445644800	46	5805
2026-01-29 04:38:33.23	282.94	12.34	-35.4	-36.6	28.9	3.03e+01	92	32	0	447217664	46	5814
2026-01-29 04:38:34.24	283.17	12.34	-35.4	-36.6	28.9	3.03e+01	91	31	0	449314816	46	5838
2026-01-29 04:38:35.25	283.39	12.33	-35.3	-36.5	29.0	3.03e+01	90	31	0	451411968	46	5745
2026-01-29 04:38:36.26	283.62	12.33	-35.4	-36.6	28.9	3.03e+01	92	32	0	452984832	46	5811
2026-01-29 04:38:37.27	283.85	12.33	-35.0	-36.3	29.2	3.03e+01	91	31	0	455081984	46	5597
2026-01-29 04:38:38.28	284.07	12.33	-35.3	-36.5	29.0	3.03e+01	92	31	0	457179136	46	5750
2026-01-29 04:38:39.29	284.30	12.33	-35.2	-36.4	29.1	3.03e+01	92	31	0	458752000	46	5690
2026-01-29 04:38:40.30	284.52	12.33	-35.3	-36.5	28.9	3.03e+01	92	32	0	460849152	46	5787
2026-01-29 04:38:41.31	284.75	12.32	-35.4	-36.6	28.9	3.03e+01	92	32	0	462422016	46	5838
2026-01-29 04:38:42.32	284.98	12.32	-35.5	-36.7	28.8	3.03e+01	92	31	0	464519168	46	5881
2026-01-29 04:38:43.33	285.20	12.32	-35.3	-36.5	28.9	3.03e+01	92	31	0	466616320	46	5765
2026-01-29 04:38:44.33	285.42	12.31	-35.3	-36.5	29.0	3.03e+01	92	31	0	468189184	46	5765
2026-01-29 04:38:45.34	285.65	12.31	-35.2	-36.4	29.1	3.03e+01	92	31	0	470286336	46	5692
2026-01-29 04:38:46.35	285.88	12.30	-35.3	-36.5	29.0	3.03e+01	90	31	0	471859200	46	5767
2026-01-29 04:38:47.36	286.10	12.30	-35.3	-36.5	29.0	3.03e+01	90	31	0	473956352	46	5768
2026-01-29 04:38:48.37	286.33	12.29	-35.4	-36.6	28.9	3.03e+01	92	31	0	476053504	46	5842
2026-01-29 04:38:49.38	286.55	12.29	-35.3	-36.5	29.0	3.03e+01	92	31	0	477626368	46	5782
2026-01-29 04:38:50.39	286.78	12.28	-35.3	-36.6	28.9	3.03e+01	92	31	0	479723520	46	5807
2026-01-29 04:38:51.40	287.00	12.27	-35.3	-36.5	29.0	3.03e+01	91	31	0	481296384	46	5770
2026-01-29 04:38:52.41	287.23	12.26	-35.2	-36.4	29.0	3.03e+01	92	32	0	483393536	46	5723
2026-01-29 04:38:53.42	287.45	12.26	-35.2	-36.4	29.0	3.03e+01	92	32	0	485490688	46	5700
2026-01-29 04:38:54.43	287.68	12.25	-35.2	-36.4	28.9	3.03e+01	90	32	0	487063552	46	5724
2026-01-29 04:38:55.43	287.90	12.24	-35.3	-36.6	29.0	3.03e+01	91	32	0	489160704	46	5792
2026-01-29 04:38:56.44	288.12	12.23	-35.4	-36.6	28.8	3.03e+01	90	32	0	490733568	46	5836
2026-01-29 04:38:57.46	288.35	12.22	-35.5	-36.7	28.7	3.03e+01	91	32	0	492830720	46	5916
2026-01-29 04:38:58.47	288.57	12.21	-35.2	-36.4	29.1	3.03e+01	90	32	0	494927872	46	5713
2026-01-29 04:38:59.47	288.79	12.20	-35.3	-36.5	28.9	3.03e+01	92	31	0	496500736	46	5762
2026-01-29 04:39:00.48	289.02	12.19	-35.3	-36.5	28.9	3.03e+01	92	32	0	498597888	46	5789
2026-01-29 04:39:01.49	289.24	12.18	-35.3	-36.5	29.0	3.03e+01	91	31	0	500170752	46	5776
2026-01-29 04:39:02.50	289.46	12.17	-35.2	-36.5	29.0	3.03e+01	91	31	0	502267904	46	5732
2026-01-29 04:39:03.51	289.69	12.16	-35.3	-36.5	29.0	3.03e+01	91	32	0	504365056	46	5778
2026-01-29 04:39:04.52	289.91	12.15	-35.2	-36.4	29.1	3.03e+01	91	31	0	505937920	46	5714
2026-01-29 04:39:05.53	290.13	12.14	-35.3	-36.5	29.0	3.03e+01	91	32	0	508035072	46	5785
2026-01-29 04:39:06.53	290.35	12.13	-35.3	-36.5	29.0	3.03e+01	92	31	0	510132224	46	5743
2026-01-29 04:39:07.54	290.58	12.11	-35.3	-36.5	29.0	3.03e+01	92	31	0	511705088	46	5747
2026-01-29 04:39:08.55	290.80	12.10	-35.3	-36.5	29.0	3.03e+01	90	31	0	513802240	46	5758
2026-01-29 04:39:09.56	291.02	12.09	-35.2	-36.5	29.0	3.03e+01	92	31	0	515375104	46	5729
2026-01-29 04:39:10.57	291.24	12.07	-35.4	-36.6	29.0	3.03e+01	91	31	0	517472256	46	5827
2026-01-29 04:39:11.58	291.46	12.06	-35.4	-36.7	28.9	3.03e+01	92	31	0	519569408	46	5878
2026-01-29 04:39:12.59	291.68	12.04	-35.2	-36.4	29.0	3.03e+01	92	31	0	521142272	46	5703
2026-01-29 04:39:13.59	291.90	12.03	-35.2	-36.4	29.1	3.03e+01	92	31	0	523239424	46	5708
2026-01-29 04:39:14.60	292.12	12.01	-35.2	-36.4	29.1	3.03e+01	91	31	0	524812288	46	5723
2026-01-29 04:39:15.61	292.34	12.00	-35.3	-36.6	28.9	3.03e+01	92	31	0	526909440	46	5805
2026-01-29 04:39:16.62	292.57	11.98	-35.2	-36.4	29.1	3.03e+01	91	31	0	528482304	46	5722
2026-01-29 04:39:17.63	292.79	11.97	-35.2	-36.5	29.0	3.03e+01	90	31	0	530579456	46	5735
2026-01-29 04:39:18.63	293.00	11.95	-35.2	-36.4	29.1	3.03e+01	91	31	0	532676608	46	5687
2026-01-29 04:39:19.65	293.22	11.93	-35.3	-36.5	29.1	3.03e+01	92	31	0	534249472	46	5755
2026-01-29 04:39:20.66	293.44	11.92	-35.4	-36.6	29.0	3.03e+01	92	31	0	536346624	46	5843
2026-01-29 04:39:21.67	293.66	11.90	-35.3	-36.6	29.0	3.03e+01	91	31	0	538443776	46	5799
2026-01-29 04:39:22.67	293.88	11.88	-35.2	-36.5	29.0	3.03e+01	92	31	0	540016640	46	5728
2026-01-29 04:39:23.68	294.10	11.86	-35.3	-36.6	29.0	3.03e+01	92	31	0	542113792	46	5802
2026-01-29 04:39:24.69	294.32	11.84	-35.4	-36.6	28.9	3.03e+01	90	31	0	543686656	46	5818
2026-01-29 04:39:25.70	294.53	11.82	-35.4	-36.7	28.8	3.03e+01	92	31	0	545783808	46	5876
2026-01-29 04:39:26.71	294.75	11.81	-35.2	-36.4	29.0	3.03e+01	92	31	0	547880960	46	5712
2026-01-29 04:39:27.72	294.97	11.79	-35.1	-36.4	29.1	3.03e+01	92	31	0	549453824	46	5670
2026-01-29 04:39:28.73	295.18	11.77	-35.2	-36.4	29.1	3.03e+01	91	31	0	551550976	46	5675
2026-01-29 04:39:29.74	295.40	11.75	-35.2	-36.4	29.1	3.03e+01	90	31	0	553648128	46	5718
2026-01-29 04:39:30.75	295.62	11.72	-35.3	-36.5	29.0	3.03e+01	92	31	0	555220992	46	5787
2026-01-29 04:39:31.76	295.83	11.70	-35.3	-36.5	29.0	3.03e+01	92	31	0	557318144	46	5749
2026-01-29 04:39:32.77	296.05	11.68	-35.3	-36.6	28.9	3.03e+01	91	31	0	558891008	46	5813
2026-01-29 04:39:33.78	296.26	11.66	-35.3	-36.5	29.0	3.03e+01	92	31	0	560988160	46	5775
2026-01-29 04:39:34.79	296.48	11.64	-35.1	-36.3	29.2	3.03e+01	92	31	0	563085312	46	5624
2026-01-29 04:39:35.80	296.69	11.62	-35.3	-36.5	29.0	3.03e+01	92	32	0	564658176	46	5756
2026-01-29 04:39:36.80	296.91	11.59	-35.3	-36.5	29.0	3.03e+01	92	32	0	566755328	46	5771
2026-01-29 04:39:37.81	297.12	11.57	-35.3	-36.5	28.9	3.03e+01	90	31	0	568328192	46	5759
2026-01-29 04:39:38.82	297.33	11.55	-35.3	-36.5	29.0	3.03e+01	92	31	0	570425344	46	5770
2026-01-29 04:39:39.83	297.55	11.52	-35.3	-36.6	28.9	3.03e+01	92	31	0	572522496	46	5808
2026-01-29 04:39:40.84	297.76	11.50	-35.5	-36.7	28.9	3.03e+01	92	31	0	574095360	46	5901
2026-01-29 04:39:41.85	297.97	11.48	-35.3	-36.5	29.0	3.03e+01	92	31	0	576192512	46	5768
2026-01-29 04:39:42.86	298.18	11.45	-35.3	-36.6	28.9	3.03e+01	92	31	0	577765376	46	5800
2026-01-29 04:39:43.87	298.40	11.43	-35.4	-36.6	28.9	3.03e+01	90	31	0	579862528	46	5838
2026-01-29 04:39:44.88	298.61	11.40	-35.4	-36.6	29.0	3.03e+01	92	31	0	581959680	46	5818
2026-01-29 04:39:45.89	298.82	11.38	-35.2	-36.4	29.1	3.03e+01	90	31	0	583532544	46	5711
2026-01-29 04:39:46.90	299.03	11.35	-35.2	-36.4	29.1	3.03e+01	92	31	0	585629696	46	5722
2026-01-29 04:39:47.91	299.24	11.33	-35.4	-36.6	28.9	3.03e+01	92	31	0	587202560	46	5855
2026-01-29 04:39:48.92	299.45	11.30	-35.4	-36.7	28.8	3.03e+01	90	31	0	589299712	46	5875
2026-01-29 04:39:49.93	299.66	11.27	-35.3	-36.6	28.8	3.03e+01	88	31	0	591396864	46	5807
2026-01-29 04:39:50.93	299.86	11.25	-35.4	-36.6	28.9	3.03e+01	92	31	0	592969728	46	5814
2026-01-29 04:39:51.94	300.07	11.22	-35.4	-36.6	28.9	3.03e+01	91	31	0	595066880	46	5821
2026-01-29 04:39:52.95	300.28	11.19	-35.3	-36.5	29.0	3.03e+01	92	31	0	596639744	46	5759
2026-01-29 04:39:53.96	300.49	11.16	-35.3	-36.5	28.9	3.03e+01	93	32	0	598736896	46	5788
2026-01-29 04:39:54.97	300.70	11.14	-35.4	-36.7	28.8	3.03e+01	91	31	0	600834048	46	5887
2026-01-29 04:39:55.98	300.90	11.11	-35.4	-36.6	28.8	3.03e+01	92	31	0	602406912	46	5835
2026-01-29 04:39:56.99	301.11	11.08	-35.3	-36.5	29.0	3.03e+01	92	31	0	604504064	46	5745
2026-01-29 04:39:57.99	301.31	11.05	-35.3	-36.5	28.9	3.03e+01	92	31	0	606601216	46	5756
2026-01-29 04:39:59.00	301.52	11.02	-35.3	-36.6	29.0	3.03e+01	91	31	0	608174080	46	5806
2026-01-29 04:40:00.01	301.72	10.99	-35.2	-36.5	29.0	3.03e+01	92	31	0	610271232	46	5743
2026-01-29 04:40:01.02	301.93	10.96	-35.3	-36.5	29.0	3.03e+01	92	31	0	611844096	46	5791
2026-01-29 04:40:02.03	302.13	10.93	-35.4	-36.6	28.8	3.03e+01	92	32	0	613941248	46	5855
2026-01-29 04:40:03.04	302.34	10.90	-35.6	-36.8	28.8	3.03e+01	92	31	0	616038400	46	5968
2026-01-29 04:40:04.05	302.54	10.87	-35.7	-37.0	28.7	3.03e+01	92	31	0	617611264	46	6070
2026-01-29 04:40:05.06	302.74	10.84	-35.4	-36.7	28.8	3.03e+01	90	31	0	619708416	46	5866
2026-01-29 04:40:06.07	302.95	10.81	-35.5	-36.7	28.8	3.03e+01	90	31	0	621805568	46	5902
2026-01-29 04:40:07.08	303.15	10.78	-35.5	-36.8	28.7	3.03e+01	92	31	0	623378432	46	5928
2026-01-29 04:40:08.09	303.35	10.75	-35.5	-36.8	28.6	3.03e+01	89	31	0	625475584	46	5968
2026-01-29 04:40:09.10	303.55	10.72	-35.6	-36.9	28.7	3.03e+01	91	31	0	627048448	46	6030
2026-01-29 04:40:10.11	303.75	10.68	-35.5	-36.7	28.7	3.03e+01	91	31	0	629145600	46	5900
2026-01-29 04:40:11.12	303.95	10.65	-35.4	-36.7	28.8	3.03e+01	91	31	0	630718464	46	5868
2026-01-29 04:40:12.13	304.15	10.62	-35.3	-36.5	28.9	3.03e+01	90	31	0	632815616	46	5782
2026-01-29 04:40:13.14	304.35	10.59	-35.3	-36.5	28.9	3.03e+01	91	31	0	634912768	46	5773
2026-01-29 04:40:14.15	304.55	10.55	-35.3	-36.6	28.8	3.03e+01	90	31	0	636485632	46	5792
2026-01-29 04:40:15.15	304.74	10.52	-35.4	-36.7	28.8	3.03e+01	92	31	0	638582784	46	5868
2026-01-29 04:40:16.16	304.94	10.49	-35.4	-36.7	28.8	3.03e+01	92	31	0	640155648	46	5883
2026-01-29 04:40:17.17	305.14	10.45	-35.5	-36.7	28.7	3.03e+01	92	31	0	642252800	46	5899
2026-01-29 04:40:18.18	305.34	10.42	-35.5	-36.8	28.6	3.03e+01	91	31	0	644349952	46	5961
2026-01-29 04:40:19.19	305.53	10.39	-35.3	-36.5	28.8	3.03e+01	92	31	0	645922816	46	5773
2026-01-29 04:40:20.20	305.73	10.35	-35.2	-36.5	28.9	3.03e+01	92	31	0	648019968	46	5734
2026-01-29 04:40:21.21	305.92	10.32	-35.4	-36.6	28.9	3.03e+01	90	31	0	649592832	46	5840
2026-01-29 04:40:22.22	306.12	10.28	-35.3	-36.5	28.8	3.03e+01	92	31	0	651689984	46	5781
2026-01-29 04:40:23.23	306.31	10.25	-35.4	-36.6	28.8	3.03e+01	92	31	0	653787136	46	5846
2026-01-29 04:40:24.24	306.51	10.21	-35.4	-36.7	28.7	3.03e+01	92	32	0	655360000	46	5865
2026-01-29 04:40:25.25	306.70	10.18	-35.5	-36.8	28.7	3.03e+01	92	31	0	657457152	46	5969
2026-01-29 04:40:26.26	306.89	10.14	-35.3	-36.6	28.8	3.03e+01	92	32	0	659554304	46	5826
2026-01-29 04:40:27.27	307.09	10.11	-35.6	-36.9	28.6	3.03e+01	92	32	0	661127168	46	6040
2026-01-29 04:40:28.28	307.28	10.07	-35.5	-36.7	28.7	3.03e+01	86	32	0	663224320	46	5922
2026-01-29 04:40:29.29	307.47	10.03	-35.7	-37.0	28.6	3.03e+01	92	31	0	664797184	46	6072
2026-01-29 04:40:30.30	307.66	10.00	-35.5	-36.8	28.7	3.03e+01	92	31	0	666894336	46	5975
2026-01-29 04:40:31.31	307.85	9.96	-35.5	-36.7	28.6	3.03e+01	87	31	0	668991488	46	5913
2026-01-29 04:40:32.32	308.04	9.92	-35.4	-36.7	28.7	3.03e+01	92	31	0	670564352	46	5864
2026-01-29 04:40:33.33	308.23	9.89	-35.5	-36.8	28.6	3.03e+01	92	31	0	672661504	46	5948
2026-01-29 04:40:34.33	308.42	9.85	-35.4	-36.7	28.7	3.03e+01	92	31	0	674758656	46	5869
2026-01-29 04:40:35.35	308.61	9.81	-35.5	-36.7	28.7	3.03e+01	92	31	0	676331520	46	5894
2026-01-29 04:40:36.35	308.79	9.78	-35.5	-36.8	28.6	3.03e+01	92	31	0	678428672	46	5927
2026-01-29 04:40:37.36	308.98	9.74	-35.6	-36.8	28.6	3.03e+01	92	31	0	680001536	46	5976
2026-01-29 04:40:38.37	309.17	9.70	-35.7	-36.9	28.4	3.03e+01	92	31	0	682098688	46	6051
2026-01-29 04:40:39.38	309.35	9.66	-35.8	-37.1	28.4	3.03e+01	90	31	0	684195840	46	6152
2026-01-29 04:40:40.39	309.54	9.62	-35.8	-37.1	28.4	3.03e+01	92	32	0	685768704	46	6137
2026-01-29 04:40:41.40	309.73	9.58	-35.8	-37.0	28.4	3.03e+01	91	32	0	687865856	46	6112
2026-01-29 04:40:42.41	309.91	9.55	-35.7	-37.0	28.4	3.03e+01	92	31	0	689438720	46	6099
2026-01-29 04:40:43.42	310.09	9.51	-35.7	-37.0	28.3	3.03e+01	91	31	0	691535872	46	6095
2026-01-29 04:40:44.43	310.28	9.47	-36.1	-37.4	28.1	3.03e+01	91	31	0	693633024	46	6357
2026-01-29 04:40:45.44	310.46	9.43	-36.3	-37.6	28.1	3.03e+01	92	32	0	695205888	46	6549
2026-01-29 04:40:46.45	310.64	9.39	-36.1	-37.4	28.1	3.03e+01	92	32	0	697303040	46	6351
2026-01-29 04:40:47.46	310.83	9.35	-35.7	-36.9	28.5	3.03e+01	92	31	0	698875904	46	6052
2026-01-29 04:40:48.47	311.01	9.31	-35.7	-36.9	28.5	3.03e+01	90	31	0	700973056	46	6049
2026-01-29 04:40:49.48	311.19	9.27	-35.5	-36.8	28.6	3.03e+01	90	31	0	703070208	46	5942
2026-01-29 04:40:50.49	311.37	9.23	-35.5	-36.8	28.5	3.03e+01	90	32	0	704643072	46	5955
2026-01-29 04:40:51.50	311.55	9.19	-35.5	-36.8	28.5	3.03e+01	91	31	0	706740224	46	5950
2026-01-29 04:40:52.51	311.73	9.15	-35.6	-36.9	28.4	3.03e+01	92	31	0	708313088	46	6036
2026-01-29 04:40:53.52	311.91	9.11	-36.0	-37.3	28.1	3.03e+01	92	32	0	710410240	46	6329
2026-01-29 04:40:54.53	312.09	9.07	-36.0	-37.3	28.2	3.03e+01	92	31	0	712507392	46	6312
2026-01-29 04:40:55.54	312.27	9.03	-35.8	-37.1	28.2	3.03e+01	60	31	0	714080256	46	6185
2026-01-29 04:40:56.55	312.44	8.99	-35.8	-37.1	28.2	3.03e+01	61	31	0	716177408	46	6151
2026-01-29 04:40:57.56	312.62	8.95	-35.7	-37.0	28.4	3.03e+01	57	31	0	717750272	46	6096
2026-01-29 04:40:58.57	312.80	8.90	-35.6	-36.9	28.4	3.03e+01	58	32	0	719847424	46	6005
2026-01-29 04:40:59.58	312.97	8.86	-35.6	-36.9	28.4	3.03e+01	46	32	0	721944576	46	6014
2026-01-29 04:41:00.59	313.15	8.82	-35.7	-37.0	28.3	3.03e+01	58	31	0	723517440	46	6067
2026-01-29 04:41:01.59	313.32	8.78	-35.8	-37.1	28.2	3.03e+01	59	32	0	725614592	46	6200
2026-01-29 04:41:02.60	313.49	8.74	-35.8	-37.1	28.3	3.03e+01	49	31	0	727711744	46	6179
2026-01-29 04:41:03.61	313.67	8.70	-35.7	-37.0	28.5	3.03e+01	60	31	0	729284608	46	6068
2026-01-29 04:41:04.62	313.84	8.65	-35.6	-36.9	28.4	3.03e+01	61	31	0	731381760	46	6003
2026-01-29 04:41:05.62	314.01	8.61	-35.9	-37.1	28.2	3.03e+01	60	31	0	732954624	46	6193
2026-01-29 04:41:06.63	314.19	8.57	-35.8	-37.1	28.2	3.03e+01	59	31	0	735051776	46	6198
2026-01-29 04:41:07.64	314.36	8.53	-35.9	-37.2	28.2	3.03e+01	59	31	0	737148928	46	6232
2026-01-29 04:41:08.65	314.53	8.48	-36.1	-37.5	28.0	3.03e+01	57	31	0	738721792	46	6439
2026-01-29 04:41:09.66	314.70	8.44	-36.1	-37.4	27.9	3.03e+01	59	32	0	740818944	46	6420
2026-01-29 04:41:10.67	314.87	8.40	-35.8	-37.1	28.3	3.03e+01	48	32	0	742916096	46	6187
2026-01-29 04:41:11.68	315.04	8.36	-35.9	-37.2	28.1	3.03e+01	57	32	0	744488960	46	6224
2026-01-29 04:41:12.69	315.21	8.31	-36.0	-37.3	28.1	3.03e+01	59	32	0	746586112	46	6320
2026-01-29 04:41:13.70	315.38	8.27	-36.1	-37.5	27.9	3.03e+01	58	31	0	748158976	46	6424
2026-01-29 04:41:14.71	315.54	8.23	-35.9	-37.2	28.1	3.03e+01	59	32	0	750256128	46	6270
2026-01-29 04:41:15.72	315.71	8.18	-35.7	-37.0	28.3	3.03e+01	55	32	0	752353280	46	6101
2026-01-29 04:41:16.73	315.88	8.14	-35.9	-37.2	28.2	3.03e+01	57	32	0	753926144	46	6220
2026-01-29 04:41:17.74	316.04	8.10	-35.9	-37.2	28.1	3.03e+01	59	32	0	756023296	46	6261
2026-01-29 04:41:18.75	316.21	8.05	-36.2	-37.5	27.8	3.03e+01	50	32	0	757596160	46	6483
2026-01-29 04:41:19.76	316.38	8.01	-36.3	-37.6	27.8	3.03e+01	59	32	0	759693312	46	6516
2026-01-29 04:41:20.77	316.54	7.96	-36.1	-37.4	27.9	3.03e+01	59	32	0	761266176	46	6400
2026-01-29 04:41:21.78	316.70	7.92	-36.1	-37.4	27.9	3.03e+01	55	31	0	763363328	46	6395
2026-01-29 04:41:22.79	316.87	7.87	-36.2	-37.5	27.9	3.03e+01	59	32	0	765460480	46	6438
2026-01-29 04:41:23.80	317.03	7.83	-36.0	-37.3	28.1	3.03e+01	42	32	0	767033344	46	6292
2026-01-29 04:41:24.80	317.19	7.79	-36.1	-37.4	27.9	3.03e+01	59	32	0	769130496	46	6382
2026-01-29 04:41:25.82	317.36	7.74	-36.1	-37.4	27.9	3.03e+01	60	32	0	771227648	46	6368
2026-01-29 04:41:26.83	317.52	7.70	-36.5	-37.8	27.6	3.03e+01	58	32	0	772800512	46	6689
2026-01-29 04:41:27.83	317.68	7.65	-36.0	-37.3	28.0	3.03e+01	61	32	0	774897664	46	6302
2026-01-29 04:41:28.84	317.84	7.61	-36.2	-37.5	27.9	3.03e+01	59	31	0	776470528	46	6478
2026-01-29 04:41:29.85	318.00	7.56	-36.1	-37.4	27.9	3.03e+01	60	31	0	778567680	46	6400
2026-01-29 04:41:30.86	318.16	7.52	-36.2	-37.5	27.8	3.03e+01	58	32	0	780664832	46	6453
2026-01-29 04:41:31.87	318.32	7.47	-36.3	-37.6	27.7	3.03e+01	48	32	0	782237696	46	6518
2026-01-29 04:41:32.88	318.48	7.43	-36.2	-37.6	27.8	3.03e+01	60	32	0	784334848	46	6510
2026-01-29 04:41:33.89	318.63	7.38	-36.3	-37.6	27.7	3.03e+01	58	32	0	785907712	46	6537
2026-01-29 04:41:34.90	318.79	7.34	-36.2	-37.5	27.8	3.03e+01	62	31	0	788004864	46	6483
2026-01-29 04:41:35.91	318.95	7.29	-36.4	-37.7	27.6	3.03e+01	59	31	0	790102016	46	6597
2026-01-29 04:41:36.92	319.10	7.25	-36.3	-37.6	27.7	3.03e+01	52	31	0	791674880	46	6550
2026-01-29 04:41:37.92	319.26	7.20	-36.2	-37.5	27.8	3.03e+01	59	31	0	793772032	46	6436
2026-01-29 04:41:38.93	319.41	7.16	-36.2	-37.5	27.8	3.03e+01	56	31	0	795869184	46	6481
2026-01-29 04:41:39.94	319.57	7.11	-36.1	-37.4	27.8	3.03e+01	46	31	0	797442048	46	6419
2026-01-29 04:41:40.95	319.72	7.06	-36.3	-37.7	27.6	3.03e+01	61	31	0	799539200	46	6577
2026-01-29 04:41:41.96	319.88	7.02	-36.4	-37.7	27.6	3.03e+01	58	31	0	801112064	46	6592
2026-01-29 04:41:42.97	320.03	6.97	-36.2	-37.5	27.6	3.03e+01	61	31	0	803209216	46	6497
2026-01-29 04:41:43.98	320.18	6.93	-36.4	-37.7	27.5	3.03e+01	59	31	0	805306368	46	6644
2026-01-29 04:41:44.99	320.34	6.88	-36.2	-37.5	27.7	3.03e+01	52	32	0	806879232	46	6488
2026-01-29 04:41:46.00	320.49	6.83	-36.4	-37.7	27.5	3.03e+01	59	31	0	808976384	46	6638
2026-01-29 04:41:47.01	320.64	6.79	-36.7	-38.0	27.3	3.03e+01	58	31	0	810549248	46	6848
2026-01-29 04:41:48.02	320.79	6.74	-36.6	-37.9	27.3	3.03e+01	44	31	0	812646400	46	6781
2026-01-29 04:41:49.03	320.94	6.70	-36.4	-37.7	27.6	3.03e+01	63	32	0	814743552	46	6586
2026-01-29 04:41:50.04	321.09	6.65	-36.5	-37.8	27.4	3.03e+01	60	31	0	816316416	46	6712
2026-01-29 04:41:51.05	321.24	6.60	-36.5	-37.8	27.4	3.03e+01	60	32	0	818413568	46	6692
2026-01-29 04:41:52.06	321.39	6.56	-36.5	-37.8	27.5	3.03e+01	59	31	0	819986432	46	6675
2026-01-29 04:41:53.07	321.54	6.51	-36.5	-37.8	27.4	3.03e+01	53	31	0	822083584	46	6719
2026-01-29 04:41:54.08	321.69	6.46	-36.5	-37.8	27.4	3.03e+01	58	31	0	824180736	46	6684
2026-01-29 04:41:55.09	321.83	6.42	-36.4	-37.7	27.4	3.03e+01	60	31	0	825753600	46	6616
2026-01-29 04:41:56.10	321.98	6.37	-36.7	-38.1	27.1	3.03e+01	45	31	0	827850752	46	6884
2026-01-29 04:41:57.11	322.13	6.32	-36.6	-38.0	27.2	3.03e+01	58	31	0	829423616	46	6824
2026-01-29 04:41:58.12	322.27	6.28	-36.7	-38.1	27.2	3.03e+01	60	31	0	831520768	46	6906
2026-01-29 04:41:59.13	322.42	6.23	-36.8	-38.2	27.1	3.03e+01	60	31	0	833617920	46	6967
2026-01-29 04:42:00.13	322.56	6.18	-36.6	-37.9	27.3	3.03e+01	59	31	0	835190784	46	6771
2026-01-29 04:42:01.14	322.70	6.14	-36.6	-37.9	27.3	3.03e+01	51	31	0	837287936	46	6777
2026-01-29 04:42:02.15	322.85	6.09	-36.6	-38.0	27.2	3.03e+01	58	31	0	839385088	46	6824
2026-01-29 04:42:03.16	322.99	6.04	-36.6	-37.9	27.2	3.03e+01	56	32	0	840957952	46	6783
2026-01-29 04:42:04.17	323.13	5.99	-36.4	-37.7	27.4	3.03e+01	59	31	0	843055104	46	6601
2026-01-29 04:42:05.18	323.28	5.95	-36.7	-38.1	27.0	3.03e+01	61	31	0	844627968	46	6914
2026-01-29 04:42:06.19	323.42	5.90	-36.6	-38.0	27.3	3.03e+01	47	31	0	846725120	46	6816
2026-01-29 04:42:07.20	323.56	5.85	-36.7	-38.1	27.2	3.03e+01	61	32	0	848822272	48	6173
2026-01-29 04:42:08.21	323.70	5.81	-36.6	-38.0	27.1	3.03e+01	61	31	0	850395136	48	6087
2026-01-29 04:42:09.22	323.84	5.76	-36.8	-38.2	26.9	3.03e+01	51	31	0	852492288	48	6259
2026-01-29 04:42:10.23	323.98	5.71	-36.6	-38.0	27.0	3.03e+01	60	31	0	854065152	48	6074
2026-01-29 04:42:11.24	324.12	5.66	-36.8	-38.1	27.0	3.03e+01	57	31	0	856162304	48	6183
2026-01-29 04:42:12.25	324.26	5.62	-36.6	-37.9	27.0	3.03e+01	57	31	0	858259456	48	6062
2026-01-29 04:42:13.25	324.40	5.57	-36.7	-38.1	27.0	3.03e+01	56	31	0	859832320	48	6143
2026-01-29 04:42:14.26	324.54	5.52	-37.1	-38.5	26.7	3.03e+01	46	31	0	861929472	48	6437
2026-01-29 04:42:15.27	324.67	5.47	-36.6	-38.0	27.2	3.03e+01	56	31	0	864026624	48	6072
2026-01-29 04:42:16.28	324.81	5.43	-37.0	-38.4	26.7	3.03e+01	56	31	0	865599488	48	6400
2026-01-29 04:42:17.29	324.95	5.38	-36.8	-38.2	26.7	3.03e+01	44	31	0	867696640	48	6227
2026-01-29 04:42:18.29	325.08	5.33	-36.7	-38.1	27.1	3.03e+01	56	31	0	869269504	48	6162
2026-01-29 04:42:19.30	325.22	5.28	-36.9	-38.3	26.8	3.03e+01	61	31	0	871366656	48	6341
2026-01-29 04:42:20.31	325.35	5.24	-36.8	-38.2	26.9	3.03e+01	59	31	0	872939520	48	6220
2026-01-29 04:42:21.32	325.49	5.19	-36.8	-38.1	26.9	3.03e+01	54	31	0	875036672	48	6203
2026-01-29 04:42:22.33	325.62	5.14	-37.4	-38.8	26.1	3.03e+01	60	31	0	877133824	48	6697
2026-01-29 04:42:23.34	325.76	5.09	-37.2	-38.6	26.5	3.03e+01	59	31	0	878706688	48	6536
2026-01-29 04:42:24.35	325.89	5.05	-36.5	-37.8	27.2	3.03e+01	60	31	0	880803840	48	5989
2026-01-29 04:42:25.36	326.02	5.00	-36.9	-38.3	26.8	3.03e+01	45	31	0	882376704	48	6321
2026-01-29 04:42:26.37	326.16	4.95	-37.7	-48.0	3.6	3.03e+01	0	31	104	883949568	48	19393
2026-01-29 04:42:27.38	326.29	4.90	-37.0	-47.3	3.5	3.03e+01	0	31	104	883949568	48	17810
2026-01-29 04:42:28.39	326.42	4.85	-37.6	-47.8	3.6	3.03e+01	0	31	104	883949568	48	18835
2026-01-29 04:42:29.40	326.55	4.81	-37.4	-47.6	3.6	3.03e+01	0	31	104	883949568	50	16394
2026-01-29 04:42:30.41	326.68	4.76	-36.7	-47.0	3.6	3.03e+01	0	31	104	883949568	48	17118
2026-01-29 04:42:31.42	326.81	4.71	-47.5	-64.2	3.5	3.03e+01	0	31	104	883949568	60	62533
2026-01-29 04:42:32.43	326.94	4.66	-43.2	-54.8	3.4	3.03e+01	0	31	104	883949568	60	21154
2026-01-29 04:42:33.43	327.07	4.61	-43.4	-54.9	3.5	3.03e+01	0	32	104	883949568	60	21468
2026-01-29 04:42:34.44	327.20	4.57	-42.4	-53.6	3.6	3.03e+01	0	31	104	883949568	58	20588
2026-01-29 04:42:35.45	327.33	4.52	-41.6	-52.5	3.6	3.03e+01	0	32	104	883949568	58	18157
2026-01-29 04:42:36.46	327.46	4.47	-41.2	-52.0	3.6	3.03e+01	0	31	104	883949568	56	19278
2026-01-29 04:42:37.47	327.58	4.42	-41.2	-52.0	3.4	3.03e+01	0	31	104	883949568	56	19293
2026-01-29 04:42:38.48	327.71	4.37	-40.8	-51.4	4.0	3.03e+01	0	31	104	883949568	56	18077
2026-01-29 04:42:39.49	327.84	4.33	-47.5	-64.6	3.6	3.03e+01	0	31	104	883949568	60	65307
2026-01-29 04:42:40.50	327.96	4.28	-45.2	-58.1	3.5	3.03e+01	0	31	104	883949568	60	30874
2026-01-29 04:42:41.51	328.09	4.23	-39.8	-50.3	4.0	3.03e+01	0	32	104	883949568	54	17882
2026-01-29 04:42:42.52	328.21	4.18	-39.5	-49.9	4.0	3.03e+01	0	31	104	883949568	52	19153
2026-01-29 04:42:43.53	328.34	4.13	-39.7	-50.2	3.4	3.03e+01	0	31	104	883949568	52	19821
2026-01-29 04:42:44.54	328.46	4.09	-39.9	-50.6	3.7	3.03e+01	0	31	104	883949568	52	20593
2026-01-29 04:42:45.55	328.59	4.04	-39.6	-50.3	3.5	3.03e+01	0	31	104	883949568	54	17746
2026-01-29 04:42:46.56	328.71	3.99	-39.2	-49.8	3.5	3.03e+01	0	31	104	883949568	50	21177
2026-01-29 04:42:47.57	328.83	3.94	-47.0	-63.7	3.5	3.03e+01	0	31	104	883949568	60	58616
2026-01-29 04:42:48.57	328.96	3.89	-40.9	-51.8	3.5	3.03e+01	0	31	104	883949568	60	14993
2026-01-29 04:42:49.58	329.08	3.85	-42.5	-53.9	3.5	3.03e+01	0	32	104	883949568	60	19071
2026-01-29 04:42:50.59	329.20	3.80	-41.1	-52.1	3.5	3.03e+01	0	32	104	883949568	56	19463
2026-01-29 04:42:51.60	329.32	3.75	-40.6	-51.4	3.5	3.03e+01	0	31	104	883949568	56	18065
2026-01-29 04:42:52.61	329.44	3.70	-39.9	-50.7	3.5	3.03e+01	0	31	104	883949568	56	16646
2026-01-29 04:42:53.62	329.56	3.65	-40.6	-51.5	3.5	3.03e+01	0	31	104	883949568	54	20440
2026-01-29 04:42:54.63	329.68	3.61	-41.1	-52.3	3.5	3.03e+01	0	31	104	883949568	56	19898
2026-01-29 04:42:55.64	329.80	3.56	-45.4	-62.6	3.5	3.03e+01	0	31	104	883949568	60	52045
2026-01-29 04:42:56.65	329.92	3.51	-39.6	-50.4	3.5	3.03e+01	0	31	104	883949568	56	16067
2026-01-29 04:42:57.65	330.04	3.46	-40.1	-50.9	3.5	3.03e+01	0	31	104	883949568	56	16961
2026-01-29 04:42:58.66	330.16	3.41	-39.7	-50.3	3.5	3.03e+01	0	31	104	883949568	54	17896
2026-01-29 04:42:59.67	330.28	3.37	-41.1	-52.2	3.5	3.03e+01	0	31	104	883949568	54	22150
2026-01-29 04:43:00.68	330.40	3.32	-42.5	-53.9	3.5	3.03e+01	0	31	104	883949568	56	24009
2026-01-29 04:43:01.69	330.51	3.27	-42.3	-53.7	3.5	3.03e+01	0	31	104	883949568	60	18645
2026-01-29 04:43:02.70	330.63	3.22	-43.4	-57.2	3.5	3.03e+01	0	31	104	883949568	58	31217
2026-01-29 04:43:03.71	330.75	3.17	-43.2	-57.0	3.5	3.03e+01	0	32	104	883949568	60	27307
2026-01-29 04:43:04.72	330.86	3.13	-42.6	-54.9	3.5	3.03e+01	0	32	104	883949568	60	21497
2026-01-29 04:43:05.73	330.98	3.08	-43.6	-56.8	3.5	3.03e+01	0	31	104	883949568	60	26713
2026-01-29 04:43:06.73	331.09	3.03	-43.1	-56.3	3.5	3.03e+01	0	31	104	883949568	60	25126
2026-01-29 04:43:07.74	331.21	2.98	-47.3	-65.1	3.5	3.03e+01	0	31	104	883949568	60	69531
2026-01-29 04:43:08.75	331.32	2.93	-47.8	-65.9	3.5	3.03e+01	0	32	104	883949568	60	76178
2026-01-29 04:43:09.76	331.44	2.89	-48.3	-66.2	3.5	3.03e+01	0	32	104	883949568	60	78514
2026-01-29 04:43:10.78	331.55	2.84	-48.4	-66.4	3.5	3.03e+01	0	32	104	883949568	60	80084
2026-01-29 04:43:11.78	331.67	2.79	-48.7	-66.6	3.5	3.03e+01	0	32	104	883949568	60	82371
2026-01-29 04:43:12.79	331.78	2.74	-48.8	-66.7	3.5	3.03e+01	0	32	104	883949568	60	83157
2026-01-29 04:43:13.80	331.89	2.69	-48.7	-66.5	3.5	3.03e+01	0	32	104	883949568	60	81278
2026-01-29 04:43:14.81	332.00	2.65	-48.9	-66.8	3.5	3.03e+01	0	32	104	883949568	60	83973
2026-01-29 04:43:15.82	332.12	2.60	-48.6	-66.9	3.5	3.03e+01	0	32	104	883949568	60	85073
2026-01-29 04:43:16.83	332.23	2.55	-48.9	-66.9	3.5	3.03e+01	0	31	104	883949568	60	85031
2026-01-29 04:43:17.84	332.34	2.50	-49.0	-66.9	3.5	3.03e+01	0	31	104	883949568	60	85296
2026-01-29 04:43:18.86	332.45	2.45	-48.8	-66.9	3.5	3.03e+01	0	31	104	883949568	60	85260
2026-01-29 04:43:19.86	332.56	2.41	-48.9	-67.0	3.5	3.03e+01	0	31	104	883949568	60	85804
2026-01-29 04:43:20.87	332.67	2.36	-49.0	-66.9	3.5	3.03e+01	0	32	104	883949568	60	85572
2026-01-29 04:43:21.88	332.78	2.31	-48.8	-66.9	3.5	3.03e+01	0	32	104	883949568	60	85628
2026-01-29 04:43:22.89	332.89	2.26	-49.0	-66.9	3.5	3.03e+01	0	32	104	883949568	60	85636
2026-01-29 04:43:23.90	333.00	2.21	-49.0	-66.9	3.5	3.03e+01	0	32	104	883949568	60	84965
2026-01-29 04:43:24.92	333.11	2.17	-48.8	-66.9	3.5	3.03e+01	0	32	104	883949568	60	85180
2026-01-29 04:43:25.93	333.22	2.12	-48.9	-66.9	3.5	3.03e+01	0	32	104	883949568	60	85045
2026-01-29 04:43:26.93	333.32	2.07	-48.9	-67.0	3.5	3.03e+01	0	32	104	883949568	60	85681
2026-01-29 04:43:27.95	333.43	2.02	-49.0	-66.9	3.5	3.03e+01	0	32	104	883949568	60	85102
2026-01-29 04:43:28.96	333.54	1.97	-49.0	-66.9	3.5	3.03e+01	0	31	104	883949568	60	85245
2026-01-29 04:43:29.97	333.65	1.93	-48.7	-66.9	3.5	3.03e+01	0	31	104	883949568	60	85117
2026-01-29 04:43:30.98	333.75	1.88	-49.0	-66.9	3.5	3.03e+01	0	32	104	883949568	60	85204
2026-01-29 04:43:31.99	333.86	1.83	-49.0	-66.8	3.5	3.03e+01	0	32	104	883949568	60	84218
2026-01-29 04:43:33.00	333.96	1.78	-49.1	-66.9	3.5	3.03e+01	0	32	104	883949568	60	84740
2026-01-29 04:43:34.01	334.07	1.74	-49.1	-66.9	3.5	3.03e+01	0	32	104	883949568	60	84908
2026-01-29 04:43:35.02	334.17	1.69	-49.1	-67.0	3.5	3.03e+01	0	32	104	883949568	60	85817
2026-01-29 04:43:36.02	334.28	1.64	-49.1	-66.9	3.5	3.03e+01	0	32	104	883949568	60	85308
2026-01-29 04:43:37.03	334.38	1.59	-49.0	-66.9	3.5	3.03e+01	0	32	104	883949568	60	84940
2026-01-29 04:43:38.04	334.49	1.55	-49.0	-66.9	3.5	3.03e+01	0	32	104	883949568	60	84846
2026-01-29 04:43:39.05	334.59	1.50	-49.1	-66.9	3.5	3.03e+01	0	32	104	883949568	60	85233
2026-01-29 04:43:40.06	334.69	1.45	-49.0	-66.8	3.5	3.03e+01	0	32	104	883949568	60	84471
2026-01-29 04:43:41.07	334.80	1.40	-49.0	-66.8	3.5	3.03e+01	0	32	104	883949568	60	84574
2026-01-29 04:43:42.09	334.90	1.35	-49.0	-66.8	3.5	3.03e+01	0	31	104	883949568	60	84537
2026-01-29 04:43:43.10	335.00	1.31	-49.0	-66.9	3.5	3.03e+01	0	32	104	883949568	60	84752
2026-01-29 04:43:44.11	335.10	1.26	-49.0	-66.8	3.5	3.03e+01	0	31	104	883949568	60	84556
2026-01-29 04:43:45.11	335.20	1.21	-49.0	-66.8	3.5	3.03e+01	0	32	104	883949568	60	84364
2026-01-29 04:43:46.12	335.31	1.16	-49.0	-66.8	3.5	3.03e+01	0	32	104	883949568	60	84680
2026-01-29 04:43:47.13	335.41	1.12	-49.0	-66.9	3.5	3.03e+01	0	32	104	883949568	60	84865
2026-01-29 04:43:48.14	335.51	1.07	-49.0	-66.8	3.5	3.03e+01	0	32	104	883949568	60	84356
2026-01-29 04:43:49.15	335.61	1.02	-49.0	-66.8	3.5	3.03e+01	0	32	104	883949568	60	84674
2026-01-29 04:43:50.16	335.71	0.97	-49.0	-66.8	3.5	3.03e+01	0	32	104	883949568	60	84002
2026-01-29 04:43:51.17	335.81	0.93	-49.0	-66.8	3.5	3.03e+01	0	32	104	883949568	60	84473
2026-01-29 04:43:52.18	335.91	0.88	-49.0	-66.9	3.5	3.03e+01	0	32	104	883949568	60	84772
2026-01-29 04:43:53.19	336.00	0.83	-49.0	-66.9	3.5	3.03e+01	0	32	104	883949568	60	85244
2026-01-29 04:43:54.20	336.10	0.78	-49.0	-66.8	3.5	3.03e+01	0	32	104	883949568	60	84458
2026-01-29 04:43:55.21	336.20	0.74	-49.0	-66.8	3.5	3.03e+01	0	32	104	883949568	60	84614
2026-01-29 04:43:56.22	336.30	0.69	-49.1	-66.9	3.5	3.03e+01	0	32	104	883949568	60	84986
2026-01-29 04:43:57.23	336.40	0.64	-49.1	-66.9	3.5	3.03e+01	0	32	104	883949568	60	85574
2026-01-29 04:43:58.24	336.49	0.60	-49.0	-66.9	3.5	3.03e+01	0	32	104	883949568	60	85308
2026-01-29 04:43:59.25	336.59	0.55	-49.1	-66.9	3.5	3.03e+01	0	32	104	883949568	60	85580
2026-01-29 04:44:00.26	336.69	0.50	-49.1	-66.9	3.5	3.03e+01	0	32	104	883949568	60	84955
2026-01-29 04:44:01.26	336.78	0.45	-49.0	-66.8	3.5	3.03e+01	0	32	104	883949568	60	84501
2026-01-29 04:44:02.27	336.88	0.41	-49.0	-66.9	3.5	3.03e+01	0	32	104	883949568	60	84871
2026-01-29 04:44:03.28	336.97	0.36	-49.1	-66.9	3.5	3.03e+01	0	32	104	883949568	60	85558
2026-01-29 04:44:04.30	337.07	0.31	-49.1	-66.9	3.5	3.03e+01	0	31	104	883949568	60	85339
2026-01-29 04:44:05.31	337.17	0.27	-49.0	-66.9	3.5	3.03e+01	0	32	104	883949568	60	84867
2026-01-29 04:44:06.31	337.26	0.22	-49.0	-66.8	3.5	3.03e+01	0	32	104	883949568	60	84509
2026-01-29 04:44:07.33	337.36	0.17	-49.0	-66.8	3.5	3.03e+01	0	32	104	883949568	60	84271
2026-01-29 04:44:08.34	337.45	0.12	-49.0	-66.9	3.5	3.03e+01	0	32	104	883949568	60	84917
2026-01-29 04:44:09.35	337.54	0.08	-49.0	-66.9	3.5	3.03e+01	0	32	104	883949568	60	84877
2026-01-29 04:44:10.35	337.64	0.03	-49.0	-66.9	3.5	3.03e+01	0	32	104	883949568	60	84861
2026-01-29 04:44:11.37	337.73	-0.02	-49.0	-66.9	3.5	3.03e+01	0	32	104	883949568	60	85247
2026-01-29 04:44:12.38	337.82	-0.06	-49.1	-67.0	3.5	3.03e+01	0	31	104	883949568	60	85931
2026-01-29 04:44:13.39	337.92	-0.11	-49.0	-66.8	3.5	3.03e+01	0	32	104	883949568	60	84655

#Closed at: 2026-01-29 04:44:13
#Recorded file [883 MB]: D:/lorett/data/35029_260129_163258.dat