passes_logs/2026/01/29/R4.6S_Anadyr/R4.6S_Anadyr__20260129_001643_NOAA_20_JPSS-1_rec.log

#Pass ID: 20260129_001643_NOAA 20 (JPSS-1)
#Satellite: NOAA 20 (JPSS-1)
#Configuration: NOAA 20
#almurnet v.1.7.20251203
#Start time: 2026-01-29 00:16:45

#Version: 2.2.20231116
#Station: R4.6S_Anadyr
#Location: 177.4865 lon 64.73178 lat
#TLE: 1 43013U 17073A   26027.94683596  .00000137  00000+0  85741-4 0  9995
#TLE: 2 43013  98.7648 328.7503 0000940  21.3928 338.7287 14.19541154424576

#Time	Az	El	Level	Level2	SNR	BER	BlckErr	Temp	State	Recorded	gain1	gain2
2026-01-29 00:16:45.93	157.67	0.15	-48.7	-63.7	3.5	1.51e+00	0	30	0	0	60	55075
2026-01-29 00:16:46.93	157.68	0.21	-48.7	-63.9	3.6	1.51e+00	0	31	104	0	60	56651
2026-01-29 00:16:47.94	157.68	0.27	-48.7	-63.9	3.6	1.51e+00	0	31	104	0	60	56510
2026-01-29 00:16:48.95	157.69	0.33	-48.7	-63.9	3.6	1.51e+00	0	31	104	0	60	56455
2026-01-29 00:16:49.96	157.70	0.39	-48.8	-64.0	3.6	1.51e+00	0	31	104	0	60	56964
2026-01-29 00:16:50.97	157.70	0.45	-48.7	-63.9	3.6	1.51e+00	0	31	104	0	60	56606
2026-01-29 00:16:51.98	157.71	0.52	-48.7	-63.9	3.6	1.51e+00	0	31	104	0	60	56725
2026-01-29 00:16:52.99	157.71	0.58	-48.7	-63.9	3.6	1.51e+00	0	31	104	0	60	56959
2026-01-29 00:16:54.00	157.72	0.64	-48.8	-64.0	3.6	1.51e+00	0	31	104	0	60	57322
2026-01-29 00:16:55.01	157.72	0.70	-48.8	-64.0	3.6	1.51e+00	0	31	104	0	60	57282
2026-01-29 00:16:56.02	157.73	0.76	-48.8	-64.0	3.6	1.51e+00	0	31	104	0	60	57242
2026-01-29 00:16:57.03	157.73	0.83	-48.8	-64.0	3.6	1.51e+00	0	31	104	0	60	57338
2026-01-29 00:16:58.03	157.74	0.89	-48.8	-63.9	3.6	1.51e+00	0	31	104	0	60	56850
2026-01-29 00:16:59.04	157.74	0.95	-48.7	-63.9	3.6	1.51e+00	0	31	104	0	60	56737
2026-01-29 00:17:00.05	157.75	1.01	-48.5	-63.8	3.6	1.51e+00	0	31	104	0	60	55935
2026-01-29 00:17:01.07	157.75	1.08	-48.6	-63.8	3.6	1.51e+00	0	31	104	0	60	55702
2026-01-29 00:17:02.07	157.76	1.14	-48.2	-63.7	3.6	1.51e+00	0	31	104	0	60	55061
2026-01-29 00:17:03.09	157.77	1.20	-48.2	-63.5	3.6	1.51e+00	0	31	104	0	60	53902
2026-01-29 00:17:04.10	157.77	1.27	-48.2	-63.4	3.6	1.51e+00	0	31	104	0	60	53358
2026-01-29 00:17:05.11	157.78	1.33	-47.9	-63.1	3.6	1.51e+00	0	31	104	0	60	51511
2026-01-29 00:17:06.12	157.78	1.39	-46.7	-62.0	3.6	1.51e+00	0	31	104	0	60	45263
2026-01-29 00:17:07.12	157.79	1.46	-47.5	-62.7	3.6	1.51e+00	0	31	104	0	60	49156
2026-01-29 00:17:08.14	157.79	1.52	-47.3	-62.4	3.6	1.51e+00	0	31	104	0	60	47901
2026-01-29 00:17:09.14	157.80	1.58	-47.2	-62.3	3.6	1.51e+00	0	31	104	0	60	47248
2026-01-29 00:17:10.15	157.80	1.65	-47.2	-62.3	3.6	1.51e+00	0	31	104	0	60	47361
2026-01-29 00:17:11.16	157.81	1.71	-47.2	-62.3	3.6	1.51e+00	0	31	104	0	60	47237
2026-01-29 00:17:12.18	157.81	1.78	-47.2	-62.3	3.6	1.51e+00	0	31	104	0	60	47321
2026-01-29 00:17:13.19	157.82	1.84	-47.2	-62.3	3.6	1.51e+00	0	31	104	0	60	47334
2026-01-29 00:17:14.20	157.83	1.90	-47.2	-62.4	3.6	1.51e+00	0	31	104	0	60	47383
2026-01-29 00:17:15.21	157.83	1.97	-47.2	-62.4	3.6	1.51e+00	0	31	104	0	60	47530
2026-01-29 00:17:16.22	157.84	2.03	-47.2	-62.3	3.6	1.51e+00	0	31	104	0	60	47101
2026-01-29 00:17:17.23	157.84	2.10	-47.2	-62.3	3.6	1.51e+00	0	31	104	0	60	47367
2026-01-29 00:17:18.24	157.85	2.16	-47.2	-62.4	3.6	1.51e+00	0	31	104	0	60	47378
2026-01-29 00:17:19.25	157.85	2.23	-47.2	-62.3	3.6	1.51e+00	0	32	104	0	60	47113
2026-01-29 00:17:20.26	157.86	2.30	-47.2	-62.3	3.6	1.51e+00	0	31	104	0	60	47089
2026-01-29 00:17:21.27	157.86	2.36	-47.2	-62.3	3.6	1.51e+00	0	31	104	0	60	47019
2026-01-29 00:17:22.28	157.87	2.43	-47.2	-62.2	3.6	1.51e+00	0	32	104	0	60	46741
2026-01-29 00:17:23.29	157.88	2.49	-47.2	-62.1	3.6	1.51e+00	0	32	104	0	60	45953
2026-01-29 00:17:24.30	157.88	2.56	-47.2	-61.9	3.6	1.51e+00	0	32	104	0	60	44816
2026-01-29 00:17:25.31	157.89	2.63	-47.2	-61.7	3.6	1.51e+00	0	31	104	0	60	43920
2026-01-29 00:17:26.32	157.89	2.69	-47.1	-61.3	3.6	1.51e+00	0	32	104	0	60	42201
2026-01-29 00:17:27.33	157.90	2.76	-47.1	-61.3	3.6	1.51e+00	0	32	104	0	60	41814
2026-01-29 00:17:28.34	157.90	2.83	-47.1	-61.2	3.6	1.51e+00	0	32	104	0	60	41281
2026-01-29 00:17:29.35	157.91	2.89	-47.1	-61.0	3.6	1.51e+00	0	31	104	0	60	40570
2026-01-29 00:17:30.36	157.92	2.96	-47.1	-61.5	3.6	1.51e+00	0	32	104	0	60	42978
2026-01-29 00:17:31.37	157.92	3.03	-47.1	-61.8	3.6	1.51e+00	0	32	104	0	60	44653
2026-01-29 00:17:32.37	157.93	3.09	-47.1	-61.5	3.6	1.51e+00	0	32	104	0	60	42735
2026-01-29 00:17:33.38	157.93	3.16	-47.0	-59.1	3.9	1.50e+00	0	32	104	0	60	32773
2026-01-29 00:17:34.39	157.94	3.23	-46.8	-55.8	4.7	1.14e+00	92	32	0	1048576	60	22342
2026-01-29 00:17:35.40	157.95	3.30	-46.3	-52.9	7.2	1.50e-01	91	32	0	2097152	60	16026
2026-01-29 00:17:36.41	157.95	3.36	-46.0	-51.7	9.3	6.09e-02	92	32	0	4194304	60	13841
2026-01-29 00:17:37.42	157.96	3.43	-45.3	-49.9	11.5	4.16e-03	92	32	0	6291456	60	11264
2026-01-29 00:17:38.42	157.96	3.50	-44.8	-48.7	12.6	1.72e-04	92	32	0	8388608	60	9859
2026-01-29 00:17:39.43	157.97	3.57	-44.0	-47.0	14.4	1.50e-06	92	32	0	9437184	60	8114
2026-01-29 00:17:40.44	157.97	3.64	-43.3	-45.9	15.4	7.00e-07	6	32	0	11534336	60	7145
2026-01-29 00:17:41.45	157.98	3.71	-42.8	-45.2	16.2	0.00e+00	92	32	0	13631488	60	6551
2026-01-29 00:17:42.46	157.99	3.78	-42.7	-44.9	16.3	0.00e+00	0	32	0	15728640	58	7167
2026-01-29 00:17:43.47	157.99	3.84	-42.5	-44.7	16.6	0.00e+00	92	32	0	17825792	58	6987
2026-01-29 00:17:44.48	158.00	3.91	-43.9	-47.0	12.6	0.00e+00	92	32	0	19922944	58	9101
2026-01-29 00:17:45.49	158.00	3.98	-43.1	-45.2	16.9	3.43e-01	92	32	0	20971520	60	6596
2026-01-29 00:17:46.50	158.01	4.05	-42.8	-45.1	15.6	0.00e+00	90	32	0	23068672	58	7329
2026-01-29 00:17:47.51	158.02	4.12	-45.7	-50.3	10.3	3.07e-01	50	32	0	25165824	60	11894
2026-01-29 00:17:48.52	158.02	4.19	-42.8	-45.1	15.8	6.88e-03	92	32	0	27262976	60	6468
2026-01-29 00:17:49.53	158.03	4.26	-44.9	-49.0	13.3	1.25e+00	0	32	104	27262976	60	10197
2026-01-29 00:17:50.54	158.03	4.33	-43.2	-45.6	15.9	0.00e+00	92	32	0	28311552	60	6877
2026-01-29 00:17:51.55	158.04	4.41	-42.1	-44.1	17.3	0.00e+00	92	32	0	29360128	58	6476
2026-01-29 00:17:52.56	158.05	4.48	-41.8	-43.6	18.0	0.00e+00	92	32	0	31457280	58	6113
2026-01-29 00:17:53.57	158.05	4.55	-41.5	-43.2	18.1	0.00e+00	92	32	0	33554432	56	6592
2026-01-29 00:17:54.58	158.06	4.62	-41.9	-43.7	18.0	0.00e+00	46	32	0	35651584	56	6955
2026-01-29 00:17:55.59	158.06	4.69	-42.1	-43.9	17.7	0.00e+00	90	32	0	37748736	56	7160
2026-01-29 00:17:56.60	158.07	4.76	-41.7	-43.5	18.1	0.00e+00	11	32	0	38797312	56	6817
2026-01-29 00:17:57.61	158.08	4.83	-41.7	-43.5	18.1	0.00e+00	92	32	0	40894464	56	6820
2026-01-29 00:17:58.62	158.08	4.91	-41.7	-43.4	18.3	0.00e+00	91	32	0	42991616	56	6761
2026-01-29 00:17:59.63	158.09	4.98	-41.6	-43.3	18.3	0.00e+00	90	32	0	45088768	56	6676
2026-01-29 00:18:00.64	158.09	5.05	-41.3	-43.0	18.7	0.00e+00	92	32	0	47185920	56	6405
2026-01-29 00:18:01.65	158.10	5.12	-41.8	-43.6	18.2	0.00e+00	90	32	0	48234496	56	6870
2026-01-29 00:18:02.66	158.11	5.20	-41.8	-43.6	18.2	0.00e+00	90	32	0	50331648	56	6858
2026-01-29 00:18:03.67	158.11	5.27	-41.8	-43.6	18.0	0.00e+00	0	32	0	52428800	56	6886
2026-01-29 00:18:04.68	158.12	5.34	-41.9	-43.7	18.0	0.00e+00	91	32	0	54525952	56	6974
2026-01-29 00:18:05.69	158.13	5.41	-41.4	-43.1	18.7	0.00e+00	52	32	0	56623104	56	6493
2026-01-29 00:18:06.70	158.13	5.49	-41.3	-43.0	18.7	0.00e+00	91	32	0	57671680	56	6392
2026-01-29 00:18:07.71	158.14	5.56	-41.5	-43.2	18.5	0.00e+00	91	32	0	59768832	56	6594
2026-01-29 00:18:08.71	158.14	5.64	-41.4	-43.0	18.7	0.00e+00	92	32	0	61865984	56	6457
2026-01-29 00:18:09.72	158.15	5.71	-41.2	-42.8	18.8	0.00e+00	92	32	0	63963136	56	6312
2026-01-29 00:18:10.73	158.16	5.78	-41.5	-43.1	18.6	0.00e+00	0	32	0	66060288	56	6518
2026-01-29 00:18:11.74	158.16	5.86	-41.2	-42.7	18.9	0.00e+00	92	32	0	67108864	56	6223
2026-01-29 00:18:12.75	158.17	5.93	-41.5	-43.2	18.5	0.00e+00	40	32	0	69206016	56	6565
2026-01-29 00:18:13.76	158.18	6.01	-41.3	-42.9	19.0	0.00e+00	92	32	0	71303168	56	6345
2026-01-29 00:18:14.77	158.18	6.08	-41.2	-42.7	19.1	0.00e+00	92	32	0	73400320	56	6218
2026-01-29 00:18:15.78	158.19	6.16	-41.1	-42.7	19.1	0.00e+00	92	32	0	75497472	56	6190
2026-01-29 00:18:16.79	158.20	6.24	-41.2	-42.8	19.0	0.00e+00	92	32	0	76546048	56	6265
2026-01-29 00:18:17.80	158.20	6.31	-41.3	-42.9	18.9	0.00e+00	92	32	0	78643200	56	6366
2026-01-29 00:18:18.81	158.21	6.39	-41.5	-43.1	18.7	0.00e+00	90	32	0	80740352	56	6496
2026-01-29 00:18:19.82	158.21	6.46	-41.3	-42.9	19.0	0.00e+00	4	32	0	82837504	56	6326
2026-01-29 00:18:20.82	158.22	6.54	-41.3	-42.9	19.0	0.00e+00	90	32	0	84934656	56	6366
2026-01-29 00:18:21.83	158.23	6.62	-41.1	-42.6	19.3	0.00e+00	45	32	0	85983232	56	6123
2026-01-29 00:18:22.84	158.23	6.69	-41.0	-42.5	19.4	0.00e+00	92	32	0	88080384	56	6091
2026-01-29 00:18:23.85	158.24	6.77	-41.1	-42.6	19.4	0.00e+00	92	32	0	90177536	56	6108
2026-01-29 00:18:24.86	158.25	6.85	-40.9	-42.4	19.5	0.00e+00	92	32	0	92274688	56	5979
2026-01-29 00:18:25.87	158.25	6.93	-41.0	-42.5	19.4	0.00e+00	92	32	0	94371840	56	6081
2026-01-29 00:18:26.88	158.26	7.01	-41.1	-42.6	19.3	0.00e+00	7	32	0	95420416	56	6120
2026-01-29 00:18:27.89	158.27	7.08	-41.0	-42.5	19.4	0.00e+00	90	32	0	97517568	56	6076
2026-01-29 00:18:28.90	158.27	7.16	-40.8	-42.3	19.6	0.00e+00	0	32	0	99614720	56	5910
2026-01-29 00:18:29.90	158.28	7.24	-40.8	-42.2	19.7	0.00e+00	90	32	0	101711872	56	5876
2026-01-29 00:18:30.91	158.29	7.32	-40.9	-42.4	19.4	0.00e+00	92	32	0	103809024	54	6723
2026-01-29 00:18:31.92	158.29	7.40	-40.9	-42.4	19.5	0.00e+00	92	32	0	104857600	54	6710
2026-01-29 00:18:32.93	158.30	7.48	-40.8	-42.3	19.5	0.00e+00	92	32	0	106954752	54	6637
2026-01-29 00:18:33.94	158.31	7.56	-40.9	-42.3	19.6	0.00e+00	47	32	0	109051904	54	6657
2026-01-29 00:18:34.95	158.31	7.64	-41.0	-42.5	19.4	0.00e+00	92	32	0	111149056	54	6808
2026-01-29 00:18:35.96	158.32	7.72	-40.7	-42.1	19.8	0.00e+00	33	32	0	113246208	54	6484
2026-01-29 00:18:36.97	158.33	7.80	-40.8	-42.3	19.7	0.00e+00	92	32	0	115343360	54	6642
2026-01-29 00:18:37.98	158.33	7.88	-40.6	-42.0	19.8	0.00e+00	77	32	0	116391936	54	6415
2026-01-29 00:18:38.99	158.34	7.96	-40.7	-42.1	19.8	0.00e+00	92	32	0	118489088	54	6526
2026-01-29 00:18:40.00	158.35	8.04	-40.6	-42.0	19.9	0.00e+00	92	32	0	120586240	54	6406
2026-01-29 00:18:41.01	158.35	8.12	-40.6	-42.0	19.9	0.00e+00	90	32	0	122683392	54	6435
2026-01-29 00:18:42.02	158.36	8.21	-40.8	-42.2	19.7	0.00e+00	91	32	0	124780544	54	6601
2026-01-29 00:18:43.03	158.37	8.29	-40.6	-41.9	20.0	0.00e+00	0	32	0	125829120	54	6387
2026-01-29 00:18:44.04	158.38	8.37	-40.4	-41.8	20.1	0.00e+00	92	32	0	127926272	54	6261
2026-01-29 00:18:45.05	158.38	8.45	-40.4	-41.8	20.2	0.00e+00	80	32	0	130023424	54	6250
2026-01-29 00:18:46.06	158.39	8.54	-40.6	-42.0	20.0	0.00e+00	92	32	0	132120576	54	6431
2026-01-29 00:18:47.06	158.40	8.62	-40.5	-41.9	20.1	0.00e+00	92	32	0	134217728	54	6329
2026-01-29 00:18:48.07	158.40	8.70	-40.5	-41.8	20.1	0.00e+00	92	32	0	135266304	54	6277
2026-01-29 00:18:49.08	158.41	8.78	-40.3	-41.7	20.2	0.00e+00	92	32	0	137363456	54	6182
2026-01-29 00:18:50.09	158.42	8.87	-40.4	-41.7	20.2	0.00e+00	0	32	0	139460608	54	6244
2026-01-29 00:18:51.10	158.42	8.95	-40.4	-41.7	20.2	0.00e+00	90	32	0	141557760	54	6184
2026-01-29 00:18:52.11	158.43	9.04	-40.3	-41.6	20.4	0.00e+00	0	32	0	143654912	54	6166
2026-01-29 00:18:53.12	158.44	9.12	-40.4	-41.8	20.2	0.00e+00	92	32	0	144703488	54	6265
2026-01-29 00:18:54.13	158.45	9.21	-40.3	-41.6	20.4	0.00e+00	90	32	0	146800640	54	6140
2026-01-29 00:18:55.14	158.45	9.29	-40.5	-41.8	20.2	0.00e+00	91	32	0	148897792	54	6274
2026-01-29 00:18:56.15	158.46	9.38	-40.3	-41.6	20.4	0.00e+00	92	32	0	150994944	54	6121
2026-01-29 00:18:57.16	158.47	9.46	-40.3	-41.6	20.4	0.00e+00	90	32	0	153092096	54	6160
2026-01-29 00:18:58.17	158.47	9.55	-40.2	-41.5	20.5	0.00e+00	92	32	0	154140672	54	6064
2026-01-29 00:18:59.18	158.48	9.64	-40.4	-41.6	20.4	0.00e+00	7	32	0	156237824	54	6172
2026-01-29 00:19:00.18	158.49	9.72	-40.3	-41.6	20.5	0.00e+00	92	32	0	158334976	54	6105
2026-01-29 00:19:01.20	158.50	9.81	-40.0	-41.3	20.7	0.00e+00	90	32	0	160432128	54	5915
2026-01-29 00:19:02.20	158.50	9.90	-40.0	-41.3	20.7	0.00e+00	92	32	0	162529280	54	5906
2026-01-29 00:19:03.22	158.51	9.99	-40.1	-41.4	20.8	0.00e+00	92	32	0	163577856	54	5967
2026-01-29 00:19:04.22	158.52	10.07	-40.1	-41.4	20.6	0.00e+00	91	32	0	165675008	54	6009
2026-01-29 00:19:05.23	158.53	10.16	-40.2	-41.5	20.6	0.00e+00	92	32	0	167772160	54	6055
2026-01-29 00:19:06.24	158.53	10.25	-40.2	-41.4	20.7	0.00e+00	8	32	0	169869312	54	6020
2026-01-29 00:19:07.25	158.54	10.34	-40.2	-41.4	20.7	0.00e+00	92	32	0	171966464	54	6012
2026-01-29 00:19:08.25	158.55	10.43	-40.0	-41.2	20.9	0.00e+00	37	32	0	173015040	54	5876
2026-01-29 00:19:09.26	158.56	10.52	-40.0	-41.3	20.8	0.00e+00	90	32	0	175112192	54	5915
2026-01-29 00:19:10.27	158.56	10.61	-39.9	-41.1	21.0	0.00e+00	92	32	0	177209344	54	5805
2026-01-29 00:19:11.28	158.57	10.70	-40.0	-41.2	20.8	0.00e+00	90	32	0	179306496	54	5878
2026-01-29 00:19:12.28	158.58	10.79	-39.9	-41.1	20.9	0.00e+00	91	32	0	181403648	54	5822
2026-01-29 00:19:13.29	158.59	10.88	-39.9	-41.1	21.0	0.00e+00	0	32	0	183500800	54	5823
2026-01-29 00:19:14.30	158.59	10.97	-40.0	-41.2	20.9	0.00e+00	92	32	0	184549376	54	5854
2026-01-29 00:19:15.31	158.60	11.06	-39.9	-41.1	21.0	0.00e+00	0	32	0	186646528	54	5807
2026-01-29 00:19:16.32	158.61	11.16	-40.0	-41.2	20.9	0.00e+00	92	32	0	188743680	54	5860
2026-01-29 00:19:17.33	158.62	11.25	-39.8	-41.0	21.1	0.00e+00	92	32	0	190840832	54	5721
2026-01-29 00:19:18.34	158.62	11.34	-39.7	-40.9	21.2	0.00e+00	92	32	0	192937984	52	6332
2026-01-29 00:19:19.35	158.63	11.44	-39.7	-40.9	21.2	0.00e+00	90	32	0	193986560	52	6345
2026-01-29 00:19:20.36	158.64	11.53	-39.9	-41.1	21.1	0.00e+00	91	32	0	196083712	52	6480
2026-01-29 00:19:21.37	158.65	11.62	-39.6	-40.7	21.4	0.00e+00	90	32	0	198180864	52	6211
2026-01-29 00:19:22.38	158.66	11.72	-39.5	-40.7	21.4	0.00e+00	0	32	0	200278016	52	6196
2026-01-29 00:19:23.38	158.66	11.81	-39.8	-41.0	21.1	0.00e+00	92	32	0	201326592	52	6447
2026-01-29 00:19:24.40	158.67	11.91	-39.6	-40.8	21.4	0.00e+00	91	32	0	203423744	52	6270
2026-01-29 00:19:25.41	158.68	12.00	-39.4	-40.5	21.6	0.00e+00	92	32	0	205520896	52	6081
2026-01-29 00:19:26.42	158.69	12.10	-39.3	-40.5	21.6	0.00e+00	92	32	0	207618048	52	6034
2026-01-29 00:19:27.43	158.70	12.19	-39.4	-40.5	21.6	0.00e+00	92	32	0	209715200	52	6050
2026-01-29 00:19:28.44	158.70	12.29	-39.3	-40.4	21.7	0.00e+00	90	32	0	211812352	52	6000
2026-01-29 00:19:29.44	158.71	12.39	-39.3	-40.4	21.8	0.00e+00	0	32	0	212860928	52	5988
2026-01-29 00:19:30.45	158.72	12.48	-39.2	-40.3	21.8	0.00e+00	92	32	0	214958080	52	5926
2026-01-29 00:19:31.46	158.73	12.58	-39.2	-40.3	21.8	0.00e+00	16	32	0	217055232	52	5928
2026-01-29 00:19:32.47	158.74	12.68	-39.3	-40.4	21.8	0.00e+00	90	32	0	219152384	52	6008
2026-01-29 00:19:33.48	158.74	12.78	-39.1	-40.2	21.9	0.00e+00	92	32	0	221249536	52	5838
2026-01-29 00:19:34.49	158.75	12.88	-39.0	-40.0	22.1	0.00e+00	92	32	0	222298112	52	5747
2026-01-29 00:19:35.50	158.76	12.98	-38.9	-40.0	22.1	0.00e+00	90	32	0	224395264	52	5718
2026-01-29 00:19:36.51	158.77	13.08	-38.9	-39.9	22.2	0.00e+00	92	32	0	226492416	52	5666
2026-01-29 00:19:37.52	158.78	13.18	-39.0	-40.0	22.2	0.00e+00	90	32	0	228589568	52	5753
2026-01-29 00:19:38.53	158.79	13.28	-39.0	-40.0	22.1	0.00e+00	0	32	0	230686720	52	5734
2026-01-29 00:19:39.54	158.79	13.38	-38.7	-39.7	22.3	0.00e+00	92	32	0	231735296	50	6223
2026-01-29 00:19:40.55	158.80	13.48	-38.8	-39.8	22.3	0.00e+00	92	32	0	233832448	50	6296
2026-01-29 00:19:41.56	158.81	13.58	-38.8	-39.8	22.3	0.00e+00	92	32	0	235929600	50	6302
2026-01-29 00:19:42.57	158.82	13.68	-38.9	-39.9	22.2	0.00e+00	90	32	0	238026752	50	6352
2026-01-29 00:19:43.58	158.83	13.79	-38.8	-39.8	22.4	0.00e+00	92	32	0	240123904	50	6264
2026-01-29 00:19:44.59	158.84	13.89	-38.7	-39.8	22.4	0.00e+00	90	32	0	241172480	50	6249
2026-01-29 00:19:45.60	158.84	13.99	-38.9	-39.9	22.2	0.00e+00	0	32	0	243269632	50	6379
2026-01-29 00:19:46.61	158.85	14.10	-38.9	-40.0	22.2	0.00e+00	91	32	0	245366784	50	6411
2026-01-29 00:19:47.61	158.86	14.20	-38.7	-39.7	22.5	0.00e+00	27	32	0	247463936	50	6220
2026-01-29 00:19:48.62	158.87	14.30	-38.5	-39.5	22.6	0.00e+00	92	32	0	249561088	50	6089
2026-01-29 00:19:49.64	158.88	14.41	-38.6	-39.6	22.5	0.00e+00	90	32	0	250609664	50	6131
2026-01-29 00:19:50.64	158.89	14.51	-38.5	-39.5	22.6	0.00e+00	92	32	0	252706816	50	6069
2026-01-29 00:19:51.65	158.90	14.62	-38.4	-39.4	22.7	0.00e+00	92	32	0	254803968	50	6008
2026-01-29 00:19:52.66	158.91	14.73	-38.5	-39.4	22.8	0.00e+00	0	32	0	256901120	50	6026
2026-01-29 00:19:53.67	158.91	14.83	-38.4	-39.4	22.8	0.00e+00	91	32	0	258998272	50	5974
2026-01-29 00:19:54.68	158.92	14.94	-38.4	-39.4	22.8	0.00e+00	0	32	0	260046848	50	5994
2026-01-29 00:19:55.69	158.93	15.05	-38.2	-39.2	23.0	0.00e+00	91	32	0	262144000	50	5851
2026-01-29 00:19:56.70	158.94	15.16	-38.2	-39.2	23.0	0.00e+00	90	32	0	264241152	50	5830
2026-01-29 00:19:57.71	158.95	15.27	-38.1	-39.0	23.1	0.00e+00	91	32	0	266338304	50	5738
2026-01-29 00:19:58.72	158.96	15.38	-38.2	-39.2	22.9	0.00e+00	90	32	0	268435456	50	5831
2026-01-29 00:19:59.73	158.97	15.49	-38.2	-39.2	22.9	0.00e+00	92	32	0	269484032	50	5871
2026-01-29 00:20:00.74	158.98	15.60	-38.1	-39.0	23.0	0.00e+00	90	32	0	271581184	50	5761
2026-01-29 00:20:01.75	158.99	15.71	-38.0	-39.0	23.1	0.00e+00	62	32	0	273678336	50	5698
2026-01-29 00:20:02.76	159.00	15.82	-37.9	-38.9	23.2	0.00e+00	92	32	0	275775488	50	5633
2026-01-29 00:20:03.77	159.01	15.93	-38.0	-38.9	23.1	0.00e+00	92	32	0	277872640	50	5681
2026-01-29 00:20:04.78	159.02	16.05	-38.0	-38.9	23.1	0.00e+00	92	32	0	279969792	50	5676
2026-01-29 00:20:05.79	159.03	16.16	-37.9	-38.9	23.2	0.00e+00	91	32	0	281018368	50	5649
2026-01-29 00:20:06.80	159.03	16.27	-37.9	-38.9	23.2	0.00e+00	90	32	0	283115520	50	5640
2026-01-29 00:20:07.80	159.04	16.39	-37.8	-38.7	23.4	0.00e+00	92	32	0	285212672	50	5521
2026-01-29 00:20:08.81	159.05	16.50	-37.7	-38.6	23.5	0.00e+00	34	32	0	287309824	48	6169
2026-01-29 00:20:09.82	159.06	16.62	-37.7	-38.7	23.4	0.00e+00	92	32	0	289406976	48	6175
2026-01-29 00:20:10.83	159.07	16.73	-37.8	-38.7	23.5	0.00e+00	92	32	0	290455552	48	6190
2026-01-29 00:20:11.84	159.08	16.85	-37.7	-38.6	23.5	0.00e+00	92	32	0	292552704	48	6127
2026-01-29 00:20:12.85	159.09	16.96	-37.7	-38.6	23.5	0.00e+00	92	32	0	294649856	48	6173
2026-01-29 00:20:13.86	159.10	17.08	-37.7	-38.6	23.6	0.00e+00	92	32	0	296747008	48	6118
2026-01-29 00:20:14.87	159.11	17.20	-37.6	-38.5	23.5	0.00e+00	90	32	0	298844160	48	6067
2026-01-29 00:20:15.88	159.12	17.32	-37.6	-38.5	23.7	0.00e+00	28	32	0	299892736	48	6049
2026-01-29 00:20:16.89	159.13	17.44	-37.7	-38.6	23.5	0.00e+00	92	32	0	301989888	48	6111
2026-01-29 00:20:17.90	159.14	17.56	-37.6	-38.5	23.6	0.00e+00	56	32	0	304087040	48	6071
2026-01-29 00:20:18.91	159.15	17.68	-37.5	-38.4	23.7	0.00e+00	90	32	0	306184192	48	5997
2026-01-29 00:20:19.92	159.16	17.80	-37.4	-38.3	23.7	0.00e+00	92	32	0	308281344	48	5940
2026-01-29 00:20:20.93	159.17	17.92	-37.4	-38.3	23.8	0.00e+00	92	32	0	309329920	48	5931
2026-01-29 00:20:21.94	159.18	18.04	-37.4	-38.3	23.7	0.00e+00	92	32	0	311427072	48	5936
2026-01-29 00:20:22.94	159.19	18.16	-37.5	-38.4	23.7	0.00e+00	91	32	0	313524224	48	5992
2026-01-29 00:20:23.95	159.20	18.29	-37.4	-38.3	23.8	0.00e+00	90	32	0	315621376	48	5932
2026-01-29 00:20:24.96	159.21	18.41	-37.4	-38.3	23.8	0.00e+00	36	32	0	317718528	48	5946
2026-01-29 00:20:25.97	159.22	18.54	-37.3	-38.2	23.8	0.00e+00	90	32	0	318767104	48	5869
2026-01-29 00:20:26.98	159.23	18.66	-37.2	-38.1	23.9	0.00e+00	92	32	0	320864256	48	5796
2026-01-29 00:20:27.99	159.25	18.79	-37.3	-38.1	23.9	0.00e+00	92	32	0	322961408	48	5826
2026-01-29 00:20:29.00	159.26	18.91	-37.2	-38.1	24.0	0.00e+00	91	32	0	325058560	48	5777
2026-01-29 00:20:30.01	159.27	19.04	-37.2	-38.1	24.0	0.00e+00	90	32	0	327155712	48	5766
2026-01-29 00:20:31.02	159.28	19.17	-37.2	-38.1	24.0	0.00e+00	90	32	0	328204288	48	5796
2026-01-29 00:20:32.03	159.29	19.30	-37.2	-38.1	24.0	0.00e+00	76	32	0	330301440	48	5771
2026-01-29 00:20:33.04	159.30	19.43	-37.2	-38.0	24.1	0.00e+00	91	32	0	332398592	48	5740
2026-01-29 00:20:34.05	159.31	19.56	-37.1	-37.9	24.1	0.00e+00	89	32	0	334495744	48	5671
2026-01-29 00:20:35.06	159.32	19.69	-37.1	-37.9	24.1	0.00e+00	92	32	0	336592896	48	5676
2026-01-29 00:20:36.07	159.33	19.82	-37.0	-37.9	24.2	0.00e+00	92	32	0	337641472	48	5652
2026-01-29 00:20:37.08	159.34	19.95	-37.0	-37.9	24.1	0.00e+00	92	32	0	339738624	48	5647
2026-01-29 00:20:38.09	159.35	20.08	-37.0	-37.8	24.2	0.00e+00	92	32	0	341835776	48	5607
2026-01-29 00:20:39.10	159.37	20.22	-37.2	-38.1	24.0	0.00e+00	92	32	0	343932928	48	5772
2026-01-29 00:20:40.11	159.38	20.35	-37.0	-37.8	24.2	0.00e+00	92	32	0	346030080	48	5614
2026-01-29 00:20:41.12	159.39	20.48	-37.2	-38.0	24.1	0.00e+00	0	32	0	348127232	48	5751
2026-01-29 00:20:42.13	159.40	20.62	-37.0	-37.8	24.2	0.00e+00	92	32	0	349175808	48	5629
2026-01-29 00:20:43.14	159.41	20.76	-37.2	-38.0	24.1	0.00e+00	92	32	0	351272960	48	5741
2026-01-29 00:20:44.15	159.42	20.89	-37.0	-37.8	24.2	0.00e+00	92	32	0	353370112	48	5617
2026-01-29 00:20:45.16	159.43	21.03	-37.2	-38.1	24.0	0.00e+00	92	32	0	355467264	48	5767
2026-01-29 00:20:46.17	159.45	21.17	-37.0	-37.8	24.2	0.00e+00	92	32	0	357564416	48	5615
2026-01-29 00:20:47.18	159.46	21.31	-37.0	-37.9	24.2	0.00e+00	91	32	0	358612992	48	5639
2026-01-29 00:20:48.19	159.47	21.45	-36.9	-37.7	24.3	0.00e+00	30	32	0	360710144	48	5563
2026-01-29 00:20:49.20	159.48	21.59	-37.0	-37.9	24.2	0.00e+00	92	32	0	362807296	48	5660
2026-01-29 00:20:50.20	159.49	21.73	-37.0	-37.8	24.3	0.00e+00	92	32	0	364904448	48	5616
2026-01-29 00:20:51.21	159.51	21.87	-37.0	-37.9	24.2	0.00e+00	92	32	0	367001600	48	5640
2026-01-29 00:20:52.22	159.52	22.01	-37.0	-37.8	24.3	0.00e+00	92	32	0	368050176	48	5624
2026-01-29 00:20:53.23	159.53	22.16	-37.1	-38.0	24.1	0.00e+00	92	32	0	370147328	48	5710
2026-01-29 00:20:54.24	159.54	22.30	-37.0	-37.8	24.3	0.00e+00	92	32	0	372244480	48	5598
2026-01-29 00:20:55.25	159.56	22.45	-37.0	-37.8	24.3	0.00e+00	92	32	0	374341632	48	5612
2026-01-29 00:20:56.26	159.57	22.60	-37.0	-37.8	24.3	0.00e+00	92	32	0	376438784	48	5615
2026-01-29 00:20:57.27	159.58	22.74	-37.0	-37.9	24.3	0.00e+00	74	32	0	377487360	48	5655
2026-01-29 00:20:58.27	159.59	22.89	-37.0	-37.9	24.2	0.00e+00	92	32	0	379584512	48	5647
2026-01-29 00:20:59.28	159.61	23.04	-37.0	-37.9	24.2	0.00e+00	92	32	0	381681664	48	5658
2026-01-29 00:21:00.29	159.62	23.19	-37.1	-37.9	24.3	0.00e+00	92	32	0	383778816	48	5663
2026-01-29 00:21:01.30	159.63	23.34	-37.0	-37.8	24.3	0.00e+00	92	32	0	385875968	48	5615
2026-01-29 00:21:02.31	159.65	23.49	-37.0	-37.8	24.3	0.00e+00	90	32	0	386924544	48	5603
2026-01-29 00:21:03.32	159.66	23.64	-37.2	-38.0	24.1	0.00e+00	92	32	0	389021696	48	5741
2026-01-29 00:21:04.33	159.67	23.80	-37.2	-38.0	24.1	0.00e+00	0	32	0	391118848	48	5732
2026-01-29 00:21:05.34	159.69	23.95	-37.2	-38.1	24.1	0.00e+00	90	32	0	393216000	48	5798
2026-01-29 00:21:06.35	159.70	24.11	-37.2	-38.0	24.1	0.00e+00	92	32	0	395313152	48	5752
2026-01-29 00:21:07.36	159.71	24.26	-37.1	-37.9	24.2	0.00e+00	90	32	0	396361728	48	5682
2026-01-29 00:21:08.37	159.73	24.42	-37.1	-37.9	24.2	0.00e+00	92	32	0	398458880	48	5687
2026-01-29 00:21:09.38	159.74	24.58	-37.1	-37.9	24.3	0.00e+00	90	32	0	400556032	48	5681
2026-01-29 00:21:10.39	159.75	24.74	-37.1	-38.0	24.1	0.00e+00	92	32	0	402653184	48	5719
2026-01-29 00:21:11.40	159.77	24.90	-37.2	-38.0	24.1	0.00e+00	73	32	0	404750336	48	5743
2026-01-29 00:21:12.41	159.78	25.06	-37.3	-38.1	24.1	0.00e+00	91	32	0	405798912	48	5823
2026-01-29 00:21:13.42	159.80	25.22	-37.3	-38.2	24.0	0.00e+00	91	32	0	407896064	48	5856
2026-01-29 00:21:14.43	159.81	25.38	-37.5	-38.4	23.9	0.00e+00	91	32	0	409993216	48	6006
2026-01-29 00:21:15.44	159.82	25.55	-37.3	-38.2	24.0	0.00e+00	90	32	0	412090368	48	5845
2026-01-29 00:21:16.44	159.84	25.71	-37.4	-38.3	24.0	0.00e+00	92	32	0	414187520	48	5902
2026-01-29 00:21:17.46	159.85	25.88	-37.5	-38.4	23.9	0.00e+00	92	32	0	416284672	48	5995
2026-01-29 00:21:18.46	159.87	26.04	-37.4	-38.3	24.0	0.00e+00	91	32	0	417333248	48	5925
2026-01-29 00:21:19.47	159.88	26.21	-37.6	-38.4	23.9	0.00e+00	91	32	0	419430400	48	6025
2026-01-29 00:21:20.48	159.90	26.38	-37.7	-38.6	23.8	0.00e+00	30	32	0	421527552	48	6120
2026-01-29 00:21:21.49	159.91	26.55	-37.8	-38.7	23.7	0.00e+00	91	32	0	423624704	48	6174
2026-01-29 00:21:22.50	159.93	26.72	-37.9	-38.8	23.6	0.00e+00	90	32	0	425721856	48	6257
2026-01-29 00:21:23.51	159.94	26.89	-38.2	-39.1	23.4	0.00e+00	92	32	0	426770432	48	6484
2026-01-29 00:21:24.52	159.96	27.07	-38.1	-39.0	23.4	0.00e+00	92	32	0	428867584	48	6436
2026-01-29 00:21:25.53	159.98	27.24	-38.3	-39.2	23.2	0.00e+00	65	32	0	430964736	48	6561
2026-01-29 00:21:26.54	159.99	27.42	-38.4	-39.3	23.1	0.00e+00	92	32	0	433061888	48	6677
2026-01-29 00:21:27.54	160.01	27.59	-38.4	-39.4	22.9	0.00e+00	39	32	0	435159040	48	6710
2026-01-29 00:21:28.55	160.02	27.77	-38.7	-39.7	22.8	0.00e+00	90	32	0	436207616	48	6996
2026-01-29 00:21:29.56	160.04	27.95	-38.8	-39.8	22.7	0.00e+00	92	32	0	438304768	50	6289
2026-01-29 00:21:30.57	160.06	28.13	-39.0	-40.0	22.6	0.00e+00	90	32	0	440401920	50	6422
2026-01-29 00:21:31.58	160.07	28.31	-39.4	-40.5	22.1	0.00e+00	92	32	0	442499072	50	6792
2026-01-29 00:21:32.59	160.09	28.49	-39.4	-40.5	22.1	0.00e+00	70	32	0	444596224	50	6784
2026-01-29 00:21:33.60	160.11	28.68	-39.6	-40.7	21.9	0.00e+00	86	32	0	445644800	50	6972
2026-01-29 00:21:34.61	160.12	28.86	-39.8	-40.8	21.9	0.00e+00	7	32	0	447741952	50	7082
2026-01-29 00:21:35.62	160.14	29.05	-39.8	-40.9	21.7	0.00e+00	92	32	0	449839104	52	6378
2026-01-29 00:21:36.63	160.16	29.24	-40.0	-41.1	21.4	0.00e+00	42	32	0	451936256	52	6539
2026-01-29 00:21:37.64	160.17	29.42	-40.1	-41.3	21.4	0.00e+00	92	32	0	454033408	52	6626
2026-01-29 00:21:38.65	160.19	29.61	-40.2	-41.3	21.3	0.00e+00	92	32	0	455081984	52	6658
2026-01-29 00:21:39.65	160.21	29.80	-40.4	-41.5	21.1	0.00e+00	54	32	0	457179136	52	6841
2026-01-29 00:21:40.66	160.23	30.00	-40.2	-41.4	21.2	0.00e+00	90	32	0	459276288	52	6741
2026-01-29 00:21:41.67	160.25	30.19	-40.3	-41.5	21.2	0.00e+00	0	32	0	461373440	52	6810
2026-01-29 00:21:42.68	160.26	30.38	-40.3	-41.5	21.2	0.00e+00	92	32	0	463470592	52	6811
2026-01-29 00:21:43.69	160.28	30.58	-40.5	-41.7	21.0	0.00e+00	3	32	0	464519168	52	6934
2026-01-29 00:21:44.71	160.30	30.78	-40.4	-41.5	21.2	0.00e+00	90	32	0	466616320	52	6847
2026-01-29 00:21:45.71	160.32	30.98	-40.5	-41.7	21.1	0.00e+00	92	32	0	468713472	52	6937
2026-01-29 00:21:46.72	160.34	31.18	-40.4	-41.6	21.1	0.00e+00	92	32	0	470810624	52	6909
2026-01-29 00:21:47.73	160.36	31.38	-40.5	-41.8	21.0	0.00e+00	92	32	0	472907776	52	7009
2026-01-29 00:21:48.74	160.38	31.58	-40.6	-41.8	21.0	0.00e+00	57	32	0	473956352	52	7039
2026-01-29 00:21:49.75	160.40	31.79	-40.6	-41.8	20.9	0.00e+00	92	32	0	476053504	52	7073
2026-01-29 00:21:50.77	160.42	32.00	-40.7	-41.9	20.8	0.00e+00	56	32	0	478150656	52	7142
2026-01-29 00:21:51.78	160.44	32.20	-40.7	-41.9	20.9	0.00e+00	91	32	0	480247808	52	7145
2026-01-29 00:21:52.78	160.46	32.41	-40.5	-41.7	21.1	0.00e+00	91	32	0	482344960	52	6956
2026-01-29 00:21:53.79	160.48	32.62	-40.7	-41.9	20.9	0.00e+00	91	32	0	484442112	52	7123
2026-01-29 00:21:54.81	160.50	32.84	-40.4	-41.7	21.0	0.00e+00	91	32	0	485490688	52	6930
2026-01-29 00:21:55.82	160.52	33.05	-40.4	-41.6	21.1	0.00e+00	7	32	0	487587840	52	6907
2026-01-29 00:21:56.82	160.54	33.26	-40.0	-41.1	21.6	0.00e+00	91	32	0	489684992	52	6483
2026-01-29 00:21:57.83	160.56	33.48	-39.6	-40.7	22.0	0.00e+00	42	32	0	491782144	52	6178
2026-01-29 00:21:58.84	160.58	33.70	-39.1	-40.1	22.4	0.00e+00	92	32	0	493879296	52	5825
2026-01-29 00:21:59.85	160.60	33.92	-38.8	-39.8	22.7	0.00e+00	90	32	0	494927872	52	5602
2026-01-29 00:22:00.86	160.63	34.14	-38.7	-39.6	22.9	0.00e+00	92	32	0	497025024	50	6162
2026-01-29 00:22:01.87	160.65	34.36	-38.3	-39.3	23.2	0.00e+00	92	32	0	499122176	50	5904
2026-01-29 00:22:02.88	160.67	34.59	-38.0	-38.9	23.5	0.00e+00	92	32	0	501219328	50	5673
2026-01-29 00:22:03.89	160.69	34.81	-37.8	-38.7	23.8	0.00e+00	92	32	0	503316480	50	5539
2026-01-29 00:22:04.90	160.72	35.04	-37.7	-38.5	23.9	0.00e+00	56	32	0	504365056	48	6093
2026-01-29 00:22:05.91	160.74	35.27	-37.5	-38.3	24.0	0.00e+00	91	32	0	506462208	48	5954
2026-01-29 00:22:06.92	160.76	35.50	-37.4	-38.3	24.1	0.00e+00	52	32	0	508559360	48	5906
2026-01-29 00:22:07.93	160.79	35.73	-37.3	-38.2	24.2	0.00e+00	91	32	0	510656512	48	5839
2026-01-29 00:22:08.93	160.81	35.96	-37.5	-38.3	24.0	0.00e+00	91	32	0	512753664	48	5947
2026-01-29 00:22:09.94	160.84	36.20	-37.4	-38.2	24.2	0.00e+00	90	32	0	513802240	48	5884
2026-01-29 00:22:10.95	160.86	36.44	-37.0	-37.8	24.5	0.00e+00	92	32	0	515899392	48	5617
2026-01-29 00:22:11.97	160.89	36.68	-36.9	-37.7	24.6	0.00e+00	32	32	0	517996544	48	5547
2026-01-29 00:22:12.98	160.91	36.92	-36.7	-37.6	24.7	0.00e+00	91	32	0	520093696	46	6117
2026-01-29 00:22:13.99	160.94	37.16	-36.4	-37.2	25.0	0.00e+00	0	32	0	522190848	46	5862
2026-01-29 00:22:15.00	160.96	37.41	-36.1	-36.9	25.3	0.00e+00	91	32	0	523239424	46	5632
2026-01-29 00:22:16.01	160.99	37.66	-36.0	-36.8	25.4	0.00e+00	92	32	0	525336576	46	5587
2026-01-29 00:22:17.01	161.02	37.90	-36.1	-36.9	25.3	0.00e+00	92	32	0	527433728	46	5641
2026-01-29 00:22:18.03	161.04	38.15	-35.8	-36.6	25.5	0.00e+00	90	32	0	529530880	46	5464
2026-01-29 00:22:19.04	161.07	38.41	-36.0	-36.8	25.3	0.00e+00	12	32	0	531628032	46	5580
2026-01-29 00:22:20.04	161.10	38.66	-36.0	-36.8	25.3	0.00e+00	92	32	0	532676608	46	5576
2026-01-29 00:22:21.05	161.13	38.91	-36.1	-36.8	25.3	0.00e+00	0	32	0	534773760	46	5615
2026-01-29 00:22:22.06	161.16	39.17	-36.2	-36.9	25.2	0.00e+00	92	32	0	536870912	46	5685
2026-01-29 00:22:23.07	161.18	39.43	-36.2	-36.9	25.2	0.00e+00	92	32	0	538968064	46	5679
2026-01-29 00:22:24.07	161.21	39.69	-36.0	-36.7	25.3	0.00e+00	92	32	0	541065216	46	5547
2026-01-29 00:22:25.08	161.24	39.95	-36.1	-36.9	25.3	0.00e+00	92	32	0	542113792	46	5637
2026-01-29 00:22:26.09	161.27	40.22	-35.6	-36.4	25.7	0.00e+00	92	32	0	544210944	44	5988
2026-01-29 00:22:27.10	161.30	40.49	-35.5	-36.2	25.8	0.00e+00	92	32	0	546308096	44	5884
2026-01-29 00:22:28.11	161.34	40.76	-35.4	-36.1	25.8	0.00e+00	60	32	0	548405248	44	5809
2026-01-29 00:22:29.12	161.37	41.03	-35.5	-36.2	25.8	0.00e+00	92	32	0	550502400	44	5887
2026-01-29 00:22:30.13	161.40	41.30	-35.5	-36.2	25.8	0.00e+00	0	32	0	551550976	44	5867
2026-01-29 00:22:31.14	161.43	41.58	-36.1	-36.9	25.3	0.00e+00	92	32	0	553648128	44	6320
2026-01-29 00:22:32.15	161.47	41.86	-36.4	-37.2	25.0	0.00e+00	92	32	0	555745280	44	6559
2026-01-29 00:22:33.16	161.50	42.14	-37.0	-37.9	24.4	0.00e+00	92	32	0	557842432	46	6338
2026-01-29 00:22:34.17	161.53	42.42	-37.0	-37.8	24.5	0.00e+00	92	32	0	559939584	46	6287
2026-01-29 00:22:35.18	161.57	42.70	-37.3	-38.1	24.3	0.00e+00	0	32	0	560988160	46	6500
2026-01-29 00:22:36.18	161.60	42.99	-37.1	-37.9	24.4	0.00e+00	92	32	0	563085312	46	6373
2026-01-29 00:22:37.19	161.64	43.28	-37.1	-37.9	24.6	0.00e+00	0	32	0	565182464	46	6343
2026-01-29 00:22:38.20	161.68	43.57	-37.1	-38.0	24.4	0.00e+00	92	32	0	567279616	46	6396
2026-01-29 00:22:39.21	161.71	43.86	-37.1	-37.9	24.5	0.00e+00	92	32	0	569376768	46	6359
2026-01-29 00:22:40.22	161.75	44.16	-37.2	-38.1	24.2	0.00e+00	91	32	0	570425344	46	6483
2026-01-29 00:22:41.24	161.79	44.46	-37.5	-38.4	24.0	0.00e+00	92	32	0	572522496	46	6694
2026-01-29 00:22:42.24	161.83	44.75	-37.9	-38.8	23.6	0.00e+00	79	32	0	574619648	48	6286
2026-01-29 00:22:43.26	161.87	45.06	-38.3	-39.2	23.2	0.00e+00	90	32	0	576716800	48	6610
2026-01-29 00:22:44.27	161.91	45.36	-38.4	-39.3	22.4	0.00e+00	7	32	0	578813952	48	6686
2026-01-29 00:22:45.28	161.95	45.67	-39.0	-40.0	22.6	0.00e+00	92	32	0	579862528	50	6420
2026-01-29 00:22:46.29	161.99	45.98	-39.3	-40.3	22.3	0.00e+00	92	32	0	581959680	50	6670
2026-01-29 00:22:47.30	162.03	46.29	-39.3	-40.4	22.3	0.00e+00	92	32	0	584056832	50	6706
2026-01-29 00:22:48.31	162.08	46.60	-39.3	-40.4	22.2	0.00e+00	92	32	0	586153984	50	6728
2026-01-29 00:22:49.32	162.12	46.92	-39.4	-40.4	22.2	0.00e+00	91	32	0	588251136	50	6742
2026-01-29 00:22:50.33	162.16	47.24	-39.4	-40.5	22.2	0.00e+00	92	32	0	590348288	50	6771
2026-01-29 00:22:51.34	162.21	47.56	-39.3	-40.3	22.3	0.00e+00	0	32	0	591396864	50	6668
2026-01-29 00:22:52.35	162.26	47.88	-39.5	-40.5	22.2	0.00e+00	92	32	0	593494016	50	6812
2026-01-29 00:22:53.36	162.30	48.21	-39.6	-40.7	21.9	0.00e+00	51	32	0	595591168	50	6978
2026-01-29 00:22:54.36	162.35	48.53	-39.9	-41.0	21.7	0.00e+00	92	32	0	597688320	52	6407
2026-01-29 00:22:55.37	162.40	48.86	-40.3	-41.5	21.2	0.00e+00	92	32	0	599785472	52	6781
2026-01-29 00:22:56.38	162.45	49.20	-40.2	-41.4	21.4	0.00e+00	92	32	0	600834048	52	6706
2026-01-29 00:22:57.39	162.50	49.53	-40.5	-41.7	21.2	0.00e+00	90	32	0	602931200	52	6971
2026-01-29 00:22:58.40	162.56	49.87	-40.2	-41.4	21.3	0.00e+00	12	32	0	605028352	52	6738
2026-01-29 00:22:59.41	162.61	50.21	-39.6	-40.7	22.0	0.00e+00	92	32	0	607125504	52	6176
2026-01-29 00:23:00.42	162.66	50.55	-39.3	-40.3	22.5	0.00e+00	22	32	0	609222656	52	5935
2026-01-29 00:23:01.43	162.72	50.90	-38.4	-39.3	23.2	0.00e+00	92	32	0	610271232	50	5947
2026-01-29 00:23:02.44	162.78	51.25	-37.4	-38.3	24.1	0.00e+00	92	32	0	612368384	48	5908
2026-01-29 00:23:03.45	162.84	51.60	-37.1	-38.0	24.4	0.00e+00	92	32	0	614465536	48	5715
2026-01-29 00:23:04.46	162.90	51.95	-36.9	-37.7	24.6	0.00e+00	92	32	0	616562688	48	5566
2026-01-29 00:23:05.47	162.96	52.31	-36.5	-37.3	24.8	0.00e+00	92	32	0	618659840	46	5940
2026-01-29 00:23:06.48	163.02	52.67	-36.0	-36.8	25.3	0.00e+00	95	32	0	619708416	46	5598
2026-01-29 00:23:07.49	163.08	53.03	-35.9	-36.6	25.4	0.00e+00	0	32	0	621805568	46	5500
2026-01-29 00:23:08.50	163.15	53.39	-35.9	-36.6	25.4	0.00e+00	92	32	0	623902720	44	6168
2026-01-29 00:23:09.51	163.22	53.76	-35.3	-36.0	25.9	0.00e+00	92	32	0	625999872	44	5751
2026-01-29 00:23:10.52	163.28	54.12	-35.2	-36.0	25.9	0.00e+00	91	32	0	628097024	44	5698
2026-01-29 00:23:11.53	163.35	54.50	-35.2	-35.9	25.9	0.00e+00	91	32	0	629145600	44	5680
2026-01-29 00:23:12.54	163.43	54.87	-35.6	-36.3	25.6	0.00e+00	91	32	0	631242752	44	5939
2026-01-29 00:23:13.55	163.50	55.25	-35.8	-36.6	25.4	0.00e+00	92	32	0	633339904	44	6126
2026-01-29 00:23:14.56	163.58	55.63	-36.0	-36.7	25.3	0.00e+00	25	32	0	635437056	44	6229
2026-01-29 00:23:15.57	163.65	56.01	-36.1	-36.9	25.3	0.00e+00	92	32	0	637534208	44	6327
2026-01-29 00:23:16.57	163.73	56.39	-36.1	-36.9	25.1	0.00e+00	0	32	0	638582784	44	6332
2026-01-29 00:23:17.58	163.81	56.78	-36.6	-37.5	24.8	0.00e+00	90	32	0	640679936	44	6770
2026-01-29 00:23:18.59	163.90	57.17	-37.0	-37.8	24.4	0.00e+00	91	32	0	642777088	46	6289
2026-01-29 00:23:19.60	163.98	57.56	-37.7	-38.6	23.8	0.00e+00	92	32	0	644874240	46	6856
2026-01-29 00:23:20.61	164.07	57.95	-38.3	-39.2	23.2	0.00e+00	90	32	0	646971392	48	6599
2026-01-29 00:23:21.62	164.17	58.35	-38.5	-39.4	23.0	0.00e+00	92	32	0	649068544	48	6761
2026-01-29 00:23:22.63	164.26	58.75	-38.5	-39.5	22.9	0.00e+00	92	32	0	650117120	48	6831
2026-01-29 00:23:23.64	164.36	59.15	-38.2	-39.1	23.5	0.00e+00	12	32	0	652214272	48	6502
2026-01-29 00:23:24.65	164.46	59.56	-37.1	-38.0	24.3	0.00e+00	92	32	0	654311424	48	5698
2026-01-29 00:23:25.66	164.56	59.97	-36.8	-37.6	24.6	0.00e+00	92	32	0	656408576	48	5478
2026-01-29 00:23:26.67	164.66	60.38	-36.4	-37.2	25.0	0.00e+00	90	32	0	658505728	46	5884
2026-01-29 00:23:27.68	164.77	60.79	-36.0	-36.7	25.4	0.00e+00	92	32	0	659554304	46	5547
2026-01-29 00:23:28.69	164.89	61.21	-35.3	-36.1	25.9	0.00e+00	92	32	0	661651456	44	5762
2026-01-29 00:23:29.70	165.00	61.62	-34.8	-35.5	26.2	0.00e+00	90	32	0	663748608	44	5399
2026-01-29 00:23:30.71	165.12	62.05	-34.4	-35.1	26.6	0.00e+00	0	32	0	665845760	42	5813
2026-01-29 00:23:31.72	165.25	62.47	-34.1	-34.8	26.7	0.00e+00	90	32	0	667942912	42	5589
2026-01-29 00:23:32.73	165.38	62.89	-34.0	-34.7	26.9	0.00e+00	92	32	0	668991488	42	5511
2026-01-29 00:23:33.74	165.51	63.32	-34.3	-35.0	26.7	0.00e+00	92	32	0	671088640	42	5723
2026-01-29 00:23:34.75	165.65	63.75	-35.3	-36.0	25.9	0.00e+00	92	32	0	673185792	42	6434
2026-01-29 00:23:35.76	165.79	64.19	-36.1	-36.9	25.2	0.00e+00	92	32	0	675282944	44	6356
2026-01-29 00:23:36.77	165.94	64.62	-37.0	-37.8	24.4	0.00e+00	92	32	0	677380096	46	6317
2026-01-29 00:23:37.78	166.10	65.06	-37.3	-38.1	24.3	0.00e+00	22	32	0	678428672	46	6509
2026-01-29 00:23:38.79	166.26	65.50	-37.4	-38.2	24.2	0.00e+00	92	32	0	680525824	46	6611
2026-01-29 00:23:39.80	166.42	65.94	-37.5	-38.4	23.9	0.00e+00	54	32	0	682622976	46	6739
2026-01-29 00:23:40.80	166.59	66.38	-37.7	-38.6	23.9	0.00e+00	92	32	0	684720128	46	6860
2026-01-29 00:23:41.81	166.78	66.83	-37.9	-38.8	23.6	0.00e+00	92	32	0	686817280	48	6285
2026-01-29 00:23:42.82	166.96	67.28	-38.3	-39.3	23.2	0.00e+00	92	32	0	687865856	48	6633
2026-01-29 00:23:43.83	167.16	67.73	-38.9	-39.9	22.7	0.00e+00	90	32	0	689963008	50	6340
2026-01-29 00:23:44.84	167.36	68.18	-39.0	-40.0	22.6	0.00e+00	0	32	0	692060160	50	6418
2026-01-29 00:23:45.85	167.58	68.64	-38.6	-39.5	23.0	0.00e+00	92	32	0	694157312	50	6102
2026-01-29 00:23:46.86	167.80	69.10	-38.5	-39.4	23.1	0.00e+00	7	32	0	696254464	50	6028
2026-01-29 00:23:47.87	168.04	69.56	-37.9	-38.8	23.6	0.00e+00	92	32	0	697303040	50	5614
2026-01-29 00:23:48.88	168.29	70.02	-37.5	-38.4	23.9	0.00e+00	90	32	0	699400192	48	6007
2026-01-29 00:23:49.88	168.54	70.48	-37.3	-38.1	24.2	0.00e+00	92	32	0	701497344	48	5799
2026-01-29 00:23:50.89	168.81	70.94	-37.3	-38.1	24.1	0.00e+00	92	32	0	703594496	48	5792
2026-01-29 00:23:51.90	169.10	71.41	-37.9	-38.7	23.7	0.00e+00	62	32	0	705691648	48	6244
2026-01-29 00:23:52.91	169.40	71.88	-38.3	-39.2	23.3	0.00e+00	92	32	0	706740224	48	6615
2026-01-29 00:23:53.92	169.72	72.35	-38.4	-39.3	23.2	0.00e+00	55	32	0	708837376	48	6690
2026-01-29 00:23:54.93	170.06	72.82	-38.6	-39.5	23.0	0.00e+00	91	32	0	710934528	48	6835
2026-01-29 00:23:55.94	170.41	73.29	-38.8	-39.7	22.8	0.00e+00	90	32	0	713031680	50	6241
2026-01-29 00:23:56.95	170.79	73.77	-39.0	-40.1	22.5	0.00e+00	90	32	0	715128832	50	6470
2026-01-29 00:23:57.96	171.19	74.24	-39.4	-40.5	22.3	0.00e+00	91	32	0	717225984	50	6793
2026-01-29 00:23:58.97	171.62	74.72	-39.6	-40.7	22.1	0.00e+00	91	32	0	718274560	50	6934
2026-01-29 00:23:59.98	172.08	75.20	-39.4	-40.4	22.1	0.00e+00	92	32	0	720371712	50	6743
2026-01-29 00:24:00.98	172.56	75.67	-39.2	-40.2	22.3	0.00e+00	31	32	0	722468864	50	6568
2026-01-29 00:24:01.99	173.08	76.15	-39.0	-40.0	22.6	0.00e+00	91	32	0	724566016	50	6413
2026-01-29 00:24:03.00	173.64	76.63	-38.1	-39.0	23.6	0.00e+00	9	32	0	726663168	50	5697
2026-01-29 00:24:04.01	174.24	77.11	-37.4	-38.2	24.0	0.00e+00	90	32	0	727711744	48	5872
2026-01-29 00:24:05.02	174.89	77.59	-37.6	-38.5	23.8	0.00e+00	92	32	0	729808896	48	6066
2026-01-29 00:24:06.03	175.60	78.07	-38.0	-38.9	23.5	0.00e+00	92	32	0	731906048	48	6351
2026-01-29 00:24:07.04	176.36	78.55	-37.4	-38.3	24.1	0.00e+00	90	32	0	734003200	48	5909
2026-01-29 00:24:08.05	177.19	79.02	-36.8	-37.6	24.6	0.00e+00	0	32	0	736100352	48	5498
2026-01-29 00:24:09.06	178.10	79.50	-36.6	-37.5	24.8	0.00e+00	90	32	0	737148928	46	6034
2026-01-29 00:24:10.06	179.08	79.97	-36.3	-37.1	25.1	0.00e+00	2	32	0	739246080	46	5798
2026-01-29 00:24:11.08	180.19	80.45	-36.2	-36.9	25.1	0.00e+00	90	32	0	741343232	46	5694
2026-01-29 00:24:12.08	181.39	80.91	-36.5	-37.2	24.9	0.00e+00	92	32	0	743440384	46	5883
2026-01-29 00:24:13.09	182.73	81.38	-37.8	-38.7	23.8	0.00e+00	92	32	0	745537536	46	6937
2026-01-29 00:24:14.10	184.23	81.84	-40.5	-41.7	20.9	0.00e+00	92	32	0	746586112	52	7001
2026-01-29 00:24:15.11	185.90	82.30	-42.2	-43.8	19.0	0.00e+00	92	32	0	748683264	56	7068
2026-01-29 00:24:16.12	187.79	82.75	-41.1	-42.4	20.3	0.00e+00	92	32	0	750780416	56	5993
2026-01-29 00:24:17.13	189.93	83.19	-40.2	-41.4	21.3	0.00e+00	0	32	0	752877568	54	5980
2026-01-29 00:24:18.14	192.37	83.63	-38.8	-39.8	22.9	0.00e+00	92	32	0	754974720	52	5605
2026-01-29 00:24:19.15	195.16	84.05	-37.4	-38.3	24.0	0.00e+00	92	32	0	756023296	48	5929
2026-01-29 00:24:20.16	198.36	84.45	-36.8	-37.6	24.5	0.00e+00	92	32	0	758120448	48	5477
2026-01-29 00:24:21.17	202.06	84.84	-36.8	-37.6	24.7	0.00e+00	90	32	0	760217600	48	5448
2026-01-29 00:24:22.18	206.33	85.20	-36.4	-37.2	24.9	0.00e+00	92	32	0	762314752	46	5886
2026-01-29 00:24:23.18	211.21	85.52	-36.6	-37.4	24.7	0.00e+00	90	32	0	764411904	46	6031
2026-01-29 00:24:24.19	216.88	85.82	-36.9	-37.7	24.5	0.00e+00	20	32	0	765460480	46	6216
2026-01-29 00:24:25.20	223.34	86.06	-37.5	-38.4	23.8	0.00e+00	92	32	0	767557632	48	5998
2026-01-29 00:24:26.21	230.54	86.25	-37.9	-38.8	23.4	0.00e+00	0	32	0	769654784	48	6298
2026-01-29 00:24:27.22	238.39	86.38	-38.1	-39.0	23.3	0.00e+00	91	32	0	771751936	48	6464
2026-01-29 00:24:28.22	246.55	86.43	-38.6	-39.5	22.9	0.00e+00	92	32	0	773849088	50	6095
2026-01-29 00:24:29.23	254.87	86.41	-38.5	-39.4	23.1	0.00e+00	96	32	0	774897664	50	6012
2026-01-29 00:24:30.24	262.93	86.32	-37.9	-38.8	23.6	0.00e+00	92	32	0	776994816	50	5584
2026-01-29 00:24:31.25	270.46	86.16	-37.6	-38.4	23.8	0.00e+00	0	32	0	779091968	48	6030
2026-01-29 00:24:32.26	277.26	85.94	-37.8	-38.6	23.6	0.00e+00	92	32	0	781189120	48	6154
2026-01-29 00:24:33.27	283.29	85.66	-37.8	-38.7	23.7	0.00e+00	0	32	0	783286272	48	6191
2026-01-29 00:24:34.28	288.55	85.35	-37.5	-38.4	24.0	0.00e+00	91	32	0	784334848	48	5973
2026-01-29 00:24:35.29	293.11	85.00	-37.3	-38.2	24.1	0.00e+00	92	32	0	786432000	48	5853
2026-01-29 00:24:36.30	297.05	84.63	-37.2	-38.0	24.2	0.00e+00	90	32	0	788529152	48	5756
2026-01-29 00:24:37.31	300.47	84.23	-37.3	-38.2	24.0	0.00e+00	92	32	0	790626304	48	5888
2026-01-29 00:24:38.32	303.43	83.82	-38.3	-39.3	23.2	0.00e+00	53	32	0	792723456	48	6628
2026-01-29 00:24:39.33	306.02	83.39	-39.6	-40.7	21.8	0.00e+00	92	32	0	793772032	50	6957
2026-01-29 00:24:40.34	308.28	82.95	-41.0	-42.4	20.1	0.00e+00	21	32	0	795869184	54	6704
2026-01-29 00:24:41.35	310.28	82.51	-41.9	-43.4	19.5	0.00e+00	92	32	0	797966336	56	6762
2026-01-29 00:24:42.36	312.05	82.05	-41.0	-42.3	20.7	0.00e+00	92	32	0	800063488	56	5904
2026-01-29 00:24:43.37	313.62	81.59	-40.1	-41.3	21.6	0.00e+00	92	32	0	802160640	54	5903
2026-01-29 00:24:44.38	315.03	81.13	-38.6	-39.5	23.1	0.00e+00	92	32	0	803209216	50	6094
2026-01-29 00:24:45.38	316.28	80.66	-37.9	-38.8	23.6	0.00e+00	92	32	0	805306368	50	5623
2026-01-29 00:24:46.39	317.43	80.19	-38.2	-39.1	23.3	0.00e+00	92	32	0	807403520	50	5799
2026-01-29 00:24:47.40	318.47	79.72	-37.1	-38.0	24.4	0.00e+00	21	32	0	809500672	48	5703
2026-01-29 00:24:48.40	319.41	79.25	-36.7	-37.5	24.6	0.00e+00	92	32	0	811597824	46	6047
2026-01-29 00:24:49.41	320.27	78.77	-37.7	-38.6	23.6	0.00e+00	0	32	0	813694976	46	6912
2026-01-29 00:24:50.42	321.06	78.29	-39.2	-40.2	22.3	0.00e+00	92	32	0	814743552	50	6604
2026-01-29 00:24:51.43	321.79	77.81	-39.8	-40.9	21.4	0.00e+00	92	32	0	816840704	52	6379
2026-01-29 00:24:52.43	322.46	77.34	-41.9	-43.4	19.1	0.00e+00	92	32	0	818937856	54	7568
2026-01-29 00:24:53.44	323.09	76.86	-43.5	-45.6	17.4	0.00e+00	92	32	0	821035008	58	7750
2026-01-29 00:24:54.46	323.67	76.38	-42.9	-44.8	17.9	0.00e+00	0	32	0	823132160	58	7052
2026-01-29 00:24:55.47	324.21	75.90	-42.3	-44.0	18.9	0.00e+00	92	32	0	824180736	58	6396
2026-01-29 00:24:56.47	324.71	75.43	-41.4	-42.8	20.0	0.00e+00	12	32	0	826277888	56	6279
2026-01-29 00:24:57.49	325.18	74.94	-41.2	-42.5	20.3	0.00e+00	90	32	0	828375040	56	6083
2026-01-29 00:24:58.49	325.62	74.47	-41.5	-42.9	19.8	0.00e+00	90	32	0	830472192	56	6326
2026-01-29 00:24:59.50	326.03	74.00	-40.7	-42.0	20.8	0.00e+00	90	32	0	832569344	56	5719
2026-01-29 00:25:00.51	326.42	73.52	-39.8	-40.9	21.7	0.00e+00	92	32	0	833617920	54	5653
2026-01-29 00:25:01.52	326.78	73.05	-39.2	-40.2	22.5	0.00e+00	92	32	0	835715072	52	5887
2026-01-29 00:25:02.53	327.13	72.58	-38.2	-39.1	23.2	0.00e+00	92	32	0	837812224	50	5795
2026-01-29 00:25:03.53	327.45	72.11	-37.9	-38.8	23.7	0.00e+00	0	32	0	839909376	50	5579
2026-01-29 00:25:04.54	327.76	71.65	-37.8	-38.7	23.9	0.00e+00	92	32	0	842006528	48	6197
2026-01-29 00:25:05.55	328.06	71.18	-37.6	-38.5	24.0	0.00e+00	0	32	0	843055104	48	6037
2026-01-29 00:25:06.56	328.34	70.71	-37.1	-38.0	24.1	0.00e+00	92	32	0	845152256	48	5711
2026-01-29 00:25:07.57	328.60	70.25	-37.7	-38.5	23.5	0.00e+00	92	32	0	847249408	48	6097
2026-01-29 00:25:08.58	328.85	69.79	-38.8	-39.8	22.8	0.00e+00	92	32	0	849346560	50	6265
2026-01-29 00:25:09.58	329.09	69.33	-37.6	-38.5	23.9	0.00e+00	92	32	0	851443712	48	6051
2026-01-29 00:25:10.59	329.32	68.88	-37.5	-38.3	23.9	0.00e+00	14	32	0	852492288	48	5918
2026-01-29 00:25:11.60	329.54	68.42	-39.9	-41.0	21.6	0.00e+00	92	32	0	854589440	50	7183
2026-01-29 00:25:12.61	329.75	67.97	-42.2	-43.8	19.0	0.00e+00	25	32	0	856686592	56	7049
2026-01-29 00:25:13.62	329.95	67.52	-42.1	-43.7	19.5	0.00e+00	92	32	0	858783744	56	6931
2026-01-29 00:25:14.63	330.14	67.07	-41.3	-42.7	19.9	0.00e+00	92	32	0	860880896	56	6174
2026-01-29 00:25:15.64	330.32	66.62	-40.4	-41.6	21.1	0.00e+00	92	32	0	861929472	54	6157
2026-01-29 00:25:16.65	330.50	66.17	-39.4	-40.4	22.2	0.00e+00	92	32	0	864026624	52	6013
2026-01-29 00:25:17.66	330.67	65.73	-40.3	-41.5	21.2	0.00e+00	76	32	0	866123776	52	6792
2026-01-29 00:25:18.67	330.83	65.29	-40.6	-41.8	20.7	0.00e+00	91	32	0	868220928	54	6286
2026-01-29 00:25:19.68	330.99	64.85	-39.5	-40.6	22.2	0.00e+00	5	32	0	870318080	52	6134
2026-01-29 00:25:20.69	331.14	64.42	-37.4	-38.2	23.9	0.00e+00	91	32	0	871366656	48	5889
2026-01-29 00:25:21.70	331.29	63.98	-36.7	-37.5	24.8	0.00e+00	19	32	0	873463808	46	6092
2026-01-29 00:25:22.71	331.43	63.55	-35.9	-36.6	25.5	0.00e+00	91	32	0	875560960	46	5487
2026-01-29 00:25:23.72	331.57	63.13	-35.6	-36.3	25.7	0.00e+00	92	32	0	877658112	44	5930
2026-01-29 00:25:24.73	331.70	62.70	-35.6	-36.3	25.6	0.00e+00	91	32	0	879755264	44	5950
2026-01-29 00:25:25.74	331.82	62.28	-35.3	-36.1	25.8	0.00e+00	92	32	0	881852416	44	5767
2026-01-29 00:25:26.75	331.95	61.86	-35.0	-35.8	26.2	0.00e+00	61	32	0	882900992	44	5568
2026-01-29 00:25:27.76	332.06	61.44	-34.9	-35.7	26.2	0.00e+00	92	32	0	884998144	44	5504
2026-01-29 00:25:28.77	332.18	61.02	-35.9	-36.7	25.2	0.00e+00	0	32	0	887095296	44	6221
2026-01-29 00:25:29.78	332.29	60.61	-37.6	-38.5	23.7	0.00e+00	90	32	0	889192448	46	6793
2026-01-29 00:25:30.78	332.40	60.20	-38.7	-39.7	22.8	0.00e+00	92	32	0	890241024	48	6976
2026-01-29 00:25:31.80	332.50	59.79	-38.4	-39.4	23.1	0.00e+00	50	32	0	892338176	50	5983
2026-01-29 00:25:32.80	332.60	59.39	-38.6	-39.5	23.0	0.00e+00	92	32	0	894435328	50	6103
2026-01-29 00:25:33.81	332.70	58.98	-39.3	-40.4	22.2	0.00e+00	6	32	0	896532480	50	6694
2026-01-29 00:25:34.82	332.80	58.58	-40.0	-41.2	21.6	0.00e+00	92	32	0	898629632	52	6546
2026-01-29 00:25:35.83	332.89	58.19	-39.7	-40.7	21.9	0.00e+00	0	32	0	899678208	52	6234
2026-01-29 00:25:36.84	332.98	57.79	-40.1	-41.2	21.5	0.00e+00	90	32	0	901775360	52	6581
2026-01-29 00:25:37.85	333.07	57.40	-40.7	-42.0	20.8	0.00e+00	90	32	0	903872512	52	7180
2026-01-29 00:25:38.86	333.15	57.01	-40.4	-41.6	21.4	0.00e+00	75	32	0	905969664	52	6873
2026-01-29 00:25:39.87	333.24	56.62	-39.1	-40.1	22.6	0.00e+00	91	32	0	908066816	52	5808
2026-01-29 00:25:40.88	333.32	56.24	-38.0	-38.9	23.7	0.00e+00	7	32	0	910163968	50	5670
2026-01-29 00:25:41.88	333.39	55.86	-37.3	-38.2	24.2	0.00e+00	92	32	0	911212544	48	5836
2026-01-29 00:25:42.89	333.47	55.48	-37.2	-38.0	24.3	0.00e+00	47	32	0	913309696	48	5737
2026-01-29 00:25:43.90	333.55	55.10	-36.8	-37.7	24.5	0.00e+00	92	32	0	915406848	48	5512
2026-01-29 00:25:44.91	333.62	54.73	-36.8	-37.6	24.5	0.00e+00	92	32	0	917504000	46	6172
2026-01-29 00:25:45.92	333.69	54.36	-37.0	-37.9	24.4	0.00e+00	92	32	0	919601152	46	6352
2026-01-29 00:25:46.93	333.76	53.99	-37.7	-38.6	23.8	0.00e+00	92	32	0	920649728	46	6926
2026-01-29 00:25:47.94	333.83	53.62	-37.9	-38.8	23.7	0.00e+00	32	32	0	922746880	48	6309
2026-01-29 00:25:48.95	333.89	53.26	-36.5	-37.3	24.9	0.00e+00	92	32	0	924844032	46	5910
2026-01-29 00:25:49.96	333.96	52.90	-36.0	-36.8	25.4	0.00e+00	60	32	0	926941184	46	5590
2026-01-29 00:25:50.97	334.02	52.54	-36.2	-37.0	25.2	0.00e+00	92	32	0	929038336	46	5718
2026-01-29 00:25:51.98	334.08	52.18	-37.5	-38.4	23.9	0.00e+00	49	32	0	930086912	46	6724
2026-01-29 00:25:52.98	334.14	51.83	-39.3	-40.4	22.2	0.00e+00	92	32	0	932184064	50	6723
2026-01-29 00:25:53.99	334.20	51.48	-41.1	-42.5	20.2	0.00e+00	92	32	0	934281216	54	6803
2026-01-29 00:25:55.00	334.26	51.13	-41.8	-43.4	19.4	0.00e+00	0	32	0	936378368	56	6714
2026-01-29 00:25:56.01	334.32	50.79	-42.3	-44.0	18.8	0.00e+00	92	32	0	938475520	56	7210
2026-01-29 00:25:57.02	334.37	50.44	-42.4	-44.2	18.7	0.00e+00	21	32	0	939524096	56	7390
2026-01-29 00:25:58.03	334.43	50.10	-41.8	-43.3	19.5	0.00e+00	92	32	0	941621248	56	6680
2026-01-29 00:25:59.04	334.48	49.77	-41.2	-42.5	20.3	0.00e+00	7	32	0	943718400	56	6102
2026-01-29 00:26:00.05	334.53	49.43	-40.4	-41.5	21.2	0.00e+00	92	32	0	945815552	54	6099
2026-01-29 00:26:01.06	334.58	49.10	-41.1	-42.3	20.2	0.00e+00	92	32	0	947912704	54	6681
2026-01-29 00:26:02.07	334.63	48.77	-43.4	-45.4	17.1	0.00e+00	92	32	0	948961280	58	7551
2026-01-29 00:26:03.08	334.68	48.44	-46.0	-50.0	12.4	1.50e-06	92	32	0	951058432	60	11493
2026-01-29 00:26:04.09	334.73	48.11	-44.6	-47.6	15.2	1.33e-04	59	32	0	953155584	60	8665
2026-01-29 00:26:05.10	334.78	47.79	-41.4	-43.0	19.8	0.00e+00	92	32	0	955252736	56	6397
2026-01-29 00:26:06.11	334.83	47.47	-39.4	-40.5	22.0	0.00e+00	0	32	0	957349888	52	6097
2026-01-29 00:26:07.12	334.87	47.15	-39.4	-40.5	22.4	0.00e+00	91	32	0	958398464	52	6061
2026-01-29 00:26:08.12	334.92	46.84	-38.9	-39.9	22.6	0.00e+00	18	32	0	960495616	52	5652
2026-01-29 00:26:09.13	334.96	46.52	-39.5	-40.5	22.2	0.00e+00	92	32	0	962592768	52	6067
2026-01-29 00:26:10.14	335.00	46.21	-39.3	-40.3	22.3	0.00e+00	92	32	0	964689920	52	5964
2026-01-29 00:26:11.15	335.04	45.90	-39.2	-40.3	22.3	0.00e+00	0	32	0	966787072	52	5927
2026-01-29 00:26:12.16	335.09	45.59	-39.8	-40.9	21.8	0.00e+00	91	32	0	967835648	52	6376
2026-01-29 00:26:13.17	335.13	45.29	-39.7	-40.8	21.9	0.00e+00	53	32	0	969932800	52	6259
2026-01-29 00:26:14.18	335.17	44.99	-39.5	-40.6	22.0	0.00e+00	90	32	0	972029952	52	6118
2026-01-29 00:26:15.19	335.21	44.69	-39.3	-40.4	22.3	0.00e+00	0	32	0	974127104	52	6005
2026-01-29 00:26:16.19	335.25	44.39	-38.7	-39.8	22.7	0.00e+00	92	32	0	976224256	52	5595
2026-01-29 00:26:17.20	335.28	44.10	-37.8	-38.7	23.8	0.00e+00	92	32	0	978321408	50	5539
2026-01-29 00:26:18.21	335.32	43.80	-36.7	-37.5	24.9	0.00e+00	7	32	0	979369984	48	5397
2026-01-29 00:26:19.22	335.36	43.51	-35.7	-36.4	25.6	0.00e+00	92	32	0	981467136	46	5365
2026-01-29 00:26:20.23	335.39	43.22	-35.2	-35.9	26.0	0.00e+00	0	32	0	983564288	44	5672
2026-01-29 00:26:21.24	335.43	42.94	-35.5	-36.2	25.8	0.00e+00	92	32	0	985661440	44	5867
2026-01-29 00:26:22.25	335.47	42.65	-36.4	-37.2	24.9	0.00e+00	0	32	0	987758592	44	6568
2026-01-29 00:26:23.26	335.50	42.37	-37.7	-38.6	23.7	0.00e+00	91	32	0	988807168	46	6920
2026-01-29 00:26:24.27	335.53	42.09	-38.9	-40.0	22.4	0.00e+00	90	32	0	990904320	50	6422
2026-01-29 00:26:25.28	335.57	41.81	-39.7	-40.9	21.7	0.00e+00	0	32	0	993001472	50	7141
2026-01-29 00:26:26.29	335.60	41.54	-39.7	-40.8	21.9	0.00e+00	92	32	0	995098624	52	6307
2026-01-29 00:26:27.30	335.63	41.26	-38.9	-39.9	22.7	0.00e+00	0	32	0	997195776	52	5695
2026-01-29 00:26:28.31	335.67	40.99	-38.5	-39.4	23.1	0.00e+00	90	32	0	998244352	50	6027
2026-01-29 00:26:29.32	335.70	40.72	-37.8	-38.7	23.7	0.00e+00	59	32	0	1000341504	50	5544
2026-01-29 00:26:30.33	335.73	40.45	-37.0	-37.8	24.5	0.00e+00	92	32	0	1002438656	48	5582
2026-01-29 00:26:31.34	335.76	40.19	-36.7	-37.4	24.8	0.00e+00	92	32	0	1004535808	46	6030
2026-01-29 00:26:32.35	335.79	39.92	-36.8	-37.6	24.7	0.00e+00	23	32	0	1006632960	46	6161
2026-01-29 00:26:33.36	335.82	39.66	-37.3	-38.1	24.2	0.00e+00	92	32	0	1007681536	46	6504
2026-01-29 00:26:34.37	335.85	39.40	-38.1	-39.0	23.4	0.00e+00	0	32	0	1009778688	48	6445
2026-01-29 00:26:35.38	335.88	39.14	-39.3	-40.3	22.1	0.00e+00	91	32	0	1011875840	50	6670
2026-01-29 00:26:36.38	335.91	38.89	-40.5	-41.8	20.9	0.00e+00	58	32	0	1013972992	52	7020
2026-01-29 00:26:37.39	335.94	38.64	-41.6	-43.1	19.7	0.00e+00	92	32	0	1016070144	54	7290
2026-01-29 00:26:38.40	335.96	38.38	-42.5	-44.3	18.7	0.00e+00	43	32	0	1017118720	56	7431
2026-01-29 00:26:39.41	335.99	38.13	-42.5	-44.3	18.6	0.00e+00	92	32	0	1019215872	56	7461
2026-01-29 00:26:40.42	336.02	37.88	-41.9	-43.5	19.6	0.00e+00	92	32	0	1021313024	56	6777
2026-01-29 00:26:41.43	336.04	37.64	-41.3	-42.8	20.1	0.00e+00	24	32	0	1023410176	56	6257
2026-01-29 00:26:42.43	336.07	37.39	-40.8	-42.1	20.8	0.00e+00	92	32	0	1025507328	56	5763
2026-01-29 00:26:43.44	336.10	37.15	-39.8	-40.9	21.7	0.00e+00	5	32	0	1026555904	54	5668
2026-01-29 00:26:44.45	336.12	36.91	-39.4	-40.5	22.1	0.00e+00	92	32	0	1028653056	52	6048
2026-01-29 00:26:45.46	336.15	36.67	-39.1	-40.1	22.4	0.00e+00	5	32	0	1030750208	52	5803
2026-01-29 00:26:46.47	336.17	36.43	-39.0	-40.0	22.5	0.00e+00	92	32	0	1032847360	52	5746
2026-01-29 00:26:47.48	336.20	36.20	-39.0	-40.0	22.6	0.00e+00	91	32	0	1034944512	52	5696
2026-01-29 00:26:48.49	336.22	35.96	-39.1	-40.1	22.5	0.00e+00	56	32	0	1035993088	52	5781
2026-01-29 00:26:49.50	336.25	35.73	-39.0	-40.0	22.5	0.00e+00	92	32	0	1038090240	52	5740
2026-01-29 00:26:50.51	336.27	35.50	-39.3	-40.3	22.3	0.00e+00	56	32	0	1040187392	52	5933
2026-01-29 00:26:51.51	336.30	35.27	-39.7	-40.8	21.8	0.00e+00	91	32	0	1042284544	52	6314
2026-01-29 00:26:52.52	336.32	35.04	-40.5	-41.8	20.9	0.00e+00	0	32	0	1044381696	52	7020
2026-01-29 00:26:53.53	336.34	34.82	-41.4	-42.9	19.8	0.00e+00	92	32	0	1045430272	54	7111
2026-01-29 00:26:54.54	336.37	34.59	-42.4	-44.1	18.7	0.00e+00	89	32	0	1047527424	56	7273
2026-01-29 00:26:55.55	336.39	34.37	-43.3	-45.3	17.5	0.00e+00	56	32	0	1049624576	58	7493
2026-01-29 00:26:56.56	336.41	34.15	-43.7	-46.0	16.9	0.00e+00	92	32	0	1051721728	58	8066
2026-01-29 00:26:57.57	336.43	33.93	-44.0	-46.3	16.6	0.00e+00	4	32	0	1053818880	60	7482
2026-01-29 00:26:58.58	336.46	33.71	-43.9	-46.3	16.6	0.00e+00	92	32	0	1054867456	60	7463
2026-01-29 00:26:59.58	336.48	33.50	-43.6	-45.8	17.1	0.00e+00	55	32	0	1056964608	60	7034
2026-01-29 00:27:00.59	336.50	33.28	-42.9	-44.8	18.1	0.00e+00	92	32	0	1059061760	60	6256
2026-01-29 00:27:01.60	336.52	33.07	-42.6	-44.4	18.4	0.00e+00	0	32	0	1061158912	58	6749
2026-01-29 00:27:02.61	336.54	32.85	-42.1	-43.7	19.1	0.00e+00	92	32	0	1063256064	58	6225
2026-01-29 00:27:03.62	336.56	32.64	-41.6	-43.1	19.8	0.00e+00	92	32	0	1064304640	56	6494
2026-01-29 00:27:04.63	336.58	32.44	-41.1	-42.4	20.4	0.00e+00	6	32	0	1066401792	56	5981
2026-01-29 00:27:05.64	336.60	32.23	-40.5	-41.8	20.9	0.00e+00	86	32	0	1068498944	54	6257
2026-01-29 00:27:06.65	336.62	32.02	-40.6	-41.9	20.8	0.00e+00	0	32	0	1070596096	54	6348
2026-01-29 00:27:07.65	336.64	31.82	-40.5	-41.8	20.9	0.00e+00	91	32	0	1072693248	54	6274
2026-01-29 00:27:08.66	336.66	31.61	-40.8	-42.0	20.6	0.00e+00	0	32	0	1074790400	54	6459
2026-01-29 00:27:09.67	336.68	31.41	-40.8	-42.2	20.5	0.00e+00	78	32	0	1075838976	54	6540
2026-01-29 00:27:10.68	336.70	31.21	-40.9	-42.2	20.5	0.00e+00	91	32	0	1077936128	54	6584
2026-01-29 00:27:11.69	336.72	31.01	-41.0	-42.3	20.3	0.00e+00	0	32	0	1080033280	54	6676
2026-01-29 00:27:12.70	336.74	30.81	-41.0	-42.3	20.3	0.00e+00	92	32	0	1082130432	54	6661
2026-01-29 00:27:13.71	336.76	30.62	-41.0	-42.3	20.4	0.00e+00	0	32	0	1084227584	54	6643
2026-01-29 00:27:14.72	336.78	30.42	-41.1	-42.4	20.2	0.00e+00	92	32	0	1085276160	54	6753
2026-01-29 00:27:15.73	336.80	30.23	-40.8	-42.1	20.5	0.00e+00	0	32	0	1087373312	54	6489
2026-01-29 00:27:16.74	336.81	30.04	-40.8	-42.1	20.5	0.00e+00	92	32	0	1089470464	54	6528
2026-01-29 00:27:17.75	336.83	29.84	-40.7	-42.0	20.6	0.00e+00	30	32	0	1091567616	54	6396
2026-01-29 00:27:18.76	336.85	29.65	-40.6	-41.8	20.8	0.00e+00	56	32	0	1093664768	54	6315
2026-01-29 00:27:19.77	336.87	29.47	-40.7	-42.0	20.8	0.00e+00	90	32	0	1094713344	54	6400
2026-01-29 00:27:20.78	336.89	29.28	-40.3	-41.6	21.1	0.00e+00	25	32	0	1096810496	54	6104
2026-01-29 00:27:21.79	336.90	29.09	-40.2	-41.4	21.3	0.00e+00	90	32	0	1098907648	54	5984
2026-01-29 00:27:22.80	336.92	28.91	-39.9	-41.0	21.5	0.00e+00	2	32	0	1101004800	54	5741
2026-01-29 00:27:23.81	336.94	28.72	-39.9	-41.0	21.6	0.00e+00	92	32	0	1103101952	54	5756
2026-01-29 00:27:24.82	336.96	28.54	-39.8	-40.9	21.8	0.00e+00	26	32	0	1104150528	54	5658
2026-01-29 00:27:25.83	336.97	28.36	-39.5	-40.5	22.1	0.00e+00	20	32	0	1106247680	52	6096
2026-01-29 00:27:26.84	336.99	28.18	-39.1	-40.2	22.4	0.00e+00	92	32	0	1108344832	52	5842
2026-01-29 00:27:27.85	337.01	28.00	-39.0	-40.1	22.5	0.00e+00	0	32	0	1110441984	52	5768
2026-01-29 00:27:28.86	337.02	27.82	-38.7	-39.7	22.8	0.00e+00	90	32	0	1112539136	50	6174
2026-01-29 00:27:29.87	337.04	27.64	-38.4	-39.3	23.1	0.00e+00	0	32	0	1113587712	50	5951
2026-01-29 00:27:30.88	337.06	27.47	-38.0	-39.0	23.4	0.00e+00	92	32	0	1115684864	50	5697
2026-01-29 00:27:31.89	337.07	27.29	-37.9	-38.7	23.6	0.00e+00	0	32	0	1117782016	50	5563
2026-01-29 00:27:32.90	337.09	27.12	-37.9	-38.8	23.5	0.00e+00	91	32	0	1119879168	50	5597
2026-01-29 00:27:33.91	337.10	26.95	-37.8	-38.7	23.6	0.00e+00	92	32	0	1121976320	50	5541
2026-01-29 00:27:34.92	337.12	26.78	-37.8	-38.7	23.5	0.00e+00	0	32	0	1123024896	50	5538
2026-01-29 00:27:35.93	337.13	26.61	-37.7	-38.6	23.7	0.00e+00	92	32	0	1125122048	50	5478
2026-01-29 00:27:36.94	337.15	26.44	-37.8	-38.7	23.7	0.00e+00	54	32	0	1127219200	48	6177
2026-01-29 00:27:37.95	337.17	26.27	-37.7	-38.5	23.8	0.00e+00	92	32	0	1129316352	48	6103
2026-01-29 00:27:38.96	337.18	26.10	-37.7	-38.6	23.7	0.00e+00	4	32	0	1131413504	48	6166
2026-01-29 00:27:39.97	337.20	25.94	-37.7	-38.6	23.7	0.00e+00	89	32	0	1132462080	48	6169
2026-01-29 00:27:40.98	337.21	25.77	-37.8	-38.7	23.6	0.00e+00	0	32	0	1134559232	48	6208
2026-01-29 00:27:41.99	337.23	25.61	-38.0	-38.9	23.4	0.00e+00	0	32	0	1136656384	48	6384
2026-01-29 00:27:43.00	337.24	25.44	-37.8	-38.7	23.6	0.00e+00	92	32	0	1138753536	48	6218
2026-01-29 00:27:44.01	337.26	25.28	-37.8	-38.7	23.6	0.00e+00	27	32	0	1140850688	48	6208
2026-01-29 00:27:45.02	337.27	25.12	-37.8	-38.7	23.6	0.00e+00	90	32	0	1142947840	48	6213
2026-01-29 00:27:46.03	337.28	24.96	-37.9	-38.8	23.5	0.00e+00	27	32	0	1143996416	48	6255
2026-01-29 00:27:47.04	337.30	24.80	-37.7	-38.6	23.7	0.00e+00	92	32	0	1146093568	48	6125
2026-01-29 00:27:48.05	337.31	24.64	-37.3	-38.2	23.9	0.00e+00	0	32	0	1148190720	48	5872
2026-01-29 00:27:49.06	337.33	24.49	-37.4	-38.2	24.1	0.00e+00	2	32	0	1150287872	48	5875
2026-01-29 00:27:50.07	337.34	24.33	-37.2	-38.0	24.2	0.00e+00	92	32	0	1152385024	48	5736
2026-01-29 00:27:51.08	337.36	24.18	-36.9	-37.8	24.4	0.00e+00	4	32	0	1153433600	48	5574
2026-01-29 00:27:52.09	337.37	24.02	-36.8	-37.6	24.6	0.00e+00	92	32	0	1155530752	48	5498
2026-01-29 00:27:53.09	337.38	23.87	-36.9	-37.7	24.5	0.00e+00	0	32	0	1157627904	48	5522
2026-01-29 00:27:54.10	337.40	23.72	-36.7	-37.5	24.7	0.00e+00	92	32	0	1159725056	46	6045
2026-01-29 00:27:55.10	337.41	23.57	-36.6	-37.5	24.5	0.00e+00	0	32	0	1161822208	46	6036
2026-01-29 00:27:56.11	337.42	23.42	-36.5	-37.3	24.8	0.00e+00	49	32	0	1162870784	46	5963
2026-01-29 00:27:57.12	337.44	23.27	-36.5	-37.3	24.8	0.00e+00	91	32	0	1164967936	46	5950
2026-01-29 00:27:58.13	337.45	23.12	-36.5	-37.3	24.8	0.00e+00	56	32	0	1167065088	46	5919
2026-01-29 00:27:59.14	337.46	22.97	-36.4	-37.2	24.7	0.00e+00	90	32	0	1169162240	46	5883
2026-01-29 00:28:00.14	337.48	22.82	-36.4	-37.2	24.9	0.00e+00	55	32	0	1171259392	46	5859
2026-01-29 00:28:01.15	337.49	22.68	-36.6	-37.4	24.7	0.00e+00	91	32	0	1172307968	46	5971
2026-01-29 00:28:02.16	337.50	22.53	-36.4	-37.2	24.9	0.00e+00	0	32	0	1174405120	46	5859
2026-01-29 00:28:03.17	337.52	22.39	-36.5	-37.3	24.7	0.00e+00	0	32	0	1176502272	46	5960
2026-01-29 00:28:04.18	337.53	22.24	-36.5	-37.3	24.8	0.00e+00	30	32	0	1178599424	46	5932
2026-01-29 00:28:05.19	337.54	22.10	-36.7	-37.5	24.6	0.00e+00	28	32	0	1180696576	46	6075
2026-01-29 00:28:06.20	337.55	21.96	-36.6	-37.4	24.7	0.00e+00	91	32	0	1181745152	46	5974
2026-01-29 00:28:07.21	337.57	21.82	-36.5	-37.3	24.7	0.00e+00	27	32	0	1183842304	46	5952
2026-01-29 00:28:08.22	337.58	21.67	-36.6	-37.4	24.7	0.00e+00	91	32	0	1185939456	46	6015
2026-01-29 00:28:09.23	337.59	21.53	-36.6	-37.4	24.6	0.00e+00	2	32	0	1188036608	46	5992
2026-01-29 00:28:10.24	337.60	21.40	-36.7	-37.5	24.6	0.00e+00	90	32	0	1190133760	46	6060
2026-01-29 00:28:11.24	337.62	21.26	-36.7	-37.5	24.6	0.00e+00	0	32	0	1191182336	46	6085
2026-01-29 00:28:12.25	337.63	21.12	-36.7	-37.5	24.5	0.00e+00	0	32	0	1193279488	46	6074
2026-01-29 00:28:13.26	337.64	20.98	-36.8	-37.6	24.5	0.00e+00	92	32	0	1195376640	46	6153
