passes_logs/2026/01/29/R4.6S_Anadyr/R4.6S_Anadyr__20260129_175917_FENGYUN_3D_rec.log

#Pass ID: 20260129_175917_FENGYUN 3D
#Satellite: FENGYUN 3D
#Configuration: FENGYUN 3D
#almurnet v.1.7.20251203
#Start time: 2026-01-29 17:59:20

#Version: 2.2.20231116
#Station: R4.6S_Anadyr
#Location: 177.4865 lon 64.73178 lat
#TLE: 1 43010U 17072A   26028.95797775  .00000451  00000+0  23492-3 0  9991
#TLE: 2 43010  98.9958   0.9922 0002505  85.7480 274.3981 14.19703224425237

#Time	Az	El	Level	Level2	SNR	BER	BlckErr	Temp	State	Recorded	gain1	gain2
2026-01-29 17:59:20.45	24.29	0.16	-48.8	-63.8	3.5	1.51e+00	0	28	0	0	60	55668
2026-01-29 17:59:21.46	24.26	0.22	-48.9	-60.9	3.6	8.44e-01	0	29	104	0	60	40220
2026-01-29 17:59:22.47	24.24	0.28	-48.8	-60.9	3.6	8.46e-01	0	29	104	0	60	40309
2026-01-29 17:59:23.48	24.21	0.34	-48.9	-61.0	3.6	8.46e-01	0	29	104	0	60	40552
2026-01-29 17:59:24.49	24.18	0.40	-48.9	-61.0	3.6	8.46e-01	0	29	104	0	60	40630
2026-01-29 17:59:25.50	24.16	0.46	-48.9	-61.0	3.6	8.45e-01	0	29	104	0	60	40660
2026-01-29 17:59:26.51	24.13	0.52	-48.9	-61.0	3.6	8.46e-01	0	29	104	0	60	40743
2026-01-29 17:59:27.52	24.10	0.58	-48.9	-61.1	3.6	8.45e-01	0	29	104	0	60	41155
2026-01-29 17:59:28.53	24.08	0.64	-48.9	-61.1	3.6	8.46e-01	0	29	104	0	60	40969
2026-01-29 17:59:29.54	24.05	0.70	-49.0	-61.1	3.5	8.45e-01	0	29	104	0	60	40943
2026-01-29 17:59:30.55	24.02	0.76	-48.9	-61.1	3.6	8.45e-01	0	29	104	0	60	40795
2026-01-29 17:59:31.56	23.99	0.82	-48.9	-61.0	3.6	8.46e-01	0	29	104	0	60	40750
2026-01-29 17:59:32.57	23.97	0.88	-48.9	-61.0	3.6	8.45e-01	0	30	104	0	60	40671
2026-01-29 17:59:33.58	23.94	0.94	-48.8	-61.0	3.6	8.46e-01	0	29	104	0	60	40492
2026-01-29 17:59:34.59	23.91	1.00	-48.8	-61.0	3.6	8.45e-01	0	29	104	0	60	40465
2026-01-29 17:59:35.60	23.88	1.06	-48.8	-60.9	3.6	8.46e-01	0	29	104	0	60	40000
2026-01-29 17:59:36.61	23.85	1.12	-48.7	-60.8	3.6	8.46e-01	0	29	104	0	60	39849
2026-01-29 17:59:37.62	23.82	1.18	-48.6	-60.7	3.6	8.45e-01	0	29	104	0	60	39136
2026-01-29 17:59:38.63	23.80	1.24	-48.5	-60.6	3.6	8.45e-01	0	30	104	0	60	38747
2026-01-29 17:59:39.64	23.77	1.31	-48.4	-60.5	3.6	8.45e-01	0	30	104	0	60	38392
2026-01-29 17:59:40.65	23.74	1.37	-48.3	-60.4	3.6	8.45e-01	0	30	104	0	60	37979
2026-01-29 17:59:41.66	23.71	1.43	-48.2	-60.3	3.6	8.45e-01	0	30	104	0	60	37309
2026-01-29 17:59:42.67	23.68	1.49	-48.0	-60.1	3.6	8.45e-01	0	30	104	0	60	36488
2026-01-29 17:59:43.68	23.65	1.55	-47.7	-59.6	3.6	8.45e-01	0	30	104	0	60	34671
2026-01-29 17:59:44.69	23.62	1.62	-47.6	-59.6	3.6	8.46e-01	0	30	104	0	60	34718
2026-01-29 17:59:45.70	23.59	1.68	-47.6	-59.7	3.6	8.45e-01	0	30	104	0	60	34749
2026-01-29 17:59:46.71	23.56	1.74	-47.6	-59.6	3.6	8.45e-01	0	30	104	0	60	34540
2026-01-29 17:59:47.72	23.53	1.80	-47.6	-59.6	3.6	8.46e-01	0	30	104	0	60	34608
2026-01-29 17:59:48.73	23.50	1.86	-47.5	-59.5	3.6	8.45e-01	0	30	104	0	60	34024
2026-01-29 17:59:49.74	23.47	1.93	-47.5	-59.5	3.6	8.45e-01	0	30	104	0	60	34153
2026-01-29 17:59:50.75	23.44	1.99	-47.5	-59.5	3.6	8.45e-01	0	30	104	0	60	33932
2026-01-29 17:59:51.76	23.41	2.05	-47.5	-59.4	3.5	8.44e-01	0	30	104	0	60	33779
2026-01-29 17:59:52.77	23.38	2.12	-47.5	-59.4	3.6	8.46e-01	0	30	104	0	60	33818
2026-01-29 17:59:53.78	23.35	2.18	-47.5	-59.5	3.6	8.46e-01	0	30	104	0	60	34257
2026-01-29 17:59:54.79	23.32	2.24	-47.6	-59.6	3.6	8.46e-01	0	30	104	0	60	34433
2026-01-29 17:59:55.80	23.29	2.31	-47.6	-59.7	3.6	8.45e-01	0	30	104	0	60	34747
2026-01-29 17:59:56.81	23.26	2.37	-47.6	-59.6	3.6	8.45e-01	0	30	104	0	60	34620
2026-01-29 17:59:57.82	23.22	2.43	-47.5	-59.5	3.6	8.47e-01	0	30	104	0	60	34318
2026-01-29 17:59:58.83	23.19	2.50	-47.5	-59.5	3.6	8.45e-01	0	30	104	0	60	34261
2026-01-29 17:59:59.84	23.16	2.56	-47.5	-59.5	3.6	8.45e-01	0	30	104	0	60	34237
2026-01-29 18:00:00.85	23.13	2.63	-47.5	-59.5	3.6	8.45e-01	0	30	104	0	60	33945
2026-01-29 18:00:01.86	23.10	2.69	-47.5	-59.2	3.6	8.45e-01	0	30	104	0	60	33014
2026-01-29 18:00:02.87	23.07	2.75	-47.5	-58.6	3.6	8.46e-01	0	30	104	0	60	30936
2026-01-29 18:00:03.88	23.03	2.82	-47.4	-58.0	3.6	8.45e-01	0	30	104	0	60	28839
2026-01-29 18:00:04.89	23.00	2.88	-47.3	-57.3	3.6	8.44e-01	0	30	104	0	60	26461
2026-01-29 18:00:05.90	22.97	2.95	-47.4	-57.6	3.6	8.44e-01	0	30	104	0	60	27276
2026-01-29 18:00:06.91	22.93	3.01	-47.3	-57.0	3.6	8.43e-01	0	30	104	0	60	25634
2026-01-29 18:00:07.92	22.90	3.08	-47.5	-58.5	3.6	8.46e-01	0	30	104	0	60	30325
2026-01-29 18:00:08.94	22.87	3.14	-47.5	-59.3	3.6	8.46e-01	0	30	104	0	60	33317
2026-01-29 18:00:09.95	22.83	3.21	-47.4	-58.1	3.6	8.45e-01	0	30	104	0	60	28885
2026-01-29 18:00:10.96	22.80	3.27	-46.7	-53.4	5.4	8.10e-01	0	30	104	0	60	16981
2026-01-29 18:00:11.97	22.77	3.34	-46.0	-50.2	7.7	1.38e-01	0	30	0	3145728	60	11718
2026-01-29 18:00:12.98	22.73	3.41	-44.7	-47.8	10.6	6.31e-03	0	30	0	9437184	60	8838
2026-01-29 18:00:13.99	22.70	3.47	-42.5	-44.4	14.3	1.03e-04	0	30	0	14680064	60	5992
2026-01-29 18:00:15.00	22.67	3.54	-41.8	-43.4	15.3	4.50e-06	0	30	0	19922944	58	6007
2026-01-29 18:00:16.01	22.63	3.60	-40.9	-42.3	16.4	0.00e+00	0	30	0	26214400	56	5954
2026-01-29 18:00:17.02	22.60	3.67	-40.6	-42.0	16.8	0.00e+00	0	30	0	31457280	54	6400
2026-01-29 18:00:18.03	22.56	3.74	-40.0	-41.3	17.3	0.00e+00	0	30	0	37748736	52	6652
2026-01-29 18:00:19.04	22.53	3.80	-43.4	-45.6	12.4	1.10e-06	0	30	0	42991616	56	8687
2026-01-29 18:00:20.06	22.49	3.87	-46.6	-51.9	5.6	1.05e-02	0	30	0	48234496	60	14198
2026-01-29 18:00:21.07	22.46	3.94	-44.3	-47.2	8.5	0.00e+00	0	30	0	53477376	56	10454
2026-01-29 18:00:22.08	22.42	4.01	-35.7	-36.5	22.1	3.31e-05	0	30	0	58720256	46	5412
2026-01-29 18:00:23.09	22.39	4.07	-47.5	-58.7	3.6	2.26e-01	0	30	104	63963136	60	31260
2026-01-29 18:00:24.10	22.35	4.14	-36.2	-37.0	6.2	6.56e-01	0	30	104	63963136	48	5111
2026-01-29 18:00:25.11	22.31	4.21	-35.6	-36.4	22.4	0.00e+00	0	30	0	63963136	44	5985
2026-01-29 18:00:26.12	22.28	4.28	-35.5	-36.3	22.3	0.00e+00	0	30	0	70254592	44	5944
2026-01-29 18:00:27.13	22.24	4.34	-35.4	-36.2	22.5	0.00e+00	0	30	0	75497472	44	5832
2026-01-29 18:00:28.14	22.20	4.41	-35.3	-36.0	22.6	0.00e+00	0	30	0	81788928	44	5757
2026-01-29 18:00:29.15	22.17	4.48	-35.1	-35.9	22.8	0.00e+00	0	30	0	87031808	44	5666
2026-01-29 18:00:30.16	22.13	4.55	-35.6	-36.4	22.3	0.00e+00	0	30	0	93323264	44	6026
2026-01-29 18:00:31.17	22.09	4.62	-35.6	-36.3	22.4	0.00e+00	0	30	0	98566144	44	5963
2026-01-29 18:00:32.18	22.06	4.69	-35.4	-36.2	22.4	0.00e+00	0	30	0	104857600	44	5879
2026-01-29 18:00:33.19	22.02	4.76	-35.4	-36.2	22.4	0.00e+00	0	30	0	110100480	44	5844
2026-01-29 18:00:34.20	21.98	4.82	-35.4	-36.2	22.6	0.00e+00	0	30	0	115343360	44	5879
2026-01-29 18:00:35.21	21.94	4.89	-35.5	-36.3	22.4	0.00e+00	0	30	0	121634816	44	5938
2026-01-29 18:00:36.22	21.91	4.96	-35.5	-36.3	22.5	0.00e+00	0	30	0	126877696	44	5935
2026-01-29 18:00:37.23	21.87	5.03	-35.1	-35.8	22.7	0.00e+00	0	30	0	133169152	44	5627
2026-01-29 18:00:38.24	21.83	5.10	-35.2	-36.0	22.8	0.00e+00	0	30	0	138412032	44	5700
2026-01-29 18:00:39.25	21.79	5.17	-35.3	-36.0	22.7	0.00e+00	0	30	0	143654912	44	5734
2026-01-29 18:00:40.27	21.75	5.24	-35.3	-36.1	22.7	0.00e+00	0	30	0	149946368	44	5765
2026-01-29 18:00:41.28	21.71	5.31	-35.3	-36.1	22.7	0.00e+00	0	30	0	155189248	44	5815
2026-01-29 18:00:42.28	21.67	5.38	-35.7	-36.5	22.4	0.00e+00	0	30	0	161480704	44	6047
2026-01-29 18:00:43.29	21.63	5.45	-35.5	-36.3	22.5	0.00e+00	0	30	0	166723584	44	5939
2026-01-29 18:00:44.31	21.59	5.53	-35.9	-36.7	22.1	0.00e+00	0	30	0	171966464	44	6231
2026-01-29 18:00:45.32	21.55	5.60	-36.0	-36.8	22.3	0.00e+00	0	30	0	178257920	44	6281
2026-01-29 18:00:46.33	21.51	5.67	-35.6	-36.4	22.4	0.00e+00	0	30	0	183500800	44	5995
2026-01-29 18:00:47.34	21.47	5.74	-35.7	-36.4	22.5	0.00e+00	0	30	0	189792256	44	6029
2026-01-29 18:00:48.35	21.43	5.81	-35.4	-36.2	22.7	0.00e+00	0	30	0	195035136	44	5850
2026-01-29 18:00:49.36	21.39	5.88	-35.0	-35.7	23.1	0.00e+00	0	30	0	201326592	44	5537
2026-01-29 18:00:50.37	21.35	5.95	-35.1	-35.9	23.0	0.00e+00	0	30	0	206569472	44	5648
2026-01-29 18:00:51.38	21.31	6.03	-34.8	-35.5	23.2	0.00e+00	0	30	0	212860928	44	5404
2026-01-29 18:00:52.39	21.27	6.10	-35.1	-35.8	23.1	0.00e+00	0	30	0	218103808	44	5617
2026-01-29 18:00:53.40	21.23	6.17	-35.1	-35.9	23.1	0.00e+00	0	30	0	223346688	44	5645
2026-01-29 18:00:54.41	21.18	6.24	-34.8	-35.6	23.3	0.00e+00	0	30	0	229638144	44	5452
2026-01-29 18:00:55.42	21.14	6.32	-34.9	-35.6	23.3	0.00e+00	0	30	0	234881024	44	5493
2026-01-29 18:00:56.43	21.10	6.39	-35.2	-36.0	22.9	0.00e+00	0	30	0	241172480	44	5711
2026-01-29 18:00:57.44	21.06	6.46	-34.9	-35.7	23.3	0.00e+00	0	30	0	246415360	44	5529
2026-01-29 18:00:58.45	21.01	6.54	-34.9	-35.7	23.2	0.00e+00	0	30	0	251658240	44	5521
2026-01-29 18:00:59.46	20.97	6.61	-35.0	-35.8	23.1	0.00e+00	0	30	0	257949696	44	5588
2026-01-29 18:01:00.47	20.93	6.68	-35.1	-35.8	23.0	0.00e+00	0	30	0	263192576	44	5620
2026-01-29 18:01:01.47	20.88	6.76	-35.0	-35.8	23.2	0.00e+00	0	30	0	269484032	44	5602
2026-01-29 18:01:02.48	20.84	6.83	-34.9	-35.7	23.3	0.00e+00	0	30	0	274726912	44	5524
2026-01-29 18:01:03.49	20.80	6.90	-35.0	-35.7	23.1	0.00e+00	0	30	0	279969792	44	5563
2026-01-29 18:01:04.50	20.75	6.98	-34.9	-35.7	23.3	0.00e+00	0	30	0	286261248	44	5512
2026-01-29 18:01:05.51	20.71	7.05	-34.7	-35.4	23.6	0.00e+00	0	30	0	291504128	42	6015
2026-01-29 18:01:06.52	20.66	7.13	-34.9	-35.7	23.3	0.00e+00	0	30	0	297795584	42	6176
2026-01-29 18:01:07.53	20.62	7.20	-34.8	-35.6	23.5	0.00e+00	0	30	0	303038464	42	6119
2026-01-29 18:01:08.54	20.57	7.28	-34.9	-35.6	23.4	0.00e+00	0	30	0	309329920	42	6151
2026-01-29 18:01:09.55	20.53	7.36	-35.0	-35.8	23.3	0.00e+00	0	30	0	314572800	42	6252
2026-01-29 18:01:10.56	20.48	7.43	-34.8	-35.5	23.5	0.00e+00	0	30	0	319815680	42	6070
2026-01-29 18:01:11.57	20.43	7.51	-34.8	-35.5	23.5	0.00e+00	0	30	0	326107136	42	6075
2026-01-29 18:01:12.59	20.39	7.58	-34.7	-35.5	23.5	0.00e+00	0	30	0	331350016	42	6049
2026-01-29 18:01:13.60	20.34	7.66	-34.7	-35.4	23.5	0.00e+00	0	30	0	337641472	42	6013
2026-01-29 18:01:14.60	20.29	7.74	-34.7	-35.4	23.7	0.00e+00	0	30	0	342884352	42	6017
2026-01-29 18:01:15.61	20.25	7.81	-34.5	-35.2	23.8	0.00e+00	0	30	0	348127232	42	5883
2026-01-29 18:01:16.63	20.20	7.89	-34.6	-35.3	23.7	0.00e+00	0	30	0	354418688	42	5930
2026-01-29 18:01:17.64	20.15	7.97	-34.5	-35.3	23.8	0.00e+00	0	30	0	359661568	42	5902
2026-01-29 18:01:18.65	20.10	8.05	-34.5	-35.2	23.8	0.00e+00	0	30	0	365953024	42	5872
2026-01-29 18:01:19.65	20.05	8.12	-34.4	-35.1	24.0	0.00e+00	0	30	0	371195904	42	5776
2026-01-29 18:01:20.67	20.01	8.20	-34.6	-35.3	23.9	0.00e+00	0	30	0	376438784	42	5917
2026-01-29 18:01:21.68	19.96	8.28	-34.4	-35.1	23.9	0.00e+00	0	30	0	382730240	42	5828
2026-01-29 18:01:22.69	19.91	8.36	-34.4	-35.2	24.0	0.00e+00	0	30	0	387973120	42	5845
2026-01-29 18:01:23.69	19.86	8.43	-34.4	-35.1	24.1	0.00e+00	0	30	0	394264576	42	5807
2026-01-29 18:01:24.70	19.81	8.51	-34.3	-35.0	24.1	0.00e+00	0	30	0	399507456	42	5709
2026-01-29 18:01:25.71	19.76	8.59	-34.3	-35.1	24.1	0.00e+00	0	30	0	405798912	42	5771
2026-01-29 18:01:26.72	19.71	8.67	-34.2	-34.9	24.2	0.00e+00	0	30	0	411041792	42	5642
2026-01-29 18:01:27.73	19.66	8.75	-34.2	-34.9	24.2	0.00e+00	0	30	0	417333248	42	5677
2026-01-29 18:01:28.74	19.61	8.83	-34.3	-35.1	24.0	0.00e+00	0	30	0	422576128	42	5768
2026-01-29 18:01:29.75	19.56	8.91	-34.4	-35.1	24.1	0.00e+00	0	30	0	427819008	42	5773
2026-01-29 18:01:30.76	19.50	8.99	-34.2	-34.9	24.1	0.00e+00	0	30	0	434110464	42	5686
2026-01-29 18:01:31.77	19.45	9.07	-34.2	-34.9	24.3	0.00e+00	0	30	0	439353344	42	5660
2026-01-29 18:01:32.78	19.40	9.15	-34.1	-34.8	24.3	0.00e+00	0	30	0	445644800	42	5602
2026-01-29 18:01:33.79	19.35	9.23	-34.4	-35.1	24.1	0.00e+00	0	30	0	450887680	42	5790
2026-01-29 18:01:34.80	19.30	9.31	-34.2	-34.9	24.2	0.00e+00	0	30	0	456130560	42	5673
2026-01-29 18:01:35.81	19.24	9.40	-34.0	-34.7	24.4	0.00e+00	0	30	0	462422016	42	5533
2026-01-29 18:01:36.82	19.19	9.48	-34.1	-34.8	24.2	0.00e+00	0	30	0	467664896	42	5604
2026-01-29 18:01:37.83	19.14	9.56	-34.0	-34.7	24.4	0.00e+00	0	30	0	473956352	42	5530
2026-01-29 18:01:38.84	19.08	9.64	-34.1	-34.8	24.4	0.00e+00	0	30	0	479199232	42	5567
2026-01-29 18:01:39.85	19.03	9.72	-33.8	-34.5	24.6	0.00e+00	0	30	0	484442112	42	5437
2026-01-29 18:01:40.86	18.97	9.81	-34.0	-34.7	24.4	0.00e+00	0	30	0	490733568	42	5521
2026-01-29 18:01:41.87	18.92	9.89	-33.9	-34.6	24.5	0.00e+00	0	30	0	495976448	42	5463
2026-01-29 18:01:42.88	18.86	9.97	-33.8	-34.5	24.6	0.00e+00	0	30	0	502267904	42	5419
2026-01-29 18:01:43.89	18.81	10.05	-33.8	-34.5	24.6	0.00e+00	0	30	0	507510784	42	5428
2026-01-29 18:01:44.90	18.75	10.14	-33.9	-34.6	24.4	0.00e+00	0	30	0	513802240	42	5498
2026-01-29 18:01:45.91	18.69	10.22	-33.9	-34.6	24.5	0.00e+00	0	30	0	519045120	42	5495
2026-01-29 18:01:46.91	18.64	10.31	-33.6	-34.4	24.8	0.00e+00	0	30	0	524288000	40	5968
2026-01-29 18:01:47.92	18.58	10.39	-33.7	-34.4	24.6	0.00e+00	0	30	0	530579456	40	6016
2026-01-29 18:01:48.93	18.52	10.47	-33.8	-34.5	24.6	0.00e+00	0	30	0	535822336	40	6046
2026-01-29 18:01:49.94	18.46	10.56	-33.7	-34.4	24.7	0.00e+00	0	30	0	542113792	40	5989
2026-01-29 18:01:50.95	18.41	10.64	-33.8	-34.5	24.6	0.00e+00	0	30	0	547356672	40	6063
2026-01-29 18:01:51.96	18.35	10.73	-33.7	-34.4	24.8	0.00e+00	0	30	0	552599552	40	5977
2026-01-29 18:01:52.97	18.29	10.81	-33.7	-34.4	24.8	0.00e+00	0	30	0	558891008	40	5997
2026-01-29 18:01:53.98	18.23	10.90	-33.8	-34.5	24.6	0.00e+00	0	30	0	564133888	40	6072
2026-01-29 18:01:54.99	18.17	10.99	-33.7	-34.4	24.8	0.00e+00	0	30	0	570425344	40	5979
2026-01-29 18:01:56.00	18.11	11.07	-33.7	-34.4	24.7	0.00e+00	0	30	0	575668224	40	5997
2026-01-29 18:01:57.01	18.05	11.16	-33.8	-34.4	24.8	0.00e+00	0	30	0	580911104	40	6023
2026-01-29 18:01:58.02	17.99	11.25	-33.7	-34.4	24.8	0.00e+00	0	30	0	587202560	40	5978
2026-01-29 18:01:59.03	17.93	11.33	-33.7	-34.4	24.8	0.00e+00	0	30	0	592445440	40	6000
2026-01-29 18:02:00.04	17.87	11.42	-33.7	-34.4	24.8	0.00e+00	0	30	0	598736896	40	6005
2026-01-29 18:02:01.05	17.80	11.51	-33.7	-34.4	24.8	0.00e+00	0	30	0	603979776	40	6013
2026-01-29 18:02:02.06	17.74	11.60	-33.6	-34.3	24.9	0.00e+00	0	30	0	610271232	40	5942
2026-01-29 18:02:03.07	17.68	11.69	-33.7	-34.4	24.8	0.00e+00	0	30	0	615514112	40	6023
2026-01-29 18:02:04.08	17.62	11.77	-33.6	-34.3	24.9	0.00e+00	0	30	0	621805568	40	5920
2026-01-29 18:02:05.09	17.55	11.86	-33.8	-34.5	24.7	0.00e+00	0	30	0	627048448	40	6069
2026-01-29 18:02:06.10	17.49	11.95	-33.6	-34.3	24.9	0.00e+00	0	30	0	632291328	40	5952
2026-01-29 18:02:07.11	17.42	12.04	-33.8	-34.5	24.6	0.00e+00	0	30	0	638582784	40	6092
2026-01-29 18:02:08.12	17.36	12.13	-33.9	-34.6	24.5	0.00e+00	0	30	0	643825664	40	6145
2026-01-29 18:02:09.13	17.29	12.22	-33.9	-34.6	24.6	0.00e+00	0	30	0	650117120	40	6173
2026-01-29 18:02:10.14	17.23	12.31	-33.6	-34.3	24.9	0.00e+00	0	30	0	655360000	40	5951
2026-01-29 18:02:11.15	17.16	12.40	-33.7	-34.4	24.8	0.00e+00	0	30	0	660602880	40	5990
2026-01-29 18:02:12.15	17.10	12.49	-33.7	-34.4	24.9	0.00e+00	0	30	0	666894336	40	6025
2026-01-29 18:02:13.16	17.03	12.58	-33.5	-34.2	25.0	0.00e+00	0	30	0	672137216	40	5852
2026-01-29 18:02:14.17	16.96	12.68	-33.7	-34.4	24.9	0.00e+00	0	30	0	678428672	40	5997
2026-01-29 18:02:15.18	16.89	12.77	-33.4	-34.1	25.2	0.00e+00	0	30	0	683671552	40	5779
2026-01-29 18:02:16.19	16.83	12.86	-33.1	-33.8	25.3	0.00e+00	0	30	0	688914432	40	5580
2026-01-29 18:02:17.20	16.76	12.95	-33.2	-33.9	25.3	0.00e+00	0	30	0	695205888	40	5642
2026-01-29 18:02:18.21	16.69	13.05	-33.1	-33.8	25.4	0.00e+00	0	30	0	700448768	40	5568
2026-01-29 18:02:19.22	16.62	13.14	-33.1	-33.8	25.4	0.00e+00	0	30	0	706740224	40	5581
2026-01-29 18:02:20.23	16.55	13.23	-33.1	-33.8	25.3	0.00e+00	0	30	0	711983104	40	5610
2026-01-29 18:02:21.24	16.48	13.33	-33.1	-33.8	25.4	0.00e+00	0	30	0	718274560	40	5597
2026-01-29 18:02:22.25	16.41	13.42	-33.1	-33.8	25.3	0.00e+00	0	30	0	723517440	40	5603
2026-01-29 18:02:23.26	16.34	13.51	-33.1	-33.8	25.4	0.00e+00	0	30	0	728760320	40	5585
2026-01-29 18:02:24.27	16.26	13.61	-33.0	-33.6	25.6	0.00e+00	0	30	0	735051776	40	5487
2026-01-29 18:02:25.28	16.19	13.70	-32.8	-33.5	25.7	0.00e+00	0	30	0	740294656	40	5404
2026-01-29 18:02:26.29	16.12	13.80	-33.0	-33.6	25.6	0.00e+00	0	30	0	746586112	40	5483
2026-01-29 18:02:27.30	16.04	13.90	-32.8	-33.5	25.7	0.00e+00	0	30	0	751828992	38	6045
2026-01-29 18:02:28.31	15.97	13.99	-32.9	-33.6	25.6	0.00e+00	0	30	0	757071872	38	6144
2026-01-29 18:02:29.32	15.90	14.09	-32.8	-33.4	25.7	0.00e+00	0	30	0	763363328	38	6032
2026-01-29 18:02:30.33	15.82	14.18	-32.9	-33.5	25.6	0.00e+00	0	30	0	768606208	38	6083
2026-01-29 18:02:31.34	15.75	14.28	-32.7	-33.4	25.8	0.00e+00	0	30	0	774897664	38	5998
2026-01-29 18:02:32.35	15.67	14.38	-32.9	-33.6	25.7	0.00e+00	0	30	0	780140544	38	6146
2026-01-29 18:02:33.36	15.59	14.48	-32.8	-33.5	25.7	0.00e+00	0	30	0	785383424	38	6043
2026-01-29 18:02:34.37	15.52	14.57	-32.9	-33.5	25.7	0.00e+00	0	30	0	791674880	38	6082
2026-01-29 18:02:35.38	15.44	14.67	-32.7	-33.3	25.8	0.00e+00	0	30	0	796917760	38	5941
2026-01-29 18:02:36.39	15.36	14.77	-32.7	-33.3	25.9	0.00e+00	0	30	0	803209216	38	5938
2026-01-29 18:02:37.40	15.28	14.87	-32.5	-33.1	26.0	0.00e+00	0	30	0	808452096	38	5798
2026-01-29 18:02:38.41	15.20	14.97	-32.6	-33.3	25.9	0.00e+00	0	30	0	814743552	38	5922
2026-01-29 18:02:39.42	15.12	15.07	-32.5	-33.2	26.0	0.00e+00	0	30	0	819986432	38	5843
2026-01-29 18:02:40.43	15.04	15.17	-32.6	-33.3	25.9	0.00e+00	0	30	0	826277888	38	5950
2026-01-29 18:02:41.44	14.96	15.27	-32.4	-33.1	26.1	0.00e+00	0	30	0	831520768	38	5811
2026-01-29 18:02:42.45	14.88	15.37	-32.6	-33.2	26.0	0.00e+00	0	30	0	836763648	38	5886
2026-01-29 18:02:43.46	14.80	15.47	-32.5	-33.1	26.0	0.00e+00	0	30	0	843055104	38	5817
2026-01-29 18:02:44.48	14.71	15.58	-32.4	-33.1	26.1	0.00e+00	0	30	0	848297984	38	5784
2026-01-29 18:02:45.48	14.63	15.68	-32.5	-33.2	26.0	0.00e+00	0	30	0	854589440	38	5843
2026-01-29 18:02:46.49	14.55	15.78	-32.4	-33.1	26.1	0.00e+00	0	30	0	859832320	38	5790
2026-01-29 18:02:47.51	14.46	15.88	-32.3	-33.0	26.2	0.00e+00	0	30	0	865075200	38	5714
2026-01-29 18:02:48.52	14.38	15.98	-32.3	-32.9	26.2	0.00e+00	0	30	0	871366656	38	5691
2026-01-29 18:02:49.53	14.29	16.09	-32.3	-32.9	26.2	0.00e+00	0	30	0	876609536	38	5661
2026-01-29 18:02:50.54	14.21	16.19	-32.4	-33.1	26.1	0.00e+00	0	30	0	882900992	38	5771
2026-01-29 18:02:51.55	14.12	16.30	-32.2	-32.9	26.3	0.00e+00	0	30	0	888143872	38	5660
2026-01-29 18:02:52.56	14.03	16.40	-32.3	-33.0	26.2	0.00e+00	0	30	0	893386752	38	5711
2026-01-29 18:02:53.57	13.94	16.51	-32.5	-33.1	26.1	0.00e+00	0	30	0	899678208	38	5801
2026-01-29 18:02:54.58	13.85	16.61	-32.4	-33.1	26.1	0.00e+00	0	30	0	904921088	38	5814
2026-01-29 18:02:55.59	13.76	16.72	-32.4	-33.1	26.1	0.00e+00	0	30	0	911212544	38	5775
2026-01-29 18:02:56.60	13.67	16.82	-32.2	-32.9	26.3	0.00e+00	0	30	0	916455424	38	5664
2026-01-29 18:02:57.62	13.58	16.93	-32.3	-32.9	26.2	0.00e+00	0	30	0	922746880	38	5672
2026-01-29 18:02:58.63	13.49	17.04	-32.2	-32.9	26.2	0.00e+00	0	30	0	927989760	38	5662
2026-01-29 18:02:59.64	13.40	17.14	-32.3	-33.0	26.2	0.00e+00	0	30	0	934281216	38	5700
2026-01-29 18:03:00.65	13.31	17.25	-32.0	-32.7	26.5	0.00e+00	0	30	0	939524096	38	5535
2026-01-29 18:03:01.65	13.21	17.36	-32.0	-32.7	26.4	0.00e+00	0	30	0	944766976	38	5539
2026-01-29 18:03:02.66	13.12	17.47	-31.9	-32.6	26.6	0.00e+00	0	30	0	951058432	38	5450
2026-01-29 18:03:03.67	13.02	17.58	-31.9	-32.6	26.6	0.00e+00	0	30	0	956301312	38	5443
2026-01-29 18:03:04.68	12.93	17.68	-31.8	-32.4	26.6	0.00e+00	0	31	0	962592768	38	5377
2026-01-29 18:03:05.69	12.83	17.79	-31.8	-32.4	26.6	0.00e+00	0	30	0	967835648	38	5351
2026-01-29 18:03:06.70	12.73	17.90	-31.8	-32.5	26.6	0.00e+00	0	30	0	973078528	38	5401
2026-01-29 18:03:07.71	12.64	18.01	-31.7	-32.3	26.8	0.00e+00	0	30	0	979369984	36	5945
2026-01-29 18:03:08.72	12.54	18.13	-31.7	-32.3	26.8	0.00e+00	0	30	0	984612864	36	5923
2026-01-29 18:03:09.73	12.44	18.24	-31.7	-32.4	26.8	0.00e+00	0	30	0	990904320	36	5965
2026-01-29 18:03:10.74	12.34	18.35	-31.7	-32.4	26.7	0.00e+00	0	30	0	996147200	36	5976
2026-01-29 18:03:11.75	12.24	18.46	-31.6	-32.2	26.8	0.00e+00	0	31	0	1001390080	36	5894
2026-01-29 18:03:12.76	12.14	18.57	-31.7	-32.4	26.8	0.00e+00	0	31	0	1007681536	36	5967
2026-01-29 18:03:13.77	12.03	18.69	-31.7	-32.3	26.7	0.00e+00	0	31	0	1012924416	36	5963
2026-01-29 18:03:14.78	11.93	18.80	-31.9	-32.5	26.7	0.00e+00	0	30	0	1019215872	36	6058
2026-01-29 18:03:15.79	11.83	18.91	-31.9	-32.6	26.6	0.00e+00	0	30	0	1024458752	36	6132
2026-01-29 18:03:16.80	11.72	19.03	-31.8	-32.5	26.7	0.00e+00	0	30	0	1030750208	36	6052
2026-01-29 18:03:17.81	11.61	19.14	-31.9	-32.6	26.6	0.00e+00	0	30	0	1035993088	36	6135
2026-01-29 18:03:18.82	11.51	19.26	-31.7	-32.3	26.8	0.00e+00	0	30	0	1042284544	36	5950
2026-01-29 18:03:19.83	11.40	19.37	-31.8	-32.4	26.8	0.00e+00	0	31	0	1047527424	36	5990
2026-01-29 18:03:20.85	11.29	19.49	-31.6	-32.2	26.9	0.00e+00	0	31	0	1052770304	36	5865
2026-01-29 18:03:21.86	11.18	19.60	-31.4	-32.0	27.0	0.00e+00	0	30	0	1059061760	36	5731
2026-01-29 18:03:22.87	11.07	19.72	-31.3	-31.9	27.2	0.00e+00	0	30	0	1064304640	36	5674
2026-01-29 18:03:23.87	10.96	19.84	-31.3	-32.0	27.1	0.00e+00	0	30	0	1070596096	36	5706
2026-01-29 18:03:24.89	10.85	19.96	-31.2	-31.9	27.2	0.00e+00	0	30	0	1075838976	36	5654
2026-01-29 18:03:25.89	10.74	20.07	-31.3	-31.9	27.1	0.00e+00	0	30	0	1081081856	36	5663
2026-01-29 18:03:26.90	10.63	20.19	-31.2	-31.8	27.3	0.00e+00	0	30	0	1087373312	36	5579
2026-01-29 18:03:27.91	10.51	20.31	-31.2	-31.9	27.2	0.00e+00	0	30	0	1092616192	36	5635
2026-01-29 18:03:28.92	10.40	20.43	-31.1	-31.7	27.2	0.00e+00	0	30	0	1098907648	36	5549
2026-01-29 18:03:29.93	10.28	20.55	-31.1	-31.8	27.3	0.00e+00	0	31	0	1104150528	36	5581
2026-01-29 18:03:30.94	10.16	20.67	-31.2	-31.8	27.1	0.00e+00	0	30	0	1109393408	36	5624
2026-01-29 18:03:31.95	10.04	20.79	-31.2	-31.8	27.3	0.00e+00	0	30	0	1115684864	36	5621
2026-01-29 18:03:32.96	9.93	20.91	-31.1	-31.7	27.2	0.00e+00	0	31	0	1120927744	36	5566
2026-01-29 18:03:33.97	9.81	21.03	-31.3	-31.9	27.1	0.00e+00	0	30	0	1127219200	36	5695
2026-01-29 18:03:34.98	9.68	21.15	-31.3	-31.9	27.2	0.00e+00	0	31	0	1132462080	36	5665
2026-01-29 18:03:35.99	9.56	21.28	-31.4	-32.0	27.0	0.00e+00	0	30	0	1138753536	36	5753
2026-01-29 18:03:37.00	9.44	21.40	-31.2	-31.9	27.2	0.00e+00	0	30	0	1143996416	36	5641
2026-01-29 18:03:38.01	9.32	21.52	-31.1	-31.8	27.3	0.00e+00	0	30	0	1149239296	36	5604
2026-01-29 18:03:39.02	9.19	21.65	-31.0	-31.6	27.4	0.00e+00	0	31	0	1155530752	36	5502
2026-01-29 18:03:40.03	9.06	21.77	-30.7	-31.4	27.6	0.00e+00	0	31	0	1160773632	34	5969
2026-01-29 18:03:41.04	8.94	21.90	-30.7	-31.3	27.7	0.00e+00	0	31	0	1167065088	34	5951
2026-01-29 18:03:42.05	8.81	22.02	-30.7	-31.3	27.7	0.00e+00	0	31	0	1172307968	34	5938
2026-01-29 18:03:43.06	8.68	22.15	-30.7	-31.4	27.7	0.00e+00	0	31	0	1177550848	34	5968
2026-01-29 18:03:44.07	8.55	22.27	-30.6	-31.2	27.8	0.00e+00	0	30	0	1183842304	34	5856
2026-01-29 18:03:45.08	8.42	22.40	-30.7	-31.3	27.6	0.00e+00	0	31	0	1189085184	34	5954
2026-01-29 18:03:46.09	8.29	22.53	-30.7	-31.4	27.5	0.00e+00	0	31	0	1195376640	34	5984
2026-01-29 18:03:47.10	8.15	22.65	-30.7	-31.4	27.6	0.00e+00	0	31	0	1200619520	34	5965
2026-01-29 18:03:48.11	8.02	22.78	-30.6	-31.2	27.7	0.00e+00	0	31	0	1205862400	34	5847
2026-01-29 18:03:49.12	7.88	22.91	-30.7	-31.3	27.6	0.00e+00	0	31	0	1212153856	34	5947
2026-01-29 18:03:50.13	7.74	23.04	-30.7	-31.3	27.7	0.00e+00	0	31	0	1217396736	34	5942
2026-01-29 18:03:51.14	7.61	23.17	-30.7	-31.4	27.7	0.00e+00	0	31	0	1223688192	34	5994
2026-01-29 18:03:52.15	7.47	23.30	-30.8	-31.4	27.6	0.00e+00	0	31	0	1228931072	34	5990
2026-01-29 18:03:53.16	7.33	23.43	-30.7	-31.4	27.7	0.00e+00	0	31	0	1235222528	34	5968
2026-01-29 18:03:54.17	7.18	23.56	-30.7	-31.3	27.6	0.00e+00	0	31	0	1240465408	34	5961
2026-01-29 18:03:55.18	7.04	23.69	-30.6	-31.2	27.7	0.00e+00	0	31	0	1246756864	34	5869
2026-01-29 18:03:56.19	6.90	23.82	-30.6	-31.2	27.8	0.00e+00	0	31	0	1251999744	34	5859
2026-01-29 18:03:57.20	6.75	23.95	-30.6	-31.2	27.8	0.00e+00	0	31	0	1257242624	34	5869
2026-01-29 18:03:58.21	6.60	24.09	-30.3	-31.0	28.0	0.00e+00	0	31	0	1263534080	34	5696
2026-01-29 18:03:59.22	6.46	24.22	-30.4	-31.0	27.9	0.00e+00	0	30	0	1268776960	34	5720
2026-01-29 18:04:00.23	6.31	24.35	-30.4	-31.0	28.0	0.00e+00	0	31	0	1275068416	34	5711
2026-01-29 18:04:01.24	6.16	24.49	-30.5	-31.1	27.9	0.00e+00	0	31	0	1280311296	34	5797
2026-01-29 18:04:02.25	6.00	24.62	-30.4	-31.0	28.0	0.00e+00	0	30	0	1285554176	34	5719
2026-01-29 18:04:03.26	5.85	24.76	-30.5	-31.2	27.9	0.00e+00	0	31	0	1291845632	34	5835
2026-01-29 18:04:04.27	5.70	24.89	-30.7	-31.3	27.8	0.00e+00	0	30	0	1297088512	34	5925
2026-01-29 18:04:05.28	5.54	25.03	-30.5	-31.1	27.9	0.00e+00	0	30	0	1303379968	34	5820
2026-01-29 18:04:06.29	5.38	25.17	-30.6	-31.2	27.8	0.00e+00	0	31	0	1308622848	34	5869
2026-01-29 18:04:07.30	5.22	25.30	-30.5	-31.2	27.8	0.00e+00	0	31	0	1313865728	34	5830
2026-01-29 18:04:08.31	5.06	25.44	-30.4	-31.1	27.9	0.00e+00	0	30	0	1320157184	34	5783
2026-01-29 18:04:09.33	4.90	25.58	-30.3	-30.9	28.0	0.00e+00	0	31	0	1325400064	34	5689
2026-01-29 18:04:10.33	4.74	25.72	-30.3	-30.9	27.9	0.00e+00	0	31	0	1331691520	34	5658
2026-01-29 18:04:11.35	4.57	25.86	-30.1	-30.7	28.2	0.00e+00	0	31	0	1336934400	34	5530
2026-01-29 18:04:12.35	4.41	25.99	-29.9	-30.5	28.3	0.00e+00	0	31	0	1343225856	34	5394
2026-01-29 18:04:13.37	4.24	26.13	-29.9	-30.5	28.4	0.00e+00	0	31	0	1348468736	34	5415
2026-01-29 18:04:14.38	4.07	26.27	-29.8	-30.4	28.4	0.00e+00	0	31	0	1354760192	34	5338
2026-01-29 18:04:15.39	3.90	26.41	-29.8	-30.4	28.4	0.00e+00	0	31	0	1360003072	34	5341
2026-01-29 18:04:16.40	3.73	26.56	-29.9	-30.6	28.3	0.00e+00	0	31	0	1365245952	34	5453
2026-01-29 18:04:17.41	3.55	26.70	-30.0	-30.6	28.2	0.00e+00	0	31	0	1371537408	34	5497
2026-01-29 18:04:18.42	3.38	26.84	-30.0	-30.6	28.2	0.00e+00	0	31	0	1376780288	34	5495
2026-01-29 18:04:19.43	3.20	26.98	-30.1	-30.7	28.2	0.00e+00	0	31	0	1383071744	34	5524
2026-01-29 18:04:20.44	3.02	27.12	-30.1	-30.7	28.1	0.00e+00	0	30	0	1388314624	34	5526
2026-01-29 18:04:21.45	2.84	27.27	-30.1	-30.8	28.1	0.00e+00	0	31	0	1393557504	34	5582
2026-01-29 18:04:22.46	2.66	27.41	-30.2	-30.8	28.1	0.00e+00	0	31	0	1399848960	34	5601
2026-01-29 18:04:23.47	2.48	27.55	-30.2	-30.8	28.1	0.00e+00	0	31	0	1405091840	34	5573
2026-01-29 18:04:24.48	2.29	27.70	-29.9	-30.6	28.2	0.00e+00	0	31	0	1411383296	34	5452
2026-01-29 18:04:25.49	2.11	27.84	-30.2	-30.8	28.2	0.00e+00	0	30	0	1416626176	34	5574
2026-01-29 18:04:26.50	1.92	27.99	-29.9	-30.5	28.3	0.00e+00	0	31	0	1421869056	34	5408
2026-01-29 18:04:27.51	1.73	28.13	-30.1	-30.7	28.2	0.00e+00	0	31	0	1428160512	34	5513
2026-01-29 18:04:28.52	1.53	28.28	-30.0	-30.6	28.2	0.00e+00	0	31	0	1433403392	34	5467
2026-01-29 18:04:29.53	1.34	28.43	-29.9	-30.6	28.3	0.00e+00	0	31	0	1439694848	34	5451
2026-01-29 18:04:30.54	1.14	28.57	-30.1	-30.7	28.1	0.00e+00	0	31	0	1444937728	34	5565
2026-01-29 18:04:31.55	0.95	28.72	-30.3	-30.9	27.9	0.00e+00	0	31	0	1451229184	34	5669
2026-01-29 18:04:32.56	0.75	28.87	-30.3	-31.0	27.9	0.00e+00	0	31	0	1456472064	34	5710
2026-01-29 18:04:33.57	0.55	29.02	-30.4	-31.0	28.1	0.00e+00	0	31	0	1462763520	34	5712
2026-01-29 18:04:34.58	0.34	29.17	-30.3	-30.9	28.0	0.00e+00	0	31	0	1468006400	34	5644
2026-01-29 18:04:35.59	0.14	29.31	-29.8	-30.5	28.4	0.00e+00	0	31	0	1473249280	34	5380
2026-01-29 18:04:36.60	359.93	29.46	-29.7	-30.3	28.4	0.00e+00	0	31	0	1479540736	34	5313
2026-01-29 18:04:37.61	359.72	29.61	-29.6	-30.2	28.5	0.00e+00	0	31	0	1484783616	32	5876
2026-01-29 18:04:38.62	359.51	29.76	-29.8	-30.4	28.4	0.00e+00	0	31	0	1491075072	32	6020
2026-01-29 18:04:39.63	359.30	29.91	-29.7	-30.3	28.5	0.00e+00	0	31	0	1496317952	32	5904
2026-01-29 18:04:40.64	359.08	30.06	-29.7	-30.3	28.4	0.00e+00	0	31	0	1501560832	32	5939
2026-01-29 18:04:41.65	358.87	30.22	-29.8	-30.4	28.4	0.00e+00	0	31	0	1507852288	32	6017
2026-01-29 18:04:42.66	358.65	30.37	-29.9	-30.5	28.3	0.00e+00	0	31	0	1513095168	32	6063
2026-01-29 18:04:43.67	358.43	30.52	-29.7	-30.2	28.5	0.00e+00	0	31	0	1519386624	32	5879
2026-01-29 18:04:44.68	358.20	30.67	-29.9	-30.5	28.4	0.00e+00	0	31	0	1524629504	32	6040
2026-01-29 18:04:45.69	357.98	30.82	-29.5	-30.1	28.7	0.00e+00	0	31	0	1529872384	32	5777
2026-01-29 18:04:46.70	357.75	30.97	-29.4	-30.0	28.7	0.00e+00	0	31	0	1536163840	32	5746
2026-01-29 18:04:47.71	357.52	31.13	-29.4	-30.0	28.7	0.00e+00	0	31	0	1541406720	32	5725
2026-01-29 18:04:48.72	357.29	31.28	-29.5	-30.1	28.5	0.00e+00	0	31	0	1547698176	32	5815
2026-01-29 18:04:49.73	357.05	31.43	-29.5	-30.1	28.6	0.00e+00	0	31	0	1552941056	32	5817
2026-01-29 18:04:50.74	356.82	31.59	-29.6	-30.2	28.5	0.00e+00	0	31	0	1559232512	32	5885
2026-01-29 18:04:51.75	356.58	31.74	-29.6	-30.2	28.5	0.00e+00	0	31	0	1564475392	32	5871
2026-01-29 18:04:52.76	356.34	31.90	-29.7	-30.3	28.4	0.00e+00	0	31	0	1569718272	32	5947
2026-01-29 18:04:53.77	356.09	32.05	-29.8	-30.4	28.4	0.00e+00	0	31	0	1576009728	32	6021
2026-01-29 18:04:54.78	355.85	32.20	-29.7	-30.3	28.4	0.00e+00	0	31	0	1581252608	32	5933
2026-01-29 18:04:55.79	355.60	32.36	-29.8	-30.4	28.5	0.00e+00	0	31	0	1587544064	32	5971
2026-01-29 18:04:56.80	355.35	32.51	-29.7	-30.3	28.5	0.00e+00	0	31	0	1592786944	32	5956
2026-01-29 18:04:57.81	355.09	32.67	-29.6	-30.3	28.3	0.00e+00	0	31	0	1598029824	32	5900
2026-01-29 18:04:58.82	354.84	32.82	-29.7	-30.3	28.4	0.00e+00	0	31	0	1604321280	32	5924
2026-01-29 18:04:59.83	354.58	32.98	-29.8	-30.5	28.3	0.00e+00	0	31	0	1609564160	32	6037
2026-01-29 18:05:00.84	354.32	33.13	-29.5	-30.2	28.5	0.00e+00	0	31	0	1615855616	32	5835
2026-01-29 18:05:01.85	354.06	33.29	-29.5	-30.2	28.6	0.00e+00	0	31	0	1621098496	32	5838
2026-01-29 18:05:02.86	353.79	33.45	-29.4	-30.1	28.6	0.00e+00	0	31	0	1626341376	32	5788
2026-01-29 18:05:03.87	353.52	33.60	-29.5	-30.1	28.7	0.00e+00	0	31	0	1632632832	32	5777
2026-01-29 18:05:04.88	353.25	33.76	-29.5	-30.2	28.6	0.00e+00	0	31	0	1637875712	32	5839
2026-01-29 18:05:05.89	352.98	33.91	-29.6	-30.2	28.5	0.00e+00	0	31	0	1644167168	32	5844
2026-01-29 18:05:06.90	352.70	34.07	-29.6	-30.3	28.5	0.00e+00	0	31	0	1649410048	32	5909
2026-01-29 18:05:07.91	352.42	34.22	-29.8	-30.5	28.3	0.00e+00	0	31	0	1655701504	32	6058
2026-01-29 18:05:08.92	352.14	34.38	-29.7	-30.4	28.4	0.00e+00	0	31	0	1660944384	32	5972
2026-01-29 18:05:09.93	351.86	34.54	-29.7	-30.4	28.5	0.00e+00	0	31	0	1667235840	32	5975
2026-01-29 18:05:10.94	351.57	34.69	-29.6	-30.3	28.5	0.00e+00	0	31	0	1672478720	32	5907
2026-01-29 18:05:11.95	351.28	34.85	-29.6	-30.3	28.6	0.00e+00	0	31	0	1677721600	32	5909
2026-01-29 18:05:12.96	350.99	35.00	-29.6	-30.2	28.5	0.00e+00	0	31	0	1684013056	32	5891
2026-01-29 18:05:13.97	350.69	35.16	-29.6	-30.2	28.5	0.00e+00	0	31	0	1689255936	32	5890
2026-01-29 18:05:14.98	350.39	35.31	-29.6	-30.3	28.5	0.00e+00	0	31	0	1695547392	32	5907
2026-01-29 18:05:15.99	350.09	35.47	-29.6	-30.3	28.6	0.00e+00	0	31	0	1700790272	32	5897
2026-01-29 18:05:17.00	349.79	35.63	-29.7	-30.3	28.5	0.00e+00	0	31	0	1706033152	32	5919
2026-01-29 18:05:18.01	349.48	35.78	-29.7	-30.3	28.5	0.00e+00	0	31	0	1712324608	32	5922
2026-01-29 18:05:19.02	349.17	35.94	-29.5	-30.1	28.6	0.00e+00	0	31	0	1717567488	32	5784
2026-01-29 18:05:20.03	348.86	36.09	-29.6	-30.2	28.6	0.00e+00	0	31	0	1723858944	32	5855
2026-01-29 18:05:21.04	348.54	36.24	-29.6	-30.2	28.6	0.00e+00	0	31	0	1729101824	32	5848
2026-01-29 18:05:22.05	348.22	36.40	-29.6	-30.2	28.6	0.00e+00	0	31	0	1734344704	32	5861
2026-01-29 18:05:23.06	347.90	36.55	-29.6	-30.2	28.5	0.00e+00	0	31	0	1740636160	32	5878
2026-01-29 18:05:24.07	347.57	36.71	-29.5	-30.1	28.5	0.00e+00	0	31	0	1745879040	32	5801
2026-01-29 18:05:25.08	347.25	36.86	-29.5	-30.1	28.6	0.00e+00	0	31	0	1752170496	32	5762
2026-01-29 18:05:26.09	346.91	37.01	-29.3	-29.9	28.8	0.00e+00	0	31	0	1757413376	32	5671
2026-01-29 18:05:27.10	346.58	37.16	-29.5	-30.0	28.6	0.00e+00	0	31	0	1763704832	32	5760
2026-01-29 18:05:28.12	346.24	37.32	-29.5	-30.1	28.7	0.00e+00	0	31	0	1768947712	32	5826
2026-01-29 18:05:29.12	345.90	37.47	-29.7	-30.3	28.6	0.00e+00	0	31	0	1775239168	32	5951
2026-01-29 18:05:30.13	345.56	37.62	-29.7	-30.3	28.6	0.00e+00	0	31	0	1780482048	32	5923
2026-01-29 18:05:31.14	345.21	37.77	-29.7	-30.3	28.5	0.00e+00	0	31	0	1785724928	32	5941
2026-01-29 18:05:32.15	344.86	37.92	-29.7	-30.4	28.4	0.00e+00	0	31	0	1792016384	32	5973
2026-01-29 18:05:33.16	344.50	38.07	-29.7	-30.3	28.4	0.00e+00	0	31	0	1797259264	32	5944
2026-01-29 18:05:34.17	344.15	38.22	-29.8	-30.4	28.3	0.00e+00	0	30	0	1803550720	32	6009
2026-01-29 18:05:35.19	343.78	38.37	-30.0	-30.6	28.2	0.00e+00	0	31	0	1808793600	32	6161
2026-01-29 18:05:36.19	343.42	38.51	-30.0	-30.7	28.1	0.00e+00	0	31	0	1814036480	32	6184
2026-01-29 18:05:37.20	343.06	38.66	-30.2	-30.8	28.0	0.00e+00	0	31	0	1820327936	32	6291
2026-01-29 18:05:38.22	342.68	38.81	-29.9	-30.5	28.1	0.00e+00	0	31	0	1825570816	32	6092
2026-01-29 18:05:39.22	342.31	38.95	-30.0	-30.6	28.3	0.00e+00	0	31	0	1831862272	32	6127
2026-01-29 18:05:40.24	341.93	39.10	-30.0	-30.6	28.2	0.00e+00	0	31	0	1837105152	32	6170
2026-01-29 18:05:41.25	341.55	39.24	-29.9	-30.5	28.3	0.00e+00	0	31	0	1842348032	32	6064
2026-01-29 18:05:42.26	341.16	39.38	-30.0	-30.6	28.2	0.00e+00	0	31	0	1848639488	32	6152
2026-01-29 18:05:43.27	340.78	39.52	-29.8	-30.4	28.4	0.00e+00	0	31	0	1853882368	32	6005
2026-01-29 18:05:44.28	340.39	39.67	-29.8	-30.4	28.5	0.00e+00	0	31	0	1860173824	32	5991
2026-01-29 18:05:45.29	339.99	39.81	-30.0	-30.6	28.2	0.00e+00	0	31	0	1865416704	32	6141
2026-01-29 18:05:46.30	339.59	39.94	-30.0	-30.6	28.1	0.00e+00	0	31	0	1871708160	32	6165
2026-01-29 18:05:47.31	339.19	40.08	-30.2	-30.8	28.1	0.00e+00	0	31	0	1876951040	32	6291
2026-01-29 18:05:48.32	338.79	40.22	-30.0	-30.6	28.2	0.00e+00	0	31	0	1883242496	32	6169
2026-01-29 18:05:49.33	338.38	40.36	-30.0	-30.6	28.2	0.00e+00	0	31	0	1888485376	32	6171
2026-01-29 18:05:50.35	337.96	40.49	-29.7	-30.3	28.4	0.00e+00	0	31	0	1893728256	32	5931
2026-01-29 18:05:51.36	337.55	40.62	-29.6	-30.2	28.5	0.00e+00	0	31	0	1900019712	32	5896
2026-01-29 18:05:52.37	337.13	40.76	-29.6	-30.2	28.4	0.00e+00	0	31	0	1905262592	32	5879
2026-01-29 18:05:53.38	336.71	40.89	-29.6	-30.3	28.5	0.00e+00	0	31	0	1911554048	32	5906
2026-01-29 18:05:54.39	336.28	41.02	-29.6	-30.2	28.6	0.00e+00	0	31	0	1916796928	32	5886
2026-01-29 18:05:55.40	335.85	41.15	-29.5	-30.1	28.7	0.00e+00	0	31	0	1922039808	32	5804
2026-01-29 18:05:56.41	335.42	41.27	-29.5	-30.2	28.6	0.00e+00	0	31	0	1928331264	32	5835
2026-01-29 18:05:57.42	334.99	41.40	-29.5	-30.2	28.6	0.00e+00	0	31	0	1933574144	32	5832
2026-01-29 18:05:58.43	334.55	41.52	-29.7	-30.3	28.4	0.00e+00	0	31	0	1939865600	32	5959
2026-01-29 18:05:59.44	334.10	41.64	-29.7	-30.3	28.4	0.00e+00	0	31	0	1945108480	32	5951
2026-01-29 18:06:00.45	333.66	41.76	-29.8	-30.5	28.4	0.00e+00	0	31	0	1950351360	32	6040
2026-01-29 18:06:01.46	333.21	41.88	-29.6	-30.2	28.6	0.00e+00	0	31	0	1956642816	32	5865
2026-01-29 18:06:02.47	332.76	42.00	-29.7	-30.4	28.5	0.00e+00	0	31	0	1961885696	32	5973
2026-01-29 18:06:03.48	332.30	42.12	-29.8	-30.4	28.4	0.00e+00	0	31	0	1968177152	32	6016
2026-01-29 18:06:04.49	331.84	42.23	-29.6	-30.3	28.6	0.00e+00	0	31	0	1973420032	32	5906
2026-01-29 18:06:05.50	331.38	42.34	-29.7	-30.3	28.5	0.00e+00	0	31	0	1979711488	32	5957
2026-01-29 18:06:06.51	330.91	42.46	-29.7	-30.4	28.5	0.00e+00	0	31	0	1984954368	32	5975
2026-01-29 18:06:07.52	330.44	42.56	-29.5	-30.1	28.6	0.00e+00	0	31	0	1991245824	32	5799
2026-01-29 18:06:08.53	329.97	42.67	-29.1	-29.7	28.9	0.00e+00	0	31	0	1996488704	32	5539
2026-01-29 18:06:09.54	329.50	42.78	-29.3	-29.9	28.7	0.00e+00	0	31	0	2001731584	32	5674
2026-01-29 18:06:10.55	329.02	42.88	-29.2	-29.8	28.8	0.00e+00	0	31	0	2008023040	32	5604
2026-01-29 18:06:11.56	328.54	42.98	-29.2	-29.8	28.8	0.00e+00	0	30	0	2013265920	32	5630
2026-01-29 18:06:12.57	328.05	43.08	-29.1	-29.7	28.9	0.00e+00	0	30	0	2019557376	32	5557
2026-01-29 18:06:13.58	327.56	43.18	-29.3	-29.9	28.8	0.00e+00	0	31	0	2024800256	32	5642
2026-01-29 18:06:14.59	327.07	43.27	-29.5	-30.1	28.5	0.00e+00	0	31	0	2030043136	32	5795
2026-01-29 18:06:15.60	326.58	43.37	-29.7	-30.4	28.5	0.00e+00	0	31	0	2036334592	32	5968
2026-01-29 18:06:16.61	326.08	43.46	-29.7	-30.3	28.5	0.00e+00	0	31	0	2041577472	32	5910
2026-01-29 18:06:17.62	325.59	43.55	-29.6	-30.2	28.6	0.00e+00	0	31	0	2047868928	32	5840
2026-01-29 18:06:18.63	325.08	43.63	-29.5	-30.1	28.6	0.00e+00	0	31	0	2053111808	32	5828
2026-01-29 18:06:19.64	324.58	43.72	-29.5	-30.0	28.6	0.00e+00	0	31	0	2058354688	32	5742
2026-01-29 18:06:20.65	324.07	43.80	-29.3	-29.9	28.7	0.00e+00	0	31	0	2064646144	32	5674
2026-01-29 18:06:21.66	323.56	43.88	-29.5	-30.1	28.6	0.00e+00	0	31	0	2069889024	32	5805
2026-01-29 18:06:22.67	323.05	43.95	-29.5	-30.1	28.5	0.00e+00	0	31	0	2076180480	32	5808
2026-01-29 18:06:23.69	322.53	44.03	-29.6	-30.2	28.6	0.00e+00	0	31	0	2081423360	32	5868
2026-01-29 18:06:24.69	322.02	44.10	-29.5	-30.1	28.7	0.00e+00	0	31	0	2087714816	32	5772
2026-01-29 18:06:25.71	321.49	44.17	-29.6	-30.2	28.6	0.00e+00	0	31	0	2092957696	32	5856
2026-01-29 18:06:26.71	320.98	44.24	-29.7	-30.4	28.4	0.00e+00	0	31	0	2098200576	32	5977
2026-01-29 18:06:27.72	320.45	44.30	-29.7	-30.3	28.4	0.00e+00	0	31	0	2104492032	32	5904
2026-01-29 18:06:28.73	319.93	44.36	-29.6	-30.3	28.5	0.00e+00	0	31	0	2109734912	32	5908
2026-01-29 18:06:29.75	319.39	44.42	-29.6	-30.2	28.6	0.00e+00	0	31	0	2116026368	32	5838
2026-01-29 18:06:30.76	318.86	44.48	-29.6	-30.2	28.5	0.00e+00	0	31	0	2121269248	32	5872
2026-01-29 18:06:31.77	318.33	44.53	-29.7	-30.3	28.4	0.00e+00	0	31	0	2127560704	32	5955
2026-01-29 18:06:32.78	317.80	44.58	-29.5	-30.1	28.6	0.00e+00	0	31	0	2132803584	32	5805
2026-01-29 18:06:33.79	317.26	44.63	-29.5	-30.1	28.6	0.00e+00	0	31	0	2138046464	32	5799
2026-01-29 18:06:34.80	316.73	44.68	-29.5	-30.1	28.6	0.00e+00	0	31	0	2144337920	32	5811
2026-01-29 18:06:35.81	316.19	44.72	-29.5	-30.1	28.6	0.00e+00	0	31	0	2149580800	32	5811
2026-01-29 18:06:36.82	315.65	44.76	-29.5	-30.1	28.6	0.00e+00	0	31	0	2155872256	32	5827
2026-01-29 18:06:37.83	315.11	44.80	-29.5	-30.1	28.6	0.00e+00	0	31	0	2161115136	32	5812
2026-01-29 18:06:38.84	314.56	44.83	-29.7	-30.4	28.5	0.00e+00	0	31	0	2166358016	32	5974
2026-01-29 18:06:39.85	314.02	44.87	-29.7	-30.3	28.5	0.00e+00	0	31	0	2172649472	32	5911
2026-01-29 18:06:40.86	313.48	44.89	-29.6	-30.2	28.5	0.00e+00	0	31	0	2177892352	32	5871
2026-01-29 18:06:41.87	312.93	44.92	-29.6	-30.2	28.6	0.00e+00	0	31	0	2184183808	32	5849
2026-01-29 18:06:42.88	312.38	44.94	-29.4	-30.0	28.6	0.00e+00	0	31	0	2189426688	32	5742
2026-01-29 18:06:43.89	311.84	44.96	-29.5	-30.1	28.7	0.00e+00	0	30	0	2195718144	32	5784
2026-01-29 18:06:44.90	311.29	44.98	-29.5	-30.1	28.5	0.00e+00	0	31	0	2200961024	32	5798
2026-01-29 18:06:45.91	310.74	45.00	-29.6	-30.2	28.5	0.00e+00	0	31	0	2206203904	32	5849
2026-01-29 18:06:46.92	310.19	45.01	-29.7	-30.3	28.5	0.00e+00	0	31	0	2212495360	32	5902
2026-01-29 18:06:47.93	309.64	45.02	-29.6	-30.2	28.5	0.00e+00	0	31	0	2217738240	32	5872
2026-01-29 18:06:48.93	309.10	45.02	-29.4	-30.0	28.7	0.00e+00	0	31	0	2224029696	32	5736
2026-01-29 18:06:49.94	308.55	45.02	-29.5	-30.1	28.6	0.00e+00	0	31	0	2229272576	32	5796
2026-01-29 18:06:50.96	307.99	45.02	-29.3	-30.0	28.7	0.00e+00	0	31	0	2234515456	32	5700
2026-01-29 18:06:51.97	307.44	45.02	-29.3	-29.9	28.7	0.00e+00	0	31	0	2240806912	32	5647
2026-01-29 18:06:52.98	306.90	45.01	-29.4	-30.0	28.7	0.00e+00	0	31	0	2246049792	32	5754
2026-01-29 18:06:53.99	306.35	45.01	-29.6	-30.3	28.4	0.00e+00	0	31	0	2252341248	32	5907
2026-01-29 18:06:55.00	305.80	44.99	-29.7	-30.3	28.5	0.00e+00	0	31	0	2257584128	32	5964
2026-01-29 18:06:56.01	305.25	44.98	-29.5	-30.1	28.5	0.00e+00	0	31	0	2262827008	32	5778
2026-01-29 18:06:57.01	304.71	44.96	-29.2	-29.8	28.5	0.00e+00	0	31	0	2269118464	32	5613
2026-01-29 18:06:58.03	304.15	44.94	-29.5	-30.1	28.5	0.00e+00	0	31	0	2274361344	32	5809
2026-01-29 18:06:59.04	303.61	44.92	-29.8	-30.5	28.3	0.00e+00	0	31	0	2280652800	32	6053
2026-01-29 18:07:00.04	303.07	44.89	-29.6	-30.3	28.5	0.00e+00	0	31	0	2285895680	32	5899
2026-01-29 18:07:01.05	302.52	44.86	-29.5	-30.0	28.5	0.00e+00	0	31	0	2292187136	32	5757
2026-01-29 18:07:02.07	301.97	44.83	-29.3	-29.9	28.8	0.00e+00	0	31	0	2297430016	32	5673
2026-01-29 18:07:03.08	301.43	44.79	-29.4	-30.1	28.7	0.00e+00	0	31	0	2303721472	32	5763
2026-01-29 18:07:04.09	300.89	44.76	-29.2	-29.8	28.7	0.00e+00	0	31	0	2308964352	32	5617
2026-01-29 18:07:05.10	300.35	44.72	-29.4	-30.1	28.7	0.00e+00	0	31	0	2314207232	32	5777
2026-01-29 18:07:06.11	299.81	44.67	-29.6	-30.2	28.6	0.00e+00	0	31	0	2320498688	32	5881
2026-01-29 18:07:07.11	299.28	44.63	-29.9	-30.5	28.4	0.00e+00	0	30	0	2325741568	32	6042
2026-01-29 18:07:08.12	298.74	44.58	-29.5	-30.1	28.6	0.00e+00	0	30	0	2332033024	32	5778
2026-01-29 18:07:09.13	298.21	44.53	-29.5	-30.1	28.7	0.00e+00	0	31	0	2337275904	32	5788
2026-01-29 18:07:10.15	297.67	44.47	-29.6	-30.2	28.6	0.00e+00	0	31	0	2342518784	32	5839
2026-01-29 18:07:11.16	297.14	44.41	-29.6	-30.2	28.5	0.00e+00	0	31	0	2348810240	32	5890
2026-01-29 18:07:12.17	296.61	44.35	-29.6	-30.2	28.5	0.00e+00	0	31	0	2354053120	32	5861
2026-01-29 18:07:13.18	296.09	44.29	-29.6	-30.2	28.5	0.00e+00	0	31	0	2360344576	32	5883
2026-01-29 18:07:14.19	295.56	44.23	-29.7	-30.3	28.4	0.00e+00	0	31	0	2365587456	32	5903
2026-01-29 18:07:15.20	295.04	44.16	-29.4	-30.1	28.7	0.00e+00	0	31	0	2370830336	32	5784
2026-01-29 18:07:16.21	294.52	44.09	-29.2	-29.8	28.8	0.00e+00	0	31	0	2377121792	32	5595
2026-01-29 18:07:17.21	294.01	44.02	-29.2	-29.9	28.8	0.00e+00	0	31	0	2382364672	32	5671
2026-01-29 18:07:18.22	293.50	43.94	-29.4	-30.0	28.6	0.00e+00	0	31	0	2388656128	32	5716
2026-01-29 18:07:19.23	292.98	43.87	-29.2	-29.9	28.8	0.00e+00	0	31	0	2393899008	32	5632
2026-01-29 18:07:20.24	292.47	43.79	-29.2	-29.9	28.8	0.00e+00	0	31	0	2400190464	32	5647
2026-01-29 18:07:21.25	291.97	43.70	-29.3	-29.8	28.8	0.00e+00	0	31	0	2405433344	32	5607
2026-01-29 18:07:22.26	291.46	43.62	-29.4	-30.0	28.6	0.00e+00	0	31	0	2410676224	32	5696
2026-01-29 18:07:23.28	290.95	43.53	-29.4	-29.9	28.7	0.00e+00	0	31	0	2416967680	32	5682
2026-01-29 18:07:24.28	290.46	43.44	-29.2	-29.7	28.8	0.00e+00	0	31	0	2422210560	32	5548
2026-01-29 18:07:25.30	289.96	43.35	-29.1	-29.7	28.9	0.00e+00	0	31	0	2428502016	32	5550
2026-01-29 18:07:26.31	289.46	43.26	-29.3	-29.9	28.8	0.00e+00	0	31	0	2433744896	32	5658
2026-01-29 18:07:27.32	288.97	43.16	-29.4	-30.1	28.6	0.00e+00	0	31	0	2438987776	32	5801
2026-01-29 18:07:28.33	288.49	43.07	-29.3	-29.9	28.7	0.00e+00	0	31	0	2445279232	32	5692
2026-01-29 18:07:29.34	288.00	42.97	-29.3	-29.8	28.8	0.00e+00	0	31	0	2450522112	32	5620
2026-01-29 18:07:30.35	287.52	42.86	-29.2	-29.8	28.6	0.00e+00	0	31	0	2456813568	32	5575
2026-01-29 18:07:31.36	287.04	42.76	-29.4	-30.1	28.7	0.00e+00	0	31	0	2462056448	32	5779
2026-01-29 18:07:32.37	286.57	42.65	-29.5	-30.2	28.6	0.00e+00	0	31	0	2468347904	32	5842
2026-01-29 18:07:33.38	286.09	42.55	-29.5	-30.0	28.6	0.00e+00	0	31	0	2473590784	32	5735
2026-01-29 18:07:34.39	285.62	42.44	-29.4	-30.1	28.8	0.00e+00	0	31	0	2478833664	32	5764
2026-01-29 18:07:35.40	285.16	42.33	-29.3	-29.8	28.8	0.00e+00	0	31	0	2485125120	32	5619
2026-01-29 18:07:36.41	284.70	42.21	-29.3	-30.0	28.7	0.00e+00	0	30	0	2490368000	32	5732
2026-01-29 18:07:37.42	284.24	42.10	-29.4	-30.1	28.7	0.00e+00	0	31	0	2496659456	32	5791
2026-01-29 18:07:38.43	283.78	41.98	-29.6	-30.2	28.5	0.00e+00	0	31	0	2501902336	32	5860
2026-01-29 18:07:39.44	283.33	41.86	-29.4	-30.1	28.5	0.00e+00	0	31	0	2508193792	32	5783
2026-01-29 18:07:40.45	282.88	41.74	-29.3	-30.0	28.7	0.00e+00	0	31	0	2513436672	32	5702
2026-01-29 18:07:41.46	282.43	41.62	-29.3	-29.8	28.8	0.00e+00	0	31	0	2518679552	32	5587
2026-01-29 18:07:42.48	281.98	41.50	-29.2	-29.7	28.9	0.00e+00	0	31	0	2524971008	32	5526
2026-01-29 18:07:43.49	281.54	41.37	-29.3	-29.9	28.7	0.00e+00	0	31	0	2530213888	32	5640
2026-01-29 18:07:44.49	281.11	41.25	-29.5	-30.1	28.6	0.00e+00	0	31	0	2536505344	32	5776
2026-01-29 18:07:45.51	280.68	41.12	-29.5	-30.1	28.7	0.00e+00	0	31	0	2541748224	32	5805
2026-01-29 18:07:46.51	280.25	40.99	-29.2	-29.7	28.8	0.00e+00	0	31	0	2546991104	32	5562
2026-01-29 18:07:47.53	279.82	40.86	-29.3	-29.8	28.7	0.00e+00	0	31	0	2553282560	32	5591
2026-01-29 18:07:48.54	279.40	40.73	-29.3	-29.9	28.7	0.00e+00	0	31	0	2558525440	32	5673
2026-01-29 18:07:49.55	278.98	40.60	-29.3	-30.0	28.8	0.00e+00	0	31	0	2564816896	32	5733
2026-01-29 18:07:50.56	278.57	40.46	-29.2	-29.9	28.9	0.00e+00	0	31	0	2570059776	32	5632
2026-01-29 18:07:51.57	278.15	40.33	-29.1	-29.7	28.9	0.00e+00	0	31	0	2575302656	32	5551
2026-01-29 18:07:52.58	277.74	40.19	-29.2	-29.8	28.9	0.00e+00	0	31	0	2581594112	32	5577
2026-01-29 18:07:53.59	277.34	40.05	-29.3	-30.0	28.8	0.00e+00	0	31	0	2586836992	32	5713
2026-01-29 18:07:54.60	276.94	39.92	-29.2	-29.7	28.8	0.00e+00	0	31	0	2593128448	32	5563
2026-01-29 18:07:55.61	276.54	39.78	-29.1	-29.8	28.9	0.00e+00	0	31	0	2598371328	32	5569
2026-01-29 18:07:56.62	276.15	39.64	-29.0	-29.6	28.9	0.00e+00	0	31	0	2604662784	32	5498
2026-01-29 18:07:57.63	275.75	39.49	-29.0	-29.7	29.0	0.00e+00	0	31	0	2609905664	32	5535
2026-01-29 18:07:58.64	275.37	39.35	-29.1	-29.8	29.0	0.00e+00	0	31	0	2616197120	32	5585
2026-01-29 18:07:59.65	274.98	39.21	-29.4	-30.0	28.7	0.00e+00	0	31	0	2621440000	32	5729
2026-01-29 18:08:00.65	274.60	39.07	-29.4	-30.1	28.7	0.00e+00	0	31	0	2626682880	32	5770
2026-01-29 18:08:01.65	274.23	38.92	-29.2	-29.7	28.8	0.00e+00	0	31	0	2632974336	32	5558
2026-01-29 18:08:02.66	273.86	38.78	-29.3	-29.8	28.7	0.00e+00	0	31	0	2638217216	32	5625
2026-01-29 18:08:03.67	273.48	38.63	-29.5	-30.2	28.5	0.00e+00	0	31	0	2644508672	32	5859
2026-01-29 18:08:04.68	273.12	38.48	-29.6	-30.3	28.5	0.00e+00	0	31	0	2649751552	32	5950
2026-01-29 18:08:05.69	272.75	38.34	-29.5	-30.2	28.5	0.00e+00	0	30	0	2654994432	32	5887
2026-01-29 18:08:06.70	272.39	38.19	-29.4	-30.1	28.7	0.00e+00	0	31	0	2661285888	32	5794
2026-01-29 18:08:07.71	272.03	38.04	-29.4	-30.0	28.6	0.00e+00	0	31	0	2666528768	32	5712
2026-01-29 18:08:08.72	271.68	37.89	-29.6	-30.3	28.5	0.00e+00	0	31	0	2672820224	32	5950
2026-01-29 18:08:09.73	271.33	37.74	-29.6	-30.2	28.6	0.00e+00	0	31	0	2678063104	32	5869
2026-01-29 18:08:10.74	270.98	37.59	-29.5	-30.0	28.5	0.00e+00	0	31	0	2683305984	32	5751
2026-01-29 18:08:11.75	270.64	37.44	-29.6	-30.2	28.5	0.00e+00	0	31	0	2689597440	32	5843
2026-01-29 18:08:12.76	270.29	37.28	-29.6	-30.3	28.4	0.00e+00	0	31	0	2694840320	32	5921
2026-01-29 18:08:13.77	269.96	37.13	-29.4	-30.0	28.6	0.00e+00	0	31	0	2701131776	32	5713
2026-01-29 18:08:14.78	269.62	36.98	-29.3	-29.8	28.6	0.00e+00	0	31	0	2706374656	32	5602
2026-01-29 18:08:15.79	269.29	36.82	-29.2	-29.7	28.8	0.00e+00	0	31	0	2712666112	32	5526
2026-01-29 18:08:16.80	268.96	36.67	-29.1	-29.6	28.9	0.00e+00	0	31	0	2717908992	32	5502
2026-01-29 18:08:17.81	268.63	36.52	-29.1	-29.8	28.8	0.00e+00	0	31	0	2723151872	32	5591
2026-01-29 18:08:18.82	268.31	36.36	-29.2	-29.7	28.8	0.00e+00	0	31	0	2729443328	32	5543
2026-01-29 18:08:19.83	267.99	36.21	-29.3	-29.9	28.6	0.00e+00	0	31	0	2734686208	32	5660
2026-01-29 18:08:20.84	267.68	36.05	-29.5	-30.1	28.7	0.00e+00	0	31	0	2740977664	32	5772
2026-01-29 18:08:21.85	267.36	35.90	-29.4	-29.9	28.7	0.00e+00	0	31	0	2746220544	32	5691
2026-01-29 18:08:22.86	267.05	35.74	-29.4	-30.0	28.7	0.00e+00	0	31	0	2751463424	32	5704
2026-01-29 18:08:23.87	266.74	35.59	-29.2	-29.7	28.6	0.00e+00	0	31	0	2757754880	32	5540
2026-01-29 18:08:24.88	266.44	35.43	-29.1	-29.7	28.9	0.00e+00	0	31	0	2762997760	32	5556
2026-01-29 18:08:25.89	266.14	35.28	-29.1	-29.7	28.6	0.00e+00	0	31	0	2769289216	32	5527
2026-01-29 18:08:26.90	265.84	35.12	-29.2	-29.7	28.3	0.00e+00	0	31	0	2774532096	32	5536
2026-01-29 18:08:27.91	265.54	34.96	-29.1	-29.7	28.5	0.00e+00	0	31	0	2779774976	32	5564
2026-01-29 18:08:28.92	265.25	34.81	-29.1	-29.6	28.5	0.00e+00	0	31	0	2786066432	32	5468
2026-01-29 18:08:29.93	264.96	34.65	-29.0	-29.7	28.7	0.00e+00	0	31	0	2791309312	32	5518
2026-01-29 18:08:30.94	264.67	34.49	-29.1	-29.8	28.4	0.00e+00	0	31	0	2797600768	32	5570
2026-01-29 18:08:31.95	264.39	34.34	-29.3	-29.8	28.4	0.00e+00	0	31	0	2802843648	32	5617
2026-01-29 18:08:32.96	264.10	34.18	-29.1	-29.8	28.7	0.00e+00	0	31	0	2809135104	32	5576
2026-01-29 18:08:33.97	263.83	34.03	-29.0	-29.7	28.7	0.00e+00	0	31	0	2814377984	32	5528
2026-01-29 18:08:34.98	263.55	33.87	-29.1	-29.8	28.8	0.00e+00	0	31	0	2820669440	32	5601
2026-01-29 18:08:35.99	263.27	33.71	-29.2	-29.8	28.7	0.00e+00	0	31	0	2825912320	32	5590
2026-01-29 18:08:37.00	263.00	33.56	-29.3	-29.9	28.7	0.00e+00	0	31	0	2831155200	32	5640
2026-01-29 18:08:38.01	262.73	33.40	-29.4	-30.0	28.7	0.00e+00	0	31	0	2837446656	32	5728
2026-01-29 18:08:39.02	262.47	33.24	-29.6	-30.1	28.5	0.00e+00	0	31	0	2842689536	32	5828
2026-01-29 18:08:40.03	262.21	33.09	-29.4	-30.1	28.7	0.00e+00	0	31	0	2848980992	32	5783
2026-01-29 18:08:41.04	261.94	32.93	-29.4	-30.1	28.6	0.00e+00	0	31	0	2854223872	32	5770
2026-01-29 18:08:42.05	261.69	32.78	-29.2	-29.9	28.7	0.00e+00	0	31	0	2859466752	32	5656
2026-01-29 18:08:43.06	261.43	32.62	-29.3	-29.9	28.7	0.00e+00	0	31	0	2865758208	32	5631
2026-01-29 18:08:44.07	261.18	32.47	-29.4	-30.0	28.7	0.00e+00	0	31	0	2871001088	32	5698
2026-01-29 18:08:45.08	260.92	32.31	-29.6	-30.1	28.4	0.00e+00	0	31	0	2877292544	32	5825
2026-01-29 18:08:46.10	260.67	32.15	-29.5	-30.1	28.6	0.00e+00	0	31	0	2882535424	32	5764
2026-01-29 18:08:47.10	260.43	32.00	-29.5	-30.1	28.5	0.00e+00	0	31	0	2887778304	32	5772
2026-01-29 18:08:48.11	260.19	31.85	-29.3	-29.9	28.6	0.00e+00	0	31	0	2894069760	32	5634
2026-01-29 18:08:49.12	259.94	31.69	-29.3	-29.9	28.4	0.00e+00	0	31	0	2899312640	32	5638
2026-01-29 18:08:50.14	259.70	31.54	-29.5	-30.2	28.3	0.00e+00	0	31	0	2905604096	32	5836
2026-01-29 18:08:51.15	259.47	31.38	-29.6	-30.2	28.2	0.00e+00	0	31	0	2910846976	32	5856
2026-01-29 18:08:52.16	259.23	31.23	-29.9	-30.4	28.1	0.00e+00	0	31	0	2917138432	32	6027
2026-01-29 18:08:53.17	259.00	31.07	-30.0	-30.5	27.9	0.00e+00	0	31	0	2922381312	32	6079
2026-01-29 18:08:54.18	258.77	30.92	-29.9	-30.5	28.1	0.00e+00	0	31	0	2928672768	32	6069
2026-01-29 18:08:55.19	258.54	30.77	-29.9	-30.4	28.1	0.00e+00	0	31	0	2933915648	32	6004
2026-01-29 18:08:56.20	258.31	30.62	-29.9	-30.4	28.1	0.00e+00	0	31	0	2939158528	32	6014
2026-01-29 18:08:57.21	258.09	30.46	-30.0	-30.7	28.0	0.00e+00	0	31	0	2945449984	32	6190
2026-01-29 18:08:58.22	257.87	30.31	-29.8	-30.4	28.1	0.00e+00	0	31	0	2950692864	32	5967
2026-01-29 18:08:59.23	257.65	30.16	-29.7	-30.2	28.2	0.00e+00	0	31	0	2956984320	32	5871
2026-01-29 18:09:00.23	257.43	30.01	-29.6	-30.3	28.3	0.00e+00	0	31	0	2962227200	32	5906
2026-01-29 18:09:01.24	257.22	29.86	-29.8	-30.4	28.1	0.00e+00	0	31	0	2967470080	32	6029
2026-01-29 18:09:02.25	257.00	29.71	-29.6	-30.3	28.3	0.00e+00	0	31	0	2973761536	32	5929
2026-01-29 18:09:03.26	256.79	29.56	-29.5	-30.2	28.3	0.00e+00	0	31	0	2979004416	32	5868
2026-01-29 18:09:04.27	256.58	29.41	-29.6	-30.1	28.3	0.00e+00	0	31	0	2985295872	32	5793
2026-01-29 18:09:05.28	256.38	29.26	-29.5	-30.1	28.2	0.00e+00	0	31	0	2990538752	32	5781
2026-01-29 18:09:06.29	256.17	29.11	-29.6	-30.2	28.2	0.00e+00	0	31	0	2995781632	32	5880
2026-01-29 18:09:07.30	255.97	28.96	-29.7	-30.4	28.2	0.00e+00	0	31	0	3002073088	32	6003
2026-01-29 18:09:08.31	255.76	28.81	-29.9	-30.4	28.0	0.00e+00	0	31	0	3007315968	32	5996
2026-01-29 18:09:09.33	255.56	28.66	-30.0	-30.6	27.9	0.00e+00	0	31	0	3013607424	32	6135
2026-01-29 18:09:10.33	255.37	28.51	-30.0	-30.5	27.9	0.00e+00	0	31	0	3018850304	32	6091
2026-01-29 18:09:11.35	255.17	28.37	-30.0	-30.6	27.9	0.00e+00	0	31	0	3025141760	32	6116
2026-01-29 18:09:12.35	254.98	28.22	-30.0	-30.7	27.9	0.00e+00	0	31	0	3030384640	32	6202
2026-01-29 18:09:13.36	254.78	28.07	-29.9	-30.5	28.0	0.00e+00	0	31	0	3035627520	32	6060
2026-01-29 18:09:14.38	254.59	27.93	-29.9	-30.5	28.0	0.00e+00	0	31	0	3041918976	32	6054
2026-01-29 18:09:15.38	254.40	27.78	-30.1	-30.7	27.9	0.00e+00	0	31	0	3047161856	32	6179
2026-01-29 18:09:16.39	254.22	27.64	-30.1	-30.7	27.9	0.00e+00	0	31	0	3053453312	32	6177
2026-01-29 18:09:17.40	254.03	27.49	-30.1	-30.8	27.8	0.00e+00	0	31	0	3058696192	32	6304
2026-01-29 18:09:18.42	253.85	27.35	-30.3	-31.0	27.7	0.00e+00	0	31	0	3063939072	32	6423
2026-01-29 18:09:19.43	253.66	27.20	-30.4	-31.1	27.7	0.00e+00	0	31	0	3070230528	32	6501
2026-01-29 18:09:20.44	253.48	27.06	-30.2	-30.8	27.8	0.00e+00	0	31	0	3075473408	32	6282
2026-01-29 18:09:21.45	253.30	26.92	-30.3	-30.8	27.8	0.00e+00	0	31	0	3081764864	32	6300
2026-01-29 18:09:22.46	253.13	26.77	-30.4	-31.0	27.7	0.00e+00	0	31	0	3087007744	32	6415
2026-01-29 18:09:23.47	252.95	26.63	-30.2	-30.8	27.8	0.00e+00	0	31	0	3093299200	32	6271
2026-01-29 18:09:24.48	252.78	26.49	-30.2	-30.7	27.8	0.00e+00	0	31	0	3098542080	32	6215
2026-01-29 18:09:25.49	252.60	26.35	-30.2	-30.7	27.8	0.00e+00	0	31	0	3103784960	32	6239
2026-01-29 18:09:26.50	252.43	26.21	-30.1	-30.6	27.8	0.00e+00	0	31	0	3110076416	32	6140
2026-01-29 18:09:27.51	252.26	26.07	-30.1	-30.7	27.9	0.00e+00	0	31	0	3115319296	32	6192
2026-01-29 18:09:28.52	252.10	25.93	-30.1	-30.8	27.7	0.00e+00	0	31	0	3121610752	32	6286
2026-01-29 18:09:29.53	251.93	25.79	-30.3	-30.8	27.8	0.00e+00	0	31	0	3126853632	32	6290
2026-01-29 18:09:30.54	251.76	25.65	-30.1	-30.8	27.8	0.00e+00	0	31	0	3133145088	32	6276
2026-01-29 18:09:31.55	251.60	25.51	-30.3	-31.0	27.8	0.00e+00	0	31	0	3138387968	32	6393
2026-01-29 18:09:32.56	251.44	25.37	-30.3	-30.8	27.8	0.00e+00	0	31	0	3143630848	32	6276
2026-01-29 18:09:33.57	251.28	25.23	-30.3	-30.8	27.8	0.00e+00	0	31	0	3149922304	32	6290
2026-01-29 18:09:34.58	251.12	25.10	-30.2	-30.8	27.7	0.00e+00	0	31	0	3155165184	32	6264
2026-01-29 18:09:35.59	250.96	24.96	-30.4	-31.1	27.7	0.00e+00	0	31	0	3161456640	32	6476
2026-01-29 18:09:36.60	250.80	24.82	-30.1	-30.8	27.8	0.00e+00	0	31	0	3166699520	32	6308
2026-01-29 18:09:37.61	250.65	24.69	-30.3	-30.8	27.8	0.00e+00	0	31	0	3171942400	32	6312
2026-01-29 18:09:38.62	250.50	24.55	-30.2	-30.8	27.8	0.00e+00	0	31	0	3178233856	32	6316
2026-01-29 18:09:39.63	250.34	24.42	-30.2	-30.8	27.8	0.00e+00	0	31	0	3183476736	32	6278
2026-01-29 18:09:40.64	250.19	24.28	-30.2	-30.8	27.7	0.00e+00	0	31	0	3189768192	32	6246
2026-01-29 18:09:41.65	250.04	24.15	-29.9	-30.6	27.9	0.00e+00	0	31	0	3195011072	32	6159
2026-01-29 18:09:42.66	249.89	24.01	-30.0	-30.7	28.0	0.00e+00	0	31	0	3200253952	32	6200
2026-01-29 18:09:43.67	249.75	23.88	-30.0	-30.6	27.9	0.00e+00	0	31	0	3206545408	32	6110
2026-01-29 18:09:44.69	249.60	23.75	-30.1	-30.7	27.8	0.00e+00	0	31	0	3211788288	32	6197
2026-01-29 18:09:45.70	249.45	23.62	-30.1	-30.7	27.9	0.00e+00	0	31	0	3218079744	32	6180
2026-01-29 18:09:46.71	249.31	23.48	-30.1	-30.7	27.8	0.00e+00	0	31	0	3223322624	32	6175
2026-01-29 18:09:47.72	249.17	23.35	-30.3	-30.8	27.7	0.00e+00	0	31	0	3229614080	32	6283
2026-01-29 18:09:48.73	249.03	23.22	-30.3	-30.8	27.7	0.00e+00	0	31	0	3234856960	32	6304
2026-01-29 18:09:49.74	248.89	23.09	-30.3	-30.9	27.7	0.00e+00	0	31	0	3241148416	32	6343
2026-01-29 18:09:50.75	248.75	22.96	-30.4	-31.0	27.6	0.00e+00	0	31	0	3246391296	32	6406
2026-01-29 18:09:51.76	248.61	22.83	-30.5	-31.1	27.6	0.00e+00	0	31	0	3251634176	32	6496
2026-01-29 18:09:52.77	248.48	22.70	-30.5	-31.1	27.6	0.00e+00	0	31	0	3257925632	32	6476
2026-01-29 18:09:53.78	248.34	22.58	-30.4	-31.0	27.6	0.00e+00	0	31	0	3263168512	32	6412
2026-01-29 18:09:54.79	248.21	22.45	-30.5	-31.1	27.6	0.00e+00	0	31	0	3269459968	32	6476
2026-01-29 18:09:55.80	248.07	22.32	-30.4	-31.0	27.6	0.00e+00	0	31	0	3274702848	32	6406
2026-01-29 18:09:56.81	247.94	22.19	-30.5	-31.1	27.4	0.00e+00	0	31	0	3279945728	32	6476
2026-01-29 18:09:57.82	247.81	22.07	-30.5	-31.1	27.6	0.00e+00	0	31	0	3286237184	32	6506
2026-01-29 18:09:58.83	247.68	21.94	-30.5	-31.1	27.6	0.00e+00	0	31	0	3291480064	32	6489
2026-01-29 18:09:59.84	247.55	21.82	-30.5	-31.0	27.6	0.00e+00	0	31	0	3297771520	32	6454
2026-01-29 18:10:00.85	247.42	21.69	-30.6	-31.1	27.5	0.00e+00	0	31	0	3303014400	32	6533
2026-01-29 18:10:01.86	247.30	21.57	-30.5	-31.1	27.5	0.00e+00	0	31	0	3308257280	32	6509
2026-01-29 18:10:02.87	247.17	21.44	-30.7	-31.4	27.5	0.00e+00	0	31	0	3314548736	32	6703
2026-01-29 18:10:03.88	247.05	21.32	-30.5	-31.1	27.6	0.00e+00	0	31	0	3319791616	32	6474
2026-01-29 18:10:04.89	246.92	21.20	-30.4	-31.0	27.6	0.00e+00	0	31	0	3326083072	32	6414
2026-01-29 18:10:05.90	246.80	21.07	-30.5	-31.1	27.6	0.00e+00	0	31	0	3331325952	32	6468
2026-01-29 18:10:06.91	246.68	20.95	-30.4	-30.9	27.6	0.00e+00	0	31	0	3336568832	32	6375
2026-01-29 18:10:07.92	246.56	20.83	-30.5	-31.1	27.6	0.00e+00	0	31	0	3342860288	32	6480
2026-01-29 18:10:08.93	246.44	20.71	-30.5	-31.0	27.6	0.00e+00	0	31	0	3348103168	32	6463
2026-01-29 18:10:09.94	246.32	20.59	-30.7	-31.2	27.5	0.00e+00	0	31	0	3354394624	32	6611
2026-01-29 18:10:10.95	246.20	20.47	-30.7	-31.3	27.3	0.00e+00	0	31	0	3359637504	34	5912
2026-01-29 18:10:11.96	246.09	20.35	-30.8	-31.4	27.3	0.00e+00	0	31	0	3365928960	34	5965
2026-01-29 18:10:12.97	245.97	20.23	-31.0	-31.6	27.2	0.00e+00	0	31	0	3371171840	34	6119
2026-01-29 18:10:13.98	245.86	20.11	-31.1	-31.7	27.1	0.00e+00	0	31	0	3377463296	34	6207
2026-01-29 18:10:14.99	245.74	19.99	-31.1	-31.7	27.1	0.00e+00	0	31	0	3382706176	34	6187
2026-01-29 18:10:16.00	245.63	19.87	-31.2	-31.9	27.0	0.00e+00	0	31	0	3387949056	34	6361
2026-01-29 18:10:17.01	245.52	19.75	-31.3	-31.8	27.0	0.00e+00	0	31	0	3394240512	34	6304
2026-01-29 18:10:18.02	245.41	19.64	-31.3	-32.0	26.9	0.00e+00	0	31	0	3399483392	34	6411
2026-01-29 18:10:19.03	245.30	19.52	-31.3	-31.9	26.9	0.00e+00	0	31	0	3405774848	34	6350
2026-01-29 18:10:20.04	245.19	19.40	-31.4	-32.1	26.8	0.00e+00	0	31	0	3411017728	34	6510
2026-01-29 18:10:21.05	245.08	19.29	-31.4	-32.0	26.9	0.00e+00	0	31	0	3416260608	34	6418
2026-01-29 18:10:22.05	244.97	19.17	-31.7	-32.3	26.7	0.00e+00	0	31	0	3422552064	34	6624
2026-01-29 18:10:23.06	244.86	19.06	-31.4	-31.9	26.9	0.00e+00	0	31	0	3427794944	34	6385
2026-01-29 18:10:24.08	244.76	18.94	-31.6	-32.3	26.8	0.00e+00	0	31	0	3434086400	34	6644
2026-01-29 18:10:25.09	244.65	18.83	-31.4	-32.1	26.8	0.00e+00	0	31	0	3439329280	34	6497
2026-01-29 18:10:26.09	244.55	18.71	-31.6	-32.3	26.8	0.00e+00	0	31	0	3444572160	34	6670
2026-01-29 18:10:27.10	244.44	18.60	-31.6	-32.3	26.7	0.00e+00	0	31	0	3450863616	34	6645
2026-01-29 18:10:28.11	244.34	18.49	-31.6	-32.1	26.7	0.00e+00	0	31	0	3456106496	34	6536
2026-01-29 18:10:29.12	244.24	18.37	-31.7	-32.2	26.7	0.00e+00	0	31	0	3462397952	34	6615
2026-01-29 18:10:30.13	244.14	18.26	-31.7	-32.3	26.6	0.00e+00	0	31	0	3467640832	34	6630
2026-01-29 18:10:31.14	244.04	18.15	-31.8	-32.4	26.5	0.00e+00	0	31	0	3473932288	36	6012
2026-01-29 18:10:32.15	243.94	18.04	-31.9	-32.5	26.6	0.00e+00	0	31	0	3479175168	36	6077
2026-01-29 18:10:33.16	243.84	17.93	-31.9	-32.5	26.4	0.00e+00	0	31	0	3484418048	36	6075
2026-01-29 18:10:34.17	243.74	17.82	-31.7	-32.5	26.6	0.00e+00	0	31	0	3490709504	36	6044
2026-01-29 18:10:35.19	243.64	17.71	-31.8	-32.6	26.5	0.00e+00	0	31	0	3495952384	36	6112
2026-01-29 18:10:36.19	243.55	17.60	-31.7	-32.4	26.6	0.00e+00	0	31	0	3502243840	36	5980
2026-01-29 18:10:37.20	243.45	17.49	-31.7	-32.5	26.5	0.00e+00	0	31	0	3507486720	36	6035
2026-01-29 18:10:38.22	243.35	17.38	-31.9	-32.6	26.5	0.00e+00	0	31	0	3512729600	36	6131
2026-01-29 18:10:39.23	243.26	17.27	-31.7	-32.4	26.7	0.00e+00	0	31	0	3519021056	36	5987
2026-01-29 18:10:40.24	243.16	17.16	-31.8	-32.5	26.6	0.00e+00	0	31	0	3524263936	36	6097
2026-01-29 18:10:41.25	243.07	17.05	-31.6	-32.2	26.7	0.00e+00	0	31	0	3530555392	36	5864
2026-01-29 18:10:42.26	242.98	16.95	-31.7	-32.3	26.6	0.00e+00	0	31	0	3535798272	36	5940
2026-01-29 18:10:43.27	242.89	16.84	-31.7	-32.3	26.6	0.00e+00	0	31	0	3542089728	36	5942
2026-01-29 18:10:44.28	242.79	16.73	-32.0	-32.6	26.3	0.00e+00	0	31	0	3547332608	36	6143
2026-01-29 18:10:45.29	242.70	16.63	-31.8	-32.3	26.5	0.00e+00	0	31	0	3552575488	36	5943
2026-01-29 18:10:46.30	242.61	16.52	-31.9	-32.5	26.4	0.00e+00	0	31	0	3558866944	36	6039
2026-01-29 18:10:47.31	242.52	16.41	-31.9	-32.6	26.5	0.00e+00	0	31	0	3564109824	36	6120
2026-01-29 18:10:48.32	242.44	16.31	-32.0	-32.6	26.3	0.00e+00	0	31	0	3570401280	36	6144
2026-01-29 18:10:49.33	242.35	16.20	-32.1	-32.7	26.3	0.00e+00	0	31	0	3575644160	36	6189
2026-01-29 18:10:50.34	242.26	16.10	-32.1	-32.7	26.2	0.00e+00	0	31	0	3581935616	36	6210
2026-01-29 18:10:51.35	242.17	16.00	-32.3	-32.9	26.1	0.00e+00	0	31	0	3587178496	36	6335
2026-01-29 18:10:52.36	242.09	15.89	-32.0	-32.8	26.3	0.00e+00	0	31	0	3592421376	36	6252
2026-01-29 18:10:53.37	242.00	15.79	-32.1	-32.9	26.2	0.00e+00	0	31	0	3598712832	36	6333
2026-01-29 18:10:54.38	241.92	15.69	-32.4	-33.0	26.0	0.00e+00	0	31	0	3603955712	36	6403
