passes_logs/2026/01/29/R4.6S_Anadyr/R4.6S_Anadyr__20260129_202040_SUOMI_NPP_rec.log

#Pass ID: 20260129_202040_SUOMI NPP
#Satellite: SUOMI NPP
#Configuration: NPP
#almurnet v.1.7.20251203
#Start time: 2026-01-29 20:20:42

#Version: 2.2.20231116
#Station: R4.6S_Anadyr
#Location: 177.4865 lon 64.73178 lat
#TLE: 1 37849U 11061A   26028.91916408  .00000155  00000+0  94467-4 0  9990
#TLE: 2 37849  98.7824 330.8488 0002045  39.4457 320.6868 14.19531289738686

#Time	Az	El	Level	Level2	SNR	BER	BlckErr	Temp	State	Recorded	gain1	gain2
2026-01-29 20:20:42.00	66.86	0.08	-49.0	-60.6	3.5	8.45e-01	0	31	0	0	60	38832
2026-01-29 20:20:43.00	66.79	0.13	-49.0	-64.2	3.6	1.51e+00	0	32	104	0	60	58847
2026-01-29 20:20:44.02	66.72	0.18	-49.0	-64.2	3.6	1.51e+00	0	32	104	0	60	58833
2026-01-29 20:20:45.03	66.64	0.23	-49.0	-64.3	3.6	1.51e+00	0	32	104	0	60	59101
2026-01-29 20:20:46.04	66.57	0.28	-49.1	-64.3	3.6	1.51e+00	0	32	104	0	60	59001
2026-01-29 20:20:47.05	66.49	0.33	-49.1	-64.3	3.6	1.51e+00	0	32	104	0	60	59089
2026-01-29 20:20:48.06	66.42	0.38	-49.1	-64.3	3.6	1.51e+00	0	32	104	0	60	59404
2026-01-29 20:20:49.07	66.34	0.43	-49.1	-64.3	3.5	1.51e+00	0	32	104	0	60	59097
2026-01-29 20:20:50.08	66.26	0.48	-49.1	-64.3	3.6	1.51e+00	0	32	104	0	60	59456
2026-01-29 20:20:51.09	66.19	0.53	-49.1	-64.3	3.6	1.51e+00	0	32	104	0	60	59281
2026-01-29 20:20:52.10	66.11	0.58	-49.1	-64.3	3.6	1.51e+00	0	32	104	0	60	59452
2026-01-29 20:20:53.11	66.03	0.63	-49.1	-64.3	3.6	1.51e+00	0	32	104	0	60	59251
2026-01-29 20:20:54.12	65.96	0.68	-49.1	-64.3	3.6	1.51e+00	0	32	104	0	60	59446
2026-01-29 20:20:55.13	65.88	0.73	-49.1	-64.3	3.6	1.51e+00	0	32	104	0	60	59485
2026-01-29 20:20:56.14	65.80	0.78	-49.0	-64.3	3.6	1.51e+00	0	32	104	0	60	59269
2026-01-29 20:20:57.15	65.73	0.83	-49.1	-64.3	3.6	1.51e+00	0	32	104	0	60	59029
2026-01-29 20:20:58.16	65.65	0.89	-49.1	-64.3	3.6	1.51e+00	0	32	104	0	60	59635
2026-01-29 20:20:59.17	65.57	0.94	-49.0	-64.2	3.6	1.51e+00	0	32	104	0	60	58562
2026-01-29 20:21:00.18	65.49	0.99	-49.0	-64.2	3.6	1.51e+00	0	32	104	0	60	58481
2026-01-29 20:21:01.19	65.41	1.04	-48.9	-64.1	3.6	1.51e+00	0	33	104	0	60	58006
2026-01-29 20:21:02.20	65.33	1.09	-48.8	-64.0	3.6	1.51e+00	0	32	104	0	60	57196
2026-01-29 20:21:03.21	65.25	1.14	-48.7	-63.9	3.6	1.51e+00	0	32	104	0	60	56695
2026-01-29 20:21:04.22	65.17	1.19	-48.7	-63.9	3.6	1.51e+00	0	33	104	0	60	56354
2026-01-29 20:21:05.23	65.09	1.24	-48.4	-63.6	3.6	1.51e+00	0	32	104	0	60	54605
2026-01-29 20:21:06.24	65.01	1.29	-48.1	-63.4	3.6	1.51e+00	0	33	104	0	60	53246
2026-01-29 20:21:07.25	64.93	1.34	-47.6	-62.8	3.6	1.51e+00	0	33	104	0	60	49865
2026-01-29 20:21:08.26	64.85	1.39	-47.5	-62.7	3.6	1.51e+00	0	33	104	0	60	49082
2026-01-29 20:21:09.27	64.77	1.44	-47.5	-62.7	3.6	1.51e+00	0	33	104	0	60	49116
2026-01-29 20:21:10.28	64.69	1.49	-47.5	-62.6	3.6	1.51e+00	0	33	104	0	60	48935
2026-01-29 20:21:11.29	64.61	1.54	-47.5	-62.6	3.6	1.51e+00	0	33	104	0	60	48912
2026-01-29 20:21:12.30	64.53	1.59	-47.5	-62.6	3.6	1.51e+00	0	33	104	0	60	48940
2026-01-29 20:21:13.31	64.44	1.64	-47.5	-62.7	3.6	1.51e+00	0	33	104	0	60	49075
2026-01-29 20:21:14.32	64.36	1.70	-47.5	-62.6	3.6	1.51e+00	0	33	104	0	60	48666
2026-01-29 20:21:15.33	64.28	1.75	-47.4	-62.6	3.6	1.51e+00	0	32	104	0	60	48800
2026-01-29 20:21:16.34	64.19	1.80	-47.5	-62.6	3.6	1.51e+00	0	33	104	0	60	48879
2026-01-29 20:21:17.35	64.11	1.85	-47.4	-62.7	3.5	1.51e+00	0	33	104	0	60	49222
2026-01-29 20:21:18.36	64.03	1.90	-47.5	-62.6	3.6	1.51e+00	0	33	104	0	60	49005
2026-01-29 20:21:19.37	63.94	1.95	-47.5	-62.6	3.6	1.51e+00	0	33	104	0	60	48938
2026-01-29 20:21:20.38	63.86	2.00	-47.4	-62.6	3.6	1.51e+00	0	33	104	0	60	48623
2026-01-29 20:21:21.39	63.77	2.05	-47.4	-62.6	3.6	1.51e+00	0	33	104	0	60	48694
2026-01-29 20:21:22.40	63.69	2.10	-47.5	-62.6	3.6	1.51e+00	0	33	104	0	60	48728
2026-01-29 20:21:23.41	63.60	2.15	-47.4	-62.6	3.6	1.51e+00	0	33	104	0	60	48485
2026-01-29 20:21:24.42	63.52	2.21	-47.4	-62.5	3.6	1.51e+00	0	33	104	0	60	48292
2026-01-29 20:21:25.44	63.43	2.26	-47.4	-62.5	3.6	1.51e+00	0	33	104	0	60	48356
2026-01-29 20:21:26.45	63.34	2.31	-47.5	-62.6	3.6	1.51e+00	0	33	104	0	60	48875
2026-01-29 20:21:27.46	63.26	2.36	-47.4	-62.6	3.6	1.51e+00	0	33	104	0	60	48862
2026-01-29 20:21:28.47	63.17	2.41	-47.4	-62.5	3.6	1.51e+00	0	33	104	0	60	48389
2026-01-29 20:21:29.48	63.08	2.46	-47.4	-62.5	3.6	1.51e+00	0	33	104	0	60	48464
2026-01-29 20:21:30.49	63.00	2.51	-47.4	-62.6	3.6	1.51e+00	0	33	104	0	60	48900
2026-01-29 20:21:31.50	62.91	2.57	-47.4	-62.6	3.6	1.51e+00	0	33	104	0	60	48903
2026-01-29 20:21:32.51	62.82	2.62	-47.4	-62.2	3.6	1.51e+00	0	33	104	0	60	46690
2026-01-29 20:21:33.52	62.73	2.67	-47.4	-62.2	3.6	1.51e+00	0	33	104	0	60	46371
2026-01-29 20:21:34.53	62.64	2.72	-47.4	-62.2	3.6	1.51e+00	0	33	104	0	60	46475
2026-01-29 20:21:35.54	62.55	2.77	-47.4	-62.5	3.6	1.51e+00	0	33	104	0	60	48426
2026-01-29 20:21:36.55	62.46	2.82	-47.3	-60.0	3.6	1.51e+00	0	33	104	0	60	36135
2026-01-29 20:21:37.56	62.37	2.88	-46.7	-54.1	7.2	3.07e-01	0	33	0	0	60	18390
2026-01-29 20:21:38.57	62.28	2.93	-45.9	-50.9	10.6	1.71e-02	80	33	0	1048576	60	12611
2026-01-29 20:21:39.58	62.19	2.98	-44.6	-48.0	13.5	4.31e-04	0	33	0	3145728	60	9059
2026-01-29 20:21:40.59	62.10	3.03	-45.3	-49.6	11.6	8.92e-05	92	33	0	5242880	60	10855
2026-01-29 20:21:41.60	62.01	3.08	-46.5	-52.3	8.6	2.58e-02	92	33	0	7340032	60	14945
2026-01-29 20:21:42.61	61.92	3.13	-44.3	-47.2	11.8	2.81e-01	0	33	0	9437184	60	8303
2026-01-29 20:21:43.62	61.83	3.19	-47.3	-59.7	3.7	1.34e+00	0	33	104	9437184	60	34827
2026-01-29 20:21:44.63	61.74	3.24	-45.0	-48.8	5.8	1.34e+00	5	33	104	9437184	60	9948
2026-01-29 20:21:45.64	61.65	3.29	-44.4	-47.7	13.6	5.62e-02	90	33	104	9437184	60	8821
2026-01-29 20:21:46.65	61.55	3.34	-43.9	-46.7	15.0	2.20e-06	0	33	0	10485760	60	7781
2026-01-29 20:21:47.66	61.46	3.39	-43.1	-45.5	16.2	0.00e+00	90	33	0	12582912	60	6799
2026-01-29 20:21:48.67	61.37	3.45	-43.3	-45.8	15.8	0.00e+00	27	33	0	14680064	60	7023
2026-01-29 20:21:49.68	61.27	3.50	-43.2	-45.5	16.3	0.00e+00	0	33	0	16777216	60	6847
2026-01-29 20:21:50.69	61.18	3.55	-42.3	-44.3	17.3	0.00e+00	92	33	0	17825792	58	6641
2026-01-29 20:21:51.70	61.08	3.60	-42.8	-44.9	16.7	0.00e+00	0	33	0	19922944	58	7160
2026-01-29 20:21:52.71	60.99	3.65	-42.7	-44.8	16.9	0.00e+00	48	33	0	22020096	58	7072
2026-01-29 20:21:53.72	60.89	3.71	-42.6	-44.6	17.1	0.00e+00	0	33	0	24117248	58	6915
2026-01-29 20:21:54.73	60.80	3.76	-42.7	-44.8	16.9	0.00e+00	92	33	0	26214400	58	7075
2026-01-29 20:21:55.74	60.70	3.81	-42.4	-44.3	17.3	0.00e+00	6	33	0	28311552	58	6684
2026-01-29 20:21:56.75	60.61	3.86	-42.4	-44.4	17.3	0.00e+00	90	33	0	29360128	58	6739
2026-01-29 20:21:57.76	60.51	3.91	-42.4	-44.4	17.3	0.00e+00	92	33	0	31457280	58	6727
2026-01-29 20:21:58.77	60.41	3.97	-42.1	-43.9	17.8	0.00e+00	0	33	0	33554432	58	6367
2026-01-29 20:21:59.78	60.32	4.02	-42.4	-44.4	17.3	0.00e+00	91	33	0	35651584	58	6720
2026-01-29 20:22:00.78	60.22	4.07	-42.0	-43.8	17.6	0.00e+00	0	33	0	37748736	58	6286
2026-01-29 20:22:01.80	60.12	4.12	-42.6	-44.7	17.0	0.00e+00	92	33	0	38797312	58	6939
2026-01-29 20:22:02.81	60.02	4.17	-42.7	-44.9	16.9	0.00e+00	9	33	0	40894464	58	7089
2026-01-29 20:22:03.81	59.92	4.23	-43.0	-45.3	16.5	0.00e+00	53	33	0	42991616	58	7470
2026-01-29 20:22:04.82	59.82	4.28	-42.3	-44.3	17.5	0.00e+00	92	33	0	45088768	58	6675
2026-01-29 20:22:05.83	59.73	4.33	-42.2	-44.1	17.6	0.00e+00	3	33	0	47185920	58	6497
2026-01-29 20:22:06.84	59.63	4.38	-42.0	-43.8	18.0	0.00e+00	92	33	0	48234496	58	6308
2026-01-29 20:22:07.85	59.53	4.44	-42.1	-44.0	17.8	0.00e+00	0	33	0	50331648	58	6408
2026-01-29 20:22:08.86	59.42	4.49	-41.9	-43.7	18.1	0.00e+00	92	33	0	52428800	58	6177
2026-01-29 20:22:09.87	59.32	4.54	-41.9	-43.7	18.2	0.00e+00	0	33	0	54525952	58	6178
2026-01-29 20:22:10.88	59.22	4.59	-41.9	-43.7	18.1	0.00e+00	91	33	0	56623104	58	6217
2026-01-29 20:22:11.89	59.12	4.65	-41.9	-43.8	18.1	0.00e+00	91	33	0	57671680	58	6257
2026-01-29 20:22:12.90	59.02	4.70	-42.0	-43.8	18.0	0.00e+00	3	33	0	59768832	58	6289
2026-01-29 20:22:13.91	58.92	4.75	-42.0	-43.9	18.0	0.00e+00	33	33	0	61865984	58	6328
2026-01-29 20:22:14.92	58.81	4.80	-41.8	-43.6	18.3	0.00e+00	0	33	0	63963136	58	6136
2026-01-29 20:22:15.93	58.71	4.86	-41.9	-43.7	18.2	0.00e+00	92	33	0	66060288	58	6235
2026-01-29 20:22:16.94	58.61	4.91	-41.9	-43.7	18.2	0.00e+00	0	33	0	67108864	58	6178
2026-01-29 20:22:17.95	58.50	4.96	-41.7	-43.4	18.4	0.00e+00	90	33	0	69206016	56	6758
2026-01-29 20:22:18.96	58.40	5.01	-41.8	-43.6	18.3	0.00e+00	30	33	0	71303168	56	6871
2026-01-29 20:22:19.97	58.29	5.07	-42.0	-43.9	18.1	0.00e+00	0	33	0	73400320	56	7100
2026-01-29 20:22:20.98	58.19	5.12	-42.1	-43.9	18.1	0.00e+00	58	33	0	75497472	56	7109
2026-01-29 20:22:21.99	58.08	5.17	-41.9	-43.6	18.3	0.00e+00	30	33	0	76546048	56	6896
2026-01-29 20:22:23.00	57.98	5.22	-42.0	-43.8	18.2	0.00e+00	92	33	0	78643200	56	7071
2026-01-29 20:22:24.01	57.87	5.28	-42.0	-43.8	18.3	0.00e+00	0	33	0	80740352	56	7020
2026-01-29 20:22:25.02	57.76	5.33	-41.9	-43.7	18.3	0.00e+00	92	33	0	82837504	56	6946
2026-01-29 20:22:26.03	57.66	5.38	-41.8	-43.5	18.5	0.00e+00	29	33	0	84934656	56	6795
2026-01-29 20:22:27.04	57.55	5.43	-42.0	-43.7	18.3	0.00e+00	0	33	0	85983232	56	7006
2026-01-29 20:22:28.05	57.44	5.49	-42.0	-43.7	18.3	0.00e+00	90	33	0	88080384	56	6983
2026-01-29 20:22:29.06	57.33	5.54	-41.7	-43.4	18.7	0.00e+00	0	33	0	90177536	56	6711
2026-01-29 20:22:30.07	57.23	5.59	-41.7	-43.4	18.6	0.00e+00	92	33	0	92274688	56	6749
2026-01-29 20:22:31.07	57.12	5.65	-41.8	-43.6	18.6	0.00e+00	0	33	0	94371840	56	6854
2026-01-29 20:22:32.09	57.01	5.70	-41.8	-43.5	18.7	0.00e+00	92	33	0	96468992	56	6794
2026-01-29 20:22:33.09	56.90	5.75	-41.6	-43.3	18.9	0.00e+00	10	33	0	97517568	56	6649
2026-01-29 20:22:34.10	56.79	5.80	-41.6	-43.2	18.9	0.00e+00	1	33	0	99614720	56	6589
2026-01-29 20:22:35.11	56.68	5.86	-41.7	-43.4	18.6	0.00e+00	86	33	0	101711872	56	6720
2026-01-29 20:22:36.12	56.57	5.91	-41.8	-43.4	18.7	0.00e+00	0	33	0	103809024	56	6765
2026-01-29 20:22:37.13	56.45	5.96	-42.0	-43.8	18.3	0.00e+00	91	33	0	105906176	56	7025
2026-01-29 20:22:38.14	56.34	6.01	-41.8	-43.4	18.7	0.00e+00	0	33	0	106954752	56	6759
2026-01-29 20:22:39.15	56.23	6.07	-41.8	-43.4	18.7	0.00e+00	39	33	0	109051904	56	6744
2026-01-29 20:22:40.16	56.12	6.12	-41.8	-43.5	18.7	0.00e+00	0	33	0	111149056	56	6809
2026-01-29 20:22:41.17	56.00	6.17	-41.8	-43.5	18.7	0.00e+00	16	33	0	113246208	56	6778
2026-01-29 20:22:42.18	55.89	6.23	-41.1	-42.6	19.6	0.00e+00	91	33	0	115343360	56	6132
2026-01-29 20:22:43.19	55.78	6.28	-41.3	-42.8	19.3	0.00e+00	0	33	0	116391936	56	6263
2026-01-29 20:22:44.20	55.66	6.33	-41.1	-42.6	19.5	0.00e+00	61	33	0	118489088	56	6131
2026-01-29 20:22:45.21	55.55	6.38	-41.2	-42.7	19.4	0.00e+00	0	33	0	120586240	56	6206
2026-01-29 20:22:46.22	55.43	6.44	-41.0	-42.5	19.7	0.00e+00	86	33	0	122683392	56	6052
2026-01-29 20:22:47.23	55.32	6.49	-40.8	-42.2	19.9	0.00e+00	0	33	0	124780544	56	5870
2026-01-29 20:22:48.24	55.20	6.54	-40.7	-42.1	20.0	0.00e+00	92	33	0	125829120	54	6482
2026-01-29 20:22:49.25	55.08	6.59	-40.6	-42.0	20.0	0.00e+00	92	33	0	127926272	54	6407
2026-01-29 20:22:50.26	54.97	6.65	-40.6	-42.0	20.0	0.00e+00	0	33	0	130023424	54	6409
2026-01-29 20:22:51.27	54.85	6.70	-40.7	-42.0	19.9	0.00e+00	30	33	0	132120576	54	6453
2026-01-29 20:22:52.27	54.73	6.75	-40.7	-42.1	20.0	0.00e+00	0	33	0	134217728	54	6504
2026-01-29 20:22:53.28	54.61	6.81	-40.6	-42.0	19.9	0.00e+00	44	33	0	135266304	54	6418
2026-01-29 20:22:54.29	54.49	6.86	-41.0	-42.4	19.7	0.00e+00	0	33	0	137363456	54	6748
2026-01-29 20:22:55.30	54.38	6.91	-40.9	-42.4	19.7	0.00e+00	92	33	0	139460608	54	6715
2026-01-29 20:22:56.31	54.26	6.96	-40.8	-42.2	19.8	0.00e+00	90	33	0	141557760	54	6592
2026-01-29 20:22:57.32	54.14	7.02	-40.6	-41.9	20.1	0.00e+00	0	33	0	143654912	54	6371
2026-01-29 20:22:58.33	54.02	7.07	-40.5	-41.8	20.2	0.00e+00	90	33	0	144703488	54	6288
2026-01-29 20:22:59.34	53.89	7.12	-40.5	-41.8	20.1	0.00e+00	0	33	0	146800640	54	6307
2026-01-29 20:23:00.35	53.77	7.17	-40.5	-41.8	20.3	0.00e+00	70	33	0	148897792	54	6293
2026-01-29 20:23:01.35	53.65	7.23	-40.4	-41.7	19.8	0.00e+00	0	33	0	150994944	54	6233
2026-01-29 20:23:02.36	53.53	7.28	-40.6	-42.0	20.1	0.00e+00	92	33	0	153092096	54	6391
2026-01-29 20:23:03.37	53.41	7.33	-40.6	-41.9	20.1	0.00e+00	0	33	0	154140672	54	6389
2026-01-29 20:23:04.38	53.28	7.38	-40.4	-41.7	20.2	0.00e+00	0	33	0	156237824	54	6225
2026-01-29 20:23:05.39	53.16	7.44	-40.6	-42.0	20.1	0.00e+00	92	33	0	158334976	54	6419
2026-01-29 20:23:06.40	53.04	7.49	-40.7	-42.1	19.9	0.00e+00	0	33	0	160432128	54	6511
2026-01-29 20:23:07.41	52.91	7.54	-40.6	-41.9	20.1	0.00e+00	40	33	0	162529280	54	6356
2026-01-29 20:23:08.42	52.79	7.59	-40.7	-42.1	19.9	0.00e+00	0	33	0	164626432	54	6517
2026-01-29 20:23:09.43	52.66	7.65	-40.7	-42.1	20.0	0.00e+00	92	33	0	165675008	54	6469
2026-01-29 20:23:10.44	52.53	7.70	-40.9	-42.3	19.8	0.00e+00	0	33	0	167772160	54	6631
2026-01-29 20:23:11.45	52.41	7.75	-40.9	-42.3	19.7	0.00e+00	0	33	0	169869312	54	6688
2026-01-29 20:23:12.46	52.28	7.80	-41.0	-42.4	19.7	0.00e+00	92	33	0	171966464	54	6725
2026-01-29 20:23:13.47	52.15	7.86	-40.8	-42.1	19.9	0.00e+00	0	33	0	174063616	54	6537
2026-01-29 20:23:14.48	52.03	7.91	-40.8	-42.1	20.2	0.00e+00	92	33	0	175112192	54	6511
2026-01-29 20:23:15.49	51.90	7.96	-40.7	-42.1	20.1	0.00e+00	0	33	0	177209344	54	6500
2026-01-29 20:23:16.50	51.77	8.01	-40.5	-41.9	20.1	0.00e+00	92	33	0	179306496	54	6335
2026-01-29 20:23:17.51	51.64	8.07	-40.7	-42.1	20.0	0.00e+00	0	33	0	181403648	54	6513
2026-01-29 20:23:18.52	51.51	8.12	-40.7	-42.0	20.1	0.00e+00	0	33	0	183500800	54	6455
2026-01-29 20:23:19.53	51.38	8.17	-40.7	-42.1	20.0	0.00e+00	91	33	0	184549376	54	6507
2026-01-29 20:23:20.54	51.25	8.22	-40.7	-42.1	20.0	0.00e+00	0	33	0	186646528	54	6478
2026-01-29 20:23:21.55	51.12	8.27	-40.7	-42.1	20.1	0.00e+00	91	33	0	188743680	54	6502
2026-01-29 20:23:22.56	50.99	8.33	-40.6	-41.9	20.3	0.00e+00	0	33	0	190840832	54	6375
2026-01-29 20:23:23.57	50.85	8.38	-40.6	-41.9	20.3	0.00e+00	91	33	0	192937984	54	6343
2026-01-29 20:23:24.58	50.72	8.43	-40.6	-41.9	20.2	0.00e+00	0	33	0	193986560	54	6371
2026-01-29 20:23:25.59	50.59	8.48	-40.4	-41.7	20.3	0.00e+00	63	33	0	196083712	54	6238
2026-01-29 20:23:26.60	50.45	8.53	-40.4	-41.6	20.4	0.00e+00	77	33	0	198180864	54	6158
2026-01-29 20:23:27.60	50.32	8.59	-40.5	-41.9	20.1	0.00e+00	0	33	0	200278016	54	6318
2026-01-29 20:23:28.62	50.19	8.64	-40.6	-41.9	20.3	0.00e+00	26	33	0	202375168	54	6352
2026-01-29 20:23:29.62	50.05	8.69	-40.5	-41.7	20.5	0.00e+00	0	33	0	203423744	54	6241
2026-01-29 20:23:30.64	49.91	8.74	-40.3	-41.5	20.6	0.00e+00	92	33	0	205520896	54	6062
2026-01-29 20:23:31.64	49.78	8.79	-40.3	-41.5	20.5	0.00e+00	0	33	0	207618048	54	6084
2026-01-29 20:23:32.65	49.64	8.84	-40.2	-41.4	20.6	0.00e+00	86	33	0	209715200	54	6014
2026-01-29 20:23:33.66	49.51	8.90	-40.5	-41.8	20.3	0.00e+00	49	33	0	211812352	54	6291
2026-01-29 20:23:34.67	49.37	8.95	-40.3	-41.6	20.5	0.00e+00	0	33	0	212860928	54	6126
2026-01-29 20:23:35.68	49.23	9.00	-40.7	-42.1	20.1	0.00e+00	30	33	0	214958080	54	6483
2026-01-29 20:23:36.69	49.09	9.05	-40.6	-42.0	20.2	0.00e+00	0	33	0	217055232	54	6420
2026-01-29 20:23:37.70	48.95	9.10	-40.8	-42.2	20.0	0.00e+00	90	33	0	219152384	54	6565
2026-01-29 20:23:38.71	48.81	9.15	-40.8	-42.2	19.9	0.00e+00	0	33	0	221249536	54	6561
2026-01-29 20:23:39.72	48.67	9.21	-40.9	-42.3	20.0	0.00e+00	92	33	0	222298112	54	6651
2026-01-29 20:23:40.73	48.53	9.26	-40.8	-42.2	20.0	0.00e+00	30	33	0	224395264	54	6559
2026-01-29 20:23:41.74	48.39	9.31	-41.0	-42.4	19.9	0.00e+00	0	33	0	226492416	54	6741
2026-01-29 20:23:42.75	48.25	9.36	-41.1	-42.6	19.7	0.00e+00	73	33	0	228589568	54	6887
2026-01-29 20:23:43.76	48.11	9.41	-41.3	-42.8	19.6	0.00e+00	0	33	0	230686720	54	7031
2026-01-29 20:23:44.76	47.97	9.46	-40.9	-42.3	19.9	0.00e+00	92	33	0	232783872	54	6685
2026-01-29 20:23:45.77	47.82	9.51	-41.0	-42.5	19.8	0.00e+00	0	33	0	233832448	54	6787
2026-01-29 20:23:46.78	47.68	9.56	-40.7	-42.0	20.1	0.00e+00	85	33	0	235929600	54	6455
2026-01-29 20:23:47.79	47.54	9.61	-40.7	-42.1	20.1	0.00e+00	30	33	0	238026752	54	6512
2026-01-29 20:23:48.80	47.39	9.66	-40.6	-42.0	20.2	0.00e+00	0	33	0	240123904	54	6417
2026-01-29 20:23:49.81	47.25	9.71	-40.6	-41.9	20.3	0.00e+00	76	33	0	242221056	54	6390
2026-01-29 20:23:50.82	47.10	9.76	-40.5	-41.9	20.3	0.00e+00	0	33	0	243269632	54	6341
2026-01-29 20:23:51.83	46.96	9.81	-40.4	-41.7	20.4	0.00e+00	38	33	0	245366784	54	6213
2026-01-29 20:23:52.84	46.81	9.87	-40.3	-41.6	20.6	0.00e+00	0	33	0	247463936	54	6107
2026-01-29 20:23:53.85	46.66	9.92	-40.2	-41.4	20.8	0.00e+00	92	33	0	249561088	54	6015
2026-01-29 20:23:54.86	46.51	9.97	-39.9	-41.1	21.1	0.00e+00	33	33	0	251658240	52	6478
2026-01-29 20:23:55.87	46.37	10.02	-40.0	-41.2	21.1	0.00e+00	9	33	0	252706816	52	6547
2026-01-29 20:23:56.88	46.22	10.07	-39.7	-40.8	21.4	0.00e+00	85	33	0	254803968	52	6301
2026-01-29 20:23:57.89	46.07	10.12	-39.8	-40.9	21.2	0.00e+00	0	33	0	256901120	52	6389
2026-01-29 20:23:58.90	45.92	10.17	-39.9	-41.1	21.0	0.00e+00	67	33	0	258998272	52	6515
2026-01-29 20:23:59.91	45.77	10.22	-39.8	-41.0	21.3	0.00e+00	0	33	0	261095424	52	6446
2026-01-29 20:24:00.92	45.62	10.27	-39.6	-40.7	21.4	0.00e+00	90	33	0	262144000	52	6241
2026-01-29 20:24:01.93	45.47	10.32	-39.4	-40.5	21.5	0.00e+00	0	33	0	264241152	52	6087
2026-01-29 20:24:02.94	45.31	10.36	-39.4	-40.5	21.7	0.00e+00	67	33	0	266338304	52	6053
2026-01-29 20:24:03.95	45.16	10.41	-39.2	-40.3	21.7	0.00e+00	32	33	0	268435456	52	5952
2026-01-29 20:24:04.95	45.01	10.46	-39.3	-40.5	21.7	0.00e+00	0	33	0	270532608	52	6053
2026-01-29 20:24:05.96	44.86	10.51	-39.2	-40.3	21.8	0.00e+00	31	33	0	271581184	52	5897
2026-01-29 20:24:06.97	44.70	10.56	-39.0	-40.0	21.6	0.00e+00	0	33	0	273678336	52	5759
2026-01-29 20:24:07.98	44.55	10.61	-38.8	-39.9	22.1	0.00e+00	92	33	0	275775488	50	6358
2026-01-29 20:24:08.99	44.39	10.66	-38.9	-39.9	22.1	0.00e+00	0	33	0	277872640	50	6352
2026-01-29 20:24:10.00	44.24	10.71	-38.8	-39.8	22.0	0.00e+00	92	33	0	279969792	50	6309
2026-01-29 20:24:11.01	44.08	10.76	-38.9	-40.0	22.0	0.00e+00	33	33	0	281018368	50	6413
2026-01-29 20:24:12.02	43.93	10.81	-38.8	-39.8	22.2	0.00e+00	0	33	0	283115520	50	6309
2026-01-29 20:24:13.03	43.77	10.85	-38.7	-39.7	22.3	0.00e+00	41	33	0	285212672	50	6232
2026-01-29 20:24:14.04	43.61	10.90	-38.8	-39.9	22.1	0.00e+00	0	33	0	287309824	50	6319
2026-01-29 20:24:15.05	43.45	10.95	-39.0	-40.1	22.0	0.00e+00	92	33	0	289406976	50	6473
2026-01-29 20:24:16.06	43.29	11.00	-39.1	-40.2	21.8	0.00e+00	0	33	0	290455552	50	6581
2026-01-29 20:24:17.07	43.13	11.05	-39.3	-40.5	21.8	0.00e+00	84	33	0	292552704	50	6775
2026-01-29 20:24:18.08	42.97	11.09	-39.2	-40.3	21.8	0.00e+00	14	33	0	294649856	50	6683
2026-01-29 20:24:19.09	42.81	11.14	-39.3	-40.4	21.8	0.00e+00	0	33	0	296747008	50	6760
2026-01-29 20:24:20.09	42.66	11.19	-38.9	-39.9	22.1	0.00e+00	92	33	0	298844160	50	6386
2026-01-29 20:24:21.10	42.49	11.24	-38.7	-39.8	22.3	0.00e+00	0	33	0	299892736	50	6250
2026-01-29 20:24:22.11	42.33	11.28	-38.6	-39.7	22.3	0.00e+00	92	33	0	301989888	50	6203
2026-01-29 20:24:23.12	42.17	11.33	-38.6	-39.6	22.5	0.00e+00	0	33	0	304087040	50	6131
2026-01-29 20:24:24.13	42.01	11.38	-38.5	-39.5	22.5	0.00e+00	53	33	0	306184192	50	6053
2026-01-29 20:24:25.14	41.84	11.43	-38.4	-39.4	22.2	0.00e+00	0	33	0	308281344	50	6030
2026-01-29 20:24:26.15	41.68	11.47	-38.4	-39.4	22.5	0.00e+00	0	33	0	309329920	50	5973
2026-01-29 20:24:27.16	41.52	11.52	-38.2	-39.2	22.7	0.00e+00	92	33	0	311427072	50	5851
2026-01-29 20:24:28.17	41.35	11.57	-38.1	-39.0	22.9	0.00e+00	0	33	0	313524224	50	5735
2026-01-29 20:24:29.18	41.18	11.61	-38.0	-38.9	22.9	0.00e+00	92	33	0	315621376	50	5671
2026-01-29 20:24:30.19	41.02	11.66	-38.0	-38.9	22.9	0.00e+00	0	33	0	317718528	50	5691
2026-01-29 20:24:31.20	40.85	11.70	-38.1	-39.0	22.9	0.00e+00	92	33	0	318767104	50	5750
2026-01-29 20:24:32.21	40.68	11.75	-38.1	-39.1	22.8	0.00e+00	0	33	0	320864256	50	5773
2026-01-29 20:24:33.22	40.52	11.80	-38.3	-39.3	22.6	0.00e+00	0	33	0	322961408	50	5934
2026-01-29 20:24:34.23	40.35	11.84	-38.5	-39.5	22.6	0.00e+00	92	33	0	325058560	50	6046
2026-01-29 20:24:35.24	40.18	11.89	-38.4	-39.4	22.6	0.00e+00	0	33	0	327155712	50	6005
2026-01-29 20:24:36.25	40.01	11.93	-38.5	-39.5	22.5	0.00e+00	92	33	0	329252864	50	6047
2026-01-29 20:24:37.26	39.84	11.98	-38.5	-39.6	22.3	0.00e+00	0	33	0	330301440	50	6115
2026-01-29 20:24:38.27	39.67	12.02	-38.4	-39.4	22.5	0.00e+00	91	33	0	332398592	50	6030
2026-01-29 20:24:39.28	39.50	12.07	-38.4	-39.4	22.6	0.00e+00	0	33	0	334495744	50	6018
2026-01-29 20:24:40.29	39.33	12.11	-38.3	-39.4	22.6	0.00e+00	0	33	0	336592896	50	5972
2026-01-29 20:24:41.30	39.16	12.16	-38.6	-39.6	22.5	0.00e+00	90	33	0	338690048	50	6155
2026-01-29 20:24:42.31	38.98	12.20	-38.0	-38.9	23.0	0.00e+00	0	33	0	339738624	50	5688
2026-01-29 20:24:43.32	38.81	12.24	-37.9	-38.8	23.1	0.00e+00	92	33	0	341835776	50	5628
2026-01-29 20:24:44.34	38.64	12.29	-37.9	-38.8	23.1	0.00e+00	0	33	0	343932928	50	5604
2026-01-29 20:24:45.35	38.46	12.33	-37.6	-38.5	23.3	0.00e+00	92	33	0	346030080	48	6080
2026-01-29 20:24:46.36	38.29	12.38	-37.7	-38.6	23.3	0.00e+00	0	33	0	348127232	48	6167
2026-01-29 20:24:47.37	38.11	12.42	-37.4	-38.3	23.4	0.00e+00	0	33	0	349175808	48	5919
2026-01-29 20:24:48.38	37.94	12.46	-37.8	-38.7	23.1	0.00e+00	29	34	0	351272960	48	6213
2026-01-29 20:24:49.38	37.76	12.51	-37.9	-38.8	23.1	0.00e+00	0	33	0	353370112	48	6287
2026-01-29 20:24:50.40	37.58	12.55	-37.8	-38.8	23.1	0.00e+00	47	33	0	355467264	48	6270
2026-01-29 20:24:51.41	37.41	12.59	-37.8	-38.8	23.1	0.00e+00	0	34	0	357564416	48	6281
2026-01-29 20:24:52.41	37.23	12.63	-38.0	-39.0	22.9	0.00e+00	71	34	0	358612992	48	6435
2026-01-29 20:24:53.42	37.05	12.68	-38.2	-39.2	22.8	0.00e+00	0	33	0	360710144	48	6586
2026-01-29 20:24:54.44	36.87	12.72	-38.4	-39.4	22.7	0.00e+00	65	33	0	362807296	48	6749
2026-01-29 20:24:55.45	36.69	12.76	-38.6	-39.6	22.5	0.00e+00	27	33	0	364904448	48	6904
2026-01-29 20:24:56.45	36.52	12.80	-38.6	-39.6	22.3	0.00e+00	0	34	0	367001600	48	6891
2026-01-29 20:24:57.46	36.33	12.84	-38.4	-39.4	22.6	0.00e+00	28	33	0	369098752	48	6734
2026-01-29 20:24:58.48	36.15	12.88	-38.3	-39.3	22.7	0.00e+00	0	33	0	370147328	48	6660
2026-01-29 20:24:59.48	35.97	12.93	-38.3	-39.2	22.7	0.00e+00	64	33	0	372244480	48	6613
2026-01-29 20:25:00.49	35.79	12.97	-38.3	-39.3	22.8	0.00e+00	0	34	0	374341632	48	6627
2026-01-29 20:25:01.50	35.61	13.01	-38.3	-39.3	22.7	0.00e+00	81	34	0	376438784	48	6642
2026-01-29 20:25:02.51	35.43	13.05	-38.6	-39.6	22.5	0.00e+00	38	34	0	378535936	48	6868
2026-01-29 20:25:03.52	35.24	13.09	-38.6	-39.7	22.4	0.00e+00	0	34	0	379584512	50	6192
2026-01-29 20:25:04.53	35.06	13.13	-38.7	-39.7	22.4	0.00e+00	77	34	0	381681664	50	6212
2026-01-29 20:25:05.54	34.87	13.17	-38.8	-39.8	22.3	0.00e+00	0	33	0	383778816	50	6298
2026-01-29 20:25:06.55	34.69	13.21	-38.7	-39.8	22.3	0.00e+00	92	33	0	385875968	50	6278
2026-01-29 20:25:07.57	34.50	13.25	-38.9	-39.9	22.1	0.00e+00	0	34	0	387973120	50	6385
2026-01-29 20:25:08.58	34.32	13.28	-39.0	-40.1	22.3	0.00e+00	92	33	0	389021696	50	6484
2026-01-29 20:25:09.59	34.13	13.32	-38.6	-39.7	22.5	0.00e+00	0	33	0	391118848	50	6200
2026-01-29 20:25:10.60	33.94	13.36	-38.4	-39.4	22.6	0.00e+00	0	33	0	393216000	50	6013
2026-01-29 20:25:11.61	33.76	13.40	-38.2	-39.2	22.8	0.00e+00	92	33	0	395313152	50	5859
2026-01-29 20:25:12.62	33.57	13.44	-38.1	-39.1	22.8	0.00e+00	0	34	0	397410304	50	5805
2026-01-29 20:25:13.63	33.38	13.48	-38.0	-38.9	23.1	0.00e+00	92	33	0	398458880	50	5683
2026-01-29 20:25:14.64	33.19	13.51	-38.0	-39.0	23.0	0.00e+00	0	33	0	400556032	50	5702
2026-01-29 20:25:15.65	33.00	13.55	-38.0	-38.9	23.1	0.00e+00	92	33	0	402653184	50	5679
2026-01-29 20:25:16.66	32.81	13.59	-38.1	-39.1	22.9	0.00e+00	0	33	0	404750336	50	5807
2026-01-29 20:25:17.67	32.62	13.62	-38.2	-39.1	23.0	0.00e+00	0	33	0	406847488	50	5820
2026-01-29 20:25:18.68	32.43	13.66	-38.2	-39.1	22.9	0.00e+00	92	33	0	407896064	50	5826
2026-01-29 20:25:19.69	32.24	13.70	-38.1	-39.1	22.9	0.00e+00	0	33	0	409993216	50	5803
2026-01-29 20:25:20.70	32.05	13.73	-38.1	-39.0	22.9	0.00e+00	46	34	0	412090368	50	5756
2026-01-29 20:25:21.71	31.86	13.77	-37.9	-38.8	23.0	0.00e+00	0	33	0	414187520	50	5597
2026-01-29 20:25:22.72	31.66	13.80	-37.9	-38.8	23.0	0.00e+00	64	34	0	416284672	50	5630
2026-01-29 20:25:23.73	31.47	13.84	-37.7	-38.6	23.3	0.00e+00	0	33	0	417333248	48	6148
2026-01-29 20:25:24.74	31.28	13.87	-37.7	-38.6	23.2	0.00e+00	0	33	0	419430400	48	6124
2026-01-29 20:25:25.75	31.08	13.91	-37.7	-38.6	23.1	0.00e+00	32	33	0	421527552	48	6147
2026-01-29 20:25:26.76	30.89	13.94	-38.0	-39.0	23.0	0.00e+00	0	33	0	423624704	48	6394
2026-01-29 20:25:27.77	30.70	13.98	-38.2	-39.2	22.8	0.00e+00	17	33	0	425721856	48	6576
2026-01-29 20:25:28.78	30.50	14.01	-38.5	-39.6	22.5	0.00e+00	0	33	0	426770432	48	6859
2026-01-29 20:25:29.79	30.30	14.04	-38.6	-39.7	22.4	0.00e+00	91	33	0	428867584	48	6934
2026-01-29 20:25:30.80	30.11	14.08	-38.4	-39.4	22.6	0.00e+00	0	33	0	430964736	48	6707
2026-01-29 20:25:31.81	29.91	14.11	-38.6	-39.6	22.5	0.00e+00	30	33	0	433061888	48	6903
2026-01-29 20:25:32.82	29.71	14.14	-38.4	-39.4	22.6	0.00e+00	90	33	0	435159040	48	6704
2026-01-29 20:25:33.83	29.52	14.18	-38.1	-39.1	22.9	0.00e+00	0	34	0	437256192	48	6500
2026-01-29 20:25:34.84	29.32	14.21	-38.0	-38.9	23.1	0.00e+00	34	33	0	438304768	48	6366
2026-01-29 20:25:35.85	29.12	14.24	-38.1	-39.1	22.9	0.00e+00	0	34	0	440401920	48	6484
2026-01-29 20:25:36.86	28.92	14.27	-38.0	-38.9	23.1	0.00e+00	64	33	0	442499072	48	6376
2026-01-29 20:25:37.87	28.72	14.30	-37.4	-38.3	23.3	0.00e+00	0	34	0	444596224	48	5943
2026-01-29 20:25:38.88	28.52	14.33	-37.5	-38.4	22.7	0.00e+00	0	34	0	446693376	48	5984
2026-01-29 20:25:39.89	28.32	14.36	-37.6	-38.5	23.3	0.00e+00	35	33	0	447741952	48	6080
2026-01-29 20:25:40.90	28.12	14.39	-37.4	-38.3	23.4	0.00e+00	0	33	0	449839104	48	5936
2026-01-29 20:25:41.91	27.92	14.42	-37.6	-38.5	23.3	0.00e+00	92	33	0	451936256	48	6097
2026-01-29 20:25:42.92	27.72	14.45	-37.7	-38.6	23.2	0.00e+00	0	34	0	454033408	48	6168
2026-01-29 20:25:43.93	27.52	14.48	-37.5	-38.5	23.4	0.00e+00	6	34	0	456130560	48	6034
2026-01-29 20:25:44.94	27.32	14.51	-37.7	-38.6	23.1	0.00e+00	0	33	0	457179136	48	6173
2026-01-29 20:25:45.95	27.11	14.54	-37.6	-38.6	23.3	0.00e+00	0	34	0	459276288	48	6106
2026-01-29 20:25:46.96	26.91	14.57	-37.6	-38.5	23.3	0.00e+00	0	33	0	461373440	48	6051
2026-01-29 20:25:47.97	26.71	14.59	-37.7	-38.6	23.3	0.00e+00	0	33	0	463470592	48	6137
2026-01-29 20:25:48.98	26.51	14.62	-37.2	-38.0	23.7	0.00e+00	42	34	0	465567744	48	5749
2026-01-29 20:25:49.99	26.30	14.65	-37.3	-38.2	23.5	0.00e+00	0	33	0	466616320	48	5854
2026-01-29 20:25:50.99	26.10	14.68	-37.6	-38.5	23.5	0.00e+00	92	34	0	468713472	48	6040
2026-01-29 20:25:52.00	25.89	14.70	-37.7	-38.6	23.1	0.00e+00	0	34	0	470810624	48	6108
2026-01-29 20:25:53.01	25.69	14.73	-37.9	-38.8	23.1	0.00e+00	0	34	0	472907776	48	6260
2026-01-29 20:25:54.02	25.48	14.76	-38.2	-39.1	22.9	0.00e+00	0	34	0	475004928	48	6529
2026-01-29 20:25:55.03	25.28	14.78	-38.4	-39.4	22.6	0.00e+00	0	34	0	476053504	48	6768
2026-01-29 20:25:56.04	25.07	14.81	-38.6	-39.6	22.6	0.00e+00	79	33	0	478150656	48	6872
2026-01-29 20:25:57.05	24.87	14.83	-38.6	-39.6	22.5	0.00e+00	0	34	0	480247808	48	6917
2026-01-29 20:25:58.06	24.66	14.86	-38.4	-39.3	22.7	0.00e+00	51	33	0	482344960	48	6687
2026-01-29 20:25:59.07	24.45	14.88	-38.4	-39.4	22.7	0.00e+00	0	33	0	484442112	48	6746
2026-01-29 20:26:00.08	24.24	14.90	-38.5	-39.4	22.6	0.00e+00	0	33	0	485490688	48	6764
2026-01-29 20:26:01.09	24.04	14.93	-38.5	-39.5	22.6	0.00e+00	0	33	0	487587840	48	6791
2026-01-29 20:26:02.10	23.83	14.95	-38.6	-39.6	22.5	0.00e+00	0	33	0	489684992	50	6159
2026-01-29 20:26:03.11	23.62	14.97	-38.6	-39.6	22.5	0.00e+00	14	33	0	491782144	50	6149
2026-01-29 20:26:04.12	23.41	14.99	-38.7	-39.7	22.1	0.00e+00	0	34	0	493879296	50	6194
2026-01-29 20:26:05.13	23.20	15.02	-38.5	-39.5	22.6	0.00e+00	44	33	0	494927872	50	6039
2026-01-29 20:26:06.14	22.99	15.04	-38.6	-39.6	22.5	0.00e+00	0	33	0	497025024	50	6143
2026-01-29 20:26:07.15	22.78	15.06	-38.5	-39.5	22.5	0.00e+00	0	33	0	499122176	50	6074
2026-01-29 20:26:08.16	22.57	15.08	-38.6	-39.6	22.5	0.00e+00	0	33	0	501219328	50	6143
2026-01-29 20:26:09.17	22.36	15.10	-38.4	-39.4	22.8	0.00e+00	0	34	0	503316480	50	5984
2026-01-29 20:26:10.18	22.15	15.12	-38.3	-39.3	22.8	0.00e+00	68	34	0	505413632	50	5901
2026-01-29 20:26:11.19	21.94	15.14	-38.2	-39.1	22.9	0.00e+00	0	34	0	506462208	50	5808
2026-01-29 20:26:12.20	21.73	15.16	-38.1	-39.0	22.9	0.00e+00	92	34	0	508559360	50	5735
2026-01-29 20:26:13.21	21.52	15.18	-38.3	-39.3	22.8	0.00e+00	0	34	0	510656512	50	5916
2026-01-29 20:26:14.22	21.31	15.20	-38.0	-39.0	23.2	0.00e+00	33	34	0	512753664	50	5701
2026-01-29 20:26:15.23	21.09	15.22	-37.8	-38.7	23.1	0.00e+00	0	34	0	514850816	50	5521
2026-01-29 20:26:16.24	20.88	15.23	-37.8	-38.7	23.1	0.00e+00	0	34	0	515899392	48	6181
2026-01-29 20:26:17.25	20.67	15.25	-37.8	-38.7	23.2	0.00e+00	32	33	0	517996544	48	6175
2026-01-29 20:26:18.26	20.46	15.27	-37.8	-38.8	23.2	0.00e+00	0	34	0	520093696	48	6250
2026-01-29 20:26:19.27	20.24	15.29	-37.9	-38.9	23.0	0.00e+00	82	33	0	522190848	48	6340
2026-01-29 20:26:20.28	20.03	15.30	-38.1	-39.1	23.0	0.00e+00	1	34	0	524288000	48	6488
2026-01-29 20:26:21.29	19.82	15.32	-38.1	-39.1	22.9	0.00e+00	22	34	0	525336576	48	6492
2026-01-29 20:26:22.30	19.60	15.33	-38.0	-39.0	23.0	0.00e+00	0	34	0	527433728	48	6416
2026-01-29 20:26:23.31	19.39	15.35	-38.1	-39.1	22.9	0.00e+00	0	33	0	529530880	48	6508
2026-01-29 20:26:24.32	19.17	15.36	-38.2	-39.2	22.8	0.00e+00	9	33	0	531628032	48	6543
2026-01-29 20:26:25.33	18.96	15.38	-38.2	-39.2	22.8	0.00e+00	0	33	0	533725184	48	6540
2026-01-29 20:26:26.34	18.75	15.39	-38.2	-39.2	22.7	0.00e+00	92	34	0	534773760	48	6590
2026-01-29 20:26:27.35	18.53	15.41	-38.4	-39.4	22.7	0.00e+00	0	34	0	536870912	48	6714
2026-01-29 20:26:28.36	18.32	15.42	-38.2	-39.2	22.6	0.00e+00	92	34	0	538968064	48	6552
2026-01-29 20:26:29.37	18.10	15.43	-38.4	-39.4	22.7	0.00e+00	0	34	0	541065216	48	6760
2026-01-29 20:26:30.38	17.89	15.44	-38.5	-39.5	22.5	0.00e+00	0	34	0	543162368	48	6777
2026-01-29 20:26:31.39	17.67	15.46	-38.4	-39.4	22.7	0.00e+00	0	34	0	544210944	48	6724
2026-01-29 20:26:32.40	17.45	15.47	-38.6	-39.6	22.7	0.00e+00	0	34	0	546308096	48	6892
2026-01-29 20:26:33.41	17.24	15.48	-38.6	-39.6	22.5	0.00e+00	33	34	0	548405248	48	6897
2026-01-29 20:26:34.42	17.02	15.49	-38.6	-39.6	22.6	0.00e+00	0	33	0	550502400	50	6120
2026-01-29 20:26:35.43	16.81	15.50	-38.7	-39.7	22.4	0.00e+00	61	33	0	552599552	50	6216
2026-01-29 20:26:36.44	16.59	15.51	-38.7	-39.7	22.5	0.00e+00	33	33	0	553648128	50	6226
2026-01-29 20:26:37.45	16.37	15.52	-38.6	-39.6	22.5	0.00e+00	0	34	0	555745280	50	6139
2026-01-29 20:26:38.46	16.16	15.53	-38.4	-39.4	22.8	0.00e+00	0	34	0	557842432	50	5979
2026-01-29 20:26:39.47	15.94	15.54	-38.3	-39.2	22.7	0.00e+00	0	33	0	559939584	50	5896
2026-01-29 20:26:40.48	15.72	15.55	-38.4	-39.4	22.8	0.00e+00	27	34	0	562036736	50	5979
2026-01-29 20:26:41.49	15.51	15.55	-38.4	-39.3	22.7	0.00e+00	0	33	0	563085312	50	5962
2026-01-29 20:26:42.50	15.29	15.56	-38.5	-39.5	22.6	0.00e+00	42	33	0	565182464	50	6067
2026-01-29 20:26:43.50	15.07	15.57	-38.4	-39.4	22.7	0.00e+00	0	34	0	567279616	50	5969
2026-01-29 20:26:44.52	14.85	15.57	-38.4	-39.3	22.7	0.00e+00	0	34	0	569376768	50	5958
2026-01-29 20:26:45.53	14.64	15.58	-38.3	-39.3	22.8	0.00e+00	0	34	0	571473920	50	5937
2026-01-29 20:26:46.53	14.42	15.59	-38.2	-39.1	23.0	0.00e+00	0	34	0	573571072	50	5820
2026-01-29 20:26:47.54	14.20	15.59	-38.0	-39.0	23.0	0.00e+00	27	33	0	574619648	50	5705
2026-01-29 20:26:48.55	13.99	15.60	-37.9	-38.9	23.0	0.00e+00	0	33	0	576716800	50	5658
2026-01-29 20:26:49.57	13.77	15.60	-37.9	-38.8	23.2	0.00e+00	92	33	0	578813952	50	5594
2026-01-29 20:26:50.57	13.55	15.61	-38.0	-39.0	23.0	0.00e+00	0	33	0	580911104	50	5732
2026-01-29 20:26:51.58	13.33	15.61	-38.1	-39.1	22.9	0.00e+00	0	34	0	583008256	50	5809
2026-01-29 20:26:52.59	13.12	15.61	-38.3	-39.3	22.7	0.00e+00	0	33	0	584056832	50	5953
2026-01-29 20:26:53.60	12.90	15.62	-38.4	-39.4	22.7	0.00e+00	0	33	0	586153984	50	5991
2026-01-29 20:26:54.61	12.68	15.62	-38.5	-39.5	22.6	0.00e+00	53	33	0	588251136	50	6063
2026-01-29 20:26:55.62	12.46	15.62	-38.5	-39.5	22.5	0.00e+00	0	33	0	590348288	50	6095
2026-01-29 20:26:56.63	12.24	15.62	-38.4	-39.4	22.6	0.00e+00	92	34	0	592445440	50	6020
2026-01-29 20:26:57.64	12.03	15.62	-38.4	-39.4	22.7	0.00e+00	0	34	0	593494016	50	6003
2026-01-29 20:26:58.65	11.81	15.62	-38.3	-39.3	22.8	0.00e+00	34	34	0	595591168	50	5933
2026-01-29 20:26:59.66	11.59	15.62	-38.4	-39.4	22.7	0.00e+00	0	34	0	597688320	50	5990
2026-01-29 20:27:00.67	11.37	15.62	-38.2	-39.1	22.9	0.00e+00	0	34	0	599785472	50	5828
2026-01-29 20:27:01.69	11.15	15.62	-38.3	-39.2	23.0	0.00e+00	36	34	0	601882624	50	5870
2026-01-29 20:27:02.69	10.94	15.62	-37.5	-38.4	23.4	0.00e+00	0	34	0	602931200	48	6012
2026-01-29 20:27:03.71	10.72	15.62	-37.4	-38.3	23.5	0.00e+00	33	34	0	605028352	48	5949
2026-01-29 20:27:04.72	10.50	15.62	-37.7	-38.6	23.4	0.00e+00	0	33	0	607125504	48	6116
2026-01-29 20:27:05.73	10.28	15.62	-37.8	-38.8	23.3	0.00e+00	58	34	0	609222656	48	6273
2026-01-29 20:27:06.74	10.06	15.62	-38.0	-38.9	23.0	0.00e+00	0	33	0	611319808	48	6357
2026-01-29 20:27:07.75	9.84	15.61	-38.1	-39.1	23.0	0.00e+00	0	33	0	612368384	48	6491
2026-01-29 20:27:08.76	9.63	15.61	-38.3	-39.2	22.8	0.00e+00	0	33	0	614465536	48	6602
2026-01-29 20:27:09.77	9.41	15.61	-38.4	-39.4	22.8	0.00e+00	0	34	0	616562688	48	6737
2026-01-29 20:27:10.78	9.19	15.60	-38.5	-39.5	22.6	0.00e+00	30	34	0	618659840	48	6778
2026-01-29 20:27:11.79	8.97	15.60	-38.5	-39.5	22.7	0.00e+00	0	33	0	620756992	48	6809
2026-01-29 20:27:12.80	8.76	15.59	-38.6	-39.6	22.5	0.00e+00	92	33	0	621805568	48	6919
2026-01-29 20:27:13.81	8.54	15.59	-38.7	-39.8	22.3	0.00e+00	0	33	0	623902720	50	6261
2026-01-29 20:27:14.82	8.32	15.58	-38.9	-40.0	21.6	0.00e+00	0	34	0	625999872	50	6430
2026-01-29 20:27:15.83	8.10	15.57	-39.2	-40.3	21.7	0.00e+00	0	33	0	628097024	50	6661
2026-01-29 20:27:16.84	7.89	15.57	-39.3	-40.4	21.8	0.00e+00	0	34	0	630194176	50	6697
2026-01-29 20:27:17.85	7.67	15.56	-39.1	-40.2	21.8	0.00e+00	58	33	0	631242752	50	6605
2026-01-29 20:27:18.86	7.45	15.55	-39.3	-40.4	21.9	0.00e+00	0	33	0	633339904	50	6727
2026-01-29 20:27:19.87	7.24	15.55	-39.0	-40.1	22.2	0.00e+00	92	34	0	635437056	50	6477
2026-01-29 20:27:20.88	7.02	15.54	-38.6	-39.6	22.5	0.00e+00	0	34	0	637534208	50	6126
2026-01-29 20:27:21.88	6.80	15.53	-38.5	-39.6	22.6	0.00e+00	0	34	0	639631360	50	6116
2026-01-29 20:27:22.90	6.59	15.52	-38.4	-39.4	22.7	0.00e+00	0	34	0	641728512	50	6030
2026-01-29 20:27:23.91	6.37	15.51	-38.3	-39.3	22.8	0.00e+00	0	34	0	642777088	50	5937
2026-01-29 20:27:24.92	6.15	15.50	-38.2	-39.2	22.8	0.00e+00	55	34	0	644874240	50	5843
2026-01-29 20:27:25.93	5.94	15.49	-38.3	-39.3	22.8	0.00e+00	0	34	0	646971392	50	5901
2026-01-29 20:27:26.94	5.72	15.48	-38.5	-39.5	22.7	0.00e+00	87	34	0	649068544	50	6053
2026-01-29 20:27:27.95	5.51	15.47	-38.6	-39.6	22.5	0.00e+00	0	34	0	651165696	50	6144
2026-01-29 20:27:28.96	5.29	15.46	-38.8	-39.8	22.4	0.00e+00	43	34	0	652214272	50	6300
2026-01-29 20:27:29.97	5.07	15.44	-38.6	-39.7	22.5	0.00e+00	0	33	0	654311424	50	6179
2026-01-29 20:27:30.98	4.86	15.43	-38.5	-39.6	22.5	0.00e+00	0	34	0	656408576	50	6107
2026-01-29 20:27:31.99	4.64	15.42	-38.5	-39.5	22.6	0.00e+00	0	34	0	658505728	50	6058
2026-01-29 20:27:33.00	4.43	15.40	-38.4	-39.4	22.7	0.00e+00	0	34	0	660602880	50	6016
2026-01-29 20:27:34.01	4.21	15.39	-38.1	-39.1	23.0	0.00e+00	87	34	0	661651456	50	5775
2026-01-29 20:27:35.02	4.00	15.38	-37.9	-38.8	23.1	0.00e+00	0	34	0	663748608	50	5629
2026-01-29 20:27:36.03	3.79	15.36	-37.5	-38.4	23.6	0.00e+00	91	34	0	665845760	48	5983
2026-01-29 20:27:37.04	3.57	15.35	-37.3	-38.2	23.7	0.00e+00	0	34	0	667942912	48	5876
2026-01-29 20:27:38.04	3.36	15.33	-37.4	-38.3	23.5	0.00e+00	0	34	0	670040064	48	5951
2026-01-29 20:27:39.05	3.15	15.32	-37.6	-38.6	23.3	0.00e+00	0	34	0	671088640	48	6112
2026-01-29 20:27:40.06	2.93	15.30	-37.7	-38.6	23.4	0.00e+00	0	34	0	673185792	48	6151
2026-01-29 20:27:41.07	2.72	15.28	-37.8	-38.7	23.2	0.00e+00	13	34	0	675282944	48	6244
2026-01-29 20:27:42.08	2.51	15.27	-37.9	-38.9	23.0	0.00e+00	0	34	0	677380096	48	6351
2026-01-29 20:27:43.09	2.29	15.25	-38.1	-39.0	23.1	0.00e+00	68	34	0	679477248	48	6454
2026-01-29 20:27:44.10	2.08	15.23	-38.0	-39.0	23.1	0.00e+00	0	34	0	680525824	48	6409
2026-01-29 20:27:45.11	1.87	15.22	-38.0	-39.0	23.1	0.00e+00	0	34	0	682622976	48	6424
2026-01-29 20:27:46.12	1.66	15.20	-38.1	-39.0	23.1	0.00e+00	0	34	0	684720128	48	6455
2026-01-29 20:27:47.13	1.45	15.18	-38.1	-39.0	23.0	0.00e+00	0	34	0	686817280	48	6447
2026-01-29 20:27:48.14	1.23	15.16	-38.2	-39.1	22.9	0.00e+00	13	34	0	688914432	48	6529
2026-01-29 20:27:49.15	1.02	15.14	-38.3	-39.3	22.9	0.00e+00	0	34	0	689963008	48	6687
2026-01-29 20:27:50.16	0.81	15.12	-38.2	-39.1	22.9	0.00e+00	90	34	0	692060160	48	6526
2026-01-29 20:27:51.17	0.60	15.10	-38.3	-39.3	22.7	0.00e+00	0	34	0	694157312	48	6673
2026-01-29 20:27:52.18	0.39	15.08	-38.3	-39.3	22.9	0.00e+00	0	34	0	696254464	48	6683
2026-01-29 20:27:53.19	0.18	15.06	-38.5	-39.5	22.8	0.00e+00	0	34	0	698351616	48	6825
2026-01-29 20:27:54.20	359.97	15.04	-38.5	-39.5	22.6	0.00e+00	33	34	0	699400192	48	6808
2026-01-29 20:27:55.21	359.76	15.02	-38.6	-39.6	22.6	0.00e+00	31	34	0	701497344	48	6873
2026-01-29 20:27:56.22	359.55	14.99	-38.4	-39.4	22.7	0.00e+00	0	34	0	703594496	48	6767
2026-01-29 20:27:57.23	359.35	14.97	-38.0	-38.9	23.1	0.00e+00	92	34	0	705691648	48	6380
2026-01-29 20:27:58.24	359.14	14.95	-37.8	-38.7	23.3	0.00e+00	0	34	0	707788800	48	6233
2026-01-29 20:27:59.25	358.93	14.93	-37.5	-38.4	23.5	0.00e+00	0	34	0	709885952	48	6025
2026-01-29 20:28:00.26	358.72	14.90	-37.5	-38.4	23.5	0.00e+00	0	34	0	710934528	48	6000
2026-01-29 20:28:01.26	358.52	14.88	-37.6	-38.5	23.5	0.00e+00	0	34	0	713031680	48	6094
2026-01-29 20:28:02.27	358.31	14.85	-37.6	-38.5	23.4	0.00e+00	34	34	0	715128832	48	6051
2026-01-29 20:28:03.28	358.10	14.83	-37.5	-38.4	23.4	0.00e+00	0	34	0	717225984	48	6015
2026-01-29 20:28:04.30	357.89	14.80	-37.5	-38.4	23.5	0.00e+00	92	34	0	719323136	48	6012
2026-01-29 20:28:05.30	357.69	14.78	-37.6	-38.5	23.5	0.00e+00	0	34	0	720371712	48	6056
2026-01-29 20:28:06.31	357.49	14.75	-37.2	-38.1	23.7	0.00e+00	0	33	0	722468864	48	5797
2026-01-29 20:28:07.32	357.28	14.73	-37.4	-38.3	23.6	0.00e+00	0	34	0	724566016	48	5921
2026-01-29 20:28:08.33	357.07	14.70	-37.5	-38.3	23.5	0.00e+00	0	34	0	726663168	48	5952
2026-01-29 20:28:09.34	356.87	14.68	-37.9	-38.8	23.1	0.00e+00	34	34	0	728760320	48	6258
2026-01-29 20:28:10.35	356.67	14.65	-37.9	-38.8	23.1	0.00e+00	0	34	0	729808896	48	6265
2026-01-29 20:28:11.36	356.46	14.62	-38.4	-39.4	22.8	0.00e+00	68	34	0	731906048	48	6693
2026-01-29 20:28:12.37	356.26	14.59	-38.4	-39.3	22.8	0.00e+00	0	34	0	734003200	48	6675
2026-01-29 20:28:13.38	356.06	14.57	-38.3	-39.3	22.8	0.00e+00	32	34	0	736100352	48	6658
2026-01-29 20:28:14.39	355.85	14.54	-38.2	-39.2	22.8	0.00e+00	0	34	0	738197504	48	6583
2026-01-29 20:28:15.40	355.65	14.51	-38.2	-39.1	22.9	0.00e+00	0	34	0	739246080	48	6529
2026-01-29 20:28:16.41	355.45	14.48	-38.2	-39.2	22.8	0.00e+00	14	34	0	741343232	48	6609
2026-01-29 20:28:17.42	355.25	14.45	-38.2	-39.2	22.9	0.00e+00	0	33	0	743440384	48	6556
2026-01-29 20:28:18.43	355.05	14.42	-38.4	-39.4	22.7	0.00e+00	32	34	0	745537536	48	6720
2026-01-29 20:28:19.44	354.85	14.39	-38.4	-39.4	22.6	0.00e+00	0	34	0	747634688	48	6740
2026-01-29 20:28:20.45	354.65	14.36	-38.7	-39.7	22.5	0.00e+00	92	33	0	748683264	48	6973
2026-01-29 20:28:21.46	354.45	14.33	-38.7	-39.7	22.4	0.00e+00	0	34	0	750780416	50	6236
2026-01-29 20:28:22.47	354.25	14.30	-38.9	-40.0	22.2	0.00e+00	0	34	0	752877568	50	6394
2026-01-29 20:28:23.48	354.05	14.27	-39.0	-40.0	22.3	0.00e+00	9	34	0	754974720	50	6462
2026-01-29 20:28:24.49	353.85	14.24	-38.8	-39.9	22.2	0.00e+00	0	34	0	757071872	50	6322
2026-01-29 20:28:25.50	353.65	14.21	-38.8	-39.8	22.5	0.00e+00	26	34	0	758120448	50	6311
2026-01-29 20:28:26.51	353.45	14.17	-38.5	-39.5	22.7	0.00e+00	0	34	0	760217600	50	6043
2026-01-29 20:28:27.51	353.26	14.14	-38.5	-39.4	22.7	0.00e+00	55	34	0	762314752	50	6023
2026-01-29 20:28:28.52	353.06	14.11	-38.5	-39.4	22.7	0.00e+00	0	34	0	764411904	50	6022
2026-01-29 20:28:29.53	352.87	14.08	-38.2	-39.2	22.9	0.00e+00	0	34	0	766509056	50	5840
2026-01-29 20:28:30.55	352.67	14.04	-38.0	-39.0	23.1	0.00e+00	0	34	0	767557632	50	5705
2026-01-29 20:28:31.55	352.47	14.01	-38.0	-39.0	23.1	0.00e+00	0	34	0	769654784	50	5705
2026-01-29 20:28:32.56	352.28	13.98	-37.9	-38.8	23.2	0.00e+00	28	34	0	771751936	50	5613
2026-01-29 20:28:33.57	352.08	13.94	-38.0	-38.9	23.2	0.00e+00	0	34	0	773849088	50	5661
2026-01-29 20:28:34.58	351.89	13.91	-38.1	-39.1	23.0	0.00e+00	55	34	0	775946240	50	5784
2026-01-29 20:28:35.59	351.70	13.87	-37.9	-38.8	23.2	0.00e+00	0	34	0	778043392	50	5603
2026-01-29 20:28:36.60	351.50	13.84	-37.5	-38.4	23.5	0.00e+00	0	34	0	779091968	48	6015
2026-01-29 20:28:37.61	351.31	13.80	-37.3	-38.2	23.6	0.00e+00	0	33	0	781189120	48	5839
2026-01-29 20:28:38.62	351.12	13.77	-37.4	-38.3	23.5	0.00e+00	0	34	0	783286272	48	5922
2026-01-29 20:28:39.63	350.93	13.73	-37.2	-38.1	23.7	0.00e+00	54	34	0	785383424	48	5773
2026-01-29 20:28:40.64	350.74	13.70	-37.3	-38.1	23.7	0.00e+00	0	34	0	787480576	48	5808
2026-01-29 20:28:41.65	350.54	13.66	-37.2	-38.1	23.7	0.00e+00	70	34	0	788529152	48	5799
2026-01-29 20:28:42.66	350.35	13.62	-37.3	-38.2	23.0	0.00e+00	0	34	0	790626304	48	5872
2026-01-29 20:28:43.67	350.16	13.59	-37.5	-38.4	23.3	0.00e+00	0	34	0	792723456	48	5999
2026-01-29 20:28:44.68	349.97	13.55	-37.5	-38.4	23.3	0.00e+00	0	34	0	794820608	48	5980
2026-01-29 20:28:45.69	349.79	13.51	-37.7	-38.6	23.2	0.00e+00	0	34	0	796917760	48	6131
2026-01-29 20:28:46.70	349.60	13.48	-37.9	-38.9	23.0	0.00e+00	0	34	0	797966336	48	6329
2026-01-29 20:28:47.71	349.41	13.44	-38.3	-39.2	22.8	0.00e+00	0	34	0	800063488	48	6614
2026-01-29 20:28:48.72	349.22	13.40	-38.5	-39.5	22.6	0.00e+00	92	33	0	802160640	48	6787
2026-01-29 20:28:49.73	349.03	13.36	-38.6	-39.6	22.4	0.00e+00	0	34	0	804257792	48	6906
2026-01-29 20:28:50.74	348.85	13.32	-39.1	-40.2	22.1	0.00e+00	83	34	0	806354944	50	6594
2026-01-29 20:28:51.75	348.66	13.28	-39.3	-40.4	21.9	0.00e+00	0	34	0	807403520	50	6721
2026-01-29 20:28:52.76	348.48	13.25	-39.4	-40.6	21.7	0.00e+00	0	34	0	809500672	50	6881
2026-01-29 20:28:53.77	348.29	13.21	-39.6	-40.8	21.7	0.00e+00	0	34	0	811597824	50	7019
2026-01-29 20:28:54.78	348.11	13.17	-39.5	-40.7	21.6	0.00e+00	0	34	0	813694976	50	6955
2026-01-29 20:28:55.79	347.92	13.13	-38.9	-40.0	22.0	0.00e+00	87	34	0	815792128	50	6429
2026-01-29 20:28:56.80	347.74	13.09	-39.1	-40.2	21.8	0.00e+00	0	33	0	816840704	50	6573
2026-01-29 20:28:57.81	347.56	13.05	-39.0	-40.1	22.1	0.00e+00	77	34	0	818937856	50	6506
2026-01-29 20:28:58.82	347.37	13.01	-39.0	-40.1	22.1	0.00e+00	0	33	0	821035008	50	6483
2026-01-29 20:28:59.83	347.19	12.97	-39.0	-40.1	22.0	0.00e+00	0	34	0	823132160	50	6484
2026-01-29 20:29:00.84	347.01	12.93	-39.0	-40.0	22.1	0.00e+00	0	34	0	825229312	50	6460
2026-01-29 20:29:01.85	346.83	12.88	-38.9	-40.0	22.1	0.00e+00	0	34	0	826277888	50	6435
2026-01-29 20:29:02.86	346.65	12.84	-38.9	-40.0	22.2	0.00e+00	25	33	0	828375040	50	6437
2026-01-29 20:29:03.87	346.47	12.80	-39.1	-40.2	22.1	0.00e+00	0	34	0	830472192	50	6602
2026-01-29 20:29:04.88	346.29	12.76	-39.1	-40.2	21.9	0.00e+00	69	34	0	832569344	50	6588
2026-01-29 20:29:05.89	346.11	12.72	-39.2	-40.3	22.1	0.00e+00	0	34	0	834666496	50	6635
2026-01-29 20:29:06.90	345.93	12.68	-38.9	-40.1	22.0	0.00e+00	0	34	0	835715072	50	6471
2026-01-29 20:29:07.91	345.75	12.63	-39.0	-40.1	22.1	0.00e+00	0	34	0	837812224	50	6480
2026-01-29 20:29:08.92	345.58	12.59	-39.0	-40.1	22.2	0.00e+00	32	34	0	839909376	50	6506
2026-01-29 20:29:09.93	345.40	12.55	-39.2	-40.3	21.9	0.00e+00	32	34	0	842006528	50	6626
2026-01-29 20:29:10.94	345.22	12.51	-39.2	-40.3	21.9	0.00e+00	0	34	0	844103680	50	6650
2026-01-29 20:29:11.95	345.05	12.46	-39.2	-40.4	21.8	0.00e+00	91	34	0	846200832	50	6717
2026-01-29 20:29:12.96	344.87	12.42	-39.5	-40.7	21.7	0.00e+00	0	34	0	847249408	50	6939
2026-01-29 20:29:13.97	344.70	12.38	-39.5	-40.7	21.7	0.00e+00	0	34	0	849346560	50	6955
2026-01-29 20:29:14.98	344.52	12.33	-39.2	-40.3	22.0	0.00e+00	0	33	0	851443712	50	6624
2026-01-29 20:29:15.99	344.35	12.29	-38.8	-39.9	22.3	0.00e+00	0	33	0	853540864	50	6329
2026-01-29 20:29:17.00	344.18	12.25	-38.6	-39.6	22.3	0.00e+00	30	34	0	855638016	50	6112
2026-01-29 20:29:18.01	344.00	12.20	-38.5	-39.5	22.6	0.00e+00	0	34	0	856686592	50	6092
2026-01-29 20:29:19.02	343.83	12.16	-38.4	-39.4	22.7	0.00e+00	87	34	0	858783744	50	6020
2026-01-29 20:29:20.03	343.66	12.11	-38.5	-39.5	22.5	0.00e+00	0	34	0	860880896	50	6073
2026-01-29 20:29:21.04	343.49	12.07	-38.5	-39.5	22.5	0.00e+00	0	34	0	862978048	50	6077
2026-01-29 20:29:22.05	343.32	12.02	-38.9	-40.0	22.2	0.00e+00	0	34	0	865075200	50	6419
2026-01-29 20:29:23.06	343.15	11.98	-38.9	-39.9	22.0	0.00e+00	0	34	0	866123776	50	6389
2026-01-29 20:29:24.07	342.98	11.93	-39.4	-40.5	21.7	0.00e+00	12	34	0	868220928	50	6835
2026-01-29 20:29:25.08	342.81	11.89	-39.4	-40.6	21.7	0.00e+00	0	34	0	870318080	50	6851
2026-01-29 20:29:26.09	342.64	11.84	-39.7	-40.9	21.5	0.00e+00	45	34	0	872415232	52	6365
2026-01-29 20:29:27.10	342.47	11.80	-39.9	-41.1	21.3	0.00e+00	0	34	0	874512384	52	6487
2026-01-29 20:29:28.11	342.31	11.75	-40.0	-41.2	21.2	0.00e+00	0	34	0	875560960	52	6595
2026-01-29 20:29:29.12	342.14	11.71	-39.9	-41.1	21.3	0.00e+00	0	34	0	877658112	52	6466
2026-01-29 20:29:30.13	341.97	11.66	-39.7	-40.8	21.6	0.00e+00	0	34	0	879755264	52	6313
2026-01-29 20:29:31.14	341.81	11.61	-39.4	-40.5	21.8	0.00e+00	0	34	0	881852416	52	6089
2026-01-29 20:29:32.15	341.64	11.57	-39.4	-40.5	21.7	0.00e+00	0	34	0	883949568	52	6063
2026-01-29 20:29:33.16	341.48	11.52	-39.6	-40.7	21.5	0.00e+00	75	34	0	886046720	52	6234
2026-01-29 20:29:34.17	341.31	11.47	-39.7	-40.9	21.5	0.00e+00	33	34	0	887095296	52	6339
2026-01-29 20:29:35.18	341.15	11.43	-39.7	-40.9	21.4	0.00e+00	92	34	0	889192448	52	6341
2026-01-29 20:29:36.19	340.99	11.38	-40.0	-41.3	21.0	0.00e+00	0	34	0	891289600	52	6620
2026-01-29 20:29:37.19	340.83	11.33	-40.6	-42.0	20.4	0.00e+00	0	33	0	893386752	52	7208
2026-01-29 20:29:38.20	340.66	11.29	-41.2	-42.7	19.8	0.00e+00	0	33	0	894435328	54	6954
2026-01-29 20:29:39.21	340.50	11.24	-41.5	-43.0	19.2	0.00e+00	0	33	0	896532480	54	7244
2026-01-29 20:29:40.22	340.34	11.19	-42.4	-44.2	18.5	0.00e+00	90	34	0	898629632	56	7416
2026-01-29 20:29:41.23	340.18	11.14	-42.2	-43.9	18.8	0.00e+00	4	34	0	900726784	56	7128
2026-01-29 20:29:42.24	340.02	11.10	-42.3	-44.1	18.4	0.00e+00	55	34	0	902823936	56	7331
2026-01-29 20:29:43.25	339.86	11.05	-42.0	-43.7	19.0	0.00e+00	0	34	0	903872512	56	6952
2026-01-29 20:29:44.26	339.70	11.00	-42.0	-43.7	19.1	0.00e+00	0	34	0	905969664	56	6942
2026-01-29 20:29:45.27	339.54	10.95	-41.5	-43.1	19.4	0.00e+00	0	34	0	908066816	56	6469
2026-01-29 20:29:46.28	339.39	10.90	-41.4	-43.0	19.5	0.00e+00	0	34	0	910163968	56	6411
2026-01-29 20:29:47.29	339.23	10.86	-41.4	-42.9	19.7	0.00e+00	46	34	0	912261120	56	6348
2026-01-29 20:29:48.30	339.07	10.81	-41.2	-42.7	19.8	0.00e+00	0	34	0	914358272	56	6191
2026-01-29 20:29:49.31	338.92	10.76	-41.2	-42.7	19.8	0.00e+00	57	34	0	915406848	56	6197
2026-01-29 20:29:50.32	338.76	10.71	-41.3	-42.7	19.7	0.00e+00	0	34	0	917504000	56	6210
2026-01-29 20:29:51.34	338.60	10.66	-40.9	-42.3	20.2	0.00e+00	0	34	0	919601152	56	5926
2026-01-29 20:29:52.34	338.45	10.61	-40.9	-42.3	20.1	0.00e+00	0	34	0	921698304	56	5898
2026-01-29 20:29:53.36	338.29	10.56	-40.7	-42.0	20.7	0.00e+00	0	34	0	923795456	54	6408
2026-01-29 20:29:54.36	338.14	10.51	-40.1	-41.3	20.9	0.00e+00	24	34	0	924844032	54	5932
2026-01-29 20:29:55.37	337.99	10.47	-40.1	-41.3	20.9	0.00e+00	0	34	0	926941184	54	5959
2026-01-29 20:29:56.38	337.84	10.42	-40.1	-41.3	21.0	0.00e+00	92	34	0	929038336	54	5943
2026-01-29 20:29:57.39	337.69	10.37	-39.8	-41.0	21.1	0.00e+00	0	34	0	931135488	54	5714
2026-01-29 20:29:58.40	337.53	10.32	-40.3	-41.5	20.9	0.00e+00	57	34	0	933232640	54	6067
2026-01-29 20:29:59.41	337.38	10.27	-40.3	-41.6	20.6	0.00e+00	0	34	0	934281216	54	6118
2026-01-29 20:30:00.42	337.23	10.22	-40.5	-41.7	20.7	0.00e+00	0	34	0	936378368	54	6211
2026-01-29 20:30:01.43	337.08	10.17	-40.5	-41.7	20.8	0.00e+00	40	34	0	938475520	54	6197
2026-01-29 20:30:02.44	336.93	10.12	-40.5	-41.8	20.6	0.00e+00	0	34	0	940572672	54	6252
2026-01-29 20:30:03.45	336.78	10.07	-40.5	-41.7	20.7	0.00e+00	21	34	0	942669824	54	6199
2026-01-29 20:30:04.46	336.64	10.02	-40.2	-41.3	20.7	0.00e+00	0	34	0	943718400	54	5943
2026-01-29 20:30:05.46	336.49	9.97	-40.1	-41.3	21.1	0.00e+00	3	34	0	945815552	54	5901
2026-01-29 20:30:06.47	336.34	9.92	-40.0	-41.1	21.1	0.00e+00	0	34	0	947912704	54	5807
2026-01-29 20:30:07.49	336.19	9.87	-39.8	-41.0	21.2	0.00e+00	0	34	0	950009856	54	5710
2026-01-29 20:30:08.50	336.05	9.82	-39.9	-41.1	21.3	0.00e+00	0	34	0	952107008	52	6486
2026-01-29 20:30:09.51	335.90	9.77	-39.8	-40.9	21.1	0.00e+00	0	34	0	953155584	52	6370
2026-01-29 20:30:10.52	335.76	9.72	-40.0	-41.2	21.0	0.00e+00	92	34	0	955252736	52	6579
2026-01-29 20:30:11.53	335.61	9.67	-40.2	-41.4	21.0	0.00e+00	0	34	0	957349888	52	6707
2026-01-29 20:30:12.53	335.47	9.62	-40.0	-41.2	21.0	0.00e+00	68	34	0	959447040	52	6555
2026-01-29 20:30:13.54	335.32	9.57	-40.1	-41.3	21.1	0.00e+00	0	34	0	961544192	52	6634
2026-01-29 20:30:14.55	335.18	9.52	-40.0	-41.1	21.2	0.00e+00	0	34	0	962592768	52	6532
2026-01-29 20:30:15.56	335.04	9.46	-40.1	-41.3	20.9	0.00e+00	0	34	0	964689920	52	6692
2026-01-29 20:30:16.57	334.90	9.41	-40.2	-41.4	20.9	0.00e+00	0	34	0	966787072	52	6739
2026-01-29 20:30:17.58	334.75	9.36	-40.4	-41.6	20.6	0.00e+00	22	34	0	968884224	52	6906
2026-01-29 20:30:18.59	334.61	9.31	-40.6	-41.8	20.4	0.00e+00	0	34	0	970981376	52	7086
2026-01-29 20:30:19.60	334.47	9.26	-40.6	-41.9	20.5	0.00e+00	48	34	0	972029952	54	6320
2026-01-29 20:30:20.61	334.33	9.21	-40.7	-42.0	20.5	0.00e+00	0	34	0	974127104	54	6409
2026-01-29 20:30:21.62	334.19	9.16	-40.6	-41.9	20.4	0.00e+00	0	34	0	976224256	54	6381
2026-01-29 20:30:22.64	334.05	9.11	-40.5	-41.7	20.5	0.00e+00	0	34	0	978321408	54	6230
2026-01-29 20:30:23.65	333.91	9.05	-40.6	-41.9	20.5	0.00e+00	0	34	0	980418560	54	6334
2026-01-29 20:30:24.66	333.78	9.00	-40.4	-41.7	20.6	0.00e+00	25	34	0	982515712	54	6207
2026-01-29 20:30:25.67	333.64	8.95	-40.3	-41.5	20.6	0.00e+00	0	34	0	983564288	54	6079
2026-01-29 20:30:26.67	333.50	8.90	-40.2	-41.5	20.8	0.00e+00	90	34	0	985661440	54	6048
2026-01-29 20:30:27.69	333.36	8.85	-40.2	-41.5	20.8	0.00e+00	0	34	0	987758592	54	6073
2026-01-29 20:30:28.70	333.23	8.80	-40.3	-41.6	20.7	0.00e+00	0	34	0	989855744	54	6122
2026-01-29 20:30:29.71	333.09	8.75	-40.2	-41.4	20.8	0.00e+00	0	34	0	991952896	54	5987
2026-01-29 20:30:30.72	332.96	8.69	-40.1	-41.3	21.1	0.00e+00	0	34	0	993001472	54	5921
2026-01-29 20:30:31.73	332.82	8.64	-39.9	-41.1	21.2	0.00e+00	27	34	0	995098624	54	5820
2026-01-29 20:30:32.74	332.69	8.59	-39.9	-41.0	21.3	0.00e+00	0	34	0	997195776	52	6457
2026-01-29 20:30:33.75	332.55	8.54	-39.6	-40.8	21.4	0.00e+00	92	34	0	999292928	52	6249
2026-01-29 20:30:34.76	332.42	8.49	-39.4	-40.5	21.6	0.00e+00	0	34	0	1001390080	52	6075
2026-01-29 20:30:35.77	332.29	8.43	-39.0	-40.1	21.9	0.00e+00	0	34	0	1002438656	52	5783
2026-01-29 20:30:36.78	332.16	8.38	-39.1	-40.1	22.0	0.00e+00	0	34	0	1004535808	52	5826
2026-01-29 20:30:37.79	332.02	8.33	-38.9	-40.0	22.0	0.00e+00	0	34	0	1006632960	52	5705
2026-01-29 20:30:38.80	331.89	8.28	-38.9	-39.9	22.1	0.00e+00	26	34	0	1008730112	50	6371
2026-01-29 20:30:39.81	331.76	8.23	-38.8	-39.8	22.3	0.00e+00	0	34	0	1010827264	50	6296
2026-01-29 20:30:40.82	331.63	8.17	-38.8	-39.8	22.2	0.00e+00	92	34	0	1011875840	50	6289
2026-01-29 20:30:41.82	331.50	8.12	-38.7	-39.8	22.1	0.00e+00	0	34	0	1013972992	50	6273
2026-01-29 20:30:42.83	331.37	8.07	-39.1	-40.2	21.9	0.00e+00	87	34	0	1016070144	50	6540
2026-01-29 20:30:43.84	331.24	8.02	-38.9	-40.0	22.0	0.00e+00	0	34	0	1018167296	50	6417
2026-01-29 20:30:44.85	331.12	7.97	-39.1	-40.2	21.8	0.00e+00	0	34	0	1020264448	50	6540
2026-01-29 20:30:45.86	330.99	7.91	-39.3	-40.4	21.6	0.00e+00	28	34	0	1021313024	50	6715
2026-01-29 20:30:46.87	330.86	7.86	-39.2	-40.3	21.7	0.00e+00	0	34	0	1023410176	50	6664
2026-01-29 20:30:47.89	330.73	7.81	-39.1	-40.2	21.9	0.00e+00	92	34	0	1025507328	50	6556
2026-01-29 20:30:48.89	330.61	7.76	-38.9	-39.9	22.0	0.00e+00	0	34	0	1027604480	50	6386
2026-01-29 20:30:49.91	330.48	7.70	-38.8	-39.9	22.0	0.00e+00	92	34	0	1029701632	50	6323
2026-01-29 20:30:50.92	330.35	7.65	-38.6	-39.6	22.5	0.00e+00	0	34	0	1031798784	50	6146
2026-01-29 20:30:51.93	330.23	7.60	-38.7	-39.7	22.3	0.00e+00	0	34	0	1032847360	50	6197
2026-01-29 20:30:52.94	330.10	7.55	-38.8	-39.8	22.1	0.00e+00	0	34	0	1034944512	50	6273
2026-01-29 20:30:53.95	329.98	7.49	-38.8	-39.8	22.1	0.00e+00	0	34	0	1037041664	50	6278
2026-01-29 20:30:54.96	329.85	7.44	-38.8	-39.8	22.1	0.00e+00	28	34	0	1039138816	50	6307
2026-01-29 20:30:55.97	329.73	7.39	-38.8	-39.9	22.1	0.00e+00	0	34	0	1041235968	50	6355
2026-01-29 20:30:56.98	329.61	7.34	-39.0	-40.0	21.9	0.00e+00	90	34	0	1042284544	50	6439
2026-01-29 20:30:57.99	329.49	7.28	-39.1	-40.2	21.9	0.00e+00	0	34	0	1044381696	50	6587
2026-01-29 20:30:59.00	329.36	7.23	-39.1	-40.2	21.8	0.00e+00	0	34	0	1046478848	50	6587
2026-01-29 20:31:00.01	329.24	7.18	-39.2	-40.3	21.7	0.00e+00	0	34	0	1048576000	50	6685
2026-01-29 20:31:01.02	329.12	7.13	-39.7	-40.9	21.3	0.00e+00	0	34	0	1050673152	50	7095
2026-01-29 20:31:02.03	329.00	7.07	-39.5	-40.7	21.2	0.00e+00	28	34	0	1051721728	50	6944
2026-01-29 20:31:03.04	328.88	7.02	-39.3	-40.4	21.7	0.00e+00	0	34	0	1053818880	50	6754
2026-01-29 20:31:04.04	328.76	6.97	-39.6	-40.8	21.4	0.00e+00	71	34	0	1055916032	50	7030
2026-01-29 20:31:05.05	328.64	6.92	-39.5	-40.6	21.4	0.00e+00	0	34	0	1058013184	50	6923
2026-01-29 20:31:06.06	328.52	6.86	-39.6	-40.8	21.2	0.00e+00	0	34	0	1060110336	50	7009
2026-01-29 20:31:07.07	328.41	6.81	-39.7	-40.8	21.1	0.00e+00	0	34	0	1061158912	52	6302
2026-01-29 20:31:08.08	328.29	6.76	-39.7	-40.8	21.1	0.00e+00	0	34	0	1063256064	52	6285
2026-01-29 20:31:09.09	328.17	6.71	-39.7	-40.9	21.2	0.00e+00	5	34	0	1065353216	52	6344
2026-01-29 20:31:10.10	328.05	6.65	-39.7	-40.9	21.1	0.00e+00	0	34	0	1067450368	52	6343
2026-01-29 20:31:11.11	327.94	6.60	-39.7	-40.8	21.1	0.00e+00	46	34	0	1069547520	52	6285
2026-01-29 20:31:12.12	327.82	6.55	-39.5	-40.7	21.4	0.00e+00	0	34	0	1070596096	52	6179
2026-01-29 20:31:13.13	327.70	6.50	-39.8	-41.0	21.0	0.00e+00	18	34	0	1072693248	52	6439
2026-01-29 20:31:14.14	327.59	6.44	-39.4	-40.6	21.3	0.00e+00	0	34	0	1074790400	52	6112
2026-01-29 20:31:15.15	327.47	6.39	-39.5	-40.6	21.1	0.00e+00	0	34	0	1076887552	52	6158
2026-01-29 20:31:16.16	327.36	6.34	-39.5	-40.7	21.3	0.00e+00	9	34	0	1078984704	52	6181
2026-01-29 20:31:17.16	327.25	6.29	-39.3	-40.4	21.5	0.00e+00	0	34	0	1080033280	52	6020
2026-01-29 20:31:18.17	327.13	6.23	-39.3	-40.4	21.6	0.00e+00	92	34	0	1082130432	52	5986
2026-01-29 20:31:19.18	327.02	6.18	-39.5	-40.6	21.2	0.00e+00	0	34	0	1084227584	52	6139
2026-01-29 20:31:20.19	326.91	6.13	-39.4	-40.6	21.2	0.00e+00	91	34	0	1086324736	52	6122
2026-01-29 20:31:21.20	326.79	6.07	-38.7	-39.7	21.8	0.00e+00	0	34	0	1088421888	50	6214
2026-01-29 20:31:22.21	326.68	6.02	-38.5	-39.5	21.5	0.00e+00	0	34	0	1089470464	50	6070
2026-01-29 20:31:23.22	326.57	5.97	-38.7	-39.7	21.8	0.00e+00	0	34	0	1091567616	50	6233
2026-01-29 20:31:24.23	326.46	5.92	-38.5	-39.5	22.1	0.00e+00	0	34	0	1093664768	50	6083
2026-01-29 20:31:25.24	326.35	5.86	-39.2	-40.3	21.7	0.00e+00	27	34	0	1095761920	50	6637
2026-01-29 20:31:26.25	326.24	5.81	-38.8	-39.9	21.7	0.00e+00	0	34	0	1097859072	50	6347
2026-01-29 20:31:27.26	326.13	5.76	-39.1	-40.3	21.4	0.00e+00	92	34	0	1099956224	50	6627
2026-01-29 20:31:28.27	326.02	5.71	-39.2	-40.3	21.3	0.00e+00	8	34	0	1101004800	50	6641
2026-01-29 20:31:29.28	325.91	5.65	-39.3	-40.5	21.1	0.00e+00	0	34	0	1103101952	50	6771
2026-01-29 20:31:30.29	325.80	5.60	-39.6	-40.8	21.0	0.00e+00	0	34	0	1105199104	50	7085
2026-01-29 20:31:31.30	325.69	5.55	-39.7	-40.9	20.7	0.00e+00	7	34	0	1107296256	50	7126
2026-01-29 20:31:32.31	325.58	5.49	-40.2	-41.4	20.5	0.00e+00	92	34	0	1109393408	52	6759
2026-01-29 20:31:33.32	325.48	5.44	-39.9	-41.2	20.5	0.00e+00	0	34	0	1110441984	52	6569
2026-01-29 20:31:34.33	325.37	5.39	-40.4	-41.8	20.1	0.00e+00	91	34	0	1112539136	52	7033
2026-01-29 20:31:35.34	325.26	5.34	-40.4	-41.7	20.2	0.00e+00	0	34	0	1114636288	52	6935
2026-01-29 20:31:36.35	325.16	5.28	-40.5	-41.9	20.1	0.00e+00	0	34	0	1116733440	52	7100
2026-01-29 20:31:37.36	325.05	5.23	-40.3	-41.6	20.2	0.00e+00	0	34	0	1118830592	52	6898
2026-01-29 20:31:38.37	324.94	5.18	-40.2	-41.5	20.4	0.00e+00	0	34	0	1119879168	52	6774
2026-01-29 20:31:39.38	324.84	5.13	-40.0	-41.3	20.4	0.00e+00	56	34	0	1121976320	52	6657
2026-01-29 20:31:40.39	324.73	5.07	-40.1	-41.3	20.5	0.00e+00	0	34	0	1124073472	52	6688
2026-01-29 20:31:41.41	324.63	5.02	-40.2	-41.5	20.4	0.00e+00	64	34	0	1126170624	52	6819
2026-01-29 20:31:42.42	324.52	4.97	-39.8	-41.0	20.9	0.00e+00	0	34	0	1128267776	52	6460
2026-01-29 20:31:43.43	324.42	4.92	-39.3	-40.5	21.3	0.00e+00	0	34	0	1129316352	52	6035
2026-01-29 20:31:44.44	324.32	4.86	-39.4	-40.5	21.1	0.00e+00	0	34	0	1131413504	52	6067
2026-01-29 20:31:45.45	324.22	4.81	-39.1	-40.2	21.4	0.00e+00	0	34	0	1133510656	52	5864
2026-01-29 20:31:46.46	324.11	4.76	-39.4	-40.6	21.1	0.00e+00	22	34	0	1135607808	52	6139
2026-01-29 20:31:47.47	324.01	4.71	-39.3	-40.4	21.3	0.00e+00	0	34	0	1137704960	52	5993
2026-01-29 20:31:48.48	323.91	4.65	-39.1	-40.2	21.5	0.00e+00	92	34	0	1138753536	52	5860
2026-01-29 20:31:49.49	323.81	4.60	-39.4	-40.5	21.1	0.00e+00	0	34	0	1140850688	52	6069
2026-01-29 20:31:50.50	323.71	4.55	-39.4	-40.5	21.2	0.00e+00	78	34	0	1142947840	52	6071
2026-01-29 20:31:51.50	323.61	4.50	-39.6	-40.7	20.9	0.00e+00	0	34	0	1145044992	52	6234
2026-01-29 20:31:52.51	323.51	4.44	-39.8	-41.1	20.7	0.00e+00	0	34	0	1147142144	52	6473
2026-01-29 20:31:53.52	323.41	4.39	-40.1	-41.3	20.3	0.00e+00	52	34	0	1148190720	52	6667
2026-01-29 20:31:54.53	323.31	4.34	-39.6	-40.7	20.9	0.00e+00	0	34	0	1150287872	52	6239
2026-01-29 20:31:55.54	323.21	4.29	-40.1	-41.4	20.3	0.00e+00	25	34	0	1152385024	52	6737
2026-01-29 20:31:56.56	323.11	4.24	-40.5	-41.8	19.9	0.00e+00	0	34	0	1154482176	52	7044
2026-01-29 20:31:57.57	323.01	4.18	-40.6	-41.9	19.8	0.00e+00	92	34	0	1156579328	52	7166
2026-01-29 20:31:58.57	322.91	4.13	-41.2	-42.7	19.1	0.00e+00	0	34	0	1157627904	54	6947
2026-01-29 20:31:59.58	322.82	4.08	-41.2	-42.8	19.2	0.00e+00	0	34	0	1159725056	54	7025
2026-01-29 20:32:00.59	322.72	4.03	-41.3	-42.8	19.1	0.00e+00	21	34	0	1161822208	54	7059
2026-01-29 20:32:01.60	322.62	3.97	-41.3	-42.8	19.0	0.00e+00	0	34	0	1163919360	54	7047
2026-01-29 20:32:02.61	322.52	3.92	-41.4	-43.0	19.0	0.00e+00	67	34	0	1166016512	54	7213
2026-01-29 20:32:03.62	322.43	3.87	-41.4	-43.0	18.8	0.00e+00	0	34	0	1168113664	54	7199
2026-01-29 20:32:04.63	322.33	3.82	-41.1	-42.7	19.1	0.00e+00	65	34	0	1169162240	54	6939
2026-01-29 20:32:05.64	322.24	3.77	-41.3	-42.9	19.0	0.00e+00	0	34	0	1171259392	54	7104
2026-01-29 20:32:06.65	322.14	3.71	-41.4	-42.9	18.9	0.00e+00	0	34	0	1173356544	54	7166
2026-01-29 20:32:07.66	322.05	3.66	-41.4	-43.0	18.8	0.00e+00	0	34	0	1175453696	54	7208
2026-01-29 20:32:08.67	321.95	3.61	-41.8	-43.5	18.5	0.00e+00	0	34	0	1177550848	56	6792
2026-01-29 20:32:09.68	321.86	3.56	-41.2	-42.7	19.1	0.00e+00	19	34	0	1178599424	56	6195
2026-01-29 20:32:10.69	321.77	3.51	-41.8	-43.5	18.4	0.00e+00	0	34	0	1180696576	56	6802
2026-01-29 20:32:11.70	321.67	3.45	-41.3	-42.9	18.7	0.00e+00	91	34	0	1182793728	56	6384
2026-01-29 20:32:12.71	321.58	3.40	-40.9	-42.4	19.2	0.00e+00	0	34	0	1184890880	56	5999
2026-01-29 20:32:13.72	321.49	3.35	-41.6	-43.3	18.5	0.00e+00	0	34	0	1186988032	56	6631
2026-01-29 20:32:14.73	321.39	3.30	-40.3	-41.7	19.9	0.00e+00	0	34	0	1188036608	54	6174
2026-01-29 20:32:15.74	321.30	3.25	-41.4	-43.0	18.8	0.00e+00	0	34	0	1190133760	54	7212
2026-01-29 20:32:16.75	321.21	3.20	-41.4	-43.0	18.4	0.00e+00	60	34	0	1192230912	54	7221
2026-01-29 20:32:17.76	321.12	3.14	-42.6	-44.6	17.1	0.00e+00	0	34	0	1194328064	58	6893
2026-01-29 20:32:18.77	321.03	3.09	-41.0	-42.6	19.0	0.00e+00	84	34	0	1196425216	56	6132
2026-01-29 20:32:19.78	320.94	3.04	-42.0	-43.8	17.9	0.00e+00	0	34	0	1197473792	56	7083
2026-01-29 20:32:20.79	320.85	2.99	-48.1	-63.1	3.5	1.39e-01	0	34	104	1199570944	60	51604
2026-01-29 20:32:21.80	320.76	2.94	-48.4	-63.5	3.6	1.51e+00	0	34	104	1199570944	60	54109
