passes_logs/2026/01/29/R4.6S_Anadyr/R4.6S_Anadyr__20260129_235758_NOAA_20_JPSS-1_rec.log

#Pass ID: 20260129_235758_NOAA 20 (JPSS-1)
#Satellite: NOAA 20 (JPSS-1)
#Configuration: NOAA 20
#almurnet v.1.7.20251203
#Start time: 2026-01-29 23:57:59

#Version: 2.2.20231116
#Station: R4.6S_Anadyr
#Location: 177.4865 lon 64.73178 lat
#TLE: 1 43013U 17073A   26029.42702672  .00000137  00000+0  85918-4 0  9993
#TLE: 2 43013  98.7646 330.2153 0000804  19.9045 340.2162 14.19525092424781

#Time	Az	El	Level	Level2	SNR	BER	BlckErr	Temp	State	Recorded	gain1	gain2
2026-01-29 23:57:59.74	149.90	0.10	-49.3	-64.4	3.5	1.51e+00	0	34	0	0	60	59700
2026-01-29 23:58:00.74	149.90	0.16	-49.3	-64.6	3.6	1.51e+00	0	35	104	0	60	61056
2026-01-29 23:58:01.75	149.89	0.22	-49.3	-64.6	3.6	1.51e+00	0	35	104	0	60	61405
2026-01-29 23:58:02.76	149.89	0.28	-49.3	-64.6	3.6	1.51e+00	0	35	104	0	60	61565
2026-01-29 23:58:03.77	149.89	0.34	-49.3	-64.5	3.6	1.51e+00	0	35	104	0	60	60896
2026-01-29 23:58:04.78	149.88	0.40	-49.3	-64.6	3.6	1.51e+00	0	35	104	0	60	61074
2026-01-29 23:58:05.79	149.88	0.46	-49.3	-64.6	3.6	1.51e+00	0	36	104	0	60	61220
2026-01-29 23:58:06.80	149.87	0.52	-49.3	-64.5	3.6	1.51e+00	0	36	104	0	60	61016
2026-01-29 23:58:07.81	149.87	0.59	-49.3	-64.6	3.6	1.51e+00	0	36	104	0	60	61447
2026-01-29 23:58:08.82	149.87	0.65	-49.3	-64.6	3.6	1.51e+00	0	36	104	0	60	61088
2026-01-29 23:58:09.83	149.86	0.71	-49.3	-64.6	3.6	1.51e+00	0	36	104	0	60	61105
2026-01-29 23:58:10.84	149.86	0.77	-49.3	-64.6	3.6	1.51e+00	0	36	104	0	60	61266
2026-01-29 23:58:11.86	149.85	0.84	-49.3	-64.6	3.6	1.51e+00	0	36	104	0	60	61395
2026-01-29 23:58:12.87	149.85	0.90	-49.3	-64.6	3.6	1.51e+00	0	36	104	0	60	61121
2026-01-29 23:58:13.87	149.85	0.96	-49.3	-64.6	3.6	1.51e+00	0	36	104	0	60	61283
2026-01-29 23:58:14.89	149.84	1.02	-49.3	-64.6	3.6	1.51e+00	0	36	104	0	60	61311
2026-01-29 23:58:15.90	149.84	1.09	-49.3	-64.6	3.6	1.51e+00	0	36	104	0	60	61330
2026-01-29 23:58:16.91	149.83	1.15	-49.3	-64.6	3.6	1.51e+00	0	36	104	0	60	61306
2026-01-29 23:58:17.92	149.83	1.21	-49.3	-64.6	3.6	1.51e+00	0	36	104	0	60	61285
2026-01-29 23:58:18.93	149.82	1.28	-49.3	-64.6	3.6	1.51e+00	0	36	104	0	60	61285
2026-01-29 23:58:19.94	149.82	1.34	-49.3	-64.6	3.6	1.51e+00	0	36	104	0	60	61530
2026-01-29 23:58:20.95	149.82	1.40	-49.3	-64.6	3.6	1.51e+00	0	36	104	0	60	61099
2026-01-29 23:58:21.96	149.81	1.47	-49.3	-64.6	3.6	1.51e+00	0	36	104	0	60	61135
2026-01-29 23:58:22.97	149.81	1.53	-49.3	-64.6	3.6	1.51e+00	0	36	104	0	60	61143
2026-01-29 23:58:23.98	149.80	1.59	-49.3	-64.6	3.6	1.51e+00	0	36	104	0	60	61358
2026-01-29 23:58:24.99	149.80	1.66	-49.3	-64.6	3.6	1.51e+00	0	36	104	0	60	61446
2026-01-29 23:58:26.00	149.79	1.72	-49.3	-64.7	3.6	1.51e+00	0	36	104	0	60	61843
2026-01-29 23:58:27.01	149.79	1.79	-49.3	-64.6	3.6	1.51e+00	0	36	104	0	60	61189
2026-01-29 23:58:28.02	149.78	1.85	-49.3	-64.6	3.6	1.51e+00	0	36	104	0	60	61126
2026-01-29 23:58:29.03	149.78	1.92	-49.3	-64.6	3.6	1.51e+00	0	36	104	0	60	61539
2026-01-29 23:58:30.04	149.77	1.98	-49.3	-64.6	3.6	1.51e+00	0	36	104	0	60	61387
2026-01-29 23:58:31.05	149.77	2.04	-49.3	-64.6	3.6	1.51e+00	0	36	104	0	60	61345
2026-01-29 23:58:32.06	149.77	2.11	-49.3	-64.6	3.6	1.51e+00	0	36	104	0	60	61476
2026-01-29 23:58:33.07	149.76	2.18	-49.3	-64.6	3.6	1.51e+00	0	36	104	0	60	61175
2026-01-29 23:58:34.08	149.76	2.24	-49.3	-64.6	3.6	1.51e+00	0	36	104	0	60	61361
2026-01-29 23:58:35.09	149.75	2.31	-49.3	-64.6	3.6	1.51e+00	0	36	104	0	60	61043
2026-01-29 23:58:36.10	149.75	2.37	-49.3	-64.6	3.6	1.51e+00	0	36	104	0	60	61492
2026-01-29 23:58:37.11	149.74	2.44	-49.3	-64.6	3.6	1.51e+00	0	36	104	0	60	61498
2026-01-29 23:58:38.12	149.74	2.50	-49.3	-64.6	3.6	1.51e+00	0	36	104	0	60	61252
2026-01-29 23:58:39.13	149.73	2.57	-49.3	-64.6	3.6	1.51e+00	0	36	104	0	60	61429
2026-01-29 23:58:40.14	149.73	2.64	-49.3	-64.5	3.6	1.51e+00	0	36	104	0	60	61008
2026-01-29 23:58:41.15	149.72	2.70	-49.3	-64.6	3.5	1.51e+00	0	36	104	0	60	61506
2026-01-29 23:58:42.16	149.72	2.77	-49.3	-64.6	3.6	1.51e+00	0	36	104	0	60	61566
2026-01-29 23:58:43.17	149.71	2.84	-49.3	-64.6	3.6	1.51e+00	0	36	104	0	60	61398
2026-01-29 23:58:44.18	149.71	2.90	-49.3	-64.6	3.6	1.51e+00	0	36	104	0	60	61609
2026-01-29 23:58:45.19	149.70	2.97	-49.3	-64.6	3.6	1.51e+00	0	36	104	0	60	61333
2026-01-29 23:58:46.20	149.70	3.04	-49.3	-64.6	3.6	1.51e+00	0	36	104	0	60	61294
2026-01-29 23:58:47.21	149.69	3.10	-49.3	-64.6	3.6	1.51e+00	0	36	104	0	60	61524
2026-01-29 23:58:48.22	149.68	3.17	-49.3	-64.6	3.6	1.51e+00	0	36	104	0	60	61203
2026-01-29 23:58:49.23	149.68	3.24	-49.3	-64.6	3.6	1.51e+00	0	36	104	0	60	61678
2026-01-29 23:58:50.24	149.67	3.31	-49.3	-64.6	3.6	1.51e+00	0	36	104	0	60	61447
2026-01-29 23:58:51.25	149.67	3.38	-49.3	-64.6	3.6	1.51e+00	0	36	104	0	60	61142
2026-01-29 23:58:52.26	149.66	3.44	-49.3	-64.6	3.6	1.51e+00	0	36	104	0	60	61539
2026-01-29 23:58:53.27	149.66	3.51	-49.3	-64.6	3.6	1.51e+00	0	36	104	0	60	61215
2026-01-29 23:58:54.28	149.65	3.58	-49.3	-64.6	3.6	1.51e+00	0	36	104	0	60	61245
2026-01-29 23:58:55.29	149.65	3.65	-49.3	-64.6	3.6	1.51e+00	0	36	104	0	60	61594
2026-01-29 23:58:56.30	149.64	3.72	-49.3	-64.6	3.6	1.51e+00	0	36	104	0	60	61386
2026-01-29 23:58:57.31	149.63	3.79	-49.3	-64.6	3.6	1.51e+00	0	36	104	0	60	61416
2026-01-29 23:58:58.32	149.63	3.86	-49.3	-64.6	3.6	1.51e+00	0	36	104	0	60	61629
2026-01-29 23:58:59.33	149.62	3.93	-49.3	-64.6	3.6	1.51e+00	0	36	104	0	60	61482
2026-01-29 23:59:00.34	149.62	4.00	-49.3	-64.5	3.6	1.51e+00	0	36	104	0	60	60996
2026-01-29 23:59:01.35	149.61	4.07	-49.3	-64.6	3.6	1.51e+00	0	36	104	0	60	61513
2026-01-29 23:59:02.36	149.61	4.14	-49.3	-64.6	3.6	1.51e+00	0	36	104	0	60	61311
2026-01-29 23:59:03.37	149.60	4.21	-49.3	-64.6	3.6	1.51e+00	0	36	104	0	60	61381
2026-01-29 23:59:04.38	149.59	4.28	-49.3	-64.6	3.6	1.51e+00	0	36	104	0	60	61492
2026-01-29 23:59:05.39	149.59	4.35	-49.3	-64.6	3.6	1.51e+00	0	36	104	0	60	61478
2026-01-29 23:59:06.40	149.58	4.42	-49.3	-64.6	3.6	1.51e+00	0	36	104	0	60	61492
2026-01-29 23:59:07.41	149.58	4.49	-49.3	-64.6	3.6	1.51e+00	0	36	104	0	60	61649
2026-01-29 23:59:08.42	149.57	4.56	-49.3	-64.6	3.6	1.51e+00	0	36	104	0	60	61626
2026-01-29 23:59:09.43	149.56	4.63	-49.3	-64.6	3.6	1.51e+00	0	36	104	0	60	61651
2026-01-29 23:59:10.44	149.56	4.70	-49.3	-64.6	3.6	1.51e+00	0	36	104	0	60	61456
2026-01-29 23:59:11.45	149.55	4.77	-49.3	-64.6	3.6	1.51e+00	0	36	104	0	60	61648
2026-01-29 23:59:12.46	149.54	4.85	-49.3	-64.6	3.6	1.51e+00	0	36	104	0	60	61633
2026-01-29 23:59:13.47	149.54	4.92	-49.3	-64.7	3.6	1.51e+00	0	36	104	0	60	61812
2026-01-29 23:59:14.48	149.53	4.99	-49.3	-64.6	3.6	1.51e+00	0	36	104	0	60	61428
2026-01-29 23:59:15.49	149.53	5.06	-49.3	-64.7	3.6	1.51e+00	0	36	104	0	60	61771
2026-01-29 23:59:16.50	149.52	5.13	-49.3	-64.6	3.6	1.51e+00	0	36	104	0	60	61488
2026-01-29 23:59:17.51	149.51	5.21	-49.3	-64.6	3.6	1.51e+00	0	36	104	0	60	61458
2026-01-29 23:59:18.52	149.51	5.28	-49.3	-64.6	3.6	1.51e+00	0	36	104	0	60	61673
2026-01-29 23:59:19.53	149.50	5.35	-49.3	-64.6	3.6	1.51e+00	0	36	104	0	60	61334
2026-01-29 23:59:20.54	149.49	5.43	-49.3	-64.6	3.6	1.51e+00	0	36	104	0	60	61618
2026-01-29 23:59:21.55	149.49	5.50	-49.3	-64.6	3.6	1.51e+00	0	36	104	0	60	61491
2026-01-29 23:59:22.57	149.48	5.58	-49.3	-64.6	3.6	1.51e+00	0	36	104	0	60	61184
2026-01-29 23:59:23.58	149.47	5.65	-49.3	-64.6	3.6	1.51e+00	0	36	104	0	60	61378
2026-01-29 23:59:24.59	149.46	5.72	-49.3	-64.6	3.6	1.51e+00	0	36	104	0	60	61605
2026-01-29 23:59:25.60	149.46	5.80	-49.3	-64.6	3.6	1.51e+00	0	36	104	0	60	61363
2026-01-29 23:59:26.61	149.45	5.87	-49.3	-64.6	3.6	1.51e+00	0	36	104	0	60	61412
2026-01-29 23:59:27.62	149.44	5.95	-49.3	-64.6	3.6	1.51e+00	0	36	104	0	60	61479
2026-01-29 23:59:28.63	149.44	6.02	-49.3	-64.7	3.6	1.51e+00	0	36	104	0	60	61766
2026-01-29 23:59:29.64	149.43	6.10	-49.3	-64.6	3.6	1.51e+00	0	36	104	0	60	61330
2026-01-29 23:59:30.65	149.42	6.17	-49.3	-64.6	3.6	1.51e+00	0	36	104	0	60	61397
2026-01-29 23:59:31.65	149.42	6.25	-49.3	-64.6	3.6	1.51e+00	0	36	104	0	60	61543
2026-01-29 23:59:32.67	149.41	6.33	-49.3	-64.6	3.6	1.51e+00	0	36	104	0	60	61727
2026-01-29 23:59:33.67	149.40	6.40	-49.3	-64.6	3.6	1.51e+00	0	36	104	0	60	61663
2026-01-29 23:59:34.68	149.39	6.48	-49.3	-64.6	3.6	1.51e+00	0	36	104	0	60	61733
2026-01-29 23:59:35.69	149.39	6.55	-49.3	-64.6	3.6	1.51e+00	0	36	104	0	60	61403
2026-01-29 23:59:36.71	149.38	6.63	-49.3	-64.6	3.6	1.51e+00	0	36	104	0	60	61453
2026-01-29 23:59:37.72	149.37	6.71	-49.3	-64.6	3.6	1.51e+00	0	36	104	0	60	61611
2026-01-29 23:59:38.73	149.36	6.79	-49.3	-64.6	3.6	1.51e+00	0	36	104	0	60	61270
2026-01-29 23:59:39.74	149.35	6.86	-49.3	-64.6	3.6	1.51e+00	0	36	104	0	60	61545
2026-01-29 23:59:40.75	149.35	6.94	-49.3	-64.6	3.6	1.51e+00	0	36	104	0	60	61487
2026-01-29 23:59:41.76	149.34	7.02	-49.3	-64.6	3.6	1.51e+00	0	36	104	0	60	61457
2026-01-29 23:59:42.77	149.33	7.10	-49.3	-64.6	3.6	1.51e+00	0	36	104	0	60	61556
2026-01-29 23:59:43.78	149.32	7.18	-49.3	-64.6	3.6	1.51e+00	0	36	104	0	60	61343
2026-01-29 23:59:44.79	149.32	7.26	-49.3	-64.6	3.6	1.51e+00	0	36	104	0	60	61237
2026-01-29 23:59:45.80	149.31	7.33	-49.3	-64.6	3.6	1.51e+00	0	36	104	0	60	61519
2026-01-29 23:59:46.81	149.30	7.41	-49.3	-64.6	3.6	1.51e+00	0	36	104	0	60	61249
2026-01-29 23:59:47.82	149.29	7.49	-49.3	-64.6	3.6	1.51e+00	0	36	104	0	60	61360
2026-01-29 23:59:48.83	149.28	7.57	-49.3	-64.6	3.5	1.51e+00	0	36	104	0	60	61642
2026-01-29 23:59:49.84	149.27	7.65	-49.3	-64.6	3.6	1.51e+00	0	36	104	0	60	61519
2026-01-29 23:59:50.86	149.27	7.73	-49.3	-64.6	3.6	1.51e+00	0	36	104	0	60	61373
2026-01-29 23:59:51.87	149.26	7.81	-49.3	-64.6	3.6	1.51e+00	0	36	104	0	60	61687
2026-01-29 23:59:52.87	149.25	7.89	-49.3	-64.6	3.6	1.51e+00	0	36	104	0	60	61350
2026-01-29 23:59:53.89	149.24	7.98	-49.3	-64.6	3.6	1.51e+00	0	36	104	0	60	61345
2026-01-29 23:59:54.90	149.23	8.06	-49.3	-64.6	3.6	1.51e+00	0	36	104	0	60	61434
2026-01-29 23:59:55.91	149.22	8.14	-49.3	-64.6	3.6	1.51e+00	0	36	104	0	60	61264
2026-01-29 23:59:56.91	149.21	8.22	-49.3	-64.6	3.6	1.51e+00	0	36	104	0	60	61536
2026-01-29 23:59:57.92	149.21	8.30	-49.3	-64.6	3.6	1.51e+00	0	36	104	0	60	61630
2026-01-29 23:59:58.93	149.20	8.38	-49.3	-64.6	3.6	1.51e+00	0	36	104	0	60	61371
2026-01-29 23:59:59.94	149.19	8.47	-49.3	-64.6	3.6	1.51e+00	0	36	104	0	60	61320
2026-01-30 00:00:00.95	149.18	8.55	-49.3	-64.6	3.6	1.51e+00	0	36	104	0	60	61303
2026-01-30 00:00:01.96	149.17	8.63	-49.3	-64.6	3.6	1.51e+00	0	36	104	0	60	61610
2026-01-30 00:00:02.97	149.16	8.72	-49.3	-64.6	3.6	1.51e+00	0	36	104	0	60	61705
2026-01-30 00:00:03.98	149.15	8.80	-49.3	-64.6	3.6	1.51e+00	0	36	104	0	60	61253
2026-01-30 00:00:04.99	149.14	8.88	-49.3	-64.6	3.6	1.51e+00	0	36	104	0	60	61265
2026-01-30 00:00:06.00	149.13	8.97	-49.3	-64.6	3.6	1.51e+00	0	36	104	0	60	61308
2026-01-30 00:00:07.01	149.12	9.05	-49.3	-64.5	3.6	1.51e+00	0	36	104	0	60	61020
2026-01-30 00:00:08.02	149.11	9.14	-49.3	-64.6	3.6	1.51e+00	0	36	104	0	60	61490
2026-01-30 00:00:09.03	149.10	9.22	-49.3	-64.6	3.6	1.51e+00	0	36	104	0	60	61328
2026-01-30 00:00:10.04	149.09	9.31	-49.3	-64.6	3.6	1.51e+00	0	36	104	0	60	61459
2026-01-30 00:00:11.05	149.08	9.39	-49.3	-64.6	3.6	1.51e+00	0	36	104	0	60	61509
2026-01-30 00:00:12.06	149.07	9.48	-49.3	-64.6	3.6	1.51e+00	0	36	104	0	60	61378
2026-01-30 00:00:13.07	149.06	9.57	-49.3	-64.6	3.6	1.51e+00	0	36	104	0	60	61415
2026-01-30 00:00:14.08	149.05	9.65	-49.3	-64.6	3.6	1.51e+00	0	36	104	0	60	61402
2026-01-30 00:00:15.09	149.04	9.74	-49.3	-64.6	3.5	1.51e+00	0	36	104	0	60	61409
2026-01-30 00:00:16.10	149.03	9.83	-49.3	-64.6	3.6	1.51e+00	0	37	104	0	60	61509
2026-01-30 00:00:17.11	149.02	9.92	-49.3	-64.6	3.6	1.51e+00	0	36	104	0	60	61402
2026-01-30 00:00:18.12	149.01	10.00	-49.3	-64.6	3.6	1.51e+00	0	37	104	0	60	61460
2026-01-30 00:00:19.14	149.00	10.09	-49.3	-64.6	3.6	1.51e+00	0	36	104	0	60	61454
2026-01-30 00:00:20.15	148.99	10.18	-49.3	-64.6	3.6	1.51e+00	0	36	104	0	60	61685
2026-01-30 00:00:21.16	148.98	10.27	-49.3	-64.6	3.6	1.51e+00	0	37	104	0	60	61285
2026-01-30 00:00:22.17	148.97	10.36	-49.3	-64.6	3.6	1.51e+00	0	37	104	0	60	61472
2026-01-30 00:00:23.18	148.96	10.45	-49.3	-64.6	3.6	1.51e+00	0	36	104	0	60	61421
2026-01-30 00:00:24.19	148.95	10.54	-49.3	-64.6	3.6	1.51e+00	0	36	104	0	60	61344
2026-01-30 00:00:25.20	148.94	10.63	-49.3	-64.6	3.6	1.51e+00	0	37	104	0	60	61298
2026-01-30 00:00:26.21	148.93	10.72	-49.3	-64.6	3.5	1.51e+00	0	37	104	0	60	61690
2026-01-30 00:00:27.22	148.92	10.81	-49.3	-64.6	3.6	1.51e+00	0	37	104	0	60	61223
2026-01-30 00:00:28.23	148.91	10.90	-49.3	-64.6	3.6	1.51e+00	0	37	104	0	60	61353
2026-01-30 00:00:29.24	148.89	10.99	-49.3	-64.6	3.6	1.51e+00	0	37	104	0	60	61118
2026-01-30 00:00:30.25	148.88	11.08	-49.3	-64.6	3.6	1.51e+00	0	37	104	0	60	61105
2026-01-30 00:00:31.26	148.87	11.18	-49.3	-64.6	3.6	1.51e+00	0	37	104	0	60	61202
2026-01-30 00:00:32.27	148.86	11.27	-49.3	-64.6	3.6	1.51e+00	0	37	104	0	60	61263
2026-01-30 00:00:33.28	148.85	11.36	-49.3	-64.7	3.6	1.51e+00	0	37	104	0	60	61815
2026-01-30 00:00:34.29	148.84	11.45	-49.3	-64.6	3.6	1.51e+00	0	37	104	0	60	61562
2026-01-30 00:00:35.30	148.82	11.55	-49.3	-64.6	3.6	1.51e+00	0	37	104	0	60	61679
2026-01-30 00:00:36.31	148.81	11.64	-49.3	-64.6	3.6	1.51e+00	0	37	104	0	60	61504
2026-01-30 00:00:37.32	148.80	11.74	-49.3	-64.6	3.6	1.51e+00	0	37	104	0	60	61461
2026-01-30 00:00:38.33	148.79	11.83	-49.3	-64.6	3.6	1.51e+00	0	36	104	0	60	61513
2026-01-30 00:00:39.34	148.78	11.92	-49.3	-64.6	3.6	1.51e+00	0	37	104	0	60	61216
2026-01-30 00:00:40.35	148.76	12.02	-49.3	-64.6	3.6	1.51e+00	0	37	104	0	60	61617
2026-01-30 00:00:41.36	148.75	12.12	-49.3	-64.6	3.6	1.51e+00	0	37	104	0	60	61588
2026-01-30 00:00:42.37	148.74	12.21	-49.3	-64.6	3.6	1.51e+00	0	37	104	0	60	61384
2026-01-30 00:00:43.38	148.73	12.31	-49.3	-64.6	3.6	1.51e+00	0	37	104	0	60	61571
2026-01-30 00:00:44.39	148.71	12.41	-49.3	-64.6	3.6	1.51e+00	0	36	104	0	60	61204
2026-01-30 00:00:45.40	148.70	12.50	-49.3	-64.6	3.6	1.51e+00	0	37	104	0	60	61332
2026-01-30 00:00:46.41	148.69	12.60	-49.3	-64.6	3.6	1.51e+00	0	37	104	0	60	61723
2026-01-30 00:00:47.42	148.67	12.70	-49.3	-64.6	3.6	1.51e+00	0	37	104	0	60	61365
2026-01-30 00:00:48.43	148.66	12.80	-49.3	-64.6	3.6	1.51e+00	0	37	104	0	60	61455
2026-01-30 00:00:49.44	148.65	12.89	-49.3	-64.6	3.6	1.51e+00	0	36	104	0	60	61608
2026-01-30 00:00:50.45	148.63	12.99	-49.3	-64.6	3.6	1.51e+00	0	37	104	0	60	61573
2026-01-30 00:00:51.46	148.62	13.09	-49.3	-64.6	3.6	1.51e+00	0	37	104	0	60	61253
2026-01-30 00:00:52.47	148.61	13.19	-49.3	-64.6	3.6	1.51e+00	0	37	104	0	60	61179
2026-01-30 00:00:53.48	148.59	13.29	-49.3	-64.6	3.6	1.51e+00	0	37	104	0	60	61236
2026-01-30 00:00:54.49	148.58	13.39	-49.3	-64.6	3.6	1.51e+00	0	37	104	0	60	61348
2026-01-30 00:00:55.50	148.57	13.50	-49.3	-64.6	3.6	1.51e+00	0	37	104	0	60	61413
2026-01-30 00:00:56.51	148.55	13.60	-49.3	-64.6	3.6	1.51e+00	0	37	104	0	60	61581
2026-01-30 00:00:57.52	148.54	13.70	-49.3	-64.7	3.6	1.51e+00	0	37	104	0	60	61841
2026-01-30 00:00:58.53	148.52	13.80	-49.3	-64.6	3.6	1.51e+00	0	37	104	0	60	61498
2026-01-30 00:00:59.54	148.51	13.91	-49.3	-64.5	3.6	1.51e+00	0	37	104	0	60	60952
2026-01-30 00:01:00.55	148.49	14.01	-49.3	-64.6	3.6	1.51e+00	0	37	104	0	60	61478
2026-01-30 00:01:01.56	148.48	14.11	-49.3	-64.6	3.6	1.51e+00	0	37	104	0	60	61111
2026-01-30 00:01:02.57	148.47	14.22	-49.3	-64.6	3.6	1.51e+00	0	37	104	0	60	61379
2026-01-30 00:01:03.58	148.45	14.32	-49.3	-64.6	3.6	1.51e+00	0	37	104	0	60	61216
2026-01-30 00:01:04.59	148.44	14.43	-49.3	-64.6	3.6	1.51e+00	0	37	104	0	60	61146
2026-01-30 00:01:05.60	148.42	14.53	-49.3	-64.7	3.6	1.51e+00	0	37	104	0	60	61745
2026-01-30 00:01:06.61	148.40	14.64	-49.3	-64.6	3.6	1.51e+00	0	37	104	0	60	61572
2026-01-30 00:01:07.62	148.39	14.74	-49.3	-64.6	3.6	1.51e+00	0	37	104	0	60	61240
2026-01-30 00:01:08.63	148.37	14.85	-49.3	-64.6	3.6	1.51e+00	0	37	104	0	60	61191
2026-01-30 00:01:09.64	148.36	14.96	-49.3	-64.6	3.6	1.51e+00	0	37	104	0	60	61389
2026-01-30 00:01:10.65	148.34	15.07	-49.3	-64.6	3.6	1.51e+00	0	37	104	0	60	61369
2026-01-30 00:01:11.66	148.33	15.18	-49.3	-64.6	3.6	1.51e+00	0	37	104	0	60	61243
2026-01-30 00:01:12.67	148.31	15.28	-49.3	-64.6	3.6	1.51e+00	0	37	104	0	60	61238
2026-01-30 00:01:13.68	148.29	15.39	-49.3	-64.6	3.6	1.51e+00	0	37	104	0	60	61635
2026-01-30 00:01:14.69	148.28	15.50	-49.3	-64.6	3.6	1.51e+00	0	37	104	0	60	61176
2026-01-30 00:01:15.70	148.26	15.61	-49.3	-64.6	3.6	1.51e+00	0	37	104	0	60	61263
2026-01-30 00:01:16.71	148.24	15.72	-49.3	-64.6	3.6	1.51e+00	0	37	104	0	60	61679
2026-01-30 00:01:17.72	148.23	15.84	-49.3	-64.6	3.6	1.51e+00	0	37	104	0	60	61276
2026-01-30 00:01:18.73	148.21	15.95	-49.3	-64.6	3.6	1.51e+00	0	37	104	0	60	61562
2026-01-30 00:01:19.74	148.19	16.06	-49.3	-64.6	3.6	1.51e+00	0	37	104	0	60	61231
2026-01-30 00:01:20.75	148.18	16.17	-49.3	-64.6	3.6	1.51e+00	0	37	104	0	60	61301
2026-01-30 00:01:21.76	148.16	16.29	-49.3	-64.6	3.6	1.51e+00	0	37	104	0	60	61211
2026-01-30 00:01:22.77	148.14	16.40	-49.3	-64.6	3.6	1.51e+00	0	37	104	0	60	61467
2026-01-30 00:01:23.78	148.12	16.52	-49.3	-64.6	3.6	1.51e+00	0	37	104	0	60	61492
2026-01-30 00:01:24.79	148.11	16.63	-49.3	-64.6	3.6	1.51e+00	0	37	104	0	60	61420
2026-01-30 00:01:25.80	148.09	16.75	-49.3	-64.6	3.6	1.51e+00	0	37	104	0	60	61200
2026-01-30 00:01:26.82	148.07	16.86	-49.3	-64.6	3.6	1.51e+00	0	37	104	0	60	61337
2026-01-30 00:01:27.82	148.05	16.98	-49.3	-64.6	3.6	1.51e+00	0	37	104	0	60	61463
2026-01-30 00:01:28.83	148.03	17.10	-49.3	-64.6	3.6	1.51e+00	0	36	104	0	60	61507
2026-01-30 00:01:29.84	148.01	17.21	-49.3	-64.6	3.6	1.51e+00	0	37	104	0	60	61354
2026-01-30 00:01:30.85	147.99	17.33	-49.3	-64.6	3.6	1.51e+00	0	37	104	0	60	61287
2026-01-30 00:01:31.86	147.97	17.45	-49.3	-64.6	3.6	1.51e+00	0	37	104	0	60	61399
2026-01-30 00:01:32.87	147.96	17.57	-49.3	-64.6	3.6	1.51e+00	0	37	104	0	60	61443
2026-01-30 00:01:33.88	147.94	17.69	-49.3	-64.6	3.6	1.51e+00	0	37	104	0	60	61642
2026-01-30 00:01:34.89	147.92	17.81	-49.3	-64.6	3.6	1.51e+00	0	37	104	0	60	61342
2026-01-30 00:01:35.90	147.90	17.93	-49.3	-64.6	3.6	1.51e+00	0	37	104	0	60	61193
2026-01-30 00:01:36.91	147.88	18.05	-49.3	-64.6	3.6	1.51e+00	0	37	104	0	60	61332
2026-01-30 00:01:37.93	147.86	18.18	-49.3	-64.6	3.6	1.51e+00	0	37	104	0	60	61486
2026-01-30 00:01:38.94	147.84	18.30	-49.3	-64.6	3.6	1.51e+00	0	37	104	0	60	61412
2026-01-30 00:01:39.95	147.82	18.42	-49.3	-64.6	3.6	1.51e+00	0	37	104	0	60	61421
2026-01-30 00:01:40.96	147.79	18.55	-49.3	-64.6	3.6	1.51e+00	0	37	104	0	60	61433
2026-01-30 00:01:41.97	147.77	18.67	-49.3	-64.6	3.6	1.51e+00	0	37	104	0	60	61731
2026-01-30 00:01:42.98	147.75	18.80	-49.3	-64.6	3.6	1.51e+00	0	37	104	0	60	61417
2026-01-30 00:01:43.99	147.73	18.93	-49.3	-64.6	3.6	1.51e+00	0	37	104	0	60	61379
2026-01-30 00:01:45.00	147.71	19.05	-49.3	-64.6	3.6	1.51e+00	0	37	104	0	60	61297
2026-01-30 00:01:46.01	147.69	19.18	-49.3	-64.6	3.6	1.51e+00	0	37	104	0	60	61238
2026-01-30 00:01:47.01	147.67	19.31	-49.3	-64.6	3.6	1.51e+00	0	37	104	0	60	61283
2026-01-30 00:01:48.02	147.64	19.44	-49.3	-64.6	3.6	1.51e+00	0	37	104	0	60	61484
2026-01-30 00:01:49.04	147.62	19.57	-49.3	-64.6	3.6	1.51e+00	0	37	104	0	60	61159
2026-01-30 00:01:50.05	147.60	19.70	-49.3	-64.6	3.6	1.51e+00	0	37	104	0	60	61574
2026-01-30 00:01:51.06	147.58	19.83	-49.3	-64.6	3.6	1.51e+00	0	37	104	0	60	61682
2026-01-30 00:01:52.07	147.55	19.96	-49.3	-64.6	3.6	1.51e+00	0	37	104	0	60	61395
2026-01-30 00:01:53.08	147.53	20.09	-49.3	-64.7	3.6	1.51e+00	0	37	104	0	60	61824
2026-01-30 00:01:54.09	147.51	20.22	-49.3	-64.6	3.6	1.51e+00	0	37	104	0	60	61431
2026-01-30 00:01:55.10	147.48	20.36	-49.3	-64.6	3.6	1.51e+00	0	37	104	0	60	61403
2026-01-30 00:01:56.11	147.46	20.49	-49.3	-64.6	3.6	1.51e+00	0	37	104	0	60	61232
2026-01-30 00:01:57.12	147.43	20.63	-49.3	-64.6	3.5	1.51e+00	0	37	104	0	60	61272
2026-01-30 00:01:58.13	147.41	20.76	-49.3	-64.6	3.6	1.51e+00	0	37	104	0	60	61405
2026-01-30 00:01:59.14	147.38	20.90	-49.3	-64.6	3.6	1.51e+00	0	37	104	0	60	61681
2026-01-30 00:02:00.15	147.36	21.04	-49.3	-64.6	3.6	1.51e+00	0	37	104	0	60	61359
2026-01-30 00:02:01.16	147.33	21.17	-49.3	-64.6	3.6	1.51e+00	0	37	104	0	60	61404
2026-01-30 00:02:02.17	147.31	21.31	-49.3	-64.6	3.6	1.51e+00	0	37	104	0	60	61608
2026-01-30 00:02:03.18	147.28	21.45	-49.3	-64.6	3.6	1.51e+00	0	37	104	0	60	61637
2026-01-30 00:02:04.19	147.26	21.59	-49.3	-64.6	3.6	1.51e+00	0	37	104	0	60	61608
2026-01-30 00:02:05.20	147.23	21.73	-49.3	-64.6	3.6	1.51e+00	0	37	104	0	60	61418
2026-01-30 00:02:06.21	147.20	21.87	-49.3	-64.7	3.6	1.51e+00	0	37	104	0	60	61751
2026-01-30 00:02:07.22	147.18	22.02	-49.3	-64.6	3.6	1.51e+00	0	37	104	0	60	61400
2026-01-30 00:02:08.23	147.15	22.16	-49.3	-64.6	3.6	1.51e+00	0	37	104	0	60	61292
2026-01-30 00:02:09.24	147.12	22.30	-49.3	-64.6	3.6	1.51e+00	0	37	104	0	60	61495
2026-01-30 00:02:10.25	147.09	22.45	-49.3	-64.6	3.6	1.51e+00	0	37	104	0	60	61311
2026-01-30 00:02:11.26	147.07	22.59	-49.3	-64.6	3.6	1.51e+00	0	37	104	0	60	61512
2026-01-30 00:02:12.27	147.04	22.74	-49.3	-64.6	3.6	1.51e+00	0	37	104	0	60	61601
2026-01-30 00:02:13.28	147.01	22.89	-49.3	-64.6	3.6	1.51e+00	0	37	104	0	60	61292
2026-01-30 00:02:14.29	146.98	23.04	-49.3	-64.6	3.6	1.51e+00	0	37	104	0	60	61124
2026-01-30 00:02:15.30	146.95	23.19	-49.3	-64.6	3.6	1.51e+00	0	37	104	0	60	61384
2026-01-30 00:02:16.31	146.92	23.34	-49.3	-64.6	3.6	1.51e+00	0	37	104	0	60	61261
2026-01-30 00:02:17.32	146.89	23.49	-49.3	-64.6	3.6	1.51e+00	0	37	104	0	60	61587
2026-01-30 00:02:18.33	146.86	23.64	-49.3	-64.6	3.6	1.51e+00	0	37	104	0	60	61582
2026-01-30 00:02:19.34	146.83	23.79	-49.3	-64.6	3.6	1.51e+00	0	37	104	0	60	61318
2026-01-30 00:02:20.35	146.80	23.94	-49.3	-64.6	3.6	1.51e+00	0	37	104	0	60	61183
2026-01-30 00:02:21.36	146.77	24.10	-49.3	-64.6	3.6	1.51e+00	0	37	104	0	60	61519
2026-01-30 00:02:22.38	146.74	24.26	-49.3	-64.6	3.6	1.51e+00	0	37	104	0	60	61308
2026-01-30 00:02:23.39	146.71	24.41	-49.3	-64.6	3.6	1.51e+00	0	37	104	0	60	61368
2026-01-30 00:02:24.40	146.67	24.57	-49.3	-64.6	3.5	1.51e+00	0	37	104	0	60	61191
2026-01-30 00:02:25.41	146.64	24.73	-49.3	-64.6	3.6	1.51e+00	0	37	104	0	60	61501
2026-01-30 00:02:26.42	146.61	24.89	-49.3	-64.6	3.6	1.51e+00	0	37	104	0	60	61206
2026-01-30 00:02:27.43	146.58	25.05	-49.3	-64.6	3.5	1.51e+00	0	37	104	0	60	61507
2026-01-30 00:02:28.44	146.54	25.21	-49.3	-64.6	3.6	1.51e+00	0	37	104	0	60	61470
2026-01-30 00:02:29.45	146.51	25.37	-49.3	-64.6	3.6	1.51e+00	0	37	104	0	60	61535
2026-01-30 00:02:30.46	146.47	25.53	-49.3	-64.6	3.6	1.51e+00	0	37	104	0	60	61393
2026-01-30 00:02:31.46	146.44	25.69	-49.3	-64.6	3.6	1.51e+00	0	37	104	0	60	61578
2026-01-30 00:02:32.47	146.40	25.86	-49.3	-64.6	3.6	1.51e+00	0	37	104	0	60	61557
2026-01-30 00:02:33.48	146.37	26.03	-49.3	-64.6	3.6	1.51e+00	0	37	104	0	60	61405
2026-01-30 00:02:34.49	146.33	26.19	-49.3	-64.6	3.6	1.51e+00	0	37	104	0	60	61559
2026-01-30 00:02:35.50	146.30	26.36	-49.3	-64.5	3.6	1.51e+00	0	37	104	0	60	61022
2026-01-30 00:02:36.51	146.26	26.53	-49.3	-64.6	3.6	1.51e+00	0	37	104	0	60	61388
2026-01-30 00:02:37.52	146.22	26.70	-49.3	-64.6	3.6	1.51e+00	0	37	104	0	60	61500
2026-01-30 00:02:38.53	146.18	26.87	-49.3	-64.6	3.6	1.51e+00	0	37	104	0	60	61361
2026-01-30 00:02:39.55	146.15	27.04	-49.3	-64.6	3.6	1.51e+00	0	37	104	0	60	61459
2026-01-30 00:02:40.55	146.11	27.22	-49.3	-64.6	3.6	1.51e+00	0	37	104	0	60	61413
2026-01-30 00:02:41.56	146.07	27.39	-49.3	-64.7	3.6	1.51e+00	0	37	104	0	60	61745
2026-01-30 00:02:42.57	146.03	27.56	-49.3	-64.6	3.6	1.51e+00	0	37	104	0	60	61643
2026-01-30 00:02:43.58	145.99	27.74	-49.3	-64.6	3.6	1.51e+00	0	37	104	0	60	61061
2026-01-30 00:02:44.60	145.95	27.92	-49.3	-64.6	3.6	1.51e+00	0	37	104	0	60	61466
2026-01-30 00:02:45.61	145.91	28.10	-49.3	-64.6	3.6	1.51e+00	0	37	104	0	60	61234
2026-01-30 00:02:46.62	145.87	28.28	-49.3	-64.6	3.6	1.51e+00	0	37	104	0	60	61546
2026-01-30 00:02:47.63	145.82	28.46	-49.3	-64.6	3.6	1.51e+00	0	37	104	0	60	61429
2026-01-30 00:02:48.64	145.78	28.64	-49.3	-64.6	3.6	1.51e+00	0	37	104	0	60	61726
2026-01-30 00:02:49.65	145.74	28.83	-49.3	-64.6	3.6	1.51e+00	0	37	104	0	60	61517
2026-01-30 00:02:50.66	145.69	29.01	-49.3	-64.6	3.6	1.51e+00	0	37	104	0	60	61627
2026-01-30 00:02:51.66	145.65	29.19	-49.3	-64.6	3.6	1.51e+00	0	37	104	0	60	61425
2026-01-30 00:02:52.68	145.61	29.38	-49.3	-64.6	3.6	1.51e+00	0	37	104	0	60	61265
2026-01-30 00:02:53.69	145.56	29.57	-49.3	-64.6	3.6	1.51e+00	0	37	104	0	60	61676
2026-01-30 00:02:54.70	145.51	29.76	-49.3	-64.6	3.6	1.51e+00	0	37	104	0	60	61678
2026-01-30 00:02:55.71	145.47	29.95	-49.3	-64.6	3.6	1.51e+00	0	37	104	0	60	61504
2026-01-30 00:02:56.72	145.42	30.14	-49.3	-64.6	3.5	1.51e+00	0	37	104	0	60	61409
2026-01-30 00:02:57.73	145.37	30.34	-49.3	-64.6	3.6	1.51e+00	0	37	104	0	60	61532
2026-01-30 00:02:58.74	145.33	30.53	-49.3	-64.6	3.6	1.51e+00	0	37	104	0	60	61564
2026-01-30 00:02:59.74	145.28	30.73	-49.3	-64.6	3.6	1.51e+00	0	37	104	0	60	61431
2026-01-30 00:03:00.76	145.23	30.92	-49.3	-64.6	3.6	1.51e+00	0	37	104	0	60	61551
2026-01-30 00:03:01.77	145.18	31.12	-49.3	-64.6	3.6	1.51e+00	0	37	104	0	60	61417
2026-01-30 00:03:02.77	145.13	31.32	-49.3	-64.6	3.6	1.51e+00	0	37	104	0	60	61450
2026-01-30 00:03:03.78	145.08	31.52	-49.3	-64.6	3.6	1.51e+00	0	37	104	0	60	61304
2026-01-30 00:03:04.79	145.02	31.72	-49.3	-64.6	3.6	1.51e+00	0	37	104	0	60	61727
2026-01-30 00:03:05.81	144.97	31.93	-49.3	-64.6	3.6	1.51e+00	0	37	104	0	60	61314
2026-01-30 00:03:06.81	144.92	32.13	-49.3	-64.6	3.6	1.51e+00	0	37	104	0	60	61422
2026-01-30 00:03:07.83	144.86	32.34	-49.3	-64.6	3.5	1.51e+00	0	37	104	0	60	61570
2026-01-30 00:03:08.84	144.81	32.55	-49.3	-64.6	3.6	1.51e+00	0	37	104	0	60	61207
2026-01-30 00:03:09.85	144.75	32.76	-49.3	-64.6	3.6	1.51e+00	0	37	104	0	60	61048
2026-01-30 00:03:10.86	144.70	32.97	-49.3	-64.6	3.6	1.51e+00	0	37	104	0	60	61293
2026-01-30 00:03:11.87	144.64	33.18	-49.3	-64.6	3.6	1.51e+00	0	37	104	0	60	61554
2026-01-30 00:03:12.87	144.58	33.39	-49.3	-64.6	3.6	1.51e+00	0	37	104	0	60	61402
2026-01-30 00:03:13.88	144.52	33.61	-49.3	-64.6	3.6	1.51e+00	0	37	104	0	60	61357
2026-01-30 00:03:14.90	144.46	33.83	-49.3	-64.6	3.6	1.51e+00	0	37	104	0	60	61447
2026-01-30 00:03:15.91	144.40	34.05	-49.3	-64.6	3.6	1.51e+00	0	37	104	0	60	61290
2026-01-30 00:03:16.92	144.34	34.27	-49.3	-64.7	3.6	1.51e+00	0	37	104	0	60	61771
2026-01-30 00:03:17.93	144.28	34.49	-49.3	-64.6	3.6	1.51e+00	0	37	104	0	60	61438
2026-01-30 00:03:18.94	144.22	34.71	-49.3	-64.6	3.6	1.51e+00	0	37	104	0	60	61439
2026-01-30 00:03:19.95	144.15	34.93	-49.3	-64.6	3.6	1.51e+00	0	37	104	0	60	61713
2026-01-30 00:03:20.96	144.09	35.16	-49.3	-64.6	3.6	1.51e+00	0	37	104	0	60	61560
2026-01-30 00:03:21.97	144.02	35.39	-49.3	-64.6	3.6	1.51e+00	0	37	104	0	60	61457
2026-01-30 00:03:22.98	143.95	35.62	-49.3	-64.6	3.6	1.51e+00	0	37	104	0	60	61494
2026-01-30 00:03:23.99	143.89	35.85	-49.3	-64.6	3.6	1.51e+00	0	37	104	0	60	61270
2026-01-30 00:03:25.00	143.82	36.08	-49.3	-64.6	3.6	1.51e+00	0	37	104	0	60	61306
2026-01-30 00:03:26.01	143.75	36.31	-49.3	-64.6	3.6	1.51e+00	0	37	104	0	60	61441
2026-01-30 00:03:27.02	143.68	36.55	-49.3	-64.6	3.6	1.51e+00	0	37	104	0	60	61592
2026-01-30 00:03:28.03	143.60	36.78	-49.3	-64.6	3.6	1.51e+00	0	37	104	0	60	61297
2026-01-30 00:03:29.04	143.53	37.02	-49.3	-64.6	3.6	1.51e+00	0	37	104	0	60	61265
2026-01-30 00:03:30.05	143.46	37.26	-49.3	-64.6	3.6	1.51e+00	0	37	104	0	60	61430
2026-01-30 00:03:31.06	143.38	37.51	-49.3	-64.6	3.6	1.51e+00	0	37	104	0	60	61433
2026-01-30 00:03:32.07	143.30	37.75	-49.3	-64.6	3.6	1.51e+00	0	37	104	0	60	61540
2026-01-30 00:03:33.08	143.23	38.00	-49.3	-64.6	3.6	1.51e+00	0	37	104	0	60	61055
2026-01-30 00:03:34.09	143.15	38.24	-49.3	-64.6	3.6	1.51e+00	0	37	104	0	60	61314
2026-01-30 00:03:35.10	143.07	38.49	-49.3	-64.6	3.6	1.51e+00	0	37	104	0	60	61318
2026-01-30 00:03:36.11	142.98	38.74	-49.3	-64.7	3.6	1.51e+00	0	37	104	0	60	61821
2026-01-30 00:03:37.12	142.90	39.00	-49.3	-64.6	3.6	1.51e+00	0	37	104	0	60	61201
2026-01-30 00:03:38.13	142.82	39.25	-49.3	-64.6	3.6	1.51e+00	0	37	104	0	60	61518
2026-01-30 00:03:39.14	142.73	39.51	-49.3	-64.6	3.6	1.51e+00	0	37	104	0	60	61234
2026-01-30 00:03:40.15	142.64	39.76	-49.3	-64.6	3.6	1.51e+00	0	37	104	0	60	61730
2026-01-30 00:03:41.16	142.56	40.02	-49.3	-64.6	3.6	1.51e+00	0	37	104	0	60	61272
2026-01-30 00:03:42.17	142.47	40.29	-49.3	-64.6	3.6	1.51e+00	0	37	104	0	60	61389
2026-01-30 00:03:43.18	142.37	40.55	-49.3	-64.6	3.6	1.51e+00	0	37	104	0	60	61413
2026-01-30 00:03:44.19	142.28	40.82	-49.3	-64.6	3.6	1.51e+00	0	37	104	0	60	61479
2026-01-30 00:03:45.20	142.19	41.08	-49.3	-64.6	3.6	1.51e+00	0	37	104	0	60	61307
2026-01-30 00:03:46.21	142.09	41.35	-49.3	-64.6	3.6	1.51e+00	0	37	104	0	60	61187
2026-01-30 00:03:47.22	141.99	41.62	-49.3	-64.6	3.6	1.51e+00	0	37	104	0	60	61561
2026-01-30 00:03:48.23	141.89	41.90	-49.3	-64.6	3.6	1.51e+00	0	37	104	0	60	61243
2026-01-30 00:03:49.24	141.79	42.17	-49.3	-64.6	3.6	1.51e+00	0	37	104	0	60	61514
2026-01-30 00:03:50.25	141.69	42.45	-49.3	-64.6	3.6	1.51e+00	0	37	104	0	60	61622
2026-01-30 00:03:51.26	141.58	42.73	-49.3	-64.5	3.6	1.51e+00	0	37	104	0	60	60963
2026-01-30 00:03:52.27	141.47	43.01	-49.3	-64.6	3.6	1.51e+00	0	37	104	0	60	61428
2026-01-30 00:03:53.28	141.37	43.29	-49.3	-64.6	3.6	1.51e+00	0	37	104	0	60	61417
2026-01-30 00:03:54.29	141.25	43.58	-49.3	-64.6	3.6	1.51e+00	0	37	104	0	60	61541
2026-01-30 00:03:55.30	141.14	43.86	-49.3	-64.6	3.6	1.51e+00	0	37	104	0	60	61496
2026-01-30 00:03:56.31	141.03	44.15	-49.3	-64.6	3.6	1.51e+00	0	37	104	0	60	61507
2026-01-30 00:03:57.32	140.91	44.44	-49.3	-64.6	3.6	1.51e+00	0	37	104	0	60	61190
2026-01-30 00:03:58.33	140.79	44.74	-49.3	-64.6	3.6	1.51e+00	0	37	104	0	60	61637
2026-01-30 00:03:59.34	140.67	45.03	-49.3	-64.6	3.6	1.51e+00	0	37	104	0	60	61114
2026-01-30 00:04:00.36	140.54	45.33	-49.3	-64.6	3.6	1.51e+00	0	37	104	0	60	61555
2026-01-30 00:04:01.36	140.42	45.63	-49.3	-64.6	3.6	1.51e+00	0	37	104	0	60	61083
2026-01-30 00:04:02.38	140.28	45.93	-49.3	-64.6	3.6	1.51e+00	0	37	104	0	60	61567
2026-01-30 00:04:03.38	140.15	46.23	-49.3	-64.6	3.6	1.51e+00	0	37	104	0	60	61183
2026-01-30 00:04:04.40	140.02	46.54	-49.3	-64.6	3.6	1.51e+00	0	37	104	0	60	61573
2026-01-30 00:04:05.41	139.88	46.85	-49.3	-64.6	3.6	1.51e+00	0	37	104	0	60	61226
2026-01-30 00:04:06.42	139.74	47.16	-49.3	-64.6	3.6	1.51e+00	0	37	104	0	60	61516
2026-01-30 00:04:07.43	139.60	47.47	-49.3	-64.7	3.6	1.51e+00	0	37	104	0	60	61786
2026-01-30 00:04:08.44	139.45	47.78	-49.3	-64.6	3.6	1.51e+00	0	37	104	0	60	61077
2026-01-30 00:04:09.45	139.30	48.10	-49.3	-64.6	3.6	1.51e+00	0	37	104	0	60	61348
2026-01-30 00:04:10.46	139.15	48.41	-49.3	-64.6	3.6	1.51e+00	0	37	104	0	60	61472
2026-01-30 00:04:11.47	139.00	48.73	-49.3	-64.7	3.6	1.51e+00	0	37	104	0	60	61752
2026-01-30 00:04:12.48	138.84	49.06	-49.3	-64.6	3.6	1.51e+00	0	37	104	0	60	61559
2026-01-30 00:04:13.49	138.68	49.38	-49.3	-64.6	3.6	1.51e+00	0	37	104	0	60	61472
2026-01-30 00:04:14.50	138.51	49.71	-49.3	-64.6	3.6	1.51e+00	0	37	104	0	60	61443
2026-01-30 00:04:15.51	138.34	50.03	-49.3	-64.6	3.6	1.51e+00	0	37	104	0	60	61274
2026-01-30 00:04:16.52	138.17	50.37	-49.3	-64.6	3.6	1.51e+00	0	37	104	0	60	61249
2026-01-30 00:04:17.53	137.99	50.70	-49.3	-64.6	3.6	1.51e+00	0	37	104	0	60	61391
2026-01-30 00:04:18.54	137.81	51.03	-49.3	-64.6	3.6	1.51e+00	0	37	104	0	60	61520
2026-01-30 00:04:19.55	137.62	51.37	-49.3	-64.6	3.6	1.51e+00	0	37	104	0	60	61432
2026-01-30 00:04:20.56	137.44	51.71	-49.3	-64.6	3.6	1.51e+00	0	37	104	0	60	61550
2026-01-30 00:04:21.57	137.24	52.05	-49.3	-64.6	3.6	1.51e+00	0	37	104	0	60	61411
2026-01-30 00:04:22.58	137.04	52.39	-49.3	-64.6	3.6	1.51e+00	0	37	104	0	60	61405
2026-01-30 00:04:23.59	136.84	52.74	-49.3	-64.6	3.6	1.51e+00	0	37	104	0	60	61481
2026-01-30 00:04:24.60	136.63	53.08	-49.3	-64.6	3.6	1.51e+00	0	37	104	0	60	61550
2026-01-30 00:04:25.61	136.42	53.43	-49.3	-64.6	3.6	1.51e+00	0	37	104	0	60	61278
2026-01-30 00:04:26.62	136.20	53.78	-49.3	-64.6	3.6	1.51e+00	0	37	104	0	60	61376
2026-01-30 00:04:27.63	135.98	54.13	-49.3	-64.6	3.6	1.51e+00	0	37	104	0	60	61294
2026-01-30 00:04:28.64	135.75	54.49	-49.3	-64.6	3.6	1.51e+00	0	37	104	0	60	61275
2026-01-30 00:04:29.65	135.51	54.85	-49.3	-64.6	3.6	1.51e+00	0	37	104	0	60	61521
2026-01-30 00:04:30.66	135.27	55.20	-49.3	-64.6	3.6	1.51e+00	0	37	104	0	60	61589
2026-01-30 00:04:31.67	135.02	55.57	-49.3	-64.6	3.6	1.51e+00	0	37	104	0	60	61609
2026-01-30 00:04:32.68	134.77	55.93	-49.3	-64.6	3.6	1.51e+00	0	37	104	0	60	61371
2026-01-30 00:04:33.69	134.51	56.29	-49.3	-64.6	3.6	1.51e+00	0	37	104	0	60	61486
2026-01-30 00:04:34.70	134.24	56.66	-49.3	-64.6	3.6	1.51e+00	0	37	104	0	60	61431
2026-01-30 00:04:35.71	133.96	57.03	-49.3	-64.6	3.6	1.51e+00	0	37	104	0	60	61256
2026-01-30 00:04:36.72	133.68	57.40	-49.3	-64.6	3.6	1.51e+00	0	37	104	0	60	61389
2026-01-30 00:04:37.73	133.39	57.77	-49.3	-64.6	3.6	1.51e+00	0	37	104	0	60	61623
2026-01-30 00:04:38.74	133.09	58.14	-49.3	-64.6	3.6	1.51e+00	0	37	104	0	60	61525
2026-01-30 00:04:39.75	132.78	58.51	-49.3	-64.6	3.6	1.51e+00	0	37	104	0	60	61465
2026-01-30 00:04:40.76	132.46	58.89	-49.3	-64.7	3.6	1.51e+00	0	37	104	0	60	61954
2026-01-30 00:04:41.77	132.14	59.27	-49.3	-64.6	3.6	1.51e+00	0	37	104	0	60	61235
2026-01-30 00:04:42.78	131.80	59.65	-49.3	-64.6	3.6	1.51e+00	0	37	104	0	60	61516
2026-01-30 00:04:43.79	131.46	60.03	-49.3	-64.6	3.6	1.51e+00	0	37	104	0	60	61516
2026-01-30 00:04:44.80	131.10	60.41	-49.3	-64.6	3.6	1.51e+00	0	37	104	0	60	61452
2026-01-30 00:04:45.82	130.73	60.79	-49.3	-64.6	3.6	1.51e+00	0	37	104	0	60	61521
2026-01-30 00:04:46.83	130.35	61.18	-49.3	-64.6	3.6	1.51e+00	0	37	104	0	60	61636
2026-01-30 00:04:47.84	129.96	61.56	-49.3	-64.6	3.6	1.51e+00	0	37	104	0	60	61381
2026-01-30 00:04:48.85	129.56	61.95	-49.3	-64.6	3.6	1.51e+00	0	37	104	0	60	61623
2026-01-30 00:04:49.86	129.14	62.34	-49.3	-64.6	3.6	1.51e+00	0	37	104	0	60	61232
2026-01-30 00:04:50.87	128.71	62.72	-49.3	-64.6	3.6	1.51e+00	0	37	104	0	60	61387
2026-01-30 00:04:51.88	128.27	63.11	-49.3	-64.6	3.6	1.51e+00	0	37	104	0	60	61241
2026-01-30 00:04:52.89	127.81	63.50	-49.3	-64.6	3.6	1.51e+00	0	37	104	0	60	61139
2026-01-30 00:04:53.90	127.34	63.89	-49.3	-64.6	3.6	1.51e+00	0	37	104	0	60	61133
2026-01-30 00:04:54.91	126.84	64.28	-49.3	-64.6	3.6	1.51e+00	0	37	104	0	60	61454
2026-01-30 00:04:55.92	126.34	64.67	-49.3	-64.6	3.6	1.51e+00	0	37	104	0	60	61591
2026-01-30 00:04:56.93	125.81	65.06	-49.3	-64.6	3.6	1.51e+00	0	37	104	0	60	61705
2026-01-30 00:04:57.94	125.27	65.45	-49.3	-64.6	3.6	1.51e+00	0	37	104	0	60	61589
2026-01-30 00:04:58.95	124.70	65.85	-49.3	-64.6	3.6	1.51e+00	0	37	104	0	60	61583
2026-01-30 00:04:59.96	124.12	66.24	-49.3	-64.6	3.6	1.51e+00	0	37	104	0	60	61166
2026-01-30 00:05:00.97	123.51	66.63	-49.3	-64.6	3.6	1.51e+00	0	37	104	0	60	61063
2026-01-30 00:05:01.98	122.88	67.01	-49.3	-64.6	3.6	1.51e+00	0	37	104	0	60	61148
2026-01-30 00:05:02.99	122.23	67.40	-49.3	-64.6	3.6	1.51e+00	0	37	104	0	60	61217
2026-01-30 00:05:04.00	121.55	67.79	-49.3	-64.6	3.6	1.51e+00	0	37	104	0	60	61177
2026-01-30 00:05:05.01	120.85	68.18	-49.3	-64.6	3.6	1.51e+00	0	37	104	0	60	61585
2026-01-30 00:05:06.02	120.12	68.56	-49.3	-64.6	3.6	1.51e+00	0	37	104	0	60	61508
2026-01-30 00:05:07.03	119.36	68.94	-49.3	-64.6	3.6	1.51e+00	0	37	104	0	60	61426
2026-01-30 00:05:08.05	118.56	69.33	-49.3	-64.6	3.6	1.51e+00	0	37	104	0	60	61206
2026-01-30 00:05:09.06	117.74	69.71	-49.3	-64.6	3.6	1.51e+00	0	37	104	0	60	61576
2026-01-30 00:05:10.07	116.88	70.08	-49.3	-64.6	3.6	1.51e+00	0	37	104	0	60	61424
2026-01-30 00:05:11.07	116.00	70.45	-49.3	-64.6	3.6	1.51e+00	0	37	104	0	60	61614
2026-01-30 00:05:12.08	115.07	70.82	-49.3	-64.6	3.6	1.51e+00	0	37	104	0	60	61426
2026-01-30 00:05:13.09	114.10	71.19	-49.3	-64.5	3.6	1.51e+00	0	37	104	0	60	60981
2026-01-30 00:05:14.10	113.09	71.55	-49.3	-64.6	3.6	1.51e+00	0	37	104	0	60	61268
2026-01-30 00:05:15.11	112.04	71.90	-49.3	-64.6	3.6	1.51e+00	0	37	104	0	60	61619
2026-01-30 00:05:16.12	110.95	72.26	-49.3	-64.6	3.6	1.51e+00	0	37	104	0	60	61189
2026-01-30 00:05:17.13	109.81	72.60	-49.3	-64.6	3.6	1.51e+00	0	37	104	0	60	61312
2026-01-30 00:05:18.14	108.62	72.95	-49.3	-64.6	3.6	1.51e+00	0	37	104	0	60	61398
2026-01-30 00:05:19.15	107.37	73.28	-49.3	-64.6	3.6	1.51e+00	0	37	104	0	60	61407
2026-01-30 00:05:20.16	106.08	73.61	-49.3	-64.6	3.6	1.51e+00	0	37	104	0	60	61702
2026-01-30 00:05:21.17	104.73	73.93	-49.3	-64.6	3.6	1.51e+00	0	37	104	0	60	61478
2026-01-30 00:05:22.18	103.33	74.24	-49.3	-64.6	3.6	1.51e+00	0	37	104	0	60	61221
2026-01-30 00:05:23.19	101.86	74.55	-49.3	-64.5	3.6	1.51e+00	0	37	104	0	60	60598
2026-01-30 00:05:24.20	100.34	74.84	-49.3	-64.5	3.6	1.51e+00	0	37	104	0	60	60891
2026-01-30 00:05:25.21	98.75	75.12	-49.3	-64.5	3.6	1.51e+00	0	37	104	0	60	61004
2026-01-30 00:05:26.23	97.08	75.40	-49.3	-64.5	3.6	1.51e+00	0	37	104	0	60	60621
2026-01-30 00:05:27.24	95.37	75.66	-49.3	-64.5	3.6	1.51e+00	0	37	104	0	60	60529
2026-01-30 00:05:28.25	93.59	75.91	-49.3	-64.6	3.6	1.51e+00	0	37	104	0	60	61235
2026-01-30 00:05:29.25	91.77	76.14	-49.3	-64.5	3.6	1.51e+00	0	37	104	0	60	60711
2026-01-30 00:05:30.26	89.86	76.37	-49.3	-64.6	3.6	1.51e+00	0	37	104	0	60	61321
2026-01-30 00:05:31.28	87.87	76.58	-49.3	-64.6	3.6	1.51e+00	0	37	104	0	60	61411
2026-01-30 00:05:32.29	85.84	76.77	-49.3	-64.6	3.6	1.51e+00	0	37	104	0	60	61350
2026-01-30 00:05:33.30	83.75	76.94	-49.3	-64.6	3.6	1.51e+00	0	37	104	0	60	61354
2026-01-30 00:05:34.31	81.60	77.10	-49.3	-64.5	3.6	1.51e+00	0	37	104	0	60	60736
2026-01-30 00:05:35.32	79.40	77.24	-49.3	-64.6	3.6	1.51e+00	0	37	104	0	60	61392
2026-01-30 00:05:36.33	77.16	77.36	-49.3	-64.6	3.6	1.51e+00	0	37	104	0	60	61360
2026-01-30 00:05:37.34	74.88	77.46	-49.3	-64.6	3.6	1.51e+00	0	37	104	0	60	61127
2026-01-30 00:05:38.35	72.56	77.54	-49.3	-64.5	3.6	1.51e+00	0	37	104	0	60	60987
2026-01-30 00:05:39.36	70.21	77.61	-49.3	-64.6	3.6	1.51e+00	0	37	104	0	60	61317
2026-01-30 00:05:40.37	67.84	77.65	-49.3	-64.6	3.6	1.51e+00	0	37	104	0	60	61126
2026-01-30 00:05:41.38	65.46	77.67	-49.3	-64.6	3.6	1.51e+00	0	37	104	0	60	61641
2026-01-30 00:05:42.39	63.08	77.67	-49.3	-64.5	3.6	1.51e+00	0	37	104	0	60	60935
2026-01-30 00:05:43.40	60.70	77.65	-49.3	-64.6	3.6	1.51e+00	0	37	104	0	60	61577
2026-01-30 00:05:44.41	58.33	77.61	-49.3	-64.6	3.6	1.51e+00	0	37	104	0	60	61162
2026-01-30 00:05:45.42	55.99	77.54	-49.3	-64.6	3.6	1.51e+00	0	37	104	0	60	61155
2026-01-30 00:05:46.43	53.67	77.46	-49.3	-64.5	3.6	1.51e+00	0	37	104	0	60	60830
2026-01-30 00:05:47.44	51.38	77.36	-49.3	-64.6	3.6	1.51e+00	0	37	104	0	60	61306
2026-01-30 00:05:48.45	49.14	77.24	-49.3	-64.6	3.6	1.51e+00	0	37	104	0	60	61114
2026-01-30 00:05:49.46	46.94	77.10	-49.3	-64.6	3.6	1.51e+00	0	37	104	0	60	61371
2026-01-30 00:05:50.47	44.80	76.94	-49.3	-64.6	3.6	1.51e+00	0	37	104	0	60	61436
2026-01-30 00:05:51.48	42.71	76.77	-49.3	-64.6	3.6	1.51e+00	0	37	104	0	60	61148
2026-01-30 00:05:52.49	40.68	76.57	-49.3	-64.6	3.6	1.51e+00	0	37	104	0	60	61608
2026-01-30 00:05:53.50	38.71	76.37	-49.3	-64.5	3.6	1.51e+00	0	37	104	0	60	60931
2026-01-30 00:05:54.51	36.81	76.15	-49.3	-64.6	3.6	1.51e+00	0	37	104	0	60	61594
2026-01-30 00:05:55.53	34.95	75.91	-49.3	-64.6	3.6	1.51e+00	0	37	104	0	60	61056
2026-01-30 00:05:56.54	33.17	75.66	-49.3	-64.6	3.6	1.51e+00	0	37	104	0	60	61379
2026-01-30 00:05:57.55	31.46	75.40	-49.3	-64.6	3.6	1.51e+00	0	37	104	0	60	61594
2026-01-30 00:05:58.56	29.81	75.12	-49.3	-64.6	3.6	1.51e+00	0	37	104	0	60	61331
2026-01-30 00:05:59.57	28.22	74.84	-49.3	-64.6	3.6	1.51e+00	0	37	104	0	60	61621
2026-01-30 00:06:00.58	26.70	74.55	-49.3	-64.6	3.6	1.51e+00	0	37	104	0	60	61367
2026-01-30 00:06:01.59	25.24	74.24	-49.3	-64.6	3.6	1.51e+00	0	37	104	0	60	61236
2026-01-30 00:06:02.60	23.83	73.93	-49.3	-64.6	3.6	1.51e+00	0	37	104	0	60	61535
2026-01-30 00:06:03.60	22.50	73.61	-49.3	-64.6	3.6	1.51e+00	0	37	104	0	60	61556
2026-01-30 00:06:04.61	21.21	73.29	-49.3	-64.6	3.6	1.51e+00	0	37	104	0	60	61310
2026-01-30 00:06:05.63	19.95	72.95	-49.3	-64.6	3.6	1.51e+00	0	37	104	0	60	61584
2026-01-30 00:06:06.64	18.76	72.61	-49.3	-64.6	3.5	1.51e+00	0	37	104	0	60	61646
2026-01-30 00:06:07.65	17.62	72.26	-49.3	-64.6	3.6	1.51e+00	0	37	104	0	60	61143
2026-01-30 00:06:08.65	16.54	71.91	-49.3	-64.6	3.6	1.51e+00	0	37	104	0	60	61442
2026-01-30 00:06:09.66	15.49	71.56	-49.3	-64.6	3.6	1.51e+00	0	37	104	0	60	61311
2026-01-30 00:06:10.67	14.48	71.19	-49.3	-64.6	3.6	1.51e+00	0	37	104	0	60	61407
2026-01-30 00:06:11.69	13.51	70.83	-49.3	-64.6	3.6	1.51e+00	0	37	104	0	60	61568
2026-01-30 00:06:12.69	12.59	70.46	-49.3	-64.5	3.6	1.51e+00	0	37	104	0	60	61024
2026-01-30 00:06:13.70	11.70	70.09	-49.3	-64.6	3.6	1.51e+00	0	37	104	0	60	61184
2026-01-30 00:06:14.71	10.84	69.71	-49.3	-64.7	3.6	1.51e+00	0	37	104	0	60	61971
2026-01-30 00:06:15.73	10.01	69.33	-49.3	-64.6	3.6	1.51e+00	0	37	104	0	60	61378
2026-01-30 00:06:16.74	9.22	68.95	-49.3	-64.6	3.6	1.51e+00	0	37	104	0	60	61378
2026-01-30 00:06:17.75	8.46	68.57	-49.3	-64.6	3.6	1.51e+00	0	37	104	0	60	61503
2026-01-30 00:06:18.76	7.73	68.19	-49.3	-64.6	3.6	1.51e+00	0	37	104	0	60	61386
2026-01-30 00:06:19.77	7.03	67.80	-49.3	-64.6	3.6	1.51e+00	0	37	104	0	60	61229
2026-01-30 00:06:20.78	6.35	67.41	-49.3	-64.6	3.6	1.51e+00	0	37	104	0	60	61379
2026-01-30 00:06:21.79	5.70	67.03	-49.3	-64.6	3.6	1.51e+00	0	37	104	0	60	61480
2026-01-30 00:06:22.80	5.07	66.64	-49.3	-64.5	3.5	1.51e+00	0	37	104	0	60	60990
2026-01-30 00:06:23.81	4.47	66.25	-49.3	-64.6	3.6	1.51e+00	0	37	104	0	60	61557
2026-01-30 00:06:24.82	3.88	65.86	-49.3	-64.6	3.6	1.51e+00	0	37	104	0	60	61305
2026-01-30 00:06:25.83	3.32	65.47	-49.3	-64.6	3.6	1.51e+00	0	37	104	0	60	61671
2026-01-30 00:06:26.84	2.77	65.08	-49.3	-64.6	3.6	1.51e+00	0	37	104	0	60	61244
2026-01-30 00:06:27.85	2.25	64.69	-49.3	-64.6	3.6	1.51e+00	0	37	104	0	60	61253
2026-01-30 00:06:28.86	1.74	64.30	-49.3	-64.6	3.6	1.51e+00	0	37	104	0	60	61442
2026-01-30 00:06:29.87	1.25	63.91	-49.3	-64.6	3.6	1.51e+00	0	37	104	0	60	61483
2026-01-30 00:06:30.88	0.78	63.52	-49.3	-64.6	3.6	1.51e+00	0	37	104	0	60	61210
2026-01-30 00:06:31.89	0.32	63.13	-49.3	-64.6	3.5	1.51e+00	0	37	104	0	60	61501
2026-01-30 00:06:32.90	359.88	62.75	-49.3	-64.5	3.6	1.51e+00	0	37	104	0	60	61000
2026-01-30 00:06:33.91	359.45	62.36	-49.3	-64.6	3.6	1.51e+00	0	37	104	0	60	61135
2026-01-30 00:06:34.92	359.03	61.97	-49.3	-64.6	3.6	1.51e+00	0	37	104	0	60	61221
2026-01-30 00:06:35.93	358.63	61.59	-49.3	-64.6	3.6	1.51e+00	0	37	104	0	60	61296
2026-01-30 00:06:36.94	358.24	61.20	-49.3	-64.6	3.6	1.51e+00	0	37	104	0	60	61574
2026-01-30 00:06:37.95	357.86	60.82	-49.3	-64.6	3.6	1.51e+00	0	37	104	0	60	61472
2026-01-30 00:06:38.96	357.49	60.44	-49.3	-64.6	3.6	1.51e+00	0	37	104	0	60	61425
2026-01-30 00:06:39.97	357.14	60.06	-49.3	-64.6	3.6	1.51e+00	0	37	104	0	60	61470
2026-01-30 00:06:40.98	356.79	59.68	-49.3	-64.6	3.6	1.51e+00	0	37	104	0	60	61602
2026-01-30 00:06:42.00	356.45	59.30	-49.3	-64.6	3.6	1.51e+00	0	37	104	0	60	61441
2026-01-30 00:06:43.00	356.13	58.93	-49.3	-64.6	3.6	1.51e+00	0	37	104	0	60	61619
2026-01-30 00:06:44.01	355.82	58.55	-49.3	-64.6	3.6	1.51e+00	0	37	104	0	60	61258
2026-01-30 00:06:45.02	355.51	58.18	-49.3	-64.6	3.6	1.51e+00	0	37	104	0	60	61324
2026-01-30 00:06:46.04	355.21	57.80	-49.3	-64.6	3.6	1.51e+00	0	37	104	0	60	61698
2026-01-30 00:06:47.05	354.92	57.43	-49.3	-64.6	3.6	1.51e+00	0	37	104	0	60	61285
2026-01-30 00:06:48.06	354.63	57.06	-49.3	-64.6	3.6	1.51e+00	0	37	104	0	60	61467
2026-01-30 00:06:49.06	354.36	56.70	-49.3	-64.6	3.6	1.51e+00	0	37	104	0	60	61425
2026-01-30 00:06:50.08	354.09	56.33	-49.3	-64.6	3.6	1.51e+00	0	37	104	0	60	61137
2026-01-30 00:06:51.09	353.83	55.97	-49.3	-64.6	3.6	1.51e+00	0	37	104	0	60	61485
2026-01-30 00:06:52.10	353.57	55.61	-49.3	-64.6	3.6	1.51e+00	0	37	104	0	60	61438
2026-01-30 00:06:53.11	353.33	55.25	-49.3	-64.6	3.6	1.51e+00	0	37	104	0	60	61311
2026-01-30 00:06:54.12	353.09	54.89	-49.3	-64.7	3.6	1.51e+00	0	37	104	0	60	61918
2026-01-30 00:06:55.13	352.85	54.53	-49.3	-64.6	3.6	1.51e+00	0	37	104	0	60	61471
2026-01-30 00:06:56.14	352.62	54.18	-49.3	-64.6	3.5	1.51e+00	0	37	104	0	60	61299
2026-01-30 00:06:57.15	352.40	53.83	-49.3	-64.6	3.6	1.51e+00	0	37	104	0	60	61251
2026-01-30 00:06:58.16	352.18	53.48	-49.3	-64.6	3.6	1.51e+00	0	37	104	0	60	61421
2026-01-30 00:06:59.17	351.97	53.13	-49.3	-64.6	3.6	1.51e+00	0	37	104	0	60	61457
2026-01-30 00:07:00.18	351.76	52.79	-49.3	-64.6	3.6	1.51e+00	0	37	104	0	60	61077
2026-01-30 00:07:01.19	351.56	52.44	-49.3	-64.6	3.6	1.51e+00	0	37	104	0	60	61560
2026-01-30 00:07:02.20	351.36	52.10	-49.3	-64.6	3.6	1.51e+00	0	37	104	0	60	61545
2026-01-30 00:07:03.21	351.16	51.76	-49.3	-64.6	3.6	1.51e+00	0	37	104	0	60	61725
2026-01-30 00:07:04.22	350.97	51.42	-49.3	-64.6	3.6	1.51e+00	0	37	104	0	60	61503
2026-01-30 00:07:05.23	350.79	51.09	-49.3	-64.6	3.6	1.51e+00	0	37	104	0	60	61617
2026-01-30 00:07:06.24	350.61	50.75	-49.3	-64.6	3.6	1.51e+00	0	37	104	0	60	61392
2026-01-30 00:07:07.25	350.43	50.42	-49.3	-64.6	3.6	1.51e+00	0	37	104	0	60	61535
2026-01-30 00:07:08.26	350.26	50.09	-49.3	-64.5	3.6	1.51e+00	0	37	104	0	60	60994
2026-01-30 00:07:09.27	350.09	49.77	-49.3	-64.5	3.6	1.51e+00	0	37	104	0	60	61002
2026-01-30 00:07:10.28	349.93	49.44	-49.3	-64.6	3.6	1.51e+00	0	37	104	0	60	61507
2026-01-30 00:07:11.29	349.76	49.12	-49.3	-64.7	3.6	1.51e+00	0	37	104	0	60	61761
2026-01-30 00:07:12.30	349.61	48.80	-49.3	-64.6	3.6	1.51e+00	0	37	104	0	60	61444
2026-01-30 00:07:13.32	349.45	48.47	-49.3	-64.6	3.6	1.51e+00	0	37	104	0	60	61478
2026-01-30 00:07:14.33	349.30	48.16	-49.3	-64.6	3.6	1.51e+00	0	37	104	0	60	61415
2026-01-30 00:07:15.34	349.15	47.84	-49.3	-64.6	3.6	1.51e+00	0	37	104	0	60	61550
2026-01-30 00:07:16.35	349.00	47.53	-49.3	-64.6	3.6	1.51e+00	0	37	104	0	60	61639
2026-01-30 00:07:17.35	348.86	47.22	-49.3	-64.6	3.6	1.51e+00	0	37	104	0	60	61419
2026-01-30 00:07:18.37	348.72	46.91	-49.3	-64.6	3.6	1.51e+00	0	37	104	0	60	61410
2026-01-30 00:07:19.38	348.58	46.60	-49.3	-64.6	3.6	1.51e+00	0	37	104	0	60	61637
2026-01-30 00:07:20.39	348.45	46.30	-49.3	-64.6	3.6	1.51e+00	0	37	104	0	60	61397
2026-01-30 00:07:21.40	348.32	46.00	-49.3	-64.7	3.6	1.51e+00	0	37	104	0	60	61760
2026-01-30 00:07:22.41	348.19	45.70	-49.3	-64.6	3.6	1.51e+00	0	37	104	0	60	61567
2026-01-30 00:07:23.42	348.06	45.40	-49.3	-64.6	3.6	1.51e+00	0	37	104	0	60	61504
2026-01-30 00:07:24.43	347.94	45.10	-49.3	-64.6	3.6	1.51e+00	0	37	104	0	60	61324
2026-01-30 00:07:25.44	347.82	44.81	-49.3	-64.6	3.6	1.51e+00	0	37	104	0	60	61468
2026-01-30 00:07:26.45	347.70	44.52	-49.3	-64.6	3.6	1.51e+00	0	37	104	0	60	61543
2026-01-30 00:07:27.46	347.58	44.23	-49.3	-64.6	3.6	1.51e+00	0	37	104	0	60	61520
2026-01-30 00:07:28.47	347.47	43.94	-49.3	-64.6	3.6	1.51e+00	0	37	104	0	60	61440
2026-01-30 00:07:29.48	347.35	43.65	-49.3	-64.6	3.6	1.51e+00	0	37	104	0	60	61340
2026-01-30 00:07:30.49	347.24	43.37	-49.3	-64.6	3.6	1.51e+00	0	37	104	0	60	61710
2026-01-30 00:07:31.50	347.13	43.09	-49.3	-64.6	3.6	1.51e+00	0	37	104	0	60	61420
2026-01-30 00:07:32.51	347.03	42.81	-49.3	-64.7	3.6	1.51e+00	0	37	104	0	60	61750
2026-01-30 00:07:33.52	346.92	42.53	-49.3	-64.6	3.6	1.51e+00	0	37	104	0	60	61365
2026-01-30 00:07:34.53	346.82	42.25	-49.3	-64.6	3.6	1.51e+00	0	37	104	0	60	61494
2026-01-30 00:07:35.54	346.72	41.98	-49.3	-64.6	3.6	1.51e+00	0	37	104	0	60	61430
2026-01-30 00:07:36.55	346.62	41.71	-49.3	-64.6	3.6	1.51e+00	0	37	104	0	60	61666
2026-01-30 00:07:37.56	346.52	41.44	-49.3	-64.6	3.6	1.51e+00	0	37	104	0	60	61284
2026-01-30 00:07:38.57	346.42	41.17	-49.3	-64.6	3.6	1.51e+00	0	37	104	0	60	61336
2026-01-30 00:07:39.58	346.33	40.90	-49.3	-64.6	3.6	1.51e+00	0	37	104	0	60	61539
2026-01-30 00:07:40.59	346.24	40.64	-49.3	-64.6	3.6	1.51e+00	0	37	104	0	60	61485
2026-01-30 00:07:41.60	346.14	40.37	-49.3	-64.6	3.6	1.51e+00	0	37	104	0	60	61473
2026-01-30 00:07:42.61	346.05	40.11	-49.3	-64.7	3.6	1.51e+00	0	37	104	0	60	61785
2026-01-30 00:07:43.62	345.97	39.85	-49.3	-64.6	3.6	1.51e+00	0	37	104	0	60	61559
2026-01-30 00:07:44.63	345.88	39.60	-49.3	-64.7	3.6	1.51e+00	0	37	104	0	60	61750
2026-01-30 00:07:45.64	345.79	39.34	-49.3	-64.7	3.6	1.51e+00	0	37	104	0	60	61876
2026-01-30 00:07:46.65	345.71	39.09	-49.3	-64.6	3.6	1.51e+00	0	37	104	0	60	61430
2026-01-30 00:07:47.66	345.63	38.84	-49.3	-64.6	3.6	1.51e+00	0	37	104	0	60	61619
2026-01-30 00:07:48.67	345.55	38.59	-49.3	-64.6	3.6	1.51e+00	0	37	104	0	60	61427
2026-01-30 00:07:49.68	345.47	38.34	-49.3	-64.6	3.5	1.51e+00	0	37	104	0	60	61541
2026-01-30 00:07:50.69	345.39	38.09	-49.3	-64.6	3.6	1.51e+00	0	37	104	0	60	61725
2026-01-30 00:07:51.70	345.31	37.85	-49.3	-64.7	3.6	1.51e+00	0	37	104	0	60	61741
2026-01-30 00:07:52.71	345.23	37.60	-49.3	-64.6	3.6	1.51e+00	0	37	104	0	60	61475
2026-01-30 00:07:53.72	345.16	37.36	-49.3	-64.6	3.6	1.51e+00	0	37	104	0	60	61341
2026-01-30 00:07:54.73	345.08	37.12	-49.3	-64.6	3.6	1.51e+00	0	37	104	0	60	61533
2026-01-30 00:07:55.74	345.01	36.88	-49.3	-64.6	3.6	1.51e+00	0	37	104	0	60	61216
2026-01-30 00:07:56.75	344.94	36.65	-49.3	-64.6	3.6	1.51e+00	0	37	104	0	60	61567
2026-01-30 00:07:57.76	344.87	36.41	-49.3	-64.6	3.6	1.51e+00	0	37	104	0	60	61555
2026-01-30 00:07:58.77	344.80	36.18	-49.3	-64.6	3.6	1.51e+00	0	37	104	0	60	61532
2026-01-30 00:07:59.78	344.73	35.95	-49.3	-64.6	3.6	1.51e+00	0	37	104	0	60	61535
2026-01-30 00:08:00.76	344.66	35.72	-49.3	-64.6	3.6	1.51e+00	0	37	104	0	60	61449
2026-01-30 00:08:01.77	344.60	35.50	-49.3	-64.6	3.6	1.51e+00	0	37	104	0	60	61136
2026-01-30 00:08:02.78	344.53	35.27	-49.3	-64.6	3.6	1.51e+00	0	37	104	0	60	61489
2026-01-30 00:08:03.78	344.47	35.05	-49.3	-64.6	3.6	1.51e+00	0	37	104	0	60	61621
2026-01-30 00:08:04.79	344.40	34.82	-49.3	-64.6	3.6	1.51e+00	0	37	104	0	60	61548
2026-01-30 00:08:05.80	344.34	34.60	-49.3	-64.6	3.6	1.51e+00	0	37	104	0	60	61563
2026-01-30 00:08:06.81	344.28	34.38	-49.3	-64.6	3.6	1.51e+00	0	37	104	0	60	61651
2026-01-30 00:08:07.83	344.22	34.16	-49.3	-64.6	3.6	1.51e+00	0	37	104	0	60	61132
2026-01-30 00:08:08.83	344.16	33.94	-49.3	-64.6	3.6	1.51e+00	0	37	104	0	60	61512
2026-01-30 00:08:09.84	344.10	33.73	-49.3	-64.6	3.6	1.51e+00	0	37	104	0	60	61520
2026-01-30 00:08:10.86	344.04	33.51	-49.3	-64.6	3.6	1.51e+00	0	37	104	0	60	61157
2026-01-30 00:08:11.87	343.98	33.30	-49.3	-64.6	3.6	1.51e+00	0	37	104	0	60	61609
2026-01-30 00:08:12.88	343.93	33.09	-49.3	-64.6	3.6	1.51e+00	0	37	104	0	60	61435
2026-01-30 00:08:13.89	343.87	32.88	-49.3	-64.6	3.6	1.51e+00	0	37	104	0	60	61558
2026-01-30 00:08:14.90	343.81	32.67	-49.3	-64.6	3.6	1.51e+00	0	37	104	0	60	61339
2026-01-30 00:08:15.91	343.76	32.46	-49.3	-64.6	3.6	1.51e+00	0	37	104	0	60	61457
2026-01-30 00:08:16.92	343.71	32.25	-49.3	-64.6	3.6	1.51e+00	0	37	104	0	60	61502
2026-01-30 00:08:17.93	343.65	32.05	-49.3	-64.6	3.6	1.51e+00	0	37	104	0	60	61383
2026-01-30 00:08:18.94	343.60	31.85	-49.3	-64.6	3.6	1.51e+00	0	37	104	0	60	61357
2026-01-30 00:08:19.95	343.55	31.64	-49.3	-64.6	3.6	1.51e+00	0	37	104	0	60	61335
2026-01-30 00:08:20.96	343.50	31.44	-49.3	-64.6	3.6	1.51e+00	0	37	104	0	60	61347
2026-01-30 00:08:21.97	343.45	31.24	-49.3	-64.6	3.6	1.51e+00	0	37	104	0	60	61423
2026-01-30 00:08:22.98	343.40	31.05	-49.3	-64.6	3.6	1.51e+00	0	37	104	0	60	61674
2026-01-30 00:08:23.99	343.35	30.85	-49.3	-64.6	3.6	1.51e+00	0	37	104	0	60	61607
2026-01-30 00:08:25.00	343.30	30.65	-49.3	-64.6	3.6	1.51e+00	0	37	104	0	60	61440
2026-01-30 00:08:26.01	343.25	30.46	-49.3	-64.7	3.6	1.51e+00	0	37	104	0	60	61750
2026-01-30 00:08:27.03	343.21	30.27	-49.3	-64.6	3.6	1.51e+00	0	37	104	0	60	61469
2026-01-30 00:08:28.04	343.16	30.07	-49.3	-64.6	3.6	1.51e+00	0	37	104	0	60	61719
2026-01-30 00:08:29.04	343.11	29.89	-49.3	-64.6	3.6	1.51e+00	0	37	104	0	60	61283
2026-01-30 00:08:30.05	343.07	29.70	-49.3	-64.6	3.6	1.51e+00	0	37	104	0	60	61316
2026-01-30 00:08:31.06	343.02	29.51	-49.3	-64.6	3.6	1.51e+00	0	37	104	0	60	61366
2026-01-30 00:08:32.07	342.98	29.32	-49.3	-64.6	3.6	1.51e+00	0	37	104	0	60	61286
2026-01-30 00:08:33.08	342.93	29.14	-49.3	-64.6	3.6	1.51e+00	0	37	104	0	60	61653
2026-01-30 00:08:34.09	342.89	28.95	-49.3	-64.6	3.6	1.51e+00	0	37	104	0	60	61490
2026-01-30 00:08:35.10	342.85	28.77	-49.3	-64.6	3.6	1.51e+00	0	37	104	0	60	61717
2026-01-30 00:08:36.11	342.81	28.59	-49.3	-64.6	3.6	1.51e+00	0	37	104	0	60	61542
2026-01-30 00:08:37.12	342.77	28.41	-49.3	-64.6	3.6	1.51e+00	0	37	104	0	60	61239
2026-01-30 00:08:38.13	342.72	28.23	-49.3	-64.6	3.6	1.51e+00	0	37	104	0	60	61421
2026-01-30 00:08:39.14	342.68	28.05	-49.3	-64.6	3.6	1.51e+00	0	37	104	0	60	61436
2026-01-30 00:08:40.15	342.64	27.87	-49.3	-64.6	3.6	1.51e+00	0	37	104	0	60	61420
2026-01-30 00:08:41.16	342.60	27.70	-49.3	-64.6	3.6	1.51e+00	0	37	104	0	60	61478
2026-01-30 00:08:42.17	342.57	27.52	-49.3	-64.6	3.6	1.51e+00	0	37	104	0	60	61363
2026-01-30 00:08:43.18	342.53	27.35	-49.3	-64.6	3.6	1.51e+00	0	37	104	0	60	61677
2026-01-30 00:08:44.19	342.49	27.18	-49.3	-64.6	3.6	1.51e+00	0	37	104	0	60	61536
2026-01-30 00:08:45.20	342.45	27.00	-49.3	-64.6	3.6	1.51e+00	0	37	104	0	60	61555
2026-01-30 00:08:46.21	342.41	26.83	-49.3	-64.6	3.6	1.51e+00	0	37	104	0	60	61284
2026-01-30 00:08:47.22	342.38	26.66	-49.3	-64.6	3.6	1.51e+00	0	37	104	0	60	61711
2026-01-30 00:08:48.23	342.34	26.50	-49.3	-64.6	3.6	1.51e+00	0	37	104	0	60	61512
2026-01-30 00:08:49.24	342.30	26.33	-49.3	-64.6	3.6	1.51e+00	0	37	104	0	60	61328
2026-01-30 00:08:50.25	342.27	26.16	-49.3	-64.7	3.6	1.51e+00	0	37	104	0	60	61844
2026-01-30 00:08:51.26	342.23	26.00	-49.3	-64.6	3.6	1.51e+00	0	37	104	0	60	61510
2026-01-30 00:08:52.27	342.20	25.83	-49.3	-64.6	3.6	1.51e+00	0	37	104	0	60	61545
2026-01-30 00:08:53.28	342.16	25.67	-49.3	-64.6	3.6	1.51e+00	0	37	104	0	60	61450
2026-01-30 00:08:54.29	342.13	25.51	-49.3	-64.6	3.6	1.51e+00	0	37	104	0	60	61599
2026-01-30 00:08:55.31	342.10	25.34	-49.3	-64.6	3.6	1.51e+00	0	37	104	0	60	61508
2026-01-30 00:08:56.32	342.06	25.18	-49.3	-64.6	3.6	1.51e+00	0	37	104	0	60	61515
2026-01-30 00:08:57.33	342.03	25.02	-49.3	-64.6	3.5	1.51e+00	0	37	104	0	60	61424
2026-01-30 00:08:58.34	342.00	24.86	-49.3	-64.6	3.6	1.51e+00	0	37	104	0	60	61524
2026-01-30 00:08:59.34	341.97	24.71	-49.3	-64.6	3.6	1.51e+00	0	37	104	0	60	61662
2026-01-30 00:09:00.35	341.93	24.55	-49.3	-64.6	3.6	1.51e+00	0	37	104	0	60	61598
2026-01-30 00:09:01.36	341.90	24.40	-49.3	-64.6	3.6	1.51e+00	0	37	104	0	60	61434
2026-01-30 00:09:02.38	341.87	24.24	-49.3	-64.6	3.6	1.51e+00	0	37	104	0	60	61311
2026-01-30 00:09:03.38	341.84	24.09	-49.3	-64.6	3.6	1.51e+00	0	37	104	0	60	61374
2026-01-30 00:09:04.39	341.81	23.93	-49.3	-64.6	3.6	1.51e+00	0	37	104	0	60	61481
2026-01-30 00:09:05.40	341.78	23.78	-49.3	-64.6	3.6	1.51e+00	0	37	104	0	60	61554
2026-01-30 00:09:06.41	341.75	23.63	-49.3	-64.6	3.6	1.51e+00	0	37	104	0	60	61271
2026-01-30 00:09:07.42	341.72	23.48	-49.3	-64.6	3.6	1.51e+00	0	37	104	0	60	61326
2026-01-30 00:09:08.43	341.69	23.33	-49.3	-64.6	3.6	1.51e+00	0	37	104	0	60	61267
2026-01-30 00:09:09.44	341.66	23.18	-49.3	-64.6	3.6	1.51e+00	0	37	104	0	60	61407
2026-01-30 00:09:10.45	341.64	23.03	-49.3	-64.6	3.6	1.51e+00	0	37	104	0	60	61239
2026-01-30 00:09:11.46	341.61	22.89	-49.3	-64.6	3.6	1.51e+00	0	37	104	0	60	61607
2026-01-30 00:09:12.47	341.58	22.74	-49.3	-64.6	3.6	1.51e+00	0	37	104	0	60	61128
2026-01-30 00:09:13.48	341.55	22.59	-49.3	-64.6	3.6	1.51e+00	0	37	104	0	60	61462
2026-01-30 00:09:14.49	341.53	22.45	-49.3	-64.6	3.6	1.51e+00	0	37	104	0	60	61356
2026-01-30 00:09:15.51	341.50	22.30	-49.3	-64.6	3.6	1.51e+00	0	37	104	0	60	61246
2026-01-30 00:09:16.52	341.47	22.16	-49.3	-64.6	3.6	1.51e+00	0	37	104	0	60	61489
2026-01-30 00:09:17.53	341.44	22.02	-49.3	-64.6	3.6	1.51e+00	0	37	104	0	60	61314
2026-01-30 00:09:18.54	341.42	21.88	-49.3	-64.6	3.6	1.51e+00	0	37	104	0	60	61366
2026-01-30 00:09:19.55	341.39	21.74	-49.3	-64.6	3.6	1.51e+00	0	37	104	0	60	61222
2026-01-30 00:09:20.56	341.37	21.60	-49.3	-64.6	3.6	1.51e+00	0	37	104	0	60	61551
2026-01-30 00:09:21.57	341.34	21.46	-49.3	-64.6	3.6	1.51e+00	0	37	104	0	60	61357
2026-01-30 00:09:22.58	341.32	21.32	-49.3	-64.6	3.6	1.51e+00	0	37	104	0	60	61417
2026-01-30 00:09:23.59	341.29	21.18	-49.3	-64.6	3.6	1.51e+00	0	37	104	0	60	61382
2026-01-30 00:09:24.60	341.27	21.05	-49.3	-64.6	3.6	1.51e+00	0	37	104	0	60	61461
2026-01-30 00:09:25.61	341.24	20.91	-49.3	-64.6	3.6	1.51e+00	0	37	104	0	60	61319
2026-01-30 00:09:26.62	341.22	20.77	-49.3	-64.6	3.6	1.51e+00	0	37	104	0	60	61513
2026-01-30 00:09:27.63	341.20	20.64	-49.3	-64.6	3.6	1.51e+00	0	37	104	0	60	61619
2026-01-30 00:09:28.64	341.17	20.51	-49.3	-64.6	3.6	1.51e+00	0	37	104	0	60	61678
2026-01-30 00:09:29.65	341.15	20.37	-49.3	-64.6	3.6	1.51e+00	0	37	104	0	60	61482
2026-01-30 00:09:30.66	341.13	20.24	-49.3	-64.6	3.6	1.51e+00	0	37	104	0	60	61407
2026-01-30 00:09:31.67	341.10	20.11	-49.3	-64.6	3.6	1.51e+00	0	37	104	0	60	61421
2026-01-30 00:09:32.68	341.08	19.98	-49.3	-64.6	3.6	1.51e+00	0	37	104	0	60	61189
2026-01-30 00:09:33.69	341.06	19.85	-49.3	-64.6	3.6	1.51e+00	0	37	104	0	60	61633
2026-01-30 00:09:34.70	341.04	19.72	-49.3	-64.6	3.6	1.51e+00	0	37	104	0	60	61494
2026-01-30 00:09:35.71	341.01	19.59	-49.3	-64.6	3.6	1.51e+00	0	37	104	0	60	61566
2026-01-30 00:09:36.72	340.99	19.46	-49.3	-64.6	3.6	1.51e+00	0	37	104	0	60	61665
2026-01-30 00:09:37.73	340.97	19.33	-49.3	-64.6	3.6	1.51e+00	0	37	104	0	60	61124
2026-01-30 00:09:38.74	340.95	19.20	-49.3	-64.6	3.6	1.51e+00	0	37	104	0	60	61563
2026-01-30 00:09:39.75	340.93	19.08	-49.3	-64.6	3.6	1.51e+00	0	37	104	0	60	61461
2026-01-30 00:09:40.76	340.91	18.95	-49.3	-64.6	3.6	1.51e+00	0	37	104	0	60	61421
2026-01-30 00:09:41.77	340.89	18.83	-49.3	-64.6	3.6	1.51e+00	0	37	104	0	60	61640
2026-01-30 00:09:42.78	340.87	18.70	-49.3	-64.6	3.6	1.51e+00	0	37	104	0	60	61380
2026-01-30 00:09:43.79	340.85	18.58	-49.3	-64.6	3.6	1.51e+00	0	37	104	0	60	61576
2026-01-30 00:09:44.80	340.83	18.45	-49.3	-64.6	3.6	1.51e+00	0	37	104	0	60	61363
2026-01-30 00:09:45.81	340.81	18.33	-49.3	-64.7	3.6	1.51e+00	0	37	104	0	60	61812
2026-01-30 00:09:46.82	340.79	18.21	-49.3	-64.6	3.6	1.51e+00	0	37	104	0	60	61303
2026-01-30 00:09:47.83	340.77	18.09	-49.3	-64.6	3.5	1.51e+00	0	37	104	0	60	61494
2026-01-30 00:09:48.84	340.75	17.97	-49.3	-64.6	3.6	1.51e+00	0	37	104	0	60	61492
2026-01-30 00:09:49.85	340.73	17.85	-49.3	-64.6	3.6	1.51e+00	0	37	104	0	60	61727
2026-01-30 00:09:50.86	340.71	17.73	-49.3	-64.6	3.6	1.51e+00	0	37	104	0	60	61299
2026-01-30 00:09:51.87	340.69	17.61	-49.3	-64.6	3.6	1.51e+00	0	37	104	0	60	61556
2026-01-30 00:09:52.88	340.67	17.49	-49.3	-64.7	3.6	1.51e+00	0	37	104	0	60	61898
2026-01-30 00:09:53.89	340.65	17.37	-49.3	-64.6	3.6	1.51e+00	0	37	104	0	60	61583
2026-01-30 00:09:54.90	340.64	17.25	-49.3	-64.6	3.6	1.51e+00	0	37	104	0	60	61424
2026-01-30 00:09:55.91	340.62	17.14	-49.3	-64.6	3.6	1.51e+00	0	37	104	0	60	61565
2026-01-30 00:09:56.92	340.60	17.02	-49.3	-64.6	3.6	1.51e+00	0	37	104	0	60	61394
2026-01-30 00:09:57.93	340.58	16.90	-49.3	-64.6	3.6	1.51e+00	0	37	104	0	60	61525
2026-01-30 00:09:58.94	340.57	16.79	-49.3	-64.6	3.6	1.51e+00	0	37	104	0	60	61340
2026-01-30 00:09:59.95	340.55	16.67	-49.3	-64.6	3.6	1.51e+00	0	37	104	0	60	61611
2026-01-30 00:10:00.96	340.53	16.56	-49.3	-64.7	3.6	1.51e+00	0	37	104	0	60	61868
2026-01-30 00:10:01.97	340.51	16.45	-49.3	-64.6	3.6	1.51e+00	0	37	104	0	60	61083
2026-01-30 00:10:02.98	340.50	16.33	-49.3	-64.6	3.6	1.51e+00	0	37	104	0	60	61341
2026-01-30 00:10:03.99	340.48	16.22	-49.3	-64.6	3.6	1.51e+00	0	37	104	0	60	61403
2026-01-30 00:10:05.00	340.46	16.11	-49.3	-64.6	3.6	1.51e+00	0	37	104	0	60	61363
2026-01-30 00:10:06.01	340.45	16.00	-49.3	-64.6	3.6	1.51e+00	0	37	104	0	60	61562
2026-01-30 00:10:07.02	340.43	15.88	-49.3	-64.7	3.6	1.51e+00	0	37	104	0	60	61772
2026-01-30 00:10:08.03	340.41	15.77	-49.3	-64.6	3.6	1.51e+00	0	37	104	0	60	61661
2026-01-30 00:10:09.04	340.40	15.66	-49.3	-64.6	3.6	1.51e+00	0	37	104	0	60	61616
2026-01-30 00:10:10.05	340.38	15.55	-49.3	-64.6	3.6	1.51e+00	0	37	104	0	60	61259
2026-01-30 00:10:11.06	340.37	15.45	-49.3	-64.7	3.6	1.51e+00	0	37	104	0	60	61765
2026-01-30 00:10:12.07	340.35	15.34	-49.3	-64.6	3.6	1.51e+00	0	37	104	0	60	61217
2026-01-30 00:10:13.08	340.34	15.23	-49.3	-64.6	3.6	1.51e+00	0	37	104	0	60	61358
2026-01-30 00:10:14.09	340.32	15.12	-49.3	-64.6	3.6	1.51e+00	0	37	104	0	60	61477
2026-01-30 00:10:15.10	340.31	15.01	-49.3	-64.6	3.6	1.51e+00	0	37	104	0	60	61383
2026-01-30 00:10:16.11	340.29	14.91	-49.3	-64.6	3.6	1.51e+00	0	37	104	0	60	61516
2026-01-30 00:10:17.12	340.28	14.80	-49.3	-64.6	3.6	1.51e+00	0	37	104	0	60	61674
2026-01-30 00:10:18.13	340.26	14.69	-49.3	-64.6	3.6	1.51e+00	0	37	104	0	60	61447
2026-01-30 00:10:19.14	340.25	14.59	-49.3	-64.6	3.6	1.51e+00	0	37	104	0	60	61390
2026-01-30 00:10:20.15	340.23	14.48	-49.3	-64.6	3.6	1.51e+00	0	37	104	0	60	61411
2026-01-30 00:10:21.16	340.22	14.38	-49.3	-64.6	3.6	1.51e+00	0	37	104	0	60	61542
2026-01-30 00:10:22.17	340.20	14.28	-49.3	-64.6	3.6	1.51e+00	0	37	104	0	60	61439
2026-01-30 00:10:23.18	340.19	14.17	-49.3	-64.6	3.6	1.51e+00	0	37	104	0	60	61293
