passes_logs/2026/01/29/R4.6S_Anadyr/R4.6S_Anadyr__20260129_190218_NOAA_20_JPSS-1_rec.log

#Pass ID: 20260129_190218_NOAA 20 (JPSS-1)
#Satellite: NOAA 20 (JPSS-1)
#Configuration: NOAA 20
#almurnet v.1.7.20251203
#Start time: 2026-01-29 19:02:20

#Version: 2.2.20231116
#Station: R4.6S_Anadyr
#Location: 177.4865 lon 64.73178 lat
#TLE: 1 43013U 17073A   26028.86313978  .00000144  00000+0  89200-4 0  9993
#TLE: 2 43013  98.7648 329.6571 0000891  20.0014 340.1197 14.19541559424709

#Time	Az	El	Level	Level2	SNR	BER	BlckErr	Temp	State	Recorded	gain1	gain2
2026-01-29 19:02:20.85	47.60	0.10	-48.9	-63.9	3.5	1.51e+00	0	29	0	0	60	56319
2026-01-29 19:02:21.85	47.53	0.15	-49.0	-64.2	3.6	1.51e+00	0	30	104	0	60	58732
2026-01-29 19:02:22.86	47.45	0.20	-49.0	-64.2	3.6	1.51e+00	0	30	104	0	60	58451
2026-01-29 19:02:23.87	47.37	0.25	-49.0	-64.2	3.6	1.51e+00	0	30	104	0	60	58456
2026-01-29 19:02:24.88	47.30	0.30	-49.0	-64.2	3.6	1.51e+00	0	30	104	0	60	58358
2026-01-29 19:02:25.89	47.22	0.35	-49.0	-64.2	3.6	1.51e+00	0	30	104	0	60	58580
2026-01-29 19:02:26.90	47.14	0.39	-49.0	-64.2	3.6	1.51e+00	0	30	104	0	60	58785
2026-01-29 19:02:27.91	47.07	0.44	-49.0	-64.3	3.6	1.51e+00	0	30	104	0	60	58996
2026-01-29 19:02:28.92	46.99	0.49	-49.1	-64.2	3.6	1.51e+00	0	30	104	0	60	58933
2026-01-29 19:02:29.93	46.91	0.54	-49.1	-64.3	3.6	1.51e+00	0	30	104	0	60	59127
2026-01-29 19:02:30.94	46.83	0.59	-49.1	-64.2	3.6	1.51e+00	0	30	104	0	60	58825
2026-01-29 19:02:31.95	46.76	0.64	-49.0	-64.2	3.6	1.51e+00	0	30	104	0	60	58904
2026-01-29 19:02:32.96	46.68	0.69	-49.0	-64.2	3.6	1.51e+00	0	30	104	0	60	58826
2026-01-29 19:02:33.97	46.60	0.74	-48.9	-64.2	3.6	1.51e+00	0	30	104	0	60	58626
2026-01-29 19:02:34.98	46.52	0.79	-49.0	-64.2	3.6	1.51e+00	0	31	104	0	60	58694
2026-01-29 19:02:35.99	46.44	0.84	-48.9	-64.1	3.6	1.51e+00	0	31	104	0	60	58272
2026-01-29 19:02:37.00	46.36	0.89	-48.9	-64.1	3.6	1.51e+00	0	31	104	0	60	58155
2026-01-29 19:02:38.01	46.28	0.94	-48.9	-64.0	3.6	1.51e+00	0	31	104	0	60	57553
2026-01-29 19:02:39.02	46.20	0.99	-48.8	-64.0	3.6	1.51e+00	0	31	104	0	60	57406
2026-01-29 19:02:40.03	46.12	1.04	-48.8	-64.0	3.6	1.51e+00	0	31	104	0	60	57145
2026-01-29 19:02:41.04	46.04	1.09	-48.7	-63.9	3.6	1.51e+00	0	31	104	0	60	56665
2026-01-29 19:02:42.05	45.96	1.14	-48.6	-63.8	3.6	1.51e+00	0	31	104	0	60	56217
2026-01-29 19:02:43.06	45.88	1.19	-48.5	-63.7	3.6	1.51e+00	0	31	104	0	60	55120
2026-01-29 19:02:44.07	45.80	1.24	-48.3	-63.5	3.6	1.51e+00	0	31	104	0	60	54277
2026-01-29 19:02:45.08	45.72	1.29	-48.0	-63.1	3.6	1.51e+00	0	31	104	0	60	51911
2026-01-29 19:02:46.09	45.63	1.34	-47.4	-62.6	3.6	1.51e+00	0	31	104	0	60	48513
2026-01-29 19:02:47.10	45.55	1.39	-47.4	-62.6	3.6	1.51e+00	0	31	104	0	60	48594
2026-01-29 19:02:48.11	45.47	1.44	-47.4	-62.5	3.6	1.51e+00	0	31	104	0	60	48367
2026-01-29 19:02:49.12	45.39	1.49	-47.4	-62.6	3.6	1.51e+00	0	31	104	0	60	48556
2026-01-29 19:02:50.13	45.30	1.54	-47.4	-62.5	3.6	1.51e+00	0	31	104	0	60	48479
2026-01-29 19:02:51.14	45.22	1.59	-47.4	-62.6	3.6	1.51e+00	0	31	104	0	60	48673
2026-01-29 19:02:52.15	45.13	1.64	-47.4	-62.5	3.6	1.51e+00	0	31	104	0	60	48397
2026-01-29 19:02:53.16	45.05	1.69	-47.4	-62.5	3.6	1.51e+00	0	31	104	0	60	48467
2026-01-29 19:02:54.17	44.97	1.74	-47.4	-62.5	3.6	1.51e+00	0	31	104	0	60	48354
2026-01-29 19:02:55.18	44.88	1.79	-47.4	-62.5	3.6	1.51e+00	0	31	104	0	60	48137
2026-01-29 19:02:56.19	44.80	1.84	-47.4	-62.5	3.6	1.51e+00	0	31	104	0	60	48292
2026-01-29 19:02:57.20	44.71	1.89	-47.4	-62.5	3.6	1.51e+00	0	31	104	0	60	48414
2026-01-29 19:02:58.21	44.63	1.94	-47.4	-62.6	3.6	1.51e+00	0	31	104	0	60	48509
2026-01-29 19:02:59.22	44.54	1.99	-47.4	-62.5	3.6	1.51e+00	0	31	104	0	60	47955
2026-01-29 19:03:00.23	44.45	2.04	-47.4	-62.5	3.6	1.51e+00	0	31	104	0	60	48244
2026-01-29 19:03:01.24	44.37	2.09	-47.4	-62.5	3.6	1.51e+00	0	31	104	0	60	48403
2026-01-29 19:03:02.25	44.28	2.14	-47.4	-62.5	3.6	1.51e+00	0	31	104	0	60	47930
2026-01-29 19:03:03.26	44.19	2.19	-47.4	-62.5	3.6	1.51e+00	0	31	104	0	60	47980
2026-01-29 19:03:04.28	44.11	2.24	-47.4	-62.4	3.6	1.51e+00	0	31	104	0	60	47811
2026-01-29 19:03:05.28	44.02	2.29	-47.4	-62.4	3.6	1.51e+00	0	31	104	0	60	47799
2026-01-29 19:03:06.29	43.93	2.34	-47.4	-62.5	3.6	1.51e+00	0	31	104	0	60	47979
2026-01-29 19:03:07.31	43.84	2.40	-47.4	-62.5	3.6	1.51e+00	0	31	104	0	60	48062
2026-01-29 19:03:08.32	43.75	2.45	-47.4	-62.5	3.6	1.51e+00	0	31	104	0	60	48219
2026-01-29 19:03:09.33	43.66	2.50	-47.4	-62.4	3.6	1.51e+00	0	31	104	0	60	47848
2026-01-29 19:03:10.34	43.57	2.55	-47.4	-62.5	3.6	1.51e+00	0	31	104	0	60	48086
2026-01-29 19:03:11.35	43.48	2.60	-47.4	-62.5	3.6	1.51e+00	0	31	104	0	60	48390
2026-01-29 19:03:12.36	43.39	2.65	-47.4	-62.5	3.6	1.51e+00	0	31	104	0	60	48081
2026-01-29 19:03:13.37	43.30	2.70	-47.3	-62.2	3.6	1.51e+00	0	31	104	0	60	46469
2026-01-29 19:03:14.38	43.21	2.75	-47.3	-62.0	3.6	1.51e+00	0	31	104	0	60	45300
2026-01-29 19:03:15.39	43.12	2.80	-47.3	-62.1	3.6	1.51e+00	0	31	104	0	60	46211
2026-01-29 19:03:16.40	43.03	2.85	-47.4	-62.5	3.6	1.51e+00	0	31	104	0	60	48078
2026-01-29 19:03:17.41	42.94	2.90	-47.3	-60.5	3.6	1.51e+00	0	31	104	0	60	38108
2026-01-29 19:03:18.42	42.85	2.95	-46.9	-56.0	5.8	1.50e+00	48	31	104	0	60	22776
2026-01-29 19:03:19.43	42.76	3.00	-46.2	-51.9	9.3	6.40e-02	92	31	0	0	60	14173
2026-01-29 19:03:20.44	42.66	3.06	-45.9	-51.1	9.6	2.08e-03	49	31	0	2097152	60	13032
2026-01-29 19:03:21.45	42.57	3.11	-46.6	-53.2	7.5	3.29e-01	91	31	0	4194304	60	16500
2026-01-29 19:03:22.46	42.48	3.16	-45.4	-49.1	12.7	3.30e-01	0	31	0	6291456	60	10258
2026-01-29 19:03:23.47	42.38	3.21	-47.3	-62.5	3.6	1.51e+00	0	31	104	6291456	60	48098
2026-01-29 19:03:24.48	42.29	3.26	-47.2	-59.2	4.5	1.51e+00	0	31	104	6291456	60	33095
2026-01-29 19:03:25.49	42.20	3.31	-45.4	-50.0	11.1	9.98e-04	30	31	104	6291456	60	11478
2026-01-29 19:03:26.50	42.10	3.36	-45.3	-49.6	11.8	1.39e-03	92	31	0	7340032	60	10885
2026-01-29 19:03:27.51	42.01	3.41	-45.7	-50.7	10.7	7.62e-04	5	31	0	9437184	60	12435
2026-01-29 19:03:28.52	41.91	3.46	-45.2	-49.3	12.1	1.58e-03	92	31	0	11534336	60	10532
2026-01-29 19:03:29.53	41.82	3.51	-44.9	-48.6	12.8	1.90e-04	0	31	0	13631488	60	9693
2026-01-29 19:03:30.54	41.72	3.57	-44.1	-47.1	14.5	8.23e-05	92	31	0	14680064	60	8177
2026-01-29 19:03:31.55	41.62	3.62	-44.0	-46.9	14.3	1.50e-06	5	31	0	16777216	60	7995
2026-01-29 19:03:32.56	41.53	3.67	-43.8	-46.6	15.2	0.00e+00	60	31	0	18874368	60	7710
2026-01-29 19:03:33.57	41.43	3.72	-43.4	-45.8	15.9	0.00e+00	92	31	0	20971520	60	7071
2026-01-29 19:03:34.58	41.33	3.77	-43.2	-45.4	16.4	0.00e+00	0	31	0	23068672	60	6767
2026-01-29 19:03:35.59	41.23	3.82	-43.6	-46.1	15.6	0.00e+00	92	31	0	24117248	60	7295
2026-01-29 19:03:36.60	41.14	3.87	-43.9	-46.7	15.1	0.00e+00	0	31	0	26214400	60	7792
2026-01-29 19:03:37.61	41.04	3.92	-43.0	-45.3	16.7	0.00e+00	92	31	0	28311552	60	6622
2026-01-29 19:03:38.62	40.94	3.98	-43.0	-45.1	16.6	0.00e+00	49	31	0	30408704	58	7333
2026-01-29 19:03:39.63	40.84	4.03	-42.9	-45.1	16.8	0.00e+00	38	31	0	32505856	58	7267
2026-01-29 19:03:40.64	40.74	4.08	-42.6	-44.7	17.1	0.00e+00	50	31	0	33554432	58	6938
2026-01-29 19:03:41.65	40.64	4.13	-42.4	-44.3	17.4	0.00e+00	36	31	0	35651584	58	6672
2026-01-29 19:03:42.66	40.54	4.18	-42.4	-44.3	17.5	0.00e+00	92	31	0	37748736	58	6631
2026-01-29 19:03:43.67	40.44	4.23	-42.6	-44.6	17.3	0.00e+00	4	31	0	39845888	58	6890
2026-01-29 19:03:44.68	40.34	4.28	-42.5	-44.5	17.4	0.00e+00	92	31	0	41943040	58	6793
2026-01-29 19:03:45.69	40.24	4.34	-42.7	-44.7	17.3	0.00e+00	0	31	0	42991616	58	6998
2026-01-29 19:03:46.70	40.14	4.39	-42.5	-44.4	17.7	0.00e+00	92	31	0	45088768	58	6735
2026-01-29 19:03:47.71	40.03	4.44	-42.3	-44.2	17.6	0.00e+00	2	31	0	47185920	58	6579
2026-01-29 19:03:48.72	39.93	4.49	-42.0	-43.7	18.2	0.00e+00	7	31	0	49283072	58	6242
2026-01-29 19:03:49.73	39.83	4.54	-42.5	-44.4	17.7	0.00e+00	92	31	0	51380224	58	6737
2026-01-29 19:03:50.74	39.73	4.59	-42.4	-44.3	17.8	0.00e+00	0	31	0	52428800	58	6618
2026-01-29 19:03:51.75	39.62	4.64	-42.2	-44.0	17.9	0.00e+00	92	31	0	54525952	58	6442
2026-01-29 19:03:52.76	39.52	4.69	-42.1	-43.9	18.2	0.00e+00	51	31	0	56623104	58	6349
2026-01-29 19:03:53.77	39.41	4.75	-42.0	-43.8	18.3	0.00e+00	92	31	0	58720256	58	6261
2026-01-29 19:03:54.78	39.31	4.80	-42.0	-43.7	18.5	0.00e+00	0	31	0	60817408	58	6202
2026-01-29 19:03:55.79	39.20	4.85	-42.1	-43.8	18.2	0.00e+00	0	31	0	61865984	58	6300
2026-01-29 19:03:56.80	39.10	4.90	-42.0	-43.7	18.3	0.00e+00	92	31	0	63963136	58	6232
2026-01-29 19:03:57.81	38.99	4.95	-41.8	-43.5	18.5	0.00e+00	50	31	0	66060288	58	6063
2026-01-29 19:03:58.82	38.89	5.00	-41.8	-43.5	18.6	0.00e+00	92	31	0	68157440	58	6054
2026-01-29 19:03:59.83	38.78	5.06	-41.8	-43.4	18.5	0.00e+00	51	31	0	70254592	58	6022
2026-01-29 19:04:00.84	38.67	5.11	-41.7	-43.3	18.8	0.00e+00	92	31	0	71303168	56	6682
2026-01-29 19:04:01.85	38.57	5.16	-41.4	-43.0	19.1	0.00e+00	49	31	0	73400320	56	6391
2026-01-29 19:04:02.86	38.46	5.21	-41.7	-43.3	18.7	0.00e+00	66	31	0	75497472	56	6682
2026-01-29 19:04:03.87	38.35	5.26	-41.6	-43.1	18.9	0.00e+00	6	31	0	77594624	56	6528
2026-01-29 19:04:04.88	38.24	5.31	-41.5	-43.1	19.0	0.00e+00	31	31	0	79691776	56	6487
2026-01-29 19:04:05.89	38.13	5.36	-41.7	-43.3	18.9	0.00e+00	90	31	0	81788928	56	6662
2026-01-29 19:04:06.90	38.02	5.42	-41.7	-43.3	18.5	0.00e+00	30	31	0	82837504	56	6637
2026-01-29 19:04:07.91	37.91	5.47	-41.7	-43.3	19.0	0.00e+00	92	31	0	84934656	56	6646
2026-01-29 19:04:08.92	37.80	5.52	-41.5	-43.1	18.9	0.00e+00	0	31	0	87031808	56	6495
2026-01-29 19:04:09.92	37.69	5.57	-41.5	-43.1	18.9	0.00e+00	82	31	0	89128960	56	6469
2026-01-29 19:04:10.93	37.58	5.62	-41.5	-43.1	19.1	0.00e+00	12	31	0	91226112	56	6506
2026-01-29 19:04:11.95	37.47	5.67	-41.5	-43.0	19.1	0.00e+00	0	31	0	92274688	56	6427
2026-01-29 19:04:12.96	37.36	5.73	-41.3	-42.8	19.4	0.00e+00	92	31	0	94371840	56	6275
2026-01-29 19:04:13.97	37.25	5.78	-41.4	-43.0	19.2	0.00e+00	0	31	0	96468992	56	6403
2026-01-29 19:04:14.97	37.14	5.83	-41.6	-43.1	19.0	0.00e+00	90	31	0	98566144	56	6531
2026-01-29 19:04:15.98	37.02	5.88	-41.4	-42.9	19.3	0.00e+00	51	31	0	100663296	56	6372
2026-01-29 19:04:16.99	36.91	5.93	-41.4	-42.9	19.2	0.00e+00	91	31	0	101711872	56	6337
2026-01-29 19:04:18.00	36.80	5.98	-41.3	-42.8	19.4	0.00e+00	0	31	0	103809024	56	6246
2026-01-29 19:04:19.01	36.68	6.03	-41.4	-42.9	19.4	0.00e+00	5	31	0	105906176	56	6367
2026-01-29 19:04:20.02	36.57	6.09	-41.4	-42.8	19.4	0.00e+00	92	31	0	108003328	56	6310
2026-01-29 19:04:21.03	36.45	6.14	-41.3	-42.7	19.5	0.00e+00	51	31	0	110100480	56	6240
2026-01-29 19:04:22.04	36.34	6.19	-41.0	-42.5	19.8	0.00e+00	92	31	0	111149056	56	6042
2026-01-29 19:04:23.05	36.22	6.24	-41.0	-42.4	19.8	0.00e+00	30	31	0	113246208	56	6004
2026-01-29 19:04:24.06	36.10	6.29	-41.0	-42.4	19.8	0.00e+00	92	31	0	115343360	56	5979
2026-01-29 19:04:25.07	35.99	6.34	-41.0	-42.5	19.9	0.00e+00	0	31	0	117440512	56	6039
2026-01-29 19:04:26.08	35.87	6.39	-41.2	-42.6	19.7	0.00e+00	32	31	0	119537664	56	6133
2026-01-29 19:04:27.09	35.75	6.45	-41.0	-42.4	19.8	0.00e+00	12	31	0	120586240	56	6014
2026-01-29 19:04:28.10	35.64	6.50	-41.0	-42.4	19.9	0.00e+00	0	31	0	122683392	56	6009
2026-01-29 19:04:29.11	35.52	6.55	-40.9	-42.3	20.0	0.00e+00	89	31	0	124780544	56	5919
2026-01-29 19:04:30.12	35.40	6.60	-41.1	-42.5	19.8	0.00e+00	0	31	0	126877696	56	6103
2026-01-29 19:04:31.13	35.28	6.65	-41.2	-42.7	19.6	0.00e+00	91	31	0	128974848	56	6215
2026-01-29 19:04:32.15	35.16	6.70	-41.1	-42.5	19.7	0.00e+00	0	31	0	130023424	56	6069
2026-01-29 19:04:33.16	35.04	6.76	-41.1	-42.5	19.7	0.00e+00	92	31	0	132120576	56	6086
2026-01-29 19:04:34.16	34.92	6.81	-41.1	-42.5	19.8	0.00e+00	0	31	0	134217728	56	6071
2026-01-29 19:04:35.17	34.80	6.86	-41.0	-42.4	19.8	0.00e+00	0	31	0	136314880	56	6032
2026-01-29 19:04:36.18	34.68	6.91	-41.1	-42.5	19.8	0.00e+00	92	31	0	138412032	56	6088
2026-01-29 19:04:37.19	34.55	6.96	-41.1	-42.5	19.9	0.00e+00	0	31	0	139460608	56	6053
2026-01-29 19:04:38.20	34.43	7.01	-41.1	-42.5	19.8	0.00e+00	92	31	0	141557760	56	6072
2026-01-29 19:04:39.21	34.31	7.06	-41.1	-42.5	19.9	0.00e+00	53	31	0	143654912	56	6088
2026-01-29 19:04:40.22	34.19	7.11	-40.9	-42.3	20.0	0.00e+00	92	31	0	145752064	56	5902
2026-01-29 19:04:41.23	34.06	7.16	-41.1	-42.5	19.9	0.00e+00	33	31	0	147849216	56	6047
2026-01-29 19:04:42.24	33.94	7.22	-41.2	-42.6	19.8	0.00e+00	0	31	0	149946368	56	6126
2026-01-29 19:04:43.25	33.81	7.27	-40.9	-42.3	20.0	0.00e+00	92	31	0	150994944	56	5935
2026-01-29 19:04:44.26	33.69	7.32	-40.9	-42.2	20.1	0.00e+00	30	31	0	153092096	56	5869
2026-01-29 19:04:45.27	33.56	7.37	-40.9	-42.3	20.1	0.00e+00	92	31	0	155189248	56	5911
2026-01-29 19:04:46.28	33.44	7.42	-40.8	-42.2	20.2	0.00e+00	0	31	0	157286400	56	5848
2026-01-29 19:04:47.29	33.31	7.47	-40.9	-42.3	20.1	0.00e+00	92	31	0	159383552	56	5928
2026-01-29 19:04:48.30	33.18	7.52	-40.9	-42.2	20.1	0.00e+00	0	31	0	160432128	56	5893
2026-01-29 19:04:49.31	33.06	7.57	-40.9	-42.2	20.1	0.00e+00	72	31	0	162529280	56	5878
2026-01-29 19:04:50.32	32.93	7.62	-40.8	-42.1	20.3	0.00e+00	92	31	0	164626432	56	5777
2026-01-29 19:04:51.32	32.80	7.67	-40.6	-41.9	20.4	0.00e+00	0	31	0	166723584	54	6359
2026-01-29 19:04:52.33	32.67	7.73	-40.7	-42.0	20.4	0.00e+00	91	31	0	168820736	54	6404
2026-01-29 19:04:53.34	32.54	7.78	-40.7	-42.0	20.2	0.00e+00	2	31	0	169869312	54	6462
2026-01-29 19:04:54.35	32.42	7.83	-40.7	-42.0	20.3	0.00e+00	91	31	0	171966464	54	6411
2026-01-29 19:04:55.36	32.29	7.88	-40.7	-42.0	20.3	0.00e+00	51	31	0	174063616	54	6449
2026-01-29 19:04:56.37	32.15	7.93	-40.8	-42.1	20.1	0.00e+00	51	31	0	176160768	54	6496
2026-01-29 19:04:57.38	32.02	7.98	-40.7	-42.0	20.3	0.00e+00	51	31	0	178257920	54	6437
2026-01-29 19:04:58.39	31.89	8.03	-40.6	-41.9	20.4	0.00e+00	0	31	0	179306496	54	6383
2026-01-29 19:04:59.40	31.76	8.08	-40.6	-41.9	20.4	0.00e+00	92	31	0	181403648	54	6345
2026-01-29 19:05:00.41	31.63	8.13	-40.6	-41.8	20.4	0.00e+00	30	32	0	183500800	54	6311
2026-01-29 19:05:01.42	31.50	8.18	-40.7	-42.0	20.3	0.00e+00	92	31	0	185597952	54	6440
2026-01-29 19:05:02.43	31.36	8.23	-40.5	-41.8	20.6	0.00e+00	51	31	0	187695104	54	6260
2026-01-29 19:05:03.44	31.23	8.28	-40.6	-41.9	20.4	0.00e+00	32	31	0	188743680	54	6343
2026-01-29 19:05:04.45	31.09	8.33	-40.6	-42.0	20.5	0.00e+00	42	31	0	190840832	54	6392
2026-01-29 19:05:05.46	30.96	8.38	-40.5	-41.8	20.7	0.00e+00	32	31	0	192937984	54	6253
2026-01-29 19:05:06.47	30.82	8.43	-40.4	-41.6	20.7	0.00e+00	90	31	0	195035136	54	6148
2026-01-29 19:05:07.48	30.69	8.48	-40.4	-41.6	20.8	0.00e+00	0	31	0	197132288	54	6163
2026-01-29 19:05:08.49	30.55	8.53	-40.3	-41.5	20.8	0.00e+00	91	31	0	198180864	54	6086
2026-01-29 19:05:09.50	30.42	8.58	-40.3	-41.5	20.8	0.00e+00	29	31	0	200278016	54	6065
2026-01-29 19:05:10.51	30.28	8.63	-40.2	-41.5	20.8	0.00e+00	6	31	0	202375168	54	6044
2026-01-29 19:05:11.52	30.14	8.68	-40.3	-41.5	20.8	0.00e+00	0	31	0	204472320	54	6057
2026-01-29 19:05:12.53	30.00	8.73	-40.4	-41.6	20.7	0.00e+00	6	31	0	206569472	54	6169
2026-01-29 19:05:13.54	29.86	8.78	-40.4	-41.6	20.7	0.00e+00	90	31	0	207618048	54	6162
2026-01-29 19:05:14.55	29.73	8.83	-40.4	-41.6	20.8	0.00e+00	7	31	0	209715200	54	6137
2026-01-29 19:05:15.56	29.59	8.88	-40.3	-41.5	20.9	0.00e+00	90	31	0	211812352	54	6077
2026-01-29 19:05:16.57	29.45	8.93	-40.4	-41.6	20.7	0.00e+00	50	31	0	213909504	54	6139
2026-01-29 19:05:17.58	29.31	8.98	-40.3	-41.5	20.7	0.00e+00	52	31	0	216006656	54	6074
2026-01-29 19:05:18.59	29.16	9.03	-40.0	-41.2	21.2	0.00e+00	51	31	0	218103808	54	5854
2026-01-29 19:05:19.60	29.02	9.08	-39.9	-41.1	21.3	0.00e+00	0	32	0	219152384	54	5770
2026-01-29 19:05:20.61	28.88	9.13	-40.3	-41.6	20.8	0.00e+00	35	31	0	221249536	54	6113
2026-01-29 19:05:21.62	28.74	9.18	-40.7	-42.0	20.2	0.00e+00	6	31	0	223346688	54	6413
2026-01-29 19:05:22.63	28.60	9.23	-40.5	-41.8	20.7	0.00e+00	92	31	0	225443840	54	6258
2026-01-29 19:05:23.64	28.45	9.28	-40.6	-41.8	20.7	0.00e+00	48	32	0	227540992	54	6308
2026-01-29 19:05:24.65	28.31	9.33	-40.3	-41.5	20.9	0.00e+00	91	31	0	228589568	54	6088
2026-01-29 19:05:25.66	28.16	9.38	-40.5	-41.7	20.7	0.00e+00	34	32	0	230686720	54	6224
2026-01-29 19:05:26.67	28.02	9.43	-40.4	-41.7	20.8	0.00e+00	7	31	0	232783872	54	6202
2026-01-29 19:05:27.68	27.87	9.47	-40.5	-41.8	20.6	0.00e+00	36	32	0	234881024	54	6257
2026-01-29 19:05:28.69	27.73	9.52	-40.6	-41.9	20.6	0.00e+00	6	32	0	236978176	54	6321
2026-01-29 19:05:29.70	27.58	9.57	-40.5	-41.7	20.7	0.00e+00	92	31	0	238026752	54	6241
2026-01-29 19:05:30.71	27.43	9.62	-40.3	-41.5	21.0	0.00e+00	0	31	0	240123904	54	6073
2026-01-29 19:05:31.72	27.29	9.67	-40.4	-41.7	20.7	0.00e+00	90	32	0	242221056	54	6176
2026-01-29 19:05:32.72	27.14	9.72	-40.4	-41.6	20.9	0.00e+00	0	31	0	244318208	54	6151
2026-01-29 19:05:33.73	26.99	9.77	-40.3	-41.5	20.9	0.00e+00	0	32	0	246415360	54	6053
2026-01-29 19:05:34.74	26.84	9.81	-40.2	-41.4	21.1	0.00e+00	4	32	0	247463936	54	6002
2026-01-29 19:05:35.75	26.69	9.86	-40.2	-41.5	21.0	0.00e+00	6	31	0	249561088	54	6036
2026-01-29 19:05:36.76	26.54	9.91	-40.0	-41.1	21.4	0.00e+00	92	31	0	251658240	54	5805
2026-01-29 19:05:37.77	26.39	9.96	-40.0	-41.2	21.2	0.00e+00	52	32	0	253755392	54	5846
2026-01-29 19:05:38.78	26.24	10.01	-39.8	-40.9	21.5	0.00e+00	92	32	0	255852544	54	5660
2026-01-29 19:05:39.79	26.09	10.05	-39.7	-40.9	21.5	0.00e+00	0	31	0	256901120	52	6329
2026-01-29 19:05:40.80	25.94	10.10	-39.8	-41.0	21.5	0.00e+00	53	31	0	258998272	52	6413
2026-01-29 19:05:41.81	25.79	10.15	-39.7	-40.8	21.5	0.00e+00	54	32	0	261095424	52	6295
2026-01-29 19:05:42.82	25.63	10.20	-39.7	-40.8	21.6	0.00e+00	29	32	0	263192576	52	6313
2026-01-29 19:05:43.83	25.48	10.24	-39.6	-40.7	21.8	0.00e+00	31	32	0	265289728	52	6178
2026-01-29 19:05:44.84	25.33	10.29	-39.6	-40.7	21.8	0.00e+00	54	31	0	266338304	52	6179
2026-01-29 19:05:45.85	25.17	10.34	-39.5	-40.5	21.9	0.00e+00	92	32	0	268435456	52	6099
2026-01-29 19:05:46.86	25.02	10.38	-39.5	-40.5	21.9	0.00e+00	0	32	0	270532608	52	6095
2026-01-29 19:05:47.87	24.86	10.43	-39.3	-40.3	22.1	0.00e+00	92	32	0	272629760	52	5946
2026-01-29 19:05:48.88	24.71	10.48	-39.3	-40.3	22.1	0.00e+00	2	32	0	274726912	52	5940
2026-01-29 19:05:49.89	24.55	10.52	-39.2	-40.3	22.1	0.00e+00	28	31	0	275775488	52	5929
2026-01-29 19:05:50.90	24.39	10.57	-39.2	-40.2	22.3	0.00e+00	0	32	0	277872640	52	5858
2026-01-29 19:05:51.91	24.24	10.62	-39.1	-40.1	22.4	0.00e+00	0	32	0	279969792	52	5801
2026-01-29 19:05:52.92	24.08	10.66	-38.9	-39.9	22.5	0.00e+00	92	31	0	282066944	52	5674
2026-01-29 19:05:53.93	23.92	10.71	-39.0	-40.0	22.5	0.00e+00	0	32	0	284164096	52	5737
2026-01-29 19:05:54.94	23.76	10.76	-38.9	-39.9	22.6	0.00e+00	92	31	0	286261248	52	5637
2026-01-29 19:05:55.95	23.60	10.80	-38.9	-39.9	22.5	0.00e+00	0	32	0	287309824	52	5688
2026-01-29 19:05:56.96	23.44	10.85	-39.0	-40.0	22.4	0.00e+00	0	32	0	289406976	52	5743
2026-01-29 19:05:57.96	23.28	10.89	-39.0	-40.0	22.4	0.00e+00	0	32	0	291504128	52	5749
2026-01-29 19:05:58.97	23.12	10.94	-39.0	-40.0	22.4	0.00e+00	54	32	0	293601280	52	5723
2026-01-29 19:05:59.98	22.96	10.98	-38.9	-39.9	22.5	0.00e+00	92	32	0	295698432	52	5652
2026-01-29 19:06:00.99	22.80	11.03	-38.8	-39.8	22.7	0.00e+00	0	32	0	296747008	52	5586
2026-01-29 19:06:02.00	22.63	11.07	-38.7	-39.7	22.8	0.00e+00	92	31	0	298844160	50	6182
2026-01-29 19:06:03.01	22.47	11.12	-38.7	-39.7	22.8	0.00e+00	3	32	0	300941312	50	6206
2026-01-29 19:06:04.02	22.31	11.16	-38.6	-39.6	22.8	0.00e+00	38	32	0	303038464	50	6116
2026-01-29 19:06:05.03	22.14	11.21	-38.6	-39.6	22.9	0.00e+00	29	32	0	305135616	50	6105
2026-01-29 19:06:06.04	21.98	11.25	-38.6	-39.6	22.9	0.00e+00	27	32	0	306184192	50	6117
2026-01-29 19:06:07.04	21.82	11.30	-38.7	-39.6	22.7	0.00e+00	26	31	0	308281344	50	6171
2026-01-29 19:06:08.06	21.65	11.34	-38.7	-39.7	22.8	0.00e+00	0	32	0	310378496	50	6239
2026-01-29 19:06:09.07	21.48	11.39	-38.6	-39.6	22.7	0.00e+00	92	32	0	312475648	50	6119
2026-01-29 19:06:10.08	21.32	11.43	-38.5	-39.5	23.0	0.00e+00	0	32	0	314572800	50	6040
2026-01-29 19:06:11.09	21.15	11.47	-38.5	-39.4	23.0	0.00e+00	92	32	0	315621376	50	6005
2026-01-29 19:06:12.10	20.98	11.52	-38.5	-39.5	23.0	0.00e+00	0	32	0	317718528	50	6063
2026-01-29 19:06:13.11	20.81	11.56	-38.3	-39.3	23.1	0.00e+00	0	32	0	319815680	50	5908
2026-01-29 19:06:14.12	20.64	11.60	-38.3	-39.2	23.1	0.00e+00	0	32	0	321912832	50	5867
2026-01-29 19:06:15.13	20.47	11.65	-38.2	-39.2	23.0	0.00e+00	0	32	0	324009984	50	5838
2026-01-29 19:06:16.14	20.31	11.69	-38.2	-39.1	23.2	0.00e+00	92	32	0	325058560	50	5808
2026-01-29 19:06:17.15	20.13	11.73	-38.0	-38.9	23.3	0.00e+00	0	32	0	327155712	50	5659
2026-01-29 19:06:18.16	19.96	11.77	-38.0	-38.9	23.4	0.00e+00	92	32	0	329252864	50	5671
2026-01-29 19:06:19.17	19.79	11.82	-38.1	-39.0	23.4	0.00e+00	0	32	0	331350016	50	5715
2026-01-29 19:06:20.18	19.62	11.86	-38.1	-39.0	23.4	0.00e+00	53	31	0	333447168	50	5722
2026-01-29 19:06:21.19	19.45	11.90	-38.1	-39.0	23.3	0.00e+00	51	32	0	334495744	50	5739
2026-01-29 19:06:22.20	19.28	11.94	-37.9	-38.8	23.6	0.00e+00	53	31	0	336592896	50	5581
2026-01-29 19:06:23.21	19.10	11.98	-38.0	-39.0	23.4	0.00e+00	92	32	0	338690048	50	5699
2026-01-29 19:06:24.22	18.93	12.03	-37.9	-38.8	23.6	0.00e+00	53	32	0	340787200	50	5588
2026-01-29 19:06:25.23	18.76	12.07	-38.1	-39.1	23.3	0.00e+00	92	31	0	342884352	50	5764
2026-01-29 19:06:26.24	18.58	12.11	-38.0	-39.0	23.5	0.00e+00	0	32	0	343932928	50	5707
2026-01-29 19:06:27.25	18.41	12.15	-38.0	-38.9	23.5	0.00e+00	2	31	0	346030080	50	5688
2026-01-29 19:06:28.26	18.23	12.19	-38.1	-39.0	23.4	0.00e+00	28	31	0	348127232	50	5710
2026-01-29 19:06:29.27	18.05	12.23	-38.2	-39.1	23.3	0.00e+00	28	32	0	350224384	50	5794
2026-01-29 19:06:30.28	17.88	12.27	-38.0	-38.9	23.4	0.00e+00	84	32	0	352321536	50	5689
2026-01-29 19:06:31.29	17.70	12.31	-38.1	-39.0	23.2	0.00e+00	2	32	0	354418688	50	5747
2026-01-29 19:06:32.30	17.52	12.35	-38.2	-39.1	23.3	0.00e+00	90	32	0	355467264	50	5796
2026-01-29 19:06:33.31	17.34	12.39	-38.3	-39.3	23.1	0.00e+00	0	31	0	357564416	50	5910
2026-01-29 19:06:34.32	17.17	12.43	-38.4	-39.4	23.1	0.00e+00	47	32	0	359661568	50	5972
2026-01-29 19:06:35.33	16.99	12.47	-38.5	-39.4	23.0	0.00e+00	0	32	0	361758720	50	6008
2026-01-29 19:06:36.34	16.81	12.51	-38.4	-39.3	23.1	0.00e+00	0	32	0	363855872	50	5931
2026-01-29 19:06:37.35	16.63	12.55	-38.6	-39.5	23.0	0.00e+00	0	32	0	364904448	50	6097
2026-01-29 19:06:38.36	16.45	12.59	-38.4	-39.3	23.1	0.00e+00	52	32	0	367001600	50	5940
2026-01-29 19:06:39.37	16.27	12.62	-38.5	-39.5	23.0	0.00e+00	92	32	0	369098752	50	6043
2026-01-29 19:06:40.38	16.08	12.66	-38.7	-39.7	22.8	0.00e+00	0	32	0	371195904	50	6202
2026-01-29 19:06:41.39	15.90	12.70	-38.7	-39.6	22.8	0.00e+00	92	32	0	373293056	50	6172
2026-01-29 19:06:42.40	15.72	12.74	-38.6	-39.6	22.9	0.00e+00	0	32	0	374341632	50	6145
2026-01-29 19:06:43.41	15.54	12.77	-38.6	-39.5	22.9	0.00e+00	0	32	0	376438784	50	6096
2026-01-29 19:06:44.42	15.35	12.81	-38.5	-39.5	23.0	0.00e+00	31	31	0	378535936	50	6052
2026-01-29 19:06:45.43	15.17	12.85	-38.6	-39.6	23.0	0.00e+00	29	32	0	380633088	50	6107
2026-01-29 19:06:46.44	14.99	12.89	-38.4	-39.3	23.0	0.00e+00	90	32	0	382730240	50	5938
2026-01-29 19:06:47.45	14.80	12.92	-38.3	-39.2	23.1	0.00e+00	53	31	0	383778816	50	5879
2026-01-29 19:06:48.46	14.62	12.96	-38.2	-39.2	23.2	0.00e+00	92	32	0	385875968	50	5840
2026-01-29 19:06:49.47	14.43	12.99	-38.2	-39.2	23.3	0.00e+00	6	32	0	387973120	50	5842
2026-01-29 19:06:50.48	14.24	13.03	-38.2	-39.2	23.2	0.00e+00	0	32	0	390070272	50	5845
2026-01-29 19:06:51.49	14.06	13.07	-38.3	-39.2	23.2	0.00e+00	0	32	0	392167424	50	5878
2026-01-29 19:06:52.50	13.87	13.10	-38.3	-39.2	23.3	0.00e+00	30	32	0	393216000	50	5855
2026-01-29 19:06:53.51	13.68	13.14	-38.4	-39.3	23.2	0.00e+00	0	32	0	395313152	50	5939
2026-01-29 19:06:54.52	13.50	13.17	-38.4	-39.3	23.1	0.00e+00	0	32	0	397410304	50	5955
2026-01-29 19:06:55.53	13.31	13.21	-38.4	-39.3	23.1	0.00e+00	91	32	0	399507456	50	5935
2026-01-29 19:06:56.54	13.12	13.24	-38.3	-39.2	23.3	0.00e+00	5	32	0	401604608	50	5888
2026-01-29 19:06:57.55	12.93	13.27	-38.2	-39.1	23.3	0.00e+00	92	32	0	402653184	50	5815
2026-01-29 19:06:58.56	12.74	13.31	-38.0	-39.0	23.4	0.00e+00	0	32	0	404750336	50	5696
2026-01-29 19:06:59.57	12.55	13.34	-38.2	-39.1	23.2	0.00e+00	52	32	0	406847488	50	5819
2026-01-29 19:07:00.58	12.36	13.37	-38.3	-39.2	22.5	0.00e+00	0	32	0	408944640	50	5856
2026-01-29 19:07:01.59	12.17	13.41	-38.2	-39.2	23.3	0.00e+00	52	32	0	411041792	50	5837
2026-01-29 19:07:02.60	11.98	13.44	-38.3	-39.2	23.2	0.00e+00	92	32	0	412090368	50	5865
2026-01-29 19:07:03.61	11.78	13.47	-38.2	-39.1	23.2	0.00e+00	34	32	0	414187520	50	5812
2026-01-29 19:07:04.62	11.59	13.50	-38.1	-39.0	23.4	0.00e+00	92	32	0	416284672	50	5710
2026-01-29 19:07:05.63	11.40	13.54	-38.1	-39.0	23.5	0.00e+00	5	32	0	418381824	50	5729
2026-01-29 19:07:06.64	11.21	13.57	-38.2	-39.1	23.2	0.00e+00	48	32	0	420478976	50	5809
2026-01-29 19:07:07.65	11.01	13.60	-38.2	-39.2	23.2	0.00e+00	46	32	0	422576128	50	5839
2026-01-29 19:07:08.66	10.82	13.63	-38.2	-39.1	23.4	0.00e+00	6	32	0	423624704	50	5789
2026-01-29 19:07:09.67	10.62	13.66	-38.1	-39.0	23.4	0.00e+00	90	32	0	425721856	50	5759
2026-01-29 19:07:10.68	10.43	13.69	-37.9	-38.8	23.6	0.00e+00	41	32	0	427819008	50	5623
2026-01-29 19:07:11.69	10.23	13.72	-37.8	-38.7	23.6	0.00e+00	92	32	0	429916160	50	5565
2026-01-29 19:07:12.70	10.04	13.75	-38.0	-38.9	23.5	0.00e+00	6	32	0	432013312	50	5661
2026-01-29 19:07:13.71	9.84	13.78	-38.0	-38.9	23.5	0.00e+00	0	32	0	433061888	50	5676
2026-01-29 19:07:14.72	9.65	13.81	-38.0	-38.9	23.4	0.00e+00	0	32	0	435159040	50	5683
2026-01-29 19:07:15.73	9.45	13.84	-38.1	-39.0	23.4	0.00e+00	7	32	0	437256192	50	5731
2026-01-29 19:07:16.74	9.25	13.87	-38.1	-39.0	23.4	0.00e+00	0	32	0	439353344	50	5727
2026-01-29 19:07:17.75	9.05	13.90	-38.1	-39.0	23.4	0.00e+00	0	32	0	441450496	50	5748
2026-01-29 19:07:18.76	8.86	13.92	-37.9	-38.8	23.6	0.00e+00	92	32	0	442499072	50	5588
2026-01-29 19:07:19.77	8.66	13.95	-38.0	-38.9	23.5	0.00e+00	0	32	0	444596224	50	5637
2026-01-29 19:07:20.78	8.46	13.98	-38.0	-38.9	23.5	0.00e+00	84	32	0	446693376	50	5660
2026-01-29 19:07:21.79	8.26	14.01	-38.1	-39.0	23.5	0.00e+00	0	32	0	448790528	50	5702
2026-01-29 19:07:22.80	8.06	14.03	-38.0	-38.9	23.4	0.00e+00	54	32	0	450887680	50	5671
2026-01-29 19:07:23.81	7.86	14.06	-38.0	-38.9	23.5	0.00e+00	48	32	0	451936256	50	5673
2026-01-29 19:07:24.82	7.66	14.08	-38.0	-38.9	23.6	0.00e+00	53	32	0	454033408	50	5631
2026-01-29 19:07:25.83	7.46	14.11	-37.8	-38.7	23.7	0.00e+00	92	32	0	456130560	50	5543
2026-01-29 19:07:26.84	7.26	14.14	-37.9	-38.8	23.4	0.00e+00	54	32	0	458227712	50	5616
2026-01-29 19:07:27.85	7.06	14.16	-37.9	-38.8	23.6	0.00e+00	92	32	0	460324864	50	5586
2026-01-29 19:07:28.86	6.86	14.19	-38.1	-39.0	23.5	0.00e+00	26	32	0	462422016	50	5719
2026-01-29 19:07:29.87	6.66	14.21	-38.3	-39.2	23.2	0.00e+00	2	32	0	463470592	50	5861
2026-01-29 19:07:30.88	6.45	14.23	-38.2	-39.2	23.3	0.00e+00	27	32	0	465567744	50	5836
2026-01-29 19:07:31.89	6.25	14.26	-38.3	-39.3	23.1	0.00e+00	0	32	0	467664896	50	5899
2026-01-29 19:07:32.90	6.05	14.28	-38.0	-38.9	23.5	0.00e+00	45	32	0	469762048	50	5687
2026-01-29 19:07:33.91	5.84	14.31	-38.0	-38.9	23.5	0.00e+00	0	32	0	471859200	50	5684
2026-01-29 19:07:34.92	5.64	14.33	-38.2	-39.1	23.4	0.00e+00	90	32	0	472907776	50	5781
2026-01-29 19:07:35.93	5.44	14.35	-38.2	-39.2	23.3	0.00e+00	0	32	0	475004928	50	5835
2026-01-29 19:07:36.94	5.23	14.37	-38.3	-39.3	23.2	0.00e+00	15	32	0	477102080	50	5911
2026-01-29 19:07:37.95	5.03	14.39	-38.4	-39.3	23.2	0.00e+00	0	32	0	479199232	50	5931
2026-01-29 19:07:38.96	4.82	14.42	-38.3	-39.2	23.3	0.00e+00	0	32	0	481296384	50	5864
2026-01-29 19:07:39.97	4.62	14.44	-38.4	-39.3	23.2	0.00e+00	2	32	0	482344960	50	5932
2026-01-29 19:07:40.98	4.41	14.46	-38.3	-39.2	23.2	0.00e+00	0	32	0	484442112	50	5895
2026-01-29 19:07:41.99	4.21	14.48	-38.4	-39.3	23.1	0.00e+00	92	32	0	486539264	50	5949
2026-01-29 19:07:43.00	4.00	14.50	-38.5	-39.5	23.0	0.00e+00	47	32	0	488636416	50	6056
2026-01-29 19:07:44.00	3.80	14.52	-38.7	-39.6	22.9	0.00e+00	74	32	0	490733568	50	6169
2026-01-29 19:07:45.01	3.59	14.54	-38.9	-39.9	22.7	0.00e+00	35	32	0	491782144	50	6328
2026-01-29 19:07:46.02	3.38	14.56	-38.8	-39.8	22.7	0.00e+00	53	32	0	493879296	50	6274
2026-01-29 19:07:47.03	3.18	14.57	-39.0	-40.1	22.5	0.00e+00	4	32	0	495976448	50	6468
2026-01-29 19:07:48.04	2.97	14.59	-38.6	-39.6	22.9	0.00e+00	53	32	0	498073600	50	6125
2026-01-29 19:07:49.05	2.76	14.61	-38.7	-39.7	22.9	0.00e+00	92	32	0	500170752	50	6207
2026-01-29 19:07:50.06	2.56	14.63	-38.5	-39.5	23.0	0.00e+00	29	32	0	501219328	50	6049
2026-01-29 19:07:51.07	2.35	14.65	-38.6	-39.6	23.0	0.00e+00	92	32	0	503316480	50	6117
2026-01-29 19:07:52.08	2.14	14.66	-38.5	-39.5	23.0	0.00e+00	0	32	0	505413632	50	6058
2026-01-29 19:07:53.09	1.93	14.68	-38.5	-39.4	23.0	0.00e+00	0	32	0	507510784	50	6018
2026-01-29 19:07:54.10	1.72	14.69	-38.5	-39.5	23.1	0.00e+00	28	32	0	509607936	50	6055
2026-01-29 19:07:55.11	1.51	14.71	-38.4	-39.3	23.2	0.00e+00	0	32	0	510656512	50	5956
2026-01-29 19:07:56.12	1.30	14.73	-38.2	-39.1	23.4	0.00e+00	91	32	0	512753664	50	5804
2026-01-29 19:07:57.13	1.09	14.74	-38.2	-39.1	23.4	0.00e+00	0	32	0	514850816	50	5809
2026-01-29 19:07:58.14	0.89	14.75	-38.2	-39.1	23.3	0.00e+00	92	32	0	516947968	50	5791
2026-01-29 19:07:59.15	0.68	14.77	-38.3	-39.2	23.3	0.00e+00	2	32	0	519045120	50	5867
2026-01-29 19:08:00.15	0.47	14.78	-38.5	-39.4	23.2	0.00e+00	31	32	0	520093696	50	6008
2026-01-29 19:08:01.14	0.26	14.80	-38.5	-39.4	23.2	0.00e+00	0	32	0	522190848	50	6002
2026-01-29 19:08:02.15	0.05	14.81	-38.3	-39.2	23.3	0.00e+00	0	32	0	524288000	50	5872
2026-01-29 19:08:03.16	359.84	14.82	-38.4	-39.4	23.2	0.00e+00	54	32	0	526385152	50	5968
2026-01-29 19:08:04.17	359.63	14.83	-38.1	-39.0	23.4	0.00e+00	54	32	0	528482304	50	5733
2026-01-29 19:08:05.18	359.42	14.85	-38.1	-39.1	23.4	0.00e+00	92	32	0	529530880	50	5772
2026-01-29 19:08:06.19	359.21	14.86	-38.3	-39.3	23.2	0.00e+00	0	32	0	531628032	50	5902
2026-01-29 19:08:07.20	359.00	14.87	-38.4	-39.4	23.1	0.00e+00	92	32	0	533725184	50	5966
2026-01-29 19:08:08.21	358.79	14.88	-38.5	-39.5	23.1	0.00e+00	32	32	0	535822336	50	6045
2026-01-29 19:08:09.22	358.57	14.89	-38.6	-39.6	23.0	0.00e+00	34	32	0	537919488	50	6114
2026-01-29 19:08:10.23	358.36	14.90	-38.5	-39.5	23.0	0.00e+00	0	32	0	538968064	50	6042
2026-01-29 19:08:11.24	358.15	14.91	-38.4	-39.3	23.2	0.00e+00	0	32	0	541065216	50	5930
2026-01-29 19:08:12.25	357.94	14.92	-38.3	-39.2	23.2	0.00e+00	92	32	0	543162368	50	5887
2026-01-29 19:08:13.26	357.73	14.93	-38.4	-39.3	23.3	0.00e+00	0	32	0	545259520	50	5923
2026-01-29 19:08:14.27	357.51	14.94	-38.2	-39.2	23.3	0.00e+00	92	32	0	547356672	50	5836
2026-01-29 19:08:15.28	357.30	14.94	-38.3	-39.3	23.3	0.00e+00	32	32	0	548405248	50	5914
2026-01-29 19:08:16.29	357.09	14.95	-38.4	-39.4	23.1	0.00e+00	0	32	0	550502400	50	5997
2026-01-29 19:08:17.30	356.88	14.96	-38.5	-39.5	23.0	0.00e+00	28	32	0	552599552	50	6035
2026-01-29 19:08:18.31	356.66	14.96	-38.6	-39.5	23.0	0.00e+00	0	32	0	554696704	50	6086
2026-01-29 19:08:19.32	356.45	14.97	-38.5	-39.5	23.0	0.00e+00	54	32	0	556793856	50	6054
2026-01-29 19:08:20.33	356.24	14.98	-38.4	-39.4	23.1	0.00e+00	0	32	0	558891008	50	5978
2026-01-29 19:08:21.34	356.03	14.98	-38.4	-39.3	23.2	0.00e+00	92	32	0	559939584	50	5961
2026-01-29 19:08:22.36	355.81	14.99	-38.3	-39.2	23.3	0.00e+00	52	32	0	562036736	50	5876
2026-01-29 19:08:23.37	355.60	14.99	-38.3	-39.2	23.2	0.00e+00	33	32	0	564133888	50	5896
2026-01-29 19:08:24.38	355.38	15.00	-38.4	-39.3	23.2	0.00e+00	53	32	0	566231040	50	5940
2026-01-29 19:08:25.39	355.17	15.00	-38.5	-39.4	23.0	0.00e+00	0	32	0	568328192	50	6022
2026-01-29 19:08:26.40	354.96	15.01	-38.5	-39.4	23.0	0.00e+00	0	32	0	569376768	50	6026
2026-01-29 19:08:27.41	354.74	15.01	-38.5	-39.5	23.1	0.00e+00	0	32	0	571473920	50	6035
2026-01-29 19:08:28.42	354.53	15.01	-38.4	-39.3	23.2	0.00e+00	92	32	0	573571072	50	5943
2026-01-29 19:08:29.43	354.32	15.01	-38.2	-39.2	23.3	0.00e+00	52	32	0	575668224	50	5842
2026-01-29 19:08:30.44	354.10	15.02	-38.1	-39.1	23.5	0.00e+00	92	32	0	577765376	50	5771
2026-01-29 19:08:31.45	353.89	15.02	-38.1	-39.0	23.5	0.00e+00	53	32	0	578813952	50	5743
2026-01-29 19:08:32.46	353.68	15.02	-38.3	-39.2	23.3	0.00e+00	5	32	0	580911104	50	5852
2026-01-29 19:08:33.47	353.46	15.02	-38.2	-39.1	23.4	0.00e+00	30	32	0	583008256	50	5793
2026-01-29 19:08:34.48	353.25	15.02	-38.3	-39.2	23.2	0.00e+00	6	32	0	585105408	50	5885
2026-01-29 19:08:35.49	353.04	15.02	-38.3	-39.3	23.3	0.00e+00	91	32	0	587202560	50	5918
2026-01-29 19:08:36.50	352.82	15.02	-38.2	-39.1	23.4	0.00e+00	6	32	0	588251136	50	5827
2026-01-29 19:08:37.51	352.61	15.02	-38.3	-39.2	23.3	0.00e+00	91	32	0	590348288	50	5871
2026-01-29 19:08:38.52	352.40	15.02	-38.3	-39.2	23.3	0.00e+00	5	32	0	592445440	50	5880
2026-01-29 19:08:39.53	352.18	15.02	-38.2	-39.1	23.3	0.00e+00	0	32	0	594542592	50	5823
2026-01-29 19:08:40.54	351.97	15.01	-38.2	-39.1	22.9	0.00e+00	0	32	0	596639744	50	5814
2026-01-29 19:08:41.55	351.76	15.01	-38.1	-39.0	23.3	0.00e+00	0	32	0	597688320	50	5739
2026-01-29 19:08:42.56	351.54	15.01	-38.1	-39.0	23.5	0.00e+00	44	32	0	599785472	50	5704
2026-01-29 19:08:43.57	351.33	15.01	-38.2	-39.1	23.4	0.00e+00	0	32	0	601882624	50	5792
2026-01-29 19:08:44.58	351.12	15.00	-38.3	-39.2	23.4	0.00e+00	92	32	0	603979776	50	5853
2026-01-29 19:08:45.59	350.90	15.00	-38.2	-39.1	23.3	0.00e+00	0	32	0	606076928	50	5819
2026-01-29 19:08:46.60	350.69	14.99	-38.4	-39.3	23.2	0.00e+00	31	32	0	607125504	50	5941
2026-01-29 19:08:47.61	350.48	14.99	-38.5	-39.4	23.1	0.00e+00	52	32	0	609222656	50	6010
2026-01-29 19:08:48.62	350.26	14.98	-38.5	-39.4	23.2	0.00e+00	33	32	0	611319808	50	6023
2026-01-29 19:08:49.63	350.05	14.98	-38.5	-39.5	23.1	0.00e+00	15	32	0	613416960	50	6038
2026-01-29 19:08:50.64	349.84	14.97	-38.4	-39.4	23.2	0.00e+00	51	32	0	615514112	50	5969
2026-01-29 19:08:51.65	349.63	14.97	-38.3	-39.2	23.2	0.00e+00	92	32	0	616562688	50	5866
2026-01-29 19:08:52.66	349.41	14.96	-38.4	-39.4	23.1	0.00e+00	34	32	0	618659840	50	5979
2026-01-29 19:08:53.67	349.20	14.95	-38.4	-39.3	23.1	0.00e+00	92	32	0	620756992	50	5924
2026-01-29 19:08:54.68	348.99	14.95	-38.6	-39.6	23.1	0.00e+00	6	32	0	622854144	50	6148
2026-01-29 19:08:55.69	348.78	14.94	-38.8	-39.7	22.8	0.00e+00	6	32	0	624951296	50	6234
2026-01-29 19:08:56.70	348.56	14.93	-38.7	-39.7	22.8	0.00e+00	34	32	0	627048448	50	6203
2026-01-29 19:08:57.71	348.35	14.92	-38.8	-39.7	22.8	0.00e+00	0	32	0	628097024	50	6245
2026-01-29 19:08:58.71	348.14	14.91	-38.7	-39.7	22.9	0.00e+00	92	32	0	630194176	50	6213
2026-01-29 19:08:59.73	347.93	14.90	-38.6	-39.6	22.9	0.00e+00	0	32	0	632291328	50	6152
2026-01-29 19:09:00.73	347.72	14.89	-38.5	-39.4	23.2	0.00e+00	92	32	0	634388480	50	6028
2026-01-29 19:09:01.74	347.51	14.88	-38.5	-39.5	23.0	0.00e+00	0	32	0	636485632	50	6061
2026-01-29 19:09:02.75	347.29	14.87	-38.4	-39.3	23.2	0.00e+00	6	32	0	637534208	50	5927
2026-01-29 19:09:03.76	347.08	14.86	-38.3	-39.2	23.3	0.00e+00	44	32	0	639631360	50	5871
2026-01-29 19:09:04.77	346.87	14.85	-38.4	-39.3	23.3	0.00e+00	0	32	0	641728512	50	5952
2026-01-29 19:09:05.78	346.66	14.84	-38.5	-39.4	23.1	0.00e+00	17	32	0	643825664	50	6025
2026-01-29 19:09:06.79	346.45	14.83	-38.7	-39.7	22.9	0.00e+00	47	32	0	645922816	50	6210
2026-01-29 19:09:07.80	346.24	14.81	-38.7	-39.6	22.9	0.00e+00	90	32	0	646971392	50	6167
2026-01-29 19:09:08.81	346.03	14.80	-38.8	-39.8	22.8	0.00e+00	34	32	0	649068544	50	6262
2026-01-29 19:09:09.82	345.82	14.79	-38.8	-39.8	22.8	0.00e+00	33	32	0	651165696	50	6257
2026-01-29 19:09:10.83	345.61	14.77	-38.8	-39.7	22.8	0.00e+00	47	32	0	653262848	50	6240
2026-01-29 19:09:11.84	345.40	14.76	-38.7	-39.6	23.0	0.00e+00	34	32	0	655360000	50	6164
2026-01-29 19:09:12.85	345.19	14.74	-38.5	-39.5	22.9	0.00e+00	0	32	0	656408576	50	6071
2026-01-29 19:09:13.86	344.98	14.73	-38.3	-39.3	23.2	0.00e+00	35	32	0	658505728	50	5902
2026-01-29 19:09:14.87	344.77	14.71	-38.2	-39.1	23.4	0.00e+00	90	32	0	660602880	50	5802
2026-01-29 19:09:15.88	344.56	14.70	-38.3	-39.3	23.2	0.00e+00	30	32	0	662700032	50	5921
2026-01-29 19:09:16.89	344.35	14.68	-38.4	-39.4	23.2	0.00e+00	90	32	0	664797184	50	5973
2026-01-29 19:09:17.90	344.14	14.67	-38.3	-39.2	23.2	0.00e+00	0	32	0	665845760	50	5857
2026-01-29 19:09:18.91	343.94	14.65	-38.3	-39.3	23.2	0.00e+00	0	32	0	667942912	50	5904
2026-01-29 19:09:19.92	343.73	14.63	-38.5	-39.4	23.1	0.00e+00	0	32	0	670040064	50	6019
2026-01-29 19:09:20.93	343.52	14.62	-38.4	-39.3	23.2	0.00e+00	0	32	0	672137216	50	5926
2026-01-29 19:09:21.93	343.32	14.60	-38.4	-39.3	23.2	0.00e+00	90	32	0	674234368	50	5926
2026-01-29 19:09:22.94	343.11	14.58	-38.4	-39.4	23.0	0.00e+00	0	32	0	675282944	50	5974
2026-01-29 19:09:23.95	342.90	14.56	-38.5	-39.4	23.2	0.00e+00	89	32	0	677380096	50	5992
2026-01-29 19:09:24.96	342.69	14.54	-38.2	-39.1	23.4	0.00e+00	52	32	0	679477248	50	5778
2026-01-29 19:09:25.97	342.49	14.52	-38.1	-39.0	23.4	0.00e+00	0	32	0	681574400	50	5739
2026-01-29 19:09:26.98	342.28	14.50	-38.0	-38.9	23.6	0.00e+00	52	32	0	683671552	50	5686
2026-01-29 19:09:27.99	342.08	14.48	-38.2	-39.1	23.4	0.00e+00	53	32	0	684720128	50	5798
2026-01-29 19:09:29.00	341.87	14.46	-38.1	-39.0	23.5	0.00e+00	4	32	0	686817280	50	5747
2026-01-29 19:09:30.01	341.66	14.44	-38.1	-39.0	23.4	0.00e+00	29	32	0	688914432	50	5731
2026-01-29 19:09:31.02	341.46	14.42	-38.2	-39.2	23.3	0.00e+00	91	32	0	691011584	50	5835
2026-01-29 19:09:32.03	341.25	14.40	-38.3	-39.2	23.3	0.00e+00	29	32	0	693108736	50	5890
2026-01-29 19:09:33.04	341.05	14.38	-38.2	-39.2	23.3	0.00e+00	92	32	0	695205888	50	5830
2026-01-29 19:09:34.05	340.85	14.36	-38.4	-39.3	23.3	0.00e+00	53	32	0	696254464	50	5962
2026-01-29 19:09:35.06	340.64	14.33	-38.4	-39.3	23.3	0.00e+00	2	32	0	698351616	50	5961
2026-01-29 19:09:36.07	340.44	14.31	-38.3	-39.2	23.3	0.00e+00	44	32	0	700448768	50	5896
2026-01-29 19:09:37.08	340.23	14.29	-38.2	-39.2	23.3	0.00e+00	2	32	0	702545920	50	5833
2026-01-29 19:09:38.09	340.03	14.26	-38.3	-39.2	23.2	0.00e+00	91	32	0	704643072	50	5889
2026-01-29 19:09:39.10	339.83	14.24	-38.3	-39.2	23.3	0.00e+00	0	32	0	705691648	50	5891
2026-01-29 19:09:40.11	339.63	14.22	-38.4	-39.4	23.2	0.00e+00	91	32	0	707788800	50	5974
2026-01-29 19:09:41.12	339.42	14.19	-38.5	-39.4	23.2	0.00e+00	0	32	0	709885952	50	6024
2026-01-29 19:09:42.13	339.22	14.17	-38.5	-39.4	23.0	0.00e+00	0	32	0	711983104	50	6006
2026-01-29 19:09:43.14	339.02	14.14	-38.5	-39.4	23.1	0.00e+00	0	32	0	714080256	50	6015
2026-01-29 19:09:44.14	338.82	14.12	-38.6	-39.5	23.0	0.00e+00	0	32	0	715128832	50	6096
2026-01-29 19:09:45.16	338.62	14.09	-38.5	-39.5	23.0	0.00e+00	91	32	0	717225984	50	6065
2026-01-29 19:09:46.17	338.42	14.07	-38.6	-39.5	22.9	0.00e+00	0	32	0	719323136	50	6082
2026-01-29 19:09:47.18	338.22	14.04	-38.6	-39.6	23.0	0.00e+00	91	32	0	721420288	50	6145
2026-01-29 19:09:48.18	338.02	14.01	-38.7	-39.7	22.8	0.00e+00	53	32	0	723517440	50	6195
2026-01-29 19:09:49.19	337.82	13.99	-38.6	-39.6	22.9	0.00e+00	0	32	0	724566016	50	6123
2026-01-29 19:09:50.21	337.62	13.96	-38.6	-39.5	23.0	0.00e+00	54	32	0	726663168	50	6098
2026-01-29 19:09:51.22	337.42	13.93	-38.7	-39.6	22.9	0.00e+00	52	32	0	728760320	50	6152
2026-01-29 19:09:52.22	337.23	13.90	-38.6	-39.6	22.9	0.00e+00	91	32	0	730857472	50	6116
2026-01-29 19:09:53.24	337.03	13.87	-38.7	-39.7	22.9	0.00e+00	35	32	0	732954624	50	6176
2026-01-29 19:09:54.25	336.83	13.85	-38.8	-39.8	22.8	0.00e+00	92	32	0	734003200	50	6263
2026-01-29 19:09:55.26	336.63	13.82	-38.8	-39.7	22.8	0.00e+00	0	32	0	736100352	50	6231
2026-01-29 19:09:56.27	336.44	13.79	-38.8	-39.8	22.8	0.00e+00	81	32	0	738197504	50	6292
2026-01-29 19:09:57.28	336.24	13.76	-38.7	-39.7	22.9	0.00e+00	0	32	0	740294656	50	6208
2026-01-29 19:09:58.29	336.05	13.73	-38.7	-39.6	22.9	0.00e+00	29	32	0	742391808	50	6152
2026-01-29 19:09:59.30	335.85	13.70	-38.8	-39.8	22.8	0.00e+00	43	32	0	743440384	50	6279
2026-01-29 19:10:00.31	335.66	13.67	-38.9	-39.9	22.9	0.00e+00	0	32	0	745537536	50	6355
2026-01-29 19:10:01.31	335.46	13.64	-38.8	-39.8	22.7	0.00e+00	90	32	0	747634688	50	6257
2026-01-29 19:10:02.32	335.27	13.61	-38.7	-39.7	22.9	0.00e+00	0	32	0	749731840	50	6228
2026-01-29 19:10:03.33	335.07	13.58	-38.8	-39.8	22.9	0.00e+00	0	32	0	751828992	50	6247
2026-01-29 19:10:04.34	334.88	13.54	-38.7	-39.6	22.9	0.00e+00	0	32	0	752877568	50	6162
2026-01-29 19:10:05.35	334.69	13.51	-38.4	-39.4	23.2	0.00e+00	0	32	0	754974720	50	5985
2026-01-29 19:10:06.36	334.50	13.48	-38.4	-39.4	23.2	0.00e+00	0	32	0	757071872	50	5977
2026-01-29 19:10:07.37	334.30	13.45	-38.3	-39.2	23.2	0.00e+00	0	32	0	759169024	50	5860
2026-01-29 19:10:08.38	334.11	13.42	-38.3	-39.3	23.2	0.00e+00	92	32	0	761266176	50	5904
2026-01-29 19:10:09.39	333.92	13.38	-38.3	-39.2	23.2	0.00e+00	46	32	0	763363328	50	5894
2026-01-29 19:10:10.40	333.73	13.35	-38.3	-39.2	23.2	0.00e+00	92	32	0	764411904	50	5882
2026-01-29 19:10:11.41	333.54	13.32	-38.4	-39.4	22.9	0.00e+00	0	32	0	766509056	50	6003
2026-01-29 19:10:12.42	333.35	13.28	-38.4	-39.3	23.0	0.00e+00	50	32	0	768606208	50	5939
2026-01-29 19:10:13.43	333.16	13.25	-38.4	-39.3	23.2	0.00e+00	29	32	0	770703360	50	5940
2026-01-29 19:10:14.44	332.97	13.21	-38.3	-39.2	23.2	0.00e+00	50	32	0	772800512	50	5880
2026-01-29 19:10:15.45	332.78	13.18	-38.3	-39.2	23.2	0.00e+00	45	32	0	773849088	50	5879
2026-01-29 19:10:16.46	332.60	13.15	-38.2	-39.1	23.4	0.00e+00	35	32	0	775946240	50	5825
2026-01-29 19:10:17.47	332.41	13.11	-38.3	-39.2	23.4	0.00e+00	90	32	0	778043392	50	5851
2026-01-29 19:10:18.48	332.22	13.08	-38.1	-39.1	23.5	0.00e+00	7	32	0	780140544	50	5772
2026-01-29 19:10:19.49	332.03	13.04	-38.0	-38.9	23.5	0.00e+00	0	32	0	782237696	50	5681
2026-01-29 19:10:20.50	331.85	13.00	-38.1	-39.1	23.3	0.00e+00	31	32	0	783286272	50	5770
2026-01-29 19:10:21.51	331.66	12.97	-38.4	-39.4	23.1	0.00e+00	0	32	0	785383424	50	5971
2026-01-29 19:10:22.52	331.48	12.93	-38.4	-39.3	23.3	0.00e+00	0	32	0	787480576	50	5921
2026-01-29 19:10:23.53	331.29	12.90	-38.3	-39.2	23.2	0.00e+00	0	32	0	789577728	50	5853
2026-01-29 19:10:24.54	331.11	12.86	-38.3	-39.3	23.1	0.00e+00	91	32	0	791674880	50	5908
2026-01-29 19:10:25.55	330.92	12.82	-38.6	-39.5	23.0	0.00e+00	0	32	0	792723456	50	6073
2026-01-29 19:10:26.56	330.74	12.78	-38.3	-39.3	23.2	0.00e+00	44	32	0	794820608	50	5907
2026-01-29 19:10:27.57	330.56	12.75	-38.4	-39.3	23.3	0.00e+00	0	32	0	796917760	50	5937
2026-01-29 19:10:28.57	330.38	12.71	-38.3	-39.2	23.2	0.00e+00	0	32	0	799014912	50	5880
2026-01-29 19:10:29.59	330.19	12.67	-38.3	-39.3	23.2	0.00e+00	0	32	0	801112064	50	5912
2026-01-29 19:10:30.60	330.01	12.63	-38.1	-39.1	23.3	0.00e+00	50	32	0	802160640	50	5770
2026-01-29 19:10:31.61	329.83	12.60	-38.2	-39.1	23.3	0.00e+00	91	32	0	804257792	50	5770
2026-01-29 19:10:32.62	329.65	12.56	-38.1	-39.0	23.4	0.00e+00	43	32	0	806354944	50	5743
2026-01-29 19:10:33.63	329.47	12.52	-38.1	-39.0	23.5	0.00e+00	92	32	0	808452096	50	5726
2026-01-29 19:10:34.64	329.29	12.48	-38.2	-39.1	23.4	0.00e+00	39	32	0	810549248	50	5802
2026-01-29 19:10:35.65	329.11	12.44	-38.2	-39.2	23.4	0.00e+00	39	32	0	811597824	50	5837
2026-01-29 19:10:36.66	328.93	12.40	-38.2	-39.1	23.3	0.00e+00	5	32	0	813694976	50	5825
2026-01-29 19:10:37.67	328.75	12.36	-38.2	-39.1	23.4	0.00e+00	35	32	0	815792128	50	5796
2026-01-29 19:10:38.68	328.57	12.32	-38.2	-39.2	23.3	0.00e+00	90	32	0	817889280	50	5842
2026-01-29 19:10:39.69	328.40	12.28	-38.3	-39.2	23.3	0.00e+00	38	32	0	819986432	50	5894
2026-01-29 19:10:40.70	328.22	12.24	-38.2	-39.2	23.2	0.00e+00	92	32	0	821035008	50	5836
2026-01-29 19:10:41.71	328.04	12.20	-38.4	-39.4	23.1	0.00e+00	8	32	0	823132160	50	5969
2026-01-29 19:10:42.72	327.87	12.16	-38.6	-39.5	23.1	0.00e+00	6	32	0	825229312	50	6082
2026-01-29 19:10:43.73	327.69	12.12	-38.5	-39.5	23.0	0.00e+00	5	32	0	827326464	50	6035
2026-01-29 19:10:44.74	327.52	12.08	-38.6	-39.5	22.9	0.00e+00	0	32	0	829423616	50	6086
2026-01-29 19:10:45.75	327.34	12.04	-38.8	-39.8	22.8	0.00e+00	5	32	0	831520768	50	6258
2026-01-29 19:10:46.76	327.17	12.00	-39.0	-40.0	22.5	0.00e+00	50	32	0	832569344	50	6435
2026-01-29 19:10:47.77	327.00	11.95	-39.1	-40.1	22.4	0.00e+00	92	32	0	834666496	50	6537
2026-01-29 19:10:48.78	326.82	11.91	-39.1	-40.1	22.4	0.00e+00	46	32	0	836763648	50	6519
2026-01-29 19:10:49.79	326.65	11.87	-39.1	-40.1	22.5	0.00e+00	90	32	0	838860800	50	6491
2026-01-29 19:10:50.80	326.48	11.83	-39.1	-40.2	22.5	0.00e+00	46	32	0	840957952	50	6543
2026-01-29 19:10:51.81	326.31	11.79	-39.1	-40.2	22.4	0.00e+00	48	32	0	842006528	50	6540
2026-01-29 19:10:52.82	326.14	11.74	-39.2	-40.3	22.2	0.00e+00	31	32	0	844103680	50	6616
2026-01-29 19:10:53.83	325.97	11.70	-39.3	-40.3	22.3	0.00e+00	31	32	0	846200832	50	6645
2026-01-29 19:10:54.84	325.80	11.66	-39.2	-40.2	22.3	0.00e+00	91	32	0	848297984	50	6562
2026-01-29 19:10:55.85	325.63	11.61	-39.3	-40.3	22.2	0.00e+00	51	32	0	850395136	50	6680
2026-01-29 19:10:56.86	325.46	11.57	-39.3	-40.4	22.2	0.00e+00	92	32	0	851443712	50	6712
2026-01-29 19:10:57.87	325.29	11.53	-39.5	-40.5	22.2	0.00e+00	36	32	0	853540864	50	6816
2026-01-29 19:10:58.89	325.12	11.48	-39.6	-40.6	21.9	0.00e+00	32	32	0	855638016	50	6919
2026-01-29 19:10:59.90	324.95	11.44	-39.6	-40.6	22.0	0.00e+00	32	32	0	857735168	50	6912
2026-01-29 19:11:00.91	324.79	11.40	-39.6	-40.6	21.9	0.00e+00	0	32	0	859832320	50	6899
2026-01-29 19:11:01.92	324.62	11.35	-39.8	-40.9	21.7	0.00e+00	90	32	0	860880896	52	6353
2026-01-29 19:11:02.93	324.45	11.31	-40.0	-41.1	21.6	0.00e+00	0	32	0	862978048	52	6516
2026-01-29 19:11:03.94	324.29	11.26	-40.1	-41.2	21.4	0.00e+00	92	32	0	865075200	52	6600
2026-01-29 19:11:04.95	324.12	11.22	-40.1	-41.2	21.5	0.00e+00	0	32	0	867172352	52	6589
2026-01-29 19:11:05.96	323.96	11.18	-40.1	-41.2	21.4	0.00e+00	45	32	0	869269504	52	6599
2026-01-29 19:11:06.97	323.80	11.13	-40.1	-41.3	21.4	0.00e+00	4	32	0	871366656	52	6654
2026-01-29 19:11:07.98	323.63	11.09	-40.3	-41.4	21.3	0.00e+00	0	32	0	872415232	52	6736
2026-01-29 19:11:08.99	323.47	11.04	-40.4	-41.6	21.1	0.00e+00	2	32	0	874512384	52	6855
2026-01-29 19:11:10.00	323.31	11.00	-40.4	-41.6	21.1	0.00e+00	50	32	0	876609536	52	6884
2026-01-29 19:11:11.01	323.15	10.95	-40.5	-41.7	21.0	0.00e+00	92	32	0	878706688	52	6991
2026-01-29 19:11:12.02	322.98	10.90	-40.7	-41.9	20.6	0.00e+00	32	32	0	880803840	54	6376
2026-01-29 19:11:13.03	322.82	10.86	-40.7	-41.9	20.6	0.00e+00	92	32	0	881852416	54	6374
2026-01-29 19:11:14.04	322.66	10.81	-40.4	-41.6	20.9	0.00e+00	45	32	0	883949568	54	6163
2026-01-29 19:11:15.05	322.50	10.77	-40.5	-41.7	21.0	0.00e+00	0	32	0	886046720	54	6180
2026-01-29 19:11:16.06	322.34	10.72	-40.5	-41.8	20.9	0.00e+00	0	32	0	888143872	54	6258
2026-01-29 19:11:17.07	322.19	10.68	-40.7	-41.9	20.8	0.00e+00	0	32	0	890241024	54	6377
2026-01-29 19:11:18.08	322.03	10.63	-40.7	-41.9	20.7	0.00e+00	92	32	0	891289600	54	6378
2026-01-29 19:11:19.09	321.87	10.58	-40.9	-42.2	20.4	0.00e+00	31	32	0	893386752	54	6557
2026-01-29 19:11:20.10	321.71	10.54	-41.0	-42.3	20.3	0.00e+00	92	32	0	895483904	54	6650
2026-01-29 19:11:21.11	321.56	10.49	-41.1	-42.5	20.2	0.00e+00	0	32	0	897581056	54	6801
2026-01-29 19:11:22.12	321.40	10.44	-41.1	-42.4	20.3	0.00e+00	2	32	0	899678208	54	6758
2026-01-29 19:11:23.12	321.25	10.40	-41.2	-42.5	20.2	0.00e+00	0	32	0	900726784	54	6830
2026-01-29 19:11:24.14	321.09	10.35	-41.1	-42.4	20.2	0.00e+00	0	32	0	902823936	54	6746
2026-01-29 19:11:25.15	320.93	10.30	-40.9	-42.2	20.4	0.00e+00	87	32	0	904921088	54	6588
2026-01-29 19:11:26.15	320.78	10.26	-40.9	-42.2	20.4	0.00e+00	0	32	0	907018240	54	6572
2026-01-29 19:11:27.16	320.63	10.21	-41.1	-42.4	20.3	0.00e+00	92	32	0	909115392	54	6721
2026-01-29 19:11:28.18	320.47	10.16	-41.2	-42.5	20.2	0.00e+00	0	32	0	910163968	54	6816
2026-01-29 19:11:29.18	320.32	10.11	-41.1	-42.4	20.2	0.00e+00	55	32	0	912261120	54	6767
2026-01-29 19:11:30.19	320.17	10.07	-41.2	-42.5	20.1	0.00e+00	0	32	0	914358272	54	6807
2026-01-29 19:11:31.20	320.02	10.02	-41.2	-42.5	20.1	0.00e+00	0	32	0	916455424	54	6814
2026-01-29 19:11:32.21	319.87	9.97	-41.4	-42.8	19.8	0.00e+00	0	32	0	918552576	54	7080
2026-01-29 19:11:33.22	319.72	9.92	-41.4	-42.8	19.9	0.00e+00	49	32	0	919601152	54	7066
2026-01-29 19:11:34.23	319.57	9.87	-41.4	-42.9	19.8	0.00e+00	91	32	0	921698304	54	7092
2026-01-29 19:11:35.24	319.42	9.83	-41.4	-42.8	19.8	0.00e+00	48	32	0	923795456	54	7071
2026-01-29 19:11:36.25	319.27	9.78	-41.4	-42.8	19.9	0.00e+00	92	32	0	925892608	54	7016
2026-01-29 19:11:37.26	319.12	9.73	-41.6	-43.0	19.7	0.00e+00	39	32	0	927989760	54	7214
2026-01-29 19:11:38.27	318.97	9.68	-41.5	-42.9	19.7	0.00e+00	0	32	0	929038336	54	7135
2026-01-29 19:11:39.28	318.82	9.63	-41.6	-43.0	19.7	0.00e+00	0	32	0	931135488	54	7213
2026-01-29 19:11:40.29	318.68	9.58	-41.4	-42.8	19.9	0.00e+00	0	32	0	933232640	54	7030
2026-01-29 19:11:41.30	318.53	9.54	-41.3	-42.7	19.9	0.00e+00	92	32	0	935329792	54	6948
2026-01-29 19:11:42.31	318.38	9.49	-41.4	-42.8	19.8	0.00e+00	0	32	0	937426944	54	7016
2026-01-29 19:11:43.31	318.24	9.44	-41.5	-42.9	19.7	0.00e+00	92	32	0	939524096	54	7151
2026-01-29 19:11:44.32	318.09	9.39	-41.4	-42.8	19.7	0.00e+00	0	32	0	940572672	54	7065
2026-01-29 19:11:45.33	317.95	9.34	-41.3	-42.7	19.8	0.00e+00	0	32	0	942669824	54	6995
2026-01-29 19:11:46.34	317.81	9.29	-41.4	-42.8	19.8	0.00e+00	2	32	0	944766976	54	7070
2026-01-29 19:11:47.35	317.66	9.24	-41.2	-42.6	19.8	0.00e+00	0	32	0	946864128	54	6917
2026-01-29 19:11:48.36	317.52	9.19	-41.4	-42.8	19.8	0.00e+00	92	32	0	948961280	54	7043
2026-01-29 19:11:49.37	317.38	9.14	-41.3	-42.7	19.9	0.00e+00	50	32	0	950009856	54	6989
2026-01-29 19:11:50.38	317.23	9.09	-41.2	-42.6	20.0	0.00e+00	92	32	0	952107008	54	6918
2026-01-29 19:11:51.39	317.09	9.04	-41.2	-42.5	20.1	0.00e+00	0	32	0	954204160	54	6821
2026-01-29 19:11:52.40	316.95	8.99	-41.1	-42.5	20.1	0.00e+00	43	32	0	956301312	54	6827
2026-01-29 19:11:53.41	316.81	8.95	-40.9	-42.2	20.3	0.00e+00	43	32	0	958398464	54	6578
2026-01-29 19:11:54.42	316.67	8.90	-40.9	-42.2	20.3	0.00e+00	0	32	0	959447040	54	6605
2026-01-29 19:11:55.43	316.53	8.85	-40.8	-42.1	20.3	0.00e+00	11	32	0	961544192	54	6491
2026-01-29 19:11:56.44	316.39	8.80	-40.9	-42.2	20.3	0.00e+00	34	32	0	963641344	54	6562
2026-01-29 19:11:57.45	316.25	8.75	-40.8	-42.1	20.5	0.00e+00	92	32	0	965738496	54	6466
2026-01-29 19:11:58.46	316.11	8.70	-40.8	-42.1	20.4	0.00e+00	6	32	0	967835648	54	6519
2026-01-29 19:11:59.47	315.98	8.65	-40.8	-42.1	20.5	0.00e+00	92	32	0	968884224	54	6479
2026-01-29 19:12:00.48	315.84	8.60	-40.7	-42.0	20.5	0.00e+00	39	32	0	970981376	54	6428
2026-01-29 19:12:01.49	315.70	8.55	-40.7	-42.0	20.4	0.00e+00	40	32	0	973078528	54	6436
2026-01-29 19:12:02.50	315.57	8.50	-40.7	-42.0	20.5	0.00e+00	0	32	0	975175680	54	6440
2026-01-29 19:12:03.51	315.43	8.45	-40.5	-41.7	20.7	0.00e+00	0	32	0	977272832	54	6228
2026-01-29 19:12:04.52	315.30	8.40	-40.6	-41.8	20.6	0.00e+00	92	32	0	978321408	54	6295
2026-01-29 19:12:05.53	315.16	8.35	-40.6	-41.8	20.7	0.00e+00	5	32	0	980418560	54	6297
2026-01-29 19:12:06.54	315.03	8.30	-40.4	-41.6	20.7	0.00e+00	92	32	0	982515712	54	6155
2026-01-29 19:12:07.55	314.89	8.24	-40.5	-41.7	20.6	0.00e+00	0	32	0	984612864	54	6224
2026-01-29 19:12:08.56	314.76	8.19	-40.6	-41.8	20.7	0.00e+00	42	32	0	986710016	54	6299
2026-01-29 19:12:09.57	314.63	8.14	-40.3	-41.5	20.9	0.00e+00	0	32	0	987758592	54	6072
2026-01-29 19:12:10.58	314.49	8.09	-40.3	-41.5	20.9	0.00e+00	42	32	0	989855744	54	6100
2026-01-29 19:12:11.59	314.36	8.04	-40.5	-41.7	20.7	0.00e+00	86	32	0	991952896	54	6209
2026-01-29 19:12:12.61	314.23	7.99	-40.3	-41.5	20.9	0.00e+00	47	32	0	994050048	54	6052
2026-01-29 19:12:13.61	314.10	7.94	-40.2	-41.5	20.9	0.00e+00	92	32	0	996147200	54	6042
2026-01-29 19:12:14.62	313.97	7.89	-40.2	-41.4	21.1	0.00e+00	47	32	0	997195776	54	6011
2026-01-29 19:12:15.63	313.84	7.84	-40.1	-41.2	21.1	0.00e+00	47	32	0	999292928	54	5888
2026-01-29 19:12:16.64	313.71	7.79	-40.2	-41.4	21.0	0.00e+00	41	32	0	1001390080	54	6011
2026-01-29 19:12:17.65	313.58	7.74	-40.2	-41.4	21.1	0.00e+00	0	32	0	1003487232	54	6019
2026-01-29 19:12:18.66	313.45	7.69	-39.8	-40.9	21.3	0.00e+00	32	32	0	1005584384	54	5690
2026-01-29 19:12:19.67	313.32	7.64	-39.8	-41.0	21.4	0.00e+00	39	32	0	1007681536	52	6423
2026-01-29 19:12:20.68	313.19	7.59	-39.7	-40.9	21.4	0.00e+00	92	32	0	1008730112	52	6325
2026-01-29 19:12:21.69	313.07	7.53	-39.8	-40.9	21.5	0.00e+00	38	32	0	1010827264	52	6380
2026-01-29 19:12:22.70	312.94	7.48	-39.7	-40.8	21.6	0.00e+00	92	32	0	1012924416	52	6261
2026-01-29 19:12:23.71	312.81	7.43	-39.7	-40.8	21.6	0.00e+00	4	32	0	1015021568	52	6307
2026-01-29 19:12:24.72	312.69	7.38	-39.4	-40.5	21.9	0.00e+00	0	32	0	1017118720	52	6072
2026-01-29 19:12:25.73	312.56	7.33	-39.3	-40.4	21.9	0.00e+00	0	32	0	1018167296	52	5970
2026-01-29 19:12:26.74	312.44	7.28	-39.4	-40.4	21.9	0.00e+00	0	32	0	1020264448	52	6031
2026-01-29 19:12:27.75	312.31	7.23	-39.2	-40.2	21.9	0.00e+00	91	32	0	1022361600	52	5889
2026-01-29 19:12:28.76	312.19	7.18	-39.3	-40.4	21.9	0.00e+00	0	32	0	1024458752	52	5995
2026-01-29 19:12:29.77	312.06	7.13	-39.3	-40.4	21.9	0.00e+00	92	32	0	1026555904	52	5969
2026-01-29 19:12:30.78	311.94	7.07	-39.4	-40.5	21.9	0.00e+00	47	32	0	1027604480	52	6079
2026-01-29 19:12:31.79	311.82	7.02	-39.5	-40.6	21.8	0.00e+00	0	32	0	1029701632	52	6106
2026-01-29 19:12:32.80	311.69	6.97	-39.5	-40.6	21.8	0.00e+00	47	32	0	1031798784	52	6118
2026-01-29 19:12:33.81	311.57	6.92	-39.2	-40.2	22.0	0.00e+00	34	32	0	1033895936	52	5885
2026-01-29 19:12:34.81	311.45	6.87	-39.2	-40.3	21.9	0.00e+00	92	32	0	1035993088	52	5914
2026-01-29 19:12:35.82	311.33	6.82	-39.1	-40.1	22.2	0.00e+00	35	32	0	1037041664	52	5808
2026-01-29 19:12:36.83	311.21	6.77	-39.0	-40.1	22.1	0.00e+00	92	32	0	1039138816	52	5783
2026-01-29 19:12:37.84	311.09	6.72	-39.1	-40.1	21.8	0.00e+00	47	32	0	1041235968	52	5808
2026-01-29 19:12:38.85	310.97	6.66	-39.0	-40.0	21.7	0.00e+00	91	32	0	1043333120	52	5725
2026-01-29 19:12:39.86	310.85	6.61	-39.0	-40.1	22.0	0.00e+00	35	32	0	1045430272	52	5770
2026-01-29 19:12:40.87	310.73	6.56	-39.0	-40.1	22.1	0.00e+00	33	32	0	1046478848	52	5785
2026-01-29 19:12:41.88	310.61	6.51	-39.2	-40.2	22.1	0.00e+00	41	32	0	1048576000	52	5886
2026-01-29 19:12:42.90	310.49	6.46	-39.2	-40.2	21.9	0.00e+00	35	32	0	1050673152	52	5895
2026-01-29 19:12:43.90	310.38	6.41	-39.3	-40.4	21.8	0.00e+00	89	32	0	1052770304	52	5987
2026-01-29 19:12:44.92	310.26	6.36	-39.2	-40.3	21.9	0.00e+00	0	32	0	1054867456	52	5932
2026-01-29 19:12:45.93	310.14	6.30	-39.3	-40.3	21.8	0.00e+00	71	32	0	1055916032	52	5964
2026-01-29 19:12:46.93	310.02	6.25	-39.3	-40.4	21.9	0.00e+00	0	32	0	1058013184	52	5972
2026-01-29 19:12:47.94	309.91	6.20	-39.3	-40.3	21.9	0.00e+00	0	32	0	1060110336	52	5963
2026-01-29 19:12:48.95	309.79	6.15	-39.3	-40.4	21.8	0.00e+00	0	32	0	1062207488	52	6029
2026-01-29 19:12:49.97	309.68	6.10	-39.2	-40.2	21.9	0.00e+00	47	32	0	1064304640	52	5896
2026-01-29 19:12:50.98	309.56	6.05	-39.4	-40.4	21.7	0.00e+00	90	32	0	1065353216	52	6030
2026-01-29 19:12:51.99	309.45	5.99	-39.4	-40.5	21.8	0.00e+00	0	32	0	1067450368	52	6093
2026-01-29 19:12:53.00	309.33	5.94	-39.4	-40.5	21.7	0.00e+00	92	32	0	1069547520	52	6095
2026-01-29 19:12:54.01	309.22	5.89	-39.3	-40.3	21.8	0.00e+00	34	32	0	1071644672	52	5964
2026-01-29 19:12:55.01	309.11	5.84	-39.2	-40.3	21.9	0.00e+00	34	32	0	1073741824	52	5910
2026-01-29 19:12:56.03	308.99	5.79	-39.3	-40.4	21.9	0.00e+00	45	32	0	1075838976	52	5971
2026-01-29 19:12:57.03	308.88	5.74	-39.4	-40.5	21.8	0.00e+00	36	32	0	1076887552	52	6049
2026-01-29 19:12:58.04	308.77	5.69	-39.4	-40.5	21.7	0.00e+00	48	32	0	1078984704	52	6054
2026-01-29 19:12:59.05	308.66	5.63	-39.4	-40.6	21.7	0.00e+00	0	32	0	1081081856	52	6108
2026-01-29 19:13:00.07	308.55	5.58	-39.5	-40.7	21.6	0.00e+00	90	32	0	1083179008	52	6190
2026-01-29 19:13:01.07	308.44	5.53	-39.6	-40.7	21.5	0.00e+00	35	32	0	1085276160	52	6224
2026-01-29 19:13:02.08	308.33	5.48	-39.6	-40.7	21.5	0.00e+00	91	32	0	1086324736	52	6195
2026-01-29 19:13:03.09	308.22	5.43	-39.5	-40.7	21.6	0.00e+00	2	32	0	1088421888	52	6179
2026-01-29 19:13:04.11	308.11	5.38	-39.6	-40.7	21.5	0.00e+00	0	32	0	1090519040	52	6235
2026-01-29 19:13:05.12	308.00	5.32	-39.8	-41.0	21.3	0.00e+00	8	32	0	1092616192	52	6403
2026-01-29 19:13:06.12	307.89	5.27	-39.9	-41.1	21.1	0.00e+00	0	32	0	1094713344	52	6490
2026-01-29 19:13:07.13	307.78	5.22	-39.8	-41.0	21.3	0.00e+00	91	32	0	1095761920	52	6416
2026-01-29 19:13:08.14	307.67	5.17	-39.7	-40.9	21.3	0.00e+00	2	32	0	1097859072	52	6362
2026-01-29 19:13:09.15	307.57	5.12	-39.7	-40.9	21.3	0.00e+00	90	32	0	1099956224	52	6357
2026-01-29 19:13:10.16	307.46	5.07	-39.9	-41.1	21.2	0.00e+00	41	32	0	1102053376	52	6476
2026-01-29 19:13:11.17	307.35	5.02	-39.6	-40.8	21.3	0.00e+00	0	32	0	1104150528	52	6247
2026-01-29 19:13:12.18	307.25	4.96	-39.9	-41.1	21.1	0.00e+00	0	32	0	1105199104	52	6518
2026-01-29 19:13:13.19	307.14	4.91	-39.8	-41.0	21.1	0.00e+00	41	32	0	1107296256	52	6436
2026-01-29 19:13:14.21	307.03	4.86	-39.5	-40.7	21.5	0.00e+00	92	32	0	1109393408	52	6183
2026-01-29 19:13:15.22	306.93	4.81	-39.8	-40.9	21.3	0.00e+00	0	32	0	1111490560	52	6377
2026-01-29 19:13:16.23	306.82	4.76	-39.6	-40.7	21.3	0.00e+00	92	32	0	1113587712	52	6201
2026-01-29 19:13:17.24	306.72	4.71	-39.7	-40.8	21.3	0.00e+00	45	32	0	1114636288	52	6305
2026-01-29 19:13:18.25	306.61	4.65	-39.6	-40.8	21.4	0.00e+00	35	32	0	1116733440	52	6275
2026-01-29 19:13:19.25	306.51	4.60	-39.7	-40.8	21.3	0.00e+00	36	32	0	1118830592	52	6310
2026-01-29 19:13:20.26	306.41	4.55	-39.7	-40.9	21.1	0.00e+00	33	32	0	1120927744	52	6355
2026-01-29 19:13:21.27	306.31	4.50	-39.7	-40.9	21.2	0.00e+00	90	32	0	1123024896	52	6357
2026-01-29 19:13:22.28	306.20	4.45	-40.0	-41.3	20.8	0.00e+00	0	32	0	1124073472	52	6628
2026-01-29 19:13:23.29	306.10	4.40	-40.1	-41.4	20.8	0.00e+00	92	32	0	1126170624	52	6719
2026-01-29 19:13:24.30	306.00	4.35	-40.5	-41.8	20.4	0.00e+00	36	32	0	1128267776	52	7031
2026-01-29 19:13:25.31	305.90	4.30	-40.4	-41.7	20.5	0.00e+00	50	32	0	1130364928	52	6993
2026-01-29 19:13:26.32	305.80	4.24	-40.4	-41.7	20.5	0.00e+00	0	32	0	1132462080	52	6945
2026-01-29 19:13:27.33	305.70	4.19	-40.5	-41.8	20.3	0.00e+00	0	32	0	1133510656	52	7026
2026-01-29 19:13:28.34	305.60	4.14	-40.7	-42.1	19.9	0.00e+00	0	32	0	1135607808	52	7262
2026-01-29 19:13:29.35	305.50	4.09	-40.9	-42.4	19.5	0.00e+00	2	32	0	1137704960	54	6693
2026-01-29 19:13:30.36	305.40	4.04	-41.0	-42.5	19.5	0.00e+00	92	32	0	1139802112	54	6804
2026-01-29 19:13:31.37	305.30	3.99	-41.3	-42.8	19.2	0.00e+00	0	32	0	1141899264	54	7042
2026-01-29 19:13:32.38	305.20	3.94	-41.8	-43.5	18.5	0.00e+00	92	32	0	1143996416	54	7619
2026-01-29 19:13:33.39	305.10	3.88	-41.1	-42.5	19.7	0.00e+00	45	32	0	1145044992	56	6087
2026-01-29 19:13:34.40	305.00	3.83	-39.3	-40.5	21.4	0.00e+00	45	32	0	1147142144	52	6054
2026-01-29 19:13:35.41	304.90	3.78	-40.8	-42.2	19.7	0.00e+00	40	32	0	1149239296	54	6566
2026-01-29 19:13:36.42	304.81	3.73	-41.0	-42.5	19.4	0.00e+00	40	32	0	1151336448	54	6816
2026-01-29 19:13:37.43	304.71	3.68	-41.5	-43.1	18.9	0.00e+00	92	32	0	1153433600	54	7333
2026-01-29 19:13:38.44	304.61	3.63	-40.6	-42.0	19.7	0.00e+00	0	32	0	1154482176	54	6421
2026-01-29 19:13:39.45	304.51	3.58	-40.3	-41.6	20.2	0.00e+00	91	32	0	1156579328	54	6120
2026-01-29 19:13:40.46	304.42	3.53	-40.8	-42.3	19.7	0.00e+00	5	32	0	1158676480	54	6624
2026-01-29 19:13:41.47	304.32	3.48	-41.0	-42.5	19.3	0.00e+00	41	32	0	1160773632	54	6841
2026-01-29 19:13:42.48	304.23	3.42	-41.1	-42.6	19.3	0.00e+00	7	32	0	1162870784	54	6893
2026-01-29 19:13:43.49	304.13	3.37	-41.2	-42.7	19.2	0.00e+00	5	32	0	1163919360	54	6972
2026-01-29 19:13:44.50	304.04	3.32	-41.3	-42.8	19.0	0.00e+00	31	32	0	1166016512	54	7068
2026-01-29 19:13:45.51	303.94	3.27	-41.5	-43.2	18.9	0.00e+00	0	32	0	1168113664	54	7347
2026-01-29 19:13:46.52	303.85	3.22	-41.9	-43.7	18.4	0.00e+00	91	32	0	1170210816	56	6949
2026-01-29 19:13:47.53	303.76	3.17	-41.3	-42.9	18.9	0.00e+00	5	32	0	1172307968	54	7091
2026-01-29 19:13:48.54	303.66	3.12	-41.6	-43.2	18.5	0.00e+00	37	32	0	1173356544	54	7410
2026-01-29 19:13:49.55	303.57	3.07	-41.2	-42.8	18.8	0.00e+00	0	32	0	1175453696	54	7018
2026-01-29 19:13:50.56	303.48	3.02	-47.9	-62.6	3.6	2.19e-01	0	32	104	1177550848	60	48678
2026-01-29 19:13:51.57	303.38	2.97	-48.4	-63.6	3.6	1.51e+00	0	32	104	1177550848	60	54425
2026-01-29 19:13:52.58	303.29	2.91	-48.7	-63.8	3.6	1.51e+00	0	32	104	1177550848	60	55935
2026-01-29 19:13:53.59	303.20	2.86	-48.8	-64.0	3.6	1.51e+00	0	32	104	1177550848	60	57259
2026-01-29 19:13:54.60	303.11	2.81	-48.9	-64.2	3.6	1.51e+00	0	32	104	1177550848	60	58301
2026-01-29 19:13:55.61	303.02	2.76	-49.0	-64.2	3.6	1.51e+00	0	32	104	1177550848	60	58417
2026-01-29 19:13:56.62	302.93	2.71	-49.1	-64.2	3.6	1.51e+00	0	32	104	1177550848	60	58826
2026-01-29 19:13:57.63	302.84	2.66	-49.1	-64.3	3.6	1.51e+00	0	32	104	1177550848	60	59192
