passes_logs/2026/01/29/R4.6S_Anadyr/R4.6S_Anadyr__20260129_172303_NOAA_20_JPSS-1_rec.log

#Pass ID: 20260129_172303_NOAA 20 (JPSS-1)
#Satellite: NOAA 20 (JPSS-1)
#Configuration: NOAA 20
#almurnet v.1.7.20251203
#Start time: 2026-01-29 17:23:03

#Version: 2.2.20231116
#Station: R4.6S_Anadyr
#Location: 177.4865 lon 64.73178 lat
#TLE: 1 43013U 17073A   26028.86313978  .00000144  00000+0  89200-4 0  9993
#TLE: 2 43013  98.7648 329.6571 0000891  20.0014 340.1197 14.19541559424709

#Time	Az	El	Level	Level2	SNR	BER	BlckErr	Temp	State	Recorded	gain1	gain2
2026-01-29 17:23:03.92	31.54	0.04	-48.8	-63.7	3.5	1.51e+00	0	27	0	0	60	55560
2026-01-29 17:23:04.92	31.48	0.09	-48.9	-64.0	3.6	1.51e+00	0	29	104	0	60	57514
2026-01-29 17:23:05.93	31.42	0.15	-48.9	-64.1	3.6	1.51e+00	0	29	104	0	60	57801
2026-01-29 17:23:06.94	31.37	0.20	-48.9	-64.0	3.6	1.51e+00	0	29	104	0	60	57548
2026-01-29 17:23:07.96	31.31	0.26	-48.9	-64.1	3.6	1.51e+00	0	29	104	0	60	57768
2026-01-29 17:23:08.97	31.25	0.31	-48.9	-64.1	3.6	1.51e+00	0	29	104	0	60	57684
2026-01-29 17:23:09.98	31.19	0.36	-48.9	-64.1	3.6	1.51e+00	0	29	104	0	60	57814
2026-01-29 17:23:10.99	31.13	0.42	-48.9	-64.1	3.6	1.51e+00	0	29	104	0	60	57771
2026-01-29 17:23:12.00	31.07	0.47	-48.9	-64.1	3.6	1.51e+00	0	29	104	0	60	58171
2026-01-29 17:23:13.00	31.01	0.53	-48.9	-64.1	3.6	1.51e+00	0	29	104	0	60	57963
2026-01-29 17:23:14.01	30.95	0.58	-48.9	-64.1	3.6	1.51e+00	0	29	104	0	60	57838
2026-01-29 17:23:15.02	30.89	0.64	-48.9	-64.1	3.6	1.51e+00	0	29	104	0	60	57998
2026-01-29 17:23:16.03	30.83	0.69	-48.9	-64.1	3.6	1.51e+00	0	29	104	0	60	58191
2026-01-29 17:23:17.04	30.77	0.75	-48.8	-64.0	3.6	1.51e+00	0	29	104	0	60	57357
2026-01-29 17:23:18.05	30.71	0.80	-48.8	-64.0	3.6	1.51e+00	0	29	104	0	60	57372
2026-01-29 17:23:19.06	30.65	0.86	-48.8	-64.0	3.6	1.51e+00	0	29	104	0	60	57468
2026-01-29 17:23:20.07	30.58	0.91	-48.7	-63.9	3.6	1.51e+00	0	29	104	0	60	56896
2026-01-29 17:23:21.08	30.52	0.97	-48.6	-63.8	3.6	1.51e+00	0	29	104	0	60	56172
2026-01-29 17:23:22.09	30.46	1.02	-48.6	-63.8	3.6	1.51e+00	0	29	104	0	60	55712
2026-01-29 17:23:23.10	30.40	1.08	-48.6	-63.7	3.6	1.51e+00	0	29	104	0	60	55620
2026-01-29 17:23:24.11	30.34	1.13	-48.5	-63.6	3.6	1.51e+00	0	29	104	0	60	55010
2026-01-29 17:23:25.12	30.27	1.19	-48.4	-63.6	3.6	1.51e+00	0	29	104	0	60	54580
2026-01-29 17:23:26.13	30.21	1.24	-48.3	-63.5	3.6	1.51e+00	0	29	104	0	60	53874
2026-01-29 17:23:27.14	30.15	1.30	-48.1	-63.3	3.6	1.51e+00	0	29	104	0	60	52889
2026-01-29 17:23:28.15	30.08	1.35	-47.9	-63.1	3.6	1.51e+00	0	29	104	0	60	51589
2026-01-29 17:23:29.16	30.02	1.41	-47.6	-62.7	3.6	1.51e+00	0	29	104	0	60	49432
2026-01-29 17:23:30.17	29.96	1.46	-47.4	-62.5	3.6	1.51e+00	0	29	104	0	60	48297
2026-01-29 17:23:31.18	29.89	1.52	-47.4	-62.5	3.6	1.51e+00	0	29	104	0	60	48372
2026-01-29 17:23:32.19	29.83	1.58	-47.4	-62.5	3.6	1.51e+00	0	29	104	0	60	48284
2026-01-29 17:23:33.20	29.76	1.63	-47.4	-62.5	3.6	1.51e+00	0	29	104	0	60	48306
2026-01-29 17:23:34.21	29.70	1.69	-47.4	-62.6	3.6	1.51e+00	0	29	104	0	60	48635
2026-01-29 17:23:35.22	29.63	1.74	-47.4	-62.6	3.6	1.51e+00	0	29	104	0	60	48797
2026-01-29 17:23:36.23	29.57	1.80	-47.4	-62.6	3.6	1.51e+00	0	29	104	0	60	48773
2026-01-29 17:23:37.24	29.50	1.86	-47.4	-62.6	3.6	1.51e+00	0	29	104	0	60	48590
2026-01-29 17:23:38.25	29.43	1.91	-47.4	-62.6	3.6	1.51e+00	0	29	104	0	60	48695
2026-01-29 17:23:39.26	29.37	1.97	-47.4	-62.6	3.6	1.51e+00	0	29	104	0	60	48589
2026-01-29 17:23:40.28	29.30	2.03	-47.4	-62.6	3.6	1.51e+00	0	29	104	0	60	48827
2026-01-29 17:23:41.29	29.23	2.08	-47.4	-62.6	3.6	1.51e+00	0	29	104	0	60	48588
2026-01-29 17:23:42.30	29.17	2.14	-47.4	-62.5	3.6	1.51e+00	0	29	104	0	60	48437
2026-01-29 17:23:43.31	29.10	2.19	-47.4	-62.6	3.6	1.51e+00	0	29	104	0	60	48572
2026-01-29 17:23:44.32	29.03	2.25	-47.4	-62.5	3.6	1.51e+00	0	29	104	0	60	48045
2026-01-29 17:23:45.33	28.96	2.31	-47.4	-62.6	3.6	1.51e+00	0	29	104	0	60	48493
2026-01-29 17:23:46.34	28.90	2.36	-47.4	-62.6	3.6	1.51e+00	0	29	104	0	60	48729
2026-01-29 17:23:47.35	28.83	2.42	-47.4	-62.5	3.6	1.51e+00	0	29	104	0	60	48394
2026-01-29 17:23:48.36	28.76	2.48	-47.4	-62.6	3.6	1.51e+00	0	29	104	0	60	48484
2026-01-29 17:23:49.37	28.69	2.54	-47.4	-62.5	3.6	1.51e+00	0	29	104	0	60	48456
2026-01-29 17:23:50.38	28.62	2.59	-47.4	-62.5	3.5	1.51e+00	0	29	104	0	60	48409
2026-01-29 17:23:51.39	28.55	2.65	-47.4	-62.6	3.6	1.51e+00	0	29	104	0	60	48661
2026-01-29 17:23:52.40	28.48	2.71	-47.4	-62.5	3.6	1.51e+00	0	29	104	0	60	48378
2026-01-29 17:23:53.41	28.41	2.76	-47.4	-62.3	3.6	1.51e+00	0	29	104	0	60	46972
2026-01-29 17:23:54.42	28.34	2.82	-47.4	-62.0	3.6	1.51e+00	0	29	104	0	60	45481
2026-01-29 17:23:55.43	28.27	2.88	-47.4	-62.0	3.6	1.51e+00	0	29	104	0	60	45265
2026-01-29 17:23:56.44	28.20	2.94	-47.4	-62.4	3.6	1.51e+00	0	29	104	0	60	47648
2026-01-29 17:23:57.45	28.13	3.00	-47.4	-62.1	3.6	1.51e+00	0	29	104	0	60	46194
2026-01-29 17:23:58.46	28.05	3.05	-47.2	-59.1	3.7	1.50e+00	0	29	104	0	60	32771
2026-01-29 17:23:59.47	27.98	3.11	-46.9	-55.7	5.8	8.15e-01	47	29	104	0	60	22110
2026-01-29 17:24:00.48	27.91	3.17	-46.3	-52.3	8.6	6.20e-02	41	30	0	1048576	60	14976
2026-01-29 17:24:01.49	27.84	3.23	-45.8	-50.8	10.6	1.48e-02	0	30	0	3145728	60	12499
2026-01-29 17:24:02.50	27.76	3.28	-45.8	-50.7	10.0	1.12e-03	0	30	0	5242880	60	12400
2026-01-29 17:24:03.51	27.69	3.34	-45.4	-49.3	11.9	1.11e-01	37	30	0	7340032	60	10580
2026-01-29 17:24:04.52	27.62	3.40	-45.1	-49.1	10.8	1.02e-03	92	29	0	8388608	60	10283
2026-01-29 17:24:05.53	27.54	3.46	-47.4	-61.5	3.6	1.51e+00	0	30	104	9437184	60	42730
2026-01-29 17:24:06.54	27.47	3.52	-44.9	-48.7	5.9	1.51e+00	0	30	104	9437184	60	9811
2026-01-29 17:24:07.55	27.40	3.58	-44.0	-47.0	14.6	1.50e-06	42	29	0	9437184	60	8059
2026-01-29 17:24:08.57	27.32	3.64	-43.5	-46.1	15.5	0.00e+00	46	29	0	10485760	60	7259
2026-01-29 17:24:09.57	27.25	3.69	-43.0	-45.3	16.4	0.00e+00	4	30	0	12582912	60	6685
2026-01-29 17:24:10.59	27.17	3.75	-43.1	-45.4	16.3	0.00e+00	5	29	0	14680064	60	6753
2026-01-29 17:24:11.60	27.09	3.81	-43.1	-45.3	16.4	0.00e+00	90	29	0	16777216	60	6683
2026-01-29 17:24:12.61	27.02	3.87	-41.4	-43.0	18.8	0.00e+00	7	29	0	18874368	56	6434
2026-01-29 17:24:13.61	26.94	3.93	-41.8	-43.6	18.1	0.00e+00	92	29	0	19922944	56	6893
2026-01-29 17:24:14.62	26.87	3.99	-42.0	-43.8	17.9	0.00e+00	7	29	0	22020096	56	7075
2026-01-29 17:24:15.63	26.79	4.05	-42.0	-43.8	17.9	0.00e+00	33	30	0	24117248	56	7052
2026-01-29 17:24:16.64	26.71	4.11	-41.7	-43.4	18.5	0.00e+00	6	29	0	26214400	56	6698
2026-01-29 17:24:17.65	26.63	4.17	-41.6	-43.3	18.5	0.00e+00	6	30	0	28311552	56	6666
2026-01-29 17:24:18.66	26.56	4.22	-41.5	-43.2	18.7	0.00e+00	11	30	0	29360128	56	6540
2026-01-29 17:24:19.67	26.48	4.28	-41.4	-42.9	19.0	0.00e+00	7	29	0	31457280	56	6390
2026-01-29 17:24:20.68	26.40	4.34	-41.6	-43.2	18.8	0.00e+00	92	30	0	33554432	56	6580
2026-01-29 17:24:21.69	26.32	4.40	-41.5	-43.1	18.7	0.00e+00	42	29	0	35651584	56	6539
2026-01-29 17:24:22.70	26.24	4.46	-41.6	-43.3	18.7	0.00e+00	42	30	0	37748736	56	6639
2026-01-29 17:24:23.71	26.16	4.52	-41.7	-43.4	18.6	0.00e+00	42	30	0	39845888	56	6698
2026-01-29 17:24:24.72	26.08	4.58	-41.3	-42.9	19.0	0.00e+00	42	30	0	40894464	56	6346
2026-01-29 17:24:25.73	26.00	4.64	-41.7	-43.4	18.5	0.00e+00	26	30	0	42991616	56	6731
2026-01-29 17:24:26.74	25.92	4.70	-41.6	-43.2	18.7	0.00e+00	41	30	0	45088768	56	6594
2026-01-29 17:24:27.75	25.84	4.76	-41.5	-43.1	18.8	0.00e+00	92	30	0	47185920	56	6536
2026-01-29 17:24:28.76	25.76	4.82	-41.6	-43.2	18.7	0.00e+00	42	30	0	49283072	56	6560
2026-01-29 17:24:29.77	25.68	4.88	-41.6	-43.2	18.6	0.00e+00	90	30	0	50331648	56	6605
2026-01-29 17:24:30.78	25.59	4.94	-41.6	-43.2	18.7	0.00e+00	42	30	0	52428800	56	6560
2026-01-29 17:24:31.78	25.51	5.00	-41.4	-42.9	19.0	0.00e+00	40	30	0	54525952	56	6376
2026-01-29 17:24:32.79	25.43	5.06	-41.5	-43.1	19.0	0.00e+00	39	30	0	56623104	56	6465
2026-01-29 17:24:33.80	25.35	5.12	-41.5	-43.1	18.9	0.00e+00	0	30	0	58720256	56	6527
2026-01-29 17:24:34.81	25.26	5.18	-41.5	-43.2	18.9	0.00e+00	33	30	0	59768832	56	6541
2026-01-29 17:24:35.82	25.18	5.24	-41.4	-42.9	19.1	0.00e+00	40	30	0	61865984	56	6354
2026-01-29 17:24:36.83	25.10	5.30	-41.4	-43.0	19.0	0.00e+00	92	29	0	63963136	56	6400
2026-01-29 17:24:37.84	25.01	5.37	-41.3	-42.9	19.2	0.00e+00	0	29	0	66060288	56	6340
2026-01-29 17:24:38.85	24.93	5.43	-41.3	-42.8	19.2	0.00e+00	0	29	0	68157440	56	6286
2026-01-29 17:24:39.86	24.84	5.49	-41.3	-42.9	19.1	0.00e+00	0	29	0	69206016	56	6337
2026-01-29 17:24:40.87	24.76	5.55	-41.1	-42.6	19.4	0.00e+00	0	30	0	71303168	56	6135
2026-01-29 17:24:41.88	24.67	5.61	-41.1	-42.6	19.4	0.00e+00	2	30	0	73400320	56	6149
2026-01-29 17:24:42.89	24.58	5.67	-41.2	-42.7	19.3	0.00e+00	4	30	0	75497472	56	6231
2026-01-29 17:24:43.90	24.50	5.73	-41.1	-42.6	19.5	0.00e+00	91	29	0	77594624	56	6128
2026-01-29 17:24:44.91	24.41	5.79	-41.3	-42.8	19.3	0.00e+00	0	29	0	78643200	56	6250
2026-01-29 17:24:45.92	24.32	5.86	-41.3	-42.9	19.2	0.00e+00	92	30	0	80740352	56	6320
2026-01-29 17:24:46.93	24.23	5.92	-41.2	-42.7	19.3	0.00e+00	40	30	0	82837504	56	6232
2026-01-29 17:24:47.94	24.14	5.98	-41.2	-42.6	19.5	0.00e+00	40	30	0	84934656	56	6160
2026-01-29 17:24:48.95	24.06	6.04	-41.0	-42.5	19.6	0.00e+00	31	30	0	87031808	56	6044
2026-01-29 17:24:49.96	23.97	6.10	-41.2	-42.6	19.5	0.00e+00	42	29	0	88080384	56	6153
2026-01-29 17:24:50.97	23.88	6.16	-41.2	-42.7	19.4	0.00e+00	92	29	0	90177536	56	6224
2026-01-29 17:24:51.98	23.79	6.23	-41.4	-43.0	19.2	0.00e+00	39	30	0	92274688	56	6394
2026-01-29 17:24:52.99	23.70	6.29	-41.2	-42.7	19.4	0.00e+00	91	29	0	94371840	56	6210
2026-01-29 17:24:54.00	23.61	6.35	-41.2	-42.7	19.5	0.00e+00	0	30	0	96468992	56	6224
2026-01-29 17:24:55.00	23.52	6.41	-41.5	-43.0	19.3	0.00e+00	38	30	0	97517568	56	6417
2026-01-29 17:24:56.01	23.42	6.47	-41.5	-43.0	19.1	0.00e+00	39	30	0	99614720	56	6422
2026-01-29 17:24:57.02	23.33	6.54	-41.2	-42.6	19.5	0.00e+00	42	30	0	101711872	56	6163
2026-01-29 17:24:58.03	23.24	6.60	-41.4	-42.9	19.2	0.00e+00	90	30	0	103809024	56	6363
2026-01-29 17:24:59.04	23.15	6.66	-41.3	-42.7	19.4	0.00e+00	0	30	0	105906176	56	6231
2026-01-29 17:25:00.05	23.05	6.72	-41.5	-43.0	19.3	0.00e+00	90	30	0	108003328	56	6417
2026-01-29 17:25:01.05	22.96	6.79	-41.2	-42.7	19.5	0.00e+00	0	29	0	109051904	56	6222
2026-01-29 17:25:02.07	22.87	6.85	-41.3	-42.8	19.3	0.00e+00	31	30	0	111149056	56	6295
2026-01-29 17:25:03.08	22.77	6.91	-41.3	-42.7	19.4	0.00e+00	0	30	0	113246208	56	6235
2026-01-29 17:25:04.09	22.68	6.97	-41.3	-42.7	19.5	0.00e+00	44	30	0	115343360	56	6227
2026-01-29 17:25:05.09	22.58	7.04	-41.4	-42.9	19.4	0.00e+00	2	30	0	117440512	56	6345
2026-01-29 17:25:06.10	22.49	7.10	-41.2	-42.7	19.6	0.00e+00	0	30	0	118489088	56	6215
2026-01-29 17:25:07.11	22.39	7.16	-41.3	-42.8	19.4	0.00e+00	90	30	0	120586240	56	6291
2026-01-29 17:25:08.12	22.29	7.23	-41.4	-42.9	19.4	0.00e+00	0	30	0	122683392	56	6329
2026-01-29 17:25:09.13	22.20	7.29	-41.1	-42.6	19.7	0.00e+00	81	30	0	124780544	56	6131
2026-01-29 17:25:10.14	22.10	7.35	-41.2	-42.6	19.7	0.00e+00	44	30	0	126877696	56	6166
2026-01-29 17:25:11.15	22.00	7.42	-41.1	-42.5	19.8	0.00e+00	39	30	0	127926272	56	6056
2026-01-29 17:25:12.16	21.90	7.48	-41.0	-42.5	19.8	0.00e+00	51	30	0	130023424	56	6047
2026-01-29 17:25:13.17	21.81	7.54	-40.8	-42.1	20.1	0.00e+00	42	30	0	132120576	56	5828
2026-01-29 17:25:14.18	21.71	7.61	-40.8	-42.1	20.1	0.00e+00	90	30	0	134217728	54	6515
2026-01-29 17:25:15.19	21.61	7.67	-40.7	-42.1	20.1	0.00e+00	0	30	0	136314880	54	6480
2026-01-29 17:25:16.20	21.51	7.73	-40.6	-41.9	20.3	0.00e+00	90	30	0	137363456	54	6387
2026-01-29 17:25:17.21	21.41	7.80	-40.5	-41.8	20.4	0.00e+00	40	30	0	139460608	54	6301
2026-01-29 17:25:18.22	21.30	7.86	-40.4	-41.7	20.6	0.00e+00	37	30	0	141557760	54	6195
2026-01-29 17:25:19.23	21.20	7.93	-40.5	-41.8	20.4	0.00e+00	0	30	0	143654912	54	6257
2026-01-29 17:25:20.24	21.10	7.99	-40.5	-41.8	20.2	0.00e+00	0	30	0	145752064	54	6291
2026-01-29 17:25:21.24	21.00	8.05	-40.4	-41.7	20.5	0.00e+00	90	30	0	146800640	54	6203
2026-01-29 17:25:22.26	20.90	8.12	-40.4	-41.6	20.4	0.00e+00	0	30	0	148897792	54	6173
2026-01-29 17:25:23.26	20.79	8.18	-40.3	-41.6	20.7	0.00e+00	91	30	0	150994944	54	6117
2026-01-29 17:25:24.28	20.69	8.25	-40.2	-41.4	20.8	0.00e+00	2	30	0	153092096	54	6004
2026-01-29 17:25:25.29	20.58	8.31	-40.3	-41.5	20.7	0.00e+00	42	30	0	155189248	54	6070
2026-01-29 17:25:26.29	20.48	8.38	-40.2	-41.4	20.8	0.00e+00	41	30	0	156237824	54	6020
2026-01-29 17:25:27.30	20.38	8.44	-40.3	-41.6	20.7	0.00e+00	0	30	0	158334976	54	6107
2026-01-29 17:25:28.32	20.27	8.51	-40.4	-41.6	20.6	0.00e+00	44	30	0	160432128	54	6144
2026-01-29 17:25:29.32	20.16	8.57	-40.3	-41.6	20.7	0.00e+00	41	30	0	162529280	54	6115
2026-01-29 17:25:30.33	20.06	8.63	-40.1	-41.4	20.9	0.00e+00	92	30	0	164626432	54	5972
2026-01-29 17:25:31.34	19.95	8.70	-40.4	-41.6	20.7	0.00e+00	0	30	0	165675008	54	6172
2026-01-29 17:25:32.35	19.84	8.76	-40.4	-41.6	20.7	0.00e+00	92	30	0	167772160	54	6160
2026-01-29 17:25:33.36	19.73	8.83	-40.2	-41.5	20.8	0.00e+00	39	30	0	169869312	54	6045
2026-01-29 17:25:34.37	19.62	8.89	-40.2	-41.4	20.8	0.00e+00	39	30	0	171966464	54	6006
2026-01-29 17:25:35.38	19.52	8.96	-40.3	-41.6	20.7	0.00e+00	35	30	0	174063616	54	6129
2026-01-29 17:25:36.39	19.41	9.02	-40.4	-41.6	20.7	0.00e+00	44	30	0	176160768	54	6151
2026-01-29 17:25:37.40	19.30	9.09	-40.3	-41.6	20.6	0.00e+00	92	30	0	177209344	54	6105
2026-01-29 17:25:38.41	19.18	9.16	-40.5	-41.7	20.6	0.00e+00	0	30	0	179306496	54	6239
2026-01-29 17:25:39.41	19.07	9.22	-40.4	-41.7	20.7	0.00e+00	70	30	0	181403648	54	6211
2026-01-29 17:25:40.42	18.96	9.29	-40.4	-41.6	20.7	0.00e+00	46	30	0	183500800	54	6158
2026-01-29 17:25:41.43	18.85	9.35	-40.4	-41.6	20.7	0.00e+00	0	30	0	185597952	54	6148
2026-01-29 17:25:42.44	18.74	9.42	-40.5	-41.7	20.6	0.00e+00	0	30	0	186646528	54	6243
2026-01-29 17:25:43.45	18.62	9.48	-40.4	-41.7	20.6	0.00e+00	5	30	0	188743680	54	6205
2026-01-29 17:25:44.46	18.51	9.55	-40.5	-41.8	20.5	0.00e+00	67	30	0	190840832	54	6282
2026-01-29 17:25:45.47	18.40	9.61	-40.5	-41.8	20.6	0.00e+00	6	30	0	192937984	54	6287
2026-01-29 17:25:46.48	18.28	9.68	-40.6	-41.9	20.4	0.00e+00	92	30	0	195035136	54	6361
2026-01-29 17:25:47.49	18.17	9.75	-40.5	-41.7	20.6	0.00e+00	0	30	0	196083712	54	6241
2026-01-29 17:25:48.50	18.05	9.81	-40.4	-41.6	20.8	0.00e+00	46	30	0	198180864	54	6145
2026-01-29 17:25:49.51	17.93	9.88	-40.4	-41.7	20.6	0.00e+00	0	30	0	200278016	54	6193
2026-01-29 17:25:50.52	17.82	9.94	-40.4	-41.7	20.7	0.00e+00	44	30	0	202375168	54	6182
2026-01-29 17:25:51.53	17.70	10.01	-40.4	-41.6	20.8	0.00e+00	23	30	0	204472320	54	6140
2026-01-29 17:25:52.54	17.58	10.08	-40.4	-41.7	20.6	0.00e+00	42	30	0	205520896	54	6177
2026-01-29 17:25:53.55	17.46	10.14	-40.3	-41.5	20.8	0.00e+00	92	30	0	207618048	54	6084
2026-01-29 17:25:54.56	17.34	10.21	-40.3	-41.5	20.8	0.00e+00	42	30	0	209715200	54	6079
2026-01-29 17:25:55.57	17.22	10.28	-40.3	-41.5	20.8	0.00e+00	45	30	0	211812352	54	6101
2026-01-29 17:25:56.58	17.10	10.34	-40.3	-41.5	20.9	0.00e+00	8	30	0	213909504	54	6081
2026-01-29 17:25:57.59	16.98	10.41	-40.1	-41.3	21.1	0.00e+00	6	30	0	214958080	54	5908
2026-01-29 17:25:58.60	16.86	10.47	-40.1	-41.2	21.1	0.00e+00	45	30	0	217055232	54	5890
2026-01-29 17:25:59.61	16.74	10.54	-40.0	-41.2	21.1	0.00e+00	45	30	0	219152384	54	5870
2026-01-29 17:26:00.62	16.62	10.61	-40.1	-41.3	21.1	0.00e+00	92	30	0	221249536	54	5909
2026-01-29 17:26:01.63	16.49	10.67	-40.0	-41.2	21.2	0.00e+00	9	30	0	223346688	54	5847
2026-01-29 17:26:02.64	16.37	10.74	-40.0	-41.2	21.1	0.00e+00	92	30	0	224395264	54	5881
2026-01-29 17:26:03.65	16.24	10.81	-40.0	-41.1	21.3	0.00e+00	0	30	0	226492416	54	5824
2026-01-29 17:26:04.66	16.12	10.88	-39.9	-41.1	21.3	0.00e+00	6	30	0	228589568	54	5805
2026-01-29 17:26:05.67	15.99	10.94	-40.0	-41.2	21.2	0.00e+00	0	30	0	230686720	54	5855
2026-01-29 17:26:06.68	15.87	11.01	-39.8	-40.9	21.4	0.00e+00	39	30	0	232783872	52	6355
2026-01-29 17:26:07.69	15.74	11.08	-39.9	-41.0	21.2	0.00e+00	29	30	0	233832448	52	6461
2026-01-29 17:26:08.70	15.61	11.14	-40.0	-41.2	21.2	0.00e+00	39	30	0	235929600	52	6547
2026-01-29 17:26:09.71	15.49	11.21	-40.0	-41.2	21.2	0.00e+00	90	30	0	238026752	52	6562
2026-01-29 17:26:10.72	15.36	11.28	-40.1	-41.3	21.1	0.00e+00	0	30	0	240123904	52	6642
2026-01-29 17:26:11.73	15.23	11.34	-40.0	-41.1	21.4	0.00e+00	37	30	0	242221056	52	6509
2026-01-29 17:26:12.74	15.10	11.41	-40.1	-41.3	21.2	0.00e+00	39	30	0	244318208	52	6631
2026-01-29 17:26:13.75	14.97	11.48	-40.1	-41.2	21.2	0.00e+00	39	30	0	245366784	52	6609
2026-01-29 17:26:14.76	14.84	11.55	-40.1	-41.2	21.2	0.00e+00	0	30	0	247463936	52	6615
2026-01-29 17:26:15.77	14.70	11.61	-40.2	-41.4	21.0	0.00e+00	43	30	0	249561088	52	6745
2026-01-29 17:26:16.78	14.57	11.68	-40.3	-41.5	20.9	0.00e+00	92	30	0	251658240	52	6795
2026-01-29 17:26:17.79	14.44	11.75	-40.3	-41.5	20.8	0.00e+00	39	30	0	253755392	52	6812
2026-01-29 17:26:18.80	14.31	11.82	-40.1	-41.3	20.4	0.00e+00	90	30	0	254803968	52	6688
2026-01-29 17:26:19.81	14.17	11.88	-40.0	-41.1	21.0	0.00e+00	0	30	0	256901120	52	6538
2026-01-29 17:26:20.82	14.04	11.95	-39.7	-40.8	21.6	0.00e+00	38	30	0	258998272	52	6273
2026-01-29 17:26:21.83	13.90	12.02	-39.6	-40.7	21.7	0.00e+00	0	30	0	261095424	52	6232
2026-01-29 17:26:22.84	13.77	12.09	-39.6	-40.7	21.7	0.00e+00	0	30	0	263192576	52	6227
2026-01-29 17:26:23.85	13.63	12.15	-39.6	-40.7	21.7	0.00e+00	92	30	0	264241152	52	6205
2026-01-29 17:26:24.86	13.49	12.22	-39.4	-40.5	21.9	0.00e+00	0	30	0	266338304	52	6078
2026-01-29 17:26:25.87	13.35	12.29	-39.3	-40.4	22.1	0.00e+00	91	30	0	268435456	52	5991
2026-01-29 17:26:26.88	13.22	12.36	-39.3	-40.4	22.0	0.00e+00	3	30	0	270532608	52	5974
2026-01-29 17:26:27.89	13.08	12.42	-39.2	-40.3	22.1	0.00e+00	43	30	0	272629760	52	5915
2026-01-29 17:26:28.90	12.94	12.49	-39.2	-40.3	22.1	0.00e+00	38	30	0	273678336	52	5904
2026-01-29 17:26:29.91	12.80	12.56	-39.1	-40.1	22.2	0.00e+00	45	30	0	275775488	52	5817
2026-01-29 17:26:30.92	12.65	12.63	-39.3	-40.4	22.0	0.00e+00	10	30	0	277872640	52	5992
2026-01-29 17:26:31.93	12.51	12.69	-39.1	-40.2	22.2	0.00e+00	36	30	0	279969792	52	5858
2026-01-29 17:26:32.94	12.37	12.76	-39.1	-40.1	22.2	0.00e+00	92	30	0	282066944	52	5803
2026-01-29 17:26:33.95	12.23	12.83	-39.2	-40.2	22.2	0.00e+00	36	30	0	283115520	52	5876
2026-01-29 17:26:34.97	12.08	12.90	-39.2	-40.3	22.2	0.00e+00	0	30	0	285212672	52	5910
2026-01-29 17:26:35.98	11.94	12.97	-39.2	-40.2	22.1	0.00e+00	38	30	0	287309824	52	5884
2026-01-29 17:26:36.98	11.79	13.03	-39.2	-40.3	22.2	0.00e+00	43	30	0	289406976	52	5906
2026-01-29 17:26:37.99	11.65	13.10	-39.2	-40.2	22.2	0.00e+00	76	30	0	291504128	52	5859
2026-01-29 17:26:39.00	11.50	13.17	-39.2	-40.2	22.2	0.00e+00	40	30	0	292552704	52	5871
2026-01-29 17:26:40.02	11.35	13.24	-39.3	-40.4	22.1	0.00e+00	92	30	0	294649856	52	6007
2026-01-29 17:26:41.02	11.21	13.30	-39.1	-40.2	22.2	0.00e+00	43	30	0	296747008	52	5832
2026-01-29 17:26:42.04	11.06	13.37	-39.3	-40.3	22.1	0.00e+00	30	30	0	298844160	52	5943
2026-01-29 17:26:43.05	10.91	13.44	-39.4	-40.4	22.0	0.00e+00	0	30	0	300941312	52	6024
2026-01-29 17:26:44.06	10.76	13.51	-39.4	-40.5	22.0	0.00e+00	0	30	0	301989888	52	6047
2026-01-29 17:26:45.07	10.61	13.58	-39.4	-40.5	22.0	0.00e+00	0	30	0	304087040	52	6062
2026-01-29 17:26:46.08	10.45	13.64	-39.3	-40.4	22.0	0.00e+00	0	30	0	306184192	52	5974
2026-01-29 17:26:47.09	10.30	13.71	-39.4	-40.4	22.0	0.00e+00	92	30	0	308281344	52	6002
2026-01-29 17:26:48.10	10.15	13.78	-39.3	-40.3	22.0	0.00e+00	0	30	0	310378496	52	5944
2026-01-29 17:26:49.11	9.99	13.85	-39.3	-40.4	22.0	0.00e+00	92	30	0	312475648	52	6004
2026-01-29 17:26:50.12	9.84	13.91	-39.4	-40.5	22.0	0.00e+00	0	30	0	313524224	52	6076
2026-01-29 17:26:51.13	9.69	13.98	-39.3	-40.4	22.0	0.00e+00	0	30	0	315621376	52	5995
2026-01-29 17:26:52.14	9.53	14.05	-39.4	-40.4	22.0	0.00e+00	36	30	0	317718528	52	6025
2026-01-29 17:26:53.15	9.37	14.12	-39.4	-40.5	22.1	0.00e+00	35	30	0	319815680	52	6034
2026-01-29 17:26:54.16	9.22	14.18	-39.4	-40.5	22.0	0.00e+00	57	30	0	321912832	52	6081
2026-01-29 17:26:55.17	9.06	14.25	-39.6	-40.7	21.8	0.00e+00	44	30	0	322961408	52	6192
2026-01-29 17:26:56.18	8.90	14.32	-39.6	-40.7	21.8	0.00e+00	92	30	0	325058560	52	6208
2026-01-29 17:26:57.19	8.74	14.39	-39.7	-40.8	21.6	0.00e+00	37	30	0	327155712	52	6316
2026-01-29 17:26:58.20	8.58	14.45	-39.6	-40.8	21.8	0.00e+00	0	30	0	329252864	52	6246
2026-01-29 17:26:59.21	8.42	14.52	-39.8	-41.0	21.6	0.00e+00	0	30	0	331350016	52	6407
2026-01-29 17:27:00.22	8.26	14.59	-39.7	-40.8	21.7	0.00e+00	2	30	0	332398592	52	6303
2026-01-29 17:27:01.23	8.09	14.66	-39.7	-40.8	21.6	0.00e+00	40	30	0	334495744	52	6309
2026-01-29 17:27:02.24	7.93	14.72	-39.8	-41.0	21.5	0.00e+00	0	30	0	336592896	52	6405
2026-01-29 17:27:03.25	7.77	14.79	-39.8	-41.0	21.5	0.00e+00	92	30	0	338690048	52	6408
2026-01-29 17:27:04.26	7.60	14.86	-39.7	-40.8	21.8	0.00e+00	0	30	0	340787200	52	6263
2026-01-29 17:27:05.27	7.44	14.92	-39.6	-40.7	21.8	0.00e+00	92	30	0	341835776	52	6207
2026-01-29 17:27:06.28	7.27	14.99	-39.7	-40.8	21.8	0.00e+00	0	30	0	343932928	52	6280
2026-01-29 17:27:07.29	7.10	15.06	-39.6	-40.7	21.9	0.00e+00	0	30	0	346030080	52	6181
2026-01-29 17:27:08.30	6.94	15.12	-39.6	-40.7	21.7	0.00e+00	0	30	0	348127232	52	6234
2026-01-29 17:27:09.31	6.77	15.19	-39.6	-40.7	21.8	0.00e+00	0	30	0	350224384	52	6209
2026-01-29 17:27:10.32	6.60	15.26	-39.4	-40.5	22.0	0.00e+00	90	30	0	351272960	52	6044
2026-01-29 17:27:11.33	6.43	15.32	-39.6	-40.7	21.9	0.00e+00	43	30	0	353370112	52	6199
2026-01-29 17:27:12.34	6.26	15.39	-39.7	-40.8	21.7	0.00e+00	92	30	0	355467264	52	6246
2026-01-29 17:27:13.35	6.09	15.46	-39.8	-40.9	21.7	0.00e+00	42	30	0	357564416	52	6350
2026-01-29 17:27:14.36	5.91	15.52	-39.7	-40.8	21.7	0.00e+00	0	30	0	359661568	52	6260
2026-01-29 17:27:15.37	5.74	15.59	-39.8	-40.9	21.7	0.00e+00	0	30	0	360710144	52	6321
2026-01-29 17:27:16.38	5.57	15.66	-39.9	-41.0	21.6	0.00e+00	7	30	0	362807296	52	6442
2026-01-29 17:27:17.39	5.39	15.72	-40.0	-41.1	21.4	0.00e+00	90	30	0	364904448	52	6511
2026-01-29 17:27:18.40	5.22	15.79	-40.0	-41.1	21.3	0.00e+00	7	30	0	367001600	52	6505
2026-01-29 17:27:19.41	5.04	15.86	-40.1	-41.3	21.3	0.00e+00	92	30	0	369098752	52	6643
2026-01-29 17:27:20.42	4.86	15.92	-40.2	-41.4	21.2	0.00e+00	37	30	0	370147328	52	6717
2026-01-29 17:27:21.43	4.69	15.99	-40.2	-41.4	21.3	0.00e+00	5	30	0	372244480	52	6727
2026-01-29 17:27:22.44	4.51	16.05	-39.9	-41.0	21.6	0.00e+00	5	30	0	374341632	52	6436
2026-01-29 17:27:23.45	4.33	16.12	-39.9	-41.1	21.6	0.00e+00	5	30	0	376438784	52	6466
2026-01-29 17:27:24.46	4.15	16.18	-39.7	-40.8	21.8	0.00e+00	23	30	0	378535936	52	6289
2026-01-29 17:27:25.47	3.97	16.25	-39.5	-40.6	22.0	0.00e+00	5	30	0	380633088	52	6152
2026-01-29 17:27:26.48	3.78	16.31	-39.7	-40.8	21.7	0.00e+00	92	30	0	381681664	52	6264
2026-01-29 17:27:27.49	3.60	16.38	-39.7	-40.8	21.8	0.00e+00	44	30	0	383778816	52	6264
2026-01-29 17:27:28.49	3.42	16.44	-39.8	-40.9	21.6	0.00e+00	45	30	0	385875968	52	6370
2026-01-29 17:27:29.50	3.24	16.51	-40.0	-41.2	21.4	0.00e+00	6	30	0	387973120	52	6540
2026-01-29 17:27:30.51	3.05	16.57	-40.1	-41.3	21.6	0.00e+00	0	30	0	390070272	52	6630
2026-01-29 17:27:31.52	2.86	16.64	-39.9	-41.0	21.6	0.00e+00	0	30	0	391118848	52	6423
2026-01-29 17:27:32.53	2.68	16.70	-40.0	-41.1	21.6	0.00e+00	44	30	0	393216000	52	6535
2026-01-29 17:27:33.54	2.49	16.77	-39.5	-40.5	22.1	0.00e+00	92	30	0	395313152	52	6083
2026-01-29 17:27:34.55	2.30	16.83	-39.3	-40.4	22.1	0.00e+00	45	30	0	397410304	52	5966
2026-01-29 17:27:35.56	2.11	16.89	-39.2	-40.2	22.4	0.00e+00	92	30	0	399507456	52	5873
2026-01-29 17:27:36.57	1.92	16.96	-39.2	-40.2	22.4	0.00e+00	39	30	0	400556032	52	5855
2026-01-29 17:27:37.58	1.73	17.02	-39.1	-40.1	22.5	0.00e+00	0	30	0	402653184	52	5798
2026-01-29 17:27:38.59	1.54	17.08	-38.9	-39.9	22.7	0.00e+00	5	30	0	404750336	52	5652
2026-01-29 17:27:39.60	1.35	17.15	-38.7	-39.6	22.9	0.00e+00	7	30	0	406847488	50	6172
2026-01-29 17:27:40.61	1.15	17.21	-38.7	-39.6	22.8	0.00e+00	31	30	0	408944640	50	6162
2026-01-29 17:27:41.62	0.96	17.27	-38.7	-39.7	22.8	0.00e+00	7	30	0	409993216	50	6232
2026-01-29 17:27:42.62	0.77	17.34	-38.8	-39.7	22.8	0.00e+00	92	30	0	412090368	50	6232
2026-01-29 17:27:43.64	0.57	17.40	-38.4	-39.4	23.1	0.00e+00	7	30	0	414187520	50	5991
2026-01-29 17:27:44.64	0.38	17.46	-38.3	-39.2	23.2	0.00e+00	29	30	0	416284672	50	5888
2026-01-29 17:27:45.65	0.18	17.52	-38.1	-39.0	23.4	0.00e+00	7	30	0	418381824	50	5737
2026-01-29 17:27:46.67	359.98	17.59	-38.1	-39.0	23.5	0.00e+00	7	30	0	419430400	50	5708
2026-01-29 17:27:47.67	359.78	17.65	-37.9	-38.8	23.6	0.00e+00	0	30	0	421527552	50	5567
2026-01-29 17:27:48.68	359.58	17.71	-37.9	-38.8	23.6	0.00e+00	0	30	0	423624704	50	5596
2026-01-29 17:27:49.69	359.38	17.77	-37.8	-38.7	23.7	0.00e+00	90	30	0	425721856	48	6218
2026-01-29 17:27:50.70	359.18	17.83	-37.6	-38.5	23.9	0.00e+00	45	30	0	427819008	48	6062
2026-01-29 17:27:51.71	358.98	17.89	-37.7	-38.6	23.8	0.00e+00	90	30	0	428867584	48	6109
2026-01-29 17:27:52.72	358.77	17.95	-37.7	-38.5	23.8	0.00e+00	0	30	0	430964736	48	6088
2026-01-29 17:27:53.74	358.57	18.01	-37.7	-38.5	23.9	0.00e+00	44	30	0	433061888	48	6091
2026-01-29 17:27:54.74	358.36	18.07	-37.6	-38.4	23.9	0.00e+00	0	30	0	435159040	48	6023
2026-01-29 17:27:55.75	358.16	18.13	-37.2	-38.0	24.3	0.00e+00	44	30	0	437256192	48	5761
2026-01-29 17:27:56.76	357.95	18.19	-37.3	-38.2	24.1	0.00e+00	92	30	0	438304768	48	5835
2026-01-29 17:27:57.77	357.74	18.25	-37.2	-38.1	24.2	0.00e+00	37	30	0	440401920	48	5777
2026-01-29 17:27:58.79	357.53	18.31	-37.1	-38.0	24.3	0.00e+00	92	30	0	442499072	48	5724
2026-01-29 17:27:59.80	357.33	18.37	-37.1	-38.0	24.4	0.00e+00	35	30	0	444596224	48	5713
2026-01-29 17:28:00.81	357.12	18.43	-37.1	-37.9	24.4	0.00e+00	35	30	0	446693376	48	5685
2026-01-29 17:28:01.82	356.91	18.49	-37.0	-37.9	24.2	0.00e+00	2	30	0	448790528	48	5660
2026-01-29 17:28:02.83	356.69	18.55	-37.1	-38.0	23.4	0.00e+00	36	30	0	449839104	48	5710
2026-01-29 17:28:03.84	356.48	18.61	-37.0	-37.8	24.4	0.00e+00	90	30	0	451936256	48	5600
2026-01-29 17:28:04.85	356.27	18.66	-37.1	-37.9	24.3	0.00e+00	2	30	0	454033408	48	5668
2026-01-29 17:28:05.86	356.05	18.72	-37.1	-37.9	24.3	0.00e+00	92	30	0	456130560	48	5680
2026-01-29 17:28:06.87	355.84	18.78	-37.0	-37.8	24.4	0.00e+00	2	30	0	458227712	48	5620
2026-01-29 17:28:07.88	355.62	18.84	-37.0	-37.9	24.4	0.00e+00	92	30	0	459276288	48	5641
2026-01-29 17:28:08.89	355.41	18.89	-36.9	-37.7	24.5	0.00e+00	0	30	0	461373440	48	5560
2026-01-29 17:28:09.90	355.19	18.95	-36.8	-37.6	24.6	0.00e+00	46	30	0	463470592	48	5496
2026-01-29 17:28:10.91	354.97	19.00	-36.8	-37.6	24.6	0.00e+00	45	30	0	465567744	48	5472
2026-01-29 17:28:11.92	354.75	19.06	-36.8	-37.6	24.6	0.00e+00	45	30	0	467664896	48	5498
2026-01-29 17:28:12.93	354.53	19.12	-36.9	-37.8	24.5	0.00e+00	90	30	0	468713472	48	5575
2026-01-29 17:28:13.94	354.31	19.17	-37.0	-37.8	24.5	0.00e+00	42	30	0	470810624	48	5630
2026-01-29 17:28:14.95	354.09	19.23	-37.0	-37.8	24.4	0.00e+00	92	30	0	472907776	48	5622
2026-01-29 17:28:15.96	353.87	19.28	-37.2	-38.1	24.0	0.00e+00	42	30	0	475004928	48	5776
2026-01-29 17:28:16.97	353.65	19.33	-37.2	-38.0	24.3	0.00e+00	37	30	0	477102080	48	5738
2026-01-29 17:28:17.98	353.42	19.39	-37.1	-37.9	24.3	0.00e+00	32	30	0	478150656	48	5683
2026-01-29 17:28:18.99	353.20	19.44	-37.2	-38.0	24.3	0.00e+00	0	30	0	480247808	48	5755
2026-01-29 17:28:20.00	352.98	19.49	-37.3	-38.2	24.1	0.00e+00	91	30	0	482344960	48	5839
2026-01-29 17:28:21.01	352.75	19.55	-37.2	-38.1	24.3	0.00e+00	37	30	0	484442112	48	5777
2026-01-29 17:28:22.02	352.52	19.60	-37.3	-38.1	24.2	0.00e+00	91	30	0	486539264	48	5801
2026-01-29 17:28:23.03	352.30	19.65	-37.4	-38.2	24.1	0.00e+00	42	30	0	487587840	48	5868
2026-01-29 17:28:24.04	352.07	19.70	-37.4	-38.3	24.2	0.00e+00	0	30	0	489684992	48	5932
2026-01-29 17:28:25.05	351.84	19.75	-37.3	-38.2	24.1	0.00e+00	0	30	0	491782144	48	5843
2026-01-29 17:28:26.06	351.61	19.80	-37.4	-38.2	24.1	0.00e+00	0	30	0	493879296	48	5891
2026-01-29 17:28:27.07	351.38	19.86	-37.4	-38.3	24.2	0.00e+00	46	30	0	495976448	48	5911
2026-01-29 17:28:28.08	351.15	19.91	-37.4	-38.3	24.2	0.00e+00	45	30	0	498073600	48	5909
2026-01-29 17:28:29.09	350.91	19.95	-37.3	-38.2	24.2	0.00e+00	91	30	0	499122176	48	5835
2026-01-29 17:28:30.10	350.68	20.00	-37.2	-38.1	24.3	0.00e+00	47	30	0	501219328	48	5781
2026-01-29 17:28:31.11	350.45	20.05	-37.1	-37.9	24.5	0.00e+00	61	30	0	503316480	48	5660
2026-01-29 17:28:32.12	350.21	20.10	-36.9	-37.7	24.5	0.00e+00	0	30	0	505413632	48	5561
2026-01-29 17:28:33.13	349.98	20.15	-37.0	-37.9	24.5	0.00e+00	37	30	0	507510784	48	5633
2026-01-29 17:28:34.14	349.74	20.20	-37.0	-37.8	24.5	0.00e+00	48	30	0	508559360	48	5610
2026-01-29 17:28:35.15	349.50	20.24	-37.1	-37.9	24.4	0.00e+00	0	30	0	510656512	48	5692
2026-01-29 17:28:36.16	349.27	20.29	-36.9	-37.8	24.5	0.00e+00	92	30	0	512753664	48	5579
2026-01-29 17:28:37.17	349.03	20.34	-36.8	-37.6	24.0	0.00e+00	37	30	0	514850816	48	5452
2026-01-29 17:28:38.18	348.79	20.38	-36.6	-37.4	24.8	0.00e+00	18	30	0	516947968	46	5969
2026-01-29 17:28:39.19	348.55	20.43	-36.7	-37.4	23.5	0.00e+00	0	30	0	517996544	46	6032
2026-01-29 17:28:40.20	348.31	20.47	-36.5	-37.3	24.9	0.00e+00	0	30	0	520093696	46	5915
2026-01-29 17:28:41.21	348.07	20.52	-36.6	-37.4	24.9	0.00e+00	0	30	0	522190848	46	5975
2026-01-29 17:28:42.22	347.83	20.56	-36.7	-37.5	24.8	0.00e+00	2	30	0	524288000	46	6045
2026-01-29 17:28:43.23	347.59	20.61	-36.6	-37.4	24.8	0.00e+00	92	30	0	526385152	46	6008
2026-01-29 17:28:44.24	347.34	20.65	-36.6	-37.4	24.9	0.00e+00	0	30	0	527433728	46	6023
2026-01-29 17:28:45.25	347.10	20.69	-36.6	-37.5	24.7	0.00e+00	91	30	0	529530880	46	6038
2026-01-29 17:28:46.26	346.85	20.73	-36.6	-37.4	24.8	0.00e+00	0	30	0	531628032	46	6016
2026-01-29 17:28:47.27	346.61	20.78	-36.5	-37.3	24.9	0.00e+00	0	30	0	533725184	46	5943
2026-01-29 17:28:48.28	346.36	20.82	-36.5	-37.3	25.1	0.00e+00	0	30	0	535822336	46	5914
2026-01-29 17:28:49.29	346.12	20.86	-36.2	-37.0	25.2	0.00e+00	44	30	0	536870912	46	5750
2026-01-29 17:28:50.30	345.87	20.90	-36.3	-37.1	25.1	0.00e+00	92	30	0	538968064	46	5776
2026-01-29 17:28:51.31	345.62	20.94	-36.3	-37.1	25.1	0.00e+00	2	30	0	541065216	46	5801
2026-01-29 17:28:52.32	345.37	20.98	-36.3	-37.1	25.0	0.00e+00	92	30	0	543162368	46	5807
2026-01-29 17:28:53.33	345.12	21.02	-36.3	-37.1	25.0	0.00e+00	35	30	0	545259520	46	5818
2026-01-29 17:28:54.34	344.87	21.05	-36.3	-37.1	25.2	0.00e+00	39	30	0	546308096	46	5762
2026-01-29 17:28:55.36	344.62	21.09	-36.3	-37.1	25.0	0.00e+00	41	30	0	548405248	46	5807
2026-01-29 17:28:56.36	344.37	21.13	-36.3	-37.1	25.1	0.00e+00	41	30	0	550502400	46	5828
2026-01-29 17:28:57.38	344.12	21.17	-36.4	-37.2	25.0	0.00e+00	0	30	0	552599552	46	5886
2026-01-29 17:28:58.38	343.87	21.20	-36.6	-37.4	24.9	0.00e+00	0	30	0	554696704	46	5983
2026-01-29 17:28:59.39	343.62	21.24	-36.6	-37.4	24.8	0.00e+00	92	30	0	556793856	46	6012
2026-01-29 17:29:00.40	343.36	21.27	-36.7	-37.5	24.6	0.00e+00	36	30	0	557842432	46	6040
2026-01-29 17:29:01.41	343.11	21.31	-36.6	-37.4	24.8	0.00e+00	92	30	0	559939584	46	6009
2026-01-29 17:29:02.42	342.85	21.34	-36.7	-37.4	24.8	0.00e+00	7	30	0	562036736	46	6031
2026-01-29 17:29:03.43	342.60	21.37	-36.7	-37.5	24.8	0.00e+00	5	30	0	564133888	46	6088
2026-01-29 17:29:04.44	342.34	21.41	-36.8	-37.6	24.6	0.00e+00	2	30	0	566231040	46	6168
2026-01-29 17:29:05.45	342.09	21.44	-36.8	-37.7	24.6	0.00e+00	0	30	0	567279616	46	6184
2026-01-29 17:29:06.46	341.83	21.47	-36.8	-37.6	24.7	0.00e+00	92	30	0	569376768	46	6137
2026-01-29 17:29:07.47	341.57	21.50	-36.9	-37.7	24.7	0.00e+00	0	30	0	571473920	46	6186
2026-01-29 17:29:08.48	341.32	21.53	-36.9	-37.7	24.6	0.00e+00	92	30	0	573571072	46	6208
2026-01-29 17:29:09.49	341.06	21.56	-37.0	-37.8	24.5	0.00e+00	47	30	0	575668224	46	6303
2026-01-29 17:29:10.50	340.80	21.59	-37.3	-38.1	24.3	0.00e+00	0	30	0	576716800	46	6520
2026-01-29 17:29:11.50	340.54	21.62	-37.4	-38.2	24.1	0.00e+00	0	30	0	578813952	46	6609
2026-01-29 17:29:12.51	340.28	21.65	-37.6	-38.5	23.9	0.00e+00	39	30	0	580911104	46	6820
2026-01-29 17:29:13.52	340.02	21.68	-37.7	-38.6	23.8	0.00e+00	92	30	0	583008256	48	6132
2026-01-29 17:29:14.53	339.76	21.70	-37.7	-38.6	23.9	0.00e+00	41	30	0	585105408	48	6151
2026-01-29 17:29:15.54	339.50	21.73	-37.7	-38.6	23.7	0.00e+00	92	30	0	586153984	48	6112
2026-01-29 17:29:16.56	339.24	21.75	-37.8	-38.7	23.8	0.00e+00	41	30	0	588251136	48	6186
2026-01-29 17:29:17.56	338.98	21.78	-37.9	-38.8	23.6	0.00e+00	41	30	0	590348288	48	6254
2026-01-29 17:29:18.58	338.71	21.80	-38.1	-39.1	23.4	0.00e+00	47	30	0	592445440	48	6471
2026-01-29 17:29:19.59	338.45	21.83	-38.3	-39.2	23.2	0.00e+00	48	30	0	594542592	48	6594
2026-01-29 17:29:20.60	338.19	21.85	-38.4	-39.3	23.2	0.00e+00	88	30	0	595591168	48	6654
2026-01-29 17:29:21.60	337.93	21.87	-38.2	-39.1	23.3	0.00e+00	0	30	0	597688320	48	6536
2026-01-29 17:29:22.62	337.66	21.90	-38.2	-39.1	23.3	0.00e+00	92	30	0	599785472	48	6503
2026-01-29 17:29:23.62	337.40	21.92	-38.1	-39.0	23.6	0.00e+00	44	30	0	601882624	48	6449
2026-01-29 17:29:24.64	337.13	21.94	-38.1	-39.0	23.6	0.00e+00	92	30	0	603979776	48	6415
2026-01-29 17:29:25.65	336.86	21.96	-38.3	-39.2	23.4	0.00e+00	6	30	0	605028352	48	6572
2026-01-29 17:29:26.66	336.60	21.98	-38.5	-39.4	23.1	0.00e+00	6	30	0	607125504	48	6740
2026-01-29 17:29:27.67	336.33	22.00	-38.5	-39.4	23.2	0.00e+00	6	30	0	609222656	48	6732
2026-01-29 17:29:28.68	336.07	22.01	-38.7	-39.6	23.0	0.00e+00	0	30	0	611319808	48	6909
2026-01-29 17:29:29.69	335.80	22.03	-38.7	-39.7	22.9	0.00e+00	92	30	0	613416960	48	6992
2026-01-29 17:29:30.70	335.53	22.05	-38.7	-39.7	22.8	0.00e+00	0	30	0	614465536	50	6212
2026-01-29 17:29:31.71	335.27	22.06	-38.8	-39.8	22.8	0.00e+00	92	30	0	616562688	50	6262
2026-01-29 17:29:32.72	335.00	22.08	-39.0	-39.9	22.6	0.00e+00	47	30	0	618659840	50	6384
2026-01-29 17:29:33.73	334.73	22.10	-38.8	-39.8	22.8	0.00e+00	0	30	0	620756992	50	6284
2026-01-29 17:29:34.74	334.46	22.11	-38.9	-39.9	22.8	0.00e+00	42	30	0	622854144	50	6324
2026-01-29 17:29:35.75	334.20	22.12	-38.8	-39.7	22.9	0.00e+00	42	30	0	624951296	50	6237
2026-01-29 17:29:36.76	333.93	22.14	-38.6	-39.6	22.9	0.00e+00	92	30	0	625999872	50	6139
2026-01-29 17:29:37.77	333.66	22.15	-38.7	-39.7	23.0	0.00e+00	36	30	0	628097024	50	6174
2026-01-29 17:29:38.78	333.39	22.16	-38.6	-39.6	23.0	0.00e+00	92	30	0	630194176	50	6105
2026-01-29 17:29:39.79	333.12	22.17	-38.5	-39.4	23.2	0.00e+00	35	30	0	632291328	50	6004
2026-01-29 17:29:40.80	332.85	22.18	-38.6	-39.5	23.1	0.00e+00	0	30	0	634388480	50	6074
2026-01-29 17:29:41.81	332.58	22.19	-38.6	-39.5	23.0	0.00e+00	0	30	0	635437056	50	6087
2026-01-29 17:29:42.81	332.32	22.20	-38.7	-39.7	22.9	0.00e+00	2	30	0	637534208	50	6197
2026-01-29 17:29:43.83	332.04	22.21	-38.7	-39.7	22.9	0.00e+00	80	30	0	639631360	50	6194
2026-01-29 17:29:44.83	331.78	22.21	-38.9	-39.8	22.8	0.00e+00	0	30	0	641728512	50	6304
2026-01-29 17:29:45.84	331.51	22.22	-38.7	-39.7	22.9	0.00e+00	90	30	0	643825664	50	6190
2026-01-29 17:29:46.85	331.24	22.23	-38.8	-39.7	22.9	0.00e+00	0	30	0	644874240	50	6222
2026-01-29 17:29:47.86	330.97	22.23	-38.5	-39.5	23.1	0.00e+00	92	30	0	646971392	50	6046
2026-01-29 17:29:48.87	330.70	22.24	-38.6	-39.5	23.1	0.00e+00	0	30	0	649068544	50	6074
2026-01-29 17:29:49.88	330.43	22.24	-38.7	-39.6	22.9	0.00e+00	0	30	0	651165696	50	6143
2026-01-29 17:29:50.89	330.16	22.25	-38.8	-39.8	22.8	0.00e+00	0	30	0	653262848	50	6275
2026-01-29 17:29:51.90	329.89	22.25	-38.8	-39.8	22.9	0.00e+00	0	30	0	654311424	50	6304
2026-01-29 17:29:52.91	329.62	22.25	-38.9	-39.9	22.8	0.00e+00	92	30	0	656408576	50	6340
2026-01-29 17:29:53.92	329.35	22.25	-38.8	-39.7	22.9	0.00e+00	0	30	0	658505728	50	6230
2026-01-29 17:29:54.93	329.08	22.25	-38.6	-39.5	23.2	0.00e+00	44	30	0	660602880	50	6098
2026-01-29 17:29:55.94	328.80	22.25	-38.4	-39.3	23.2	0.00e+00	46	30	0	662700032	50	5939
2026-01-29 17:29:56.95	328.53	22.25	-38.4	-39.3	23.3	0.00e+00	46	30	0	663748608	50	5944
2026-01-29 17:29:57.96	328.26	22.25	-38.4	-39.4	23.3	0.00e+00	35	30	0	665845760	50	5985
2026-01-29 17:29:58.97	327.99	22.25	-38.4	-39.3	23.3	0.00e+00	41	30	0	667942912	50	5958
2026-01-29 17:29:59.98	327.72	22.25	-38.4	-39.4	23.3	0.00e+00	92	30	0	670040064	50	5969
2026-01-29 17:30:00.99	327.45	22.24	-38.3	-39.2	22.8	0.00e+00	36	30	0	672137216	50	5881
2026-01-29 17:30:02.00	327.18	22.24	-38.3	-39.3	23.4	0.00e+00	92	30	0	673185792	50	5911
2026-01-29 17:30:03.01	326.91	22.23	-38.2	-39.1	23.3	0.00e+00	0	30	0	675282944	50	5804
2026-01-29 17:30:04.02	326.64	22.23	-38.2	-39.1	23.5	0.00e+00	2	30	0	677380096	50	5826
2026-01-29 17:30:05.03	326.37	22.22	-37.9	-38.7	23.8	0.00e+00	0	30	0	679477248	50	5555
2026-01-29 17:30:06.04	326.10	22.22	-37.8	-38.7	23.9	0.00e+00	0	30	0	681574400	50	5543
2026-01-29 17:30:07.05	325.83	22.21	-37.7	-38.6	23.9	0.00e+00	30	30	0	682622976	50	5475
2026-01-29 17:30:08.06	325.56	22.20	-37.7	-38.6	24.0	0.00e+00	0	30	0	684720128	48	6104
2026-01-29 17:30:09.07	325.29	22.19	-37.6	-38.4	24.0	0.00e+00	92	30	0	686817280	48	6030
2026-01-29 17:30:10.07	325.03	22.18	-37.6	-38.5	24.0	0.00e+00	0	30	0	688914432	48	6044
2026-01-29 17:30:11.08	324.76	22.17	-37.7	-38.5	24.0	0.00e+00	0	30	0	691011584	48	6083
2026-01-29 17:30:12.09	324.49	22.16	-37.6	-38.4	24.0	0.00e+00	0	30	0	693108736	48	6023
2026-01-29 17:30:13.10	324.22	22.15	-37.5	-38.3	24.1	0.00e+00	0	30	0	694157312	48	5956
2026-01-29 17:30:14.11	323.95	22.14	-37.3	-38.1	24.4	0.00e+00	0	30	0	696254464	48	5813
2026-01-29 17:30:15.12	323.68	22.12	-37.2	-38.1	24.4	0.00e+00	0	30	0	698351616	48	5769
2026-01-29 17:30:16.13	323.41	22.11	-37.2	-38.0	24.4	0.00e+00	92	30	0	700448768	48	5752
2026-01-29 17:30:17.14	323.15	22.10	-37.1	-38.0	24.6	0.00e+00	46	30	0	702545920	48	5700
2026-01-29 17:30:18.15	322.88	22.08	-37.1	-38.0	24.5	0.00e+00	92	30	0	703594496	48	5702
2026-01-29 17:30:19.16	322.61	22.07	-36.7	-37.5	24.9	0.00e+00	0	30	0	705691648	46	6091
2026-01-29 17:30:20.17	322.34	22.05	-36.8	-37.6	24.5	0.00e+00	35	30	0	707788800	46	6133
2026-01-29 17:30:21.18	322.08	22.03	-36.8	-37.6	24.8	0.00e+00	47	30	0	709885952	46	6116
2026-01-29 17:30:22.19	321.81	22.02	-36.7	-37.5	24.9	0.00e+00	0	30	0	711983104	46	6063
2026-01-29 17:30:23.20	321.54	22.00	-36.8	-37.6	24.8	0.00e+00	90	30	0	713031680	46	6160
2026-01-29 17:30:24.21	321.28	21.98	-36.7	-37.5	24.8	0.00e+00	0	30	0	715128832	46	6095
2026-01-29 17:30:25.22	321.01	21.96	-36.7	-37.5	24.8	0.00e+00	92	30	0	717225984	46	6050
2026-01-29 17:30:26.23	320.75	21.94	-36.3	-37.1	25.3	0.00e+00	0	30	0	719323136	46	5779
2026-01-29 17:30:27.23	320.48	21.92	-36.4	-37.1	25.3	0.00e+00	0	30	0	721420288	46	5816
2026-01-29 17:30:28.24	320.22	21.90	-36.2	-37.0	25.3	0.00e+00	2	30	0	722468864	46	5710
2026-01-29 17:30:29.25	319.96	21.88	-36.2	-37.0	25.3	0.00e+00	0	30	0	724566016	46	5698
2026-01-29 17:30:30.26	319.69	21.85	-36.1	-36.8	25.4	0.00e+00	0	30	0	726663168	46	5617
2026-01-29 17:30:31.27	319.43	21.83	-36.0	-36.8	25.5	0.00e+00	0	30	0	728760320	46	5586
2026-01-29 17:30:32.28	319.17	21.81	-36.0	-36.7	25.5	0.00e+00	91	30	0	730857472	46	5553
2026-01-29 17:30:33.29	318.90	21.78	-36.0	-36.7	25.5	0.00e+00	43	30	0	731906048	46	5555
2026-01-29 17:30:34.30	318.64	21.76	-36.0	-36.8	25.6	0.00e+00	58	30	0	734003200	46	5568
2026-01-29 17:30:35.31	318.38	21.73	-35.9	-36.7	25.5	0.00e+00	0	30	0	736100352	46	5536
2026-01-29 17:30:36.32	318.12	21.70	-35.9	-36.7	25.4	0.00e+00	44	30	0	738197504	46	5532
2026-01-29 17:30:37.33	317.86	21.68	-36.1	-36.9	25.4	0.00e+00	35	30	0	740294656	46	5632
2026-01-29 17:30:38.34	317.60	21.65	-36.1	-36.9	25.4	0.00e+00	43	30	0	741343232	46	5648
2026-01-29 17:30:39.35	317.34	21.62	-36.2	-37.0	25.2	0.00e+00	91	30	0	743440384	46	5736
2026-01-29 17:30:40.36	317.08	21.59	-36.2	-37.0	24.9	0.00e+00	43	30	0	745537536	46	5700
2026-01-29 17:30:41.37	316.82	21.56	-36.4	-37.2	25.1	0.00e+00	91	30	0	747634688	46	5853
2026-01-29 17:30:42.38	316.56	21.53	-36.3	-37.1	25.2	0.00e+00	5	30	0	749731840	46	5773
2026-01-29 17:30:43.39	316.30	21.50	-36.6	-37.4	24.9	0.00e+00	0	30	0	750780416	46	5967
2026-01-29 17:30:44.40	316.04	21.47	-36.3	-37.0	25.2	0.00e+00	7	30	0	752877568	46	5757
2026-01-29 17:30:45.41	315.79	21.44	-36.2	-37.0	25.4	0.00e+00	5	30	0	754974720	46	5705
2026-01-29 17:30:46.42	315.53	21.41	-36.2	-36.9	25.4	0.00e+00	91	30	0	757071872	46	5683
2026-01-29 17:30:47.43	315.27	21.38	-36.3	-37.1	25.2	0.00e+00	42	30	0	759169024	46	5770
2026-01-29 17:30:48.44	315.02	21.34	-36.5	-37.3	25.1	0.00e+00	92	30	0	761266176	46	5903
2026-01-29 17:30:49.45	314.76	21.31	-36.6	-37.4	25.0	0.00e+00	0	30	0	762314752	46	5972
2026-01-29 17:30:50.46	314.51	21.27	-36.7	-37.5	24.8	0.00e+00	5	30	0	764411904	46	6091
2026-01-29 17:30:51.47	314.26	21.24	-36.8	-37.6	24.8	0.00e+00	5	30	0	766509056	46	6173
2026-01-29 17:30:52.48	314.00	21.20	-37.0	-37.8	24.6	0.00e+00	6	30	0	768606208	46	6296
2026-01-29 17:30:53.49	313.75	21.17	-37.2	-38.0	24.5	0.00e+00	59	30	0	770703360	46	6416
2026-01-29 17:30:54.50	313.50	21.13	-37.3	-38.1	24.4	0.00e+00	44	30	0	771751936	46	6490
2026-01-29 17:30:55.50	313.25	21.09	-37.4	-38.2	24.3	0.00e+00	90	30	0	773849088	46	6591
2026-01-29 17:30:56.51	313.00	21.06	-37.4	-38.3	24.2	0.00e+00	0	30	0	775946240	46	6627
2026-01-29 17:30:57.52	312.75	21.02	-37.5	-38.4	24.1	0.00e+00	92	30	0	778043392	46	6708
2026-01-29 17:30:58.53	312.50	20.98	-37.6	-38.5	24.1	0.00e+00	40	30	0	780140544	46	6775
2026-01-29 17:30:59.54	312.25	20.94	-37.7	-38.6	24.0	0.00e+00	43	30	0	781189120	48	6119
2026-01-29 17:31:00.55	312.00	20.90	-37.6	-38.5	23.9	0.00e+00	0	30	0	783286272	48	6055
2026-01-29 17:31:01.56	311.75	20.86	-37.7	-38.6	24.0	0.00e+00	43	30	0	785383424	48	6130
2026-01-29 17:31:02.57	311.51	20.82	-37.7	-38.5	23.9	0.00e+00	92	30	0	787480576	48	6101
2026-01-29 17:31:03.58	311.26	20.78	-37.8	-38.7	23.9	0.00e+00	7	30	0	789577728	48	6194
2026-01-29 17:31:04.59	311.02	20.74	-37.8	-38.6	23.9	0.00e+00	92	30	0	790626304	48	6161
2026-01-29 17:31:05.60	310.77	20.69	-37.9	-38.8	23.8	0.00e+00	8	30	0	792723456	48	6305
2026-01-29 17:31:06.61	310.53	20.65	-38.1	-39.0	23.6	0.00e+00	43	30	0	794820608	48	6446
2026-01-29 17:31:07.62	310.28	20.61	-38.2	-39.1	23.6	0.00e+00	44	30	0	796917760	48	6477
2026-01-29 17:31:08.63	310.04	20.57	-38.2	-39.1	23.6	0.00e+00	6	30	0	799014912	48	6538
2026-01-29 17:31:09.63	309.80	20.52	-38.1	-38.9	23.6	0.00e+00	92	30	0	800063488	48	6390
2026-01-29 17:31:10.64	309.56	20.48	-38.1	-38.9	23.6	0.00e+00	7	30	0	802160640	48	6389
2026-01-29 17:31:11.65	309.32	20.43	-38.2	-39.1	23.5	0.00e+00	92	30	0	804257792	48	6522
2026-01-29 17:31:12.66	309.08	20.39	-38.3	-39.2	23.2	0.00e+00	7	30	0	806354944	48	6552
2026-01-29 17:31:13.67	308.84	20.34	-38.3	-39.2	23.4	0.00e+00	0	30	0	808452096	48	6555
2026-01-29 17:31:14.68	308.60	20.29	-38.4	-39.4	23.3	0.00e+00	0	30	0	809500672	48	6702
2026-01-29 17:31:15.69	308.36	20.25	-38.5	-39.4	23.2	0.00e+00	0	30	0	811597824	48	6737
2026-01-29 17:31:16.70	308.13	20.20	-38.5	-39.4	23.2	0.00e+00	6	30	0	813694976	48	6724
2026-01-29 17:31:17.71	307.89	20.15	-38.6	-39.5	23.1	0.00e+00	45	30	0	815792128	48	6834
2026-01-29 17:31:18.72	307.65	20.10	-38.6	-39.6	23.0	0.00e+00	90	30	0	817889280	48	6868
2026-01-29 17:31:19.73	307.42	20.06	-38.6	-39.5	23.1	0.00e+00	44	30	0	818937856	50	6083
2026-01-29 17:31:20.74	307.18	20.01	-38.4	-39.3	23.2	0.00e+00	91	30	0	821035008	50	5961
2026-01-29 17:31:21.75	306.95	19.96	-38.5	-39.4	23.3	0.00e+00	45	30	0	823132160	50	6007
2026-01-29 17:31:22.76	306.72	19.91	-38.5	-39.4	23.2	0.00e+00	45	30	0	825229312	50	6003
2026-01-29 17:31:23.77	306.49	19.86	-38.4	-39.4	22.9	0.00e+00	51	30	0	827326464	50	5972
2026-01-29 17:31:24.78	306.25	19.81	-38.6	-39.6	23.0	0.00e+00	45	30	0	828375040	50	6132
2026-01-29 17:31:25.79	306.02	19.76	-38.5	-39.5	23.1	0.00e+00	92	30	0	830472192	50	6036
2026-01-29 17:31:26.80	305.79	19.71	-38.2	-39.1	23.2	0.00e+00	0	30	0	832569344	50	5782
2026-01-29 17:31:27.81	305.57	19.65	-38.3	-39.2	23.4	0.00e+00	92	30	0	834666496	50	5869
2026-01-29 17:31:28.82	305.34	19.60	-38.3	-39.2	23.4	0.00e+00	37	30	0	836763648	50	5855
2026-01-29 17:31:29.83	305.11	19.55	-38.3	-39.2	23.4	0.00e+00	37	30	0	837812224	50	5851
2026-01-29 17:31:30.84	304.88	19.50	-38.3	-39.3	23.3	0.00e+00	0	30	0	839909376	50	5902
2026-01-29 17:31:31.84	304.66	19.44	-38.6	-39.5	23.2	0.00e+00	0	30	0	842006528	50	6094
2026-01-29 17:31:32.85	304.44	19.39	-38.6	-39.6	23.1	0.00e+00	88	30	0	844103680	50	6104
2026-01-29 17:31:33.86	304.21	19.34	-38.5	-39.4	23.2	0.00e+00	0	30	0	846200832	50	5988
2026-01-29 17:31:34.87	303.99	19.28	-38.5	-39.5	23.1	0.00e+00	92	30	0	847249408	50	6061
2026-01-29 17:31:35.88	303.77	19.23	-38.4	-39.3	23.3	0.00e+00	43	30	0	849346560	50	5912
2026-01-29 17:31:36.89	303.54	19.17	-38.5	-39.4	23.3	0.00e+00	34	30	0	851443712	50	6010
2026-01-29 17:31:37.90	303.32	19.12	-38.2	-39.1	23.4	0.00e+00	0	30	0	853540864	50	5795
2026-01-29 17:31:38.91	303.10	19.06	-38.4	-39.3	23.4	0.00e+00	4	30	0	855638016	50	5913
2026-01-29 17:31:39.92	302.88	19.01	-38.5	-39.4	23.3	0.00e+00	2	30	0	857735168	50	6015
2026-01-29 17:31:40.93	302.67	18.95	-38.3	-39.2	23.4	0.00e+00	38	30	0	858783744	50	5894
2026-01-29 17:31:41.94	302.45	18.90	-38.4	-39.4	23.2	0.00e+00	91	30	0	860880896	50	5984
2026-01-29 17:31:42.95	302.23	18.84	-38.5	-39.4	23.3	0.00e+00	42	30	0	862978048	50	5994
2026-01-29 17:31:43.96	302.01	18.78	-38.6	-39.6	23.1	0.00e+00	90	30	0	865075200	50	6110
2026-01-29 17:31:44.97	301.80	18.72	-38.6	-39.5	23.1	0.00e+00	39	30	0	867172352	50	6102
2026-01-29 17:31:45.98	301.58	18.67	-38.7	-39.7	23.0	0.00e+00	38	30	0	868220928	50	6207
2026-01-29 17:31:46.99	301.37	18.61	-38.5	-39.5	23.1	0.00e+00	0	30	0	870318080	50	6060
2026-01-29 17:31:48.00	301.16	18.55	-38.4	-39.3	23.3	0.00e+00	2	30	0	872415232	50	5941
2026-01-29 17:31:49.01	300.95	18.49	-38.3	-39.2	23.4	0.00e+00	91	30	0	874512384	50	5895
2026-01-29 17:31:50.02	300.74	18.43	-38.4	-39.3	23.3	0.00e+00	37	30	0	876609536	50	5924
2026-01-29 17:31:51.03	300.53	18.37	-38.4	-39.4	23.2	0.00e+00	91	30	0	877658112	50	5994
2026-01-29 17:31:52.04	300.32	18.32	-38.3	-39.3	23.3	0.00e+00	0	30	0	879755264	50	5899
2026-01-29 17:31:53.05	300.11	18.26	-38.4	-39.3	23.3	0.00e+00	0	30	0	881852416	50	5939
2026-01-29 17:31:54.06	299.90	18.20	-38.5	-39.5	23.2	0.00e+00	0	30	0	883949568	50	6063
2026-01-29 17:31:55.07	299.69	18.14	-38.3	-39.2	23.4	0.00e+00	0	30	0	886046720	50	5857
2026-01-29 17:31:56.08	299.49	18.08	-38.3	-39.2	23.4	0.00e+00	92	30	0	887095296	50	5852
2026-01-29 17:31:57.09	299.28	18.02	-38.3	-39.2	23.3	0.00e+00	44	30	0	889192448	50	5885
2026-01-29 17:31:58.10	299.08	17.96	-38.3	-39.2	23.4	0.00e+00	92	30	0	891289600	50	5881
2026-01-29 17:31:59.11	298.87	17.89	-38.3	-39.2	23.3	0.00e+00	0	30	0	893386752	50	5892
2026-01-29 17:32:00.12	298.67	17.83	-38.3	-39.2	23.4	0.00e+00	44	30	0	895483904	50	5848
2026-01-29 17:32:01.13	298.47	17.77	-38.3	-39.2	23.4	0.00e+00	44	30	0	897581056	50	5892
2026-01-29 17:32:02.14	298.27	17.71	-38.2	-39.1	23.3	0.00e+00	0	30	0	898629632	50	5786
2026-01-29 17:32:03.15	298.07	17.65	-38.2	-39.1	23.3	0.00e+00	0	30	0	900726784	50	5826
2026-01-29 17:32:04.16	297.87	17.59	-38.2	-39.2	23.4	0.00e+00	37	30	0	902823936	50	5829
2026-01-29 17:32:05.17	297.67	17.53	-38.1	-39.1	23.6	0.00e+00	92	30	0	904921088	50	5765
2026-01-29 17:32:06.18	297.47	17.46	-38.1	-39.0	23.5	0.00e+00	42	30	0	907018240	50	5755
2026-01-29 17:32:07.19	297.27	17.40	-38.2	-39.1	23.4	0.00e+00	92	30	0	908066816	50	5777
2026-01-29 17:32:08.20	297.08	17.34	-38.1	-39.0	23.5	0.00e+00	42	30	0	910163968	50	5737
2026-01-29 17:32:09.21	296.88	17.27	-38.1	-39.0	23.5	0.00e+00	44	30	0	912261120	50	5724
2026-01-29 17:32:10.22	296.69	17.21	-38.1	-39.0	23.6	0.00e+00	0	30	0	914358272	50	5712
2026-01-29 17:32:11.23	296.49	17.15	-38.2	-39.1	23.4	0.00e+00	0	30	0	916455424	50	5825
2026-01-29 17:32:12.24	296.30	17.09	-38.3	-39.3	23.3	0.00e+00	90	30	0	917504000	50	5906
2026-01-29 17:32:13.25	296.11	17.02	-38.4	-39.3	23.3	0.00e+00	0	30	0	919601152	50	5957
2026-01-29 17:32:14.26	295.91	16.96	-38.4	-39.3	23.3	0.00e+00	92	30	0	921698304	50	5943
2026-01-29 17:32:15.27	295.72	16.89	-38.6	-39.5	23.1	0.00e+00	2	30	0	923795456	50	6091
2026-01-29 17:32:16.28	295.53	16.83	-38.5	-39.4	23.1	0.00e+00	0	30	0	925892608	50	5995
2026-01-29 17:32:17.29	295.35	16.77	-38.7	-39.6	22.9	0.00e+00	0	30	0	926941184	50	6146
2026-01-29 17:32:18.30	295.16	16.70	-38.7	-39.6	23.0	0.00e+00	0	30	0	929038336	50	6164
2026-01-29 17:32:19.31	294.97	16.64	-38.8	-39.8	22.8	0.00e+00	87	30	0	931135488	50	6262
2026-01-29 17:32:20.32	294.78	16.57	-38.8	-39.8	22.8	0.00e+00	0	30	0	933232640	50	6280
2026-01-29 17:32:21.33	294.60	16.51	-38.8	-39.8	22.9	0.00e+00	90	30	0	935329792	50	6271
2026-01-29 17:32:22.34	294.41	16.44	-38.8	-39.8	22.9	0.00e+00	40	30	0	936378368	50	6258
2026-01-29 17:32:23.35	294.23	16.38	-38.8	-39.7	22.9	0.00e+00	41	30	0	938475520	50	6229
2026-01-29 17:32:24.36	294.05	16.31	-38.8	-39.8	22.9	0.00e+00	39	30	0	940572672	50	6247
2026-01-29 17:32:25.37	293.86	16.25	-38.8	-39.7	22.9	0.00e+00	42	30	0	942669824	50	6219
2026-01-29 17:32:26.38	293.68	16.18	-38.5	-39.4	23.2	0.00e+00	2	30	0	944766976	50	6018
2026-01-29 17:32:27.39	293.50	16.12	-38.5	-39.4	23.1	0.00e+00	5	30	0	945815552	50	6027
2026-01-29 17:32:28.40	293.32	16.05	-38.5	-39.4	23.1	0.00e+00	92	30	0	947912704	50	6020
2026-01-29 17:32:29.41	293.14	15.98	-38.6	-39.6	23.0	0.00e+00	6	30	0	950009856	50	6135
2026-01-29 17:32:30.42	292.96	15.92	-38.6	-39.5	23.0	0.00e+00	92	30	0	952107008	50	6096
2026-01-29 17:32:31.43	292.79	15.85	-38.7	-39.7	22.9	0.00e+00	0	30	0	954204160	50	6174
2026-01-29 17:32:32.44	292.61	15.79	-38.8	-39.8	22.8	0.00e+00	0	30	0	955252736	50	6262
2026-01-29 17:32:33.45	292.43	15.72	-38.7	-39.7	22.8	0.00e+00	0	30	0	957349888	50	6203
2026-01-29 17:32:34.46	292.26	15.65	-38.9	-39.9	22.7	0.00e+00	0	30	0	959447040	50	6356
2026-01-29 17:32:35.47	292.08	15.59	-39.0	-40.0	22.6	0.00e+00	92	30	0	961544192	50	6400
2026-01-29 17:32:36.48	291.91	15.52	-38.8	-39.8	22.7	0.00e+00	0	30	0	963641344	50	6283
2026-01-29 17:32:37.49	291.74	15.45	-38.8	-39.8	22.9	0.00e+00	91	30	0	965738496	50	6264
2026-01-29 17:32:38.50	291.56	15.39	-38.5	-39.5	23.1	0.00e+00	0	30	0	966787072	50	6060
2026-01-29 17:32:39.51	291.39	15.32	-38.4	-39.4	23.1	0.00e+00	34	30	0	968884224	50	5983
2026-01-29 17:32:40.52	291.22	15.25	-38.4	-39.3	23.2	0.00e+00	0	30	0	970981376	50	5939
2026-01-29 17:32:41.53	291.05	15.19	-38.4	-39.3	23.3	0.00e+00	0	30	0	973078528	50	5953
2026-01-29 17:32:42.54	290.88	15.12	-38.3	-39.3	23.2	0.00e+00	92	30	0	975175680	50	5911
2026-01-29 17:32:43.55	290.71	15.05	-38.3	-39.2	23.3	0.00e+00	52	30	0	976224256	50	5865
2026-01-29 17:32:44.56	290.55	14.99	-38.3	-39.2	23.3	0.00e+00	92	30	0	978321408	50	5855
2026-01-29 17:32:45.57	290.38	14.92	-38.3	-39.2	23.4	0.00e+00	40	30	0	980418560	50	5876
2026-01-29 17:32:46.58	290.21	14.85	-38.4	-39.3	23.2	0.00e+00	92	30	0	982515712	50	5926
2026-01-29 17:32:47.59	290.05	14.79	-38.3	-39.2	23.4	0.00e+00	46	30	0	984612864	50	5855
2026-01-29 17:32:48.60	289.88	14.72	-38.3	-39.3	23.2	0.00e+00	6	30	0	985661440	50	5912
2026-01-29 17:32:49.61	289.72	14.65	-38.3	-39.2	23.2	0.00e+00	7	30	0	987758592	50	5867
2026-01-29 17:32:50.62	289.56	14.58	-38.3	-39.2	23.4	0.00e+00	45	30	0	989855744	50	5855
2026-01-29 17:32:51.63	289.39	14.52	-38.3	-39.2	23.2	0.00e+00	92	30	0	991952896	50	5877
2026-01-29 17:32:52.64	289.23	14.45	-38.2	-39.1	23.5	0.00e+00	6	30	0	994050048	50	5828
2026-01-29 17:32:53.65	289.07	14.38	-38.2	-39.2	23.3	0.00e+00	92	30	0	995098624	50	5842
2026-01-29 17:32:54.66	288.91	14.31	-38.0	-38.9	23.5	0.00e+00	6	30	0	997195776	50	5684
2026-01-29 17:32:55.67	288.75	14.25	-37.8	-38.8	23.7	0.00e+00	0	30	0	999292928	50	5567
2026-01-29 17:32:56.68	288.59	14.18	-38.0	-38.9	23.6	0.00e+00	0	30	0	1001390080	50	5634
2026-01-29 17:32:57.69	288.44	14.11	-37.7	-38.6	23.7	0.00e+00	42	30	0	1003487232	48	6138
2026-01-29 17:32:58.70	288.28	14.04	-37.8	-38.7	23.7	0.00e+00	92	30	0	1004535808	48	6225
2026-01-29 17:32:59.71	288.12	13.97	-37.6	-38.4	23.9	0.00e+00	41	30	0	1006632960	48	6028
2026-01-29 17:33:00.71	287.97	13.91	-37.5	-38.4	24.0	0.00e+00	90	30	0	1008730112	48	6003
2026-01-29 17:33:01.73	287.81	13.84	-37.6	-38.5	23.8	0.00e+00	41	30	0	1010827264	48	6041
2026-01-29 17:33:02.73	287.66	13.77	-37.4	-38.3	24.2	0.00e+00	38	30	0	1012924416	48	5905
2026-01-29 17:33:03.74	287.51	13.70	-37.4	-38.2	24.0	0.00e+00	40	30	0	1013972992	48	5872
2026-01-29 17:33:04.75	287.35	13.64	-37.5	-38.4	23.9	0.00e+00	39	30	0	1016070144	48	5981
2026-01-29 17:33:05.76	287.20	13.57	-37.5	-38.3	23.9	0.00e+00	47	30	0	1018167296	48	5961
2026-01-29 17:33:06.77	287.05	13.50	-37.5	-38.4	23.8	0.00e+00	44	30	0	1020264448	48	6017
2026-01-29 17:33:07.78	286.90	13.43	-37.5	-38.4	23.9	0.00e+00	92	30	0	1022361600	48	6009
2026-01-29 17:33:08.80	286.75	13.36	-37.5	-38.4	23.5	0.00e+00	2	30	0	1023410176	48	5986
2026-01-29 17:33:09.81	286.60	13.30	-37.3	-38.2	24.0	0.00e+00	92	30	0	1025507328	48	5840
2026-01-29 17:33:10.82	286.45	13.23	-37.4	-38.2	24.0	0.00e+00	0	30	0	1027604480	48	5882
2026-01-29 17:33:11.83	286.30	13.16	-37.3	-38.2	24.1	0.00e+00	46	30	0	1029701632	48	5839
2026-01-29 17:33:12.84	286.15	13.09	-37.2	-38.1	24.1	0.00e+00	0	30	0	1031798784	48	5782
2026-01-29 17:33:13.85	286.01	13.03	-37.3	-38.1	23.5	0.00e+00	0	30	0	1033895936	48	5817
2026-01-29 17:33:14.86	285.86	12.96	-37.3	-38.2	24.2	0.00e+00	92	30	0	1034944512	48	5833
2026-01-29 17:33:15.87	285.72	12.89	-37.3	-38.2	24.0	0.00e+00	0	30	0	1037041664	48	5867
2026-01-29 17:33:16.88	285.57	12.82	-37.3	-38.2	24.0	0.00e+00	90	30	0	1039138816	48	5873
2026-01-29 17:33:17.89	285.43	12.75	-37.4	-38.2	24.0	0.00e+00	42	30	0	1041235968	48	5882
2026-01-29 17:33:18.89	285.29	12.69	-37.4	-38.2	24.1	0.00e+00	0	30	0	1043333120	48	5887
2026-01-29 17:33:19.90	285.14	12.62	-37.5	-38.4	23.9	0.00e+00	0	30	0	1044381696	48	5968
2026-01-29 17:33:20.92	285.00	12.55	-37.5	-38.4	23.9	0.00e+00	0	30	0	1046478848	48	5978
2026-01-29 17:33:21.92	284.86	12.48	-37.5	-38.4	24.0	0.00e+00	91	30	0	1048576000	48	5974
2026-01-29 17:33:22.93	284.72	12.42	-37.5	-38.3	24.0	0.00e+00	0	30	0	1050673152	48	5946
2026-01-29 17:33:23.94	284.58	12.35	-37.6	-38.5	23.8	0.00e+00	92	30	0	1052770304	48	6063
2026-01-29 17:33:24.95	284.44	12.28	-37.5	-38.3	23.9	0.00e+00	41	30	0	1053818880	48	5950
2026-01-29 17:33:25.96	284.30	12.21	-37.7	-38.5	23.8	0.00e+00	68	30	0	1055916032	48	6095
2026-01-29 17:33:26.97	284.17	12.14	-37.6	-38.4	23.9	0.00e+00	38	30	0	1058013184	48	6029
2026-01-29 17:33:27.98	284.03	12.08	-37.6	-38.5	23.9	0.00e+00	41	30	0	1060110336	48	6085
2026-01-29 17:33:28.99	283.89	12.01	-37.8	-38.7	23.7	0.00e+00	92	30	0	1062207488	48	6184
2026-01-29 17:33:30.00	283.76	11.94	-37.7	-38.6	23.7	0.00e+00	41	30	0	1063256064	48	6124
2026-01-29 17:33:31.01	283.62	11.87	-37.8	-38.7	23.6	0.00e+00	92	30	0	1065353216	48	6192
2026-01-29 17:33:32.02	283.49	11.81	-37.8	-38.7	23.6	0.00e+00	2	30	0	1067450368	48	6198
2026-01-29 17:33:33.03	283.35	11.74	-37.9	-38.8	23.5	0.00e+00	0	30	0	1069547520	48	6269
2026-01-29 17:33:34.05	283.22	11.67	-38.1	-39.0	23.4	0.00e+00	0	30	0	1071644672	48	6406
2026-01-29 17:33:35.05	283.09	11.60	-38.1	-39.0	23.3	0.00e+00	0	30	0	1072693248	48	6444
2026-01-29 17:33:36.07	282.95	11.54	-38.1	-39.0	23.4	0.00e+00	0	30	0	1074790400	48	6419
2026-01-29 17:33:37.08	282.82	11.47	-38.2	-39.2	23.2	0.00e+00	0	30	0	1076887552	48	6550
2026-01-29 17:33:38.09	282.69	11.40	-38.1	-39.0	23.3	0.00e+00	92	30	0	1078984704	48	6421
2026-01-29 17:33:39.10	282.56	11.33	-38.1	-39.0	23.4	0.00e+00	0	30	0	1081081856	48	6430
2026-01-29 17:33:40.11	282.43	11.27	-38.0	-38.9	23.4	0.00e+00	92	30	0	1082130432	48	6376
2026-01-29 17:33:41.12	282.30	11.20	-38.1	-39.0	23.3	0.00e+00	35	30	0	1084227584	48	6422
2026-01-29 17:33:42.13	282.17	11.13	-38.0	-38.9	23.4	0.00e+00	0	30	0	1086324736	48	6383
2026-01-29 17:33:43.14	282.04	11.06	-37.9	-38.9	23.3	0.00e+00	0	30	0	1088421888	48	6323
2026-01-29 17:33:44.14	281.92	11.00	-37.9	-38.9	23.5	0.00e+00	36	30	0	1090519040	48	6323
2026-01-29 17:33:45.15	281.79	10.93	-37.9	-38.8	23.5	0.00e+00	92	30	0	1091567616	48	6305
2026-01-29 17:33:46.16	281.66	10.86	-38.0	-38.9	23.5	0.00e+00	0	30	0	1093664768	48	6347
2026-01-29 17:33:47.17	281.54	10.80	-37.8	-38.8	23.5	0.00e+00	91	30	0	1095761920	48	6248
2026-01-29 17:33:48.18	281.41	10.73	-38.1	-39.0	23.4	0.00e+00	2	30	0	1097859072	48	6413
2026-01-29 17:33:49.19	281.29	10.66	-38.1	-39.0	23.3	0.00e+00	42	30	0	1099956224	48	6423
2026-01-29 17:33:50.20	281.17	10.60	-38.2	-39.1	23.2	0.00e+00	40	30	0	1102053376	48	6531
2026-01-29 17:33:51.21	281.04	10.53	-38.3	-39.2	23.1	0.00e+00	42	30	0	1103101952	48	6595
2026-01-29 17:33:52.22	280.92	10.46	-38.4	-39.3	22.9	0.00e+00	16	30	0	1105199104	48	6656
2026-01-29 17:33:53.23	280.80	10.40	-38.5	-39.5	22.9	0.00e+00	0	30	0	1107296256	48	6776
2026-01-29 17:33:54.24	280.68	10.33	-38.6	-39.6	22.8	0.00e+00	92	30	0	1109393408	48	6911
2026-01-29 17:33:55.25	280.56	10.26	-38.6	-39.6	22.6	0.00e+00	0	30	0	1111490560	48	6906
2026-01-29 17:33:56.26	280.43	10.20	-38.5	-39.5	22.7	0.00e+00	45	30	0	1112539136	48	6823
2026-01-29 17:33:57.27	280.32	10.13	-38.6	-39.6	22.7	0.00e+00	0	30	0	1114636288	48	6872
2026-01-29 17:33:58.28	280.20	10.06	-38.7	-39.7	22.6	0.00e+00	0	30	0	1116733440	48	6987
2026-01-29 17:33:59.29	280.08	10.00	-38.7	-39.6	22.7	0.00e+00	0	30	0	1118830592	48	6920
2026-01-29 17:34:00.30	279.96	9.93	-38.6	-39.6	22.7	0.00e+00	39	30	0	1120927744	48	6875
2026-01-29 17:34:01.31	279.84	9.86	-38.7	-39.7	22.6	0.00e+00	90	30	0	1121976320	48	6965
2026-01-29 17:34:02.31	279.73	9.80	-38.7	-39.7	22.6	0.00e+00	0	30	0	1124073472	48	6941
2026-01-29 17:34:03.32	279.61	9.73	-38.7	-39.7	22.6	0.00e+00	7	30	0	1126170624	50	6227
2026-01-29 17:34:04.33	279.49	9.67	-38.8	-39.8	22.6	0.00e+00	45	30	0	1128267776	50	6284
2026-01-29 17:34:05.34	279.38	9.60	-38.9	-39.9	22.5	0.00e+00	39	30	0	1130364928	50	6385
2026-01-29 17:34:06.35	279.26	9.53	-39.0	-40.1	22.4	0.00e+00	4	30	0	1131413504	50	6484
2026-01-29 17:34:07.36	279.15	9.47	-39.1	-40.1	22.2	0.00e+00	32	30	0	1133510656	50	6536
2026-01-29 17:34:08.37	279.03	9.40	-39.0	-40.0	22.3	0.00e+00	90	30	0	1135607808	50	6453
2026-01-29 17:34:09.38	278.92	9.34	-39.2	-40.3	22.1	0.00e+00	48	30	0	1137704960	50	6619
2026-01-29 17:34:10.39	278.81	9.27	-39.1	-40.2	22.2	0.00e+00	6	30	0	1139802112	50	6564
2026-01-29 17:34:11.40	278.69	9.21	-39.3	-40.3	22.0	0.00e+00	5	30	0	1140850688	50	6673
2026-01-29 17:34:12.41	278.58	9.14	-39.2	-40.3	22.0	0.00e+00	5	30	0	1142947840	50	6633
2026-01-29 17:34:13.42	278.47	9.08	-39.3	-40.3	22.1	0.00e+00	5	30	0	1145044992	50	6680
2026-01-29 17:34:14.43	278.36	9.01	-39.4	-40.5	21.8	0.00e+00	6	30	0	1147142144	50	6798
2026-01-29 17:34:15.44	278.25	8.94	-39.3	-40.3	22.0	0.00e+00	90	30	0	1149239296	50	6684
2026-01-29 17:34:16.45	278.14	8.88	-39.4	-40.5	21.9	0.00e+00	0	30	0	1150287872	50	6823
2026-01-29 17:34:17.46	278.03	8.81	-39.3	-40.3	21.9	0.00e+00	90	30	0	1152385024	50	6687
2026-01-29 17:34:18.47	277.92	8.75	-39.3	-40.4	21.9	0.00e+00	0	30	0	1154482176	50	6743
2026-01-29 17:34:19.48	277.81	8.68	-39.5	-40.5	21.7	0.00e+00	37	30	0	1156579328	50	6847
2026-01-29 17:34:20.49	277.71	8.62	-39.5	-40.6	21.8	0.00e+00	38	30	0	1158676480	50	6861
2026-01-29 17:34:21.50	277.60	8.55	-39.6	-40.7	21.7	0.00e+00	35	30	0	1159725056	50	6948
2026-01-29 17:34:22.51	277.49	8.49	-39.6	-40.8	21.6	0.00e+00	37	30	0	1161822208	50	7012
2026-01-29 17:34:23.52	277.39	8.42	-39.7	-40.8	21.6	0.00e+00	0	30	0	1163919360	52	6275
2026-01-29 17:34:24.53	277.28	8.36	-39.7	-40.8	21.6	0.00e+00	92	30	0	1166016512	52	6303
2026-01-29 17:34:25.54	277.17	8.29	-39.6	-40.7	21.5	0.00e+00	5	30	0	1168113664	52	6236
2026-01-29 17:34:26.55	277.07	8.23	-39.8	-41.0	21.4	0.00e+00	35	30	0	1170210816	52	6392
2026-01-29 17:34:27.56	276.97	8.17	-39.7	-40.8	21.4	0.00e+00	51	30	0	1171259392	52	6299
2026-01-29 17:34:28.57	276.86	8.10	-39.6	-40.8	21.6	0.00e+00	36	30	0	1173356544	52	6251
2026-01-29 17:34:29.58	276.76	8.04	-39.9	-41.1	21.4	0.00e+00	58	30	0	1175453696	52	6466
2026-01-29 17:34:30.59	276.66	7.97	-39.6	-40.8	21.6	0.00e+00	50	30	0	1177550848	52	6249
2026-01-29 17:34:31.60	276.55	7.91	-39.6	-40.7	21.6	0.00e+00	92	30	0	1179648000	52	6228
2026-01-29 17:34:32.61	276.45	7.84	-39.8	-40.9	21.5	0.00e+00	48	30	0	1180696576	52	6357
2026-01-29 17:34:33.62	276.35	7.78	-39.7	-40.9	21.5	0.00e+00	90	30	0	1182793728	52	6329
2026-01-29 17:34:34.63	276.25	7.72	-39.8	-40.9	21.3	0.00e+00	6	30	0	1184890880	52	6351
2026-01-29 17:34:35.64	276.15	7.65	-39.9	-41.1	21.2	0.00e+00	7	30	0	1186988032	52	6484
2026-01-29 17:34:36.65	276.05	7.59	-39.8	-40.9	21.4	0.00e+00	8	30	0	1189085184	52	6357
2026-01-29 17:34:37.66	275.95	7.52	-39.9	-41.0	21.2	0.00e+00	7	30	0	1190133760	52	6434
2026-01-29 17:34:38.67	275.85	7.46	-40.0	-41.2	21.1	0.00e+00	88	30	0	1192230912	52	6584
