passes_logs/2026/01/29/R4.6S_Anadyr/R4.6S_Anadyr__20260129_113246_KOSAR1-5_rec.log

#Pass ID: 20260129_113246_KOSAR1-5
#Satellite: KOSAR1-5
#Configuration: KOSAR1-5
#almurnet v.1.7.20251203
#Start time: 2026-01-29 11:32:48

#Version: 2.2.20231116
#Station: R4.6S_Anadyr
#Location: 177.4865 lon 64.73178 lat
#TLE: 1 67264U 25313S   26027.89307552  .00010412  00000+0  48021-3 0  9990
#TLE: 2 67264  97.4176 104.8503 0016482 138.1720 222.0778 15.20312014  4613

#Time	Az	El	Level	Level2	SNR	BER	BlckErr	Temp	State	Recorded	gain1	gain2
2026-01-29 11:32:48.37	220.87	0.10	-45.4	-59.8	3.6	1.51e+00	0	28	0	0	60	39750
2026-01-29 11:32:49.38	220.97	0.15	-45.8	-60.8	3.6	1.51e+00	0	29	104	0	60	44646
2026-01-29 11:32:50.39	221.08	0.20	-46.0	-60.7	3.6	1.51e+00	0	29	104	0	60	44156
2026-01-29 11:32:51.39	221.18	0.25	-45.9	-60.7	3.6	1.51e+00	0	29	104	0	60	43840
2026-01-29 11:32:52.40	221.28	0.31	-45.8	-60.6	3.6	1.51e+00	0	29	104	0	60	43370
2026-01-29 11:32:53.41	221.39	0.36	-45.7	-60.5	3.6	1.51e+00	0	29	104	0	60	42840
2026-01-29 11:32:54.42	221.49	0.41	-45.7	-60.5	3.6	1.51e+00	0	29	104	0	60	43055
2026-01-29 11:32:55.43	221.60	0.46	-45.8	-60.6	3.6	1.51e+00	0	29	104	0	60	43272
2026-01-29 11:32:56.44	221.71	0.51	-45.7	-60.6	3.6	1.51e+00	0	29	104	0	60	43286
2026-01-29 11:32:57.45	221.81	0.57	-45.9	-60.7	3.6	1.51e+00	0	29	104	0	60	43841
2026-01-29 11:32:58.46	221.92	0.62	-45.9	-60.6	3.6	1.51e+00	0	29	104	0	60	43636
2026-01-29 11:32:59.47	222.03	0.67	-46.0	-60.7	3.6	1.51e+00	0	30	104	0	60	44198
2026-01-29 11:33:00.48	222.14	0.72	-46.0	-60.6	3.6	1.51e+00	0	30	104	0	60	43652
2026-01-29 11:33:01.49	222.24	0.78	-46.0	-60.7	3.6	1.51e+00	0	30	104	0	60	43910
2026-01-29 11:33:02.50	222.35	0.83	-46.1	-60.8	3.6	1.51e+00	0	30	104	0	60	44395
2026-01-29 11:33:03.51	222.46	0.88	-45.9	-60.7	3.6	1.51e+00	0	30	104	0	60	43867
2026-01-29 11:33:04.51	222.57	0.94	-45.9	-60.6	3.6	1.51e+00	0	30	104	0	60	43644
2026-01-29 11:33:05.52	222.68	0.99	-45.9	-60.6	3.6	1.51e+00	0	30	104	0	60	43593
2026-01-29 11:33:06.54	222.79	1.04	-45.8	-60.5	3.6	1.51e+00	0	30	104	0	60	42990
2026-01-29 11:33:07.54	222.90	1.09	-45.7	-60.5	3.6	1.51e+00	0	30	104	0	60	42744
2026-01-29 11:33:08.56	223.02	1.15	-45.3	-60.3	3.6	1.51e+00	0	30	104	0	60	42172
2026-01-29 11:33:09.57	223.13	1.20	-45.2	-60.1	3.6	1.51e+00	0	30	104	0	60	41099
2026-01-29 11:33:10.58	223.24	1.25	-43.9	-59.9	3.6	1.51e+00	0	30	104	0	60	40036
2026-01-29 11:33:11.58	223.35	1.31	-42.8	-59.4	3.6	1.51e+00	0	30	104	0	60	37680
2026-01-29 11:33:12.59	223.47	1.36	-42.5	-58.6	3.6	1.51e+00	0	30	104	0	60	34490
2026-01-29 11:33:13.61	223.58	1.41	-41.1	-58.0	3.6	1.51e+00	0	30	104	0	56	40550
2026-01-29 11:33:14.62	223.70	1.47	-41.3	-58.1	3.6	1.51e+00	0	30	104	0	56	40920
2026-01-29 11:33:15.63	223.81	1.52	-41.3	-58.0	3.6	1.51e+00	0	30	104	0	56	40680
2026-01-29 11:33:16.64	223.93	1.57	-41.3	-58.0	3.6	1.51e+00	0	30	104	0	56	40681
2026-01-29 11:33:17.65	224.05	1.63	-41.3	-58.0	3.6	1.51e+00	0	30	104	0	56	40440
2026-01-29 11:33:18.65	224.16	1.68	-41.3	-58.0	3.6	1.51e+00	0	30	104	0	56	40705
2026-01-29 11:33:19.66	224.28	1.73	-41.3	-58.0	3.6	1.51e+00	0	30	104	0	56	40582
2026-01-29 11:33:20.67	224.40	1.79	-41.3	-58.0	3.6	1.51e+00	0	30	104	0	56	40441
2026-01-29 11:33:21.69	224.52	1.84	-41.3	-58.0	3.6	1.51e+00	0	30	104	0	56	40562
2026-01-29 11:33:22.70	224.64	1.89	-41.3	-58.0	3.6	1.51e+00	0	30	104	0	56	40511
2026-01-29 11:33:23.71	224.75	1.95	-41.2	-57.9	3.6	1.51e+00	0	30	104	0	56	40301
2026-01-29 11:33:24.72	224.87	2.00	-41.2	-58.0	3.6	1.51e+00	0	30	104	0	56	40376
2026-01-29 11:33:25.73	225.00	2.06	-41.2	-58.0	3.6	1.51e+00	0	30	104	0	56	40486
2026-01-29 11:33:26.74	225.12	2.11	-41.3	-58.0	3.6	1.51e+00	0	30	104	0	56	40576
2026-01-29 11:33:27.75	225.24	2.16	-41.2	-58.0	3.6	1.51e+00	0	30	104	0	56	40356
2026-01-29 11:33:28.76	225.36	2.22	-41.3	-58.0	3.6	1.51e+00	0	30	104	0	56	40541
2026-01-29 11:33:29.77	225.48	2.27	-41.2	-58.0	3.6	1.51e+00	0	30	104	0	56	40465
2026-01-29 11:33:30.78	225.61	2.33	-41.3	-57.9	3.6	1.51e+00	0	30	104	0	56	40276
2026-01-29 11:33:31.79	225.73	2.38	-41.2	-58.0	3.6	1.51e+00	0	30	104	0	56	40330
2026-01-29 11:33:32.80	225.86	2.43	-41.3	-58.0	3.5	1.51e+00	0	30	104	0	56	40431
2026-01-29 11:33:33.81	225.98	2.49	-41.2	-58.0	3.6	1.51e+00	0	30	104	0	56	40363
2026-01-29 11:33:34.82	226.11	2.54	-41.3	-57.9	3.6	1.51e+00	0	30	104	0	56	40205
2026-01-29 11:33:35.83	226.23	2.60	-41.2	-58.0	3.6	1.51e+00	0	30	104	0	56	40454
2026-01-29 11:33:36.84	226.36	2.65	-41.2	-58.0	3.6	1.51e+00	0	30	104	0	56	40386
2026-01-29 11:33:37.85	226.49	2.71	-41.3	-58.0	3.6	1.51e+00	0	30	104	0	56	40436
2026-01-29 11:33:38.86	226.61	2.76	-41.3	-58.0	3.6	1.51e+00	0	30	104	0	56	40506
2026-01-29 11:33:39.87	226.74	2.81	-41.3	-58.0	3.5	1.51e+00	0	30	104	0	56	40560
2026-01-29 11:33:40.88	226.87	2.87	-41.3	-58.0	3.6	1.51e+00	0	30	104	0	56	40422
2026-01-29 11:33:41.89	227.00	2.92	-41.3	-58.0	3.6	1.51e+00	0	30	104	0	56	40350
2026-01-29 11:33:42.90	227.13	2.98	-41.3	-58.0	3.6	1.51e+00	0	30	104	0	56	40551
2026-01-29 11:33:43.91	227.26	3.03	-41.3	-57.9	3.6	1.51e+00	0	30	104	0	56	40307
2026-01-29 11:33:44.92	227.40	3.09	-41.3	-58.0	3.6	1.51e+00	0	30	104	0	56	40441
2026-01-29 11:33:45.93	227.53	3.14	-41.3	-58.0	3.6	1.51e+00	0	30	104	0	56	40582
2026-01-29 11:33:46.94	227.66	3.20	-41.9	-58.3	3.6	1.51e+00	0	30	104	0	60	33373
2026-01-29 11:33:47.95	227.79	3.25	-41.2	-58.2	3.6	1.51e+00	0	30	104	0	60	32897
2026-01-29 11:33:48.96	227.93	3.31	-41.8	-58.1	3.6	1.51e+00	0	30	104	0	58	36394
2026-01-29 11:33:49.97	228.06	3.36	-43.2	-58.2	3.6	1.51e+00	0	30	104	0	60	33042
2026-01-29 11:33:50.98	228.20	3.42	-40.7	-58.1	3.6	1.51e+00	0	30	104	0	56	41248
2026-01-29 11:33:51.99	228.33	3.47	-42.8	-58.2	3.6	1.51e+00	0	30	104	0	58	36992
2026-01-29 11:33:53.00	228.47	3.53	-41.0	-58.2	3.6	1.51e+00	0	30	104	0	58	36966
2026-01-29 11:33:54.01	228.61	3.58	-43.5	-58.3	3.6	1.51e+00	0	30	104	0	60	33444
2026-01-29 11:33:55.02	228.75	3.64	-43.3	-58.4	3.6	1.51e+00	0	30	104	0	60	33746
2026-01-29 11:33:56.03	228.88	3.69	-43.9	-58.9	3.6	1.51e+00	0	30	104	0	60	35569
2026-01-29 11:33:57.03	229.02	3.75	-43.5	-58.2	3.6	1.51e+00	0	30	104	0	60	33126
2026-01-29 11:33:58.04	229.16	3.80	-42.7	-58.4	3.6	1.51e+00	0	30	104	0	60	33848
2026-01-29 11:33:59.06	229.30	3.86	-44.3	-59.5	3.6	1.51e+00	0	30	104	0	60	38141
2026-01-29 11:34:00.06	229.44	3.91	-44.5	-59.5	3.6	1.51e+00	0	30	104	0	60	38229
2026-01-29 11:34:01.07	229.58	3.97	-43.8	-58.6	3.6	1.51e+00	0	30	104	0	60	34401
2026-01-29 11:34:02.09	229.73	4.02	-43.5	-58.4	3.6	1.51e+00	0	30	104	0	60	33586
2026-01-29 11:34:03.09	229.87	4.08	-44.7	-60.6	3.6	1.51e+00	0	30	104	0	60	43450
2026-01-29 11:34:04.11	230.01	4.13	-44.4	-59.3	3.6	1.51e+00	0	30	104	0	60	37371
2026-01-29 11:34:05.12	230.16	4.19	-43.7	-59.7	3.6	1.51e+00	0	30	104	0	60	39079
2026-01-29 11:34:06.12	230.30	4.24	-43.7	-59.2	3.6	1.51e+00	0	30	104	0	60	37003
2026-01-29 11:34:07.13	230.45	4.30	-44.4	-59.4	3.6	1.51e+00	0	31	104	0	60	37779
2026-01-29 11:34:08.15	230.60	4.36	-43.7	-59.1	3.6	1.51e+00	0	31	104	0	60	36643
2026-01-29 11:34:09.15	230.74	4.41	-43.9	-59.4	3.6	1.51e+00	0	31	104	0	60	37853
2026-01-29 11:34:10.16	230.89	4.47	-44.6	-59.9	3.6	1.51e+00	0	30	104	0	60	39973
2026-01-29 11:34:11.17	231.04	4.52	-45.3	-60.3	3.6	1.51e+00	0	30	104	0	60	42087
2026-01-29 11:34:12.18	231.19	4.58	-45.5	-60.6	3.6	1.51e+00	0	30	104	0	60	43257
2026-01-29 11:34:13.19	231.34	4.63	-45.2	-60.2	3.6	1.51e+00	0	31	104	0	60	41684
2026-01-29 11:34:14.20	231.49	4.69	-45.5	-61.0	3.6	1.51e+00	0	31	104	0	60	45755
2026-01-29 11:34:15.21	231.64	4.74	-45.1	-60.1	3.6	1.51e+00	0	31	104	0	60	41262
2026-01-29 11:34:16.22	231.79	4.80	-45.4	-60.6	3.6	1.51e+00	0	31	104	0	60	43232
2026-01-29 11:34:17.23	231.94	4.85	-45.7	-61.1	3.6	1.51e+00	0	30	104	0	60	45779
2026-01-29 11:34:18.24	232.10	4.91	-45.8	-61.3	3.6	1.51e+00	0	30	104	0	60	47056
2026-01-29 11:34:19.25	232.25	4.97	-45.3	-60.9	3.6	1.51e+00	0	30	104	0	60	45022
2026-01-29 11:34:20.26	232.41	5.02	-45.2	-60.9	3.6	1.51e+00	0	30	104	0	60	45026
2026-01-29 11:34:21.27	232.56	5.08	-45.8	-61.3	3.6	1.51e+00	0	30	104	0	60	47223
2026-01-29 11:34:22.28	232.72	5.13	-44.4	-60.2	3.6	1.51e+00	0	30	104	0	60	41595
2026-01-29 11:34:23.28	232.87	5.19	-45.8	-61.0	3.6	1.51e+00	0	31	104	0	60	45480
2026-01-29 11:34:24.29	233.03	5.24	-44.6	-60.5	3.6	1.51e+00	0	30	104	0	60	43182
2026-01-29 11:34:25.30	233.19	5.30	-45.1	-60.7	3.6	1.51e+00	0	31	104	0	60	43912
2026-01-29 11:34:26.31	233.35	5.35	-45.6	-60.8	3.6	1.51e+00	0	31	104	0	60	44297
2026-01-29 11:34:27.32	233.51	5.41	-44.9	-60.3	3.6	1.51e+00	0	31	104	0	60	41994
2026-01-29 11:34:28.33	233.67	5.47	-44.3	-59.7	3.6	1.51e+00	0	31	104	0	60	39262
2026-01-29 11:34:29.34	233.83	5.52	-44.3	-59.2	3.6	1.51e+00	0	31	104	0	60	36804
2026-01-29 11:34:30.35	233.99	5.58	-42.3	-58.8	3.6	1.51e+00	0	31	104	0	60	35298
2026-01-29 11:34:31.36	234.16	5.63	-44.4	-59.3	3.6	1.51e+00	0	31	104	0	60	37205
2026-01-29 11:34:32.37	234.32	5.69	-42.3	-58.8	3.6	1.51e+00	0	31	104	0	60	35276
2026-01-29 11:34:33.38	234.49	5.74	-42.7	-58.8	3.6	1.51e+00	0	31	104	0	60	35465
2026-01-29 11:34:34.40	234.65	5.80	-43.2	-58.9	3.6	1.51e+00	0	31	104	0	60	35912
2026-01-29 11:34:35.41	234.82	5.86	-44.8	-60.0	3.6	1.51e+00	0	31	104	0	60	40445
2026-01-29 11:34:36.42	234.99	5.91	-43.9	-59.3	3.6	1.51e+00	0	31	104	0	60	37445
2026-01-29 11:34:37.43	235.15	5.97	-42.8	-59.3	3.6	1.51e+00	0	31	104	0	60	37429
2026-01-29 11:34:38.43	235.32	6.02	-44.4	-59.9	3.6	1.51e+00	0	31	104	0	60	39905
2026-01-29 11:34:39.44	235.49	6.08	-42.0	-59.2	3.6	1.51e+00	0	31	104	0	60	36807
2026-01-29 11:34:40.45	235.66	6.13	-42.6	-59.1	3.6	1.51e+00	0	31	104	0	60	36432
2026-01-29 11:34:41.46	235.83	6.19	-42.9	-59.1	3.6	1.51e+00	0	31	104	0	60	36581
2026-01-29 11:34:42.47	236.00	6.24	-43.7	-59.3	3.6	1.51e+00	0	31	104	0	60	37263
2026-01-29 11:34:43.47	236.17	6.30	-44.8	-59.8	3.6	1.51e+00	0	31	104	0	60	39756
2026-01-29 11:34:44.49	236.35	6.35	-45.9	-61.5	3.6	1.51e+00	0	31	104	0	60	48207
2026-01-29 11:34:45.50	236.52	6.41	-43.6	-60.5	3.6	1.51e+00	0	31	104	0	60	43156
2026-01-29 11:34:46.51	236.70	6.47	-43.0	-60.5	3.6	1.51e+00	0	31	104	0	60	42929
2026-01-29 11:34:47.51	236.87	6.52	-44.8	-60.9	3.6	1.51e+00	0	31	104	0	60	45026
2026-01-29 11:34:48.52	237.05	6.58	-42.8	-60.0	3.6	1.51e+00	0	31	104	0	60	40665
2026-01-29 11:34:49.53	237.22	6.63	-43.3	-60.0	3.6	1.51e+00	0	31	104	0	60	40553
2026-01-29 11:34:50.54	237.40	6.69	-43.9	-60.1	3.6	1.51e+00	0	31	104	0	60	40812
2026-01-29 11:34:51.55	237.58	6.74	-43.6	-59.8	3.6	1.51e+00	0	31	104	0	60	39732
2026-01-29 11:34:52.56	237.76	6.80	-44.1	-59.9	3.6	1.51e+00	0	31	104	0	60	40184
2026-01-29 11:34:53.57	237.94	6.85	-42.1	-59.9	3.6	1.51e+00	0	31	104	0	60	39878
2026-01-29 11:34:54.58	238.12	6.91	-43.9	-60.2	3.6	1.51e+00	0	31	104	0	60	41690
2026-01-29 11:34:55.59	238.31	6.96	-44.6	-60.3	3.6	1.51e+00	0	31	104	0	60	42131
2026-01-29 11:34:56.60	238.49	7.02	-43.9	-60.0	3.6	1.51e+00	0	31	104	0	60	40473
2026-01-29 11:34:57.61	238.67	7.07	-44.6	-60.1	3.6	1.51e+00	0	31	104	0	60	41094
2026-01-29 11:34:58.62	238.86	7.13	-45.1	-60.2	3.6	1.51e+00	0	31	104	0	60	41729
2026-01-29 11:34:59.63	239.04	7.18	-45.5	-60.5	3.6	1.51e+00	0	31	104	0	60	42934
2026-01-29 11:35:00.63	239.23	7.23	-44.6	-59.5	3.6	1.51e+00	0	31	104	0	60	38488
2026-01-29 11:35:01.64	239.42	7.29	-45.1	-60.0	3.6	1.51e+00	0	31	104	0	60	40414
2026-01-29 11:35:02.65	239.60	7.34	-44.4	-60.3	3.6	1.51e+00	0	31	104	0	60	41935
2026-01-29 11:35:03.66	239.79	7.40	-43.8	-59.2	3.6	1.51e+00	0	31	104	0	60	36854
2026-01-29 11:35:04.67	239.98	7.45	-43.5	-59.3	3.6	1.51e+00	0	31	104	0	60	37270
2026-01-29 11:35:05.68	240.17	7.51	-43.9	-59.9	3.6	1.51e+00	0	31	104	0	60	39927
2026-01-29 11:35:06.69	240.37	7.56	-45.3	-60.7	3.6	1.51e+00	0	31	104	0	60	43739
2026-01-29 11:35:07.70	240.56	7.62	-45.0	-60.7	3.6	1.51e+00	0	31	104	0	60	44013
2026-01-29 11:35:08.71	240.75	7.67	-43.9	-60.2	3.6	1.51e+00	0	31	104	0	60	41332
2026-01-29 11:35:09.72	240.95	7.72	-44.1	-59.1	3.6	1.51e+00	0	31	104	0	60	36726
2026-01-29 11:35:10.73	241.14	7.78	-44.1	-59.0	3.6	1.51e+00	0	31	104	0	60	36284
2026-01-29 11:35:11.74	241.34	7.83	-43.8	-59.1	3.6	1.51e+00	0	31	104	0	60	36699
2026-01-29 11:35:12.75	241.53	7.88	-43.8	-59.1	3.6	1.51e+00	0	31	104	0	60	36551
2026-01-29 11:35:13.76	241.73	7.94	-44.2	-59.1	3.6	1.51e+00	0	31	104	0	60	36616
2026-01-29 11:35:14.76	241.93	7.99	-44.1	-59.0	3.6	1.51e+00	0	31	104	0	60	36323
2026-01-29 11:35:15.77	242.13	8.04	-44.2	-59.1	3.6	1.51e+00	0	31	104	0	60	36552
2026-01-29 11:35:16.78	242.33	8.10	-44.2	-59.0	3.6	1.51e+00	0	31	104	0	60	36184
2026-01-29 11:35:17.80	242.53	8.15	-44.4	-59.1	3.6	1.51e+00	0	31	104	0	60	36695
2026-01-29 11:35:18.80	242.73	8.20	-44.3	-59.1	3.6	1.51e+00	0	31	104	0	60	36527
2026-01-29 11:35:19.81	242.94	8.26	-44.2	-59.2	3.6	1.51e+00	0	31	104	0	60	36779
2026-01-29 11:35:20.82	243.14	8.31	-43.9	-59.1	3.6	1.51e+00	0	31	104	0	60	36714
2026-01-29 11:35:21.83	243.34	8.36	-43.9	-59.1	3.6	1.51e+00	0	31	104	0	60	36493
2026-01-29 11:35:22.84	243.55	8.42	-44.3	-59.2	3.6	1.51e+00	0	31	104	0	60	36811
2026-01-29 11:35:23.85	243.76	8.47	-44.3	-59.3	3.6	1.51e+00	0	31	104	0	60	37442
2026-01-29 11:35:24.86	243.97	8.52	-44.2	-59.2	3.6	1.51e+00	0	31	104	0	60	37010
2026-01-29 11:35:25.87	244.17	8.57	-44.2	-59.1	3.6	1.51e+00	0	31	104	0	60	36727
2026-01-29 11:35:26.88	244.38	8.62	-44.4	-59.2	3.6	1.51e+00	0	31	104	0	60	37150
2026-01-29 11:35:27.89	244.59	8.68	-44.7	-59.4	3.6	1.51e+00	0	31	104	0	60	37747
2026-01-29 11:35:28.90	244.81	8.73	-44.4	-59.3	3.6	1.51e+00	0	31	104	0	60	37502
2026-01-29 11:35:29.91	245.02	8.78	-44.4	-59.2	3.6	1.51e+00	0	31	104	0	60	36890
2026-01-29 11:35:30.92	245.23	8.83	-44.7	-59.4	3.5	1.51e+00	0	31	104	0	60	37801
2026-01-29 11:35:31.93	245.44	8.88	-44.8	-59.5	3.6	1.51e+00	0	31	104	0	60	38144
2026-01-29 11:35:32.94	245.66	8.93	-44.7	-59.4	3.5	1.51e+00	0	31	104	0	60	37916
2026-01-29 11:35:33.95	245.88	8.98	-44.8	-59.4	3.6	1.51e+00	0	31	104	0	60	38035
2026-01-29 11:35:34.95	246.09	9.03	-44.8	-59.5	3.6	1.51e+00	0	31	104	0	60	38116
2026-01-29 11:35:35.96	246.31	9.09	-44.8	-59.6	3.6	1.51e+00	0	31	104	0	60	38517
2026-01-29 11:35:36.97	246.53	9.14	-44.8	-59.5	3.6	1.51e+00	0	31	104	0	60	38296
2026-01-29 11:35:37.98	246.75	9.19	-44.8	-59.5	3.6	1.51e+00	0	31	104	0	60	38273
2026-01-29 11:35:38.98	246.96	9.24	-44.9	-59.6	3.6	1.51e+00	0	31	104	0	60	38534
2026-01-29 11:35:40.00	247.19	9.29	-44.9	-59.7	3.6	1.51e+00	0	31	104	0	60	39104
2026-01-29 11:35:41.00	247.41	9.34	-44.9	-59.6	3.6	1.51e+00	0	31	104	0	60	38855
2026-01-29 11:35:42.01	247.63	9.39	-44.8	-59.6	3.6	1.51e+00	0	31	104	0	60	38705
2026-01-29 11:35:43.02	247.86	9.43	-45.0	-59.7	3.6	1.51e+00	0	31	104	0	60	39130
2026-01-29 11:35:44.03	248.08	9.48	-45.1	-59.8	3.6	1.51e+00	0	31	104	0	60	39522
2026-01-29 11:35:45.04	248.31	9.53	-45.0	-59.6	3.6	1.51e+00	0	31	104	0	60	38947
2026-01-29 11:35:46.05	248.53	9.58	-45.0	-59.7	3.6	1.51e+00	0	31	104	0	60	39326
2026-01-29 11:35:47.06	248.76	9.63	-45.0	-59.7	3.6	1.51e+00	0	31	104	0	60	39294
2026-01-29 11:35:48.07	248.99	9.68	-45.1	-59.8	3.6	1.51e+00	0	31	104	0	60	39523
2026-01-29 11:35:49.08	249.22	9.73	-45.0	-59.7	3.6	1.51e+00	0	31	104	0	60	39031
2026-01-29 11:35:50.08	249.45	9.77	-45.0	-59.7	3.6	1.51e+00	0	31	104	0	60	39116
2026-01-29 11:35:51.09	249.68	9.82	-45.0	-59.7	3.6	1.51e+00	0	31	104	0	60	39293
2026-01-29 11:35:52.10	249.91	9.87	-45.1	-59.8	3.6	1.51e+00	0	31	104	0	60	39616
2026-01-29 11:35:53.11	250.14	9.92	-45.0	-59.7	3.6	1.51e+00	0	31	104	0	60	39087
2026-01-29 11:35:54.12	250.38	9.96	-44.8	-59.6	3.6	1.51e+00	0	31	104	0	60	38940
2026-01-29 11:35:55.13	250.61	10.01	-45.1	-59.7	3.6	1.51e+00	0	31	104	0	60	39216
2026-01-29 11:35:56.14	250.85	10.06	-45.0	-59.7	3.6	1.51e+00	0	31	104	0	60	39288
2026-01-29 11:35:57.15	251.09	10.10	-45.0	-59.7	3.6	1.51e+00	0	31	104	0	60	39252
2026-01-29 11:35:58.16	251.32	10.15	-45.0	-59.7	3.6	1.51e+00	0	31	104	0	60	39339
2026-01-29 11:35:59.17	251.56	10.19	-45.1	-59.8	3.6	1.51e+00	0	31	104	0	60	39678
2026-01-29 11:36:00.18	251.80	10.24	-45.1	-59.8	3.6	1.51e+00	0	31	104	0	60	39420
2026-01-29 11:36:01.19	252.04	10.28	-45.0	-59.7	3.6	1.51e+00	0	31	104	0	60	39344
2026-01-29 11:36:02.20	252.28	10.33	-45.0	-59.7	3.5	1.51e+00	0	31	104	0	60	39135
2026-01-29 11:36:03.20	252.52	10.37	-45.1	-59.8	3.6	1.51e+00	0	31	104	0	60	39478
2026-01-29 11:36:04.21	252.77	10.42	-45.1	-59.8	3.6	1.51e+00	0	31	104	0	60	39409
2026-01-29 11:36:05.23	253.01	10.46	-45.0	-59.7	3.6	1.51e+00	0	31	104	0	60	39223
2026-01-29 11:36:06.23	253.25	10.51	-45.0	-59.7	3.6	1.51e+00	0	31	104	0	60	39301
2026-01-29 11:36:07.24	253.50	10.55	-45.1	-59.8	3.6	1.51e+00	0	31	104	0	60	39800
2026-01-29 11:36:08.25	253.75	10.59	-45.1	-59.8	3.6	1.51e+00	0	31	104	0	60	39586
2026-01-29 11:36:09.26	253.99	10.63	-45.1	-59.8	3.6	1.51e+00	0	31	104	0	60	39491
2026-01-29 11:36:10.27	254.24	10.68	-45.0	-59.7	3.6	1.51e+00	0	31	104	0	60	39289
2026-01-29 11:36:11.28	254.49	10.72	-45.1	-59.8	3.6	1.51e+00	0	31	104	0	60	39611
2026-01-29 11:36:12.29	254.74	10.76	-45.1	-59.8	3.6	1.51e+00	0	31	104	0	60	39726
2026-01-29 11:36:13.30	254.99	10.80	-45.0	-59.7	3.6	1.51e+00	0	31	104	0	60	39375
2026-01-29 11:36:14.31	255.24	10.84	-45.0	-59.7	3.6	1.51e+00	0	31	104	0	60	39122
2026-01-29 11:36:15.32	255.50	10.88	-45.2	-59.8	3.6	1.51e+00	0	31	104	0	60	39854
2026-01-29 11:36:16.33	255.75	10.92	-45.1	-59.8	3.6	1.51e+00	0	31	104	0	60	39511
2026-01-29 11:36:17.34	256.00	10.96	-45.1	-59.8	3.6	1.51e+00	0	31	104	0	60	39663
2026-01-29 11:36:18.35	256.26	11.00	-45.1	-59.8	3.6	1.51e+00	0	31	104	0	60	39466
2026-01-29 11:36:19.36	256.51	11.04	-45.1	-59.9	3.6	1.51e+00	0	31	104	0	60	40176
2026-01-29 11:36:20.36	256.77	11.08	-45.2	-59.9	3.6	1.51e+00	0	31	104	0	60	40032
2026-01-29 11:36:21.37	257.03	11.12	-45.1	-59.8	3.6	1.51e+00	0	31	104	0	60	39538
2026-01-29 11:36:22.38	257.28	11.16	-45.1	-59.8	3.6	1.51e+00	0	31	104	0	60	39649
2026-01-29 11:36:23.39	257.54	11.20	-45.1	-59.9	3.6	1.51e+00	0	31	104	0	60	39921
2026-01-29 11:36:24.40	257.80	11.23	-45.2	-59.9	3.6	1.51e+00	0	31	104	0	60	39880
2026-01-29 11:36:25.41	258.06	11.27	-45.1	-59.8	3.6	1.51e+00	0	31	104	0	60	39819
2026-01-29 11:36:26.42	258.33	11.31	-45.1	-59.8	3.6	1.51e+00	0	31	104	0	60	39463
2026-01-29 11:36:27.43	258.59	11.35	-45.2	-59.9	3.5	1.51e+00	0	31	104	0	60	39866
2026-01-29 11:36:28.44	258.85	11.38	-45.1	-59.8	3.6	1.51e+00	0	31	104	0	60	39742
2026-01-29 11:36:29.45	259.11	11.42	-45.2	-59.9	3.6	1.51e+00	0	31	104	0	60	40175
2026-01-29 11:36:30.46	259.38	11.45	-45.1	-59.8	3.6	1.51e+00	0	31	104	0	60	39459
2026-01-29 11:36:31.47	259.64	11.49	-45.2	-59.9	3.6	1.51e+00	0	31	104	0	60	40251
2026-01-29 11:36:32.48	259.91	11.52	-45.2	-59.8	3.6	1.51e+00	0	31	104	0	60	39834
2026-01-29 11:36:33.49	260.18	11.56	-45.2	-59.8	3.6	1.51e+00	0	31	104	0	60	39862
2026-01-29 11:36:34.50	260.44	11.59	-45.1	-59.8	3.6	1.51e+00	0	31	104	0	60	39818
2026-01-29 11:36:35.51	260.71	11.62	-45.2	-59.8	3.6	1.51e+00	0	31	104	0	60	39831
2026-01-29 11:36:36.52	260.98	11.65	-45.1	-59.8	3.6	1.51e+00	0	31	104	0	60	39842
2026-01-29 11:36:37.52	261.25	11.69	-45.1	-59.8	3.6	1.51e+00	0	31	104	0	60	39642
2026-01-29 11:36:38.53	261.52	11.72	-45.1	-59.9	3.6	1.51e+00	0	31	104	0	60	39894
2026-01-29 11:36:39.54	261.79	11.75	-45.2	-59.9	3.6	1.51e+00	0	31	104	0	60	40045
2026-01-29 11:36:40.55	262.06	11.78	-45.2	-59.9	3.6	1.51e+00	0	31	104	0	60	39952
2026-01-29 11:36:41.56	262.33	11.81	-45.1	-59.9	3.6	1.51e+00	0	31	104	0	60	39870
2026-01-29 11:36:42.57	262.61	11.84	-45.1	-59.8	3.6	1.51e+00	0	31	104	0	60	39455
2026-01-29 11:36:43.58	262.88	11.87	-45.2	-59.9	3.6	1.51e+00	0	31	104	0	60	39931
2026-01-29 11:36:44.59	263.16	11.90	-45.1	-59.8	3.6	1.51e+00	0	31	104	0	60	39859
2026-01-29 11:36:45.60	263.43	11.93	-45.1	-59.8	3.6	1.51e+00	0	31	104	0	60	39796
2026-01-29 11:36:46.61	263.71	11.96	-45.1	-59.9	3.6	1.51e+00	0	31	104	0	60	39882
2026-01-29 11:36:47.62	263.98	11.98	-45.2	-59.9	3.5	1.51e+00	0	31	104	0	60	40142
2026-01-29 11:36:48.63	264.26	12.01	-45.1	-59.8	3.6	1.51e+00	0	31	104	0	60	39829
2026-01-29 11:36:49.64	264.54	12.04	-45.1	-59.8	3.6	1.51e+00	0	31	104	0	60	39762
2026-01-29 11:36:50.65	264.81	12.06	-45.2	-59.8	3.6	1.51e+00	0	31	104	0	60	39833
2026-01-29 11:36:51.66	265.09	12.09	-45.2	-59.9	3.6	1.51e+00	0	31	104	0	60	40216
2026-01-29 11:36:52.67	265.37	12.11	-45.2	-59.8	3.6	1.51e+00	0	31	104	0	60	39780
2026-01-29 11:36:53.68	265.65	12.14	-45.2	-59.8	3.6	1.51e+00	0	31	104	0	60	39859
2026-01-29 11:36:54.68	265.93	12.16	-45.2	-59.8	3.6	1.51e+00	0	31	104	0	60	39823
2026-01-29 11:36:55.69	266.21	12.19	-45.2	-60.0	3.6	1.51e+00	0	31	104	0	60	40503
2026-01-29 11:36:56.70	266.49	12.21	-45.2	-59.9	3.6	1.51e+00	0	31	104	0	60	39873
2026-01-29 11:36:57.71	266.77	12.23	-45.2	-59.8	3.6	1.51e+00	0	31	104	0	60	39859
2026-01-29 11:36:58.72	267.06	12.25	-45.2	-59.9	3.6	1.51e+00	0	31	104	0	60	39953
2026-01-29 11:36:59.73	267.34	12.28	-45.2	-59.9	3.6	1.51e+00	0	31	104	0	60	40190
2026-01-29 11:37:00.74	267.62	12.30	-45.2	-59.9	3.6	1.51e+00	0	31	104	0	60	39879
2026-01-29 11:37:01.47	267.83	12.31	-45.2	-59.9	3.6	1.51e+00	0	31	104	0	60	40102
2026-01-29 11:37:02.77	268.19	12.34	-45.2	-59.9	3.6	1.51e+00	0	31	104	0	60	40011
2026-01-29 11:37:03.49	268.40	12.35	-45.3	-59.9	3.6	1.51e+00	0	31	104	0	60	40241
2026-01-29 11:37:04.79	268.76	12.38	-45.2	-59.9	3.6	1.51e+00	0	31	104	0	60	40033
2026-01-29 11:37:05.51	268.97	12.39	-45.1	-59.9	3.6	1.51e+00	0	31	104	0	60	39986
2026-01-29 11:37:06.81	269.33	12.41	-45.2	-59.9	3.6	1.51e+00	0	31	104	0	60	40114
2026-01-29 11:37:07.52	269.54	12.42	-45.3	-60.0	3.6	1.51e+00	0	31	104	0	60	40369
2026-01-29 11:37:08.82	269.91	12.45	-45.2	-59.9	3.6	1.51e+00	0	31	104	0	60	40213
2026-01-29 11:37:09.55	270.11	12.46	-45.2	-59.8	3.6	1.51e+00	0	31	104	0	60	39771
2026-01-29 11:37:10.85	270.48	12.48	-45.2	-59.9	3.6	1.51e+00	0	31	104	0	60	40101
2026-01-29 11:37:11.57	270.69	12.49	-45.2	-59.9	3.6	1.51e+00	0	31	104	0	60	40297
2026-01-29 11:37:12.87	271.06	12.51	-45.2	-59.9	3.6	1.51e+00	0	31	104	0	60	39987
2026-01-29 11:37:13.59	271.26	12.52	-45.2	-59.9	3.6	1.51e+00	0	31	104	0	60	40107
2026-01-29 11:37:14.89	271.64	12.53	-45.2	-59.9	3.6	1.51e+00	0	31	104	0	60	40103
2026-01-29 11:37:15.61	271.84	12.54	-45.2	-59.9	3.6	1.51e+00	0	31	104	0	60	40251
2026-01-29 11:37:16.90	272.21	12.56	-45.2	-59.9	3.6	1.51e+00	0	31	104	0	60	40042
2026-01-29 11:37:17.62	272.42	12.57	-45.2	-59.8	3.6	1.51e+00	0	31	104	0	60	39841
2026-01-29 11:37:18.92	272.79	12.58	-45.3	-60.0	3.5	1.51e+00	0	31	104	0	60	40408
2026-01-29 11:37:19.64	273.00	12.59	-45.2	-59.9	3.6	1.51e+00	0	31	104	0	60	40202
2026-01-29 11:37:20.94	273.37	12.60	-45.2	-59.9	3.6	1.51e+00	0	31	104	0	60	40155
2026-01-29 11:37:21.66	273.58	12.61	-45.2	-59.9	3.6	1.51e+00	0	31	104	0	60	40077
2026-01-29 11:37:22.96	273.95	12.62	-45.3	-59.9	3.6	1.51e+00	0	31	104	0	60	40221
2026-01-29 11:37:23.68	274.16	12.63	-45.2	-59.9	3.5	1.51e+00	0	31	104	0	60	40155
2026-01-29 11:37:24.98	274.54	12.64	-45.2	-59.9	3.6	1.51e+00	0	31	104	0	60	40203
2026-01-29 11:37:25.70	274.75	12.64	-45.2	-59.9	3.6	1.51e+00	0	31	104	0	60	40040
2026-01-29 11:37:27.00	275.12	12.65	-45.3	-59.9	3.6	1.51e+00	0	31	104	0	60	40132
2026-01-29 11:37:27.72	275.33	12.65	-45.2	-60.0	3.6	1.51e+00	0	31	104	0	60	40354
2026-01-29 11:37:29.01	275.70	12.66	-45.2	-60.0	3.6	1.51e+00	0	31	104	0	60	40339
2026-01-29 11:37:29.73	275.91	12.66	-45.1	-59.8	3.6	1.51e+00	0	31	104	0	60	39798
2026-01-29 11:37:31.03	276.29	12.67	-45.2	-60.0	3.6	1.51e+00	0	31	104	0	60	40361
2026-01-29 11:37:31.75	276.49	12.67	-45.3	-60.0	3.6	1.51e+00	0	31	104	0	60	40359
2026-01-29 11:37:33.05	276.87	12.67	-45.2	-59.9	3.6	1.51e+00	0	31	104	0	60	40156
2026-01-29 11:37:33.77	277.08	12.68	-45.2	-59.9	3.6	1.51e+00	0	31	104	0	60	39890
2026-01-29 11:37:35.07	277.45	12.68	-45.3	-59.9	3.6	1.51e+00	0	31	104	0	60	40221
2026-01-29 11:37:35.79	277.66	12.68	-45.2	-59.9	3.6	1.51e+00	0	31	104	0	60	40276
2026-01-29 11:37:37.09	278.04	12.68	-45.2	-59.9	3.6	1.51e+00	0	31	104	0	60	40013
2026-01-29 11:37:37.81	278.25	12.68	-45.2	-59.9	3.6	1.51e+00	0	31	104	0	60	40009
2026-01-29 11:37:39.11	278.62	12.68	-45.3	-59.9	3.6	1.51e+00	0	31	104	0	60	40186
2026-01-29 11:37:39.83	278.83	12.68	-45.2	-59.9	3.6	1.51e+00	0	31	104	0	60	40254
2026-01-29 11:37:41.13	279.21	12.68	-45.2	-59.9	3.6	1.51e+00	0	31	104	0	60	40266
2026-01-29 11:37:41.85	279.42	12.67	-45.2	-59.9	3.6	1.51e+00	0	31	104	0	60	40106
2026-01-29 11:37:43.15	279.79	12.67	-45.2	-59.9	3.6	1.51e+00	0	31	104	0	60	40248
2026-01-29 11:37:43.87	280.00	12.67	-45.2	-59.9	3.6	1.51e+00	0	31	104	0	60	40239
2026-01-29 11:37:45.17	280.38	12.66	-45.2	-59.9	3.6	1.51e+00	0	31	104	0	60	40116
2026-01-29 11:37:45.89	280.59	12.66	-45.2	-59.8	3.6	1.51e+00	0	31	104	0	60	39804
2026-01-29 11:37:47.19	280.96	12.65	-45.3	-59.9	3.6	1.51e+00	0	31	104	0	60	40305
2026-01-29 11:37:47.91	281.17	12.65	-45.2	-59.9	3.6	1.51e+00	0	31	104	0	60	40064
2026-01-29 11:37:49.21	281.55	12.64	-45.2	-59.9	3.6	1.51e+00	0	31	104	0	60	40118
2026-01-29 11:37:49.93	281.75	12.63	-45.2	-59.9	3.5	1.51e+00	0	31	104	0	60	40045
2026-01-29 11:37:51.22	282.13	12.62	-45.3	-60.0	3.6	1.51e+00	0	31	104	0	60	40330
2026-01-29 11:37:51.94	282.33	12.62	-45.3	-59.9	3.6	1.51e+00	0	31	104	0	60	40267
2026-01-29 11:37:53.25	282.71	12.61	-45.2	-59.9	3.6	1.51e+00	0	31	104	0	60	39976
2026-01-29 11:37:53.96	282.91	12.60	-45.2	-59.9	3.6	1.51e+00	0	31	104	0	60	40074
2026-01-29 11:37:55.26	283.29	12.59	-45.3	-60.0	3.6	1.51e+00	0	31	104	0	60	40578
2026-01-29 11:37:55.98	283.49	12.58	-45.3	-59.9	3.6	1.51e+00	0	31	104	0	60	39996
2026-01-29 11:37:57.28	283.87	12.56	-45.2	-59.9	3.6	1.51e+00	0	31	104	0	60	39877
2026-01-29 11:37:58.00	284.07	12.56	-45.1	-59.8	3.6	1.51e+00	0	31	104	0	60	39820
2026-01-29 11:37:59.30	284.45	12.54	-45.2	-60.0	3.6	1.51e+00	0	31	104	0	60	40466
2026-01-29 11:38:00.02	284.65	12.53	-45.2	-59.9	3.6	1.51e+00	0	31	104	0	60	39868
2026-01-29 11:38:01.32	285.02	12.51	-45.2	-59.9	3.5	1.51e+00	0	31	104	0	60	39981
2026-01-29 11:38:02.04	285.23	12.50	-45.2	-59.9	3.6	1.51e+00	0	31	104	0	60	40009
2026-01-29 11:38:03.33	285.60	12.48	-45.2	-59.9	3.6	1.51e+00	0	31	104	0	60	40030
2026-01-29 11:38:04.06	285.81	12.47	-45.2	-59.9	3.6	1.51e+00	0	31	104	0	60	40235
2026-01-29 11:38:05.35	286.17	12.45	-45.2	-59.9	3.6	1.51e+00	0	31	104	0	60	40055
2026-01-29 11:38:06.07	286.38	12.44	-45.2	-59.9	3.6	1.51e+00	0	31	104	0	60	40187
2026-01-29 11:38:07.37	286.75	12.42	-45.2	-59.9	3.6	1.51e+00	0	31	104	0	60	40219
2026-01-29 11:38:08.09	286.95	12.41	-45.3	-60.0	3.6	1.51e+00	0	31	104	0	60	40392
2026-01-29 11:38:09.39	287.32	12.38	-45.2	-59.8	3.6	1.51e+00	0	31	104	0	60	39843
2026-01-29 11:38:10.11	287.52	12.37	-45.2	-59.9	3.6	1.51e+00	0	31	104	0	60	40152
2026-01-29 11:38:11.41	287.89	12.35	-45.3	-59.9	3.6	1.51e+00	0	31	104	0	60	40286
2026-01-29 11:38:12.13	288.09	12.33	-45.2	-59.9	3.6	1.51e+00	0	31	104	0	60	40242
2026-01-29 11:38:13.43	288.46	12.31	-45.2	-59.9	3.6	1.51e+00	0	31	104	0	60	40202
2026-01-29 11:38:14.15	288.66	12.29	-45.2	-59.9	3.6	1.51e+00	0	31	104	0	60	40306
2026-01-29 11:38:15.45	289.02	12.27	-45.3	-60.0	3.6	1.51e+00	0	31	104	0	60	40446
2026-01-29 11:38:16.17	289.23	12.25	-45.2	-59.9	3.6	1.51e+00	0	31	104	0	60	40078
2026-01-29 11:38:17.47	289.59	12.22	-45.2	-59.9	3.6	1.51e+00	0	31	104	0	60	40275
2026-01-29 11:38:18.19	289.79	12.20	-45.2	-59.9	3.6	1.51e+00	0	31	104	0	60	40088
2026-01-29 11:38:19.49	290.15	12.17	-45.3	-59.9	3.6	1.51e+00	0	31	104	0	60	40319
2026-01-29 11:38:20.21	290.35	12.16	-45.2	-59.9	3.6	1.51e+00	0	31	104	0	60	40027
2026-01-29 11:38:21.51	290.71	12.13	-45.2	-59.9	3.6	1.51e+00	0	31	104	0	60	40153
2026-01-29 11:38:22.23	290.91	12.11	-45.2	-59.9	3.6	1.51e+00	0	31	104	0	60	40015
2026-01-29 11:38:23.53	291.27	12.08	-45.3	-59.9	3.6	1.51e+00	0	31	104	0	60	40224
2026-01-29 11:38:24.25	291.47	12.06	-45.3	-59.9	3.6	1.51e+00	0	31	104	0	60	40206
2026-01-29 11:38:25.55	291.83	12.02	-45.2	-59.9	3.6	1.51e+00	0	31	104	0	60	40031
2026-01-29 11:38:26.27	292.02	12.00	-45.2	-59.9	3.6	1.51e+00	0	31	104	0	60	39887
2026-01-29 11:38:27.57	292.38	11.97	-45.3	-60.0	3.6	1.51e+00	0	31	104	0	60	40380
2026-01-29 11:38:28.29	292.58	11.95	-45.2	-59.9	3.6	1.51e+00	0	31	104	0	60	40292
2026-01-29 11:38:29.59	292.93	11.91	-45.2	-59.9	3.6	1.51e+00	0	31	104	0	60	40116
2026-01-29 11:38:30.31	293.13	11.89	-45.2	-59.9	3.6	1.51e+00	0	31	104	0	60	40102
2026-01-29 11:38:31.61	293.48	11.86	-45.2	-59.9	3.6	1.51e+00	0	31	104	0	60	40186
2026-01-29 11:38:32.33	293.68	11.83	-45.2	-59.9	3.6	1.51e+00	0	31	104	0	60	39908
2026-01-29 11:38:33.63	294.03	11.80	-45.2	-59.9	3.6	1.51e+00	0	31	104	0	60	40185
2026-01-29 11:38:34.35	294.22	11.77	-45.2	-59.9	3.6	1.51e+00	0	31	104	0	60	40324
2026-01-29 11:38:35.65	294.57	11.73	-45.3	-59.9	3.6	1.51e+00	0	31	104	0	60	40130
2026-01-29 11:38:36.37	294.76	11.71	-45.2	-59.9	3.6	1.51e+00	0	31	104	0	60	40140
2026-01-29 11:38:37.67	295.11	11.67	-45.1	-59.9	3.6	1.51e+00	0	31	104	0	60	40014
2026-01-29 11:38:38.38	295.30	11.65	-45.2	-59.9	3.6	1.51e+00	0	31	104	0	60	40267
2026-01-29 11:38:39.68	295.65	11.61	-45.2	-59.9	3.6	1.51e+00	0	31	104	0	60	40202
2026-01-29 11:38:40.41	295.84	11.58	-45.2	-59.9	3.6	1.51e+00	0	31	104	0	60	40228
2026-01-29 11:38:41.70	296.18	11.54	-45.2	-59.9	3.6	1.51e+00	0	31	104	0	60	40010
2026-01-29 11:38:42.42	296.37	11.51	-45.2	-59.9	3.6	1.51e+00	0	31	104	0	60	40310
2026-01-29 11:38:43.72	296.71	11.47	-45.2	-59.9	3.6	1.51e+00	0	31	104	0	60	40225
2026-01-29 11:38:44.44	296.90	11.45	-45.2	-59.9	3.6	1.51e+00	0	31	104	0	60	40072
2026-01-29 11:38:45.74	297.24	11.40	-45.1	-59.9	3.6	1.51e+00	0	31	104	0	60	40002
2026-01-29 11:38:46.46	297.43	11.37	-45.2	-59.9	3.6	1.51e+00	0	31	104	0	60	40197
2026-01-29 11:38:47.76	297.77	11.33	-45.2	-59.9	3.6	1.51e+00	0	31	104	0	60	40262
2026-01-29 11:38:48.48	297.95	11.30	-45.2	-59.9	3.6	1.51e+00	0	31	104	0	60	40023
2026-01-29 11:38:49.78	298.29	11.25	-45.2	-59.8	3.6	1.51e+00	0	31	104	0	60	39796
2026-01-29 11:38:50.50	298.48	11.23	-45.2	-59.9	3.6	1.51e+00	0	31	104	0	60	39996
2026-01-29 11:38:51.80	298.81	11.18	-45.2	-59.9	3.6	1.51e+00	0	31	104	0	60	40066
2026-01-29 11:38:52.52	298.99	11.15	-45.2	-59.9	3.5	1.51e+00	0	31	104	0	60	40234
2026-01-29 11:38:53.82	299.33	11.10	-45.2	-59.9	3.6	1.51e+00	0	31	104	0	60	40070
2026-01-29 11:38:54.54	299.51	11.07	-45.2	-59.9	3.6	1.51e+00	0	31	104	0	60	40177
2026-01-29 11:38:55.84	299.84	11.02	-45.2	-59.9	3.6	1.51e+00	0	31	104	0	60	40282
2026-01-29 11:38:56.55	300.02	11.00	-45.2	-59.9	3.6	1.51e+00	0	31	104	0	60	40138
2026-01-29 11:38:57.85	300.35	10.95	-45.2	-59.9	3.6	1.51e+00	0	31	104	0	60	40003
2026-01-29 11:38:58.58	300.53	10.92	-45.2	-59.9	3.6	1.51e+00	0	31	104	0	60	40148
2026-01-29 11:38:59.87	300.85	10.86	-45.2	-59.9	3.6	1.51e+00	0	31	104	0	60	40244
2026-01-29 11:39:00.59	301.03	10.84	-45.1	-59.9	3.6	1.51e+00	0	31	104	0	60	40082
2026-01-29 11:39:01.89	301.36	10.78	-45.2	-59.9	3.6	1.51e+00	0	31	104	0	60	40089
2026-01-29 11:39:02.61	301.54	10.75	-45.2	-59.9	3.6	1.51e+00	0	31	104	0	60	39923
2026-01-29 11:39:03.91	301.86	10.70	-45.0	-59.9	3.6	1.51e+00	0	31	104	0	60	40021
2026-01-29 11:39:04.63	302.03	10.67	-45.1	-60.0	3.6	1.51e+00	0	31	104	0	60	40337
2026-01-29 11:39:05.93	302.35	10.61	-45.1	-59.9	3.6	1.51e+00	0	31	104	0	60	39885
2026-01-29 11:39:06.65	302.53	10.58	-45.1	-59.9	3.6	1.51e+00	0	31	104	0	60	40126
2026-01-29 11:39:07.95	302.85	10.53	-45.0	-59.9	3.6	1.51e+00	0	31	104	0	60	39977
2026-01-29 11:39:08.67	303.02	10.50	-45.0	-59.9	3.6	1.51e+00	0	31	104	0	60	40023
2026-01-29 11:39:09.97	303.34	10.44	-44.9	-59.9	3.6	1.51e+00	0	31	104	0	60	40028
2026-01-29 11:39:10.69	303.51	10.41	-44.9	-59.9	3.6	1.51e+00	0	31	104	0	60	40319
2026-01-29 11:39:11.98	303.82	10.35	-44.9	-59.9	3.6	1.51e+00	0	31	104	0	60	40212
2026-01-29 11:39:12.71	303.99	10.32	-45.0	-59.9	3.6	1.51e+00	0	31	104	0	60	40107
2026-01-29 11:39:14.00	304.30	10.26	-44.8	-59.8	3.6	1.51e+00	0	31	104	0	60	39696
2026-01-29 11:39:14.73	304.48	10.23	-44.8	-59.9	3.6	1.51e+00	0	31	104	0	60	40083
2026-01-29 11:39:16.02	304.78	10.17	-44.8	-59.9	3.6	1.51e+00	0	31	104	0	60	40001
2026-01-29 11:39:16.75	304.95	10.14	-44.8	-59.9	3.6	1.51e+00	0	31	104	0	60	39922
2026-01-29 11:39:18.04	305.26	10.08	-44.8	-59.8	3.6	1.51e+00	0	31	104	0	60	39862
2026-01-29 11:39:18.76	305.43	10.05	-44.9	-59.9	3.5	1.51e+00	0	31	104	0	60	40034
2026-01-29 11:39:20.06	305.73	9.99	-44.6	-59.9	3.6	1.51e+00	0	31	104	0	60	40107
2026-01-29 11:39:20.78	305.90	9.96	-44.7	-59.8	3.6	1.51e+00	0	31	104	0	60	39752
2026-01-29 11:39:22.08	306.20	9.89	-44.7	-59.8	3.6	1.51e+00	0	31	104	0	60	39717
2026-01-29 11:39:22.80	306.36	9.86	-44.9	-59.9	3.6	1.51e+00	0	31	104	0	60	40020
2026-01-29 11:39:24.10	306.66	9.80	-44.5	-59.9	3.6	1.51e+00	0	31	104	0	60	39916
2026-01-29 11:39:24.82	306.83	9.77	-44.6	-59.8	3.6	1.51e+00	0	31	104	0	60	39696
2026-01-29 11:39:26.12	307.12	9.70	-44.7	-59.8	3.6	1.51e+00	0	31	104	0	60	39616
2026-01-29 11:39:26.84	307.29	9.67	-44.8	-59.8	3.6	1.51e+00	0	31	104	0	60	39682
2026-01-29 11:39:28.14	307.58	9.61	-44.4	-59.9	3.6	1.51e+00	0	31	104	0	60	39975
2026-01-29 11:39:28.86	307.74	9.57	-44.4	-59.8	3.6	1.51e+00	0	31	104	0	60	39820
2026-01-29 11:39:30.16	308.03	9.51	-44.6	-59.8	3.6	1.51e+00	0	31	104	0	60	39712
2026-01-29 11:39:30.88	308.19	9.48	-44.7	-59.8	3.6	1.51e+00	0	31	104	0	60	39821
2026-01-29 11:39:32.18	308.48	9.41	-44.4	-59.8	3.6	1.51e+00	0	31	104	0	60	39602
2026-01-29 11:39:32.90	308.64	9.38	-44.3	-59.8	3.6	1.51e+00	0	31	104	0	60	39689
2026-01-29 11:39:34.20	308.93	9.31	-44.6	-59.8	3.6	1.51e+00	0	31	104	0	60	39454
2026-01-29 11:39:34.92	309.09	9.28	-44.8	-59.8	3.6	1.51e+00	0	31	104	0	60	39758
2026-01-29 11:39:36.22	309.37	9.21	-44.5	-59.7	3.6	1.51e+00	0	31	104	0	60	39389
2026-01-29 11:39:36.94	309.53	9.18	-44.6	-59.8	3.6	1.51e+00	0	31	104	0	60	39545
2026-01-29 11:39:38.24	309.81	9.11	-44.6	-59.7	3.6	1.51e+00	0	31	104	0	60	39338
2026-01-29 11:39:38.96	309.97	9.08	-44.7	-59.8	3.6	1.51e+00	0	31	104	0	60	39781
2026-01-29 11:39:40.26	310.25	9.01	-44.6	-59.8	3.5	1.51e+00	0	31	104	0	60	39629
2026-01-29 11:39:40.98	310.40	8.98	-44.6	-59.8	3.6	1.51e+00	0	31	104	0	60	39492
2026-01-29 11:39:42.28	310.68	8.91	-44.0	-59.7	3.6	1.51e+00	0	31	104	0	60	39285
2026-01-29 11:39:43.00	310.83	8.87	-43.9	-59.8	3.6	1.51e+00	0	31	104	0	60	39572
2026-01-29 11:39:44.30	311.11	8.81	-44.2	-59.8	3.6	1.51e+00	0	31	104	0	60	39534
2026-01-29 11:39:45.02	311.26	8.77	-44.0	-59.7	3.6	1.51e+00	0	31	104	0	60	39301
2026-01-29 11:39:46.32	311.53	8.70	-43.9	-59.7	3.6	1.51e+00	0	31	104	0	60	38999
2026-01-29 11:39:47.04	311.68	8.67	-44.8	-59.8	3.6	1.51e+00	0	31	104	0	60	39495
2026-01-29 11:39:48.34	311.95	8.60	-44.8	-59.7	3.6	1.51e+00	0	31	104	0	60	39294
2026-01-29 11:39:49.06	312.10	8.56	-44.7	-59.7	3.6	1.51e+00	0	31	104	0	60	39229
2026-01-29 11:39:50.35	312.37	8.50	-44.7	-59.7	3.6	1.51e+00	0	31	104	0	60	39220
2026-01-29 11:39:51.07	312.52	8.46	-44.9	-59.7	3.6	1.51e+00	0	31	104	0	60	39337
2026-01-29 11:39:52.37	312.78	8.39	-44.8	-59.7	3.6	1.51e+00	0	31	104	0	60	39279
2026-01-29 11:39:53.09	312.93	8.36	-44.9	-59.7	3.6	1.51e+00	0	31	104	0	60	39298
2026-01-29 11:39:54.39	313.19	8.29	-44.8	-59.7	3.6	1.51e+00	0	31	104	0	60	39090
2026-01-29 11:39:55.11	313.34	8.25	-44.8	-59.8	3.6	1.51e+00	0	31	104	0	60	39480
2026-01-29 11:39:56.41	313.60	8.18	-44.7	-59.7	3.6	1.51e+00	0	31	104	0	60	39387
2026-01-29 11:39:57.13	313.74	8.14	-44.6	-59.7	3.6	1.51e+00	0	31	104	0	60	39207
2026-01-29 11:39:58.42	314.00	8.08	-44.4	-59.7	3.6	1.51e+00	0	31	104	0	60	39041
2026-01-29 11:39:59.14	314.14	8.04	-44.7	-59.8	3.6	1.51e+00	0	31	104	0	60	39578
2026-01-29 11:40:00.44	314.40	7.97	-44.7	-59.7	3.6	1.51e+00	0	31	104	0	60	39213
2026-01-29 11:40:01.16	314.54	7.93	-44.8	-59.7	3.6	1.51e+00	0	31	104	0	60	39124
2026-01-29 11:40:02.46	314.80	7.86	-44.5	-59.6	3.6	1.51e+00	0	31	104	0	60	38799
2026-01-29 11:40:03.18	314.94	7.82	-44.8	-59.7	3.6	1.51e+00	0	31	104	0	60	39315
2026-01-29 11:40:04.48	315.19	7.76	-44.5	-59.7	3.6	1.51e+00	0	31	104	0	60	39194
2026-01-29 11:40:05.20	315.33	7.72	-44.5	-59.7	3.6	1.51e+00	0	31	104	0	60	39030
2026-01-29 11:40:06.50	315.58	7.65	-44.5	-59.6	3.6	1.51e+00	0	31	104	0	60	38935
2026-01-29 11:40:07.21	315.71	7.61	-44.9	-59.7	3.6	1.51e+00	0	31	104	0	60	39351
2026-01-29 11:40:08.51	315.96	7.54	-44.5	-59.6	3.6	1.51e+00	0	31	104	0	60	38843
2026-01-29 11:40:09.23	316.10	7.50	-44.5	-59.6	3.6	1.51e+00	0	31	104	0	60	38815
2026-01-29 11:40:10.52	316.34	7.43	-44.7	-59.6	3.6	1.51e+00	0	31	104	0	60	38844
2026-01-29 11:40:11.25	316.48	7.39	-44.9	-59.6	3.6	1.51e+00	0	31	104	0	60	38921
2026-01-29 11:40:12.54	316.72	7.32	-44.8	-59.6	3.6	1.51e+00	0	31	104	0	60	38776
2026-01-29 11:40:13.26	316.85	7.28	-44.6	-59.6	3.6	1.51e+00	0	31	104	0	60	38756
2026-01-29 11:40:14.56	317.09	7.21	-44.9	-59.6	3.6	1.51e+00	0	31	104	0	60	38812
2026-01-29 11:40:15.28	317.23	7.18	-44.9	-59.7	3.6	1.51e+00	0	31	104	0	60	39050
2026-01-29 11:40:16.58	317.47	7.11	-44.9	-59.6	3.5	1.51e+00	0	31	104	0	60	38777
2026-01-29 11:40:17.30	317.60	7.07	-44.8	-59.6	3.6	1.51e+00	0	31	104	0	60	38607
2026-01-29 11:40:18.60	317.83	7.00	-44.7	-59.6	3.6	1.51e+00	0	31	104	0	60	38694
2026-01-29 11:40:19.32	317.97	6.96	-44.7	-59.7	3.6	1.51e+00	0	31	104	0	60	38990
2026-01-29 11:40:20.62	318.20	6.89	-44.6	-59.6	3.6	1.51e+00	0	31	104	0	60	38618
2026-01-29 11:40:21.35	318.33	6.85	-44.6	-59.6	3.6	1.51e+00	0	31	104	0	60	38577
2026-01-29 11:40:22.64	318.56	6.78	-44.6	-59.6	3.6	1.51e+00	0	31	104	0	60	38545
2026-01-29 11:40:23.36	318.69	6.74	-44.6	-59.6	3.6	1.51e+00	0	31	104	0	60	38692
2026-01-29 11:40:24.66	318.92	6.67	-44.5	-59.5	3.6	1.51e+00	0	31	104	0	60	38440
2026-01-29 11:40:25.39	319.05	6.63	-44.6	-59.5	3.6	1.51e+00	0	31	104	0	60	38136
2026-01-29 11:40:26.68	319.28	6.56	-44.5	-59.5	3.6	1.51e+00	0	31	104	0	60	38340
2026-01-29 11:40:27.40	319.40	6.52	-44.7	-59.6	3.6	1.51e+00	0	31	104	0	60	38591
2026-01-29 11:40:28.70	319.63	6.45	-44.7	-59.5	3.6	1.51e+00	0	31	104	0	60	38203
2026-01-29 11:40:29.42	319.75	6.41	-44.6	-59.5	3.6	1.51e+00	0	31	104	0	60	38225
2026-01-29 11:40:30.72	319.98	6.33	-44.7	-59.5	3.6	1.51e+00	0	31	104	0	60	38326
2026-01-29 11:40:31.44	320.10	6.30	-44.7	-59.5	3.6	1.51e+00	0	31	104	0	60	38363
2026-01-29 11:40:32.74	320.32	6.22	-44.4	-59.4	3.6	1.51e+00	0	31	104	0	60	38068
2026-01-29 11:40:33.46	320.44	6.18	-44.5	-59.5	3.6	1.51e+00	0	31	104	0	60	38097
2026-01-29 11:40:34.75	320.66	6.11	-44.7	-59.5	3.6	1.51e+00	0	31	104	0	60	38224
2026-01-29 11:40:35.48	320.78	6.07	-44.5	-59.5	3.6	1.51e+00	0	31	104	0	60	38274
2026-01-29 11:40:36.77	321.00	6.00	-44.6	-59.5	3.6	1.51e+00	0	31	104	0	60	38462
2026-01-29 11:40:37.49	321.12	5.96	-44.6	-59.4	3.6	1.51e+00	0	31	104	0	60	37916
2026-01-29 11:40:38.79	321.34	5.89	-44.6	-59.5	3.6	1.51e+00	0	31	104	0	60	38252
2026-01-29 11:40:39.51	321.46	5.85	-44.7	-59.5	3.6	1.51e+00	0	31	104	0	60	38268
2026-01-29 11:40:40.80	321.67	5.78	-44.5	-59.5	3.6	1.51e+00	0	31	104	0	60	38110
2026-01-29 11:40:41.52	321.79	5.74	-44.5	-59.4	3.6	1.51e+00	0	31	104	0	60	37811
2026-01-29 11:40:42.82	322.00	5.67	-44.8	-59.4	3.6	1.51e+00	0	31	104	0	60	38012
2026-01-29 11:40:43.54	322.11	5.63	-44.8	-59.4	3.6	1.51e+00	0	31	104	0	60	38030
2026-01-29 11:40:44.84	322.32	5.56	-44.7	-59.4	3.6	1.51e+00	0	31	104	0	60	38021
2026-01-29 11:40:45.56	322.44	5.52	-44.6	-59.4	3.6	1.51e+00	0	31	104	0	60	37732
2026-01-29 11:40:46.86	322.65	5.45	-44.8	-59.4	3.6	1.51e+00	0	31	104	0	60	38065
2026-01-29 11:40:47.58	322.76	5.41	-44.6	-59.4	3.6	1.51e+00	0	31	104	0	60	38037
2026-01-29 11:40:48.87	322.97	5.34	-44.6	-59.4	3.6	1.51e+00	0	31	104	0	60	37748
2026-01-29 11:40:49.59	323.08	5.30	-44.6	-59.3	3.6	1.51e+00	0	31	104	0	60	37583
2026-01-29 11:40:50.89	323.28	5.23	-44.5	-59.4	3.6	1.51e+00	0	31	104	0	60	37935
2026-01-29 11:40:51.61	323.40	5.19	-44.5	-59.4	3.6	1.51e+00	0	31	104	0	60	37705
2026-01-29 11:40:52.91	323.60	5.12	-44.6	-59.4	3.6	1.51e+00	0	31	104	0	60	37760
2026-01-29 11:40:53.63	323.71	5.08	-44.2	-59.3	3.6	1.51e+00	0	31	104	0	60	37393
2026-01-29 11:40:54.93	323.91	5.01	-44.6	-59.4	3.6	1.51e+00	0	31	104	0	60	38036
2026-01-29 11:40:55.65	324.02	4.97	-44.4	-59.3	3.6	1.51e+00	0	31	104	0	60	37570
2026-01-29 11:40:56.94	324.22	4.90	-44.4	-59.3	3.6	1.51e+00	0	31	104	0	60	37412
2026-01-29 11:40:57.66	324.33	4.86	-44.2	-59.2	3.6	1.51e+00	0	31	104	0	60	37044
2026-01-29 11:40:58.96	324.52	4.78	-44.2	-59.4	3.6	1.51e+00	0	31	104	0	60	38014
2026-01-29 11:40:59.68	324.63	4.74	-44.4	-59.4	3.6	1.51e+00	0	31	104	0	60	37659
2026-01-29 11:41:00.98	324.83	4.67	-44.4	-59.3	3.6	1.51e+00	0	31	104	0	60	37437
2026-01-29 11:41:01.71	324.94	4.63	-44.3	-59.2	3.6	1.51e+00	0	31	104	0	60	37046
2026-01-29 11:41:03.00	325.13	4.56	-44.4	-59.4	3.6	1.51e+00	0	31	104	0	60	37871
2026-01-29 11:41:03.72	325.23	4.52	-44.5	-59.3	3.6	1.51e+00	0	31	104	0	60	37540
2026-01-29 11:41:05.02	325.43	4.45	-44.4	-59.3	3.6	1.51e+00	0	31	104	0	60	37213
2026-01-29 11:41:05.74	325.53	4.41	-44.4	-59.0	3.6	1.51e+00	0	31	104	0	60	36353
2026-01-29 11:41:07.04	325.72	4.34	-44.5	-59.4	3.6	1.51e+00	0	31	104	0	60	37789
2026-01-29 11:41:07.76	325.83	4.30	-44.5	-59.2	3.6	1.51e+00	0	31	104	0	60	37171
2026-01-29 11:41:09.06	326.01	4.23	-44.4	-59.2	3.6	1.51e+00	0	31	104	0	60	36932
2026-01-29 11:41:09.78	326.12	4.19	-44.3	-59.0	3.6	1.51e+00	0	31	104	0	60	36242
2026-01-29 11:41:11.08	326.30	4.12	-44.6	-59.3	3.6	1.51e+00	0	31	104	0	60	37515
2026-01-29 11:41:11.80	326.41	4.08	-44.5	-59.2	3.6	1.51e+00	0	31	104	0	60	36891
2026-01-29 11:41:13.10	326.59	4.01	-44.4	-59.1	3.6	1.51e+00	0	31	104	0	60	36772
2026-01-29 11:41:13.82	326.69	3.97	-44.2	-58.9	3.6	1.51e+00	0	31	104	0	60	35834
2026-01-29 11:41:15.11	326.87	3.90	-44.6	-59.3	3.6	1.51e+00	0	31	104	0	60	37488
2026-01-29 11:41:15.83	326.97	3.86	-44.4	-59.1	3.6	1.51e+00	0	31	104	0	60	36601
2026-01-29 11:41:17.13	327.15	3.79	-44.4	-59.1	3.6	1.51e+00	0	31	104	0	60	36691
2026-01-29 11:41:17.85	327.25	3.75	-44.1	-58.8	3.6	1.51e+00	0	31	104	0	60	35430
2026-01-29 11:41:19.15	327.43	3.68	-44.4	-59.2	3.6	1.51e+00	0	31	104	0	60	36980
2026-01-29 11:41:19.87	327.53	3.64	-44.1	-58.9	3.6	1.51e+00	0	31	104	0	60	35848
2026-01-29 11:41:21.17	327.71	3.57	-44.2	-58.9	3.6	1.51e+00	0	31	104	0	60	35871
2026-01-29 11:41:21.89	327.81	3.53	-43.9	-58.6	3.6	1.51e+00	0	31	104	0	60	34394
2026-01-29 11:41:23.19	327.98	3.46	-44.4	-59.1	3.6	1.51e+00	0	31	104	0	60	36383
2026-01-29 11:41:23.91	328.08	3.42	-43.6	-58.4	3.6	1.51e+00	0	31	104	0	60	33613
2026-01-29 11:41:25.21	328.26	3.35	-43.0	-57.8	3.6	1.51e+00	0	31	104	0	60	31329
2026-01-29 11:41:25.93	328.35	3.31	-42.5	-57.2	3.6	1.51e+00	0	31	104	0	60	29544
2026-01-29 11:41:27.22	328.52	3.24	-41.0	-55.7	3.6	1.51e+00	0	31	104	0	58	27686
2026-01-29 11:41:27.94	328.62	3.20	-42.0	-56.8	3.6	1.51e+00	0	31	104	0	58	31305
2026-01-29 11:41:29.24	328.79	3.13	-44.0	-58.8	3.6	1.51e+00	0	31	104	0	60	35245
2026-01-29 11:41:29.96	328.88	3.09	-41.3	-56.0	3.6	1.51e+00	0	31	104	0	58	28741
2026-01-29 11:41:31.25	329.05	3.02	-42.4	-57.2	3.6	1.51e+00	0	31	104	0	58	32807
2026-01-29 11:41:31.97	329.15	2.99	-44.4	-59.1	3.6	1.51e+00	0	31	104	0	60	36685
2026-01-29 11:41:33.27	329.31	2.92	-44.9	-59.7	3.6	1.51e+00	0	31	104	0	60	38988
2026-01-29 11:41:34.00	329.41	2.88	-45.1	-59.8	3.6	1.51e+00	0	31	104	0	60	39820
2026-01-29 11:41:35.29	329.57	2.81	-45.3	-60.0	3.6	1.51e+00	0	31	104	0	60	40770
2026-01-29 11:41:36.02	329.67	2.77	-45.5	-60.2	3.6	1.51e+00	0	31	104	0	60	41629
2026-01-29 11:41:37.31	329.83	2.70	-45.5	-60.4	3.6	1.51e+00	0	31	104	0	60	42409
2026-01-29 11:41:38.04	329.92	2.66	-45.5	-60.5	3.6	1.51e+00	0	31	104	0	60	42874
2026-01-29 11:41:39.34	330.09	2.59	-45.7	-60.5	3.6	1.51e+00	0	31	104	0	60	43064
2026-01-29 11:41:40.06	330.18	2.55	-45.4	-60.6	3.6	1.51e+00	0	31	104	0	60	43366
2026-01-29 11:41:41.35	330.34	2.48	-45.0	-60.6	3.6	1.51e+00	0	31	104	0	60	43554
2026-01-29 11:41:42.08	330.43	2.44	-45.2	-60.7	3.6	1.51e+00	0	31	104	0	60	43801
2026-01-29 11:41:43.37	330.59	2.37	-45.3	-60.6	3.6	1.51e+00	0	31	104	0	60	43607
2026-01-29 11:41:44.09	330.68	2.34	-45.4	-60.7	3.6	1.51e+00	0	31	104	0	60	43998
2026-01-29 11:41:45.39	330.84	2.27	-45.6	-60.6	3.6	1.51e+00	0	31	104	0	60	43643
2026-01-29 11:41:46.11	330.92	2.23	-45.6	-60.6	3.6	1.51e+00	0	31	104	0	60	43345
2026-01-29 11:41:47.41	331.08	2.16	-45.7	-60.6	3.5	1.51e+00	0	31	104	0	60	43528
2026-01-29 11:41:48.13	331.17	2.12	-45.5	-60.5	3.6	1.51e+00	0	31	104	0	60	43149
2026-01-29 11:41:49.43	331.32	2.05	-45.7	-60.4	3.6	1.51e+00	0	31	104	0	60	42611
2026-01-29 11:41:50.15	331.41	2.01	-45.6	-60.4	3.6	1.51e+00	0	31	104	0	60	42344
2026-01-29 11:41:51.45	331.57	1.94	-45.6	-60.5	3.6	1.51e+00	0	31	104	0	60	42880
2026-01-29 11:41:52.17	331.65	1.90	-45.6	-60.4	3.6	1.51e+00	0	31	104	0	60	42359
2026-01-29 11:41:53.47	331.80	1.84	-45.6	-60.3	3.6	1.51e+00	0	31	104	0	60	42147
2026-01-29 11:41:54.19	331.89	1.80	-45.6	-60.3	3.6	1.51e+00	0	31	104	0	60	42177
2026-01-29 11:41:55.49	332.04	1.73	-45.5	-60.2	3.6	1.51e+00	0	31	104	0	60	41439
2026-01-29 11:41:56.21	332.13	1.69	-45.6	-60.3	3.6	1.51e+00	0	31	104	0	60	41860
2026-01-29 11:41:57.51	332.28	1.62	-45.7	-60.4	3.6	1.51e+00	0	31	104	0	60	42321
2026-01-29 11:41:58.23	332.36	1.58	-45.7	-60.4	3.6	1.51e+00	0	31	104	0	60	42557
2026-01-29 11:41:59.53	332.51	1.52	-45.6	-60.4	3.6	1.51e+00	0	31	104	0	60	42430
2026-01-29 11:42:00.25	332.59	1.48	-45.6	-60.3	3.6	1.51e+00	0	31	104	0	60	42084
2026-01-29 11:42:01.55	332.74	1.41	-45.6	-60.4	3.6	1.51e+00	0	31	104	0	60	42415
2026-01-29 11:42:02.27	332.82	1.37	-45.6	-60.3	3.6	1.51e+00	0	31	104	0	60	41838
2026-01-29 11:42:03.57	332.97	1.30	-45.6	-60.3	3.6	1.51e+00	0	31	104	0	60	41993
2026-01-29 11:42:04.29	333.05	1.27	-45.6	-60.3	3.6	1.51e+00	0	31	104	0	60	42028
2026-01-29 11:42:05.59	333.20	1.20	-45.5	-60.2	3.6	1.51e+00	0	31	104	0	60	41624
2026-01-29 11:42:06.31	333.28	1.16	-45.5	-60.2	3.6	1.51e+00	0	31	104	0	60	41559
2026-01-29 11:42:07.60	333.42	1.09	-45.5	-60.2	3.6	1.51e+00	0	31	104	0	60	41525
2026-01-29 11:42:08.33	333.50	1.05	-45.6	-60.3	3.6	1.51e+00	0	31	104	0	60	42171
2026-01-29 11:42:09.62	333.64	0.99	-45.6	-60.3	3.6	1.51e+00	0	31	104	0	60	41943
2026-01-29 11:42:10.35	333.72	0.95	-45.6	-60.3	3.6	1.51e+00	0	31	104	0	60	41803
2026-01-29 11:42:11.65	333.87	0.88	-45.6	-60.3	3.6	1.51e+00	0	31	104	0	60	41827
2026-01-29 11:42:12.37	333.94	0.84	-45.6	-60.3	3.6	1.51e+00	0	31	104	0	60	41781
2026-01-29 11:42:13.67	334.08	0.78	-45.5	-60.2	3.6	1.51e+00	0	31	104	0	60	41555
2026-01-29 11:42:14.39	334.16	0.74	-45.5	-60.2	3.6	1.51e+00	0	31	104	0	60	41725
2026-01-29 11:42:15.68	334.30	0.67	-45.5	-60.2	3.6	1.51e+00	0	31	104	0	60	41343
2026-01-29 11:42:16.41	334.38	0.63	-45.5	-60.2	3.5	1.51e+00	0	31	104	0	60	41612
2026-01-29 11:42:17.71	334.52	0.57	-45.5	-60.2	3.6	1.51e+00	0	31	104	0	60	41675
2026-01-29 11:42:18.42	334.59	0.53	-45.5	-60.2	3.6	1.51e+00	0	31	104	0	60	41616
2026-01-29 11:42:19.72	334.73	0.46	-45.5	-60.2	3.6	1.51e+00	0	31	104	0	60	41370
2026-01-29 11:42:20.45	334.81	0.43	-45.5	-60.2	3.6	1.51e+00	0	31	104	0	60	41689
2026-01-29 11:42:21.74	334.94	0.36	-45.5	-60.2	3.6	1.51e+00	0	31	104	0	60	41533
2026-01-29 11:42:22.47	335.02	0.32	-45.6	-60.3	3.6	1.51e+00	0	31	104	0	60	41828
2026-01-29 11:42:23.77	335.15	0.25	-45.6	-60.3	3.6	1.51e+00	0	31	104	0	60	41762
2026-01-29 11:42:24.49	335.23	0.22	-45.6	-60.2	3.5	1.51e+00	0	31	104	0	60	41713
2026-01-29 11:42:25.79	335.36	0.15	-45.5	-60.2	3.6	1.51e+00	0	31	104	0	60	41521
2026-01-29 11:42:26.51	335.43	0.11	-45.6	-60.3	3.6	1.51e+00	0	31	104	0	60	42142
2026-01-29 11:42:27.81	335.57	0.05	-45.5	-60.2	3.6	1.51e+00	0	31	104	0	60	41506
2026-01-29 11:42:28.53	335.64	0.01	-45.5	-60.2	3.6	1.51e+00	0	31	104	0	60	41445
2026-01-29 11:42:29.83	335.77	-0.06	-45.5	-60.3	3.6	1.51e+00	0	31	104	0	60	41841
2026-01-29 11:42:30.55	335.84	-0.09	-45.6	-60.3	3.6	1.51e+00	0	31	104	0	60	41948

#Closed at: 2026-01-29 11:42:31
#Recorded file [0 MB]: D:/lorett/data/35029_260129_233248.dat