passes_logs/2026/01/29/R4.6S_Anadyr/R4.6S_Anadyr__20260129_023309_FENGYUN_3D_rec.log

#Pass ID: 20260129_023309_FENGYUN 3D
#Satellite: FENGYUN 3D
#Configuration: FENGYUN 3D
#almurnet v.1.7.20251203
#Start time: 2026-01-29 02:33:11

#Version: 2.2.20231116
#Station: R4.6S_Anadyr
#Location: 177.4865 lon 64.73178 lat
#TLE: 1 43010U 17072A   26027.97130493  .00000326  00000+0  17586-3 0  9998
#TLE: 2 43010  98.9960 359.9900 0002514  87.8428 272.3036 14.19701925425097

#Time	Az	El	Level	Level2	SNR	BER	BlckErr	Temp	State	Recorded	gain1	gain2
2026-01-29 02:33:11.70	162.76	0.14	-45.6	-60.0	3.5	1.51e+00	0	29	0	0	60	40535
2026-01-29 02:33:12.71	162.77	0.20	-48.7	-60.9	3.6	8.45e-01	0	30	104	0	60	39947
2026-01-29 02:33:13.72	162.79	0.26	-48.8	-60.9	3.6	8.45e-01	0	30	104	0	60	39891
2026-01-29 02:33:14.73	162.80	0.33	-48.8	-60.8	3.6	8.46e-01	0	31	104	0	60	39751
2026-01-29 02:33:15.74	162.81	0.39	-48.8	-60.9	3.6	8.46e-01	0	31	104	0	60	40198
2026-01-29 02:33:16.75	162.82	0.45	-48.7	-60.9	3.6	8.45e-01	0	31	104	0	60	40063
2026-01-29 02:33:17.76	162.83	0.51	-48.8	-60.9	3.6	8.46e-01	0	31	104	0	60	40138
2026-01-29 02:33:18.77	162.85	0.57	-48.8	-60.9	3.6	8.46e-01	0	31	104	0	60	40104
2026-01-29 02:33:19.78	162.86	0.63	-48.8	-60.9	3.6	8.44e-01	0	31	104	0	60	40296
2026-01-29 02:33:20.79	162.87	0.69	-48.9	-61.0	3.6	8.46e-01	0	31	104	0	60	40483
2026-01-29 02:33:21.80	162.88	0.76	-48.9	-60.9	3.6	8.45e-01	0	31	104	0	60	40277
2026-01-29 02:33:22.81	162.90	0.82	-48.9	-60.9	3.6	8.45e-01	0	31	104	0	60	40227
2026-01-29 02:33:23.82	162.91	0.88	-48.8	-60.9	3.6	8.44e-01	0	31	104	0	60	40152
2026-01-29 02:33:24.83	162.92	0.94	-48.7	-60.9	3.5	8.44e-01	0	31	104	0	60	39942
2026-01-29 02:33:25.84	162.93	1.00	-48.6	-60.8	3.6	8.44e-01	0	31	104	0	60	39750
2026-01-29 02:33:26.85	162.95	1.07	-48.6	-60.8	3.6	8.45e-01	0	31	104	0	60	39695
2026-01-29 02:33:27.86	162.96	1.13	-48.4	-60.7	3.6	8.46e-01	0	31	104	0	60	38963
2026-01-29 02:33:28.87	162.97	1.19	-48.4	-60.6	3.6	8.46e-01	0	31	104	0	60	38651
2026-01-29 02:33:29.88	162.98	1.26	-48.4	-60.4	3.6	8.46e-01	0	31	104	0	60	37975
2026-01-29 02:33:30.89	163.00	1.32	-48.2	-60.3	3.6	8.46e-01	0	31	104	0	60	37585
2026-01-29 02:33:31.90	163.01	1.38	-46.8	-58.9	3.6	8.45e-01	0	31	104	0	60	31964
2026-01-29 02:33:32.91	163.02	1.45	-47.7	-59.8	3.6	8.47e-01	0	31	104	0	60	35339
2026-01-29 02:33:33.93	163.03	1.51	-47.6	-59.7	3.6	8.47e-01	0	31	104	0	60	35085
2026-01-29 02:33:34.93	163.05	1.57	-47.4	-59.3	3.6	8.46e-01	0	31	104	0	60	33394
2026-01-29 02:33:35.94	163.06	1.64	-47.4	-59.2	3.6	8.46e-01	0	31	104	0	60	32888
2026-01-29 02:33:36.95	163.07	1.70	-47.4	-59.2	3.6	8.45e-01	0	31	104	0	60	32838
2026-01-29 02:33:37.97	163.09	1.77	-47.4	-59.1	3.6	8.47e-01	0	31	104	0	60	32525
2026-01-29 02:33:38.98	163.10	1.83	-47.4	-59.2	3.6	8.46e-01	0	31	104	0	60	32881
2026-01-29 02:33:39.98	163.11	1.89	-47.4	-59.3	3.6	8.46e-01	0	31	104	0	60	33375
2026-01-29 02:33:40.99	163.13	1.96	-47.4	-59.4	3.6	8.45e-01	0	31	104	0	60	33821
2026-01-29 02:33:42.00	163.14	2.02	-47.5	-59.5	3.6	8.43e-01	0	31	104	0	60	34005
2026-01-29 02:33:43.01	163.15	2.09	-47.5	-59.6	3.6	8.45e-01	0	31	104	0	60	34439
2026-01-29 02:33:44.02	163.16	2.15	-47.5	-59.6	3.6	8.45e-01	0	31	104	0	60	34427
2026-01-29 02:33:45.03	163.18	2.22	-47.5	-59.6	3.6	8.45e-01	0	31	104	0	60	34400
2026-01-29 02:33:46.04	163.19	2.28	-47.5	-59.5	3.6	8.45e-01	0	31	104	0	60	34248
2026-01-29 02:33:47.05	163.20	2.35	-47.4	-59.4	3.6	8.44e-01	0	31	104	0	60	33624
2026-01-29 02:33:48.06	163.22	2.41	-47.4	-58.9	3.6	8.44e-01	0	31	104	0	60	31779
2026-01-29 02:33:49.07	163.23	2.48	-47.3	-58.2	3.6	8.45e-01	0	31	104	0	60	29462
2026-01-29 02:33:50.08	163.25	2.54	-47.3	-57.6	3.6	8.43e-01	0	31	104	0	60	27407
2026-01-29 02:33:51.09	163.26	2.61	-47.1	-56.0	3.9	8.42e-01	0	31	104	0	60	22918
2026-01-29 02:33:52.09	163.27	2.68	-47.2	-56.6	3.8	8.41e-01	0	31	104	0	60	24360
2026-01-29 02:33:53.10	163.29	2.74	-47.2	-56.5	3.9	8.41e-01	0	31	104	0	60	24031
2026-01-29 02:33:54.11	163.30	2.81	-47.2	-56.9	3.7	8.44e-01	0	31	104	0	60	25436
2026-01-29 02:33:55.12	163.31	2.88	-47.3	-57.6	3.6	8.44e-01	0	31	104	0	60	27299
2026-01-29 02:33:56.13	163.33	2.94	-47.3	-57.5	3.7	8.45e-01	0	31	104	0	60	26996
2026-01-29 02:33:57.14	163.34	3.01	-46.8	-53.2	4.6	8.23e-01	0	31	0	0	60	16558
2026-01-29 02:33:58.15	163.35	3.08	-45.7	-49.6	8.1	2.46e-01	0	31	0	3145728	60	10967
2026-01-29 02:33:59.16	163.37	3.14	-44.7	-47.7	10.6	1.35e-02	0	31	0	9437184	60	8810
2026-01-29 02:34:00.17	163.38	3.21	-43.0	-45.0	13.4	8.81e-05	0	31	0	14680064	60	6454
2026-01-29 02:34:01.18	163.40	3.28	-41.1	-42.6	16.2	0.00e+00	0	31	0	20971520	56	6138
2026-01-29 02:34:02.20	163.41	3.35	-39.9	-41.2	17.3	0.00e+00	0	31	0	26214400	54	5863
2026-01-29 02:34:03.21	163.43	3.42	-38.7	-39.8	18.8	0.00e+00	0	31	0	31457280	50	6264
2026-01-29 02:34:04.22	163.44	3.48	-37.4	-38.3	20.2	0.00e+00	0	31	0	37748736	48	5931
2026-01-29 02:34:05.22	163.45	3.55	-37.4	-38.3	20.3	0.00e+00	0	31	0	42991616	48	5927
2026-01-29 02:34:06.23	163.47	3.62	-36.9	-37.7	20.8	0.00e+00	0	31	0	49283072	46	6238
2026-01-29 02:34:07.24	163.48	3.69	-36.9	-37.8	20.7	0.00e+00	0	31	0	54525952	46	6267
2026-01-29 02:34:08.25	163.50	3.76	-37.0	-37.9	20.6	0.00e+00	0	31	0	59768832	46	6371
2026-01-29 02:34:09.26	163.51	3.83	-37.5	-38.4	20.0	0.00e+00	0	31	0	66060288	46	6725
2026-01-29 02:34:10.26	163.53	3.89	-37.6	-38.4	20.7	0.00e+00	0	31	0	71303168	50	5366
2026-01-29 02:34:11.28	163.54	3.96	-37.1	-38.0	20.8	0.00e+00	0	31	0	77594624	48	5719
2026-01-29 02:34:12.28	163.55	4.03	-44.7	-47.4	12.1	1.89e-01	0	31	0	82837504	60	8443
2026-01-29 02:34:13.29	163.57	4.10	-37.5	-38.4	20.7	0.00e+00	0	31	0	88080384	52	4754
2026-01-29 02:34:14.30	163.58	4.17	-46.8	-54.2	4.5	8.39e-01	0	31	104	91226112	60	18584
2026-01-29 02:34:15.31	163.60	4.24	-36.7	-37.6	21.0	0.00e+00	0	31	0	91226112	46	6121
2026-01-29 02:34:16.32	163.61	4.31	-36.9	-37.8	20.7	0.00e+00	0	31	0	97517568	46	6256
2026-01-29 02:34:17.33	163.63	4.38	-36.5	-37.4	21.1	0.00e+00	0	31	0	102760448	46	6000
2026-01-29 02:34:18.34	163.64	4.45	-36.7	-37.6	21.1	0.00e+00	0	31	0	109051904	46	6107
2026-01-29 02:34:19.35	163.66	4.52	-36.5	-37.4	21.3	0.00e+00	0	31	0	114294784	46	5976
2026-01-29 02:34:20.36	163.67	4.60	-36.4	-37.2	21.5	0.00e+00	0	31	0	120586240	46	5893
2026-01-29 02:34:21.37	163.69	4.67	-35.5	-36.3	22.3	0.00e+00	0	31	0	125829120	44	5936
2026-01-29 02:34:22.38	163.70	4.74	-35.5	-36.3	22.2	0.00e+00	0	31	0	132120576	44	5953
2026-01-29 02:34:23.39	163.72	4.81	-35.8	-36.6	21.9	0.00e+00	0	31	0	137363456	44	6108
2026-01-29 02:34:24.39	163.73	4.88	-35.6	-36.4	22.3	0.00e+00	0	31	0	142606336	44	6014
2026-01-29 02:34:25.40	163.75	4.95	-35.5	-36.3	22.1	0.00e+00	0	31	0	148897792	44	5926
2026-01-29 02:34:26.41	163.77	5.02	-35.9	-36.7	22.0	0.00e+00	0	31	0	154140672	44	6188
2026-01-29 02:34:27.42	163.78	5.10	-35.7	-36.5	22.2	0.00e+00	0	31	0	160432128	44	6073
2026-01-29 02:34:28.42	163.80	5.17	-35.4	-36.2	22.5	0.00e+00	0	31	0	165675008	44	5845
2026-01-29 02:34:29.43	163.81	5.24	-35.9	-36.7	21.9	0.00e+00	0	31	0	170917888	44	6214
2026-01-29 02:34:30.44	163.83	5.31	-35.4	-36.1	22.6	0.00e+00	0	31	0	177209344	44	5821
2026-01-29 02:34:31.45	163.84	5.39	-35.6	-36.4	22.2	0.00e+00	0	31	0	182452224	44	6007
2026-01-29 02:34:32.46	163.86	5.46	-35.5	-36.2	22.4	0.00e+00	0	31	0	187695104	44	5878
2026-01-29 02:34:33.47	163.87	5.53	-35.4	-36.2	22.5	0.00e+00	0	31	0	193986560	44	5857
2026-01-29 02:34:34.48	163.89	5.61	-35.3	-36.0	22.8	0.00e+00	0	31	0	199229440	44	5760
2026-01-29 02:34:35.49	163.91	5.68	-34.5	-35.2	23.5	0.00e+00	0	32	0	205520896	42	5862
2026-01-29 02:34:36.50	163.92	5.76	-34.8	-35.5	23.1	0.00e+00	0	31	0	210763776	42	6076
2026-01-29 02:34:37.51	163.94	5.83	-35.1	-35.9	22.9	0.00e+00	0	31	0	217055232	42	6334
2026-01-29 02:34:38.52	163.95	5.90	-34.7	-35.5	23.3	0.00e+00	0	31	0	222298112	42	6034
2026-01-29 02:34:39.53	163.97	5.98	-34.4	-35.1	23.5	0.00e+00	0	32	0	228589568	42	5816
2026-01-29 02:34:40.54	163.99	6.05	-34.7	-35.4	23.2	0.00e+00	0	31	0	233832448	42	6026
2026-01-29 02:34:41.55	164.00	6.13	-34.7	-35.5	23.2	0.00e+00	0	32	0	239075328	42	6035
2026-01-29 02:34:42.56	164.02	6.20	-34.3	-35.0	23.7	0.00e+00	0	32	0	245366784	42	5723
2026-01-29 02:34:43.57	164.04	6.28	-34.3	-35.0	23.7	0.00e+00	0	32	0	250609664	42	5739
2026-01-29 02:34:44.57	164.05	6.35	-34.6	-35.3	23.3	0.00e+00	0	32	0	256901120	42	5958
2026-01-29 02:34:45.58	164.07	6.43	-34.3	-35.1	23.7	0.00e+00	0	32	0	262144000	42	5776
2026-01-29 02:34:46.59	164.09	6.51	-34.5	-35.2	23.5	0.00e+00	0	32	0	267386880	42	5870
2026-01-29 02:34:47.60	164.10	6.58	-34.4	-35.2	23.6	0.00e+00	0	32	0	273678336	42	5834
2026-01-29 02:34:48.61	164.12	6.66	-34.6	-35.4	23.4	0.00e+00	0	32	0	278921216	42	5985
2026-01-29 02:34:49.62	164.14	6.74	-34.6	-35.4	23.4	0.00e+00	0	31	0	285212672	42	5967
2026-01-29 02:34:50.63	164.15	6.81	-34.7	-35.4	23.4	0.00e+00	0	31	0	290455552	42	5999
2026-01-29 02:34:51.64	164.17	6.89	-34.3	-35.0	23.8	0.00e+00	0	32	0	295698432	42	5728
2026-01-29 02:34:52.65	164.19	6.97	-34.4	-35.1	23.7	0.00e+00	0	32	0	301989888	42	5827
2026-01-29 02:34:53.66	164.21	7.05	-34.2	-34.9	23.9	0.00e+00	0	32	0	307232768	42	5671
2026-01-29 02:34:54.67	164.22	7.13	-34.3	-35.0	23.8	0.00e+00	0	32	0	313524224	42	5706
2026-01-29 02:34:55.68	164.24	7.20	-34.2	-34.9	23.9	0.00e+00	0	32	0	318767104	42	5633
2026-01-29 02:34:56.69	164.26	7.28	-34.3	-35.0	23.6	0.00e+00	0	32	0	325058560	42	5735
2026-01-29 02:34:57.70	164.28	7.36	-34.2	-34.9	23.9	0.00e+00	0	32	0	330301440	42	5651
2026-01-29 02:34:58.71	164.29	7.44	-34.4	-35.1	23.8	0.00e+00	0	31	0	335544320	42	5799
2026-01-29 02:34:59.72	164.31	7.52	-34.2	-34.9	23.9	0.00e+00	0	32	0	341835776	42	5688
2026-01-29 02:35:00.73	164.33	7.60	-34.2	-34.9	23.9	0.00e+00	0	32	0	347078656	42	5680
2026-01-29 02:35:01.74	164.35	7.68	-34.2	-35.0	23.9	0.00e+00	0	32	0	353370112	42	5704
2026-01-29 02:35:02.75	164.36	7.76	-34.2	-34.9	24.0	0.00e+00	0	32	0	358612992	42	5657
2026-01-29 02:35:03.76	164.38	7.84	-34.2	-34.9	24.0	0.00e+00	0	32	0	363855872	42	5672
2026-01-29 02:35:04.77	164.40	7.92	-34.2	-34.9	24.0	0.00e+00	0	32	0	370147328	42	5652
2026-01-29 02:35:05.78	164.42	8.00	-34.2	-34.9	23.9	0.00e+00	0	31	0	375390208	42	5689
2026-01-29 02:35:06.79	164.44	8.08	-34.4	-35.1	23.8	0.00e+00	0	32	0	381681664	42	5800
2026-01-29 02:35:07.79	164.46	8.16	-34.0	-34.7	24.2	0.00e+00	0	32	0	386924544	42	5538
2026-01-29 02:35:08.80	164.47	8.24	-34.0	-34.7	24.2	0.00e+00	0	32	0	392167424	42	5548
2026-01-29 02:35:09.81	164.49	8.33	-34.1	-34.8	24.1	0.00e+00	0	32	0	398458880	42	5609
2026-01-29 02:35:10.82	164.51	8.41	-34.1	-34.8	24.1	0.00e+00	0	32	0	403701760	42	5589
2026-01-29 02:35:11.83	164.53	8.49	-34.0	-34.7	24.2	0.00e+00	0	32	0	409993216	42	5550
2026-01-29 02:35:12.84	164.55	8.57	-34.0	-34.7	24.2	0.00e+00	0	32	0	415236096	42	5540
2026-01-29 02:35:13.85	164.57	8.66	-33.9	-34.6	24.3	0.00e+00	0	32	0	421527552	42	5483
2026-01-29 02:35:14.86	164.59	8.74	-34.0	-34.7	24.2	0.00e+00	0	32	0	426770432	42	5529
2026-01-29 02:35:15.87	164.61	8.82	-33.9	-34.6	24.3	0.00e+00	0	32	0	433061888	42	5459
2026-01-29 02:35:16.88	164.62	8.91	-33.9	-34.6	24.2	0.00e+00	0	32	0	438304768	42	5502
2026-01-29 02:35:17.89	164.64	8.99	-33.9	-34.6	24.3	0.00e+00	0	32	0	443547648	42	5496
2026-01-29 02:35:18.90	164.66	9.07	-34.0	-34.7	24.3	0.00e+00	0	32	0	449839104	42	5564
2026-01-29 02:35:19.91	164.68	9.16	-33.7	-34.4	24.5	0.00e+00	0	32	0	455081984	40	6029
2026-01-29 02:35:20.92	164.70	9.24	-33.9	-34.6	24.3	0.00e+00	0	32	0	461373440	40	6121
2026-01-29 02:35:21.93	164.72	9.33	-33.8	-34.5	24.4	0.00e+00	0	32	0	466616320	40	6052
2026-01-29 02:35:22.94	164.74	9.42	-33.9	-34.6	24.3	0.00e+00	0	32	0	471859200	40	6126
2026-01-29 02:35:23.95	164.76	9.50	-33.5	-34.2	24.7	0.00e+00	0	32	0	478150656	40	5887
2026-01-29 02:35:24.96	164.78	9.59	-33.7	-34.4	24.5	0.00e+00	0	32	0	483393536	40	5988
2026-01-29 02:35:25.97	164.80	9.67	-33.7	-34.4	24.5	0.00e+00	0	32	0	489684992	40	5998
2026-01-29 02:35:26.98	164.82	9.76	-33.7	-34.4	24.5	0.00e+00	0	32	0	494927872	40	6016
2026-01-29 02:35:27.99	164.84	9.85	-33.6	-34.2	24.7	0.00e+00	0	32	0	500170752	40	5890
2026-01-29 02:35:29.00	164.86	9.93	-33.5	-34.2	24.7	0.00e+00	0	32	0	506462208	40	5850
2026-01-29 02:35:30.01	164.88	10.02	-33.4	-34.1	24.9	0.00e+00	0	32	0	511705088	40	5770
2026-01-29 02:35:31.02	164.90	10.11	-33.5	-34.2	24.8	0.00e+00	0	32	0	517996544	40	5841
2026-01-29 02:35:32.03	164.92	10.20	-33.6	-34.3	24.7	0.00e+00	0	32	0	523239424	40	5905
2026-01-29 02:35:33.04	164.94	10.29	-33.5	-34.2	24.6	0.00e+00	0	32	0	529530880	40	5881
2026-01-29 02:35:34.05	164.96	10.38	-33.5	-34.2	24.7	0.00e+00	0	32	0	534773760	40	5852
2026-01-29 02:35:35.06	164.99	10.46	-33.4	-34.1	24.8	0.00e+00	0	32	0	540016640	40	5819
2026-01-29 02:35:36.07	165.01	10.55	-33.3	-34.0	24.8	0.00e+00	0	32	0	546308096	40	5742
2026-01-29 02:35:37.08	165.03	10.64	-33.3	-34.0	24.9	0.00e+00	0	32	0	551550976	40	5719
2026-01-29 02:35:38.09	165.05	10.73	-33.5	-34.1	24.8	0.00e+00	0	32	0	557842432	40	5821
2026-01-29 02:35:39.10	165.07	10.82	-33.3	-34.0	24.9	0.00e+00	0	32	0	563085312	40	5740
2026-01-29 02:35:40.11	165.09	10.92	-33.3	-34.0	25.0	0.00e+00	0	32	0	568328192	40	5709
2026-01-29 02:35:41.12	165.11	11.01	-33.4	-34.1	24.9	0.00e+00	0	32	0	574619648	40	5799
2026-01-29 02:35:42.13	165.13	11.10	-33.4	-34.1	24.9	0.00e+00	0	32	0	579862528	40	5774
2026-01-29 02:35:43.14	165.16	11.19	-33.5	-34.2	24.7	0.00e+00	0	32	0	586153984	40	5884
2026-01-29 02:35:44.15	165.18	11.28	-33.4	-34.0	24.9	0.00e+00	0	32	0	591396864	40	5759
2026-01-29 02:35:45.16	165.20	11.37	-33.4	-34.1	24.9	0.00e+00	0	32	0	596639744	40	5798
2026-01-29 02:35:46.17	165.22	11.47	-33.5	-34.2	24.7	0.00e+00	0	32	0	602931200	40	5863
2026-01-29 02:35:47.18	165.24	11.56	-33.5	-34.2	24.7	0.00e+00	0	32	0	608174080	40	5875
2026-01-29 02:35:48.18	165.27	11.65	-33.6	-34.3	24.7	0.00e+00	0	32	0	614465536	40	5930
2026-01-29 02:35:49.19	165.29	11.75	-33.2	-33.9	25.0	0.00e+00	0	32	0	619708416	40	5653
2026-01-29 02:35:50.20	165.31	11.84	-33.3	-34.0	24.9	0.00e+00	0	32	0	625999872	40	5739
2026-01-29 02:35:51.21	165.33	11.94	-33.2	-33.9	24.9	0.00e+00	0	32	0	631242752	40	5658
2026-01-29 02:35:52.22	165.36	12.03	-33.3	-34.0	25.0	0.00e+00	0	32	0	637534208	40	5697
2026-01-29 02:35:53.23	165.38	12.13	-33.3	-34.0	24.9	0.00e+00	0	32	0	642777088	40	5706
2026-01-29 02:35:54.23	165.40	12.22	-33.2	-33.9	25.0	0.00e+00	0	32	0	648019968	40	5650
2026-01-29 02:35:55.25	165.43	12.32	-33.2	-33.9	25.0	0.00e+00	0	32	0	654311424	40	5684
2026-01-29 02:35:56.26	165.45	12.41	-33.2	-33.9	25.1	0.00e+00	0	32	0	659554304	40	5646
2026-01-29 02:35:57.27	165.47	12.51	-33.4	-34.1	25.0	0.00e+00	0	32	0	665845760	40	5768
2026-01-29 02:35:58.27	165.50	12.61	-33.1	-33.8	25.0	0.00e+00	0	32	0	671088640	40	5616
2026-01-29 02:35:59.28	165.52	12.71	-33.4	-34.1	24.9	0.00e+00	0	32	0	676331520	40	5783
2026-01-29 02:36:00.29	165.55	12.80	-32.8	-33.5	25.4	0.00e+00	0	32	0	682622976	40	5426
2026-01-29 02:36:01.30	165.57	12.90	-32.9	-33.6	25.3	0.00e+00	0	32	0	687865856	40	5447
2026-01-29 02:36:02.31	165.59	13.00	-33.0	-33.6	25.2	0.00e+00	0	32	0	693108736	40	5496
2026-01-29 02:36:03.32	165.62	13.10	-32.8	-33.5	25.4	0.00e+00	0	32	0	699400192	38	6047
2026-01-29 02:36:04.33	165.64	13.20	-32.7	-33.4	25.6	0.00e+00	0	32	0	704643072	38	5977
2026-01-29 02:36:05.34	165.67	13.30	-32.7	-33.4	25.5	0.00e+00	0	32	0	710934528	38	6006
2026-01-29 02:36:06.35	165.69	13.40	-32.7	-33.4	25.6	0.00e+00	0	32	0	716177408	38	5996
2026-01-29 02:36:07.36	165.72	13.50	-32.5	-33.2	25.8	0.00e+00	0	32	0	722468864	38	5845
2026-01-29 02:36:08.37	165.74	13.60	-32.4	-33.1	25.8	0.00e+00	0	32	0	727711744	38	5769
2026-01-29 02:36:09.38	165.77	13.70	-32.5	-33.2	25.8	0.00e+00	0	32	0	734003200	38	5840
2026-01-29 02:36:10.39	165.79	13.81	-32.3	-33.0	26.0	0.00e+00	0	32	0	739246080	38	5723
2026-01-29 02:36:11.39	165.82	13.91	-32.3	-33.0	25.9	0.00e+00	0	32	0	744488960	38	5705
2026-01-29 02:36:12.40	165.84	14.01	-32.4	-33.1	25.9	0.00e+00	0	32	0	750780416	38	5770
2026-01-29 02:36:13.41	165.87	14.11	-32.2	-32.8	26.1	0.00e+00	0	32	0	756023296	38	5615
2026-01-29 02:36:14.42	165.90	14.22	-32.2	-32.8	26.1	0.00e+00	0	32	0	762314752	38	5602
2026-01-29 02:36:15.43	165.92	14.32	-32.3	-33.0	26.0	0.00e+00	0	32	0	767557632	38	5699
2026-01-29 02:36:16.44	165.95	14.43	-32.1	-32.7	26.1	0.00e+00	0	32	0	772800512	38	5558
2026-01-29 02:36:17.45	165.97	14.53	-32.1	-32.8	26.2	0.00e+00	0	32	0	779091968	38	5567
2026-01-29 02:36:18.46	166.00	14.64	-32.2	-32.8	26.1	0.00e+00	0	32	0	784334848	38	5604
2026-01-29 02:36:19.47	166.03	14.74	-31.9	-32.6	26.3	0.00e+00	0	32	0	790626304	38	5451
2026-01-29 02:36:20.48	166.05	14.85	-32.1	-32.7	26.1	0.00e+00	0	32	0	795869184	38	5543
2026-01-29 02:36:21.49	166.08	14.96	-32.1	-32.8	26.1	0.00e+00	0	32	0	801112064	38	5572
2026-01-29 02:36:22.50	166.11	15.06	-31.9	-32.5	26.3	0.00e+00	0	32	0	807403520	38	5430
2026-01-29 02:36:23.51	166.14	15.17	-31.9	-32.5	26.3	0.00e+00	0	32	0	812646400	38	5423
2026-01-29 02:36:24.52	166.16	15.28	-32.0	-32.6	26.3	0.00e+00	0	32	0	818937856	38	5460
2026-01-29 02:36:25.53	166.19	15.39	-31.9	-32.5	26.3	0.00e+00	0	32	0	824180736	38	5398
2026-01-29 02:36:26.54	166.22	15.50	-31.9	-32.6	26.3	0.00e+00	0	32	0	830472192	38	5482
2026-01-29 02:36:27.55	166.25	15.61	-32.1	-32.8	26.2	0.00e+00	0	32	0	835715072	38	5575
2026-01-29 02:36:28.56	166.28	15.72	-31.8	-32.4	26.6	0.00e+00	0	32	0	840957952	38	5329
2026-01-29 02:36:29.57	166.30	15.83	-32.0	-32.6	26.2	0.00e+00	0	32	0	847249408	38	5484
2026-01-29 02:36:30.58	166.33	15.94	-31.7	-32.3	26.6	0.00e+00	0	32	0	852492288	36	5959
2026-01-29 02:36:31.59	166.36	16.05	-31.8	-32.5	26.3	0.00e+00	0	32	0	858783744	36	6034
2026-01-29 02:36:32.60	166.39	16.17	-31.5	-32.2	26.7	0.00e+00	0	32	0	864026624	36	5831
2026-01-29 02:36:33.61	166.42	16.28	-31.4	-32.1	26.7	0.00e+00	0	32	0	869269504	36	5764
2026-01-29 02:36:34.62	166.45	16.39	-31.6	-32.2	26.7	0.00e+00	0	32	0	875560960	36	5866
2026-01-29 02:36:35.63	166.48	16.51	-31.4	-32.0	26.9	0.00e+00	0	32	0	880803840	36	5723
2026-01-29 02:36:36.64	166.51	16.62	-31.5	-32.1	26.7	0.00e+00	0	32	0	887095296	36	5807
2026-01-29 02:36:37.65	166.54	16.74	-31.5	-32.2	26.6	0.00e+00	0	32	0	892338176	36	5829
2026-01-29 02:36:38.66	166.57	16.85	-31.5	-32.1	26.9	0.00e+00	0	32	0	897581056	36	5788
2026-01-29 02:36:39.67	166.60	16.97	-31.5	-32.1	26.8	0.00e+00	0	32	0	903872512	36	5804
2026-01-29 02:36:40.68	166.63	17.08	-31.4	-32.1	26.9	0.00e+00	0	32	0	909115392	36	5766
2026-01-29 02:36:41.69	166.66	17.20	-31.5	-32.1	26.7	0.00e+00	0	32	0	915406848	36	5805
2026-01-29 02:36:42.70	166.69	17.32	-31.4	-32.0	26.8	0.00e+00	0	32	0	920649728	36	5728
2026-01-29 02:36:43.70	166.72	17.44	-31.4	-32.0	26.9	0.00e+00	0	32	0	926941184	36	5722
2026-01-29 02:36:44.71	166.76	17.56	-31.4	-32.0	26.9	0.00e+00	0	32	0	932184064	36	5708
2026-01-29 02:36:45.72	166.79	17.67	-31.3	-31.9	27.0	0.00e+00	0	32	0	938475520	36	5670
2026-01-29 02:36:46.73	166.82	17.79	-31.4	-32.1	26.9	0.00e+00	0	32	0	943718400	36	5798
2026-01-29 02:36:47.74	166.85	17.92	-31.3	-31.9	27.0	0.00e+00	0	32	0	948961280	36	5658
2026-01-29 02:36:48.75	166.89	18.04	-31.2	-31.8	27.1	0.00e+00	0	32	0	955252736	36	5616
2026-01-29 02:36:49.76	166.92	18.16	-31.4	-32.0	26.9	0.00e+00	0	32	0	960495616	36	5736
2026-01-29 02:36:50.77	166.95	18.28	-31.2	-31.8	27.0	0.00e+00	0	32	0	966787072	36	5612
2026-01-29 02:36:51.78	166.98	18.40	-31.0	-31.7	27.2	0.00e+00	0	32	0	972029952	36	5513
2026-01-29 02:36:52.79	167.02	18.53	-30.9	-31.6	27.2	0.00e+00	0	32	0	977272832	36	5453
2026-01-29 02:36:53.80	167.05	18.65	-31.0	-31.7	27.2	0.00e+00	0	32	0	983564288	36	5519
2026-01-29 02:36:54.81	167.09	18.78	-31.1	-31.7	27.2	0.00e+00	0	32	0	988807168	36	5533
2026-01-29 02:36:55.82	167.12	18.90	-31.1	-31.7	27.1	0.00e+00	0	32	0	995098624	36	5520
2026-01-29 02:36:56.83	167.15	19.03	-31.0	-31.6	27.3	0.00e+00	0	32	0	1000341504	36	5479
2026-01-29 02:36:57.84	167.19	19.16	-31.1	-31.7	27.2	0.00e+00	0	32	0	1005584384	36	5528
2026-01-29 02:36:58.85	167.22	19.28	-30.9	-31.6	27.3	0.00e+00	0	32	0	1011875840	36	5457
2026-01-29 02:36:59.86	167.26	19.41	-31.0	-31.6	27.2	0.00e+00	0	32	0	1017118720	36	5473
2026-01-29 02:37:01.14	167.30	19.57	-30.9	-31.6	27.3	0.00e+00	0	32	0	1023410176	36	5461
2026-01-29 02:37:01.86	167.33	19.67	-30.8	-31.4	27.3	0.00e+00	0	32	0	1027604480	36	5367
2026-01-29 02:37:03.16	167.38	19.83	-30.7	-31.3	27.3	0.00e+00	0	32	0	1034944512	34	5950
2026-01-29 02:37:03.88	167.40	19.93	-30.7	-31.3	27.5	0.00e+00	0	32	0	1038090240	34	5905
2026-01-29 02:37:05.18	167.45	20.10	-30.7	-31.3	27.4	0.00e+00	0	32	0	1045430272	34	5943
2026-01-29 02:37:05.90	167.47	20.19	-30.6	-31.2	27.5	0.00e+00	0	32	0	1049624576	34	5840
2026-01-29 02:37:07.20	167.52	20.36	-30.5	-31.1	27.5	0.00e+00	0	32	0	1056964608	34	5814
2026-01-29 02:37:07.92	167.55	20.46	-30.4	-31.0	27.7	0.00e+00	0	32	0	1061158912	34	5719
2026-01-29 02:37:09.22	167.60	20.63	-30.5	-31.1	27.5	0.00e+00	0	32	0	1068498944	34	5790
2026-01-29 02:37:09.94	167.63	20.73	-30.4	-31.0	27.7	0.00e+00	0	32	0	1072693248	34	5738
2026-01-29 02:37:11.24	167.67	20.90	-30.2	-30.8	27.8	0.00e+00	0	32	0	1080033280	34	5592
2026-01-29 02:37:11.96	167.70	21.00	-30.2	-30.9	27.8	0.00e+00	0	32	0	1084227584	34	5631
2026-01-29 02:37:13.26	167.75	21.17	-30.3	-30.9	27.8	0.00e+00	0	32	0	1091567616	34	5632
2026-01-29 02:37:13.98	167.78	21.27	-30.3	-30.9	27.8	0.00e+00	0	32	0	1094713344	34	5656
2026-01-29 02:37:15.28	167.83	21.45	-30.4	-31.0	27.8	0.00e+00	0	32	0	1102053376	34	5711
2026-01-29 02:37:16.00	167.86	21.55	-30.3	-30.9	27.8	0.00e+00	0	32	0	1106247680	34	5637
2026-01-29 02:37:17.30	167.91	21.73	-30.3	-30.9	27.8	0.00e+00	0	32	0	1113587712	34	5682
2026-01-29 02:37:18.02	167.94	21.83	-30.2	-30.9	27.8	0.00e+00	0	32	0	1117782016	34	5634
2026-01-29 02:37:19.32	167.99	22.01	-30.4	-31.0	27.7	0.00e+00	0	32	0	1125122048	34	5735
2026-01-29 02:37:20.04	168.02	22.12	-30.4	-31.0	27.7	0.00e+00	0	32	0	1129316352	34	5702
2026-01-29 02:37:21.34	168.08	22.30	-30.4	-31.0	27.6	0.00e+00	0	32	0	1136656384	34	5749
2026-01-29 02:37:22.06	168.11	22.40	-30.4	-31.0	27.6	0.00e+00	0	32	0	1140850688	34	5744
2026-01-29 02:37:23.36	168.16	22.59	-30.3	-31.0	27.7	0.00e+00	0	32	0	1148190720	34	5701
2026-01-29 02:37:24.08	168.19	22.69	-30.5	-31.1	27.6	0.00e+00	0	32	0	1152385024	34	5787
2026-01-29 02:37:25.38	168.25	22.88	-30.4	-31.0	27.7	0.00e+00	0	32	0	1159725056	34	5706
2026-01-29 02:37:26.10	168.28	22.99	-30.5	-31.1	27.7	0.00e+00	0	32	0	1163919360	34	5798
2026-01-29 02:37:27.40	168.33	23.18	-30.1	-30.8	27.9	0.00e+00	0	32	0	1171259392	34	5577
2026-01-29 02:37:28.12	168.37	23.28	-30.2	-30.8	27.9	0.00e+00	0	32	0	1174405120	34	5592
2026-01-29 02:37:29.42	168.42	23.48	-30.0	-30.7	27.9	0.00e+00	0	32	0	1181745152	34	5504
2026-01-29 02:37:30.14	168.46	23.58	-29.9	-30.5	28.0	0.00e+00	0	32	0	1185939456	34	5432
2026-01-29 02:37:31.44	168.51	23.78	-29.9	-30.5	28.1	0.00e+00	0	32	0	1193279488	34	5433
2026-01-29 02:37:32.15	168.55	23.89	-29.8	-30.4	28.1	0.00e+00	0	32	0	1197473792	34	5333
2026-01-29 02:37:33.45	168.61	24.08	-29.7	-30.3	28.2	0.00e+00	0	32	0	1204813824	32	5943
2026-01-29 02:37:34.17	168.64	24.19	-29.9	-30.5	28.2	0.00e+00	0	32	0	1209008128	32	6069
2026-01-29 02:37:35.47	168.70	24.39	-29.7	-30.3	28.3	0.00e+00	0	32	0	1216348160	32	5898
2026-01-29 02:37:36.19	168.73	24.50	-29.7	-30.3	28.2	0.00e+00	0	32	0	1220542464	32	5957
2026-01-29 02:37:37.49	168.79	24.71	-29.7	-30.3	28.2	0.00e+00	0	32	0	1227882496	32	5947
2026-01-29 02:37:38.21	168.83	24.82	-29.7	-30.3	28.2	0.00e+00	0	32	0	1232076800	32	5928
2026-01-29 02:37:39.51	168.89	25.02	-29.7	-30.3	28.3	0.00e+00	0	32	0	1239416832	32	5921
2026-01-29 02:37:40.24	168.93	25.14	-29.7	-30.3	28.2	0.00e+00	0	32	0	1242562560	32	5926
2026-01-29 02:37:41.53	168.99	25.34	-29.8	-30.4	28.2	0.00e+00	0	32	0	1249902592	32	5999
2026-01-29 02:37:42.25	169.03	25.46	-29.7	-30.3	28.3	0.00e+00	0	32	0	1254096896	32	5912
2026-01-29 02:37:43.55	169.09	25.67	-29.8	-30.4	28.1	0.00e+00	0	32	0	1261436928	32	5973
2026-01-29 02:37:44.27	169.13	25.79	-29.6	-30.2	28.4	0.00e+00	0	32	0	1265631232	32	5847
2026-01-29 02:37:45.57	169.20	26.00	-29.6	-30.2	28.4	0.00e+00	0	32	0	1272971264	32	5877
2026-01-29 02:37:46.29	169.23	26.12	-29.6	-30.2	28.4	0.00e+00	0	32	0	1277165568	32	5835
2026-01-29 02:37:47.59	169.30	26.33	-29.6	-30.1	28.4	0.00e+00	0	32	0	1284505600	32	5824
2026-01-29 02:37:48.31	169.34	26.45	-29.6	-30.1	28.4	0.00e+00	0	32	0	1288699904	32	5828
2026-01-29 02:37:49.61	169.41	26.67	-29.6	-30.2	28.4	0.00e+00	0	32	0	1296039936	32	5871
2026-01-29 02:37:50.33	169.45	26.79	-29.8	-30.4	28.2	0.00e+00	0	32	0	1299185664	32	6002
2026-01-29 02:37:51.63	169.52	27.01	-29.9	-30.5	28.2	0.00e+00	0	32	0	1306525696	32	6071
2026-01-29 02:37:52.35	169.56	27.13	-29.8	-30.4	28.2	0.00e+00	0	32	0	1310720000	32	5984
2026-01-29 02:37:53.64	169.63	27.35	-30.0	-30.6	28.0	0.00e+00	0	32	0	1318060032	32	6148
2026-01-29 02:37:54.37	169.67	27.48	-29.8	-30.4	28.2	0.00e+00	0	32	0	1322254336	32	6032
2026-01-29 02:37:55.66	169.74	27.70	-29.8	-30.5	28.2	0.00e+00	0	32	0	1329594368	32	6051
2026-01-29 02:37:56.38	169.78	27.83	-29.8	-30.4	28.2	0.00e+00	0	32	0	1333788672	32	5981
2026-01-29 02:37:57.68	169.86	28.05	-29.8	-30.4	28.2	0.00e+00	0	32	0	1341128704	32	5976
2026-01-29 02:37:58.41	169.90	28.18	-29.8	-30.4	28.2	0.00e+00	0	32	0	1345323008	32	5990
2026-01-29 02:37:59.70	169.98	28.41	-29.6	-30.2	28.3	0.00e+00	0	32	0	1352663040	32	5896
2026-01-29 02:38:00.42	170.02	28.54	-29.6	-30.2	28.4	0.00e+00	0	32	0	1356857344	32	5839
2026-01-29 02:38:01.72	170.10	28.77	-29.5	-30.1	28.4	0.00e+00	0	32	0	1364197376	32	5813
2026-01-29 02:38:02.44	170.14	28.90	-29.5	-30.1	28.3	0.00e+00	0	32	0	1368391680	32	5801
2026-01-29 02:38:03.74	170.22	29.14	-29.4	-30.0	28.5	0.00e+00	0	32	0	1375731712	32	5733
2026-01-29 02:38:04.46	170.26	29.27	-29.5	-30.2	28.4	0.00e+00	0	32	0	1378877440	32	5836
2026-01-29 02:38:05.76	170.35	29.51	-29.4	-30.0	28.5	0.00e+00	0	32	0	1386217472	32	5735
2026-01-29 02:38:06.48	170.39	29.65	-29.5	-30.1	28.3	0.00e+00	0	32	0	1390411776	32	5816
2026-01-29 02:38:07.78	170.48	29.89	-29.6	-30.2	28.4	0.00e+00	0	32	0	1397751808	32	5849
2026-01-29 02:38:08.50	170.52	30.03	-29.7	-30.3	28.3	0.00e+00	0	32	0	1401946112	32	5945
2026-01-29 02:38:09.80	170.61	30.27	-29.7	-30.3	28.2	0.00e+00	0	32	0	1409286144	32	5921
2026-01-29 02:38:10.52	170.66	30.41	-29.6	-30.2	28.4	0.00e+00	0	32	0	1413480448	32	5848
2026-01-29 02:38:11.82	170.74	30.66	-29.6	-30.2	28.4	0.00e+00	0	32	0	1420820480	32	5854
2026-01-29 02:38:12.54	170.79	30.80	-29.6	-30.2	28.3	0.00e+00	0	32	0	1425014784	32	5867
2026-01-29 02:38:13.83	170.88	31.05	-29.6	-30.2	28.4	0.00e+00	0	32	0	1432354816	32	5868
2026-01-29 02:38:14.55	170.93	31.19	-29.3	-29.9	28.6	0.00e+00	0	32	0	1436549120	32	5684
2026-01-29 02:38:15.85	171.02	31.45	-29.1	-29.6	28.7	0.00e+00	0	32	0	1443889152	32	5496
2026-01-29 02:38:16.57	171.07	31.59	-29.3	-29.8	28.6	0.00e+00	0	32	0	1447034880	32	5611
2026-01-29 02:38:17.87	171.17	31.85	-29.2	-29.8	28.7	0.00e+00	0	32	0	1454374912	32	5576
2026-01-29 02:38:18.59	171.22	31.99	-29.1	-29.7	28.6	0.00e+00	0	32	0	1458569216	32	5527
2026-01-29 02:38:19.89	171.31	32.26	-29.4	-30.0	28.5	0.00e+00	0	32	0	1465909248	32	5707
2026-01-29 02:38:20.61	171.37	32.40	-29.4	-29.9	28.6	0.00e+00	0	32	0	1470103552	32	5687
2026-01-29 02:38:21.91	171.47	32.67	-29.5	-30.2	28.4	0.00e+00	0	32	0	1477443584	32	5835
2026-01-29 02:38:22.63	171.52	32.82	-29.4	-30.0	28.5	0.00e+00	0	32	0	1481637888	32	5755
2026-01-29 02:38:23.93	171.62	33.09	-29.6	-30.2	28.4	0.00e+00	0	32	0	1488977920	32	5841
2026-01-29 02:38:24.65	171.68	33.24	-29.5	-30.1	28.5	0.00e+00	0	32	0	1493172224	32	5776
2026-01-29 02:38:25.95	171.78	33.51	-29.7	-30.3	28.2	0.00e+00	0	32	0	1500512256	32	5964
2026-01-29 02:38:26.67	171.84	33.66	-29.4	-30.0	28.5	0.00e+00	0	32	0	1503657984	32	5744
2026-01-29 02:38:27.97	171.94	33.94	-29.0	-29.6	28.8	0.00e+00	0	32	0	1510998016	32	5489
2026-01-29 02:38:28.69	172.00	34.10	-29.1	-29.6	28.7	0.00e+00	0	32	0	1515192320	32	5483
2026-01-29 02:38:29.99	172.11	34.38	-28.8	-29.4	29.0	0.00e+00	0	32	0	1522532352	32	5334
2026-01-29 02:38:30.71	172.17	34.53	-28.8	-29.4	28.9	0.00e+00	0	32	0	1526726656	30	5990
2026-01-29 02:38:32.00	172.28	34.82	-29.1	-29.6	28.8	0.00e+00	0	32	0	1534066688	30	6153
2026-01-29 02:38:32.72	172.34	34.97	-29.2	-29.8	28.8	0.00e+00	0	32	0	1538260992	30	6256
2026-01-29 02:38:34.02	172.46	35.26	-29.0	-29.6	28.9	0.00e+00	0	32	0	1545601024	30	6117
2026-01-29 02:38:34.74	172.52	35.42	-29.0	-29.6	28.9	0.00e+00	0	32	0	1549795328	30	6112
2026-01-29 02:38:36.04	172.64	35.72	-29.0	-29.6	28.8	0.00e+00	0	32	0	1557135360	30	6124
2026-01-29 02:38:36.76	172.70	35.88	-29.1	-29.7	28.7	0.00e+00	0	32	0	1561329664	30	6227
2026-01-29 02:38:38.06	172.83	36.18	-29.4	-30.0	28.6	0.00e+00	0	32	0	1568669696	30	6428
2026-01-29 02:38:38.78	172.89	36.34	-29.3	-29.9	28.6	0.00e+00	0	32	0	1571815424	30	6327
2026-01-29 02:38:40.08	173.02	36.64	-29.2	-29.8	28.7	0.00e+00	0	32	0	1579155456	30	6280
2026-01-29 02:38:40.80	173.09	36.81	-29.1	-29.8	28.8	0.00e+00	0	32	0	1583349760	30	6251
2026-01-29 02:38:42.09	173.21	37.11	-28.8	-29.4	29.0	0.00e+00	0	32	0	1590689792	30	5982
2026-01-29 02:38:42.82	173.28	37.29	-28.8	-29.4	29.0	0.00e+00	0	32	0	1594884096	30	5990
2026-01-29 02:38:44.11	173.41	37.59	-28.9	-29.5	28.9	0.00e+00	0	32	0	1602224128	30	6057
2026-01-29 02:38:44.84	173.49	37.77	-28.9	-29.5	28.9	0.00e+00	0	32	0	1606418432	30	6042
2026-01-29 02:38:46.13	173.62	38.08	-28.8	-29.4	28.9	0.00e+00	0	32	0	1613758464	30	6024
2026-01-29 02:38:46.86	173.70	38.26	-29.0	-29.5	28.8	0.00e+00	0	32	0	1617952768	30	6095
2026-01-29 02:38:48.16	173.84	38.57	-28.9	-29.5	28.9	0.00e+00	0	32	0	1625292800	30	6055
2026-01-29 02:38:48.88	173.91	38.75	-28.9	-29.5	28.8	0.00e+00	0	32	0	1629487104	30	6045
2026-01-29 02:38:50.17	174.06	39.07	-29.0	-29.6	28.9	0.00e+00	0	32	0	1636827136	30	6114
2026-01-29 02:38:50.90	174.14	39.25	-29.0	-29.6	28.8	0.00e+00	0	32	0	1641021440	30	6170
2026-01-29 02:38:52.19	174.28	39.58	-29.0	-29.6	28.7	0.00e+00	0	32	0	1648361472	30	6139
2026-01-29 02:38:52.92	174.37	39.76	-28.9	-29.5	28.9	0.00e+00	0	32	0	1651507200	30	6088
2026-01-29 02:38:54.21	174.52	40.09	-28.9	-29.5	28.9	0.00e+00	0	32	0	1658847232	30	6051
2026-01-29 02:38:54.93	174.60	40.27	-29.0	-29.5	28.9	0.00e+00	0	32	0	1663041536	30	6091
2026-01-29 02:38:56.23	174.76	40.61	-29.1	-29.7	28.8	0.00e+00	0	32	0	1670381568	30	6221
2026-01-29 02:38:56.95	174.85	40.80	-29.2	-29.8	28.7	0.00e+00	0	32	0	1674575872	30	6275
2026-01-29 02:38:58.25	175.01	41.14	-29.4	-29.9	28.6	0.00e+00	0	32	0	1681915904	30	6383
2026-01-29 02:38:58.97	175.10	41.33	-29.3	-29.9	28.7	0.00e+00	0	32	0	1686110208	30	6368
2026-01-29 02:39:00.27	175.26	41.67	-29.2	-29.8	28.8	0.00e+00	0	32	0	1693450240	30	6280
2026-01-29 02:39:00.99	175.36	41.86	-29.3	-29.9	28.6	0.00e+00	0	32	0	1697644544	30	6363
2026-01-29 02:39:02.29	175.53	42.21	-29.3	-29.9	28.7	0.00e+00	0	32	0	1704984576	30	6335
2026-01-29 02:39:03.01	175.63	42.41	-29.3	-29.9	28.6	0.00e+00	0	32	0	1708130304	30	6342
2026-01-29 02:39:04.31	175.80	42.76	-29.2	-29.9	28.7	0.00e+00	0	32	0	1715470336	30	6322
2026-01-29 02:39:05.04	175.90	42.96	-29.3	-29.8	28.7	0.00e+00	0	32	0	1719664640	30	6315
2026-01-29 02:39:06.33	176.09	43.32	-29.4	-30.0	28.6	0.00e+00	0	32	0	1727004672	30	6424
2026-01-29 02:39:07.06	176.19	43.52	-29.4	-30.0	28.6	0.00e+00	0	32	0	1731198976	30	6427
2026-01-29 02:39:08.36	176.38	43.89	-29.6	-30.2	28.4	0.00e+00	0	32	0	1738539008	30	6578
2026-01-29 02:39:09.08	176.49	44.09	-29.7	-30.3	28.3	0.00e+00	0	32	0	1742733312	30	6687
2026-01-29 02:39:10.37	176.68	44.45	-29.6	-30.2	28.5	0.00e+00	0	32	0	1750073344	30	6548
2026-01-29 02:39:11.09	176.79	44.66	-29.6	-30.1	28.5	0.00e+00	0	32	0	1754267648	30	6537
2026-01-29 02:39:12.39	177.00	45.03	-29.6	-30.2	28.4	0.00e+00	0	32	0	1761607680	30	6584
2026-01-29 02:39:13.11	177.11	45.24	-29.5	-30.1	28.5	0.00e+00	0	32	0	1765801984	30	6500
2026-01-29 02:39:14.41	177.32	45.62	-29.5	-30.1	28.5	0.00e+00	0	32	0	1773142016	30	6497
2026-01-29 02:39:15.13	177.44	45.83	-29.6	-30.2	28.4	0.00e+00	0	32	0	1776287744	30	6581
2026-01-29 02:39:16.43	177.66	46.21	-29.4	-30.0	28.6	0.00e+00	0	32	0	1783627776	30	6396
2026-01-29 02:39:17.15	177.78	46.43	-29.3	-29.9	28.6	0.00e+00	0	32	0	1787822080	30	6343
2026-01-29 02:39:18.45	178.01	46.82	-29.4	-30.0	28.5	0.00e+00	0	32	0	1795162112	30	6429
2026-01-29 02:39:19.17	178.14	47.03	-29.6	-30.2	28.4	0.00e+00	0	32	0	1799356416	30	6559
2026-01-29 02:39:20.47	178.38	47.43	-29.8	-30.5	28.2	0.00e+00	0	32	0	1806696448	32	6036
2026-01-29 02:39:21.19	178.51	47.65	-30.0	-30.6	28.1	0.00e+00	0	32	0	1810890752	32	6146
2026-01-29 02:39:22.49	178.75	48.04	-30.0	-30.6	28.2	0.00e+00	0	32	0	1818230784	32	6122
2026-01-29 02:39:23.21	178.89	48.27	-29.5	-30.1	28.5	0.00e+00	0	32	0	1822425088	32	5776
2026-01-29 02:39:24.51	179.15	48.67	-29.4	-30.0	28.5	0.00e+00	0	32	0	1829765120	32	5723
2026-01-29 02:39:25.23	179.29	48.89	-29.6	-30.1	28.4	0.00e+00	0	32	0	1833959424	32	5828
2026-01-29 02:39:26.53	179.56	49.30	-29.5	-30.1	28.5	0.00e+00	0	32	0	1841299456	32	5796
2026-01-29 02:39:27.25	179.71	49.53	-29.6	-30.2	28.4	0.00e+00	0	32	0	1845493760	32	5893
2026-01-29 02:39:28.55	179.98	49.94	-29.8	-30.5	28.3	0.00e+00	0	32	0	1852833792	32	6056
2026-01-29 02:39:29.27	180.14	50.17	-30.0	-30.6	28.0	0.00e+00	0	32	0	1855979520	32	6141
2026-01-29 02:39:30.57	180.43	50.59	-30.1	-30.7	28.1	0.00e+00	0	32	0	1863319552	32	6203
2026-01-29 02:39:31.29	180.59	50.82	-30.1	-30.7	28.0	0.00e+00	0	32	0	1867513856	32	6243
2026-01-29 02:39:32.59	180.89	51.24	-30.3	-30.9	27.8	0.00e+00	0	32	0	1874853888	32	6367
2026-01-29 02:39:33.31	181.06	51.48	-30.6	-31.2	27.7	0.00e+00	0	32	0	1879048192	32	6549
2026-01-29 02:39:34.60	181.38	51.90	-30.6	-31.2	27.7	0.00e+00	0	32	0	1886388224	32	6544
2026-01-29 02:39:35.32	181.55	52.14	-30.2	-30.9	27.9	0.00e+00	0	32	0	1890582528	32	6320
2026-01-29 02:39:36.62	181.88	52.57	-30.0	-30.6	28.0	0.00e+00	0	32	0	1897922560	32	6127
2026-01-29 02:39:37.34	182.07	52.81	-30.2	-30.8	28.0	0.00e+00	0	32	0	1902116864	32	6270
2026-01-29 02:39:38.64	182.41	53.24	-30.6	-31.2	27.7	0.00e+00	0	32	0	1909456896	32	6561
2026-01-29 02:39:39.36	182.61	53.49	-30.4	-31.1	27.8	0.00e+00	0	32	0	1912602624	32	6487
2026-01-29 02:39:40.66	182.96	53.93	-30.3	-30.9	27.9	0.00e+00	0	32	0	1919942656	32	6340
2026-01-29 02:39:41.38	183.17	54.17	-30.4	-30.9	27.8	0.00e+00	0	32	0	1924136960	32	6390
2026-01-29 02:39:42.68	183.55	54.61	-31.0	-31.6	27.3	0.00e+00	0	32	0	1931476992	34	6142
2026-01-29 02:39:43.40	183.76	54.86	-30.9	-31.5	27.3	0.00e+00	0	32	0	1935671296	34	6100
2026-01-29 02:39:44.70	184.15	55.31	-31.1	-31.8	27.3	0.00e+00	0	32	0	1943011328	34	6259
2026-01-29 02:39:45.41	184.38	55.55	-30.5	-31.1	27.7	0.00e+00	0	32	0	1947205632	34	5819
2026-01-29 02:39:46.71	184.79	56.01	-30.6	-31.2	27.6	0.00e+00	0	32	0	1954545664	34	5895
2026-01-29 02:39:47.44	185.03	56.26	-30.6	-31.2	27.6	0.00e+00	0	32	0	1958739968	34	5877
2026-01-29 02:39:48.73	185.46	56.71	-30.8	-31.4	27.5	0.00e+00	0	32	0	1966080000	34	6011
2026-01-29 02:39:49.45	185.71	56.96	-30.3	-31.0	27.9	0.00e+00	0	32	0	1970274304	34	5697
2026-01-29 02:39:50.75	186.17	57.42	-30.2	-30.8	27.9	0.00e+00	0	32	0	1977614336	34	5611
2026-01-29 02:39:51.47	186.43	57.68	-30.1	-30.7	28.0	0.00e+00	0	32	0	1980760064	34	5524
2026-01-29 02:39:52.76	186.91	58.13	-29.9	-30.5	28.0	0.00e+00	0	32	0	1988100096	34	5396
2026-01-29 02:39:53.49	187.19	58.39	-30.2	-30.8	27.9	0.00e+00	0	32	0	1992294400	34	5573
2026-01-29 02:39:54.79	187.70	58.86	-30.0	-30.6	28.0	0.00e+00	0	32	0	1999634432	34	5479
2026-01-29 02:39:55.51	187.99	59.11	-30.1	-30.7	28.0	0.00e+00	0	32	0	2003828736	34	5556
2026-01-29 02:39:56.80	188.52	59.58	-29.9	-30.5	28.0	0.00e+00	0	32	0	2011168768	34	5419
2026-01-29 02:39:57.52	188.83	59.83	-29.5	-30.0	28.5	0.00e+00	0	32	0	2015363072	32	5739
2026-01-29 02:39:58.82	189.40	60.30	-29.0	-29.5	28.9	0.00e+00	0	32	0	2022703104	32	5429
2026-01-29 02:39:59.54	189.72	60.56	-29.3	-29.9	28.6	0.00e+00	0	32	0	2026897408	32	5652
2026-01-29 02:40:00.84	190.33	61.03	-29.5	-30.1	28.5	0.00e+00	0	32	0	2034237440	32	5820
2026-01-29 02:40:01.56	190.67	61.29	-29.2	-29.8	28.7	0.00e+00	0	32	0	2038431744	32	5597
2026-01-29 02:40:02.86	191.31	61.76	-29.3	-29.9	28.6	0.00e+00	0	32	0	2045771776	32	5644
2026-01-29 02:40:03.58	191.67	62.02	-29.3	-29.8	28.6	0.00e+00	0	32	0	2048917504	32	5628
2026-01-29 02:40:04.88	192.35	62.49	-29.1	-29.7	28.8	0.00e+00	0	32	0	2056257536	32	5521
2026-01-29 02:40:05.60	192.73	62.75	-29.0	-29.6	28.9	0.00e+00	0	32	0	2060451840	32	5445
2026-01-29 02:40:06.90	193.45	63.22	-28.8	-29.4	29.0	0.00e+00	0	32	0	2067791872	30	6003
2026-01-29 02:40:07.62	193.86	63.48	-28.7	-29.3	29.0	0.00e+00	0	32	0	2071986176	30	5955
2026-01-29 02:40:08.92	194.63	63.95	-28.7	-29.2	29.2	0.00e+00	0	32	0	2079326208	30	5888
2026-01-29 02:40:09.63	195.06	64.20	-28.7	-29.3	29.0	0.00e+00	0	32	0	2083520512	30	5938
2026-01-29 02:40:10.93	195.87	64.67	-29.3	-29.9	28.6	0.00e+00	0	32	0	2090860544	30	6383
2026-01-29 02:40:11.65	196.33	64.92	-29.1	-29.7	28.6	0.00e+00	0	32	0	2095054848	30	6240
2026-01-29 02:40:12.95	197.20	65.39	-29.1	-29.7	28.7	0.00e+00	0	32	0	2102394880	30	6241
2026-01-29 02:40:13.67	197.70	65.64	-28.9	-29.5	28.9	0.00e+00	0	32	0	2105540608	30	6096
2026-01-29 02:40:14.97	198.62	66.10	-28.7	-29.3	29.1	0.00e+00	0	32	0	2112880640	30	5928
2026-01-29 02:40:15.69	199.15	66.35	-28.9	-29.4	28.9	0.00e+00	0	32	0	2117074944	30	6027
2026-01-29 02:40:16.99	200.13	66.81	-28.9	-29.5	28.9	0.00e+00	0	32	0	2124414976	30	6083
2026-01-29 02:40:17.71	200.70	67.05	-29.1	-29.6	28.8	0.00e+00	0	32	0	2128609280	30	6173
2026-01-29 02:40:19.00	201.74	67.50	-29.0	-29.7	28.7	0.00e+00	0	32	0	2135949312	30	6175
2026-01-29 02:40:19.73	202.35	67.75	-29.1	-29.7	28.8	0.00e+00	0	32	0	2140143616	30	6179
2026-01-29 02:40:21.02	203.47	68.18	-28.7	-29.3	29.0	0.00e+00	0	32	0	2147483648	30	5937
2026-01-29 02:40:21.75	204.12	68.43	-28.8	-29.4	28.9	0.00e+00	0	32	0	2151677952	30	6029
2026-01-29 02:40:23.04	205.32	68.85	-28.8	-29.5	28.9	0.00e+00	0	32	0	2159017984	30	6036
2026-01-29 02:40:23.76	206.01	69.09	-28.6	-29.3	29.2	0.00e+00	0	32	0	2163212288	30	5898
2026-01-29 02:40:25.06	207.29	69.51	-28.5	-29.0	29.1	0.00e+00	0	32	0	2170552320	30	5736
2026-01-29 02:40:25.78	208.03	69.73	-28.7	-29.3	29.0	0.00e+00	0	32	0	2173698048	30	5963
2026-01-29 02:40:27.08	209.40	70.14	-28.5	-29.1	29.1	0.00e+00	0	32	0	2181038080	30	5779
2026-01-29 02:40:27.80	210.19	70.36	-28.6	-29.2	29.0	0.00e+00	0	32	0	2185232384	30	5858
2026-01-29 02:40:29.10	211.66	70.75	-28.9	-29.5	28.8	0.00e+00	0	32	0	2192572416	30	6075
2026-01-29 02:40:29.82	212.51	70.96	-28.2	-28.8	29.3	0.00e+00	0	32	0	2196766720	30	5617
2026-01-29 02:40:31.12	214.08	71.34	-27.9	-28.5	29.5	0.00e+00	0	32	0	2204106752	30	5399
2026-01-29 02:40:31.84	214.97	71.54	-28.0	-28.5	29.5	0.00e+00	0	32	0	2208301056	30	5419
2026-01-29 02:40:33.14	216.65	71.89	-27.6	-28.1	29.7	0.00e+00	0	32	0	2215641088	28	5824
2026-01-29 02:40:33.86	217.61	72.08	-27.9	-28.4	29.5	0.00e+00	0	32	0	2219835392	28	6030
2026-01-29 02:40:35.16	219.39	72.41	-28.1	-28.7	29.3	0.00e+00	0	32	0	2227175424	28	6195
2026-01-29 02:40:35.88	220.41	72.59	-28.0	-28.5	29.3	0.00e+00	0	32	0	2231369728	28	6083
2026-01-29 02:40:37.18	222.30	72.89	-28.0	-28.6	29.4	0.00e+00	0	32	0	2238709760	28	6109
2026-01-29 02:40:37.90	223.37	73.06	-28.0	-28.6	29.3	0.00e+00	0	32	0	2242904064	28	6159
2026-01-29 02:40:39.20	225.37	73.33	-27.6	-28.2	29.7	0.00e+00	0	32	0	2250244096	28	5833
2026-01-29 02:40:39.92	226.51	73.48	-27.7	-28.3	29.5	0.00e+00	0	32	0	2253389824	28	5911
2026-01-29 02:40:41.22	228.62	73.73	-27.7	-28.3	29.6	0.00e+00	0	32	0	2260729856	28	5909
2026-01-29 02:40:41.94	229.81	73.86	-27.8	-28.4	29.6	0.00e+00	0	32	0	2264924160	28	5968
2026-01-29 02:40:43.24	232.02	74.07	-27.6	-28.2	29.6	0.00e+00	0	32	0	2272264192	28	5840
2026-01-29 02:40:43.96	233.26	74.18	-27.7	-28.3	29.7	0.00e+00	0	32	0	2276458496	28	5945
2026-01-29 02:40:45.26	235.56	74.36	-27.5	-28.1	29.8	0.00e+00	0	32	0	2283798528	28	5786
2026-01-29 02:40:45.98	236.85	74.45	-27.7	-28.3	29.5	0.00e+00	0	32	0	2287992832	28	5899
2026-01-29 02:40:47.28	239.22	74.59	-27.9	-28.4	29.4	0.00e+00	0	32	0	2295332864	28	6005
2026-01-29 02:40:48.00	240.56	74.66	-27.6	-28.2	29.6	0.00e+00	0	32	0	2299527168	28	5856
2026-01-29 02:40:49.29	242.97	74.76	-27.8	-28.4	29.5	0.00e+00	0	32	0	2306867200	28	6006
2026-01-29 02:40:50.01	244.33	74.80	-28.0	-28.6	29.4	0.00e+00	0	32	0	2310012928	28	6126
2026-01-29 02:40:51.31	246.81	74.86	-27.8	-28.4	29.5	0.00e+00	0	32	0	2317352960	28	5996
2026-01-29 02:40:52.03	248.18	74.88	-27.8	-28.4	29.5	0.00e+00	0	32	0	2321547264	28	6000
2026-01-29 02:40:53.32	250.66	74.90	-27.6	-28.1	29.7	0.00e+00	0	32	0	2328887296	28	5811
2026-01-29 02:40:54.03	252.02	74.90	-27.6	-28.1	29.7	0.00e+00	0	32	0	2333081600	28	5801
2026-01-29 02:40:55.33	254.51	74.87	-27.9	-28.5	29.5	0.00e+00	0	32	0	2340421632	28	6102
2026-01-29 02:40:56.05	255.89	74.85	-28.0	-28.6	29.3	0.00e+00	0	32	0	2344615936	28	6153
2026-01-29 02:40:57.35	258.36	74.78	-27.6	-28.2	29.5	0.00e+00	0	32	0	2351955968	28	5860
2026-01-29 02:40:58.07	259.71	74.73	-27.8	-28.4	29.4	0.00e+00	0	32	0	2356150272	28	5974
2026-01-29 02:40:59.37	262.14	74.62	-27.5	-28.1	29.7	0.00e+00	0	32	0	2363490304	28	5770
2026-01-29 02:41:00.09	263.46	74.55	-27.5	-28.2	29.5	0.00e+00	0	32	0	2367684608	28	5849
2026-01-29 02:41:01.38	265.80	74.40	-27.9	-28.4	29.2	0.00e+00	0	32	0	2373976064	28	6013
2026-01-29 02:41:02.10	267.08	74.31	-27.9	-28.5	29.3	0.00e+00	0	32	0	2378170368	28	6102
2026-01-29 02:41:03.40	269.36	74.12	-27.7	-28.3	29.6	0.00e+00	0	32	0	2385510400	28	5932
2026-01-29 02:41:04.12	270.60	74.01	-27.8	-28.4	29.5	0.00e+00	0	32	0	2389704704	28	6000
2026-01-29 02:41:05.42	272.78	73.79	-27.9	-28.6	29.4	0.00e+00	0	32	0	2397044736	28	6117
2026-01-29 02:41:06.14	273.97	73.66	-27.9	-28.4	29.5	0.00e+00	0	32	0	2401239040	28	6016
2026-01-29 02:41:07.44	276.05	73.40	-27.6	-28.1	29.7	0.00e+00	0	32	0	2408579072	28	5817
2026-01-29 02:41:08.16	277.18	73.25	-27.6	-28.2	29.6	0.00e+00	0	32	0	2412773376	28	5859
2026-01-29 02:41:09.45	279.14	72.97	-27.5	-28.1	29.7	0.00e+00	0	32	0	2420113408	28	5774
2026-01-29 02:41:10.18	280.22	72.81	-27.6	-28.3	29.6	0.00e+00	0	32	0	2424307712	28	5905
2026-01-29 02:41:11.47	282.08	72.50	-27.8	-28.3	29.6	0.00e+00	0	32	0	2431647744	28	5937
2026-01-29 02:41:12.20	283.09	72.32	-28.0	-28.6	29.4	0.00e+00	0	32	0	2435842048	28	6170
2026-01-29 02:41:13.49	284.84	71.98	-28.0	-28.6	29.3	0.00e+00	0	32	0	2443182080	28	6157
2026-01-29 02:41:14.21	285.79	71.79	-27.9	-28.5	29.5	0.00e+00	0	32	0	2446327808	28	6046
2026-01-29 02:41:15.51	287.44	71.44	-28.2	-28.8	29.3	0.00e+00	0	32	0	2453667840	28	6268
2026-01-29 02:41:16.23	288.33	71.23	-28.3	-28.9	29.2	0.00e+00	0	32	0	2457862144	28	6337
2026-01-29 02:41:17.53	289.88	70.86	-27.9	-28.5	29.4	0.00e+00	0	32	0	2465202176	28	6091
2026-01-29 02:41:18.25	290.71	70.64	-28.1	-28.7	29.3	0.00e+00	0	32	0	2469396480	28	6245
2026-01-29 02:41:19.54	292.15	70.25	-28.3	-28.8	29.1	0.00e+00	0	32	0	2476736512	28	6297
2026-01-29 02:41:20.27	292.94	70.03	-28.4	-29.1	29.1	0.00e+00	0	32	0	2480930816	28	6493
2026-01-29 02:41:21.57	294.30	69.62	-28.3	-28.9	29.3	0.00e+00	0	32	0	2488270848	28	6340
2026-01-29 02:41:22.29	295.02	69.39	-28.3	-28.9	29.2	0.00e+00	0	32	0	2492465152	28	6348
2026-01-29 02:41:23.59	296.29	68.97	-28.3	-28.8	29.1	0.00e+00	0	32	0	2498756608	28	6310
2026-01-29 02:41:24.31	296.97	68.74	-28.4	-29.1	29.0	0.00e+00	0	32	0	2502950912	28	6508
2026-01-29 02:41:25.60	298.15	68.31	-28.3	-28.9	29.3	0.00e+00	0	32	0	2510290944	28	6372
2026-01-29 02:41:26.33	298.79	68.06	-28.5	-29.0	29.1	0.00e+00	0	32	0	2514485248	28	6448
2026-01-29 02:41:27.63	299.90	67.62	-28.7	-29.3	28.9	0.00e+00	0	32	0	2521825280	28	6632
2026-01-29 02:41:28.35	300.50	67.38	-28.9	-29.4	28.8	0.00e+00	0	32	0	2526019584	30	5995
2026-01-29 02:41:29.64	301.53	66.93	-28.9	-29.6	28.8	0.00e+00	0	32	0	2533359616	30	6152
2026-01-29 02:41:30.36	302.09	66.69	-29.0	-29.6	28.8	0.00e+00	0	32	0	2537553920	30	6108
2026-01-29 02:41:31.66	303.06	66.23	-28.6	-29.1	29.1	0.00e+00	0	32	0	2544893952	30	5804
2026-01-29 02:41:32.38	303.58	65.98	-28.8	-29.3	28.9	0.00e+00	0	32	0	2549088256	30	5957
2026-01-29 02:41:33.68	304.49	65.52	-28.8	-29.5	28.9	0.00e+00	0	32	0	2556428288	30	6039
2026-01-29 02:41:34.40	304.98	65.27	-28.6	-29.2	29.0	0.00e+00	0	32	0	2560622592	30	5855
2026-01-29 02:41:35.70	305.84	64.80	-28.5	-29.1	29.1	0.00e+00	0	32	0	2567962624	30	5799
2026-01-29 02:41:36.42	306.30	64.55	-28.7	-29.4	28.9	0.00e+00	0	32	0	2571108352	30	5980
2026-01-29 02:41:37.72	307.10	64.08	-28.8	-29.4	28.9	0.00e+00	0	32	0	2578448384	30	6003
2026-01-29 02:41:38.44	307.53	63.82	-29.0	-29.5	28.7	0.00e+00	0	32	0	2582642688	30	6077
2026-01-29 02:41:39.74	308.28	63.36	-29.1	-29.7	28.7	0.00e+00	0	32	0	2589982720	30	6239
2026-01-29 02:41:40.46	308.69	63.10	-28.9	-29.5	28.7	0.00e+00	0	32	0	2594177024	30	6050
2026-01-29 02:41:41.76	309.40	62.63	-28.8	-29.4	29.0	0.00e+00	0	32	0	2601517056	30	5976
2026-01-29 02:41:42.48	309.78	62.37	-28.9	-29.5	28.8	0.00e+00	0	32	0	2605711360	30	6059
2026-01-29 02:41:43.78	310.45	61.90	-28.9	-29.5	28.9	0.00e+00	0	32	0	2613051392	30	6077
2026-01-29 02:41:44.50	310.81	61.64	-28.9	-29.5	28.8	0.00e+00	0	32	0	2617245696	30	6067
2026-01-29 02:41:45.80	311.44	61.17	-29.2	-29.8	28.6	0.00e+00	0	32	0	2624585728	30	6303
2026-01-29 02:41:46.52	311.78	60.92	-29.2	-29.9	28.6	0.00e+00	0	32	0	2628780032	30	6338
2026-01-29 02:41:47.82	312.37	60.45	-29.3	-29.8	28.5	0.00e+00	0	32	0	2636120064	30	6288
2026-01-29 02:41:48.54	312.69	60.19	-29.6	-30.1	28.3	0.00e+00	0	32	0	2640314368	30	6495
2026-01-29 02:41:49.83	313.25	59.73	-29.9	-30.6	28.1	0.00e+00	0	32	0	2646605824	32	6169
2026-01-29 02:41:50.56	313.56	59.47	-29.9	-30.6	28.1	0.00e+00	0	32	0	2650800128	32	6104
2026-01-29 02:41:51.85	314.09	59.01	-29.7	-30.4	28.2	0.00e+00	0	32	0	2658140160	32	5986
2026-01-29 02:41:52.57	314.38	58.75	-29.7	-30.4	28.2	0.00e+00	0	32	0	2662334464	32	5996
2026-01-29 02:41:53.87	314.88	58.29	-29.9	-30.4	28.2	0.00e+00	0	32	0	2669674496	32	6003
2026-01-29 02:41:54.59	315.15	58.03	-29.8	-30.3	28.1	0.00e+00	0	32	0	2673868800	32	5958
2026-01-29 02:41:55.88	315.63	57.58	-29.8	-30.5	28.1	0.00e+00	0	32	0	2681208832	32	6086
2026-01-29 02:41:56.61	315.89	57.32	-29.9	-30.6	28.1	0.00e+00	0	32	0	2685403136	32	6112
2026-01-29 02:41:57.90	316.34	56.87	-30.0	-30.7	28.0	0.00e+00	0	32	0	2692743168	32	6210
2026-01-29 02:41:58.63	316.59	56.61	-30.2	-30.8	28.0	0.00e+00	0	32	0	2695888896	32	6317
2026-01-29 02:41:59.92	317.02	56.16	-30.3	-31.0	27.8	0.00e+00	0	32	0	2703228928	32	6417
2026-01-29 02:42:00.65	317.26	55.91	-30.4	-31.0	27.6	0.00e+00	0	32	0	2707423232	32	6430
2026-01-29 02:42:01.94	317.66	55.46	-30.3	-30.9	27.8	0.00e+00	0	32	0	2714763264	32	6322
2026-01-29 02:42:02.67	317.89	55.21	-30.4	-31.1	27.7	0.00e+00	0	32	0	2718957568	32	6519
2026-01-29 02:42:03.96	318.28	54.77	-30.2	-30.9	27.8	0.00e+00	0	32	0	2726297600	32	6351
2026-01-29 02:42:04.69	318.49	54.52	-30.4	-30.9	27.7	0.00e+00	0	32	0	2730491904	32	6366
2026-01-29 02:42:05.98	318.86	54.08	-30.6	-31.2	27.4	0.00e+00	0	32	0	2737831936	32	6581
2026-01-29 02:42:06.70	319.07	53.84	-30.6	-31.2	27.5	0.00e+00	0	32	0	2742026240	32	6550
2026-01-29 02:42:08.00	319.42	53.40	-30.4	-30.9	27.5	0.00e+00	0	32	0	2749366272	32	6383
2026-01-29 02:42:08.72	319.62	53.16	-30.4	-31.0	27.4	0.00e+00	0	32	0	2753560576	32	6404
2026-01-29 02:42:10.02	319.96	52.73	-30.3	-30.9	27.8	0.00e+00	0	32	0	2760900608	32	6377
2026-01-29 02:42:10.74	320.14	52.49	-30.2	-30.8	27.7	0.00e+00	0	32	0	2765094912	32	6295
2026-01-29 02:42:12.04	320.47	52.06	-30.1	-30.6	27.7	0.00e+00	0	32	0	2772434944	32	6172
2026-01-29 02:42:12.76	320.64	51.82	-30.2	-30.7	27.8	0.00e+00	0	32	0	2775580672	32	6228
2026-01-29 02:42:14.06	320.95	51.40	-30.2	-30.8	27.8	0.00e+00	0	32	0	2782920704	32	6313
2026-01-29 02:42:14.78	321.12	51.16	-30.1	-30.6	28.1	0.00e+00	0	32	0	2787115008	32	6162
2026-01-29 02:42:16.07	321.42	50.75	-30.0	-30.7	28.0	0.00e+00	0	32	0	2794455040	32	6211
2026-01-29 02:42:16.80	321.58	50.51	-29.7	-30.3	28.3	0.00e+00	0	32	0	2798649344	32	5900
2026-01-29 02:42:18.10	321.87	50.10	-29.4	-29.9	28.5	0.00e+00	0	32	0	2805989376	32	5667
2026-01-29 02:42:18.82	322.02	49.87	-29.2	-29.8	28.5	0.00e+00	0	32	0	2810183680	32	5580
2026-01-29 02:42:20.12	322.30	49.46	-29.1	-29.7	28.6	0.00e+00	0	32	0	2817523712	32	5503
2026-01-29 02:42:20.84	322.45	49.23	-29.1	-29.8	28.7	0.00e+00	0	32	0	2821718016	32	5578
2026-01-29 02:42:22.13	322.71	48.83	-29.2	-29.7	28.6	0.00e+00	0	32	0	2829058048	32	5522
2026-01-29 02:42:22.86	322.85	48.61	-29.3	-29.8	28.6	0.00e+00	0	32	0	2833252352	32	5615
2026-01-29 02:42:24.15	323.11	48.21	-29.4	-29.9	28.5	0.00e+00	0	32	0	2840592384	32	5664
2026-01-29 02:42:24.88	323.24	47.98	-29.4	-30.0	28.6	0.00e+00	0	32	0	2843738112	32	5725
2026-01-29 02:42:26.18	323.49	47.59	-29.2	-29.9	28.6	0.00e+00	0	32	0	2851078144	32	5633
2026-01-29 02:42:26.90	323.62	47.37	-29.4	-30.0	28.5	0.00e+00	0	32	0	2855272448	32	5734
2026-01-29 02:42:28.20	323.86	46.98	-29.1	-29.7	28.6	0.00e+00	0	32	0	2862612480	32	5566
2026-01-29 02:42:28.92	323.98	46.76	-29.1	-29.6	28.7	0.00e+00	0	32	0	2866806784	32	5484
2026-01-29 02:42:30.22	324.21	46.38	-29.2	-29.7	28.7	0.00e+00	0	32	0	2874146816	32	5516
2026-01-29 02:42:30.94	324.33	46.17	-29.3	-29.8	28.5	0.00e+00	0	32	0	2878341120	32	5629
2026-01-29 02:42:32.24	324.55	45.78	-29.4	-29.9	28.5	0.00e+00	0	32	0	2885681152	32	5695
2026-01-29 02:42:32.96	324.67	45.57	-29.5	-30.1	28.4	0.00e+00	0	32	0	2889875456	32	5784
2026-01-29 02:42:34.26	324.88	45.20	-29.7	-30.3	28.4	0.00e+00	0	32	0	2897215488	32	5962
2026-01-29 02:42:34.98	324.99	44.99	-29.6	-30.1	28.3	0.00e+00	0	32	0	2900361216	32	5799
2026-01-29 02:42:36.27	325.19	44.62	-29.6	-30.1	28.3	0.00e+00	0	32	0	2907701248	32	5810
2026-01-29 02:42:36.99	325.30	44.42	-29.6	-30.1	28.4	0.00e+00	0	32	0	2911895552	32	5819
2026-01-29 02:42:38.30	325.50	44.05	-29.7	-30.3	28.2	0.00e+00	0	32	0	2919235584	32	5952
2026-01-29 02:42:39.02	325.61	43.85	-29.8	-30.5	28.2	0.00e+00	0	32	0	2923429888	32	6055
2026-01-29 02:42:40.32	325.79	43.49	-29.7	-30.2	28.3	0.00e+00	0	32	0	2930769920	32	5870
2026-01-29 02:42:41.03	325.90	43.29	-29.7	-30.2	28.3	0.00e+00	0	32	0	2934964224	32	5871
2026-01-29 02:42:42.33	326.08	42.93	-29.6	-30.3	28.4	0.00e+00	0	32	0	2942304256	32	5925
2026-01-29 02:42:43.05	326.18	42.74	-29.4	-30.0	28.5	0.00e+00	0	32	0	2946498560	32	5704
2026-01-29 02:42:44.35	326.35	42.38	-29.3	-29.9	28.6	0.00e+00	0	32	0	2953838592	32	5639
2026-01-29 02:42:45.07	326.45	42.19	-29.4	-30.0	28.4	0.00e+00	0	32	0	2958032896	32	5702
2026-01-29 02:42:46.37	326.62	41.84	-29.1	-29.7	28.7	0.00e+00	0	32	0	2965372928	32	5551
2026-01-29 02:42:47.09	326.71	41.65	-28.9	-29.5	28.8	0.00e+00	0	32	0	2969567232	32	5386
2026-01-29 02:42:48.39	326.88	41.31	-28.9	-29.4	28.9	0.00e+00	0	32	0	2976907264	32	5327
2026-01-29 02:42:49.11	326.97	41.12	-28.8	-29.3	28.9	0.00e+00	0	32	0	2980052992	32	5271
2026-01-29 02:42:50.41	327.13	40.78	-28.9	-29.5	28.8	0.00e+00	0	32	0	2987393024	32	5436
2026-01-29 02:42:51.13	327.22	40.60	-28.8	-29.3	28.9	0.00e+00	0	32	0	2991587328	30	5904
2026-01-29 02:42:52.43	327.37	40.26	-28.9	-29.5	28.9	0.00e+00	0	32	0	2998927360	30	6075
2026-01-29 02:42:53.15	327.46	40.08	-28.5	-29.2	29.1	0.00e+00	0	32	0	3003121664	30	5850
2026-01-29 02:42:54.44	327.61	39.75	-28.7	-29.3	29.0	0.00e+00	0	32	0	3010461696	30	5953
2026-01-29 02:42:55.17	327.69	39.57	-28.6	-29.3	29.0	0.00e+00	0	32	0	3014656000	30	5926
2026-01-29 02:42:56.46	327.84	39.25	-28.7	-29.4	29.0	0.00e+00	0	32	0	3021996032	30	5976
2026-01-29 02:42:57.19	327.92	39.07	-28.9	-29.6	28.8	0.00e+00	0	32	0	3026190336	30	6120
2026-01-29 02:42:58.48	328.06	38.75	-29.0	-29.6	28.7	0.00e+00	0	32	0	3033530368	30	6140
2026-01-29 02:42:59.20	328.14	38.57	-28.9	-29.5	28.8	0.00e+00	0	32	0	3037724672	30	6035
2026-01-29 02:43:00.50	328.27	38.26	-29.1	-29.7	28.6	0.00e+00	0	32	0	3045064704	30	6182
2026-01-29 02:43:01.22	328.35	38.08	-29.2	-29.7	28.5	0.00e+00	0	32	0	3048210432	30	6213
2026-01-29 02:43:02.52	328.48	37.77	-29.3	-30.0	28.6	0.00e+00	0	32	0	3055550464	30	6425
2026-01-29 02:43:03.24	328.56	37.60	-29.2	-29.9	28.6	0.00e+00	0	32	0	3059744768	30	6360
2026-01-29 02:43:04.54	328.69	37.29	-29.2	-29.7	28.6	0.00e+00	0	32	0	3067084800	30	6223
2026-01-29 02:43:05.26	328.76	37.12	-29.2	-29.9	28.6	0.00e+00	0	32	0	3071279104	30	6345
2026-01-29 02:43:06.56	328.88	36.82	-29.1	-29.6	28.7	0.00e+00	0	32	0	3078619136	30	6156
2026-01-29 02:43:07.28	328.95	36.65	-29.3	-29.8	28.6	0.00e+00	0	32	0	3082813440	30	6271
2026-01-29 02:43:08.58	329.08	36.35	-29.0	-29.7	28.7	0.00e+00	0	32	0	3090153472	30	6212
2026-01-29 02:43:09.30	329.14	36.19	-29.0	-29.5	28.7	0.00e+00	0	32	0	3094347776	30	6094
2026-01-29 02:43:10.60	329.26	35.89	-29.1	-29.8	28.7	0.00e+00	0	32	0	3101687808	30	6268
2026-01-29 02:43:11.32	329.33	35.73	-28.9	-29.6	28.7	0.00e+00	0	32	0	3104833536	30	6136
2026-01-29 02:43:12.62	329.45	35.44	-29.0	-29.7	28.8	0.00e+00	0	32	0	3112173568	30	6176
2026-01-29 02:43:13.34	329.51	35.28	-29.0	-29.6	28.8	0.00e+00	0	32	0	3116367872	30	6161
2026-01-29 02:43:14.64	329.62	34.99	-29.1	-29.7	28.6	0.00e+00	0	32	0	3123707904	30	6191
2026-01-29 02:43:15.36	329.69	34.84	-29.3	-29.8	28.6	0.00e+00	0	32	0	3127902208	30	6289
2026-01-29 02:43:16.66	329.80	34.55	-28.9	-29.4	28.7	0.00e+00	0	32	0	3135242240	30	6026
2026-01-29 02:43:17.38	329.86	34.40	-28.9	-29.4	28.8	0.00e+00	0	32	0	3139436544	30	5997
2026-01-29 02:43:18.67	329.97	34.12	-29.0	-29.6	28.7	0.00e+00	0	32	0	3146776576	30	6108
2026-01-29 02:43:19.40	330.03	33.96	-29.0	-29.7	28.7	0.00e+00	0	32	0	3150970880	30	6198
2026-01-29 02:43:20.69	330.13	33.69	-28.9	-29.6	28.8	0.00e+00	0	32	0	3158310912	30	6136
2026-01-29 02:43:21.41	330.19	33.54	-29.0	-29.6	28.8	0.00e+00	0	32	0	3162505216	30	6164
2026-01-29 02:43:22.71	330.29	33.27	-29.1	-29.8	28.7	0.00e+00	0	32	0	3169845248	30	6264
2026-01-29 02:43:23.43	330.35	33.12	-29.2	-29.9	28.6	0.00e+00	0	32	0	3172990976	30	6339
2026-01-29 02:43:24.73	330.45	32.85	-29.4	-30.1	28.4	0.00e+00	0	32	0	3180331008	30	6516
2026-01-29 02:43:25.45	330.50	32.70	-29.3	-30.0	28.5	0.00e+00	0	32	0	3184525312	30	6432
2026-01-29 02:43:26.75	330.60	32.43	-29.5	-30.2	28.4	0.00e+00	0	32	0	3191865344	30	6597
2026-01-29 02:43:27.47	330.65	32.29	-29.5	-30.2	28.4	0.00e+00	0	32	0	3196059648	30	6565
2026-01-29 02:43:28.77	330.75	32.03	-29.7	-30.3	28.2	0.00e+00	0	32	0	3203399680	30	6620
2026-01-29 02:43:29.49	330.80	31.88	-29.7	-30.3	28.2	0.00e+00	0	32	0	3207593984	30	6633
2026-01-29 02:43:30.79	330.90	31.63	-29.8	-30.3	28.2	0.00e+00	0	32	0	3214934016	32	5960
2026-01-29 02:43:31.51	330.95	31.48	-29.6	-30.2	28.2	0.00e+00	0	32	0	3219128320	32	5858
2026-01-29 02:43:32.80	331.04	31.23	-29.6	-30.3	28.2	0.00e+00	0	32	0	3226468352	32	5960
2026-01-29 02:43:33.52	331.09	31.09	-29.8	-30.5	28.1	0.00e+00	0	32	0	3230662656	32	6084
2026-01-29 02:43:34.82	331.18	30.84	-29.5	-30.2	28.3	0.00e+00	0	32	0	3238002688	32	5866
2026-01-29 02:43:35.54	331.23	30.70	-29.6	-30.2	28.2	0.00e+00	0	32	0	3242196992	32	5839
2026-01-29 02:43:36.84	331.31	30.45	-29.5	-30.2	28.3	0.00e+00	0	32	0	3249537024	32	5841
2026-01-29 02:43:37.56	331.36	30.32	-29.3	-30.0	28.5	0.00e+00	0	32	0	3252682752	32	5718
2026-01-29 02:43:38.86	331.45	30.07	-29.3	-29.8	28.5	0.00e+00	0	32	0	3260022784	32	5591
2026-01-29 02:43:39.58	331.49	29.94	-29.4	-29.9	28.4	0.00e+00	0	32	0	3264217088	32	5641
2026-01-29 02:43:40.87	331.58	29.70	-29.3	-29.9	28.5	0.00e+00	0	32	0	3271557120	32	5631
2026-01-29 02:43:41.59	331.62	29.56	-29.3	-29.8	28.4	0.00e+00	0	32	0	3275751424	32	5615
2026-01-29 02:43:42.89	331.70	29.33	-29.4	-29.9	28.5	0.00e+00	0	32	0	3283091456	32	5652
2026-01-29 02:43:43.61	331.75	29.19	-29.3	-29.8	28.4	0.00e+00	0	32	0	3287285760	32	5625
2026-01-29 02:43:44.91	331.83	28.96	-29.3	-29.8	28.5	0.00e+00	0	32	0	3294625792	32	5580
2026-01-29 02:43:45.63	331.87	28.83	-29.4	-29.9	28.4	0.00e+00	0	32	0	3297771520	32	5670
2026-01-29 02:43:46.93	331.95	28.60	-29.2	-29.8	28.5	0.00e+00	0	32	0	3305111552	32	5578
2026-01-29 02:43:47.65	331.99	28.47	-29.4	-29.9	28.4	0.00e+00	0	32	0	3309305856	32	5671
2026-01-29 02:43:48.95	332.07	28.24	-29.4	-29.9	28.5	0.00e+00	0	32	0	3316645888	32	5656
2026-01-29 02:43:49.67	332.11	28.11	-29.2	-29.7	28.5	0.00e+00	0	32	0	3320840192	32	5557
2026-01-29 02:43:50.97	332.19	27.88	-29.2	-29.9	28.5	0.00e+00	0	32	0	3328180224	32	5649
2026-01-29 02:43:51.69	332.23	27.76	-29.3	-30.0	28.5	0.00e+00	0	32	0	3332374528	32	5736
2026-01-29 02:43:52.99	332.30	27.54	-29.3	-29.9	28.5	0.00e+00	0	32	0	3339714560	32	5681
2026-01-29 02:43:53.71	332.34	27.41	-29.3	-30.0	28.5	0.00e+00	0	32	0	3343908864	32	5731
2026-01-29 02:43:55.00	332.41	27.19	-29.4	-30.0	28.4	0.00e+00	0	32	0	3351248896	32	5697
2026-01-29 02:43:55.72	332.45	27.07	-29.3	-29.9	28.4	0.00e+00	0	32	0	3355443200	32	5645
2026-01-29 02:43:57.02	332.52	26.85	-29.5	-30.1	28.3	0.00e+00	0	32	0	3362783232	32	5770
2026-01-29 02:43:57.74	332.56	26.73	-29.5	-30.0	28.3	0.00e+00	0	32	0	3366977536	32	5739
2026-01-29 02:43:59.04	332.63	26.52	-29.5	-30.1	28.2	0.00e+00	0	32	0	3374317568	32	5766
2026-01-29 02:43:59.76	332.67	26.40	-29.6	-30.1	28.3	0.00e+00	0	32	0	3377463296	32	5795
2026-01-29 02:44:01.06	332.74	26.18	-29.6	-30.1	28.2	0.00e+00	0	32	0	3384803328	32	5818
2026-01-29 02:44:01.78	332.78	26.07	-29.7	-30.2	28.2	0.00e+00	0	32	0	3388997632	32	5863
2026-01-29 02:44:03.08	332.84	25.86	-29.8	-30.4	28.0	0.00e+00	0	32	0	3396337664	32	5990
2026-01-29 02:44:03.80	332.88	25.74	-30.0	-30.5	27.9	0.00e+00	0	32	0	3400531968	32	6073
2026-01-29 02:44:05.10	332.95	25.53	-29.9	-30.4	28.0	0.00e+00	0	32	0	3407872000	32	6015
2026-01-29 02:44:05.82	332.98	25.42	-29.9	-30.4	28.0	0.00e+00	0	32	0	3412066304	32	6025
2026-01-29 02:44:07.12	333.05	25.21	-30.1	-30.6	27.9	0.00e+00	0	32	0	3419406336	32	6133
2026-01-29 02:44:07.83	333.08	25.10	-30.0	-30.7	28.0	0.00e+00	0	32	0	3423600640	32	6198
2026-01-29 02:44:09.13	333.14	24.90	-30.1	-30.7	27.9	0.00e+00	0	32	0	3430940672	32	6179
2026-01-29 02:44:09.85	333.18	24.78	-30.1	-30.7	27.9	0.00e+00	0	32	0	3435134976	32	6210
2026-01-29 02:44:11.15	333.24	24.58	-30.1	-30.7	27.9	0.00e+00	0	32	0	3442475008	32	6183
2026-01-29 02:44:11.87	333.27	24.47	-30.1	-30.6	27.9	0.00e+00	0	32	0	3445620736	32	6166
2026-01-29 02:44:13.16	333.34	24.27	-30.1	-30.7	27.8	0.00e+00	0	32	0	3452960768	32	6187
2026-01-29 02:44:13.89	333.37	24.16	-30.2	-30.7	27.8	0.00e+00	0	32	0	3457155072	32	6238
2026-01-29 02:44:15.19	333.43	23.97	-30.1	-30.7	27.8	0.00e+00	0	32	0	3464495104	32	6174
2026-01-29 02:44:15.91	333.46	23.86	-30.1	-30.7	27.8	0.00e+00	0	32	0	3468689408	32	6181
2026-01-29 02:44:17.21	333.52	23.66	-30.2	-30.7	27.8	0.00e+00	0	32	0	3476029440	32	6202
2026-01-29 02:44:17.93	333.55	23.56	-30.1	-30.7	27.8	0.00e+00	0	32	0	3480223744	32	6174
2026-01-29 02:44:19.22	333.61	23.37	-30.2	-30.8	27.8	0.00e+00	0	32	0	3487563776	32	6267
2026-01-29 02:44:19.94	333.64	23.26	-30.1	-30.6	27.8	0.00e+00	0	32	0	3491758080	32	6127
2026-01-29 02:44:21.24	333.70	23.07	-30.2	-30.7	27.8	0.00e+00	0	32	0	3499098112	32	6235
2026-01-29 02:44:21.96	333.73	22.97	-30.3	-30.8	27.7	0.00e+00	0	32	0	3502243840	32	6286
2026-01-29 02:44:23.26	333.79	22.78	-30.1	-30.7	27.9	0.00e+00	0	32	0	3509583872	32	6181
2026-01-29 02:44:23.98	333.82	22.68	-30.1	-30.7	27.8	0.00e+00	0	32	0	3513778176	32	6174
2026-01-29 02:44:25.28	333.87	22.49	-30.2	-30.7	27.7	0.00e+00	0	32	0	3521118208	32	6241
2026-01-29 02:44:26.00	333.90	22.39	-30.1	-30.6	27.9	0.00e+00	0	32	0	3525312512	32	6119
2026-01-29 02:44:27.30	333.96	22.20	-30.2	-30.7	27.8	0.00e+00	0	32	0	3532652544	32	6216
2026-01-29 02:44:28.02	333.99	22.10	-30.1	-30.6	27.8	0.00e+00	0	32	0	3536846848	32	6143
2026-01-29 02:44:29.32	334.04	21.92	-30.2	-30.7	27.7	0.00e+00	0	32	0	3544186880	32	6218
2026-01-29 02:44:30.04	334.07	21.82	-30.4	-30.9	27.5	0.00e+00	0	32	0	3548381184	32	6366
2026-01-29 02:44:31.34	334.12	21.64	-30.3	-30.9	27.6	0.00e+00	0	32	0	3555721216	32	6320
2026-01-29 02:44:32.06	334.15	21.54	-30.4	-30.9	27.5	0.00e+00	0	32	0	3559915520	32	6369
2026-01-29 02:44:33.36	334.20	21.37	-30.3	-30.8	27.7	0.00e+00	0	32	0	3567255552	32	6289
2026-01-29 02:44:34.08	334.23	21.27	-30.2	-30.8	27.7	0.00e+00	0	32	0	3570401280	32	6261
2026-01-29 02:44:35.38	334.28	21.09	-30.3	-30.8	27.7	0.00e+00	0	32	0	3577741312	32	6283
2026-01-29 02:44:36.10	334.31	20.99	-30.4	-31.0	27.6	0.00e+00	0	32	0	3581935616	32	6407
2026-01-29 02:44:37.40	334.36	20.82	-30.5	-31.0	27.5	0.00e+00	0	32	0	3589275648	32	6424
2026-01-29 02:44:38.12	334.39	20.73	-30.6	-31.2	27.5	0.00e+00	0	32	0	3593469952	32	6556
2026-01-29 02:44:39.42	334.43	20.55	-30.5	-31.0	27.4	0.00e+00	0	32	0	3600809984	34	5744
2026-01-29 02:44:40.14	334.46	20.46	-30.6	-31.1	27.4	0.00e+00	0	32	0	3605004288	34	5798
2026-01-29 02:44:41.44	334.51	20.29	-30.9	-31.4	27.2	0.00e+00	0	32	0	3612344320	34	6012
