passes_logs/2026/01/16/R3.2S_Murmansk/R3.2S_Murmansk__20260116_212851_KANOPUS-V_5_rec.log

#Pass ID: 20260116_212851_KANOPUS-V 5
#Satellite: KANOPUS-V 5
#Configuration: KANOPUS-V_8320
#almurnet v.1.7.20251203
#Start time: 2026-01-16 21:28:52

#Version: 2.2.20231116
#Station: R3.2S_Murmansk
#Location: 33.079688 lon 68.888172 lat
#TLE: 1 43876U 18111A   26015.95883530  .00002079  00000+0  90203-4 0  9990
#TLE: 2 43876  97.3685 284.4557 0001748  86.2315 273.9122 15.23440439391619

#Time	Az	El	Level	Level2	SNR	BER	BlckErr	Temp	State	Recorded	gain1	gain2
2026-01-16 21:28:52.14	21.12	2.04	-52.2	-61.0	3.8	7.44e-01	0	32	0	0	76	9643
2026-01-16 21:28:53.16	21.16	2.11	-52.1	-61.0	3.8	7.47e-01	0	32	104	0	75	10233
2026-01-16 21:28:54.16	21.20	2.18	-52.1	-61.0	3.8	7.45e-01	0	32	104	0	75	10181
2026-01-16 21:28:55.17	21.25	2.25	-52.1	-61.0	3.8	7.45e-01	0	32	104	0	75	10186
2026-01-16 21:28:56.18	21.29	2.32	-52.1	-61.0	3.8	7.46e-01	0	32	104	0	75	10219
2026-01-16 21:28:57.19	21.33	2.39	-52.1	-61.0	3.8	7.45e-01	0	32	104	0	75	10204
2026-01-16 21:28:58.20	21.38	2.46	-52.1	-60.9	3.8	7.44e-01	0	32	104	0	75	10165
2026-01-16 21:28:59.21	21.42	2.53	-52.1	-61.0	3.8	7.43e-01	0	32	104	0	75	10188
2026-01-16 21:29:00.21	21.47	2.60	-52.1	-60.9	3.8	7.44e-01	0	32	104	0	75	10147
2026-01-16 21:29:01.22	21.51	2.67	-52.1	-60.9	3.8	7.46e-01	0	32	104	0	75	10165
2026-01-16 21:29:02.23	21.56	2.74	-52.1	-61.0	3.8	7.46e-01	0	32	104	0	75	10190
2026-01-16 21:29:03.24	21.60	2.81	-52.1	-60.9	3.8	7.45e-01	0	32	104	0	75	10109
2026-01-16 21:29:04.24	21.65	2.88	-52.1	-60.9	3.8	7.45e-01	0	32	104	0	75	10165
2026-01-16 21:29:05.25	21.70	2.95	-52.1	-60.9	3.8	7.44e-01	0	32	104	0	75	10155
2026-01-16 21:29:06.26	21.74	3.03	-52.1	-60.9	3.8	7.45e-01	0	32	104	0	75	10161
2026-01-16 21:29:07.27	21.79	3.10	-52.1	-60.9	3.8	7.44e-01	0	32	104	0	75	10144
2026-01-16 21:29:08.28	21.84	3.17	-52.1	-60.9	3.8	7.46e-01	0	32	104	0	75	10173
2026-01-16 21:29:09.29	21.88	3.24	-52.1	-61.0	3.8	7.46e-01	0	32	104	0	75	10198
2026-01-16 21:29:10.30	21.93	3.31	-52.1	-60.9	3.8	7.46e-01	0	32	104	0	75	10161
2026-01-16 21:29:11.31	21.98	3.39	-52.1	-61.0	3.8	7.47e-01	0	32	104	0	75	10203
2026-01-16 21:29:12.31	22.03	3.46	-52.1	-61.0	3.8	7.44e-01	0	33	104	0	75	10192
2026-01-16 21:29:13.32	22.08	3.53	-52.1	-61.0	3.8	7.46e-01	0	32	104	0	75	10191
2026-01-16 21:29:14.33	22.12	3.61	-52.1	-60.9	3.8	7.45e-01	0	32	104	0	75	10147
2026-01-16 21:29:15.34	22.17	3.68	-52.1	-60.9	3.8	7.47e-01	0	32	104	0	75	10160
2026-01-16 21:29:16.35	22.22	3.75	-52.1	-60.9	3.8	7.45e-01	0	32	104	0	75	10141
2026-01-16 21:29:17.35	22.27	3.83	-52.1	-60.9	3.8	7.46e-01	0	33	104	0	75	10132
2026-01-16 21:29:18.36	22.32	3.90	-52.1	-60.9	3.8	7.46e-01	0	33	104	0	75	10152
2026-01-16 21:29:19.37	22.37	3.98	-52.1	-60.9	3.8	7.45e-01	0	32	104	0	75	10161
2026-01-16 21:29:20.38	22.42	4.05	-52.1	-60.9	3.8	7.46e-01	0	33	104	0	75	10162
2026-01-16 21:29:21.39	22.47	4.13	-52.1	-60.9	3.8	7.45e-01	0	33	104	0	75	10172
2026-01-16 21:29:22.40	22.52	4.20	-52.1	-60.9	3.8	7.46e-01	0	33	104	0	75	10168
2026-01-16 21:29:23.41	22.57	4.28	-52.1	-60.9	3.8	7.47e-01	0	33	104	0	75	10148
2026-01-16 21:29:24.42	22.63	4.36	-52.1	-60.9	3.8	7.45e-01	0	32	104	0	75	10166
2026-01-16 21:29:25.42	22.68	4.43	-52.1	-60.9	3.8	7.47e-01	0	33	104	0	75	10168
2026-01-16 21:29:26.43	22.73	4.51	-52.1	-61.0	3.8	7.45e-01	0	33	104	0	75	10178
2026-01-16 21:29:27.44	22.78	4.58	-52.1	-61.0	3.8	7.46e-01	0	33	104	0	75	10182
2026-01-16 21:29:28.45	22.84	4.66	-52.1	-60.9	3.8	7.48e-01	0	33	104	0	75	10130
2026-01-16 21:29:29.46	22.89	4.74	-52.1	-60.9	3.8	7.46e-01	0	33	104	0	75	10138
2026-01-16 21:29:30.47	22.94	4.82	-52.1	-60.9	3.8	7.45e-01	0	33	104	0	75	10138
2026-01-16 21:29:31.48	23.00	4.90	-52.1	-60.9	3.8	7.44e-01	0	33	104	0	75	10168
2026-01-16 21:29:32.49	23.05	4.97	-52.1	-60.9	3.8	7.47e-01	0	33	104	0	75	10166
2026-01-16 21:29:33.49	23.10	5.05	-52.1	-60.9	3.8	7.46e-01	0	33	104	0	75	10156
2026-01-16 21:29:34.50	23.16	5.13	-52.2	-61.0	3.8	7.44e-01	0	33	104	0	75	10240
2026-01-16 21:29:35.51	23.21	5.21	-52.2	-61.0	3.8	7.45e-01	0	33	104	0	75	10219
2026-01-16 21:29:36.52	23.27	5.29	-52.0	-60.9	3.8	7.45e-01	0	33	104	0	75	10090
2026-01-16 21:29:37.52	23.33	5.37	-52.2	-61.0	3.8	7.45e-01	0	33	104	0	75	10218
2026-01-16 21:29:38.53	23.38	5.45	-52.3	-61.1	3.8	7.45e-01	0	33	104	0	75	10412
2026-01-16 21:29:39.54	23.44	5.53	-52.3	-61.1	3.8	7.44e-01	0	33	104	0	75	10314
2026-01-16 21:29:40.55	23.50	5.61	-52.1	-61.0	3.8	7.44e-01	0	33	104	0	75	10194
2026-01-16 21:29:41.56	23.55	5.69	-52.3	-61.1	3.8	7.45e-01	0	33	104	0	75	10408
2026-01-16 21:29:42.56	23.61	5.77	-52.4	-61.2	3.8	7.44e-01	0	33	104	0	75	10481
2026-01-16 21:29:43.57	23.67	5.85	-52.3	-61.1	3.8	7.45e-01	0	33	104	0	75	10391
2026-01-16 21:29:44.58	23.73	5.94	-52.2	-61.0	3.8	7.45e-01	0	33	104	0	75	10286
2026-01-16 21:29:45.59	23.79	6.02	-52.3	-61.2	3.8	7.44e-01	0	33	104	0	75	10445
2026-01-16 21:29:46.60	23.85	6.10	-52.4	-61.2	3.8	7.46e-01	0	33	104	0	75	10494
2026-01-16 21:29:47.61	23.91	6.19	-52.3	-61.2	3.8	7.45e-01	0	33	104	0	75	10471
2026-01-16 21:29:48.62	23.97	6.27	-52.3	-61.1	3.8	7.44e-01	0	33	104	0	75	10377
2026-01-16 21:29:49.63	24.03	6.35	-52.4	-61.2	3.8	7.45e-01	0	33	104	0	75	10529
2026-01-16 21:29:50.64	24.09	6.44	-52.4	-61.2	3.8	7.45e-01	0	33	104	0	75	10506
2026-01-16 21:29:51.64	24.15	6.52	-52.4	-61.2	3.8	7.45e-01	0	33	104	0	75	10529
2026-01-16 21:29:52.65	24.21	6.61	-52.3	-61.2	3.8	7.45e-01	0	33	104	0	75	10460
2026-01-16 21:29:53.66	24.27	6.69	-52.4	-61.2	3.8	7.46e-01	0	33	104	0	75	10523
2026-01-16 21:29:54.67	24.33	6.78	-52.5	-61.3	3.8	7.45e-01	0	33	104	0	75	10619
2026-01-16 21:29:55.68	24.40	6.86	-52.4	-61.3	3.8	7.45e-01	0	33	104	0	75	10534
2026-01-16 21:29:56.69	24.46	6.95	-52.4	-61.2	3.8	7.45e-01	0	33	104	0	75	10448
2026-01-16 21:29:57.69	24.52	7.03	-52.5	-61.3	3.8	7.45e-01	0	33	104	0	75	10634
2026-01-16 21:29:58.71	24.59	7.12	-52.5	-61.4	3.8	7.46e-01	0	33	104	0	75	10664
2026-01-16 21:29:59.72	24.65	7.21	-52.4	-61.3	3.8	7.44e-01	0	33	104	0	75	10552
2026-01-16 21:30:00.72	24.72	7.30	-52.4	-61.2	3.8	7.45e-01	0	33	104	0	75	10498
2026-01-16 21:30:01.73	24.78	7.39	-52.6	-61.4	3.8	7.45e-01	0	33	104	0	75	10753
2026-01-16 21:30:02.74	24.85	7.47	-52.6	-61.5	3.8	7.45e-01	0	33	104	0	75	10815
2026-01-16 21:30:03.75	24.92	7.56	-52.5	-61.3	3.8	7.46e-01	0	33	104	0	75	10647
2026-01-16 21:30:04.76	24.98	7.65	-52.5	-61.3	3.8	7.45e-01	0	33	104	0	75	10607
2026-01-16 21:30:05.77	25.05	7.74	-52.7	-61.5	3.8	7.46e-01	0	33	104	0	75	10860
2026-01-16 21:30:06.77	25.12	7.83	-52.7	-61.6	3.8	7.45e-01	0	33	104	0	75	10909
2026-01-16 21:30:07.78	25.19	7.92	-52.6	-61.4	3.8	7.45e-01	0	33	104	0	75	10759
2026-01-16 21:30:08.79	25.26	8.01	-52.6	-61.4	3.8	7.47e-01	0	33	104	0	75	10680
2026-01-16 21:30:09.80	25.33	8.10	-52.8	-61.6	3.8	7.46e-01	0	33	104	0	76	10333
2026-01-16 21:30:10.81	25.40	8.20	-52.8	-61.6	3.8	7.46e-01	0	33	104	0	76	10389
2026-01-16 21:30:11.81	25.47	8.29	-52.7	-61.5	3.8	7.45e-01	0	34	104	0	76	10244
2026-01-16 21:30:12.82	25.54	8.38	-52.7	-61.5	3.8	7.44e-01	0	33	104	0	76	10202
2026-01-16 21:30:13.83	25.61	8.47	-52.8	-61.6	3.8	7.45e-01	0	33	104	0	76	10400
2026-01-16 21:30:14.83	25.68	8.57	-52.8	-61.7	3.8	7.45e-01	0	33	104	0	76	10427
2026-01-16 21:30:15.85	25.76	8.66	-52.7	-61.6	3.8	7.45e-01	0	33	104	0	76	10320
2026-01-16 21:30:16.85	25.83	8.76	-52.7	-61.6	3.8	7.46e-01	0	33	104	0	76	10325
2026-01-16 21:30:17.86	25.90	8.85	-52.9	-61.7	3.8	7.44e-01	0	33	104	0	76	10471
2026-01-16 21:30:18.87	25.98	8.95	-52.9	-61.7	3.8	7.45e-01	0	34	104	0	76	10450
2026-01-16 21:30:19.88	26.05	9.04	-52.8	-61.6	3.8	7.45e-01	0	34	104	0	76	10364
2026-01-16 21:30:20.88	26.13	9.14	-52.8	-61.6	3.8	7.46e-01	0	34	104	0	76	10403
2026-01-16 21:30:21.89	26.20	9.23	-52.9	-61.7	3.8	7.47e-01	0	33	104	0	76	10473
2026-01-16 21:30:22.90	26.28	9.33	-52.9	-61.7	3.8	7.45e-01	0	33	104	0	76	10489
2026-01-16 21:30:23.91	26.36	9.43	-52.8	-61.7	3.8	7.46e-01	0	34	104	0	76	10421
2026-01-16 21:30:24.92	26.44	9.53	-52.8	-61.7	3.8	7.47e-01	0	33	104	0	76	10434
2026-01-16 21:30:25.93	26.51	9.63	-52.9	-61.7	3.8	7.46e-01	0	34	104	0	76	10519
2026-01-16 21:30:26.94	26.59	9.72	-52.9	-61.8	3.8	7.46e-01	0	33	104	0	76	10552
2026-01-16 21:30:27.95	26.67	9.82	-52.9	-61.7	3.8	7.45e-01	0	34	104	0	76	10459
2026-01-16 21:30:28.96	26.75	9.92	-52.9	-61.7	3.8	7.45e-01	0	33	104	0	76	10471
2026-01-16 21:30:29.97	26.84	10.02	-53.0	-61.8	3.8	7.46e-01	0	34	104	0	76	10597
2026-01-16 21:30:30.97	26.92	10.12	-53.0	-61.8	3.8	7.45e-01	0	34	104	0	76	10650
2026-01-16 21:30:31.98	27.00	10.23	-52.9	-61.7	3.8	7.46e-01	0	34	104	0	76	10525
2026-01-16 21:30:32.99	27.08	10.33	-52.9	-61.8	3.8	7.45e-01	0	34	104	0	76	10571
2026-01-16 21:30:34.00	27.17	10.43	-53.0	-61.8	3.8	7.46e-01	0	33	104	0	76	10637
2026-01-16 21:30:35.01	27.25	10.53	-53.0	-61.9	3.8	7.43e-01	0	34	104	0	76	10676
2026-01-16 21:30:36.01	27.33	10.64	-52.9	-61.8	3.8	7.44e-01	0	33	104	0	76	10544
2026-01-16 21:30:37.02	27.42	10.74	-53.0	-61.8	3.8	7.46e-01	0	34	104	0	76	10586
2026-01-16 21:30:38.03	27.51	10.85	-53.1	-61.9	3.8	7.44e-01	0	34	104	0	76	10663
2026-01-16 21:30:39.04	27.59	10.95	-53.1	-61.9	3.8	7.46e-01	0	34	104	0	76	10668
2026-01-16 21:30:40.04	27.68	11.06	-53.0	-61.8	3.8	7.45e-01	0	34	104	0	76	10605
2026-01-16 21:30:41.05	27.77	11.16	-53.0	-61.8	3.8	7.47e-01	0	34	104	0	76	10621
2026-01-16 21:30:42.06	27.86	11.27	-53.1	-61.9	3.8	7.45e-01	0	34	104	0	76	10701
2026-01-16 21:30:43.07	27.95	11.38	-53.1	-61.9	3.8	7.44e-01	0	34	104	0	76	10730
2026-01-16 21:30:44.08	28.04	11.49	-53.0	-61.8	3.8	7.45e-01	0	34	104	0	76	10645
2026-01-16 21:30:45.09	28.13	11.60	-53.0	-61.9	3.8	7.45e-01	0	34	104	0	76	10705
2026-01-16 21:30:46.09	28.23	11.70	-53.1	-61.9	3.8	7.44e-01	0	34	104	0	76	10718
2026-01-16 21:30:47.10	28.32	11.81	-53.1	-61.9	3.8	7.45e-01	0	34	104	0	76	10754
2026-01-16 21:30:48.11	28.41	11.92	-53.1	-61.9	3.8	7.45e-01	0	34	104	0	76	10754
2026-01-16 21:30:49.12	28.51	12.04	-53.1	-61.9	3.8	7.44e-01	0	34	104	0	76	10711
2026-01-16 21:30:50.13	28.60	12.15	-53.1	-62.0	3.8	7.46e-01	0	34	104	0	76	10816
2026-01-16 21:30:51.14	28.70	12.26	-53.1	-62.0	3.8	7.47e-01	0	34	104	0	76	10804
2026-01-16 21:30:52.14	28.80	12.37	-53.1	-61.9	3.8	7.46e-01	0	34	104	0	76	10771
2026-01-16 21:30:53.15	28.90	12.49	-53.1	-61.9	3.8	7.46e-01	0	34	104	0	76	10763
2026-01-16 21:30:54.16	29.00	12.60	-53.2	-62.0	3.8	7.45e-01	0	34	104	0	76	10819
2026-01-16 21:30:55.17	29.10	12.72	-53.2	-62.0	3.8	7.45e-01	0	33	104	0	76	10844
2026-01-16 21:30:56.18	29.20	12.83	-53.1	-62.0	3.8	7.45e-01	0	33	104	0	76	10812
2026-01-16 21:30:57.18	29.30	12.95	-53.1	-62.0	3.8	7.45e-01	0	34	104	0	76	10816
2026-01-16 21:30:58.19	29.40	13.06	-53.2	-62.0	3.8	7.44e-01	0	34	104	0	76	10834
2026-01-16 21:30:59.20	29.51	13.18	-53.2	-62.1	3.8	7.44e-01	0	34	104	0	76	10907
2026-01-16 21:31:00.21	29.61	13.30	-53.2	-62.0	3.8	7.46e-01	0	34	104	0	76	10808
2026-01-16 21:31:01.22	29.72	13.42	-53.2	-62.0	3.8	7.44e-01	0	34	104	0	76	10831
2026-01-16 21:31:02.23	29.82	13.54	-53.2	-62.0	3.8	7.46e-01	0	34	104	0	77	10270
2026-01-16 21:31:03.24	29.93	13.66	-53.2	-62.1	3.8	7.45e-01	0	34	104	0	77	10340
2026-01-16 21:31:04.24	30.04	13.78	-53.2	-62.1	3.8	7.45e-01	0	34	104	0	77	10320
2026-01-16 21:31:05.25	30.15	13.90	-53.2	-62.0	3.8	7.47e-01	0	34	104	0	77	10250
2026-01-16 21:31:06.26	30.26	14.02	-53.3	-62.1	3.8	7.45e-01	0	34	104	0	77	10307
2026-01-16 21:31:07.27	30.37	14.15	-53.3	-62.1	3.8	7.46e-01	0	34	104	0	77	10351
2026-01-16 21:31:08.28	30.49	14.27	-53.2	-62.0	3.8	7.44e-01	0	34	104	0	77	10284
2026-01-16 21:31:09.29	30.60	14.40	-53.2	-62.0	3.8	7.44e-01	0	34	104	0	77	10290
2026-01-16 21:31:10.30	30.72	14.52	-53.3	-62.1	3.8	7.45e-01	0	34	104	0	77	10331
2026-01-16 21:31:11.31	30.83	14.65	-53.3	-62.1	3.8	7.45e-01	0	34	104	0	77	10357
2026-01-16 21:31:12.32	30.95	14.78	-53.2	-62.1	3.8	7.46e-01	0	34	104	0	77	10317
2026-01-16 21:31:13.32	31.07	14.90	-53.2	-62.1	3.8	7.47e-01	0	34	104	0	77	10339
2026-01-16 21:31:14.33	31.19	15.03	-53.3	-62.1	3.8	7.44e-01	0	34	104	0	77	10392
2026-01-16 21:31:15.34	31.31	15.16	-53.3	-62.1	3.8	7.44e-01	0	34	104	0	77	10380
2026-01-16 21:31:16.35	31.43	15.29	-53.3	-62.1	3.8	7.44e-01	0	34	104	0	77	10311
2026-01-16 21:31:17.36	31.56	15.42	-53.3	-62.1	3.8	7.45e-01	0	34	104	0	77	10360
2026-01-16 21:31:18.37	31.68	15.56	-53.3	-62.1	3.8	7.45e-01	0	34	104	0	77	10403
2026-01-16 21:31:19.38	31.81	15.69	-53.3	-62.2	3.8	7.45e-01	0	34	104	0	77	10426
2026-01-16 21:31:20.39	31.94	15.82	-53.3	-62.1	3.8	7.45e-01	0	34	104	0	77	10407
2026-01-16 21:31:21.39	32.06	15.96	-53.3	-62.1	3.8	7.45e-01	0	34	104	0	77	10400
2026-01-16 21:31:22.40	32.19	16.09	-53.3	-62.2	3.8	7.47e-01	0	34	104	0	77	10413
2026-01-16 21:31:23.41	32.33	16.23	-53.3	-62.2	3.8	7.45e-01	0	34	104	0	77	10448
2026-01-16 21:31:24.42	32.46	16.36	-53.3	-62.1	3.8	7.46e-01	0	34	104	0	77	10397
2026-01-16 21:31:25.43	32.59	16.50	-53.3	-62.1	3.8	7.45e-01	0	34	104	0	77	10408
2026-01-16 21:31:26.43	32.73	16.64	-53.4	-62.2	3.8	7.44e-01	0	34	104	0	77	10495
2026-01-16 21:31:27.44	32.86	16.78	-53.4	-62.2	3.8	7.47e-01	0	34	104	0	77	10462
2026-01-16 21:31:28.45	33.00	16.92	-53.3	-62.2	3.8	7.47e-01	0	34	104	0	77	10453
2026-01-16 21:31:29.46	33.14	17.06	-53.4	-62.2	3.8	7.46e-01	0	34	104	0	77	10470
2026-01-16 21:31:30.47	33.28	17.20	-53.4	-62.2	3.8	7.45e-01	0	34	104	0	77	10509
2026-01-16 21:31:31.48	33.43	17.35	-53.4	-62.2	3.8	7.44e-01	0	34	104	0	77	10493
2026-01-16 21:31:32.49	33.57	17.49	-53.4	-62.2	3.8	7.46e-01	0	34	104	0	77	10460
2026-01-16 21:31:33.50	33.72	17.64	-53.4	-62.2	3.8	7.44e-01	0	34	104	0	77	10488
2026-01-16 21:31:34.50	33.86	17.78	-53.4	-62.2	3.8	7.45e-01	0	34	104	0	77	10519
2026-01-16 21:31:35.51	34.01	17.93	-53.4	-62.2	3.8	7.44e-01	0	34	104	0	77	10524
2026-01-16 21:31:36.52	34.16	18.08	-53.4	-62.2	3.8	7.44e-01	0	34	104	0	77	10500
2026-01-16 21:31:37.53	34.32	18.23	-53.4	-62.3	3.8	7.46e-01	0	34	104	0	77	10565
2026-01-16 21:31:38.54	34.47	18.38	-53.5	-62.3	3.8	7.43e-01	0	34	104	0	77	10608
2026-01-16 21:31:39.55	34.63	18.53	-53.4	-62.3	3.8	7.47e-01	0	34	104	0	77	10619
2026-01-16 21:31:40.56	34.79	18.68	-53.4	-62.3	3.8	7.45e-01	0	34	104	0	77	10551
2026-01-16 21:31:41.56	34.94	18.83	-53.5	-62.3	3.8	7.45e-01	0	34	104	0	77	10585
2026-01-16 21:31:42.57	35.11	18.99	-53.5	-62.3	3.8	7.46e-01	0	34	104	0	77	10633
2026-01-16 21:31:43.58	35.27	19.14	-53.5	-62.3	3.8	7.45e-01	0	34	104	0	77	10576
2026-01-16 21:31:44.59	35.43	19.30	-53.4	-62.3	3.8	7.47e-01	0	34	104	0	77	10577
2026-01-16 21:31:45.60	35.60	19.46	-53.5	-62.3	3.8	7.45e-01	0	34	104	0	77	10643
2026-01-16 21:31:46.60	35.77	19.61	-53.5	-62.4	3.8	7.46e-01	0	34	104	0	77	10662
2026-01-16 21:31:47.61	35.94	19.77	-53.5	-62.3	3.8	7.45e-01	0	34	104	0	77	10598
2026-01-16 21:31:48.62	36.11	19.93	-53.5	-62.3	3.8	7.45e-01	0	34	104	0	77	10611
2026-01-16 21:31:49.63	36.29	20.10	-53.5	-62.3	3.8	7.45e-01	0	34	104	0	77	10651
2026-01-16 21:31:50.64	36.47	20.26	-53.5	-62.3	3.8	7.46e-01	0	34	104	0	77	10648
2026-01-16 21:31:51.65	36.64	20.42	-53.5	-62.4	3.8	7.45e-01	0	34	104	0	77	10660
2026-01-16 21:31:52.66	36.83	20.59	-53.5	-62.3	3.8	7.46e-01	0	34	104	0	77	10589
2026-01-16 21:31:53.66	37.01	20.75	-53.5	-62.4	3.8	7.46e-01	0	34	104	0	77	10687
2026-01-16 21:31:54.67	37.19	20.92	-53.5	-62.3	3.8	7.46e-01	0	34	104	0	77	10647
2026-01-16 21:31:55.68	37.38	21.09	-53.5	-62.3	3.8	7.46e-01	0	34	104	0	77	10624
2026-01-16 21:31:56.69	37.57	21.26	-53.5	-62.3	3.8	7.46e-01	0	34	104	0	77	10637
2026-01-16 21:31:57.70	37.77	21.43	-53.6	-62.4	3.8	7.46e-01	0	34	104	0	77	10704
2026-01-16 21:31:58.71	37.96	21.60	-53.5	-62.4	3.8	7.47e-01	0	34	104	0	77	10673
2026-01-16 21:31:59.72	38.16	21.77	-53.5	-62.4	3.8	7.47e-01	0	34	104	0	77	10681
2026-01-16 21:32:00.72	38.36	21.95	-53.5	-62.4	3.8	7.45e-01	0	34	104	0	77	10695
2026-01-16 21:32:01.73	38.56	22.12	-53.6	-62.4	3.8	7.46e-01	0	34	104	0	77	10721
2026-01-16 21:32:02.74	38.76	22.30	-53.6	-62.4	3.8	7.44e-01	0	34	104	0	77	10729
2026-01-16 21:32:03.75	38.97	22.48	-53.6	-62.4	3.8	7.44e-01	0	34	104	0	77	10734
2026-01-16 21:32:04.76	39.18	22.66	-53.5	-62.4	3.8	7.46e-01	0	34	104	0	77	10681
2026-01-16 21:32:05.76	39.39	22.84	-53.6	-62.4	3.8	7.44e-01	0	34	104	0	77	10778
2026-01-16 21:32:06.77	39.61	23.02	-53.6	-62.4	3.8	7.45e-01	0	34	104	0	77	10719
2026-01-16 21:32:07.78	39.83	23.20	-53.6	-62.4	3.8	7.45e-01	0	34	104	0	77	10758
2026-01-16 21:32:08.79	40.05	23.38	-53.6	-62.4	3.8	7.45e-01	0	34	104	0	77	10748
2026-01-16 21:32:09.80	40.27	23.57	-53.6	-62.5	3.8	7.43e-01	0	34	104	0	77	10783
2026-01-16 21:32:10.80	40.50	23.75	-53.6	-62.4	3.8	7.46e-01	0	34	104	0	77	10758
2026-01-16 21:32:11.81	40.73	23.94	-53.6	-62.4	3.8	7.45e-01	0	34	104	0	77	10741
2026-01-16 21:32:12.82	40.96	24.13	-53.6	-62.4	3.8	7.45e-01	0	34	104	0	77	10771
2026-01-16 21:32:13.83	41.20	24.32	-53.6	-62.5	3.8	7.45e-01	0	34	104	0	77	10807
2026-01-16 21:32:14.84	41.44	24.51	-53.6	-62.5	3.8	7.45e-01	0	34	104	0	77	10783
2026-01-16 21:32:15.85	41.68	24.70	-53.6	-62.4	3.8	7.44e-01	0	34	104	0	77	10762
2026-01-16 21:32:16.85	41.93	24.90	-53.6	-62.5	3.8	7.45e-01	0	34	104	0	77	10823
2026-01-16 21:32:17.86	42.17	25.09	-53.6	-62.5	3.8	7.45e-01	0	34	104	0	77	10790
2026-01-16 21:32:18.87	42.43	25.29	-53.6	-62.5	3.8	7.45e-01	0	34	104	0	77	10809
2026-01-16 21:32:19.88	42.68	25.49	-53.6	-62.5	3.8	7.45e-01	0	34	104	0	77	10837
2026-01-16 21:32:20.88	42.94	25.68	-53.6	-62.5	3.8	7.46e-01	0	34	104	0	77	10787
2026-01-16 21:32:21.89	43.20	25.88	-53.7	-62.5	3.8	7.45e-01	0	34	104	0	77	10838
2026-01-16 21:32:22.90	43.47	26.09	-53.7	-62.5	3.8	7.47e-01	0	34	104	0	77	10808
2026-01-16 21:32:23.91	43.74	26.29	-53.7	-62.5	3.8	7.46e-01	0	34	104	0	77	10791
2026-01-16 21:32:24.92	44.02	26.49	-53.7	-62.5	3.8	7.46e-01	0	34	104	0	77	10828
2026-01-16 21:32:25.93	44.30	26.70	-53.7	-62.5	3.8	7.44e-01	0	34	104	0	77	10838
2026-01-16 21:32:26.94	44.58	26.90	-53.7	-62.5	3.8	7.46e-01	0	34	104	0	77	10862
2026-01-16 21:32:27.95	44.86	27.11	-53.7	-62.5	3.8	7.45e-01	0	34	104	0	77	10856
2026-01-16 21:32:28.96	45.15	27.32	-53.7	-62.5	3.8	7.45e-01	0	34	104	0	77	10854
2026-01-16 21:32:29.96	45.45	27.53	-53.7	-62.5	3.8	7.45e-01	0	34	104	0	77	10892
2026-01-16 21:32:30.97	45.74	27.74	-53.7	-62.5	3.8	7.44e-01	0	34	104	0	77	10865
2026-01-16 21:32:31.98	46.05	27.95	-53.7	-62.5	3.8	7.46e-01	0	34	104	0	77	10860
2026-01-16 21:32:32.99	46.36	28.17	-53.7	-62.5	3.8	7.46e-01	0	34	104	0	77	10862
2026-01-16 21:32:34.00	46.67	28.38	-53.7	-62.6	3.8	7.46e-01	0	34	104	0	78	10304
2026-01-16 21:32:35.01	46.98	28.60	-53.7	-62.6	3.8	7.46e-01	0	34	104	0	78	10326
2026-01-16 21:32:36.01	47.30	28.81	-53.7	-62.5	3.8	7.45e-01	0	34	104	0	78	10278
2026-01-16 21:32:37.02	47.63	29.03	-53.7	-62.6	3.8	7.46e-01	0	34	104	0	78	10305
2026-01-16 21:32:38.03	47.96	29.25	-53.8	-62.6	3.8	7.44e-01	0	34	104	0	78	10304
2026-01-16 21:32:39.04	48.29	29.47	-53.8	-62.6	3.8	7.46e-01	0	34	104	0	78	10349
2026-01-16 21:32:40.04	48.63	29.69	-53.7	-62.6	3.8	7.47e-01	0	34	104	0	78	10304
2026-01-16 21:32:41.05	48.98	29.91	-53.7	-62.6	3.8	7.46e-01	0	34	104	0	78	10353
2026-01-16 21:32:42.06	49.33	30.14	-53.8	-62.6	3.8	7.45e-01	0	34	104	0	78	10382
2026-01-16 21:32:43.07	49.68	30.36	-53.8	-62.6	3.8	7.45e-01	0	34	104	0	78	10377
2026-01-16 21:32:44.08	50.05	30.59	-53.8	-62.6	3.8	7.45e-01	0	34	104	0	78	10341
2026-01-16 21:32:45.09	50.41	30.82	-53.8	-62.6	3.8	7.47e-01	0	34	104	0	78	10363
2026-01-16 21:32:46.10	50.78	31.04	-53.8	-62.6	3.8	7.43e-01	0	34	104	0	78	10381
2026-01-16 21:32:47.11	51.16	31.27	-53.8	-62.6	3.8	7.46e-01	0	34	104	0	78	10372
2026-01-16 21:32:48.11	51.54	31.50	-53.8	-62.6	3.8	7.45e-01	0	34	104	0	78	10395
2026-01-16 21:32:49.12	51.93	31.73	-53.8	-62.6	3.8	7.46e-01	0	34	104	0	78	10360
2026-01-16 21:32:50.13	52.33	31.96	-53.8	-62.7	3.8	7.44e-01	0	34	104	0	78	10467
2026-01-16 21:32:51.14	52.73	32.19	-53.8	-62.7	3.8	7.45e-01	0	34	104	0	78	10419
2026-01-16 21:32:52.14	53.13	32.42	-53.8	-62.6	3.8	7.46e-01	0	34	104	0	78	10397
2026-01-16 21:32:53.15	53.55	32.66	-53.8	-62.6	3.8	7.47e-01	0	34	104	0	78	10409
2026-01-16 21:32:54.16	53.97	32.89	-53.8	-62.6	3.8	7.46e-01	0	34	104	0	78	10380
2026-01-16 21:32:55.17	54.39	33.12	-53.8	-62.6	3.8	7.46e-01	0	34	104	0	78	10387
2026-01-16 21:32:56.18	54.83	33.36	-53.8	-62.6	3.8	7.45e-01	0	34	104	0	78	10365
2026-01-16 21:32:57.18	55.26	33.59	-53.8	-62.7	3.8	7.45e-01	0	34	104	0	78	10424
2026-01-16 21:32:58.19	55.71	33.83	-53.8	-62.6	3.8	7.45e-01	0	34	104	0	78	10407
2026-01-16 21:32:59.20	56.16	34.06	-53.8	-62.7	3.8	7.46e-01	0	34	104	0	78	10447
2026-01-16 21:33:00.21	56.62	34.30	-53.8	-62.6	3.8	7.46e-01	0	34	104	0	78	10408
2026-01-16 21:33:01.22	57.09	34.53	-53.8	-62.7	3.8	7.46e-01	0	34	104	0	78	10419
2026-01-16 21:33:02.23	57.57	34.77	-53.8	-62.7	3.8	7.45e-01	0	34	104	0	78	10482
2026-01-16 21:33:03.23	58.04	35.00	-53.8	-62.6	3.8	7.45e-01	0	34	104	0	78	10403
2026-01-16 21:33:04.24	58.53	35.24	-53.8	-62.7	3.8	7.45e-01	0	34	104	0	78	10451
2026-01-16 21:33:05.25	59.03	35.47	-53.8	-62.7	3.8	7.45e-01	0	34	104	0	78	10462
2026-01-16 21:33:06.26	59.54	35.71	-53.9	-62.8	3.8	7.45e-01	0	34	104	0	78	10541
2026-01-16 21:33:07.26	60.04	35.94	-53.9	-62.7	3.8	7.46e-01	0	34	104	0	78	10478
2026-01-16 21:33:08.27	60.56	36.18	-53.9	-62.7	3.8	7.44e-01	0	34	104	0	78	10450
2026-01-16 21:33:09.28	61.09	36.41	-53.9	-62.7	3.8	7.46e-01	0	34	104	0	78	10487
2026-01-16 21:33:10.29	61.63	36.64	-53.9	-62.7	3.8	7.46e-01	0	34	104	0	78	10523
2026-01-16 21:33:11.30	62.17	36.88	-53.9	-62.7	3.8	7.45e-01	0	34	104	0	78	10507
2026-01-16 21:33:12.30	62.72	37.11	-53.9	-62.7	3.8	7.45e-01	0	34	104	0	78	10485
2026-01-16 21:33:13.31	63.28	37.34	-53.9	-62.7	3.8	7.45e-01	0	34	104	0	78	10486
2026-01-16 21:33:14.32	63.85	37.57	-53.9	-62.7	3.8	7.45e-01	0	34	104	0	78	10472
2026-01-16 21:33:15.33	64.43	37.80	-53.9	-62.7	3.8	7.45e-01	0	34	104	0	78	10487
2026-01-16 21:33:16.34	65.01	38.02	-53.9	-62.7	3.8	7.45e-01	0	34	104	0	78	10498
2026-01-16 21:33:17.34	65.60	38.25	-53.9	-62.7	3.8	7.45e-01	0	34	104	0	78	10471
2026-01-16 21:33:18.35	66.20	38.47	-53.9	-62.7	3.8	7.45e-01	0	34	104	0	78	10507
2026-01-16 21:33:19.36	66.82	38.69	-53.9	-62.7	3.8	7.45e-01	0	34	104	0	78	10502
2026-01-16 21:33:20.37	67.44	38.91	-53.9	-62.7	3.8	7.46e-01	0	34	104	0	78	10505
2026-01-16 21:33:21.38	68.07	39.13	-53.9	-62.7	3.8	7.46e-01	0	34	104	0	78	10529
2026-01-16 21:33:22.38	68.70	39.35	-53.9	-62.7	3.8	7.45e-01	0	34	104	0	78	10519
2026-01-16 21:33:23.39	69.34	39.56	-53.9	-62.8	3.8	7.44e-01	0	34	104	0	78	10534
2026-01-16 21:33:24.40	70.00	39.77	-53.9	-62.7	3.8	7.45e-01	0	34	104	0	78	10520
2026-01-16 21:33:25.40	70.66	39.98	-53.9	-62.7	3.8	7.46e-01	0	34	104	0	78	10496
2026-01-16 21:33:26.41	71.33	40.19	-53.9	-62.7	3.8	7.45e-01	0	34	104	0	78	10515
2026-01-16 21:33:27.42	72.02	40.39	-53.9	-62.7	3.8	7.46e-01	0	34	104	0	78	10531
2026-01-16 21:33:28.43	72.71	40.59	-53.9	-62.8	3.8	7.45e-01	0	34	104	0	78	10556
2026-01-16 21:33:29.44	73.41	40.79	-53.9	-62.8	3.8	7.45e-01	0	34	104	0	78	10555
2026-01-16 21:33:30.45	74.12	40.98	-53.9	-62.8	3.8	7.45e-01	0	34	104	0	78	10544
2026-01-16 21:33:31.46	74.84	41.17	-53.9	-62.7	3.8	7.47e-01	0	34	104	0	78	10511
2026-01-16 21:33:32.46	75.56	41.36	-53.9	-62.8	3.8	7.45e-01	0	34	104	0	78	10540
2026-01-16 21:33:33.47	76.29	41.54	-53.9	-62.8	3.8	7.43e-01	0	34	104	0	78	10606
2026-01-16 21:33:34.48	77.04	41.72	-53.9	-62.8	3.8	7.45e-01	0	34	104	0	78	10610
2026-01-16 21:33:35.49	77.79	41.89	-54.0	-62.8	3.8	7.46e-01	0	34	104	0	78	10645
2026-01-16 21:33:36.50	78.55	42.06	-53.9	-62.8	3.8	7.46e-01	0	34	104	0	78	10567
2026-01-16 21:33:37.51	79.32	42.23	-53.9	-62.8	3.8	7.45e-01	0	34	104	0	78	10599
2026-01-16 21:33:38.52	80.10	42.39	-53.9	-62.8	3.8	7.46e-01	0	34	104	0	78	10556
2026-01-16 21:33:39.52	80.87	42.54	-53.9	-62.8	3.8	7.47e-01	0	34	104	0	78	10613
2026-01-16 21:33:40.53	81.67	42.69	-53.9	-62.8	3.8	7.44e-01	0	34	104	0	78	10539
2026-01-16 21:33:41.54	82.47	42.84	-53.9	-62.8	3.8	7.45e-01	0	34	104	0	78	10566
2026-01-16 21:33:42.55	83.28	42.98	-53.9	-62.7	3.8	7.44e-01	0	34	104	0	78	10526
2026-01-16 21:33:43.56	84.09	43.11	-53.9	-62.7	3.8	7.47e-01	0	34	104	0	78	10527
2026-01-16 21:33:44.56	84.91	43.24	-53.9	-62.7	3.8	7.45e-01	0	34	104	0	78	10506
2026-01-16 21:33:45.57	85.74	43.37	-46.4	-62.8	3.8	7.44e-01	0	34	104	0	65	22324
2026-01-16 21:33:46.58	86.57	43.48	-43.3	-59.7	4.1	7.46e-01	0	34	104	0	59	22203
2026-01-16 21:33:47.59	87.41	43.59	-45.0	-47.1	14.1	6.10e-01	0	34	0	2097152	60	4880
2026-01-16 21:33:48.60	88.26	43.70	-49.2	-52.4	9.1	6.33e-01	0	34	0	16777216	68	5698
2026-01-16 21:33:49.60	89.11	43.80	-38.2	-40.2	19.3	6.08e-01	0	34	0	31457280	48	4441
2026-01-16 21:33:50.61	89.97	43.89	-38.4	-40.4	19.1	6.08e-01	0	34	0	48234496	48	4531
2026-01-16 21:33:51.62	90.83	43.97	-38.0	-40.0	19.3	6.09e-01	0	34	0	62914560	48	4329
2026-01-16 21:33:52.63	91.70	44.05	-38.1	-40.2	19.3	6.08e-01	0	34	0	77594624	48	4432
2026-01-16 21:33:53.64	92.57	44.12	-38.2	-40.3	19.2	6.09e-01	0	34	0	92274688	48	4451
2026-01-16 21:33:54.64	93.44	44.19	-38.1	-40.3	19.2	6.08e-01	0	34	0	111149056	48	4449
2026-01-16 21:33:55.65	94.32	44.25	-38.0	-40.1	19.4	6.08e-01	0	34	0	125829120	48	4380
2026-01-16 21:33:56.67	95.21	44.30	-36.9	-38.8	19.0	6.08e-01	0	34	0	140509184	45	4468
2026-01-16 21:33:57.67	96.09	44.34	-37.0	-39.0	19.0	6.08e-01	0	34	0	157286400	45	4546
2026-01-16 21:33:58.69	96.98	44.38	-37.2	-39.1	18.9	6.08e-01	0	34	0	171966464	45	4621
2026-01-16 21:33:59.69	97.86	44.41	-37.1	-38.9	19.0	6.09e-01	0	34	0	186646528	45	4533
2026-01-16 21:34:00.70	98.76	44.43	-37.3	-39.1	18.9	6.08e-01	0	34	0	201326592	45	4628
2026-01-16 21:34:01.71	99.65	44.44	-37.2	-39.1	18.9	6.09e-01	0	34	0	218103808	45	4629
2026-01-16 21:34:02.72	100.54	44.45	-36.9	-38.8	19.1	6.08e-01	0	34	0	232783872	45	4472
2026-01-16 21:34:03.73	101.44	44.45	-36.9	-38.8	19.1	6.09e-01	0	34	0	247463936	45	4482
2026-01-16 21:34:04.74	102.33	44.44	-36.9	-38.8	19.1	6.09e-01	0	34	0	264241152	45	4467
2026-01-16 21:34:05.74	103.21	44.43	-37.0	-38.9	19.0	6.08e-01	0	34	0	281018368	45	4515
2026-01-16 21:34:06.75	104.11	44.40	-37.1	-39.2	18.2	5.98e-01	0	34	0	295698432	45	4703
2026-01-16 21:34:07.76	105.00	44.37	-37.1	-39.1	19.0	5.83e-01	0	34	0	310378496	45	4617
2026-01-16 21:34:08.77	105.88	44.34	-37.1	-39.2	19.0	5.80e-01	0	34	0	327155712	45	4668
2026-01-16 21:34:09.78	106.77	44.29	-37.0	-39.0	19.1	5.81e-01	0	34	0	341835776	45	4597
2026-01-16 21:34:10.78	107.64	44.24	-37.0	-38.9	19.2	5.81e-01	0	34	0	356515840	45	4529
2026-01-16 21:34:11.79	108.52	44.18	-37.0	-39.1	19.1	5.81e-01	0	34	0	373293056	45	4608
2026-01-16 21:34:12.80	109.40	44.12	-37.1	-39.1	19.1	5.79e-01	0	34	0	387973120	45	4650
2026-01-16 21:34:13.81	110.27	44.05	-37.2	-39.2	18.9	5.81e-01	0	34	0	402653184	45	4700
2026-01-16 21:34:14.82	111.14	43.97	-37.1	-39.1	19.1	5.80e-01	0	34	0	419430400	45	4622
2026-01-16 21:34:15.83	112.01	43.88	-37.2	-39.2	19.0	5.79e-01	0	34	0	434110464	45	4691
2026-01-16 21:34:16.83	112.86	43.79	-37.0	-38.9	19.2	5.85e-01	0	34	0	448790528	45	4540
2026-01-16 21:34:17.84	113.71	43.69	-37.1	-39.2	19.1	5.81e-01	0	34	0	465567744	45	4656
2026-01-16 21:34:18.85	114.56	43.58	-37.1	-39.2	19.0	5.80e-01	0	34	0	482344960	45	4684
2026-01-16 21:34:19.86	115.40	43.47	-37.2	-39.2	19.0	5.83e-01	0	34	0	497025024	45	4697
2026-01-16 21:34:20.86	116.23	43.36	-37.3	-39.4	18.8	5.81e-01	0	34	0	511705088	45	4763
2026-01-16 21:34:21.87	117.06	43.23	-37.4	-39.6	18.8	5.81e-01	0	34	0	528482304	45	4891
2026-01-16 21:34:22.88	117.88	43.10	-37.4	-39.5	18.8	5.78e-01	0	34	0	543162368	45	4833
2026-01-16 21:34:23.89	118.70	42.97	-37.3	-39.4	18.9	5.81e-01	0	34	0	557842432	45	4762
2026-01-16 21:34:24.90	119.51	42.83	-37.2	-39.2	19.0	5.78e-01	0	34	0	574619648	45	4657
2026-01-16 21:34:25.90	120.30	42.68	-37.1	-39.0	19.0	5.81e-01	0	34	0	589299712	45	4591
2026-01-16 21:34:26.91	121.10	42.53	-37.1	-38.9	19.2	5.82e-01	0	34	0	603979776	45	4532
2026-01-16 21:34:27.92	121.88	42.37	-37.1	-39.0	19.1	5.79e-01	0	34	0	620756992	45	4595
2026-01-16 21:34:28.93	122.66	42.21	-37.0	-39.1	19.1	5.79e-01	0	34	0	635437056	45	4621
2026-01-16 21:34:29.94	123.43	42.05	-37.1	-39.1	19.0	5.79e-01	0	34	0	650117120	45	4650
2026-01-16 21:34:30.95	124.19	41.88	-37.2	-39.3	18.9	5.80e-01	0	34	0	666894336	45	4722
2026-01-16 21:34:31.96	124.95	41.70	-37.3	-39.3	18.8	5.80e-01	0	34	0	683671552	45	4758
2026-01-16 21:34:32.96	125.69	41.52	-37.4	-39.4	18.8	5.80e-01	0	34	0	698351616	45	4785
2026-01-16 21:34:33.97	126.42	41.34	-37.4	-39.4	18.8	5.81e-01	0	34	0	713031680	45	4803
2026-01-16 21:34:34.98	127.15	41.15	-37.5	-39.6	18.8	5.80e-01	0	34	0	729808896	45	4886
2026-01-16 21:34:35.99	127.87	40.96	-37.5	-39.6	18.8	6.01e-01	0	34	0	744488960	45	4875
2026-01-16 21:34:37.00	128.58	40.77	-37.6	-39.7	18.6	5.99e-01	0	34	0	759169024	45	4970
2026-01-16 21:34:38.00	129.27	40.57	-37.7	-39.8	18.5	5.99e-01	0	34	0	775946240	46	4748
2026-01-16 21:34:39.01	129.97	40.37	-37.7	-39.8	18.6	5.99e-01	0	34	0	790626304	46	4718
2026-01-16 21:34:40.02	130.65	40.16	-37.6	-39.7	18.6	5.97e-01	0	34	0	805306368	46	4660
2026-01-16 21:34:41.02	131.32	39.96	-37.8	-39.9	18.5	6.03e-01	0	34	0	822083584	46	4767
2026-01-16 21:34:42.03	131.98	39.75	-37.8	-39.8	18.5	5.99e-01	0	34	0	836763648	46	4755
2026-01-16 21:34:43.04	132.64	39.54	-37.9	-39.8	18.5	6.04e-01	0	34	0	851443712	46	4751
2026-01-16 21:34:44.05	133.29	39.32	-38.0	-39.9	18.4	5.99e-01	0	34	0	868220928	46	4813
2026-01-16 21:34:45.06	133.93	39.10	-38.2	-40.1	18.3	6.00e-01	0	34	0	884998144	46	4897
2026-01-16 21:34:46.06	134.55	38.89	-38.4	-40.3	18.2	6.01e-01	0	34	0	899678208	47	4737
2026-01-16 21:34:47.07	135.17	38.66	-38.4	-40.4	18.1	5.99e-01	0	34	0	914358272	47	4801
2026-01-16 21:34:48.08	135.79	38.44	-38.4	-40.4	18.2	5.99e-01	0	34	0	931135488	47	4786
2026-01-16 21:34:49.09	136.39	38.22	-38.6	-40.6	18.1	6.02e-01	0	34	0	945815552	47	4884
2026-01-16 21:34:50.10	136.99	37.99	-38.5	-40.5	18.1	6.01e-01	0	34	0	960495616	47	4835
2026-01-16 21:34:51.11	137.57	37.76	-38.6	-40.6	18.1	6.02e-01	0	34	0	977272832	47	4880
2026-01-16 21:34:52.11	138.14	37.53	-38.6	-40.5	18.0	6.02e-01	0	34	0	991952896	47	4861
2026-01-16 21:34:53.12	138.71	37.30	-38.7	-40.7	18.0	6.00e-01	0	34	0	1006632960	47	4933
2026-01-16 21:34:54.13	139.28	37.07	-39.7	-41.7	18.4	6.04e-01	0	34	0	1023410176	50	4687
2026-01-16 21:34:55.14	139.83	36.84	-39.7	-41.7	18.4	5.99e-01	0	34	0	1038090240	50	4672
2026-01-16 21:34:56.14	140.37	36.61	-39.8	-41.8	18.4	6.05e-01	0	34	0	1054867456	50	4725
2026-01-16 21:34:57.15	140.91	36.37	-39.8	-41.7	18.4	6.02e-01	0	34	0	1069547520	50	4701
2026-01-16 21:34:58.16	141.43	36.14	-39.9	-41.8	18.3	6.00e-01	0	34	0	1086324736	50	4726
2026-01-16 21:34:59.17	141.96	35.90	-40.1	-42.0	18.2	6.01e-01	0	34	0	1101004800	50	4866
2026-01-16 21:35:00.18	142.47	35.66	-40.3	-42.3	18.1	5.98e-01	0	34	0	1115684864	51	4712
2026-01-16 21:35:01.19	142.97	35.43	-40.3	-42.2	18.1	5.99e-01	0	34	0	1132462080	51	4678
2026-01-16 21:35:02.19	143.47	35.19	-40.3	-42.3	18.0	6.01e-01	0	34	0	1147142144	51	4707
2026-01-16 21:35:03.20	143.96	34.96	-40.5	-42.4	18.0	6.00e-01	0	34	0	1161822208	51	4782
2026-01-16 21:35:04.21	144.44	34.72	-40.6	-42.4	17.9	6.00e-01	0	34	0	1178599424	51	4808
2026-01-16 21:35:05.22	144.92	34.48	-40.5	-42.4	18.0	6.00e-01	0	34	0	1193279488	51	4766
2026-01-16 21:35:06.22	145.38	34.25	-40.7	-42.5	17.9	6.01e-01	0	34	0	1207959552	51	4821
2026-01-16 21:35:07.23	145.84	34.01	-40.7	-42.5	17.9	5.99e-01	0	34	0	1224736768	52	4547
2026-01-16 21:35:08.24	146.29	33.77	-40.8	-42.6	17.8	6.01e-01	0	34	0	1239416832	52	4603
2026-01-16 21:35:09.25	146.74	33.54	-40.6	-42.5	17.8	6.01e-01	0	34	0	1256194048	52	4563
2026-01-16 21:35:10.26	147.18	33.30	-40.7	-42.6	17.7	6.05e-01	0	34	0	1270874112	52	4637
2026-01-16 21:35:11.26	147.61	33.07	-40.8	-42.8	17.6	6.02e-01	0	34	0	1287651328	52	4734
2026-01-16 21:35:12.27	148.04	32.83	-40.9	-43.0	17.5	6.04e-01	0	34	0	1302331392	52	4828
2026-01-16 21:35:13.28	148.46	32.60	-41.0	-43.0	17.4	6.01e-01	0	34	0	1317011456	52	4869
2026-01-16 21:35:14.29	148.87	32.37	-41.1	-43.2	17.3	6.02e-01	0	34	0	1333788672	52	4932
2026-01-16 21:35:15.30	149.28	32.13	-41.2	-43.2	17.3	6.03e-01	0	34	0	1348468736	52	4957
2026-01-16 21:35:16.31	149.68	31.90	-41.3	-43.2	17.2	6.04e-01	0	34	0	1363148800	53	4701
2026-01-16 21:35:17.31	150.08	31.67	-41.1	-43.1	17.4	6.01e-01	0	34	0	1379926016	53	4611
2026-01-16 21:35:18.32	150.47	31.44	-41.2	-43.2	17.3	6.00e-01	0	34	0	1394606080	53	4655
2026-01-16 21:35:19.33	150.85	31.21	-41.2	-43.2	17.3	6.01e-01	0	34	0	1409286144	53	4665
2026-01-16 21:35:20.34	151.23	30.98	-41.0	-42.9	17.4	6.05e-01	0	34	0	1426063360	53	4537
2026-01-16 21:35:21.35	151.60	30.75	-41.0	-43.0	17.4	6.01e-01	0	34	0	1442840576	53	4569
2026-01-16 21:35:22.37	151.97	30.52	-40.9	-42.8	17.6	6.01e-01	0	34	0	1457520640	53	4454
2026-01-16 21:35:23.37	152.33	30.30	-40.7	-42.6	17.7	6.03e-01	0	34	0	1472200704	53	4367
2026-01-16 21:35:24.38	152.69	30.07	-40.8	-42.6	17.7	6.02e-01	0	34	0	1488977920	53	4377
2026-01-16 21:35:25.39	153.04	29.85	-40.8	-42.7	17.7	6.04e-01	0	34	0	1503657984	53	4392
2026-01-16 21:35:26.40	153.38	29.62	-40.8	-42.7	17.7	6.04e-01	0	34	0	1518338048	53	4395
2026-01-16 21:35:27.41	153.72	29.40	-40.8	-42.7	17.6	6.03e-01	0	34	0	1533018112	53	4409
2026-01-16 21:35:28.42	154.06	29.18	-40.9	-42.7	17.6	6.06e-01	0	34	0	1549795328	53	4433
2026-01-16 21:35:29.42	154.39	28.96	-40.9	-42.7	17.6	6.02e-01	0	34	0	1564475392	53	4437
2026-01-16 21:35:30.44	154.72	28.74	-41.0	-42.8	17.5	6.02e-01	0	34	0	1579155456	53	4457
2026-01-16 21:35:31.44	155.04	28.52	-40.9	-42.7	17.6	6.03e-01	0	34	0	1598029824	53	4416
2026-01-16 21:35:32.45	155.35	28.30	-40.8	-42.7	17.6	6.04e-01	0	34	0	1612709888	53	4394
2026-01-16 21:35:33.46	155.66	28.09	-40.8	-42.7	17.6	6.04e-01	0	34	0	1627389952	53	4393
2026-01-16 21:35:34.47	155.97	27.87	-40.8	-42.7	17.6	6.05e-01	0	34	0	1642070016	53	4433
2026-01-16 21:35:35.48	156.28	27.66	-40.8	-42.7	17.5	6.02e-01	0	34	0	1658847232	53	4433
2026-01-16 21:35:36.49	156.57	27.45	-40.9	-42.9	17.4	6.03e-01	0	34	0	1673527296	53	4512
2026-01-16 21:35:37.50	156.87	27.24	-40.8	-42.8	17.5	6.02e-01	0	34	0	1688207360	53	4488
2026-01-16 21:35:38.50	157.16	27.03	-40.8	-42.8	17.5	6.04e-01	0	34	0	1704984576	53	4493
2026-01-16 21:35:39.51	157.44	26.82	-40.8	-42.8	17.5	6.04e-01	0	34	0	1719664640	53	4474
2026-01-16 21:35:40.52	157.73	26.61	-40.8	-42.8	17.5	6.02e-01	0	34	0	1734344704	53	4471
2026-01-16 21:35:41.53	158.01	26.41	-40.7	-42.7	17.6	6.05e-01	0	34	0	1751121920	53	4398
2026-01-16 21:35:42.54	158.28	26.20	-40.7	-42.7	17.6	6.02e-01	0	34	0	1765801984	53	4419
2026-01-16 21:35:43.55	158.55	26.00	-40.7	-42.7	17.6	6.03e-01	0	34	0	1782579200	53	4396
2026-01-16 21:35:44.56	158.82	25.80	-40.7	-42.6	17.6	6.02e-01	0	34	0	1797259264	53	4365
2026-01-16 21:35:45.56	159.08	25.60	-40.6	-42.6	17.7	6.04e-01	0	34	0	1814036480	53	4341
2026-01-16 21:35:46.57	159.34	25.40	-40.6	-42.6	17.6	6.05e-01	0	34	0	1828716544	53	4380
2026-01-16 21:35:47.58	159.59	25.20	-40.7	-42.6	17.6	6.04e-01	0	34	0	1843396608	53	4382
2026-01-16 21:35:48.59	159.85	25.00	-40.7	-42.6	17.6	6.05e-01	0	34	0	1860173824	53	4383
2026-01-16 21:35:49.60	160.10	24.80	-40.6	-42.6	17.6	6.03e-01	0	34	0	1874853888	53	4377
2026-01-16 21:35:50.61	160.34	24.61	-40.7	-42.7	17.6	6.02e-01	0	34	0	1889533952	53	4394
2026-01-16 21:35:51.62	160.59	24.42	-40.8	-42.7	17.5	6.05e-01	0	34	0	1906311168	53	4437
2026-01-16 21:35:52.63	160.83	24.22	-40.9	-42.9	17.4	6.05e-01	0	34	0	1920991232	53	4498
2026-01-16 21:35:53.64	161.06	24.03	-40.7	-42.7	17.6	6.05e-01	0	34	0	1935671296	53	4392
2026-01-16 21:35:54.64	161.29	23.84	-40.7	-42.6	17.6	6.05e-01	0	34	0	1952448512	53	4388
2026-01-16 21:35:55.65	161.52	23.66	-40.8	-42.7	17.5	6.03e-01	0	34	0	1969225728	53	4407
2026-01-16 21:35:56.66	161.75	23.47	-40.8	-42.7	17.6	6.01e-01	0	34	0	1983905792	53	4414
2026-01-16 21:35:57.67	161.98	23.28	-40.7	-42.6	17.6	6.03e-01	0	34	0	1998585856	53	4374
2026-01-16 21:35:58.68	162.20	23.10	-40.8	-42.7	17.6	6.04e-01	0	34	0	2015363072	53	4398
2026-01-16 21:35:59.69	162.42	22.92	-40.6	-42.6	17.6	6.02e-01	0	34	0	2030043136	53	4349
2026-01-16 21:36:00.70	162.63	22.73	-40.7	-42.7	17.5	6.03e-01	0	34	0	2044723200	53	4396
2026-01-16 21:36:01.71	162.84	22.55	-40.7	-42.6	17.6	6.01e-01	0	34	0	2061500416	53	4379
2026-01-16 21:36:02.72	163.05	22.37	-40.8	-42.7	17.5	6.04e-01	0	34	0	2076180480	53	4433
2026-01-16 21:36:03.72	163.26	22.20	-40.7	-42.7	17.5	6.04e-01	0	34	0	2090860544	53	4408
2026-01-16 21:36:04.73	163.47	22.02	-40.7	-42.7	17.5	6.04e-01	0	34	0	2107637760	53	4418
2026-01-16 21:36:05.74	163.67	21.84	-40.9	-42.8	17.4	6.05e-01	0	34	0	2122317824	53	4482
2026-01-16 21:36:06.75	163.87	21.67	-40.9	-42.8	17.4	6.05e-01	0	34	0	2139095040	53	4475
2026-01-16 21:36:07.76	164.07	21.49	-40.9	-42.9	17.3	6.07e-01	0	34	0	2153775104	53	4497
2026-01-16 21:36:08.76	164.26	21.32	-40.9	-42.8	17.4	6.02e-01	0	34	0	2170552320	53	4480
2026-01-16 21:36:09.77	164.45	21.15	-40.9	-42.8	17.4	6.02e-01	0	34	0	2185232384	53	4464
2026-01-16 21:36:10.78	164.64	20.98	-40.9	-42.8	17.3	6.02e-01	0	34	0	2199912448	53	4477
2026-01-16 21:36:11.79	164.83	20.81	-41.1	-43.0	17.3	6.04e-01	0	34	0	2216689664	53	4549
2026-01-16 21:36:12.80	165.02	20.64	-40.9	-42.8	17.3	6.03e-01	0	34	0	2231369728	53	4492
2026-01-16 21:36:13.80	165.20	20.48	-40.9	-42.8	17.3	6.04e-01	0	34	0	2246049792	53	4477
2026-01-16 21:36:14.81	165.38	20.31	-41.1	-43.0	17.2	6.02e-01	0	34	0	2262827008	53	4556
2026-01-16 21:36:15.82	165.56	20.15	-41.0	-42.9	17.3	6.04e-01	0	34	0	2277507072	53	4525
2026-01-16 21:36:16.83	165.74	19.98	-41.1	-43.0	17.2	6.05e-01	0	34	0	2292187136	53	4593
2026-01-16 21:36:17.84	165.91	19.82	-41.1	-43.0	17.2	6.01e-01	0	34	0	2308964352	53	4572
2026-01-16 21:36:18.85	166.08	19.66	-41.1	-43.1	17.2	6.01e-01	0	34	0	2325741568	53	4613
2026-01-16 21:36:19.85	166.25	19.50	-41.1	-43.1	17.1	6.04e-01	0	34	0	2340421632	53	4622
2026-01-16 21:36:20.86	166.42	19.34	-41.2	-43.2	17.0	6.05e-01	0	34	0	2355101696	53	4690
2026-01-16 21:36:21.87	166.59	19.18	-41.2	-43.3	17.0	6.03e-01	0	34	0	2371878912	53	4710
2026-01-16 21:36:22.88	166.75	19.03	-41.3	-43.3	16.9	6.02e-01	0	34	0	2386558976	53	4757
2026-01-16 21:36:23.89	166.92	18.87	-41.4	-43.5	16.9	6.02e-01	0	34	0	2401239040	53	4818
2026-01-16 21:36:24.90	167.08	18.72	-41.4	-43.5	16.8	6.04e-01	0	34	0	2418016256	53	4850
2026-01-16 21:36:25.91	167.24	18.56	-41.4	-43.6	16.7	6.02e-01	0	34	0	2432696320	53	4889
2026-01-16 21:36:26.92	167.40	18.41	-41.5	-43.7	16.6	6.03e-01	0	34	0	2447376384	53	4947
2026-01-16 21:36:27.92	167.55	18.26	-41.5	-43.7	16.7	6.04e-01	0	34	0	2464153600	53	4936
2026-01-16 21:36:28.93	167.70	18.11	-41.6	-43.7	16.6	6.04e-01	0	34	0	2478833664	53	4972
2026-01-16 21:36:29.94	167.86	17.96	-41.6	-43.8	16.6	6.04e-01	0	34	0	2493513728	53	5000
2026-01-16 21:36:30.95	168.01	17.81	-41.7	-43.8	16.5	6.03e-01	0	34	0	2510290944	53	5035
2026-01-16 21:36:31.96	168.16	17.66	-41.7	-43.9	16.5	5.99e-01	0	34	0	2527068160	54	4782
2026-01-16 21:36:32.96	168.30	17.52	-41.8	-43.9	16.4	6.04e-01	0	34	0	2541748224	54	4801
2026-01-16 21:36:33.97	168.45	17.37	-41.8	-43.9	16.5	6.02e-01	0	34	0	2556428288	54	4765
2026-01-16 21:36:34.98	168.59	17.23	-41.9	-44.0	16.4	6.02e-01	0	34	0	2573205504	54	4855
2026-01-16 21:36:35.99	168.74	17.08	-41.9	-44.0	16.4	6.01e-01	0	34	0	2587885568	54	4853
2026-01-16 21:36:37.00	168.88	16.94	-42.1	-44.2	16.2	6.01e-01	0	34	0	2602565632	54	4952
2026-01-16 21:36:38.01	169.02	16.80	-42.1	-44.2	16.3	6.05e-01	0	34	0	2619342848	54	4931
2026-01-16 21:36:39.02	169.16	16.66	-42.0	-44.1	16.3	6.02e-01	0	34	0	2634022912	54	4911
2026-01-16 21:36:40.02	169.29	16.52	-42.1	-44.2	16.2	6.02e-01	0	34	0	2648702976	54	4966
2026-01-16 21:36:41.03	169.43	16.38	-42.2	-44.3	16.2	6.02e-01	0	34	0	2665480192	55	4721
2026-01-16 21:36:42.04	169.56	16.24	-42.2	-44.3	16.2	6.03e-01	0	34	0	2680160256	55	4734
2026-01-16 21:36:43.05	169.69	16.10	-42.2	-44.4	16.1	6.00e-01	0	34	0	2696937472	55	4760
2026-01-16 21:36:44.06	169.82	15.97	-42.3	-44.4	16.1	6.03e-01	0	34	0	2711617536	55	4783
2026-01-16 21:36:45.07	169.95	15.83	-42.2	-44.4	16.1	6.03e-01	0	34	0	2728394752	55	4765
2026-01-16 21:36:46.08	170.08	15.69	-42.3	-44.5	16.0	6.03e-01	0	34	0	2743074816	55	4839
2026-01-16 21:36:47.08	170.21	15.56	-42.4	-44.6	15.9	6.02e-01	0	34	0	2757754880	55	4893
2026-01-16 21:36:48.09	170.33	15.43	-42.5	-44.7	15.8	6.04e-01	0	34	0	2774532096	55	4957
2026-01-16 21:36:49.10	170.46	15.30	-42.5	-44.8	15.7	6.03e-01	0	34	0	2789212160	55	4992
2026-01-16 21:36:50.11	170.58	15.16	-42.6	-44.9	15.6	6.05e-01	0	34	0	2803892224	55	5065
2026-01-16 21:36:51.12	170.71	15.03	-42.6	-44.8	15.7	6.03e-01	0	34	0	2820669440	55	5035
2026-01-16 21:36:52.12	170.83	14.91	-42.7	-44.9	15.6	6.03e-01	0	34	0	2835349504	55	5078
2026-01-16 21:36:53.13	170.94	14.78	-42.6	-44.9	15.5	6.03e-01	0	34	0	2850029568	56	4772
2026-01-16 21:36:54.14	171.06	14.65	-42.6	-44.9	15.5	6.02e-01	0	34	0	2864709632	56	4765
2026-01-16 21:36:55.15	171.18	14.52	-42.7	-44.9	15.5	6.05e-01	0	34	0	2883584000	56	4784
2026-01-16 21:36:56.16	171.30	14.39	-42.7	-44.9	15.4	6.03e-01	0	34	0	2898264064	56	4806
2026-01-16 21:36:57.16	171.41	14.27	-42.7	-45.0	15.4	6.02e-01	0	34	0	2912944128	56	4828
2026-01-16 21:36:58.17	171.53	14.14	-42.7	-45.0	15.3	6.03e-01	0	34	0	2929721344	56	4837
2026-01-16 21:36:59.18	171.64	14.02	-42.9	-45.1	15.2	6.04e-01	0	34	0	2944401408	56	4905
2026-01-16 21:37:00.19	171.75	13.89	-42.8	-45.1	15.3	6.03e-01	0	34	0	2959081472	56	4894
2026-01-16 21:37:01.20	171.86	13.77	-42.8	-45.0	15.3	6.03e-01	0	34	0	2973761536	56	4846
2026-01-16 21:37:02.20	171.97	13.65	-43.0	-45.2	15.1	6.01e-01	0	34	0	2990538752	56	4962
2026-01-16 21:37:03.21	172.08	13.53	-42.8	-45.0	15.3	6.02e-01	0	34	0	3005218816	56	4861
2026-01-16 21:37:04.22	172.19	13.41	-42.9	-45.2	15.2	6.03e-01	0	34	0	3019898880	56	4938
2026-01-16 21:37:05.23	172.29	13.29	-42.8	-45.0	15.3	6.04e-01	0	34	0	3036676096	56	4845
2026-01-16 21:37:06.24	172.40	13.17	-42.8	-45.0	15.3	6.02e-01	0	34	0	3051356160	56	4827
2026-01-16 21:37:07.24	172.50	13.05	-42.9	-45.1	15.2	6.04e-01	0	34	0	3068133376	56	4899
2026-01-16 21:37:08.25	172.61	12.93	-42.9	-45.1	15.2	6.03e-01	0	34	0	3082813440	56	4901
2026-01-16 21:37:09.26	172.71	12.82	-43.1	-45.3	15.0	6.03e-01	0	34	0	3099590656	56	5004
2026-01-16 21:37:10.27	172.81	12.70	-43.0	-45.2	15.1	6.03e-01	0	34	0	3114270720	56	4955
2026-01-16 21:37:11.27	172.91	12.58	-43.2	-45.4	14.9	6.02e-01	0	34	0	3128950784	56	5079
2026-01-16 21:37:12.28	173.01	12.47	-43.1	-45.3	15.0	6.04e-01	0	34	0	3145728000	56	5019
2026-01-16 21:37:13.29	173.11	12.35	-43.2	-45.3	15.0	6.06e-01	0	34	0	3160408064	57	4743
2026-01-16 21:37:14.30	173.21	12.24	-43.4	-45.6	14.8	6.02e-01	0	34	0	3175088128	57	4898
2026-01-16 21:37:15.31	173.31	12.13	-43.4	-45.6	14.8	6.01e-01	0	34	0	3191865344	57	4872
2026-01-16 21:37:16.32	173.40	12.01	-43.3	-45.4	14.9	6.06e-01	0	34	0	3206545408	57	4805
2026-01-16 21:37:17.33	173.50	11.90	-43.4	-45.5	14.8	6.01e-01	0	34	0	3221225472	57	4849
2026-01-16 21:37:18.33	173.59	11.79	-43.3	-45.5	14.8	6.03e-01	0	34	0	3238002688	57	4846
2026-01-16 21:37:19.34	173.69	11.68	-43.6	-45.8	14.6	6.05e-01	0	34	0	3252682752	57	5001
2026-01-16 21:37:20.35	173.78	11.57	-43.7	-46.0	14.5	5.80e-01	0	34	0	3269459968	58	4840
2026-01-16 21:37:21.36	173.87	11.46	-43.7	-45.9	14.6	5.81e-01	0	34	0	3284140032	58	4785
2026-01-16 21:37:22.36	173.96	11.35	-43.8	-46.0	14.5	5.80e-01	0	34	0	3300917248	58	4848
2026-01-16 21:37:23.37	174.05	11.24	-43.8	-46.1	14.4	5.78e-01	0	34	0	3315597312	58	4892
2026-01-16 21:37:24.38	174.14	11.13	-43.7	-46.0	14.5	5.82e-01	0	34	0	3330277376	58	4830
2026-01-16 21:37:25.39	174.23	11.03	-43.9	-46.2	14.3	5.78e-01	0	34	0	3347054592	58	4957
2026-01-16 21:37:26.40	174.32	10.92	-43.8	-46.0	14.4	5.80e-01	0	34	0	3361734656	58	4868
2026-01-16 21:37:27.40	174.41	10.81	-43.8	-46.0	14.4	5.82e-01	0	34	0	3376414720	58	4855
2026-01-16 21:37:28.41	174.49	10.71	-43.8	-46.1	14.4	5.80e-01	0	34	0	3393191936	58	4880
2026-01-16 21:37:29.42	174.58	10.60	-44.0	-46.3	14.2	5.81e-01	0	34	0	3407872000	58	5027
2026-01-16 21:37:30.43	174.67	10.50	-44.1	-46.4	14.1	5.80e-01	0	34	0	3422552064	58	5054
2026-01-16 21:37:31.44	174.75	10.40	-44.1	-46.4	14.1	5.84e-01	0	34	0	3439329280	58	5045
2026-01-16 21:37:32.45	174.84	10.29	-45.1	-46.2	14.3	5.79e-01	0	34	0	3456106496	60	4427
2026-01-16 21:37:33.46	174.92	10.19	-45.3	-46.4	14.1	5.80e-01	0	34	0	3470786560	61	4265
2026-01-16 21:37:34.47	175.00	10.09	-53.0	-61.9	3.8	7.45e-01	0	34	104	3474980864	76	10721
2026-01-16 21:37:35.48	175.08	9.98	-53.0	-61.9	3.8	7.44e-01	0	34	104	3474980864	76	10678
2026-01-16 21:37:36.48	175.16	9.88	-53.0	-61.9	3.8	7.44e-01	0	34	104	3474980864	76	10660
2026-01-16 21:37:37.49	175.25	9.78	-53.0	-61.8	3.8	7.46e-01	0	34	104	3474980864	76	10627
2026-01-16 21:37:38.50	175.33	9.68	-52.9	-61.8	3.8	7.45e-01	0	34	104	3474980864	76	10559
2026-01-16 21:37:39.51	175.40	9.58	-53.0	-61.8	3.8	7.44e-01	0	34	104	3474980864	76	10586
2026-01-16 21:37:40.52	175.48	9.48	-52.9	-61.8	3.8	7.44e-01	0	34	104	3474980864	76	10565
2026-01-16 21:37:41.53	175.56	9.38	-52.9	-61.7	3.8	7.45e-01	0	34	104	3474980864	76	10513
2026-01-16 21:37:42.54	175.64	9.29	-52.9	-61.7	3.8	7.47e-01	0	34	104	3474980864	76	10521
2026-01-16 21:37:43.54	175.72	9.19	-52.9	-61.7	3.8	7.45e-01	0	34	104	3474980864	76	10501
2026-01-16 21:37:44.55	175.79	9.09	-52.9	-61.7	3.8	7.45e-01	0	34	104	3474980864	76	10449
2026-01-16 21:37:45.56	175.87	8.99	-52.9	-61.7	3.8	7.45e-01	0	34	104	3474980864	76	10500
2026-01-16 21:37:46.57	175.94	8.90	-52.9	-61.7	3.8	7.45e-01	0	34	104	3474980864	76	10457
2026-01-16 21:37:47.58	176.02	8.80	-52.9	-61.7	3.8	7.46e-01	0	34	104	3474980864	76	10485
2026-01-16 21:37:48.59	176.09	8.71	-52.8	-61.7	3.8	7.45e-01	0	34	104	3474980864	76	10441
2026-01-16 21:37:49.60	176.17	8.61	-52.9	-61.7	3.8	7.46e-01	0	34	104	3474980864	76	10486
2026-01-16 21:37:50.61	176.24	8.52	-52.8	-61.7	3.8	7.45e-01	0	34	104	3474980864	76	10417
2026-01-16 21:37:51.61	176.31	8.42	-52.9	-61.7	3.8	7.46e-01	0	34	104	3474980864	76	10472
2026-01-16 21:37:52.62	176.38	8.33	-52.8	-61.6	3.8	7.44e-01	0	34	104	3474980864	76	10368
2026-01-16 21:37:53.63	176.45	8.24	-52.8	-61.7	3.8	7.45e-01	0	34	104	3474980864	76	10459
2026-01-16 21:37:54.64	176.52	8.14	-52.8	-61.6	3.8	7.44e-01	0	34	104	3474980864	76	10376
2026-01-16 21:37:55.64	176.59	8.05	-52.8	-61.7	3.8	7.45e-01	0	34	104	3474980864	76	10423
2026-01-16 21:37:56.65	176.66	7.96	-52.7	-61.6	3.8	7.45e-01	0	34	104	3474980864	76	10310
2026-01-16 21:37:57.66	176.73	7.87	-52.8	-61.6	3.8	7.46e-01	0	34	104	3474980864	76	10370
2026-01-16 21:37:58.67	176.80	7.78	-52.7	-61.5	3.8	7.44e-01	0	34	104	3474980864	76	10270
2026-01-16 21:37:59.68	176.87	7.69	-52.8	-61.6	3.8	7.46e-01	0	34	104	3474980864	76	10351
2026-01-16 21:38:00.69	176.94	7.59	-52.7	-61.5	3.8	7.46e-01	0	34	104	3474980864	76	10233
2026-01-16 21:38:01.70	177.00	7.50	-52.7	-61.6	3.8	7.45e-01	0	34	104	3474980864	76	10357
2026-01-16 21:38:02.71	177.07	7.42	-52.7	-61.5	3.8	7.46e-01	0	34	104	3474980864	76	10231
2026-01-16 21:38:03.71	177.14	7.33	-52.7	-61.5	3.8	7.45e-01	0	34	104	3474980864	76	10273
2026-01-16 21:38:04.72	177.20	7.24	-52.6	-61.5	3.8	7.45e-01	0	34	104	3474980864	76	10208
2026-01-16 21:38:05.73	177.27	7.15	-52.7	-61.5	3.8	7.47e-01	0	34	104	3474980864	76	10258
2026-01-16 21:38:06.74	177.33	7.06	-52.6	-61.4	3.8	7.44e-01	0	34	104	3474980864	76	10172
2026-01-16 21:38:07.75	177.40	6.97	-52.7	-61.5	3.8	7.45e-01	0	34	104	3474980864	76	10237
2026-01-16 21:38:08.76	177.46	6.89	-52.6	-61.4	3.8	7.46e-01	0	34	104	3474980864	76	10104
2026-01-16 21:38:09.76	177.52	6.80	-52.7	-61.5	3.8	7.45e-01	0	34	104	3474980864	76	10263
2026-01-16 21:38:10.77	177.59	6.71	-52.5	-61.4	3.8	7.46e-01	0	34	104	3474980864	76	10076
2026-01-16 21:38:11.78	177.65	6.63	-52.6	-61.5	3.8	7.44e-01	0	34	104	3474980864	76	10232
2026-01-16 21:38:12.79	177.71	6.54	-52.5	-61.3	3.8	7.46e-01	0	35	104	3474980864	76	10039
2026-01-16 21:38:13.79	177.77	6.46	-52.6	-61.5	3.8	7.45e-01	0	34	104	3474980864	76	10177
2026-01-16 21:38:14.80	177.83	6.37	-52.5	-61.3	3.8	7.46e-01	0	34	104	3474980864	76	10022
2026-01-16 21:38:15.81	177.89	6.29	-52.6	-61.4	3.8	7.48e-01	0	34	104	3474980864	76	10093
2026-01-16 21:38:16.82	177.95	6.20	-52.5	-61.3	3.8	7.44e-01	0	34	104	3474980864	76	9985
2026-01-16 21:38:17.83	178.01	6.12	-52.5	-61.4	3.8	7.44e-01	0	34	104	3474980864	76	10111
2026-01-16 21:38:18.84	178.07	6.03	-52.4	-61.3	3.8	7.44e-01	0	34	104	3474980864	76	9963
2026-01-16 21:38:19.84	178.13	5.95	-52.5	-61.4	3.8	7.46e-01	0	34	104	3474980864	76	10083
2026-01-16 21:38:20.85	178.19	5.87	-52.4	-61.2	3.8	7.45e-01	0	35	104	3474980864	76	9936
2026-01-16 21:38:21.86	178.25	5.79	-52.5	-61.3	3.8	7.44e-01	0	34	104	3474980864	76	10027
2026-01-16 21:38:22.87	178.31	5.70	-52.4	-61.2	3.8	7.45e-01	0	34	104	3474980864	76	9895
2026-01-16 21:38:23.88	178.37	5.62	-52.5	-61.3	3.8	7.47e-01	0	34	104	3474980864	76	10025
2026-01-16 21:38:24.89	178.42	5.54	-52.4	-61.2	3.8	7.46e-01	0	34	104	3474980864	76	9895
2026-01-16 21:38:25.90	178.48	5.46	-52.5	-61.3	3.8	7.46e-01	0	34	104	3474980864	76	9996
2026-01-16 21:38:26.91	178.54	5.38	-52.4	-61.2	3.8	7.44e-01	0	34	104	3474980864	76	9872
2026-01-16 21:38:27.91	178.59	5.30	-52.4	-61.3	3.8	7.46e-01	0	34	104	3474980864	76	9974
2026-01-16 21:38:28.92	178.65	5.22	-52.3	-61.2	3.8	7.45e-01	0	34	104	3474980864	76	9853
2026-01-16 21:38:29.93	178.70	5.14	-52.4	-61.3	3.8	7.45e-01	0	34	104	3474980864	76	9952
2026-01-16 21:38:30.94	178.76	5.06	-52.3	-61.2	3.8	7.45e-01	0	34	104	3474980864	76	9870
2026-01-16 21:38:31.95	178.81	4.98	-52.5	-61.3	3.8	7.46e-01	0	35	104	3474980864	76	10037
2026-01-16 21:38:32.96	178.87	4.90	-52.9	-61.8	3.8	7.44e-01	0	34	104	3474980864	76	10567
2026-01-16 21:38:33.97	178.92	4.82	-53.3	-62.1	3.8	7.44e-01	0	34	104	3474980864	77	10381
2026-01-16 21:38:34.98	178.97	4.74	-53.5	-62.3	3.8	7.46e-01	0	34	104	3474980864	77	10645
2026-01-16 21:38:35.98	179.03	4.66	-53.7	-62.5	3.8	7.46e-01	0	34	104	3474980864	77	10838
2026-01-16 21:38:36.99	179.08	4.59	-53.8	-62.6	3.8	7.45e-01	0	34	104	3474980864	78	10355
2026-01-16 21:38:38.00	179.13	4.51	-53.8	-62.6	3.8	7.46e-01	0	34	104	3474980864	78	10401
2026-01-16 21:38:39.01	179.19	4.43	-53.9	-62.7	3.8	7.47e-01	0	34	104	3474980864	78	10501
2026-01-16 21:38:40.02	179.24	4.35	-54.0	-62.8	3.8	7.45e-01	0	34	104	3474980864	78	10593
2026-01-16 21:38:41.03	179.29	4.28	-54.0	-62.8	3.8	7.44e-01	0	34	104	3474980864	78	10650
2026-01-16 21:38:42.04	179.34	4.20	-54.1	-62.9	3.8	7.45e-01	0	34	104	3474980864	78	10733
2026-01-16 21:38:43.04	179.39	4.12	-54.1	-63.0	3.8	7.45e-01	0	34	104	3474980864	78	10789
2026-01-16 21:38:44.06	179.44	4.05	-54.1	-63.0	3.8	7.45e-01	0	34	104	3474980864	78	10823
2026-01-16 21:38:45.06	179.49	3.97	-54.2	-63.0	3.8	7.46e-01	0	34	104	3474980864	78	10877
2026-01-16 21:38:46.07	179.54	3.90	-54.2	-63.0	3.8	7.47e-01	0	34	104	3474980864	78	10902
2026-01-16 21:38:47.08	179.59	3.82	-54.2	-63.1	3.8	7.44e-01	0	34	104	3474980864	78	10912
2026-01-16 21:38:48.09	179.64	3.75	-54.2	-63.1	3.8	7.46e-01	0	34	104	3474980864	79	10339
2026-01-16 21:38:49.10	179.69	3.67	-54.3	-63.1	3.8	7.46e-01	0	35	104	3474980864	79	10318
2026-01-16 21:38:50.11	179.74	3.60	-54.3	-63.1	3.8	7.44e-01	0	34	104	3474980864	79	10328
2026-01-16 21:38:51.12	179.79	3.52	-54.3	-63.1	3.8	7.45e-01	0	34	104	3474980864	79	10354
2026-01-16 21:38:52.13	179.84	3.45	-54.2	-63.1	3.8	7.45e-01	0	34	104	3474980864	79	10322
2026-01-16 21:38:53.14	179.88	3.38	-54.2	-63.1	3.8	7.45e-01	0	34	104	3474980864	79	10340
2026-01-16 21:38:54.14	179.93	3.30	-54.3	-63.1	3.8	7.45e-01	0	34	104	3474980864	79	10300
2026-01-16 21:38:55.15	179.98	3.23	-54.2	-63.1	3.8	7.46e-01	0	34	104	3474980864	79	10329
2026-01-16 21:38:56.16	180.03	3.16	-54.2	-63.1	3.8	7.45e-01	0	34	104	3474980864	79	10307
2026-01-16 21:38:57.17	180.07	3.08	-54.2	-63.0	3.8	7.44e-01	0	34	104	3474980864	79	10263
2026-01-16 21:38:58.18	180.12	3.01	-54.2	-63.0	3.8	7.46e-01	0	35	104	3474980864	79	10263
2026-01-16 21:38:59.18	180.17	2.94	-54.2	-63.0	3.8	7.46e-01	0	34	104	3474980864	79	10213
2026-01-16 21:39:00.19	180.21	2.87	-54.1	-63.0	3.8	7.45e-01	0	35	104	3474980864	79	10229
2026-01-16 21:39:01.20	180.26	2.80	-54.1	-63.0	3.8	7.44e-01	0	34	104	3474980864	79	10201
2026-01-16 21:39:02.21	180.30	2.72	-54.1	-63.0	3.8	7.46e-01	0	34	104	3474980864	79	10199
2026-01-16 21:39:03.22	180.35	2.65	-54.1	-63.0	3.8	7.46e-01	0	34	104	3474980864	79	10239
2026-01-16 21:39:04.23	180.39	2.58	-54.1	-63.0	3.8	7.46e-01	0	34	104	3474980864	79	10181
2026-01-16 21:39:05.24	180.44	2.51	-54.1	-62.9	3.8	7.45e-01	0	34	104	3474980864	79	10163
2026-01-16 21:39:06.25	180.48	2.44	-54.1	-62.9	3.8	7.44e-01	0	34	104	3474980864	79	10159
2026-01-16 21:39:07.26	180.53	2.37	-54.1	-63.0	3.8	7.46e-01	0	34	104	3474980864	79	10177
2026-01-16 21:39:08.27	180.57	2.30	-54.1	-63.0	3.8	7.46e-01	0	34	104	3474980864	79	10226
2026-01-16 21:39:09.27	180.62	2.23	-54.1	-63.0	3.8	7.44e-01	0	34	104	3474980864	79	10186
2026-01-16 21:39:10.28	180.66	2.16	-54.1	-62.9	3.8	7.46e-01	0	34	104	3474980864	79	10166
2026-01-16 21:39:11.29	180.70	2.09	-54.1	-63.0	3.8	7.46e-01	0	34	104	3474980864	79	10184
2026-01-16 21:39:12.30	180.74	2.02	-54.1	-63.0	3.8	7.44e-01	0	34	104	3474980864	79	10176
2026-01-16 21:39:13.30	180.79	1.95	-54.1	-62.9	3.8	7.46e-01	0	34	104	3474980864	79	10153
2026-01-16 21:39:14.31	180.83	1.88	-54.1	-62.9	3.8	7.46e-01	0	34	104	3474980864	79	10133

#Closed at: 2026-01-16 21:39:15
#Recorded file [3474 MB]: D:/lorett/data/31041_260117_002851.dat