passes_logs/2026/01/16/R3.2S_Murmansk/R3.2S_Murmansk__20260116_204314_NOAA_21_JPSS-2_rec.log

#Pass ID: 20260116_204314_NOAA 21 (JPSS-2)
#Satellite: NOAA 21 (JPSS-2)
#Configuration: NOAA-21
#almurnet v.1.7.20251203
#Start time: 2026-01-16 20:43:15

#Version: 2.2.20231116
#Station: R3.2S_Murmansk
#Location: 33.079688 lon 68.888172 lat
#TLE: 1 54234U 22150A   26015.92901934  .00000025  00000+0  32700-4 0  9991
#TLE: 2 54234  98.7499 316.8175 0000634 284.8145  75.2961 14.19534841164946

#Time	Az	El	Level	Level2	SNR	BER	BlckErr	Temp	State	Recorded	gain1	gain2
2026-01-16 20:43:15.09	19.21	2.04	-51.2	-64.0	3.8	1.49e+00	0	32	0	0	74	15236
2026-01-16 20:43:16.09	19.33	2.08	-51.2	-63.9	3.8	1.49e+00	0	32	104	0	72	17083
2026-01-16 20:43:17.10	19.44	2.11	-51.2	-63.9	3.8	1.49e+00	0	32	104	0	72	17023
2026-01-16 20:43:18.11	19.55	2.15	-51.2	-63.9	3.8	1.49e+00	0	32	104	0	72	17030
2026-01-16 20:43:19.12	19.66	2.19	-51.2	-63.9	3.8	1.49e+00	0	32	104	0	72	17034
2026-01-16 20:43:20.12	19.78	2.23	-51.2	-63.9	3.8	1.49e+00	0	32	104	0	72	17001
2026-01-16 20:43:21.13	19.89	2.26	-51.2	-63.9	3.8	1.49e+00	0	32	104	0	72	17022
2026-01-16 20:43:22.14	20.01	2.30	-51.2	-63.9	3.8	1.49e+00	0	32	104	0	72	16990
2026-01-16 20:43:23.15	20.12	2.34	-51.2	-63.9	3.8	1.49e+00	0	32	104	0	72	16949
2026-01-16 20:43:24.16	20.24	2.37	-51.2	-63.9	3.8	1.49e+00	0	32	104	0	72	16956
2026-01-16 20:43:25.17	20.35	2.41	-51.2	-63.9	3.8	1.49e+00	0	32	104	0	72	16959
2026-01-16 20:43:26.18	20.47	2.45	-51.2	-63.9	3.8	1.49e+00	0	32	104	0	72	16901
2026-01-16 20:43:27.19	20.58	2.48	-51.2	-63.9	3.8	1.49e+00	0	32	104	0	72	16982
2026-01-16 20:43:28.20	20.70	2.52	-51.2	-63.9	3.8	1.49e+00	0	32	104	0	72	16934
2026-01-16 20:43:29.20	20.81	2.55	-51.2	-63.9	3.8	1.49e+00	0	32	104	0	72	16975
2026-01-16 20:43:30.21	20.93	2.59	-51.2	-63.9	3.8	1.49e+00	0	32	104	0	72	16972
2026-01-16 20:43:31.22	21.05	2.63	-51.1	-63.9	3.8	1.49e+00	0	32	104	0	72	17000
2026-01-16 20:43:32.23	21.16	2.66	-51.2	-63.9	3.8	1.49e+00	0	32	104	0	72	16931
2026-01-16 20:43:33.24	21.28	2.70	-51.2	-63.9	3.8	1.49e+00	0	32	104	0	72	16917
2026-01-16 20:43:34.25	21.40	2.74	-51.1	-63.9	3.8	1.49e+00	0	32	104	0	72	16897
2026-01-16 20:43:35.26	21.51	2.77	-51.2	-63.9	3.8	1.49e+00	0	32	104	0	72	16917
2026-01-16 20:43:36.26	21.63	2.81	-51.2	-63.9	3.8	1.49e+00	0	32	104	0	72	16902
2026-01-16 20:43:37.27	21.75	2.84	-51.1	-63.9	3.8	1.49e+00	0	32	104	0	72	16959
2026-01-16 20:43:38.28	21.87	2.88	-51.2	-63.9	3.8	1.49e+00	0	32	104	0	72	16917
2026-01-16 20:43:39.29	21.99	2.92	-51.2	-63.9	3.8	1.49e+00	0	33	104	0	72	16917
2026-01-16 20:43:40.30	22.11	2.95	-51.1	-63.8	3.8	1.49e+00	0	33	104	0	72	16859
2026-01-16 20:43:41.31	22.23	2.99	-51.2	-63.8	3.8	1.49e+00	0	33	104	0	72	16862
2026-01-16 20:43:42.32	22.35	3.02	-51.2	-63.9	3.8	1.49e+00	0	33	104	0	72	16910
2026-01-16 20:43:43.33	22.47	3.06	-51.1	-63.8	3.8	1.49e+00	0	32	104	0	72	16790
2026-01-16 20:43:44.34	22.59	3.10	-51.2	-63.9	3.8	1.49e+00	0	33	104	0	72	16912
2026-01-16 20:43:45.34	22.71	3.13	-51.1	-63.8	3.8	1.49e+00	0	32	104	0	72	16813
2026-01-16 20:43:46.35	22.83	3.17	-51.1	-63.9	3.8	1.49e+00	0	32	104	0	72	16925
2026-01-16 20:43:47.36	22.95	3.20	-51.1	-63.9	3.8	1.49e+00	0	33	104	0	72	16951
2026-01-16 20:43:48.37	23.07	3.24	-51.1	-63.9	3.8	1.49e+00	0	32	104	0	72	16996
2026-01-16 20:43:49.38	23.19	3.27	-51.1	-63.9	3.8	1.49e+00	0	33	104	0	72	16962
2026-01-16 20:43:50.39	23.31	3.31	-51.2	-63.9	3.8	1.49e+00	0	33	104	0	72	16927
2026-01-16 20:43:51.40	23.44	3.34	-51.2	-63.9	3.8	1.49e+00	0	33	104	0	72	16898
2026-01-16 20:43:52.40	23.56	3.38	-51.1	-63.9	3.8	1.49e+00	0	33	104	0	72	16895
2026-01-16 20:43:53.41	23.68	3.42	-51.1	-63.8	3.8	1.49e+00	0	33	104	0	72	16853
2026-01-16 20:43:54.42	23.80	3.45	-51.1	-63.8	3.8	1.49e+00	0	33	104	0	72	16861
2026-01-16 20:43:55.43	23.93	3.49	-51.1	-63.8	3.8	1.49e+00	0	33	104	0	72	16858
2026-01-16 20:43:56.44	24.05	3.52	-51.2	-63.9	3.8	1.49e+00	0	33	104	0	72	16933
2026-01-16 20:43:57.45	24.17	3.56	-51.1	-63.8	3.8	1.49e+00	0	33	104	0	72	16872
2026-01-16 20:43:58.46	24.30	3.59	-51.1	-63.8	3.8	1.49e+00	0	33	104	0	72	16821
2026-01-16 20:43:59.46	24.42	3.62	-51.1	-63.8	3.8	1.49e+00	0	33	104	0	72	16798
2026-01-16 20:44:00.47	24.55	3.66	-51.1	-63.9	3.8	1.49e+00	0	33	104	0	72	16911
2026-01-16 20:44:01.48	24.67	3.69	-51.1	-63.9	3.8	1.49e+00	0	33	104	0	72	16903
2026-01-16 20:44:02.49	24.80	3.73	-51.1	-63.8	3.8	1.49e+00	0	33	104	0	72	16851
2026-01-16 20:44:03.50	24.92	3.76	-51.1	-63.9	3.8	1.49e+00	0	33	104	0	72	16920
2026-01-16 20:44:04.51	25.05	3.80	-51.2	-63.9	3.8	1.49e+00	0	33	104	0	72	16987
2026-01-16 20:44:05.52	25.17	3.83	-51.1	-63.9	3.8	1.49e+00	0	33	104	0	72	16913
2026-01-16 20:44:06.52	25.30	3.87	-51.1	-63.8	3.8	1.49e+00	0	33	104	0	72	16847
2026-01-16 20:44:07.53	25.43	3.90	-51.1	-63.9	3.8	1.49e+00	0	33	104	0	72	16914
2026-01-16 20:44:08.54	25.55	3.94	-51.1	-63.9	3.8	1.49e+00	0	33	104	0	72	16930
2026-01-16 20:44:09.55	25.68	3.97	-51.1	-63.8	3.8	1.49e+00	0	33	104	0	72	16794
2026-01-16 20:44:10.56	25.81	4.00	-51.1	-63.7	3.8	1.49e+00	0	33	104	0	72	16673
2026-01-16 20:44:11.56	25.93	4.04	-51.1	-63.8	3.8	1.49e+00	0	33	104	0	72	16720
2026-01-16 20:44:12.57	26.06	4.07	-51.1	-63.8	3.8	1.49e+00	0	33	104	0	72	16850
2026-01-16 20:44:13.59	26.19	4.11	-51.2	-63.9	3.8	1.49e+00	0	33	104	0	72	16991
2026-01-16 20:44:14.59	26.32	4.14	-51.2	-63.9	3.8	1.49e+00	0	33	104	0	72	16940
2026-01-16 20:44:15.60	26.45	4.17	-51.1	-63.8	3.8	1.49e+00	0	33	104	0	72	16805
2026-01-16 20:44:16.61	26.58	4.21	-51.1	-63.7	3.8	1.49e+00	0	33	104	0	72	16674
2026-01-16 20:44:17.62	26.71	4.24	-51.1	-63.8	3.8	1.49e+00	0	33	104	0	72	16742
2026-01-16 20:44:18.62	26.84	4.27	-51.2	-63.8	3.8	1.49e+00	0	33	104	0	72	16871
2026-01-16 20:44:19.63	26.97	4.31	-51.1	-63.8	3.8	1.49e+00	0	33	104	0	72	16787
2026-01-16 20:44:20.64	27.10	4.34	-51.1	-63.8	3.8	1.49e+00	0	33	104	0	72	16767
2026-01-16 20:44:21.65	27.23	4.37	-51.2	-63.9	3.8	1.49e+00	0	33	104	0	72	16909
2026-01-16 20:44:22.66	27.36	4.41	-51.1	-63.8	3.8	1.49e+00	0	33	104	0	72	16832
2026-01-16 20:44:23.66	27.49	4.44	-51.1	-63.9	3.8	1.49e+00	0	33	104	0	72	16892
2026-01-16 20:44:24.67	27.62	4.47	-51.2	-63.9	3.8	1.49e+00	0	33	104	0	72	16951
2026-01-16 20:44:25.68	27.75	4.51	-51.2	-63.9	3.8	1.49e+00	0	33	104	0	72	16973
2026-01-16 20:44:26.69	27.89	4.54	-51.1	-63.8	3.8	1.49e+00	0	33	104	0	72	16844
2026-01-16 20:44:27.70	28.02	4.57	-51.1	-63.7	3.8	1.49e+00	0	33	104	0	72	16691
2026-01-16 20:44:28.71	28.15	4.61	-51.1	-63.6	3.8	1.49e+00	0	33	104	0	72	16497
2026-01-16 20:44:29.72	28.28	4.64	-51.1	-63.3	3.8	1.49e+00	0	33	104	0	72	15884
2026-01-16 20:44:30.72	28.42	4.67	-51.1	-63.1	3.8	1.49e+00	0	33	104	0	72	15432
2026-01-16 20:44:31.73	28.55	4.70	-51.1	-63.0	3.8	1.49e+00	0	33	104	0	72	15356
2026-01-16 20:44:32.74	28.68	4.73	-51.1	-63.4	3.8	1.49e+00	0	33	104	0	72	15972
2026-01-16 20:44:33.75	28.82	4.77	-51.1	-63.6	3.8	1.49e+00	0	33	104	0	72	16388
2026-01-16 20:44:34.76	28.95	4.80	-51.1	-63.2	3.8	1.49e+00	0	34	104	0	72	15693
2026-01-16 20:44:35.76	29.09	4.83	-51.0	-62.1	3.9	1.49e+00	0	33	104	0	72	13743
2026-01-16 20:44:36.77	29.22	4.86	-50.8	-60.2	4.2	1.46e+00	0	33	104	0	72	11043
2026-01-16 20:44:37.78	29.36	4.90	-50.6	-58.5	4.9	8.55e-01	0	33	0	1048576	72	9117
2026-01-16 20:44:38.79	29.49	4.93	-50.2	-56.7	6.1	4.12e-01	0	33	0	3145728	72	7373
2026-01-16 20:44:39.80	29.63	4.96	-49.9	-55.3	7.4	1.55e-01	0	33	0	7340032	71	6654
2026-01-16 20:44:40.80	29.76	4.99	-49.7	-54.9	7.8	9.31e-02	0	33	0	10485760	71	6393
2026-01-16 20:44:41.81	29.90	5.02	-49.8	-55.1	7.6	8.90e-02	0	34	0	13631488	71	6518
2026-01-16 20:44:42.82	30.04	5.05	-48.9	-52.6	10.3	2.28e-02	0	33	0	16777216	69	5474
2026-01-16 20:44:43.83	30.17	5.08	-50.2	-56.4	6.5	1.25e-01	0	34	0	19922944	71	7576
2026-01-16 20:44:44.84	30.31	5.12	-50.4	-57.4	5.7	2.24e-01	0	34	0	23068672	71	8527
2026-01-16 20:44:45.85	30.45	5.15	-50.4	-61.4	3.9	1.48e+00	0	33	104	24117248	71	13459
2026-01-16 20:44:46.86	30.58	5.18	-48.8	-52.1	10.8	1.35e+00	0	34	104	24117248	69	5208
2026-01-16 20:44:47.86	30.72	5.21	-48.3	-51.3	12.0	4.52e-04	0	33	0	26214400	68	4988
2026-01-16 20:44:48.87	30.86	5.24	-48.5	-51.5	11.8	6.83e-04	0	34	0	29360128	68	5140
2026-01-16 20:44:49.88	31.00	5.27	-48.6	-51.6	11.7	5.57e-04	0	33	0	32505856	68	5189
2026-01-16 20:44:50.89	31.14	5.30	-47.8	-50.3	13.0	1.06e-04	0	33	0	35651584	67	4728
2026-01-16 20:44:51.90	31.28	5.33	-47.0	-49.1	14.1	7.00e-07	0	34	0	38797312	66	4379
2026-01-16 20:44:52.90	31.42	5.36	-46.8	-48.9	14.5	0.00e+00	0	34	0	41943040	65	4514
2026-01-16 20:44:53.91	31.56	5.39	-46.7	-48.6	14.7	7.00e-07	0	34	0	45088768	65	4386
2026-01-16 20:44:54.92	31.70	5.42	-46.4	-48.3	15.1	0.00e+00	0	34	0	48234496	64	4455
2026-01-16 20:44:55.93	31.84	5.45	-46.3	-48.2	15.2	0.00e+00	0	34	0	51380224	64	4402
2026-01-16 20:44:56.94	31.98	5.48	-45.9	-47.5	16.0	0.00e+00	0	33	0	54525952	63	4325
2026-01-16 20:44:57.94	32.12	5.51	-45.9	-47.6	16.0	0.00e+00	0	33	0	57671680	63	4356
2026-01-16 20:44:58.95	32.26	5.54	-46.1	-47.8	15.8	0.00e+00	0	34	0	60817408	63	4455
2026-01-16 20:44:59.96	32.40	5.57	-46.2	-48.0	15.6	0.00e+00	0	34	0	63963136	63	4558
2026-01-16 20:45:00.97	32.54	5.60	-46.0	-47.7	15.8	0.00e+00	0	34	0	67108864	63	4428
2026-01-16 20:45:01.98	32.68	5.63	-46.1	-47.8	15.8	0.00e+00	0	33	0	70254592	63	4465
2026-01-16 20:45:02.99	32.82	5.66	-46.3	-48.1	15.4	0.00e+00	0	34	0	73400320	63	4638
2026-01-16 20:45:04.00	32.97	5.69	-46.0	-47.7	15.9	0.00e+00	0	34	0	76546048	63	4422
2026-01-16 20:45:05.00	33.11	5.72	-46.0	-47.7	15.8	0.00e+00	0	34	0	79691776	63	4435
2026-01-16 20:45:06.01	33.25	5.75	-46.2	-47.9	15.6	0.00e+00	0	34	0	82837504	63	4522
2026-01-16 20:45:07.02	33.40	5.78	-46.2	-47.9	15.7	0.00e+00	0	34	0	85983232	63	4527
2026-01-16 20:45:08.03	33.54	5.81	-46.4	-48.2	15.3	0.00e+00	0	33	0	89128960	63	4679
2026-01-16 20:45:09.04	33.68	5.84	-46.2	-47.9	15.7	0.00e+00	0	34	0	92274688	63	4521
2026-01-16 20:45:10.05	33.83	5.86	-45.9	-47.5	16.1	0.00e+00	0	34	0	95420416	63	4311
2026-01-16 20:45:11.06	33.97	5.89	-45.6	-47.1	16.5	0.00e+00	0	33	0	98566144	63	4119
2026-01-16 20:45:12.06	34.12	5.92	-45.1	-46.5	17.1	0.00e+00	0	33	0	101711872	62	4077
2026-01-16 20:45:13.07	34.26	5.95	-45.3	-46.7	16.9	0.00e+00	0	33	0	104857600	62	4180
2026-01-16 20:45:14.08	34.41	5.98	-45.1	-46.6	17.0	0.00e+00	0	34	0	108003328	62	4109
2026-01-16 20:45:15.09	34.55	6.01	-45.2	-46.6	17.0	0.00e+00	0	34	0	111149056	62	4135
2026-01-16 20:45:16.10	34.70	6.03	-45.2	-46.6	17.1	0.00e+00	0	34	0	114294784	62	4116
2026-01-16 20:45:17.11	34.84	6.06	-45.6	-47.1	16.5	0.00e+00	0	33	0	117440512	62	4377
2026-01-16 20:45:18.11	34.99	6.09	-45.6	-47.1	16.6	0.00e+00	0	34	0	120586240	62	4366
2026-01-16 20:45:19.12	35.14	6.12	-45.5	-47.0	16.6	0.00e+00	0	34	0	123731968	62	4309
2026-01-16 20:45:20.13	35.28	6.14	-45.6	-47.1	16.5	0.00e+00	0	34	0	126877696	62	4365
2026-01-16 20:45:21.14	35.43	6.17	-45.5	-47.0	16.6	0.00e+00	0	34	0	130023424	62	4319
2026-01-16 20:45:22.14	35.58	6.20	-45.1	-46.5	17.1	0.00e+00	0	34	0	133169152	62	4098
2026-01-16 20:45:23.15	35.72	6.22	-45.5	-47.0	16.7	0.00e+00	0	34	0	136314880	62	4324
2026-01-16 20:45:24.16	35.87	6.25	-45.6	-47.1	16.5	0.00e+00	0	34	0	139460608	62	4391
2026-01-16 20:45:25.17	36.02	6.28	-45.8	-47.4	16.3	0.00e+00	0	34	0	142606336	62	4537
2026-01-16 20:45:26.18	36.17	6.30	-45.5	-47.0	16.7	0.00e+00	0	34	0	145752064	62	4310
2026-01-16 20:45:27.18	36.32	6.33	-45.3	-46.8	16.9	0.00e+00	0	34	0	148897792	62	4206
2026-01-16 20:45:28.19	36.46	6.36	-45.2	-46.6	17.0	0.00e+00	0	34	0	152043520	62	4144
2026-01-16 20:45:29.20	36.61	6.38	-45.4	-46.8	16.8	0.00e+00	0	34	0	155189248	62	4229
2026-01-16 20:45:30.21	36.76	6.41	-45.3	-46.8	16.9	0.00e+00	0	34	0	158334976	62	4207
2026-01-16 20:45:31.22	36.91	6.44	-45.2	-46.6	17.2	0.00e+00	0	34	0	161480704	62	4111
2026-01-16 20:45:32.22	37.06	6.46	-45.1	-46.5	17.2	0.00e+00	0	34	0	164626432	62	4067
2026-01-16 20:45:33.23	37.21	6.49	-45.1	-46.5	17.3	0.00e+00	0	34	0	167772160	62	4057
2026-01-16 20:45:34.24	37.36	6.51	-44.8	-46.1	17.5	0.00e+00	0	34	0	170917888	61	4144
2026-01-16 20:45:35.25	37.51	6.54	-44.9	-46.2	17.5	0.00e+00	0	34	0	174063616	61	4164
2026-01-16 20:45:36.26	37.67	6.56	-44.9	-46.2	17.5	0.00e+00	0	34	0	177209344	61	4179
2026-01-16 20:45:37.26	37.82	6.59	-44.9	-46.3	17.4	0.00e+00	0	34	0	180355072	61	4204
2026-01-16 20:45:38.27	37.97	6.61	-45.1	-46.5	17.2	0.00e+00	0	34	0	183500800	61	4319
2026-01-16 20:45:39.28	38.12	6.64	-45.1	-46.4	17.2	0.00e+00	0	34	0	186646528	61	4286
2026-01-16 20:45:40.29	38.27	6.66	-45.1	-46.5	17.2	0.00e+00	0	34	0	189792256	61	4314
2026-01-16 20:45:41.30	38.42	6.69	-45.1	-46.5	17.2	0.00e+00	0	34	0	192937984	61	4309
2026-01-16 20:45:42.31	38.58	6.71	-45.1	-46.5	17.2	0.00e+00	0	34	0	196083712	61	4305
2026-01-16 20:45:43.32	38.73	6.74	-45.2	-46.6	17.1	0.00e+00	0	34	0	199229440	61	4384
2026-01-16 20:45:44.32	38.88	6.76	-45.0	-46.4	17.3	0.00e+00	0	34	0	202375168	61	4254
2026-01-16 20:45:45.33	39.03	6.78	-45.1	-46.5	17.2	0.00e+00	0	34	0	205520896	61	4319
2026-01-16 20:45:46.34	39.19	6.81	-45.1	-46.5	17.2	0.00e+00	0	34	0	208666624	61	4332
2026-01-16 20:45:47.35	39.34	6.83	-45.2	-46.6	17.1	0.00e+00	0	34	0	211812352	61	4368
2026-01-16 20:45:48.36	39.50	6.85	-45.2	-46.6	17.1	0.00e+00	0	34	0	214958080	61	4342
2026-01-16 20:45:49.37	39.65	6.88	-45.2	-46.6	17.2	0.00e+00	0	34	0	218103808	61	4349
2026-01-16 20:45:50.38	39.80	6.90	-45.0	-46.4	17.2	0.00e+00	0	34	0	221249536	61	4278
2026-01-16 20:45:51.39	39.96	6.92	-44.8	-46.1	17.6	0.00e+00	0	34	0	224395264	61	4129
2026-01-16 20:45:52.39	40.11	6.95	-44.9	-46.2	17.5	0.00e+00	0	34	0	227540992	61	4175
2026-01-16 20:45:53.40	40.27	6.97	-45.1	-46.4	17.3	0.00e+00	0	34	0	231735296	61	4286
2026-01-16 20:45:54.41	40.42	6.99	-45.0	-46.3	17.4	0.00e+00	0	34	0	233832448	61	4240
2026-01-16 20:45:55.42	40.58	7.01	-45.0	-46.4	17.4	0.00e+00	0	34	0	236978176	61	4246
2026-01-16 20:45:56.42	40.73	7.04	-45.0	-46.4	17.3	0.00e+00	0	34	0	240123904	61	4276
2026-01-16 20:45:57.43	40.89	7.06	-45.0	-46.3	17.4	0.00e+00	0	34	0	243269632	61	4236
2026-01-16 20:45:58.44	41.05	7.08	-45.3	-46.8	17.0	0.00e+00	0	34	0	246415360	61	4443
2026-01-16 20:45:59.45	41.20	7.10	-45.2	-46.6	17.1	0.00e+00	0	34	0	249561088	61	4383
2026-01-16 20:46:00.46	41.36	7.12	-45.1	-46.5	17.2	0.00e+00	0	34	0	252706816	61	4324
2026-01-16 20:46:01.46	41.52	7.15	-45.0	-46.3	17.3	0.00e+00	0	34	0	255852544	61	4239
2026-01-16 20:46:02.47	41.67	7.17	-45.1	-46.5	17.3	0.00e+00	0	34	0	258998272	61	4300
2026-01-16 20:46:03.48	41.83	7.19	-44.9	-46.3	17.4	0.00e+00	0	34	0	262144000	61	4214
2026-01-16 20:46:04.49	41.99	7.21	-44.9	-46.3	17.4	0.00e+00	0	34	0	265289728	61	4197
2026-01-16 20:46:05.50	42.15	7.23	-45.1	-46.4	17.3	0.00e+00	0	34	0	269484032	61	4286
2026-01-16 20:46:06.50	42.30	7.25	-45.1	-46.5	17.2	0.00e+00	0	34	0	272629760	61	4325
2026-01-16 20:46:07.51	42.46	7.27	-45.2	-46.6	17.1	0.00e+00	0	34	0	275775488	61	4357
2026-01-16 20:46:08.52	42.62	7.29	-45.1	-46.4	17.3	0.00e+00	0	34	0	278921216	61	4282
2026-01-16 20:46:09.53	42.78	7.31	-45.0	-46.4	17.3	0.00e+00	0	34	0	281018368	61	4272
2026-01-16 20:46:10.54	42.94	7.33	-45.1	-46.5	17.2	0.00e+00	0	34	0	284164096	61	4308
2026-01-16 20:46:11.54	43.10	7.35	-45.1	-46.5	17.3	0.00e+00	0	34	0	287309824	61	4296
2026-01-16 20:46:12.55	43.26	7.37	-45.0	-46.3	17.4	0.00e+00	0	34	0	290455552	61	4242
2026-01-16 20:46:13.56	43.41	7.39	-44.9	-46.2	17.5	0.00e+00	0	34	0	293601280	61	4176
2026-01-16 20:46:14.57	43.57	7.41	-44.9	-46.2	17.5	0.00e+00	0	34	0	296747008	61	4189
2026-01-16 20:46:15.58	43.73	7.43	-44.9	-46.3	17.4	0.00e+00	0	34	0	299892736	61	4210
2026-01-16 20:46:16.58	43.89	7.45	-45.0	-46.4	17.3	0.00e+00	0	34	0	303038464	61	4274
2026-01-16 20:46:17.59	44.05	7.47	-44.9	-46.2	17.5	0.00e+00	0	34	0	306184192	61	4165
2026-01-16 20:46:18.60	44.22	7.48	-44.9	-46.2	17.5	0.00e+00	0	34	0	310378496	61	4184
2026-01-16 20:46:19.61	44.38	7.50	-44.9	-46.2	17.5	0.00e+00	0	34	0	313524224	61	4189
2026-01-16 20:46:20.62	44.54	7.52	-44.9	-46.3	17.5	0.00e+00	0	34	0	316669952	61	4202
2026-01-16 20:46:21.63	44.70	7.54	-44.9	-46.3	17.5	0.00e+00	0	34	0	319815680	61	4210
2026-01-16 20:46:22.64	44.86	7.56	-45.0	-46.4	17.4	0.00e+00	0	34	0	322961408	61	4246
2026-01-16 20:46:23.64	45.02	7.57	-45.0	-46.4	17.4	0.00e+00	0	34	0	326107136	61	4267
2026-01-16 20:46:24.65	45.18	7.59	-45.2	-46.6	17.2	0.00e+00	0	34	0	328204288	61	4343
2026-01-16 20:46:25.67	45.35	7.61	-45.1	-46.5	17.2	0.00e+00	0	34	0	331350016	61	4339
2026-01-16 20:46:26.68	45.51	7.63	-45.1	-46.5	17.3	0.00e+00	0	34	0	334495744	61	4309
2026-01-16 20:46:27.69	45.67	7.64	-45.1	-46.5	17.3	0.00e+00	0	34	0	337641472	61	4320
2026-01-16 20:46:28.70	45.83	7.66	-45.1	-46.4	17.4	0.00e+00	0	34	0	341835776	61	4291
2026-01-16 20:46:29.71	46.00	7.68	-45.1	-46.5	17.3	0.00e+00	0	34	0	344981504	61	4311
2026-01-16 20:46:30.72	46.16	7.69	-45.1	-46.5	17.3	0.00e+00	0	34	0	348127232	61	4296
2026-01-16 20:46:31.72	46.32	7.71	-45.0	-46.4	17.4	0.00e+00	0	34	0	351272960	61	4251
2026-01-16 20:46:32.73	46.48	7.73	-45.1	-46.5	17.3	0.00e+00	0	34	0	354418688	61	4298
2026-01-16 20:46:33.74	46.65	7.74	-45.1	-46.5	17.3	0.00e+00	0	34	0	357564416	61	4300
2026-01-16 20:46:34.75	46.81	7.76	-45.0	-46.3	17.4	0.00e+00	0	34	0	360710144	61	4241
2026-01-16 20:46:35.76	46.97	7.77	-44.9	-46.3	17.5	0.00e+00	0	34	0	363855872	61	4208
2026-01-16 20:46:36.77	47.14	7.79	-44.9	-46.2	17.6	0.00e+00	0	34	0	367001600	61	4182
2026-01-16 20:46:37.78	47.30	7.80	-45.0	-46.3	17.4	0.00e+00	0	34	0	370147328	61	4225
2026-01-16 20:46:38.79	47.47	7.82	-44.9	-46.2	17.6	0.00e+00	0	34	0	373293056	61	4175
2026-01-16 20:46:39.79	47.63	7.83	-44.9	-46.3	17.5	0.00e+00	0	34	0	376438784	61	4194
2026-01-16 20:46:40.80	47.80	7.85	-44.8	-46.1	17.7	0.00e+00	0	34	0	379584512	61	4134
2026-01-16 20:46:41.81	47.96	7.86	-44.8	-46.1	17.7	0.00e+00	0	34	0	382730240	61	4128
2026-01-16 20:46:42.82	48.13	7.88	-44.9	-46.2	17.6	0.00e+00	0	34	0	385875968	61	4181
2026-01-16 20:46:43.83	48.29	7.89	-44.9	-46.3	17.5	0.00e+00	0	34	0	389021696	61	4197
2026-01-16 20:46:44.84	48.46	7.90	-45.1	-46.4	17.4	0.00e+00	0	34	0	392167424	61	4270
2026-01-16 20:46:45.85	48.62	7.92	-45.2	-46.6	17.2	0.00e+00	0	34	0	395313152	61	4352
2026-01-16 20:46:46.85	48.79	7.93	-45.1	-46.5	17.3	0.00e+00	0	34	0	398458880	61	4330
2026-01-16 20:46:47.87	48.95	7.94	-45.1	-46.5	17.3	0.00e+00	0	34	0	401604608	61	4303
2026-01-16 20:46:48.87	49.12	7.96	-45.1	-46.5	17.4	0.00e+00	0	34	0	404750336	61	4294
2026-01-16 20:46:49.88	49.28	7.97	-45.1	-46.5	17.3	0.00e+00	0	34	0	407896064	61	4297
2026-01-16 20:46:50.89	49.45	7.98	-45.2	-46.5	17.3	0.00e+00	0	34	0	411041792	61	4339
2026-01-16 20:46:51.90	49.62	7.99	-44.8	-46.1	17.7	0.00e+00	0	34	0	414187520	61	4145
2026-01-16 20:46:52.91	49.78	8.01	-44.8	-46.1	17.7	0.00e+00	0	34	0	417333248	61	4122
2026-01-16 20:46:53.92	49.95	8.02	-44.8	-46.2	17.7	0.00e+00	0	34	0	420478976	61	4151
2026-01-16 20:46:54.93	50.12	8.03	-45.0	-46.3	17.5	0.00e+00	0	34	0	423624704	61	4238
2026-01-16 20:46:55.94	50.28	8.04	-44.9	-46.3	17.6	0.00e+00	0	34	0	426770432	61	4194
2026-01-16 20:46:56.95	50.45	8.05	-44.9	-46.3	17.5	0.00e+00	0	34	0	429916160	61	4215
2026-01-16 20:46:57.96	50.62	8.06	-45.0	-46.4	17.4	0.00e+00	0	34	0	433061888	61	4282
2026-01-16 20:46:58.96	50.78	8.08	-45.1	-46.5	17.4	0.00e+00	0	34	0	436207616	61	4300
2026-01-16 20:46:59.97	50.95	8.09	-45.1	-46.4	17.4	0.00e+00	0	34	0	439353344	61	4283
2026-01-16 20:47:00.98	51.12	8.10	-44.9	-46.3	17.5	0.00e+00	0	34	0	442499072	61	4211
2026-01-16 20:47:01.99	51.28	8.11	-44.9	-46.2	17.6	0.00e+00	0	34	0	445644800	61	4173
2026-01-16 20:47:03.00	51.45	8.12	-44.9	-46.2	17.6	0.00e+00	0	34	0	448790528	61	4189
2026-01-16 20:47:04.01	51.62	8.13	-44.8	-46.2	17.6	0.00e+00	0	34	0	451936256	61	4151
2026-01-16 20:47:05.02	51.79	8.14	-44.9	-46.2	17.6	0.00e+00	0	34	0	455081984	61	4171
2026-01-16 20:47:06.02	51.95	8.15	-44.9	-46.2	17.6	0.00e+00	0	34	0	458227712	61	4191
2026-01-16 20:47:07.03	52.12	8.16	-44.7	-46.0	17.8	0.00e+00	0	34	0	461373440	61	4086
2026-01-16 20:47:08.04	52.29	8.17	-44.7	-45.9	17.9	0.00e+00	0	34	0	464519168	61	4045
2026-01-16 20:47:09.05	52.46	8.17	-44.7	-45.9	17.8	0.00e+00	0	34	0	467664896	61	4044
2026-01-16 20:47:10.06	52.63	8.18	-44.7	-46.0	17.8	0.00e+00	0	34	0	470810624	61	4062
2026-01-16 20:47:11.07	52.80	8.19	-44.7	-46.0	17.8	0.00e+00	0	34	0	473956352	61	4072
2026-01-16 20:47:12.08	52.97	8.20	-44.8	-46.0	17.8	0.00e+00	0	34	0	477102080	61	4096
2026-01-16 20:47:13.09	53.13	8.21	-44.9	-46.2	17.6	0.00e+00	0	34	0	480247808	61	4192
2026-01-16 20:47:14.10	53.30	8.22	-45.0	-46.3	17.5	0.00e+00	0	34	0	483393536	61	4237
2026-01-16 20:47:15.10	53.47	8.22	-44.9	-46.2	17.7	0.00e+00	0	34	0	486539264	61	4169
2026-01-16 20:47:16.11	53.64	8.23	-44.9	-46.3	17.6	0.00e+00	0	34	0	489684992	61	4219
2026-01-16 20:47:17.12	53.81	8.24	-44.9	-46.3	17.6	0.00e+00	0	34	0	492830720	61	4206
2026-01-16 20:47:18.13	53.98	8.24	-44.9	-46.2	17.6	0.00e+00	0	34	0	495976448	61	4188
2026-01-16 20:47:19.14	54.15	8.25	-44.9	-46.3	17.6	0.00e+00	0	34	0	499122176	61	4210
2026-01-16 20:47:20.15	54.32	8.26	-45.0	-46.3	17.5	0.00e+00	0	34	0	502267904	61	4231
2026-01-16 20:47:21.16	54.49	8.26	-45.1	-46.5	17.3	0.00e+00	0	34	0	505413632	61	4302
2026-01-16 20:47:22.16	54.65	8.27	-44.8	-46.2	17.6	0.00e+00	0	34	0	508559360	61	4154
2026-01-16 20:47:23.17	54.82	8.28	-44.8	-46.1	17.7	0.00e+00	0	34	0	511705088	61	4122
2026-01-16 20:47:24.18	54.99	8.28	-44.7	-46.0	17.8	0.00e+00	0	34	0	514850816	61	4080
2026-01-16 20:47:25.19	55.16	8.29	-44.8	-46.1	17.7	0.00e+00	0	34	0	517996544	61	4132
2026-01-16 20:47:26.20	55.33	8.29	-44.8	-46.1	17.7	0.00e+00	0	34	0	521142272	61	4121
2026-01-16 20:47:27.21	55.50	8.30	-44.7	-46.0	17.7	0.00e+00	0	34	0	524288000	61	4097
2026-01-16 20:47:28.22	55.67	8.30	-44.7	-46.0	17.8	0.00e+00	0	34	0	527433728	61	4055
2026-01-16 20:47:29.23	55.84	8.31	-44.8	-46.1	17.7	0.00e+00	0	34	0	530579456	61	4120
2026-01-16 20:47:30.24	56.01	8.31	-44.7	-46.0	17.8	0.00e+00	0	34	0	533725184	61	4060
2026-01-16 20:47:31.24	56.18	8.32	-44.7	-46.0	17.8	0.00e+00	0	34	0	536870912	61	4086
2026-01-16 20:47:32.25	56.35	8.32	-44.8	-46.1	17.7	0.00e+00	0	34	0	540016640	61	4128
2026-01-16 20:47:33.26	56.52	8.32	-44.9	-46.2	17.6	0.00e+00	0	34	0	543162368	61	4146
2026-01-16 20:47:34.27	56.69	8.33	-44.7	-46.0	17.8	0.00e+00	0	34	0	546308096	61	4055
2026-01-16 20:47:35.28	56.86	8.33	-44.7	-46.0	17.8	0.00e+00	0	34	0	549453824	61	4069
2026-01-16 20:47:36.29	57.03	8.34	-44.8	-46.1	17.7	0.00e+00	0	34	0	552599552	61	4126
2026-01-16 20:47:37.30	57.20	8.34	-44.9	-46.2	17.6	0.00e+00	0	34	0	555745280	61	4182
2026-01-16 20:47:38.31	57.37	8.34	-45.0	-46.3	17.5	0.00e+00	0	34	0	558891008	61	4212
2026-01-16 20:47:39.31	57.54	8.34	-45.0	-46.3	17.5	0.00e+00	0	34	0	562036736	61	4218
2026-01-16 20:47:40.32	57.71	8.35	-44.8	-46.2	17.6	0.00e+00	0	34	0	565182464	61	4153
2026-01-16 20:47:41.33	57.88	8.35	-44.8	-46.1	17.7	0.00e+00	0	34	0	568328192	61	4143
2026-01-16 20:47:42.34	58.05	8.35	-44.7	-46.0	17.8	0.00e+00	0	34	0	571473920	61	4090
2026-01-16 20:47:43.35	58.22	8.35	-44.7	-45.9	17.9	0.00e+00	0	34	0	574619648	61	4044
2026-01-16 20:47:44.36	58.39	8.35	-44.8	-46.1	17.7	0.00e+00	0	34	0	577765376	61	4110
2026-01-16 20:47:45.37	58.56	8.35	-44.9	-46.2	17.5	0.00e+00	0	34	0	580911104	61	4174
2026-01-16 20:47:46.38	58.73	8.36	-44.9	-46.2	17.6	0.00e+00	0	34	0	584056832	61	4167
2026-01-16 20:47:47.38	58.90	8.36	-44.9	-46.2	17.6	0.00e+00	0	34	0	587202560	61	4168
2026-01-16 20:47:48.39	59.07	8.36	-44.7	-46.0	17.8	0.00e+00	0	34	0	590348288	61	4071
2026-01-16 20:47:49.40	59.24	8.36	-44.7	-46.0	17.8	0.00e+00	0	34	0	593494016	61	4096
2026-01-16 20:47:50.41	59.42	8.36	-44.9	-46.2	17.7	0.00e+00	0	34	0	596639744	61	4163
2026-01-16 20:47:51.42	59.59	8.36	-44.6	-45.9	17.9	0.00e+00	0	34	0	599785472	61	4019
2026-01-16 20:47:52.43	59.76	8.36	-44.7	-46.0	17.8	0.00e+00	0	34	0	602931200	61	4087
2026-01-16 20:47:53.44	59.93	8.36	-44.6	-45.9	17.9	0.00e+00	0	34	0	606076928	61	4029
2026-01-16 20:47:54.45	60.10	8.36	-44.5	-45.8	18.0	0.00e+00	0	34	0	609222656	60	4212
2026-01-16 20:47:55.46	60.27	8.35	-44.5	-45.7	18.0	0.00e+00	0	34	0	612368384	60	4186
2026-01-16 20:47:56.46	60.44	8.35	-44.6	-45.9	17.9	0.00e+00	0	34	0	615514112	60	4249
2026-01-16 20:47:57.47	60.61	8.35	-44.5	-45.8	18.0	0.00e+00	0	34	0	618659840	60	4207
2026-01-16 20:47:58.48	60.78	8.35	-44.4	-45.7	18.1	0.00e+00	0	34	0	621805568	60	4146
2026-01-16 20:47:59.49	60.95	8.35	-44.5	-45.7	18.1	0.00e+00	0	34	0	624951296	60	4171
2026-01-16 20:48:00.50	61.12	8.35	-44.5	-45.8	18.0	0.00e+00	0	34	0	628097024	60	4210
2026-01-16 20:48:01.50	61.29	8.34	-44.4	-45.6	18.2	0.00e+00	0	34	0	631242752	60	4129
2026-01-16 20:48:02.51	61.46	8.34	-44.6	-45.8	18.0	0.00e+00	0	34	0	634388480	60	4233
2026-01-16 20:48:03.52	61.63	8.34	-44.5	-45.7	18.0	0.00e+00	0	34	0	637534208	60	4181
2026-01-16 20:48:04.53	61.80	8.34	-44.4	-45.7	18.1	0.00e+00	0	34	0	640679936	60	4152
2026-01-16 20:48:05.54	61.97	8.33	-44.4	-45.6	18.2	0.00e+00	0	34	0	643825664	60	4126
2026-01-16 20:48:06.55	62.14	8.33	-44.6	-45.8	17.9	0.00e+00	0	34	0	646971392	60	4242
2026-01-16 20:48:07.56	62.31	8.33	-44.7	-46.0	17.8	0.00e+00	0	34	0	650117120	60	4311
2026-01-16 20:48:08.57	62.48	8.32	-44.7	-46.0	17.8	0.00e+00	0	34	0	653262848	60	4316
2026-01-16 20:48:09.57	62.65	8.32	-44.8	-46.1	17.7	0.00e+00	0	34	0	656408576	60	4385
2026-01-16 20:48:10.59	62.82	8.32	-44.7	-46.0	17.8	0.00e+00	0	34	0	659554304	60	4328
2026-01-16 20:48:11.60	62.99	8.31	-44.7	-46.0	17.8	0.00e+00	0	34	0	662700032	60	4333
2026-01-16 20:48:12.61	63.16	8.31	-44.5	-45.8	18.0	0.00e+00	0	34	0	665845760	60	4196
2026-01-16 20:48:13.62	63.33	8.30	-44.4	-45.7	18.1	0.00e+00	0	34	0	668991488	60	4164
2026-01-16 20:48:14.62	63.50	8.30	-44.5	-45.8	17.9	0.00e+00	0	34	0	672137216	60	4219
2026-01-16 20:48:15.63	63.67	8.29	-44.5	-45.8	18.0	0.00e+00	0	34	0	675282944	60	4213
2026-01-16 20:48:16.64	63.84	8.29	-44.6	-45.8	17.9	0.00e+00	0	34	0	678428672	60	4241
2026-01-16 20:48:17.65	64.01	8.28	-44.6	-45.9	17.9	0.00e+00	0	34	0	681574400	60	4261
2026-01-16 20:48:18.66	64.18	8.27	-44.7	-46.0	17.8	0.00e+00	0	34	0	684720128	60	4292
2026-01-16 20:48:19.67	64.35	8.27	-44.8	-46.1	17.7	0.00e+00	0	34	0	687865856	60	4345
2026-01-16 20:48:20.68	64.52	8.26	-44.7	-45.9	17.8	0.00e+00	0	34	0	691011584	60	4285
2026-01-16 20:48:21.68	64.69	8.26	-44.7	-46.0	17.8	0.00e+00	0	34	0	694157312	60	4303
2026-01-16 20:48:22.69	64.86	8.25	-44.7	-45.9	17.8	0.00e+00	0	34	0	697303040	60	4286
2026-01-16 20:48:23.70	65.03	8.24	-44.6	-45.9	17.9	0.00e+00	0	34	0	700448768	60	4255
2026-01-16 20:48:24.71	65.19	8.23	-44.5	-45.7	18.0	0.00e+00	0	34	0	703594496	60	4191
2026-01-16 20:48:25.72	65.36	8.23	-44.7	-46.0	17.8	0.00e+00	0	34	0	706740224	60	4296
2026-01-16 20:48:26.73	65.53	8.22	-44.5	-45.8	18.0	0.00e+00	0	34	0	709885952	60	4200
2026-01-16 20:48:27.74	65.70	8.21	-44.5	-45.8	18.0	0.00e+00	0	34	0	713031680	60	4212
2026-01-16 20:48:28.74	65.87	8.20	-44.7	-45.9	17.8	0.00e+00	0	34	0	716177408	60	4285
2026-01-16 20:48:29.75	66.04	8.20	-44.8	-46.1	17.7	0.00e+00	0	34	0	719323136	60	4357
2026-01-16 20:48:30.76	66.21	8.19	-44.7	-45.9	17.9	0.00e+00	0	34	0	722468864	60	4281
2026-01-16 20:48:31.77	66.38	8.18	-44.5	-45.8	18.0	0.00e+00	0	34	0	725614592	60	4215
2026-01-16 20:48:32.78	66.54	8.17	-44.4	-45.6	18.1	0.00e+00	0	34	0	728760320	60	4142
2026-01-16 20:48:33.79	66.71	8.16	-44.5	-45.8	18.0	0.00e+00	0	34	0	731906048	60	4199
2026-01-16 20:48:34.80	66.88	8.15	-44.5	-45.7	18.1	0.00e+00	0	34	0	736100352	60	4182
2026-01-16 20:48:35.81	67.05	8.14	-44.6	-45.9	17.9	0.00e+00	0	34	0	739246080	60	4266
2026-01-16 20:48:36.82	67.22	8.13	-44.7	-46.0	17.7	0.00e+00	0	34	0	741343232	60	4328
2026-01-16 20:48:37.82	67.38	8.12	-44.7	-46.0	17.8	0.00e+00	0	34	0	744488960	60	4295
2026-01-16 20:48:38.83	67.55	8.11	-44.7	-46.1	17.8	0.00e+00	0	34	0	747634688	60	4342
2026-01-16 20:48:39.84	67.72	8.10	-44.6	-45.9	17.9	0.00e+00	0	34	0	750780416	60	4245
2026-01-16 20:48:40.85	67.89	8.09	-44.6	-45.9	17.9	0.00e+00	0	34	0	753926144	60	4265
2026-01-16 20:48:41.86	68.06	8.08	-44.7	-46.0	17.7	0.00e+00	0	34	0	757071872	60	4329
2026-01-16 20:48:42.87	68.22	8.07	-44.8	-46.1	17.7	0.00e+00	0	34	0	760217600	60	4372
2026-01-16 20:48:43.88	68.39	8.06	-44.8	-46.1	17.6	0.00e+00	0	34	0	763363328	60	4387
2026-01-16 20:48:44.88	68.56	8.05	-44.9	-46.2	17.6	0.00e+00	0	34	0	766509056	60	4411
2026-01-16 20:48:45.89	68.72	8.04	-45.0	-46.4	17.4	0.00e+00	0	34	0	769654784	60	4527
2026-01-16 20:48:46.90	68.89	8.02	-44.8	-46.1	17.6	0.00e+00	0	34	0	773849088	60	4381
2026-01-16 20:48:47.91	69.06	8.01	-44.8	-46.2	17.5	0.00e+00	0	34	0	776994816	60	4410
2026-01-16 20:48:48.92	69.23	8.00	-44.9	-46.3	17.5	0.00e+00	0	34	0	780140544	60	4448
2026-01-16 20:48:49.92	69.39	7.99	-45.0	-46.4	17.4	0.00e+00	0	34	0	783286272	60	4500
2026-01-16 20:48:50.93	69.56	7.98	-45.0	-46.4	17.3	0.00e+00	0	34	0	786432000	60	4530
2026-01-16 20:48:51.94	69.72	7.96	-45.2	-46.7	17.1	0.00e+00	0	34	0	788529152	61	4395
2026-01-16 20:48:52.95	69.89	7.95	-45.1	-46.5	17.2	0.00e+00	0	34	0	791674880	61	4340
2026-01-16 20:48:53.96	70.06	7.94	-44.9	-46.3	17.5	0.00e+00	0	34	0	794820608	61	4198
2026-01-16 20:48:54.96	70.22	7.92	-45.0	-46.4	17.4	0.00e+00	0	34	0	797966336	61	4247
2026-01-16 20:48:55.97	70.39	7.91	-45.0	-46.4	17.3	0.00e+00	0	34	0	801112064	61	4283
2026-01-16 20:48:56.98	70.55	7.90	-45.1	-46.5	17.2	0.00e+00	0	34	0	804257792	61	4318
2026-01-16 20:48:57.98	70.72	7.88	-45.2	-46.6	17.1	0.00e+00	0	34	0	807403520	61	4351
2026-01-16 20:48:58.99	70.88	7.87	-45.2	-46.6	17.1	0.00e+00	0	34	0	810549248	61	4357
2026-01-16 20:49:00.00	71.05	7.85	-45.1	-46.5	17.2	0.00e+00	0	34	0	814743552	61	4320
2026-01-16 20:49:01.01	71.21	7.84	-45.1	-46.6	17.2	0.00e+00	0	34	0	817889280	61	4343
2026-01-16 20:49:02.02	71.38	7.83	-45.2	-46.6	17.1	0.00e+00	0	34	0	821035008	61	4364
2026-01-16 20:49:03.02	71.54	7.81	-45.0	-46.3	17.4	0.00e+00	0	34	0	824180736	61	4223
2026-01-16 20:49:04.03	71.70	7.80	-45.1	-46.5	17.3	0.00e+00	0	34	0	827326464	61	4316
2026-01-16 20:49:05.04	71.87	7.78	-45.2	-46.6	17.1	0.00e+00	0	34	0	830472192	61	4386
2026-01-16 20:49:06.05	72.03	7.76	-45.2	-46.6	17.1	0.00e+00	0	34	0	833617920	61	4365
2026-01-16 20:49:07.06	72.20	7.75	-45.0	-46.4	17.3	0.00e+00	0	34	0	835715072	61	4262
2026-01-16 20:49:08.07	72.36	7.73	-45.1	-46.4	17.3	0.00e+00	0	34	0	838860800	61	4287
2026-01-16 20:49:09.08	72.52	7.72	-45.0	-46.3	17.4	0.00e+00	0	34	0	842006528	61	4225
2026-01-16 20:49:10.08	72.69	7.70	-44.9	-46.3	17.4	0.00e+00	0	34	0	845152256	61	4211
2026-01-16 20:49:11.09	72.85	7.68	-45.0	-46.4	17.3	0.00e+00	0	34	0	848297984	61	4263
2026-01-16 20:49:12.10	73.01	7.67	-45.0	-46.3	17.3	0.00e+00	0	34	0	852492288	61	4235
2026-01-16 20:49:13.11	73.18	7.65	-45.1	-46.5	17.2	0.00e+00	0	34	0	855638016	61	4305
2026-01-16 20:49:14.12	73.34	7.63	-44.9	-46.3	17.4	0.00e+00	0	34	0	858783744	61	4218
2026-01-16 20:49:15.12	73.50	7.62	-44.9	-46.3	17.4	0.00e+00	0	34	0	861929472	61	4224
2026-01-16 20:49:16.13	73.66	7.60	-45.1	-46.5	17.3	0.00e+00	0	34	0	865075200	61	4299
2026-01-16 20:49:17.14	73.83	7.58	-44.7	-46.0	17.7	0.00e+00	0	34	0	868220928	61	4060
2026-01-16 20:49:18.15	73.99	7.57	-44.7	-46.0	17.7	0.00e+00	0	34	0	871366656	61	4085
2026-01-16 20:49:19.16	74.15	7.55	-44.8	-46.1	17.6	0.00e+00	0	34	0	874512384	61	4122
2026-01-16 20:49:20.16	74.31	7.53	-44.7	-46.0	17.6	0.00e+00	0	34	0	877658112	61	4084
2026-01-16 20:49:21.17	74.47	7.51	-44.7	-46.0	17.7	0.00e+00	0	34	0	880803840	61	4067
2026-01-16 20:49:22.18	74.63	7.49	-44.7	-46.0	17.7	0.00e+00	0	34	0	882900992	61	4084
2026-01-16 20:49:23.18	74.79	7.47	-44.8	-46.1	17.6	0.00e+00	0	34	0	886046720	61	4116
2026-01-16 20:49:24.19	74.95	7.46	-44.7	-46.1	17.6	0.00e+00	0	34	0	889192448	61	4102
2026-01-16 20:49:25.20	75.11	7.44	-44.8	-46.2	17.5	0.00e+00	0	34	0	893386752	61	4153
2026-01-16 20:49:26.21	75.27	7.42	-44.8	-46.2	17.5	0.00e+00	0	34	0	896532480	61	4163
2026-01-16 20:49:27.22	75.44	7.40	-45.1	-46.5	17.2	0.00e+00	0	34	0	899678208	61	4304
2026-01-16 20:49:28.22	75.59	7.38	-44.9	-46.3	17.4	0.00e+00	0	34	0	902823936	61	4209
2026-01-16 20:49:29.23	75.75	7.36	-45.0	-46.3	17.4	0.00e+00	0	34	0	905969664	61	4229
2026-01-16 20:49:30.24	75.91	7.34	-44.8	-46.2	17.5	0.00e+00	0	34	0	909115392	61	4154
2026-01-16 20:49:31.25	76.07	7.32	-44.9	-46.3	17.4	0.00e+00	0	34	0	912261120	61	4215
2026-01-16 20:49:32.26	76.23	7.30	-44.8	-46.1	17.6	0.00e+00	0	34	0	915406848	61	4120
2026-01-16 20:49:33.26	76.39	7.28	-44.9	-46.2	17.5	0.00e+00	0	34	0	918552576	61	4175
2026-01-16 20:49:34.27	76.55	7.26	-44.9	-46.2	17.4	0.00e+00	0	34	0	921698304	61	4172
2026-01-16 20:49:35.28	76.71	7.24	-44.7	-46.1	17.6	0.00e+00	0	34	0	924844032	61	4105
2026-01-16 20:49:36.29	76.87	7.22	-44.6	-45.9	17.8	0.00e+00	0	34	0	927989760	61	4043
2026-01-16 20:49:37.30	77.02	7.20	-44.8	-46.1	17.5	0.00e+00	0	34	0	931135488	61	4135
2026-01-16 20:49:38.30	77.18	7.18	-44.6	-45.9	17.7	0.00e+00	0	34	0	934281216	61	4034
2026-01-16 20:49:39.31	77.34	7.15	-44.6	-45.9	17.8	0.00e+00	0	34	0	937426944	61	4007
2026-01-16 20:49:40.32	77.50	7.13	-44.6	-45.9	17.7	0.00e+00	0	34	0	940572672	61	4040
2026-01-16 20:49:41.33	77.65	7.11	-44.7	-46.0	17.7	0.00e+00	0	34	0	943718400	61	4059
2026-01-16 20:49:42.34	77.81	7.09	-44.5	-45.8	17.8	0.00e+00	0	34	0	946864128	60	4232
2026-01-16 20:49:43.35	77.97	7.07	-44.7	-46.0	17.7	0.00e+00	0	34	0	950009856	60	4320
2026-01-16 20:49:44.36	78.13	7.04	-44.7	-46.0	17.6	0.00e+00	0	34	0	953155584	60	4331
2026-01-16 20:49:45.37	78.28	7.02	-44.7	-46.0	17.6	0.00e+00	0	34	0	956301312	60	4330
2026-01-16 20:49:46.37	78.44	7.00	-44.9	-46.3	17.4	0.00e+00	0	34	0	959447040	60	4451
2026-01-16 20:49:47.38	78.59	6.98	-44.8	-46.1	17.6	0.00e+00	0	34	0	962592768	60	4351
2026-01-16 20:49:48.39	78.75	6.95	-44.8	-46.1	17.6	0.00e+00	0	34	0	965738496	60	4379
2026-01-16 20:49:49.40	78.90	6.93	-45.0	-46.4	17.3	0.00e+00	0	34	0	968884224	60	4505
2026-01-16 20:49:50.41	79.06	6.91	-45.0	-46.4	17.3	0.00e+00	0	34	0	972029952	60	4499
2026-01-16 20:49:51.42	79.21	6.89	-45.0	-46.3	17.4	0.00e+00	0	34	0	975175680	60	4474
2026-01-16 20:49:52.43	79.37	6.86	-45.1	-46.5	17.2	0.00e+00	0	34	0	978321408	60	4563
2026-01-16 20:49:53.44	79.52	6.84	-44.9	-46.3	17.3	0.00e+00	0	34	0	981467136	60	4458
2026-01-16 20:49:54.44	79.68	6.82	-45.0	-46.4	17.3	0.00e+00	0	34	0	984612864	60	4504
2026-01-16 20:49:55.45	79.83	6.79	-45.0	-46.4	17.3	0.00e+00	0	34	0	987758592	60	4532
2026-01-16 20:49:56.46	79.99	6.77	-45.0	-46.3	17.3	0.00e+00	0	34	0	990904320	60	4482
2026-01-16 20:49:57.47	80.14	6.74	-45.0	-46.5	17.2	0.00e+00	0	34	0	994050048	60	4548
2026-01-16 20:49:58.48	80.29	6.72	-45.3	-46.7	16.9	0.00e+00	0	34	0	997195776	61	4432
2026-01-16 20:49:59.48	80.44	6.69	-45.1	-46.5	17.2	0.00e+00	0	34	0	1000341504	61	4308
2026-01-16 20:50:00.49	80.60	6.67	-44.9	-46.3	17.4	0.00e+00	0	34	0	1003487232	61	4197
2026-01-16 20:50:01.50	80.75	6.65	-44.7	-46.0	17.6	0.00e+00	0	34	0	1006632960	61	4095
2026-01-16 20:50:02.51	80.90	6.62	-44.8	-46.2	17.4	0.00e+00	0	34	0	1009778688	61	4173
2026-01-16 20:50:03.52	81.05	6.60	-44.9	-46.3	17.4	0.00e+00	0	34	0	1012924416	61	4214
2026-01-16 20:50:04.53	81.21	6.57	-44.8	-46.2	17.4	0.00e+00	0	34	0	1016070144	61	4169
2026-01-16 20:50:05.53	81.36	6.54	-45.1	-46.5	17.2	0.00e+00	0	34	0	1019215872	61	4319
2026-01-16 20:50:06.54	81.51	6.52	-45.1	-46.5	17.1	0.00e+00	0	34	0	1022361600	61	4331
2026-01-16 20:50:07.55	81.66	6.49	-44.9	-46.3	17.3	0.00e+00	0	34	0	1025507328	61	4215
2026-01-16 20:50:08.56	81.81	6.47	-45.0	-46.3	17.3	0.00e+00	0	34	0	1028653056	61	4233
2026-01-16 20:50:09.57	81.96	6.44	-45.1	-46.5	17.2	0.00e+00	0	34	0	1031798784	61	4295
2026-01-16 20:50:10.57	82.11	6.42	-44.9	-46.3	17.3	0.00e+00	0	34	0	1034944512	61	4227
2026-01-16 20:50:11.58	82.26	6.39	-44.9	-46.2	17.3	0.00e+00	0	34	0	1038090240	61	4193
2026-01-16 20:50:12.59	82.41	6.36	-45.0	-46.4	17.2	0.00e+00	0	34	0	1041235968	61	4289
2026-01-16 20:50:13.60	82.56	6.34	-45.1	-46.5	17.1	0.00e+00	0	34	0	1044381696	61	4318
2026-01-16 20:50:14.61	82.71	6.31	-45.1	-46.5	17.1	0.00e+00	0	34	0	1047527424	61	4311
2026-01-16 20:50:15.62	82.86	6.28	-45.1	-46.5	17.1	0.00e+00	0	34	0	1050673152	61	4332
2026-01-16 20:50:16.63	83.01	6.26	-44.9	-46.3	17.3	0.00e+00	0	34	0	1053818880	61	4227
2026-01-16 20:50:17.64	83.16	6.23	-44.8	-46.1	17.5	0.00e+00	0	34	0	1056964608	61	4121
2026-01-16 20:50:18.64	83.30	6.20	-44.9	-46.2	17.4	0.00e+00	0	34	0	1060110336	61	4170
2026-01-16 20:50:19.65	83.45	6.18	-44.8	-46.2	17.4	0.00e+00	0	34	0	1063256064	61	4156
2026-01-16 20:50:20.66	83.60	6.15	-44.9	-46.3	17.3	0.00e+00	0	34	0	1066401792	61	4211
2026-01-16 20:50:21.67	83.75	6.12	-45.1	-46.6	17.0	0.00e+00	0	34	0	1069547520	61	4345
2026-01-16 20:50:22.68	83.89	6.09	-45.0	-46.4	17.1	0.00e+00	0	34	0	1072693248	61	4289
2026-01-16 20:50:23.69	84.04	6.07	-45.0	-46.4	17.2	0.00e+00	0	34	0	1075838976	61	4261
2026-01-16 20:50:24.69	84.19	6.04	-45.1	-46.5	17.2	0.00e+00	0	34	0	1078984704	61	4293
2026-01-16 20:50:25.70	84.33	6.01	-45.0	-46.3	17.3	0.00e+00	0	34	0	1082130432	61	4242
2026-01-16 20:50:26.71	84.48	5.98	-45.2	-46.6	17.0	0.00e+00	0	34	0	1085276160	61	4374
2026-01-16 20:50:27.72	84.62	5.95	-45.1	-46.5	17.1	0.00e+00	0	34	0	1088421888	61	4306
2026-01-16 20:50:28.73	84.77	5.93	-45.2	-46.7	16.9	0.00e+00	0	34	0	1091567616	61	4394
2026-01-16 20:50:29.74	84.92	5.90	-45.4	-46.9	16.7	0.00e+00	0	34	0	1094713344	61	4545
2026-01-16 20:50:30.74	85.06	5.87	-45.3	-46.8	16.8	0.00e+00	0	34	0	1097859072	61	4449
2026-01-16 20:50:31.75	85.20	5.84	-45.6	-47.1	16.5	0.00e+00	0	34	0	1101004800	61	4645
2026-01-16 20:50:32.76	85.35	5.81	-45.5	-47.1	16.5	0.00e+00	0	34	0	1104150528	61	4603
2026-01-16 20:50:33.77	85.49	5.78	-45.4	-46.8	16.7	0.00e+00	0	34	0	1107296256	61	4489
2026-01-16 20:50:34.78	85.64	5.75	-45.5	-47.0	16.5	0.00e+00	0	34	0	1110441984	61	4588
2026-01-16 20:50:35.79	85.78	5.72	-45.4	-46.9	16.7	0.00e+00	0	34	0	1113587712	61	4528
2026-01-16 20:50:36.80	85.92	5.69	-45.5	-47.0	16.6	0.00e+00	0	34	0	1116733440	61	4564
2026-01-16 20:50:37.81	86.07	5.66	-45.2	-46.7	16.9	0.00e+00	0	34	0	1119879168	61	4405
2026-01-16 20:50:38.82	86.21	5.64	-45.1	-46.6	17.0	0.00e+00	0	34	0	1123024896	61	4365
2026-01-16 20:50:39.82	86.35	5.61	-45.3	-46.8	16.7	0.00e+00	0	34	0	1126170624	61	4465
2026-01-16 20:50:40.83	86.49	5.58	-45.1	-46.5	17.0	0.00e+00	0	34	0	1129316352	61	4338
2026-01-16 20:50:41.84	86.64	5.55	-45.0	-46.5	17.0	0.00e+00	0	34	0	1132462080	61	4302
2026-01-16 20:50:42.85	86.78	5.52	-44.9	-46.3	17.2	0.00e+00	0	34	0	1135607808	61	4237
2026-01-16 20:50:43.86	86.92	5.49	-45.1	-46.6	17.0	0.00e+00	0	34	0	1138753536	61	4357
2026-01-16 20:50:44.87	87.06	5.46	-45.1	-46.6	16.9	0.00e+00	0	34	0	1141899264	61	4341
2026-01-16 20:50:45.88	87.20	5.43	-45.3	-46.7	16.8	0.00e+00	0	34	0	1145044992	61	4426
2026-01-16 20:50:46.89	87.34	5.39	-45.4	-46.9	16.6	0.00e+00	0	34	0	1148190720	61	4529
2026-01-16 20:50:47.90	87.48	5.36	-45.3	-46.8	16.8	0.00e+00	0	34	0	1151336448	61	4445
2026-01-16 20:50:48.90	87.62	5.33	-45.2	-46.6	16.9	0.00e+00	0	34	0	1154482176	61	4386
2026-01-16 20:50:49.91	87.76	5.30	-45.6	-47.2	16.4	0.00e+00	0	34	0	1157627904	61	4661
2026-01-16 20:50:50.92	87.90	5.27	-45.7	-47.3	16.3	0.00e+00	0	34	0	1160773632	62	4451
2026-01-16 20:50:51.93	88.04	5.24	-45.7	-47.3	16.3	0.00e+00	0	34	0	1163919360	62	4447
2026-01-16 20:50:52.94	88.18	5.21	-45.7	-47.3	16.2	0.00e+00	0	34	0	1167065088	62	4477
2026-01-16 20:50:53.95	88.32	5.18	-45.4	-46.9	16.6	0.00e+00	0	34	0	1170210816	62	4279
2026-01-16 20:50:54.96	88.46	5.15	-45.7	-47.3	16.2	0.00e+00	0	34	0	1173356544	62	4468
2026-01-16 20:50:55.97	88.60	5.12	-45.5	-47.1	16.4	0.00e+00	0	34	0	1176502272	62	4347
2026-01-16 20:50:56.98	88.73	5.08	-45.4	-47.0	16.5	0.00e+00	0	34	0	1179648000	62	4302
2026-01-16 20:50:57.99	88.87	5.05	-45.5	-47.0	16.4	0.00e+00	0	34	0	1182793728	62	4322
2026-01-16 20:50:59.00	89.01	5.02	-45.7	-47.3	16.2	0.00e+00	0	34	0	1185939456	62	4461
2026-01-16 20:51:00.01	89.15	4.99	-51.9	-63.9	3.8	1.30e+00	0	34	104	1188036608	74	15124
2026-01-16 20:51:01.02	89.28	4.96	-52.2	-65.0	3.8	1.49e+00	0	34	104	1188036608	74	17246
2026-01-16 20:51:02.02	89.42	4.93	-52.4	-65.2	3.8	1.49e+00	0	34	104	1188036608	75	16613
2026-01-16 20:51:03.03	89.55	4.89	-52.6	-65.5	3.8	1.49e+00	0	34	104	1188036608	75	17114
2026-01-16 20:51:04.04	89.69	4.86	-52.7	-65.5	3.8	1.49e+00	0	34	104	1188036608	76	16297
2026-01-16 20:51:05.05	89.82	4.83	-52.9	-65.7	3.8	1.49e+00	0	34	104	1188036608	76	16590
2026-01-16 20:51:06.06	89.96	4.80	-53.0	-65.8	3.8	1.49e+00	0	34	104	1188036608	76	16779
2026-01-16 20:51:07.06	90.09	4.76	-53.1	-65.9	3.8	1.49e+00	0	34	104	1188036608	76	16997
2026-01-16 20:51:08.07	90.23	4.73	-53.2	-66.0	3.8	1.49e+00	0	34	104	1188036608	76	17096
2026-01-16 20:51:09.08	90.36	4.70	-53.2	-66.0	3.8	1.49e+00	0	34	104	1188036608	76	17236
2026-01-16 20:51:10.09	90.50	4.67	-53.3	-66.1	3.8	1.49e+00	0	34	104	1188036608	77	16369
2026-01-16 20:51:11.10	90.63	4.63	-53.3	-66.1	3.8	1.49e+00	0	34	104	1188036608	77	16499
2026-01-16 20:51:12.10	90.76	4.60	-53.3	-66.2	3.8	1.49e+00	0	34	104	1188036608	77	16521
2026-01-16 20:51:13.11	90.90	4.57	-53.4	-66.2	3.8	1.49e+00	0	34	104	1188036608	77	16544
2026-01-16 20:51:14.12	91.03	4.54	-53.4	-66.2	3.8	1.49e+00	0	34	104	1188036608	77	16608
2026-01-16 20:51:15.13	91.16	4.50	-53.4	-66.2	3.8	1.49e+00	0	34	104	1188036608	77	16659
2026-01-16 20:51:16.14	91.30	4.47	-53.4	-66.2	3.8	1.49e+00	0	34	104	1188036608	77	16662
2026-01-16 20:51:17.14	91.43	4.44	-53.4	-66.3	3.8	1.49e+00	0	34	104	1188036608	77	16737
2026-01-16 20:51:18.15	91.56	4.40	-53.4	-66.2	3.8	1.49e+00	0	34	104	1188036608	77	16690
2026-01-16 20:51:19.16	91.69	4.37	-53.4	-66.2	3.8	1.49e+00	0	34	104	1188036608	77	16684
2026-01-16 20:51:20.17	91.82	4.34	-53.4	-66.3	3.8	1.49e+00	0	34	104	1188036608	77	16721
2026-01-16 20:51:21.18	91.95	4.30	-53.4	-66.2	3.8	1.49e+00	0	34	104	1188036608	77	16684
2026-01-16 20:51:22.19	92.08	4.27	-53.4	-66.2	3.8	1.49e+00	0	34	104	1188036608	77	16688
2026-01-16 20:51:23.20	92.21	4.23	-53.4	-66.2	3.8	1.49e+00	0	34	104	1188036608	77	16676
2026-01-16 20:51:24.21	92.34	4.20	-53.4	-66.2	3.8	1.49e+00	0	34	104	1188036608	77	16644
2026-01-16 20:51:25.22	92.47	4.17	-53.4	-66.2	3.8	1.49e+00	0	34	104	1188036608	77	16660
2026-01-16 20:51:26.22	92.60	4.13	-53.4	-66.2	3.8	1.49e+00	0	34	104	1188036608	77	16576
2026-01-16 20:51:27.23	92.73	4.10	-53.4	-66.1	3.8	1.49e+00	0	34	104	1188036608	77	16501
2026-01-16 20:51:28.24	92.86	4.06	-53.3	-66.2	3.8	1.49e+00	0	34	104	1188036608	77	16511
2026-01-16 20:51:29.25	92.99	4.03	-53.3	-66.1	3.8	1.49e+00	0	34	104	1188036608	77	16431
2026-01-16 20:51:30.26	93.12	4.00	-53.3	-66.1	3.8	1.49e+00	0	34	104	1188036608	77	16480
2026-01-16 20:51:31.27	93.25	3.96	-53.3	-66.1	3.8	1.49e+00	0	34	104	1188036608	77	16476
2026-01-16 20:51:32.27	93.37	3.93	-53.3	-66.1	3.8	1.49e+00	0	34	104	1188036608	77	16464
2026-01-16 20:51:33.28	93.50	3.89	-53.3	-66.1	3.8	1.49e+00	0	34	104	1188036608	77	16405
2026-01-16 20:51:34.29	93.63	3.86	-53.3	-66.1	3.8	1.49e+00	0	34	104	1188036608	77	16448
2026-01-16 20:51:35.30	93.75	3.82	-53.3	-66.1	3.8	1.49e+00	0	34	104	1188036608	77	16456
2026-01-16 20:51:36.31	93.88	3.79	-53.3	-66.1	3.8	1.49e+00	0	34	104	1188036608	77	16414
2026-01-16 20:51:37.32	94.01	3.75	-53.3	-66.1	3.8	1.49e+00	0	34	104	1188036608	77	16373
2026-01-16 20:51:38.32	94.13	3.72	-53.3	-66.1	3.8	1.49e+00	0	34	104	1188036608	77	16461
2026-01-16 20:51:39.33	94.26	3.68	-53.3	-66.1	3.8	1.49e+00	0	34	104	1188036608	77	16415
2026-01-16 20:51:40.34	94.38	3.65	-53.3	-66.1	3.8	1.49e+00	0	34	104	1188036608	77	16385
2026-01-16 20:51:41.35	94.51	3.61	-53.3	-66.1	3.8	1.49e+00	0	34	104	1188036608	77	16422
2026-01-16 20:51:42.36	94.63	3.58	-53.3	-66.1	3.8	1.49e+00	0	34	104	1188036608	77	16459
2026-01-16 20:51:43.36	94.76	3.54	-53.3	-66.1	3.8	1.49e+00	0	34	104	1188036608	77	16392
2026-01-16 20:51:44.37	94.88	3.51	-53.3	-66.1	3.8	1.49e+00	0	34	104	1188036608	77	16380
2026-01-16 20:51:45.38	95.01	3.47	-53.3	-66.1	3.8	1.49e+00	0	34	104	1188036608	77	16364
2026-01-16 20:51:46.39	95.13	3.44	-53.3	-66.1	3.8	1.49e+00	0	34	104	1188036608	77	16412
2026-01-16 20:51:47.40	95.25	3.40	-53.3	-66.1	3.8	1.49e+00	0	34	104	1188036608	77	16366
2026-01-16 20:51:48.41	95.38	3.37	-53.3	-66.1	3.8	1.49e+00	0	34	104	1188036608	77	16395
2026-01-16 20:51:49.41	95.50	3.33	-53.3	-66.1	3.8	1.49e+00	0	34	104	1188036608	77	16387
2026-01-16 20:51:50.42	95.62	3.30	-53.3	-66.1	3.8	1.49e+00	0	34	104	1188036608	77	16373
2026-01-16 20:51:51.43	95.74	3.26	-53.3	-66.1	3.8	1.49e+00	0	34	104	1188036608	77	16416
2026-01-16 20:51:52.44	95.87	3.23	-53.3	-66.1	3.8	1.49e+00	0	34	104	1188036608	77	16397
2026-01-16 20:51:53.45	95.99	3.19	-53.3	-66.1	3.8	1.49e+00	0	34	104	1188036608	77	16391
2026-01-16 20:51:54.46	96.11	3.15	-53.3	-66.1	3.8	1.49e+00	0	34	104	1188036608	77	16409
2026-01-16 20:51:55.47	96.23	3.12	-53.3	-66.1	3.8	1.49e+00	0	34	104	1188036608	77	16385
2026-01-16 20:51:56.47	96.35	3.08	-53.3	-66.1	3.8	1.49e+00	0	34	104	1188036608	77	16369
2026-01-16 20:51:57.48	96.47	3.05	-53.3	-66.1	3.8	1.49e+00	0	34	104	1188036608	77	16397
2026-01-16 20:51:58.49	96.59	3.01	-53.3	-66.0	3.8	1.49e+00	0	34	104	1188036608	77	16293
2026-01-16 20:51:59.50	96.71	2.97	-53.3	-66.1	3.8	1.49e+00	0	34	104	1188036608	77	16361
2026-01-16 20:52:00.51	96.83	2.94	-53.3	-66.1	3.8	1.49e+00	0	34	104	1188036608	77	16342
2026-01-16 20:52:01.52	96.95	2.90	-53.3	-66.1	3.8	1.49e+00	0	34	104	1188036608	77	16346
2026-01-16 20:52:02.53	97.07	2.87	-53.3	-66.1	3.8	1.49e+00	0	34	104	1188036608	77	16369
2026-01-16 20:52:03.54	97.19	2.83	-53.3	-66.1	3.8	1.49e+00	0	34	104	1188036608	77	16374
2026-01-16 20:52:04.55	97.31	2.79	-53.3	-66.1	3.8	1.49e+00	0	35	104	1188036608	77	16353
2026-01-16 20:52:05.55	97.43	2.76	-53.3	-66.0	3.8	1.49e+00	0	34	104	1188036608	77	16310
2026-01-16 20:52:06.56	97.54	2.72	-53.3	-66.1	3.8	1.49e+00	0	34	104	1188036608	77	16353
2026-01-16 20:52:07.57	97.66	2.68	-53.3	-66.1	3.8	1.49e+00	0	34	104	1188036608	77	16352
2026-01-16 20:52:08.58	97.78	2.65	-53.2	-66.1	3.8	1.49e+00	0	34	104	1188036608	77	16349
2026-01-16 20:52:09.59	97.90	2.61	-53.3	-66.1	3.8	1.49e+00	0	34	104	1188036608	77	16422
2026-01-16 20:52:10.60	98.01	2.57	-53.3	-66.1	3.8	1.49e+00	0	34	104	1188036608	77	16377
2026-01-16 20:52:11.61	98.13	2.54	-53.3	-66.1	3.8	1.49e+00	0	34	104	1188036608	77	16375
2026-01-16 20:52:12.62	98.25	2.50	-53.3	-66.1	3.8	1.49e+00	0	34	104	1188036608	77	16346
2026-01-16 20:52:13.62	98.36	2.46	-53.3	-66.1	3.8	1.49e+00	0	34	104	1188036608	77	16381
2026-01-16 20:52:14.63	98.48	2.43	-53.3	-66.1	3.8	1.49e+00	0	34	104	1188036608	77	16341
2026-01-16 20:52:15.64	98.59	2.39	-53.3	-66.0	3.8	1.49e+00	0	34	104	1188036608	77	16306
2026-01-16 20:52:16.65	98.71	2.35	-53.3	-66.1	3.8	1.49e+00	0	34	104	1188036608	77	16399
2026-01-16 20:52:17.66	98.83	2.32	-53.3	-66.1	3.8	1.49e+00	0	34	104	1188036608	77	16383
2026-01-16 20:52:18.67	98.94	2.28	-53.2	-66.1	3.8	1.49e+00	0	34	104	1188036608	77	16318
2026-01-16 20:52:19.68	99.06	2.24	-53.3	-66.1	3.8	1.49e+00	0	34	104	1188036608	77	16345
2026-01-16 20:52:20.69	99.17	2.20	-53.2	-66.1	3.8	1.49e+00	0	34	104	1188036608	77	16321
2026-01-16 20:52:21.70	99.28	2.17	-53.2	-66.1	3.8	1.49e+00	0	34	104	1188036608	77	16331
2026-01-16 20:52:22.70	99.40	2.13	-53.2	-66.0	3.8	1.49e+00	0	34	104	1188036608	77	16305
2026-01-16 20:52:23.71	99.51	2.09	-53.2	-66.1	3.8	1.49e+00	0	34	104	1188036608	77	16354
2026-01-16 20:52:24.72	99.62	2.06	-53.3	-66.1	3.8	1.49e+00	0	34	104	1188036608	77	16362
2026-01-16 20:52:25.73	99.74	2.02	-53.3	-66.1	3.8	1.49e+00	0	34	104	1188036608	77	16323
2026-01-16 20:52:26.74	99.85	1.98	-53.2	-66.1	3.8	1.49e+00	0	34	104	1188036608	77	16328
2026-01-16 20:52:27.75	99.96	1.94	-53.2	-66.1	3.8	1.49e+00	0	34	104	1188036608	77	16327
2026-01-16 20:52:28.76	100.07	1.91	-53.2	-66.0	3.8	1.49e+00	0	34	104	1188036608	77	16301

#Closed at: 2026-01-16 20:52:29
#Recorded file [1188 MB]: D:/lorett/data/31041_260116_234314.dat