passes_logs/2026/01/16/R3.2S_Murmansk/R3.2S_Murmansk__20260116_114852_FENGYUN_3D_rec.log

#Pass ID: 20260116_114852_FENGYUN 3D
#Satellite: FENGYUN 3D
#Configuration: FENGYUN 3D
#almurnet v.1.7.20251203
#Start time: 2026-01-16 11:48:54

#Version: 2.2.20231116
#Station: R3.2S_Murmansk
#Location: 33.079688 lon 68.888172 lat
#TLE: 1 43010U 17072A   26015.99024095 -.00000189  00000+0 -67463-4 0  9996
#TLE: 2 43010  98.9932 347.8215 0002366 106.5594 253.5841 14.19694691423396

#Time	Az	El	Level	Level2	SNR	BER	BlckErr	Temp	State	Recorded	gain1	gain2
2026-01-16 11:48:54.23	157.56	2.08	-58.5	-70.1	3.8	8.46e-01	0	42	0	0	87	14606
2026-01-16 11:48:55.24	157.57	2.15	-58.6	-70.1	3.8	8.47e-01	0	42	104	0	87	14600
2026-01-16 11:48:56.25	157.58	2.21	-58.6	-70.1	3.8	8.45e-01	0	42	104	0	87	14648
2026-01-16 11:48:57.26	157.59	2.28	-58.6	-70.1	3.8	8.46e-01	0	42	104	0	87	14637
2026-01-16 11:48:58.27	157.60	2.34	-58.6	-70.1	3.8	8.47e-01	0	42	104	0	87	14569
2026-01-16 11:48:59.27	157.61	2.41	-58.6	-70.1	3.8	8.47e-01	0	42	104	0	87	14574
2026-01-16 11:49:00.28	157.63	2.47	-58.6	-70.1	3.8	8.47e-01	0	42	104	0	87	14595
2026-01-16 11:49:01.29	157.64	2.54	-58.6	-70.1	3.8	8.46e-01	0	43	104	0	87	14579
2026-01-16 11:49:02.30	157.65	2.61	-58.6	-70.1	3.8	8.47e-01	0	42	104	0	87	14577
2026-01-16 11:49:03.30	157.66	2.67	-58.6	-70.1	3.8	8.45e-01	0	43	104	0	87	14631
2026-01-16 11:49:04.31	157.67	2.74	-58.6	-70.1	3.8	8.46e-01	0	43	104	0	87	14576
2026-01-16 11:49:05.32	157.68	2.80	-58.6	-70.1	3.8	8.46e-01	0	43	104	0	87	14595
2026-01-16 11:49:06.33	157.69	2.87	-58.6	-70.1	3.8	8.46e-01	0	43	104	0	87	14621
2026-01-16 11:49:07.34	157.70	2.94	-58.6	-70.1	3.8	8.46e-01	0	43	104	0	87	14590
2026-01-16 11:49:08.35	157.71	3.00	-58.6	-70.1	3.8	8.45e-01	0	43	104	0	87	14645
2026-01-16 11:49:09.35	157.72	3.07	-58.6	-70.1	3.8	8.46e-01	0	43	104	0	87	14618
2026-01-16 11:49:10.36	157.73	3.14	-58.6	-70.1	3.8	8.46e-01	0	43	104	0	87	14587
2026-01-16 11:49:11.37	157.74	3.21	-58.6	-70.1	3.8	8.46e-01	0	43	104	0	87	14624
2026-01-16 11:49:12.38	157.75	3.27	-58.5	-70.1	3.8	8.47e-01	0	43	104	0	87	14560
2026-01-16 11:49:13.39	157.77	3.34	-58.6	-70.1	3.8	8.47e-01	0	43	104	0	87	14579
2026-01-16 11:49:14.40	157.78	3.41	-58.5	-70.1	3.8	8.47e-01	0	43	104	0	87	14620
2026-01-16 11:49:15.40	157.79	3.48	-58.6	-70.1	3.8	8.46e-01	0	43	104	0	87	14578
2026-01-16 11:49:16.41	157.80	3.54	-58.6	-70.1	3.8	8.47e-01	0	43	104	0	87	14599
2026-01-16 11:49:17.42	157.81	3.61	-58.6	-70.1	3.8	8.47e-01	0	43	104	0	87	14544
2026-01-16 11:49:18.43	157.82	3.68	-58.6	-70.1	3.8	8.45e-01	0	44	104	0	87	14592
2026-01-16 11:49:19.43	157.83	3.75	-58.6	-70.1	3.8	8.46e-01	0	44	104	0	87	14597
2026-01-16 11:49:20.44	157.84	3.82	-58.6	-70.1	3.8	8.47e-01	0	44	104	0	87	14601
2026-01-16 11:49:21.45	157.86	3.89	-58.6	-70.1	3.8	8.45e-01	0	44	104	0	87	14547
2026-01-16 11:49:22.46	157.87	3.96	-58.6	-70.1	3.8	8.45e-01	0	44	104	0	87	14588
2026-01-16 11:49:23.47	157.88	4.03	-58.6	-70.1	3.8	8.47e-01	0	44	104	0	87	14570
2026-01-16 11:49:24.48	157.89	4.10	-58.6	-70.1	3.8	8.46e-01	0	44	104	0	87	14565
2026-01-16 11:49:25.48	157.90	4.17	-58.6	-70.1	3.8	8.45e-01	0	44	104	0	87	14587
2026-01-16 11:49:26.49	157.91	4.24	-58.6	-70.1	3.8	8.46e-01	0	44	104	0	87	14602
2026-01-16 11:49:27.50	157.92	4.31	-58.6	-70.1	3.8	8.47e-01	0	44	104	0	87	14585
2026-01-16 11:49:28.51	157.94	4.38	-58.6	-70.1	3.8	8.47e-01	0	44	104	0	87	14559
2026-01-16 11:49:29.52	157.95	4.45	-58.6	-70.1	3.8	8.46e-01	0	44	104	0	87	14601
2026-01-16 11:49:30.53	157.96	4.52	-58.6	-70.1	3.8	8.47e-01	0	44	104	0	87	14570
2026-01-16 11:49:31.53	157.97	4.59	-58.6	-70.1	3.8	8.47e-01	0	44	104	0	87	14555
2026-01-16 11:49:32.54	157.98	4.66	-58.6	-70.1	3.8	8.46e-01	0	44	104	0	87	14630
2026-01-16 11:49:33.55	157.99	4.73	-58.6	-70.1	3.8	8.47e-01	0	44	104	0	87	14545
2026-01-16 11:49:34.56	158.01	4.80	-58.6	-70.1	3.8	8.46e-01	0	44	104	0	87	14630
2026-01-16 11:49:35.56	158.02	4.87	-58.6	-70.1	3.8	8.46e-01	0	44	104	0	87	14571
2026-01-16 11:49:36.57	158.03	4.94	-58.5	-70.1	3.8	8.46e-01	0	44	104	0	87	14587
2026-01-16 11:49:37.58	158.04	5.02	-58.6	-70.1	3.8	8.46e-01	0	44	104	0	87	14597
2026-01-16 11:49:38.59	158.05	5.09	-58.6	-70.1	3.8	8.45e-01	0	44	104	0	87	14618
2026-01-16 11:49:39.60	158.07	5.16	-58.6	-70.1	3.8	8.45e-01	0	44	104	0	87	14572
2026-01-16 11:49:40.61	158.08	5.23	-58.6	-70.1	3.8	8.46e-01	0	44	104	0	87	14572
2026-01-16 11:49:41.62	158.09	5.31	-58.6	-70.1	3.8	8.46e-01	0	45	104	0	87	14578
2026-01-16 11:49:42.63	158.10	5.38	-58.6	-70.1	3.8	8.47e-01	0	44	104	0	87	14569
2026-01-16 11:49:43.64	158.11	5.45	-58.6	-70.1	3.8	8.46e-01	0	45	104	0	87	14571
2026-01-16 11:49:44.65	158.13	5.53	-58.6	-70.1	3.9	8.46e-01	0	45	104	0	87	14546
2026-01-16 11:49:45.66	158.14	5.60	-58.6	-70.1	3.8	8.46e-01	0	45	104	0	87	14606
2026-01-16 11:49:46.66	158.15	5.67	-58.5	-70.1	3.8	8.48e-01	0	45	104	0	87	14563
2026-01-16 11:49:47.67	158.16	5.75	-58.6	-70.1	3.8	8.47e-01	0	45	104	0	87	14604
2026-01-16 11:49:48.68	158.18	5.82	-58.5	-70.0	3.8	8.45e-01	0	45	104	0	87	14539
2026-01-16 11:49:49.69	158.19	5.90	-58.6	-70.1	3.8	8.47e-01	0	45	104	0	87	14589
2026-01-16 11:49:50.70	158.20	5.97	-58.5	-70.1	3.8	8.47e-01	0	45	104	0	87	14615
2026-01-16 11:49:51.71	158.21	6.05	-58.5	-70.0	3.8	8.46e-01	0	45	104	0	87	14528
2026-01-16 11:49:52.72	158.23	6.12	-58.5	-70.1	3.8	8.48e-01	0	45	104	0	87	14612
2026-01-16 11:49:53.73	158.24	6.20	-58.6	-70.1	3.8	8.46e-01	0	45	104	0	87	14588
2026-01-16 11:49:54.74	158.25	6.27	-58.6	-70.1	3.8	8.46e-01	0	45	104	0	87	14604
2026-01-16 11:49:55.74	158.26	6.35	-58.6	-70.1	3.8	8.45e-01	0	45	104	0	87	14595
2026-01-16 11:49:56.75	158.28	6.42	-58.6	-70.1	3.8	8.47e-01	0	45	104	0	87	14555
2026-01-16 11:49:57.76	158.29	6.50	-58.5	-70.1	3.8	8.46e-01	0	45	104	0	87	14556
2026-01-16 11:49:58.77	158.30	6.58	-58.5	-70.1	3.8	8.46e-01	0	45	104	0	87	14609
2026-01-16 11:49:59.78	158.32	6.65	-58.6	-70.1	3.8	8.48e-01	0	45	104	0	87	14570
2026-01-16 11:50:00.79	158.33	6.73	-58.6	-70.1	3.8	8.47e-01	0	45	104	0	87	14597
2026-01-16 11:50:01.80	158.34	6.81	-58.6	-70.1	3.8	8.47e-01	0	45	104	0	87	14589
2026-01-16 11:50:02.81	158.35	6.89	-58.6	-70.1	3.8	8.46e-01	0	45	104	0	87	14572
2026-01-16 11:50:03.81	158.37	6.96	-58.6	-70.1	3.8	8.46e-01	0	45	104	0	87	14553
2026-01-16 11:50:04.82	158.38	7.04	-58.6	-70.1	3.8	8.47e-01	0	45	104	0	87	14549
2026-01-16 11:50:05.83	158.39	7.12	-58.6	-70.1	3.8	8.45e-01	0	45	104	0	87	14580
2026-01-16 11:50:06.84	158.41	7.20	-58.6	-70.1	3.8	8.46e-01	0	46	104	0	87	14594
2026-01-16 11:50:07.85	158.42	7.28	-58.6	-70.1	3.8	8.47e-01	0	45	104	0	87	14585
2026-01-16 11:50:08.86	158.43	7.36	-58.6	-70.1	3.8	8.47e-01	0	45	104	0	87	14574
2026-01-16 11:50:09.87	158.45	7.43	-58.6	-70.1	3.8	8.46e-01	0	46	104	0	87	14593
2026-01-16 11:50:10.87	158.46	7.51	-58.6	-70.1	3.8	8.45e-01	0	46	104	0	87	14637
2026-01-16 11:50:11.88	158.47	7.59	-58.6	-70.1	3.8	8.46e-01	0	45	104	0	87	14541
2026-01-16 11:50:12.89	158.49	7.67	-58.6	-70.1	3.8	8.46e-01	0	46	104	0	87	14581
2026-01-16 11:50:13.90	158.50	7.75	-58.6	-70.1	3.8	8.45e-01	0	46	104	0	87	14574
2026-01-16 11:50:14.91	158.52	7.83	-58.6	-70.1	3.8	8.47e-01	0	46	104	0	87	14606
2026-01-16 11:50:15.92	158.53	7.91	-58.6	-70.1	3.8	8.46e-01	0	46	104	0	87	14587
2026-01-16 11:50:16.93	158.54	7.99	-58.6	-70.1	3.8	8.45e-01	0	46	104	0	87	14581
2026-01-16 11:50:17.94	158.56	8.08	-58.6	-70.1	3.8	8.46e-01	0	46	104	0	87	14605
2026-01-16 11:50:18.94	158.57	8.16	-58.5	-70.1	3.8	8.46e-01	0	46	104	0	87	14606
2026-01-16 11:50:19.95	158.58	8.24	-58.6	-70.1	3.8	8.45e-01	0	46	104	0	87	14589
2026-01-16 11:50:20.96	158.60	8.32	-58.6	-70.1	3.8	8.47e-01	0	46	104	0	87	14597
2026-01-16 11:50:21.97	158.61	8.40	-58.6	-70.1	3.8	8.46e-01	0	46	104	0	87	14595
2026-01-16 11:50:22.98	158.63	8.48	-58.6	-70.1	3.8	8.46e-01	0	46	104	0	87	14577
2026-01-16 11:50:23.99	158.64	8.57	-58.6	-70.1	3.8	8.45e-01	0	46	104	0	87	14554
2026-01-16 11:50:25.00	158.66	8.65	-58.6	-70.1	3.8	8.46e-01	0	46	104	0	87	14587
2026-01-16 11:50:26.00	158.67	8.73	-58.6	-70.1	3.8	8.47e-01	0	46	104	0	87	14600
2026-01-16 11:50:27.01	158.68	8.82	-58.6	-70.1	3.8	8.45e-01	0	46	104	0	87	14615
2026-01-16 11:50:28.02	158.70	8.90	-58.6	-70.1	3.8	8.46e-01	0	46	104	0	87	14582
2026-01-16 11:50:29.03	158.71	8.98	-58.6	-70.1	3.8	8.45e-01	0	46	104	0	87	14579
2026-01-16 11:50:30.04	158.73	9.07	-58.6	-70.1	3.8	8.46e-01	0	46	104	0	87	14594
2026-01-16 11:50:31.04	158.74	9.15	-58.6	-70.1	3.8	8.46e-01	0	46	104	0	87	14584
2026-01-16 11:50:32.05	158.76	9.24	-58.6	-70.1	3.8	8.47e-01	0	46	104	0	87	14594
2026-01-16 11:50:33.06	158.77	9.32	-58.6	-70.1	3.8	8.46e-01	0	46	104	0	87	14590
2026-01-16 11:50:34.07	158.79	9.41	-58.6	-70.1	3.8	8.45e-01	0	46	104	0	87	14592
2026-01-16 11:50:35.07	158.80	9.49	-58.6	-70.1	3.8	8.47e-01	0	46	104	0	87	14565
2026-01-16 11:50:36.08	158.82	9.58	-58.6	-70.1	3.8	8.46e-01	0	46	104	0	87	14599
2026-01-16 11:50:37.09	158.83	9.67	-58.5	-70.1	3.8	8.47e-01	0	46	104	0	87	14584
2026-01-16 11:50:38.10	158.85	9.75	-58.6	-70.1	3.8	8.46e-01	0	46	104	0	87	14587
2026-01-16 11:50:39.11	158.86	9.84	-58.6	-70.1	3.8	8.46e-01	0	46	104	0	87	14583
2026-01-16 11:50:40.12	158.88	9.93	-58.6	-70.1	3.8	8.45e-01	0	46	104	0	87	14579
2026-01-16 11:50:41.13	158.89	10.01	-58.6	-70.1	3.8	8.46e-01	0	46	104	0	87	14591
2026-01-16 11:50:42.14	158.91	10.10	-58.6	-70.1	3.8	8.47e-01	0	46	104	0	87	14567
2026-01-16 11:50:43.15	158.93	10.19	-58.5	-70.1	3.8	8.46e-01	0	47	104	0	87	14587
2026-01-16 11:50:44.16	158.94	10.28	-58.6	-70.1	3.8	8.47e-01	0	47	104	0	87	14602
2026-01-16 11:50:45.17	158.96	10.37	-58.6	-70.1	3.8	8.45e-01	0	46	104	0	87	14576
2026-01-16 11:50:46.17	158.97	10.46	-58.6	-70.1	3.8	8.47e-01	0	46	104	0	87	14596
2026-01-16 11:50:47.18	158.99	10.55	-58.6	-70.1	3.8	8.46e-01	0	47	104	0	87	14607
2026-01-16 11:50:48.19	159.00	10.64	-58.6	-70.1	3.8	8.45e-01	0	47	104	0	87	14581
2026-01-16 11:50:49.20	159.02	10.73	-58.6	-70.1	3.8	8.46e-01	0	47	104	0	87	14573
2026-01-16 11:50:50.21	159.04	10.82	-58.6	-70.1	3.8	8.46e-01	0	47	104	0	87	14583
2026-01-16 11:50:51.22	159.05	10.91	-58.6	-70.1	3.8	8.46e-01	0	47	104	0	87	14606
2026-01-16 11:50:52.23	159.07	11.00	-58.6	-70.1	3.8	8.45e-01	0	47	104	0	87	14620
2026-01-16 11:50:53.24	159.08	11.09	-58.6	-70.1	3.8	8.46e-01	0	47	104	0	87	14568
2026-01-16 11:50:54.25	159.10	11.18	-58.6	-70.1	3.8	8.46e-01	0	47	104	0	87	14560
2026-01-16 11:50:55.26	159.12	11.28	-58.6	-70.1	3.8	8.46e-01	0	47	104	0	87	14596
2026-01-16 11:50:56.27	159.13	11.37	-58.6	-70.1	3.8	8.46e-01	0	47	104	0	87	14572
2026-01-16 11:50:57.27	159.15	11.46	-58.6	-70.1	3.8	8.47e-01	0	47	104	0	87	14608
2026-01-16 11:50:58.28	159.17	11.55	-58.6	-70.1	3.8	8.48e-01	0	47	104	0	87	14589
2026-01-16 11:50:59.29	159.18	11.65	-58.6	-70.1	3.8	8.46e-01	0	47	104	0	87	14581
2026-01-16 11:51:00.30	159.20	11.74	-58.6	-70.1	3.8	8.46e-01	0	47	104	0	87	14599
2026-01-16 11:51:01.31	159.22	11.84	-58.6	-70.1	3.8	8.47e-01	0	47	104	0	87	14573
2026-01-16 11:51:02.32	159.24	11.93	-58.6	-70.1	3.8	8.46e-01	0	47	104	0	87	14590
2026-01-16 11:51:03.33	159.25	12.03	-58.6	-70.1	3.8	8.46e-01	0	47	104	0	87	14596
2026-01-16 11:51:04.33	159.27	12.12	-58.6	-70.1	3.8	8.47e-01	0	47	104	0	87	14617
2026-01-16 11:51:05.34	159.29	12.22	-58.6	-70.1	3.8	8.45e-01	0	47	104	0	87	14582
2026-01-16 11:51:06.35	159.30	12.31	-58.6	-70.1	3.8	8.48e-01	0	47	104	0	87	14579
2026-01-16 11:51:07.36	159.32	12.41	-58.6	-70.1	3.8	8.46e-01	0	47	104	0	87	14617
2026-01-16 11:51:08.37	159.34	12.51	-58.6	-70.1	3.8	8.47e-01	0	47	104	0	87	14591
2026-01-16 11:51:09.38	159.36	12.60	-58.6	-70.1	3.8	8.46e-01	0	47	104	0	87	14550
2026-01-16 11:51:10.39	159.37	12.70	-58.6	-70.1	3.8	8.46e-01	0	47	104	0	87	14607
2026-01-16 11:51:11.40	159.39	12.80	-58.6	-70.1	3.8	8.45e-01	0	47	104	0	87	14606
2026-01-16 11:51:12.41	159.41	12.90	-58.6	-70.1	3.8	8.46e-01	0	47	104	0	87	14654
2026-01-16 11:51:13.42	159.43	13.00	-58.6	-70.1	3.8	8.45e-01	0	47	104	0	87	14646
2026-01-16 11:51:14.43	159.45	13.10	-58.6	-70.1	3.8	8.47e-01	0	47	104	0	87	14612
2026-01-16 11:51:15.43	159.46	13.19	-58.6	-70.1	3.8	8.46e-01	0	47	104	0	87	14579
2026-01-16 11:51:16.44	159.48	13.29	-58.6	-70.1	3.8	8.47e-01	0	47	104	0	87	14615
2026-01-16 11:51:17.45	159.50	13.40	-58.6	-70.1	3.8	8.46e-01	0	47	104	0	87	14581
2026-01-16 11:51:18.46	159.52	13.50	-58.6	-70.1	3.8	8.46e-01	0	47	104	0	87	14564
2026-01-16 11:51:19.47	159.54	13.60	-58.6	-70.1	3.8	8.47e-01	0	47	104	0	87	14618
2026-01-16 11:51:20.47	159.56	13.70	-58.6	-70.1	3.8	8.46e-01	0	47	104	0	87	14626
2026-01-16 11:51:21.48	159.58	13.80	-58.6	-70.1	3.8	8.47e-01	0	47	104	0	87	14617
2026-01-16 11:51:22.49	159.60	13.90	-58.6	-70.1	3.8	8.46e-01	0	47	104	0	87	14638
2026-01-16 11:51:23.50	159.61	14.01	-58.6	-70.1	3.8	8.45e-01	0	48	104	0	87	14611
2026-01-16 11:51:24.51	159.63	14.11	-58.6	-70.1	3.8	8.47e-01	0	47	104	0	87	14600
2026-01-16 11:51:25.52	159.65	14.21	-58.6	-70.1	3.8	8.46e-01	0	48	104	0	87	14595
2026-01-16 11:51:26.53	159.67	14.32	-58.6	-70.1	3.8	8.46e-01	0	48	104	0	87	14601
2026-01-16 11:51:27.54	159.69	14.42	-58.6	-70.1	3.8	8.47e-01	0	47	104	0	87	14580
2026-01-16 11:51:28.54	159.71	14.53	-58.6	-70.1	3.8	8.48e-01	0	48	104	0	87	14593
2026-01-16 11:51:29.55	159.73	14.63	-58.6	-70.1	3.8	8.47e-01	0	48	104	0	87	14586
2026-01-16 11:51:30.56	159.75	14.74	-58.6	-70.1	3.8	8.45e-01	0	47	104	0	87	14628
2026-01-16 11:51:31.57	159.77	14.85	-58.6	-70.1	3.8	8.46e-01	0	48	104	0	87	14561
2026-01-16 11:51:32.58	159.79	14.95	-58.6	-70.1	3.8	8.47e-01	0	48	104	0	87	14576
2026-01-16 11:51:33.59	159.81	15.06	-58.6	-70.1	3.8	8.46e-01	0	48	104	0	87	14576
2026-01-16 11:51:34.60	159.83	15.17	-58.6	-70.1	3.8	8.47e-01	0	47	104	0	87	14609
2026-01-16 11:51:35.60	159.85	15.28	-58.6	-70.1	3.8	8.47e-01	0	48	104	0	87	14605
2026-01-16 11:51:36.61	159.87	15.39	-58.6	-70.1	3.8	8.45e-01	0	48	104	0	87	14598
2026-01-16 11:51:37.62	159.89	15.50	-58.6	-70.1	3.8	8.46e-01	0	48	104	0	87	14562
2026-01-16 11:51:38.63	159.91	15.61	-58.6	-70.1	3.8	8.46e-01	0	48	104	0	87	14604
2026-01-16 11:51:39.64	159.94	15.72	-58.6	-70.1	3.8	8.45e-01	0	48	104	0	87	14588
2026-01-16 11:51:40.65	159.96	15.83	-58.6	-70.1	3.8	8.46e-01	0	48	104	0	87	14564
2026-01-16 11:51:41.66	159.98	15.94	-58.6	-70.1	3.8	8.46e-01	0	48	104	0	87	14606
2026-01-16 11:51:42.66	160.00	16.05	-58.6	-70.1	3.8	8.45e-01	0	48	104	0	87	14595
2026-01-16 11:51:43.67	160.02	16.16	-58.6	-70.1	3.8	8.46e-01	0	48	104	0	87	14601
2026-01-16 11:51:44.68	160.04	16.28	-58.6	-70.1	3.8	8.47e-01	0	48	104	0	87	14592
2026-01-16 11:51:45.69	160.06	16.39	-58.6	-70.1	3.8	8.47e-01	0	48	104	0	87	14571
2026-01-16 11:51:46.70	160.09	16.51	-58.6	-70.1	3.8	8.46e-01	0	48	104	0	87	14577
2026-01-16 11:51:47.71	160.11	16.62	-58.6	-70.1	3.8	8.46e-01	0	48	104	0	87	14595
2026-01-16 11:51:48.72	160.13	16.74	-58.6	-70.1	3.8	8.46e-01	0	48	104	0	87	14668
2026-01-16 11:51:49.73	160.15	16.85	-58.6	-70.1	3.8	8.46e-01	0	48	104	0	87	14613
2026-01-16 11:51:50.74	160.17	16.97	-58.6	-70.1	3.8	8.45e-01	0	48	104	0	87	14593
2026-01-16 11:51:51.74	160.20	17.08	-58.6	-70.1	3.8	8.46e-01	0	48	104	0	87	14562
2026-01-16 11:51:52.75	160.22	17.20	-58.6	-70.1	3.8	8.46e-01	0	48	104	0	87	14633
2026-01-16 11:51:53.76	160.24	17.32	-58.6	-70.1	3.8	8.47e-01	0	48	104	0	87	14587
2026-01-16 11:51:54.77	160.27	17.44	-58.6	-70.1	3.8	8.46e-01	0	48	104	0	87	14563
2026-01-16 11:51:55.77	160.29	17.56	-58.6	-70.1	3.8	8.45e-01	0	48	104	0	87	14577
2026-01-16 11:51:56.78	160.31	17.68	-58.6	-70.1	3.8	8.47e-01	0	48	104	0	87	14588
2026-01-16 11:51:57.79	160.34	17.80	-58.6	-70.1	3.8	8.46e-01	0	48	104	0	87	14659
2026-01-16 11:51:58.80	160.36	17.92	-58.6	-70.1	3.8	8.46e-01	0	48	104	0	87	14591
2026-01-16 11:51:59.81	160.38	18.04	-58.6	-70.1	3.8	8.46e-01	0	48	104	0	87	14619
2026-01-16 11:52:00.82	160.41	18.16	-58.6	-70.1	3.8	8.47e-01	0	48	104	0	87	14584
2026-01-16 11:52:01.83	160.43	18.28	-58.6	-70.1	3.8	8.46e-01	0	48	104	0	87	14586
2026-01-16 11:52:02.84	160.46	18.41	-58.6	-70.1	3.8	8.45e-01	0	48	104	0	87	14606
2026-01-16 11:52:03.85	160.48	18.53	-58.6	-70.1	3.8	8.46e-01	0	48	104	0	87	14626
2026-01-16 11:52:04.86	160.50	18.66	-58.6	-70.1	3.8	8.46e-01	0	48	104	0	87	14601
2026-01-16 11:52:05.87	160.53	18.78	-58.6	-70.1	3.8	8.45e-01	0	48	104	0	87	14588
2026-01-16 11:52:06.87	160.55	18.91	-58.6	-70.1	3.8	8.46e-01	0	48	104	0	87	14635
2026-01-16 11:52:07.88	160.58	19.03	-58.6	-70.1	3.8	8.46e-01	0	48	104	0	87	14588
2026-01-16 11:52:08.89	160.60	19.16	-58.6	-70.1	3.8	8.46e-01	0	48	104	0	87	14617
2026-01-16 11:52:09.90	160.63	19.29	-58.6	-70.1	3.8	8.46e-01	0	48	104	0	87	14585
2026-01-16 11:52:10.91	160.66	19.42	-58.6	-70.1	3.8	8.46e-01	0	48	104	0	87	14598
2026-01-16 11:52:11.92	160.68	19.54	-58.6	-70.1	3.8	8.46e-01	0	48	104	0	87	14593
2026-01-16 11:52:12.92	160.71	19.67	-58.6	-70.1	3.8	8.47e-01	0	48	104	0	87	14579
2026-01-16 11:52:13.93	160.73	19.80	-58.6	-70.1	3.8	8.46e-01	0	48	104	0	87	14566
2026-01-16 11:52:14.94	160.76	19.93	-58.6	-70.1	3.8	8.47e-01	0	48	104	0	87	14611
2026-01-16 11:52:15.95	160.79	20.07	-58.6	-70.1	3.8	8.45e-01	0	48	104	0	87	14614
2026-01-16 11:52:16.96	160.81	20.20	-58.6	-70.1	3.8	8.46e-01	0	48	104	0	87	14589
2026-01-16 11:52:17.97	160.84	20.33	-58.6	-70.1	3.8	8.46e-01	0	48	104	0	87	14592
2026-01-16 11:52:18.97	160.87	20.46	-58.6	-70.1	3.8	8.47e-01	0	48	104	0	87	14615
2026-01-16 11:52:19.98	160.90	20.60	-58.6	-70.1	3.8	8.46e-01	0	48	104	0	87	14557
2026-01-16 11:52:20.99	160.92	20.73	-58.6	-70.1	3.8	8.46e-01	0	48	104	0	87	14625
2026-01-16 11:52:22.00	160.95	20.87	-58.6	-70.1	3.8	8.47e-01	0	48	104	0	87	14624
2026-01-16 11:52:23.01	160.98	21.01	-58.6	-70.1	3.8	8.46e-01	0	48	104	0	87	14647
2026-01-16 11:52:24.02	161.01	21.15	-58.6	-70.1	3.8	8.46e-01	0	48	104	0	87	14630
2026-01-16 11:52:25.03	161.04	21.28	-58.6	-70.1	3.8	8.46e-01	0	48	104	0	87	14586
2026-01-16 11:52:26.04	161.07	21.42	-58.6	-70.1	3.8	8.46e-01	0	48	104	0	87	14607
2026-01-16 11:52:27.04	161.09	21.56	-58.6	-70.1	3.8	8.46e-01	0	48	104	0	87	14624
2026-01-16 11:52:28.05	161.12	21.70	-58.6	-70.1	3.8	8.46e-01	0	49	104	0	87	14605
2026-01-16 11:52:29.06	161.15	21.84	-58.6	-70.1	3.8	8.46e-01	0	49	104	0	87	14619
2026-01-16 11:52:30.07	161.18	21.99	-58.6	-70.1	3.8	8.45e-01	0	48	104	0	87	14596
2026-01-16 11:52:31.07	161.21	22.13	-58.6	-70.1	3.8	8.46e-01	0	49	104	0	87	14610
2026-01-16 11:52:32.08	161.24	22.27	-58.6	-70.1	3.8	8.46e-01	0	48	104	0	87	14614
2026-01-16 11:52:33.09	161.27	22.42	-58.6	-70.1	3.8	8.46e-01	0	48	104	0	87	14619
2026-01-16 11:52:34.10	161.30	22.56	-58.6	-70.1	3.8	8.47e-01	0	49	104	0	87	14598
2026-01-16 11:52:35.11	161.33	22.71	-58.6	-70.1	3.8	8.46e-01	0	48	104	0	87	14587
2026-01-16 11:52:36.12	161.37	22.85	-58.6	-70.1	3.8	8.46e-01	0	49	104	0	87	14617
2026-01-16 11:52:37.12	161.40	23.00	-58.6	-70.1	3.8	8.46e-01	0	49	104	0	87	14594
2026-01-16 11:52:38.13	161.43	23.15	-58.6	-70.1	3.8	8.47e-01	0	49	104	0	87	14603
2026-01-16 11:52:39.14	161.46	23.30	-58.6	-70.1	3.9	8.46e-01	0	48	104	0	87	14563
2026-01-16 11:52:40.15	161.49	23.45	-58.6	-70.1	3.8	8.45e-01	0	49	104	0	87	14655
2026-01-16 11:52:41.16	161.53	23.60	-58.6	-70.1	3.8	8.46e-01	0	48	104	0	87	14586
2026-01-16 11:52:42.17	161.56	23.75	-58.6	-70.1	3.8	8.47e-01	0	48	104	0	87	14598
2026-01-16 11:52:43.18	161.59	23.91	-58.6	-70.1	3.8	8.46e-01	0	49	104	0	87	14645
2026-01-16 11:52:44.19	161.62	24.06	-58.6	-70.1	3.8	8.45e-01	0	49	104	0	87	14639
2026-01-16 11:52:45.19	161.66	24.21	-58.6	-70.1	3.8	8.46e-01	0	49	104	0	87	14602
2026-01-16 11:52:46.20	161.69	24.37	-58.6	-70.1	3.8	8.47e-01	0	48	104	0	87	14637
2026-01-16 11:52:47.21	161.73	24.53	-58.6	-70.1	3.8	8.47e-01	0	49	104	0	87	14616
2026-01-16 11:52:48.22	161.76	24.68	-58.6	-70.1	3.8	8.46e-01	0	49	104	0	87	14601
2026-01-16 11:52:49.23	161.80	24.84	-58.6	-70.1	3.8	8.46e-01	0	48	104	0	87	14612
2026-01-16 11:52:50.24	161.83	25.00	-58.6	-70.1	3.8	8.47e-01	0	49	104	0	87	14633
2026-01-16 11:52:51.24	161.87	25.16	-58.6	-70.1	3.8	8.45e-01	0	49	104	0	87	14622
2026-01-16 11:52:52.26	161.90	25.32	-58.6	-70.1	3.8	8.47e-01	0	49	104	0	87	14608
2026-01-16 11:52:53.26	161.94	25.49	-58.6	-70.1	3.8	8.46e-01	0	49	104	0	87	14612
2026-01-16 11:52:54.27	161.97	25.65	-58.6	-70.1	3.8	8.46e-01	0	49	104	0	87	14625
2026-01-16 11:52:55.28	162.01	25.81	-58.6	-70.1	3.8	8.46e-01	0	49	104	0	87	14622
2026-01-16 11:52:56.29	162.05	25.98	-58.6	-70.1	3.8	8.45e-01	0	49	104	0	87	14610
2026-01-16 11:52:57.29	162.09	26.14	-58.6	-70.1	3.8	8.47e-01	0	49	104	0	87	14605
2026-01-16 11:52:58.30	162.12	26.31	-58.6	-70.1	3.8	8.46e-01	0	49	104	0	87	14635
2026-01-16 11:52:59.31	162.16	26.48	-58.6	-70.1	3.8	8.46e-01	0	49	104	0	87	14640
2026-01-16 11:53:00.32	162.20	26.65	-58.6	-70.1	3.8	8.46e-01	0	49	104	0	87	14628
2026-01-16 11:53:01.33	162.24	26.82	-58.6	-70.1	3.8	8.46e-01	0	49	104	0	87	14588
2026-01-16 11:53:02.34	162.28	26.99	-58.6	-70.1	3.8	8.46e-01	0	49	104	0	87	14657
2026-01-16 11:53:03.35	162.32	27.17	-58.6	-70.1	3.8	8.47e-01	0	49	104	0	87	14633
2026-01-16 11:53:04.35	162.36	27.34	-58.6	-70.1	3.8	8.45e-01	0	49	104	0	87	14612
2026-01-16 11:53:05.36	162.40	27.51	-58.6	-70.1	3.8	8.46e-01	0	49	104	0	87	14609
2026-01-16 11:53:06.37	162.44	27.69	-58.6	-70.1	3.8	8.46e-01	0	49	104	0	87	14562
2026-01-16 11:53:07.38	162.48	27.87	-58.6	-70.1	3.8	8.47e-01	0	49	104	0	87	14610
2026-01-16 11:53:08.39	162.52	28.04	-58.6	-70.1	3.8	8.46e-01	0	49	104	0	87	14626
2026-01-16 11:53:09.40	162.57	28.22	-58.6	-70.1	3.8	8.46e-01	0	49	104	0	87	14617
2026-01-16 11:53:10.40	162.61	28.40	-58.6	-70.1	3.8	8.46e-01	0	49	104	0	87	14611
2026-01-16 11:53:11.41	162.65	28.58	-58.6	-70.1	3.8	8.46e-01	0	49	104	0	87	14625
2026-01-16 11:53:12.42	162.69	28.77	-58.6	-70.1	3.8	8.46e-01	0	49	104	0	87	14623
2026-01-16 11:53:13.43	162.74	28.95	-58.6	-70.1	3.8	8.46e-01	0	49	104	0	87	14594
2026-01-16 11:53:14.44	162.78	29.14	-58.6	-70.1	3.8	8.46e-01	0	49	104	0	87	14605
2026-01-16 11:53:15.44	162.83	29.32	-58.6	-70.1	3.8	8.46e-01	0	49	104	0	87	14593
2026-01-16 11:53:16.45	162.87	29.51	-58.6	-70.1	3.8	8.46e-01	0	49	104	0	87	14584
2026-01-16 11:53:17.46	162.92	29.70	-58.6	-70.1	3.8	8.46e-01	0	49	104	0	87	14623
2026-01-16 11:53:18.47	162.96	29.89	-58.6	-70.1	3.8	8.45e-01	0	49	104	0	87	14592
2026-01-16 11:53:19.47	163.01	30.08	-58.6	-70.1	3.8	8.47e-01	0	49	104	0	87	14590
2026-01-16 11:53:20.48	163.06	30.27	-58.6	-70.1	3.8	8.46e-01	0	49	104	0	87	14605
2026-01-16 11:53:21.49	163.11	30.47	-58.6	-70.1	3.8	8.46e-01	0	49	104	0	87	14588
2026-01-16 11:53:22.50	163.16	30.66	-58.6	-70.1	3.8	8.48e-01	0	49	104	0	87	14659
2026-01-16 11:53:23.51	163.20	30.86	-58.6	-70.1	3.8	8.46e-01	0	49	104	0	87	14602
2026-01-16 11:53:24.51	163.25	31.05	-58.6	-70.1	3.8	8.46e-01	0	49	104	0	87	14618
2026-01-16 11:53:25.52	163.30	31.25	-58.6	-70.1	3.8	8.46e-01	0	49	104	0	87	14602
2026-01-16 11:53:26.53	163.35	31.45	-58.6	-70.1	3.8	8.46e-01	0	49	104	0	87	14596
2026-01-16 11:53:27.54	163.41	31.66	-58.6	-70.1	3.8	8.46e-01	0	49	104	0	87	14570
2026-01-16 11:53:28.56	163.46	31.86	-58.6	-70.1	3.8	8.47e-01	0	49	104	0	87	14599
2026-01-16 11:53:29.56	163.51	32.06	-58.6	-70.1	3.8	8.47e-01	0	49	104	0	87	14579
2026-01-16 11:53:30.57	163.56	32.27	-58.6	-70.1	3.8	8.47e-01	0	49	104	0	87	14577
2026-01-16 11:53:31.58	163.62	32.48	-58.6	-70.1	3.8	8.46e-01	0	49	104	0	87	14598
2026-01-16 11:53:32.59	163.67	32.69	-58.6	-70.1	3.8	8.47e-01	0	49	104	0	87	14619
2026-01-16 11:53:33.59	163.73	32.90	-58.6	-70.1	3.8	8.47e-01	0	49	104	0	87	14609
2026-01-16 11:53:34.60	163.78	33.11	-58.6	-70.1	3.8	8.47e-01	0	49	104	0	87	14613
2026-01-16 11:53:35.61	163.84	33.32	-58.6	-70.1	3.8	8.46e-01	0	49	104	0	87	14633
2026-01-16 11:53:36.62	163.89	33.54	-58.6	-70.1	3.8	8.46e-01	0	49	104	0	87	14602
2026-01-16 11:53:37.63	163.95	33.75	-58.6	-70.1	3.8	8.47e-01	0	49	104	0	87	14586
2026-01-16 11:53:38.64	164.01	33.97	-58.6	-70.1	3.8	8.45e-01	0	49	104	0	87	14617
2026-01-16 11:53:39.65	164.07	34.19	-58.6	-70.1	3.8	8.46e-01	0	49	104	0	87	14610
2026-01-16 11:53:40.65	164.13	34.41	-58.6	-70.1	3.8	8.46e-01	0	49	104	0	87	14586
2026-01-16 11:53:41.66	164.19	34.63	-58.6	-70.1	3.9	8.46e-01	0	49	104	0	87	14633
2026-01-16 11:53:42.67	164.25	34.86	-58.6	-70.1	3.8	8.45e-01	0	49	104	0	87	14640
2026-01-16 11:53:43.68	164.31	35.08	-58.6	-70.1	3.8	8.46e-01	0	49	104	0	87	14607
2026-01-16 11:53:44.69	164.38	35.31	-58.6	-70.1	3.8	8.46e-01	0	49	104	0	87	14621
2026-01-16 11:53:45.70	164.44	35.54	-58.6	-70.1	3.8	8.47e-01	0	49	104	0	87	14599
2026-01-16 11:53:46.71	164.51	35.77	-58.6	-70.1	3.8	8.47e-01	0	49	104	0	87	14565
2026-01-16 11:53:47.71	164.57	36.00	-58.6	-70.1	3.9	8.45e-01	0	49	104	0	87	14636
2026-01-16 11:53:48.72	164.64	36.23	-58.6	-70.1	3.8	8.45e-01	0	49	104	0	87	14588
2026-01-16 11:53:49.73	164.70	36.47	-58.6	-70.1	3.8	8.45e-01	0	49	104	0	87	14607
2026-01-16 11:53:50.74	164.77	36.70	-58.6	-70.1	3.8	8.46e-01	0	49	104	0	87	14646
2026-01-16 11:53:51.75	164.84	36.94	-58.6	-70.1	3.8	8.46e-01	0	49	104	0	87	14624
2026-01-16 11:53:52.76	164.91	37.18	-58.6	-70.1	3.8	8.46e-01	0	49	104	0	87	14619
2026-01-16 11:53:53.76	164.98	37.42	-58.6	-70.1	3.8	8.46e-01	0	49	104	0	87	14630
2026-01-16 11:53:54.77	165.06	37.67	-58.6	-70.1	3.8	8.47e-01	0	49	104	0	87	14625
2026-01-16 11:53:55.78	165.13	37.91	-58.6	-70.1	3.8	8.46e-01	0	49	104	0	87	14613
2026-01-16 11:53:56.79	165.20	38.16	-58.6	-70.1	3.8	8.46e-01	0	49	104	0	87	14569
2026-01-16 11:53:57.80	165.28	38.41	-58.6	-70.1	3.8	8.46e-01	0	49	104	0	87	14559
2026-01-16 11:53:58.81	165.36	38.66	-58.6	-70.1	3.8	8.46e-01	0	49	104	0	87	14577
2026-01-16 11:53:59.82	165.43	38.91	-58.6	-70.1	3.8	8.46e-01	0	49	104	0	87	14625
2026-01-16 11:54:00.83	165.51	39.17	-58.6	-70.1	3.8	8.46e-01	0	49	104	0	87	14617
2026-01-16 11:54:01.84	165.59	39.42	-58.6	-70.1	3.8	8.47e-01	0	49	104	0	87	14625
2026-01-16 11:54:02.84	165.67	39.68	-58.6	-70.1	3.8	8.47e-01	0	49	104	0	87	14602
2026-01-16 11:54:03.85	165.76	39.94	-58.6	-70.1	3.8	8.45e-01	0	49	104	0	87	14640
2026-01-16 11:54:04.86	165.84	40.20	-58.6	-70.1	3.8	8.45e-01	0	49	104	0	87	14621
2026-01-16 11:54:05.87	165.92	40.47	-58.6	-70.1	3.8	8.46e-01	0	49	104	0	87	14612
2026-01-16 11:54:06.88	166.01	40.73	-58.6	-70.1	3.8	8.46e-01	0	49	104	0	87	14611
2026-01-16 11:54:07.89	166.10	41.00	-58.6	-70.1	3.8	8.46e-01	0	49	104	0	87	14615
2026-01-16 11:54:08.90	166.19	41.27	-58.6	-70.1	3.8	8.45e-01	0	49	104	0	87	14589
2026-01-16 11:54:09.91	166.28	41.54	-58.6	-70.1	3.8	8.46e-01	0	49	104	0	87	14575
2026-01-16 11:54:10.91	166.37	41.81	-58.6	-70.1	3.8	8.47e-01	0	49	104	0	87	14598
2026-01-16 11:54:11.92	166.46	42.09	-58.6	-70.1	3.8	8.46e-01	0	49	104	0	87	14596
2026-01-16 11:54:12.93	166.56	42.36	-58.6	-70.1	3.8	8.47e-01	0	49	104	0	87	14589
2026-01-16 11:54:13.94	166.65	42.64	-58.6	-70.1	3.8	8.47e-01	0	49	104	0	87	14597
2026-01-16 11:54:14.95	166.75	42.92	-58.6	-70.1	3.8	8.45e-01	0	49	104	0	87	14575
2026-01-16 11:54:15.95	166.85	43.21	-58.6	-70.1	3.8	8.46e-01	0	49	104	0	87	14587
2026-01-16 11:54:16.96	166.95	43.49	-58.6	-70.1	3.8	8.46e-01	0	49	104	0	87	14608
2026-01-16 11:54:17.97	167.06	43.78	-58.6	-70.1	3.8	8.45e-01	0	49	104	0	87	14648
2026-01-16 11:54:18.98	167.16	44.07	-58.6	-70.1	3.8	8.46e-01	0	49	104	0	87	14585
2026-01-16 11:54:19.99	167.27	44.36	-58.6	-70.1	3.8	8.46e-01	0	49	104	0	87	14604
2026-01-16 11:54:21.00	167.38	44.65	-58.6	-70.1	3.8	8.45e-01	0	49	104	0	87	14622
2026-01-16 11:54:22.01	167.49	44.95	-58.6	-70.1	3.8	8.46e-01	0	49	104	0	87	14638
2026-01-16 11:54:23.01	167.60	45.24	-58.6	-70.1	3.8	8.46e-01	0	49	104	0	87	14586
2026-01-16 11:54:24.02	167.72	45.54	-58.6	-70.1	3.8	8.46e-01	0	49	104	0	87	14569
2026-01-16 11:54:25.03	167.83	45.85	-58.6	-70.1	3.8	8.46e-01	0	49	104	0	87	14617
2026-01-16 11:54:26.04	167.95	46.15	-58.6	-70.1	3.8	8.46e-01	0	50	104	0	87	14614
2026-01-16 11:54:27.05	168.07	46.46	-58.6	-70.1	3.8	8.47e-01	0	49	104	0	87	14605
2026-01-16 11:54:28.06	168.20	46.77	-58.6	-70.1	3.8	8.46e-01	0	50	104	0	87	14637
2026-01-16 11:54:29.07	168.32	47.08	-58.6	-70.1	3.8	8.46e-01	0	50	104	0	87	14612
2026-01-16 11:54:30.07	168.45	47.39	-58.6	-70.1	3.8	8.45e-01	0	49	104	0	87	14635
2026-01-16 11:54:31.08	168.58	47.70	-58.6	-70.1	3.8	8.46e-01	0	50	104	0	87	14620
2026-01-16 11:54:32.09	168.72	48.02	-58.6	-70.1	3.8	8.45e-01	0	49	104	0	87	14594
2026-01-16 11:54:33.10	168.85	48.34	-58.6	-70.1	3.8	8.46e-01	0	49	104	0	87	14546
2026-01-16 11:54:34.11	168.99	48.66	-58.6	-70.1	3.8	8.45e-01	0	50	104	0	87	14562
2026-01-16 11:54:35.12	169.14	48.98	-58.6	-70.1	3.8	8.46e-01	0	49	104	0	87	14587
2026-01-16 11:54:36.12	169.28	49.31	-58.6	-70.1	3.8	8.47e-01	0	49	104	0	87	14559
2026-01-16 11:54:37.13	169.43	49.64	-58.6	-70.1	3.8	8.46e-01	0	50	104	0	87	14612
2026-01-16 11:54:38.14	169.58	49.97	-58.6	-70.1	3.8	8.46e-01	0	49	104	0	87	14591
2026-01-16 11:54:39.15	169.73	50.30	-58.6	-70.1	3.8	8.48e-01	0	49	104	0	87	14581
2026-01-16 11:54:40.15	169.89	50.63	-58.6	-70.1	3.8	8.46e-01	0	49	104	0	87	14595
2026-01-16 11:54:41.16	170.05	50.97	-58.6	-70.1	3.8	8.46e-01	0	50	104	0	87	14675
2026-01-16 11:54:42.17	170.22	51.31	-58.6	-70.1	3.8	8.46e-01	0	49	104	0	87	14618
2026-01-16 11:54:43.18	170.39	51.65	-58.6	-70.1	3.8	8.46e-01	0	49	104	0	87	14591
2026-01-16 11:54:44.19	170.56	51.99	-58.6	-70.1	3.8	8.48e-01	0	49	104	0	87	14606
2026-01-16 11:54:45.20	170.73	52.34	-58.6	-70.1	3.8	8.47e-01	0	50	104	0	87	14615
2026-01-16 11:54:46.21	170.92	52.69	-58.6	-70.1	3.8	8.47e-01	0	49	104	0	87	14602
2026-01-16 11:54:47.21	171.10	53.03	-58.6	-70.1	3.8	8.46e-01	0	50	104	0	87	14598
2026-01-16 11:54:48.22	171.29	53.39	-58.6	-70.1	3.8	8.45e-01	0	49	104	0	87	14620
2026-01-16 11:54:49.23	171.48	53.74	-58.6	-70.1	3.8	8.47e-01	0	49	104	0	87	14581
2026-01-16 11:54:50.24	171.68	54.10	-58.6	-70.1	3.8	8.44e-01	0	49	104	0	87	14606
2026-01-16 11:54:51.25	171.88	54.46	-58.6	-70.1	3.8	8.47e-01	0	50	104	0	87	14579
2026-01-16 11:54:52.26	172.09	54.82	-58.6	-70.1	3.8	8.46e-01	0	49	104	0	87	14620
2026-01-16 11:54:53.26	172.30	55.18	-58.6	-70.1	3.8	8.45e-01	0	49	104	0	87	14597
2026-01-16 11:54:54.27	172.52	55.54	-58.6	-70.1	3.8	8.45e-01	0	49	104	0	87	14600
2026-01-16 11:54:55.28	172.75	55.91	-58.6	-70.1	3.8	8.45e-01	0	49	104	0	87	14598
2026-01-16 11:54:56.29	172.98	56.28	-58.6	-70.1	3.8	8.47e-01	0	50	104	0	87	14549
2026-01-16 11:54:57.29	173.21	56.65	-58.6	-70.1	3.8	8.46e-01	0	50	104	0	87	14584
2026-01-16 11:54:58.30	173.45	57.02	-58.6	-70.1	3.8	8.46e-01	0	49	104	0	87	14607
2026-01-16 11:54:59.31	173.70	57.39	-58.6	-70.1	3.8	8.45e-01	0	50	104	0	87	14604
2026-01-16 11:55:00.32	173.96	57.77	-58.6	-70.1	3.8	8.46e-01	0	49	104	0	87	14563
2026-01-16 11:55:01.33	174.22	58.15	-58.6	-70.1	3.8	8.46e-01	0	50	104	0	87	14628
2026-01-16 11:55:02.34	174.50	58.53	-58.6	-70.1	3.8	8.46e-01	0	49	104	0	87	14579
2026-01-16 11:55:03.35	174.78	58.91	-58.6	-70.1	3.8	8.46e-01	0	50	104	0	87	14588
2026-01-16 11:55:04.35	175.06	59.30	-58.6	-70.1	3.8	8.46e-01	0	50	104	0	87	14600
2026-01-16 11:55:05.36	175.36	59.68	-58.6	-70.1	3.8	8.46e-01	0	50	104	0	87	14582
2026-01-16 11:55:06.37	175.66	60.07	-58.6	-70.1	3.8	8.46e-01	0	50	104	0	87	14551
2026-01-16 11:55:07.38	175.97	60.46	-58.6	-70.1	3.8	8.47e-01	0	49	104	0	87	14569
2026-01-16 11:55:08.39	176.30	60.85	-58.6	-70.1	3.8	8.47e-01	0	50	104	0	87	14597
2026-01-16 11:55:09.40	176.63	61.25	-58.6	-70.1	3.8	8.46e-01	0	49	104	0	87	14561
2026-01-16 11:55:10.41	176.97	61.64	-58.6	-70.1	3.8	8.45e-01	0	50	104	0	87	14585
2026-01-16 11:55:11.42	177.33	62.04	-58.6	-70.1	3.8	8.45e-01	0	50	104	0	87	14661
2026-01-16 11:55:12.42	177.69	62.43	-58.6	-70.1	3.8	8.46e-01	0	50	104	0	87	14570
2026-01-16 11:55:13.44	178.07	62.83	-58.6	-70.1	3.8	8.46e-01	0	50	104	0	87	14609
2026-01-16 11:55:14.44	178.46	63.23	-58.6	-70.1	3.8	8.46e-01	0	50	104	0	87	14597
2026-01-16 11:55:15.45	178.86	63.63	-58.6	-70.1	3.8	8.47e-01	0	50	104	0	87	14589
2026-01-16 11:55:16.46	179.28	64.03	-58.6	-70.1	3.8	8.47e-01	0	49	104	0	87	14636
2026-01-16 11:55:17.47	179.72	64.43	-58.6	-70.1	3.8	8.46e-01	0	50	104	0	87	14589
2026-01-16 11:55:18.48	180.16	64.84	-58.6	-70.1	3.8	8.45e-01	0	50	104	0	87	14623
2026-01-16 11:55:19.49	180.63	65.24	-58.6	-70.0	3.8	8.47e-01	0	50	104	0	87	14538
2026-01-16 11:55:20.50	181.11	65.65	-58.6	-70.1	3.8	8.46e-01	0	50	104	0	87	14551
2026-01-16 11:55:21.51	181.61	66.05	-58.6	-70.0	3.8	8.46e-01	0	50	104	0	87	14540
2026-01-16 11:55:22.52	182.13	66.46	-58.6	-70.1	3.8	8.47e-01	0	50	104	0	87	14588
2026-01-16 11:55:23.53	182.67	66.87	-58.6	-70.1	3.8	8.46e-01	0	50	104	0	87	14567
2026-01-16 11:55:24.54	183.23	67.27	-58.6	-70.1	3.8	8.46e-01	0	50	104	0	87	14594
2026-01-16 11:55:25.55	183.81	67.68	-58.6	-70.1	3.8	8.46e-01	0	49	104	0	87	14606
2026-01-16 11:55:26.56	184.41	68.09	-58.6	-70.1	3.8	8.47e-01	0	50	104	0	87	14612
2026-01-16 11:55:27.56	185.03	68.49	-58.6	-70.1	3.8	8.47e-01	0	50	104	0	87	14566
2026-01-16 11:55:28.57	185.69	68.89	-58.6	-70.1	3.8	8.46e-01	0	50	104	0	87	14543
2026-01-16 11:55:29.58	186.37	69.30	-58.6	-70.1	3.8	8.47e-01	0	50	104	0	87	14593
2026-01-16 11:55:30.59	187.08	69.70	-58.6	-70.1	3.8	8.46e-01	0	50	104	0	87	14588
2026-01-16 11:55:31.60	187.83	70.10	-58.6	-70.1	3.8	8.47e-01	0	50	104	0	87	14586
2026-01-16 11:55:32.61	188.60	70.50	-58.6	-70.1	3.8	8.47e-01	0	50	104	0	87	14588
2026-01-16 11:55:33.62	189.41	70.90	-58.6	-70.1	3.8	8.47e-01	0	50	104	0	87	14546
2026-01-16 11:55:34.62	190.25	71.29	-58.6	-70.1	3.8	8.46e-01	0	50	104	0	87	14558
2026-01-16 11:55:35.63	191.13	71.69	-58.6	-70.1	3.8	8.46e-01	0	50	104	0	87	14557
2026-01-16 11:55:36.64	192.05	72.08	-58.6	-70.0	3.8	8.46e-01	0	50	104	0	87	14450
2026-01-16 11:55:37.65	193.02	72.46	-58.6	-70.0	3.8	8.46e-01	0	50	104	0	87	14510
2026-01-16 11:55:38.66	194.03	72.85	-58.6	-70.0	3.8	8.46e-01	0	50	104	0	87	14506
2026-01-16 11:55:39.66	195.09	73.23	-58.6	-70.1	3.8	8.45e-01	0	50	104	0	87	14559
2026-01-16 11:55:40.67	196.20	73.60	-58.6	-70.0	3.8	8.45e-01	0	50	104	0	87	14469
2026-01-16 11:55:41.68	197.36	73.97	-58.5	-69.7	3.8	8.47e-01	0	50	104	0	87	13926
2026-01-16 11:55:42.69	198.59	74.34	-58.6	-70.0	3.8	8.47e-01	0	50	104	0	87	14515
2026-01-16 11:55:43.69	199.86	74.69	-58.6	-69.9	3.8	8.46e-01	0	50	104	0	87	14350
2026-01-16 11:55:44.70	201.20	75.05	-58.5	-69.6	3.8	8.46e-01	0	49	104	0	87	13855
2026-01-16 11:55:45.71	202.62	75.39	-58.6	-69.9	3.8	8.46e-01	0	50	104	0	87	14367
2026-01-16 11:55:46.72	204.10	75.73	-58.6	-70.1	3.8	8.46e-01	0	50	104	0	87	14596
2026-01-16 11:55:47.73	205.66	76.06	-58.6	-70.0	3.8	8.45e-01	0	50	104	0	87	14505
2026-01-16 11:55:48.74	207.29	76.37	-58.6	-70.0	3.8	8.46e-01	0	50	104	0	87	14534
2026-01-16 11:55:49.75	209.00	76.68	-58.6	-70.1	3.8	8.46e-01	0	50	104	0	87	14560
2026-01-16 11:55:50.76	210.79	76.98	-58.6	-70.0	3.8	8.46e-01	0	50	104	0	87	14533
2026-01-16 11:55:51.77	212.67	77.26	-58.6	-70.1	3.8	8.46e-01	0	50	104	0	87	14547
2026-01-16 11:55:52.77	214.61	77.53	-58.6	-69.9	3.8	8.45e-01	0	50	104	0	87	14357
2026-01-16 11:55:53.78	216.66	77.79	-58.5	-69.7	3.8	8.47e-01	0	50	104	0	87	13934
2026-01-16 11:55:54.79	218.80	78.03	-58.5	-69.7	3.8	8.46e-01	0	49	104	0	87	13958
2026-01-16 11:55:55.80	221.02	78.25	-58.6	-70.0	3.8	8.46e-01	0	50	104	0	87	14535
2026-01-16 11:55:56.81	223.33	78.46	-58.6	-70.0	3.8	8.46e-01	0	50	104	0	87	14491
2026-01-16 11:55:57.82	225.72	78.65	-58.6	-70.0	3.8	8.47e-01	0	50	104	0	87	14524
2026-01-16 11:55:58.83	228.19	78.82	-58.6	-70.1	3.8	8.45e-01	0	50	104	0	87	14561
2026-01-16 11:55:59.84	230.73	78.97	-58.6	-70.1	3.8	8.45e-01	0	50	104	0	87	14640
2026-01-16 11:56:00.85	233.33	79.09	-58.6	-70.0	3.8	8.46e-01	0	50	104	0	87	14540
2026-01-16 11:56:01.86	236.00	79.20	-58.6	-69.9	3.8	8.46e-01	0	50	104	0	87	14283
2026-01-16 11:56:02.87	238.71	79.28	-58.5	-69.8	3.8	8.46e-01	0	50	104	0	87	14054
2026-01-16 11:56:03.88	241.45	79.34	-58.6	-70.0	3.8	8.46e-01	0	50	104	0	87	14404
2026-01-16 11:56:04.89	244.22	79.37	-58.6	-70.1	3.8	8.44e-01	0	50	104	0	87	14627
2026-01-16 11:56:05.90	247.00	79.38	-58.6	-70.0	3.8	8.44e-01	0	50	104	0	87	14404
2026-01-16 11:56:06.90	249.75	79.36	-58.5	-69.6	3.8	8.47e-01	0	50	104	0	87	13791
2026-01-16 11:56:07.91	252.51	79.32	-58.5	-69.6	3.8	8.46e-01	0	50	104	0	87	13782
2026-01-16 11:56:08.92	255.25	79.26	-58.6	-69.9	3.8	8.46e-01	0	50	104	0	87	14287
2026-01-16 11:56:09.93	257.94	79.17	-58.6	-69.9	3.8	8.46e-01	0	50	104	0	87	14293
2026-01-16 11:56:10.94	260.59	79.06	-58.6	-69.8	3.8	8.46e-01	0	50	104	0	87	14147
2026-01-16 11:56:11.95	263.18	78.93	-58.6	-69.9	3.8	8.46e-01	0	50	104	0	87	14294
2026-01-16 11:56:12.96	265.70	78.77	-58.6	-69.9	3.8	8.47e-01	0	50	104	0	87	14365
2026-01-16 11:56:13.97	268.14	78.60	-58.6	-69.9	3.8	8.45e-01	0	50	104	0	87	14299
2026-01-16 11:56:14.97	270.48	78.41	-58.6	-69.9	3.8	8.47e-01	0	50	104	0	87	14254
2026-01-16 11:56:15.98	272.77	78.19	-58.6	-69.8	3.8	8.46e-01	0	50	104	0	87	14178
2026-01-16 11:56:16.99	274.97	77.96	-58.6	-69.9	3.8	8.45e-01	0	50	104	0	87	14259
2026-01-16 11:56:18.00	277.08	77.72	-58.6	-70.0	3.8	8.46e-01	0	50	104	0	87	14455
2026-01-16 11:56:19.01	279.10	77.46	-58.6	-70.0	3.8	8.46e-01	0	50	104	0	87	14503
2026-01-16 11:56:20.02	281.04	77.18	-58.6	-70.0	3.8	8.46e-01	0	50	104	0	87	14521
2026-01-16 11:56:21.03	282.89	76.90	-58.6	-70.0	3.8	8.47e-01	0	50	104	0	87	14463
2026-01-16 11:56:22.04	284.66	76.60	-58.6	-69.8	3.8	8.45e-01	0	50	104	0	87	14104
2026-01-16 11:56:23.04	286.33	76.29	-58.5	-69.3	3.8	8.46e-01	0	50	104	0	87	13319
2026-01-16 11:56:24.05	287.94	75.97	-58.5	-68.9	3.8	8.46e-01	0	50	104	0	87	12775
2026-01-16 11:56:25.06	289.47	75.64	-58.5	-69.2	3.8	8.45e-01	0	50	104	0	87	13114
2026-01-16 11:56:26.07	290.94	75.30	-58.5	-69.5	3.8	8.48e-01	0	50	104	0	87	13701
2026-01-16 11:56:27.08	292.33	74.95	-58.5	-69.7	3.8	8.46e-01	0	50	104	0	87	13901
2026-01-16 11:56:28.09	293.66	74.60	-58.6	-69.8	3.8	8.46e-01	0	50	104	0	87	14198
2026-01-16 11:56:29.10	294.92	74.24	-58.6	-70.0	3.8	8.48e-01	0	50	104	0	87	14447
2026-01-16 11:56:30.11	296.13	73.87	-58.6	-70.0	3.8	8.46e-01	0	50	104	0	87	14508
2026-01-16 11:56:31.12	297.28	73.50	-58.6	-70.1	3.8	8.47e-01	0	50	104	0	87	14579
2026-01-16 11:56:32.12	298.37	73.12	-58.6	-70.1	3.8	8.46e-01	0	50	104	0	87	14590
2026-01-16 11:56:33.13	299.41	72.74	-58.6	-70.1	3.8	8.46e-01	0	50	104	0	87	14547
2026-01-16 11:56:34.14	300.41	72.36	-58.6	-70.1	3.9	8.48e-01	0	50	104	0	87	14583
2026-01-16 11:56:35.15	301.37	71.97	-58.6	-70.0	3.8	8.45e-01	0	50	104	0	87	14499
2026-01-16 11:56:36.16	302.28	71.58	-58.6	-70.0	3.8	8.46e-01	0	50	104	0	87	14445
2026-01-16 11:56:37.16	303.14	71.19	-58.6	-70.1	3.9	8.46e-01	0	50	104	0	87	14560
2026-01-16 11:56:38.17	303.98	70.79	-58.6	-70.1	3.8	8.46e-01	0	50	104	0	87	14547
2026-01-16 11:56:39.18	304.78	70.39	-58.6	-70.0	3.8	8.46e-01	0	50	104	0	87	14383
2026-01-16 11:56:40.19	305.54	69.99	-58.5	-69.8	3.8	8.46e-01	0	50	104	0	87	14086
2026-01-16 11:56:41.20	306.27	69.59	-58.6	-69.8	3.8	8.46e-01	0	50	104	0	87	14065
2026-01-16 11:56:42.21	306.98	69.19	-58.6	-69.8	3.8	8.47e-01	0	50	104	0	87	14049
2026-01-16 11:56:43.21	307.64	68.79	-58.5	-69.6	3.8	8.47e-01	0	50	104	0	87	13803
2026-01-16 11:56:44.22	308.29	68.39	-58.5	-69.5	3.8	8.47e-01	0	50	104	0	87	13694
2026-01-16 11:56:45.23	308.91	67.98	-58.6	-69.7	3.8	8.44e-01	0	50	104	0	87	13999
2026-01-16 11:56:46.24	309.51	67.57	-58.6	-70.1	3.8	8.45e-01	0	50	104	0	87	14541
2026-01-16 11:56:47.25	310.08	67.17	-58.6	-70.1	3.8	8.46e-01	0	50	104	0	87	14552
2026-01-16 11:56:48.25	310.63	66.77	-58.6	-70.0	3.8	8.46e-01	0	50	104	0	87	14449
2026-01-16 11:56:49.26	311.16	66.36	-58.6	-70.0	3.8	8.48e-01	0	50	104	0	87	14505
2026-01-16 11:56:50.27	311.68	65.96	-58.6	-70.1	3.8	8.46e-01	0	50	104	0	87	14619
2026-01-16 11:56:51.28	312.17	65.55	-58.6	-70.1	3.8	8.48e-01	0	50	104	0	87	14626
2026-01-16 11:56:52.29	312.65	65.15	-58.6	-70.1	3.8	8.46e-01	0	50	104	0	87	14559
2026-01-16 11:56:53.30	313.11	64.74	-58.6	-70.1	3.8	8.46e-01	0	50	104	0	87	14572
2026-01-16 11:56:54.30	313.55	64.34	-58.6	-70.1	3.8	8.46e-01	0	50	104	0	87	14555
2026-01-16 11:56:55.31	313.98	63.94	-58.6	-70.0	3.8	8.46e-01	0	50	104	0	87	14485
2026-01-16 11:56:56.32	314.39	63.54	-58.6	-70.1	3.8	8.46e-01	0	50	104	0	87	14613
2026-01-16 11:56:57.33	314.79	63.14	-58.6	-70.1	3.8	8.45e-01	0	50	104	0	87	14575
2026-01-16 11:56:58.34	315.18	62.74	-58.6	-70.1	3.8	8.45e-01	0	50	104	0	87	14585
2026-01-16 11:56:59.35	315.55	62.34	-58.6	-70.1	3.8	8.46e-01	0	50	104	0	87	14551
2026-01-16 11:57:00.35	315.91	61.95	-58.6	-70.0	3.8	8.47e-01	0	50	104	0	87	14540
2026-01-16 11:57:01.36	316.27	61.56	-58.6	-70.1	3.8	8.45e-01	0	50	104	0	87	14591
2026-01-16 11:57:02.37	316.61	61.16	-58.6	-70.1	3.8	8.47e-01	0	50	104	0	87	14564
2026-01-16 11:57:03.38	316.94	60.77	-58.6	-70.1	3.8	8.47e-01	0	50	104	0	87	14552
2026-01-16 11:57:04.39	317.26	60.38	-58.6	-70.1	3.8	8.46e-01	0	50	104	0	87	14646
2026-01-16 11:57:05.40	317.57	59.99	-58.6	-70.1	3.8	8.45e-01	0	50	104	0	87	14608
2026-01-16 11:57:06.41	317.87	59.61	-58.6	-70.1	3.8	8.45e-01	0	50	104	0	87	14585
2026-01-16 11:57:07.41	318.16	59.22	-58.6	-70.1	3.8	8.46e-01	0	50	104	0	87	14580
2026-01-16 11:57:08.42	318.45	58.84	-58.6	-70.1	3.8	8.46e-01	0	50	104	0	87	14602
2026-01-16 11:57:09.43	318.72	58.46	-58.6	-70.1	3.8	8.47e-01	0	50	104	0	87	14558
2026-01-16 11:57:10.44	318.99	58.08	-58.6	-70.1	3.8	8.47e-01	0	50	104	0	87	14604
2026-01-16 11:57:11.45	319.25	57.70	-58.6	-70.1	3.8	8.46e-01	0	50	104	0	87	14592
2026-01-16 11:57:12.46	319.51	57.33	-58.6	-70.1	3.8	8.46e-01	0	50	104	0	87	14582
2026-01-16 11:57:13.47	319.76	56.95	-58.6	-70.1	3.8	8.46e-01	0	50	104	0	87	14626
2026-01-16 11:57:14.48	320.00	56.58	-58.6	-70.1	3.8	8.46e-01	0	50	104	0	87	14578
2026-01-16 11:57:15.49	320.23	56.21	-58.6	-70.1	3.8	8.46e-01	0	50	104	0	87	14609
2026-01-16 11:57:16.49	320.46	55.85	-58.6	-70.1	3.8	8.47e-01	0	50	104	0	87	14625
2026-01-16 11:57:17.50	320.68	55.48	-58.6	-70.1	3.8	8.46e-01	0	50	104	0	87	14555
2026-01-16 11:57:18.51	320.90	55.12	-58.6	-70.1	3.8	8.45e-01	0	50	104	0	87	14595
2026-01-16 11:57:19.52	321.11	54.75	-58.6	-70.1	3.8	8.46e-01	0	50	104	0	87	14634
2026-01-16 11:57:20.53	321.32	54.39	-58.6	-70.1	3.8	8.46e-01	0	50	104	0	87	14631
2026-01-16 11:57:21.54	321.52	54.04	-58.6	-70.1	3.8	8.46e-01	0	50	104	0	87	14576
2026-01-16 11:57:22.55	321.72	53.68	-58.6	-70.1	3.8	8.45e-01	0	50	104	0	87	14623
2026-01-16 11:57:23.56	321.91	53.33	-58.6	-70.1	3.8	8.46e-01	0	50	104	0	87	14607
2026-01-16 11:57:24.56	322.10	52.98	-58.6	-70.1	3.8	8.46e-01	0	50	104	0	87	14635
2026-01-16 11:57:25.57	322.28	52.63	-58.6	-70.1	3.8	8.45e-01	0	50	104	0	87	14608
2026-01-16 11:57:26.58	322.46	52.29	-58.6	-70.1	3.8	8.47e-01	0	50	104	0	87	14642
2026-01-16 11:57:27.59	322.64	51.94	-58.6	-70.1	3.8	8.46e-01	0	50	104	0	87	14626
2026-01-16 11:57:28.60	322.81	51.60	-58.6	-70.1	3.8	8.45e-01	0	50	104	0	87	14618
2026-01-16 11:57:29.60	322.98	51.26	-58.6	-70.1	3.8	8.46e-01	0	50	104	0	87	14607
2026-01-16 11:57:30.61	323.14	50.92	-58.6	-70.1	3.8	8.45e-01	0	50	104	0	87	14566
2026-01-16 11:57:31.62	323.30	50.59	-58.6	-70.1	3.8	8.45e-01	0	50	104	0	87	14603
2026-01-16 11:57:32.63	323.46	50.26	-58.6	-70.1	3.8	8.46e-01	0	50	104	0	87	14661
2026-01-16 11:57:33.64	323.61	49.92	-58.6	-70.1	3.8	8.45e-01	0	50	104	0	87	14595
2026-01-16 11:57:34.65	323.76	49.60	-58.6	-70.1	3.8	8.47e-01	0	50	104	0	87	14601
2026-01-16 11:57:35.66	323.91	49.27	-58.6	-70.1	3.8	8.46e-01	0	50	104	0	87	14612
2026-01-16 11:57:36.66	324.05	48.95	-58.6	-70.1	3.8	8.46e-01	0	50	104	0	87	14635
2026-01-16 11:57:37.67	324.19	48.62	-58.6	-70.1	3.8	8.46e-01	0	50	104	0	87	14633
2026-01-16 11:57:38.68	324.33	48.30	-58.6	-70.1	3.8	8.46e-01	0	50	104	0	87	14616
2026-01-16 11:57:39.69	324.47	47.99	-58.6	-70.1	3.8	8.46e-01	0	50	104	0	87	14631
2026-01-16 11:57:40.70	324.60	47.67	-58.6	-70.1	3.8	8.46e-01	0	50	104	0	87	14661
2026-01-16 11:57:41.70	324.73	47.36	-58.6	-70.1	3.8	8.47e-01	0	50	104	0	87	14618
2026-01-16 11:57:42.71	324.86	47.05	-58.6	-70.1	3.8	8.46e-01	0	50	104	0	87	14652
2026-01-16 11:57:43.72	324.99	46.74	-58.6	-70.1	3.8	8.46e-01	0	50	104	0	87	14626
2026-01-16 11:57:44.73	325.11	46.43	-58.6	-70.1	3.8	8.46e-01	0	50	104	0	87	14692
2026-01-16 11:57:45.74	325.23	46.13	-58.6	-70.1	3.8	8.46e-01	0	50	104	0	87	14661
2026-01-16 11:57:46.75	325.35	45.82	-58.6	-70.1	3.8	8.45e-01	0	50	104	0	87	14595
2026-01-16 11:57:47.76	325.47	45.52	-58.6	-70.1	3.8	8.46e-01	0	50	104	0	87	14618
2026-01-16 11:57:48.76	325.58	45.23	-58.6	-70.1	3.8	8.46e-01	0	50	104	0	87	14617
2026-01-16 11:57:49.77	325.69	44.93	-58.6	-70.1	3.8	8.46e-01	0	50	104	0	87	14631
2026-01-16 11:57:50.78	325.80	44.63	-58.6	-70.1	3.8	8.46e-01	0	50	104	0	87	14622
2026-01-16 11:57:51.79	325.91	44.34	-58.6	-70.1	3.8	8.46e-01	0	50	104	0	87	14637
2026-01-16 11:57:52.80	326.02	44.05	-58.6	-70.1	3.8	8.45e-01	0	50	104	0	87	14617
2026-01-16 11:57:53.81	326.12	43.76	-58.6	-70.1	3.8	8.46e-01	0	50	104	0	87	14602
2026-01-16 11:57:54.82	326.23	43.48	-58.6	-70.1	3.8	8.47e-01	0	50	104	0	87	14657
2026-01-16 11:57:55.82	326.33	43.20	-58.6	-70.1	3.8	8.46e-01	0	50	104	0	87	14623
2026-01-16 11:57:56.83	326.43	42.91	-58.6	-70.1	3.8	8.45e-01	0	50	104	0	87	14641
2026-01-16 11:57:57.84	326.53	42.63	-58.6	-70.1	3.8	8.46e-01	0	50	104	0	87	14649
2026-01-16 11:57:58.85	326.62	42.35	-58.6	-70.1	3.8	8.46e-01	0	50	104	0	87	14595
2026-01-16 11:57:59.86	326.72	42.08	-58.6	-70.1	3.8	8.46e-01	0	50	104	0	87	14617
2026-01-16 11:58:00.87	326.81	41.80	-58.6	-70.1	3.8	8.45e-01	0	50	104	0	87	14557
2026-01-16 11:58:01.88	326.90	41.53	-58.6	-70.1	3.8	8.46e-01	0	50	104	0	87	14576
2026-01-16 11:58:02.89	326.99	41.26	-58.6	-70.1	3.8	8.45e-01	0	50	104	0	87	14608
2026-01-16 11:58:03.90	327.08	40.99	-58.6	-70.1	3.8	8.46e-01	0	50	104	0	87	14608
2026-01-16 11:58:04.90	327.17	40.73	-58.6	-70.1	3.8	8.46e-01	0	50	104	0	87	14592
2026-01-16 11:58:05.91	327.25	40.46	-58.6	-70.1	3.8	8.47e-01	0	50	104	0	87	14582
2026-01-16 11:58:06.92	327.34	40.20	-58.6	-70.1	3.8	8.46e-01	0	50	104	0	87	14617
2026-01-16 11:58:07.93	327.42	39.94	-58.6	-70.1	3.8	8.46e-01	0	50	104	0	87	14649
2026-01-16 11:58:08.94	327.50	39.68	-58.6	-70.1	3.8	8.47e-01	0	50	104	0	87	14597
2026-01-16 11:58:09.95	327.59	39.42	-58.6	-70.1	3.8	8.46e-01	0	50	104	0	87	14635
2026-01-16 11:58:10.96	327.67	39.17	-58.6	-70.1	3.8	8.46e-01	0	50	104	0	87	14608
2026-01-16 11:58:11.96	327.74	38.92	-58.6	-70.1	3.8	8.45e-01	0	50	104	0	87	14607
2026-01-16 11:58:12.97	327.82	38.67	-58.6	-70.1	3.8	8.46e-01	0	50	104	0	87	14647
2026-01-16 11:58:13.98	327.90	38.42	-58.6	-70.1	3.8	8.45e-01	0	50	104	0	87	14577
2026-01-16 11:58:14.99	327.97	38.17	-58.6	-70.1	3.8	8.45e-01	0	50	104	0	87	14632
2026-01-16 11:58:15.99	328.05	37.93	-58.6	-70.1	3.8	8.46e-01	0	50	104	0	87	14597
2026-01-16 11:58:17.00	328.12	37.68	-58.6	-70.1	3.8	8.45e-01	0	50	104	0	87	14642
2026-01-16 11:58:18.01	328.19	37.44	-58.6	-70.1	3.8	8.46e-01	0	50	104	0	87	14591
2026-01-16 11:58:19.02	328.26	37.20	-58.6	-70.1	3.8	8.47e-01	0	50	104	0	87	14632
2026-01-16 11:58:20.03	328.33	36.96	-58.6	-70.1	3.8	8.46e-01	0	50	104	0	87	14604
2026-01-16 11:58:21.03	328.40	36.72	-58.6	-70.1	3.8	8.47e-01	0	50	104	0	87	14617
2026-01-16 11:58:22.04	328.47	36.49	-58.6	-70.1	3.8	8.46e-01	0	50	104	0	87	14599
2026-01-16 11:58:23.05	328.54	36.25	-58.6	-70.1	3.8	8.46e-01	0	50	104	0	87	14695
2026-01-16 11:58:24.06	328.61	36.02	-58.6	-70.1	3.8	8.46e-01	0	50	104	0	87	14623
2026-01-16 11:58:25.07	328.67	35.79	-58.6	-70.1	3.8	8.46e-01	0	50	104	0	87	14643
2026-01-16 11:58:26.08	328.74	35.56	-58.6	-70.1	3.8	8.46e-01	0	50	104	0	87	14643
2026-01-16 11:58:27.09	328.80	35.33	-58.6	-70.1	3.8	8.47e-01	0	50	104	0	87	14599
2026-01-16 11:58:28.10	328.86	35.10	-58.6	-70.1	3.8	8.47e-01	0	50	104	0	87	14666
2026-01-16 11:58:29.10	328.92	34.88	-58.6	-70.1	3.8	8.46e-01	0	50	104	0	87	14601
2026-01-16 11:58:30.11	328.99	34.66	-58.6	-70.1	3.8	8.47e-01	0	50	104	0	87	14613
2026-01-16 11:58:31.12	329.05	34.44	-58.6	-70.1	3.8	8.46e-01	0	50	104	0	87	14657
2026-01-16 11:58:32.13	329.11	34.22	-58.6	-70.1	3.8	8.48e-01	0	50	104	0	87	14611
2026-01-16 11:58:33.14	329.17	34.00	-58.6	-70.1	3.8	8.46e-01	0	50	104	0	87	14602
2026-01-16 11:58:34.15	329.22	33.78	-58.6	-70.1	3.8	8.46e-01	0	50	104	0	87	14612
2026-01-16 11:58:35.16	329.28	33.57	-58.6	-70.1	3.8	8.47e-01	0	50	104	0	87	14637
2026-01-16 11:58:36.16	329.34	33.35	-58.6	-70.1	3.8	8.46e-01	0	50	104	0	87	14608
2026-01-16 11:58:37.17	329.40	33.14	-58.6	-70.1	3.8	8.46e-01	0	50	104	0	87	14622
2026-01-16 11:58:38.18	329.45	32.93	-58.6	-70.1	3.8	8.46e-01	0	50	104	0	87	14611
2026-01-16 11:58:39.19	329.51	32.72	-58.6	-70.1	3.9	8.46e-01	0	50	104	0	87	14598
2026-01-16 11:58:40.20	329.56	32.51	-58.6	-70.1	3.8	8.46e-01	0	50	104	0	87	14597
2026-01-16 11:58:41.21	329.62	32.31	-58.6	-70.1	3.8	8.46e-01	0	50	104	0	87	14630
2026-01-16 11:58:42.22	329.67	32.10	-58.6	-70.1	3.8	8.44e-01	0	50	104	0	87	14667
2026-01-16 11:58:43.23	329.72	31.90	-58.6	-70.1	3.9	8.47e-01	0	50	104	0	87	14642
2026-01-16 11:58:44.24	329.77	31.69	-58.6	-70.1	3.8	8.46e-01	0	50	104	0	87	14588
2026-01-16 11:58:45.25	329.82	31.49	-58.6	-70.1	3.8	8.46e-01	0	50	104	0	87	14665
2026-01-16 11:58:46.25	329.87	31.29	-58.6	-70.1	3.8	8.46e-01	0	50	104	0	87	14639
2026-01-16 11:58:47.26	329.92	31.10	-58.6	-70.1	3.8	8.47e-01	0	50	104	0	87	14620
2026-01-16 11:58:48.27	329.97	30.90	-58.6	-70.1	3.8	8.46e-01	0	50	104	0	87	14584
2026-01-16 11:58:49.28	330.02	30.70	-58.6	-70.1	3.8	8.46e-01	0	50	104	0	87	14582
2026-01-16 11:58:50.29	330.07	30.51	-58.6	-70.1	3.8	8.47e-01	0	50	104	0	87	14613
2026-01-16 11:58:51.29	330.12	30.32	-58.6	-70.1	3.8	8.46e-01	0	50	104	0	87	14608
2026-01-16 11:58:52.30	330.17	30.13	-58.6	-70.1	3.8	8.45e-01	0	50	104	0	87	14615
2026-01-16 11:58:53.31	330.21	29.93	-58.6	-70.1	3.8	8.46e-01	0	50	104	0	87	14637
2026-01-16 11:58:54.32	330.26	29.74	-58.6	-70.1	3.8	8.46e-01	0	50	104	0	87	14627
2026-01-16 11:58:55.33	330.31	29.56	-58.6	-70.1	3.8	8.46e-01	0	50	104	0	87	14603
2026-01-16 11:58:56.34	330.35	29.37	-58.6	-70.1	3.8	8.46e-01	0	50	104	0	87	14650
2026-01-16 11:58:57.35	330.40	29.18	-58.6	-70.1	3.8	8.46e-01	0	50	104	0	87	14624
2026-01-16 11:58:58.36	330.44	29.00	-58.6	-70.1	3.8	8.46e-01	0	50	104	0	87	14651
2026-01-16 11:58:59.37	330.49	28.82	-58.6	-70.1	3.8	8.46e-01	0	50	104	0	87	14612
2026-01-16 11:59:00.38	330.53	28.63	-58.6	-70.1	3.8	8.47e-01	0	50	104	0	87	14565
2026-01-16 11:59:01.38	330.57	28.45	-58.6	-70.1	3.8	8.46e-01	0	50	104	0	87	14597
2026-01-16 11:59:02.39	330.62	28.27	-58.6	-70.1	3.8	8.46e-01	0	50	104	0	87	14633
2026-01-16 11:59:03.40	330.66	28.09	-58.6	-70.1	3.8	8.47e-01	0	50	104	0	87	14617
2026-01-16 11:59:04.41	330.70	27.92	-58.6	-70.1	3.8	8.46e-01	0	50	104	0	87	14632
2026-01-16 11:59:05.41	330.74	27.74	-58.6	-70.1	3.8	8.45e-01	0	50	104	0	87	14619
2026-01-16 11:59:06.42	330.78	27.57	-58.6	-70.1	3.8	8.46e-01	0	50	104	0	87	14658
2026-01-16 11:59:07.43	330.82	27.39	-58.6	-70.1	3.8	8.46e-01	0	50	104	0	87	14653
2026-01-16 11:59:08.44	330.86	27.22	-58.6	-70.1	3.8	8.46e-01	0	50	104	0	87	14663
2026-01-16 11:59:09.45	330.90	27.05	-58.6	-70.1	3.8	8.46e-01	0	50	104	0	87	14616
2026-01-16 11:59:10.46	330.94	26.88	-58.6	-70.1	3.8	8.46e-01	0	50	104	0	87	14598
2026-01-16 11:59:11.47	330.98	26.71	-58.6	-70.1	3.8	8.47e-01	0	50	104	0	87	14616
2026-01-16 11:59:12.47	331.02	26.54	-58.6	-70.1	3.8	8.46e-01	0	50	104	0	87	14588
2026-01-16 11:59:13.48	331.06	26.37	-58.6	-70.1	3.8	8.45e-01	0	50	104	0	87	14613
2026-01-16 11:59:14.49	331.10	26.20	-58.6	-70.1	3.8	8.46e-01	0	50	104	0	87	14581
2026-01-16 11:59:15.50	331.14	26.04	-58.6	-70.1	3.8	8.47e-01	0	50	104	0	87	14619
2026-01-16 11:59:16.51	331.17	25.87	-58.6	-70.1	3.8	8.47e-01	0	50	104	0	87	14650
2026-01-16 11:59:17.52	331.21	25.71	-58.6	-70.1	3.8	8.46e-01	0	50	104	0	87	14651
2026-01-16 11:59:18.53	331.25	25.55	-58.6	-70.1	3.8	8.46e-01	0	50	104	0	87	14602
2026-01-16 11:59:19.53	331.28	25.39	-58.6	-70.1	3.8	8.45e-01	0	50	104	0	87	14600
2026-01-16 11:59:20.54	331.32	25.23	-58.6	-70.1	3.8	8.47e-01	0	50	104	0	87	14629
2026-01-16 11:59:21.55	331.36	25.07	-58.6	-70.1	3.8	8.45e-01	0	50	104	0	87	14675
2026-01-16 11:59:22.56	331.39	24.91	-58.6	-70.1	3.8	8.47e-01	0	50	104	0	87	14668
2026-01-16 11:59:23.57	331.43	24.75	-58.6	-70.1	3.8	8.45e-01	0	50	104	0	87	14658
2026-01-16 11:59:24.58	331.46	24.59	-58.6	-70.1	3.8	8.46e-01	0	50	104	0	87	14607
2026-01-16 11:59:25.58	331.50	24.44	-58.6	-70.1	3.8	8.46e-01	0	50	104	0	87	14563
2026-01-16 11:59:26.59	331.53	24.28	-58.6	-70.1	3.8	8.47e-01	0	50	104	0	87	14586
2026-01-16 11:59:27.60	331.56	24.13	-58.6	-70.1	3.8	8.47e-01	0	50	104	0	87	14637
2026-01-16 11:59:28.61	331.60	23.97	-58.6	-70.1	3.8	8.45e-01	0	50	104	0	87	14619
2026-01-16 11:59:29.61	331.63	23.82	-58.6	-70.1	3.8	8.47e-01	0	50	104	0	87	14601
2026-01-16 11:59:30.62	331.66	23.67	-58.6	-70.1	3.8	8.46e-01	0	50	104	0	87	14588
2026-01-16 11:59:31.63	331.70	23.52	-58.6	-70.1	3.8	8.46e-01	0	50	104	0	87	14630
2026-01-16 11:59:32.64	331.73	23.37	-58.6	-70.1	3.8	8.45e-01	0	50	104	0	87	14633
2026-01-16 11:59:33.65	331.76	23.22	-58.6	-70.1	3.8	8.45e-01	0	50	104	0	87	14625
2026-01-16 11:59:34.66	331.79	23.07	-58.6	-70.1	3.8	8.47e-01	0	50	104	0	87	14619
2026-01-16 11:59:35.66	331.83	22.93	-58.6	-70.1	3.8	8.46e-01	0	50	104	0	87	14636
2026-01-16 11:59:36.67	331.86	22.78	-58.6	-70.1	3.8	8.45e-01	0	50	104	0	87	14649
2026-01-16 11:59:37.68	331.89	22.63	-58.6	-70.1	3.8	8.46e-01	0	50	104	0	87	14636
2026-01-16 11:59:38.69	331.92	22.49	-58.6	-70.1	3.8	8.47e-01	0	50	104	0	87	14648
2026-01-16 11:59:39.70	331.95	22.35	-58.6	-70.1	3.8	8.46e-01	0	50	104	0	87	14621
2026-01-16 11:59:40.71	331.98	22.20	-58.6	-70.1	3.8	8.46e-01	0	50	104	0	87	14619
2026-01-16 11:59:41.71	332.01	22.06	-58.6	-70.1	3.8	8.46e-01	0	50	104	0	87	14577
2026-01-16 11:59:42.72	332.04	21.92	-58.6	-70.1	3.8	8.46e-01	0	50	104	0	87	14631
2026-01-16 11:59:43.73	332.07	21.78	-58.6	-70.1	3.8	8.47e-01	0	50	104	0	87	14625
2026-01-16 11:59:44.74	332.10	21.64	-58.6	-70.1	3.8	8.47e-01	0	50	104	0	87	14620
2026-01-16 11:59:45.75	332.13	21.50	-58.6	-70.1	3.8	8.46e-01	0	50	104	0	87	14637
2026-01-16 11:59:46.76	332.16	21.36	-58.6	-70.1	3.8	8.46e-01	0	50	104	0	87	14615
2026-01-16 11:59:47.77	332.19	21.22	-58.6	-70.1	3.8	8.47e-01	0	50	104	0	87	14587
2026-01-16 11:59:48.78	332.22	21.08	-58.6	-70.1	3.8	8.46e-01	0	50	104	0	87	14626
2026-01-16 11:59:49.79	332.24	20.95	-58.6	-70.1	3.8	8.46e-01	0	50	104	0	87	14635
2026-01-16 11:59:50.80	332.27	20.81	-58.6	-70.1	3.8	8.47e-01	0	50	104	0	87	14604
2026-01-16 11:59:51.81	332.30	20.68	-58.6	-70.1	3.8	8.46e-01	0	50	104	0	87	14626
2026-01-16 11:59:52.81	332.33	20.55	-58.6	-70.1	3.8	8.46e-01	0	50	104	0	87	14632
2026-01-16 11:59:53.82	332.36	20.41	-58.6	-70.1	3.8	8.47e-01	0	50	104	0	87	14622
2026-01-16 11:59:54.83	332.38	20.28	-58.6	-70.1	3.8	8.46e-01	0	50	104	0	87	14624
2026-01-16 11:59:55.84	332.41	20.15	-58.6	-70.1	3.8	8.46e-01	0	50	104	0	87	14627
2026-01-16 11:59:56.85	332.44	20.02	-58.6	-70.1	3.8	8.46e-01	0	50	104	0	87	14612
2026-01-16 11:59:57.86	332.46	19.88	-58.6	-70.0	3.8	8.46e-01	0	50	104	0	87	14537
2026-01-16 11:59:58.86	332.49	19.76	-58.6	-70.1	3.8	8.48e-01	0	50	104	0	87	14638
2026-01-16 11:59:59.87	332.52	19.63	-58.6	-70.1	3.8	8.45e-01	0	50	104	0	87	14629
2026-01-16 12:00:00.88	332.54	19.50	-58.6	-70.1	3.8	8.47e-01	0	50	104	0	87	14604
2026-01-16 12:00:01.89	332.57	19.37	-58.6	-70.1	3.8	8.47e-01	0	50	104	0	87	14668
2026-01-16 12:00:02.90	332.60	19.24	-58.6	-70.1	3.8	8.46e-01	0	50	104	0	87	14572
2026-01-16 12:00:03.90	332.62	19.12	-58.6	-70.1	3.8	8.47e-01	0	50	104	0	87	14591
2026-01-16 12:00:04.91	332.65	18.99	-58.6	-70.1	3.8	8.46e-01	0	50	104	0	87	14589
2026-01-16 12:00:05.92	332.67	18.87	-58.6	-70.1	3.8	8.46e-01	0	50	104	0	87	14623
2026-01-16 12:00:06.93	332.70	18.74	-58.6	-70.1	3.8	8.47e-01	0	50	104	0	87	14620
2026-01-16 12:00:07.94	332.72	18.62	-58.6	-70.1	3.8	8.47e-01	0	50	104	0	87	14633
2026-01-16 12:00:08.95	332.75	18.49	-58.6	-70.1	3.8	8.47e-01	0	50	104	0	87	14660
2026-01-16 12:00:09.96	332.77	18.37	-58.6	-70.1	3.8	8.46e-01	0	50	104	0	87	14628
2026-01-16 12:00:10.96	332.80	18.25	-58.6	-70.1	3.8	8.46e-01	0	50	104	0	87	14624
2026-01-16 12:00:11.97	332.82	18.13	-58.6	-70.1	3.8	8.46e-01	0	50	104	0	87	14572
2026-01-16 12:00:12.98	332.85	18.01	-58.6	-70.1	3.8	8.46e-01	0	50	104	0	87	14617
2026-01-16 12:00:13.99	332.87	17.88	-58.6	-70.1	3.8	8.45e-01	0	50	104	0	87	14597
2026-01-16 12:00:14.99	332.89	17.77	-58.6	-70.1	3.8	8.46e-01	0	50	104	0	87	14626
2026-01-16 12:00:16.00	332.92	17.65	-58.6	-70.1	3.8	8.47e-01	0	50	104	0	87	14616
2026-01-16 12:00:17.01	332.94	17.53	-58.6	-70.1	3.8	8.47e-01	0	50	104	0	87	14573
2026-01-16 12:00:18.02	332.96	17.41	-58.6	-70.1	3.8	8.46e-01	0	50	104	0	87	14572
2026-01-16 12:00:19.03	332.99	17.29	-58.6	-70.1	3.8	8.46e-01	0	50	104	0	87	14669
2026-01-16 12:00:20.04	333.01	17.17	-58.6	-70.1	3.8	8.46e-01	0	50	104	0	87	14681
2026-01-16 12:00:21.05	333.03	17.06	-58.6	-70.1	3.8	8.47e-01	0	50	104	0	87	14622
2026-01-16 12:00:22.06	333.06	16.94	-58.6	-70.1	3.8	8.46e-01	0	50	104	0	87	14664
2026-01-16 12:00:23.07	333.08	16.83	-58.6	-70.1	3.8	8.45e-01	0	50	104	0	87	14602
2026-01-16 12:00:24.08	333.10	16.71	-58.6	-70.1	3.8	8.44e-01	0	50	104	0	87	14625
2026-01-16 12:00:25.08	333.13	16.60	-58.6	-70.1	3.8	8.47e-01	0	50	104	0	87	14617
2026-01-16 12:00:26.09	333.15	16.48	-58.6	-70.1	3.8	8.46e-01	0	50	104	0	87	14584
2026-01-16 12:00:27.10	333.17	16.37	-58.6	-70.1	3.8	8.47e-01	0	50	104	0	87	14588
2026-01-16 12:00:28.11	333.19	16.26	-58.6	-70.1	3.8	8.47e-01	0	50	104	0	87	14582
2026-01-16 12:00:29.12	333.21	16.15	-58.6	-70.1	3.8	8.47e-01	0	50	104	0	87	14620
2026-01-16 12:00:30.13	333.24	16.03	-58.6	-70.1	3.8	8.47e-01	0	50	104	0	87	14605
2026-01-16 12:00:31.14	333.26	15.92	-58.6	-70.1	3.8	8.46e-01	0	50	104	0	87	14608
2026-01-16 12:00:32.14	333.28	15.81	-58.6	-70.1	3.8	8.45e-01	0	50	104	0	87	14616
2026-01-16 12:00:33.15	333.30	15.70	-58.6	-70.1	3.8	8.47e-01	0	50	104	0	87	14633
2026-01-16 12:00:34.16	333.32	15.59	-58.6	-70.1	3.8	8.45e-01	0	50	104	0	87	14637
2026-01-16 12:00:35.17	333.34	15.48	-58.6	-70.1	3.8	8.47e-01	0	50	104	0	87	14615
2026-01-16 12:00:36.17	333.36	15.38	-58.6	-70.1	3.8	8.46e-01	0	50	104	0	87	14595
2026-01-16 12:00:37.18	333.38	15.27	-58.6	-70.1	3.8	8.46e-01	0	50	104	0	87	14591
2026-01-16 12:00:38.19	333.41	15.16	-58.6	-70.1	3.8	8.46e-01	0	50	104	0	87	14611
2026-01-16 12:00:39.20	333.43	15.05	-58.6	-70.1	3.8	8.46e-01	0	50	104	0	87	14651
2026-01-16 12:00:40.21	333.45	14.95	-58.6	-70.1	3.8	8.46e-01	0	50	104	0	87	14646
2026-01-16 12:00:41.21	333.47	14.84	-58.6	-70.1	3.8	8.46e-01	0	50	104	0	87	14647
2026-01-16 12:00:42.22	333.49	14.73	-58.6	-70.1	3.8	8.45e-01	0	50	104	0	87	14627
2026-01-16 12:00:43.23	333.51	14.63	-58.6	-70.1	3.8	8.46e-01	0	50	104	0	87	14636
2026-01-16 12:00:44.24	333.53	14.52	-58.6	-70.1	3.8	8.46e-01	0	50	104	0	87	14608
2026-01-16 12:00:45.25	333.55	14.42	-58.6	-70.1	3.8	8.46e-01	0	50	104	0	87	14613
2026-01-16 12:00:46.26	333.57	14.31	-58.6	-70.1	3.8	8.47e-01	0	50	104	0	87	14616
2026-01-16 12:00:47.27	333.59	14.21	-58.6	-70.1	3.8	8.47e-01	0	50	104	0	87	14589
2026-01-16 12:00:48.28	333.61	14.11	-58.6	-70.1	3.8	8.46e-01	0	50	104	0	87	14620
2026-01-16 12:00:49.29	333.63	14.00	-58.6	-70.1	3.8	8.46e-01	0	50	104	0	87	14646
2026-01-16 12:00:50.30	333.65	13.90	-58.6	-70.1	3.8	8.46e-01	0	50	104	0	87	14601
2026-01-16 12:00:51.31	333.67	13.80	-58.6	-70.1	3.8	8.45e-01	0	50	104	0	87	14649
2026-01-16 12:00:52.31	333.68	13.70	-58.6	-70.1	3.8	8.45e-01	0	50	104	0	87	14612
2026-01-16 12:00:53.32	333.70	13.60	-58.6	-70.1	3.8	8.46e-01	0	50	104	0	87	14624
2026-01-16 12:00:54.33	333.72	13.50	-58.6	-70.1	3.8	8.46e-01	0	50	104	0	87	14613
2026-01-16 12:00:55.34	333.74	13.40	-58.6	-70.1	3.8	8.47e-01	0	50	104	0	87	14642
2026-01-16 12:00:56.35	333.76	13.30	-58.6	-70.1	3.8	8.46e-01	0	50	104	0	87	14620
2026-01-16 12:00:57.35	333.78	13.20	-58.6	-70.1	3.8	8.47e-01	0	50	104	0	87	14599
2026-01-16 12:00:58.36	333.80	13.10	-58.6	-70.1	3.8	8.46e-01	0	50	104	0	87	14634
2026-01-16 12:00:59.37	333.82	13.00	-58.6	-70.1	3.8	8.46e-01	0	50	104	0	87	14576
2026-01-16 12:01:00.38	333.84	12.90	-58.6	-70.1	3.8	8.46e-01	0	50	104	0	87	14645
2026-01-16 12:01:01.39	333.85	12.81	-58.6	-70.1	3.8	8.46e-01	0	50	104	0	87	14608
2026-01-16 12:01:02.40	333.87	12.71	-58.6	-70.1	3.8	8.46e-01	0	50	104	0	87	14590
2026-01-16 12:01:03.41	333.89	12.61	-58.6	-70.1	3.8	8.46e-01	0	50	104	0	87	14595
2026-01-16 12:01:04.41	333.91	12.51	-58.6	-70.1	3.8	8.46e-01	0	50	104	0	87	14633
2026-01-16 12:01:05.42	333.93	12.42	-58.6	-70.1	3.8	8.46e-01	0	50	104	0	87	14615
2026-01-16 12:01:06.43	333.94	12.32	-58.6	-70.1	3.8	8.47e-01	0	50	104	0	87	14598
2026-01-16 12:01:07.44	333.96	12.23	-58.6	-70.1	3.8	8.46e-01	0	50	104	0	87	14618
2026-01-16 12:01:08.45	333.98	12.13	-58.6	-70.1	3.8	8.46e-01	0	50	104	0	87	14604
2026-01-16 12:01:09.46	334.00	12.04	-58.6	-70.1	3.8	8.45e-01	0	50	104	0	87	14646
2026-01-16 12:01:10.47	334.02	11.94	-58.6	-70.1	3.8	8.46e-01	0	50	104	0	87	14608
2026-01-16 12:01:11.47	334.03	11.85	-58.6	-70.1	3.8	8.45e-01	0	50	104	0	87	14581
2026-01-16 12:01:12.48	334.05	11.76	-58.6	-70.1	3.8	8.46e-01	0	50	104	0	87	14613
2026-01-16 12:01:13.49	334.07	11.66	-58.6	-70.1	3.8	8.46e-01	0	50	104	0	87	14655
2026-01-16 12:01:14.50	334.09	11.57	-58.6	-70.1	3.8	8.48e-01	0	50	104	0	87	14604
2026-01-16 12:01:15.51	334.10	11.48	-58.6	-70.1	3.8	8.45e-01	0	50	104	0	87	14587
