passes_logs/2026/01/16/R3.2S_Murmansk/R3.2S_Murmansk__20260116_195515_KANOPUS-V_5_rec.log

#Pass ID: 20260116_195515_KANOPUS-V 5
#Satellite: KANOPUS-V 5
#Configuration: KANOPUS-V_8320
#almurnet v.1.7.20251203
#Start time: 2026-01-16 19:55:15

#Version: 2.2.20231116
#Station: R3.2S_Murmansk
#Location: 33.079688 lon 68.888172 lat
#TLE: 1 43876U 18111A   26015.95883530  .00002079  00000+0  90203-4 0  9990
#TLE: 2 43876  97.3685 284.4557 0001748  86.2315 273.9122 15.23440439391619

#Time	Az	El	Level	Level2	SNR	BER	BlckErr	Temp	State	Recorded	gain1	gain2
2026-01-16 19:55:15.43	25.34	2.02	-52.2	-61.0	3.8	7.44e-01	0	32	0	0	76	9717
2026-01-16 19:55:16.44	25.46	2.07	-52.2	-61.0	3.8	7.44e-01	0	32	104	0	75	10245
2026-01-16 19:55:17.45	25.58	2.13	-52.2	-61.0	3.8	7.44e-01	0	32	104	0	75	10239
2026-01-16 19:55:18.46	25.70	2.18	-52.2	-61.0	3.8	7.45e-01	0	32	104	0	75	10226
2026-01-16 19:55:19.47	25.83	2.24	-52.1	-61.0	3.8	7.45e-01	0	32	104	0	75	10224
2026-01-16 19:55:20.48	25.95	2.29	-52.2	-61.0	3.8	7.43e-01	0	32	104	0	75	10207
2026-01-16 19:55:21.49	26.07	2.34	-52.2	-61.0	3.8	7.44e-01	0	32	104	0	75	10191
2026-01-16 19:55:22.50	26.20	2.40	-52.2	-61.0	3.8	7.44e-01	0	32	104	0	75	10212
2026-01-16 19:55:23.50	26.32	2.45	-52.2	-61.0	3.8	7.45e-01	0	32	104	0	75	10216
2026-01-16 19:55:24.51	26.45	2.51	-52.2	-61.0	3.8	7.46e-01	0	32	104	0	75	10207
2026-01-16 19:55:25.52	26.57	2.56	-52.2	-61.0	3.8	7.46e-01	0	32	104	0	75	10212
2026-01-16 19:55:26.53	26.70	2.61	-52.2	-61.0	3.8	7.46e-01	0	32	104	0	75	10223
2026-01-16 19:55:27.54	26.83	2.67	-52.2	-61.0	3.8	7.46e-01	0	32	104	0	75	10248
2026-01-16 19:55:28.55	26.95	2.72	-52.2	-61.0	3.8	7.46e-01	0	32	104	0	75	10228
2026-01-16 19:55:29.56	27.08	2.78	-52.2	-61.0	3.8	7.45e-01	0	33	104	0	75	10223
2026-01-16 19:55:30.57	27.21	2.83	-52.2	-61.0	3.8	7.44e-01	0	33	104	0	75	10222
2026-01-16 19:55:31.58	27.34	2.89	-52.2	-61.0	3.8	7.46e-01	0	32	104	0	75	10208
2026-01-16 19:55:32.59	27.47	2.94	-52.2	-61.0	3.8	7.45e-01	0	33	104	0	75	10248
2026-01-16 19:55:33.60	27.60	3.00	-52.2	-61.0	3.8	7.47e-01	0	33	104	0	75	10202
2026-01-16 19:55:34.60	27.73	3.05	-52.2	-61.0	3.8	7.46e-01	0	33	104	0	75	10206
2026-01-16 19:55:35.61	27.86	3.10	-52.2	-61.0	3.8	7.45e-01	0	33	104	0	75	10211
2026-01-16 19:55:36.62	27.99	3.16	-52.2	-61.0	3.8	7.45e-01	0	33	104	0	75	10242
2026-01-16 19:55:37.63	28.13	3.21	-52.1	-61.0	3.8	7.45e-01	0	33	104	0	75	10214
2026-01-16 19:55:38.64	28.26	3.27	-52.1	-61.0	3.8	7.45e-01	0	33	104	0	75	10197
2026-01-16 19:55:39.65	28.40	3.32	-52.2	-61.0	3.8	7.46e-01	0	33	104	0	75	10259
2026-01-16 19:55:40.66	28.53	3.38	-52.1	-61.0	3.8	7.48e-01	0	33	104	0	75	10229
2026-01-16 19:55:41.67	28.67	3.43	-52.2	-61.0	3.8	7.45e-01	0	33	104	0	75	10217
2026-01-16 19:55:42.68	28.80	3.49	-52.1	-61.0	3.8	7.45e-01	0	33	104	0	75	10190
2026-01-16 19:55:43.69	28.94	3.54	-52.1	-61.0	3.8	7.46e-01	0	33	104	0	75	10208
2026-01-16 19:55:44.69	29.08	3.60	-52.1	-61.0	3.8	7.46e-01	0	33	104	0	75	10214
2026-01-16 19:55:45.70	29.21	3.65	-52.2	-61.0	3.8	7.46e-01	0	33	104	0	75	10220
2026-01-16 19:55:46.71	29.35	3.71	-52.1	-61.0	3.8	7.45e-01	0	33	104	0	75	10192
2026-01-16 19:55:47.72	29.49	3.76	-52.1	-61.0	3.8	7.45e-01	0	33	104	0	75	10193
2026-01-16 19:55:48.72	29.63	3.82	-52.1	-61.0	3.8	7.44e-01	0	33	104	0	75	10233
2026-01-16 19:55:49.73	29.77	3.87	-52.1	-60.9	3.8	7.46e-01	0	33	104	0	75	10169
2026-01-16 19:55:50.74	29.91	3.93	-52.1	-60.9	3.8	7.46e-01	0	33	104	0	75	10168
2026-01-16 19:55:51.75	30.05	3.98	-52.1	-61.0	3.8	7.45e-01	0	33	104	0	75	10197
2026-01-16 19:55:52.76	30.20	4.04	-52.1	-61.0	3.8	7.45e-01	0	33	104	0	75	10215
2026-01-16 19:55:53.77	30.34	4.09	-52.2	-61.0	3.8	7.44e-01	0	33	104	0	75	10181
2026-01-16 19:55:54.78	30.48	4.15	-52.1	-61.0	3.8	7.47e-01	0	33	104	0	75	10213
2026-01-16 19:55:55.79	30.63	4.20	-52.1	-61.0	3.8	7.46e-01	0	33	104	0	75	10193
2026-01-16 19:55:56.80	30.77	4.26	-52.1	-61.0	3.8	7.45e-01	0	33	104	0	75	10223
2026-01-16 19:55:57.81	30.92	4.31	-52.1	-61.0	3.8	7.45e-01	0	33	104	0	75	10182
2026-01-16 19:55:58.81	31.06	4.37	-52.1	-61.0	3.8	7.45e-01	0	33	104	0	75	10222
2026-01-16 19:55:59.82	31.21	4.42	-52.2	-61.0	3.8	7.45e-01	0	33	104	0	75	10251
2026-01-16 19:56:00.83	31.36	4.48	-52.1	-61.0	3.8	7.44e-01	0	33	104	0	75	10203
2026-01-16 19:56:01.84	31.51	4.54	-52.1	-61.0	3.8	7.45e-01	0	33	104	0	75	10183
2026-01-16 19:56:02.85	31.66	4.59	-52.1	-61.0	3.8	7.45e-01	0	33	104	0	75	10191
2026-01-16 19:56:03.86	31.81	4.65	-52.1	-61.0	3.8	7.45e-01	0	33	104	0	75	10186
2026-01-16 19:56:04.86	31.96	4.70	-52.1	-61.0	3.8	7.45e-01	0	33	104	0	75	10194
2026-01-16 19:56:05.87	32.11	4.76	-52.1	-61.0	3.8	7.44e-01	0	33	104	0	75	10193
2026-01-16 19:56:06.88	32.26	4.81	-52.1	-61.0	3.8	7.45e-01	0	33	104	0	75	10212
2026-01-16 19:56:07.89	32.41	4.87	-52.1	-61.0	3.8	7.46e-01	0	33	104	0	75	10197
2026-01-16 19:56:08.90	32.57	4.92	-52.1	-61.0	3.8	7.45e-01	0	34	104	0	75	10182
2026-01-16 19:56:09.91	32.72	4.98	-52.1	-61.0	3.8	7.46e-01	0	33	104	0	75	10213
2026-01-16 19:56:10.92	32.88	5.04	-52.1	-61.0	3.8	7.45e-01	0	34	104	0	75	10213
2026-01-16 19:56:11.92	33.03	5.09	-52.5	-61.3	3.8	7.45e-01	0	34	104	0	75	10606
2026-01-16 19:56:12.93	33.19	5.15	-51.9	-60.8	3.8	7.46e-01	0	34	104	0	75	9993
2026-01-16 19:56:13.94	33.35	5.20	-52.5	-61.3	3.8	7.45e-01	0	33	104	0	75	10617
2026-01-16 19:56:14.95	33.50	5.26	-52.4	-61.2	3.8	7.47e-01	0	33	104	0	75	10494
2026-01-16 19:56:15.96	33.66	5.31	-52.2	-61.1	3.8	7.45e-01	0	34	104	0	75	10297
2026-01-16 19:56:16.97	33.82	5.37	-52.0	-60.9	3.8	7.45e-01	0	33	104	0	75	10084
2026-01-16 19:56:17.98	33.98	5.42	-52.5	-61.4	3.8	7.45e-01	0	34	104	0	75	10664
2026-01-16 19:56:18.99	34.14	5.48	-52.2	-61.0	3.8	7.45e-01	0	34	104	0	75	10259
2026-01-16 19:56:20.00	34.31	5.54	-52.1	-60.9	3.8	7.45e-01	0	33	104	0	75	10145
2026-01-16 19:56:21.00	34.47	5.59	-52.1	-61.0	3.8	7.45e-01	0	34	104	0	75	10192
2026-01-16 19:56:22.01	34.63	5.65	-52.1	-61.0	3.8	7.46e-01	0	34	104	0	75	10197
2026-01-16 19:56:23.02	34.79	5.70	-52.1	-60.9	3.8	7.46e-01	0	34	104	0	75	10148
2026-01-16 19:56:24.03	34.96	5.76	-52.3	-61.1	3.8	7.46e-01	0	34	104	0	75	10381
2026-01-16 19:56:25.04	35.12	5.81	-52.2	-61.1	3.8	7.47e-01	0	34	104	0	75	10310
2026-01-16 19:56:26.05	35.29	5.87	-52.7	-61.5	3.8	7.45e-01	0	34	104	0	75	10815
2026-01-16 19:56:27.06	35.46	5.92	-52.6	-61.4	3.8	7.45e-01	0	34	104	0	75	10719
2026-01-16 19:56:28.07	35.63	5.98	-52.5	-61.3	3.8	7.45e-01	0	34	104	0	75	10616
2026-01-16 19:56:29.08	35.80	6.04	-52.4	-61.2	3.8	7.44e-01	0	34	104	0	75	10488
2026-01-16 19:56:30.08	35.96	6.09	-52.7	-61.5	3.8	7.46e-01	0	34	104	0	75	10892
2026-01-16 19:56:31.09	36.13	6.15	-52.6	-61.4	3.8	7.46e-01	0	34	104	0	75	10763
2026-01-16 19:56:32.10	36.30	6.20	-52.6	-61.4	3.8	7.47e-01	0	34	104	0	75	10707
2026-01-16 19:56:33.11	36.48	6.26	-52.5	-61.3	3.8	7.45e-01	0	34	104	0	75	10631
2026-01-16 19:56:34.12	36.65	6.31	-52.8	-61.6	3.8	7.44e-01	0	34	104	0	76	10339
2026-01-16 19:56:35.13	36.82	6.37	-52.7	-61.5	3.8	7.44e-01	0	34	104	0	76	10268
2026-01-16 19:56:36.13	37.00	6.42	-52.7	-61.5	3.8	7.45e-01	0	34	104	0	76	10237
2026-01-16 19:56:37.14	37.17	6.48	-52.6	-61.4	3.8	7.44e-01	0	34	104	0	76	10146
2026-01-16 19:56:38.15	37.35	6.53	-52.8	-61.6	3.8	7.46e-01	0	34	104	0	76	10384
2026-01-16 19:56:39.16	37.52	6.59	-52.8	-61.6	3.8	7.45e-01	0	34	104	0	76	10323
2026-01-16 19:56:40.16	37.70	6.64	-52.7	-61.5	3.8	7.46e-01	0	34	104	0	76	10249
2026-01-16 19:56:41.17	37.88	6.70	-52.7	-61.5	3.8	7.44e-01	0	34	104	0	76	10244
2026-01-16 19:56:42.18	38.06	6.76	-52.8	-61.7	3.8	7.47e-01	0	34	104	0	76	10466
2026-01-16 19:56:43.19	38.24	6.81	-52.8	-61.6	3.8	7.45e-01	0	34	104	0	76	10383
2026-01-16 19:56:44.20	38.42	6.87	-52.7	-61.6	3.8	7.45e-01	0	34	104	0	76	10303
2026-01-16 19:56:45.21	38.60	6.92	-52.7	-61.5	3.8	7.46e-01	0	34	104	0	76	10249
2026-01-16 19:56:46.21	38.78	6.98	-52.9	-61.7	3.8	7.46e-01	0	34	104	0	76	10474
2026-01-16 19:56:47.22	38.97	7.03	-52.8	-61.7	3.8	7.44e-01	0	34	104	0	76	10427
2026-01-16 19:56:48.23	39.15	7.09	-52.8	-61.6	3.8	7.48e-01	0	34	104	0	76	10390
2026-01-16 19:56:49.24	39.34	7.14	-52.7	-61.6	3.8	7.45e-01	0	34	104	0	76	10320
2026-01-16 19:56:50.25	39.52	7.19	-52.9	-61.7	3.8	7.45e-01	0	34	104	0	76	10492
2026-01-16 19:56:51.26	39.71	7.25	-52.8	-61.7	3.8	7.46e-01	0	34	104	0	76	10451
2026-01-16 19:56:52.26	39.90	7.30	-52.8	-61.6	3.8	7.44e-01	0	34	104	0	76	10390
2026-01-16 19:56:53.27	40.08	7.36	-52.8	-61.6	3.8	7.45e-01	0	34	104	0	76	10321
2026-01-16 19:56:54.28	40.27	7.41	-52.9	-61.7	3.8	7.46e-01	0	34	104	0	76	10497
2026-01-16 19:56:55.29	40.46	7.47	-52.8	-61.7	3.8	7.44e-01	0	34	104	0	76	10425
2026-01-16 19:56:56.30	40.66	7.52	-52.8	-61.6	3.8	7.46e-01	0	34	104	0	76	10401
2026-01-16 19:56:57.31	40.85	7.58	-52.8	-61.6	3.8	7.43e-01	0	34	104	0	76	10374
2026-01-16 19:56:58.32	41.04	7.63	-52.9	-61.7	3.8	7.43e-01	0	34	104	0	76	10511
2026-01-16 19:56:59.33	41.23	7.69	-52.9	-61.7	3.8	7.45e-01	0	34	104	0	76	10464
2026-01-16 19:57:00.34	41.43	7.74	-52.8	-61.7	3.8	7.45e-01	0	34	104	0	76	10441
2026-01-16 19:57:01.34	41.62	7.79	-52.8	-61.7	3.8	7.45e-01	0	34	104	0	76	10437
2026-01-16 19:57:02.35	41.82	7.85	-52.9	-61.8	3.8	7.44e-01	0	34	104	0	76	10548
2026-01-16 19:57:03.36	42.02	7.90	-52.9	-61.7	3.8	7.46e-01	0	34	104	0	76	10487
2026-01-16 19:57:04.37	42.22	7.95	-52.9	-61.7	3.8	7.44e-01	0	34	104	0	76	10464
2026-01-16 19:57:05.38	42.42	8.01	-52.8	-61.7	3.8	7.47e-01	0	34	104	0	76	10433
2026-01-16 19:57:06.39	42.62	8.06	-53.0	-61.8	3.8	7.45e-01	0	34	104	0	76	10607
2026-01-16 19:57:07.40	42.82	8.12	-52.9	-61.7	3.8	7.47e-01	0	34	104	0	76	10517
2026-01-16 19:57:08.40	43.02	8.17	-52.9	-61.7	3.8	7.45e-01	0	34	104	0	76	10496
2026-01-16 19:57:09.41	43.22	8.22	-52.9	-61.7	3.8	7.45e-01	0	34	104	0	76	10470
2026-01-16 19:57:10.42	43.42	8.27	-53.0	-61.8	3.8	7.46e-01	0	34	104	0	76	10628
2026-01-16 19:57:11.43	43.63	8.33	-52.9	-61.8	3.8	7.44e-01	0	34	104	0	76	10571
2026-01-16 19:57:12.44	43.83	8.38	-52.9	-61.8	3.8	7.46e-01	0	34	104	0	76	10539
2026-01-16 19:57:13.44	44.04	8.43	-52.9	-61.7	3.8	7.47e-01	0	34	104	0	76	10530
2026-01-16 19:57:14.45	44.25	8.49	-53.0	-61.9	3.8	7.45e-01	0	34	104	0	76	10671
2026-01-16 19:57:15.46	44.45	8.54	-53.0	-61.8	3.8	7.46e-01	0	34	104	0	76	10584
2026-01-16 19:57:16.47	44.66	8.59	-52.9	-61.8	3.8	7.45e-01	0	34	104	0	76	10543
2026-01-16 19:57:17.48	44.87	8.64	-52.9	-61.7	3.8	7.45e-01	0	34	104	0	76	10532
2026-01-16 19:57:18.48	45.08	8.69	-53.0	-61.8	3.8	7.46e-01	0	34	104	0	76	10652
2026-01-16 19:57:19.49	45.30	8.75	-53.0	-61.8	3.8	7.46e-01	0	34	104	0	76	10588
2026-01-16 19:57:20.50	45.51	8.80	-52.9	-61.8	3.8	7.46e-01	0	34	104	0	76	10569
2026-01-16 19:57:21.51	45.72	8.85	-52.9	-61.8	3.8	7.46e-01	0	34	104	0	76	10559
2026-01-16 19:57:22.52	45.94	8.90	-53.0	-61.8	3.8	7.44e-01	0	34	104	0	76	10637
2026-01-16 19:57:23.52	46.15	8.95	-53.0	-61.8	3.8	7.45e-01	0	34	104	0	76	10610
2026-01-16 19:57:24.53	46.37	9.00	-52.9	-61.8	3.8	7.44e-01	0	34	104	0	76	10543
2026-01-16 19:57:25.54	46.59	9.05	-53.0	-61.8	3.8	7.45e-01	0	34	104	0	76	10594
2026-01-16 19:57:26.55	46.80	9.11	-53.0	-61.9	3.8	7.46e-01	0	34	104	0	76	10679
2026-01-16 19:57:27.56	47.02	9.16	-53.0	-61.8	3.8	7.45e-01	0	34	104	0	76	10629
2026-01-16 19:57:28.57	47.24	9.21	-53.0	-61.8	3.8	7.47e-01	0	34	104	0	76	10613
2026-01-16 19:57:29.58	47.47	9.26	-53.0	-61.8	3.8	7.46e-01	0	34	104	0	76	10638
2026-01-16 19:57:30.58	47.69	9.31	-53.1	-61.9	3.8	7.46e-01	0	34	104	0	76	10676
2026-01-16 19:57:31.59	47.91	9.36	-53.0	-61.9	3.8	7.45e-01	0	34	104	0	76	10665
2026-01-16 19:57:32.60	48.13	9.41	-53.0	-61.8	3.8	7.45e-01	0	34	104	0	76	10593
2026-01-16 19:57:33.61	48.36	9.46	-53.0	-61.9	3.8	7.46e-01	0	34	104	0	76	10697
2026-01-16 19:57:34.62	48.58	9.51	-53.1	-61.9	3.8	7.47e-01	0	34	104	0	76	10712
2026-01-16 19:57:35.63	48.81	9.56	-53.0	-61.9	3.8	7.45e-01	0	34	104	0	76	10684
2026-01-16 19:57:36.64	49.04	9.60	-53.0	-61.8	3.8	7.44e-01	0	34	104	0	76	10641
2026-01-16 19:57:37.64	49.26	9.65	-53.1	-61.9	3.8	7.46e-01	0	34	104	0	76	10768
2026-01-16 19:57:38.65	49.49	9.70	-53.1	-61.9	3.8	7.45e-01	0	35	104	0	76	10759
2026-01-16 19:57:39.66	49.73	9.75	-53.1	-61.9	3.8	7.46e-01	0	35	104	0	76	10689
2026-01-16 19:57:40.67	49.96	9.80	-53.0	-61.9	3.8	7.45e-01	0	34	104	0	76	10729
2026-01-16 19:57:41.68	50.19	9.85	-53.1	-62.0	3.8	7.45e-01	0	34	104	0	76	10809
2026-01-16 19:57:42.69	50.42	9.89	-53.1	-61.9	3.8	7.46e-01	0	34	104	0	76	10761
2026-01-16 19:57:43.70	50.66	9.94	-53.1	-61.9	3.8	7.46e-01	0	34	104	0	76	10724
2026-01-16 19:57:44.71	50.89	9.99	-53.1	-61.9	3.8	7.46e-01	0	34	104	0	76	10698
2026-01-16 19:57:45.72	51.13	10.04	-53.1	-62.0	3.8	7.46e-01	0	35	104	0	76	10825
2026-01-16 19:57:46.73	51.37	10.08	-53.1	-62.0	3.8	7.44e-01	0	34	104	0	76	10796
2026-01-16 19:57:47.74	51.60	10.13	-53.1	-61.9	3.8	7.46e-01	0	35	104	0	76	10773
2026-01-16 19:57:48.74	51.84	10.17	-53.1	-61.9	3.8	7.45e-01	0	34	104	0	76	10694
2026-01-16 19:57:49.75	52.08	10.22	-53.2	-62.0	3.8	7.46e-01	0	34	104	0	76	10821
2026-01-16 19:57:50.76	52.32	10.27	-53.1	-62.0	3.8	7.45e-01	0	34	104	0	76	10802
2026-01-16 19:57:51.77	52.56	10.31	-53.1	-62.0	3.8	7.44e-01	0	34	104	0	76	10793
2026-01-16 19:57:52.78	52.80	10.36	-53.1	-61.9	3.8	7.44e-01	0	34	104	0	76	10725
2026-01-16 19:57:53.79	53.05	10.40	-53.2	-62.0	3.8	7.45e-01	0	34	104	0	76	10847
2026-01-16 19:57:54.80	53.29	10.45	-53.2	-62.0	3.8	7.45e-01	0	34	104	0	76	10827
2026-01-16 19:57:55.81	53.54	10.49	-53.1	-62.0	3.8	7.46e-01	0	34	104	0	76	10832
2026-01-16 19:57:56.82	53.78	10.53	-53.1	-62.0	3.8	7.46e-01	0	34	104	0	76	10791
2026-01-16 19:57:57.82	54.03	10.58	-53.2	-62.0	3.8	7.46e-01	0	34	104	0	76	10860
2026-01-16 19:57:58.83	54.28	10.62	-53.2	-62.0	3.8	7.44e-01	0	34	104	0	76	10830
2026-01-16 19:57:59.84	54.53	10.66	-53.1	-62.0	3.8	7.46e-01	0	34	104	0	76	10796
2026-01-16 19:58:00.85	54.77	10.71	-53.1	-62.0	3.8	7.45e-01	0	35	104	0	76	10783
2026-01-16 19:58:01.86	55.03	10.75	-53.2	-62.0	3.8	7.45e-01	0	35	104	0	76	10885
2026-01-16 19:58:02.86	55.27	10.79	-53.2	-62.0	3.8	7.45e-01	0	34	104	0	76	10841
2026-01-16 19:58:03.87	55.53	10.83	-53.2	-62.0	3.8	7.46e-01	0	34	104	0	76	10830
2026-01-16 19:58:04.88	55.78	10.87	-53.1	-61.9	3.8	7.45e-01	0	35	104	0	76	10772
2026-01-16 19:58:05.89	56.03	10.91	-53.2	-62.0	3.8	7.45e-01	0	35	104	0	76	10895
2026-01-16 19:58:06.90	56.29	10.96	-53.2	-62.0	3.8	7.45e-01	0	34	104	0	76	10854
2026-01-16 19:58:07.91	56.54	11.00	-53.1	-62.0	3.8	7.44e-01	0	35	104	0	76	10797
2026-01-16 19:58:08.92	56.80	11.04	-53.1	-62.0	3.8	7.45e-01	0	35	104	0	76	10801
2026-01-16 19:58:09.93	57.06	11.08	-53.2	-62.1	3.8	7.46e-01	0	35	104	0	76	10911
2026-01-16 19:58:10.94	57.32	11.12	-53.2	-62.0	3.8	7.47e-01	0	35	104	0	76	10856
2026-01-16 19:58:11.94	57.57	11.15	-53.2	-62.0	3.8	7.46e-01	0	34	104	0	76	10864
2026-01-16 19:58:12.95	57.83	11.19	-53.1	-62.0	3.8	7.45e-01	0	34	104	0	76	10802
2026-01-16 19:58:13.96	58.09	11.23	-53.2	-62.0	3.8	7.45e-01	0	35	104	0	76	10903
2026-01-16 19:58:14.97	58.36	11.27	-53.2	-62.0	3.8	7.45e-01	0	34	104	0	76	10879
2026-01-16 19:58:15.98	58.62	11.31	-53.2	-62.0	3.8	7.45e-01	0	34	104	0	76	10858
2026-01-16 19:58:16.98	58.88	11.34	-53.2	-62.0	3.8	7.45e-01	0	35	104	0	76	10855
2026-01-16 19:58:17.99	59.14	11.38	-53.2	-62.1	3.8	7.45e-01	0	34	104	0	77	10298
2026-01-16 19:58:19.00	59.41	11.42	-53.2	-62.0	3.8	7.46e-01	0	34	104	0	77	10289
2026-01-16 19:58:20.01	59.67	11.45	-53.2	-62.0	3.8	7.47e-01	0	34	104	0	77	10272
2026-01-16 19:58:21.02	59.94	11.49	-53.2	-62.0	3.8	7.45e-01	0	35	104	0	77	10267
2026-01-16 19:58:22.02	60.20	11.52	-53.2	-62.1	3.8	7.45e-01	0	34	104	0	77	10316
2026-01-16 19:58:23.03	60.47	11.56	-53.2	-62.1	3.8	7.46e-01	0	35	104	0	77	10319
2026-01-16 19:58:24.04	60.74	11.59	-53.2	-62.0	3.8	7.45e-01	0	34	104	0	77	10287
2026-01-16 19:58:25.05	61.01	11.62	-53.2	-62.0	3.8	7.45e-01	0	34	104	0	77	10262
2026-01-16 19:58:26.06	61.28	11.66	-53.3	-62.1	3.8	7.45e-01	0	35	104	0	77	10313
2026-01-16 19:58:27.06	61.55	11.69	-53.2	-62.0	3.8	7.45e-01	0	35	104	0	77	10293
2026-01-16 19:58:28.07	61.82	11.72	-53.2	-62.0	3.8	7.46e-01	0	35	104	0	77	10285
2026-01-16 19:58:29.08	62.09	11.76	-53.2	-62.0	3.8	7.44e-01	0	34	104	0	77	10257
2026-01-16 19:58:30.09	62.37	11.79	-53.3	-62.1	3.8	7.46e-01	0	34	104	0	77	10355
2026-01-16 19:58:31.10	62.64	11.82	-53.2	-62.0	3.8	7.45e-01	0	34	104	0	77	10288
2026-01-16 19:58:32.11	62.91	11.85	-53.2	-62.0	3.8	7.46e-01	0	34	104	0	77	10269
2026-01-16 19:58:33.12	63.19	11.88	-53.2	-62.0	3.8	7.44e-01	0	34	104	0	77	10267
2026-01-16 19:58:34.12	63.46	11.91	-53.3	-62.1	3.8	7.48e-01	0	34	104	0	77	10328
2026-01-16 19:58:35.13	63.74	11.94	-53.2	-62.1	3.8	7.46e-01	0	34	104	0	77	10296
2026-01-16 19:58:36.14	64.02	11.97	-53.2	-62.1	3.8	7.45e-01	0	35	104	0	77	10328
2026-01-16 19:58:37.15	64.29	11.99	-53.2	-62.0	3.8	7.45e-01	0	35	104	0	77	10259
2026-01-16 19:58:38.16	64.57	12.02	-53.3	-62.1	3.8	7.44e-01	0	34	104	0	77	10331
2026-01-16 19:58:39.16	64.85	12.05	-53.2	-62.1	3.8	7.46e-01	0	35	104	0	77	10318
2026-01-16 19:58:40.17	65.13	12.08	-53.2	-62.1	3.8	7.46e-01	0	35	104	0	77	10320
2026-01-16 19:58:41.18	65.41	12.10	-53.2	-62.1	3.8	7.48e-01	0	35	104	0	77	10309
2026-01-16 19:58:42.19	65.69	12.13	-53.3	-62.1	3.8	7.46e-01	0	34	104	0	77	10341
2026-01-16 19:58:43.20	65.97	12.15	-53.2	-62.0	3.8	7.43e-01	0	35	104	0	77	10273
2026-01-16 19:58:44.20	66.25	12.18	-53.2	-62.0	3.8	7.45e-01	0	35	104	0	77	10277
2026-01-16 19:58:45.21	66.53	12.20	-53.2	-62.0	3.8	7.45e-01	0	34	104	0	77	10249
2026-01-16 19:58:46.22	66.81	12.23	-53.3	-62.1	3.8	7.45e-01	0	35	104	0	77	10389
2026-01-16 19:58:47.23	67.10	12.25	-53.2	-62.0	3.8	7.45e-01	0	35	104	0	77	10286
2026-01-16 19:58:48.24	67.38	12.27	-53.2	-62.1	3.8	7.46e-01	0	35	104	0	77	10294
2026-01-16 19:58:49.25	67.67	12.30	-53.2	-62.0	3.8	7.45e-01	0	35	104	0	77	10264
2026-01-16 19:58:50.26	67.95	12.32	-53.3	-62.1	3.8	7.46e-01	0	34	104	0	77	10380
2026-01-16 19:58:51.26	68.24	12.34	-53.3	-62.1	3.8	7.46e-01	0	35	104	0	77	10342
2026-01-16 19:58:52.27	68.52	12.36	-53.2	-62.1	3.8	7.45e-01	0	35	104	0	77	10298
2026-01-16 19:58:53.28	68.81	12.38	-53.2	-62.0	3.8	7.45e-01	0	35	104	0	77	10263
2026-01-16 19:58:54.29	69.10	12.40	-53.3	-62.1	3.8	7.46e-01	0	35	104	0	77	10341
2026-01-16 19:58:55.30	69.38	12.42	-53.2	-62.1	3.8	7.46e-01	0	35	104	0	77	10308
2026-01-16 19:58:56.30	69.67	12.44	-53.2	-62.0	3.8	7.45e-01	0	35	104	0	77	10264
2026-01-16 19:58:57.31	69.96	12.45	-53.2	-62.1	3.8	7.45e-01	0	35	104	0	77	10321
2026-01-16 19:58:58.32	70.25	12.47	-53.3	-62.1	3.8	7.47e-01	0	34	104	0	77	10337
2026-01-16 19:58:59.33	70.54	12.49	-53.3	-62.1	3.8	7.44e-01	0	35	104	0	77	10350
2026-01-16 19:59:00.34	70.83	12.50	-53.2	-62.1	3.8	7.45e-01	0	35	104	0	77	10313
2026-01-16 19:59:01.35	71.12	12.52	-53.2	-62.1	3.8	7.45e-01	0	35	104	0	77	10294
2026-01-16 19:59:02.36	71.41	12.53	-53.3	-62.1	3.8	7.45e-01	0	34	104	0	77	10339
2026-01-16 19:59:03.36	71.69	12.55	-53.3	-62.1	3.8	7.45e-01	0	35	104	0	77	10345
2026-01-16 19:59:04.37	71.99	12.56	-53.3	-62.1	3.8	7.46e-01	0	34	104	0	77	10302
2026-01-16 19:59:05.38	72.28	12.58	-53.2	-62.0	3.8	7.44e-01	0	35	104	0	77	10274
2026-01-16 19:59:06.39	72.57	12.59	-53.3	-62.1	3.8	7.46e-01	0	34	104	0	77	10317
2026-01-16 19:59:07.40	72.86	12.60	-53.3	-62.1	3.8	7.45e-01	0	34	104	0	77	10329
2026-01-16 19:59:08.40	73.15	12.61	-53.2	-62.1	3.8	7.46e-01	0	34	104	0	77	10297
2026-01-16 19:59:09.41	73.44	12.62	-53.2	-62.1	3.8	7.46e-01	0	34	104	0	77	10366
2026-01-16 19:59:10.42	73.74	12.63	-53.3	-62.1	3.8	7.47e-01	0	35	104	0	77	10324
2026-01-16 19:59:11.43	74.03	12.64	-53.2	-62.1	3.8	7.45e-01	0	34	104	0	77	10334
2026-01-16 19:59:12.44	74.32	12.65	-53.2	-62.1	3.8	7.47e-01	0	34	104	0	77	10295
2026-01-16 19:59:13.44	74.61	12.66	-53.2	-62.1	3.8	7.46e-01	0	35	104	0	77	10326
2026-01-16 19:59:14.45	74.91	12.67	-53.3	-62.1	3.8	7.45e-01	0	34	104	0	77	10336
2026-01-16 19:59:15.46	75.20	12.68	-53.3	-62.1	3.8	7.46e-01	0	35	104	0	77	10326
2026-01-16 19:59:16.47	75.50	12.69	-53.2	-62.1	3.8	7.47e-01	0	35	104	0	77	10309
2026-01-16 19:59:17.48	75.79	12.69	-53.2	-62.0	3.8	7.46e-01	0	35	104	0	77	10248
2026-01-16 19:59:18.48	76.08	12.70	-53.3	-62.1	3.8	7.44e-01	0	35	104	0	77	10359
2026-01-16 19:59:19.49	76.38	12.70	-53.2	-62.1	3.8	7.46e-01	0	34	104	0	77	10319
2026-01-16 19:59:20.50	76.67	12.71	-53.2	-62.1	3.8	7.45e-01	0	35	104	0	77	10310
2026-01-16 19:59:21.51	76.97	12.71	-53.3	-62.0	3.8	7.43e-01	0	35	104	0	77	10288
2026-01-16 19:59:22.51	77.26	12.71	-53.3	-62.1	3.8	7.46e-01	0	35	104	0	77	10353
2026-01-16 19:59:23.52	77.55	12.72	-53.2	-62.1	3.8	7.46e-01	0	35	104	0	77	10322
2026-01-16 19:59:24.53	77.85	12.72	-53.2	-62.0	3.8	7.44e-01	0	35	104	0	77	10287
2026-01-16 19:59:25.54	78.14	12.72	-53.3	-62.1	3.8	7.45e-01	0	35	104	0	77	10349
2026-01-16 19:59:26.55	78.44	12.72	-53.3	-62.1	3.8	7.44e-01	0	35	104	0	77	10356
2026-01-16 19:59:27.56	78.74	12.72	-53.3	-62.1	3.8	7.44e-01	0	35	104	0	77	10311
2026-01-16 19:59:28.56	79.03	12.72	-53.2	-62.1	3.8	7.43e-01	0	35	104	0	77	10337
2026-01-16 19:59:29.57	79.32	12.72	-53.3	-62.1	3.8	7.45e-01	0	34	104	0	77	10337
2026-01-16 19:59:30.58	79.62	12.72	-53.3	-62.1	3.8	7.45e-01	0	35	104	0	77	10337
2026-01-16 19:59:31.59	79.91	12.72	-53.2	-62.1	3.8	7.45e-01	0	35	104	0	77	10329
2026-01-16 19:59:32.60	80.21	12.71	-53.2	-62.1	3.8	7.45e-01	0	34	104	0	77	10310
2026-01-16 19:59:33.60	80.50	12.71	-53.3	-62.1	3.8	7.46e-01	0	35	104	0	77	10352
2026-01-16 19:59:34.61	80.80	12.71	-53.3	-62.1	3.8	7.45e-01	0	35	104	0	77	10353
2026-01-16 19:59:35.62	81.09	12.70	-53.3	-62.1	3.8	7.47e-01	0	35	104	0	77	10349
2026-01-16 19:59:36.63	81.39	12.70	-53.2	-62.1	3.8	7.45e-01	0	35	104	0	77	10308
2026-01-16 19:59:37.64	81.68	12.69	-53.3	-62.1	3.8	7.44e-01	0	35	104	0	77	10358
2026-01-16 19:59:38.65	81.98	12.69	-53.3	-62.1	3.8	7.47e-01	0	34	104	0	77	10329
2026-01-16 19:59:39.66	82.27	12.68	-53.3	-62.1	3.8	7.44e-01	0	35	104	0	77	10325
2026-01-16 19:59:40.66	82.56	12.67	-53.2	-62.1	3.8	7.46e-01	0	35	104	0	77	10300
2026-01-16 19:59:41.67	82.86	12.66	-53.3	-62.1	3.8	7.46e-01	0	35	104	0	77	10379
2026-01-16 19:59:42.68	83.15	12.66	-53.3	-62.1	3.8	7.44e-01	0	35	104	0	77	10343
2026-01-16 19:59:43.69	83.44	12.65	-53.2	-62.0	3.8	7.45e-01	0	35	104	0	77	10288
2026-01-16 19:59:44.69	83.73	12.64	-53.2	-62.0	3.8	7.45e-01	0	35	104	0	77	10292
2026-01-16 19:59:45.70	84.03	12.63	-53.3	-62.1	3.8	7.44e-01	0	35	104	0	77	10386
2026-01-16 19:59:46.71	84.32	12.61	-53.3	-62.1	3.8	7.45e-01	0	35	104	0	77	10327
2026-01-16 19:59:47.72	84.61	12.60	-53.2	-62.1	3.8	7.45e-01	0	35	104	0	77	10307
2026-01-16 19:59:48.72	84.90	12.59	-53.2	-62.1	3.8	7.44e-01	0	35	104	0	77	10302
2026-01-16 19:59:49.73	85.20	12.58	-53.3	-62.1	3.8	7.44e-01	0	35	104	0	77	10369
2026-01-16 19:59:50.74	85.49	12.57	-53.3	-62.1	3.8	7.46e-01	0	35	104	0	77	10369
2026-01-16 19:59:51.75	85.78	12.55	-53.3	-62.1	3.8	7.44e-01	0	35	104	0	77	10336
2026-01-16 19:59:52.76	86.07	12.54	-53.2	-62.1	3.8	7.45e-01	0	34	104	0	77	10300
2026-01-16 19:59:53.77	86.36	12.52	-53.3	-62.1	3.8	7.44e-01	0	35	104	0	77	10383
2026-01-16 19:59:54.78	86.65	12.51	-53.3	-62.1	3.8	7.45e-01	0	34	104	0	77	10320
2026-01-16 19:59:55.78	86.94	12.49	-53.3	-62.1	3.8	7.45e-01	0	35	104	0	77	10331
2026-01-16 19:59:56.79	87.23	12.47	-53.2	-62.1	3.8	7.45e-01	0	35	104	0	77	10308
2026-01-16 19:59:57.80	87.52	12.46	-47.9	-62.2	3.8	7.45e-01	0	35	104	0	67	18612
2026-01-16 19:59:58.81	87.81	12.44	-50.5	-62.0	3.8	7.45e-01	0	35	104	0	71	14426
2026-01-16 19:59:59.82	88.10	12.42	-48.9	-52.5	5.1	7.24e-01	0	35	104	0	68	5746
2026-01-16 20:00:00.83	88.39	12.40	-48.8	-52.3	8.5	6.38e-01	0	35	0	8388608	69	5306
2026-01-16 20:00:01.83	88.67	12.38	-48.5	-51.9	8.9	6.34e-01	0	35	0	25165824	69	5087
2026-01-16 20:00:02.84	88.96	12.36	-48.0	-51.2	9.7	6.27e-01	0	35	0	39845888	67	5279
2026-01-16 20:00:03.85	89.24	12.34	-47.5	-50.6	10.3	6.21e-01	0	35	0	54525952	67	4883
2026-01-16 20:00:04.86	89.53	12.32	-47.2	-50.1	10.8	6.20e-01	0	35	0	69206016	66	4909
2026-01-16 20:00:05.87	89.82	12.30	-47.3	-50.2	10.7	6.20e-01	0	34	0	85983232	66	4932
2026-01-16 20:00:06.88	90.10	12.28	-47.1	-49.9	10.9	6.19e-01	0	35	0	100663296	66	4809
2026-01-16 20:00:07.89	90.39	12.25	-47.1	-50.0	10.9	6.18e-01	0	35	0	115343360	65	5124
2026-01-16 20:00:08.89	90.67	12.23	-46.8	-49.7	11.2	6.17e-01	0	35	0	132120576	65	4948
2026-01-16 20:00:09.90	90.95	12.21	-47.2	-50.2	10.7	6.19e-01	0	35	0	146800640	65	5236
2026-01-16 20:00:10.91	91.24	12.18	-46.9	-49.9	11.0	6.18e-01	0	34	0	161480704	65	5052
2026-01-16 20:00:11.92	91.52	12.16	-46.9	-49.8	11.0	6.17e-01	0	34	0	178257920	65	5038
2026-01-16 20:00:12.92	91.80	12.13	-46.7	-49.5	11.3	6.16e-01	0	35	0	195035136	65	4842
2026-01-16 20:00:13.93	92.08	12.11	-46.8	-49.6	11.2	6.17e-01	0	35	0	209715200	65	4898
2026-01-16 20:00:14.94	92.36	12.08	-46.7	-49.6	11.3	6.17e-01	0	35	0	224395264	65	4872
2026-01-16 20:00:15.95	92.64	12.05	-46.5	-49.3	11.5	6.15e-01	0	35	0	241172480	64	5022
2026-01-16 20:00:16.96	92.92	12.02	-46.4	-49.2	11.6	6.15e-01	0	35	0	255852544	64	4970
2026-01-16 20:00:17.97	93.20	12.00	-46.4	-49.2	11.6	6.15e-01	0	35	0	270532608	64	4930
2026-01-16 20:00:18.98	93.48	11.97	-46.0	-48.7	12.1	6.14e-01	0	35	0	287309824	64	4669
2026-01-16 20:00:19.99	93.76	11.94	-46.3	-49.0	11.9	6.15e-01	0	35	0	301989888	63	5104
2026-01-16 20:00:21.00	94.03	11.91	-46.3	-49.2	11.7	5.94e-01	0	35	0	316669952	63	5266
2026-01-16 20:00:22.00	94.31	11.88	-46.3	-49.3	11.6	5.94e-01	0	35	0	333447168	63	5338
2026-01-16 20:00:23.01	94.58	11.85	-46.1	-49.1	11.8	5.93e-01	0	35	0	348127232	63	5175
2026-01-16 20:00:24.02	94.86	11.82	-46.0	-49.0	11.9	5.94e-01	0	35	0	362807296	63	5120
2026-01-16 20:00:25.03	95.13	11.79	-45.7	-48.7	12.2	5.91e-01	0	34	0	379584512	63	4943
2026-01-16 20:00:26.04	95.41	11.76	-45.9	-48.9	12.0	5.92e-01	0	35	0	396361728	63	5067
2026-01-16 20:00:27.04	95.68	11.72	-45.6	-48.6	12.4	5.92e-01	0	35	0	411041792	63	4872
2026-01-16 20:00:28.05	95.95	11.69	-45.9	-48.8	12.1	5.93e-01	0	35	0	425721856	63	5037
2026-01-16 20:00:29.06	96.22	11.66	-45.8	-48.7	12.2	5.92e-01	0	35	0	442499072	63	4936
2026-01-16 20:00:30.07	96.49	11.63	-45.7	-48.6	12.3	5.92e-01	0	35	0	457179136	63	4898
2026-01-16 20:00:31.08	96.77	11.59	-45.6	-48.5	12.4	5.92e-01	0	34	0	471859200	62	5101
2026-01-16 20:00:32.08	97.03	11.56	-45.6	-48.4	12.4	5.92e-01	0	35	0	488636416	62	5096
2026-01-16 20:00:33.09	97.30	11.52	-45.8	-48.7	12.2	5.92e-01	0	35	0	503316480	62	5233
2026-01-16 20:00:34.10	97.57	11.49	-45.3	-48.2	12.6	5.91e-01	0	35	0	517996544	62	4967
2026-01-16 20:00:35.11	97.84	11.45	-45.5	-48.4	12.4	5.91e-01	0	35	0	534773760	62	5084
2026-01-16 20:00:36.12	98.10	11.42	-45.4	-48.3	12.5	5.91e-01	0	35	0	549453824	62	5029
2026-01-16 20:00:37.13	98.37	11.38	-45.5	-48.5	12.4	5.92e-01	0	34	0	566231040	62	5123
2026-01-16 20:00:38.14	98.63	11.34	-44.9	-47.8	13.0	5.90e-01	0	35	0	580911104	61	5001
2026-01-16 20:00:39.14	98.90	11.31	-44.5	-47.3	13.4	5.89e-01	0	35	0	597688320	61	4730
2026-01-16 20:00:40.15	99.16	11.27	-44.2	-46.9	13.7	5.88e-01	0	35	0	612368384	60	4813
2026-01-16 20:00:41.16	99.42	11.23	-44.1	-46.9	13.7	5.88e-01	0	35	0	627048448	59	5069
2026-01-16 20:00:42.17	99.68	11.19	-43.9	-46.6	14.0	5.88e-01	0	35	0	643825664	59	4923
2026-01-16 20:00:43.18	99.94	11.15	-43.6	-46.4	14.2	5.88e-01	0	35	0	658505728	59	4777
2026-01-16 20:00:44.19	100.21	11.11	-43.8	-46.5	14.1	5.88e-01	0	35	0	673185792	59	4817
2026-01-16 20:00:45.20	100.46	11.07	-43.3	-45.9	14.5	5.88e-01	0	35	0	689963008	58	4808
2026-01-16 20:00:46.21	100.72	11.03	-43.3	-45.9	14.6	5.88e-01	0	34	0	704643072	58	4784
2026-01-16 20:00:47.22	100.98	10.99	-43.2	-45.8	14.7	5.89e-01	0	35	0	719323136	58	4714
2026-01-16 20:00:48.22	101.24	10.95	-43.3	-45.9	14.5	6.04e-01	0	35	0	736100352	58	4761
2026-01-16 20:00:49.23	101.49	10.91	-43.4	-45.9	14.5	6.00e-01	0	35	0	752877568	58	4799
2026-01-16 20:00:50.24	101.75	10.87	-43.6	-46.1	14.4	5.98e-01	0	34	0	767557632	58	4893
2026-01-16 20:00:51.25	102.00	10.83	-43.8	-46.3	14.2	5.93e-01	0	35	0	782237696	58	4986
2026-01-16 20:00:52.26	102.25	10.79	-43.9	-46.5	14.0	5.94e-01	0	35	0	799014912	58	5116
2026-01-16 20:00:53.27	102.51	10.75	-43.7	-46.1	14.3	5.97e-01	0	35	0	813694976	58	4915
2026-01-16 20:00:54.28	102.76	10.70	-43.8	-46.2	14.2	6.00e-01	0	35	0	828375040	58	4956
2026-01-16 20:00:55.28	103.01	10.66	-43.8	-46.2	14.2	5.99e-01	0	35	0	845152256	58	4948
2026-01-16 20:00:56.29	103.26	10.62	-43.9	-46.3	14.1	5.99e-01	0	35	0	859832320	58	5039
2026-01-16 20:00:57.30	103.51	10.57	-43.8	-46.3	14.1	5.98e-01	0	35	0	874512384	58	5022
2026-01-16 20:00:58.31	103.75	10.53	-43.8	-46.3	14.1	6.02e-01	0	35	0	891289600	58	5018
2026-01-16 20:00:59.32	104.00	10.49	-44.0	-46.6	13.9	6.02e-01	0	35	0	905969664	58	5172
2026-01-16 20:01:00.33	104.25	10.44	-44.0	-46.5	13.9	6.04e-01	0	35	0	922746880	58	5120
2026-01-16 20:01:01.34	104.49	10.40	-44.1	-46.6	13.9	5.99e-01	0	35	0	937426944	59	4882
2026-01-16 20:01:02.34	104.74	10.35	-44.1	-46.6	13.9	6.03e-01	0	35	0	954204160	59	4897
2026-01-16 20:01:03.35	104.98	10.31	-44.3	-46.8	13.6	6.05e-01	0	35	0	968884224	59	5018
2026-01-16 20:01:04.36	105.22	10.26	-44.2	-46.7	13.7	6.05e-01	0	35	0	983564288	59	4967
2026-01-16 20:01:05.37	105.46	10.21	-44.2	-46.9	13.6	6.06e-01	0	35	0	1000341504	59	5052
2026-01-16 20:01:06.38	105.71	10.17	-44.0	-46.7	13.8	6.06e-01	0	35	0	1015021568	59	4949
2026-01-16 20:01:07.39	105.95	10.12	-44.2	-46.9	13.6	6.07e-01	0	35	0	1029701632	59	5052
2026-01-16 20:01:08.40	106.18	10.08	-44.3	-47.1	13.3	6.06e-01	0	35	0	1046478848	59	5211
2026-01-16 20:01:09.41	106.42	10.03	-44.3	-47.2	13.3	6.06e-01	0	35	0	1061158912	59	5220
2026-01-16 20:01:10.42	106.66	9.98	-44.4	-47.3	13.2	6.06e-01	0	35	0	1075838976	59	5296
2026-01-16 20:01:11.43	106.90	9.93	-44.4	-47.3	13.2	6.01e-01	0	34	0	1092616192	59	5311
2026-01-16 20:01:12.43	107.13	9.89	-44.3	-47.3	13.2	6.04e-01	0	35	0	1109393408	59	5281
2026-01-16 20:01:13.45	107.37	9.84	-44.3	-47.3	13.2	6.08e-01	0	35	0	1124073472	59	5307
2026-01-16 20:01:14.45	107.60	9.79	-44.3	-47.3	13.2	5.99e-01	0	35	0	1138753536	59	5295
2026-01-16 20:01:15.47	107.83	9.74	-44.4	-47.2	13.2	6.04e-01	0	35	0	1155530752	59	5267
2026-01-16 20:01:16.47	108.06	9.69	-44.6	-47.5	13.1	5.99e-01	0	35	0	1170210816	60	5125
2026-01-16 20:01:17.48	108.29	9.64	-44.3	-47.0	13.4	6.05e-01	0	35	0	1184890880	60	4862
2026-01-16 20:01:18.49	108.52	9.60	-44.3	-47.0	13.4	6.06e-01	0	35	0	1201668096	60	4844
2026-01-16 20:01:19.51	108.75	9.55	-44.4	-47.1	13.3	6.05e-01	0	35	0	1216348160	60	4885
2026-01-16 20:01:20.51	108.98	9.50	-44.4	-47.0	13.5	6.06e-01	0	35	0	1231028224	60	4846
2026-01-16 20:01:21.53	109.21	9.45	-44.2	-46.7	13.7	6.04e-01	0	35	0	1247805440	60	4681
2026-01-16 20:01:22.53	109.43	9.40	-44.2	-46.7	13.7	6.05e-01	0	35	0	1264582656	60	4685
2026-01-16 20:01:23.54	109.66	9.35	-44.2	-46.6	13.8	6.07e-01	0	35	0	1279262720	60	4644
2026-01-16 20:01:24.55	109.88	9.30	-44.3	-46.8	13.7	6.06e-01	0	35	0	1293942784	60	4716
2026-01-16 20:01:25.56	110.11	9.25	-44.4	-46.9	13.5	6.07e-01	0	35	0	1310720000	60	4772
2026-01-16 20:01:26.56	110.33	9.20	-44.5	-47.0	13.5	6.05e-01	0	35	0	1325400064	60	4842
2026-01-16 20:01:27.57	110.55	9.14	-44.5	-47.0	13.5	6.05e-01	0	35	0	1340080128	60	4836
2026-01-16 20:01:28.58	110.77	9.09	-44.3	-46.7	13.7	6.08e-01	0	35	0	1356857344	60	4695
2026-01-16 20:01:29.59	110.99	9.04	-44.5	-46.9	13.5	6.03e-01	0	35	0	1371537408	60	4799
2026-01-16 20:01:30.60	111.21	8.99	-44.6	-47.2	13.3	6.04e-01	0	35	0	1386217472	60	4930
2026-01-16 20:01:31.61	111.43	8.94	-44.8	-47.3	13.1	6.03e-01	0	35	0	1402994688	60	5035
2026-01-16 20:01:32.62	111.64	8.89	-44.4	-47.0	13.5	6.05e-01	0	34	0	1417674752	60	4830
2026-01-16 20:01:33.63	111.86	8.84	-44.7	-47.3	13.2	6.03e-01	0	35	0	1434451968	60	4995
2026-01-16 20:01:34.64	112.07	8.78	-44.7	-47.3	13.2	6.03e-01	0	35	0	1449132032	60	4999
2026-01-16 20:01:35.64	112.29	8.73	-44.8	-47.5	13.0	6.05e-01	0	35	0	1465909248	60	5132
2026-01-16 20:01:36.65	112.50	8.68	-44.9	-47.6	12.9	6.04e-01	0	35	0	1480589312	60	5203
2026-01-16 20:01:37.66	112.71	8.63	-44.9	-47.6	12.8	6.06e-01	0	35	0	1495269376	60	5210
2026-01-16 20:01:38.67	112.92	8.57	-44.8	-47.6	12.9	6.07e-01	0	35	0	1512046592	60	5161
2026-01-16 20:01:39.68	113.13	8.52	-44.9	-47.6	12.8	6.04e-01	0	35	0	1526726656	60	5196
2026-01-16 20:01:40.69	113.34	8.47	-44.7	-47.4	12.9	6.08e-01	0	35	0	1541406720	60	5094
2026-01-16 20:01:41.70	113.55	8.42	-44.8	-47.5	12.9	6.08e-01	0	35	0	1556086784	60	5127
2026-01-16 20:01:42.71	113.76	8.36	-45.1	-47.8	12.6	6.02e-01	0	35	0	1572864000	60	5335
2026-01-16 20:01:43.72	113.97	8.31	-45.0	-47.7	12.6	6.09e-01	0	35	0	1587544064	60	5261
2026-01-16 20:01:44.72	114.17	8.26	-45.0	-47.7	12.7	6.06e-01	0	35	0	1604321280	60	5246
2026-01-16 20:01:45.73	114.37	8.20	-45.2	-47.9	12.5	6.06e-01	0	35	0	1621098496	61	5090
2026-01-16 20:01:46.74	114.58	8.15	-45.1	-47.8	12.7	6.04e-01	0	35	0	1635778560	61	4988
2026-01-16 20:01:47.75	114.78	8.09	-45.3	-48.0	12.4	6.10e-01	0	35	0	1650458624	61	5154
2026-01-16 20:01:48.76	114.98	8.04	-45.1	-47.8	12.5	6.10e-01	0	35	0	1665138688	61	5025
2026-01-16 20:01:49.76	115.18	7.99	-45.1	-47.7	12.7	6.08e-01	0	35	0	1681915904	61	4952
2026-01-16 20:01:50.77	115.38	7.93	-44.9	-47.5	12.9	6.07e-01	0	35	0	1696595968	61	4817
2026-01-16 20:01:51.78	115.58	7.88	-44.9	-47.5	12.8	6.07e-01	0	35	0	1711276032	61	4815
2026-01-16 20:01:52.79	115.78	7.82	-45.0	-47.6	12.7	6.07e-01	0	35	0	1728053248	61	4893
2026-01-16 20:01:53.80	115.98	7.77	-44.6	-47.1	13.1	6.03e-01	0	35	0	1742733312	61	4649
2026-01-16 20:01:54.81	116.18	7.72	-44.8	-47.4	12.9	6.06e-01	0	35	0	1757413376	61	4771
2026-01-16 20:01:55.82	116.37	7.66	-45.0	-47.6	12.7	6.09e-01	0	35	0	1774190592	61	4884
2026-01-16 20:01:56.83	116.57	7.61	-44.9	-47.4	12.8	6.08e-01	0	35	0	1790967808	61	4787
2026-01-16 20:01:57.84	116.76	7.55	-44.9	-47.4	12.8	6.07e-01	0	35	0	1805647872	61	4788
2026-01-16 20:01:58.85	116.95	7.50	-45.1	-47.6	12.5	6.06e-01	0	35	0	1820327936	61	4923
2026-01-16 20:01:59.86	117.15	7.44	-45.0	-47.5	12.7	6.06e-01	0	35	0	1837105152	61	4831
2026-01-16 20:02:00.86	117.34	7.39	-44.9	-47.4	12.8	6.09e-01	0	35	0	1851785216	61	4765
2026-01-16 20:02:01.87	117.53	7.33	-45.0	-47.4	12.8	6.07e-01	0	35	0	1866465280	61	4780
2026-01-16 20:02:02.88	117.72	7.28	-45.3	-47.7	12.5	6.06e-01	0	35	0	1883242496	61	4978
2026-01-16 20:02:03.89	117.91	7.22	-45.4	-47.9	12.3	6.07e-01	0	35	0	1897922560	61	5070
2026-01-16 20:02:04.90	118.09	7.17	-45.5	-48.0	12.1	6.09e-01	0	35	0	1912602624	61	5146
2026-01-16 20:02:05.91	118.28	7.11	-45.2	-47.6	12.5	6.08e-01	0	35	0	1929379840	61	4887
2026-01-16 20:02:06.91	118.46	7.06	-45.4	-47.9	12.2	6.12e-01	0	35	0	1944059904	61	5053
2026-01-16 20:02:07.92	118.65	7.00	-45.5	-48.0	12.1	6.11e-01	0	35	0	1958739968	61	5124
2026-01-16 20:02:08.93	118.83	6.95	-45.5	-48.0	12.1	6.10e-01	0	35	0	1975517184	61	5145
2026-01-16 20:02:09.94	119.02	6.89	-45.1	-47.7	12.4	6.07e-01	0	35	0	1992294400	61	4945
2026-01-16 20:02:10.95	119.20	6.84	-45.5	-48.2	11.9	6.11e-01	0	35	0	2006974464	61	5222
2026-01-16 20:02:11.95	119.38	6.78	-45.7	-48.4	11.7	6.12e-01	0	35	0	2021654528	61	5354
2026-01-16 20:02:12.96	119.56	6.72	-45.3	-47.9	12.2	6.08e-01	0	34	0	2038431744	62	4787
2026-01-16 20:02:13.97	119.74	6.67	-45.4	-48.1	12.0	6.09e-01	0	35	0	2053111808	62	4879
2026-01-16 20:02:14.99	119.92	6.61	-45.5	-48.2	11.9	6.12e-01	0	35	0	2067791872	62	4978
2026-01-16 20:02:15.99	120.10	6.56	-45.4	-48.2	11.9	6.12e-01	0	35	0	2084569088	62	4936
2026-01-16 20:02:17.00	120.28	6.50	-45.4	-48.1	11.9	6.10e-01	0	35	0	2099249152	62	4921
2026-01-16 20:02:18.01	120.46	6.45	-45.5	-48.2	11.8	6.13e-01	0	35	0	2113929216	62	4979
2026-01-16 20:02:19.02	120.63	6.39	-45.4	-48.1	11.9	6.12e-01	0	35	0	2130706432	62	4896
2026-01-16 20:02:20.03	120.81	6.33	-45.6	-48.3	11.7	6.11e-01	0	35	0	2147483648	62	5022
2026-01-16 20:02:21.04	120.98	6.28	-45.4	-48.1	11.9	6.11e-01	0	35	0	2162163712	62	4885
2026-01-16 20:02:22.05	121.16	6.22	-45.5	-48.2	11.8	6.09e-01	0	35	0	2176843776	62	4958
2026-01-16 20:02:23.06	121.33	6.17	-45.3	-48.0	12.0	6.10e-01	0	35	0	2193620992	62	4828
2026-01-16 20:02:24.06	121.50	6.11	-45.4	-48.0	11.9	6.10e-01	0	35	0	2208301056	62	4837
2026-01-16 20:02:25.07	121.67	6.05	-45.3	-47.8	12.1	6.08e-01	0	35	0	2222981120	62	4725
2026-01-16 20:02:26.08	121.84	6.00	-45.8	-48.4	11.5	6.12e-01	0	35	0	2239758336	62	5075
2026-01-16 20:02:27.09	122.01	5.94	-45.6	-48.2	11.7	6.11e-01	0	35	0	2254438400	62	4930
2026-01-16 20:02:28.10	122.18	5.89	-45.5	-48.1	11.9	6.09e-01	0	35	0	2269118464	62	4872
2026-01-16 20:02:29.11	122.35	5.83	-45.5	-48.1	11.8	6.10e-01	0	35	0	2285895680	62	4901
2026-01-16 20:02:30.11	122.51	5.77	-45.6	-48.2	11.7	6.09e-01	0	35	0	2300575744	62	4959
2026-01-16 20:02:31.12	122.68	5.72	-45.4	-48.0	11.9	6.10e-01	0	35	0	2315255808	62	4817
2026-01-16 20:02:32.13	122.84	5.66	-45.5	-48.0	11.9	6.11e-01	0	35	0	2332033024	62	4843
2026-01-16 20:02:33.14	123.01	5.61	-45.4	-48.0	11.9	6.07e-01	0	35	0	2348810240	62	4818
2026-01-16 20:02:34.15	123.17	5.55	-46.0	-48.6	11.2	6.13e-01	0	35	0	2363490304	62	5195
2026-01-16 20:02:35.15	123.33	5.49	-45.6	-48.3	11.6	6.08e-01	0	35	0	2378170368	62	4988
2026-01-16 20:02:36.16	123.50	5.44	-45.5	-48.1	11.7	6.11e-01	0	35	0	2394947584	62	4926
2026-01-16 20:02:37.17	123.66	5.38	-46.0	-48.6	11.1	6.11e-01	0	35	0	2409627648	62	5215
2026-01-16 20:02:38.18	123.82	5.33	-45.8	-48.5	11.3	6.10e-01	0	35	0	2424307712	62	5110
2026-01-16 20:02:39.19	123.98	5.27	-45.9	-48.5	11.2	6.10e-01	0	35	0	2441084928	62	5157
2026-01-16 20:02:40.19	124.14	5.21	-45.9	-48.6	11.1	6.08e-01	0	35	0	2455764992	62	5165
2026-01-16 20:02:41.20	124.30	5.16	-45.8	-48.5	11.2	6.12e-01	0	35	0	2470445056	62	5124
2026-01-16 20:02:42.21	124.46	5.10	-46.1	-48.8	10.9	6.17e-01	0	35	0	2487222272	62	5322
2026-01-16 20:02:43.22	124.61	5.05	-45.4	-48.0	11.6	6.11e-01	0	35	0	2501902336	62	4837
2026-01-16 20:02:44.22	124.77	4.99	-45.6	-48.2	11.4	6.09e-01	0	35	0	2518679552	62	4967
2026-01-16 20:02:45.23	124.92	4.93	-52.4	-61.2	3.8	7.47e-01	0	35	104	2531262464	75	10424
2026-01-16 20:02:46.24	125.08	4.88	-52.8	-61.5	3.8	7.43e-01	0	35	104	2531262464	76	10285
2026-01-16 20:02:47.25	125.23	4.82	-53.1	-61.9	3.8	7.45e-01	0	35	104	2531262464	76	10716
2026-01-16 20:02:48.26	125.39	4.77	-53.3	-62.2	3.8	7.45e-01	0	35	104	2531262464	77	10464
2026-01-16 20:02:49.27	125.54	4.71	-53.5	-62.4	3.8	7.45e-01	0	35	104	2531262464	77	10657
2026-01-16 20:02:50.28	125.69	4.65	-53.6	-62.5	3.8	7.45e-01	0	35	104	2531262464	77	10820
2026-01-16 20:02:51.29	125.84	4.60	-53.8	-62.6	3.8	7.46e-01	0	35	104	2531262464	78	10352
2026-01-16 20:02:52.29	125.99	4.54	-53.8	-62.7	3.8	7.45e-01	0	35	104	2531262464	78	10437
2026-01-16 20:02:53.31	126.14	4.49	-53.9	-62.7	3.8	7.46e-01	0	35	104	2531262464	78	10515
2026-01-16 20:02:54.31	126.29	4.43	-54.0	-62.8	3.8	7.46e-01	0	35	104	2531262464	78	10635
2026-01-16 20:02:55.32	126.44	4.38	-54.0	-62.9	3.8	7.46e-01	0	35	104	2531262464	78	10698
2026-01-16 20:02:56.33	126.59	4.32	-54.1	-62.9	3.8	7.44e-01	0	35	104	2531262464	78	10682
2026-01-16 20:02:57.34	126.74	4.26	-54.1	-63.0	3.8	7.45e-01	0	35	104	2531262464	78	10814
2026-01-16 20:02:58.35	126.88	4.21	-54.1	-63.0	3.8	7.46e-01	0	35	104	2531262464	78	10810
2026-01-16 20:02:59.36	127.03	4.15	-54.2	-63.0	3.8	7.45e-01	0	35	104	2531262464	78	10839
2026-01-16 20:03:00.36	127.17	4.10	-54.2	-63.0	3.8	7.45e-01	0	35	104	2531262464	78	10859
2026-01-16 20:03:01.37	127.32	4.04	-54.2	-63.0	3.8	7.47e-01	0	35	104	2531262464	78	10850
2026-01-16 20:03:02.38	127.46	3.99	-54.2	-63.1	3.8	7.44e-01	0	35	104	2531262464	78	10915
2026-01-16 20:03:03.39	127.60	3.93	-54.2	-63.1	3.8	7.45e-01	0	35	104	2531262464	78	10912
2026-01-16 20:03:04.40	127.75	3.87	-54.2	-63.0	3.8	7.45e-01	0	35	104	2531262464	78	10876
2026-01-16 20:03:05.41	127.89	3.82	-54.2	-63.1	3.8	7.44e-01	0	35	104	2531262464	78	10916
2026-01-16 20:03:06.42	128.03	3.76	-54.2	-63.0	3.8	7.46e-01	0	35	104	2531262464	78	10884
2026-01-16 20:03:07.43	128.17	3.71	-54.2	-63.1	3.8	7.46e-01	0	35	104	2531262464	78	10918
2026-01-16 20:03:08.43	128.31	3.65	-54.2	-63.1	3.8	7.43e-01	0	35	104	2531262464	79	10322
2026-01-16 20:03:09.44	128.45	3.60	-54.2	-63.1	3.8	7.45e-01	0	35	104	2531262464	79	10328
2026-01-16 20:03:10.45	128.58	3.54	-54.2	-63.1	3.8	7.45e-01	0	35	104	2531262464	79	10306
2026-01-16 20:03:11.46	128.72	3.49	-54.2	-63.1	3.8	7.45e-01	0	35	104	2531262464	79	10355
2026-01-16 20:03:12.47	128.86	3.43	-54.2	-63.1	3.8	7.45e-01	0	35	104	2531262464	79	10327
2026-01-16 20:03:13.48	129.00	3.37	-54.2	-63.1	3.8	7.44e-01	0	35	104	2531262464	79	10299
2026-01-16 20:03:14.49	129.13	3.32	-54.2	-63.0	3.8	7.46e-01	0	35	104	2531262464	79	10284
2026-01-16 20:03:15.50	129.27	3.26	-54.2	-63.0	3.8	7.46e-01	0	35	104	2531262464	79	10276
2026-01-16 20:03:16.50	129.40	3.21	-54.2	-63.0	3.8	7.46e-01	0	35	104	2531262464	79	10292
2026-01-16 20:03:17.51	129.54	3.15	-54.2	-63.0	3.8	7.45e-01	0	35	104	2531262464	79	10246
2026-01-16 20:03:18.52	129.67	3.10	-54.2	-63.0	3.8	7.45e-01	0	35	104	2531262464	79	10281
2026-01-16 20:03:19.53	129.80	3.04	-54.2	-63.0	3.8	7.46e-01	0	35	104	2531262464	79	10241
2026-01-16 20:03:20.54	129.93	2.99	-54.2	-63.1	3.8	7.45e-01	0	35	104	2531262464	79	10308
2026-01-16 20:03:21.55	130.07	2.93	-54.2	-63.0	3.8	7.46e-01	0	35	104	2531262464	79	10243
2026-01-16 20:03:22.56	130.20	2.88	-54.2	-63.0	3.8	7.45e-01	0	35	104	2531262464	79	10201
2026-01-16 20:03:23.56	130.33	2.82	-54.1	-63.0	3.8	7.45e-01	0	35	104	2531262464	79	10195
2026-01-16 20:03:24.57	130.46	2.77	-54.1	-63.0	3.8	7.46e-01	0	35	104	2531262464	79	10194
2026-01-16 20:03:25.58	130.58	2.71	-54.1	-63.0	3.8	7.45e-01	0	35	104	2531262464	79	10230
2026-01-16 20:03:26.59	130.71	2.66	-54.1	-63.0	3.8	7.46e-01	0	35	104	2531262464	79	10180
2026-01-16 20:03:27.60	130.84	2.61	-54.1	-62.9	3.8	7.45e-01	0	35	104	2531262464	79	10129
2026-01-16 20:03:28.61	130.97	2.55	-54.1	-63.0	3.8	7.45e-01	0	35	104	2531262464	79	10222
2026-01-16 20:03:29.62	131.10	2.50	-54.1	-62.9	3.8	7.45e-01	0	35	104	2531262464	79	10166
2026-01-16 20:03:30.62	131.22	2.44	-54.1	-62.9	3.8	7.46e-01	0	35	104	2531262464	79	10173
2026-01-16 20:03:31.63	131.35	2.39	-54.1	-63.0	3.8	7.44e-01	0	35	104	2531262464	79	10193
2026-01-16 20:03:32.64	131.47	2.33	-54.1	-63.0	3.8	7.44e-01	0	35	104	2531262464	79	10234
2026-01-16 20:03:33.65	131.60	2.28	-54.1	-63.0	3.8	7.45e-01	0	35	104	2531262464	79	10209
2026-01-16 20:03:34.66	131.72	2.22	-54.1	-63.0	3.8	7.46e-01	0	35	104	2531262464	79	10216
2026-01-16 20:03:35.67	131.84	2.17	-54.1	-63.0	3.8	7.46e-01	0	35	104	2531262464	79	10215
2026-01-16 20:03:36.68	131.97	2.11	-54.1	-63.0	3.8	7.45e-01	0	35	104	2531262464	79	10206
2026-01-16 20:03:37.69	132.09	2.06	-54.1	-63.0	3.8	7.45e-01	0	35	104	2531262464	79	10188
2026-01-16 20:03:38.70	132.21	2.01	-54.1	-63.0	3.8	7.45e-01	0	35	104	2531262464	79	10199
2026-01-16 20:03:39.70	132.33	1.95	-54.1	-62.9	3.8	7.44e-01	0	35	104	2531262464	79	10140
2026-01-16 20:03:40.71	132.45	1.90	-54.1	-63.0	3.8	7.46e-01	0	35	104	2531262464	79	10217

#Closed at: 2026-01-16 20:03:41
#Recorded file [2531 MB]: D:/lorett/data/31041_260116_225515.dat