passes_logs/2026/01/16/R3.2S_Murmansk/R3.2S_Murmansk__20260116_090947_SUOMI_NPP_rec.log

#Pass ID: 20260116_090947_SUOMI NPP
#Satellite: SUOMI NPP
#Configuration: NPP
#almurnet v.1.7.20251203
#Start time: 2026-01-16 09:09:48

#Version: 2.2.20231116
#Station: R3.2S_Murmansk
#Location: 33.079688 lon 68.888172 lat
#TLE: 1 37849U 11061A   26015.94982489  .00000054  00000+0  46705-4 0  9991
#TLE: 2 37849  98.7812 317.9902 0002438  62.0366 298.1057 14.19525452736847

#Time	Az	El	Level	Level2	SNR	BER	BlckErr	Temp	State	Recorded	gain1	gain2
2026-01-16 09:09:48.04	141.32	2.06	-57.0	-71.5	3.8	1.49e+00	0	42	0	0	86	18285
2026-01-16 09:09:49.06	141.32	2.13	-57.0	-71.6	3.8	1.49e+00	0	42	104	0	84	20555
2026-01-16 09:09:50.06	141.31	2.19	-57.0	-71.6	3.8	1.49e+00	0	42	104	0	84	20550
2026-01-16 09:09:51.07	141.30	2.26	-57.0	-71.5	3.8	1.49e+00	0	42	104	0	84	20464
2026-01-16 09:09:52.08	141.29	2.32	-57.0	-71.5	3.8	1.49e+00	0	42	104	0	84	20497
2026-01-16 09:09:53.09	141.28	2.39	-57.0	-71.5	3.8	1.49e+00	0	42	104	0	84	20507
2026-01-16 09:09:54.10	141.27	2.45	-57.0	-71.5	3.8	1.49e+00	0	42	104	0	84	20464
2026-01-16 09:09:55.11	141.26	2.52	-57.0	-71.5	3.8	1.49e+00	0	42	104	0	84	20461
2026-01-16 09:09:56.12	141.25	2.59	-57.0	-71.5	3.8	1.49e+00	0	42	104	0	84	20510
2026-01-16 09:09:57.13	141.25	2.65	-57.0	-71.5	3.8	1.49e+00	0	43	104	0	84	20440
2026-01-16 09:09:58.14	141.24	2.72	-57.0	-71.5	3.8	1.49e+00	0	42	104	0	84	20446
2026-01-16 09:09:59.14	141.23	2.78	-57.0	-71.5	3.8	1.49e+00	0	43	104	0	84	20422
2026-01-16 09:10:00.15	141.22	2.85	-57.0	-71.5	3.8	1.49e+00	0	42	104	0	84	20432
2026-01-16 09:10:01.16	141.21	2.92	-57.0	-71.5	3.8	1.49e+00	0	43	104	0	84	20340
2026-01-16 09:10:02.17	141.20	2.98	-57.0	-71.5	3.8	1.49e+00	0	43	104	0	84	20356
2026-01-16 09:10:03.18	141.19	3.05	-57.0	-71.5	3.8	1.49e+00	0	43	104	0	84	20409
2026-01-16 09:10:04.19	141.18	3.12	-57.0	-71.5	3.8	1.49e+00	0	43	104	0	84	20345
2026-01-16 09:10:05.20	141.17	3.19	-57.0	-71.4	3.8	1.49e+00	0	43	104	0	84	20248
2026-01-16 09:10:06.21	141.16	3.25	-57.0	-71.4	3.8	1.49e+00	0	43	104	0	84	20189
2026-01-16 09:10:07.21	141.15	3.32	-57.0	-71.3	3.8	1.49e+00	0	43	104	0	84	19974
2026-01-16 09:10:08.22	141.14	3.39	-57.0	-71.1	3.8	1.49e+00	0	43	104	0	84	19482
2026-01-16 09:10:09.23	141.13	3.46	-57.0	-70.9	3.8	1.49e+00	0	43	104	0	84	19008
2026-01-16 09:10:10.24	141.12	3.53	-57.0	-70.5	3.8	1.49e+00	0	43	104	0	84	18289
2026-01-16 09:10:11.25	141.11	3.59	-57.0	-70.4	3.8	1.49e+00	0	43	104	0	84	17910
2026-01-16 09:10:12.26	141.10	3.66	-56.9	-69.8	3.8	1.49e+00	0	43	104	0	84	16884
2026-01-16 09:10:13.26	141.09	3.73	-56.9	-69.5	3.8	1.49e+00	0	43	104	0	84	16200
2026-01-16 09:10:14.27	141.08	3.80	-56.9	-68.9	4.0	1.49e+00	0	43	104	0	84	15116
2026-01-16 09:10:15.28	141.07	3.87	-56.8	-68.0	4.2	1.47e+00	0	43	0	0	84	13623
2026-01-16 09:10:16.29	141.06	3.94	-56.9	-68.3	4.1	1.48e+00	0	43	104	0	84	14188
2026-01-16 09:10:17.30	141.05	4.01	-56.8	-67.2	4.4	1.30e+00	109	44	0	0	84	12479
2026-01-16 09:10:18.30	141.04	4.08	-56.8	-67.2	4.4	1.16e+00	119	44	0	2097152	84	12484
2026-01-16 09:10:19.31	141.03	4.15	-56.7	-66.4	4.8	8.12e-01	0	43	0	4194304	84	11379
2026-01-16 09:10:20.32	141.02	4.22	-56.7	-66.2	4.8	9.40e-01	0	44	0	6291456	84	11132
2026-01-16 09:10:21.33	141.01	4.29	-56.5	-64.6	5.9	5.07e-01	0	44	0	7340032	84	9234
2026-01-16 09:10:22.33	141.00	4.36	-56.3	-63.8	6.5	2.66e-01	0	44	0	9437184	84	8439
2026-01-16 09:10:23.34	140.99	4.43	-56.0	-62.3	7.9	1.05e-01	0	44	0	11534336	84	7047
2026-01-16 09:10:24.35	140.98	4.50	-55.7	-61.3	8.8	4.35e-02	0	44	0	13631488	83	6670
2026-01-16 09:10:25.36	140.97	4.57	-55.4	-60.2	10.0	1.30e-02	0	44	0	15728640	82	6221
2026-01-16 09:10:26.37	140.96	4.64	-55.0	-59.2	11.0	3.80e-03	0	44	0	17825792	81	5865
2026-01-16 09:10:27.38	140.95	4.71	-54.5	-58.0	12.2	3.04e-04	0	44	0	18874368	81	5137
2026-01-16 09:10:28.39	140.94	4.78	-54.1	-57.2	13.1	1.28e-04	0	44	0	20971520	80	4957
2026-01-16 09:10:29.39	140.93	4.85	-53.3	-55.6	14.8	3.00e-06	0	44	0	23068672	78	4620
2026-01-16 09:10:30.40	140.92	4.93	-53.7	-56.4	14.0	0.00e+00	0	44	0	25165824	78	5061
2026-01-16 09:10:31.41	140.91	5.00	-53.3	-55.7	14.7	3.00e-06	0	44	0	26214400	78	4670
2026-01-16 09:10:32.42	140.89	5.07	-53.3	-55.7	14.8	0.00e+00	0	44	0	28311552	77	4942
2026-01-16 09:10:33.43	140.88	5.14	-55.2	-59.5	10.9	1.95e-03	0	44	0	30408704	80	6474
2026-01-16 09:10:34.44	140.87	5.22	-54.3	-57.5	12.4	4.67e-02	0	44	0	32505856	80	5124
2026-01-16 09:10:35.45	140.86	5.29	-53.3	-55.7	14.5	1.16e-04	0	44	0	34603008	78	4686
2026-01-16 09:10:36.46	140.85	5.36	-52.8	-54.7	15.8	0.00e+00	0	44	0	36700160	77	4440
2026-01-16 09:10:37.46	140.84	5.43	-53.9	-56.6	13.5	2.32e-03	0	44	0	37748736	79	4917
2026-01-16 09:10:38.47	140.83	5.51	-52.7	-54.6	15.8	0.00e+00	0	44	0	39845888	77	4371
2026-01-16 09:10:39.48	140.81	5.58	-52.7	-54.6	15.9	0.00e+00	0	44	0	41943040	77	4376
2026-01-16 09:10:40.49	140.80	5.65	-52.8	-54.9	15.6	0.00e+00	0	44	0	44040192	77	4526
2026-01-16 09:10:41.50	140.79	5.73	-52.8	-54.8	15.7	0.00e+00	0	44	0	46137344	77	4463
2026-01-16 09:10:42.50	140.78	5.80	-52.8	-54.8	15.7	0.00e+00	0	44	0	47185920	77	4481
2026-01-16 09:10:43.51	140.77	5.88	-52.7	-54.7	15.9	0.00e+00	0	44	0	49283072	77	4406
2026-01-16 09:10:44.52	140.75	5.95	-52.9	-54.9	15.7	0.00e+00	0	45	0	51380224	77	4525
2026-01-16 09:10:45.53	140.74	6.03	-52.7	-54.5	16.0	0.00e+00	0	45	0	53477376	77	4336
2026-01-16 09:10:46.54	140.73	6.10	-52.7	-54.5	16.1	0.00e+00	0	45	0	54525952	77	4336
2026-01-16 09:10:47.55	140.72	6.18	-52.6	-54.4	16.2	0.00e+00	0	45	0	56623104	76	4539
2026-01-16 09:10:48.56	140.71	6.25	-52.5	-54.3	16.3	0.00e+00	0	45	0	58720256	76	4454
2026-01-16 09:10:49.56	140.69	6.33	-52.6	-54.4	16.2	0.00e+00	0	45	0	60817408	76	4544
2026-01-16 09:10:50.57	140.68	6.40	-52.5	-54.3	16.3	0.00e+00	0	45	0	62914560	76	4489
2026-01-16 09:10:51.58	140.67	6.48	-52.6	-54.4	16.3	0.00e+00	0	45	0	65011712	76	4517
2026-01-16 09:10:52.59	140.66	6.56	-52.5	-54.3	16.4	0.00e+00	0	45	0	66060288	76	4469
2026-01-16 09:10:53.60	140.64	6.63	-52.3	-54.0	16.7	0.00e+00	0	45	0	68157440	76	4313
2026-01-16 09:10:54.61	140.63	6.71	-52.6	-54.3	16.3	0.00e+00	0	45	0	70254592	76	4489
2026-01-16 09:10:55.61	140.62	6.79	-52.5	-54.2	16.5	0.00e+00	0	45	0	72351744	76	4422
2026-01-16 09:10:56.62	140.60	6.86	-52.4	-54.1	16.6	0.00e+00	0	45	0	74448896	76	4369
2026-01-16 09:10:57.63	140.59	6.94	-52.4	-54.1	16.6	0.00e+00	0	45	0	75497472	76	4376
2026-01-16 09:10:58.64	140.58	7.02	-52.5	-54.2	16.5	0.00e+00	0	45	0	77594624	76	4425
2026-01-16 09:10:59.65	140.56	7.10	-52.4	-54.1	16.7	0.00e+00	0	45	0	79691776	76	4349
2026-01-16 09:11:00.66	140.55	7.18	-52.4	-54.1	16.6	0.00e+00	0	45	0	81788928	76	4364
2026-01-16 09:11:01.66	140.54	7.25	-52.4	-54.1	16.7	0.00e+00	0	45	0	83886080	76	4347
2026-01-16 09:11:02.67	140.52	7.33	-52.4	-54.1	16.7	0.00e+00	0	45	0	84934656	76	4349
2026-01-16 09:11:03.68	140.51	7.41	-52.5	-54.2	16.6	0.00e+00	0	45	0	87031808	76	4410
2026-01-16 09:11:04.69	140.50	7.49	-52.2	-53.9	16.9	0.00e+00	0	45	0	89128960	76	4249
2026-01-16 09:11:05.69	140.48	7.57	-52.4	-54.1	16.8	0.00e+00	0	45	0	91226112	76	4350
2026-01-16 09:11:06.70	140.47	7.65	-52.4	-54.1	16.7	0.00e+00	0	45	0	93323264	76	4380
2026-01-16 09:11:07.71	140.45	7.73	-52.4	-54.0	16.8	0.00e+00	0	45	0	94371840	76	4327
2026-01-16 09:11:08.72	140.44	7.81	-52.3	-53.9	16.9	0.00e+00	0	45	0	96468992	76	4267
2026-01-16 09:11:09.73	140.43	7.89	-52.2	-53.7	17.2	0.00e+00	0	45	0	98566144	76	4178
2026-01-16 09:11:10.73	140.41	7.97	-52.4	-54.0	16.9	0.00e+00	0	45	0	100663296	76	4313
2026-01-16 09:11:11.74	140.40	8.05	-52.4	-54.0	16.8	0.00e+00	0	45	0	102760448	76	4340
2026-01-16 09:11:12.75	140.38	8.13	-52.3	-53.9	17.0	0.00e+00	0	45	0	104857600	76	4279
2026-01-16 09:11:13.76	140.37	8.21	-52.4	-54.0	16.9	0.00e+00	0	45	0	105906176	76	4326
2026-01-16 09:11:14.77	140.35	8.30	-52.0	-53.5	17.4	0.00e+00	0	45	0	108003328	76	4067
2026-01-16 09:11:15.77	140.34	8.38	-52.1	-53.5	17.4	0.00e+00	0	46	0	110100480	76	4096
2026-01-16 09:11:16.78	140.32	8.46	-51.9	-53.4	17.5	0.00e+00	0	45	0	112197632	75	4243
2026-01-16 09:11:17.79	140.31	8.54	-52.0	-53.4	17.5	0.00e+00	0	45	0	113246208	75	4269
2026-01-16 09:11:18.79	140.29	8.62	-52.0	-53.4	17.5	0.00e+00	0	45	0	115343360	75	4291
2026-01-16 09:11:19.80	140.28	8.71	-52.0	-53.4	17.5	0.00e+00	0	45	0	117440512	75	4270
2026-01-16 09:11:20.81	140.26	8.79	-51.8	-53.2	17.7	0.00e+00	0	46	0	119537664	75	4191
2026-01-16 09:11:21.82	140.25	8.87	-51.8	-53.2	17.7	0.00e+00	0	45	0	121634816	75	4158
2026-01-16 09:11:22.83	140.23	8.96	-51.8	-53.1	17.8	0.00e+00	0	46	0	122683392	75	4142
2026-01-16 09:11:23.84	140.22	9.04	-51.9	-53.3	17.7	0.00e+00	0	46	0	124780544	75	4201
2026-01-16 09:11:24.85	140.20	9.13	-52.0	-53.4	17.6	0.00e+00	0	46	0	126877696	75	4277
2026-01-16 09:11:25.85	140.18	9.21	-51.8	-53.2	17.7	0.00e+00	0	46	0	128974848	75	4180
2026-01-16 09:11:26.86	140.17	9.30	-51.7	-53.1	17.9	0.00e+00	0	46	0	131072000	75	4115
2026-01-16 09:11:27.87	140.15	9.38	-51.9	-53.3	17.7	0.00e+00	0	46	0	133169152	75	4214
2026-01-16 09:11:28.88	140.14	9.47	-51.9	-53.3	17.7	0.00e+00	0	46	0	134217728	75	4217
2026-01-16 09:11:29.89	140.12	9.55	-51.8	-53.1	17.9	0.00e+00	0	46	0	136314880	75	4124
2026-01-16 09:11:30.89	140.10	9.64	-51.7	-53.1	17.9	0.00e+00	0	46	0	138412032	75	4113
2026-01-16 09:11:31.90	140.09	9.72	-51.7	-53.0	18.0	0.00e+00	0	46	0	140509184	75	4098
2026-01-16 09:11:32.91	140.07	9.81	-51.8	-53.2	17.8	0.00e+00	0	46	0	141557760	75	4172
2026-01-16 09:11:33.92	140.05	9.90	-51.7	-53.0	18.0	0.00e+00	0	46	0	143654912	75	4075
2026-01-16 09:11:34.93	140.04	9.99	-51.8	-53.1	18.0	0.00e+00	0	46	0	145752064	75	4119
2026-01-16 09:11:35.93	140.02	10.07	-51.6	-52.8	18.2	0.00e+00	0	46	0	147849216	75	4004
2026-01-16 09:11:36.94	140.00	10.16	-51.7	-53.0	18.0	0.00e+00	0	46	0	149946368	74	4333
2026-01-16 09:11:37.95	139.98	10.25	-51.6	-52.8	18.2	0.00e+00	0	46	0	152043520	74	4239
2026-01-16 09:11:38.96	139.97	10.34	-51.5	-52.8	18.2	0.00e+00	0	46	0	153092096	74	4213
2026-01-16 09:11:39.97	139.95	10.43	-51.4	-52.7	18.4	0.00e+00	0	46	0	155189248	74	4152
2026-01-16 09:11:40.98	139.93	10.52	-51.7	-53.0	18.1	0.00e+00	0	46	0	157286400	74	4303
2026-01-16 09:11:41.99	139.91	10.61	-51.6	-52.8	18.2	0.00e+00	0	46	0	159383552	74	4224
2026-01-16 09:11:43.00	139.90	10.70	-51.5	-52.7	18.4	0.00e+00	0	46	0	161480704	74	4159
2026-01-16 09:11:44.00	139.88	10.79	-51.3	-52.5	18.5	0.00e+00	0	46	0	162529280	74	4077
2026-01-16 09:11:45.01	139.86	10.88	-51.4	-52.6	18.4	0.00e+00	0	46	0	164626432	74	4114
2026-01-16 09:11:46.02	139.84	10.97	-51.2	-52.4	18.6	0.00e+00	0	46	0	166723584	74	4034
2026-01-16 09:11:47.02	139.82	11.06	-51.2	-52.4	18.7	0.00e+00	0	46	0	168820736	74	4010
2026-01-16 09:11:48.03	139.80	11.15	-51.2	-52.3	18.7	0.00e+00	0	46	0	169869312	74	3993
2026-01-16 09:11:49.04	139.79	11.24	-51.2	-52.4	18.7	0.00e+00	0	46	0	171966464	74	4028
2026-01-16 09:11:50.05	139.77	11.33	-51.2	-52.3	18.7	0.00e+00	0	46	0	174063616	74	4002
2026-01-16 09:11:51.06	139.75	11.43	-51.1	-52.2	18.9	0.00e+00	0	46	0	176160768	74	3953
2026-01-16 09:11:52.07	139.73	11.52	-51.1	-52.2	18.9	0.00e+00	0	47	0	178257920	74	3917
2026-01-16 09:11:53.08	139.71	11.61	-51.1	-52.2	18.9	0.00e+00	0	46	0	180355072	74	3937
2026-01-16 09:11:54.09	139.69	11.71	-50.9	-52.0	19.0	0.00e+00	0	46	0	181403648	73	4083
2026-01-16 09:11:55.09	139.67	11.80	-50.9	-52.0	19.1	0.00e+00	0	46	0	183500800	73	4069
2026-01-16 09:11:56.10	139.65	11.89	-50.9	-51.9	19.1	0.00e+00	0	46	0	185597952	73	4037
2026-01-16 09:11:57.11	139.63	11.99	-50.9	-52.0	19.1	0.00e+00	0	46	0	187695104	73	4076
2026-01-16 09:11:58.12	139.61	12.08	-50.8	-51.8	19.3	0.00e+00	0	47	0	189792256	73	3985
2026-01-16 09:11:59.13	139.59	12.18	-50.8	-51.9	19.2	0.00e+00	0	46	0	190840832	73	4010
2026-01-16 09:12:00.14	139.57	12.28	-50.7	-51.7	19.4	0.00e+00	0	47	0	192937984	73	3937
2026-01-16 09:12:01.15	139.55	12.37	-50.6	-51.6	19.4	0.00e+00	0	47	0	195035136	73	3907
2026-01-16 09:12:02.16	139.53	12.47	-50.6	-51.6	19.5	0.00e+00	0	46	0	197132288	73	3886
2026-01-16 09:12:03.17	139.51	12.57	-50.5	-51.5	19.6	0.00e+00	0	47	0	199229440	72	4066
2026-01-16 09:12:04.18	139.49	12.66	-50.6	-51.6	19.6	0.00e+00	0	46	0	200278016	72	4107
2026-01-16 09:12:05.18	139.47	12.76	-50.5	-51.5	19.6	0.00e+00	0	47	0	202375168	72	4069
2026-01-16 09:12:06.19	139.44	12.86	-50.6	-51.6	19.5	0.00e+00	0	47	0	204472320	72	4118
2026-01-16 09:12:07.20	139.42	12.96	-50.5	-51.5	19.6	0.00e+00	0	47	0	206569472	72	4057
2026-01-16 09:12:08.21	139.40	13.06	-50.4	-51.3	19.8	0.00e+00	0	46	0	208666624	72	3971
2026-01-16 09:12:09.22	139.38	13.16	-50.4	-51.3	19.8	0.00e+00	0	47	0	209715200	72	4002
2026-01-16 09:12:10.22	139.36	13.25	-50.3	-51.2	19.9	0.00e+00	0	47	0	211812352	72	3924
2026-01-16 09:12:11.23	139.33	13.35	-50.3	-51.3	19.9	0.00e+00	0	47	0	213909504	72	3959
2026-01-16 09:12:12.24	139.31	13.46	-50.4	-51.3	19.9	0.00e+00	0	47	0	216006656	72	3967
2026-01-16 09:12:13.25	139.29	13.56	-50.3	-51.2	19.9	0.00e+00	0	47	0	218103808	72	3943
2026-01-16 09:12:14.25	139.27	13.66	-50.3	-51.2	19.9	0.00e+00	0	47	0	219152384	72	3942
2026-01-16 09:12:15.26	139.24	13.76	-50.3	-51.2	20.0	0.00e+00	0	47	0	221249536	72	3914
2026-01-16 09:12:16.27	139.22	13.86	-50.2	-51.0	20.1	0.00e+00	0	47	0	223346688	72	3856
2026-01-16 09:12:17.27	139.20	13.96	-50.2	-51.1	20.1	0.00e+00	0	47	0	225443840	72	3872
2026-01-16 09:12:18.28	139.17	14.07	-50.2	-51.1	20.0	0.00e+00	0	47	0	227540992	72	3875
2026-01-16 09:12:19.29	139.15	14.17	-50.0	-51.0	20.1	0.00e+00	0	47	0	228589568	72	3828
2026-01-16 09:12:20.30	139.13	14.27	-50.1	-51.1	19.9	0.00e+00	0	47	0	230686720	72	3880
2026-01-16 09:12:21.31	139.10	14.38	-50.1	-51.1	19.9	0.00e+00	0	47	0	232783872	72	3881
2026-01-16 09:12:22.32	139.08	14.48	-50.1	-51.1	19.9	0.00e+00	0	47	0	234881024	72	3892
2026-01-16 09:12:23.32	139.06	14.59	-50.1	-51.0	20.0	0.00e+00	0	47	0	236978176	72	3866
2026-01-16 09:12:24.33	139.03	14.69	-50.2	-51.1	19.9	0.00e+00	0	47	0	238026752	72	3907
2026-01-16 09:12:25.34	139.01	14.80	-50.2	-51.2	19.9	0.00e+00	0	47	0	240123904	72	3924
2026-01-16 09:12:26.35	138.98	14.91	-50.2	-51.1	19.9	0.00e+00	0	47	0	242221056	72	3911
2026-01-16 09:12:27.36	138.96	15.01	-50.2	-51.1	20.0	0.00e+00	0	47	0	244318208	72	3893
2026-01-16 09:12:28.37	138.93	15.12	-50.3	-51.3	19.8	0.00e+00	0	47	0	246415360	72	3975
2026-01-16 09:12:29.38	138.90	15.23	-50.2	-51.2	19.9	0.00e+00	0	47	0	247463936	72	3916
2026-01-16 09:12:30.38	138.88	15.34	-50.0	-51.0	20.1	0.00e+00	0	47	0	249561088	72	3831
2026-01-16 09:12:31.39	138.85	15.45	-50.1	-51.0	20.0	0.00e+00	0	47	0	251658240	72	3858
2026-01-16 09:12:32.40	138.83	15.56	-50.2	-51.1	20.0	0.00e+00	0	47	0	253755392	72	3891
2026-01-16 09:12:33.41	138.80	15.67	-50.0	-50.9	20.2	0.00e+00	0	47	0	255852544	71	4024
2026-01-16 09:12:34.42	138.77	15.78	-50.0	-50.9	20.3	0.00e+00	0	47	0	256901120	71	4008
2026-01-16 09:12:35.43	138.75	15.89	-49.9	-50.8	20.3	0.00e+00	0	47	0	258998272	71	3981
2026-01-16 09:12:36.44	138.72	16.00	-49.9	-50.8	20.3	0.00e+00	0	47	0	261095424	71	3986
2026-01-16 09:12:37.45	138.69	16.11	-49.9	-50.8	20.4	0.00e+00	0	47	0	263192576	71	3980
2026-01-16 09:12:38.45	138.66	16.22	-50.0	-50.9	20.3	0.00e+00	0	47	0	265289728	71	4010
2026-01-16 09:12:39.46	138.64	16.33	-49.9	-50.9	20.2	0.00e+00	0	47	0	267386880	71	4007
2026-01-16 09:12:40.47	138.61	16.45	-50.0	-50.9	20.3	0.00e+00	0	47	0	268435456	71	4031
2026-01-16 09:12:41.48	138.58	16.56	-49.9	-50.8	20.3	0.00e+00	0	47	0	270532608	71	3991
2026-01-16 09:12:42.49	138.55	16.68	-50.1	-51.0	20.2	0.00e+00	0	47	0	272629760	71	4083
2026-01-16 09:12:43.50	138.52	16.79	-49.9	-50.8	20.3	0.00e+00	0	47	0	274726912	71	3991
2026-01-16 09:12:44.50	138.49	16.91	-49.9	-50.8	20.3	0.00e+00	0	47	0	275775488	71	3995
2026-01-16 09:12:45.51	138.46	17.02	-50.0	-50.9	20.3	0.00e+00	0	47	0	277872640	71	4022
2026-01-16 09:12:46.52	138.44	17.14	-50.0	-50.9	20.3	0.00e+00	0	47	0	279969792	71	4012
2026-01-16 09:12:47.53	138.41	17.26	-50.1	-51.0	20.2	0.00e+00	0	47	0	282066944	71	4063
2026-01-16 09:12:48.54	138.38	17.37	-50.1	-51.0	20.2	0.00e+00	0	47	0	284164096	71	4085
2026-01-16 09:12:49.54	138.35	17.49	-50.1	-51.0	20.2	0.00e+00	0	47	0	286261248	71	4058
2026-01-16 09:12:50.55	138.31	17.61	-50.2	-51.1	20.1	0.00e+00	0	47	0	287309824	71	4123
2026-01-16 09:12:51.56	138.28	17.73	-50.1	-51.1	20.1	0.00e+00	0	47	0	289406976	71	4102
2026-01-16 09:12:52.57	138.25	17.85	-50.2	-51.2	20.1	0.00e+00	0	47	0	291504128	71	4152
2026-01-16 09:12:53.58	138.22	17.97	-50.2	-51.2	20.1	0.00e+00	0	47	0	293601280	71	4147
2026-01-16 09:12:54.59	138.19	18.09	-50.3	-51.2	20.0	0.00e+00	0	47	0	295698432	71	4188
2026-01-16 09:12:55.60	138.16	18.21	-50.3	-51.2	20.1	0.00e+00	0	47	0	296747008	71	4193
2026-01-16 09:12:56.60	138.13	18.34	-50.2	-51.1	20.1	0.00e+00	0	47	0	298844160	71	4139
2026-01-16 09:12:57.61	138.09	18.46	-50.2	-51.1	20.2	0.00e+00	0	47	0	300941312	71	4122
2026-01-16 09:12:58.62	138.06	18.58	-50.3	-51.3	20.0	0.00e+00	0	47	0	303038464	71	4211
2026-01-16 09:12:59.63	138.03	18.71	-50.2	-51.1	20.2	0.00e+00	0	47	0	304087040	71	4127
2026-01-16 09:13:00.64	137.99	18.83	-50.2	-51.1	20.2	0.00e+00	0	47	0	306184192	71	4103
2026-01-16 09:13:01.65	137.96	18.96	-50.2	-51.1	20.2	0.00e+00	0	47	0	308281344	71	4117
2026-01-16 09:13:02.65	137.93	19.08	-50.1	-51.0	20.2	0.00e+00	0	47	0	310378496	71	4089
2026-01-16 09:13:03.66	137.89	19.21	-50.3	-51.3	20.0	0.00e+00	0	47	0	312475648	71	4215
2026-01-16 09:13:04.67	137.86	19.34	-50.1	-51.0	20.3	0.00e+00	0	47	0	314572800	71	4058
2026-01-16 09:13:05.67	137.82	19.46	-50.1	-50.9	20.4	0.00e+00	0	47	0	315621376	71	4043
2026-01-16 09:13:06.68	137.79	19.59	-50.1	-51.0	20.3	0.00e+00	0	48	0	317718528	71	4095
2026-01-16 09:13:07.69	137.75	19.72	-50.0	-50.9	20.4	0.00e+00	0	48	0	319815680	71	4029
2026-01-16 09:13:08.70	137.72	19.85	-50.0	-50.9	20.4	0.00e+00	0	47	0	321912832	71	4026
2026-01-16 09:13:09.71	137.68	19.98	-50.1	-51.0	20.3	0.00e+00	0	48	0	324009984	71	4053
2026-01-16 09:13:10.72	137.64	20.11	-50.0	-50.9	20.4	0.00e+00	0	48	0	325058560	71	4008
2026-01-16 09:13:11.73	137.61	20.25	-50.1	-51.0	20.3	0.00e+00	0	48	0	327155712	71	4071
2026-01-16 09:13:12.73	137.57	20.38	-50.0	-50.9	20.4	0.00e+00	0	47	0	329252864	71	4015
2026-01-16 09:13:13.74	137.53	20.51	-50.0	-50.8	20.5	0.00e+00	0	47	0	331350016	71	3990
2026-01-16 09:13:14.75	137.49	20.65	-49.8	-50.7	20.6	0.00e+00	0	47	0	333447168	71	3921
2026-01-16 09:13:15.76	137.45	20.78	-49.9	-50.7	20.6	0.00e+00	0	48	0	334495744	71	3947
2026-01-16 09:13:16.77	137.42	20.92	-49.9	-50.7	20.6	0.00e+00	0	47	0	336592896	71	3921
2026-01-16 09:13:17.78	137.38	21.05	-50.0	-50.8	20.5	0.00e+00	0	48	0	338690048	71	3982
2026-01-16 09:13:18.78	137.34	21.19	-49.9	-50.7	20.6	0.00e+00	0	48	0	340787200	71	3941
2026-01-16 09:13:19.79	137.30	21.33	-50.0	-50.8	20.5	0.00e+00	0	48	0	342884352	71	3982
2026-01-16 09:13:20.80	137.26	21.46	-50.0	-50.9	20.4	0.00e+00	0	48	0	343932928	71	4023
2026-01-16 09:13:21.81	137.22	21.60	-49.9	-50.8	20.6	0.00e+00	0	48	0	346030080	71	3978
2026-01-16 09:13:22.82	137.18	21.74	-49.9	-50.8	20.5	0.00e+00	0	48	0	348127232	71	3983
2026-01-16 09:13:23.82	137.13	21.88	-49.9	-50.8	20.6	0.00e+00	0	48	0	350224384	71	3962
2026-01-16 09:13:24.83	137.09	22.02	-50.0	-50.8	20.5	0.00e+00	0	48	0	352321536	71	4001
2026-01-16 09:13:25.84	137.05	22.17	-50.1	-51.0	20.3	0.00e+00	0	48	0	354418688	71	4082
2026-01-16 09:13:26.85	137.01	22.31	-50.2	-51.0	20.3	0.00e+00	0	48	0	355467264	71	4098
2026-01-16 09:13:27.86	136.96	22.45	-50.2	-51.0	20.3	0.00e+00	0	48	0	357564416	71	4086
2026-01-16 09:13:28.87	136.92	22.60	-50.1	-51.0	20.4	0.00e+00	0	48	0	359661568	71	4084
2026-01-16 09:13:29.88	136.88	22.74	-50.1	-51.0	20.4	0.00e+00	0	48	0	361758720	71	4081
2026-01-16 09:13:30.89	136.83	22.89	-50.1	-51.0	20.4	0.00e+00	0	48	0	362807296	71	4074
2026-01-16 09:13:31.90	136.79	23.04	-50.2	-51.1	20.3	0.00e+00	0	48	0	364904448	71	4132
2026-01-16 09:13:32.90	136.74	23.18	-50.1	-51.0	20.4	0.00e+00	0	48	0	367001600	71	4066
2026-01-16 09:13:33.91	136.70	23.33	-50.1	-50.9	20.4	0.00e+00	0	48	0	369098752	71	4047
2026-01-16 09:13:34.92	136.65	23.48	-50.1	-50.9	20.4	0.00e+00	0	48	0	371195904	71	4050
2026-01-16 09:13:35.93	136.60	23.63	-50.0	-50.9	20.5	0.00e+00	0	48	0	372244480	71	4016
2026-01-16 09:13:36.94	136.56	23.78	-50.0	-50.8	20.6	0.00e+00	0	48	0	374341632	71	4004
2026-01-16 09:13:37.94	136.51	23.93	-49.9	-50.8	20.6	0.00e+00	0	48	0	376438784	71	3961
2026-01-16 09:13:38.95	136.46	24.09	-50.0	-50.8	20.6	0.00e+00	0	48	0	378535936	71	3988
2026-01-16 09:13:39.96	136.41	24.24	-50.0	-50.9	20.5	0.00e+00	0	48	0	380633088	71	4029
2026-01-16 09:13:40.97	136.36	24.39	-50.3	-51.2	20.3	0.00e+00	0	48	0	382730240	71	4155
2026-01-16 09:13:41.98	136.31	24.55	-50.3	-51.2	20.2	0.00e+00	0	48	0	383778816	71	4188
2026-01-16 09:13:42.98	136.26	24.71	-50.5	-51.4	20.0	0.00e+00	0	48	0	385875968	71	4268
2026-01-16 09:13:43.99	136.21	24.86	-50.5	-51.4	20.0	0.00e+00	0	48	0	387973120	72	4027
2026-01-16 09:13:45.00	136.16	25.02	-50.8	-51.8	19.6	0.00e+00	0	48	0	390070272	72	4242
2026-01-16 09:13:46.01	136.11	25.18	-51.2	-52.3	19.2	0.00e+00	0	48	0	391118848	72	4455
2026-01-16 09:13:47.02	136.06	25.34	-51.3	-52.5	19.1	0.00e+00	0	48	0	393216000	73	4305
2026-01-16 09:13:48.02	136.00	25.50	-51.5	-52.7	18.8	0.00e+00	0	48	0	395313152	73	4431
2026-01-16 09:13:49.03	135.95	25.66	-51.5	-52.8	18.8	0.00e+00	0	48	0	397410304	73	4450
2026-01-16 09:13:50.04	135.90	25.83	-51.3	-52.5	19.1	0.00e+00	0	48	0	399507456	73	4295
2026-01-16 09:13:51.05	135.84	25.99	-51.2	-52.4	19.2	0.00e+00	0	48	0	401604608	73	4256
2026-01-16 09:13:52.06	135.79	26.15	-50.7	-51.6	19.8	0.00e+00	0	48	0	402653184	73	3911
2026-01-16 09:13:53.06	135.73	26.32	-51.1	-52.1	19.4	0.00e+00	0	48	0	404750336	73	4136
2026-01-16 09:13:54.07	135.67	26.49	-51.3	-52.5	19.1	0.00e+00	0	48	0	406847488	73	4310
2026-01-16 09:13:55.08	135.62	26.65	-51.3	-52.5	19.1	0.00e+00	0	48	0	408944640	73	4293
2026-01-16 09:13:56.09	135.56	26.82	-51.4	-52.6	19.0	0.00e+00	0	48	0	411041792	73	4365
2026-01-16 09:13:57.10	135.50	26.99	-51.5	-52.7	18.8	0.00e+00	0	48	0	412090368	73	4416
2026-01-16 09:13:58.10	135.44	27.16	-51.9	-53.2	18.4	0.00e+00	0	48	0	414187520	74	4413
2026-01-16 09:13:59.11	135.38	27.33	-52.1	-53.4	18.2	0.00e+00	0	48	0	416284672	74	4544
2026-01-16 09:14:00.12	135.32	27.51	-52.0	-53.3	18.3	0.00e+00	0	48	0	418381824	74	4470
2026-01-16 09:14:01.13	135.26	27.68	-52.3	-53.8	17.8	0.00e+00	0	48	0	419430400	75	4460
2026-01-16 09:14:02.13	135.20	27.85	-52.4	-53.8	17.8	0.00e+00	0	48	0	421527552	75	4477
2026-01-16 09:14:03.14	135.13	28.03	-52.4	-53.9	17.7	0.00e+00	0	48	0	423624704	75	4525
2026-01-16 09:14:04.15	135.07	28.21	-52.1	-53.4	18.2	0.00e+00	0	48	0	425721856	75	4286
2026-01-16 09:14:05.16	135.01	28.39	-52.1	-53.4	18.2	0.00e+00	0	48	0	427819008	75	4277
2026-01-16 09:14:06.17	134.94	28.57	-51.7	-53.0	18.7	0.00e+00	0	48	0	429916160	75	4063
2026-01-16 09:14:07.18	134.88	28.75	-51.8	-53.1	18.6	0.00e+00	0	48	0	430964736	75	4105
2026-01-16 09:14:08.18	134.81	28.93	-51.5	-52.7	18.9	0.00e+00	0	48	0	433061888	74	4169
2026-01-16 09:14:09.19	134.74	29.11	-51.8	-53.0	18.6	0.00e+00	0	48	0	435159040	74	4337
2026-01-16 09:14:10.20	134.67	29.29	-51.9	-53.2	18.4	0.00e+00	0	48	0	437256192	74	4440
2026-01-16 09:14:11.21	134.61	29.48	-52.2	-53.6	18.1	0.00e+00	0	48	0	439353344	74	4635
2026-01-16 09:14:12.22	134.54	29.67	-52.3	-53.7	18.0	0.00e+00	0	48	0	440401920	75	4410
2026-01-16 09:14:13.22	134.47	29.85	-52.4	-53.9	17.8	0.00e+00	0	48	0	442499072	75	4533
2026-01-16 09:14:14.23	134.39	30.04	-52.5	-54.0	17.6	0.00e+00	0	48	0	444596224	75	4596
2026-01-16 09:14:15.24	134.32	30.23	-52.7	-54.2	17.4	0.00e+00	0	48	0	446693376	76	4437
2026-01-16 09:14:16.25	134.25	30.42	-52.3	-53.8	17.9	0.00e+00	0	48	0	448790528	76	4197
2026-01-16 09:14:17.26	134.17	30.61	-52.5	-53.9	17.7	0.00e+00	0	48	0	449839104	76	4285
2026-01-16 09:14:18.26	134.10	30.81	-52.4	-53.9	17.8	0.00e+00	0	48	0	451936256	76	4263
2026-01-16 09:14:19.27	134.02	31.00	-52.5	-54.0	17.7	0.00e+00	0	48	0	454033408	76	4321
2026-01-16 09:14:20.28	133.95	31.20	-52.4	-53.8	17.9	0.00e+00	0	48	0	456130560	76	4234
2026-01-16 09:14:21.29	133.87	31.39	-52.7	-54.3	17.3	0.00e+00	0	48	0	458227712	76	4488
2026-01-16 09:14:22.30	133.79	31.59	-52.8	-54.5	17.2	0.00e+00	0	48	0	459276288	76	4548
2026-01-16 09:14:23.31	133.71	31.79	-53.1	-54.9	16.9	0.00e+00	0	48	0	461373440	76	4777
2026-01-16 09:14:24.31	133.63	31.99	-53.1	-54.7	17.0	0.00e+00	0	48	0	463470592	77	4439
2026-01-16 09:14:25.32	133.55	32.20	-53.5	-55.4	16.4	0.00e+00	0	48	0	465567744	77	4781
2026-01-16 09:14:26.33	133.46	32.40	-53.6	-55.5	16.3	0.00e+00	0	48	0	467664896	77	4824
2026-01-16 09:14:27.34	133.38	32.60	-53.4	-55.2	16.5	0.00e+00	0	48	0	468713472	77	4688
2026-01-16 09:14:28.35	133.29	32.81	-53.3	-55.1	16.6	0.00e+00	0	48	0	470810624	77	4625
2026-01-16 09:14:29.36	133.21	33.02	-52.9	-54.5	17.2	0.00e+00	0	48	0	472907776	77	4312
2026-01-16 09:14:30.36	133.12	33.23	-53.1	-54.8	16.8	0.00e+00	0	48	0	475004928	77	4471
2026-01-16 09:14:31.37	133.03	33.44	-53.3	-55.2	16.6	0.00e+00	0	48	0	477102080	77	4656
2026-01-16 09:14:32.38	132.94	33.65	-53.2	-54.9	16.8	0.00e+00	0	48	0	478150656	77	4533
2026-01-16 09:14:33.39	132.85	33.86	-53.5	-55.4	16.3	0.00e+00	0	48	0	480247808	77	4794
2026-01-16 09:14:34.40	132.76	34.08	-53.8	-55.9	15.8	0.00e+00	0	48	0	482344960	78	4786
2026-01-16 09:14:35.41	132.66	34.29	-53.7	-55.8	15.9	0.00e+00	0	48	0	484442112	78	4744
2026-01-16 09:14:36.41	132.57	34.51	-54.1	-56.4	15.4	0.00e+00	0	48	0	486539264	78	5075
2026-01-16 09:14:37.42	132.47	34.73	-53.6	-55.6	16.2	0.00e+00	0	48	0	487587840	78	4604
2026-01-16 09:14:38.43	132.37	34.95	-53.6	-55.6	16.1	0.00e+00	0	48	0	489684992	78	4647
2026-01-16 09:14:39.44	132.28	35.17	-53.3	-55.2	16.6	0.00e+00	0	48	0	491782144	78	4412
2026-01-16 09:14:40.45	132.17	35.39	-53.1	-54.9	16.7	0.00e+00	0	48	0	493879296	77	4543
2026-01-16 09:14:41.46	132.07	35.62	-52.8	-54.4	17.3	0.00e+00	0	48	0	495976448	77	4267
2026-01-16 09:14:42.46	131.97	35.84	-52.7	-54.4	17.3	0.00e+00	0	48	0	497025024	77	4250
2026-01-16 09:14:43.47	131.86	36.07	-53.1	-54.9	16.9	0.00e+00	0	48	0	499122176	77	4498
2026-01-16 09:14:44.48	131.76	36.30	-53.5	-55.5	16.3	0.00e+00	0	48	0	501219328	77	4853
2026-01-16 09:14:45.49	131.65	36.53	-53.5	-55.5	16.4	0.00e+00	0	48	0	503316480	78	4547
2026-01-16 09:14:46.49	131.54	36.76	-54.2	-56.5	15.3	0.00e+00	0	49	0	505413632	79	4870
2026-01-16 09:14:47.50	131.43	36.99	-53.8	-55.9	15.9	0.00e+00	0	48	0	506462208	79	4514
2026-01-16 09:14:48.51	131.32	37.23	-53.5	-55.5	16.3	0.00e+00	0	48	0	508559360	78	4556
2026-01-16 09:14:49.52	131.20	37.47	-53.3	-55.1	16.6	0.00e+00	0	48	0	510656512	78	4359
2026-01-16 09:14:50.53	131.09	37.70	-52.9	-54.5	17.3	0.00e+00	0	48	0	512753664	77	4296
2026-01-16 09:14:51.54	130.97	37.94	-52.9	-54.6	17.2	0.00e+00	0	49	0	514850816	77	4358
2026-01-16 09:14:52.54	130.85	38.18	-52.5	-54.0	17.7	0.00e+00	0	48	0	516947968	77	4089
2026-01-16 09:14:53.55	130.73	38.43	-52.7	-54.3	17.4	0.00e+00	0	48	0	517996544	76	4469
2026-01-16 09:14:54.56	130.60	38.67	-52.8	-54.4	17.4	0.00e+00	0	48	0	520093696	76	4506
2026-01-16 09:14:55.57	130.48	38.92	-53.7	-55.2	16.8	0.00e+00	0	49	0	522190848	77	4691
2026-01-16 09:14:56.58	130.35	39.17	-53.3	-55.1	16.7	0.00e+00	0	48	0	524288000	77	4644
2026-01-16 09:14:57.59	130.22	39.42	-53.6	-55.6	16.3	0.00e+00	0	49	0	525336576	77	4895
2026-01-16 09:14:58.60	130.09	39.67	-53.7	-55.9	16.0	0.00e+00	0	49	0	527433728	78	4772
2026-01-16 09:14:59.61	129.96	39.92	-53.6	-55.6	16.2	0.00e+00	0	48	0	529530880	78	4648
2026-01-16 09:15:00.61	129.82	40.17	-53.7	-55.8	16.0	0.00e+00	0	48	0	531628032	78	4729
2026-01-16 09:15:01.62	129.68	40.43	-54.0	-56.4	15.3	0.00e+00	0	49	0	533725184	78	5058
2026-01-16 09:15:02.63	129.54	40.69	-53.8	-56.0	15.7	0.00e+00	0	48	0	534773760	78	4862
2026-01-16 09:15:03.64	129.40	40.95	-53.7	-55.8	16.0	0.00e+00	0	49	0	536870912	78	4721
2026-01-16 09:15:04.65	129.25	41.21	-53.1	-54.8	17.0	0.00e+00	0	48	0	538968064	78	4229
2026-01-16 09:15:05.66	129.11	41.47	-53.1	-54.9	17.0	0.00e+00	0	48	0	541065216	78	4244
2026-01-16 09:15:06.67	128.96	41.73	-53.2	-54.9	16.8	0.00e+00	0	49	0	543162368	78	4291
2026-01-16 09:15:07.68	128.80	42.00	-53.0	-54.7	17.0	0.00e+00	0	49	0	545259520	77	4419
2026-01-16 09:15:08.68	128.65	42.27	-53.0	-54.8	17.0	0.00e+00	0	49	0	546308096	77	4465
2026-01-16 09:15:09.69	128.49	42.53	-53.3	-55.2	16.6	0.00e+00	0	49	0	548405248	77	4655
2026-01-16 09:15:10.70	128.33	42.81	-53.1	-55.0	16.8	0.00e+00	0	49	0	550502400	77	4567
2026-01-16 09:15:11.71	128.17	43.08	-53.0	-54.8	16.9	0.00e+00	0	48	0	552599552	77	4464
2026-01-16 09:15:12.72	128.00	43.35	-52.9	-54.7	17.1	0.00e+00	0	49	0	553648128	77	4393
2026-01-16 09:15:13.73	127.83	43.63	-52.9	-54.6	17.1	0.00e+00	0	49	0	555745280	77	4390
2026-01-16 09:15:14.73	127.66	43.91	-52.9	-54.7	17.0	0.00e+00	0	49	0	557842432	77	4400
2026-01-16 09:15:15.74	127.49	44.19	-52.9	-54.8	17.0	0.00e+00	0	49	0	559939584	77	4464
2026-01-16 09:15:16.75	127.31	44.47	-53.1	-55.0	16.8	0.00e+00	0	49	0	562036736	77	4586
2026-01-16 09:15:17.76	127.13	44.75	-52.6	-54.4	17.4	0.00e+00	0	48	0	564133888	77	4243
2026-01-16 09:15:18.77	126.94	45.03	-52.0	-53.5	18.1	0.00e+00	0	49	0	565182464	76	4073
2026-01-16 09:15:19.78	126.76	45.32	-51.7	-53.0	18.6	0.00e+00	0	49	0	567279616	75	4090
2026-01-16 09:15:20.79	126.56	45.61	-51.6	-52.9	18.7	0.00e+00	0	49	0	569376768	74	4255
2026-01-16 09:15:21.80	126.37	45.90	-51.9	-53.3	18.3	0.00e+00	0	49	0	571473920	74	4452
2026-01-16 09:15:22.80	126.17	46.19	-52.2	-53.7	17.9	0.00e+00	0	49	0	573571072	74	4701
2026-01-16 09:15:23.81	125.97	46.48	-52.5	-54.2	17.6	0.00e+00	0	49	0	574619648	75	4661
2026-01-16 09:15:24.82	125.76	46.78	-52.4	-54.1	17.7	0.00e+00	0	49	0	576716800	75	4602
2026-01-16 09:15:25.83	125.55	47.07	-51.8	-53.2	18.5	0.00e+00	0	49	0	578813952	75	4168
2026-01-16 09:15:26.84	125.34	47.37	-51.4	-52.6	19.0	0.00e+00	0	49	0	580911104	74	4145
2026-01-16 09:15:27.84	125.12	47.67	-51.2	-52.3	19.3	0.00e+00	0	49	0	583008256	74	3998
2026-01-16 09:15:28.85	124.90	47.97	-51.7	-53.0	18.7	0.00e+00	0	48	0	584056832	74	4335
2026-01-16 09:15:29.86	124.67	48.27	-52.0	-53.3	18.4	0.00e+00	0	49	0	586153984	74	4492
2026-01-16 09:15:30.87	124.44	48.58	-52.6	-54.1	17.6	0.00e+00	0	49	0	588251136	76	4390
2026-01-16 09:15:31.88	124.20	48.88	-52.4	-54.0	17.8	0.00e+00	0	49	0	590348288	76	4303
2026-01-16 09:15:32.89	123.96	49.19	-51.8	-53.2	18.5	0.00e+00	0	49	0	592445440	75	4172
2026-01-16 09:15:33.90	123.71	49.50	-51.2	-52.4	19.2	0.00e+00	0	49	0	593494016	74	4035
2026-01-16 09:15:34.90	123.46	49.81	-51.2	-52.3	19.4	0.00e+00	0	49	0	595591168	74	3985
2026-01-16 09:15:35.91	123.20	50.12	-51.6	-52.8	18.9	0.00e+00	0	49	0	597688320	74	4219
2026-01-16 09:15:36.92	122.94	50.44	-51.3	-52.4	19.3	0.00e+00	0	49	0	599785472	74	4033
2026-01-16 09:15:37.93	122.67	50.75	-51.0	-52.0	19.7	0.00e+00	0	48	0	601882624	73	4067
2026-01-16 09:15:38.94	122.40	51.07	-50.4	-51.4	20.3	0.00e+00	0	49	0	602931200	72	4013
2026-01-16 09:15:39.95	122.12	51.39	-50.6	-51.5	20.1	0.00e+00	0	49	0	605028352	72	4091
2026-01-16 09:15:40.95	121.84	51.71	-50.9	-51.9	19.8	0.00e+00	0	48	0	607125504	72	4282
2026-01-16 09:15:41.96	121.54	52.03	-51.8	-53.2	18.6	0.00e+00	0	49	0	609222656	74	4423
2026-01-16 09:15:42.97	121.24	52.35	-52.2	-53.6	18.1	0.00e+00	0	49	0	611319808	75	4384
2026-01-16 09:15:43.98	120.94	52.67	-51.5	-52.7	19.1	0.00e+00	0	49	0	612368384	75	3919
2026-01-16 09:15:44.99	120.63	53.00	-51.0	-52.0	19.7	0.00e+00	0	49	0	614465536	74	3857
2026-01-16 09:15:46.00	120.31	53.32	-50.5	-51.3	20.3	0.00e+00	0	49	0	616562688	72	4000
2026-01-16 09:15:47.01	119.98	53.65	-50.4	-51.2	20.4	0.00e+00	0	49	0	618659840	72	3946
2026-01-16 09:15:48.02	119.64	53.98	-51.3	-52.4	19.3	0.00e+00	0	49	0	620756992	73	4281
2026-01-16 09:15:49.03	119.30	54.31	-52.0	-53.3	18.3	0.00e+00	0	49	0	621805568	74	4489
2026-01-16 09:15:50.03	118.96	54.64	-51.7	-53.0	18.8	0.00e+00	0	49	0	623902720	75	4061
2026-01-16 09:15:51.04	118.60	54.97	-51.3	-52.4	19.3	0.00e+00	0	49	0	625999872	74	4042
2026-01-16 09:15:52.05	118.23	55.30	-50.8	-51.8	19.8	0.00e+00	0	49	0	628097024	73	3978
2026-01-16 09:15:53.06	117.85	55.64	-51.1	-52.1	19.5	0.00e+00	0	49	0	630194176	73	4145
2026-01-16 09:15:54.07	117.47	55.97	-51.5	-52.7	19.1	0.00e+00	0	49	0	632291328	73	4415
2026-01-16 09:15:55.07	117.08	56.30	-51.7	-53.0	18.8	0.00e+00	0	49	0	633339904	74	4295
2026-01-16 09:15:56.08	116.67	56.64	-51.7	-53.0	18.7	0.00e+00	0	49	0	635437056	74	4306
2026-01-16 09:15:57.09	116.26	56.98	-51.4	-52.5	19.2	0.00e+00	0	49	0	637534208	74	4074
2026-01-16 09:15:58.10	115.84	57.31	-51.6	-52.8	19.0	0.00e+00	0	49	0	639631360	74	4210
2026-01-16 09:15:59.11	115.40	57.65	-51.6	-52.8	18.9	0.00e+00	0	49	0	640679936	74	4204
2026-01-16 09:16:00.11	114.96	57.98	-51.9	-53.1	18.6	0.00e+00	0	49	0	642777088	74	4389
2026-01-16 09:16:01.12	114.50	58.32	-52.5	-53.9	17.9	0.00e+00	0	49	0	644874240	75	4531
2026-01-16 09:16:02.13	114.03	58.66	-52.9	-54.5	17.3	0.00e+00	0	49	0	646971392	76	4588
2026-01-16 09:16:03.14	113.55	59.00	-52.9	-54.6	17.2	0.00e+00	0	49	0	649068544	77	4371
2026-01-16 09:16:04.15	113.06	59.34	-52.3	-53.7	18.2	0.00e+00	0	49	0	651165696	76	4158
2026-01-16 09:16:05.15	112.55	59.67	-52.3	-53.7	18.0	0.00e+00	0	49	0	652214272	75	4433
2026-01-16 09:16:06.16	112.03	60.01	-51.8	-53.0	18.7	0.00e+00	0	49	0	654311424	75	4091
2026-01-16 09:16:07.17	111.50	60.35	-52.3	-53.7	18.1	0.00e+00	0	49	0	656408576	75	4422
2026-01-16 09:16:08.18	110.95	60.68	-52.5	-54.0	17.9	0.00e+00	0	49	0	658505728	75	4557
2026-01-16 09:16:09.19	110.39	61.02	-52.3	-53.8	18.1	0.00e+00	0	49	0	660602880	75	4444
2026-01-16 09:16:10.20	109.81	61.35	-51.8	-53.0	18.8	0.00e+00	0	49	0	661651456	75	4065
2026-01-16 09:16:11.20	109.22	61.68	-51.3	-52.4	19.4	0.00e+00	0	49	0	663748608	74	4036
2026-01-16 09:16:12.21	108.61	62.02	-51.0	-52.0	19.7	0.00e+00	0	49	0	665845760	73	4091
2026-01-16 09:16:13.22	107.98	62.35	-51.3	-52.5	19.2	0.00e+00	0	49	0	667942912	73	4311
2026-01-16 09:16:14.23	107.33	62.68	-50.6	-51.6	20.0	0.00e+00	0	49	0	668991488	73	3886
2026-01-16 09:16:15.24	106.67	63.01	-49.6	-50.4	21.2	0.00e+00	0	49	0	671088640	71	3785
2026-01-16 09:16:16.24	105.99	63.33	-49.7	-50.4	21.2	0.00e+00	0	49	0	673185792	70	4029
2026-01-16 09:16:17.25	105.29	63.66	-50.6	-51.6	20.3	0.00e+00	0	49	0	675282944	71	4348
2026-01-16 09:16:18.26	104.57	63.98	-51.3	-52.4	19.4	0.00e+00	0	49	0	677380096	73	4268
2026-01-16 09:16:19.27	103.83	64.30	-50.8	-51.8	19.9	0.00e+00	0	49	0	679477248	73	3973
2026-01-16 09:16:20.27	103.08	64.62	-50.1	-50.9	20.7	0.00e+00	0	49	0	680525824	72	3801
2026-01-16 09:16:21.28	102.29	64.93	-50.5	-51.3	20.3	0.00e+00	0	49	0	682622976	71	4229
2026-01-16 09:16:22.29	101.49	65.24	-51.0	-52.1	19.7	0.00e+00	0	49	0	684720128	72	4345
2026-01-16 09:16:23.30	100.66	65.55	-51.6	-52.8	18.9	0.00e+00	0	49	0	686817280	73	4473
2026-01-16 09:16:24.31	99.80	65.86	-51.9	-53.2	18.8	0.00e+00	0	49	0	688914432	74	4403
2026-01-16 09:16:25.32	98.93	66.16	-52.2	-53.5	18.4	0.00e+00	0	49	0	689963008	75	4320
2026-01-16 09:16:26.32	98.04	66.45	-52.7	-54.2	17.8	0.00e+00	0	49	0	692060160	76	4394
2026-01-16 09:16:27.33	97.11	66.75	-53.3	-55.0	17.0	0.00e+00	0	49	0	694157312	77	4549
2026-01-16 09:16:28.34	96.16	67.03	-53.6	-55.4	16.7	0.00e+00	0	49	0	696254464	78	4535
2026-01-16 09:16:29.35	95.18	67.32	-53.7	-55.6	16.4	0.00e+00	0	49	0	698351616	78	4651
2026-01-16 09:16:30.36	94.18	67.59	-53.1	-54.7	17.3	0.00e+00	0	49	0	699400192	78	4149
2026-01-16 09:16:31.36	93.15	67.86	-51.6	-52.6	19.2	0.00e+00	0	49	0	701497344	75	3891
2026-01-16 09:16:32.37	92.10	68.13	-51.0	-51.9	19.9	0.00e+00	0	49	0	703594496	73	4037
2026-01-16 09:16:33.38	91.01	68.39	-51.6	-52.6	19.2	0.00e+00	0	49	0	705691648	73	4389
2026-01-16 09:16:34.39	89.89	68.64	-52.1	-53.4	18.7	0.00e+00	0	49	0	707788800	75	4253
2026-01-16 09:16:35.39	88.76	68.89	-51.9	-53.0	19.0	0.00e+00	0	49	0	708837376	75	4058
2026-01-16 09:16:36.40	87.59	69.12	-52.0	-53.2	18.7	0.00e+00	0	49	0	710934528	75	4179
2026-01-16 09:16:37.41	86.38	69.36	-53.2	-55.0	17.0	0.00e+00	0	49	0	713031680	77	4572
2026-01-16 09:16:38.42	85.15	69.58	-53.9	-55.8	16.0	0.00e+00	0	49	0	715128832	78	4755
2026-01-16 09:16:39.43	83.90	69.79	-52.5	-53.8	18.2	0.00e+00	0	49	0	717225984	77	3991
2026-01-16 09:16:40.44	82.61	70.00	-52.3	-53.6	18.4	0.00e+00	0	49	0	718274560	75	4343
2026-01-16 09:16:41.44	81.31	70.19	-53.4	-55.2	16.9	0.00e+00	0	49	0	720371712	77	4664
2026-01-16 09:16:42.45	79.96	70.38	-53.3	-54.9	17.0	0.00e+00	0	49	0	722468864	78	4290
2026-01-16 09:16:43.46	78.59	70.55	-53.4	-54.9	17.1	0.00e+00	0	49	0	724566016	78	4272
2026-01-16 09:16:44.47	77.20	70.72	-53.5	-55.1	17.1	0.00e+00	0	49	0	726663168	78	4384
2026-01-16 09:16:45.47	75.79	70.87	-54.0	-55.9	16.4	0.00e+00	0	49	0	727711744	78	4761
2026-01-16 09:16:46.48	74.35	71.02	-53.8	-55.6	16.5	0.00e+00	0	49	0	729808896	78	4602
2026-01-16 09:16:47.49	72.88	71.15	-54.5	-56.8	15.4	0.00e+00	0	49	0	731906048	80	4734
2026-01-16 09:16:48.50	71.39	71.27	-55.3	-58.1	14.1	7.00e-07	0	49	0	734003200	81	5176
2026-01-16 09:16:49.51	69.88	71.38	-55.7	-58.9	13.4	3.80e-06	0	49	0	736100352	81	5662
2026-01-16 09:16:50.52	68.36	71.48	-55.7	-59.0	12.9	3.35e-05	0	49	0	737148928	82	5434
2026-01-16 09:16:51.53	66.82	71.56	-54.0	-55.8	16.2	2.20e-06	0	49	0	739246080	79	4486
2026-01-16 09:16:52.53	65.28	71.64	-52.6	-53.9	18.1	0.00e+00	0	49	0	741343232	77	4046
2026-01-16 09:16:53.54	63.71	71.70	-53.4	-55.1	17.0	0.00e+00	0	49	0	743440384	77	4626
2026-01-16 09:16:54.55	62.13	71.74	-53.9	-55.9	16.2	0.00e+00	0	49	0	745537536	78	4766
2026-01-16 09:16:55.56	60.55	71.77	-53.8	-55.6	16.5	0.00e+00	0	49	0	746586112	78	4643
2026-01-16 09:16:56.57	58.96	71.79	-53.4	-55.0	16.9	0.00e+00	0	49	0	748683264	77	4578
2026-01-16 09:16:57.58	57.37	71.80	-53.0	-54.5	17.6	0.00e+00	0	49	0	750780416	77	4313
2026-01-16 09:16:58.59	55.78	71.79	-52.0	-53.2	18.7	0.00e+00	0	49	0	752877568	75	4174
2026-01-16 09:16:59.60	54.19	71.77	-51.8	-52.9	19.0	0.00e+00	0	49	0	754974720	75	4039
2026-01-16 09:17:00.60	52.62	71.74	-52.5	-53.8	18.2	0.00e+00	0	49	0	756023296	75	4473
2026-01-16 09:17:01.61	51.05	71.69	-52.2	-53.5	18.6	0.00e+00	0	49	0	758120448	76	4057
2026-01-16 09:17:02.62	49.48	71.63	-51.8	-52.9	19.1	0.00e+00	0	49	0	760217600	75	4032
2026-01-16 09:17:03.63	47.93	71.56	-51.9	-53.0	18.8	0.00e+00	0	49	0	762314752	75	4078
2026-01-16 09:17:04.64	46.39	71.48	-52.4	-53.7	18.4	0.00e+00	0	49	0	764411904	75	4400
2026-01-16 09:17:05.64	44.88	71.38	-52.5	-53.8	18.2	0.00e+00	0	49	0	766509056	75	4475
2026-01-16 09:17:06.65	43.37	71.27	-52.9	-54.3	17.7	0.00e+00	0	49	0	767557632	77	4225
2026-01-16 09:17:07.66	41.88	71.15	-53.7	-55.5	16.6	0.00e+00	0	49	0	769654784	78	4547
2026-01-16 09:17:08.67	40.42	71.02	-52.9	-54.3	17.8	0.00e+00	0	49	0	771751936	77	4213
2026-01-16 09:17:09.68	38.98	70.87	-53.2	-54.7	17.4	0.00e+00	0	49	0	773849088	77	4406
2026-01-16 09:17:10.68	37.57	70.72	-53.2	-54.8	17.4	0.00e+00	0	49	0	774897664	77	4469
2026-01-16 09:17:11.69	36.18	70.55	-54.3	-56.4	16.2	0.00e+00	0	49	0	776994816	79	4774
2026-01-16 09:17:12.70	34.81	70.37	-53.8	-55.6	16.6	0.00e+00	0	49	0	779091968	79	4362
2026-01-16 09:17:13.71	33.47	70.19	-53.2	-54.7	17.4	0.00e+00	0	49	0	781189120	78	4158
2026-01-16 09:17:14.72	32.15	69.99	-54.5	-56.8	15.4	0.00e+00	0	49	0	783286272	79	5017
2026-01-16 09:17:15.73	30.87	69.78	-54.9	-57.5	14.7	0.00e+00	0	49	0	784334848	81	4847
2026-01-16 09:17:16.73	29.62	69.57	-54.5	-56.7	15.4	7.00e-07	0	49	0	786432000	80	4679
2026-01-16 09:17:17.74	28.40	69.35	-54.6	-56.9	15.3	0.00e+00	0	49	0	788529152	80	4771
2026-01-16 09:17:18.75	27.20	69.12	-54.7	-57.0	14.9	7.00e-07	0	49	0	790626304	80	4836
2026-01-16 09:17:19.76	26.02	68.88	-53.3	-54.9	17.3	0.00e+00	0	49	0	792723456	78	4254
2026-01-16 09:17:20.77	24.88	68.63	-53.3	-54.9	17.2	0.00e+00	0	49	0	794820608	77	4525
2026-01-16 09:17:21.78	23.77	68.38	-53.4	-55.0	17.2	0.00e+00	0	49	0	795869184	78	4301
2026-01-16 09:17:22.78	22.69	68.12	-53.3	-54.9	17.3	0.00e+00	0	49	0	797966336	78	4253
2026-01-16 09:17:23.79	21.64	67.86	-53.2	-54.7	17.4	0.00e+00	0	49	0	800063488	78	4184
2026-01-16 09:17:24.80	20.61	67.59	-53.2	-54.6	17.5	0.00e+00	0	49	0	802160640	78	4136
2026-01-16 09:17:25.81	19.60	67.31	-52.4	-53.6	18.4	0.00e+00	0	49	0	803209216	76	4119
2026-01-16 09:17:26.81	18.64	67.03	-51.6	-52.5	19.4	0.00e+00	0	49	0	805306368	75	3863
2026-01-16 09:17:27.82	17.69	66.74	-52.8	-54.2	17.9	0.00e+00	0	49	0	807403520	76	4416
2026-01-16 09:17:28.83	16.76	66.45	-53.0	-54.6	17.6	0.00e+00	0	49	0	809500672	77	4348
2026-01-16 09:17:29.84	15.86	66.15	-52.6	-54.0	18.0	0.00e+00	0	49	0	811597824	77	4072
2026-01-16 09:17:30.85	14.99	65.85	-51.9	-53.0	18.9	0.00e+00	0	49	0	813694976	75	4089
2026-01-16 09:17:31.86	14.14	65.55	-51.7	-52.8	19.2	0.00e+00	0	49	0	814743552	75	3986
2026-01-16 09:17:32.86	13.32	65.24	-51.7	-52.9	19.1	0.00e+00	0	49	0	816840704	75	4016
2026-01-16 09:17:33.87	12.51	64.93	-51.6	-52.7	19.2	0.00e+00	0	49	0	818937856	75	3954
2026-01-16 09:17:34.88	11.73	64.61	-50.5	-51.4	20.5	0.00e+00	0	49	0	821035008	73	3798
2026-01-16 09:17:35.89	10.97	64.30	-49.6	-50.3	21.4	0.00e+00	0	49	0	823132160	71	3762
2026-01-16 09:17:36.89	10.24	63.98	-50.0	-50.8	21.1	0.00e+00	0	49	0	824180736	71	3961
2026-01-16 09:17:37.91	9.51	63.65	-49.9	-50.6	21.3	0.00e+00	0	49	0	826277888	71	3889
2026-01-16 09:17:38.91	8.82	63.33	-49.6	-50.3	21.4	0.00e+00	0	49	0	828375040	71	3760
2026-01-16 09:17:39.92	8.14	63.01	-49.9	-50.6	21.2	0.00e+00	0	49	0	830472192	71	3902
2026-01-16 09:17:40.93	7.48	62.68	-50.2	-51.0	20.9	0.00e+00	0	49	0	831520768	71	4073
2026-01-16 09:17:41.94	6.83	62.35	-50.5	-51.4	20.5	0.00e+00	0	49	0	833617920	72	4041
2026-01-16 09:17:42.95	6.20	62.02	-50.2	-51.0	20.9	0.00e+00	0	49	0	835715072	71	4066
2026-01-16 09:17:43.96	5.60	61.68	-50.8	-51.8	20.0	0.00e+00	0	49	0	837812224	72	4220
2026-01-16 09:17:44.96	5.01	61.35	-51.7	-52.9	19.1	0.00e+00	0	49	0	839909376	73	4539
2026-01-16 09:17:45.97	4.43	61.02	-51.7	-52.8	19.2	0.00e+00	0	49	0	842006528	74	4241
2026-01-16 09:17:46.98	3.87	60.68	-52.4	-53.8	18.3	0.00e+00	0	49	0	843055104	75	4491
2026-01-16 09:17:47.99	3.32	60.35	-52.0	-53.4	18.5	0.00e+00	0	49	0	845152256	75	4243
2026-01-16 09:17:49.00	2.79	60.01	-51.8	-53.1	18.9	0.00e+00	0	49	0	847249408	75	4100
2026-01-16 09:17:50.01	2.27	59.67	-52.0	-53.2	18.8	0.00e+00	0	49	0	849346560	75	4171
2026-01-16 09:17:51.02	1.76	59.34	-52.9	-54.5	17.6	0.00e+00	0	49	0	851443712	76	4565
2026-01-16 09:17:52.03	1.27	59.00	-52.5	-54.0	18.1	0.00e+00	0	49	0	852492288	76	4322
2026-01-16 09:17:53.04	0.79	58.66	-51.4	-52.5	19.3	0.00e+00	0	49	0	854589440	74	4092
2026-01-16 09:17:54.04	0.32	58.33	-51.0	-51.9	19.9	0.00e+00	0	49	0	856686592	74	3820
2026-01-16 09:17:55.05	359.87	57.99	-51.3	-52.3	19.7	0.00e+00	0	49	0	858783744	73	4229
2026-01-16 09:17:56.06	359.42	57.65	-52.0	-53.2	18.8	0.00e+00	0	49	0	860880896	74	4414
2026-01-16 09:17:57.07	358.99	57.32	-51.8	-52.9	18.9	0.00e+00	0	49	0	861929472	75	4043
2026-01-16 09:17:58.08	358.56	56.98	-51.6	-52.7	19.3	0.00e+00	0	49	0	864026624	74	4181
2026-01-16 09:17:59.09	358.15	56.65	-50.8	-51.7	20.1	0.00e+00	0	49	0	866123776	73	3948
2026-01-16 09:18:00.10	357.75	56.31	-49.9	-50.7	21.0	0.00e+00	0	49	0	868220928	71	3936
2026-01-16 09:18:01.11	357.35	55.98	-49.0	-49.6	22.0	0.00e+00	0	49	0	870318080	70	3683
2026-01-16 09:18:02.12	356.97	55.64	-49.3	-49.9	21.7	0.00e+00	0	49	0	871366656	69	4044
2026-01-16 09:18:03.13	356.59	55.31	-49.7	-50.4	21.2	0.00e+00	0	49	0	873463808	70	4047
2026-01-16 09:18:04.13	356.23	54.98	-50.1	-50.9	20.8	0.00e+00	0	49	0	875560960	71	4026
2026-01-16 09:18:05.14	355.87	54.65	-50.5	-51.3	20.5	0.00e+00	0	49	0	877658112	71	4242
2026-01-16 09:18:06.15	355.52	54.32	-51.7	-53.0	18.9	0.00e+00	0	49	0	879755264	74	4306
2026-01-16 09:18:07.16	355.18	53.99	-52.0	-53.4	18.6	0.00e+00	0	49	0	881852416	75	4251
2026-01-16 09:18:08.17	354.85	53.66	-52.2	-53.6	18.4	0.00e+00	0	49	0	882900992	75	4386
2026-01-16 09:18:09.18	354.52	53.34	-52.5	-54.0	17.9	0.00e+00	0	49	0	884998144	75	4554
2026-01-16 09:18:10.19	354.20	53.01	-52.5	-54.1	17.8	0.00e+00	0	49	0	887095296	76	4342
2026-01-16 09:18:11.20	353.89	52.69	-51.7	-52.9	18.9	0.00e+00	0	49	0	889192448	75	4047
2026-01-16 09:18:12.20	353.59	52.37	-51.4	-52.5	19.3	0.00e+00	0	49	0	890241024	74	4079
2026-01-16 09:18:13.21	353.29	52.05	-51.4	-52.5	19.3	0.00e+00	0	49	0	892338176	74	4062
2026-01-16 09:18:14.22	353.00	51.73	-51.0	-52.0	19.9	0.00e+00	0	49	0	894435328	73	4054
2026-01-16 09:18:15.23	352.71	51.41	-50.9	-51.8	19.9	0.00e+00	0	49	0	896532480	73	3995
2026-01-16 09:18:16.24	352.44	51.09	-51.2	-52.2	19.7	0.00e+00	0	49	0	898629632	72	4439
2026-01-16 09:18:17.25	352.16	50.77	-51.1	-52.0	19.8	0.00e+00	0	49	0	900726784	73	4082
2026-01-16 09:18:18.25	351.90	50.46	-50.4	-51.2	20.5	0.00e+00	0	49	0	901775360	72	3958
2026-01-16 09:18:19.26	351.63	50.15	-50.0	-50.8	20.8	0.00e+00	0	49	0	903872512	72	3778
2026-01-16 09:18:20.27	351.38	49.84	-50.9	-51.9	20.0	0.00e+00	0	49	0	905969664	72	4245
2026-01-16 09:18:21.28	351.13	49.53	-51.8	-53.0	18.9	0.00e+00	0	49	0	908066816	74	4305
2026-01-16 09:18:22.29	350.88	49.22	-52.1	-53.4	18.5	0.00e+00	0	49	0	910163968	74	4506
2026-01-16 09:18:23.29	350.64	48.91	-51.8	-53.0	18.9	0.00e+00	0	49	0	911212544	74	4308
2026-01-16 09:18:24.30	350.40	48.61	-52.0	-53.2	18.7	0.00e+00	0	49	0	913309696	74	4408
2026-01-16 09:18:25.31	350.17	48.30	-53.0	-54.6	17.5	0.00e+00	0	49	0	915406848	76	4613
2026-01-16 09:18:26.32	349.95	48.00	-53.5	-55.3	16.7	0.00e+00	0	49	0	917504000	78	4464
2026-01-16 09:18:27.32	349.72	47.70	-53.2	-54.8	17.2	0.00e+00	0	49	0	918552576	78	4209
2026-01-16 09:18:28.33	349.51	47.40	-53.2	-54.8	17.3	0.00e+00	0	49	0	920649728	77	4460
2026-01-16 09:18:29.34	349.29	47.11	-53.5	-55.4	16.8	0.00e+00	0	49	0	922746880	77	4767
2026-01-16 09:18:30.35	349.08	46.81	-54.5	-57.0	15.1	0.00e+00	0	49	0	924844032	79	5116
2026-01-16 09:18:31.36	348.87	46.52	-54.0	-56.0	15.9	0.00e+00	0	49	0	926941184	79	4593
2026-01-16 09:18:32.37	348.67	46.22	-53.2	-54.8	17.3	0.00e+00	0	49	0	929038336	77	4468
2026-01-16 09:18:33.38	348.47	45.93	-52.4	-53.7	18.2	0.00e+00	0	49	0	930086912	76	4175
2026-01-16 09:18:34.39	348.28	45.64	-52.9	-54.5	17.7	0.00e+00	0	49	0	932184064	76	4548
2026-01-16 09:18:35.40	348.09	45.36	-53.6	-55.5	16.7	0.00e+00	0	49	0	934281216	77	4835
2026-01-16 09:18:36.40	347.90	45.07	-52.9	-54.5	17.5	0.00e+00	0	49	0	936378368	77	4303
2026-01-16 09:18:37.41	347.72	44.79	-52.4	-53.8	18.3	0.00e+00	0	49	0	938475520	76	4199
2026-01-16 09:18:38.42	347.54	44.51	-52.7	-54.1	18.0	0.00e+00	0	49	0	939524096	76	4363
2026-01-16 09:18:39.43	347.36	44.23	-54.0	-56.0	16.1	0.00e+00	0	49	0	941621248	78	4858
2026-01-16 09:18:40.44	347.18	43.95	-54.6	-57.1	15.1	0.00e+00	0	49	0	943718400	79	5182
2026-01-16 09:18:41.45	347.01	43.67	-53.9	-55.8	16.2	0.00e+00	0	49	0	945815552	79	4489
2026-01-16 09:18:42.46	346.84	43.40	-53.1	-54.6	17.4	0.00e+00	0	49	0	947912704	77	4373
2026-01-16 09:18:43.47	346.68	43.12	-52.8	-54.2	17.9	0.00e+00	0	49	0	948961280	77	4149
2026-01-16 09:18:44.48	346.52	42.85	-52.8	-54.2	17.9	0.00e+00	0	49	0	951058432	77	4168
2026-01-16 09:18:45.49	346.36	42.58	-53.7	-55.5	16.6	0.00e+00	0	49	0	953155584	77	4847
2026-01-16 09:18:46.50	346.20	42.31	-53.8	-55.6	16.5	0.00e+00	0	49	0	955252736	78	4649
2026-01-16 09:18:47.51	346.04	42.04	-53.7	-55.5	16.6	0.00e+00	0	49	0	957349888	78	4592
2026-01-16 09:18:48.52	345.89	41.78	-53.2	-54.8	17.2	0.00e+00	0	49	0	958398464	77	4460
2026-01-16 09:18:49.52	345.74	41.52	-53.6	-55.3	16.8	0.00e+00	0	49	0	960495616	77	4748
2026-01-16 09:18:50.53	345.60	41.25	-53.1	-54.7	17.4	0.00e+00	0	49	0	962592768	77	4408
2026-01-16 09:18:51.54	345.45	40.99	-53.2	-54.8	17.3	0.00e+00	0	49	0	964689920	77	4455
2026-01-16 09:18:52.55	345.31	40.74	-53.0	-54.6	17.5	0.00e+00	0	49	0	966787072	77	4351
2026-01-16 09:18:53.56	345.17	40.48	-53.9	-55.9	16.2	0.00e+00	0	49	0	967835648	78	4801
2026-01-16 09:18:54.56	345.03	40.23	-53.9	-55.9	16.2	0.00e+00	0	50	0	969932800	78	4789
2026-01-16 09:18:55.57	344.90	39.97	-54.7	-57.3	14.7	0.00e+00	0	49	0	972029952	80	4996
2026-01-16 09:18:56.58	344.76	39.72	-55.3	-58.4	13.6	8.30e-06	0	49	0	974127104	81	5354
2026-01-16 09:18:57.59	344.63	39.47	-56.0	-59.9	12.0	2.25e-04	0	49	0	976224256	82	6034
2026-01-16 09:18:58.60	344.50	39.22	-55.2	-58.1	13.8	2.78e-04	0	49	0	977272832	82	4902
2026-01-16 09:18:59.60	344.38	38.98	-54.7	-57.2	14.6	2.20e-06	0	49	0	979369984	81	4705
2026-01-16 09:19:00.61	344.25	38.73	-53.9	-55.9	16.2	0.00e+00	0	49	0	981467136	79	4516
2026-01-16 09:19:01.62	344.13	38.49	-53.1	-54.7	17.3	0.00e+00	0	49	0	983564288	78	4161
2026-01-16 09:19:02.63	344.01	38.24	-52.2	-53.5	18.5	0.00e+00	0	49	0	985661440	76	4056
2026-01-16 09:19:03.63	343.89	38.01	-51.2	-52.1	19.6	0.00e+00	0	49	0	986710016	74	3904
2026-01-16 09:19:04.64	343.77	37.77	-50.8	-51.8	20.0	0.00e+00	0	49	0	988807168	73	3971
2026-01-16 09:19:05.65	343.66	37.53	-50.5	-51.3	20.4	0.00e+00	0	49	0	990904320	73	3773
2026-01-16 09:19:06.66	343.54	37.29	-50.8	-51.8	20.0	0.00e+00	0	49	0	993001472	72	4212
2026-01-16 09:19:07.67	343.43	37.06	-51.3	-52.3	19.4	0.00e+00	0	49	0	995098624	73	4233
2026-01-16 09:19:08.68	343.32	36.82	-52.4	-53.7	18.2	0.00e+00	0	49	0	996147200	75	4440
2026-01-16 09:19:09.68	343.21	36.59	-53.2	-54.9	17.1	0.00e+00	0	49	0	998244352	76	4762
2026-01-16 09:19:10.69	343.10	36.36	-54.2	-56.5	15.6	0.00e+00	0	49	0	1000341504	79	4821
2026-01-16 09:19:11.70	343.00	36.14	-53.9	-56.0	16.0	0.00e+00	0	49	0	1002438656	79	4559
2026-01-16 09:19:12.71	342.89	35.91	-54.2	-56.4	15.5	0.00e+00	0	49	0	1004535808	79	4774
2026-01-16 09:19:13.72	342.79	35.68	-54.1	-56.2	15.8	0.00e+00	0	49	0	1005584384	79	4665
2026-01-16 09:19:14.72	342.69	35.46	-54.1	-56.3	15.7	0.00e+00	0	49	0	1007681536	79	4710
2026-01-16 09:19:15.73	342.59	35.24	-53.6	-55.4	16.5	0.00e+00	0	49	0	1009778688	79	4288
2026-01-16 09:19:16.74	342.49	35.02	-53.6	-55.4	16.6	0.00e+00	0	49	0	1011875840	79	4266
2026-01-16 09:19:17.75	342.39	34.80	-53.9	-55.9	16.0	0.00e+00	0	49	0	1013972992	78	4781
2026-01-16 09:19:18.76	342.29	34.58	-54.1	-56.3	15.7	0.00e+00	0	49	0	1016070144	78	5000
2026-01-16 09:19:19.77	342.20	34.36	-54.1	-56.2	15.7	0.00e+00	0	49	0	1017118720	79	4679
2026-01-16 09:19:20.77	342.11	34.15	-54.1	-56.2	15.7	0.00e+00	0	49	0	1019215872	79	4705
2026-01-16 09:19:21.78	342.01	33.93	-53.9	-55.9	16.1	0.00e+00	0	49	0	1021313024	79	4516
2026-01-16 09:19:22.79	341.92	33.72	-53.1	-54.7	17.2	0.00e+00	0	49	0	1023410176	78	4193
2026-01-16 09:19:23.80	341.83	33.51	-52.7	-54.2	17.7	0.00e+00	0	49	0	1024458752	77	4158
2026-01-16 09:19:24.81	341.75	33.30	-52.4	-53.7	18.1	0.00e+00	0	49	0	1026555904	76	4191
2026-01-16 09:19:25.82	341.66	33.09	-51.8	-52.9	18.9	0.00e+00	0	49	0	1028653056	75	4026
2026-01-16 09:19:26.83	341.57	32.88	-51.9	-53.1	18.7	0.00e+00	0	49	0	1030750208	75	4122
2026-01-16 09:19:27.83	341.49	32.68	-52.1	-53.4	18.5	0.00e+00	0	49	0	1032847360	75	4268
2026-01-16 09:19:28.84	341.40	32.48	-52.3	-53.6	18.3	0.00e+00	0	49	0	1034944512	75	4379
2026-01-16 09:19:29.85	341.32	32.27	-52.5	-53.8	18.1	0.00e+00	0	49	0	1035993088	75	4481
2026-01-16 09:19:30.86	341.24	32.07	-52.7	-54.2	17.7	0.00e+00	0	49	0	1038090240	76	4413
2026-01-16 09:19:31.87	341.16	31.87	-52.6	-54.0	17.9	0.00e+00	0	49	0	1040187392	76	4317
2026-01-16 09:19:32.88	341.08	31.67	-53.0	-54.6	17.4	0.00e+00	0	49	0	1042284544	76	4614
2026-01-16 09:19:33.89	341.00	31.47	-53.6	-55.4	16.5	0.00e+00	0	49	0	1044381696	78	4537
2026-01-16 09:19:34.89	340.92	31.28	-54.4	-56.6	15.3	7.00e-07	0	49	0	1045430272	79	4890
2026-01-16 09:19:35.90	340.85	31.08	-54.8	-57.5	14.4	7.00e-07	0	49	0	1047527424	80	5111
2026-01-16 09:19:36.91	340.77	30.89	-55.4	-58.5	13.3	6.10e-06	0	49	0	1049624576	81	5420
2026-01-16 09:19:37.92	340.70	30.69	-55.2	-58.2	13.6	9.90e-06	0	49	0	1051721728	81	5240
2026-01-16 09:19:38.93	340.62	30.50	-54.7	-57.2	14.5	6.10e-06	0	50	0	1052770304	81	4694
2026-01-16 09:19:39.94	340.55	30.31	-54.3	-56.6	15.2	0.00e+00	0	49	0	1054867456	80	4613
2026-01-16 09:19:40.95	340.48	30.12	-53.8	-55.6	16.1	0.00e+00	0	49	0	1056964608	79	4379
2026-01-16 09:19:41.96	340.40	29.93	-53.6	-55.5	16.5	0.00e+00	0	49	0	1059061760	79	4292
2026-01-16 09:19:42.97	340.33	29.75	-53.3	-54.9	17.0	0.00e+00	0	49	0	1061158912	78	4281
2026-01-16 09:19:43.97	340.27	29.56	-53.1	-54.6	17.2	0.00e+00	0	49	0	1063256064	77	4382
2026-01-16 09:19:44.98	340.20	29.38	-53.1	-54.6	17.3	0.00e+00	0	49	0	1064304640	77	4378
2026-01-16 09:19:45.99	340.13	29.19	-53.0	-54.5	17.4	0.00e+00	0	49	0	1066401792	77	4319
2026-01-16 09:19:47.00	340.06	29.01	-53.0	-54.6	17.3	0.00e+00	0	49	0	1068498944	77	4359
2026-01-16 09:19:48.01	340.00	28.83	-52.8	-54.3	17.6	0.00e+00	0	49	0	1070596096	77	4202
2026-01-16 09:19:49.02	339.93	28.65	-52.6	-54.0	18.0	0.00e+00	0	49	0	1072693248	77	4061
2026-01-16 09:19:50.02	339.87	28.47	-52.3	-53.6	18.2	0.00e+00	0	49	0	1073741824	76	4120
2026-01-16 09:19:51.03	339.80	28.30	-51.8	-53.0	18.8	0.00e+00	0	49	0	1075838976	75	4056
2026-01-16 09:19:52.04	339.74	28.12	-51.4	-52.4	19.4	0.00e+00	0	49	0	1077936128	74	4022
2026-01-16 09:19:53.05	339.68	27.94	-51.1	-52.0	19.7	0.00e+00	0	49	0	1080033280	74	3866
2026-01-16 09:19:54.06	339.62	27.77	-51.1	-52.0	19.7	0.00e+00	0	49	0	1082130432	73	4093
2026-01-16 09:19:55.07	339.55	27.59	-51.2	-52.2	19.6	0.00e+00	0	50	0	1083179008	73	4163
2026-01-16 09:19:56.08	339.49	27.42	-51.3	-52.4	19.4	0.00e+00	0	49	0	1085276160	73	4262
2026-01-16 09:19:57.09	339.43	27.25	-51.8	-52.9	18.7	0.00e+00	0	49	0	1087373312	74	4267
2026-01-16 09:19:58.09	339.38	27.08	-52.3	-53.6	18.1	0.00e+00	0	49	0	1089470464	75	4349
2026-01-16 09:19:59.10	339.32	26.91	-52.9	-54.4	17.5	0.00e+00	0	49	0	1091567616	76	4537
2026-01-16 09:20:00.11	339.26	26.74	-53.6	-55.5	16.5	0.00e+00	0	49	0	1092616192	77	4846
2026-01-16 09:20:01.12	339.20	26.58	-54.0	-56.1	15.8	0.00e+00	0	49	0	1094713344	78	4904
2026-01-16 09:20:02.12	339.15	26.41	-54.4	-56.8	15.2	0.00e+00	0	49	0	1096810496	79	4985
2026-01-16 09:20:03.13	339.09	26.25	-54.1	-56.2	15.6	0.00e+00	0	49	0	1098907648	79	4696
2026-01-16 09:20:04.14	339.04	26.08	-53.9	-56.0	15.9	0.00e+00	0	49	0	1101004800	79	4556
2026-01-16 09:20:05.15	338.98	25.92	-53.5	-55.3	16.5	0.00e+00	0	49	0	1103101952	78	4489
2026-01-16 09:20:06.16	338.93	25.75	-52.9	-54.6	17.2	0.00e+00	0	49	0	1104150528	77	4343
2026-01-16 09:20:07.17	338.88	25.59	-52.7	-54.1	17.6	0.00e+00	0	49	0	1106247680	77	4144
2026-01-16 09:20:08.17	338.82	25.43	-52.3	-53.7	18.1	0.00e+00	0	49	0	1108344832	76	4150
2026-01-16 09:20:09.18	338.77	25.27	-52.1	-53.4	18.4	0.00e+00	0	49	0	1110441984	76	4028
2026-01-16 09:20:10.19	338.72	25.12	-51.8	-53.0	18.6	0.00e+00	0	49	0	1111490560	75	4095
2026-01-16 09:20:11.20	338.67	24.96	-51.9	-53.1	18.6	0.00e+00	0	49	0	1113587712	75	4122
2026-01-16 09:20:12.21	338.62	24.80	-51.6	-52.7	19.0	0.00e+00	0	49	0	1115684864	75	3942
2026-01-16 09:20:13.21	338.57	24.65	-51.7	-52.8	19.0	0.00e+00	0	49	0	1117782016	75	3985
2026-01-16 09:20:14.22	338.52	24.49	-51.6	-52.7	19.0	0.00e+00	0	49	0	1119879168	74	4172
2026-01-16 09:20:15.23	338.47	24.34	-51.4	-52.5	19.2	0.00e+00	0	50	0	1120927744	74	4057
2026-01-16 09:20:16.24	338.42	24.18	-51.3	-52.3	19.3	0.00e+00	0	50	0	1123024896	74	3983
2026-01-16 09:20:17.25	338.37	24.03	-51.3	-52.3	19.4	0.00e+00	0	49	0	1125122048	74	3978
2026-01-16 09:20:18.25	338.33	23.88	-51.3	-52.4	19.3	0.00e+00	0	49	0	1127219200	74	4010
2026-01-16 09:20:19.26	338.28	23.73	-51.2	-52.3	19.3	0.00e+00	0	49	0	1129316352	74	3966
2026-01-16 09:20:20.27	338.23	23.58	-51.2	-52.2	19.3	0.00e+00	0	50	0	1131413504	74	3944
2026-01-16 09:20:21.28	338.19	23.43	-51.3	-52.4	19.2	0.00e+00	0	49	0	1132462080	74	4024
2026-01-16 09:20:22.29	338.14	23.28	-51.3	-52.3	19.3	0.00e+00	0	49	0	1134559232	74	4001
2026-01-16 09:20:23.30	338.10	23.13	-51.4	-52.5	19.1	0.00e+00	0	49	0	1136656384	74	4076
2026-01-16 09:20:24.30	338.05	22.99	-51.2	-52.2	19.3	0.00e+00	0	49	0	1138753536	74	3946
2026-01-16 09:20:25.31	338.01	22.84	-51.2	-52.3	19.3	0.00e+00	0	49	0	1139802112	74	3970
2026-01-16 09:20:26.32	337.97	22.70	-51.1	-52.1	19.4	0.00e+00	0	49	0	1141899264	74	3905
2026-01-16 09:20:27.33	337.92	22.55	-51.0	-52.1	19.5	0.00e+00	0	50	0	1143996416	73	4108
2026-01-16 09:20:28.34	337.88	22.41	-51.2	-52.3	19.3	0.00e+00	0	49	0	1146093568	73	4207
2026-01-16 09:20:29.35	337.84	22.27	-51.4	-52.5	19.0	0.00e+00	0	49	0	1148190720	73	4336
2026-01-16 09:20:30.35	337.80	22.13	-51.5	-52.7	18.9	0.00e+00	0	49	0	1150287872	73	4408
2026-01-16 09:20:31.36	337.75	21.99	-51.4	-52.5	19.0	0.00e+00	0	49	0	1151336448	73	4333
2026-01-16 09:20:32.37	337.71	21.85	-51.4	-52.5	19.0	0.00e+00	0	49	0	1153433600	73	4312
2026-01-16 09:20:33.38	337.67	21.71	-51.7	-52.9	18.7	0.00e+00	0	49	0	1155530752	74	4286
2026-01-16 09:20:34.39	337.63	21.57	-51.7	-53.0	18.6	0.00e+00	0	49	0	1157627904	74	4306
2026-01-16 09:20:35.40	337.59	21.43	-52.0	-53.3	18.3	0.00e+00	0	49	0	1159725056	74	4487
2026-01-16 09:20:36.41	337.55	21.29	-52.2	-53.6	18.0	0.00e+00	0	49	0	1160773632	74	4617
2026-01-16 09:20:37.41	337.51	21.16	-52.3	-53.7	17.9	0.00e+00	0	50	0	1162870784	75	4435
2026-01-16 09:20:38.42	337.48	21.02	-52.4	-53.9	17.7	0.00e+00	0	49	0	1164967936	75	4545
2026-01-16 09:20:39.43	337.44	20.88	-52.6	-54.2	17.4	0.00e+00	0	49	0	1167065088	75	4693
2026-01-16 09:20:40.44	337.40	20.75	-53.1	-54.9	16.8	0.00e+00	0	49	0	1168113664	76	4773
2026-01-16 09:20:41.45	337.36	20.62	-53.1	-54.9	16.8	0.00e+00	0	49	0	1170210816	77	4529
2026-01-16 09:20:42.46	337.32	20.48	-53.2	-55.1	16.6	0.00e+00	0	50	0	1172307968	77	4625
2026-01-16 09:20:43.46	337.29	20.35	-53.4	-55.3	16.4	0.00e+00	0	49	0	1174405120	77	4717
2026-01-16 09:20:44.47	337.25	20.22	-53.1	-54.8	16.8	0.00e+00	0	49	0	1176502272	77	4482
2026-01-16 09:20:45.48	337.22	20.09	-53.4	-55.3	16.4	0.00e+00	0	50	0	1178599424	77	4713
2026-01-16 09:20:46.49	337.18	19.96	-53.0	-54.7	16.9	0.00e+00	0	50	0	1179648000	77	4440
2026-01-16 09:20:47.50	337.14	19.83	-53.2	-55.0	16.6	0.00e+00	0	49	0	1181745152	77	4551
2026-01-16 09:20:48.51	337.11	19.70	-53.1	-54.8	16.8	0.00e+00	0	49	0	1183842304	77	4481
2026-01-16 09:20:49.52	337.07	19.57	-52.7	-54.3	17.3	0.00e+00	0	49	0	1185939456	77	4209
2026-01-16 09:20:50.52	337.04	19.45	-52.5	-54.1	17.5	0.00e+00	0	49	0	1188036608	76	4354
2026-01-16 09:20:51.53	337.01	19.32	-52.5	-54.1	17.5	0.00e+00	0	49	0	1189085184	76	4352
2026-01-16 09:20:52.54	336.97	19.19	-52.5	-54.0	17.6	0.00e+00	0	49	0	1191182336	76	4311
2026-01-16 09:20:53.55	336.94	19.07	-52.4	-53.8	17.8	0.00e+00	0	49	0	1193279488	76	4223
2026-01-16 09:20:54.56	336.91	18.94	-52.3	-53.8	17.8	0.00e+00	0	49	0	1195376640	76	4199
2026-01-16 09:20:55.57	336.87	18.82	-52.0	-53.4	18.1	0.00e+00	0	49	0	1197473792	76	4018
2026-01-16 09:20:56.57	336.84	18.69	-52.1	-53.4	18.1	0.00e+00	0	49	0	1198522368	75	4271
2026-01-16 09:20:57.58	336.81	18.57	-52.2	-53.6	18.0	0.00e+00	0	49	0	1200619520	75	4363
2026-01-16 09:20:58.59	336.78	18.45	-52.2	-53.6	17.9	0.00e+00	0	49	0	1202716672	75	4361
2026-01-16 09:20:59.60	336.74	18.32	-52.0	-53.4	18.2	0.00e+00	0	50	0	1204813824	75	4245
2026-01-16 09:21:00.61	336.71	18.20	-52.2	-53.7	17.9	0.00e+00	0	49	0	1206910976	75	4393
2026-01-16 09:21:01.62	336.68	18.08	-52.3	-53.7	17.9	0.00e+00	0	49	0	1207959552	75	4399
2026-01-16 09:21:02.63	336.65	17.96	-52.0	-53.3	18.2	0.00e+00	0	49	0	1210056704	75	4239
2026-01-16 09:21:03.64	336.62	17.84	-52.1	-53.4	18.1	0.00e+00	0	49	0	1212153856	75	4288
2026-01-16 09:21:04.64	336.59	17.72	-52.4	-53.8	17.7	0.00e+00	0	49	0	1214251008	75	4488
2026-01-16 09:21:05.65	336.56	17.60	-52.4	-53.8	17.7	0.00e+00	0	49	0	1216348160	75	4478
2026-01-16 09:21:06.66	336.53	17.49	-52.5	-54.0	17.5	0.00e+00	0	49	0	1217396736	75	4585
2026-01-16 09:21:07.67	336.50	17.37	-52.6	-54.1	17.4	1.50e-06	0	49	0	1219493888	75	4637
2026-01-16 09:21:08.68	336.47	17.25	-52.8	-54.4	17.2	7.00e-07	0	49	0	1221591040	76	4510
2026-01-16 09:21:09.68	336.44	17.14	-52.8	-54.5	17.1	0.00e+00	0	49	0	1223688192	76	4565
2026-01-16 09:21:10.69	336.41	17.02	-52.9	-54.6	16.9	0.00e+00	0	50	0	1225785344	76	4641
2026-01-16 09:21:11.70	336.38	16.91	-53.0	-54.7	16.9	0.00e+00	0	49	0	1226833920	76	4661
2026-01-16 09:21:12.71	336.36	16.79	-53.2	-55.0	16.5	0.00e+00	0	49	0	1228931072	77	4560
2026-01-16 09:21:13.72	336.33	16.68	-53.2	-55.0	16.5	0.00e+00	0	49	0	1231028224	77	4557
2026-01-16 09:21:14.72	336.30	16.56	-53.2	-55.1	16.4	0.00e+00	0	50	0	1233125376	77	4617
2026-01-16 09:21:15.73	336.27	16.45	-53.2	-55.0	16.5	7.00e-07	0	49	0	1235222528	77	4581
2026-01-16 09:21:16.74	336.24	16.34	-53.2	-55.1	16.5	0.00e+00	0	50	0	1236271104	77	4615
2026-01-16 09:21:17.74	336.22	16.23	-53.5	-55.5	16.0	0.00e+00	0	49	0	1238368256	77	4848
2026-01-16 09:21:18.75	336.19	16.11	-53.1	-54.9	16.5	0.00e+00	0	49	0	1240465408	77	4530
2026-01-16 09:21:19.76	336.16	16.00	-53.1	-54.9	16.6	0.00e+00	0	49	0	1242562560	77	4501
2026-01-16 09:21:20.77	336.14	15.89	-53.4	-55.3	16.2	0.00e+00	0	49	0	1244659712	77	4728
