passes_logs/2026/01/16/R3.2S_Murmansk/R3.2S_Murmansk__20260116_141905_AQUA_rec.log

#Pass ID: 20260116_141905_AQUA
#Satellite: AQUA
#Configuration: AQUA
#almurnet v.1.7.20251203
#Start time: 2026-01-16 14:19:05

#Version: 2.2.20231116
#Station: R3.2S_Murmansk
#Location: 33.079688 lon 68.888172 lat
#TLE: 1 27424U 02022A   26015.92015591  .00000664  00000+0  14289-3 0  9993
#TLE: 2 27424  98.4082 342.3630 0002020  77.1389  16.3168 14.61822470261023

#Time	Az	El	Level	Level2	SNR	BER	BlckErr	Temp	State	Recorded	gain1	gain2
2026-01-16 14:19:05.41	234.98	1.98	-53.5	-71.3	3.8	7.49e-01	0	31	0	0	79	26562
2026-01-16 14:19:06.42	235.09	2.03	-53.5	-71.3	3.8	7.44e-01	0	31	104	0	77	29897
2026-01-16 14:19:07.43	235.20	2.07	-53.5	-71.3	3.8	7.45e-01	0	31	104	0	77	29843
2026-01-16 14:19:08.44	235.30	2.12	-53.5	-71.3	3.8	7.43e-01	0	31	104	0	77	29755
2026-01-16 14:19:09.45	235.41	2.17	-53.5	-71.3	3.8	7.47e-01	0	31	104	0	77	29710
2026-01-16 14:19:10.46	235.52	2.22	-53.5	-71.2	3.8	7.46e-01	0	31	104	0	77	29643
2026-01-16 14:19:11.46	235.63	2.27	-53.5	-71.2	3.8	7.47e-01	0	31	104	0	77	29636
2026-01-16 14:19:12.47	235.73	2.32	-53.5	-71.2	3.8	7.47e-01	0	31	104	0	77	29621
2026-01-16 14:19:13.48	235.84	2.37	-53.5	-71.3	3.8	7.47e-01	0	31	104	0	77	29703
2026-01-16 14:19:14.49	235.95	2.42	-53.5	-71.2	3.8	7.44e-01	0	31	104	0	77	29559
2026-01-16 14:19:15.50	236.06	2.47	-53.5	-71.2	3.8	7.43e-01	0	31	104	0	77	29564
2026-01-16 14:19:16.51	236.17	2.52	-53.5	-71.2	3.8	7.46e-01	0	31	104	0	77	29539
2026-01-16 14:19:17.51	236.28	2.56	-53.5	-71.2	3.8	7.45e-01	0	31	104	0	77	29439
2026-01-16 14:19:18.52	236.39	2.61	-53.5	-71.2	3.8	7.44e-01	0	31	104	0	77	29467
2026-01-16 14:19:19.53	236.50	2.66	-53.5	-71.2	3.8	7.46e-01	0	31	104	0	77	29641
2026-01-16 14:19:20.54	236.61	2.71	-53.5	-71.2	3.8	7.46e-01	0	31	104	0	77	29571
2026-01-16 14:19:21.55	236.73	2.76	-53.5	-71.2	3.8	7.48e-01	0	32	104	0	77	29413
2026-01-16 14:19:22.56	236.84	2.81	-53.5	-71.1	3.8	7.47e-01	0	31	104	0	77	29292
2026-01-16 14:19:23.57	236.95	2.86	-53.4	-71.1	3.8	7.44e-01	0	32	104	0	77	29180
2026-01-16 14:19:24.58	237.06	2.91	-53.4	-71.1	3.8	7.44e-01	0	32	104	0	77	29329
2026-01-16 14:19:25.59	237.18	2.96	-53.5	-71.2	3.8	7.48e-01	0	31	104	0	77	29395
2026-01-16 14:19:26.59	237.29	3.01	-53.5	-71.2	3.8	7.47e-01	0	31	104	0	77	29507
2026-01-16 14:19:27.60	237.40	3.06	-53.4	-71.1	3.8	7.43e-01	0	31	104	0	77	29263
2026-01-16 14:19:28.61	237.52	3.11	-53.4	-71.1	3.8	7.47e-01	0	32	104	0	77	29039
2026-01-16 14:19:29.62	237.63	3.15	-53.4	-71.0	3.8	7.42e-01	0	32	104	0	77	28919
2026-01-16 14:19:30.63	237.75	3.20	-53.5	-71.0	3.8	7.46e-01	0	32	104	0	77	28846
2026-01-16 14:19:31.64	237.87	3.25	-53.4	-70.9	3.8	7.45e-01	0	32	104	0	77	28529
2026-01-16 14:19:32.64	237.98	3.30	-53.4	-70.8	3.8	7.45e-01	0	32	104	0	77	28275
2026-01-16 14:19:33.65	238.10	3.35	-53.4	-70.8	3.8	7.43e-01	0	32	104	0	77	28165
2026-01-16 14:19:34.66	238.21	3.40	-53.4	-70.8	3.8	7.47e-01	0	32	104	0	77	28180
2026-01-16 14:19:35.67	238.33	3.45	-53.4	-71.0	3.8	7.43e-01	0	32	104	0	77	28814
2026-01-16 14:19:36.68	238.45	3.50	-53.4	-71.1	3.8	7.45e-01	0	32	104	0	77	29172
2026-01-16 14:19:37.69	238.57	3.55	-53.4	-71.1	3.8	7.46e-01	0	32	104	0	77	29278
2026-01-16 14:19:38.70	238.69	3.60	-53.4	-71.0	3.8	7.45e-01	0	32	104	0	77	28700
2026-01-16 14:19:39.71	238.81	3.65	-53.4	-70.9	3.8	7.47e-01	0	32	104	0	77	28394
2026-01-16 14:19:40.72	238.93	3.70	-53.4	-70.5	3.8	7.44e-01	0	32	104	0	77	27248
2026-01-16 14:19:41.72	239.04	3.75	-53.4	-70.5	3.8	7.45e-01	0	32	104	0	77	27260
2026-01-16 14:19:42.73	239.16	3.80	-53.4	-70.8	3.8	7.43e-01	0	32	104	0	77	28113
2026-01-16 14:19:43.74	239.29	3.85	-53.4	-71.0	3.8	7.47e-01	0	32	104	0	77	28729
2026-01-16 14:19:44.75	239.41	3.89	-53.4	-71.2	3.8	7.43e-01	0	32	104	0	77	29354
2026-01-16 14:19:45.75	239.53	3.94	-53.4	-71.2	3.8	7.51e-01	0	32	104	0	77	29570
2026-01-16 14:19:46.76	239.65	3.99	-53.4	-71.2	3.8	7.47e-01	0	32	104	0	77	29408
2026-01-16 14:19:47.77	239.77	4.04	-53.4	-71.1	3.8	7.43e-01	0	32	104	0	77	29179
2026-01-16 14:19:48.78	239.90	4.09	-53.4	-71.0	3.8	7.45e-01	0	32	104	0	77	28880
2026-01-16 14:19:49.79	240.02	4.14	-53.4	-70.9	3.8	7.46e-01	0	32	104	0	77	28562
2026-01-16 14:19:50.80	240.14	4.19	-53.4	-70.8	3.8	7.45e-01	0	32	104	0	77	28289
2026-01-16 14:19:51.81	240.27	4.24	-53.4	-70.7	3.8	7.47e-01	0	32	104	0	77	27782
2026-01-16 14:19:52.81	240.39	4.29	-53.4	-70.2	3.8	7.44e-01	0	32	104	0	77	26390
2026-01-16 14:19:53.82	240.52	4.34	-53.4	-69.8	3.8	7.44e-01	0	32	104	0	77	25098
2026-01-16 14:19:54.84	240.64	4.39	-53.4	-69.7	3.8	7.49e-01	0	32	104	0	77	24887
2026-01-16 14:19:55.84	240.77	4.44	-53.4	-70.1	3.8	7.44e-01	0	32	104	0	77	25966
2026-01-16 14:19:56.85	240.89	4.49	-53.4	-71.1	3.8	7.46e-01	0	32	104	0	77	29035
2026-01-16 14:19:57.86	241.02	4.54	-53.4	-70.7	3.8	7.46e-01	0	32	104	0	77	28008
2026-01-16 14:19:58.87	241.15	4.59	-53.3	-67.2	4.0	7.41e-01	0	32	104	0	77	18613
2026-01-16 14:19:59.87	241.28	4.63	-53.0	-62.8	7.0	6.62e-01	184	32	0	524288	77	11273
2026-01-16 14:20:00.88	241.40	4.68	-52.5	-60.0	9.9	6.27e-01	0	32	0	2621440	77	8135
2026-01-16 14:20:01.89	241.53	4.73	-52.2	-58.8	11.3	6.18e-01	0	32	0	4194304	76	7464
2026-01-16 14:20:02.90	241.66	4.78	-52.0	-58.1	12.0	6.12e-01	0	32	0	6291456	76	6915
2026-01-16 14:20:03.90	241.79	4.83	-51.7	-57.0	13.0	6.08e-01	0	32	0	7864320	75	6485
2026-01-16 14:20:04.91	241.92	4.88	-50.7	-54.7	15.5	6.05e-01	0	32	0	9961472	73	5533
2026-01-16 14:20:05.92	242.05	4.93	-50.1	-53.5	16.6	6.04e-01	0	32	0	12058624	72	5114
2026-01-16 14:20:06.93	242.18	4.98	-48.7	-51.1	19.1	6.08e-01	0	32	0	13631488	69	4620
2026-01-16 14:20:07.94	242.31	5.03	-47.5	-49.5	20.8	6.04e-01	0	32	0	15728640	67	4302
2026-01-16 14:20:08.94	242.44	5.08	-48.0	-50.2	20.2	6.06e-01	0	32	0	17825792	66	4936
2026-01-16 14:20:09.95	242.58	5.13	-50.7	-54.6	15.8	6.09e-01	0	32	0	19398656	71	6150
2026-01-16 14:20:10.96	242.71	5.18	-47.3	-49.2	21.3	6.06e-01	0	32	0	21495808	65	4652
2026-01-16 14:20:11.96	242.84	5.22	-49.9	-53.2	17.2	6.07e-01	0	32	0	23068672	70	5566
2026-01-16 14:20:12.97	242.98	5.27	-50.9	-54.9	15.8	6.08e-01	0	32	0	25165824	72	6018
2026-01-16 14:20:13.98	243.11	5.32	-48.0	-50.1	20.2	6.05e-01	0	32	0	26738688	67	4643
2026-01-16 14:20:14.99	243.25	5.37	-48.1	-50.3	20.1	6.06e-01	0	33	0	28835840	67	4736
2026-01-16 14:20:16.00	243.38	5.42	-47.6	-49.6	20.8	6.07e-01	0	32	0	30932992	67	4384
2026-01-16 14:20:17.01	243.52	5.47	-47.5	-49.5	20.9	6.04e-01	0	32	0	32505856	66	4583
2026-01-16 14:20:18.01	243.65	5.52	-47.4	-49.3	21.2	6.07e-01	0	32	0	34603008	66	4483
2026-01-16 14:20:19.02	243.79	5.57	-47.7	-49.7	20.7	6.06e-01	0	32	0	36700160	66	4691
2026-01-16 14:20:20.03	243.93	5.62	-47.7	-49.7	20.7	6.05e-01	0	32	0	38273024	66	4689
2026-01-16 14:20:21.04	244.06	5.67	-47.0	-48.8	21.6	6.07e-01	0	33	0	40370176	66	4203
2026-01-16 14:20:22.05	244.20	5.71	-47.3	-49.2	21.3	6.06e-01	0	32	0	41943040	65	4666
2026-01-16 14:20:23.06	244.34	5.76	-47.3	-49.2	21.3	6.07e-01	0	32	0	44040192	65	4660
2026-01-16 14:20:24.06	244.48	5.81	-47.2	-49.1	21.4	6.05e-01	0	33	0	46137344	65	4599
2026-01-16 14:20:25.07	244.62	5.86	-46.8	-48.5	21.9	6.04e-01	0	32	0	47710208	65	4338
2026-01-16 14:20:26.08	244.76	5.91	-47.1	-48.9	21.6	6.06e-01	0	32	0	49807360	65	4519
2026-01-16 14:20:27.09	244.90	5.96	-47.1	-49.0	21.5	6.07e-01	0	33	0	51380224	65	4571
2026-01-16 14:20:28.10	245.04	6.01	-47.1	-48.9	21.6	6.05e-01	0	33	0	53477376	65	4502
2026-01-16 14:20:29.10	245.18	6.06	-47.2	-49.1	21.4	6.05e-01	0	33	0	55050240	65	4625
2026-01-16 14:20:30.11	245.32	6.10	-46.8	-48.6	21.9	6.06e-01	0	33	0	57147392	65	4362
2026-01-16 14:20:31.12	245.47	6.15	-47.5	-49.4	21.2	6.07e-01	0	33	0	59244544	65	4797
2026-01-16 14:20:32.13	245.61	6.20	-48.0	-50.1	20.4	6.07e-01	0	32	0	61341696	67	4635
2026-01-16 14:20:33.14	245.75	6.25	-47.6	-49.6	21.1	6.06e-01	0	33	0	62914560	67	4353
2026-01-16 14:20:34.15	245.90	6.30	-47.1	-49.0	21.6	6.06e-01	0	32	0	65011712	66	4295
2026-01-16 14:20:35.16	246.04	6.35	-47.2	-49.0	21.6	6.10e-01	0	32	0	66584576	66	4315
2026-01-16 14:20:36.16	246.19	6.40	-46.7	-48.4	22.1	6.04e-01	0	33	0	68681728	65	4268
2026-01-16 14:20:37.17	246.33	6.44	-46.6	-48.3	22.2	6.05e-01	0	32	0	70254592	65	4224
2026-01-16 14:20:38.18	246.48	6.49	-46.5	-48.2	22.3	6.06e-01	0	33	0	72351744	65	4166
2026-01-16 14:20:39.19	246.62	6.54	-46.8	-48.5	22.0	6.07e-01	0	33	0	74448896	65	4320
2026-01-16 14:20:40.20	246.77	6.59	-46.7	-48.4	22.1	6.08e-01	0	33	0	76021760	65	4285
2026-01-16 14:20:41.21	246.92	6.64	-46.6	-48.3	22.4	6.06e-01	0	33	0	78118912	65	4200
2026-01-16 14:20:42.22	247.07	6.69	-46.9	-48.6	22.0	6.07e-01	0	33	0	80216064	65	4362
2026-01-16 14:20:43.23	247.22	6.73	-46.8	-48.5	22.1	6.06e-01	0	33	0	81788928	65	4314
2026-01-16 14:20:44.24	247.37	6.78	-46.5	-48.1	22.4	6.06e-01	0	33	0	83886080	65	4143
2026-01-16 14:20:45.24	247.51	6.83	-46.5	-48.2	22.4	6.06e-01	0	33	0	85458944	64	4410
2026-01-16 14:20:46.25	247.66	6.88	-46.5	-48.2	22.4	6.05e-01	0	33	0	87556096	64	4394
2026-01-16 14:20:47.26	247.81	6.93	-46.7	-48.4	22.2	6.07e-01	0	33	0	89653248	64	4506
2026-01-16 14:20:48.27	247.97	6.97	-46.6	-48.3	22.3	6.06e-01	0	33	0	91226112	64	4458
2026-01-16 14:20:49.28	248.12	7.02	-46.7	-48.5	22.1	6.08e-01	0	33	0	93323264	64	4546
2026-01-16 14:20:50.28	248.27	7.07	-46.6	-48.3	22.3	6.07e-01	0	33	0	94896128	64	4461
2026-01-16 14:20:51.29	248.42	7.12	-46.5	-48.1	22.5	6.05e-01	0	33	0	96993280	64	4363
2026-01-16 14:20:52.30	248.58	7.16	-46.7	-48.4	22.2	6.05e-01	0	33	0	98566144	64	4514
2026-01-16 14:20:53.31	248.73	7.21	-46.6	-48.3	22.3	6.07e-01	0	33	0	100663296	64	4467
2026-01-16 14:20:54.32	248.88	7.26	-46.8	-48.5	22.1	6.06e-01	0	33	0	102760448	64	4587
2026-01-16 14:20:55.32	249.04	7.31	-46.8	-48.6	22.0	6.07e-01	0	33	0	104857600	64	4605
2026-01-16 14:20:56.33	249.19	7.35	-46.5	-48.2	22.5	6.06e-01	0	33	0	106430464	64	4401
2026-01-16 14:20:57.34	249.35	7.40	-46.6	-48.2	22.4	6.06e-01	0	33	0	108527616	64	4436
2026-01-16 14:20:58.34	249.50	7.45	-46.1	-47.7	22.9	6.05e-01	0	33	0	110100480	64	4176
2026-01-16 14:20:59.35	249.66	7.49	-46.1	-47.7	22.9	6.08e-01	0	33	0	112197632	64	4170
2026-01-16 14:21:00.36	249.82	7.54	-46.4	-48.0	22.7	6.06e-01	0	33	0	113770496	64	4304
2026-01-16 14:21:01.37	249.98	7.59	-46.5	-48.1	22.6	6.06e-01	0	33	0	115867648	64	4355
2026-01-16 14:21:02.38	250.14	7.64	-46.3	-47.9	22.8	6.05e-01	0	33	0	117964800	64	4257
2026-01-16 14:21:03.38	250.29	7.68	-46.4	-48.1	22.6	6.06e-01	0	33	0	119537664	64	4354
2026-01-16 14:21:04.39	250.45	7.73	-46.2	-47.8	22.9	6.05e-01	0	33	0	121634816	64	4201
2026-01-16 14:21:05.40	250.61	7.77	-46.4	-48.0	22.7	6.08e-01	0	33	0	123207680	64	4311
2026-01-16 14:21:06.41	250.77	7.82	-46.2	-47.7	22.9	6.04e-01	0	33	0	125304832	64	4188
2026-01-16 14:21:07.41	250.93	7.87	-46.1	-47.7	23.0	6.07e-01	0	33	0	127401984	64	4163
2026-01-16 14:21:08.42	251.10	7.91	-46.3	-47.9	22.9	6.06e-01	0	33	0	128974848	64	4243
2026-01-16 14:21:09.43	251.26	7.96	-46.2	-47.7	22.9	6.07e-01	0	33	0	131072000	64	4193
2026-01-16 14:21:10.44	251.42	8.01	-46.3	-47.9	22.8	6.07e-01	0	33	0	133169152	64	4288
2026-01-16 14:21:11.45	251.59	8.05	-46.3	-47.9	22.7	6.07e-01	0	33	0	134742016	64	4284
2026-01-16 14:21:12.45	251.75	8.10	-46.2	-47.8	22.9	6.06e-01	0	33	0	136839168	64	4196
2026-01-16 14:21:13.46	251.91	8.14	-46.1	-47.6	23.1	6.03e-01	0	33	0	138412032	64	4135
2026-01-16 14:21:14.47	252.08	8.19	-46.2	-47.7	23.0	6.05e-01	0	33	0	140509184	64	4176
2026-01-16 14:21:15.48	252.24	8.24	-46.3	-47.9	22.9	6.07e-01	0	33	0	142082048	64	4249
2026-01-16 14:21:16.49	252.41	8.28	-45.9	-47.4	23.4	6.05e-01	0	33	0	144179200	63	4268
2026-01-16 14:21:17.50	252.58	8.33	-46.2	-47.7	23.1	6.04e-01	0	33	0	146276352	63	4435
2026-01-16 14:21:18.50	252.74	8.37	-46.3	-47.8	23.0	6.06e-01	0	33	0	147849216	63	4477
2026-01-16 14:21:19.51	252.91	8.42	-46.2	-47.7	23.1	6.07e-01	0	33	0	149946368	63	4418
2026-01-16 14:21:20.52	253.08	8.46	-46.4	-48.0	22.9	6.07e-01	0	33	0	152043520	63	4547
2026-01-16 14:21:21.53	253.25	8.51	-46.3	-47.9	23.0	6.05e-01	0	33	0	153616384	63	4502
2026-01-16 14:21:22.54	253.42	8.55	-46.1	-47.6	23.3	6.05e-01	0	33	0	155713536	63	4348
2026-01-16 14:21:23.54	253.59	8.60	-46.2	-47.7	23.1	6.06e-01	0	33	0	157286400	63	4433
2026-01-16 14:21:24.55	253.76	8.64	-46.1	-47.6	23.2	6.05e-01	0	33	0	159383552	63	4361
2026-01-16 14:21:25.56	253.93	8.69	-46.1	-47.6	23.3	6.08e-01	0	33	0	161480704	63	4356
2026-01-16 14:21:26.57	254.10	8.73	-46.2	-47.8	23.0	6.06e-01	0	33	0	163053568	63	4450
2026-01-16 14:21:27.58	254.27	8.77	-46.0	-47.6	23.3	6.05e-01	0	33	0	165150720	63	4341
2026-01-16 14:21:28.58	254.44	8.82	-46.0	-47.5	23.4	6.05e-01	0	33	0	166723584	63	4292
2026-01-16 14:21:29.59	254.62	8.86	-46.0	-47.5	23.3	6.07e-01	0	33	0	168820736	63	4336
2026-01-16 14:21:30.60	254.79	8.91	-46.0	-47.5	23.3	6.07e-01	0	33	0	170393600	63	4336
2026-01-16 14:21:31.61	254.97	8.95	-46.1	-47.7	23.2	6.07e-01	0	33	0	172490752	63	4404
2026-01-16 14:21:32.62	255.14	8.99	-46.1	-47.6	23.3	6.04e-01	0	33	0	174587904	63	4371
2026-01-16 14:21:33.62	255.31	9.04	-45.9	-47.4	23.4	6.07e-01	0	33	0	176160768	63	4276
2026-01-16 14:21:34.63	255.49	9.08	-45.9	-47.4	23.5	6.08e-01	0	33	0	178257920	63	4270
2026-01-16 14:21:35.64	255.67	9.12	-45.9	-47.4	23.4	6.08e-01	0	33	0	180355072	63	4275
2026-01-16 14:21:36.65	255.84	9.17	-46.2	-47.7	23.2	6.07e-01	0	33	0	181927936	63	4402
2026-01-16 14:21:37.66	256.02	9.21	-46.1	-47.6	23.2	6.06e-01	0	33	0	184025088	63	4385
2026-01-16 14:21:38.66	256.20	9.25	-46.0	-47.5	23.4	6.05e-01	0	33	0	185597952	63	4293
2026-01-16 14:21:39.67	256.38	9.30	-45.9	-47.4	23.5	6.06e-01	0	33	0	187695104	63	4267
2026-01-16 14:21:40.68	256.56	9.34	-46.0	-47.4	23.4	6.05e-01	0	33	0	189792256	63	4288
2026-01-16 14:21:41.69	256.74	9.38	-46.0	-47.4	23.5	6.05e-01	0	33	0	191365120	63	4291
2026-01-16 14:21:42.70	256.92	9.42	-46.0	-47.5	23.4	6.04e-01	0	33	0	193462272	63	4325
2026-01-16 14:21:43.71	257.10	9.46	-46.0	-47.5	23.4	6.05e-01	0	33	0	195559424	63	4302
2026-01-16 14:21:44.71	257.28	9.51	-46.0	-47.5	23.4	6.05e-01	0	33	0	197132288	63	4325
2026-01-16 14:21:45.72	257.46	9.55	-46.1	-47.7	23.2	6.06e-01	0	33	0	199229440	63	4403
2026-01-16 14:21:46.73	257.64	9.59	-45.9	-47.4	23.5	6.06e-01	0	33	0	200802304	63	4251
2026-01-16 14:21:47.74	257.83	9.63	-45.7	-47.1	23.7	6.06e-01	0	33	0	202899456	63	4142
2026-01-16 14:21:48.75	258.01	9.67	-45.8	-47.2	23.7	6.07e-01	0	33	0	204472320	63	4183
2026-01-16 14:21:49.76	258.20	9.71	-45.8	-47.2	23.6	6.07e-01	0	33	0	206569472	63	4190
2026-01-16 14:21:50.76	258.38	9.75	-45.7	-47.2	23.5	6.06e-01	0	33	0	208666624	63	4173
2026-01-16 14:21:51.77	258.56	9.80	-45.8	-47.2	23.5	6.05e-01	0	33	0	210239488	63	4182
2026-01-16 14:21:52.78	258.75	9.84	-45.7	-47.2	23.0	6.08e-01	0	33	0	212336640	63	4165
2026-01-16 14:21:53.79	258.94	9.88	-45.7	-47.3	22.1	6.09e-01	0	33	0	213909504	63	4194
2026-01-16 14:21:54.80	259.12	9.92	-45.7	-47.3	22.1	6.07e-01	0	33	0	216006656	63	4227
2026-01-16 14:21:55.80	259.31	9.96	-45.9	-47.4	22.8	6.06e-01	0	33	0	218103808	63	4255
2026-01-16 14:21:56.81	259.50	10.00	-45.8	-47.3	23.4	6.04e-01	0	33	0	219676672	63	4199
2026-01-16 14:21:57.82	259.69	10.04	-45.8	-47.3	23.6	6.08e-01	0	33	0	221773824	63	4209
2026-01-16 14:21:58.83	259.88	10.08	-45.9	-47.3	23.6	6.06e-01	0	33	0	223870976	63	4229
2026-01-16 14:21:59.83	260.06	10.11	-45.8	-47.3	23.7	6.08e-01	0	33	0	225443840	63	4208
2026-01-16 14:22:00.84	260.25	10.15	-45.8	-47.3	23.6	6.05e-01	0	33	0	227540992	63	4216
2026-01-16 14:22:01.85	260.44	10.19	-45.7	-47.2	23.8	6.08e-01	0	33	0	229113856	63	4152
2026-01-16 14:22:02.86	260.64	10.23	-45.7	-47.2	23.8	6.06e-01	0	33	0	231211008	63	4147
2026-01-16 14:22:03.87	260.83	10.27	-45.7	-47.1	23.8	6.06e-01	0	33	0	233308160	63	4120
2026-01-16 14:22:04.88	261.02	10.31	-45.8	-47.2	23.7	6.07e-01	0	33	0	234881024	63	4172
2026-01-16 14:22:05.88	261.21	10.35	-45.8	-47.3	23.6	6.07e-01	0	33	0	236978176	63	4221
2026-01-16 14:22:06.89	261.40	10.38	-45.8	-47.2	23.7	6.06e-01	0	33	0	238551040	63	4193
2026-01-16 14:22:07.90	261.60	10.42	-45.7	-47.1	23.8	6.06e-01	0	33	0	240648192	63	4133
2026-01-16 14:22:08.91	261.79	10.46	-45.6	-47.0	23.9	6.06e-01	0	33	0	242745344	63	4079
2026-01-16 14:22:09.92	261.99	10.50	-45.7	-47.2	23.8	6.06e-01	0	33	0	244318208	63	4153
2026-01-16 14:22:10.93	262.18	10.53	-45.7	-47.2	23.8	6.06e-01	0	33	0	246415360	63	4156
2026-01-16 14:22:11.94	262.38	10.57	-45.7	-47.1	23.8	6.06e-01	0	33	0	247988224	63	4127
2026-01-16 14:22:12.94	262.57	10.61	-45.5	-46.9	24.0	6.07e-01	0	33	0	250085376	63	4048
2026-01-16 14:22:13.95	262.77	10.64	-45.5	-46.9	24.0	6.05e-01	0	33	0	252182528	63	4039
2026-01-16 14:22:14.96	262.97	10.68	-45.6	-47.0	24.0	6.06e-01	0	33	0	253755392	63	4072
2026-01-16 14:22:15.97	263.17	10.72	-45.7	-47.1	23.8	6.07e-01	0	33	0	255852544	63	4136
2026-01-16 14:22:16.98	263.36	10.75	-45.7	-47.1	23.8	6.03e-01	0	33	0	257425408	63	4121
2026-01-16 14:22:17.98	263.56	10.79	-45.5	-46.9	24.1	6.05e-01	0	33	0	259522560	63	4009
2026-01-16 14:22:18.99	263.76	10.82	-45.5	-46.8	24.1	6.07e-01	0	33	0	261619712	62	4242
2026-01-16 14:22:20.00	263.96	10.86	-45.5	-46.9	24.0	6.06e-01	0	33	0	263192576	62	4273
2026-01-16 14:22:21.01	264.16	10.89	-45.6	-47.0	23.9	6.05e-01	0	33	0	265289728	62	4325
2026-01-16 14:22:22.01	264.36	10.93	-45.6	-47.0	24.0	6.05e-01	0	33	0	267386880	62	4293
2026-01-16 14:22:23.02	264.56	10.96	-45.6	-47.0	23.9	6.07e-01	0	33	0	268959744	62	4340
2026-01-16 14:22:24.03	264.76	10.99	-45.5	-46.9	24.0	6.09e-01	0	33	0	271056896	62	4262
2026-01-16 14:22:25.04	264.97	11.03	-45.4	-46.8	24.1	6.07e-01	0	33	0	272629760	62	4227
2026-01-16 14:22:26.05	265.17	11.06	-45.5	-46.9	24.0	6.07e-01	0	33	0	274726912	62	4291
2026-01-16 14:22:27.06	265.37	11.09	-45.5	-46.9	24.1	6.07e-01	0	33	0	276299776	62	4251
2026-01-16 14:22:28.07	265.58	11.13	-45.4	-46.8	24.1	6.05e-01	0	33	0	278396928	62	4230
2026-01-16 14:22:29.08	265.78	11.16	-45.3	-46.7	24.3	6.06e-01	0	33	0	280494080	62	4147
2026-01-16 14:22:30.09	265.99	11.19	-45.4	-46.7	24.2	6.06e-01	0	33	0	282066944	62	4187
2026-01-16 14:22:31.10	266.19	11.23	-45.4	-46.8	24.1	6.05e-01	0	33	0	284164096	62	4212
2026-01-16 14:22:32.10	266.40	11.26	-45.4	-46.8	24.1	6.06e-01	0	33	0	285736960	62	4235
2026-01-16 14:22:33.11	266.60	11.29	-45.4	-46.8	24.2	6.06e-01	0	33	0	287834112	62	4206
2026-01-16 14:22:34.12	266.81	11.32	-45.4	-46.8	24.2	6.06e-01	0	33	0	289931264	62	4215
2026-01-16 14:22:35.13	267.02	11.35	-45.4	-46.7	24.2	6.08e-01	0	33	0	291504128	62	4185
2026-01-16 14:22:36.14	267.22	11.38	-45.4	-46.8	24.1	6.06e-01	0	33	0	293601280	62	4233
2026-01-16 14:22:37.15	267.43	11.41	-45.5	-46.9	24.0	6.05e-01	0	33	0	295698432	62	4283
2026-01-16 14:22:38.16	267.64	11.44	-45.5	-46.9	24.0	6.05e-01	0	33	0	297271296	62	4270
2026-01-16 14:22:39.16	267.85	11.47	-45.5	-46.9	24.1	6.05e-01	0	33	0	299368448	62	4264
2026-01-16 14:22:40.17	268.06	11.50	-45.5	-46.9	24.0	6.07e-01	0	33	0	300941312	62	4273
2026-01-16 14:22:41.18	268.27	11.53	-45.5	-46.9	24.1	6.07e-01	0	33	0	303038464	62	4265
2026-01-16 14:22:42.19	268.48	11.56	-45.4	-46.8	24.1	6.03e-01	0	33	0	304611328	62	4219
2026-01-16 14:22:43.20	268.69	11.59	-45.4	-46.8	24.1	6.06e-01	0	33	0	306708480	62	4222
2026-01-16 14:22:44.21	268.90	11.62	-45.4	-46.8	24.2	6.05e-01	0	33	0	308805632	62	4204
2026-01-16 14:22:45.22	269.11	11.65	-45.5	-46.9	24.1	6.07e-01	0	33	0	310902784	62	4245
2026-01-16 14:22:46.22	269.32	11.68	-45.4	-46.7	24.2	6.06e-01	0	33	0	312475648	62	4192
2026-01-16 14:22:47.23	269.53	11.70	-45.3	-46.6	24.3	6.05e-01	0	33	0	314572800	62	4125
2026-01-16 14:22:48.24	269.75	11.73	-45.3	-46.7	24.2	6.05e-01	0	33	0	316145664	62	4165
2026-01-16 14:22:49.25	269.96	11.76	-45.4	-46.7	24.2	6.06e-01	0	33	0	318242816	62	4183
2026-01-16 14:22:50.26	270.17	11.79	-45.3	-46.7	24.2	6.09e-01	0	33	0	319815680	62	4177
2026-01-16 14:22:51.27	270.39	11.81	-45.3	-46.7	24.2	6.07e-01	0	33	0	321912832	62	4174
2026-01-16 14:22:52.27	270.60	11.84	-45.4	-46.7	24.2	6.09e-01	0	33	0	324009984	62	4187
2026-01-16 14:22:53.28	270.82	11.86	-45.3	-46.7	24.2	6.07e-01	0	33	0	325582848	62	4172
2026-01-16 14:22:54.29	271.03	11.89	-45.4	-46.8	24.2	6.05e-01	0	33	0	327680000	62	4218
2026-01-16 14:22:55.30	271.25	11.91	-45.4	-46.8	24.1	6.07e-01	0	33	0	329252864	62	4227
2026-01-16 14:22:56.31	271.46	11.94	-45.4	-46.8	24.2	6.06e-01	0	33	0	331350016	62	4224
2026-01-16 14:22:57.32	271.68	11.96	-45.4	-46.8	24.2	6.06e-01	0	33	0	333447168	62	4198
2026-01-16 14:22:58.32	271.89	11.99	-45.4	-46.8	24.2	6.07e-01	0	33	0	335020032	62	4196
2026-01-16 14:22:59.33	272.11	12.01	-45.3	-46.6	24.3	6.07e-01	0	33	0	337117184	62	4145
2026-01-16 14:23:00.34	272.33	12.04	-45.3	-46.7	24.3	6.07e-01	0	33	0	339214336	62	4164
2026-01-16 14:23:01.35	272.55	12.06	-45.3	-46.7	24.1	6.07e-01	0	33	0	340787200	62	4155
2026-01-16 14:23:02.36	272.76	12.08	-45.4	-46.8	22.3	6.08e-01	0	33	0	342884352	62	4217
2026-01-16 14:23:03.37	272.98	12.11	-45.5	-46.9	24.1	6.08e-01	0	33	0	344457216	62	4248
2026-01-16 14:23:04.37	273.20	12.13	-45.6	-47.0	24.0	6.05e-01	0	33	0	346554368	62	4310
2026-01-16 14:23:05.38	273.42	12.15	-45.4	-46.8	24.1	6.05e-01	0	33	0	348127232	62	4220
2026-01-16 14:23:06.39	273.64	12.17	-45.3	-46.6	24.4	6.05e-01	0	33	0	350224384	62	4135
2026-01-16 14:23:07.40	273.86	12.19	-45.3	-46.6	24.3	6.05e-01	0	33	0	352321536	62	4141
2026-01-16 14:23:08.41	274.08	12.21	-45.2	-46.6	24.4	6.08e-01	0	33	0	354418688	62	4114
2026-01-16 14:23:09.42	274.30	12.23	-45.4	-46.7	24.2	6.08e-01	0	33	0	355991552	62	4192
2026-01-16 14:23:10.42	274.52	12.25	-45.4	-46.8	24.2	6.07e-01	0	33	0	358088704	62	4200
2026-01-16 14:23:11.43	274.74	12.27	-45.2	-46.6	24.4	6.07e-01	0	33	0	359661568	62	4117
2026-01-16 14:23:12.44	274.96	12.29	-45.2	-46.5	24.5	6.04e-01	0	33	0	361758720	62	4087
2026-01-16 14:23:13.45	275.18	12.31	-45.3	-46.6	24.4	6.05e-01	0	33	0	363331584	62	4137
2026-01-16 14:23:14.46	275.41	12.33	-45.4	-46.8	24.2	6.06e-01	0	33	0	365428736	62	4218
2026-01-16 14:23:15.47	275.63	12.35	-45.3	-46.6	24.4	6.05e-01	0	33	0	367525888	62	4132
2026-01-16 14:23:16.47	275.85	12.37	-45.2	-46.6	24.5	6.05e-01	0	33	0	369098752	62	4106
2026-01-16 14:23:17.48	276.07	12.39	-45.3	-46.6	24.4	6.08e-01	0	33	0	371195904	62	4139
2026-01-16 14:23:18.49	276.30	12.40	-45.2	-46.6	24.5	6.07e-01	0	33	0	372768768	62	4101
2026-01-16 14:23:19.50	276.52	12.42	-45.3	-46.6	24.3	6.07e-01	0	33	0	374865920	62	4140
2026-01-16 14:23:20.51	276.74	12.44	-45.4	-46.7	24.3	6.07e-01	0	33	0	376963072	62	4193
2026-01-16 14:23:21.52	276.97	12.45	-45.4	-46.7	24.3	6.07e-01	0	33	0	378535936	62	4186
2026-01-16 14:23:22.52	277.19	12.47	-45.3	-46.6	24.4	6.05e-01	0	33	0	380633088	62	4127
2026-01-16 14:23:23.53	277.41	12.49	-45.2	-46.6	24.4	6.06e-01	0	33	0	382730240	62	4115
2026-01-16 14:23:24.54	277.64	12.50	-45.3	-46.7	24.4	6.06e-01	0	33	0	384303104	62	4171
2026-01-16 14:23:25.55	277.86	12.52	-45.4	-46.8	24.2	6.06e-01	0	33	0	386400256	62	4225
2026-01-16 14:23:26.55	278.09	12.53	-45.5	-46.9	24.1	6.06e-01	0	33	0	387973120	62	4248
2026-01-16 14:23:27.56	278.31	12.55	-45.4	-46.7	24.3	6.05e-01	0	33	0	390070272	62	4174
2026-01-16 14:23:28.57	278.54	12.56	-45.4	-46.7	24.4	6.06e-01	0	33	0	391643136	62	4180
2026-01-16 14:23:29.58	278.76	12.57	-45.4	-46.7	24.4	6.07e-01	0	33	0	393740288	62	4173
2026-01-16 14:23:30.59	278.99	12.59	-45.3	-46.6	24.4	6.06e-01	0	33	0	395837440	62	4133
2026-01-16 14:23:31.60	279.22	12.60	-45.4	-46.8	24.3	6.07e-01	0	34	0	397410304	62	4196
2026-01-16 14:23:32.61	279.44	12.61	-45.3	-46.7	24.4	6.06e-01	0	33	0	399507456	62	4164
2026-01-16 14:23:33.62	279.67	12.62	-45.4	-46.8	24.3	6.05e-01	0	33	0	401604608	62	4204
2026-01-16 14:23:34.62	279.89	12.63	-45.3	-46.7	24.4	6.05e-01	0	33	0	403177472	62	4164
2026-01-16 14:23:35.63	280.12	12.65	-45.3	-46.6	24.5	6.07e-01	0	33	0	405274624	62	4121
2026-01-16 14:23:36.64	280.35	12.66	-45.4	-46.7	24.4	6.06e-01	0	33	0	406847488	62	4181
2026-01-16 14:23:37.65	280.58	12.67	-45.3	-46.7	24.4	6.05e-01	0	33	0	408944640	62	4154
2026-01-16 14:23:38.66	280.80	12.68	-45.3	-46.7	24.4	6.05e-01	0	33	0	411041792	62	4162
2026-01-16 14:23:39.66	281.03	12.69	-45.4	-46.8	24.3	6.06e-01	0	33	0	412614656	62	4197
2026-01-16 14:23:40.67	281.26	12.70	-45.3	-46.6	24.5	6.05e-01	0	33	0	414711808	62	4115
2026-01-16 14:23:41.68	281.49	12.70	-45.3	-46.7	24.4	6.06e-01	0	33	0	416284672	62	4168
2026-01-16 14:23:42.69	281.71	12.71	-45.3	-46.6	24.4	6.05e-01	0	33	0	418381824	62	4145
2026-01-16 14:23:43.70	281.94	12.72	-45.4	-46.7	24.4	6.06e-01	0	33	0	419954688	62	4180
2026-01-16 14:23:44.71	282.17	12.73	-45.4	-46.7	24.4	6.06e-01	0	33	0	422051840	62	4187
2026-01-16 14:23:45.72	282.40	12.74	-45.4	-46.7	24.4	6.08e-01	0	33	0	424148992	62	4185
2026-01-16 14:23:46.73	282.63	12.74	-45.4	-46.8	24.4	6.06e-01	0	33	0	426246144	62	4207
2026-01-16 14:23:47.74	282.86	12.75	-45.5	-46.8	24.3	6.04e-01	0	33	0	427819008	62	4233
2026-01-16 14:23:48.74	283.08	12.76	-45.5	-46.8	24.3	6.05e-01	0	33	0	429916160	62	4240
2026-01-16 14:23:49.75	283.31	12.76	-45.5	-46.8	24.3	6.07e-01	0	33	0	431489024	62	4225
2026-01-16 14:23:50.76	283.54	12.77	-45.4	-46.8	24.4	6.08e-01	0	33	0	433586176	62	4206
2026-01-16 14:23:51.77	283.77	12.77	-45.6	-47.0	24.2	6.07e-01	0	33	0	435159040	62	4310
2026-01-16 14:23:52.78	284.00	12.78	-45.7	-47.1	24.2	6.06e-01	0	33	0	437256192	62	4353
2026-01-16 14:23:53.79	284.23	12.78	-45.6	-47.0	24.2	6.05e-01	0	33	0	439353344	62	4300
2026-01-16 14:23:54.80	284.46	12.78	-45.5	-46.9	24.3	6.05e-01	0	33	0	440926208	62	4269
2026-01-16 14:23:55.81	284.69	12.79	-45.6	-46.9	24.2	6.07e-01	0	33	0	443023360	62	4287
2026-01-16 14:23:56.81	284.92	12.79	-45.4	-46.8	24.4	6.06e-01	0	33	0	445120512	62	4214
2026-01-16 14:23:57.82	285.15	12.79	-45.5	-46.9	24.3	6.05e-01	0	33	0	446693376	62	4256
2026-01-16 14:23:58.83	285.37	12.80	-45.6	-46.9	24.3	6.05e-01	0	33	0	448790528	62	4279
2026-01-16 14:23:59.84	285.60	12.80	-45.5	-46.9	24.3	6.06e-01	0	33	0	450363392	62	4256
2026-01-16 14:24:00.85	285.83	12.80	-45.5	-46.8	24.4	6.06e-01	0	33	0	452460544	62	4231
2026-01-16 14:24:01.85	286.06	12.80	-45.5	-46.8	24.4	6.07e-01	0	33	0	454557696	62	4230
2026-01-16 14:24:02.86	286.29	12.80	-45.6	-46.9	24.3	6.07e-01	0	33	0	456130560	62	4278
2026-01-16 14:24:03.87	286.52	12.80	-45.6	-47.0	24.2	6.01e-01	0	33	0	458227712	62	4317
2026-01-16 14:24:04.88	286.75	12.80	-45.6	-46.9	24.3	6.04e-01	0	33	0	459800576	62	4282
2026-01-16 14:24:05.89	286.98	12.80	-45.5	-46.8	24.5	6.03e-01	0	33	0	461897728	62	4213
2026-01-16 14:24:06.90	287.21	12.80	-45.3	-46.6	24.6	6.05e-01	0	33	0	463470592	62	4144
2026-01-16 14:24:07.91	287.44	12.80	-45.4	-46.8	24.5	6.05e-01	0	33	0	465567744	62	4207
2026-01-16 14:24:08.92	287.67	12.80	-45.6	-47.0	24.3	6.02e-01	0	33	0	467664896	62	4313
2026-01-16 14:24:09.93	287.90	12.79	-45.7	-47.1	24.2	6.02e-01	0	33	0	469237760	62	4346
2026-01-16 14:24:10.93	288.13	12.79	-45.7	-47.1	24.1	6.03e-01	0	33	0	471334912	62	4378
2026-01-16 14:24:11.94	288.35	12.79	-45.7	-47.0	24.2	6.05e-01	0	33	0	473432064	62	4338
2026-01-16 14:24:12.95	288.58	12.78	-45.5	-46.9	24.4	6.01e-01	0	33	0	475004928	62	4248
2026-01-16 14:24:13.96	288.81	12.78	-45.5	-46.9	24.4	6.02e-01	0	33	0	477102080	62	4252
2026-01-16 14:24:14.97	289.04	12.78	-45.6	-47.0	24.3	6.03e-01	0	33	0	478674944	62	4318
2026-01-16 14:24:15.97	289.27	12.77	-45.5	-46.9	24.4	6.06e-01	0	33	0	480772096	62	4266
2026-01-16 14:24:16.98	289.50	12.77	-45.6	-47.0	24.3	6.04e-01	0	33	0	482869248	62	4307
2026-01-16 14:24:17.99	289.73	12.76	-45.6	-47.0	24.3	6.03e-01	0	33	0	484442112	62	4306
2026-01-16 14:24:19.00	289.96	12.76	-45.7	-47.0	24.3	5.99e-01	0	33	0	486539264	62	4331
2026-01-16 14:24:20.01	290.18	12.75	-45.8	-47.1	24.1	6.03e-01	0	33	0	488112128	62	4383
2026-01-16 14:24:21.01	290.41	12.74	-45.7	-47.0	24.2	6.04e-01	0	33	0	490209280	62	4338
2026-01-16 14:24:22.02	290.64	12.74	-45.6	-47.0	24.3	6.03e-01	0	33	0	492306432	62	4305
2026-01-16 14:24:23.03	290.87	12.73	-45.6	-47.0	24.3	6.04e-01	0	33	0	493879296	62	4310
2026-01-16 14:24:24.04	291.10	12.72	-45.7	-47.0	24.3	6.04e-01	0	33	0	495976448	62	4331
2026-01-16 14:24:25.05	291.32	12.71	-45.6	-46.9	24.4	6.03e-01	0	33	0	497549312	62	4265
2026-01-16 14:24:26.06	291.55	12.70	-45.6	-46.9	24.4	6.02e-01	0	33	0	499646464	62	4267
2026-01-16 14:24:27.06	291.78	12.70	-45.7	-47.0	24.3	6.03e-01	0	33	0	501743616	62	4325
2026-01-16 14:24:28.07	292.01	12.69	-45.7	-47.1	24.2	6.01e-01	0	33	0	503316480	62	4378
2026-01-16 14:24:29.08	292.23	12.68	-45.9	-47.2	24.1	6.05e-01	0	33	0	505413632	62	4439
2026-01-16 14:24:30.09	292.46	12.67	-45.6	-47.0	24.3	6.04e-01	0	33	0	506986496	62	4317
2026-01-16 14:24:31.10	292.69	12.66	-45.7	-47.1	24.2	6.03e-01	0	33	0	509083648	62	4351
2026-01-16 14:24:32.10	292.91	12.65	-45.6	-47.0	24.3	6.07e-01	0	33	0	511180800	62	4318
2026-01-16 14:24:33.11	293.14	12.63	-45.7	-47.1	24.2	6.05e-01	0	33	0	512753664	62	4365
2026-01-16 14:24:34.12	293.37	12.62	-45.6	-46.9	24.4	6.01e-01	0	33	0	514850816	62	4278
2026-01-16 14:24:35.13	293.59	12.61	-45.7	-47.0	24.3	6.03e-01	0	33	0	516947968	62	4330
2026-01-16 14:24:36.13	293.82	12.60	-45.7	-47.1	24.2	6.01e-01	0	33	0	518520832	62	4357
2026-01-16 14:24:37.14	294.04	12.59	-45.8	-47.1	24.2	6.04e-01	0	33	0	520617984	62	4388
2026-01-16 14:24:38.15	294.27	12.57	-45.7	-47.0	24.3	6.03e-01	0	33	0	522190848	62	4335
2026-01-16 14:24:39.16	294.50	12.56	-45.6	-47.0	24.3	6.02e-01	0	33	0	524288000	62	4320
2026-01-16 14:24:40.17	294.72	12.55	-45.7	-47.1	24.2	6.04e-01	0	33	0	525860864	62	4363
2026-01-16 14:24:41.17	294.94	12.53	-45.6	-47.0	24.3	6.05e-01	0	33	0	527958016	62	4309
2026-01-16 14:24:42.18	295.17	12.52	-45.7	-47.1	24.3	6.02e-01	0	33	0	530055168	62	4341
2026-01-16 14:24:43.19	295.39	12.50	-45.7	-47.1	24.2	6.04e-01	0	33	0	531628032	62	4356
2026-01-16 14:24:44.20	295.62	12.49	-45.8	-47.2	24.2	6.01e-01	0	33	0	533725184	62	4404
2026-01-16 14:24:45.21	295.84	12.47	-46.0	-47.4	24.0	6.05e-01	0	33	0	535822336	62	4510
2026-01-16 14:24:46.21	296.06	12.46	-45.8	-47.1	24.2	6.02e-01	0	33	0	537395200	62	4386
2026-01-16 14:24:47.22	296.29	12.44	-45.7	-47.1	24.3	6.01e-01	0	33	0	539492352	62	4368
2026-01-16 14:24:48.23	296.51	12.42	-45.8	-47.1	24.3	6.04e-01	0	33	0	541065216	62	4379
2026-01-16 14:24:49.24	296.73	12.41	-45.7	-47.1	24.3	6.03e-01	0	33	0	543162368	62	4361
2026-01-16 14:24:50.25	296.96	12.39	-45.7	-47.1	24.3	6.03e-01	0	33	0	545259520	62	4377
2026-01-16 14:24:51.25	297.18	12.37	-45.8	-47.2	24.1	6.04e-01	0	33	0	546832384	62	4419
2026-01-16 14:24:52.26	297.40	12.35	-45.8	-47.2	24.1	6.03e-01	0	33	0	548929536	62	4422
2026-01-16 14:24:53.27	297.62	12.33	-45.7	-47.1	24.2	6.02e-01	0	33	0	550502400	62	4368
2026-01-16 14:24:54.28	297.84	12.32	-45.7	-47.1	24.3	6.02e-01	0	33	0	552599552	62	4344
2026-01-16 14:24:55.29	298.07	12.30	-45.5	-46.8	24.5	6.03e-01	0	33	0	554172416	62	4233
2026-01-16 14:24:56.30	298.29	12.28	-45.5	-46.8	24.4	6.03e-01	0	33	0	556269568	62	4223
2026-01-16 14:24:57.31	298.51	12.26	-45.8	-47.1	24.2	6.04e-01	0	33	0	558366720	62	4379
2026-01-16 14:24:58.32	298.73	12.24	-45.8	-47.2	24.2	6.01e-01	0	33	0	560463872	62	4405
2026-01-16 14:24:59.32	298.95	12.22	-45.7	-47.1	24.3	6.01e-01	0	33	0	562036736	62	4356
2026-01-16 14:25:00.33	299.17	12.19	-45.9	-47.3	24.1	6.03e-01	0	33	0	564133888	62	4461
2026-01-16 14:25:01.34	299.39	12.17	-45.8	-47.2	24.2	6.03e-01	0	33	0	565706752	62	4418
2026-01-16 14:25:02.35	299.60	12.15	-45.7	-47.1	24.1	6.03e-01	0	33	0	567803904	62	4365
2026-01-16 14:25:03.36	299.82	12.13	-45.9	-47.2	24.1	6.02e-01	0	33	0	569376768	62	4438
2026-01-16 14:25:04.36	300.04	12.11	-45.8	-47.2	24.2	6.04e-01	0	33	0	571473920	62	4408
2026-01-16 14:25:05.37	300.26	12.09	-45.9	-47.2	24.0	6.04e-01	0	33	0	573571072	62	4440
2026-01-16 14:25:06.38	300.48	12.06	-45.6	-47.0	24.3	6.03e-01	0	33	0	575143936	62	4316
2026-01-16 14:25:07.39	300.69	12.04	-45.6	-46.9	24.4	6.02e-01	0	33	0	577241088	62	4286
2026-01-16 14:25:08.39	300.91	12.02	-45.7	-47.0	24.3	6.04e-01	0	33	0	578813952	62	4333
2026-01-16 14:25:09.40	301.12	11.99	-45.6	-47.0	24.2	6.03e-01	0	33	0	580911104	62	4306
2026-01-16 14:25:10.41	301.34	11.97	-45.8	-47.1	24.2	6.04e-01	0	33	0	583008256	62	4381
2026-01-16 14:25:11.42	301.56	11.94	-45.9	-47.3	24.0	6.04e-01	0	33	0	584581120	62	4482
2026-01-16 14:25:12.43	301.77	11.92	-45.9	-47.2	24.1	6.06e-01	0	33	0	586678272	62	4437
2026-01-16 14:25:13.44	301.99	11.89	-45.7	-47.0	24.3	6.03e-01	0	33	0	588775424	62	4337
2026-01-16 14:25:14.44	302.20	11.87	-45.5	-46.8	24.4	6.03e-01	0	33	0	590348288	62	4231
2026-01-16 14:25:15.45	302.41	11.84	-45.5	-46.9	24.4	6.03e-01	0	33	0	592445440	62	4260
2026-01-16 14:25:16.45	302.63	11.82	-45.8	-47.2	24.2	6.02e-01	0	33	0	594018304	62	4402
2026-01-16 14:25:17.46	302.84	11.79	-45.8	-47.2	24.1	6.01e-01	0	33	0	596115456	62	4399
2026-01-16 14:25:18.47	303.05	11.76	-45.8	-47.2	24.1	6.01e-01	0	33	0	597688320	62	4418
2026-01-16 14:25:19.48	303.27	11.74	-45.7	-47.1	24.2	6.03e-01	0	33	0	599785472	62	4348
2026-01-16 14:25:20.49	303.48	11.71	-45.7	-47.0	24.2	6.04e-01	0	33	0	601882624	62	4338
2026-01-16 14:25:21.49	303.69	11.68	-45.7	-47.1	24.1	6.01e-01	0	33	0	603455488	62	4351
2026-01-16 14:25:22.50	303.90	11.65	-45.8	-47.2	24.1	6.03e-01	0	33	0	605552640	62	4401
2026-01-16 14:25:23.51	304.11	11.62	-45.8	-47.2	24.1	6.03e-01	0	33	0	607649792	62	4398
2026-01-16 14:25:24.52	304.32	11.60	-45.9	-47.3	24.0	6.04e-01	0	33	0	609222656	62	4492
2026-01-16 14:25:25.53	304.53	11.57	-45.7	-47.1	24.1	6.03e-01	0	33	0	611319808	62	4363
2026-01-16 14:25:26.53	304.74	11.54	-45.7	-47.1	24.2	6.03e-01	0	33	0	612892672	62	4360
2026-01-16 14:25:27.54	304.95	11.51	-45.9	-47.3	24.0	6.01e-01	0	33	0	614989824	62	4444
2026-01-16 14:25:28.55	305.16	11.48	-45.9	-47.4	23.9	6.05e-01	0	33	0	617086976	62	4494
2026-01-16 14:25:29.56	305.37	11.45	-46.0	-47.4	23.8	6.06e-01	0	33	0	618659840	62	4519
2026-01-16 14:25:30.57	305.57	11.42	-45.9	-47.3	23.8	6.04e-01	0	33	0	620756992	62	4491
2026-01-16 14:25:31.57	305.78	11.39	-45.8	-47.2	24.0	6.01e-01	0	33	0	622329856	62	4414
2026-01-16 14:25:32.58	305.99	11.36	-45.7	-47.0	24.2	6.01e-01	0	33	0	624427008	62	4340
2026-01-16 14:25:33.59	306.19	11.33	-45.8	-47.2	24.0	6.04e-01	0	33	0	625999872	62	4437
2026-01-16 14:25:34.60	306.40	11.30	-45.8	-47.2	24.0	6.01e-01	0	33	0	628097024	62	4397
2026-01-16 14:25:35.61	306.60	11.26	-45.7	-47.1	24.2	6.04e-01	0	33	0	630194176	62	4344
2026-01-16 14:25:36.61	306.81	11.23	-45.7	-47.1	24.1	6.06e-01	0	33	0	632291328	62	4364
2026-01-16 14:25:37.62	307.01	11.20	-45.7	-47.1	24.1	6.03e-01	0	33	0	633864192	62	4364
2026-01-16 14:25:38.63	307.22	11.17	-45.7	-47.0	24.1	6.01e-01	0	33	0	635961344	62	4335
2026-01-16 14:25:39.64	307.42	11.14	-45.7	-47.1	24.2	6.03e-01	0	33	0	637534208	62	4343
2026-01-16 14:25:40.65	307.62	11.10	-45.7	-47.0	24.1	6.05e-01	0	33	0	639631360	62	4334
2026-01-16 14:25:41.66	307.83	11.07	-45.8	-47.2	24.0	6.04e-01	0	33	0	641204224	62	4392
2026-01-16 14:25:42.67	308.03	11.04	-45.8	-47.2	24.1	6.03e-01	0	33	0	643301376	62	4393
2026-01-16 14:25:43.67	308.23	11.00	-45.8	-47.3	24.0	6.01e-01	0	33	0	645398528	62	4449
2026-01-16 14:25:44.69	308.43	10.97	-45.9	-47.3	24.0	6.04e-01	0	33	0	646971392	62	4463
2026-01-16 14:25:45.69	308.63	10.94	-45.9	-47.3	24.0	6.05e-01	0	33	0	649068544	62	4451
2026-01-16 14:25:46.70	308.83	10.90	-45.7	-47.1	24.1	6.02e-01	0	33	0	650641408	62	4387
2026-01-16 14:25:47.71	309.03	10.87	-45.7	-47.1	24.0	6.00e-01	0	33	0	652738560	62	4364
2026-01-16 14:25:48.72	309.23	10.83	-45.6	-47.0	24.1	6.01e-01	0	33	0	654835712	62	4315
2026-01-16 14:25:49.73	309.43	10.80	-45.7	-47.1	24.1	6.04e-01	0	33	0	656408576	62	4350
2026-01-16 14:25:50.74	309.63	10.76	-45.7	-47.1	24.1	6.03e-01	0	33	0	658505728	62	4351
2026-01-16 14:25:51.74	309.82	10.73	-45.8	-47.2	24.0	6.02e-01	0	33	0	660602880	62	4398
2026-01-16 14:25:52.75	310.02	10.69	-45.7	-47.1	24.0	6.04e-01	0	33	0	662175744	62	4373
2026-01-16 14:25:53.76	310.22	10.65	-45.7	-47.1	24.0	6.05e-01	0	33	0	664272896	62	4386
2026-01-16 14:25:54.77	310.42	10.62	-45.7	-47.1	24.0	6.03e-01	0	33	0	665845760	62	4360
2026-01-16 14:25:55.77	310.61	10.58	-45.8	-47.2	23.8	6.00e-01	0	33	0	667942912	62	4438
2026-01-16 14:25:56.78	310.80	10.55	-45.8	-47.2	24.0	6.00e-01	0	33	0	669515776	62	4424
2026-01-16 14:25:57.79	311.00	10.51	-45.7	-47.1	24.0	6.02e-01	0	33	0	671612928	62	4347
2026-01-16 14:25:58.80	311.19	10.47	-45.7	-47.1	24.0	6.01e-01	0	33	0	673710080	62	4370
2026-01-16 14:25:59.81	311.39	10.43	-45.7	-47.1	24.0	6.04e-01	0	33	0	675807232	62	4358
2026-01-16 14:26:00.82	311.58	10.40	-45.7	-47.1	24.0	6.03e-01	0	33	0	677380096	62	4348
2026-01-16 14:26:01.82	311.77	10.36	-45.8	-47.2	23.9	6.02e-01	0	33	0	679477248	62	4401
2026-01-16 14:26:02.83	311.96	10.32	-45.9	-47.3	23.8	6.06e-01	0	33	0	681050112	62	4455
2026-01-16 14:26:03.84	312.16	10.28	-45.9	-47.3	23.8	6.03e-01	0	33	0	683147264	62	4477
2026-01-16 14:26:04.85	312.35	10.24	-45.9	-47.3	23.8	6.03e-01	0	33	0	684720128	62	4454
2026-01-16 14:26:05.86	312.54	10.21	-45.9	-47.3	23.8	6.05e-01	0	33	0	686817280	62	4466
2026-01-16 14:26:06.87	312.73	10.17	-45.9	-47.3	23.8	6.03e-01	0	33	0	688914432	62	4469
2026-01-16 14:26:07.87	312.91	10.13	-45.9	-47.3	23.8	6.02e-01	0	33	0	690487296	62	4461
2026-01-16 14:26:08.88	313.10	10.09	-45.7	-47.1	23.9	6.02e-01	0	33	0	692584448	62	4362
2026-01-16 14:26:09.89	313.29	10.05	-45.8	-47.2	23.8	6.01e-01	0	33	0	694157312	62	4435
2026-01-16 14:26:10.90	313.48	10.01	-45.7	-47.1	23.9	6.03e-01	0	33	0	696254464	62	4389
2026-01-16 14:26:11.90	313.67	9.97	-45.9	-47.4	23.7	6.02e-01	0	33	0	697827328	62	4513
2026-01-16 14:26:12.91	313.85	9.93	-46.0	-47.4	23.7	6.04e-01	0	33	0	699924480	62	4522
2026-01-16 14:26:13.92	314.04	9.89	-45.9	-47.3	23.7	6.03e-01	0	33	0	702021632	62	4477
2026-01-16 14:26:14.93	314.23	9.85	-45.9	-47.3	23.7	6.02e-01	0	33	0	704118784	62	4478
2026-01-16 14:26:15.94	314.41	9.81	-45.8	-47.3	23.8	6.03e-01	0	33	0	705691648	62	4450
2026-01-16 14:26:16.95	314.60	9.77	-45.9	-47.3	23.7	6.02e-01	0	33	0	707788800	62	4484
2026-01-16 14:26:17.96	314.78	9.73	-45.9	-47.3	23.8	6.04e-01	0	33	0	709361664	62	4468
2026-01-16 14:26:18.97	314.96	9.69	-45.9	-47.3	23.8	6.03e-01	0	33	0	711458816	62	4455
2026-01-16 14:26:19.97	315.14	9.65	-45.9	-47.3	23.7	6.03e-01	0	33	0	713031680	62	4465
2026-01-16 14:26:20.99	315.33	9.61	-46.0	-47.5	23.6	6.07e-01	0	33	0	715128832	62	4546
2026-01-16 14:26:21.99	315.51	9.57	-45.9	-47.4	23.7	6.02e-01	0	33	0	717225984	62	4506
2026-01-16 14:26:23.00	315.69	9.52	-45.9	-47.3	23.7	6.05e-01	0	33	0	718798848	62	4490
2026-01-16 14:26:24.01	315.87	9.48	-45.8	-47.3	23.8	6.00e-01	0	33	0	720896000	62	4447
2026-01-16 14:26:25.02	316.05	9.44	-45.7	-47.1	23.8	6.03e-01	0	33	0	722993152	62	4390
2026-01-16 14:26:26.03	316.23	9.40	-45.7	-47.1	23.9	6.01e-01	0	33	0	724566016	62	4380
2026-01-16 14:26:27.04	316.41	9.36	-45.8	-47.3	23.8	6.04e-01	0	33	0	726663168	62	4449
2026-01-16 14:26:28.04	316.59	9.32	-45.8	-47.2	23.8	6.01e-01	0	33	0	728236032	62	4432
2026-01-16 14:26:29.05	316.77	9.27	-45.9	-47.4	23.6	6.03e-01	0	33	0	730333184	62	4520
2026-01-16 14:26:30.06	316.94	9.23	-45.9	-47.4	23.7	6.03e-01	0	33	0	732430336	62	4503
2026-01-16 14:26:31.06	317.12	9.19	-45.9	-47.3	23.7	6.04e-01	0	33	0	734003200	62	4469
2026-01-16 14:26:32.07	317.30	9.15	-45.8	-47.3	23.7	6.02e-01	0	33	0	736100352	62	4453
2026-01-16 14:26:33.08	317.47	9.10	-45.9	-47.3	23.7	6.03e-01	0	33	0	737673216	62	4475
2026-01-16 14:26:34.09	317.65	9.06	-46.1	-47.6	23.4	6.03e-01	0	33	0	739770368	62	4610
2026-01-16 14:26:35.10	317.82	9.02	-46.2	-47.7	23.3	6.01e-01	0	33	0	741343232	62	4669
2026-01-16 14:26:36.11	318.00	8.97	-46.1	-47.6	23.4	6.02e-01	0	33	0	743440384	62	4617
2026-01-16 14:26:37.12	318.17	8.93	-46.2	-47.7	23.3	6.00e-01	0	33	0	745537536	63	4407
2026-01-16 14:26:38.12	318.34	8.89	-46.2	-47.7	23.3	6.03e-01	0	33	0	747110400	63	4407
2026-01-16 14:26:39.13	318.52	8.84	-46.1	-47.6	23.3	6.03e-01	0	33	0	749207552	63	4380
2026-01-16 14:26:40.14	318.69	8.80	-46.0	-47.5	23.5	6.05e-01	0	33	0	751304704	63	4299
2026-01-16 14:26:41.15	318.86	8.75	-45.9	-47.4	23.6	6.03e-01	0	33	0	752877568	63	4267
2026-01-16 14:26:42.16	319.03	8.71	-46.0	-47.5	23.5	6.04e-01	0	33	0	754974720	63	4312
2026-01-16 14:26:43.16	319.20	8.67	-46.1	-47.6	23.4	6.03e-01	0	33	0	756547584	63	4360
2026-01-16 14:26:44.17	319.37	8.62	-46.2	-47.7	23.3	6.01e-01	0	33	0	758644736	63	4438
2026-01-16 14:26:45.18	319.54	8.58	-46.4	-48.0	23.0	6.03e-01	0	33	0	760741888	63	4549
2026-01-16 14:26:46.19	319.71	8.53	-46.1	-47.6	23.4	6.00e-01	0	33	0	762314752	63	4342
2026-01-16 14:26:47.20	319.88	8.49	-46.2	-47.7	23.3	6.02e-01	0	33	0	764411904	63	4403
2026-01-16 14:26:48.21	320.04	8.44	-46.2	-47.7	23.3	6.04e-01	0	33	0	765984768	63	4401
2026-01-16 14:26:49.22	320.21	8.40	-46.2	-47.8	23.2	6.01e-01	0	33	0	768081920	63	4453
2026-01-16 14:26:50.22	320.38	8.35	-46.2	-47.8	23.2	6.02e-01	0	33	0	770179072	63	4448
2026-01-16 14:26:51.23	320.54	8.31	-46.1	-47.6	23.3	6.04e-01	0	33	0	771751936	63	4379
2026-01-16 14:26:52.24	320.71	8.26	-46.2	-47.7	23.3	6.02e-01	0	33	0	773849088	63	4409
2026-01-16 14:26:53.25	320.87	8.22	-46.1	-47.6	23.4	6.04e-01	0	33	0	775421952	63	4386
2026-01-16 14:26:54.26	321.04	8.17	-46.2	-47.7	23.3	6.04e-01	0	33	0	777519104	63	4408
2026-01-16 14:26:55.26	321.20	8.13	-46.1	-47.6	23.3	6.06e-01	0	33	0	779616256	63	4377
2026-01-16 14:26:56.27	321.36	8.08	-46.1	-47.6	23.3	6.04e-01	0	33	0	781189120	63	4384
2026-01-16 14:26:57.28	321.53	8.04	-46.2	-47.7	23.2	6.03e-01	0	33	0	783286272	63	4433
2026-01-16 14:26:58.28	321.69	7.99	-46.3	-47.8	23.0	6.03e-01	0	33	0	784859136	63	4492
2026-01-16 14:26:59.29	321.85	7.94	-46.3	-47.8	23.2	6.03e-01	0	33	0	786956288	63	4463
2026-01-16 14:27:00.30	322.01	7.90	-46.3	-47.9	23.0	6.05e-01	0	33	0	789053440	63	4496
2026-01-16 14:27:01.31	322.17	7.85	-46.6	-48.2	22.7	6.04e-01	0	33	0	790626304	63	4693
2026-01-16 14:27:02.32	322.33	7.81	-46.3	-47.9	23.0	6.01e-01	0	33	0	792723456	63	4514
2026-01-16 14:27:03.32	322.49	7.76	-46.3	-47.8	23.1	6.06e-01	0	33	0	794820608	63	4472
2026-01-16 14:27:04.33	322.65	7.71	-46.5	-48.1	22.9	6.02e-01	0	33	0	796393472	63	4600
2026-01-16 14:27:05.34	322.81	7.67	-46.5	-48.0	22.9	6.04e-01	0	33	0	798490624	63	4595
2026-01-16 14:27:06.35	322.97	7.62	-46.5	-48.1	22.9	6.04e-01	0	33	0	800063488	63	4599
2026-01-16 14:27:07.36	323.12	7.57	-46.2	-47.7	23.1	6.02e-01	0	33	0	802160640	63	4430
2026-01-16 14:27:08.37	323.28	7.53	-46.3	-47.8	23.1	6.04e-01	0	33	0	803733504	63	4470
2026-01-16 14:27:09.37	323.44	7.48	-46.3	-47.8	23.1	6.01e-01	0	33	0	805830656	63	4459
2026-01-16 14:27:10.38	323.59	7.43	-46.4	-48.0	22.8	6.03e-01	0	33	0	807927808	63	4576
2026-01-16 14:27:11.39	323.75	7.39	-46.4	-47.9	22.9	6.04e-01	0	33	0	809500672	63	4532
2026-01-16 14:27:12.40	323.90	7.34	-46.3	-47.8	23.0	6.01e-01	0	33	0	811597824	63	4470
2026-01-16 14:27:13.41	324.06	7.29	-46.3	-47.9	23.0	6.00e-01	0	33	0	813694976	63	4494
2026-01-16 14:27:14.42	324.21	7.25	-46.3	-47.9	23.0	6.06e-01	0	33	0	815267840	63	4494
2026-01-16 14:27:15.42	324.36	7.20	-46.4	-48.0	22.9	6.03e-01	0	33	0	817364992	63	4560
2026-01-16 14:27:16.43	324.52	7.15	-46.5	-48.1	22.8	6.04e-01	0	33	0	818937856	63	4600
2026-01-16 14:27:17.44	324.67	7.11	-46.7	-48.3	22.5	6.04e-01	0	33	0	821035008	63	4752
2026-01-16 14:27:18.45	324.82	7.06	-46.6	-48.2	22.6	6.02e-01	0	33	0	823132160	63	4684
2026-01-16 14:27:19.46	324.97	7.01	-46.4	-48.0	22.8	6.02e-01	0	33	0	824705024	63	4572
2026-01-16 14:27:20.47	325.12	6.96	-46.5	-48.1	22.5	6.02e-01	0	33	0	826802176	64	4371
2026-01-16 14:27:21.47	325.27	6.92	-46.4	-48.0	22.7	6.02e-01	0	33	0	828375040	64	4326
2026-01-16 14:27:22.48	325.42	6.87	-46.4	-47.9	22.8	6.01e-01	0	33	0	830472192	64	4283
2026-01-16 14:27:23.49	325.57	6.82	-46.5	-48.1	22.7	6.04e-01	0	33	0	832045056	64	4359
2026-01-16 14:27:24.50	325.72	6.77	-46.5	-48.2	22.5	6.04e-01	0	33	0	834142208	64	4403
2026-01-16 14:27:25.51	325.87	6.73	-46.4	-48.0	22.5	6.06e-01	0	33	0	836239360	64	4339
2026-01-16 14:27:26.52	326.02	6.68	-46.3	-47.9	22.5	6.00e-01	0	33	0	838336512	64	4260
2026-01-16 14:27:27.53	326.16	6.63	-46.7	-48.4	21.9	6.03e-01	0	33	0	839909376	64	4539
2026-01-16 14:27:28.54	326.31	6.58	-46.6	-48.3	22.1	6.05e-01	0	33	0	842006528	64	4448
2026-01-16 14:27:29.54	326.46	6.53	-46.5	-48.1	22.0	6.03e-01	0	33	0	843579392	64	4391
2026-01-16 14:27:30.56	326.60	6.49	-46.8	-48.6	21.6	6.03e-01	0	33	0	845676544	64	4611
2026-01-16 14:27:31.56	326.75	6.44	-46.7	-48.4	21.7	6.03e-01	0	33	0	847249408	64	4512
2026-01-16 14:27:32.57	326.89	6.39	-46.5	-48.2	21.8	6.05e-01	0	33	0	849346560	64	4429
2026-01-16 14:27:33.58	327.04	6.34	-46.8	-48.5	21.4	6.03e-01	0	33	0	851443712	64	4578
2026-01-16 14:27:34.59	327.18	6.29	-46.9	-48.7	21.2	6.02e-01	0	33	0	853016576	64	4659
2026-01-16 14:27:35.60	327.32	6.25	-46.5	-48.1	21.8	6.02e-01	0	33	0	855113728	64	4390
2026-01-16 14:27:36.61	327.46	6.20	-46.4	-48.1	22.0	6.05e-01	0	33	0	857210880	64	4356
2026-01-16 14:27:37.62	327.61	6.15	-46.5	-48.2	21.7	6.03e-01	0	33	0	858783744	64	4412
2026-01-16 14:27:38.62	327.75	6.10	-46.6	-48.3	21.5	6.02e-01	0	33	0	860880896	64	4480
2026-01-16 14:27:39.63	327.89	6.05	-46.6	-48.4	21.5	6.02e-01	0	33	0	862453760	64	4505
2026-01-16 14:27:40.64	328.03	6.00	-46.5	-48.2	21.6	6.04e-01	0	33	0	864550912	64	4402
2026-01-16 14:27:41.65	328.17	5.96	-46.5	-48.2	21.4	6.00e-01	0	33	0	866648064	64	4431
2026-01-16 14:27:42.66	328.31	5.91	-46.7	-48.5	21.2	6.02e-01	0	33	0	868220928	64	4553
2026-01-16 14:27:43.67	328.45	5.86	-46.8	-48.5	21.3	6.05e-01	0	33	0	870318080	64	4584
2026-01-16 14:27:44.68	328.59	5.81	-46.9	-48.8	21.1	6.02e-01	0	33	0	871890944	64	4715
2026-01-16 14:27:45.68	328.72	5.76	-46.6	-48.3	21.4	6.04e-01	0	33	0	873988096	64	4492
2026-01-16 14:27:46.69	328.86	5.71	-46.8	-48.6	21.2	6.04e-01	0	33	0	875560960	64	4611
2026-01-16 14:27:47.70	329.00	5.67	-46.8	-48.6	21.2	6.05e-01	0	33	0	877658112	64	4624
2026-01-16 14:27:48.71	329.14	5.62	-46.9	-48.7	21.0	6.04e-01	0	33	0	879755264	64	4690
2026-01-16 14:27:49.72	329.27	5.57	-46.8	-48.7	20.8	6.03e-01	0	33	0	881852416	64	4671
2026-01-16 14:27:50.72	329.41	5.52	-46.6	-48.4	21.1	6.03e-01	0	33	0	883425280	64	4522
2026-01-16 14:27:51.73	329.54	5.47	-46.4	-48.1	21.5	6.04e-01	0	33	0	885522432	64	4372
2026-01-16 14:27:52.74	329.68	5.42	-46.8	-48.6	21.2	6.02e-01	0	33	0	887095296	64	4617
2026-01-16 14:27:53.75	329.81	5.37	-46.3	-48.0	21.7	6.04e-01	0	33	0	889192448	64	4323
2026-01-16 14:27:54.76	329.95	5.32	-46.7	-48.5	21.1	6.02e-01	0	33	0	890765312	64	4594
2026-01-16 14:27:55.76	330.08	5.28	-47.0	-48.9	20.7	6.02e-01	0	33	0	892862464	64	4761
2026-01-16 14:27:56.77	330.21	5.23	-47.0	-48.9	20.7	6.04e-01	0	33	0	894959616	64	4774
2026-01-16 14:27:57.78	330.34	5.18	-47.0	-48.8	20.7	6.03e-01	0	33	0	896532480	64	4759
2026-01-16 14:27:58.79	330.48	5.13	-46.5	-48.3	20.9	6.02e-01	0	33	0	898629632	64	4454
2026-01-16 14:27:59.80	330.61	5.08	-46.6	-48.5	20.4	6.03e-01	0	33	0	900202496	64	4559
2026-01-16 14:28:00.80	330.74	5.03	-46.8	-48.8	19.7	6.01e-01	0	33	0	902299648	64	4755
2026-01-16 14:28:01.81	330.87	4.98	-51.6	-56.8	13.2	6.06e-01	0	33	0	904396800	73	7085
2026-01-16 14:28:02.82	331.00	4.94	-54.1	-71.9	3.8	7.48e-01	0	33	104	904921088	78	30039
2026-01-16 14:28:03.83	331.13	4.89	-54.4	-72.2	3.8	7.46e-01	0	33	104	904921088	79	29433
2026-01-16 14:28:04.83	331.26	4.84	-54.5	-72.3	3.8	7.47e-01	0	33	104	904921088	79	29889
2026-01-16 14:28:05.84	331.39	4.79	-54.6	-72.4	3.8	7.40e-01	0	33	104	904921088	79	30337
2026-01-16 14:28:06.85	331.52	4.74	-54.7	-72.5	3.9	7.46e-01	0	33	104	904921088	80	28764
2026-01-16 14:28:07.86	331.64	4.69	-54.8	-72.6	3.8	7.44e-01	0	33	104	904921088	80	29018
2026-01-16 14:28:08.87	331.77	4.64	-54.9	-72.7	3.8	7.44e-01	0	33	104	904921088	80	29368
2026-01-16 14:28:09.88	331.90	4.59	-54.9	-72.7	3.8	7.47e-01	0	33	104	904921088	80	29585
2026-01-16 14:28:10.88	332.02	4.54	-55.0	-72.8	3.8	7.46e-01	0	33	104	904921088	80	29888
2026-01-16 14:28:11.89	332.15	4.50	-55.1	-72.8	3.8	7.46e-01	0	34	104	904921088	80	29970
2026-01-16 14:28:12.90	332.28	4.45	-55.1	-72.9	3.8	7.48e-01	0	33	104	904921088	80	30096
2026-01-16 14:28:13.91	332.40	4.40	-55.1	-72.9	3.8	7.45e-01	0	33	104	904921088	80	30216
2026-01-16 14:28:14.92	332.53	4.35	-55.1	-72.9	3.8	7.43e-01	0	33	104	904921088	80	30157
2026-01-16 14:28:15.93	332.65	4.30	-55.1	-72.9	3.8	7.45e-01	0	33	104	904921088	80	30154
2026-01-16 14:28:16.94	332.77	4.25	-55.1	-72.9	3.8	7.47e-01	0	33	104	904921088	80	30214
2026-01-16 14:28:17.94	332.90	4.20	-55.1	-72.9	3.8	7.45e-01	0	34	104	904921088	80	30132
2026-01-16 14:28:18.95	333.02	4.15	-55.1	-72.9	3.8	7.48e-01	0	34	104	904921088	80	30081
2026-01-16 14:28:19.96	333.14	4.10	-55.0	-72.8	3.8	7.47e-01	0	33	104	904921088	80	29970
2026-01-16 14:28:20.97	333.27	4.05	-55.0	-72.8	3.8	7.44e-01	0	34	104	904921088	80	29889
2026-01-16 14:28:21.98	333.39	4.01	-55.0	-72.8	3.8	7.46e-01	0	33	104	904921088	80	29810
2026-01-16 14:28:22.99	333.51	3.96	-55.0	-72.8	3.8	7.46e-01	0	34	104	904921088	80	29829
2026-01-16 14:28:24.00	333.63	3.91	-54.9	-72.7	3.8	7.46e-01	0	33	104	904921088	80	29660
2026-01-16 14:28:25.00	333.75	3.86	-54.9	-72.7	3.8	7.44e-01	0	34	104	904921088	80	29596
2026-01-16 14:28:26.01	333.87	3.81	-54.9	-72.7	3.8	7.47e-01	0	34	104	904921088	80	29635
2026-01-16 14:28:27.02	333.99	3.76	-54.9	-72.7	3.8	7.49e-01	0	33	104	904921088	80	29487
2026-01-16 14:28:28.03	334.11	3.71	-54.9	-72.7	3.8	7.46e-01	0	34	104	904921088	80	29549
2026-01-16 14:28:29.04	334.23	3.66	-54.9	-72.7	3.8	7.43e-01	0	33	104	904921088	80	29469
2026-01-16 14:28:30.05	334.35	3.61	-54.9	-72.7	3.8	7.47e-01	0	33	104	904921088	80	29549
2026-01-16 14:28:31.06	334.46	3.57	-54.9	-72.7	3.8	7.45e-01	0	33	104	904921088	80	29481
2026-01-16 14:28:32.07	334.58	3.52	-54.9	-72.7	3.8	7.42e-01	0	33	104	904921088	80	29502
2026-01-16 14:28:33.08	334.70	3.47	-54.9	-72.7	3.8	7.43e-01	0	34	104	904921088	80	29435
2026-01-16 14:28:34.08	334.82	3.42	-54.9	-72.7	3.8	7.44e-01	0	33	104	904921088	80	29414
2026-01-16 14:28:35.09	334.93	3.37	-54.9	-72.7	3.8	7.47e-01	0	33	104	904921088	80	29454
2026-01-16 14:28:36.10	335.05	3.32	-54.9	-72.7	3.8	7.45e-01	0	34	104	904921088	80	29431
2026-01-16 14:28:37.11	335.16	3.27	-54.9	-72.7	3.8	7.45e-01	0	34	104	904921088	80	29419
2026-01-16 14:28:38.12	335.28	3.22	-54.9	-72.7	3.8	7.45e-01	0	33	104	904921088	80	29462
2026-01-16 14:28:39.13	335.39	3.17	-54.8	-72.7	3.8	7.44e-01	0	33	104	904921088	80	29430
2026-01-16 14:28:40.14	335.51	3.13	-54.9	-72.7	3.8	7.44e-01	0	34	104	904921088	80	29373
2026-01-16 14:28:41.14	335.62	3.08	-54.8	-72.7	3.8	7.45e-01	0	33	104	904921088	80	29400
2026-01-16 14:28:42.15	335.74	3.03	-54.8	-72.7	3.8	7.51e-01	0	34	104	904921088	80	29367
2026-01-16 14:28:43.16	335.85	2.98	-54.8	-72.7	3.8	7.47e-01	0	34	104	904921088	80	29406
2026-01-16 14:28:44.17	335.96	2.93	-54.8	-72.7	3.8	7.47e-01	0	34	104	904921088	80	29369
2026-01-16 14:28:45.17	336.07	2.88	-54.8	-72.6	3.8	7.45e-01	0	33	104	904921088	80	29271
2026-01-16 14:28:46.18	336.19	2.83	-54.8	-72.6	3.8	7.49e-01	0	34	104	904921088	80	29285
2026-01-16 14:28:47.19	336.30	2.78	-54.8	-72.6	3.8	7.43e-01	0	33	104	904921088	80	29347
2026-01-16 14:28:48.20	336.41	2.74	-54.8	-72.7	3.8	7.50e-01	0	33	104	904921088	80	29376
2026-01-16 14:28:49.21	336.52	2.69	-54.8	-72.7	3.8	7.46e-01	0	34	104	904921088	80	29352
2026-01-16 14:28:50.22	336.63	2.64	-54.8	-72.6	3.8	7.43e-01	0	34	104	904921088	80	29284
2026-01-16 14:28:51.23	336.74	2.59	-54.8	-72.6	3.8	7.46e-01	0	34	104	904921088	80	29333
2026-01-16 14:28:52.24	336.85	2.54	-54.8	-72.6	3.8	7.45e-01	0	34	104	904921088	80	29323
2026-01-16 14:28:53.24	336.96	2.49	-54.8	-72.6	3.8	7.42e-01	0	34	104	904921088	80	29241
2026-01-16 14:28:54.25	337.07	2.44	-54.8	-72.6	3.8	7.45e-01	0	34	104	904921088	80	29311
2026-01-16 14:28:55.26	337.18	2.40	-54.8	-72.6	3.8	7.44e-01	0	34	104	904921088	80	29258
2026-01-16 14:28:56.27	337.28	2.35	-54.8	-72.6	3.8	7.41e-01	0	34	104	904921088	80	29325
2026-01-16 14:28:57.28	337.39	2.30	-54.8	-72.6	3.8	7.44e-01	0	34	104	904921088	80	29266
2026-01-16 14:28:58.28	337.50	2.25	-54.8	-72.6	3.8	7.46e-01	0	34	104	904921088	80	29228
2026-01-16 14:28:59.29	337.61	2.20	-54.8	-72.6	3.8	7.43e-01	0	34	104	904921088	80	29264
2026-01-16 14:29:00.30	337.71	2.15	-54.8	-72.6	3.8	7.46e-01	0	34	104	904921088	80	29237
2026-01-16 14:29:01.30	337.82	2.10	-54.8	-72.6	3.8	7.45e-01	0	33	104	904921088	80	29232
2026-01-16 14:29:02.31	337.92	2.06	-54.8	-72.6	3.8	7.46e-01	0	34	104	904921088	80	29218
2026-01-16 14:29:03.32	338.03	2.01	-54.8	-72.6	3.8	7.45e-01	0	34	104	904921088	80	29243

#Closed at: 2026-01-16 14:29:04
#Recorded file [904 MB]: D:/lorett/data/31041_260116_171905.dat