passes_logs/2026/01/16/R3.2S_Murmansk/R3.2S_Murmansk__20260116_073026_SUOMI_NPP_rec.log

#Pass ID: 20260116_073026_SUOMI NPP
#Satellite: SUOMI NPP
#Configuration: NPP
#almurnet v.1.7.20251203
#Start time: 2026-01-16 07:30:27

#Version: 2.2.20231116
#Station: R3.2S_Murmansk
#Location: 33.079688 lon 68.888172 lat
#TLE: 1 37849U 11061A   26015.94982489  .00000054  00000+0  46705-4 0  9991
#TLE: 2 37849  98.7812 317.9902 0002438  62.0366 298.1057 14.19525452736847

#Time	Az	El	Level	Level2	SNR	BER	BlckErr	Temp	State	Recorded	gain1	gain2
2026-01-16 07:30:27.22	103.99	2.02	-56.5	-71.4	3.8	1.49e+00	0	42	0	0	84	20237
2026-01-16 07:30:28.23	103.95	2.08	-56.4	-71.4	3.8	1.49e+00	0	41	104	0	83	21269
2026-01-16 07:30:29.24	103.91	2.14	-56.4	-71.3	3.8	1.49e+00	0	42	104	0	83	21243
2026-01-16 07:30:30.25	103.86	2.20	-56.4	-71.3	3.8	1.49e+00	0	42	104	0	83	21142
2026-01-16 07:30:31.25	103.82	2.26	-56.4	-71.3	3.8	1.49e+00	0	42	104	0	83	21097
2026-01-16 07:30:32.26	103.77	2.33	-56.4	-71.3	3.8	1.49e+00	0	42	104	0	83	21036
2026-01-16 07:30:33.27	103.73	2.39	-56.3	-71.3	3.8	1.49e+00	0	42	104	0	83	21039
2026-01-16 07:30:34.28	103.68	2.45	-56.4	-71.2	3.8	1.49e+00	0	42	104	0	83	20981
2026-01-16 07:30:35.29	103.63	2.51	-56.4	-71.3	3.8	1.49e+00	0	42	104	0	83	21061
2026-01-16 07:30:36.30	103.59	2.57	-56.4	-71.2	3.8	1.49e+00	0	42	104	0	83	20967
2026-01-16 07:30:37.31	103.54	2.64	-56.3	-71.2	3.8	1.49e+00	0	42	104	0	83	20967
2026-01-16 07:30:38.32	103.49	2.70	-56.3	-71.3	3.8	1.49e+00	0	42	104	0	83	21042
2026-01-16 07:30:39.33	103.45	2.76	-56.3	-71.2	3.8	1.49e+00	0	42	104	0	83	20996
2026-01-16 07:30:40.34	103.40	2.82	-56.3	-71.3	3.8	1.49e+00	0	42	104	0	83	21053
2026-01-16 07:30:41.35	103.35	2.89	-56.3	-71.3	3.8	1.49e+00	0	43	104	0	83	21069
2026-01-16 07:30:42.36	103.31	2.95	-56.3	-71.3	3.8	1.49e+00	0	42	104	0	83	21089
2026-01-16 07:30:43.37	103.26	3.01	-56.3	-71.3	3.8	1.49e+00	0	43	104	0	83	21058
2026-01-16 07:30:44.38	103.21	3.08	-56.3	-71.3	3.8	1.49e+00	0	42	104	0	83	21027
2026-01-16 07:30:45.39	103.16	3.14	-56.3	-71.2	3.8	1.49e+00	0	42	104	0	83	20978
2026-01-16 07:30:46.40	103.11	3.20	-56.3	-71.2	3.8	1.49e+00	0	43	104	0	83	20913
2026-01-16 07:30:47.41	103.07	3.27	-56.3	-71.1	3.8	1.49e+00	0	43	104	0	83	20752
2026-01-16 07:30:48.42	103.02	3.33	-56.3	-71.1	3.8	1.49e+00	0	43	104	0	83	20704
2026-01-16 07:30:49.43	102.97	3.40	-56.3	-71.1	3.8	1.49e+00	0	43	104	0	83	20663
2026-01-16 07:30:50.44	102.92	3.46	-56.3	-71.1	3.8	1.49e+00	0	43	104	0	83	20747
2026-01-16 07:30:51.45	102.87	3.52	-56.3	-71.2	3.8	1.49e+00	0	43	104	0	83	20902
2026-01-16 07:30:52.46	102.82	3.59	-56.3	-71.3	3.8	1.49e+00	0	43	104	0	83	21089
2026-01-16 07:30:53.47	102.77	3.65	-56.3	-71.3	3.8	1.49e+00	0	43	104	0	83	21064
2026-01-16 07:30:54.48	102.72	3.72	-56.3	-71.2	3.8	1.49e+00	0	43	104	0	83	20979
2026-01-16 07:30:55.49	102.67	3.78	-56.3	-71.0	3.8	1.49e+00	0	43	104	0	83	20430
2026-01-16 07:30:56.50	102.62	3.85	-56.3	-70.7	3.8	1.49e+00	0	43	104	0	83	19757
2026-01-16 07:30:57.51	102.57	3.91	-56.3	-70.2	3.8	1.49e+00	0	43	104	0	83	18665
2026-01-16 07:30:58.52	102.52	3.98	-56.3	-69.7	3.8	1.49e+00	0	43	104	0	83	17505
2026-01-16 07:30:59.53	102.47	4.04	-56.2	-68.7	3.9	1.49e+00	0	43	104	0	83	15600
2026-01-16 07:31:00.54	102.41	4.11	-56.1	-67.8	4.2	1.44e+00	0	43	0	0	83	14057
2026-01-16 07:31:01.55	102.36	4.17	-56.1	-67.3	4.3	1.36e+00	76	44	0	0	83	13412
2026-01-16 07:31:02.56	102.31	4.24	-56.0	-66.6	4.6	9.77e-01	0	43	0	1048576	83	12358
2026-01-16 07:31:03.57	102.26	4.31	-55.9	-65.3	5.2	8.27e-01	0	44	0	3145728	83	10619
2026-01-16 07:31:04.58	102.21	4.37	-55.8	-64.6	5.6	5.29e-01	0	44	0	5242880	83	9820
2026-01-16 07:31:05.59	102.15	4.44	-55.7	-64.1	6.1	3.28e-01	0	44	0	7340032	83	9215
2026-01-16 07:31:06.61	102.10	4.51	-55.7	-63.7	6.4	2.66e-01	0	44	0	9437184	83	8823
2026-01-16 07:31:07.61	102.05	4.57	-55.6	-63.1	6.9	2.30e-01	0	44	0	10485760	83	8220
2026-01-16 07:31:08.62	101.99	4.64	-55.5	-63.0	7.0	1.53e-01	0	44	0	12582912	83	8105
2026-01-16 07:31:09.63	101.94	4.70	-55.4	-62.5	7.5	1.01e-01	0	44	0	14680064	82	8093
2026-01-16 07:31:10.65	101.88	4.77	-55.4	-62.4	7.6	9.39e-02	0	44	0	16777216	82	8009
2026-01-16 07:31:11.65	101.83	4.84	-55.5	-62.6	7.4	9.63e-02	0	44	0	18874368	82	8222
2026-01-16 07:31:12.67	101.78	4.91	-55.5	-62.7	7.3	1.32e-01	0	44	0	19922944	82	8272
2026-01-16 07:31:13.68	101.72	4.97	-55.6	-63.1	6.9	1.27e-01	0	44	0	22020096	82	8732
2026-01-16 07:31:14.69	101.67	5.04	-55.6	-63.5	6.6	2.21e-01	0	44	0	24117248	82	9085
2026-01-16 07:31:15.70	101.61	5.11	-55.3	-61.6	8.5	2.13e-01	0	44	0	26214400	82	7301
2026-01-16 07:31:16.71	101.55	5.18	-55.4	-62.0	8.2	5.03e-02	0	44	0	28311552	82	7641
2026-01-16 07:31:17.71	101.50	5.24	-56.1	-66.1	5.1	1.74e-01	0	44	0	29360128	82	12374
2026-01-16 07:31:18.72	101.44	5.31	-54.1	-57.9	12.1	1.00e+00	0	44	104	30408704	80	5392
2026-01-16 07:31:19.73	101.39	5.38	-56.0	-64.8	5.8	1.81e-04	0	44	0	32505856	82	10632
2026-01-16 07:31:20.74	101.33	5.45	-54.5	-58.8	11.5	1.54e-01	0	44	0	33554432	81	5601
2026-01-16 07:31:21.75	101.27	5.52	-54.1	-57.8	12.8	4.34e-05	0	44	0	35651584	79	5615
2026-01-16 07:31:22.76	101.21	5.58	-54.0	-57.5	13.1	1.06e-05	0	44	0	37748736	79	5435
2026-01-16 07:31:23.77	101.16	5.65	-54.2	-57.9	12.7	4.27e-05	0	44	0	39845888	79	5721
2026-01-16 07:31:24.78	101.10	5.72	-54.2	-58.1	12.7	7.24e-05	0	44	0	40894464	79	5808
2026-01-16 07:31:25.78	101.04	5.79	-54.1	-57.8	12.7	2.59e-05	0	44	0	42991616	79	5613
2026-01-16 07:31:26.80	100.98	5.86	-54.0	-57.5	13.1	8.31e-05	0	44	0	45088768	79	5459
2026-01-16 07:31:27.80	100.92	5.93	-53.9	-57.3	13.3	3.66e-05	0	44	0	47185920	79	5297
2026-01-16 07:31:28.81	100.86	6.00	-53.6	-56.8	13.8	1.44e-05	0	44	0	49283072	79	5018
2026-01-16 07:31:29.82	100.81	6.07	-53.3	-56.3	14.3	1.50e-06	0	44	0	50331648	78	5036
2026-01-16 07:31:30.83	100.75	6.14	-53.1	-55.9	14.8	0.00e+00	0	45	0	52428800	77	5058
2026-01-16 07:31:31.84	100.69	6.21	-52.9	-55.6	15.1	0.00e+00	0	45	0	54525952	77	4883
2026-01-16 07:31:32.85	100.63	6.28	-52.9	-55.5	15.1	7.00e-07	0	44	0	56623104	77	4839
2026-01-16 07:31:33.86	100.56	6.35	-52.9	-55.7	15.0	0.00e+00	0	45	0	58720256	77	4928
2026-01-16 07:31:34.87	100.50	6.42	-52.8	-55.4	15.2	0.00e+00	0	45	0	60817408	77	4770
2026-01-16 07:31:35.88	100.44	6.49	-52.7	-55.2	15.5	0.00e+00	0	45	0	61865984	77	4694
2026-01-16 07:31:36.89	100.38	6.56	-52.9	-55.6	15.1	0.00e+00	0	45	0	63963136	77	4907
2026-01-16 07:31:37.90	100.32	6.63	-53.0	-55.8	14.9	7.00e-07	0	45	0	66060288	77	5013
2026-01-16 07:31:38.91	100.26	6.70	-53.1	-55.9	14.9	0.00e+00	0	45	0	68157440	77	5042
2026-01-16 07:31:39.92	100.19	6.77	-53.0	-55.7	14.9	7.00e-07	0	45	0	69206016	77	4983
2026-01-16 07:31:40.93	100.13	6.85	-52.8	-55.4	15.2	7.00e-07	0	45	0	71303168	77	4813
2026-01-16 07:31:41.94	100.07	6.92	-52.9	-55.5	15.2	0.00e+00	0	45	0	73400320	77	4868
2026-01-16 07:31:42.95	100.00	6.99	-52.9	-55.5	15.2	0.00e+00	0	45	0	75497472	77	4859
2026-01-16 07:31:43.95	99.94	7.06	-52.7	-55.2	15.5	0.00e+00	0	45	0	77594624	77	4705
2026-01-16 07:31:44.96	99.88	7.13	-52.7	-55.3	15.4	0.00e+00	0	45	0	79691776	77	4727
2026-01-16 07:31:45.97	99.81	7.20	-52.9	-55.5	15.3	7.00e-07	0	45	0	80740352	77	4834
2026-01-16 07:31:46.98	99.75	7.28	-52.7	-55.2	15.4	0.00e+00	0	45	0	82837504	76	4979
2026-01-16 07:31:47.99	99.68	7.35	-52.6	-55.1	15.7	0.00e+00	0	45	0	84934656	76	4888
2026-01-16 07:31:49.00	99.62	7.42	-52.7	-55.3	15.4	0.00e+00	0	45	0	87031808	76	4999
2026-01-16 07:31:50.01	99.55	7.50	-52.7	-55.2	15.6	0.00e+00	0	45	0	89128960	76	4940
2026-01-16 07:31:51.02	99.49	7.57	-52.8	-55.3	15.4	0.00e+00	0	45	0	90177536	76	5031
2026-01-16 07:31:52.02	99.42	7.64	-52.8	-55.3	15.4	0.00e+00	0	45	0	92274688	76	5031
2026-01-16 07:31:53.04	99.35	7.72	-52.7	-55.2	15.5	0.00e+00	0	45	0	94371840	76	4964
2026-01-16 07:31:54.04	99.29	7.79	-52.7	-55.3	15.5	7.00e-07	0	45	0	96468992	76	4999
2026-01-16 07:31:55.05	99.22	7.86	-52.6	-55.0	15.8	0.00e+00	0	45	0	98566144	76	4855
2026-01-16 07:31:56.06	99.15	7.94	-52.6	-55.1	15.6	0.00e+00	0	45	0	99614720	76	4922
2026-01-16 07:31:57.07	99.08	8.01	-52.4	-54.9	15.8	0.00e+00	0	45	0	101711872	76	4803
2026-01-16 07:31:58.08	99.01	8.08	-52.2	-54.6	16.1	0.00e+00	0	45	0	103809024	76	4626
2026-01-16 07:31:59.09	98.94	8.16	-52.4	-54.8	15.9	0.00e+00	0	45	0	105906176	76	4728
2026-01-16 07:32:00.10	98.87	8.23	-52.4	-54.8	15.9	0.00e+00	0	46	0	108003328	76	4735
2026-01-16 07:32:01.11	98.80	8.31	-52.4	-54.9	15.8	0.00e+00	0	46	0	109051904	76	4806
2026-01-16 07:32:02.12	98.73	8.38	-52.4	-54.8	15.9	0.00e+00	0	45	0	111149056	76	4737
2026-01-16 07:32:03.12	98.66	8.46	-52.5	-55.1	15.7	0.00e+00	0	45	0	113246208	76	4892
2026-01-16 07:32:04.13	98.59	8.53	-52.3	-54.8	15.9	0.00e+00	0	45	0	115343360	76	4724
2026-01-16 07:32:05.14	98.52	8.61	-52.4	-54.9	15.9	0.00e+00	0	45	0	117440512	76	4805
2026-01-16 07:32:06.15	98.45	8.68	-52.5	-55.0	15.8	0.00e+00	0	46	0	119537664	76	4834
2026-01-16 07:32:07.16	98.38	8.76	-52.2	-54.6	16.1	0.00e+00	0	46	0	120586240	76	4635
2026-01-16 07:32:08.17	98.31	8.84	-52.3	-54.8	16.0	0.00e+00	0	45	0	122683392	76	4720
2026-01-16 07:32:09.18	98.23	8.91	-52.3	-54.7	16.1	0.00e+00	0	46	0	124780544	76	4670
2026-01-16 07:32:10.19	98.16	8.99	-52.2	-54.5	16.3	0.00e+00	0	46	0	126877696	76	4567
2026-01-16 07:32:11.20	98.09	9.07	-51.8	-53.9	16.8	0.00e+00	0	46	0	127926272	75	4529
2026-01-16 07:32:12.21	98.01	9.14	-51.9	-54.1	16.6	0.00e+00	0	46	0	130023424	75	4644
2026-01-16 07:32:13.21	97.94	9.22	-51.9	-54.0	16.7	0.00e+00	0	46	0	132120576	75	4595
2026-01-16 07:32:14.22	97.86	9.30	-51.9	-54.1	16.6	0.00e+00	0	46	0	134217728	75	4650
2026-01-16 07:32:15.23	97.79	9.37	-52.0	-54.3	16.5	0.00e+00	0	46	0	136314880	75	4734
2026-01-16 07:32:16.24	97.71	9.45	-51.8	-54.1	16.7	0.00e+00	0	46	0	138412032	75	4606
2026-01-16 07:32:17.25	97.64	9.53	-51.8	-54.0	16.8	0.00e+00	0	46	0	139460608	75	4597
2026-01-16 07:32:18.26	97.56	9.61	-51.8	-54.0	16.8	0.00e+00	0	46	0	141557760	75	4569
2026-01-16 07:32:19.27	97.48	9.69	-51.8	-54.0	16.8	0.00e+00	0	46	0	143654912	75	4579
2026-01-16 07:32:20.28	97.41	9.76	-51.7	-53.8	17.0	0.00e+00	0	46	0	145752064	75	4478
2026-01-16 07:32:21.29	97.33	9.84	-51.8	-54.0	16.8	0.00e+00	0	46	0	147849216	75	4587
2026-01-16 07:32:22.30	97.25	9.92	-51.7	-53.8	17.0	0.00e+00	0	46	0	148897792	75	4488
2026-01-16 07:32:23.31	97.17	10.00	-51.7	-53.8	17.0	0.00e+00	0	46	0	150994944	75	4464
2026-01-16 07:32:24.32	97.09	10.08	-51.3	-53.3	17.5	0.00e+00	0	46	0	153092096	74	4462
2026-01-16 07:32:25.33	97.01	10.16	-51.4	-53.4	17.4	0.00e+00	0	46	0	155189248	74	4534
2026-01-16 07:32:26.34	96.93	10.24	-51.4	-53.4	17.5	0.00e+00	0	46	0	157286400	74	4495
2026-01-16 07:32:27.35	96.85	10.32	-51.5	-53.5	17.4	0.00e+00	0	46	0	158334976	74	4555
2026-01-16 07:32:28.36	96.77	10.40	-51.5	-53.5	17.3	0.00e+00	0	46	0	160432128	74	4584
2026-01-16 07:32:29.37	96.69	10.48	-51.5	-53.5	17.4	0.00e+00	0	46	0	162529280	74	4547
2026-01-16 07:32:30.38	96.61	10.56	-51.5	-53.5	17.3	0.00e+00	0	46	0	164626432	74	4564
2026-01-16 07:32:31.39	96.52	10.64	-51.5	-53.6	17.3	0.00e+00	0	46	0	166723584	74	4609
2026-01-16 07:32:32.40	96.44	10.72	-51.5	-53.5	17.3	0.00e+00	0	46	0	167772160	74	4595
2026-01-16 07:32:33.41	96.36	10.80	-51.5	-53.6	17.3	0.00e+00	0	46	0	169869312	74	4612
2026-01-16 07:32:34.41	96.27	10.88	-51.5	-53.6	17.3	0.00e+00	0	46	0	171966464	74	4622
2026-01-16 07:32:35.42	96.19	10.96	-51.4	-53.3	17.5	0.00e+00	0	46	0	174063616	74	4482
2026-01-16 07:32:36.43	96.11	11.05	-51.6	-53.6	17.3	0.00e+00	0	46	0	176160768	74	4628
2026-01-16 07:32:37.44	96.02	11.13	-51.4	-53.3	17.5	0.00e+00	0	46	0	177209344	74	4477
2026-01-16 07:32:38.45	95.93	11.21	-51.5	-53.5	17.4	0.00e+00	0	46	0	179306496	74	4560
2026-01-16 07:32:39.46	95.85	11.29	-51.7	-53.7	17.2	0.00e+00	0	46	0	181403648	74	4690
2026-01-16 07:32:40.47	95.76	11.38	-51.5	-53.4	17.5	0.00e+00	0	46	0	183500800	74	4536
2026-01-16 07:32:41.48	95.67	11.46	-51.6	-53.6	17.3	0.00e+00	0	46	0	185597952	74	4622
2026-01-16 07:32:42.49	95.59	11.54	-51.7	-53.8	17.1	0.00e+00	0	47	0	186646528	74	4719
2026-01-16 07:32:43.50	95.50	11.62	-51.8	-53.9	17.0	0.00e+00	0	47	0	188743680	74	4798
2026-01-16 07:32:44.51	95.41	11.71	-51.8	-53.9	17.0	0.00e+00	0	47	0	190840832	74	4784
2026-01-16 07:32:45.52	95.32	11.79	-51.7	-53.8	17.1	0.00e+00	0	47	0	192937984	74	4732
2026-01-16 07:32:46.53	95.23	11.88	-51.8	-53.9	17.0	0.00e+00	0	46	0	195035136	74	4803
2026-01-16 07:32:47.54	95.14	11.96	-51.8	-54.0	16.9	0.00e+00	0	47	0	197132288	74	4823
2026-01-16 07:32:48.55	95.05	12.04	-51.6	-53.6	17.3	0.00e+00	0	47	0	198180864	74	4644
2026-01-16 07:32:49.56	94.96	12.13	-51.7	-53.7	17.2	0.00e+00	0	46	0	200278016	74	4701
2026-01-16 07:32:50.57	94.86	12.21	-51.5	-53.5	17.4	0.00e+00	0	47	0	202375168	74	4593
2026-01-16 07:32:51.58	94.77	12.30	-51.4	-53.4	17.5	0.00e+00	0	47	0	204472320	74	4509
2026-01-16 07:32:52.59	94.68	12.38	-51.6	-53.6	17.4	0.00e+00	0	47	0	205520896	74	4604
2026-01-16 07:32:53.60	94.59	12.47	-51.2	-53.1	17.8	0.00e+00	0	47	0	207618048	74	4362
2026-01-16 07:32:54.60	94.49	12.55	-51.4	-53.3	17.7	0.00e+00	0	47	0	209715200	74	4453
2026-01-16 07:32:55.61	94.40	12.64	-51.3	-53.2	17.7	0.00e+00	0	47	0	211812352	74	4411
2026-01-16 07:32:56.63	94.30	12.73	-51.3	-53.2	17.7	0.00e+00	0	47	0	213909504	74	4440
2026-01-16 07:32:57.63	94.21	12.81	-51.4	-53.3	17.6	0.00e+00	0	47	0	216006656	74	4485
2026-01-16 07:32:58.64	94.11	12.90	-51.4	-53.3	17.7	0.00e+00	0	47	0	217055232	74	4466
2026-01-16 07:32:59.66	94.01	12.98	-51.3	-53.2	17.8	0.00e+00	0	47	0	219152384	74	4403
2026-01-16 07:33:00.66	93.91	13.07	-51.1	-53.0	18.0	0.00e+00	0	47	0	221249536	74	4302
2026-01-16 07:33:01.67	93.82	13.16	-51.1	-53.0	18.0	0.00e+00	0	47	0	223346688	74	4300
2026-01-16 07:33:02.68	93.72	13.24	-51.2	-53.0	17.9	0.00e+00	0	47	0	225443840	74	4336
2026-01-16 07:33:03.69	93.62	13.33	-51.3	-53.2	17.8	0.00e+00	0	47	0	226492416	74	4393
2026-01-16 07:33:04.70	93.52	13.42	-51.2	-53.1	17.9	0.00e+00	0	47	0	228589568	74	4364
2026-01-16 07:33:05.71	93.42	13.51	-51.1	-52.9	18.1	0.00e+00	0	47	0	230686720	74	4291
2026-01-16 07:33:06.72	93.31	13.60	-51.0	-52.8	18.2	0.00e+00	0	47	0	232783872	73	4478
2026-01-16 07:33:07.73	93.21	13.68	-51.2	-53.1	17.9	0.00e+00	0	47	0	234881024	73	4616
2026-01-16 07:33:08.74	93.11	13.77	-51.1	-52.9	18.1	0.00e+00	0	47	0	235929600	73	4504
2026-01-16 07:33:09.74	93.01	13.86	-51.0	-52.8	18.2	0.00e+00	0	47	0	238026752	73	4477
2026-01-16 07:33:10.75	92.90	13.95	-51.0	-52.7	18.3	0.00e+00	0	47	0	240123904	73	4412
2026-01-16 07:33:11.76	92.80	14.04	-51.1	-52.8	18.2	0.00e+00	0	47	0	242221056	73	4488
2026-01-16 07:33:12.77	92.69	14.13	-50.8	-52.4	18.6	0.00e+00	0	47	0	244318208	73	4286
2026-01-16 07:33:13.78	92.59	14.22	-50.8	-52.5	18.6	0.00e+00	0	47	0	245366784	73	4296
2026-01-16 07:33:14.79	92.48	14.31	-50.8	-52.5	18.6	0.00e+00	0	47	0	247463936	73	4299
2026-01-16 07:33:15.80	92.37	14.40	-51.0	-52.7	18.3	0.00e+00	0	47	0	249561088	73	4426
2026-01-16 07:33:16.81	92.27	14.49	-50.7	-52.4	18.6	0.00e+00	0	47	0	251658240	73	4244
2026-01-16 07:33:17.82	92.16	14.58	-50.8	-52.4	18.6	0.00e+00	0	47	0	253755392	73	4269
2026-01-16 07:33:18.83	92.05	14.67	-50.7	-52.3	18.7	0.00e+00	0	47	0	255852544	73	4214
2026-01-16 07:33:19.84	91.94	14.76	-50.8	-52.4	18.7	0.00e+00	0	47	0	256901120	73	4266
2026-01-16 07:33:20.85	91.83	14.86	-50.8	-52.5	18.6	0.00e+00	0	47	0	258998272	73	4312
2026-01-16 07:33:21.86	91.72	14.95	-50.9	-52.6	18.5	0.00e+00	0	47	0	261095424	73	4347
2026-01-16 07:33:22.87	91.61	15.04	-50.9	-52.5	18.5	0.00e+00	0	47	0	263192576	73	4331
2026-01-16 07:33:23.88	91.49	15.13	-50.9	-52.5	18.5	0.00e+00	0	47	0	264241152	73	4334
2026-01-16 07:33:24.89	91.38	15.22	-51.0	-52.8	18.4	0.00e+00	0	47	0	266338304	73	4461
2026-01-16 07:33:25.90	91.26	15.32	-50.9	-52.6	18.5	0.00e+00	0	47	0	268435456	73	4379
2026-01-16 07:33:26.91	91.15	15.41	-50.9	-52.6	18.4	0.00e+00	0	47	0	270532608	73	4376
2026-01-16 07:33:27.92	91.03	15.50	-50.8	-52.5	18.5	0.00e+00	0	47	0	272629760	73	4318
2026-01-16 07:33:28.93	90.92	15.60	-50.9	-52.6	18.5	0.00e+00	0	47	0	274726912	73	4347
2026-01-16 07:33:29.94	90.80	15.69	-50.8	-52.4	18.7	0.00e+00	0	47	0	275775488	73	4269
2026-01-16 07:33:30.95	90.68	15.78	-50.8	-52.5	18.6	0.00e+00	0	47	0	277872640	73	4324
2026-01-16 07:33:31.96	90.56	15.88	-51.0	-52.8	18.3	0.00e+00	0	47	0	279969792	73	4466
2026-01-16 07:33:32.96	90.45	15.97	-51.1	-52.8	18.3	0.00e+00	0	47	0	282066944	73	4476
2026-01-16 07:33:33.97	90.33	16.07	-51.1	-52.9	18.2	0.00e+00	0	47	0	284164096	73	4520
2026-01-16 07:33:34.98	90.21	16.16	-51.1	-52.9	18.2	0.00e+00	0	47	0	285212672	73	4510
2026-01-16 07:33:35.99	90.08	16.25	-51.1	-52.8	18.2	0.00e+00	0	47	0	287309824	73	4490
2026-01-16 07:33:37.00	89.96	16.35	-51.2	-53.0	18.1	0.00e+00	0	47	0	289406976	73	4559
2026-01-16 07:33:38.01	89.84	16.45	-50.9	-52.7	18.4	0.00e+00	0	47	0	291504128	73	4395
2026-01-16 07:33:39.02	89.71	16.54	-50.9	-52.6	18.5	0.00e+00	0	47	0	292552704	73	4364
2026-01-16 07:33:40.03	89.59	16.64	-51.0	-52.7	18.4	0.00e+00	0	47	0	294649856	73	4425
2026-01-16 07:33:41.04	89.46	16.73	-50.8	-52.5	18.6	0.00e+00	0	47	0	296747008	73	4325
2026-01-16 07:33:42.05	89.34	16.83	-50.9	-52.6	18.5	0.00e+00	0	47	0	298844160	73	4383
2026-01-16 07:33:43.06	89.21	16.93	-51.1	-52.8	18.3	0.00e+00	0	48	0	300941312	73	4493
2026-01-16 07:33:44.07	89.08	17.02	-51.0	-52.7	18.4	0.00e+00	0	47	0	303038464	73	4433
2026-01-16 07:33:45.08	88.95	17.12	-51.1	-52.9	18.2	0.00e+00	0	47	0	304087040	73	4528
2026-01-16 07:33:46.09	88.82	17.22	-51.0	-52.8	18.4	0.00e+00	0	47	0	306184192	73	4454
2026-01-16 07:33:47.10	88.69	17.32	-50.8	-52.4	18.7	0.00e+00	0	47	0	308281344	73	4267
2026-01-16 07:33:48.11	88.56	17.41	-50.7	-52.3	18.8	0.00e+00	0	47	0	310378496	73	4204
2026-01-16 07:33:49.12	88.43	17.51	-50.6	-52.1	19.0	0.00e+00	0	47	0	312475648	73	4139
2026-01-16 07:33:50.13	88.29	17.61	-50.7	-52.3	18.9	0.00e+00	0	47	0	313524224	73	4200
2026-01-16 07:33:51.14	88.16	17.71	-50.8	-52.5	18.7	0.00e+00	0	47	0	315621376	73	4292
2026-01-16 07:33:52.15	88.02	17.81	-51.0	-52.7	18.5	0.00e+00	0	48	0	317718528	73	4398
2026-01-16 07:33:53.16	87.89	17.91	-51.1	-52.9	18.3	0.00e+00	0	47	0	319815680	73	4514
2026-01-16 07:33:54.17	87.75	18.01	-51.3	-53.0	18.0	0.00e+00	0	48	0	321912832	73	4591
2026-01-16 07:33:55.17	87.61	18.10	-51.3	-53.1	18.0	0.00e+00	0	48	0	322961408	73	4644
2026-01-16 07:33:56.18	87.47	18.20	-51.2	-52.9	18.3	0.00e+00	0	47	0	325058560	73	4520
2026-01-16 07:33:57.19	87.34	18.30	-51.2	-52.9	18.3	0.00e+00	0	47	0	327155712	73	4533
2026-01-16 07:33:58.20	87.19	18.40	-51.2	-52.9	18.3	0.00e+00	0	47	0	329252864	73	4539
2026-01-16 07:33:59.21	87.05	18.50	-51.3	-53.0	18.1	0.00e+00	0	48	0	331350016	73	4598
2026-01-16 07:34:00.22	86.91	18.60	-51.6	-53.5	17.8	0.00e+00	0	47	0	332398592	73	4829
2026-01-16 07:34:01.23	86.77	18.71	-51.9	-53.9	17.3	0.00e+00	0	47	0	334495744	74	4809
2026-01-16 07:34:02.24	86.62	18.81	-51.9	-53.9	17.4	0.00e+00	0	47	0	336592896	74	4780
2026-01-16 07:34:03.25	86.48	18.91	-52.0	-54.0	17.3	0.00e+00	0	47	0	338690048	74	4850
2026-01-16 07:34:04.26	86.33	19.01	-51.9	-53.9	17.3	0.00e+00	0	47	0	340787200	74	4809
2026-01-16 07:34:05.27	86.18	19.11	-51.7	-53.6	17.6	0.00e+00	0	47	0	341835776	74	4620
2026-01-16 07:34:06.28	86.03	19.21	-51.7	-53.6	17.7	0.00e+00	0	48	0	343932928	74	4614
2026-01-16 07:34:07.29	85.88	19.31	-51.5	-53.4	17.9	0.00e+00	0	48	0	346030080	74	4500
2026-01-16 07:34:08.30	85.73	19.42	-51.6	-53.5	17.8	0.00e+00	0	48	0	348127232	74	4552
2026-01-16 07:34:09.31	85.58	19.52	-51.5	-53.4	17.9	0.00e+00	0	48	0	350224384	74	4500
2026-01-16 07:34:10.32	85.43	19.62	-51.6	-53.6	17.8	0.00e+00	0	48	0	351272960	74	4599
2026-01-16 07:34:11.33	85.28	19.72	-51.3	-53.0	18.2	0.00e+00	0	48	0	353370112	74	4320
2026-01-16 07:34:12.34	85.12	19.83	-51.2	-53.0	18.2	0.00e+00	0	48	0	355467264	74	4306
2026-01-16 07:34:13.35	84.96	19.93	-51.3	-53.1	18.2	0.00e+00	0	48	0	357564416	74	4345
2026-01-16 07:34:14.35	84.81	20.03	-51.3	-53.0	18.2	0.00e+00	0	47	0	359661568	74	4323
2026-01-16 07:34:15.36	84.65	20.14	-51.4	-53.2	18.0	0.00e+00	0	48	0	361758720	74	4434
2026-01-16 07:34:16.37	84.49	20.24	-51.5	-53.3	17.9	0.00e+00	0	48	0	362807296	74	4489
2026-01-16 07:34:17.38	84.33	20.35	-51.2	-53.0	18.2	0.00e+00	0	48	0	364904448	74	4321
2026-01-16 07:34:18.39	84.17	20.45	-51.6	-53.5	17.8	0.00e+00	0	48	0	367001600	74	4563
2026-01-16 07:34:19.40	84.01	20.55	-51.2	-53.0	18.3	0.00e+00	0	47	0	369098752	74	4296
2026-01-16 07:34:20.41	83.85	20.66	-51.3	-53.0	18.2	0.00e+00	0	48	0	370147328	74	4332
2026-01-16 07:34:21.42	83.68	20.76	-51.4	-53.2	18.0	0.00e+00	0	48	0	372244480	74	4432
2026-01-16 07:34:22.43	83.51	20.87	-51.3	-53.1	18.2	0.00e+00	0	48	0	374341632	74	4371
2026-01-16 07:34:23.44	83.35	20.97	-51.5	-53.3	18.0	0.00e+00	0	48	0	376438784	74	4486
2026-01-16 07:34:24.45	83.18	21.08	-51.4	-53.2	18.1	0.00e+00	0	48	0	378535936	74	4406
2026-01-16 07:34:25.46	83.01	21.19	-51.3	-53.0	18.3	0.00e+00	0	48	0	380633088	74	4329
2026-01-16 07:34:26.46	82.84	21.29	-51.5	-53.3	18.0	0.00e+00	0	48	0	381681664	74	4474
2026-01-16 07:34:27.47	82.67	21.40	-51.4	-53.3	18.1	0.00e+00	0	48	0	383778816	74	4455
2026-01-16 07:34:28.48	82.50	21.50	-51.4	-53.2	18.2	0.00e+00	0	48	0	385875968	74	4424
2026-01-16 07:34:29.49	82.32	21.61	-51.5	-53.4	18.0	0.00e+00	0	48	0	387973120	74	4495
2026-01-16 07:34:30.50	82.15	21.71	-51.5	-53.4	18.0	0.00e+00	0	48	0	390070272	74	4506
2026-01-16 07:34:31.51	81.97	21.82	-51.3	-53.1	18.3	0.00e+00	0	48	0	391118848	74	4374
2026-01-16 07:34:32.52	81.79	21.93	-51.4	-53.1	18.2	0.00e+00	0	48	0	393216000	74	4381
2026-01-16 07:34:33.52	81.62	22.03	-51.5	-53.4	18.0	0.00e+00	0	48	0	395313152	74	4507
2026-01-16 07:34:34.53	81.44	22.14	-51.7	-53.6	17.8	0.00e+00	0	48	0	397410304	74	4620
2026-01-16 07:34:35.54	81.25	22.25	-51.7	-53.6	17.8	0.00e+00	0	48	0	399507456	74	4612
2026-01-16 07:34:36.55	81.07	22.36	-51.8	-53.7	17.6	0.00e+00	0	48	0	400556032	74	4699
2026-01-16 07:34:37.56	80.89	22.46	-51.9	-53.8	17.5	0.00e+00	0	48	0	402653184	74	4758
2026-01-16 07:34:38.57	80.70	22.57	-51.9	-53.9	17.5	0.00e+00	0	48	0	404750336	74	4786
2026-01-16 07:34:39.58	80.52	22.68	-51.9	-53.9	17.3	0.00e+00	0	48	0	406847488	74	4804
2026-01-16 07:34:40.59	80.33	22.79	-52.1	-54.1	17.2	0.00e+00	0	48	0	408944640	75	4647
2026-01-16 07:34:41.60	80.14	22.89	-52.1	-54.1	17.3	0.00e+00	0	48	0	409993216	75	4647
2026-01-16 07:34:42.61	79.95	23.00	-52.1	-54.3	17.1	0.00e+00	0	48	0	412090368	75	4708
2026-01-16 07:34:43.62	79.76	23.11	-52.0	-54.0	17.3	0.00e+00	0	48	0	414187520	75	4591
2026-01-16 07:34:44.63	79.56	23.22	-52.0	-54.1	17.3	0.00e+00	0	48	0	416284672	75	4627
2026-01-16 07:34:45.64	79.37	23.33	-52.0	-54.1	17.3	0.00e+00	0	48	0	418381824	75	4628
2026-01-16 07:34:46.64	79.17	23.43	-51.8	-53.8	17.6	0.00e+00	0	48	0	420478976	75	4458
2026-01-16 07:34:47.65	78.98	23.54	-52.0	-54.0	17.4	0.00e+00	0	48	0	421527552	75	4585
2026-01-16 07:34:48.66	78.78	23.65	-51.7	-53.6	17.8	0.00e+00	0	48	0	423624704	75	4389
2026-01-16 07:34:49.67	78.58	23.76	-51.4	-53.2	18.2	0.00e+00	0	48	0	425721856	74	4430
2026-01-16 07:34:50.68	78.38	23.87	-51.2	-52.9	18.5	0.00e+00	0	48	0	427819008	74	4249
2026-01-16 07:34:51.69	78.17	23.98	-51.3	-53.1	18.3	0.00e+00	0	48	0	428867584	74	4363
2026-01-16 07:34:52.70	77.97	24.09	-51.3	-53.1	18.3	0.00e+00	0	48	0	430964736	74	4357
2026-01-16 07:34:53.71	77.76	24.19	-51.6	-53.4	18.0	0.00e+00	0	48	0	433061888	74	4524
2026-01-16 07:34:54.72	77.56	24.30	-51.3	-53.1	18.2	0.00e+00	0	48	0	435159040	74	4373
2026-01-16 07:34:55.73	77.35	24.41	-51.4	-53.2	18.2	0.00e+00	0	48	0	437256192	74	4420
2026-01-16 07:34:56.74	77.14	24.52	-51.4	-53.1	18.3	0.00e+00	0	48	0	439353344	74	4371
2026-01-16 07:34:57.75	76.93	24.63	-51.3	-53.0	18.3	0.00e+00	0	48	0	440401920	74	4336
2026-01-16 07:34:58.76	76.71	24.74	-51.4	-53.2	18.2	0.00e+00	0	48	0	442499072	74	4403
2026-01-16 07:34:59.77	76.50	24.85	-51.5	-53.3	18.0	0.00e+00	0	48	0	444596224	74	4491
2026-01-16 07:35:00.74	76.29	24.95	-51.6	-53.4	18.0	0.00e+00	0	48	0	446693376	74	4537
2026-01-16 07:35:01.75	76.07	25.06	-51.6	-53.4	18.0	0.00e+00	0	48	0	448790528	74	4541
2026-01-16 07:35:02.76	75.85	25.17	-51.6	-53.4	18.0	0.00e+00	0	48	0	449839104	74	4542
2026-01-16 07:35:03.77	75.63	25.28	-51.4	-53.2	18.2	0.00e+00	0	48	0	451936256	74	4410
2026-01-16 07:35:04.78	75.41	25.39	-51.4	-53.2	18.2	0.00e+00	0	48	0	454033408	74	4396
2026-01-16 07:35:05.79	75.19	25.50	-51.4	-53.2	18.2	0.00e+00	0	48	0	456130560	74	4414
2026-01-16 07:35:06.80	74.96	25.61	-51.2	-52.9	18.5	0.00e+00	0	48	0	457179136	74	4284
2026-01-16 07:35:07.80	74.74	25.72	-51.3	-53.1	18.3	0.00e+00	0	48	0	459276288	74	4359
2026-01-16 07:35:08.81	74.51	25.82	-51.5	-53.3	18.1	0.00e+00	0	48	0	461373440	74	4465
2026-01-16 07:35:09.82	74.28	25.93	-51.4	-53.2	18.3	0.00e+00	0	48	0	463470592	74	4416
2026-01-16 07:35:10.83	74.05	26.04	-51.4	-53.2	18.2	0.00e+00	0	48	0	465567744	74	4436
2026-01-16 07:35:11.84	73.81	26.15	-51.1	-52.7	18.8	0.00e+00	0	48	0	467664896	74	4178
2026-01-16 07:35:12.85	73.58	26.26	-51.2	-52.9	18.6	0.00e+00	0	48	0	468713472	74	4249
2026-01-16 07:35:13.86	73.34	26.37	-51.2	-53.0	18.5	0.00e+00	0	48	0	470810624	74	4304
2026-01-16 07:35:14.87	73.10	26.48	-51.3	-53.0	18.5	0.00e+00	0	48	0	472907776	74	4314
2026-01-16 07:35:15.88	72.86	26.58	-51.5	-53.3	18.2	0.00e+00	0	48	0	475004928	74	4469
2026-01-16 07:35:16.89	72.62	26.69	-51.8	-53.6	17.9	0.00e+00	0	48	0	477102080	74	4646
2026-01-16 07:35:17.90	72.38	26.80	-51.9	-53.9	17.6	0.00e+00	0	48	0	478150656	74	4772
2026-01-16 07:35:18.91	72.13	26.91	-52.2	-54.3	17.2	0.00e+00	0	48	0	480247808	75	4719
2026-01-16 07:35:19.92	71.89	27.02	-52.4	-54.5	17.1	0.00e+00	0	48	0	482344960	75	4853
2026-01-16 07:35:20.93	71.64	27.12	-52.1	-54.0	17.5	0.00e+00	0	48	0	484442112	75	4591
2026-01-16 07:35:21.94	71.39	27.23	-51.9	-53.8	17.8	0.00e+00	0	48	0	486539264	75	4460
2026-01-16 07:35:22.95	71.14	27.34	-51.5	-53.2	18.3	0.00e+00	0	48	0	487587840	75	4174
2026-01-16 07:35:23.96	70.89	27.44	-51.0	-52.6	18.9	0.00e+00	0	48	0	489684992	74	4109
2026-01-16 07:35:24.96	70.63	27.55	-50.8	-52.4	19.0	0.00e+00	0	48	0	491782144	73	4249
2026-01-16 07:35:25.97	70.38	27.66	-50.6	-52.1	19.3	0.00e+00	0	48	0	493879296	73	4125
2026-01-16 07:35:26.98	70.12	27.76	-50.4	-51.8	19.5	0.00e+00	0	48	0	495976448	72	4238
2026-01-16 07:35:27.99	69.86	27.87	-50.5	-52.0	19.4	0.00e+00	0	48	0	497025024	72	4340
2026-01-16 07:35:28.99	69.60	27.97	-50.7	-52.3	19.2	0.00e+00	0	48	0	499122176	72	4469
2026-01-16 07:35:30.00	69.34	28.08	-50.8	-52.3	19.1	0.00e+00	0	48	0	501219328	72	4490
2026-01-16 07:35:31.01	69.07	28.18	-50.8	-52.4	19.0	0.00e+00	0	48	0	503316480	72	4518
2026-01-16 07:35:32.02	68.80	28.29	-51.3	-53.1	18.4	0.00e+00	0	48	0	505413632	73	4603
2026-01-16 07:35:33.03	68.53	28.39	-51.1	-52.8	18.6	0.00e+00	0	48	0	506462208	73	4468
2026-01-16 07:35:34.03	68.27	28.50	-51.2	-52.9	18.6	0.00e+00	0	48	0	508559360	73	4520
2026-01-16 07:35:35.04	67.99	28.60	-51.2	-52.9	18.5	0.00e+00	0	48	0	510656512	73	4523
2026-01-16 07:35:36.05	67.72	28.70	-51.2	-52.8	18.6	0.00e+00	0	48	0	512753664	73	4487
2026-01-16 07:35:37.06	67.44	28.81	-51.7	-53.6	17.9	0.00e+00	0	49	0	514850816	73	4871
2026-01-16 07:35:38.07	67.17	28.91	-52.0	-54.0	17.5	0.00e+00	0	48	0	515899392	74	4856
2026-01-16 07:35:39.08	66.89	29.01	-52.4	-54.5	17.0	0.00e+00	0	48	0	517996544	75	4863
2026-01-16 07:35:40.09	66.61	29.11	-52.7	-55.1	16.5	0.00e+00	0	48	0	520093696	75	5166
2026-01-16 07:35:41.09	66.32	29.22	-52.9	-55.4	16.1	0.00e+00	0	48	0	522190848	76	5095
2026-01-16 07:35:42.10	66.04	29.32	-52.9	-55.3	16.2	0.00e+00	0	48	0	524288000	76	5012
2026-01-16 07:35:43.11	65.75	29.42	-52.6	-54.9	16.6	0.00e+00	0	48	0	525336576	76	4814
2026-01-16 07:35:44.12	65.46	29.52	-52.5	-54.7	16.8	0.00e+00	0	48	0	527433728	76	4699
2026-01-16 07:35:45.13	65.17	29.62	-52.4	-54.5	17.0	0.00e+00	0	49	0	529530880	76	4565
2026-01-16 07:35:46.14	64.88	29.72	-52.3	-54.4	17.2	0.00e+00	0	48	0	531628032	76	4523
2026-01-16 07:35:47.15	64.59	29.82	-52.4	-54.5	16.9	0.00e+00	0	48	0	533725184	76	4589
2026-01-16 07:35:48.16	64.29	29.91	-52.6	-54.8	16.6	0.00e+00	0	48	0	534773760	76	4759
2026-01-16 07:35:49.17	64.00	30.01	-52.4	-54.5	17.0	0.00e+00	0	48	0	536870912	76	4568
2026-01-16 07:35:50.18	63.70	30.11	-53.1	-55.7	15.8	0.00e+00	0	48	0	538968064	76	5236
2026-01-16 07:35:51.19	63.39	30.21	-53.1	-55.7	15.8	0.00e+00	0	48	0	541065216	76	5239
2026-01-16 07:35:52.20	63.09	30.30	-53.3	-55.9	15.7	0.00e+00	0	48	0	543162368	77	5080
2026-01-16 07:35:53.21	62.79	30.40	-53.5	-56.2	15.4	0.00e+00	0	48	0	544210944	77	5260
2026-01-16 07:35:54.22	62.48	30.49	-53.4	-56.0	15.4	0.00e+00	0	48	0	546308096	77	5153
2026-01-16 07:35:55.23	62.17	30.59	-53.8	-56.7	14.8	0.00e+00	0	49	0	548405248	78	5275
2026-01-16 07:35:56.24	61.86	30.68	-54.1	-57.2	14.3	7.00e-07	0	48	0	550502400	78	5572
2026-01-16 07:35:57.25	61.55	30.77	-54.5	-58.1	13.4	3.80e-06	0	48	0	552599552	79	5853
2026-01-16 07:35:58.26	61.24	30.87	-54.4	-57.8	13.8	4.50e-06	0	49	0	554696704	79	5605
2026-01-16 07:35:59.27	60.92	30.96	-54.0	-57.0	14.5	2.20e-06	0	49	0	555745280	79	5145
2026-01-16 07:36:00.27	60.61	31.05	-53.7	-56.6	14.9	0.00e+00	0	48	0	557842432	79	4886
2026-01-16 07:36:01.28	60.29	31.14	-53.8	-56.7	14.9	0.00e+00	0	48	0	559939584	79	4958
2026-01-16 07:36:02.29	59.96	31.23	-53.4	-56.0	15.5	0.00e+00	0	48	0	562036736	78	4845
2026-01-16 07:36:03.30	59.64	31.32	-53.4	-56.2	15.5	0.00e+00	0	48	0	563085312	78	4930
2026-01-16 07:36:04.31	59.32	31.40	-53.3	-55.9	15.7	0.00e+00	0	49	0	565182464	78	4789
2026-01-16 07:36:05.32	58.99	31.49	-53.2	-55.7	15.8	0.00e+00	0	49	0	567279616	77	4962
2026-01-16 07:36:06.33	58.66	31.58	-53.4	-56.0	15.6	0.00e+00	0	49	0	569376768	77	5136
2026-01-16 07:36:07.34	58.33	31.66	-53.3	-55.9	15.7	0.00e+00	0	48	0	571473920	77	5070
2026-01-16 07:36:08.34	58.00	31.75	-53.2	-55.8	15.8	0.00e+00	0	49	0	573571072	77	5001
2026-01-16 07:36:09.35	57.67	31.83	-53.4	-56.1	15.5	0.00e+00	0	48	0	574619648	77	5167
2026-01-16 07:36:10.36	57.34	31.91	-53.8	-56.8	14.8	0.00e+00	0	49	0	576716800	78	5296
2026-01-16 07:36:11.37	57.00	32.00	-53.4	-56.1	15.6	0.00e+00	0	49	0	578813952	78	4898
2026-01-16 07:36:12.38	56.66	32.08	-53.5	-56.2	15.4	0.00e+00	0	49	0	580911104	78	4950
2026-01-16 07:36:13.38	56.32	32.16	-53.3	-55.9	15.6	0.00e+00	0	49	0	583008256	78	4809
2026-01-16 07:36:14.39	55.98	32.24	-54.0	-57.1	14.5	7.00e-07	0	49	0	584056832	78	5518
2026-01-16 07:36:15.40	55.64	32.31	-54.5	-58.2	13.4	5.30e-06	0	49	0	586153984	79	5912
2026-01-16 07:36:16.41	55.29	32.39	-54.2	-57.5	13.9	3.00e-06	0	49	0	588251136	79	5452
2026-01-16 07:36:17.42	54.95	32.47	-53.4	-56.2	15.2	0.00e+00	0	49	0	590348288	78	4974
2026-01-16 07:36:18.43	54.60	32.54	-53.4	-56.1	15.4	0.00e+00	0	48	0	592445440	78	4914
2026-01-16 07:36:19.44	54.25	32.62	-53.4	-56.2	15.4	0.00e+00	0	49	0	593494016	78	4964
2026-01-16 07:36:20.44	53.90	32.69	-53.7	-56.7	15.0	0.00e+00	0	48	0	595591168	78	5232
2026-01-16 07:36:21.45	53.55	32.76	-53.8	-56.8	14.8	7.00e-07	0	49	0	597688320	78	5288
2026-01-16 07:36:22.46	53.19	32.84	-53.8	-56.8	14.8	0.00e+00	0	49	0	599785472	78	5303
2026-01-16 07:36:23.47	52.84	32.91	-53.8	-56.8	14.8	0.00e+00	0	49	0	601882624	78	5323
2026-01-16 07:36:24.48	52.48	32.97	-53.4	-56.2	15.4	0.00e+00	0	49	0	602931200	78	4969
2026-01-16 07:36:25.49	52.12	33.04	-52.9	-55.3	16.3	0.00e+00	0	48	0	605028352	77	4723
2026-01-16 07:36:26.50	51.76	33.11	-52.2	-54.2	17.3	0.00e+00	0	49	0	607125504	76	4427
2026-01-16 07:36:27.51	51.39	33.17	-51.9	-53.8	17.8	0.00e+00	0	49	0	609222656	75	4449
2026-01-16 07:36:28.52	51.03	33.24	-51.3	-53.0	18.4	0.00e+00	0	48	0	611319808	74	4319
2026-01-16 07:36:29.53	50.67	33.30	-51.0	-52.7	18.7	0.00e+00	0	49	0	612368384	73	4424
2026-01-16 07:36:30.53	50.30	33.36	-50.9	-52.5	18.9	0.00e+00	0	49	0	614465536	73	4328
2026-01-16 07:36:31.54	49.93	33.43	-50.8	-52.4	19.1	0.00e+00	0	49	0	616562688	73	4249
2026-01-16 07:36:32.55	49.57	33.48	-50.6	-52.1	19.3	0.00e+00	0	48	0	618659840	73	4139
2026-01-16 07:36:33.55	49.20	33.54	-50.6	-52.2	19.2	0.00e+00	0	49	0	620756992	73	4180
2026-01-16 07:36:34.56	48.83	33.60	-50.8	-52.5	19.0	0.00e+00	0	49	0	621805568	73	4305
2026-01-16 07:36:35.57	48.45	33.66	-51.3	-53.1	18.4	0.00e+00	0	49	0	623902720	73	4606
2026-01-16 07:36:36.58	48.08	33.71	-51.8	-53.8	17.8	0.00e+00	0	49	0	625999872	74	4726
2026-01-16 07:36:37.59	47.70	33.76	-52.2	-54.4	17.2	0.00e+00	0	48	0	628097024	75	4765
2026-01-16 07:36:38.60	47.32	33.82	-52.3	-54.5	17.1	0.00e+00	0	49	0	630194176	75	4861
2026-01-16 07:36:39.61	46.95	33.87	-52.0	-54.0	17.2	0.00e+00	0	49	0	631242752	75	4588
2026-01-16 07:36:40.62	46.57	33.92	-51.7	-53.6	17.9	0.00e+00	0	49	0	633339904	75	4351
2026-01-16 07:36:41.63	46.19	33.96	-51.0	-52.6	18.9	0.00e+00	0	49	0	635437056	73	4370
2026-01-16 07:36:42.64	45.80	34.01	-50.4	-51.8	19.5	0.00e+00	0	49	0	637534208	72	4239
2026-01-16 07:36:43.65	45.42	34.06	-50.3	-51.7	19.7	0.00e+00	0	49	0	639631360	72	4175
2026-01-16 07:36:44.65	45.04	34.10	-50.3	-51.8	19.6	0.00e+00	0	49	0	641728512	72	4230
2026-01-16 07:36:45.66	44.66	34.14	-50.5	-52.0	19.4	0.00e+00	0	49	0	642777088	72	4310
2026-01-16 07:36:46.67	44.27	34.18	-50.0	-51.4	19.9	0.00e+00	0	49	0	644874240	72	4026
2026-01-16 07:36:47.68	43.88	34.22	-49.7	-51.0	20.4	0.00e+00	0	49	0	646971392	71	4060
2026-01-16 07:36:48.69	43.50	34.26	-50.2	-51.6	19.8	0.00e+00	0	49	0	649068544	71	4371
2026-01-16 07:36:49.70	43.11	34.30	-51.0	-52.6	18.8	0.00e+00	0	49	0	650117120	72	4647
2026-01-16 07:36:50.71	42.72	34.33	-51.5	-53.4	18.1	0.00e+00	0	49	0	652214272	73	4773
2026-01-16 07:36:51.72	42.33	34.37	-51.6	-53.5	18.0	0.00e+00	0	49	0	654311424	74	4578
2026-01-16 07:36:52.73	41.94	34.40	-51.2	-52.9	18.6	0.00e+00	0	48	0	656408576	74	4265
2026-01-16 07:36:53.73	41.55	34.43	-50.8	-52.3	19.2	0.00e+00	0	49	0	658505728	73	4238
2026-01-16 07:36:54.75	41.15	34.46	-50.9	-52.5	19.0	0.00e+00	0	49	0	660602880	73	4312
2026-01-16 07:36:55.75	40.76	34.49	-51.5	-53.4	18.1	0.00e+00	0	49	0	661651456	73	4766
2026-01-16 07:36:56.77	40.36	34.51	-51.9	-53.9	17.7	0.00e+00	0	49	0	663748608	74	4777
2026-01-16 07:36:57.77	39.97	34.54	-51.8	-53.6	18.0	0.00e+00	0	49	0	665845760	74	4643
2026-01-16 07:36:58.78	39.58	34.56	-51.7	-53.5	18.0	0.00e+00	0	49	0	667942912	74	4575
2026-01-16 07:36:59.79	39.18	34.58	-51.7	-53.6	18.0	0.00e+00	0	49	0	670040064	74	4604
2026-01-16 07:37:00.80	38.79	34.60	-51.6	-53.4	18.3	0.00e+00	0	49	0	671088640	74	4528
2026-01-16 07:37:01.80	38.39	34.62	-51.2	-52.9	18.7	0.00e+00	0	49	0	673185792	74	4268
2026-01-16 07:37:02.81	38.00	34.64	-51.1	-52.7	18.9	0.00e+00	0	49	0	675282944	74	4150
2026-01-16 07:37:03.82	37.60	34.65	-51.0	-52.6	19.0	0.00e+00	0	49	0	677380096	73	4351
2026-01-16 07:37:04.83	37.20	34.67	-51.4	-53.1	18.5	0.00e+00	0	49	0	679477248	73	4644
2026-01-16 07:37:05.84	36.80	34.68	-51.5	-53.2	18.3	0.00e+00	0	49	0	680525824	73	4694
2026-01-16 07:37:06.85	36.40	34.69	-51.5	-53.2	18.3	0.00e+00	0	49	0	682622976	73	4692
2026-01-16 07:37:07.86	36.01	34.70	-51.4	-53.1	18.5	0.00e+00	0	49	0	684720128	73	4623
2026-01-16 07:37:08.87	35.61	34.71	-51.7	-53.6	18.0	0.00e+00	0	49	0	686817280	74	4615
2026-01-16 07:37:09.87	35.21	34.71	-52.0	-54.0	17.7	0.00e+00	0	49	0	688914432	74	4825
2026-01-16 07:37:10.88	34.81	34.72	-52.1	-54.1	17.5	0.00e+00	0	49	0	689963008	75	4618
2026-01-16 07:37:11.89	34.41	34.72	-52.0	-53.9	17.7	0.00e+00	0	49	0	692060160	75	4528
2026-01-16 07:37:12.90	34.01	34.72	-51.9	-53.8	17.9	0.00e+00	0	49	0	694157312	75	4453
2026-01-16 07:37:13.91	33.62	34.72	-51.9	-53.9	17.7	0.00e+00	0	49	0	696254464	75	4530
2026-01-16 07:37:14.92	33.22	34.72	-52.3	-54.4	17.3	0.00e+00	0	49	0	698351616	75	4793
2026-01-16 07:37:15.93	32.82	34.71	-52.0	-53.9	17.6	0.00e+00	0	49	0	699400192	75	4526
2026-01-16 07:37:16.94	32.42	34.71	-51.7	-53.6	18.0	0.00e+00	0	49	0	701497344	75	4354
2026-01-16 07:37:17.95	32.02	34.70	-51.8	-53.6	18.0	0.00e+00	0	49	0	703594496	75	4386
2026-01-16 07:37:18.96	31.62	34.69	-52.0	-54.0	17.7	0.00e+00	0	49	0	705691648	75	4559
2026-01-16 07:37:19.97	31.22	34.68	-52.4	-54.6	17.0	0.00e+00	0	49	0	707788800	75	4881
2026-01-16 07:37:20.98	30.82	34.67	-52.5	-54.7	16.8	0.00e+00	0	49	0	708837376	75	4979
2026-01-16 07:37:21.99	30.43	34.66	-52.4	-54.5	17.0	0.00e+00	0	49	0	710934528	75	4870
2026-01-16 07:37:23.00	30.03	34.65	-51.6	-53.4	18.2	0.00e+00	0	49	0	713031680	75	4262
2026-01-16 07:37:24.01	29.63	34.63	-51.1	-52.8	18.7	0.00e+00	0	49	0	715128832	74	4219
2026-01-16 07:37:25.02	29.23	34.61	-50.9	-52.4	19.0	0.00e+00	0	49	0	717225984	73	4283
2026-01-16 07:37:26.03	28.84	34.59	-51.3	-53.0	18.5	0.00e+00	0	49	0	719323136	73	4585
2026-01-16 07:37:27.04	28.44	34.57	-52.2	-54.2	17.3	0.00e+00	0	49	0	720371712	74	4978
2026-01-16 07:37:28.05	28.05	34.55	-53.0	-55.5	16.1	0.00e+00	0	49	0	722468864	76	5144
2026-01-16 07:37:29.06	27.65	34.53	-53.0	-55.6	16.0	0.00e+00	0	49	0	724566016	76	5162
2026-01-16 07:37:30.07	27.26	34.50	-52.6	-54.9	16.7	0.00e+00	0	49	0	726663168	76	4793
2026-01-16 07:37:31.08	26.86	34.47	-52.3	-54.4	17.2	0.00e+00	0	49	0	727711744	76	4516
2026-01-16 07:37:32.09	26.47	34.45	-51.9	-53.9	17.6	0.00e+00	0	49	0	729808896	75	4515
2026-01-16 07:37:33.09	26.08	34.42	-52.3	-54.4	17.2	0.00e+00	0	49	0	731906048	75	4784
2026-01-16 07:37:34.10	25.69	34.38	-52.0	-53.9	17.6	0.00e+00	0	49	0	734003200	75	4545
2026-01-16 07:37:35.11	25.30	34.35	-52.2	-54.3	17.3	0.00e+00	0	49	0	736100352	75	4724
2026-01-16 07:37:36.12	24.91	34.32	-52.1	-54.2	17.4	0.00e+00	0	49	0	737148928	75	4676
2026-01-16 07:37:37.14	24.52	34.28	-52.3	-54.5	17.1	0.00e+00	0	49	0	739246080	75	4842
2026-01-16 07:37:38.14	24.13	34.24	-52.7	-55.0	16.7	0.00e+00	0	49	0	741343232	75	5152
2026-01-16 07:37:39.15	23.75	34.21	-52.7	-55.0	16.6	0.00e+00	0	49	0	743440384	76	4838
2026-01-16 07:37:40.16	23.36	34.17	-52.6	-55.0	16.6	0.00e+00	0	49	0	745537536	76	4822
2026-01-16 07:37:41.17	22.98	34.12	-52.7	-55.1	16.5	0.00e+00	0	49	0	747634688	76	4897
2026-01-16 07:37:42.18	22.59	34.08	-52.0	-54.0	17.5	0.00e+00	0	49	0	748683264	76	4313
2026-01-16 07:37:43.19	22.21	34.04	-51.5	-53.4	18.1	0.00e+00	0	49	0	750780416	75	4261
2026-01-16 07:37:44.20	21.83	33.99	-51.3	-53.1	18.4	0.00e+00	0	49	0	752877568	74	4366
2026-01-16 07:37:45.21	21.45	33.94	-51.4	-53.2	18.4	0.00e+00	0	49	0	754974720	74	4414
2026-01-16 07:37:46.22	21.07	33.89	-51.7	-53.6	18.0	0.00e+00	0	49	0	756023296	74	4639
2026-01-16 07:37:47.23	20.69	33.85	-51.8	-53.8	17.8	0.00e+00	0	49	0	758120448	74	4716
2026-01-16 07:37:48.24	20.31	33.79	-51.6	-53.5	18.0	0.00e+00	0	49	0	760217600	74	4574
2026-01-16 07:37:49.25	19.93	33.74	-51.6	-53.5	18.0	0.00e+00	0	49	0	762314752	74	4549
2026-01-16 07:37:50.25	19.56	33.69	-51.5	-53.3	18.2	0.00e+00	0	49	0	764411904	74	4466
2026-01-16 07:37:51.27	19.18	33.63	-51.6	-53.4	18.1	0.00e+00	0	49	0	766509056	74	4532
2026-01-16 07:37:52.28	18.81	33.58	-51.3	-53.1	18.4	0.00e+00	0	49	0	767557632	74	4358
2026-01-16 07:37:53.29	18.44	33.52	-51.1	-52.8	18.6	0.00e+00	0	49	0	769654784	74	4240
2026-01-16 07:37:54.30	18.07	33.46	-50.8	-52.5	19.0	0.00e+00	0	49	0	771751936	73	4299
2026-01-16 07:37:55.31	17.70	33.40	-50.9	-52.5	19.0	0.00e+00	0	49	0	773849088	73	4330
2026-01-16 07:37:56.32	17.34	33.34	-51.5	-53.3	18.2	0.00e+00	0	49	0	775946240	73	4744
2026-01-16 07:37:57.32	16.97	33.28	-52.2	-54.4	17.2	0.00e+00	0	49	0	776994816	75	4778
2026-01-16 07:37:58.33	16.61	33.21	-52.8	-55.3	16.3	0.00e+00	0	49	0	779091968	76	5032
2026-01-16 07:37:59.34	16.25	33.15	-52.8	-55.3	16.3	0.00e+00	0	49	0	781189120	76	5001
2026-01-16 07:38:00.35	15.88	33.08	-52.3	-54.4	17.1	0.00e+00	0	49	0	783286272	76	4537
2026-01-16 07:38:01.36	15.53	33.01	-51.6	-53.3	18.2	0.00e+00	0	49	0	785383424	75	4235
2026-01-16 07:38:02.37	15.17	32.95	-51.0	-52.6	18.9	0.00e+00	0	49	0	786432000	73	4350
2026-01-16 07:38:03.38	14.81	32.88	-51.0	-52.7	18.9	0.00e+00	0	49	0	788529152	73	4397
2026-01-16 07:38:04.39	14.45	32.81	-51.3	-53.0	18.4	0.00e+00	0	49	0	790626304	73	4573
2026-01-16 07:38:05.40	14.10	32.73	-51.5	-53.3	18.2	0.00e+00	0	49	0	792723456	73	4754
2026-01-16 07:38:06.41	13.75	32.66	-51.8	-53.7	18.0	0.00e+00	0	49	0	794820608	74	4653
2026-01-16 07:38:07.42	13.40	32.59	-52.3	-54.4	17.3	0.00e+00	0	49	0	795869184	75	4761
2026-01-16 07:38:08.43	13.05	32.51	-52.8	-55.1	16.5	0.00e+00	0	49	0	797966336	76	4891
2026-01-16 07:38:09.43	12.71	32.44	-53.5	-56.3	15.4	0.00e+00	0	49	0	800063488	77	5309
2026-01-16 07:38:10.44	12.36	32.36	-53.7	-56.7	15.0	0.00e+00	0	49	0	802160640	78	5225
2026-01-16 07:38:11.45	12.02	32.28	-53.8	-56.8	14.9	0.00e+00	0	49	0	804257792	78	5306
2026-01-16 07:38:12.46	11.67	32.20	-53.3	-56.0	15.6	0.00e+00	0	49	0	806354944	78	4855
2026-01-16 07:38:13.47	11.33	32.12	-52.8	-55.2	16.5	0.00e+00	0	49	0	807403520	77	4668
2026-01-16 07:38:14.48	10.99	32.04	-52.7	-55.0	16.7	0.00e+00	0	49	0	809500672	76	4844
2026-01-16 07:38:15.49	10.66	31.96	-52.8	-55.2	16.4	0.00e+00	0	49	0	811597824	76	4972
2026-01-16 07:38:16.50	10.32	31.88	-53.1	-55.6	16.0	0.00e+00	0	49	0	813694976	76	5201
2026-01-16 07:38:17.51	9.99	31.80	-53.4	-56.2	15.5	0.00e+00	0	49	0	814743552	77	5228
2026-01-16 07:38:18.52	9.66	31.71	-53.2	-55.8	15.8	0.00e+00	0	49	0	816840704	77	4986
2026-01-16 07:38:19.53	9.33	31.63	-52.5	-54.7	16.8	0.00e+00	0	49	0	818937856	76	4660
2026-01-16 07:38:20.54	9.00	31.54	-52.1	-54.1	17.4	0.00e+00	0	49	0	821035008	76	4379
2026-01-16 07:38:21.55	8.67	31.45	-51.7	-53.5	17.8	0.00e+00	0	49	0	823132160	74	4580
2026-01-16 07:38:22.56	8.35	31.37	-51.8	-53.7	17.9	0.00e+00	0	49	0	825229312	74	4658
2026-01-16 07:38:23.57	8.02	31.28	-51.5	-53.3	18.2	0.00e+00	0	49	0	826277888	74	4452
2026-01-16 07:38:24.58	7.70	31.19	-51.1	-52.8	18.6	0.00e+00	0	49	0	828375040	74	4236
2026-01-16 07:38:25.59	7.38	31.10	-50.9	-52.5	19.0	0.00e+00	0	49	0	830472192	73	4297
2026-01-16 07:38:26.60	7.06	31.01	-51.3	-53.0	18.5	0.00e+00	0	49	0	832569344	73	4567
2026-01-16 07:38:27.60	6.75	30.92	-51.6	-53.5	18.0	0.00e+00	0	49	0	834666496	73	4852
2026-01-16 07:38:28.61	6.44	30.83	-52.4	-54.6	17.0	0.00e+00	0	49	0	835715072	75	4919
2026-01-16 07:38:29.62	6.12	30.74	-52.9	-55.3	16.4	0.00e+00	0	49	0	837812224	76	5013
2026-01-16 07:38:30.63	5.81	30.64	-53.4	-56.1	15.6	0.00e+00	0	49	0	839909376	77	5168
2026-01-16 07:38:31.64	5.50	30.55	-52.9	-55.2	16.4	0.00e+00	0	49	0	842006528	77	4665
2026-01-16 07:38:32.65	5.20	30.45	-52.5	-54.6	17.0	0.00e+00	0	49	0	844103680	76	4623
2026-01-16 07:38:33.66	4.89	30.36	-52.0	-53.9	17.6	0.00e+00	0	49	0	845152256	76	4267
2026-01-16 07:38:34.67	4.59	30.26	-51.7	-53.5	18.1	0.00e+00	0	49	0	847249408	75	4338
2026-01-16 07:38:35.68	4.29	30.17	-51.3	-53.0	18.5	0.00e+00	0	49	0	849346560	74	4323
2026-01-16 07:38:36.69	3.99	30.07	-51.9	-53.9	17.7	0.00e+00	0	49	0	851443712	74	4783
2026-01-16 07:38:37.70	3.69	29.97	-52.8	-55.1	16.6	0.00e+00	0	49	0	853540864	76	4913
2026-01-16 07:38:38.71	3.39	29.88	-53.7	-56.6	15.0	0.00e+00	0	49	0	854589440	77	5521
2026-01-16 07:38:39.71	3.10	29.78	-53.4	-56.1	15.5	7.00e-07	0	49	0	856686592	78	4877
2026-01-16 07:38:40.72	2.81	29.68	-53.2	-55.7	16.0	0.00e+00	0	49	0	858783744	78	4673
2026-01-16 07:38:41.73	2.52	29.58	-52.5	-54.7	17.0	0.00e+00	0	49	0	860880896	76	4670
2026-01-16 07:38:42.75	2.23	29.48	-52.5	-54.6	17.0	0.00e+00	0	49	0	862978048	76	4651
2026-01-16 07:38:43.75	1.94	29.38	-52.3	-54.4	17.3	0.00e+00	0	49	0	864026624	76	4528
2026-01-16 07:38:44.77	1.65	29.28	-52.2	-54.3	17.3	0.00e+00	0	49	0	866123776	76	4463
2026-01-16 07:38:45.78	1.37	29.18	-52.4	-54.5	17.2	0.00e+00	0	49	0	868220928	76	4581
2026-01-16 07:38:46.79	1.09	29.08	-52.9	-55.2	16.5	0.00e+00	0	49	0	870318080	76	4959
2026-01-16 07:38:47.79	0.81	28.97	-52.9	-55.3	16.5	0.00e+00	0	49	0	872415232	76	5007
2026-01-16 07:38:48.80	0.53	28.87	-53.4	-56.0	15.7	0.00e+00	0	49	0	873463808	77	5127
2026-01-16 07:38:49.81	0.26	28.77	-53.5	-56.2	15.5	0.00e+00	0	49	0	875560960	77	5232
2026-01-16 07:38:50.82	359.98	28.67	-52.9	-55.3	16.2	0.00e+00	0	49	0	877658112	77	4709
2026-01-16 07:38:51.83	359.71	28.56	-52.4	-54.4	17.2	0.00e+00	0	49	0	879755264	76	4529
2026-01-16 07:38:52.84	359.44	28.46	-52.2	-54.2	17.5	0.00e+00	0	49	0	881852416	76	4420
2026-01-16 07:38:53.85	359.17	28.35	-52.1	-54.0	17.7	0.00e+00	0	49	0	883949568	75	4549
2026-01-16 07:38:54.86	358.90	28.25	-51.9	-53.7	17.9	0.00e+00	0	49	0	884998144	75	4411
2026-01-16 07:38:55.88	358.63	28.14	-52.0	-53.9	17.7	0.00e+00	0	49	0	887095296	75	4529
2026-01-16 07:38:56.88	358.37	28.04	-51.9	-53.8	17.8	0.00e+00	0	49	0	889192448	75	4469
2026-01-16 07:38:57.89	358.11	27.93	-52.1	-54.1	17.5	0.00e+00	0	49	0	891289600	75	4619
2026-01-16 07:38:58.90	357.85	27.83	-52.2	-54.2	17.5	0.00e+00	0	49	0	892338176	75	4688
2026-01-16 07:38:59.91	357.59	27.72	-52.5	-54.7	17.0	0.00e+00	0	49	0	894435328	75	4946
2026-01-16 07:39:00.92	357.33	27.62	-52.2	-54.2	17.4	0.00e+00	0	49	0	896532480	75	4700
2026-01-16 07:39:01.93	357.08	27.51	-51.8	-53.6	18.0	0.00e+00	0	49	0	898629632	75	4375
2026-01-16 07:39:02.94	356.83	27.40	-51.3	-52.9	18.6	0.00e+00	0	49	0	900726784	74	4288
2026-01-16 07:39:03.95	356.57	27.30	-50.8	-52.3	19.2	0.00e+00	0	49	0	902823936	73	4219
2026-01-16 07:39:04.96	356.32	27.19	-50.7	-52.3	19.3	0.00e+00	0	49	0	903872512	73	4198
2026-01-16 07:39:05.97	356.08	27.08	-51.0	-52.6	19.0	0.00e+00	0	49	0	905969664	73	4345
2026-01-16 07:39:06.98	355.83	26.98	-51.0	-52.6	19.0	0.00e+00	0	49	0	908066816	73	4368
2026-01-16 07:39:07.99	355.58	26.87	-51.2	-52.9	18.7	0.00e+00	0	49	0	910163968	73	4498
2026-01-16 07:39:09.00	355.34	26.76	-51.1	-52.7	18.9	0.00e+00	0	49	0	912261120	73	4430
2026-01-16 07:39:10.01	355.10	26.65	-51.0	-52.6	18.9	0.00e+00	0	49	0	913309696	73	4367
2026-01-16 07:39:11.02	354.86	26.55	-50.8	-52.4	19.1	0.00e+00	0	49	0	915406848	73	4261
2026-01-16 07:39:12.03	354.62	26.44	-50.7	-52.3	19.3	0.00e+00	0	49	0	917504000	73	4197
2026-01-16 07:39:13.04	354.38	26.33	-50.2	-51.6	19.9	0.00e+00	0	49	0	919601152	72	4126
2026-01-16 07:39:14.04	354.15	26.22	-50.0	-51.4	20.0	0.00e+00	0	49	0	921698304	72	4021
2026-01-16 07:39:15.05	353.92	26.11	-50.0	-51.4	20.0	0.00e+00	0	49	0	922746880	72	4035
2026-01-16 07:39:16.06	353.69	26.01	-50.1	-51.5	19.9	0.00e+00	0	49	0	924844032	72	4086
2026-01-16 07:39:17.07	353.46	25.90	-50.5	-52.1	19.4	0.00e+00	0	49	0	926941184	72	4341
2026-01-16 07:39:18.08	353.23	25.79	-50.9	-52.6	18.9	0.00e+00	0	49	0	929038336	72	4606
2026-01-16 07:39:19.09	353.00	25.68	-51.3	-53.1	18.5	0.00e+00	0	49	0	931135488	73	4602
2026-01-16 07:39:20.11	352.77	25.57	-51.2	-53.0	18.5	0.00e+00	0	49	0	932184064	73	4550
2026-01-16 07:39:21.12	352.55	25.46	-51.1	-52.8	18.7	0.00e+00	0	49	0	934281216	73	4481
2026-01-16 07:39:22.13	352.32	25.35	-50.7	-52.2	19.3	0.00e+00	0	49	0	936378368	73	4188
2026-01-16 07:39:23.13	352.11	25.25	-50.3	-51.8	19.7	0.00e+00	0	49	0	938475520	72	4219
2026-01-16 07:39:24.14	351.89	25.14	-50.0	-51.4	20.0	0.00e+00	0	49	0	940572672	72	4026
2026-01-16 07:39:25.15	351.67	25.03	-50.1	-51.4	20.0	0.00e+00	0	49	0	942669824	72	4050
2026-01-16 07:39:26.16	351.45	24.92	-50.1	-51.4	20.1	0.00e+00	0	49	0	943718400	71	4286
2026-01-16 07:39:27.17	351.24	24.81	-50.2	-51.6	19.7	0.00e+00	0	49	0	945815552	71	4378
2026-01-16 07:39:28.18	351.02	24.70	-50.3	-51.8	19.7	0.00e+00	0	49	0	947912704	71	4463
2026-01-16 07:39:29.19	350.81	24.59	-50.1	-51.5	19.9	0.00e+00	0	49	0	950009856	71	4333
2026-01-16 07:39:30.20	350.60	24.48	-50.3	-51.7	19.9	0.00e+00	0	49	0	951058432	71	4416
2026-01-16 07:39:31.21	350.39	24.38	-50.2	-51.6	19.9	0.00e+00	0	49	0	953155584	71	4360
2026-01-16 07:39:32.22	350.19	24.27	-50.3	-51.7	19.8	0.00e+00	0	49	0	955252736	71	4411
2026-01-16 07:39:33.23	349.98	24.16	-50.2	-51.6	19.8	0.00e+00	0	49	0	957349888	71	4376
2026-01-16 07:39:34.23	349.78	24.05	-50.2	-51.7	19.8	0.00e+00	0	49	0	959447040	71	4393
2026-01-16 07:39:35.24	349.57	23.94	-50.1	-51.5	20.0	0.00e+00	0	49	0	961544192	71	4314
2026-01-16 07:39:36.25	349.37	23.83	-50.0	-51.3	20.0	0.00e+00	0	49	0	962592768	71	4238
2026-01-16 07:39:37.26	349.17	23.72	-49.8	-51.1	20.3	0.00e+00	0	49	0	964689920	71	4123
2026-01-16 07:39:38.27	348.97	23.62	-50.1	-51.5	20.0	0.00e+00	0	49	0	966787072	71	4326
2026-01-16 07:39:39.28	348.78	23.51	-50.2	-51.6	19.9	0.00e+00	0	49	0	968884224	71	4366
2026-01-16 07:39:40.29	348.58	23.40	-50.3	-51.8	19.7	0.00e+00	0	49	0	970981376	71	4453
2026-01-16 07:39:41.30	348.39	23.29	-50.5	-52.0	19.4	0.00e+00	0	49	0	972029952	71	4575
2026-01-16 07:39:42.31	348.19	23.18	-50.5	-52.0	19.4	0.00e+00	0	49	0	974127104	72	4330
2026-01-16 07:39:43.32	348.00	23.08	-50.5	-52.0	19.4	0.00e+00	0	49	0	976224256	72	4306
2026-01-16 07:39:44.33	347.81	22.97	-50.4	-51.9	19.5	0.00e+00	0	49	0	978321408	72	4261
2026-01-16 07:39:45.34	347.62	22.86	-50.4	-51.9	19.6	0.00e+00	0	49	0	980418560	72	4247
2026-01-16 07:39:46.35	347.43	22.75	-50.3	-51.8	19.6	0.00e+00	0	49	0	981467136	72	4201
2026-01-16 07:39:47.36	347.25	22.65	-50.8	-52.4	19.1	0.00e+00	0	49	0	983564288	72	4501
2026-01-16 07:39:48.37	347.06	22.54	-50.9	-52.5	19.0	0.00e+00	0	49	0	985661440	72	4576
2026-01-16 07:39:49.38	346.88	22.43	-51.3	-53.1	18.4	0.00e+00	0	49	0	987758592	73	4612
2026-01-16 07:39:50.39	346.69	22.32	-51.2	-52.9	18.6	0.00e+00	0	49	0	989855744	73	4531
2026-01-16 07:39:51.40	346.51	22.22	-51.1	-52.8	18.7	0.00e+00	0	49	0	990904320	73	4452
2026-01-16 07:39:52.41	346.33	22.11	-51.2	-52.9	18.6	0.00e+00	0	49	0	993001472	73	4509
2026-01-16 07:39:53.42	346.15	22.00	-51.0	-52.7	18.8	0.00e+00	0	49	0	995098624	73	4426
2026-01-16 07:39:54.43	345.97	21.90	-51.0	-52.6	18.8	0.00e+00	0	49	0	997195776	73	4379
2026-01-16 07:39:55.43	345.80	21.79	-51.0	-52.7	18.8	0.00e+00	0	49	0	999292928	73	4405
2026-01-16 07:39:56.44	345.62	21.69	-51.2	-52.9	18.6	0.00e+00	0	49	0	1000341504	73	4510
2026-01-16 07:39:57.45	345.45	21.58	-51.0	-52.6	18.8	0.00e+00	0	49	0	1002438656	73	4383
2026-01-16 07:39:58.46	345.28	21.47	-51.5	-53.3	18.2	0.00e+00	0	49	0	1004535808	73	4723
2026-01-16 07:39:59.47	345.11	21.37	-51.5	-53.3	18.3	0.00e+00	0	49	0	1006632960	73	4718
2026-01-16 07:40:00.48	344.94	21.26	-51.7	-53.6	18.0	0.00e+00	0	49	0	1008730112	74	4633
2026-01-16 07:40:01.49	344.77	21.16	-51.5	-53.3	18.2	0.00e+00	0	49	0	1009778688	74	4449
2026-01-16 07:40:02.50	344.60	21.05	-51.5	-53.4	18.2	0.00e+00	0	49	0	1011875840	74	4503
2026-01-16 07:40:03.51	344.43	20.95	-51.4	-53.1	18.3	0.00e+00	0	49	0	1013972992	74	4368
2026-01-16 07:40:04.52	344.27	20.84	-51.3	-53.1	18.3	0.00e+00	0	49	0	1016070144	74	4348
2026-01-16 07:40:05.53	344.10	20.74	-51.3	-53.1	18.3	0.00e+00	0	49	0	1018167296	74	4354
2026-01-16 07:40:06.54	343.94	20.63	-51.4	-53.2	18.2	0.00e+00	0	49	0	1020264448	74	4422
2026-01-16 07:40:07.55	343.77	20.53	-51.3	-53.0	18.1	0.00e+00	0	49	0	1021313024	74	4322
2026-01-16 07:40:08.56	343.61	20.42	-51.4	-53.1	18.3	0.00e+00	0	49	0	1023410176	74	4368
2026-01-16 07:40:09.56	343.45	20.32	-51.2	-52.9	18.5	0.00e+00	0	49	0	1025507328	74	4271
2026-01-16 07:40:10.57	343.30	20.22	-50.8	-52.4	18.9	0.00e+00	0	49	0	1027604480	73	4283
2026-01-16 07:40:11.58	343.14	20.11	-50.6	-52.1	19.2	0.00e+00	0	49	0	1028653056	73	4140
2026-01-16 07:40:12.59	342.98	20.01	-50.6	-52.1	19.2	0.00e+00	0	49	0	1030750208	72	4381
2026-01-16 07:40:13.60	342.82	19.91	-50.5	-52.0	19.4	0.00e+00	0	49	0	1032847360	72	4297
2026-01-16 07:40:14.61	342.67	19.80	-50.4	-51.9	19.5	0.00e+00	0	49	0	1034944512	72	4258
2026-01-16 07:40:15.62	342.52	19.70	-50.4	-51.9	19.6	0.00e+00	0	49	0	1037041664	72	4266
2026-01-16 07:40:16.63	342.36	19.60	-50.2	-51.7	19.7	0.00e+00	0	49	0	1039138816	72	4151
2026-01-16 07:40:17.64	342.21	19.50	-50.2	-51.6	19.7	0.00e+00	0	49	0	1040187392	72	4137
2026-01-16 07:40:18.65	342.06	19.40	-50.5	-52.0	19.4	0.00e+00	0	49	0	1042284544	72	4296
2026-01-16 07:40:19.66	341.91	19.29	-50.3	-51.7	19.6	0.00e+00	0	49	0	1044381696	72	4189
2026-01-16 07:40:20.67	341.76	19.19	-50.3	-51.7	19.6	0.00e+00	0	49	0	1046478848	72	4168
2026-01-16 07:40:21.68	341.62	19.09	-50.1	-51.6	19.7	0.00e+00	0	49	0	1048576000	72	4101
2026-01-16 07:40:22.69	341.47	18.99	-50.2	-51.6	19.7	0.00e+00	0	49	0	1049624576	72	4133
2026-01-16 07:40:23.69	341.33	18.89	-50.0	-51.3	20.0	0.00e+00	0	49	0	1051721728	71	4236
2026-01-16 07:40:24.70	341.18	18.79	-50.2	-51.6	19.7	0.00e+00	0	49	0	1053818880	71	4376
2026-01-16 07:40:25.71	341.04	18.69	-50.0	-51.4	19.9	0.00e+00	0	49	0	1055916032	71	4274
2026-01-16 07:40:26.72	340.89	18.59	-49.9	-51.3	20.0	0.00e+00	0	49	0	1056964608	71	4215
2026-01-16 07:40:27.73	340.75	18.49	-50.1	-51.5	19.9	0.00e+00	0	49	0	1059061760	71	4304
2026-01-16 07:40:28.74	340.61	18.39	-50.3	-51.7	19.6	0.00e+00	0	49	0	1061158912	71	4418
2026-01-16 07:40:29.75	340.47	18.29	-50.5	-52.0	19.4	0.00e+00	0	49	0	1063256064	71	4571
2026-01-16 07:40:30.76	340.33	18.19	-50.6	-52.1	19.2	0.00e+00	0	49	0	1065353216	71	4650
2026-01-16 07:40:31.77	340.20	18.09	-51.0	-52.7	18.7	0.00e+00	0	49	0	1067450368	72	4662
2026-01-16 07:40:32.78	340.06	17.99	-51.3	-53.0	18.3	0.00e+00	0	49	0	1068498944	73	4589
2026-01-16 07:40:33.79	339.92	17.89	-51.9	-53.8	17.6	0.00e+00	0	49	0	1070596096	74	4759
2026-01-16 07:40:34.80	339.79	17.79	-52.4	-54.5	16.9	0.00e+00	0	49	0	1072693248	75	4858
2026-01-16 07:40:35.80	339.65	17.69	-52.8	-55.2	16.3	0.00e+00	0	49	0	1074790400	76	4929
2026-01-16 07:40:36.82	339.52	17.60	-53.2	-55.9	15.6	0.00e+00	0	49	0	1076887552	77	5047
2026-01-16 07:40:37.83	339.39	17.50	-53.2	-55.8	15.6	0.00e+00	0	49	0	1077936128	77	5004
2026-01-16 07:40:38.83	339.26	17.40	-53.2	-55.8	15.6	0.00e+00	0	49	0	1080033280	77	5012
2026-01-16 07:40:39.84	339.13	17.30	-53.1	-55.6	15.9	0.00e+00	0	49	0	1082130432	77	4878
2026-01-16 07:40:40.85	339.00	17.21	-52.7	-55.0	16.4	0.00e+00	0	49	0	1084227584	77	4576
2026-01-16 07:40:41.86	338.87	17.11	-52.2	-54.3	17.1	0.00e+00	0	49	0	1086324736	76	4459
2026-01-16 07:40:42.87	338.74	17.01	-51.8	-53.7	17.7	0.00e+00	0	49	0	1087373312	75	4431
2026-01-16 07:40:43.88	338.61	16.92	-51.7	-53.6	17.8	0.00e+00	0	49	0	1089470464	75	4356
2026-01-16 07:40:44.89	338.49	16.82	-51.1	-52.8	18.5	0.00e+00	0	49	0	1091567616	74	4212
2026-01-16 07:40:45.90	338.36	16.72	-51.1	-52.8	18.5	0.00e+00	0	49	0	1093664768	74	4217
2026-01-16 07:40:46.91	338.23	16.63	-51.1	-52.8	18.6	0.00e+00	0	49	0	1095761920	73	4442
2026-01-16 07:40:47.92	338.11	16.53	-51.2	-53.0	18.4	0.00e+00	0	49	0	1096810496	73	4550
2026-01-16 07:40:48.93	337.99	16.44	-51.4	-53.2	18.1	0.00e+00	0	49	0	1098907648	73	4695
2026-01-16 07:40:49.94	337.87	16.34	-51.7	-53.6	17.7	0.00e+00	0	49	0	1101004800	73	4909
2026-01-16 07:40:50.95	337.74	16.25	-51.8	-53.8	17.6	0.00e+00	0	49	0	1103101952	74	4710
2026-01-16 07:40:51.95	337.62	16.15	-52.1	-54.2	17.2	0.00e+00	0	49	0	1105199104	74	4956
2026-01-16 07:40:52.96	337.50	16.06	-52.3	-54.4	16.9	0.00e+00	0	49	0	1106247680	75	4800
2026-01-16 07:40:53.98	337.38	15.96	-52.0	-54.0	17.3	0.00e+00	0	49	0	1108344832	75	4596
2026-01-16 07:40:54.98	337.27	15.87	-51.9	-53.8	17.5	0.00e+00	0	49	0	1110441984	75	4493
2026-01-16 07:40:55.99	337.15	15.78	-51.6	-53.5	17.8	7.00e-07	0	49	0	1112539136	75	4312
2026-01-16 07:40:57.00	337.03	15.68	-51.3	-53.1	18.2	0.00e+00	0	49	0	1114636288	74	4364
2026-01-16 07:40:58.01	336.92	15.59	-51.2	-53.0	18.3	0.00e+00	0	49	0	1115684864	74	4318
2026-01-16 07:40:59.02	336.80	15.50	-51.4	-53.2	18.1	0.00e+00	0	49	0	1117782016	74	4436
2026-01-16 07:41:00.03	336.68	15.40	-51.1	-52.8	18.5	0.00e+00	0	49	0	1119879168	74	4219
2026-01-16 07:41:01.03	336.57	15.31	-51.1	-52.8	18.4	0.00e+00	0	49	0	1121976320	74	4238
2026-01-16 07:41:02.05	336.46	15.22	-51.2	-53.0	18.3	0.00e+00	0	49	0	1124073472	74	4317
2026-01-16 07:41:03.05	336.35	15.13	-51.1	-52.9	18.4	0.00e+00	0	49	0	1126170624	74	4265
2026-01-16 07:41:04.06	336.23	15.04	-51.3	-53.2	18.1	0.00e+00	0	49	0	1127219200	74	4395
2026-01-16 07:41:05.07	336.12	14.94	-51.4	-53.3	18.0	0.00e+00	0	49	0	1129316352	74	4449
2026-01-16 07:41:06.08	336.01	14.85	-51.4	-53.2	18.1	0.00e+00	0	49	0	1131413504	74	4424
2026-01-16 07:41:07.09	335.90	14.76	-51.4	-53.3	18.0	0.00e+00	0	49	0	1133510656	74	4443
2026-01-16 07:41:08.10	335.79	14.67	-51.5	-53.3	17.9	0.00e+00	0	49	0	1134559232	74	4474
2026-01-16 07:41:09.11	335.69	14.58	-51.5	-53.3	17.9	0.00e+00	0	49	0	1136656384	74	4467
2026-01-16 07:41:10.12	335.58	14.49	-51.6	-53.5	17.7	0.00e+00	0	49	0	1138753536	74	4574
2026-01-16 07:41:11.13	335.47	14.40	-51.6	-53.5	17.7	0.00e+00	0	49	0	1140850688	74	4592
2026-01-16 07:41:12.14	335.36	14.31	-51.7	-53.6	17.7	0.00e+00	0	49	0	1142947840	74	4608
2026-01-16 07:41:13.15	335.26	14.22	-51.7	-53.6	17.6	0.00e+00	0	49	0	1145044992	74	4650
2026-01-16 07:41:14.15	335.15	14.13	-51.9	-53.9	17.4	0.00e+00	0	49	0	1146093568	74	4783
2026-01-16 07:41:15.16	335.05	14.04	-51.8	-53.7	17.5	0.00e+00	0	49	0	1148190720	74	4677
2026-01-16 07:41:16.17	334.95	13.95	-52.0	-54.0	17.3	0.00e+00	0	49	0	1150287872	74	4832
2026-01-16 07:41:17.18	334.84	13.86	-51.9	-53.9	17.4	0.00e+00	0	49	0	1152385024	74	4773
2026-01-16 07:41:18.19	334.74	13.77	-51.7	-53.6	17.6	0.00e+00	0	49	0	1154482176	74	4626
2026-01-16 07:41:19.20	334.64	13.69	-51.5	-53.3	18.0	0.00e+00	0	49	0	1155530752	74	4456
2026-01-16 07:41:20.21	334.54	13.60	-51.4	-53.2	18.0	0.00e+00	0	49	0	1157627904	74	4392
2026-01-16 07:41:21.22	334.44	13.51	-51.2	-53.0	18.2	0.00e+00	0	49	0	1159725056	74	4305
2026-01-16 07:41:22.23	334.34	13.42	-51.2	-52.9	18.3	0.00e+00	0	49	0	1161822208	74	4262
2026-01-16 07:41:23.24	334.24	13.34	-51.2	-53.0	18.2	0.00e+00	0	49	0	1163919360	74	4299
2026-01-16 07:41:24.25	334.14	13.25	-51.2	-53.0	18.2	0.00e+00	0	49	0	1164967936	74	4299
2026-01-16 07:41:25.26	334.04	13.16	-51.3	-53.0	18.2	0.00e+00	0	49	0	1167065088	74	4328
2026-01-16 07:41:26.27	333.94	13.07	-51.4	-53.2	18.0	0.00e+00	0	49	0	1169162240	74	4429
2026-01-16 07:41:27.27	333.85	12.99	-51.6	-53.5	17.7	0.00e+00	0	49	0	1171259392	74	4594
2026-01-16 07:41:28.28	333.75	12.90	-51.8	-53.8	17.5	0.00e+00	0	49	0	1173356544	74	4713
2026-01-16 07:41:29.29	333.65	12.82	-52.1	-54.3	17.0	0.00e+00	0	49	0	1174405120	74	4989
2026-01-16 07:41:30.30	333.56	12.73	-52.5	-54.8	16.4	0.00e+00	0	49	0	1176502272	75	5015
2026-01-16 07:41:31.31	333.46	12.64	-52.8	-55.2	16.0	0.00e+00	0	49	0	1178599424	76	4972
2026-01-16 07:41:32.32	333.37	12.56	-53.0	-55.6	15.7	0.00e+00	0	49	0	1180696576	76	5160
2026-01-16 07:41:33.33	333.28	12.47	-53.3	-56.0	15.3	0.00e+00	0	49	0	1182793728	77	5127
2026-01-16 07:41:34.34	333.18	12.39	-53.3	-56.1	15.1	4.50e-06	0	49	0	1184890880	77	5178
2026-01-16 07:41:35.35	333.09	12.30	-53.4	-56.3	15.0	0.00e+00	0	49	0	1185939456	77	5307
2026-01-16 07:41:36.36	333.00	12.22	-53.3	-56.1	15.1	0.00e+00	0	49	0	1188036608	77	5163
2026-01-16 07:41:37.37	332.91	12.13	-53.2	-55.9	15.3	0.00e+00	0	49	0	1190133760	77	5066
2026-01-16 07:41:38.38	332.82	12.05	-52.9	-55.5	15.7	0.00e+00	0	49	0	1192230912	77	4851
2026-01-16 07:41:39.39	332.73	11.97	-53.0	-55.6	15.7	0.00e+00	0	49	0	1193279488	77	4874
2026-01-16 07:41:40.39	332.64	11.88	-52.8	-55.3	15.9	0.00e+00	0	49	0	1195376640	77	4730
2026-01-16 07:41:41.40	332.55	11.80	-52.5	-54.8	16.5	0.00e+00	0	49	0	1197473792	76	4712
2026-01-16 07:41:42.41	332.46	11.72	-52.4	-54.7	16.5	0.00e+00	0	49	0	1199570944	76	4691
2026-01-16 07:41:43.42	332.37	11.63	-52.2	-54.3	16.9	0.00e+00	0	49	0	1201668096	76	4476
2026-01-16 07:41:44.43	332.29	11.55	-52.1	-54.2	16.9	0.00e+00	0	49	0	1203765248	76	4426
2026-01-16 07:41:45.44	332.20	11.47	-51.9	-54.0	17.2	0.00e+00	0	49	0	1204813824	75	4569
2026-01-16 07:41:46.45	332.11	11.39	-51.7	-53.6	17.5	0.00e+00	0	49	0	1206910976	75	4391
2026-01-16 07:41:47.46	332.03	11.30	-51.7	-53.6	17.5	0.00e+00	0	49	0	1209008128	75	4380
2026-01-16 07:41:48.47	331.94	11.22	-51.6	-53.6	17.5	0.00e+00	0	49	0	1211105280	75	4353
2026-01-16 07:41:49.48	331.85	11.14	-51.5	-53.4	17.4	0.00e+00	0	49	0	1213202432	75	4244
2026-01-16 07:41:50.49	331.77	11.06	-51.5	-53.3	17.7	0.00e+00	0	49	0	1214251008	74	4486
2026-01-16 07:41:51.50	331.69	10.98	-51.4	-53.3	17.8	0.00e+00	0	49	0	1216348160	74	4442
2026-01-16 07:41:52.51	331.60	10.90	-51.4	-53.2	17.8	0.00e+00	0	49	0	1218445312	74	4431
2026-01-16 07:41:53.52	331.52	10.81	-51.4	-53.2	17.8	0.00e+00	0	49	0	1220542464	74	4421
2026-01-16 07:41:54.52	331.44	10.73	-51.3	-53.2	17.9	0.00e+00	0	49	0	1221591040	74	4407
2026-01-16 07:41:55.53	331.36	10.65	-51.3	-53.1	17.9	0.00e+00	0	49	0	1223688192	74	4372
2026-01-16 07:41:56.55	331.27	10.57	-51.2	-53.0	18.0	0.00e+00	0	49	0	1225785344	74	4324
2026-01-16 07:41:57.55	331.19	10.49	-51.4	-53.2	17.8	0.00e+00	0	49	0	1227882496	74	4436
2026-01-16 07:41:58.56	331.11	10.41	-51.4	-53.2	17.8	0.00e+00	0	49	0	1229979648	74	4433
2026-01-16 07:41:59.57	331.03	10.33	-51.3	-53.2	17.9	0.00e+00	0	49	0	1232076800	74	4393
2026-01-16 07:42:00.58	330.95	10.25	-51.5	-53.3	17.7	0.00e+00	0	49	0	1233125376	74	4493
2026-01-16 07:42:01.59	330.87	10.17	-51.5	-53.4	17.6	0.00e+00	0	49	0	1235222528	74	4520
2026-01-16 07:42:02.60	330.79	10.10	-51.7	-53.6	17.4	0.00e+00	0	49	0	1237319680	74	4617
2026-01-16 07:42:03.61	330.71	10.02	-51.7	-53.6	17.4	0.00e+00	0	49	0	1239416832	74	4632
2026-01-16 07:42:04.62	330.64	9.94	-51.8	-53.7	17.3	0.00e+00	0	49	0	1241513984	74	4693
