passes_logs/2026/01/16/R3.2S_Murmansk/R3.2S_Murmansk__20260116_015130_FENGYUN_3D_rec.log

#Pass ID: 20260116_015130_FENGYUN 3D
#Satellite: FENGYUN 3D
#Configuration: FENGYUN 3D
#almurnet v.1.7.20251203
#Start time: 2026-01-16 01:51:29

#Version: 2.2.20231116
#Station: R3.2S_Murmansk
#Location: 33.079688 lon 68.888172 lat
#TLE: 1 43010U 17072A   26015.49690188 -.00000192  00000+0 -69217-4 0  9996
#TLE: 2 43010  98.9932 347.3205 0002350 106.2275 253.9159 14.19694721423329

#Time	Az	El	Level	Level2	SNR	BER	BlckErr	Temp	State	Recorded	gain1	gain2
2026-01-16 01:51:29.85	22.15	1.96	-56.3	-67.1	3.8	8.42e-01	0	41	0	0	84	12374
2026-01-16 01:51:30.85	22.18	2.02	-56.2	-67.1	3.8	8.45e-01	0	41	104	0	83	13046
2026-01-16 01:51:31.86	22.21	2.08	-56.2	-66.3	3.9	8.45e-01	0	41	104	0	83	11892
2026-01-16 01:51:32.87	22.24	2.15	-55.9	-64.6	4.2	8.02e-01	0	41	0	0	83	9770
2026-01-16 01:51:33.88	22.27	2.21	-56.1	-65.5	4.0	8.41e-01	0	41	104	0	83	10859
2026-01-16 01:51:34.89	22.30	2.27	-55.9	-64.4	4.2	8.34e-01	0	42	0	0	83	9598
2026-01-16 01:51:35.90	22.33	2.34	-56.2	-66.5	3.8	8.46e-01	0	42	104	0	83	12183
2026-01-16 01:51:36.91	22.36	2.40	-56.1	-66.1	3.8	8.45e-01	0	42	104	0	83	11594
2026-01-16 01:51:37.92	22.39	2.46	-56.1	-65.8	4.0	8.39e-01	0	42	0	0	83	11230
2026-01-16 01:51:38.93	22.42	2.53	-55.8	-63.9	4.5	8.37e-01	0	42	0	0	83	8999
2026-01-16 01:51:39.94	22.45	2.59	-55.8	-63.6	4.6	7.91e-01	0	42	0	0	83	8747
2026-01-16 01:51:40.95	22.48	2.66	-55.7	-63.3	4.7	7.51e-01	0	42	0	0	83	8452
2026-01-16 01:51:41.96	22.51	2.72	-55.4	-61.7	5.7	7.63e-01	0	42	0	0	82	7433
2026-01-16 01:51:42.97	22.54	2.79	-55.5	-62.4	5.2	7.66e-01	0	42	0	0	82	8011
2026-01-16 01:51:43.98	22.57	2.85	-54.8	-59.9	7.2	1.46e-01	0	42	0	4194304	81	6348
2026-01-16 01:51:44.99	22.61	2.92	-54.9	-60.0	7.1	1.33e-01	0	42	0	9437184	81	6469
2026-01-16 01:51:46.00	22.64	2.98	-55.2	-61.0	6.1	2.20e-01	0	42	0	15728640	81	7274
2026-01-16 01:51:47.01	22.67	3.05	-54.5	-58.8	8.1	3.56e-02	0	42	0	20971520	80	5986
2026-01-16 01:51:48.02	22.70	3.11	-54.7	-59.5	7.5	8.93e-02	0	42	0	27262976	80	6472
2026-01-16 01:51:49.02	22.73	3.18	-54.0	-57.8	9.3	4.17e-02	0	42	0	32505856	79	5593
2026-01-16 01:51:50.03	22.76	3.24	-54.4	-58.7	8.3	3.52e-02	0	42	0	37748736	79	6260
2026-01-16 01:51:51.04	22.80	3.31	-53.9	-57.6	9.5	3.68e-02	0	42	0	44040192	79	5487
2026-01-16 01:51:52.05	22.83	3.37	-53.0	-55.8	11.4	1.28e-03	0	42	0	50331648	77	5039
2026-01-16 01:51:53.07	22.86	3.44	-51.8	-53.9	13.3	5.03e-04	0	42	0	55574528	75	4536
2026-01-16 01:51:54.08	22.89	3.51	-52.6	-55.2	12.0	4.22e-04	0	42	0	60817408	75	5260
2026-01-16 01:51:55.09	22.93	3.57	-52.9	-55.8	11.4	2.35e-03	0	43	0	67108864	77	4990
2026-01-16 01:51:56.10	22.96	3.64	-51.0	-52.9	14.5	2.20e-06	0	43	0	72351744	73	4499
2026-01-16 01:51:57.11	22.99	3.71	-50.4	-52.1	15.2	2.63e-05	0	43	0	77594624	72	4361
2026-01-16 01:51:58.12	23.02	3.77	-50.1	-51.7	15.6	0.00e+00	0	43	0	83886080	72	4177
2026-01-16 01:51:59.13	23.06	3.84	-50.5	-52.2	15.2	0.00e+00	0	43	0	89128960	71	4681
2026-01-16 01:52:00.14	23.09	3.91	-50.3	-52.0	15.3	1.10e-06	0	43	0	94371840	72	4324
2026-01-16 01:52:01.15	23.12	3.97	-50.2	-51.8	15.6	0.00e+00	0	43	0	100663296	71	4493
2026-01-16 01:52:02.16	23.16	4.04	-49.4	-50.9	16.5	0.00e+00	0	43	0	106954752	69	4502
2026-01-16 01:52:03.17	23.19	4.11	-49.5	-50.9	16.5	0.00e+00	0	43	0	112197632	69	4542
2026-01-16 01:52:04.18	23.22	4.18	-49.1	-50.4	17.0	0.00e+00	0	43	0	117440512	69	4281
2026-01-16 01:52:05.19	23.26	4.24	-50.6	-52.4	14.9	0.00e+00	0	43	0	123731968	72	4499
2026-01-16 01:52:06.20	23.29	4.31	-48.8	-50.1	17.3	0.00e+00	0	43	0	128974848	69	4119
2026-01-16 01:52:07.22	23.33	4.38	-51.5	-53.6	13.7	0.00e+00	0	43	0	135266304	73	4885
2026-01-16 01:52:08.23	23.36	4.45	-50.6	-52.3	15.1	0.00e+00	0	43	0	140509184	73	4225
2026-01-16 01:52:09.24	23.39	4.52	-51.8	-54.1	13.3	4.50e-06	0	43	0	145752064	74	4881
2026-01-16 01:52:10.25	23.43	4.59	-51.8	-54.0	13.3	2.74e-05	0	43	0	152043520	74	4862
2026-01-16 01:52:11.26	23.46	4.66	-52.6	-55.1	12.2	9.51e-04	0	43	0	158334976	76	4923
2026-01-16 01:52:12.27	23.50	4.73	-53.0	-55.9	11.3	1.86e-03	0	44	0	163577856	76	5365
2026-01-16 01:52:13.28	23.53	4.79	-53.5	-56.8	10.4	3.50e-03	0	43	0	168820736	77	5634
2026-01-16 01:52:14.29	23.57	4.86	-53.8	-57.4	9.8	1.27e-02	0	43	0	175112192	78	5688
2026-01-16 01:52:15.30	23.60	4.93	-54.4	-58.6	8.5	4.22e-02	0	44	0	180355072	79	6194
2026-01-16 01:52:16.31	23.64	5.00	-54.6	-59.1	8.0	6.87e-02	0	44	0	185597952	79	6506
2026-01-16 01:52:17.32	23.67	5.07	-54.5	-58.8	8.3	6.64e-02	0	44	0	191889408	79	6297
2026-01-16 01:52:18.33	23.71	5.14	-55.0	-60.4	6.7	1.47e-01	0	44	0	197132288	80	7182
2026-01-16 01:52:19.34	23.75	5.21	-55.5	-62.5	5.0	8.25e-01	0	44	0	199229440	81	8583
2026-01-16 01:52:20.35	23.78	5.28	-53.8	-57.0	10.3	1.90e-02	0	44	0	204472320	79	5130
2026-01-16 01:52:21.36	23.82	5.36	-52.3	-54.6	13.2	0.00e+00	0	44	0	210763776	74	5178
2026-01-16 01:52:22.37	23.85	5.43	-55.0	-60.0	7.1	6.53e-01	0	44	0	213909504	82	6089
2026-01-16 01:52:23.38	23.89	5.50	-50.3	-51.8	15.9	0.00e+00	0	44	0	220200960	72	4212
2026-01-16 01:52:24.39	23.93	5.57	-49.6	-51.0	16.8	0.00e+00	0	44	0	225443840	71	4081
2026-01-16 01:52:25.40	23.96	5.64	-49.8	-51.2	16.6	0.00e+00	0	44	0	230686720	71	4183
2026-01-16 01:52:26.41	24.00	5.71	-50.2	-51.7	16.2	0.00e+00	0	44	0	236978176	70	4659
2026-01-16 01:52:27.42	24.04	5.78	-49.2	-50.5	17.3	0.00e+00	0	44	0	242221056	70	4060
2026-01-16 01:52:28.43	24.07	5.86	-49.1	-50.3	17.5	0.00e+00	0	44	0	247463936	69	4237
2026-01-16 01:52:29.44	24.11	5.93	-49.4	-50.8	17.0	0.00e+00	0	44	0	253755392	69	4468
2026-01-16 01:52:30.45	24.15	6.00	-49.4	-50.7	17.1	0.00e+00	0	44	0	258998272	70	4193
2026-01-16 01:52:31.46	24.19	6.07	-48.9	-50.1	17.7	0.00e+00	0	44	0	265289728	69	4143
2026-01-16 01:52:32.47	24.22	6.15	-49.2	-50.5	17.4	0.00e+00	0	44	0	270532608	69	4303
2026-01-16 01:52:33.48	24.26	6.22	-48.9	-50.1	17.7	0.00e+00	0	44	0	276824064	69	4143
2026-01-16 01:52:34.49	24.30	6.29	-49.3	-50.6	17.3	0.00e+00	0	44	0	282066944	69	4369
2026-01-16 01:52:35.50	24.34	6.37	-48.6	-49.8	18.1	0.00e+00	0	44	0	288358400	69	3961
2026-01-16 01:52:36.51	24.38	6.44	-48.6	-49.8	18.1	0.00e+00	0	44	0	293601280	69	3980
2026-01-16 01:52:37.52	24.42	6.51	-48.3	-49.5	18.5	0.00e+00	0	44	0	298844160	68	4065
2026-01-16 01:52:38.53	24.45	6.59	-48.1	-49.2	18.7	0.00e+00	0	44	0	305135616	68	3955
2026-01-16 01:52:39.54	24.49	6.66	-48.4	-49.5	18.4	0.00e+00	0	44	0	310378496	67	4331
2026-01-16 01:52:40.55	24.53	6.74	-47.5	-48.6	19.3	0.00e+00	0	45	0	316669952	66	4102
2026-01-16 01:52:41.56	24.57	6.81	-47.8	-48.8	19.0	0.00e+00	0	45	0	321912832	66	4237
2026-01-16 01:52:42.57	24.61	6.88	-47.5	-48.5	19.3	0.00e+00	0	44	0	328204288	66	4081
2026-01-16 01:52:43.58	24.65	6.96	-47.9	-49.0	18.9	0.00e+00	0	45	0	333447168	66	4316
2026-01-16 01:52:44.59	24.69	7.04	-47.2	-48.2	19.7	0.00e+00	0	45	0	338690048	66	3928
2026-01-16 01:52:45.60	24.73	7.11	-47.3	-48.3	19.6	0.00e+00	0	45	0	344981504	66	3995
2026-01-16 01:52:46.61	24.77	7.19	-47.5	-48.5	19.4	0.00e+00	0	45	0	350224384	66	4092
2026-01-16 01:52:47.62	24.81	7.26	-47.4	-48.4	19.5	0.00e+00	0	45	0	355467264	66	4021
2026-01-16 01:52:48.64	24.85	7.34	-47.3	-48.2	19.7	0.00e+00	0	45	0	361758720	66	3956
2026-01-16 01:52:49.65	24.89	7.42	-47.4	-48.4	19.6	0.00e+00	0	45	0	367001600	66	4021
2026-01-16 01:52:50.66	24.94	7.49	-47.2	-48.2	19.7	0.00e+00	0	45	0	373293056	66	3935
2026-01-16 01:52:51.67	24.98	7.57	-47.3	-48.3	19.7	0.00e+00	0	45	0	378535936	66	3968
2026-01-16 01:52:52.68	25.02	7.65	-47.2	-48.2	19.7	0.00e+00	0	45	0	384827392	66	3954
2026-01-16 01:52:53.69	25.06	7.72	-47.2	-48.2	19.7	0.00e+00	0	45	0	390070272	66	3931
2026-01-16 01:52:54.70	25.10	7.80	-46.9	-47.8	20.1	0.00e+00	0	45	0	396361728	65	3994
2026-01-16 01:52:55.71	25.14	7.88	-47.1	-48.1	19.9	0.00e+00	0	45	0	401604608	65	4100
2026-01-16 01:52:56.72	25.19	7.96	-47.0	-48.0	20.0	0.00e+00	0	45	0	406847488	65	4059
2026-01-16 01:52:57.73	25.23	8.03	-47.1	-48.1	19.9	0.00e+00	0	45	0	413138944	65	4105
2026-01-16 01:52:58.74	25.27	8.11	-46.8	-47.7	20.3	0.00e+00	0	45	0	418381824	65	3937
2026-01-16 01:52:59.75	25.31	8.19	-46.8	-47.7	20.2	0.00e+00	0	45	0	423624704	65	3956
2026-01-16 01:53:00.76	25.36	8.27	-47.0	-48.0	20.0	0.00e+00	0	45	0	429916160	65	4055
2026-01-16 01:53:01.77	25.40	8.35	-46.7	-47.7	20.4	0.00e+00	0	45	0	436207616	65	3917
2026-01-16 01:53:02.78	25.44	8.43	-46.8	-47.7	20.3	0.00e+00	0	45	0	441450496	65	3949
2026-01-16 01:53:03.78	25.49	8.51	-46.8	-47.8	20.3	0.00e+00	0	45	0	446693376	65	3963
2026-01-16 01:53:04.79	25.53	8.59	-46.7	-47.7	20.3	0.00e+00	0	45	0	452984832	65	3927
2026-01-16 01:53:05.80	25.57	8.67	-46.9	-47.9	20.2	0.00e+00	0	45	0	458227712	65	4017
2026-01-16 01:53:06.81	25.62	8.75	-46.7	-47.6	20.4	0.00e+00	0	45	0	463470592	65	3894
2026-01-16 01:53:07.82	25.66	8.83	-46.9	-47.8	20.2	0.00e+00	0	45	0	469762048	65	3991
2026-01-16 01:53:08.83	25.71	8.91	-46.8	-47.7	20.3	0.00e+00	0	45	0	475004928	65	3943
2026-01-16 01:53:09.84	25.75	8.99	-46.9	-47.9	20.2	0.00e+00	0	45	0	481296384	65	4005
2026-01-16 01:53:10.85	25.80	9.07	-46.8	-47.8	20.3	0.00e+00	0	45	0	486539264	65	3967
2026-01-16 01:53:11.86	25.84	9.15	-47.0	-47.9	20.2	0.00e+00	0	45	0	492830720	65	4039
2026-01-16 01:53:12.87	25.89	9.23	-47.1	-48.0	20.1	0.00e+00	0	46	0	498073600	65	4096
2026-01-16 01:53:13.88	25.93	9.32	-47.0	-48.0	20.1	0.00e+00	0	45	0	504365056	65	4083
2026-01-16 01:53:14.89	25.98	9.40	-47.1	-48.0	20.1	0.00e+00	0	45	0	509607936	65	4087
2026-01-16 01:53:15.90	26.03	9.48	-46.7	-47.7	20.4	0.00e+00	0	46	0	514850816	65	3931
2026-01-16 01:53:16.91	26.07	9.56	-46.9	-47.8	20.3	0.00e+00	0	46	0	521142272	65	3995
2026-01-16 01:53:17.92	26.12	9.65	-46.7	-47.6	20.5	0.00e+00	0	46	0	526385152	65	3911
2026-01-16 01:53:18.93	26.17	9.73	-46.8	-47.8	20.3	0.00e+00	0	46	0	531628032	65	3980
2026-01-16 01:53:19.94	26.22	9.81	-47.0	-47.9	20.2	0.00e+00	0	46	0	537919488	65	4039
2026-01-16 01:53:20.95	26.26	9.90	-46.6	-47.6	20.6	0.00e+00	0	46	0	544210944	65	3876
2026-01-16 01:53:21.96	26.31	9.98	-46.6	-47.5	20.6	0.00e+00	0	46	0	549453824	65	3864
2026-01-16 01:53:22.97	26.36	10.07	-46.7	-47.6	20.5	0.00e+00	0	46	0	554696704	65	3893
2026-01-16 01:53:23.98	26.41	10.15	-46.7	-47.6	20.5	0.00e+00	0	46	0	560988160	65	3904
2026-01-16 01:53:24.99	26.46	10.24	-46.7	-47.6	20.5	0.00e+00	0	46	0	566231040	65	3894
2026-01-16 01:53:26.01	26.50	10.32	-46.4	-47.4	20.8	0.00e+00	0	46	0	571473920	64	4011
2026-01-16 01:53:27.02	26.55	10.41	-46.5	-47.5	20.7	0.00e+00	0	46	0	577765376	64	4061
2026-01-16 01:53:28.03	26.60	10.49	-46.4	-47.4	20.8	0.00e+00	0	46	0	583008256	64	4015
2026-01-16 01:53:29.04	26.65	10.58	-46.4	-47.3	20.8	0.00e+00	0	46	0	589299712	64	3995
2026-01-16 01:53:30.05	26.70	10.67	-46.3	-47.2	20.9	0.00e+00	0	46	0	594542592	64	3958
2026-01-16 01:53:31.05	26.75	10.75	-46.6	-47.5	20.6	0.00e+00	0	46	0	600834048	64	4078
2026-01-16 01:53:32.06	26.80	10.84	-46.6	-47.5	20.7	0.00e+00	0	46	0	606076928	64	4073
2026-01-16 01:53:33.08	26.85	10.93	-46.6	-47.5	20.7	0.00e+00	0	46	0	612368384	64	4071
2026-01-16 01:53:34.08	26.90	11.01	-46.7	-47.6	20.5	0.00e+00	0	46	0	617611264	64	4145
2026-01-16 01:53:35.09	26.95	11.10	-46.2	-47.1	21.1	0.00e+00	0	46	0	622854144	64	3871
2026-01-16 01:53:36.10	27.01	11.19	-46.3	-47.2	21.0	0.00e+00	0	46	0	629145600	64	3931
2026-01-16 01:53:37.12	27.06	11.28	-46.1	-47.0	21.2	0.00e+00	0	46	0	634388480	64	3856
2026-01-16 01:53:38.13	27.11	11.37	-46.1	-47.0	21.2	0.00e+00	0	46	0	639631360	64	3852
2026-01-16 01:53:39.13	27.16	11.45	-46.1	-47.0	21.2	0.00e+00	0	46	0	645922816	64	3832
2026-01-16 01:53:40.14	27.22	11.54	-46.2	-47.1	21.1	0.00e+00	0	46	0	651165696	64	3876
2026-01-16 01:53:41.16	27.27	11.63	-46.3	-47.2	21.0	0.00e+00	0	46	0	657457152	64	3943
2026-01-16 01:53:42.17	27.32	11.72	-46.2	-47.1	21.1	0.00e+00	0	46	0	662700032	64	3910
2026-01-16 01:53:43.18	27.38	11.81	-46.1	-47.0	21.2	0.00e+00	0	46	0	668991488	64	3846
2026-01-16 01:53:44.19	27.43	11.91	-46.1	-47.0	21.2	0.00e+00	0	46	0	674234368	64	3854
2026-01-16 01:53:45.20	27.48	12.00	-46.2	-47.1	21.2	0.00e+00	0	46	0	679477248	64	3878
2026-01-16 01:53:46.21	27.54	12.09	-46.2	-47.1	21.1	0.00e+00	0	46	0	685768704	64	3890
2026-01-16 01:53:47.21	27.59	12.18	-46.2	-47.1	21.2	0.00e+00	0	46	0	691011584	64	3883
2026-01-16 01:53:48.23	27.65	12.27	-46.2	-47.1	21.2	0.00e+00	0	46	0	697303040	64	3870
2026-01-16 01:53:49.24	27.70	12.36	-46.3	-47.2	21.1	0.00e+00	0	46	0	702545920	64	3919
2026-01-16 01:53:50.25	27.76	12.46	-46.3	-47.2	21.1	0.00e+00	0	46	0	707788800	64	3923
2026-01-16 01:53:51.26	27.81	12.55	-46.2	-47.1	21.1	0.00e+00	0	46	0	714080256	64	3904
2026-01-16 01:53:52.27	27.87	12.64	-46.2	-47.1	21.2	0.00e+00	0	46	0	720371712	64	3886
2026-01-16 01:53:53.28	27.93	12.74	-46.2	-47.1	21.1	0.00e+00	0	46	0	725614592	64	3909
2026-01-16 01:53:54.29	27.98	12.83	-46.3	-47.2	21.1	0.00e+00	0	46	0	730857472	64	3933
2026-01-16 01:53:55.30	28.04	12.92	-46.3	-47.2	21.0	0.00e+00	0	46	0	737148928	64	3950
2026-01-16 01:53:56.30	28.10	13.02	-46.2	-47.1	21.2	0.00e+00	0	46	0	742391808	64	3886
2026-01-16 01:53:57.31	28.16	13.11	-46.2	-47.0	21.3	0.00e+00	0	46	0	747634688	64	3861
2026-01-16 01:53:58.32	28.22	13.21	-46.2	-47.1	21.3	0.00e+00	0	46	0	753926144	64	3884
2026-01-16 01:53:59.34	28.27	13.30	-46.1	-47.0	21.3	0.00e+00	0	47	0	759169024	64	3836
2026-01-16 01:54:00.35	28.33	13.40	-46.1	-47.0	21.3	0.00e+00	0	47	0	764411904	64	3849
2026-01-16 01:54:01.36	28.39	13.50	-46.1	-47.0	21.4	0.00e+00	0	46	0	770703360	64	3827
2026-01-16 01:54:02.37	28.45	13.59	-46.1	-46.9	21.4	0.00e+00	0	47	0	776994816	64	3814
2026-01-16 01:54:03.38	28.51	13.69	-46.2	-47.0	21.3	0.00e+00	0	46	0	782237696	64	3862
2026-01-16 01:54:04.39	28.57	13.79	-46.1	-47.0	21.3	0.00e+00	0	47	0	787480576	64	3858
2026-01-16 01:54:05.40	28.63	13.88	-46.1	-47.0	21.3	0.00e+00	0	47	0	793772032	64	3830
2026-01-16 01:54:06.41	28.70	13.98	-46.0	-46.8	21.6	0.00e+00	0	47	0	799014912	63	4002
2026-01-16 01:54:07.42	28.76	14.08	-46.0	-46.8	21.6	0.00e+00	0	47	0	805306368	63	3990
2026-01-16 01:54:08.43	28.82	14.18	-46.0	-46.9	21.5	0.00e+00	0	47	0	810549248	63	4012
2026-01-16 01:54:09.44	28.88	14.28	-45.9	-46.8	21.6	0.00e+00	0	47	0	815792128	63	3974
2026-01-16 01:54:10.45	28.94	14.38	-46.1	-47.0	21.5	0.00e+00	0	47	0	822083584	63	4053
2026-01-16 01:54:11.46	29.01	14.48	-46.1	-47.0	21.4	0.00e+00	0	47	0	828375040	63	4071
2026-01-16 01:54:12.47	29.07	14.58	-46.2	-47.1	21.4	0.00e+00	0	46	0	833617920	63	4107
2026-01-16 01:54:13.48	29.13	14.68	-46.1	-46.9	21.5	0.00e+00	0	47	0	838860800	63	4036
2026-01-16 01:54:14.49	29.20	14.78	-45.9	-46.8	21.6	0.00e+00	0	47	0	845152256	63	3985
2026-01-16 01:54:15.50	29.26	14.88	-46.0	-46.8	21.6	0.00e+00	0	47	0	850395136	63	4003
2026-01-16 01:54:16.51	29.33	14.99	-46.1	-47.0	21.5	0.00e+00	0	47	0	855638016	63	4053
2026-01-16 01:54:17.52	29.39	15.09	-45.9	-46.7	21.7	0.00e+00	0	47	0	861929472	63	3956
2026-01-16 01:54:18.53	29.46	15.19	-45.8	-46.7	21.8	0.00e+00	0	47	0	867172352	63	3916
2026-01-16 01:54:19.54	29.53	15.29	-45.8	-46.6	21.8	0.00e+00	0	47	0	872415232	63	3905
2026-01-16 01:54:20.55	29.59	15.40	-45.7	-46.6	21.9	0.00e+00	0	47	0	878706688	63	3882
2026-01-16 01:54:21.56	29.66	15.50	-45.8	-46.7	21.8	0.00e+00	0	47	0	884998144	63	3916
2026-01-16 01:54:22.57	29.73	15.61	-45.5	-46.4	22.1	0.00e+00	0	47	0	890241024	63	3792
2026-01-16 01:54:23.58	29.80	15.71	-45.5	-46.3	22.1	0.00e+00	0	47	0	895483904	63	3770
2026-01-16 01:54:24.59	29.87	15.82	-45.4	-46.3	22.2	0.00e+00	0	47	0	901775360	62	3965
2026-01-16 01:54:25.60	29.93	15.92	-45.3	-46.1	22.3	0.00e+00	0	47	0	907018240	62	3900
2026-01-16 01:54:26.61	30.00	16.03	-45.4	-46.2	22.2	0.00e+00	0	47	0	913309696	62	3929
2026-01-16 01:54:27.62	30.07	16.13	-45.4	-46.2	22.2	0.00e+00	0	47	0	918552576	62	3948
2026-01-16 01:54:28.63	30.14	16.24	-45.4	-46.2	22.2	0.00e+00	0	47	0	923795456	62	3953
2026-01-16 01:54:29.64	30.22	16.35	-45.3	-46.2	22.3	0.00e+00	0	47	0	930086912	62	3921
2026-01-16 01:54:30.65	30.29	16.46	-45.2	-46.1	22.4	0.00e+00	0	47	0	935329792	62	3875
2026-01-16 01:54:31.66	30.36	16.56	-45.3	-46.1	22.3	0.00e+00	0	47	0	941621248	62	3897
2026-01-16 01:54:32.67	30.43	16.67	-45.3	-46.1	22.3	0.00e+00	0	47	0	946864128	62	3912
2026-01-16 01:54:33.68	30.50	16.78	-45.3	-46.1	22.4	0.00e+00	0	47	0	953155584	62	3876
2026-01-16 01:54:34.68	30.58	16.89	-45.1	-45.9	22.5	0.00e+00	0	47	0	958398464	62	3816
2026-01-16 01:54:35.69	30.65	17.00	-45.0	-45.8	22.7	0.00e+00	0	47	0	963641344	62	3745
2026-01-16 01:54:36.70	30.73	17.11	-44.9	-45.7	22.7	0.00e+00	0	47	0	969932800	61	3941
2026-01-16 01:54:37.71	30.80	17.22	-45.0	-45.8	22.6	0.00e+00	0	47	0	975175680	61	3972
2026-01-16 01:54:38.72	30.88	17.33	-44.9	-45.7	22.7	0.00e+00	0	47	0	980418560	61	3939
2026-01-16 01:54:39.73	30.95	17.45	-44.8	-45.6	22.8	0.00e+00	0	47	0	986710016	61	3880
2026-01-16 01:54:40.74	31.03	17.56	-44.6	-45.4	23.0	0.00e+00	0	47	0	991952896	61	3795
2026-01-16 01:54:41.75	31.11	17.67	-44.6	-45.4	23.0	0.00e+00	0	47	0	998244352	61	3798
2026-01-16 01:54:42.76	31.18	17.78	-44.6	-45.4	23.1	0.00e+00	0	47	0	1003487232	61	3781
2026-01-16 01:54:43.77	31.26	17.90	-44.3	-45.1	23.3	0.00e+00	0	47	0	1009778688	60	3886
2026-01-16 01:54:44.78	31.34	18.01	-44.3	-45.1	23.3	0.00e+00	0	47	0	1015021568	60	3877
2026-01-16 01:54:45.79	31.42	18.13	-44.4	-45.2	23.2	0.00e+00	0	47	0	1021313024	60	3940
2026-01-16 01:54:46.80	31.50	18.24	-44.5	-45.3	23.2	0.00e+00	0	47	0	1026555904	60	3973
2026-01-16 01:54:47.81	31.58	18.36	-44.5	-45.3	23.2	0.00e+00	0	47	0	1031798784	60	3970
2026-01-16 01:54:48.82	31.66	18.47	-44.6	-45.3	23.1	0.00e+00	0	47	0	1038090240	60	3997
2026-01-16 01:54:49.83	31.74	18.59	-44.7	-45.4	23.0	0.00e+00	0	47	0	1043333120	60	4046
2026-01-16 01:54:50.84	31.82	18.71	-44.7	-45.5	22.9	0.00e+00	0	47	0	1048576000	60	4081
2026-01-16 01:54:51.85	31.91	18.83	-44.8	-45.6	22.9	0.00e+00	0	47	0	1054867456	60	4107
2026-01-16 01:54:52.86	31.99	18.94	-44.7	-45.5	22.9	0.00e+00	0	47	0	1061158912	60	4075
2026-01-16 01:54:53.87	32.07	19.06	-44.8	-45.6	22.8	0.00e+00	0	47	0	1066401792	60	4136
2026-01-16 01:54:54.88	32.16	19.18	-44.8	-45.5	22.9	0.00e+00	0	47	0	1071644672	60	4095
2026-01-16 01:54:55.89	32.24	19.30	-44.6	-45.4	23.1	0.00e+00	0	47	0	1077936128	60	4011
2026-01-16 01:54:56.89	32.33	19.42	-44.7	-45.5	23.0	0.00e+00	0	47	0	1083179008	60	4091
2026-01-16 01:54:57.91	32.42	19.54	-44.8	-45.6	22.9	0.00e+00	0	47	0	1088421888	60	4107
2026-01-16 01:54:58.91	32.50	19.66	-44.7	-45.5	23.0	0.00e+00	0	47	0	1094713344	60	4069
2026-01-16 01:54:59.92	32.59	19.79	-44.6	-45.4	23.1	0.00e+00	0	47	0	1099956224	60	4024
2026-01-16 01:55:00.94	32.68	19.91	-44.6	-45.4	23.1	0.00e+00	0	47	0	1106247680	60	4007
2026-01-16 01:55:01.95	32.77	20.03	-44.6	-45.3	23.2	0.00e+00	0	47	0	1111490560	60	3998
2026-01-16 01:55:02.96	32.86	20.16	-44.5	-45.3	23.2	0.00e+00	0	47	0	1117782016	60	3982
2026-01-16 01:55:03.96	32.95	20.28	-44.5	-45.3	23.2	0.00e+00	0	47	0	1123024896	60	3992
2026-01-16 01:55:04.97	33.04	20.40	-44.5	-45.3	23.2	0.00e+00	0	47	0	1129316352	60	3978
2026-01-16 01:55:05.98	33.13	20.53	-44.5	-45.2	23.3	0.00e+00	0	47	0	1134559232	60	3956
2026-01-16 01:55:06.99	33.22	20.66	-44.4	-45.1	23.3	0.00e+00	0	47	0	1139802112	60	3910
2026-01-16 01:55:08.00	33.32	20.78	-44.2	-45.0	23.5	0.00e+00	0	47	0	1146093568	60	3834
2026-01-16 01:55:09.01	33.41	20.91	-44.2	-44.9	23.5	0.00e+00	0	48	0	1151336448	60	3807
2026-01-16 01:55:10.02	33.50	21.04	-44.2	-44.9	23.5	0.00e+00	0	47	0	1156579328	60	3815
2026-01-16 01:55:11.03	33.60	21.16	-44.1	-44.8	23.7	0.00e+00	0	47	0	1162870784	60	3754
2026-01-16 01:55:12.04	33.70	21.29	-44.1	-44.8	23.7	0.00e+00	0	47	0	1168113664	60	3765
2026-01-16 01:55:13.05	33.79	21.42	-44.0	-44.8	23.7	0.00e+00	0	47	0	1173356544	60	3749
2026-01-16 01:55:14.06	33.89	21.55	-44.3	-45.1	23.6	0.00e+00	0	47	0	1179648000	59	4113
2026-01-16 01:55:15.07	33.99	21.68	-44.3	-45.1	23.6	0.00e+00	0	47	0	1185939456	59	4117
2026-01-16 01:55:16.08	34.09	21.81	-44.4	-45.2	23.5	0.00e+00	0	47	0	1191182336	59	4149
2026-01-16 01:55:17.09	34.19	21.95	-44.5	-45.3	23.4	0.00e+00	0	48	0	1196425216	59	4194
2026-01-16 01:55:18.10	34.29	22.08	-44.3	-45.1	23.6	0.00e+00	0	47	0	1202716672	59	4103
2026-01-16 01:55:19.11	34.39	22.21	-44.4	-45.1	23.5	0.00e+00	0	48	0	1207959552	59	4145
2026-01-16 01:55:20.12	34.50	22.34	-44.4	-45.2	23.5	0.00e+00	0	47	0	1214251008	59	4151
2026-01-16 01:55:21.13	34.60	22.48	-44.5	-45.2	23.4	0.00e+00	0	47	0	1219493888	59	4187
2026-01-16 01:55:22.14	34.70	22.61	-44.4	-45.1	23.5	0.00e+00	0	48	0	1224736768	59	4141
2026-01-16 01:55:23.15	34.81	22.75	-44.4	-45.2	23.5	0.00e+00	0	48	0	1231028224	59	4150
2026-01-16 01:55:24.16	34.92	22.88	-44.4	-45.2	23.5	0.00e+00	0	47	0	1237319680	59	4180
2026-01-16 01:55:25.17	35.02	23.02	-44.4	-45.2	23.5	0.00e+00	0	48	0	1242562560	59	4167
2026-01-16 01:55:26.18	35.13	23.16	-44.4	-45.2	23.5	0.00e+00	0	47	0	1247805440	59	4180
2026-01-16 01:55:27.19	35.24	23.30	-44.4	-45.2	23.5	0.00e+00	0	47	0	1254096896	59	4160
2026-01-16 01:55:28.19	35.35	23.43	-44.3	-45.1	23.6	0.00e+00	0	48	0	1259339776	59	4131
2026-01-16 01:55:29.21	35.46	23.57	-44.2	-45.0	23.7	0.00e+00	0	48	0	1264582656	59	4079
2026-01-16 01:55:30.22	35.57	23.71	-44.4	-45.2	23.5	0.00e+00	0	48	0	1270874112	59	4148
2026-01-16 01:55:31.23	35.68	23.85	-44.2	-45.0	23.7	0.00e+00	0	48	0	1276116992	59	4078
2026-01-16 01:55:32.24	35.80	23.99	-44.2	-45.0	23.7	0.00e+00	0	48	0	1281359872	59	4053
2026-01-16 01:55:33.25	35.91	24.14	-44.1	-44.8	23.9	0.00e+00	0	47	0	1287651328	59	3982
2026-01-16 01:55:34.26	36.03	24.28	-44.0	-44.8	23.9	0.00e+00	0	48	0	1293942784	59	3981
2026-01-16 01:55:35.27	36.14	24.42	-44.0	-44.8	23.9	0.00e+00	0	48	0	1299185664	59	3981
2026-01-16 01:55:36.28	36.26	24.57	-44.1	-44.9	23.8	0.00e+00	0	48	0	1304428544	59	4009
2026-01-16 01:55:37.29	36.38	24.71	-43.9	-44.6	24.0	0.00e+00	0	48	0	1310720000	59	3906
2026-01-16 01:55:38.30	36.50	24.86	-43.9	-44.6	24.0	0.00e+00	0	48	0	1315962880	59	3901
2026-01-16 01:55:39.31	36.62	25.00	-43.9	-44.6	24.0	0.00e+00	0	48	0	1322254336	59	3907
2026-01-16 01:55:40.32	36.74	25.15	-43.9	-44.7	24.0	0.00e+00	0	48	0	1327497216	59	3919
2026-01-16 01:55:41.33	36.87	25.29	-44.0	-44.7	24.0	0.00e+00	0	48	0	1332740096	59	3954
2026-01-16 01:55:42.34	36.99	25.44	-44.1	-44.8	23.9	0.00e+00	0	48	0	1339031552	59	3989
2026-01-16 01:55:43.35	37.12	25.59	-44.0	-44.8	23.9	0.00e+00	0	48	0	1345323008	59	3986
2026-01-16 01:55:44.36	37.24	25.74	-43.9	-44.7	24.0	0.00e+00	0	47	0	1350565888	59	3940
2026-01-16 01:55:45.37	37.37	25.89	-43.9	-44.7	24.0	0.00e+00	0	48	0	1355808768	59	3927
2026-01-16 01:55:46.38	37.50	26.04	-43.8	-44.6	24.1	0.00e+00	0	48	0	1362100224	59	3885
2026-01-16 01:55:47.40	37.63	26.19	-43.8	-44.5	24.1	0.00e+00	0	48	0	1367343104	59	3865
2026-01-16 01:55:48.40	37.76	26.34	-43.9	-44.6	24.1	0.00e+00	0	48	0	1372585984	59	3894
2026-01-16 01:55:49.41	37.89	26.50	-43.8	-44.5	24.2	0.00e+00	0	48	0	1378877440	59	3842
2026-01-16 01:55:50.42	38.02	26.65	-43.8	-44.5	24.2	0.00e+00	0	48	0	1384120320	59	3844
2026-01-16 01:55:51.43	38.16	26.80	-43.8	-44.5	24.2	0.00e+00	0	48	0	1389363200	59	3848
2026-01-16 01:55:52.44	38.30	26.96	-43.7	-44.4	24.3	0.00e+00	0	47	0	1395654656	59	3798
2026-01-16 01:55:53.46	38.43	27.12	-43.7	-44.4	24.3	0.00e+00	0	48	0	1401946112	59	3808
2026-01-16 01:55:54.46	38.57	27.27	-43.8	-44.5	24.2	0.00e+00	0	48	0	1407188992	59	3860
2026-01-16 01:55:55.48	38.71	27.43	-43.7	-44.5	24.2	0.00e+00	0	48	0	1412431872	59	3841
2026-01-16 01:55:56.49	38.85	27.59	-43.8	-44.5	24.2	0.00e+00	0	48	0	1418723328	59	3859
2026-01-16 01:55:57.50	39.00	27.75	-43.8	-44.5	24.2	0.00e+00	0	47	0	1423966208	59	3854
2026-01-16 01:55:58.50	39.14	27.90	-43.7	-44.4	24.3	0.00e+00	0	48	0	1430257664	59	3805
2026-01-16 01:55:59.51	39.28	28.06	-43.6	-44.4	24.4	0.00e+00	0	48	0	1435500544	59	3791
2026-01-16 01:56:00.52	39.43	28.23	-43.7	-44.4	24.3	0.00e+00	0	48	0	1440743424	59	3824
2026-01-16 01:56:01.53	39.58	28.39	-43.6	-44.3	24.4	0.00e+00	0	48	0	1447034880	59	3754
2026-01-16 01:56:02.54	39.73	28.55	-43.5	-44.2	24.5	0.00e+00	0	48	0	1452277760	58	3941
2026-01-16 01:56:03.55	39.88	28.71	-43.6	-44.3	24.3	0.00e+00	0	48	0	1458569216	58	3995
2026-01-16 01:56:04.57	40.04	28.88	-43.6	-44.3	24.4	0.00e+00	0	48	0	1463812096	58	3991
2026-01-16 01:56:05.57	40.19	29.04	-43.5	-44.3	24.4	0.00e+00	0	48	0	1470103552	58	3969
2026-01-16 01:56:06.59	40.35	29.21	-43.6	-44.3	24.4	0.00e+00	0	48	0	1475346432	58	3988
2026-01-16 01:56:07.60	40.50	29.37	-43.7	-44.4	24.3	0.00e+00	0	48	0	1480589312	58	4032
2026-01-16 01:56:08.61	40.66	29.54	-43.5	-44.2	24.5	0.00e+00	0	48	0	1486880768	58	3940
2026-01-16 01:56:09.61	40.82	29.71	-43.5	-44.3	24.4	0.00e+00	0	48	0	1492123648	58	3965
2026-01-16 01:56:10.62	40.98	29.88	-43.6	-44.4	24.3	0.00e+00	0	48	0	1497366528	58	4016
2026-01-16 01:56:11.63	41.15	30.04	-43.7	-44.5	24.3	0.00e+00	0	48	0	1503657984	58	4066
2026-01-16 01:56:12.64	41.31	30.21	-43.9	-44.6	24.1	0.00e+00	0	48	0	1508900864	58	4125
2026-01-16 01:56:13.65	41.48	30.38	-43.8	-44.5	24.2	0.00e+00	0	48	0	1515192320	58	4094
2026-01-16 01:56:14.66	41.65	30.56	-43.7	-44.4	24.3	0.00e+00	0	48	0	1520435200	58	4048
2026-01-16 01:56:15.67	41.82	30.73	-43.6	-44.3	24.4	0.00e+00	0	48	0	1526726656	58	3998
2026-01-16 01:56:16.68	41.99	30.90	-43.6	-44.4	24.4	0.00e+00	0	48	0	1531969536	58	4007
2026-01-16 01:56:17.69	42.17	31.08	-43.6	-44.3	24.4	0.00e+00	0	48	0	1538260992	58	3991
2026-01-16 01:56:18.70	42.34	31.25	-43.6	-44.3	24.4	0.00e+00	0	48	0	1543503872	58	3981
2026-01-16 01:56:19.71	42.52	31.42	-43.5	-44.2	24.5	0.00e+00	0	48	0	1548746752	58	3938
2026-01-16 01:56:20.72	42.70	31.60	-43.6	-44.3	24.4	0.00e+00	0	48	0	1555038208	58	3983
2026-01-16 01:56:21.73	42.88	31.78	-43.6	-44.4	24.4	0.00e+00	0	48	0	1560281088	58	4010
2026-01-16 01:56:22.74	43.07	31.95	-43.5	-44.3	24.5	0.00e+00	0	48	0	1565523968	58	3968
2026-01-16 01:56:23.75	43.25	32.13	-43.6	-44.4	24.4	0.00e+00	0	48	0	1571815424	58	4006
2026-01-16 01:56:24.76	43.44	32.31	-43.7	-44.4	24.3	0.00e+00	0	48	0	1578106880	58	4041
2026-01-16 01:56:25.77	43.63	32.49	-43.6	-44.4	24.4	0.00e+00	0	48	0	1583349760	58	4006
2026-01-16 01:56:26.78	43.82	32.67	-43.4	-44.1	24.6	0.00e+00	0	48	0	1588592640	58	3882
2026-01-16 01:56:27.79	44.01	32.85	-43.4	-44.1	24.7	0.00e+00	0	48	0	1594884096	58	3879
2026-01-16 01:56:28.80	44.21	33.04	-43.4	-44.1	24.6	0.00e+00	0	48	0	1600126976	58	3892
2026-01-16 01:56:29.81	44.41	33.22	-43.3	-44.0	24.7	0.00e+00	0	48	0	1605369856	58	3848
2026-01-16 01:56:30.82	44.61	33.40	-43.1	-43.8	24.9	0.00e+00	0	48	0	1611661312	58	3757
2026-01-16 01:56:31.83	44.81	33.59	-43.2	-43.9	24.9	0.00e+00	0	48	0	1616904192	58	3796
2026-01-16 01:56:32.84	45.02	33.77	-43.3	-44.0	24.8	0.00e+00	0	48	0	1623195648	58	3831
2026-01-16 01:56:33.85	45.22	33.96	-43.4	-44.2	24.6	0.00e+00	0	48	0	1628438528	58	3918
2026-01-16 01:56:34.86	45.43	34.14	-43.6	-44.3	24.5	0.00e+00	0	48	0	1634729984	58	3986
2026-01-16 01:56:35.87	45.65	34.33	-43.5	-44.2	24.5	0.00e+00	0	48	0	1639972864	58	3944
2026-01-16 01:56:36.88	45.86	34.52	-43.4	-44.1	24.7	0.00e+00	0	48	0	1646264320	58	3890
2026-01-16 01:56:37.89	46.08	34.71	-43.4	-44.2	24.6	0.00e+00	0	48	0	1651507200	58	3921
2026-01-16 01:56:38.90	46.30	34.90	-43.1	-43.8	24.9	0.00e+00	0	48	0	1656750080	58	3762
2026-01-16 01:56:39.91	46.52	35.09	-43.0	-43.7	25.0	0.00e+00	0	48	0	1663041536	58	3729
2026-01-16 01:56:40.92	46.74	35.28	-42.9	-43.6	25.1	0.00e+00	0	48	0	1668284416	57	3879
2026-01-16 01:56:41.93	46.97	35.47	-42.9	-43.5	25.1	0.00e+00	0	48	0	1673527296	57	3866
2026-01-16 01:56:42.94	47.20	35.66	-43.0	-43.7	25.0	0.00e+00	0	48	0	1679818752	57	3919
2026-01-16 01:56:43.95	47.43	35.85	-43.1	-43.8	24.9	0.00e+00	0	48	0	1685061632	57	3994
2026-01-16 01:56:44.96	47.66	36.05	-43.3	-44.0	24.7	0.00e+00	0	48	0	1691353088	57	4080
2026-01-16 01:56:45.97	47.90	36.24	-43.4	-44.1	24.6	0.00e+00	0	48	0	1696595968	57	4145
2026-01-16 01:56:46.98	48.14	36.43	-43.4	-44.2	24.6	0.00e+00	0	48	0	1702887424	57	4146
2026-01-16 01:56:47.99	48.39	36.63	-43.2	-44.0	24.8	0.00e+00	0	48	0	1708130304	57	4057
2026-01-16 01:56:49.00	48.63	36.82	-43.1	-43.8	24.9	0.00e+00	0	48	0	1713373184	57	3985
2026-01-16 01:56:50.02	48.88	37.02	-43.0	-43.7	25.0	0.00e+00	0	48	0	1719664640	57	3946
2026-01-16 01:56:51.03	49.14	37.22	-42.9	-43.6	25.1	0.00e+00	0	48	0	1724907520	57	3886
2026-01-16 01:56:52.04	49.39	37.42	-42.8	-43.5	25.2	0.00e+00	0	48	0	1731198976	57	3848
2026-01-16 01:56:53.05	49.65	37.62	-42.7	-43.4	25.3	0.00e+00	0	48	0	1736441856	57	3787
2026-01-16 01:56:54.06	49.91	37.81	-42.9	-43.6	25.1	0.00e+00	0	48	0	1742733312	57	3899
2026-01-16 01:56:55.07	50.17	38.01	-43.0	-43.7	25.0	0.00e+00	0	48	0	1747976192	57	3942
2026-01-16 01:56:56.08	50.44	38.21	-43.2	-43.9	24.9	0.00e+00	0	48	0	1754267648	57	4018
2026-01-16 01:56:57.09	50.71	38.41	-43.4	-44.1	24.7	0.00e+00	0	48	0	1759510528	57	4120
2026-01-16 01:56:58.10	50.99	38.61	-43.5	-44.2	24.6	0.00e+00	0	48	0	1764753408	57	4187
2026-01-16 01:56:59.11	51.26	38.82	-43.5	-44.2	24.6	0.00e+00	0	48	0	1771044864	57	4165
2026-01-16 01:57:00.12	51.54	39.02	-43.3	-44.0	24.8	0.00e+00	0	48	0	1776287744	57	4092
2026-01-16 01:57:01.12	51.83	39.22	-43.3	-44.0	24.7	0.00e+00	0	48	0	1781530624	57	4078
2026-01-16 01:57:02.13	52.11	39.42	-43.3	-44.0	24.8	0.00e+00	0	48	0	1787822080	57	4075
2026-01-16 01:57:03.14	52.41	39.62	-43.2	-43.9	24.9	0.00e+00	0	48	0	1793064960	57	4042
2026-01-16 01:57:04.15	52.70	39.83	-43.3	-44.0	24.8	0.00e+00	0	48	0	1798307840	57	4088
2026-01-16 01:57:05.16	53.00	40.03	-43.3	-44.0	24.8	0.00e+00	0	48	0	1804599296	57	4093
2026-01-16 01:57:06.17	53.30	40.23	-43.4	-44.2	24.6	0.00e+00	0	48	0	1810890752	57	4162
2026-01-16 01:57:07.18	53.61	40.44	-43.3	-44.1	24.7	0.00e+00	0	48	0	1816133632	57	4105
2026-01-16 01:57:08.19	53.92	40.64	-43.2	-44.0	24.8	0.00e+00	0	48	0	1821376512	57	4053
2026-01-16 01:57:09.20	54.23	40.85	-43.1	-43.8	25.0	0.00e+00	0	48	0	1827667968	57	3972
2026-01-16 01:57:10.21	54.55	41.05	-43.1	-43.8	25.0	0.00e+00	0	48	0	1832910848	57	3970
2026-01-16 01:57:11.22	54.87	41.26	-43.3	-44.0	24.8	0.00e+00	0	48	0	1839202304	57	4083
2026-01-16 01:57:12.23	55.20	41.46	-43.4	-44.1	24.7	0.00e+00	0	48	0	1844445184	57	4122
2026-01-16 01:57:13.24	55.53	41.67	-43.4	-44.1	24.7	0.00e+00	0	48	0	1849688064	57	4118
2026-01-16 01:57:14.25	55.86	41.87	-43.4	-44.1	24.7	0.00e+00	0	48	0	1855979520	57	4140
2026-01-16 01:57:15.26	56.20	42.08	-43.3	-44.1	24.8	0.00e+00	0	48	0	1862270976	57	4100
2026-01-16 01:57:16.27	56.54	42.28	-43.7	-44.4	24.4	0.00e+00	0	48	0	1867513856	57	4289
2026-01-16 01:57:17.28	56.89	42.49	-43.7	-44.4	24.4	0.00e+00	0	48	0	1872756736	58	4037
2026-01-16 01:57:18.29	57.24	42.70	-43.5	-44.2	24.6	0.00e+00	0	48	0	1879048192	58	3930
2026-01-16 01:57:19.30	57.59	42.90	-43.3	-44.0	24.8	0.00e+00	0	48	0	1884291072	58	3835
2026-01-16 01:57:20.31	57.95	43.11	-43.4	-44.1	24.8	0.00e+00	0	48	0	1889533952	58	3877
2026-01-16 01:57:21.32	58.32	43.31	-43.4	-44.2	24.7	0.00e+00	0	48	0	1895825408	58	3920
2026-01-16 01:57:22.33	58.69	43.52	-43.4	-44.2	24.7	0.00e+00	0	48	0	1901068288	58	3916
2026-01-16 01:57:23.34	59.06	43.72	-43.5	-44.2	24.7	0.00e+00	0	48	0	1906311168	58	3922
2026-01-16 01:57:24.35	59.44	43.93	-43.6	-44.3	24.6	0.00e+00	0	48	0	1912602624	58	3973
2026-01-16 01:57:25.36	59.83	44.13	-43.6	-44.3	24.5	0.00e+00	0	48	0	1918894080	58	3988
2026-01-16 01:57:26.37	60.21	44.34	-43.7	-44.4	24.5	0.00e+00	0	48	0	1924136960	58	4017
2026-01-16 01:57:27.38	60.61	44.54	-43.8	-44.6	24.3	0.00e+00	0	48	0	1929379840	58	4109
2026-01-16 01:57:28.39	61.01	44.74	-43.7	-44.4	24.4	0.00e+00	0	48	0	1935671296	58	4039
2026-01-16 01:57:29.40	61.41	44.95	-43.8	-44.5	24.4	0.00e+00	0	48	0	1940914176	58	4072
2026-01-16 01:57:30.41	61.82	45.15	-43.7	-44.5	24.4	0.00e+00	0	48	0	1947205632	58	4064
2026-01-16 01:57:31.42	62.23	45.35	-43.8	-44.6	24.3	0.00e+00	0	48	0	1952448512	58	4100
2026-01-16 01:57:32.43	62.65	45.55	-43.6	-44.3	24.6	0.00e+00	0	48	0	1957691392	58	3993
2026-01-16 01:57:33.44	63.08	45.75	-43.6	-44.3	24.5	0.00e+00	0	48	0	1963982848	58	4000
2026-01-16 01:57:34.45	63.51	45.95	-43.6	-44.4	24.5	0.00e+00	0	48	0	1969225728	58	4006
2026-01-16 01:57:35.46	63.94	46.15	-43.8	-44.6	24.3	0.00e+00	0	48	0	1975517184	58	4100
2026-01-16 01:57:36.47	64.38	46.35	-43.7	-44.4	24.5	0.00e+00	0	48	0	1980760064	58	4031
2026-01-16 01:57:37.48	64.83	46.55	-43.7	-44.4	24.5	0.00e+00	0	48	0	1987051520	58	4023
2026-01-16 01:57:38.49	65.28	46.74	-43.8	-44.5	24.4	0.00e+00	0	48	0	1992294400	58	4067
2026-01-16 01:57:39.50	65.74	46.94	-43.6	-44.3	24.6	0.00e+00	0	48	0	1997537280	58	3965
2026-01-16 01:57:40.51	66.20	47.13	-43.7	-44.4	24.5	0.00e+00	0	48	0	2003828736	58	4028
2026-01-16 01:57:41.52	66.67	47.33	-43.8	-44.6	24.3	0.00e+00	0	48	0	2009071616	58	4113
2026-01-16 01:57:42.53	67.15	47.52	-43.7	-44.4	24.4	0.00e+00	0	48	0	2014314496	58	4051
2026-01-16 01:57:43.54	67.63	47.71	-43.7	-44.4	24.4	0.00e+00	0	48	0	2020605952	58	4048
2026-01-16 01:57:44.55	68.11	47.90	-43.6	-44.3	24.5	0.00e+00	0	48	0	2025848832	58	3994
2026-01-16 01:57:45.56	68.61	48.09	-43.9	-44.6	24.3	0.00e+00	0	48	0	2032140288	58	4136
2026-01-16 01:57:46.57	69.11	48.28	-43.8	-44.6	24.3	0.00e+00	0	48	0	2037383168	58	4105
2026-01-16 01:57:47.58	69.61	48.46	-43.9	-44.7	24.2	0.00e+00	0	48	0	2043674624	58	4154
2026-01-16 01:57:48.59	70.12	48.64	-43.6	-44.4	24.5	0.00e+00	0	48	0	2048917504	58	4006
2026-01-16 01:57:49.60	70.64	48.83	-43.3	-44.0	24.9	0.00e+00	0	48	0	2055208960	58	3827
2026-01-16 01:57:50.61	71.16	49.01	-43.3	-44.0	24.9	0.00e+00	0	48	0	2060451840	58	3829
2026-01-16 01:57:51.62	71.69	49.19	-43.5	-44.2	24.7	0.00e+00	0	48	0	2065694720	58	3952
2026-01-16 01:57:52.63	72.22	49.36	-43.8	-44.5	24.4	0.00e+00	0	48	0	2071986176	58	4093
2026-01-16 01:57:53.64	72.76	49.54	-43.8	-44.5	24.4	0.00e+00	0	48	0	2077229056	58	4078
2026-01-16 01:57:54.65	73.31	49.71	-43.8	-44.6	24.3	0.00e+00	0	48	0	2082471936	58	4110
2026-01-16 01:57:55.66	73.86	49.88	-43.6	-44.3	24.6	0.00e+00	0	48	0	2088763392	58	3972
2026-01-16 01:57:56.67	74.42	50.05	-43.8	-44.5	24.4	0.00e+00	0	48	0	2095054848	58	4059
2026-01-16 01:57:57.68	74.99	50.22	-43.9	-44.7	24.3	0.00e+00	0	48	0	2100297728	58	4157
2026-01-16 01:57:58.69	75.56	50.38	-44.1	-44.8	24.1	0.00e+00	0	48	0	2105540608	58	4224
2026-01-16 01:57:59.69	76.13	50.54	-44.0	-44.8	24.2	0.00e+00	0	48	0	2111832064	58	4198
2026-01-16 01:58:00.70	76.72	50.70	-44.0	-44.7	24.2	0.00e+00	0	48	0	2117074944	58	4186
2026-01-16 01:58:01.71	77.31	50.85	-44.1	-44.8	24.2	0.00e+00	0	48	0	2122317824	58	4212
2026-01-16 01:58:02.72	77.90	51.01	-43.9	-44.7	24.3	0.00e+00	0	48	0	2128609280	58	4147
2026-01-16 01:58:03.73	78.50	51.16	-43.8	-44.6	24.4	0.00e+00	0	49	0	2133852160	58	4102
2026-01-16 01:58:04.74	79.11	51.31	-44.0	-44.7	24.2	0.00e+00	0	48	0	2140143616	58	4167
2026-01-16 01:58:05.75	79.73	51.45	-44.2	-44.9	24.0	0.00e+00	0	48	0	2145386496	58	4286
2026-01-16 01:58:06.76	80.35	51.60	-44.6	-45.4	23.6	0.00e+00	0	48	0	2151677952	59	4252
2026-01-16 01:58:07.78	80.98	51.74	-44.6	-45.3	23.6	0.00e+00	0	49	0	2156920832	59	4230
2026-01-16 01:58:08.79	81.61	51.87	-44.5	-45.3	23.7	0.00e+00	0	48	0	2163212288	59	4207
2026-01-16 01:58:09.80	82.25	52.01	-44.5	-45.2	23.7	0.00e+00	0	48	0	2168455168	59	4178
2026-01-16 01:58:10.81	82.89	52.14	-44.4	-45.2	23.8	0.00e+00	0	48	0	2173698048	59	4171
2026-01-16 01:58:11.82	83.54	52.26	-44.1	-44.8	24.1	0.00e+00	0	48	0	2179989504	59	4001
2026-01-16 01:58:12.83	84.19	52.39	-44.0	-44.7	24.2	0.00e+00	0	49	0	2185232384	59	3948
2026-01-16 01:58:13.84	84.85	52.51	-44.2	-44.9	24.1	0.00e+00	0	48	0	2190475264	59	4037
2026-01-16 01:58:14.85	85.52	52.62	-44.1	-44.9	24.1	0.00e+00	0	48	0	2196766720	59	4013
2026-01-16 01:58:15.86	86.19	52.73	-44.0	-44.8	24.2	0.00e+00	0	48	0	2203058176	59	3978
2026-01-16 01:58:16.87	86.86	52.84	-44.1	-44.8	24.2	0.00e+00	0	49	0	2208301056	59	3978
2026-01-16 01:58:17.87	87.54	52.95	-44.0	-44.7	24.2	0.00e+00	0	49	0	2213543936	59	3952
2026-01-16 01:58:18.88	88.22	53.05	-44.0	-44.8	24.2	0.00e+00	0	49	0	2219835392	59	3972
2026-01-16 01:58:19.89	88.91	53.14	-44.2	-44.9	24.1	0.00e+00	0	49	0	2225078272	59	4035
2026-01-16 01:58:20.91	89.61	53.24	-44.1	-44.9	24.2	0.00e+00	0	48	0	2230321152	59	4006
2026-01-16 01:58:21.92	90.31	53.33	-44.2	-44.9	24.1	0.00e+00	0	48	0	2236612608	59	4028
2026-01-16 01:58:22.93	91.01	53.41	-44.2	-45.0	24.0	0.00e+00	0	49	0	2241855488	59	4066
2026-01-16 01:58:23.94	91.72	53.49	-44.4	-45.1	23.9	0.00e+00	0	48	0	2248146944	59	4133
2026-01-16 01:58:24.95	92.43	53.57	-44.3	-45.0	23.9	0.00e+00	0	49	0	2253389824	59	4096
2026-01-16 01:58:25.95	93.13	53.64	-44.2	-45.0	24.0	0.00e+00	0	49	0	2259681280	59	4055
2026-01-16 01:58:26.96	93.85	53.71	-44.4	-45.1	23.9	0.00e+00	0	48	0	2264924160	59	4132
2026-01-16 01:58:27.97	94.57	53.77	-44.2	-45.0	24.0	0.00e+00	0	48	0	2271215616	59	4059
2026-01-16 01:58:28.98	95.29	53.83	-43.9	-44.6	24.3	0.00e+00	0	48	0	2276458496	59	3906
2026-01-16 01:58:29.99	96.02	53.88	-43.9	-44.6	24.4	0.00e+00	0	48	0	2281701376	59	3881
2026-01-16 01:58:31.00	96.75	53.93	-44.1	-44.8	24.1	0.00e+00	0	48	0	2287992832	59	3997
2026-01-16 01:58:32.01	97.48	53.98	-44.4	-45.1	23.9	0.00e+00	0	49	0	2293235712	59	4136
2026-01-16 01:58:33.02	98.21	54.02	-44.5	-45.3	23.7	0.00e+00	0	48	0	2298478592	59	4219
2026-01-16 01:58:34.03	98.95	54.06	-44.4	-45.1	23.8	0.00e+00	0	48	0	2304770048	60	3894
2026-01-16 01:58:35.04	99.69	54.09	-44.3	-45.1	23.8	0.00e+00	0	49	0	2310012928	60	3880
2026-01-16 01:58:36.05	100.43	54.11	-44.3	-45.1	23.8	0.00e+00	0	48	0	2315255808	60	3874
2026-01-16 01:58:37.06	101.17	54.14	-44.1	-44.8	24.0	0.00e+00	0	49	0	2321547264	60	3767
2026-01-16 01:58:38.07	101.91	54.15	-44.1	-44.8	24.0	0.00e+00	0	49	0	2327838720	60	3778
2026-01-16 01:58:39.08	102.65	54.17	-44.5	-45.3	23.6	0.00e+00	0	48	0	2333081600	60	3980
2026-01-16 01:58:40.09	103.39	54.17	-44.3	-45.0	23.8	0.00e+00	0	48	0	2338324480	60	3855
2026-01-16 01:58:41.10	104.13	54.18	-44.1	-44.8	24.0	0.00e+00	0	49	0	2344615936	60	3743
2026-01-16 01:58:42.11	104.88	54.18	-44.3	-45.0	23.8	0.00e+00	0	48	0	2349858816	60	3860
2026-01-16 01:58:43.12	105.62	54.17	-44.5	-45.3	23.6	0.00e+00	0	49	0	2356150272	60	3976
2026-01-16 01:58:44.13	106.36	54.16	-44.4	-45.2	23.7	0.00e+00	0	49	0	2361393152	60	3918
2026-01-16 01:58:45.14	107.10	54.14	-44.3	-45.0	23.8	0.00e+00	0	48	0	2366636032	60	3836
2026-01-16 01:58:46.15	107.84	54.12	-44.1	-44.8	24.0	0.00e+00	0	48	0	2372927488	60	3763
2026-01-16 01:58:47.16	108.58	54.10	-44.1	-44.9	24.0	0.00e+00	0	48	0	2379218944	60	3793
2026-01-16 01:58:48.17	109.32	54.07	-44.0	-44.7	24.1	0.00e+00	0	48	0	2384461824	60	3737
2026-01-16 01:58:49.18	110.06	54.03	-44.2	-45.0	24.0	0.00e+00	0	49	0	2389704704	59	4060
2026-01-16 01:58:50.19	110.79	53.99	-44.1	-44.8	24.1	0.00e+00	0	49	0	2395996160	59	4001
2026-01-16 01:58:51.20	111.52	53.95	-44.0	-44.7	24.2	0.00e+00	0	49	0	2401239040	59	3938
2026-01-16 01:58:52.21	112.25	53.90	-44.1	-44.9	24.1	0.00e+00	0	48	0	2406481920	59	4014
2026-01-16 01:58:53.22	112.98	53.85	-44.2	-44.9	24.1	0.00e+00	0	49	0	2412773376	59	4023
2026-01-16 01:58:54.23	113.70	53.79	-44.2	-44.9	24.0	0.00e+00	0	49	0	2418016256	59	4049
2026-01-16 01:58:55.24	114.43	53.73	-44.2	-45.0	24.0	0.00e+00	0	49	0	2423259136	59	4057
2026-01-16 01:58:56.25	115.14	53.66	-44.1	-44.8	24.1	0.00e+00	0	48	0	2429550592	59	4003
2026-01-16 01:58:57.26	115.86	53.59	-44.1	-44.9	24.1	0.00e+00	0	49	0	2435842048	59	4009
2026-01-16 01:58:58.27	116.57	53.52	-44.2	-44.9	24.0	0.00e+00	0	49	0	2441084928	59	4049
2026-01-16 01:58:59.28	117.28	53.44	-44.7	-45.5	23.6	0.00e+00	0	49	0	2446327808	59	4302
2026-01-16 01:59:00.29	117.98	53.35	-44.4	-45.1	23.7	0.00e+00	0	49	0	2452619264	60	3904
2026-01-16 01:59:01.30	118.68	53.26	-44.2	-44.9	23.9	0.00e+00	0	49	0	2457862144	60	3803
2026-01-16 01:59:02.31	119.38	53.17	-44.2	-45.0	23.9	0.00e+00	0	49	0	2464153600	60	3828
2026-01-16 01:59:03.32	120.07	53.08	-44.3	-45.0	23.8	0.00e+00	0	49	0	2469396480	60	3851
2026-01-16 01:59:04.33	120.76	52.98	-44.0	-44.8	24.1	0.00e+00	0	49	0	2474639360	60	3744
2026-01-16 01:59:05.34	121.44	52.87	-44.4	-45.1	23.8	0.00e+00	0	49	0	2480930816	59	4137
2026-01-16 01:59:06.35	122.12	52.77	-44.2	-45.0	24.0	0.00e+00	0	49	0	2487222272	59	4062
2026-01-16 01:59:07.36	122.79	52.65	-44.1	-44.9	24.1	0.00e+00	0	49	0	2492465152	59	4016
2026-01-16 01:59:08.37	123.46	52.54	-44.3	-45.0	23.9	0.00e+00	0	49	0	2497708032	59	4093
2026-01-16 01:59:09.39	124.12	52.42	-44.2	-45.0	24.0	0.00e+00	0	49	0	2503999488	59	4062
2026-01-16 01:59:10.40	124.78	52.30	-44.3	-45.0	23.9	0.00e+00	0	49	0	2509242368	59	4083
2026-01-16 01:59:11.41	125.43	52.17	-44.4	-45.1	23.9	0.00e+00	0	49	0	2514485248	59	4120
2026-01-16 01:59:12.42	126.08	52.04	-44.5	-45.3	23.7	0.00e+00	0	49	0	2520776704	59	4214
2026-01-16 01:59:13.43	126.72	51.91	-44.5	-45.2	23.7	0.00e+00	0	49	0	2526019584	59	4185
2026-01-16 01:59:14.44	127.35	51.77	-44.2	-44.9	24.0	0.00e+00	0	49	0	2531262464	59	4038
2026-01-16 01:59:15.45	127.98	51.63	-44.2	-44.9	24.0	0.00e+00	0	49	0	2537553920	59	4051
2026-01-16 01:59:16.46	128.60	51.49	-44.1	-44.9	24.0	0.00e+00	0	49	0	2543845376	59	4022
2026-01-16 01:59:17.47	129.22	51.35	-44.2	-45.0	24.0	0.00e+00	0	49	0	2549088256	59	4061
2026-01-16 01:59:18.48	129.83	51.20	-44.1	-44.8	24.1	0.00e+00	0	49	0	2554331136	59	3985
2026-01-16 01:59:19.49	130.43	51.05	-44.1	-44.8	24.1	0.00e+00	0	49	0	2560622592	59	3983
2026-01-16 01:59:20.50	131.03	50.90	-44.1	-44.9	24.1	0.00e+00	0	49	0	2565865472	59	4025
2026-01-16 01:59:21.51	131.63	50.74	-44.1	-44.8	24.1	0.00e+00	0	49	0	2572156928	59	3980
2026-01-16 01:59:22.52	132.21	50.58	-44.1	-44.9	24.1	0.00e+00	0	49	0	2577399808	59	4007
2026-01-16 01:59:23.53	132.79	50.42	-44.3	-45.0	24.0	0.00e+00	0	49	0	2582642688	59	4078
2026-01-16 01:59:24.54	133.37	50.26	-44.0	-44.8	24.2	0.00e+00	0	49	0	2588934144	59	3968
2026-01-16 01:59:25.55	133.93	50.09	-44.1	-44.9	24.1	0.00e+00	0	49	0	2595225600	59	4019
2026-01-16 01:59:26.56	134.50	49.92	-44.1	-44.9	24.0	0.00e+00	0	49	0	2600468480	59	4026
2026-01-16 01:59:27.57	135.05	49.75	-44.1	-44.9	24.1	0.00e+00	0	49	0	2605711360	59	4023
2026-01-16 01:59:28.58	135.60	49.58	-43.8	-44.5	24.4	0.00e+00	0	49	0	2612002816	59	3857
2026-01-16 01:59:29.59	136.15	49.40	-43.8	-44.5	24.4	0.00e+00	0	49	0	2617245696	59	3855
2026-01-16 01:59:30.61	136.69	49.23	-43.9	-44.7	24.2	0.00e+00	0	49	0	2622488576	59	3919
2026-01-16 01:59:31.62	137.22	49.05	-44.2	-45.0	24.0	0.00e+00	0	49	0	2628780032	59	4066
2026-01-16 01:59:32.63	137.75	48.87	-44.4	-45.2	23.8	0.00e+00	0	49	0	2634022912	59	4169
2026-01-16 01:59:33.64	138.26	48.69	-44.4	-45.2	23.8	0.00e+00	0	49	0	2639265792	59	4168
2026-01-16 01:59:34.65	138.78	48.50	-44.2	-44.9	24.0	0.00e+00	0	49	0	2645557248	59	4040
2026-01-16 01:59:35.66	139.28	48.32	-44.2	-44.9	24.0	0.00e+00	0	49	0	2651848704	59	4045
2026-01-16 01:59:36.67	139.78	48.13	-44.2	-45.0	24.0	0.00e+00	0	49	0	2657091584	59	4062
2026-01-16 01:59:37.68	140.28	47.94	-44.2	-44.9	24.0	0.00e+00	0	49	0	2662334464	59	4048
2026-01-16 01:59:38.69	140.77	47.75	-44.1	-44.9	24.1	0.00e+00	0	49	0	2668625920	59	4013
2026-01-16 01:59:39.70	141.25	47.56	-43.9	-44.7	24.2	0.00e+00	0	49	0	2673868800	59	3933
2026-01-16 01:59:40.71	141.73	47.37	-44.0	-44.7	24.2	0.00e+00	0	49	0	2680160256	59	3947
2026-01-16 01:59:41.72	142.20	47.17	-43.8	-44.6	24.3	0.00e+00	0	49	0	2685403136	59	3880
2026-01-16 01:59:42.73	142.67	46.98	-44.1	-44.8	24.1	0.00e+00	0	49	0	2690646016	59	3989
2026-01-16 01:59:43.74	143.13	46.78	-44.2	-44.9	24.0	0.00e+00	0	49	0	2696937472	59	4046
2026-01-16 01:59:44.75	143.58	46.59	-44.4	-45.1	23.9	0.00e+00	0	49	0	2703228928	59	4126
2026-01-16 01:59:45.76	144.03	46.39	-44.2	-45.0	24.0	0.00e+00	0	49	0	2708471808	59	4065
2026-01-16 01:59:46.77	144.47	46.19	-44.3	-45.1	23.9	0.00e+00	0	49	0	2713714688	59	4119
2026-01-16 01:59:47.78	144.91	45.99	-44.1	-44.8	24.1	0.00e+00	0	49	0	2720006144	59	3989
2026-01-16 01:59:48.79	145.34	45.79	-44.0	-44.7	24.2	0.00e+00	0	49	0	2725249024	59	3933
2026-01-16 01:59:49.80	145.77	45.59	-44.0	-44.7	24.2	0.00e+00	0	49	0	2730491904	59	3954
2026-01-16 01:59:50.82	146.19	45.38	-43.8	-44.6	24.4	0.00e+00	0	49	0	2736783360	59	3874
2026-01-16 01:59:51.83	146.61	45.18	-43.6	-44.3	24.6	0.00e+00	0	49	0	2742026240	59	3780
2026-01-16 01:59:52.84	147.02	44.98	-43.6	-44.4	24.5	0.00e+00	0	49	0	2747269120	59	3791
2026-01-16 01:59:53.85	147.43	44.77	-43.8	-44.5	24.4	0.00e+00	0	49	0	2753560576	59	3849
2026-01-16 01:59:54.86	147.83	44.57	-43.7	-44.4	24.5	0.00e+00	0	49	0	2759852032	59	3801
2026-01-16 01:59:55.87	148.22	44.37	-43.5	-44.2	24.6	0.00e+00	0	49	0	2765094912	59	3713
2026-01-16 01:59:56.88	148.61	44.16	-43.5	-44.2	24.6	0.00e+00	0	49	0	2770337792	58	3927
2026-01-16 01:59:57.89	149.00	43.96	-43.7	-44.4	24.5	0.00e+00	0	49	0	2776629248	58	4031
2026-01-16 01:59:58.90	149.38	43.75	-43.8	-44.6	24.3	0.00e+00	0	49	0	2781872128	58	4111
2026-01-16 01:59:59.91	149.76	43.54	-43.9	-44.6	24.3	0.00e+00	0	49	0	2788163584	58	4138
2026-01-16 02:00:00.92	150.13	43.34	-43.9	-44.6	24.3	0.00e+00	0	49	0	2793406464	58	4132
2026-01-16 02:00:01.93	150.50	43.13	-43.7	-44.5	24.4	0.00e+00	0	49	0	2798649344	58	4063
2026-01-16 02:00:02.94	150.86	42.93	-43.7	-44.4	24.5	0.00e+00	0	49	0	2804940800	58	4020
2026-01-16 02:00:03.95	151.21	42.72	-43.7	-44.4	24.5	0.00e+00	0	49	0	2811232256	58	4019
2026-01-16 02:00:04.96	151.57	42.51	-43.6	-44.3	24.5	0.00e+00	0	49	0	2816475136	58	4004
2026-01-16 02:00:05.97	151.92	42.31	-43.6	-44.4	24.5	0.00e+00	0	49	0	2821718016	58	4006
2026-01-16 02:00:06.98	152.26	42.10	-43.4	-44.2	24.6	0.00e+00	0	49	0	2828009472	58	3934
2026-01-16 02:00:07.99	152.60	41.89	-43.4	-44.1	24.7	0.00e+00	0	49	0	2833252352	58	3898
2026-01-16 02:00:09.00	152.94	41.69	-43.4	-44.1	24.7	0.00e+00	0	49	0	2838495232	58	3899
2026-01-16 02:00:10.01	153.27	41.48	-43.3	-44.0	24.8	0.00e+00	0	49	0	2844786688	58	3860
2026-01-16 02:00:11.02	153.59	41.27	-43.3	-44.0	24.8	0.00e+00	0	49	0	2850029568	58	3861
2026-01-16 02:00:12.03	153.92	41.07	-43.4	-44.2	24.6	0.00e+00	0	49	0	2855272448	58	3921
2026-01-16 02:00:13.04	154.24	40.86	-43.5	-44.2	24.6	0.00e+00	0	49	0	2861563904	58	3947
2026-01-16 02:00:14.05	154.55	40.66	-43.5	-44.2	24.6	0.00e+00	0	49	0	2866806784	58	3941
2026-01-16 02:00:15.06	154.86	40.45	-43.5	-44.3	24.6	0.00e+00	0	49	0	2873098240	58	3961
2026-01-16 02:00:16.07	155.17	40.25	-43.4	-44.1	24.7	0.00e+00	0	49	0	2878341120	58	3907
2026-01-16 02:00:17.08	155.47	40.04	-43.4	-44.1	24.6	0.00e+00	0	48	0	2884632576	58	3910
2026-01-16 02:00:18.09	155.77	39.84	-43.3	-44.0	24.7	0.00e+00	0	49	0	2889875456	58	3866
2026-01-16 02:00:19.10	156.07	39.63	-43.1	-43.8	24.9	0.00e+00	0	49	0	2896166912	58	3755
2026-01-16 02:00:20.11	156.36	39.43	-43.1	-43.8	24.9	0.00e+00	0	49	0	2901409792	58	3775
2026-01-16 02:00:21.12	156.65	39.23	-43.1	-43.8	24.9	0.00e+00	0	49	0	2906652672	58	3755
2026-01-16 02:00:22.12	156.94	39.03	-43.1	-43.8	25.0	0.00e+00	0	49	0	2912944128	58	3753
2026-01-16 02:00:23.13	157.22	38.82	-43.2	-43.9	24.8	0.00e+00	0	49	0	2918187008	58	3801
2026-01-16 02:00:24.14	157.50	38.62	-43.3	-44.0	24.8	0.00e+00	0	49	0	2923429888	58	3836
2026-01-16 02:00:25.15	157.77	38.42	-43.3	-44.1	24.7	0.00e+00	0	49	0	2929721344	58	3877
2026-01-16 02:00:26.16	158.04	38.22	-43.4	-44.1	24.7	0.00e+00	0	49	0	2936012800	58	3896
2026-01-16 02:00:27.17	158.31	38.02	-43.4	-44.2	24.6	0.00e+00	0	49	0	2941255680	58	3918
2026-01-16 02:00:28.18	158.58	37.82	-43.3	-44.0	24.7	0.00e+00	0	49	0	2946498560	58	3865
2026-01-16 02:00:29.19	158.84	37.62	-43.2	-43.9	24.9	0.00e+00	0	49	0	2952790016	58	3782
2026-01-16 02:00:30.20	159.10	37.42	-43.1	-43.8	24.9	0.00e+00	0	49	0	2958032896	58	3759
2026-01-16 02:00:31.21	159.35	37.22	-43.2	-43.9	24.9	0.00e+00	0	49	0	2963275776	58	3793
2026-01-16 02:00:32.22	159.61	37.02	-43.2	-43.9	24.9	0.00e+00	0	49	0	2969567232	58	3783
2026-01-16 02:00:33.23	159.86	36.82	-43.1	-43.8	24.9	0.00e+00	0	49	0	2974810112	58	3763
2026-01-16 02:00:34.24	160.10	36.63	-43.1	-43.8	24.9	0.00e+00	0	49	0	2981101568	58	3773
2026-01-16 02:00:35.25	160.35	36.43	-43.1	-43.8	25.0	0.00e+00	0	49	0	2986344448	58	3751
2026-01-16 02:00:36.26	160.59	36.24	-43.1	-43.8	24.9	0.00e+00	0	49	0	2992635904	58	3755
2026-01-16 02:00:37.27	160.83	36.04	-43.1	-43.8	24.9	0.00e+00	0	49	0	2997878784	58	3760
2026-01-16 02:00:38.28	161.06	35.85	-43.0	-43.7	24.6	0.00e+00	0	49	0	3004170240	58	3733
2026-01-16 02:00:39.29	161.30	35.65	-42.9	-43.7	24.7	0.00e+00	0	49	0	3009413120	57	3922
2026-01-16 02:00:40.30	161.53	35.46	-42.9	-43.6	24.7	0.00e+00	0	49	0	3014656000	57	3893
2026-01-16 02:00:41.32	161.76	35.27	-42.9	-43.7	24.6	0.00e+00	0	49	0	3020947456	57	3920
2026-01-16 02:00:42.33	161.98	35.08	-42.9	-43.6	24.7	0.00e+00	0	49	0	3026190336	57	3898
2026-01-16 02:00:43.34	162.21	34.88	-42.9	-43.6	24.6	0.00e+00	0	49	0	3031433216	57	3911
2026-01-16 02:00:44.35	162.43	34.69	-43.0	-43.8	24.5	0.00e+00	0	49	0	3037724672	57	3980
2026-01-16 02:00:45.36	162.64	34.50	-43.1	-43.9	24.5	0.00e+00	0	49	0	3044016128	57	4016
2026-01-16 02:00:46.37	162.86	34.32	-43.2	-44.0	24.4	0.00e+00	0	49	0	3049259008	57	4070
2026-01-16 02:00:47.38	163.07	34.13	-43.3	-44.0	24.3	0.00e+00	0	49	0	3054501888	57	4097
2026-01-16 02:00:48.38	163.28	33.94	-43.2	-43.9	24.4	0.00e+00	0	49	0	3060793344	57	4043
2026-01-16 02:00:49.39	163.49	33.76	-43.1	-43.9	24.4	0.00e+00	0	49	0	3066036224	57	4029
2026-01-16 02:00:50.40	163.69	33.57	-43.1	-43.9	24.4	0.00e+00	0	49	0	3071279104	57	4021
2026-01-16 02:00:51.42	163.90	33.38	-43.0	-43.7	24.6	0.00e+00	0	49	0	3077570560	57	3951
2026-01-16 02:00:52.42	164.10	33.20	-43.0	-43.7	24.6	0.00e+00	0	49	0	3082813440	57	3948
2026-01-16 02:00:53.43	164.30	33.02	-43.0	-43.7	24.6	0.00e+00	0	49	0	3089104896	57	3943
2026-01-16 02:00:54.44	164.49	32.83	-43.0	-43.7	24.6	0.00e+00	0	49	0	3094347776	57	3952
2026-01-16 02:00:55.45	164.69	32.65	-43.0	-43.7	24.5	0.00e+00	0	49	0	3100639232	57	3951
2026-01-16 02:00:56.46	164.88	32.47	-43.1	-43.9	24.4	0.00e+00	0	49	0	3105882112	57	4032
2026-01-16 02:00:57.47	165.07	32.29	-43.2	-44.0	24.3	0.00e+00	0	49	0	3112173568	57	4077
2026-01-16 02:00:58.48	165.26	32.11	-43.4	-44.2	24.1	0.00e+00	0	49	0	3117416448	57	4151
2026-01-16 02:00:59.49	165.44	31.93	-43.5	-44.3	24.0	0.00e+00	0	49	0	3122659328	57	4216
2026-01-16 02:01:00.50	165.63	31.75	-43.6	-44.4	24.0	0.00e+00	0	49	0	3128950784	57	4257
2026-01-16 02:01:01.51	165.81	31.57	-43.6	-44.4	23.9	0.00e+00	0	49	0	3134193664	57	4276
2026-01-16 02:01:02.52	165.99	31.40	-43.6	-44.4	23.9	0.00e+00	0	49	0	3139436544	57	4250
2026-01-16 02:01:03.53	166.17	31.22	-43.6	-44.4	23.9	0.00e+00	0	49	0	3145728000	57	4276
2026-01-16 02:01:04.54	166.35	31.05	-43.5	-44.3	24.0	0.00e+00	0	49	0	3150970880	57	4210
2026-01-16 02:01:05.55	166.52	30.87	-43.3	-44.0	24.3	0.00e+00	0	49	0	3157262336	57	4077
2026-01-16 02:01:06.56	166.69	30.70	-43.3	-44.0	24.2	0.00e+00	0	49	0	3162505216	57	4090
2026-01-16 02:01:07.58	166.87	30.52	-43.2	-44.0	24.3	0.00e+00	0	49	0	3168796672	57	4062
2026-01-16 02:01:08.59	167.04	30.35	-43.3	-44.0	24.3	0.00e+00	0	49	0	3174039552	57	4085
2026-01-16 02:01:09.60	167.20	30.18	-43.2	-44.0	24.3	0.00e+00	0	49	0	3179282432	57	4080
2026-01-16 02:01:10.61	167.37	30.01	-43.3	-44.1	24.2	0.00e+00	0	49	0	3185573888	57	4126
2026-01-16 02:01:11.62	167.53	29.84	-43.5	-44.2	24.1	0.00e+00	0	49	0	3190816768	57	4190
2026-01-16 02:01:12.63	167.70	29.67	-43.5	-44.3	24.0	0.00e+00	0	49	0	3197108224	57	4222
2026-01-16 02:01:13.64	167.86	29.50	-43.6	-44.5	23.9	0.00e+00	0	49	0	3202351104	57	4297
2026-01-16 02:01:14.65	168.02	29.33	-43.7	-44.5	23.9	0.00e+00	0	49	0	3207593984	57	4293
2026-01-16 02:01:15.66	168.18	29.17	-43.6	-44.4	23.9	0.00e+00	0	49	0	3213885440	57	4267
2026-01-16 02:01:16.67	168.33	29.00	-43.7	-44.5	23.9	0.00e+00	0	49	0	3220176896	57	4300
2026-01-16 02:01:17.68	168.49	28.83	-43.5	-44.3	24.0	0.00e+00	0	49	0	3225419776	57	4224
2026-01-16 02:01:18.69	168.64	28.67	-43.5	-44.3	24.0	0.00e+00	0	49	0	3230662656	57	4225
2026-01-16 02:01:19.70	168.79	28.51	-43.5	-44.3	24.0	0.00e+00	0	49	0	3236954112	57	4232
2026-01-16 02:01:20.71	168.94	28.34	-43.4	-44.2	24.1	0.00e+00	0	49	0	3242196992	57	4175
2026-01-16 02:01:21.72	169.09	28.18	-43.4	-44.2	24.1	0.00e+00	0	49	0	3247439872	57	4176
2026-01-16 02:01:22.73	169.24	28.02	-43.5	-44.2	24.1	0.00e+00	0	49	0	3253731328	57	4193
2026-01-16 02:01:23.74	169.38	27.86	-43.4	-44.2	24.1	0.00e+00	0	49	0	3258974208	57	4149
2026-01-16 02:01:24.75	169.53	27.70	-43.4	-44.2	24.1	0.00e+00	0	49	0	3264217088	57	4179
2026-01-16 02:01:25.76	169.67	27.54	-43.4	-44.2	24.1	0.00e+00	0	49	0	3270508544	57	4163
2026-01-16 02:01:26.77	169.81	27.38	-43.5	-44.3	24.1	0.00e+00	0	49	0	3276800000	57	4199
2026-01-16 02:01:27.78	169.95	27.22	-43.5	-44.2	24.1	0.00e+00	0	49	0	3282042880	57	4186
2026-01-16 02:01:28.79	170.09	27.06	-43.4	-44.2	24.1	0.00e+00	0	49	0	3287285760	57	4186
2026-01-16 02:01:29.80	170.23	26.91	-43.5	-44.2	24.1	0.00e+00	0	49	0	3293577216	57	4192
2026-01-16 02:01:30.81	170.36	26.75	-43.5	-44.3	24.0	0.00e+00	0	49	0	3298820096	57	4234
2026-01-16 02:01:31.82	170.50	26.60	-43.5	-44.3	24.0	0.00e+00	0	49	0	3305111552	57	4202
2026-01-16 02:01:32.83	170.63	26.44	-43.5	-44.3	24.0	0.00e+00	0	49	0	3310354432	57	4221
2026-01-16 02:01:33.84	170.76	26.29	-43.5	-44.3	24.0	0.00e+00	0	49	0	3315597312	57	4231
2026-01-16 02:01:34.85	170.90	26.14	-43.4	-44.2	24.1	0.00e+00	0	49	0	3321888768	57	4173
2026-01-16 02:01:35.86	171.03	25.98	-43.5	-44.2	24.0	0.00e+00	0	49	0	3328180224	57	4187
2026-01-16 02:01:36.88	171.16	25.83	-43.5	-44.2	24.0	0.00e+00	0	49	0	3333423104	57	4193
2026-01-16 02:01:37.88	171.28	25.68	-43.6	-44.4	23.9	0.00e+00	0	49	0	3338665984	57	4259
2026-01-16 02:01:38.89	171.41	25.53	-43.5	-44.3	24.0	0.00e+00	0	49	0	3344957440	57	4222
2026-01-16 02:01:39.91	171.54	25.38	-43.6	-44.4	23.9	0.00e+00	0	49	0	3350200320	57	4243
2026-01-16 02:01:40.92	171.66	25.23	-43.6	-44.3	23.9	0.00e+00	0	49	0	3355443200	57	4236
2026-01-16 02:01:41.93	171.78	25.08	-43.7	-44.5	23.9	0.00e+00	0	49	0	3361734656	57	4294
2026-01-16 02:01:42.94	171.90	24.94	-43.8	-44.6	23.8	0.00e+00	0	49	0	3366977536	58	4115
2026-01-16 02:01:43.95	172.03	24.79	-43.7	-44.5	23.8	0.00e+00	0	49	0	3372220416	58	4092
2026-01-16 02:01:44.96	172.15	24.64	-43.9	-44.7	23.7	0.00e+00	0	49	0	3378511872	58	4159
2026-01-16 02:01:45.96	172.26	24.50	-43.8	-44.6	23.7	0.00e+00	0	49	0	3384803328	58	4124
2026-01-16 02:01:46.97	172.38	24.36	-43.8	-44.6	23.7	0.00e+00	0	49	0	3390046208	58	4115
2026-01-16 02:01:47.98	172.50	24.21	-43.8	-44.6	23.7	0.00e+00	0	49	0	3395289088	58	4111
2026-01-16 02:01:48.99	172.61	24.07	-43.9	-44.6	23.7	0.00e+00	0	49	0	3401580544	58	4145
2026-01-16 02:01:50.00	172.73	23.93	-43.7	-44.5	23.8	0.00e+00	0	49	0	3406823424	58	4080
2026-01-16 02:01:51.01	172.84	23.79	-43.7	-44.5	23.8	0.00e+00	0	49	0	3413114880	58	4082
2026-01-16 02:01:52.02	172.95	23.64	-43.8	-44.6	23.7	0.00e+00	0	49	0	3418357760	58	4123
2026-01-16 02:01:53.03	173.07	23.50	-43.9	-44.6	23.7	0.00e+00	0	49	0	3423600640	58	4133
2026-01-16 02:01:54.04	173.18	23.36	-43.8	-44.6	23.7	0.00e+00	0	49	0	3429892096	58	4119
2026-01-16 02:01:55.05	173.29	23.22	-43.9	-44.7	23.7	0.00e+00	0	49	0	3435134976	58	4160
2026-01-16 02:01:56.06	173.40	23.09	-43.8	-44.6	23.7	0.00e+00	0	49	0	3441426432	58	4124
2026-01-16 02:01:57.07	173.50	22.95	-43.9	-44.7	23.6	0.00e+00	0	49	0	3446669312	58	4170
2026-01-16 02:01:58.08	173.61	22.81	-43.9	-44.7	23.6	0.00e+00	0	49	0	3452960768	58	4181
2026-01-16 02:01:59.09	173.72	22.67	-43.9	-44.7	23.6	0.00e+00	0	49	0	3458203648	58	4186
2026-01-16 02:02:00.10	173.82	22.54	-44.0	-44.8	23.5	0.00e+00	0	49	0	3463446528	58	4237
2026-01-16 02:02:01.11	173.93	22.40	-44.1	-44.9	23.4	0.00e+00	0	49	0	3469737984	58	4266
2026-01-16 02:02:02.12	174.03	22.27	-44.2	-45.0	23.3	0.00e+00	0	49	0	3474980864	58	4335
2026-01-16 02:02:03.13	174.13	22.13	-44.2	-45.0	23.3	0.00e+00	0	49	0	3480223744	59	4097
2026-01-16 02:02:04.14	174.23	22.00	-44.3	-45.2	23.2	0.00e+00	0	49	0	3486515200	59	4158
2026-01-16 02:02:05.15	174.33	21.87	-44.4	-45.3	23.1	0.00e+00	0	49	0	3491758080	59	4196
2026-01-16 02:02:06.16	174.44	21.74	-44.4	-45.2	23.1	0.00e+00	0	48	0	3498049536	59	4178
2026-01-16 02:02:07.17	174.53	21.60	-44.5	-45.4	23.0	0.00e+00	0	49	0	3503292416	59	4243
2026-01-16 02:02:08.18	174.63	21.47	-44.4	-45.2	23.1	0.00e+00	0	49	0	3509583872	59	4183
2026-01-16 02:02:09.19	174.73	21.34	-44.4	-45.3	23.1	0.00e+00	0	49	0	3514826752	59	4207
2026-01-16 02:02:10.20	174.83	21.21	-44.5	-45.3	23.1	0.00e+00	0	49	0	3521118208	59	4215
2026-01-16 02:02:11.21	174.92	21.08	-44.5	-45.4	23.0	0.00e+00	0	49	0	3526361088	59	4247
2026-01-16 02:02:12.22	175.02	20.95	-44.4	-45.2	23.1	0.00e+00	0	49	0	3531603968	59	4192
2026-01-16 02:02:13.23	175.11	20.83	-44.5	-45.4	23.0	0.00e+00	0	49	0	3537895424	59	4244
2026-01-16 02:02:14.24	175.21	20.70	-44.5	-45.3	23.0	0.00e+00	0	49	0	3543138304	59	4225
2026-01-16 02:02:15.25	175.30	20.57	-44.5	-45.3	23.0	0.00e+00	0	49	0	3548381184	59	4220
2026-01-16 02:02:16.26	175.39	20.45	-44.5	-45.3	23.0	0.00e+00	0	49	0	3554672640	59	4223
2026-01-16 02:02:17.27	175.49	20.32	-44.4	-45.2	23.1	0.00e+00	0	49	0	3560964096	59	4181
2026-01-16 02:02:18.28	175.58	20.19	-44.4	-45.2	23.1	0.00e+00	0	49	0	3566206976	59	4184
2026-01-16 02:02:19.29	175.67	20.07	-44.4	-45.2	23.1	0.00e+00	0	49	0	3571449856	59	4187
2026-01-16 02:02:20.30	175.76	19.95	-44.5	-45.3	23.0	0.00e+00	0	49	0	3577741312	59	4212
2026-01-16 02:02:21.31	175.85	19.82	-44.5	-45.3	23.0	0.00e+00	0	49	0	3582984192	59	4218
2026-01-16 02:02:22.32	175.93	19.70	-44.6	-45.4	22.9	0.00e+00	0	49	0	3588227072	59	4288
2026-01-16 02:02:23.33	176.02	19.58	-44.6	-45.4	22.9	0.00e+00	0	49	0	3594518528	59	4262
2026-01-16 02:02:24.34	176.11	19.45	-44.6	-45.4	22.9	0.00e+00	0	49	0	3599761408	59	4276
2026-01-16 02:02:25.35	176.19	19.33	-44.7	-45.5	22.8	0.00e+00	0	49	0	3606052864	59	4319
2026-01-16 02:02:26.36	176.28	19.21	-44.4	-45.2	23.0	0.00e+00	0	49	0	3611295744	60	3941
2026-01-16 02:02:27.38	176.37	19.09	-44.4	-45.2	22.9	0.00e+00	0	49	0	3617587200	60	3954
2026-01-16 02:02:28.38	176.45	18.97	-44.5	-45.3	22.8	0.00e+00	0	49	0	3622830080	60	3983
2026-01-16 02:02:29.40	176.53	18.85	-44.5	-45.3	22.9	0.00e+00	0	49	0	3629121536	60	3980
2026-01-16 02:02:30.41	176.62	18.73	-44.5	-45.4	22.8	0.00e+00	0	49	0	3634364416	60	4008
2026-01-16 02:02:31.42	176.70	18.61	-44.6	-45.4	22.8	0.00e+00	0	49	0	3639607296	60	4031
2026-01-16 02:02:32.43	176.78	18.50	-44.6	-45.4	22.7	0.00e+00	0	49	0	3645898752	60	4036
2026-01-16 02:02:33.44	176.86	18.38	-44.7	-45.5	22.7	0.00e+00	0	49	0	3651141632	60	4063
2026-01-16 02:02:34.45	176.94	18.26	-44.7	-45.6	22.6	0.00e+00	0	49	0	3656384512	60	4107
2026-01-16 02:02:35.46	177.02	18.15	-44.8	-45.6	22.6	0.00e+00	0	49	0	3662675968	60	4118
2026-01-16 02:02:36.47	177.10	18.03	-44.8	-45.7	22.5	0.00e+00	0	49	0	3668967424	60	4149
2026-01-16 02:02:37.48	177.18	17.91	-44.8	-45.6	22.5	0.00e+00	0	49	0	3674210304	60	4139
2026-01-16 02:02:38.49	177.26	17.80	-44.9	-45.7	22.5	0.00e+00	0	49	0	3679453184	60	4166
2026-01-16 02:02:39.50	177.34	17.69	-44.9	-45.8	22.4	0.00e+00	0	49	0	3685744640	60	4195
2026-01-16 02:02:40.51	177.42	17.57	-44.9	-45.8	22.4	0.00e+00	0	49	0	3690987520	60	4209
2026-01-16 02:02:41.52	177.49	17.46	-44.9	-45.7	22.4	0.00e+00	0	49	0	3696230400	60	4188
2026-01-16 02:02:42.53	177.57	17.35	-45.0	-45.8	22.3	0.00e+00	0	49	0	3702521856	60	4240
2026-01-16 02:02:43.54	177.64	17.23	-45.1	-45.9	22.3	0.00e+00	0	49	0	3707764736	60	4274
2026-01-16 02:02:44.55	177.72	17.12	-45.1	-46.0	22.2	0.00e+00	0	49	0	3714056192	60	4295
2026-01-16 02:02:45.56	177.79	17.01	-45.1	-46.0	22.2	0.00e+00	0	49	0	3719299072	60	4310
2026-01-16 02:02:46.57	177.87	16.90	-45.2	-46.1	22.1	0.00e+00	0	49	0	3725590528	60	4345
2026-01-16 02:02:47.58	177.94	16.79	-45.2	-46.1	22.1	0.00e+00	0	49	0	3730833408	60	4341
2026-01-16 02:02:48.59	178.01	16.68	-45.3	-46.2	22.0	0.00e+00	0	49	0	3737124864	61	4155
2026-01-16 02:02:49.60	178.09	16.57	-45.3	-46.2	22.0	0.00e+00	0	49	0	3742367744	61	4169
2026-01-16 02:02:50.61	178.16	16.46	-45.4	-46.2	22.0	0.00e+00	0	49	0	3747610624	61	4193
2026-01-16 02:02:51.62	178.23	16.35	-45.5	-46.3	21.9	0.00e+00	0	49	0	3753902080	61	4239
2026-01-16 02:02:52.63	178.30	16.24	-45.5	-46.4	21.8	0.00e+00	0	49	0	3759144960	61	4270
2026-01-16 02:02:53.64	178.37	16.13	-45.5	-46.4	21.8	0.00e+00	0	49	0	3764387840	61	4257
2026-01-16 02:02:54.65	178.44	16.03	-45.5	-46.4	21.7	0.00e+00	0	49	0	3770679296	61	4286
2026-01-16 02:02:55.66	178.51	15.92	-45.7	-46.6	21.6	0.00e+00	0	49	0	3776970752	61	4354
2026-01-16 02:02:56.67	178.58	15.81	-45.6	-46.5	21.7	0.00e+00	0	49	0	3782213632	61	4301
2026-01-16 02:02:57.68	178.65	15.71	-45.6	-46.5	21.7	0.00e+00	0	49	0	3787456512	61	4324
2026-01-16 02:02:58.69	178.72	15.60	-45.7	-46.6	21.6	0.00e+00	0	49	0	3793747968	61	4359
2026-01-16 02:02:59.70	178.79	15.50	-45.6	-46.5	21.6	0.00e+00	0	49	0	3798990848	61	4327
2026-01-16 02:03:00.70	178.85	15.39	-45.6	-46.5	21.7	0.00e+00	0	49	0	3804233728	61	4312
2026-01-16 02:03:01.71	178.92	15.29	-45.6	-46.5	21.7	0.00e+00	0	49	0	3810525184	61	4320
