passes_logs/2026/01/16/R3.2S_Murmansk/R3.2S_Murmansk__20260116_055141_SUOMI_NPP_rec.log

#Pass ID: 20260116_055141_SUOMI NPP
#Satellite: SUOMI NPP
#Configuration: NPP
#almurnet v.1.7.20251203
#Start time: 2026-01-16 05:51:40

#Version: 2.2.20231116
#Station: R3.2S_Murmansk
#Location: 33.079688 lon 68.888172 lat
#TLE: 1 37849U 11061A   26015.52691075  .00000052  00000+0  45753-4 0  9993
#TLE: 2 37849  98.7811 317.5709 0002448  62.7632 297.3794 14.19525354736784

#Time	Az	El	Level	Level2	SNR	BER	BlckErr	Temp	State	Recorded	gain1	gain2
2026-01-16 05:51:40.86	72.19	1.97	-56.5	-71.4	3.8	1.49e+00	0	41	0	0	84	20246
2026-01-16 05:51:41.87	72.12	2.02	-56.4	-71.4	3.8	1.49e+00	0	41	104	0	83	21278
2026-01-16 05:51:42.88	72.06	2.08	-56.4	-71.3	3.8	1.49e+00	0	41	104	0	83	21211
2026-01-16 05:51:43.89	72.00	2.14	-56.4	-71.3	3.8	1.49e+00	0	41	104	0	83	21211
2026-01-16 05:51:44.90	71.93	2.20	-56.4	-71.3	3.8	1.49e+00	0	41	104	0	83	21240
2026-01-16 05:51:45.91	71.87	2.26	-56.4	-71.4	3.8	1.49e+00	0	42	104	0	83	21308
2026-01-16 05:51:46.92	71.80	2.31	-56.4	-71.3	3.8	1.49e+00	0	42	104	0	83	21158
2026-01-16 05:51:47.93	71.74	2.37	-56.4	-71.3	3.8	1.49e+00	0	42	104	0	83	21198
2026-01-16 05:51:48.94	71.68	2.43	-56.4	-71.3	3.8	1.49e+00	0	42	104	0	83	21162
2026-01-16 05:51:49.95	71.61	2.49	-56.4	-71.3	3.8	1.49e+00	0	42	104	0	83	21168
2026-01-16 05:51:50.96	71.55	2.55	-56.4	-71.3	3.8	1.49e+00	0	42	104	0	83	21158
2026-01-16 05:51:51.97	71.48	2.61	-56.4	-71.3	3.8	1.49e+00	0	42	104	0	83	21139
2026-01-16 05:51:52.98	71.41	2.66	-56.4	-71.3	3.8	1.49e+00	0	42	104	0	83	21187
2026-01-16 05:51:53.99	71.35	2.72	-56.4	-71.3	3.8	1.49e+00	0	42	104	0	83	21045
2026-01-16 05:51:55.00	71.28	2.78	-56.4	-71.3	3.8	1.49e+00	0	42	104	0	83	21165
2026-01-16 05:51:56.01	71.22	2.84	-56.3	-71.3	3.8	1.49e+00	0	42	104	0	83	21180
2026-01-16 05:51:57.02	71.15	2.90	-56.3	-71.3	3.8	1.49e+00	0	42	104	0	83	21143
2026-01-16 05:51:58.03	71.08	2.96	-56.3	-71.3	3.8	1.49e+00	0	42	104	0	83	21194
2026-01-16 05:51:59.04	71.02	3.02	-56.4	-71.3	3.8	1.49e+00	0	42	104	0	83	21181
2026-01-16 05:52:00.05	70.95	3.08	-56.3	-71.3	3.8	1.49e+00	0	42	104	0	83	21142
2026-01-16 05:52:01.06	70.88	3.13	-56.3	-71.3	3.8	1.49e+00	0	42	104	0	83	21120
2026-01-16 05:52:02.07	70.81	3.19	-56.3	-71.3	3.8	1.49e+00	0	43	104	0	83	21091
2026-01-16 05:52:03.08	70.74	3.25	-56.3	-71.3	3.8	1.49e+00	0	42	104	0	83	21079
2026-01-16 05:52:04.09	70.67	3.31	-56.3	-71.3	3.8	1.49e+00	0	43	104	0	83	21115
2026-01-16 05:52:05.10	70.60	3.37	-56.3	-71.3	3.8	1.49e+00	0	43	104	0	83	21106
2026-01-16 05:52:06.11	70.54	3.43	-56.3	-71.3	3.8	1.49e+00	0	43	104	0	83	21126
2026-01-16 05:52:07.12	70.47	3.49	-56.3	-71.3	3.8	1.49e+00	0	43	104	0	83	21107
2026-01-16 05:52:08.13	70.40	3.55	-56.3	-71.3	3.8	1.49e+00	0	43	104	0	83	21165
2026-01-16 05:52:09.14	70.33	3.61	-56.3	-71.3	3.8	1.49e+00	0	43	104	0	83	21026
2026-01-16 05:52:10.15	70.26	3.67	-56.3	-71.3	3.8	1.49e+00	0	43	104	0	83	21040
2026-01-16 05:52:11.16	70.18	3.73	-56.3	-71.2	3.8	1.49e+00	0	43	104	0	83	20998
2026-01-16 05:52:12.17	70.11	3.79	-56.3	-71.2	3.8	1.49e+00	0	43	104	0	83	21013
2026-01-16 05:52:13.18	70.04	3.85	-56.3	-71.3	3.8	1.49e+00	0	43	104	0	83	21020
2026-01-16 05:52:14.19	69.97	3.91	-56.3	-71.3	3.8	1.49e+00	0	43	104	0	83	21073
2026-01-16 05:52:15.20	69.90	3.97	-56.3	-71.3	3.8	1.49e+00	0	43	104	0	83	21019
2026-01-16 05:52:16.21	69.83	4.03	-56.3	-71.2	3.8	1.49e+00	0	43	104	0	83	20859
2026-01-16 05:52:17.22	69.75	4.09	-56.3	-70.8	3.8	1.49e+00	0	43	104	0	83	20035
2026-01-16 05:52:18.23	69.68	4.16	-56.3	-70.8	3.8	1.49e+00	0	43	104	0	83	19899
2026-01-16 05:52:19.24	69.61	4.22	-56.3	-70.2	3.8	1.49e+00	0	43	104	0	83	18679
2026-01-16 05:52:20.25	69.53	4.28	-56.2	-69.4	3.8	1.49e+00	0	43	104	0	83	17014
2026-01-16 05:52:21.26	69.46	4.34	-56.2	-68.5	3.9	1.49e+00	0	43	104	0	83	15393
2026-01-16 05:52:22.28	69.38	4.40	-56.2	-68.4	3.9	1.49e+00	0	43	104	0	83	15194
2026-01-16 05:52:23.28	69.31	4.46	-56.1	-67.3	4.3	1.39e+00	1	43	0	0	83	13394
2026-01-16 05:52:24.30	69.23	4.52	-56.0	-66.8	4.5	1.05e+00	1	44	0	1048576	83	12521
2026-01-16 05:52:25.31	69.16	4.58	-55.9	-65.7	5.0	7.19e-01	0	44	0	3145728	83	11078
2026-01-16 05:52:26.31	69.08	4.64	-55.8	-64.3	5.9	4.22e-01	0	44	0	4194304	83	9496
2026-01-16 05:52:27.32	69.01	4.71	-55.5	-63.1	6.9	3.27e-01	0	44	0	6291456	83	8228
2026-01-16 05:52:28.33	68.93	4.77	-55.4	-62.3	7.7	8.76e-02	0	44	0	8388608	82	7953
2026-01-16 05:52:29.34	68.85	4.83	-55.4	-62.6	7.4	1.45e-01	0	44	0	10485760	82	8265
2026-01-16 05:52:30.35	68.78	4.89	-55.4	-62.7	7.3	2.27e-01	0	44	0	11534336	82	8278
2026-01-16 05:52:31.36	68.70	4.95	-54.8	-60.2	9.8	1.38e-02	0	44	0	13631488	81	6619
2026-01-16 05:52:32.37	68.62	5.02	-55.5	-62.9	7.1	3.28e-02	0	44	0	15728640	81	9043
2026-01-16 05:52:33.38	68.54	5.08	-55.1	-61.3	8.5	1.76e-01	0	44	0	17825792	81	7535
2026-01-16 05:52:34.39	68.47	5.14	-54.3	-58.8	11.4	5.81e-04	0	44	0	19922944	80	5977
2026-01-16 05:52:35.40	68.39	5.20	-55.2	-61.5	8.5	5.15e-02	0	44	0	22020096	81	7678
2026-01-16 05:52:36.41	68.31	5.26	-55.5	-62.9	6.9	7.06e-01	0	44	0	23068672	82	8477
2026-01-16 05:52:37.42	68.23	5.33	-54.4	-59.0	11.7	2.10e-04	0	44	0	25165824	79	6423
2026-01-16 05:52:38.43	68.15	5.39	-55.6	-63.4	6.4	9.11e-01	0	44	0	27262976	82	9045
2026-01-16 05:52:39.44	68.07	5.45	-53.1	-56.2	14.3	3.80e-06	0	44	0	29360128	77	5265
2026-01-16 05:52:40.45	67.99	5.52	-53.1	-56.3	14.1	8.30e-06	0	44	0	31457280	77	5289
2026-01-16 05:52:41.46	67.91	5.58	-52.6	-55.2	15.2	0.00e+00	0	44	0	32505856	77	4696
2026-01-16 05:52:42.47	67.83	5.64	-53.2	-56.3	14.3	0.00e+00	0	44	0	34603008	77	5310
2026-01-16 05:52:43.47	67.75	5.70	-53.0	-56.0	14.4	7.60e-06	0	44	0	36700160	77	5154
2026-01-16 05:52:44.48	67.66	5.77	-53.0	-55.9	14.6	7.00e-07	0	44	0	38797312	77	5083
2026-01-16 05:52:45.49	67.58	5.83	-53.2	-56.4	14.1	0.00e+00	0	44	0	40894464	77	5360
2026-01-16 05:52:46.50	67.50	5.89	-52.6	-55.4	15.1	1.50e-06	0	44	0	41943040	77	4769
2026-01-16 05:52:47.51	67.42	5.96	-52.9	-55.7	14.9	0.00e+00	0	45	0	44040192	77	4953
2026-01-16 05:52:48.52	67.33	6.02	-52.3	-54.9	15.6	7.00e-07	0	44	0	46137344	76	4785
2026-01-16 05:52:49.53	67.25	6.08	-52.8	-55.5	15.0	0.00e+00	0	44	0	48234496	76	5147
2026-01-16 05:52:50.54	67.16	6.15	-52.8	-55.6	15.0	0.00e+00	0	45	0	50331648	76	5192
2026-01-16 05:52:51.55	67.08	6.21	-52.4	-54.9	15.7	0.00e+00	0	45	0	51380224	76	4787
2026-01-16 05:52:52.56	66.99	6.28	-52.8	-55.6	14.9	0.00e+00	0	45	0	53477376	76	5208
2026-01-16 05:52:53.57	66.91	6.34	-52.9	-55.8	14.7	7.00e-07	0	44	0	55574528	76	5323
2026-01-16 05:52:54.58	66.82	6.40	-52.6	-55.3	15.3	0.00e+00	0	45	0	57671680	76	5005
2026-01-16 05:52:55.59	66.74	6.47	-53.0	-55.9	14.6	0.00e+00	0	45	0	59768832	76	5387
2026-01-16 05:52:56.60	66.65	6.53	-52.9	-55.8	14.9	0.00e+00	0	45	0	60817408	76	5283
2026-01-16 05:52:57.61	66.56	6.60	-52.5	-55.2	15.5	0.00e+00	0	45	0	62914560	76	4940
2026-01-16 05:52:58.62	66.48	6.66	-52.7	-55.4	15.2	0.00e+00	0	45	0	65011712	76	5095
2026-01-16 05:52:59.63	66.39	6.73	-52.7	-55.4	15.3	0.00e+00	0	45	0	67108864	76	5063
2026-01-16 05:53:00.64	66.30	6.79	-52.8	-55.5	15.1	0.00e+00	0	45	0	69206016	76	5121
2026-01-16 05:53:01.65	66.21	6.86	-52.9	-55.8	14.8	0.00e+00	0	45	0	70254592	76	5320
2026-01-16 05:53:02.66	66.12	6.92	-53.0	-55.9	14.8	0.00e+00	0	45	0	72351744	76	5341
2026-01-16 05:53:03.66	66.03	6.99	-52.8	-55.6	15.0	0.00e+00	0	45	0	74448896	76	5186
2026-01-16 05:53:04.67	65.94	7.05	-53.0	-56.0	14.7	0.00e+00	0	45	0	76546048	76	5406
2026-01-16 05:53:05.68	65.85	7.12	-53.3	-56.4	14.2	7.00e-07	0	45	0	78643200	77	5388
2026-01-16 05:53:06.69	65.76	7.18	-53.1	-56.1	14.6	7.00e-07	0	45	0	80740352	77	5193
2026-01-16 05:53:07.70	65.67	7.25	-53.1	-56.0	14.6	0.00e+00	0	45	0	81788928	77	5142
2026-01-16 05:53:08.71	65.58	7.31	-52.8	-55.7	15.0	0.00e+00	0	45	0	83886080	77	4936
2026-01-16 05:53:09.72	65.49	7.38	-52.9	-55.8	14.9	0.00e+00	0	45	0	85983232	77	4988
2026-01-16 05:53:10.73	65.40	7.44	-52.7	-55.4	15.2	7.00e-07	0	45	0	88080384	77	4808
2026-01-16 05:53:11.74	65.30	7.51	-52.7	-55.5	15.2	0.00e+00	0	45	0	89128960	77	4830
2026-01-16 05:53:12.75	65.21	7.57	-53.1	-56.0	14.7	0.00e+00	0	45	0	91226112	77	5137
2026-01-16 05:53:13.76	65.12	7.64	-52.8	-55.6	15.1	0.00e+00	0	45	0	93323264	77	4910
2026-01-16 05:53:14.77	65.02	7.71	-52.9	-55.7	15.1	0.00e+00	0	46	0	95420416	77	4947
2026-01-16 05:53:15.77	64.93	7.77	-52.6	-55.3	15.4	0.00e+00	0	45	0	97517568	77	4723
2026-01-16 05:53:16.78	64.83	7.84	-52.7	-55.4	15.3	0.00e+00	0	45	0	99614720	77	4812
2026-01-16 05:53:17.79	64.74	7.90	-52.6	-55.2	15.6	0.00e+00	0	45	0	100663296	77	4668
2026-01-16 05:53:18.80	64.64	7.97	-52.4	-55.0	15.8	0.00e+00	0	45	0	102760448	76	4836
2026-01-16 05:53:19.81	64.55	8.04	-52.5	-55.1	15.6	0.00e+00	0	45	0	104857600	76	4911
2026-01-16 05:53:20.82	64.45	8.10	-52.5	-55.0	15.8	0.00e+00	0	46	0	106954752	76	4836
2026-01-16 05:53:21.83	64.35	8.17	-52.4	-54.9	15.9	0.00e+00	0	46	0	109051904	76	4789
2026-01-16 05:53:22.84	64.26	8.24	-52.0	-54.4	16.4	0.00e+00	0	45	0	110100480	76	4497
2026-01-16 05:53:23.85	64.16	8.31	-52.2	-54.6	16.2	0.00e+00	0	45	0	112197632	76	4635
2026-01-16 05:53:24.86	64.06	8.37	-52.3	-54.7	16.1	0.00e+00	0	46	0	114294784	76	4688
2026-01-16 05:53:25.87	63.96	8.44	-52.2	-54.6	16.2	0.00e+00	0	46	0	116391936	76	4620
2026-01-16 05:53:26.88	63.86	8.51	-52.2	-54.5	16.3	0.00e+00	0	46	0	118489088	76	4577
2026-01-16 05:53:27.89	63.76	8.57	-52.2	-54.5	16.3	0.00e+00	0	45	0	119537664	76	4582
2026-01-16 05:53:28.90	63.66	8.64	-52.2	-54.5	16.3	0.00e+00	0	46	0	121634816	76	4595
2026-01-16 05:53:29.91	63.56	8.71	-52.1	-54.4	16.5	0.00e+00	0	46	0	123731968	75	4766
2026-01-16 05:53:30.92	63.46	8.78	-52.1	-54.4	16.4	0.00e+00	0	46	0	125829120	75	4790
2026-01-16 05:53:31.93	63.35	8.84	-52.0	-54.3	16.5	0.00e+00	0	46	0	127926272	75	4729
2026-01-16 05:53:32.94	63.25	8.91	-52.1	-54.4	16.4	0.00e+00	0	46	0	128974848	75	4805
2026-01-16 05:53:33.95	63.15	8.98	-52.0	-54.2	16.6	0.00e+00	0	46	0	131072000	75	4673
2026-01-16 05:53:34.96	63.05	9.05	-52.1	-54.4	16.4	0.00e+00	0	46	0	133169152	75	4805
2026-01-16 05:53:35.97	62.94	9.12	-52.1	-54.4	16.4	0.00e+00	0	46	0	135266304	75	4805
2026-01-16 05:53:36.98	62.84	9.18	-52.0	-54.1	16.7	0.00e+00	0	46	0	137363456	75	4648
2026-01-16 05:53:37.99	62.73	9.25	-52.0	-54.2	16.6	0.00e+00	0	46	0	139460608	75	4703
2026-01-16 05:53:39.00	62.63	9.32	-52.1	-54.4	16.5	0.00e+00	0	46	0	140509184	75	4805
2026-01-16 05:53:40.01	62.52	9.39	-52.1	-54.3	16.6	0.00e+00	0	46	0	142606336	75	4744
2026-01-16 05:53:41.01	62.42	9.46	-52.2	-54.6	16.4	0.00e+00	0	46	0	144703488	75	4900
2026-01-16 05:53:42.02	62.31	9.53	-52.4	-54.7	16.2	0.00e+00	0	46	0	146800640	75	4983
2026-01-16 05:53:43.03	62.20	9.59	-52.2	-54.5	16.4	0.00e+00	0	46	0	147849216	75	4835
2026-01-16 05:53:44.05	62.09	9.66	-52.1	-54.4	16.5	0.00e+00	0	46	0	149946368	75	4778
2026-01-16 05:53:45.05	61.98	9.73	-52.1	-54.3	16.6	0.00e+00	0	46	0	152043520	75	4731
2026-01-16 05:53:46.07	61.87	9.80	-52.1	-54.4	16.5	0.00e+00	0	46	0	154140672	75	4794
2026-01-16 05:53:47.07	61.77	9.87	-52.3	-54.6	16.3	0.00e+00	0	46	0	156237824	75	4885
2026-01-16 05:53:48.09	61.65	9.94	-52.3	-54.7	16.3	0.00e+00	0	46	0	158334976	75	4944
2026-01-16 05:53:49.10	61.54	10.01	-52.5	-54.9	16.0	0.00e+00	0	46	0	159383552	75	5097
2026-01-16 05:53:50.11	61.43	10.08	-52.3	-54.7	16.2	0.00e+00	0	46	0	161480704	75	4948
2026-01-16 05:53:51.12	61.32	10.15	-52.3	-54.6	16.3	0.00e+00	0	46	0	163577856	75	4906
2026-01-16 05:53:52.13	61.21	10.22	-52.3	-54.7	16.2	0.00e+00	0	46	0	165675008	75	4932
2026-01-16 05:53:53.13	61.10	10.29	-52.3	-54.7	16.2	0.00e+00	0	46	0	167772160	75	4958
2026-01-16 05:53:54.14	60.98	10.36	-52.2	-54.5	16.5	0.00e+00	0	46	0	168820736	75	4820
2026-01-16 05:53:55.15	60.87	10.43	-52.4	-54.8	16.2	0.00e+00	0	46	0	170917888	75	4986
2026-01-16 05:53:56.16	60.75	10.50	-52.2	-54.5	16.5	0.00e+00	0	46	0	173015040	75	4840
2026-01-16 05:53:57.17	60.64	10.57	-52.6	-55.0	16.0	0.00e+00	0	46	0	175112192	75	5125
2026-01-16 05:53:58.18	60.52	10.64	-52.3	-54.6	16.3	0.00e+00	0	46	0	177209344	75	4904
2026-01-16 05:53:59.19	60.41	10.71	-52.2	-54.5	16.5	0.00e+00	0	46	0	178257920	75	4848
2026-01-16 05:54:00.20	60.29	10.78	-52.5	-54.9	16.1	0.00e+00	0	46	0	180355072	75	5049
2026-01-16 05:54:01.21	60.17	10.85	-52.4	-54.8	16.2	0.00e+00	0	46	0	182452224	75	4988
2026-01-16 05:54:02.22	60.06	10.92	-52.3	-54.7	16.3	0.00e+00	0	46	0	184549376	75	4931
2026-01-16 05:54:03.23	59.94	10.99	-52.3	-54.6	16.4	0.00e+00	0	47	0	186646528	75	4875
2026-01-16 05:54:04.24	59.82	11.06	-52.2	-54.5	16.5	0.00e+00	0	46	0	187695104	75	4842
2026-01-16 05:54:05.25	59.70	11.13	-52.3	-54.6	16.4	0.00e+00	0	47	0	189792256	75	4902
2026-01-16 05:54:06.26	59.58	11.20	-52.1	-54.4	16.6	0.00e+00	0	46	0	191889408	75	4761
2026-01-16 05:54:07.27	59.46	11.27	-52.1	-54.4	16.6	0.00e+00	0	47	0	193986560	75	4770
2026-01-16 05:54:08.28	59.34	11.34	-52.1	-54.3	16.6	0.00e+00	0	46	0	196083712	75	4750
2026-01-16 05:54:09.29	59.21	11.41	-52.1	-54.3	16.7	0.00e+00	0	47	0	197132288	75	4708
2026-01-16 05:54:10.30	59.09	11.48	-52.2	-54.5	16.5	0.00e+00	0	47	0	199229440	75	4849
2026-01-16 05:54:11.30	58.97	11.55	-51.9	-54.1	16.9	0.00e+00	0	47	0	201326592	75	4606
2026-01-16 05:54:12.31	58.84	11.62	-52.1	-54.2	16.8	0.00e+00	0	47	0	203423744	75	4698
2026-01-16 05:54:13.32	58.72	11.70	-51.9	-54.1	16.9	0.00e+00	0	47	0	205520896	75	4610
2026-01-16 05:54:14.33	58.59	11.77	-51.8	-53.8	17.2	0.00e+00	0	46	0	206569472	75	4477
2026-01-16 05:54:15.34	58.47	11.84	-51.9	-53.9	17.1	0.00e+00	0	47	0	208666624	75	4533
2026-01-16 05:54:16.35	58.34	11.91	-51.9	-54.0	17.0	0.00e+00	0	46	0	210763776	75	4563
2026-01-16 05:54:17.36	58.22	11.98	-51.9	-53.9	17.1	0.00e+00	0	47	0	212860928	75	4544
2026-01-16 05:54:18.37	58.09	12.05	-51.7	-53.7	17.4	0.00e+00	0	47	0	214958080	75	4399
2026-01-16 05:54:19.38	57.96	12.13	-51.6	-53.6	17.4	0.00e+00	0	47	0	217055232	75	4370
2026-01-16 05:54:20.39	57.83	12.20	-51.8	-53.8	17.2	0.00e+00	0	47	0	218103808	75	4481
2026-01-16 05:54:21.40	57.70	12.27	-51.5	-53.5	17.5	0.00e+00	0	47	0	220200960	75	4323
2026-01-16 05:54:22.41	57.57	12.34	-51.6	-53.5	17.5	0.00e+00	0	47	0	222298112	75	4333
2026-01-16 05:54:23.42	57.44	12.41	-51.4	-53.4	17.7	0.00e+00	0	47	0	224395264	74	4506
2026-01-16 05:54:24.43	57.31	12.48	-51.5	-53.4	17.6	0.00e+00	0	47	0	225443840	74	4542
2026-01-16 05:54:25.44	57.18	12.56	-51.4	-53.4	17.6	0.00e+00	0	47	0	227540992	74	4508
2026-01-16 05:54:26.45	57.04	12.63	-51.5	-53.5	17.6	0.00e+00	0	47	0	229638144	74	4564
2026-01-16 05:54:27.46	56.91	12.70	-51.6	-53.6	17.5	0.00e+00	0	47	0	231735296	74	4608
2026-01-16 05:54:28.47	56.78	12.77	-51.5	-53.5	17.6	0.00e+00	0	47	0	233832448	74	4563
2026-01-16 05:54:29.48	56.64	12.85	-51.4	-53.3	17.8	0.00e+00	0	47	0	235929600	74	4468
2026-01-16 05:54:30.49	56.50	12.92	-51.3	-53.2	17.8	0.00e+00	0	47	0	236978176	74	4423
2026-01-16 05:54:31.50	56.37	12.99	-51.4	-53.3	17.7	0.00e+00	0	47	0	239075328	74	4465
2026-01-16 05:54:32.51	56.23	13.06	-51.3	-53.1	17.9	0.00e+00	0	47	0	241172480	74	4391
2026-01-16 05:54:33.52	56.09	13.13	-51.3	-53.2	17.9	0.00e+00	0	47	0	243269632	74	4406
2026-01-16 05:54:34.53	55.96	13.21	-51.5	-53.5	17.5	0.00e+00	0	47	0	245366784	74	4567
2026-01-16 05:54:35.54	55.82	13.28	-51.5	-53.5	17.6	0.00e+00	0	47	0	246415360	74	4548
2026-01-16 05:54:36.55	55.68	13.35	-51.4	-53.3	17.8	0.00e+00	0	47	0	248512512	74	4444
2026-01-16 05:54:37.56	55.54	13.43	-51.3	-53.2	17.9	0.00e+00	0	47	0	250609664	74	4407
2026-01-16 05:54:38.57	55.39	13.50	-51.3	-53.2	17.8	0.00e+00	0	47	0	252706816	74	4419
2026-01-16 05:54:39.57	55.25	13.57	-51.2	-53.1	17.9	0.00e+00	0	47	0	254803968	74	4350
2026-01-16 05:54:40.58	55.11	13.64	-51.2	-53.1	17.9	0.00e+00	0	47	0	255852544	74	4390
2026-01-16 05:54:41.59	54.97	13.72	-51.2	-53.1	17.9	0.00e+00	0	47	0	257949696	74	4377
2026-01-16 05:54:42.60	54.82	13.79	-51.3	-53.2	17.8	0.00e+00	0	47	0	260046848	74	4427
2026-01-16 05:54:43.61	54.68	13.86	-51.3	-53.2	17.9	0.00e+00	0	47	0	262144000	74	4408
2026-01-16 05:54:44.62	54.53	13.93	-51.4	-53.3	17.7	0.00e+00	0	47	0	264241152	74	4483
2026-01-16 05:54:45.63	54.39	14.01	-51.3	-53.2	17.8	0.00e+00	0	47	0	265289728	74	4435
2026-01-16 05:54:46.64	54.24	14.08	-51.5	-53.5	17.6	0.00e+00	0	47	0	267386880	74	4548
2026-01-16 05:54:47.65	54.09	14.15	-51.2	-53.1	17.9	0.00e+00	0	47	0	269484032	74	4370
2026-01-16 05:54:48.66	53.95	14.23	-51.4	-53.3	17.7	0.00e+00	0	47	0	271581184	74	4480
2026-01-16 05:54:49.67	53.80	14.30	-51.6	-53.6	17.4	0.00e+00	0	47	0	273678336	74	4633
2026-01-16 05:54:50.68	53.65	14.37	-51.4	-53.4	17.6	0.00e+00	0	47	0	275775488	74	4531
2026-01-16 05:54:51.69	53.50	14.45	-51.6	-53.7	17.4	0.00e+00	0	47	0	276824064	74	4693
2026-01-16 05:54:52.70	53.34	14.52	-51.7	-53.7	17.4	0.00e+00	0	47	0	278921216	74	4696
2026-01-16 05:54:53.71	53.19	14.59	-51.7	-53.9	17.3	0.00e+00	0	47	0	281018368	74	4762
2026-01-16 05:54:54.72	53.04	14.66	-51.6	-53.7	17.4	0.00e+00	0	47	0	283115520	74	4671
2026-01-16 05:54:55.72	52.89	14.74	-51.8	-54.0	17.1	0.00e+00	0	47	0	284164096	74	4833
2026-01-16 05:54:56.73	52.73	14.81	-51.7	-53.8	17.3	0.00e+00	0	47	0	286261248	74	4745
2026-01-16 05:54:57.74	52.58	14.88	-51.7	-53.7	17.4	0.00e+00	0	47	0	288358400	74	4687
2026-01-16 05:54:58.75	52.42	14.96	-51.6	-53.5	17.5	0.00e+00	0	47	0	290455552	74	4598
2026-01-16 05:54:59.76	52.26	15.03	-51.5	-53.5	17.6	0.00e+00	0	47	0	292552704	74	4569
2026-01-16 05:55:00.77	52.11	15.10	-51.6	-53.6	17.5	0.00e+00	0	47	0	294649856	74	4622
2026-01-16 05:55:01.78	51.95	15.18	-51.7	-53.8	17.3	0.00e+00	0	47	0	295698432	74	4721
2026-01-16 05:55:02.79	51.79	15.25	-51.5	-53.5	17.6	0.00e+00	0	47	0	297795584	74	4574
2026-01-16 05:55:03.80	51.63	15.32	-51.5	-53.5	17.5	0.00e+00	0	47	0	299892736	74	4587
2026-01-16 05:55:04.81	51.47	15.40	-51.8	-53.9	17.2	0.00e+00	0	47	0	301989888	74	4780
2026-01-16 05:55:05.82	51.31	15.47	-52.0	-54.2	17.0	0.00e+00	0	47	0	304087040	74	4940
2026-01-16 05:55:06.83	51.15	15.54	-52.1	-54.3	16.9	0.00e+00	0	47	0	305135616	75	4731
2026-01-16 05:55:07.84	50.98	15.62	-52.2	-54.5	16.7	0.00e+00	0	47	0	307232768	75	4819
2026-01-16 05:55:08.85	50.82	15.69	-52.1	-54.4	16.8	0.00e+00	0	47	0	309329920	75	4760
2026-01-16 05:55:09.86	50.65	15.76	-52.1	-54.3	16.8	0.00e+00	0	47	0	311427072	75	4752
2026-01-16 05:55:10.87	50.49	15.83	-52.0	-54.2	17.0	0.00e+00	0	48	0	313524224	75	4695
2026-01-16 05:55:11.88	50.32	15.91	-52.1	-54.4	16.8	0.00e+00	0	47	0	314572800	75	4780
2026-01-16 05:55:12.88	50.16	15.98	-52.2	-54.5	16.7	0.00e+00	0	47	0	316669952	75	4844
2026-01-16 05:55:13.89	49.99	16.05	-52.0	-54.2	16.9	0.00e+00	0	47	0	318767104	75	4696
2026-01-16 05:55:14.90	49.82	16.13	-51.9	-54.0	17.2	0.00e+00	0	48	0	320864256	75	4572
2026-01-16 05:55:15.91	49.65	16.20	-51.7	-53.7	17.5	0.00e+00	0	48	0	322961408	75	4417
2026-01-16 05:55:16.92	49.48	16.27	-51.7	-53.7	17.5	0.00e+00	0	47	0	324009984	75	4428
2026-01-16 05:55:17.93	49.31	16.34	-51.6	-53.5	17.6	0.00e+00	0	47	0	326107136	75	4321
2026-01-16 05:55:18.94	49.13	16.42	-51.5	-53.5	17.6	0.00e+00	0	48	0	328204288	75	4320
2026-01-16 05:55:19.95	48.96	16.49	-51.6	-53.7	17.5	0.00e+00	0	47	0	330301440	75	4397
2026-01-16 05:55:20.96	48.79	16.56	-51.7	-53.7	17.5	0.00e+00	0	47	0	332398592	75	4405
2026-01-16 05:55:21.97	48.61	16.64	-51.7	-53.8	17.4	0.00e+00	0	48	0	333447168	75	4470
2026-01-16 05:55:22.98	48.44	16.71	-51.6	-53.6	17.5	0.00e+00	0	48	0	335544320	74	4636
2026-01-16 05:55:23.99	48.26	16.78	-51.7	-53.7	17.5	0.00e+00	0	48	0	337641472	74	4662
2026-01-16 05:55:25.00	48.08	16.85	-51.6	-53.6	17.6	0.00e+00	0	48	0	339738624	74	4600
2026-01-16 05:55:26.01	47.90	16.93	-51.5	-53.5	17.7	0.00e+00	0	48	0	341835776	74	4570
2026-01-16 05:55:27.02	47.73	17.00	-51.8	-53.8	17.4	0.00e+00	0	48	0	342884352	74	4739
2026-01-16 05:55:28.02	47.55	17.07	-51.8	-53.9	17.3	0.00e+00	0	47	0	344981504	74	4805
2026-01-16 05:55:29.03	47.37	17.14	-51.9	-53.9	17.3	0.00e+00	0	47	0	347078656	74	4804
2026-01-16 05:55:30.04	47.18	17.21	-51.5	-53.5	17.7	0.00e+00	0	48	0	349175808	74	4568
2026-01-16 05:55:31.05	47.00	17.29	-51.7	-53.7	17.5	0.00e+00	0	48	0	351272960	74	4678
2026-01-16 05:55:32.06	46.82	17.36	-52.0	-54.0	17.2	0.00e+00	0	48	0	353370112	74	4866
2026-01-16 05:55:33.07	46.63	17.43	-51.9	-54.0	17.2	0.00e+00	0	47	0	354418688	74	4843
2026-01-16 05:55:34.08	46.45	17.50	-52.3	-54.5	16.7	0.00e+00	0	48	0	356515840	75	4866
2026-01-16 05:55:35.09	46.26	17.57	-52.0	-54.1	17.1	0.00e+00	0	48	0	358612992	75	4621
2026-01-16 05:55:36.10	46.08	17.64	-52.1	-54.3	17.0	0.00e+00	0	48	0	360710144	75	4714
2026-01-16 05:55:37.11	45.89	17.71	-51.8	-53.8	17.3	0.00e+00	0	48	0	361758720	75	4491
2026-01-16 05:55:38.12	45.70	17.79	-51.8	-53.9	17.4	0.00e+00	0	48	0	363855872	75	4516
2026-01-16 05:55:39.13	45.51	17.86	-51.8	-53.9	17.3	0.00e+00	0	48	0	365953024	75	4501
2026-01-16 05:55:40.14	45.32	17.93	-51.6	-53.6	17.6	0.00e+00	0	48	0	368050176	75	4352
2026-01-16 05:55:41.15	45.13	18.00	-51.4	-53.3	17.9	0.00e+00	0	48	0	370147328	74	4485
2026-01-16 05:55:42.16	44.93	18.07	-51.2	-53.0	18.2	0.00e+00	0	48	0	372244480	74	4306
2026-01-16 05:55:43.17	44.74	18.14	-51.0	-52.8	18.4	0.00e+00	0	48	0	373293056	73	4457
2026-01-16 05:55:44.18	44.55	18.21	-50.9	-52.7	18.5	0.00e+00	0	47	0	375390208	73	4397
2026-01-16 05:55:45.19	44.35	18.28	-50.8	-52.5	18.7	0.00e+00	0	48	0	377487360	73	4304
2026-01-16 05:55:46.20	44.15	18.35	-51.0	-52.8	18.4	0.00e+00	0	48	0	379584512	73	4442
2026-01-16 05:55:47.21	43.96	18.42	-51.1	-52.9	18.3	0.00e+00	0	48	0	381681664	73	4498
2026-01-16 05:55:48.22	43.76	18.49	-51.1	-53.0	18.2	0.00e+00	0	48	0	382730240	73	4558
2026-01-16 05:55:49.23	43.56	18.56	-51.0	-52.8	18.3	0.00e+00	0	48	0	384827392	73	4470
2026-01-16 05:55:50.24	43.36	18.63	-50.9	-52.7	18.5	0.00e+00	0	48	0	386924544	73	4422
2026-01-16 05:55:51.25	43.16	18.70	-50.9	-52.7	18.5	0.00e+00	0	48	0	389021696	73	4412
2026-01-16 05:55:52.26	42.96	18.77	-50.7	-52.5	18.7	0.00e+00	0	48	0	391118848	73	4295
2026-01-16 05:55:53.27	42.76	18.84	-50.8	-52.6	18.6	0.00e+00	0	48	0	392167424	73	4347
2026-01-16 05:55:54.28	42.55	18.91	-50.5	-52.1	18.9	0.00e+00	0	48	0	394264576	73	4126
2026-01-16 05:55:55.29	42.35	18.98	-50.5	-52.2	19.0	0.00e+00	0	48	0	396361728	72	4396
2026-01-16 05:55:56.30	42.14	19.04	-50.3	-51.9	19.2	0.00e+00	0	48	0	398458880	72	4278
2026-01-16 05:55:57.31	41.94	19.11	-50.0	-51.5	19.6	0.00e+00	0	48	0	400556032	71	4302
2026-01-16 05:55:58.32	41.73	19.18	-50.1	-51.6	19.6	0.00e+00	0	48	0	401604608	71	4369
2026-01-16 05:55:59.33	41.52	19.25	-50.2	-51.8	19.4	0.00e+00	0	48	0	403701760	71	4449
2026-01-16 05:56:00.34	41.31	19.32	-50.4	-51.9	19.2	0.00e+00	0	48	0	405798912	71	4544
2026-01-16 05:56:01.35	41.10	19.38	-50.4	-51.9	19.2	0.00e+00	0	48	0	407896064	71	4544
2026-01-16 05:56:02.36	40.89	19.45	-50.4	-52.0	19.1	0.00e+00	0	48	0	409993216	71	4593
2026-01-16 05:56:03.37	40.68	19.52	-50.3	-51.9	19.3	0.00e+00	0	48	0	412090368	71	4527
2026-01-16 05:56:04.38	40.46	19.58	-50.2	-51.8	19.4	0.00e+00	0	48	0	413138944	71	4442
2026-01-16 05:56:05.39	40.25	19.65	-50.3	-51.8	19.4	0.00e+00	0	48	0	415236096	71	4476
2026-01-16 05:56:06.40	40.04	19.72	-50.1	-51.6	19.6	0.00e+00	0	48	0	417333248	71	4369
2026-01-16 05:56:07.41	39.82	19.78	-50.0	-51.4	19.7	0.00e+00	0	48	0	419430400	71	4279
2026-01-16 05:56:08.42	39.60	19.85	-50.0	-51.4	19.7	0.00e+00	0	48	0	420478976	71	4279
2026-01-16 05:56:09.43	39.39	19.91	-49.9	-51.4	19.8	0.00e+00	0	48	0	422576128	71	4253
2026-01-16 05:56:10.44	39.17	19.98	-49.9	-51.4	19.8	0.00e+00	0	48	0	424673280	71	4243
2026-01-16 05:56:11.45	38.95	20.04	-49.9	-51.4	19.8	0.00e+00	0	48	0	426770432	71	4265
2026-01-16 05:56:12.46	38.73	20.11	-50.0	-51.5	19.7	0.00e+00	0	48	0	428867584	71	4321
2026-01-16 05:56:13.46	38.51	20.17	-50.0	-51.5	19.6	0.00e+00	0	48	0	430964736	71	4327
2026-01-16 05:56:14.47	38.29	20.24	-50.2	-51.7	19.5	0.00e+00	0	48	0	432013312	71	4416
2026-01-16 05:56:15.48	38.06	20.30	-50.1	-51.6	19.6	0.00e+00	0	48	0	434110464	71	4350
2026-01-16 05:56:16.49	37.84	20.36	-50.0	-51.5	19.7	0.00e+00	0	48	0	436207616	71	4293
2026-01-16 05:56:17.50	37.61	20.43	-50.1	-51.6	19.6	0.00e+00	0	48	0	438304768	71	4363
2026-01-16 05:56:18.51	37.39	20.49	-50.1	-51.6	19.6	0.00e+00	0	48	0	440401920	71	4364
2026-01-16 05:56:19.52	37.16	20.55	-50.0	-51.5	19.6	0.00e+00	0	48	0	441450496	71	4335
2026-01-16 05:56:20.53	36.93	20.61	-49.9	-51.4	19.8	0.00e+00	0	48	0	443547648	71	4270
2026-01-16 05:56:21.54	36.70	20.68	-49.8	-51.2	20.0	0.00e+00	0	48	0	445644800	71	4176
2026-01-16 05:56:22.55	36.47	20.74	-49.6	-51.0	20.2	0.00e+00	0	48	0	447741952	71	4056
2026-01-16 05:56:23.56	36.24	20.80	-49.7	-51.2	20.0	0.00e+00	0	48	0	449839104	71	4147
2026-01-16 05:56:24.57	36.01	20.86	-49.8	-51.2	20.0	0.00e+00	0	48	0	450887680	71	4165
2026-01-16 05:56:25.58	35.78	20.92	-49.7	-51.1	20.0	0.00e+00	0	48	0	452984832	71	4131
2026-01-16 05:56:26.59	35.55	20.98	-49.7	-51.0	20.1	0.00e+00	0	48	0	455081984	71	4094
2026-01-16 05:56:27.60	35.31	21.04	-49.5	-50.8	20.2	0.00e+00	0	48	0	457179136	70	4228
2026-01-16 05:56:28.61	35.08	21.10	-49.5	-50.9	20.3	0.00e+00	0	48	0	459276288	70	4259
2026-01-16 05:56:29.62	34.84	21.16	-49.5	-50.8	20.4	0.00e+00	0	48	0	460324864	70	4225
2026-01-16 05:56:30.63	34.60	21.22	-49.5	-50.8	20.4	0.00e+00	0	48	0	462422016	70	4236
2026-01-16 05:56:31.64	34.36	21.27	-49.5	-50.9	20.3	0.00e+00	0	48	0	464519168	70	4245
2026-01-16 05:56:32.65	34.13	21.33	-49.4	-50.7	20.5	0.00e+00	0	48	0	466616320	70	4159
2026-01-16 05:56:33.66	33.89	21.39	-49.2	-50.5	20.6	0.00e+00	0	48	0	468713472	70	4092
2026-01-16 05:56:34.67	33.64	21.45	-49.1	-50.4	20.8	0.00e+00	0	48	0	469762048	70	4015
2026-01-16 05:56:35.68	33.40	21.50	-49.3	-50.6	20.6	0.00e+00	0	48	0	471859200	70	4102
2026-01-16 05:56:36.69	33.16	21.56	-49.5	-50.8	20.4	0.00e+00	0	48	0	473956352	70	4211
2026-01-16 05:56:37.70	32.92	21.62	-49.6	-50.9	20.3	0.00e+00	0	48	0	476053504	70	4291
2026-01-16 05:56:38.71	32.67	21.67	-49.5	-50.8	20.4	0.00e+00	0	48	0	478150656	70	4210
2026-01-16 05:56:39.72	32.43	21.73	-49.5	-50.8	20.4	0.00e+00	0	48	0	479199232	70	4197
2026-01-16 05:56:40.73	32.18	21.78	-49.2	-50.4	20.7	0.00e+00	0	48	0	481296384	70	4049
2026-01-16 05:56:41.74	31.93	21.83	-49.3	-50.5	20.6	0.00e+00	0	48	0	483393536	70	4089
2026-01-16 05:56:42.75	31.69	21.89	-49.5	-50.8	20.4	0.00e+00	0	48	0	485490688	70	4211
2026-01-16 05:56:43.76	31.44	21.94	-49.7	-51.1	20.1	0.00e+00	0	48	0	487587840	70	4387
2026-01-16 05:56:44.77	31.19	21.99	-49.8	-51.2	20.0	0.00e+00	0	48	0	489684992	70	4421
2026-01-16 05:56:45.78	30.94	22.05	-49.6	-51.0	20.2	0.00e+00	0	48	0	490733568	70	4301
2026-01-16 05:56:46.79	30.69	22.10	-49.6	-50.9	20.3	0.00e+00	0	48	0	492830720	70	4284
2026-01-16 05:56:47.80	30.44	22.15	-49.8	-51.2	20.1	0.00e+00	0	48	0	494927872	70	4406
2026-01-16 05:56:48.81	30.18	22.20	-49.9	-51.3	20.0	0.00e+00	0	48	0	497025024	70	4463
2026-01-16 05:56:49.82	29.93	22.25	-49.7	-51.1	20.1	0.00e+00	0	48	0	498073600	70	4366
2026-01-16 05:56:50.83	29.67	22.30	-49.8	-51.2	20.1	0.00e+00	0	48	0	500170752	70	4412
2026-01-16 05:56:51.84	29.42	22.35	-49.6	-51.0	20.3	0.00e+00	0	48	0	502267904	70	4306
2026-01-16 05:56:52.85	29.16	22.40	-49.7	-51.1	20.1	0.00e+00	0	48	0	504365056	70	4374
2026-01-16 05:56:53.86	28.91	22.44	-49.7	-51.1	20.2	0.00e+00	0	48	0	506462208	70	4379
2026-01-16 05:56:54.87	28.65	22.49	-49.7	-51.1	20.2	0.00e+00	0	48	0	508559360	70	4359
2026-01-16 05:56:55.88	28.39	22.54	-49.6	-50.9	20.3	0.00e+00	0	48	0	509607936	70	4267
2026-01-16 05:56:56.89	28.13	22.59	-49.3	-50.6	20.7	0.00e+00	0	48	0	511705088	70	4104
2026-01-16 05:56:57.90	27.87	22.63	-49.3	-50.5	20.7	0.00e+00	0	48	0	513802240	70	4093
2026-01-16 05:56:58.91	27.61	22.68	-49.3	-50.6	20.6	0.00e+00	0	48	0	515899392	70	4137
2026-01-16 05:56:59.92	27.35	22.72	-49.4	-50.7	20.5	0.00e+00	0	48	0	517996544	70	4167
2026-01-16 05:57:00.93	27.09	22.77	-49.3	-50.6	20.6	0.00e+00	0	48	0	519045120	70	4132
2026-01-16 05:57:01.94	26.82	22.81	-49.4	-50.7	20.6	0.00e+00	0	48	0	521142272	70	4147
2026-01-16 05:57:02.95	26.56	22.85	-49.4	-50.7	20.6	0.00e+00	0	48	0	523239424	70	4156
2026-01-16 05:57:03.96	26.29	22.90	-49.1	-50.4	20.8	0.00e+00	0	48	0	525336576	70	4017
2026-01-16 05:57:04.97	26.03	22.94	-49.0	-50.2	21.0	0.00e+00	0	48	0	527433728	70	3919
2026-01-16 05:57:05.98	25.76	22.98	-49.0	-50.2	21.0	0.00e+00	0	48	0	528482304	69	4169
2026-01-16 05:57:06.99	25.50	23.02	-49.2	-50.5	20.7	0.00e+00	0	48	0	530579456	69	4300
2026-01-16 05:57:08.00	25.23	23.06	-49.4	-50.7	20.5	0.00e+00	0	48	0	532676608	69	4430
2026-01-16 05:57:09.01	24.96	23.10	-49.7	-51.0	20.3	0.00e+00	0	48	0	534773760	69	4598
2026-01-16 05:57:10.02	24.69	23.14	-49.6	-50.9	20.4	0.00e+00	0	48	0	536870912	70	4283
2026-01-16 05:57:11.03	24.42	23.18	-49.7	-51.0	20.3	0.00e+00	0	48	0	537919488	70	4334
2026-01-16 05:57:12.04	24.15	23.21	-49.9	-51.3	20.1	0.00e+00	0	48	0	540016640	70	4454
2026-01-16 05:57:13.05	23.88	23.25	-50.4	-51.9	19.5	0.00e+00	0	48	0	542113792	71	4536
2026-01-16 05:57:14.06	23.61	23.29	-50.6	-52.2	19.1	0.00e+00	0	48	0	544210944	72	4417
2026-01-16 05:57:15.07	23.34	23.32	-51.0	-52.8	18.6	0.00e+00	0	48	0	546308096	72	4710
2026-01-16 05:57:16.08	23.07	23.36	-51.1	-52.8	18.6	0.00e+00	0	48	0	548405248	72	4718
2026-01-16 05:57:17.09	22.79	23.39	-51.0	-52.7	18.7	0.00e+00	0	48	0	549453824	73	4421
2026-01-16 05:57:18.10	22.52	23.43	-51.3	-53.1	18.3	0.00e+00	0	48	0	551550976	73	4616
2026-01-16 05:57:19.11	22.24	23.46	-51.3	-53.1	18.3	0.00e+00	0	48	0	553648128	73	4602
2026-01-16 05:57:20.12	21.97	23.49	-51.0	-52.7	18.7	0.00e+00	0	48	0	555745280	73	4396
2026-01-16 05:57:21.13	21.69	23.52	-50.8	-52.4	18.9	0.00e+00	0	48	0	556793856	73	4256
2026-01-16 05:57:22.14	21.42	23.55	-50.6	-52.1	19.2	0.00e+00	0	48	0	558891008	73	4128
2026-01-16 05:57:23.15	21.14	23.58	-50.4	-51.9	19.4	0.00e+00	0	48	0	560988160	72	4260
2026-01-16 05:57:24.16	20.86	23.61	-50.5	-52.0	19.3	0.00e+00	0	48	0	563085312	72	4317
2026-01-16 05:57:25.17	20.59	23.64	-50.5	-52.1	19.2	0.00e+00	0	48	0	565182464	72	4343
2026-01-16 05:57:26.18	20.31	23.67	-50.6	-52.2	19.2	0.00e+00	0	48	0	567279616	72	4394
2026-01-16 05:57:27.19	20.03	23.70	-50.7	-52.3	19.1	0.00e+00	0	48	0	568328192	72	4445
2026-01-16 05:57:28.20	19.75	23.73	-50.7	-52.4	19.0	0.00e+00	0	48	0	570425344	72	4499
2026-01-16 05:57:29.21	19.47	23.75	-50.5	-52.1	19.2	0.00e+00	0	48	0	572522496	72	4364
2026-01-16 05:57:30.22	19.19	23.78	-50.5	-52.0	19.3	0.00e+00	0	48	0	574619648	72	4322
2026-01-16 05:57:31.23	18.91	23.80	-50.6	-52.2	19.0	0.00e+00	0	48	0	576716800	72	4433
2026-01-16 05:57:32.24	18.63	23.83	-50.9	-52.6	18.7	0.00e+00	0	48	0	577765376	72	4621
2026-01-16 05:57:33.25	18.35	23.85	-51.1	-52.8	18.5	0.00e+00	0	48	0	579862528	72	4752
2026-01-16 05:57:34.26	18.06	23.87	-51.2	-53.0	18.3	0.00e+00	0	48	0	581959680	73	4559
2026-01-16 05:57:35.27	17.78	23.89	-51.2	-52.9	18.4	0.00e+00	0	49	0	584056832	73	4518
2026-01-16 05:57:36.28	17.50	23.91	-50.9	-52.6	18.8	0.00e+00	0	48	0	586153984	73	4360
2026-01-16 05:57:37.29	17.22	23.93	-51.2	-52.9	18.4	0.00e+00	0	48	0	587202560	73	4518
2026-01-16 05:57:38.30	16.93	23.95	-51.5	-53.3	18.1	0.00e+00	0	48	0	589299712	73	4743
2026-01-16 05:57:39.31	16.65	23.97	-51.6	-53.4	17.9	0.00e+00	0	48	0	591396864	73	4814
2026-01-16 05:57:40.32	16.36	23.99	-51.6	-53.5	17.9	0.00e+00	0	48	0	593494016	73	4838
2026-01-16 05:57:41.33	16.08	24.01	-51.7	-53.6	17.7	0.00e+00	0	48	0	595591168	74	4643
2026-01-16 05:57:42.34	15.80	24.03	-51.5	-53.4	18.0	0.00e+00	0	48	0	596639744	74	4532
2026-01-16 05:57:43.35	15.51	24.04	-51.4	-53.2	18.2	0.00e+00	0	48	0	598736896	74	4419
2026-01-16 05:57:44.36	15.22	24.06	-51.4	-53.3	18.1	0.00e+00	0	48	0	600834048	74	4448
2026-01-16 05:57:45.37	14.94	24.07	-51.3	-53.1	18.3	0.00e+00	0	48	0	602931200	74	4361
2026-01-16 05:57:46.38	14.65	24.08	-51.3	-53.1	18.3	0.00e+00	0	48	0	605028352	74	4360
2026-01-16 05:57:47.39	14.37	24.10	-51.5	-53.3	18.1	0.00e+00	0	48	0	606076928	74	4482
2026-01-16 05:57:48.40	14.08	24.11	-51.6	-53.5	18.0	0.00e+00	0	48	0	608174080	74	4567
2026-01-16 05:57:49.41	13.79	24.12	-51.6	-53.5	17.9	0.00e+00	0	48	0	610271232	74	4555
2026-01-16 05:57:50.42	13.51	24.13	-51.8	-53.7	17.6	0.00e+00	0	48	0	612368384	74	4701
2026-01-16 05:57:51.43	13.22	24.14	-51.7	-53.7	17.7	0.00e+00	0	49	0	614465536	74	4686
2026-01-16 05:57:52.44	12.93	24.15	-51.6	-53.6	17.9	0.00e+00	0	48	0	615514112	74	4600
2026-01-16 05:57:53.45	12.65	24.16	-51.6	-53.5	17.9	0.00e+00	0	48	0	617611264	74	4575
2026-01-16 05:57:54.46	12.36	24.16	-51.6	-53.6	17.8	0.00e+00	0	48	0	619708416	74	4606
2026-01-16 05:57:55.47	12.07	24.17	-51.2	-53.0	18.4	0.00e+00	0	48	0	621805568	74	4320
2026-01-16 05:57:56.48	11.78	24.18	-50.8	-52.4	18.9	0.00e+00	0	48	0	623902720	73	4279
2026-01-16 05:57:57.49	11.50	24.18	-50.4	-52.0	19.3	0.00e+00	0	48	0	625999872	72	4305
2026-01-16 05:57:58.50	11.21	24.19	-50.3	-51.8	19.4	0.00e+00	0	48	0	627048448	72	4214
2026-01-16 05:57:59.51	10.92	24.19	-50.2	-51.7	19.5	0.00e+00	0	48	0	629145600	72	4182
2026-01-16 05:58:00.52	10.63	24.19	-50.4	-52.0	19.2	0.00e+00	0	48	0	631242752	72	4315
2026-01-16 05:58:01.53	10.34	24.19	-50.7	-52.3	19.0	0.00e+00	0	48	0	633339904	72	4492
2026-01-16 05:58:02.54	10.06	24.19	-50.8	-52.5	18.8	0.00e+00	0	48	0	634388480	72	4579
2026-01-16 05:58:03.55	9.77	24.19	-51.1	-52.9	18.4	0.00e+00	0	48	0	636485632	72	4785
2026-01-16 05:58:04.56	9.48	24.19	-51.0	-52.7	18.6	0.00e+00	0	48	0	638582784	72	4685
2026-01-16 05:58:05.57	9.19	24.19	-50.9	-52.6	18.7	0.00e+00	0	48	0	640679936	72	4626
2026-01-16 05:58:06.58	8.90	24.19	-50.8	-52.5	18.8	0.00e+00	0	48	0	642777088	72	4582
2026-01-16 05:58:07.59	8.62	24.19	-50.9	-52.6	18.7	0.00e+00	0	48	0	644874240	72	4600
2026-01-16 05:58:08.60	8.33	24.18	-50.8	-52.5	18.8	0.00e+00	0	48	0	645922816	72	4584
2026-01-16 05:58:09.61	8.04	24.18	-50.9	-52.6	18.7	0.00e+00	0	48	0	648019968	72	4607
2026-01-16 05:58:10.62	7.75	24.17	-50.5	-52.1	19.2	0.00e+00	0	48	0	650117120	72	4353
2026-01-16 05:58:11.62	7.47	24.17	-50.4	-52.0	19.3	0.00e+00	0	48	0	652214272	72	4316
2026-01-16 05:58:12.64	7.18	24.16	-50.3	-51.8	19.4	0.00e+00	0	48	0	654311424	72	4206
2026-01-16 05:58:13.65	6.89	24.15	-50.2	-51.7	19.5	0.00e+00	0	48	0	655360000	72	4190
2026-01-16 05:58:14.66	6.60	24.15	-50.1	-51.6	19.6	0.00e+00	0	48	0	657457152	72	4138
2026-01-16 05:58:15.67	6.32	24.14	-50.6	-52.2	19.2	0.00e+00	0	48	0	659554304	72	4394
2026-01-16 05:58:16.68	6.03	24.13	-50.4	-51.9	19.4	0.00e+00	0	49	0	661651456	72	4259
2026-01-16 05:58:17.69	5.74	24.12	-50.2	-51.7	19.6	0.00e+00	0	48	0	663748608	72	4165
2026-01-16 05:58:18.70	5.46	24.10	-50.0	-51.5	19.8	0.00e+00	0	48	0	664797184	72	4055
2026-01-16 05:58:19.71	5.17	24.09	-50.1	-51.6	19.8	0.00e+00	0	48	0	666894336	72	4101
2026-01-16 05:58:20.72	4.89	24.08	-50.3	-51.8	19.5	0.00e+00	0	48	0	668991488	72	4232
2026-01-16 05:58:21.73	4.60	24.07	-50.2	-51.6	19.8	0.00e+00	0	48	0	671088640	71	4386
2026-01-16 05:58:22.74	4.31	24.05	-50.2	-51.6	19.7	0.00e+00	0	48	0	673185792	71	4368
2026-01-16 05:58:23.75	4.03	24.04	-49.8	-51.2	20.2	0.00e+00	0	48	0	674234368	71	4146
2026-01-16 05:58:24.76	3.74	24.02	-49.6	-50.9	20.5	0.00e+00	0	48	0	676331520	71	4020
2026-01-16 05:58:25.77	3.46	24.00	-49.7	-51.0	20.4	0.00e+00	0	49	0	678428672	71	4059
2026-01-16 05:58:26.78	3.18	23.98	-49.7	-51.0	20.3	0.00e+00	0	49	0	680525824	71	4071
2026-01-16 05:58:27.79	2.89	23.97	-49.7	-51.1	20.2	0.00e+00	0	48	0	682622976	71	4118
2026-01-16 05:58:28.80	2.61	23.95	-49.3	-50.6	20.7	0.00e+00	0	48	0	684720128	70	4124
2026-01-16 05:58:29.81	2.32	23.93	-49.2	-50.4	20.9	0.00e+00	0	48	0	685768704	70	4029
2026-01-16 05:58:30.82	2.04	23.91	-48.9	-50.1	21.2	0.00e+00	0	48	0	687865856	69	4104
2026-01-16 05:58:31.83	1.76	23.89	-48.6	-49.7	21.5	0.00e+00	0	48	0	689963008	69	3945
2026-01-16 05:58:32.84	1.48	23.86	-49.0	-50.2	21.1	0.00e+00	0	49	0	692060160	69	4149
2026-01-16 05:58:33.85	1.20	23.84	-49.2	-50.4	20.9	0.00e+00	0	48	0	693108736	69	4261
2026-01-16 05:58:34.86	0.91	23.82	-49.2	-50.4	20.8	0.00e+00	0	48	0	695205888	69	4291
2026-01-16 05:58:35.87	0.63	23.79	-49.4	-50.7	20.6	0.00e+00	0	48	0	697303040	69	4403
2026-01-16 05:58:36.88	0.35	23.77	-49.2	-50.4	20.9	0.00e+00	0	48	0	699400192	69	4251
2026-01-16 05:58:37.88	0.08	23.74	-49.3	-50.5	20.7	0.00e+00	0	48	0	701497344	69	4333
2026-01-16 05:58:38.89	359.80	23.72	-49.3	-50.6	20.7	0.00e+00	0	49	0	703594496	69	4358
2026-01-16 05:58:39.90	359.52	23.69	-49.3	-50.5	20.7	0.00e+00	0	48	0	704643072	69	4318
2026-01-16 05:58:40.91	359.24	23.66	-49.4	-50.7	20.6	0.00e+00	0	49	0	706740224	69	4409
2026-01-16 05:58:41.92	358.96	23.63	-49.5	-50.7	20.6	0.00e+00	0	48	0	708837376	69	4435
2026-01-16 05:58:42.93	358.68	23.60	-49.6	-50.9	20.5	0.00e+00	0	49	0	710934528	69	4498
2026-01-16 05:58:43.94	358.41	23.57	-49.8	-51.1	20.3	0.00e+00	0	48	0	713031680	70	4361
2026-01-16 05:58:44.95	358.13	23.54	-49.9	-51.3	20.1	0.00e+00	0	49	0	714080256	70	4477
2026-01-16 05:58:45.96	357.85	23.51	-49.7	-51.0	20.3	0.00e+00	0	48	0	716177408	70	4324
2026-01-16 05:58:46.97	357.58	23.48	-49.6	-50.9	20.4	0.00e+00	0	49	0	718274560	70	4264
2026-01-16 05:58:47.98	357.30	23.45	-49.5	-50.7	20.6	0.00e+00	0	48	0	720371712	70	4183
2026-01-16 05:58:48.99	357.03	23.41	-49.7	-50.9	20.4	0.00e+00	0	49	0	722468864	70	4289
2026-01-16 05:58:49.99	356.76	23.38	-49.8	-51.2	20.2	0.00e+00	0	49	0	723517440	70	4401
2026-01-16 05:58:51.00	356.49	23.35	-50.2	-51.6	19.8	0.00e+00	0	49	0	725614592	71	4361
2026-01-16 05:58:52.01	356.21	23.31	-50.0	-51.3	20.1	0.00e+00	0	48	0	727711744	71	4223
2026-01-16 05:58:53.02	355.94	23.27	-49.7	-51.1	20.3	0.00e+00	0	48	0	729808896	71	4101
2026-01-16 05:58:54.03	355.67	23.24	-49.6	-50.9	20.4	0.00e+00	0	48	0	731906048	71	4035
2026-01-16 05:58:55.04	355.40	23.20	-49.7	-51.0	20.2	0.00e+00	0	48	0	732954624	71	4096
2026-01-16 05:58:56.05	355.13	23.16	-49.7	-51.0	20.3	0.00e+00	0	48	0	735051776	71	4070
2026-01-16 05:58:57.06	354.86	23.12	-49.9	-51.2	20.1	0.00e+00	0	48	0	737148928	71	4187
2026-01-16 05:58:58.07	354.59	23.09	-50.0	-51.4	20.0	0.00e+00	0	49	0	739246080	71	4288
2026-01-16 05:58:59.08	354.33	23.05	-50.3	-51.8	19.6	0.00e+00	0	49	0	741343232	71	4463
2026-01-16 05:59:00.09	354.06	23.01	-50.3	-51.7	19.7	0.00e+00	0	48	0	742391808	71	4423
2026-01-16 05:59:01.10	353.79	22.96	-50.4	-51.9	19.4	0.00e+00	0	49	0	744488960	71	4540
2026-01-16 05:59:02.11	353.53	22.92	-50.6	-52.2	19.2	0.00e+00	0	49	0	746586112	71	4659
2026-01-16 05:59:03.12	353.26	22.88	-50.3	-51.8	19.6	0.00e+00	0	49	0	748683264	71	4448
2026-01-16 05:59:04.13	353.00	22.84	-50.4	-51.9	19.4	0.00e+00	0	49	0	750780416	71	4542
2026-01-16 05:59:05.14	352.73	22.80	-50.7	-52.3	19.1	0.00e+00	0	49	0	751828992	71	4718
2026-01-16 05:59:06.15	352.47	22.75	-50.9	-52.6	18.7	0.00e+00	0	49	0	753926144	72	4614
2026-01-16 05:59:07.15	352.21	22.71	-51.2	-53.0	18.4	0.00e+00	0	49	0	756023296	73	4562
2026-01-16 05:59:08.16	351.95	22.66	-51.3	-53.1	18.3	0.00e+00	0	49	0	758120448	73	4612
2026-01-16 05:59:09.17	351.69	22.62	-51.3	-53.1	18.3	0.00e+00	0	49	0	760217600	73	4603
2026-01-16 05:59:10.18	351.43	22.57	-50.9	-52.6	18.8	0.00e+00	0	48	0	762314752	73	4347
2026-01-16 05:59:11.19	351.17	22.52	-51.0	-52.7	18.7	0.00e+00	0	49	0	763363328	73	4403
2026-01-16 05:59:12.20	350.91	22.48	-51.0	-52.7	18.6	0.00e+00	0	49	0	765460480	73	4430
2026-01-16 05:59:13.21	350.66	22.43	-50.9	-52.6	18.8	0.00e+00	0	49	0	767557632	73	4348
2026-01-16 05:59:14.22	350.40	22.38	-50.9	-52.5	18.8	0.00e+00	0	49	0	769654784	73	4332
2026-01-16 05:59:15.23	350.14	22.33	-51.0	-52.7	18.6	0.00e+00	0	49	0	770703360	73	4410
2026-01-16 05:59:16.24	349.89	22.28	-51.0	-52.7	18.6	0.00e+00	0	48	0	772800512	73	4436
2026-01-16 05:59:17.25	349.64	22.23	-51.2	-53.0	18.4	0.00e+00	0	49	0	774897664	73	4553
2026-01-16 05:59:18.26	349.38	22.18	-51.1	-52.8	18.5	0.00e+00	0	49	0	776994816	73	4479
2026-01-16 05:59:19.26	349.13	22.13	-50.9	-52.6	18.7	0.00e+00	0	49	0	779091968	73	4350
2026-01-16 05:59:20.27	348.88	22.08	-50.9	-52.6	18.7	0.00e+00	0	49	0	781189120	73	4351
2026-01-16 05:59:21.28	348.63	22.03	-50.7	-52.3	19.0	0.00e+00	0	49	0	782237696	73	4225
2026-01-16 05:59:22.29	348.38	21.98	-50.7	-52.3	18.8	0.00e+00	0	49	0	784334848	73	4230
2026-01-16 05:59:23.30	348.13	21.92	-50.9	-52.6	18.7	0.00e+00	0	49	0	786432000	73	4381
2026-01-16 05:59:24.31	347.88	21.87	-51.0	-52.6	18.7	0.00e+00	0	49	0	788529152	73	4391
2026-01-16 05:59:25.32	347.64	21.82	-51.0	-52.7	18.6	0.00e+00	0	49	0	790626304	73	4433
2026-01-16 05:59:26.33	347.39	21.76	-51.0	-52.7	18.7	0.00e+00	0	49	0	791674880	73	4424
2026-01-16 05:59:27.34	347.14	21.71	-51.3	-53.1	18.3	0.00e+00	0	49	0	793772032	73	4605
2026-01-16 05:59:28.35	346.90	21.65	-51.4	-53.2	18.2	0.00e+00	0	49	0	795869184	73	4701
2026-01-16 05:59:29.35	346.66	21.60	-51.6	-53.5	17.9	0.00e+00	0	49	0	797966336	73	4856
2026-01-16 05:59:30.36	346.42	21.54	-51.6	-53.5	17.8	0.00e+00	0	49	0	800063488	74	4572
2026-01-16 05:59:31.37	346.17	21.49	-51.9	-53.9	17.4	0.00e+00	0	49	0	801112064	74	4796
2026-01-16 05:59:32.38	345.93	21.43	-51.7	-53.6	17.8	0.00e+00	0	49	0	803209216	74	4613
2026-01-16 05:59:33.39	345.69	21.37	-51.3	-53.1	18.3	0.00e+00	0	48	0	805306368	74	4388
2026-01-16 05:59:34.40	345.45	21.32	-51.0	-52.8	18.6	0.00e+00	0	49	0	807403520	73	4448
2026-01-16 05:59:35.40	345.22	21.26	-51.0	-52.8	18.6	0.00e+00	0	48	0	809500672	73	4443
2026-01-16 05:59:36.41	344.98	21.20	-51.1	-52.8	18.5	0.00e+00	0	49	0	810549248	73	4490
2026-01-16 05:59:37.42	344.74	21.14	-51.3	-53.1	18.3	0.00e+00	0	49	0	812646400	73	4631
2026-01-16 05:59:38.43	344.51	21.08	-51.6	-53.6	17.7	0.00e+00	0	49	0	814743552	73	4913
2026-01-16 05:59:39.44	344.27	21.02	-52.1	-54.3	17.2	0.00e+00	0	49	0	816840704	74	4985
2026-01-16 05:59:40.45	344.04	20.96	-52.6	-55.2	16.3	0.00e+00	0	48	0	818937856	75	5226
2026-01-16 05:59:41.46	343.80	20.90	-52.5	-55.0	16.4	0.00e+00	0	49	0	821035008	75	5123
2026-01-16 05:59:42.47	343.57	20.84	-52.5	-54.9	16.5	0.00e+00	0	49	0	822083584	75	5055
2026-01-16 05:59:43.48	343.34	20.78	-52.1	-54.3	17.1	0.00e+00	0	48	0	824180736	75	4754
2026-01-16 05:59:44.49	343.11	20.72	-51.7	-53.7	17.7	0.00e+00	0	49	0	826277888	75	4418
2026-01-16 05:59:45.50	342.88	20.66	-51.3	-53.2	18.2	0.00e+00	0	49	0	828375040	74	4400
2026-01-16 05:59:46.51	342.65	20.60	-51.1	-52.9	18.5	0.00e+00	0	49	0	829423616	73	4520
2026-01-16 05:59:47.52	342.43	20.53	-50.8	-52.6	18.8	0.00e+00	0	49	0	831520768	73	4346
2026-01-16 05:59:48.52	342.20	20.47	-50.7	-52.3	19.1	0.00e+00	0	49	0	833617920	73	4236
2026-01-16 05:59:49.53	341.98	20.41	-50.4	-52.0	19.2	0.00e+00	0	49	0	835715072	72	4339
2026-01-16 05:59:50.55	341.75	20.35	-50.5	-52.2	19.1	0.00e+00	0	49	0	837812224	72	4406
2026-01-16 05:59:51.55	341.53	20.28	-50.5	-52.1	19.2	0.00e+00	0	49	0	838860800	72	4379
2026-01-16 05:59:52.56	341.31	20.22	-50.3	-51.9	19.3	0.00e+00	0	48	0	840957952	72	4259
2026-01-16 05:59:53.57	341.08	20.16	-50.3	-51.8	19.4	0.00e+00	0	49	0	843055104	72	4209
2026-01-16 05:59:54.58	340.86	20.09	-50.0	-51.5	19.7	0.00e+00	0	49	0	845152256	71	4315
2026-01-16 05:59:55.59	340.64	20.03	-50.0	-51.4	19.9	0.00e+00	0	49	0	847249408	71	4268
2026-01-16 05:59:56.60	340.42	19.96	-49.8	-51.2	20.0	0.00e+00	0	49	0	849346560	71	4171
2026-01-16 05:59:57.60	340.21	19.90	-49.6	-51.0	20.2	0.00e+00	0	49	0	850395136	71	4076
2026-01-16 05:59:58.61	339.99	19.83	-49.5	-50.8	20.4	0.00e+00	0	49	0	852492288	70	4212
2026-01-16 05:59:59.62	339.77	19.77	-49.3	-50.6	20.6	0.00e+00	0	49	0	854589440	70	4121
2026-01-16 06:00:00.63	339.56	19.70	-49.3	-50.5	20.6	0.00e+00	0	49	0	856686592	70	4092
2026-01-16 06:00:01.64	339.35	19.63	-49.3	-50.6	20.6	0.00e+00	0	49	0	857735168	70	4106
2026-01-16 06:00:02.65	339.13	19.57	-49.5	-50.8	20.3	0.00e+00	0	49	0	859832320	70	4236
2026-01-16 06:00:03.66	338.92	19.50	-49.9	-51.3	19.9	0.00e+00	0	49	0	861929472	70	4458
2026-01-16 06:00:04.67	338.71	19.43	-50.3	-51.8	19.5	0.00e+00	0	49	0	864026624	71	4463
2026-01-16 06:00:05.68	338.50	19.37	-50.5	-52.2	19.1	0.00e+00	0	49	0	866123776	71	4656
2026-01-16 06:00:06.69	338.29	19.30	-50.7	-52.3	18.9	0.00e+00	0	49	0	868220928	72	4483
2026-01-16 06:00:07.70	338.08	19.23	-51.0	-52.8	18.6	0.00e+00	0	49	0	869269504	72	4711
2026-01-16 06:00:08.71	337.87	19.16	-51.2	-53.0	18.2	0.00e+00	0	49	0	871366656	72	4828
2026-01-16 06:00:09.72	337.66	19.10	-51.2	-53.1	18.2	0.00e+00	0	49	0	873463808	73	4599
2026-01-16 06:00:10.73	337.46	19.03	-51.4	-53.3	17.9	0.00e+00	0	49	0	875560960	73	4745
2026-01-16 06:00:11.74	337.25	18.96	-51.1	-52.9	18.3	0.00e+00	0	49	0	877658112	73	4523
2026-01-16 06:00:12.75	337.05	18.89	-51.0	-52.8	18.5	0.00e+00	0	49	0	878706688	73	4460
2026-01-16 06:00:13.75	336.85	18.82	-50.8	-52.5	18.7	0.00e+00	0	49	0	880803840	73	4324
2026-01-16 06:00:14.76	336.65	18.75	-50.5	-52.2	19.0	0.00e+00	0	49	0	882900992	73	4161
2026-01-16 06:00:15.77	336.45	18.68	-50.6	-52.2	19.0	0.00e+00	0	49	0	884998144	73	4167
2026-01-16 06:00:16.78	336.24	18.61	-50.3	-51.8	19.3	0.00e+00	0	49	0	887095296	72	4240
2026-01-16 06:00:17.79	336.05	18.55	-50.2	-51.7	19.5	0.00e+00	0	49	0	888143872	72	4161
2026-01-16 06:00:18.80	335.85	18.48	-50.0	-51.5	19.7	0.00e+00	0	49	0	890241024	71	4310
2026-01-16 06:00:19.81	335.65	18.41	-49.8	-51.2	19.9	0.00e+00	0	49	0	892338176	71	4187
2026-01-16 06:00:20.82	335.45	18.34	-49.4	-50.8	20.3	0.00e+00	0	49	0	894435328	70	4202
2026-01-16 06:00:21.83	335.26	18.27	-49.4	-50.7	20.4	0.00e+00	0	49	0	896532480	70	4191
2026-01-16 06:00:22.84	335.06	18.20	-49.6	-51.0	20.1	0.00e+00	0	49	0	897581056	70	4335
2026-01-16 06:00:23.85	334.87	18.12	-50.1	-51.6	19.6	0.00e+00	0	49	0	899678208	70	4624
2026-01-16 06:00:24.86	334.68	18.05	-50.4	-52.0	19.3	0.00e+00	0	49	0	901775360	71	4577
2026-01-16 06:00:25.87	334.48	17.98	-50.5	-52.1	19.1	0.00e+00	0	49	0	903872512	71	4633
2026-01-16 06:00:26.88	334.29	17.91	-50.3	-51.9	19.4	0.00e+00	0	49	0	905969664	71	4510
2026-01-16 06:00:27.89	334.10	17.84	-50.3	-51.8	19.4	0.00e+00	0	49	0	907018240	71	4480
2026-01-16 06:00:28.90	333.91	17.77	-50.1	-51.6	19.6	0.00e+00	0	49	0	909115392	71	4354
2026-01-16 06:00:29.90	333.73	17.70	-50.2	-51.7	19.5	0.00e+00	0	49	0	911212544	71	4410
2026-01-16 06:00:30.91	333.54	17.63	-50.3	-51.9	19.4	0.00e+00	0	49	0	913309696	71	4500
2026-01-16 06:00:31.92	333.35	17.56	-50.3	-51.9	19.3	0.00e+00	0	49	0	915406848	71	4519
2026-01-16 06:00:32.93	333.17	17.49	-50.6	-52.3	19.0	0.00e+00	0	49	0	916455424	71	4707
2026-01-16 06:00:33.94	332.98	17.41	-50.8	-52.5	18.8	0.00e+00	0	49	0	918552576	72	4553
2026-01-16 06:00:34.95	332.80	17.34	-50.8	-52.5	18.8	0.00e+00	0	49	0	920649728	72	4548
2026-01-16 06:00:35.96	332.61	17.27	-50.7	-52.3	18.9	0.00e+00	0	49	0	922746880	72	4479
2026-01-16 06:00:36.97	332.43	17.20	-50.5	-52.1	19.0	0.00e+00	0	49	0	924844032	72	4344
2026-01-16 06:00:37.98	332.25	17.13	-50.4	-52.0	19.3	0.00e+00	0	49	0	926941184	72	4292
2026-01-16 06:00:38.99	332.07	17.06	-50.2	-51.8	19.4	0.00e+00	0	49	0	927989760	72	4197
2026-01-16 06:00:40.00	331.89	16.98	-50.4	-52.0	19.2	0.00e+00	0	49	0	930086912	72	4317
2026-01-16 06:00:41.01	331.71	16.91	-50.2	-51.8	19.4	0.00e+00	0	49	0	932184064	72	4197
2026-01-16 06:00:42.02	331.53	16.84	-50.2	-51.7	19.5	0.00e+00	0	49	0	934281216	72	4161
2026-01-16 06:00:43.03	331.36	16.77	-49.9	-51.4	19.8	0.00e+00	0	49	0	935329792	71	4246
2026-01-16 06:00:44.04	331.18	16.69	-49.9	-51.3	19.9	0.00e+00	0	49	0	937426944	71	4242
2026-01-16 06:00:45.05	331.01	16.62	-49.9	-51.3	20.0	0.00e+00	0	49	0	939524096	71	4211
2026-01-16 06:00:46.05	330.83	16.55	-49.9	-51.3	19.8	0.00e+00	0	49	0	941621248	71	4242
2026-01-16 06:00:47.06	330.66	16.48	-50.1	-51.6	19.6	0.00e+00	0	49	0	943718400	71	4377
2026-01-16 06:00:48.07	330.49	16.40	-50.3	-51.9	19.4	0.00e+00	0	49	0	945815552	71	4497
2026-01-16 06:00:49.08	330.32	16.33	-50.3	-51.8	19.4	0.00e+00	0	49	0	946864128	71	4456
2026-01-16 06:00:50.09	330.14	16.26	-50.3	-51.8	19.5	0.00e+00	0	49	0	948961280	71	4470
2026-01-16 06:00:51.10	329.97	16.19	-50.1	-51.6	19.6	0.00e+00	0	49	0	951058432	71	4357
2026-01-16 06:00:52.11	329.80	16.11	-49.9	-51.3	19.9	0.00e+00	0	49	0	953155584	71	4195
2026-01-16 06:00:53.12	329.64	16.04	-49.5	-50.8	20.3	0.00e+00	0	49	0	955252736	70	4229
2026-01-16 06:00:54.13	329.47	15.97	-49.3	-50.5	20.6	0.00e+00	0	49	0	956301312	70	4094
2026-01-16 06:00:55.14	329.30	15.89	-49.3	-50.6	20.6	0.00e+00	0	49	0	958398464	70	4100
2026-01-16 06:00:56.15	329.14	15.82	-49.3	-50.6	20.5	0.00e+00	0	49	0	960495616	70	4103
2026-01-16 06:00:57.16	328.97	15.75	-49.4	-50.7	20.4	0.00e+00	0	49	0	962592768	70	4183
2026-01-16 06:00:58.17	328.81	15.68	-49.5	-50.8	20.3	0.00e+00	0	49	0	964689920	70	4241
2026-01-16 06:00:59.18	328.64	15.60	-49.7	-51.0	20.1	0.00e+00	0	49	0	965738496	70	4329
2026-01-16 06:01:00.19	328.48	15.53	-49.8	-51.2	20.0	0.00e+00	0	49	0	967835648	70	4421
2026-01-16 06:01:01.20	328.32	15.46	-49.9	-51.3	19.9	0.00e+00	0	49	0	969932800	70	4469
2026-01-16 06:01:02.21	328.16	15.38	-50.0	-51.4	19.8	0.00e+00	0	49	0	972029952	70	4542
2026-01-16 06:01:03.22	328.00	15.31	-50.1	-51.6	19.6	0.00e+00	0	49	0	974127104	70	4619
2026-01-16 06:01:04.23	327.84	15.24	-50.2	-51.7	19.6	0.00e+00	0	49	0	975175680	70	4665
2026-01-16 06:01:05.24	327.68	15.16	-50.2	-51.6	19.6	0.00e+00	0	49	0	977272832	70	4627
2026-01-16 06:01:06.25	327.52	15.09	-49.9	-51.3	19.8	0.00e+00	0	49	0	979369984	70	4481
2026-01-16 06:01:07.26	327.36	15.02	-49.8	-51.2	20.0	0.00e+00	0	49	0	981467136	70	4396
2026-01-16 06:01:08.27	327.21	14.94	-49.7	-51.0	20.1	0.00e+00	0	49	0	983564288	70	4340
2026-01-16 06:01:09.28	327.05	14.87	-49.5	-50.8	20.3	0.00e+00	0	49	0	985661440	70	4225
2026-01-16 06:01:10.28	326.90	14.80	-49.3	-50.6	20.5	0.00e+00	0	49	0	986710016	70	4126
2026-01-16 06:01:11.30	326.74	14.73	-49.5	-50.8	20.4	0.00e+00	0	49	0	988807168	70	4202
2026-01-16 06:01:12.30	326.59	14.65	-49.4	-50.7	20.5	0.00e+00	0	49	0	990904320	70	4168
2026-01-16 06:01:13.31	326.44	14.58	-49.8	-51.2	19.9	0.00e+00	0	49	0	993001472	70	4437
2026-01-16 06:01:14.32	326.29	14.51	-50.0	-51.4	19.7	0.00e+00	0	49	0	994050048	70	4545
2026-01-16 06:01:15.33	326.14	14.43	-50.4	-51.9	19.3	0.00e+00	0	49	0	996147200	71	4543
2026-01-16 06:01:16.34	325.99	14.36	-50.6	-52.2	19.0	0.00e+00	0	49	0	998244352	71	4681
2026-01-16 06:01:17.35	325.84	14.29	-50.5	-52.1	19.0	0.00e+00	0	49	0	1000341504	72	4388
2026-01-16 06:01:18.36	325.69	14.21	-50.6	-52.2	18.9	0.00e+00	0	49	0	1002438656	72	4419
2026-01-16 06:01:19.37	325.54	14.14	-50.5	-52.1	19.0	0.00e+00	0	49	0	1004535808	72	4349
2026-01-16 06:01:20.38	325.39	14.07	-50.4	-51.9	19.1	0.00e+00	0	49	0	1005584384	72	4286
2026-01-16 06:01:21.39	325.25	14.00	-50.3	-51.8	19.3	0.00e+00	0	49	0	1007681536	72	4226
2026-01-16 06:01:22.40	325.10	13.92	-50.3	-51.9	19.2	0.00e+00	0	49	0	1009778688	72	4262
2026-01-16 06:01:23.40	324.96	13.85	-50.2	-51.7	19.4	0.00e+00	0	49	0	1011875840	72	4168
2026-01-16 06:01:24.42	324.81	13.78	-50.1	-51.6	19.5	0.00e+00	0	49	0	1013972992	72	4107
2026-01-16 06:01:25.42	324.67	13.71	-50.1	-51.6	19.5	0.00e+00	0	49	0	1015021568	72	4136
2026-01-16 06:01:26.43	324.53	13.63	-50.1	-51.6	19.5	0.00e+00	0	49	0	1017118720	72	4112
2026-01-16 06:01:27.44	324.38	13.56	-50.1	-51.5	19.6	0.00e+00	0	49	0	1019215872	71	4324
2026-01-16 06:01:28.45	324.24	13.49	-49.9	-51.3	19.9	0.00e+00	0	49	0	1021313024	71	4201
2026-01-16 06:01:29.46	324.10	13.41	-49.9	-51.3	19.8	0.00e+00	0	49	0	1023410176	71	4233
2026-01-16 06:01:30.47	323.96	13.34	-49.8	-51.2	19.9	0.00e+00	0	49	0	1024458752	71	4184
2026-01-16 06:01:31.48	323.82	13.27	-50.2	-51.6	19.5	0.00e+00	0	49	0	1026555904	71	4385
2026-01-16 06:01:32.49	323.68	13.20	-50.4	-51.9	19.2	0.00e+00	0	49	0	1028653056	71	4527
2026-01-16 06:01:33.50	323.55	13.12	-50.6	-52.2	19.1	0.00e+00	0	49	0	1030750208	71	4658
2026-01-16 06:01:34.51	323.41	13.05	-50.8	-52.5	18.6	0.00e+00	0	49	0	1032847360	72	4584
2026-01-16 06:01:35.52	323.27	12.98	-51.2	-53.0	18.2	0.00e+00	0	49	0	1033895936	72	4824
2026-01-16 06:01:36.53	323.14	12.91	-51.4	-53.3	17.9	0.00e+00	0	49	0	1035993088	73	4712
2026-01-16 06:01:37.54	323.00	12.84	-51.4	-53.3	17.9	0.00e+00	0	49	0	1038090240	73	4726
2026-01-16 06:01:38.55	322.87	12.76	-51.4	-53.3	17.9	0.00e+00	0	49	0	1040187392	73	4742
2026-01-16 06:01:39.55	322.73	12.69	-51.2	-53.0	18.1	0.00e+00	0	49	0	1042284544	73	4559
2026-01-16 06:01:40.56	322.60	12.62	-51.0	-52.7	18.4	0.00e+00	0	49	0	1043333120	73	4403
2026-01-16 06:01:41.57	322.47	12.55	-50.8	-52.4	18.7	0.00e+00	0	49	0	1045430272	73	4266
2026-01-16 06:01:42.58	322.34	12.48	-50.7	-52.3	18.8	0.00e+00	0	49	0	1047527424	73	4215
2026-01-16 06:01:43.59	322.20	12.40	-50.7	-52.3	18.8	0.00e+00	0	49	0	1049624576	73	4234
2026-01-16 06:01:44.60	322.07	12.33	-50.5	-52.1	19.0	0.00e+00	0	49	0	1051721728	73	4117
2026-01-16 06:01:45.61	321.94	12.26	-50.4	-51.9	19.1	0.00e+00	0	49	0	1052770304	72	4290
2026-01-16 06:01:46.62	321.82	12.19	-50.4	-51.9	19.2	0.00e+00	0	49	0	1054867456	72	4270
2026-01-16 06:01:47.63	321.69	12.12	-50.6	-52.2	18.8	0.00e+00	0	49	0	1056964608	72	4436
2026-01-16 06:01:48.64	321.56	12.05	-50.6	-52.2	18.9	0.00e+00	0	49	0	1059061760	72	4403
2026-01-16 06:01:49.65	321.43	11.97	-50.5	-52.1	18.9	0.00e+00	0	49	0	1061158912	72	4386
2026-01-16 06:01:50.66	321.30	11.90	-50.4	-52.0	19.0	0.00e+00	0	49	0	1063256064	72	4314
2026-01-16 06:01:51.67	321.18	11.83	-50.5	-52.1	18.9	0.00e+00	0	49	0	1064304640	72	4341
2026-01-16 06:01:52.68	321.05	11.76	-50.4	-52.0	19.0	0.00e+00	0	49	0	1066401792	72	4305
2026-01-16 06:01:53.69	320.93	11.69	-50.4	-51.9	19.1	0.00e+00	0	49	0	1068498944	72	4258
2026-01-16 06:01:54.70	320.80	11.62	-50.5	-52.0	19.0	0.00e+00	0	49	0	1070596096	72	4330
2026-01-16 06:01:55.71	320.68	11.55	-50.4	-52.0	19.0	0.00e+00	0	49	0	1071644672	72	4313
2026-01-16 06:01:56.72	320.56	11.48	-50.5	-52.1	18.9	0.00e+00	0	49	0	1073741824	72	4363
2026-01-16 06:01:57.73	320.44	11.40	-50.7	-52.3	18.7	0.00e+00	0	49	0	1075838976	72	4480
2026-01-16 06:01:58.74	320.31	11.33	-50.8	-52.5	18.5	0.00e+00	0	49	0	1077936128	72	4578
2026-01-16 06:01:59.75	320.19	11.26	-51.0	-52.7	18.3	0.00e+00	0	49	0	1080033280	72	4696
2026-01-16 06:02:00.76	320.07	11.19	-51.1	-52.9	18.1	0.00e+00	0	49	0	1082130432	72	4794
2026-01-16 06:02:01.77	319.95	11.12	-51.1	-52.9	18.1	0.00e+00	0	49	0	1083179008	72	4788
2026-01-16 06:02:02.78	319.83	11.05	-50.9	-52.6	18.3	0.00e+00	0	49	0	1085276160	72	4643
2026-01-16 06:02:03.78	319.71	10.98	-51.1	-53.0	18.1	0.00e+00	0	49	0	1087373312	72	4815
2026-01-16 06:02:04.79	319.60	10.91	-51.2	-53.0	18.1	0.00e+00	0	49	0	1089470464	73	4562
2026-01-16 06:02:05.80	319.48	10.84	-51.3	-53.1	17.9	0.00e+00	0	49	0	1091567616	73	4627
2026-01-16 06:02:06.81	319.36	10.77	-51.2	-53.0	18.0	0.00e+00	0	49	0	1092616192	73	4571
2026-01-16 06:02:07.82	319.25	10.70	-51.2	-53.0	18.0	0.00e+00	0	49	0	1094713344	73	4582
2026-01-16 06:02:08.83	319.13	10.63	-51.5	-53.4	17.6	0.00e+00	0	49	0	1096810496	73	4801
2026-01-16 06:02:09.84	319.01	10.56	-51.5	-53.4	17.6	0.00e+00	0	49	0	1098907648	73	4790
2026-01-16 06:02:10.85	318.90	10.49	-51.8	-53.8	17.2	0.00e+00	0	49	0	1099956224	74	4746
2026-01-16 06:02:11.86	318.79	10.42	-51.9	-54.0	17.1	0.00e+00	0	49	0	1102053376	74	4818
2026-01-16 06:02:12.87	318.67	10.35	-51.9	-54.0	17.0	0.00e+00	0	49	0	1104150528	74	4828
2026-01-16 06:02:13.88	318.56	10.28	-52.0	-54.1	16.9	0.00e+00	0	49	0	1106247680	74	4908
2026-01-16 06:02:14.89	318.45	10.21	-51.9	-54.1	17.0	0.00e+00	0	49	0	1108344832	74	4891
2026-01-16 06:02:15.90	318.33	10.14	-52.0	-54.1	17.0	0.00e+00	0	49	0	1110441984	74	4888
2026-01-16 06:02:16.91	318.22	10.07	-51.7	-53.7	17.3	0.00e+00	0	49	0	1111490560	74	4700
2026-01-16 06:02:17.92	318.11	10.00	-51.5	-53.4	17.6	0.00e+00	0	49	0	1113587712	74	4537
2026-01-16 06:02:18.93	318.00	9.93	-51.4	-53.3	17.7	0.00e+00	0	49	0	1115684864	74	4442
2026-01-16 06:02:19.94	317.89	9.87	-51.3	-53.1	17.8	0.00e+00	0	49	0	1117782016	74	4387
2026-01-16 06:02:20.95	317.78	9.80	-51.1	-52.9	18.0	0.00e+00	0	49	0	1119879168	74	4284
2026-01-16 06:02:21.96	317.67	9.73	-51.0	-52.8	18.2	0.00e+00	0	49	0	1120927744	73	4462
2026-01-16 06:02:22.97	317.57	9.66	-51.2	-53.0	18.0	0.00e+00	0	49	0	1123024896	73	4551
2026-01-16 06:02:23.98	317.46	9.59	-51.0	-52.7	18.2	0.00e+00	0	49	0	1125122048	73	4407
2026-01-16 06:02:24.99	317.35	9.52	-51.0	-52.8	18.1	0.00e+00	0	49	0	1127219200	73	4468
2026-01-16 06:02:26.00	317.24	9.45	-51.2	-53.0	18.0	0.00e+00	0	49	0	1129316352	73	4549
2026-01-16 06:02:27.01	317.14	9.38	-51.4	-53.3	17.7	0.00e+00	0	49	0	1130364928	73	4731
2026-01-16 06:02:28.02	317.03	9.32	-51.5	-53.4	17.6	0.00e+00	0	49	0	1132462080	73	4782
2026-01-16 06:02:29.03	316.93	9.25	-51.5	-53.5	17.5	0.00e+00	0	49	0	1134559232	73	4826
2026-01-16 06:02:30.03	316.82	9.18	-51.7	-53.8	17.2	0.00e+00	0	49	0	1136656384	74	4706
2026-01-16 06:02:31.04	316.72	9.11	-51.7	-53.8	17.2	0.00e+00	0	49	0	1138753536	74	4708
2026-01-16 06:02:32.05	316.62	9.04	-51.9	-54.0	17.0	0.00e+00	0	49	0	1139802112	74	4819
2026-01-16 06:02:33.06	316.51	8.98	-51.8	-53.9	17.0	0.00e+00	0	49	0	1141899264	74	4792
2026-01-16 06:02:34.07	316.41	8.91	-51.8	-53.9	17.1	0.00e+00	0	49	0	1143996416	74	4778
2026-01-16 06:02:35.08	316.31	8.84	-51.7	-53.7	17.3	0.00e+00	0	49	0	1146093568	74	4672
2026-01-16 06:02:36.09	316.21	8.77	-51.7	-53.8	17.1	0.00e+00	0	49	0	1148190720	74	4721
2026-01-16 06:02:37.10	316.10	8.71	-51.7	-53.7	17.2	0.00e+00	0	49	0	1149239296	74	4694
2026-01-16 06:02:38.11	316.00	8.64	-51.7	-53.7	17.2	0.00e+00	0	49	0	1151336448	74	4690
2026-01-16 06:02:39.12	315.90	8.57	-51.5	-53.5	17.4	0.00e+00	0	49	0	1153433600	74	4576
2026-01-16 06:02:40.13	315.80	8.50	-51.5	-53.5	17.4	0.00e+00	0	49	0	1155530752	74	4559
2026-01-16 06:02:41.14	315.70	8.44	-51.5	-53.4	17.5	0.00e+00	0	49	0	1157627904	74	4522
2026-01-16 06:02:42.15	315.61	8.37	-51.6	-53.6	17.3	0.00e+00	0	49	0	1158676480	74	4622
2026-01-16 06:02:43.16	315.51	8.30	-51.5	-53.4	17.5	0.00e+00	0	49	0	1160773632	74	4535
2026-01-16 06:02:44.17	315.41	8.24	-51.7	-53.7	17.2	0.00e+00	0	49	0	1162870784	74	4677
2026-01-16 06:02:45.18	315.31	8.17	-51.7	-53.7	17.2	0.00e+00	0	49	0	1164967936	74	4674
2026-01-16 06:02:46.19	315.22	8.10	-51.8	-53.9	17.0	0.00e+00	0	49	0	1167065088	74	4794
2026-01-16 06:02:47.19	315.12	8.04	-52.0	-54.1	16.8	0.00e+00	0	49	0	1169162240	74	4917
2026-01-16 06:02:48.20	315.02	7.97	-52.0	-54.3	16.7	0.00e+00	0	49	0	1170210816	74	4984
2026-01-16 06:02:49.21	314.93	7.90	-52.1	-54.4	16.5	0.00e+00	0	49	0	1172307968	74	5048
2026-01-16 06:02:50.22	314.83	7.84	-52.2	-54.5	16.3	0.00e+00	0	49	0	1174405120	74	5129
2026-01-16 06:02:51.23	314.74	7.77	-52.4	-54.8	16.0	0.00e+00	0	49	0	1176502272	75	5019
2026-01-16 06:02:52.24	314.64	7.70	-52.5	-54.9	16.0	0.00e+00	0	49	0	1177550848	75	5065
2026-01-16 06:02:53.25	314.55	7.64	-52.6	-55.1	15.7	0.00e+00	0	49	0	1179648000	75	5218
2026-01-16 06:02:54.26	314.46	7.57	-52.7	-55.2	15.6	0.00e+00	0	49	0	1181745152	76	4973
2026-01-16 06:02:55.27	314.36	7.51	-52.7	-55.2	15.7	0.00e+00	0	49	0	1183842304	76	4946
2026-01-16 06:02:56.28	314.27	7.44	-52.7	-55.3	15.6	0.00e+00	0	49	0	1185939456	76	4985
2026-01-16 06:02:57.29	314.18	7.38	-52.8	-55.5	15.4	0.00e+00	0	49	0	1188036608	76	5110
2026-01-16 06:02:58.30	314.09	7.31	-52.8	-55.4	15.4	0.00e+00	0	49	0	1189085184	76	5070
2026-01-16 06:02:59.31	314.00	7.24	-53.0	-55.8	15.0	0.00e+00	0	49	0	1191182336	76	5291
2026-01-16 06:03:00.32	313.91	7.18	-53.0	-55.8	15.0	0.00e+00	0	49	0	1193279488	76	5322
2026-01-16 06:03:01.33	313.82	7.11	-53.0	-55.8	15.0	0.00e+00	0	49	0	1195376640	76	5297
2026-01-16 06:03:02.34	313.73	7.05	-53.1	-55.9	14.9	0.00e+00	0	49	0	1197473792	76	5368
2026-01-16 06:03:03.34	313.64	6.98	-53.0	-55.8	15.0	0.00e+00	0	49	0	1198522368	76	5294
2026-01-16 06:03:04.35	313.55	6.92	-53.0	-55.8	15.1	0.00e+00	0	49	0	1200619520	76	5281
2026-01-16 06:03:05.37	313.46	6.85	-53.0	-55.7	15.0	0.00e+00	0	49	0	1202716672	76	5267
2026-01-16 06:03:06.38	313.37	6.79	-53.0	-55.7	15.0	0.00e+00	0	49	0	1204813824	76	5247
2026-01-16 06:03:07.39	313.28	6.72	-52.9	-55.6	15.2	0.00e+00	0	49	0	1206910976	76	5176
2026-01-16 06:03:08.39	313.20	6.66	-52.9	-55.5	15.2	0.00e+00	0	49	0	1207959552	76	5122
2026-01-16 06:03:09.40	313.11	6.60	-52.8	-55.5	15.2	0.00e+00	0	49	0	1210056704	76	5111
2026-01-16 06:03:10.41	313.02	6.53	-52.7	-55.3	15.4	0.00e+00	0	49	0	1212153856	76	5016
2026-01-16 06:03:11.42	312.94	6.47	-52.8	-55.4	15.3	0.00e+00	0	49	0	1214251008	76	5092
2026-01-16 06:03:12.43	312.85	6.40	-52.9	-55.6	15.1	0.00e+00	0	49	0	1216348160	76	5208
2026-01-16 06:03:13.44	312.77	6.34	-52.8	-55.4	15.3	0.00e+00	0	49	0	1217396736	76	5064
2026-01-16 06:03:14.45	312.68	6.28	-53.0	-55.7	15.0	0.00e+00	0	49	0	1219493888	76	5257
2026-01-16 06:03:15.46	312.60	6.21	-53.0	-55.8	14.9	7.00e-07	0	49	0	1221591040	76	5304
2026-01-16 06:03:16.47	312.51	6.15	-53.0	-55.8	14.9	0.00e+00	0	49	0	1223688192	76	5319
2026-01-16 06:03:17.48	312.43	6.08	-53.1	-55.9	14.8	0.00e+00	0	49	0	1225785344	76	5375
2026-01-16 06:03:18.49	312.34	6.02	-53.3	-56.3	14.4	7.00e-07	0	49	0	1227882496	77	5299
2026-01-16 06:03:19.50	312.26	5.96	-53.3	-56.3	14.4	7.00e-07	0	49	0	1228931072	77	5320
2026-01-16 06:03:20.51	312.18	5.89	-53.2	-56.1	14.6	7.00e-07	0	49	0	1231028224	77	5197
