passes_logs/2026/01/16/R3.2S_Murmansk/R3.2S_Murmansk__20260116_125449_NOAA_20_JPSS-1_rec.log

#Pass ID: 20260116_125449_NOAA 20 (JPSS-1)
#Satellite: NOAA 20 (JPSS-1)
#Configuration: NOAA 20
#almurnet v.1.7.20251203
#Start time: 2026-01-16 12:54:50

#Version: 2.2.20231116
#Station: R3.2S_Murmansk
#Location: 33.079688 lon 68.888172 lat
#TLE: 1 43013U 17073A   26015.89389188  .00000026  00000+0  33113-4 0  9999
#TLE: 2 43013  98.7636 316.8238 0001460  37.8997 322.2282 14.19536128422860

#Time	Az	El	Level	Level2	SNR	BER	BlckErr	Temp	State	Recorded	gain1	gain2
2026-01-16 12:54:50.64	240.25	2.06	-57.6	-72.1	3.8	1.49e+00	0	45	0	0	87	18380
2026-01-16 12:54:51.65	240.35	2.11	-57.6	-72.1	3.8	1.49e+00	0	45	104	0	85	20597
2026-01-16 12:54:52.66	240.45	2.15	-57.5	-72.1	3.8	1.49e+00	0	45	104	0	85	20566
2026-01-16 12:54:53.67	240.55	2.20	-57.5	-72.0	3.8	1.49e+00	0	45	104	0	85	20497
2026-01-16 12:54:54.68	240.65	2.25	-57.5	-72.0	3.8	1.49e+00	0	45	104	0	85	20486
2026-01-16 12:54:55.69	240.75	2.29	-57.5	-72.0	3.8	1.49e+00	0	45	104	0	85	20520
2026-01-16 12:54:56.70	240.85	2.34	-57.5	-72.0	3.8	1.49e+00	0	45	104	0	85	20388
2026-01-16 12:54:57.70	240.94	2.38	-57.5	-72.0	3.8	1.49e+00	0	45	104	0	85	20521
2026-01-16 12:54:58.71	241.04	2.43	-57.5	-72.0	3.8	1.49e+00	0	45	104	0	85	20452
2026-01-16 12:54:59.72	241.14	2.48	-57.5	-72.0	3.8	1.49e+00	0	45	104	0	85	20470
2026-01-16 12:55:00.73	241.25	2.52	-57.5	-72.1	3.8	1.49e+00	0	46	104	0	85	20558
2026-01-16 12:55:01.74	241.35	2.57	-57.5	-72.0	3.8	1.49e+00	0	45	104	0	85	20470
2026-01-16 12:55:02.75	241.45	2.62	-57.5	-72.1	3.8	1.49e+00	0	46	104	0	85	20552
2026-01-16 12:55:03.76	241.55	2.66	-57.5	-72.1	3.8	1.49e+00	0	46	104	0	85	20597
2026-01-16 12:55:04.76	241.65	2.71	-57.5	-72.0	3.8	1.49e+00	0	46	104	0	85	20523
2026-01-16 12:55:05.77	241.75	2.75	-57.5	-72.0	3.8	1.49e+00	0	46	104	0	85	20507
2026-01-16 12:55:06.78	241.86	2.80	-57.5	-72.0	3.8	1.49e+00	0	46	104	0	85	20509
2026-01-16 12:55:07.79	241.96	2.85	-57.5	-72.0	3.8	1.49e+00	0	46	104	0	85	20451
2026-01-16 12:55:08.80	242.06	2.89	-57.5	-71.9	3.8	1.49e+00	0	46	104	0	85	20300
2026-01-16 12:55:09.80	242.16	2.94	-57.5	-71.9	3.8	1.49e+00	0	46	104	0	85	20250
2026-01-16 12:55:10.81	242.27	2.98	-57.5	-71.9	3.8	1.49e+00	0	46	104	0	85	20216
2026-01-16 12:55:11.82	242.37	3.03	-57.5	-72.0	3.8	1.49e+00	0	46	104	0	85	20322
2026-01-16 12:55:12.83	242.48	3.08	-57.5	-71.9	3.8	1.49e+00	0	46	104	0	85	20300
2026-01-16 12:55:13.83	242.58	3.12	-57.5	-72.0	3.8	1.49e+00	0	46	104	0	85	20437
2026-01-16 12:55:14.84	242.68	3.17	-57.5	-72.0	3.8	1.49e+00	0	46	104	0	85	20333
2026-01-16 12:55:15.85	242.79	3.21	-57.5	-71.9	3.8	1.49e+00	0	46	104	0	85	20294
2026-01-16 12:55:16.86	242.90	3.26	-57.5	-71.9	3.8	1.49e+00	0	46	104	0	85	20300
2026-01-16 12:55:17.86	243.00	3.31	-57.5	-71.9	3.8	1.49e+00	0	46	104	0	85	20149
2026-01-16 12:55:18.87	243.11	3.35	-57.5	-71.9	3.8	1.49e+00	0	46	104	0	85	20228
2026-01-16 12:55:19.88	243.21	3.40	-57.5	-71.9	3.8	1.49e+00	0	46	104	0	85	20274
2026-01-16 12:55:20.89	243.32	3.44	-57.5	-72.0	3.8	1.49e+00	0	46	104	0	85	20333
2026-01-16 12:55:21.90	243.43	3.49	-57.5	-72.0	3.8	1.49e+00	0	46	104	0	85	20396
2026-01-16 12:55:22.90	243.53	3.54	-57.5	-72.0	3.8	1.49e+00	0	46	104	0	85	20448
2026-01-16 12:55:23.91	243.64	3.58	-57.5	-71.9	3.8	1.49e+00	0	46	104	0	85	20245
2026-01-16 12:55:24.92	243.75	3.63	-57.5	-72.0	3.8	1.49e+00	0	46	104	0	85	20314
2026-01-16 12:55:25.93	243.86	3.67	-57.5	-72.0	3.8	1.49e+00	0	46	104	0	85	20324
2026-01-16 12:55:26.93	243.97	3.72	-57.5	-72.0	3.8	1.49e+00	0	46	104	0	85	20331
2026-01-16 12:55:27.94	244.08	3.77	-57.5	-72.0	3.8	1.49e+00	0	47	104	0	85	20449
2026-01-16 12:55:28.95	244.18	3.81	-57.5	-72.0	3.8	1.49e+00	0	47	104	0	85	20442
2026-01-16 12:55:29.96	244.29	3.86	-57.5	-72.0	3.8	1.49e+00	0	46	104	0	85	20484
2026-01-16 12:55:30.97	244.40	3.90	-57.5	-72.0	3.8	1.49e+00	0	47	104	0	85	20427
2026-01-16 12:55:31.98	244.52	3.95	-57.5	-72.0	3.8	1.49e+00	0	47	104	0	85	20467
2026-01-16 12:55:32.99	244.63	4.00	-57.5	-72.0	3.8	1.49e+00	0	47	104	0	85	20364
2026-01-16 12:55:34.00	244.74	4.04	-57.5	-71.9	3.8	1.49e+00	0	47	104	0	85	20247
2026-01-16 12:55:35.00	244.85	4.09	-57.5	-71.9	3.8	1.49e+00	0	47	104	0	85	20139
2026-01-16 12:55:36.01	244.96	4.13	-57.5	-71.9	3.8	1.49e+00	0	47	104	0	85	20075
2026-01-16 12:55:37.02	245.07	4.18	-57.5	-71.8	3.8	1.49e+00	0	47	104	0	85	20024
2026-01-16 12:55:38.03	245.18	4.23	-57.5	-71.9	3.8	1.49e+00	0	47	104	0	85	20180
2026-01-16 12:55:39.04	245.30	4.27	-57.5	-71.8	3.8	1.49e+00	0	47	104	0	85	20002
2026-01-16 12:55:40.05	245.41	4.32	-57.5	-71.7	3.8	1.49e+00	0	47	104	0	85	19808
2026-01-16 12:55:41.06	245.52	4.37	-57.5	-71.7	3.8	1.49e+00	0	47	104	0	85	19633
2026-01-16 12:55:42.06	245.64	4.41	-57.5	-71.7	3.8	1.49e+00	0	47	104	0	85	19735
2026-01-16 12:55:43.07	245.75	4.46	-57.5	-72.0	3.8	1.49e+00	0	47	104	0	85	20401
2026-01-16 12:55:44.08	245.86	4.50	-57.5	-71.9	3.8	1.49e+00	0	47	104	0	85	20252
2026-01-16 12:55:45.09	245.98	4.55	-57.5	-71.2	3.8	1.49e+00	0	47	104	0	85	18529
2026-01-16 12:55:46.10	246.10	4.59	-57.4	-69.7	3.8	1.49e+00	0	47	104	0	85	15652
2026-01-16 12:55:47.11	246.21	4.64	-57.3	-67.8	4.4	1.41e+00	170	47	0	0	85	12536
2026-01-16 12:55:48.12	246.33	4.69	-57.2	-66.8	4.8	8.56e-01	0	47	0	2097152	85	11221
2026-01-16 12:55:49.12	246.44	4.73	-57.0	-65.5	5.6	5.30e-01	0	47	0	3145728	85	9653
2026-01-16 12:55:50.13	246.56	4.78	-56.8	-64.2	6.6	2.84e-01	0	47	0	5242880	85	8346
2026-01-16 12:55:51.14	246.68	4.82	-56.5	-62.6	8.1	1.06e-01	0	47	0	7340032	85	6885
2026-01-16 12:55:52.15	246.79	4.87	-56.0	-60.9	9.9	3.13e-02	0	47	0	9437184	84	5999
2026-01-16 12:55:53.16	246.91	4.92	-55.2	-58.9	11.9	1.34e-03	0	47	0	11534336	82	5364
2026-01-16 12:55:54.16	247.03	4.96	-54.2	-57.0	13.9	1.22e-05	0	47	0	12582912	80	4815
2026-01-16 12:55:55.17	247.15	5.01	-53.8	-56.2	14.8	3.00e-06	0	47	0	14680064	79	4668
2026-01-16 12:55:56.18	247.26	5.05	-53.6	-55.8	15.2	0.00e+00	0	47	0	16777216	79	4456
2026-01-16 12:55:57.19	247.38	5.10	-54.8	-58.0	12.9	1.60e-05	0	47	0	18874368	80	5455
2026-01-16 12:55:58.20	247.50	5.14	-55.4	-59.3	11.4	2.44e-03	0	47	0	20971520	81	5964
2026-01-16 12:55:59.20	247.62	5.19	-53.3	-55.4	15.6	0.00e+00	0	47	0	22020096	78	4505
2026-01-16 12:56:00.21	247.74	5.23	-55.0	-58.5	12.0	8.16e-05	0	47	0	24117248	81	5416
2026-01-16 12:56:01.22	247.86	5.28	-55.7	-59.9	10.8	3.32e-03	0	47	0	26214400	82	6055
2026-01-16 12:56:02.23	247.98	5.33	-53.0	-54.8	16.2	0.00e+00	0	47	0	28311552	77	4482
2026-01-16 12:56:03.24	248.10	5.37	-53.3	-55.3	15.6	0.00e+00	0	47	0	30408704	77	4758
2026-01-16 12:56:04.24	248.22	5.42	-53.2	-55.1	15.9	0.00e+00	0	47	0	32505856	77	4640
2026-01-16 12:56:05.26	248.35	5.46	-53.2	-55.2	15.8	0.00e+00	0	47	0	33554432	77	4669
2026-01-16 12:56:06.26	248.47	5.51	-53.0	-54.8	16.2	0.00e+00	0	47	0	35651584	77	4479
2026-01-16 12:56:07.27	248.59	5.55	-53.1	-55.1	16.0	0.00e+00	0	47	0	37748736	77	4617
2026-01-16 12:56:08.28	248.71	5.60	-53.2	-55.2	15.8	0.00e+00	0	47	0	39845888	77	4693
2026-01-16 12:56:09.29	248.84	5.64	-53.4	-55.4	15.7	0.00e+00	0	47	0	40894464	77	4784
2026-01-16 12:56:10.30	248.96	5.69	-53.5	-55.7	15.4	0.00e+00	0	47	0	42991616	77	4943
2026-01-16 12:56:11.31	249.09	5.73	-53.5	-55.6	15.5	0.00e+00	0	47	0	45088768	77	4871
2026-01-16 12:56:12.31	249.21	5.78	-53.1	-55.0	16.1	0.00e+00	0	48	0	47185920	77	4578
2026-01-16 12:56:13.32	249.33	5.82	-53.3	-55.2	15.9	0.00e+00	0	47	0	49283072	77	4684
2026-01-16 12:56:14.33	249.46	5.87	-53.1	-55.0	16.1	0.00e+00	0	47	0	50331648	77	4560
2026-01-16 12:56:15.34	249.59	5.92	-53.2	-55.1	16.0	0.00e+00	0	48	0	52428800	77	4615
2026-01-16 12:56:16.35	249.71	5.96	-53.3	-55.3	15.8	0.00e+00	0	48	0	54525952	77	4729
2026-01-16 12:56:17.36	249.84	6.01	-53.1	-55.0	16.1	0.00e+00	0	48	0	56623104	77	4577
2026-01-16 12:56:18.36	249.96	6.05	-53.1	-55.0	16.2	0.00e+00	0	48	0	58720256	77	4569
2026-01-16 12:56:19.37	250.09	6.10	-53.1	-54.9	16.2	0.00e+00	0	47	0	60817408	77	4525
2026-01-16 12:56:20.38	250.22	6.14	-53.1	-55.0	16.2	0.00e+00	0	47	0	61865984	77	4577
2026-01-16 12:56:21.39	250.35	6.19	-53.1	-54.9	16.2	0.00e+00	0	48	0	63963136	77	4544
2026-01-16 12:56:22.40	250.47	6.23	-53.0	-54.8	16.4	0.00e+00	0	48	0	66060288	77	4448
2026-01-16 12:56:23.41	250.60	6.28	-52.8	-54.5	16.7	0.00e+00	0	47	0	68157440	77	4326
2026-01-16 12:56:24.42	250.73	6.32	-53.1	-54.9	16.2	0.00e+00	0	48	0	69206016	77	4541
2026-01-16 12:56:25.42	250.86	6.36	-53.2	-55.0	16.2	0.00e+00	0	48	0	71303168	77	4579
2026-01-16 12:56:26.43	250.99	6.41	-53.2	-55.0	16.2	0.00e+00	0	48	0	73400320	77	4585
2026-01-16 12:56:27.44	251.12	6.45	-52.9	-54.7	16.5	0.00e+00	0	48	0	75497472	77	4408
2026-01-16 12:56:28.45	251.25	6.50	-52.9	-54.7	16.5	0.00e+00	0	48	0	77594624	77	4418
2026-01-16 12:56:29.46	251.38	6.54	-52.8	-54.5	16.7	0.00e+00	0	48	0	79691776	77	4299
2026-01-16 12:56:30.46	251.51	6.59	-52.6	-54.3	16.9	0.00e+00	0	48	0	80740352	77	4207
2026-01-16 12:56:31.47	251.64	6.63	-52.6	-54.2	17.0	0.00e+00	0	48	0	82837504	77	4155
2026-01-16 12:56:32.48	251.78	6.68	-52.4	-53.9	17.3	0.00e+00	0	48	0	84934656	76	4265
2026-01-16 12:56:33.49	251.91	6.72	-52.5	-54.1	17.1	0.00e+00	0	48	0	87031808	76	4377
2026-01-16 12:56:34.50	252.04	6.77	-52.6	-54.2	17.0	0.00e+00	0	48	0	89128960	76	4421
2026-01-16 12:56:35.51	252.17	6.81	-52.5	-54.1	17.1	0.00e+00	0	48	0	90177536	76	4359
2026-01-16 12:56:36.52	252.31	6.85	-52.6	-54.1	17.1	0.00e+00	0	48	0	92274688	76	4382
2026-01-16 12:56:37.52	252.44	6.90	-52.5	-54.1	17.2	0.00e+00	0	48	0	94371840	76	4355
2026-01-16 12:56:38.53	252.57	6.94	-52.6	-54.2	17.1	0.00e+00	0	48	0	96468992	76	4397
2026-01-16 12:56:39.54	252.71	6.99	-52.6	-54.2	17.0	0.00e+00	0	48	0	98566144	76	4426
2026-01-16 12:56:40.55	252.84	7.03	-52.6	-54.2	17.0	0.00e+00	0	48	0	99614720	76	4419
2026-01-16 12:56:41.56	252.98	7.07	-52.5	-54.1	17.2	0.00e+00	0	48	0	101711872	76	4360
2026-01-16 12:56:42.56	253.11	7.12	-52.4	-53.9	17.3	0.00e+00	0	48	0	103809024	76	4275
2026-01-16 12:56:43.57	253.25	7.16	-52.5	-54.0	17.3	0.00e+00	0	48	0	105906176	76	4303
2026-01-16 12:56:44.58	253.39	7.21	-52.5	-54.1	17.2	0.00e+00	0	48	0	108003328	76	4342
2026-01-16 12:56:45.59	253.53	7.25	-52.5	-54.0	17.3	0.00e+00	0	48	0	109051904	76	4316
2026-01-16 12:56:46.60	253.66	7.29	-52.6	-54.1	17.1	0.00e+00	0	48	0	111149056	76	4385
2026-01-16 12:56:47.60	253.80	7.34	-52.5	-54.0	17.2	0.00e+00	0	48	0	113246208	76	4335
2026-01-16 12:56:48.61	253.94	7.38	-52.3	-53.8	17.5	0.00e+00	0	48	0	115343360	76	4219
2026-01-16 12:56:49.62	254.08	7.42	-52.4	-53.9	17.4	0.00e+00	0	48	0	117440512	76	4276
2026-01-16 12:56:50.63	254.22	7.47	-52.4	-53.9	17.3	0.00e+00	0	48	0	118489088	76	4289
2026-01-16 12:56:51.64	254.36	7.51	-52.4	-53.8	17.5	0.00e+00	0	48	0	120586240	76	4236
2026-01-16 12:56:52.65	254.50	7.55	-52.4	-53.9	17.4	0.00e+00	0	48	0	122683392	76	4260
2026-01-16 12:56:53.66	254.64	7.60	-52.3	-53.7	17.6	0.00e+00	0	48	0	124780544	76	4167
2026-01-16 12:56:54.66	254.77	7.64	-52.4	-53.8	17.5	0.00e+00	0	48	0	126877696	76	4234
2026-01-16 12:56:55.67	254.92	7.68	-52.4	-53.9	17.4	0.00e+00	0	48	0	127926272	76	4273
2026-01-16 12:56:56.68	255.06	7.73	-52.4	-53.9	17.4	0.00e+00	0	48	0	130023424	76	4281
2026-01-16 12:56:57.69	255.20	7.77	-52.4	-53.9	17.4	0.00e+00	0	48	0	132120576	76	4247
2026-01-16 12:56:58.70	255.34	7.81	-52.4	-53.9	17.4	0.00e+00	0	48	0	134217728	76	4272
2026-01-16 12:56:59.71	255.48	7.85	-52.4	-53.9	17.4	0.00e+00	0	48	0	136314880	76	4262
2026-01-16 12:57:00.72	255.63	7.90	-52.3	-53.7	17.6	0.00e+00	0	48	0	137363456	76	4168
2026-01-16 12:57:01.72	255.77	7.94	-52.3	-53.7	17.7	0.00e+00	0	48	0	139460608	76	4170
2026-01-16 12:57:02.73	255.91	7.98	-52.4	-53.9	17.5	0.00e+00	0	48	0	141557760	76	4245
2026-01-16 12:57:03.74	256.06	8.02	-52.3	-53.8	17.6	0.00e+00	0	48	0	143654912	76	4212
2026-01-16 12:57:04.75	256.20	8.07	-52.3	-53.8	17.6	0.00e+00	0	48	0	145752064	76	4194
2026-01-16 12:57:05.76	256.35	8.11	-52.3	-53.8	17.6	0.00e+00	0	48	0	147849216	76	4207
2026-01-16 12:57:06.76	256.49	8.15	-52.3	-53.7	17.7	0.00e+00	0	48	0	148897792	76	4177
2026-01-16 12:57:07.77	256.64	8.19	-52.4	-53.8	17.5	0.00e+00	0	48	0	150994944	76	4225
2026-01-16 12:57:08.78	256.78	8.24	-52.4	-53.9	17.4	0.00e+00	0	48	0	153092096	76	4278
2026-01-16 12:57:09.79	256.93	8.28	-52.3	-53.8	17.6	0.00e+00	0	48	0	155189248	76	4208
2026-01-16 12:57:10.80	257.08	8.32	-52.4	-53.9	17.5	0.00e+00	0	48	0	156237824	76	4256
2026-01-16 12:57:11.80	257.23	8.36	-52.4	-53.9	17.5	0.00e+00	0	48	0	158334976	76	4247
2026-01-16 12:57:12.81	257.37	8.40	-52.4	-53.8	17.6	0.00e+00	0	48	0	160432128	76	4219
2026-01-16 12:57:13.82	257.52	8.44	-52.4	-53.9	17.4	0.00e+00	0	49	0	162529280	76	4266
2026-01-16 12:57:14.83	257.67	8.49	-52.4	-53.8	17.5	0.00e+00	0	48	0	164626432	76	4237
2026-01-16 12:57:15.83	257.82	8.53	-52.4	-53.8	17.6	0.00e+00	0	48	0	165675008	76	4239
2026-01-16 12:57:16.84	257.97	8.57	-52.5	-53.9	17.5	0.00e+00	0	48	0	167772160	76	4278
2026-01-16 12:57:17.85	258.12	8.61	-52.4	-53.8	17.6	0.00e+00	0	48	0	169869312	76	4235
2026-01-16 12:57:18.86	258.27	8.65	-52.4	-53.9	17.5	0.00e+00	0	48	0	171966464	76	4262
2026-01-16 12:57:19.87	258.42	8.69	-52.5	-53.9	17.5	0.00e+00	0	48	0	174063616	76	4290
2026-01-16 12:57:20.88	258.57	8.73	-52.5	-53.9	17.5	0.00e+00	0	48	0	176160768	76	4284
2026-01-16 12:57:21.88	258.72	8.77	-52.6	-54.1	17.3	0.00e+00	0	48	0	177209344	76	4388
2026-01-16 12:57:22.89	258.87	8.81	-52.6	-54.1	17.3	0.00e+00	0	48	0	179306496	76	4379
2026-01-16 12:57:23.90	259.03	8.85	-52.5	-54.0	17.4	0.00e+00	0	48	0	181403648	76	4327
2026-01-16 12:57:24.91	259.18	8.89	-52.6	-54.1	17.3	0.00e+00	0	48	0	183500800	76	4373
2026-01-16 12:57:25.92	259.33	8.93	-52.5	-54.0	17.4	0.00e+00	0	48	0	184549376	76	4328
2026-01-16 12:57:26.92	259.48	8.97	-52.5	-54.0	17.4	0.00e+00	0	48	0	186646528	76	4312
2026-01-16 12:57:27.93	259.64	9.01	-52.6	-54.1	17.3	0.00e+00	0	48	0	188743680	76	4384
2026-01-16 12:57:28.94	259.79	9.05	-52.6	-54.0	17.4	0.00e+00	0	48	0	190840832	76	4340
2026-01-16 12:57:29.95	259.95	9.09	-52.5	-54.0	17.4	0.00e+00	0	48	0	192937984	76	4313
2026-01-16 12:57:30.96	260.10	9.13	-52.5	-54.0	17.4	0.00e+00	0	48	0	195035136	76	4318
2026-01-16 12:57:31.96	260.26	9.17	-52.5	-53.9	17.5	0.00e+00	0	48	0	196083712	76	4276
2026-01-16 12:57:32.97	260.41	9.21	-52.6	-54.1	17.4	0.00e+00	0	49	0	198180864	76	4343
2026-01-16 12:57:33.98	260.57	9.25	-52.5	-54.0	17.4	0.00e+00	0	49	0	200278016	76	4326
2026-01-16 12:57:34.99	260.73	9.29	-52.7	-54.2	17.2	0.00e+00	0	49	0	202375168	76	4420
2026-01-16 12:57:35.99	260.88	9.33	-52.7	-54.2	17.2	0.00e+00	0	49	0	204472320	76	4409
2026-01-16 12:57:37.01	261.04	9.37	-52.7	-54.2	17.2	0.00e+00	0	48	0	205520896	76	4423
2026-01-16 12:57:38.01	261.20	9.41	-52.7	-54.3	17.1	0.00e+00	0	49	0	207618048	76	4473
2026-01-16 12:57:39.02	261.36	9.45	-52.7	-54.2	17.2	0.00e+00	0	49	0	209715200	76	4418
2026-01-16 12:57:40.03	261.52	9.48	-52.7	-54.2	17.2	0.00e+00	0	49	0	211812352	76	4433
2026-01-16 12:57:41.03	261.67	9.52	-52.7	-54.2	17.2	0.00e+00	0	49	0	212860928	76	4432
2026-01-16 12:57:42.04	261.83	9.56	-52.6	-54.1	17.3	0.00e+00	0	48	0	214958080	76	4358
2026-01-16 12:57:43.05	261.99	9.60	-52.6	-54.1	17.3	0.00e+00	0	49	0	217055232	76	4372
2026-01-16 12:57:44.06	262.15	9.64	-52.6	-54.1	17.3	0.00e+00	0	48	0	219152384	76	4376
2026-01-16 12:57:45.07	262.32	9.68	-52.7	-54.2	17.2	0.00e+00	0	49	0	221249536	76	4417
2026-01-16 12:57:46.08	262.48	9.71	-52.6	-54.1	17.4	0.00e+00	0	49	0	223346688	76	4366
2026-01-16 12:57:47.08	262.64	9.75	-52.7	-54.2	17.2	0.00e+00	0	49	0	224395264	76	4429
2026-01-16 12:57:48.09	262.80	9.79	-52.7	-54.3	17.1	0.00e+00	0	49	0	226492416	76	4476
2026-01-16 12:57:49.10	262.96	9.83	-52.7	-54.2	17.2	0.00e+00	0	49	0	228589568	76	4432
2026-01-16 12:57:50.11	263.12	9.86	-52.8	-54.3	17.1	0.00e+00	0	49	0	230686720	76	4492
2026-01-16 12:57:51.12	263.29	9.90	-52.8	-54.4	17.1	0.00e+00	0	48	0	232783872	76	4507
2026-01-16 12:57:52.12	263.45	9.94	-52.8	-54.4	17.1	0.00e+00	0	49	0	233832448	76	4497
2026-01-16 12:57:53.13	263.61	9.97	-52.8	-54.4	17.0	0.00e+00	0	49	0	235929600	76	4517
2026-01-16 12:57:54.14	263.78	10.01	-52.8	-54.4	17.1	0.00e+00	0	49	0	238026752	76	4512
2026-01-16 12:57:55.15	263.94	10.05	-52.8	-54.4	17.1	0.00e+00	0	49	0	240123904	76	4525
2026-01-16 12:57:56.16	264.11	10.08	-52.8	-54.3	17.1	0.00e+00	0	49	0	242221056	76	4477
2026-01-16 12:57:57.16	264.27	10.12	-52.7	-54.2	17.3	0.00e+00	0	49	0	243269632	76	4415
2026-01-16 12:57:58.17	264.44	10.16	-52.8	-54.3	17.1	0.00e+00	0	49	0	245366784	76	4484
2026-01-16 12:57:59.18	264.61	10.19	-52.8	-54.4	17.1	0.00e+00	0	49	0	247463936	76	4517
2026-01-16 12:58:00.19	264.77	10.23	-52.7	-54.3	17.2	0.00e+00	0	49	0	249561088	76	4446
2026-01-16 12:58:01.20	264.94	10.26	-52.8	-54.3	17.1	0.00e+00	0	49	0	251658240	76	4474
2026-01-16 12:58:02.20	265.11	10.30	-52.9	-54.5	17.0	0.00e+00	0	49	0	252706816	76	4558
2026-01-16 12:58:03.21	265.27	10.33	-52.9	-54.6	16.9	0.00e+00	0	49	0	254803968	76	4602
2026-01-16 12:58:04.22	265.44	10.37	-53.0	-54.7	16.8	0.00e+00	0	49	0	256901120	76	4665
2026-01-16 12:58:05.23	265.61	10.40	-53.0	-54.6	16.8	0.00e+00	0	49	0	258998272	76	4633
2026-01-16 12:58:06.23	265.78	10.44	-53.0	-54.6	16.8	0.00e+00	0	49	0	261095424	76	4642
2026-01-16 12:58:07.24	265.95	10.47	-52.9	-54.5	16.9	0.00e+00	0	49	0	263192576	76	4597
2026-01-16 12:58:08.25	266.12	10.51	-52.8	-54.3	17.1	0.00e+00	0	49	0	264241152	76	4477
2026-01-16 12:58:09.26	266.29	10.54	-52.8	-54.3	17.1	0.00e+00	0	49	0	266338304	76	4478
2026-01-16 12:58:10.27	266.46	10.57	-52.8	-54.3	17.1	0.00e+00	0	49	0	268435456	76	4479
2026-01-16 12:58:11.28	266.63	10.61	-52.8	-54.4	17.0	0.00e+00	0	49	0	270532608	76	4514
2026-01-16 12:58:12.28	266.80	10.64	-52.8	-54.3	17.1	0.00e+00	0	49	0	271581184	76	4493
2026-01-16 12:58:13.29	266.97	10.68	-52.8	-54.4	17.1	0.00e+00	0	49	0	273678336	76	4522
2026-01-16 12:58:14.30	267.15	10.71	-52.9	-54.6	16.9	0.00e+00	0	49	0	275775488	76	4617
2026-01-16 12:58:15.31	267.32	10.74	-53.0	-54.6	16.7	0.00e+00	0	49	0	277872640	76	4647
2026-01-16 12:58:16.32	267.49	10.77	-53.0	-54.6	16.7	0.00e+00	0	49	0	279969792	76	4646
2026-01-16 12:58:17.32	267.66	10.81	-52.9	-54.6	16.7	0.00e+00	0	49	0	281018368	76	4630
2026-01-16 12:58:18.33	267.84	10.84	-53.0	-54.7	16.7	0.00e+00	0	49	0	283115520	76	4669
2026-01-16 12:58:19.34	268.01	10.87	-53.1	-54.9	16.4	0.00e+00	0	49	0	285212672	76	4801
2026-01-16 12:58:20.34	268.18	10.90	-53.2	-55.0	16.4	0.00e+00	0	49	0	287309824	76	4832
2026-01-16 12:58:21.35	268.36	10.94	-53.1	-54.9	16.4	0.00e+00	0	49	0	289406976	77	4528
2026-01-16 12:58:22.36	268.53	10.97	-53.1	-54.9	16.4	0.00e+00	0	49	0	291504128	77	4538
2026-01-16 12:58:23.37	268.71	11.00	-53.2	-54.9	16.4	0.00e+00	0	49	0	292552704	77	4535
2026-01-16 12:58:24.38	268.89	11.03	-53.1	-54.9	16.5	0.00e+00	0	49	0	294649856	77	4514
2026-01-16 12:58:25.38	269.06	11.06	-53.1	-54.9	16.5	0.00e+00	0	49	0	296747008	77	4510
2026-01-16 12:58:26.39	269.24	11.09	-52.9	-54.6	16.8	0.00e+00	0	49	0	298844160	77	4353
2026-01-16 12:58:27.40	269.41	11.12	-52.9	-54.6	16.8	0.00e+00	0	49	0	299892736	77	4366
2026-01-16 12:58:28.41	269.59	11.15	-53.0	-54.6	16.8	0.00e+00	0	49	0	301989888	77	4381
2026-01-16 12:58:29.42	269.77	11.18	-53.0	-54.6	16.8	0.00e+00	0	49	0	304087040	77	4387
2026-01-16 12:58:30.42	269.95	11.21	-53.0	-54.6	16.8	0.00e+00	0	49	0	306184192	77	4372
2026-01-16 12:58:31.43	270.13	11.24	-53.0	-54.6	16.8	0.00e+00	0	49	0	308281344	77	4381
2026-01-16 12:58:32.44	270.30	11.27	-52.9	-54.6	16.9	0.00e+00	0	49	0	310378496	77	4344
2026-01-16 12:58:33.45	270.48	11.30	-52.8	-54.4	17.2	0.00e+00	0	49	0	311427072	77	4263
2026-01-16 12:58:34.46	270.66	11.33	-52.9	-54.5	17.0	0.00e+00	0	49	0	313524224	77	4323
2026-01-16 12:58:35.47	270.84	11.36	-52.8	-54.4	17.2	0.00e+00	0	49	0	315621376	77	4259
2026-01-16 12:58:36.48	271.02	11.39	-52.7	-54.3	17.2	0.00e+00	0	49	0	317718528	77	4202
2026-01-16 12:58:37.48	271.20	11.42	-52.8	-54.3	17.2	0.00e+00	0	49	0	319815680	77	4235
2026-01-16 12:58:38.49	271.38	11.45	-52.9	-54.4	17.1	0.00e+00	0	49	0	320864256	77	4291
2026-01-16 12:58:39.50	271.56	11.48	-52.9	-54.5	17.0	0.00e+00	0	49	0	322961408	77	4308
2026-01-16 12:58:40.51	271.75	11.50	-52.9	-54.5	17.1	0.00e+00	0	49	0	325058560	77	4327
2026-01-16 12:58:41.52	271.93	11.53	-53.0	-54.6	17.0	0.00e+00	0	49	0	327155712	77	4357
2026-01-16 12:58:42.52	272.11	11.56	-53.0	-54.7	16.9	0.00e+00	0	49	0	328204288	77	4405
2026-01-16 12:58:43.53	272.29	11.59	-53.0	-54.7	16.8	0.00e+00	0	49	0	330301440	77	4414
2026-01-16 12:58:44.54	272.47	11.61	-53.1	-54.8	16.8	0.00e+00	0	49	0	332398592	77	4447
2026-01-16 12:58:45.55	272.66	11.64	-53.2	-54.8	16.7	0.00e+00	0	49	0	334495744	77	4493
2026-01-16 12:58:46.56	272.84	11.67	-53.1	-54.8	16.8	0.00e+00	0	49	0	336592896	77	4446
2026-01-16 12:58:47.56	273.02	11.69	-53.0	-54.6	16.9	0.00e+00	0	49	0	338690048	77	4386
2026-01-16 12:58:48.57	273.21	11.72	-53.0	-54.6	17.0	0.00e+00	0	49	0	339738624	77	4373
2026-01-16 12:58:49.58	273.39	11.75	-53.0	-54.6	17.0	0.00e+00	0	49	0	341835776	77	4388
2026-01-16 12:58:50.59	273.58	11.77	-53.0	-54.6	17.0	0.00e+00	0	49	0	343932928	77	4350
2026-01-16 12:58:51.60	273.76	11.80	-52.6	-54.1	17.5	0.00e+00	0	49	0	346030080	77	4107
2026-01-16 12:58:52.61	273.95	11.82	-52.6	-54.1	17.5	0.00e+00	0	49	0	348127232	77	4126
2026-01-16 12:58:53.62	274.13	11.85	-52.8	-54.3	17.3	0.00e+00	0	49	0	349175808	77	4206
2026-01-16 12:58:54.63	274.32	11.87	-52.6	-54.0	17.5	0.00e+00	0	49	0	351272960	77	4093
2026-01-16 12:58:55.64	274.50	11.90	-52.6	-54.0	17.6	0.00e+00	0	49	0	353370112	77	4088
2026-01-16 12:58:56.64	274.69	11.92	-52.7	-54.2	17.4	0.00e+00	0	49	0	355467264	77	4178
2026-01-16 12:58:57.65	274.88	11.94	-52.6	-54.1	17.5	0.00e+00	0	49	0	357564416	77	4127
2026-01-16 12:58:58.66	275.06	11.97	-52.7	-54.2	17.4	0.00e+00	0	49	0	358612992	77	4176
2026-01-16 12:58:59.67	275.25	11.99	-52.7	-54.2	17.3	0.00e+00	0	49	0	360710144	77	4193
2026-01-16 12:59:00.68	275.44	12.02	-52.7	-54.2	17.4	0.00e+00	0	49	0	362807296	77	4166
2026-01-16 12:59:01.68	275.63	12.04	-52.6	-54.1	17.5	0.00e+00	0	49	0	364904448	77	4127
2026-01-16 12:59:02.69	275.81	12.06	-52.7	-54.2	17.4	0.00e+00	0	49	0	367001600	77	4157
2026-01-16 12:59:03.70	276.00	12.08	-52.6	-54.1	17.5	0.00e+00	0	49	0	368050176	77	4115
2026-01-16 12:59:04.71	276.19	12.11	-52.6	-54.1	17.5	0.00e+00	0	49	0	370147328	77	4128
2026-01-16 12:59:05.72	276.38	12.13	-52.5	-53.9	17.7	0.00e+00	0	49	0	372244480	76	4252
2026-01-16 12:59:06.72	276.57	12.15	-52.4	-53.8	17.8	0.00e+00	0	49	0	374341632	76	4226
2026-01-16 12:59:07.73	276.76	12.17	-52.3	-53.7	17.9	0.00e+00	0	49	0	376438784	76	4162
2026-01-16 12:59:08.74	276.95	12.19	-52.3	-53.7	18.0	0.00e+00	0	49	0	377487360	76	4148
2026-01-16 12:59:09.75	277.14	12.21	-52.4	-53.7	18.0	0.00e+00	0	49	0	379584512	76	4174
2026-01-16 12:59:10.75	277.33	12.23	-52.3	-53.6	18.0	0.00e+00	0	49	0	381681664	76	4107
2026-01-16 12:59:11.77	277.52	12.25	-52.3	-53.6	18.0	0.00e+00	0	49	0	383778816	76	4112
2026-01-16 12:59:12.77	277.71	12.27	-52.4	-53.7	17.9	0.00e+00	0	49	0	385875968	76	4176
2026-01-16 12:59:13.78	277.90	12.29	-52.3	-53.7	18.0	0.00e+00	0	49	0	386924544	76	4163
2026-01-16 12:59:14.79	278.09	12.31	-52.4	-53.8	17.9	0.00e+00	0	49	0	389021696	76	4216
2026-01-16 12:59:15.80	278.28	12.33	-52.6	-54.0	17.7	0.00e+00	0	49	0	391118848	76	4296
2026-01-16 12:59:16.81	278.47	12.35	-52.7	-54.2	17.4	0.00e+00	0	49	0	393216000	76	4402
2026-01-16 12:59:17.82	278.67	12.37	-52.7	-54.2	17.5	0.00e+00	0	49	0	395313152	76	4396
2026-01-16 12:59:18.83	278.86	12.39	-52.8	-54.4	17.3	0.00e+00	0	49	0	396361728	76	4504
2026-01-16 12:59:19.84	279.05	12.41	-53.0	-54.5	17.1	0.00e+00	0	49	0	398458880	76	4581
2026-01-16 12:59:20.85	279.25	12.43	-53.0	-54.6	17.0	0.00e+00	0	49	0	400556032	76	4637
2026-01-16 12:59:21.86	279.44	12.44	-53.0	-54.6	17.0	0.00e+00	0	49	0	402653184	76	4642
2026-01-16 12:59:22.86	279.63	12.46	-53.0	-54.6	17.1	0.00e+00	0	49	0	404750336	76	4599
2026-01-16 12:59:23.87	279.82	12.48	-53.0	-54.5	17.1	0.00e+00	0	49	0	405798912	76	4593
2026-01-16 12:59:24.88	280.02	12.49	-53.0	-54.5	17.1	0.00e+00	0	49	0	407896064	76	4594
2026-01-16 12:59:25.89	280.21	12.51	-53.0	-54.6	17.1	0.00e+00	0	49	0	409993216	76	4619
2026-01-16 12:59:26.90	280.41	12.53	-53.0	-54.6	17.1	0.00e+00	0	49	0	412090368	76	4635
2026-01-16 12:59:27.90	280.60	12.54	-53.1	-54.7	17.0	0.00e+00	0	49	0	414187520	76	4659
2026-01-16 12:59:28.91	280.79	12.56	-53.1	-54.6	17.0	0.00e+00	0	49	0	415236096	76	4647
2026-01-16 12:59:29.92	280.99	12.57	-53.2	-54.8	16.9	0.00e+00	0	49	0	417333248	76	4721
2026-01-16 12:59:30.93	281.18	12.59	-53.3	-54.9	16.8	0.00e+00	0	49	0	419430400	77	4541
2026-01-16 12:59:31.93	281.38	12.60	-53.3	-55.0	16.7	0.00e+00	0	49	0	421527552	77	4595
2026-01-16 12:59:32.94	281.57	12.62	-53.3	-55.0	16.7	0.00e+00	0	49	0	423624704	77	4595
2026-01-16 12:59:33.95	281.77	12.63	-53.4	-55.1	16.6	0.00e+00	0	49	0	425721856	77	4636
2026-01-16 12:59:34.96	281.96	12.65	-53.4	-55.2	16.5	0.00e+00	0	49	0	426770432	77	4666
2026-01-16 12:59:35.97	282.16	12.66	-53.4	-55.2	16.6	0.00e+00	0	49	0	428867584	77	4667
2026-01-16 12:59:36.97	282.35	12.67	-53.4	-55.1	16.6	0.00e+00	0	49	0	430964736	77	4634
2026-01-16 12:59:37.98	282.55	12.69	-53.3	-55.0	16.8	0.00e+00	0	49	0	433061888	77	4576
2026-01-16 12:59:38.99	282.74	12.70	-53.4	-55.0	16.7	0.00e+00	0	49	0	434110464	77	4584
2026-01-16 12:59:40.00	282.94	12.71	-53.4	-55.1	16.7	0.00e+00	0	49	0	436207616	77	4626
2026-01-16 12:59:41.01	283.14	12.72	-53.3	-55.0	16.7	0.00e+00	0	49	0	438304768	77	4587
2026-01-16 12:59:42.02	283.33	12.74	-53.3	-55.0	16.8	0.00e+00	0	49	0	440401920	77	4554
2026-01-16 12:59:43.03	283.53	12.75	-53.4	-55.1	16.6	0.00e+00	0	49	0	442499072	77	4646
2026-01-16 12:59:44.04	283.73	12.76	-53.3	-55.0	16.7	0.00e+00	0	49	0	443547648	77	4589
2026-01-16 12:59:45.04	283.92	12.77	-53.3	-55.0	16.8	0.00e+00	0	49	0	445644800	77	4571
2026-01-16 12:59:46.05	284.12	12.78	-53.3	-54.9	16.9	0.00e+00	0	49	0	447741952	77	4532
2026-01-16 12:59:47.06	284.32	12.79	-53.3	-54.9	16.9	0.00e+00	0	50	0	449839104	77	4516
2026-01-16 12:59:48.07	284.52	12.80	-53.3	-54.9	16.9	0.00e+00	0	49	0	451936256	77	4535
2026-01-16 12:59:49.08	284.71	12.81	-53.2	-54.9	17.0	0.00e+00	0	50	0	454033408	77	4502
2026-01-16 12:59:50.08	284.91	12.82	-53.1	-54.7	17.1	0.00e+00	0	49	0	455081984	77	4421
2026-01-16 12:59:51.09	285.11	12.83	-53.1	-54.7	17.1	0.00e+00	0	49	0	457179136	77	4431
2026-01-16 12:59:52.10	285.31	12.84	-53.2	-54.8	17.0	0.00e+00	0	49	0	459276288	77	4474
2026-01-16 12:59:53.11	285.51	12.85	-53.2	-54.8	17.0	0.00e+00	0	49	0	461373440	77	4456
2026-01-16 12:59:54.12	285.70	12.85	-53.1	-54.7	17.1	0.00e+00	0	49	0	462422016	77	4416
2026-01-16 12:59:55.13	285.90	12.86	-53.2	-54.7	17.1	0.00e+00	0	49	0	464519168	77	4437
2026-01-16 12:59:56.14	286.10	12.87	-53.1	-54.7	17.1	0.00e+00	0	49	0	466616320	77	4429
2026-01-16 12:59:57.14	286.30	12.88	-53.0	-54.6	17.3	0.00e+00	0	49	0	468713472	77	4347
2026-01-16 12:59:58.15	286.50	12.88	-53.1	-54.6	17.2	0.00e+00	0	49	0	470810624	77	4390
2026-01-16 12:59:59.16	286.69	12.89	-53.1	-54.7	17.1	0.00e+00	0	50	0	472907776	77	4418
2026-01-16 13:00:00.17	286.89	12.90	-53.1	-54.6	17.2	0.00e+00	0	49	0	473956352	77	4382
2026-01-16 13:00:01.17	287.09	12.90	-53.1	-54.7	17.2	0.00e+00	0	49	0	476053504	77	4428
2026-01-16 13:00:02.18	287.29	12.91	-53.1	-54.7	17.2	0.00e+00	0	50	0	478150656	77	4424
2026-01-16 13:00:03.19	287.49	12.91	-53.2	-54.7	17.1	0.00e+00	0	49	0	480247808	77	4432
2026-01-16 13:00:04.20	287.69	12.92	-53.0	-54.6	17.3	0.00e+00	0	49	0	482344960	77	4346
2026-01-16 13:00:05.21	287.89	12.92	-53.1	-54.6	17.3	0.00e+00	0	49	0	483393536	77	4370
2026-01-16 13:00:06.22	288.09	12.93	-53.0	-54.4	17.4	0.00e+00	0	49	0	485490688	77	4285
2026-01-16 13:00:07.22	288.28	12.93	-53.0	-54.5	17.4	0.00e+00	0	49	0	487587840	77	4318
2026-01-16 13:00:08.23	288.48	12.94	-52.9	-54.4	17.4	0.00e+00	0	49	0	489684992	77	4283
2026-01-16 13:00:09.24	288.68	12.94	-53.0	-54.5	17.4	0.00e+00	0	49	0	491782144	77	4312
2026-01-16 13:00:10.25	288.88	12.94	-53.0	-54.5	17.4	0.00e+00	0	49	0	492830720	77	4332
2026-01-16 13:00:11.26	289.08	12.95	-53.0	-54.5	17.4	0.00e+00	0	49	0	494927872	77	4314
2026-01-16 13:00:12.26	289.28	12.95	-53.0	-54.5	17.4	0.00e+00	0	49	0	497025024	77	4333
2026-01-16 13:00:13.27	289.48	12.95	-53.1	-54.6	17.3	0.00e+00	0	49	0	499122176	77	4355
2026-01-16 13:00:14.28	289.68	12.95	-52.9	-54.4	17.5	0.00e+00	0	49	0	501219328	77	4246
2026-01-16 13:00:15.29	289.88	12.95	-52.7	-54.1	17.8	0.00e+00	0	49	0	502267904	77	4145
2026-01-16 13:00:16.29	290.08	12.96	-52.6	-53.9	17.9	0.00e+00	0	49	0	504365056	77	4045
2026-01-16 13:00:17.30	290.28	12.96	-52.6	-53.9	18.0	0.00e+00	0	49	0	506462208	77	4045
2026-01-16 13:00:18.31	290.48	12.96	-52.6	-54.0	17.9	0.00e+00	0	49	0	508559360	77	4073
2026-01-16 13:00:19.32	290.68	12.96	-52.6	-54.0	17.9	0.00e+00	0	49	0	510656512	77	4079
2026-01-16 13:00:20.33	290.88	12.96	-52.6	-54.0	17.9	0.00e+00	0	49	0	511705088	77	4070
2026-01-16 13:00:21.33	291.07	12.96	-52.6	-53.9	18.0	0.00e+00	0	49	0	513802240	77	4039
2026-01-16 13:00:22.34	291.27	12.96	-52.6	-53.9	18.0	0.00e+00	0	49	0	515899392	77	4027
2026-01-16 13:00:23.35	291.47	12.96	-52.5	-53.8	18.0	0.00e+00	0	50	0	517996544	77	3992
2026-01-16 13:00:24.36	291.67	12.95	-52.5	-53.8	18.1	0.00e+00	0	50	0	520093696	76	4197
2026-01-16 13:00:25.36	291.87	12.95	-52.5	-53.8	18.1	0.00e+00	0	50	0	521142272	76	4221
2026-01-16 13:00:26.37	292.07	12.95	-52.5	-53.8	18.1	0.00e+00	0	49	0	523239424	76	4202
2026-01-16 13:00:27.38	292.27	12.95	-52.4	-53.7	18.2	0.00e+00	0	49	0	525336576	76	4159
2026-01-16 13:00:28.39	292.47	12.95	-52.4	-53.7	18.2	0.00e+00	0	49	0	527433728	76	4166
2026-01-16 13:00:29.40	292.67	12.94	-52.4	-53.7	18.2	0.00e+00	0	49	0	529530880	76	4163
2026-01-16 13:00:30.40	292.87	12.94	-52.2	-53.4	18.6	0.00e+00	0	49	0	530579456	76	4011
2026-01-16 13:00:31.41	293.07	12.94	-52.0	-53.2	18.7	0.00e+00	0	49	0	532676608	76	3936
2026-01-16 13:00:32.42	293.26	12.93	-52.0	-53.2	18.7	0.00e+00	0	49	0	534773760	76	3942
2026-01-16 13:00:33.43	293.46	12.93	-52.1	-53.2	18.7	0.00e+00	0	50	0	536870912	76	3950
2026-01-16 13:00:34.44	293.66	12.93	-52.2	-53.4	18.5	0.00e+00	0	49	0	538968064	76	4041
2026-01-16 13:00:35.45	293.86	12.92	-52.2	-53.4	18.5	0.00e+00	0	49	0	541065216	76	4048
2026-01-16 13:00:36.46	294.06	12.92	-52.2	-53.4	18.5	0.00e+00	0	49	0	542113792	76	4011
2026-01-16 13:00:37.46	294.26	12.91	-52.2	-53.4	18.5	0.00e+00	0	49	0	544210944	76	4039
2026-01-16 13:00:38.47	294.46	12.91	-52.1	-53.3	18.6	0.00e+00	0	49	0	546308096	76	3997
2026-01-16 13:00:39.48	294.66	12.90	-52.0	-53.2	18.7	0.00e+00	0	50	0	548405248	76	3927
2026-01-16 13:00:40.49	294.86	12.89	-52.1	-53.3	18.6	0.00e+00	0	50	0	549453824	76	3997
2026-01-16 13:00:41.50	295.05	12.89	-52.0	-53.2	18.7	0.00e+00	0	49	0	551550976	76	3931
2026-01-16 13:00:42.51	295.25	12.88	-51.8	-52.9	18.9	0.00e+00	0	49	0	553648128	75	4045
2026-01-16 13:00:43.52	295.45	12.87	-51.9	-53.1	18.8	0.00e+00	0	49	0	555745280	75	4113
2026-01-16 13:00:44.52	295.65	12.87	-51.9	-53.1	18.8	0.00e+00	0	49	0	557842432	75	4109
2026-01-16 13:00:45.53	295.85	12.86	-52.0	-53.2	18.7	0.00e+00	0	49	0	558891008	75	4154
2026-01-16 13:00:46.54	296.04	12.85	-52.0	-53.1	18.8	0.00e+00	0	50	0	560988160	75	4126
2026-01-16 13:00:47.55	296.24	12.84	-51.8	-52.9	19.0	0.00e+00	0	50	0	563085312	75	4036
2026-01-16 13:00:48.56	296.44	12.83	-51.8	-52.9	19.0	0.00e+00	0	49	0	565182464	75	4027
2026-01-16 13:00:49.56	296.64	12.82	-51.7	-52.8	19.1	0.00e+00	0	49	0	567279616	75	3975
2026-01-16 13:00:50.57	296.83	12.82	-51.7	-52.8	19.1	0.00e+00	0	49	0	569376768	75	3983
2026-01-16 13:00:51.58	297.03	12.81	-51.7	-52.8	19.1	0.00e+00	0	49	0	570425344	75	3978
2026-01-16 13:00:52.59	297.23	12.80	-51.8	-53.0	18.9	0.00e+00	0	50	0	572522496	75	4053
2026-01-16 13:00:53.60	297.43	12.79	-51.7	-52.8	19.1	0.00e+00	0	49	0	574619648	75	3971
2026-01-16 13:00:54.60	297.62	12.78	-51.7	-52.8	19.1	0.00e+00	0	50	0	576716800	75	3976
2026-01-16 13:00:55.61	297.82	12.76	-51.6	-52.6	19.2	0.00e+00	0	49	0	577765376	75	3913
2026-01-16 13:00:56.62	298.02	12.75	-51.7	-52.8	19.1	0.00e+00	0	49	0	579862528	75	3973
2026-01-16 13:00:57.63	298.21	12.74	-51.8	-52.9	18.9	0.00e+00	0	49	0	581959680	75	4050
2026-01-16 13:00:58.64	298.41	12.73	-51.8	-52.9	18.9	0.00e+00	0	49	0	584056832	75	4044
2026-01-16 13:00:59.65	298.61	12.72	-51.9	-53.0	18.9	0.00e+00	0	49	0	586153984	75	4085
2026-01-16 13:01:00.65	298.80	12.71	-52.0	-53.1	18.8	0.00e+00	0	49	0	588251136	75	4129
2026-01-16 13:01:01.66	299.00	12.69	-52.0	-53.1	18.8	0.00e+00	0	49	0	589299712	75	4130
2026-01-16 13:01:02.67	299.19	12.68	-51.9	-53.1	18.8	0.00e+00	0	49	0	591396864	75	4121
2026-01-16 13:01:03.68	299.39	12.67	-51.9	-53.1	18.8	0.00e+00	0	50	0	593494016	75	4113
2026-01-16 13:01:04.69	299.58	12.65	-52.0	-53.2	18.7	0.00e+00	0	50	0	595591168	75	4173
2026-01-16 13:01:05.69	299.78	12.64	-52.0	-53.2	18.7	0.00e+00	0	49	0	597688320	75	4163
2026-01-16 13:01:06.70	299.97	12.63	-52.1	-53.3	18.7	0.00e+00	0	50	0	598736896	75	4196
2026-01-16 13:01:07.71	300.17	12.61	-52.1	-53.2	18.6	0.00e+00	0	49	0	600834048	75	4189
2026-01-16 13:01:08.72	300.36	12.60	-52.0	-53.2	18.7	0.00e+00	0	49	0	602931200	75	4170
2026-01-16 13:01:09.73	300.56	12.58	-52.1	-53.3	18.6	0.00e+00	0	50	0	605028352	75	4226
2026-01-16 13:01:10.73	300.75	12.57	-52.0	-53.2	18.7	0.00e+00	0	49	0	606076928	75	4167
2026-01-16 13:01:11.74	300.95	12.55	-51.9	-53.0	18.9	0.00e+00	0	50	0	608174080	75	4066
2026-01-16 13:01:12.75	301.14	12.54	-51.8	-52.9	18.9	0.00e+00	0	49	0	610271232	75	4044
2026-01-16 13:01:13.76	301.33	12.52	-51.8	-52.9	18.9	0.00e+00	0	50	0	612368384	75	4044
2026-01-16 13:01:14.77	301.53	12.50	-51.8	-52.9	18.9	0.00e+00	0	49	0	614465536	75	4042
2026-01-16 13:01:15.77	301.72	12.49	-51.9	-53.0	18.9	0.00e+00	0	49	0	616562688	75	4075
2026-01-16 13:01:16.78	301.91	12.47	-51.9	-53.1	18.8	0.00e+00	0	50	0	617611264	75	4106
2026-01-16 13:01:17.79	302.11	12.45	-52.0	-53.2	18.7	0.00e+00	0	50	0	619708416	75	4157
2026-01-16 13:01:18.80	302.30	12.44	-52.1	-53.3	18.6	0.00e+00	0	49	0	621805568	75	4230
2026-01-16 13:01:19.81	302.49	12.42	-52.3	-53.5	18.4	0.00e+00	0	50	0	623902720	75	4320
2026-01-16 13:01:20.82	302.68	12.40	-52.3	-53.6	18.3	0.00e+00	0	49	0	625999872	75	4363
2026-01-16 13:01:21.82	302.87	12.38	-52.3	-53.6	18.2	0.00e+00	0	49	0	627048448	75	4371
2026-01-16 13:01:22.83	303.07	12.36	-52.3	-53.6	18.3	0.00e+00	0	50	0	629145600	75	4380
2026-01-16 13:01:23.84	303.26	12.34	-52.3	-53.6	18.3	0.00e+00	0	50	0	631242752	75	4347
2026-01-16 13:01:24.85	303.45	12.33	-52.1	-53.3	18.5	0.00e+00	0	50	0	633339904	75	4237
2026-01-16 13:01:25.86	303.64	12.31	-52.1	-53.2	18.6	0.00e+00	0	50	0	635437056	75	4192
2026-01-16 13:01:26.86	303.83	12.29	-52.0	-53.2	18.7	0.00e+00	0	50	0	636485632	75	4159
2026-01-16 13:01:27.87	304.02	12.27	-51.9	-53.0	18.8	0.00e+00	0	50	0	638582784	75	4071
2026-01-16 13:01:28.88	304.21	12.25	-51.8	-52.9	18.9	0.00e+00	0	50	0	640679936	75	4044
2026-01-16 13:01:29.89	304.40	12.23	-51.8	-52.9	18.9	0.00e+00	0	49	0	642777088	75	4027
2026-01-16 13:01:30.89	304.59	12.21	-51.8	-52.9	18.9	0.00e+00	0	50	0	644874240	75	4022
2026-01-16 13:01:31.90	304.78	12.19	-51.8	-53.0	18.8	0.00e+00	0	50	0	645922816	75	4066
2026-01-16 13:01:32.91	304.97	12.16	-51.8	-53.0	18.8	0.00e+00	0	49	0	648019968	75	4060
2026-01-16 13:01:33.92	305.16	12.14	-51.7	-52.8	19.0	0.00e+00	0	50	0	650117120	75	3983
2026-01-16 13:01:34.93	305.35	12.12	-51.7	-52.8	19.0	0.00e+00	0	50	0	652214272	75	3990
2026-01-16 13:01:35.94	305.53	12.10	-51.7	-52.8	19.0	0.00e+00	0	50	0	654311424	75	3992
2026-01-16 13:01:36.94	305.72	12.08	-51.7	-52.8	19.0	0.00e+00	0	50	0	655360000	75	3976
2026-01-16 13:01:37.95	305.91	12.05	-51.6	-52.7	19.1	0.00e+00	0	50	0	657457152	75	3921
2026-01-16 13:01:38.96	306.10	12.03	-51.6	-52.7	19.1	0.00e+00	0	50	0	659554304	75	3936
2026-01-16 13:01:39.96	306.28	12.01	-51.7	-52.9	18.9	0.00e+00	0	50	0	661651456	75	4005
2026-01-16 13:01:40.97	306.47	11.99	-51.8	-52.9	18.8	0.00e+00	0	50	0	663748608	75	4049
2026-01-16 13:01:41.98	306.66	11.96	-51.8	-52.9	18.8	0.00e+00	0	50	0	664797184	75	4048
2026-01-16 13:01:42.99	306.84	11.94	-51.7	-52.9	18.9	0.00e+00	0	50	0	666894336	75	4012
2026-01-16 13:01:44.00	307.03	11.91	-51.8	-52.9	18.8	0.00e+00	0	50	0	668991488	75	4039
2026-01-16 13:01:45.01	307.22	11.89	-51.7	-52.9	18.9	0.00e+00	0	50	0	671088640	75	4005
2026-01-16 13:01:46.01	307.40	11.87	-51.7	-52.8	18.9	0.00e+00	0	50	0	673185792	75	4001
2026-01-16 13:01:47.02	307.58	11.84	-51.7	-52.8	19.0	0.00e+00	0	49	0	674234368	75	3964
2026-01-16 13:01:48.03	307.77	11.82	-51.6	-52.7	19.1	0.00e+00	0	50	0	676331520	75	3923
2026-01-16 13:01:49.04	307.95	11.79	-51.7	-52.8	18.9	0.00e+00	0	50	0	678428672	75	3982
2026-01-16 13:01:50.05	308.14	11.76	-51.7	-52.8	18.8	0.00e+00	0	50	0	680525824	75	3981
2026-01-16 13:01:51.06	308.32	11.74	-51.6	-52.7	19.0	0.00e+00	0	50	0	682622976	75	3941
2026-01-16 13:01:52.06	308.51	11.71	-51.6	-52.8	19.0	0.00e+00	0	50	0	683671552	75	3961
2026-01-16 13:01:53.07	308.69	11.69	-51.5	-52.5	19.2	0.00e+00	0	50	0	685768704	75	3868
2026-01-16 13:01:54.08	308.87	11.66	-51.5	-52.6	19.1	0.00e+00	0	49	0	687865856	75	3892
2026-01-16 13:01:55.09	309.06	11.63	-51.6	-52.7	18.9	0.00e+00	0	50	0	689963008	75	3955
2026-01-16 13:01:56.10	309.24	11.61	-51.7	-52.9	18.9	0.00e+00	0	49	0	692060160	75	4005
2026-01-16 13:01:57.11	309.42	11.58	-51.7	-52.8	19.0	0.00e+00	0	50	0	693108736	75	3974
2026-01-16 13:01:58.12	309.60	11.55	-51.7	-52.9	18.8	0.00e+00	0	50	0	695205888	75	4018
2026-01-16 13:01:59.13	309.78	11.53	-51.7	-52.8	18.9	0.00e+00	0	50	0	697303040	75	3986
2026-01-16 13:02:00.14	309.96	11.50	-51.7	-52.8	18.9	0.00e+00	0	50	0	699400192	75	3982
2026-01-16 13:02:01.14	310.14	11.47	-51.8	-52.9	18.8	0.00e+00	0	50	0	701497344	75	4038
2026-01-16 13:02:02.15	310.32	11.44	-51.8	-53.0	18.7	0.00e+00	0	50	0	703594496	75	4067
2026-01-16 13:02:03.16	310.50	11.41	-51.8	-53.0	18.7	0.00e+00	0	50	0	704643072	75	4063
2026-01-16 13:02:04.17	310.68	11.38	-51.8	-52.9	18.6	0.00e+00	0	50	0	706740224	75	4041
2026-01-16 13:02:05.18	310.86	11.36	-51.7	-52.8	18.7	0.00e+00	0	50	0	708837376	75	3985
2026-01-16 13:02:06.19	311.04	11.33	-51.7	-52.8	18.6	0.00e+00	0	50	0	710934528	75	3994
2026-01-16 13:02:07.20	311.22	11.30	-51.6	-52.7	18.8	0.00e+00	0	50	0	711983104	75	3947
2026-01-16 13:02:08.20	311.40	11.27	-51.5	-52.5	19.1	0.00e+00	0	50	0	714080256	74	4087
2026-01-16 13:02:09.21	311.58	11.24	-51.5	-52.6	19.0	0.00e+00	0	50	0	716177408	74	4134
2026-01-16 13:02:10.22	311.75	11.21	-51.5	-52.6	18.9	0.00e+00	0	50	0	718274560	74	4138
2026-01-16 13:02:11.23	311.93	11.18	-51.5	-52.6	18.9	0.00e+00	0	49	0	720371712	74	4106
2026-01-16 13:02:12.24	312.11	11.15	-51.6	-52.8	18.6	0.00e+00	0	50	0	721420288	74	4208
2026-01-16 13:02:13.24	312.28	11.12	-51.7	-52.8	18.5	0.00e+00	0	50	0	723517440	74	4232
2026-01-16 13:02:14.25	312.46	11.09	-51.7	-52.8	18.5	0.00e+00	0	50	0	725614592	74	4227
2026-01-16 13:02:15.26	312.64	11.06	-51.8	-52.9	18.6	0.00e+00	0	50	0	727711744	74	4284
2026-01-16 13:02:16.27	312.81	11.03	-51.8	-53.0	18.7	0.00e+00	0	50	0	729808896	74	4299
2026-01-16 13:02:17.28	312.99	10.99	-51.8	-53.0	18.5	0.00e+00	0	50	0	731906048	74	4296
2026-01-16 13:02:18.29	313.16	10.96	-51.8	-53.0	18.3	0.00e+00	0	50	0	732954624	74	4297
2026-01-16 13:02:19.30	313.34	10.93	-51.7	-52.9	18.3	0.00e+00	0	50	0	735051776	74	4246
2026-01-16 13:02:20.30	313.51	10.90	-51.7	-52.9	18.3	0.00e+00	0	50	0	737148928	74	4284
2026-01-16 13:02:21.31	313.68	10.87	-51.8	-53.0	18.4	0.00e+00	0	50	0	739246080	74	4312
2026-01-16 13:02:22.32	313.86	10.83	-51.9	-53.1	18.4	0.00e+00	0	49	0	740294656	74	4374
2026-01-16 13:02:23.33	314.03	10.80	-51.9	-53.1	18.3	0.00e+00	0	50	0	742391808	74	4387
2026-01-16 13:02:24.34	314.20	10.77	-52.0	-53.2	18.1	0.00e+00	0	50	0	744488960	74	4416
2026-01-16 13:02:25.35	314.38	10.74	-52.0	-53.3	18.0	0.00e+00	0	50	0	746586112	74	4475
2026-01-16 13:02:26.36	314.55	10.70	-52.2	-53.5	17.9	0.00e+00	0	50	0	748683264	74	4565
2026-01-16 13:02:27.36	314.72	10.67	-52.1	-53.3	18.2	0.00e+00	0	50	0	750780416	74	4490
2026-01-16 13:02:28.37	314.89	10.64	-52.2	-53.5	18.1	0.00e+00	0	50	0	751828992	74	4572
2026-01-16 13:02:29.38	315.06	10.60	-52.3	-53.7	17.9	0.00e+00	0	50	0	753926144	75	4402
2026-01-16 13:02:30.39	315.23	10.57	-52.3	-53.6	17.9	0.00e+00	0	50	0	756023296	75	4389
2026-01-16 13:02:31.40	315.40	10.54	-52.5	-53.8	17.8	0.00e+00	0	50	0	758120448	75	4489
2026-01-16 13:02:32.41	315.57	10.50	-52.5	-53.9	17.7	0.00e+00	0	49	0	760217600	75	4541
2026-01-16 13:02:33.42	315.74	10.47	-52.7	-54.2	17.5	0.00e+00	0	50	0	761266176	76	4415
2026-01-16 13:02:34.43	315.91	10.43	-52.9	-54.4	17.2	0.00e+00	0	50	0	763363328	76	4539
2026-01-16 13:02:35.44	316.08	10.40	-53.0	-54.6	17.0	0.00e+00	0	50	0	765460480	76	4639
2026-01-16 13:02:36.44	316.24	10.36	-53.1	-54.8	16.8	0.00e+00	0	50	0	767557632	76	4713
2026-01-16 13:02:37.45	316.41	10.33	-53.2	-54.9	16.6	0.00e+00	0	50	0	769654784	77	4507
2026-01-16 13:02:38.46	316.58	10.29	-53.2	-54.9	16.6	0.00e+00	0	50	0	770703360	77	4534
2026-01-16 13:02:39.47	316.74	10.26	-53.2	-54.9	16.7	0.00e+00	0	50	0	772800512	77	4542
2026-01-16 13:02:40.47	316.91	10.22	-53.2	-54.8	16.8	0.00e+00	0	49	0	774897664	77	4482
2026-01-16 13:02:41.48	317.08	10.19	-53.1	-54.8	16.8	0.00e+00	0	49	0	776994816	77	4443
2026-01-16 13:02:42.49	317.24	10.15	-53.1	-54.7	16.9	0.00e+00	0	50	0	779091968	77	4421
2026-01-16 13:02:43.50	317.41	10.12	-53.1	-54.8	16.8	0.00e+00	0	50	0	780140544	77	4469
2026-01-16 13:02:44.51	317.57	10.08	-53.1	-54.7	16.9	0.00e+00	0	49	0	782237696	77	4433
2026-01-16 13:02:45.51	317.73	10.05	-53.2	-55.0	16.6	0.00e+00	0	50	0	784334848	77	4553
2026-01-16 13:02:46.52	317.90	10.01	-53.2	-54.9	16.7	0.00e+00	0	50	0	786432000	77	4530
2026-01-16 13:02:47.53	318.06	9.97	-53.3	-55.1	16.5	0.00e+00	0	50	0	788529152	77	4612
2026-01-16 13:02:48.54	318.23	9.94	-53.4	-55.2	16.4	0.00e+00	0	50	0	790626304	77	4684
2026-01-16 13:02:49.55	318.39	9.90	-53.5	-55.4	16.2	0.00e+00	0	50	0	791674880	77	4763
2026-01-16 13:02:50.56	318.55	9.86	-53.5	-55.4	16.2	0.00e+00	0	50	0	793772032	77	4785
2026-01-16 13:02:51.57	318.71	9.83	-53.6	-55.5	16.0	0.00e+00	0	50	0	795869184	77	4864
2026-01-16 13:02:52.58	318.88	9.79	-53.7	-55.7	15.9	0.00e+00	0	50	0	797966336	78	4680
2026-01-16 13:02:53.59	319.04	9.75	-53.8	-55.8	15.8	0.00e+00	0	49	0	799014912	78	4739
2026-01-16 13:02:54.59	319.20	9.71	-54.1	-56.3	15.3	0.00e+00	0	50	0	801112064	78	4987
2026-01-16 13:02:55.60	319.36	9.68	-54.2	-56.4	15.2	0.00e+00	0	50	0	803209216	79	4808
2026-01-16 13:02:56.61	319.52	9.64	-54.4	-56.8	14.8	0.00e+00	0	49	0	805306368	79	4985
2026-01-16 13:02:57.62	319.68	9.60	-54.5	-57.0	14.6	0.00e+00	0	50	0	807403520	79	5119
2026-01-16 13:02:58.63	319.84	9.56	-54.7	-57.3	14.3	7.00e-07	0	50	0	808452096	79	5282
2026-01-16 13:02:59.64	320.00	9.52	-54.6	-57.2	14.3	7.00e-07	0	50	0	810549248	79	5249
2026-01-16 13:03:00.64	320.15	9.49	-54.7	-57.2	14.3	0.00e+00	0	50	0	812646400	79	5277
2026-01-16 13:03:01.65	320.31	9.45	-54.6	-57.1	14.4	0.00e+00	0	50	0	814743552	79	5190
2026-01-16 13:03:02.66	320.47	9.41	-54.6	-57.1	14.5	7.00e-07	0	49	0	816840704	79	5174
2026-01-16 13:03:03.67	320.63	9.37	-54.4	-56.8	14.8	7.00e-07	0	50	0	818937856	79	5016
2026-01-16 13:03:04.67	320.78	9.33	-54.4	-56.7	14.8	0.00e+00	0	50	0	819986432	79	4979
2026-01-16 13:03:05.68	320.94	9.29	-54.3	-56.5	15.0	0.00e+00	0	50	0	822083584	79	4864
2026-01-16 13:03:06.69	321.10	9.25	-54.1	-56.3	15.2	0.00e+00	0	50	0	824180736	79	4743
2026-01-16 13:03:07.70	321.25	9.21	-54.2	-56.4	15.1	0.00e+00	0	50	0	826277888	79	4792
2026-01-16 13:03:08.71	321.41	9.18	-54.1	-56.3	15.3	0.00e+00	0	50	0	827326464	79	4707
2026-01-16 13:03:09.72	321.56	9.14	-54.0	-56.1	15.4	0.00e+00	0	50	0	829423616	79	4639
2026-01-16 13:03:10.73	321.72	9.10	-54.0	-56.1	15.5	0.00e+00	0	50	0	831520768	79	4601
2026-01-16 13:03:11.74	321.87	9.06	-53.9	-56.1	15.5	0.00e+00	0	50	0	833617920	79	4608
2026-01-16 13:03:12.75	322.02	9.02	-53.9	-56.0	15.5	0.00e+00	0	50	0	835715072	79	4589
2026-01-16 13:03:13.76	322.18	8.98	-54.0	-56.1	15.5	0.00e+00	0	50	0	837812224	79	4610
2026-01-16 13:03:14.76	322.33	8.94	-54.0	-56.2	15.3	0.00e+00	0	50	0	838860800	79	4666
2026-01-16 13:03:15.77	322.48	8.90	-54.0	-56.2	15.3	0.00e+00	0	50	0	840957952	79	4682
2026-01-16 13:03:16.78	322.63	8.86	-54.2	-56.4	15.1	0.00e+00	0	50	0	843055104	79	4795
2026-01-16 13:03:17.79	322.79	8.82	-54.2	-56.5	14.9	0.00e+00	0	50	0	845152256	79	4861
2026-01-16 13:03:18.80	322.94	8.78	-54.2	-56.6	14.9	0.00e+00	0	50	0	847249408	79	4877
2026-01-16 13:03:19.80	323.09	8.74	-54.3	-56.6	14.9	0.00e+00	0	50	0	848297984	79	4904
2026-01-16 13:03:20.81	323.24	8.70	-54.3	-56.6	14.8	0.00e+00	0	50	0	850395136	79	4915
2026-01-16 13:03:21.82	323.39	8.66	-54.3	-56.7	14.8	0.00e+00	0	50	0	852492288	79	4931
2026-01-16 13:03:22.83	323.54	8.61	-54.2	-56.5	15.0	0.00e+00	0	50	0	854589440	79	4822
2026-01-16 13:03:23.84	323.69	8.57	-54.0	-56.1	15.4	0.00e+00	0	50	0	856686592	79	4643
2026-01-16 13:03:24.85	323.83	8.53	-54.0	-56.1	15.3	0.00e+00	0	50	0	857735168	79	4649
2026-01-16 13:03:25.86	323.98	8.49	-53.8	-55.9	15.6	0.00e+00	0	50	0	859832320	79	4519
2026-01-16 13:03:26.86	324.13	8.45	-53.9	-55.9	15.5	0.00e+00	0	50	0	861929472	79	4533
2026-01-16 13:03:27.87	324.28	8.41	-53.8	-55.8	15.7	0.00e+00	0	50	0	864026624	79	4470
2026-01-16 13:03:28.88	324.42	8.37	-53.9	-55.9	15.6	0.00e+00	0	50	0	866123776	79	4531
2026-01-16 13:03:29.89	324.57	8.33	-54.0	-56.2	15.3	0.00e+00	0	50	0	867172352	79	4657
2026-01-16 13:03:30.90	324.72	8.29	-54.0	-56.2	15.2	0.00e+00	0	50	0	869269504	79	4699
2026-01-16 13:03:31.91	324.86	8.24	-54.2	-56.5	15.0	0.00e+00	0	50	0	871366656	79	4829
2026-01-16 13:03:32.92	325.01	8.20	-54.2	-56.4	15.0	7.00e-07	0	49	0	873463808	79	4809
2026-01-16 13:03:33.93	325.16	8.16	-54.2	-56.5	15.0	0.00e+00	0	50	0	875560960	79	4829
2026-01-16 13:03:34.94	325.30	8.12	-54.2	-56.5	15.0	0.00e+00	0	49	0	876609536	79	4819
2026-01-16 13:03:35.94	325.44	8.08	-53.9	-56.0	15.4	0.00e+00	0	50	0	878706688	79	4579
2026-01-16 13:03:36.95	325.59	8.03	-53.7	-55.7	15.7	0.00e+00	0	50	0	880803840	79	4437
2026-01-16 13:03:37.96	325.73	7.99	-53.6	-55.6	15.9	0.00e+00	0	50	0	882900992	79	4368
2026-01-16 13:03:38.97	325.87	7.95	-53.4	-55.3	16.2	0.00e+00	0	50	0	884998144	78	4474
2026-01-16 13:03:39.98	326.02	7.91	-53.3	-55.1	16.3	0.00e+00	0	50	0	886046720	78	4363
2026-01-16 13:03:40.98	326.16	7.87	-53.2	-55.0	16.4	0.00e+00	0	50	0	888143872	78	4312
2026-01-16 13:03:41.99	326.30	7.82	-53.3	-55.1	16.4	0.00e+00	0	50	0	890241024	78	4351
2026-01-16 13:03:43.00	326.44	7.78	-53.4	-55.2	16.2	0.00e+00	0	50	0	892338176	78	4428
2026-01-16 13:03:44.01	326.58	7.74	-53.5	-55.4	16.0	0.00e+00	0	50	0	894435328	78	4531
2026-01-16 13:03:45.01	326.72	7.70	-53.5	-55.4	16.0	0.00e+00	0	50	0	895483904	78	4530
2026-01-16 13:03:46.02	326.86	7.65	-53.5	-55.4	16.0	0.00e+00	0	50	0	897581056	78	4520
2026-01-16 13:03:47.03	327.00	7.61	-53.5	-55.5	15.9	0.00e+00	0	50	0	899678208	78	4565
2026-01-16 13:03:48.04	327.14	7.57	-53.5	-55.5	15.9	0.00e+00	0	50	0	901775360	78	4572
2026-01-16 13:03:49.05	327.28	7.52	-53.5	-55.4	15.9	0.00e+00	0	50	0	903872512	78	4543
2026-01-16 13:03:50.06	327.42	7.48	-53.5	-55.5	15.9	0.00e+00	0	50	0	904921088	78	4576
2026-01-16 13:03:51.07	327.56	7.44	-53.6	-55.5	15.9	0.00e+00	0	50	0	907018240	78	4594
2026-01-16 13:03:52.07	327.70	7.40	-53.6	-55.7	15.7	0.00e+00	0	50	0	909115392	78	4665
2026-01-16 13:03:53.08	327.83	7.35	-53.6	-55.7	15.7	0.00e+00	0	50	0	911212544	78	4657
2026-01-16 13:03:54.09	327.97	7.31	-53.7	-55.7	15.6	0.00e+00	0	50	0	913309696	78	4693
2026-01-16 13:03:55.10	328.11	7.27	-53.5	-55.5	15.8	0.00e+00	0	50	0	914358272	78	4576
2026-01-16 13:03:56.11	328.25	7.22	-53.6	-55.6	15.8	0.00e+00	0	50	0	916455424	78	4621
2026-01-16 13:03:57.12	328.38	7.18	-53.6	-55.7	15.7	0.00e+00	0	50	0	918552576	78	4658
2026-01-16 13:03:58.12	328.52	7.14	-53.6	-55.7	15.7	0.00e+00	0	50	0	920649728	78	4652
2026-01-16 13:03:59.13	328.65	7.09	-53.6	-55.6	15.8	0.00e+00	0	50	0	922746880	78	4622
2026-01-16 13:04:00.14	328.79	7.05	-53.5	-55.4	16.0	0.00e+00	0	50	0	924844032	78	4509
2026-01-16 13:04:01.15	328.92	7.00	-53.2	-55.0	16.3	0.00e+00	0	50	0	925892608	78	4335
2026-01-16 13:04:02.16	329.05	6.96	-53.0	-54.8	16.6	0.00e+00	0	50	0	927989760	78	4196
2026-01-16 13:04:03.17	329.19	6.92	-53.0	-54.7	16.6	0.00e+00	0	50	0	930086912	77	4402
2026-01-16 13:04:04.17	329.32	6.87	-52.8	-54.5	16.8	0.00e+00	0	50	0	932184064	77	4308
2026-01-16 13:04:05.18	329.45	6.83	-52.8	-54.4	16.9	0.00e+00	0	50	0	933232640	77	4270
2026-01-16 13:04:06.19	329.59	6.79	-52.7	-54.3	17.0	0.00e+00	0	50	0	935329792	77	4219
2026-01-16 13:04:07.20	329.72	6.74	-52.7	-54.4	17.0	0.00e+00	0	50	0	937426944	77	4248
2026-01-16 13:04:08.21	329.85	6.70	-52.7	-54.3	17.0	0.00e+00	0	50	0	939524096	77	4205
2026-01-16 13:04:09.22	329.98	6.65	-52.7	-54.3	17.0	0.00e+00	0	50	0	941621248	77	4216
2026-01-16 13:04:10.23	330.11	6.61	-52.8	-54.5	16.9	0.00e+00	0	50	0	942669824	77	4292
2026-01-16 13:04:11.23	330.24	6.57	-52.8	-54.4	16.9	0.00e+00	0	50	0	944766976	77	4278
2026-01-16 13:04:12.24	330.37	6.52	-52.9	-54.5	16.7	0.00e+00	0	50	0	946864128	77	4338
2026-01-16 13:04:13.25	330.50	6.48	-52.9	-54.6	16.7	0.00e+00	0	50	0	948961280	77	4347
2026-01-16 13:04:14.26	330.63	6.43	-52.8	-54.5	16.7	0.00e+00	0	50	0	951058432	77	4315
2026-01-16 13:04:15.27	330.76	6.39	-52.8	-54.5	16.8	0.00e+00	0	50	0	953155584	77	4294
2026-01-16 13:04:16.27	330.89	6.34	-52.9	-54.6	16.7	0.00e+00	0	50	0	954204160	77	4352
2026-01-16 13:04:17.28	331.02	6.30	-52.8	-54.5	16.7	0.00e+00	0	50	0	956301312	77	4305
2026-01-16 13:04:18.29	331.15	6.25	-52.7	-54.3	16.9	0.00e+00	0	50	0	958398464	77	4200
2026-01-16 13:04:19.30	331.27	6.21	-52.5	-54.1	17.1	0.00e+00	0	50	0	960495616	77	4120
2026-01-16 13:04:20.30	331.40	6.17	-52.5	-54.1	17.2	0.00e+00	0	50	0	961544192	76	4351
2026-01-16 13:04:21.31	331.53	6.12	-52.8	-54.5	16.8	0.00e+00	0	50	0	963641344	76	4555
2026-01-16 13:04:22.32	331.65	6.08	-52.7	-54.4	16.8	0.00e+00	0	50	0	965738496	76	4509
2026-01-16 13:04:23.33	331.78	6.03	-52.8	-54.5	16.7	0.00e+00	0	50	0	967835648	76	4565
2026-01-16 13:04:24.34	331.91	5.99	-52.9	-54.7	16.5	0.00e+00	0	50	0	969932800	76	4652
2026-01-16 13:04:25.34	332.03	5.94	-53.1	-54.9	16.3	0.00e+00	0	50	0	972029952	76	4772
2026-01-16 13:04:26.35	332.16	5.90	-53.2	-55.1	16.1	0.00e+00	0	50	0	973078528	77	4628
2026-01-16 13:04:27.36	332.28	5.85	-53.1	-55.0	16.2	0.00e+00	0	50	0	975175680	77	4549
2026-01-16 13:04:28.37	332.40	5.81	-52.9	-54.7	16.4	0.00e+00	0	50	0	977272832	77	4414
2026-01-16 13:04:29.38	332.53	5.76	-53.0	-54.8	16.3	0.00e+00	0	50	0	979369984	77	4483
2026-01-16 13:04:30.38	332.65	5.72	-52.8	-54.5	16.7	0.00e+00	0	50	0	981467136	77	4299
2026-01-16 13:04:31.39	332.77	5.67	-52.9	-54.7	16.4	0.00e+00	0	50	0	982515712	77	4398
2026-01-16 13:04:32.40	332.90	5.63	-52.9	-54.6	16.5	0.00e+00	0	50	0	984612864	77	4370
2026-01-16 13:04:33.41	333.02	5.58	-52.8	-54.5	16.6	0.00e+00	0	50	0	986710016	77	4308
2026-01-16 13:04:34.42	333.14	5.54	-52.7	-54.3	16.9	0.00e+00	0	50	0	988807168	77	4227
2026-01-16 13:04:35.42	333.26	5.49	-53.0	-54.7	16.4	0.00e+00	0	50	0	989855744	77	4438
2026-01-16 13:04:36.43	333.38	5.45	-52.9	-54.7	16.4	0.00e+00	0	50	0	991952896	77	4425
2026-01-16 13:04:37.44	333.51	5.40	-52.6	-54.3	16.8	0.00e+00	0	50	0	994050048	77	4198
2026-01-16 13:04:38.45	333.63	5.36	-52.7	-54.5	16.6	0.00e+00	0	50	0	996147200	77	4303
2026-01-16 13:04:39.46	333.75	5.31	-52.8	-54.6	16.4	0.00e+00	0	50	0	998244352	77	4381
2026-01-16 13:04:40.46	333.87	5.27	-52.7	-54.4	16.6	0.00e+00	0	50	0	1000341504	77	4274
2026-01-16 13:04:41.47	333.99	5.22	-52.9	-54.7	16.2	0.00e+00	0	50	0	1001390080	77	4416
2026-01-16 13:04:42.48	334.10	5.18	-52.6	-54.3	16.5	0.00e+00	0	50	0	1003487232	77	4220
2026-01-16 13:04:43.49	334.22	5.13	-52.4	-54.2	16.5	0.00e+00	0	50	0	1005584384	76	4406
2026-01-16 13:04:44.50	334.34	5.09	-53.2	-55.6	14.9	0.00e+00	0	50	0	1007681536	77	4881
2026-01-16 13:04:45.50	334.46	5.04	-53.8	-56.6	13.8	0.00e+00	0	50	0	1009778688	78	5192
2026-01-16 13:04:46.52	334.58	5.00	-54.7	-58.1	12.6	2.67e-05	0	50	0	1010827264	79	5848
2026-01-16 13:04:47.52	334.70	4.95	-58.0	-72.5	3.8	1.10e+00	0	50	104	1011875840	86	20456
2026-01-16 13:04:48.53	334.81	4.91	-58.3	-72.8	3.8	1.49e+00	0	50	104	1011875840	87	19945
2026-01-16 13:04:49.54	334.93	4.86	-58.5	-73.0	3.8	1.49e+00	0	50	104	1011875840	87	20371
2026-01-16 13:04:50.55	335.05	4.81	-58.6	-73.1	3.8	1.49e+00	0	50	104	1011875840	87	20691
2026-01-16 13:04:51.56	335.16	4.77	-58.6	-73.2	3.8	1.49e+00	0	50	104	1011875840	88	19624
2026-01-16 13:04:52.56	335.28	4.72	-58.7	-73.3	3.8	1.49e+00	0	50	104	1011875840	88	19913
2026-01-16 13:04:53.57	335.39	4.68	-58.8	-73.3	3.8	1.49e+00	0	50	104	1011875840	88	20071
2026-01-16 13:04:54.58	335.51	4.63	-58.9	-73.4	3.8	1.49e+00	0	50	104	1011875840	88	20247
2026-01-16 13:04:55.59	335.62	4.59	-59.0	-73.5	3.8	1.49e+00	0	50	104	1011875840	88	20392
2026-01-16 13:04:56.60	335.74	4.54	-59.0	-73.5	3.8	1.49e+00	0	50	104	1011875840	88	20472
2026-01-16 13:04:57.61	335.85	4.50	-59.0	-73.5	3.8	1.49e+00	0	50	104	1011875840	88	20531
2026-01-16 13:04:58.62	335.97	4.45	-59.0	-73.6	3.8	1.49e+00	0	50	104	1011875840	88	20614
2026-01-16 13:04:59.63	336.08	4.41	-59.0	-73.6	3.8	1.49e+00	0	50	104	1011875840	88	20605
2026-01-16 13:05:00.63	336.19	4.36	-59.1	-73.6	3.8	1.49e+00	0	50	104	1011875840	88	20694
2026-01-16 13:05:01.64	336.30	4.31	-59.1	-73.6	3.8	1.49e+00	0	50	104	1011875840	88	20658
2026-01-16 13:05:02.65	336.42	4.27	-59.1	-73.6	3.8	1.49e+00	0	50	104	1011875840	88	20673
2026-01-16 13:05:03.66	336.53	4.22	-59.1	-73.6	3.8	1.49e+00	0	50	104	1011875840	88	20643
2026-01-16 13:05:04.67	336.64	4.18	-59.0	-73.6	3.8	1.49e+00	0	50	104	1011875840	88	20633
2026-01-16 13:05:05.68	336.75	4.13	-59.0	-73.6	3.8	1.49e+00	0	50	104	1011875840	88	20639
2026-01-16 13:05:06.69	336.86	4.09	-59.0	-73.6	3.8	1.49e+00	0	50	104	1011875840	88	20651
2026-01-16 13:05:07.70	336.97	4.04	-59.0	-73.6	3.8	1.49e+00	0	50	104	1011875840	88	20703
2026-01-16 13:05:08.70	337.08	4.00	-59.0	-73.6	3.8	1.49e+00	0	50	104	1011875840	88	20581
2026-01-16 13:05:09.71	337.19	3.95	-59.0	-73.6	3.8	1.49e+00	0	50	104	1011875840	88	20607
2026-01-16 13:05:10.72	337.30	3.90	-59.0	-73.5	3.8	1.49e+00	0	50	104	1011875840	88	20492
2026-01-16 13:05:11.73	337.41	3.86	-59.0	-73.5	3.8	1.49e+00	0	50	104	1011875840	88	20439
2026-01-16 13:05:12.74	337.52	3.81	-59.0	-73.5	3.8	1.49e+00	0	50	104	1011875840	88	20445
2026-01-16 13:05:13.75	337.63	3.77	-59.0	-73.5	3.8	1.49e+00	0	50	104	1011875840	88	20452
2026-01-16 13:05:14.76	337.74	3.72	-59.0	-73.5	3.8	1.49e+00	0	50	104	1011875840	88	20441
2026-01-16 13:05:15.77	337.85	3.68	-59.0	-73.5	3.8	1.49e+00	0	50	104	1011875840	88	20390
2026-01-16 13:05:16.78	337.96	3.63	-59.0	-73.5	3.8	1.49e+00	0	50	104	1011875840	88	20379
2026-01-16 13:05:17.79	338.06	3.58	-59.0	-73.5	3.8	1.49e+00	0	50	104	1011875840	88	20398
2026-01-16 13:05:18.80	338.17	3.54	-59.0	-73.5	3.8	1.49e+00	0	50	104	1011875840	88	20366
2026-01-16 13:05:19.80	338.28	3.49	-58.9	-73.5	3.8	1.49e+00	0	50	104	1011875840	88	20444
2026-01-16 13:05:20.81	338.38	3.45	-58.9	-73.5	3.8	1.49e+00	0	50	104	1011875840	88	20373
2026-01-16 13:05:21.82	338.49	3.40	-58.9	-73.5	3.8	1.49e+00	0	50	104	1011875840	88	20333
2026-01-16 13:05:22.83	338.60	3.36	-58.9	-73.5	3.8	1.49e+00	0	50	104	1011875840	88	20317
2026-01-16 13:05:23.84	338.70	3.31	-58.9	-73.5	3.8	1.49e+00	0	50	104	1011875840	88	20333
2026-01-16 13:05:24.84	338.81	3.26	-58.9	-73.5	3.8	1.49e+00	0	50	104	1011875840	88	20320
2026-01-16 13:05:25.85	338.91	3.22	-58.9	-73.5	3.8	1.49e+00	0	50	104	1011875840	88	20335
2026-01-16 13:05:26.86	339.02	3.17	-58.9	-73.5	3.8	1.49e+00	0	50	104	1011875840	88	20310
2026-01-16 13:05:27.87	339.12	3.13	-58.9	-73.5	3.8	1.49e+00	0	50	104	1011875840	88	20356
2026-01-16 13:05:28.88	339.22	3.08	-58.9	-73.4	3.8	1.49e+00	0	50	104	1011875840	88	20254
2026-01-16 13:05:29.88	339.33	3.04	-58.9	-73.4	3.8	1.49e+00	0	50	104	1011875840	88	20284
2026-01-16 13:05:30.89	339.43	2.99	-58.9	-73.4	3.8	1.49e+00	0	50	104	1011875840	88	20235
2026-01-16 13:05:31.90	339.53	2.95	-58.9	-73.4	3.8	1.49e+00	0	50	104	1011875840	88	20300
2026-01-16 13:05:32.91	339.64	2.90	-58.9	-73.4	3.8	1.49e+00	0	50	104	1011875840	88	20292
2026-01-16 13:05:33.92	339.74	2.85	-58.9	-73.4	3.8	1.49e+00	0	50	104	1011875840	88	20249
2026-01-16 13:05:34.93	339.84	2.81	-58.9	-73.4	3.8	1.49e+00	0	50	104	1011875840	88	20257
2026-01-16 13:05:35.94	339.94	2.76	-58.9	-73.4	3.8	1.49e+00	0	50	104	1011875840	88	20256
2026-01-16 13:05:36.94	340.04	2.72	-58.9	-73.4	3.8	1.49e+00	0	50	104	1011875840	88	20181
2026-01-16 13:05:37.95	340.15	2.67	-58.9	-73.4	3.8	1.49e+00	0	50	104	1011875840	88	20242
2026-01-16 13:05:38.96	340.25	2.63	-58.9	-73.4	3.8	1.49e+00	0	50	104	1011875840	88	20229
2026-01-16 13:05:39.97	340.35	2.58	-58.9	-73.4	3.8	1.49e+00	0	50	104	1011875840	88	20224
2026-01-16 13:05:40.97	340.45	2.53	-58.9	-73.4	3.8	1.49e+00	0	50	104	1011875840	88	20223
2026-01-16 13:05:41.99	340.55	2.49	-58.9	-73.4	3.8	1.49e+00	0	50	104	1011875840	88	20219
2026-01-16 13:05:42.99	340.65	2.44	-58.9	-73.4	3.8	1.49e+00	0	50	104	1011875840	88	20233
2026-01-16 13:05:44.00	340.75	2.40	-58.9	-73.4	3.8	1.49e+00	0	50	104	1011875840	88	20193
2026-01-16 13:05:45.01	340.85	2.35	-58.9	-73.4	3.8	1.49e+00	0	50	104	1011875840	88	20202
2026-01-16 13:05:46.02	340.95	2.31	-58.9	-73.4	3.8	1.49e+00	0	50	104	1011875840	88	20217
2026-01-16 13:05:47.03	341.04	2.26	-58.9	-73.4	3.8	1.49e+00	0	50	104	1011875840	88	20222
2026-01-16 13:05:48.04	341.14	2.22	-58.9	-73.4	3.8	1.49e+00	0	50	104	1011875840	88	20247
2026-01-16 13:05:49.05	341.24	2.17	-58.9	-73.4	3.8	1.49e+00	0	50	104	1011875840	88	20253
2026-01-16 13:05:50.05	341.34	2.12	-58.9	-73.4	3.8	1.49e+00	0	50	104	1011875840	88	20214
2026-01-16 13:05:51.06	341.44	2.08	-58.9	-73.4	3.8	1.49e+00	0	50	104	1011875840	88	20154
2026-01-16 13:05:52.07	341.53	2.03	-58.9	-73.4	3.8	1.49e+00	0	50	104	1011875840	88	20275
2026-01-16 13:05:53.08	341.63	1.99	-58.9	-73.4	3.8	1.49e+00	0	50	104	1011875840	88	20200
2026-01-16 13:05:54.09	341.73	1.94	-58.9	-73.4	3.8	1.49e+00	0	50	104	1011875840	88	20200
2026-01-16 13:05:55.10	341.82	1.90	-58.9	-73.4	3.8	1.49e+00	0	50	104	1011875840	88	20207

#Closed at: 2026-01-16 13:05:55
#Recorded file [1011 MB]: D:/lorett/data/31041_260116_155450.dat