passes_logs/2026/01/16/R3.2S_Murmansk/R3.2S_Murmansk__20260116_230238_KANOPUS-V_5_rec.log

#Pass ID: 20260116_230238_KANOPUS-V 5
#Satellite: KANOPUS-V 5
#Configuration: KANOPUS-V_8320
#almurnet v.1.7.20251203
#Start time: 2026-01-16 23:02:37

#Version: 2.2.20231116
#Station: R3.2S_Murmansk
#Location: 33.079688 lon 68.888172 lat
#TLE: 1 43876U 18111A   26015.95883530  .00002079  00000+0  90203-4 0  9990
#TLE: 2 43876  97.3685 284.4557 0001748  86.2315 273.9122 15.23440439391619

#Time	Az	El	Level	Level2	SNR	BER	BlckErr	Temp	State	Recorded	gain1	gain2
2026-01-16 23:02:37.92	21.28	1.96	-52.5	-61.3	3.8	7.45e-01	0	32	0	0	76	10022
2026-01-16 23:02:38.92	21.25	2.03	-52.5	-61.4	3.8	7.45e-01	0	32	104	0	76	10084
2026-01-16 23:02:39.93	21.22	2.10	-52.5	-61.3	3.8	7.47e-01	0	32	104	0	76	9997
2026-01-16 23:02:40.94	21.19	2.17	-52.5	-61.3	3.8	7.46e-01	0	32	104	0	76	10022
2026-01-16 23:02:41.95	21.16	2.24	-52.5	-61.3	3.8	7.45e-01	0	32	104	0	76	10036
2026-01-16 23:02:42.96	21.13	2.31	-52.5	-61.3	3.8	7.47e-01	0	32	104	0	76	9985
2026-01-16 23:02:43.96	21.10	2.38	-52.5	-61.3	3.8	7.45e-01	0	32	104	0	76	10000
2026-01-16 23:02:44.97	21.06	2.45	-52.5	-61.3	3.8	7.45e-01	0	32	104	0	76	10034
2026-01-16 23:02:45.98	21.03	2.52	-52.5	-61.3	3.8	7.45e-01	0	32	104	0	76	9982
2026-01-16 23:02:46.99	21.00	2.59	-52.5	-61.3	3.8	7.44e-01	0	32	104	0	76	10001
2026-01-16 23:02:48.00	20.97	2.66	-52.5	-61.3	3.8	7.44e-01	0	32	104	0	76	10045
2026-01-16 23:02:49.01	20.93	2.73	-52.5	-61.3	3.8	7.45e-01	0	32	104	0	76	10020
2026-01-16 23:02:50.02	20.90	2.80	-52.5	-61.3	3.8	7.45e-01	0	32	104	0	76	10015
2026-01-16 23:02:51.03	20.87	2.88	-52.5	-61.3	3.8	7.45e-01	0	33	104	0	76	10010
2026-01-16 23:02:52.04	20.83	2.95	-52.5	-61.3	3.8	7.45e-01	0	32	104	0	76	10015
2026-01-16 23:02:53.04	20.80	3.02	-52.5	-61.3	3.8	7.45e-01	0	33	104	0	76	9976
2026-01-16 23:02:54.05	20.76	3.09	-52.5	-61.3	3.8	7.44e-01	0	33	104	0	76	10011
2026-01-16 23:02:55.06	20.73	3.17	-52.5	-61.3	3.8	7.46e-01	0	33	104	0	76	10005
2026-01-16 23:02:56.07	20.69	3.24	-52.5	-61.3	3.8	7.45e-01	0	33	104	0	76	10033
2026-01-16 23:02:57.08	20.66	3.31	-52.5	-61.3	3.8	7.45e-01	0	33	104	0	76	9977
2026-01-16 23:02:58.08	20.62	3.39	-52.5	-61.3	3.8	7.45e-01	0	33	104	0	76	9987
2026-01-16 23:02:59.09	20.59	3.46	-52.5	-61.3	3.8	7.46e-01	0	33	104	0	76	9993
2026-01-16 23:03:00.10	20.55	3.54	-52.5	-61.3	3.8	7.44e-01	0	33	104	0	76	10003
2026-01-16 23:03:01.11	20.52	3.61	-52.5	-61.3	3.8	7.44e-01	0	33	104	0	76	10022
2026-01-16 23:03:02.12	20.48	3.68	-52.5	-61.3	3.8	7.45e-01	0	33	104	0	76	10020
2026-01-16 23:03:03.13	20.44	3.76	-52.5	-61.3	3.8	7.45e-01	0	33	104	0	76	10054
2026-01-16 23:03:04.14	20.41	3.84	-52.5	-61.3	3.8	7.44e-01	0	33	104	0	76	10010
2026-01-16 23:03:05.14	20.37	3.91	-52.5	-61.3	3.8	7.45e-01	0	33	104	0	76	10005
2026-01-16 23:03:06.15	20.33	3.99	-52.5	-61.3	3.8	7.44e-01	0	33	104	0	76	9977
2026-01-16 23:03:07.16	20.29	4.06	-52.5	-61.3	3.8	7.46e-01	0	33	104	0	76	9999
2026-01-16 23:03:08.17	20.26	4.14	-52.5	-61.3	3.8	7.44e-01	0	33	104	0	76	9970
2026-01-16 23:03:09.18	20.22	4.22	-52.5	-61.3	3.8	7.45e-01	0	33	104	0	76	10017
2026-01-16 23:03:10.18	20.18	4.29	-52.5	-61.3	3.8	7.45e-01	0	33	104	0	76	9986
2026-01-16 23:03:11.19	20.14	4.37	-52.5	-61.3	3.8	7.45e-01	0	33	104	0	76	9999
2026-01-16 23:03:12.20	20.10	4.45	-52.5	-61.3	3.8	7.45e-01	0	33	104	0	76	9989
2026-01-16 23:03:13.21	20.06	4.53	-52.5	-61.3	3.8	7.46e-01	0	33	104	0	76	9985
2026-01-16 23:03:14.22	20.02	4.60	-52.5	-61.3	3.8	7.46e-01	0	33	104	0	76	10023
2026-01-16 23:03:15.23	19.98	4.68	-52.5	-61.3	3.8	7.46e-01	0	33	104	0	76	10002
2026-01-16 23:03:16.24	19.94	4.76	-52.5	-61.3	3.8	7.47e-01	0	33	104	0	76	9976
2026-01-16 23:03:17.24	19.90	4.84	-52.5	-61.3	3.8	7.44e-01	0	33	104	0	76	10007
2026-01-16 23:03:18.25	19.86	4.92	-52.5	-61.3	3.8	7.45e-01	0	33	104	0	76	9999
2026-01-16 23:03:19.26	19.82	5.00	-52.5	-61.3	3.8	7.46e-01	0	33	104	0	76	9987
2026-01-16 23:03:20.27	19.78	5.08	-52.5	-61.3	3.8	7.45e-01	0	33	104	0	76	10023
2026-01-16 23:03:21.28	19.74	5.16	-52.6	-61.4	3.8	7.44e-01	0	33	104	0	76	10138
2026-01-16 23:03:22.29	19.69	5.24	-52.6	-61.4	3.8	7.44e-01	0	33	104	0	76	10153
2026-01-16 23:03:23.30	19.65	5.32	-52.4	-61.3	3.8	7.46e-01	0	33	104	0	76	9978
2026-01-16 23:03:24.31	19.61	5.40	-52.6	-61.5	3.8	7.47e-01	0	33	104	0	76	10193
2026-01-16 23:03:25.31	19.56	5.48	-52.5	-61.3	3.8	7.45e-01	0	33	104	0	76	10003
2026-01-16 23:03:26.32	19.52	5.56	-52.7	-61.5	3.8	7.48e-01	0	33	104	0	76	10228
2026-01-16 23:03:27.33	19.48	5.65	-52.5	-61.4	3.8	7.43e-01	0	33	104	0	76	10106
2026-01-16 23:03:28.34	19.43	5.73	-52.6	-61.5	3.8	7.47e-01	0	33	104	0	76	10232
2026-01-16 23:03:29.35	19.39	5.81	-52.6	-61.4	3.8	7.46e-01	0	33	104	0	76	10144
2026-01-16 23:03:30.36	19.34	5.90	-52.7	-61.5	3.8	7.45e-01	0	33	104	0	76	10225
2026-01-16 23:03:31.36	19.30	5.98	-52.6	-61.4	3.8	7.45e-01	0	33	104	0	76	10173
2026-01-16 23:03:32.37	19.25	6.06	-52.7	-61.5	3.8	7.44e-01	0	34	104	0	76	10254
2026-01-16 23:03:33.38	19.21	6.15	-52.6	-61.5	3.8	7.48e-01	0	33	104	0	76	10198
2026-01-16 23:03:34.39	19.16	6.23	-52.7	-61.6	3.8	7.45e-01	0	33	104	0	76	10324
2026-01-16 23:03:35.40	19.11	6.32	-52.7	-61.5	3.8	7.47e-01	0	33	104	0	76	10214
2026-01-16 23:03:36.40	19.07	6.40	-52.7	-61.6	3.8	7.46e-01	0	33	104	0	76	10319
2026-01-16 23:03:37.41	19.02	6.49	-52.7	-61.5	3.8	7.44e-01	0	34	104	0	76	10245
2026-01-16 23:03:38.42	18.97	6.57	-52.8	-61.6	3.8	7.45e-01	0	33	104	0	76	10349
2026-01-16 23:03:39.43	18.92	6.66	-52.7	-61.6	3.8	7.45e-01	0	33	104	0	76	10297
2026-01-16 23:03:40.44	18.87	6.75	-52.8	-61.6	3.8	7.45e-01	0	34	104	0	76	10339
2026-01-16 23:03:41.45	18.83	6.83	-52.8	-61.6	3.8	7.46e-01	0	34	104	0	76	10348
2026-01-16 23:03:42.45	18.78	6.92	-52.8	-61.6	3.8	7.46e-01	0	34	104	0	76	10393
2026-01-16 23:03:43.46	18.73	7.01	-52.8	-61.6	3.8	7.45e-01	0	34	104	0	76	10361
2026-01-16 23:03:44.47	18.68	7.10	-52.8	-61.7	3.8	7.46e-01	0	34	104	0	76	10434
2026-01-16 23:03:45.48	18.62	7.19	-52.8	-61.7	3.8	7.46e-01	0	34	104	0	76	10455
2026-01-16 23:03:46.48	18.57	7.27	-52.9	-61.7	3.8	7.44e-01	0	34	104	0	76	10490
2026-01-16 23:03:47.49	18.52	7.36	-52.8	-61.7	3.8	7.44e-01	0	34	104	0	76	10429
2026-01-16 23:03:48.50	18.47	7.45	-52.9	-61.7	3.8	7.44e-01	0	33	104	0	76	10468
2026-01-16 23:03:49.51	18.42	7.54	-52.9	-61.7	3.8	7.43e-01	0	34	104	0	76	10489
2026-01-16 23:03:50.52	18.37	7.63	-52.9	-61.7	3.8	7.45e-01	0	34	104	0	76	10520
2026-01-16 23:03:51.53	18.31	7.73	-52.9	-61.7	3.8	7.45e-01	0	34	104	0	76	10520
2026-01-16 23:03:52.54	18.26	7.82	-52.9	-61.7	3.8	7.47e-01	0	34	104	0	76	10523
2026-01-16 23:03:53.54	18.20	7.91	-52.9	-61.8	3.8	7.45e-01	0	34	104	0	76	10551
2026-01-16 23:03:54.55	18.15	8.00	-52.9	-61.7	3.8	7.46e-01	0	34	104	0	76	10529
2026-01-16 23:03:55.56	18.09	8.09	-52.9	-61.7	3.8	7.44e-01	0	34	104	0	76	10507
2026-01-16 23:03:56.57	18.04	8.19	-52.9	-61.7	3.8	7.45e-01	0	34	104	0	76	10528
2026-01-16 23:03:57.58	17.98	8.28	-53.0	-61.8	3.8	7.45e-01	0	34	104	0	76	10582
2026-01-16 23:03:58.58	17.93	8.38	-52.9	-61.8	3.8	7.44e-01	0	34	104	0	76	10576
2026-01-16 23:03:59.59	17.87	8.47	-53.0	-61.8	3.8	7.44e-01	0	34	104	0	76	10590
2026-01-16 23:04:00.60	17.81	8.56	-53.0	-61.8	3.8	7.45e-01	0	34	104	0	76	10543
2026-01-16 23:04:01.61	17.75	8.66	-53.0	-61.8	3.8	7.46e-01	0	34	104	0	76	10640
2026-01-16 23:04:02.62	17.69	8.76	-53.0	-61.8	3.8	7.45e-01	0	34	104	0	76	10613
2026-01-16 23:04:03.62	17.64	8.85	-53.0	-61.8	3.8	7.45e-01	0	34	104	0	76	10609
2026-01-16 23:04:04.63	17.58	8.95	-53.0	-61.8	3.8	7.44e-01	0	34	104	0	76	10579
2026-01-16 23:04:05.64	17.52	9.05	-53.0	-61.9	3.8	7.47e-01	0	34	104	0	76	10695
2026-01-16 23:04:06.65	17.45	9.14	-53.0	-61.8	3.8	7.46e-01	0	34	104	0	76	10643
2026-01-16 23:04:07.66	17.39	9.24	-53.0	-61.8	3.8	7.46e-01	0	34	104	0	76	10651
2026-01-16 23:04:08.67	17.33	9.34	-53.0	-61.8	3.8	7.45e-01	0	34	104	0	76	10649
2026-01-16 23:04:09.67	17.27	9.44	-53.1	-61.9	3.8	7.44e-01	0	34	104	0	76	10700
2026-01-16 23:04:10.68	17.21	9.54	-53.0	-61.9	3.8	7.45e-01	0	34	104	0	76	10708
2026-01-16 23:04:11.69	17.14	9.64	-53.1	-61.9	3.8	7.46e-01	0	34	104	0	76	10725
2026-01-16 23:04:12.70	17.08	9.74	-53.1	-61.9	3.8	7.44e-01	0	34	104	0	76	10719
2026-01-16 23:04:13.70	17.02	9.84	-53.1	-61.9	3.8	7.44e-01	0	34	104	0	76	10751
2026-01-16 23:04:14.71	16.95	9.95	-53.1	-61.9	3.8	7.45e-01	0	34	104	0	76	10707
2026-01-16 23:04:15.72	16.88	10.05	-53.1	-61.9	3.8	7.46e-01	0	34	104	0	76	10771
2026-01-16 23:04:16.73	16.82	10.15	-53.1	-61.9	3.8	7.47e-01	0	34	104	0	76	10741
2026-01-16 23:04:17.74	16.75	10.25	-53.1	-62.0	3.8	7.45e-01	0	34	104	0	76	10784
2026-01-16 23:04:18.74	16.68	10.36	-53.1	-61.9	3.8	7.46e-01	0	34	104	0	76	10761
2026-01-16 23:04:19.75	16.61	10.46	-53.1	-62.0	3.8	7.47e-01	0	34	104	0	76	10816
2026-01-16 23:04:20.76	16.55	10.57	-53.1	-62.0	3.8	7.44e-01	0	34	104	0	76	10787
2026-01-16 23:04:21.77	16.48	10.67	-53.1	-62.0	3.8	7.45e-01	0	34	104	0	76	10813
2026-01-16 23:04:22.78	16.41	10.78	-53.1	-61.9	3.8	7.46e-01	0	34	104	0	76	10776
2026-01-16 23:04:23.78	16.34	10.89	-53.2	-62.0	3.8	7.45e-01	0	34	104	0	76	10796
2026-01-16 23:04:24.79	16.26	10.99	-53.1	-62.0	3.8	7.46e-01	0	34	104	0	76	10780
2026-01-16 23:04:25.80	16.19	11.10	-53.2	-62.0	3.8	7.47e-01	0	34	104	0	76	10814
2026-01-16 23:04:26.81	16.12	11.21	-53.1	-62.0	3.8	7.47e-01	0	34	104	0	76	10795
2026-01-16 23:04:27.82	16.04	11.32	-53.2	-62.0	3.8	7.46e-01	0	34	104	0	76	10902
2026-01-16 23:04:28.82	15.97	11.43	-53.2	-62.0	3.8	7.44e-01	0	34	104	0	76	10842
2026-01-16 23:04:29.83	15.90	11.54	-53.2	-62.0	3.8	7.44e-01	0	34	104	0	76	10899
2026-01-16 23:04:30.84	15.82	11.65	-53.2	-62.0	3.8	7.44e-01	0	34	104	0	76	10814
2026-01-16 23:04:31.85	15.74	11.76	-53.2	-62.0	3.8	7.45e-01	0	34	104	0	76	10856
2026-01-16 23:04:32.86	15.67	11.88	-53.2	-62.0	3.8	7.46e-01	0	34	104	0	76	10877
2026-01-16 23:04:33.86	15.59	11.99	-53.2	-62.0	3.8	7.45e-01	0	34	104	0	76	10892
2026-01-16 23:04:34.87	15.51	12.10	-53.2	-62.0	3.8	7.44e-01	0	34	104	0	77	10277
2026-01-16 23:04:35.88	15.43	12.22	-53.2	-62.1	3.8	7.46e-01	0	34	104	0	77	10336
2026-01-16 23:04:36.89	15.35	12.33	-53.2	-62.0	3.8	7.46e-01	0	34	104	0	77	10293
2026-01-16 23:04:37.90	15.27	12.45	-53.3	-62.1	3.8	7.44e-01	0	34	104	0	77	10337
2026-01-16 23:04:38.90	15.19	12.56	-53.2	-62.1	3.8	7.45e-01	0	34	104	0	77	10328
2026-01-16 23:04:39.91	15.10	12.68	-53.3	-62.1	3.8	7.46e-01	0	34	104	0	77	10358
2026-01-16 23:04:40.92	15.02	12.80	-53.2	-62.1	3.8	7.45e-01	0	34	104	0	77	10324
2026-01-16 23:04:41.93	14.93	12.92	-53.3	-62.1	3.8	7.45e-01	0	34	104	0	77	10370
2026-01-16 23:04:42.94	14.85	13.04	-53.2	-62.1	3.8	7.46e-01	0	34	104	0	77	10316
2026-01-16 23:04:43.94	14.76	13.16	-53.3	-62.1	3.8	7.47e-01	0	34	104	0	77	10377
2026-01-16 23:04:44.95	14.68	13.28	-53.2	-62.1	3.8	7.45e-01	0	34	104	0	77	10297
2026-01-16 23:04:45.96	14.59	13.40	-53.3	-62.1	3.8	7.46e-01	0	34	104	0	77	10369
2026-01-16 23:04:46.97	14.50	13.52	-53.3	-62.0	3.8	7.44e-01	0	34	104	0	77	10292
2026-01-16 23:04:47.98	14.41	13.64	-53.3	-62.1	3.8	7.46e-01	0	34	104	0	77	10404
2026-01-16 23:04:48.98	14.32	13.77	-53.3	-62.1	3.8	7.46e-01	0	34	104	0	77	10362
2026-01-16 23:04:49.99	14.23	13.89	-53.3	-62.2	3.8	7.45e-01	0	35	104	0	77	10429
2026-01-16 23:04:51.00	14.13	14.02	-53.3	-62.1	3.8	7.46e-01	0	34	104	0	77	10334
2026-01-16 23:04:52.01	14.04	14.14	-53.4	-62.2	3.8	7.45e-01	0	34	104	0	77	10431
2026-01-16 23:04:53.02	13.94	14.27	-53.3	-62.1	3.8	7.45e-01	0	34	104	0	77	10373
2026-01-16 23:04:54.02	13.85	14.40	-53.3	-62.2	3.8	7.45e-01	0	35	104	0	77	10448
2026-01-16 23:04:55.03	13.75	14.52	-53.3	-62.2	3.8	7.47e-01	0	34	104	0	77	10417
2026-01-16 23:04:56.04	13.65	14.65	-53.4	-62.2	3.8	7.45e-01	0	34	104	0	77	10427
2026-01-16 23:04:57.05	13.56	14.78	-53.3	-62.2	3.8	7.46e-01	0	34	104	0	77	10436
2026-01-16 23:04:58.06	13.45	14.91	-53.4	-62.2	3.8	7.45e-01	0	34	104	0	77	10484
2026-01-16 23:04:59.06	13.35	15.05	-53.3	-62.2	3.8	7.45e-01	0	34	104	0	77	10424
2026-01-16 23:05:00.07	13.25	15.18	-53.4	-62.2	3.8	7.48e-01	0	34	104	0	77	10507
2026-01-16 23:05:01.08	13.15	15.31	-53.3	-62.2	3.8	7.44e-01	0	34	104	0	77	10444
2026-01-16 23:05:02.09	13.04	15.45	-53.4	-62.2	3.8	7.45e-01	0	35	104	0	77	10487
2026-01-16 23:05:03.10	12.94	15.58	-53.4	-62.2	3.8	7.45e-01	0	34	104	0	77	10458
2026-01-16 23:05:04.10	12.83	15.72	-53.4	-62.2	3.8	7.45e-01	0	34	104	0	77	10526
2026-01-16 23:05:05.11	12.72	15.85	-53.4	-62.2	3.8	7.44e-01	0	34	104	0	77	10471
2026-01-16 23:05:06.12	12.61	15.99	-53.4	-62.3	3.8	7.46e-01	0	34	104	0	77	10540
2026-01-16 23:05:07.13	12.50	16.13	-53.4	-62.2	3.8	7.44e-01	0	34	104	0	77	10500
2026-01-16 23:05:08.14	12.39	16.27	-53.4	-62.3	3.8	7.47e-01	0	34	104	0	77	10568
2026-01-16 23:05:09.14	12.28	16.41	-53.4	-62.2	3.8	7.45e-01	0	34	104	0	77	10474
2026-01-16 23:05:10.15	12.17	16.55	-53.5	-62.3	3.8	7.45e-01	0	34	104	0	77	10577
2026-01-16 23:05:11.16	12.05	16.69	-53.4	-62.3	3.8	7.45e-01	0	34	104	0	77	10551
2026-01-16 23:05:12.17	11.93	16.84	-53.5	-62.3	3.8	7.46e-01	0	34	104	0	77	10563
2026-01-16 23:05:13.18	11.81	16.98	-53.4	-62.3	3.8	7.45e-01	0	34	104	0	77	10550
2026-01-16 23:05:14.18	11.70	17.13	-53.5	-62.3	3.8	7.45e-01	0	34	104	0	77	10600
2026-01-16 23:05:15.19	11.57	17.27	-53.5	-62.3	3.8	7.45e-01	0	34	104	0	77	10563
2026-01-16 23:05:16.20	11.45	17.42	-53.5	-62.3	3.8	7.45e-01	0	34	104	0	77	10633
2026-01-16 23:05:17.21	11.33	17.57	-53.5	-62.3	3.8	7.46e-01	0	34	104	0	77	10586
2026-01-16 23:05:18.22	11.20	17.72	-53.5	-62.4	3.8	7.45e-01	0	35	104	0	77	10658
2026-01-16 23:05:19.22	11.08	17.87	-53.5	-62.3	3.8	7.46e-01	0	34	104	0	77	10646
2026-01-16 23:05:20.23	10.95	18.02	-53.5	-62.4	3.8	7.47e-01	0	34	104	0	77	10668
2026-01-16 23:05:21.24	10.82	18.18	-53.5	-62.3	3.8	7.45e-01	0	35	104	0	77	10655
2026-01-16 23:05:22.25	10.68	18.33	-53.5	-62.4	3.8	7.45e-01	0	34	104	0	77	10672
2026-01-16 23:05:23.26	10.55	18.48	-53.5	-62.4	3.8	7.44e-01	0	34	104	0	77	10660
2026-01-16 23:05:24.26	10.42	18.64	-53.5	-62.4	3.8	7.44e-01	0	34	104	0	77	10706
2026-01-16 23:05:25.27	10.28	18.80	-53.5	-62.4	3.8	7.46e-01	0	34	104	0	77	10665
2026-01-16 23:05:26.28	10.14	18.96	-53.6	-62.4	3.8	7.46e-01	0	34	104	0	77	10690
2026-01-16 23:05:27.29	10.00	19.12	-53.5	-62.4	3.8	7.45e-01	0	35	104	0	77	10721
2026-01-16 23:05:28.30	9.86	19.28	-53.6	-62.4	3.8	7.45e-01	0	34	104	0	77	10720
2026-01-16 23:05:29.31	9.72	19.44	-53.6	-62.4	3.8	7.45e-01	0	34	104	0	77	10720
2026-01-16 23:05:30.31	9.57	19.60	-53.6	-62.4	3.8	7.46e-01	0	34	104	0	77	10707
2026-01-16 23:05:31.32	9.42	19.76	-53.6	-62.4	3.8	7.45e-01	0	34	104	0	77	10718
2026-01-16 23:05:32.33	9.28	19.93	-53.6	-62.4	3.8	7.43e-01	0	34	104	0	77	10738
2026-01-16 23:05:33.34	9.12	20.10	-53.6	-62.4	3.8	7.45e-01	0	34	104	0	77	10730
2026-01-16 23:05:34.34	8.97	20.26	-53.6	-62.4	3.8	7.45e-01	0	34	104	0	77	10727
2026-01-16 23:05:35.35	8.82	20.43	-53.6	-62.4	3.8	7.46e-01	0	34	104	0	77	10737
2026-01-16 23:05:36.36	8.66	20.60	-53.6	-62.4	3.8	7.46e-01	0	34	104	0	77	10765
2026-01-16 23:05:37.37	8.50	20.77	-53.6	-62.4	3.8	7.46e-01	0	34	104	0	77	10751
2026-01-16 23:05:38.38	8.34	20.95	-53.6	-62.5	3.8	7.46e-01	0	35	104	0	77	10813
2026-01-16 23:05:39.38	8.18	21.12	-53.6	-62.4	3.8	7.46e-01	0	35	104	0	77	10743
2026-01-16 23:05:40.39	8.01	21.30	-53.6	-62.5	3.8	7.44e-01	0	35	104	0	77	10793
2026-01-16 23:05:41.40	7.84	21.47	-53.6	-62.5	3.8	7.45e-01	0	35	104	0	77	10785
2026-01-16 23:05:42.41	7.67	21.65	-53.6	-62.5	3.8	7.46e-01	0	34	104	0	77	10794
2026-01-16 23:05:43.42	7.50	21.83	-53.6	-62.4	3.8	7.44e-01	0	34	104	0	77	10776
2026-01-16 23:05:44.42	7.33	22.01	-53.7	-62.5	3.8	7.48e-01	0	35	104	0	77	10827
2026-01-16 23:05:45.43	7.15	22.19	-53.7	-62.5	3.8	7.46e-01	0	35	104	0	77	10822
2026-01-16 23:05:46.44	6.97	22.38	-53.7	-62.5	3.8	7.46e-01	0	35	104	0	77	10834
2026-01-16 23:05:47.45	6.79	22.56	-53.7	-62.5	3.8	7.43e-01	0	34	104	0	77	10848
2026-01-16 23:05:48.46	6.61	22.75	-53.7	-62.5	3.8	7.46e-01	0	35	104	0	77	10839
2026-01-16 23:05:49.46	6.42	22.93	-53.7	-62.5	3.8	7.45e-01	0	34	104	0	77	10805
2026-01-16 23:05:50.47	6.23	23.12	-53.7	-62.5	3.8	7.46e-01	0	34	104	0	77	10898
2026-01-16 23:05:51.48	6.04	23.31	-53.7	-62.5	3.8	7.44e-01	0	35	104	0	77	10873
2026-01-16 23:05:52.49	5.85	23.51	-53.7	-62.6	3.8	7.45e-01	0	34	104	0	77	10913
2026-01-16 23:05:53.50	5.65	23.70	-53.7	-62.5	3.8	7.45e-01	0	34	104	0	77	10875
2026-01-16 23:05:54.50	5.45	23.89	-53.7	-62.5	3.8	7.46e-01	0	35	104	0	78	10256
2026-01-16 23:05:55.51	5.25	24.09	-53.7	-62.5	3.8	7.45e-01	0	35	104	0	78	10281
2026-01-16 23:05:56.52	5.04	24.29	-53.7	-62.6	3.8	7.47e-01	0	34	104	0	78	10311
2026-01-16 23:05:57.53	4.83	24.49	-53.7	-62.6	3.8	7.46e-01	0	35	104	0	78	10299
2026-01-16 23:05:58.54	4.62	24.69	-53.8	-62.6	3.8	7.44e-01	0	35	104	0	78	10296
2026-01-16 23:05:59.54	4.40	24.89	-53.8	-62.5	3.8	7.45e-01	0	35	104	0	78	10285
2026-01-16 23:06:00.55	4.19	25.09	-53.8	-62.6	3.8	7.46e-01	0	34	104	0	78	10349
2026-01-16 23:06:01.56	3.96	25.30	-53.8	-62.6	3.8	7.46e-01	0	34	104	0	78	10365
2026-01-16 23:06:02.57	3.74	25.50	-53.8	-62.6	3.8	7.44e-01	0	34	104	0	78	10351
2026-01-16 23:06:03.58	3.51	25.71	-53.8	-62.6	3.8	7.45e-01	0	34	104	0	78	10368
2026-01-16 23:06:04.58	3.28	25.92	-53.8	-62.6	3.8	7.45e-01	0	34	104	0	78	10382
2026-01-16 23:06:05.59	3.05	26.13	-53.8	-62.6	3.8	7.46e-01	0	34	104	0	78	10371
2026-01-16 23:06:06.60	2.81	26.35	-53.8	-62.6	3.8	7.45e-01	0	34	104	0	78	10367
2026-01-16 23:06:07.61	2.56	26.56	-53.8	-62.7	3.8	7.46e-01	0	35	104	0	78	10414
2026-01-16 23:06:08.62	2.32	26.78	-53.8	-62.6	3.8	7.46e-01	0	34	104	0	78	10410
2026-01-16 23:06:09.62	2.07	26.99	-53.8	-62.6	3.8	7.45e-01	0	34	104	0	78	10407
2026-01-16 23:06:10.63	1.82	27.21	-53.8	-62.6	3.8	7.47e-01	0	35	104	0	78	10394
2026-01-16 23:06:11.64	1.56	27.43	-53.8	-62.7	3.8	7.44e-01	0	34	104	0	78	10451
2026-01-16 23:06:12.65	1.30	27.65	-53.8	-62.6	3.8	7.45e-01	0	34	104	0	78	10397
2026-01-16 23:06:13.66	1.03	27.88	-53.8	-62.7	3.8	7.45e-01	0	34	104	0	78	10440
2026-01-16 23:06:14.66	0.76	28.10	-53.8	-62.7	3.8	7.45e-01	0	35	104	0	78	10457
2026-01-16 23:06:15.67	0.49	28.33	-53.8	-62.7	3.8	7.44e-01	0	34	104	0	78	10424
2026-01-16 23:06:16.68	0.21	28.56	-53.8	-62.7	3.8	7.44e-01	0	35	104	0	78	10450
2026-01-16 23:06:17.68	359.93	28.79	-53.9	-62.7	3.8	7.44e-01	0	35	104	0	78	10482
2026-01-16 23:06:18.69	359.64	29.02	-53.8	-62.7	3.8	7.45e-01	0	35	104	0	78	10445
2026-01-16 23:06:19.70	359.35	29.25	-53.9	-62.7	3.8	7.46e-01	0	35	104	0	78	10483
2026-01-16 23:06:20.71	359.05	29.49	-53.9	-62.7	3.8	7.45e-01	0	34	104	0	78	10431
2026-01-16 23:06:21.72	358.75	29.72	-53.9	-62.7	3.8	7.46e-01	0	34	104	0	78	10464
2026-01-16 23:06:22.72	358.45	29.96	-53.9	-62.7	3.8	7.46e-01	0	34	104	0	78	10484
2026-01-16 23:06:23.73	358.14	30.20	-53.9	-62.8	3.8	7.44e-01	0	35	104	0	78	10549
2026-01-16 23:06:24.74	357.82	30.44	-53.9	-62.7	3.8	7.44e-01	0	35	104	0	78	10533
2026-01-16 23:06:25.75	357.50	30.68	-53.9	-62.7	3.8	7.44e-01	0	35	104	0	78	10522
2026-01-16 23:06:26.76	357.17	30.92	-53.9	-62.7	3.8	7.45e-01	0	35	104	0	78	10486
2026-01-16 23:06:27.76	356.84	31.17	-53.9	-62.7	3.8	7.44e-01	0	35	104	0	78	10525
2026-01-16 23:06:28.77	356.50	31.41	-53.9	-62.7	3.8	7.45e-01	0	35	104	0	78	10495
2026-01-16 23:06:29.78	356.16	31.66	-53.9	-62.8	3.8	7.46e-01	0	35	104	0	78	10537
2026-01-16 23:06:30.79	355.81	31.91	-53.9	-62.8	3.8	7.46e-01	0	35	104	0	78	10535
2026-01-16 23:06:31.80	355.45	32.16	-53.9	-62.8	3.8	7.43e-01	0	35	104	0	78	10549
2026-01-16 23:06:32.81	355.09	32.41	-53.9	-62.7	3.8	7.46e-01	0	35	104	0	78	10522
2026-01-16 23:06:33.82	354.73	32.67	-53.9	-62.8	3.8	7.45e-01	0	35	104	0	78	10541
2026-01-16 23:06:34.83	354.35	32.92	-53.9	-62.7	3.8	7.46e-01	0	34	104	0	78	10527
2026-01-16 23:06:35.84	353.97	33.18	-54.0	-62.8	3.8	7.44e-01	0	35	104	0	78	10612
2026-01-16 23:06:36.84	353.59	33.43	-53.9	-62.8	3.8	7.45e-01	0	34	104	0	78	10600
2026-01-16 23:06:37.85	353.19	33.69	-54.0	-62.8	3.8	7.44e-01	0	34	104	0	78	10594
2026-01-16 23:06:38.86	352.79	33.95	-54.0	-62.8	3.8	7.44e-01	0	35	104	0	78	10576
2026-01-16 23:06:39.87	352.39	34.21	-54.0	-62.8	3.8	7.43e-01	0	34	104	0	78	10594
2026-01-16 23:06:40.88	351.97	34.47	-54.0	-62.8	3.8	7.45e-01	0	35	104	0	78	10624
2026-01-16 23:06:41.88	351.55	34.73	-54.0	-62.9	3.8	7.46e-01	0	34	104	0	78	10656
2026-01-16 23:06:42.90	351.12	34.99	-54.0	-62.8	3.8	7.46e-01	0	34	104	0	78	10600
2026-01-16 23:06:43.91	350.68	35.26	-54.0	-62.9	3.8	7.45e-01	0	35	104	0	78	10665
2026-01-16 23:06:44.91	350.24	35.52	-54.0	-62.8	3.8	7.46e-01	0	35	104	0	78	10650
2026-01-16 23:06:45.92	349.79	35.78	-54.0	-62.9	3.8	7.46e-01	0	34	104	0	78	10663
2026-01-16 23:06:46.93	349.33	36.05	-54.0	-62.8	3.8	7.45e-01	0	34	104	0	78	10625
2026-01-16 23:06:47.94	348.86	36.31	-54.0	-62.9	3.8	7.48e-01	0	35	104	0	78	10688
2026-01-16 23:06:48.94	348.39	36.58	-54.0	-62.8	3.8	7.46e-01	0	34	104	0	78	10632
2026-01-16 23:06:49.95	347.91	36.85	-54.0	-62.9	3.8	7.45e-01	0	35	104	0	78	10678
2026-01-16 23:06:50.96	347.42	37.11	-54.0	-62.8	3.8	7.46e-01	0	35	104	0	78	10633
2026-01-16 23:06:51.97	346.91	37.38	-54.1	-62.9	3.8	7.44e-01	0	35	104	0	78	10689
2026-01-16 23:06:52.98	346.40	37.65	-54.0	-62.9	3.8	7.45e-01	0	34	104	0	78	10657
2026-01-16 23:06:53.99	345.88	37.91	-54.1	-62.9	3.8	7.46e-01	0	34	104	0	78	10699
2026-01-16 23:06:55.00	345.36	38.18	-54.0	-62.9	3.8	7.45e-01	0	35	104	0	78	10679
2026-01-16 23:06:56.00	344.82	38.45	-54.1	-62.9	3.8	7.45e-01	0	34	104	0	78	10715
2026-01-16 23:06:57.01	344.28	38.71	-54.1	-62.9	3.8	7.45e-01	0	35	104	0	78	10694
2026-01-16 23:06:58.02	343.72	38.98	-54.1	-62.9	3.8	7.44e-01	0	35	104	0	78	10719
2026-01-16 23:06:59.03	343.15	39.24	-54.1	-62.9	3.8	7.46e-01	0	35	104	0	78	10716
2026-01-16 23:07:00.04	342.58	39.51	-54.1	-62.9	3.8	7.46e-01	0	35	104	0	78	10727
2026-01-16 23:07:01.05	341.99	39.77	-54.1	-62.9	3.8	7.45e-01	0	35	104	0	78	10729
2026-01-16 23:07:02.06	341.39	40.03	-54.1	-62.9	3.8	7.46e-01	0	35	104	0	78	10760
2026-01-16 23:07:03.06	340.79	40.29	-54.1	-62.9	3.8	7.45e-01	0	34	104	0	78	10740
2026-01-16 23:07:04.07	340.18	40.55	-54.1	-62.9	3.8	7.46e-01	0	34	104	0	78	10759
2026-01-16 23:07:05.08	339.55	40.81	-54.1	-62.9	3.8	7.44e-01	0	35	104	0	78	10719
2026-01-16 23:07:06.09	338.91	41.07	-54.1	-63.0	3.8	7.44e-01	0	35	104	0	78	10790
2026-01-16 23:07:07.10	338.26	41.32	-54.1	-62.9	3.8	7.45e-01	0	35	104	0	78	10717
2026-01-16 23:07:08.11	337.60	41.58	-54.1	-62.9	3.8	7.45e-01	0	35	104	0	78	10760
2026-01-16 23:07:09.12	336.93	41.83	-54.1	-62.9	3.8	7.45e-01	0	35	104	0	78	10736
2026-01-16 23:07:10.12	336.26	42.07	-54.1	-62.9	3.8	7.45e-01	0	35	104	0	78	10766
2026-01-16 23:07:11.14	335.56	42.32	-54.1	-62.9	3.8	7.46e-01	0	35	104	0	78	10759
2026-01-16 23:07:12.14	334.86	42.56	-54.1	-63.0	3.8	7.46e-01	0	34	104	0	78	10779
2026-01-16 23:07:13.15	334.15	42.80	-54.1	-62.9	3.8	7.44e-01	0	35	104	0	78	10768
2026-01-16 23:07:14.16	333.42	43.04	-54.2	-63.0	3.8	7.44e-01	0	35	104	0	78	10811
2026-01-16 23:07:15.17	332.69	43.27	-54.1	-62.9	3.8	7.44e-01	0	35	104	0	78	10759
2026-01-16 23:07:16.18	331.94	43.50	-54.1	-63.0	3.8	7.44e-01	0	34	104	0	78	10822
2026-01-16 23:07:17.19	331.18	43.73	-54.2	-63.0	3.8	7.47e-01	0	34	104	0	78	10827
2026-01-16 23:07:18.20	330.41	43.95	-54.2	-63.0	3.8	7.47e-01	0	34	104	0	78	10814
2026-01-16 23:07:19.20	329.63	44.16	-54.2	-63.0	3.8	7.45e-01	0	35	104	0	78	10797
2026-01-16 23:07:20.21	328.84	44.38	-54.2	-63.0	3.8	7.47e-01	0	35	104	0	78	10835
2026-01-16 23:07:21.22	328.04	44.58	-54.2	-63.0	3.8	7.45e-01	0	34	104	0	78	10860
2026-01-16 23:07:22.23	327.22	44.79	-54.2	-63.0	3.8	7.45e-01	0	34	104	0	78	10782
2026-01-16 23:07:23.24	326.40	44.99	-54.2	-63.0	3.8	7.46e-01	0	35	104	0	78	10871
2026-01-16 23:07:24.25	325.56	45.18	-54.2	-63.0	3.8	7.45e-01	0	34	104	0	78	10832
2026-01-16 23:07:25.25	324.72	45.36	-54.2	-63.0	3.8	7.43e-01	0	35	104	0	78	10877
2026-01-16 23:07:26.27	323.86	45.55	-54.2	-63.0	3.8	7.45e-01	0	35	104	0	78	10875
2026-01-16 23:07:27.28	322.99	45.72	-54.2	-63.0	3.8	7.45e-01	0	35	104	0	78	10827
2026-01-16 23:07:28.29	322.11	45.89	-54.2	-63.0	3.8	7.44e-01	0	35	104	0	78	10848
2026-01-16 23:07:29.30	321.23	46.05	-54.2	-63.0	3.8	7.45e-01	0	35	104	0	78	10891
2026-01-16 23:07:30.31	320.33	46.21	-54.2	-63.0	3.8	7.47e-01	0	35	104	0	78	10810
2026-01-16 23:07:31.32	319.43	46.36	-54.2	-63.0	3.8	7.44e-01	0	35	104	0	78	10845
2026-01-16 23:07:32.32	318.52	46.50	-54.2	-63.0	3.8	7.45e-01	0	34	104	0	78	10837
2026-01-16 23:07:33.33	317.60	46.63	-54.2	-63.0	3.8	7.45e-01	0	35	104	0	78	10882
2026-01-16 23:07:34.34	316.67	46.76	-54.2	-63.0	3.8	7.44e-01	0	35	104	0	78	10853
2026-01-16 23:07:35.35	315.73	46.88	-54.2	-63.0	3.8	7.45e-01	0	35	104	0	78	10844
2026-01-16 23:07:36.36	314.79	46.99	-54.2	-63.0	3.8	7.46e-01	0	35	104	0	78	10870
2026-01-16 23:07:37.37	313.84	47.09	-54.2	-63.1	3.8	7.46e-01	0	35	104	0	78	10918
2026-01-16 23:07:38.38	312.88	47.19	-54.2	-63.0	3.8	7.45e-01	0	35	104	0	78	10839
2026-01-16 23:07:39.38	311.93	47.28	-54.2	-63.0	3.8	7.45e-01	0	35	104	0	78	10842
2026-01-16 23:07:40.39	310.96	47.35	-54.2	-63.0	3.8	7.46e-01	0	35	104	0	78	10856
2026-01-16 23:07:41.40	309.98	47.42	-54.2	-63.0	3.8	7.46e-01	0	35	104	0	78	10866
2026-01-16 23:07:42.41	309.00	47.48	-54.2	-63.0	3.8	7.45e-01	0	35	104	0	79	10264
2026-01-16 23:07:43.42	308.02	47.54	-54.2	-63.0	3.8	7.45e-01	0	35	104	0	79	10291
2026-01-16 23:07:44.43	307.04	47.58	-54.2	-63.1	3.8	7.45e-01	0	35	104	0	79	10317
2026-01-16 23:07:45.44	306.05	47.61	-54.2	-63.1	3.8	7.46e-01	0	34	104	0	79	10306
2026-01-16 23:07:46.45	305.06	47.64	-54.2	-63.1	3.8	7.44e-01	0	35	104	0	79	10308
2026-01-16 23:07:47.46	304.07	47.66	-54.2	-63.1	3.8	7.44e-01	0	34	104	0	79	10345
2026-01-16 23:07:48.47	303.08	47.66	-54.3	-63.1	3.8	7.47e-01	0	35	104	0	79	10316
2026-01-16 23:07:49.48	302.09	47.66	-54.3	-63.1	3.8	7.45e-01	0	34	104	0	79	10388
2026-01-16 23:07:50.48	301.10	47.65	-54.3	-63.1	3.8	7.46e-01	0	35	104	0	79	10354
2026-01-16 23:07:51.49	300.11	47.63	-54.3	-63.1	3.8	7.45e-01	0	34	104	0	79	10320
2026-01-16 23:07:52.50	299.13	47.60	-54.3	-63.1	3.8	7.47e-01	0	35	104	0	79	10355
2026-01-16 23:07:53.51	298.14	47.57	-54.3	-63.1	3.8	7.44e-01	0	35	104	0	79	10337
2026-01-16 23:07:54.52	297.15	47.52	-54.3	-63.1	3.8	7.46e-01	0	35	104	0	79	10331
2026-01-16 23:07:55.52	296.18	47.46	-54.3	-63.1	3.8	7.44e-01	0	34	104	0	79	10338
2026-01-16 23:07:56.53	295.21	47.40	-54.3	-63.1	3.8	7.46e-01	0	34	104	0	79	10384
2026-01-16 23:07:57.54	294.23	47.33	-54.3	-63.1	3.8	7.45e-01	0	34	104	0	79	10371
2026-01-16 23:07:58.55	293.27	47.24	-54.3	-63.1	3.8	7.45e-01	0	35	104	0	79	10373
2026-01-16 23:07:59.56	292.30	47.15	-54.3	-63.1	3.8	7.46e-01	0	35	104	0	79	10375
2026-01-16 23:08:00.56	291.36	47.06	-54.3	-63.1	3.8	7.44e-01	0	35	104	0	79	10359
2026-01-16 23:08:01.57	290.41	46.95	-54.3	-63.1	3.8	7.45e-01	0	35	104	0	79	10337
2026-01-16 23:08:02.58	289.46	46.84	-54.3	-63.1	3.8	7.45e-01	0	35	104	0	79	10328
2026-01-16 23:08:03.59	288.53	46.71	-54.3	-63.1	3.8	7.44e-01	0	35	104	0	79	10359
2026-01-16 23:08:04.60	287.60	46.58	-54.3	-63.1	3.8	7.46e-01	0	35	104	0	79	10374
2026-01-16 23:08:05.60	286.69	46.45	-54.3	-63.1	3.8	7.44e-01	0	35	104	0	79	10361
2026-01-16 23:08:06.61	285.78	46.30	-54.3	-63.1	3.8	7.46e-01	0	35	104	0	79	10373
2026-01-16 23:08:07.62	284.88	46.15	-54.3	-63.1	3.8	7.46e-01	0	35	104	0	79	10345
2026-01-16 23:08:08.63	283.98	45.99	-54.3	-63.1	3.8	7.47e-01	0	35	104	0	79	10369
2026-01-16 23:08:09.64	283.10	45.83	-54.3	-63.1	3.8	7.45e-01	0	35	104	0	79	10350
2026-01-16 23:08:10.64	282.23	45.66	-54.2	-63.1	3.8	7.44e-01	0	35	104	0	79	10318
2026-01-16 23:08:11.65	281.37	45.48	-54.3	-63.1	3.8	7.45e-01	0	35	104	0	79	10353
2026-01-16 23:08:12.66	280.51	45.30	-54.3	-63.1	3.8	7.44e-01	0	35	104	0	79	10346
2026-01-16 23:08:13.67	279.67	45.11	-54.3	-63.1	3.8	7.46e-01	0	35	104	0	79	10322
2026-01-16 23:08:14.68	278.84	44.91	-54.3	-63.1	3.8	7.45e-01	0	35	104	0	79	10325
2026-01-16 23:08:15.69	278.01	44.71	-54.2	-63.1	3.8	7.46e-01	0	34	104	0	79	10336
2026-01-16 23:08:16.70	277.20	44.51	-54.2	-63.1	3.8	7.45e-01	0	35	104	0	79	10296
2026-01-16 23:08:17.71	276.40	44.30	-54.3	-63.1	3.8	7.46e-01	0	35	104	0	79	10370
2026-01-16 23:08:18.72	275.61	44.08	-54.2	-63.1	3.8	7.46e-01	0	35	104	0	79	10307
2026-01-16 23:08:19.73	274.83	43.86	-54.2	-63.1	3.8	7.46e-01	0	35	104	0	79	10299
2026-01-16 23:08:20.74	274.06	43.64	-54.2	-63.1	3.8	7.44e-01	0	34	104	0	79	10368
2026-01-16 23:08:21.74	273.32	43.41	-54.3	-63.1	3.8	7.46e-01	0	34	104	0	79	10360
2026-01-16 23:08:22.75	272.57	43.18	-54.2	-63.1	3.8	7.45e-01	0	35	104	0	79	10294
2026-01-16 23:08:23.76	271.84	42.95	-54.2	-63.0	3.8	7.44e-01	0	35	104	0	79	10292
2026-01-16 23:08:24.77	271.11	42.71	-54.2	-63.1	3.8	7.46e-01	0	35	104	0	79	10323
2026-01-16 23:08:25.78	270.40	42.47	-54.2	-63.1	3.8	7.45e-01	0	35	104	0	79	10332
2026-01-16 23:08:26.78	269.71	42.22	-54.2	-63.1	3.8	7.46e-01	0	35	104	0	79	10330
2026-01-16 23:08:27.79	269.02	41.98	-54.2	-63.1	3.8	7.46e-01	0	35	104	0	79	10299
2026-01-16 23:08:28.80	268.34	41.73	-54.2	-63.1	3.8	7.45e-01	0	35	104	0	79	10336
2026-01-16 23:08:29.81	267.67	41.47	-54.2	-63.0	3.8	7.45e-01	0	35	104	0	79	10267
2026-01-16 23:08:30.82	267.01	41.22	-54.2	-63.1	3.8	7.45e-01	0	35	104	0	79	10298
2026-01-16 23:08:31.83	266.37	40.96	-54.2	-63.1	3.8	7.45e-01	0	35	104	0	79	10308
2026-01-16 23:08:32.84	265.73	40.71	-54.2	-63.0	3.8	7.45e-01	0	35	104	0	79	10276
2026-01-16 23:08:33.84	265.11	40.45	-54.2	-63.1	3.8	7.46e-01	0	35	104	0	79	10294
2026-01-16 23:08:34.85	264.50	40.19	-54.2	-63.0	3.8	7.45e-01	0	35	104	0	79	10289
2026-01-16 23:08:35.86	263.89	39.92	-54.2	-63.0	3.8	7.44e-01	0	35	104	0	79	10269
2026-01-16 23:08:36.87	263.30	39.66	-54.2	-63.0	3.8	7.47e-01	0	35	104	0	79	10269
2026-01-16 23:08:37.88	262.72	39.40	-54.2	-63.1	3.8	7.45e-01	0	35	104	0	79	10317
2026-01-16 23:08:38.89	262.14	39.13	-54.2	-63.1	3.8	7.45e-01	0	35	104	0	79	10315
2026-01-16 23:08:39.90	261.58	38.86	-54.2	-63.0	3.8	7.45e-01	0	35	104	0	79	10282
2026-01-16 23:08:40.90	261.03	38.60	-54.2	-63.0	3.8	7.45e-01	0	35	104	0	79	10269
2026-01-16 23:08:41.91	260.48	38.33	-54.2	-63.0	3.8	7.46e-01	0	35	104	0	79	10250
2026-01-16 23:08:42.92	259.95	38.06	-54.2	-63.0	3.8	7.45e-01	0	35	104	0	79	10245
2026-01-16 23:08:43.93	259.42	37.80	-54.2	-63.0	3.8	7.46e-01	0	35	104	0	79	10266
2026-01-16 23:08:44.94	258.90	37.53	-54.2	-63.0	3.8	7.45e-01	0	35	104	0	79	10242
2026-01-16 23:08:45.94	258.40	37.26	-54.2	-63.0	3.8	7.45e-01	0	35	104	0	79	10232
2026-01-16 23:08:46.95	257.90	36.99	-54.2	-63.0	3.8	7.45e-01	0	35	104	0	79	10255
2026-01-16 23:08:47.96	257.41	36.73	-54.2	-63.0	3.8	7.46e-01	0	35	104	0	79	10230
2026-01-16 23:08:48.97	256.93	36.46	-54.2	-63.0	3.8	7.45e-01	0	35	104	0	79	10232
2026-01-16 23:08:49.98	256.45	36.19	-54.2	-63.0	3.8	7.45e-01	0	34	104	0	79	10221
2026-01-16 23:08:50.98	255.99	35.93	-54.2	-63.0	3.8	7.45e-01	0	35	104	0	79	10226
2026-01-16 23:08:51.99	255.53	35.66	-54.1	-63.0	3.8	7.46e-01	0	35	104	0	79	10260
2026-01-16 23:08:53.00	255.08	35.40	-54.1	-63.0	3.8	7.46e-01	0	35	104	0	79	10227
2026-01-16 23:08:54.01	254.64	35.13	-54.1	-63.0	3.8	7.44e-01	0	35	104	0	79	10205
2026-01-16 23:08:55.01	254.21	34.87	-54.1	-63.0	3.8	7.47e-01	0	35	104	0	79	10191
2026-01-16 23:08:56.02	253.78	34.61	-54.1	-63.0	3.8	7.44e-01	0	35	104	0	79	10193
2026-01-16 23:08:57.03	253.36	34.34	-54.1	-63.0	3.8	7.46e-01	0	35	104	0	79	10188
2026-01-16 23:08:58.04	252.95	34.08	-54.1	-62.9	3.8	7.46e-01	0	35	104	0	79	10173
2026-01-16 23:08:59.04	252.55	33.82	-54.1	-63.0	3.8	7.46e-01	0	35	104	0	79	10192
2026-01-16 23:09:00.05	252.15	33.56	-54.1	-62.9	3.8	7.44e-01	0	35	104	0	79	10138
2026-01-16 23:09:01.06	251.76	33.31	-54.1	-62.9	3.8	7.45e-01	0	35	104	0	79	10162
2026-01-16 23:09:02.07	251.37	33.05	-54.1	-62.9	3.8	7.45e-01	0	35	104	0	79	10154
2026-01-16 23:09:03.07	251.00	32.79	-54.1	-62.9	3.8	7.45e-01	0	35	104	0	79	10137
2026-01-16 23:09:04.08	250.62	32.54	-54.1	-62.9	3.8	7.44e-01	0	35	104	0	79	10145
2026-01-16 23:09:05.09	250.26	32.29	-54.1	-62.9	3.8	7.44e-01	0	35	104	0	79	10106
2026-01-16 23:09:06.10	249.90	32.03	-54.1	-62.9	3.8	7.46e-01	0	35	104	0	79	10084
2026-01-16 23:09:07.11	249.54	31.78	-54.0	-62.9	3.8	7.44e-01	0	35	104	0	79	10124
2026-01-16 23:09:08.12	249.19	31.53	-54.1	-62.9	3.8	7.46e-01	0	35	104	0	79	10124
2026-01-16 23:09:09.13	248.85	31.28	-54.0	-62.9	3.8	7.46e-01	0	35	104	0	79	10138
2026-01-16 23:09:10.14	248.51	31.04	-54.0	-62.9	3.8	7.45e-01	0	35	104	0	79	10145
2026-01-16 23:09:11.14	248.19	30.79	-54.0	-62.9	3.8	7.45e-01	0	35	104	0	79	10085
2026-01-16 23:09:12.15	247.86	30.55	-54.0	-62.8	3.8	7.45e-01	0	35	104	0	79	10040
2026-01-16 23:09:13.16	247.54	30.31	-54.0	-62.9	3.8	7.46e-01	0	35	104	0	79	10097
2026-01-16 23:09:14.17	247.22	30.07	-54.0	-62.8	3.8	7.45e-01	0	35	104	0	79	10052
2026-01-16 23:09:15.18	246.91	29.83	-54.0	-62.8	3.8	7.44e-01	0	35	104	0	79	10054
2026-01-16 23:09:16.18	246.61	29.59	-54.0	-62.8	3.8	7.45e-01	0	35	104	0	79	10029
2026-01-16 23:09:17.19	246.31	29.35	-54.0	-62.8	3.8	7.46e-01	0	35	104	0	79	10031
2026-01-16 23:09:18.20	246.01	29.12	-54.0	-62.8	3.8	7.45e-01	0	35	104	0	79	10054
2026-01-16 23:09:19.21	245.72	28.89	-54.0	-62.8	3.8	7.45e-01	0	35	104	0	79	10051
2026-01-16 23:09:20.22	245.43	28.65	-54.0	-62.8	3.8	7.45e-01	0	35	104	0	79	10023
2026-01-16 23:09:21.22	245.15	28.43	-54.0	-62.8	3.8	7.46e-01	0	35	104	0	79	10008
2026-01-16 23:09:22.23	244.88	28.20	-54.0	-62.8	3.8	7.46e-01	0	35	104	0	79	10023
2026-01-16 23:09:23.24	244.60	27.97	-54.0	-62.8	3.8	7.46e-01	0	35	104	0	79	9996
2026-01-16 23:09:24.25	244.33	27.74	-54.0	-62.8	3.8	7.46e-01	0	35	104	0	79	10009
2026-01-16 23:09:25.26	244.07	27.52	-54.0	-62.8	3.8	7.46e-01	0	35	104	0	79	10008
2026-01-16 23:09:26.26	243.81	27.30	-54.0	-62.8	3.8	7.45e-01	0	35	104	0	79	10007
2026-01-16 23:09:27.27	243.55	27.08	-53.9	-62.8	3.8	7.46e-01	0	35	104	0	79	9987
2026-01-16 23:09:28.28	243.30	26.86	-53.9	-62.8	3.8	7.46e-01	0	35	104	0	79	9998
2026-01-16 23:09:29.29	243.05	26.64	-53.9	-62.8	3.8	7.45e-01	0	35	104	0	79	9977
2026-01-16 23:09:30.30	242.81	26.42	-53.9	-62.8	3.8	7.45e-01	0	35	104	0	79	9985
2026-01-16 23:09:31.30	242.57	26.21	-53.9	-62.8	3.8	7.45e-01	0	35	104	0	79	9947
2026-01-16 23:09:32.31	242.33	26.00	-53.9	-62.8	3.8	7.45e-01	0	35	104	0	79	10000
2026-01-16 23:09:33.32	242.09	25.79	-53.9	-62.8	3.8	7.44e-01	0	35	104	0	79	9958
2026-01-16 23:09:34.33	241.86	25.58	-53.9	-62.8	3.8	7.46e-01	0	35	104	0	79	9996
2026-01-16 23:09:35.33	241.64	25.37	-53.9	-62.7	3.8	7.46e-01	0	35	104	0	79	9935
2026-01-16 23:09:36.34	241.41	25.16	-53.9	-62.7	3.8	7.46e-01	0	35	104	0	79	9896
2026-01-16 23:09:37.35	241.19	24.96	-53.9	-62.7	3.8	7.45e-01	0	35	104	0	79	9944
2026-01-16 23:09:38.36	240.97	24.75	-53.9	-62.7	3.8	7.46e-01	0	34	104	0	79	9885
2026-01-16 23:09:39.36	240.76	24.55	-53.9	-62.7	3.8	7.44e-01	0	35	104	0	79	9930
2026-01-16 23:09:40.37	240.55	24.35	-53.9	-62.7	3.8	7.45e-01	0	35	104	0	79	9928
2026-01-16 23:09:41.38	240.34	24.15	-53.9	-62.7	3.8	7.45e-01	0	34	104	0	79	9867
2026-01-16 23:09:42.39	240.13	23.95	-53.9	-62.7	3.8	7.46e-01	0	35	104	0	79	9899
2026-01-16 23:09:43.40	239.93	23.76	-53.9	-62.7	3.8	7.46e-01	0	35	104	0	79	9911
2026-01-16 23:09:44.40	239.73	23.56	-53.9	-62.7	3.8	7.45e-01	0	35	104	0	79	9901
2026-01-16 23:09:45.41	239.54	23.37	-53.8	-62.7	3.8	7.44e-01	0	35	104	0	79	9848
2026-01-16 23:09:46.42	239.34	23.18	-53.8	-62.7	3.8	7.45e-01	0	35	104	0	79	9872
2026-01-16 23:09:47.43	239.15	22.99	-53.8	-62.7	3.8	7.45e-01	0	35	104	0	79	9876
2026-01-16 23:09:48.44	238.96	22.80	-53.8	-62.7	3.8	7.45e-01	0	35	104	0	79	9899
2026-01-16 23:09:49.44	238.77	22.61	-53.8	-62.7	3.8	7.46e-01	0	35	104	0	79	9832
2026-01-16 23:09:50.45	238.59	22.42	-53.8	-62.7	3.8	7.45e-01	0	35	104	0	79	9840
2026-01-16 23:09:51.46	238.41	22.24	-53.8	-62.7	3.8	7.46e-01	0	35	104	0	79	9847
2026-01-16 23:09:52.47	238.23	22.06	-53.8	-62.6	3.8	7.45e-01	0	35	104	0	79	9827
2026-01-16 23:09:53.47	238.06	21.88	-53.8	-62.6	3.8	7.46e-01	0	35	104	0	79	9812
2026-01-16 23:09:54.48	237.88	21.69	-53.8	-62.6	3.8	7.44e-01	0	35	104	0	79	9827
2026-01-16 23:09:55.49	237.71	21.51	-53.8	-62.6	3.8	7.44e-01	0	35	104	0	79	9800
2026-01-16 23:09:56.50	237.54	21.34	-53.8	-62.6	3.8	7.45e-01	0	35	104	0	79	9796
2026-01-16 23:09:57.51	237.37	21.16	-53.8	-62.6	3.8	7.45e-01	0	35	104	0	79	9802
2026-01-16 23:09:58.52	237.21	20.98	-53.8	-62.6	3.8	7.45e-01	0	35	104	0	79	9788
2026-01-16 23:09:59.52	237.04	20.81	-53.8	-62.6	3.8	7.45e-01	0	35	104	0	79	9768
2026-01-16 23:10:00.53	236.88	20.64	-53.8	-62.6	3.8	7.44e-01	0	35	104	0	79	9760
2026-01-16 23:10:01.54	236.72	20.47	-53.7	-62.6	3.8	7.45e-01	0	35	104	0	79	9743
2026-01-16 23:10:02.55	236.57	20.29	-53.8	-62.6	3.8	7.47e-01	0	35	104	0	79	9738
2026-01-16 23:10:03.56	236.41	20.13	-53.7	-62.6	3.8	7.45e-01	0	35	104	0	79	9749
2026-01-16 23:10:04.56	236.26	19.96	-53.7	-62.6	3.8	7.45e-01	0	35	104	0	79	9718
2026-01-16 23:10:05.57	236.11	19.79	-53.7	-62.6	3.8	7.46e-01	0	35	104	0	79	9732
2026-01-16 23:10:06.58	235.96	19.63	-53.7	-62.6	3.8	7.47e-01	0	35	104	0	79	9724
2026-01-16 23:10:07.59	235.81	19.46	-53.7	-62.6	3.8	7.46e-01	0	35	104	0	79	9761
2026-01-16 23:10:08.60	235.67	19.30	-53.7	-62.5	3.8	7.45e-01	0	35	104	0	79	9689
2026-01-16 23:10:09.60	235.53	19.14	-53.7	-62.5	3.8	7.44e-01	0	35	104	0	79	9660
2026-01-16 23:10:10.61	235.38	18.98	-53.7	-62.5	3.8	7.45e-01	0	35	104	0	79	9694
2026-01-16 23:10:11.62	235.24	18.82	-53.7	-62.5	3.8	7.45e-01	0	35	104	0	79	9707
2026-01-16 23:10:12.63	235.11	18.66	-53.7	-62.5	3.8	7.45e-01	0	35	104	0	79	9676
2026-01-16 23:10:13.64	234.97	18.50	-53.7	-62.5	3.8	7.46e-01	0	35	104	0	79	9642
2026-01-16 23:10:14.65	234.83	18.34	-53.7	-62.5	3.8	7.46e-01	0	35	104	0	79	9665
2026-01-16 23:10:15.66	234.70	18.19	-53.7	-62.5	3.8	7.46e-01	0	35	104	0	79	9658
2026-01-16 23:10:16.67	234.57	18.04	-53.6	-62.5	3.8	7.45e-01	0	35	104	0	79	9616
2026-01-16 23:10:17.68	234.44	17.88	-53.6	-62.5	3.8	7.45e-01	0	35	104	0	79	9623
2026-01-16 23:10:18.68	234.31	17.73	-53.7	-62.5	3.8	7.45e-01	0	35	104	0	79	9641
2026-01-16 23:10:19.69	234.18	17.58	-53.6	-62.5	3.8	7.46e-01	0	35	104	0	79	9640
2026-01-16 23:10:20.70	234.06	17.43	-53.6	-62.5	3.8	7.45e-01	0	35	104	0	79	9616
2026-01-16 23:10:21.71	233.93	17.28	-53.6	-62.5	3.8	7.45e-01	0	35	104	0	79	9629
2026-01-16 23:10:22.72	233.81	17.13	-53.6	-62.5	3.8	7.45e-01	0	35	104	0	79	9644
2026-01-16 23:10:23.73	233.69	16.99	-53.6	-62.4	3.8	7.46e-01	0	35	104	0	79	9600
2026-01-16 23:10:24.74	233.57	16.84	-53.6	-62.4	3.8	7.43e-01	0	35	104	0	79	9557
2026-01-16 23:10:25.74	233.45	16.70	-53.6	-62.4	3.8	7.44e-01	0	35	104	0	79	9553
2026-01-16 23:10:26.75	233.34	16.55	-53.6	-62.4	3.8	7.45e-01	0	35	104	0	79	9602
2026-01-16 23:10:27.76	233.22	16.41	-53.6	-62.4	3.8	7.45e-01	0	35	104	0	79	9596
2026-01-16 23:10:28.77	233.11	16.27	-53.6	-62.4	3.8	7.45e-01	0	35	104	0	79	9572
2026-01-16 23:10:29.78	232.99	16.13	-53.5	-62.4	3.8	7.45e-01	0	35	104	0	79	9498
2026-01-16 23:10:30.79	232.88	15.99	-53.6	-62.4	3.8	7.45e-01	0	35	104	0	79	9561
2026-01-16 23:10:31.80	232.77	15.85	-53.6	-62.4	3.8	7.46e-01	0	35	104	0	79	9542
2026-01-16 23:10:32.80	232.66	15.71	-53.5	-62.3	3.8	7.45e-01	0	35	104	0	79	9496
2026-01-16 23:10:33.81	232.55	15.58	-53.5	-62.4	3.8	7.46e-01	0	35	104	0	79	9511
2026-01-16 23:10:34.82	232.45	15.44	-53.5	-62.4	3.8	7.47e-01	0	35	104	0	79	9548
2026-01-16 23:10:35.83	232.34	15.30	-53.5	-62.4	3.8	7.44e-01	0	35	104	0	79	9516
2026-01-16 23:10:36.84	232.24	15.17	-53.5	-62.3	3.8	7.45e-01	0	35	104	0	79	9459
2026-01-16 23:10:37.85	232.13	15.04	-53.5	-62.4	3.8	7.48e-01	0	35	104	0	79	9514
2026-01-16 23:10:38.86	232.03	14.90	-53.5	-62.4	3.8	7.45e-01	0	35	104	0	79	9529
2026-01-16 23:10:39.86	231.93	14.77	-53.5	-62.3	3.8	7.44e-01	0	35	104	0	79	9477
2026-01-16 23:10:40.87	231.83	14.64	-53.5	-62.3	3.8	7.46e-01	0	35	104	0	79	9459
2026-01-16 23:10:41.88	231.73	14.51	-53.4	-62.3	3.8	7.45e-01	0	35	104	0	78	10035
2026-01-16 23:10:42.89	231.63	14.38	-53.5	-62.3	3.8	7.44e-01	0	35	104	0	78	10033
2026-01-16 23:10:43.90	231.54	14.25	-53.5	-62.3	3.8	7.46e-01	0	35	104	0	78	10014
2026-01-16 23:10:44.91	231.44	14.13	-53.4	-62.3	3.8	7.46e-01	0	35	104	0	78	9973
2026-01-16 23:10:45.92	231.34	14.00	-53.4	-62.3	3.8	7.47e-01	0	35	104	0	78	9996
2026-01-16 23:10:46.93	231.25	13.87	-53.5	-62.3	3.8	7.44e-01	0	35	104	0	78	9985
2026-01-16 23:10:47.94	231.16	13.75	-53.4	-62.3	3.8	7.45e-01	0	35	104	0	78	9998
2026-01-16 23:10:48.94	231.07	13.62	-53.4	-62.3	3.8	7.44e-01	0	35	104	0	78	9968
2026-01-16 23:10:49.95	230.98	13.50	-53.4	-62.2	3.8	7.47e-01	0	35	104	0	78	9923
2026-01-16 23:10:50.96	230.88	13.38	-53.4	-62.3	3.8	7.46e-01	0	35	104	0	78	9980
2026-01-16 23:10:51.97	230.80	13.25	-53.4	-62.3	3.8	7.44e-01	0	35	104	0	78	9950
2026-01-16 23:10:52.98	230.71	13.13	-53.4	-62.2	3.8	7.45e-01	0	35	104	0	78	9920
2026-01-16 23:10:53.99	230.62	13.01	-53.4	-62.2	3.8	7.46e-01	0	35	104	0	78	9937
2026-01-16 23:10:55.00	230.53	12.89	-53.4	-62.2	3.8	7.44e-01	0	35	104	0	78	9936
2026-01-16 23:10:56.01	230.45	12.77	-53.4	-62.2	3.8	7.45e-01	0	35	104	0	78	9932
2026-01-16 23:10:57.02	230.36	12.65	-53.4	-62.2	3.8	7.46e-01	0	35	104	0	78	9880
2026-01-16 23:10:58.02	230.28	12.54	-53.4	-62.2	3.8	7.47e-01	0	35	104	0	78	9905
2026-01-16 23:10:59.03	230.20	12.42	-53.4	-62.2	3.8	7.45e-01	0	35	104	0	78	9942
2026-01-16 23:11:00.04	230.11	12.30	-53.4	-62.2	3.8	7.46e-01	0	35	104	0	78	9906
2026-01-16 23:11:01.05	230.03	12.19	-53.4	-62.2	3.8	7.45e-01	0	35	104	0	78	9893
2026-01-16 23:11:02.06	229.95	12.07	-53.4	-62.2	3.8	7.45e-01	0	35	104	0	78	9908
2026-01-16 23:11:03.07	229.87	11.96	-53.4	-62.2	3.8	7.45e-01	0	35	104	0	78	9914
2026-01-16 23:11:04.08	229.79	11.84	-53.4	-62.2	3.8	7.44e-01	0	35	104	0	78	9901
2026-01-16 23:11:05.08	229.72	11.73	-53.3	-62.1	3.8	7.45e-01	0	35	104	0	78	9823
2026-01-16 23:11:06.09	229.64	11.62	-53.3	-62.2	3.8	7.44e-01	0	35	104	0	78	9853
2026-01-16 23:11:07.10	229.56	11.51	-53.4	-62.2	3.8	7.44e-01	0	35	104	0	78	9882
2026-01-16 23:11:08.11	229.48	11.40	-53.4	-62.2	3.8	7.47e-01	0	35	104	0	78	9867
2026-01-16 23:11:09.12	229.41	11.29	-53.3	-62.1	3.8	7.45e-01	0	35	104	0	78	9821
2026-01-16 23:11:10.12	229.34	11.18	-53.3	-62.1	3.8	7.47e-01	0	35	104	0	78	9815
2026-01-16 23:11:11.13	229.26	11.07	-53.3	-62.1	3.8	7.45e-01	0	35	104	0	78	9824
2026-01-16 23:11:12.14	229.19	10.96	-53.3	-62.2	3.8	7.47e-01	0	35	104	0	78	9832
2026-01-16 23:11:13.15	229.12	10.85	-53.3	-62.1	3.8	7.46e-01	0	35	104	0	78	9775
2026-01-16 23:11:14.16	229.04	10.74	-53.3	-62.1	3.8	7.47e-01	0	35	104	0	78	9814
2026-01-16 23:11:15.17	228.97	10.63	-53.3	-62.2	3.8	7.45e-01	0	35	104	0	78	9840
2026-01-16 23:11:16.18	228.90	10.53	-53.3	-62.2	3.8	7.44e-01	0	35	104	0	78	9833
2026-01-16 23:11:17.19	228.83	10.42	-53.2	-62.1	3.8	7.46e-01	0	35	104	0	78	9757
2026-01-16 23:11:18.19	228.76	10.32	-53.2	-62.1	3.8	7.45e-01	0	35	104	0	78	9748
2026-01-16 23:11:19.20	228.69	10.21	-53.3	-62.1	3.8	7.48e-01	0	35	104	0	78	9809
2026-01-16 23:11:20.21	228.63	10.11	-53.3	-62.1	3.8	7.47e-01	0	35	104	0	78	9780
2026-01-16 23:11:21.22	228.56	10.01	-53.2	-62.0	3.8	7.46e-01	0	35	104	0	78	9700
2026-01-16 23:11:22.23	228.49	9.90	-53.2	-62.1	3.8	7.45e-01	0	35	104	0	78	9727
2026-01-16 23:11:23.24	228.43	9.80	-53.2	-62.1	3.8	7.45e-01	0	35	104	0	78	9787
2026-01-16 23:11:24.24	228.36	9.70	-53.2	-62.1	3.8	7.45e-01	0	35	104	0	78	9737
2026-01-16 23:11:25.25	228.30	9.60	-53.2	-62.0	3.8	7.46e-01	0	35	104	0	78	9643
2026-01-16 23:11:26.26	228.23	9.50	-53.2	-62.0	3.8	7.44e-01	0	35	104	0	78	9676
2026-01-16 23:11:27.27	228.17	9.40	-53.2	-62.1	3.8	7.45e-01	0	35	104	0	78	9736
2026-01-16 23:11:28.28	228.10	9.30	-53.2	-62.0	3.8	7.45e-01	0	35	104	0	78	9674
2026-01-16 23:11:29.29	228.04	9.20	-53.1	-61.9	3.8	7.45e-01	0	35	104	0	78	9594
2026-01-16 23:11:30.30	227.98	9.10	-53.1	-62.0	3.8	7.45e-01	0	35	104	0	78	9646
2026-01-16 23:11:31.31	227.92	9.00	-53.2	-62.1	3.8	7.45e-01	0	35	104	0	78	9721
2026-01-16 23:11:32.32	227.86	8.90	-53.2	-62.0	3.8	7.46e-01	0	35	104	0	78	9618
2026-01-16 23:11:33.32	227.80	8.80	-53.1	-61.9	3.8	7.46e-01	0	35	104	0	78	9576
2026-01-16 23:11:34.33	227.74	8.71	-53.1	-61.9	3.8	7.44e-01	0	35	104	0	78	9556
2026-01-16 23:11:35.34	227.68	8.61	-53.1	-62.0	3.8	7.46e-01	0	35	104	0	78	9629
2026-01-16 23:11:36.35	227.62	8.51	-53.1	-62.0	3.8	7.46e-01	0	35	104	0	78	9614
2026-01-16 23:11:37.36	227.56	8.42	-53.1	-61.9	3.8	7.44e-01	0	35	104	0	78	9544
2026-01-16 23:11:38.37	227.50	8.32	-53.1	-61.9	3.8	7.44e-01	0	35	104	0	78	9576
2026-01-16 23:11:39.38	227.44	8.23	-53.1	-61.9	3.8	7.45e-01	0	35	104	0	78	9540
2026-01-16 23:11:40.38	227.39	8.14	-53.1	-61.9	3.8	7.46e-01	0	35	104	0	78	9545
2026-01-16 23:11:41.39	227.33	8.04	-53.0	-61.9	3.8	7.44e-01	0	35	104	0	78	9519
2026-01-16 23:11:42.40	227.28	7.95	-53.0	-61.9	3.8	7.46e-01	0	35	104	0	78	9542
2026-01-16 23:11:43.41	227.22	7.86	-53.1	-61.9	3.8	7.44e-01	0	35	104	0	78	9544
2026-01-16 23:11:44.42	227.17	7.76	-53.0	-61.9	3.8	7.46e-01	0	35	104	0	78	9535
2026-01-16 23:11:45.43	227.11	7.67	-53.0	-61.8	3.8	7.44e-01	0	35	104	0	78	9466
2026-01-16 23:11:46.44	227.06	7.58	-53.0	-61.8	3.8	7.44e-01	0	35	104	0	78	9492
2026-01-16 23:11:47.44	227.00	7.49	-53.0	-61.9	3.8	7.46e-01	0	35	104	0	78	9500
2026-01-16 23:11:48.45	226.95	7.40	-53.0	-61.9	3.8	7.46e-01	0	35	104	0	78	9497
2026-01-16 23:11:49.46	226.90	7.31	-52.9	-61.8	3.8	7.44e-01	0	35	104	0	77	9973
2026-01-16 23:11:50.47	226.84	7.22	-53.0	-61.8	3.8	7.45e-01	0	35	104	0	77	10003
2026-01-16 23:11:51.48	226.79	7.13	-53.0	-61.8	3.8	7.46e-01	0	34	104	0	77	10036
2026-01-16 23:11:52.48	226.74	7.04	-52.9	-61.8	3.8	7.47e-01	0	35	104	0	77	9979
2026-01-16 23:11:53.49	226.69	6.95	-52.9	-61.7	3.8	7.46e-01	0	35	104	0	77	9923
2026-01-16 23:11:54.50	226.64	6.86	-52.9	-61.8	3.8	7.44e-01	0	35	104	0	77	9971
2026-01-16 23:11:55.51	226.59	6.77	-53.0	-61.9	3.8	7.44e-01	0	35	104	0	77	10073
2026-01-16 23:11:56.52	226.54	6.69	-52.9	-61.7	3.8	7.45e-01	0	35	104	0	77	9920
2026-01-16 23:11:57.53	226.49	6.60	-52.8	-61.7	3.8	7.47e-01	0	35	104	0	77	9835
2026-01-16 23:11:58.54	226.44	6.51	-52.9	-61.7	3.8	7.45e-01	0	35	104	0	77	9896
2026-01-16 23:11:59.55	226.39	6.43	-52.9	-61.8	3.8	7.46e-01	0	35	104	0	77	9956
2026-01-16 23:12:00.55	226.34	6.34	-52.8	-61.6	3.8	7.45e-01	0	35	104	0	77	9808
2026-01-16 23:12:01.56	226.30	6.25	-52.7	-61.5	3.8	7.45e-01	0	35	104	0	77	9706
2026-01-16 23:12:02.57	226.25	6.17	-52.8	-61.7	3.8	7.44e-01	0	35	104	0	77	9852
2026-01-16 23:12:03.58	226.20	6.08	-52.8	-61.7	3.8	7.44e-01	0	35	104	0	77	9888
2026-01-16 23:12:04.59	226.16	6.00	-52.7	-61.6	3.8	7.45e-01	0	35	104	0	77	9725
2026-01-16 23:12:05.60	226.11	5.92	-52.7	-61.5	3.8	7.46e-01	0	35	104	0	77	9691
2026-01-16 23:12:06.60	226.06	5.83	-52.8	-61.6	3.8	7.46e-01	0	35	104	0	77	9783
2026-01-16 23:12:07.61	226.02	5.75	-52.8	-61.6	3.8	7.46e-01	0	35	104	0	77	9790
2026-01-16 23:12:08.62	225.97	5.67	-52.7	-61.5	3.8	7.45e-01	0	35	104	0	77	9641
2026-01-16 23:12:09.63	225.93	5.58	-52.6	-61.5	3.8	7.44e-01	0	35	104	0	77	9611
2026-01-16 23:12:10.64	225.88	5.50	-52.7	-61.6	3.8	7.46e-01	0	35	104	0	77	9742
2026-01-16 23:12:11.65	225.84	5.42	-52.7	-61.6	3.8	7.46e-01	0	35	104	0	77	9754
2026-01-16 23:12:12.66	225.79	5.34	-52.6	-61.5	3.8	7.44e-01	0	35	104	0	77	9616
2026-01-16 23:12:13.67	225.75	5.25	-52.6	-61.4	3.8	7.44e-01	0	35	104	0	77	9553
2026-01-16 23:12:14.68	225.71	5.17	-52.7	-61.5	3.8	7.45e-01	0	35	104	0	77	9651
2026-01-16 23:12:15.69	225.66	5.09	-52.7	-61.5	3.8	7.47e-01	0	35	104	0	77	9674
2026-01-16 23:12:16.70	225.62	5.01	-52.8	-61.6	3.8	7.46e-01	0	35	104	0	77	9789
2026-01-16 23:12:17.70	225.58	4.93	-53.2	-62.0	3.8	7.45e-01	0	34	104	0	77	10272
2026-01-16 23:12:18.71	225.54	4.85	-53.5	-62.3	3.8	7.45e-01	0	35	104	0	77	10592
2026-01-16 23:12:19.72	225.50	4.77	-53.6	-62.5	3.8	7.46e-01	0	35	104	0	77	10806
2026-01-16 23:12:20.73	225.45	4.69	-53.8	-62.6	3.8	7.46e-01	0	35	104	0	78	10369
2026-01-16 23:12:21.74	225.41	4.61	-53.9	-62.7	3.8	7.45e-01	0	35	104	0	78	10493
2026-01-16 23:12:22.75	225.37	4.53	-54.0	-62.8	3.8	7.46e-01	0	35	104	0	78	10590
2026-01-16 23:12:23.76	225.33	4.46	-54.0	-62.9	3.8	7.46e-01	0	35	104	0	78	10691
2026-01-16 23:12:24.77	225.29	4.38	-54.1	-62.9	3.8	7.43e-01	0	35	104	0	78	10723
2026-01-16 23:12:25.78	225.25	4.30	-54.1	-63.0	3.8	7.46e-01	0	35	104	0	78	10800
2026-01-16 23:12:26.78	225.21	4.22	-54.1	-63.0	3.8	7.45e-01	0	35	104	0	78	10815
2026-01-16 23:12:27.79	225.17	4.15	-54.2	-63.0	3.8	7.46e-01	0	35	104	0	78	10891
2026-01-16 23:12:28.80	225.13	4.07	-54.2	-63.0	3.8	7.43e-01	0	35	104	0	78	10876
2026-01-16 23:12:29.81	225.10	3.99	-54.2	-63.1	3.8	7.46e-01	0	35	104	0	79	10381
2026-01-16 23:12:30.82	225.06	3.91	-54.2	-63.1	3.8	7.46e-01	0	35	104	0	79	10337
2026-01-16 23:12:31.83	225.02	3.84	-54.3	-63.1	3.8	7.45e-01	0	35	104	0	79	10322
2026-01-16 23:12:32.84	224.98	3.76	-54.3	-63.1	3.8	7.45e-01	0	35	104	0	79	10382
2026-01-16 23:12:33.85	224.94	3.69	-54.3	-63.1	3.8	7.47e-01	0	35	104	0	79	10350
2026-01-16 23:12:34.86	224.91	3.61	-54.3	-63.1	3.8	7.46e-01	0	35	104	0	79	10342
2026-01-16 23:12:35.87	224.87	3.54	-54.2	-63.1	3.8	7.44e-01	0	35	104	0	79	10370
2026-01-16 23:12:36.87	224.83	3.46	-54.2	-63.1	3.8	7.44e-01	0	35	104	0	79	10306
2026-01-16 23:12:37.88	224.80	3.39	-54.2	-63.1	3.8	7.46e-01	0	34	104	0	79	10321
2026-01-16 23:12:38.89	224.76	3.31	-54.2	-63.1	3.8	7.45e-01	0	35	104	0	79	10347
2026-01-16 23:12:39.90	224.72	3.24	-54.2	-63.0	3.8	7.45e-01	0	35	104	0	79	10275
2026-01-16 23:12:40.90	224.69	3.17	-54.2	-63.0	3.8	7.46e-01	0	35	104	0	79	10254
2026-01-16 23:12:41.91	224.65	3.09	-54.2	-63.0	3.8	7.43e-01	0	35	104	0	79	10249
2026-01-16 23:12:42.92	224.62	3.02	-54.2	-63.0	3.8	7.47e-01	0	35	104	0	79	10228
2026-01-16 23:12:43.93	224.58	2.95	-54.1	-63.0	3.8	7.44e-01	0	35	104	0	79	10207
2026-01-16 23:12:44.94	224.55	2.87	-54.1	-63.0	3.8	7.46e-01	0	35	104	0	79	10192
2026-01-16 23:12:45.95	224.51	2.80	-54.1	-63.0	3.8	7.45e-01	0	35	104	0	79	10223
2026-01-16 23:12:46.96	224.48	2.73	-54.1	-63.0	3.8	7.46e-01	0	35	104	0	79	10224
2026-01-16 23:12:47.97	224.44	2.66	-54.1	-62.9	3.8	7.44e-01	0	35	104	0	79	10145
2026-01-16 23:12:48.97	224.41	2.58	-54.1	-62.9	3.8	7.46e-01	0	35	104	0	79	10141
2026-01-16 23:12:49.98	224.38	2.51	-54.1	-62.9	3.8	7.45e-01	0	35	104	0	79	10161
2026-01-16 23:12:50.99	224.34	2.44	-54.1	-62.9	3.8	7.45e-01	0	35	104	0	79	10149
2026-01-16 23:12:52.00	224.31	2.37	-54.1	-63.0	3.8	7.45e-01	0	35	104	0	79	10187
2026-01-16 23:12:53.01	224.28	2.30	-54.1	-62.9	3.8	7.45e-01	0	35	104	0	79	10152
2026-01-16 23:12:54.02	224.24	2.23	-54.1	-62.9	3.8	7.45e-01	0	35	104	0	79	10168
2026-01-16 23:12:55.02	224.21	2.16	-54.1	-62.9	3.8	7.46e-01	0	35	104	0	79	10148
2026-01-16 23:12:56.03	224.18	2.09	-54.1	-62.9	3.8	7.46e-01	0	35	104	0	79	10170
2026-01-16 23:12:57.04	224.15	2.02	-54.1	-62.9	3.8	7.46e-01	0	35	104	0	79	10149

#Closed at: 2026-01-16 23:12:57
#Recorded file [0 MB]: D:/lorett/data/31041_260117_020237.dat