passes_logs/2026/01/16/R3.2S_Murmansk/R3.2S_Murmansk__20260116_075046_NOAA_20_JPSS-1_rec.log

#Pass ID: 20260116_075046_NOAA 20 (JPSS-1)
#Satellite: NOAA 20 (JPSS-1)
#Configuration: NOAA 20
#almurnet v.1.7.20251203
#Start time: 2026-01-16 07:50:48

#Version: 2.2.20231116
#Station: R3.2S_Murmansk
#Location: 33.079688 lon 68.888172 lat
#TLE: 1 43013U 17073A   26015.89389188  .00000026  00000+0  33113-4 0  9999
#TLE: 2 43013  98.7636 316.8238 0001460  37.8997 322.2282 14.19536128422860

#Time	Az	El	Level	Level2	SNR	BER	BlckErr	Temp	State	Recorded	gain1	gain2
2026-01-16 07:50:48.06	112.85	2.12	-56.6	-71.5	3.8	1.49e+00	0	42	0	0	85	19349
2026-01-16 07:50:49.08	112.82	2.18	-56.5	-71.4	3.8	1.49e+00	0	42	104	0	83	21471
2026-01-16 07:50:50.09	112.78	2.24	-56.5	-71.4	3.8	1.49e+00	0	42	104	0	83	21405
2026-01-16 07:50:51.10	112.74	2.31	-56.5	-71.4	3.8	1.49e+00	0	43	104	0	83	21338
2026-01-16 07:50:52.11	112.70	2.37	-56.5	-71.4	3.8	1.49e+00	0	43	104	0	83	21274
2026-01-16 07:50:53.12	112.66	2.43	-56.5	-71.3	3.8	1.49e+00	0	43	104	0	83	21229
2026-01-16 07:50:54.13	112.63	2.50	-56.5	-71.3	3.8	1.49e+00	0	43	104	0	83	21171
2026-01-16 07:50:55.13	112.59	2.56	-56.5	-71.3	3.8	1.49e+00	0	43	104	0	83	21180
2026-01-16 07:50:56.14	112.55	2.62	-56.4	-71.3	3.8	1.49e+00	0	43	104	0	83	21036
2026-01-16 07:50:57.15	112.51	2.69	-56.4	-71.2	3.8	1.49e+00	0	43	104	0	83	20936
2026-01-16 07:50:58.16	112.47	2.75	-56.4	-71.1	3.8	1.49e+00	0	43	104	0	83	20688
2026-01-16 07:50:59.17	112.43	2.82	-56.4	-71.1	3.8	1.49e+00	0	43	104	0	83	20564
2026-01-16 07:51:00.18	112.39	2.88	-56.4	-71.0	3.8	1.49e+00	0	43	104	0	83	20361
2026-01-16 07:51:01.19	112.36	2.94	-56.4	-71.0	3.8	1.49e+00	0	43	104	0	83	20499
2026-01-16 07:51:02.20	112.32	3.01	-56.4	-71.1	3.8	1.49e+00	0	43	104	0	83	20549
2026-01-16 07:51:03.21	112.28	3.07	-56.4	-71.1	3.8	1.49e+00	0	43	104	0	83	20629
2026-01-16 07:51:04.22	112.24	3.14	-56.4	-71.1	3.8	1.49e+00	0	43	104	0	83	20597
2026-01-16 07:51:05.23	112.20	3.20	-56.4	-70.9	3.8	1.49e+00	0	43	104	0	83	20240
2026-01-16 07:51:06.25	112.15	3.27	-56.4	-71.0	3.8	1.49e+00	0	44	104	0	83	20305
2026-01-16 07:51:07.25	112.11	3.33	-56.4	-70.9	3.8	1.49e+00	0	43	104	0	83	20119
2026-01-16 07:51:08.26	112.07	3.40	-56.4	-71.0	3.8	1.49e+00	0	43	104	0	83	20468
2026-01-16 07:51:09.28	112.03	3.46	-56.4	-71.0	3.8	1.49e+00	0	43	104	0	83	20513
2026-01-16 07:51:10.29	111.99	3.53	-56.4	-71.1	3.8	1.49e+00	0	43	104	0	83	20762
2026-01-16 07:51:11.30	111.95	3.60	-56.4	-71.3	3.8	1.49e+00	0	43	104	0	83	21023
2026-01-16 07:51:12.31	111.91	3.66	-56.4	-71.3	3.8	1.49e+00	0	44	104	0	83	21259
2026-01-16 07:51:13.32	111.87	3.73	-56.5	-71.3	3.8	1.49e+00	0	44	104	0	83	21243
2026-01-16 07:51:14.33	111.82	3.79	-56.4	-71.1	3.8	1.49e+00	0	44	104	0	83	20700
2026-01-16 07:51:15.33	111.78	3.86	-56.4	-70.4	3.8	1.49e+00	0	44	104	0	83	19139
2026-01-16 07:51:16.34	111.74	3.93	-56.4	-69.7	3.8	1.49e+00	0	44	104	0	83	17502
2026-01-16 07:51:17.35	111.70	3.99	-56.3	-68.6	4.0	1.49e+00	0	44	104	0	83	15503
2026-01-16 07:51:18.36	111.66	4.06	-56.2	-67.5	4.3	1.45e+00	0	44	0	0	83	13663
2026-01-16 07:51:19.37	111.61	4.13	-56.1	-66.4	4.7	1.01e+00	0	44	0	1048576	83	12032
2026-01-16 07:51:20.38	111.57	4.19	-56.0	-65.4	5.2	8.16e-01	0	44	0	3145728	83	10758
2026-01-16 07:51:21.39	111.53	4.26	-56.0	-65.3	5.4	5.33e-01	0	44	0	5242880	83	10554
2026-01-16 07:51:22.40	111.48	4.33	-55.9	-64.8	5.7	4.59e-01	0	44	0	7340032	83	9959
2026-01-16 07:51:23.41	111.44	4.39	-55.8	-64.0	6.2	3.73e-01	0	44	0	8388608	83	9129
2026-01-16 07:51:24.42	111.39	4.46	-55.7	-63.5	6.7	2.43e-01	0	44	0	10485760	83	8615
2026-01-16 07:51:25.43	111.35	4.53	-55.7	-63.3	6.9	1.86e-01	0	44	0	12582912	83	8404
2026-01-16 07:51:26.44	111.31	4.60	-55.7	-63.1	7.0	1.25e-01	0	44	0	14680064	83	8207
2026-01-16 07:51:27.45	111.26	4.67	-55.5	-62.1	7.9	9.38e-02	0	44	0	15728640	82	7803
2026-01-16 07:51:28.46	111.22	4.73	-55.4	-62.1	8.0	6.16e-02	0	44	0	17825792	82	7724
2026-01-16 07:51:29.47	111.17	4.80	-55.2	-61.2	8.9	5.20e-02	0	44	0	19922944	82	7031
2026-01-16 07:51:30.48	111.13	4.87	-55.2	-61.1	9.1	3.15e-02	0	44	0	22020096	82	6904
2026-01-16 07:51:31.49	111.08	4.94	-55.0	-60.5	9.6	2.31e-02	0	45	0	24117248	82	6488
2026-01-16 07:51:32.50	111.03	5.01	-55.0	-60.5	9.7	1.08e-02	0	44	0	26214400	81	6830
2026-01-16 07:51:33.51	110.99	5.08	-55.5	-62.0	8.3	1.10e-02	0	45	0	27262976	81	8138
2026-01-16 07:51:34.52	110.94	5.15	-55.8	-63.1	7.1	3.45e-01	0	45	0	29360128	82	8729
2026-01-16 07:51:35.53	110.90	5.22	-55.1	-60.3	10.0	5.09e-02	0	45	0	31457280	82	6301
2026-01-16 07:51:36.54	110.85	5.29	-54.0	-57.5	12.9	1.19e-01	0	45	0	33554432	79	5404
2026-01-16 07:51:37.55	110.80	5.36	-54.9	-59.9	11.2	1.50e-06	0	45	0	35651584	80	6727
2026-01-16 07:51:38.56	110.75	5.43	-54.4	-58.5	5.5	1.48e+00	0	45	104	35651584	81	5442
2026-01-16 07:51:39.57	110.71	5.50	-53.2	-56.1	14.6	0.00e+00	0	45	0	36700160	78	4889
2026-01-16 07:51:40.58	110.66	5.57	-53.2	-56.0	14.7	1.50e-06	0	45	0	37748736	78	4833
2026-01-16 07:51:41.59	110.61	5.64	-53.2	-56.0	14.7	0.00e+00	0	45	0	39845888	78	4836
2026-01-16 07:51:42.60	110.56	5.71	-53.2	-56.1	14.7	7.00e-07	0	45	0	41943040	78	4879
2026-01-16 07:51:43.61	110.51	5.78	-53.1	-55.8	14.9	0.00e+00	0	45	0	44040192	78	4746
2026-01-16 07:51:44.62	110.47	5.85	-52.9	-55.6	15.1	0.00e+00	0	45	0	46137344	77	4910
2026-01-16 07:51:45.63	110.42	5.92	-53.1	-56.0	14.8	0.00e+00	0	45	0	47185920	77	5109
2026-01-16 07:51:46.63	110.37	5.99	-53.1	-55.9	14.8	7.00e-07	0	45	0	49283072	77	5079
2026-01-16 07:51:47.65	110.32	6.06	-53.1	-56.0	14.8	0.00e+00	0	45	0	51380224	77	5121
2026-01-16 07:51:48.66	110.27	6.13	-53.1	-55.9	14.9	7.00e-07	0	45	0	53477376	77	5063
2026-01-16 07:51:49.67	110.22	6.21	-53.0	-55.8	15.0	0.00e+00	0	45	0	55574528	77	4996
2026-01-16 07:51:50.68	110.17	6.28	-53.3	-56.2	14.5	0.00e+00	0	45	0	56623104	77	5239
2026-01-16 07:51:51.69	110.12	6.35	-53.0	-55.7	15.0	0.00e+00	0	45	0	58720256	77	4967
2026-01-16 07:51:52.69	110.07	6.42	-53.1	-55.9	14.9	0.00e+00	0	45	0	60817408	77	5052
2026-01-16 07:51:53.70	110.02	6.49	-53.0	-55.7	15.1	0.00e+00	0	45	0	62914560	77	4969
2026-01-16 07:51:54.71	109.96	6.57	-52.8	-55.4	15.4	0.00e+00	0	45	0	65011712	77	4811
2026-01-16 07:51:55.72	109.91	6.64	-52.9	-55.5	15.3	0.00e+00	0	45	0	66060288	77	4842
2026-01-16 07:51:56.73	109.86	6.71	-52.7	-55.2	15.6	0.00e+00	0	45	0	68157440	77	4699
2026-01-16 07:51:57.74	109.81	6.79	-52.6	-55.1	15.7	0.00e+00	0	45	0	70254592	77	4601
2026-01-16 07:51:58.75	109.76	6.86	-52.5	-54.8	16.0	0.00e+00	0	45	0	72351744	76	4708
2026-01-16 07:51:59.76	109.70	6.93	-52.5	-54.9	16.0	0.00e+00	0	45	0	74448896	76	4773
2026-01-16 07:52:00.77	109.65	7.01	-52.7	-55.2	15.7	0.00e+00	0	45	0	76546048	76	4938
2026-01-16 07:52:01.78	109.60	7.08	-52.3	-54.5	16.4	0.00e+00	0	45	0	77594624	76	4574
2026-01-16 07:52:02.79	109.54	7.15	-52.5	-54.8	16.1	0.00e+00	0	45	0	79691776	76	4726
2026-01-16 07:52:03.80	109.49	7.23	-52.5	-54.9	16.0	0.00e+00	0	45	0	81788928	76	4784
2026-01-16 07:52:04.81	109.43	7.30	-52.4	-54.7	16.2	0.00e+00	0	45	0	83886080	76	4687
2026-01-16 07:52:05.81	109.38	7.38	-52.3	-54.6	16.3	0.00e+00	0	46	0	84934656	76	4608
2026-01-16 07:52:06.82	109.33	7.45	-52.2	-54.4	16.6	0.00e+00	0	45	0	87031808	76	4501
2026-01-16 07:52:07.83	109.27	7.53	-52.3	-54.6	16.3	0.00e+00	0	46	0	89128960	76	4624
2026-01-16 07:52:08.84	109.22	7.60	-52.4	-54.7	16.3	0.00e+00	0	46	0	91226112	76	4654
2026-01-16 07:52:09.85	109.16	7.68	-52.0	-54.2	16.8	0.00e+00	0	45	0	93323264	76	4399
2026-01-16 07:52:10.86	109.10	7.75	-52.3	-54.6	16.3	0.00e+00	0	46	0	95420416	76	4627
2026-01-16 07:52:11.87	109.05	7.83	-52.3	-54.5	16.4	0.00e+00	0	45	0	96468992	76	4580
2026-01-16 07:52:12.88	108.99	7.91	-52.1	-54.3	16.7	0.00e+00	0	46	0	98566144	76	4453
2026-01-16 07:52:13.89	108.93	7.98	-52.2	-54.3	16.6	0.00e+00	0	46	0	100663296	76	4492
2026-01-16 07:52:14.90	108.88	8.06	-52.1	-54.3	16.7	0.00e+00	0	46	0	102760448	76	4443
2026-01-16 07:52:15.90	108.82	8.13	-52.2	-54.3	16.7	0.00e+00	0	46	0	104857600	76	4487
2026-01-16 07:52:16.92	108.76	8.21	-52.1	-54.2	16.8	0.00e+00	0	46	0	105906176	76	4437
2026-01-16 07:52:17.92	108.70	8.29	-52.2	-54.3	16.7	0.00e+00	0	46	0	108003328	76	4473
2026-01-16 07:52:18.93	108.65	8.36	-52.0	-54.0	17.0	0.00e+00	0	46	0	110100480	75	4592
2026-01-16 07:52:19.94	108.59	8.44	-52.0	-54.1	16.9	0.00e+00	0	46	0	112197632	75	4631
2026-01-16 07:52:20.95	108.53	8.52	-52.1	-54.2	16.8	0.00e+00	0	46	0	113246208	75	4678
2026-01-16 07:52:21.96	108.47	8.60	-52.0	-54.1	16.9	0.00e+00	0	46	0	115343360	75	4641
2026-01-16 07:52:22.97	108.41	8.68	-52.0	-54.1	16.9	0.00e+00	0	46	0	117440512	75	4644
2026-01-16 07:52:23.98	108.35	8.75	-51.8	-53.8	17.2	0.00e+00	0	46	0	119537664	75	4483
2026-01-16 07:52:24.99	108.29	8.83	-51.8	-53.8	17.2	0.00e+00	0	46	0	121634816	75	4484
2026-01-16 07:52:26.00	108.23	8.91	-51.8	-53.8	17.2	0.00e+00	0	46	0	123731968	75	4486
2026-01-16 07:52:27.01	108.17	8.99	-51.9	-53.9	17.1	0.00e+00	0	46	0	124780544	75	4540
2026-01-16 07:52:28.02	108.10	9.07	-51.9	-53.9	17.2	0.00e+00	0	46	0	126877696	75	4500
2026-01-16 07:52:29.03	108.04	9.15	-51.6	-53.6	17.5	0.00e+00	0	46	0	128974848	75	4351
2026-01-16 07:52:30.03	107.98	9.23	-51.7	-53.6	17.5	0.00e+00	0	46	0	131072000	75	4352
2026-01-16 07:52:31.04	107.92	9.31	-51.7	-53.6	17.4	0.00e+00	0	46	0	133169152	75	4374
2026-01-16 07:52:32.05	107.85	9.39	-51.6	-53.6	17.5	0.00e+00	0	46	0	134217728	75	4352
2026-01-16 07:52:33.06	107.79	9.47	-51.8	-53.8	17.4	0.00e+00	0	46	0	136314880	75	4466
2026-01-16 07:52:34.07	107.73	9.55	-51.6	-53.5	17.6	0.00e+00	0	46	0	138412032	75	4306
2026-01-16 07:52:35.08	107.66	9.63	-51.7	-53.6	17.5	0.00e+00	0	46	0	140509184	75	4379
2026-01-16 07:52:36.09	107.60	9.71	-51.6	-53.6	17.5	0.00e+00	0	46	0	142606336	75	4347
2026-01-16 07:52:37.10	107.53	9.79	-51.6	-53.5	17.6	0.00e+00	0	46	0	143654912	75	4326
2026-01-16 07:52:38.11	107.47	9.87	-51.5	-53.4	17.7	0.00e+00	0	47	0	145752064	75	4252
2026-01-16 07:52:39.12	107.40	9.95	-51.5	-53.4	17.7	0.00e+00	0	46	0	147849216	75	4252
2026-01-16 07:52:40.13	107.34	10.04	-51.5	-53.4	17.7	0.00e+00	0	46	0	149946368	74	4530
2026-01-16 07:52:41.14	107.27	10.12	-51.6	-53.5	17.6	0.00e+00	0	47	0	152043520	74	4593
2026-01-16 07:52:42.15	107.20	10.20	-51.6	-53.5	17.6	0.00e+00	0	46	0	153092096	74	4566
2026-01-16 07:52:43.16	107.14	10.28	-51.7	-53.6	17.5	0.00e+00	0	47	0	155189248	74	4607
2026-01-16 07:52:44.17	107.07	10.37	-51.6	-53.5	17.6	0.00e+00	0	46	0	157286400	74	4586
2026-01-16 07:52:45.18	107.00	10.45	-51.6	-53.5	17.6	0.00e+00	0	47	0	159383552	74	4595
2026-01-16 07:52:46.19	106.93	10.53	-51.5	-53.4	17.7	0.00e+00	0	47	0	161480704	74	4519
2026-01-16 07:52:47.20	106.86	10.62	-51.6	-53.5	17.7	0.00e+00	0	47	0	163577856	74	4547
2026-01-16 07:52:48.21	106.79	10.70	-51.6	-53.5	17.6	0.00e+00	0	47	0	164626432	74	4593
2026-01-16 07:52:49.22	106.73	10.78	-51.8	-53.8	17.4	0.00e+00	0	47	0	166723584	74	4725
2026-01-16 07:52:50.23	106.66	10.87	-51.8	-53.8	17.4	0.00e+00	0	47	0	168820736	74	4720
2026-01-16 07:52:51.24	106.58	10.95	-51.8	-53.7	17.5	0.00e+00	0	47	0	170917888	74	4680
2026-01-16 07:52:52.24	106.51	11.04	-51.7	-53.7	17.5	0.00e+00	0	47	0	171966464	74	4673
2026-01-16 07:52:53.26	106.44	11.12	-51.9	-53.9	17.3	0.00e+00	0	46	0	174063616	74	4800
2026-01-16 07:52:54.26	106.37	11.21	-51.6	-53.4	17.8	0.00e+00	0	47	0	176160768	74	4527
2026-01-16 07:52:55.27	106.30	11.29	-51.6	-53.4	17.8	0.00e+00	0	47	0	178257920	74	4520
2026-01-16 07:52:56.28	106.23	11.38	-51.5	-53.3	17.9	0.00e+00	0	47	0	180355072	74	4493
2026-01-16 07:52:57.29	106.15	11.46	-51.6	-53.5	17.7	0.00e+00	0	47	0	182452224	74	4575
2026-01-16 07:52:58.30	106.08	11.55	-51.7	-53.6	17.6	0.00e+00	0	47	0	183500800	74	4630
2026-01-16 07:52:59.31	106.01	11.64	-51.5	-53.4	17.8	0.00e+00	0	47	0	185597952	74	4497
2026-01-16 07:53:00.32	105.93	11.72	-51.5	-53.4	17.8	0.00e+00	0	47	0	187695104	74	4514
2026-01-16 07:53:01.33	105.86	11.81	-51.6	-53.4	17.8	0.00e+00	0	47	0	189792256	74	4537
2026-01-16 07:53:02.34	105.78	11.90	-51.6	-53.5	17.7	0.00e+00	0	47	0	191889408	74	4575
2026-01-16 07:53:03.35	105.71	11.99	-51.6	-53.5	17.7	0.00e+00	0	47	0	192937984	74	4555
2026-01-16 07:53:04.36	105.63	12.07	-51.6	-53.4	17.8	0.00e+00	0	47	0	195035136	74	4524
2026-01-16 07:53:05.37	105.55	12.16	-51.6	-53.5	17.7	0.00e+00	0	47	0	197132288	74	4581
2026-01-16 07:53:06.38	105.48	12.25	-51.5	-53.4	17.8	0.00e+00	0	47	0	199229440	74	4509
2026-01-16 07:53:07.39	105.40	12.34	-51.5	-53.4	17.8	0.00e+00	0	47	0	201326592	74	4503
2026-01-16 07:53:08.40	105.32	12.43	-51.5	-53.3	17.9	0.00e+00	0	47	0	202375168	74	4471
2026-01-16 07:53:09.41	105.24	12.52	-51.5	-53.3	18.0	0.00e+00	0	47	0	204472320	74	4445
2026-01-16 07:53:10.42	105.16	12.61	-51.5	-53.3	18.0	0.00e+00	0	47	0	206569472	74	4461
2026-01-16 07:53:11.43	105.08	12.70	-51.5	-53.3	17.9	0.00e+00	0	47	0	208666624	74	4490
2026-01-16 07:53:12.44	105.00	12.79	-51.5	-53.3	17.9	0.00e+00	0	47	0	210763776	74	4483
2026-01-16 07:53:13.45	104.92	12.88	-51.5	-53.3	17.9	0.00e+00	0	47	0	211812352	74	4456
2026-01-16 07:53:14.46	104.84	12.97	-51.5	-53.4	17.9	0.00e+00	0	47	0	213909504	74	4503
2026-01-16 07:53:15.47	104.76	13.06	-51.5	-53.3	18.0	0.00e+00	0	47	0	216006656	74	4442
2026-01-16 07:53:16.48	104.68	13.15	-51.4	-53.2	18.1	0.00e+00	0	47	0	218103808	74	4408
2026-01-16 07:53:17.49	104.59	13.24	-51.3	-53.1	18.2	0.00e+00	0	47	0	220200960	74	4367
2026-01-16 07:53:18.50	104.51	13.33	-51.4	-53.2	18.1	0.00e+00	0	47	0	221249536	74	4394
2026-01-16 07:53:19.51	104.43	13.42	-51.4	-53.2	18.1	0.00e+00	0	47	0	223346688	74	4403
2026-01-16 07:53:20.52	104.34	13.52	-51.5	-53.3	18.0	0.00e+00	0	47	0	225443840	74	4470
2026-01-16 07:53:21.52	104.26	13.61	-51.5	-53.3	18.0	0.00e+00	0	47	0	227540992	74	4449
2026-01-16 07:53:22.54	104.17	13.70	-51.6	-53.4	17.9	0.00e+00	0	47	0	229638144	74	4506
2026-01-16 07:53:23.54	104.09	13.79	-51.5	-53.3	18.0	0.00e+00	0	47	0	230686720	74	4463
2026-01-16 07:53:24.55	104.00	13.89	-51.5	-53.3	18.0	0.00e+00	0	47	0	232783872	74	4482
2026-01-16 07:53:25.56	103.91	13.98	-51.5	-53.2	18.1	0.00e+00	0	47	0	234881024	74	4439
2026-01-16 07:53:26.57	103.82	14.07	-51.5	-53.3	18.0	0.00e+00	0	47	0	236978176	74	4482
2026-01-16 07:53:27.58	103.74	14.17	-51.4	-53.2	18.1	0.00e+00	0	47	0	239075328	74	4416
2026-01-16 07:53:28.59	103.65	14.26	-51.4	-53.2	18.1	0.00e+00	0	47	0	241172480	74	4427
2026-01-16 07:53:29.60	103.56	14.36	-51.5	-53.3	18.1	0.00e+00	0	47	0	242221056	74	4444
2026-01-16 07:53:30.61	103.47	14.45	-51.4	-53.1	18.2	0.00e+00	0	47	0	244318208	74	4384
2026-01-16 07:53:31.62	103.38	14.55	-51.4	-53.1	18.2	0.00e+00	0	47	0	246415360	74	4389
2026-01-16 07:53:32.63	103.29	14.64	-51.3	-53.1	18.2	0.00e+00	0	47	0	248512512	74	4356
2026-01-16 07:53:33.64	103.19	14.74	-51.5	-53.2	18.1	0.00e+00	0	47	0	250609664	74	4428
2026-01-16 07:53:34.65	103.10	14.84	-51.5	-53.3	18.0	0.00e+00	0	47	0	251658240	74	4474
2026-01-16 07:53:35.66	103.01	14.93	-51.5	-53.3	18.1	0.00e+00	0	47	0	253755392	74	4468
2026-01-16 07:53:36.67	102.91	15.03	-51.3	-53.1	18.3	0.00e+00	0	47	0	255852544	74	4348
2026-01-16 07:53:37.68	102.82	15.13	-51.3	-53.0	18.3	0.00e+00	0	47	0	257949696	74	4330
2026-01-16 07:53:38.69	102.73	15.23	-51.2	-53.0	18.4	0.00e+00	0	47	0	260046848	74	4296
2026-01-16 07:53:39.70	102.63	15.32	-51.3	-53.1	18.3	0.00e+00	0	47	0	261095424	74	4344
2026-01-16 07:53:40.70	102.53	15.42	-51.3	-53.0	18.4	0.00e+00	0	47	0	263192576	74	4296
2026-01-16 07:53:41.71	102.44	15.52	-51.1	-52.8	18.6	0.00e+00	0	47	0	265289728	74	4218
2026-01-16 07:53:42.72	102.34	15.62	-51.2	-52.8	18.5	0.00e+00	0	47	0	267386880	74	4237
2026-01-16 07:53:43.73	102.24	15.72	-51.3	-53.0	18.4	0.00e+00	0	47	0	269484032	74	4295
2026-01-16 07:53:44.74	102.14	15.82	-51.2	-52.9	18.5	0.00e+00	0	48	0	270532608	74	4246
2026-01-16 07:53:45.75	102.04	15.92	-51.2	-52.9	18.5	0.00e+00	0	47	0	272629760	74	4247
2026-01-16 07:53:46.76	101.94	16.02	-51.1	-52.8	18.6	0.00e+00	0	48	0	274726912	74	4211
2026-01-16 07:53:47.77	101.84	16.12	-51.1	-52.8	18.6	0.00e+00	0	47	0	276824064	74	4222
2026-01-16 07:53:48.78	101.74	16.22	-51.2	-52.8	18.5	0.00e+00	0	47	0	278921216	74	4232
2026-01-16 07:53:49.79	101.64	16.32	-51.0	-52.6	18.7	0.00e+00	0	48	0	279969792	74	4134
2026-01-16 07:53:50.80	101.53	16.42	-51.1	-52.7	18.7	0.00e+00	0	47	0	282066944	74	4166
2026-01-16 07:53:51.81	101.43	16.52	-51.2	-52.8	18.5	0.00e+00	0	48	0	284164096	74	4236
2026-01-16 07:53:52.83	101.32	16.62	-51.1	-52.8	18.6	0.00e+00	0	48	0	286261248	74	4209
2026-01-16 07:53:53.83	101.22	16.73	-51.3	-53.0	18.4	0.00e+00	0	48	0	288358400	74	4317
2026-01-16 07:53:54.85	101.11	16.83	-51.1	-52.8	18.6	0.00e+00	0	47	0	289406976	74	4198
2026-01-16 07:53:55.86	101.01	16.93	-51.1	-52.7	18.7	0.00e+00	0	48	0	291504128	74	4190
2026-01-16 07:53:56.86	100.90	17.03	-51.2	-52.8	18.6	0.00e+00	0	47	0	293601280	74	4232
2026-01-16 07:53:57.88	100.79	17.14	-51.1	-52.7	18.6	0.00e+00	0	48	0	295698432	74	4185
2026-01-16 07:53:58.88	100.68	17.24	-51.2	-52.9	18.5	0.00e+00	0	47	0	297795584	74	4266
2026-01-16 07:53:59.89	100.57	17.35	-51.1	-52.7	18.7	0.00e+00	0	48	0	299892736	74	4189
2026-01-16 07:54:00.90	100.46	17.45	-51.0	-52.6	18.8	0.00e+00	0	47	0	300941312	74	4136
2026-01-16 07:54:01.91	100.35	17.56	-51.1	-52.7	18.7	0.00e+00	0	48	0	303038464	74	4169
2026-01-16 07:54:02.93	100.24	17.66	-51.2	-52.8	18.6	0.00e+00	0	48	0	305135616	74	4230
2026-01-16 07:54:03.93	100.13	17.77	-51.1	-52.8	18.6	0.00e+00	0	48	0	307232768	74	4208
2026-01-16 07:54:04.95	100.01	17.87	-51.2	-52.8	18.6	0.00e+00	0	48	0	308281344	74	4224
2026-01-16 07:54:05.96	99.90	17.98	-51.1	-52.7	18.8	0.00e+00	0	48	0	310378496	74	4153
2026-01-16 07:54:06.97	99.78	18.09	-51.1	-52.7	18.7	0.00e+00	0	48	0	312475648	74	4184
2026-01-16 07:54:07.97	99.66	18.19	-51.1	-52.8	18.7	0.00e+00	0	48	0	314572800	74	4211
2026-01-16 07:54:08.98	99.55	18.30	-51.1	-52.7	18.7	0.00e+00	0	48	0	316669952	74	4179
2026-01-16 07:54:10.00	99.43	18.41	-51.2	-52.8	18.7	0.00e+00	0	48	0	318767104	74	4217
2026-01-16 07:54:11.00	99.31	18.52	-51.2	-52.9	18.6	0.00e+00	0	48	0	319815680	74	4257
2026-01-16 07:54:12.01	99.19	18.62	-51.2	-52.9	18.5	0.00e+00	0	48	0	321912832	74	4273
2026-01-16 07:54:13.02	99.07	18.73	-51.2	-52.8	18.6	0.00e+00	0	48	0	324009984	74	4218
2026-01-16 07:54:14.03	98.95	18.84	-51.2	-52.8	18.7	0.00e+00	0	48	0	326107136	74	4217
2026-01-16 07:54:15.04	98.83	18.95	-51.1	-52.7	18.8	0.00e+00	0	48	0	328204288	74	4178
2026-01-16 07:54:16.05	98.70	19.06	-51.2	-52.8	18.6	0.00e+00	0	48	0	329252864	74	4239
2026-01-16 07:54:17.06	98.58	19.17	-51.1	-52.7	18.8	0.00e+00	0	48	0	331350016	74	4161
2026-01-16 07:54:18.07	98.45	19.28	-51.1	-52.7	18.8	0.00e+00	0	48	0	333447168	74	4147
2026-01-16 07:54:19.08	98.33	19.39	-51.0	-52.6	18.9	0.00e+00	0	48	0	335544320	73	4370
2026-01-16 07:54:20.09	98.20	19.50	-51.1	-52.7	18.8	0.00e+00	0	48	0	337641472	73	4406
2026-01-16 07:54:21.11	98.07	19.62	-51.2	-52.9	18.6	0.00e+00	0	48	0	338690048	73	4495
2026-01-16 07:54:22.11	97.94	19.73	-51.1	-52.7	18.8	0.00e+00	0	48	0	340787200	73	4411
2026-01-16 07:54:23.13	97.81	19.84	-51.0	-52.6	18.8	0.00e+00	0	48	0	342884352	73	4366
2026-01-16 07:54:24.13	97.68	19.95	-51.1	-52.7	18.8	0.00e+00	0	48	0	344981504	73	4392
2026-01-16 07:54:25.14	97.55	20.06	-51.2	-52.8	18.7	0.00e+00	0	48	0	347078656	73	4465
2026-01-16 07:54:26.15	97.42	20.18	-51.1	-52.6	18.8	0.00e+00	0	48	0	348127232	73	4386
2026-01-16 07:54:27.16	97.28	20.29	-51.0	-52.6	18.9	0.00e+00	0	48	0	350224384	73	4348
2026-01-16 07:54:28.17	97.15	20.40	-51.0	-52.6	18.8	0.00e+00	0	48	0	352321536	73	4385
2026-01-16 07:54:29.18	97.01	20.52	-51.1	-52.7	18.8	0.00e+00	0	48	0	354418688	73	4422
2026-01-16 07:54:30.19	96.88	20.63	-51.1	-52.7	18.8	0.00e+00	0	48	0	356515840	73	4411
2026-01-16 07:54:31.20	96.74	20.75	-51.2	-52.8	18.7	0.00e+00	0	48	0	358612992	73	4469
2026-01-16 07:54:32.21	96.60	20.86	-51.2	-52.9	18.7	0.00e+00	0	48	0	359661568	73	4501
2026-01-16 07:54:33.22	96.46	20.98	-51.2	-52.8	18.7	0.00e+00	0	48	0	361758720	73	4465
2026-01-16 07:54:34.23	96.32	21.09	-51.3	-52.9	18.6	0.00e+00	0	48	0	363855872	73	4535
2026-01-16 07:54:35.24	96.18	21.21	-51.3	-53.0	18.5	0.00e+00	0	48	0	365953024	73	4573
2026-01-16 07:54:36.25	96.03	21.33	-51.4	-53.1	18.4	0.00e+00	0	48	0	367001600	73	4651
2026-01-16 07:54:37.26	95.89	21.44	-51.4	-53.1	18.4	0.00e+00	0	48	0	369098752	73	4612
2026-01-16 07:54:38.27	95.74	21.56	-51.3	-53.0	18.5	0.00e+00	0	48	0	371195904	73	4575
2026-01-16 07:54:39.28	95.60	21.68	-51.4	-53.0	18.5	0.00e+00	0	48	0	373293056	73	4589
2026-01-16 07:54:40.29	95.45	21.80	-51.5	-53.2	18.3	0.00e+00	0	48	0	375390208	73	4685
2026-01-16 07:54:41.30	95.30	21.92	-51.5	-53.3	18.3	0.00e+00	0	48	0	377487360	73	4708
2026-01-16 07:54:42.31	95.15	22.03	-51.6	-53.3	18.2	0.00e+00	0	48	0	378535936	73	4755
2026-01-16 07:54:43.32	95.00	22.15	-51.6	-53.3	18.2	0.00e+00	0	48	0	380633088	73	4738
2026-01-16 07:54:44.33	94.85	22.27	-51.6	-53.4	18.2	0.00e+00	0	48	0	382730240	73	4775
2026-01-16 07:54:45.33	94.69	22.39	-51.6	-53.4	18.2	0.00e+00	0	48	0	384827392	73	4768
2026-01-16 07:54:46.34	94.54	22.51	-51.6	-53.4	18.2	0.00e+00	0	48	0	386924544	73	4786
2026-01-16 07:54:47.35	94.38	22.63	-51.6	-53.4	18.2	0.00e+00	0	48	0	387973120	73	4769
2026-01-16 07:54:48.36	94.22	22.75	-51.6	-53.3	18.3	0.00e+00	0	48	0	390070272	73	4733
2026-01-16 07:54:49.37	94.07	22.87	-51.6	-53.4	18.2	0.00e+00	0	48	0	392167424	73	4776
2026-01-16 07:54:50.38	93.91	23.00	-51.7	-53.5	18.1	0.00e+00	0	48	0	394264576	73	4849
2026-01-16 07:54:51.39	93.75	23.12	-51.7	-53.5	18.1	0.00e+00	0	48	0	396361728	74	4561
2026-01-16 07:54:52.40	93.58	23.24	-51.7	-53.5	18.1	0.00e+00	0	48	0	397410304	74	4558
2026-01-16 07:54:53.41	93.42	23.36	-51.6	-53.4	18.2	0.00e+00	0	48	0	399507456	74	4501
2026-01-16 07:54:54.42	93.25	23.48	-51.7	-53.5	18.1	0.00e+00	0	48	0	401604608	74	4566
2026-01-16 07:54:55.43	93.09	23.61	-51.7	-53.5	18.1	0.00e+00	0	48	0	403701760	74	4570
2026-01-16 07:54:56.44	92.92	23.73	-51.5	-53.2	18.4	0.00e+00	0	48	0	405798912	74	4395
2026-01-16 07:54:57.45	92.75	23.85	-51.5	-53.2	18.4	0.00e+00	0	48	0	406847488	74	4408
2026-01-16 07:54:58.46	92.58	23.98	-51.5	-53.2	18.4	0.00e+00	0	48	0	408944640	74	4428
2026-01-16 07:54:59.47	92.41	24.10	-51.5	-53.2	18.4	0.00e+00	0	48	0	411041792	74	4417
2026-01-16 07:55:00.48	92.24	24.23	-51.5	-53.3	18.4	0.00e+00	0	48	0	413138944	74	4445
2026-01-16 07:55:01.49	92.06	24.35	-51.5	-53.2	18.4	0.00e+00	0	48	0	415236096	74	4432
2026-01-16 07:55:02.49	91.89	24.48	-51.4	-53.1	18.5	0.00e+00	0	48	0	416284672	74	4368
2026-01-16 07:55:03.51	91.71	24.60	-51.4	-53.0	18.6	0.00e+00	0	48	0	418381824	74	4339
2026-01-16 07:55:04.52	91.53	24.73	-51.4	-53.1	18.6	0.00e+00	0	48	0	420478976	74	4346
2026-01-16 07:55:05.52	91.35	24.85	-51.5	-53.3	18.4	0.00e+00	0	48	0	422576128	74	4449
2026-01-16 07:55:06.53	91.17	24.98	-51.6	-53.3	18.3	0.00e+00	0	48	0	424673280	74	4484
2026-01-16 07:55:07.54	90.99	25.11	-51.6	-53.3	18.4	0.00e+00	0	48	0	425721856	74	4452
2026-01-16 07:55:08.55	90.80	25.23	-51.5	-53.2	18.4	0.00e+00	0	48	0	427819008	74	4434
2026-01-16 07:55:09.56	90.61	25.36	-51.5	-53.2	18.4	0.00e+00	0	48	0	429916160	74	4436
2026-01-16 07:55:10.57	90.43	25.49	-51.7	-53.5	18.2	0.00e+00	0	48	0	432013312	74	4572
2026-01-16 07:55:11.58	90.24	25.61	-51.8	-53.6	18.1	0.00e+00	0	48	0	434110464	74	4610
2026-01-16 07:55:12.59	90.05	25.74	-51.8	-53.6	18.1	0.00e+00	0	48	0	436207616	74	4599
2026-01-16 07:55:13.60	89.85	25.87	-51.9	-53.8	17.9	0.00e+00	0	48	0	437256192	74	4710
2026-01-16 07:55:14.61	89.66	26.00	-51.8	-53.6	18.1	0.00e+00	0	48	0	439353344	74	4620
2026-01-16 07:55:15.62	89.47	26.13	-51.9	-53.7	18.1	0.00e+00	0	48	0	441450496	74	4658
2026-01-16 07:55:16.63	89.27	26.26	-51.9	-53.7	17.9	0.00e+00	0	48	0	443547648	74	4701
2026-01-16 07:55:17.63	89.07	26.38	-52.0	-53.8	17.9	0.00e+00	0	48	0	444596224	74	4750
2026-01-16 07:55:18.64	88.87	26.51	-51.9	-53.7	17.9	0.00e+00	0	48	0	446693376	74	4700
2026-01-16 07:55:19.65	88.67	26.64	-52.1	-53.9	17.7	0.00e+00	0	48	0	448790528	74	4810
2026-01-16 07:55:20.66	88.46	26.77	-52.2	-54.1	17.6	0.00e+00	0	48	0	450887680	74	4894
2026-01-16 07:55:21.67	88.26	26.90	-52.4	-54.3	17.4	0.00e+00	0	48	0	452984832	75	4750
2026-01-16 07:55:22.68	88.05	27.03	-52.4	-54.4	17.3	0.00e+00	0	48	0	455081984	75	4811
2026-01-16 07:55:23.69	87.84	27.16	-52.5	-54.5	17.2	0.00e+00	0	48	0	456130560	75	4845
2026-01-16 07:55:24.70	87.63	27.29	-52.6	-54.7	17.0	0.00e+00	0	48	0	458227712	75	4946
2026-01-16 07:55:25.71	87.42	27.43	-52.6	-54.7	17.1	0.00e+00	0	48	0	460324864	76	4663
2026-01-16 07:55:26.72	87.21	27.56	-52.9	-55.1	16.7	0.00e+00	0	48	0	462422016	76	4894
2026-01-16 07:55:27.73	86.99	27.69	-53.0	-55.3	16.5	0.00e+00	0	48	0	464519168	76	5005
2026-01-16 07:55:28.74	86.77	27.82	-53.1	-55.4	16.4	0.00e+00	0	48	0	465567744	76	5078
2026-01-16 07:55:29.75	86.55	27.95	-53.1	-55.4	16.3	0.00e+00	0	48	0	467664896	76	5085
2026-01-16 07:55:30.76	86.33	28.08	-53.2	-55.4	16.3	0.00e+00	0	48	0	469762048	76	5097
2026-01-16 07:55:31.76	86.11	28.21	-53.2	-55.4	16.3	0.00e+00	0	48	0	471859200	77	4797
2026-01-16 07:55:32.77	85.89	28.35	-53.1	-55.4	16.4	0.00e+00	0	48	0	473956352	77	4788
2026-01-16 07:55:33.78	85.66	28.48	-53.2	-55.6	16.2	0.00e+00	0	48	0	475004928	77	4874
2026-01-16 07:55:34.79	85.43	28.61	-53.2	-55.5	16.3	0.00e+00	0	48	0	477102080	77	4865
2026-01-16 07:55:35.80	85.20	28.74	-53.2	-55.6	16.2	0.00e+00	0	48	0	479199232	77	4873
2026-01-16 07:55:36.81	84.97	28.87	-53.4	-55.7	16.0	0.00e+00	0	48	0	481296384	77	4971
2026-01-16 07:55:37.82	84.73	29.01	-53.3	-55.7	16.1	0.00e+00	0	48	0	483393536	77	4947
2026-01-16 07:55:38.83	84.50	29.14	-53.3	-55.7	16.1	0.00e+00	0	48	0	484442112	77	4959
2026-01-16 07:55:39.84	84.26	29.27	-53.2	-55.5	16.2	0.00e+00	0	49	0	486539264	77	4853
2026-01-16 07:55:40.85	84.02	29.40	-53.2	-55.5	16.3	0.00e+00	0	48	0	488636416	77	4840
2026-01-16 07:55:41.86	83.77	29.54	-53.1	-55.3	16.5	0.00e+00	0	49	0	490733568	77	4739
2026-01-16 07:55:42.87	83.53	29.67	-53.2	-55.4	16.3	0.00e+00	0	49	0	492830720	77	4806
2026-01-16 07:55:43.88	83.28	29.80	-53.1	-55.4	16.4	0.00e+00	0	48	0	494927872	77	4778
2026-01-16 07:55:44.88	83.04	29.93	-53.1	-55.3	16.5	0.00e+00	0	49	0	495976448	77	4742
2026-01-16 07:55:45.89	82.79	30.07	-53.2	-55.5	16.4	0.00e+00	0	48	0	498073600	77	4818
2026-01-16 07:55:46.90	82.53	30.20	-53.4	-55.8	16.0	0.00e+00	0	48	0	500170752	77	5013
2026-01-16 07:55:47.91	82.28	30.33	-53.4	-55.8	16.0	0.00e+00	0	48	0	502267904	77	5013
2026-01-16 07:55:48.92	82.02	30.47	-53.5	-55.9	15.9	0.00e+00	0	48	0	503316480	77	5073
2026-01-16 07:55:49.93	81.76	30.60	-53.7	-56.2	15.6	0.00e+00	0	49	0	505413632	77	5262
2026-01-16 07:55:50.94	81.50	30.73	-53.9	-56.5	15.3	0.00e+00	0	48	0	507510784	78	5156
2026-01-16 07:55:51.95	81.24	30.86	-53.9	-56.6	15.2	0.00e+00	0	48	0	509607936	78	5180
2026-01-16 07:55:52.96	80.97	31.00	-53.9	-56.6	15.2	0.00e+00	0	49	0	511705088	78	5193
2026-01-16 07:55:53.97	80.70	31.13	-53.8	-56.5	15.4	0.00e+00	0	49	0	513802240	78	5106
2026-01-16 07:55:54.98	80.43	31.26	-53.5	-55.9	15.9	0.00e+00	0	49	0	514850816	78	4804
2026-01-16 07:55:55.99	80.16	31.39	-53.6	-56.0	15.8	0.00e+00	0	48	0	516947968	78	4848
2026-01-16 07:55:57.00	79.89	31.52	-53.4	-55.8	16.0	0.00e+00	0	49	0	519045120	78	4736
2026-01-16 07:55:58.00	79.61	31.65	-53.3	-55.6	16.2	0.00e+00	0	48	0	521142272	78	4616
2026-01-16 07:55:59.01	79.33	31.79	-53.2	-55.4	16.4	0.00e+00	0	49	0	523239424	78	4524
2026-01-16 07:56:00.02	79.05	31.92	-53.2	-55.4	16.5	0.00e+00	0	49	0	524288000	78	4520
2026-01-16 07:56:01.03	78.77	32.05	-53.1	-55.3	16.6	0.00e+00	0	48	0	526385152	78	4464
2026-01-16 07:56:02.04	78.48	32.18	-52.8	-54.9	16.9	0.00e+00	0	48	0	528482304	77	4527
2026-01-16 07:56:03.05	78.19	32.31	-53.0	-55.2	16.6	0.00e+00	0	49	0	530579456	77	4660
2026-01-16 07:56:04.06	77.90	32.44	-53.0	-55.1	16.7	0.00e+00	0	48	0	532676608	77	4640
2026-01-16 07:56:05.07	77.61	32.57	-53.0	-55.2	16.7	0.00e+00	0	48	0	533725184	77	4655
2026-01-16 07:56:06.08	77.31	32.70	-52.9	-55.1	16.8	0.00e+00	0	49	0	535822336	77	4614
2026-01-16 07:56:07.09	77.02	32.83	-52.9	-55.1	16.7	0.00e+00	0	49	0	537919488	77	4624
2026-01-16 07:56:08.10	76.72	32.96	-52.9	-55.0	16.9	0.00e+00	0	49	0	540016640	77	4581
2026-01-16 07:56:09.11	76.41	33.09	-53.0	-55.2	16.7	0.00e+00	0	48	0	542113792	77	4682
2026-01-16 07:56:10.12	76.11	33.22	-53.1	-55.3	16.6	0.00e+00	0	48	0	543162368	77	4743
2026-01-16 07:56:11.13	75.80	33.35	-53.0	-55.2	16.6	0.00e+00	0	48	0	545259520	77	4677
2026-01-16 07:56:12.14	75.49	33.47	-53.1	-55.4	16.5	0.00e+00	0	48	0	547356672	77	4763
2026-01-16 07:56:13.15	75.18	33.60	-53.2	-55.4	16.5	0.00e+00	0	49	0	549453824	77	4782
2026-01-16 07:56:14.15	74.87	33.73	-53.1	-55.4	16.5	0.00e+00	0	48	0	550502400	77	4761
2026-01-16 07:56:15.17	74.55	33.85	-53.3	-55.5	16.4	0.00e+00	0	48	0	552599552	77	4848
2026-01-16 07:56:16.17	74.23	33.98	-53.5	-56.0	15.9	0.00e+00	0	49	0	554696704	77	5115
2026-01-16 07:56:17.18	73.91	34.10	-53.7	-56.3	15.6	0.00e+00	0	49	0	556793856	77	5301
2026-01-16 07:56:18.19	73.58	34.23	-53.8	-56.4	15.5	0.00e+00	0	48	0	558891008	78	5057
2026-01-16 07:56:19.20	73.26	34.35	-53.8	-56.4	15.5	0.00e+00	0	49	0	560988160	78	5056
2026-01-16 07:56:20.21	72.93	34.48	-53.6	-56.1	15.8	0.00e+00	0	49	0	562036736	78	4879
2026-01-16 07:56:21.22	72.59	34.60	-53.5	-55.9	16.0	0.00e+00	0	49	0	564133888	78	4764
2026-01-16 07:56:22.23	72.26	34.72	-53.6	-56.1	15.8	0.00e+00	0	49	0	566231040	78	4900
2026-01-16 07:56:23.24	71.92	34.84	-53.9	-56.4	15.5	0.00e+00	0	48	0	568328192	78	5093
2026-01-16 07:56:24.25	71.58	34.96	-54.1	-56.8	15.0	0.00e+00	0	48	0	570425344	78	5315
2026-01-16 07:56:25.26	71.24	35.08	-54.0	-56.7	15.1	0.00e+00	0	49	0	571473920	79	4973
2026-01-16 07:56:26.26	70.90	35.20	-54.3	-57.2	14.7	0.00e+00	0	49	0	573571072	79	5237
2026-01-16 07:56:27.27	70.55	35.32	-54.3	-57.1	14.8	0.00e+00	0	49	0	575668224	79	5181
2026-01-16 07:56:28.28	70.20	35.44	-54.4	-57.3	14.6	0.00e+00	0	49	0	577765376	79	5281
2026-01-16 07:56:29.29	69.85	35.56	-54.2	-57.0	14.9	0.00e+00	0	49	0	579862528	79	5129
2026-01-16 07:56:30.30	69.49	35.67	-54.1	-56.8	15.1	0.00e+00	0	49	0	580911104	79	5022
2026-01-16 07:56:31.31	69.14	35.79	-54.0	-56.6	15.3	0.00e+00	0	48	0	583008256	79	4888
2026-01-16 07:56:32.32	68.78	35.90	-53.9	-56.5	15.5	0.00e+00	0	49	0	585105408	79	4826
2026-01-16 07:56:33.33	68.41	36.02	-53.8	-56.3	15.6	0.00e+00	0	49	0	587202560	79	4732
2026-01-16 07:56:34.34	68.05	36.13	-53.6	-56.0	15.9	0.00e+00	0	49	0	589299712	79	4574
2026-01-16 07:56:35.35	67.68	36.24	-53.5	-55.9	16.0	0.00e+00	0	49	0	590348288	79	4510
2026-01-16 07:56:36.36	67.31	36.35	-53.4	-55.7	16.1	0.00e+00	0	48	0	592445440	78	4687
2026-01-16 07:56:37.37	66.94	36.46	-53.5	-55.9	16.1	0.00e+00	0	49	0	594542592	78	4777
2026-01-16 07:56:38.38	66.56	36.57	-53.5	-55.9	15.9	0.00e+00	0	49	0	596639744	78	4786
2026-01-16 07:56:39.39	66.18	36.68	-53.7	-56.1	15.8	0.00e+00	0	49	0	598736896	78	4905
2026-01-16 07:56:40.40	65.80	36.79	-53.7	-56.1	15.8	0.00e+00	0	49	0	600834048	78	4925
2026-01-16 07:56:41.41	65.42	36.89	-53.8	-56.3	15.6	0.00e+00	0	49	0	601882624	78	5031
2026-01-16 07:56:42.42	65.03	37.00	-53.8	-56.4	15.5	0.00e+00	0	49	0	603979776	78	5079
2026-01-16 07:56:43.43	64.65	37.10	-53.4	-55.7	16.2	0.00e+00	0	49	0	606076928	78	4696
2026-01-16 07:56:44.44	64.26	37.20	-53.3	-55.5	16.4	0.00e+00	0	49	0	608174080	78	4571
2026-01-16 07:56:45.45	63.86	37.31	-52.9	-55.0	17.0	0.00e+00	0	49	0	609222656	77	4556
2026-01-16 07:56:46.46	63.47	37.41	-52.7	-54.7	17.2	0.00e+00	0	49	0	611319808	77	4417
2026-01-16 07:56:47.47	63.07	37.50	-52.5	-54.4	17.5	0.00e+00	0	49	0	613416960	76	4513
2026-01-16 07:56:48.48	62.67	37.60	-52.2	-54.0	17.9	0.00e+00	0	49	0	615514112	76	4312
2026-01-16 07:56:49.49	62.27	37.70	-51.9	-53.6	18.3	0.00e+00	0	49	0	617611264	75	4377
2026-01-16 07:56:50.50	61.86	37.79	-51.9	-53.6	18.4	0.00e+00	0	49	0	619708416	75	4351
2026-01-16 07:56:51.51	61.46	37.88	-51.7	-53.3	18.6	0.00e+00	0	49	0	620756992	75	4242
2026-01-16 07:56:52.52	61.05	37.98	-51.6	-53.3	18.6	0.00e+00	0	49	0	622854144	75	4200
2026-01-16 07:56:53.53	60.64	38.07	-51.7	-53.3	18.5	0.00e+00	0	49	0	624951296	75	4229
2026-01-16 07:56:54.54	60.22	38.16	-51.5	-53.1	18.8	0.00e+00	0	49	0	627048448	75	4111
2026-01-16 07:56:55.55	59.81	38.24	-51.6	-53.2	18.8	0.00e+00	0	49	0	629145600	74	4397
2026-01-16 07:56:56.56	59.39	38.33	-51.2	-52.7	19.2	0.00e+00	0	49	0	631242752	74	4179
2026-01-16 07:56:57.57	58.97	38.41	-51.1	-52.6	19.3	0.00e+00	0	49	0	632291328	74	4115
2026-01-16 07:56:58.58	58.54	38.50	-51.2	-52.7	19.3	0.00e+00	0	49	0	634388480	74	4155
2026-01-16 07:56:59.59	58.12	38.58	-51.0	-52.5	19.4	0.00e+00	0	49	0	636485632	74	4063
2026-01-16 07:57:00.60	57.69	38.66	-51.0	-52.4	19.5	0.00e+00	0	49	0	638582784	73	4270
2026-01-16 07:57:01.61	57.26	38.73	-50.9	-52.3	19.6	0.00e+00	0	49	0	639631360	73	4219
2026-01-16 07:57:02.62	56.83	38.81	-51.0	-52.5	19.4	0.00e+00	0	49	0	641728512	73	4301
2026-01-16 07:57:03.63	56.40	38.89	-51.1	-52.6	19.3	0.00e+00	0	49	0	643825664	73	4366
2026-01-16 07:57:04.64	55.96	38.96	-51.1	-52.6	19.3	0.00e+00	0	49	0	645922816	73	4365
2026-01-16 07:57:05.65	55.52	39.03	-50.9	-52.4	19.5	0.00e+00	0	49	0	648019968	73	4281
2026-01-16 07:57:06.66	55.09	39.10	-50.9	-52.4	19.5	0.00e+00	0	49	0	650117120	73	4280
2026-01-16 07:57:07.67	54.64	39.17	-50.9	-52.4	19.6	0.00e+00	0	49	0	651165696	73	4258
2026-01-16 07:57:08.68	54.20	39.23	-50.8	-52.2	19.7	0.00e+00	0	49	0	653262848	73	4180
2026-01-16 07:57:09.69	53.76	39.30	-50.8	-52.3	19.6	0.00e+00	0	49	0	655360000	73	4212
2026-01-16 07:57:10.70	53.31	39.36	-50.5	-51.8	20.0	0.00e+00	0	49	0	657457152	72	4229
2026-01-16 07:57:11.71	52.86	39.42	-50.5	-51.8	20.1	0.00e+00	0	49	0	659554304	72	4231
2026-01-16 07:57:12.72	52.41	39.48	-50.5	-51.8	20.1	0.00e+00	0	49	0	660602880	72	4239
2026-01-16 07:57:13.73	51.96	39.53	-50.4	-51.7	20.2	0.00e+00	0	49	0	662700032	72	4181
2026-01-16 07:57:14.74	51.51	39.59	-50.3	-51.6	20.3	0.00e+00	0	49	0	664797184	72	4134
2026-01-16 07:57:15.75	51.06	39.64	-50.4	-51.7	20.2	0.00e+00	0	49	0	666894336	72	4167
2026-01-16 07:57:16.76	50.60	39.69	-50.4	-51.8	20.1	0.00e+00	0	49	0	668991488	72	4213
2026-01-16 07:57:17.77	50.14	39.74	-50.7	-52.1	19.9	0.00e+00	0	49	0	670040064	72	4359
2026-01-16 07:57:18.78	49.69	39.78	-50.5	-51.9	19.9	0.00e+00	0	49	0	672137216	72	4289
2026-01-16 07:57:19.79	49.23	39.83	-50.4	-51.8	20.1	0.00e+00	0	49	0	674234368	72	4231
2026-01-16 07:57:20.80	48.76	39.87	-50.3	-51.7	20.3	0.00e+00	0	49	0	676331520	72	4157
2026-01-16 07:57:21.81	48.30	39.91	-50.3	-51.6	20.3	0.00e+00	0	49	0	678428672	72	4129
2026-01-16 07:57:22.82	47.84	39.95	-50.1	-51.4	20.4	0.00e+00	0	49	0	679477248	72	4044
2026-01-16 07:57:23.83	47.38	39.98	-50.2	-51.5	20.4	0.00e+00	0	49	0	681574400	72	4059
2026-01-16 07:57:24.84	46.91	40.02	-50.4	-51.8	20.2	0.00e+00	0	49	0	683671552	72	4204
2026-01-16 07:57:25.85	46.44	40.05	-50.4	-51.7	20.2	0.00e+00	0	49	0	685768704	72	4186
2026-01-16 07:57:26.86	45.98	40.08	-50.5	-51.8	20.1	0.00e+00	0	49	0	687865856	72	4219
2026-01-16 07:57:27.87	45.51	40.11	-50.6	-51.9	20.0	0.00e+00	0	49	0	688914432	72	4287
2026-01-16 07:57:28.88	45.04	40.13	-50.5	-51.9	20.1	0.00e+00	0	49	0	691011584	72	4249
2026-01-16 07:57:29.89	44.57	40.16	-50.5	-51.8	20.1	0.00e+00	0	49	0	693108736	72	4230
2026-01-16 07:57:30.90	44.10	40.18	-50.2	-51.5	20.3	0.00e+00	0	49	0	695205888	72	4090
2026-01-16 07:57:31.91	43.63	40.20	-50.4	-51.8	20.1	0.00e+00	0	49	0	697303040	72	4214
2026-01-16 07:57:32.93	43.16	40.21	-50.6	-52.0	19.9	0.00e+00	0	49	0	698351616	72	4322
2026-01-16 07:57:33.93	42.69	40.23	-51.0	-52.4	19.5	0.00e+00	0	49	0	700448768	72	4529
2026-01-16 07:57:34.94	42.22	40.24	-51.3	-52.8	19.1	0.00e+00	0	49	0	702545920	73	4472
2026-01-16 07:57:35.95	41.75	40.25	-51.3	-52.9	19.1	0.00e+00	0	49	0	704643072	73	4494
2026-01-16 07:57:36.96	41.27	40.26	-51.5	-53.0	18.8	0.00e+00	0	49	0	706740224	73	4591
2026-01-16 07:57:37.97	40.80	40.26	-51.6	-53.3	18.6	0.00e+00	0	49	0	708837376	73	4725
2026-01-16 07:57:38.98	40.33	40.27	-51.9	-53.6	18.3	0.00e+00	0	49	0	709885952	74	4622
2026-01-16 07:57:39.99	39.85	40.27	-52.2	-54.0	18.0	0.00e+00	0	49	0	711983104	74	4855
2026-01-16 07:57:41.00	39.38	40.27	-52.2	-53.9	18.1	0.00e+00	0	49	0	714080256	74	4809
2026-01-16 07:57:42.01	38.91	40.26	-52.1	-53.9	18.1	0.00e+00	0	49	0	716177408	74	4784
2026-01-16 07:57:43.02	38.44	40.26	-51.8	-53.4	18.5	0.00e+00	0	49	0	717225984	74	4543
2026-01-16 07:57:44.03	37.96	40.25	-51.8	-53.5	18.4	0.00e+00	0	49	0	719323136	74	4576
2026-01-16 07:57:45.04	37.49	40.24	-52.3	-54.1	17.9	0.00e+00	0	49	0	721420288	75	4624
2026-01-16 07:57:46.05	37.02	40.23	-52.8	-54.9	17.1	0.00e+00	0	49	0	723517440	76	4789
2026-01-16 07:57:47.06	36.55	40.21	-53.3	-55.5	16.5	0.00e+00	0	49	0	725614592	77	4868
2026-01-16 07:57:48.07	36.08	40.20	-53.3	-55.5	16.4	0.00e+00	0	49	0	727711744	77	4848
2026-01-16 07:57:49.08	35.61	40.18	-53.0	-55.1	17.0	0.00e+00	0	49	0	728760320	77	4604
2026-01-16 07:57:50.09	35.14	40.16	-52.9	-55.0	17.0	0.00e+00	0	49	0	730857472	77	4553
2026-01-16 07:57:51.10	34.67	40.14	-52.8	-54.8	17.3	0.00e+00	0	49	0	732954624	77	4451
2026-01-16 07:57:52.11	34.20	40.11	-53.0	-55.1	16.9	0.00e+00	0	49	0	735051776	77	4641
2026-01-16 07:57:53.12	33.73	40.08	-53.3	-55.5	16.4	0.00e+00	0	49	0	737148928	77	4868
2026-01-16 07:57:54.13	33.27	40.05	-54.0	-56.6	15.4	0.00e+00	0	49	0	738197504	78	5165
2026-01-16 07:57:55.14	32.80	40.02	-54.2	-57.0	15.0	0.00e+00	0	49	0	740294656	79	5132
2026-01-16 07:57:56.15	32.34	39.99	-54.4	-57.3	14.7	0.00e+00	0	49	0	742391808	79	5286
2026-01-16 07:57:57.16	31.87	39.95	-54.2	-57.0	15.1	0.00e+00	0	49	0	744488960	79	5115
2026-01-16 07:57:58.17	31.41	39.91	-54.2	-57.0	15.0	0.00e+00	0	49	0	746586112	79	5145
2026-01-16 07:57:59.18	30.95	39.87	-54.1	-56.8	15.2	0.00e+00	0	49	0	747634688	79	4990
2026-01-16 07:58:00.19	30.49	39.83	-54.1	-56.7	15.3	0.00e+00	0	49	0	749731840	79	4953
2026-01-16 07:58:01.19	30.03	39.79	-53.8	-56.3	15.7	0.00e+00	0	49	0	751828992	79	4749
2026-01-16 07:58:02.20	29.57	39.74	-54.0	-56.5	15.5	0.00e+00	0	49	0	753926144	79	4846
2026-01-16 07:58:03.22	29.11	39.69	-54.1	-56.7	15.3	0.00e+00	0	49	0	756023296	79	4963
2026-01-16 07:58:04.23	28.66	39.64	-54.3	-57.1	14.9	0.00e+00	0	49	0	757071872	79	5203
2026-01-16 07:58:05.23	28.21	39.59	-54.3	-57.1	15.0	0.00e+00	0	49	0	759169024	79	5183
2026-01-16 07:58:06.24	27.75	39.54	-54.2	-57.0	15.0	0.00e+00	0	49	0	761266176	79	5109
2026-01-16 07:58:07.25	27.30	39.48	-53.8	-56.2	15.7	0.00e+00	0	49	0	763363328	79	4704
2026-01-16 07:58:08.26	26.85	39.42	-53.6	-55.9	16.1	0.00e+00	0	49	0	765460480	79	4527
2026-01-16 07:58:09.28	26.40	39.36	-53.3	-55.5	16.5	0.00e+00	0	49	0	767557632	78	4573
2026-01-16 07:58:10.29	25.96	39.30	-53.2	-55.3	16.7	0.00e+00	0	49	0	768606208	78	4474
2026-01-16 07:58:11.30	25.51	39.24	-52.8	-54.7	17.3	0.00e+00	0	49	0	770703360	77	4437
2026-01-16 07:58:12.31	25.07	39.17	-52.4	-54.3	17.7	0.00e+00	0	49	0	772800512	76	4449
2026-01-16 07:58:13.32	24.63	39.11	-52.4	-54.2	17.8	0.00e+00	0	49	0	774897664	76	4429
2026-01-16 07:58:14.33	24.19	39.04	-52.1	-53.8	18.2	0.00e+00	0	49	0	775946240	76	4224
2026-01-16 07:58:15.34	23.75	38.97	-51.7	-53.3	18.7	0.00e+00	0	49	0	778043392	75	4239
2026-01-16 07:58:16.35	23.32	38.89	-51.4	-53.0	19.0	0.00e+00	0	49	0	780140544	74	4298
2026-01-16 07:58:17.36	22.89	38.82	-51.2	-52.7	19.2	0.00e+00	0	49	0	782237696	74	4175
2026-01-16 07:58:18.37	22.45	38.74	-50.9	-52.3	19.6	0.00e+00	0	49	0	784334848	73	4226
2026-01-16 07:58:19.38	22.03	38.66	-50.8	-52.2	19.7	0.00e+00	0	49	0	786432000	73	4193
2026-01-16 07:58:20.39	21.60	38.59	-50.6	-52.0	20.0	0.00e+00	0	49	0	787480576	73	4068
2026-01-16 07:58:21.40	21.17	38.50	-50.4	-51.8	20.1	0.00e+00	0	49	0	789577728	72	4217
2026-01-16 07:58:22.41	20.75	38.42	-50.3	-51.6	20.2	0.00e+00	0	49	0	791674880	72	4140
2026-01-16 07:58:23.42	20.33	38.34	-50.1	-51.4	20.5	0.00e+00	0	49	0	793772032	72	4020
2026-01-16 07:58:24.43	19.91	38.25	-50.0	-51.3	20.6	0.00e+00	0	49	0	795869184	72	3973
2026-01-16 07:58:25.44	19.50	38.17	-49.9	-51.1	20.8	0.00e+00	0	49	0	796917760	71	4119
2026-01-16 07:58:26.45	19.08	38.08	-50.1	-51.3	20.7	0.00e+00	0	49	0	799014912	71	4235
2026-01-16 07:58:27.46	18.67	37.99	-50.3	-51.6	20.4	0.00e+00	0	49	0	801112064	71	4348
2026-01-16 07:58:28.47	18.26	37.90	-50.3	-51.6	20.4	0.00e+00	0	49	0	803209216	71	4353
2026-01-16 07:58:29.48	17.86	37.80	-50.3	-51.6	20.3	0.00e+00	0	49	0	805306368	71	4387
2026-01-16 07:58:30.49	17.45	37.71	-50.2	-51.5	20.5	0.00e+00	0	49	0	806354944	71	4303
2026-01-16 07:58:31.50	17.05	37.61	-50.1	-51.3	20.6	0.00e+00	0	49	0	808452096	71	4242
2026-01-16 07:58:32.51	16.65	37.52	-49.8	-51.1	20.9	0.00e+00	0	49	0	810549248	71	4104
2026-01-16 07:58:33.52	16.25	37.42	-49.6	-50.8	21.2	0.00e+00	0	49	0	812646400	71	3974
2026-01-16 07:58:34.53	15.86	37.32	-49.8	-51.0	20.9	0.00e+00	0	49	0	814743552	71	4080
2026-01-16 07:58:35.54	15.47	37.22	-50.0	-51.2	20.8	0.00e+00	0	49	0	815792128	71	4175
2026-01-16 07:58:36.55	15.08	37.12	-50.1	-51.4	20.5	0.00e+00	0	49	0	817889280	71	4273
2026-01-16 07:58:37.56	14.69	37.01	-50.3	-51.6	20.4	0.00e+00	0	49	0	819986432	71	4362
2026-01-16 07:58:38.57	14.30	36.91	-50.3	-51.6	20.4	0.00e+00	0	49	0	822083584	71	4390
2026-01-16 07:58:39.58	13.92	36.80	-50.4	-51.7	20.3	0.00e+00	0	49	0	824180736	71	4437
2026-01-16 07:58:40.58	13.55	36.70	-50.5	-51.8	20.1	0.00e+00	0	49	0	825229312	71	4465
2026-01-16 07:58:41.59	13.17	36.59	-50.3	-51.6	20.3	0.00e+00	0	49	0	827326464	71	4385
2026-01-16 07:58:42.60	12.79	36.48	-50.5	-51.9	20.1	0.00e+00	0	49	0	829423616	71	4498
2026-01-16 07:58:43.61	12.42	36.37	-50.7	-52.1	19.9	0.00e+00	0	49	0	831520768	71	4609
2026-01-16 07:58:44.62	12.05	36.26	-50.7	-52.1	19.8	0.00e+00	0	49	0	833617920	72	4388
2026-01-16 07:58:45.63	11.68	36.15	-50.7	-52.1	19.8	0.00e+00	0	49	0	834666496	72	4359
2026-01-16 07:58:46.64	11.32	36.04	-50.9	-52.4	19.5	0.00e+00	0	49	0	836763648	72	4503
2026-01-16 07:58:47.65	10.96	35.92	-51.1	-52.6	19.3	0.00e+00	0	49	0	838860800	72	4606
2026-01-16 07:58:48.66	10.60	35.81	-51.2	-52.7	19.2	0.00e+00	0	49	0	840957952	73	4424
2026-01-16 07:58:49.67	10.24	35.69	-50.8	-52.2	19.7	0.00e+00	0	49	0	843055104	73	4188
2026-01-16 07:58:50.68	9.88	35.58	-50.9	-52.4	19.6	0.00e+00	0	49	0	845152256	73	4243
2026-01-16 07:58:51.69	9.53	35.46	-50.8	-52.2	19.7	0.00e+00	0	49	0	846200832	73	4188
2026-01-16 07:58:52.70	9.18	35.34	-51.0	-52.4	19.5	0.00e+00	0	49	0	848297984	73	4279
2026-01-16 07:58:53.71	8.84	35.22	-50.8	-52.3	19.6	0.00e+00	0	49	0	850395136	73	4208
2026-01-16 07:58:54.71	8.49	35.10	-50.8	-52.3	19.7	0.00e+00	0	49	0	852492288	73	4196
2026-01-16 07:58:55.72	8.15	34.98	-50.8	-52.3	19.6	0.00e+00	0	49	0	853540864	73	4215
2026-01-16 07:58:56.73	7.81	34.86	-51.0	-52.4	19.5	0.00e+00	0	49	0	855638016	73	4280
2026-01-16 07:58:57.74	7.48	34.74	-50.9	-52.4	19.5	0.00e+00	0	49	0	857735168	73	4263
2026-01-16 07:58:58.75	7.14	34.62	-51.1	-52.6	19.4	0.00e+00	0	49	0	859832320	73	4342
2026-01-16 07:58:59.76	6.81	34.50	-51.3	-52.8	19.1	0.00e+00	0	49	0	861929472	73	4474
2026-01-16 07:59:00.77	6.48	34.37	-51.4	-53.0	19.0	0.00e+00	0	49	0	864026624	73	4551
2026-01-16 07:59:01.78	6.15	34.25	-51.4	-53.0	19.0	0.00e+00	0	49	0	865075200	73	4554
2026-01-16 07:59:02.79	5.83	34.13	-51.4	-52.9	19.0	0.00e+00	0	49	0	867172352	73	4535
2026-01-16 07:59:03.80	5.51	34.00	-51.4	-53.0	18.9	0.00e+00	0	49	0	869269504	73	4565
2026-01-16 07:59:04.81	5.19	33.88	-51.7	-53.3	18.6	0.00e+00	0	49	0	871366656	73	4740
2026-01-16 07:59:05.82	4.87	33.75	-51.8	-53.5	18.4	0.00e+00	0	49	0	873463808	74	4587
2026-01-16 07:59:06.83	4.56	33.62	-52.2	-54.0	18.0	0.00e+00	0	49	0	874512384	74	4840
2026-01-16 07:59:07.84	4.25	33.50	-52.5	-54.4	17.6	0.00e+00	0	49	0	876609536	75	4779
2026-01-16 07:59:08.85	3.94	33.37	-52.5	-54.4	17.6	0.00e+00	0	49	0	878706688	75	4778
2026-01-16 07:59:09.86	3.63	33.24	-52.4	-54.3	17.6	0.00e+00	0	49	0	880803840	75	4749
2026-01-16 07:59:10.87	3.32	33.11	-52.3	-54.2	17.8	0.00e+00	0	49	0	882900992	75	4661
2026-01-16 07:59:11.88	3.02	32.99	-52.4	-54.2	17.8	0.00e+00	0	49	0	883949568	75	4686
2026-01-16 07:59:12.89	2.72	32.86	-52.5	-54.4	17.5	0.00e+00	0	49	0	886046720	75	4793
2026-01-16 07:59:13.90	2.43	32.73	-52.8	-54.8	17.1	0.00e+00	0	49	0	888143872	76	4741
2026-01-16 07:59:14.91	2.13	32.60	-52.9	-55.0	17.0	0.00e+00	0	49	0	890241024	76	4848
2026-01-16 07:59:15.91	1.84	32.47	-53.0	-55.1	16.8	0.00e+00	0	49	0	892338176	76	4917
2026-01-16 07:59:16.92	1.55	32.34	-53.1	-55.2	16.8	0.00e+00	0	49	0	893386752	76	4963
2026-01-16 07:59:17.93	1.26	32.21	-53.1	-55.2	16.7	0.00e+00	0	49	0	895483904	76	4961
2026-01-16 07:59:18.94	0.98	32.08	-53.1	-55.2	16.7	0.00e+00	0	49	0	897581056	76	4976
2026-01-16 07:59:19.95	0.69	31.95	-53.2	-55.4	16.5	0.00e+00	0	49	0	899678208	76	5093
2026-01-16 07:59:20.96	0.41	31.82	-53.4	-55.7	16.3	0.00e+00	0	49	0	901775360	77	4940
2026-01-16 07:59:21.97	0.13	31.69	-53.5	-55.9	16.1	0.00e+00	0	49	0	902823936	77	5048
2026-01-16 07:59:22.98	359.86	31.55	-53.4	-55.7	16.2	0.00e+00	0	49	0	904921088	77	4954
2026-01-16 07:59:23.99	359.58	31.42	-53.1	-55.2	16.7	0.00e+00	0	49	0	907018240	77	4675
2026-01-16 07:59:24.99	359.31	31.29	-53.0	-55.2	16.8	0.00e+00	0	49	0	909115392	77	4653
2026-01-16 07:59:26.00	359.04	31.16	-52.9	-55.0	17.0	0.00e+00	0	49	0	911212544	77	4579
2026-01-16 07:59:27.01	358.78	31.03	-53.0	-55.1	16.8	0.00e+00	0	49	0	912261120	77	4650
2026-01-16 07:59:28.02	358.51	30.90	-53.2	-55.4	16.5	0.00e+00	0	49	0	914358272	77	4800
2026-01-16 07:59:29.03	358.25	30.76	-53.3	-55.6	16.4	0.00e+00	0	49	0	916455424	77	4878
2026-01-16 07:59:30.03	357.99	30.63	-53.3	-55.6	16.4	0.00e+00	0	49	0	918552576	77	4881
2026-01-16 07:59:31.04	357.73	30.50	-53.1	-55.3	16.6	0.00e+00	0	49	0	920649728	77	4742
2026-01-16 07:59:32.05	357.48	30.37	-52.9	-55.0	16.9	0.00e+00	0	49	0	921698304	77	4580
2026-01-16 07:59:33.06	357.22	30.24	-52.7	-54.7	17.2	0.00e+00	0	49	0	923795456	77	4428
2026-01-16 07:59:34.07	356.97	30.10	-52.6	-54.5	17.4	0.00e+00	0	49	0	925892608	77	4340
2026-01-16 07:59:35.08	356.72	29.97	-52.4	-54.3	17.6	0.00e+00	0	49	0	927989760	76	4475
2026-01-16 07:59:36.09	356.47	29.84	-52.3	-54.2	17.8	0.00e+00	0	49	0	930086912	76	4406
2026-01-16 07:59:37.10	356.22	29.71	-52.3	-54.1	17.8	0.00e+00	0	49	0	931135488	76	4378
2026-01-16 07:59:38.11	355.98	29.57	-52.5	-54.4	17.6	0.00e+00	0	49	0	933232640	76	4496
2026-01-16 07:59:39.11	355.74	29.44	-52.4	-54.3	17.6	0.00e+00	0	49	0	935329792	76	4486
2026-01-16 07:59:40.12	355.50	29.31	-52.4	-54.3	17.6	0.00e+00	0	49	0	937426944	76	4476
2026-01-16 07:59:41.13	355.26	29.18	-52.4	-54.3	17.6	0.00e+00	0	49	0	939524096	76	4457
2026-01-16 07:59:42.14	355.03	29.05	-52.5	-54.4	17.5	0.00e+00	0	49	0	940572672	76	4523
2026-01-16 07:59:43.15	354.79	28.91	-52.0	-53.8	18.1	0.00e+00	0	49	0	942669824	76	4199
2026-01-16 07:59:44.16	354.56	28.78	-51.9	-53.6	18.3	0.00e+00	0	49	0	944766976	75	4367
2026-01-16 07:59:45.17	354.33	28.65	-51.8	-53.5	18.4	0.00e+00	0	49	0	946864128	75	4320
2026-01-16 07:59:46.17	354.10	28.52	-51.8	-53.5	18.3	0.00e+00	0	49	0	948961280	75	4335
2026-01-16 07:59:47.18	353.88	28.39	-51.8	-53.5	18.4	0.00e+00	0	49	0	951058432	75	4299
2026-01-16 07:59:48.19	353.65	28.26	-51.8	-53.5	18.3	0.00e+00	0	49	0	952107008	75	4333
2026-01-16 07:59:49.20	353.43	28.13	-51.8	-53.5	18.4	0.00e+00	0	49	0	954204160	75	4331
2026-01-16 07:59:50.21	353.21	27.99	-51.7	-53.3	18.6	0.00e+00	0	49	0	956301312	75	4233
2026-01-16 07:59:51.22	352.99	27.86	-51.8	-53.4	18.4	0.00e+00	0	49	0	958398464	75	4287
2026-01-16 07:59:52.23	352.77	27.73	-51.7	-53.4	18.5	0.00e+00	0	49	0	960495616	75	4255
2026-01-16 07:59:53.24	352.55	27.60	-51.6	-53.2	18.6	0.00e+00	0	49	0	961544192	75	4180
2026-01-16 07:59:54.25	352.34	27.47	-51.6	-53.3	18.6	0.00e+00	0	49	0	963641344	75	4196
2026-01-16 07:59:55.26	352.13	27.34	-51.7	-53.4	18.5	0.00e+00	0	49	0	965738496	75	4246
2026-01-16 07:59:56.27	351.92	27.21	-51.7	-53.4	18.4	0.00e+00	0	49	0	967835648	75	4290
2026-01-16 07:59:57.28	351.71	27.08	-51.5	-53.1	18.7	0.00e+00	0	49	0	969932800	75	4134
2026-01-16 07:59:58.29	351.50	26.95	-51.4	-53.0	18.8	0.00e+00	0	49	0	970981376	74	4322
2026-01-16 07:59:59.30	351.30	26.82	-51.3	-52.9	18.9	0.00e+00	0	49	0	973078528	74	4279
2026-01-16 08:00:00.31	351.10	26.69	-51.2	-52.8	19.1	0.00e+00	0	49	0	975175680	74	4216
2026-01-16 08:00:01.32	350.89	26.56	-51.3	-52.9	18.9	0.00e+00	0	49	0	977272832	74	4274
2026-01-16 08:00:02.33	350.69	26.43	-51.3	-52.8	19.0	0.00e+00	0	49	0	979369984	74	4238
2026-01-16 08:00:03.34	350.50	26.30	-51.3	-52.8	19.0	0.00e+00	0	49	0	980418560	74	4238
2026-01-16 08:00:04.35	350.30	26.17	-51.3	-52.9	18.9	0.00e+00	0	49	0	982515712	74	4258
2026-01-16 08:00:05.36	350.10	26.05	-51.3	-52.9	19.0	0.00e+00	0	49	0	984612864	74	4246
2026-01-16 08:00:06.37	349.91	25.92	-51.3	-52.9	18.9	0.00e+00	0	49	0	986710016	74	4276
2026-01-16 08:00:07.38	349.72	25.79	-51.4	-53.1	18.8	0.00e+00	0	49	0	988807168	74	4342
2026-01-16 08:00:08.39	349.53	25.66	-51.5	-53.1	18.7	0.00e+00	0	49	0	989855744	74	4370
2026-01-16 08:00:09.40	349.34	25.54	-51.6	-53.3	18.6	0.00e+00	0	49	0	991952896	74	4463
2026-01-16 08:00:10.41	349.15	25.41	-51.6	-53.3	18.5	0.00e+00	0	49	0	994050048	74	4477
2026-01-16 08:00:11.42	348.97	25.28	-51.5	-53.2	18.6	0.00e+00	0	49	0	996147200	74	4405
2026-01-16 08:00:12.43	348.78	25.15	-51.7	-53.3	18.5	0.00e+00	0	49	0	998244352	74	4483
2026-01-16 08:00:13.44	348.60	25.03	-51.7	-53.3	18.5	0.00e+00	0	49	0	999292928	74	4491
2026-01-16 08:00:14.45	348.42	24.90	-51.5	-53.2	18.6	0.00e+00	0	49	0	1001390080	74	4418
2026-01-16 08:00:15.46	348.24	24.78	-51.6	-53.3	18.6	0.00e+00	0	49	0	1003487232	74	4453
2026-01-16 08:00:16.47	348.06	24.65	-51.5	-53.2	18.6	0.00e+00	0	49	0	1005584384	74	4413
2026-01-16 08:00:17.48	347.88	24.53	-51.4	-53.1	18.7	0.00e+00	0	49	0	1007681536	74	4344
2026-01-16 08:00:18.49	347.71	24.40	-51.5	-53.2	18.7	0.00e+00	0	49	0	1009778688	74	4393
2026-01-16 08:00:19.50	347.53	24.28	-51.4	-53.0	18.8	0.00e+00	0	49	0	1010827264	74	4321
2026-01-16 08:00:20.51	347.36	24.15	-51.4	-53.0	18.8	0.00e+00	0	49	0	1012924416	74	4313
2026-01-16 08:00:21.52	347.19	24.03	-51.4	-53.1	18.7	0.00e+00	0	49	0	1015021568	74	4352
2026-01-16 08:00:22.53	347.02	23.91	-51.5	-53.2	18.6	0.00e+00	0	49	0	1017118720	74	4418
2026-01-16 08:00:23.54	346.85	23.78	-51.7	-53.3	18.5	0.00e+00	0	49	0	1018167296	74	4485
2026-01-16 08:00:24.55	346.68	23.66	-51.7	-53.4	18.4	0.00e+00	0	49	0	1020264448	74	4532
2026-01-16 08:00:25.56	346.52	23.54	-51.7	-53.5	18.3	0.00e+00	0	49	0	1022361600	74	4547
2026-01-16 08:00:26.57	346.35	23.41	-51.9	-53.7	18.1	0.00e+00	0	49	0	1024458752	74	4670
2026-01-16 08:00:27.58	346.19	23.29	-52.0	-53.7	18.0	0.00e+00	0	49	0	1026555904	74	4697
2026-01-16 08:00:28.59	346.03	23.17	-51.9	-53.7	18.1	0.00e+00	0	49	0	1028653056	74	4661
2026-01-16 08:00:29.60	345.87	23.05	-51.9	-53.7	18.1	0.00e+00	0	49	0	1029701632	74	4685
2026-01-16 08:00:30.61	345.71	22.93	-51.8	-53.5	18.3	0.00e+00	0	49	0	1031798784	74	4565
2026-01-16 08:00:31.62	345.55	22.81	-51.6	-53.3	18.4	0.00e+00	0	49	0	1033895936	74	4490
2026-01-16 08:00:32.63	345.39	22.69	-51.6	-53.3	18.5	0.00e+00	0	49	0	1035993088	74	4463
2026-01-16 08:00:33.64	345.24	22.57	-51.7	-53.3	18.4	0.00e+00	0	49	0	1038090240	74	4491
2026-01-16 08:00:34.65	345.08	22.45	-51.6	-53.2	18.5	0.00e+00	0	49	0	1039138816	74	4438
2026-01-16 08:00:35.66	344.93	22.33	-51.6	-53.2	18.6	0.00e+00	0	49	0	1041235968	74	4427
2026-01-16 08:00:36.67	344.78	22.21	-51.5	-53.2	18.6	0.00e+00	0	49	0	1043333120	74	4405
2026-01-16 08:00:37.68	344.62	22.09	-51.5	-53.1	18.6	0.00e+00	0	49	0	1045430272	74	4374
2026-01-16 08:00:38.69	344.47	21.97	-51.5	-53.1	18.6	0.00e+00	0	49	0	1047527424	74	4377
2026-01-16 08:00:39.70	344.33	21.85	-51.5	-53.1	18.6	0.00e+00	0	49	0	1048576000	74	4384
2026-01-16 08:00:40.71	344.18	21.74	-51.6	-53.3	18.5	0.00e+00	0	49	0	1050673152	74	4450
2026-01-16 08:00:41.72	344.03	21.62	-51.7	-53.4	18.4	0.00e+00	0	49	0	1052770304	74	4514
2026-01-16 08:00:42.73	343.89	21.50	-51.8	-53.6	18.2	0.00e+00	0	49	0	1054867456	74	4611
2026-01-16 08:00:43.74	343.74	21.39	-51.9	-53.6	18.1	0.00e+00	0	49	0	1056964608	74	4644
2026-01-16 08:00:44.75	343.60	21.27	-52.0	-53.8	17.9	0.00e+00	0	49	0	1058013184	74	4748
2026-01-16 08:00:45.76	343.46	21.15	-52.1	-53.9	17.8	0.00e+00	0	49	0	1060110336	74	4792
2026-01-16 08:00:46.77	343.32	21.04	-52.0	-53.8	17.9	0.00e+00	0	49	0	1062207488	74	4759
2026-01-16 08:00:47.78	343.18	20.92	-52.1	-53.9	17.8	0.00e+00	0	49	0	1064304640	74	4796
2026-01-16 08:00:48.79	343.04	20.81	-51.9	-53.7	18.0	0.00e+00	0	49	0	1066401792	74	4703
2026-01-16 08:00:49.80	342.90	20.69	-51.8	-53.6	18.1	0.00e+00	0	49	0	1067450368	74	4606
2026-01-16 08:00:50.81	342.77	20.58	-51.8	-53.6	18.2	0.00e+00	0	49	0	1069547520	74	4610
2026-01-16 08:00:51.82	342.63	20.46	-51.8	-53.5	18.2	0.00e+00	0	49	0	1071644672	74	4577
2026-01-16 08:00:52.83	342.50	20.35	-51.7	-53.5	18.3	0.00e+00	0	49	0	1073741824	74	4554
2026-01-16 08:00:53.84	342.36	20.24	-51.7	-53.4	18.3	0.00e+00	0	49	0	1075838976	74	4516
2026-01-16 08:00:54.85	342.23	20.12	-51.7	-53.4	18.3	0.00e+00	0	49	0	1076887552	74	4528
2026-01-16 08:00:55.86	342.10	20.01	-51.6	-53.3	18.4	0.00e+00	0	49	0	1078984704	74	4474
2026-01-16 08:00:56.87	341.97	19.90	-51.5	-53.2	18.5	0.00e+00	0	49	0	1081081856	74	4427
2026-01-16 08:00:57.88	341.84	19.79	-51.6	-53.3	18.4	0.00e+00	0	49	0	1083179008	74	4458
2026-01-16 08:00:58.89	341.71	19.68	-51.5	-53.2	18.5	0.00e+00	0	49	0	1085276160	74	4421
2026-01-16 08:00:59.90	341.58	19.56	-51.6	-53.2	18.4	0.00e+00	0	49	0	1087373312	74	4441
2026-01-16 08:01:00.91	341.46	19.45	-51.6	-53.3	18.4	0.00e+00	0	49	0	1088421888	74	4447
2026-01-16 08:01:01.92	341.33	19.34	-51.6	-53.3	18.3	0.00e+00	0	49	0	1090519040	74	4488
2026-01-16 08:01:02.93	341.21	19.23	-51.6	-53.3	18.4	0.00e+00	0	49	0	1092616192	74	4472
2026-01-16 08:01:03.94	341.08	19.12	-51.7	-53.5	18.2	0.00e+00	0	49	0	1094713344	74	4553
2026-01-16 08:01:04.95	340.96	19.01	-51.7	-53.5	18.2	0.00e+00	0	49	0	1095761920	74	4572
2026-01-16 08:01:05.96	340.84	18.91	-51.7	-53.5	18.1	0.00e+00	0	49	0	1097859072	74	4578
2026-01-16 08:01:06.97	340.72	18.80	-51.8	-53.6	18.0	0.00e+00	0	49	0	1099956224	74	4641
2026-01-16 08:01:07.98	340.60	18.69	-51.8	-53.6	18.1	0.00e+00	0	49	0	1102053376	74	4611
2026-01-16 08:01:08.99	340.48	18.58	-51.9	-53.7	18.0	0.00e+00	0	49	0	1104150528	74	4663
2026-01-16 08:01:10.00	340.36	18.47	-51.7	-53.5	18.1	0.00e+00	0	49	0	1106247680	74	4586
2026-01-16 08:01:11.01	340.24	18.36	-51.7	-53.4	18.2	0.00e+00	0	49	0	1107296256	74	4529
2026-01-16 08:01:12.02	340.12	18.26	-51.7	-53.4	18.2	0.00e+00	0	49	0	1109393408	74	4535
2026-01-16 08:01:13.02	340.01	18.15	-51.7	-53.4	18.2	0.00e+00	0	49	0	1111490560	74	4531
2026-01-16 08:01:14.03	339.89	18.05	-51.5	-53.3	18.4	0.00e+00	0	49	0	1113587712	74	4454
2026-01-16 08:01:15.04	339.78	17.94	-51.5	-53.2	18.5	0.00e+00	0	49	0	1115684864	74	4395
2026-01-16 08:01:16.05	339.67	17.83	-51.5	-53.2	18.4	0.00e+00	0	49	0	1116733440	74	4433
2026-01-16 08:01:17.06	339.55	17.73	-51.4	-53.1	18.5	0.00e+00	0	49	0	1118830592	74	4363
2026-01-16 08:01:18.07	339.44	17.62	-51.4	-53.0	18.5	0.00e+00	0	49	0	1120927744	74	4329
2026-01-16 08:01:19.08	339.33	17.52	-51.4	-53.1	18.6	0.00e+00	0	49	0	1123024896	74	4348
2026-01-16 08:01:20.08	339.22	17.42	-51.5	-53.2	18.4	0.00e+00	0	49	0	1125122048	74	4397
2026-01-16 08:01:21.09	339.11	17.31	-51.4	-53.1	18.5	0.00e+00	0	49	0	1126170624	74	4350
2026-01-16 08:01:22.10	339.00	17.21	-51.4	-53.1	18.6	0.00e+00	0	49	0	1128267776	74	4346
2026-01-16 08:01:23.11	338.89	17.10	-51.4	-53.1	18.5	0.00e+00	0	49	0	1130364928	74	4359
2026-01-16 08:01:24.12	338.79	17.00	-51.5	-53.2	18.4	0.00e+00	0	49	0	1132462080	74	4410
2026-01-16 08:01:25.13	338.68	16.90	-51.5	-53.2	18.4	0.00e+00	0	49	0	1134559232	74	4417
2026-01-16 08:01:26.14	338.58	16.80	-51.6	-53.3	18.3	0.00e+00	0	49	0	1135607808	74	4483
2026-01-16 08:01:27.15	338.47	16.69	-51.7	-53.5	18.1	0.00e+00	0	49	0	1137704960	74	4555
2026-01-16 08:01:28.16	338.37	16.59	-51.8	-53.6	18.0	0.00e+00	0	49	0	1139802112	74	4617
2026-01-16 08:01:29.17	338.26	16.49	-51.8	-53.6	17.9	0.00e+00	0	49	0	1141899264	74	4645
2026-01-16 08:01:30.18	338.16	16.39	-52.0	-53.9	17.8	0.00e+00	0	49	0	1143996416	74	4769
2026-01-16 08:01:31.18	338.06	16.29	-52.0	-53.8	17.8	0.00e+00	0	49	0	1146093568	74	4746
2026-01-16 08:01:32.19	337.96	16.19	-52.1	-53.9	17.7	0.00e+00	0	49	0	1147142144	74	4813
2026-01-16 08:01:33.20	337.86	16.09	-52.1	-54.0	17.6	0.00e+00	0	49	0	1149239296	74	4824
2026-01-16 08:01:34.21	337.76	15.99	-52.1	-54.0	17.6	0.00e+00	0	49	0	1151336448	74	4816
2026-01-16 08:01:35.22	337.66	15.89	-52.1	-54.0	17.6	0.00e+00	0	49	0	1153433600	74	4831
2026-01-16 08:01:36.24	337.56	15.79	-52.0	-53.9	17.7	0.00e+00	0	49	0	1154482176	74	4777
2026-01-16 08:01:37.25	337.46	15.69	-51.9	-53.8	17.8	0.00e+00	0	49	0	1156579328	74	4718
2026-01-16 08:01:38.25	337.36	15.59	-51.9	-53.8	17.8	0.00e+00	0	49	0	1158676480	74	4715
2026-01-16 08:01:39.26	337.27	15.49	-51.9	-53.7	17.8	0.00e+00	0	49	0	1160773632	74	4682
2026-01-16 08:01:40.27	337.17	15.40	-51.8	-53.7	17.9	0.00e+00	0	49	0	1162870784	74	4665
2026-01-16 08:01:41.28	337.08	15.30	-51.8	-53.7	17.9	0.00e+00	0	49	0	1164967936	74	4661
2026-01-16 08:01:42.29	336.98	15.20	-51.9	-53.8	17.8	0.00e+00	0	49	0	1166016512	74	4713
2026-01-16 08:01:43.30	336.89	15.10	-52.0	-53.8	17.7	0.00e+00	0	49	0	1168113664	74	4752
2026-01-16 08:01:44.31	336.79	15.01	-52.0	-53.9	17.6	0.00e+00	0	49	0	1170210816	74	4799
2026-01-16 08:01:45.32	336.70	14.91	-52.1	-54.1	17.5	0.00e+00	0	49	0	1172307968	74	4873
2026-01-16 08:01:46.33	336.61	14.82	-52.1	-54.1	17.5	0.00e+00	0	49	0	1174405120	74	4873
2026-01-16 08:01:47.34	336.52	14.72	-52.2	-54.2	17.3	0.00e+00	0	49	0	1175453696	74	4950
2026-01-16 08:01:48.35	336.43	14.62	-52.2	-54.2	17.3	0.00e+00	0	49	0	1177550848	74	4954
2026-01-16 08:01:49.36	336.34	14.53	-52.2	-54.2	17.3	0.00e+00	0	49	0	1179648000	74	4949
2026-01-16 08:01:50.37	336.25	14.43	-52.1	-54.1	17.4	0.00e+00	0	49	0	1181745152	74	4906
2026-01-16 08:01:51.38	336.16	14.34	-52.2	-54.3	17.3	0.00e+00	0	49	0	1183842304	75	4712
2026-01-16 08:01:52.39	336.07	14.24	-52.2	-54.3	17.2	0.00e+00	0	49	0	1184890880	75	4726
2026-01-16 08:01:53.40	335.98	14.15	-52.1	-54.3	17.2	0.00e+00	0	49	0	1186988032	75	4712
2026-01-16 08:01:54.41	335.89	14.06	-52.2	-54.3	17.2	0.00e+00	0	49	0	1189085184	75	4750
2026-01-16 08:01:55.42	335.81	13.96	-52.1	-54.3	17.2	0.00e+00	0	49	0	1191182336	75	4733
2026-01-16 08:01:56.43	335.72	13.87	-52.2	-54.4	17.1	0.00e+00	0	49	0	1193279488	75	4766
2026-01-16 08:01:57.44	335.64	13.78	-52.2	-54.3	17.2	0.00e+00	0	50	0	1194328064	75	4745
2026-01-16 08:01:58.45	335.55	13.68	-52.2	-54.3	17.2	0.00e+00	0	49	0	1196425216	75	4729
2026-01-16 08:01:59.46	335.47	13.59	-52.2	-54.3	17.2	0.00e+00	0	49	0	1198522368	75	4741
2026-01-16 08:02:00.46	335.38	13.50	-52.3	-54.4	17.1	0.00e+00	0	49	0	1200619520	75	4792
2026-01-16 08:02:01.47	335.30	13.41	-52.4	-54.5	17.0	0.00e+00	0	49	0	1202716672	75	4830
2026-01-16 08:02:02.48	335.22	13.32	-52.4	-54.5	17.0	0.00e+00	0	49	0	1203765248	75	4820
2026-01-16 08:02:03.49	335.13	13.23	-52.5	-54.6	16.9	0.00e+00	0	49	0	1205862400	75	4874
2026-01-16 08:02:04.50	335.05	13.14	-52.4	-54.5	17.0	0.00e+00	0	50	0	1207959552	75	4838
2026-01-16 08:02:05.51	334.97	13.05	-52.5	-54.6	16.9	0.00e+00	0	49	0	1210056704	75	4881
2026-01-16 08:02:06.52	334.89	12.95	-52.5	-54.6	16.8	0.00e+00	0	49	0	1212153856	75	4920
2026-01-16 08:02:07.53	334.81	12.86	-52.6	-54.7	16.7	0.00e+00	0	49	0	1213202432	75	4971
2026-01-16 08:02:08.54	334.73	12.77	-52.6	-54.8	16.7	0.00e+00	0	49	0	1215299584	75	4990
2026-01-16 08:02:09.55	334.65	12.69	-52.7	-54.9	16.6	0.00e+00	0	49	0	1217396736	75	5043
2026-01-16 08:02:10.56	334.57	12.60	-52.5	-54.7	16.7	0.00e+00	0	49	0	1219493888	75	4932
2026-01-16 08:02:11.57	334.49	12.51	-52.6	-54.8	16.6	0.00e+00	0	49	0	1221591040	75	5028
2026-01-16 08:02:12.58	334.42	12.42	-52.7	-54.9	16.5	0.00e+00	0	49	0	1223688192	75	5078
2026-01-16 08:02:13.59	334.34	12.33	-52.6	-54.9	16.6	0.00e+00	0	49	0	1224736768	76	4767
2026-01-16 08:02:14.60	334.26	12.24	-52.7	-54.9	16.5	0.00e+00	0	49	0	1226833920	76	4793
2026-01-16 08:02:15.61	334.19	12.15	-52.7	-55.0	16.4	0.00e+00	0	49	0	1228931072	76	4828
2026-01-16 08:02:16.62	334.11	12.07	-52.7	-55.0	16.4	0.00e+00	0	49	0	1231028224	76	4834
2026-01-16 08:02:17.63	334.03	11.98	-52.7	-54.9	16.5	0.00e+00	0	49	0	1232076800	76	4803
2026-01-16 08:02:18.64	333.96	11.89	-52.8	-55.1	16.3	0.00e+00	0	49	0	1234173952	76	4885
2026-01-16 08:02:19.65	333.89	11.80	-52.8	-55.0	16.4	0.00e+00	0	49	0	1236271104	76	4865
2026-01-16 08:02:20.66	333.81	11.72	-52.8	-55.1	16.3	0.00e+00	0	49	0	1238368256	76	4889
2026-01-16 08:02:21.67	333.74	11.63	-52.7	-54.9	16.5	0.00e+00	0	49	0	1240465408	76	4773
2026-01-16 08:02:22.68	333.67	11.55	-52.7	-55.0	16.3	4.50e-06	0	50	0	1242562560	76	4856
2026-01-16 08:02:23.69	333.59	11.46	-52.7	-54.9	16.5	0.00e+00	0	49	0	1243611136	76	4792
2026-01-16 08:02:24.70	333.52	11.37	-52.7	-55.0	16.4	0.00e+00	0	49	0	1245708288	76	4830
