passes_logs/2026/01/16/R3.2S_Murmansk/R3.2S_Murmansk__20260116_011322_NOAA_20_JPSS-1_rec.log

#Pass ID: 20260116_011322_NOAA 20 (JPSS-1)
#Satellite: NOAA 20 (JPSS-1)
#Configuration: NOAA 20
#almurnet v.1.7.20251203
#Start time: 2026-01-16 01:13:23

#Version: 2.2.20231116
#Station: R3.2S_Murmansk
#Location: 33.079688 lon 68.888172 lat
#TLE: 1 43013U 17073A   26015.47098083  .00000029  00000+0  34851-4 0  9997
#TLE: 2 43013  98.7636 316.4053 0001479  38.6686 321.4595 14.19536048422808

#Time	Az	El	Level	Level2	SNR	BER	BlckErr	Temp	State	Recorded	gain1	gain2
2026-01-16 01:13:23.01	26.72	2.05	-55.7	-70.6	3.8	1.49e+00	0	42	0	0	83	19558
2026-01-16 01:13:24.01	26.71	2.12	-55.7	-70.6	3.8	1.49e+00	0	42	104	0	81	21963
2026-01-16 01:13:25.02	26.70	2.18	-55.7	-70.6	3.8	1.49e+00	0	42	104	0	81	21918
2026-01-16 01:13:26.03	26.69	2.25	-55.7	-70.6	3.8	1.49e+00	0	42	104	0	81	21903
2026-01-16 01:13:27.04	26.68	2.31	-55.7	-70.6	3.8	1.49e+00	0	42	104	0	81	21854
2026-01-16 01:13:28.05	26.67	2.38	-55.7	-70.6	3.8	1.49e+00	0	42	104	0	81	21940
2026-01-16 01:13:29.06	26.66	2.44	-55.7	-70.6	3.8	1.49e+00	0	42	104	0	81	21846
2026-01-16 01:13:30.07	26.65	2.51	-55.7	-70.6	3.8	1.49e+00	0	42	104	0	81	21801
2026-01-16 01:13:31.08	26.64	2.57	-55.7	-70.6	3.8	1.49e+00	0	42	104	0	81	21892
2026-01-16 01:13:32.09	26.63	2.64	-55.7	-70.6	3.8	1.49e+00	0	42	104	0	81	21762
2026-01-16 01:13:33.10	26.62	2.70	-55.7	-70.5	3.8	1.49e+00	0	43	104	0	81	21553
2026-01-16 01:13:34.11	26.61	2.77	-55.7	-70.5	3.8	1.49e+00	0	43	104	0	81	21527
2026-01-16 01:13:35.12	26.60	2.83	-55.7	-70.4	3.8	1.49e+00	0	43	104	0	81	21457
2026-01-16 01:13:36.13	26.58	2.90	-55.7	-70.4	3.8	1.49e+00	0	43	104	0	81	21403
2026-01-16 01:13:37.14	26.57	2.97	-55.7	-70.4	3.8	1.49e+00	0	43	104	0	81	21485
2026-01-16 01:13:38.15	26.56	3.03	-55.6	-70.5	3.8	1.49e+00	0	43	104	0	81	21736
2026-01-16 01:13:39.16	26.55	3.10	-55.7	-70.6	3.8	1.49e+00	0	43	104	0	81	21814
2026-01-16 01:13:40.17	26.54	3.17	-55.7	-70.6	3.8	1.49e+00	0	43	104	0	81	21763
2026-01-16 01:13:41.18	26.53	3.23	-55.6	-70.4	3.8	1.49e+00	0	43	104	0	81	21385
2026-01-16 01:13:42.19	26.52	3.30	-55.6	-69.6	3.8	1.49e+00	0	43	104	0	81	19553
2026-01-16 01:13:43.20	26.51	3.37	-55.6	-69.0	3.8	1.49e+00	0	43	104	0	81	18116
2026-01-16 01:13:44.21	26.49	3.44	-55.5	-67.3	4.1	1.48e+00	0	43	104	0	81	14982
2026-01-16 01:13:45.22	26.48	3.50	-55.4	-66.7	4.3	1.38e+00	0	43	0	0	81	13916
2026-01-16 01:13:46.23	26.47	3.57	-55.2	-64.1	5.6	9.21e-01	0	43	0	1048576	81	10325
2026-01-16 01:13:47.24	26.46	3.64	-55.1	-63.5	5.9	3.68e-01	0	43	0	3145728	81	9714
2026-01-16 01:13:48.25	26.45	3.71	-54.7	-61.6	7.6	9.82e-02	0	43	0	5242880	81	7803
2026-01-16 01:13:49.26	26.43	3.78	-55.0	-63.3	6.2	1.42e-01	0	43	0	7340032	81	9443
2026-01-16 01:13:50.27	26.42	3.85	-54.2	-59.8	9.5	2.06e-01	0	43	0	8388608	80	6679
2026-01-16 01:13:51.28	26.41	3.91	-54.1	-59.3	10.2	2.97e-03	0	43	0	10485760	79	6652
2026-01-16 01:13:52.29	26.40	3.98	-54.1	-59.1	10.3	9.13e-03	0	43	0	12582912	79	6563
2026-01-16 01:13:53.30	26.39	4.05	-53.9	-58.6	10.9	1.28e-02	0	44	0	14680064	79	6162
2026-01-16 01:13:54.31	26.37	4.12	-54.1	-59.0	10.5	3.27e-03	0	44	0	16777216	79	6493
2026-01-16 01:13:55.32	26.36	4.19	-54.3	-60.0	9.4	8.21e-03	0	44	0	17825792	79	7241
2026-01-16 01:13:56.33	26.35	4.26	-54.6	-60.8	8.6	4.19e-02	0	44	0	19922944	79	7901
2026-01-16 01:13:57.34	26.34	4.33	-54.6	-61.0	8.4	4.73e-02	0	44	0	22020096	79	8124
2026-01-16 01:13:58.35	26.32	4.40	-54.6	-60.9	8.5	2.58e-02	0	44	0	24117248	79	8032
2026-01-16 01:13:59.36	26.31	4.47	-54.6	-60.7	8.7	3.74e-02	0	44	0	26214400	79	7846
2026-01-16 01:14:00.37	26.30	4.54	-54.6	-61.0	8.4	4.31e-02	0	44	0	27262976	79	8095
2026-01-16 01:14:01.38	26.29	4.61	-54.7	-61.4	7.9	7.42e-02	0	44	0	29360128	80	8071
2026-01-16 01:14:02.39	26.27	4.68	-55.0	-62.9	6.5	1.79e-01	0	44	0	31457280	80	9567
2026-01-16 01:14:03.40	26.26	4.75	-55.2	-64.2	5.5	2.99e-01	0	44	0	33554432	80	11037
2026-01-16 01:14:04.41	26.25	4.82	-55.0	-63.2	6.3	2.26e-01	0	44	0	35651584	80	9891
2026-01-16 01:14:05.42	26.23	4.89	-55.1	-63.7	5.9	2.96e-01	0	44	0	37748736	80	10428
2026-01-16 01:14:06.43	26.22	4.97	-55.2	-64.2	5.6	4.32e-01	0	44	0	38797312	80	11063
2026-01-16 01:14:07.44	26.21	5.04	-55.3	-63.2	6.3	7.20e-01	0	44	0	40894464	81	9308
2026-01-16 01:14:08.45	26.19	5.11	-54.5	-59.0	11.4	1.87e-04	0	44	0	42991616	79	6434
2026-01-16 01:14:09.46	26.18	5.18	-55.4	-63.3	6.8	6.33e-03	0	44	0	45088768	81	9486
2026-01-16 01:14:10.47	26.17	5.25	-55.5	-66.1	4.0	1.49e+00	0	44	104	45088768	81	13093
2026-01-16 01:14:11.48	26.15	5.33	-54.7	-59.6	10.8	1.06e-03	0	44	0	45088768	80	6549
2026-01-16 01:14:12.49	26.14	5.40	-55.2	-61.2	8.7	2.53e-01	0	44	0	47185920	82	7002
2026-01-16 01:14:13.50	26.12	5.47	-53.9	-57.4	13.2	9.10e-06	0	44	0	49283072	79	5381
2026-01-16 01:14:14.50	26.11	5.54	-53.9	-57.4	13.2	3.12e-05	0	44	0	51380224	79	5355
2026-01-16 01:14:15.51	26.10	5.62	-54.0	-57.6	13.0	2.67e-05	0	45	0	53477376	79	5523
2026-01-16 01:14:16.52	26.08	5.69	-53.9	-57.5	13.2	2.67e-05	0	44	0	55574528	79	5409
2026-01-16 01:14:17.53	26.07	5.76	-53.0	-55.8	14.8	3.00e-06	0	45	0	56623104	78	4746
2026-01-16 01:14:18.54	26.05	5.84	-53.1	-56.0	14.8	0.00e+00	0	45	0	58720256	78	4831
2026-01-16 01:14:19.55	26.04	5.91	-53.5	-56.6	14.1	0.00e+00	0	44	0	60817408	78	5214
2026-01-16 01:14:20.56	26.02	5.99	-53.3	-56.2	14.5	7.00e-07	0	45	0	62914560	78	4963
2026-01-16 01:14:21.57	26.01	6.06	-53.5	-56.5	14.3	7.00e-07	0	45	0	65011712	78	5124
2026-01-16 01:14:22.58	25.99	6.13	-52.8	-55.5	15.4	0.00e+00	0	45	0	66060288	77	4816
2026-01-16 01:14:23.59	25.98	6.21	-53.0	-55.7	15.2	7.00e-07	0	45	0	68157440	77	4938
2026-01-16 01:14:24.60	25.96	6.28	-52.8	-55.4	15.4	0.00e+00	0	45	0	70254592	77	4806
2026-01-16 01:14:25.61	25.95	6.36	-52.8	-55.3	15.6	0.00e+00	0	45	0	72351744	77	4751
2026-01-16 01:14:26.62	25.93	6.44	-53.3	-56.2	14.7	0.00e+00	0	45	0	74448896	77	5219
2026-01-16 01:14:27.63	25.92	6.51	-53.1	-55.8	15.1	0.00e+00	0	45	0	75497472	77	5000
2026-01-16 01:14:28.64	25.90	6.59	-53.1	-55.8	15.2	0.00e+00	0	45	0	77594624	77	5002
2026-01-16 01:14:29.65	25.89	6.66	-52.9	-55.5	15.4	0.00e+00	0	45	0	79691776	77	4818
2026-01-16 01:14:30.66	25.87	6.74	-52.9	-55.5	15.5	0.00e+00	0	45	0	81788928	77	4835
2026-01-16 01:14:31.67	25.86	6.82	-53.3	-56.2	14.8	0.00e+00	0	45	0	83886080	77	5221
2026-01-16 01:14:32.68	25.84	6.89	-53.2	-56.0	14.8	0.00e+00	0	45	0	84934656	77	5154
2026-01-16 01:14:33.69	25.82	6.97	-53.3	-56.1	14.8	0.00e+00	0	45	0	87031808	77	5209
2026-01-16 01:14:34.70	25.81	7.05	-53.1	-55.8	15.2	0.00e+00	0	45	0	89128960	77	4994
2026-01-16 01:14:35.71	25.79	7.12	-52.4	-54.7	16.2	0.00e+00	0	45	0	91226112	76	4702
2026-01-16 01:14:36.72	25.78	7.20	-52.4	-54.6	16.4	0.00e+00	0	45	0	93323264	76	4646
2026-01-16 01:14:37.73	25.76	7.28	-52.6	-55.0	16.0	0.00e+00	0	45	0	94371840	76	4842
2026-01-16 01:14:38.74	25.74	7.36	-52.4	-54.7	16.4	0.00e+00	0	45	0	96468992	76	4659
2026-01-16 01:14:39.74	25.73	7.44	-52.4	-54.6	16.4	0.00e+00	0	45	0	98566144	76	4637
2026-01-16 01:14:40.75	25.71	7.51	-52.5	-54.8	16.2	0.00e+00	0	45	0	100663296	76	4729
2026-01-16 01:14:41.76	25.69	7.59	-52.4	-54.7	16.4	0.00e+00	0	45	0	102760448	76	4677
2026-01-16 01:14:42.77	25.68	7.67	-52.5	-54.8	16.3	0.00e+00	0	45	0	103809024	76	4725
2026-01-16 01:14:43.78	25.66	7.75	-52.5	-54.8	16.3	0.00e+00	0	45	0	105906176	76	4724
2026-01-16 01:14:44.79	25.64	7.83	-52.3	-54.5	16.6	0.00e+00	0	45	0	108003328	76	4548
2026-01-16 01:14:45.80	25.63	7.91	-52.5	-54.7	16.4	0.00e+00	0	45	0	110100480	76	4686
2026-01-16 01:14:46.81	25.61	7.99	-52.4	-54.6	16.5	0.00e+00	0	45	0	112197632	76	4635
2026-01-16 01:14:47.82	25.59	8.07	-52.3	-54.5	16.6	0.00e+00	0	45	0	114294784	76	4586
2026-01-16 01:14:48.83	25.57	8.15	-52.1	-54.2	16.9	0.00e+00	0	45	0	115343360	76	4427
2026-01-16 01:14:49.84	25.55	8.23	-52.1	-54.3	16.9	0.00e+00	0	45	0	117440512	76	4449
2026-01-16 01:14:50.85	25.54	8.31	-52.2	-54.3	16.8	0.00e+00	0	45	0	119537664	76	4486
2026-01-16 01:14:51.86	25.52	8.40	-52.1	-54.2	16.9	0.00e+00	0	45	0	121634816	76	4420
2026-01-16 01:14:52.87	25.50	8.48	-52.2	-54.4	16.8	0.00e+00	0	45	0	123731968	76	4509
2026-01-16 01:14:53.88	25.48	8.56	-52.2	-54.3	16.9	0.00e+00	0	46	0	124780544	76	4446
2026-01-16 01:14:54.89	25.46	8.64	-52.1	-54.2	17.0	0.00e+00	0	45	0	126877696	76	4392
2026-01-16 01:14:55.90	25.45	8.72	-52.2	-54.4	16.8	0.00e+00	0	45	0	128974848	76	4504
2026-01-16 01:14:56.91	25.43	8.81	-52.2	-54.4	16.8	0.00e+00	0	45	0	131072000	75	4781
2026-01-16 01:14:57.92	25.41	8.89	-52.0	-54.0	17.1	0.00e+00	0	46	0	133169152	75	4590
2026-01-16 01:14:58.93	25.39	8.97	-52.3	-54.5	16.7	0.00e+00	0	46	0	134217728	75	4857
2026-01-16 01:14:59.94	25.37	9.06	-51.9	-53.9	17.3	0.00e+00	0	46	0	136314880	75	4498
2026-01-16 01:15:00.95	25.35	9.14	-52.1	-54.2	17.0	0.00e+00	0	46	0	138412032	75	4683
2026-01-16 01:15:01.96	25.33	9.22	-52.0	-54.0	17.2	0.00e+00	0	46	0	140509184	75	4553
2026-01-16 01:15:02.97	25.31	9.31	-52.0	-54.0	17.2	0.00e+00	0	46	0	142606336	75	4558
2026-01-16 01:15:03.98	25.29	9.39	-52.2	-54.3	16.9	0.00e+00	0	46	0	143654912	75	4741
2026-01-16 01:15:04.98	25.27	9.48	-51.9	-53.9	17.3	0.00e+00	0	46	0	145752064	75	4527
2026-01-16 01:15:06.00	25.25	9.56	-51.9	-53.9	17.4	0.00e+00	0	46	0	147849216	75	4500
2026-01-16 01:15:07.00	25.23	9.65	-51.8	-53.8	17.5	0.00e+00	0	46	0	149946368	75	4451
2026-01-16 01:15:08.01	25.21	9.73	-51.9	-53.8	17.5	0.00e+00	0	46	0	152043520	75	4458
2026-01-16 01:15:09.02	25.19	9.82	-51.8	-53.8	17.5	0.00e+00	0	46	0	153092096	75	4453
2026-01-16 01:15:10.03	25.17	9.91	-51.9	-53.8	17.4	0.00e+00	0	46	0	155189248	75	4464
2026-01-16 01:15:11.04	25.15	9.99	-51.9	-53.8	17.5	0.00e+00	0	46	0	157286400	75	4461
2026-01-16 01:15:12.05	25.13	10.08	-51.8	-53.8	17.5	0.00e+00	0	46	0	159383552	75	4451
2026-01-16 01:15:13.06	25.11	10.17	-51.9	-53.8	17.5	0.00e+00	0	46	0	161480704	75	4474
2026-01-16 01:15:14.08	25.09	10.26	-51.9	-53.8	17.5	0.00e+00	0	46	0	162529280	75	4478
2026-01-16 01:15:15.08	25.07	10.34	-51.9	-53.9	17.3	0.00e+00	0	46	0	164626432	75	4530
2026-01-16 01:15:16.09	25.05	10.43	-51.7	-53.6	17.7	0.00e+00	0	46	0	166723584	75	4376
2026-01-16 01:15:17.10	25.03	10.52	-51.7	-53.5	17.7	0.00e+00	0	46	0	168820736	75	4330
2026-01-16 01:15:18.11	25.00	10.61	-51.7	-53.5	17.8	0.00e+00	0	46	0	170917888	75	4331
2026-01-16 01:15:19.12	24.98	10.70	-51.6	-53.5	17.8	0.00e+00	0	46	0	173015040	75	4306
2026-01-16 01:15:20.13	24.96	10.79	-51.7	-53.5	17.8	0.00e+00	0	46	0	174063616	75	4331
2026-01-16 01:15:21.14	24.94	10.88	-51.7	-53.6	17.7	0.00e+00	0	46	0	176160768	75	4372
2026-01-16 01:15:22.15	24.92	10.97	-51.5	-53.4	17.9	0.00e+00	0	46	0	178257920	75	4244
2026-01-16 01:15:23.16	24.89	11.06	-51.6	-53.5	17.9	0.00e+00	0	46	0	180355072	75	4299
2026-01-16 01:15:24.18	24.87	11.15	-51.5	-53.2	18.1	0.00e+00	0	46	0	181403648	75	4189
2026-01-16 01:15:25.18	24.85	11.24	-51.4	-53.1	18.3	0.00e+00	0	46	0	183500800	74	4367
2026-01-16 01:15:26.19	24.83	11.33	-51.7	-53.5	17.8	0.00e+00	0	46	0	185597952	74	4594
2026-01-16 01:15:27.20	24.80	11.42	-51.6	-53.4	17.9	0.00e+00	0	46	0	187695104	74	4543
2026-01-16 01:15:28.21	24.78	11.52	-51.6	-53.4	17.9	0.00e+00	0	46	0	189792256	74	4512
2026-01-16 01:15:29.22	24.76	11.61	-51.4	-53.1	18.2	0.00e+00	0	46	0	191889408	74	4390
2026-01-16 01:15:30.23	24.73	11.70	-51.4	-53.2	18.2	0.00e+00	0	46	0	192937984	74	4401
2026-01-16 01:15:31.24	24.71	11.79	-51.3	-53.1	18.3	0.00e+00	0	46	0	195035136	74	4357
2026-01-16 01:15:32.25	24.68	11.89	-51.3	-53.0	18.4	0.00e+00	0	46	0	197132288	74	4309
2026-01-16 01:15:33.26	24.66	11.98	-51.3	-53.0	18.4	0.00e+00	0	46	0	199229440	74	4303
2026-01-16 01:15:34.27	24.64	12.08	-51.2	-52.8	18.5	0.00e+00	0	46	0	201326592	74	4238
2026-01-16 01:15:35.29	24.61	12.17	-51.4	-53.1	18.3	0.00e+00	0	46	0	202375168	74	4362
2026-01-16 01:15:36.30	24.59	12.27	-51.4	-53.2	18.2	0.00e+00	0	46	0	204472320	74	4402
2026-01-16 01:15:37.30	24.56	12.36	-51.3	-53.1	18.4	0.00e+00	0	46	0	206569472	74	4345
2026-01-16 01:15:38.32	24.54	12.46	-51.2	-52.8	18.6	0.00e+00	0	46	0	208666624	74	4242
2026-01-16 01:15:39.33	24.51	12.55	-51.1	-52.8	18.6	0.00e+00	0	46	0	210763776	74	4210
2026-01-16 01:15:40.33	24.49	12.65	-51.0	-52.7	18.7	0.00e+00	0	46	0	211812352	74	4151
2026-01-16 01:15:41.34	24.46	12.74	-51.0	-52.6	18.8	0.00e+00	0	46	0	213909504	73	4355
2026-01-16 01:15:42.35	24.43	12.84	-51.0	-52.6	18.8	0.00e+00	0	46	0	216006656	73	4378
2026-01-16 01:15:43.36	24.41	12.94	-50.9	-52.5	18.9	0.00e+00	0	47	0	218103808	73	4310
2026-01-16 01:15:44.37	24.38	13.04	-51.0	-52.6	18.8	0.00e+00	0	47	0	220200960	73	4376
2026-01-16 01:15:45.38	24.36	13.14	-50.9	-52.4	19.0	0.00e+00	0	46	0	221249536	73	4283
2026-01-16 01:15:46.39	24.33	13.23	-50.9	-52.5	18.9	0.00e+00	0	46	0	223346688	73	4313
2026-01-16 01:15:47.40	24.30	13.33	-50.8	-52.4	19.0	0.00e+00	0	46	0	225443840	73	4264
2026-01-16 01:15:48.41	24.27	13.43	-50.8	-52.4	19.1	0.00e+00	0	47	0	227540992	73	4253
2026-01-16 01:15:49.42	24.25	13.53	-50.7	-52.3	19.1	0.00e+00	0	47	0	229638144	73	4211
2026-01-16 01:15:50.43	24.22	13.63	-50.7	-52.2	19.2	0.00e+00	0	46	0	231735296	73	4181
2026-01-16 01:15:51.44	24.19	13.73	-50.8	-52.3	19.1	0.00e+00	0	47	0	232783872	73	4225
2026-01-16 01:15:52.45	24.16	13.83	-50.7	-52.2	19.2	0.00e+00	0	47	0	234881024	73	4193
2026-01-16 01:15:53.46	24.14	13.94	-50.6	-52.1	19.3	0.00e+00	0	47	0	236978176	73	4144
2026-01-16 01:15:54.47	24.11	14.04	-50.5	-52.0	19.4	0.00e+00	0	47	0	239075328	73	4077
2026-01-16 01:15:55.48	24.08	14.14	-50.5	-52.0	19.5	0.00e+00	0	47	0	240123904	73	4058
2026-01-16 01:15:56.49	24.05	14.24	-50.4	-51.9	19.5	0.00e+00	0	47	0	242221056	72	4268
2026-01-16 01:15:57.50	24.02	14.35	-50.4	-51.9	19.6	0.00e+00	0	47	0	244318208	72	4251
2026-01-16 01:15:58.51	23.99	14.45	-50.4	-51.9	19.6	0.00e+00	0	47	0	246415360	72	4263
2026-01-16 01:15:59.52	23.96	14.55	-50.5	-51.9	19.6	0.00e+00	0	47	0	248512512	72	4274
2026-01-16 01:16:00.53	23.93	14.66	-50.3	-51.7	19.7	0.00e+00	0	47	0	250609664	72	4190
2026-01-16 01:16:01.54	23.90	14.76	-50.3	-51.8	19.7	0.00e+00	0	47	0	251658240	72	4198
2026-01-16 01:16:02.55	23.87	14.87	-50.4	-51.8	19.7	0.00e+00	0	47	0	253755392	72	4212
2026-01-16 01:16:03.56	23.84	14.98	-50.3	-51.7	19.8	0.00e+00	0	47	0	255852544	72	4151
2026-01-16 01:16:04.57	23.81	15.08	-50.3	-51.7	19.8	0.00e+00	0	47	0	257949696	72	4159
2026-01-16 01:16:05.58	23.78	15.19	-50.3	-51.7	19.7	0.00e+00	0	47	0	260046848	72	4186
2026-01-16 01:16:06.59	23.75	15.30	-50.3	-51.7	19.7	0.00e+00	0	47	0	261095424	72	4184
2026-01-16 01:16:07.60	23.72	15.40	-50.2	-51.6	19.9	0.00e+00	0	47	0	263192576	72	4116
2026-01-16 01:16:08.61	23.69	15.51	-50.1	-51.5	20.0	0.00e+00	0	47	0	265289728	72	4069
2026-01-16 01:16:09.62	23.65	15.62	-50.2	-51.6	19.9	0.00e+00	0	47	0	267386880	72	4112
2026-01-16 01:16:10.63	23.62	15.73	-50.2	-51.6	19.9	0.00e+00	0	47	0	269484032	72	4105
2026-01-16 01:16:11.64	23.59	15.84	-50.1	-51.5	20.0	0.00e+00	0	47	0	270532608	72	4075
2026-01-16 01:16:12.65	23.56	15.95	-50.1	-51.5	20.0	0.00e+00	0	47	0	272629760	72	4078
2026-01-16 01:16:13.66	23.52	16.06	-50.1	-51.5	20.0	0.00e+00	0	47	0	274726912	72	4077
2026-01-16 01:16:14.67	23.49	16.17	-50.1	-51.4	20.1	0.00e+00	0	47	0	276824064	72	4032
2026-01-16 01:16:15.68	23.46	16.28	-50.0	-51.4	20.1	0.00e+00	0	47	0	278921216	72	4011
2026-01-16 01:16:16.69	23.42	16.39	-50.0	-51.3	20.2	0.00e+00	0	47	0	279969792	71	4238
2026-01-16 01:16:17.70	23.39	16.51	-50.0	-51.3	20.2	0.00e+00	0	47	0	282066944	71	4224
2026-01-16 01:16:18.70	23.35	16.62	-49.9	-51.2	20.4	0.00e+00	0	47	0	284164096	71	4177
2026-01-16 01:16:19.72	23.32	16.73	-49.9	-51.2	20.4	0.00e+00	0	47	0	286261248	71	4179
2026-01-16 01:16:20.73	23.28	16.85	-49.9	-51.2	20.4	0.00e+00	0	47	0	288358400	71	4191
2026-01-16 01:16:21.74	23.25	16.96	-49.9	-51.2	20.4	0.00e+00	0	47	0	289406976	71	4150
2026-01-16 01:16:22.75	23.21	17.08	-49.9	-51.2	20.4	0.00e+00	0	47	0	291504128	71	4166
2026-01-16 01:16:23.76	23.18	17.19	-49.9	-51.3	20.3	0.00e+00	0	47	0	293601280	71	4198
2026-01-16 01:16:24.77	23.14	17.31	-49.8	-51.1	20.5	0.00e+00	0	47	0	295698432	71	4140
2026-01-16 01:16:25.78	23.10	17.43	-49.7	-51.0	20.6	0.00e+00	0	47	0	297795584	71	4085
2026-01-16 01:16:26.79	23.07	17.54	-49.8	-51.1	20.5	0.00e+00	0	47	0	298844160	71	4108
2026-01-16 01:16:27.80	23.03	17.66	-49.9	-51.2	20.4	0.00e+00	0	47	0	300941312	71	4164
2026-01-16 01:16:28.81	22.99	17.78	-49.9	-51.2	20.4	0.00e+00	0	47	0	303038464	71	4183
2026-01-16 01:16:29.82	22.95	17.90	-49.8	-51.1	20.5	0.00e+00	0	47	0	305135616	71	4109
2026-01-16 01:16:30.83	22.92	18.02	-49.8	-51.1	20.5	0.00e+00	0	47	0	307232768	71	4142
2026-01-16 01:16:31.84	22.88	18.14	-49.7	-50.9	20.7	0.00e+00	0	47	0	309329920	71	4050
2026-01-16 01:16:32.85	22.84	18.26	-49.7	-51.0	20.7	0.00e+00	0	47	0	310378496	71	4056
2026-01-16 01:16:33.86	22.80	18.38	-49.8	-51.1	20.6	0.00e+00	0	47	0	312475648	71	4102
2026-01-16 01:16:34.87	22.76	18.50	-49.7	-50.9	20.7	0.00e+00	0	47	0	314572800	71	4051
2026-01-16 01:16:35.88	22.72	18.62	-49.7	-50.9	20.7	0.00e+00	0	47	0	316669952	71	4050
2026-01-16 01:16:36.89	22.68	18.75	-49.7	-51.0	20.6	0.00e+00	0	47	0	317718528	71	4085
2026-01-16 01:16:37.90	22.64	18.87	-49.7	-51.0	20.6	0.00e+00	0	47	0	319815680	71	4078
2026-01-16 01:16:38.91	22.60	18.99	-49.6	-50.9	20.7	0.00e+00	0	47	0	321912832	71	4025
2026-01-16 01:16:39.92	22.56	19.12	-49.7	-51.0	20.7	0.00e+00	0	47	0	324009984	71	4057
2026-01-16 01:16:40.93	22.51	19.24	-49.8	-51.1	20.5	0.00e+00	0	47	0	326107136	71	4129
2026-01-16 01:16:41.94	22.47	19.37	-49.6	-50.9	20.8	0.00e+00	0	47	0	328204288	71	4028
2026-01-16 01:16:42.95	22.43	19.50	-49.6	-50.9	20.8	0.00e+00	0	47	0	329252864	71	4029
2026-01-16 01:16:43.96	22.39	19.63	-49.7	-51.0	20.6	0.00e+00	0	47	0	331350016	71	4081
2026-01-16 01:16:44.97	22.34	19.75	-49.6	-50.9	20.8	0.00e+00	0	47	0	333447168	71	4006
2026-01-16 01:16:45.98	22.30	19.88	-49.4	-50.6	21.0	0.00e+00	0	47	0	335544320	70	4128
2026-01-16 01:16:46.99	22.26	20.01	-49.4	-50.6	21.0	0.00e+00	0	47	0	337641472	70	4130
2026-01-16 01:16:48.00	22.21	20.14	-49.4	-50.6	21.0	0.00e+00	0	48	0	338690048	70	4136
2026-01-16 01:16:49.01	22.17	20.27	-49.4	-50.6	21.1	0.00e+00	0	47	0	340787200	70	4111
2026-01-16 01:16:50.02	22.12	20.40	-49.4	-50.6	21.1	0.00e+00	0	47	0	342884352	70	4116
2026-01-16 01:16:51.03	22.08	20.53	-49.4	-50.6	21.1	0.00e+00	0	47	0	344981504	70	4101
2026-01-16 01:16:52.04	22.03	20.67	-49.3	-50.5	21.1	0.00e+00	0	47	0	347078656	70	4068
2026-01-16 01:16:53.04	21.98	20.80	-49.3	-50.5	21.2	0.00e+00	0	47	0	348127232	70	4062
2026-01-16 01:16:54.05	21.94	20.93	-49.3	-50.5	21.2	0.00e+00	0	47	0	350224384	70	4062
2026-01-16 01:16:55.06	21.89	21.07	-49.3	-50.5	21.2	0.00e+00	0	47	0	352321536	70	4074
2026-01-16 01:16:56.07	21.84	21.20	-49.4	-50.5	21.1	0.00e+00	0	47	0	354418688	70	4097
2026-01-16 01:16:57.08	21.79	21.34	-49.4	-50.6	21.1	0.00e+00	0	47	0	356515840	70	4106
2026-01-16 01:16:58.09	21.74	21.48	-49.2	-50.4	21.2	0.00e+00	0	47	0	357564416	70	4039
2026-01-16 01:16:59.10	21.69	21.61	-49.3	-50.5	21.2	0.00e+00	0	47	0	359661568	70	4057
2026-01-16 01:17:00.11	21.64	21.75	-49.4	-50.5	21.2	0.00e+00	0	48	0	361758720	70	4094
2026-01-16 01:17:01.12	21.59	21.89	-49.4	-50.6	21.1	0.00e+00	0	48	0	363855872	70	4108
2026-01-16 01:17:02.13	21.54	22.03	-49.3	-50.5	21.2	0.00e+00	0	47	0	365953024	70	4080
2026-01-16 01:17:03.14	21.49	22.17	-49.2	-50.4	21.3	0.00e+00	0	47	0	368050176	70	4007
2026-01-16 01:17:04.15	21.44	22.31	-49.3	-50.5	21.2	0.00e+00	0	47	0	369098752	70	4064
2026-01-16 01:17:05.16	21.39	22.45	-49.2	-50.4	21.3	0.00e+00	0	47	0	371195904	70	4019
2026-01-16 01:17:06.17	21.34	22.60	-49.3	-50.4	21.2	0.00e+00	0	47	0	373293056	70	4049
2026-01-16 01:17:07.18	21.28	22.74	-49.2	-50.4	21.3	0.00e+00	0	47	0	375390208	70	4015
2026-01-16 01:17:08.19	21.23	22.88	-49.3	-50.5	21.2	0.00e+00	0	48	0	376438784	70	4053
2026-01-16 01:17:09.20	21.17	23.03	-49.3	-50.5	21.3	0.00e+00	0	48	0	378535936	70	4057
2026-01-16 01:17:10.21	21.12	23.17	-49.5	-50.7	21.1	0.00e+00	0	48	0	380633088	70	4158
2026-01-16 01:17:11.22	21.06	23.32	-49.3	-50.5	21.2	0.00e+00	0	47	0	382730240	70	4059
2026-01-16 01:17:12.23	21.01	23.47	-49.3	-50.4	21.3	0.00e+00	0	48	0	384827392	70	4043
2026-01-16 01:17:13.24	20.95	23.62	-49.3	-50.4	21.3	0.00e+00	0	47	0	386924544	70	4050
2026-01-16 01:17:14.25	20.89	23.77	-49.3	-50.5	21.2	0.00e+00	0	48	0	387973120	70	4086
2026-01-16 01:17:15.26	20.84	23.92	-49.3	-50.5	21.2	0.00e+00	0	48	0	390070272	70	4074
2026-01-16 01:17:16.26	20.78	24.06	-49.4	-50.5	21.2	0.00e+00	0	48	0	392167424	70	4097
2026-01-16 01:17:17.27	20.72	24.22	-49.4	-50.6	21.1	0.00e+00	0	47	0	394264576	70	4145
2026-01-16 01:17:18.28	20.66	24.37	-49.5	-50.7	21.0	0.00e+00	0	48	0	396361728	70	4190
2026-01-16 01:17:19.29	20.60	24.52	-49.6	-50.9	20.9	0.00e+00	0	48	0	397410304	70	4255
2026-01-16 01:17:20.30	20.54	24.68	-49.7	-50.9	20.8	0.00e+00	0	48	0	399507456	70	4271
2026-01-16 01:17:21.31	20.48	24.83	-49.8	-51.1	20.7	0.00e+00	0	47	0	401604608	70	4343
2026-01-16 01:17:22.32	20.41	24.99	-50.0	-51.3	20.5	0.00e+00	0	48	0	403701760	70	4455
2026-01-16 01:17:23.33	20.35	25.14	-49.9	-51.2	20.6	0.00e+00	0	48	0	405798912	70	4424
2026-01-16 01:17:24.34	20.29	25.30	-50.1	-51.4	20.4	0.00e+00	0	48	0	406847488	70	4516
2026-01-16 01:17:25.35	20.22	25.46	-50.2	-51.6	20.3	0.00e+00	0	48	0	408944640	71	4350
2026-01-16 01:17:26.36	20.16	25.62	-50.4	-51.8	20.1	0.00e+00	0	47	0	411041792	71	4461
2026-01-16 01:17:27.37	20.09	25.78	-50.5	-51.9	20.0	0.00e+00	0	48	0	413138944	71	4498
2026-01-16 01:17:28.38	20.03	25.94	-50.5	-51.9	19.9	0.00e+00	0	48	0	415236096	71	4530
2026-01-16 01:17:29.38	19.96	26.10	-50.6	-52.0	19.8	0.00e+00	0	48	0	416284672	71	4572
2026-01-16 01:17:30.39	19.89	26.26	-50.7	-52.2	19.7	0.00e+00	0	48	0	418381824	71	4655
2026-01-16 01:17:31.40	19.82	26.43	-50.6	-52.0	19.8	0.00e+00	0	48	0	420478976	72	4316
2026-01-16 01:17:32.41	19.76	26.59	-50.8	-52.2	19.6	0.00e+00	0	48	0	422576128	72	4424
2026-01-16 01:17:33.42	19.69	26.76	-50.8	-52.2	19.6	0.00e+00	0	48	0	424673280	72	4426
2026-01-16 01:17:34.43	19.61	26.93	-50.8	-52.3	19.5	0.00e+00	0	48	0	425721856	72	4471
2026-01-16 01:17:35.44	19.54	27.09	-51.0	-52.4	19.4	0.00e+00	0	48	0	427819008	72	4545
2026-01-16 01:17:36.45	19.47	27.26	-51.1	-52.6	19.3	0.00e+00	0	48	0	429916160	72	4609
2026-01-16 01:17:37.45	19.40	27.43	-51.1	-52.6	19.2	0.00e+00	0	48	0	432013312	72	4649
2026-01-16 01:17:38.46	19.32	27.60	-51.2	-52.8	19.1	0.00e+00	0	48	0	434110464	73	4473
2026-01-16 01:17:39.47	19.25	27.77	-51.4	-53.0	18.9	0.00e+00	0	48	0	435159040	73	4554
2026-01-16 01:17:40.48	19.17	27.95	-51.5	-53.2	18.7	0.00e+00	0	48	0	437256192	73	4676
2026-01-16 01:17:41.49	19.10	28.12	-51.6	-53.3	18.6	0.00e+00	0	48	0	439353344	73	4706
2026-01-16 01:17:42.50	19.02	28.30	-51.8	-53.5	18.4	0.00e+00	0	47	0	441450496	74	4583
2026-01-16 01:17:43.51	18.94	28.47	-52.0	-53.8	18.1	0.00e+00	0	48	0	443547648	74	4714
2026-01-16 01:17:44.52	18.86	28.65	-52.1	-53.9	18.0	0.00e+00	0	48	0	445644800	74	4782
2026-01-16 01:17:45.53	18.78	28.83	-52.3	-54.2	17.7	0.00e+00	0	48	0	446693376	75	4664
2026-01-16 01:17:46.54	18.70	29.01	-52.3	-54.2	17.7	0.00e+00	0	48	0	448790528	75	4678
2026-01-16 01:17:47.55	18.62	29.19	-52.4	-54.3	17.5	0.00e+00	0	48	0	450887680	75	4759
2026-01-16 01:17:48.56	18.54	29.37	-52.5	-54.5	17.4	0.00e+00	0	48	0	452984832	75	4846
2026-01-16 01:17:49.57	18.45	29.55	-52.7	-54.7	17.3	0.00e+00	0	48	0	454033408	75	4943
2026-01-16 01:17:50.58	18.37	29.74	-52.7	-54.7	17.2	0.00e+00	0	48	0	456130560	76	4687
2026-01-16 01:17:51.59	18.28	29.92	-52.8	-54.9	17.1	0.00e+00	0	48	0	458227712	76	4774
2026-01-16 01:17:52.60	18.20	30.11	-52.8	-54.9	17.0	0.00e+00	0	48	0	460324864	76	4769
2026-01-16 01:17:53.61	18.11	30.29	-52.9	-55.0	17.0	0.00e+00	0	48	0	462422016	76	4826
2026-01-16 01:17:54.62	18.02	30.48	-52.8	-54.9	17.1	0.00e+00	0	48	0	464519168	76	4778
2026-01-16 01:17:55.62	17.93	30.67	-52.9	-54.9	17.0	0.00e+00	0	48	0	465567744	76	4813
2026-01-16 01:17:56.63	17.84	30.86	-53.0	-55.1	16.9	0.00e+00	0	48	0	467664896	76	4878
2026-01-16 01:17:57.64	17.74	31.05	-53.0	-55.1	16.8	0.00e+00	0	48	0	469762048	76	4917
2026-01-16 01:17:58.65	17.65	31.24	-53.0	-55.2	16.8	0.00e+00	0	48	0	471859200	76	4933
2026-01-16 01:17:59.66	17.56	31.44	-53.2	-55.3	16.6	0.00e+00	0	48	0	473956352	76	5035
2026-01-16 01:18:00.67	17.46	31.63	-53.3	-55.5	16.5	0.00e+00	0	48	0	475004928	77	4837
2026-01-16 01:18:01.68	17.36	31.83	-53.3	-55.5	16.5	0.00e+00	0	48	0	477102080	77	4849
2026-01-16 01:18:02.69	17.26	32.03	-53.4	-55.7	16.3	0.00e+00	0	48	0	479199232	77	4955
2026-01-16 01:18:03.70	17.17	32.23	-53.5	-55.9	16.1	0.00e+00	0	48	0	481296384	77	5067
2026-01-16 01:18:04.70	17.07	32.42	-53.6	-56.0	16.0	0.00e+00	0	48	0	482344960	77	5125
2026-01-16 01:18:05.71	16.96	32.63	-53.7	-56.2	15.8	0.00e+00	0	48	0	484442112	77	5232
2026-01-16 01:18:06.72	16.86	32.83	-53.7	-56.2	15.8	0.00e+00	0	48	0	486539264	77	5250
2026-01-16 01:18:07.73	16.75	33.03	-53.7	-56.2	15.8	0.00e+00	0	48	0	488636416	78	4960
2026-01-16 01:18:08.74	16.65	33.24	-53.7	-56.2	15.8	0.00e+00	0	48	0	490733568	78	4935
2026-01-16 01:18:09.75	16.54	33.44	-53.7	-56.2	15.9	0.00e+00	0	48	0	492830720	78	4931
2026-01-16 01:18:10.76	16.43	33.65	-53.8	-56.3	15.7	0.00e+00	0	48	0	493879296	78	5025
2026-01-16 01:18:11.77	16.32	33.86	-53.8	-56.3	15.7	0.00e+00	0	48	0	495976448	78	5007
2026-01-16 01:18:12.78	16.21	34.07	-53.8	-56.2	15.8	0.00e+00	0	48	0	498073600	78	4965
2026-01-16 01:18:13.79	16.10	34.28	-53.7	-56.2	15.8	0.00e+00	0	48	0	500170752	78	4941
2026-01-16 01:18:14.80	15.98	34.50	-53.6	-55.9	16.1	0.00e+00	0	48	0	502267904	78	4813
2026-01-16 01:18:15.80	15.86	34.71	-53.4	-55.7	16.4	0.00e+00	0	48	0	503316480	78	4679
2026-01-16 01:18:16.81	15.75	34.92	-53.3	-55.5	16.5	0.00e+00	0	48	0	505413632	78	4597
2026-01-16 01:18:17.82	15.63	35.14	-53.3	-55.5	16.6	0.00e+00	0	48	0	507510784	78	4551
2026-01-16 01:18:18.83	15.50	35.36	-53.2	-55.3	16.8	0.00e+00	0	48	0	509607936	78	4472
2026-01-16 01:18:19.84	15.38	35.58	-53.1	-55.2	16.8	0.00e+00	0	48	0	511705088	77	4674
2026-01-16 01:18:20.85	15.26	35.80	-53.1	-55.2	16.8	0.00e+00	0	48	0	512753664	77	4688
2026-01-16 01:18:21.86	15.13	36.02	-52.9	-54.9	17.0	0.00e+00	0	48	0	514850816	77	4535
2026-01-16 01:18:22.87	15.00	36.24	-53.1	-55.3	16.8	0.00e+00	0	48	0	516947968	77	4708
2026-01-16 01:18:23.88	14.87	36.47	-53.2	-55.3	16.7	0.00e+00	0	48	0	519045120	77	4734
2026-01-16 01:18:24.88	14.74	36.69	-53.3	-55.5	16.5	0.00e+00	0	48	0	521142272	77	4858
2026-01-16 01:18:25.89	14.61	36.92	-53.5	-55.8	16.2	0.00e+00	0	48	0	522190848	77	5010
2026-01-16 01:18:26.90	14.47	37.15	-53.7	-56.1	16.0	0.00e+00	0	48	0	524288000	78	4906
2026-01-16 01:18:27.91	14.33	37.38	-53.8	-56.3	15.8	0.00e+00	0	48	0	526385152	78	4993
2026-01-16 01:18:28.92	14.19	37.61	-53.9	-56.4	15.7	0.00e+00	0	48	0	528482304	78	5069
2026-01-16 01:18:29.93	14.05	37.85	-53.8	-56.2	15.8	0.00e+00	0	48	0	530579456	78	4962
2026-01-16 01:18:30.94	13.91	38.08	-53.8	-56.3	15.8	0.00e+00	0	48	0	532676608	78	4990
2026-01-16 01:18:31.95	13.76	38.32	-53.8	-56.3	15.8	0.00e+00	0	48	0	533725184	78	4986
2026-01-16 01:18:32.96	13.61	38.56	-53.8	-56.3	15.8	0.00e+00	0	48	0	535822336	78	5000
2026-01-16 01:18:33.97	13.46	38.80	-53.9	-56.4	15.7	0.00e+00	0	48	0	537919488	78	5098
2026-01-16 01:18:34.98	13.31	39.04	-54.0	-56.6	15.6	0.00e+00	0	48	0	540016640	78	5166
2026-01-16 01:18:35.98	13.15	39.28	-54.0	-56.6	15.5	0.00e+00	0	48	0	541065216	78	5166
2026-01-16 01:18:36.99	12.99	39.52	-53.7	-56.1	15.9	0.00e+00	0	48	0	543162368	78	4926
2026-01-16 01:18:38.00	12.83	39.77	-53.7	-56.2	16.0	0.00e+00	0	48	0	545259520	78	4931
2026-01-16 01:18:39.01	12.67	40.01	-53.5	-55.8	16.3	0.00e+00	0	48	0	547356672	78	4727
2026-01-16 01:18:40.02	12.51	40.26	-53.5	-55.8	16.3	0.00e+00	0	48	0	549453824	78	4716
2026-01-16 01:18:41.03	12.34	40.51	-53.4	-55.6	16.5	0.00e+00	0	48	0	551550976	78	4639
2026-01-16 01:18:42.04	12.17	40.76	-53.4	-55.6	16.6	0.00e+00	0	48	0	552599552	78	4616
2026-01-16 01:18:43.05	11.99	41.01	-53.3	-55.5	16.6	0.00e+00	0	48	0	554696704	78	4565
2026-01-16 01:18:44.06	11.82	41.27	-53.1	-55.2	17.0	0.00e+00	0	48	0	556793856	78	4407
2026-01-16 01:18:45.07	11.64	41.52	-53.1	-55.1	17.0	0.00e+00	0	48	0	558891008	78	4388
2026-01-16 01:18:46.08	11.46	41.78	-53.1	-55.1	17.0	0.00e+00	0	48	0	560988160	77	4651
2026-01-16 01:18:47.09	11.27	42.04	-52.9	-54.9	17.2	0.00e+00	0	48	0	562036736	77	4528
2026-01-16 01:18:48.10	11.08	42.30	-52.6	-54.5	17.7	0.00e+00	0	48	0	564133888	77	4297
2026-01-16 01:18:49.11	10.89	42.56	-52.3	-54.1	18.1	0.00e+00	0	48	0	566231040	76	4343
2026-01-16 01:18:50.12	10.70	42.82	-52.3	-54.0	18.1	0.00e+00	0	48	0	568328192	76	4332
2026-01-16 01:18:51.13	10.50	43.09	-52.2	-54.0	18.2	0.00e+00	0	48	0	570425344	76	4311
2026-01-16 01:18:52.14	10.30	43.35	-52.2	-54.0	18.2	0.00e+00	0	48	0	571473920	76	4306
2026-01-16 01:18:53.14	10.10	43.62	-52.2	-54.0	18.2	0.00e+00	0	48	0	573571072	76	4292
2026-01-16 01:18:54.16	9.89	43.89	-52.0	-53.7	18.5	0.00e+00	0	48	0	575668224	75	4404
2026-01-16 01:18:55.17	9.68	44.16	-51.7	-53.3	18.9	0.00e+00	0	48	0	577765376	75	4201
2026-01-16 01:18:56.17	9.46	44.43	-51.7	-53.3	18.9	0.00e+00	0	48	0	579862528	75	4198
2026-01-16 01:18:57.18	9.24	44.70	-51.7	-53.3	18.8	0.00e+00	0	48	0	580911104	75	4227
2026-01-16 01:18:58.19	9.02	44.97	-51.6	-53.2	19.0	0.00e+00	0	48	0	583008256	75	4147
2026-01-16 01:18:59.20	8.79	45.25	-51.4	-52.9	19.2	0.00e+00	0	48	0	585105408	74	4287
2026-01-16 01:19:00.21	8.56	45.53	-51.2	-52.7	19.3	0.00e+00	0	48	0	587202560	74	4170
2026-01-16 01:19:01.22	8.33	45.80	-51.0	-52.5	19.6	0.00e+00	0	48	0	589299712	74	4067
2026-01-16 01:19:02.23	8.09	46.08	-51.0	-52.4	19.7	0.00e+00	0	48	0	590348288	73	4289
2026-01-16 01:19:03.24	7.85	46.37	-51.1	-52.5	19.6	0.00e+00	0	48	0	592445440	73	4320
2026-01-16 01:19:04.25	7.60	46.65	-51.1	-52.5	19.6	0.00e+00	0	48	0	594542592	73	4324
2026-01-16 01:19:05.26	7.35	46.93	-51.0	-52.4	19.7	0.00e+00	0	48	0	596639744	73	4259
2026-01-16 01:19:06.27	7.09	47.22	-51.0	-52.4	19.7	0.00e+00	0	48	0	598736896	73	4266
2026-01-16 01:19:07.28	6.83	47.50	-51.0	-52.4	19.7	0.00e+00	0	48	0	599785472	73	4281
2026-01-16 01:19:08.29	6.56	47.79	-51.2	-52.7	19.4	0.00e+00	0	48	0	601882624	73	4429
2026-01-16 01:19:09.30	6.29	48.08	-51.4	-52.9	19.2	0.00e+00	0	48	0	603979776	73	4528
2026-01-16 01:19:10.30	6.01	48.37	-51.5	-53.1	19.0	0.00e+00	0	48	0	606076928	73	4623
2026-01-16 01:19:11.31	5.73	48.66	-51.6	-53.2	18.9	0.00e+00	0	48	0	608174080	73	4688
2026-01-16 01:19:12.32	5.44	48.95	-51.6	-53.2	19.0	0.00e+00	0	48	0	610271232	74	4408
2026-01-16 01:19:13.33	5.15	49.25	-51.7	-53.3	18.9	0.00e+00	0	48	0	611319808	74	4457
2026-01-16 01:19:14.34	4.85	49.54	-51.6	-53.2	19.0	0.00e+00	0	48	0	613416960	74	4412
2026-01-16 01:19:15.35	4.54	49.84	-51.5	-53.0	19.1	0.00e+00	0	48	0	615514112	74	4333
2026-01-16 01:19:16.36	4.23	50.13	-51.3	-52.8	19.3	0.00e+00	0	48	0	617611264	74	4204
2026-01-16 01:19:17.37	3.91	50.43	-51.3	-52.8	19.4	0.00e+00	0	48	0	618659840	74	4200
2026-01-16 01:19:18.38	3.59	50.73	-51.1	-52.6	19.6	0.00e+00	0	48	0	620756992	74	4102
2026-01-16 01:19:19.39	3.26	51.03	-50.6	-52.0	20.1	0.00e+00	0	48	0	622854144	73	4073
2026-01-16 01:19:20.40	2.92	51.33	-50.3	-51.7	20.5	0.00e+00	0	48	0	624951296	72	4146
2026-01-16 01:19:21.41	2.58	51.63	-50.1	-51.4	20.7	0.00e+00	0	48	0	627048448	72	4030
2026-01-16 01:19:22.42	2.22	51.93	-49.8	-51.0	21.1	0.00e+00	0	48	0	629145600	71	4056
2026-01-16 01:19:23.43	1.87	52.24	-49.6	-50.7	21.4	0.00e+00	0	48	0	630194176	71	3956
2026-01-16 01:19:24.44	1.50	52.54	-49.5	-50.7	21.4	0.00e+00	0	48	0	632291328	70	4169
2026-01-16 01:19:25.44	1.13	52.84	-49.6	-50.8	21.3	0.00e+00	0	48	0	634388480	70	4205
2026-01-16 01:19:26.45	0.75	53.15	-49.6	-50.7	21.4	0.00e+00	0	48	0	636485632	70	4181
2026-01-16 01:19:27.46	0.36	53.45	-49.4	-50.6	21.5	0.00e+00	0	48	0	638582784	70	4105
2026-01-16 01:19:28.47	359.96	53.76	-49.6	-50.8	21.4	0.00e+00	0	48	0	639631360	70	4212
2026-01-16 01:19:29.48	359.55	54.06	-49.9	-51.1	21.1	0.00e+00	0	48	0	641728512	70	4363
2026-01-16 01:19:30.49	359.14	54.37	-49.9	-51.1	21.1	0.00e+00	0	48	0	643825664	70	4375
2026-01-16 01:19:31.50	358.71	54.68	-49.9	-51.1	21.0	0.00e+00	0	48	0	645922816	70	4374
2026-01-16 01:19:32.51	358.28	54.98	-50.2	-51.5	20.6	0.00e+00	0	48	0	648019968	71	4320
2026-01-16 01:19:33.52	357.83	55.29	-50.8	-52.3	19.9	0.00e+00	0	48	0	649068544	72	4447
2026-01-16 01:19:34.53	357.38	55.60	-51.3	-52.8	19.4	0.00e+00	0	48	0	651165696	73	4464
2026-01-16 01:19:35.54	356.91	55.91	-51.9	-53.6	18.7	0.00e+00	0	48	0	653262848	74	4609
2026-01-16 01:19:36.55	356.44	56.21	-52.8	-54.8	17.5	0.00e+00	0	48	0	655360000	76	4708
2026-01-16 01:19:37.55	355.96	56.52	-54.0	-56.4	15.9	0.00e+00	0	48	0	657457152	78	5083
2026-01-16 01:19:38.57	355.46	56.83	-54.8	-57.8	14.4	7.00e-07	0	48	0	658505728	80	5323
2026-01-16 01:19:39.58	354.95	57.13	-55.2	-58.7	13.6	3.00e-06	0	48	0	660602880	80	5864
2026-01-16 01:19:40.59	354.43	57.44	-55.5	-59.2	12.9	1.22e-05	0	48	0	662700032	81	5911
2026-01-16 01:19:41.60	353.90	57.74	-55.1	-58.4	13.7	2.44e-05	0	48	0	664797184	81	5402
2026-01-16 01:19:42.61	353.36	58.05	-54.5	-57.3	14.9	0.00e+00	0	48	0	666894336	81	4713
2026-01-16 01:19:43.61	352.81	58.35	-53.8	-56.2	16.1	0.00e+00	0	48	0	668991488	79	4684
2026-01-16 01:19:44.62	352.24	58.65	-53.6	-55.8	16.5	0.00e+00	0	48	0	670040064	79	4456
2026-01-16 01:19:45.63	351.66	58.95	-52.8	-54.7	17.6	0.00e+00	0	48	0	672137216	77	4415
2026-01-16 01:19:46.64	351.07	59.25	-52.4	-54.1	18.2	0.00e+00	0	48	0	674234368	76	4375
2026-01-16 01:19:47.65	350.46	59.55	-51.8	-53.4	18.9	0.00e+00	0	48	0	676331520	75	4249
2026-01-16 01:19:48.66	349.83	59.84	-51.8	-53.4	18.9	0.00e+00	0	48	0	677380096	75	4267
2026-01-16 01:19:49.67	349.20	60.14	-51.7	-53.3	19.0	0.00e+00	0	48	0	679477248	75	4213
2026-01-16 01:19:50.68	348.55	60.43	-51.2	-52.7	19.5	0.00e+00	0	48	0	681574400	74	4158
2026-01-16 01:19:51.69	347.88	60.72	-50.8	-52.1	20.1	0.00e+00	0	48	0	683671552	73	4135
2026-01-16 01:19:52.70	347.20	61.01	-50.6	-51.9	20.3	0.00e+00	0	48	0	685768704	73	4021
2026-01-16 01:19:53.71	346.50	61.29	-49.9	-51.1	21.1	0.00e+00	0	48	0	687865856	71	4113
2026-01-16 01:19:54.72	345.78	61.58	-49.4	-50.5	21.7	0.00e+00	0	48	0	688914432	70	4077
2026-01-16 01:19:55.73	345.05	61.86	-49.2	-50.4	21.8	0.00e+00	0	48	0	691011584	70	4006
2026-01-16 01:19:56.73	344.31	62.13	-49.3	-50.4	21.7	0.00e+00	0	48	0	693108736	70	4009
2026-01-16 01:19:57.74	343.55	62.41	-49.2	-50.3	21.8	0.00e+00	0	48	0	695205888	70	3999
2026-01-16 01:19:58.75	342.76	62.68	-48.9	-49.9	22.2	0.00e+00	0	48	0	697303040	69	4044
2026-01-16 01:19:59.76	341.96	62.95	-48.8	-49.8	22.3	0.00e+00	0	48	0	698351616	69	3992
2026-01-16 01:20:00.78	341.13	63.21	-48.8	-49.9	22.2	0.00e+00	0	48	0	700448768	69	4020
2026-01-16 01:20:01.78	340.31	63.47	-48.9	-50.0	22.2	0.00e+00	0	48	0	702545920	69	4080
2026-01-16 01:20:02.80	339.44	63.73	-49.1	-50.2	21.9	0.00e+00	0	48	0	704643072	69	4187
2026-01-16 01:20:03.80	338.58	63.98	-49.6	-50.8	21.4	0.00e+00	0	48	0	705691648	69	4444
2026-01-16 01:20:04.81	337.68	64.22	-49.9	-51.1	21.1	0.00e+00	0	48	0	707788800	70	4383
2026-01-16 01:20:05.82	336.77	64.46	-49.9	-51.1	21.1	0.00e+00	0	48	0	709885952	70	4376
2026-01-16 01:20:06.83	335.84	64.70	-50.5	-51.7	20.5	0.00e+00	0	48	0	711983104	71	4441
2026-01-16 01:20:07.84	334.89	64.93	-51.0	-52.5	19.7	0.00e+00	0	48	0	714080256	72	4565
2026-01-16 01:20:08.85	333.91	65.16	-51.1	-52.6	19.7	0.00e+00	0	48	0	716177408	72	4611
2026-01-16 01:20:09.86	332.92	65.38	-50.8	-52.2	20.0	0.00e+00	0	48	0	717225984	72	4420
2026-01-16 01:20:10.87	331.91	65.59	-50.8	-52.1	20.1	0.00e+00	0	48	0	719323136	72	4383
2026-01-16 01:20:11.88	330.88	65.79	-51.0	-52.4	19.8	0.00e+00	0	48	0	721420288	72	4527
2026-01-16 01:20:12.89	329.83	65.99	-51.0	-52.4	19.9	0.00e+00	0	48	0	723517440	72	4506
2026-01-16 01:20:13.90	328.77	66.19	-51.5	-53.1	19.3	0.00e+00	0	48	0	725614592	73	4608
2026-01-16 01:20:14.91	327.68	66.37	-52.4	-54.1	18.2	0.00e+00	0	48	0	726663168	75	4645
2026-01-16 01:20:15.92	326.57	66.55	-52.7	-54.6	17.8	0.00e+00	0	48	0	728760320	76	4629
2026-01-16 01:20:16.94	325.44	66.72	-52.5	-54.3	18.0	0.00e+00	0	48	0	730857472	76	4480
2026-01-16 01:20:17.94	324.31	66.88	-52.1	-53.8	18.6	0.00e+00	0	48	0	732954624	76	4212
2026-01-16 01:20:18.96	323.14	67.04	-52.1	-53.7	18.7	0.00e+00	0	48	0	735051776	76	4164
2026-01-16 01:20:19.97	321.96	67.18	-52.2	-53.8	18.4	0.00e+00	0	48	0	736100352	75	4493
2026-01-16 01:20:20.98	320.77	67.32	-52.2	-54.0	18.4	0.00e+00	0	48	0	738197504	75	4551
2026-01-16 01:20:21.99	319.56	67.45	-52.6	-54.4	18.0	0.00e+00	0	48	0	740294656	75	4794
2026-01-16 01:20:22.99	318.35	67.57	-52.8	-54.6	17.6	0.00e+00	0	48	0	742391808	76	4650
2026-01-16 01:20:24.00	317.12	67.68	-53.2	-55.2	17.1	0.00e+00	0	48	0	744488960	76	4979
2026-01-16 01:20:25.01	315.87	67.77	-53.3	-55.4	17.0	0.00e+00	0	48	0	746586112	77	4790
2026-01-16 01:20:26.02	314.61	67.86	-52.9	-54.8	17.6	0.00e+00	0	48	0	747634688	77	4472
2026-01-16 01:20:27.03	313.34	67.94	-52.8	-54.7	17.6	0.00e+00	0	48	0	749731840	77	4440
2026-01-16 01:20:28.04	312.06	68.01	-52.4	-54.2	18.1	0.00e+00	0	48	0	751828992	76	4392
2026-01-16 01:20:29.05	310.77	68.07	-52.2	-53.9	18.4	0.00e+00	0	48	0	753926144	76	4273
2026-01-16 01:20:30.06	309.47	68.12	-52.3	-54.0	18.4	0.00e+00	0	48	0	754974720	76	4298
2026-01-16 01:20:31.07	308.17	68.16	-52.3	-54.0	18.3	0.00e+00	0	48	0	757071872	76	4303
2026-01-16 01:20:32.07	306.88	68.19	-52.4	-54.1	18.3	0.00e+00	0	48	0	759169024	76	4350
2026-01-16 01:20:33.09	305.56	68.21	-52.6	-54.4	17.9	0.00e+00	0	48	0	761266176	76	4515
2026-01-16 01:20:34.10	304.25	68.22	-52.7	-54.6	17.8	0.00e+00	0	48	0	763363328	76	4634
2026-01-16 01:20:35.10	302.95	68.22	-53.1	-55.1	17.3	0.00e+00	0	48	0	764411904	76	4896
2026-01-16 01:20:36.11	301.64	68.20	-53.6	-55.9	16.5	0.00e+00	0	48	0	766509056	77	5068
2026-01-16 01:20:37.12	300.33	68.18	-53.7	-56.0	16.3	0.00e+00	0	48	0	768606208	78	4858
2026-01-16 01:20:38.13	299.03	68.14	-53.5	-55.7	16.8	0.00e+00	0	48	0	770703360	78	4652
2026-01-16 01:20:39.14	297.73	68.10	-53.1	-55.1	17.3	0.00e+00	0	48	0	772800512	78	4345
2026-01-16 01:20:40.15	296.44	68.04	-52.6	-54.4	18.0	0.00e+00	0	48	0	774897664	77	4249
2026-01-16 01:20:41.16	295.15	67.98	-52.3	-54.0	18.3	0.00e+00	0	48	0	775946240	76	4320
2026-01-16 01:20:42.17	293.88	67.90	-52.2	-53.8	18.6	0.00e+00	0	48	0	778043392	76	4234
2026-01-16 01:20:43.18	292.61	67.82	-52.5	-54.3	18.0	0.00e+00	0	48	0	780140544	76	4478
2026-01-16 01:20:44.19	291.36	67.72	-52.8	-54.8	17.7	0.00e+00	0	48	0	782237696	76	4711
2026-01-16 01:20:45.20	290.12	67.62	-52.7	-54.5	17.8	0.00e+00	0	48	0	783286272	76	4595
2026-01-16 01:20:46.21	288.89	67.50	-52.2	-53.9	18.5	0.00e+00	0	48	0	785383424	76	4267
2026-01-16 01:20:47.21	287.69	67.38	-51.8	-53.4	18.9	0.00e+00	0	48	0	787480576	75	4260
2026-01-16 01:20:48.23	286.47	67.25	-51.8	-53.3	19.0	0.00e+00	0	48	0	789577728	75	4235
2026-01-16 01:20:49.23	285.30	67.11	-51.9	-53.4	18.9	0.00e+00	0	48	0	791674880	75	4291
2026-01-16 01:20:50.24	284.13	66.96	-52.0	-53.6	18.7	0.00e+00	0	48	0	793772032	75	4380
2026-01-16 01:20:51.26	282.97	66.80	-52.2	-53.9	18.5	0.00e+00	0	48	0	794820608	75	4506
2026-01-16 01:20:52.26	281.85	66.63	-51.9	-53.4	18.8	0.00e+00	0	48	0	796917760	75	4291
2026-01-16 01:20:53.27	280.73	66.46	-51.7	-53.3	19.1	0.00e+00	0	49	0	799014912	75	4202
2026-01-16 01:20:54.28	279.64	66.28	-51.4	-52.9	19.4	0.00e+00	0	48	0	801112064	74	4284
2026-01-16 01:20:55.29	278.56	66.09	-50.7	-52.1	20.2	0.00e+00	0	48	0	803209216	73	4115
2026-01-16 01:20:56.30	277.50	65.89	-50.6	-51.9	20.3	0.00e+00	0	49	0	804257792	73	4042
2026-01-16 01:20:57.31	276.46	65.69	-50.3	-51.6	20.6	0.00e+00	0	49	0	806354944	72	4123
2026-01-16 01:20:58.32	275.44	65.48	-50.3	-51.6	20.6	0.00e+00	0	48	0	808452096	72	4109
2026-01-16 01:20:59.33	274.44	65.26	-50.5	-51.9	20.4	0.00e+00	0	48	0	810549248	72	4255
2026-01-16 01:21:00.34	273.46	65.04	-50.0	-51.2	21.0	0.00e+00	0	48	0	812646400	71	4173
2026-01-16 01:21:01.35	272.50	64.81	-49.6	-50.8	21.4	0.00e+00	0	49	0	813694976	71	3983
2026-01-16 01:21:02.36	271.56	64.57	-49.7	-50.8	21.4	0.00e+00	0	49	0	815792128	71	4003
2026-01-16 01:21:03.37	270.63	64.34	-49.6	-50.7	21.5	0.00e+00	0	49	0	817889280	71	3952
2026-01-16 01:21:04.38	269.73	64.09	-49.7	-50.9	21.4	0.00e+00	0	48	0	819986432	71	4016
2026-01-16 01:21:05.39	268.84	63.84	-50.1	-51.4	20.9	0.00e+00	0	49	0	822083584	71	4251
2026-01-16 01:21:06.39	267.99	63.59	-50.4	-51.7	20.6	0.00e+00	0	48	0	823132160	71	4407
2026-01-16 01:21:07.41	267.13	63.33	-50.4	-51.7	20.6	0.00e+00	0	48	0	825229312	71	4411
2026-01-16 01:21:08.42	266.30	63.07	-50.7	-52.0	20.2	0.00e+00	0	49	0	827326464	72	4330
2026-01-16 01:21:09.42	265.50	62.80	-50.9	-52.3	19.9	0.00e+00	0	48	0	829423616	72	4475
2026-01-16 01:21:10.43	264.71	62.53	-51.3	-52.8	19.5	0.00e+00	0	49	0	831520768	73	4484
2026-01-16 01:21:11.44	263.94	62.26	-51.6	-53.2	19.1	0.00e+00	0	49	0	833617920	73	4664
2026-01-16 01:21:12.45	263.18	61.98	-51.9	-53.5	18.8	0.00e+00	0	48	0	834666496	74	4587
2026-01-16 01:21:13.46	262.44	61.70	-52.0	-53.7	18.7	0.00e+00	0	48	0	836763648	74	4682
2026-01-16 01:21:14.47	261.72	61.42	-52.0	-53.7	18.7	0.00e+00	0	48	0	838860800	74	4656
2026-01-16 01:21:15.48	261.01	61.14	-52.6	-54.4	18.0	0.00e+00	0	48	0	840957952	75	4770
2026-01-16 01:21:16.49	260.32	60.85	-52.8	-54.7	17.7	0.00e+00	0	49	0	842006528	76	4655
2026-01-16 01:21:17.50	259.64	60.56	-53.3	-55.4	16.9	0.00e+00	0	48	0	844103680	77	4804
2026-01-16 01:21:18.51	258.98	60.27	-53.2	-55.3	16.9	0.00e+00	0	48	0	846200832	77	4750
2026-01-16 01:21:19.52	258.34	59.97	-53.3	-55.5	16.8	0.00e+00	0	49	0	848297984	77	4820
2026-01-16 01:21:20.53	257.71	59.68	-53.5	-55.7	16.6	0.00e+00	0	48	0	850395136	77	4960
2026-01-16 01:21:21.54	257.09	59.38	-53.3	-55.4	16.9	0.00e+00	0	49	0	852492288	77	4804
2026-01-16 01:21:22.54	256.50	59.08	-53.5	-55.7	16.6	0.00e+00	0	48	0	853540864	77	4941
2026-01-16 01:21:23.55	255.91	58.78	-53.5	-55.7	16.6	0.00e+00	0	49	0	855638016	77	4961
2026-01-16 01:21:24.56	255.33	58.48	-53.4	-55.5	16.8	0.00e+00	0	48	0	857735168	77	4858
2026-01-16 01:21:25.58	254.77	58.17	-53.2	-55.2	17.1	0.00e+00	0	49	0	859832320	77	4686
2026-01-16 01:21:26.58	254.22	57.87	-53.0	-55.0	17.3	0.00e+00	0	49	0	861929472	77	4546
2026-01-16 01:21:27.60	253.68	57.57	-52.0	-53.6	18.6	0.00e+00	0	49	0	862978048	76	4136
2026-01-16 01:21:28.61	253.16	57.26	-51.7	-53.3	19.0	0.00e+00	0	48	0	865075200	75	4196
2026-01-16 01:21:29.61	252.65	56.96	-51.8	-53.4	18.9	0.00e+00	0	48	0	867172352	75	4269
2026-01-16 01:21:30.62	252.15	56.65	-51.9	-53.5	18.7	0.00e+00	0	49	0	869269504	75	4317
2026-01-16 01:21:31.63	251.66	56.34	-51.5	-53.1	19.1	0.00e+00	0	48	0	871366656	75	4107
2026-01-16 01:21:32.64	251.18	56.04	-51.5	-53.0	19.2	0.00e+00	0	48	0	872415232	75	4084
2026-01-16 01:21:33.65	250.71	55.73	-51.2	-52.7	19.5	0.00e+00	0	48	0	874512384	74	4158
2026-01-16 01:21:34.66	250.25	55.42	-50.8	-52.2	20.0	0.00e+00	0	48	0	876609536	73	4164
2026-01-16 01:21:35.67	249.80	55.11	-50.5	-51.9	20.3	0.00e+00	0	48	0	878706688	73	4018
2026-01-16 01:21:36.68	249.36	54.80	-50.5	-51.9	20.3	0.00e+00	0	49	0	880803840	73	4006
2026-01-16 01:21:37.69	248.93	54.50	-50.5	-51.8	20.4	0.00e+00	0	48	0	881852416	72	4216
2026-01-16 01:21:38.70	248.51	54.19	-50.4	-51.7	20.4	0.00e+00	0	48	0	883949568	72	4185
2026-01-16 01:21:39.71	248.10	53.88	-50.6	-52.0	20.2	0.00e+00	0	49	0	886046720	72	4295
2026-01-16 01:21:40.72	247.69	53.58	-50.7	-52.1	20.1	0.00e+00	0	48	0	888143872	72	4359
2026-01-16 01:21:41.73	247.30	53.27	-50.9	-52.3	19.9	0.00e+00	0	48	0	890241024	72	4483
2026-01-16 01:21:42.74	246.91	52.96	-51.0	-52.4	19.8	0.00e+00	0	48	0	891289600	72	4510
2026-01-16 01:21:43.75	246.53	52.66	-51.1	-52.5	19.7	0.00e+00	0	48	0	893386752	72	4576
2026-01-16 01:21:44.76	246.16	52.35	-51.3	-52.8	19.4	0.00e+00	0	48	0	895483904	73	4472
2026-01-16 01:21:45.77	245.80	52.05	-51.1	-52.6	19.6	0.00e+00	0	48	0	897581056	73	4345
2026-01-16 01:21:46.78	245.45	51.75	-51.1	-52.6	19.6	0.00e+00	0	48	0	899678208	73	4363
2026-01-16 01:21:47.78	245.10	51.45	-51.3	-52.8	19.5	0.00e+00	0	49	0	900726784	73	4457
2026-01-16 01:21:48.80	244.76	51.14	-51.5	-53.1	19.1	0.00e+00	0	49	0	902823936	73	4633
2026-01-16 01:21:49.81	244.42	50.84	-52.0	-53.7	18.6	0.00e+00	0	49	0	904921088	74	4657
2026-01-16 01:21:50.82	244.09	50.54	-52.2	-54.0	18.2	0.00e+00	0	49	0	907018240	75	4565
2026-01-16 01:21:51.83	243.77	50.24	-52.3	-54.1	18.2	0.00e+00	0	48	0	909115392	75	4645
2026-01-16 01:21:52.83	243.46	49.95	-52.3	-54.0	18.2	0.00e+00	0	49	0	911212544	75	4577
2026-01-16 01:21:53.84	243.15	49.65	-52.0	-53.6	18.6	0.00e+00	0	48	0	912261120	75	4378
2026-01-16 01:21:54.85	242.85	49.35	-51.9	-53.6	18.7	0.00e+00	0	49	0	914358272	75	4349
2026-01-16 01:21:55.86	242.55	49.06	-52.0	-53.7	18.6	0.00e+00	0	48	0	916455424	75	4405
2026-01-16 01:21:56.87	242.26	48.77	-52.1	-53.8	18.4	0.00e+00	0	48	0	918552576	75	4483
2026-01-16 01:21:57.88	241.98	48.47	-52.5	-54.4	17.9	0.00e+00	0	48	0	919601152	75	4776
2026-01-16 01:21:58.89	241.70	48.18	-52.6	-54.5	17.7	0.00e+00	0	48	0	921698304	75	4831
2026-01-16 01:21:59.90	241.42	47.89	-52.7	-54.6	17.6	0.00e+00	0	48	0	923795456	76	4622
2026-01-16 01:22:00.91	241.15	47.60	-52.9	-54.9	17.4	0.00e+00	0	49	0	925892608	76	4771
2026-01-16 01:22:01.92	240.89	47.32	-52.8	-54.8	17.4	0.00e+00	0	49	0	927989760	76	4749
2026-01-16 01:22:02.93	240.63	47.03	-52.7	-54.7	17.6	0.00e+00	0	49	0	930086912	76	4675
2026-01-16 01:22:03.93	240.38	46.75	-52.4	-54.2	18.0	0.00e+00	0	49	0	931135488	76	4409
2026-01-16 01:22:04.95	240.12	46.46	-52.2	-53.9	18.3	0.00e+00	0	48	0	933232640	76	4288
2026-01-16 01:22:05.95	239.88	46.18	-52.4	-54.2	18.0	0.00e+00	0	49	0	935329792	76	4416
2026-01-16 01:22:06.96	239.64	45.90	-52.5	-54.3	18.0	0.00e+00	0	49	0	937426944	76	4450
2026-01-16 01:22:07.97	239.40	45.62	-52.6	-54.5	17.8	0.00e+00	0	48	0	939524096	76	4564
2026-01-16 01:22:08.98	239.17	45.34	-52.7	-54.7	17.6	0.00e+00	0	49	0	940572672	76	4658
2026-01-16 01:22:09.99	238.94	45.06	-52.4	-54.2	18.0	0.00e+00	0	49	0	942669824	76	4427
2026-01-16 01:22:11.00	238.71	44.79	-52.3	-54.1	18.1	0.00e+00	0	48	0	944766976	76	4384
2026-01-16 01:22:12.01	238.49	44.51	-52.3	-54.1	18.0	0.00e+00	0	49	0	946864128	76	4389
2026-01-16 01:22:13.02	238.27	44.24	-52.5	-54.4	17.8	0.00e+00	0	48	0	948961280	76	4496
2026-01-16 01:22:14.03	238.06	43.97	-52.9	-55.0	17.3	0.00e+00	0	49	0	950009856	76	4819
2026-01-16 01:22:15.04	237.85	43.70	-53.2	-55.4	16.9	0.00e+00	0	48	0	952107008	77	4776
2026-01-16 01:22:16.05	237.64	43.43	-53.6	-55.8	16.4	0.00e+00	0	48	0	954204160	77	5039
2026-01-16 01:22:17.06	237.44	43.17	-53.8	-56.2	16.0	0.00e+00	0	48	0	956301312	78	4960
2026-01-16 01:22:18.07	237.24	42.90	-53.7	-56.0	16.2	0.00e+00	0	48	0	958398464	78	4829
2026-01-16 01:22:19.08	237.05	42.64	-53.7	-56.0	16.1	0.00e+00	0	48	0	959447040	78	4848
2026-01-16 01:22:20.09	236.85	42.37	-53.5	-55.8	16.4	0.00e+00	0	49	0	961544192	78	4736
2026-01-16 01:22:21.10	236.66	42.11	-53.5	-55.7	16.5	0.00e+00	0	49	0	963641344	78	4696
2026-01-16 01:22:22.10	236.48	41.86	-53.3	-55.4	16.8	0.00e+00	0	48	0	965738496	78	4506
2026-01-16 01:22:23.11	236.30	41.60	-53.5	-55.8	16.4	0.00e+00	0	49	0	967835648	78	4715
2026-01-16 01:22:24.12	236.11	41.34	-53.8	-56.2	16.1	0.00e+00	0	49	0	969932800	78	4941
2026-01-16 01:22:25.13	235.94	41.08	-54.2	-56.8	15.4	0.00e+00	0	48	0	970981376	79	5016
2026-01-16 01:22:26.14	235.76	40.83	-54.3	-57.0	15.3	0.00e+00	0	49	0	973078528	79	5104
2026-01-16 01:22:27.15	235.59	40.58	-54.6	-57.5	14.7	0.00e+00	0	49	0	975175680	79	5436
2026-01-16 01:22:28.16	235.42	40.33	-54.5	-57.3	14.9	0.00e+00	0	49	0	977272832	79	5316
2026-01-16 01:22:29.17	235.25	40.08	-54.6	-57.4	14.7	0.00e+00	0	49	0	978321408	79	5402
2026-01-16 01:22:30.18	235.09	39.83	-54.4	-57.1	15.1	0.00e+00	0	49	0	980418560	79	5190
2026-01-16 01:22:31.19	234.93	39.58	-54.3	-57.0	15.3	0.00e+00	0	48	0	982515712	79	5102
2026-01-16 01:22:32.20	234.77	39.34	-53.9	-56.3	15.9	0.00e+00	0	48	0	984612864	79	4754
2026-01-16 01:22:33.21	234.61	39.10	-53.5	-55.8	16.4	0.00e+00	0	49	0	986710016	79	4447
2026-01-16 01:22:34.22	234.46	38.85	-53.3	-55.5	16.7	0.00e+00	0	49	0	988807168	78	4566
2026-01-16 01:22:35.23	234.30	38.61	-53.3	-55.5	16.7	0.00e+00	0	49	0	989855744	78	4568
2026-01-16 01:22:36.24	234.15	38.37	-53.2	-55.2	17.0	0.00e+00	0	48	0	991952896	78	4435
2026-01-16 01:22:37.25	234.01	38.14	-53.3	-55.5	16.7	0.00e+00	0	48	0	994050048	78	4553
2026-01-16 01:22:38.25	233.86	37.90	-53.2	-55.4	16.8	0.00e+00	0	49	0	996147200	78	4509
2026-01-16 01:22:39.26	233.72	37.67	-53.2	-55.3	16.8	0.00e+00	0	48	0	998244352	78	4486
2026-01-16 01:22:40.27	233.58	37.43	-52.9	-54.9	17.2	0.00e+00	0	49	0	999292928	77	4537
2026-01-16 01:22:41.28	233.44	37.20	-52.8	-54.8	17.4	0.00e+00	0	48	0	1001390080	77	4470
2026-01-16 01:22:42.29	233.30	36.97	-52.8	-54.7	17.4	0.00e+00	0	49	0	1003487232	77	4432
2026-01-16 01:22:43.30	233.17	36.74	-52.7	-54.7	17.4	0.00e+00	0	49	0	1005584384	77	4403
2026-01-16 01:22:44.31	233.03	36.52	-52.9	-54.9	17.3	0.00e+00	0	49	0	1007681536	77	4494
2026-01-16 01:22:45.32	232.90	36.29	-52.9	-55.0	17.2	0.00e+00	0	49	0	1008730112	77	4548
2026-01-16 01:22:46.33	232.77	36.06	-53.1	-55.1	17.0	0.00e+00	0	49	0	1010827264	77	4648
2026-01-16 01:22:47.34	232.64	35.84	-52.9	-55.0	17.2	0.00e+00	0	49	0	1012924416	77	4547
2026-01-16 01:22:48.35	232.52	35.62	-53.1	-55.2	17.0	0.00e+00	0	49	0	1015021568	77	4661
2026-01-16 01:22:49.36	232.39	35.40	-52.8	-54.8	17.3	0.00e+00	0	49	0	1017118720	77	4481
2026-01-16 01:22:50.37	232.27	35.18	-52.9	-55.0	17.2	0.00e+00	0	49	0	1018167296	77	4552
2026-01-16 01:22:51.38	232.15	34.96	-53.0	-55.1	17.0	0.00e+00	0	48	0	1020264448	77	4617
2026-01-16 01:22:52.39	232.03	34.74	-53.0	-55.1	17.0	0.00e+00	0	49	0	1022361600	77	4644
2026-01-16 01:22:53.40	231.91	34.53	-53.0	-55.1	17.0	0.00e+00	0	49	0	1024458752	77	4628
2026-01-16 01:22:54.41	231.80	34.31	-52.9	-55.0	17.2	0.00e+00	0	49	0	1026555904	77	4547
2026-01-16 01:22:55.42	231.68	34.10	-52.9	-55.0	17.1	0.00e+00	0	49	0	1027604480	77	4553
2026-01-16 01:22:56.43	231.57	33.89	-53.0	-55.0	17.0	0.00e+00	0	49	0	1029701632	77	4583
2026-01-16 01:22:57.44	231.46	33.68	-53.1	-55.2	16.9	0.00e+00	0	49	0	1031798784	77	4692
2026-01-16 01:22:58.44	231.35	33.47	-53.2	-55.4	16.7	0.00e+00	0	49	0	1033895936	77	4799
2026-01-16 01:22:59.45	231.24	33.27	-53.4	-55.6	16.5	0.00e+00	0	49	0	1035993088	77	4905
2026-01-16 01:23:00.46	231.13	33.06	-53.5	-55.8	16.3	0.00e+00	0	49	0	1037041664	77	5010
2026-01-16 01:23:01.47	231.03	32.86	-53.6	-56.0	16.1	0.00e+00	0	49	0	1039138816	77	5135
2026-01-16 01:23:02.48	230.92	32.65	-53.6	-56.0	16.1	0.00e+00	0	49	0	1041235968	77	5133
2026-01-16 01:23:03.49	230.82	32.45	-53.7	-56.2	15.9	0.00e+00	0	49	0	1043333120	78	4947
2026-01-16 01:23:04.50	230.72	32.25	-53.7	-56.1	16.1	0.00e+00	0	48	0	1045430272	78	4874
2026-01-16 01:23:05.51	230.62	32.05	-53.7	-56.1	16.0	0.00e+00	0	49	0	1047527424	78	4872
2026-01-16 01:23:06.52	230.52	31.85	-53.5	-55.8	16.3	0.00e+00	0	49	0	1048576000	78	4736
2026-01-16 01:23:07.53	230.42	31.65	-53.4	-55.7	16.4	0.00e+00	0	48	0	1050673152	78	4664
2026-01-16 01:23:08.54	230.32	31.46	-53.3	-55.5	16.5	0.00e+00	0	48	0	1052770304	78	4585
2026-01-16 01:23:09.54	230.23	31.26	-53.4	-55.7	16.4	0.00e+00	0	49	0	1054867456	78	4688
2026-01-16 01:23:10.55	230.13	31.07	-53.6	-56.0	16.1	0.00e+00	0	49	0	1055916032	78	4835
2026-01-16 01:23:11.56	230.04	30.88	-53.8	-56.3	15.8	0.00e+00	0	49	0	1058013184	78	5007
2026-01-16 01:23:12.57	229.95	30.68	-54.0	-56.7	15.4	0.00e+00	0	49	0	1060110336	78	5222
2026-01-16 01:23:13.58	229.86	30.49	-54.1	-56.8	15.2	0.00e+00	0	49	0	1062207488	78	5321
2026-01-16 01:23:14.59	229.77	30.31	-54.3	-57.2	14.9	0.00e+00	0	49	0	1064304640	79	5235
2026-01-16 01:23:15.60	229.68	30.12	-54.4	-57.3	14.8	0.00e+00	0	49	0	1065353216	79	5286
2026-01-16 01:23:16.61	229.59	29.93	-54.5	-57.5	14.6	0.00e+00	0	48	0	1067450368	79	5418
2026-01-16 01:23:17.62	229.50	29.75	-54.5	-57.4	14.6	7.00e-07	0	49	0	1069547520	79	5378
2026-01-16 01:23:18.63	229.42	29.56	-54.5	-57.4	14.6	0.00e+00	0	49	0	1071644672	79	5389
2026-01-16 01:23:19.64	229.33	29.38	-54.4	-57.3	14.7	7.00e-07	0	48	0	1073741824	79	5336
2026-01-16 01:23:20.65	229.25	29.19	-54.3	-57.2	14.8	0.00e+00	0	49	0	1075838976	79	5220
2026-01-16 01:23:21.66	229.17	29.01	-54.3	-57.1	15.0	0.00e+00	0	49	0	1076887552	79	5166
2026-01-16 01:23:22.67	229.08	28.83	-54.3	-57.0	15.0	0.00e+00	0	49	0	1078984704	79	5146
2026-01-16 01:23:23.67	229.00	28.66	-54.0	-56.6	15.4	0.00e+00	0	49	0	1081081856	79	4922
2026-01-16 01:23:24.68	228.92	28.48	-53.8	-56.4	15.6	0.00e+00	0	49	0	1083179008	79	4764
2026-01-16 01:23:25.69	228.85	28.30	-53.7	-56.1	15.8	0.00e+00	0	49	0	1084227584	79	4639
2026-01-16 01:23:26.70	228.77	28.13	-53.6	-56.0	16.0	0.00e+00	0	49	0	1086324736	79	4575
2026-01-16 01:23:27.71	228.69	27.95	-53.7	-56.2	15.8	0.00e+00	0	49	0	1088421888	79	4688
2026-01-16 01:23:28.72	228.61	27.78	-53.5	-55.9	16.1	0.00e+00	0	49	0	1090519040	79	4499
2026-01-16 01:23:29.73	228.54	27.60	-53.6	-56.0	16.1	0.00e+00	0	49	0	1092616192	78	4817
2026-01-16 01:23:30.74	228.46	27.43	-53.7	-56.1	15.9	0.00e+00	0	49	0	1094713344	78	4912
2026-01-16 01:23:31.75	228.39	27.26	-53.6	-56.0	16.0	0.00e+00	0	49	0	1095761920	78	4824
2026-01-16 01:23:32.76	228.32	27.09	-53.6	-56.1	15.9	0.00e+00	0	49	0	1097859072	78	4877
2026-01-16 01:23:33.77	228.24	26.92	-53.7	-56.1	15.9	0.00e+00	0	49	0	1099956224	78	4897
2026-01-16 01:23:34.78	228.17	26.75	-53.6	-56.0	16.0	0.00e+00	0	49	0	1102053376	78	4821
2026-01-16 01:23:35.79	228.10	26.59	-53.5	-55.9	16.1	0.00e+00	0	49	0	1104150528	78	4760
2026-01-16 01:23:36.79	228.03	26.42	-53.5	-55.8	16.2	0.00e+00	0	49	0	1105199104	78	4740
2026-01-16 01:23:37.80	227.96	26.26	-53.2	-55.4	16.6	0.00e+00	0	49	0	1107296256	78	4496
2026-01-16 01:23:38.81	227.90	26.10	-53.1	-55.3	16.7	0.00e+00	0	49	0	1109393408	78	4449
2026-01-16 01:23:39.82	227.83	25.93	-53.1	-55.2	16.8	0.00e+00	0	49	0	1111490560	78	4407
2026-01-16 01:23:40.83	227.76	25.77	-52.7	-54.8	17.2	0.00e+00	0	49	0	1113587712	77	4444
2026-01-16 01:23:41.84	227.69	25.61	-52.7	-54.7	17.2	0.00e+00	0	49	0	1114636288	77	4415
2026-01-16 01:23:42.85	227.63	25.45	-52.6	-54.6	17.4	0.00e+00	0	49	0	1116733440	77	4356
2026-01-16 01:23:43.86	227.56	25.29	-52.7	-54.7	17.3	0.00e+00	0	49	0	1118830592	77	4401
2026-01-16 01:23:44.87	227.50	25.13	-52.7	-54.7	17.3	0.00e+00	0	49	0	1120927744	77	4405
2026-01-16 01:23:45.89	227.44	24.97	-52.7	-54.8	17.1	0.00e+00	0	49	0	1123024896	77	4452
2026-01-16 01:23:46.89	227.37	24.82	-52.8	-54.8	17.1	0.00e+00	0	49	0	1124073472	77	4485
2026-01-16 01:23:47.90	227.31	24.66	-52.7	-54.7	17.2	0.00e+00	0	49	0	1126170624	77	4405
2026-01-16 01:23:48.91	227.25	24.51	-52.7	-54.8	17.2	0.00e+00	0	49	0	1128267776	77	4446
2026-01-16 01:23:49.92	227.19	24.35	-52.7	-54.7	17.3	0.00e+00	0	49	0	1130364928	77	4410
2026-01-16 01:23:50.93	227.13	24.20	-52.5	-54.4	17.5	0.00e+00	0	49	0	1132462080	77	4284
2026-01-16 01:23:51.94	227.07	24.05	-52.5	-54.5	17.5	0.00e+00	0	49	0	1134559232	76	4550
2026-01-16 01:23:52.95	227.01	23.90	-52.5	-54.4	17.5	0.00e+00	0	49	0	1135607808	76	4520
2026-01-16 01:23:53.96	226.95	23.75	-52.4	-54.3	17.6	0.00e+00	0	49	0	1137704960	76	4452
2026-01-16 01:23:54.97	226.89	23.60	-52.1	-53.9	18.0	0.00e+00	0	49	0	1139802112	76	4271
2026-01-16 01:23:55.98	226.84	23.45	-51.9	-53.7	18.2	0.00e+00	0	49	0	1141899264	75	4399
2026-01-16 01:23:56.99	226.78	23.30	-51.7	-53.4	18.4	0.00e+00	0	49	0	1142947840	75	4274
2026-01-16 01:23:58.00	226.72	23.15	-51.6	-53.3	18.6	0.00e+00	0	49	0	1145044992	75	4207
2026-01-16 01:23:59.01	226.67	23.01	-51.6	-53.2	18.6	0.00e+00	0	48	0	1147142144	75	4187
2026-01-16 01:24:00.02	226.61	22.86	-51.6	-53.2	18.6	0.00e+00	0	49	0	1149239296	75	4178
2026-01-16 01:24:01.03	226.56	22.72	-51.6	-53.2	18.6	0.00e+00	0	48	0	1151336448	75	4178
2026-01-16 01:24:02.04	226.50	22.57	-51.6	-53.2	18.6	0.00e+00	0	49	0	1153433600	75	4187
2026-01-16 01:24:03.05	226.45	22.43	-51.5	-53.2	18.6	0.00e+00	0	49	0	1154482176	75	4160
2026-01-16 01:24:04.06	226.40	22.29	-51.4	-53.0	18.9	0.00e+00	0	48	0	1156579328	74	4302
2026-01-16 01:24:05.07	226.35	22.14	-51.4	-53.0	18.8	0.00e+00	0	48	0	1158676480	74	4307
2026-01-16 01:24:06.08	226.29	22.00	-51.4	-53.1	18.7	0.00e+00	0	49	0	1160773632	74	4341
2026-01-16 01:24:07.09	226.24	21.86	-51.5	-53.1	18.7	0.00e+00	0	49	0	1162870784	74	4370
2026-01-16 01:24:08.10	226.19	21.72	-51.6	-53.3	18.6	0.00e+00	0	49	0	1163919360	74	4447
2026-01-16 01:24:09.11	226.14	21.58	-51.6	-53.2	18.6	0.00e+00	0	48	0	1166016512	74	4429
2026-01-16 01:24:10.12	226.09	21.45	-51.6	-53.3	18.5	0.00e+00	0	49	0	1168113664	74	4461
2026-01-16 01:24:11.13	226.04	21.31	-51.6	-53.2	18.6	0.00e+00	0	49	0	1170210816	74	4440
2026-01-16 01:24:12.14	225.99	21.17	-51.6	-53.2	18.6	0.00e+00	0	49	0	1172307968	74	4432
2026-01-16 01:24:13.15	225.94	21.04	-51.6	-53.3	18.6	0.00e+00	0	49	0	1173356544	74	4444
2026-01-16 01:24:14.16	225.90	20.90	-51.5	-53.2	18.6	0.00e+00	0	49	0	1175453696	74	4416
2026-01-16 01:24:15.17	225.85	20.77	-51.6	-53.2	18.5	0.00e+00	0	49	0	1177550848	74	4436
2026-01-16 01:24:16.18	225.80	20.63	-51.4	-53.1	18.7	0.00e+00	0	48	0	1179648000	74	4369
2026-01-16 01:24:17.19	225.75	20.50	-51.4	-53.1	18.5	0.00e+00	0	49	0	1181745152	74	4348
2026-01-16 01:24:18.20	225.71	20.37	-51.5	-53.1	18.6	0.00e+00	0	49	0	1182793728	74	4372
2026-01-16 01:24:19.20	225.66	20.24	-51.4	-53.0	18.8	0.00e+00	0	49	0	1184890880	74	4310
2026-01-16 01:24:20.21	225.62	20.11	-51.4	-53.0	18.7	0.00e+00	0	49	0	1186988032	74	4321
2026-01-16 01:24:21.22	225.57	19.98	-51.4	-53.1	18.7	0.00e+00	0	49	0	1189085184	74	4344
2026-01-16 01:24:22.23	225.53	19.85	-51.5	-53.1	18.6	0.00e+00	0	49	0	1191182336	74	4379
2026-01-16 01:24:23.24	225.48	19.72	-51.6	-53.3	18.5	0.00e+00	0	49	0	1192230912	74	4446
2026-01-16 01:24:24.25	225.44	19.59	-51.7	-53.4	18.4	0.00e+00	0	49	0	1194328064	74	4511
2026-01-16 01:24:25.26	225.40	19.46	-51.7	-53.5	18.3	0.00e+00	0	49	0	1196425216	74	4549
2026-01-16 01:24:26.27	225.35	19.33	-51.8	-53.6	18.2	0.00e+00	0	49	0	1198522368	74	4601
2026-01-16 01:24:27.28	225.31	19.21	-51.7	-53.4	18.3	0.00e+00	0	49	0	1200619520	74	4518
2026-01-16 01:24:28.29	225.27	19.08	-51.6	-53.4	18.4	0.00e+00	0	49	0	1201668096	74	4498
2026-01-16 01:24:29.30	225.23	18.96	-51.6	-53.3	18.4	0.00e+00	0	49	0	1203765248	74	4484
2026-01-16 01:24:30.31	225.18	18.83	-51.7	-53.4	18.3	0.00e+00	0	49	0	1205862400	74	4513
2026-01-16 01:24:31.32	225.14	18.71	-51.6	-53.4	18.3	0.00e+00	0	49	0	1207959552	74	4502
2026-01-16 01:24:32.33	225.10	18.58	-51.7	-53.4	18.3	0.00e+00	0	48	0	1210056704	74	4529
2026-01-16 01:24:33.34	225.06	18.46	-51.6	-53.3	18.4	0.00e+00	0	49	0	1212153856	74	4455
2026-01-16 01:24:34.35	225.02	18.34	-51.6	-53.3	18.3	0.00e+00	0	49	0	1213202432	74	4490
2026-01-16 01:24:35.36	224.98	18.22	-51.5	-53.2	18.5	0.00e+00	0	49	0	1215299584	74	4439
2026-01-16 01:24:36.37	224.94	18.09	-51.7	-53.4	18.3	0.00e+00	0	49	0	1217396736	74	4512
2026-01-16 01:24:37.37	224.90	17.98	-51.5	-53.2	18.5	0.00e+00	0	49	0	1219493888	74	4429
2026-01-16 01:24:38.38	224.86	17.86	-51.6	-53.3	18.4	0.00e+00	0	49	0	1220542464	74	4464
2026-01-16 01:24:39.39	224.83	17.74	-51.7	-53.4	18.3	0.00e+00	0	49	0	1222639616	74	4515
2026-01-16 01:24:40.40	224.79	17.62	-51.6	-53.3	18.4	0.00e+00	0	49	0	1224736768	74	4477
2026-01-16 01:24:41.41	224.75	17.50	-51.6	-53.3	18.4	0.00e+00	0	49	0	1226833920	74	4456
2026-01-16 01:24:42.42	224.71	17.38	-51.5	-53.2	18.5	0.00e+00	0	48	0	1228931072	74	4429
2026-01-16 01:24:43.43	224.68	17.26	-51.4	-53.1	18.6	0.00e+00	0	48	0	1231028224	74	4367
2026-01-16 01:24:44.44	224.64	17.15	-51.5	-53.2	18.5	0.00e+00	0	49	0	1232076800	74	4392
2026-01-16 01:24:45.45	224.60	17.03	-51.5	-53.2	18.5	0.00e+00	0	49	0	1234173952	74	4392
2026-01-16 01:24:46.46	224.57	16.92	-51.5	-53.2	18.5	0.00e+00	0	49	0	1236271104	74	4412
2026-01-16 01:24:47.47	224.53	16.80	-51.6	-53.3	18.4	0.00e+00	0	49	0	1238368256	74	4463
2026-01-16 01:24:48.48	224.49	16.69	-51.6	-53.3	18.4	0.00e+00	0	48	0	1240465408	74	4476
2026-01-16 01:24:49.49	224.46	16.57	-51.6	-53.3	18.3	0.00e+00	0	49	0	1241513984	74	4469
2026-01-16 01:24:50.50	224.42	16.46	-51.5	-53.2	18.4	0.00e+00	0	49	0	1243611136	74	4420
2026-01-16 01:24:51.51	224.39	16.35	-51.6	-53.3	18.3	0.00e+00	0	49	0	1245708288	74	4490
2026-01-16 01:24:52.52	224.35	16.23	-51.7	-53.5	18.2	0.00e+00	0	49	0	1247805440	74	4571
2026-01-16 01:24:53.53	224.32	16.12	-51.7	-53.5	18.2	0.00e+00	0	48	0	1249902592	74	4546
2026-01-16 01:24:54.54	224.29	16.01	-51.7	-53.5	18.1	0.00e+00	0	48	0	1250951168	74	4585
2026-01-16 01:24:55.54	224.25	15.90	-51.7	-53.5	18.1	0.00e+00	0	49	0	1253048320	74	4588
2026-01-16 01:24:56.55	224.22	15.79	-51.9	-53.7	17.9	0.00e+00	0	49	0	1255145472	74	4672
2026-01-16 01:24:57.56	224.19	15.68	-51.9	-53.8	17.9	0.00e+00	0	48	0	1257242624	74	4707
2026-01-16 01:24:58.57	224.15	15.57	-51.9	-53.7	17.9	0.00e+00	0	49	0	1259339776	74	4688
