passes_logs/2026/01/16/R3.2S_Murmansk/R3.2S_Murmansk__20260116_070710_KANOPUS-V_5_rec.log

#Pass ID: 20260116_070710_KANOPUS-V 5
#Satellite: KANOPUS-V 5
#Configuration: KANOPUS-V_8320
#almurnet v.1.7.20251203
#Start time: 2026-01-16 07:07:11

#Version: 2.2.20231116
#Station: R3.2S_Murmansk
#Location: 33.079688 lon 68.888172 lat
#TLE: 1 43876U 18111A   26015.95883530  .00002079  00000+0  90203-4 0  9990
#TLE: 2 43876  97.3685 284.4557 0001748  86.2315 273.9122 15.23440439391619

#Time	Az	El	Level	Level2	SNR	BER	BlckErr	Temp	State	Recorded	gain1	gain2
2026-01-16 07:07:11.83	141.41	2.07	-57.2	-66.0	3.8	7.44e-01	0	42	0	0	86	9705
2026-01-16 07:07:12.83	141.39	2.14	-57.2	-66.1	3.8	7.45e-01	0	42	104	0	85	10350
2026-01-16 07:07:13.84	141.37	2.22	-57.2	-66.1	3.8	7.44e-01	0	42	104	0	85	10338
2026-01-16 07:07:14.85	141.35	2.29	-57.2	-66.1	3.8	7.45e-01	0	42	104	0	85	10322
2026-01-16 07:07:15.86	141.32	2.36	-57.2	-66.0	3.8	7.45e-01	0	42	104	0	85	10292
2026-01-16 07:07:16.87	141.30	2.43	-57.2	-66.1	3.8	7.44e-01	0	42	104	0	85	10319
2026-01-16 07:07:17.88	141.27	2.50	-57.2	-66.0	3.8	7.46e-01	0	42	104	0	85	10281
2026-01-16 07:07:18.89	141.25	2.57	-57.2	-66.0	3.8	7.47e-01	0	43	104	0	85	10283
2026-01-16 07:07:19.90	141.23	2.65	-57.2	-66.0	3.8	7.46e-01	0	43	104	0	85	10266
2026-01-16 07:07:20.91	141.20	2.72	-57.2	-66.1	3.8	7.45e-01	0	43	104	0	85	10314
2026-01-16 07:07:21.92	141.18	2.79	-57.2	-66.0	3.8	7.45e-01	0	43	104	0	85	10290
2026-01-16 07:07:22.93	141.15	2.87	-57.2	-66.0	3.8	7.45e-01	0	43	104	0	85	10269
2026-01-16 07:07:23.94	141.13	2.94	-57.2	-66.0	3.8	7.47e-01	0	43	104	0	85	10269
2026-01-16 07:07:24.95	141.10	3.01	-57.2	-66.1	3.8	7.45e-01	0	43	104	0	85	10310
2026-01-16 07:07:25.96	141.08	3.09	-57.2	-66.1	3.8	7.46e-01	0	43	104	0	85	10304
2026-01-16 07:07:26.97	141.05	3.16	-57.2	-66.1	3.8	7.46e-01	0	43	104	0	85	10306
2026-01-16 07:07:27.98	141.03	3.24	-57.2	-66.0	3.8	7.46e-01	0	43	104	0	85	10279
2026-01-16 07:07:28.99	141.00	3.31	-57.2	-66.1	3.8	7.46e-01	0	43	104	0	85	10295
2026-01-16 07:07:30.00	140.98	3.39	-57.2	-66.1	3.8	7.44e-01	0	43	104	0	85	10336
2026-01-16 07:07:31.01	140.95	3.46	-57.2	-66.0	3.8	7.45e-01	0	43	104	0	85	10287
2026-01-16 07:07:32.02	140.92	3.54	-57.2	-66.1	3.8	7.44e-01	0	43	104	0	85	10317
2026-01-16 07:07:33.03	140.90	3.61	-57.2	-66.0	3.8	7.44e-01	0	43	104	0	85	10249
2026-01-16 07:07:34.04	140.87	3.69	-57.2	-66.0	3.8	7.46e-01	0	43	104	0	85	10277
2026-01-16 07:07:35.05	140.84	3.76	-57.2	-66.0	3.8	7.46e-01	0	44	104	0	85	10275
2026-01-16 07:07:36.06	140.82	3.84	-57.2	-66.0	3.8	7.45e-01	0	44	104	0	85	10272
2026-01-16 07:07:37.07	140.79	3.92	-57.2	-66.0	3.8	7.46e-01	0	44	104	0	85	10258
2026-01-16 07:07:38.08	140.76	4.00	-57.2	-66.0	3.8	7.46e-01	0	44	104	0	85	10264
2026-01-16 07:07:39.09	140.73	4.07	-57.2	-66.0	3.8	7.44e-01	0	44	104	0	85	10284
2026-01-16 07:07:40.10	140.71	4.15	-57.2	-66.0	3.8	7.46e-01	0	44	104	0	85	10267
2026-01-16 07:07:41.11	140.68	4.23	-57.2	-66.0	3.8	7.44e-01	0	44	104	0	85	10280
2026-01-16 07:07:42.12	140.65	4.31	-57.2	-66.0	3.8	7.44e-01	0	44	104	0	85	10285
2026-01-16 07:07:43.13	140.62	4.39	-57.2	-66.0	3.8	7.45e-01	0	44	104	0	85	10286
2026-01-16 07:07:44.14	140.59	4.46	-57.2	-66.0	3.8	7.45e-01	0	44	104	0	85	10272
2026-01-16 07:07:45.15	140.56	4.54	-57.2	-66.0	3.8	7.45e-01	0	44	104	0	85	10289
2026-01-16 07:07:46.16	140.53	4.62	-57.2	-66.0	3.8	7.46e-01	0	44	104	0	85	10283
2026-01-16 07:07:47.17	140.50	4.70	-57.2	-66.0	3.8	7.45e-01	0	44	104	0	85	10260
2026-01-16 07:07:48.18	140.47	4.78	-57.2	-66.0	3.8	7.45e-01	0	44	104	0	85	10277
2026-01-16 07:07:49.19	140.44	4.86	-57.2	-66.0	3.8	7.48e-01	0	44	104	0	85	10246
2026-01-16 07:07:50.20	140.41	4.95	-57.2	-66.0	3.8	7.46e-01	0	44	104	0	85	10273
2026-01-16 07:07:51.21	140.38	5.03	-57.2	-66.0	3.8	7.44e-01	0	44	104	0	85	10249
2026-01-16 07:07:52.22	140.35	5.11	-57.4	-66.2	3.8	7.43e-01	0	44	104	0	85	10517
2026-01-16 07:07:53.23	140.32	5.19	-57.3	-66.2	3.8	7.44e-01	0	44	104	0	85	10490
2026-01-16 07:07:54.24	140.29	5.27	-57.2	-66.1	3.8	7.46e-01	0	44	104	0	85	10319
2026-01-16 07:07:55.24	140.26	5.35	-57.4	-66.2	3.8	7.44e-01	0	44	104	0	85	10485
2026-01-16 07:07:56.25	140.23	5.44	-57.2	-66.0	3.8	7.45e-01	0	45	104	0	85	10274
2026-01-16 07:07:57.26	140.20	5.52	-57.4	-66.2	3.8	7.44e-01	0	45	104	0	85	10507
2026-01-16 07:07:58.27	140.16	5.60	-57.3	-66.1	3.8	7.45e-01	0	45	104	0	85	10401
2026-01-16 07:07:59.28	140.13	5.69	-57.4	-66.3	3.8	7.45e-01	0	44	104	0	85	10562
2026-01-16 07:08:00.29	140.10	5.77	-57.3	-66.1	3.8	7.44e-01	0	45	104	0	85	10348
2026-01-16 07:08:01.30	140.07	5.86	-57.4	-66.3	3.8	7.45e-01	0	45	104	0	85	10604
2026-01-16 07:08:02.31	140.03	5.94	-55.6	-66.1	3.8	7.46e-01	0	45	104	0	82	12348
2026-01-16 07:08:03.32	140.00	6.03	-54.8	-66.2	3.8	7.44e-01	0	45	104	0	81	13163
2026-01-16 07:08:04.33	139.96	6.11	-54.3	-57.9	6.8	6.70e-01	0	45	104	0	80	5385
2026-01-16 07:08:05.34	139.93	6.20	-50.8	-53.1	11.7	6.15e-01	0	45	0	14680064	73	4619
2026-01-16 07:08:06.35	139.90	6.29	-50.4	-52.6	12.1	6.14e-01	0	45	0	29360128	72	4635
2026-01-16 07:08:07.36	139.86	6.37	-49.9	-52.0	12.8	6.11e-01	0	45	0	46137344	71	4569
2026-01-16 07:08:08.37	139.83	6.46	-49.8	-51.9	12.9	6.12e-01	0	45	0	60817408	71	4516
2026-01-16 07:08:09.38	139.79	6.55	-49.6	-51.7	13.2	6.11e-01	0	45	0	75497472	71	4393
2026-01-16 07:08:10.39	139.76	6.64	-49.5	-51.5	13.3	6.11e-01	0	45	0	92274688	71	4332
2026-01-16 07:08:11.40	139.72	6.72	-49.3	-51.4	13.5	6.10e-01	0	45	0	106954752	70	4508
2026-01-16 07:08:12.40	139.68	6.81	-49.5	-51.5	13.3	6.11e-01	0	45	0	121634816	70	4588
2026-01-16 07:08:13.41	139.65	6.90	-49.5	-51.6	13.3	6.11e-01	0	45	0	138412032	70	4603
2026-01-16 07:08:14.42	139.61	6.99	-49.3	-51.4	13.5	6.11e-01	0	45	0	153092096	70	4507
2026-01-16 07:08:15.43	139.57	7.08	-49.4	-51.5	13.4	6.11e-01	0	45	0	167772160	70	4565
2026-01-16 07:08:16.44	139.54	7.17	-49.3	-51.4	13.6	6.11e-01	0	45	0	184549376	70	4505
2026-01-16 07:08:17.45	139.50	7.26	-49.4	-51.4	13.5	6.11e-01	0	45	0	201326592	70	4538
2026-01-16 07:08:18.46	139.46	7.35	-49.1	-51.1	13.8	6.10e-01	0	45	0	216006656	70	4357
2026-01-16 07:08:19.47	139.42	7.45	-49.3	-51.3	13.6	6.10e-01	0	45	0	230686720	70	4476
2026-01-16 07:08:20.48	139.38	7.54	-49.3	-51.4	13.6	6.10e-01	0	45	0	247463936	70	4504
2026-01-16 07:08:21.49	139.35	7.63	-49.3	-51.3	13.6	6.10e-01	0	46	0	262144000	70	4472
2026-01-16 07:08:22.50	139.31	7.72	-49.3	-51.3	13.7	6.10e-01	0	46	0	276824064	70	4458
2026-01-16 07:08:23.51	139.27	7.82	-49.3	-51.5	13.5	5.81e-01	0	46	0	293601280	70	4576
2026-01-16 07:08:24.51	139.23	7.91	-49.1	-51.3	13.8	5.80e-01	0	46	0	308281344	70	4475
2026-01-16 07:08:25.52	139.19	8.00	-49.2	-51.4	13.8	5.80e-01	0	46	0	322961408	70	4506
2026-01-16 07:08:26.53	139.15	8.10	-49.2	-51.4	13.7	5.81e-01	0	46	0	339738624	70	4507
2026-01-16 07:08:27.54	139.10	8.20	-49.2	-51.3	13.8	5.79e-01	0	46	0	356515840	70	4493
2026-01-16 07:08:28.55	139.06	8.29	-49.2	-51.4	13.8	5.79e-01	0	46	0	371195904	70	4500
2026-01-16 07:08:29.56	139.02	8.39	-48.9	-51.1	14.0	5.80e-01	0	46	0	385875968	69	4604
2026-01-16 07:08:30.57	138.98	8.48	-48.9	-51.0	14.1	5.80e-01	0	46	0	402653184	69	4579
2026-01-16 07:08:31.58	138.94	8.58	-49.0	-51.1	14.0	5.80e-01	0	46	0	417333248	69	4651
2026-01-16 07:08:32.59	138.89	8.68	-48.9	-51.0	14.1	5.79e-01	0	46	0	432013312	69	4577
2026-01-16 07:08:33.60	138.85	8.78	-48.9	-50.9	14.2	5.80e-01	0	46	0	448790528	69	4539
2026-01-16 07:08:34.61	138.81	8.88	-48.8	-50.9	14.3	5.80e-01	0	46	0	463470592	69	4535
2026-01-16 07:08:35.62	138.76	8.98	-48.9	-51.0	14.2	5.80e-01	0	46	0	478150656	69	4548
2026-01-16 07:08:36.63	138.72	9.08	-48.8	-50.9	14.3	5.78e-01	0	46	0	494927872	69	4502
2026-01-16 07:08:37.64	138.67	9.18	-48.8	-50.9	14.3	5.79e-01	0	46	0	511705088	69	4529
2026-01-16 07:08:38.65	138.63	9.28	-48.7	-50.8	14.4	5.79e-01	0	46	0	526385152	69	4471
2026-01-16 07:08:39.66	138.58	9.38	-48.7	-50.7	14.4	5.79e-01	0	46	0	541065216	69	4441
2026-01-16 07:08:40.67	138.54	9.48	-48.8	-50.8	14.4	5.79e-01	0	46	0	557842432	69	4485
2026-01-16 07:08:41.68	138.49	9.58	-48.7	-50.7	14.5	5.78e-01	0	46	0	572522496	69	4423
2026-01-16 07:08:42.69	138.44	9.69	-48.7	-50.7	14.5	5.79e-01	0	46	0	587202560	69	4439
2026-01-16 07:08:43.70	138.39	9.79	-48.7	-50.8	14.4	5.80e-01	0	46	0	603979776	69	4447
2026-01-16 07:08:44.71	138.35	9.89	-48.7	-50.8	14.5	5.78e-01	0	46	0	618659840	69	4445
2026-01-16 07:08:45.72	138.30	10.00	-48.7	-50.7	14.5	5.79e-01	0	46	0	633339904	69	4439
2026-01-16 07:08:46.73	138.25	10.10	-48.5	-50.6	14.7	5.80e-01	0	46	0	650117120	69	4342
2026-01-16 07:08:47.74	138.20	10.21	-48.6	-50.6	14.6	5.79e-01	0	46	0	666894336	69	4388
2026-01-16 07:08:48.75	138.15	10.32	-48.5	-50.6	14.7	5.79e-01	0	46	0	681574400	69	4347
2026-01-16 07:08:49.76	138.10	10.42	-48.5	-50.5	14.7	5.80e-01	0	46	0	696254464	68	4583
2026-01-16 07:08:50.77	138.05	10.53	-48.6	-50.7	14.6	5.79e-01	0	47	0	713031680	68	4653
2026-01-16 07:08:51.78	138.00	10.64	-48.3	-50.4	14.8	5.79e-01	0	46	0	727711744	68	4508
2026-01-16 07:08:52.79	137.95	10.75	-48.4	-50.5	14.7	6.01e-01	0	46	0	742391808	68	4550
2026-01-16 07:08:53.80	137.89	10.86	-48.4	-50.5	14.6	6.03e-01	0	47	0	759169024	68	4570
2026-01-16 07:08:54.81	137.84	10.97	-48.4	-50.5	14.6	6.03e-01	0	47	0	773849088	68	4575
2026-01-16 07:08:55.82	137.79	11.08	-48.3	-50.4	14.8	6.03e-01	0	47	0	788529152	68	4507
2026-01-16 07:08:56.83	137.73	11.19	-48.3	-50.4	14.7	6.05e-01	0	47	0	805306368	68	4539
2026-01-16 07:08:57.84	137.68	11.30	-48.3	-50.4	14.7	6.06e-01	0	47	0	822083584	68	4534
2026-01-16 07:08:58.85	137.62	11.42	-48.4	-50.6	14.6	6.01e-01	0	47	0	836763648	68	4610
2026-01-16 07:08:59.86	137.57	11.53	-48.3	-50.5	14.7	6.04e-01	0	47	0	851443712	68	4559
2026-01-16 07:09:00.87	137.51	11.64	-48.3	-50.4	14.8	6.00e-01	0	47	0	868220928	68	4524
2026-01-16 07:09:01.88	137.46	11.76	-48.2	-50.3	14.8	6.02e-01	0	47	0	882900992	68	4478
2026-01-16 07:09:02.88	137.40	11.87	-48.3	-50.4	14.7	6.04e-01	0	47	0	897581056	68	4537
2026-01-16 07:09:03.89	137.34	11.99	-48.0	-50.2	14.9	6.04e-01	0	47	0	914358272	68	4417
2026-01-16 07:09:04.91	137.28	12.11	-48.1	-50.2	14.9	6.04e-01	0	47	0	929038336	68	4428
2026-01-16 07:09:05.91	137.22	12.23	-48.1	-50.3	14.9	6.03e-01	0	47	0	943718400	68	4445
2026-01-16 07:09:06.92	137.16	12.34	-48.1	-50.4	14.9	6.03e-01	0	47	0	960495616	68	4496
2026-01-16 07:09:07.93	137.10	12.46	-48.1	-50.4	15.0	6.04e-01	0	47	0	975175680	67	4770
2026-01-16 07:09:08.94	137.04	12.58	-48.2	-50.5	14.9	6.05e-01	0	47	0	991952896	67	4839
2026-01-16 07:09:09.95	136.98	12.70	-48.0	-50.3	15.1	6.01e-01	0	47	0	1006632960	67	4720
2026-01-16 07:09:10.96	136.92	12.83	-48.0	-50.3	15.1	6.03e-01	0	47	0	1023410176	67	4708
2026-01-16 07:09:11.97	136.86	12.95	-47.9	-50.1	15.2	6.00e-01	0	47	0	1038090240	67	4645
2026-01-16 07:09:12.98	136.79	13.07	-47.9	-50.1	15.3	6.01e-01	0	47	0	1052770304	67	4607
2026-01-16 07:09:13.99	136.73	13.19	-47.9	-50.1	15.3	6.04e-01	0	47	0	1069547520	67	4613
2026-01-16 07:09:15.00	136.66	13.32	-47.9	-50.1	15.3	6.01e-01	0	47	0	1084227584	67	4615
2026-01-16 07:09:16.01	136.60	13.44	-48.0	-50.2	15.2	5.97e-01	0	47	0	1098907648	67	4693
2026-01-16 07:09:17.01	136.53	13.57	-47.9	-50.1	15.3	6.02e-01	0	47	0	1115684864	67	4629
2026-01-16 07:09:18.02	136.47	13.70	-47.9	-50.1	15.3	6.02e-01	0	47	0	1130364928	67	4621
2026-01-16 07:09:19.03	136.40	13.82	-47.7	-49.9	15.5	6.02e-01	0	47	0	1147142144	67	4494
2026-01-16 07:09:20.05	136.33	13.95	-47.5	-49.6	15.7	6.01e-01	0	47	0	1161822208	67	4379
2026-01-16 07:09:21.05	136.26	14.08	-47.4	-49.5	15.8	6.02e-01	0	47	0	1178599424	66	4571
2026-01-16 07:09:22.06	136.19	14.21	-47.5	-49.5	15.8	5.96e-01	0	47	0	1193279488	66	4564
2026-01-16 07:09:23.07	136.12	14.35	-47.4	-49.4	15.9	6.01e-01	0	48	0	1207959552	66	4522
2026-01-16 07:09:24.08	136.05	14.48	-47.2	-49.2	16.1	6.03e-01	0	47	0	1224736768	66	4403
2026-01-16 07:09:25.09	135.98	14.61	-47.0	-49.0	16.3	6.00e-01	0	48	0	1239416832	66	4317
2026-01-16 07:09:26.10	135.90	14.74	-47.1	-49.0	16.2	6.02e-01	0	48	0	1254096896	66	4322
2026-01-16 07:09:27.11	135.83	14.88	-47.0	-48.9	16.3	5.99e-01	0	48	0	1270874112	66	4263
2026-01-16 07:09:28.12	135.76	15.02	-47.0	-48.9	16.3	6.05e-01	0	48	0	1285554176	65	4499
2026-01-16 07:09:29.13	135.68	15.15	-46.8	-48.7	16.4	6.00e-01	0	48	0	1300234240	65	4414
2026-01-16 07:09:30.14	135.60	15.29	-46.7	-48.5	16.6	6.05e-01	0	47	0	1317011456	65	4339
2026-01-16 07:09:31.15	135.53	15.43	-46.7	-48.5	16.6	5.99e-01	0	48	0	1333788672	65	4333
2026-01-16 07:09:32.16	135.45	15.57	-46.8	-48.6	16.6	6.02e-01	0	48	0	1348468736	65	4369
2026-01-16 07:09:33.16	135.37	15.71	-46.7	-48.5	16.7	6.01e-01	0	48	0	1363148800	65	4313
2026-01-16 07:09:34.17	135.29	15.85	-46.7	-48.5	16.7	6.02e-01	0	48	0	1379926016	65	4319
2026-01-16 07:09:35.18	135.21	15.99	-46.6	-48.3	16.8	6.03e-01	0	48	0	1394606080	65	4242
2026-01-16 07:09:36.19	135.13	16.14	-46.3	-48.1	17.0	6.02e-01	0	48	0	1409286144	64	4358
2026-01-16 07:09:37.20	135.04	16.28	-46.3	-48.0	17.0	6.04e-01	0	48	0	1426063360	64	4334
2026-01-16 07:09:38.21	134.96	16.43	-46.3	-48.1	17.0	6.03e-01	0	48	0	1440743424	64	4341
2026-01-16 07:09:39.22	134.88	16.58	-46.1	-47.9	17.1	6.00e-01	0	48	0	1455423488	64	4281
2026-01-16 07:09:40.22	134.79	16.72	-46.2	-48.0	17.0	5.97e-01	0	48	0	1470103552	64	4314
2026-01-16 07:09:41.23	134.70	16.87	-46.1	-47.9	17.1	6.03e-01	0	48	0	1488977920	64	4285
2026-01-16 07:09:42.25	134.61	17.03	-46.0	-47.8	17.2	6.01e-01	0	48	0	1503657984	63	4480
2026-01-16 07:09:43.25	134.53	17.18	-46.1	-47.9	17.2	6.02e-01	0	48	0	1518338048	63	4517
2026-01-16 07:09:44.26	134.44	17.33	-46.1	-48.0	17.1	6.03e-01	0	48	0	1535115264	63	4554
2026-01-16 07:09:45.27	134.34	17.48	-46.0	-47.8	17.2	6.01e-01	0	48	0	1549795328	63	4488
2026-01-16 07:09:46.28	134.25	17.64	-46.0	-47.8	17.2	6.01e-01	0	48	0	1564475392	63	4493
2026-01-16 07:09:47.29	134.16	17.79	-46.0	-47.9	17.2	5.99e-01	0	48	0	1579155456	63	4501
2026-01-16 07:09:48.30	134.06	17.95	-46.0	-47.9	17.2	6.01e-01	0	48	0	1595932672	63	4496
2026-01-16 07:09:49.30	133.97	18.11	-45.9	-47.8	17.3	6.03e-01	0	48	0	1610612736	63	4442
2026-01-16 07:09:50.31	133.87	18.27	-45.9	-47.8	17.3	6.01e-01	0	48	0	1625292800	63	4463
2026-01-16 07:09:51.32	133.77	18.43	-46.1	-48.0	17.1	6.02e-01	0	48	0	1642070016	63	4581
2026-01-16 07:09:52.33	133.67	18.59	-46.1	-48.0	17.2	6.02e-01	0	48	0	1656750080	63	4576
2026-01-16 07:09:53.34	133.57	18.76	-46.1	-47.9	17.2	6.05e-01	0	48	0	1673527296	63	4544
2026-01-16 07:09:54.35	133.47	18.92	-46.1	-47.9	17.2	6.02e-01	0	48	0	1688207360	63	4535
2026-01-16 07:09:55.36	133.37	19.09	-46.1	-47.9	17.2	6.00e-01	0	48	0	1704984576	63	4523
2026-01-16 07:09:56.37	133.26	19.26	-46.1	-48.0	17.2	5.98e-01	0	48	0	1719664640	63	4548
2026-01-16 07:09:57.38	133.16	19.43	-46.1	-47.9	17.2	6.02e-01	0	48	0	1734344704	63	4538
2026-01-16 07:09:58.39	133.05	19.60	-46.1	-48.0	17.2	6.00e-01	0	48	0	1751121920	63	4571
2026-01-16 07:09:59.40	132.94	19.77	-46.2	-48.1	17.2	6.00e-01	0	48	0	1765801984	63	4603
2026-01-16 07:10:00.41	132.83	19.94	-46.2	-48.0	17.2	5.99e-01	0	48	0	1780482048	63	4582
2026-01-16 07:10:01.42	132.72	20.12	-46.2	-48.1	17.2	5.98e-01	0	48	0	1797259264	63	4602
2026-01-16 07:10:02.43	132.60	20.29	-46.2	-48.1	17.1	6.02e-01	0	48	0	1811939328	63	4627
2026-01-16 07:10:03.44	132.49	20.47	-46.1	-48.0	17.2	6.00e-01	0	48	0	1828716544	63	4589
2026-01-16 07:10:04.45	132.37	20.65	-46.1	-48.0	17.2	6.02e-01	0	48	0	1843396608	63	4547
2026-01-16 07:10:05.46	132.25	20.83	-46.1	-48.0	17.2	6.02e-01	0	48	0	1860173824	63	4584
2026-01-16 07:10:06.47	132.13	21.01	-45.9	-47.8	17.3	6.01e-01	0	48	0	1874853888	63	4492
2026-01-16 07:10:07.48	132.01	21.20	-46.0	-47.9	17.3	6.04e-01	0	48	0	1889533952	63	4505
2026-01-16 07:10:08.49	131.89	21.38	-46.1	-48.0	17.3	6.01e-01	0	48	0	1906311168	63	4569
2026-01-16 07:10:09.49	131.76	21.57	-45.8	-47.7	17.5	6.05e-01	0	48	0	1920991232	63	4427
2026-01-16 07:10:10.50	131.64	21.76	-45.8	-47.7	17.5	6.03e-01	0	48	0	1935671296	63	4421
2026-01-16 07:10:11.51	131.51	21.95	-45.7	-47.6	17.5	5.99e-01	0	48	0	1952448512	63	4369
2026-01-16 07:10:12.52	131.38	22.14	-45.7	-47.6	17.5	6.02e-01	0	48	0	1967128576	63	4367
2026-01-16 07:10:13.53	131.24	22.33	-45.7	-47.6	17.5	6.02e-01	0	48	0	1981808640	63	4380
2026-01-16 07:10:14.54	131.11	22.53	-45.5	-47.5	17.6	6.04e-01	0	48	0	1998585856	63	4311
2026-01-16 07:10:15.55	130.97	22.72	-45.6	-47.5	17.6	6.04e-01	0	49	0	2015363072	63	4337
2026-01-16 07:10:16.56	130.84	22.92	-45.4	-47.4	17.7	6.00e-01	0	48	0	2030043136	62	4513
2026-01-16 07:10:17.57	130.70	23.12	-45.5	-47.4	17.7	6.05e-01	0	48	0	2044723200	62	4535
2026-01-16 07:10:18.58	130.55	23.33	-45.5	-47.4	17.7	6.03e-01	0	48	0	2061500416	62	4514
2026-01-16 07:10:19.59	130.41	23.53	-45.5	-47.4	17.6	6.04e-01	0	48	0	2076180480	62	4515
2026-01-16 07:10:20.60	130.26	23.74	-45.3	-47.2	17.8	6.03e-01	0	48	0	2090860544	62	4415
2026-01-16 07:10:21.61	130.11	23.94	-45.3	-47.1	17.9	6.00e-01	0	48	0	2107637760	62	4374
2026-01-16 07:10:22.62	129.96	24.15	-45.4	-47.1	17.9	6.01e-01	0	48	0	2122317824	62	4377
2026-01-16 07:10:23.63	129.81	24.36	-45.4	-47.1	18.0	6.00e-01	0	48	0	2136997888	62	4378
2026-01-16 07:10:24.64	129.65	24.58	-45.4	-47.1	17.9	6.01e-01	0	48	0	2153775104	62	4381
2026-01-16 07:10:25.65	129.49	24.79	-45.5	-47.2	17.9	6.01e-01	0	48	0	2170552320	62	4401
2026-01-16 07:10:26.66	129.33	25.01	-45.4	-47.1	17.9	6.03e-01	0	48	0	2185232384	62	4368
2026-01-16 07:10:27.67	129.17	25.23	-45.4	-47.2	17.9	6.02e-01	0	49	0	2199912448	62	4410
2026-01-16 07:10:28.68	129.00	25.45	-45.5	-47.3	17.8	6.01e-01	0	48	0	2216689664	62	4458
2026-01-16 07:10:29.68	128.84	25.67	-45.6	-47.4	17.7	6.02e-01	0	48	0	2231369728	62	4517
2026-01-16 07:10:30.69	128.66	25.90	-45.6	-47.4	17.7	6.02e-01	0	48	0	2246049792	62	4538
2026-01-16 07:10:31.70	128.49	26.12	-45.6	-47.5	17.7	6.00e-01	0	48	0	2262827008	62	4548
2026-01-16 07:10:32.71	128.31	26.35	-45.5	-47.4	17.7	6.00e-01	0	49	0	2277507072	62	4521
2026-01-16 07:10:33.72	128.13	26.58	-45.5	-47.4	17.7	6.02e-01	0	49	0	2292187136	62	4510
2026-01-16 07:10:34.73	127.95	26.82	-45.5	-47.4	17.7	6.02e-01	0	48	0	2308964352	62	4541
2026-01-16 07:10:35.74	127.76	27.05	-45.5	-47.4	17.8	6.03e-01	0	49	0	2325741568	62	4507
2026-01-16 07:10:36.75	127.57	27.29	-45.5	-47.4	17.7	6.01e-01	0	48	0	2340421632	62	4530
2026-01-16 07:10:37.76	127.38	27.53	-45.6	-47.5	17.6	6.03e-01	0	49	0	2355101696	62	4592
2026-01-16 07:10:38.77	127.19	27.77	-45.5	-47.4	17.8	6.02e-01	0	49	0	2371878912	62	4504
2026-01-16 07:10:39.77	126.99	28.02	-45.6	-47.5	17.7	6.00e-01	0	49	0	2386558976	62	4547
2026-01-16 07:10:40.79	126.79	28.27	-45.6	-47.4	17.7	6.03e-01	0	49	0	2401239040	62	4529
2026-01-16 07:10:41.80	126.58	28.51	-45.5	-47.3	17.9	6.01e-01	0	49	0	2418016256	62	4460
2026-01-16 07:10:42.80	126.37	28.76	-45.6	-47.3	17.9	6.01e-01	0	49	0	2432696320	62	4486
2026-01-16 07:10:43.81	126.16	29.02	-45.5	-47.3	17.8	6.04e-01	0	49	0	2447376384	62	4474
2026-01-16 07:10:44.82	125.94	29.27	-45.6	-47.4	17.8	6.05e-01	0	49	0	2464153600	62	4517
2026-01-16 07:10:45.83	125.72	29.53	-45.7	-47.6	17.6	6.02e-01	0	49	0	2478833664	62	4607
2026-01-16 07:10:46.84	125.50	29.79	-45.7	-47.6	17.7	6.01e-01	0	49	0	2495610880	62	4645
2026-01-16 07:10:47.85	125.27	30.05	-45.7	-47.7	17.6	6.01e-01	0	49	0	2510290944	62	4659
2026-01-16 07:10:48.86	125.04	30.32	-45.8	-47.8	17.5	6.05e-01	0	49	0	2527068160	62	4722
2026-01-16 07:10:49.86	124.80	30.59	-45.6	-47.6	17.6	6.04e-01	0	49	0	2541748224	62	4620
2026-01-16 07:10:50.87	124.56	30.86	-45.7	-47.7	17.6	6.01e-01	0	49	0	2556428288	62	4661
2026-01-16 07:10:51.88	124.32	31.13	-45.6	-47.6	17.7	6.02e-01	0	49	0	2573205504	62	4618
2026-01-16 07:10:52.89	124.06	31.40	-45.7	-47.6	17.7	6.03e-01	0	49	0	2587885568	62	4637
2026-01-16 07:10:53.90	123.81	31.68	-45.7	-47.7	17.6	6.01e-01	0	49	0	2602565632	62	4669
2026-01-16 07:10:54.91	123.55	31.96	-45.7	-47.7	17.6	6.01e-01	0	49	0	2619342848	62	4704
2026-01-16 07:10:55.92	123.29	32.24	-45.7	-47.7	17.6	6.02e-01	0	49	0	2634022912	62	4674
2026-01-16 07:10:56.94	123.01	32.53	-45.7	-47.6	17.6	6.01e-01	0	49	0	2650800128	62	4646
2026-01-16 07:10:57.95	122.74	32.82	-45.5	-47.4	17.8	6.00e-01	0	49	0	2665480192	62	4515
2026-01-16 07:10:58.96	122.46	33.11	-45.5	-47.4	17.8	6.05e-01	0	49	0	2682257408	62	4537
2026-01-16 07:10:59.96	122.17	33.40	-45.5	-47.4	17.8	6.02e-01	0	49	0	2696937472	62	4507
2026-01-16 07:11:00.97	121.88	33.70	-45.4	-47.4	17.8	6.01e-01	0	49	0	2711617536	62	4502
2026-01-16 07:11:01.99	121.58	34.00	-45.5	-47.6	17.7	6.01e-01	0	49	0	2728394752	62	4607
2026-01-16 07:11:03.00	121.28	34.30	-45.4	-47.7	17.6	5.99e-01	0	49	0	2743074816	62	4697
2026-01-16 07:11:04.00	120.97	34.60	-45.5	-47.9	17.4	6.00e-01	0	49	0	2757754880	62	4794
2026-01-16 07:11:05.01	120.66	34.90	-45.5	-47.9	17.4	6.02e-01	0	49	0	2774532096	62	4776
2026-01-16 07:11:06.02	120.33	35.21	-45.4	-47.8	17.6	6.03e-01	0	49	0	2789212160	62	4722
2026-01-16 07:11:07.03	120.01	35.52	-45.6	-47.8	17.5	6.03e-01	0	49	0	2805989376	62	4725
2026-01-16 07:11:08.04	119.67	35.83	-45.4	-47.6	17.7	5.99e-01	0	49	0	2820669440	62	4606
2026-01-16 07:11:09.06	119.32	36.15	-45.3	-47.5	17.8	6.02e-01	0	49	0	2837446656	62	4546
2026-01-16 07:11:10.06	118.98	36.47	-45.2	-47.3	17.9	6.01e-01	0	49	0	2852126720	62	4476
2026-01-16 07:11:11.07	118.62	36.79	-44.9	-47.0	18.0	6.01e-01	0	49	0	2866806784	61	4581
2026-01-16 07:11:12.08	118.26	37.11	-44.7	-46.9	18.1	6.00e-01	0	49	0	2883584000	61	4525
2026-01-16 07:11:13.09	117.88	37.43	-44.7	-46.9	18.2	6.04e-01	0	49	0	2898264064	61	4525
2026-01-16 07:11:14.10	117.50	37.76	-44.6	-46.9	18.2	5.99e-01	0	49	0	2912944128	61	4494
2026-01-16 07:11:15.11	117.11	38.09	-44.3	-46.5	18.4	6.01e-01	0	49	0	2929721344	60	4571
2026-01-16 07:11:16.12	116.72	38.42	-44.2	-46.4	18.4	6.04e-01	0	49	0	2944401408	60	4522
2026-01-16 07:11:17.13	116.31	38.76	-44.0	-46.3	18.5	6.01e-01	0	49	0	2959081472	60	4469
2026-01-16 07:11:18.14	115.90	39.09	-44.0	-46.2	18.3	6.02e-01	0	49	0	2975858688	59	4703
2026-01-16 07:11:19.15	115.47	39.43	-43.9	-46.1	18.4	6.05e-01	0	49	0	2992635904	59	4610
2026-01-16 07:11:20.16	115.04	39.77	-43.9	-46.0	18.5	6.00e-01	0	49	0	3007315968	59	4560
2026-01-16 07:11:21.17	114.60	40.11	-43.7	-45.8	18.6	6.03e-01	0	49	0	3021996032	59	4471
2026-01-16 07:11:22.18	114.14	40.46	-43.3	-45.5	18.8	6.03e-01	0	49	0	3038773248	58	4561
2026-01-16 07:11:23.19	113.68	40.80	-43.3	-45.4	18.9	5.99e-01	0	49	0	3053453312	58	4531
2026-01-16 07:11:24.20	113.21	41.15	-43.3	-45.5	18.8	6.02e-01	0	49	0	3068133376	58	4564
2026-01-16 07:11:25.21	112.72	41.50	-43.4	-45.7	18.7	6.02e-01	0	49	0	3084910592	58	4678
2026-01-16 07:11:26.21	112.23	41.85	-43.2	-45.5	18.8	6.04e-01	0	49	0	3099590656	58	4598
2026-01-16 07:11:27.22	111.72	42.20	-42.9	-45.1	19.0	6.03e-01	0	49	0	3114270720	57	4643
2026-01-16 07:11:28.23	111.21	42.55	-42.8	-45.0	19.1	6.01e-01	0	49	0	3131047936	57	4597
2026-01-16 07:11:29.24	110.67	42.91	-42.8	-45.1	19.0	6.01e-01	0	49	0	3147825152	57	4631
2026-01-16 07:11:30.25	110.13	43.26	-43.0	-45.3	18.9	6.01e-01	0	49	0	3162505216	57	4738
2026-01-16 07:11:31.26	109.57	43.62	-43.0	-45.4	18.8	6.03e-01	0	49	0	3177185280	57	4811
2026-01-16 07:11:32.27	109.01	43.98	-43.0	-45.4	18.8	6.00e-01	0	49	0	3193962496	57	4770
2026-01-16 07:11:33.28	108.42	44.34	-43.0	-45.3	18.9	6.00e-01	0	49	0	3208642560	57	4740
2026-01-16 07:11:34.29	107.83	44.69	-43.0	-45.2	19.0	6.00e-01	0	49	0	3223322624	57	4690
2026-01-16 07:11:35.30	107.22	45.05	-43.0	-45.2	18.9	5.98e-01	0	49	0	3240099840	57	4703
2026-01-16 07:11:36.31	106.59	45.41	-43.0	-45.3	18.9	6.01e-01	0	49	0	3254779904	57	4717
2026-01-16 07:11:37.31	105.96	45.77	-42.9	-45.2	19.1	5.80e-01	0	49	0	3269459968	57	4661
2026-01-16 07:11:38.33	105.30	46.13	-42.8	-45.1	19.1	5.79e-01	0	49	0	3284140032	57	4600
2026-01-16 07:11:39.33	104.63	46.48	-42.8	-45.1	19.1	5.80e-01	0	49	0	3303014400	57	4617
2026-01-16 07:11:40.34	103.94	46.84	-42.9	-45.4	18.9	5.79e-01	0	49	0	3317694464	57	4771
2026-01-16 07:11:41.35	103.24	47.19	-43.0	-45.4	18.9	5.79e-01	0	49	0	3332374528	57	4801
2026-01-16 07:11:42.36	102.52	47.55	-43.1	-45.3	18.9	5.79e-01	0	49	0	3349151744	57	4757
2026-01-16 07:11:43.37	101.79	47.90	-42.9	-45.0	19.2	5.79e-01	0	49	0	3363831808	57	4598
2026-01-16 07:11:44.38	101.03	48.25	-43.0	-45.3	19.0	5.79e-01	0	49	0	3378511872	57	4752
2026-01-16 07:11:45.39	100.26	48.60	-43.2	-45.6	18.8	5.79e-01	0	49	0	3393191936	57	4915
2026-01-16 07:11:46.40	99.47	48.94	-43.0	-45.4	18.9	5.79e-01	0	49	0	3409969152	57	4809
2026-01-16 07:11:47.41	98.66	49.29	-42.8	-45.0	19.2	5.80e-01	0	49	0	3424649216	57	4586
2026-01-16 07:11:48.42	97.83	49.62	-44.4	-45.1	19.2	5.79e-01	0	49	0	3439329280	59	4113
2026-01-16 07:11:49.43	96.99	49.96	-44.5	-45.2	19.2	5.79e-01	0	49	0	3456106496	59	4175
2026-01-16 07:11:50.44	96.12	50.29	-58.9	-67.8	3.8	7.46e-01	0	49	104	3462397952	88	10597
2026-01-16 07:11:51.45	95.24	50.62	-58.9	-67.8	3.8	7.45e-01	0	49	104	3462397952	88	10537
2026-01-16 07:11:52.46	94.33	50.94	-58.8	-67.8	3.8	7.44e-01	0	49	104	3462397952	88	10561
2026-01-16 07:11:53.46	93.41	51.26	-58.9	-67.7	3.8	7.43e-01	0	49	104	3462397952	88	10527
2026-01-16 07:11:54.47	92.47	51.57	-58.9	-67.7	3.8	7.45e-01	0	49	104	3462397952	88	10525
2026-01-16 07:11:55.48	91.50	51.88	-58.9	-67.8	3.8	7.45e-01	0	49	104	3462397952	88	10549
2026-01-16 07:11:56.49	90.52	52.18	-58.9	-67.7	3.8	7.45e-01	0	49	104	3462397952	88	10529
2026-01-16 07:11:57.50	89.51	52.47	-58.9	-67.7	3.8	7.43e-01	0	49	104	3462397952	88	10526
2026-01-16 07:11:58.52	88.47	52.76	-58.9	-67.8	3.8	7.44e-01	0	49	104	3462397952	88	10545
2026-01-16 07:11:59.53	87.43	53.04	-58.9	-67.8	3.8	7.45e-01	0	49	104	3462397952	88	10618
2026-01-16 07:12:00.54	86.36	53.31	-58.9	-67.8	3.8	7.46e-01	0	49	104	3462397952	88	10582
2026-01-16 07:12:01.55	85.27	53.57	-58.9	-67.8	3.8	7.44e-01	0	49	104	3462397952	88	10582
2026-01-16 07:12:02.56	84.17	53.82	-58.9	-67.8	3.8	7.48e-01	0	49	104	3462397952	88	10569
2026-01-16 07:12:03.56	83.05	54.06	-58.9	-67.8	3.8	7.45e-01	0	49	104	3462397952	88	10607
2026-01-16 07:12:04.57	81.90	54.29	-58.9	-67.8	3.8	7.44e-01	0	49	104	3462397952	88	10610
2026-01-16 07:12:05.58	80.74	54.51	-58.9	-67.8	3.8	7.44e-01	0	49	104	3462397952	88	10562
2026-01-16 07:12:06.59	79.56	54.73	-58.9	-67.8	3.8	7.45e-01	0	49	104	3462397952	88	10587
2026-01-16 07:12:07.60	78.36	54.93	-58.9	-67.8	3.8	7.45e-01	0	49	104	3462397952	88	10618
2026-01-16 07:12:08.61	77.14	55.12	-58.9	-67.8	3.8	7.46e-01	0	49	104	3462397952	88	10590
2026-01-16 07:12:09.62	75.90	55.29	-58.9	-67.8	3.8	7.45e-01	0	49	104	3462397952	88	10600
2026-01-16 07:12:10.63	74.66	55.46	-58.9	-67.8	3.8	7.45e-01	0	49	104	3462397952	88	10576
2026-01-16 07:12:11.64	73.39	55.61	-59.0	-67.8	3.8	7.46e-01	0	49	104	3462397952	88	10628
2026-01-16 07:12:12.65	72.12	55.75	-59.0	-67.8	3.8	7.43e-01	0	49	104	3462397952	88	10652
2026-01-16 07:12:13.66	70.83	55.87	-58.9	-67.8	3.8	7.46e-01	0	49	104	3462397952	88	10593
2026-01-16 07:12:14.67	69.53	55.98	-59.0	-67.8	3.8	7.46e-01	0	49	104	3462397952	88	10618
2026-01-16 07:12:15.68	68.22	56.08	-59.0	-67.8	3.8	7.44e-01	0	49	104	3462397952	88	10647
2026-01-16 07:12:16.69	66.90	56.16	-59.0	-67.9	3.8	7.45e-01	0	49	104	3462397952	88	10684
2026-01-16 07:12:17.70	65.58	56.23	-59.0	-67.9	3.8	7.45e-01	0	49	104	3462397952	88	10669
2026-01-16 07:12:18.70	64.26	56.28	-59.0	-67.9	3.8	7.45e-01	0	49	104	3462397952	88	10666
2026-01-16 07:12:19.71	62.92	56.32	-59.0	-67.9	3.8	7.45e-01	0	50	104	3462397952	88	10695
2026-01-16 07:12:20.72	61.59	56.34	-59.0	-67.9	3.8	7.45e-01	0	50	104	3462397952	88	10670
2026-01-16 07:12:21.73	60.25	56.35	-59.0	-67.9	3.8	7.45e-01	0	49	104	3462397952	88	10680
2026-01-16 07:12:22.74	58.91	56.35	-59.0	-67.9	3.8	7.45e-01	0	50	104	3462397952	88	10719
2026-01-16 07:12:23.75	57.57	56.32	-59.0	-67.9	3.8	7.45e-01	0	49	104	3462397952	88	10713
2026-01-16 07:12:24.76	56.23	56.29	-59.0	-67.9	3.8	7.44e-01	0	50	104	3462397952	88	10709
2026-01-16 07:12:25.77	54.90	56.24	-59.0	-67.9	3.8	7.45e-01	0	49	104	3462397952	88	10698
2026-01-16 07:12:26.78	53.57	56.17	-59.0	-67.9	3.8	7.46e-01	0	49	104	3462397952	88	10753
2026-01-16 07:12:27.79	52.26	56.09	-59.0	-67.9	3.8	7.45e-01	0	50	104	3462397952	88	10722
2026-01-16 07:12:28.80	50.95	56.00	-59.0	-67.9	3.8	7.45e-01	0	49	104	3462397952	88	10696
2026-01-16 07:12:29.81	49.64	55.89	-59.0	-67.9	3.8	7.44e-01	0	50	104	3462397952	88	10690
2026-01-16 07:12:30.82	48.36	55.77	-59.0	-67.9	3.8	7.45e-01	0	50	104	3462397952	88	10717
2026-01-16 07:12:31.83	47.08	55.63	-59.0	-67.9	3.8	7.46e-01	0	49	104	3462397952	88	10732
2026-01-16 07:12:32.84	45.81	55.48	-59.0	-67.9	3.8	7.45e-01	0	49	104	3462397952	88	10725
2026-01-16 07:12:33.84	44.58	55.32	-59.0	-67.9	3.8	7.44e-01	0	50	104	3462397952	88	10693
2026-01-16 07:12:34.85	43.34	55.15	-59.0	-67.9	3.8	7.45e-01	0	49	104	3462397952	88	10710
2026-01-16 07:12:35.86	42.12	54.96	-59.0	-67.9	3.8	7.45e-01	0	50	104	3462397952	88	10675
2026-01-16 07:12:36.87	40.92	54.76	-59.0	-67.9	3.8	7.46e-01	0	50	104	3462397952	88	10721
2026-01-16 07:12:37.88	39.74	54.55	-59.0	-67.8	3.8	7.44e-01	0	50	104	3462397952	88	10647
2026-01-16 07:12:38.89	38.57	54.33	-59.0	-67.9	3.8	7.46e-01	0	50	104	3462397952	88	10657
2026-01-16 07:12:39.90	37.42	54.10	-59.0	-67.9	3.8	7.45e-01	0	50	104	3462397952	88	10691
2026-01-16 07:12:40.91	36.29	53.86	-59.0	-67.9	3.8	7.45e-01	0	49	104	3462397952	88	10722
2026-01-16 07:12:41.92	35.18	53.61	-59.0	-67.9	3.8	7.45e-01	0	50	104	3462397952	88	10672
2026-01-16 07:12:42.93	34.09	53.35	-59.0	-67.9	3.8	7.45e-01	0	49	104	3462397952	88	10715
2026-01-16 07:12:43.94	33.02	53.08	-59.0	-67.9	3.8	7.45e-01	0	50	104	3462397952	88	10658
2026-01-16 07:12:44.95	31.98	52.81	-59.0	-67.9	3.8	7.46e-01	0	50	104	3462397952	88	10695
2026-01-16 07:12:45.96	30.95	52.52	-59.0	-67.8	3.8	7.47e-01	0	50	104	3462397952	88	10628
2026-01-16 07:12:46.97	29.94	52.23	-59.0	-67.9	3.8	7.45e-01	0	50	104	3462397952	88	10689
2026-01-16 07:12:47.98	28.95	51.93	-59.0	-67.9	3.8	7.44e-01	0	49	104	3462397952	88	10706
2026-01-16 07:12:48.99	27.98	51.63	-59.0	-67.9	3.8	7.44e-01	0	50	104	3462397952	88	10674
2026-01-16 07:12:50.00	27.04	51.32	-59.0	-67.9	3.8	7.45e-01	0	50	104	3462397952	88	10661
2026-01-16 07:12:51.01	26.11	51.00	-59.0	-67.9	3.8	7.45e-01	0	50	104	3462397952	88	10661
2026-01-16 07:12:52.02	25.20	50.68	-59.0	-67.9	3.8	7.45e-01	0	49	104	3462397952	88	10688
2026-01-16 07:12:53.03	24.31	50.35	-59.0	-67.9	3.8	7.43e-01	0	49	104	3462397952	88	10713
2026-01-16 07:12:54.04	23.45	50.02	-59.0	-67.9	3.8	7.46e-01	0	50	104	3462397952	88	10681
2026-01-16 07:12:55.05	22.60	49.69	-59.0	-67.9	3.8	7.47e-01	0	50	104	3462397952	88	10686
2026-01-16 07:12:56.06	21.77	49.35	-59.0	-67.9	3.8	7.45e-01	0	50	104	3462397952	88	10668
2026-01-16 07:12:57.07	20.96	49.01	-59.0	-67.9	3.8	7.46e-01	0	50	104	3462397952	88	10674
2026-01-16 07:12:58.08	20.17	48.67	-59.0	-67.8	3.8	7.45e-01	0	50	104	3462397952	88	10651
2026-01-16 07:12:59.09	19.39	48.32	-59.0	-67.9	3.8	7.44e-01	0	50	104	3462397952	88	10656
2026-01-16 07:13:00.10	18.64	47.97	-59.0	-67.8	3.8	7.44e-01	0	50	104	3462397952	88	10650
2026-01-16 07:13:01.10	17.91	47.62	-59.0	-67.9	3.8	7.42e-01	0	50	104	3462397952	88	10673
2026-01-16 07:13:02.11	17.19	47.27	-59.0	-67.8	3.8	7.45e-01	0	50	104	3462397952	88	10627
2026-01-16 07:13:03.12	16.48	46.92	-59.0	-67.8	3.8	7.44e-01	0	50	104	3462397952	88	10653
2026-01-16 07:13:04.13	15.79	46.56	-59.0	-67.9	3.8	7.45e-01	0	50	104	3462397952	88	10683
2026-01-16 07:13:05.14	15.12	46.21	-59.0	-67.9	3.8	7.44e-01	0	50	104	3462397952	88	10660
2026-01-16 07:13:06.15	14.46	45.85	-59.0	-67.8	3.8	7.48e-01	0	50	104	3462397952	88	10635
2026-01-16 07:13:07.16	13.82	45.49	-59.0	-67.8	3.8	7.44e-01	0	50	104	3462397952	88	10651
2026-01-16 07:13:08.17	13.20	45.13	-59.0	-67.9	3.8	7.45e-01	0	50	104	3462397952	88	10673
2026-01-16 07:13:09.18	12.59	44.78	-59.0	-67.9	3.8	7.45e-01	0	50	104	3462397952	88	10701
2026-01-16 07:13:10.19	11.99	44.42	-59.0	-67.8	3.8	7.44e-01	0	50	104	3462397952	88	10654
2026-01-16 07:13:11.20	11.40	44.06	-59.0	-67.8	3.8	7.44e-01	0	50	104	3462397952	88	10635
2026-01-16 07:13:12.21	10.83	43.71	-59.0	-67.9	3.8	7.46e-01	0	50	104	3462397952	88	10660
2026-01-16 07:13:13.22	10.28	43.35	-59.0	-67.9	3.8	7.47e-01	0	50	104	3462397952	88	10682
2026-01-16 07:13:14.23	9.73	43.00	-59.0	-67.8	3.8	7.46e-01	0	50	104	3462397952	88	10642
2026-01-16 07:13:15.24	9.20	42.64	-59.0	-67.9	3.8	7.46e-01	0	50	104	3462397952	88	10666
2026-01-16 07:13:16.24	8.68	42.29	-59.0	-67.8	3.8	7.46e-01	0	50	104	3462397952	88	10651
2026-01-16 07:13:17.26	8.17	41.94	-59.0	-67.8	3.8	7.45e-01	0	50	104	3462397952	88	10623
2026-01-16 07:13:18.27	7.67	41.59	-58.9	-67.8	3.8	7.45e-01	0	50	104	3462397952	88	10617
2026-01-16 07:13:19.28	7.19	41.24	-59.0	-67.8	3.8	7.46e-01	0	50	104	3462397952	88	10626
2026-01-16 07:13:20.29	6.71	40.89	-58.9	-67.8	3.8	7.45e-01	0	50	104	3462397952	88	10614
2026-01-16 07:13:21.30	6.25	40.55	-58.9	-67.8	3.8	7.46e-01	0	50	104	3462397952	88	10606
2026-01-16 07:13:22.31	5.80	40.20	-58.9	-67.8	3.8	7.45e-01	0	50	104	3462397952	88	10569
2026-01-16 07:13:23.32	5.35	39.86	-58.9	-67.8	3.8	7.44e-01	0	50	104	3462397952	88	10610
2026-01-16 07:13:24.33	4.92	39.52	-58.9	-67.8	3.8	7.44e-01	0	50	104	3462397952	88	10623
2026-01-16 07:13:25.33	4.50	39.19	-58.9	-67.8	3.8	7.46e-01	0	50	104	3462397952	88	10605
2026-01-16 07:13:26.34	4.08	38.85	-58.9	-67.8	3.8	7.46e-01	0	50	104	3462397952	88	10576
2026-01-16 07:13:27.35	3.68	38.52	-58.9	-67.8	3.8	7.45e-01	0	50	104	3462397952	88	10626
2026-01-16 07:13:28.36	3.28	38.19	-58.9	-67.8	3.8	7.45e-01	0	50	104	3462397952	88	10604
2026-01-16 07:13:29.37	2.89	37.86	-58.9	-67.8	3.8	7.47e-01	0	50	104	3462397952	88	10556
2026-01-16 07:13:30.38	2.51	37.53	-58.9	-67.7	3.8	7.45e-01	0	50	104	3462397952	88	10525
2026-01-16 07:13:31.39	2.14	37.21	-58.9	-67.8	3.8	7.45e-01	0	50	104	3462397952	88	10577
2026-01-16 07:13:32.40	1.77	36.89	-58.9	-67.8	3.8	7.46e-01	0	50	104	3462397952	88	10553
2026-01-16 07:13:33.41	1.41	36.57	-58.9	-67.8	3.8	7.44e-01	0	50	104	3462397952	88	10552
2026-01-16 07:13:34.42	1.06	36.25	-58.9	-67.8	3.8	7.44e-01	0	50	104	3462397952	88	10535
2026-01-16 07:13:35.43	0.72	35.94	-58.9	-67.8	3.8	7.45e-01	0	50	104	3462397952	88	10590
2026-01-16 07:13:36.44	0.38	35.62	-58.9	-67.8	3.8	7.43e-01	0	50	104	3462397952	88	10543
2026-01-16 07:13:37.45	0.05	35.31	-58.9	-67.7	3.8	7.46e-01	0	50	104	3462397952	88	10530
2026-01-16 07:13:38.46	359.73	35.01	-58.9	-67.7	3.8	7.46e-01	0	50	104	3462397952	88	10487
2026-01-16 07:13:39.47	359.42	34.70	-58.9	-67.8	3.8	7.45e-01	0	50	104	3462397952	88	10568
2026-01-16 07:13:40.48	359.11	34.40	-58.9	-67.7	3.8	7.42e-01	0	50	104	3462397952	88	10525
2026-01-16 07:13:41.49	358.80	34.10	-58.9	-67.7	3.8	7.44e-01	0	50	104	3462397952	88	10496
2026-01-16 07:13:42.50	358.51	33.80	-58.8	-67.7	3.8	7.46e-01	0	50	104	3462397952	88	10471
2026-01-16 07:13:43.50	358.22	33.51	-58.9	-67.8	3.8	7.46e-01	0	50	104	3462397952	88	10536
2026-01-16 07:13:44.51	357.93	33.22	-58.9	-67.7	3.8	7.45e-01	0	50	104	3462397952	88	10498
2026-01-16 07:13:45.52	357.65	32.93	-58.8	-67.7	3.8	7.46e-01	0	50	104	3462397952	88	10498
2026-01-16 07:13:46.53	357.37	32.64	-58.9	-67.7	3.8	7.46e-01	0	50	104	3462397952	88	10486
2026-01-16 07:13:47.54	357.10	32.36	-58.8	-67.7	3.8	7.46e-01	0	50	104	3462397952	88	10480
2026-01-16 07:13:48.55	356.84	32.08	-58.8	-67.7	3.8	7.44e-01	0	50	104	3462397952	88	10496
2026-01-16 07:13:49.56	356.58	31.80	-58.8	-67.7	3.8	7.46e-01	0	50	104	3462397952	88	10473
2026-01-16 07:13:50.57	356.32	31.52	-58.8	-67.7	3.8	7.43e-01	0	50	104	3462397952	88	10457
2026-01-16 07:13:51.57	356.07	31.25	-58.8	-67.7	3.8	7.45e-01	0	50	104	3462397952	88	10508
2026-01-16 07:13:52.59	355.83	30.97	-58.8	-67.7	3.8	7.46e-01	0	50	104	3462397952	88	10454
2026-01-16 07:13:53.60	355.58	30.70	-58.8	-67.7	3.8	7.45e-01	0	50	104	3462397952	88	10431
2026-01-16 07:13:54.61	355.35	30.43	-58.8	-67.7	3.8	7.45e-01	0	50	104	3462397952	88	10462
2026-01-16 07:13:55.61	355.12	30.17	-58.8	-67.7	3.8	7.46e-01	0	50	104	3462397952	88	10450
2026-01-16 07:13:56.62	354.89	29.91	-58.8	-67.6	3.8	7.45e-01	0	50	104	3462397952	88	10370
2026-01-16 07:13:57.63	354.66	29.65	-58.8	-67.7	3.8	7.45e-01	0	50	104	3462397952	88	10414
2026-01-16 07:13:58.64	354.44	29.39	-58.8	-67.7	3.8	7.44e-01	0	50	104	3462397952	88	10445
2026-01-16 07:13:59.65	354.23	29.13	-58.8	-67.6	3.8	7.46e-01	0	50	104	3462397952	88	10397
2026-01-16 07:14:00.66	354.01	28.88	-58.8	-67.6	3.8	7.46e-01	0	50	104	3462397952	88	10392
2026-01-16 07:14:01.67	353.80	28.63	-58.8	-67.6	3.8	7.47e-01	0	50	104	3462397952	88	10384
2026-01-16 07:14:02.68	353.60	28.38	-58.8	-67.6	3.8	7.46e-01	0	50	104	3462397952	88	10384
2026-01-16 07:14:03.69	353.39	28.14	-58.8	-67.6	3.8	7.44e-01	0	50	104	3462397952	88	10397
2026-01-16 07:14:04.70	353.20	27.89	-58.7	-67.6	3.8	7.46e-01	0	50	104	3462397952	88	10378
2026-01-16 07:14:05.71	353.00	27.65	-58.7	-67.6	3.8	7.46e-01	0	50	104	3462397952	88	10320
2026-01-16 07:14:06.72	352.81	27.41	-58.7	-67.6	3.8	7.45e-01	0	50	104	3462397952	88	10358
2026-01-16 07:14:07.73	352.62	27.17	-58.7	-67.6	3.8	7.45e-01	0	50	104	3462397952	88	10358
2026-01-16 07:14:08.74	352.43	26.94	-58.7	-67.6	3.8	7.46e-01	0	50	104	3462397952	88	10311
2026-01-16 07:14:09.75	352.25	26.70	-58.7	-67.6	3.8	7.45e-01	0	50	104	3462397952	88	10378
2026-01-16 07:14:10.76	352.07	26.47	-58.7	-67.6	3.8	7.45e-01	0	50	104	3462397952	88	10363
2026-01-16 07:14:11.76	351.89	26.25	-58.7	-67.6	3.8	7.45e-01	0	50	104	3462397952	88	10304
2026-01-16 07:14:12.77	351.72	26.02	-58.7	-67.5	3.8	7.45e-01	0	50	104	3462397952	88	10285
2026-01-16 07:14:13.78	351.55	25.79	-58.7	-67.5	3.8	7.45e-01	0	50	104	3462397952	88	10264
2026-01-16 07:14:14.79	351.38	25.57	-58.7	-67.6	3.8	7.44e-01	0	50	104	3462397952	88	10333
2026-01-16 07:14:15.80	351.21	25.35	-58.7	-67.6	3.8	7.46e-01	0	50	104	3462397952	88	10299
2026-01-16 07:14:16.80	351.05	25.13	-58.7	-67.5	3.8	7.44e-01	0	50	104	3462397952	88	10280
2026-01-16 07:14:17.81	350.89	24.92	-58.7	-67.5	3.8	7.45e-01	0	50	104	3462397952	88	10274
2026-01-16 07:14:18.82	350.73	24.70	-58.7	-67.5	3.8	7.43e-01	0	50	104	3462397952	88	10262
2026-01-16 07:14:19.83	350.58	24.49	-58.7	-67.5	3.8	7.45e-01	0	50	104	3462397952	88	10255
2026-01-16 07:14:20.84	350.42	24.28	-58.7	-67.5	3.8	7.47e-01	0	50	104	3462397952	88	10243
2026-01-16 07:14:21.85	350.27	24.07	-58.7	-67.5	3.8	7.45e-01	0	50	104	3462397952	88	10223
2026-01-16 07:14:22.86	350.12	23.86	-58.7	-67.5	3.8	7.48e-01	0	50	104	3462397952	88	10257
2026-01-16 07:14:23.87	349.97	23.66	-58.6	-67.5	3.8	7.43e-01	0	50	104	3462397952	88	10220
2026-01-16 07:14:24.88	349.83	23.45	-58.6	-67.5	3.8	7.46e-01	0	50	104	3462397952	88	10228
2026-01-16 07:14:25.89	349.69	23.25	-58.6	-67.5	3.8	7.46e-01	0	50	104	3462397952	88	10240
2026-01-16 07:14:26.90	349.55	23.05	-58.6	-67.5	3.8	7.46e-01	0	50	104	3462397952	88	10198
2026-01-16 07:14:27.91	349.41	22.85	-58.6	-67.5	3.8	7.45e-01	0	50	104	3462397952	88	10221
2026-01-16 07:14:28.92	349.27	22.65	-58.6	-67.5	3.8	7.45e-01	0	50	104	3462397952	88	10195
2026-01-16 07:14:29.93	349.14	22.46	-58.6	-67.5	3.8	7.46e-01	0	50	104	3462397952	88	10234
2026-01-16 07:14:30.94	349.01	22.27	-58.6	-67.5	3.8	7.45e-01	0	50	104	3462397952	88	10177
2026-01-16 07:14:31.94	348.88	22.08	-58.6	-67.5	3.8	7.45e-01	0	50	104	3462397952	88	10210
2026-01-16 07:14:32.95	348.75	21.89	-58.6	-67.4	3.8	7.46e-01	0	50	104	3462397952	88	10150
2026-01-16 07:14:33.96	348.62	21.70	-58.6	-67.5	3.8	7.45e-01	0	50	104	3462397952	88	10189
2026-01-16 07:14:34.97	348.50	21.51	-58.6	-67.5	3.8	7.46e-01	0	50	104	3462397952	88	10191
2026-01-16 07:14:35.98	348.37	21.33	-58.6	-67.4	3.8	7.46e-01	0	50	104	3462397952	88	10144
2026-01-16 07:14:36.99	348.25	21.14	-58.5	-67.4	3.8	7.45e-01	0	50	104	3462397952	88	10144
2026-01-16 07:14:38.00	348.13	20.96	-58.6	-67.4	3.8	7.44e-01	0	50	104	3462397952	88	10150
2026-01-16 07:14:39.01	348.01	20.78	-58.5	-67.4	3.8	7.44e-01	0	50	104	3462397952	88	10116
2026-01-16 07:14:40.02	347.90	20.60	-58.5	-67.4	3.8	7.46e-01	0	50	104	3462397952	88	10132
2026-01-16 07:14:41.03	347.78	20.42	-58.5	-67.4	3.8	7.45e-01	0	50	104	3462397952	88	10072
2026-01-16 07:14:42.04	347.67	20.25	-58.5	-67.4	3.8	7.46e-01	0	50	104	3462397952	88	10125
2026-01-16 07:14:43.05	347.56	20.07	-58.5	-67.4	3.8	7.46e-01	0	50	104	3462397952	88	10086
2026-01-16 07:14:44.06	347.45	19.90	-58.5	-67.4	3.8	7.44e-01	0	50	104	3462397952	88	10091
2026-01-16 07:14:45.07	347.34	19.73	-58.5	-67.4	3.8	7.47e-01	0	50	104	3462397952	88	10088
2026-01-16 07:14:46.07	347.23	19.56	-58.5	-67.4	3.8	7.45e-01	0	50	104	3462397952	88	10119
2026-01-16 07:14:47.08	347.12	19.39	-58.5	-67.4	3.8	7.46e-01	0	50	104	3462397952	88	10093
2026-01-16 07:14:48.09	347.02	19.22	-58.5	-67.4	3.8	7.46e-01	0	50	104	3462397952	88	10090
2026-01-16 07:14:49.10	346.92	19.05	-58.5	-67.4	3.8	7.45e-01	0	50	104	3462397952	88	10070
2026-01-16 07:14:50.11	346.81	18.89	-58.5	-67.4	3.8	7.46e-01	0	50	104	3462397952	88	10080
2026-01-16 07:14:51.12	346.71	18.73	-58.5	-67.4	3.8	7.47e-01	0	50	104	3462397952	88	10067
2026-01-16 07:14:52.12	346.61	18.57	-58.5	-67.4	3.8	7.43e-01	0	50	104	3462397952	88	10065
2026-01-16 07:14:53.14	346.51	18.40	-58.5	-67.3	3.8	7.45e-01	0	50	104	3462397952	88	10020
2026-01-16 07:14:54.15	346.42	18.24	-58.5	-67.4	3.8	7.44e-01	0	50	104	3462397952	88	10104
2026-01-16 07:14:55.16	346.32	18.08	-58.4	-67.3	3.8	7.45e-01	0	50	104	3462397952	88	10056
2026-01-16 07:14:56.17	346.23	17.93	-58.4	-67.3	3.8	7.45e-01	0	50	104	3462397952	88	10019
2026-01-16 07:14:57.18	346.13	17.77	-58.4	-67.3	3.8	7.47e-01	0	50	104	3462397952	88	9955
2026-01-16 07:14:58.19	346.04	17.62	-58.5	-67.3	3.8	7.45e-01	0	50	104	3462397952	88	9995
2026-01-16 07:14:59.20	345.95	17.46	-58.4	-67.3	3.8	7.45e-01	0	50	104	3462397952	88	9996
2026-01-16 07:15:00.21	345.86	17.31	-58.4	-67.3	3.8	7.44e-01	0	50	104	3462397952	88	9987
2026-01-16 07:15:01.22	345.77	17.16	-58.4	-67.3	3.8	7.44e-01	0	50	104	3462397952	88	9967
2026-01-16 07:15:02.23	345.68	17.01	-58.4	-67.3	3.8	7.47e-01	0	50	104	3462397952	88	9997
2026-01-16 07:15:03.24	345.60	16.86	-58.4	-67.3	3.8	7.45e-01	0	50	104	3462397952	88	9950
2026-01-16 07:15:04.25	345.51	16.71	-58.4	-67.3	3.8	7.45e-01	0	50	104	3462397952	88	9950
2026-01-16 07:15:05.26	345.43	16.56	-58.4	-67.3	3.8	7.45e-01	0	50	104	3462397952	88	9948
2026-01-16 07:15:06.27	345.34	16.42	-58.4	-67.3	3.8	7.44e-01	0	50	104	3462397952	88	9964
2026-01-16 07:15:07.28	345.26	16.27	-58.4	-67.2	3.8	7.45e-01	0	50	104	3462397952	88	9928
2026-01-16 07:15:08.29	345.18	16.13	-58.4	-67.2	3.8	7.44e-01	0	50	104	3462397952	88	9935
2026-01-16 07:15:09.30	345.10	15.98	-58.4	-67.2	3.8	7.45e-01	0	50	104	3462397952	88	9912
2026-01-16 07:15:10.31	345.02	15.84	-58.4	-67.2	3.8	7.44e-01	0	50	104	3462397952	88	9916
2026-01-16 07:15:11.32	344.94	15.70	-58.4	-67.2	3.8	7.45e-01	0	50	104	3462397952	88	9915
2026-01-16 07:15:12.33	344.86	15.56	-58.3	-67.2	3.8	7.45e-01	0	50	104	3462397952	88	9884
2026-01-16 07:15:13.34	344.78	15.42	-58.3	-67.2	3.8	7.46e-01	0	50	104	3462397952	88	9887
2026-01-16 07:15:14.35	344.71	15.29	-58.3	-67.2	3.8	7.46e-01	0	50	104	3462397952	88	9865
2026-01-16 07:15:15.35	344.63	15.15	-58.3	-67.2	3.8	7.45e-01	0	50	104	3462397952	88	9845
2026-01-16 07:15:16.36	344.56	15.01	-58.3	-67.1	3.8	7.46e-01	0	50	104	3462397952	88	9809
2026-01-16 07:15:17.37	344.49	14.88	-58.3	-67.2	3.8	7.45e-01	0	50	104	3462397952	88	9872
2026-01-16 07:15:18.38	344.41	14.74	-58.3	-67.2	3.8	7.45e-01	0	50	104	3462397952	88	9882
2026-01-16 07:15:19.39	344.34	14.61	-58.3	-67.2	3.8	7.45e-01	0	50	104	3462397952	88	9870
2026-01-16 07:15:20.40	344.27	14.48	-58.3	-67.2	3.8	7.45e-01	0	50	104	3462397952	88	9833
2026-01-16 07:15:21.41	344.20	14.35	-58.3	-67.1	3.8	7.47e-01	0	50	104	3462397952	88	9825
2026-01-16 07:15:22.42	344.13	14.22	-58.3	-67.2	3.8	7.45e-01	0	50	104	3462397952	88	9849
2026-01-16 07:15:23.43	344.06	14.09	-58.3	-67.1	3.8	7.45e-01	0	50	104	3462397952	88	9788
2026-01-16 07:15:24.44	343.99	13.96	-58.3	-67.1	3.8	7.45e-01	0	50	104	3462397952	88	9786
2026-01-16 07:15:25.45	343.93	13.83	-58.3	-67.1	3.8	7.46e-01	0	50	104	3462397952	88	9791
2026-01-16 07:15:26.46	343.86	13.70	-58.3	-67.1	3.8	7.43e-01	0	50	104	3462397952	88	9792
2026-01-16 07:15:27.47	343.79	13.58	-58.2	-67.1	3.8	7.46e-01	0	50	104	3462397952	88	9773
2026-01-16 07:15:28.48	343.73	13.45	-58.2	-67.1	3.8	7.46e-01	0	50	104	3462397952	88	9729
2026-01-16 07:15:29.49	343.66	13.33	-58.2	-67.1	3.8	7.47e-01	0	50	104	3462397952	88	9767
2026-01-16 07:15:30.50	343.60	13.20	-58.2	-67.1	3.8	7.45e-01	0	50	104	3462397952	88	9785
2026-01-16 07:15:31.51	343.54	13.08	-58.2	-67.1	3.8	7.45e-01	0	50	104	3462397952	88	9766
2026-01-16 07:15:32.52	343.47	12.96	-58.2	-67.1	3.8	7.44e-01	0	50	104	3462397952	88	9763
2026-01-16 07:15:33.53	343.41	12.84	-58.2	-67.0	3.8	7.47e-01	0	50	104	3462397952	88	9712
2026-01-16 07:15:34.54	343.35	12.72	-58.2	-67.1	3.8	7.44e-01	0	50	104	3462397952	88	9733
2026-01-16 07:15:35.55	343.29	12.60	-58.2	-67.1	3.8	7.47e-01	0	50	104	3462397952	88	9775
2026-01-16 07:15:36.56	343.23	12.48	-58.1	-67.0	3.8	7.46e-01	0	50	104	3462397952	88	9687
2026-01-16 07:15:37.57	343.17	12.36	-58.2	-67.0	3.8	7.44e-01	0	50	104	3462397952	88	9711
2026-01-16 07:15:38.58	343.11	12.24	-58.2	-67.0	3.8	7.45e-01	0	50	104	3462397952	88	9697
2026-01-16 07:15:39.60	343.05	12.12	-58.2	-67.0	3.8	7.45e-01	0	50	104	3462397952	88	9682
2026-01-16 07:15:40.61	343.00	12.01	-58.1	-67.0	3.8	7.46e-01	0	50	104	3462397952	88	9642
2026-01-16 07:15:41.61	342.94	11.89	-58.2	-67.0	3.8	7.45e-01	0	50	104	3462397952	88	9690
2026-01-16 07:15:42.63	342.88	11.78	-58.1	-67.0	3.8	7.45e-01	0	50	104	3462397952	88	9670
2026-01-16 07:15:43.64	342.83	11.66	-58.1	-67.0	3.8	7.45e-01	0	50	104	3462397952	88	9628
2026-01-16 07:15:44.64	342.77	11.55	-58.1	-67.0	3.8	7.45e-01	0	50	104	3462397952	88	9613
2026-01-16 07:15:45.65	342.72	11.44	-58.1	-67.0	3.8	7.46e-01	0	50	104	3462397952	88	9614
2026-01-16 07:15:46.67	342.66	11.33	-58.1	-67.0	3.8	7.47e-01	0	50	104	3462397952	88	9627
2026-01-16 07:15:47.68	342.61	11.21	-58.1	-66.9	3.8	7.45e-01	0	50	104	3462397952	88	9572
2026-01-16 07:15:48.69	342.56	11.10	-58.1	-66.9	3.8	7.46e-01	0	50	104	3462397952	88	9559
2026-01-16 07:15:49.70	342.51	10.99	-58.1	-67.0	3.8	7.47e-01	0	50	104	3462397952	88	9618
2026-01-16 07:15:50.71	342.45	10.88	-58.1	-66.9	3.8	7.45e-01	0	50	104	3462397952	88	9592
2026-01-16 07:15:51.71	342.40	10.78	-58.1	-66.9	3.8	7.46e-01	0	50	104	3462397952	88	9578
2026-01-16 07:15:52.72	342.35	10.67	-58.0	-66.9	3.8	7.44e-01	0	50	104	3462397952	88	9522
2026-01-16 07:15:53.73	342.30	10.56	-58.1	-66.9	3.8	7.47e-01	0	50	104	3462397952	88	9593
2026-01-16 07:15:54.74	342.25	10.45	-58.1	-66.9	3.8	7.45e-01	0	50	104	3462397952	88	9561
2026-01-16 07:15:55.75	342.20	10.35	-58.0	-66.9	3.8	7.45e-01	0	50	104	3462397952	88	9541
2026-01-16 07:15:56.76	342.15	10.24	-58.0	-66.9	3.8	7.47e-01	0	50	104	3462397952	88	9507
2026-01-16 07:15:57.77	342.10	10.14	-58.0	-66.9	3.8	7.45e-01	0	50	104	3462397952	88	9565
2026-01-16 07:15:58.78	342.06	10.03	-58.0	-66.9	3.8	7.46e-01	0	50	104	3462397952	88	9551
2026-01-16 07:15:59.79	342.01	9.93	-58.0	-66.8	3.8	7.44e-01	0	50	104	3462397952	88	9493
2026-01-16 07:16:00.80	341.96	9.82	-58.0	-66.8	3.8	7.45e-01	0	50	104	3462397952	87	10031
2026-01-16 07:16:01.81	341.92	9.72	-58.1	-66.9	3.8	7.45e-01	0	50	104	3462397952	87	10073
2026-01-16 07:16:02.82	341.87	9.62	-58.0	-66.9	3.8	7.46e-01	0	50	104	3462397952	87	10098
2026-01-16 07:16:03.83	341.82	9.52	-58.0	-66.8	3.8	7.46e-01	0	50	104	3462397952	87	10033
2026-01-16 07:16:04.84	341.78	9.41	-58.0	-66.8	3.8	7.45e-01	0	51	104	3462397952	87	9999
2026-01-16 07:16:05.84	341.73	9.31	-58.0	-66.9	3.8	7.45e-01	0	50	104	3462397952	87	10131
2026-01-16 07:16:06.85	341.69	9.21	-58.0	-66.8	3.8	7.45e-01	0	50	104	3462397952	87	10046
2026-01-16 07:16:07.86	341.64	9.11	-58.0	-66.8	3.8	7.44e-01	0	51	104	3462397952	87	10054
2026-01-16 07:16:08.87	341.60	9.01	-57.9	-66.8	3.8	7.45e-01	0	50	104	3462397952	87	9975
2026-01-16 07:16:09.88	341.56	8.92	-58.0	-66.9	3.8	7.45e-01	0	50	104	3462397952	87	10081
2026-01-16 07:16:10.89	341.51	8.82	-58.0	-66.9	3.8	7.46e-01	0	50	104	3462397952	87	10064
2026-01-16 07:16:11.90	341.47	8.72	-57.9	-66.7	3.8	7.46e-01	0	50	104	3462397952	87	9940
2026-01-16 07:16:12.91	341.43	8.62	-57.9	-66.8	3.8	7.44e-01	0	50	104	3462397952	87	9948
2026-01-16 07:16:13.92	341.39	8.53	-58.0	-66.8	3.8	7.45e-01	0	50	104	3462397952	87	10046
2026-01-16 07:16:14.93	341.35	8.43	-57.9	-66.8	3.8	7.45e-01	0	50	104	3462397952	87	9971
2026-01-16 07:16:15.94	341.31	8.33	-57.9	-66.7	3.8	7.45e-01	0	50	104	3462397952	87	9882
2026-01-16 07:16:16.95	341.27	8.24	-57.8	-66.7	3.8	7.49e-01	0	50	104	3462397952	87	9863
2026-01-16 07:16:17.96	341.23	8.14	-57.9	-66.8	3.8	7.45e-01	0	50	104	3462397952	87	10003
2026-01-16 07:16:18.97	341.19	8.05	-57.9	-66.8	3.8	7.44e-01	0	50	104	3462397952	87	9973
2026-01-16 07:16:19.98	341.15	7.96	-57.8	-66.7	3.8	7.46e-01	0	50	104	3462397952	87	9891
2026-01-16 07:16:20.99	341.11	7.86	-57.8	-66.7	3.8	7.44e-01	0	50	104	3462397952	87	9850
2026-01-16 07:16:21.99	341.07	7.77	-57.9	-66.8	3.8	7.46e-01	0	50	104	3462397952	87	9965
2026-01-16 07:16:23.00	341.03	7.68	-57.9	-66.7	3.8	7.45e-01	0	50	104	3462397952	87	9942
2026-01-16 07:16:24.01	340.99	7.59	-57.8	-66.6	3.8	7.45e-01	0	50	104	3462397952	87	9823
2026-01-16 07:16:25.03	340.95	7.49	-57.8	-66.6	3.8	7.45e-01	0	50	104	3462397952	87	9777
2026-01-16 07:16:26.04	340.92	7.40	-57.9	-66.7	3.8	7.46e-01	0	50	104	3462397952	87	9904
2026-01-16 07:16:27.05	340.88	7.31	-57.8	-66.7	3.8	7.44e-01	0	50	104	3462397952	87	9853
2026-01-16 07:16:28.05	340.84	7.22	-57.8	-66.6	3.8	7.45e-01	0	50	104	3462397952	87	9797
2026-01-16 07:16:29.06	340.80	7.13	-57.7	-66.6	3.8	7.45e-01	0	50	104	3462397952	87	9767
2026-01-16 07:16:30.08	340.77	7.04	-57.8	-66.7	3.8	7.46e-01	0	50	104	3462397952	87	9890
2026-01-16 07:16:31.09	340.73	6.95	-57.8	-66.6	3.8	7.44e-01	0	50	104	3462397952	87	9808
2026-01-16 07:16:32.10	340.70	6.86	-57.7	-66.6	3.8	7.45e-01	0	50	104	3462397952	87	9729
2026-01-16 07:16:33.11	340.66	6.77	-57.7	-66.5	3.8	7.45e-01	0	50	104	3462397952	87	9687
2026-01-16 07:16:34.12	340.63	6.69	-57.8	-66.6	3.8	7.45e-01	0	50	104	3462397952	87	9829
2026-01-16 07:16:35.13	340.59	6.60	-57.7	-66.6	3.8	7.47e-01	0	50	104	3462397952	87	9771
2026-01-16 07:16:36.14	340.56	6.51	-57.7	-66.5	3.8	7.45e-01	0	50	104	3462397952	87	9680
2026-01-16 07:16:37.15	340.52	6.42	-57.6	-66.5	3.8	7.45e-01	0	50	104	3462397952	87	9629
2026-01-16 07:16:38.15	340.49	6.34	-57.7	-66.6	3.8	7.45e-01	0	50	104	3462397952	87	9788
2026-01-16 07:16:39.16	340.46	6.25	-57.7	-66.5	3.8	7.44e-01	0	50	104	3462397952	87	9710
2026-01-16 07:16:40.17	340.42	6.17	-57.6	-66.5	3.8	7.47e-01	0	50	104	3462397952	87	9621
2026-01-16 07:16:41.18	340.39	6.08	-57.6	-66.4	3.8	7.45e-01	0	50	104	3462397952	87	9582
2026-01-16 07:16:42.19	340.36	6.00	-57.7	-66.5	3.8	7.45e-01	0	50	104	3462397952	87	9699
2026-01-16 07:16:43.20	340.32	5.91	-57.6	-66.5	3.8	7.45e-01	0	50	104	3462397952	87	9638
2026-01-16 07:16:44.21	340.29	5.83	-57.5	-66.4	3.8	7.45e-01	0	50	104	3462397952	87	9547
2026-01-16 07:16:45.22	340.26	5.74	-57.5	-66.4	3.8	7.45e-01	0	50	104	3462397952	87	9528
2026-01-16 07:16:46.23	340.23	5.66	-57.7	-66.5	3.8	7.45e-01	0	50	104	3462397952	87	9641
2026-01-16 07:16:47.24	340.20	5.58	-57.6	-66.4	3.8	7.45e-01	0	50	104	3462397952	87	9583
2026-01-16 07:16:48.25	340.17	5.49	-57.5	-66.3	3.8	7.47e-01	0	50	104	3462397952	87	9478
2026-01-16 07:16:49.26	340.13	5.41	-57.5	-66.3	3.8	7.46e-01	0	50	104	3462397952	86	10016
2026-01-16 07:16:50.27	340.10	5.33	-57.6	-66.4	3.8	7.44e-01	0	50	104	3462397952	86	10174
2026-01-16 07:16:51.28	340.07	5.25	-57.5	-66.4	3.8	7.43e-01	0	50	104	3462397952	86	10070
2026-01-16 07:16:52.29	340.04	5.17	-57.4	-66.3	3.8	7.46e-01	0	50	104	3462397952	86	9969
2026-01-16 07:16:53.30	340.01	5.09	-57.4	-66.3	3.8	7.45e-01	0	50	104	3462397952	86	9953
2026-01-16 07:16:54.31	339.98	5.00	-57.6	-66.4	3.8	7.46e-01	0	50	104	3462397952	86	10140
2026-01-16 07:16:55.32	339.95	4.92	-57.9	-66.7	3.8	7.45e-01	0	50	104	3462397952	86	10496
2026-01-16 07:16:56.33	339.93	4.84	-58.2	-67.0	3.8	7.44e-01	0	50	104	3462397952	86	10880
2026-01-16 07:16:57.34	339.90	4.76	-58.4	-67.3	3.8	7.45e-01	0	50	104	3462397952	87	10554
2026-01-16 07:16:58.35	339.87	4.68	-58.6	-67.4	3.8	7.44e-01	0	50	104	3462397952	87	10749
2026-01-16 07:16:59.36	339.84	4.60	-58.7	-67.6	3.8	7.46e-01	0	50	104	3462397952	87	10914
2026-01-16 07:17:00.37	339.81	4.53	-58.8	-67.6	3.8	7.45e-01	0	50	104	3462397952	88	10389
2026-01-16 07:17:01.38	339.78	4.45	-58.9	-67.7	3.8	7.45e-01	0	50	104	3462397952	88	10530
2026-01-16 07:17:02.39	339.75	4.37	-59.0	-67.8	3.8	7.45e-01	0	50	104	3462397952	88	10588
2026-01-16 07:17:03.40	339.73	4.29	-59.0	-67.9	3.8	7.43e-01	0	50	104	3462397952	88	10666
2026-01-16 07:17:04.40	339.70	4.21	-59.1	-67.9	3.8	7.46e-01	0	50	104	3462397952	88	10720
2026-01-16 07:17:05.41	339.67	4.14	-59.1	-68.0	3.8	7.45e-01	0	50	104	3462397952	88	10799
2026-01-16 07:17:06.42	339.65	4.06	-59.1	-68.0	3.8	7.46e-01	0	50	104	3462397952	88	10833
2026-01-16 07:17:07.43	339.62	3.98	-59.1	-68.0	3.8	7.46e-01	0	50	104	3462397952	88	10865
2026-01-16 07:17:08.44	339.59	3.91	-59.1	-68.0	3.8	7.46e-01	0	50	104	3462397952	88	10873
2026-01-16 07:17:09.45	339.57	3.83	-59.1	-68.0	3.8	7.45e-01	0	51	104	3462397952	88	10819
2026-01-16 07:17:10.46	339.54	3.75	-59.2	-68.0	3.8	7.45e-01	0	50	104	3462397952	88	10873
2026-01-16 07:17:11.47	339.51	3.68	-59.2	-68.0	3.8	7.46e-01	0	50	104	3462397952	88	10863
2026-01-16 07:17:12.48	339.49	3.60	-59.2	-68.0	3.8	7.45e-01	0	51	104	3462397952	88	10900
2026-01-16 07:17:13.49	339.46	3.53	-59.2	-68.0	3.8	7.45e-01	0	50	104	3462397952	88	10874
2026-01-16 07:17:14.50	339.44	3.45	-59.1	-68.0	3.8	7.45e-01	0	50	104	3462397952	88	10849
2026-01-16 07:17:15.51	339.41	3.38	-59.1	-68.0	3.8	7.45e-01	0	50	104	3462397952	88	10834
2026-01-16 07:17:16.52	339.39	3.30	-59.1	-68.0	3.8	7.46e-01	0	50	104	3462397952	88	10847
2026-01-16 07:17:17.53	339.36	3.23	-59.1	-68.0	3.8	7.45e-01	0	50	104	3462397952	88	10808
2026-01-16 07:17:18.53	339.34	3.16	-59.1	-67.9	3.8	7.47e-01	0	50	104	3462397952	88	10741
2026-01-16 07:17:19.54	339.31	3.08	-59.1	-67.9	3.8	7.46e-01	0	50	104	3462397952	88	10774
2026-01-16 07:17:20.55	339.29	3.01	-59.1	-67.9	3.8	7.45e-01	0	51	104	3462397952	88	10735
2026-01-16 07:17:21.56	339.27	2.94	-59.0	-67.9	3.8	7.46e-01	0	50	104	3462397952	88	10742
2026-01-16 07:17:22.57	339.24	2.86	-59.1	-67.9	3.8	7.45e-01	0	50	104	3462397952	88	10749
2026-01-16 07:17:23.58	339.22	2.79	-59.0	-67.9	3.8	7.45e-01	0	50	104	3462397952	88	10699
2026-01-16 07:17:24.59	339.19	2.72	-59.0	-67.9	3.8	7.46e-01	0	50	104	3462397952	88	10751
2026-01-16 07:17:25.60	339.17	2.65	-59.0	-67.8	3.8	7.46e-01	0	50	104	3462397952	88	10654
2026-01-16 07:17:26.61	339.15	2.57	-59.0	-67.9	3.8	7.45e-01	0	50	104	3462397952	88	10665
2026-01-16 07:17:27.62	339.12	2.50	-59.0	-67.8	3.8	7.44e-01	0	50	104	3462397952	88	10654
2026-01-16 07:17:28.63	339.10	2.43	-59.0	-67.8	3.8	7.45e-01	0	50	104	3462397952	88	10646
2026-01-16 07:17:29.64	339.08	2.36	-58.9	-67.8	3.8	7.47e-01	0	50	104	3462397952	88	10605
2026-01-16 07:17:30.65	339.06	2.29	-58.9	-67.8	3.8	7.43e-01	0	50	104	3462397952	88	10576
2026-01-16 07:17:31.66	339.03	2.22	-58.9	-67.8	3.8	7.46e-01	0	50	104	3462397952	88	10585
2026-01-16 07:17:32.67	339.01	2.15	-58.9	-67.8	3.8	7.45e-01	0	50	104	3462397952	88	10542
2026-01-16 07:17:33.68	338.99	2.08	-58.9	-67.8	3.8	7.45e-01	0	50	104	3462397952	88	10551
2026-01-16 07:17:34.69	338.97	2.01	-58.9	-67.8	3.8	7.46e-01	0	50	104	3462397952	88	10564

#Closed at: 2026-01-16 07:17:35
#Recorded file [3462 MB]: D:/lorett/data/31041_260116_100711.dat