passes_logs/2026/01/16/R3.2S_Murmansk/R3.2S_Murmansk__20260116_133018_FENGYUN_3D_rec.log

#Pass ID: 20260116_133018_FENGYUN 3D
#Satellite: FENGYUN 3D
#Configuration: FENGYUN 3D
#almurnet v.1.7.20251203
#Start time: 2026-01-16 13:30:20

#Version: 2.2.20231116
#Station: R3.2S_Murmansk
#Location: 33.079688 lon 68.888172 lat
#TLE: 1 43010U 17072A   26015.99024095 -.00000189  00000+0 -67463-4 0  9996
#TLE: 2 43010  98.9932 347.8215 0002366 106.5594 253.5841 14.19694691423396

#Time	Az	El	Level	Level2	SNR	BER	BlckErr	Temp	State	Recorded	gain1	gain2
2026-01-16 13:30:20.62	200.13	2.10	-52.0	-63.9	3.8	8.47e-01	0	43	0	0	76	13455
2026-01-16 13:30:21.63	200.19	2.16	-51.9	-63.8	3.8	8.47e-01	0	43	104	0	74	14958
2026-01-16 13:30:22.64	200.25	2.22	-51.9	-63.7	3.8	8.46e-01	0	43	104	0	74	14862
2026-01-16 13:30:23.65	200.31	2.28	-51.9	-63.7	3.8	8.46e-01	0	43	104	0	74	14773
2026-01-16 13:30:24.66	200.37	2.34	-51.9	-63.7	3.8	8.45e-01	0	44	104	0	74	14808
2026-01-16 13:30:25.66	200.43	2.40	-51.9	-63.7	3.8	8.46e-01	0	43	104	0	74	14879
2026-01-16 13:30:26.67	200.49	2.46	-51.9	-63.7	3.8	8.46e-01	0	44	104	0	74	14821
2026-01-16 13:30:27.68	200.55	2.52	-51.9	-63.7	3.8	8.46e-01	0	44	104	0	74	14804
2026-01-16 13:30:28.69	200.61	2.58	-51.9	-63.7	3.8	8.46e-01	0	44	104	0	74	14741
2026-01-16 13:30:29.70	200.67	2.64	-51.9	-63.6	3.8	8.46e-01	0	44	104	0	74	14687
2026-01-16 13:30:30.70	200.73	2.70	-51.9	-63.7	3.8	8.46e-01	0	44	104	0	74	14716
2026-01-16 13:30:31.71	200.80	2.76	-51.9	-63.6	3.8	8.45e-01	0	44	104	0	74	14685
2026-01-16 13:30:32.72	200.86	2.82	-51.9	-63.6	3.8	8.45e-01	0	44	104	0	74	14588
2026-01-16 13:30:33.73	200.92	2.88	-51.9	-63.5	3.8	8.47e-01	0	44	104	0	74	14463
2026-01-16 13:30:34.73	200.98	2.94	-51.9	-63.6	3.8	8.46e-01	0	44	104	0	74	14565
2026-01-16 13:30:35.74	201.04	3.00	-51.9	-63.6	3.8	8.47e-01	0	44	104	0	74	14671
2026-01-16 13:30:36.75	201.11	3.06	-51.9	-63.6	3.8	8.46e-01	0	44	104	0	74	14650
2026-01-16 13:30:37.76	201.17	3.12	-51.9	-63.4	3.8	8.45e-01	0	44	104	0	74	14359
2026-01-16 13:30:38.77	201.23	3.18	-51.9	-63.5	3.8	8.46e-01	0	44	104	0	74	14406
2026-01-16 13:30:39.78	201.30	3.24	-51.9	-63.5	3.8	8.45e-01	0	44	104	0	74	14481
2026-01-16 13:30:40.79	201.36	3.30	-51.9	-63.6	3.8	8.46e-01	0	44	104	0	74	14592
2026-01-16 13:30:41.79	201.42	3.36	-51.9	-63.7	3.8	8.46e-01	0	45	104	0	74	14722
2026-01-16 13:30:42.80	201.49	3.42	-51.9	-63.7	3.8	8.46e-01	0	44	104	0	74	14787
2026-01-16 13:30:43.81	201.55	3.48	-51.9	-63.7	3.8	8.46e-01	0	45	104	0	74	14724
2026-01-16 13:30:44.82	201.62	3.54	-51.9	-63.5	3.8	8.45e-01	0	44	104	0	74	14508
2026-01-16 13:30:45.83	201.68	3.61	-51.8	-63.2	3.8	8.45e-01	0	44	104	0	74	14037
2026-01-16 13:30:46.84	201.75	3.67	-51.8	-63.3	3.8	8.44e-01	0	45	104	0	74	14081
2026-01-16 13:30:47.85	201.81	3.73	-51.9	-63.3	3.8	8.46e-01	0	45	104	0	74	14193
2026-01-16 13:30:48.86	201.88	3.79	-51.8	-63.5	3.8	8.46e-01	0	45	104	0	74	14379
2026-01-16 13:30:49.86	201.95	3.85	-51.9	-63.7	3.8	8.46e-01	0	45	104	0	74	14799
2026-01-16 13:30:50.88	202.01	3.91	-51.9	-63.8	3.8	8.46e-01	0	45	104	0	74	14975
2026-01-16 13:30:51.88	202.08	3.98	-51.9	-63.5	3.8	8.46e-01	0	45	104	0	74	14420
2026-01-16 13:30:52.89	202.15	4.04	-51.7	-62.2	3.8	8.46e-01	0	45	104	0	74	12389
2026-01-16 13:30:53.90	202.21	4.10	-51.5	-60.4	3.9	8.44e-01	0	45	104	0	74	10130
2026-01-16 13:30:54.91	202.28	4.16	-51.3	-58.8	4.7	8.16e-01	0	45	0	131072	74	8430
2026-01-16 13:30:55.92	202.35	4.23	-50.8	-56.8	6.0	4.04e-01	0	45	0	2228224	73	7048
2026-01-16 13:30:56.93	202.42	4.29	-50.6	-56.3	6.3	3.27e-01	0	45	0	7471104	73	6708
2026-01-16 13:30:57.94	202.48	4.35	-50.2	-55.0	7.5	1.64e-01	0	46	0	12713984	72	6108
2026-01-16 13:30:58.95	202.55	4.41	-49.7	-53.6	8.9	4.46e-02	0	45	0	19005440	71	5524
2026-01-16 13:30:59.95	202.62	4.48	-49.7	-53.6	9.0	5.21e-02	0	45	0	24248320	71	5527
2026-01-16 13:31:00.97	202.69	4.54	-48.7	-51.8	10.9	4.26e-03	0	45	0	29491200	69	4985
2026-01-16 13:31:01.97	202.76	4.60	-48.3	-51.0	11.7	2.00e-03	0	46	0	35782656	68	4843
2026-01-16 13:31:02.98	202.83	4.67	-47.3	-49.5	13.2	1.01e-04	0	45	0	41025536	66	4595
2026-01-16 13:31:03.99	202.90	4.73	-46.2	-48.0	14.7	0.00e+00	0	45	0	46268416	64	4340
2026-01-16 13:31:05.00	202.97	4.79	-45.8	-47.4	15.5	0.00e+00	0	45	0	52559872	63	4260
2026-01-16 13:31:06.01	203.04	4.86	-44.8	-46.2	16.6	0.00e+00	0	45	0	57802752	61	4172
2026-01-16 13:31:07.02	203.11	4.92	-44.2	-45.4	17.4	0.00e+00	0	46	0	64094208	60	4040
2026-01-16 13:31:08.02	203.18	4.99	-43.7	-44.9	18.3	0.00e+00	0	46	0	69337088	59	4040
2026-01-16 13:31:09.03	203.25	5.05	-43.4	-44.5	18.7	0.00e+00	0	46	0	75628544	58	4062
2026-01-16 13:31:10.04	203.32	5.11	-45.6	-47.2	15.8	0.00e+00	0	46	0	80871424	62	4406
2026-01-16 13:31:11.05	203.40	5.18	-46.2	-47.9	15.1	0.00e+00	0	46	0	87162880	62	4798
2026-01-16 13:31:12.06	203.47	5.24	-45.3	-46.8	16.0	0.00e+00	0	46	0	92405760	61	4473
2026-01-16 13:31:13.07	203.54	5.31	-47.1	-49.3	13.4	0.00e+00	0	46	0	97648640	64	5000
2026-01-16 13:31:14.07	203.61	5.37	-47.1	-49.1	13.8	1.10e-06	0	46	0	103940096	64	4919
2026-01-16 13:31:15.08	203.69	5.44	-44.1	-45.3	18.0	0.00e+00	0	46	0	109182976	59	4236
2026-01-16 13:31:16.09	203.76	5.50	-43.7	-44.9	18.4	0.00e+00	0	46	0	114425856	59	4032
2026-01-16 13:31:17.10	203.83	5.57	-43.1	-44.2	19.1	0.00e+00	0	46	0	120717312	58	3941
2026-01-16 13:31:18.11	203.91	5.63	-43.4	-44.5	18.8	0.00e+00	0	46	0	125960192	57	4316
2026-01-16 13:31:19.12	203.98	5.70	-43.3	-44.4	18.9	0.00e+00	0	46	0	132251648	57	4271
2026-01-16 13:31:20.13	204.06	5.76	-44.0	-45.2	18.1	0.00e+00	0	46	0	137494528	58	4427
2026-01-16 13:31:21.13	204.13	5.83	-43.2	-44.3	19.0	0.00e+00	0	46	0	143785984	58	3996
2026-01-16 13:31:22.14	204.21	5.89	-43.8	-45.0	18.3	0.00e+00	0	46	0	149028864	58	4314
2026-01-16 13:31:23.15	204.28	5.96	-43.6	-44.7	18.7	0.00e+00	0	46	0	154271744	58	4162
2026-01-16 13:31:24.16	204.36	6.02	-43.3	-44.4	19.0	0.00e+00	0	46	0	160563200	58	4022
2026-01-16 13:31:25.17	204.43	6.09	-43.3	-44.4	19.0	0.00e+00	0	46	0	165806080	58	4039
2026-01-16 13:31:26.18	204.51	6.16	-43.0	-44.1	19.3	0.00e+00	0	46	0	172097536	58	3891
2026-01-16 13:31:27.18	204.59	6.22	-43.3	-44.4	19.0	0.00e+00	0	46	0	177340416	58	4019
2026-01-16 13:31:28.20	204.67	6.29	-43.0	-44.0	19.4	0.00e+00	0	46	0	182583296	58	3863
2026-01-16 13:31:29.20	204.74	6.36	-43.6	-44.8	18.6	0.00e+00	0	46	0	188874752	57	4455
2026-01-16 13:31:30.21	204.82	6.42	-43.3	-44.3	19.1	0.00e+00	0	46	0	194117632	57	4235
2026-01-16 13:31:31.22	204.90	6.49	-43.5	-44.6	18.8	0.00e+00	0	46	0	200409088	57	4364
2026-01-16 13:31:32.23	204.98	6.56	-43.4	-44.5	19.0	0.00e+00	0	46	0	205651968	57	4316
2026-01-16 13:31:33.24	205.06	6.62	-43.4	-44.5	18.9	0.00e+00	0	46	0	211943424	57	4337
2026-01-16 13:31:34.25	205.14	6.69	-43.6	-44.7	18.7	0.00e+00	0	47	0	217186304	57	4421
2026-01-16 13:31:35.26	205.22	6.76	-43.4	-44.5	19.0	0.00e+00	0	47	0	222429184	57	4302
2026-01-16 13:31:36.27	205.30	6.83	-43.4	-44.5	18.9	0.00e+00	0	47	0	228720640	57	4332
2026-01-16 13:31:37.28	205.38	6.89	-43.3	-44.4	19.1	0.00e+00	0	47	0	233963520	57	4266
2026-01-16 13:31:38.29	205.46	6.96	-43.2	-44.3	19.2	0.00e+00	0	47	0	239206400	57	4209
2026-01-16 13:31:39.30	205.54	7.03	-43.4	-44.5	19.0	0.00e+00	0	47	0	245497856	57	4309
2026-01-16 13:31:40.30	205.62	7.10	-43.5	-44.6	18.9	0.00e+00	0	47	0	250740736	57	4386
2026-01-16 13:31:41.31	205.70	7.17	-43.3	-44.4	19.1	0.00e+00	0	47	0	257032192	57	4245
2026-01-16 13:31:42.32	205.78	7.23	-43.3	-44.4	19.1	0.00e+00	0	47	0	262275072	57	4287
2026-01-16 13:31:43.33	205.87	7.30	-43.3	-44.4	19.2	0.00e+00	0	47	0	268566528	57	4244
2026-01-16 13:31:44.34	205.95	7.37	-43.1	-44.2	19.3	0.00e+00	0	47	0	273809408	57	4184
2026-01-16 13:31:45.35	206.03	7.44	-43.2	-44.3	19.2	0.00e+00	0	47	0	280100864	57	4223
2026-01-16 13:31:46.36	206.12	7.51	-43.2	-44.3	19.3	0.00e+00	0	47	0	285343744	57	4205
2026-01-16 13:31:47.37	206.20	7.58	-43.2	-44.3	19.3	0.00e+00	0	47	0	290586624	57	4201
2026-01-16 13:31:48.38	206.28	7.65	-43.4	-44.5	19.1	0.00e+00	0	47	0	296878080	57	4303
2026-01-16 13:31:49.39	206.37	7.72	-43.5	-44.6	19.0	0.00e+00	0	47	0	302120960	57	4362
2026-01-16 13:31:50.39	206.45	7.78	-43.1	-44.2	19.4	0.00e+00	0	47	0	307363840	57	4167
2026-01-16 13:31:51.40	206.54	7.85	-42.8	-43.8	19.8	0.00e+00	0	47	0	313655296	57	3970
2026-01-16 13:31:52.41	206.63	7.92	-43.3	-44.4	19.2	0.00e+00	0	47	0	318898176	57	4264
2026-01-16 13:31:53.42	206.71	7.99	-43.0	-44.0	19.6	0.00e+00	0	47	0	325189632	57	4087
2026-01-16 13:31:54.43	206.80	8.06	-43.2	-44.2	19.4	0.00e+00	0	47	0	330432512	57	4182
2026-01-16 13:31:55.44	206.89	8.13	-43.0	-44.0	19.6	0.00e+00	0	47	0	336723968	57	4096
2026-01-16 13:31:56.45	206.97	8.20	-43.0	-44.0	19.6	0.00e+00	0	47	0	341966848	57	4080
2026-01-16 13:31:57.46	207.06	8.27	-42.9	-43.9	19.7	0.00e+00	0	47	0	347209728	57	4028
2026-01-16 13:31:58.46	207.15	8.34	-42.9	-44.0	19.7	0.00e+00	0	47	0	353501184	57	4056
2026-01-16 13:31:59.47	207.24	8.42	-43.0	-44.1	19.6	0.00e+00	0	47	0	358744064	57	4106
2026-01-16 13:32:00.48	207.33	8.49	-43.0	-44.0	19.7	0.00e+00	0	47	0	365035520	57	4079
2026-01-16 13:32:01.49	207.42	8.56	-42.9	-43.9	19.7	0.00e+00	0	47	0	370278400	57	4042
2026-01-16 13:32:02.49	207.51	8.63	-42.8	-43.9	19.8	0.00e+00	0	47	0	375521280	57	4011
2026-01-16 13:32:03.50	207.60	8.70	-42.8	-43.8	19.9	0.00e+00	0	47	0	381812736	57	3988
2026-01-16 13:32:04.51	207.69	8.77	-42.8	-43.8	19.9	0.00e+00	0	47	0	387055616	57	3988
2026-01-16 13:32:05.52	207.78	8.84	-42.8	-43.8	19.9	0.00e+00	0	47	0	393347072	57	3973
2026-01-16 13:32:06.53	207.87	8.91	-42.9	-43.9	19.8	0.00e+00	0	47	0	398589952	57	4046
2026-01-16 13:32:07.54	207.96	8.99	-42.6	-43.6	20.1	0.00e+00	0	47	0	404881408	57	3892
2026-01-16 13:32:08.55	208.06	9.06	-42.6	-43.6	20.1	0.00e+00	0	47	0	410124288	57	3869
2026-01-16 13:32:09.56	208.15	9.13	-42.4	-43.3	20.4	0.00e+00	0	48	0	415367168	56	3989
2026-01-16 13:32:10.56	208.24	9.20	-42.5	-43.4	20.3	0.00e+00	0	47	0	421658624	56	4032
2026-01-16 13:32:11.58	208.34	9.27	-42.4	-43.3	20.4	0.00e+00	0	47	0	426901504	56	3993
2026-01-16 13:32:12.58	208.43	9.35	-42.3	-43.3	20.5	0.00e+00	0	48	0	432144384	56	3963
2026-01-16 13:32:13.59	208.52	9.42	-42.4	-43.3	20.4	0.00e+00	0	48	0	438435840	56	3994
2026-01-16 13:32:14.60	208.62	9.49	-42.3	-43.2	20.5	0.00e+00	0	48	0	443678720	56	3943
2026-01-16 13:32:15.61	208.72	9.56	-42.2	-43.2	20.5	0.00e+00	0	48	0	449970176	56	3925
2026-01-16 13:32:16.62	208.81	9.64	-42.4	-43.3	20.4	0.00e+00	0	48	0	455213056	56	3984
2026-01-16 13:32:17.63	208.91	9.71	-42.4	-43.3	20.4	0.00e+00	0	48	0	461504512	56	3990
2026-01-16 13:32:18.64	209.01	9.78	-42.4	-43.3	20.4	0.00e+00	0	48	0	466747392	56	4001
2026-01-16 13:32:19.65	209.10	9.86	-42.4	-43.4	20.4	0.00e+00	0	48	0	473038848	56	4017
2026-01-16 13:32:20.66	209.20	9.93	-42.3	-43.3	20.5	0.00e+00	0	48	0	478281728	56	3977
2026-01-16 13:32:21.67	209.30	10.01	-42.3	-43.3	20.5	0.00e+00	0	48	0	483524608	56	3964
2026-01-16 13:32:22.68	209.40	10.08	-42.4	-43.3	20.4	0.00e+00	0	48	0	489816064	56	4004
2026-01-16 13:32:23.69	209.50	10.15	-42.3	-43.2	20.5	0.00e+00	0	48	0	495058944	56	3955
2026-01-16 13:32:24.69	209.60	10.23	-42.2	-43.1	20.6	0.00e+00	0	48	0	500301824	56	3907
2026-01-16 13:32:25.70	209.70	10.30	-42.3	-43.2	20.6	0.00e+00	0	48	0	506593280	56	3951
2026-01-16 13:32:26.71	209.80	10.38	-42.2	-43.1	20.7	0.00e+00	0	48	0	511836160	56	3898
2026-01-16 13:32:27.72	209.90	10.45	-42.2	-43.1	20.7	0.00e+00	0	48	0	518127616	56	3900
2026-01-16 13:32:28.73	210.00	10.53	-42.2	-43.2	20.6	0.00e+00	0	48	0	523370496	56	3920
2026-01-16 13:32:29.74	210.11	10.60	-42.2	-43.1	20.7	0.00e+00	0	48	0	529661952	56	3893
2026-01-16 13:32:30.75	210.21	10.68	-42.1	-43.1	20.7	0.00e+00	0	48	0	534904832	56	3876
2026-01-16 13:32:31.76	210.31	10.75	-42.2	-43.1	20.7	0.00e+00	0	48	0	540147712	56	3896
2026-01-16 13:32:32.76	210.41	10.83	-42.1	-43.0	20.8	0.00e+00	0	48	0	546439168	56	3836
2026-01-16 13:32:33.77	210.52	10.90	-42.1	-43.0	20.8	0.00e+00	0	48	0	551682048	56	3847
2026-01-16 13:32:34.78	210.62	10.98	-42.0	-42.9	21.0	0.00e+00	0	48	0	557973504	56	3796
2026-01-16 13:32:35.79	210.73	11.06	-41.9	-42.8	20.9	0.00e+00	0	48	0	563216384	55	3989
2026-01-16 13:32:36.79	210.84	11.13	-41.8	-42.7	21.1	0.00e+00	0	48	0	568459264	55	3923
2026-01-16 13:32:37.81	210.94	11.21	-41.8	-42.7	21.0	0.00e+00	0	48	0	574750720	55	3943
2026-01-16 13:32:38.82	211.05	11.28	-41.8	-42.7	21.1	0.00e+00	0	48	0	581042176	55	3920
2026-01-16 13:32:39.83	211.16	11.36	-41.8	-42.7	21.0	0.00e+00	0	48	0	586285056	55	3948
2026-01-16 13:32:40.84	211.27	11.44	-41.8	-42.8	21.0	0.00e+00	0	48	0	591527936	55	3961
2026-01-16 13:32:41.84	211.37	11.51	-41.8	-42.7	21.1	0.00e+00	0	48	0	597819392	55	3928
2026-01-16 13:32:42.85	211.48	11.59	-41.8	-42.7	21.0	0.00e+00	0	48	0	603062272	55	3956
2026-01-16 13:32:43.86	211.59	11.67	-41.8	-42.7	21.1	0.00e+00	0	48	0	608305152	55	3920
2026-01-16 13:32:44.87	211.70	11.75	-41.7	-42.6	21.1	0.00e+00	0	48	0	614596608	55	3897
2026-01-16 13:32:45.88	211.81	11.82	-41.6	-42.5	21.2	0.00e+00	0	48	0	619839488	55	3861
2026-01-16 13:32:46.89	211.93	11.90	-41.7	-42.6	21.2	0.00e+00	0	48	0	625082368	55	3870
2026-01-16 13:32:47.90	212.04	11.98	-41.7	-42.6	21.2	0.00e+00	0	48	0	631373824	55	3874
2026-01-16 13:32:48.91	212.15	12.06	-41.7	-42.6	21.2	0.00e+00	0	48	0	636616704	55	3879
2026-01-16 13:32:49.92	212.26	12.13	-41.7	-42.6	21.2	0.00e+00	0	48	0	642908160	55	3906
2026-01-16 13:32:50.93	212.38	12.21	-41.6	-42.5	21.3	0.00e+00	0	48	0	648151040	55	3850
2026-01-16 13:32:51.94	212.49	12.29	-41.6	-42.5	21.3	0.00e+00	0	48	0	654442496	55	3836
2026-01-16 13:32:52.95	212.61	12.37	-41.6	-42.5	21.3	0.00e+00	0	48	0	659685376	55	3864
2026-01-16 13:32:53.96	212.72	12.45	-41.6	-42.5	21.3	0.00e+00	0	48	0	665976832	55	3845
2026-01-16 13:32:54.96	212.84	12.53	-41.6	-42.5	21.3	0.00e+00	0	48	0	671219712	55	3861
2026-01-16 13:32:55.97	212.95	12.61	-41.6	-42.5	21.3	0.00e+00	0	49	0	676462592	55	3851
2026-01-16 13:32:56.98	213.07	12.68	-41.6	-42.4	21.3	0.00e+00	0	48	0	682754048	55	3823
2026-01-16 13:32:57.99	213.19	12.76	-41.6	-42.5	21.4	0.00e+00	0	48	0	687996928	55	3827
2026-01-16 13:32:59.00	213.31	12.84	-41.6	-42.4	21.4	0.00e+00	0	48	0	693239808	55	3822
2026-01-16 13:33:00.01	213.43	12.92	-41.6	-42.5	21.3	0.00e+00	0	49	0	699531264	55	3850
2026-01-16 13:33:01.02	213.55	13.00	-41.6	-42.5	21.4	0.00e+00	0	49	0	704774144	55	3839
2026-01-16 13:33:02.02	213.67	13.08	-41.4	-42.3	21.5	0.00e+00	0	49	0	711065600	54	3970
2026-01-16 13:33:03.03	213.79	13.16	-41.5	-42.3	21.5	0.00e+00	0	48	0	716308480	54	3997
2026-01-16 13:33:04.04	213.91	13.24	-41.3	-42.2	21.6	0.00e+00	0	49	0	722599936	54	3932
2026-01-16 13:33:05.05	214.03	13.32	-41.3	-42.2	21.6	0.00e+00	0	49	0	727842816	54	3934
2026-01-16 13:33:06.06	214.16	13.40	-41.2	-42.1	21.7	0.00e+00	0	49	0	733085696	54	3879
2026-01-16 13:33:07.07	214.28	13.48	-41.2	-42.1	21.7	0.00e+00	0	49	0	739377152	54	3883
2026-01-16 13:33:08.07	214.40	13.56	-41.2	-42.1	21.7	0.00e+00	0	49	0	744620032	54	3888
2026-01-16 13:33:09.09	214.53	13.65	-41.3	-42.1	21.7	0.00e+00	0	49	0	750911488	54	3898
2026-01-16 13:33:10.09	214.65	13.73	-41.3	-42.2	21.7	0.00e+00	0	49	0	756154368	54	3921
2026-01-16 13:33:11.10	214.78	13.81	-41.2	-42.0	21.8	0.00e+00	0	49	0	761397248	54	3864
2026-01-16 13:33:12.11	214.91	13.89	-41.3	-42.2	21.7	0.00e+00	0	48	0	767688704	54	3915
2026-01-16 13:33:13.12	215.03	13.97	-41.2	-42.1	21.8	0.00e+00	0	49	0	773980160	54	3890
2026-01-16 13:33:14.13	215.16	14.05	-41.2	-42.1	21.7	0.00e+00	0	49	0	779223040	54	3892
2026-01-16 13:33:15.14	215.29	14.13	-41.2	-42.1	21.8	0.00e+00	0	49	0	784465920	54	3888
2026-01-16 13:33:16.15	215.42	14.22	-41.2	-42.1	21.8	0.00e+00	0	49	0	790757376	54	3882
2026-01-16 13:33:17.16	215.55	14.30	-41.3	-42.2	21.7	0.00e+00	0	49	0	796000256	54	3923
2026-01-16 13:33:18.17	215.68	14.38	-41.4	-42.3	21.6	0.00e+00	0	49	0	801243136	54	3973
2026-01-16 13:33:19.18	215.81	14.46	-41.1	-41.9	21.9	0.00e+00	0	49	0	807534592	54	3821
2026-01-16 13:33:20.18	215.95	14.55	-41.2	-42.0	21.8	0.00e+00	0	49	0	812777472	54	3863
2026-01-16 13:33:21.19	216.08	14.63	-41.2	-42.0	21.8	0.00e+00	0	49	0	818020352	54	3864
2026-01-16 13:33:22.20	216.21	14.71	-41.1	-42.0	21.9	0.00e+00	0	49	0	824311808	54	3838
2026-01-16 13:33:23.21	216.35	14.79	-41.0	-41.8	22.0	0.00e+00	0	49	0	829554688	54	3780
2026-01-16 13:33:24.22	216.48	14.88	-40.9	-41.8	22.1	0.00e+00	0	49	0	835846144	53	3964
2026-01-16 13:33:25.23	216.62	14.96	-40.9	-41.7	22.1	0.00e+00	0	49	0	841089024	53	3940
2026-01-16 13:33:26.24	216.76	15.04	-40.9	-41.7	22.1	0.00e+00	0	49	0	847380480	53	3946
2026-01-16 13:33:27.24	216.89	15.13	-40.9	-41.7	22.2	0.00e+00	0	49	0	852623360	53	3931
2026-01-16 13:33:28.25	217.03	15.21	-40.9	-41.7	22.1	0.00e+00	0	49	0	858914816	53	3942
2026-01-16 13:33:29.26	217.17	15.29	-40.8	-41.6	22.2	0.00e+00	0	49	0	864157696	53	3890
2026-01-16 13:33:30.27	217.31	15.38	-40.7	-41.5	22.3	0.00e+00	0	49	0	869400576	53	3850
2026-01-16 13:33:31.28	217.45	15.46	-40.7	-41.5	22.3	0.00e+00	0	49	0	875692032	53	3867
2026-01-16 13:33:32.28	217.59	15.55	-40.7	-41.5	22.3	0.00e+00	0	49	0	880934912	53	3858
2026-01-16 13:33:33.29	217.73	15.63	-40.8	-41.6	22.2	0.00e+00	0	49	0	886177792	53	3896
2026-01-16 13:33:34.30	217.87	15.71	-40.8	-41.6	22.2	0.00e+00	0	49	0	892469248	53	3901
2026-01-16 13:33:35.31	218.02	15.80	-40.8	-41.6	22.2	0.00e+00	0	49	0	897712128	53	3910
2026-01-16 13:33:36.32	218.16	15.88	-40.7	-41.5	22.4	0.00e+00	0	49	0	904003584	53	3846
2026-01-16 13:33:37.33	218.31	15.97	-40.6	-41.4	22.4	0.00e+00	0	49	0	909246464	53	3817
2026-01-16 13:33:38.34	218.45	16.05	-40.5	-41.3	22.6	0.00e+00	0	49	0	915537920	53	3753
2026-01-16 13:33:39.35	218.60	16.14	-40.4	-41.2	22.6	0.00e+00	0	49	0	920780800	52	3945
2026-01-16 13:33:40.36	218.75	16.22	-40.4	-41.2	22.6	0.00e+00	0	49	0	926023680	52	3955
2026-01-16 13:33:41.37	218.90	16.31	-40.3	-41.0	22.8	0.00e+00	0	49	0	932315136	52	3863
2026-01-16 13:33:42.38	219.05	16.39	-40.1	-40.9	22.9	0.00e+00	0	49	0	937558016	52	3807
2026-01-16 13:33:43.39	219.20	16.48	-40.2	-41.0	22.8	0.00e+00	0	49	0	943849472	52	3863
2026-01-16 13:33:44.39	219.35	16.56	-40.1	-40.9	22.9	0.00e+00	0	49	0	949092352	52	3804
2026-01-16 13:33:45.40	219.50	16.65	-40.2	-40.9	22.9	0.00e+00	0	49	0	954335232	52	3820
2026-01-16 13:33:46.41	219.65	16.74	-40.2	-41.0	22.9	0.00e+00	0	49	0	960626688	52	3832
2026-01-16 13:33:47.42	219.80	16.82	-40.3	-41.0	22.8	0.00e+00	0	49	0	966918144	52	3866
2026-01-16 13:33:48.43	219.96	16.91	-40.2	-41.0	22.8	0.00e+00	0	49	0	972161024	52	3855
2026-01-16 13:33:49.44	220.11	17.00	-40.3	-41.0	22.8	0.00e+00	0	49	0	977403904	52	3867
2026-01-16 13:33:50.45	220.27	17.08	-40.3	-41.0	22.8	0.00e+00	0	49	0	983695360	52	3868
2026-01-16 13:33:51.46	220.43	17.17	-40.2	-40.9	22.9	0.00e+00	0	49	0	988938240	52	3821
2026-01-16 13:33:52.46	220.58	17.25	-40.3	-41.1	22.8	0.00e+00	0	49	0	994181120	52	3878
2026-01-16 13:33:53.47	220.74	17.34	-40.3	-41.1	22.7	0.00e+00	0	49	0	1000472576	52	3904
2026-01-16 13:33:54.48	220.90	17.43	-40.4	-41.2	22.6	0.00e+00	0	49	0	1005715456	52	3955
2026-01-16 13:33:55.49	221.06	17.51	-40.4	-41.2	22.7	0.00e+00	0	49	0	1010958336	52	3949
2026-01-16 13:33:56.50	221.22	17.60	-40.4	-41.2	22.7	0.00e+00	0	50	0	1017249792	52	3938
2026-01-16 13:33:57.50	221.38	17.69	-40.4	-41.3	22.6	0.00e+00	0	49	0	1022492672	52	3969
2026-01-16 13:33:58.51	221.55	17.77	-40.3	-41.1	22.8	0.00e+00	0	49	0	1028784128	52	3907
2026-01-16 13:33:59.52	221.71	17.86	-40.3	-41.1	22.9	0.00e+00	0	49	0	1034027008	52	3876
2026-01-16 13:34:00.53	221.87	17.95	-40.4	-41.2	22.7	0.00e+00	0	49	0	1040318464	52	3935
2026-01-16 13:34:01.53	222.04	18.04	-40.3	-41.1	22.8	0.00e+00	0	49	0	1045561344	52	3897
2026-01-16 13:34:02.54	222.21	18.12	-40.2	-41.0	22.9	0.00e+00	0	50	0	1051852800	52	3857
2026-01-16 13:34:03.55	222.37	18.21	-40.2	-41.0	22.9	0.00e+00	0	49	0	1057095680	52	3855
2026-01-16 13:34:04.56	222.54	18.30	-40.2	-41.0	22.9	0.00e+00	0	49	0	1062338560	52	3848
2026-01-16 13:34:05.57	222.71	18.39	-40.0	-40.8	23.1	0.00e+00	0	49	0	1068630016	52	3764
2026-01-16 13:34:06.58	222.88	18.47	-40.0	-40.8	23.1	0.00e+00	0	49	0	1073872896	52	3743
2026-01-16 13:34:07.59	223.05	18.56	-40.0	-40.8	23.2	0.00e+00	0	49	0	1079115776	51	3975
2026-01-16 13:34:08.60	223.23	18.65	-40.0	-40.8	23.2	0.00e+00	0	49	0	1085407232	51	3961
2026-01-16 13:34:09.60	223.40	18.74	-40.1	-40.8	23.1	0.00e+00	0	49	0	1090650112	51	3993
2026-01-16 13:34:10.61	223.57	18.82	-40.1	-40.9	23.1	0.00e+00	0	49	0	1095892992	51	4018
2026-01-16 13:34:11.62	223.75	18.91	-40.0	-40.7	23.3	0.00e+00	0	49	0	1102184448	51	3945
2026-01-16 13:34:12.63	223.92	19.00	-39.9	-40.7	23.3	0.00e+00	0	50	0	1108475904	51	3930
2026-01-16 13:34:13.64	224.10	19.09	-40.0	-40.8	23.2	0.00e+00	0	49	0	1113718784	51	3968
2026-01-16 13:34:14.64	224.28	19.18	-39.8	-40.5	23.4	0.00e+00	0	49	0	1118961664	51	3867
2026-01-16 13:34:15.65	224.46	19.26	-39.9	-40.6	23.4	0.00e+00	0	50	0	1125253120	51	3903
2026-01-16 13:34:16.66	224.64	19.35	-39.8	-40.6	23.4	0.00e+00	0	49	0	1130496000	51	3875
2026-01-16 13:34:17.67	224.82	19.44	-39.8	-40.6	23.4	0.00e+00	0	50	0	1136787456	51	3899
2026-01-16 13:34:18.68	225.00	19.53	-39.9	-40.6	23.3	0.00e+00	0	50	0	1142030336	51	3897
2026-01-16 13:34:19.69	225.18	19.62	-39.8	-40.6	23.4	0.00e+00	0	50	0	1147273216	51	3894
2026-01-16 13:34:20.69	225.37	19.71	-39.8	-40.6	23.4	0.00e+00	0	50	0	1153564672	51	3883
2026-01-16 13:34:21.70	225.55	19.79	-39.8	-40.6	23.4	0.00e+00	0	50	0	1158807552	51	3869
2026-01-16 13:34:22.71	225.74	19.88	-39.9	-40.6	23.3	0.00e+00	0	50	0	1164050432	51	3902
2026-01-16 13:34:23.72	225.93	19.97	-39.9	-40.7	23.3	0.00e+00	0	50	0	1170341888	51	3935
2026-01-16 13:34:24.73	226.12	20.06	-39.9	-40.7	23.3	0.00e+00	0	49	0	1176633344	51	3939
2026-01-16 13:34:25.74	226.31	20.15	-39.9	-40.7	23.3	0.00e+00	0	50	0	1181876224	51	3938
2026-01-16 13:34:26.75	226.50	20.24	-40.0	-40.7	23.3	0.00e+00	0	50	0	1187119104	51	3953
2026-01-16 13:34:27.76	226.69	20.33	-39.9	-40.6	23.4	0.00e+00	0	50	0	1193410560	51	3903
2026-01-16 13:34:28.76	226.88	20.41	-39.9	-40.6	23.4	0.00e+00	0	50	0	1198653440	51	3903
2026-01-16 13:34:29.77	227.07	20.50	-39.7	-40.5	23.5	0.00e+00	0	50	0	1203896320	51	3843
2026-01-16 13:34:30.78	227.27	20.59	-39.7	-40.5	23.5	0.00e+00	0	50	0	1210187776	51	3831
2026-01-16 13:34:31.79	227.46	20.68	-39.7	-40.5	23.5	0.00e+00	0	49	0	1215430656	51	3830
2026-01-16 13:34:32.80	227.66	20.77	-39.8	-40.6	23.4	0.00e+00	0	50	0	1221722112	51	3871
2026-01-16 13:34:33.81	227.86	20.86	-39.7	-40.4	23.5	0.00e+00	0	50	0	1226964992	51	3824
2026-01-16 13:34:34.82	228.06	20.94	-39.7	-40.4	23.6	0.00e+00	0	50	0	1233256448	51	3824
2026-01-16 13:34:35.82	228.26	21.03	-39.6	-40.4	23.6	0.00e+00	0	50	0	1238499328	51	3783
2026-01-16 13:34:36.83	228.46	21.12	-39.7	-40.4	23.6	0.00e+00	0	49	0	1244790784	51	3818
2026-01-16 13:34:37.84	228.66	21.21	-39.8	-40.5	23.5	0.00e+00	0	50	0	1250033664	51	3854
2026-01-16 13:34:38.85	228.87	21.30	-39.6	-40.4	23.6	0.00e+00	0	50	0	1255276544	51	3797
2026-01-16 13:34:39.86	229.07	21.38	-39.6	-40.4	23.7	0.00e+00	0	50	0	1261568000	51	3781
2026-01-16 13:34:40.86	229.28	21.47	-39.6	-40.4	23.6	0.00e+00	0	50	0	1266810880	51	3794
2026-01-16 13:34:41.87	229.48	21.56	-39.6	-40.3	23.7	0.00e+00	0	50	0	1272053760	51	3766
2026-01-16 13:34:42.88	229.69	21.65	-39.7	-40.4	23.6	0.00e+00	0	50	0	1278345216	51	3812
2026-01-16 13:34:43.89	229.90	21.74	-39.7	-40.4	23.6	0.00e+00	0	50	0	1283588096	51	3809
2026-01-16 13:34:44.90	230.11	21.82	-39.6	-40.3	23.7	0.00e+00	0	50	0	1288830976	51	3763
2026-01-16 13:34:45.91	230.32	21.91	-39.6	-40.3	23.7	0.00e+00	0	50	0	1295122432	51	3774
2026-01-16 13:34:46.92	230.54	22.00	-39.4	-40.2	23.8	0.00e+00	0	50	0	1301413888	50	3926
2026-01-16 13:34:47.93	230.75	22.09	-39.5	-40.3	23.8	0.00e+00	0	50	0	1306656768	50	3965
2026-01-16 13:34:48.94	230.97	22.17	-39.5	-40.2	23.8	0.00e+00	0	50	0	1311899648	50	3957
2026-01-16 13:34:49.94	231.18	22.26	-39.4	-40.2	23.8	0.00e+00	0	50	0	1318191104	50	3925
2026-01-16 13:34:50.96	231.40	22.35	-39.5	-40.2	23.8	0.00e+00	0	50	0	1323433984	50	3937
2026-01-16 13:34:51.96	231.62	22.43	-39.4	-40.2	23.8	0.00e+00	0	50	0	1329725440	50	3935
2026-01-16 13:34:52.97	231.84	22.52	-39.4	-40.2	23.8	0.00e+00	0	50	0	1334968320	50	3921
2026-01-16 13:34:53.98	232.06	22.61	-39.4	-40.1	23.9	0.00e+00	0	50	0	1340211200	50	3909
2026-01-16 13:34:54.99	232.28	22.70	-39.4	-40.1	23.9	0.00e+00	0	50	0	1346502656	50	3883
2026-01-16 13:34:56.00	232.51	22.78	-39.4	-40.2	23.8	0.00e+00	0	50	0	1351745536	50	3925
2026-01-16 13:34:57.01	232.73	22.87	-39.4	-40.1	23.9	0.00e+00	0	50	0	1356988416	50	3892
2026-01-16 13:34:58.02	232.96	22.95	-39.4	-40.2	23.9	0.00e+00	0	50	0	1363279872	50	3917
2026-01-16 13:34:59.03	233.19	23.04	-39.5	-40.2	23.8	0.00e+00	0	50	0	1369571328	50	3945
2026-01-16 13:35:00.04	233.42	23.13	-39.4	-40.2	23.8	0.00e+00	0	50	0	1374814208	50	3938
2026-01-16 13:35:01.04	233.64	23.21	-39.4	-40.1	23.9	0.00e+00	0	50	0	1380057088	50	3913
2026-01-16 13:35:02.05	233.87	23.30	-39.2	-40.0	24.0	0.00e+00	0	50	0	1386348544	50	3828
2026-01-16 13:35:03.06	234.11	23.38	-39.2	-39.9	24.1	0.00e+00	0	50	0	1391591424	50	3822
2026-01-16 13:35:04.07	234.34	23.47	-39.2	-39.9	24.1	0.00e+00	0	50	0	1396834304	50	3800
2026-01-16 13:35:05.08	234.58	23.55	-39.1	-39.9	24.2	0.00e+00	0	50	0	1403125760	50	3781
2026-01-16 13:35:06.09	234.81	23.64	-39.1	-39.8	24.2	0.00e+00	0	50	0	1408368640	50	3778
2026-01-16 13:35:07.10	235.05	23.72	-39.2	-39.9	24.1	0.00e+00	0	50	0	1414660096	50	3795
2026-01-16 13:35:08.10	235.29	23.81	-39.2	-40.0	24.1	0.00e+00	0	50	0	1419902976	50	3829
2026-01-16 13:35:09.11	235.53	23.89	-39.3	-40.1	24.0	0.00e+00	0	50	0	1425145856	50	3875
2026-01-16 13:35:10.13	235.77	23.97	-39.3	-40.1	23.9	0.00e+00	0	50	0	1431437312	50	3880
2026-01-16 13:35:11.14	236.01	24.06	-39.2	-39.9	24.1	0.00e+00	0	50	0	1437728768	50	3815
2026-01-16 13:35:12.14	236.25	24.14	-39.1	-39.9	24.1	0.00e+00	0	50	0	1442971648	50	3787
2026-01-16 13:35:13.15	236.50	24.22	-38.8	-39.7	24.1	0.00e+00	0	50	0	1448214528	49	3923
2026-01-16 13:35:14.16	236.74	24.31	-38.6	-39.4	24.2	0.00e+00	0	50	0	1454505984	49	3823
2026-01-16 13:35:15.17	236.99	24.39	-38.6	-39.4	24.4	0.00e+00	0	50	0	1459748864	49	3800
2026-01-16 13:35:16.18	237.24	24.47	-38.8	-39.5	24.4	0.00e+00	0	50	0	1464991744	49	3855
2026-01-16 13:35:17.19	237.49	24.55	-39.0	-39.8	24.2	0.00e+00	0	50	0	1471283200	49	3961
2026-01-16 13:35:18.20	237.74	24.63	-39.2	-39.9	24.1	0.00e+00	0	50	0	1476526080	49	4050
2026-01-16 13:35:19.21	237.99	24.72	-39.2	-39.9	24.1	0.00e+00	0	50	0	1481768960	49	4032
2026-01-16 13:35:20.22	238.25	24.80	-39.1	-39.8	24.2	0.00e+00	0	50	0	1488060416	49	4002
2026-01-16 13:35:21.22	238.50	24.88	-39.0	-39.7	24.3	0.00e+00	0	50	0	1494351872	49	3947
2026-01-16 13:35:22.23	238.76	24.96	-38.7	-39.4	24.5	0.00e+00	0	50	0	1499594752	49	3820
2026-01-16 13:35:23.24	239.01	25.04	-38.6	-39.4	24.6	0.00e+00	0	50	0	1504837632	49	3787
2026-01-16 13:35:24.25	239.27	25.12	-38.7	-39.4	24.6	0.00e+00	0	50	0	1511129088	49	3797
2026-01-16 13:35:25.26	239.53	25.20	-38.8	-39.6	24.4	0.00e+00	0	50	0	1516371968	49	3876
2026-01-16 13:35:26.27	239.80	25.27	-38.9	-39.6	24.4	0.00e+00	0	50	0	1522663424	49	3902
2026-01-16 13:35:27.28	240.06	25.35	-38.9	-39.6	24.4	0.00e+00	0	50	0	1527906304	49	3900
2026-01-16 13:35:28.29	240.32	25.43	-38.9	-39.7	24.3	0.00e+00	0	50	0	1533149184	49	3921
2026-01-16 13:35:29.30	240.59	25.51	-39.0	-39.7	24.2	0.00e+00	0	50	0	1539440640	49	3956
2026-01-16 13:35:30.31	240.85	25.59	-38.9	-39.6	24.4	0.00e+00	0	50	0	1544683520	49	3895
2026-01-16 13:35:31.31	241.12	25.66	-38.6	-39.3	24.7	0.00e+00	0	50	0	1549926400	49	3751
2026-01-16 13:35:32.32	241.39	25.74	-38.6	-39.3	24.7	0.00e+00	0	50	0	1556217856	49	3765
2026-01-16 13:35:33.33	241.66	25.81	-38.6	-39.3	24.7	0.00e+00	0	50	0	1562509312	49	3758
2026-01-16 13:35:34.34	241.93	25.89	-38.6	-39.3	24.7	0.00e+00	0	50	0	1567752192	49	3759
2026-01-16 13:35:35.35	242.20	25.96	-38.7	-39.4	24.6	0.00e+00	0	50	0	1572995072	49	3804
2026-01-16 13:35:36.36	242.48	26.04	-38.5	-39.2	24.7	0.00e+00	0	50	0	1579286528	49	3736
2026-01-16 13:35:37.36	242.75	26.11	-38.5	-39.2	24.7	0.00e+00	0	50	0	1584529408	49	3709
2026-01-16 13:35:38.37	243.03	26.19	-38.4	-39.1	24.9	0.00e+00	0	50	0	1589772288	48	3873
2026-01-16 13:35:39.38	243.30	26.26	-38.3	-39.0	24.9	0.00e+00	0	50	0	1596063744	48	3849
2026-01-16 13:35:40.39	243.58	26.33	-38.4	-39.1	24.9	0.00e+00	0	50	0	1601306624	48	3879
2026-01-16 13:35:41.40	243.86	26.40	-38.4	-39.1	24.8	0.00e+00	0	50	0	1607598080	48	3910
2026-01-16 13:35:42.41	244.15	26.47	-38.4	-39.1	24.8	0.00e+00	0	50	0	1612840960	48	3912
2026-01-16 13:35:43.42	244.43	26.55	-38.4	-39.1	24.9	0.00e+00	0	50	0	1619132416	48	3890
2026-01-16 13:35:44.42	244.71	26.62	-38.5	-39.3	24.7	0.00e+00	0	50	0	1624375296	48	3961
2026-01-16 13:35:45.43	245.00	26.69	-38.6	-39.3	24.6	0.00e+00	0	50	0	1630666752	48	3994
2026-01-16 13:35:46.44	245.28	26.75	-38.6	-39.4	24.6	0.00e+00	0	50	0	1635909632	48	4015
2026-01-16 13:35:47.45	245.57	26.82	-38.7	-39.4	24.5	0.00e+00	0	50	0	1641152512	48	4040
2026-01-16 13:35:48.46	245.86	26.89	-38.5	-39.2	24.8	0.00e+00	0	50	0	1647443968	48	3939
2026-01-16 13:35:49.46	246.15	26.96	-38.4	-39.1	24.8	0.00e+00	0	50	0	1652686848	48	3910
2026-01-16 13:35:50.47	246.44	27.03	-38.5	-39.2	24.7	0.00e+00	0	50	0	1657929728	48	3946
2026-01-16 13:35:51.48	246.73	27.09	-38.5	-39.3	24.7	0.00e+00	0	50	0	1664221184	48	3961
2026-01-16 13:35:52.49	247.02	27.16	-38.6	-39.3	24.7	0.00e+00	0	50	0	1669464064	48	3988
2026-01-16 13:35:53.50	247.32	27.22	-38.6	-39.3	24.6	0.00e+00	0	50	0	1674706944	48	3997
2026-01-16 13:35:54.51	247.61	27.29	-38.5	-39.3	24.7	0.00e+00	0	50	0	1680998400	48	3969
2026-01-16 13:35:55.52	247.91	27.35	-38.5	-39.2	24.7	0.00e+00	0	50	0	1687289856	48	3956
2026-01-16 13:35:56.52	248.21	27.41	-38.5	-39.2	24.7	0.00e+00	0	50	0	1692532736	48	3952
2026-01-16 13:35:57.53	248.51	27.48	-38.5	-39.2	24.8	0.00e+00	0	50	0	1697775616	48	3938
2026-01-16 13:35:58.54	248.81	27.54	-38.5	-39.2	24.8	0.00e+00	0	50	0	1704067072	48	3941
2026-01-16 13:35:59.55	249.11	27.60	-38.5	-39.2	24.8	0.00e+00	0	50	0	1709309952	48	3933
2026-01-16 13:36:00.54	249.41	27.66	-38.6	-39.3	24.7	0.00e+00	0	50	0	1715601408	48	3972
2026-01-16 13:36:01.55	249.71	27.72	-38.6	-39.3	24.7	0.00e+00	0	50	0	1720844288	48	3986
2026-01-16 13:36:02.56	250.02	27.78	-38.6	-39.3	24.7	0.00e+00	0	50	0	1726087168	48	3969
2026-01-16 13:36:03.57	250.32	27.83	-38.5	-39.2	24.8	0.00e+00	0	50	0	1732378624	48	3946
2026-01-16 13:36:04.57	250.63	27.89	-38.4	-39.1	24.9	0.00e+00	0	50	0	1737621504	48	3893
2026-01-16 13:36:05.58	250.93	27.95	-38.4	-39.1	24.8	0.00e+00	0	50	0	1742864384	48	3894
2026-01-16 13:36:06.59	251.24	28.00	-38.4	-39.1	24.8	0.00e+00	0	50	0	1749155840	48	3907
2026-01-16 13:36:07.60	251.55	28.06	-38.6	-39.3	24.7	0.00e+00	0	50	0	1754398720	48	3970
2026-01-16 13:36:08.61	251.87	28.11	-38.5	-39.3	24.7	0.00e+00	0	50	0	1759641600	48	3969
2026-01-16 13:36:09.62	252.18	28.17	-38.4	-39.1	24.9	0.00e+00	0	50	0	1765933056	48	3891
2026-01-16 13:36:10.63	252.49	28.22	-38.1	-38.8	25.1	0.00e+00	0	50	0	1772224512	48	3777
2026-01-16 13:36:11.64	252.81	28.27	-38.1	-38.7	25.2	0.00e+00	0	50	0	1777467392	48	3733
2026-01-16 13:36:12.64	253.12	28.32	-37.7	-38.4	25.0	0.00e+00	0	50	0	1782710272	47	3798
2026-01-16 13:36:13.66	253.44	28.37	-37.9	-38.7	24.8	0.00e+00	0	50	0	1789001728	47	3918
2026-01-16 13:36:14.66	253.75	28.42	-38.1	-38.9	24.6	0.00e+00	0	50	0	1794244608	47	4017
2026-01-16 13:36:15.67	254.07	28.47	-38.3	-39.0	24.5	0.00e+00	0	50	0	1800536064	47	4084
2026-01-16 13:36:16.68	254.39	28.52	-38.2	-39.0	24.5	0.00e+00	0	50	0	1805778944	47	4073
2026-01-16 13:36:17.69	254.71	28.56	-38.3	-39.0	24.5	0.00e+00	0	50	0	1811021824	47	4084
2026-01-16 13:36:18.70	255.03	28.61	-38.2	-39.0	24.5	0.00e+00	0	50	0	1817313280	47	4059
2026-01-16 13:36:19.70	255.35	28.65	-38.3	-39.0	24.5	0.00e+00	0	50	0	1822556160	47	4085
2026-01-16 13:36:20.71	255.67	28.70	-38.2	-38.9	24.6	0.00e+00	0	50	0	1827799040	47	4025
2026-01-16 13:36:21.72	256.00	28.74	-38.2	-38.9	24.6	0.00e+00	0	50	0	1834090496	47	4044
2026-01-16 13:36:22.73	256.32	28.78	-38.2	-38.9	24.6	0.00e+00	0	50	0	1840381952	47	4040
2026-01-16 13:36:23.74	256.65	28.83	-38.1	-38.8	24.6	0.00e+00	0	50	0	1845624832	47	4004
2026-01-16 13:36:24.74	256.97	28.87	-38.2	-39.0	24.5	0.00e+00	0	50	0	1850867712	47	4055
2026-01-16 13:36:25.75	257.30	28.91	-38.0	-38.8	24.7	0.00e+00	0	50	0	1857159168	47	3961
2026-01-16 13:36:26.76	257.62	28.94	-37.9	-38.7	24.8	0.00e+00	0	50	0	1862402048	47	3917
2026-01-16 13:36:27.77	257.95	28.98	-38.1	-38.8	24.7	0.00e+00	0	50	0	1867644928	47	3992
2026-01-16 13:36:28.78	258.28	29.02	-38.1	-38.9	24.6	0.00e+00	0	50	0	1873936384	47	4019
2026-01-16 13:36:29.79	258.61	29.05	-38.2	-38.9	24.6	0.00e+00	0	50	0	1879179264	47	4047
2026-01-16 13:36:30.80	258.94	29.09	-38.1	-38.9	24.6	0.00e+00	0	50	0	1885470720	47	4010
2026-01-16 13:36:31.81	259.28	29.12	-38.1	-38.9	24.6	0.00e+00	0	50	0	1890713600	47	4005
2026-01-16 13:36:32.82	259.61	29.16	-38.2	-39.0	24.5	0.00e+00	0	50	0	1897005056	47	4069
2026-01-16 13:36:33.83	259.94	29.19	-38.3	-39.1	24.4	0.00e+00	0	50	0	1902247936	47	4118
2026-01-16 13:36:34.84	260.27	29.22	-38.4	-39.1	24.4	0.00e+00	0	50	0	1908539392	47	4126
2026-01-16 13:36:35.84	260.60	29.25	-38.4	-39.1	24.4	0.00e+00	0	50	0	1913782272	47	4142
2026-01-16 13:36:36.85	260.94	29.28	-38.2	-39.0	24.5	0.00e+00	0	50	0	1919025152	47	4063
2026-01-16 13:36:37.86	261.27	29.30	-38.2	-38.9	24.6	0.00e+00	0	50	0	1925316608	47	4032
2026-01-16 13:36:38.87	261.61	29.33	-38.3	-39.0	24.5	0.00e+00	0	50	0	1930559488	47	4084
2026-01-16 13:36:39.88	261.95	29.36	-38.3	-39.0	24.5	0.00e+00	0	50	0	1935802368	47	4098
2026-01-16 13:36:40.89	262.28	29.38	-38.4	-39.2	24.4	0.00e+00	0	50	0	1942093824	47	4154
2026-01-16 13:36:41.90	262.62	29.41	-38.5	-39.3	24.3	0.00e+00	0	50	0	1947336704	47	4204
2026-01-16 13:36:42.91	262.96	29.43	-38.5	-39.2	24.3	0.00e+00	0	50	0	1952579584	47	4185
2026-01-16 13:36:43.92	263.30	29.45	-38.6	-39.3	24.2	0.00e+00	0	50	0	1958871040	47	4224
2026-01-16 13:36:44.93	263.63	29.47	-38.5	-39.2	24.3	0.00e+00	0	50	0	1965162496	47	4171
2026-01-16 13:36:45.94	263.97	29.49	-38.4	-39.1	24.4	0.00e+00	0	50	0	1970405376	47	4123
2026-01-16 13:36:46.94	264.31	29.51	-38.3	-39.0	24.5	0.00e+00	0	50	0	1975648256	47	4072
2026-01-16 13:36:47.95	264.65	29.53	-38.4	-39.2	24.4	0.00e+00	0	50	0	1981939712	47	4158
2026-01-16 13:36:48.96	264.99	29.54	-38.5	-39.2	24.4	0.00e+00	0	50	0	1987182592	47	4171
2026-01-16 13:36:49.97	265.33	29.56	-38.4	-39.1	24.5	0.00e+00	0	50	0	1993474048	47	4124
2026-01-16 13:36:50.98	265.67	29.57	-38.5	-39.2	24.3	0.00e+00	0	50	0	1998716928	47	4175
2026-01-16 13:36:51.99	266.01	29.58	-38.3	-39.0	24.5	0.00e+00	0	50	0	2003959808	47	4098
2026-01-16 13:36:53.00	266.35	29.60	-38.3	-39.0	24.6	0.00e+00	0	50	0	2010251264	47	4074
2026-01-16 13:36:54.01	266.69	29.61	-38.2	-39.0	24.6	0.00e+00	0	50	0	2015494144	47	4056
2026-01-16 13:36:55.02	267.04	29.62	-38.2	-38.9	24.7	0.00e+00	0	50	0	2021785600	47	4032
2026-01-16 13:36:56.03	267.38	29.63	-38.3	-39.0	24.5	0.00e+00	0	50	0	2027028480	47	4084
2026-01-16 13:36:57.04	267.72	29.63	-38.3	-39.0	24.5	0.00e+00	0	51	0	2033319936	47	4085
2026-01-16 13:36:58.05	268.06	29.64	-38.3	-39.0	24.6	0.00e+00	0	50	0	2038562816	47	4075
2026-01-16 13:36:59.05	268.40	29.65	-38.3	-39.1	24.5	0.00e+00	0	50	0	2043805696	47	4106
2026-01-16 13:37:00.06	268.74	29.65	-38.3	-39.1	24.5	0.00e+00	0	50	0	2050097152	47	4099
2026-01-16 13:37:01.07	269.09	29.65	-38.1	-38.8	24.7	0.00e+00	0	50	0	2055340032	47	4004
2026-01-16 13:37:02.08	269.43	29.66	-38.1	-38.8	24.7	0.00e+00	0	50	0	2060582912	47	3991
2026-01-16 13:37:03.09	269.77	29.66	-38.2	-38.9	24.7	0.00e+00	0	50	0	2066874368	47	4028
2026-01-16 13:37:04.10	270.11	29.66	-38.2	-38.9	24.7	0.00e+00	0	50	0	2072117248	47	4027
2026-01-16 13:37:05.10	270.45	29.66	-38.2	-39.0	24.6	0.00e+00	0	50	0	2078408704	47	4060
2026-01-16 13:37:06.11	270.80	29.65	-38.2	-38.9	24.7	0.00e+00	0	50	0	2083651584	47	4029
2026-01-16 13:37:07.12	271.14	29.65	-38.2	-39.0	24.6	0.00e+00	0	50	0	2089943040	47	4066
2026-01-16 13:37:08.13	271.48	29.65	-38.4	-39.1	24.5	0.00e+00	0	50	0	2095185920	47	4124
2026-01-16 13:37:09.14	271.82	29.64	-38.4	-39.2	24.5	0.00e+00	0	50	0	2101477376	47	4152
2026-01-16 13:37:10.14	272.16	29.63	-38.4	-39.2	24.5	0.00e+00	0	50	0	2106720256	47	4147
2026-01-16 13:37:11.15	272.50	29.63	-38.2	-38.9	24.7	0.00e+00	0	50	0	2111963136	47	4038
2026-01-16 13:37:12.16	272.84	29.62	-38.2	-38.9	24.7	0.00e+00	0	50	0	2118254592	47	4039
2026-01-16 13:37:13.17	273.19	29.61	-38.3	-39.0	24.6	0.00e+00	0	50	0	2123497472	47	4074
2026-01-16 13:37:14.18	273.53	29.60	-38.4	-39.2	24.5	0.00e+00	0	50	0	2128740352	47	4157
2026-01-16 13:37:15.18	273.87	29.58	-38.5	-39.3	24.4	0.00e+00	0	50	0	2135031808	47	4213
2026-01-16 13:37:16.19	274.21	29.57	-38.6	-39.4	24.3	0.00e+00	0	50	0	2140274688	47	4248
2026-01-16 13:37:17.20	274.55	29.56	-38.6	-39.4	24.3	0.00e+00	0	50	0	2145517568	47	4257
2026-01-16 13:37:18.21	274.89	29.54	-38.5	-39.2	24.4	0.00e+00	0	50	0	2151809024	47	4184
2026-01-16 13:37:19.21	275.22	29.53	-38.5	-39.2	24.4	0.00e+00	0	50	0	2157051904	47	4189
2026-01-16 13:37:20.22	275.56	29.51	-38.5	-39.2	24.4	0.00e+00	0	50	0	2163343360	47	4182
2026-01-16 13:37:21.23	275.90	29.49	-38.6	-39.4	24.3	0.00e+00	0	50	0	2168586240	47	4245
2026-01-16 13:37:22.24	276.24	29.47	-38.7	-39.5	24.2	0.00e+00	0	50	0	2174877696	47	4295
2026-01-16 13:37:23.25	276.58	29.45	-38.5	-39.3	24.4	0.00e+00	0	51	0	2180120576	47	4196
2026-01-16 13:37:24.26	276.92	29.43	-38.4	-39.2	24.4	0.00e+00	0	50	0	2186412032	47	4165
2026-01-16 13:37:25.26	277.25	29.41	-38.4	-39.2	24.5	0.00e+00	0	50	0	2191654912	47	4148
2026-01-16 13:37:26.27	277.59	29.38	-38.5	-39.3	24.4	0.00e+00	0	50	0	2196897792	47	4209
2026-01-16 13:37:27.28	277.93	29.36	-38.6	-39.3	24.3	0.00e+00	0	50	0	2203189248	47	4220
2026-01-16 13:37:28.29	278.26	29.33	-38.6	-39.3	24.3	0.00e+00	0	50	0	2208432128	47	4232
2026-01-16 13:37:29.30	278.60	29.31	-38.6	-39.3	24.3	0.00e+00	0	50	0	2213675008	47	4235
2026-01-16 13:37:30.30	278.93	29.28	-38.6	-39.4	24.3	0.00e+00	0	50	0	2219966464	47	4252
2026-01-16 13:37:31.31	279.26	29.25	-38.6	-39.3	24.4	0.00e+00	0	50	0	2225209344	47	4223
2026-01-16 13:37:32.32	279.60	29.22	-38.6	-39.4	24.3	0.00e+00	0	50	0	2231500800	47	4243
2026-01-16 13:37:33.33	279.93	29.19	-38.5	-39.2	24.4	0.00e+00	0	50	0	2236743680	47	4186
2026-01-16 13:37:34.34	280.26	29.16	-38.5	-39.3	24.4	0.00e+00	0	50	0	2243035136	47	4208
2026-01-16 13:37:35.34	280.59	29.13	-38.5	-39.3	24.4	0.00e+00	0	51	0	2248278016	47	4201
2026-01-16 13:37:36.35	280.92	29.09	-38.5	-39.3	24.4	0.00e+00	0	50	0	2253520896	47	4199
2026-01-16 13:37:37.36	281.25	29.06	-38.6	-39.4	24.3	0.00e+00	0	51	0	2259812352	47	4262
2026-01-16 13:37:38.37	281.58	29.02	-38.6	-39.4	24.3	0.00e+00	0	50	0	2265055232	47	4250
2026-01-16 13:37:39.37	281.91	28.98	-38.4	-39.2	24.5	0.00e+00	0	51	0	2271346688	47	4162
2026-01-16 13:37:40.38	282.23	28.95	-38.5	-39.2	24.4	0.00e+00	0	50	0	2276589568	47	4174
2026-01-16 13:37:41.39	282.56	28.91	-38.5	-39.2	24.4	0.00e+00	0	50	0	2281832448	47	4177
2026-01-16 13:37:42.40	282.89	28.87	-38.5	-39.3	24.4	0.00e+00	0	50	0	2288123904	47	4199
2026-01-16 13:37:43.41	283.21	28.83	-38.5	-39.2	24.4	0.00e+00	0	50	0	2293366784	47	4193
2026-01-16 13:37:44.42	283.54	28.79	-38.5	-39.2	24.4	0.00e+00	0	50	0	2298609664	47	4181
2026-01-16 13:37:45.43	283.86	28.75	-38.4	-39.2	24.5	0.00e+00	0	50	0	2304901120	47	4158
2026-01-16 13:37:46.44	284.19	28.70	-38.5	-39.2	24.4	0.00e+00	0	50	0	2311192576	47	4174
2026-01-16 13:37:47.44	284.51	28.66	-38.5	-39.2	24.4	0.00e+00	0	50	0	2316435456	47	4181
2026-01-16 13:37:48.45	284.83	28.61	-38.4	-39.1	24.5	0.00e+00	0	50	0	2321678336	47	4124
2026-01-16 13:37:49.46	285.15	28.57	-38.5	-39.2	24.4	0.00e+00	0	50	0	2327969792	47	4174
2026-01-16 13:37:50.47	285.47	28.52	-38.5	-39.2	24.4	0.00e+00	0	50	0	2333212672	47	4193
2026-01-16 13:37:51.48	285.79	28.47	-38.6	-39.4	24.3	0.00e+00	0	50	0	2338455552	47	4258
2026-01-16 13:37:52.48	286.10	28.43	-38.6	-39.3	24.3	0.00e+00	0	51	0	2344747008	47	4230
2026-01-16 13:37:53.49	286.42	28.38	-38.6	-39.3	24.4	0.00e+00	0	51	0	2349989888	47	4231
2026-01-16 13:37:54.50	286.74	28.33	-38.6	-39.3	24.3	0.00e+00	0	50	0	2356281344	47	4238
2026-01-16 13:37:55.51	287.05	28.28	-39.0	-39.8	24.5	0.00e+00	0	51	0	2361524224	48	4194
2026-01-16 13:37:56.52	287.36	28.22	-39.1	-39.9	24.4	0.00e+00	0	51	0	2367815680	48	4244
2026-01-16 13:37:57.53	287.68	28.17	-39.3	-40.0	24.2	0.00e+00	0	50	0	2373058560	49	4087
2026-01-16 13:37:58.54	287.99	28.12	-39.3	-40.0	24.2	0.00e+00	0	50	0	2379350016	49	4089
2026-01-16 13:37:59.54	288.30	28.07	-39.2	-40.0	24.3	0.00e+00	0	51	0	2384592896	49	4055
2026-01-16 13:38:00.54	288.60	28.01	-39.2	-39.9	24.3	0.00e+00	0	51	0	2389835776	49	4039
2026-01-16 13:38:01.55	288.91	27.96	-39.1	-39.9	24.4	0.00e+00	0	50	0	2396127232	49	4014
2026-01-16 13:38:02.56	289.22	27.90	-39.3	-40.0	24.3	0.00e+00	0	51	0	2401370112	49	4071
2026-01-16 13:38:03.57	289.53	27.84	-39.2	-39.9	24.3	0.00e+00	0	51	0	2406612992	49	4042
2026-01-16 13:38:04.58	289.83	27.78	-39.1	-39.8	24.4	0.00e+00	0	50	0	2412904448	49	3995
2026-01-16 13:38:05.58	290.13	27.73	-39.1	-39.8	24.4	0.00e+00	0	50	0	2418147328	49	3976
2026-01-16 13:38:06.59	290.44	27.67	-39.1	-39.8	24.4	0.00e+00	0	50	0	2423390208	49	3989
2026-01-16 13:38:07.60	290.74	27.61	-39.0	-39.7	24.5	0.00e+00	0	51	0	2429681664	49	3949
2026-01-16 13:38:08.61	291.04	27.55	-39.0	-39.7	24.5	0.00e+00	0	50	0	2434924544	49	3947
2026-01-16 13:38:09.62	291.34	27.48	-39.1	-39.9	24.4	0.00e+00	0	51	0	2441216000	49	4012
2026-01-16 13:38:10.63	291.64	27.42	-39.2	-40.0	24.3	0.00e+00	0	51	0	2446458880	49	4066
2026-01-16 13:38:11.64	291.94	27.36	-39.2	-39.9	24.4	0.00e+00	0	50	0	2452750336	49	4024
2026-01-16 13:38:12.65	292.24	27.30	-39.2	-39.9	24.3	0.00e+00	0	51	0	2457993216	49	4040
2026-01-16 13:38:13.66	292.53	27.23	-39.4	-40.1	24.2	0.00e+00	0	50	0	2464284672	49	4118
2026-01-16 13:38:14.66	292.82	27.17	-39.2	-40.0	24.3	0.00e+00	0	51	0	2469527552	49	4053
2026-01-16 13:38:15.67	293.12	27.10	-39.1	-39.8	24.4	0.00e+00	0	50	0	2474770432	49	3982
2026-01-16 13:38:16.68	293.41	27.04	-39.1	-39.8	24.4	0.00e+00	0	51	0	2481061888	49	3993
2026-01-16 13:38:17.69	293.70	26.97	-39.2	-39.9	24.3	0.00e+00	0	50	0	2486304768	49	4029
2026-01-16 13:38:18.70	293.99	26.90	-39.1	-39.9	24.4	0.00e+00	0	50	0	2491547648	49	4005
2026-01-16 13:38:19.70	294.27	26.84	-39.1	-39.8	24.5	0.00e+00	0	51	0	2497839104	49	3969
2026-01-16 13:38:20.71	294.56	26.77	-39.1	-39.9	24.4	0.00e+00	0	51	0	2503081984	49	4009
2026-01-16 13:38:21.72	294.85	26.70	-39.2	-40.0	24.3	0.00e+00	0	51	0	2509373440	49	4060
2026-01-16 13:38:22.73	295.13	26.63	-39.3	-40.0	24.3	0.00e+00	0	51	0	2514616320	49	4072
2026-01-16 13:38:23.74	295.41	26.56	-39.4	-40.1	24.2	0.00e+00	0	51	0	2520907776	49	4122
2026-01-16 13:38:24.75	295.70	26.49	-39.2	-39.9	24.4	0.00e+00	0	51	0	2526150656	49	4017
2026-01-16 13:38:25.76	295.98	26.42	-39.1	-39.8	24.5	0.00e+00	0	51	0	2531393536	49	3965
2026-01-16 13:38:26.77	296.26	26.34	-39.1	-39.8	24.4	0.00e+00	0	51	0	2537684992	49	4001
2026-01-16 13:38:27.78	296.54	26.27	-39.1	-39.8	24.5	0.00e+00	0	51	0	2542927872	49	3969
2026-01-16 13:38:28.78	296.81	26.20	-39.1	-39.8	24.4	0.00e+00	0	51	0	2549219328	49	3990
2026-01-16 13:38:29.79	297.09	26.13	-39.3	-40.0	24.3	0.00e+00	0	51	0	2554462208	49	4078
2026-01-16 13:38:30.80	297.36	26.05	-39.2	-40.0	24.3	0.00e+00	0	51	0	2559705088	49	4064
2026-01-16 13:38:31.81	297.63	25.98	-39.3	-40.1	24.2	0.00e+00	0	51	0	2565996544	49	4109
2026-01-16 13:38:32.82	297.91	25.90	-39.5	-40.2	24.1	0.00e+00	0	50	0	2572288000	49	4174
2026-01-16 13:38:33.82	298.18	25.83	-39.5	-40.2	24.1	0.00e+00	0	51	0	2577530880	49	4169
2026-01-16 13:38:34.83	298.44	25.75	-39.4	-40.2	24.1	0.00e+00	0	51	0	2582773760	49	4159
2026-01-16 13:38:35.84	298.71	25.68	-39.4	-40.1	24.2	0.00e+00	0	51	0	2589065216	49	4113
2026-01-16 13:38:36.85	298.98	25.60	-39.4	-40.1	24.1	0.00e+00	0	51	0	2594308096	49	4134
2026-01-16 13:38:37.86	299.25	25.53	-39.4	-40.1	24.1	0.00e+00	0	51	0	2599550976	49	4132
2026-01-16 13:38:38.86	299.51	25.45	-39.4	-40.1	24.2	0.00e+00	0	50	0	2605842432	49	4133
2026-01-16 13:38:39.87	299.77	25.37	-39.5	-40.2	24.1	0.00e+00	0	51	0	2611085312	49	4166
2026-01-16 13:38:40.88	300.03	25.29	-39.4	-40.2	24.1	0.00e+00	0	50	0	2616328192	49	4159
2026-01-16 13:38:41.89	300.30	25.22	-39.5	-40.3	24.1	0.00e+00	0	51	0	2622619648	49	4214
2026-01-16 13:38:42.90	300.55	25.14	-39.6	-40.4	24.0	0.00e+00	0	51	0	2627862528	49	4247
2026-01-16 13:38:43.90	300.81	25.06	-39.6	-40.3	24.0	0.00e+00	0	51	0	2634153984	49	4232
2026-01-16 13:38:44.91	301.07	24.98	-39.6	-40.3	24.0	0.00e+00	0	51	0	2639396864	49	4222
2026-01-16 13:38:45.92	301.32	24.90	-39.6	-40.4	23.9	0.00e+00	0	51	0	2645688320	49	4247
2026-01-16 13:38:46.93	301.58	24.82	-39.5	-40.3	24.0	0.00e+00	0	51	0	2650931200	49	4207
2026-01-16 13:38:47.94	301.83	24.74	-39.6	-40.4	23.9	0.00e+00	0	51	0	2657222656	49	4246
2026-01-16 13:38:48.95	302.08	24.66	-39.7	-40.4	23.9	0.00e+00	0	51	0	2662465536	49	4290
2026-01-16 13:38:49.96	302.33	24.58	-39.5	-40.2	24.1	0.00e+00	0	51	0	2667708416	49	4190
2026-01-16 13:38:50.96	302.58	24.50	-39.4	-40.1	24.2	0.00e+00	0	51	0	2673999872	49	4134
2026-01-16 13:38:51.97	302.83	24.41	-39.4	-40.2	24.1	0.00e+00	0	51	0	2679242752	49	4153
2026-01-16 13:38:52.98	303.08	24.33	-39.6	-40.3	24.0	0.00e+00	0	51	0	2684485632	49	4212
2026-01-16 13:38:53.99	303.32	24.25	-39.5	-40.3	24.0	0.00e+00	0	51	0	2690777088	49	4211
2026-01-16 13:38:55.00	303.57	24.17	-39.7	-40.4	23.9	0.00e+00	0	51	0	2696019968	49	4270
2026-01-16 13:38:56.01	303.81	24.08	-39.7	-40.5	23.8	0.00e+00	0	51	0	2701262848	50	4073
2026-01-16 13:38:57.02	304.05	24.00	-39.8	-40.6	23.8	0.00e+00	0	51	0	2707554304	50	4107
2026-01-16 13:38:58.02	304.29	23.92	-39.7	-40.4	23.9	0.00e+00	0	51	0	2713845760	50	4038
2026-01-16 13:38:59.03	304.53	23.83	-39.6	-40.4	23.9	0.00e+00	0	51	0	2719088640	50	4012
2026-01-16 13:39:00.04	304.77	23.75	-39.5	-40.3	24.0	0.00e+00	0	51	0	2724331520	50	3971
2026-01-16 13:39:01.05	305.00	23.67	-39.5	-40.2	24.1	0.00e+00	0	51	0	2730622976	50	3956
2026-01-16 13:39:02.06	305.24	23.58	-39.6	-40.4	23.9	0.00e+00	0	51	0	2735865856	50	4015
2026-01-16 13:39:03.07	305.47	23.50	-39.7	-40.5	23.8	0.00e+00	0	51	0	2742157312	50	4066
2026-01-16 13:39:04.07	305.71	23.41	-39.6	-40.3	24.0	0.00e+00	0	51	0	2747400192	50	3999
2026-01-16 13:39:05.08	305.94	23.33	-39.5	-40.3	23.9	0.00e+00	0	50	0	2752643072	50	3963
2026-01-16 13:39:06.09	306.17	23.24	-39.6	-40.4	23.9	0.00e+00	0	51	0	2758934528	50	4007
2026-01-16 13:39:07.10	306.40	23.16	-39.7	-40.5	23.8	0.00e+00	0	51	0	2764177408	50	4060
2026-01-16 13:39:08.10	306.62	23.07	-39.6	-40.4	23.9	0.00e+00	0	51	0	2769420288	50	4011
2026-01-16 13:39:09.11	306.85	22.99	-39.7	-40.5	23.8	0.00e+00	0	51	0	2775711744	50	4057
2026-01-16 13:39:10.12	307.08	22.90	-39.7	-40.4	23.8	0.00e+00	0	51	0	2782003200	50	4045
2026-01-16 13:39:11.13	307.30	22.82	-39.5	-40.2	24.0	0.00e+00	0	51	0	2787246080	50	3938
2026-01-16 13:39:12.13	307.52	22.73	-39.5	-40.2	23.9	0.00e+00	0	50	0	2792488960	50	3948
2026-01-16 13:39:13.14	307.74	22.64	-39.6	-40.3	23.9	0.00e+00	0	51	0	2798780416	50	3970
2026-01-16 13:39:14.15	307.97	22.56	-39.7	-40.5	23.7	0.00e+00	0	50	0	2804023296	50	4060
2026-01-16 13:39:15.16	308.19	22.47	-39.9	-40.7	23.6	0.00e+00	0	50	0	2809266176	50	4150
2026-01-16 13:39:16.16	308.40	22.39	-40.2	-41.0	23.3	0.00e+00	0	50	0	2815557632	50	4295
2026-01-16 13:39:17.17	308.62	22.30	-40.2	-41.0	23.3	0.00e+00	0	51	0	2820800512	50	4301
2026-01-16 13:39:18.18	308.84	22.21	-40.3	-41.1	23.2	0.00e+00	0	51	0	2827091968	51	4103
2026-01-16 13:39:19.19	309.05	22.13	-40.1	-40.9	23.4	0.00e+00	0	51	0	2832334848	51	4022
2026-01-16 13:39:20.20	309.26	22.04	-40.1	-40.8	23.4	0.00e+00	0	51	0	2837577728	51	3991
2026-01-16 13:39:21.20	309.48	21.95	-40.0	-40.8	23.5	0.00e+00	0	51	0	2843869184	51	3962
2026-01-16 13:39:22.21	309.69	21.87	-39.8	-40.6	23.7	0.00e+00	0	51	0	2849112064	51	3875
2026-01-16 13:39:23.22	309.90	21.78	-39.9	-40.6	23.6	0.00e+00	0	51	0	2855403520	51	3908
2026-01-16 13:39:24.23	310.11	21.69	-40.0	-40.8	23.5	0.00e+00	0	51	0	2860646400	51	3977
2026-01-16 13:39:25.24	310.31	21.60	-40.0	-40.7	23.5	0.00e+00	0	51	0	2866937856	51	3941
2026-01-16 13:39:26.24	310.52	21.52	-40.0	-40.8	23.5	0.00e+00	0	51	0	2872180736	51	3959
2026-01-16 13:39:27.25	310.73	21.43	-40.1	-40.9	23.4	0.00e+00	0	51	0	2877423616	51	4023
2026-01-16 13:39:28.26	310.93	21.34	-40.2	-40.9	23.3	0.00e+00	0	51	0	2883715072	51	4050
2026-01-16 13:39:29.27	311.13	21.25	-40.2	-41.0	23.3	0.00e+00	0	51	0	2888957952	51	4066
2026-01-16 13:39:30.28	311.34	21.17	-40.2	-41.0	23.3	0.00e+00	0	51	0	2894200832	51	4082
2026-01-16 13:39:31.28	311.54	21.08	-40.3	-41.1	23.2	0.00e+00	0	51	0	2900492288	51	4112
2026-01-16 13:39:32.29	311.74	20.99	-40.1	-40.9	23.4	0.00e+00	0	51	0	2905735168	51	4020
2026-01-16 13:39:33.30	311.94	20.90	-40.2	-41.0	23.3	0.00e+00	0	51	0	2912026624	51	4054
2026-01-16 13:39:34.31	312.13	20.81	-40.1	-40.8	23.4	0.00e+00	0	51	0	2917269504	51	3998
2026-01-16 13:39:35.32	312.33	20.73	-40.2	-40.9	23.3	0.00e+00	0	51	0	2923560960	51	4037
2026-01-16 13:39:36.33	312.53	20.64	-40.2	-41.0	23.3	0.00e+00	0	51	0	2928803840	51	4059
2026-01-16 13:39:37.34	312.72	20.55	-40.2	-41.0	23.2	0.00e+00	0	51	0	2935095296	51	4075
2026-01-16 13:39:38.34	312.91	20.46	-40.3	-41.1	23.2	0.00e+00	0	51	0	2940338176	51	4107
2026-01-16 13:39:39.35	313.11	20.38	-40.3	-41.0	23.2	0.00e+00	0	51	0	2945581056	51	4097
2026-01-16 13:39:40.36	313.30	20.29	-40.3	-41.0	23.2	0.00e+00	0	50	0	2951872512	51	4090
2026-01-16 13:39:41.37	313.49	20.20	-40.3	-41.1	23.2	0.00e+00	0	51	0	2957115392	51	4116
2026-01-16 13:39:42.38	313.68	20.11	-40.5	-41.2	23.1	0.00e+00	0	51	0	2962358272	51	4181
2026-01-16 13:39:43.38	313.86	20.02	-40.5	-41.3	23.0	0.00e+00	0	51	0	2968649728	51	4212
2026-01-16 13:39:44.39	314.05	19.94	-40.6	-41.4	22.9	0.00e+00	0	51	0	2973892608	51	4265
2026-01-16 13:39:45.40	314.24	19.85	-40.6	-41.4	22.8	0.00e+00	0	51	0	2979135488	52	4008
2026-01-16 13:39:46.41	314.42	19.76	-40.6	-41.4	22.7	0.00e+00	0	51	0	2985426944	52	4047
2026-01-16 13:39:47.42	314.61	19.67	-40.7	-41.5	22.7	0.00e+00	0	51	0	2991718400	52	4074
2026-01-16 13:39:48.42	314.79	19.59	-40.6	-41.4	22.8	0.00e+00	0	51	0	2996961280	52	4025
2026-01-16 13:39:49.43	314.97	19.50	-40.6	-41.4	22.7	0.00e+00	0	50	0	3002204160	52	4040
2026-01-16 13:39:50.44	315.15	19.41	-40.7	-41.5	22.7	0.00e+00	0	51	0	3008495616	52	4073
2026-01-16 13:39:51.45	315.33	19.32	-40.7	-41.4	22.7	0.00e+00	0	50	0	3013738496	52	4043
2026-01-16 13:39:52.46	315.51	19.23	-40.7	-41.5	22.7	0.00e+00	0	51	0	3020029952	52	4053
2026-01-16 13:39:53.46	315.69	19.15	-40.6	-41.4	22.7	0.00e+00	0	51	0	3025272832	52	4030
2026-01-16 13:39:54.47	315.86	19.06	-40.7	-41.5	22.6	0.00e+00	0	51	0	3030515712	52	4069
2026-01-16 13:39:55.48	316.04	18.97	-40.7	-41.5	22.7	0.00e+00	0	51	0	3036807168	52	4066
2026-01-16 13:39:56.50	316.22	18.88	-40.8	-41.6	22.6	0.00e+00	0	51	0	3042050048	52	4116
2026-01-16 13:39:57.50	316.39	18.80	-40.6	-41.4	22.7	0.00e+00	0	50	0	3047292928	52	4033
2026-01-16 13:39:58.51	316.56	18.71	-40.6	-41.4	22.7	0.00e+00	0	51	0	3053584384	52	4033
2026-01-16 13:39:59.52	316.73	18.62	-40.6	-41.4	22.7	0.00e+00	0	51	0	3059875840	52	4017
2026-01-16 13:40:00.53	316.91	18.53	-40.7	-41.5	22.6	0.00e+00	0	51	0	3065118720	52	4092
2026-01-16 13:40:01.54	317.08	18.45	-40.8	-41.6	22.5	0.00e+00	0	50	0	3070361600	52	4114
2026-01-16 13:40:02.54	317.24	18.36	-40.8	-41.7	22.5	0.00e+00	0	51	0	3076653056	52	4155
2026-01-16 13:40:03.55	317.41	18.27	-40.9	-41.8	22.4	0.00e+00	0	51	0	3081895936	52	4197
2026-01-16 13:40:04.56	317.58	18.19	-41.0	-41.8	22.3	0.00e+00	0	50	0	3087138816	52	4226
2026-01-16 13:40:05.57	317.75	18.10	-40.9	-41.8	22.3	0.00e+00	0	51	0	3093430272	52	4207
2026-01-16 13:40:06.58	317.91	18.01	-40.9	-41.7	22.4	0.00e+00	0	50	0	3098673152	52	4157
2026-01-16 13:40:07.58	318.08	17.93	-40.8	-41.5	22.5	0.00e+00	0	50	0	3104964608	52	4097
2026-01-16 13:40:08.59	318.24	17.84	-40.6	-41.4	22.6	0.00e+00	0	50	0	3110207488	52	4040
2026-01-16 13:40:09.60	318.40	17.75	-40.7	-41.5	22.6	0.00e+00	0	51	0	3115450368	52	4056
2026-01-16 13:40:10.61	318.56	17.67	-40.8	-41.6	22.5	0.00e+00	0	50	0	3121741824	52	4102
2026-01-16 13:40:11.62	318.73	17.58	-40.7	-41.5	22.5	0.00e+00	0	51	0	3126984704	52	4085
2026-01-16 13:40:12.62	318.88	17.50	-40.7	-41.5	22.5	0.00e+00	0	50	0	3133276160	52	4098
2026-01-16 13:40:13.63	319.04	17.41	-40.8	-41.7	22.4	0.00e+00	0	51	0	3138519040	52	4148
2026-01-16 13:40:14.64	319.20	17.32	-40.9	-41.7	22.3	0.00e+00	0	51	0	3144810496	52	4185
2026-01-16 13:40:15.65	319.36	17.24	-40.9	-41.7	22.3	0.00e+00	0	51	0	3150053376	52	4173
2026-01-16 13:40:16.66	319.52	17.15	-40.9	-41.7	22.4	0.00e+00	0	51	0	3155296256	52	4181
2026-01-16 13:40:17.66	319.67	17.07	-40.8	-41.6	22.4	0.00e+00	0	51	0	3161587712	52	4138
2026-01-16 13:40:18.67	319.83	16.98	-40.8	-41.6	22.4	0.00e+00	0	51	0	3166830592	52	4140
2026-01-16 13:40:19.68	319.98	16.89	-40.8	-41.6	22.4	0.00e+00	0	51	0	3172073472	52	4122
2026-01-16 13:40:20.69	320.13	16.81	-40.7	-41.5	22.5	0.00e+00	0	50	0	3178364928	52	4076
2026-01-16 13:40:21.70	320.29	16.72	-40.9	-41.7	22.4	0.00e+00	0	50	0	3183607808	52	4148
2026-01-16 13:40:22.70	320.44	16.64	-40.8	-41.6	22.4	0.00e+00	0	51	0	3189899264	52	4130
2026-01-16 13:40:23.71	320.59	16.55	-40.9	-41.7	22.4	0.00e+00	0	51	0	3195142144	52	4156
2026-01-16 13:40:24.72	320.74	16.47	-41.0	-41.8	22.2	0.00e+00	0	50	0	3201433600	52	4215
2026-01-16 13:40:25.73	320.89	16.38	-41.1	-41.9	22.1	0.00e+00	0	51	0	3206676480	52	4271
2026-01-16 13:40:26.73	321.03	16.30	-41.0	-41.9	22.2	0.00e+00	0	50	0	3212967936	52	4256
2026-01-16 13:40:27.74	321.18	16.21	-41.1	-42.0	22.1	0.00e+00	0	50	0	3218210816	52	4293
2026-01-16 13:40:28.75	321.33	16.13	-41.2	-42.0	22.0	0.00e+00	0	51	0	3223453696	52	4334
2026-01-16 13:40:29.76	321.47	16.05	-41.2	-42.1	22.0	0.00e+00	0	51	0	3229745152	53	4116
2026-01-16 13:40:30.77	321.62	15.96	-41.3	-42.1	21.9	0.00e+00	0	50	0	3234988032	53	4135
2026-01-16 13:40:31.77	321.76	15.88	-41.5	-42.3	21.7	0.00e+00	0	50	0	3240230912	53	4223
2026-01-16 13:40:32.78	321.91	15.79	-41.3	-42.2	21.9	0.00e+00	0	51	0	3246522368	53	4149
2026-01-16 13:40:33.79	322.05	15.71	-41.3	-42.1	21.9	0.00e+00	0	50	0	3251765248	53	4141
2026-01-16 13:40:34.80	322.19	15.63	-41.3	-42.1	21.9	0.00e+00	0	51	0	3257008128	53	4126
2026-01-16 13:40:35.81	322.33	15.54	-41.4	-42.2	21.8	0.00e+00	0	50	0	3263299584	53	4161
2026-01-16 13:40:36.82	322.47	15.46	-41.4	-42.2	21.8	0.00e+00	0	50	0	3269591040	53	4178
2026-01-16 13:40:37.82	322.61	15.38	-41.4	-42.2	21.8	0.00e+00	0	51	0	3274833920	53	4164
2026-01-16 13:40:38.83	322.75	15.29	-41.4	-42.2	21.8	0.00e+00	0	50	0	3280076800	53	4180
2026-01-16 13:40:39.84	322.89	15.21	-41.5	-42.3	21.7	0.00e+00	0	51	0	3286368256	53	4225
2026-01-16 13:40:40.85	323.03	15.13	-41.5	-42.4	21.6	0.00e+00	0	50	0	3291611136	53	4255
2026-01-16 13:40:41.86	323.16	15.04	-41.5	-42.4	21.6	0.00e+00	0	50	0	3297902592	53	4270
2026-01-16 13:40:42.86	323.30	14.96	-41.6	-42.4	21.6	0.00e+00	0	50	0	3303145472	53	4290
2026-01-16 13:40:43.87	323.43	14.88	-41.6	-42.5	21.5	0.00e+00	0	50	0	3308388352	53	4330
2026-01-16 13:40:44.88	323.57	14.80	-41.7	-42.6	21.5	0.00e+00	0	50	0	3314679808	53	4345
2026-01-16 13:40:45.89	323.70	14.71	-41.8	-42.7	21.3	0.00e+00	0	50	0	3319922688	54	4175
2026-01-16 13:40:46.90	323.84	14.63	-41.7	-42.6	21.4	0.00e+00	0	51	0	3325165568	54	4122
2026-01-16 13:40:47.91	323.97	14.55	-41.6	-42.5	21.5	0.00e+00	0	51	0	3331457024	54	4092
2026-01-16 13:40:48.92	324.10	14.47	-41.6	-42.5	21.6	0.00e+00	0	51	0	3337748480	54	4054
2026-01-16 13:40:49.93	324.23	14.39	-41.5	-42.4	21.6	0.00e+00	0	51	0	3342991360	54	4024
2026-01-16 13:40:50.94	324.36	14.30	-41.6	-42.4	21.5	0.00e+00	0	51	0	3348234240	54	4044
2026-01-16 13:40:51.95	324.49	14.22	-41.5	-42.4	21.6	0.00e+00	0	50	0	3354525696	54	4020
2026-01-16 13:40:52.96	324.62	14.14	-41.5	-42.4	21.6	0.00e+00	0	50	0	3359768576	54	4030
2026-01-16 13:40:53.97	324.75	14.06	-41.4	-42.3	21.7	0.00e+00	0	50	0	3365011456	54	3986
2026-01-16 13:40:54.98	324.88	13.98	-41.5	-42.4	21.6	0.00e+00	0	51	0	3371302912	54	4011
2026-01-16 13:40:55.98	325.00	13.90	-41.6	-42.4	21.5	0.00e+00	0	50	0	3376545792	54	4049
2026-01-16 13:40:56.99	325.13	13.82	-41.5	-42.4	21.6	0.00e+00	0	50	0	3382837248	54	4010
2026-01-16 13:40:58.00	325.25	13.74	-41.6	-42.5	21.5	0.00e+00	0	50	0	3388080128	54	4080
2026-01-16 13:40:59.01	325.38	13.66	-41.7	-42.5	21.5	0.00e+00	0	50	0	3393323008	54	4088
2026-01-16 13:41:00.02	325.50	13.58	-41.7	-42.6	21.4	0.00e+00	0	50	0	3399614464	54	4099
2026-01-16 13:41:01.03	325.63	13.50	-41.7	-42.6	21.4	0.00e+00	0	51	0	3405905920	54	4109
2026-01-16 13:41:02.04	325.75	13.42	-41.7	-42.6	21.4	0.00e+00	0	50	0	3411148800	54	4108
2026-01-16 13:41:03.04	325.87	13.34	-41.7	-42.6	21.3	0.00e+00	0	51	0	3416391680	54	4131
2026-01-16 13:41:04.05	325.99	13.26	-41.6	-42.5	21.5	0.00e+00	0	50	0	3422683136	54	4075
2026-01-16 13:41:05.06	326.12	13.18	-41.7	-42.5	21.4	0.00e+00	0	50	0	3427926016	54	4084
2026-01-16 13:41:06.07	326.24	13.10	-41.6	-42.5	21.5	0.00e+00	0	51	0	3433168896	54	4070
2026-01-16 13:41:07.08	326.36	13.02	-41.6	-42.4	21.5	0.00e+00	0	50	0	3439460352	54	4045
2026-01-16 13:41:08.08	326.47	12.94	-41.6	-42.4	21.5	0.00e+00	0	51	0	3444703232	54	4043
2026-01-16 13:41:09.09	326.59	12.86	-41.6	-42.4	21.5	0.00e+00	0	50	0	3449946112	54	4047
2026-01-16 13:41:10.10	326.71	12.78	-41.5	-42.4	21.5	0.00e+00	0	50	0	3456237568	54	4027
2026-01-16 13:41:11.11	326.83	12.70	-41.6	-42.5	21.5	0.00e+00	0	50	0	3461480448	54	4059
2026-01-16 13:41:12.12	326.95	12.62	-41.7	-42.6	21.3	0.00e+00	0	50	0	3467771904	54	4104
2026-01-16 13:41:13.12	327.06	12.55	-41.9	-42.8	21.2	0.00e+00	0	50	0	3473014784	54	4199
2026-01-16 13:41:14.13	327.18	12.47	-41.8	-42.7	21.2	0.00e+00	0	51	0	3479306240	54	4185
2026-01-16 13:41:15.14	327.29	12.39	-41.9	-42.8	21.1	0.00e+00	0	50	0	3484549120	54	4226
2026-01-16 13:41:16.15	327.41	12.31	-41.9	-42.8	21.1	0.00e+00	0	50	0	3490840576	54	4233
2026-01-16 13:41:17.16	327.52	12.23	-42.0	-43.0	20.9	0.00e+00	0	50	0	3496083456	54	4319
2026-01-16 13:41:18.17	327.63	12.16	-42.1	-43.1	20.8	0.00e+00	0	50	0	3501326336	54	4346
2026-01-16 13:41:19.17	327.75	12.08	-42.2	-43.2	20.7	0.00e+00	0	50	0	3507617792	55	4161
2026-01-16 13:41:20.18	327.86	12.00	-42.2	-43.1	20.8	0.00e+00	0	50	0	3512860672	55	4137
2026-01-16 13:41:21.19	327.97	11.93	-42.3	-43.2	20.7	0.00e+00	0	50	0	3518103552	55	4168
2026-01-16 13:41:22.20	328.08	11.85	-42.2	-43.1	20.8	0.00e+00	0	50	0	3524395008	55	4129
2026-01-16 13:41:23.21	328.19	11.77	-42.2	-43.1	20.8	0.00e+00	0	50	0	3529637888	55	4142
2026-01-16 13:41:24.22	328.30	11.69	-42.3	-43.2	20.7	0.00e+00	0	50	0	3535929344	55	4175
2026-01-16 13:41:25.23	328.41	11.62	-42.2	-43.1	20.8	0.00e+00	0	50	0	3541172224	55	4113
2026-01-16 13:41:26.23	328.52	11.54	-42.2	-43.2	20.7	0.00e+00	0	50	0	3547463680	55	4150
2026-01-16 13:41:27.24	328.63	11.47	-42.2	-43.2	20.7	0.00e+00	0	50	0	3552706560	55	4147
2026-01-16 13:41:28.25	328.74	11.39	-42.2	-43.1	20.7	0.00e+00	0	50	0	3557949440	55	4137
2026-01-16 13:41:29.26	328.84	11.31	-42.3	-43.3	20.6	0.00e+00	0	50	0	3564240896	55	4196
2026-01-16 13:41:30.27	328.95	11.24	-42.2	-43.1	20.8	0.00e+00	0	50	0	3569483776	55	4105
2026-01-16 13:41:31.28	329.06	11.16	-42.1	-43.0	20.8	0.00e+00	0	51	0	3575775232	55	4090
2026-01-16 13:41:32.29	329.16	11.09	-42.2	-43.2	20.7	0.00e+00	0	50	0	3581018112	55	4148
2026-01-16 13:41:33.30	329.27	11.01	-42.3	-43.2	20.7	0.00e+00	0	51	0	3586260992	55	4156
2026-01-16 13:41:34.31	329.37	10.94	-42.4	-43.3	20.5	0.00e+00	0	51	0	3592552448	55	4232
2026-01-16 13:41:35.32	329.48	10.86	-42.4	-43.3	20.5	0.00e+00	0	50	0	3598843904	55	4241
2026-01-16 13:41:36.32	329.58	10.79	-42.4	-43.4	20.5	0.00e+00	0	50	0	3604086784	55	4249
2026-01-16 13:41:37.33	329.68	10.71	-42.6	-43.5	20.3	0.00e+00	0	50	0	3609329664	55	4334
2026-01-16 13:41:38.34	329.79	10.64	-42.4	-43.3	20.5	0.00e+00	0	50	0	3615621120	55	4238
2026-01-16 13:41:39.35	329.89	10.56	-42.6	-43.5	20.3	0.00e+00	0	51	0	3620864000	55	4329
2026-01-16 13:41:40.36	329.99	10.49	-42.6	-43.6	20.2	0.00e+00	0	50	0	3626106880	55	4357
2026-01-16 13:41:41.36	330.09	10.41	-42.6	-43.5	20.3	0.00e+00	0	50	0	3632398336	55	4337
2026-01-16 13:41:42.37	330.19	10.34	-42.6	-43.6	20.3	0.00e+00	0	50	0	3637641216	55	4341
2026-01-16 13:41:43.38	330.29	10.27	-42.6	-43.6	20.2	0.00e+00	0	50	0	3642884096	55	4362
2026-01-16 13:41:44.39	330.39	10.19	-42.8	-43.8	20.0	0.00e+00	0	50	0	3649175552	56	4241
2026-01-16 13:41:45.39	330.49	10.12	-42.9	-43.8	20.1	0.00e+00	0	51	0	3654418432	56	4242
2026-01-16 13:41:46.40	330.59	10.05	-42.8	-43.8	20.1	0.00e+00	0	51	0	3660709888	56	4236
2026-01-16 13:41:47.42	330.69	9.97	-43.0	-44.0	19.9	0.00e+00	0	50	0	3665952768	56	4300
2026-01-16 13:41:48.42	330.79	9.90	-42.9	-43.9	20.0	0.00e+00	0	50	0	3672244224	56	4282
