passes_logs/2026/01/16/R3.2S_Murmansk/R3.2S_Murmansk__20260116_211252_SUOMI_NPP_rec.log

#Pass ID: 20260116_211252_SUOMI NPP
#Satellite: SUOMI NPP
#Configuration: NPP
#almurnet v.1.7.20251203
#Start time: 2026-01-16 21:12:53

#Version: 2.2.20231116
#Station: R3.2S_Murmansk
#Location: 33.079688 lon 68.888172 lat
#TLE: 1 37849U 11061A   26015.94982489  .00000054  00000+0  46705-4 0  9991
#TLE: 2 37849  98.7812 317.9902 0002438  62.0366 298.1057 14.19525452736847

#Time	Az	El	Level	Level2	SNR	BER	BlckErr	Temp	State	Recorded	gain1	gain2
2026-01-16 21:12:53.06	18.66	2.01	-50.9	-65.8	3.8	1.49e+00	0	31	0	0	73	20010
2026-01-16 21:12:54.06	18.76	2.05	-50.9	-65.8	3.8	1.49e+00	0	31	104	0	72	21151
2026-01-16 21:12:55.07	18.86	2.10	-50.9	-65.8	3.8	1.49e+00	0	31	104	0	72	21137
2026-01-16 21:12:56.08	18.97	2.14	-50.9	-65.8	3.8	1.49e+00	0	31	104	0	72	21212
2026-01-16 21:12:57.09	19.07	2.18	-50.9	-65.8	3.8	1.49e+00	0	32	104	0	72	21184
2026-01-16 21:12:58.10	19.18	2.22	-50.9	-65.8	3.8	1.49e+00	0	31	104	0	72	21147
2026-01-16 21:12:59.11	19.28	2.27	-50.9	-65.8	3.8	1.49e+00	0	31	104	0	72	21161
2026-01-16 21:13:00.12	19.38	2.31	-50.9	-65.8	3.8	1.49e+00	0	31	104	0	72	21203
2026-01-16 21:13:01.12	19.49	2.35	-50.9	-65.8	3.8	1.49e+00	0	32	104	0	72	21173
2026-01-16 21:13:02.13	19.59	2.39	-50.9	-65.8	3.8	1.49e+00	0	32	104	0	72	21226
2026-01-16 21:13:03.14	19.70	2.44	-50.9	-65.8	3.8	1.49e+00	0	32	104	0	72	21138
2026-01-16 21:13:04.15	19.80	2.48	-50.9	-65.8	3.8	1.49e+00	0	32	104	0	72	21184
2026-01-16 21:13:05.16	19.91	2.52	-50.9	-65.8	3.8	1.49e+00	0	32	104	0	72	21141
2026-01-16 21:13:06.16	20.02	2.57	-50.9	-65.8	3.8	1.49e+00	0	32	104	0	72	21237
2026-01-16 21:13:07.17	20.12	2.61	-50.9	-65.8	3.8	1.49e+00	0	32	104	0	72	21206
2026-01-16 21:13:08.18	20.23	2.65	-50.9	-65.8	3.8	1.49e+00	0	32	104	0	72	21209
2026-01-16 21:13:09.19	20.34	2.69	-50.9	-65.8	3.8	1.49e+00	0	32	104	0	72	21242
2026-01-16 21:13:10.20	20.44	2.74	-50.9	-65.8	3.8	1.49e+00	0	32	104	0	72	21241
2026-01-16 21:13:11.21	20.55	2.78	-50.9	-65.8	3.8	1.49e+00	0	32	104	0	72	21234
2026-01-16 21:13:12.22	20.66	2.82	-50.9	-65.8	3.8	1.49e+00	0	32	104	0	72	21218
2026-01-16 21:13:13.23	20.77	2.86	-50.9	-65.8	3.8	1.49e+00	0	32	104	0	72	21176
2026-01-16 21:13:14.24	20.88	2.91	-50.9	-65.8	3.8	1.49e+00	0	32	104	0	72	21245
2026-01-16 21:13:15.25	20.99	2.95	-50.9	-65.8	3.8	1.49e+00	0	32	104	0	72	21173
2026-01-16 21:13:16.26	21.09	2.99	-50.9	-65.8	3.8	1.49e+00	0	32	104	0	72	21108
2026-01-16 21:13:17.26	21.20	3.03	-50.9	-65.8	3.8	1.49e+00	0	32	104	0	72	21260
2026-01-16 21:13:18.27	21.31	3.08	-50.9	-65.8	3.8	1.49e+00	0	32	104	0	72	21140
2026-01-16 21:13:19.28	21.42	3.12	-50.9	-65.8	3.8	1.49e+00	0	32	104	0	72	21100
2026-01-16 21:13:20.29	21.53	3.16	-50.9	-65.8	3.8	1.49e+00	0	32	104	0	72	21034
2026-01-16 21:13:21.30	21.64	3.20	-50.9	-65.8	3.8	1.49e+00	0	32	104	0	72	21136
2026-01-16 21:13:22.30	21.75	3.25	-50.9	-65.8	3.8	1.49e+00	0	32	104	0	72	21085
2026-01-16 21:13:23.31	21.87	3.29	-50.9	-65.8	3.8	1.49e+00	0	32	104	0	72	21105
2026-01-16 21:13:24.32	21.98	3.33	-50.9	-65.8	3.8	1.49e+00	0	32	104	0	72	21190
2026-01-16 21:13:25.33	22.09	3.37	-50.9	-65.8	3.8	1.49e+00	0	32	104	0	72	21190
2026-01-16 21:13:26.34	22.20	3.42	-50.9	-65.8	3.8	1.49e+00	0	32	104	0	72	21078
2026-01-16 21:13:27.35	22.31	3.46	-50.9	-65.8	3.8	1.49e+00	0	32	104	0	72	21172
2026-01-16 21:13:28.36	22.43	3.50	-50.9	-65.8	3.8	1.49e+00	0	32	104	0	72	21115
2026-01-16 21:13:29.37	22.54	3.54	-50.9	-65.8	3.8	1.49e+00	0	32	104	0	72	21073
2026-01-16 21:13:30.37	22.65	3.59	-50.9	-65.8	3.8	1.49e+00	0	33	104	0	72	21051
2026-01-16 21:13:31.38	22.77	3.63	-50.9	-65.7	3.8	1.49e+00	0	32	104	0	72	20855
2026-01-16 21:13:32.39	22.88	3.67	-50.9	-65.8	3.8	1.49e+00	0	32	104	0	72	21124
2026-01-16 21:13:33.40	23.00	3.71	-50.9	-65.8	3.8	1.49e+00	0	33	104	0	72	21096
2026-01-16 21:13:34.40	23.11	3.75	-50.9	-65.8	3.8	1.49e+00	0	33	104	0	72	21126
2026-01-16 21:13:35.41	23.22	3.80	-50.9	-65.8	3.8	1.49e+00	0	33	104	0	72	21045
2026-01-16 21:13:36.42	23.34	3.84	-50.9	-65.8	3.8	1.49e+00	0	33	104	0	72	21122
2026-01-16 21:13:37.43	23.46	3.88	-50.9	-65.7	3.8	1.49e+00	0	32	104	0	72	20921
2026-01-16 21:13:38.44	23.57	3.92	-50.9	-65.7	3.8	1.49e+00	0	32	104	0	72	20875
2026-01-16 21:13:39.45	23.69	3.97	-50.9	-65.8	3.8	1.49e+00	0	33	104	0	72	21132
2026-01-16 21:13:40.46	23.81	4.01	-50.9	-65.7	3.8	1.49e+00	0	33	104	0	72	21007
2026-01-16 21:13:41.46	23.92	4.05	-50.9	-65.8	3.8	1.49e+00	0	33	104	0	72	21144
2026-01-16 21:13:42.47	24.04	4.09	-50.9	-65.8	3.8	1.49e+00	0	33	104	0	72	21128
2026-01-16 21:13:43.48	24.16	4.13	-50.9	-65.8	3.8	1.49e+00	0	33	104	0	72	21103
2026-01-16 21:13:44.49	24.27	4.18	-50.9	-65.7	3.8	1.49e+00	0	32	104	0	72	20908
2026-01-16 21:13:45.50	24.39	4.22	-50.9	-65.8	3.8	1.49e+00	0	33	104	0	72	21089
2026-01-16 21:13:46.51	24.51	4.26	-50.9	-65.8	3.8	1.49e+00	0	33	104	0	72	21133
2026-01-16 21:13:47.52	24.63	4.30	-50.9	-65.8	3.8	1.49e+00	0	33	104	0	72	21209
2026-01-16 21:13:48.53	24.75	4.34	-50.9	-65.8	3.8	1.49e+00	0	33	104	0	72	21088
2026-01-16 21:13:49.54	24.87	4.38	-50.9	-65.5	3.8	1.49e+00	0	33	104	0	72	20486
2026-01-16 21:13:50.54	24.99	4.43	-50.9	-65.5	3.8	1.49e+00	0	33	104	0	72	20406
2026-01-16 21:13:51.55	25.11	4.47	-50.9	-65.5	3.8	1.49e+00	0	33	104	0	72	20366
2026-01-16 21:13:52.56	25.23	4.51	-50.8	-65.2	3.8	1.49e+00	0	33	104	0	72	19776
2026-01-16 21:13:53.57	25.35	4.55	-50.8	-64.9	3.8	1.49e+00	0	33	104	0	72	19071
2026-01-16 21:13:54.58	25.47	4.59	-50.8	-65.1	3.8	1.49e+00	0	33	104	0	72	19603
2026-01-16 21:13:55.58	25.59	4.63	-50.8	-65.2	3.8	1.49e+00	0	33	104	0	72	19745
2026-01-16 21:13:56.59	25.71	4.68	-50.8	-65.1	3.8	1.49e+00	0	33	104	0	72	19390
2026-01-16 21:13:57.60	25.84	4.72	-50.8	-64.5	3.8	1.49e+00	0	33	104	0	72	18171
2026-01-16 21:13:58.61	25.96	4.76	-50.8	-63.9	3.8	1.49e+00	0	33	104	0	72	16924
2026-01-16 21:13:59.62	26.08	4.80	-50.7	-62.3	4.2	1.47e+00	0	33	0	0	72	14124
2026-01-16 21:14:00.62	26.20	4.84	-50.5	-60.6	4.8	9.95e-01	0	33	0	1048576	72	11609
2026-01-16 21:14:01.63	26.33	4.88	-50.4	-59.1	5.7	5.44e-01	0	33	0	2097152	72	9820
2026-01-16 21:14:02.64	26.45	4.92	-50.1	-57.8	6.8	2.79e-01	0	33	0	4194304	72	8376
2026-01-16 21:14:03.65	26.57	4.96	-50.2	-57.9	6.7	1.72e-01	0	33	0	6291456	72	8543
2026-01-16 21:14:04.66	26.70	5.01	-50.3	-59.0	5.8	2.63e-01	0	33	0	8388608	72	9640
2026-01-16 21:14:05.66	26.82	5.05	-50.3	-58.7	6.1	3.54e-01	0	33	0	10485760	72	9318
2026-01-16 21:14:06.67	26.95	5.09	-50.3	-62.0	4.2	6.34e-01	66	33	0	11534336	72	13673
2026-01-16 21:14:07.68	27.07	5.13	-49.4	-55.3	9.1	1.45e+00	21	33	104	11534336	71	6684
2026-01-16 21:14:08.69	27.20	5.17	-48.3	-51.4	14.0	6.65e-04	0	33	0	12582912	68	5058
2026-01-16 21:14:09.70	27.33	5.21	-50.1	-55.8	9.7	7.00e-07	0	33	0	14680064	70	7489
2026-01-16 21:14:10.71	27.45	5.25	-48.6	-51.9	13.4	4.12e-02	0	33	0	15728640	69	5087
2026-01-16 21:14:11.72	27.58	5.29	-48.1	-51.0	14.5	7.00e-07	0	33	0	17825792	68	4865
2026-01-16 21:14:12.72	27.71	5.33	-47.8	-50.5	15.1	0.00e+00	0	33	0	19922944	67	4843
2026-01-16 21:14:13.73	27.83	5.37	-47.8	-50.5	15.1	0.00e+00	0	33	0	22020096	67	4818
2026-01-16 21:14:14.74	27.96	5.41	-47.6	-50.2	15.4	0.00e+00	0	33	0	24117248	67	4681
2026-01-16 21:14:15.75	28.09	5.46	-47.7	-50.3	15.4	0.00e+00	0	33	0	26214400	67	4716
2026-01-16 21:14:16.76	28.22	5.50	-47.9	-50.5	15.1	0.00e+00	0	33	0	27262976	67	4859
2026-01-16 21:14:17.77	28.35	5.54	-47.8	-50.4	15.3	0.00e+00	0	33	0	29360128	67	4771
2026-01-16 21:14:18.78	28.48	5.58	-47.4	-49.7	15.9	0.00e+00	0	33	0	31457280	66	4699
2026-01-16 21:14:19.78	28.61	5.62	-47.6	-50.1	15.5	0.00e+00	0	33	0	33554432	66	4894
2026-01-16 21:14:20.79	28.74	5.66	-47.5	-49.9	15.8	0.00e+00	0	33	0	34603008	66	4777
2026-01-16 21:14:21.80	28.87	5.70	-47.5	-49.9	15.8	0.00e+00	0	33	0	36700160	66	4796
2026-01-16 21:14:22.81	29.00	5.74	-47.3	-49.7	16.0	0.00e+00	0	33	0	38797312	66	4674
2026-01-16 21:14:23.82	29.13	5.78	-47.3	-49.6	16.0	0.00e+00	0	33	0	40894464	66	4648
2026-01-16 21:14:24.82	29.26	5.82	-47.3	-49.7	16.0	0.00e+00	0	33	0	42991616	66	4683
2026-01-16 21:14:25.83	29.39	5.86	-47.2	-49.5	16.2	0.00e+00	0	33	0	44040192	66	4596
2026-01-16 21:14:26.84	29.52	5.90	-47.5	-49.9	15.8	0.00e+00	0	33	0	46137344	66	4809
2026-01-16 21:14:27.85	29.65	5.94	-47.3	-49.6	16.1	0.00e+00	0	33	0	48234496	66	4636
2026-01-16 21:14:28.86	29.79	5.98	-47.5	-50.0	15.8	0.00e+00	0	33	0	50331648	66	4826
2026-01-16 21:14:29.87	29.92	6.02	-47.4	-49.8	16.0	0.00e+00	0	33	0	52428800	66	4710
2026-01-16 21:14:30.88	30.05	6.06	-47.6	-50.1	15.7	0.00e+00	0	33	0	54525952	66	4881
2026-01-16 21:14:31.89	30.19	6.10	-47.6	-50.1	15.7	0.00e+00	0	33	0	55574528	66	4887
2026-01-16 21:14:32.90	30.32	6.14	-47.4	-49.8	15.9	0.00e+00	0	33	0	57671680	66	4730
2026-01-16 21:14:33.90	30.45	6.18	-47.4	-49.7	16.0	0.00e+00	0	33	0	59768832	66	4671
2026-01-16 21:14:34.91	30.59	6.22	-47.4	-49.8	16.0	0.00e+00	0	33	0	61865984	66	4724
2026-01-16 21:14:35.92	30.72	6.25	-47.5	-49.8	15.9	0.00e+00	0	33	0	62914560	66	4755
2026-01-16 21:14:36.93	30.86	6.29	-47.4	-49.8	16.0	0.00e+00	0	33	0	65011712	66	4726
2026-01-16 21:14:37.94	31.00	6.33	-47.5	-49.9	15.8	0.00e+00	0	33	0	67108864	66	4808
2026-01-16 21:14:38.94	31.13	6.37	-47.6	-50.0	15.8	0.00e+00	0	33	0	69206016	66	4847
2026-01-16 21:14:39.95	31.27	6.41	-47.6	-50.0	15.7	0.00e+00	0	33	0	71303168	66	4868
2026-01-16 21:14:40.96	31.40	6.45	-47.7	-50.2	15.5	0.00e+00	0	33	0	73400320	66	4973
2026-01-16 21:14:41.97	31.54	6.49	-47.7	-50.2	15.6	0.00e+00	0	33	0	74448896	66	4946
2026-01-16 21:14:42.98	31.68	6.53	-47.7	-50.3	15.6	0.00e+00	0	33	0	76546048	66	4984
2026-01-16 21:14:43.98	31.82	6.57	-47.7	-50.2	15.6	0.00e+00	0	33	0	78643200	66	4956
2026-01-16 21:14:44.99	31.96	6.61	-47.6	-50.1	15.7	0.00e+00	0	33	0	80740352	66	4871
2026-01-16 21:14:46.00	32.09	6.64	-47.5	-49.9	15.9	0.00e+00	0	33	0	82837504	66	4761
2026-01-16 21:14:47.01	32.23	6.68	-47.5	-49.8	16.0	0.00e+00	0	33	0	83886080	66	4739
2026-01-16 21:14:48.01	32.37	6.72	-47.5	-49.8	16.0	0.00e+00	0	33	0	85983232	66	4757
2026-01-16 21:14:49.02	32.51	6.76	-47.4	-49.7	16.2	0.00e+00	0	33	0	88080384	66	4654
2026-01-16 21:14:50.03	32.65	6.80	-47.4	-49.8	16.1	0.00e+00	0	33	0	90177536	66	4716
2026-01-16 21:14:51.04	32.79	6.84	-47.4	-49.7	16.2	0.00e+00	0	33	0	91226112	66	4676
2026-01-16 21:14:52.05	32.93	6.87	-47.4	-49.7	16.1	0.00e+00	0	33	0	93323264	66	4692
2026-01-16 21:14:53.06	33.07	6.91	-47.6	-50.0	15.8	0.00e+00	0	33	0	95420416	66	4854
2026-01-16 21:14:54.06	33.21	6.95	-47.7	-50.1	15.7	0.00e+00	0	33	0	97517568	66	4889
2026-01-16 21:14:55.07	33.36	6.99	-47.7	-50.2	15.7	0.00e+00	0	33	0	99614720	66	4952
2026-01-16 21:14:56.08	33.50	7.02	-47.8	-50.3	15.6	0.00e+00	0	33	0	101711872	66	4993
2026-01-16 21:14:57.09	33.64	7.06	-47.8	-50.3	15.6	0.00e+00	0	33	0	102760448	66	5004
2026-01-16 21:14:58.10	33.78	7.10	-47.9	-50.4	15.4	0.00e+00	0	33	0	104857600	66	5082
2026-01-16 21:14:59.11	33.93	7.14	-47.9	-50.5	15.4	0.00e+00	0	33	0	106954752	66	5109
2026-01-16 21:15:00.12	34.07	7.18	-47.7	-50.1	15.7	0.00e+00	0	33	0	109051904	66	4917
2026-01-16 21:15:01.12	34.21	7.21	-47.9	-50.4	15.5	0.00e+00	0	33	0	111149056	66	5060
2026-01-16 21:15:02.13	34.36	7.25	-47.7	-50.1	15.7	0.00e+00	0	33	0	112197632	66	4911
2026-01-16 21:15:03.14	34.50	7.29	-47.7	-50.1	15.8	0.00e+00	0	33	0	114294784	66	4895
2026-01-16 21:15:04.15	34.65	7.32	-47.6	-49.9	15.9	0.00e+00	0	33	0	116391936	66	4800
2026-01-16 21:15:05.16	34.79	7.36	-47.4	-49.7	16.2	0.00e+00	0	33	0	118489088	66	4670
2026-01-16 21:15:06.16	34.94	7.40	-47.4	-49.6	16.2	0.00e+00	0	34	0	120586240	66	4648
2026-01-16 21:15:07.17	35.08	7.43	-47.4	-49.7	16.2	0.00e+00	0	33	0	121634816	66	4675
2026-01-16 21:15:08.18	35.23	7.47	-47.4	-49.7	16.2	0.00e+00	0	33	0	123731968	66	4687
2026-01-16 21:15:09.19	35.38	7.51	-47.6	-50.0	15.9	0.00e+00	0	33	0	125829120	66	4826
2026-01-16 21:15:10.20	35.53	7.54	-47.5	-49.8	16.1	0.00e+00	0	33	0	127926272	66	4749
2026-01-16 21:15:11.21	35.67	7.58	-47.6	-50.0	15.9	0.00e+00	0	33	0	130023424	66	4843
2026-01-16 21:15:12.21	35.82	7.62	-47.8	-50.3	15.7	0.00e+00	0	33	0	131072000	66	5004
2026-01-16 21:15:13.22	35.97	7.65	-48.0	-50.7	15.3	0.00e+00	0	33	0	133169152	66	5223
2026-01-16 21:15:14.23	36.12	7.69	-47.7	-50.1	15.8	0.00e+00	0	33	0	135266304	66	4926
2026-01-16 21:15:15.24	36.27	7.72	-47.8	-50.2	15.8	0.00e+00	0	33	0	137363456	66	4965
2026-01-16 21:15:16.25	36.42	7.76	-47.9	-50.4	15.6	0.00e+00	0	34	0	139460608	66	5056
2026-01-16 21:15:17.26	36.57	7.79	-47.8	-50.3	15.8	0.00e+00	0	33	0	140509184	66	4991
2026-01-16 21:15:18.26	36.71	7.83	-47.8	-50.2	15.8	0.00e+00	0	34	0	142606336	66	4961
2026-01-16 21:15:19.27	36.86	7.87	-47.8	-50.2	15.8	0.00e+00	0	33	0	144703488	66	4973
2026-01-16 21:15:20.28	37.02	7.90	-48.1	-50.6	15.3	0.00e+00	0	33	0	146800640	66	5210
2026-01-16 21:15:21.29	37.17	7.94	-47.9	-50.4	15.6	0.00e+00	0	33	0	148897792	66	5095
2026-01-16 21:15:22.30	37.32	7.97	-48.0	-50.6	15.5	0.00e+00	0	34	0	149946368	66	5164
2026-01-16 21:15:23.31	37.47	8.01	-48.0	-50.5	15.5	0.00e+00	0	33	0	152043520	66	5142
2026-01-16 21:15:24.32	37.62	8.04	-48.0	-50.6	15.5	0.00e+00	0	33	0	154140672	66	5178
2026-01-16 21:15:25.32	37.77	8.07	-47.9	-50.4	15.6	0.00e+00	0	34	0	156237824	66	5075
2026-01-16 21:15:26.33	37.93	8.11	-47.9	-50.3	15.7	0.00e+00	0	33	0	158334976	66	5033
2026-01-16 21:15:27.34	38.08	8.14	-48.0	-50.5	15.5	0.00e+00	0	33	0	159383552	66	5151
2026-01-16 21:15:28.35	38.23	8.18	-47.9	-50.4	15.6	0.00e+00	0	33	0	161480704	66	5062
2026-01-16 21:15:29.36	38.39	8.21	-47.8	-50.3	15.8	0.00e+00	0	33	0	163577856	66	4984
2026-01-16 21:15:30.36	38.54	8.25	-47.8	-50.2	15.8	0.00e+00	0	33	0	165675008	66	4947
2026-01-16 21:15:31.37	38.69	8.28	-47.7	-50.1	15.9	0.00e+00	0	33	0	167772160	66	4888
2026-01-16 21:15:32.38	38.85	8.31	-47.5	-49.8	16.2	0.00e+00	0	33	0	168820736	66	4736
2026-01-16 21:15:33.39	39.01	8.35	-47.5	-49.8	16.3	0.00e+00	0	34	0	170917888	66	4717
2026-01-16 21:15:34.40	39.16	8.38	-47.6	-50.0	16.1	0.00e+00	0	33	0	173015040	66	4831
2026-01-16 21:15:35.40	39.32	8.41	-47.6	-50.0	16.0	0.00e+00	0	34	0	175112192	66	4818
2026-01-16 21:15:36.41	39.47	8.45	-47.8	-50.2	15.9	0.00e+00	0	33	0	177209344	66	4928
2026-01-16 21:15:37.42	39.63	8.48	-47.6	-49.9	16.1	0.00e+00	0	33	0	178257920	66	4797
2026-01-16 21:15:38.43	39.79	8.51	-47.7	-50.0	16.1	0.00e+00	0	34	0	180355072	66	4829
2026-01-16 21:15:39.44	39.94	8.55	-47.6	-49.9	16.2	0.00e+00	0	34	0	182452224	66	4784
2026-01-16 21:15:40.45	40.10	8.58	-47.6	-49.9	16.2	0.00e+00	0	33	0	184549376	66	4782
2026-01-16 21:15:41.46	40.26	8.61	-47.9	-50.3	15.7	0.00e+00	0	34	0	186646528	66	5025
2026-01-16 21:15:42.46	40.42	8.64	-47.8	-50.1	15.9	0.00e+00	0	33	0	188743680	66	4920
2026-01-16 21:15:43.47	40.57	8.68	-47.8	-50.2	15.9	0.00e+00	0	34	0	189792256	66	4928
2026-01-16 21:15:44.48	40.73	8.71	-47.9	-50.4	15.7	0.00e+00	0	34	0	191889408	66	5075
2026-01-16 21:15:45.49	40.89	8.74	-47.9	-50.3	15.7	0.00e+00	0	34	0	193986560	66	5035
2026-01-16 21:15:46.50	41.05	8.77	-47.9	-50.3	15.8	0.00e+00	0	34	0	196083712	66	5020
2026-01-16 21:15:47.50	41.21	8.80	-47.8	-50.2	15.9	0.00e+00	0	34	0	197132288	66	4941
2026-01-16 21:15:48.51	41.37	8.83	-47.6	-49.8	16.2	0.00e+00	0	33	0	199229440	66	4752
2026-01-16 21:15:49.52	41.53	8.87	-47.4	-49.6	16.5	0.00e+00	0	34	0	201326592	66	4603
2026-01-16 21:15:50.53	41.69	8.90	-47.3	-49.5	16.6	0.00e+00	0	34	0	203423744	66	4552
2026-01-16 21:15:51.54	41.86	8.93	-47.3	-49.4	16.7	0.00e+00	0	34	0	205520896	66	4520
2026-01-16 21:15:52.54	42.02	8.96	-47.2	-49.3	16.7	0.00e+00	0	34	0	206569472	66	4490
2026-01-16 21:15:53.55	42.18	8.99	-47.4	-49.6	16.4	0.00e+00	0	33	0	208666624	66	4643
2026-01-16 21:15:54.56	42.34	9.02	-47.5	-49.7	16.4	0.00e+00	0	34	0	210763776	66	4675
2026-01-16 21:15:55.57	42.50	9.05	-47.7	-50.0	16.1	0.00e+00	0	34	0	212860928	66	4855
2026-01-16 21:15:56.58	42.67	9.08	-47.8	-50.2	15.9	0.00e+00	0	34	0	214958080	66	4949
2026-01-16 21:15:57.58	42.83	9.11	-47.7	-50.1	16.0	0.00e+00	0	34	0	217055232	66	4880
2026-01-16 21:15:58.59	42.99	9.14	-47.9	-50.4	15.7	0.00e+00	0	34	0	218103808	66	5050
2026-01-16 21:15:59.60	43.16	9.17	-48.0	-50.4	15.7	0.00e+00	0	34	0	220200960	66	5086
2026-01-16 21:16:00.61	43.32	9.20	-48.0	-50.5	15.6	0.00e+00	0	34	0	222298112	66	5147
2026-01-16 21:16:01.62	43.49	9.23	-48.0	-50.5	15.7	0.00e+00	0	34	0	224395264	66	5107
2026-01-16 21:16:02.62	43.65	9.26	-47.9	-50.3	15.8	0.00e+00	0	34	0	225443840	66	4998
2026-01-16 21:16:03.63	43.81	9.29	-47.7	-50.1	16.0	0.00e+00	0	33	0	227540992	66	4897
2026-01-16 21:16:04.64	43.98	9.32	-47.9	-50.3	15.7	0.00e+00	0	34	0	229638144	66	5039
2026-01-16 21:16:05.65	44.15	9.35	-48.1	-50.6	15.5	0.00e+00	0	34	0	231735296	66	5203
2026-01-16 21:16:06.66	44.31	9.37	-47.8	-50.1	15.9	0.00e+00	0	34	0	233832448	66	4920
2026-01-16 21:16:07.67	44.48	9.40	-47.7	-50.1	16.0	0.00e+00	0	34	0	235929600	66	4883
2026-01-16 21:16:08.68	44.65	9.43	-47.8	-50.2	15.9	0.00e+00	0	34	0	236978176	66	4948
2026-01-16 21:16:09.69	44.81	9.46	-47.5	-49.8	16.3	0.00e+00	0	34	0	239075328	66	4722
2026-01-16 21:16:10.69	44.98	9.49	-47.6	-50.0	16.1	0.00e+00	0	34	0	241172480	66	4821
2026-01-16 21:16:11.70	45.15	9.51	-47.6	-49.8	16.2	0.00e+00	0	34	0	243269632	66	4754
2026-01-16 21:16:12.71	45.32	9.54	-47.4	-49.6	16.4	0.00e+00	0	34	0	245366784	66	4645
2026-01-16 21:16:13.72	45.49	9.57	-47.4	-49.6	16.6	0.00e+00	0	34	0	246415360	66	4599
2026-01-16 21:16:14.73	45.65	9.60	-47.4	-49.6	16.4	0.00e+00	0	34	0	248512512	66	4629
2026-01-16 21:16:15.74	45.82	9.62	-47.3	-49.5	16.6	0.00e+00	0	34	0	250609664	66	4562
2026-01-16 21:16:16.75	45.99	9.65	-47.6	-49.8	16.3	0.00e+00	0	34	0	252706816	66	4742
2026-01-16 21:16:17.75	46.16	9.68	-47.7	-50.0	16.1	0.00e+00	0	34	0	254803968	66	4860
2026-01-16 21:16:18.76	46.33	9.70	-47.9	-50.3	15.7	0.00e+00	0	34	0	255852544	66	5040
2026-01-16 21:16:19.77	46.50	9.73	-48.2	-50.8	15.3	0.00e+00	0	34	0	257949696	66	5302
2026-01-16 21:16:20.78	46.67	9.75	-48.3	-51.0	15.1	0.00e+00	0	34	0	260046848	67	5153
2026-01-16 21:16:21.79	46.84	9.78	-48.6	-51.4	14.7	0.00e+00	0	34	0	262144000	67	5392
2026-01-16 21:16:22.80	47.01	9.81	-48.6	-51.4	14.7	0.00e+00	0	34	0	264241152	67	5376
2026-01-16 21:16:23.81	47.19	9.83	-48.5	-51.2	14.9	7.00e-07	0	34	0	265289728	67	5259
2026-01-16 21:16:24.82	47.36	9.86	-48.4	-51.2	14.9	0.00e+00	0	34	0	267386880	67	5237
2026-01-16 21:16:25.82	47.53	9.88	-48.2	-50.8	15.2	0.00e+00	0	34	0	269484032	67	5041
2026-01-16 21:16:26.83	47.70	9.91	-47.9	-50.3	15.8	0.00e+00	0	34	0	271581184	67	4755
2026-01-16 21:16:27.84	47.87	9.93	-47.9	-50.3	15.8	0.00e+00	0	34	0	273678336	67	4719
2026-01-16 21:16:28.85	48.05	9.95	-47.7	-50.1	16.1	0.00e+00	0	34	0	274726912	67	4602
2026-01-16 21:16:29.85	48.22	9.98	-47.8	-50.1	16.0	0.00e+00	0	34	0	276824064	67	4647
2026-01-16 21:16:30.86	48.39	10.00	-47.9	-50.2	15.9	0.00e+00	0	34	0	278921216	67	4697
2026-01-16 21:16:31.86	48.56	10.03	-47.9	-50.4	15.7	0.00e+00	0	34	0	281018368	67	4772
2026-01-16 21:16:32.87	48.74	10.05	-47.8	-50.2	15.9	0.00e+00	0	34	0	283115520	67	4699
2026-01-16 21:16:33.88	48.91	10.07	-47.9	-50.4	15.8	0.00e+00	0	34	0	284164096	67	4787
2026-01-16 21:16:34.89	49.09	10.10	-47.7	-50.0	16.1	0.00e+00	0	34	0	286261248	67	4584
2026-01-16 21:16:35.90	49.26	10.12	-47.7	-50.0	16.1	0.00e+00	0	34	0	288358400	67	4586
2026-01-16 21:16:36.91	49.44	10.14	-47.4	-49.5	16.5	0.00e+00	0	34	0	290455552	66	4585
2026-01-16 21:16:37.92	49.61	10.16	-47.4	-49.6	16.5	0.00e+00	0	34	0	292552704	66	4638
2026-01-16 21:16:38.93	49.79	10.19	-47.1	-49.1	17.0	0.00e+00	0	34	0	293601280	66	4381
2026-01-16 21:16:39.94	49.96	10.21	-47.0	-49.0	17.1	0.00e+00	0	34	0	295698432	65	4574
2026-01-16 21:16:40.95	50.14	10.23	-47.1	-49.2	16.9	0.00e+00	0	34	0	297795584	65	4654
2026-01-16 21:16:41.95	50.31	10.25	-47.3	-49.5	16.6	0.00e+00	0	34	0	299892736	65	4832
2026-01-16 21:16:42.96	50.49	10.27	-47.5	-49.8	16.3	0.00e+00	0	34	0	301989888	65	5011
2026-01-16 21:16:43.97	50.67	10.30	-47.7	-50.0	16.1	0.00e+00	0	34	0	304087040	66	4865
2026-01-16 21:16:44.98	50.85	10.32	-47.9	-50.3	15.8	0.00e+00	0	34	0	305135616	66	5041
2026-01-16 21:16:45.98	51.02	10.34	-47.9	-50.3	15.9	0.00e+00	0	34	0	307232768	66	4995
2026-01-16 21:16:46.99	51.20	10.36	-47.6	-49.9	16.2	0.00e+00	0	34	0	309329920	66	4783
2026-01-16 21:16:48.00	51.38	10.38	-47.4	-49.6	16.6	0.00e+00	0	34	0	311427072	66	4624
2026-01-16 21:16:49.01	51.55	10.40	-47.3	-49.4	16.8	0.00e+00	0	34	0	312475648	66	4511
2026-01-16 21:16:50.02	51.73	10.42	-47.3	-49.4	16.7	0.00e+00	0	34	0	314572800	66	4522
2026-01-16 21:16:51.02	51.91	10.44	-47.4	-49.5	16.7	0.00e+00	0	34	0	316669952	66	4576
2026-01-16 21:16:52.03	52.09	10.46	-47.7	-50.0	16.1	0.00e+00	0	34	0	318767104	66	4865
2026-01-16 21:16:53.04	52.27	10.48	-47.8	-50.2	16.0	0.00e+00	0	34	0	320864256	66	4969
2026-01-16 21:16:54.05	52.45	10.50	-48.3	-50.9	15.3	0.00e+00	0	34	0	321912832	67	5084
2026-01-16 21:16:55.06	52.63	10.51	-48.2	-50.9	15.3	7.00e-07	0	34	0	324009984	67	5043
2026-01-16 21:16:56.07	52.81	10.53	-48.2	-50.8	15.4	0.00e+00	0	34	0	326107136	67	5005
2026-01-16 21:16:57.08	52.99	10.55	-47.8	-50.1	16.0	0.00e+00	0	34	0	328204288	67	4630
2026-01-16 21:16:58.09	53.17	10.57	-47.6	-49.8	16.4	0.00e+00	0	34	0	330301440	67	4463
2026-01-16 21:16:59.10	53.35	10.59	-47.4	-49.5	16.7	0.00e+00	0	34	0	332398592	66	4555
2026-01-16 21:17:00.10	53.53	10.60	-47.3	-49.4	16.8	0.00e+00	0	34	0	333447168	66	4522
2026-01-16 21:17:01.11	53.71	10.62	-47.3	-49.4	16.9	0.00e+00	0	34	0	335544320	66	4511
2026-01-16 21:17:02.12	53.89	10.64	-47.3	-49.3	16.8	0.00e+00	0	34	0	337641472	66	4492
2026-01-16 21:17:03.13	54.07	10.66	-47.5	-49.7	16.4	0.00e+00	0	34	0	339738624	66	4691
2026-01-16 21:17:04.14	54.25	10.67	-47.8	-50.1	16.1	0.00e+00	0	34	0	340787200	66	4890
2026-01-16 21:17:05.15	54.43	10.69	-47.9	-50.2	16.0	0.00e+00	0	34	0	342884352	66	4972
2026-01-16 21:17:06.16	54.61	10.70	-47.9	-50.3	15.9	0.00e+00	0	34	0	344981504	66	4986
2026-01-16 21:17:07.16	54.80	10.72	-47.8	-50.1	16.0	0.00e+00	0	34	0	347078656	66	4920
2026-01-16 21:17:08.17	54.98	10.74	-47.8	-50.2	16.0	0.00e+00	0	34	0	349175808	66	4957
2026-01-16 21:17:09.18	55.16	10.75	-47.9	-50.3	15.9	0.00e+00	0	34	0	351272960	66	5017
2026-01-16 21:17:10.19	55.34	10.77	-48.2	-50.8	15.5	0.00e+00	0	34	0	352321536	66	5283
2026-01-16 21:17:11.20	55.53	10.78	-48.4	-51.1	15.1	0.00e+00	0	34	0	354418688	67	5170
2026-01-16 21:17:12.21	55.71	10.80	-48.7	-51.6	14.6	0.00e+00	0	34	0	356515840	67	5489
2026-01-16 21:17:13.21	55.89	10.81	-49.1	-52.2	14.1	7.00e-07	0	34	0	358612992	68	5574
2026-01-16 21:17:14.22	56.07	10.82	-49.3	-52.5	13.8	1.50e-06	0	34	0	360710144	69	5459
2026-01-16 21:17:15.23	56.26	10.84	-49.3	-52.7	13.6	9.10e-06	0	34	0	361758720	69	5543
2026-01-16 21:17:16.24	56.44	10.85	-49.4	-52.8	13.5	8.30e-06	0	34	0	363855872	69	5627
2026-01-16 21:17:17.25	56.62	10.87	-49.4	-52.7	13.6	9.90e-06	0	34	0	365953024	69	5578
2026-01-16 21:17:18.25	56.81	10.88	-48.9	-51.8	14.5	1.50e-06	0	34	0	368050176	69	5027
2026-01-16 21:17:19.26	56.99	10.89	-48.7	-51.5	14.8	7.00e-07	0	34	0	370147328	69	4829
2026-01-16 21:17:20.27	57.18	10.90	-48.5	-51.1	15.2	0.00e+00	0	34	0	371195904	68	4924
2026-01-16 21:17:21.28	57.36	10.92	-48.4	-51.0	15.3	0.00e+00	0	34	0	373293056	68	4861
2026-01-16 21:17:22.29	57.54	10.93	-48.5	-51.1	15.3	0.00e+00	0	34	0	375390208	68	4905
2026-01-16 21:17:23.29	57.73	10.94	-48.4	-51.0	15.3	0.00e+00	0	34	0	377487360	68	4832
2026-01-16 21:17:24.30	57.91	10.95	-48.4	-51.0	15.3	0.00e+00	0	34	0	379584512	68	4861
2026-01-16 21:17:25.31	58.10	10.96	-48.4	-51.0	15.4	0.00e+00	0	34	0	380633088	68	4833
2026-01-16 21:17:26.32	58.28	10.97	-48.4	-51.0	15.4	0.00e+00	0	34	0	382730240	68	4834
2026-01-16 21:17:27.33	58.47	10.99	-48.3	-50.9	15.5	0.00e+00	0	34	0	384827392	68	4764
2026-01-16 21:17:28.34	58.65	11.00	-48.2	-50.7	15.7	0.00e+00	0	34	0	386924544	68	4655
2026-01-16 21:17:29.34	58.84	11.01	-48.0	-50.4	15.9	0.00e+00	0	34	0	389021696	68	4532
2026-01-16 21:17:30.35	59.02	11.02	-47.7	-50.0	16.2	0.00e+00	0	34	0	390070272	67	4589
2026-01-16 21:17:31.36	59.21	11.03	-47.8	-50.1	16.1	0.00e+00	0	34	0	392167424	67	4620
2026-01-16 21:17:32.37	59.40	11.04	-47.7	-50.0	16.3	0.00e+00	0	34	0	394264576	67	4558
2026-01-16 21:17:33.38	59.58	11.05	-47.8	-50.2	16.1	0.00e+00	0	34	0	396361728	67	4654
2026-01-16 21:17:34.39	59.77	11.05	-47.7	-50.0	16.2	0.00e+00	0	34	0	398458880	67	4557
2026-01-16 21:17:35.39	59.95	11.06	-47.6	-49.8	16.4	0.00e+00	0	34	0	399507456	67	4492
2026-01-16 21:17:36.40	60.14	11.07	-47.6	-49.8	16.4	0.00e+00	0	34	0	401604608	67	4474
2026-01-16 21:17:37.41	60.33	11.08	-47.4	-49.6	16.6	0.00e+00	0	34	0	403701760	66	4635
2026-01-16 21:17:38.42	60.51	11.09	-47.3	-49.5	16.8	0.00e+00	0	34	0	405798912	66	4560
2026-01-16 21:17:39.43	60.70	11.10	-47.2	-49.3	16.9	0.00e+00	0	34	0	407896064	66	4476
2026-01-16 21:17:40.44	60.89	11.10	-47.2	-49.2	16.9	0.00e+00	0	34	0	408944640	66	4441
2026-01-16 21:17:41.44	61.07	11.11	-47.2	-49.3	16.9	0.00e+00	0	34	0	411041792	66	4468
2026-01-16 21:17:42.45	61.26	11.12	-47.3	-49.4	16.8	0.00e+00	0	34	0	413138944	66	4515
2026-01-16 21:17:43.46	61.45	11.12	-47.3	-49.3	16.9	0.00e+00	0	34	0	415236096	66	4479
2026-01-16 21:17:44.47	61.63	11.13	-47.4	-49.5	16.7	0.00e+00	0	34	0	417333248	66	4588
2026-01-16 21:17:45.48	61.82	11.14	-47.4	-49.5	16.8	0.00e+00	0	34	0	418381824	66	4557
2026-01-16 21:17:46.49	62.01	11.14	-47.3	-49.4	16.8	0.00e+00	0	34	0	420478976	66	4539
2026-01-16 21:17:47.50	62.19	11.15	-47.3	-49.4	16.8	0.00e+00	0	34	0	422576128	66	4506
2026-01-16 21:17:48.51	62.38	11.15	-47.3	-49.3	16.8	0.00e+00	0	34	0	424673280	66	4482
2026-01-16 21:17:49.51	62.57	11.16	-47.2	-49.2	17.1	0.00e+00	0	34	0	426770432	66	4409
2026-01-16 21:17:50.52	62.76	11.16	-47.1	-49.1	17.2	0.00e+00	0	34	0	427819008	66	4345
2026-01-16 21:17:51.53	62.94	11.17	-47.2	-49.3	17.0	0.00e+00	0	34	0	429916160	66	4445
2026-01-16 21:17:52.54	63.13	11.17	-47.2	-49.2	17.0	0.00e+00	0	34	0	432013312	66	4426
2026-01-16 21:17:53.55	63.32	11.17	-47.1	-49.2	17.1	0.00e+00	0	34	0	434110464	66	4401
2026-01-16 21:17:54.55	63.51	11.18	-47.2	-49.3	16.9	0.00e+00	0	34	0	436207616	66	4471
2026-01-16 21:17:55.56	63.69	11.18	-47.3	-49.3	16.9	0.00e+00	0	34	0	438304768	66	4480
2026-01-16 21:17:56.57	63.88	11.18	-47.3	-49.4	16.8	0.00e+00	0	34	0	439353344	66	4545
2026-01-16 21:17:57.57	64.07	11.19	-46.9	-48.9	17.3	0.00e+00	0	34	0	441450496	65	4514
2026-01-16 21:17:58.58	64.26	11.19	-46.9	-48.8	17.3	0.00e+00	0	34	0	443547648	65	4482
2026-01-16 21:17:59.59	64.44	11.19	-46.7	-48.5	17.6	0.00e+00	0	34	0	445644800	65	4333
2026-01-16 21:18:00.60	64.63	11.19	-46.6	-48.4	17.7	0.00e+00	0	34	0	446693376	65	4283
2026-01-16 21:18:01.61	64.82	11.20	-46.6	-48.4	17.8	0.00e+00	0	34	0	448790528	65	4274
2026-01-16 21:18:02.61	65.01	11.20	-46.7	-48.6	17.6	0.00e+00	0	34	0	450887680	65	4350
2026-01-16 21:18:03.62	65.19	11.20	-46.7	-48.6	17.6	0.00e+00	0	34	0	452984832	65	4351
2026-01-16 21:18:04.63	65.38	11.20	-46.8	-48.7	17.5	0.00e+00	0	34	0	455081984	65	4415
2026-01-16 21:18:05.64	65.57	11.20	-46.7	-48.6	17.6	0.00e+00	0	34	0	456130560	65	4357
2026-01-16 21:18:06.65	65.76	11.20	-46.4	-48.2	17.9	0.00e+00	0	34	0	458227712	64	4435
2026-01-16 21:18:07.66	65.95	11.20	-46.4	-48.2	18.0	0.00e+00	0	34	0	460324864	64	4407
2026-01-16 21:18:08.66	66.13	11.20	-46.3	-48.0	18.1	0.00e+00	0	34	0	462422016	64	4327
2026-01-16 21:18:09.67	66.32	11.20	-46.4	-48.2	17.9	0.00e+00	0	34	0	464519168	64	4439
2026-01-16 21:18:10.68	66.51	11.20	-46.4	-48.2	18.0	0.00e+00	0	34	0	466616320	64	4417
2026-01-16 21:18:11.69	66.70	11.20	-46.6	-48.5	17.7	0.00e+00	0	34	0	467664896	64	4580
2026-01-16 21:18:12.70	66.89	11.20	-46.9	-48.8	17.4	0.00e+00	0	34	0	469762048	64	4739
2026-01-16 21:18:13.70	67.07	11.20	-47.0	-49.0	17.2	0.00e+00	0	34	0	471859200	64	4864
2026-01-16 21:18:14.71	67.26	11.19	-47.0	-49.1	17.1	0.00e+00	0	34	0	473956352	64	4874
2026-01-16 21:18:15.72	67.45	11.19	-46.9	-48.8	17.4	0.00e+00	0	34	0	475004928	64	4732
2026-01-16 21:18:16.73	67.64	11.19	-47.0	-49.0	17.2	0.00e+00	0	34	0	477102080	64	4828
2026-01-16 21:18:17.74	67.83	11.19	-46.6	-48.4	17.7	0.00e+00	0	34	0	479199232	64	4521
2026-01-16 21:18:18.74	68.01	11.18	-46.5	-48.3	17.8	0.00e+00	0	34	0	481296384	64	4485
2026-01-16 21:18:19.75	68.20	11.18	-46.4	-48.2	18.0	0.00e+00	0	34	0	483393536	64	4402
2026-01-16 21:18:20.77	68.39	11.18	-46.4	-48.1	18.0	0.00e+00	0	34	0	485490688	64	4381
2026-01-16 21:18:21.77	68.58	11.17	-46.5	-48.3	17.9	0.00e+00	0	34	0	486539264	64	4445
2026-01-16 21:18:22.78	68.76	11.17	-46.4	-48.2	18.0	0.00e+00	0	34	0	488636416	64	4401
2026-01-16 21:18:23.79	68.95	11.17	-46.6	-48.5	17.7	0.00e+00	0	34	0	490733568	64	4558
2026-01-16 21:18:24.80	69.14	11.16	-46.6	-48.5	17.7	0.00e+00	0	33	0	492830720	64	4551
2026-01-16 21:18:25.81	69.33	11.16	-46.7	-48.6	17.5	0.00e+00	0	34	0	494927872	64	4646
2026-01-16 21:18:26.81	69.51	11.15	-46.5	-48.3	17.8	0.00e+00	0	34	0	495976448	64	4479
2026-01-16 21:18:27.82	69.70	11.15	-46.5	-48.3	17.9	0.00e+00	0	34	0	498073600	64	4457
2026-01-16 21:18:28.83	69.89	11.14	-46.2	-47.9	18.2	0.00e+00	0	34	0	500170752	64	4282
2026-01-16 21:18:29.84	70.08	11.13	-46.3	-48.0	18.1	0.00e+00	0	34	0	502267904	64	4312
2026-01-16 21:18:30.85	70.26	11.13	-46.2	-47.8	18.3	0.00e+00	0	34	0	503316480	64	4241
2026-01-16 21:18:31.85	70.45	11.12	-46.1	-47.8	18.4	0.00e+00	0	34	0	505413632	64	4201
2026-01-16 21:18:32.86	70.64	11.12	-46.2	-47.9	18.2	0.00e+00	0	34	0	507510784	64	4287
2026-01-16 21:18:33.87	70.82	11.11	-46.3	-48.0	18.1	0.00e+00	0	34	0	509607936	64	4335
2026-01-16 21:18:34.88	71.01	11.10	-46.4	-48.2	18.0	0.00e+00	0	34	0	511705088	64	4429
2026-01-16 21:18:35.89	71.20	11.09	-46.4	-48.2	18.0	0.00e+00	0	34	0	513802240	64	4406
2026-01-16 21:18:36.90	71.38	11.09	-46.3	-48.1	18.1	0.00e+00	0	34	0	514850816	64	4353
2026-01-16 21:18:37.91	71.57	11.08	-46.1	-47.8	18.3	0.00e+00	0	34	0	516947968	64	4232
2026-01-16 21:18:38.92	71.76	11.07	-46.1	-47.7	18.5	0.00e+00	0	34	0	519045120	63	4416
2026-01-16 21:18:39.92	71.94	11.06	-45.8	-47.4	18.8	0.00e+00	0	34	0	521142272	63	4280
2026-01-16 21:18:40.93	72.13	11.05	-45.8	-47.4	18.8	0.00e+00	0	34	0	523239424	63	4259
2026-01-16 21:18:41.94	72.32	11.04	-45.8	-47.4	18.8	0.00e+00	0	34	0	524288000	63	4264
2026-01-16 21:18:42.95	72.50	11.03	-46.0	-47.7	18.5	0.00e+00	0	34	0	526385152	63	4393
2026-01-16 21:18:43.96	72.69	11.02	-46.1	-47.7	18.5	0.00e+00	0	34	0	528482304	63	4439
2026-01-16 21:18:44.96	72.87	11.01	-46.2	-48.0	18.3	0.00e+00	0	34	0	530579456	63	4551
2026-01-16 21:18:45.97	73.06	11.00	-46.2	-47.9	18.3	0.00e+00	0	34	0	532676608	63	4506
2026-01-16 21:18:46.98	73.24	10.99	-46.4	-48.1	18.2	0.00e+00	0	34	0	533725184	63	4623
2026-01-16 21:18:47.99	73.43	10.98	-46.3	-48.0	18.2	0.00e+00	0	34	0	535822336	63	4574
2026-01-16 21:18:49.00	73.61	10.97	-46.3	-48.0	18.3	0.00e+00	0	34	0	537919488	63	4554
2026-01-16 21:18:50.00	73.80	10.96	-46.3	-47.9	18.3	0.00e+00	0	34	0	540016640	63	4540
2026-01-16 21:18:51.01	73.98	10.95	-46.2	-47.9	18.3	0.00e+00	0	34	0	542113792	63	4535
2026-01-16 21:18:52.02	74.17	10.94	-46.1	-47.7	18.5	0.00e+00	0	34	0	543162368	63	4431
2026-01-16 21:18:53.03	74.35	10.93	-46.2	-47.9	18.3	0.00e+00	0	34	0	545259520	63	4510
2026-01-16 21:18:54.04	74.54	10.91	-46.1	-47.8	18.4	0.00e+00	0	34	0	547356672	63	4463
2026-01-16 21:18:55.04	74.72	10.90	-46.1	-47.8	18.4	0.00e+00	0	34	0	549453824	63	4452
2026-01-16 21:18:56.05	74.91	10.89	-46.2	-48.0	18.3	0.00e+00	0	34	0	551550976	63	4546
2026-01-16 21:18:57.06	75.09	10.88	-46.1	-47.8	18.4	0.00e+00	0	34	0	553648128	63	4460
2026-01-16 21:18:58.07	75.28	10.86	-46.2	-47.9	18.4	0.00e+00	0	34	0	554696704	63	4495
2026-01-16 21:18:59.08	75.46	10.85	-46.4	-48.2	18.1	0.00e+00	0	34	0	556793856	63	4665
2026-01-16 21:19:00.09	75.64	10.84	-46.4	-48.2	18.1	0.00e+00	0	34	0	558891008	63	4661
2026-01-16 21:19:01.10	75.83	10.82	-46.4	-48.2	18.1	0.00e+00	0	33	0	560988160	63	4661
2026-01-16 21:19:02.11	76.01	10.81	-46.4	-48.2	18.0	0.00e+00	0	34	0	562036736	63	4678
2026-01-16 21:19:03.12	76.19	10.79	-46.4	-48.2	18.0	0.00e+00	0	34	0	564133888	63	4671
2026-01-16 21:19:04.12	76.38	10.78	-46.4	-48.2	18.0	0.00e+00	0	34	0	566231040	63	4683
2026-01-16 21:19:05.13	76.56	10.76	-46.4	-48.2	18.0	0.00e+00	0	34	0	568328192	63	4672
2026-01-16 21:19:06.14	76.74	10.75	-46.6	-48.4	17.9	0.00e+00	0	34	0	570425344	63	4764
2026-01-16 21:19:07.15	76.92	10.73	-46.6	-48.4	17.8	0.00e+00	0	34	0	571473920	63	4773
2026-01-16 21:19:08.16	77.11	10.72	-46.7	-48.6	17.6	0.00e+00	0	34	0	573571072	64	4604
2026-01-16 21:19:09.16	77.29	10.70	-46.8	-48.7	17.5	0.00e+00	0	34	0	575668224	64	4664
2026-01-16 21:19:10.17	77.47	10.68	-46.9	-48.8	17.3	0.00e+00	0	34	0	577765376	64	4759
2026-01-16 21:19:11.18	77.65	10.67	-46.6	-48.5	17.6	0.00e+00	0	34	0	579862528	64	4584
2026-01-16 21:19:12.19	77.83	10.65	-46.5	-48.3	17.8	0.00e+00	0	34	0	581959680	64	4483
2026-01-16 21:19:13.20	78.01	10.63	-46.4	-48.2	18.0	0.00e+00	0	34	0	583008256	64	4402
2026-01-16 21:19:14.20	78.19	10.62	-46.3	-48.1	18.1	0.00e+00	0	33	0	585105408	64	4343
2026-01-16 21:19:15.21	78.38	10.60	-46.0	-47.7	18.4	0.00e+00	0	34	0	587202560	64	4152
2026-01-16 21:19:16.22	78.56	10.58	-45.9	-47.5	18.6	0.00e+00	0	34	0	589299712	63	4324
2026-01-16 21:19:17.23	78.74	10.56	-45.8	-47.4	18.8	0.00e+00	0	34	0	590348288	63	4269
2026-01-16 21:19:18.24	78.92	10.55	-45.8	-47.4	18.8	0.00e+00	0	33	0	592445440	63	4276
2026-01-16 21:19:19.24	79.10	10.53	-45.8	-47.4	18.8	0.00e+00	0	34	0	594542592	63	4275
2026-01-16 21:19:20.25	79.28	10.51	-45.7	-47.3	18.9	0.00e+00	0	34	0	596639744	63	4220
2026-01-16 21:19:21.26	79.46	10.49	-45.5	-47.0	19.1	0.00e+00	0	33	0	598736896	63	4097
2026-01-16 21:19:22.27	79.64	10.47	-45.4	-46.8	19.2	0.00e+00	0	34	0	600834048	62	4237
2026-01-16 21:19:23.28	79.82	10.45	-45.3	-46.7	19.4	0.00e+00	0	34	0	601882624	62	4184
2026-01-16 21:19:24.29	79.99	10.43	-45.2	-46.7	19.5	0.00e+00	0	33	0	603979776	62	4146
2026-01-16 21:19:25.30	80.17	10.41	-45.3	-46.7	19.4	0.00e+00	0	34	0	606076928	62	4169
2026-01-16 21:19:26.31	80.35	10.39	-45.2	-46.6	19.5	0.00e+00	0	34	0	608174080	62	4117
2026-01-16 21:19:27.32	80.53	10.37	-45.3	-46.8	19.3	0.00e+00	0	34	0	610271232	62	4221
2026-01-16 21:19:28.32	80.71	10.35	-45.4	-46.9	19.2	0.00e+00	0	34	0	611319808	62	4274
2026-01-16 21:19:29.33	80.89	10.33	-45.6	-47.2	19.0	0.00e+00	0	34	0	613416960	62	4395
2026-01-16 21:19:30.34	81.06	10.31	-45.9	-47.5	18.7	0.00e+00	0	34	0	615514112	62	4554
2026-01-16 21:19:31.35	81.24	10.29	-46.0	-47.6	18.6	0.00e+00	0	33	0	617611264	62	4619
2026-01-16 21:19:32.36	81.42	10.27	-45.9	-47.5	18.7	0.00e+00	0	34	0	619708416	62	4553
2026-01-16 21:19:33.36	81.59	10.25	-45.8	-47.4	18.7	0.00e+00	0	34	0	620756992	62	4539
2026-01-16 21:19:34.37	81.77	10.23	-45.9	-47.6	18.6	0.00e+00	0	34	0	622854144	62	4618
2026-01-16 21:19:35.38	81.95	10.20	-45.9	-47.5	18.6	0.00e+00	0	34	0	624951296	62	4583
2026-01-16 21:19:36.39	82.12	10.18	-46.1	-47.8	18.4	0.00e+00	0	34	0	627048448	62	4726
2026-01-16 21:19:37.40	82.30	10.16	-45.9	-47.5	18.6	0.00e+00	0	34	0	629145600	62	4564
2026-01-16 21:19:38.41	82.47	10.14	-45.7	-47.2	19.0	0.00e+00	0	34	0	630194176	62	4415
2026-01-16 21:19:39.41	82.65	10.11	-45.6	-47.1	19.0	0.00e+00	0	34	0	632291328	62	4365
2026-01-16 21:19:40.42	82.82	10.09	-45.7	-47.3	18.9	0.00e+00	0	34	0	634388480	62	4443
2026-01-16 21:19:41.43	83.00	10.07	-45.8	-47.4	18.7	0.00e+00	0	34	0	636485632	62	4517
2026-01-16 21:19:42.44	83.17	10.04	-45.9	-47.6	18.6	0.00e+00	0	34	0	638582784	62	4612
2026-01-16 21:19:43.45	83.35	10.02	-45.9	-47.5	18.6	0.00e+00	0	34	0	639631360	62	4587
2026-01-16 21:19:44.46	83.52	10.00	-46.0	-47.7	18.4	0.00e+00	0	34	0	641728512	62	4671
2026-01-16 21:19:45.46	83.69	9.97	-46.0	-47.6	18.5	0.00e+00	0	34	0	643825664	62	4644
2026-01-16 21:19:46.47	83.87	9.95	-45.9	-47.5	18.6	0.00e+00	0	34	0	645922816	62	4594
2026-01-16 21:19:47.48	84.04	9.92	-45.7	-47.3	18.8	0.00e+00	0	34	0	648019968	62	4464
2026-01-16 21:19:48.49	84.21	9.90	-45.6	-47.2	18.9	0.00e+00	0	34	0	649068544	62	4421
2026-01-16 21:19:49.50	84.39	9.87	-45.6	-47.2	18.9	0.00e+00	0	34	0	651165696	62	4415
2026-01-16 21:19:50.51	84.56	9.85	-45.6	-47.2	18.9	0.00e+00	0	33	0	653262848	62	4402
2026-01-16 21:19:51.51	84.73	9.82	-45.7	-47.3	18.8	0.00e+00	0	34	0	655360000	62	4469
2026-01-16 21:19:52.52	84.90	9.80	-45.6	-47.2	18.9	0.00e+00	0	34	0	657457152	62	4402
2026-01-16 21:19:53.52	85.07	9.77	-45.7	-47.3	18.8	0.00e+00	0	34	0	658505728	62	4469
2026-01-16 21:19:54.53	85.24	9.75	-45.8	-47.4	18.7	0.00e+00	0	34	0	660602880	62	4537
2026-01-16 21:19:55.54	85.41	9.72	-46.0	-47.6	18.5	0.00e+00	0	34	0	662700032	62	4635
2026-01-16 21:19:56.55	85.58	9.69	-46.0	-47.7	18.5	0.00e+00	0	34	0	664797184	62	4672
2026-01-16 21:19:57.56	85.76	9.67	-46.1	-47.8	18.3	0.00e+00	0	34	0	666894336	62	4721
2026-01-16 21:19:58.56	85.92	9.64	-46.1	-47.8	18.3	0.00e+00	0	34	0	667942912	62	4755
2026-01-16 21:19:59.57	86.09	9.61	-46.0	-47.7	18.5	0.00e+00	0	34	0	670040064	62	4654
2026-01-16 21:20:00.58	86.26	9.59	-46.1	-47.8	18.3	0.00e+00	0	34	0	672137216	62	4740
2026-01-16 21:20:01.59	86.43	9.56	-46.2	-47.9	18.2	0.00e+00	0	34	0	674234368	63	4541
2026-01-16 21:20:02.60	86.60	9.53	-46.1	-47.8	18.3	0.00e+00	0	34	0	676331520	63	4475
2026-01-16 21:20:03.60	86.77	9.50	-46.2	-47.9	18.2	0.00e+00	0	34	0	677380096	63	4543
2026-01-16 21:20:04.61	86.94	9.48	-46.4	-48.2	17.9	0.00e+00	0	34	0	679477248	63	4673
2026-01-16 21:20:05.62	87.10	9.45	-46.7	-48.5	17.6	0.00e+00	0	34	0	681574400	63	4868
2026-01-16 21:20:06.63	87.27	9.42	-46.6	-48.6	17.5	0.00e+00	0	34	0	683671552	64	4606
2026-01-16 21:20:07.64	87.44	9.39	-46.9	-48.9	17.1	0.00e+00	0	34	0	685768704	64	4789
2026-01-16 21:20:08.64	87.60	9.36	-46.8	-48.7	17.3	0.00e+00	0	34	0	686817280	64	4702
2026-01-16 21:20:09.65	87.77	9.33	-46.9	-48.9	17.1	0.00e+00	0	34	0	688914432	64	4812
2026-01-16 21:20:10.66	87.94	9.31	-47.0	-49.1	16.9	0.00e+00	0	34	0	691011584	64	4906
2026-01-16 21:20:11.67	88.10	9.28	-47.2	-49.3	16.7	0.00e+00	0	34	0	693108736	64	5018
2026-01-16 21:20:12.68	88.27	9.25	-47.1	-49.2	16.8	0.00e+00	0	34	0	695205888	65	4694
2026-01-16 21:20:13.68	88.43	9.22	-47.1	-49.2	16.9	0.00e+00	0	34	0	696254464	65	4653
2026-01-16 21:20:14.69	88.60	9.19	-47.1	-49.2	16.8	0.00e+00	0	34	0	698351616	65	4687
2026-01-16 21:20:15.70	88.76	9.16	-47.2	-49.3	16.7	0.00e+00	0	34	0	700448768	65	4736
2026-01-16 21:20:16.71	88.93	9.13	-47.1	-49.2	16.8	0.00e+00	0	34	0	702545920	65	4682
2026-01-16 21:20:17.71	89.09	9.10	-47.1	-49.2	16.8	0.00e+00	0	34	0	704643072	65	4690
2026-01-16 21:20:18.72	89.25	9.07	-47.1	-49.2	16.8	0.00e+00	0	34	0	705691648	65	4659
2026-01-16 21:20:19.73	89.42	9.04	-46.9	-49.0	17.0	0.00e+00	0	34	0	707788800	65	4565
2026-01-16 21:20:20.74	89.58	9.01	-47.1	-49.1	16.9	0.00e+00	0	34	0	709885952	65	4637
2026-01-16 21:20:21.75	89.74	8.98	-47.0	-49.1	16.8	0.00e+00	0	34	0	711983104	65	4641
2026-01-16 21:20:22.76	89.91	8.95	-47.1	-49.2	16.8	0.00e+00	0	34	0	714080256	65	4703
2026-01-16 21:20:23.76	90.07	8.91	-47.1	-49.2	16.7	0.00e+00	0	34	0	716177408	65	4705
2026-01-16 21:20:24.77	90.23	8.88	-47.1	-49.3	16.7	0.00e+00	0	34	0	717225984	65	4711
2026-01-16 21:20:25.78	90.39	8.85	-47.3	-49.5	16.5	0.00e+00	0	34	0	719323136	65	4861
2026-01-16 21:20:26.79	90.55	8.82	-47.4	-49.6	16.4	0.00e+00	0	34	0	721420288	65	4881
2026-01-16 21:20:27.80	90.71	8.79	-47.5	-49.8	16.3	0.00e+00	0	34	0	723517440	65	4986
2026-01-16 21:20:28.80	90.87	8.76	-47.6	-49.9	16.1	0.00e+00	0	34	0	724566016	65	5072
2026-01-16 21:20:29.81	91.03	8.73	-47.7	-50.1	15.9	0.00e+00	0	34	0	726663168	65	5209
2026-01-16 21:20:30.82	91.19	8.69	-47.8	-50.2	15.8	0.00e+00	0	34	0	728760320	66	4971
2026-01-16 21:20:31.82	91.35	8.66	-47.7	-50.1	16.0	0.00e+00	0	34	0	730857472	66	4874
2026-01-16 21:20:32.83	91.51	8.63	-47.4	-49.6	16.4	0.00e+00	0	34	0	732954624	66	4612
2026-01-16 21:20:33.84	91.67	8.60	-47.3	-49.5	16.5	0.00e+00	0	34	0	734003200	66	4589
2026-01-16 21:20:34.85	91.83	8.56	-47.6	-49.9	16.0	0.00e+00	0	34	0	736100352	66	4804
2026-01-16 21:20:35.86	91.99	8.53	-47.6	-50.0	16.0	0.00e+00	0	34	0	738197504	66	4831
2026-01-16 21:20:36.86	92.14	8.50	-47.8	-50.3	15.7	0.00e+00	0	34	0	740294656	66	4997
2026-01-16 21:20:37.87	92.30	8.46	-48.0	-50.5	15.5	0.00e+00	0	34	0	742391808	66	5158
2026-01-16 21:20:38.88	92.46	8.43	-48.1	-50.8	15.2	0.00e+00	0	34	0	744488960	66	5327
2026-01-16 21:20:39.89	92.61	8.40	-48.4	-51.2	14.8	0.00e+00	0	34	0	745537536	67	5263
2026-01-16 21:20:40.90	92.77	8.36	-48.6	-51.5	14.4	0.00e+00	0	34	0	747634688	67	5463
2026-01-16 21:20:41.91	92.93	8.33	-48.4	-51.3	14.6	0.00e+00	0	34	0	749731840	67	5316
2026-01-16 21:20:42.92	93.08	8.30	-48.3	-51.0	14.9	0.00e+00	0	34	0	751828992	67	5157
2026-01-16 21:20:43.92	93.24	8.26	-48.3	-51.0	14.9	7.00e-07	0	34	0	752877568	67	5142
2026-01-16 21:20:44.93	93.39	8.23	-48.3	-51.0	14.9	0.00e+00	0	34	0	754974720	67	5135
2026-01-16 21:20:45.94	93.55	8.19	-48.2	-50.9	15.1	0.00e+00	0	34	0	757071872	67	5079
2026-01-16 21:20:46.95	93.70	8.16	-48.2	-51.0	15.0	0.00e+00	0	34	0	759169024	67	5109
2026-01-16 21:20:47.96	93.85	8.13	-48.2	-50.9	15.1	0.00e+00	0	34	0	761266176	67	5048
2026-01-16 21:20:48.96	94.01	8.09	-48.2	-51.0	15.0	0.00e+00	0	34	0	763363328	67	5108
2026-01-16 21:20:49.97	94.16	8.06	-48.3	-51.0	14.9	0.00e+00	0	34	0	764411904	67	5141
2026-01-16 21:20:50.98	94.31	8.02	-48.2	-51.0	14.9	0.00e+00	0	34	0	766509056	67	5121
2026-01-16 21:20:51.98	94.46	7.99	-48.1	-50.8	15.1	0.00e+00	0	34	0	768606208	67	4988
2026-01-16 21:20:52.99	94.62	7.95	-48.1	-50.7	15.2	0.00e+00	0	34	0	770703360	67	4976
2026-01-16 21:20:54.00	94.77	7.92	-48.1	-50.8	15.1	0.00e+00	0	34	0	772800512	67	5014
2026-01-16 21:20:55.01	94.92	7.88	-48.1	-50.8	15.2	0.00e+00	0	33	0	773849088	67	4987
2026-01-16 21:20:56.02	95.07	7.85	-48.1	-50.8	15.2	0.00e+00	0	34	0	775946240	67	5000
2026-01-16 21:20:57.02	95.22	7.81	-48.1	-50.7	15.2	0.00e+00	0	34	0	778043392	67	4949
2026-01-16 21:20:58.03	95.37	7.77	-48.0	-50.7	15.3	0.00e+00	0	34	0	780140544	67	4930
2026-01-16 21:20:59.04	95.52	7.74	-48.1	-50.8	15.1	0.00e+00	0	34	0	781189120	67	5001
2026-01-16 21:21:00.05	95.67	7.70	-48.3	-51.0	14.9	0.00e+00	0	34	0	783286272	67	5138
2026-01-16 21:21:01.06	95.82	7.67	-48.3	-51.1	14.8	7.00e-07	0	34	0	785383424	67	5176
2026-01-16 21:21:02.06	95.97	7.63	-48.4	-51.3	14.6	0.00e+00	0	34	0	787480576	67	5288
2026-01-16 21:21:03.07	96.12	7.59	-48.4	-51.2	14.7	0.00e+00	0	34	0	789577728	67	5262
2026-01-16 21:21:04.08	96.26	7.56	-48.1	-50.8	15.1	0.00e+00	0	34	0	791674880	67	4998
2026-01-16 21:21:05.09	96.41	7.52	-48.2	-51.0	14.9	0.00e+00	0	34	0	792723456	67	5109
2026-01-16 21:21:06.10	96.56	7.48	-48.2	-50.9	15.0	0.00e+00	0	34	0	794820608	67	5081
2026-01-16 21:21:07.10	96.71	7.45	-48.1	-50.7	15.2	0.00e+00	0	34	0	796917760	67	4971
2026-01-16 21:21:08.11	96.85	7.41	-48.1	-50.8	15.1	0.00e+00	0	34	0	799014912	67	4997
2026-01-16 21:21:09.12	97.00	7.37	-48.0	-50.7	15.2	0.00e+00	0	34	0	801112064	67	4929
2026-01-16 21:21:10.13	97.15	7.34	-48.1	-50.9	15.0	0.00e+00	0	34	0	802160640	67	5052
2026-01-16 21:21:11.14	97.29	7.30	-48.1	-50.7	15.1	0.00e+00	0	34	0	804257792	67	4968
2026-01-16 21:21:12.14	97.44	7.26	-47.9	-50.5	15.4	0.00e+00	0	34	0	806354944	67	4862
2026-01-16 21:21:13.15	97.58	7.23	-47.9	-50.4	15.4	0.00e+00	0	34	0	808452096	67	4802
2026-01-16 21:21:14.16	97.73	7.19	-47.8	-50.4	15.5	0.00e+00	0	34	0	810549248	67	4786
2026-01-16 21:21:15.17	97.87	7.15	-47.7	-50.2	15.6	0.00e+00	0	34	0	811597824	67	4681
2026-01-16 21:21:16.18	98.01	7.11	-47.6	-50.0	15.9	0.00e+00	0	34	0	813694976	67	4561
2026-01-16 21:21:17.19	98.16	7.07	-47.6	-50.0	15.9	0.00e+00	0	34	0	815792128	66	4826
2026-01-16 21:21:18.20	98.30	7.04	-47.6	-50.0	15.8	0.00e+00	0	34	0	817889280	66	4840
2026-01-16 21:21:19.20	98.44	7.00	-47.5	-49.9	16.0	0.00e+00	0	34	0	819986432	66	4794
2026-01-16 21:21:20.21	98.58	6.96	-47.5	-49.9	16.0	0.00e+00	0	34	0	821035008	66	4801
2026-01-16 21:21:21.22	98.73	6.92	-47.5	-49.8	16.0	0.00e+00	0	34	0	823132160	66	4748
2026-01-16 21:21:22.23	98.87	6.88	-47.4	-49.8	16.0	0.00e+00	0	34	0	825229312	66	4717
2026-01-16 21:21:23.24	99.01	6.85	-47.5	-49.9	16.0	0.00e+00	0	34	0	827326464	66	4786
2026-01-16 21:21:24.24	99.15	6.81	-47.6	-49.9	15.9	0.00e+00	0	34	0	829423616	66	4809
2026-01-16 21:21:25.25	99.29	6.77	-47.6	-50.0	15.8	0.00e+00	0	34	0	831520768	66	4865
2026-01-16 21:21:26.26	99.43	6.73	-47.6	-50.0	15.8	0.00e+00	0	34	0	832569344	66	4847
2026-01-16 21:21:27.27	99.57	6.69	-47.8	-50.3	15.5	0.00e+00	0	34	0	834666496	66	5009
2026-01-16 21:21:28.28	99.71	6.65	-47.8	-50.4	15.5	0.00e+00	0	34	0	836763648	66	5069
2026-01-16 21:21:29.28	99.85	6.62	-48.1	-50.8	15.0	0.00e+00	0	34	0	838860800	66	5312
2026-01-16 21:21:30.29	99.99	6.58	-47.8	-50.4	15.4	0.00e+00	0	33	0	839909376	66	5071
2026-01-16 21:21:31.30	100.13	6.54	-48.0	-50.7	15.1	0.00e+00	0	34	0	842006528	66	5270
2026-01-16 21:21:32.31	100.27	6.50	-47.8	-50.3	15.5	0.00e+00	0	34	0	844103680	66	5015
2026-01-16 21:21:33.32	100.40	6.46	-47.8	-50.3	15.5	0.00e+00	0	34	0	846200832	66	5015
2026-01-16 21:21:34.32	100.54	6.42	-47.7	-50.2	15.6	0.00e+00	0	34	0	848297984	66	4939
2026-01-16 21:21:35.33	100.68	6.38	-47.9	-50.5	15.2	0.00e+00	0	34	0	849346560	66	5112
2026-01-16 21:21:36.34	100.81	6.34	-47.9	-50.5	15.3	0.00e+00	0	34	0	851443712	66	5155
2026-01-16 21:21:37.35	100.95	6.30	-47.9	-50.5	15.2	0.00e+00	0	34	0	853540864	66	5159
2026-01-16 21:21:38.36	101.09	6.26	-47.8	-50.5	15.3	0.00e+00	0	34	0	855638016	66	5107
2026-01-16 21:21:39.36	101.22	6.22	-47.7	-50.3	15.4	0.00e+00	0	34	0	857735168	66	5007
2026-01-16 21:21:40.37	101.36	6.18	-47.4	-49.7	16.0	0.00e+00	0	34	0	859832320	66	4704
2026-01-16 21:21:41.38	101.49	6.14	-47.6	-50.1	15.7	0.00e+00	0	34	0	860880896	66	4898
2026-01-16 21:21:42.39	101.63	6.10	-47.7	-50.2	15.6	0.00e+00	0	34	0	862978048	66	4943
2026-01-16 21:21:43.40	101.76	6.06	-47.4	-49.8	16.0	0.00e+00	0	34	0	865075200	66	4718
2026-01-16 21:21:44.40	101.89	6.02	-47.4	-49.8	15.9	0.00e+00	0	34	0	867172352	66	4747
2026-01-16 21:21:45.41	102.03	5.98	-47.5	-49.9	15.9	0.00e+00	0	34	0	868220928	66	4763
2026-01-16 21:21:46.42	102.16	5.94	-47.0	-49.2	16.5	0.00e+00	0	34	0	870318080	66	4412
2026-01-16 21:21:47.43	102.30	5.90	-47.0	-49.1	16.6	0.00e+00	0	34	0	872415232	65	4633
2026-01-16 21:21:48.44	102.43	5.86	-47.0	-49.2	16.5	0.00e+00	0	34	0	874512384	65	4699
2026-01-16 21:21:49.44	102.56	5.82	-47.0	-49.2	16.4	0.00e+00	0	34	0	876609536	65	4699
2026-01-16 21:21:50.45	102.69	5.78	-47.1	-49.3	16.4	0.00e+00	0	34	0	878706688	65	4729
2026-01-16 21:21:51.46	102.82	5.74	-47.3	-49.7	16.0	0.00e+00	0	34	0	879755264	65	4961
2026-01-16 21:21:52.47	102.95	5.70	-47.2	-49.5	16.2	0.00e+00	0	34	0	881852416	65	4829
2026-01-16 21:21:53.48	103.09	5.66	-47.3	-49.7	16.0	0.00e+00	0	34	0	883949568	65	4966
2026-01-16 21:21:54.48	103.21	5.62	-47.2	-49.5	16.2	0.00e+00	0	34	0	886046720	65	4817
2026-01-16 21:21:55.49	103.34	5.58	-47.0	-49.2	16.4	0.00e+00	0	34	0	888143872	65	4685
2026-01-16 21:21:56.50	103.47	5.54	-46.9	-49.1	16.6	0.00e+00	0	34	0	889192448	65	4605
2026-01-16 21:21:57.51	103.60	5.50	-46.8	-49.0	16.6	0.00e+00	0	33	0	891289600	65	4556
2026-01-16 21:21:58.52	103.73	5.46	-47.2	-49.5	16.2	0.00e+00	0	34	0	893386752	65	4815
2026-01-16 21:21:59.52	103.86	5.42	-46.7	-48.8	16.8	0.00e+00	0	34	0	895483904	65	4483
2026-01-16 21:22:00.53	103.99	5.38	-46.8	-49.0	16.6	0.00e+00	0	34	0	896532480	65	4574
2026-01-16 21:22:01.54	104.12	5.34	-46.8	-48.9	16.6	0.00e+00	0	34	0	898629632	65	4524
2026-01-16 21:22:02.55	104.25	5.29	-46.6	-48.7	16.8	0.00e+00	0	34	0	900726784	65	4433
2026-01-16 21:22:03.56	104.37	5.25	-46.6	-48.7	16.9	0.00e+00	0	34	0	902823936	65	4392
2026-01-16 21:22:04.56	104.50	5.21	-46.6	-48.7	16.8	0.00e+00	0	34	0	904921088	65	4400
2026-01-16 21:22:05.57	104.63	5.17	-46.9	-49.2	16.4	0.00e+00	0	34	0	907018240	65	4672
2026-01-16 21:22:06.58	104.75	5.13	-47.0	-49.2	16.2	0.00e+00	0	34	0	908066816	65	4704
2026-01-16 21:22:07.59	104.88	5.09	-47.1	-49.4	16.1	0.00e+00	0	34	0	910163968	65	4796
2026-01-16 21:22:08.60	105.00	5.05	-47.1	-49.5	16.0	0.00e+00	0	34	0	912261120	65	4824
2026-01-16 21:22:09.60	105.13	5.01	-48.5	-51.6	14.3	0.00e+00	0	34	0	914358272	67	5515
2026-01-16 21:22:10.61	105.25	4.97	-52.1	-67.1	3.8	1.48e+00	0	34	104	914358272	74	21804
2026-01-16 21:22:11.62	105.38	4.92	-52.4	-67.3	3.8	1.49e+00	0	34	104	914358272	75	21191
2026-01-16 21:22:12.63	105.50	4.88	-52.5	-67.6	3.8	1.49e+00	0	34	104	914358272	75	21773
2026-01-16 21:22:13.64	105.63	4.84	-52.7	-67.7	3.8	1.49e+00	0	34	104	914358272	75	22092
2026-01-16 21:22:14.64	105.75	4.80	-52.8	-67.7	3.8	1.49e+00	0	34	104	914358272	76	21012
2026-01-16 21:22:15.66	105.87	4.76	-52.8	-67.8	3.8	1.49e+00	0	34	104	914358272	76	21239
2026-01-16 21:22:16.66	106.00	4.72	-52.9	-67.9	3.8	1.49e+00	0	34	104	914358272	76	21362
2026-01-16 21:22:17.67	106.12	4.67	-52.9	-67.9	3.8	1.49e+00	0	34	104	914358272	76	21493
2026-01-16 21:22:18.68	106.24	4.63	-53.0	-68.0	3.8	1.49e+00	0	34	104	914358272	76	21704
2026-01-16 21:22:19.69	106.36	4.59	-53.1	-68.1	3.8	1.49e+00	0	34	104	914358272	76	21927
2026-01-16 21:22:20.70	106.49	4.55	-53.1	-68.1	3.8	1.49e+00	0	34	104	914358272	76	21959
2026-01-16 21:22:21.71	106.61	4.51	-53.2	-68.2	3.8	1.49e+00	0	34	104	914358272	76	22130
2026-01-16 21:22:22.72	106.73	4.46	-53.2	-68.2	3.8	1.49e+00	0	34	104	914358272	76	22218
2026-01-16 21:22:23.73	106.85	4.42	-53.2	-68.3	3.8	1.49e+00	0	34	104	914358272	77	21037
2026-01-16 21:22:24.74	106.97	4.38	-53.2	-68.3	3.8	1.49e+00	0	34	104	914358272	77	21065
2026-01-16 21:22:25.75	107.09	4.34	-53.3	-68.3	3.8	1.49e+00	0	34	104	914358272	77	21146
2026-01-16 21:22:26.76	107.21	4.30	-53.3	-68.3	3.8	1.49e+00	0	34	104	914358272	77	21183
2026-01-16 21:22:27.76	107.33	4.25	-53.3	-68.3	3.8	1.49e+00	0	34	104	914358272	77	21187
2026-01-16 21:22:28.77	107.45	4.21	-53.3	-68.4	3.8	1.49e+00	0	34	104	914358272	77	21334
2026-01-16 21:22:29.78	107.56	4.17	-53.3	-68.4	3.8	1.49e+00	0	34	104	914358272	77	21320
2026-01-16 21:22:30.79	107.68	4.13	-53.3	-68.4	3.8	1.49e+00	0	34	104	914358272	77	21298
2026-01-16 21:22:31.80	107.80	4.09	-53.4	-68.4	3.8	1.49e+00	0	34	104	914358272	77	21372
2026-01-16 21:22:32.81	107.92	4.04	-53.4	-68.4	3.8	1.49e+00	0	34	104	914358272	77	21421
2026-01-16 21:22:33.82	108.04	4.00	-53.4	-68.4	3.8	1.49e+00	0	34	104	914358272	77	21338
2026-01-16 21:22:34.83	108.15	3.96	-53.4	-68.4	3.8	1.49e+00	0	34	104	914358272	77	21383
2026-01-16 21:22:35.84	108.27	3.92	-53.4	-68.4	3.8	1.49e+00	0	34	104	914358272	77	21413
2026-01-16 21:22:36.85	108.39	3.87	-53.4	-68.4	3.8	1.49e+00	0	34	104	914358272	77	21401
2026-01-16 21:22:37.86	108.50	3.83	-53.4	-68.4	3.8	1.49e+00	0	34	104	914358272	77	21360
2026-01-16 21:22:38.86	108.62	3.79	-53.4	-68.4	3.8	1.49e+00	0	34	104	914358272	77	21361
2026-01-16 21:22:39.87	108.73	3.75	-53.3	-68.4	3.8	1.49e+00	0	34	104	914358272	77	21332
2026-01-16 21:22:40.88	108.85	3.70	-53.3	-68.4	3.8	1.49e+00	0	34	104	914358272	77	21398
2026-01-16 21:22:41.89	108.96	3.66	-53.3	-68.4	3.8	1.49e+00	0	34	104	914358272	77	21274
2026-01-16 21:22:42.90	109.08	3.62	-53.3	-68.3	3.8	1.49e+00	0	34	104	914358272	77	21184
2026-01-16 21:22:43.90	109.19	3.58	-53.3	-68.3	3.8	1.49e+00	0	34	104	914358272	77	21200
2026-01-16 21:22:44.91	109.31	3.53	-53.3	-68.3	3.8	1.49e+00	0	34	104	914358272	77	21245
2026-01-16 21:22:45.92	109.42	3.49	-53.3	-68.3	3.8	1.49e+00	0	34	104	914358272	77	21222
2026-01-16 21:22:46.93	109.53	3.45	-53.3	-68.3	3.8	1.49e+00	0	34	104	914358272	77	21223
2026-01-16 21:22:47.94	109.65	3.41	-53.3	-68.3	3.8	1.49e+00	0	34	104	914358272	77	21164
2026-01-16 21:22:48.95	109.76	3.36	-53.3	-68.3	3.8	1.49e+00	0	34	104	914358272	77	21184
2026-01-16 21:22:49.96	109.87	3.32	-53.3	-68.3	3.8	1.49e+00	0	34	104	914358272	77	21201
2026-01-16 21:22:50.96	109.98	3.28	-53.3	-68.3	3.8	1.49e+00	0	34	104	914358272	77	21194
2026-01-16 21:22:51.97	110.09	3.23	-53.3	-68.3	3.8	1.49e+00	0	34	104	914358272	77	21154
2026-01-16 21:22:52.98	110.20	3.19	-53.3	-68.3	3.8	1.49e+00	0	34	104	914358272	77	21141
2026-01-16 21:22:53.99	110.32	3.15	-53.3	-68.3	3.8	1.49e+00	0	34	104	914358272	77	21177
2026-01-16 21:22:55.00	110.43	3.11	-53.3	-68.3	3.8	1.49e+00	0	34	104	914358272	77	21140
2026-01-16 21:22:56.01	110.54	3.06	-53.3	-68.3	3.8	1.49e+00	0	34	104	914358272	77	21170
2026-01-16 21:22:57.02	110.65	3.02	-53.3	-68.3	3.8	1.49e+00	0	34	104	914358272	77	21180
2026-01-16 21:22:58.02	110.76	2.98	-53.3	-68.3	3.8	1.49e+00	0	34	104	914358272	77	21158
2026-01-16 21:22:59.03	110.87	2.93	-53.3	-68.3	3.8	1.49e+00	0	34	104	914358272	77	21146
2026-01-16 21:23:00.05	110.98	2.89	-53.3	-68.3	3.8	1.49e+00	0	34	104	914358272	77	21181
2026-01-16 21:23:01.06	111.08	2.85	-53.3	-68.3	3.8	1.49e+00	0	34	104	914358272	77	21146
2026-01-16 21:23:02.06	111.19	2.81	-53.3	-68.3	3.8	1.49e+00	0	34	104	914358272	77	21103
2026-01-16 21:23:03.07	111.30	2.76	-53.3	-68.3	3.8	1.49e+00	0	34	104	914358272	77	21142
2026-01-16 21:23:04.08	111.41	2.72	-53.3	-68.3	3.8	1.49e+00	0	34	104	914358272	77	21131
2026-01-16 21:23:05.09	111.52	2.68	-53.2	-68.3	3.8	1.49e+00	0	34	104	914358272	77	21096
2026-01-16 21:23:06.10	111.62	2.63	-53.2	-68.3	3.8	1.49e+00	0	34	104	914358272	77	21093
2026-01-16 21:23:07.11	111.73	2.59	-53.2	-68.3	3.8	1.49e+00	0	34	104	914358272	77	21129
2026-01-16 21:23:08.12	111.84	2.55	-53.3	-68.3	3.8	1.49e+00	0	34	104	914358272	77	21123
2026-01-16 21:23:09.12	111.94	2.50	-53.3	-68.3	3.8	1.49e+00	0	34	104	914358272	77	21127
2026-01-16 21:23:10.13	112.05	2.46	-53.2	-68.3	3.8	1.49e+00	0	34	104	914358272	77	21051
2026-01-16 21:23:11.14	112.16	2.42	-53.2	-68.3	3.8	1.49e+00	0	34	104	914358272	77	21138
2026-01-16 21:23:12.15	112.26	2.37	-53.2	-68.3	3.8	1.49e+00	0	34	104	914358272	77	21052
2026-01-16 21:23:13.16	112.37	2.33	-53.2	-68.3	3.8	1.49e+00	0	34	104	914358272	77	21085
2026-01-16 21:23:14.17	112.47	2.29	-53.3	-68.3	3.8	1.49e+00	0	34	104	914358272	77	21145
2026-01-16 21:23:15.18	112.58	2.25	-53.2	-68.3	3.8	1.49e+00	0	34	104	914358272	77	21052
2026-01-16 21:23:16.19	112.68	2.20	-53.2	-68.2	3.8	1.49e+00	0	34	104	914358272	77	21013
2026-01-16 21:23:17.20	112.79	2.16	-53.2	-68.3	3.8	1.49e+00	0	34	104	914358272	77	21113
2026-01-16 21:23:18.20	112.89	2.12	-53.2	-68.3	3.8	1.49e+00	0	34	104	914358272	77	21082
2026-01-16 21:23:19.21	112.99	2.07	-53.2	-68.3	3.8	1.49e+00	0	34	104	914358272	77	21024
2026-01-16 21:23:20.22	113.10	2.03	-53.2	-68.3	3.8	1.49e+00	0	34	104	914358272	77	21072
2026-01-16 21:23:21.23	113.20	1.99	-53.2	-68.3	3.8	1.49e+00	0	34	104	914358272	77	21050

#Closed at: 2026-01-16 21:23:22
#Recorded file [914 MB]: D:/lorett/data/31041_260117_001252.dat