passes_logs/2026/01/16/R3.2S_Murmansk/R3.2S_Murmansk__20260116_025815_AQUA_rec.log

#Pass ID: 20260116_025815_AQUA
#Satellite: AQUA
#Configuration: AQUA
#almurnet v.1.7.20251203
#Start time: 2026-01-16 02:58:17

#Version: 2.2.20231116
#Station: R3.2S_Murmansk
#Location: 33.079688 lon 68.888172 lat
#TLE: 1 27424U 02022A   26015.51279194  .00000651  00000+0  14022-3 0  9990
#TLE: 2 27424  98.4082 341.9487 0002034  77.6776  33.2672 14.61821775260965

#Time	Az	El	Level	Level2	SNR	BER	BlckErr	Temp	State	Recorded	gain1	gain2
2026-01-16 02:58:17.84	25.52	2.15	-57.7	-75.5	3.8	7.44e-01	0	41	0	0	87	27295
2026-01-16 02:58:18.85	25.50	2.22	-57.7	-75.5	3.8	7.44e-01	0	41	104	0	86	28930
2026-01-16 02:58:19.86	25.49	2.28	-57.7	-75.5	3.8	7.46e-01	0	41	104	0	86	28927
2026-01-16 02:58:20.87	25.47	2.35	-57.7	-75.5	3.8	7.45e-01	0	41	104	0	86	28890
2026-01-16 02:58:21.88	25.45	2.42	-57.7	-75.5	3.8	7.43e-01	0	41	104	0	86	28934
2026-01-16 02:58:22.89	25.43	2.49	-57.7	-75.5	3.8	7.46e-01	0	42	104	0	86	28874
2026-01-16 02:58:23.90	25.42	2.55	-57.7	-75.5	3.8	7.45e-01	0	42	104	0	86	28858
2026-01-16 02:58:24.91	25.40	2.62	-57.7	-75.5	3.8	7.42e-01	0	42	104	0	86	28857
2026-01-16 02:58:25.92	25.38	2.69	-57.7	-75.5	3.8	7.44e-01	0	42	104	0	86	28802
2026-01-16 02:58:26.93	25.36	2.76	-57.7	-75.5	3.8	7.46e-01	0	42	104	0	86	28751
2026-01-16 02:58:27.94	25.35	2.83	-57.7	-75.4	3.8	7.46e-01	0	42	104	0	86	28456
2026-01-16 02:58:28.95	25.33	2.89	-57.7	-75.4	3.8	7.45e-01	0	42	104	0	86	28625
2026-01-16 02:58:29.96	25.31	2.96	-57.7	-75.4	3.8	7.45e-01	0	42	104	0	86	28501
2026-01-16 02:58:30.97	25.29	3.03	-57.7	-75.4	3.8	7.45e-01	0	42	104	0	86	28490
2026-01-16 02:58:31.98	25.27	3.10	-57.7	-75.3	3.8	7.47e-01	0	42	104	0	86	28340
2026-01-16 02:58:32.99	25.26	3.17	-57.7	-75.4	3.8	7.44e-01	0	42	104	0	86	28597
2026-01-16 02:58:34.00	25.24	3.24	-57.7	-75.4	3.8	7.45e-01	0	42	104	0	86	28611
2026-01-16 02:58:35.01	25.22	3.31	-57.7	-75.4	3.8	7.46e-01	0	42	104	0	86	28668
2026-01-16 02:58:36.02	25.20	3.38	-57.7	-75.3	3.8	7.44e-01	0	42	104	0	86	28158
2026-01-16 02:58:37.03	25.18	3.45	-57.6	-75.0	3.8	7.43e-01	0	42	104	0	86	27281
2026-01-16 02:58:38.04	25.16	3.52	-57.6	-74.7	3.8	7.48e-01	0	42	104	0	86	26255
2026-01-16 02:58:39.05	25.14	3.59	-57.4	-73.9	3.8	7.46e-01	0	42	104	0	86	24130
2026-01-16 02:58:40.06	25.12	3.66	-57.2	-73.3	3.8	7.47e-01	0	42	104	0	86	22484
2026-01-16 02:58:41.07	25.10	3.73	-57.0	-72.5	3.8	7.43e-01	0	42	104	0	86	20452
2026-01-16 02:58:42.08	25.08	3.80	-56.6	-71.3	3.8	7.44e-01	0	42	104	0	85	18866
2026-01-16 02:58:43.10	25.06	3.88	-56.3	-70.4	3.8	7.42e-01	0	43	104	0	84	17952
2026-01-16 02:58:44.11	25.04	3.95	-55.5	-68.8	3.8	7.44e-01	0	42	104	0	82	16742
2026-01-16 02:58:45.12	25.02	4.02	-55.2	-68.2	3.8	7.49e-01	0	43	104	0	82	15630
2026-01-16 02:58:46.13	25.00	4.09	-54.9	-67.8	3.8	7.42e-01	0	43	104	0	81	15783
2026-01-16 02:58:47.14	24.98	4.16	-55.1	-68.0	3.8	7.47e-01	0	43	104	0	81	16167
2026-01-16 02:58:48.15	24.96	4.24	-55.1	-68.1	3.8	7.45e-01	0	43	104	0	81	16485
2026-01-16 02:58:49.16	24.94	4.31	-54.7	-67.3	3.8	7.45e-01	0	43	104	0	81	14902
2026-01-16 02:58:50.17	24.92	4.38	-54.6	-67.2	3.8	7.45e-01	0	43	104	0	81	14767
2026-01-16 02:58:51.18	24.90	4.45	-55.2	-68.2	3.8	7.44e-01	0	43	104	0	81	16675
2026-01-16 02:58:52.19	24.88	4.53	-55.1	-68.0	3.8	7.44e-01	0	43	104	0	81	16262
2026-01-16 02:58:53.20	24.86	4.60	-55.0	-67.8	3.8	7.45e-01	0	43	104	0	81	15917
2026-01-16 02:58:54.21	24.84	4.67	-55.5	-68.7	3.8	7.45e-01	0	43	104	0	81	17615
2026-01-16 02:58:55.22	24.82	4.75	-55.9	-69.6	3.8	7.46e-01	0	43	104	0	82	18463
2026-01-16 02:58:56.23	24.80	4.82	-55.8	-69.3	3.8	7.43e-01	0	43	104	0	82	17809
2026-01-16 02:58:57.24	24.78	4.90	-56.2	-70.3	3.8	7.46e-01	0	43	104	0	82	19977
2026-01-16 02:58:58.25	24.75	4.97	-56.3	-70.6	3.8	7.45e-01	0	43	104	0	83	19530
2026-01-16 02:58:59.26	24.73	5.05	-56.3	-70.5	3.8	7.45e-01	0	43	104	0	83	19387
2026-01-16 02:59:00.27	24.71	5.12	-56.0	-69.5	3.8	7.47e-01	0	43	104	0	83	17231
2026-01-16 02:59:01.28	24.69	5.20	-56.3	-70.4	3.8	7.44e-01	0	43	104	0	83	18999
2026-01-16 02:59:02.29	24.67	5.27	-57.3	-73.3	3.9	7.45e-01	0	44	104	0	85	23776
2026-01-16 02:59:03.30	24.64	5.35	-54.6	-66.8	3.8	7.46e-01	0	43	104	0	79	15815
2026-01-16 02:59:04.31	24.62	5.42	-57.3	-73.8	3.9	7.46e-01	0	43	104	0	85	25101
2026-01-16 02:59:05.32	24.60	5.50	-53.9	-65.8	3.8	7.40e-01	0	43	104	0	79	14102
2026-01-16 02:59:06.33	24.58	5.58	-53.8	-65.6	3.8	7.47e-01	0	43	104	0	79	13808
2026-01-16 02:59:07.33	24.55	5.65	-53.3	-64.9	3.8	7.43e-01	0	44	104	0	78	13561
2026-01-16 02:59:08.34	24.53	5.73	-56.0	-69.3	3.9	7.44e-01	0	44	104	0	84	15821
2026-01-16 02:59:09.36	24.51	5.81	-55.8	-69.1	3.8	7.43e-01	0	44	104	0	82	17424
2026-01-16 02:59:10.37	24.48	5.88	-57.4	-73.1	3.9	7.42e-01	0	44	104	0	86	21899
2026-01-16 02:59:11.37	24.46	5.96	-53.7	-65.5	3.8	7.47e-01	0	44	104	0	77	15237
2026-01-16 02:59:12.39	24.44	6.04	-56.0	-69.2	3.9	7.44e-01	0	44	104	0	84	15590
2026-01-16 02:59:13.40	24.41	6.12	-52.2	-63.5	3.8	7.42e-01	0	44	104	0	76	12938
2026-01-16 02:59:14.41	24.39	6.20	-52.2	-63.5	3.8	7.43e-01	0	44	104	0	76	12885
2026-01-16 02:59:15.41	24.36	6.28	-51.9	-63.1	3.8	7.44e-01	0	44	104	0	75	13080
2026-01-16 02:59:16.42	24.34	6.35	-53.9	-65.8	3.8	7.45e-01	0	44	104	0	79	14194
2026-01-16 02:59:17.43	24.31	6.43	-56.3	-70.0	3.8	7.44e-01	0	44	104	0	83	18270
2026-01-16 02:59:18.44	24.29	6.51	-56.5	-70.3	3.8	7.45e-01	0	44	104	0	85	16835
2026-01-16 02:59:19.45	24.26	6.59	-56.0	-69.1	3.8	7.47e-01	0	44	104	0	82	17421
2026-01-16 02:59:20.47	24.24	6.67	-56.8	-70.9	3.9	7.47e-01	0	44	104	0	85	18059
2026-01-16 02:59:21.48	24.21	6.75	-53.6	-65.2	3.8	7.44e-01	0	44	104	0	79	13249
2026-01-16 02:59:22.49	24.19	6.83	-53.4	-65.1	3.8	7.47e-01	0	44	104	0	78	13779
2026-01-16 02:59:23.49	24.16	6.91	-55.4	-68.1	3.8	7.44e-01	0	44	104	0	81	16367
2026-01-16 02:59:24.51	24.14	7.00	-56.4	-69.8	3.9	7.44e-01	0	44	104	0	84	16695
2026-01-16 02:59:25.51	24.11	7.08	-56.2	-69.5	3.9	7.45e-01	0	44	104	0	82	18117
2026-01-16 02:59:26.52	24.08	7.16	-56.8	-70.9	3.9	7.46e-01	0	44	104	0	85	17894
2026-01-16 02:59:27.53	24.06	7.24	-54.2	-66.0	3.8	7.43e-01	0	44	104	0	78	15300
2026-01-16 02:59:28.54	24.03	7.32	-54.1	-66.1	3.8	7.43e-01	0	44	104	0	80	13768
2026-01-16 02:59:29.55	24.00	7.41	-51.6	-62.8	3.8	7.43e-01	0	44	104	0	75	12546
2026-01-16 02:59:30.56	23.98	7.49	-51.6	-62.8	3.8	7.44e-01	0	44	104	0	74	13288
2026-01-16 02:59:31.57	23.95	7.57	-54.0	-65.9	3.8	7.45e-01	0	44	104	0	78	15077
2026-01-16 02:59:32.58	23.92	7.65	-54.7	-66.8	3.8	7.45e-01	0	44	104	0	81	14188
2026-01-16 02:59:33.59	23.89	7.74	-57.0	-71.2	3.8	7.43e-01	0	44	104	0	84	19753
2026-01-16 02:59:34.60	23.87	7.82	-55.6	-68.4	3.9	7.44e-01	0	44	104	0	83	15187
2026-01-16 02:59:35.61	23.84	7.91	-55.1	-67.3	3.8	7.47e-01	0	44	104	0	80	15916
2026-01-16 02:59:36.62	23.81	7.99	-54.2	-66.1	3.8	7.46e-01	0	45	104	0	80	13841
2026-01-16 02:59:37.63	23.78	8.08	-51.4	-62.5	3.8	7.43e-01	0	45	104	0	74	12842
2026-01-16 02:59:38.64	23.75	8.16	-51.4	-62.5	3.8	7.47e-01	0	45	104	0	74	12823
2026-01-16 02:59:39.65	23.73	8.25	-52.3	-63.8	3.8	7.43e-01	0	44	104	0	75	14082
2026-01-16 02:59:40.66	23.70	8.33	-54.2	-66.1	3.8	7.45e-01	0	45	104	0	78	15448
2026-01-16 02:59:41.68	23.67	8.42	-57.3	-72.0	3.8	7.45e-01	0	44	104	0	85	20404
2026-01-16 02:59:42.69	23.64	8.51	-53.6	-65.2	3.9	7.44e-01	0	45	104	0	79	13204
2026-01-16 02:59:43.70	23.61	8.59	-57.3	-71.8	3.8	7.47e-01	0	45	104	0	85	20008
2026-01-16 02:59:44.71	23.58	8.68	-53.4	-65.1	3.9	7.45e-01	0	45	104	0	79	12990
2026-01-16 02:59:45.72	23.55	8.77	-51.6	-62.7	3.9	7.43e-01	0	45	104	0	74	13147
2026-01-16 02:59:46.73	23.52	8.86	-51.3	-62.4	3.8	7.43e-01	0	45	104	0	74	12750
2026-01-16 02:59:47.74	23.49	8.94	-56.0	-69.0	3.8	7.49e-01	0	45	104	0	82	17193
2026-01-16 02:59:48.75	23.46	9.03	-53.8	-65.4	3.8	7.45e-01	0	45	104	0	79	13568
2026-01-16 02:59:49.76	23.42	9.12	-58.0	-74.1	3.8	7.46e-01	0	45	104	0	86	24414
2026-01-16 02:59:50.77	23.39	9.21	-52.5	-63.8	3.8	7.46e-01	0	45	104	0	77	12609
2026-01-16 02:59:51.78	23.36	9.30	-56.0	-68.9	3.8	7.48e-01	0	45	104	0	82	17034
2026-01-16 02:59:52.79	23.33	9.39	-52.0	-63.2	3.8	7.45e-01	0	45	104	0	76	12493
2026-01-16 02:59:53.80	23.30	9.48	-50.8	-61.7	3.8	7.42e-01	0	45	104	0	73	12476
2026-01-16 02:59:54.80	23.27	9.57	-50.3	-61.3	3.8	7.44e-01	0	45	104	0	72	12586
2026-01-16 02:59:55.81	23.23	9.66	-55.5	-68.0	3.8	7.43e-01	0	45	104	0	81	16312
2026-01-16 02:59:56.82	23.20	9.75	-53.7	-65.3	3.8	7.44e-01	0	45	104	0	77	14977
2026-01-16 02:59:57.83	23.17	9.85	-57.7	-72.6	3.8	7.47e-01	0	45	104	0	85	21945
2026-01-16 02:59:58.85	23.13	9.94	-51.7	-62.9	3.8	7.43e-01	0	45	104	0	75	12703
2026-01-16 02:59:59.86	23.10	10.03	-57.8	-73.2	3.8	7.46e-01	0	45	104	0	86	22216
2026-01-16 03:00:00.86	23.07	10.12	-51.5	-62.7	3.8	7.46e-01	0	45	104	0	75	12380
2026-01-16 03:00:01.87	23.03	10.22	-51.1	-62.2	3.8	7.41e-01	0	45	104	0	74	12405
2026-01-16 03:00:02.88	23.00	10.31	-50.9	-62.0	3.8	7.48e-01	0	45	104	0	73	12819
2026-01-16 03:00:03.89	22.96	10.40	-54.6	-66.6	3.8	7.42e-01	0	45	104	0	79	15440
2026-01-16 03:00:04.90	22.93	10.50	-53.8	-65.8	3.8	7.44e-01	0	45	104	0	78	14925
2026-01-16 03:00:05.91	22.89	10.59	-58.3	-74.9	3.7	7.44e-01	0	45	104	0	87	25458
2026-01-16 03:00:06.93	22.86	10.69	-51.4	-62.5	3.8	7.43e-01	0	45	104	0	75	12222
2026-01-16 03:00:07.94	22.82	10.78	-56.4	-69.6	3.8	7.43e-01	0	45	104	0	83	17434
2026-01-16 03:00:08.95	22.79	10.88	-51.2	-62.3	3.8	7.40e-01	0	45	104	0	74	12541
2026-01-16 03:00:09.95	22.75	10.98	-50.6	-61.6	3.8	7.46e-01	0	45	104	0	73	12309
2026-01-16 03:00:10.96	22.72	11.07	-50.3	-61.2	3.8	7.45e-01	0	45	104	0	72	12460
2026-01-16 03:00:11.97	22.68	11.17	-55.6	-68.2	3.9	7.45e-01	0	45	104	0	81	16610
2026-01-16 03:00:12.98	22.64	11.27	-55.2	-67.6	3.8	7.46e-01	0	45	104	0	80	16319
2026-01-16 03:00:13.99	22.60	11.37	-58.2	-74.3	3.8	7.47e-01	0	46	104	0	86	24986
2026-01-16 03:00:15.00	22.57	11.46	-51.0	-62.0	3.8	7.40e-01	0	45	104	0	74	12174
2026-01-16 03:00:16.01	22.53	11.56	-58.0	-73.3	3.8	7.44e-01	0	46	104	0	86	22392
2026-01-16 03:00:17.02	22.49	11.66	-51.1	-62.1	3.8	7.42e-01	0	46	104	0	74	12342
2026-01-16 03:00:18.03	22.45	11.76	-50.8	-61.8	3.8	7.44e-01	0	46	104	0	73	12614
2026-01-16 03:00:19.04	22.41	11.86	-50.6	-61.6	3.8	7.41e-01	0	46	104	0	73	12264
2026-01-16 03:00:20.05	22.37	11.96	-57.1	-71.1	3.8	7.45e-01	0	46	104	0	85	18476
2026-01-16 03:00:21.06	22.33	12.06	-54.2	-65.9	3.8	7.44e-01	0	46	104	0	78	15075
2026-01-16 03:00:22.07	22.29	12.17	-58.6	-75.6	3.8	7.46e-01	0	46	104	0	87	27413
2026-01-16 03:00:23.08	22.25	12.27	-50.7	-61.6	3.9	7.42e-01	0	46	104	0	73	12305
2026-01-16 03:00:24.09	22.21	12.37	-56.9	-70.5	3.8	7.45e-01	0	46	104	0	84	18237
2026-01-16 03:00:25.10	22.17	12.47	-50.7	-61.6	3.8	7.45e-01	0	46	104	0	73	12343
2026-01-16 03:00:26.11	22.13	12.58	-50.1	-60.9	3.8	7.48e-01	0	46	104	0	72	12089
2026-01-16 03:00:27.12	22.09	12.68	-50.1	-60.9	3.8	7.42e-01	0	46	104	0	72	12076
2026-01-16 03:00:28.13	22.05	12.78	-56.7	-70.2	3.8	7.43e-01	0	46	104	0	84	17533
2026-01-16 03:00:29.14	22.01	12.89	-55.4	-67.8	3.8	7.44e-01	0	46	104	0	81	15761
2026-01-16 03:00:30.15	21.96	12.99	-58.0	-73.6	3.9	7.41e-01	0	46	104	0	87	21854
2026-01-16 03:00:31.16	21.92	13.10	-51.1	-62.1	3.8	7.44e-01	0	46	104	0	73	13028
2026-01-16 03:00:32.17	21.88	13.21	-57.8	-72.7	3.8	7.46e-01	0	46	104	0	86	20878
2026-01-16 03:00:33.18	21.83	13.31	-50.9	-61.9	3.8	7.43e-01	0	46	104	0	73	12739
2026-01-16 03:00:34.19	21.79	13.42	-50.5	-61.4	3.8	7.43e-01	0	46	104	0	73	12074
2026-01-16 03:00:35.20	21.74	13.53	-50.3	-61.3	3.9	7.46e-01	0	46	104	0	72	12568
2026-01-16 03:00:36.21	21.70	13.64	-57.2	-71.2	3.8	7.44e-01	0	46	104	0	86	17573
2026-01-16 03:00:37.22	21.65	13.75	-54.3	-66.0	3.8	7.44e-01	0	46	104	0	79	14502
2026-01-16 03:00:38.23	21.61	13.86	-58.4	-74.8	3.8	7.44e-01	0	46	104	0	87	25139
2026-01-16 03:00:39.24	21.56	13.97	-50.8	-61.8	3.8	7.46e-01	0	46	104	0	72	13275
2026-01-16 03:00:40.25	21.52	14.08	-56.0	-68.7	3.8	7.44e-01	0	46	104	0	84	14860
2026-01-16 03:00:41.26	21.47	14.19	-50.4	-61.2	3.8	7.43e-01	0	46	104	0	72	12513
2026-01-16 03:00:42.27	21.42	14.30	-50.0	-60.9	3.8	7.44e-01	0	46	104	0	71	12676
2026-01-16 03:00:43.28	21.38	14.41	-50.1	-61.0	3.8	7.44e-01	0	46	104	0	71	12899
2026-01-16 03:00:44.29	21.33	14.52	-54.4	-66.2	3.8	7.47e-01	0	46	104	0	80	14021
2026-01-16 03:00:45.30	21.28	14.64	-55.5	-67.9	3.8	7.43e-01	0	46	104	0	81	16064
2026-01-16 03:00:46.31	21.23	14.75	-57.4	-71.3	3.9	7.43e-01	0	46	104	0	86	17838
2026-01-16 03:00:47.32	21.18	14.86	-51.0	-62.0	3.8	7.46e-01	0	46	104	0	72	13603
2026-01-16 03:00:48.33	21.13	14.98	-57.6	-72.0	3.8	7.42e-01	0	46	104	0	86	19176
2026-01-16 03:00:49.34	21.08	15.09	-50.2	-61.0	3.8	7.44e-01	0	46	104	0	72	12192
2026-01-16 03:00:50.35	21.03	15.21	-50.1	-60.9	3.8	7.46e-01	0	46	104	0	72	12085
2026-01-16 03:00:51.36	20.98	15.33	-50.3	-61.2	3.8	7.45e-01	0	46	104	0	71	13216
2026-01-16 03:00:52.37	20.93	15.45	-52.3	-63.4	3.8	7.47e-01	0	46	104	0	76	12767
2026-01-16 03:00:53.38	20.88	15.56	-54.7	-66.9	3.8	7.48e-01	0	46	104	0	80	15146
2026-01-16 03:00:54.39	20.82	15.68	-56.9	-70.5	3.9	7.43e-01	0	47	104	0	86	16219
2026-01-16 03:00:55.40	20.77	15.80	-51.9	-63.0	3.8	7.44e-01	0	47	104	0	74	13704
2026-01-16 03:00:56.41	20.72	15.92	-55.1	-67.2	3.8	7.43e-01	0	46	104	0	82	13892
2026-01-16 03:00:57.42	20.66	16.04	-49.8	-60.6	3.8	7.45e-01	0	46	104	0	71	12363
2026-01-16 03:00:58.43	20.61	16.16	-49.4	-60.2	3.8	7.43e-01	0	46	104	0	70	12433
2026-01-16 03:00:59.44	20.55	16.28	-52.1	-63.2	3.8	7.46e-01	0	46	104	0	74	13935
2026-01-16 03:01:00.45	20.50	16.41	-51.9	-63.3	3.8	7.46e-01	0	46	104	0	76	12559
2026-01-16 03:01:01.47	20.44	16.53	-55.6	-67.9	3.9	7.45e-01	0	46	104	0	81	15965
2026-01-16 03:01:02.48	20.38	16.65	-54.8	-66.6	3.8	7.42e-01	0	46	104	0	81	13877
2026-01-16 03:01:03.48	20.33	16.78	-53.8	-65.2	3.8	7.45e-01	0	47	104	0	77	14801
2026-01-16 03:01:04.49	20.27	16.90	-55.6	-68.1	3.8	7.41e-01	0	47	104	0	83	14562
2026-01-16 03:01:05.50	20.21	17.03	-49.9	-60.7	3.8	7.46e-01	0	46	104	0	71	12421
2026-01-16 03:01:06.51	20.15	17.15	-50.0	-60.8	3.8	7.44e-01	0	47	104	0	71	12648
2026-01-16 03:01:07.52	20.09	17.28	-53.6	-65.0	3.9	7.45e-01	0	47	104	0	77	14536
2026-01-16 03:01:08.53	20.03	17.41	-55.2	-67.4	3.9	7.45e-01	0	47	104	0	82	14348
2026-01-16 03:01:09.55	19.97	17.54	-56.6	-69.6	3.8	7.45e-01	0	46	104	0	83	17389
2026-01-16 03:01:10.56	19.91	17.67	-54.1	-65.8	3.9	7.43e-01	0	47	104	0	80	13292
2026-01-16 03:01:11.56	19.85	17.79	-54.8	-66.8	3.8	7.44e-01	0	47	104	0	80	14932
2026-01-16 03:01:12.57	19.79	17.93	-53.2	-64.6	3.8	7.43e-01	0	46	104	0	78	13104
2026-01-16 03:01:13.59	19.73	18.06	-50.1	-60.9	3.8	7.43e-01	0	47	104	0	72	12068
2026-01-16 03:01:14.60	19.66	18.19	-50.0	-60.8	3.8	7.43e-01	0	47	104	0	71	12635
2026-01-16 03:01:15.61	19.60	18.32	-53.4	-65.1	3.8	7.44e-01	0	47	104	0	77	14578
2026-01-16 03:01:16.62	19.53	18.46	-50.3	-61.1	3.8	7.47e-01	0	47	104	0	72	12273
2026-01-16 03:01:17.63	19.47	18.59	-56.4	-69.2	3.8	7.46e-01	0	47	104	0	83	16638
2026-01-16 03:01:18.64	19.40	18.73	-53.6	-65.1	3.8	7.45e-01	0	47	104	0	79	13040
2026-01-16 03:01:19.65	19.34	18.86	-57.2	-70.5	3.8	7.48e-01	0	47	104	0	84	18301
2026-01-16 03:01:20.66	19.27	19.00	-51.4	-62.1	3.8	7.44e-01	0	47	104	0	74	12323
2026-01-16 03:01:21.67	19.20	19.13	-50.0	-60.8	3.8	7.42e-01	0	47	104	0	71	12638
2026-01-16 03:01:22.68	19.13	19.27	-49.7	-60.5	3.8	7.46e-01	0	47	104	0	71	12138
2026-01-16 03:01:23.69	19.06	19.41	-54.7	-66.4	3.8	7.40e-01	0	47	104	0	79	15222
2026-01-16 03:01:24.70	18.99	19.55	-51.0	-61.9	3.8	7.47e-01	0	47	104	0	72	13416
2026-01-16 03:01:25.71	18.92	19.69	-57.0	-70.3	3.8	7.41e-01	0	47	104	0	84	17766
2026-01-16 03:01:26.72	18.85	19.83	-52.3	-63.3	3.9	7.44e-01	0	47	104	0	76	12652
2026-01-16 03:01:27.73	18.78	19.98	-57.0	-70.2	3.8	7.45e-01	0	47	104	0	84	17637
2026-01-16 03:01:28.74	18.71	20.12	-51.6	-62.7	3.8	7.44e-01	0	47	104	0	75	12384
2026-01-16 03:01:29.75	18.63	20.26	-50.2	-61.0	3.8	7.47e-01	0	47	104	0	72	12152
2026-01-16 03:01:30.76	18.56	20.41	-50.2	-61.1	3.8	7.43e-01	0	47	104	0	72	12374
2026-01-16 03:01:31.77	18.48	20.55	-58.2	-72.9	3.8	7.50e-01	0	47	104	0	86	21309
2026-01-16 03:01:32.78	18.41	20.70	-53.8	-65.2	3.8	7.43e-01	0	47	104	0	79	13223
2026-01-16 03:01:33.79	18.33	20.85	-58.1	-72.5	3.8	7.43e-01	0	47	104	0	86	20538
2026-01-16 03:01:34.80	18.25	21.00	-50.7	-61.6	3.9	7.46e-01	0	47	104	0	73	12345
2026-01-16 03:01:35.81	18.17	21.14	-56.2	-68.8	3.8	7.43e-01	0	47	104	0	82	16750
2026-01-16 03:01:36.82	18.09	21.29	-51.0	-62.0	3.9	7.46e-01	0	47	104	0	74	12157
2026-01-16 03:01:37.83	18.01	21.45	-50.0	-60.7	3.8	7.46e-01	0	47	104	0	71	12437
2026-01-16 03:01:38.85	17.93	21.60	-50.2	-61.1	3.8	7.43e-01	0	47	104	0	71	12977
2026-01-16 03:01:39.86	17.85	21.75	-56.2	-69.0	3.8	7.46e-01	0	47	104	0	82	17115
2026-01-16 03:01:40.87	17.77	21.91	-54.0	-65.5	3.8	7.45e-01	0	47	104	0	78	14463
2026-01-16 03:01:41.87	17.68	22.06	-58.4	-73.8	3.7	7.44e-01	0	47	104	0	87	22268
2026-01-16 03:01:42.88	17.60	22.22	-50.8	-61.7	3.9	7.41e-01	0	47	104	0	73	12434
2026-01-16 03:01:43.89	17.51	22.37	-58.1	-72.6	3.8	7.46e-01	0	47	104	0	86	20689
2026-01-16 03:01:44.90	17.43	22.53	-50.6	-61.4	3.8	7.45e-01	0	47	104	0	73	12057
2026-01-16 03:01:45.91	17.34	22.69	-50.4	-61.2	3.8	7.43e-01	0	47	104	0	72	12512
2026-01-16 03:01:46.92	17.25	22.85	-50.1	-61.0	3.8	7.46e-01	0	47	104	0	72	12139
2026-01-16 03:01:47.93	17.16	23.01	-58.9	-75.5	3.8	7.48e-01	0	47	104	0	88	25812
2026-01-16 03:01:48.94	17.07	23.17	-54.6	-66.4	3.8	7.48e-01	0	47	104	0	79	15124
2026-01-16 03:01:49.95	16.98	23.33	-58.7	-74.4	3.8	7.49e-01	0	47	104	0	87	24052
2026-01-16 03:01:50.96	16.89	23.50	-50.6	-61.6	3.8	7.45e-01	0	47	104	0	73	12236
2026-01-16 03:01:51.97	16.79	23.66	-58.3	-73.2	3.8	7.41e-01	0	47	104	0	87	20829
2026-01-16 03:01:52.98	16.70	23.83	-50.6	-61.4	3.8	7.40e-01	0	47	104	0	73	12055
2026-01-16 03:01:53.99	16.60	24.00	-50.7	-61.6	3.8	7.43e-01	0	47	104	0	73	12295
2026-01-16 03:01:55.00	16.50	24.16	-50.4	-61.2	3.8	7.43e-01	0	47	104	0	72	12508
2026-01-16 03:01:56.01	16.41	24.33	-59.0	-75.8	3.8	7.44e-01	0	47	104	0	88	26759
2026-01-16 03:01:57.02	16.31	24.50	-54.3	-65.9	3.8	7.46e-01	0	47	104	0	80	13446
2026-01-16 03:01:58.03	16.21	24.68	-58.7	-74.4	3.8	7.48e-01	0	47	104	0	87	24011
2026-01-16 03:01:59.04	16.10	24.85	-50.8	-61.7	3.8	7.44e-01	0	47	104	0	73	12436
2026-01-16 03:02:00.05	16.00	25.02	-57.5	-71.2	3.8	7.45e-01	0	47	104	0	85	18624
2026-01-16 03:02:01.06	15.90	25.20	-51.0	-62.0	3.8	7.44e-01	0	47	104	0	74	12105
2026-01-16 03:02:02.07	15.79	25.37	-50.6	-61.4	3.8	7.46e-01	0	47	104	0	73	12088
2026-01-16 03:02:03.08	15.69	25.55	-50.7	-61.7	3.8	7.41e-01	0	47	104	0	73	12406
2026-01-16 03:02:04.09	15.58	25.73	-55.3	-67.6	3.8	7.43e-01	0	47	104	0	81	15541
2026-01-16 03:02:05.10	15.47	25.91	-54.7	-66.6	3.8	7.42e-01	0	47	104	0	80	14667
2026-01-16 03:02:06.11	15.36	26.09	-58.6	-74.5	3.8	7.41e-01	0	47	104	0	88	23037
2026-01-16 03:02:07.12	15.25	26.27	-50.3	-61.1	3.9	7.44e-01	0	47	104	0	72	12305
2026-01-16 03:02:08.13	15.13	26.45	-58.3	-73.1	3.8	7.45e-01	0	47	104	0	87	20728
2026-01-16 03:02:09.14	15.02	26.64	-50.5	-61.3	3.9	7.40e-01	0	47	104	0	72	12553
2026-01-16 03:02:10.15	14.90	26.82	-50.1	-61.0	3.8	7.42e-01	0	47	104	0	72	12135
2026-01-16 03:02:11.16	14.78	27.01	-49.9	-60.8	3.8	7.44e-01	0	47	104	0	71	12538
2026-01-16 03:02:12.17	14.66	27.20	-57.2	-70.8	3.9	7.41e-01	0	47	104	0	86	16879
2026-01-16 03:02:13.18	14.54	27.39	-54.5	-66.2	3.8	7.49e-01	0	47	104	0	79	14863
2026-01-16 03:02:14.19	14.42	27.58	-58.0	-72.6	3.9	7.43e-01	0	47	104	0	87	19518
2026-01-16 03:02:15.20	14.30	27.77	-50.2	-61.0	3.8	7.46e-01	0	47	104	0	71	12823
2026-01-16 03:02:16.21	14.17	27.96	-58.1	-72.5	3.8	7.43e-01	0	47	104	0	86	20478
2026-01-16 03:02:17.22	14.04	28.16	-50.0	-60.8	3.8	7.45e-01	0	48	104	0	71	12630
2026-01-16 03:02:18.23	13.92	28.35	-49.9	-60.7	3.8	7.46e-01	0	47	104	0	71	12503
2026-01-16 03:02:19.24	13.79	28.55	-50.6	-61.4	3.8	7.45e-01	0	47	104	0	71	13568
2026-01-16 03:02:20.25	13.65	28.75	-58.8	-74.9	3.8	7.46e-01	0	47	104	0	88	24116
2026-01-16 03:02:21.26	13.52	28.95	-54.3	-65.8	3.8	7.42e-01	0	47	104	0	79	14106
2026-01-16 03:02:22.27	13.38	29.15	-57.8	-71.8	3.9	7.44e-01	0	47	104	0	87	17884
2026-01-16 03:02:23.28	13.25	29.35	-51.1	-62.0	3.8	7.41e-01	0	47	104	0	72	13574
2026-01-16 03:02:24.29	13.11	29.56	-56.1	-68.5	3.9	7.43e-01	0	47	104	0	84	14447
2026-01-16 03:02:25.30	12.97	29.76	-50.0	-60.8	3.8	7.47e-01	0	47	104	0	72	11851
2026-01-16 03:02:26.31	12.82	29.97	-49.9	-60.7	3.8	7.41e-01	0	47	104	0	71	12417
2026-01-16 03:02:27.31	12.68	30.18	-49.6	-60.4	3.8	7.45e-01	0	47	104	0	71	12048
2026-01-16 03:02:28.33	12.53	30.39	-53.7	-65.2	3.9	7.46e-01	0	47	104	0	79	13179
2026-01-16 03:02:29.34	12.38	30.60	-54.7	-66.6	3.8	7.43e-01	0	48	104	0	80	14577
2026-01-16 03:02:30.34	12.23	30.81	-55.8	-67.8	3.9	7.45e-01	0	47	104	0	83	14192
2026-01-16 03:02:31.35	12.08	31.02	-51.2	-62.1	3.8	7.46e-01	0	47	104	0	72	13761
2026-01-16 03:02:32.36	11.92	31.24	-57.0	-70.1	3.9	7.41e-01	0	47	104	0	86	15559
2026-01-16 03:02:33.37	11.76	31.46	-49.3	-60.0	3.8	7.42e-01	0	47	104	0	70	12179
2026-01-16 03:02:34.38	11.60	31.67	-49.4	-60.1	3.8	7.42e-01	0	47	104	0	70	12366
2026-01-16 03:02:35.39	11.44	31.89	-50.7	-62.0	3.8	7.45e-01	0	47	104	0	72	13680
2026-01-16 03:02:36.40	11.28	32.12	-56.8	-69.7	3.9	7.41e-01	0	47	104	0	85	15658
2026-01-16 03:02:37.41	11.11	32.34	-54.7	-66.3	3.8	7.43e-01	0	47	104	0	79	14889
2026-01-16 03:02:38.42	10.94	32.56	-57.2	-70.4	3.9	7.46e-01	0	47	104	0	86	16042
2026-01-16 03:02:39.43	10.77	32.79	-52.5	-63.6	3.8	7.47e-01	0	47	104	0	75	13787
2026-01-16 03:02:40.44	10.59	33.02	-54.3	-65.7	3.8	7.45e-01	0	47	104	0	80	13255
2026-01-16 03:02:41.45	10.42	33.24	-49.9	-60.7	3.8	7.45e-01	0	48	104	0	71	12485
2026-01-16 03:02:42.46	10.24	33.48	-50.1	-60.9	3.8	7.45e-01	0	47	104	0	71	12708
2026-01-16 03:02:43.47	10.06	33.71	-50.0	-60.8	3.8	7.42e-01	0	48	104	0	71	12568
2026-01-16 03:02:44.48	9.87	33.94	-50.0	-60.9	3.8	7.45e-01	0	48	104	0	72	12063
2026-01-16 03:02:45.49	9.68	34.18	-56.0	-68.2	3.8	7.42e-01	0	47	104	0	82	15732
2026-01-16 03:02:46.50	9.49	34.41	-55.1	-67.0	3.9	7.43e-01	0	47	104	0	82	13675
2026-01-16 03:02:47.51	9.30	34.65	-53.9	-65.6	3.8	7.42e-01	0	47	104	0	78	14607
2026-01-16 03:02:48.52	9.10	34.89	-55.4	-67.6	3.9	7.38e-01	0	48	104	0	83	13783
2026-01-16 03:02:49.53	8.90	35.13	-50.4	-61.2	3.8	7.47e-01	0	47	104	0	72	12471
2026-01-16 03:02:50.54	8.70	35.37	-50.6	-61.6	3.8	7.48e-01	0	47	104	0	72	12967
2026-01-16 03:02:51.55	8.49	35.62	-55.5	-67.7	3.8	7.46e-01	0	47	104	0	81	15589
2026-01-16 03:02:52.56	8.28	35.87	-50.7	-61.5	3.8	7.43e-01	0	47	104	0	73	12148
2026-01-16 03:02:53.57	8.07	36.11	-56.6	-69.3	3.8	7.47e-01	0	48	104	0	83	16866
2026-01-16 03:02:54.58	7.85	36.36	-53.7	-65.1	3.8	7.44e-01	0	48	104	0	79	13061
2026-01-16 03:02:55.59	7.63	36.61	-56.6	-69.2	3.8	7.47e-01	0	47	104	0	83	16614
2026-01-16 03:02:56.60	7.41	36.87	-53.3	-64.6	3.9	7.44e-01	0	48	104	0	78	13031
2026-01-16 03:02:57.61	7.18	37.12	-51.1	-62.2	3.8	7.46e-01	0	48	104	0	74	12380
2026-01-16 03:02:58.62	6.95	37.38	-51.3	-62.3	3.8	7.46e-01	0	47	104	0	74	12607
2026-01-16 03:02:59.63	6.72	37.63	-57.9	-71.9	3.8	7.48e-01	0	47	104	0	86	19156
2026-01-16 03:03:00.64	6.48	37.89	-55.5	-67.6	3.8	7.46e-01	0	48	104	0	83	13778
2026-01-16 03:03:01.65	6.24	38.15	-57.9	-71.8	3.8	7.46e-01	0	48	104	0	86	18773
2026-01-16 03:03:02.66	5.99	38.41	-53.5	-65.0	3.9	7.46e-01	0	48	104	0	79	12903
2026-01-16 03:03:03.67	5.74	38.68	-57.1	-70.0	3.8	7.45e-01	0	48	104	0	84	17137
2026-01-16 03:03:04.68	5.49	38.94	-52.6	-63.7	3.9	7.45e-01	0	48	104	0	77	12461
2026-01-16 03:03:05.69	5.23	39.21	-51.5	-62.5	3.8	7.43e-01	0	48	104	0	75	12146
2026-01-16 03:03:06.70	4.97	39.48	-51.9	-63.0	3.8	7.43e-01	0	48	104	0	75	12864
2026-01-16 03:03:07.71	4.70	39.75	-55.4	-67.6	3.8	7.47e-01	0	47	104	0	81	15559
2026-01-16 03:03:08.72	4.42	40.02	-52.3	-63.2	3.8	7.44e-01	0	48	104	0	75	13220
2026-01-16 03:03:09.73	4.15	40.29	-57.4	-70.7	3.8	7.43e-01	0	48	104	0	85	17486
2026-01-16 03:03:10.74	3.87	40.56	-52.6	-63.8	3.9	7.44e-01	0	48	104	0	77	12560
2026-01-16 03:03:11.75	3.58	40.84	-58.6	-73.4	3.8	7.47e-01	0	48	104	0	87	21357
2026-01-16 03:03:12.76	3.29	41.11	-51.5	-62.5	3.8	7.45e-01	0	48	104	0	75	12100
2026-01-16 03:03:13.77	2.99	41.39	-51.3	-62.1	3.8	7.44e-01	0	48	104	0	74	12346
2026-01-16 03:03:14.78	2.69	41.67	-51.4	-62.3	3.8	7.42e-01	0	48	104	0	74	12636
2026-01-16 03:03:15.78	2.38	41.95	-59.5	-76.6	3.8	7.43e-01	0	48	104	0	89	27668
2026-01-16 03:03:16.79	2.07	42.23	-55.2	-67.1	3.8	7.45e-01	0	48	104	0	82	13808
2026-01-16 03:03:17.80	1.75	42.52	-58.1	-72.0	3.8	7.48e-01	0	48	104	0	86	19251
2026-01-16 03:03:18.81	1.42	42.80	-51.7	-62.7	3.8	7.44e-01	0	48	104	0	75	12480
2026-01-16 03:03:19.82	1.09	43.09	-57.1	-69.9	3.8	7.45e-01	0	48	104	0	84	16907
2026-01-16 03:03:20.83	0.75	43.37	-51.6	-62.6	3.8	7.43e-01	0	48	104	0	75	12246
2026-01-16 03:03:21.84	0.41	43.66	-51.3	-62.3	3.8	7.43e-01	0	48	104	0	74	12662
2026-01-16 03:03:22.85	0.06	43.95	-50.9	-61.8	3.8	7.43e-01	0	48	104	0	73	12551
2026-01-16 03:03:23.86	359.70	44.24	-59.5	-76.7	3.8	7.44e-01	0	48	104	0	89	27788
2026-01-16 03:03:24.87	359.34	44.53	-54.5	-66.1	3.8	7.41e-01	0	48	104	0	81	13033
2026-01-16 03:03:25.88	358.97	44.82	-58.1	-71.9	3.8	7.46e-01	0	48	104	0	86	19059
2026-01-16 03:03:26.89	358.59	45.12	-50.7	-61.6	3.8	7.46e-01	0	48	104	0	73	12285
2026-01-16 03:03:27.90	358.21	45.41	-57.4	-70.5	3.8	7.47e-01	0	48	104	0	85	17228
2026-01-16 03:03:28.91	357.82	45.71	-51.2	-62.1	3.8	7.45e-01	0	48	104	0	74	12283
2026-01-16 03:03:29.92	357.42	46.00	-51.1	-62.1	3.8	7.44e-01	0	48	104	0	74	12313
2026-01-16 03:03:30.92	357.01	46.30	-50.9	-61.8	3.8	7.43e-01	0	48	104	0	73	12572
2026-01-16 03:03:31.93	356.60	46.59	-57.9	-71.8	3.8	7.44e-01	0	48	104	0	86	18939
2026-01-16 03:03:32.94	356.17	46.89	-54.4	-66.1	3.8	7.41e-01	0	48	104	0	79	14545
2026-01-16 03:03:33.95	355.74	47.19	-58.4	-72.9	3.8	7.47e-01	0	48	104	0	87	20134
2026-01-16 03:03:34.96	355.30	47.49	-50.9	-61.8	3.8	7.46e-01	0	48	104	0	73	12549
2026-01-16 03:03:35.97	354.85	47.79	-58.8	-73.9	3.8	7.42e-01	0	48	104	0	88	21505
2026-01-16 03:03:36.98	354.40	48.08	-51.0	-61.8	3.8	7.46e-01	0	48	104	0	73	12534
2026-01-16 03:03:37.99	353.93	48.38	-51.3	-62.2	3.8	7.46e-01	0	48	104	0	73	13247
2026-01-16 03:03:39.00	353.45	48.68	-51.0	-61.9	3.8	7.43e-01	0	48	104	0	73	12808
2026-01-16 03:03:40.01	352.97	48.98	-59.5	-76.5	3.8	7.45e-01	0	48	104	0	89	27197
2026-01-16 03:03:41.02	352.47	49.28	-54.1	-65.5	3.8	7.49e-01	0	48	104	0	78	14499
2026-01-16 03:03:42.03	351.97	49.58	-58.3	-72.4	3.8	7.43e-01	0	48	104	0	87	19046
2026-01-16 03:03:43.04	351.45	49.88	-51.0	-62.0	3.8	7.46e-01	0	48	104	0	74	12140
2026-01-16 03:03:44.05	350.93	50.18	-58.9	-74.1	3.8	7.46e-01	0	48	104	0	88	21905
2026-01-16 03:03:45.06	350.39	50.47	-50.6	-61.4	3.8	7.45e-01	0	48	104	0	73	12086
2026-01-16 03:03:46.07	349.84	50.77	-50.2	-60.9	3.8	7.48e-01	0	48	104	0	72	12078
2026-01-16 03:03:47.08	349.28	51.07	-50.3	-61.2	3.8	7.47e-01	0	48	104	0	72	12450
2026-01-16 03:03:48.09	348.71	51.36	-59.6	-76.7	3.8	7.45e-01	0	48	104	0	89	27955
2026-01-16 03:03:49.10	348.13	51.66	-54.1	-65.6	3.8	7.44e-01	0	48	104	0	78	14654
2026-01-16 03:03:50.10	347.55	51.95	-57.8	-71.3	3.8	7.43e-01	0	48	104	0	86	17856
2026-01-16 03:03:51.11	346.94	52.24	-50.1	-61.1	3.8	7.44e-01	0	48	104	0	72	12295
2026-01-16 03:03:52.12	346.32	52.53	-58.8	-73.8	3.8	7.44e-01	0	48	104	0	88	21257
2026-01-16 03:03:53.13	345.69	52.81	-50.2	-61.0	3.8	7.45e-01	0	48	104	0	72	12155
2026-01-16 03:03:54.14	345.05	53.10	-49.7	-60.5	3.8	7.46e-01	0	48	104	0	71	12114
2026-01-16 03:03:55.15	344.40	53.38	-50.1	-60.9	3.8	7.41e-01	0	48	104	0	71	12706
2026-01-16 03:03:56.16	343.73	53.67	-58.1	-72.4	3.9	7.42e-01	0	48	104	0	88	17907
2026-01-16 03:03:57.17	343.05	53.95	-54.2	-65.8	3.8	7.44e-01	0	48	104	0	78	14926
2026-01-16 03:03:58.18	342.35	54.22	-57.2	-70.1	3.9	7.45e-01	0	48	104	0	86	15495
2026-01-16 03:03:59.18	341.65	54.49	-51.1	-61.9	3.8	7.41e-01	0	48	104	0	74	12081
2026-01-16 03:04:00.19	340.93	54.76	-58.1	-71.8	3.8	7.49e-01	0	48	104	0	87	17798
2026-01-16 03:04:01.20	340.20	55.03	-51.1	-62.1	3.8	7.45e-01	0	48	104	0	74	12246
2026-01-16 03:04:02.21	339.45	55.30	-50.4	-61.1	3.8	7.45e-01	0	48	104	0	72	12317
2026-01-16 03:04:03.22	338.68	55.56	-51.2	-62.2	3.8	7.42e-01	0	48	104	0	72	13935
2026-01-16 03:04:04.23	337.90	55.82	-59.2	-75.4	3.9	7.43e-01	0	48	104	0	89	24119
2026-01-16 03:04:05.24	337.11	56.07	-53.1	-55.5	5.3	7.04e-01	0	48	104	0	78	4575
2026-01-16 03:04:06.25	336.30	56.32	-57.6	-62.2	14.0	6.03e-01	0	48	0	524288	86	6214
2026-01-16 03:04:07.26	335.48	56.56	-50.8	-52.2	24.3	6.02e-01	0	48	0	2621440	73	4155
2026-01-16 03:04:08.27	334.64	56.80	-56.1	-59.2	17.2	6.03e-01	0	48	0	4194304	84	4943
2026-01-16 03:04:09.28	333.79	57.04	-51.0	-52.3	24.1	6.02e-01	0	48	0	6291456	73	4240
2026-01-16 03:04:10.29	332.92	57.27	-50.6	-51.9	24.5	6.02e-01	0	48	0	7864320	73	4046
2026-01-16 03:04:11.30	332.04	57.49	-51.0	-52.4	24.1	6.05e-01	0	48	0	9961472	73	4261
2026-01-16 03:04:12.31	331.15	57.71	-51.0	-52.3	24.2	6.02e-01	0	48	0	12058624	73	4242
2026-01-16 03:04:13.31	330.24	57.92	-51.1	-52.5	24.0	6.03e-01	0	48	0	13631488	73	4322
2026-01-16 03:04:14.32	329.32	58.13	-50.8	-52.2	24.3	6.01e-01	0	48	0	15728640	73	4166
2026-01-16 03:04:15.34	328.37	58.33	-51.1	-52.5	24.0	6.01e-01	0	48	0	17301504	73	4328
2026-01-16 03:04:16.34	327.43	58.52	-50.8	-52.1	24.4	6.04e-01	0	48	0	19398656	73	4112
2026-01-16 03:04:17.35	326.46	58.71	-51.3	-52.7	23.8	6.04e-01	0	48	0	21495808	73	4409
2026-01-16 03:04:18.36	325.48	58.89	-51.2	-52.7	23.8	6.03e-01	0	48	0	23068672	73	4404
2026-01-16 03:04:19.37	324.48	59.06	-51.0	-52.4	24.1	6.02e-01	0	48	0	25165824	73	4250
2026-01-16 03:04:20.38	323.48	59.23	-51.5	-53.0	23.5	6.04e-01	0	48	0	27262976	73	4565
2026-01-16 03:04:21.39	322.46	59.38	-51.3	-52.7	23.8	6.05e-01	0	48	0	28835840	74	4166
2026-01-16 03:04:22.40	321.42	59.53	-51.0	-52.4	24.1	6.03e-01	0	48	0	30932992	74	4036
2026-01-16 03:04:23.41	320.38	59.67	-51.1	-52.4	24.1	6.03e-01	0	48	0	32505856	74	4046
2026-01-16 03:04:24.42	319.32	59.81	-51.4	-52.9	23.7	6.04e-01	0	48	0	34603008	74	4253
2026-01-16 03:04:25.43	318.26	59.93	-51.3	-52.7	23.8	6.01e-01	0	48	0	36175872	74	4190
2026-01-16 03:04:26.44	317.18	60.05	-51.2	-52.6	23.9	6.02e-01	0	48	0	38273024	74	4099
2026-01-16 03:04:27.45	316.10	60.15	-51.3	-52.8	23.7	6.05e-01	0	48	0	40370176	74	4203
2026-01-16 03:04:28.45	315.01	60.25	-51.0	-52.4	24.1	6.04e-01	0	48	0	41943040	74	4030
2026-01-16 03:04:29.46	313.91	60.34	-51.1	-52.5	23.9	6.03e-01	0	48	0	44040192	74	4076
2026-01-16 03:04:30.47	312.80	60.42	-51.0	-52.4	24.2	6.04e-01	0	48	0	46137344	73	4260
2026-01-16 03:04:31.48	311.69	60.49	-51.4	-52.9	23.6	6.03e-01	0	48	0	47710208	73	4501
2026-01-16 03:04:32.49	310.56	60.55	-51.0	-52.3	24.1	6.03e-01	0	48	0	49807360	73	4240
2026-01-16 03:04:33.50	309.44	60.60	-51.4	-52.8	23.7	6.01e-01	0	48	0	51380224	73	4478
2026-01-16 03:04:34.51	308.31	60.64	-51.8	-53.4	23.1	6.03e-01	0	48	0	53477376	74	4513
2026-01-16 03:04:35.52	307.17	60.67	-51.2	-52.6	23.9	6.04e-01	0	48	0	55574528	74	4121
2026-01-16 03:04:36.53	306.04	60.69	-51.7	-53.2	23.4	6.01e-01	0	48	0	57147392	74	4402
2026-01-16 03:04:37.54	304.90	60.70	-52.1	-53.7	22.9	6.04e-01	0	48	0	59244544	74	4684
2026-01-16 03:04:38.55	303.76	60.70	-51.7	-53.2	23.4	6.03e-01	0	48	0	61341696	74	4414
2026-01-16 03:04:39.56	302.62	60.69	-51.7	-53.2	23.4	6.03e-01	0	48	0	62914560	74	4403
2026-01-16 03:04:40.57	301.49	60.67	-51.5	-52.9	23.6	6.04e-01	0	48	0	65011712	74	4276
2026-01-16 03:04:41.58	300.35	60.64	-51.6	-53.1	23.4	6.02e-01	0	48	0	66584576	74	4346
2026-01-16 03:04:42.59	299.22	60.60	-51.1	-52.5	24.0	6.01e-01	0	48	0	68681728	74	4083
2026-01-16 03:04:43.60	298.09	60.55	-51.6	-53.0	23.5	6.02e-01	0	48	0	70254592	74	4339
2026-01-16 03:04:44.60	296.98	60.49	-51.5	-52.9	23.6	6.01e-01	0	48	0	72351744	74	4290
2026-01-16 03:04:45.61	295.87	60.42	-51.6	-53.1	23.5	6.04e-01	0	48	0	74448896	74	4347
2026-01-16 03:04:46.62	294.76	60.35	-51.7	-53.2	23.3	6.03e-01	0	48	0	76021760	74	4410
2026-01-16 03:04:47.63	293.65	60.26	-51.5	-52.9	23.7	6.01e-01	0	48	0	78118912	74	4272
2026-01-16 03:04:48.64	292.56	60.16	-51.6	-53.1	23.4	6.01e-01	0	48	0	79691776	74	4381
2026-01-16 03:04:49.65	291.47	60.06	-51.4	-52.9	23.7	6.02e-01	0	48	0	81788928	74	4251
2026-01-16 03:04:50.66	290.39	59.94	-51.8	-53.3	23.2	6.02e-01	0	48	0	83886080	74	4493
2026-01-16 03:04:51.67	289.33	59.82	-51.5	-52.9	23.7	6.03e-01	0	48	0	85458944	74	4265
2026-01-16 03:04:52.68	288.27	59.69	-51.9	-53.4	23.2	6.02e-01	0	48	0	87556096	74	4515
2026-01-16 03:04:53.69	287.22	59.55	-51.4	-52.8	23.7	6.04e-01	0	48	0	89653248	74	4231
2026-01-16 03:04:54.70	286.19	59.40	-51.9	-53.5	23.1	6.01e-01	0	48	0	91226112	74	4562
2026-01-16 03:04:55.71	285.17	59.24	-51.4	-52.8	23.6	6.04e-01	0	48	0	93323264	74	4214
2026-01-16 03:04:56.72	284.16	59.08	-51.2	-52.6	23.9	6.04e-01	0	48	0	94896128	74	4137
2026-01-16 03:04:57.73	283.16	58.90	-51.6	-53.1	23.5	6.03e-01	0	48	0	96993280	74	4365
2026-01-16 03:04:58.74	282.18	58.72	-51.1	-52.5	23.9	6.01e-01	0	48	0	99090432	73	4307
2026-01-16 03:04:59.75	281.21	58.54	-50.6	-51.9	24.5	6.02e-01	0	48	0	100663296	73	4032
2026-01-16 03:05:00.76	280.25	58.34	-51.0	-52.4	24.1	6.01e-01	0	48	0	102760448	73	4272
2026-01-16 03:05:01.77	279.31	58.14	-51.5	-53.0	23.6	6.02e-01	0	48	0	104857600	73	4547
2026-01-16 03:05:02.78	278.38	57.94	-50.6	-51.9	24.4	6.03e-01	0	48	0	106430464	73	4030
2026-01-16 03:05:03.79	277.47	57.73	-50.5	-51.7	24.6	6.03e-01	0	48	0	108527616	72	4186
2026-01-16 03:05:04.80	276.57	57.51	-51.1	-52.5	24.0	6.02e-01	0	48	0	110100480	72	4598
2026-01-16 03:05:05.81	275.69	57.28	-51.1	-52.5	24.0	6.03e-01	0	48	0	112197632	73	4311
2026-01-16 03:05:06.82	274.82	57.05	-50.9	-52.2	24.2	6.04e-01	0	48	0	113770496	73	4185
2026-01-16 03:05:07.83	273.97	56.82	-50.8	-52.1	24.3	6.04e-01	0	48	0	115867648	72	4373
2026-01-16 03:05:08.84	273.13	56.58	-51.0	-52.4	24.0	6.05e-01	0	48	0	117964800	72	4539
2026-01-16 03:05:09.85	272.30	56.33	-51.1	-52.5	23.9	6.05e-01	0	48	0	120061952	73	4328
2026-01-16 03:05:10.86	271.49	56.08	-51.0	-52.4	24.1	6.04e-01	0	48	0	121634816	73	4243
2026-01-16 03:05:11.86	270.71	55.83	-51.0	-52.3	24.1	6.00e-01	0	48	0	123731968	73	4230
2026-01-16 03:05:12.87	269.92	55.58	-51.1	-52.6	23.9	6.01e-01	0	48	0	125304832	73	4349
2026-01-16 03:05:13.88	269.16	55.32	-50.8	-52.2	24.1	6.03e-01	0	48	0	127401984	73	4188
2026-01-16 03:05:14.89	268.41	55.05	-50.7	-52.0	24.4	6.04e-01	0	48	0	128974848	72	4324
2026-01-16 03:05:15.90	267.67	54.78	-51.0	-52.4	24.1	6.02e-01	0	48	0	131072000	72	4542
2026-01-16 03:05:16.91	266.94	54.51	-50.8	-52.2	24.3	6.03e-01	0	48	0	133169152	72	4421
2026-01-16 03:05:17.92	266.23	54.24	-50.0	-51.2	25.0	6.00e-01	0	48	0	134742016	71	4186
2026-01-16 03:05:18.93	265.54	53.96	-50.3	-51.6	24.8	6.03e-01	0	48	0	136839168	71	4363
2026-01-16 03:05:19.94	264.85	53.68	-50.7	-52.0	24.5	6.03e-01	0	48	0	138936320	71	4598
2026-01-16 03:05:20.95	264.18	53.40	-49.9	-51.1	25.2	6.03e-01	0	48	0	140509184	71	4142
2026-01-16 03:05:21.96	263.53	53.11	-49.2	-50.3	26.0	6.02e-01	0	48	0	142606336	70	3983
2026-01-16 03:05:22.96	262.89	52.83	-48.8	-49.9	26.4	6.02e-01	0	48	0	144179200	69	4045
2026-01-16 03:05:23.97	262.26	52.54	-49.6	-50.8	25.5	6.03e-01	0	48	0	146276352	69	4477
2026-01-16 03:05:24.98	261.64	52.25	-49.9	-51.1	25.1	6.03e-01	0	48	0	148373504	70	4389
2026-01-16 03:05:25.99	261.03	51.96	-49.0	-50.2	26.2	6.04e-01	0	48	0	149946368	70	3925
2026-01-16 03:05:27.00	260.44	51.67	-49.2	-50.3	26.0	6.02e-01	0	48	0	152043520	69	4239
2026-01-16 03:05:28.01	259.85	51.37	-49.2	-50.3	26.0	6.03e-01	0	48	0	153616384	69	4237
2026-01-16 03:05:29.02	259.28	51.08	-49.5	-50.7	25.7	6.03e-01	0	48	0	155713536	69	4421
2026-01-16 03:05:30.02	258.73	50.78	-49.7	-50.9	25.2	6.04e-01	0	48	0	157286400	70	4273
2026-01-16 03:05:31.03	258.18	50.48	-49.6	-50.8	25.6	6.02e-01	0	48	0	159383552	70	4212
2026-01-16 03:05:32.04	257.64	50.19	-49.4	-50.6	25.8	6.03e-01	0	48	0	161480704	70	4125
2026-01-16 03:05:33.05	257.11	49.89	-50.0	-51.3	25.2	6.05e-01	0	48	0	163053568	70	4443
2026-01-16 03:05:34.06	256.60	49.59	-49.9	-51.2	25.2	6.02e-01	0	48	0	165150720	70	4413
2026-01-16 03:05:35.07	256.09	49.29	-49.4	-50.6	25.7	6.03e-01	0	48	0	167247872	70	4129
2026-01-16 03:05:36.08	255.59	48.99	-49.5	-50.7	25.6	6.03e-01	0	48	0	168820736	70	4148
2026-01-16 03:05:37.09	255.11	48.69	-49.4	-50.6	25.7	6.04e-01	0	48	0	170917888	70	4135
2026-01-16 03:05:38.10	254.63	48.39	-49.0	-50.2	26.1	6.01e-01	0	48	0	172490752	70	3918
2026-01-16 03:05:39.11	254.16	48.09	-49.7	-51.0	25.4	6.04e-01	0	48	0	174587904	70	4306
2026-01-16 03:05:40.12	253.70	47.79	-50.0	-51.3	25.1	6.02e-01	0	48	0	176685056	70	4453
2026-01-16 03:05:41.13	253.25	47.49	-49.5	-50.6	25.6	6.02e-01	0	48	0	178257920	70	4145
2026-01-16 03:05:42.13	252.81	47.19	-49.5	-50.7	25.5	6.04e-01	0	48	0	180355072	70	4185
2026-01-16 03:05:43.14	252.38	46.90	-49.3	-50.4	25.9	6.02e-01	0	48	0	182452224	70	4050
2026-01-16 03:05:44.15	251.96	46.60	-49.6	-50.8	25.6	6.03e-01	0	48	0	184025088	70	4217
2026-01-16 03:05:45.17	251.54	46.30	-49.6	-50.8	25.6	6.02e-01	0	48	0	186122240	70	4232
2026-01-16 03:05:46.18	251.13	46.00	-49.7	-50.9	25.5	6.01e-01	0	48	0	187695104	70	4257
2026-01-16 03:05:47.18	250.73	45.71	-49.5	-50.7	25.6	6.01e-01	0	48	0	189792256	70	4159
2026-01-16 03:05:48.19	250.34	45.41	-49.5	-50.7	25.6	6.04e-01	0	48	0	191889408	70	4160
2026-01-16 03:05:49.20	249.95	45.11	-49.4	-50.6	25.7	6.02e-01	0	48	0	193462272	70	4124
2026-01-16 03:05:50.21	249.57	44.82	-49.8	-51.0	25.4	6.03e-01	0	48	0	195559424	70	4324
2026-01-16 03:05:51.22	249.20	44.53	-50.0	-51.2	25.2	6.03e-01	0	48	0	197132288	70	4424
2026-01-16 03:05:52.23	248.84	44.24	-50.1	-51.4	25.0	6.02e-01	0	48	0	199229440	70	4515
2026-01-16 03:05:53.24	248.48	43.94	-49.9	-51.2	25.2	6.03e-01	0	48	0	201326592	70	4403
2026-01-16 03:05:54.25	248.13	43.65	-49.9	-51.1	25.3	6.03e-01	0	48	0	202899456	70	4356
2026-01-16 03:05:55.26	247.78	43.37	-50.0	-51.3	25.0	6.02e-01	0	48	0	204996608	70	4450
2026-01-16 03:05:56.27	247.44	43.08	-50.1	-51.3	25.0	6.02e-01	0	48	0	206569472	70	4492
2026-01-16 03:05:57.28	247.11	42.79	-50.1	-51.3	25.0	6.03e-01	0	48	0	208666624	70	4486
2026-01-16 03:05:58.29	246.79	42.50	-50.6	-52.0	24.4	6.02e-01	0	48	0	210763776	71	4574
2026-01-16 03:05:59.30	246.47	42.22	-50.6	-52.0	24.4	6.01e-01	0	48	0	212336640	71	4546
2026-01-16 03:06:00.31	246.15	41.94	-50.3	-51.6	24.7	6.03e-01	0	48	0	214433792	71	4378
2026-01-16 03:06:01.32	245.84	41.66	-50.4	-51.6	24.7	6.02e-01	0	48	0	216006656	71	4383
2026-01-16 03:06:02.33	245.54	41.38	-51.0	-52.4	23.9	6.04e-01	0	48	0	218103808	72	4545
2026-01-16 03:06:03.34	245.24	41.10	-51.2	-52.6	23.7	6.03e-01	0	48	0	220200960	73	4387
2026-01-16 03:06:04.35	244.95	40.82	-50.8	-52.2	24.1	6.03e-01	0	48	0	221773824	73	4169
2026-01-16 03:06:05.36	244.66	40.54	-50.8	-52.2	24.1	6.04e-01	0	48	0	223870976	73	4178
2026-01-16 03:06:06.37	244.38	40.27	-51.2	-52.7	23.7	6.04e-01	0	48	0	225968128	73	4406
2026-01-16 03:06:07.38	244.10	40.00	-51.3	-52.7	23.6	6.03e-01	0	48	0	227540992	73	4440
2026-01-16 03:06:08.39	243.82	39.72	-51.3	-52.8	23.5	6.02e-01	0	48	0	229638144	73	4467
2026-01-16 03:06:09.40	243.56	39.45	-50.9	-52.3	23.9	6.03e-01	0	48	0	231211008	73	4221
2026-01-16 03:06:10.41	243.29	39.18	-50.8	-52.1	24.1	6.03e-01	0	48	0	233308160	73	4119
2026-01-16 03:06:11.42	243.03	38.92	-51.0	-52.4	23.9	6.02e-01	0	48	0	234881024	73	4270
2026-01-16 03:06:12.42	242.78	38.65	-51.2	-52.6	23.7	6.03e-01	0	48	0	236978176	73	4378
2026-01-16 03:06:13.43	242.53	38.39	-51.5	-53.0	23.3	6.01e-01	0	48	0	239075328	73	4591
2026-01-16 03:06:14.44	242.28	38.13	-51.8	-53.4	23.0	6.00e-01	0	48	0	241172480	74	4496
2026-01-16 03:06:15.45	242.04	37.87	-51.5	-53.0	23.2	6.03e-01	0	48	0	242745344	74	4329
2026-01-16 03:06:16.46	241.80	37.61	-51.2	-52.6	23.7	6.05e-01	0	48	0	244842496	74	4111
2026-01-16 03:06:17.47	241.56	37.35	-51.3	-52.7	23.6	6.04e-01	0	48	0	246415360	74	4155
2026-01-16 03:06:18.48	241.33	37.09	-51.7	-53.3	23.0	6.03e-01	0	48	0	248512512	74	4448
2026-01-16 03:06:19.49	241.10	36.84	-51.9	-53.5	23.0	6.03e-01	0	48	0	250085376	74	4547
2026-01-16 03:06:20.50	240.88	36.58	-51.8	-53.3	23.0	6.01e-01	0	48	0	252182528	74	4476
2026-01-16 03:06:21.51	240.66	36.33	-51.5	-53.0	23.3	6.04e-01	0	48	0	254279680	74	4335
2026-01-16 03:06:22.52	240.44	36.08	-51.2	-52.6	23.7	6.04e-01	0	48	0	255852544	74	4110
2026-01-16 03:06:23.53	240.23	35.83	-51.1	-52.5	23.7	6.05e-01	0	48	0	257949696	74	4091
2026-01-16 03:06:24.54	240.02	35.59	-51.2	-52.7	23.6	6.03e-01	0	48	0	259522560	74	4166
2026-01-16 03:06:25.55	239.81	35.34	-51.1	-52.5	23.7	6.03e-01	0	48	0	261619712	74	4095
2026-01-16 03:06:26.56	239.61	35.10	-50.9	-52.3	23.9	6.04e-01	0	48	0	263716864	73	4201
2026-01-16 03:06:27.57	239.41	34.86	-50.6	-52.0	24.2	6.02e-01	0	48	0	265289728	73	4074
2026-01-16 03:06:28.58	239.21	34.62	-50.2	-51.4	24.7	6.05e-01	0	48	0	267386880	72	4051
2026-01-16 03:06:29.59	239.02	34.38	-50.1	-51.4	24.8	6.03e-01	0	48	0	269484032	72	4014
2026-01-16 03:06:30.60	238.83	34.14	-50.1	-51.4	24.8	6.02e-01	0	48	0	271056896	72	4039
2026-01-16 03:06:31.61	238.64	33.90	-50.1	-51.4	24.8	6.03e-01	0	48	0	273154048	72	4006
2026-01-16 03:06:32.62	238.45	33.67	-50.0	-51.3	24.9	6.04e-01	0	48	0	274726912	72	3972
2026-01-16 03:06:33.62	238.27	33.44	-50.0	-51.3	24.9	6.02e-01	0	48	0	276824064	72	3962
2026-01-16 03:06:34.63	238.09	33.21	-50.0	-51.2	25.0	6.02e-01	0	48	0	278396928	71	4180
2026-01-16 03:06:35.64	237.91	32.98	-49.9	-51.2	25.0	6.04e-01	0	48	0	280494080	71	4174
2026-01-16 03:06:36.66	237.74	32.75	-50.0	-51.2	25.0	6.02e-01	0	48	0	282591232	71	4187
2026-01-16 03:06:37.66	237.56	32.52	-49.8	-51.0	25.2	6.01e-01	0	48	0	284688384	71	4085
2026-01-16 03:06:38.67	237.39	32.30	-49.6	-50.8	25.4	6.04e-01	0	48	0	286261248	71	3985
2026-01-16 03:06:39.69	237.23	32.07	-49.6	-50.8	25.4	6.04e-01	0	48	0	288358400	71	3993
2026-01-16 03:06:40.70	237.06	31.85	-49.4	-50.6	25.5	6.01e-01	0	48	0	289931264	70	4131
2026-01-16 03:06:41.70	236.90	31.63	-49.3	-50.4	25.7	6.03e-01	0	48	0	292028416	70	4050
2026-01-16 03:06:42.71	236.74	31.41	-49.4	-50.6	25.6	6.05e-01	0	48	0	293601280	70	4111
2026-01-16 03:06:43.72	236.58	31.20	-49.4	-50.6	25.6	6.02e-01	0	48	0	295698432	70	4138
2026-01-16 03:06:44.73	236.42	30.98	-49.6	-50.8	25.4	6.03e-01	0	48	0	297795584	70	4220
2026-01-16 03:06:45.74	236.27	30.76	-49.6	-50.8	25.3	6.04e-01	0	48	0	299368448	70	4242
2026-01-16 03:06:46.75	236.12	30.55	-49.5	-50.8	25.3	6.04e-01	0	48	0	301465600	70	4196
2026-01-16 03:06:47.76	235.97	30.34	-49.5	-50.7	25.4	6.01e-01	0	48	0	303562752	70	4185
2026-01-16 03:06:48.77	235.82	30.13	-49.4	-50.6	25.5	6.05e-01	0	48	0	305135616	70	4105
2026-01-16 03:06:49.78	235.67	29.92	-49.3	-50.5	25.6	6.02e-01	0	48	0	307232768	70	4076
2026-01-16 03:06:50.79	235.53	29.71	-49.3	-50.5	25.6	6.04e-01	0	48	0	308805632	70	4075
2026-01-16 03:06:51.80	235.39	29.51	-49.3	-50.5	25.6	6.01e-01	0	48	0	310902784	70	4092
2026-01-16 03:06:52.81	235.25	29.30	-49.4	-50.7	25.5	6.03e-01	0	48	0	312999936	70	4146
2026-01-16 03:06:53.82	235.11	29.10	-49.4	-50.7	25.5	6.03e-01	0	48	0	314572800	70	4146
2026-01-16 03:06:54.82	234.98	28.90	-49.4	-50.7	25.4	6.03e-01	0	48	0	316669952	70	4150
2026-01-16 03:06:55.83	234.84	28.70	-49.5	-50.8	25.3	6.03e-01	0	48	0	318242816	70	4201
2026-01-16 03:06:56.84	234.71	28.50	-49.5	-50.7	25.3	6.02e-01	0	48	0	320339968	70	4180
2026-01-16 03:06:57.85	234.58	28.30	-49.4	-50.7	25.4	6.03e-01	0	48	0	322437120	70	4150
2026-01-16 03:06:58.86	234.45	28.10	-49.4	-50.7	25.4	6.00e-01	0	48	0	324009984	70	4154
2026-01-16 03:06:59.87	234.32	27.91	-49.4	-50.6	25.5	6.05e-01	0	48	0	326107136	70	4120
2026-01-16 03:07:00.88	234.20	27.72	-49.4	-50.7	25.4	6.04e-01	0	48	0	327680000	70	4158
2026-01-16 03:07:01.89	234.07	27.52	-49.5	-50.7	25.3	6.02e-01	0	48	0	329777152	70	4193
2026-01-16 03:07:02.90	233.95	27.33	-49.6	-50.8	25.3	6.04e-01	0	48	0	331874304	70	4227
2026-01-16 03:07:03.91	233.83	27.14	-49.8	-51.0	25.1	6.03e-01	0	48	0	333447168	70	4332
2026-01-16 03:07:04.92	233.71	26.95	-49.8	-51.1	25.0	6.01e-01	0	48	0	335544320	70	4357
2026-01-16 03:07:05.93	233.59	26.77	-50.0	-51.3	24.7	6.03e-01	0	48	0	337117184	70	4463
2026-01-16 03:07:06.94	233.47	26.58	-50.0	-51.4	24.7	6.03e-01	0	48	0	339214336	70	4495
2026-01-16 03:07:07.95	233.36	26.39	-50.0	-51.3	24.7	6.02e-01	0	48	0	341311488	70	4467
2026-01-16 03:07:08.96	233.24	26.21	-50.1	-51.4	24.7	6.03e-01	0	48	0	342884352	70	4512
2026-01-16 03:07:09.96	233.13	26.03	-49.9	-51.2	24.9	6.03e-01	0	48	0	344981504	70	4404
2026-01-16 03:07:10.97	233.02	25.85	-49.8	-51.1	25.0	6.01e-01	0	48	0	347078656	70	4363
2026-01-16 03:07:11.98	232.91	25.67	-49.9	-51.2	24.9	6.01e-01	0	48	0	348651520	70	4401
2026-01-16 03:07:12.99	232.80	25.49	-49.7	-51.0	25.1	6.03e-01	0	48	0	350748672	70	4309
2026-01-16 03:07:14.00	232.70	25.31	-49.8	-51.1	25.0	6.03e-01	0	48	0	352321536	70	4347
2026-01-16 03:07:15.01	232.59	25.14	-49.9	-51.2	24.9	6.05e-01	0	48	0	354418688	70	4399
2026-01-16 03:07:16.02	232.48	24.96	-49.9	-51.2	24.9	6.01e-01	0	48	0	355991552	70	4399
2026-01-16 03:07:17.02	232.38	24.79	-49.9	-51.2	24.9	6.02e-01	0	48	0	358088704	70	4402
2026-01-16 03:07:18.03	232.28	24.61	-49.9	-51.2	24.9	6.02e-01	0	48	0	360185856	70	4400
2026-01-16 03:07:19.04	232.18	24.44	-49.8	-51.1	24.9	6.05e-01	0	48	0	362283008	70	4380
2026-01-16 03:07:20.05	232.08	24.27	-49.9	-51.2	24.8	6.03e-01	0	49	0	363855872	70	4415
2026-01-16 03:07:21.06	231.98	24.10	-50.0	-51.3	24.7	6.03e-01	0	48	0	365953024	70	4471
2026-01-16 03:07:22.07	231.88	23.93	-49.9	-51.2	24.8	6.02e-01	0	48	0	367525888	70	4421
2026-01-16 03:07:23.08	231.79	23.77	-50.0	-51.2	24.8	6.03e-01	0	48	0	369623040	70	4440
2026-01-16 03:07:24.09	231.69	23.60	-49.9	-51.2	24.8	6.01e-01	0	48	0	371195904	70	4412
2026-01-16 03:07:25.10	231.60	23.43	-49.9	-51.2	24.8	6.01e-01	0	48	0	373293056	70	4435
2026-01-16 03:07:26.10	231.50	23.27	-50.0	-51.3	24.7	6.03e-01	0	48	0	375390208	70	4463
2026-01-16 03:07:27.11	231.41	23.11	-50.0	-51.4	24.7	6.01e-01	0	48	0	376963072	70	4494
2026-01-16 03:07:28.12	231.32	22.95	-50.1	-51.4	24.5	6.03e-01	0	49	0	379060224	70	4533
2026-01-16 03:07:29.13	231.23	22.78	-50.1	-51.4	24.5	6.03e-01	0	48	0	380633088	70	4513
2026-01-16 03:07:30.14	231.14	22.62	-50.0	-51.3	24.7	6.04e-01	0	48	0	382730240	70	4461
2026-01-16 03:07:31.15	231.05	22.47	-50.0	-51.3	24.6	6.03e-01	0	48	0	384827392	70	4484
2026-01-16 03:07:32.16	230.97	22.31	-50.0	-51.3	24.7	6.02e-01	0	48	0	386400256	70	4473
2026-01-16 03:07:33.17	230.88	22.15	-50.0	-51.3	24.7	6.02e-01	0	48	0	388497408	70	4486
2026-01-16 03:07:34.18	230.80	21.99	-50.0	-51.4	24.6	6.02e-01	0	48	0	390594560	70	4494
2026-01-16 03:07:35.19	230.71	21.84	-50.0	-51.3	24.7	6.04e-01	0	48	0	392167424	70	4464
2026-01-16 03:07:36.20	230.63	21.68	-49.9	-51.2	24.8	6.04e-01	0	48	0	394264576	70	4421
2026-01-16 03:07:37.21	230.55	21.53	-49.9	-51.2	24.7	6.05e-01	0	48	0	395837440	70	4437
2026-01-16 03:07:38.22	230.46	21.38	-50.0	-51.3	24.7	6.02e-01	0	48	0	397934592	70	4486
2026-01-16 03:07:39.23	230.38	21.23	-50.0	-51.4	24.6	6.03e-01	0	48	0	399507456	70	4501
2026-01-16 03:07:40.24	230.30	21.08	-50.0	-51.3	24.6	6.04e-01	0	48	0	401604608	70	4480
2026-01-16 03:07:41.25	230.22	20.93	-50.1	-51.4	24.6	6.01e-01	0	48	0	403701760	70	4538
2026-01-16 03:07:42.26	230.15	20.78	-50.1	-51.4	24.6	6.03e-01	0	48	0	405798912	70	4508
2026-01-16 03:07:43.26	230.07	20.63	-50.1	-51.4	24.6	6.02e-01	0	48	0	407371776	70	4527
2026-01-16 03:07:44.27	229.99	20.48	-50.1	-51.4	24.5	6.02e-01	0	48	0	409468928	70	4536
2026-01-16 03:07:45.28	229.92	20.34	-50.1	-51.4	24.5	6.02e-01	0	48	0	411041792	70	4526
2026-01-16 03:07:46.29	229.84	20.19	-49.9	-51.2	24.7	6.01e-01	0	48	0	413138944	70	4441
2026-01-16 03:07:47.30	229.77	20.05	-50.0	-51.3	24.6	6.03e-01	0	48	0	414711808	70	4480
2026-01-16 03:07:48.31	229.69	19.90	-50.0	-51.3	24.6	6.03e-01	0	48	0	416808960	70	4455
2026-01-16 03:07:49.32	229.62	19.76	-49.9	-51.2	24.7	6.03e-01	0	48	0	418906112	70	4440
2026-01-16 03:07:50.33	229.55	19.62	-50.0	-51.3	24.6	6.01e-01	0	48	0	420478976	70	4456
2026-01-16 03:07:51.33	229.48	19.48	-50.0	-51.3	24.6	6.04e-01	0	48	0	422576128	70	4486
2026-01-16 03:07:52.34	229.41	19.34	-49.9	-51.1	24.8	6.02e-01	0	48	0	424673280	70	4388
2026-01-16 03:07:53.35	229.34	19.20	-49.9	-51.2	24.7	6.04e-01	0	48	0	426246144	70	4419
2026-01-16 03:07:54.36	229.27	19.06	-49.9	-51.2	24.6	6.02e-01	0	48	0	428343296	70	4440
2026-01-16 03:07:55.38	229.20	18.92	-49.9	-51.1	24.7	6.03e-01	0	48	0	429916160	70	4391
2026-01-16 03:07:56.38	229.13	18.79	-50.0	-51.3	24.6	6.05e-01	0	48	0	432013312	70	4472
2026-01-16 03:07:57.39	229.07	18.65	-50.1	-51.4	24.5	6.04e-01	0	48	0	434110464	70	4530
2026-01-16 03:07:58.40	229.00	18.52	-50.1	-51.4	24.5	6.02e-01	0	48	0	435683328	70	4524
2026-01-16 03:07:59.41	228.93	18.38	-50.0	-51.4	24.5	6.04e-01	0	48	0	437780480	70	4513
2026-01-16 03:08:00.42	228.87	18.25	-50.1	-51.4	24.4	6.02e-01	0	48	0	439353344	70	4544
2026-01-16 03:08:01.43	228.80	18.12	-50.0	-51.4	24.5	6.04e-01	0	48	0	441450496	70	4495
2026-01-16 03:08:02.44	228.74	17.98	-49.9	-51.3	24.6	6.03e-01	0	49	0	443547648	70	4442
2026-01-16 03:08:03.45	228.68	17.85	-49.9	-51.2	24.6	6.01e-01	0	48	0	445120512	70	4422
2026-01-16 03:08:04.45	228.62	17.72	-49.9	-51.2	24.6	6.02e-01	0	48	0	447217664	70	4421
2026-01-16 03:08:05.46	228.55	17.59	-49.9	-51.2	24.6	6.04e-01	0	48	0	449314816	70	4420
2026-01-16 03:08:06.47	228.49	17.46	-49.9	-51.2	24.6	6.02e-01	0	48	0	450887680	70	4422
2026-01-16 03:08:07.48	228.43	17.33	-50.0	-51.3	24.6	6.02e-01	0	49	0	452984832	70	4458
2026-01-16 03:08:08.49	228.37	17.21	-49.8	-51.1	24.7	6.04e-01	0	48	0	454557696	70	4372
2026-01-16 03:08:09.50	228.31	17.08	-49.9	-51.2	24.6	6.01e-01	0	49	0	456654848	70	4437
2026-01-16 03:08:10.51	228.25	16.95	-49.8	-51.1	24.7	6.03e-01	0	48	0	458227712	70	4354
2026-01-16 03:08:11.52	228.19	16.83	-49.8	-51.1	24.7	6.02e-01	0	48	0	460324864	70	4347
2026-01-16 03:08:12.53	228.14	16.70	-49.8	-51.1	24.7	6.01e-01	0	48	0	462422016	70	4350
2026-01-16 03:08:13.54	228.08	16.58	-49.7	-51.0	24.7	6.03e-01	0	48	0	463994880	70	4334
2026-01-16 03:08:14.55	228.02	16.45	-49.7	-51.0	24.7	6.04e-01	0	48	0	466092032	70	4313
2026-01-16 03:08:15.56	227.96	16.33	-49.7	-51.0	24.8	6.03e-01	0	49	0	468189184	70	4295
2026-01-16 03:08:16.57	227.91	16.21	-49.8	-51.1	24.7	6.04e-01	0	48	0	469762048	70	4353
2026-01-16 03:08:17.58	227.85	16.08	-49.7	-51.0	24.7	6.02e-01	0	48	0	471859200	70	4322
2026-01-16 03:08:18.58	227.80	15.96	-49.7	-51.0	24.8	6.03e-01	0	48	0	473432064	70	4319
2026-01-16 03:08:19.59	227.74	15.84	-49.8	-51.1	24.7	6.02e-01	0	48	0	475529216	70	4342
2026-01-16 03:08:20.60	227.69	15.72	-49.7	-51.0	24.8	6.00e-01	0	48	0	477626368	70	4294
2026-01-16 03:08:21.61	227.64	15.60	-49.7	-51.1	24.7	6.03e-01	0	48	0	479199232	70	4342
2026-01-16 03:08:22.62	227.58	15.48	-49.7	-51.0	24.8	6.04e-01	0	49	0	481296384	70	4330
2026-01-16 03:08:23.63	227.53	15.37	-49.6	-50.9	24.8	6.04e-01	0	48	0	482869248	70	4280
2026-01-16 03:08:24.64	227.48	15.25	-49.6	-50.9	24.8	6.02e-01	0	48	0	484966400	70	4275
2026-01-16 03:08:25.65	227.43	15.13	-49.7	-51.0	24.8	6.03e-01	0	48	0	487063552	70	4308
2026-01-16 03:08:26.66	227.38	15.02	-49.8	-51.1	24.7	6.03e-01	0	49	0	488636416	70	4373
2026-01-16 03:08:27.67	227.33	14.90	-49.8	-51.1	24.7	6.04e-01	0	48	0	490733568	70	4361
2026-01-16 03:08:28.68	227.27	14.78	-49.8	-51.1	24.7	6.03e-01	0	48	0	492306432	70	4371
2026-01-16 03:08:29.69	227.23	14.67	-49.8	-51.1	24.7	6.02e-01	0	49	0	494403584	70	4354
2026-01-16 03:08:30.70	227.18	14.56	-49.9	-51.3	24.5	6.03e-01	0	48	0	496500736	70	4450
2026-01-16 03:08:31.71	227.13	14.44	-49.8	-51.2	24.6	6.04e-01	0	48	0	498073600	70	4401
2026-01-16 03:08:32.72	227.08	14.33	-49.8	-51.2	24.6	6.02e-01	0	48	0	500170752	70	4394
2026-01-16 03:08:33.73	227.03	14.22	-49.9	-51.2	24.5	6.04e-01	0	48	0	501743616	70	4428
2026-01-16 03:08:34.73	226.98	14.11	-49.8	-51.2	24.5	6.04e-01	0	48	0	503840768	70	4404
2026-01-16 03:08:35.74	226.94	14.00	-50.0	-51.4	24.4	6.04e-01	0	48	0	505937920	70	4515
2026-01-16 03:08:36.75	226.89	13.88	-49.9	-51.3	24.5	6.02e-01	0	49	0	507510784	70	4447
2026-01-16 03:08:37.76	226.84	13.77	-50.0	-51.3	24.4	6.03e-01	0	48	0	509607936	70	4486
2026-01-16 03:08:38.77	226.80	13.66	-50.1	-51.5	24.3	6.04e-01	0	49	0	511705088	70	4565
2026-01-16 03:08:39.77	226.75	13.56	-50.2	-51.6	24.1	6.01e-01	0	48	0	513277952	70	4628
2026-01-16 03:08:40.79	226.70	13.45	-50.1	-51.5	24.2	6.03e-01	0	49	0	515375104	71	4311
2026-01-16 03:08:41.80	226.66	13.34	-50.2	-51.6	24.2	6.01e-01	0	48	0	516947968	71	4341
2026-01-16 03:08:42.80	226.62	13.23	-50.1	-51.4	24.3	6.03e-01	0	48	0	519045120	71	4278
2026-01-16 03:08:43.81	226.57	13.13	-50.2	-51.5	24.2	6.02e-01	0	49	0	520617984	71	4333
2026-01-16 03:08:44.82	226.53	13.02	-50.1	-51.4	24.2	6.02e-01	0	48	0	522715136	71	4290
2026-01-16 03:08:45.83	226.48	12.91	-50.1	-51.4	24.2	6.06e-01	0	48	0	524812288	71	4277
2026-01-16 03:08:46.84	226.44	12.81	-50.1	-51.4	24.2	6.03e-01	0	48	0	526909440	71	4290
2026-01-16 03:08:47.85	226.40	12.70	-50.1	-51.5	24.2	6.03e-01	0	48	0	528482304	71	4308
2026-01-16 03:08:48.86	226.36	12.60	-50.1	-51.4	24.2	6.03e-01	0	48	0	530579456	71	4277
2026-01-16 03:08:49.87	226.31	12.49	-50.0	-51.4	24.2	6.03e-01	0	49	0	532152320	71	4260
2026-01-16 03:08:50.88	226.27	12.39	-50.0	-51.4	24.3	6.03e-01	0	48	0	534249472	71	4265
2026-01-16 03:08:51.89	226.23	12.29	-50.2	-51.5	24.1	6.04e-01	0	48	0	535822336	71	4333
2026-01-16 03:08:52.90	226.19	12.18	-50.1	-51.4	24.2	6.03e-01	0	49	0	537919488	71	4283
2026-01-16 03:08:53.91	226.15	12.08	-50.0	-51.4	24.2	6.04e-01	0	49	0	540016640	71	4258
2026-01-16 03:08:54.93	226.11	11.98	-50.0	-51.4	24.2	5.99e-01	0	48	0	541589504	71	4261
2026-01-16 03:08:55.93	226.07	11.88	-50.1	-51.4	24.1	6.03e-01	0	48	0	543686656	71	4283
2026-01-16 03:08:56.94	226.03	11.78	-50.2	-51.6	24.0	6.01e-01	0	48	0	545783808	71	4355
2026-01-16 03:08:57.95	225.99	11.68	-50.2	-51.6	23.9	6.03e-01	0	49	0	547356672	71	4366
2026-01-16 03:08:58.96	225.95	11.58	-50.3	-51.7	23.8	6.01e-01	0	48	0	549453824	71	4415
2026-01-16 03:08:59.97	225.91	11.48	-50.3	-51.7	23.8	6.01e-01	0	48	0	551026688	71	4426
2026-01-16 03:09:00.97	225.87	11.38	-50.3	-51.7	23.8	6.04e-01	0	49	0	553123840	71	4437
2026-01-16 03:09:01.98	225.84	11.28	-50.3	-51.8	23.8	6.02e-01	0	49	0	555220992	71	4442
2026-01-16 03:09:02.99	225.80	11.18	-50.5	-51.9	23.7	6.04e-01	0	49	0	556793856	71	4536
2026-01-16 03:09:04.00	225.76	11.08	-50.4	-51.8	23.7	6.03e-01	0	48	0	558891008	71	4489
2026-01-16 03:09:05.01	225.72	10.99	-50.4	-51.8	23.7	6.01e-01	0	48	0	560463872	71	4479
2026-01-16 03:09:06.02	225.69	10.89	-50.4	-51.9	23.6	6.03e-01	0	49	0	562561024	71	4525
2026-01-16 03:09:07.02	225.65	10.79	-50.4	-51.8	23.7	6.04e-01	0	48	0	564133888	71	4489
2026-01-16 03:09:08.03	225.61	10.70	-50.4	-51.8	23.7	6.04e-01	0	48	0	566231040	71	4470
2026-01-16 03:09:09.04	225.58	10.60	-50.4	-51.8	23.7	6.02e-01	0	48	0	568328192	71	4485
2026-01-16 03:09:10.05	225.54	10.51	-50.3	-51.8	23.7	6.03e-01	0	49	0	570425344	71	4451
2026-01-16 03:09:11.06	225.50	10.41	-50.3	-51.7	23.8	6.03e-01	0	49	0	571998208	71	4430
2026-01-16 03:09:12.07	225.47	10.32	-50.3	-51.7	23.7	6.03e-01	0	49	0	574095360	71	4435
2026-01-16 03:09:13.08	225.43	10.22	-50.3	-51.7	23.7	6.02e-01	0	48	0	575668224	71	4425
2026-01-16 03:09:14.09	225.40	10.13	-50.3	-51.7	23.7	6.02e-01	0	48	0	577765376	71	4425
2026-01-16 03:09:15.10	225.36	10.04	-50.4	-51.8	23.7	6.04e-01	0	48	0	579338240	71	4484
2026-01-16 03:09:16.11	225.33	9.94	-50.4	-51.8	23.7	6.03e-01	0	48	0	581435392	71	4472
2026-01-16 03:09:17.12	225.30	9.85	-50.3	-51.7	23.7	6.04e-01	0	48	0	583532544	71	4437
2026-01-16 03:09:18.13	225.26	9.76	-50.3	-51.7	23.7	6.02e-01	0	48	0	585105408	71	4441
2026-01-16 03:09:19.14	225.23	9.67	-50.4	-51.8	23.7	6.01e-01	0	48	0	587202560	71	4463
2026-01-16 03:09:20.15	225.20	9.57	-50.2	-51.6	23.8	6.05e-01	0	48	0	589299712	71	4375
2026-01-16 03:09:21.16	225.16	9.48	-50.5	-52.0	23.5	6.03e-01	0	48	0	590872576	71	4571
2026-01-16 03:09:22.17	225.13	9.39	-50.5	-51.9	23.5	6.03e-01	0	49	0	592969728	71	4524
2026-01-16 03:09:23.18	225.10	9.30	-50.5	-51.9	23.5	6.04e-01	0	49	0	594542592	71	4545
2026-01-16 03:09:24.19	225.06	9.21	-50.4	-51.8	23.6	6.01e-01	0	48	0	596639744	71	4476
2026-01-16 03:09:25.19	225.03	9.12	-50.5	-52.0	23.5	6.04e-01	0	49	0	598736896	71	4558
2026-01-16 03:09:26.20	225.00	9.03	-50.5	-52.0	23.4	6.03e-01	0	49	0	600309760	71	4575
2026-01-16 03:09:27.21	224.97	8.94	-50.6	-52.1	23.4	6.03e-01	0	48	0	602406912	71	4607
2026-01-16 03:09:28.22	224.94	8.85	-50.5	-51.9	23.5	6.02e-01	0	48	0	603979776	71	4531
2026-01-16 03:09:29.23	224.91	8.77	-50.7	-52.2	23.2	6.05e-01	0	48	0	606076928	72	4405
2026-01-16 03:09:30.24	224.88	8.68	-50.6	-52.1	23.2	6.04e-01	0	49	0	608174080	72	4359
2026-01-16 03:09:31.25	224.85	8.59	-50.6	-52.1	23.2	6.03e-01	0	48	0	609746944	72	4388
2026-01-16 03:09:32.26	224.81	8.50	-50.5	-52.0	23.3	6.03e-01	0	48	0	611844096	72	4322
2026-01-16 03:09:33.27	224.78	8.42	-50.6	-52.0	23.2	6.03e-01	0	48	0	613941248	72	4336
2026-01-16 03:09:34.28	224.75	8.33	-50.7	-52.3	23.0	6.04e-01	0	48	0	615514112	72	4450
2026-01-16 03:09:35.29	224.72	8.24	-50.8	-52.4	23.0	6.02e-01	0	49	0	617611264	72	4495
2026-01-16 03:09:36.30	224.70	8.16	-50.7	-52.2	23.1	6.05e-01	0	48	0	619184128	72	4426
2026-01-16 03:09:37.31	224.67	8.07	-50.9	-52.5	22.8	6.00e-01	0	48	0	621281280	72	4558
2026-01-16 03:09:38.32	224.64	7.99	-50.6	-52.1	23.2	6.03e-01	0	49	0	622854144	72	4387
2026-01-16 03:09:39.33	224.61	7.90	-50.6	-52.1	23.2	6.03e-01	0	49	0	624951296	72	4366
2026-01-16 03:09:40.34	224.58	7.82	-50.5	-52.0	23.2	6.02e-01	0	49	0	627048448	72	4340
2026-01-16 03:09:41.35	224.55	7.73	-50.5	-52.1	23.1	6.02e-01	0	49	0	628621312	72	4348
2026-01-16 03:09:42.36	224.52	7.65	-50.8	-52.4	22.9	6.03e-01	0	49	0	630718464	72	4505
2026-01-16 03:09:43.37	224.49	7.56	-50.7	-52.3	23.0	6.02e-01	0	48	0	632815616	72	4456
2026-01-16 03:09:44.38	224.47	7.48	-50.6	-52.2	23.1	6.04e-01	0	48	0	634388480	72	4406
2026-01-16 03:09:45.39	224.44	7.40	-50.8	-52.4	22.9	6.02e-01	0	48	0	636485632	72	4504
2026-01-16 03:09:46.40	224.41	7.31	-50.9	-52.5	22.8	6.02e-01	0	49	0	638058496	72	4553
2026-01-16 03:09:47.41	224.38	7.23	-50.9	-52.5	22.7	6.03e-01	0	49	0	640155648	72	4585
2026-01-16 03:09:48.41	224.36	7.15	-51.0	-52.7	22.6	6.01e-01	0	48	0	642252800	72	4665
2026-01-16 03:09:49.42	224.33	7.07	-51.0	-52.7	22.5	6.05e-01	0	48	0	643825664	72	4661
2026-01-16 03:09:50.43	224.30	6.98	-51.4	-53.1	22.1	6.03e-01	0	49	0	645922816	73	4624
2026-01-16 03:09:51.44	224.27	6.90	-50.8	-52.4	22.9	6.03e-01	0	48	0	648019968	73	4254
2026-01-16 03:09:52.45	224.25	6.82	-51.3	-53.0	22.3	6.02e-01	0	49	0	649592832	73	4573
2026-01-16 03:09:53.46	224.22	6.74	-51.1	-52.7	22.5	6.01e-01	0	49	0	651689984	73	4429
2026-01-16 03:09:54.48	224.20	6.66	-50.9	-52.5	22.7	6.04e-01	0	48	0	653262848	73	4313
2026-01-16 03:09:55.49	224.17	6.58	-50.9	-52.5	22.6	6.05e-01	0	48	0	655360000	73	4338
2026-01-16 03:09:56.50	224.14	6.50	-50.9	-52.5	22.7	6.05e-01	0	48	0	656932864	73	4325
2026-01-16 03:09:57.51	224.12	6.42	-50.8	-52.4	22.7	6.02e-01	0	48	0	659030016	73	4270
2026-01-16 03:09:58.51	224.09	6.34	-51.4	-53.1	22.2	6.04e-01	0	48	0	661127168	73	4611
2026-01-16 03:09:59.52	224.07	6.26	-51.3	-53.1	22.1	6.01e-01	0	49	0	662700032	73	4602
2026-01-16 03:10:00.53	224.04	6.18	-51.1	-52.8	22.4	6.03e-01	0	49	0	664797184	73	4454
2026-01-16 03:10:01.54	224.02	6.10	-51.4	-53.1	22.1	6.01e-01	0	48	0	666370048	73	4616
2026-01-16 03:10:02.55	223.99	6.02	-51.1	-52.8	22.3	6.05e-01	0	48	0	668467200	73	4469
2026-01-16 03:10:03.56	223.97	5.94	-51.2	-52.9	22.1	6.01e-01	0	49	0	670564352	73	4521
2026-01-16 03:10:04.56	223.94	5.87	-51.3	-53.0	22.1	6.04e-01	0	49	0	672137216	73	4566
2026-01-16 03:10:05.57	223.92	5.79	-50.9	-52.5	22.6	6.03e-01	0	49	0	674234368	73	4316
2026-01-16 03:10:06.58	223.90	5.71	-51.1	-52.8	22.3	6.02e-01	0	48	0	676331520	73	4484
2026-01-16 03:10:07.59	223.87	5.63	-51.4	-53.2	21.9	6.04e-01	0	49	0	677904384	73	4671
2026-01-16 03:10:08.60	223.85	5.56	-51.4	-53.2	21.7	6.03e-01	0	48	0	680001536	73	4690
2026-01-16 03:10:09.61	223.82	5.48	-51.0	-52.7	22.3	6.03e-01	0	49	0	681574400	73	4396
2026-01-16 03:10:10.62	223.80	5.40	-51.3	-53.1	22.0	6.04e-01	0	49	0	683671552	73	4619
2026-01-16 03:10:11.63	223.78	5.33	-51.6	-53.4	21.6	6.03e-01	0	49	0	685244416	74	4503
2026-01-16 03:10:12.64	223.75	5.25	-51.9	-53.8	21.3	6.04e-01	0	49	0	687341568	74	4717
2026-01-16 03:10:13.65	223.73	5.18	-52.1	-54.1	20.8	6.04e-01	0	49	0	689438720	75	4639
2026-01-16 03:10:14.66	223.71	5.10	-52.5	-54.6	20.4	6.02e-01	0	49	0	691535872	75	4878
2026-01-16 03:10:15.67	223.69	5.02	-52.4	-54.5	20.5	6.04e-01	0	48	0	693108736	75	4837
2026-01-16 03:10:16.68	223.66	4.95	-58.2	-71.2	7.2	6.94e-01	75	49	0	695205888	86	17601
2026-01-16 03:10:17.69	223.64	4.87	-58.7	-76.5	3.9	7.46e-01	0	49	104	695205888	88	28751
