passes_logs/2026/01/16/R3.2S_Murmansk/R3.2S_Murmansk__20260116_033154_FENGYUN_3D_rec.log

#Pass ID: 20260116_033154_FENGYUN 3D
#Satellite: FENGYUN 3D
#Configuration: FENGYUN 3D
#almurnet v.1.7.20251203
#Start time: 2026-01-16 03:31:55

#Version: 2.2.20231116
#Station: R3.2S_Murmansk
#Location: 33.079688 lon 68.888172 lat
#TLE: 1 43010U 17072A   26015.49690188 -.00000192  00000+0 -69217-4 0  9996
#TLE: 2 43010  98.9932 347.3205 0002350 106.2275 253.9159 14.19694721423329

#Time	Az	El	Level	Level2	SNR	BER	BlckErr	Temp	State	Recorded	gain1	gain2
2026-01-16 03:31:55.89	28.40	2.08	-56.0	-67.9	3.8	8.46e-01	0	41	0	0	84	13545
2026-01-16 03:31:56.89	28.39	2.14	-55.9	-67.8	3.8	8.46e-01	0	41	104	0	82	15046
2026-01-16 03:31:57.90	28.37	2.20	-55.9	-67.8	3.8	8.45e-01	0	41	104	0	82	14924
2026-01-16 03:31:58.91	28.36	2.27	-55.9	-67.7	3.8	8.46e-01	0	42	104	0	82	14846
2026-01-16 03:31:59.92	28.34	2.33	-55.9	-67.7	3.8	8.46e-01	0	41	104	0	82	14774
2026-01-16 03:32:00.91	28.33	2.40	-55.9	-67.6	3.8	8.46e-01	0	42	104	0	82	14691
2026-01-16 03:32:01.92	28.31	2.46	-55.9	-67.5	3.8	8.47e-01	0	42	104	0	82	14448
2026-01-16 03:32:02.93	28.29	2.53	-55.9	-67.5	3.8	8.46e-01	0	42	104	0	82	14433
2026-01-16 03:32:03.94	28.28	2.59	-55.8	-66.9	3.8	8.47e-01	0	42	104	0	82	13504
2026-01-16 03:32:04.95	28.26	2.66	-55.8	-66.8	3.8	8.45e-01	0	42	104	0	82	13366
2026-01-16 03:32:05.96	28.25	2.72	-55.8	-66.5	3.8	8.46e-01	0	42	104	0	82	12906
2026-01-16 03:32:06.97	28.23	2.79	-55.8	-66.4	3.8	8.45e-01	0	42	104	0	82	12719
2026-01-16 03:32:07.98	28.21	2.86	-55.7	-65.9	3.8	8.46e-01	0	42	104	0	82	12036
2026-01-16 03:32:08.99	28.20	2.92	-55.6	-64.7	4.1	8.44e-01	0	42	104	0	82	10424
2026-01-16 03:32:10.00	28.18	2.99	-55.6	-64.8	4.1	8.42e-01	0	42	0	0	82	10544
2026-01-16 03:32:11.01	28.16	3.06	-55.8	-66.1	3.8	8.41e-01	0	42	104	0	82	12375
2026-01-16 03:32:12.02	28.15	3.12	-55.7	-65.9	3.8	8.46e-01	0	42	104	0	82	12028
2026-01-16 03:32:13.03	28.13	3.19	-55.8	-66.8	3.8	8.44e-01	0	42	104	0	82	13282
2026-01-16 03:32:14.04	28.11	3.26	-55.9	-67.6	3.8	8.46e-01	0	42	104	0	82	14543
2026-01-16 03:32:15.05	28.10	3.32	-55.9	-67.5	3.8	8.46e-01	0	42	104	0	82	14440
2026-01-16 03:32:16.06	28.08	3.39	-55.8	-66.1	3.8	8.46e-01	0	42	104	0	82	12303
2026-01-16 03:32:17.07	28.06	3.46	-55.5	-63.8	4.4	8.35e-01	0	43	0	0	82	9389
2026-01-16 03:32:18.08	28.05	3.52	-55.2	-62.4	4.9	8.04e-01	0	43	0	0	82	8042
2026-01-16 03:32:19.09	28.03	3.59	-55.2	-62.3	5.0	7.75e-01	0	43	0	0	82	7940
2026-01-16 03:32:20.10	28.01	3.66	-54.5	-59.7	6.9	3.35e-01	0	43	0	3145728	81	6231
2026-01-16 03:32:21.11	28.00	3.73	-54.1	-58.7	7.8	1.65e-01	0	43	0	8388608	80	5893
2026-01-16 03:32:22.12	27.98	3.80	-53.7	-57.7	9.0	3.70e-02	0	43	0	13631488	79	5541
2026-01-16 03:32:23.13	27.96	3.86	-53.1	-56.4	10.3	1.01e-02	0	43	0	19922944	78	5069
2026-01-16 03:32:24.14	27.94	3.93	-52.7	-55.7	11.0	8.54e-03	0	43	0	25165824	77	4947
2026-01-16 03:32:25.15	27.92	4.00	-52.6	-55.4	11.4	1.44e-03	0	43	0	31457280	77	4792
2026-01-16 03:32:26.16	27.91	4.07	-52.4	-55.2	11.6	1.80e-03	0	43	0	36700160	76	4957
2026-01-16 03:32:27.17	27.89	4.14	-52.1	-54.7	12.1	3.59e-04	0	43	0	41943040	75	4936
2026-01-16 03:32:28.18	27.87	4.21	-51.7	-54.0	12.8	3.52e-04	0	43	0	48234496	75	4577
2026-01-16 03:32:29.19	27.85	4.28	-51.9	-54.4	12.5	1.64e-04	0	43	0	54525952	74	5066
2026-01-16 03:32:30.20	27.83	4.35	-52.1	-54.6	12.2	3.44e-04	0	43	0	59768832	75	4926
2026-01-16 03:32:31.21	27.82	4.42	-52.1	-54.6	12.2	2.70e-04	0	43	0	65011712	75	4905
2026-01-16 03:32:32.22	27.80	4.49	-52.5	-55.3	11.5	7.20e-04	0	43	0	71303168	75	5326
2026-01-16 03:32:33.23	27.78	4.56	-52.9	-56.0	10.8	2.88e-03	0	43	0	76546048	76	5403
2026-01-16 03:32:34.24	27.76	4.63	-53.0	-56.1	10.6	3.80e-03	0	43	0	81788928	76	5525
2026-01-16 03:32:35.25	27.74	4.70	-52.7	-55.6	11.1	5.09e-03	0	43	0	88080384	76	5194
2026-01-16 03:32:36.27	27.72	4.77	-53.4	-56.9	9.8	8.35e-03	0	43	0	93323264	77	5721
2026-01-16 03:32:37.28	27.70	4.84	-54.3	-59.0	7.6	8.60e-02	0	44	0	98566144	79	6486
2026-01-16 03:32:38.29	27.68	4.91	-53.7	-57.5	9.1	2.20e-02	0	43	0	104857600	79	5459
2026-01-16 03:32:39.30	27.66	4.98	-54.3	-59.1	7.5	8.50e-02	0	44	0	111149056	79	6541
2026-01-16 03:32:40.31	27.64	5.05	-54.2	-58.7	7.9	1.45e-01	0	44	0	116391936	79	6242
2026-01-16 03:32:41.32	27.62	5.13	-53.4	-56.5	10.4	3.80e-02	0	44	0	121634816	78	5145
2026-01-16 03:32:42.33	27.60	5.20	-54.3	-58.7	8.2	3.97e-02	0	44	0	127926272	79	6267
2026-01-16 03:32:43.34	27.58	5.27	-55.0	-61.3	5.5	8.38e-01	0	44	0	130023424	81	7523
2026-01-16 03:32:44.35	27.56	5.34	-50.5	-52.1	15.5	0.00e+00	0	44	0	135266304	71	4630
2026-01-16 03:32:45.36	27.54	5.41	-55.4	-62.5	4.9	8.34e-01	0	44	0	138412032	81	8574
2026-01-16 03:32:46.37	27.52	5.49	-49.1	-50.3	17.2	6.80e-06	0	44	0	143654912	70	4002
2026-01-16 03:32:47.38	27.50	5.56	-49.3	-50.6	17.0	0.00e+00	0	44	0	148897792	69	4384
2026-01-16 03:32:48.39	27.48	5.63	-49.3	-50.7	16.9	0.00e+00	0	44	0	154140672	69	4427
2026-01-16 03:32:49.40	27.46	5.70	-49.6	-51.0	16.6	0.00e+00	0	44	0	160432128	70	4336
2026-01-16 03:32:50.41	27.44	5.78	-49.4	-50.7	16.9	0.00e+00	0	44	0	166723584	70	4175
2026-01-16 03:32:51.42	27.42	5.85	-49.4	-50.8	16.9	0.00e+00	0	44	0	171966464	70	4216
2026-01-16 03:32:52.43	27.40	5.93	-48.7	-50.0	17.7	0.00e+00	0	44	0	177209344	69	4052
2026-01-16 03:32:53.44	27.38	6.00	-49.0	-50.3	17.4	0.00e+00	0	44	0	183500800	69	4234
2026-01-16 03:32:54.45	27.36	6.07	-48.1	-49.2	18.5	0.00e+00	0	44	0	188743680	68	3934
2026-01-16 03:32:55.45	27.34	6.15	-48.2	-49.3	18.5	0.00e+00	0	44	0	195035136	68	3987
2026-01-16 03:32:56.46	27.32	6.22	-48.2	-49.4	18.4	0.00e+00	0	44	0	200278016	68	4010
2026-01-16 03:32:57.47	27.29	6.30	-48.0	-49.1	18.6	0.00e+00	0	45	0	205520896	67	4118
2026-01-16 03:32:58.48	27.27	6.37	-47.6	-48.6	19.0	0.00e+00	0	44	0	211812352	67	3909
2026-01-16 03:32:59.49	27.25	6.45	-48.4	-49.5	18.2	0.00e+00	0	44	0	218103808	67	4330
2026-01-16 03:33:00.50	27.23	6.52	-47.7	-48.8	18.9	0.00e+00	0	45	0	223346688	67	3977
2026-01-16 03:33:01.51	27.21	6.60	-47.9	-49.0	18.7	0.00e+00	0	45	0	228589568	67	4079
2026-01-16 03:33:02.52	27.18	6.67	-47.7	-48.8	19.0	0.00e+00	0	44	0	234881024	67	3979
2026-01-16 03:33:03.53	27.16	6.75	-47.9	-48.9	18.8	0.00e+00	0	45	0	240123904	67	4050
2026-01-16 03:33:04.54	27.14	6.83	-47.8	-48.8	18.9	0.00e+00	0	45	0	245366784	67	4000
2026-01-16 03:33:05.55	27.12	6.90	-47.8	-48.9	18.9	0.00e+00	0	45	0	251658240	67	4014
2026-01-16 03:33:06.56	27.09	6.98	-47.9	-49.0	18.8	0.00e+00	0	45	0	256901120	67	4055
2026-01-16 03:33:07.57	27.07	7.06	-47.7	-48.8	19.1	0.00e+00	0	45	0	262144000	67	3961
2026-01-16 03:33:08.57	27.05	7.13	-47.9	-49.0	18.9	0.00e+00	0	45	0	268435456	67	4061
2026-01-16 03:33:09.58	27.02	7.21	-47.9	-49.0	18.9	0.00e+00	0	45	0	273678336	67	4069
2026-01-16 03:33:10.59	27.00	7.29	-47.7	-48.8	19.1	0.00e+00	0	45	0	279969792	67	3959
2026-01-16 03:33:11.60	26.98	7.36	-47.6	-48.7	19.2	0.00e+00	0	45	0	285212672	67	3930
2026-01-16 03:33:12.61	26.95	7.44	-47.5	-48.6	19.3	0.00e+00	0	45	0	291504128	66	4106
2026-01-16 03:33:13.62	26.93	7.52	-47.6	-48.6	19.3	0.00e+00	0	45	0	296747008	66	4123
2026-01-16 03:33:14.63	26.91	7.60	-47.7	-48.7	19.2	0.00e+00	0	45	0	303038464	66	4174
2026-01-16 03:33:15.64	26.88	7.68	-47.8	-48.8	19.1	0.00e+00	0	45	0	308281344	66	4228
2026-01-16 03:33:16.65	26.86	7.76	-47.9	-49.0	19.0	0.00e+00	0	45	0	313524224	66	4299
2026-01-16 03:33:17.66	26.83	7.84	-47.8	-48.8	19.1	0.00e+00	0	45	0	319815680	66	4242
2026-01-16 03:33:18.67	26.81	7.92	-47.8	-48.9	19.0	0.00e+00	0	45	0	325058560	66	4273
2026-01-16 03:33:19.68	26.78	8.00	-47.7	-48.8	19.2	0.00e+00	0	45	0	330301440	66	4201
2026-01-16 03:33:20.69	26.76	8.08	-47.6	-48.7	19.3	0.00e+00	0	45	0	336592896	66	4149
2026-01-16 03:33:21.70	26.73	8.16	-47.5	-48.6	19.4	0.00e+00	0	45	0	342884352	66	4103
2026-01-16 03:33:22.71	26.71	8.24	-47.5	-48.6	19.4	0.00e+00	0	45	0	348127232	66	4104
2026-01-16 03:33:23.72	26.68	8.32	-47.4	-48.5	19.5	0.00e+00	0	45	0	353370112	66	4063
2026-01-16 03:33:24.73	26.66	8.40	-47.2	-48.2	19.7	0.00e+00	0	45	0	359661568	66	3947
2026-01-16 03:33:25.74	26.63	8.48	-47.5	-48.5	19.5	0.00e+00	0	45	0	364904448	66	4073
2026-01-16 03:33:26.75	26.61	8.56	-47.3	-48.3	19.7	0.00e+00	0	45	0	370147328	66	3967
2026-01-16 03:33:27.76	26.58	8.64	-47.2	-48.2	19.8	0.00e+00	0	45	0	376438784	66	3935
2026-01-16 03:33:28.77	26.55	8.73	-47.1	-48.1	20.0	0.00e+00	0	45	0	381681664	66	3870
2026-01-16 03:33:29.78	26.53	8.81	-47.2	-48.2	19.8	0.00e+00	0	45	0	387973120	66	3954
2026-01-16 03:33:30.79	26.50	8.89	-47.2	-48.3	19.8	0.00e+00	0	45	0	393216000	66	3962
2026-01-16 03:33:31.80	26.47	8.97	-47.1	-48.1	20.0	0.00e+00	0	45	0	399507456	66	3874
2026-01-16 03:33:32.81	26.45	9.06	-47.1	-48.1	19.9	0.00e+00	0	45	0	404750336	66	3907
2026-01-16 03:33:33.82	26.42	9.14	-47.2	-48.2	19.8	0.00e+00	0	45	0	411041792	66	3937
2026-01-16 03:33:34.83	26.39	9.22	-47.2	-48.2	19.9	0.00e+00	0	46	0	416284672	66	3927
2026-01-16 03:33:35.84	26.36	9.31	-47.0	-47.9	20.1	0.00e+00	0	45	0	421527552	65	4041
2026-01-16 03:33:36.85	26.34	9.39	-47.3	-48.3	19.7	0.00e+00	0	45	0	427819008	65	4240
2026-01-16 03:33:37.86	26.31	9.48	-47.0	-48.0	20.0	0.00e+00	0	45	0	433061888	65	4074
2026-01-16 03:33:38.87	26.28	9.56	-47.2	-48.2	19.8	0.00e+00	0	46	0	438304768	65	4171
2026-01-16 03:33:39.88	26.25	9.65	-47.3	-48.3	19.8	0.00e+00	0	46	0	444596224	65	4211
2026-01-16 03:33:40.89	26.22	9.73	-47.4	-48.4	19.7	0.00e+00	0	46	0	450887680	65	4254
2026-01-16 03:33:41.90	26.20	9.82	-47.2	-48.2	19.9	0.00e+00	0	46	0	456130560	65	4159
2026-01-16 03:33:42.91	26.17	9.90	-47.1	-48.0	20.1	0.00e+00	0	46	0	461373440	65	4090
2026-01-16 03:33:43.92	26.14	9.99	-47.1	-48.0	20.1	0.00e+00	0	46	0	467664896	65	4088
2026-01-16 03:33:44.93	26.11	10.07	-46.9	-47.9	20.2	0.00e+00	0	46	0	472907776	65	4031
2026-01-16 03:33:45.94	26.08	10.16	-47.1	-48.0	20.0	0.00e+00	0	46	0	478150656	65	4096
2026-01-16 03:33:46.95	26.05	10.25	-46.8	-47.8	20.3	0.00e+00	0	46	0	484442112	65	3979
2026-01-16 03:33:47.96	26.02	10.34	-46.7	-47.7	20.4	0.00e+00	0	46	0	489684992	65	3926
2026-01-16 03:33:48.97	25.99	10.42	-46.9	-47.8	20.3	0.00e+00	0	46	0	495976448	65	3984
2026-01-16 03:33:49.98	25.96	10.51	-46.6	-47.5	20.6	0.00e+00	0	46	0	501219328	65	3858
2026-01-16 03:33:50.99	25.93	10.60	-46.7	-47.6	20.5	0.00e+00	0	46	0	507510784	65	3889
2026-01-16 03:33:52.00	25.90	10.69	-46.5	-47.4	20.7	0.00e+00	0	46	0	512753664	65	3794
2026-01-16 03:33:53.01	25.87	10.78	-46.5	-47.4	20.7	0.00e+00	0	46	0	519045120	64	4051
2026-01-16 03:33:54.02	25.84	10.87	-46.6	-47.5	20.6	0.00e+00	0	46	0	524288000	64	4076
2026-01-16 03:33:55.03	25.80	10.96	-46.4	-47.3	20.8	0.00e+00	0	46	0	529530880	64	3973
2026-01-16 03:33:56.04	25.77	11.05	-46.7	-47.6	20.5	0.00e+00	0	46	0	535822336	64	4121
2026-01-16 03:33:57.05	25.74	11.14	-46.5	-47.4	20.8	0.00e+00	0	46	0	541065216	64	4016
2026-01-16 03:33:58.06	25.71	11.23	-46.3	-47.2	20.9	0.00e+00	0	46	0	546308096	64	3940
2026-01-16 03:33:59.07	25.68	11.32	-46.3	-47.2	20.9	0.00e+00	0	46	0	552599552	64	3956
2026-01-16 03:34:00.08	25.65	11.41	-46.3	-47.2	20.9	0.00e+00	0	46	0	557842432	64	3947
2026-01-16 03:34:01.08	25.61	11.50	-46.3	-47.2	21.0	0.00e+00	0	46	0	563085312	64	3941
2026-01-16 03:34:02.09	25.58	11.59	-46.3	-47.1	21.0	0.00e+00	0	46	0	569376768	64	3913
2026-01-16 03:34:03.10	25.55	11.68	-46.3	-47.2	21.0	0.00e+00	0	46	0	575668224	64	3916
2026-01-16 03:34:04.11	25.51	11.78	-46.2	-47.1	21.0	0.00e+00	0	46	0	580911104	64	3908
2026-01-16 03:34:05.12	25.48	11.87	-46.3	-47.2	21.0	0.00e+00	0	46	0	586153984	64	3933
2026-01-16 03:34:06.13	25.45	11.96	-46.1	-47.0	21.1	0.00e+00	0	46	0	592445440	64	3857
2026-01-16 03:34:07.14	25.41	12.05	-46.2	-47.1	21.1	0.00e+00	0	47	0	597688320	64	3879
2026-01-16 03:34:08.15	25.38	12.15	-46.1	-47.0	21.2	0.00e+00	0	46	0	603979776	64	3830
2026-01-16 03:34:09.16	25.34	12.24	-46.1	-47.0	21.2	0.00e+00	0	46	0	609222656	64	3826
2026-01-16 03:34:10.17	25.31	12.34	-46.0	-46.8	21.3	0.00e+00	0	46	0	614465536	64	3778
2026-01-16 03:34:11.18	25.27	12.43	-46.2	-47.1	21.2	0.00e+00	0	46	0	620756992	63	4107
2026-01-16 03:34:12.19	25.24	12.53	-46.1	-47.0	21.3	0.00e+00	0	46	0	627048448	63	4064
2026-01-16 03:34:13.20	25.20	12.62	-46.1	-47.0	21.3	0.00e+00	0	46	0	632291328	63	4062
2026-01-16 03:34:14.21	25.17	12.72	-46.2	-47.1	21.2	0.00e+00	0	46	0	637534208	63	4112
2026-01-16 03:34:15.22	25.13	12.82	-46.1	-47.0	21.3	0.00e+00	0	46	0	643825664	63	4088
2026-01-16 03:34:16.23	25.09	12.91	-46.1	-47.0	21.3	0.00e+00	0	47	0	649068544	63	4096
2026-01-16 03:34:17.24	25.06	13.01	-46.2	-47.0	21.3	0.00e+00	0	47	0	654311424	63	4098
2026-01-16 03:34:18.25	25.02	13.11	-46.1	-47.0	21.3	0.00e+00	0	47	0	660602880	63	4085
2026-01-16 03:34:19.26	24.98	13.20	-46.1	-47.0	21.3	0.00e+00	0	46	0	665845760	63	4090
2026-01-16 03:34:20.27	24.95	13.30	-46.2	-47.1	21.2	0.00e+00	0	46	0	671088640	63	4116
2026-01-16 03:34:21.28	24.91	13.40	-46.2	-47.1	21.3	0.00e+00	0	47	0	677380096	63	4114
2026-01-16 03:34:22.29	24.87	13.50	-46.2	-47.1	21.2	0.00e+00	0	47	0	683671552	63	4114
2026-01-16 03:34:23.30	24.83	13.60	-46.2	-47.1	21.2	0.00e+00	0	47	0	688914432	63	4129
2026-01-16 03:34:24.32	24.79	13.70	-46.1	-47.1	21.3	0.00e+00	0	47	0	694157312	63	4103
2026-01-16 03:34:25.32	24.76	13.80	-46.1	-47.0	21.4	0.00e+00	0	47	0	700448768	63	4059
2026-01-16 03:34:26.33	24.72	13.90	-46.2	-47.1	21.3	0.00e+00	0	47	0	705691648	63	4116
2026-01-16 03:34:27.34	24.68	14.00	-46.2	-47.1	21.2	0.00e+00	0	47	0	711983104	63	4127
2026-01-16 03:34:28.35	24.64	14.10	-46.2	-47.1	21.3	0.00e+00	0	47	0	717225984	63	4121
2026-01-16 03:34:29.36	24.60	14.20	-46.1	-46.9	21.5	0.00e+00	0	47	0	722468864	63	4037
2026-01-16 03:34:30.37	24.56	14.31	-46.1	-47.0	21.4	0.00e+00	0	47	0	728760320	63	4071
2026-01-16 03:34:31.38	24.52	14.41	-46.2	-47.0	21.4	0.00e+00	0	47	0	734003200	63	4091
2026-01-16 03:34:32.39	24.48	14.51	-46.1	-47.0	21.4	0.00e+00	0	47	0	740294656	63	4065
2026-01-16 03:34:33.40	24.43	14.62	-45.9	-46.8	21.6	0.00e+00	0	47	0	745537536	63	3977
2026-01-16 03:34:34.41	24.39	14.72	-45.8	-46.7	21.7	0.00e+00	0	47	0	751828992	63	3930
2026-01-16 03:34:35.42	24.35	14.82	-45.9	-46.8	21.7	0.00e+00	0	47	0	757071872	63	3960
2026-01-16 03:34:36.44	24.31	14.93	-45.8	-46.6	21.8	0.00e+00	0	47	0	762314752	63	3906
2026-01-16 03:34:37.45	24.27	15.03	-45.7	-46.6	21.8	0.00e+00	0	47	0	768606208	63	3884
2026-01-16 03:34:38.46	24.22	15.14	-45.8	-46.7	21.7	0.00e+00	0	47	0	773849088	63	3925
2026-01-16 03:34:39.46	24.18	15.25	-45.7	-46.6	21.8	0.00e+00	0	47	0	779091968	63	3874
2026-01-16 03:34:40.47	24.14	15.35	-45.7	-46.5	21.9	0.00e+00	0	47	0	785383424	63	3854
2026-01-16 03:34:41.48	24.09	15.46	-45.6	-46.4	22.0	0.00e+00	0	47	0	790626304	63	3809
2026-01-16 03:34:42.49	24.05	15.57	-45.6	-46.4	22.0	0.00e+00	0	47	0	796917760	63	3812
2026-01-16 03:34:43.50	24.00	15.67	-45.6	-46.5	21.9	0.00e+00	0	47	0	802160640	63	3834
2026-01-16 03:34:44.51	23.96	15.78	-45.5	-46.3	22.1	0.00e+00	0	47	0	808452096	63	3770
2026-01-16 03:34:45.52	23.91	15.89	-45.5	-46.3	22.1	0.00e+00	0	47	0	813694976	62	3973
2026-01-16 03:34:46.53	23.87	16.00	-45.6	-46.4	22.0	0.00e+00	0	47	0	819986432	62	4037
2026-01-16 03:34:47.54	23.82	16.11	-45.5	-46.3	22.1	0.00e+00	0	47	0	825229312	62	3996
2026-01-16 03:34:48.55	23.78	16.22	-45.4	-46.2	22.2	0.00e+00	0	47	0	830472192	62	3945
2026-01-16 03:34:49.57	23.73	16.33	-45.3	-46.1	22.3	0.00e+00	0	47	0	836763648	62	3911
2026-01-16 03:34:50.58	23.68	16.44	-45.3	-46.1	22.3	0.00e+00	0	47	0	842006528	62	3899
2026-01-16 03:34:51.59	23.63	16.56	-45.2	-46.0	22.4	0.00e+00	0	47	0	848297984	62	3850
2026-01-16 03:34:52.60	23.59	16.67	-45.3	-46.1	22.4	0.00e+00	0	47	0	853540864	62	3873
2026-01-16 03:34:53.61	23.54	16.78	-45.2	-46.0	22.4	0.00e+00	0	47	0	859832320	62	3838
2026-01-16 03:34:54.62	23.49	16.89	-45.2	-46.0	22.5	0.00e+00	0	47	0	865075200	62	3846
2026-01-16 03:34:55.63	23.44	17.01	-45.1	-45.8	22.6	0.00e+00	0	47	0	870318080	62	3777
2026-01-16 03:34:56.64	23.39	17.12	-44.8	-45.6	22.8	0.00e+00	0	47	0	876609536	61	3902
2026-01-16 03:34:57.65	23.34	17.24	-44.9	-45.7	22.7	0.00e+00	0	47	0	881852416	61	3926
2026-01-16 03:34:58.66	23.29	17.35	-44.9	-45.7	22.8	0.00e+00	0	47	0	887095296	61	3914
2026-01-16 03:34:59.67	23.24	17.47	-44.8	-45.5	22.8	0.00e+00	0	47	0	893386752	61	3858
2026-01-16 03:35:00.68	23.19	17.58	-44.8	-45.5	22.9	0.00e+00	0	47	0	898629632	61	3858
2026-01-16 03:35:01.70	23.14	17.70	-44.7	-45.4	22.9	0.00e+00	0	47	0	904921088	61	3821
2026-01-16 03:35:02.71	23.08	17.82	-44.7	-45.5	22.9	0.00e+00	0	47	0	910163968	61	3841
2026-01-16 03:35:03.72	23.03	17.94	-44.7	-45.5	22.9	0.00e+00	0	47	0	916455424	61	3847
2026-01-16 03:35:04.73	22.98	18.05	-44.7	-45.5	22.9	0.00e+00	0	47	0	921698304	61	3845
2026-01-16 03:35:05.74	22.93	18.17	-44.6	-45.4	23.0	0.00e+00	0	47	0	927989760	61	3800
2026-01-16 03:35:06.75	22.87	18.29	-44.6	-45.3	23.1	0.00e+00	0	47	0	933232640	61	3769
2026-01-16 03:35:07.76	22.82	18.41	-44.6	-45.3	23.1	0.00e+00	0	47	0	938475520	61	3779
2026-01-16 03:35:08.77	22.76	18.53	-44.6	-45.4	23.1	0.00e+00	0	47	0	944766976	61	3783
2026-01-16 03:35:09.78	22.71	18.65	-44.7	-45.5	22.9	0.00e+00	0	47	0	950009856	61	3840
2026-01-16 03:35:10.79	22.65	18.78	-44.5	-45.3	23.1	0.00e+00	0	47	0	956301312	61	3740
2026-01-16 03:35:11.80	22.60	18.90	-44.5	-45.3	23.1	0.00e+00	0	47	0	961544192	60	3978
2026-01-16 03:35:12.81	22.54	19.02	-44.5	-45.3	23.1	0.00e+00	0	47	0	967835648	60	3980
2026-01-16 03:35:13.82	22.48	19.14	-44.5	-45.3	23.1	0.00e+00	0	47	0	973078528	60	3980
2026-01-16 03:35:14.83	22.43	19.27	-44.5	-45.3	23.1	0.00e+00	0	47	0	978321408	60	3964
2026-01-16 03:35:15.84	22.37	19.39	-44.5	-45.3	23.2	0.00e+00	0	47	0	984612864	60	3959
2026-01-16 03:35:16.85	22.31	19.52	-44.3	-45.0	23.3	0.00e+00	0	47	0	989855744	60	3862
2026-01-16 03:35:17.86	22.25	19.64	-44.3	-45.0	23.4	0.00e+00	0	47	0	995098624	60	3848
2026-01-16 03:35:18.87	22.19	19.77	-44.3	-45.1	23.3	0.00e+00	0	48	0	1001390080	60	3877
2026-01-16 03:35:19.88	22.13	19.90	-44.3	-45.0	23.3	0.00e+00	0	47	0	1006632960	60	3848
2026-01-16 03:35:20.89	22.07	20.03	-44.3	-45.0	23.3	0.00e+00	0	48	0	1012924416	60	3861
2026-01-16 03:35:21.90	22.01	20.15	-44.3	-45.0	23.3	0.00e+00	0	48	0	1018167296	60	3848
2026-01-16 03:35:22.91	21.95	20.28	-44.3	-45.1	23.3	0.00e+00	0	47	0	1024458752	60	3876
2026-01-16 03:35:23.92	21.88	20.41	-44.3	-45.0	23.4	0.00e+00	0	47	0	1029701632	60	3855
2026-01-16 03:35:24.93	21.82	20.54	-44.4	-45.1	23.3	0.00e+00	0	47	0	1035993088	60	3898
2026-01-16 03:35:25.94	21.76	20.67	-44.3	-45.1	23.3	0.00e+00	0	47	0	1041235968	60	3885
2026-01-16 03:35:26.95	21.69	20.80	-44.2	-44.9	23.5	0.00e+00	0	47	0	1046478848	60	3824
2026-01-16 03:35:27.96	21.63	20.94	-44.3	-45.0	23.4	0.00e+00	0	47	0	1052770304	60	3857
2026-01-16 03:35:28.97	21.56	21.07	-44.3	-45.1	23.3	0.00e+00	0	47	0	1058013184	60	3869
2026-01-16 03:35:29.98	21.50	21.20	-44.2	-45.0	23.5	0.00e+00	0	48	0	1063256064	60	3826
2026-01-16 03:35:30.98	21.43	21.34	-44.3	-45.0	23.4	0.00e+00	0	47	0	1069547520	60	3861
2026-01-16 03:35:31.99	21.37	21.47	-44.3	-45.1	23.4	0.00e+00	0	47	0	1075838976	60	3878
2026-01-16 03:35:33.00	21.30	21.61	-44.2	-45.0	23.3	0.00e+00	0	47	0	1081081856	60	3842
2026-01-16 03:35:34.01	21.23	21.74	-44.3	-45.0	23.4	0.00e+00	0	47	0	1086324736	60	3856
2026-01-16 03:35:35.02	21.16	21.88	-44.2	-45.0	23.5	0.00e+00	0	48	0	1092616192	60	3847
2026-01-16 03:35:36.03	21.09	22.02	-44.2	-44.9	23.5	0.00e+00	0	48	0	1097859072	60	3813
2026-01-16 03:35:37.04	21.02	22.15	-44.1	-44.8	23.7	0.00e+00	0	48	0	1103101952	60	3762
2026-01-16 03:35:38.05	20.95	22.29	-44.1	-44.8	23.6	0.00e+00	0	48	0	1109393408	60	3780
2026-01-16 03:35:39.06	20.88	22.43	-44.3	-45.1	23.6	0.00e+00	0	47	0	1114636288	59	4117
2026-01-16 03:35:40.07	20.81	22.57	-44.3	-45.0	23.6	0.00e+00	0	47	0	1120927744	59	4088
2026-01-16 03:35:41.08	20.73	22.71	-44.2	-45.0	23.7	0.00e+00	0	48	0	1126170624	59	4056
2026-01-16 03:35:42.09	20.66	22.86	-44.1	-44.9	23.7	0.00e+00	0	48	0	1132462080	59	4022
2026-01-16 03:35:43.10	20.59	23.00	-44.2	-45.0	23.7	0.00e+00	0	47	0	1137704960	59	4053
2026-01-16 03:35:44.11	20.51	23.14	-44.0	-44.7	23.9	0.00e+00	0	47	0	1143996416	59	3934
2026-01-16 03:35:45.12	20.43	23.29	-44.0	-44.7	23.9	0.00e+00	0	48	0	1149239296	59	3940
2026-01-16 03:35:46.13	20.36	23.43	-43.9	-44.7	23.9	0.00e+00	0	47	0	1154482176	59	3936
2026-01-16 03:35:47.14	20.28	23.58	-43.9	-44.6	24.0	0.00e+00	0	48	0	1160773632	59	3903
2026-01-16 03:35:48.15	20.20	23.72	-43.9	-44.6	24.0	0.00e+00	0	48	0	1166016512	59	3911
2026-01-16 03:35:49.16	20.12	23.87	-44.0	-44.7	23.9	0.00e+00	0	47	0	1171259392	59	3950
2026-01-16 03:35:50.17	20.04	24.02	-44.1	-44.9	23.8	0.00e+00	0	48	0	1177550848	59	4009
2026-01-16 03:35:51.18	19.96	24.17	-44.3	-45.0	23.7	0.00e+00	0	48	0	1182793728	59	4083
2026-01-16 03:35:52.19	19.88	24.32	-44.1	-44.9	23.8	0.00e+00	0	48	0	1189085184	59	4018
2026-01-16 03:35:53.20	19.80	24.47	-44.0	-44.8	23.9	0.00e+00	0	47	0	1194328064	59	3963
2026-01-16 03:35:54.21	19.72	24.62	-44.0	-44.7	23.9	0.00e+00	0	48	0	1200619520	59	3956
2026-01-16 03:35:55.22	19.63	24.77	-44.0	-44.7	23.9	0.00e+00	0	48	0	1205862400	59	3956
2026-01-16 03:35:56.22	19.55	24.92	-43.9	-44.7	24.0	0.00e+00	0	48	0	1211105280	59	3917
2026-01-16 03:35:57.23	19.47	25.07	-43.9	-44.6	24.0	0.00e+00	0	48	0	1217396736	59	3913
2026-01-16 03:35:58.24	19.38	25.23	-43.8	-44.6	24.1	0.00e+00	0	48	0	1222639616	59	3883
2026-01-16 03:35:59.25	19.29	25.38	-43.9	-44.7	24.0	0.00e+00	0	48	0	1228931072	59	3916
2026-01-16 03:36:00.26	19.20	25.54	-43.7	-44.5	24.2	0.00e+00	0	48	0	1234173952	59	3839
2026-01-16 03:36:01.27	19.12	25.70	-43.8	-44.5	24.1	0.00e+00	0	48	0	1239416832	59	3867
2026-01-16 03:36:02.28	19.03	25.85	-43.7	-44.5	24.2	0.00e+00	0	48	0	1245708288	59	3825
2026-01-16 03:36:03.29	18.93	26.01	-43.8	-44.5	24.2	0.00e+00	0	48	0	1251999744	59	3841
2026-01-16 03:36:04.30	18.84	26.17	-43.8	-44.6	24.1	0.00e+00	0	48	0	1257242624	59	3877
2026-01-16 03:36:05.31	18.75	26.33	-43.7	-44.4	24.2	0.00e+00	0	48	0	1262485504	59	3806
2026-01-16 03:36:06.32	18.66	26.49	-43.7	-44.4	24.2	0.00e+00	0	48	0	1268776960	59	3813
2026-01-16 03:36:07.33	18.56	26.65	-43.7	-44.4	24.2	0.00e+00	0	48	0	1274019840	59	3815
2026-01-16 03:36:08.34	18.47	26.82	-43.8	-44.5	24.2	0.00e+00	0	48	0	1279262720	59	3846
2026-01-16 03:36:09.34	18.37	26.98	-43.8	-44.5	24.2	0.00e+00	0	48	0	1285554176	59	3864
2026-01-16 03:36:10.35	18.27	27.14	-43.9	-44.7	24.0	0.00e+00	0	48	0	1290797056	59	3934
2026-01-16 03:36:11.36	18.17	27.31	-44.0	-44.7	24.0	0.00e+00	0	48	0	1296039936	59	3937
2026-01-16 03:36:12.37	18.07	27.47	-44.0	-44.8	24.0	0.00e+00	0	48	0	1302331392	59	3962
2026-01-16 03:36:13.38	17.97	27.64	-44.0	-44.7	24.0	0.00e+00	0	48	0	1307574272	59	3948
2026-01-16 03:36:14.39	17.87	27.81	-44.0	-44.7	24.0	0.00e+00	0	48	0	1313865728	59	3940
2026-01-16 03:36:15.40	17.77	27.98	-43.9	-44.7	24.1	0.00e+00	0	48	0	1319108608	59	3914
2026-01-16 03:36:16.41	17.66	28.15	-43.8	-44.5	24.2	0.00e+00	0	48	0	1325400064	59	3849
2026-01-16 03:36:17.42	17.56	28.32	-43.8	-44.5	24.2	0.00e+00	0	48	0	1330642944	59	3860
2026-01-16 03:36:18.44	17.45	28.49	-43.7	-44.5	24.2	0.00e+00	0	48	0	1336934400	59	3841
2026-01-16 03:36:19.44	17.34	28.67	-43.7	-44.5	24.2	0.00e+00	0	48	0	1342177280	59	3832
2026-01-16 03:36:20.46	17.23	28.84	-43.6	-44.3	24.4	0.00e+00	0	48	0	1347420160	59	3774
2026-01-16 03:36:21.47	17.12	29.02	-43.6	-44.3	24.4	0.00e+00	0	48	0	1353711616	59	3775
2026-01-16 03:36:22.47	17.01	29.19	-43.6	-44.3	24.4	0.00e+00	0	48	0	1358954496	59	3780
2026-01-16 03:36:23.48	16.90	29.37	-43.6	-44.3	24.4	0.00e+00	0	48	0	1364197376	59	3776
2026-01-16 03:36:24.49	16.79	29.54	-43.7	-44.5	24.3	0.00e+00	0	48	0	1370488832	59	3836
2026-01-16 03:36:25.50	16.67	29.72	-43.7	-44.4	24.3	0.00e+00	0	48	0	1376780288	59	3799
2026-01-16 03:36:26.51	16.55	29.90	-43.6	-44.4	24.3	0.00e+00	0	48	0	1382023168	59	3794
2026-01-16 03:36:27.52	16.44	30.08	-43.7	-44.4	24.3	0.00e+00	0	48	0	1387266048	59	3822
2026-01-16 03:36:28.53	16.32	30.27	-43.5	-44.3	24.4	0.00e+00	0	48	0	1393557504	59	3750
2026-01-16 03:36:29.54	16.20	30.45	-43.6	-44.4	24.4	0.00e+00	0	48	0	1398800384	59	3795
2026-01-16 03:36:30.55	16.07	30.63	-43.6	-44.3	24.4	0.00e+00	0	48	0	1404043264	59	3765
2026-01-16 03:36:31.56	15.95	30.82	-43.5	-44.2	24.5	0.00e+00	0	48	0	1410334720	59	3736
2026-01-16 03:36:32.57	15.82	31.00	-43.5	-44.2	24.5	0.00e+00	0	48	0	1415577600	58	3933
2026-01-16 03:36:33.58	15.70	31.19	-43.4	-44.1	24.6	0.00e+00	0	48	0	1421869056	58	3887
2026-01-16 03:36:34.59	15.57	31.38	-43.4	-44.1	24.6	0.00e+00	0	48	0	1427111936	58	3880
2026-01-16 03:36:35.61	15.44	31.57	-43.1	-43.8	24.8	0.00e+00	0	48	0	1433403392	58	3776
2026-01-16 03:36:36.62	15.31	31.76	-43.1	-43.8	24.9	0.00e+00	0	48	0	1438646272	58	3768
2026-01-16 03:36:37.63	15.17	31.95	-43.1	-43.9	24.8	0.00e+00	0	48	0	1444937728	58	3789
2026-01-16 03:36:38.64	15.04	32.14	-43.3	-44.0	24.7	0.00e+00	0	48	0	1450180608	58	3852
2026-01-16 03:36:39.65	14.90	32.34	-43.3	-44.1	24.7	0.00e+00	0	48	0	1455423488	58	3870
2026-01-16 03:36:40.66	14.77	32.53	-43.3	-44.1	24.6	0.00e+00	0	48	0	1461714944	58	3874
2026-01-16 03:36:41.67	14.63	32.72	-43.3	-44.0	24.7	0.00e+00	0	48	0	1466957824	58	3867
2026-01-16 03:36:42.68	14.48	32.92	-43.2	-44.0	24.8	0.00e+00	0	48	0	1472200704	58	3826
2026-01-16 03:36:43.68	14.34	33.12	-43.4	-44.1	24.6	0.00e+00	0	48	0	1478492160	58	3888
2026-01-16 03:36:44.69	14.20	33.32	-43.1	-43.8	24.9	0.00e+00	0	48	0	1484783616	58	3773
2026-01-16 03:36:45.70	14.05	33.52	-43.2	-43.9	24.8	0.00e+00	0	48	0	1490026496	58	3795
2026-01-16 03:36:46.71	13.90	33.72	-43.2	-43.9	24.8	0.00e+00	0	48	0	1495269376	58	3790
2026-01-16 03:36:47.72	13.75	33.92	-43.2	-43.9	24.8	0.00e+00	0	48	0	1501560832	58	3823
2026-01-16 03:36:48.73	13.60	34.12	-43.3	-44.0	24.7	0.00e+00	0	48	0	1506803712	58	3852
2026-01-16 03:36:49.74	13.45	34.32	-43.4	-44.1	24.6	0.00e+00	0	48	0	1512046592	58	3898
2026-01-16 03:36:50.75	13.29	34.53	-43.3	-44.0	24.7	0.00e+00	0	48	0	1518338048	58	3855
2026-01-16 03:36:51.76	13.13	34.74	-43.2	-43.9	24.8	0.00e+00	0	48	0	1523580928	58	3814
2026-01-16 03:36:52.78	12.97	34.95	-43.3	-44.0	24.7	0.00e+00	0	48	0	1529872384	58	3852
2026-01-16 03:36:53.78	12.81	35.15	-43.4	-44.1	24.7	0.00e+00	0	48	0	1535115264	58	3890
2026-01-16 03:36:54.79	12.64	35.36	-43.4	-44.1	24.6	0.00e+00	0	48	0	1541406720	58	3896
2026-01-16 03:36:55.80	12.48	35.57	-43.4	-44.1	24.6	0.00e+00	0	48	0	1546649600	58	3903
2026-01-16 03:36:56.82	12.31	35.79	-43.3	-44.1	24.7	0.00e+00	0	48	0	1552941056	58	3878
2026-01-16 03:36:57.82	12.14	36.00	-43.4	-44.1	24.7	0.00e+00	0	48	0	1558183936	58	3889
2026-01-16 03:36:58.83	11.96	36.21	-43.3	-44.0	24.8	0.00e+00	0	48	0	1563426816	58	3831
2026-01-16 03:36:59.84	11.79	36.43	-43.1	-43.8	24.9	0.00e+00	0	48	0	1569718272	58	3771
2026-01-16 03:37:00.86	11.61	36.64	-43.2	-43.9	24.9	0.00e+00	0	48	0	1574961152	58	3787
2026-01-16 03:37:01.87	11.42	36.86	-43.2	-43.9	24.8	0.00e+00	0	48	0	1580204032	58	3821
2026-01-16 03:37:02.88	11.24	37.08	-43.2	-44.0	24.8	0.00e+00	0	48	0	1586495488	58	3826
2026-01-16 03:37:03.89	11.06	37.30	-43.1	-43.8	25.0	0.00e+00	0	48	0	1591738368	58	3753
2026-01-16 03:37:04.90	10.87	37.52	-43.1	-43.9	24.9	0.00e+00	0	48	0	1598029824	58	3786
2026-01-16 03:37:05.90	10.68	37.74	-43.1	-43.8	25.0	0.00e+00	0	48	0	1603272704	58	3761
2026-01-16 03:37:06.92	10.48	37.97	-43.2	-43.9	24.8	0.00e+00	0	48	0	1609564160	58	3816
2026-01-16 03:37:07.93	10.29	38.19	-43.3	-44.0	24.8	0.00e+00	0	48	0	1614807040	58	3846
2026-01-16 03:37:08.94	10.09	38.42	-43.3	-44.0	24.7	0.00e+00	0	48	0	1620049920	58	3863
2026-01-16 03:37:09.94	9.89	38.64	-43.3	-44.0	24.8	0.00e+00	0	48	0	1626341376	58	3859
2026-01-16 03:37:10.96	9.68	38.87	-43.3	-44.0	24.8	0.00e+00	0	48	0	1631584256	58	3863
2026-01-16 03:37:11.97	9.47	39.10	-43.3	-44.0	24.8	0.00e+00	0	48	0	1637875712	58	3850
2026-01-16 03:37:12.97	9.26	39.33	-43.4	-44.1	24.8	0.00e+00	0	48	0	1643118592	58	3878
2026-01-16 03:37:13.98	9.05	39.56	-43.5	-44.2	24.6	0.00e+00	0	48	0	1648361472	58	3931
2026-01-16 03:37:14.99	8.83	39.79	-43.5	-44.2	24.6	0.00e+00	0	48	0	1654652928	58	3944
2026-01-16 03:37:16.01	8.61	40.02	-43.5	-44.2	24.7	0.00e+00	0	48	0	1660944384	58	3927
2026-01-16 03:37:17.02	8.39	40.26	-43.4	-44.1	24.7	0.00e+00	0	48	0	1666187264	58	3892
2026-01-16 03:37:18.02	8.16	40.49	-43.4	-44.2	24.7	0.00e+00	0	48	0	1671430144	58	3927
2026-01-16 03:37:19.03	7.93	40.72	-43.5	-44.2	24.7	0.00e+00	0	49	0	1677721600	58	3929
2026-01-16 03:37:20.04	7.70	40.96	-43.6	-44.4	24.5	0.00e+00	0	48	0	1682964480	58	4006
2026-01-16 03:37:21.05	7.46	41.20	-43.7	-44.4	24.5	0.00e+00	0	48	0	1688207360	58	4023
2026-01-16 03:37:22.06	7.22	41.44	-43.7	-44.4	24.5	0.00e+00	0	48	0	1694498816	58	4032
2026-01-16 03:37:23.07	6.97	41.68	-43.7	-44.4	24.5	0.00e+00	0	49	0	1699741696	58	4027
2026-01-16 03:37:24.08	6.73	41.92	-43.8	-44.5	24.4	0.00e+00	0	48	0	1704984576	58	4083
2026-01-16 03:37:25.09	6.47	42.16	-43.8	-44.5	24.4	0.00e+00	0	48	0	1711276032	58	4075
2026-01-16 03:37:26.10	6.22	42.40	-43.7	-44.4	24.5	0.00e+00	0	48	0	1717567488	58	4038
2026-01-16 03:37:27.11	5.96	42.65	-43.8	-44.5	24.5	0.00e+00	0	48	0	1722810368	58	4059
2026-01-16 03:37:28.12	5.70	42.89	-43.7	-44.5	24.5	0.00e+00	0	48	0	1728053248	58	4055
2026-01-16 03:37:29.13	5.43	43.14	-43.7	-44.5	24.4	0.00e+00	0	48	0	1734344704	58	4066
2026-01-16 03:37:30.14	5.16	43.38	-43.6	-44.3	24.6	0.00e+00	0	48	0	1739587584	58	4001
2026-01-16 03:37:31.15	4.88	43.63	-43.7	-44.4	24.5	0.00e+00	0	48	0	1745879040	58	4018
2026-01-16 03:37:32.16	4.60	43.88	-43.7	-44.4	24.5	0.00e+00	0	49	0	1751121920	58	4038
2026-01-16 03:37:33.17	4.31	44.13	-43.8	-44.5	24.4	0.00e+00	0	48	0	1756364800	58	4083
2026-01-16 03:37:34.18	4.02	44.38	-44.0	-44.7	24.2	0.00e+00	0	49	0	1762656256	58	4190
2026-01-16 03:37:35.19	3.73	44.63	-44.1	-44.8	24.2	0.00e+00	0	48	0	1768947712	58	4223
2026-01-16 03:37:36.20	3.43	44.88	-44.1	-44.9	24.1	0.00e+00	0	48	0	1774190592	58	4254
2026-01-16 03:37:37.21	3.13	45.13	-44.2	-44.9	24.1	0.00e+00	0	48	0	1779433472	59	4044
2026-01-16 03:37:38.22	2.82	45.38	-44.0	-44.7	24.3	0.00e+00	0	48	0	1785724928	59	3945
2026-01-16 03:37:39.23	2.50	45.64	-44.0	-44.7	24.3	0.00e+00	0	49	0	1790967808	59	3935
2026-01-16 03:37:40.24	2.18	45.89	-43.8	-44.6	24.4	0.00e+00	0	48	0	1796210688	59	3875
2026-01-16 03:37:41.25	1.86	46.15	-43.7	-44.5	24.5	0.00e+00	0	48	0	1802502144	59	3828
2026-01-16 03:37:42.26	1.53	46.40	-44.0	-44.7	24.3	0.00e+00	0	48	0	1807745024	59	3944
2026-01-16 03:37:43.26	1.20	46.65	-44.2	-44.9	24.1	0.00e+00	0	48	0	1812987904	59	4051
2026-01-16 03:37:44.27	0.86	46.91	-44.4	-45.2	23.9	0.00e+00	0	48	0	1819279360	59	4155
2026-01-16 03:37:45.28	0.51	47.17	-44.3	-45.0	24.0	0.00e+00	0	48	0	1824522240	59	4090
2026-01-16 03:37:46.29	0.16	47.42	-44.3	-45.1	24.0	0.00e+00	0	48	0	1830813696	59	4101
2026-01-16 03:37:47.30	359.80	47.68	-44.4	-45.1	23.9	0.00e+00	0	48	0	1836056576	59	4145
2026-01-16 03:37:48.31	359.44	47.94	-44.4	-45.1	23.9	0.00e+00	0	48	0	1842348032	59	4128
2026-01-16 03:37:49.33	359.06	48.20	-44.4	-45.1	23.9	0.00e+00	0	48	0	1847590912	59	4136
2026-01-16 03:37:50.34	358.69	48.46	-44.3	-45.1	24.0	0.00e+00	0	48	0	1853882368	59	4110
2026-01-16 03:37:51.35	358.30	48.71	-44.3	-45.0	24.0	0.00e+00	0	48	0	1859125248	59	4093
2026-01-16 03:37:52.36	357.92	48.97	-44.3	-45.0	24.0	0.00e+00	0	48	0	1864368128	59	4095
2026-01-16 03:37:53.37	357.52	49.23	-44.3	-45.0	24.0	0.00e+00	0	48	0	1870659584	59	4083
2026-01-16 03:37:54.37	357.12	49.48	-44.4	-45.2	23.9	0.00e+00	0	48	0	1875902464	59	4175
2026-01-16 03:37:55.38	356.71	49.74	-44.6	-45.3	23.7	0.00e+00	0	48	0	1881145344	59	4230
2026-01-16 03:37:56.39	356.29	50.00	-44.4	-45.2	23.7	0.00e+00	0	48	0	1887436800	60	3941
2026-01-16 03:37:57.40	355.87	50.26	-44.4	-45.2	23.8	0.00e+00	0	48	0	1893728256	60	3930
2026-01-16 03:37:58.41	355.44	50.52	-44.3	-45.0	23.9	0.00e+00	0	48	0	1898971136	60	3854
2026-01-16 03:37:59.42	355.00	50.77	-44.2	-44.9	24.0	0.00e+00	0	48	0	1904214016	60	3809
2026-01-16 03:38:00.43	354.55	51.03	-44.1	-44.8	24.1	0.00e+00	0	48	0	1910505472	60	3752
2026-01-16 03:38:01.45	354.09	51.29	-44.2	-44.9	24.0	0.00e+00	0	49	0	1915748352	60	3807
2026-01-16 03:38:02.46	353.63	51.54	-44.4	-45.1	23.8	0.00e+00	0	49	0	1920991232	60	3893
2026-01-16 03:38:03.46	353.17	51.80	-44.5	-45.3	23.7	0.00e+00	0	48	0	1927282688	60	3966
2026-01-16 03:38:04.47	352.69	52.05	-44.6	-45.3	23.7	0.00e+00	0	48	0	1932525568	60	3988
2026-01-16 03:38:05.48	352.20	52.31	-44.4	-45.1	23.8	0.00e+00	0	49	0	1938817024	60	3909
2026-01-16 03:38:06.50	351.70	52.56	-44.3	-45.1	23.9	0.00e+00	0	48	0	1944059904	60	3876
2026-01-16 03:38:07.50	351.20	52.81	-44.6	-45.3	23.6	0.00e+00	0	48	0	1950351360	60	4001
2026-01-16 03:38:08.51	350.69	53.06	-44.6	-45.3	23.7	0.00e+00	0	48	0	1955594240	60	3979
2026-01-16 03:38:09.52	350.17	53.31	-44.5	-45.3	23.7	0.00e+00	0	48	0	1961885696	60	3978
2026-01-16 03:38:10.53	349.64	53.56	-44.4	-45.2	23.8	0.00e+00	0	48	0	1967128576	60	3928
2026-01-16 03:38:11.54	349.10	53.81	-44.3	-45.0	24.0	0.00e+00	0	48	0	1972371456	60	3844
2026-01-16 03:38:12.55	348.55	54.05	-44.4	-45.2	23.8	0.00e+00	0	48	0	1978662912	60	3929
2026-01-16 03:38:13.56	347.99	54.30	-44.5	-45.3	23.7	0.00e+00	0	48	0	1983905792	60	3981
2026-01-16 03:38:14.57	347.42	54.54	-44.5	-45.3	23.7	0.00e+00	0	48	0	1989148672	60	3990
2026-01-16 03:38:15.58	346.84	54.78	-44.4	-45.1	23.8	0.00e+00	0	48	0	1995440128	60	3913
2026-01-16 03:38:16.59	346.26	55.02	-44.3	-45.0	23.9	0.00e+00	0	49	0	2001731584	60	3850
2026-01-16 03:38:17.60	345.66	55.25	-44.1	-44.8	24.1	0.00e+00	0	48	0	2006974464	60	3780
2026-01-16 03:38:18.61	345.05	55.49	-44.4	-45.1	23.9	0.00e+00	0	48	0	2012217344	60	3882
2026-01-16 03:38:19.62	344.43	55.72	-44.3	-45.1	23.9	0.00e+00	0	48	0	2018508800	60	3891
2026-01-16 03:38:20.63	343.80	55.95	-44.4	-45.1	23.9	0.00e+00	0	48	0	2023751680	60	3912
2026-01-16 03:38:21.64	343.16	56.18	-44.3	-45.1	24.0	0.00e+00	0	49	0	2028994560	60	3877
2026-01-16 03:38:22.65	342.52	56.40	-44.3	-45.0	24.0	0.00e+00	0	48	0	2035286016	60	3841
2026-01-16 03:38:23.66	341.86	56.63	-44.0	-44.7	24.2	0.00e+00	0	48	0	2040528896	60	3718
2026-01-16 03:38:24.67	341.18	56.85	-44.2	-45.0	24.2	0.00e+00	0	48	0	2046820352	59	4059
2026-01-16 03:38:25.68	340.50	57.06	-44.4	-45.1	24.0	0.00e+00	0	48	0	2052063232	59	4118
2026-01-16 03:38:26.69	339.81	57.28	-44.7	-45.5	23.7	0.00e+00	0	48	0	2058354688	59	4298
2026-01-16 03:38:27.70	339.11	57.49	-44.2	-44.9	24.1	0.00e+00	0	48	0	2063597568	60	3804
2026-01-16 03:38:28.71	338.39	57.69	-44.1	-44.8	24.1	0.00e+00	0	48	0	2069889024	60	3780
2026-01-16 03:38:29.72	337.67	57.90	-44.2	-44.9	24.0	0.00e+00	0	49	0	2075131904	60	3819
2026-01-16 03:38:30.73	336.93	58.10	-44.4	-45.2	23.8	0.00e+00	0	49	0	2080374784	60	3922
2026-01-16 03:38:31.74	336.18	58.29	-44.3	-45.0	24.0	0.00e+00	0	48	0	2086666240	60	3854
2026-01-16 03:38:32.75	335.42	58.48	-44.2	-44.9	24.0	0.00e+00	0	49	0	2091909120	60	3821
2026-01-16 03:38:33.76	334.66	58.67	-44.5	-45.2	23.9	0.00e+00	0	49	0	2097152000	59	4189
2026-01-16 03:38:34.77	333.87	58.85	-44.5	-45.3	23.9	0.00e+00	0	49	0	2103443456	59	4225
2026-01-16 03:38:35.78	333.08	59.03	-44.2	-45.0	24.1	0.00e+00	0	49	0	2108686336	59	4059
2026-01-16 03:38:36.79	332.28	59.20	-44.2	-44.9	24.2	0.00e+00	0	48	0	2114977792	59	4045
2026-01-16 03:38:37.80	331.47	59.37	-44.4	-45.1	24.0	0.00e+00	0	48	0	2120220672	59	4126
2026-01-16 03:38:38.81	330.65	59.54	-44.7	-45.5	23.7	0.00e+00	0	48	0	2126512128	59	4310
2026-01-16 03:38:39.82	329.81	59.70	-44.4	-45.1	23.9	0.00e+00	0	49	0	2131755008	60	3903
2026-01-16 03:38:40.83	328.97	59.85	-44.3	-45.0	24.0	0.00e+00	0	49	0	2136997888	60	3863
2026-01-16 03:38:41.84	328.12	60.00	-44.2	-44.9	24.1	0.00e+00	0	49	0	2143289344	60	3803
2026-01-16 03:38:42.85	327.25	60.14	-44.3	-45.0	24.0	0.00e+00	0	49	0	2148532224	60	3854
2026-01-16 03:38:43.86	326.38	60.28	-44.0	-44.8	24.2	0.00e+00	0	48	0	2154823680	60	3739
2026-01-16 03:38:44.87	325.50	60.41	-44.0	-44.7	24.4	0.00e+00	0	49	0	2160066560	59	3925
2026-01-16 03:38:45.88	324.61	60.54	-44.0	-44.8	24.3	0.00e+00	0	49	0	2165309440	59	3970
2026-01-16 03:38:46.89	323.71	60.66	-44.3	-45.1	24.0	0.00e+00	0	48	0	2171600896	59	4119
2026-01-16 03:38:47.90	322.80	60.77	-43.9	-44.6	24.5	0.00e+00	0	49	0	2177892352	59	3903
2026-01-16 03:38:48.91	321.88	60.88	-43.9	-44.6	24.5	0.00e+00	0	48	0	2183135232	59	3877
2026-01-16 03:38:49.92	320.96	60.98	-44.1	-44.8	24.3	0.00e+00	0	48	0	2188378112	59	3998
2026-01-16 03:38:50.93	320.03	61.08	-44.3	-45.0	24.1	0.00e+00	0	48	0	2194669568	59	4096
2026-01-16 03:38:51.94	319.09	61.16	-44.4	-45.1	24.0	0.00e+00	0	49	0	2199912448	59	4138
2026-01-16 03:38:52.95	318.15	61.25	-44.1	-44.9	24.3	0.00e+00	0	49	0	2205155328	59	4019
2026-01-16 03:38:53.96	317.20	61.32	-44.1	-44.8	24.3	0.00e+00	0	49	0	2211446784	59	4000
2026-01-16 03:38:54.97	316.24	61.39	-43.9	-44.7	24.5	0.00e+00	0	49	0	2216689664	59	3921
2026-01-16 03:38:55.98	315.28	61.45	-43.7	-44.4	24.7	0.00e+00	0	49	0	2221932544	59	3814
2026-01-16 03:38:56.99	314.31	61.50	-43.9	-44.6	24.5	0.00e+00	0	49	0	2228224000	59	3891
2026-01-16 03:38:58.00	313.34	61.55	-44.0	-44.7	24.4	0.00e+00	0	48	0	2234515456	59	3943
2026-01-16 03:38:59.01	312.37	61.59	-44.1	-44.9	24.3	0.00e+00	0	49	0	2239758336	59	4010
2026-01-16 03:39:00.02	311.40	61.62	-44.0	-44.8	24.3	0.00e+00	0	49	0	2245001216	59	3983
2026-01-16 03:39:01.03	310.42	61.65	-44.0	-44.7	24.4	0.00e+00	0	48	0	2251292672	59	3930
2026-01-16 03:39:02.04	309.44	61.67	-43.7	-44.5	24.6	0.00e+00	0	49	0	2256535552	59	3833
2026-01-16 03:39:03.05	308.46	61.68	-43.5	-44.2	24.9	0.00e+00	0	48	0	2262827008	59	3725
2026-01-16 03:39:04.06	307.48	61.68	-43.7	-44.4	24.7	0.00e+00	0	49	0	2268069888	59	3816
2026-01-16 03:39:05.07	306.49	61.68	-43.6	-44.4	24.7	0.00e+00	0	49	0	2273312768	59	3790
2026-01-16 03:39:06.08	305.51	61.67	-43.5	-44.2	24.9	0.00e+00	0	49	0	2279604224	59	3728
2026-01-16 03:39:07.09	304.53	61.65	-43.5	-44.2	24.9	0.00e+00	0	49	0	2284847104	58	3928
2026-01-16 03:39:08.10	303.55	61.62	-43.3	-44.0	25.0	0.00e+00	0	49	0	2291138560	58	3839
2026-01-16 03:39:09.11	302.58	61.59	-43.2	-43.9	25.1	0.00e+00	0	49	0	2296381440	58	3810
2026-01-16 03:39:10.12	301.61	61.55	-43.3	-44.0	25.1	0.00e+00	0	49	0	2302672896	58	3836
2026-01-16 03:39:11.13	300.64	61.50	-43.8	-44.5	24.6	0.00e+00	0	49	0	2307915776	58	4080
2026-01-16 03:39:12.14	299.67	61.45	-43.8	-44.5	24.6	0.00e+00	0	49	0	2313158656	58	4081
2026-01-16 03:39:13.15	298.71	61.39	-43.6	-44.3	24.8	0.00e+00	0	49	0	2319450112	58	3983
2026-01-16 03:39:14.16	297.75	61.32	-43.6	-44.4	24.7	0.00e+00	0	49	0	2324692992	58	4008
2026-01-16 03:39:15.17	296.80	61.25	-43.9	-44.6	24.5	0.00e+00	0	49	0	2329935872	58	4130
2026-01-16 03:39:16.18	295.86	61.16	-43.8	-44.6	24.5	0.00e+00	0	49	0	2336227328	58	4107
2026-01-16 03:39:17.19	294.92	61.08	-43.9	-44.6	24.5	0.00e+00	0	49	0	2341470208	58	4115
2026-01-16 03:39:18.19	294.00	60.98	-43.8	-44.6	24.5	0.00e+00	0	49	0	2347761664	58	4111
2026-01-16 03:39:19.20	293.07	60.88	-43.6	-44.3	24.8	0.00e+00	0	48	0	2353004544	58	3977
2026-01-16 03:39:20.21	292.16	60.77	-43.7	-44.4	24.6	0.00e+00	0	49	0	2359296000	58	4047
2026-01-16 03:39:21.22	291.25	60.66	-44.1	-44.8	24.4	0.00e+00	0	49	0	2364538880	58	4215
2026-01-16 03:39:22.23	290.35	60.54	-44.1	-44.9	24.3	0.00e+00	0	49	0	2370830336	58	4247
2026-01-16 03:39:23.24	289.45	60.41	-44.2	-45.0	24.2	0.00e+00	0	49	0	2376073216	59	4064
2026-01-16 03:39:24.25	288.57	60.28	-44.1	-44.9	24.3	0.00e+00	0	49	0	2381316096	59	4009
2026-01-16 03:39:25.26	287.70	60.14	-43.9	-44.6	24.5	0.00e+00	0	49	0	2387607552	59	3913
2026-01-16 03:39:26.27	286.84	60.00	-43.9	-44.6	24.5	0.00e+00	0	49	0	2392850432	59	3904
2026-01-16 03:39:27.28	285.98	59.85	-44.0	-44.8	24.4	0.00e+00	0	49	0	2398093312	59	3959
2026-01-16 03:39:28.29	285.14	59.70	-43.9	-44.6	24.5	0.00e+00	0	49	0	2404384768	59	3908
2026-01-16 03:39:29.30	284.30	59.54	-43.8	-44.5	24.6	0.00e+00	0	49	0	2410676224	59	3864
2026-01-16 03:39:30.31	283.48	59.37	-43.8	-44.5	24.6	0.00e+00	0	48	0	2415919104	59	3852
2026-01-16 03:39:31.32	282.67	59.20	-43.8	-44.5	24.6	0.00e+00	0	49	0	2421161984	59	3867
2026-01-16 03:39:32.33	281.86	59.03	-43.9	-44.6	24.6	0.00e+00	0	49	0	2427453440	59	3886
2026-01-16 03:39:33.34	281.07	58.85	-43.9	-44.6	24.5	0.00e+00	0	49	0	2432696320	59	3901
2026-01-16 03:39:34.35	280.29	58.67	-43.9	-44.7	24.4	0.00e+00	0	49	0	2437939200	59	3933
2026-01-16 03:39:35.36	279.52	58.48	-43.8	-44.6	24.5	0.00e+00	0	49	0	2444230656	59	3905
2026-01-16 03:39:36.37	278.76	58.29	-43.8	-44.6	24.5	0.00e+00	0	49	0	2449473536	59	3883
2026-01-16 03:39:37.38	278.01	58.09	-43.7	-44.4	24.6	0.00e+00	0	49	0	2455764992	59	3819
2026-01-16 03:39:38.38	277.28	57.89	-43.8	-44.5	24.6	0.00e+00	0	49	0	2461007872	59	3868
2026-01-16 03:39:39.40	276.55	57.69	-44.0	-44.7	24.4	0.00e+00	0	49	0	2467299328	59	3936
2026-01-16 03:39:40.40	275.84	57.48	-44.1	-44.8	24.3	0.00e+00	0	49	0	2472542208	59	3974
2026-01-16 03:39:41.42	275.13	57.27	-44.1	-44.8	24.3	0.00e+00	0	49	0	2478833664	59	3997
2026-01-16 03:39:42.43	274.44	57.06	-44.0	-44.8	24.4	0.00e+00	0	49	0	2484076544	59	3960
2026-01-16 03:39:43.44	273.76	56.84	-43.9	-44.6	24.5	0.00e+00	0	49	0	2489319424	59	3904
2026-01-16 03:39:44.45	273.08	56.62	-44.0	-44.7	24.4	0.00e+00	0	49	0	2495610880	59	3955
2026-01-16 03:39:45.46	272.42	56.40	-43.9	-44.6	24.5	0.00e+00	0	49	0	2500853760	59	3908
2026-01-16 03:39:46.47	271.77	56.17	-44.0	-44.7	24.4	0.00e+00	0	49	0	2506096640	59	3932
2026-01-16 03:39:47.48	271.13	55.94	-44.0	-44.7	24.4	0.00e+00	0	49	0	2512388096	59	3931
2026-01-16 03:39:48.49	270.50	55.71	-44.0	-44.8	24.4	0.00e+00	0	49	0	2517630976	59	3965
2026-01-16 03:39:49.50	269.89	55.48	-44.0	-44.8	24.4	0.00e+00	0	49	0	2523922432	59	3959
2026-01-16 03:39:50.50	269.28	55.25	-44.0	-44.7	24.4	0.00e+00	0	49	0	2529165312	59	3945
2026-01-16 03:39:51.51	268.68	55.01	-44.1	-44.9	24.2	0.00e+00	0	49	0	2535456768	59	4012
2026-01-16 03:39:52.52	268.10	54.77	-44.3	-45.1	24.1	0.00e+00	0	49	0	2540699648	59	4100
2026-01-16 03:39:53.53	267.52	54.53	-44.5	-45.3	23.9	0.00e+00	0	49	0	2545942528	59	4205
2026-01-16 03:39:54.54	266.95	54.29	-44.4	-45.2	24.0	0.00e+00	0	49	0	2552233984	59	4149
2026-01-16 03:39:55.55	266.39	54.04	-44.5	-45.2	23.9	0.00e+00	0	49	0	2557476864	59	4177
2026-01-16 03:39:56.56	265.84	53.80	-44.3	-45.0	24.1	0.00e+00	0	49	0	2563768320	59	4094
2026-01-16 03:39:57.57	265.30	53.55	-44.0	-44.7	24.4	0.00e+00	0	49	0	2569011200	59	3935
2026-01-16 03:39:58.57	264.77	53.30	-43.8	-44.5	24.6	0.00e+00	0	49	0	2574254080	59	3861
2026-01-16 03:39:59.59	264.24	53.05	-43.9	-44.6	24.5	0.00e+00	0	49	0	2580545536	59	3875
2026-01-16 03:40:00.59	263.74	52.80	-44.1	-44.9	24.2	0.00e+00	0	49	0	2586836992	59	4011
2026-01-16 03:40:01.60	263.23	52.55	-44.3	-45.1	24.1	0.00e+00	0	49	0	2592079872	59	4107
2026-01-16 03:40:02.61	262.74	52.30	-44.3	-45.1	24.1	0.00e+00	0	49	0	2597322752	59	4110
2026-01-16 03:40:03.62	262.25	52.04	-44.3	-45.1	24.0	0.00e+00	0	49	0	2603614208	59	4100
2026-01-16 03:40:04.63	261.77	51.79	-44.3	-45.1	24.0	0.00e+00	0	49	0	2608857088	59	4099
2026-01-16 03:40:05.64	261.30	51.53	-44.2	-44.9	24.2	0.00e+00	0	49	0	2614099968	59	4041
2026-01-16 03:40:06.65	260.83	51.27	-44.5	-45.3	23.9	0.00e+00	0	49	0	2620391424	59	4209
2026-01-16 03:40:07.66	260.38	51.02	-44.5	-45.3	23.8	0.00e+00	0	49	0	2625634304	59	4217
2026-01-16 03:40:08.67	259.93	50.76	-44.5	-45.3	23.8	0.00e+00	0	49	0	2630877184	59	4233
2026-01-16 03:40:09.68	259.49	50.50	-44.4	-45.2	23.9	0.00e+00	0	49	0	2637168640	59	4158
2026-01-16 03:40:10.69	259.06	50.24	-44.3	-45.1	24.0	0.00e+00	0	49	0	2642411520	59	4103
2026-01-16 03:40:11.70	258.64	49.99	-44.2	-45.0	24.2	0.00e+00	0	49	0	2648702976	59	4053
2026-01-16 03:40:12.71	258.22	49.73	-44.2	-45.0	24.1	0.00e+00	0	49	0	2653945856	59	4069
2026-01-16 03:40:13.72	257.81	49.47	-44.3	-45.0	24.1	0.00e+00	0	49	0	2660237312	59	4076
2026-01-16 03:40:14.73	257.40	49.21	-44.3	-45.0	24.1	0.00e+00	0	49	0	2665480192	59	4071
2026-01-16 03:40:15.74	257.01	48.95	-44.2	-44.9	24.1	0.00e+00	0	49	0	2671771648	59	4050
2026-01-16 03:40:16.75	256.62	48.69	-44.1	-44.9	24.2	0.00e+00	0	49	0	2677014528	59	4020
2026-01-16 03:40:17.76	256.23	48.43	-44.1	-44.8	24.2	0.00e+00	0	49	0	2682257408	59	4000
2026-01-16 03:40:18.77	255.86	48.17	-44.0	-44.7	24.4	0.00e+00	0	49	0	2688548864	59	3942
2026-01-16 03:40:19.78	255.49	47.92	-44.1	-44.8	24.3	0.00e+00	0	49	0	2693791744	59	3997
2026-01-16 03:40:20.78	255.13	47.66	-44.1	-44.8	24.3	0.00e+00	0	49	0	2699034624	59	3997
2026-01-16 03:40:21.79	254.77	47.40	-43.8	-44.5	24.5	0.00e+00	0	49	0	2705326080	59	3864
2026-01-16 03:40:22.80	254.41	47.15	-43.7	-44.4	24.6	0.00e+00	0	49	0	2711617536	59	3799
2026-01-16 03:40:23.81	254.07	46.89	-43.7	-44.4	24.6	0.00e+00	0	49	0	2716860416	59	3816
2026-01-16 03:40:24.82	253.73	46.63	-43.4	-44.1	24.9	0.00e+00	0	49	0	2722103296	58	3871
2026-01-16 03:40:25.83	253.39	46.38	-43.3	-44.0	24.9	0.00e+00	0	49	0	2728394752	58	3855
2026-01-16 03:40:26.84	253.06	46.12	-43.5	-44.2	24.8	0.00e+00	0	49	0	2733637632	58	3920
2026-01-16 03:40:27.85	252.74	45.87	-43.5	-44.2	24.8	0.00e+00	0	49	0	2738880512	58	3931
2026-01-16 03:40:28.86	252.42	45.61	-43.3	-44.0	24.9	0.00e+00	0	49	0	2745171968	58	3865
2026-01-16 03:40:29.87	252.10	45.36	-43.4	-44.1	24.8	0.00e+00	0	49	0	2750414848	58	3913
2026-01-16 03:40:30.88	251.79	45.10	-43.4	-44.1	24.8	0.00e+00	0	49	0	2756706304	58	3909
2026-01-16 03:40:31.89	251.49	44.85	-43.4	-44.1	24.9	0.00e+00	0	49	0	2761949184	58	3896
2026-01-16 03:40:32.89	251.19	44.60	-43.4	-44.1	24.9	0.00e+00	0	49	0	2768240640	58	3906
2026-01-16 03:40:33.90	250.90	44.35	-43.3	-44.0	24.9	0.00e+00	0	49	0	2773483520	58	3860
2026-01-16 03:40:34.91	250.61	44.10	-43.3	-44.0	25.0	0.00e+00	0	49	0	2779774976	58	3830
2026-01-16 03:40:35.92	250.32	43.85	-43.2	-43.9	25.0	0.00e+00	0	49	0	2785017856	58	3803
2026-01-16 03:40:36.93	250.04	43.60	-43.2	-43.9	25.0	0.00e+00	0	49	0	2790260736	58	3789
2026-01-16 03:40:37.94	249.76	43.35	-43.2	-43.9	25.0	0.00e+00	0	49	0	2796552192	58	3787
2026-01-16 03:40:38.95	249.49	43.11	-43.4	-44.1	24.9	0.00e+00	0	49	0	2801795072	58	3883
2026-01-16 03:40:39.96	249.22	42.86	-43.5	-44.3	24.7	0.00e+00	0	49	0	2807037952	58	3964
2026-01-16 03:40:40.97	248.96	42.62	-43.6	-44.3	24.6	0.00e+00	0	49	0	2813329408	58	4000
2026-01-16 03:40:41.98	248.70	42.37	-43.6	-44.3	24.7	0.00e+00	0	49	0	2818572288	58	3994
2026-01-16 03:40:42.99	248.44	42.13	-43.6	-44.3	24.6	0.00e+00	0	49	0	2824863744	58	4002
2026-01-16 03:40:44.00	248.19	41.89	-43.4	-44.2	24.8	0.00e+00	0	49	0	2830106624	58	3916
2026-01-16 03:40:45.01	247.94	41.64	-43.4	-44.1	24.8	0.00e+00	0	49	0	2836398080	58	3912
2026-01-16 03:40:46.01	247.70	41.41	-43.1	-43.8	25.1	0.00e+00	0	49	0	2841640960	58	3749
2026-01-16 03:40:47.02	247.46	41.17	-43.0	-43.7	25.2	0.00e+00	0	49	0	2846883840	58	3729
2026-01-16 03:40:48.03	247.22	40.93	-43.1	-43.8	25.1	0.00e+00	0	49	0	2853175296	58	3762
2026-01-16 03:40:49.04	246.98	40.69	-43.2	-43.9	25.0	0.00e+00	0	49	0	2858418176	58	3806
2026-01-16 03:40:50.05	246.75	40.45	-43.4	-44.2	24.8	0.00e+00	0	49	0	2864709632	58	3916
2026-01-16 03:40:51.06	246.53	40.22	-43.6	-44.3	24.7	0.00e+00	0	49	0	2869952512	58	3982
2026-01-16 03:40:52.07	246.30	39.98	-43.5	-44.3	24.7	0.00e+00	0	49	0	2875195392	58	3962
2026-01-16 03:40:53.08	246.08	39.75	-43.5	-44.2	24.7	0.00e+00	0	49	0	2881486848	58	3937
2026-01-16 03:40:54.09	245.86	39.52	-43.4	-44.1	24.8	0.00e+00	0	49	0	2886729728	58	3903
2026-01-16 03:40:55.09	245.65	39.29	-43.4	-44.1	24.8	0.00e+00	0	49	0	2893021184	58	3889
2026-01-16 03:40:56.10	245.44	39.06	-43.4	-44.1	24.8	0.00e+00	0	49	0	2898264064	58	3906
2026-01-16 03:40:57.11	245.23	38.83	-43.4	-44.1	24.8	0.00e+00	0	49	0	2904555520	58	3898
2026-01-16 03:40:58.12	245.03	38.60	-43.4	-44.1	24.8	0.00e+00	0	49	0	2909798400	58	3909
2026-01-16 03:40:59.13	244.82	38.37	-43.4	-44.1	24.8	0.00e+00	0	49	0	2915041280	58	3886
2026-01-16 03:41:00.14	244.62	38.15	-43.2	-44.0	24.9	0.00e+00	0	49	0	2921332736	58	3825
2026-01-16 03:41:01.15	244.43	37.92	-43.2	-43.9	25.0	0.00e+00	0	49	0	2926575616	58	3809
2026-01-16 03:41:02.16	244.23	37.70	-43.3	-44.0	24.9	0.00e+00	0	49	0	2931818496	58	3834
2026-01-16 03:41:03.17	244.04	37.48	-43.3	-44.0	24.9	0.00e+00	0	49	0	2938109952	58	3841
2026-01-16 03:41:04.17	243.85	37.26	-43.1	-43.8	25.0	0.00e+00	0	49	0	2943352832	58	3770
2026-01-16 03:41:05.18	243.67	37.04	-43.0	-43.7	25.1	0.00e+00	0	49	0	2949644288	58	3721
2026-01-16 03:41:06.19	243.48	36.82	-43.0	-43.7	25.1	0.00e+00	0	49	0	2954887168	58	3709
2026-01-16 03:41:07.20	243.30	36.60	-42.9	-43.6	25.2	0.00e+00	0	49	0	2961178624	57	3874
2026-01-16 03:41:08.21	243.12	36.38	-42.9	-43.6	25.2	0.00e+00	0	49	0	2966421504	57	3900
2026-01-16 03:41:09.22	242.95	36.17	-43.0	-43.7	25.1	0.00e+00	0	49	0	2972712960	57	3943
2026-01-16 03:41:10.23	242.77	35.95	-43.1	-43.8	25.0	0.00e+00	0	49	0	2977955840	57	3985
2026-01-16 03:41:11.24	242.60	35.74	-43.3	-44.0	24.9	0.00e+00	0	49	0	2983198720	57	4062
2026-01-16 03:41:12.25	242.43	35.53	-43.3	-44.0	24.9	0.00e+00	0	49	0	2989490176	57	4067
2026-01-16 03:41:13.26	242.26	35.32	-43.3	-44.0	24.8	0.00e+00	0	49	0	2994733056	57	4095
2026-01-16 03:41:14.27	242.10	35.11	-43.3	-44.0	24.8	0.00e+00	0	49	0	2999975936	57	4089
2026-01-16 03:41:15.28	241.93	34.90	-43.3	-44.0	24.8	0.00e+00	0	49	0	3006267392	57	4077
2026-01-16 03:41:16.29	241.77	34.69	-43.3	-44.0	24.8	0.00e+00	0	49	0	3011510272	57	4074
2026-01-16 03:41:17.29	241.62	34.48	-43.3	-44.0	24.8	0.00e+00	0	49	0	3017801728	57	4067
2026-01-16 03:41:18.30	241.46	34.28	-43.2	-43.9	24.9	0.00e+00	0	49	0	3023044608	57	4035
2026-01-16 03:41:19.31	241.30	34.07	-43.2	-43.9	24.9	0.00e+00	0	49	0	3029336064	57	4013
2026-01-16 03:41:20.32	241.15	33.87	-43.2	-43.9	24.9	0.00e+00	0	49	0	3034578944	57	4046
2026-01-16 03:41:21.33	241.00	33.67	-43.2	-43.9	24.9	0.00e+00	0	49	0	3039821824	57	4028
2026-01-16 03:41:22.34	240.85	33.47	-43.2	-43.9	24.9	0.00e+00	0	49	0	3046113280	57	4050
2026-01-16 03:41:23.35	240.70	33.27	-43.2	-43.9	24.9	0.00e+00	0	49	0	3051356160	57	4048
2026-01-16 03:41:24.36	240.56	33.07	-43.0	-43.7	25.1	0.00e+00	0	49	0	3057647616	57	3930
2026-01-16 03:41:25.37	240.42	32.87	-43.0	-43.7	25.1	0.00e+00	0	49	0	3062890496	57	3937
2026-01-16 03:41:26.38	240.27	32.67	-43.1	-43.7	25.0	0.00e+00	0	49	0	3068133376	57	3958
2026-01-16 03:41:27.39	240.13	32.48	-43.0	-43.7	25.1	0.00e+00	0	49	0	3074424832	57	3937
2026-01-16 03:41:28.40	240.00	32.28	-43.1	-43.8	24.9	0.00e+00	0	49	0	3080716288	57	3993
2026-01-16 03:41:29.41	239.86	32.09	-43.2	-43.9	24.9	0.00e+00	0	49	0	3085959168	57	4024
2026-01-16 03:41:30.42	239.72	31.89	-43.3	-44.0	24.8	0.00e+00	0	49	0	3091202048	57	4075
2026-01-16 03:41:31.43	239.59	31.70	-43.3	-44.0	24.8	0.00e+00	0	49	0	3097493504	57	4095
2026-01-16 03:41:32.44	239.46	31.51	-43.3	-44.1	24.7	0.00e+00	0	49	0	3102736384	57	4106
2026-01-16 03:41:33.45	239.33	31.32	-43.2	-43.9	24.9	0.00e+00	0	49	0	3107979264	57	4030
2026-01-16 03:41:34.46	239.20	31.13	-43.2	-43.9	24.8	0.00e+00	0	49	0	3114270720	57	4043
2026-01-16 03:41:35.48	239.07	30.94	-43.3	-44.0	24.8	0.00e+00	0	49	0	3119513600	57	4088
2026-01-16 03:41:36.49	238.95	30.76	-43.2	-43.9	24.9	0.00e+00	0	49	0	3124756480	57	4030
2026-01-16 03:41:37.50	238.82	30.57	-43.1	-43.8	24.9	0.00e+00	0	49	0	3131047936	57	3998
2026-01-16 03:41:38.51	238.70	30.39	-43.3	-44.0	24.7	0.00e+00	0	49	0	3137339392	57	4090
2026-01-16 03:41:39.52	238.58	30.21	-43.2	-44.0	24.8	0.00e+00	0	49	0	3142582272	57	4054
2026-01-16 03:41:40.53	238.46	30.02	-43.4	-44.1	24.7	0.00e+00	0	49	0	3147825152	57	4117
2026-01-16 03:41:41.54	238.34	29.84	-43.5	-44.2	24.6	0.00e+00	0	49	0	3154116608	57	4163
2026-01-16 03:41:42.55	238.22	29.66	-43.5	-44.3	24.5	0.00e+00	0	49	0	3159359488	57	4194
2026-01-16 03:41:43.56	238.11	29.48	-43.4	-44.1	24.6	0.00e+00	0	49	0	3165650944	57	4135
2026-01-16 03:41:44.57	237.99	29.30	-43.5	-44.2	24.6	0.00e+00	0	49	0	3170893824	57	4163
2026-01-16 03:41:45.58	237.88	29.13	-43.5	-44.3	24.5	0.00e+00	0	49	0	3176136704	57	4201
2026-01-16 03:41:46.59	237.77	28.95	-43.6	-44.3	24.5	0.00e+00	0	49	0	3182428160	57	4218
2026-01-16 03:41:47.60	237.66	28.77	-43.6	-44.3	24.5	0.00e+00	0	49	0	3188719616	57	4215
2026-01-16 03:41:48.61	237.55	28.60	-43.6	-44.4	24.4	0.00e+00	0	49	0	3193962496	57	4245
2026-01-16 03:41:49.62	237.44	28.43	-43.6	-44.3	24.4	0.00e+00	0	49	0	3199205376	57	4227
2026-01-16 03:41:50.63	237.33	28.25	-43.7	-44.4	24.4	0.00e+00	0	49	0	3205496832	57	4287
2026-01-16 03:41:51.64	237.23	28.08	-43.8	-44.5	24.3	0.00e+00	0	49	0	3210739712	58	4071
2026-01-16 03:41:52.65	237.12	27.91	-43.9	-44.6	24.2	0.00e+00	0	49	0	3215982592	58	4124
2026-01-16 03:41:53.66	237.02	27.74	-43.8	-44.6	24.2	0.00e+00	0	49	0	3222274048	58	4116
2026-01-16 03:41:54.67	236.91	27.57	-43.7	-44.4	24.3	0.00e+00	0	49	0	3227516928	58	4046
2026-01-16 03:41:55.68	236.81	27.41	-43.7	-44.5	24.3	0.00e+00	0	49	0	3232759808	58	4061
2026-01-16 03:41:56.69	236.71	27.24	-43.8	-44.6	24.2	0.00e+00	0	49	0	3239051264	58	4109
2026-01-16 03:41:57.71	236.61	27.07	-43.8	-44.5	24.2	0.00e+00	0	49	0	3245342720	58	4098
2026-01-16 03:41:58.72	236.51	26.91	-43.8	-44.5	24.3	0.00e+00	0	49	0	3250585600	58	4088
2026-01-16 03:41:59.73	236.42	26.74	-43.7	-44.5	24.3	0.00e+00	0	49	0	3255828480	58	4062
2026-01-16 03:42:00.74	236.32	26.58	-43.7	-44.5	24.3	0.00e+00	0	49	0	3262119936	58	4057
2026-01-16 03:42:01.75	236.23	26.42	-43.7	-44.4	24.3	0.00e+00	0	49	0	3267362816	58	4048
2026-01-16 03:42:02.76	236.13	26.26	-43.7	-44.4	24.3	0.00e+00	0	49	0	3273654272	58	4044
2026-01-16 03:42:03.77	236.04	26.10	-43.6	-44.4	24.4	0.00e+00	0	49	0	3278897152	58	4010
2026-01-16 03:42:04.78	235.95	25.94	-43.6	-44.3	24.4	0.00e+00	0	49	0	3284140032	58	3990
2026-01-16 03:42:05.79	235.86	25.78	-43.7	-44.4	24.3	0.00e+00	0	49	0	3290431488	58	4028
2026-01-16 03:42:06.80	235.77	25.62	-43.7	-44.4	24.3	0.00e+00	0	49	0	3295674368	58	4034
2026-01-16 03:42:07.81	235.68	25.46	-43.6	-44.3	24.4	0.00e+00	0	49	0	3301965824	58	3985
2026-01-16 03:42:08.82	235.59	25.31	-43.6	-44.3	24.4	0.00e+00	0	49	0	3307208704	58	3988
2026-01-16 03:42:09.83	235.50	25.15	-43.7	-44.4	24.3	0.00e+00	0	49	0	3313500160	58	4030
2026-01-16 03:42:10.84	235.41	25.00	-43.8	-44.5	24.2	0.00e+00	0	49	0	3318743040	58	4080
2026-01-16 03:42:11.85	235.33	24.84	-43.8	-44.5	24.2	0.00e+00	0	49	0	3323985920	58	4065
2026-01-16 03:42:12.87	235.24	24.69	-43.8	-44.5	24.2	0.00e+00	0	49	0	3330277376	58	4083
2026-01-16 03:42:13.88	235.16	24.53	-43.8	-44.6	24.2	0.00e+00	0	49	0	3335520256	58	4104
2026-01-16 03:42:14.89	235.08	24.38	-43.8	-44.5	24.2	0.00e+00	0	49	0	3340763136	58	4082
2026-01-16 03:42:15.89	234.99	24.23	-43.9	-44.6	24.1	0.00e+00	0	49	0	3347054592	58	4126
2026-01-16 03:42:16.90	234.91	24.08	-43.8	-44.6	24.2	0.00e+00	0	49	0	3353346048	58	4102
2026-01-16 03:42:17.91	234.83	23.94	-43.8	-44.6	24.1	0.00e+00	0	49	0	3358588928	58	4111
2026-01-16 03:42:18.92	234.75	23.79	-43.9	-44.6	24.1	0.00e+00	0	49	0	3363831808	58	4142
2026-01-16 03:42:19.94	234.67	23.64	-43.8	-44.5	24.2	0.00e+00	0	49	0	3370123264	58	4074
2026-01-16 03:42:20.95	234.59	23.49	-43.8	-44.5	24.2	0.00e+00	0	49	0	3375366144	58	4069
2026-01-16 03:42:21.96	234.52	23.35	-43.7	-44.4	24.2	0.00e+00	0	49	0	3381657600	58	4049
2026-01-16 03:42:22.97	234.44	23.20	-43.8	-44.5	24.2	0.00e+00	0	49	0	3386900480	58	4066
2026-01-16 03:42:23.97	234.36	23.06	-43.7	-44.5	24.2	0.00e+00	0	49	0	3392143360	58	4054
2026-01-16 03:42:24.99	234.29	22.91	-43.7	-44.4	24.3	0.00e+00	0	49	0	3398434816	58	4046
2026-01-16 03:42:26.00	234.21	22.77	-43.7	-44.4	24.2	0.00e+00	0	49	0	3403677696	58	4039
2026-01-16 03:42:27.01	234.14	22.63	-43.8	-44.5	24.2	0.00e+00	0	49	0	3409969152	58	4077
2026-01-16 03:42:28.02	234.07	22.49	-43.8	-44.6	24.1	0.00e+00	0	49	0	3415212032	58	4118
2026-01-16 03:42:29.03	233.99	22.35	-43.9	-44.6	24.1	0.00e+00	0	49	0	3421503488	58	4123
2026-01-16 03:42:30.04	233.92	22.21	-43.8	-44.6	24.1	0.00e+00	0	49	0	3426746368	58	4106
2026-01-16 03:42:31.05	233.85	22.07	-43.9	-44.7	24.0	0.00e+00	0	49	0	3431989248	58	4158
2026-01-16 03:42:32.06	233.78	21.93	-43.9	-44.6	24.0	0.00e+00	0	49	0	3438280704	58	4140
2026-01-16 03:42:33.07	233.71	21.79	-43.9	-44.6	24.0	0.00e+00	0	49	0	3443523584	58	4137
2026-01-16 03:42:34.08	233.64	21.65	-44.0	-44.7	24.0	0.00e+00	0	49	0	3448766464	58	4191
2026-01-16 03:42:35.09	233.57	21.52	-44.0	-44.7	23.9	0.00e+00	0	49	0	3455057920	58	4187
2026-01-16 03:42:36.10	233.50	21.38	-44.0	-44.8	23.9	0.00e+00	0	49	0	3461349376	58	4203
2026-01-16 03:42:37.11	233.44	21.25	-44.2	-44.9	23.7	0.00e+00	0	49	0	3466592256	58	4285
2026-01-16 03:42:38.12	233.37	21.11	-44.1	-44.8	23.8	0.00e+00	0	49	0	3471835136	58	4234
2026-01-16 03:42:39.13	233.30	20.98	-44.1	-44.9	23.8	0.00e+00	0	49	0	3478126592	58	4260
2026-01-16 03:42:40.14	233.24	20.85	-44.1	-44.9	23.8	0.00e+00	0	49	0	3483369472	58	4252
2026-01-16 03:42:41.15	233.17	20.71	-44.2	-45.0	23.7	0.00e+00	0	49	0	3488612352	59	4066
2026-01-16 03:42:42.16	233.11	20.58	-44.2	-45.0	23.7	0.00e+00	0	49	0	3494903808	59	4060
2026-01-16 03:42:43.17	233.04	20.45	-44.4	-45.1	23.6	0.00e+00	0	49	0	3500146688	59	4128
2026-01-16 03:42:44.18	232.98	20.32	-44.4	-45.1	23.5	0.00e+00	0	49	0	3506438144	59	4144
2026-01-16 03:42:45.19	232.92	20.19	-44.4	-45.1	23.6	0.00e+00	0	49	0	3511681024	59	4124
2026-01-16 03:42:46.20	232.86	20.06	-44.5	-45.3	23.4	0.00e+00	0	49	0	3517972480	59	4209
2026-01-16 03:42:47.21	232.79	19.93	-44.5	-45.3	23.4	0.00e+00	0	49	0	3523215360	59	4199
2026-01-16 03:42:48.22	232.73	19.80	-44.6	-45.4	23.3	0.00e+00	0	49	0	3529506816	59	4244
2026-01-16 03:42:49.23	232.67	19.68	-44.7	-45.5	23.2	0.00e+00	0	49	0	3534749696	59	4307
2026-01-16 03:42:50.24	232.61	19.55	-44.7	-45.5	23.2	0.00e+00	0	49	0	3539992576	59	4301
2026-01-16 03:42:51.25	232.55	19.42	-44.5	-45.2	23.3	0.00e+00	0	49	0	3546284032	60	3948
2026-01-16 03:42:52.26	232.49	19.30	-44.6	-45.4	23.1	0.00e+00	0	49	0	3551526912	60	4020
2026-01-16 03:42:53.27	232.43	19.17	-44.6	-45.4	23.2	0.00e+00	0	49	0	3556769792	60	4007
2026-01-16 03:42:54.28	232.38	19.05	-44.6	-45.4	23.1	0.00e+00	0	49	0	3563061248	60	4012
2026-01-16 03:42:55.29	232.32	18.93	-44.7	-45.5	23.0	0.00e+00	0	49	0	3569352704	60	4088
2026-01-16 03:42:56.30	232.26	18.80	-44.6	-45.4	23.1	0.00e+00	0	49	0	3574595584	60	4031
2026-01-16 03:42:57.31	232.21	18.68	-44.7	-45.5	23.0	0.00e+00	0	49	0	3579838464	60	4071
2026-01-16 03:42:58.32	232.15	18.56	-44.7	-45.5	23.0	0.00e+00	0	49	0	3586129920	60	4085
2026-01-16 03:42:59.33	232.09	18.44	-44.7	-45.5	23.0	0.00e+00	0	49	0	3591372800	60	4056
2026-01-16 03:43:00.34	232.04	18.32	-44.8	-45.6	22.9	0.00e+00	0	49	0	3596615680	60	4118
2026-01-16 03:43:01.35	231.98	18.20	-44.8	-45.6	22.9	0.00e+00	0	49	0	3602907136	60	4111
2026-01-16 03:43:02.36	231.93	18.08	-44.7	-45.5	23.0	0.00e+00	0	49	0	3608150016	60	4063
2026-01-16 03:43:03.37	231.88	17.96	-44.8	-45.6	22.9	0.00e+00	0	49	0	3614441472	60	4108
2026-01-16 03:43:04.38	231.82	17.84	-44.6	-45.4	23.1	0.00e+00	0	49	0	3619684352	60	4022
2026-01-16 03:43:05.39	231.77	17.72	-44.7	-45.5	23.0	0.00e+00	0	49	0	3625975808	60	4094
2026-01-16 03:43:06.40	231.72	17.60	-44.7	-45.5	23.0	0.00e+00	0	49	0	3631218688	60	4057
2026-01-16 03:43:07.41	231.67	17.49	-44.8	-45.6	22.9	0.00e+00	0	49	0	3637510144	60	4109
2026-01-16 03:43:08.42	231.61	17.37	-44.8	-45.6	22.9	0.00e+00	0	49	0	3642753024	60	4124
2026-01-16 03:43:09.43	231.56	17.25	-44.6	-45.4	23.0	0.00e+00	0	49	0	3647995904	60	4035
2026-01-16 03:43:10.44	231.51	17.14	-44.6	-45.3	23.1	0.00e+00	0	49	0	3654287360	60	3992
2026-01-16 03:43:11.45	231.46	17.02	-44.7	-45.4	23.0	0.00e+00	0	49	0	3659530240	60	4051
2026-01-16 03:43:12.46	231.41	16.91	-44.7	-45.5	22.9	0.00e+00	0	49	0	3664773120	60	4069
2026-01-16 03:43:13.47	231.36	16.79	-44.9	-45.7	22.8	0.00e+00	0	49	0	3671064576	60	4147
2026-01-16 03:43:14.48	231.31	16.68	-44.9	-45.7	22.7	0.00e+00	0	49	0	3676307456	60	4171
2026-01-16 03:43:15.49	231.27	16.57	-44.9	-45.7	22.8	0.00e+00	0	49	0	3681550336	60	4166
2026-01-16 03:43:16.50	231.22	16.46	-44.7	-45.4	23.0	0.00e+00	0	49	0	3687841792	60	4034
2026-01-16 03:43:17.51	231.17	16.34	-44.7	-45.5	23.0	0.00e+00	0	49	0	3694133248	60	4054
2026-01-16 03:43:18.52	231.12	16.23	-44.7	-45.5	22.9	0.00e+00	0	49	0	3699376128	60	4067
2026-01-16 03:43:19.53	231.07	16.12	-44.7	-45.5	22.9	0.00e+00	0	49	0	3704619008	60	4067
2026-01-16 03:43:20.54	231.03	16.01	-44.8	-45.6	22.8	0.00e+00	0	49	0	3710910464	60	4107
2026-01-16 03:43:21.55	230.98	15.90	-44.8	-45.6	22.8	0.00e+00	0	49	0	3716153344	60	4127
2026-01-16 03:43:22.56	230.93	15.79	-44.9	-45.7	22.7	0.00e+00	0	49	0	3722444800	60	4173
2026-01-16 03:43:23.57	230.89	15.68	-45.0	-45.7	22.7	0.00e+00	0	49	0	3727687680	60	4190
2026-01-16 03:43:24.58	230.84	15.57	-45.0	-45.8	22.6	0.00e+00	0	49	0	3732930560	60	4223
2026-01-16 03:43:25.59	230.80	15.47	-45.1	-45.9	22.5	0.00e+00	0	49	0	3739222016	60	4283
2026-01-16 03:43:26.60	230.75	15.36	-45.1	-45.8	22.6	0.00e+00	0	49	0	3745513472	60	4239
2026-01-16 03:43:27.61	230.71	15.25	-45.0	-45.8	22.5	0.00e+00	0	49	0	3750756352	60	4230
