passes_logs/2026/01/16/R3.2S_Murmansk/R3.2S_Murmansk__20260116_180705_TY-42_rec.log

#Pass ID: 20260116_180705_TY-42
#Satellite: TY-42
#Configuration: TY-42_900M
#almurnet v.1.7.20251203
#Start time: 2026-01-16 18:07:05

#Version: 2.2.20231116
#Station: R3.2S_Murmansk
#Location: 33.079688 lon 68.888172 lat
#TLE: 1 64048U 25103A   26016.24410880  .00008011  00000-0  38191-3 0 09990
#TLE: 2 64048 097.4123 091.6382 0001701 090.6906 049.3125 15.19172310 37002

#Time	Az	El	Level	Level2	SNR	BER	BlckErr	Temp	State	Recorded	gain1	gain2
2026-01-16 18:07:05.15	138.21	2.01	-51.8	-53.9	6.2	0.00e+00	0	40	0	0	75	18117
2026-01-16 18:07:06.16	138.18	2.08	-51.8	-54.0	6.2	0.00e+00	0	40	104	0	75	18221
2026-01-16 18:07:07.16	138.15	2.15	-51.8	-53.9	6.2	0.00e+00	0	40	104	0	75	18175
2026-01-16 18:07:08.17	138.13	2.22	-51.8	-53.9	6.2	0.00e+00	0	40	104	0	75	18122
2026-01-16 18:07:09.18	138.10	2.29	-51.8	-53.9	6.2	0.00e+00	0	40	104	0	75	18121
2026-01-16 18:07:10.19	138.07	2.36	-51.8	-53.9	6.2	0.00e+00	0	40	104	0	75	18068
2026-01-16 18:07:11.20	138.04	2.43	-51.8	-53.9	6.2	0.00e+00	0	40	104	0	75	18088
2026-01-16 18:07:12.21	138.01	2.51	-51.8	-53.9	6.2	0.00e+00	0	40	104	0	75	18124
2026-01-16 18:07:13.22	137.98	2.58	-51.8	-53.9	6.2	0.00e+00	0	40	104	0	75	18133
2026-01-16 18:07:14.22	137.96	2.65	-51.8	-53.9	6.2	0.00e+00	0	40	104	0	75	18111
2026-01-16 18:07:15.23	137.93	2.72	-51.8	-53.9	6.2	0.00e+00	0	41	104	0	75	18109
2026-01-16 18:07:16.24	137.90	2.79	-51.8	-53.9	6.2	0.00e+00	0	41	104	0	75	18104
2026-01-16 18:07:17.25	137.87	2.87	-51.8	-53.9	6.2	0.00e+00	0	41	104	0	75	18100
2026-01-16 18:07:18.26	137.84	2.94	-51.8	-53.9	6.2	0.00e+00	0	41	104	0	75	18106
2026-01-16 18:07:19.27	137.81	3.01	-51.8	-53.9	6.2	0.00e+00	0	41	104	0	75	18138
2026-01-16 18:07:20.27	137.78	3.08	-51.8	-53.9	6.2	0.00e+00	0	41	104	0	75	18091
2026-01-16 18:07:21.28	137.75	3.16	-51.8	-53.9	6.2	0.00e+00	0	41	104	0	75	18164
2026-01-16 18:07:22.29	137.72	3.23	-51.8	-53.9	6.2	0.00e+00	0	41	104	0	75	18162
2026-01-16 18:07:23.30	137.69	3.31	-51.8	-53.9	6.2	0.00e+00	0	41	104	0	75	18167
2026-01-16 18:07:24.31	137.66	3.38	-51.8	-53.9	6.2	0.00e+00	0	41	104	0	75	18144
2026-01-16 18:07:25.32	137.63	3.45	-51.8	-53.9	6.2	0.00e+00	0	41	104	0	75	18152
2026-01-16 18:07:26.33	137.59	3.53	-51.8	-53.9	6.2	0.00e+00	0	41	104	0	75	18068
2026-01-16 18:07:27.34	137.56	3.60	-51.8	-53.9	6.2	0.00e+00	0	41	104	0	75	18166
2026-01-16 18:07:28.34	137.53	3.68	-51.8	-53.9	6.2	0.00e+00	0	41	104	0	75	18123
2026-01-16 18:07:29.35	137.50	3.75	-51.8	-53.9	6.2	0.00e+00	0	41	104	0	75	18133
2026-01-16 18:07:30.36	137.47	3.83	-51.8	-53.9	6.2	0.00e+00	0	42	104	0	75	18175
2026-01-16 18:07:31.37	137.43	3.91	-51.8	-53.9	6.2	0.00e+00	0	42	104	0	75	18107
2026-01-16 18:07:32.38	137.40	3.98	-51.8	-53.9	6.2	0.00e+00	0	42	104	0	75	18053
2026-01-16 18:07:33.39	137.37	4.06	-51.8	-53.9	6.2	0.00e+00	0	42	104	0	75	18144
2026-01-16 18:07:34.40	137.34	4.14	-51.8	-53.9	6.2	0.00e+00	0	42	104	0	75	18160
2026-01-16 18:07:35.40	137.30	4.21	-51.8	-53.9	6.2	0.00e+00	0	42	104	0	75	18116
2026-01-16 18:07:36.41	137.27	4.29	-51.8	-53.9	6.2	0.00e+00	0	42	104	0	75	18099
2026-01-16 18:07:37.42	137.23	4.37	-51.8	-53.9	6.2	0.00e+00	0	42	104	0	75	18125
2026-01-16 18:07:38.43	137.20	4.45	-51.8	-53.9	6.2	0.00e+00	0	42	104	0	75	18104
2026-01-16 18:07:39.44	137.17	4.53	-51.8	-53.9	6.2	0.00e+00	0	42	104	0	75	18119
2026-01-16 18:07:40.44	137.13	4.60	-51.8	-53.9	6.2	0.00e+00	0	42	104	0	75	18132
2026-01-16 18:07:41.45	137.10	4.68	-51.8	-53.9	6.2	0.00e+00	0	42	104	0	75	18139
2026-01-16 18:07:42.46	137.06	4.76	-51.8	-53.9	6.2	0.00e+00	0	42	104	0	75	18097
2026-01-16 18:07:43.47	137.03	4.84	-51.8	-53.9	6.2	0.00e+00	0	42	104	0	75	18149
2026-01-16 18:07:44.48	136.99	4.92	-51.8	-53.9	6.2	0.00e+00	0	42	104	0	75	18087
2026-01-16 18:07:45.48	136.95	5.00	-51.8	-53.9	6.2	0.00e+00	0	42	104	0	75	18153
2026-01-16 18:07:46.49	136.92	5.08	-51.9	-54.0	6.2	0.00e+00	0	42	104	0	75	18202
2026-01-16 18:07:47.50	136.88	5.16	-52.0	-54.1	6.2	0.00e+00	0	43	104	0	75	18459
2026-01-16 18:07:48.51	136.85	5.24	-51.9	-54.0	6.2	0.00e+00	0	43	104	0	75	18339
2026-01-16 18:07:49.52	136.81	5.33	-51.9	-54.0	6.2	0.00e+00	0	43	104	0	75	18368
2026-01-16 18:07:50.52	136.77	5.41	-52.0	-54.1	6.2	0.00e+00	0	43	104	0	75	18500
2026-01-16 18:07:51.53	136.73	5.49	-51.9	-54.1	6.2	0.00e+00	0	43	104	0	75	18410
2026-01-16 18:07:52.54	136.70	5.57	-38.8	-38.7	12.9	0.00e+00	0	45	0	58720256	49	14049
2026-01-16 18:07:53.55	136.66	5.65	-41.4	-41.4	11.3	0.00e+00	9069	46	0	167772160	54	14360
2026-01-16 18:07:54.56	136.62	5.74	-38.7	-38.6	13.0	3.74e-01	0	45	0	293601280	49	13891
2026-01-16 18:07:55.56	136.58	5.82	-39.7	-39.6	12.4	3.74e-01	0	46	0	402653184	51	13848
2026-01-16 18:07:56.57	136.54	5.90	-38.7	-38.6	13.0	3.74e-01	0	45	0	520093696	49	13935
2026-01-16 18:07:57.58	136.50	5.99	-38.8	-38.8	12.9	1.31e-01	0	45	0	629145600	49	14165
2026-01-16 18:07:58.59	136.46	6.07	-38.6	-38.5	13.0	1.31e-01	0	45	0	746586112	48	14578
2026-01-16 18:07:59.60	136.42	6.16	-38.5	-38.4	13.1	6.05e-02	0	45	0	855638016	48	14401
2026-01-16 18:08:00.60	136.38	6.24	-38.5	-38.5	13.1	6.05e-02	0	46	0	964689920	48	14463
2026-01-16 18:08:01.61	136.34	6.33	-38.5	-38.4	13.1	6.05e-02	0	46	0	1082130432	48	14360
2026-01-16 18:08:02.62	136.30	6.41	-38.4	-38.4	13.2	5.63e-02	0	46	0	1191182336	48	14306
2026-01-16 18:08:03.62	136.26	6.50	-38.7	-38.6	13.0	5.63e-02	0	46	0	1308622848	48	14749
2026-01-16 18:08:04.63	136.22	6.59	-38.7	-38.6	13.1	5.63e-02	0	46	0	1417674752	48	14735
2026-01-16 18:08:05.64	136.17	6.67	-38.2	-38.2	13.3	5.62e-02	0	46	0	1526726656	48	13992
2026-01-16 18:08:06.65	136.13	6.76	-38.3	-38.3	13.3	5.62e-02	0	46	0	1644167168	48	14156
2026-01-16 18:08:07.66	136.09	6.85	-38.2	-38.1	13.4	4.93e-02	0	46	0	1769996288	48	13858
2026-01-16 18:08:08.66	136.05	6.94	-38.5	-38.5	13.2	4.93e-02	0	46	0	1879048192	48	14454
2026-01-16 18:08:09.67	136.00	7.02	-38.2	-38.2	13.4	4.93e-02	0	46	0	1988100096	48	14012
2026-01-16 18:08:10.68	135.96	7.11	-38.1	-38.0	13.5	4.57e-02	0	46	0	2105540608	48	13718
2026-01-16 18:08:11.69	135.91	7.20	-38.2	-38.1	13.4	4.57e-02	0	46	0	2214592512	48	13897
2026-01-16 18:08:12.70	135.87	7.29	-38.1	-38.1	13.4	4.27e-02	0	46	0	2332033024	48	13843
2026-01-16 18:08:13.70	135.83	7.38	-38.1	-38.1	13.5	4.27e-02	0	46	0	2441084928	48	13823
2026-01-16 18:08:14.71	135.78	7.47	-37.1	-37.1	13.1	4.27e-02	0	46	0	2550136832	46	13818
2026-01-16 18:08:15.72	135.74	7.56	-37.2	-37.2	13.1	4.71e-02	0	46	0	2667577344	46	13999
2026-01-16 18:08:16.73	135.69	7.65	-37.2	-37.1	13.1	4.71e-02	0	46	0	2776629248	46	13949
2026-01-16 18:08:17.74	135.64	7.75	-37.0	-36.9	13.3	5.68e-02	0	46	0	2894069760	46	13582
2026-01-16 18:08:18.75	135.60	7.84	-36.7	-36.7	13.4	5.68e-02	0	46	0	3003121664	45	13974
2026-01-16 18:08:19.76	135.55	7.93	-37.1	-37.0	13.2	5.68e-02	0	47	0	3128950784	45	14537
2026-01-16 18:08:20.77	135.50	8.03	-37.0	-37.0	13.2	4.98e-02	0	47	0	3238002688	45	14488
2026-01-16 18:08:21.77	135.45	8.12	-37.1	-37.1	13.2	4.98e-02	0	47	0	3355443200	45	14638
2026-01-16 18:08:22.78	135.40	8.21	-37.0	-36.9	13.3	4.98e-02	0	47	0	3464495104	45	14361
2026-01-16 18:08:23.79	135.36	8.31	-37.1	-37.0	13.2	5.08e-02	0	47	0	3581935616	45	14585
2026-01-16 18:08:24.80	135.31	8.40	-36.6	-36.6	13.5	5.08e-02	0	47	0	3690987520	45	13802
2026-01-16 18:08:25.81	135.26	8.50	-36.8	-36.7	13.4	4.42e-02	0	47	0	3800039424	45	14041
2026-01-16 18:08:26.82	135.21	8.59	-36.8	-36.8	13.4	4.42e-02	0	47	0	3917479936	45	14142
2026-01-16 18:08:27.83	135.16	8.69	-36.9	-36.9	13.3	4.42e-02	0	47	0	4026531840	45	14315
2026-01-16 18:08:28.84	135.11	8.79	-36.5	-36.4	13.6	4.42e-02	0	47	0	4143972352	45	13627
2026-01-16 18:08:29.85	135.05	8.88	-36.6	-36.6	13.5	4.15e-02	0	47	0	4253024256	45	13829
2026-01-16 18:08:30.86	135.00	8.98	-36.5	-36.4	13.6	4.15e-02	0	47	0	4378853376	44	14363
2026-01-16 18:08:31.87	134.95	9.08	-36.4	-36.3	13.7	3.47e-02	0	47	0	4487905280	44	14241
2026-01-16 18:08:32.87	134.90	9.18	-36.4	-36.3	13.7	3.47e-02	0	47	0	4605345792	44	14156
2026-01-16 18:08:33.88	134.84	9.28	-36.2	-36.1	13.8	3.47e-02	0	47	0	4714397696	44	13950
2026-01-16 18:08:34.89	134.79	9.38	-36.1	-36.0	13.9	3.08e-02	0	47	0	4823449600	44	13684
2026-01-16 18:08:35.90	134.74	9.48	-36.1	-36.0	13.9	3.08e-02	0	47	0	4940890112	44	13729
2026-01-16 18:08:36.91	134.68	9.58	-36.2	-36.1	13.8	3.08e-02	0	47	0	5049942016	44	13888
2026-01-16 18:08:37.92	134.63	9.68	-36.1	-36.0	14.0	2.68e-02	0	47	0	5167382528	43	14503
2026-01-16 18:08:38.92	134.57	9.78	-36.0	-36.0	14.0	2.68e-02	0	47	0	5276434432	43	14486
2026-01-16 18:08:39.93	134.51	9.88	-36.0	-35.9	14.0	2.68e-02	0	47	0	5385486336	43	14339
2026-01-16 18:08:40.94	134.46	9.98	-36.0	-36.0	14.0	2.37e-02	0	47	0	5502926848	43	14470
2026-01-16 18:08:41.95	134.40	10.09	-35.9	-35.8	14.1	2.37e-02	0	48	0	5611978752	43	14198
2026-01-16 18:08:42.96	134.34	10.19	-35.8	-35.7	14.1	2.37e-02	0	47	0	5737807872	43	14041
2026-01-16 18:08:43.97	134.28	10.30	-35.8	-35.7	14.1	2.15e-02	0	48	0	5846859776	43	14022
2026-01-16 18:08:44.97	134.23	10.40	-35.8	-35.7	14.1	2.15e-02	0	48	0	5964300288	43	14038
2026-01-16 18:08:45.98	134.17	10.51	-35.7	-35.6	14.2	2.15e-02	0	48	0	6073352192	43	13948
2026-01-16 18:08:46.99	134.11	10.61	-35.7	-35.7	14.2	1.92e-02	0	48	0	6190792704	43	13960
2026-01-16 18:08:48.00	134.05	10.72	-35.5	-35.4	14.3	1.92e-02	0	48	0	6299844608	42	14332
2026-01-16 18:08:49.01	133.99	10.83	-35.3	-35.3	14.4	1.79e-02	0	48	0	6408896512	42	14115
2026-01-16 18:08:50.01	133.92	10.93	-35.4	-35.4	14.3	1.79e-02	0	48	0	6526337024	42	14292
2026-01-16 18:08:51.02	133.86	11.04	-35.4	-35.4	14.3	1.47e-02	0	48	0	6635388928	42	14287
2026-01-16 18:08:52.03	133.80	11.15	-35.6	-35.5	14.3	1.47e-02	0	48	0	6752829440	42	14486
2026-01-16 18:08:53.04	133.74	11.26	-35.2	-35.1	14.4	1.58e-02	0	48	0	6861881344	42	13947
2026-01-16 18:08:54.05	133.67	11.37	-35.1	-35.0	14.5	1.58e-02	0	48	0	6979321856	42	13763
2026-01-16 18:08:55.05	133.61	11.48	-35.2	-35.1	14.5	1.58e-02	0	48	0	7096762368	42	13858
2026-01-16 18:08:56.06	133.54	11.59	-35.1	-35.1	14.5	1.32e-02	0	48	0	7214202880	42	13826
2026-01-16 18:08:57.07	133.48	11.71	-35.1	-35.0	14.5	1.32e-02	0	48	0	7323254784	42	13774
2026-01-16 18:08:58.08	133.41	11.82	-35.1	-35.0	14.5	1.20e-02	0	48	0	7440695296	42	13734
2026-01-16 18:08:59.09	133.34	11.93	-34.9	-34.8	14.6	1.20e-02	0	48	0	7549747200	41	14157
2026-01-16 18:09:00.10	133.28	12.05	-34.8	-34.7	14.7	1.20e-02	0	48	0	7658799104	41	14094
2026-01-16 18:09:01.11	133.21	12.16	-34.7	-34.6	14.7	9.96e-03	0	48	0	7776239616	41	13839
2026-01-16 18:09:02.12	133.14	12.28	-34.5	-34.4	14.8	9.96e-03	0	48	0	7885291520	41	13632
2026-01-16 18:09:03.12	133.07	12.39	-34.7	-34.6	14.7	9.96e-03	0	48	0	8002732032	40	14644
2026-01-16 18:09:04.13	133.00	12.51	-34.6	-34.5	14.7	8.44e-03	0	48	0	8111783936	40	14512
2026-01-16 18:09:05.14	132.93	12.63	-34.2	-34.1	14.9	8.44e-03	0	48	0	8220835840	40	13939
2026-01-16 18:09:06.15	132.85	12.75	-34.2	-34.2	14.9	8.44e-03	0	48	0	8338276352	40	13951
2026-01-16 18:09:07.16	132.78	12.87	-34.2	-34.1	15.0	7.08e-03	0	48	0	8455716864	40	13846
2026-01-16 18:09:08.17	132.71	12.98	-34.1	-34.0	15.0	7.08e-03	0	48	0	8573157376	40	13700
2026-01-16 18:09:09.18	132.63	13.11	-34.2	-34.1	15.0	6.07e-03	0	48	0	8682209280	40	13836
2026-01-16 18:09:10.19	132.56	13.23	-34.1	-34.0	15.0	6.07e-03	0	48	0	8799649792	40	13743
2026-01-16 18:09:11.20	132.48	13.35	-34.0	-33.9	15.0	6.07e-03	0	48	0	8908701696	40	13618
2026-01-16 18:09:12.20	132.41	13.47	-34.0	-33.9	15.1	5.22e-03	0	48	0	9026142208	39	14438
2026-01-16 18:09:13.21	132.33	13.59	-34.0	-33.9	15.1	5.22e-03	0	48	0	9135194112	39	14435
2026-01-16 18:09:14.22	132.25	13.72	-33.8	-33.7	15.2	4.70e-03	0	49	0	9244246016	39	14048
2026-01-16 18:09:15.23	132.17	13.84	-33.7	-33.7	15.2	4.70e-03	0	48	0	9361686528	39	13967
2026-01-16 18:09:16.24	132.09	13.97	-33.7	-33.6	15.2	4.70e-03	0	48	0	9470738432	39	13834
2026-01-16 18:09:17.25	132.01	14.10	-33.6	-33.5	15.2	3.53e-03	0	49	0	9588178944	39	13704
2026-01-16 18:09:18.26	131.93	14.22	-33.4	-33.4	15.3	3.53e-03	0	48	0	9705619456	38	14285
2026-01-16 18:09:19.26	131.85	14.35	-33.5	-33.4	15.2	3.40e-03	0	49	0	9823059968	38	14339
2026-01-16 18:09:20.27	131.77	14.48	-33.4	-33.3	15.3	3.40e-03	0	49	0	9932111872	38	14264
2026-01-16 18:09:21.28	131.68	14.61	-33.3	-33.2	15.3	3.40e-03	0	48	0	10049552384	38	14037
2026-01-16 18:09:22.29	131.60	14.74	-33.4	-33.3	15.3	3.10e-03	0	49	0	10158604288	38	14236
2026-01-16 18:09:23.30	131.51	14.87	-33.4	-33.3	15.3	3.10e-03	0	49	0	10276044800	38	14249
2026-01-16 18:09:24.31	131.42	15.01	-33.4	-33.3	15.3	3.10e-03	0	49	0	10385096704	38	14218
2026-01-16 18:09:25.31	131.34	15.14	-33.1	-33.0	15.4	3.12e-03	0	49	0	10494148608	38	13732
2026-01-16 18:09:26.32	131.25	15.27	-33.0	-32.9	15.5	3.12e-03	0	49	0	10611589120	38	13611
2026-01-16 18:09:27.33	131.16	15.41	-32.9	-32.8	15.5	2.56e-03	0	49	0	10720641024	37	14167
2026-01-16 18:09:28.34	131.07	15.54	-32.8	-32.7	15.5	2.56e-03	0	49	0	10838081536	37	14074
2026-01-16 18:09:29.34	130.98	15.68	-32.9	-32.8	15.5	2.01e-03	0	49	0	10947133440	37	14153
2026-01-16 18:09:30.35	130.88	15.82	-32.7	-32.6	15.5	2.01e-03	0	49	0	11072962560	37	13947
2026-01-16 18:09:31.36	130.79	15.96	-32.6	-32.6	15.6	1.99e-03	0	49	0	11182014464	37	13820
2026-01-16 18:09:32.37	130.70	16.10	-32.7	-32.6	15.6	1.99e-03	0	49	0	11299454976	37	13841
2026-01-16 18:09:33.38	130.60	16.24	-32.6	-32.5	15.6	1.99e-03	0	49	0	11408506880	37	13757
2026-01-16 18:09:34.39	130.50	16.38	-32.6	-32.5	15.6	1.85e-03	0	49	0	11517558784	37	13686
2026-01-16 18:09:35.40	130.40	16.52	-32.5	-32.4	15.6	1.85e-03	0	49	0	11634999296	36	14371
2026-01-16 18:09:36.41	130.30	16.67	-32.3	-32.2	15.7	1.85e-03	0	49	0	11744051200	36	14023
2026-01-16 18:09:37.42	130.20	16.81	-32.2	-32.2	15.8	1.42e-03	0	49	0	11861491712	36	13969
2026-01-16 18:09:38.43	130.10	16.96	-32.4	-32.3	15.8	1.42e-03	0	49	0	11970543616	36	14274
2026-01-16 18:09:39.44	130.00	17.10	-32.3	-32.2	15.8	1.42e-03	0	49	0	12079595520	36	14102
2026-01-16 18:09:40.45	129.90	17.25	-32.1	-32.0	15.9	1.01e-03	0	49	0	12197036032	36	13789
2026-01-16 18:09:41.46	129.79	17.40	-32.1	-32.0	15.9	1.01e-03	0	49	0	12322865152	36	13735
2026-01-16 18:09:42.46	129.69	17.55	-29.6	-29.5	15.5	7.06e-04	0	49	0	12431917056	31	13748
2026-01-16 18:09:43.47	129.58	17.70	-29.6	-29.5	15.5	7.06e-04	0	49	0	12540968960	31	13700
2026-01-16 18:09:44.48	129.47	17.85	-29.5	-29.5	15.5	7.06e-04	0	49	0	12658409472	31	13642
2026-01-16 18:09:45.49	129.36	18.00	-29.4	-29.3	15.5	2.05e-03	0	49	0	12767461376	30	14183
2026-01-16 18:09:46.50	129.25	18.16	-29.3	-29.3	15.6	2.05e-03	0	49	0	12884901888	30	14133
2026-01-16 18:09:47.50	129.13	18.31	-29.3	-29.2	15.6	2.05e-03	0	49	0	12993953792	30	14038
2026-01-16 18:09:48.51	129.02	18.47	-29.1	-29.0	15.7	1.53e-03	0	49	0	13103005696	30	13724
2026-01-16 18:09:49.52	128.90	18.63	-29.1	-29.0	15.6	1.53e-03	0	49	0	13220446208	30	13754
2026-01-16 18:09:50.53	128.79	18.79	-29.2	-29.1	15.6	1.22e-03	0	49	0	13329498112	30	13889
2026-01-16 18:09:51.53	128.67	18.94	-29.0	-28.9	15.7	1.22e-03	0	49	0	13446938624	30	13619
2026-01-16 18:09:52.54	128.55	19.11	-28.8	-28.8	15.7	1.22e-03	0	49	0	13555990528	29	14118
2026-01-16 18:09:53.55	128.43	19.27	-28.6	-28.5	15.8	1.26e-03	0	49	0	13673431040	29	13757
2026-01-16 18:09:54.56	128.30	19.43	-28.6	-28.5	15.8	1.26e-03	0	49	0	13790871552	29	13776
2026-01-16 18:09:55.57	128.18	19.60	-28.6	-28.5	15.8	9.73e-04	0	49	0	13908312064	29	13701
2026-01-16 18:09:56.58	128.05	19.76	-28.4	-28.3	15.8	9.73e-04	0	49	0	14017363968	28	14246
2026-01-16 18:09:57.59	127.92	19.93	-28.5	-28.4	15.8	9.73e-04	0	49	0	14134804480	28	14321
2026-01-16 18:09:58.60	127.79	20.10	-28.5	-28.4	15.9	7.87e-04	0	49	0	14243856384	28	14327
2026-01-16 18:09:59.61	127.66	20.27	-28.3	-28.2	15.9	7.87e-04	0	49	0	14352908288	28	14073
2026-01-16 18:10:00.62	127.53	20.44	-28.2	-28.2	16.0	7.87e-04	0	49	0	14470348800	28	13952
2026-01-16 18:10:01.62	127.40	20.61	-28.2	-28.1	16.0	5.53e-04	0	49	0	14579400704	28	13899
2026-01-16 18:10:02.63	127.26	20.79	-28.3	-28.2	16.0	5.53e-04	0	49	0	14688452608	28	14040
2026-01-16 18:10:03.64	127.12	20.96	-28.3	-28.2	16.0	5.53e-04	0	49	0	14805893120	28	14049
2026-01-16 18:10:04.65	126.98	21.14	-28.3	-28.2	16.0	5.34e-04	0	49	0	14914945024	28	13967
2026-01-16 18:10:05.66	126.84	21.32	-28.2	-28.1	16.1	5.34e-04	0	49	0	15040774144	28	13817
2026-01-16 18:10:06.66	126.70	21.49	-28.1	-28.0	16.1	5.34e-04	0	49	0	15158214656	28	13756
2026-01-16 18:10:07.67	126.55	21.68	-28.0	-27.9	16.1	3.53e-04	0	49	0	15267266560	28	13587
2026-01-16 18:10:08.68	126.40	21.86	-28.1	-28.0	16.1	3.53e-04	0	49	0	15376318464	28	13751
2026-01-16 18:10:09.69	126.25	22.04	-28.0	-27.9	16.1	3.53e-04	0	49	0	15493758976	27	14424
2026-01-16 18:10:10.70	126.10	22.23	-27.9	-27.8	16.2	3.19e-04	0	49	0	15602810880	27	14159
2026-01-16 18:10:11.71	125.95	22.41	-27.9	-27.8	16.1	3.19e-04	0	49	0	15720251392	27	14181
2026-01-16 18:10:12.72	125.79	22.60	-27.6	-27.5	16.2	3.19e-04	0	49	0	15829303296	27	13775
2026-01-16 18:10:13.73	125.63	22.79	-27.6	-27.5	16.2	2.43e-04	0	49	0	15938355200	27	13707
2026-01-16 18:10:14.74	125.47	22.98	-27.6	-27.5	16.2	2.43e-04	0	49	0	16055795712	27	13771
2026-01-16 18:10:15.75	125.31	23.18	-27.4	-27.3	16.2	2.43e-04	0	49	0	16164847616	26	14143
2026-01-16 18:10:16.76	125.14	23.37	-27.1	-27.1	16.2	1.81e-04	0	49	0	16290676736	26	13792
2026-01-16 18:10:17.77	124.98	23.57	-27.2	-27.1	16.2	1.81e-04	0	49	0	16399728640	26	13925
2026-01-16 18:10:18.77	124.81	23.76	-27.1	-27.0	16.3	1.72e-04	0	49	0	16517169152	26	13770
2026-01-16 18:10:19.78	124.64	23.96	-27.0	-26.9	16.3	1.72e-04	0	49	0	16626221056	26	13589
2026-01-16 18:10:20.79	124.46	24.16	-27.0	-26.9	16.4	1.72e-04	0	49	0	16743661568	26	13605
2026-01-16 18:10:21.80	124.28	24.36	-26.9	-26.8	16.4	6.67e-05	0	49	0	16852713472	25	14205
2026-01-16 18:10:22.81	124.10	24.57	-26.7	-26.6	16.4	6.67e-05	0	49	0	16961765376	25	13864
2026-01-16 18:10:23.82	123.92	24.77	-26.7	-26.6	16.4	6.67e-05	0	49	0	17079205888	25	13831
2026-01-16 18:10:24.82	123.74	24.98	-26.9	-26.8	16.4	6.67e-05	0	49	0	17188257792	25	14160
2026-01-16 18:10:25.83	123.55	25.19	-26.7	-26.6	16.4	2.38e-05	0	49	0	17305698304	25	13824
2026-01-16 18:10:26.84	123.36	25.40	-26.6	-26.5	16.4	2.38e-05	0	49	0	17414750208	25	13780
2026-01-16 18:10:27.85	123.16	25.61	-26.4	-26.3	16.5	5.24e-05	0	49	0	17532190720	24	14238
2026-01-16 18:10:28.86	122.97	25.82	-26.5	-26.4	16.5	5.24e-05	0	49	0	17649631232	24	14320
2026-01-16 18:10:29.87	122.77	26.04	-26.2	-26.1	16.6	5.24e-05	0	49	0	17767071744	24	13920
2026-01-16 18:10:30.87	122.57	26.25	-26.1	-26.0	16.6	3.33e-05	0	49	0	17876123648	24	13744
2026-01-16 18:10:31.88	122.36	26.47	-26.1	-26.0	16.6	3.33e-05	0	49	0	17993564160	24	13665
2026-01-16 18:10:32.89	122.15	26.69	-25.9	-25.8	16.6	3.33e-05	0	49	0	18102616064	23	14163
2026-01-16 18:10:33.90	121.94	26.92	-26.0	-25.9	16.6	4.70e-06	0	50	0	18211667968	23	14359
2026-01-16 18:10:34.91	121.72	27.14	-25.9	-25.8	16.6	4.70e-06	0	49	0	18329108480	23	14174
2026-01-16 18:10:35.92	121.50	27.37	-25.9	-25.8	16.6	4.70e-06	0	50	0	18438160384	23	14210
2026-01-16 18:10:36.93	121.28	27.60	-25.6	-25.5	16.7	4.70e-06	0	49	0	18555600896	23	13713
2026-01-16 18:10:37.94	121.05	27.83	-25.4	-25.2	16.7	1.43e-05	0	49	0	18664652800	22	14100
2026-01-16 18:10:38.94	120.83	28.06	-25.3	-25.2	16.7	1.43e-05	0	49	0	18773704704	22	14088
2026-01-16 18:10:39.95	120.59	28.29	-25.1	-25.0	16.7	1.43e-05	0	49	0	18899533824	22	13756
2026-01-16 18:10:40.96	120.36	28.52	-25.1	-25.0	16.8	0.00e+00	0	49	0	19016974336	22	13666
2026-01-16 18:10:41.97	120.12	28.76	-25.1	-25.0	16.8	0.00e+00	0	49	0	19126026240	22	13667
2026-01-16 18:10:42.98	119.87	29.00	-24.8	-24.7	16.9	0.00e+00	0	49	0	19235078144	21	14045
2026-01-16 18:10:43.99	119.62	29.24	-24.9	-24.8	16.8	0.00e+00	0	49	0	19352518656	21	14183
2026-01-16 18:10:45.00	119.37	29.49	-24.7	-24.5	16.9	0.00e+00	0	49	0	19461570560	21	13789
2026-01-16 18:10:46.01	119.11	29.73	-24.7	-24.6	16.9	0.00e+00	0	49	0	19579011072	21	13865
2026-01-16 18:10:47.01	118.85	29.97	-24.6	-24.5	16.9	0.00e+00	0	49	0	19688062976	21	13653
2026-01-16 18:10:48.02	118.58	30.22	-24.4	-24.3	16.9	0.00e+00	0	49	0	19797114880	20	14220
2026-01-16 18:10:49.03	118.31	30.47	-24.5	-24.3	16.9	0.00e+00	0	49	0	19914555392	20	14261
2026-01-16 18:10:50.04	118.04	30.73	-24.3	-24.2	17.0	0.00e+00	0	49	0	20023607296	20	14063
2026-01-16 18:10:51.05	117.76	30.98	-24.3	-24.1	17.0	0.00e+00	0	49	0	20141047808	20	13919
2026-01-16 18:10:52.06	117.47	31.24	-24.3	-24.1	17.0	0.00e+00	0	49	0	20258488320	20	13942
2026-01-16 18:10:53.06	117.19	31.49	-24.1	-24.0	17.1	0.00e+00	0	49	0	20375928832	20	13678
2026-01-16 18:10:54.07	116.89	31.75	-24.1	-24.0	17.1	0.00e+00	0	50	0	20484980736	20	13714
2026-01-16 18:10:55.08	116.59	32.01	-24.1	-24.0	17.1	4.70e-06	0	49	0	20602421248	20	13708
2026-01-16 18:10:56.09	116.28	32.28	-24.0	-23.9	17.1	4.70e-06	0	49	0	20711473152	19	14372
2026-01-16 18:10:57.10	115.97	32.54	-24.0	-23.9	17.1	4.70e-06	0	49	0	20820525056	19	14342
2026-01-16 18:10:58.10	115.66	32.81	-24.0	-23.8	17.1	0.00e+00	0	49	0	20937965568	19	14243
2026-01-16 18:10:59.11	115.34	33.08	-23.9	-23.7	17.2	0.00e+00	0	49	0	21047017472	19	14107
2026-01-16 18:11:00.12	115.01	33.35	-23.8	-23.6	17.2	0.00e+00	0	49	0	21164457984	19	13938
2026-01-16 18:11:01.13	114.68	33.62	-23.6	-23.5	17.2	0.00e+00	0	49	0	21273509888	19	13713
2026-01-16 18:11:02.14	114.34	33.89	-23.7	-23.6	17.2	0.00e+00	0	49	0	21390950400	19	13805
2026-01-16 18:11:03.14	113.99	34.17	-23.6	-23.5	17.2	0.00e+00	0	49	0	21500002304	19	13691
2026-01-16 18:11:04.15	113.64	34.44	-23.6	-23.4	17.2	0.00e+00	0	50	0	21609054208	19	13621
2026-01-16 18:11:05.16	113.28	34.72	-23.5	-23.4	17.3	0.00e+00	0	49	0	21734883328	19	13538
2026-01-16 18:11:06.17	112.92	35.01	-23.4	-23.3	17.2	0.00e+00	0	49	0	21852323840	18	14196
2026-01-16 18:11:07.18	112.54	35.29	-23.5	-23.4	17.2	0.00e+00	0	49	0	21961375744	18	14328
2026-01-16 18:11:08.19	112.16	35.57	-23.3	-23.1	17.3	0.00e+00	0	49	0	22070427648	18	13906
2026-01-16 18:11:09.20	111.78	35.86	-23.2	-23.1	17.3	0.00e+00	0	49	0	22187868160	18	13885
2026-01-16 18:11:10.20	111.39	36.14	-23.1	-23.0	17.3	0.00e+00	0	49	0	22296920064	18	13715
2026-01-16 18:11:11.21	110.99	36.43	-23.0	-22.9	17.2	0.00e+00	0	49	0	22414360576	18	13543
2026-01-16 18:11:12.22	110.58	36.72	-23.1	-22.9	17.2	0.00e+00	0	49	0	22523412480	18	13622
2026-01-16 18:11:13.23	110.16	37.01	-23.2	-23.1	17.2	0.00e+00	0	49	0	22632464384	18	13820
2026-01-16 18:11:14.24	109.74	37.31	-22.8	-22.7	17.2	0.00e+00	0	49	0	22749904896	17	13992
2026-01-16 18:11:15.25	109.30	37.60	-22.7	-22.6	17.3	0.00e+00	0	49	0	22858956800	17	13794
2026-01-16 18:11:16.26	108.86	37.90	-22.6	-22.5	17.2	0.00e+00	0	49	0	22984785920	17	13727
2026-01-16 18:11:17.26	108.42	38.19	-22.5	-22.4	17.2	0.00e+00	0	49	0	23093837824	17	13558
2026-01-16 18:11:18.27	107.96	38.49	-22.6	-22.4	17.2	0.00e+00	0	49	0	23211278336	17	13597
2026-01-16 18:11:19.28	107.49	38.78	-22.3	-22.2	17.2	0.00e+00	0	49	0	23320330240	16	13992
2026-01-16 18:11:20.29	107.02	39.08	-22.4	-22.3	17.2	0.00e+00	0	49	0	23437770752	16	14159
2026-01-16 18:11:21.30	106.53	39.38	-22.4	-22.3	17.2	0.00e+00	0	49	0	23546822656	16	14186
2026-01-16 18:11:22.30	106.04	39.68	-22.3	-22.1	17.2	0.00e+00	0	50	0	23655874560	16	13934
2026-01-16 18:11:23.32	105.53	39.99	-22.1	-22.0	17.3	0.00e+00	0	49	0	23773315072	16	13683
2026-01-16 18:11:24.32	105.02	40.28	-22.0	-21.9	17.3	0.00e+00	0	49	0	23882366976	16	13577
2026-01-16 18:11:25.33	104.49	40.59	-21.7	-21.6	17.3	0.00e+00	0	49	0	23999807488	15	13875
2026-01-16 18:11:26.34	103.96	40.89	-21.8	-21.7	17.2	0.00e+00	0	49	0	24108859392	15	13981
2026-01-16 18:11:27.35	103.41	41.19	-21.6	-21.5	17.3	0.00e+00	0	49	0	24217911296	15	13656
2026-01-16 18:11:28.36	102.86	41.49	-21.5	-21.4	17.3	0.00e+00	0	49	0	24343740416	15	13551
2026-01-16 18:11:29.36	102.29	41.79	-21.6	-21.5	17.3	0.00e+00	0	49	0	24461180928	15	13637
2026-01-16 18:11:30.37	101.71	42.09	-21.6	-21.5	17.3	0.00e+00	0	49	0	24570232832	15	13668
2026-01-16 18:11:31.38	101.12	42.39	-21.3	-21.2	17.3	0.00e+00	0	49	0	24679284736	14	14005
2026-01-16 18:11:32.39	100.52	42.69	-21.2	-21.1	17.3	0.00e+00	0	49	0	24796725248	14	13877
2026-01-16 18:11:33.40	99.91	42.99	-21.3	-21.1	17.3	0.00e+00	0	49	0	24905777152	14	13916
2026-01-16 18:11:34.40	99.29	43.29	-21.3	-21.1	17.3	0.00e+00	0	49	0	25023217664	14	13941
2026-01-16 18:11:35.41	98.65	43.59	-21.1	-21.0	17.3	0.00e+00	0	49	0	25132269568	14	13663
2026-01-16 18:11:36.42	98.00	43.88	-21.1	-20.9	17.3	0.00e+00	0	49	0	25241321472	14	13595
2026-01-16 18:11:37.43	97.34	44.18	-21.1	-20.9	17.3	0.00e+00	0	49	0	25358761984	14	13632
2026-01-16 18:11:38.44	96.66	44.47	-20.9	-20.8	17.3	0.00e+00	0	49	0	25467813888	13	14165
2026-01-16 18:11:39.44	95.98	44.76	-20.8	-20.7	17.3	0.00e+00	0	49	0	25585254400	13	14012
2026-01-16 18:11:40.45	95.28	45.04	-20.9	-20.7	17.3	0.00e+00	0	49	0	25694306304	13	14050
2026-01-16 18:11:41.46	94.56	45.33	-20.7	-20.6	17.3	0.00e+00	0	49	0	25820135424	13	13856
2026-01-16 18:11:42.47	93.84	45.61	-20.7	-20.6	17.3	0.00e+00	0	49	0	25929187328	13	13804
2026-01-16 18:11:43.48	93.09	45.89	-20.6	-20.5	17.3	0.00e+00	0	49	0	26046627840	13	13706
2026-01-16 18:11:44.49	92.34	46.17	-20.5	-20.4	17.3	0.00e+00	0	49	0	26155679744	13	13524
2026-01-16 18:11:45.50	91.57	46.45	-20.5	-20.3	17.3	0.00e+00	0	49	0	26273120256	13	13466
2026-01-16 18:11:46.50	90.79	46.71	-20.3	-20.2	17.2	0.00e+00	0	49	0	26382172160	12	14002
2026-01-16 18:11:47.51	90.00	46.98	-20.3	-20.2	17.3	0.00e+00	0	49	0	26491224064	12	14009
2026-01-16 18:11:48.52	89.19	47.24	-20.3	-20.2	17.3	0.00e+00	0	50	0	26608664576	12	13978
2026-01-16 18:11:49.53	88.36	47.50	-20.4	-20.3	17.2	0.00e+00	0	49	0	26717716480	12	14141
2026-01-16 18:11:50.54	87.52	47.75	-20.3	-20.2	17.2	0.00e+00	0	49	0	26835156992	12	14011
2026-01-16 18:11:51.55	86.67	48.00	-20.3	-20.1	17.3	0.00e+00	0	49	0	26944208896	12	13910
2026-01-16 18:11:52.56	85.80	48.24	-20.1	-20.0	17.3	0.00e+00	0	49	0	27070038016	12	13677
2026-01-16 18:11:53.56	84.93	48.48	-20.1	-20.0	17.3	0.00e+00	0	49	0	27179089920	12	13643
2026-01-16 18:11:54.58	84.02	48.71	-20.0	-19.9	17.3	0.00e+00	0	49	0	27296530432	12	13542
2026-01-16 18:11:55.58	83.12	48.94	-20.0	-19.9	17.3	0.00e+00	0	49	0	27405582336	12	13548
2026-01-16 18:11:56.59	82.20	49.16	-20.1	-19.9	17.3	0.00e+00	0	49	0	27514634240	12	13597
2026-01-16 18:11:57.60	81.26	49.37	-20.1	-20.0	17.3	0.00e+00	0	49	0	27632074752	12	13637
2026-01-16 18:11:58.61	80.32	49.57	-20.1	-19.9	17.3	0.00e+00	0	50	0	27741126656	12	13612
2026-01-16 18:11:59.62	79.35	49.77	-20.1	-20.0	17.3	0.00e+00	0	49	0	27858567168	12	13647
2026-01-16 18:12:00.62	78.39	49.96	-20.1	-20.0	17.3	0.00e+00	0	49	0	27967619072	11	14492
2026-01-16 18:12:01.63	77.40	50.14	-20.2	-20.1	17.2	0.00e+00	0	49	0	28076670976	11	14611
2026-01-16 18:12:02.64	76.40	50.32	-19.9	-19.8	17.3	0.00e+00	0	49	0	28194111488	11	14182
2026-01-16 18:12:03.65	75.39	50.48	-19.9	-19.7	17.3	0.00e+00	0	49	0	28303163392	11	14049
2026-01-16 18:12:04.66	74.37	50.64	-19.9	-19.8	17.3	0.00e+00	0	49	0	28428992512	11	14171
2026-01-16 18:12:05.66	73.35	50.78	-19.8	-19.6	17.3	0.00e+00	0	49	0	28538044416	11	13909
2026-01-16 18:12:06.67	72.31	50.92	-19.7	-19.6	17.3	0.00e+00	0	49	0	28655484928	11	13847
2026-01-16 18:12:07.68	71.25	51.05	-19.7	-19.6	17.3	0.00e+00	0	49	0	28764536832	11	13811
2026-01-16 18:12:08.69	70.19	51.17	-19.7	-19.5	17.3	0.00e+00	0	49	0	28881977344	11	13780
2026-01-16 18:12:09.70	69.12	51.28	-19.7	-19.5	17.4	0.00e+00	0	49	0	28991029248	11	13741
2026-01-16 18:12:10.70	68.06	51.38	-19.8	-19.6	17.4	0.00e+00	0	49	0	29108469760	11	13901
2026-01-16 18:12:11.71	66.97	51.47	-19.8	-19.6	17.4	0.00e+00	0	49	0	29217521664	11	13882
2026-01-16 18:12:12.72	65.88	51.55	-19.7	-19.6	17.4	0.00e+00	0	49	0	29326573568	11	13863
2026-01-16 18:12:13.74	64.78	51.62	-19.7	-19.5	17.4	0.00e+00	0	49	0	29444014080	11	13742
2026-01-16 18:12:14.74	63.69	51.68	-19.7	-19.6	17.5	0.00e+00	0	49	0	29553065984	11	13825
2026-01-16 18:12:15.75	62.58	51.72	-19.8	-19.7	17.5	0.00e+00	0	49	0	29670506496	11	13968
2026-01-16 18:12:16.76	61.48	51.76	-19.8	-19.7	17.5	0.00e+00	0	49	0	29787947008	11	13952
2026-01-16 18:12:17.77	60.37	51.79	-19.6	-19.5	17.5	0.00e+00	0	50	0	29905387520	11	13670
2026-01-16 18:12:18.78	59.26	51.80	-19.7	-19.6	17.5	0.00e+00	0	49	0	30014439424	11	13825
2026-01-16 18:12:19.78	58.16	51.81	-19.6	-19.4	17.6	0.00e+00	0	49	0	30131879936	11	13594
2026-01-16 18:12:20.79	57.04	51.80	-19.6	-19.5	17.6	0.00e+00	0	49	0	30240931840	11	13710
2026-01-16 18:12:21.80	55.93	51.78	-19.7	-19.6	17.6	0.00e+00	0	49	0	30349983744	11	13816
2026-01-16 18:12:22.81	54.82	51.75	-19.6	-19.5	17.7	0.00e+00	0	49	0	30467424256	11	13648
2026-01-16 18:12:23.82	53.72	51.71	-19.7	-19.6	17.7	0.00e+00	0	49	0	30576476160	11	13843
2026-01-16 18:12:24.82	52.63	51.66	-19.6	-19.5	17.7	0.00e+00	0	49	0	30693916672	11	13715
2026-01-16 18:12:25.83	51.53	51.60	-19.7	-19.6	17.7	0.00e+00	0	49	0	30802968576	11	13802
2026-01-16 18:12:26.84	50.43	51.53	-19.8	-19.7	17.7	0.00e+00	0	49	0	30912020480	11	13966
2026-01-16 18:12:27.85	49.35	51.44	-19.7	-19.6	17.7	0.00e+00	0	50	0	31029460992	11	13876
2026-01-16 18:12:28.86	48.27	51.35	-19.7	-19.6	17.7	0.00e+00	0	49	0	31155290112	11	13821
2026-01-16 18:12:29.86	47.20	51.25	-19.8	-19.6	17.7	0.00e+00	0	49	0	31264342016	11	13911
2026-01-16 18:12:30.87	46.14	51.14	-19.8	-19.6	17.7	0.00e+00	0	49	0	31373393920	11	13904
2026-01-16 18:12:31.88	45.08	51.01	-19.8	-19.7	17.7	0.00e+00	0	49	0	31490834432	11	14022
2026-01-16 18:12:32.89	44.03	50.88	-19.8	-19.7	17.7	0.00e+00	0	49	0	31599886336	11	13971
2026-01-16 18:12:33.90	42.99	50.74	-19.8	-19.7	17.7	0.00e+00	0	49	0	31717326848	11	13996
2026-01-16 18:12:34.90	41.98	50.59	-19.7	-19.6	17.7	0.00e+00	0	49	0	31826378752	11	13823
2026-01-16 18:12:35.91	40.96	50.43	-19.8	-19.7	17.6	0.00e+00	0	49	0	31935430656	11	13979
2026-01-16 18:12:36.92	39.95	50.26	-19.9	-19.7	17.6	0.00e+00	0	49	0	32052871168	11	14085
2026-01-16 18:12:37.93	38.96	50.09	-19.8	-19.7	17.6	0.00e+00	0	49	0	32161923072	11	14016
2026-01-16 18:12:38.94	37.98	49.90	-20.0	-19.9	17.6	0.00e+00	0	49	0	32279363584	11	14296
2026-01-16 18:12:39.94	37.02	49.71	-20.1	-19.9	17.5	0.00e+00	0	49	0	32388415488	11	14361
2026-01-16 18:12:40.95	36.06	49.51	-20.1	-19.9	17.5	0.00e+00	0	49	0	32514244608	11	14420
2026-01-16 18:12:41.96	35.12	49.30	-20.0	-19.9	17.5	0.00e+00	0	50	0	32623296512	11	14370
2026-01-16 18:12:42.97	34.19	49.09	-20.1	-19.9	17.5	0.00e+00	0	49	0	32740737024	11	14430
2026-01-16 18:12:43.98	33.27	48.87	-20.1	-20.0	17.4	0.00e+00	0	49	0	32849788928	11	14526
2026-01-16 18:12:44.99	32.37	48.64	-20.2	-20.0	17.4	0.00e+00	0	49	0	32967229440	11	14562
2026-01-16 18:12:45.99	31.49	48.41	-20.1	-20.0	17.4	0.00e+00	0	49	0	33076281344	11	14455
2026-01-16 18:12:47.00	30.61	48.17	-20.3	-20.1	17.4	0.00e+00	0	49	0	33185333248	11	14731
2026-01-16 18:12:48.01	29.75	47.93	-20.3	-20.2	17.4	0.00e+00	0	49	0	33302773760	11	14787
2026-01-16 18:12:49.02	28.90	47.68	-20.4	-20.3	17.4	0.00e+00	0	49	0	33411825664	11	14983
2026-01-16 18:12:50.02	28.08	47.43	-20.4	-20.3	17.4	0.00e+00	0	49	0	33529266176	11	14967
2026-01-16 18:12:51.03	27.26	47.17	-20.5	-20.3	17.4	0.00e+00	0	49	0	33638318080	11	15108
2026-01-16 18:12:52.04	26.45	46.91	-20.7	-20.5	17.4	0.00e+00	0	49	0	33747369984	11	15397
2026-01-16 18:12:53.05	25.66	46.64	-20.7	-20.5	17.4	0.00e+00	0	49	0	33864810496	11	15428
2026-01-16 18:12:54.06	24.88	46.37	-20.5	-20.4	17.4	0.00e+00	0	49	0	33990639616	12	14275
2026-01-16 18:12:55.06	24.12	46.10	-20.6	-20.4	17.4	0.00e+00	0	49	0	34099691520	12	14421
2026-01-16 18:12:56.07	23.37	45.82	-20.6	-20.4	17.4	0.00e+00	0	49	0	34208743424	12	14438
2026-01-16 18:12:57.08	22.64	45.54	-20.8	-20.7	17.4	0.00e+00	0	49	0	34326183936	12	14801
2026-01-16 18:12:58.09	21.92	45.25	-20.8	-20.6	17.4	0.00e+00	0	49	0	34435235840	12	14750
2026-01-16 18:12:59.10	21.21	44.97	-20.9	-20.7	17.4	0.00e+00	0	49	0	34552676352	12	14879
2026-01-16 18:13:00.10	20.52	44.68	-20.8	-20.7	17.5	0.00e+00	0	49	0	34661728256	12	14792
2026-01-16 18:13:01.11	19.83	44.39	-20.9	-20.8	17.4	0.00e+00	0	49	0	34770780160	12	15027
2026-01-16 18:13:02.12	19.16	44.10	-21.0	-20.8	17.4	0.00e+00	0	49	0	34888220672	12	15075
2026-01-16 18:13:03.13	18.50	43.81	-20.9	-20.8	17.5	0.00e+00	0	49	0	34997272576	12	14996
2026-01-16 18:13:04.14	17.86	43.51	-21.0	-20.9	17.5	0.00e+00	0	49	0	35114713088	12	15208
2026-01-16 18:13:05.14	17.23	43.22	-21.1	-20.9	17.5	0.00e+00	0	49	0	35223764992	12	15235
2026-01-16 18:13:06.15	16.61	42.92	-21.3	-21.1	17.4	0.00e+00	0	49	0	35341205504	13	14768
2026-01-16 18:13:07.16	16.00	42.62	-21.3	-21.1	17.5	0.00e+00	0	49	0	35458646016	13	14725
2026-01-16 18:13:08.16	15.41	42.32	-21.4	-21.3	17.5	0.00e+00	0	49	0	35576086528	13	15008
2026-01-16 18:13:09.17	14.83	42.02	-21.4	-21.2	17.5	0.00e+00	0	50	0	35685138432	13	14927
2026-01-16 18:13:10.18	14.25	41.72	-21.5	-21.4	17.4	0.00e+00	0	49	0	35794190336	13	15149
2026-01-16 18:13:11.19	13.69	41.42	-21.5	-21.4	17.5	0.00e+00	0	49	0	35911630848	13	15214
2026-01-16 18:13:12.20	13.14	41.12	-21.7	-21.5	17.4	0.00e+00	0	49	0	36020682752	13	15446
2026-01-16 18:13:13.21	12.59	40.82	-21.8	-21.6	17.5	0.00e+00	0	49	0	36138123264	14	14721
2026-01-16 18:13:14.22	12.06	40.52	-21.9	-21.8	17.4	0.00e+00	0	49	0	36247175168	14	15060
2026-01-16 18:13:15.22	11.55	40.22	-21.9	-21.8	17.4	0.00e+00	0	49	0	36364615680	14	14998
2026-01-16 18:13:16.23	11.04	39.92	-21.9	-21.7	17.5	0.00e+00	0	50	0	36473667584	14	14916
2026-01-16 18:13:17.24	10.54	39.62	-22.0	-21.8	17.5	0.00e+00	0	49	0	36582719488	14	15074
2026-01-16 18:13:18.25	10.04	39.32	-22.0	-21.9	17.4	0.00e+00	0	49	0	36700160000	14	15152
2026-01-16 18:13:19.26	9.56	39.02	-22.1	-22.0	17.4	0.00e+00	0	49	0	36825989120	14	15370
2026-01-16 18:13:20.26	9.09	38.73	-22.1	-21.9	17.4	0.00e+00	0	49	0	36935041024	14	15272
2026-01-16 18:13:21.27	8.63	38.43	-22.3	-22.1	17.4	0.00e+00	0	49	0	37044092928	15	14766
2026-01-16 18:13:22.28	8.18	38.13	-22.3	-22.2	17.4	0.00e+00	0	49	0	37161533440	15	14887
2026-01-16 18:13:23.29	7.73	37.84	-22.4	-22.3	17.4	0.00e+00	0	49	0	37270585344	15	15014
2026-01-16 18:13:24.30	7.29	37.55	-22.4	-22.3	17.4	0.00e+00	0	49	0	37388025856	15	15041
2026-01-16 18:13:25.30	6.87	37.26	-22.5	-22.4	17.4	0.00e+00	0	50	0	37497077760	15	15197
2026-01-16 18:13:26.31	6.44	36.96	-22.6	-22.5	17.4	0.00e+00	0	49	0	37606129664	15	15403
2026-01-16 18:13:27.32	6.03	36.67	-22.7	-22.6	17.4	0.00e+00	0	49	0	37723570176	15	15518
2026-01-16 18:13:28.33	5.62	36.39	-23.0	-22.8	17.3	4.70e-06	0	50	0	37832622080	16	15065
2026-01-16 18:13:29.34	5.23	36.10	-23.1	-22.9	17.2	4.70e-06	0	50	0	37950062592	16	15269
2026-01-16 18:13:30.34	4.84	35.81	-23.1	-23.0	17.2	0.00e+00	0	50	0	38059114496	16	15392
2026-01-16 18:13:31.35	4.46	35.53	-23.2	-23.0	17.2	0.00e+00	0	50	0	38168166400	17	14559
2026-01-16 18:13:32.36	4.08	35.25	-23.3	-23.2	17.2	0.00e+00	0	49	0	38293995520	17	14780
2026-01-16 18:13:33.37	3.71	34.97	-23.4	-23.2	17.2	0.00e+00	0	49	0	38411436032	17	14905
2026-01-16 18:13:34.38	3.35	34.69	-23.5	-23.4	17.2	0.00e+00	0	50	0	38520487936	17	15176
2026-01-16 18:13:35.38	2.99	34.41	-23.7	-23.5	17.1	0.00e+00	0	50	0	38629539840	17	15448
2026-01-16 18:13:36.39	2.64	34.13	-48.3	-45.1	4.5	0.00e+00	0	49	0	38738591744	35	65535
2026-01-16 18:13:37.40	2.30	33.86	-53.6	-55.9	6.2	0.00e+00	0	49	104	38738591744	77	20164
2026-01-16 18:13:38.41	1.96	33.59	-53.6	-55.8	6.2	0.00e+00	0	48	104	38738591744	77	20005
2026-01-16 18:13:39.41	1.64	33.32	-53.6	-55.8	6.2	0.00e+00	0	48	104	38738591744	77	19977
2026-01-16 18:13:40.42	1.31	33.05	-53.6	-55.8	6.2	0.00e+00	0	48	104	38738591744	77	19948
2026-01-16 18:13:41.43	0.99	32.78	-53.6	-55.7	6.2	0.00e+00	0	48	104	38738591744	77	19894
2026-01-16 18:13:42.44	0.68	32.52	-53.6	-55.7	6.2	0.00e+00	0	48	104	38738591744	77	19813
2026-01-16 18:13:43.44	0.37	32.25	-53.6	-55.7	6.2	0.00e+00	0	48	104	38738591744	77	19827
2026-01-16 18:13:44.45	0.07	31.99	-53.6	-55.7	6.2	0.00e+00	0	48	104	38738591744	77	19852
2026-01-16 18:13:45.46	359.77	31.73	-53.6	-55.7	6.2	0.00e+00	0	48	104	38738591744	77	19808
2026-01-16 18:13:46.47	359.48	31.47	-53.6	-55.7	6.2	0.00e+00	0	48	104	38738591744	77	19826
2026-01-16 18:13:47.47	359.19	31.22	-53.6	-55.7	6.2	0.00e+00	0	48	104	38738591744	77	19748
2026-01-16 18:13:48.48	358.91	30.96	-53.6	-55.7	6.2	0.00e+00	0	48	104	38738591744	77	19768
2026-01-16 18:13:49.49	358.63	30.71	-53.6	-55.7	6.2	0.00e+00	0	48	104	38738591744	77	19742
2026-01-16 18:13:50.50	358.36	30.46	-53.6	-55.7	6.2	0.00e+00	0	48	104	38738591744	77	19786
2026-01-16 18:13:51.51	358.09	30.21	-53.6	-55.7	6.2	0.00e+00	0	48	104	38738591744	77	19754
2026-01-16 18:13:52.52	357.82	29.96	-53.5	-55.7	6.2	0.00e+00	0	48	104	38738591744	77	19749
2026-01-16 18:13:53.52	357.57	29.72	-53.5	-55.7	6.2	0.00e+00	0	48	104	38738591744	77	19759
2026-01-16 18:13:54.53	357.31	29.48	-53.6	-55.7	6.2	0.00e+00	0	48	104	38738591744	77	19734
2026-01-16 18:13:55.54	357.06	29.24	-53.5	-55.6	6.2	0.00e+00	0	48	104	38738591744	77	19647
2026-01-16 18:13:56.55	356.81	29.00	-53.5	-55.7	6.2	0.00e+00	0	48	104	38738591744	77	19708
2026-01-16 18:13:57.56	356.57	28.76	-53.5	-55.6	6.2	0.00e+00	0	48	104	38738591744	77	19704
2026-01-16 18:13:58.57	356.33	28.52	-53.5	-55.6	6.2	0.00e+00	0	48	104	38738591744	77	19704
2026-01-16 18:13:59.57	356.09	28.29	-53.5	-55.6	6.2	0.00e+00	0	48	104	38738591744	77	19662
2026-01-16 18:14:00.58	355.86	28.06	-53.5	-55.6	6.2	0.00e+00	0	48	104	38738591744	77	19627
2026-01-16 18:14:01.59	355.63	27.83	-53.5	-55.6	6.2	0.00e+00	0	47	104	38738591744	77	19660
2026-01-16 18:14:02.60	355.41	27.60	-53.5	-55.6	6.2	0.00e+00	0	47	104	38738591744	77	19586
2026-01-16 18:14:03.61	355.19	27.37	-53.5	-55.6	6.2	0.00e+00	0	48	104	38738591744	77	19584
2026-01-16 18:14:04.61	354.97	27.15	-53.5	-55.6	6.2	0.00e+00	0	48	104	38738591744	77	19600
2026-01-16 18:14:05.62	354.76	26.93	-53.5	-55.6	6.2	0.00e+00	0	47	104	38738591744	77	19598
2026-01-16 18:14:06.63	354.55	26.70	-53.5	-55.6	6.2	0.00e+00	0	48	104	38738591744	77	19547
2026-01-16 18:14:07.64	354.34	26.48	-53.5	-55.6	6.2	0.00e+00	0	47	104	38738591744	77	19500
2026-01-16 18:14:08.65	354.13	26.27	-53.5	-55.6	6.2	0.00e+00	0	47	104	38738591744	77	19585
2026-01-16 18:14:09.66	353.93	26.05	-53.5	-55.6	6.2	0.00e+00	0	47	104	38738591744	77	19645
2026-01-16 18:14:10.67	353.73	25.84	-53.5	-55.6	6.2	0.00e+00	0	47	104	38738591744	77	19561
2026-01-16 18:14:11.67	353.54	25.63	-53.4	-55.6	6.2	0.00e+00	0	47	104	38738591744	77	19506
2026-01-16 18:14:12.68	353.35	25.41	-53.4	-55.6	6.2	0.00e+00	0	47	104	38738591744	77	19570
2026-01-16 18:14:13.69	353.16	25.20	-53.4	-55.5	6.2	0.00e+00	0	47	104	38738591744	77	19476
2026-01-16 18:14:14.70	352.97	25.00	-53.4	-55.5	6.2	0.00e+00	0	47	104	38738591744	77	19471
2026-01-16 18:14:15.71	352.79	24.79	-53.4	-55.5	6.2	0.00e+00	0	47	104	38738591744	77	19478
2026-01-16 18:14:16.72	352.61	24.59	-53.4	-55.6	6.2	0.00e+00	0	47	104	38738591744	77	19520
2026-01-16 18:14:17.73	352.43	24.38	-53.4	-55.6	6.2	0.00e+00	0	47	104	38738591744	77	19494
2026-01-16 18:14:18.74	352.25	24.18	-53.4	-55.5	6.2	0.00e+00	0	47	104	38738591744	77	19474
2026-01-16 18:14:19.74	352.08	23.99	-53.4	-55.5	6.2	0.00e+00	0	47	104	38738591744	77	19423
2026-01-16 18:14:20.75	351.91	23.79	-53.4	-55.5	6.2	0.00e+00	0	47	104	38738591744	77	19390
2026-01-16 18:14:21.76	351.74	23.59	-53.4	-55.5	6.2	0.00e+00	0	47	104	38738591744	77	19416
2026-01-16 18:14:22.77	351.57	23.40	-53.4	-55.5	6.2	0.00e+00	0	47	104	38738591744	77	19426
2026-01-16 18:14:23.77	351.41	23.20	-53.4	-55.5	6.2	0.00e+00	0	47	104	38738591744	77	19342
2026-01-16 18:14:24.78	351.25	23.01	-53.4	-55.5	6.2	0.00e+00	0	47	104	38738591744	77	19375
2026-01-16 18:14:25.79	351.09	22.82	-53.4	-55.5	6.2	0.00e+00	0	47	104	38738591744	77	19364
2026-01-16 18:14:26.80	350.93	22.63	-53.4	-55.5	6.2	0.00e+00	0	47	104	38738591744	77	19335
2026-01-16 18:14:27.81	350.78	22.45	-53.4	-55.5	6.2	0.00e+00	0	47	104	38738591744	77	19263
2026-01-16 18:14:28.82	350.62	22.26	-53.4	-55.5	6.2	0.00e+00	0	47	104	38738591744	77	19317
2026-01-16 18:14:29.82	350.47	22.08	-53.4	-55.5	6.2	0.00e+00	0	47	104	38738591744	77	19390
2026-01-16 18:14:30.83	350.32	21.90	-53.3	-55.5	6.2	0.00e+00	0	47	104	38738591744	77	19314
2026-01-16 18:14:31.84	350.18	21.71	-53.3	-55.4	6.2	0.00e+00	0	47	104	38738591744	77	19244
2026-01-16 18:14:32.85	350.03	21.53	-53.3	-55.5	6.2	0.00e+00	0	47	104	38738591744	77	19269
2026-01-16 18:14:33.86	349.89	21.36	-53.3	-55.5	6.2	0.00e+00	0	47	104	38738591744	77	19317
2026-01-16 18:14:34.86	349.75	21.18	-53.3	-55.4	6.2	0.00e+00	0	47	104	38738591744	77	19220
2026-01-16 18:14:35.87	349.61	21.00	-53.3	-55.4	6.2	0.00e+00	0	47	104	38738591744	77	19141
2026-01-16 18:14:36.88	349.47	20.83	-53.3	-55.4	6.2	0.00e+00	0	47	104	38738591744	77	19247
2026-01-16 18:14:37.89	349.34	20.66	-53.3	-55.4	6.2	0.00e+00	0	47	104	38738591744	77	19221
2026-01-16 18:14:38.90	349.20	20.48	-53.3	-55.5	6.2	0.00e+00	0	47	104	38738591744	77	19264
2026-01-16 18:14:39.90	349.07	20.32	-53.3	-55.4	6.2	0.00e+00	0	47	104	38738591744	77	19117
2026-01-16 18:14:40.91	348.94	20.15	-53.3	-55.4	6.2	0.00e+00	0	47	104	38738591744	77	19188
2026-01-16 18:14:41.92	348.81	19.98	-53.3	-55.4	6.2	0.00e+00	0	47	104	38738591744	77	19121
2026-01-16 18:14:42.93	348.69	19.81	-53.3	-55.4	6.2	0.00e+00	0	47	104	38738591744	77	19135
2026-01-16 18:14:43.94	348.56	19.65	-53.3	-55.4	6.2	0.00e+00	0	47	104	38738591744	77	19113
2026-01-16 18:14:44.94	348.44	19.48	-53.3	-55.4	6.2	0.00e+00	0	47	104	38738591744	77	19092
2026-01-16 18:14:45.95	348.31	19.32	-53.3	-55.4	6.2	0.00e+00	0	47	104	38738591744	77	19084
2026-01-16 18:14:46.96	348.19	19.16	-53.2	-55.3	6.2	0.00e+00	0	47	104	38738591744	77	19015
2026-01-16 18:14:47.97	348.07	19.00	-53.2	-55.4	6.2	0.00e+00	0	47	104	38738591744	77	19063
2026-01-16 18:14:48.98	347.96	18.84	-53.3	-55.4	6.2	0.00e+00	0	47	104	38738591744	77	19070
2026-01-16 18:14:49.99	347.84	18.68	-53.3	-55.4	6.2	0.00e+00	0	47	104	38738591744	77	19045
2026-01-16 18:14:51.00	347.73	18.52	-53.2	-55.3	6.2	0.00e+00	0	46	104	38738591744	77	19008
2026-01-16 18:14:52.00	347.61	18.37	-53.2	-55.3	6.2	0.00e+00	0	47	104	38738591744	77	19001
2026-01-16 18:14:53.01	347.50	18.21	-53.2	-55.4	6.2	0.00e+00	0	46	104	38738591744	77	19060
2026-01-16 18:14:54.02	347.39	18.06	-53.2	-55.3	6.2	0.00e+00	0	47	104	38738591744	77	18977
2026-01-16 18:14:55.03	347.28	17.91	-53.2	-55.3	6.2	0.00e+00	0	46	104	38738591744	77	18893
2026-01-16 18:14:56.04	347.17	17.76	-53.2	-55.3	6.2	0.00e+00	0	47	104	38738591744	77	18999
2026-01-16 18:14:57.04	347.07	17.61	-53.2	-55.3	6.2	0.00e+00	0	47	104	38738591744	77	18985
2026-01-16 18:14:58.05	346.96	17.46	-53.2	-55.3	6.2	0.00e+00	0	46	104	38738591744	77	18944
2026-01-16 18:14:59.06	346.85	17.31	-53.2	-55.3	6.2	0.00e+00	0	47	104	38738591744	77	18868
2026-01-16 18:15:00.07	346.75	17.16	-53.2	-55.3	6.2	0.00e+00	0	46	104	38738591744	77	18890
2026-01-16 18:15:01.08	346.65	17.02	-53.2	-55.3	6.2	0.00e+00	0	47	104	38738591744	77	18877
2026-01-16 18:15:02.08	346.55	16.87	-53.2	-55.3	6.2	0.00e+00	0	46	104	38738591744	77	18916
2026-01-16 18:15:03.09	346.45	16.73	-53.1	-55.2	6.2	0.00e+00	0	46	104	38738591744	77	18791
2026-01-16 18:15:04.10	346.35	16.58	-53.1	-55.3	6.2	0.00e+00	0	47	104	38738591744	77	18838
2026-01-16 18:15:05.11	346.25	16.44	-53.1	-55.2	6.2	0.00e+00	0	47	104	38738591744	77	18816
2026-01-16 18:15:06.12	346.16	16.30	-53.1	-55.3	6.2	0.00e+00	0	47	104	38738591744	77	18863
2026-01-16 18:15:07.12	346.06	16.16	-53.1	-55.2	6.2	0.00e+00	0	47	104	38738591744	77	18732
2026-01-16 18:15:08.13	345.97	16.02	-53.1	-55.2	6.2	0.00e+00	0	46	104	38738591744	77	18754
2026-01-16 18:15:09.14	345.88	15.88	-53.1	-55.3	6.2	0.00e+00	0	47	104	38738591744	77	18844
2026-01-16 18:15:10.15	345.78	15.75	-53.1	-55.2	6.2	0.00e+00	0	46	104	38738591744	77	18779
2026-01-16 18:15:11.16	345.69	15.61	-53.1	-55.2	6.2	0.00e+00	0	46	104	38738591744	77	18734
2026-01-16 18:15:12.16	345.60	15.48	-53.1	-55.2	6.2	0.00e+00	0	46	104	38738591744	77	18678
2026-01-16 18:15:13.17	345.51	15.34	-53.1	-55.2	6.2	0.00e+00	0	47	104	38738591744	77	18737
2026-01-16 18:15:14.18	345.43	15.21	-53.1	-55.2	6.2	0.00e+00	0	46	104	38738591744	77	18670
2026-01-16 18:15:15.19	345.34	15.07	-53.1	-55.1	6.2	0.00e+00	0	46	104	38738591744	77	18594
2026-01-16 18:15:16.20	345.25	14.94	-53.0	-55.1	6.2	0.00e+00	0	47	104	38738591744	77	18561
2026-01-16 18:15:17.20	345.17	14.81	-53.1	-55.2	6.2	0.00e+00	0	47	104	38738591744	77	18678
2026-01-16 18:15:18.21	345.08	14.68	-53.1	-55.2	6.2	0.00e+00	0	46	104	38738591744	77	18711
2026-01-16 18:15:19.22	345.00	14.55	-53.0	-55.1	6.2	0.00e+00	0	46	104	38738591744	77	18566
2026-01-16 18:15:20.23	344.92	14.42	-53.0	-55.1	6.2	0.00e+00	0	46	104	38738591744	77	18487
2026-01-16 18:15:21.23	344.84	14.30	-53.1	-55.2	6.2	0.00e+00	0	46	104	38738591744	77	18629
2026-01-16 18:15:22.24	344.76	14.17	-53.0	-55.1	6.2	0.00e+00	0	46	104	38738591744	77	18590
2026-01-16 18:15:23.25	344.68	14.04	-53.0	-55.1	6.2	0.00e+00	0	46	104	38738591744	77	18459
2026-01-16 18:15:24.26	344.60	13.92	-53.0	-55.1	6.2	0.00e+00	0	46	104	38738591744	77	18490
2026-01-16 18:15:25.27	344.52	13.79	-53.0	-55.2	6.2	0.00e+00	0	46	104	38738591744	77	18660
2026-01-16 18:15:26.28	344.44	13.67	-53.0	-55.1	6.2	0.00e+00	0	46	104	38738591744	77	18493
2026-01-16 18:15:27.28	344.36	13.55	-52.9	-55.1	6.2	0.00e+00	0	46	104	38738591744	77	18400
2026-01-16 18:15:28.29	344.29	13.43	-52.9	-55.1	6.2	0.00e+00	0	46	104	38738591744	77	18435
2026-01-16 18:15:29.30	344.21	13.30	-53.0	-55.1	6.2	0.00e+00	0	46	104	38738591744	77	18464
2026-01-16 18:15:30.31	344.14	13.18	-53.0	-55.1	6.2	0.00e+00	0	46	104	38738591744	77	18492
2026-01-16 18:15:31.32	344.07	13.06	-52.9	-55.0	6.2	0.00e+00	0	46	104	38738591744	77	18359
2026-01-16 18:15:32.33	343.99	12.94	-52.9	-55.0	6.2	0.00e+00	0	46	104	38738591744	77	18280
2026-01-16 18:15:33.33	343.92	12.83	-53.0	-55.1	6.2	0.00e+00	0	46	104	38738591744	77	18406
2026-01-16 18:15:34.34	343.85	12.71	-53.0	-55.1	6.2	0.00e+00	0	46	104	38738591744	77	18404
2026-01-16 18:15:35.35	343.78	12.59	-52.9	-55.0	6.2	0.00e+00	0	46	104	38738591744	77	18309
2026-01-16 18:15:36.36	343.71	12.47	-52.9	-55.0	6.2	0.00e+00	0	46	104	38738591744	77	18269
2026-01-16 18:15:37.37	343.64	12.36	-52.9	-55.1	6.2	0.00e+00	0	46	104	38738591744	77	18465
2026-01-16 18:15:38.38	343.57	12.24	-52.9	-55.0	6.2	0.00e+00	0	46	104	38738591744	77	18290
2026-01-16 18:15:39.39	343.50	12.13	-52.8	-54.9	6.2	0.00e+00	0	46	104	38738591744	77	18168
2026-01-16 18:15:40.40	343.44	12.01	-52.9	-54.9	6.2	0.00e+00	0	46	104	38738591744	77	18179
2026-01-16 18:15:41.41	343.37	11.90	-52.9	-55.0	6.2	0.00e+00	0	46	104	38738591744	77	18321
2026-01-16 18:15:42.41	343.30	11.79	-52.8	-54.9	6.2	0.00e+00	0	46	104	38738591744	77	18151
2026-01-16 18:15:43.42	343.24	11.68	-52.8	-54.9	6.2	0.00e+00	0	46	104	38738591744	77	17994
2026-01-16 18:15:44.43	343.17	11.57	-52.8	-54.9	6.2	0.00e+00	0	46	104	38738591744	77	18012
2026-01-16 18:15:45.44	343.11	11.46	-52.9	-55.0	6.2	0.00e+00	0	46	104	38738591744	77	18243
2026-01-16 18:15:46.45	343.05	11.35	-52.8	-54.9	6.2	0.00e+00	0	46	104	38738591744	77	18014
2026-01-16 18:15:47.46	342.98	11.24	-52.7	-54.8	6.2	0.00e+00	0	46	104	38738591744	77	17842
2026-01-16 18:15:48.46	342.92	11.13	-52.8	-54.9	6.2	0.00e+00	0	46	104	38738591744	77	18028
2026-01-16 18:15:49.47	342.86	11.02	-52.8	-54.9	6.2	0.00e+00	0	46	104	38738591744	77	18059
2026-01-16 18:15:50.48	342.80	10.91	-52.7	-54.8	6.2	0.00e+00	0	46	104	38738591744	77	17961
2026-01-16 18:15:51.49	342.74	10.81	-52.7	-54.8	6.2	0.00e+00	0	46	104	38738591744	77	17811
2026-01-16 18:15:52.50	342.68	10.70	-52.7	-54.8	6.2	0.00e+00	0	46	104	38738591744	77	17883
2026-01-16 18:15:53.50	342.62	10.59	-52.8	-54.8	6.2	0.00e+00	0	46	104	38738591744	77	17967
2026-01-16 18:15:54.51	342.56	10.49	-52.7	-54.8	6.2	0.00e+00	0	46	104	38738591744	77	17794
2026-01-16 18:15:55.52	342.50	10.38	-52.6	-54.7	6.2	0.00e+00	0	46	104	38738591744	77	17740
2026-01-16 18:15:56.53	342.45	10.28	-52.7	-54.8	6.2	0.00e+00	0	46	104	38738591744	77	17766
2026-01-16 18:15:57.53	342.39	10.18	-52.7	-54.8	6.2	0.00e+00	0	46	104	38738591744	77	17952
2026-01-16 18:15:58.54	342.33	10.07	-52.6	-54.7	6.2	0.00e+00	0	46	104	38738591744	77	17676
2026-01-16 18:15:59.55	342.28	9.97	-52.6	-54.7	6.2	0.00e+00	0	46	104	38738591744	77	17588
2026-01-16 18:16:00.56	342.22	9.87	-52.6	-54.7	6.2	0.00e+00	0	46	104	38738591744	77	17741
2026-01-16 18:16:01.57	342.17	9.77	-52.7	-54.8	6.2	0.00e+00	0	46	104	38738591744	77	17830
2026-01-16 18:16:02.57	342.11	9.67	-52.6	-54.7	6.2	0.00e+00	0	46	104	38738591744	77	17573
2026-01-16 18:16:03.58	342.06	9.57	-52.5	-54.6	6.2	0.00e+00	0	46	104	38738591744	77	17428
2026-01-16 18:16:04.59	342.00	9.47	-52.6	-54.7	6.2	0.00e+00	0	46	104	38738591744	77	17641
2026-01-16 18:16:05.60	341.95	9.37	-52.6	-54.7	6.2	0.00e+00	0	46	104	38738591744	77	17659
2026-01-16 18:16:06.61	341.90	9.27	-52.5	-54.6	6.2	0.00e+00	0	46	104	38738591744	77	17461
2026-01-16 18:16:07.61	341.85	9.17	-52.4	-54.5	6.2	0.00e+00	0	46	104	38738591744	76	18381
2026-01-16 18:16:08.62	341.79	9.07	-52.6	-54.7	6.2	0.00e+00	0	46	104	38738591744	76	18647
2026-01-16 18:16:09.63	341.74	8.98	-52.6	-54.6	6.2	0.00e+00	0	46	104	38738591744	76	18599
2026-01-16 18:16:10.64	341.69	8.88	-52.5	-54.5	6.2	0.00e+00	0	46	104	38738591744	76	18323
2026-01-16 18:16:11.65	341.64	8.78	-52.4	-54.5	6.2	0.00e+00	0	46	104	38738591744	76	18305
2026-01-16 18:16:12.66	341.59	8.69	-52.5	-54.6	6.2	0.00e+00	0	46	104	38738591744	76	18552
2026-01-16 18:16:13.66	341.54	8.59	-52.5	-54.6	6.2	0.00e+00	0	46	104	38738591744	76	18527
2026-01-16 18:16:14.67	341.49	8.50	-52.4	-54.5	6.2	0.00e+00	0	46	104	38738591744	76	18337
2026-01-16 18:16:15.68	341.45	8.40	-52.4	-54.5	6.2	0.00e+00	0	46	104	38738591744	76	18338
2026-01-16 18:16:16.69	341.40	8.31	-52.5	-54.5	6.2	0.00e+00	0	46	104	38738591744	76	18380
2026-01-16 18:16:17.70	341.35	8.21	-52.5	-54.6	6.2	0.00e+00	0	46	104	38738591744	76	18433
2026-01-16 18:16:18.70	341.30	8.12	-52.4	-54.5	6.2	0.00e+00	0	46	104	38738591744	76	18255
2026-01-16 18:16:19.71	341.26	8.03	-52.4	-54.5	6.2	0.00e+00	0	46	104	38738591744	76	18382
2026-01-16 18:16:20.72	341.21	7.94	-52.4	-54.5	6.2	0.00e+00	0	46	104	38738591744	76	18208
2026-01-16 18:16:21.73	341.16	7.84	-52.4	-54.6	6.2	0.00e+00	0	46	104	38738591744	76	18436
2026-01-16 18:16:22.73	341.12	7.75	-52.4	-54.5	6.2	0.00e+00	0	46	104	38738591744	76	18343
2026-01-16 18:16:23.74	341.07	7.66	-52.4	-54.5	6.2	0.00e+00	0	46	104	38738591744	76	18338
2026-01-16 18:16:24.75	341.03	7.57	-52.4	-54.5	6.2	0.00e+00	0	46	104	38738591744	76	18359
2026-01-16 18:16:25.76	340.98	7.48	-52.4	-54.6	6.2	0.00e+00	0	46	104	38738591744	76	18411
2026-01-16 18:16:26.77	340.94	7.39	-52.4	-54.6	6.2	0.00e+00	0	46	104	38738591744	76	18455
2026-01-16 18:16:27.78	340.89	7.30	-52.4	-54.5	6.2	0.00e+00	0	46	104	38738591744	76	18342
2026-01-16 18:16:28.79	340.85	7.21	-52.4	-54.6	6.2	0.00e+00	0	46	104	38738591744	76	18439
2026-01-16 18:16:29.80	340.81	7.12	-52.4	-54.6	6.2	0.00e+00	0	46	104	38738591744	76	18407
2026-01-16 18:16:30.80	340.76	7.04	-52.4	-54.5	6.2	0.00e+00	0	46	104	38738591744	76	18380
2026-01-16 18:16:31.81	340.72	6.95	-52.4	-54.5	6.2	0.00e+00	0	46	104	38738591744	76	18260
2026-01-16 18:16:32.82	340.68	6.86	-52.4	-54.6	6.2	0.00e+00	0	46	104	38738591744	76	18395
2026-01-16 18:16:33.83	340.64	6.77	-52.4	-54.5	6.2	0.00e+00	0	46	104	38738591744	76	18379
2026-01-16 18:16:34.84	340.60	6.69	-52.4	-54.5	6.2	0.00e+00	0	46	104	38738591744	76	18272
2026-01-16 18:16:35.84	340.56	6.60	-52.3	-54.4	6.2	0.00e+00	0	46	104	38738591744	76	18140
2026-01-16 18:16:36.85	340.51	6.51	-52.4	-54.5	6.2	0.00e+00	0	46	104	38738591744	76	18359
2026-01-16 18:16:37.86	340.47	6.43	-52.4	-54.5	6.2	0.00e+00	0	46	104	38738591744	76	18276
2026-01-16 18:16:38.86	340.43	6.34	-52.3	-54.5	6.2	0.00e+00	0	46	104	38738591744	76	18212
2026-01-16 18:16:39.88	340.39	6.26	-52.3	-54.4	6.2	0.00e+00	0	46	104	38738591744	76	18043
2026-01-16 18:16:40.88	340.35	6.17	-52.4	-54.5	6.2	0.00e+00	0	46	104	38738591744	76	18310
2026-01-16 18:16:41.89	340.32	6.09	-52.3	-54.4	6.2	0.00e+00	0	46	104	38738591744	76	18178
2026-01-16 18:16:42.90	340.28	6.01	-52.3	-54.4	6.2	0.00e+00	0	46	104	38738591744	76	18117
2026-01-16 18:16:43.91	340.24	5.92	-52.2	-54.4	6.2	0.00e+00	0	46	104	38738591744	76	17983
2026-01-16 18:16:44.91	340.20	5.84	-52.4	-54.5	6.2	0.00e+00	0	46	104	38738591744	76	18260
2026-01-16 18:16:45.92	340.16	5.76	-52.3	-54.4	6.2	0.00e+00	0	46	104	38738591744	76	18142
2026-01-16 18:16:46.93	340.12	5.67	-52.2	-54.4	6.2	0.00e+00	0	46	104	38738591744	76	17985
2026-01-16 18:16:47.94	340.09	5.59	-52.2	-54.3	6.2	0.00e+00	0	46	104	38738591744	76	17852
2026-01-16 18:16:48.95	340.05	5.51	-52.3	-54.4	6.2	0.00e+00	0	46	104	38738591744	76	18125
2026-01-16 18:16:49.96	340.01	5.43	-52.3	-54.4	6.2	0.00e+00	0	46	104	38738591744	76	18045
2026-01-16 18:16:50.96	339.98	5.35	-52.2	-54.3	6.2	0.00e+00	0	46	104	38738591744	76	17852
2026-01-16 18:16:51.97	339.94	5.27	-52.1	-54.2	6.2	0.00e+00	0	46	104	38738591744	76	17723
2026-01-16 18:16:52.98	339.91	5.19	-52.3	-54.4	6.2	0.00e+00	0	46	104	38738591744	76	18065
2026-01-16 18:16:53.99	339.87	5.10	-52.2	-54.4	6.2	0.00e+00	0	46	104	38738591744	76	18027
2026-01-16 18:16:55.00	339.83	5.02	-52.1	-54.2	6.2	0.00e+00	0	46	104	38738591744	76	17709
2026-01-16 18:16:56.00	339.80	4.95	-52.3	-54.4	6.2	0.00e+00	0	46	104	38738591744	76	18177
2026-01-16 18:16:57.01	339.76	4.87	-52.6	-54.7	6.2	0.00e+00	0	46	104	38738591744	75	19835
2026-01-16 18:16:58.02	339.73	4.79	-53.0	-55.1	6.2	0.00e+00	0	46	104	38738591744	76	19596
2026-01-16 18:16:59.03	339.70	4.71	-53.2	-55.3	6.2	0.00e+00	0	46	104	38738591744	76	20031
2026-01-16 18:17:00.04	339.66	4.63	-53.3	-55.5	6.2	0.00e+00	0	46	104	38738591744	77	19264
2026-01-16 18:17:01.04	339.63	4.55	-53.4	-55.5	6.2	0.00e+00	0	46	104	38738591744	77	19478
2026-01-16 18:17:02.06	339.59	4.47	-53.5	-55.7	6.2	0.00e+00	0	46	104	38738591744	77	19720
2026-01-16 18:17:03.06	339.56	4.40	-53.6	-55.7	6.2	0.00e+00	0	46	104	38738591744	77	19928
2026-01-16 18:17:04.07	339.53	4.32	-53.7	-55.8	6.2	0.00e+00	0	46	104	38738591744	77	20081
2026-01-16 18:17:05.08	339.49	4.24	-53.8	-55.9	6.2	0.00e+00	0	46	104	38738591744	78	19143
2026-01-16 18:17:06.09	339.46	4.17	-53.8	-55.9	6.2	0.00e+00	0	46	104	38738591744	78	19210
2026-01-16 18:17:07.10	339.43	4.09	-53.8	-56.0	6.2	0.00e+00	0	46	104	38738591744	78	19263
2026-01-16 18:17:08.11	339.40	4.01	-53.9	-56.0	6.2	0.00e+00	0	46	104	38738591744	78	19337
2026-01-16 18:17:09.12	339.37	3.94	-53.9	-56.0	6.2	0.00e+00	0	46	104	38738591744	78	19391
2026-01-16 18:17:10.13	339.33	3.86	-53.9	-56.0	6.2	0.00e+00	0	46	104	38738591744	78	19338
2026-01-16 18:17:11.14	339.30	3.79	-53.9	-56.0	6.2	0.00e+00	0	46	104	38738591744	78	19402
2026-01-16 18:17:12.15	339.27	3.71	-53.9	-56.0	6.2	0.00e+00	0	46	104	38738591744	78	19398
2026-01-16 18:17:13.16	339.24	3.64	-53.8	-56.0	6.2	0.00e+00	0	46	104	38738591744	78	19334
2026-01-16 18:17:14.16	339.21	3.56	-53.8	-56.0	6.2	0.00e+00	0	46	104	38738591744	78	19264
2026-01-16 18:17:15.17	339.18	3.49	-53.8	-56.0	6.2	0.00e+00	0	46	104	38738591744	78	19336
2026-01-16 18:17:16.18	339.15	3.41	-53.8	-55.9	6.2	0.00e+00	0	46	104	38738591744	78	19237
2026-01-16 18:17:17.19	339.12	3.34	-53.8	-55.9	6.2	0.00e+00	0	46	104	38738591744	78	19228
2026-01-16 18:17:18.20	339.09	3.26	-53.8	-55.9	6.2	0.00e+00	0	46	104	38738591744	78	19248
2026-01-16 18:17:19.21	339.06	3.19	-53.8	-55.9	6.2	0.00e+00	0	46	104	38738591744	78	19202
2026-01-16 18:17:20.22	339.03	3.12	-53.8	-55.9	6.2	0.00e+00	0	46	104	38738591744	78	19126
2026-01-16 18:17:21.23	339.00	3.05	-53.8	-55.9	6.2	0.00e+00	0	46	104	38738591744	78	19066
2026-01-16 18:17:22.24	338.97	2.97	-53.7	-55.9	6.2	0.00e+00	0	46	104	38738591744	78	19110
2026-01-16 18:17:23.25	338.94	2.90	-53.7	-55.9	6.2	0.00e+00	0	46	104	38738591744	78	19061
2026-01-16 18:17:24.25	338.92	2.83	-53.7	-55.9	6.2	0.00e+00	0	46	104	38738591744	78	19058
2026-01-16 18:17:25.26	338.89	2.76	-53.7	-55.9	6.2	0.00e+00	0	46	104	38738591744	78	19061
2026-01-16 18:17:26.27	338.86	2.69	-53.7	-55.8	6.2	0.00e+00	0	46	104	38738591744	78	19019
2026-01-16 18:17:27.28	338.83	2.61	-53.7	-55.8	6.2	0.00e+00	0	46	104	38738591744	78	19031
2026-01-16 18:17:28.29	338.80	2.54	-53.7	-55.8	6.2	0.00e+00	0	46	104	38738591744	78	19022
2026-01-16 18:17:29.30	338.78	2.47	-53.7	-55.8	6.2	0.00e+00	0	46	104	38738591744	78	19006
2026-01-16 18:17:30.31	338.75	2.40	-53.7	-55.8	6.2	0.00e+00	0	46	104	38738591744	78	19024
2026-01-16 18:17:31.32	338.72	2.33	-53.7	-55.8	6.2	0.00e+00	0	46	104	38738591744	78	18982
2026-01-16 18:17:32.32	338.69	2.26	-53.7	-55.8	6.2	0.00e+00	0	46	104	38738591744	78	18997
2026-01-16 18:17:33.33	338.67	2.19	-53.7	-55.8	6.2	0.00e+00	0	46	104	38738591744	78	19003
2026-01-16 18:17:34.34	338.64	2.12	-53.7	-55.8	6.2	0.00e+00	0	46	104	38738591744	78	18935
2026-01-16 18:17:35.35	338.61	2.05	-53.7	-55.8	6.2	0.00e+00	0	46	104	38738591744	78	18930
2026-01-16 18:17:36.36	338.59	1.98	-53.7	-55.8	6.2	0.00e+00	0	46	104	38738591744	78	18972

#Closed at: 2026-01-16 18:17:37
#Recorded file [38738 MB]: D:/lorett/data/31041_260116_210704.dat