passes_logs/2026/01/16/R3.2S_Murmansk/R3.2S_Murmansk__20260116_005241_SUOMI_NPP_rec.log

#Pass ID: 20260116_005241_SUOMI NPP
#Satellite: SUOMI NPP
#Configuration: NPP
#almurnet v.1.7.20251203
#Start time: 2026-01-16 00:52:41

#Version: 2.2.20231116
#Station: R3.2S_Murmansk
#Location: 33.079688 lon 68.888172 lat
#TLE: 1 37849U 11061A   26015.52691075  .00000052  00000+0  45753-4 0  9993
#TLE: 2 37849  98.7811 317.5709 0002448  62.7632 297.3794 14.19525354736784

#Time	Az	El	Level	Level2	SNR	BER	BlckErr	Temp	State	Recorded	gain1	gain2
2026-01-16 00:52:41.14	25.00	1.97	-56.2	-71.2	3.8	1.49e+00	0	41	0	0	84	19689
2026-01-16 00:52:42.14	25.00	2.03	-56.1	-71.1	3.8	1.49e+00	0	41	104	0	82	21924
2026-01-16 00:52:43.15	25.00	2.10	-56.1	-71.1	3.8	1.49e+00	0	41	104	0	82	21862
2026-01-16 00:52:44.16	25.00	2.16	-56.1	-71.1	3.8	1.49e+00	0	41	104	0	82	21810
2026-01-16 00:52:45.17	25.00	2.22	-56.1	-71.1	3.8	1.49e+00	0	41	104	0	82	21809
2026-01-16 00:52:46.18	25.00	2.29	-56.1	-71.1	3.8	1.49e+00	0	41	104	0	82	21759
2026-01-16 00:52:47.19	25.00	2.35	-56.1	-71.0	3.8	1.49e+00	0	41	104	0	82	21689
2026-01-16 00:52:48.20	25.00	2.42	-56.1	-71.0	3.8	1.49e+00	0	41	104	0	82	21694
2026-01-16 00:52:49.21	25.00	2.49	-56.1	-71.0	3.8	1.49e+00	0	41	104	0	82	21695
2026-01-16 00:52:50.22	25.00	2.55	-56.1	-71.0	3.8	1.49e+00	0	41	104	0	82	21678
2026-01-16 00:52:51.23	25.01	2.62	-56.1	-71.0	3.8	1.49e+00	0	41	104	0	82	21630
2026-01-16 00:52:52.24	25.01	2.68	-56.1	-71.0	3.8	1.49e+00	0	41	104	0	82	21731
2026-01-16 00:52:53.25	25.01	2.75	-56.1	-71.1	3.8	1.49e+00	0	42	104	0	82	21780
2026-01-16 00:52:54.26	25.01	2.82	-56.1	-71.1	3.8	1.49e+00	0	42	104	0	82	21796
2026-01-16 00:52:55.27	25.01	2.88	-56.1	-71.0	3.8	1.49e+00	0	42	104	0	82	21742
2026-01-16 00:52:56.28	25.01	2.95	-56.1	-70.8	3.8	1.49e+00	0	42	104	0	82	21222
2026-01-16 00:52:57.29	25.01	3.02	-56.1	-70.6	3.8	1.49e+00	0	42	104	0	82	20773
2026-01-16 00:52:58.30	25.01	3.08	-56.1	-69.8	3.8	1.49e+00	0	42	104	0	82	18912
2026-01-16 00:52:59.30	25.01	3.15	-56.0	-68.6	4.0	1.49e+00	0	42	104	0	82	16474
2026-01-16 00:53:00.31	25.01	3.22	-56.0	-67.9	4.1	1.45e+00	0	42	0	0	82	15139
2026-01-16 00:53:01.32	25.01	3.28	-55.8	-66.3	4.6	1.14e+00	0	42	0	1048576	82	12558
2026-01-16 00:53:02.33	25.01	3.35	-55.6	-64.7	5.5	9.22e-01	0	42	0	2097152	82	10413
2026-01-16 00:53:03.34	25.01	3.42	-55.5	-63.6	6.3	3.36e-01	0	42	0	4194304	82	9187
2026-01-16 00:53:04.35	25.01	3.49	-55.5	-63.5	6.4	2.51e-01	0	42	0	6291456	82	9074
2026-01-16 00:53:05.36	25.01	3.55	-55.2	-62.1	7.6	1.25e-01	0	42	0	8388608	82	7764
2026-01-16 00:53:06.37	25.01	3.62	-54.9	-61.0	8.6	4.35e-02	0	42	0	10485760	81	7269
2026-01-16 00:53:07.38	25.01	3.69	-54.9	-61.1	8.6	2.99e-02	0	42	0	11534336	81	7345
2026-01-16 00:53:08.39	25.01	3.76	-54.7	-60.1	9.6	2.10e-02	0	42	0	13631488	81	6570
2026-01-16 00:53:09.40	25.01	3.83	-54.4	-59.3	10.4	1.19e-02	0	42	0	15728640	80	6311
2026-01-16 00:53:10.41	25.01	3.90	-53.9	-58.1	11.9	2.31e-04	0	43	0	17825792	79	5839
2026-01-16 00:53:11.42	25.01	3.97	-54.1	-58.4	11.5	2.88e-03	0	43	0	19922944	79	6053
2026-01-16 00:53:12.43	25.01	4.04	-54.1	-58.6	11.5	3.55e-04	0	43	0	20971520	79	6133
2026-01-16 00:53:13.44	25.01	4.11	-54.5	-59.6	10.3	7.50e-03	0	43	0	23068672	79	6909
2026-01-16 00:53:14.45	25.01	4.17	-54.5	-59.6	10.4	3.57e-03	0	42	0	25165824	79	6918
2026-01-16 00:53:15.46	25.01	4.24	-54.8	-60.7	9.0	1.10e-02	0	43	0	27262976	80	7450
2026-01-16 00:53:16.47	25.01	4.31	-54.9	-60.9	8.9	3.38e-02	0	43	0	29360128	80	7624
2026-01-16 00:53:17.48	25.01	4.38	-54.8	-60.5	9.4	2.97e-02	0	43	0	31457280	80	7209
2026-01-16 00:53:18.49	25.01	4.46	-55.1	-61.9	7.8	7.17e-02	0	43	0	32505856	80	8554
2026-01-16 00:53:19.50	25.01	4.53	-55.0	-61.4	8.2	6.84e-02	0	43	0	34603008	80	8053
2026-01-16 00:53:20.51	25.01	4.60	-55.1	-61.9	7.8	5.57e-02	0	43	0	36700160	80	8560
2026-01-16 00:53:21.52	25.01	4.67	-55.5	-63.6	6.3	8.22e-02	0	43	0	38797312	81	9804
2026-01-16 00:53:22.53	25.01	4.74	-55.5	-63.8	6.1	4.01e-01	0	43	0	39845888	81	10023
2026-01-16 00:53:23.54	25.01	4.81	-55.7	-64.8	5.4	3.89e-01	0	43	0	41943040	81	11231
2026-01-16 00:53:24.55	25.01	4.88	-55.6	-64.8	5.5	5.53e-01	0	43	0	44040192	81	11194
2026-01-16 00:53:25.56	25.01	4.95	-55.7	-65.5	5.0	5.42e-01	0	43	0	46137344	82	11492
2026-01-16 00:53:26.57	25.01	5.02	-55.8	-66.2	4.7	8.92e-01	0	43	0	48234496	82	12444
2026-01-16 00:53:27.58	25.01	5.10	-55.8	-64.3	6.0	9.33e-01	0	43	0	50331648	82	9999
2026-01-16 00:53:28.59	25.01	5.17	-55.8	-64.3	6.0	2.52e-01	0	43	0	51380224	82	10028
2026-01-16 00:53:29.60	25.01	5.24	-56.0	-66.7	4.5	1.39e+00	36	43	0	52428800	82	13162
2026-01-16 00:53:30.61	25.01	5.31	-55.9	-64.5	5.8	1.34e+00	0	43	0	53477376	82	10239
2026-01-16 00:53:31.62	25.01	5.39	-56.1	-67.8	4.2	4.90e-01	34	44	0	55574528	82	14979
2026-01-16 00:53:32.62	25.01	5.46	-56.1	-66.2	4.7	1.49e+00	1	44	104	55574528	82	12482
2026-01-16 00:53:33.63	25.01	5.53	-55.7	-62.5	7.7	8.14e-02	0	44	0	56623104	82	8162
2026-01-16 00:53:34.64	25.01	5.61	-55.7	-62.8	7.4	1.17e-01	0	44	0	58720256	82	8431
2026-01-16 00:53:35.65	25.01	5.68	-55.7	-62.6	7.6	9.95e-02	0	44	0	60817408	82	8243
2026-01-16 00:53:36.66	25.01	5.75	-55.4	-61.3	9.1	4.87e-02	0	44	0	61865984	82	7074
2026-01-16 00:53:37.67	25.01	5.83	-55.5	-61.5	8.9	2.92e-02	0	44	0	63963136	82	7215
2026-01-16 00:53:38.68	25.01	5.90	-55.4	-61.3	9.1	2.74e-02	0	44	0	66060288	82	7079
2026-01-16 00:53:39.69	25.01	5.98	-55.0	-60.0	10.4	1.01e-02	0	44	0	68157440	82	6113
2026-01-16 00:53:40.70	25.01	6.05	-55.1	-60.1	10.3	4.29e-03	0	44	0	70254592	82	6198
2026-01-16 00:53:41.71	25.01	6.13	-54.9	-59.6	11.0	2.10e-03	0	44	0	71303168	81	6151
2026-01-16 00:53:42.72	25.01	6.20	-54.8	-59.3	11.2	1.73e-03	0	44	0	73400320	81	5972
2026-01-16 00:53:43.73	25.01	6.28	-54.8	-59.3	11.2	1.49e-03	0	44	0	75497472	81	5980
2026-01-16 00:53:44.74	25.01	6.35	-54.4	-58.4	12.2	1.24e-04	0	44	0	77594624	80	5704
2026-01-16 00:53:45.75	25.01	6.43	-54.4	-58.4	12.2	4.73e-04	0	44	0	79691776	80	5690
2026-01-16 00:53:46.76	25.01	6.50	-54.3	-58.2	12.4	1.34e-04	0	44	0	80740352	80	5557
2026-01-16 00:53:47.77	25.01	6.58	-54.3	-58.2	12.5	1.76e-04	0	44	0	82837504	80	5546
2026-01-16 00:53:48.78	25.01	6.66	-54.2	-57.8	12.8	8.92e-05	0	44	0	84934656	80	5333
2026-01-16 00:53:49.79	25.01	6.73	-54.3	-58.1	12.7	2.21e-05	0	44	0	87031808	79	5800
2026-01-16 00:53:50.80	25.00	6.81	-54.2	-57.9	12.9	8.46e-05	0	44	0	89128960	79	5664
2026-01-16 00:53:51.81	25.00	6.89	-54.1	-57.5	13.3	2.44e-05	0	44	0	90177536	79	5461
2026-01-16 00:53:52.82	25.00	6.96	-54.1	-57.6	13.2	3.50e-05	0	44	0	92274688	79	5507
2026-01-16 00:53:53.83	25.00	7.04	-54.1	-57.6	13.2	2.67e-05	0	44	0	94371840	79	5500
2026-01-16 00:53:54.84	25.00	7.12	-54.1	-57.5	13.4	1.06e-05	0	44	0	96468992	79	5451
2026-01-16 00:53:55.85	25.00	7.20	-53.8	-57.0	13.9	1.75e-05	0	45	0	98566144	79	5112
2026-01-16 00:53:56.86	25.00	7.28	-53.9	-57.1	13.8	6.10e-06	0	45	0	99614720	79	5181
2026-01-16 00:53:57.87	25.00	7.36	-53.9	-57.2	13.7	3.00e-06	0	45	0	101711872	79	5232
2026-01-16 00:53:58.88	25.00	7.43	-53.9	-57.1	13.8	7.00e-07	0	45	0	103809024	79	5189
2026-01-16 00:53:59.89	25.00	7.51	-53.8	-57.0	14.0	1.50e-06	0	45	0	105906176	79	5103
2026-01-16 00:54:00.89	25.00	7.59	-53.6	-56.6	14.3	2.20e-06	0	45	0	108003328	79	4920
2026-01-16 00:54:01.90	25.00	7.67	-53.5	-56.5	14.5	1.50e-06	0	45	0	109051904	79	4815
2026-01-16 00:54:02.92	24.99	7.75	-53.5	-56.4	14.5	7.00e-07	0	45	0	111149056	78	5091
2026-01-16 00:54:03.92	24.99	7.83	-53.6	-56.6	14.3	0.00e+00	0	45	0	113246208	78	5191
2026-01-16 00:54:04.93	24.99	7.91	-53.4	-56.3	14.7	7.00e-07	0	45	0	115343360	78	5005
2026-01-16 00:54:05.94	24.99	7.99	-53.3	-56.1	14.9	7.00e-07	0	45	0	117440512	78	4877
2026-01-16 00:54:06.95	24.99	8.07	-53.6	-56.5	14.5	0.00e+00	0	45	0	119537664	78	5119
2026-01-16 00:54:07.96	24.99	8.15	-53.3	-56.0	15.0	0.00e+00	0	45	0	120586240	78	4850
2026-01-16 00:54:08.97	24.99	8.24	-53.4	-56.2	14.9	0.00e+00	0	45	0	122683392	78	4933
2026-01-16 00:54:09.98	24.99	8.32	-53.4	-56.3	14.7	0.00e+00	0	45	0	124780544	78	4985
2026-01-16 00:54:10.99	24.99	8.40	-53.4	-56.2	14.9	0.00e+00	0	45	0	126877696	78	4928
2026-01-16 00:54:12.00	24.98	8.48	-53.3	-56.0	15.0	0.00e+00	0	45	0	127926272	78	4847
2026-01-16 00:54:13.01	24.98	8.56	-53.3	-55.9	15.1	0.00e+00	0	45	0	130023424	78	4811
2026-01-16 00:54:14.02	24.98	8.65	-53.3	-56.0	15.1	0.00e+00	0	45	0	132120576	78	4822
2026-01-16 00:54:15.03	24.98	8.73	-53.4	-56.2	14.8	0.00e+00	0	45	0	134217728	78	4941
2026-01-16 00:54:16.04	24.98	8.81	-53.3	-56.0	15.0	0.00e+00	0	45	0	136314880	78	4862
2026-01-16 00:54:17.05	24.98	8.90	-53.2	-55.8	15.2	0.00e+00	0	45	0	138412032	78	4750
2026-01-16 00:54:18.06	24.98	8.98	-53.2	-55.8	15.2	0.00e+00	0	45	0	139460608	78	4739
2026-01-16 00:54:19.07	24.97	9.06	-53.2	-55.8	15.3	0.00e+00	0	45	0	141557760	78	4720
2026-01-16 00:54:20.09	24.97	9.15	-53.2	-55.8	15.2	0.00e+00	0	45	0	143654912	78	4751
2026-01-16 00:54:21.10	24.97	9.23	-53.1	-55.7	15.4	0.00e+00	0	45	0	145752064	78	4653
2026-01-16 00:54:22.10	24.97	9.32	-53.3	-55.9	15.2	0.00e+00	0	45	0	147849216	78	4795
2026-01-16 00:54:23.11	24.97	9.40	-53.4	-56.1	15.0	0.00e+00	0	45	0	148897792	78	4884
2026-01-16 00:54:24.12	24.97	9.49	-53.3	-55.9	15.2	0.00e+00	0	45	0	150994944	78	4796
2026-01-16 00:54:25.13	24.96	9.57	-53.2	-55.9	15.2	0.00e+00	0	45	0	153092096	78	4771
2026-01-16 00:54:26.14	24.96	9.66	-53.0	-55.5	15.6	0.00e+00	0	45	0	155189248	78	4575
2026-01-16 00:54:27.15	24.96	9.75	-53.0	-55.4	15.7	0.00e+00	0	45	0	157286400	77	4793
2026-01-16 00:54:28.15	24.96	9.83	-53.0	-55.6	15.6	0.00e+00	0	45	0	158334976	77	4874
2026-01-16 00:54:29.17	24.96	9.92	-52.9	-55.3	15.9	0.00e+00	0	45	0	160432128	77	4718
2026-01-16 00:54:30.17	24.95	10.01	-52.9	-55.4	15.8	0.00e+00	0	46	0	162529280	77	4762
2026-01-16 00:54:31.18	24.95	10.09	-52.8	-55.2	15.9	0.00e+00	0	45	0	164626432	77	4702
2026-01-16 00:54:32.19	24.95	10.18	-52.9	-55.3	15.9	0.00e+00	0	45	0	166723584	77	4719
2026-01-16 00:54:33.20	24.95	10.27	-52.8	-55.2	16.0	0.00e+00	0	46	0	167772160	77	4664
2026-01-16 00:54:34.21	24.95	10.36	-52.8	-55.1	16.0	0.00e+00	0	46	0	169869312	77	4637
2026-01-16 00:54:35.22	24.94	10.45	-52.9	-55.3	15.9	0.00e+00	0	45	0	171966464	77	4728
2026-01-16 00:54:36.23	24.94	10.54	-52.7	-55.0	16.2	0.00e+00	0	46	0	174063616	77	4559
2026-01-16 00:54:37.24	24.94	10.63	-52.7	-55.0	16.2	0.00e+00	0	45	0	176160768	77	4594
2026-01-16 00:54:38.25	24.94	10.72	-52.7	-55.0	16.1	0.00e+00	0	46	0	178257920	77	4594
2026-01-16 00:54:39.26	24.94	10.81	-52.7	-55.0	16.2	0.00e+00	0	45	0	179306496	77	4550
2026-01-16 00:54:40.27	24.93	10.90	-52.6	-54.9	16.3	0.00e+00	0	46	0	181403648	77	4513
2026-01-16 00:54:41.28	24.93	10.99	-52.6	-54.9	16.3	0.00e+00	0	46	0	183500800	77	4497
2026-01-16 00:54:42.29	24.93	11.08	-52.6	-54.8	16.4	0.00e+00	0	46	0	185597952	77	4472
2026-01-16 00:54:43.30	24.93	11.17	-52.6	-54.8	16.4	0.00e+00	0	46	0	186646528	77	4457
2026-01-16 00:54:44.31	24.92	11.26	-52.5	-54.7	16.5	0.00e+00	0	46	0	188743680	76	4655
2026-01-16 00:54:45.32	24.92	11.36	-52.4	-54.5	16.7	0.00e+00	0	46	0	190840832	76	4593
2026-01-16 00:54:46.33	24.92	11.45	-52.3	-54.4	16.8	0.00e+00	0	46	0	192937984	76	4536
2026-01-16 00:54:47.34	24.92	11.54	-52.4	-54.5	16.8	0.00e+00	0	46	0	195035136	76	4561
2026-01-16 00:54:48.35	24.91	11.63	-52.4	-54.5	16.8	0.00e+00	0	46	0	197132288	76	4557
2026-01-16 00:54:49.36	24.91	11.73	-52.3	-54.4	16.8	0.00e+00	0	46	0	198180864	76	4525
2026-01-16 00:54:50.37	24.91	11.82	-52.4	-54.5	16.8	0.00e+00	0	46	0	200278016	76	4565
2026-01-16 00:54:51.38	24.90	11.92	-52.3	-54.5	16.8	0.00e+00	0	46	0	202375168	76	4553
2026-01-16 00:54:52.39	24.90	12.01	-52.3	-54.3	16.9	0.00e+00	0	46	0	204472320	76	4475
2026-01-16 00:54:53.40	24.90	12.11	-52.0	-54.0	17.2	0.00e+00	0	46	0	206569472	76	4331
2026-01-16 00:54:54.41	24.90	12.20	-52.2	-54.2	17.1	0.00e+00	0	46	0	207618048	76	4408
2026-01-16 00:54:55.42	24.89	12.30	-52.1	-54.1	17.2	0.00e+00	0	46	0	209715200	76	4346
2026-01-16 00:54:56.43	24.89	12.39	-52.0	-54.0	17.3	0.00e+00	0	46	0	211812352	75	4558
2026-01-16 00:54:57.44	24.89	12.49	-52.0	-54.0	17.3	0.00e+00	0	46	0	213909504	75	4546
2026-01-16 00:54:58.45	24.88	12.59	-52.0	-54.0	17.3	0.00e+00	0	46	0	216006656	75	4577
2026-01-16 00:54:59.46	24.88	12.68	-52.0	-54.0	17.3	0.00e+00	0	46	0	217055232	75	4549
2026-01-16 00:55:00.47	24.88	12.78	-51.9	-53.8	17.5	0.00e+00	0	46	0	219152384	75	4475
2026-01-16 00:55:01.48	24.87	12.88	-51.9	-53.8	17.5	0.00e+00	0	46	0	221249536	75	4484
2026-01-16 00:55:02.49	24.87	12.98	-51.9	-53.8	17.5	0.00e+00	0	46	0	223346688	75	4458
2026-01-16 00:55:03.50	24.87	13.08	-51.9	-53.8	17.5	0.00e+00	0	46	0	225443840	75	4449
2026-01-16 00:55:04.51	24.86	13.18	-52.0	-54.0	17.3	0.00e+00	0	46	0	226492416	75	4546
2026-01-16 00:55:05.52	24.86	13.28	-51.9	-53.8	17.5	0.00e+00	0	46	0	228589568	75	4459
2026-01-16 00:55:06.53	24.86	13.38	-51.5	-53.3	17.9	0.00e+00	0	46	0	230686720	75	4232
2026-01-16 00:55:07.54	24.85	13.48	-51.8	-53.6	17.7	0.00e+00	0	46	0	232783872	75	4370
2026-01-16 00:55:08.55	24.85	13.58	-51.7	-53.5	17.8	0.00e+00	0	46	0	234881024	75	4306
2026-01-16 00:55:09.56	24.85	13.68	-51.6	-53.4	17.8	0.00e+00	0	46	0	235929600	75	4291
2026-01-16 00:55:10.57	24.84	13.78	-51.6	-53.4	17.9	0.00e+00	0	46	0	238026752	75	4287
2026-01-16 00:55:11.57	24.84	13.88	-51.7	-53.5	17.8	0.00e+00	0	46	0	240123904	75	4311
2026-01-16 00:55:12.58	24.83	13.99	-51.5	-53.3	18.0	0.00e+00	0	46	0	242221056	75	4210
2026-01-16 00:55:13.59	24.83	14.09	-51.6	-53.4	17.9	0.00e+00	0	46	0	244318208	74	4512
2026-01-16 00:55:14.60	24.83	14.19	-51.5	-53.2	18.1	0.00e+00	0	46	0	245366784	74	4431
2026-01-16 00:55:15.61	24.82	14.30	-51.4	-53.2	18.1	0.00e+00	0	46	0	247463936	74	4412
2026-01-16 00:55:16.62	24.82	14.40	-51.3	-53.0	18.3	0.00e+00	0	46	0	249561088	74	4317
2026-01-16 00:55:17.63	24.81	14.51	-51.4	-53.1	18.2	0.00e+00	0	46	0	251658240	74	4348
2026-01-16 00:55:18.64	24.81	14.61	-51.3	-52.9	18.4	0.00e+00	0	46	0	253755392	74	4288
2026-01-16 00:55:19.65	24.81	14.72	-51.1	-52.8	18.6	0.00e+00	0	47	0	255852544	74	4196
2026-01-16 00:55:20.66	24.80	14.82	-51.2	-52.8	18.5	0.00e+00	0	46	0	256901120	74	4237
2026-01-16 00:55:21.67	24.80	14.93	-51.1	-52.7	18.6	0.00e+00	0	46	0	258998272	74	4163
2026-01-16 00:55:22.68	24.79	15.04	-51.0	-52.6	18.7	0.00e+00	0	47	0	261095424	74	4141
2026-01-16 00:55:23.69	24.79	15.15	-51.0	-52.6	18.7	0.00e+00	0	47	0	263192576	73	4348
2026-01-16 00:55:24.70	24.78	15.25	-51.1	-52.8	18.5	0.00e+00	0	47	0	264241152	73	4443
2026-01-16 00:55:25.71	24.78	15.36	-51.0	-52.6	18.7	0.00e+00	0	47	0	266338304	73	4353
2026-01-16 00:55:26.72	24.77	15.47	-51.1	-52.7	18.6	0.00e+00	0	46	0	268435456	73	4402
2026-01-16 00:55:27.72	24.77	15.58	-51.0	-52.6	18.8	0.00e+00	0	47	0	270532608	73	4353
2026-01-16 00:55:28.73	24.76	15.69	-50.9	-52.4	18.9	0.00e+00	0	47	0	272629760	73	4287
2026-01-16 00:55:29.74	24.76	15.80	-50.9	-52.5	18.8	0.00e+00	0	47	0	274726912	73	4295
2026-01-16 00:55:30.75	24.75	15.91	-50.9	-52.5	18.8	0.00e+00	0	47	0	275775488	73	4309
2026-01-16 00:55:31.76	24.75	16.02	-50.8	-52.3	19.0	0.00e+00	0	46	0	277872640	73	4224
2026-01-16 00:55:32.77	24.74	16.14	-50.8	-52.3	19.0	0.00e+00	0	47	0	279969792	73	4238
2026-01-16 00:55:33.78	24.74	16.25	-50.7	-52.2	19.1	0.00e+00	0	47	0	282066944	73	4191
2026-01-16 00:55:34.79	24.73	16.36	-50.8	-52.4	19.0	0.00e+00	0	47	0	284164096	73	4248
2026-01-16 00:55:35.80	24.73	16.48	-50.7	-52.3	19.0	0.00e+00	0	47	0	285212672	73	4209
2026-01-16 00:55:36.80	24.72	16.59	-50.7	-52.3	19.1	0.00e+00	0	46	0	287309824	73	4201
2026-01-16 00:55:37.81	24.72	16.70	-50.7	-52.3	19.1	0.00e+00	0	47	0	289406976	73	4210
2026-01-16 00:55:38.82	24.71	16.82	-50.7	-52.2	19.1	0.00e+00	0	47	0	291504128	73	4193
2026-01-16 00:55:39.83	24.71	16.94	-50.6	-52.1	19.2	0.00e+00	0	47	0	292552704	73	4131
2026-01-16 00:55:40.84	24.70	17.05	-50.8	-52.4	19.0	0.00e+00	0	47	0	294649856	73	4267
2026-01-16 00:55:41.86	24.69	17.17	-50.7	-52.2	19.2	0.00e+00	0	47	0	296747008	73	4152
2026-01-16 00:55:42.87	24.69	17.29	-50.6	-52.1	19.2	0.00e+00	0	47	0	298844160	73	4145
2026-01-16 00:55:43.87	24.68	17.41	-50.8	-52.3	19.1	0.00e+00	0	47	0	300941312	73	4222
2026-01-16 00:55:44.88	24.68	17.52	-50.7	-52.2	19.1	0.00e+00	0	47	0	303038464	73	4180
2026-01-16 00:55:45.89	24.67	17.64	-50.7	-52.2	19.1	0.00e+00	0	47	0	304087040	73	4156
2026-01-16 00:55:46.90	24.66	17.76	-50.6	-52.1	19.2	0.00e+00	0	47	0	306184192	73	4137
2026-01-16 00:55:47.91	24.66	17.88	-50.5	-51.9	19.4	0.00e+00	0	47	0	308281344	72	4287
2026-01-16 00:55:48.92	24.65	18.01	-50.5	-52.0	19.4	0.00e+00	0	47	0	310378496	72	4301
2026-01-16 00:55:49.93	24.65	18.13	-50.4	-51.8	19.5	0.00e+00	0	47	0	312475648	72	4240
2026-01-16 00:55:50.94	24.64	18.25	-50.4	-51.8	19.5	0.00e+00	0	47	0	314572800	72	4219
2026-01-16 00:55:51.95	24.63	18.37	-50.3	-51.7	19.6	0.00e+00	0	47	0	315621376	72	4180
2026-01-16 00:55:52.96	24.63	18.50	-50.2	-51.6	19.8	0.00e+00	0	47	0	317718528	72	4108
2026-01-16 00:55:53.97	24.62	18.62	-50.2	-51.6	19.7	0.00e+00	0	47	0	319815680	72	4138
2026-01-16 00:55:54.97	24.61	18.74	-50.2	-51.5	19.8	0.00e+00	0	47	0	321912832	72	4095
2026-01-16 00:55:55.98	24.60	18.87	-50.2	-51.6	19.8	0.00e+00	0	47	0	322961408	72	4107
2026-01-16 00:55:57.00	24.60	19.00	-50.2	-51.5	19.8	0.00e+00	0	47	0	325058560	72	4095
2026-01-16 00:55:58.01	24.59	19.12	-50.2	-51.6	19.8	0.00e+00	0	47	0	327155712	72	4121
2026-01-16 00:55:59.01	24.58	19.25	-50.2	-51.6	19.7	0.00e+00	0	47	0	329252864	72	4126
2026-01-16 00:56:00.02	24.58	19.38	-50.3	-51.8	19.6	0.00e+00	0	47	0	331350016	72	4200
2026-01-16 00:56:01.03	24.57	19.51	-50.1	-51.5	19.8	0.00e+00	0	47	0	332398592	72	4073
2026-01-16 00:56:02.05	24.56	19.64	-50.3	-51.7	19.7	0.00e+00	0	47	0	334495744	72	4155
2026-01-16 00:56:03.06	24.55	19.77	-50.2	-51.6	19.8	0.00e+00	0	47	0	336592896	72	4114
2026-01-16 00:56:04.06	24.55	19.90	-50.2	-51.6	19.8	0.00e+00	0	47	0	338690048	72	4104
2026-01-16 00:56:05.07	24.54	20.03	-50.3	-51.7	19.7	0.00e+00	0	47	0	340787200	72	4176
2026-01-16 00:56:06.08	24.53	20.16	-50.2	-51.6	19.8	0.00e+00	0	47	0	342884352	72	4107
2026-01-16 00:56:07.09	24.52	20.29	-50.2	-51.6	19.8	0.00e+00	0	47	0	343932928	72	4115
2026-01-16 00:56:08.10	24.51	20.43	-50.3	-51.6	19.7	0.00e+00	0	47	0	346030080	72	4136
2026-01-16 00:56:09.11	24.51	20.56	-50.1	-51.5	19.9	0.00e+00	0	47	0	348127232	72	4070
2026-01-16 00:56:10.12	24.50	20.69	-50.1	-51.5	19.9	0.00e+00	0	47	0	350224384	72	4069
2026-01-16 00:56:11.13	24.49	20.83	-50.0	-51.4	20.0	0.00e+00	0	47	0	351272960	72	4011
2026-01-16 00:56:12.14	24.48	20.97	-50.3	-51.7	19.7	0.00e+00	0	47	0	353370112	72	4157
2026-01-16 00:56:13.15	24.47	21.10	-50.2	-51.6	19.8	0.00e+00	0	47	0	355467264	72	4125
2026-01-16 00:56:14.16	24.46	21.24	-50.1	-51.4	20.0	0.00e+00	0	47	0	357564416	72	4022
2026-01-16 00:56:15.17	24.45	21.38	-50.1	-51.5	19.9	0.00e+00	0	47	0	359661568	72	4082
2026-01-16 00:56:16.18	24.44	21.52	-50.2	-51.6	19.8	0.00e+00	0	47	0	361758720	72	4127
2026-01-16 00:56:17.19	24.43	21.66	-50.2	-51.5	19.9	0.00e+00	0	47	0	362807296	72	4083
2026-01-16 00:56:18.20	24.43	21.80	-50.4	-51.8	19.6	0.00e+00	0	47	0	364904448	72	4215
2026-01-16 00:56:19.21	24.42	21.94	-50.3	-51.6	19.8	0.00e+00	0	47	0	367001600	72	4140
2026-01-16 00:56:20.22	24.41	22.08	-50.4	-51.8	19.7	0.00e+00	0	47	0	369098752	72	4195
2026-01-16 00:56:21.23	24.40	22.23	-50.4	-51.8	19.6	0.00e+00	0	47	0	371195904	72	4239
2026-01-16 00:56:22.24	24.39	22.37	-50.4	-51.8	19.6	0.00e+00	0	47	0	372244480	72	4225
2026-01-16 00:56:23.25	24.38	22.52	-50.4	-51.8	19.7	0.00e+00	0	47	0	374341632	72	4223
2026-01-16 00:56:24.26	24.37	22.66	-50.5	-51.9	19.6	0.00e+00	0	47	0	376438784	72	4265
2026-01-16 00:56:25.27	24.36	22.81	-50.3	-51.7	19.7	0.00e+00	0	47	0	378535936	72	4179
2026-01-16 00:56:26.28	24.35	22.96	-50.4	-51.8	19.7	0.00e+00	0	47	0	380633088	72	4208
2026-01-16 00:56:27.29	24.34	23.11	-50.3	-51.7	19.8	0.00e+00	0	47	0	381681664	72	4148
2026-01-16 00:56:28.30	24.33	23.25	-50.2	-51.6	19.8	0.00e+00	0	47	0	383778816	72	4132
2026-01-16 00:56:29.31	24.31	23.40	-50.4	-51.8	19.6	0.00e+00	0	47	0	385875968	72	4237
2026-01-16 00:56:30.31	24.30	23.55	-50.2	-51.6	19.9	0.00e+00	0	47	0	387973120	72	4134
2026-01-16 00:56:31.32	24.29	23.71	-50.3	-51.8	19.7	0.00e+00	0	47	0	390070272	72	4198
2026-01-16 00:56:32.33	24.28	23.86	-50.5	-51.9	19.5	0.00e+00	0	47	0	391118848	72	4285
2026-01-16 00:56:33.34	24.27	24.01	-50.6	-52.0	19.4	0.00e+00	0	47	0	393216000	72	4327
2026-01-16 00:56:34.35	24.26	24.17	-50.5	-52.0	19.5	0.00e+00	0	47	0	395313152	72	4300
2026-01-16 00:56:35.36	24.25	24.32	-50.6	-52.1	19.4	0.00e+00	0	47	0	397410304	72	4355
2026-01-16 00:56:36.37	24.23	24.48	-50.6	-52.0	19.5	0.00e+00	0	47	0	399507456	72	4317
2026-01-16 00:56:37.37	24.22	24.63	-51.0	-52.5	19.0	0.00e+00	0	47	0	400556032	72	4590
2026-01-16 00:56:38.38	24.21	24.79	-50.7	-52.2	19.3	0.00e+00	0	47	0	402653184	72	4423
2026-01-16 00:56:39.39	24.20	24.95	-50.7	-52.1	19.4	0.00e+00	0	47	0	404750336	72	4379
2026-01-16 00:56:40.40	24.19	25.11	-50.6	-52.0	19.5	0.00e+00	0	48	0	406847488	72	4330
2026-01-16 00:56:41.41	24.17	25.27	-50.5	-52.0	19.5	0.00e+00	0	47	0	408944640	72	4298
2026-01-16 00:56:42.42	24.16	25.44	-50.4	-51.9	19.6	0.00e+00	0	47	0	409993216	72	4250
2026-01-16 00:56:43.43	24.15	25.60	-50.4	-51.8	19.7	0.00e+00	0	47	0	412090368	72	4214
2026-01-16 00:56:44.44	24.13	25.76	-50.3	-51.7	19.7	0.00e+00	0	48	0	414187520	72	4183
2026-01-16 00:56:45.45	24.12	25.93	-50.5	-52.0	19.5	0.00e+00	0	47	0	416284672	72	4299
2026-01-16 00:56:46.46	24.11	26.09	-50.6	-52.1	19.5	0.00e+00	0	47	0	418381824	72	4360
2026-01-16 00:56:47.47	24.09	26.26	-50.5	-52.0	19.7	0.00e+00	0	47	0	420478976	72	4294
2026-01-16 00:56:48.48	24.08	26.43	-50.9	-52.4	19.2	0.00e+00	0	47	0	421527552	72	4525
2026-01-16 00:56:49.49	24.07	26.60	-51.2	-52.9	18.8	0.00e+00	0	47	0	423624704	73	4496
2026-01-16 00:56:50.50	24.05	26.77	-51.6	-53.3	18.3	0.00e+00	0	47	0	425721856	73	4745
2026-01-16 00:56:51.50	24.04	26.94	-51.7	-53.4	18.2	0.00e+00	0	48	0	427819008	73	4779
2026-01-16 00:56:52.51	24.02	27.11	-51.7	-53.4	18.2	0.00e+00	0	47	0	428867584	74	4525
2026-01-16 00:56:53.52	24.01	27.29	-52.0	-53.8	17.9	0.00e+00	0	47	0	430964736	74	4748
2026-01-16 00:56:54.53	23.99	27.46	-52.1	-53.9	17.7	0.00e+00	0	47	0	433061888	74	4812
2026-01-16 00:56:55.54	23.98	27.64	-51.9	-53.7	18.0	0.00e+00	0	48	0	435159040	74	4652
2026-01-16 00:56:56.55	23.96	27.81	-52.1	-54.0	17.7	0.00e+00	0	48	0	437256192	75	4569
2026-01-16 00:56:57.56	23.95	27.99	-51.7	-53.5	18.2	0.00e+00	0	48	0	439353344	75	4309
2026-01-16 00:56:58.57	23.93	28.17	-52.0	-53.8	17.9	0.00e+00	0	48	0	440401920	75	4448
2026-01-16 00:56:59.58	23.91	28.35	-52.0	-53.8	17.8	0.00e+00	0	48	0	442499072	75	4454
2026-01-16 00:57:00.59	23.90	28.53	-52.2	-54.0	17.6	0.00e+00	0	47	0	444596224	75	4597
2026-01-16 00:57:01.60	23.88	28.72	-52.2	-54.1	17.6	0.00e+00	0	48	0	446693376	75	4600
2026-01-16 00:57:02.61	23.86	28.90	-52.2	-54.1	17.6	0.00e+00	0	48	0	448790528	75	4643
2026-01-16 00:57:03.62	23.85	29.08	-52.1	-53.9	17.8	0.00e+00	0	48	0	449839104	75	4530
2026-01-16 00:57:04.63	23.83	29.27	-52.4	-54.3	17.4	0.00e+00	0	48	0	451936256	75	4744
2026-01-16 00:57:05.64	23.81	29.46	-52.6	-54.7	17.1	0.00e+00	0	48	0	454033408	75	4927
2026-01-16 00:57:06.65	23.79	29.65	-52.5	-54.5	17.2	0.00e+00	0	48	0	456130560	76	4569
2026-01-16 00:57:07.66	23.77	29.84	-52.5	-54.5	17.3	0.00e+00	0	48	0	458227712	76	4568
2026-01-16 00:57:08.67	23.76	30.03	-52.5	-54.4	17.4	0.00e+00	0	48	0	459276288	76	4510
2026-01-16 00:57:09.68	23.74	30.22	-52.5	-54.5	17.3	0.00e+00	0	48	0	461373440	76	4565
2026-01-16 00:57:10.69	23.72	30.42	-52.4	-54.4	17.5	0.00e+00	0	48	0	463470592	76	4503
2026-01-16 00:57:11.70	23.70	30.61	-52.2	-54.0	17.8	0.00e+00	0	48	0	465567744	76	4321
2026-01-16 00:57:12.71	23.68	30.81	-52.3	-54.1	17.6	0.00e+00	0	48	0	467664896	75	4646
2026-01-16 00:57:13.72	23.66	31.01	-52.5	-54.5	17.3	0.00e+00	0	48	0	468713472	75	4858
2026-01-16 00:57:14.73	23.64	31.21	-52.3	-54.1	17.6	0.00e+00	0	48	0	470810624	76	4388
2026-01-16 00:57:15.74	23.62	31.41	-52.9	-55.1	16.8	0.00e+00	0	48	0	472907776	76	4881
2026-01-16 00:57:16.75	23.60	31.61	-53.5	-55.9	16.1	0.00e+00	0	48	0	475004928	77	5046
2026-01-16 00:57:17.76	23.58	31.81	-53.5	-55.8	16.0	0.00e+00	0	48	0	477102080	77	5031
2026-01-16 00:57:18.77	23.56	32.02	-53.6	-56.1	15.7	0.00e+00	0	48	0	479199232	77	5187
2026-01-16 00:57:19.78	23.53	32.22	-53.6	-56.1	15.8	0.00e+00	0	48	0	480247808	78	4877
2026-01-16 00:57:20.79	23.51	32.43	-53.7	-56.2	15.7	0.00e+00	0	48	0	482344960	78	4950
2026-01-16 00:57:21.80	23.49	32.64	-53.4	-55.7	16.2	0.00e+00	0	48	0	484442112	78	4665
2026-01-16 00:57:22.80	23.47	32.85	-53.1	-55.2	16.6	0.00e+00	0	48	0	486539264	78	4430
2026-01-16 00:57:23.81	23.44	33.06	-53.6	-56.1	15.7	0.00e+00	0	48	0	487587840	78	4914
2026-01-16 00:57:24.82	23.42	33.28	-53.8	-56.3	15.6	0.00e+00	0	48	0	489684992	78	5030
2026-01-16 00:57:25.83	23.40	33.49	-53.6	-56.1	15.8	0.00e+00	0	48	0	491782144	78	4897
2026-01-16 00:57:26.84	23.37	33.71	-53.5	-55.8	16.0	0.00e+00	0	48	0	493879296	78	4732
2026-01-16 00:57:27.86	23.35	33.93	-53.5	-55.9	15.9	0.00e+00	0	48	0	495976448	78	4795
2026-01-16 00:57:28.86	23.32	34.15	-53.8	-56.4	15.4	0.00e+00	0	48	0	498073600	78	5081
2026-01-16 00:57:29.87	23.30	34.37	-53.0	-55.2	16.6	0.00e+00	0	48	0	499122176	78	4415
2026-01-16 00:57:30.88	23.27	34.59	-52.5	-54.5	17.3	0.00e+00	0	48	0	501219328	76	4578
2026-01-16 00:57:31.89	23.25	34.81	-52.5	-54.5	17.4	0.00e+00	0	48	0	503316480	76	4553
2026-01-16 00:57:32.90	23.22	35.04	-52.1	-53.9	17.9	0.00e+00	0	48	0	505413632	76	4277
2026-01-16 00:57:33.91	23.19	35.27	-52.0	-53.8	18.1	0.00e+00	0	48	0	507510784	75	4461
2026-01-16 00:57:34.92	23.16	35.50	-51.4	-53.0	18.8	0.00e+00	0	48	0	508559360	74	4292
2026-01-16 00:57:35.93	23.14	35.73	-50.7	-52.1	19.5	0.00e+00	0	48	0	510656512	73	4144
2026-01-16 00:57:36.94	23.11	35.96	-50.8	-52.3	19.4	0.00e+00	0	48	0	512753664	72	4460
2026-01-16 00:57:37.95	23.08	36.20	-50.5	-52.0	19.8	0.00e+00	0	48	0	514850816	72	4294
2026-01-16 00:57:38.96	23.05	36.43	-50.4	-51.7	19.9	0.00e+00	0	48	0	516947968	72	4187
2026-01-16 00:57:39.97	23.02	36.67	-50.3	-51.6	20.0	0.00e+00	0	48	0	517996544	72	4131
2026-01-16 00:57:40.98	22.99	36.91	-49.8	-51.1	20.6	0.00e+00	0	48	0	520093696	71	4114
2026-01-16 00:57:41.99	22.96	37.15	-50.0	-51.3	20.4	0.00e+00	0	48	0	522190848	71	4227
2026-01-16 00:57:43.00	22.93	37.40	-49.6	-50.8	20.8	0.00e+00	0	48	0	524288000	71	3976
2026-01-16 00:57:44.00	22.90	37.64	-49.3	-50.5	21.0	0.00e+00	0	48	0	526385152	70	4091
2026-01-16 00:57:45.01	22.86	37.88	-49.5	-50.7	20.9	0.00e+00	0	48	0	527433728	70	4189
2026-01-16 00:57:46.02	22.83	38.13	-49.6	-50.8	20.9	0.00e+00	0	48	0	529530880	70	4229
2026-01-16 00:57:47.03	22.80	38.38	-49.9	-51.1	20.5	0.00e+00	0	48	0	531628032	70	4390
2026-01-16 00:57:48.04	22.76	38.64	-50.0	-51.3	20.4	0.00e+00	0	48	0	533725184	70	4455
2026-01-16 00:57:49.05	22.73	38.89	-50.1	-51.5	20.2	0.00e+00	0	48	0	535822336	71	4297
2026-01-16 00:57:50.06	22.69	39.15	-49.9	-51.2	20.5	0.00e+00	0	48	0	536870912	71	4161
2026-01-16 00:57:51.07	22.66	39.40	-49.8	-51.1	20.6	0.00e+00	0	48	0	538968064	71	4114
2026-01-16 00:57:52.08	22.62	39.66	-50.2	-51.5	20.2	0.00e+00	0	48	0	541065216	71	4322
2026-01-16 00:57:53.09	22.58	39.93	-49.7	-50.9	20.7	0.00e+00	0	48	0	543162368	71	4049
2026-01-16 00:57:54.10	22.55	40.19	-49.7	-50.9	20.8	0.00e+00	0	48	0	545259520	71	4031
2026-01-16 00:57:55.11	22.51	40.46	-49.7	-50.9	20.8	0.00e+00	0	48	0	546308096	71	4010
2026-01-16 00:57:56.11	22.47	40.72	-49.6	-50.7	20.9	0.00e+00	0	48	0	548405248	71	3958
2026-01-16 00:57:57.13	22.43	40.99	-49.5	-50.6	21.0	0.00e+00	0	48	0	550502400	70	4141
2026-01-16 00:57:58.14	22.39	41.26	-49.5	-50.7	20.9	0.00e+00	0	48	0	552599552	70	4148
2026-01-16 00:57:59.15	22.35	41.54	-49.9	-51.1	20.5	0.00e+00	0	48	0	554696704	70	4376
2026-01-16 00:58:00.16	22.30	41.81	-50.4	-51.8	20.1	0.00e+00	0	48	0	556793856	71	4442
2026-01-16 00:58:01.17	22.26	42.09	-50.6	-52.1	19.8	0.00e+00	0	48	0	557842432	71	4602
2026-01-16 00:58:02.18	22.22	42.37	-50.8	-52.2	19.7	0.00e+00	0	48	0	559939584	72	4423
2026-01-16 00:58:03.19	22.17	42.65	-51.2	-52.7	19.1	0.00e+00	0	48	0	562036736	72	4700
2026-01-16 00:58:04.20	22.13	42.94	-51.3	-52.9	19.0	0.00e+00	0	48	0	564133888	73	4496
2026-01-16 00:58:05.20	22.08	43.22	-51.0	-52.5	19.3	0.00e+00	0	48	0	565182464	73	4314
2026-01-16 00:58:06.21	22.03	43.51	-51.0	-52.5	19.3	0.00e+00	0	48	0	567279616	73	4316
2026-01-16 00:58:07.22	21.98	43.80	-51.1	-52.6	19.3	0.00e+00	0	48	0	569376768	73	4343
2026-01-16 00:58:08.23	21.93	44.09	-50.8	-52.2	19.6	0.00e+00	0	48	0	571473920	73	4165
2026-01-16 00:58:09.24	21.88	44.39	-51.2	-52.7	19.1	0.00e+00	0	48	0	573571072	73	4433
2026-01-16 00:58:10.25	21.83	44.69	-51.5	-53.1	18.7	0.00e+00	0	48	0	575668224	73	4647
2026-01-16 00:58:11.26	21.78	44.99	-51.5	-53.1	18.9	0.00e+00	0	48	0	576716800	73	4609
2026-01-16 00:58:12.27	21.73	45.29	-51.2	-52.7	19.1	0.00e+00	0	48	0	578813952	73	4433
2026-01-16 00:58:13.28	21.67	45.59	-51.3	-52.8	19.0	0.00e+00	0	48	0	580911104	74	4226
2026-01-16 00:58:14.29	21.62	45.90	-51.6	-53.2	18.7	0.00e+00	0	48	0	583008256	74	4432
2026-01-16 00:58:15.30	21.56	46.21	-51.7	-53.4	18.5	0.00e+00	0	48	0	585105408	74	4518
2026-01-16 00:58:16.30	21.50	46.52	-52.1	-53.8	18.1	0.00e+00	0	48	0	586153984	75	4468
2026-01-16 00:58:17.32	21.44	46.83	-52.4	-54.3	17.6	0.00e+00	0	48	0	588251136	75	4734
2026-01-16 00:58:18.32	21.38	47.14	-52.7	-54.7	17.2	0.00e+00	0	48	0	590348288	76	4701
2026-01-16 00:58:19.33	21.32	47.46	-52.9	-55.0	17.0	0.00e+00	0	48	0	592445440	77	4582
2026-01-16 00:58:20.34	21.26	47.78	-52.8	-54.8	17.2	0.00e+00	0	48	0	594542592	77	4475
2026-01-16 00:58:21.35	21.19	48.11	-52.8	-54.8	17.1	0.00e+00	0	48	0	595591168	76	4734
2026-01-16 00:58:22.36	21.13	48.43	-52.2	-54.0	18.0	0.00e+00	0	48	0	597688320	76	4316
2026-01-16 00:58:23.37	21.06	48.76	-52.1	-53.8	18.2	0.00e+00	0	48	0	599785472	76	4209
2026-01-16 00:58:24.38	20.99	49.09	-52.3	-54.1	17.9	0.00e+00	0	48	0	601882624	76	4346
2026-01-16 00:58:25.39	20.92	49.42	-51.8	-53.5	18.5	0.00e+00	0	48	0	603979776	75	4304
2026-01-16 00:58:26.39	20.85	49.75	-51.8	-53.6	18.4	0.00e+00	0	48	0	605028352	75	4355
2026-01-16 00:58:27.40	20.77	50.09	-51.5	-53.1	18.9	0.00e+00	0	48	0	607125504	74	4347
2026-01-16 00:58:28.41	20.70	50.43	-51.1	-52.6	19.2	0.00e+00	0	48	0	609222656	74	4133
2026-01-16 00:58:29.42	20.62	50.77	-50.3	-51.6	20.2	0.00e+00	0	48	0	611319808	72	4112
2026-01-16 00:58:30.43	20.54	51.11	-50.1	-51.4	20.5	0.00e+00	0	48	0	613416960	71	4247
2026-01-16 00:58:31.44	20.46	51.46	-49.9	-51.1	20.7	0.00e+00	0	48	0	614465536	71	4126
2026-01-16 00:58:32.44	20.37	51.81	-50.0	-51.3	20.5	0.00e+00	0	48	0	616562688	71	4219
2026-01-16 00:58:33.46	20.29	52.16	-50.0	-51.2	20.7	0.00e+00	0	48	0	618659840	71	4181
2026-01-16 00:58:34.46	20.20	52.51	-49.8	-51.0	20.7	0.00e+00	0	48	0	620756992	71	4091
2026-01-16 00:58:35.47	20.11	52.87	-49.8	-51.1	20.7	0.00e+00	0	48	0	622854144	71	4100
2026-01-16 00:58:36.48	20.02	53.23	-49.7	-50.8	20.9	0.00e+00	0	48	0	623902720	71	4001
2026-01-16 00:58:37.49	19.92	53.59	-49.9	-51.2	20.6	0.00e+00	0	48	0	625999872	71	4164
2026-01-16 00:58:38.50	19.83	53.96	-49.7	-50.9	20.9	0.00e+00	0	48	0	628097024	71	4028
2026-01-16 00:58:39.51	19.73	54.32	-49.9	-51.1	20.7	0.00e+00	0	48	0	630194176	71	4127
2026-01-16 00:58:40.52	19.62	54.69	-49.8	-51.0	20.8	0.00e+00	0	48	0	632291328	71	4066
2026-01-16 00:58:41.52	19.52	55.06	-49.8	-51.0	20.8	0.00e+00	0	48	0	633339904	71	4075
2026-01-16 00:58:42.53	19.41	55.44	-49.7	-50.9	20.8	0.00e+00	0	48	0	635437056	70	4287
2026-01-16 00:58:43.54	19.30	55.81	-49.8	-51.0	20.8	0.00e+00	0	48	0	637534208	70	4295
2026-01-16 00:58:44.55	19.18	56.19	-49.8	-51.1	20.8	0.00e+00	0	48	0	639631360	70	4344
2026-01-16 00:58:45.56	19.07	56.58	-50.2	-51.5	20.4	0.00e+00	0	48	0	641728512	70	4554
2026-01-16 00:58:46.56	18.95	56.96	-50.6	-52.0	19.9	0.00e+00	0	48	0	643825664	71	4550
2026-01-16 00:58:47.57	18.82	57.34	-51.4	-53.0	19.1	0.00e+00	0	48	0	644874240	73	4578
2026-01-16 00:58:48.58	18.69	57.73	-51.7	-53.3	18.7	0.00e+00	0	48	0	646971392	73	4733
2026-01-16 00:58:49.59	18.56	58.13	-52.1	-53.9	18.0	0.00e+00	0	48	0	649068544	75	4502
2026-01-16 00:58:50.60	18.42	58.52	-52.5	-54.3	17.7	0.00e+00	0	48	0	651165696	75	4759
2026-01-16 00:58:51.61	18.28	58.92	-52.3	-54.1	18.0	0.00e+00	0	48	0	652214272	75	4603
2026-01-16 00:58:52.61	18.14	59.31	-52.6	-54.5	17.5	0.00e+00	0	48	0	654311424	75	4850
2026-01-16 00:58:53.63	17.99	59.72	-53.0	-55.2	16.8	0.00e+00	0	48	0	656408576	77	4659
2026-01-16 00:58:54.64	17.83	60.12	-53.3	-55.6	16.5	0.00e+00	0	48	0	658505728	77	4883
2026-01-16 00:58:55.64	17.68	60.53	-53.1	-55.3	16.8	0.00e+00	0	48	0	660602880	77	4720
2026-01-16 00:58:56.65	17.51	60.94	-52.8	-54.8	17.2	0.00e+00	0	48	0	662700032	77	4445
2026-01-16 00:58:57.66	17.34	61.35	-52.3	-54.1	17.9	0.00e+00	0	48	0	663748608	76	4364
2026-01-16 00:58:58.67	17.16	61.76	-51.6	-53.2	18.7	0.00e+00	0	48	0	665845760	75	4188
2026-01-16 00:58:59.68	16.98	62.18	-51.5	-53.1	18.9	0.00e+00	0	48	0	667942912	75	4101
2026-01-16 00:59:00.69	16.79	62.60	-50.6	-52.0	19.8	0.00e+00	0	48	0	670040064	73	4081
2026-01-16 00:59:01.69	16.60	63.01	-50.0	-51.2	20.7	0.00e+00	0	48	0	672137216	71	4172
2026-01-16 00:59:02.70	16.39	63.44	-49.6	-50.8	21.0	0.00e+00	0	48	0	673185792	70	4197
2026-01-16 00:59:03.71	16.18	63.86	-50.0	-51.3	20.6	0.00e+00	0	48	0	675282944	70	4464
2026-01-16 00:59:04.72	15.96	64.29	-50.0	-51.3	20.6	0.00e+00	0	48	0	677380096	70	4473
2026-01-16 00:59:05.73	15.74	64.72	-50.2	-51.5	20.3	0.00e+00	0	48	0	679477248	71	4335
2026-01-16 00:59:06.74	15.50	65.15	-50.3	-51.6	20.3	0.00e+00	0	48	0	681574400	72	4109
2026-01-16 00:59:07.75	15.25	65.58	-51.3	-52.9	19.1	0.00e+00	0	48	0	682622976	73	4533
2026-01-16 00:59:08.76	15.00	66.02	-52.3	-54.2	17.7	0.00e+00	0	48	0	684720128	75	4678
2026-01-16 00:59:09.76	14.73	66.45	-52.2	-54.0	17.9	0.00e+00	0	48	0	686817280	75	4596
2026-01-16 00:59:10.77	14.46	66.89	-52.0	-53.7	18.2	0.00e+00	0	48	0	688914432	75	4417
2026-01-16 00:59:11.78	14.17	67.33	-51.9	-53.6	18.5	0.00e+00	0	48	0	691011584	75	4363
2026-01-16 00:59:12.79	13.86	67.78	-52.4	-54.2	18.0	0.00e+00	0	48	0	692060160	75	4685
2026-01-16 00:59:13.80	13.55	68.22	-52.9	-54.9	17.2	0.00e+00	0	48	0	694157312	76	4810
2026-01-16 00:59:14.80	13.22	68.66	-53.1	-55.3	16.8	0.00e+00	0	48	0	696254464	77	4723
2026-01-16 00:59:15.81	12.87	69.11	-53.3	-55.4	16.6	0.00e+00	0	48	0	698351616	77	4810
2026-01-16 00:59:16.82	12.51	69.56	-54.2	-56.7	15.4	0.00e+00	0	49	0	700448768	78	5273
2026-01-16 00:59:17.83	12.13	70.01	-54.4	-57.1	15.0	0.00e+00	0	48	0	701497344	79	5205
2026-01-16 00:59:18.84	11.73	70.46	-54.8	-58.0	14.1	0.00e+00	0	48	0	703594496	80	5435
2026-01-16 00:59:19.85	11.31	70.92	-54.4	-57.3	14.7	7.00e-07	0	48	0	705691648	80	5000
2026-01-16 00:59:20.86	10.87	71.37	-52.8	-54.7	17.2	0.00e+00	0	48	0	707788800	77	4436
2026-01-16 00:59:21.87	10.41	71.83	-50.3	-51.6	20.2	0.00e+00	0	48	0	709885952	72	4108
2026-01-16 00:59:22.88	9.91	72.28	-49.7	-50.8	21.0	0.00e+00	0	48	0	710934528	71	3996
2026-01-16 00:59:23.88	9.40	72.73	-49.8	-51.0	20.8	0.00e+00	0	48	0	713031680	71	4096
2026-01-16 00:59:24.89	8.85	73.19	-50.1	-51.4	20.6	0.00e+00	0	49	0	715128832	71	4259
2026-01-16 00:59:25.90	8.27	73.65	-50.0	-51.2	20.7	0.00e+00	0	49	0	717225984	71	4160
2026-01-16 00:59:26.91	7.66	74.10	-50.1	-51.4	20.5	0.00e+00	0	48	0	719323136	71	4246
2026-01-16 00:59:27.92	7.00	74.56	-50.9	-52.3	19.4	0.00e+00	0	48	0	720371712	72	4456
2026-01-16 00:59:28.93	6.31	75.02	-52.3	-54.2	17.9	0.00e+00	0	48	0	722468864	75	4672
2026-01-16 00:59:29.94	5.57	75.47	-53.1	-55.3	16.8	0.00e+00	0	48	0	724566016	77	4706
2026-01-16 00:59:30.94	4.78	75.92	-52.7	-54.6	17.4	0.00e+00	0	48	0	726663168	77	4367
2026-01-16 00:59:31.95	3.94	76.38	-53.1	-55.1	17.0	0.00e+00	0	48	0	728760320	76	4921
2026-01-16 00:59:32.96	3.03	76.83	-54.5	-57.4	14.6	0.00e+00	0	48	0	729808896	80	5067
2026-01-16 00:59:33.97	2.06	77.28	-54.0	-56.6	15.3	0.00e+00	0	48	0	731906048	80	4632
2026-01-16 00:59:34.98	1.01	77.72	-53.3	-55.3	16.8	0.00e+00	0	48	0	734003200	78	4492
2026-01-16 00:59:35.99	359.88	78.17	-53.6	-55.9	16.1	0.00e+00	0	48	0	736100352	78	4767
2026-01-16 00:59:37.00	358.67	78.61	-54.6	-57.5	14.5	0.00e+00	0	48	0	738197504	79	5458
2026-01-16 00:59:38.01	357.35	79.04	-53.8	-56.2	15.9	0.00e+00	0	49	0	739246080	79	4676
2026-01-16 00:59:39.02	355.92	79.48	-54.3	-57.0	15.2	0.00e+00	0	48	0	741343232	79	5125
2026-01-16 00:59:40.03	354.37	79.90	-53.7	-56.1	15.9	0.00e+00	0	48	0	743440384	79	4605
2026-01-16 00:59:41.04	352.68	80.32	-53.1	-55.1	16.8	0.00e+00	0	48	0	745537536	78	4385
2026-01-16 00:59:42.05	350.83	80.73	-53.8	-56.2	15.8	0.00e+00	0	48	0	747634688	78	4981
2026-01-16 00:59:43.05	348.84	81.12	-52.4	-54.3	17.6	0.00e+00	0	49	0	749731840	76	4482
2026-01-16 00:59:44.06	346.64	81.51	-49.8	-50.9	20.7	0.00e+00	0	48	0	750780416	71	4039
2026-01-16 00:59:45.07	344.22	81.89	-49.6	-50.8	20.9	0.00e+00	0	48	0	752877568	70	4216
2026-01-16 00:59:46.08	341.57	82.25	-50.0	-51.3	20.5	0.00e+00	0	49	0	754974720	70	4481
2026-01-16 00:59:47.09	338.67	82.59	-48.7	-49.8	21.9	0.00e+00	0	48	0	757071872	69	3968
2026-01-16 00:59:48.10	335.49	82.91	-48.9	-50.0	21.7	0.00e+00	0	48	0	758120448	69	4080
2026-01-16 00:59:49.11	332.02	83.21	-49.8	-51.0	20.8	0.00e+00	0	48	0	760217600	70	4315
2026-01-16 00:59:50.11	328.28	83.48	-49.5	-50.7	21.1	0.00e+00	0	48	0	762314752	70	4164
2026-01-16 00:59:51.13	324.14	83.73	-49.8	-51.0	20.9	0.00e+00	0	48	0	764411904	70	4308
2026-01-16 00:59:52.13	319.78	83.94	-49.7	-50.9	21.0	0.00e+00	0	48	0	766509056	70	4254
2026-01-16 00:59:53.14	315.10	84.11	-48.8	-49.9	21.7	0.00e+00	0	48	0	768606208	69	4024
2026-01-16 00:59:54.15	310.17	84.24	-49.7	-50.9	20.7	0.00e+00	0	48	0	769654784	70	4285
2026-01-16 00:59:55.16	305.05	84.32	-49.9	-51.1	20.7	0.00e+00	0	49	0	771751936	70	4363
2026-01-16 00:59:56.17	299.81	84.36	-49.0	-50.1	21.6	0.00e+00	0	48	0	773849088	69	4124
2026-01-16 00:59:57.18	294.55	84.35	-50.1	-51.4	20.6	0.00e+00	0	48	0	775946240	70	4507
2026-01-16 00:59:58.19	289.35	84.30	-49.9	-51.1	20.7	0.00e+00	0	49	0	778043392	71	4130
2026-01-16 00:59:59.20	284.29	84.19	-48.6	-49.6	22.0	0.00e+00	0	49	0	779091968	69	3912
2026-01-16 01:00:00.21	279.44	84.05	-49.1	-50.2	21.5	0.00e+00	0	48	0	781189120	68	4396
2026-01-16 01:00:01.21	274.90	83.87	-50.1	-51.4	20.5	0.00e+00	0	48	0	783286272	70	4535
2026-01-16 01:00:02.22	270.60	83.65	-50.4	-51.8	20.0	0.00e+00	0	49	0	785383424	72	4227
2026-01-16 01:00:03.23	266.62	83.39	-51.0	-52.5	19.3	0.00e+00	0	48	0	786432000	72	4589
2026-01-16 01:00:04.24	262.95	83.11	-50.2	-51.5	20.4	0.00e+00	0	49	0	788529152	72	4087
2026-01-16 01:00:05.25	259.58	82.80	-49.9	-51.1	20.7	0.00e+00	0	48	0	790626304	71	4127
2026-01-16 01:00:06.27	256.48	82.47	-50.3	-51.6	20.3	0.00e+00	0	48	0	792723456	71	4382
2026-01-16 01:00:07.28	253.67	82.12	-51.2	-52.4	19.9	0.00e+00	0	49	0	794820608	72	4529
2026-01-16 01:00:08.29	251.11	81.75	-51.6	-53.1	18.9	0.00e+00	0	48	0	796917760	73	4640
2026-01-16 01:00:09.30	248.78	81.37	-52.4	-54.3	17.8	0.00e+00	0	48	0	797966336	75	4713
2026-01-16 01:00:10.31	246.65	80.97	-52.2	-54.0	18.1	0.00e+00	0	48	0	800063488	75	4559
2026-01-16 01:00:11.32	244.70	80.57	-53.4	-55.7	16.3	0.00e+00	0	49	0	802160640	77	4974
2026-01-16 01:00:12.33	242.92	80.16	-54.4	-57.3	14.8	0.00e+00	0	48	0	804257792	80	4992
2026-01-16 01:00:13.34	241.28	79.74	-53.1	-55.2	17.0	0.00e+00	0	48	0	806354944	78	4397
2026-01-16 01:00:14.35	239.78	79.31	-54.0	-56.5	15.6	0.00e+00	0	49	0	808452096	79	4856
2026-01-16 01:00:15.36	238.39	78.88	-52.8	-54.7	17.4	0.00e+00	0	49	0	809500672	77	4400
2026-01-16 01:00:16.37	237.11	78.44	-52.0	-53.6	18.3	0.00e+00	0	49	0	811597824	76	4132
2026-01-16 01:00:17.38	235.93	78.00	-53.0	-55.1	17.0	0.00e+00	0	49	0	813694976	76	4924
2026-01-16 01:00:18.39	234.84	77.55	-54.0	-56.6	15.6	0.00e+00	0	49	0	815792128	79	4874
2026-01-16 01:00:19.40	233.82	77.10	-52.6	-54.4	17.5	0.00e+00	0	49	0	816840704	77	4277
2026-01-16 01:00:20.41	232.87	76.65	-51.6	-53.1	18.9	0.00e+00	0	48	0	818937856	75	4118
2026-01-16 01:00:21.42	231.99	76.20	-51.6	-53.2	18.8	0.00e+00	0	49	0	821035008	74	4422
2026-01-16 01:00:22.43	231.17	75.74	-51.6	-53.1	18.9	0.00e+00	0	48	0	823132160	74	4388
2026-01-16 01:00:23.44	230.39	75.29	-51.9	-53.5	18.6	0.00e+00	0	48	0	825229312	74	4587
2026-01-16 01:00:24.45	229.67	74.83	-51.2	-52.6	19.4	0.00e+00	0	49	0	827326464	74	4117
2026-01-16 01:00:25.45	229.00	74.38	-51.4	-52.9	19.2	0.00e+00	0	48	0	828375040	74	4251
2026-01-16 01:00:26.46	228.36	73.92	-52.1	-53.9	18.2	0.00e+00	0	48	0	830472192	75	4501
2026-01-16 01:00:27.47	227.76	73.46	-52.3	-54.2	18.0	0.00e+00	0	48	0	832569344	75	4673
2026-01-16 01:00:28.48	227.19	73.01	-52.1	-53.8	18.2	0.00e+00	0	49	0	834666496	75	4482
2026-01-16 01:00:29.49	226.65	72.55	-52.6	-54.6	17.3	0.00e+00	0	48	0	836763648	76	4634
2026-01-16 01:00:30.50	226.14	72.09	-51.5	-53.1	18.7	0.00e+00	0	48	0	837812224	75	4140
2026-01-16 01:00:31.51	225.66	71.64	-51.1	-52.6	19.4	0.00e+00	0	49	0	839909376	73	4364
2026-01-16 01:00:32.52	225.21	71.18	-51.5	-53.0	19.0	0.00e+00	0	48	0	842006528	74	4312
2026-01-16 01:00:33.53	224.77	70.73	-51.5	-53.1	18.9	0.00e+00	0	48	0	844103680	74	4351
2026-01-16 01:00:34.54	224.36	70.28	-51.8	-53.4	18.6	0.00e+00	0	48	0	846200832	74	4519
2026-01-16 01:00:35.55	223.97	69.82	-53.2	-55.3	16.9	0.00e+00	0	49	0	847249408	76	5007
2026-01-16 01:00:36.56	223.60	69.37	-53.0	-55.0	17.2	0.00e+00	0	49	0	849346560	77	4595
2026-01-16 01:00:37.57	223.24	68.92	-51.1	-52.6	19.4	0.00e+00	0	49	0	851443712	74	4111
2026-01-16 01:00:38.58	222.90	68.48	-49.8	-50.9	21.0	0.00e+00	0	48	0	853540864	71	4037
2026-01-16 01:00:39.59	222.58	68.03	-50.6	-51.9	20.1	0.00e+00	0	49	0	855638016	71	4540
2026-01-16 01:00:40.60	222.27	67.58	-50.7	-52.1	19.8	0.00e+00	0	48	0	856686592	72	4352
2026-01-16 01:00:41.61	221.97	67.14	-50.5	-51.8	20.1	0.00e+00	0	48	0	858783744	72	4228
2026-01-16 01:00:42.62	221.68	66.70	-51.3	-52.9	19.2	0.00e+00	0	48	0	860880896	73	4499
2026-01-16 01:00:43.63	221.41	66.26	-50.4	-51.7	20.0	0.00e+00	0	48	0	862978048	72	4161
2026-01-16 01:00:44.64	221.15	65.82	-49.3	-50.4	21.3	0.00e+00	0	49	0	865075200	70	4039
2026-01-16 01:00:45.65	220.90	65.39	-49.9	-51.2	20.8	0.00e+00	0	49	0	866123776	70	4401
2026-01-16 01:00:46.66	220.66	64.95	-50.9	-52.4	19.6	0.00e+00	0	49	0	868220928	72	4516
2026-01-16 01:00:47.66	220.42	64.53	-50.9	-52.4	19.6	0.00e+00	0	48	0	870318080	72	4503
2026-01-16 01:00:48.67	220.20	64.10	-50.6	-52.0	19.9	0.00e+00	0	49	0	872415232	72	4338
2026-01-16 01:00:49.68	219.98	63.67	-51.7	-53.3	18.6	0.00e+00	0	49	0	874512384	74	4492
2026-01-16 01:00:50.69	219.78	63.24	-51.8	-53.5	18.5	0.00e+00	0	48	0	875560960	74	4572
2026-01-16 01:00:51.71	219.57	62.82	-51.6	-53.2	18.9	0.00e+00	0	48	0	877658112	74	4423
2026-01-16 01:00:52.72	219.38	62.40	-51.1	-52.5	19.4	0.00e+00	0	48	0	879755264	74	4098
2026-01-16 01:00:53.72	219.20	61.98	-50.3	-51.6	20.2	0.00e+00	0	48	0	881852416	72	4134
2026-01-16 01:00:54.73	219.02	61.57	-50.4	-51.7	20.2	0.00e+00	0	48	0	883949568	71	4437
2026-01-16 01:00:55.74	218.84	61.15	-49.5	-50.6	21.2	0.00e+00	0	48	0	886046720	71	3892
2026-01-16 01:00:56.75	218.67	60.74	-50.0	-51.3	20.6	0.00e+00	0	48	0	887095296	70	4457
2026-01-16 01:00:57.76	218.51	60.33	-50.6	-52.0	20.0	0.00e+00	0	48	0	889192448	72	4310
2026-01-16 01:00:58.78	218.35	59.92	-50.6	-52.0	19.9	0.00e+00	0	49	0	891289600	72	4313
2026-01-16 01:00:59.79	218.20	59.52	-50.3	-51.7	20.2	0.00e+00	0	48	0	893386752	72	4146
2026-01-16 01:01:00.80	218.05	59.12	-49.9	-51.2	20.7	0.00e+00	0	49	0	894435328	71	4153
2026-01-16 01:01:01.80	217.91	58.72	-48.6	-49.6	22.1	0.00e+00	0	48	0	896532480	69	3884
2026-01-16 01:01:02.81	217.77	58.32	-48.1	-49.1	22.5	0.00e+00	0	48	0	898629632	68	3895
2026-01-16 01:01:03.82	217.63	57.93	-48.4	-49.4	22.2	0.00e+00	0	48	0	900726784	68	4016
2026-01-16 01:01:04.83	217.50	57.54	-49.3	-50.4	21.3	0.00e+00	0	48	0	902823936	69	4273
2026-01-16 01:01:05.84	217.38	57.15	-49.8	-51.0	20.8	0.00e+00	0	48	0	904921088	70	4328
2026-01-16 01:01:06.85	217.25	56.76	-50.6	-52.0	20.0	0.00e+00	0	48	0	905969664	71	4572
2026-01-16 01:01:07.86	217.13	56.38	-50.1	-51.4	20.4	0.00e+00	0	48	0	908066816	71	4280
2026-01-16 01:01:08.87	217.02	55.99	-49.8	-51.0	21.0	0.00e+00	0	48	0	910163968	71	4093
2026-01-16 01:01:09.88	216.90	55.61	-49.4	-50.6	21.2	0.00e+00	0	48	0	912261120	70	4105
2026-01-16 01:01:10.89	216.79	55.24	-48.9	-49.9	21.8	0.00e+00	0	48	0	914358272	69	4044
2026-01-16 01:01:11.90	216.69	54.86	-49.5	-50.7	21.1	0.00e+00	0	49	0	915406848	69	4413
2026-01-16 01:01:12.91	216.58	54.49	-50.1	-51.4	20.5	0.00e+00	0	49	0	917504000	70	4518
2026-01-16 01:01:13.92	216.48	54.12	-50.5	-51.8	20.1	0.00e+00	0	48	0	919601152	71	4486
2026-01-16 01:01:14.93	216.38	53.76	-50.5	-51.8	20.1	0.00e+00	0	48	0	921698304	71	4471
2026-01-16 01:01:15.94	216.28	53.39	-51.5	-53.1	18.8	0.00e+00	0	48	0	923795456	73	4639
2026-01-16 01:01:16.95	216.19	53.03	-52.2	-54.1	17.9	0.00e+00	0	49	0	924844032	75	4621
2026-01-16 01:01:17.96	216.10	52.67	-51.3	-52.9	19.0	0.00e+00	0	48	0	926941184	74	4268
2026-01-16 01:01:18.97	216.01	52.31	-50.2	-51.5	20.3	0.00e+00	0	48	0	929038336	72	4073
2026-01-16 01:01:19.98	215.92	51.96	-50.3	-51.5	20.2	0.00e+00	0	48	0	931135488	72	4092
2026-01-16 01:01:20.99	215.84	51.61	-50.8	-52.2	19.8	0.00e+00	0	49	0	933232640	72	4397
2026-01-16 01:01:22.00	215.75	51.26	-50.9	-52.3	19.6	0.00e+00	0	49	0	934281216	72	4482
2026-01-16 01:01:23.00	215.67	50.92	-50.0	-51.2	20.5	0.00e+00	0	49	0	936378368	72	3954
2026-01-16 01:01:24.01	215.60	50.57	-50.7	-52.1	19.7	0.00e+00	0	49	0	938475520	72	4380
2026-01-16 01:01:25.02	215.52	50.23	-51.2	-52.8	19.1	0.00e+00	0	48	0	940572672	73	4461
2026-01-16 01:01:26.03	215.44	49.89	-52.0	-53.8	18.2	0.00e+00	0	48	0	942669824	74	4751
2026-01-16 01:01:27.04	215.37	49.55	-51.7	-53.4	18.6	0.00e+00	0	49	0	944766976	74	4494
2026-01-16 01:01:28.05	215.30	49.22	-51.2	-52.7	19.2	0.00e+00	0	48	0	945815552	73	4407
2026-01-16 01:01:29.06	215.23	48.89	-51.1	-52.6	19.3	0.00e+00	0	49	0	947912704	73	4372
2026-01-16 01:01:30.07	215.16	48.56	-52.5	-54.3	17.7	0.00e+00	0	49	0	950009856	75	4750
2026-01-16 01:01:31.08	215.09	48.23	-52.5	-54.3	17.7	0.00e+00	0	48	0	952107008	76	4493
2026-01-16 01:01:32.09	215.03	47.91	-53.3	-55.4	16.6	0.00e+00	0	48	0	953155584	77	4813
2026-01-16 01:01:33.10	214.96	47.59	-52.5	-54.4	17.6	0.00e+00	0	48	0	955252736	77	4253
2026-01-16 01:01:34.11	214.90	47.27	-52.4	-54.2	17.7	0.00e+00	0	48	0	957349888	76	4411
2026-01-16 01:01:35.12	214.84	46.95	-52.0	-53.7	18.2	0.00e+00	0	48	0	959447040	75	4409
2026-01-16 01:01:36.13	214.78	46.63	-52.1	-53.8	18.2	0.00e+00	0	48	0	961544192	74	4738
2026-01-16 01:01:37.14	214.72	46.32	-51.3	-52.8	19.1	0.00e+00	0	48	0	963641344	74	4202
2026-01-16 01:01:38.16	214.66	46.01	-51.0	-52.4	19.3	0.00e+00	0	48	0	964689920	73	4283
2026-01-16 01:01:39.16	214.60	45.70	-51.7	-53.2	18.7	0.00e+00	0	49	0	966787072	73	4701
2026-01-16 01:01:40.17	214.55	45.40	-53.6	-56.0	16.1	0.00e+00	0	49	0	968884224	77	5104
2026-01-16 01:01:41.18	214.49	45.09	-54.3	-57.0	15.1	0.00e+00	0	48	0	970981376	79	5121
2026-01-16 01:01:42.19	214.44	44.79	-55.1	-58.5	13.1	7.00e-07	0	49	0	973078528	81	5431
2026-01-16 01:01:43.20	214.39	44.49	-55.8	-60.2	12.0	1.08e-04	0	49	0	974127104	82	6203
2026-01-16 01:01:44.21	214.34	44.19	-55.7	-60.0	12.1	1.16e-03	0	48	0	976224256	83	5755
2026-01-16 01:01:45.22	214.29	43.90	-55.7	-60.0	11.9	6.14e-04	0	48	0	978321408	83	5736
2026-01-16 01:01:46.23	214.24	43.61	-54.8	-58.0	13.4	4.88e-05	0	48	0	980418560	81	5126
2026-01-16 01:01:47.24	214.19	43.32	-54.0	-56.5	15.3	7.00e-07	0	48	0	982515712	80	4582
2026-01-16 01:01:48.25	214.14	43.03	-52.9	-54.9	17.0	0.00e+00	0	49	0	983564288	77	4516
2026-01-16 01:01:49.26	214.10	42.74	-52.5	-54.4	17.6	0.00e+00	0	48	0	985661440	76	4496
2026-01-16 01:01:50.27	214.05	42.46	-52.3	-54.1	17.9	0.00e+00	0	48	0	987758592	75	4608
2026-01-16 01:01:51.28	214.01	42.18	-52.4	-54.2	17.8	0.00e+00	0	48	0	989855744	75	4666
2026-01-16 01:01:52.29	213.96	41.90	-52.1	-53.9	18.1	0.00e+00	0	49	0	991952896	75	4516
2026-01-16 01:01:53.30	213.92	41.62	-53.5	-55.9	16.1	0.00e+00	0	49	0	993001472	77	5092
2026-01-16 01:01:54.31	213.88	41.34	-53.7	-56.2	15.7	0.00e+00	0	49	0	995098624	79	4699
2026-01-16 01:01:55.32	213.84	41.07	-54.4	-57.4	14.7	0.00e+00	0	49	0	997195776	79	5348
2026-01-16 01:01:56.33	213.80	40.80	-53.9	-56.4	15.6	0.00e+00	0	49	0	999292928	79	4789
2026-01-16 01:01:57.34	213.76	40.53	-53.1	-55.2	16.7	0.00e+00	0	49	0	1001390080	78	4431
2026-01-16 01:01:58.34	213.72	40.27	-51.7	-53.3	18.5	0.00e+00	0	49	0	1002438656	75	4211
2026-01-16 01:01:59.35	213.68	40.00	-51.3	-52.8	19.0	0.00e+00	0	49	0	1004535808	74	4239
2026-01-16 01:02:00.36	213.64	39.74	-51.3	-52.8	19.0	0.00e+00	0	49	0	1006632960	74	4222
2026-01-16 01:02:01.37	213.60	39.48	-51.0	-52.5	19.3	0.00e+00	0	49	0	1008730112	74	4063
2026-01-16 01:02:02.38	213.57	39.22	-51.9	-53.6	18.3	0.00e+00	0	49	0	1010827264	74	4637
2026-01-16 01:02:03.39	213.53	38.96	-52.8	-54.8	17.2	0.00e+00	0	49	0	1011875840	76	4715
2026-01-16 01:02:04.40	213.50	38.70	-53.2	-55.4	16.5	0.00e+00	0	49	0	1013972992	77	4804
2026-01-16 01:02:05.41	213.46	38.45	-53.0	-55.1	16.8	0.00e+00	0	48	0	1016070144	77	4647
2026-01-16 01:02:06.42	213.43	38.20	-53.3	-55.5	16.5	0.00e+00	0	49	0	1018167296	77	4842
2026-01-16 01:02:07.43	213.39	37.95	-53.1	-55.2	16.7	0.00e+00	0	49	0	1020264448	77	4700
2026-01-16 01:02:08.44	213.36	37.70	-52.9	-55.0	16.9	0.00e+00	0	49	0	1022361600	77	4575
2026-01-16 01:02:09.45	213.33	37.45	-52.8	-54.8	17.1	0.00e+00	0	49	0	1023410176	77	4452
2026-01-16 01:02:10.46	213.30	37.21	-52.2	-54.0	17.8	0.00e+00	0	49	0	1025507328	76	4332
2026-01-16 01:02:11.47	213.26	36.96	-51.6	-53.2	18.6	0.00e+00	0	49	0	1027604480	75	4165
2026-01-16 01:02:12.48	213.23	36.72	-51.4	-53.0	18.8	0.00e+00	0	49	0	1029701632	74	4306
2026-01-16 01:02:13.49	213.20	36.48	-52.0	-53.8	18.0	0.00e+00	0	49	0	1030750208	74	4720
2026-01-16 01:02:14.50	213.17	36.25	-52.4	-54.4	17.5	0.00e+00	0	49	0	1032847360	75	4771
2026-01-16 01:02:15.51	213.14	36.01	-52.9	-55.0	17.0	0.00e+00	0	49	0	1034944512	76	4865
2026-01-16 01:02:16.52	213.12	35.78	-53.2	-55.4	16.5	0.00e+00	0	49	0	1037041664	77	4805
2026-01-16 01:02:17.53	213.09	35.54	-52.8	-54.8	17.1	0.00e+00	0	49	0	1039138816	77	4489
2026-01-16 01:02:18.54	213.06	35.31	-51.8	-53.5	18.3	0.00e+00	0	49	0	1040187392	75	4321
2026-01-16 01:02:19.55	213.03	35.08	-51.4	-52.9	18.8	0.00e+00	0	49	0	1042284544	74	4277
2026-01-16 01:02:20.55	213.00	34.86	-51.2	-52.7	19.1	0.00e+00	0	48	0	1044381696	74	4192
2026-01-16 01:02:21.56	212.98	34.63	-50.7	-52.0	19.7	0.00e+00	0	49	0	1046478848	73	4094
2026-01-16 01:02:22.57	212.95	34.41	-51.3	-52.9	18.9	0.00e+00	0	48	0	1048576000	73	4515
2026-01-16 01:02:23.58	212.93	34.18	-52.0	-53.8	18.0	0.00e+00	0	49	0	1050673152	75	4446
2026-01-16 01:02:24.59	212.90	33.96	-53.0	-55.2	16.8	0.00e+00	0	49	0	1051721728	76	4953
2026-01-16 01:02:25.60	212.88	33.74	-53.9	-56.5	15.5	0.00e+00	0	49	0	1053818880	78	5130
2026-01-16 01:02:26.61	212.85	33.53	-54.6	-57.7	14.2	1.50e-06	0	49	0	1055916032	80	5221
2026-01-16 01:02:27.62	212.83	33.31	-54.8	-58.1	13.8	4.50e-06	0	49	0	1058013184	80	5509
2026-01-16 01:02:28.63	212.80	33.09	-54.8	-58.1	13.7	1.60e-05	0	49	0	1059061760	80	5466
2026-01-16 01:02:29.64	212.78	32.88	-54.4	-57.4	14.4	1.75e-05	0	49	0	1061158912	80	5073
2026-01-16 01:02:30.65	212.76	32.67	-53.7	-56.2	15.7	0.00e+00	0	49	0	1063256064	79	4698
2026-01-16 01:02:31.66	212.73	32.46	-53.2	-55.5	16.3	0.00e+00	0	49	0	1065353216	77	4849
2026-01-16 01:02:32.67	212.71	32.25	-52.4	-54.3	17.5	0.00e+00	0	48	0	1067450368	76	4473
2026-01-16 01:02:33.68	212.69	32.04	-52.0	-53.8	18.0	0.00e+00	0	49	0	1069547520	76	4234
2026-01-16 01:02:34.68	212.67	31.84	-52.0	-53.8	18.0	0.00e+00	0	49	0	1070596096	75	4443
2026-01-16 01:02:35.69	212.65	31.63	-51.7	-53.4	18.3	0.00e+00	0	49	0	1072693248	75	4276
2026-01-16 01:02:36.70	212.62	31.43	-51.7	-53.4	18.4	0.00e+00	0	49	0	1074790400	75	4286
2026-01-16 01:02:37.71	212.60	31.23	-51.7	-53.4	18.4	0.00e+00	0	49	0	1076887552	74	4494
2026-01-16 01:02:38.72	212.58	31.03	-51.8	-53.6	18.2	0.00e+00	0	49	0	1078984704	74	4605
2026-01-16 01:02:39.73	212.56	30.83	-52.0	-53.8	18.0	0.00e+00	0	49	0	1080033280	75	4484
2026-01-16 01:02:40.74	212.54	30.63	-52.2	-54.1	17.7	0.00e+00	0	49	0	1082130432	75	4601
2026-01-16 01:02:41.75	212.52	30.43	-52.2	-54.0	17.8	0.00e+00	0	49	0	1084227584	75	4571
2026-01-16 01:02:42.75	212.50	30.24	-51.9	-53.7	18.0	0.00e+00	0	49	0	1086324736	75	4426
2026-01-16 01:02:43.76	212.48	30.05	-52.1	-54.0	17.8	0.00e+00	0	49	0	1088421888	75	4555
2026-01-16 01:02:44.78	212.46	29.85	-52.1	-53.9	17.9	0.00e+00	0	49	0	1089470464	75	4531
2026-01-16 01:02:45.78	212.45	29.66	-52.2	-54.0	17.7	0.00e+00	0	48	0	1091567616	75	4586
2026-01-16 01:02:46.79	212.43	29.47	-52.3	-54.3	17.6	0.00e+00	0	48	0	1093664768	75	4706
2026-01-16 01:02:47.80	212.41	29.28	-52.4	-54.4	17.4	0.00e+00	0	48	0	1095761920	75	4770
2026-01-16 01:02:48.81	212.39	29.10	-52.8	-54.9	16.9	0.00e+00	0	48	0	1097859072	76	4771
2026-01-16 01:02:49.81	212.37	28.91	-53.3	-55.6	16.2	0.00e+00	0	49	0	1098907648	77	4906
2026-01-16 01:02:50.82	212.36	28.73	-53.4	-55.9	15.9	0.00e+00	0	49	0	1101004800	77	5052
2026-01-16 01:02:51.83	212.34	28.54	-53.7	-56.2	15.6	0.00e+00	0	48	0	1103101952	77	5258
2026-01-16 01:02:52.84	212.32	28.36	-53.2	-55.5	16.3	7.00e-07	0	49	0	1105199104	78	4587
2026-01-16 01:02:53.85	212.31	28.18	-53.4	-55.9	15.9	0.00e+00	0	48	0	1107296256	78	4781
2026-01-16 01:02:54.86	212.29	28.00	-53.1	-55.3	16.5	0.00e+00	0	48	0	1109393408	77	4733
2026-01-16 01:02:55.87	212.27	27.82	-53.0	-55.2	16.6	0.00e+00	0	48	0	1110441984	77	4655
2026-01-16 01:02:56.88	212.26	27.64	-52.4	-54.3	17.5	0.00e+00	0	49	0	1112539136	76	4472
2026-01-16 01:02:57.88	212.24	27.47	-51.7	-53.5	18.2	0.00e+00	0	49	0	1114636288	75	4294
2026-01-16 01:02:58.89	212.23	27.29	-51.5	-53.2	18.5	0.00e+00	0	49	0	1116733440	75	4162
2026-01-16 01:02:59.90	212.21	27.12	-51.3	-52.9	18.8	0.00e+00	0	49	0	1117782016	74	4258
2026-01-16 01:03:00.91	212.20	26.94	-51.1	-52.6	19.0	0.00e+00	0	49	0	1119879168	73	4386
2026-01-16 01:03:01.92	212.18	26.77	-51.0	-52.5	19.2	0.00e+00	0	49	0	1121976320	73	4309
2026-01-16 01:03:02.93	212.17	26.60	-50.5	-51.9	19.7	0.00e+00	0	49	0	1124073472	73	4041
2026-01-16 01:03:03.94	212.15	26.43	-50.3	-51.6	19.9	0.00e+00	0	49	0	1126170624	72	4143
2026-01-16 01:03:04.95	212.14	26.26	-50.3	-51.7	19.9	0.00e+00	0	49	0	1128267776	72	4152
2026-01-16 01:03:05.96	212.12	26.09	-50.5	-51.9	19.7	0.00e+00	0	48	0	1129316352	72	4256
2026-01-16 01:03:06.97	212.11	25.92	-50.6	-52.0	19.5	0.00e+00	0	49	0	1131413504	72	4336
2026-01-16 01:03:07.98	212.09	25.76	-51.0	-52.5	19.0	0.00e+00	0	49	0	1133510656	72	4584
2026-01-16 01:03:08.99	212.08	25.59	-51.5	-53.2	18.4	0.00e+00	0	49	0	1135607808	73	4694
2026-01-16 01:03:10.00	212.07	25.43	-52.2	-54.1	17.7	0.00e+00	0	49	0	1137704960	74	4882
2026-01-16 01:03:11.01	212.05	25.27	-52.8	-55.0	16.7	0.00e+00	0	49	0	1138753536	76	4860
2026-01-16 01:03:12.02	212.04	25.10	-53.2	-55.5	16.2	0.00e+00	0	48	0	1140850688	76	5150
2026-01-16 01:03:13.02	212.03	24.95	-53.6	-56.2	15.6	0.00e+00	0	49	0	1142947840	77	5245
2026-01-16 01:03:14.03	212.02	24.79	-53.5	-56.0	15.8	0.00e+00	0	49	0	1145044992	78	4849
2026-01-16 01:03:15.04	212.00	24.63	-52.8	-55.0	16.7	0.00e+00	0	49	0	1147142144	77	4546
2026-01-16 01:03:16.05	211.99	24.47	-52.7	-54.9	16.9	0.00e+00	0	49	0	1148190720	77	4514
2026-01-16 01:03:17.06	211.98	24.31	-52.6	-54.7	17.1	0.00e+00	0	49	0	1150287872	76	4656
2026-01-16 01:03:18.07	211.97	24.15	-51.7	-53.5	18.1	0.00e+00	0	49	0	1152385024	75	4331
2026-01-16 01:03:19.08	211.95	24.00	-51.4	-53.1	18.5	0.00e+00	0	49	0	1154482176	74	4355
2026-01-16 01:03:20.08	211.94	23.85	-51.1	-52.7	19.0	0.00e+00	0	49	0	1156579328	74	4151
2026-01-16 01:03:21.10	211.93	23.69	-50.9	-52.4	19.3	0.00e+00	0	49	0	1157627904	73	4270
2026-01-16 01:03:22.11	211.92	23.54	-50.5	-52.0	19.6	0.00e+00	0	49	0	1159725056	73	4059
2026-01-16 01:03:23.11	211.91	23.39	-50.5	-52.0	19.5	0.00e+00	0	49	0	1161822208	72	4304
2026-01-16 01:03:24.12	211.90	23.24	-50.5	-51.9	19.6	0.00e+00	0	49	0	1163919360	72	4289
2026-01-16 01:03:25.13	211.89	23.09	-50.7	-52.2	19.3	0.00e+00	0	49	0	1166016512	72	4419
2026-01-16 01:03:26.14	211.87	22.94	-50.5	-51.9	19.6	0.00e+00	0	49	0	1167065088	72	4273
2026-01-16 01:03:27.16	211.86	22.79	-50.5	-51.9	19.6	0.00e+00	0	49	0	1169162240	72	4286
2026-01-16 01:03:28.17	211.85	22.64	-50.7	-52.2	19.4	0.00e+00	0	48	0	1171259392	72	4413
2026-01-16 01:03:29.18	211.84	22.50	-50.4	-51.9	19.6	0.00e+00	0	49	0	1173356544	72	4253
2026-01-16 01:03:30.19	211.83	22.35	-50.6	-52.1	19.5	0.00e+00	0	49	0	1175453696	72	4351
2026-01-16 01:03:31.19	211.82	22.21	-50.7	-52.1	19.3	0.00e+00	0	49	0	1176502272	72	4385
2026-01-16 01:03:32.20	211.81	22.06	-50.5	-51.9	19.6	0.00e+00	0	48	0	1178599424	72	4256
2026-01-16 01:03:33.21	211.80	21.92	-50.3	-51.7	19.8	0.00e+00	0	49	0	1180696576	72	4171
2026-01-16 01:03:34.22	211.79	21.78	-50.6	-52.1	19.4	0.00e+00	0	49	0	1182793728	72	4350
2026-01-16 01:03:35.23	211.78	21.63	-50.6	-52.1	19.4	0.00e+00	0	49	0	1184890880	72	4353
2026-01-16 01:03:36.24	211.77	21.49	-50.7	-52.2	19.3	0.00e+00	0	49	0	1186988032	72	4410
2026-01-16 01:03:37.25	211.76	21.35	-50.7	-52.2	19.3	0.00e+00	0	49	0	1188036608	72	4435
2026-01-16 01:03:38.26	211.75	21.21	-50.6	-52.1	19.4	0.00e+00	0	48	0	1190133760	72	4354
2026-01-16 01:03:39.27	211.74	21.08	-50.7	-52.2	19.3	0.00e+00	0	49	0	1192230912	72	4412
2026-01-16 01:03:40.28	211.73	20.94	-51.1	-52.6	18.9	0.00e+00	0	48	0	1194328064	72	4645
2026-01-16 01:03:41.29	211.72	20.80	-50.8	-52.3	19.1	0.00e+00	0	49	0	1195376640	72	4465
2026-01-16 01:03:42.30	211.72	20.66	-51.0	-52.5	19.0	0.00e+00	0	49	0	1197473792	72	4594
2026-01-16 01:03:43.31	211.71	20.53	-51.1	-52.6	18.8	0.00e+00	0	49	0	1199570944	72	4647
2026-01-16 01:03:44.32	211.70	20.39	-50.9	-52.5	19.0	0.00e+00	0	49	0	1201668096	72	4558
2026-01-16 01:03:45.33	211.69	20.26	-51.3	-52.9	18.6	0.00e+00	0	49	0	1203765248	73	4518
2026-01-16 01:03:46.34	211.68	20.13	-51.4	-53.1	18.5	0.00e+00	0	48	0	1205862400	73	4605
2026-01-16 01:03:47.35	211.67	19.99	-51.3	-53.0	18.5	0.00e+00	0	49	0	1206910976	73	4575
2026-01-16 01:03:48.36	211.66	19.86	-51.3	-52.9	18.5	0.00e+00	0	49	0	1209008128	73	4545
2026-01-16 01:03:49.37	211.66	19.73	-51.1	-52.8	18.7	0.00e+00	0	49	0	1211105280	73	4455
2026-01-16 01:03:50.38	211.65	19.60	-51.2	-52.8	18.7	0.00e+00	0	49	0	1213202432	73	4465
2026-01-16 01:03:51.39	211.64	19.47	-51.2	-52.9	18.6	0.00e+00	0	49	0	1215299584	73	4520
2026-01-16 01:03:52.40	211.63	19.34	-51.2	-52.8	18.7	0.00e+00	0	49	0	1216348160	73	4477
2026-01-16 01:03:53.41	211.62	19.21	-51.7	-53.5	18.0	0.00e+00	0	49	0	1218445312	73	4824
2026-01-16 01:03:54.42	211.62	19.08	-51.7	-53.4	18.1	0.00e+00	0	49	0	1220542464	74	4542
2026-01-16 01:03:55.43	211.61	18.96	-51.8	-53.6	17.9	0.00e+00	0	49	0	1222639616	74	4647
2026-01-16 01:03:56.44	211.60	18.83	-52.1	-54.1	17.4	0.00e+00	0	49	0	1224736768	74	4915
2026-01-16 01:03:57.45	211.59	18.70	-52.2	-54.2	17.4	0.00e+00	0	49	0	1225785344	75	4661
2026-01-16 01:03:58.46	211.59	18.58	-52.5	-54.6	17.0	0.00e+00	0	49	0	1227882496	75	4912
2026-01-16 01:03:59.47	211.58	18.45	-52.8	-55.1	16.5	0.00e+00	0	49	0	1229979648	76	4905
2026-01-16 01:04:00.48	211.57	18.33	-53.0	-55.4	16.2	0.00e+00	0	49	0	1232076800	76	5062
2026-01-16 01:04:01.49	211.56	18.21	-53.1	-55.6	16.0	0.00e+00	0	49	0	1234173952	77	4882
2026-01-16 01:04:02.50	211.56	18.08	-53.6	-56.2	15.4	0.00e+00	0	49	0	1235222528	77	5272
2026-01-16 01:04:03.51	211.55	17.96	-53.6	-56.3	15.3	0.00e+00	0	49	0	1237319680	78	4984
2026-01-16 01:04:04.52	211.54	17.84	-53.7	-56.3	15.2	0.00e+00	0	49	0	1239416832	78	5034
2026-01-16 01:04:05.53	211.54	17.72	-54.0	-56.9	14.6	0.00e+00	0	49	0	1241513984	78	5385
2026-01-16 01:04:06.54	211.53	17.60	-53.8	-56.5	15.0	0.00e+00	0	49	0	1243611136	78	5138
2026-01-16 01:04:07.55	211.52	17.48	-54.0	-57.0	14.7	0.00e+00	0	49	0	1245708288	78	5416
2026-01-16 01:04:08.56	211.52	17.36	-53.9	-56.8	14.7	0.00e+00	0	49	0	1246756864	78	5284
2026-01-16 01:04:09.57	211.51	17.24	-53.7	-56.4	15.1	0.00e+00	0	49	0	1248854016	78	5077
2026-01-16 01:04:10.58	211.50	17.12	-53.7	-56.4	15.1	0.00e+00	0	49	0	1250951168	78	5086
2026-01-16 01:04:11.59	211.50	17.01	-53.6	-56.3	15.2	0.00e+00	0	49	0	1253048320	78	4993
2026-01-16 01:04:12.59	211.49	16.89	-53.4	-56.0	15.5	0.00e+00	0	48	0	1254096896	78	4835
2026-01-16 01:04:13.60	211.49	16.77	-53.3	-55.7	15.8	0.00e+00	0	49	0	1256194048	78	4685
2026-01-16 01:04:14.61	211.48	16.66	-52.9	-55.2	16.3	0.00e+00	0	48	0	1258291200	77	4653
2026-01-16 01:04:15.62	211.47	16.54	-53.1	-55.6	16.0	0.00e+00	0	49	0	1260388352	77	4879
2026-01-16 01:04:16.63	211.47	16.43	-52.9	-55.1	16.3	0.00e+00	0	48	0	1262485504	77	4641
2026-01-16 01:04:17.64	211.46	16.31	-52.8	-55.1	16.2	0.00e+00	0	49	0	1264582656	77	4633
