passes_logs/2026/01/16/R3.2S_Murmansk/R3.2S_Murmansk__20260116_084108_KANOPUS-V_5_rec.log

#Pass ID: 20260116_084108_KANOPUS-V 5
#Satellite: KANOPUS-V 5
#Configuration: KANOPUS-V_8320
#almurnet v.1.7.20251203
#Start time: 2026-01-16 08:41:07

#Version: 2.2.20231116
#Station: R3.2S_Murmansk
#Location: 33.079688 lon 68.888172 lat
#TLE: 1 43876U 18111A   26015.95883530  .00002079  00000+0  90203-4 0  9990
#TLE: 2 43876  97.3685 284.4557 0001748  86.2315 273.9122 15.23440439391619

#Time	Az	El	Level	Level2	SNR	BER	BlckErr	Temp	State	Recorded	gain1	gain2
2026-01-16 08:41:07.44	185.28	1.96	-57.5	-66.3	3.8	7.45e-01	0	43	0	0	87	9488
2026-01-16 08:41:08.45	185.34	2.03	-57.5	-66.3	3.8	7.43e-01	0	44	104	0	86	10041
2026-01-16 08:41:09.46	185.39	2.10	-57.5	-66.3	3.8	7.45e-01	0	44	104	0	86	10016
2026-01-16 08:41:10.46	185.44	2.17	-57.5	-66.3	3.8	7.44e-01	0	44	104	0	86	10010
2026-01-16 08:41:11.47	185.50	2.24	-57.5	-66.3	3.8	7.45e-01	0	44	104	0	86	10056
2026-01-16 08:41:12.48	185.55	2.31	-57.5	-66.3	3.8	7.44e-01	0	44	104	0	86	10030
2026-01-16 08:41:13.49	185.61	2.37	-57.5	-66.3	3.8	7.45e-01	0	44	104	0	86	10019
2026-01-16 08:41:14.49	185.66	2.44	-57.5	-66.3	3.8	7.45e-01	0	44	104	0	86	10039
2026-01-16 08:41:15.50	185.72	2.51	-57.5	-66.3	3.8	7.45e-01	0	44	104	0	86	10033
2026-01-16 08:41:16.51	185.77	2.58	-57.5	-66.3	3.8	7.46e-01	0	44	104	0	86	10002
2026-01-16 08:41:17.52	185.83	2.65	-57.5	-66.3	3.8	7.45e-01	0	44	104	0	86	10057
2026-01-16 08:41:18.52	185.89	2.72	-57.5	-66.3	3.8	7.45e-01	0	44	104	0	86	10047
2026-01-16 08:41:19.54	185.94	2.79	-57.5	-66.3	3.8	7.44e-01	0	44	104	0	86	10027
2026-01-16 08:41:20.55	186.00	2.86	-57.5	-66.3	3.8	7.45e-01	0	44	104	0	86	9997
2026-01-16 08:41:21.56	186.06	2.93	-57.5	-66.3	3.8	7.43e-01	0	44	104	0	86	10041
2026-01-16 08:41:22.56	186.12	3.01	-57.5	-66.3	3.8	7.45e-01	0	44	104	0	86	10005
2026-01-16 08:41:23.57	186.17	3.08	-57.5	-66.3	3.8	7.44e-01	0	45	104	0	86	10026
2026-01-16 08:41:24.58	186.23	3.15	-57.5	-66.3	3.8	7.47e-01	0	45	104	0	86	10036
2026-01-16 08:41:25.59	186.29	3.22	-57.5	-66.3	3.8	7.45e-01	0	44	104	0	86	10056
2026-01-16 08:41:26.60	186.35	3.29	-57.5	-66.3	3.8	7.46e-01	0	45	104	0	86	10039
2026-01-16 08:41:27.60	186.41	3.36	-57.5	-66.4	3.8	7.46e-01	0	45	104	0	86	10063
2026-01-16 08:41:28.61	186.47	3.44	-57.5	-66.3	3.8	7.45e-01	0	45	104	0	86	10014
2026-01-16 08:41:29.62	186.53	3.51	-57.5	-66.3	3.8	7.44e-01	0	45	104	0	86	10036
2026-01-16 08:41:30.63	186.59	3.58	-57.5	-66.3	3.8	7.45e-01	0	45	104	0	86	9995
2026-01-16 08:41:31.64	186.65	3.65	-57.5	-66.2	3.8	7.45e-01	0	45	104	0	86	9899
2026-01-16 08:41:32.65	186.71	3.73	-57.5	-66.3	3.8	7.46e-01	0	45	104	0	86	9970
2026-01-16 08:41:33.66	186.77	3.80	-57.5	-66.3	3.8	7.45e-01	0	45	104	0	86	9966
2026-01-16 08:41:34.66	186.84	3.87	-57.4	-66.2	3.8	7.44e-01	0	45	104	0	86	9858
2026-01-16 08:41:35.67	186.90	3.95	-57.3	-65.6	3.8	7.45e-01	0	45	104	0	86	9198
2026-01-16 08:41:36.68	186.96	4.02	-57.1	-64.9	3.8	7.45e-01	0	45	104	0	86	8478
2026-01-16 08:41:37.69	187.02	4.10	-56.8	-63.7	4.0	7.40e-01	0	45	104	0	85	7821
2026-01-16 08:41:38.69	187.09	4.17	-56.4	-62.6	4.2	7.31e-01	0	45	104	0	84	7313
2026-01-16 08:41:39.70	187.15	4.25	-56.1	-61.7	4.5	7.23e-01	0	45	0	2097152	84	6616
2026-01-16 08:41:40.71	187.22	4.32	-55.8	-60.8	5.0	7.08e-01	0	45	0	16777216	83	6316
2026-01-16 08:41:41.72	187.28	4.40	-55.3	-59.8	5.7	6.89e-01	0	45	0	31457280	82	5961
2026-01-16 08:41:42.73	187.35	4.47	-54.9	-58.9	6.5	6.71e-01	0	45	0	48234496	81	5685
2026-01-16 08:41:43.74	187.41	4.55	-54.0	-57.4	7.8	6.49e-01	0	46	0	65011712	80	5069
2026-01-16 08:41:44.75	187.48	4.63	-53.7	-56.9	8.2	6.43e-01	0	46	0	77594624	79	5086
2026-01-16 08:41:45.76	187.54	4.70	-52.8	-55.5	9.5	6.28e-01	0	45	0	92274688	77	4867
2026-01-16 08:41:46.77	187.61	4.78	-52.2	-54.8	10.2	6.23e-01	0	46	0	106954752	76	4735
2026-01-16 08:41:47.78	187.68	4.86	-51.5	-53.9	11.0	6.19e-01	0	46	0	123731968	75	4544
2026-01-16 08:41:48.79	187.75	4.93	-51.1	-53.4	11.5	6.17e-01	0	46	0	138412032	74	4520
2026-01-16 08:41:49.80	187.81	5.01	-50.6	-52.8	12.0	6.13e-01	0	46	0	153092096	73	4460
2026-01-16 08:41:50.80	187.88	5.09	-57.8	-66.4	3.8	7.45e-01	0	46	104	165675008	86	10134
2026-01-16 08:41:51.81	187.95	5.17	-53.7	-57.2	5.0	7.12e-01	0	46	104	165675008	78	5585
2026-01-16 08:41:52.82	188.02	5.25	-50.9	-53.3	11.7	5.98e-01	0	46	0	174063616	72	5036
2026-01-16 08:41:53.83	188.09	5.33	-53.1	-56.1	9.3	5.97e-01	0	46	0	190840832	76	5483
2026-01-16 08:41:54.84	188.16	5.41	-51.2	-53.7	11.3	6.00e-01	0	46	0	207618048	72	5258
2026-01-16 08:41:55.85	188.23	5.48	-50.4	-52.7	12.3	5.97e-01	0	46	0	222298112	72	4695
2026-01-16 08:41:56.86	188.30	5.56	-50.2	-52.5	12.5	5.96e-01	0	46	0	236978176	72	4584
2026-01-16 08:41:57.86	188.37	5.64	-50.0	-52.3	12.8	5.97e-01	0	46	0	253755392	71	4730
2026-01-16 08:41:58.88	188.45	5.73	-50.1	-52.4	12.7	5.96e-01	0	46	0	268435456	71	4767
2026-01-16 08:41:59.88	188.52	5.81	-50.0	-52.3	12.8	5.96e-01	0	46	0	283115520	71	4720
2026-01-16 08:42:00.89	188.59	5.89	-50.1	-52.4	12.7	5.96e-01	0	46	0	299892736	71	4779
2026-01-16 08:42:01.90	188.67	5.97	-50.2	-52.6	12.6	5.97e-01	0	46	0	314572800	71	4881
2026-01-16 08:42:02.91	188.74	6.05	-50.2	-52.5	12.7	5.97e-01	0	46	0	329252864	71	4829
2026-01-16 08:42:03.92	188.82	6.13	-50.1	-52.4	12.7	5.95e-01	0	46	0	343932928	71	4801
2026-01-16 08:42:04.92	188.89	6.21	-49.7	-52.0	13.1	5.96e-01	0	46	0	360710144	71	4573
2026-01-16 08:42:05.93	188.97	6.30	-49.8	-52.1	13.0	5.96e-01	0	47	0	375390208	71	4639
2026-01-16 08:42:06.94	189.04	6.38	-49.9	-52.2	13.0	5.95e-01	0	46	0	392167424	71	4657
2026-01-16 08:42:07.95	189.12	6.46	-49.9	-52.2	13.0	5.95e-01	0	47	0	408944640	71	4671
2026-01-16 08:42:08.96	189.20	6.54	-49.7	-52.0	13.2	5.95e-01	0	47	0	423624704	71	4556
2026-01-16 08:42:09.96	189.27	6.63	-49.7	-51.9	13.3	5.95e-01	0	46	0	438304768	71	4527
2026-01-16 08:42:10.97	189.35	6.71	-49.6	-51.9	13.3	5.95e-01	0	47	0	452984832	71	4519
2026-01-16 08:42:11.98	189.43	6.80	-49.7	-52.0	13.2	5.95e-01	0	47	0	469762048	71	4573
2026-01-16 08:42:12.99	189.51	6.88	-49.7	-52.0	13.2	5.95e-01	0	46	0	484442112	71	4554
2026-01-16 08:42:14.00	189.59	6.97	-49.7	-52.0	13.2	5.95e-01	0	47	0	499122176	71	4577
2026-01-16 08:42:15.01	189.67	7.05	-49.6	-51.9	13.4	5.94e-01	0	47	0	515899392	71	4496
2026-01-16 08:42:16.02	189.75	7.14	-49.6	-51.9	13.4	5.94e-01	0	47	0	530579456	71	4509
2026-01-16 08:42:17.03	189.83	7.22	-49.6	-51.8	13.4	5.96e-01	0	47	0	545259520	70	4751
2026-01-16 08:42:18.04	189.92	7.31	-49.7	-52.0	13.2	5.96e-01	0	47	0	562036736	70	4841
2026-01-16 08:42:19.04	190.00	7.40	-49.8	-52.1	13.1	5.96e-01	0	47	0	578813952	70	4922
2026-01-16 08:42:20.05	190.08	7.49	-49.5	-51.8	13.5	5.94e-01	0	47	0	593494016	70	4708
2026-01-16 08:42:21.06	190.17	7.57	-49.6	-51.9	13.2	6.03e-01	0	47	0	608174080	70	4796
2026-01-16 08:42:22.07	190.25	7.66	-49.5	-51.8	13.3	6.05e-01	0	47	0	624951296	70	4751
2026-01-16 08:42:23.08	190.34	7.75	-49.5	-51.8	13.4	6.05e-01	0	47	0	639631360	70	4730
2026-01-16 08:42:24.09	190.42	7.84	-49.6	-51.9	13.3	6.00e-01	0	47	0	654311424	70	4767
2026-01-16 08:42:25.10	190.51	7.93	-49.5	-51.8	13.4	6.05e-01	0	47	0	671088640	70	4712
2026-01-16 08:42:26.11	190.60	8.02	-49.4	-51.7	13.5	6.03e-01	0	47	0	685768704	70	4681
2026-01-16 08:42:27.12	190.68	8.11	-49.4	-51.8	13.5	6.02e-01	0	47	0	700448768	70	4709
2026-01-16 08:42:28.13	190.77	8.20	-49.3	-51.5	13.7	6.05e-01	0	47	0	717225984	70	4597
2026-01-16 08:42:29.13	190.86	8.29	-49.3	-51.6	13.6	6.06e-01	0	47	0	731906048	70	4607
2026-01-16 08:42:30.14	190.95	8.38	-49.2	-51.4	13.8	6.02e-01	0	47	0	748683264	70	4513
2026-01-16 08:42:31.16	191.04	8.47	-49.2	-51.4	13.8	6.01e-01	0	47	0	763363328	70	4527
2026-01-16 08:42:32.16	191.13	8.56	-49.1	-51.3	13.9	6.01e-01	0	47	0	780140544	70	4455
2026-01-16 08:42:33.17	191.22	8.65	-49.0	-51.2	14.0	6.02e-01	0	47	0	794820608	70	4427
2026-01-16 08:42:34.18	191.32	8.75	-49.1	-51.3	14.0	5.98e-01	0	47	0	809500672	70	4444
2026-01-16 08:42:35.19	191.41	8.84	-48.9	-51.0	14.2	6.04e-01	0	47	0	826277888	69	4584
2026-01-16 08:42:36.20	191.50	8.93	-48.9	-51.0	14.1	6.04e-01	0	47	0	840957952	69	4577
2026-01-16 08:42:37.21	191.60	9.03	-48.8	-51.0	14.2	6.03e-01	0	48	0	855638016	69	4556
2026-01-16 08:42:38.21	191.69	9.12	-48.7	-50.8	14.4	6.00e-01	0	47	0	872415232	69	4475
2026-01-16 08:42:39.22	191.79	9.22	-48.8	-50.9	14.3	6.00e-01	0	47	0	887095296	69	4510
2026-01-16 08:42:40.23	191.89	9.31	-48.6	-50.7	14.5	5.99e-01	0	48	0	901775360	69	4410
2026-01-16 08:42:41.24	191.98	9.41	-48.6	-50.6	14.5	6.06e-01	0	47	0	918552576	69	4384
2026-01-16 08:42:42.25	192.08	9.50	-48.5	-50.6	14.5	6.00e-01	0	48	0	935329792	69	4363
2026-01-16 08:42:43.26	192.18	9.60	-48.5	-50.6	14.5	6.01e-01	0	47	0	950009856	69	4384
2026-01-16 08:42:44.27	192.28	9.70	-48.5	-50.6	14.6	5.99e-01	0	47	0	964689920	69	4364
2026-01-16 08:42:45.28	192.38	9.79	-48.6	-50.7	14.5	6.04e-01	0	48	0	981467136	68	4654
2026-01-16 08:42:46.28	192.48	9.89	-48.5	-50.6	14.6	5.98e-01	0	48	0	996147200	68	4620
2026-01-16 08:42:47.29	192.58	9.99	-48.5	-50.6	14.6	6.04e-01	0	48	0	1010827264	68	4601
2026-01-16 08:42:48.30	192.69	10.09	-48.5	-50.6	14.6	6.06e-01	0	48	0	1027604480	68	4635
2026-01-16 08:42:49.31	192.79	10.19	-48.5	-50.6	14.6	6.02e-01	0	48	0	1042284544	68	4623
2026-01-16 08:42:50.32	192.90	10.29	-48.4	-50.5	14.7	6.03e-01	0	47	0	1056964608	68	4571
2026-01-16 08:42:51.33	193.00	10.39	-48.4	-50.4	14.8	6.03e-01	0	48	0	1073741824	68	4528
2026-01-16 08:42:52.33	193.11	10.49	-48.3	-50.3	14.9	6.03e-01	0	48	0	1088421888	68	4481
2026-01-16 08:42:53.34	193.22	10.59	-48.4	-50.4	14.8	6.02e-01	0	48	0	1105199104	68	4534
2026-01-16 08:42:54.35	193.32	10.69	-48.3	-50.4	14.9	6.00e-01	0	48	0	1119879168	68	4501
2026-01-16 08:42:55.36	193.43	10.79	-48.3	-50.3	14.9	6.01e-01	0	48	0	1136656384	68	4478
2026-01-16 08:42:56.37	193.54	10.89	-48.3	-50.3	14.9	6.05e-01	0	48	0	1151336448	68	4461
2026-01-16 08:42:57.38	193.65	11.00	-48.3	-50.3	14.9	6.06e-01	0	48	0	1166016512	68	4465
2026-01-16 08:42:58.39	193.77	11.10	-48.3	-50.3	15.0	6.00e-01	0	48	0	1182793728	68	4459
2026-01-16 08:42:59.40	193.88	11.21	-48.2	-50.2	15.0	5.98e-01	0	48	0	1197473792	68	4421
2026-01-16 08:43:00.40	193.99	11.31	-48.2	-50.3	14.9	5.99e-01	0	48	0	1212153856	68	4446
2026-01-16 08:43:01.41	194.11	11.41	-48.1	-50.2	15.0	5.97e-01	0	48	0	1228931072	68	4395
2026-01-16 08:43:02.42	194.22	11.52	-48.1	-50.2	15.0	5.99e-01	0	48	0	1243611136	68	4393
2026-01-16 08:43:03.43	194.34	11.63	-48.1	-50.2	15.0	5.98e-01	0	48	0	1258291200	68	4407
2026-01-16 08:43:04.44	194.46	11.73	-48.1	-50.1	15.0	5.97e-01	0	48	0	1275068416	68	4360
2026-01-16 08:43:05.45	194.58	11.84	-48.1	-50.2	14.9	5.97e-01	0	48	0	1291845632	68	4418
2026-01-16 08:43:06.45	194.69	11.95	-48.1	-50.1	15.0	5.99e-01	0	48	0	1306525696	68	4372
2026-01-16 08:43:07.46	194.81	12.06	-48.2	-50.3	15.1	6.00e-01	0	48	0	1321205760	67	4706
2026-01-16 08:43:08.46	194.94	12.16	-48.2	-50.3	15.0	6.00e-01	0	48	0	1337982976	67	4734
2026-01-16 08:43:09.47	195.06	12.27	-48.2	-50.3	15.0	6.00e-01	0	48	0	1352663040	67	4738
2026-01-16 08:43:10.48	195.18	12.38	-48.1	-50.2	15.2	6.00e-01	0	48	0	1367343104	67	4659
2026-01-16 08:43:11.49	195.31	12.49	-48.2	-50.2	15.2	6.01e-01	0	48	0	1384120320	67	4697
2026-01-16 08:43:12.49	195.43	12.60	-48.1	-50.2	15.3	5.98e-01	0	48	0	1398800384	67	4670
2026-01-16 08:43:13.50	195.56	12.71	-48.0	-50.1	15.3	6.01e-01	0	48	0	1413480448	67	4603
2026-01-16 08:43:14.51	195.69	12.83	-48.1	-50.2	15.2	5.98e-01	0	48	0	1430257664	67	4673
2026-01-16 08:43:15.52	195.82	12.94	-48.0	-50.0	15.4	6.01e-01	0	48	0	1444937728	67	4581
2026-01-16 08:43:16.53	195.95	13.05	-47.9	-49.9	15.5	6.02e-01	0	48	0	1459617792	67	4518
2026-01-16 08:43:17.54	196.08	13.17	-47.8	-49.9	15.6	6.00e-01	0	48	0	1476395008	67	4494
2026-01-16 08:43:18.55	196.21	13.28	-47.9	-49.9	15.4	5.98e-01	0	48	0	1493172224	67	4544
2026-01-16 08:43:19.56	196.35	13.40	-47.6	-49.7	15.7	5.98e-01	0	48	0	1507852288	67	4417
2026-01-16 08:43:20.56	196.48	13.51	-47.7	-49.7	15.7	5.99e-01	0	48	0	1522532352	67	4431
2026-01-16 08:43:21.57	196.62	13.63	-47.8	-49.9	15.6	6.02e-01	0	48	0	1539309568	67	4505
2026-01-16 08:43:22.58	196.76	13.74	-47.6	-49.6	15.8	6.00e-01	0	48	0	1553989632	67	4375
2026-01-16 08:43:23.59	196.90	13.86	-47.5	-49.5	15.8	6.02e-01	0	49	0	1568669696	67	4336
2026-01-16 08:43:24.60	197.04	13.98	-47.5	-49.5	15.9	5.98e-01	0	48	0	1585446912	66	4580
2026-01-16 08:43:25.61	197.18	14.10	-47.4	-49.4	15.9	5.98e-01	0	48	0	1600126976	66	4539
2026-01-16 08:43:26.62	197.32	14.22	-47.4	-49.4	15.9	6.02e-01	0	48	0	1614807040	66	4530
2026-01-16 08:43:27.62	197.46	14.34	-47.3	-49.4	16.0	6.01e-01	0	49	0	1631584256	66	4520
2026-01-16 08:43:28.63	197.61	14.46	-47.3	-49.3	16.0	6.00e-01	0	49	0	1646264320	66	4493
2026-01-16 08:43:29.64	197.76	14.58	-47.3	-49.4	16.0	6.01e-01	0	48	0	1663041536	66	4511
2026-01-16 08:43:30.65	197.91	14.70	-47.5	-49.6	15.7	6.03e-01	0	49	0	1677721600	66	4610
2026-01-16 08:43:31.66	198.06	14.82	-47.4	-49.4	16.0	6.03e-01	0	48	0	1694498816	66	4533
2026-01-16 08:43:32.66	198.21	14.95	-47.2	-49.2	16.1	6.01e-01	0	48	0	1709178880	66	4432
2026-01-16 08:43:33.67	198.36	15.07	-47.1	-49.1	16.2	6.01e-01	0	49	0	1723858944	66	4388
2026-01-16 08:43:34.68	198.51	15.19	-47.2	-49.2	16.2	6.01e-01	0	49	0	1740636160	66	4424
2026-01-16 08:43:35.69	198.67	15.32	-47.2	-49.2	16.1	6.01e-01	0	48	0	1755316224	66	4409
2026-01-16 08:43:36.69	198.82	15.44	-47.1	-49.1	16.2	6.01e-01	0	48	0	1769996288	66	4391
2026-01-16 08:43:37.70	198.98	15.57	-47.1	-49.1	16.1	6.02e-01	0	48	0	1786773504	66	4353
2026-01-16 08:43:38.71	199.14	15.70	-47.0	-49.1	16.0	6.02e-01	0	49	0	1801453568	66	4347
2026-01-16 08:43:39.72	199.31	15.83	-46.9	-48.9	16.2	6.01e-01	0	49	0	1816133632	65	4533
2026-01-16 08:43:40.72	199.47	15.95	-47.0	-49.0	16.3	6.00e-01	0	49	0	1830813696	65	4559
2026-01-16 08:43:41.73	199.63	16.08	-47.1	-49.1	16.3	6.02e-01	0	49	0	1847590912	65	4606
2026-01-16 08:43:42.74	199.80	16.21	-46.9	-48.9	16.4	6.02e-01	0	49	0	1864368128	65	4496
2026-01-16 08:43:43.75	199.97	16.34	-46.9	-48.9	16.4	6.00e-01	0	49	0	1879048192	65	4499
2026-01-16 08:43:44.76	200.14	16.48	-46.8	-48.8	16.5	6.00e-01	0	49	0	1895825408	65	4481
2026-01-16 08:43:45.76	200.31	16.61	-47.8	-49.9	15.7	6.00e-01	0	49	0	1910505472	66	4764
2026-01-16 08:43:46.77	200.48	16.74	-46.8	-48.8	16.5	5.99e-01	0	49	0	1925185536	65	4455
2026-01-16 08:43:47.78	200.66	16.87	-46.8	-48.8	16.5	6.02e-01	0	49	0	1939865600	65	4460
2026-01-16 08:43:48.78	200.83	17.01	-46.8	-48.8	16.5	6.00e-01	0	49	0	1956642816	65	4443
2026-01-16 08:43:49.79	201.01	17.14	-46.7	-48.7	16.6	6.04e-01	0	49	0	1971322880	65	4418
2026-01-16 08:43:50.80	201.19	17.28	-46.8	-48.8	16.5	6.01e-01	0	49	0	1986002944	65	4456
2026-01-16 08:43:51.81	201.38	17.41	-46.8	-48.7	16.6	6.04e-01	0	49	0	2002780160	65	4435
2026-01-16 08:43:52.82	201.56	17.55	-46.8	-48.7	16.5	6.04e-01	0	49	0	2017460224	65	4438
2026-01-16 08:43:53.83	201.75	17.69	-46.7	-48.7	16.6	5.99e-01	0	49	0	2032140288	65	4415
2026-01-16 08:43:54.83	201.94	17.83	-46.7	-48.7	16.6	6.01e-01	0	49	0	2048917504	65	4400
2026-01-16 08:43:55.84	202.13	17.96	-46.8	-48.7	16.6	6.02e-01	0	49	0	2065694720	65	4420
2026-01-16 08:43:56.85	202.32	18.10	-46.8	-48.7	16.7	6.01e-01	0	49	0	2080374784	65	4410
2026-01-16 08:43:57.86	202.51	18.25	-46.8	-48.7	16.6	6.03e-01	0	49	0	2095054848	65	4436
2026-01-16 08:43:58.87	202.71	18.39	-46.9	-48.8	16.6	6.02e-01	0	49	0	2111832064	65	4477
2026-01-16 08:43:59.87	202.91	18.53	-46.9	-48.8	16.6	6.02e-01	0	49	0	2126512128	65	4464
2026-01-16 08:44:00.88	203.11	18.67	-46.9	-48.8	16.6	6.00e-01	0	49	0	2141192192	65	4481
2026-01-16 08:44:01.89	203.31	18.82	-46.9	-48.8	16.6	6.01e-01	0	49	0	2157969408	65	4461
2026-01-16 08:44:02.90	203.51	18.96	-46.9	-48.7	16.6	6.04e-01	0	49	0	2172649472	65	4440
2026-01-16 08:44:03.91	203.72	19.11	-46.9	-48.8	16.6	6.01e-01	0	49	0	2187329536	65	4451
2026-01-16 08:44:04.91	203.93	19.25	-46.8	-48.6	16.7	5.98e-01	0	49	0	2204106752	65	4384
2026-01-16 08:44:05.92	204.14	19.40	-46.9	-48.7	16.7	6.03e-01	0	49	0	2218786816	65	4393
2026-01-16 08:44:06.93	204.36	19.54	-46.9	-48.7	16.7	6.02e-01	0	49	0	2233466880	65	4402
2026-01-16 08:44:07.94	204.57	19.69	-46.9	-48.7	16.7	6.00e-01	0	49	0	2250244096	65	4396
2026-01-16 08:44:08.95	204.79	19.84	-46.9	-48.7	16.6	6.02e-01	0	49	0	2267021312	65	4398
2026-01-16 08:44:09.96	205.01	19.99	-46.9	-48.7	16.7	6.04e-01	0	49	0	2281701376	65	4417
2026-01-16 08:44:10.97	205.24	20.14	-46.9	-48.7	16.7	6.00e-01	0	49	0	2296381440	65	4432
2026-01-16 08:44:11.98	205.46	20.29	-46.9	-48.7	16.7	6.02e-01	0	49	0	2313158656	65	4419
2026-01-16 08:44:12.98	205.69	20.45	-46.9	-48.7	16.7	6.04e-01	0	49	0	2327838720	65	4427
2026-01-16 08:44:13.99	205.92	20.60	-46.9	-48.6	16.7	6.04e-01	0	49	0	2342518784	65	4387
2026-01-16 08:44:15.00	206.15	20.75	-46.9	-48.7	16.7	6.01e-01	0	49	0	2359296000	65	4402
2026-01-16 08:44:16.01	206.39	20.91	-46.9	-48.6	16.7	6.04e-01	0	49	0	2373976064	65	4388
2026-01-16 08:44:17.01	206.63	21.06	-47.0	-48.7	16.7	6.06e-01	0	49	0	2388656128	65	4420
2026-01-16 08:44:18.02	206.87	21.22	-47.0	-48.7	16.6	6.05e-01	0	49	0	2405433344	65	4426
2026-01-16 08:44:19.04	207.11	21.38	-47.1	-48.8	16.5	6.06e-01	0	49	0	2422210560	65	4488
2026-01-16 08:44:20.04	207.36	21.53	-47.1	-48.9	16.6	6.05e-01	0	49	0	2436890624	65	4500
2026-01-16 08:44:21.05	207.61	21.69	-47.2	-49.0	16.5	6.04e-01	0	49	0	2451570688	65	4558
2026-01-16 08:44:22.06	207.86	21.85	-47.1	-48.9	16.5	6.04e-01	0	49	0	2468347904	65	4525
2026-01-16 08:44:23.07	208.12	22.01	-47.2	-49.0	16.5	6.04e-01	0	49	0	2483027968	65	4549
2026-01-16 08:44:24.08	208.38	22.17	-47.3	-49.1	16.4	6.05e-01	0	49	0	2497708032	65	4600
2026-01-16 08:44:25.09	208.64	22.33	-47.2	-48.9	16.5	6.04e-01	0	49	0	2514485248	65	4526
2026-01-16 08:44:26.09	208.90	22.49	-47.2	-48.9	16.6	6.03e-01	0	49	0	2529165312	65	4500
2026-01-16 08:44:27.10	209.17	22.65	-47.2	-48.8	16.6	6.04e-01	0	49	0	2543845376	65	4485
2026-01-16 08:44:28.11	209.44	22.82	-47.2	-48.9	16.6	6.01e-01	0	49	0	2560622592	65	4502
2026-01-16 08:44:29.12	209.71	22.98	-47.3	-49.0	16.5	6.02e-01	0	49	0	2575302656	65	4569
2026-01-16 08:44:30.13	209.99	23.15	-47.3	-48.9	16.6	6.04e-01	0	49	0	2589982720	65	4539
2026-01-16 08:44:31.14	210.27	23.31	-47.1	-48.8	16.6	6.04e-01	0	49	0	2606759936	65	4472
2026-01-16 08:44:32.14	210.55	23.48	-47.1	-48.8	16.7	6.03e-01	0	49	0	2623537152	65	4445
2026-01-16 08:44:33.15	210.84	23.64	-47.1	-48.7	16.7	5.98e-01	0	49	0	2638217216	65	4437
2026-01-16 08:44:34.16	211.13	23.81	-47.0	-48.7	16.8	5.98e-01	0	50	0	2652897280	65	4421
2026-01-16 08:44:35.17	211.42	23.98	-47.0	-48.6	16.8	6.02e-01	0	49	0	2669674496	65	4391
2026-01-16 08:44:36.18	211.72	24.15	-47.0	-48.7	16.7	6.02e-01	0	49	0	2684354560	65	4437
2026-01-16 08:44:37.19	212.02	24.32	-47.1	-48.9	16.6	6.04e-01	0	50	0	2699034624	65	4511
2026-01-16 08:44:38.20	212.33	24.49	-47.1	-48.9	16.5	6.05e-01	0	49	0	2715811840	65	4538
2026-01-16 08:44:39.20	212.63	24.65	-47.2	-49.1	16.4	6.03e-01	0	49	0	2730491904	65	4599
2026-01-16 08:44:40.21	212.94	24.83	-47.3	-49.2	16.3	6.05e-01	0	50	0	2745171968	65	4679
2026-01-16 08:44:41.22	213.26	25.00	-47.3	-49.1	16.4	6.05e-01	0	49	0	2761949184	65	4637
2026-01-16 08:44:42.23	213.58	25.17	-47.3	-49.1	16.4	6.04e-01	0	49	0	2776629248	65	4618
2026-01-16 08:44:43.24	213.90	25.34	-47.3	-49.1	16.4	6.06e-01	0	50	0	2793406464	65	4606
2026-01-16 08:44:44.25	214.23	25.51	-47.3	-49.1	16.4	6.06e-01	0	50	0	2808086528	65	4647
2026-01-16 08:44:45.25	214.56	25.69	-47.2	-49.0	16.5	6.05e-01	0	50	0	2824863744	65	4596
2026-01-16 08:44:46.26	214.89	25.86	-46.9	-48.8	16.7	5.98e-01	0	50	0	2839543808	65	4456
2026-01-16 08:44:47.27	215.23	26.04	-47.0	-48.9	16.6	6.02e-01	0	50	0	2854223872	65	4494
2026-01-16 08:44:48.28	215.57	26.21	-46.7	-48.5	16.9	6.04e-01	0	50	0	2871001088	65	4336
2026-01-16 08:44:49.29	215.92	26.39	-46.7	-48.5	16.9	6.05e-01	0	50	0	2885681152	65	4338
2026-01-16 08:44:50.30	216.27	26.56	-46.7	-48.6	16.8	6.00e-01	0	50	0	2900361216	65	4350
2026-01-16 08:44:51.31	216.63	26.74	-46.7	-48.7	16.8	6.00e-01	0	50	0	2917138432	65	4405
2026-01-16 08:44:52.32	216.99	26.91	-46.7	-48.8	16.7	6.00e-01	0	50	0	2931818496	65	4447
2026-01-16 08:44:53.33	217.35	27.09	-46.8	-48.8	16.7	5.98e-01	0	50	0	2946498560	65	4483
2026-01-16 08:44:54.33	217.72	27.26	-46.7	-48.7	16.8	6.01e-01	0	50	0	2963275776	65	4427
2026-01-16 08:44:55.34	218.09	27.44	-46.7	-48.7	16.8	6.01e-01	0	50	0	2980052992	65	4428
2026-01-16 08:44:56.35	218.47	27.62	-46.6	-48.7	16.8	6.02e-01	0	49	0	2994733056	65	4412
2026-01-16 08:44:57.36	218.85	27.80	-46.7	-48.8	16.7	6.03e-01	0	50	0	3009413120	65	4467
2026-01-16 08:44:58.37	219.24	27.97	-46.7	-48.8	16.8	5.92e-01	0	50	0	3026190336	65	4486
2026-01-16 08:44:59.37	219.62	28.15	-46.5	-48.7	16.9	5.94e-01	0	50	0	3040870400	65	4393
2026-01-16 08:45:00.38	220.02	28.33	-46.5	-48.6	17.0	5.94e-01	0	50	0	3055550464	64	4609
2026-01-16 08:45:01.39	220.42	28.50	-46.3	-48.4	17.1	5.93e-01	0	50	0	3072327680	64	4539
2026-01-16 08:45:02.40	220.82	28.68	-46.2	-48.4	17.1	5.93e-01	0	50	0	3087007744	64	4504
2026-01-16 08:45:03.41	221.23	28.86	-46.1	-48.3	17.2	5.94e-01	0	50	0	3101687808	64	4491
2026-01-16 08:45:04.41	221.65	29.03	-46.1	-48.2	17.3	5.94e-01	0	50	0	3118465024	64	4425
2026-01-16 08:45:05.42	222.07	29.21	-45.9	-48.0	17.4	5.94e-01	0	50	0	3133145088	63	4581
2026-01-16 08:45:06.43	222.49	29.39	-45.9	-48.0	17.5	5.93e-01	0	50	0	3147825152	63	4553
2026-01-16 08:45:07.44	222.92	29.56	-45.8	-47.8	17.6	5.93e-01	0	50	0	3164602368	63	4467
2026-01-16 08:45:08.45	223.36	29.74	-45.7	-47.7	17.7	5.93e-01	0	50	0	3181379584	63	4430
2026-01-16 08:45:09.46	223.80	29.91	-45.7	-47.7	17.7	5.93e-01	0	50	0	3196059648	63	4402
2026-01-16 08:45:10.47	224.24	30.09	-45.7	-47.7	17.7	5.93e-01	0	50	0	3210739712	63	4429
2026-01-16 08:45:11.47	224.69	30.26	-45.7	-47.9	17.5	5.93e-01	0	50	0	3227516928	63	4499
2026-01-16 08:45:12.48	225.14	30.44	-45.7	-48.0	17.5	5.93e-01	0	50	0	3242196992	63	4571
2026-01-16 08:45:13.49	225.60	30.61	-45.6	-47.9	17.5	5.94e-01	0	50	0	3256877056	63	4529
2026-01-16 08:45:14.50	226.07	30.78	-45.6	-47.9	17.5	5.93e-01	0	50	0	3273654272	63	4508
2026-01-16 08:45:15.51	226.54	30.96	-45.6	-47.9	17.5	5.93e-01	0	50	0	3288334336	63	4524
2026-01-16 08:45:16.52	227.02	31.13	-45.6	-47.9	17.5	5.93e-01	0	50	0	3303014400	63	4530
2026-01-16 08:45:17.53	227.50	31.30	-45.6	-48.0	17.5	5.92e-01	0	50	0	3317694464	63	4552
2026-01-16 08:45:18.54	227.99	31.47	-45.1	-47.2	18.0	5.93e-01	0	50	0	3336568832	62	4414
2026-01-16 08:45:19.55	228.48	31.63	-45.1	-47.2	18.0	5.93e-01	0	50	0	3351248896	62	4397
2026-01-16 08:45:20.56	228.98	31.80	-45.1	-47.2	17.9	6.05e-01	0	50	0	3365928960	62	4428
2026-01-16 08:45:21.56	229.48	31.97	-45.2	-47.5	17.7	6.04e-01	0	50	0	3382706176	62	4557
2026-01-16 08:45:22.58	230.00	32.13	-45.0	-47.4	17.9	6.03e-01	0	50	0	3397386240	62	4502
2026-01-16 08:45:23.58	230.51	32.30	-45.0	-47.3	17.8	6.04e-01	0	50	0	3412066304	61	4750
2026-01-16 08:45:24.59	231.03	32.46	-44.8	-47.2	17.9	6.04e-01	0	50	0	3426746368	61	4661
2026-01-16 08:45:25.60	231.55	32.62	-44.8	-47.2	18.0	6.04e-01	0	50	0	3443523584	61	4670
2026-01-16 08:45:26.61	232.08	32.78	-44.9	-47.3	17.9	6.03e-01	0	50	0	3458203648	61	4732
2026-01-16 08:45:27.62	232.62	32.94	-45.0	-47.3	17.9	6.04e-01	0	50	0	3472883712	61	4743
2026-01-16 08:45:28.63	233.16	33.09	-44.9	-47.1	18.0	6.05e-01	0	50	0	3489660928	61	4620
2026-01-16 08:45:29.63	233.71	33.25	-45.0	-47.1	18.0	6.05e-01	0	50	0	3504340992	61	4624
2026-01-16 08:45:30.64	234.26	33.40	-44.6	-46.8	18.3	6.05e-01	0	50	0	3521118208	61	4456
2026-01-16 08:45:31.65	234.82	33.55	-44.5	-46.8	18.3	6.04e-01	0	50	0	3535798272	61	4478
2026-01-16 08:45:32.66	235.39	33.70	-44.7	-47.0	18.1	6.03e-01	0	50	0	3552575488	61	4561
2026-01-16 08:45:33.67	235.96	33.84	-44.3	-46.6	18.3	6.04e-01	0	50	0	3567255552	60	4632
2026-01-16 08:45:34.68	236.53	33.99	-44.2	-46.5	18.4	6.04e-01	0	50	0	3581935616	60	4565
2026-01-16 08:45:35.69	237.11	34.13	-44.3	-46.6	18.3	6.04e-01	0	50	0	3598712832	60	4645
2026-01-16 08:45:36.70	237.70	34.27	-44.4	-46.7	18.2	6.05e-01	0	50	0	3613392896	60	4702
2026-01-16 08:45:37.71	238.29	34.41	-44.5	-46.8	18.2	6.05e-01	0	50	0	3628072960	60	4750
2026-01-16 08:45:38.72	238.89	34.54	-44.6	-46.9	18.1	6.06e-01	0	50	0	3644850176	60	4772
2026-01-16 08:45:39.73	239.49	34.67	-44.4	-46.8	18.2	6.04e-01	0	50	0	3659530240	60	4720
2026-01-16 08:45:40.74	240.09	34.80	-44.2	-46.7	18.2	6.03e-01	0	50	0	3676307456	60	4696
2026-01-16 08:45:41.74	240.70	34.93	-44.1	-46.6	18.4	6.02e-01	0	50	0	3690987520	60	4599
2026-01-16 08:45:42.75	241.32	35.05	-44.2	-46.6	18.3	6.04e-01	0	50	0	3707764736	60	4628
2026-01-16 08:45:43.76	241.94	35.17	-44.2	-46.6	18.4	6.04e-01	0	50	0	3722444800	60	4602
2026-01-16 08:45:44.77	242.57	35.29	-44.3	-46.8	18.2	6.05e-01	0	50	0	3737124864	60	4713
2026-01-16 08:45:45.78	243.20	35.41	-44.3	-46.8	18.2	6.05e-01	0	50	0	3753902080	60	4724
2026-01-16 08:45:46.79	243.83	35.52	-44.3	-46.8	18.2	6.03e-01	0	50	0	3768582144	60	4732
2026-01-16 08:45:47.80	244.47	35.63	-44.4	-46.9	18.1	6.05e-01	0	50	0	3783262208	60	4782
2026-01-16 08:45:48.81	245.12	35.73	-44.6	-47.2	18.0	6.04e-01	0	50	0	3800039424	60	4956
2026-01-16 08:45:49.81	245.76	35.83	-44.9	-47.5	17.8	6.02e-01	0	50	0	3814719488	60	5117
2026-01-16 08:45:50.82	246.41	35.93	-44.6	-47.0	18.1	6.03e-01	0	50	0	3829399552	60	4865
2026-01-16 08:45:51.83	247.07	36.02	-44.5	-46.8	18.2	6.03e-01	0	50	0	3846176768	60	4758
2026-01-16 08:45:52.84	247.73	36.11	-44.4	-46.8	18.2	6.05e-01	0	50	0	3862953984	60	4712
2026-01-16 08:45:53.85	248.40	36.20	-44.3	-46.6	18.4	6.04e-01	0	50	0	3877634048	60	4646
2026-01-16 08:45:54.86	249.06	36.28	-44.2	-46.7	18.3	6.05e-01	0	50	0	3892314112	60	4669
2026-01-16 08:45:55.87	249.74	36.36	-44.1	-46.6	18.4	6.04e-01	0	50	0	3909091328	60	4647
2026-01-16 08:45:56.88	250.41	36.44	-44.2	-46.6	18.4	6.03e-01	0	50	0	3923771392	60	4640
2026-01-16 08:45:57.89	251.09	36.51	-44.4	-46.7	18.3	6.02e-01	0	50	0	3938451456	60	4661
2026-01-16 08:45:58.90	251.77	36.57	-44.3	-46.5	18.4	6.04e-01	0	50	0	3955228672	60	4598
2026-01-16 08:45:59.90	252.45	36.64	-44.4	-46.7	18.3	6.03e-01	0	50	0	3969908736	60	4675
2026-01-16 08:46:00.91	253.14	36.70	-44.2	-46.5	18.4	6.04e-01	0	50	0	3984588800	60	4589
2026-01-16 08:46:01.92	253.82	36.75	-44.1	-46.5	18.4	6.04e-01	0	50	0	4001366016	60	4595
2026-01-16 08:46:02.93	254.52	36.80	-44.3	-46.7	18.3	6.04e-01	0	50	0	4016046080	60	4696
2026-01-16 08:46:03.94	255.21	36.85	-44.3	-46.7	18.3	6.04e-01	0	50	0	4030726144	60	4672
2026-01-16 08:46:04.94	255.90	36.89	-44.3	-46.8	18.3	6.06e-01	0	50	0	4047503360	60	4726
2026-01-16 08:46:05.95	256.60	36.92	-44.4	-46.8	18.2	6.05e-01	0	50	0	4064280576	60	4750
2026-01-16 08:46:06.96	257.29	36.96	-44.3	-46.7	18.3	6.05e-01	0	50	0	4078960640	60	4654
2026-01-16 08:46:07.97	257.99	36.98	-44.2	-46.6	18.4	6.04e-01	0	50	0	4093640704	60	4631
2026-01-16 08:46:08.98	258.70	37.01	-44.3	-46.6	18.4	6.04e-01	0	50	0	4110417920	60	4649
2026-01-16 08:46:09.99	259.40	37.03	-44.3	-46.5	18.4	6.04e-01	0	50	0	4125097984	60	4569
2026-01-16 08:46:11.00	260.10	37.04	-44.3	-46.6	18.4	6.03e-01	0	50	0	4139778048	60	4615
2026-01-16 08:46:12.01	260.80	37.05	-44.3	-46.7	18.4	6.01e-01	0	50	0	4156555264	60	4674
2026-01-16 08:46:13.02	261.51	37.06	-44.3	-46.8	18.2	6.05e-01	0	50	0	4171235328	60	4718
2026-01-16 08:46:14.02	262.21	37.06	-44.3	-46.8	18.2	6.04e-01	0	50	0	4185915392	60	4721
2026-01-16 08:46:15.03	262.91	37.05	-44.2	-46.5	18.4	6.04e-01	0	50	0	4202692608	60	4596
2026-01-16 08:46:16.04	263.61	37.04	-44.3	-46.6	18.4	6.03e-01	0	50	0	4219469824	60	4613
2026-01-16 08:46:17.05	264.32	37.03	-44.2	-46.5	18.4	6.03e-01	0	50	0	4234149888	60	4594
2026-01-16 08:46:18.06	265.02	37.01	-44.3	-46.7	18.4	6.03e-01	0	50	0	4248829952	60	4681
2026-01-16 08:46:19.07	265.72	36.99	-44.2	-46.7	18.3	6.05e-01	0	50	0	4265607168	60	4677
2026-01-16 08:46:20.07	266.41	36.96	-44.1	-46.6	18.5	6.02e-01	0	50	0	4280287232	60	4639
2026-01-16 08:46:21.08	267.11	36.93	-44.2	-46.6	18.4	6.02e-01	0	50	0	4294967296	60	4630
2026-01-16 08:46:22.09	267.81	36.90	-44.3	-46.6	18.5	6.04e-01	0	50	0	4311744512	60	4634
2026-01-16 08:46:23.10	268.50	36.86	-44.2	-46.6	18.5	6.03e-01	0	50	0	4326424576	60	4614
2026-01-16 08:46:24.11	269.20	36.81	-44.1	-46.7	18.3	6.03e-01	0	50	0	4341104640	60	4670
2026-01-16 08:46:25.12	269.89	36.77	-44.3	-47.0	18.2	6.01e-01	0	50	0	4357881856	60	4826
2026-01-16 08:46:26.13	270.58	36.71	-44.3	-46.8	18.3	6.01e-01	0	50	0	4372561920	60	4736
2026-01-16 08:46:27.14	271.27	36.65	-44.5	-46.8	18.3	6.02e-01	0	50	0	4389339136	60	4740
2026-01-16 08:46:28.15	271.95	36.59	-44.5	-46.7	18.4	6.00e-01	0	50	0	4404019200	60	4692
2026-01-16 08:46:29.15	272.62	36.53	-44.2	-46.4	18.6	6.02e-01	0	50	0	4420796416	60	4515
2026-01-16 08:46:30.16	273.30	36.46	-44.1	-46.4	18.6	6.01e-01	0	50	0	4435476480	60	4510
2026-01-16 08:46:31.17	273.98	36.39	-44.1	-46.4	18.3	6.01e-01	0	50	0	4450156544	59	4813
2026-01-16 08:46:32.18	274.65	36.31	-44.2	-46.5	18.2	6.03e-01	0	51	0	4466933760	59	4865
2026-01-16 08:46:33.19	275.32	36.23	-44.3	-46.5	18.2	6.01e-01	0	50	0	4481613824	59	4847
2026-01-16 08:46:34.20	275.98	36.14	-44.1	-46.3	18.3	6.02e-01	0	50	0	4496293888	59	4754
2026-01-16 08:46:35.21	276.64	36.05	-44.1	-46.3	18.4	6.04e-01	0	50	0	4513071104	59	4724
2026-01-16 08:46:36.21	277.30	35.96	-44.1	-46.4	18.3	6.01e-01	0	50	0	4527751168	59	4814
2026-01-16 08:46:37.22	277.95	35.86	-44.1	-46.5	18.3	6.05e-01	0	51	0	4542431232	59	4816
2026-01-16 08:46:38.23	278.60	35.76	-44.2	-46.5	18.3	6.04e-01	0	50	0	4559208448	59	4849
2026-01-16 08:46:39.24	279.24	35.66	-44.2	-46.5	18.2	6.03e-01	0	50	0	4575985664	59	4845
2026-01-16 08:46:40.25	279.88	35.55	-44.2	-46.4	18.2	6.04e-01	0	50	0	4590665728	59	4807
2026-01-16 08:46:41.25	280.51	35.44	-44.1	-46.4	18.3	6.05e-01	0	50	0	4605345792	59	4791
2026-01-16 08:46:42.26	281.14	35.33	-44.1	-46.4	18.3	6.03e-01	0	50	0	4622123008	59	4813
2026-01-16 08:46:43.28	281.78	35.21	-44.2	-46.5	18.3	6.03e-01	0	50	0	4636803072	59	4843
2026-01-16 08:46:44.28	282.39	35.09	-44.3	-46.7	18.1	6.04e-01	0	50	0	4651483136	59	4930
2026-01-16 08:46:45.29	283.01	34.97	-44.5	-46.8	18.0	6.03e-01	0	50	0	4668260352	59	5030
2026-01-16 08:46:46.30	283.62	34.85	-44.6	-47.0	17.9	6.03e-01	0	50	0	4682940416	59	5118
2026-01-16 08:46:47.31	284.23	34.72	-44.6	-46.9	17.9	6.03e-01	0	50	0	4697620480	59	5086
2026-01-16 08:46:48.32	284.83	34.59	-44.6	-46.9	18.0	6.04e-01	0	50	0	4714397696	59	5096
2026-01-16 08:46:49.33	285.43	34.45	-44.6	-46.9	17.9	6.04e-01	0	50	0	4729077760	59	5089
2026-01-16 08:46:50.34	286.02	34.32	-44.6	-46.8	18.1	6.04e-01	0	50	0	4745854976	59	5001
2026-01-16 08:46:51.34	286.60	34.18	-44.7	-46.9	18.0	6.04e-01	0	50	0	4760535040	59	5046
2026-01-16 08:46:52.35	287.18	34.04	-44.5	-46.6	18.4	6.00e-01	0	50	0	4777312256	60	4621
2026-01-16 08:46:53.36	287.76	33.90	-44.5	-46.6	18.5	6.01e-01	0	50	0	4791992320	60	4618
2026-01-16 08:46:54.37	288.33	33.75	-44.5	-46.5	18.5	6.03e-01	0	50	0	4806672384	60	4562
2026-01-16 08:46:55.37	288.89	33.61	-44.5	-46.6	18.5	6.02e-01	0	50	0	4823449600	60	4604
2026-01-16 08:46:56.38	289.45	33.46	-44.4	-46.5	18.5	6.04e-01	0	50	0	4838129664	60	4579
2026-01-16 08:46:57.39	290.00	33.30	-44.5	-46.7	18.4	6.02e-01	0	51	0	4852809728	60	4659
2026-01-16 08:46:58.40	290.55	33.15	-44.7	-46.8	18.3	6.01e-01	0	50	0	4867489792	60	4737
2026-01-16 08:46:59.41	291.09	33.00	-44.7	-46.9	18.3	6.03e-01	0	50	0	4884267008	60	4774
2026-01-16 08:47:00.42	291.63	32.84	-44.8	-47.0	18.2	6.03e-01	0	50	0	4898947072	60	4822
2026-01-16 08:47:01.43	292.16	32.68	-44.8	-46.9	18.3	6.03e-01	0	50	0	4913627136	60	4796
2026-01-16 08:47:02.44	292.69	32.52	-45.0	-47.1	18.1	5.97e-01	0	50	0	4932501504	60	4892
2026-01-16 08:47:03.45	293.21	32.36	-44.9	-47.0	18.2	6.01e-01	0	50	0	4947181568	60	4822
2026-01-16 08:47:04.46	293.72	32.20	-45.0	-47.3	18.0	5.93e-01	0	50	0	4961861632	60	4991
2026-01-16 08:47:05.47	294.23	32.03	-44.9	-47.1	18.1	5.92e-01	0	50	0	4976541696	60	4912
2026-01-16 08:47:06.48	294.74	31.87	-45.0	-47.2	18.1	5.99e-01	0	50	0	4993318912	60	4937
2026-01-16 08:47:07.48	295.23	31.70	-45.2	-47.2	18.1	6.03e-01	0	50	0	5007998976	60	4976
2026-01-16 08:47:08.49	295.73	31.54	-45.2	-47.3	18.1	6.02e-01	0	50	0	5022679040	61	4722
2026-01-16 08:47:09.50	296.21	31.37	-45.3	-47.3	18.1	6.01e-01	0	50	0	5039456256	61	4706
2026-01-16 08:47:10.51	296.70	31.20	-45.3	-47.2	18.0	6.00e-01	0	51	0	5054136320	61	4690
2026-01-16 08:47:11.52	297.17	31.03	-45.3	-47.3	18.0	6.00e-01	0	50	0	5068816384	61	4740
2026-01-16 08:47:12.53	297.65	30.86	-45.3	-47.4	18.0	6.02e-01	0	50	0	5085593600	61	4765
2026-01-16 08:47:13.54	298.11	30.69	-45.4	-47.4	17.9	6.02e-01	0	51	0	5102370816	61	4812
2026-01-16 08:47:14.55	298.57	30.51	-45.5	-47.5	17.8	5.99e-01	0	50	0	5117050880	61	4869
2026-01-16 08:47:15.56	299.03	30.34	-45.7	-47.7	17.7	5.97e-01	0	50	0	5131730944	61	4975
2026-01-16 08:47:16.57	299.48	30.17	-45.9	-48.0	17.6	6.03e-01	0	50	0	5148508160	62	4816
2026-01-16 08:47:17.58	299.93	29.99	-45.8	-47.8	17.7	6.01e-01	0	50	0	5163188224	62	4716
2026-01-16 08:47:18.58	300.36	29.82	-45.9	-47.8	17.7	6.00e-01	0	50	0	5177868288	62	4753
2026-01-16 08:47:19.60	300.80	29.64	-46.0	-48.0	17.6	5.98e-01	0	51	0	5194645504	62	4855
2026-01-16 08:47:20.61	301.23	29.47	-46.1	-48.2	17.5	6.01e-01	0	50	0	5209325568	62	4932
2026-01-16 08:47:21.61	301.65	29.29	-46.2	-48.2	17.4	6.01e-01	0	50	0	5224005632	62	4958
2026-01-16 08:47:22.62	302.07	29.12	-46.3	-48.3	17.3	6.03e-01	0	50	0	5240782848	63	4729
2026-01-16 08:47:23.63	302.49	28.94	-46.4	-48.3	17.3	6.02e-01	0	50	0	5255462912	63	4755
2026-01-16 08:47:24.64	302.90	28.77	-46.5	-48.5	17.2	6.02e-01	0	50	0	5272240128	63	4834
2026-01-16 08:47:25.65	303.31	28.59	-46.5	-48.5	17.2	5.98e-01	0	51	0	5286920192	63	4870
2026-01-16 08:47:26.65	303.70	28.41	-46.6	-48.6	17.1	5.95e-01	0	50	0	5303697408	63	4918
2026-01-16 08:47:27.66	304.10	28.24	-46.7	-48.7	17.0	5.93e-01	0	50	0	5318377472	63	4970
2026-01-16 08:47:28.67	304.49	28.06	-46.6	-48.7	17.0	6.01e-01	0	50	0	5333057536	64	4685
2026-01-16 08:47:29.68	304.88	27.89	-46.6	-48.7	17.0	6.03e-01	0	51	0	5349834752	64	4690
2026-01-16 08:47:30.69	305.26	27.71	-46.6	-48.6	17.0	5.99e-01	0	50	0	5364514816	64	4648
2026-01-16 08:47:31.70	305.64	27.53	-46.7	-48.8	16.9	5.95e-01	0	50	0	5379194880	64	4731
2026-01-16 08:47:32.71	306.01	27.36	-46.8	-48.8	16.9	6.00e-01	0	50	0	5395972096	64	4759
2026-01-16 08:47:33.72	306.38	27.18	-46.9	-49.0	16.7	6.01e-01	0	51	0	5410652160	64	4826
2026-01-16 08:47:34.73	306.74	27.01	-47.1	-49.2	16.6	6.00e-01	0	50	0	5425332224	64	4977
2026-01-16 08:47:35.73	307.10	26.83	-47.2	-49.2	16.5	6.00e-01	0	51	0	5442109440	64	4977
2026-01-16 08:47:36.74	307.46	26.66	-47.3	-49.4	16.5	6.00e-01	0	51	0	5458886656	65	4765
2026-01-16 08:47:37.75	307.81	26.48	-47.3	-49.4	16.5	6.00e-01	0	50	0	5473566720	65	4767
2026-01-16 08:47:38.76	308.16	26.31	-47.4	-49.4	16.5	5.99e-01	0	51	0	5488246784	65	4763
2026-01-16 08:47:39.77	308.50	26.13	-47.3	-49.2	16.6	6.01e-01	0	51	0	5505024000	65	4705
2026-01-16 08:47:40.78	308.84	25.96	-47.2	-49.3	16.6	6.01e-01	0	51	0	5519704064	65	4711
2026-01-16 08:47:41.79	309.17	25.79	-47.2	-49.2	16.6	5.96e-01	0	51	0	5534384128	65	4704
2026-01-16 08:47:42.79	309.50	25.62	-47.2	-49.3	16.5	6.02e-01	0	51	0	5551161344	65	4723
2026-01-16 08:47:43.80	309.83	25.44	-47.3	-49.4	16.4	6.02e-01	0	51	0	5565841408	65	4774
2026-01-16 08:47:44.81	310.15	25.27	-47.2	-49.2	16.5	6.02e-01	0	50	0	5580521472	65	4686
2026-01-16 08:47:45.82	310.47	25.10	-47.2	-49.2	16.7	5.98e-01	0	51	0	5597298688	65	4656
2026-01-16 08:47:46.83	310.79	24.93	-47.2	-49.2	16.6	5.99e-01	0	51	0	5611978752	65	4665
2026-01-16 08:47:47.84	311.10	24.76	-47.3	-49.3	16.5	5.98e-01	0	51	0	5628755968	65	4709
2026-01-16 08:47:48.84	311.41	24.59	-47.3	-49.2	16.6	5.99e-01	0	51	0	5643436032	65	4681
2026-01-16 08:47:49.85	311.71	24.42	-47.3	-49.1	16.6	5.99e-01	0	51	0	5660213248	65	4644
2026-01-16 08:47:50.86	312.01	24.25	-47.2	-49.1	16.6	5.89e-01	0	51	0	5674893312	65	4640
2026-01-16 08:47:51.87	312.31	24.09	-47.2	-49.2	16.6	6.00e-01	0	51	0	5689573376	65	4652
2026-01-16 08:47:52.88	312.60	23.92	-47.4	-49.3	16.5	5.99e-01	0	51	0	5706350592	65	4748
2026-01-16 08:47:53.88	312.89	23.75	-47.4	-49.3	16.5	5.98e-01	0	50	0	5721030656	65	4749
2026-01-16 08:47:54.89	313.18	23.59	-47.4	-49.3	16.5	6.00e-01	0	51	0	5735710720	65	4750
2026-01-16 08:47:55.90	313.46	23.42	-47.4	-49.4	16.4	6.00e-01	0	51	0	5752487936	65	4775
2026-01-16 08:47:56.91	313.74	23.26	-47.4	-49.5	16.4	6.01e-01	0	51	0	5767168000	65	4816
2026-01-16 08:47:57.92	314.02	23.09	-47.3	-49.3	16.4	5.99e-01	0	51	0	5781848064	65	4748
2026-01-16 08:47:58.93	314.30	22.93	-47.4	-49.4	16.4	6.00e-01	0	50	0	5798625280	65	4793
2026-01-16 08:47:59.94	314.57	22.77	-47.5	-49.5	16.3	6.01e-01	0	51	0	5815402496	65	4818
2026-01-16 08:48:00.95	314.84	22.60	-47.4	-49.4	16.4	6.01e-01	0	50	0	5830082560	65	4769
2026-01-16 08:48:01.95	315.10	22.44	-47.5	-49.5	16.3	6.03e-01	0	51	0	5844762624	65	4820
2026-01-16 08:48:02.96	315.36	22.28	-47.5	-49.5	16.3	5.98e-01	0	50	0	5861539840	65	4857
2026-01-16 08:48:03.97	315.62	22.12	-47.6	-49.6	16.3	6.00e-01	0	51	0	5876219904	65	4880
2026-01-16 08:48:04.98	315.88	21.97	-47.5	-49.5	16.3	5.99e-01	0	51	0	5890899968	65	4860
2026-01-16 08:48:05.99	316.13	21.81	-47.5	-49.5	16.3	6.03e-01	0	51	0	5907677184	65	4853
2026-01-16 08:48:07.00	316.38	21.65	-47.5	-49.6	16.2	6.02e-01	0	51	0	5922357248	65	4882
2026-01-16 08:48:08.01	316.63	21.49	-47.5	-49.6	16.2	6.00e-01	0	51	0	5937037312	65	4881
2026-01-16 08:48:09.02	316.87	21.34	-47.5	-49.5	16.2	6.00e-01	0	50	0	5953814528	65	4858
2026-01-16 08:48:10.03	317.11	21.18	-47.4	-49.4	16.4	6.03e-01	0	50	0	5968494592	65	4771
2026-01-16 08:48:11.04	317.35	21.03	-47.3	-49.2	16.4	6.03e-01	0	50	0	5985271808	65	4702
2026-01-16 08:48:12.04	317.59	20.87	-47.3	-49.3	16.4	6.00e-01	0	51	0	5999951872	65	4730
2026-01-16 08:48:13.05	317.82	20.72	-47.2	-49.2	16.5	5.73e-01	0	50	0	6016729088	65	4673
2026-01-16 08:48:14.06	318.05	20.57	-47.2	-49.2	16.4	5.97e-01	0	51	0	6031409152	65	4688
2026-01-16 08:48:15.07	318.28	20.42	-47.2	-49.2	16.4	6.03e-01	0	51	0	6046089216	65	4689
2026-01-16 08:48:16.08	318.51	20.26	-47.1	-49.1	16.5	6.03e-01	0	51	0	6062866432	65	4650
2026-01-16 08:48:17.08	318.73	20.12	-47.2	-49.2	16.5	6.01e-01	0	51	0	6077546496	65	4666
2026-01-16 08:48:18.09	318.95	19.97	-47.2	-49.2	16.4	6.02e-01	0	51	0	6092226560	65	4704
2026-01-16 08:48:19.10	319.17	19.82	-47.2	-49.2	16.4	6.03e-01	0	51	0	6109003776	65	4703
2026-01-16 08:48:20.11	319.39	19.67	-47.2	-49.2	16.4	6.02e-01	0	50	0	6123683840	65	4693
2026-01-16 08:48:21.12	319.60	19.52	-47.1	-49.1	16.4	6.02e-01	0	50	0	6138363904	65	4651
2026-01-16 08:48:22.13	319.81	19.38	-47.1	-49.1	16.6	5.94e-01	0	51	0	6155141120	65	4627
2026-01-16 08:48:23.14	320.02	19.23	-47.1	-49.2	16.5	5.94e-01	0	51	0	6171918336	65	4668
2026-01-16 08:48:24.14	320.23	19.09	-47.0	-49.1	16.6	5.94e-01	0	51	0	6186598400	65	4616
2026-01-16 08:48:25.15	320.43	18.94	-47.1	-49.2	16.5	5.93e-01	0	51	0	6201278464	65	4659
2026-01-16 08:48:26.16	320.64	18.80	-47.2	-49.2	16.5	5.94e-01	0	50	0	6218055680	65	4687
2026-01-16 08:48:27.17	320.84	18.66	-47.1	-49.2	16.5	5.93e-01	0	51	0	6232735744	65	4681
2026-01-16 08:48:28.18	321.04	18.52	-47.1	-49.2	16.5	5.94e-01	0	51	0	6247415808	65	4659
2026-01-16 08:48:29.18	321.23	18.38	-47.1	-49.2	16.4	5.94e-01	0	51	0	6264193024	65	4660
2026-01-16 08:48:30.19	321.43	18.23	-47.1	-49.2	16.5	5.94e-01	0	51	0	6278873088	65	4666
2026-01-16 08:48:31.20	321.62	18.10	-47.1	-49.2	16.5	5.93e-01	0	51	0	6293553152	65	4670
2026-01-16 08:48:32.21	321.81	17.96	-48.3	-49.2	16.6	5.94e-01	0	50	0	6308233216	67	4171
2026-01-16 08:48:33.22	322.00	17.82	-58.7	-67.7	3.8	7.45e-01	0	51	104	6320816128	87	11037
2026-01-16 08:48:34.23	322.19	17.68	-58.7	-67.6	3.8	7.46e-01	0	51	104	6320816128	87	10947
2026-01-16 08:48:35.24	322.37	17.54	-58.7	-67.5	3.8	7.45e-01	0	50	104	6320816128	87	10902
2026-01-16 08:48:36.25	322.55	17.41	-58.7	-67.5	3.8	7.46e-01	0	51	104	6320816128	87	10902
2026-01-16 08:48:37.26	322.74	17.27	-58.7	-67.5	3.8	7.45e-01	0	51	104	6320816128	87	10870
2026-01-16 08:48:38.27	322.92	17.14	-58.6	-67.5	3.8	7.46e-01	0	51	104	6320816128	87	10847
2026-01-16 08:48:39.27	323.09	17.01	-58.6	-67.5	3.8	7.43e-01	0	51	104	6320816128	87	10841
2026-01-16 08:48:40.28	323.27	16.87	-58.6	-67.5	3.8	7.44e-01	0	50	104	6320816128	87	10824
2026-01-16 08:48:41.29	323.44	16.74	-58.6	-67.5	3.8	7.46e-01	0	51	104	6320816128	87	10793
2026-01-16 08:48:42.30	323.61	16.61	-58.6	-67.5	3.8	7.45e-01	0	51	104	6320816128	87	10830
2026-01-16 08:48:43.31	323.78	16.48	-58.6	-67.5	3.8	7.46e-01	0	51	104	6320816128	87	10802
2026-01-16 08:48:44.32	323.95	16.35	-58.6	-67.5	3.8	7.46e-01	0	50	104	6320816128	87	10821
2026-01-16 08:48:45.33	324.12	16.22	-58.6	-67.4	3.8	7.45e-01	0	51	104	6320816128	87	10768
2026-01-16 08:48:46.34	324.29	16.09	-58.6	-67.4	3.8	7.45e-01	0	51	104	6320816128	87	10753
2026-01-16 08:48:47.35	324.45	15.96	-58.6	-67.4	3.8	7.45e-01	0	51	104	6320816128	87	10766
2026-01-16 08:48:48.36	324.61	15.83	-58.6	-67.4	3.8	7.44e-01	0	51	104	6320816128	87	10731
2026-01-16 08:48:49.36	324.77	15.71	-58.6	-67.4	3.8	7.45e-01	0	51	104	6320816128	87	10747
2026-01-16 08:48:50.37	324.93	15.58	-58.6	-67.4	3.8	7.45e-01	0	51	104	6320816128	87	10729
2026-01-16 08:48:51.38	325.09	15.46	-58.6	-67.4	3.8	7.46e-01	0	51	104	6320816128	87	10717
2026-01-16 08:48:52.39	325.24	15.33	-58.5	-67.4	3.8	7.44e-01	0	51	104	6320816128	87	10695
2026-01-16 08:48:53.40	325.40	15.21	-58.5	-67.4	3.8	7.44e-01	0	51	104	6320816128	87	10660
2026-01-16 08:48:54.40	325.55	15.08	-58.5	-67.4	3.8	7.45e-01	0	51	104	6320816128	87	10746
2026-01-16 08:48:55.41	325.70	14.96	-58.5	-67.4	3.8	7.45e-01	0	51	104	6320816128	87	10673
2026-01-16 08:48:56.42	325.85	14.84	-58.5	-67.4	3.8	7.45e-01	0	51	104	6320816128	87	10656
2026-01-16 08:48:57.43	326.00	14.72	-58.5	-67.3	3.8	7.45e-01	0	51	104	6320816128	87	10633
2026-01-16 08:48:58.44	326.15	14.60	-58.5	-67.4	3.8	7.46e-01	0	51	104	6320816128	87	10669
2026-01-16 08:48:59.44	326.29	14.48	-58.5	-67.3	3.8	7.45e-01	0	51	104	6320816128	87	10632
2026-01-16 08:49:00.45	326.44	14.36	-58.5	-67.3	3.8	7.44e-01	0	51	104	6320816128	87	10629
2026-01-16 08:49:01.46	326.58	14.24	-58.5	-67.3	3.8	7.44e-01	0	51	104	6320816128	87	10596
2026-01-16 08:49:02.47	326.73	14.12	-58.5	-67.3	3.8	7.46e-01	0	51	104	6320816128	87	10625
2026-01-16 08:49:03.48	326.87	14.00	-58.5	-67.3	3.8	7.44e-01	0	51	104	6320816128	87	10624
2026-01-16 08:49:04.48	327.00	13.89	-58.4	-67.3	3.8	7.44e-01	0	51	104	6320816128	87	10586
2026-01-16 08:49:05.49	327.14	13.77	-58.4	-67.3	3.8	7.47e-01	0	51	104	6320816128	87	10590
2026-01-16 08:49:06.50	327.28	13.65	-58.4	-67.3	3.8	7.43e-01	0	51	104	6320816128	87	10572
2026-01-16 08:49:07.51	327.42	13.54	-58.4	-67.3	3.8	7.45e-01	0	51	104	6320816128	87	10553
2026-01-16 08:49:08.51	327.55	13.42	-58.4	-67.3	3.8	7.45e-01	0	51	104	6320816128	87	10543
2026-01-16 08:49:09.52	327.68	13.31	-58.4	-67.3	3.8	7.47e-01	0	51	104	6320816128	87	10546
2026-01-16 08:49:10.53	327.82	13.20	-58.4	-67.3	3.8	7.45e-01	0	51	104	6320816128	87	10583
2026-01-16 08:49:11.54	327.95	13.08	-58.4	-67.3	3.8	7.44e-01	0	51	104	6320816128	87	10539
2026-01-16 08:49:12.55	328.08	12.97	-58.4	-67.2	3.8	7.45e-01	0	51	104	6320816128	87	10492
2026-01-16 08:49:13.56	328.20	12.86	-58.4	-67.2	3.8	7.46e-01	0	51	104	6320816128	87	10524
2026-01-16 08:49:14.57	328.33	12.75	-58.4	-67.2	3.8	7.46e-01	0	51	104	6320816128	87	10494
2026-01-16 08:49:15.57	328.46	12.64	-58.4	-67.2	3.8	7.46e-01	0	51	104	6320816128	87	10463
2026-01-16 08:49:16.58	328.58	12.53	-58.3	-67.2	3.8	7.44e-01	0	51	104	6320816128	87	10424
2026-01-16 08:49:17.59	328.71	12.42	-58.4	-67.2	3.8	7.45e-01	0	51	104	6320816128	87	10432
2026-01-16 08:49:18.60	328.83	12.31	-58.3	-67.2	3.8	7.44e-01	0	50	104	6320816128	87	10425
2026-01-16 08:49:19.61	328.95	12.20	-58.3	-67.2	3.8	7.44e-01	0	51	104	6320816128	87	10419
2026-01-16 08:49:20.62	329.07	12.09	-58.3	-67.1	3.8	7.43e-01	0	51	104	6320816128	87	10375
2026-01-16 08:49:21.62	329.19	11.99	-58.3	-67.1	3.8	7.46e-01	0	51	104	6320816128	87	10412
2026-01-16 08:49:22.63	329.31	11.88	-58.3	-67.1	3.8	7.47e-01	0	51	104	6320816128	87	10393
2026-01-16 08:49:23.64	329.43	11.77	-58.3	-67.1	3.8	7.45e-01	0	51	104	6320816128	87	10388
2026-01-16 08:49:24.65	329.55	11.67	-58.2	-67.1	3.8	7.47e-01	0	50	104	6320816128	87	10357
2026-01-16 08:49:25.66	329.66	11.56	-58.3	-67.1	3.8	7.44e-01	0	51	104	6320816128	87	10365
2026-01-16 08:49:26.67	329.78	11.46	-58.2	-67.1	3.8	7.46e-01	0	51	104	6320816128	87	10314
2026-01-16 08:49:27.68	329.89	11.35	-58.2	-67.1	3.8	7.46e-01	0	51	104	6320816128	87	10321
2026-01-16 08:49:28.69	330.01	11.25	-58.2	-67.0	3.8	7.45e-01	0	51	104	6320816128	87	10256
2026-01-16 08:49:29.70	330.12	11.15	-58.2	-67.1	3.8	7.45e-01	0	51	104	6320816128	87	10351
2026-01-16 08:49:30.71	330.23	11.04	-58.2	-67.0	3.8	7.45e-01	0	50	104	6320816128	87	10252
2026-01-16 08:49:31.72	330.34	10.94	-58.2	-67.0	3.8	7.46e-01	0	51	104	6320816128	87	10277
2026-01-16 08:49:32.72	330.45	10.84	-58.2	-67.0	3.8	7.44e-01	0	51	104	6320816128	87	10208
2026-01-16 08:49:33.73	330.56	10.74	-58.2	-67.0	3.8	7.46e-01	0	51	104	6320816128	87	10282
2026-01-16 08:49:34.74	330.67	10.64	-58.2	-67.0	3.8	7.46e-01	0	51	104	6320816128	87	10223
2026-01-16 08:49:35.75	330.77	10.54	-58.1	-67.0	3.8	7.45e-01	0	51	104	6320816128	87	10256
2026-01-16 08:49:36.76	330.88	10.44	-58.1	-67.0	3.8	7.45e-01	0	51	104	6320816128	87	10218
2026-01-16 08:49:37.77	330.98	10.34	-58.2	-67.0	3.8	7.45e-01	0	51	104	6320816128	87	10260
2026-01-16 08:49:38.77	331.09	10.24	-58.1	-67.0	3.8	7.45e-01	0	51	104	6320816128	87	10177
2026-01-16 08:49:39.78	331.19	10.14	-58.1	-67.0	3.8	7.44e-01	0	51	104	6320816128	87	10230
2026-01-16 08:49:40.79	331.29	10.04	-58.1	-66.9	3.8	7.45e-01	0	51	104	6320816128	87	10137
2026-01-16 08:49:41.80	331.40	9.94	-58.2	-67.0	3.8	7.45e-01	0	51	104	6320816128	87	10192
2026-01-16 08:49:42.81	331.50	9.85	-58.1	-66.9	3.8	7.46e-01	0	51	104	6320816128	87	10165
2026-01-16 08:49:43.82	331.60	9.75	-58.1	-67.0	3.8	7.44e-01	0	51	104	6320816128	87	10192
2026-01-16 08:49:44.83	331.70	9.65	-58.0	-66.9	3.8	7.43e-01	0	51	104	6320816128	87	10108
2026-01-16 08:49:45.83	331.80	9.56	-58.1	-67.0	3.8	7.45e-01	0	51	104	6320816128	87	10191
2026-01-16 08:49:46.84	331.89	9.46	-58.0	-66.9	3.8	7.45e-01	0	51	104	6320816128	87	10119
2026-01-16 08:49:47.85	331.99	9.37	-58.1	-67.0	3.8	7.44e-01	0	51	104	6320816128	87	10186
2026-01-16 08:49:48.86	332.09	9.27	-58.0	-66.8	3.8	7.44e-01	0	51	104	6320816128	87	10042
2026-01-16 08:49:49.87	332.18	9.18	-58.1	-66.9	3.8	7.45e-01	0	51	104	6320816128	87	10153
2026-01-16 08:49:50.88	332.28	9.09	-58.0	-66.8	3.8	7.45e-01	0	51	104	6320816128	87	10039
2026-01-16 08:49:51.89	332.37	8.99	-58.0	-66.9	3.8	7.47e-01	0	51	104	6320816128	87	10107
2026-01-16 08:49:52.90	332.47	8.90	-58.0	-66.8	3.8	7.44e-01	0	51	104	6320816128	87	9985
2026-01-16 08:49:53.91	332.56	8.81	-58.0	-66.9	3.8	7.46e-01	0	51	104	6320816128	87	10102
2026-01-16 08:49:54.91	332.65	8.72	-58.0	-66.8	3.8	7.44e-01	0	50	104	6320816128	87	10025
2026-01-16 08:49:55.92	332.74	8.63	-58.0	-66.8	3.8	7.45e-01	0	51	104	6320816128	87	10035
2026-01-16 08:49:56.93	332.83	8.53	-57.9	-66.8	3.8	7.45e-01	0	51	104	6320816128	87	9967
2026-01-16 08:49:57.94	332.92	8.44	-58.0	-66.9	3.8	7.44e-01	0	51	104	6320816128	87	10075
2026-01-16 08:49:58.95	333.01	8.35	-57.9	-66.8	3.8	7.44e-01	0	51	104	6320816128	87	9956
2026-01-16 08:49:59.96	333.10	8.26	-58.0	-66.8	3.8	7.47e-01	0	51	104	6320816128	87	10033
2026-01-16 08:50:00.97	333.19	8.17	-57.9	-66.8	3.8	7.45e-01	0	51	104	6320816128	87	9968
2026-01-16 08:50:01.98	333.28	8.08	-58.0	-66.8	3.8	7.44e-01	0	51	104	6320816128	87	10010
2026-01-16 08:50:02.99	333.37	7.99	-57.9	-66.7	3.8	7.46e-01	0	51	104	6320816128	87	9938
2026-01-16 08:50:04.00	333.45	7.91	-57.9	-66.8	3.8	7.46e-01	0	51	104	6320816128	87	9973
2026-01-16 08:50:05.00	333.54	7.82	-57.9	-66.7	3.8	7.45e-01	0	51	104	6320816128	87	9942
2026-01-16 08:50:06.01	333.62	7.73	-57.9	-66.8	3.8	7.45e-01	0	50	104	6320816128	87	9995
2026-01-16 08:50:07.02	333.71	7.64	-57.9	-66.7	3.8	7.46e-01	0	51	104	6320816128	87	9874
2026-01-16 08:50:08.03	333.79	7.56	-57.9	-66.7	3.8	7.45e-01	0	51	104	6320816128	87	9923
2026-01-16 08:50:09.04	333.88	7.47	-57.8	-66.7	3.8	7.45e-01	0	51	104	6320816128	87	9848
2026-01-16 08:50:10.05	333.96	7.38	-57.9	-66.7	3.8	7.45e-01	0	51	104	6320816128	87	9924
2026-01-16 08:50:11.06	334.04	7.30	-57.8	-66.6	3.8	7.44e-01	0	51	104	6320816128	87	9788
2026-01-16 08:50:12.06	334.12	7.21	-57.9	-66.7	3.8	7.46e-01	0	51	104	6320816128	87	9905
2026-01-16 08:50:13.07	334.20	7.13	-57.7	-66.6	3.8	7.45e-01	0	51	104	6320816128	87	9732
2026-01-16 08:50:14.08	334.28	7.04	-57.8	-66.7	3.8	7.44e-01	0	51	104	6320816128	87	9864
2026-01-16 08:50:15.09	334.36	6.96	-57.7	-66.5	3.8	7.46e-01	0	51	104	6320816128	87	9703
2026-01-16 08:50:16.10	334.44	6.87	-57.8	-66.6	3.8	7.45e-01	0	51	104	6320816128	87	9824
2026-01-16 08:50:17.11	334.52	6.79	-57.7	-66.5	3.8	7.46e-01	0	50	104	6320816128	87	9670
2026-01-16 08:50:18.12	334.60	6.70	-57.8	-66.6	3.8	7.45e-01	0	51	104	6320816128	87	9812
2026-01-16 08:50:19.13	334.68	6.62	-57.5	-66.4	3.8	7.45e-01	0	51	104	6320816128	87	9524
2026-01-16 08:50:20.13	334.75	6.54	-57.8	-66.6	3.8	7.46e-01	0	51	104	6320816128	87	9768
2026-01-16 08:50:21.14	334.83	6.46	-57.5	-66.4	3.8	7.47e-01	0	51	104	6320816128	87	9527
2026-01-16 08:50:22.15	334.91	6.37	-57.7	-66.5	3.8	7.45e-01	0	51	104	6320816128	87	9713
2026-01-16 08:50:23.16	334.98	6.29	-57.4	-66.2	3.8	7.46e-01	0	51	104	6320816128	86	9920
2026-01-16 08:50:24.17	335.06	6.21	-57.7	-66.5	3.8	7.45e-01	0	51	104	6320816128	86	10211
2026-01-16 08:50:25.17	335.13	6.13	-57.0	-65.9	3.8	7.45e-01	0	51	104	6320816128	85	10062
2026-01-16 08:50:26.18	335.21	6.05	-57.5	-66.4	3.8	7.46e-01	0	51	104	6320816128	85	10724
2026-01-16 08:50:27.19	335.28	5.97	-56.8	-65.7	3.8	7.45e-01	0	51	104	6320816128	85	9835
2026-01-16 08:50:28.20	335.35	5.89	-57.1	-65.9	3.8	7.46e-01	0	51	104	6320816128	85	10092
2026-01-16 08:50:29.21	335.43	5.81	-56.7	-65.6	3.8	7.45e-01	0	51	104	6320816128	85	9744
2026-01-16 08:50:30.22	335.50	5.73	-56.8	-65.6	3.8	7.45e-01	0	51	104	6320816128	85	9755
2026-01-16 08:50:31.23	335.57	5.65	-56.8	-65.7	3.8	7.44e-01	0	51	104	6320816128	85	9845
2026-01-16 08:50:32.24	335.64	5.57	-57.1	-65.9	3.8	7.46e-01	0	51	104	6320816128	85	10165
2026-01-16 08:50:33.25	335.71	5.49	-57.2	-66.0	3.8	7.44e-01	0	51	104	6320816128	85	10259
2026-01-16 08:50:34.25	335.78	5.41	-57.5	-66.3	3.8	7.46e-01	0	51	104	6320816128	85	10557
2026-01-16 08:50:35.26	335.85	5.33	-57.2	-66.1	3.8	7.45e-01	0	51	104	6320816128	85	10335
2026-01-16 08:50:36.27	335.92	5.25	-57.0	-65.9	3.8	7.46e-01	0	51	104	6320816128	85	10099
2026-01-16 08:50:37.28	335.99	5.18	-57.2	-66.0	3.8	7.45e-01	0	51	104	6320816128	85	10289
2026-01-16 08:50:38.29	336.06	5.10	-57.2	-66.0	3.8	7.43e-01	0	51	104	6320816128	85	10266
2026-01-16 08:50:39.30	336.13	5.02	-57.2	-66.0	3.8	7.42e-01	0	51	104	6320816128	85	10287
2026-01-16 08:50:40.31	336.20	4.94	-57.8	-66.6	3.8	7.44e-01	0	51	104	6320816128	86	10363
2026-01-16 08:50:41.32	336.26	4.87	-58.2	-67.0	3.8	7.46e-01	0	51	104	6320816128	86	10853
2026-01-16 08:50:42.32	336.33	4.79	-58.4	-67.3	3.8	7.47e-01	0	51	104	6320816128	87	10587
2026-01-16 08:50:43.33	336.40	4.71	-58.6	-67.5	3.8	7.47e-01	0	51	104	6320816128	87	10795
2026-01-16 08:50:44.34	336.46	4.64	-58.7	-67.6	3.8	7.46e-01	0	51	104	6320816128	88	10309
2026-01-16 08:50:45.35	336.53	4.56	-58.8	-67.6	3.8	7.45e-01	0	51	104	6320816128	88	10382
2026-01-16 08:50:46.36	336.60	4.49	-58.9	-67.8	3.8	7.45e-01	0	51	104	6320816128	88	10540
2026-01-16 08:50:47.37	336.66	4.41	-59.0	-67.8	3.8	7.45e-01	0	51	104	6320816128	88	10634
2026-01-16 08:50:48.37	336.72	4.34	-59.0	-67.9	3.8	7.43e-01	0	51	104	6320816128	88	10714
2026-01-16 08:50:49.38	336.79	4.26	-59.1	-67.9	3.8	7.46e-01	0	51	104	6320816128	88	10777
2026-01-16 08:50:50.39	336.85	4.19	-59.1	-68.0	3.8	7.46e-01	0	51	104	6320816128	88	10835
2026-01-16 08:50:51.40	336.92	4.11	-59.2	-68.0	3.8	7.45e-01	0	51	104	6320816128	88	10874
2026-01-16 08:50:52.41	336.98	4.04	-59.2	-68.0	3.8	7.47e-01	0	51	104	6320816128	88	10885
2026-01-16 08:50:53.42	337.04	3.97	-59.2	-68.1	3.8	7.45e-01	0	51	104	6320816128	88	10905
2026-01-16 08:50:54.43	337.10	3.89	-59.2	-68.1	3.8	7.46e-01	0	51	104	6320816128	88	10905
2026-01-16 08:50:55.44	337.17	3.82	-59.2	-68.0	3.8	7.46e-01	0	51	104	6320816128	88	10875
2026-01-16 08:50:56.45	337.23	3.75	-59.2	-68.1	3.8	7.45e-01	0	51	104	6320816128	88	10922
2026-01-16 08:50:57.46	337.29	3.67	-59.2	-68.1	3.8	7.44e-01	0	51	104	6320816128	88	10925
2026-01-16 08:50:58.46	337.35	3.60	-59.2	-68.1	3.8	7.45e-01	0	51	104	6320816128	88	10924
2026-01-16 08:50:59.47	337.41	3.53	-59.2	-68.1	3.8	7.45e-01	0	51	104	6320816128	88	10915
2026-01-16 08:51:00.48	337.47	3.46	-59.2	-68.0	3.8	7.46e-01	0	51	104	6320816128	88	10882
2026-01-16 08:51:01.49	337.53	3.39	-59.2	-68.0	3.8	7.45e-01	0	51	104	6320816128	88	10886
2026-01-16 08:51:02.50	337.59	3.32	-59.1	-68.0	3.8	7.45e-01	0	51	104	6320816128	88	10846
2026-01-16 08:51:03.51	337.65	3.24	-59.1	-68.0	3.8	7.45e-01	0	51	104	6320816128	88	10833
2026-01-16 08:51:04.52	337.71	3.17	-59.1	-68.0	3.8	7.45e-01	0	51	104	6320816128	88	10805
2026-01-16 08:51:05.53	337.77	3.10	-59.1	-67.9	3.8	7.46e-01	0	51	104	6320816128	88	10759
2026-01-16 08:51:06.53	337.82	3.03	-59.1	-67.9	3.8	7.46e-01	0	51	104	6320816128	88	10774
2026-01-16 08:51:07.54	337.88	2.96	-59.1	-67.9	3.8	7.46e-01	0	51	104	6320816128	88	10760
2026-01-16 08:51:08.55	337.94	2.89	-59.1	-68.0	3.8	7.46e-01	0	51	104	6320816128	88	10790
2026-01-16 08:51:09.56	338.00	2.82	-59.1	-67.9	3.8	7.47e-01	0	51	104	6320816128	88	10768
2026-01-16 08:51:10.57	338.05	2.75	-59.1	-67.9	3.8	7.44e-01	0	51	104	6320816128	88	10743
2026-01-16 08:51:11.58	338.11	2.68	-59.0	-67.9	3.8	7.44e-01	0	51	104	6320816128	88	10758
2026-01-16 08:51:12.59	338.17	2.61	-59.0	-67.9	3.8	7.46e-01	0	51	104	6320816128	88	10696
2026-01-16 08:51:13.60	338.22	2.54	-59.0	-67.9	3.8	7.47e-01	0	51	104	6320816128	88	10749
2026-01-16 08:51:14.60	338.28	2.48	-59.0	-67.9	3.8	7.47e-01	0	51	104	6320816128	88	10711
2026-01-16 08:51:15.61	338.33	2.41	-59.1	-68.0	3.8	7.46e-01	0	51	104	6320816128	88	10781
2026-01-16 08:51:16.62	338.39	2.34	-59.0	-67.9	3.8	7.46e-01	0	51	104	6320816128	88	10699
2026-01-16 08:51:17.63	338.44	2.27	-59.1	-67.9	3.8	7.46e-01	0	51	104	6320816128	88	10755
2026-01-16 08:51:18.64	338.50	2.20	-59.0	-67.9	3.8	7.45e-01	0	51	104	6320816128	88	10724
2026-01-16 08:51:19.65	338.55	2.13	-59.0	-67.9	3.8	7.45e-01	0	51	104	6320816128	88	10687
2026-01-16 08:51:20.66	338.60	2.07	-59.0	-67.9	3.8	7.46e-01	0	51	104	6320816128	88	10699
2026-01-16 08:51:21.66	338.66	2.00	-59.0	-67.8	3.8	7.44e-01	0	51	104	6320816128	88	10639
2026-01-16 08:51:22.67	338.71	1.93	-59.0	-67.9	3.8	7.45e-01	0	51	104	6320816128	88	10700
2026-01-16 08:51:23.68	338.76	1.86	-59.0	-67.8	3.8	7.46e-01	0	51	104	6320816128	88	10647

#Closed at: 2026-01-16 08:51:24
#Recorded file [6320 MB]: D:/lorett/data/31041_260116_114107.dat