passes_logs/2026/01/16/R3.2S_Murmansk/R3.2S_Murmansk__20260116_123905_AQUA_rec.log

#Pass ID: 20260116_123905_AQUA
#Satellite: AQUA
#Configuration: AQUA
#almurnet v.1.7.20251203
#Start time: 2026-01-16 12:39:06

#Version: 2.2.20231116
#Station: R3.2S_Murmansk
#Location: 33.079688 lon 68.888172 lat
#TLE: 1 27424U 02022A   26015.92015591  .00000664  00000+0  14289-3 0  9993
#TLE: 2 27424  98.4082 342.3630 0002020  77.1389  16.3168 14.61822470261023

#Time	Az	El	Level	Level2	SNR	BER	BlckErr	Temp	State	Recorded	gain1	gain2
2026-01-16 12:39:06.37	187.77	2.06	-60.0	-77.3	3.8	7.46e-01	0	42	0	0	90	28239
2026-01-16 12:39:07.38	187.82	2.13	-60.0	-77.3	3.8	7.46e-01	0	42	104	0	90	28348
2026-01-16 12:39:08.38	187.87	2.19	-60.0	-77.3	3.8	7.45e-01	0	42	104	0	90	28270
2026-01-16 12:39:09.39	187.92	2.26	-60.0	-77.3	3.8	7.47e-01	0	42	104	0	90	28234
2026-01-16 12:39:10.40	187.97	2.32	-60.0	-77.3	3.8	7.43e-01	0	42	104	0	90	28257
2026-01-16 12:39:11.41	188.02	2.38	-60.0	-77.3	3.8	7.46e-01	0	42	104	0	90	28258
2026-01-16 12:39:12.42	188.07	2.45	-60.0	-77.3	3.8	7.45e-01	0	42	104	0	90	28319
2026-01-16 12:39:13.42	188.12	2.51	-60.0	-77.3	3.8	7.46e-01	0	43	104	0	90	28218
2026-01-16 12:39:14.43	188.18	2.58	-60.0	-77.3	3.8	7.48e-01	0	42	104	0	90	28311
2026-01-16 12:39:15.44	188.23	2.64	-60.0	-77.3	3.8	7.44e-01	0	42	104	0	90	28294
2026-01-16 12:39:16.45	188.28	2.71	-60.0	-77.3	3.8	7.46e-01	0	43	104	0	90	28278
2026-01-16 12:39:17.46	188.33	2.77	-60.0	-77.3	3.8	7.43e-01	0	43	104	0	90	28339
2026-01-16 12:39:18.47	188.38	2.84	-60.0	-77.3	3.8	7.47e-01	0	42	104	0	90	28243
2026-01-16 12:39:19.48	188.44	2.91	-60.0	-77.3	3.8	7.43e-01	0	43	104	0	90	28321
2026-01-16 12:39:20.49	188.49	2.97	-60.0	-77.3	3.8	7.44e-01	0	43	104	0	90	28299
2026-01-16 12:39:21.49	188.54	3.04	-60.0	-77.3	3.8	7.44e-01	0	43	104	0	90	28250
2026-01-16 12:39:22.50	188.59	3.10	-60.0	-77.3	3.8	7.48e-01	0	43	104	0	90	28321
2026-01-16 12:39:23.51	188.65	3.17	-60.0	-77.3	3.8	7.47e-01	0	43	104	0	90	28297
2026-01-16 12:39:24.52	188.70	3.24	-60.0	-77.4	3.8	7.45e-01	0	43	104	0	90	28359
2026-01-16 12:39:25.53	188.76	3.30	-60.0	-77.3	3.8	7.45e-01	0	43	104	0	90	28282
2026-01-16 12:39:26.53	188.81	3.37	-60.0	-77.3	3.8	7.44e-01	0	43	104	0	90	28311
2026-01-16 12:39:27.54	188.86	3.44	-60.0	-77.3	3.8	7.46e-01	0	43	104	0	90	28343
2026-01-16 12:39:28.56	188.92	3.50	-60.0	-77.3	3.8	7.43e-01	0	43	104	0	90	28290
2026-01-16 12:39:29.57	188.97	3.57	-60.0	-77.3	3.8	7.45e-01	0	43	104	0	90	28296
2026-01-16 12:39:30.57	189.03	3.64	-60.0	-77.3	3.8	7.46e-01	0	43	104	0	90	28274
2026-01-16 12:39:31.58	189.08	3.71	-60.0	-77.4	3.8	7.47e-01	0	43	104	0	90	28362
2026-01-16 12:39:32.59	189.14	3.77	-60.0	-77.3	3.8	7.42e-01	0	44	104	0	90	28292
2026-01-16 12:39:33.60	189.20	3.84	-60.0	-77.3	3.8	7.46e-01	0	43	104	0	90	28261
2026-01-16 12:39:34.61	189.25	3.91	-60.0	-77.3	3.8	7.48e-01	0	44	104	0	90	28298
2026-01-16 12:39:35.62	189.31	3.98	-60.0	-77.3	3.8	7.47e-01	0	44	104	0	90	28262
2026-01-16 12:39:36.63	189.37	4.05	-60.0	-77.3	3.8	7.45e-01	0	44	104	0	90	28323
2026-01-16 12:39:37.64	189.42	4.12	-60.0	-77.3	3.8	7.46e-01	0	44	104	0	90	28282
2026-01-16 12:39:38.64	189.48	4.18	-60.0	-77.3	3.8	7.43e-01	0	44	104	0	90	28322
2026-01-16 12:39:39.65	189.54	4.25	-60.0	-77.3	3.8	7.44e-01	0	44	104	0	90	28337
2026-01-16 12:39:40.66	189.59	4.32	-60.0	-77.3	3.8	7.46e-01	0	44	104	0	90	28331
2026-01-16 12:39:41.67	189.65	4.39	-60.0	-77.3	3.8	7.43e-01	0	44	104	0	90	28331
2026-01-16 12:39:42.68	189.71	4.46	-60.0	-77.3	3.8	7.46e-01	0	44	104	0	90	28281
2026-01-16 12:39:43.69	189.77	4.53	-60.0	-77.4	3.8	7.45e-01	0	44	104	0	90	28364
2026-01-16 12:39:44.70	189.83	4.60	-60.0	-77.3	3.8	7.45e-01	0	44	104	0	90	28254
2026-01-16 12:39:45.71	189.89	4.67	-60.0	-77.3	3.8	7.47e-01	0	44	104	0	90	28321
2026-01-16 12:39:46.71	189.95	4.74	-60.0	-77.3	3.8	7.48e-01	0	44	104	0	90	28286
2026-01-16 12:39:47.72	190.01	4.81	-60.0	-77.3	3.8	7.44e-01	0	44	104	0	90	28304
2026-01-16 12:39:48.73	190.07	4.88	-60.0	-77.3	3.8	7.47e-01	0	44	104	0	90	28317
2026-01-16 12:39:49.74	190.13	4.95	-60.0	-77.4	3.8	7.48e-01	0	44	104	0	90	28353
2026-01-16 12:39:50.75	190.19	5.03	-60.0	-77.3	3.8	7.46e-01	0	44	104	0	90	28294
2026-01-16 12:39:51.76	190.25	5.10	-60.0	-77.3	3.8	7.43e-01	0	44	104	0	90	28342
2026-01-16 12:39:52.77	190.31	5.17	-60.0	-77.4	3.8	7.46e-01	0	44	104	0	90	28355
2026-01-16 12:39:53.78	190.37	5.24	-60.0	-77.3	3.8	7.49e-01	0	44	104	0	90	28351
2026-01-16 12:39:54.79	190.44	5.31	-60.0	-77.3	3.8	7.49e-01	0	45	104	0	90	28287
2026-01-16 12:39:55.79	190.50	5.38	-60.0	-77.3	3.8	7.44e-01	0	44	104	0	90	28326
2026-01-16 12:39:56.80	190.56	5.46	-60.0	-77.4	3.8	7.45e-01	0	44	104	0	90	28404
2026-01-16 12:39:57.81	190.62	5.53	-60.0	-77.3	3.8	7.45e-01	0	45	104	0	90	28316
2026-01-16 12:39:58.82	190.69	5.60	-60.0	-77.3	3.8	7.45e-01	0	45	104	0	90	28327
2026-01-16 12:39:59.83	190.75	5.67	-60.0	-77.4	3.8	7.46e-01	0	45	104	0	90	28384
2026-01-16 12:40:00.84	190.81	5.75	-60.0	-77.4	3.8	7.47e-01	0	45	104	0	90	28367
2026-01-16 12:40:01.85	190.88	5.82	-60.0	-77.3	3.8	7.48e-01	0	45	104	0	90	28320
2026-01-16 12:40:02.85	190.94	5.89	-60.0	-77.4	3.8	7.43e-01	0	45	104	0	90	28365
2026-01-16 12:40:03.86	191.01	5.97	-60.0	-77.3	3.8	7.47e-01	0	45	104	0	90	28347
2026-01-16 12:40:04.87	191.07	6.04	-60.0	-77.4	3.8	7.45e-01	0	45	104	0	90	28373
2026-01-16 12:40:05.88	191.14	6.11	-60.0	-77.3	3.8	7.43e-01	0	45	104	0	90	28318
2026-01-16 12:40:06.89	191.20	6.19	-60.0	-77.3	3.8	7.45e-01	0	45	104	0	90	28331
2026-01-16 12:40:07.90	191.27	6.26	-60.0	-77.3	3.8	7.47e-01	0	45	104	0	90	28342
2026-01-16 12:40:08.90	191.34	6.34	-60.0	-77.3	3.8	7.46e-01	0	45	104	0	90	28317
2026-01-16 12:40:09.91	191.40	6.41	-60.0	-77.4	3.8	7.46e-01	0	45	104	0	90	28367
2026-01-16 12:40:10.92	191.47	6.49	-60.0	-77.3	3.8	7.44e-01	0	45	104	0	90	28288
2026-01-16 12:40:11.93	191.54	6.56	-60.0	-77.3	3.8	7.45e-01	0	45	104	0	90	28333
2026-01-16 12:40:12.94	191.61	6.64	-60.0	-77.3	3.8	7.46e-01	0	45	104	0	90	28322
2026-01-16 12:40:13.94	191.67	6.71	-60.0	-77.3	3.8	7.44e-01	0	45	104	0	90	28333
2026-01-16 12:40:14.95	191.74	6.79	-60.0	-77.3	3.8	7.47e-01	0	45	104	0	90	28310
2026-01-16 12:40:15.96	191.81	6.86	-60.0	-77.3	3.8	7.44e-01	0	45	104	0	90	28282
2026-01-16 12:40:16.97	191.88	6.94	-60.0	-77.3	3.8	7.49e-01	0	45	104	0	90	28334
2026-01-16 12:40:17.98	191.95	7.02	-60.0	-77.3	3.8	7.46e-01	0	45	104	0	90	28335
2026-01-16 12:40:18.99	192.02	7.09	-60.0	-77.4	3.8	7.42e-01	0	45	104	0	90	28364
2026-01-16 12:40:20.00	192.09	7.17	-60.0	-77.4	3.8	7.44e-01	0	45	104	0	90	28361
2026-01-16 12:40:21.01	192.16	7.25	-60.0	-77.4	3.8	7.44e-01	0	45	104	0	90	28372
2026-01-16 12:40:22.01	192.24	7.33	-60.0	-77.3	3.8	7.43e-01	0	45	104	0	90	28348
2026-01-16 12:40:23.02	192.31	7.40	-60.0	-77.3	3.8	7.46e-01	0	45	104	0	90	28319
2026-01-16 12:40:24.03	192.38	7.48	-60.0	-77.3	3.8	7.49e-01	0	46	104	0	90	28344
2026-01-16 12:40:25.04	192.45	7.56	-60.0	-77.4	3.8	7.48e-01	0	46	104	0	90	28432
2026-01-16 12:40:26.05	192.53	7.64	-60.0	-77.3	3.8	7.41e-01	0	46	104	0	90	28342
2026-01-16 12:40:27.06	192.60	7.72	-60.0	-77.4	3.8	7.47e-01	0	46	104	0	90	28370
2026-01-16 12:40:28.06	192.67	7.79	-60.0	-77.4	3.8	7.42e-01	0	46	104	0	90	28378
2026-01-16 12:40:29.08	192.75	7.87	-60.0	-77.4	3.8	7.45e-01	0	46	104	0	90	28424
2026-01-16 12:40:30.08	192.82	7.95	-60.0	-77.4	3.8	7.47e-01	0	45	104	0	90	28369
2026-01-16 12:40:31.09	192.90	8.03	-60.0	-77.3	3.8	7.44e-01	0	46	104	0	90	28345
2026-01-16 12:40:32.10	192.97	8.11	-60.0	-77.4	3.8	7.45e-01	0	46	104	0	90	28364
2026-01-16 12:40:33.11	193.05	8.19	-60.0	-77.4	3.8	7.45e-01	0	46	104	0	90	28353
2026-01-16 12:40:34.12	193.12	8.27	-60.0	-77.4	3.8	7.46e-01	0	46	104	0	90	28377
2026-01-16 12:40:35.13	193.20	8.35	-60.0	-77.3	3.8	7.46e-01	0	46	104	0	90	28336
2026-01-16 12:40:36.14	193.28	8.44	-60.0	-77.4	3.8	7.46e-01	0	46	104	0	90	28376
2026-01-16 12:40:37.14	193.36	8.52	-60.0	-77.4	3.8	7.46e-01	0	46	104	0	90	28402
2026-01-16 12:40:38.15	193.43	8.60	-60.0	-77.3	3.8	7.43e-01	0	46	104	0	90	28317
2026-01-16 12:40:39.16	193.51	8.68	-60.0	-77.4	3.8	7.44e-01	0	46	104	0	90	28407
2026-01-16 12:40:40.17	193.59	8.76	-60.0	-77.4	3.8	7.47e-01	0	46	104	0	90	28375
2026-01-16 12:40:41.18	193.67	8.84	-60.0	-77.4	3.8	7.46e-01	0	46	104	0	90	28352
2026-01-16 12:40:42.19	193.75	8.93	-60.0	-77.3	3.8	7.45e-01	0	46	104	0	90	28339
2026-01-16 12:40:43.20	193.83	9.01	-60.0	-77.4	3.8	7.43e-01	0	46	104	0	90	28373
2026-01-16 12:40:44.20	193.91	9.09	-60.0	-77.3	3.8	7.48e-01	0	46	104	0	90	28346
2026-01-16 12:40:45.21	193.99	9.17	-60.0	-77.4	3.8	7.46e-01	0	46	104	0	90	28369
2026-01-16 12:40:46.22	194.07	9.26	-60.0	-77.3	3.8	7.43e-01	0	46	104	0	90	28327
2026-01-16 12:40:47.23	194.16	9.34	-60.0	-77.3	3.8	7.44e-01	0	46	104	0	90	28332
2026-01-16 12:40:48.24	194.24	9.42	-60.0	-77.4	3.8	7.43e-01	0	46	104	0	90	28353
2026-01-16 12:40:49.25	194.32	9.51	-60.0	-77.3	3.8	7.47e-01	0	46	104	0	90	28331
2026-01-16 12:40:50.26	194.41	9.59	-60.0	-77.3	3.8	7.47e-01	0	46	104	0	90	28336
2026-01-16 12:40:51.27	194.49	9.68	-60.0	-77.4	3.8	7.46e-01	0	46	104	0	90	28361
2026-01-16 12:40:52.27	194.58	9.76	-60.0	-77.4	3.8	7.43e-01	0	46	104	0	90	28392
2026-01-16 12:40:53.29	194.66	9.85	-60.0	-77.4	3.8	7.48e-01	0	46	104	0	90	28385
2026-01-16 12:40:54.30	194.75	9.93	-60.0	-77.4	3.8	7.43e-01	0	46	104	0	90	28382
2026-01-16 12:40:55.30	194.83	10.02	-60.0	-77.4	3.8	7.46e-01	0	46	104	0	90	28393
2026-01-16 12:40:56.31	194.92	10.11	-60.0	-77.4	3.8	7.45e-01	0	46	104	0	90	28369
2026-01-16 12:40:57.32	195.01	10.19	-60.0	-77.4	3.8	7.45e-01	0	46	104	0	90	28359
2026-01-16 12:40:58.33	195.10	10.28	-60.0	-77.4	3.8	7.43e-01	0	46	104	0	90	28401
2026-01-16 12:40:59.34	195.18	10.37	-60.0	-77.3	3.8	7.46e-01	0	46	104	0	90	28307
2026-01-16 12:41:00.34	195.27	10.45	-60.0	-77.4	3.8	7.46e-01	0	46	104	0	90	28354
2026-01-16 12:41:01.35	195.36	10.54	-60.0	-77.4	3.8	7.44e-01	0	47	104	0	90	28380
2026-01-16 12:41:02.36	195.45	10.63	-60.0	-77.3	3.8	7.46e-01	0	46	104	0	90	28348
2026-01-16 12:41:03.37	195.54	10.72	-60.0	-77.4	3.8	7.43e-01	0	46	104	0	90	28372
2026-01-16 12:41:04.37	195.63	10.80	-60.0	-77.4	3.8	7.47e-01	0	46	104	0	90	28357
2026-01-16 12:41:05.38	195.73	10.89	-60.0	-77.3	3.8	7.45e-01	0	47	104	0	90	28337
2026-01-16 12:41:06.39	195.82	10.98	-60.0	-77.4	3.8	7.45e-01	0	47	104	0	90	28435
2026-01-16 12:41:07.40	195.91	11.07	-60.0	-77.3	3.8	7.45e-01	0	47	104	0	90	28334
2026-01-16 12:41:08.41	196.00	11.16	-60.0	-77.3	3.8	7.48e-01	0	47	104	0	90	28325
2026-01-16 12:41:09.42	196.10	11.25	-60.0	-77.4	3.8	7.46e-01	0	47	104	0	90	28388
2026-01-16 12:41:10.43	196.19	11.34	-60.0	-77.4	3.8	7.43e-01	0	47	104	0	90	28395
2026-01-16 12:41:11.44	196.29	11.43	-60.0	-77.4	3.8	7.45e-01	0	47	104	0	90	28357
2026-01-16 12:41:12.45	196.39	11.52	-60.0	-77.4	3.8	7.45e-01	0	47	104	0	90	28374
2026-01-16 12:41:13.46	196.48	11.61	-60.0	-77.3	3.8	7.48e-01	0	47	104	0	90	28349
2026-01-16 12:41:14.47	196.58	11.71	-60.0	-77.4	3.8	7.46e-01	0	47	104	0	90	28408
2026-01-16 12:41:15.48	196.68	11.80	-60.0	-77.4	3.8	7.46e-01	0	47	104	0	90	28399
2026-01-16 12:41:16.49	196.78	11.89	-60.0	-77.3	3.8	7.49e-01	0	47	104	0	90	28328
2026-01-16 12:41:17.50	196.87	11.98	-60.0	-77.4	3.8	7.44e-01	0	47	104	0	90	28366
2026-01-16 12:41:18.50	196.97	12.07	-60.0	-77.4	3.8	7.43e-01	0	47	104	0	90	28404
2026-01-16 12:41:19.51	197.07	12.17	-60.0	-77.4	3.8	7.43e-01	0	47	104	0	90	28392
2026-01-16 12:41:20.52	197.18	12.26	-60.0	-77.4	3.8	7.45e-01	0	47	104	0	90	28371
2026-01-16 12:41:21.53	197.28	12.35	-60.0	-77.4	3.8	7.46e-01	0	47	104	0	90	28367
2026-01-16 12:41:22.54	197.38	12.45	-60.0	-77.4	3.8	7.44e-01	0	47	104	0	90	28433
2026-01-16 12:41:23.54	197.48	12.54	-60.0	-77.4	3.8	7.44e-01	0	47	104	0	90	28366
2026-01-16 12:41:24.55	197.59	12.64	-60.0	-77.4	3.8	7.43e-01	0	47	104	0	90	28392
2026-01-16 12:41:25.56	197.69	12.73	-60.0	-77.3	3.8	7.44e-01	0	47	104	0	90	28320
2026-01-16 12:41:26.57	197.80	12.83	-60.0	-77.4	3.8	7.44e-01	0	47	104	0	90	28422
2026-01-16 12:41:27.58	197.90	12.92	-60.0	-77.4	3.8	7.43e-01	0	47	104	0	90	28365
2026-01-16 12:41:28.58	198.01	13.02	-60.0	-77.3	3.8	7.51e-01	0	47	104	0	90	28338
2026-01-16 12:41:29.59	198.11	13.11	-60.0	-77.4	3.8	7.46e-01	0	47	104	0	90	28439
2026-01-16 12:41:30.60	198.22	13.21	-60.0	-77.4	3.8	7.46e-01	0	47	104	0	90	28386
2026-01-16 12:41:31.61	198.33	13.31	-60.0	-77.4	3.8	7.46e-01	0	47	104	0	90	28415
2026-01-16 12:41:32.62	198.44	13.41	-60.0	-77.3	3.8	7.46e-01	0	47	104	0	90	28345
2026-01-16 12:41:33.63	198.55	13.50	-60.0	-77.4	3.8	7.45e-01	0	47	104	0	90	28429
2026-01-16 12:41:34.63	198.66	13.60	-60.0	-77.4	3.8	7.45e-01	0	47	104	0	90	28453
2026-01-16 12:41:35.64	198.77	13.70	-60.0	-77.4	3.8	7.43e-01	0	47	104	0	90	28429
2026-01-16 12:41:36.65	198.88	13.80	-60.0	-77.4	3.8	7.47e-01	0	47	104	0	90	28396
2026-01-16 12:41:37.66	199.00	13.90	-60.0	-77.4	3.8	7.45e-01	0	47	104	0	90	28396
2026-01-16 12:41:38.67	199.11	14.00	-60.0	-77.4	3.8	7.47e-01	0	47	104	0	90	28419
2026-01-16 12:41:39.68	199.23	14.10	-60.0	-77.4	3.8	7.45e-01	0	47	104	0	90	28456
2026-01-16 12:41:40.69	199.34	14.20	-60.0	-77.4	3.8	7.47e-01	0	47	104	0	90	28440
2026-01-16 12:41:41.70	199.46	14.30	-60.0	-77.4	3.8	7.48e-01	0	47	104	0	90	28414
2026-01-16 12:41:42.71	199.58	14.40	-60.0	-77.4	3.8	7.47e-01	0	47	104	0	90	28373
2026-01-16 12:41:43.72	199.69	14.50	-60.0	-77.4	3.8	7.47e-01	0	47	104	0	90	28426
2026-01-16 12:41:44.72	199.81	14.60	-60.0	-77.4	3.8	7.44e-01	0	47	104	0	90	28427
2026-01-16 12:41:45.73	199.93	14.70	-60.0	-77.4	3.8	7.48e-01	0	47	104	0	90	28402
2026-01-16 12:41:46.74	200.05	14.81	-60.0	-77.4	3.8	7.46e-01	0	47	104	0	90	28469
2026-01-16 12:41:47.75	200.17	14.91	-60.0	-77.4	3.8	7.43e-01	0	47	104	0	90	28412
2026-01-16 12:41:48.76	200.30	15.01	-60.0	-77.4	3.8	7.43e-01	0	47	104	0	90	28437
2026-01-16 12:41:49.77	200.42	15.12	-60.0	-77.4	3.8	7.40e-01	0	47	104	0	90	28401
2026-01-16 12:41:50.78	200.54	15.22	-60.0	-77.4	3.8	7.48e-01	0	47	104	0	90	28467
2026-01-16 12:41:51.79	200.67	15.32	-60.0	-77.4	3.8	7.43e-01	0	48	104	0	90	28367
2026-01-16 12:41:52.80	200.79	15.43	-60.0	-77.4	3.8	7.46e-01	0	47	104	0	90	28453
2026-01-16 12:41:53.81	200.92	15.53	-60.0	-77.4	3.8	7.46e-01	0	47	104	0	90	28388
2026-01-16 12:41:54.82	201.05	15.64	-60.0	-77.4	3.8	7.45e-01	0	47	104	0	90	28422
2026-01-16 12:41:55.82	201.18	15.74	-60.0	-77.4	3.8	7.46e-01	0	47	104	0	90	28417
2026-01-16 12:41:56.83	201.31	15.85	-60.0	-77.4	3.8	7.45e-01	0	48	104	0	90	28464
2026-01-16 12:41:57.84	201.44	15.96	-60.0	-77.4	3.8	7.44e-01	0	48	104	0	90	28433
2026-01-16 12:41:58.85	201.57	16.06	-60.0	-77.4	3.8	7.42e-01	0	48	104	0	90	28380
2026-01-16 12:41:59.85	201.70	16.17	-60.0	-77.4	3.8	7.51e-01	0	48	104	0	90	28389
2026-01-16 12:42:00.86	201.83	16.28	-60.0	-77.4	3.8	7.45e-01	0	48	104	0	90	28387
2026-01-16 12:42:01.87	201.97	16.39	-60.0	-77.4	3.8	7.43e-01	0	48	104	0	90	28402
2026-01-16 12:42:02.88	202.10	16.49	-60.0	-77.4	3.8	7.45e-01	0	48	104	0	90	28464
2026-01-16 12:42:03.89	202.24	16.60	-60.0	-77.4	3.8	7.43e-01	0	48	104	0	90	28452
2026-01-16 12:42:04.89	202.38	16.71	-60.0	-77.4	3.8	7.42e-01	0	48	104	0	90	28445
2026-01-16 12:42:05.90	202.51	16.82	-60.0	-77.4	3.8	7.45e-01	0	48	104	0	90	28445
2026-01-16 12:42:06.91	202.65	16.93	-60.0	-77.4	3.8	7.44e-01	0	48	104	0	90	28414
2026-01-16 12:42:07.92	202.79	17.04	-60.0	-77.4	3.8	7.44e-01	0	48	104	0	90	28415
2026-01-16 12:42:08.93	202.94	17.15	-60.0	-77.4	3.8	7.46e-01	0	48	104	0	90	28412
2026-01-16 12:42:09.94	203.08	17.26	-60.0	-77.4	3.8	7.45e-01	0	48	104	0	90	28402
2026-01-16 12:42:10.95	203.22	17.38	-60.0	-77.4	3.8	7.46e-01	0	48	104	0	90	28454
2026-01-16 12:42:11.96	203.37	17.49	-60.0	-77.4	3.8	7.41e-01	0	48	104	0	90	28435
2026-01-16 12:42:12.97	203.51	17.60	-60.0	-77.4	3.8	7.46e-01	0	48	104	0	90	28476
2026-01-16 12:42:13.98	203.66	17.71	-60.0	-77.4	3.8	7.44e-01	0	48	104	0	90	28449
2026-01-16 12:42:14.98	203.81	17.83	-60.0	-77.4	3.8	7.44e-01	0	48	104	0	90	28366
2026-01-16 12:42:15.99	203.96	17.94	-60.0	-77.4	3.8	7.45e-01	0	48	104	0	90	28371
2026-01-16 12:42:17.00	204.11	18.05	-60.0	-77.4	3.8	7.44e-01	0	48	104	0	90	28388
2026-01-16 12:42:18.01	204.26	18.17	-60.0	-77.4	3.8	7.45e-01	0	48	104	0	90	28357
2026-01-16 12:42:19.02	204.41	18.28	-60.0	-77.4	3.8	7.44e-01	0	48	104	0	90	28365
2026-01-16 12:42:20.03	204.57	18.40	-60.0	-77.3	3.8	7.47e-01	0	48	104	0	90	28342
2026-01-16 12:42:21.04	204.72	18.51	-60.0	-77.3	3.8	7.48e-01	0	48	104	0	90	28329
2026-01-16 12:42:22.05	204.88	18.63	-60.0	-77.4	3.8	7.48e-01	0	48	104	0	90	28409
2026-01-16 12:42:23.06	205.04	18.75	-60.0	-77.4	3.8	7.51e-01	0	48	104	0	90	28423
2026-01-16 12:42:24.07	205.19	18.86	-60.0	-77.4	3.8	7.44e-01	0	48	104	0	90	28430
2026-01-16 12:42:25.08	205.35	18.98	-60.0	-77.4	3.8	7.44e-01	0	48	104	0	90	28432
2026-01-16 12:42:26.09	205.52	19.10	-60.0	-77.4	3.8	7.43e-01	0	48	104	0	90	28476
2026-01-16 12:42:27.10	205.68	19.22	-60.0	-77.4	3.8	7.46e-01	0	48	104	0	90	28377
2026-01-16 12:42:28.10	205.84	19.33	-60.0	-77.4	3.8	7.47e-01	0	48	104	0	90	28418
2026-01-16 12:42:29.11	206.01	19.45	-60.0	-77.4	3.8	7.46e-01	0	48	104	0	90	28438
2026-01-16 12:42:30.12	206.17	19.57	-60.0	-77.4	3.8	7.43e-01	0	48	104	0	90	28450
2026-01-16 12:42:31.13	206.34	19.69	-60.0	-77.4	3.8	7.46e-01	0	48	104	0	90	28442
2026-01-16 12:42:32.14	206.51	19.81	-60.0	-77.4	3.8	7.45e-01	0	48	104	0	90	28383
2026-01-16 12:42:33.15	206.68	19.93	-60.0	-77.3	3.8	7.43e-01	0	48	104	0	90	28342
2026-01-16 12:42:34.16	206.85	20.05	-60.0	-77.4	3.8	7.48e-01	0	48	104	0	90	28364
2026-01-16 12:42:35.17	207.03	20.17	-60.0	-77.4	3.8	7.44e-01	0	48	104	0	90	28454
2026-01-16 12:42:36.18	207.20	20.30	-60.0	-77.4	3.8	7.45e-01	0	48	104	0	90	28366
2026-01-16 12:42:37.18	207.38	20.42	-60.0	-77.4	3.8	7.44e-01	0	48	104	0	90	28416
2026-01-16 12:42:38.19	207.56	20.54	-60.0	-77.4	3.8	7.45e-01	0	48	104	0	90	28426
2026-01-16 12:42:39.20	207.73	20.66	-60.0	-77.4	3.8	7.47e-01	0	48	104	0	90	28443
2026-01-16 12:42:40.21	207.92	20.79	-60.0	-77.4	3.8	7.46e-01	0	48	104	0	90	28394
2026-01-16 12:42:41.21	208.10	20.91	-60.0	-77.4	3.8	7.46e-01	0	48	104	0	90	28440
2026-01-16 12:42:42.22	208.28	21.03	-60.0	-77.4	3.8	7.45e-01	0	48	104	0	90	28399
2026-01-16 12:42:43.24	208.47	21.16	-60.0	-77.4	3.8	7.44e-01	0	48	104	0	90	28423
2026-01-16 12:42:44.24	208.65	21.28	-60.0	-77.4	3.8	7.47e-01	0	48	104	0	90	28426
2026-01-16 12:42:45.25	208.84	21.41	-60.0	-77.4	3.8	7.45e-01	0	48	104	0	90	28439
2026-01-16 12:42:46.26	209.03	21.53	-60.0	-77.4	3.8	7.46e-01	0	48	104	0	90	28477
2026-01-16 12:42:47.27	209.22	21.66	-60.0	-77.4	3.8	7.45e-01	0	48	104	0	90	28482
2026-01-16 12:42:48.28	209.41	21.78	-60.0	-77.4	3.8	7.47e-01	0	48	104	0	90	28486
2026-01-16 12:42:49.28	209.61	21.91	-60.0	-77.4	3.8	7.44e-01	0	48	104	0	90	28456
2026-01-16 12:42:50.29	209.80	22.04	-60.0	-77.4	3.8	7.44e-01	0	48	104	0	90	28406
2026-01-16 12:42:51.30	210.00	22.16	-60.0	-77.4	3.8	7.45e-01	0	48	104	0	90	28482
2026-01-16 12:42:52.31	210.20	22.29	-60.0	-77.4	3.8	7.45e-01	0	48	104	0	90	28449
2026-01-16 12:42:53.32	210.40	22.42	-60.0	-77.4	3.8	7.47e-01	0	48	104	0	90	28487
2026-01-16 12:42:54.33	210.61	22.55	-60.0	-77.4	3.8	7.49e-01	0	48	104	0	90	28404
2026-01-16 12:42:55.33	210.81	22.68	-60.0	-77.4	3.8	7.44e-01	0	48	104	0	90	28458
2026-01-16 12:42:56.34	211.01	22.81	-60.0	-77.4	3.8	7.47e-01	0	48	104	0	90	28465
2026-01-16 12:42:57.35	211.22	22.94	-60.0	-77.4	3.8	7.46e-01	0	48	104	0	90	28408
2026-01-16 12:42:58.36	211.43	23.07	-60.0	-77.4	3.8	7.44e-01	0	48	104	0	90	28502
2026-01-16 12:42:59.37	211.64	23.20	-60.0	-77.4	3.8	7.49e-01	0	49	104	0	90	28470
2026-01-16 12:43:00.38	211.86	23.33	-60.0	-77.4	3.8	7.45e-01	0	48	104	0	90	28508
2026-01-16 12:43:01.38	212.07	23.46	-60.0	-77.4	3.8	7.45e-01	0	48	104	0	90	28484
2026-01-16 12:43:02.40	212.29	23.59	-60.0	-77.4	3.8	7.47e-01	0	48	104	0	90	28481
2026-01-16 12:43:03.40	212.51	23.72	-60.0	-77.4	3.8	7.47e-01	0	49	104	0	90	28471
2026-01-16 12:43:04.41	212.73	23.85	-60.0	-77.4	3.8	7.48e-01	0	48	104	0	90	28491
2026-01-16 12:43:05.42	212.95	23.98	-60.0	-77.4	3.8	7.46e-01	0	48	104	0	90	28475
2026-01-16 12:43:06.43	213.18	24.12	-60.0	-77.4	3.8	7.43e-01	0	48	104	0	90	28413
2026-01-16 12:43:07.44	213.40	24.25	-60.0	-77.4	3.8	7.42e-01	0	48	104	0	90	28460
2026-01-16 12:43:08.45	213.63	24.38	-60.0	-77.4	3.8	7.44e-01	0	49	104	0	90	28511
2026-01-16 12:43:09.46	213.86	24.51	-60.0	-77.4	3.8	7.47e-01	0	48	104	0	90	28419
2026-01-16 12:43:10.46	214.09	24.65	-60.0	-77.4	3.8	7.46e-01	0	48	104	0	90	28463
2026-01-16 12:43:11.47	214.33	24.78	-60.0	-77.4	3.8	7.44e-01	0	48	104	0	90	28433
2026-01-16 12:43:12.48	214.56	24.91	-60.0	-77.4	3.8	7.47e-01	0	48	104	0	90	28409
2026-01-16 12:43:13.49	214.80	25.05	-60.0	-77.4	3.8	7.46e-01	0	48	104	0	90	28376
2026-01-16 12:43:14.50	215.04	25.18	-60.0	-77.4	3.8	7.47e-01	0	48	104	0	90	28481
2026-01-16 12:43:15.51	215.29	25.32	-60.0	-77.4	3.8	7.44e-01	0	48	104	0	90	28452
2026-01-16 12:43:16.52	215.53	25.45	-60.0	-77.4	3.8	7.43e-01	0	48	104	0	90	28478
2026-01-16 12:43:17.52	215.78	25.59	-60.0	-77.4	3.8	7.43e-01	0	48	104	0	90	28494
2026-01-16 12:43:18.53	216.03	25.72	-60.0	-77.4	3.8	7.45e-01	0	48	104	0	90	28468
2026-01-16 12:43:19.54	216.28	25.86	-60.0	-77.4	3.8	7.46e-01	0	48	104	0	90	28451
2026-01-16 12:43:20.55	216.53	25.99	-60.0	-77.4	3.8	7.47e-01	0	48	104	0	90	28438
2026-01-16 12:43:21.56	216.79	26.13	-60.0	-77.4	3.8	7.48e-01	0	48	104	0	90	28435
2026-01-16 12:43:22.56	217.04	26.26	-60.0	-77.4	3.8	7.46e-01	0	48	104	0	90	28408
2026-01-16 12:43:23.57	217.30	26.40	-60.0	-77.4	3.8	7.50e-01	0	48	104	0	90	28453
2026-01-16 12:43:24.58	217.57	26.54	-60.0	-77.4	3.8	7.47e-01	0	49	104	0	90	28522
2026-01-16 12:43:25.59	217.83	26.67	-60.0	-77.4	3.8	7.45e-01	0	48	104	0	90	28474
2026-01-16 12:43:26.60	218.10	26.81	-60.0	-77.4	3.8	7.45e-01	0	49	104	0	90	28472
2026-01-16 12:43:27.60	218.37	26.95	-60.0	-77.4	3.8	7.50e-01	0	49	104	0	90	28476
2026-01-16 12:43:28.61	218.64	27.08	-60.0	-77.4	3.8	7.47e-01	0	49	104	0	90	28491
2026-01-16 12:43:29.62	218.91	27.22	-60.0	-77.4	3.8	7.42e-01	0	49	104	0	90	28431
2026-01-16 12:43:30.63	219.19	27.36	-60.0	-77.4	3.8	7.45e-01	0	49	104	0	90	28523
2026-01-16 12:43:31.64	219.47	27.49	-60.0	-77.4	3.8	7.45e-01	0	49	104	0	90	28486
2026-01-16 12:43:32.64	219.75	27.63	-60.0	-77.4	3.8	7.45e-01	0	49	104	0	90	28508
2026-01-16 12:43:33.65	220.03	27.77	-60.1	-77.4	3.8	7.46e-01	0	49	104	0	90	28466
2026-01-16 12:43:34.66	220.32	27.90	-60.0	-77.4	3.8	7.44e-01	0	49	104	0	90	28419
2026-01-16 12:43:35.67	220.61	28.04	-60.0	-77.4	3.8	7.49e-01	0	48	104	0	90	28503
2026-01-16 12:43:36.68	220.90	28.18	-60.0	-77.4	3.8	7.46e-01	0	49	104	0	90	28445
2026-01-16 12:43:37.69	221.19	28.31	-60.1	-77.4	3.8	7.45e-01	0	49	104	0	90	28474
2026-01-16 12:43:38.70	221.49	28.45	-60.0	-77.4	3.8	7.46e-01	0	49	104	0	90	28428
2026-01-16 12:43:39.70	221.79	28.59	-60.0	-77.4	3.8	7.48e-01	0	49	104	0	90	28518
2026-01-16 12:43:40.71	222.09	28.72	-60.0	-77.4	3.8	7.49e-01	0	49	104	0	90	28465
2026-01-16 12:43:41.72	222.39	28.86	-60.0	-77.4	3.8	7.46e-01	0	49	104	0	90	28493
2026-01-16 12:43:42.73	222.70	29.00	-60.1	-77.4	3.8	7.45e-01	0	49	104	0	90	28432
2026-01-16 12:43:43.73	223.01	29.13	-60.0	-77.4	3.8	7.46e-01	0	49	104	0	90	28478
2026-01-16 12:43:44.74	223.32	29.27	-60.1	-77.4	3.8	7.46e-01	0	49	104	0	90	28471
2026-01-16 12:43:45.75	223.64	29.40	-60.0	-77.4	3.8	7.48e-01	0	49	104	0	90	28481
2026-01-16 12:43:46.76	223.95	29.54	-60.0	-77.4	3.8	7.46e-01	0	49	104	0	90	28480
2026-01-16 12:43:47.77	224.27	29.68	-60.0	-77.4	3.8	7.46e-01	0	49	104	0	90	28495
2026-01-16 12:43:48.78	224.60	29.81	-60.0	-77.4	3.8	7.45e-01	0	49	104	0	90	28469
2026-01-16 12:43:49.79	224.92	29.95	-60.0	-77.4	3.8	7.47e-01	0	49	104	0	90	28495
2026-01-16 12:43:50.80	225.25	30.08	-60.0	-77.4	3.8	7.47e-01	0	49	104	0	90	28461
2026-01-16 12:43:51.80	225.58	30.21	-60.0	-77.4	3.8	7.47e-01	0	49	104	0	90	28460
2026-01-16 12:43:52.81	225.92	30.35	-60.1	-77.4	3.8	7.42e-01	0	49	104	0	90	28503
2026-01-16 12:43:53.82	226.25	30.48	-60.0	-77.4	3.8	7.47e-01	0	49	104	0	90	28450
2026-01-16 12:43:54.83	226.59	30.62	-60.1	-77.4	3.8	7.48e-01	0	49	104	0	90	28499
2026-01-16 12:43:55.84	226.94	30.75	-60.0	-77.4	3.8	7.44e-01	0	49	104	0	90	28477
2026-01-16 12:43:56.85	227.28	30.88	-60.0	-77.4	3.8	7.43e-01	0	49	104	0	90	28531
2026-01-16 12:43:57.85	227.63	31.01	-60.0	-77.4	3.8	7.47e-01	0	49	104	0	90	28454
2026-01-16 12:43:58.86	227.98	31.14	-60.0	-77.4	3.8	7.48e-01	0	49	104	0	90	28511
2026-01-16 12:43:59.87	228.33	31.27	-60.0	-77.4	3.8	7.44e-01	0	49	104	0	90	28412
2026-01-16 12:44:00.88	228.69	31.40	-60.0	-77.4	3.8	7.48e-01	0	49	104	0	90	28532
2026-01-16 12:44:01.89	229.05	31.53	-60.0	-77.4	3.8	7.44e-01	0	49	104	0	90	28426
2026-01-16 12:44:02.90	229.42	31.66	-60.1	-77.4	3.8	7.48e-01	0	49	104	0	90	28495
2026-01-16 12:44:03.91	229.78	31.79	-60.0	-77.4	3.8	7.45e-01	0	49	104	0	90	28518
2026-01-16 12:44:04.92	230.15	31.92	-60.0	-77.4	3.8	7.44e-01	0	49	104	0	90	28500
2026-01-16 12:44:05.93	230.52	32.05	-60.0	-77.4	3.8	7.43e-01	0	49	104	0	90	28516
2026-01-16 12:44:06.94	230.90	32.17	-60.0	-77.4	3.8	7.43e-01	0	49	104	0	90	28491
2026-01-16 12:44:07.94	231.27	32.30	-60.0	-77.4	3.8	7.47e-01	0	49	104	0	90	28483
2026-01-16 12:44:08.95	231.65	32.42	-60.0	-77.4	3.8	7.46e-01	0	49	104	0	90	28429
2026-01-16 12:44:09.96	232.04	32.55	-60.0	-77.4	3.8	7.43e-01	0	49	104	0	90	28444
2026-01-16 12:44:10.97	232.42	32.67	-60.0	-77.4	3.8	7.50e-01	0	49	104	0	90	28514
2026-01-16 12:44:11.98	232.81	32.79	-60.0	-77.4	3.8	7.45e-01	0	49	104	0	90	28462
2026-01-16 12:44:12.99	233.21	32.92	-60.0	-77.4	3.8	7.46e-01	0	49	104	0	90	28470
2026-01-16 12:44:13.99	233.60	33.04	-60.1	-77.4	3.8	7.45e-01	0	49	104	0	90	28536
2026-01-16 12:44:15.00	234.00	33.16	-60.0	-77.4	3.8	7.43e-01	0	49	104	0	90	28482
2026-01-16 12:44:16.01	234.40	33.27	-60.1	-77.4	3.8	7.47e-01	0	49	104	0	90	28554
2026-01-16 12:44:17.02	234.80	33.39	-60.0	-77.4	3.8	7.45e-01	0	49	104	0	90	28497
2026-01-16 12:44:18.03	235.21	33.51	-60.0	-77.4	3.8	7.42e-01	0	49	104	0	90	28446
2026-01-16 12:44:19.04	235.62	33.62	-60.0	-77.4	3.8	7.41e-01	0	49	104	0	90	28489
2026-01-16 12:44:20.05	236.04	33.74	-60.0	-77.4	3.8	7.45e-01	0	49	104	0	90	28535
2026-01-16 12:44:21.06	236.45	33.85	-60.1	-77.4	3.8	7.43e-01	0	49	104	0	90	28533
2026-01-16 12:44:22.07	236.87	33.96	-60.0	-77.4	3.8	7.41e-01	0	49	104	0	90	28529
2026-01-16 12:44:23.08	237.29	34.08	-60.0	-77.4	3.8	7.45e-01	0	49	104	0	90	28493
2026-01-16 12:44:24.08	237.72	34.18	-60.0	-77.4	3.8	7.46e-01	0	49	104	0	90	28497
2026-01-16 12:44:25.09	238.14	34.29	-60.1	-77.4	3.8	7.44e-01	0	49	104	0	90	28420
2026-01-16 12:44:26.10	238.57	34.40	-60.1	-77.4	3.8	7.44e-01	0	49	104	0	90	28494
2026-01-16 12:44:27.11	239.01	34.50	-60.1	-77.4	3.8	7.47e-01	0	49	104	0	90	28442
2026-01-16 12:44:28.12	239.44	34.61	-60.1	-77.4	3.8	7.47e-01	0	49	104	0	90	28433
2026-01-16 12:44:29.13	239.88	34.71	-60.0	-77.4	3.8	7.44e-01	0	49	104	0	90	28482
2026-01-16 12:44:30.14	240.33	34.81	-60.0	-77.4	3.8	7.43e-01	0	49	104	0	90	28462
2026-01-16 12:44:31.15	240.77	34.91	-60.1	-77.4	3.8	7.45e-01	0	49	104	0	90	28490
2026-01-16 12:44:32.16	241.22	35.01	-60.0	-77.4	3.8	7.47e-01	0	49	104	0	90	28533
2026-01-16 12:44:33.17	241.67	35.11	-60.1	-77.4	3.8	7.46e-01	0	49	104	0	90	28509
2026-01-16 12:44:34.17	242.12	35.20	-60.1	-77.4	3.8	7.49e-01	0	49	104	0	90	28502
2026-01-16 12:44:35.18	242.57	35.30	-60.1	-77.4	3.8	7.48e-01	0	49	104	0	90	28532
2026-01-16 12:44:36.19	243.03	35.39	-60.1	-77.4	3.8	7.46e-01	0	49	104	0	90	28516
2026-01-16 12:44:37.20	243.49	35.48	-60.0	-77.4	3.8	7.46e-01	0	49	104	0	90	28517
2026-01-16 12:44:38.21	243.96	35.57	-60.0	-77.4	3.8	7.43e-01	0	49	104	0	90	28535
2026-01-16 12:44:39.22	244.42	35.65	-60.1	-77.4	3.8	7.43e-01	0	49	104	0	90	28430
2026-01-16 12:44:40.23	244.89	35.74	-60.0	-77.4	3.8	7.46e-01	0	49	104	0	90	28491
2026-01-16 12:44:41.24	245.36	35.82	-60.0	-77.4	3.8	7.45e-01	0	49	104	0	90	28468
2026-01-16 12:44:42.24	245.83	35.90	-60.1	-77.4	3.8	7.41e-01	0	49	104	0	90	28564
2026-01-16 12:44:43.25	246.31	35.98	-60.1	-77.4	3.8	7.49e-01	0	49	104	0	90	28491
2026-01-16 12:44:44.26	246.78	36.06	-60.1	-77.4	3.8	7.44e-01	0	49	104	0	90	28569
2026-01-16 12:44:45.27	247.26	36.13	-60.0	-77.4	3.8	7.44e-01	0	49	104	0	90	28541
2026-01-16 12:44:46.28	247.75	36.20	-60.1	-77.4	3.8	7.45e-01	0	49	104	0	90	28498
2026-01-16 12:44:47.28	248.23	36.28	-60.1	-77.4	3.8	7.45e-01	0	49	104	0	90	28470
2026-01-16 12:44:48.29	248.71	36.34	-60.1	-77.4	3.8	7.44e-01	0	49	104	0	90	28504
2026-01-16 12:44:49.30	249.20	36.41	-60.1	-77.4	3.8	7.43e-01	0	49	104	0	90	28483
2026-01-16 12:44:50.31	249.69	36.48	-60.0	-77.4	3.8	7.48e-01	0	49	104	0	90	28515
2026-01-16 12:44:51.32	250.18	36.54	-60.1	-77.4	3.8	7.47e-01	0	49	104	0	90	28467
2026-01-16 12:44:52.33	250.68	36.60	-60.1	-77.4	3.8	7.45e-01	0	49	104	0	90	28509
2026-01-16 12:44:53.33	251.17	36.66	-60.1	-77.4	3.8	7.45e-01	0	49	104	0	90	28507
2026-01-16 12:44:54.34	251.67	36.71	-60.0	-77.4	3.8	7.44e-01	0	49	104	0	90	28524
2026-01-16 12:44:55.35	252.17	36.77	-60.1	-77.4	3.8	7.45e-01	0	49	104	0	90	28493
2026-01-16 12:44:56.36	252.67	36.82	-60.1	-77.4	3.8	7.49e-01	0	49	104	0	90	28506
2026-01-16 12:44:57.37	253.17	36.87	-60.1	-77.4	3.8	7.45e-01	0	49	104	0	90	28508
2026-01-16 12:44:58.38	253.68	36.92	-60.1	-77.4	3.8	7.49e-01	0	49	104	0	90	28557
2026-01-16 12:44:59.39	254.18	36.96	-60.1	-77.4	3.8	7.46e-01	0	49	104	0	90	28458
2026-01-16 12:45:00.40	254.69	37.00	-60.1	-77.4	3.8	7.45e-01	0	49	104	0	90	28492
2026-01-16 12:45:01.41	255.20	37.04	-60.1	-77.4	3.8	7.47e-01	0	49	104	0	90	28509
2026-01-16 12:45:02.41	255.70	37.08	-60.1	-77.4	3.8	7.47e-01	0	49	104	0	90	28477
2026-01-16 12:45:03.42	256.21	37.11	-60.1	-77.4	3.8	7.48e-01	0	49	104	0	90	28510
2026-01-16 12:45:04.43	256.72	37.15	-60.1	-77.4	3.8	7.45e-01	0	49	104	0	90	28483
2026-01-16 12:45:05.44	257.24	37.18	-60.1	-77.4	3.8	7.44e-01	0	49	104	0	90	28480
2026-01-16 12:45:06.45	257.75	37.20	-60.1	-77.4	3.8	7.45e-01	0	49	104	0	90	28468
2026-01-16 12:45:07.46	258.26	37.23	-60.1	-77.4	3.8	7.45e-01	0	49	104	0	90	28508
2026-01-16 12:45:08.46	258.77	37.25	-60.0	-77.4	3.8	7.46e-01	0	49	104	0	90	28491
2026-01-16 12:45:09.47	259.29	37.27	-60.1	-77.4	3.8	7.45e-01	0	49	104	0	90	28431
2026-01-16 12:45:10.48	259.81	37.29	-60.1	-77.4	3.8	7.44e-01	0	49	104	0	90	28468
2026-01-16 12:45:11.49	260.32	37.31	-60.1	-77.4	3.8	7.41e-01	0	49	104	0	90	28538
2026-01-16 12:45:12.50	260.84	37.32	-60.1	-77.4	3.8	7.47e-01	0	49	104	0	90	28484
2026-01-16 12:45:13.51	261.36	37.33	-60.1	-77.4	3.8	7.49e-01	0	49	104	0	90	28477
2026-01-16 12:45:14.52	261.88	37.34	-60.1	-77.4	3.8	7.44e-01	0	49	104	0	90	28551
2026-01-16 12:45:15.53	262.40	37.34	-60.0	-77.4	3.8	7.43e-01	0	49	104	0	90	28561
2026-01-16 12:45:16.54	262.91	37.34	-60.0	-77.4	3.8	7.45e-01	0	49	104	0	90	28545
2026-01-16 12:45:17.55	263.43	37.34	-60.1	-77.4	3.8	7.46e-01	0	49	104	0	90	28551
2026-01-16 12:45:18.56	263.95	37.34	-60.1	-77.4	3.8	7.44e-01	0	49	104	0	90	28515
2026-01-16 12:45:19.57	264.47	37.34	-60.0	-77.4	3.8	7.46e-01	0	49	104	0	90	28494
2026-01-16 12:45:20.57	264.98	37.33	-60.1	-77.4	3.8	7.44e-01	0	49	104	0	90	28483
2026-01-16 12:45:21.58	265.50	37.32	-60.1	-77.4	3.8	7.43e-01	0	49	104	0	90	28554
2026-01-16 12:45:22.59	266.02	37.31	-60.1	-77.4	3.8	7.45e-01	0	49	104	0	90	28537
2026-01-16 12:45:23.60	266.53	37.29	-60.1	-77.4	3.8	7.45e-01	0	49	104	0	90	28503
2026-01-16 12:45:24.61	267.05	37.27	-60.1	-77.4	3.8	7.46e-01	0	49	104	0	90	28524
2026-01-16 12:45:25.62	267.57	37.25	-60.1	-77.4	3.8	7.44e-01	0	49	104	0	90	28490
2026-01-16 12:45:26.62	268.08	37.23	-60.1	-77.4	3.8	7.44e-01	0	49	104	0	90	28484
2026-01-16 12:45:27.63	268.59	37.21	-60.1	-77.4	3.8	7.45e-01	0	49	104	0	90	28486
2026-01-16 12:45:28.64	269.10	37.18	-60.1	-77.4	3.8	7.43e-01	0	49	104	0	90	28504
2026-01-16 12:45:29.65	269.62	37.15	-60.1	-77.4	3.8	7.44e-01	0	49	104	0	90	28546
2026-01-16 12:45:30.66	270.13	37.12	-60.1	-77.4	3.8	7.47e-01	0	49	104	0	90	28547
2026-01-16 12:45:31.66	270.63	37.08	-60.1	-77.4	3.8	7.46e-01	0	49	104	0	90	28595
2026-01-16 12:45:32.67	271.14	37.04	-60.1	-77.4	3.8	7.47e-01	0	50	104	0	90	28504
2026-01-16 12:45:33.68	271.65	37.00	-60.1	-77.4	3.8	7.44e-01	0	49	104	0	90	28529
2026-01-16 12:45:34.69	272.16	36.96	-60.1	-77.4	3.8	7.45e-01	0	49	104	0	90	28552
2026-01-16 12:45:35.69	272.66	36.92	-60.1	-77.4	3.8	7.46e-01	0	49	104	0	90	28544
2026-01-16 12:45:36.70	273.16	36.87	-60.1	-77.4	3.8	7.44e-01	0	49	104	0	90	28509
2026-01-16 12:45:37.71	273.66	36.82	-60.1	-77.4	3.8	7.50e-01	0	49	104	0	90	28514
2026-01-16 12:45:38.72	274.16	36.77	-60.1	-77.4	3.8	7.43e-01	0	49	104	0	90	28574
2026-01-16 12:45:39.73	274.66	36.72	-60.1	-77.4	3.8	7.46e-01	0	49	104	0	90	28544
2026-01-16 12:45:40.74	275.16	36.66	-60.1	-77.4	3.8	7.47e-01	0	49	104	0	90	28464
2026-01-16 12:45:41.74	275.65	36.60	-60.1	-77.4	3.8	7.46e-01	0	49	104	0	90	28503
2026-01-16 12:45:42.75	276.15	36.54	-60.1	-77.4	3.8	7.46e-01	0	49	104	0	90	28592
2026-01-16 12:45:43.76	276.64	36.48	-60.1	-77.4	3.8	7.45e-01	0	50	104	0	90	28549
2026-01-16 12:45:44.77	277.13	36.42	-60.1	-77.4	3.8	7.46e-01	0	49	104	0	90	28495
2026-01-16 12:45:45.78	277.62	36.35	-60.1	-77.4	3.8	7.48e-01	0	49	104	0	90	28463
2026-01-16 12:45:46.79	278.10	36.28	-60.1	-77.4	3.8	7.45e-01	0	49	104	0	90	28527
2026-01-16 12:45:47.79	278.58	36.21	-60.1	-77.4	3.8	7.44e-01	0	49	104	0	90	28507
2026-01-16 12:45:48.80	279.06	36.14	-60.1	-77.4	3.8	7.44e-01	0	49	104	0	90	28517
2026-01-16 12:45:49.81	279.54	36.06	-60.1	-77.4	3.8	7.48e-01	0	49	104	0	90	28490
2026-01-16 12:45:50.81	280.01	35.99	-60.1	-77.4	3.8	7.44e-01	0	49	104	0	90	28529
2026-01-16 12:45:51.82	280.49	35.91	-60.1	-77.4	3.8	7.46e-01	0	49	104	0	90	28478
2026-01-16 12:45:52.83	280.96	35.83	-60.1	-77.4	3.8	7.44e-01	0	49	104	0	90	28482
2026-01-16 12:45:53.84	281.43	35.74	-60.1	-77.4	3.8	7.42e-01	0	49	104	0	90	28486
2026-01-16 12:45:54.85	281.90	35.66	-60.1	-77.4	3.8	7.46e-01	0	49	104	0	90	28488
2026-01-16 12:45:55.86	282.36	35.57	-60.1	-77.4	3.8	7.45e-01	0	49	104	0	90	28441
2026-01-16 12:45:56.87	282.83	35.49	-60.1	-77.4	3.8	7.46e-01	0	49	104	0	90	28398
2026-01-16 12:45:57.88	283.29	35.40	-60.1	-77.4	3.8	7.45e-01	0	49	104	0	90	28464
2026-01-16 12:45:58.89	283.75	35.31	-60.0	-77.4	3.8	7.46e-01	0	49	104	0	90	28462
2026-01-16 12:45:59.90	284.20	35.21	-60.1	-77.4	3.8	7.45e-01	0	49	104	0	90	28508
2026-01-16 12:46:00.91	284.65	35.12	-60.1	-77.4	3.8	7.44e-01	0	49	104	0	90	28484
2026-01-16 12:46:01.92	285.10	35.02	-60.1	-77.4	3.8	7.48e-01	0	50	104	0	90	28526
2026-01-16 12:46:02.92	285.54	34.92	-60.1	-77.4	3.8	7.46e-01	0	49	104	0	90	28530
2026-01-16 12:46:03.93	285.99	34.82	-60.1	-77.4	3.8	7.43e-01	0	49	104	0	90	28483
2026-01-16 12:46:04.94	286.43	34.72	-60.1	-77.4	3.8	7.46e-01	0	49	104	0	90	28561
2026-01-16 12:46:05.95	286.87	34.62	-60.1	-77.4	3.8	7.41e-01	0	49	104	0	90	28521
2026-01-16 12:46:06.96	287.30	34.52	-60.1	-77.4	3.8	7.48e-01	0	49	104	0	90	28530
2026-01-16 12:46:07.96	287.73	34.41	-60.1	-77.4	3.8	7.44e-01	0	49	104	0	90	28534
2026-01-16 12:46:08.97	288.16	34.31	-60.1	-77.4	3.8	7.47e-01	0	50	104	0	90	28518
2026-01-16 12:46:09.98	288.59	34.20	-60.1	-77.4	3.8	7.46e-01	0	50	104	0	90	28525
2026-01-16 12:46:10.99	289.02	34.09	-60.1	-77.4	3.8	7.48e-01	0	49	104	0	90	28494
2026-01-16 12:46:12.00	289.44	33.98	-60.1	-77.4	3.8	7.48e-01	0	49	104	0	90	28480
2026-01-16 12:46:13.01	289.86	33.87	-60.1	-77.4	3.8	7.44e-01	0	49	104	0	90	28563
2026-01-16 12:46:14.01	290.27	33.76	-60.1	-77.4	3.8	7.44e-01	0	49	104	0	90	28522
2026-01-16 12:46:15.03	290.68	33.64	-60.1	-77.4	3.8	7.48e-01	0	49	104	0	90	28554
2026-01-16 12:46:16.04	291.09	33.53	-60.1	-77.4	3.8	7.43e-01	0	49	104	0	90	28513
2026-01-16 12:46:17.04	291.50	33.41	-60.1	-77.4	3.8	7.43e-01	0	50	104	0	90	28569
2026-01-16 12:46:18.05	291.90	33.29	-60.1	-77.4	3.8	7.46e-01	0	50	104	0	90	28598
2026-01-16 12:46:19.06	292.30	33.18	-60.1	-77.4	3.8	7.44e-01	0	50	104	0	90	28523
2026-01-16 12:46:20.07	292.70	33.06	-60.1	-77.4	3.8	7.44e-01	0	49	104	0	90	28469
2026-01-16 12:46:21.08	293.09	32.94	-60.1	-77.4	3.8	7.46e-01	0	50	104	0	90	28373
2026-01-16 12:46:22.09	293.49	32.82	-60.1	-77.4	3.8	7.44e-01	0	50	104	0	90	28486
2026-01-16 12:46:23.10	293.88	32.69	-60.1	-77.4	3.8	7.44e-01	0	49	104	0	90	28497
2026-01-16 12:46:24.11	294.26	32.57	-60.1	-77.4	3.8	7.46e-01	0	49	104	0	90	28521
2026-01-16 12:46:25.11	294.64	32.45	-60.1	-77.4	3.8	7.47e-01	0	50	104	0	90	28485
2026-01-16 12:46:26.12	295.02	32.32	-60.1	-77.4	3.8	7.44e-01	0	49	104	0	90	28514
2026-01-16 12:46:27.13	295.40	32.20	-60.1	-77.4	3.8	7.46e-01	0	50	104	0	90	28551
2026-01-16 12:46:28.14	295.77	32.07	-60.1	-77.4	3.8	7.44e-01	0	49	104	0	90	28464
2026-01-16 12:46:29.15	296.14	31.95	-60.1	-77.4	3.8	7.46e-01	0	50	104	0	90	28470
2026-01-16 12:46:30.16	296.51	31.82	-60.1	-77.4	3.8	7.42e-01	0	50	104	0	90	28524
2026-01-16 12:46:30.95	296.80	31.72	-60.1	-77.4	3.8	7.40e-01	0	50	104	0	90	28504
2026-01-16 12:46:32.11	297.22	31.57	-60.1	-77.4	3.8	7.45e-01	0	50	104	0	90	28480
2026-01-16 12:46:32.98	297.53	31.46	-60.1	-77.5	3.8	7.44e-01	0	49	104	0	90	28759
2026-01-16 12:46:34.13	297.93	31.31	-60.3	-77.6	3.8	7.44e-01	0	50	104	0	91	27623
2026-01-16 12:46:35.00	298.24	31.20	-60.3	-77.7	3.8	7.49e-01	0	49	104	0	91	27752
2026-01-16 12:46:36.15	298.64	31.05	-60.4	-77.8	3.8	7.47e-01	0	49	104	0	91	28152
2026-01-16 12:46:37.02	298.94	30.94	-60.5	-77.8	3.8	7.45e-01	0	50	104	0	91	28203
2026-01-16 12:46:38.17	299.33	30.79	-60.5	-77.8	3.8	7.46e-01	0	49	104	0	91	28253
2026-01-16 12:46:39.04	299.63	30.67	-60.5	-77.8	3.8	7.45e-01	0	49	104	0	91	28243
2026-01-16 12:46:40.19	300.01	30.52	-60.5	-77.9	3.8	7.48e-01	0	49	104	0	91	28438
2026-01-16 12:46:41.05	300.30	30.41	-60.5	-77.9	3.8	7.45e-01	0	50	104	0	91	28487
2026-01-16 12:46:42.20	300.68	30.26	-60.6	-77.8	3.8	7.49e-01	0	50	104	0	91	28325
2026-01-16 12:46:43.07	300.97	30.14	-60.6	-77.8	3.8	7.45e-01	0	49	104	0	91	28111
2026-01-16 12:46:44.22	301.34	29.99	-60.6	-77.9	3.8	7.46e-01	0	50	104	0	91	28540
2026-01-16 12:46:45.08	301.62	29.88	-60.6	-77.9	3.8	7.44e-01	0	49	104	0	91	28472
2026-01-16 12:46:46.24	301.99	29.72	-60.5	-77.8	3.8	7.43e-01	0	49	104	0	91	28288
2026-01-16 12:46:47.10	302.26	29.61	-60.5	-77.9	3.8	7.44e-01	0	49	104	0	91	28386
2026-01-16 12:46:48.26	302.63	29.45	-60.5	-77.8	3.8	7.47e-01	0	49	104	0	91	28177
2026-01-16 12:46:49.12	302.89	29.34	-60.5	-77.7	3.8	7.46e-01	0	50	104	0	91	27877
2026-01-16 12:46:50.28	303.25	29.18	-60.5	-77.5	3.8	7.43e-01	0	50	104	0	91	27304
2026-01-16 12:46:51.14	303.52	29.06	-60.5	-77.3	3.8	7.43e-01	0	49	104	0	91	26621
2026-01-16 12:46:52.29	303.87	28.91	-60.4	-76.4	3.9	7.43e-01	0	50	104	0	91	24070
2026-01-16 12:46:53.16	304.13	28.79	-57.8	-61.3	8.1	6.05e-01	0	50	104	0	87	5308
2026-01-16 12:46:54.31	304.47	28.64	-51.9	-52.8	23.5	6.04e-01	0	50	0	1572864	75	3976
2026-01-16 12:46:55.17	304.73	28.52	-54.3	-55.7	21.1	6.03e-01	0	50	0	3145728	80	4193
2026-01-16 12:46:56.32	305.06	28.37	-56.0	-58.2	18.3	6.02e-01	0	49	0	5242880	84	4403
2026-01-16 12:46:57.19	305.32	28.25	-50.1	-50.8	25.7	6.02e-01	0	50	0	6815744	71	3993
2026-01-16 12:46:58.34	305.65	28.09	-52.3	-53.3	22.6	6.04e-01	0	49	0	8912896	76	3978
2026-01-16 12:46:59.21	305.90	27.98	-52.9	-54.0	22.6	6.04e-01	0	49	0	10485760	76	4335
2026-01-16 12:47:00.36	306.22	27.82	-49.8	-50.6	26.0	6.04e-01	0	49	0	12582912	71	3869
2026-01-16 12:47:01.23	306.47	27.70	-49.8	-50.5	26.0	6.02e-01	0	49	0	14155776	71	3859
2026-01-16 12:47:02.38	306.79	27.55	-49.9	-50.6	25.9	6.03e-01	0	49	0	16252928	71	3898
2026-01-16 12:47:03.24	307.03	27.43	-49.9	-50.6	25.9	6.03e-01	0	49	0	18350080	71	3898
2026-01-16 12:47:04.40	307.34	27.28	-50.0	-50.7	25.8	6.03e-01	0	49	0	20447232	71	3927
2026-01-16 12:47:05.26	307.58	27.16	-50.0	-50.8	25.7	6.02e-01	0	49	0	22020096	71	3971
2026-01-16 12:47:06.41	307.89	27.01	-50.1	-50.8	25.7	6.03e-01	0	49	0	24117248	71	4003
2026-01-16 12:47:07.28	308.12	26.89	-50.1	-50.8	25.7	6.03e-01	0	49	0	25690112	71	3998
2026-01-16 12:47:08.43	308.42	26.73	-50.0	-50.8	25.7	6.02e-01	0	49	0	27787264	71	3972
2026-01-16 12:47:09.30	308.65	26.62	-50.0	-50.8	25.8	6.04e-01	0	49	0	29360128	71	3963
2026-01-16 12:47:10.45	308.95	26.46	-50.0	-50.8	25.8	6.02e-01	0	49	0	31457280	71	3962
2026-01-16 12:47:11.31	309.17	26.35	-50.1	-50.9	25.7	6.04e-01	0	49	0	33030144	71	4026
2026-01-16 12:47:12.46	309.47	26.19	-50.3	-51.1	25.5	6.02e-01	0	50	0	35651584	71	4109
2026-01-16 12:47:13.33	309.69	26.08	-50.4	-51.1	25.4	6.01e-01	0	49	0	36700160	71	4145
2026-01-16 12:47:14.48	309.98	25.92	-50.3	-51.1	25.4	6.03e-01	0	49	0	39321600	71	4121
2026-01-16 12:47:15.34	310.19	25.81	-50.3	-51.1	25.4	6.02e-01	0	49	0	40894464	71	4116
2026-01-16 12:47:16.50	310.48	25.65	-50.3	-51.1	25.4	6.04e-01	0	50	0	42991616	71	4112
2026-01-16 12:47:17.36	310.69	25.54	-50.4	-51.2	25.3	6.05e-01	0	49	0	44564480	71	4148
2026-01-16 12:47:18.52	310.97	25.38	-50.2	-50.9	25.6	6.02e-01	0	49	0	46661632	71	4036
2026-01-16 12:47:19.38	311.17	25.27	-50.3	-51.1	25.4	6.02e-01	0	49	0	48234496	71	4126
2026-01-16 12:47:20.53	311.45	25.12	-50.2	-51.0	25.5	6.03e-01	0	49	0	50331648	71	4058
2026-01-16 12:47:21.40	311.65	25.00	-50.2	-50.9	25.6	6.01e-01	0	49	0	51904512	71	4043
2026-01-16 12:47:22.55	311.92	24.85	-50.3	-51.1	25.4	6.02e-01	0	49	0	54525952	71	4109
2026-01-16 12:47:23.42	312.13	24.73	-50.3	-51.1	25.4	6.04e-01	0	49	0	56098816	71	4104
2026-01-16 12:47:24.57	312.39	24.58	-50.3	-51.1	25.4	6.04e-01	0	49	0	58195968	71	4110
2026-01-16 12:47:25.44	312.59	24.47	-50.3	-51.1	25.3	6.03e-01	0	49	0	59768832	71	4123
2026-01-16 12:47:26.59	312.85	24.32	-50.2	-51.0	25.5	6.02e-01	0	49	0	61865984	71	4071
2026-01-16 12:47:27.45	313.04	24.21	-50.3	-51.1	25.4	6.02e-01	0	49	0	63438848	71	4107
2026-01-16 12:47:28.60	313.30	24.06	-50.4	-51.2	25.3	6.01e-01	0	49	0	65536000	71	4160
2026-01-16 12:47:29.47	313.49	23.94	-50.4	-51.2	25.3	6.02e-01	0	49	0	67108864	71	4179
2026-01-16 12:47:30.62	313.74	23.79	-50.4	-51.2	25.2	6.01e-01	0	49	0	69206016	71	4167
2026-01-16 12:47:31.48	313.93	23.68	-50.4	-51.2	25.2	6.02e-01	0	49	0	71303168	71	4183
2026-01-16 12:47:32.64	314.18	23.53	-50.3	-51.1	25.3	6.02e-01	0	49	0	72876032	71	4116
2026-01-16 12:47:33.50	314.36	23.42	-50.4	-51.2	25.3	6.03e-01	0	49	0	74973184	71	4167
2026-01-16 12:47:34.65	314.60	23.27	-50.4	-51.2	25.3	6.02e-01	0	49	0	77070336	71	4185
2026-01-16 12:47:35.52	314.79	23.16	-50.4	-51.2	25.2	6.02e-01	0	49	0	78643200	71	4163
2026-01-16 12:47:36.67	315.03	23.01	-50.6	-51.4	25.1	6.04e-01	0	49	0	80740352	71	4258
2026-01-16 12:47:37.53	315.20	22.90	-50.5	-51.2	25.2	6.01e-01	0	49	0	82313216	71	4191
2026-01-16 12:47:38.69	315.44	22.76	-50.2	-51.0	25.4	6.02e-01	0	49	0	84410368	71	4076
2026-01-16 12:47:39.55	315.61	22.65	-50.3	-51.0	25.4	6.01e-01	0	49	0	86507520	71	4092
2026-01-16 12:47:40.70	315.85	22.50	-50.3	-51.0	25.4	6.02e-01	0	49	0	88080384	71	4089
2026-01-16 12:47:41.57	316.02	22.39	-50.2	-51.0	25.4	6.02e-01	0	49	0	90177536	71	4062
2026-01-16 12:47:42.72	316.25	22.25	-50.2	-51.0	25.4	6.01e-01	0	50	0	92274688	71	4072
2026-01-16 12:47:43.58	316.41	22.14	-50.2	-50.9	25.4	6.03e-01	0	50	0	93847552	71	4051
2026-01-16 12:47:44.74	316.64	21.99	-50.2	-51.0	25.3	6.03e-01	0	49	0	95944704	71	4071
2026-01-16 12:47:45.60	316.81	21.89	-50.4	-51.2	25.3	6.02e-01	0	49	0	97517568	71	4146
2026-01-16 12:47:46.75	317.03	21.74	-50.3	-51.1	25.2	6.02e-01	0	49	0	99614720	71	4134
2026-01-16 12:47:47.62	317.19	21.64	-50.3	-51.1	25.3	6.04e-01	0	50	0	101187584	71	4132
2026-01-16 12:47:48.77	317.41	21.49	-50.4	-51.2	25.2	6.03e-01	0	49	0	103284736	71	4147
2026-01-16 12:47:49.63	317.57	21.39	-50.2	-51.0	25.4	6.01e-01	0	49	0	104857600	71	4069
2026-01-16 12:47:50.78	317.78	21.25	-50.1	-50.9	25.5	6.01e-01	0	49	0	107479040	71	4033
2026-01-16 12:47:51.65	317.94	21.14	-50.3	-51.0	25.4	6.05e-01	0	49	0	109051904	71	4094
2026-01-16 12:47:52.80	318.15	21.00	-50.2	-51.0	25.4	6.02e-01	0	49	0	111149056	71	4056
2026-01-16 12:47:53.66	318.30	20.89	-50.1	-50.9	25.5	6.00e-01	0	50	0	112721920	71	4014
2026-01-16 12:47:54.81	318.51	20.75	-50.1	-50.9	25.5	6.02e-01	0	50	0	114819072	71	4025
2026-01-16 12:47:55.68	318.66	20.65	-50.2	-50.9	25.4	6.03e-01	0	49	0	116391936	71	4051
2026-01-16 12:47:56.83	318.87	20.51	-50.0	-50.7	25.6	6.03e-01	0	49	0	118489088	71	3956
2026-01-16 12:47:57.69	319.02	20.41	-50.0	-50.7	25.6	6.03e-01	0	49	0	120061952	71	3958
2026-01-16 12:47:58.85	319.22	20.27	-50.0	-50.8	25.5	6.02e-01	0	49	0	122683392	71	3960
2026-01-16 12:47:59.71	319.37	20.16	-50.0	-50.8	25.5	6.04e-01	0	50	0	123731968	71	3962
2026-01-16 12:48:00.87	319.56	20.03	-50.1	-50.9	25.4	6.01e-01	0	49	0	126353408	71	4020
2026-01-16 12:48:01.73	319.71	19.92	-50.1	-50.8	25.4	6.03e-01	0	49	0	127926272	71	3995
2026-01-16 12:48:02.88	319.90	19.79	-50.0	-50.7	25.6	6.05e-01	0	49	0	130023424	71	3938
2026-01-16 12:48:03.74	320.05	19.69	-50.1	-50.8	25.5	6.03e-01	0	50	0	131596288	71	3994
2026-01-16 12:48:04.90	320.24	19.55	-50.1	-50.8	25.4	6.05e-01	0	49	0	133693440	71	4001
2026-01-16 12:48:05.76	320.38	19.45	-50.1	-50.9	25.4	6.03e-01	0	49	0	135266304	71	4024
2026-01-16 12:48:06.91	320.57	19.31	-50.2	-51.0	25.3	6.03e-01	0	49	0	137363456	71	4065
2026-01-16 12:48:07.78	320.71	19.21	-50.2	-50.9	25.4	6.03e-01	0	49	0	138936320	71	4049
2026-01-16 12:48:08.93	320.89	19.08	-50.1	-50.9	25.4	6.01e-01	0	49	0	141033472	71	4032
2026-01-16 12:48:09.79	321.03	18.98	-50.2	-50.9	25.3	6.06e-01	0	50	0	143130624	71	4046
2026-01-16 12:48:10.95	321.21	18.85	-50.1	-50.9	25.4	6.01e-01	0	49	0	145227776	71	4013
2026-01-16 12:48:11.81	321.34	18.75	-50.0	-50.8	25.5	6.04e-01	0	49	0	146800640	71	3968
2026-01-16 12:48:12.96	321.52	18.62	-50.0	-50.8	25.5	6.01e-01	0	49	0	148897792	71	3971
2026-01-16 12:48:13.83	321.66	18.52	-50.0	-50.8	25.5	6.02e-01	0	49	0	150470656	71	3979
2026-01-16 12:48:14.98	321.83	18.39	-50.1	-50.9	25.4	6.03e-01	0	49	0	152567808	71	4006
2026-01-16 12:48:15.84	321.96	18.29	-50.0	-50.8	25.4	6.03e-01	0	50	0	154140672	71	3980
2026-01-16 12:48:17.00	322.14	18.16	-50.1	-50.8	25.4	6.04e-01	0	50	0	156237824	71	3991
2026-01-16 12:48:17.86	322.26	18.06	-50.1	-50.8	25.4	6.04e-01	0	50	0	157810688	71	3999
2026-01-16 12:48:19.01	322.43	17.93	-50.2	-51.0	25.3	6.02e-01	0	49	0	159907840	71	4062
2026-01-16 12:48:19.88	322.56	17.84	-50.2	-50.9	25.2	6.03e-01	0	49	0	162004992	71	4046
2026-01-16 12:48:21.03	322.73	17.71	-50.1	-50.9	25.3	6.02e-01	0	49	0	164102144	71	4013
2026-01-16 12:48:21.90	322.86	17.61	-50.1	-50.9	25.3	6.02e-01	0	49	0	165675008	71	4007
2026-01-16 12:48:23.05	323.02	17.48	-50.0	-50.8	25.3	6.02e-01	0	50	0	167772160	71	3981
2026-01-16 12:48:23.91	323.14	17.39	-50.0	-50.8	25.4	6.03e-01	0	49	0	169345024	71	3968
2026-01-16 12:48:25.07	323.31	17.26	-50.0	-50.7	25.4	6.01e-01	0	49	0	171442176	71	3945
2026-01-16 12:48:25.93	323.43	17.17	-50.0	-50.7	25.4	6.02e-01	0	49	0	173015040	71	3953
2026-01-16 12:48:27.08	323.59	17.04	-49.8	-50.5	25.6	6.04e-01	0	49	0	175112192	71	3860
2026-01-16 12:48:27.95	323.71	16.95	-49.8	-50.6	25.6	6.02e-01	0	49	0	177209344	71	3886
2026-01-16 12:48:29.10	323.87	16.82	-49.9	-50.6	25.5	6.01e-01	0	49	0	179306496	71	3897
2026-01-16 12:48:29.96	323.99	16.73	-49.8	-50.6	25.6	6.02e-01	0	49	0	180879360	71	3883
2026-01-16 12:48:31.11	324.14	16.61	-50.0	-50.8	25.4	6.01e-01	0	50	0	182976512	71	3961
2026-01-16 12:48:31.98	324.26	16.51	-49.9	-50.6	25.6	6.04e-01	0	49	0	184549376	71	3904
2026-01-16 12:48:33.13	324.41	16.39	-49.9	-50.6	25.6	6.02e-01	0	49	0	186646528	71	3905
2026-01-16 12:48:34.00	324.53	16.30	-50.0	-50.7	25.4	6.04e-01	0	49	0	188219392	71	3958
2026-01-16 12:48:35.15	324.68	16.18	-49.9	-50.7	25.5	6.02e-01	0	49	0	190316544	71	3931
2026-01-16 12:48:36.01	324.79	16.09	-50.0	-50.7	25.4	6.02e-01	0	49	0	191889408	71	3955
2026-01-16 12:48:37.16	324.94	15.97	-49.9	-50.7	25.4	6.03e-01	0	49	0	194510848	71	3941
2026-01-16 12:48:38.03	325.05	15.88	-50.0	-50.7	25.4	6.02e-01	0	49	0	195559424	71	3951
2026-01-16 12:48:39.18	325.20	15.76	-50.0	-50.7	25.4	6.04e-01	0	50	0	198180864	71	3953
2026-01-16 12:48:40.04	325.31	15.67	-50.1	-50.8	25.3	6.04e-01	0	49	0	199753728	71	4004
2026-01-16 12:48:41.20	325.45	15.55	-50.0	-50.8	25.3	6.04e-01	0	49	0	201850880	71	3999
2026-01-16 12:48:42.06	325.56	15.46	-50.0	-50.8	25.3	6.03e-01	0	49	0	203423744	71	3981
2026-01-16 12:48:43.22	325.70	15.34	-50.0	-50.8	25.3	6.03e-01	0	49	0	205520896	71	3971
2026-01-16 12:48:44.07	325.81	15.25	-49.9	-50.7	25.5	6.02e-01	0	49	0	207093760	71	3915
2026-01-16 12:48:45.23	325.95	15.13	-50.0	-50.8	25.3	6.04e-01	0	49	0	209190912	71	3988
2026-01-16 12:48:46.09	326.05	15.04	-49.9	-50.6	25.5	6.03e-01	0	49	0	210763776	71	3903
2026-01-16 12:48:47.24	326.19	14.93	-50.0	-50.7	25.3	6.02e-01	0	49	0	213385216	71	3947
2026-01-16 12:48:48.11	326.30	14.84	-50.0	-50.8	25.3	6.05e-01	0	49	0	214433792	71	3969
2026-01-16 12:48:49.26	326.43	14.72	-50.0	-50.8	25.2	6.03e-01	0	50	0	217055232	71	3994
2026-01-16 12:48:50.12	326.54	14.64	-50.1	-50.9	25.2	6.01e-01	0	49	0	218628096	71	4008
2026-01-16 12:48:51.27	326.67	14.52	-50.1	-50.9	25.1	6.03e-01	0	49	0	220725248	71	4016
2026-01-16 12:48:52.14	326.77	14.44	-50.1	-50.9	25.1	6.03e-01	0	49	0	222298112	71	4019
2026-01-16 12:48:53.29	326.90	14.32	-49.9	-50.7	25.3	6.01e-01	0	49	0	224395264	71	3935
2026-01-16 12:48:54.16	327.00	14.24	-50.0	-50.7	25.3	6.03e-01	0	49	0	225968128	71	3958
2026-01-16 12:48:55.31	327.14	14.12	-50.0	-50.8	25.2	6.04e-01	0	49	0	228065280	71	3979
2026-01-16 12:48:56.17	327.23	14.04	-50.0	-50.7	25.3	6.03e-01	0	49	0	229638144	71	3954
2026-01-16 12:48:57.33	327.36	13.92	-50.1	-50.9	25.1	6.01e-01	0	49	0	231735296	71	4046
2026-01-16 12:48:58.19	327.46	13.84	-50.1	-50.9	25.2	6.02e-01	0	49	0	233832448	71	4021
2026-01-16 12:48:59.34	327.59	13.73	-50.1	-50.9	25.1	6.02e-01	0	49	0	235929600	71	4031
2026-01-16 12:49:00.21	327.68	13.65	-50.2	-51.0	25.0	6.03e-01	0	49	0	237502464	71	4075
2026-01-16 12:49:01.36	327.81	13.53	-50.1	-50.9	25.1	6.04e-01	0	49	0	239599616	71	4046
2026-01-16 12:49:02.22	327.90	13.45	-50.3	-51.1	25.0	6.03e-01	0	49	0	241172480	71	4110
2026-01-16 12:49:03.38	328.03	13.34	-50.2	-51.0	25.0	6.02e-01	0	49	0	243269632	71	4095
2026-01-16 12:49:04.24	328.12	13.26	-50.3	-51.1	25.0	6.02e-01	0	49	0	244842496	71	4112
2026-01-16 12:49:05.39	328.24	13.15	-50.3	-51.1	25.0	6.03e-01	0	49	0	246939648	71	4121
2026-01-16 12:49:06.25	328.33	13.07	-50.3	-51.1	24.9	6.03e-01	0	49	0	249036800	71	4122
2026-01-16 12:49:07.40	328.46	12.96	-50.2	-51.1	25.0	6.02e-01	0	49	0	250609664	71	4100
2026-01-16 12:49:08.27	328.55	12.88	-50.3	-51.1	24.9	6.02e-01	0	50	0	252706816	71	4145
2026-01-16 12:49:09.42	328.67	12.77	-50.4	-51.2	24.9	6.04e-01	0	49	0	254803968	71	4165
2026-01-16 12:49:10.28	328.75	12.69	-50.4	-51.2	24.8	6.03e-01	0	50	0	256376832	71	4174
2026-01-16 12:49:11.44	328.87	12.58	-50.4	-51.3	24.8	6.02e-01	0	49	0	258473984	71	4198
2026-01-16 12:49:12.30	328.96	12.50	-50.3	-51.2	24.8	6.03e-01	0	49	0	260046848	71	4168
2026-01-16 12:49:13.45	329.08	12.39	-50.4	-51.3	24.7	6.03e-01	0	49	0	262144000	71	4213
2026-01-16 12:49:14.32	329.17	12.31	-50.4	-51.3	24.7	6.04e-01	0	49	0	263716864	71	4197
2026-01-16 12:49:15.47	329.28	12.21	-50.4	-51.3	24.7	6.01e-01	0	49	0	265814016	71	4205
2026-01-16 12:49:16.33	329.37	12.13	-50.4	-51.2	24.7	6.05e-01	0	49	0	267386880	71	4191
2026-01-16 12:49:17.48	329.48	12.02	-50.4	-51.2	24.8	6.03e-01	0	50	0	270008320	71	4184
2026-01-16 12:49:18.35	329.56	11.95	-50.4	-51.3	24.7	6.03e-01	0	49	0	271581184	71	4207
2026-01-16 12:49:19.50	329.68	11.84	-50.5	-51.3	24.6	6.02e-01	0	49	0	273678336	71	4231
2026-01-16 12:49:20.37	329.76	11.76	-50.5	-51.3	24.6	6.03e-01	0	49	0	275251200	71	4239
2026-01-16 12:49:21.52	329.87	11.66	-50.5	-51.3	24.6	6.03e-01	0	49	0	277348352	71	4236
2026-01-16 12:49:22.38	329.95	11.58	-50.4	-51.3	24.6	6.02e-01	0	49	0	278921216	71	4213
2026-01-16 12:49:23.54	330.06	11.48	-50.5	-51.4	24.5	6.04e-01	0	49	0	281018368	71	4252
2026-01-16 12:49:24.40	330.14	11.40	-50.5	-51.4	24.5	6.01e-01	0	49	0	282591232	71	4266
2026-01-16 12:49:25.55	330.25	11.30	-50.5	-51.4	24.5	6.03e-01	0	49	0	285212672	71	4272
2026-01-16 12:49:26.42	330.33	11.22	-50.5	-51.4	24.5	6.02e-01	0	49	0	286261248	71	4248
2026-01-16 12:49:27.57	330.44	11.12	-50.5	-51.3	24.5	6.03e-01	0	49	0	288882688	71	4231
2026-01-16 12:49:28.43	330.52	11.05	-50.6	-51.4	24.4	6.04e-01	0	49	0	290455552	71	4281
2026-01-16 12:49:29.58	330.62	10.95	-50.6	-51.5	24.4	6.04e-01	0	49	0	292552704	71	4321
2026-01-16 12:49:30.45	330.70	10.87	-50.5	-51.4	24.4	6.02e-01	0	49	0	294125568	72	4016
2026-01-16 12:49:31.60	330.81	10.77	-50.7	-51.7	24.2	6.03e-01	0	49	0	296222720	72	4148
2026-01-16 12:49:32.47	330.88	10.69	-50.5	-51.4	24.4	6.04e-01	0	49	0	297795584	72	4021
2026-01-16 12:49:33.62	330.99	10.59	-50.7	-51.6	24.3	6.03e-01	0	49	0	299892736	72	4100
2026-01-16 12:49:34.48	331.06	10.52	-50.6	-51.4	24.4	6.03e-01	0	49	0	301465600	72	4041
2026-01-16 12:49:35.64	331.17	10.42	-50.6	-51.5	24.3	6.02e-01	0	49	0	303562752	72	4061
2026-01-16 12:49:36.50	331.24	10.35	-50.5	-51.4	24.4	6.01e-01	0	49	0	305659904	72	4017
2026-01-16 12:49:37.65	331.34	10.25	-50.6	-51.5	24.2	6.05e-01	0	49	0	307757056	72	4095
2026-01-16 12:49:38.52	331.42	10.17	-50.7	-51.6	24.2	6.04e-01	0	50	0	309329920	72	4121
2026-01-16 12:49:39.67	331.52	10.08	-50.7	-51.6	24.2	6.04e-01	0	49	0	311427072	72	4133
2026-01-16 12:49:40.53	331.59	10.00	-50.7	-51.6	24.2	6.02e-01	0	49	0	312999936	72	4105
2026-01-16 12:49:41.68	331.69	9.91	-50.7	-51.6	24.2	6.02e-01	0	49	0	315097088	72	4139
2026-01-16 12:49:42.54	331.76	9.84	-50.8	-51.7	24.1	6.03e-01	0	49	0	316669952	72	4157
2026-01-16 12:49:43.70	331.86	9.74	-50.8	-51.7	24.1	6.04e-01	0	49	0	318767104	72	4175
2026-01-16 12:49:44.56	331.93	9.67	-50.7	-51.6	24.2	6.01e-01	0	49	0	320864256	72	4142
2026-01-16 12:49:45.71	332.02	9.57	-50.8	-51.7	24.1	6.03e-01	0	49	0	322437120	72	4178
2026-01-16 12:49:46.58	332.10	9.50	-50.8	-51.8	24.0	6.04e-01	0	50	0	324534272	72	4198
2026-01-16 12:49:47.73	332.19	9.40	-50.9	-51.8	24.0	6.04e-01	0	49	0	326631424	72	4222
2026-01-16 12:49:48.60	332.26	9.33	-50.8	-51.8	24.0	6.03e-01	0	49	0	328204288	72	4207
2026-01-16 12:49:49.75	332.36	9.24	-50.8	-51.7	24.0	6.02e-01	0	49	0	330301440	72	4172
2026-01-16 12:49:50.61	332.42	9.17	-50.8	-51.8	24.0	5.99e-01	0	49	0	331874304	72	4205
2026-01-16 12:49:51.77	332.52	9.07	-50.9	-51.9	23.9	6.02e-01	0	49	0	333971456	72	4259
2026-01-16 12:49:52.63	332.59	9.00	-51.0	-51.9	23.8	6.04e-01	0	49	0	335544320	72	4288
2026-01-16 12:49:53.78	332.68	8.91	-51.1	-52.1	23.7	6.05e-01	0	49	0	337641472	72	4371
2026-01-16 12:49:54.65	332.75	8.84	-51.0	-52.0	23.7	6.02e-01	0	49	0	339738624	72	4323
2026-01-16 12:49:55.80	332.84	8.75	-51.2	-52.2	23.5	6.04e-01	0	49	0	341835776	73	4189
2026-01-16 12:49:56.67	332.90	8.68	-51.2	-52.2	23.6	6.04e-01	0	50	0	343408640	73	4177
2026-01-16 12:49:57.81	332.99	8.59	-51.1	-52.1	23.6	6.04e-01	0	49	0	345505792	73	4140
2026-01-16 12:49:58.68	333.06	8.52	-51.2	-52.2	23.6	6.03e-01	0	50	0	347078656	73	4165
2026-01-16 12:49:59.83	333.15	8.42	-51.3	-52.3	23.4	6.03e-01	0	49	0	349175808	73	4230
2026-01-16 12:50:00.69	333.21	8.36	-51.3	-52.3	23.4	6.04e-01	0	49	0	350748672	73	4214
2026-01-16 12:50:01.85	333.30	8.26	-51.1	-52.1	23.6	6.03e-01	0	49	0	352845824	73	4145
2026-01-16 12:50:02.71	333.37	8.20	-51.3	-52.3	23.5	6.02e-01	0	49	0	354418688	73	4212
2026-01-16 12:50:03.86	333.45	8.11	-51.3	-52.3	23.4	6.02e-01	0	49	0	357040128	73	4222
2026-01-16 12:50:04.73	333.52	8.04	-51.3	-52.3	23.4	6.02e-01	0	49	0	358088704	73	4222
2026-01-16 12:50:05.88	333.60	7.95	-51.4	-52.4	23.3	6.03e-01	0	49	0	360710144	73	4284
2026-01-16 12:50:06.74	333.67	7.88	-51.4	-52.4	23.2	6.01e-01	0	49	0	362283008	73	4282
2026-01-16 12:50:07.89	333.75	7.79	-51.4	-52.4	23.3	6.05e-01	0	49	0	364380160	73	4282
2026-01-16 12:50:08.76	333.81	7.72	-51.5	-52.6	23.1	6.01e-01	0	49	0	365953024	73	4342
2026-01-16 12:50:09.91	333.90	7.64	-51.3	-52.3	23.4	6.02e-01	0	49	0	368050176	73	4216
2026-01-16 12:50:10.77	333.96	7.57	-51.4	-52.5	23.2	6.04e-01	0	49	0	369623040	73	4313
2026-01-16 12:50:11.93	334.04	7.48	-51.4	-52.5	23.2	6.01e-01	0	49	0	371720192	73	4324
2026-01-16 12:50:12.79	334.10	7.41	-51.7	-52.8	22.9	6.04e-01	0	49	0	373293056	73	4458
2026-01-16 12:50:13.94	334.19	7.33	-51.7	-52.8	22.9	6.03e-01	0	49	0	375914496	74	4220
2026-01-16 12:50:14.81	334.25	7.26	-51.8	-52.9	22.8	6.01e-01	0	49	0	377487360	74	4270
2026-01-16 12:50:15.96	334.33	7.17	-51.6	-52.8	22.9	6.03e-01	0	49	0	379584512	74	4195
2026-01-16 12:50:16.82	334.39	7.11	-51.7	-52.8	22.9	6.01e-01	0	49	0	381157376	74	4222
2026-01-16 12:50:17.97	334.47	7.02	-51.7	-52.9	22.8	6.02e-01	0	49	0	383254528	74	4243
2026-01-16 12:50:18.84	334.53	6.96	-51.8	-52.9	22.7	6.03e-01	0	49	0	384827392	74	4287
2026-01-16 12:50:19.99	334.61	6.87	-51.7	-52.8	22.8	6.02e-01	0	49	0	386924544	74	4221
2026-01-16 12:50:20.86	334.67	6.81	-51.7	-52.8	22.8	6.03e-01	0	49	0	388497408	74	4215
2026-01-16 12:50:22.01	334.74	6.72	-51.8	-52.9	22.6	6.04e-01	0	49	0	390594560	74	4287
2026-01-16 12:50:22.87	334.80	6.66	-51.7	-52.8	22.7	6.02e-01	0	49	0	392691712	74	4228
2026-01-16 12:50:24.02	334.88	6.57	-51.6	-52.8	22.8	6.02e-01	0	49	0	394264576	74	4208
2026-01-16 12:50:24.89	334.94	6.51	-51.7	-52.8	22.7	6.03e-01	0	49	0	396361728	74	4233
2026-01-16 12:50:26.04	335.02	6.42	-51.6	-52.8	22.7	6.02e-01	0	50	0	398458880	74	4204
2026-01-16 12:50:26.90	335.07	6.36	-51.8	-53.0	22.5	6.02e-01	0	49	0	400031744	74	4325
2026-01-16 12:50:28.06	335.15	6.27	-51.9	-53.0	22.4	6.00e-01	0	50	0	402128896	74	4337
2026-01-16 12:50:28.92	335.21	6.21	-51.7	-52.8	22.7	6.03e-01	0	50	0	403701760	74	4224
2026-01-16 12:50:30.07	335.28	6.13	-51.9	-53.1	21.7	6.03e-01	0	49	0	405798912	74	4362
2026-01-16 12:50:30.94	335.34	6.06	-51.9	-53.1	22.3	6.01e-01	0	49	0	407371776	74	4389
2026-01-16 12:50:32.09	335.41	5.98	-52.1	-53.3	22.1	6.03e-01	0	49	0	409468928	74	4469
2026-01-16 12:50:32.95	335.47	5.92	-52.0	-53.2	22.2	6.02e-01	0	49	0	411566080	74	4407
2026-01-16 12:50:34.10	335.54	5.83	-52.0	-53.2	22.2	6.02e-01	0	49	0	413663232	74	4423
2026-01-16 12:50:34.97	335.60	5.77	-51.9	-53.1	22.3	6.02e-01	0	49	0	415236096	74	4348
2026-01-16 12:50:36.12	335.67	5.69	-51.9	-53.1	22.2	6.02e-01	0	49	0	417333248	74	4383
2026-01-16 12:50:36.98	335.72	5.63	-51.9	-53.2	22.3	6.04e-01	0	49	0	418906112	74	4404
2026-01-16 12:50:38.14	335.80	5.55	-52.1	-53.3	22.0	6.04e-01	0	49	0	421003264	74	4488
2026-01-16 12:50:39.00	335.85	5.48	-51.9	-53.1	22.2	6.03e-01	0	49	0	422576128	74	4378
2026-01-16 12:50:40.16	335.92	5.40	-52.1	-53.4	22.0	6.02e-01	0	49	0	424673280	74	4530
2026-01-16 12:50:41.02	335.97	5.34	-52.1	-53.4	21.9	6.05e-01	0	49	0	426246144	75	4275
2026-01-16 12:50:42.17	336.05	5.26	-51.7	-52.9	22.5	6.03e-01	0	49	0	428867584	75	4040
2026-01-16 12:50:43.04	336.10	5.20	-52.0	-53.3	22.1	6.02e-01	0	49	0	429916160	75	4201
2026-01-16 12:50:44.19	336.17	5.12	-52.1	-53.4	22.1	6.02e-01	0	49	0	432537600	75	4245
2026-01-16 12:50:45.05	336.22	5.06	-52.1	-53.4	22.0	6.03e-01	0	49	0	434110464	75	4253
2026-01-16 12:50:46.20	336.29	4.98	-59.0	-69.9	5.7	6.86e-01	182	49	0	436207616	88	13567
2026-01-16 12:50:47.07	336.34	4.92	-59.6	-77.0	3.8	7.44e-01	0	49	104	436207616	89	28754
2026-01-16 12:50:48.22	336.41	4.84	-59.8	-77.1	3.8	7.44e-01	0	49	104	436207616	90	27553
2026-01-16 12:50:49.09	336.46	4.78	-60.0	-77.3	3.8	7.46e-01	0	49	104	436207616	90	28144
2026-01-16 12:50:50.24	336.53	4.70	-60.1	-77.4	3.8	7.47e-01	0	49	104	436207616	90	28574
2026-01-16 12:50:51.10	336.58	4.64	-60.2	-77.5	3.8	7.47e-01	0	49	104	436207616	90	28989
2026-01-16 12:50:52.26	336.65	4.56	-60.3	-77.6	3.8	7.47e-01	0	50	104	436207616	91	27591
2026-01-16 12:50:53.12	336.70	4.50	-60.4	-77.7	3.8	7.47e-01	0	49	104	436207616	91	27810
2026-01-16 12:50:54.27	336.77	4.42	-60.4	-77.8	3.8	7.47e-01	0	50	104	436207616	91	28179
2026-01-16 12:50:55.14	336.82	4.36	-60.5	-77.8	3.8	7.46e-01	0	49	104	436207616	91	28200
2026-01-16 12:50:56.29	336.88	4.28	-60.5	-77.9	3.8	7.49e-01	0	50	104	436207616	91	28419
2026-01-16 12:50:57.15	336.93	4.23	-60.5	-77.9	3.8	7.46e-01	0	49	104	436207616	91	28392
2026-01-16 12:50:58.31	337.00	4.15	-60.6	-77.9	3.8	7.42e-01	0	49	104	436207616	91	28490
2026-01-16 12:50:59.17	337.05	4.09	-60.6	-77.9	3.8	7.44e-01	0	50	104	436207616	91	28502
2026-01-16 12:51:00.32	337.11	4.01	-60.6	-77.9	3.8	7.43e-01	0	49	104	436207616	91	28509
2026-01-16 12:51:01.19	337.16	3.95	-60.6	-77.9	3.8	7.47e-01	0	50	104	436207616	91	28534
2026-01-16 12:51:02.34	337.22	3.88	-60.6	-77.9	3.8	7.46e-01	0	50	104	436207616	91	28501
2026-01-16 12:51:03.21	337.27	3.82	-60.5	-77.9	3.8	7.44e-01	0	50	104	436207616	91	28477
2026-01-16 12:51:04.36	337.34	3.74	-60.5	-77.8	3.8	7.45e-01	0	49	104	436207616	91	28327
2026-01-16 12:51:05.22	337.38	3.68	-60.5	-77.8	3.8	7.47e-01	0	49	104	436207616	91	28349
2026-01-16 12:51:06.38	337.45	3.61	-60.5	-77.9	3.8	7.46e-01	0	49	104	436207616	91	28446
2026-01-16 12:51:07.24	337.50	3.55	-60.5	-77.9	3.8	7.47e-01	0	50	104	436207616	91	28383
2026-01-16 12:51:08.39	337.56	3.47	-60.5	-77.8	3.8	7.46e-01	0	49	104	436207616	91	28306
2026-01-16 12:51:09.26	337.60	3.42	-60.5	-77.8	3.8	7.48e-01	0	49	104	436207616	91	28268
