passes_logs/2026/01/16/R3.2S_Murmansk/R3.2S_Murmansk__20260116_093022_NOAA_20_JPSS-1_rec.log

#Pass ID: 20260116_093022_NOAA 20 (JPSS-1)
#Satellite: NOAA 20 (JPSS-1)
#Configuration: NOAA 20
#almurnet v.1.7.20251203
#Start time: 2026-01-16 09:30:23

#Version: 2.2.20231116
#Station: R3.2S_Murmansk
#Location: 33.079688 lon 68.888172 lat
#TLE: 1 43013U 17073A   26015.89389188  .00000026  00000+0  33113-4 0  9999
#TLE: 2 43013  98.7636 316.8238 0001460  37.8997 322.2282 14.19536128422860

#Time	Az	El	Level	Level2	SNR	BER	BlckErr	Temp	State	Recorded	gain1	gain2
2026-01-16 09:30:23.70	151.23	2.05	-57.1	-71.6	3.8	1.49e+00	0	43	0	0	86	18435
2026-01-16 09:30:24.70	151.23	2.12	-57.1	-71.6	3.8	1.49e+00	0	43	104	0	84	20747
2026-01-16 09:30:25.71	151.23	2.18	-57.1	-71.6	3.8	1.49e+00	0	43	104	0	84	20711
2026-01-16 09:30:26.72	151.23	2.25	-57.1	-71.6	3.8	1.49e+00	0	43	104	0	84	20645
2026-01-16 09:30:27.73	151.24	2.31	-57.1	-71.6	3.8	1.49e+00	0	43	104	0	84	20613
2026-01-16 09:30:28.74	151.24	2.38	-57.1	-71.6	3.8	1.49e+00	0	43	104	0	84	20653
2026-01-16 09:30:29.75	151.24	2.44	-57.1	-71.6	3.8	1.49e+00	0	43	104	0	84	20602
2026-01-16 09:30:30.76	151.24	2.51	-57.1	-71.6	3.8	1.49e+00	0	43	104	0	84	20646
2026-01-16 09:30:31.77	151.25	2.58	-57.1	-71.6	3.8	1.49e+00	0	43	104	0	84	20641
2026-01-16 09:30:32.77	151.25	2.64	-57.1	-71.6	3.8	1.49e+00	0	43	104	0	84	20648
2026-01-16 09:30:33.78	151.25	2.71	-57.1	-71.6	3.8	1.49e+00	0	43	104	0	84	20578
2026-01-16 09:30:34.79	151.25	2.78	-57.1	-71.6	3.8	1.49e+00	0	44	104	0	84	20601
2026-01-16 09:30:35.80	151.25	2.84	-57.1	-71.6	3.8	1.49e+00	0	44	104	0	84	20611
2026-01-16 09:30:36.81	151.26	2.91	-57.1	-71.6	3.8	1.49e+00	0	44	104	0	84	20542
2026-01-16 09:30:37.82	151.26	2.98	-57.1	-71.6	3.8	1.49e+00	0	44	104	0	84	20558
2026-01-16 09:30:38.83	151.26	3.04	-57.1	-71.5	3.8	1.49e+00	0	44	104	0	84	20481
2026-01-16 09:30:39.84	151.26	3.11	-57.1	-71.5	3.8	1.49e+00	0	44	104	0	84	20423
2026-01-16 09:30:40.85	151.27	3.18	-57.1	-71.5	3.8	1.49e+00	0	44	104	0	84	20305
2026-01-16 09:30:41.86	151.27	3.25	-57.1	-71.3	3.8	1.49e+00	0	44	104	0	84	20029
2026-01-16 09:30:42.87	151.27	3.31	-57.1	-71.1	3.8	1.49e+00	0	44	104	0	84	19563
2026-01-16 09:30:43.88	151.27	3.38	-57.1	-70.9	3.8	1.49e+00	0	44	104	0	84	19004
2026-01-16 09:30:44.89	151.28	3.45	-57.1	-70.3	3.8	1.49e+00	0	44	104	0	84	17876
2026-01-16 09:30:45.90	151.28	3.52	-57.0	-70.1	3.8	1.49e+00	0	44	104	0	84	17370
2026-01-16 09:30:46.90	151.28	3.59	-57.0	-68.8	4.0	1.49e+00	0	44	104	0	84	14987
2026-01-16 09:30:47.91	151.28	3.66	-56.9	-68.1	4.2	1.41e+00	0	44	0	0	84	13783
2026-01-16 09:30:48.92	151.29	3.72	-56.9	-67.8	4.3	1.38e+00	0	44	0	0	84	13271
2026-01-16 09:30:49.93	151.29	3.79	-56.9	-67.5	4.4	1.29e+00	134	44	0	1048576	84	12841
2026-01-16 09:30:50.94	151.29	3.86	-56.9	-67.7	4.3	1.37e+00	0	44	0	1048576	84	13155
2026-01-16 09:30:51.95	151.29	3.93	-56.9	-67.3	4.4	1.05e+00	138	44	0	3145728	84	12620
2026-01-16 09:30:52.96	151.29	4.00	-56.8	-67.2	4.5	1.16e+00	36	44	0	4194304	84	12464
2026-01-16 09:30:53.97	151.30	4.07	-56.8	-67.1	4.5	1.27e+00	45	44	0	6291456	84	12310
2026-01-16 09:30:54.98	151.30	4.14	-56.8	-66.5	4.7	8.29e-01	0	45	0	8388608	84	11528
2026-01-16 09:30:55.98	151.30	4.21	-56.5	-64.5	6.0	6.40e-01	0	44	0	9437184	84	9164
2026-01-16 09:30:56.99	151.30	4.28	-56.6	-65.2	5.5	4.50e-01	0	44	0	11534336	84	9847
2026-01-16 09:30:58.00	151.31	4.35	-56.3	-63.3	7.1	3.14e-01	0	45	0	13631488	84	7931
2026-01-16 09:30:59.01	151.31	4.42	-56.3	-63.0	7.3	1.10e-01	0	45	0	15728640	84	7677
2026-01-16 09:31:00.01	151.31	4.49	-55.7	-61.0	9.2	5.64e-02	0	45	0	17825792	83	6426
2026-01-16 09:31:01.02	151.31	4.56	-55.5	-60.4	9.9	6.98e-03	0	45	0	19922944	82	6357
2026-01-16 09:31:02.03	151.32	4.64	-55.5	-60.3	9.9	8.13e-03	0	45	0	20971520	82	6317
2026-01-16 09:31:03.04	151.32	4.71	-55.1	-59.2	11.1	4.41e-03	0	45	0	23068672	82	5569
2026-01-16 09:31:04.05	151.32	4.78	-54.8	-58.5	11.8	6.90e-04	0	45	0	25165824	81	5457
2026-01-16 09:31:05.06	151.32	4.85	-54.8	-58.6	11.8	4.35e-04	0	45	0	27262976	81	5493
2026-01-16 09:31:06.07	151.32	4.92	-54.5	-58.0	12.4	1.36e-04	0	45	0	29360128	81	5137
2026-01-16 09:31:07.08	151.33	4.99	-54.5	-57.9	12.5	1.59e-04	0	45	0	30408704	81	5075
2026-01-16 09:31:08.08	151.33	5.07	-54.6	-58.1	12.3	1.57e-04	0	45	0	32505856	80	5513
2026-01-16 09:31:09.09	151.33	5.14	-54.2	-57.3	13.2	1.60e-05	0	45	0	34603008	80	4993
2026-01-16 09:31:10.10	151.33	5.21	-54.4	-57.6	12.9	3.81e-05	0	45	0	36700160	80	5194
2026-01-16 09:31:11.11	151.34	5.29	-56.1	-62.6	7.5	5.96e-02	0	45	0	38797312	83	7783
2026-01-16 09:31:12.11	151.34	5.36	-55.5	-60.0	10.4	4.07e-03	0	45	0	39845888	82	6104
2026-01-16 09:31:13.12	151.34	5.43	-55.9	-62.0	8.0	1.87e-03	0	45	0	41943040	82	7700
2026-01-16 09:31:14.13	151.34	5.50	-54.1	-56.9	13.6	1.52e-05	0	45	0	44040192	80	4794
2026-01-16 09:31:15.14	151.34	5.58	-54.1	-56.9	13.8	2.20e-06	0	45	0	46137344	79	5056
2026-01-16 09:31:16.15	151.35	5.65	-53.8	-56.4	14.3	5.30e-06	0	45	0	48234496	79	4795
2026-01-16 09:31:17.16	151.35	5.73	-54.0	-56.7	13.9	4.50e-06	0	45	0	49283072	79	4972
2026-01-16 09:31:18.16	151.35	5.80	-54.0	-56.7	14.0	7.00e-07	0	45	0	51380224	79	4973
2026-01-16 09:31:19.17	151.35	5.88	-54.0	-56.6	14.1	1.22e-05	0	45	0	53477376	79	4922
2026-01-16 09:31:20.18	151.35	5.95	-54.1	-56.9	13.9	6.10e-06	0	45	0	55574528	79	5076
2026-01-16 09:31:21.19	151.36	6.03	-54.1	-56.8	13.9	3.80e-06	0	45	0	57671680	79	5028
2026-01-16 09:31:22.20	151.36	6.10	-53.8	-56.4	14.4	2.20e-06	0	45	0	58720256	79	4783
2026-01-16 09:31:23.20	151.36	6.18	-54.0	-56.6	14.1	2.20e-06	0	45	0	60817408	79	4921
2026-01-16 09:31:24.21	151.36	6.25	-53.9	-56.5	14.3	0.00e+00	0	45	0	62914560	79	4844
2026-01-16 09:31:25.22	151.37	6.33	-53.9	-56.4	14.4	0.00e+00	0	45	0	65011712	79	4774
2026-01-16 09:31:26.23	151.37	6.40	-53.9	-56.5	14.4	7.00e-07	0	46	0	67108864	79	4834
2026-01-16 09:31:27.24	151.37	6.48	-53.9	-56.4	14.5	0.00e+00	0	45	0	68157440	79	4761
2026-01-16 09:31:28.24	151.37	6.56	-53.9	-56.4	14.4	1.50e-06	0	46	0	70254592	79	4814
2026-01-16 09:31:29.25	151.37	6.63	-54.2	-56.9	14.0	0.00e+00	0	46	0	72351744	79	5065
2026-01-16 09:31:30.26	151.38	6.71	-53.7	-56.0	14.9	1.50e-06	0	45	0	74448896	79	4574
2026-01-16 09:31:31.27	151.38	6.79	-53.8	-56.2	14.6	4.50e-06	0	46	0	76546048	79	4691
2026-01-16 09:31:32.27	151.38	6.86	-53.8	-56.2	14.7	0.00e+00	0	46	0	77594624	79	4704
2026-01-16 09:31:33.28	151.38	6.94	-53.9	-56.4	14.5	7.00e-07	0	46	0	79691776	79	4769
2026-01-16 09:31:34.29	151.38	7.02	-53.8	-56.2	14.7	0.00e+00	0	46	0	81788928	79	4687
2026-01-16 09:31:35.30	151.39	7.10	-53.9	-56.4	14.5	7.00e-07	0	46	0	83886080	79	4789
2026-01-16 09:31:36.31	151.39	7.18	-53.7	-56.0	14.9	0.00e+00	0	46	0	85983232	79	4584
2026-01-16 09:31:37.32	151.39	7.26	-53.9	-56.3	14.7	0.00e+00	0	46	0	87031808	79	4735
2026-01-16 09:31:38.32	151.39	7.33	-53.8	-56.2	14.7	0.00e+00	0	46	0	89128960	79	4695
2026-01-16 09:31:39.33	151.39	7.41	-54.1	-56.6	14.4	0.00e+00	0	46	0	91226112	79	4891
2026-01-16 09:31:40.34	151.40	7.49	-54.0	-56.5	14.5	1.50e-06	0	46	0	93323264	79	4836
2026-01-16 09:31:41.35	151.40	7.57	-53.9	-56.3	14.7	0.00e+00	0	46	0	95420416	79	4730
2026-01-16 09:31:42.36	151.40	7.65	-53.7	-55.9	15.1	0.00e+00	0	46	0	96468992	79	4525
2026-01-16 09:31:43.36	151.40	7.73	-53.8	-56.2	14.8	7.00e-07	0	46	0	98566144	79	4672
2026-01-16 09:31:44.37	151.40	7.81	-53.7	-56.0	15.0	0.00e+00	0	46	0	100663296	79	4581
2026-01-16 09:31:45.38	151.41	7.89	-53.8	-56.1	15.0	0.00e+00	0	46	0	102760448	79	4603
2026-01-16 09:31:46.39	151.41	7.98	-53.8	-56.1	15.0	0.00e+00	0	46	0	104857600	79	4636
2026-01-16 09:31:47.40	151.41	8.06	-53.6	-55.7	15.3	0.00e+00	0	46	0	105906176	79	4438
2026-01-16 09:31:48.40	151.41	8.14	-53.8	-56.1	15.0	0.00e+00	0	46	0	108003328	79	4609
2026-01-16 09:31:49.41	151.41	8.22	-53.7	-55.9	15.2	0.00e+00	0	46	0	110100480	79	4534
2026-01-16 09:31:50.42	151.42	8.30	-53.7	-56.0	15.1	7.00e-07	0	46	0	112197632	79	4563
2026-01-16 09:31:51.43	151.42	8.38	-53.7	-56.0	15.1	0.00e+00	0	46	0	114294784	79	4580
2026-01-16 09:31:52.43	151.42	8.47	-53.9	-56.2	14.9	0.00e+00	0	46	0	115343360	79	4676
2026-01-16 09:31:53.44	151.42	8.55	-53.8	-56.0	15.2	0.00e+00	0	46	0	117440512	79	4577
2026-01-16 09:31:54.45	151.42	8.63	-53.7	-55.9	15.2	0.00e+00	0	46	0	119537664	79	4536
2026-01-16 09:31:55.46	151.43	8.72	-53.8	-56.0	15.1	0.00e+00	0	46	0	121634816	79	4593
2026-01-16 09:31:56.47	151.43	8.80	-53.6	-55.8	15.4	0.00e+00	0	46	0	123731968	79	4470
2026-01-16 09:31:57.47	151.43	8.88	-53.6	-55.7	15.5	0.00e+00	0	46	0	124780544	79	4424
2026-01-16 09:31:58.48	151.43	8.97	-53.7	-55.9	15.3	0.00e+00	0	46	0	126877696	79	4500
2026-01-16 09:31:59.49	151.43	9.05	-53.5	-55.6	15.6	0.00e+00	0	46	0	128974848	79	4345
2026-01-16 09:32:00.50	151.43	9.14	-53.6	-55.7	15.5	0.00e+00	0	46	0	131072000	79	4419
2026-01-16 09:32:01.51	151.44	9.22	-53.5	-55.6	15.6	0.00e+00	0	46	0	133169152	79	4375
2026-01-16 09:32:02.52	151.44	9.31	-53.6	-55.6	15.6	0.00e+00	0	47	0	135266304	79	4380
2026-01-16 09:32:03.52	151.44	9.39	-53.6	-55.7	15.5	0.00e+00	0	46	0	136314880	79	4412
2026-01-16 09:32:04.53	151.44	9.48	-53.7	-55.8	15.4	0.00e+00	0	46	0	138412032	79	4487
2026-01-16 09:32:05.54	151.44	9.56	-53.6	-55.6	15.6	0.00e+00	0	46	0	140509184	79	4386
2026-01-16 09:32:06.55	151.45	9.65	-53.6	-55.6	15.7	0.00e+00	0	47	0	142606336	79	4376
2026-01-16 09:32:07.55	151.45	9.74	-53.5	-55.5	15.8	0.00e+00	0	47	0	143654912	79	4330
2026-01-16 09:32:08.56	151.45	9.82	-53.5	-55.5	15.8	0.00e+00	0	47	0	145752064	78	4573
2026-01-16 09:32:09.57	151.45	9.91	-53.5	-55.5	15.9	0.00e+00	0	47	0	147849216	78	4548
2026-01-16 09:32:10.58	151.45	10.00	-53.4	-55.3	16.0	0.00e+00	0	47	0	149946368	78	4491
2026-01-16 09:32:11.59	151.45	10.09	-53.5	-55.5	15.9	0.00e+00	0	47	0	152043520	78	4547
2026-01-16 09:32:12.59	151.46	10.18	-53.4	-55.3	16.0	0.00e+00	0	46	0	153092096	78	4488
2026-01-16 09:32:13.60	151.46	10.27	-53.3	-55.3	16.1	0.00e+00	0	47	0	155189248	78	4445
2026-01-16 09:32:14.61	151.46	10.35	-53.4	-55.3	16.0	0.00e+00	0	47	0	157286400	78	4489
2026-01-16 09:32:15.62	151.46	10.44	-53.3	-55.2	16.1	0.00e+00	0	46	0	159383552	78	4422
2026-01-16 09:32:16.63	151.46	10.53	-53.4	-55.3	16.0	0.00e+00	0	47	0	161480704	78	4462
2026-01-16 09:32:17.64	151.46	10.62	-53.5	-55.4	15.9	0.00e+00	0	47	0	163577856	78	4543
2026-01-16 09:32:18.64	151.47	10.71	-53.4	-55.3	16.1	0.00e+00	0	47	0	164626432	78	4456
2026-01-16 09:32:19.65	151.47	10.80	-53.2	-55.0	16.4	0.00e+00	0	47	0	166723584	78	4306
2026-01-16 09:32:20.66	151.47	10.90	-53.3	-55.2	16.2	0.00e+00	0	47	0	168820736	78	4398
2026-01-16 09:32:21.67	151.47	10.99	-53.2	-55.0	16.3	0.00e+00	0	47	0	170917888	78	4334
2026-01-16 09:32:22.67	151.47	11.08	-53.1	-54.9	16.5	0.00e+00	0	47	0	171966464	78	4267
2026-01-16 09:32:23.68	151.47	11.17	-53.2	-55.0	16.4	0.00e+00	0	47	0	174063616	78	4302
2026-01-16 09:32:24.69	151.48	11.26	-53.1	-54.9	16.5	0.00e+00	0	47	0	176160768	78	4269
2026-01-16 09:32:25.70	151.48	11.36	-53.1	-54.9	16.5	0.00e+00	0	47	0	178257920	78	4264
2026-01-16 09:32:26.71	151.48	11.45	-53.1	-54.8	16.5	0.00e+00	0	47	0	180355072	78	4235
2026-01-16 09:32:27.71	151.48	11.54	-53.1	-54.8	16.6	0.00e+00	0	47	0	182452224	78	4216
2026-01-16 09:32:28.72	151.48	11.64	-53.0	-54.8	16.6	0.00e+00	0	47	0	183500800	78	4195
2026-01-16 09:32:29.73	151.48	11.73	-53.1	-54.8	16.6	0.00e+00	0	47	0	185597952	78	4214
2026-01-16 09:32:30.74	151.48	11.82	-53.0	-54.7	16.7	0.00e+00	0	47	0	187695104	78	4163
2026-01-16 09:32:31.75	151.49	11.92	-52.9	-54.6	16.8	0.00e+00	0	47	0	189792256	77	4368
2026-01-16 09:32:32.75	151.49	12.01	-52.8	-54.5	16.9	0.00e+00	0	47	0	191889408	77	4298
2026-01-16 09:32:33.76	151.49	12.11	-52.9	-54.5	16.9	0.00e+00	0	47	0	192937984	77	4329
2026-01-16 09:32:34.77	151.49	12.21	-52.8	-54.4	17.0	0.00e+00	0	47	0	195035136	77	4277
2026-01-16 09:32:35.78	151.49	12.30	-52.9	-54.6	16.8	0.00e+00	0	47	0	197132288	77	4346
2026-01-16 09:32:36.79	151.49	12.40	-52.9	-54.5	16.9	0.00e+00	0	47	0	199229440	77	4321
2026-01-16 09:32:37.80	151.50	12.50	-52.8	-54.4	17.0	0.00e+00	0	47	0	201326592	77	4253
2026-01-16 09:32:38.80	151.50	12.59	-52.8	-54.4	17.0	0.00e+00	0	47	0	202375168	77	4270
2026-01-16 09:32:39.81	151.50	12.69	-52.7	-54.3	17.1	0.00e+00	0	47	0	204472320	77	4218
2026-01-16 09:32:40.82	151.50	12.79	-52.8	-54.3	17.1	0.00e+00	0	47	0	206569472	77	4239
2026-01-16 09:32:41.83	151.50	12.89	-52.7	-54.3	17.2	0.00e+00	0	47	0	208666624	77	4212
2026-01-16 09:32:42.83	151.50	12.99	-52.8	-54.4	17.1	0.00e+00	0	47	0	210763776	77	4244
2026-01-16 09:32:43.84	151.50	13.09	-52.7	-54.3	17.2	0.00e+00	0	47	0	211812352	77	4222
2026-01-16 09:32:44.85	151.50	13.19	-52.7	-54.3	17.1	0.00e+00	0	47	0	213909504	77	4229
2026-01-16 09:32:45.86	151.51	13.29	-52.7	-54.2	17.2	0.00e+00	0	47	0	216006656	77	4177
2026-01-16 09:32:46.87	151.51	13.39	-52.7	-54.3	17.2	0.00e+00	0	47	0	218103808	77	4196
2026-01-16 09:32:47.88	151.51	13.49	-52.7	-54.2	17.3	0.00e+00	0	47	0	220200960	77	4159
2026-01-16 09:32:48.88	151.51	13.59	-52.7	-54.2	17.2	0.00e+00	0	47	0	221249536	77	4188
2026-01-16 09:32:49.89	151.51	13.69	-52.5	-54.0	17.4	0.00e+00	0	47	0	223346688	77	4090
2026-01-16 09:32:50.90	151.51	13.80	-52.5	-54.0	17.4	0.00e+00	0	47	0	225443840	77	4089
2026-01-16 09:32:51.91	151.51	13.90	-52.6	-54.1	17.4	0.00e+00	0	47	0	227540992	77	4113
2026-01-16 09:32:52.91	151.51	14.00	-52.5	-54.0	17.5	0.00e+00	0	47	0	229638144	76	4310
2026-01-16 09:32:53.92	151.52	14.11	-52.6	-54.1	17.5	0.00e+00	0	47	0	230686720	76	4355
2026-01-16 09:32:54.93	151.52	14.21	-52.5	-54.0	17.5	0.00e+00	0	47	0	232783872	76	4315
2026-01-16 09:32:55.94	151.52	14.31	-52.6	-54.1	17.4	0.00e+00	0	48	0	234881024	76	4346
2026-01-16 09:32:56.95	151.52	14.42	-52.4	-53.8	17.7	0.00e+00	0	47	0	236978176	76	4224
2026-01-16 09:32:57.95	151.52	14.52	-52.3	-53.7	17.8	0.00e+00	0	47	0	239075328	76	4176
2026-01-16 09:32:58.96	151.52	14.63	-52.3	-53.7	17.8	0.00e+00	0	47	0	240123904	76	4171
2026-01-16 09:32:59.97	151.52	14.74	-52.4	-53.8	17.7	0.00e+00	0	47	0	242221056	76	4201
2026-01-16 09:33:00.98	151.52	14.84	-52.4	-53.8	17.7	0.00e+00	0	48	0	244318208	76	4205
2026-01-16 09:33:01.99	151.52	14.95	-52.3	-53.6	17.9	0.00e+00	0	48	0	246415360	76	4140
2026-01-16 09:33:03.00	151.53	15.06	-52.3	-53.7	17.8	0.00e+00	0	47	0	248512512	76	4183
2026-01-16 09:33:04.00	151.53	15.17	-52.3	-53.7	17.8	0.00e+00	0	48	0	250609664	76	4176
2026-01-16 09:33:05.01	151.53	15.28	-52.3	-53.6	17.9	0.00e+00	0	48	0	251658240	76	4143
2026-01-16 09:33:06.02	151.53	15.39	-52.1	-53.5	18.1	0.00e+00	0	47	0	253755392	76	4055
2026-01-16 09:33:07.03	151.53	15.50	-52.1	-53.4	18.1	0.00e+00	0	48	0	255852544	76	4043
2026-01-16 09:33:08.03	151.53	15.61	-52.2	-53.5	18.1	0.00e+00	0	48	0	257949696	76	4069
2026-01-16 09:33:09.04	151.53	15.72	-52.1	-53.4	18.1	0.00e+00	0	48	0	258998272	76	4038
2026-01-16 09:33:10.05	151.53	15.83	-52.1	-53.4	18.1	0.00e+00	0	47	0	261095424	76	4037
2026-01-16 09:33:11.06	151.53	15.94	-52.0	-53.3	18.3	0.00e+00	0	48	0	263192576	76	3977
2026-01-16 09:33:12.07	151.53	16.05	-52.0	-53.3	18.3	0.00e+00	0	47	0	265289728	76	3968
2026-01-16 09:33:13.08	151.54	16.17	-52.1	-53.3	18.2	0.00e+00	0	48	0	267386880	76	3997
2026-01-16 09:33:14.08	151.54	16.28	-52.0	-53.3	18.3	0.00e+00	0	48	0	268435456	76	3968
2026-01-16 09:33:15.09	151.54	16.39	-52.0	-53.3	18.3	0.00e+00	0	48	0	270532608	76	3978
2026-01-16 09:33:16.10	151.54	16.51	-52.0	-53.2	18.4	0.00e+00	0	48	0	272629760	75	4174
2026-01-16 09:33:17.11	151.54	16.62	-52.0	-53.2	18.4	0.00e+00	0	48	0	274726912	75	4173
2026-01-16 09:33:18.12	151.54	16.74	-51.8	-53.0	18.6	0.00e+00	0	48	0	276824064	75	4086
2026-01-16 09:33:19.12	151.54	16.85	-51.8	-53.0	18.5	0.00e+00	0	48	0	278921216	75	4097
2026-01-16 09:33:20.13	151.54	16.97	-51.8	-53.0	18.6	0.00e+00	0	48	0	279969792	75	4076
2026-01-16 09:33:21.14	151.54	17.09	-51.7	-52.9	18.7	0.00e+00	0	48	0	282066944	75	4043
2026-01-16 09:33:22.15	151.54	17.21	-51.8	-53.0	18.6	0.00e+00	0	48	0	284164096	75	4059
2026-01-16 09:33:23.16	151.54	17.33	-51.7	-52.9	18.7	0.00e+00	0	48	0	286261248	75	4016
2026-01-16 09:33:24.16	151.54	17.44	-51.7	-52.8	18.8	0.00e+00	0	48	0	287309824	75	4004
2026-01-16 09:33:25.17	151.54	17.56	-51.7	-52.8	18.8	0.00e+00	0	48	0	289406976	75	3988
2026-01-16 09:33:26.18	151.54	17.68	-51.6	-52.8	18.8	0.00e+00	0	48	0	291504128	75	3963
2026-01-16 09:33:27.19	151.54	17.80	-51.6	-52.8	18.9	0.00e+00	0	48	0	293601280	75	3976
2026-01-16 09:33:28.20	151.55	17.93	-51.6	-52.8	18.8	0.00e+00	0	48	0	295698432	75	3975
2026-01-16 09:33:29.20	151.55	18.05	-51.6	-52.7	18.9	0.00e+00	0	48	0	297795584	75	3935
2026-01-16 09:33:30.21	151.55	18.17	-51.6	-52.7	18.9	0.00e+00	0	48	0	298844160	75	3952
2026-01-16 09:33:31.22	151.55	18.29	-51.7	-52.8	18.8	0.00e+00	0	48	0	300941312	75	4002
2026-01-16 09:33:32.23	151.55	18.42	-51.6	-52.7	18.9	0.00e+00	0	48	0	303038464	75	3946
2026-01-16 09:33:33.24	151.55	18.54	-51.5	-52.6	19.0	0.00e+00	0	48	0	305135616	75	3910
2026-01-16 09:33:34.24	151.55	18.67	-51.5	-52.6	19.0	0.00e+00	0	48	0	307232768	75	3902
2026-01-16 09:33:35.25	151.55	18.79	-51.5	-52.6	19.0	0.00e+00	0	48	0	308281344	75	3896
2026-01-16 09:33:36.26	151.55	18.92	-51.5	-52.6	19.0	0.00e+00	0	48	0	310378496	75	3896
2026-01-16 09:33:37.27	151.55	19.05	-51.5	-52.7	19.0	0.00e+00	0	48	0	312475648	75	3918
2026-01-16 09:33:38.27	151.55	19.17	-51.4	-52.4	19.2	0.00e+00	0	48	0	314572800	74	4047
2026-01-16 09:33:39.28	151.55	19.30	-51.5	-52.6	19.0	0.00e+00	0	48	0	315621376	74	4129
2026-01-16 09:33:40.29	151.55	19.43	-51.5	-52.6	19.1	0.00e+00	0	48	0	317718528	74	4114
2026-01-16 09:33:41.30	151.55	19.56	-51.4	-52.5	19.2	0.00e+00	0	48	0	319815680	74	4077
2026-01-16 09:33:42.31	151.55	19.69	-51.5	-52.6	19.1	0.00e+00	0	48	0	321912832	74	4116
2026-01-16 09:33:43.32	151.55	19.82	-51.4	-52.4	19.2	0.00e+00	0	48	0	324009984	74	4036
2026-01-16 09:33:44.32	151.55	19.95	-51.4	-52.4	19.3	0.00e+00	0	48	0	326107136	74	4035
2026-01-16 09:33:45.33	151.55	20.08	-51.4	-52.5	19.2	0.00e+00	0	48	0	327155712	74	4056
2026-01-16 09:33:46.34	151.55	20.22	-51.3	-52.4	19.3	0.00e+00	0	48	0	329252864	74	4018
2026-01-16 09:33:47.35	151.55	20.35	-51.3	-52.4	19.3	0.00e+00	0	48	0	331350016	74	4013
2026-01-16 09:33:48.35	151.55	20.49	-51.3	-52.3	19.4	0.00e+00	0	48	0	333447168	74	3999
2026-01-16 09:33:49.36	151.55	20.62	-51.2	-52.2	19.5	0.00e+00	0	48	0	335544320	74	3947
2026-01-16 09:33:50.37	151.55	20.76	-51.3	-52.3	19.4	0.00e+00	0	48	0	336592896	74	3977
2026-01-16 09:33:51.38	151.55	20.89	-51.3	-52.4	19.3	0.00e+00	0	48	0	338690048	74	4013
2026-01-16 09:33:52.39	151.55	21.03	-51.3	-52.4	19.4	0.00e+00	0	48	0	340787200	74	4008
2026-01-16 09:33:53.40	151.55	21.17	-51.2	-52.2	19.5	0.00e+00	0	48	0	342884352	74	3924
2026-01-16 09:33:54.40	151.55	21.31	-51.3	-52.3	19.4	0.00e+00	0	48	0	343932928	74	3992
2026-01-16 09:33:55.41	151.55	21.45	-51.1	-52.1	19.6	0.00e+00	0	48	0	346030080	74	3900
2026-01-16 09:33:56.41	151.55	21.59	-51.2	-52.2	19.6	0.00e+00	0	48	0	348127232	74	3920
2026-01-16 09:33:57.42	151.55	21.73	-51.2	-52.2	19.6	0.00e+00	0	48	0	350224384	74	3915
2026-01-16 09:33:58.43	151.55	21.87	-51.1	-52.1	19.6	0.00e+00	0	48	0	352321536	74	3889
2026-01-16 09:33:59.44	151.55	22.01	-51.2	-52.2	19.5	0.00e+00	0	48	0	354418688	74	3922
2026-01-16 09:34:00.42	151.55	22.15	-51.1	-52.1	19.7	0.00e+00	0	48	0	355467264	74	3874
2026-01-16 09:34:01.43	151.55	22.30	-51.1	-52.1	19.6	0.00e+00	0	48	0	357564416	74	3895
2026-01-16 09:34:02.43	151.55	22.44	-51.2	-52.2	19.6	0.00e+00	0	48	0	359661568	74	3924
2026-01-16 09:34:03.44	151.55	22.59	-51.1	-52.1	19.7	0.00e+00	0	48	0	361758720	74	3889
2026-01-16 09:34:04.45	151.54	22.74	-51.1	-52.1	19.6	0.00e+00	0	48	0	363855872	74	3895
2026-01-16 09:34:05.46	151.54	22.89	-51.1	-52.0	19.7	0.00e+00	0	48	0	364904448	74	3859
2026-01-16 09:34:06.47	151.54	23.03	-51.0	-51.9	19.8	0.00e+00	0	48	0	367001600	74	3822
2026-01-16 09:34:07.48	151.54	23.18	-51.0	-51.9	19.8	0.00e+00	0	48	0	369098752	74	3824
2026-01-16 09:34:08.48	151.54	23.33	-51.0	-52.0	19.8	0.00e+00	0	48	0	371195904	74	3845
2026-01-16 09:34:09.49	151.54	23.48	-51.2	-52.1	19.6	0.00e+00	0	48	0	372244480	74	3913
2026-01-16 09:34:10.50	151.54	23.64	-51.0	-52.0	19.8	0.00e+00	0	48	0	374341632	74	3838
2026-01-16 09:34:11.51	151.54	23.79	-51.0	-51.9	19.8	0.00e+00	0	48	0	376438784	73	4038
2026-01-16 09:34:12.51	151.54	23.94	-51.0	-51.9	19.9	0.00e+00	0	48	0	378535936	73	4029
2026-01-16 09:34:13.52	151.54	24.10	-51.0	-51.9	19.8	0.00e+00	0	48	0	380633088	73	4046
2026-01-16 09:34:14.53	151.54	24.25	-51.0	-52.0	19.8	0.00e+00	0	48	0	382730240	73	4074
2026-01-16 09:34:15.54	151.54	24.41	-51.1	-52.1	19.7	0.00e+00	0	48	0	383778816	73	4106
2026-01-16 09:34:16.55	151.53	24.57	-51.2	-52.3	19.5	0.00e+00	0	48	0	385875968	73	4194
2026-01-16 09:34:17.56	151.53	24.73	-51.3	-52.3	19.4	0.00e+00	0	48	0	387973120	73	4241
2026-01-16 09:34:18.56	151.53	24.89	-51.2	-52.3	19.5	0.00e+00	0	48	0	390070272	73	4195
2026-01-16 09:34:19.57	151.53	25.05	-51.2	-52.2	19.6	0.00e+00	0	48	0	392167424	73	4147
2026-01-16 09:34:20.58	151.53	25.21	-51.2	-52.2	19.6	0.00e+00	0	48	0	393216000	73	4165
2026-01-16 09:34:21.58	151.53	25.37	-51.2	-52.2	19.6	0.00e+00	0	48	0	395313152	73	4167
2026-01-16 09:34:22.59	151.53	25.53	-51.2	-52.2	19.6	0.00e+00	0	48	0	397410304	73	4163
2026-01-16 09:34:23.60	151.52	25.70	-51.3	-52.3	19.5	0.00e+00	0	48	0	399507456	73	4225
2026-01-16 09:34:24.61	151.52	25.87	-51.4	-52.4	19.4	0.00e+00	0	48	0	401604608	73	4282
2026-01-16 09:34:25.62	151.52	26.03	-51.3	-52.3	19.5	0.00e+00	0	48	0	402653184	73	4234
2026-01-16 09:34:26.63	151.52	26.20	-51.4	-52.5	19.4	0.00e+00	0	48	0	404750336	73	4292
2026-01-16 09:34:27.63	151.52	26.37	-51.5	-52.6	19.2	0.00e+00	0	48	0	406847488	73	4379
2026-01-16 09:34:28.64	151.52	26.54	-51.6	-52.7	19.1	0.00e+00	0	48	0	408944640	73	4411
2026-01-16 09:34:29.65	151.51	26.71	-51.5	-52.6	19.3	0.00e+00	0	48	0	411041792	73	4347
2026-01-16 09:34:30.66	151.51	26.88	-51.6	-52.6	19.2	0.00e+00	0	48	0	412090368	73	4386
2026-01-16 09:34:31.67	151.51	27.05	-51.6	-52.7	19.1	0.00e+00	0	48	0	414187520	73	4414
2026-01-16 09:34:32.68	151.51	27.23	-51.8	-52.9	19.0	0.00e+00	0	48	0	416284672	74	4258
2026-01-16 09:34:33.69	151.51	27.40	-51.9	-53.0	18.8	0.00e+00	0	48	0	418381824	74	4329
2026-01-16 09:34:34.70	151.50	27.58	-51.9	-53.1	18.8	0.00e+00	0	48	0	420478976	74	4363
2026-01-16 09:34:35.70	151.50	27.76	-52.1	-53.3	18.5	0.00e+00	0	49	0	422576128	74	4489
2026-01-16 09:34:36.71	151.50	27.94	-52.2	-53.4	18.5	0.00e+00	0	48	0	423624704	74	4520
2026-01-16 09:34:37.72	151.50	28.12	-52.2	-53.4	18.5	0.00e+00	0	48	0	425721856	75	4275
2026-01-16 09:34:38.73	151.50	28.30	-52.5	-53.8	18.1	0.00e+00	0	49	0	427819008	75	4447
2026-01-16 09:34:39.73	151.49	28.48	-52.6	-54.0	17.9	0.00e+00	0	48	0	429916160	75	4568
2026-01-16 09:34:40.74	151.49	28.66	-52.9	-54.3	17.6	0.00e+00	0	48	0	430964736	76	4476
2026-01-16 09:34:41.75	151.49	28.85	-53.0	-54.5	17.4	0.00e+00	0	48	0	433061888	76	4581
2026-01-16 09:34:42.76	151.49	29.03	-53.3	-54.8	17.1	0.00e+00	0	49	0	435159040	77	4492
2026-01-16 09:34:43.77	151.48	29.22	-53.5	-55.2	16.7	0.00e+00	0	49	0	437256192	77	4701
2026-01-16 09:34:44.78	151.48	29.41	-53.7	-55.4	16.5	0.00e+00	0	49	0	439353344	77	4814
2026-01-16 09:34:45.79	151.48	29.60	-53.7	-55.5	16.5	0.00e+00	0	49	0	440401920	78	4563
2026-01-16 09:34:46.80	151.47	29.79	-53.9	-55.7	16.3	0.00e+00	0	49	0	442499072	78	4699
2026-01-16 09:34:47.81	151.47	29.98	-54.0	-55.9	16.0	0.00e+00	0	49	0	444596224	78	4804
2026-01-16 09:34:48.81	151.47	30.18	-54.0	-56.0	16.0	0.00e+00	0	49	0	446693376	78	4828
2026-01-16 09:34:49.82	151.46	30.37	-54.1	-56.1	15.9	0.00e+00	0	48	0	448790528	78	4884
2026-01-16 09:34:50.83	151.46	30.57	-54.1	-56.1	15.9	0.00e+00	0	48	0	450887680	78	4890
2026-01-16 09:34:51.84	151.46	30.76	-54.1	-56.1	15.9	0.00e+00	0	49	0	451936256	78	4921
2026-01-16 09:34:52.85	151.45	30.96	-54.1	-56.1	15.8	0.00e+00	0	49	0	454033408	79	4639
2026-01-16 09:34:53.86	151.45	31.16	-54.0	-56.0	16.0	0.00e+00	0	48	0	456130560	79	4562
2026-01-16 09:34:54.86	151.45	31.36	-54.0	-55.9	16.0	0.00e+00	0	49	0	458227712	79	4541
2026-01-16 09:34:55.87	151.44	31.57	-54.0	-55.9	16.1	0.00e+00	0	49	0	459276288	79	4511
2026-01-16 09:34:56.88	151.44	31.77	-54.0	-55.9	16.1	0.00e+00	0	49	0	461373440	79	4502
2026-01-16 09:34:57.89	151.44	31.98	-54.0	-56.0	16.0	0.00e+00	0	49	0	463470592	79	4567
2026-01-16 09:34:58.89	151.43	32.18	-54.0	-55.9	16.1	0.00e+00	0	49	0	465567744	79	4517
2026-01-16 09:34:59.90	151.43	32.39	-54.0	-55.9	16.1	0.00e+00	0	49	0	467664896	79	4502
2026-01-16 09:35:00.91	151.42	32.60	-53.9	-55.7	16.3	0.00e+00	0	49	0	469762048	79	4428
2026-01-16 09:35:01.92	151.42	32.82	-53.8	-55.6	16.4	0.00e+00	0	49	0	470810624	79	4341
2026-01-16 09:35:02.93	151.41	33.03	-53.6	-55.2	16.8	0.00e+00	0	49	0	472907776	79	4191
2026-01-16 09:35:03.94	151.41	33.24	-53.5	-55.1	16.9	0.00e+00	0	49	0	475004928	78	4370
2026-01-16 09:35:04.94	151.41	33.46	-53.3	-54.9	17.1	0.00e+00	0	49	0	477102080	78	4254
2026-01-16 09:35:05.95	151.40	33.68	-53.2	-54.7	17.2	0.00e+00	0	49	0	479199232	78	4178
2026-01-16 09:35:06.96	151.40	33.90	-52.9	-54.3	17.7	0.00e+00	0	49	0	480247808	77	4224
2026-01-16 09:35:07.97	151.39	34.12	-52.8	-54.2	17.8	0.00e+00	0	49	0	482344960	77	4155
2026-01-16 09:35:08.98	151.39	34.34	-52.4	-53.7	18.3	0.00e+00	0	49	0	484442112	76	4173
2026-01-16 09:35:09.98	151.38	34.56	-52.2	-53.4	18.6	0.00e+00	0	49	0	486539264	76	4029
2026-01-16 09:35:10.99	151.38	34.79	-52.1	-53.3	18.7	0.00e+00	0	49	0	487587840	76	3970
2026-01-16 09:35:12.00	151.37	35.02	-51.7	-52.8	19.1	0.00e+00	0	49	0	489684992	75	3998
2026-01-16 09:35:13.01	151.36	35.25	-51.3	-52.2	19.7	0.00e+00	0	49	0	491782144	74	3947
2026-01-16 09:35:14.02	151.36	35.48	-51.1	-52.1	19.9	0.00e+00	0	49	0	493879296	74	3883
2026-01-16 09:35:15.02	151.35	35.71	-50.9	-51.8	20.1	0.00e+00	0	49	0	495976448	73	3992
2026-01-16 09:35:16.04	151.35	35.94	-50.7	-51.6	20.3	0.00e+00	0	49	0	498073600	73	3889
2026-01-16 09:35:17.04	151.34	36.18	-50.5	-51.3	20.6	0.00e+00	0	49	0	499122176	73	3768
2026-01-16 09:35:18.05	151.33	36.41	-50.5	-51.3	20.6	0.00e+00	0	49	0	501219328	72	3989
2026-01-16 09:35:19.06	151.33	36.65	-50.7	-51.5	20.4	0.00e+00	0	49	0	503316480	72	4082
2026-01-16 09:35:20.07	151.32	36.90	-50.5	-51.3	20.6	0.00e+00	0	49	0	505413632	72	3985
2026-01-16 09:35:21.08	151.31	37.14	-50.5	-51.3	20.6	0.00e+00	0	49	0	507510784	72	4004
2026-01-16 09:35:22.08	151.31	37.38	-50.4	-51.2	20.7	0.00e+00	0	49	0	508559360	72	3942
2026-01-16 09:35:23.09	151.30	37.63	-50.2	-51.0	21.0	0.00e+00	0	49	0	510656512	72	3825
2026-01-16 09:35:24.10	151.29	37.88	-50.1	-50.9	21.0	0.00e+00	0	49	0	512753664	72	3797
2026-01-16 09:35:25.11	151.29	38.13	-50.2	-51.0	20.9	0.00e+00	0	49	0	514850816	72	3826
2026-01-16 09:35:26.12	151.28	38.38	-50.1	-50.8	21.1	0.00e+00	0	49	0	516947968	72	3765
2026-01-16 09:35:27.13	151.27	38.63	-50.1	-50.8	21.1	0.00e+00	0	49	0	517996544	72	3760
2026-01-16 09:35:28.13	151.26	38.89	-50.1	-50.8	21.1	0.00e+00	0	49	0	520093696	72	3755
2026-01-16 09:35:29.14	151.25	39.14	-50.0	-50.7	21.1	0.00e+00	0	49	0	522190848	72	3736
2026-01-16 09:35:30.15	151.25	39.40	-50.2	-50.9	21.1	0.00e+00	0	49	0	524288000	71	4032
2026-01-16 09:35:31.16	151.24	39.67	-50.2	-51.0	21.0	0.00e+00	0	49	0	526385152	71	4058
2026-01-16 09:35:32.17	151.23	39.93	-50.3	-51.0	20.9	0.00e+00	0	49	0	527433728	71	4082
2026-01-16 09:35:33.17	151.22	40.19	-50.4	-51.2	20.9	0.00e+00	0	49	0	529530880	71	4158
2026-01-16 09:35:34.18	151.21	40.46	-50.3	-51.1	20.9	0.00e+00	0	49	0	531628032	71	4110
2026-01-16 09:35:35.19	151.20	40.73	-50.4	-51.2	20.8	0.00e+00	0	49	0	533725184	71	4163
2026-01-16 09:35:36.20	151.19	41.00	-50.5	-51.3	20.7	0.00e+00	0	49	0	535822336	71	4219
2026-01-16 09:35:37.21	151.18	41.28	-50.7	-51.5	20.5	0.00e+00	0	49	0	536870912	71	4315
2026-01-16 09:35:38.22	151.17	41.55	-50.7	-51.6	20.4	0.00e+00	0	49	0	538968064	72	4113
2026-01-16 09:35:39.23	151.16	41.83	-50.7	-51.5	20.4	0.00e+00	0	49	0	541065216	72	4083
2026-01-16 09:35:40.24	151.15	42.11	-50.9	-51.7	20.2	0.00e+00	0	49	0	543162368	72	4193
2026-01-16 09:35:41.25	151.14	42.39	-50.9	-51.8	20.2	0.00e+00	0	49	0	545259520	72	4212
2026-01-16 09:35:42.25	151.13	42.67	-50.9	-51.8	20.1	0.00e+00	0	49	0	546308096	72	4239
2026-01-16 09:35:43.26	151.12	42.96	-51.0	-51.9	20.1	0.00e+00	0	49	0	548405248	72	4263
2026-01-16 09:35:44.27	151.11	43.25	-50.7	-51.6	20.4	0.00e+00	0	49	0	550502400	72	4119
2026-01-16 09:35:45.28	151.10	43.54	-50.7	-51.5	20.5	0.00e+00	0	49	0	552599552	72	4066
2026-01-16 09:35:46.29	151.08	43.83	-50.8	-51.6	20.4	0.00e+00	0	49	0	554696704	72	4130
2026-01-16 09:35:47.29	151.07	44.13	-50.7	-51.6	20.4	0.00e+00	0	49	0	555745280	72	4106
2026-01-16 09:35:48.30	151.06	44.42	-51.0	-51.9	20.1	0.00e+00	0	49	0	557842432	72	4253
2026-01-16 09:35:49.31	151.05	44.72	-51.4	-52.4	19.6	0.00e+00	0	49	0	559939584	73	4269
2026-01-16 09:35:50.32	151.03	45.03	-52.0	-53.2	18.9	0.00e+00	0	49	0	562036736	74	4393
2026-01-16 09:35:51.33	151.02	45.33	-52.4	-53.7	18.5	0.00e+00	0	49	0	564133888	75	4403
2026-01-16 09:35:52.33	151.01	45.64	-52.7	-54.1	18.0	0.00e+00	0	49	0	565182464	76	4354
2026-01-16 09:35:53.34	150.99	45.94	-53.1	-54.6	17.5	0.00e+00	0	49	0	567279616	76	4639
2026-01-16 09:35:54.35	150.98	46.26	-53.4	-55.0	17.1	0.00e+00	0	49	0	569376768	77	4585
2026-01-16 09:35:55.36	150.96	46.57	-53.8	-55.5	16.7	0.00e+00	0	49	0	571473920	78	4575
2026-01-16 09:35:56.37	150.95	46.89	-54.0	-55.9	16.2	0.00e+00	0	49	0	573571072	78	4792
2026-01-16 09:35:57.37	150.93	47.20	-53.9	-55.7	16.4	0.00e+00	0	49	0	574619648	78	4684
2026-01-16 09:35:58.38	150.91	47.52	-53.9	-55.7	16.5	0.00e+00	0	49	0	576716800	78	4653
2026-01-16 09:35:59.39	150.90	47.85	-53.9	-55.6	16.4	0.00e+00	0	49	0	578813952	78	4643
2026-01-16 09:36:00.40	150.88	48.17	-53.7	-55.4	16.7	0.00e+00	0	49	0	580911104	78	4541
2026-01-16 09:36:01.40	150.86	48.50	-53.5	-55.1	17.1	0.00e+00	0	49	0	583008256	78	4356
2026-01-16 09:36:02.41	150.85	48.83	-53.3	-54.8	17.2	0.00e+00	0	49	0	585105408	78	4242
2026-01-16 09:36:03.41	150.83	49.16	-53.2	-54.7	17.5	0.00e+00	0	49	0	586153984	78	4148
2026-01-16 09:36:04.42	150.81	49.49	-53.3	-54.8	17.3	0.00e+00	0	49	0	588251136	78	4229
2026-01-16 09:36:05.43	150.79	49.83	-53.3	-54.8	17.4	0.00e+00	0	49	0	590348288	78	4211
2026-01-16 09:36:06.44	150.77	50.17	-52.7	-54.1	18.1	0.00e+00	0	49	0	592445440	77	4101
2026-01-16 09:36:07.45	150.75	50.52	-52.2	-53.3	18.8	0.00e+00	0	49	0	593494016	76	4002
2026-01-16 09:36:08.46	150.73	50.86	-51.9	-52.9	19.2	0.00e+00	0	49	0	595591168	75	4040
2026-01-16 09:36:09.46	150.71	51.21	-51.0	-51.9	20.1	0.00e+00	0	49	0	597688320	74	3819
2026-01-16 09:36:10.47	150.68	51.56	-50.5	-51.3	20.7	0.00e+00	0	49	0	599785472	73	3776
2026-01-16 09:36:11.48	150.66	51.91	-50.4	-51.2	20.8	0.00e+00	0	49	0	601882624	72	3917
2026-01-16 09:36:12.49	150.64	52.27	-50.2	-50.9	21.1	0.00e+00	0	49	0	602931200	72	3810
2026-01-16 09:36:13.50	150.61	52.63	-50.3	-51.1	20.9	0.00e+00	0	49	0	605028352	72	3881
2026-01-16 09:36:14.51	150.59	52.99	-50.1	-50.8	21.1	0.00e+00	0	49	0	607125504	72	3778
2026-01-16 09:36:15.51	150.56	53.35	-50.0	-50.7	21.3	0.00e+00	0	49	0	609222656	71	3930
2026-01-16 09:36:16.52	150.54	53.72	-49.7	-50.4	21.6	0.00e+00	0	49	0	611319808	71	3798
2026-01-16 09:36:17.53	150.51	54.09	-49.7	-50.4	21.6	0.00e+00	0	49	0	613416960	71	3806
2026-01-16 09:36:18.54	150.48	54.46	-49.9	-50.6	21.5	0.00e+00	0	49	0	614465536	71	3880
2026-01-16 09:36:19.55	150.45	54.84	-50.2	-50.9	21.2	0.00e+00	0	49	0	616562688	71	4043
2026-01-16 09:36:20.55	150.42	55.21	-50.6	-51.4	20.7	0.00e+00	0	49	0	618659840	71	4286
2026-01-16 09:36:21.56	150.39	55.59	-50.7	-51.6	20.5	0.00e+00	0	49	0	620756992	72	4100
2026-01-16 09:36:22.57	150.36	55.97	-51.1	-52.0	20.1	0.00e+00	0	49	0	621805568	72	4311
2026-01-16 09:36:23.58	150.33	56.36	-51.4	-52.3	19.8	0.00e+00	0	49	0	623902720	73	4227
2026-01-16 09:36:24.59	150.30	56.75	-51.9	-52.9	19.2	0.00e+00	0	49	0	625999872	74	4281
2026-01-16 09:36:25.59	150.26	57.13	-52.6	-53.9	18.3	0.00e+00	0	49	0	628097024	75	4523
2026-01-16 09:36:26.60	150.23	57.53	-53.1	-54.5	17.7	0.00e+00	0	49	0	630194176	76	4577
2026-01-16 09:36:27.61	150.19	57.92	-53.3	-54.8	17.4	0.00e+00	0	49	0	632291328	77	4469
2026-01-16 09:36:28.62	150.15	58.32	-53.6	-55.2	17.0	0.00e+00	0	49	0	633339904	77	4665
2026-01-16 09:36:29.62	150.11	58.72	-53.5	-55.1	17.0	0.00e+00	0	49	0	635437056	77	4614
2026-01-16 09:36:30.63	150.07	59.12	-53.2	-54.6	17.5	0.00e+00	0	49	0	637534208	77	4383
2026-01-16 09:36:31.64	150.03	59.53	-52.8	-54.1	18.1	0.00e+00	0	49	0	639631360	77	4127
2026-01-16 09:36:32.65	149.99	59.94	-52.3	-53.5	18.7	0.00e+00	0	49	0	641728512	76	4058
2026-01-16 09:36:33.66	149.94	60.35	-51.6	-52.6	19.5	0.00e+00	0	49	0	642777088	75	3910
2026-01-16 09:36:34.66	149.90	60.76	-51.1	-52.0	20.1	0.00e+00	0	49	0	644874240	74	3843
2026-01-16 09:36:35.67	149.85	61.18	-50.7	-51.5	20.6	0.00e+00	0	49	0	646971392	73	3828
2026-01-16 09:36:36.68	149.80	61.60	-50.5	-51.3	20.7	0.00e+00	0	49	0	649068544	72	3996
2026-01-16 09:36:37.69	149.75	62.02	-50.6	-51.4	20.6	0.00e+00	0	49	0	650117120	72	4050
2026-01-16 09:36:38.69	149.69	62.45	-50.4	-51.2	20.8	0.00e+00	0	49	0	652214272	72	3944
2026-01-16 09:36:39.70	149.64	62.87	-50.3	-51.0	21.0	0.00e+00	0	49	0	654311424	72	3868
2026-01-16 09:36:40.71	149.58	63.30	-50.0	-50.7	21.3	0.00e+00	0	49	0	656408576	72	3736
2026-01-16 09:36:41.72	149.52	63.74	-49.6	-50.2	21.9	0.00e+00	0	49	0	658505728	71	3731
2026-01-16 09:36:42.73	149.46	64.17	-49.7	-50.4	21.7	0.00e+00	0	49	0	660602880	71	3802
2026-01-16 09:36:43.74	149.39	64.61	-50.3	-51.1	21.1	0.00e+00	0	49	0	661651456	71	4112
2026-01-16 09:36:44.74	149.32	65.05	-51.0	-51.9	20.3	0.00e+00	0	49	0	663748608	72	4252
2026-01-16 09:36:45.75	149.25	65.49	-51.7	-52.7	19.4	0.00e+00	0	49	0	665845760	74	4188
2026-01-16 09:36:46.76	149.18	65.94	-52.3	-53.5	18.7	0.00e+00	0	49	0	667942912	75	4325
2026-01-16 09:36:47.77	149.10	66.39	-52.8	-54.1	18.1	0.00e+00	0	49	0	670040064	76	4361
2026-01-16 09:36:48.78	149.02	66.84	-53.0	-54.4	17.8	0.00e+00	0	49	0	671088640	76	4520
2026-01-16 09:36:49.79	148.94	67.29	-53.0	-54.3	17.9	0.00e+00	0	49	0	673185792	76	4488
2026-01-16 09:36:50.79	148.85	67.74	-53.1	-54.5	17.7	0.00e+00	0	49	0	675282944	76	4563
2026-01-16 09:36:51.80	148.76	68.20	-53.0	-54.3	17.8	0.00e+00	0	49	0	677380096	77	4241
2026-01-16 09:36:52.81	148.66	68.66	-53.1	-54.6	17.7	0.00e+00	0	49	0	679477248	77	4353
2026-01-16 09:36:53.82	148.56	69.12	-53.3	-54.9	17.4	0.00e+00	0	49	0	680525824	77	4494
2026-01-16 09:36:54.83	148.45	69.59	-53.5	-55.1	17.1	0.00e+00	0	49	0	682622976	78	4377
2026-01-16 09:36:55.84	148.34	70.05	-53.5	-55.0	17.2	0.00e+00	0	49	0	684720128	78	4329
2026-01-16 09:36:56.85	148.22	70.52	-53.2	-54.6	17.6	0.00e+00	0	49	0	686817280	78	4124
2026-01-16 09:36:57.86	148.10	70.99	-52.8	-54.2	18.0	0.00e+00	0	49	0	688914432	77	4159
2026-01-16 09:36:58.86	147.97	71.46	-52.8	-54.1	18.2	0.00e+00	0	49	0	689963008	77	4107
2026-01-16 09:36:59.87	147.83	71.94	-52.9	-54.2	18.0	0.00e+00	0	49	0	692060160	77	4189
2026-01-16 09:37:00.88	147.68	72.42	-53.1	-54.6	17.6	0.00e+00	0	49	0	694157312	77	4360
2026-01-16 09:37:01.89	147.52	72.90	-53.6	-55.2	17.2	0.00e+00	0	49	0	696254464	77	4674
2026-01-16 09:37:02.90	147.36	73.38	-54.1	-55.9	16.4	0.00e+00	0	49	0	698351616	78	4774
2026-01-16 09:37:03.91	147.18	73.86	-54.3	-56.3	16.0	0.00e+00	0	49	0	700448768	79	4732
2026-01-16 09:37:04.92	146.99	74.34	-54.8	-57.0	15.2	0.00e+00	0	49	0	701497344	80	4861
2026-01-16 09:37:05.93	146.79	74.83	-55.0	-57.3	14.9	7.00e-07	0	49	0	703594496	80	5037
2026-01-16 09:37:06.93	146.58	75.31	-54.7	-56.8	15.3	0.00e+00	0	49	0	705691648	80	4746
2026-01-16 09:37:07.94	146.34	75.80	-54.3	-56.3	15.8	0.00e+00	0	49	0	707788800	80	4476
2026-01-16 09:37:08.95	146.10	76.30	-54.2	-56.1	16.2	0.00e+00	0	49	0	708837376	80	4356
2026-01-16 09:37:09.96	145.83	76.79	-54.1	-55.9	16.3	0.00e+00	0	49	0	710934528	79	4526
2026-01-16 09:37:10.97	145.54	77.28	-54.5	-56.5	15.8	0.00e+00	0	49	0	713031680	79	4852
2026-01-16 09:37:11.98	145.22	77.78	-54.9	-57.3	14.9	0.00e+00	0	49	0	715128832	80	5024
2026-01-16 09:37:12.98	144.88	78.27	-54.6	-56.8	15.4	0.00e+00	0	49	0	717225984	80	4729
2026-01-16 09:37:13.99	144.51	78.77	-54.3	-56.3	15.9	0.00e+00	0	49	0	718274560	80	4489
2026-01-16 09:37:15.00	144.10	79.26	-53.3	-54.8	17.3	0.00e+00	0	49	0	720371712	78	4225
2026-01-16 09:37:16.01	143.65	79.76	-52.7	-53.9	18.3	0.00e+00	0	49	0	722468864	77	4039
2026-01-16 09:37:17.02	143.16	80.26	-52.3	-53.5	18.7	0.00e+00	0	49	0	724566016	76	4067
2026-01-16 09:37:18.03	142.61	80.76	-51.9	-52.9	19.3	0.00e+00	0	49	0	726663168	75	4047
2026-01-16 09:37:19.04	141.99	81.26	-52.7	-54.0	18.2	0.00e+00	0	49	0	728760320	76	4313
2026-01-16 09:37:20.04	141.30	81.76	-53.9	-55.6	16.7	0.00e+00	0	49	0	729808896	78	4649
2026-01-16 09:37:21.05	140.52	82.26	-54.7	-56.8	15.5	0.00e+00	0	49	0	731906048	79	5018
2026-01-16 09:37:22.06	139.63	82.76	-53.5	-55.0	17.3	0.00e+00	0	49	0	734003200	79	4074
2026-01-16 09:37:23.07	138.60	83.25	-51.9	-52.9	19.3	0.00e+00	0	49	0	736100352	75	4043
2026-01-16 09:37:24.08	137.41	83.75	-50.5	-51.2	20.8	0.00e+00	0	49	0	737148928	73	3731
2026-01-16 09:37:25.09	136.01	84.24	-49.9	-50.6	21.5	0.00e+00	0	49	0	739246080	71	3891
2026-01-16 09:37:26.09	134.36	84.73	-49.7	-50.4	21.8	0.00e+00	0	49	0	741343232	71	3782
2026-01-16 09:37:27.10	132.36	85.22	-49.4	-50.0	22.1	0.00e+00	0	49	0	743440384	70	3839
2026-01-16 09:37:28.11	129.91	85.70	-49.6	-50.2	21.9	0.00e+00	0	49	0	745537536	70	3957
2026-01-16 09:37:29.12	126.85	86.17	-49.9	-50.6	21.5	0.00e+00	0	49	0	747634688	70	4134
2026-01-16 09:37:30.13	122.94	86.62	-50.3	-51.0	21.2	0.00e+00	0	49	0	748683264	71	4081
2026-01-16 09:37:31.13	117.89	87.05	-50.5	-51.2	20.9	0.00e+00	0	49	0	750780416	71	4184
2026-01-16 09:37:32.14	111.11	87.46	-50.7	-51.5	20.6	0.00e+00	0	49	0	752877568	72	4052
2026-01-16 09:37:33.15	101.94	87.82	-50.7	-51.5	20.5	0.00e+00	0	49	0	754974720	72	4053
2026-01-16 09:37:34.16	89.64	88.10	-50.1	-50.8	21.1	0.00e+00	0	49	0	757071872	72	3770
2026-01-16 09:37:35.17	74.09	88.26	-49.7	-50.3	21.5	0.00e+00	0	49	0	758120448	71	3767
2026-01-16 09:37:36.18	56.78	88.29	-49.4	-50.0	21.8	0.00e+00	0	49	0	760217600	70	3837
2026-01-16 09:37:37.19	40.56	88.15	-49.8	-50.5	21.3	0.00e+00	0	49	0	762314752	71	3843
2026-01-16 09:37:38.20	27.38	87.90	-50.4	-51.2	20.7	0.00e+00	0	49	0	764411904	72	3914
2026-01-16 09:37:39.20	17.55	87.56	-51.4	-52.3	20.1	0.00e+00	0	49	0	766509056	73	4239
2026-01-16 09:37:40.21	10.20	87.17	-52.9	-54.3	18.2	0.00e+00	0	49	0	767557632	76	4448
2026-01-16 09:37:41.22	4.71	86.74	-53.1	-54.5	17.9	0.00e+00	0	49	0	769654784	77	4314
2026-01-16 09:37:42.23	0.53	86.29	-51.8	-52.8	19.5	0.00e+00	0	49	0	771751936	75	3997
2026-01-16 09:37:43.24	357.28	85.82	-51.2	-52.1	20.2	0.00e+00	0	49	0	773849088	73	4104
2026-01-16 09:37:44.24	354.71	85.35	-51.1	-52.0	20.2	0.00e+00	0	49	0	775946240	73	4057
2026-01-16 09:37:45.25	352.60	84.86	-50.0	-50.7	21.5	0.00e+00	0	49	0	776994816	71	3947
2026-01-16 09:37:46.26	350.85	84.37	-49.9	-50.5	21.7	0.00e+00	0	49	0	779091968	71	3860
2026-01-16 09:37:47.26	349.40	83.89	-50.5	-51.2	21.0	0.00e+00	0	49	0	781189120	71	4177
2026-01-16 09:37:48.28	348.15	83.39	-51.0	-51.8	20.4	0.00e+00	0	49	0	783286272	72	4241
2026-01-16 09:37:49.28	347.09	82.89	-51.9	-52.9	19.4	0.00e+00	0	49	0	785383424	74	4282
2026-01-16 09:37:50.29	346.17	82.39	-53.3	-54.7	17.6	0.00e+00	0	49	0	786432000	77	4437
2026-01-16 09:37:51.30	345.36	81.89	-53.6	-55.2	17.2	0.00e+00	0	49	0	788529152	78	4428
2026-01-16 09:37:52.31	344.64	81.40	-53.0	-54.4	18.0	0.00e+00	0	49	0	790626304	78	4030
2026-01-16 09:37:53.31	344.01	80.90	-52.4	-53.6	18.7	0.00e+00	0	49	0	792723456	76	4116
2026-01-16 09:37:54.32	343.45	80.40	-50.9	-51.7	20.5	0.00e+00	0	49	0	794820608	73	3931
2026-01-16 09:37:55.33	342.93	79.90	-49.7	-50.3	21.9	0.00e+00	0	49	0	795869184	71	3760
2026-01-16 09:37:56.34	342.47	79.40	-49.9	-50.6	21.7	0.00e+00	0	49	0	797966336	71	3886
2026-01-16 09:37:57.35	342.05	78.91	-50.3	-51.0	21.2	0.00e+00	0	49	0	800063488	71	4092
2026-01-16 09:37:58.36	341.67	78.41	-50.5	-51.3	21.0	0.00e+00	0	49	0	802160640	71	4195
2026-01-16 09:37:59.37	341.32	77.91	-51.5	-52.5	19.8	0.00e+00	0	49	0	804257792	73	4299
2026-01-16 09:38:00.38	341.00	77.42	-52.0	-53.0	19.1	0.00e+00	0	49	0	805306368	74	4334
2026-01-16 09:38:01.39	340.71	76.92	-51.5	-52.4	19.9	0.00e+00	0	49	0	807403520	74	4033
2026-01-16 09:38:02.40	340.43	76.43	-52.0	-53.1	19.4	0.00e+00	0	49	0	809500672	74	4342
2026-01-16 09:38:03.40	340.18	75.94	-52.9	-54.2	18.3	0.00e+00	0	49	0	811597824	76	4399
2026-01-16 09:38:04.41	339.95	75.46	-53.1	-54.5	17.9	0.00e+00	0	49	0	813694976	76	4582
2026-01-16 09:38:05.42	339.73	74.97	-54.1	-55.9	16.5	0.00e+00	0	49	0	814743552	78	4811
2026-01-16 09:38:06.43	339.52	74.48	-53.9	-55.5	16.9	0.00e+00	0	49	0	816840704	79	4337
2026-01-16 09:38:07.44	339.33	74.00	-53.0	-54.3	18.0	0.00e+00	0	49	0	818937856	78	3984
2026-01-16 09:38:08.45	339.15	73.51	-52.9	-54.1	18.2	0.00e+00	0	49	0	821035008	77	4145
2026-01-16 09:38:09.46	338.98	73.03	-53.1	-54.4	17.9	0.00e+00	0	49	0	823132160	77	4283
2026-01-16 09:38:10.46	338.82	72.56	-52.4	-53.5	18.9	0.00e+00	0	49	0	824180736	76	4083
2026-01-16 09:38:11.47	338.67	72.08	-52.5	-53.7	18.6	0.00e+00	0	49	0	826277888	76	4177
2026-01-16 09:38:12.48	338.53	71.61	-52.1	-53.1	19.3	0.00e+00	0	49	0	828375040	76	3902
2026-01-16 09:38:13.49	338.40	71.13	-52.0	-53.0	19.3	0.00e+00	0	49	0	830472192	75	4072
2026-01-16 09:38:14.50	338.27	70.66	-52.8	-54.1	18.4	0.00e+00	0	49	0	832569344	76	4352
2026-01-16 09:38:15.50	338.15	70.20	-53.6	-55.1	17.3	0.00e+00	0	49	0	834666496	77	4626
2026-01-16 09:38:16.51	338.04	69.73	-53.8	-55.4	17.0	0.00e+00	0	49	0	835715072	78	4514
2026-01-16 09:38:17.52	337.93	69.27	-54.3	-56.2	16.3	0.00e+00	0	49	0	837812224	79	4659
2026-01-16 09:38:18.53	337.83	68.80	-54.9	-57.2	15.2	0.00e+00	0	49	0	839909376	80	4944
2026-01-16 09:38:19.54	337.73	68.34	-55.5	-58.3	14.1	0.00e+00	0	49	0	842006528	81	5289
2026-01-16 09:38:20.55	337.64	67.89	-55.5	-58.2	14.1	1.50e-06	0	49	0	843055104	82	4935
2026-01-16 09:38:21.56	337.55	67.43	-54.5	-56.5	15.7	0.00e+00	0	49	0	845152256	81	4338
2026-01-16 09:38:22.57	337.46	66.98	-54.0	-55.6	16.9	0.00e+00	0	49	0	847249408	79	4368
2026-01-16 09:38:23.57	337.38	66.53	-53.9	-55.5	16.9	0.00e+00	0	49	0	849346560	79	4332
2026-01-16 09:38:24.58	337.30	66.08	-53.8	-55.4	17.0	0.00e+00	0	49	0	851443712	79	4282
2026-01-16 09:38:25.59	337.23	65.64	-54.1	-55.9	16.5	0.00e+00	0	49	0	852492288	79	4538
2026-01-16 09:38:26.60	337.16	65.19	-52.6	-53.8	18.6	0.00e+00	0	49	0	854589440	77	3983
2026-01-16 09:38:27.61	337.09	64.75	-50.5	-51.4	20.5	0.00e+00	0	49	0	856686592	73	3810
2026-01-16 09:38:28.62	337.02	64.31	-50.3	-51.1	21.2	0.00e+00	0	49	0	858783744	72	3869
2026-01-16 09:38:29.63	336.96	63.88	-50.3	-51.0	21.3	0.00e+00	0	49	0	860880896	72	3847
2026-01-16 09:38:30.64	336.90	63.45	-49.8	-50.5	21.8	0.00e+00	0	49	0	862978048	71	3828
2026-01-16 09:38:31.64	336.84	63.02	-49.8	-50.4	21.9	0.00e+00	0	49	0	864026624	71	3804
2026-01-16 09:38:32.65	336.78	62.59	-49.9	-50.6	21.7	0.00e+00	0	49	0	866123776	71	3885
2026-01-16 09:38:33.66	336.73	62.17	-49.0	-49.5	22.7	0.00e+00	0	49	0	868220928	70	3635
2026-01-16 09:38:34.67	336.68	61.74	-48.8	-49.3	22.9	0.00e+00	0	49	0	870318080	69	3759
2026-01-16 09:38:35.68	336.63	61.32	-49.7	-50.3	21.9	0.00e+00	0	49	0	871366656	69	4212
2026-01-16 09:38:36.69	336.58	60.91	-51.0	-51.8	20.5	0.00e+00	0	49	0	873463808	72	4237
2026-01-16 09:38:37.69	336.53	60.50	-51.9	-52.9	19.5	0.00e+00	0	49	0	875560960	74	4275
2026-01-16 09:38:38.70	336.49	60.08	-52.3	-53.4	19.0	0.00e+00	0	49	0	877658112	75	4270
2026-01-16 09:38:39.71	336.44	59.67	-52.4	-53.5	18.9	0.00e+00	0	49	0	879755264	75	4331
2026-01-16 09:38:40.72	336.40	59.27	-52.4	-53.5	18.9	0.00e+00	0	49	0	881852416	75	4328
2026-01-16 09:38:41.73	336.36	58.86	-52.8	-54.0	18.4	0.00e+00	0	49	0	882900992	76	4327
2026-01-16 09:38:42.74	336.32	58.46	-53.4	-54.9	17.6	0.00e+00	0	49	0	884998144	77	4534
2026-01-16 09:38:43.75	336.28	58.06	-54.3	-56.1	16.3	0.00e+00	0	49	0	887095296	79	4642
2026-01-16 09:38:44.76	336.25	57.67	-54.8	-57.0	15.4	0.00e+00	0	49	0	889192448	80	4816
2026-01-16 09:38:45.77	336.21	57.27	-54.0	-55.8	16.4	0.00e+00	0	49	0	891289600	80	4199
2026-01-16 09:38:46.78	336.18	56.88	-52.9	-54.1	18.3	0.00e+00	0	49	0	892338176	77	4137
2026-01-16 09:38:47.78	336.14	56.50	-52.3	-53.4	19.0	0.00e+00	0	49	0	894435328	76	4032
2026-01-16 09:38:48.79	336.11	56.11	-51.8	-52.8	19.5	0.00e+00	0	49	0	896532480	75	3994
2026-01-16 09:38:49.80	336.08	55.73	-51.5	-52.4	19.9	0.00e+00	0	49	0	898629632	74	4031
2026-01-16 09:38:50.81	336.05	55.35	-51.3	-52.2	20.2	0.00e+00	0	49	0	900726784	74	3940
2026-01-16 09:38:51.82	336.02	54.97	-51.3	-52.2	20.2	0.00e+00	0	49	0	901775360	74	3930
2026-01-16 09:38:52.82	335.99	54.60	-51.4	-52.3	20.0	0.00e+00	0	49	0	903872512	74	4004
2026-01-16 09:38:53.83	335.96	54.23	-51.7	-52.8	19.6	0.00e+00	0	49	0	905969664	74	4205
2026-01-16 09:38:54.84	335.93	53.86	-51.4	-52.3	20.0	0.00e+00	0	49	0	908066816	74	3991
2026-01-16 09:38:55.85	335.91	53.50	-50.9	-51.7	20.5	0.00e+00	0	49	0	910163968	73	3951
2026-01-16 09:38:56.86	335.88	53.13	-50.6	-51.4	20.9	0.00e+00	0	49	0	911212544	73	3792
2026-01-16 09:38:57.87	335.86	52.77	-50.7	-51.5	20.8	0.00e+00	0	50	0	913309696	73	3848
2026-01-16 09:38:58.88	335.83	52.41	-51.5	-52.5	19.9	0.00e+00	0	49	0	915406848	73	4293
2026-01-16 09:38:59.88	335.81	52.06	-52.5	-53.8	18.6	0.00e+00	0	49	0	917504000	75	4453
2026-01-16 09:39:00.89	335.79	51.71	-52.8	-54.1	18.3	0.00e+00	0	49	0	919601152	76	4365
2026-01-16 09:39:01.90	335.77	51.35	-52.8	-54.1	18.3	0.00e+00	0	49	0	920649728	76	4376
2026-01-16 09:39:02.91	335.74	51.01	-52.6	-53.8	18.6	0.00e+00	0	49	0	922746880	76	4207
2026-01-16 09:39:03.91	335.72	50.66	-52.8	-54.0	18.4	0.00e+00	0	49	0	924844032	76	4317
2026-01-16 09:39:04.92	335.70	50.32	-52.7	-53.9	18.5	0.00e+00	0	49	0	926941184	76	4285
2026-01-16 09:39:05.93	335.68	49.98	-52.7	-53.9	18.5	0.00e+00	0	49	0	929038336	76	4249
2026-01-16 09:39:06.94	335.66	49.64	-52.8	-54.1	18.3	0.00e+00	0	49	0	930086912	76	4361
2026-01-16 09:39:07.95	335.64	49.31	-53.7	-55.3	17.1	0.00e+00	0	49	0	932184064	77	4719
2026-01-16 09:39:08.96	335.63	48.97	-54.8	-57.1	15.2	0.00e+00	0	49	0	934281216	80	4874
2026-01-16 09:39:09.97	335.61	48.64	-56.3	-60.0	12.3	5.72e-05	0	49	0	936378368	83	5738
2026-01-16 09:39:10.97	335.59	48.32	-55.9	-59.2	12.9	3.70e-04	0	49	0	938475520	83	5244
2026-01-16 09:39:11.98	335.57	47.99	-54.1	-56.0	16.2	7.00e-07	0	49	0	939524096	80	4325
2026-01-16 09:39:12.99	335.56	47.67	-53.2	-54.5	17.8	0.00e+00	0	49	0	941621248	78	4092
2026-01-16 09:39:14.00	335.54	47.35	-52.8	-54.1	18.3	0.00e+00	0	49	0	943718400	77	4109
2026-01-16 09:39:15.01	335.53	47.03	-52.4	-53.5	18.7	0.00e+00	0	49	0	945815552	76	4098
2026-01-16 09:39:16.01	335.51	46.72	-52.6	-53.8	18.6	0.00e+00	0	49	0	947912704	76	4220
2026-01-16 09:39:17.02	335.50	46.40	-53.3	-54.7	17.7	0.00e+00	0	49	0	950009856	77	4407
2026-01-16 09:39:18.03	335.48	46.09	-53.5	-55.0	17.4	0.00e+00	0	49	0	951058432	77	4587
2026-01-16 09:39:19.04	335.47	45.78	-54.0	-55.8	16.6	0.00e+00	0	49	0	953155584	78	4726
2026-01-16 09:39:20.05	335.45	45.47	-54.2	-56.1	16.3	0.00e+00	0	49	0	955252736	79	4634
2026-01-16 09:39:21.06	335.44	45.17	-54.2	-56.0	16.3	0.00e+00	0	49	0	957349888	79	4579
2026-01-16 09:39:22.06	335.43	44.87	-53.2	-54.6	17.7	0.00e+00	0	49	0	958398464	78	4127
2026-01-16 09:39:23.07	335.41	44.57	-52.2	-53.3	19.0	0.00e+00	0	49	0	960495616	76	3967
2026-01-16 09:39:24.08	335.40	44.27	-51.3	-52.2	20.0	0.00e+00	0	49	0	962592768	74	3925
2026-01-16 09:39:25.08	335.39	43.98	-51.1	-51.9	20.3	0.00e+00	0	49	0	964689920	74	3824
2026-01-16 09:39:26.09	335.38	43.69	-50.9	-51.7	20.5	0.00e+00	0	49	0	966787072	73	3929
2026-01-16 09:39:27.10	335.37	43.40	-50.9	-51.7	20.5	0.00e+00	0	49	0	967835648	73	3930
2026-01-16 09:39:28.11	335.35	43.11	-51.1	-51.9	20.4	0.00e+00	0	49	0	969932800	73	4025
2026-01-16 09:39:29.11	335.34	42.83	-51.7	-52.7	19.6	0.00e+00	0	49	0	972029952	73	4419
2026-01-16 09:39:30.12	335.33	42.54	-52.5	-53.7	18.5	0.00e+00	0	49	0	974127104	75	4434
2026-01-16 09:39:31.13	335.32	42.26	-53.6	-55.2	17.2	0.00e+00	0	49	0	976224256	77	4684
2026-01-16 09:39:32.14	335.31	41.98	-54.1	-56.0	16.4	0.00e+00	0	49	0	978321408	78	4846
2026-01-16 09:39:33.15	335.30	41.70	-53.9	-55.7	16.5	0.00e+00	0	49	0	979369984	78	4685
2026-01-16 09:39:34.16	335.29	41.43	-53.5	-55.1	17.2	0.00e+00	0	49	0	981467136	78	4349
2026-01-16 09:39:35.17	335.28	41.15	-53.4	-54.9	17.4	0.00e+00	0	49	0	983564288	78	4280
2026-01-16 09:39:36.18	335.27	40.88	-53.0	-54.4	17.8	0.00e+00	0	49	0	985661440	78	4015
2026-01-16 09:39:37.19	335.26	40.61	-52.7	-53.9	18.3	0.00e+00	0	49	0	986710016	77	4045
2026-01-16 09:39:38.20	335.25	40.34	-52.7	-53.9	18.3	0.00e+00	0	49	0	988807168	77	4045
2026-01-16 09:39:39.20	335.25	40.08	-52.6	-53.8	18.5	0.00e+00	0	50	0	990904320	76	4213
2026-01-16 09:39:40.21	335.24	39.82	-52.9	-54.3	18.1	0.00e+00	0	49	0	993001472	76	4452
2026-01-16 09:39:41.22	335.23	39.56	-53.4	-54.9	17.3	0.00e+00	0	49	0	995098624	77	4534
2026-01-16 09:39:42.23	335.22	39.30	-54.1	-55.9	16.4	0.00e+00	0	49	0	997195776	78	4813
2026-01-16 09:39:43.23	335.21	39.04	-54.7	-57.0	14.8	0.00e+00	0	49	0	998244352	80	4852
2026-01-16 09:39:44.24	335.21	38.79	-55.4	-58.1	13.7	2.20e-06	0	49	0	1000341504	81	5198
2026-01-16 09:39:45.25	335.20	38.53	-55.8	-58.9	13.2	1.14e-05	0	49	0	1002438656	82	5341
2026-01-16 09:39:46.26	335.19	38.28	-55.6	-58.6	13.6	6.10e-06	0	49	0	1004535808	82	5186
2026-01-16 09:39:47.27	335.18	38.03	-55.3	-57.9	14.3	2.20e-06	0	50	0	1006632960	82	4806
2026-01-16 09:39:48.27	335.18	37.78	-54.8	-57.0	15.2	0.00e+00	0	50	0	1007681536	81	4577
2026-01-16 09:39:49.28	335.17	37.54	-54.5	-56.6	15.6	0.00e+00	0	49	0	1009778688	81	4360
2026-01-16 09:39:50.29	335.16	37.29	-54.3	-56.2	15.9	0.00e+00	0	50	0	1011875840	80	4431
2026-01-16 09:39:51.30	335.16	37.05	-54.0	-55.7	16.6	0.00e+00	0	49	0	1013972992	79	4404
2026-01-16 09:39:52.31	335.15	36.81	-53.4	-54.9	17.4	0.00e+00	0	50	0	1016070144	78	4254
2026-01-16 09:39:53.32	335.14	36.57	-53.2	-54.6	17.7	0.00e+00	0	49	0	1017118720	78	4114
2026-01-16 09:39:54.33	335.14	36.33	-53.2	-54.6	17.7	0.00e+00	0	50	0	1019215872	78	4129
2026-01-16 09:39:55.33	335.13	36.10	-53.4	-54.9	17.4	0.00e+00	0	49	0	1021313024	78	4267
2026-01-16 09:39:56.34	335.13	35.86	-53.6	-55.2	17.1	0.00e+00	0	50	0	1023410176	78	4397
2026-01-16 09:39:57.35	335.12	35.63	-53.9	-55.6	16.7	0.00e+00	0	50	0	1025507328	78	4599
2026-01-16 09:39:58.36	335.12	35.40	-54.3	-56.2	16.1	0.00e+00	0	50	0	1026555904	79	4658
2026-01-16 09:39:59.37	335.11	35.17	-54.7	-56.8	15.5	0.00e+00	0	49	0	1028653056	79	5020
2026-01-16 09:40:00.38	335.10	34.94	-55.1	-57.5	14.6	0.00e+00	0	49	0	1030750208	80	5146
2026-01-16 09:40:01.38	335.10	34.72	-55.5	-58.3	13.8	1.50e-06	0	49	0	1032847360	81	5340
2026-01-16 09:40:02.39	335.09	34.50	-55.9	-59.2	13.0	2.51e-05	0	50	0	1034944512	82	5550
2026-01-16 09:40:03.40	335.09	34.27	-56.2	-59.8	12.3	1.01e-04	0	50	0	1035993088	83	5645
2026-01-16 09:40:04.41	335.09	34.05	-56.4	-60.2	11.9	2.59e-04	0	50	0	1038090240	83	5857
2026-01-16 09:40:05.42	335.08	33.83	-56.2	-59.8	12.2	2.62e-04	0	49	0	1040187392	83	5634
2026-01-16 09:40:06.43	335.08	33.62	-56.1	-59.6	12.5	1.10e-04	0	49	0	1042284544	83	5470
2026-01-16 09:40:07.44	335.07	33.40	-55.7	-58.6	13.5	3.05e-05	0	50	0	1044381696	83	4923
2026-01-16 09:40:08.44	335.07	33.19	-55.4	-58.0	14.1	3.80e-06	0	49	0	1045430272	82	4845
2026-01-16 09:40:09.45	335.06	32.97	-54.9	-57.2	14.9	0.00e+00	0	49	0	1047527424	81	4691
2026-01-16 09:40:10.46	335.06	32.76	-54.5	-56.6	15.6	0.00e+00	0	49	0	1049624576	81	4344
2026-01-16 09:40:11.47	335.06	32.55	-54.2	-56.1	16.1	0.00e+00	0	49	0	1051721728	80	4356
2026-01-16 09:40:12.48	335.05	32.34	-53.9	-55.6	16.7	0.00e+00	0	50	0	1053818880	79	4343
2026-01-16 09:40:13.48	335.05	32.14	-53.8	-55.4	16.8	0.00e+00	0	50	0	1054867456	79	4291
2026-01-16 09:40:14.49	335.04	31.93	-53.5	-55.1	17.1	0.00e+00	0	50	0	1056964608	79	4122
2026-01-16 09:40:15.50	335.04	31.73	-53.5	-55.0	17.2	0.00e+00	0	50	0	1059061760	78	4329
2026-01-16 09:40:16.51	335.04	31.52	-53.5	-55.0	17.2	0.00e+00	0	49	0	1061158912	78	4337
2026-01-16 09:40:17.51	335.03	31.32	-53.7	-55.3	16.9	0.00e+00	0	49	0	1063256064	78	4489
2026-01-16 09:40:18.52	335.03	31.12	-54.0	-55.8	16.4	0.00e+00	0	49	0	1064304640	78	4759
2026-01-16 09:40:19.53	335.03	30.92	-54.3	-56.3	15.9	0.00e+00	0	49	0	1066401792	79	4710
2026-01-16 09:40:20.54	335.02	30.73	-54.6	-56.8	15.4	0.00e+00	0	49	0	1068498944	79	4987
2026-01-16 09:40:21.55	335.02	30.53	-54.8	-57.0	15.0	7.00e-07	0	49	0	1070596096	80	4856
2026-01-16 09:40:22.56	335.02	30.34	-54.9	-57.3	14.7	0.00e+00	0	49	0	1072693248	80	5033
2026-01-16 09:40:23.56	335.02	30.14	-55.1	-57.6	14.5	1.50e-06	0	49	0	1073741824	80	5169
2026-01-16 09:40:24.57	335.01	29.95	-55.1	-57.6	14.5	2.20e-06	0	49	0	1075838976	80	5178
2026-01-16 09:40:25.58	335.01	29.76	-55.1	-57.7	14.4	7.00e-07	0	50	0	1077936128	80	5231
2026-01-16 09:40:26.59	335.01	29.57	-55.0	-57.5	14.6	7.00e-07	0	50	0	1080033280	80	5120
2026-01-16 09:40:27.60	335.00	29.38	-55.1	-57.6	14.5	0.00e+00	0	50	0	1082130432	80	5180
2026-01-16 09:40:28.60	335.00	29.20	-54.9	-57.3	14.8	0.00e+00	0	50	0	1084227584	80	5001
2026-01-16 09:40:29.61	335.00	29.01	-54.4	-56.6	15.5	0.00e+00	0	50	0	1085276160	80	4608
2026-01-16 09:40:30.62	335.00	28.83	-54.2	-56.2	15.9	0.00e+00	0	49	0	1087373312	80	4414
2026-01-16 09:40:31.63	335.00	28.64	-53.9	-55.7	16.4	0.00e+00	0	50	0	1089470464	79	4438
2026-01-16 09:40:32.64	334.99	28.46	-53.8	-55.6	16.5	0.00e+00	0	49	0	1091567616	79	4368
2026-01-16 09:40:33.64	334.99	28.28	-53.6	-55.3	16.9	0.00e+00	0	50	0	1092616192	79	4205
2026-01-16 09:40:34.65	334.99	28.10	-53.3	-54.8	17.3	0.00e+00	0	50	0	1094713344	78	4237
2026-01-16 09:40:35.66	334.99	27.92	-53.2	-54.6	17.5	0.00e+00	0	49	0	1096810496	78	4124
2026-01-16 09:40:36.67	334.99	27.74	-53.0	-54.4	17.7	0.00e+00	0	49	0	1098907648	78	4026
2026-01-16 09:40:37.67	334.98	27.57	-52.7	-54.0	18.1	0.00e+00	0	49	0	1101004800	77	4091
2026-01-16 09:40:38.68	334.98	27.39	-52.6	-53.9	18.2	0.00e+00	0	49	0	1102053376	77	4013
2026-01-16 09:40:39.69	334.98	27.22	-52.3	-53.5	18.5	0.00e+00	0	49	0	1104150528	76	4086
2026-01-16 09:40:40.70	334.98	27.05	-52.1	-53.2	18.9	0.00e+00	0	49	0	1106247680	76	3930
2026-01-16 09:40:41.71	334.98	26.87	-51.9	-53.0	19.1	0.00e+00	0	49	0	1108344832	75	4070
2026-01-16 09:40:42.71	334.98	26.70	-51.9	-53.0	19.1	0.00e+00	0	49	0	1110441984	75	4068
2026-01-16 09:40:43.72	334.97	26.53	-52.0	-53.1	19.0	0.00e+00	0	49	0	1112539136	75	4121
2026-01-16 09:40:44.73	334.97	26.36	-51.9	-53.0	19.1	0.00e+00	0	50	0	1113587712	75	4057
2026-01-16 09:40:45.74	334.97	26.20	-51.9	-53.0	19.0	0.00e+00	0	49	0	1115684864	75	4096
2026-01-16 09:40:46.75	334.97	26.03	-52.0	-53.1	18.9	0.00e+00	0	50	0	1117782016	75	4131
2026-01-16 09:40:47.76	334.97	25.86	-51.9	-53.0	19.0	0.00e+00	0	50	0	1119879168	75	4093
2026-01-16 09:40:48.76	334.97	25.70	-52.0	-53.1	18.9	0.00e+00	0	50	0	1120927744	75	4137
2026-01-16 09:40:49.77	334.97	25.54	-52.0	-53.2	18.8	0.00e+00	0	49	0	1123024896	75	4169
2026-01-16 09:40:50.78	334.97	25.37	-52.1	-53.3	18.8	0.00e+00	0	50	0	1125122048	75	4208
2026-01-16 09:40:51.79	334.97	25.21	-52.2	-53.5	18.6	0.00e+00	0	49	0	1127219200	75	4292
2026-01-16 09:40:52.80	334.96	25.05	-52.2	-53.4	18.6	0.00e+00	0	49	0	1129316352	75	4286
2026-01-16 09:40:53.81	334.96	24.89	-52.2	-53.4	18.6	0.00e+00	0	50	0	1131413504	75	4275
2026-01-16 09:40:54.81	334.96	24.74	-52.1	-53.3	18.7	0.00e+00	0	50	0	1132462080	75	4207
2026-01-16 09:40:55.82	334.96	24.58	-51.9	-53.1	18.9	0.00e+00	0	50	0	1134559232	75	4114
2026-01-16 09:40:56.83	334.96	24.42	-51.9	-53.0	19.0	0.00e+00	0	50	0	1136656384	75	4096
2026-01-16 09:40:57.84	334.96	24.26	-51.7	-52.8	19.2	0.00e+00	0	49	0	1138753536	75	3985
2026-01-16 09:40:58.84	334.96	24.11	-51.8	-52.9	19.1	0.00e+00	0	49	0	1140850688	75	4008
2026-01-16 09:40:59.85	334.96	23.96	-51.5	-52.5	19.4	0.00e+00	0	49	0	1141899264	75	3868
2026-01-16 09:41:00.86	334.96	23.80	-51.3	-52.3	19.7	0.00e+00	0	49	0	1143996416	74	3974
2026-01-16 09:41:01.87	334.96	23.65	-51.3	-52.3	19.7	0.00e+00	0	49	0	1146093568	74	3987
2026-01-16 09:41:02.88	334.96	23.50	-51.3	-52.3	19.6	0.00e+00	0	49	0	1148190720	74	3987
2026-01-16 09:41:03.88	334.96	23.35	-51.3	-52.3	19.6	0.00e+00	0	49	0	1149239296	74	3989
2026-01-16 09:41:04.89	334.96	23.20	-50.9	-51.8	20.1	0.00e+00	0	50	0	1151336448	73	3981
2026-01-16 09:41:05.90	334.96	23.05	-50.8	-51.7	20.3	0.00e+00	0	49	0	1153433600	73	3916
2026-01-16 09:41:06.91	334.96	22.90	-50.6	-51.4	20.5	0.00e+00	0	49	0	1155530752	73	3802
2026-01-16 09:41:07.91	334.96	22.76	-50.5	-51.3	20.6	0.00e+00	0	49	0	1157627904	73	3758
2026-01-16 09:41:08.92	334.96	22.61	-50.6	-51.4	20.5	0.00e+00	0	49	0	1159725056	72	4032
2026-01-16 09:41:09.93	334.96	22.47	-50.5	-51.3	20.5	0.00e+00	0	50	0	1160773632	72	4002
2026-01-16 09:41:10.94	334.96	22.32	-50.5	-51.4	20.5	0.00e+00	0	50	0	1162870784	72	4013
2026-01-16 09:41:11.95	334.96	22.18	-50.6	-51.5	20.4	0.00e+00	0	49	0	1164967936	72	4053
2026-01-16 09:41:12.95	334.96	22.04	-50.6	-51.4	20.4	0.00e+00	0	49	0	1167065088	72	4037
2026-01-16 09:41:13.96	334.96	21.89	-50.5	-51.4	20.5	0.00e+00	0	49	0	1169162240	72	4013
2026-01-16 09:41:14.97	334.96	21.75	-50.5	-51.4	20.5	0.00e+00	0	49	0	1170210816	72	4008
2026-01-16 09:41:15.98	334.96	21.61	-50.5	-51.4	20.5	0.00e+00	0	50	0	1172307968	72	4016
2026-01-16 09:41:16.99	334.96	21.47	-50.7	-51.5	20.3	0.00e+00	0	49	0	1174405120	72	4091
2026-01-16 09:41:18.00	334.96	21.33	-50.6	-51.4	20.4	0.00e+00	0	49	0	1176502272	72	4048
2026-01-16 09:41:19.00	334.96	21.20	-50.7	-51.5	20.3	0.00e+00	0	50	0	1178599424	72	4097
2026-01-16 09:41:20.01	334.96	21.06	-50.7	-51.6	20.3	0.00e+00	0	49	0	1179648000	72	4109
2026-01-16 09:41:21.02	334.96	20.92	-50.8	-51.7	20.2	0.00e+00	0	50	0	1181745152	72	4154
2026-01-16 09:41:22.03	334.96	20.79	-50.8	-51.6	20.2	0.00e+00	0	49	0	1183842304	72	4136
2026-01-16 09:41:23.03	334.96	20.65	-50.8	-51.7	20.2	0.00e+00	0	49	0	1185939456	72	4168
2026-01-16 09:41:24.04	334.96	20.52	-51.0	-51.9	19.9	0.00e+00	0	50	0	1188036608	72	4281
2026-01-16 09:41:25.05	334.96	20.38	-51.0	-51.9	19.9	0.00e+00	0	50	0	1189085184	72	4263
2026-01-16 09:41:26.06	334.96	20.25	-51.1	-52.1	19.8	0.00e+00	0	50	0	1191182336	72	4348
2026-01-16 09:41:27.07	334.96	20.12	-51.1	-52.1	19.7	0.00e+00	0	50	0	1193279488	72	4374
2026-01-16 09:41:28.08	334.96	19.99	-51.2	-52.2	19.6	0.00e+00	0	49	0	1195376640	73	4185
2026-01-16 09:41:29.08	334.96	19.86	-51.3	-52.3	19.5	0.00e+00	0	49	0	1197473792	73	4212
2026-01-16 09:41:30.09	334.96	19.73	-51.3	-52.3	19.5	0.00e+00	0	50	0	1198522368	73	4242
2026-01-16 09:41:31.10	334.96	19.60	-51.4	-52.4	19.4	0.00e+00	0	49	0	1200619520	73	4273
2026-01-16 09:41:32.11	334.96	19.47	-51.5	-52.6	19.3	0.00e+00	0	49	0	1202716672	73	4360
2026-01-16 09:41:33.11	334.96	19.34	-51.4	-52.5	19.3	0.00e+00	0	49	0	1204813824	73	4318
2026-01-16 09:41:34.12	334.96	19.21	-51.5	-52.6	19.3	7.00e-07	0	49	0	1206910976	73	4358
2026-01-16 09:41:35.13	334.96	19.08	-51.6	-52.7	19.1	0.00e+00	0	50	0	1207959552	73	4414
2026-01-16 09:41:36.14	334.97	18.96	-51.6	-52.7	19.2	0.00e+00	0	49	0	1210056704	73	4393
2026-01-16 09:41:37.15	334.97	18.83	-51.4	-52.5	19.3	0.00e+00	0	50	0	1212153856	73	4319
2026-01-16 09:41:38.16	334.97	18.71	-51.4	-52.5	19.3	0.00e+00	0	49	0	1214251008	73	4309
2026-01-16 09:41:39.16	334.97	18.58	-51.5	-52.5	19.3	0.00e+00	0	49	0	1216348160	73	4335
2026-01-16 09:41:40.17	334.97	18.46	-51.4	-52.5	19.3	0.00e+00	0	49	0	1217396736	73	4318
2026-01-16 09:41:41.18	334.97	18.34	-51.5	-52.6	19.2	0.00e+00	0	49	0	1219493888	73	4373
2026-01-16 09:41:42.19	334.97	18.21	-51.5	-52.6	19.3	0.00e+00	0	49	0	1221591040	73	4342
2026-01-16 09:41:43.19	334.97	18.09	-51.4	-52.5	19.3	0.00e+00	0	50	0	1223688192	73	4320
2026-01-16 09:41:44.20	334.97	17.97	-51.4	-52.4	19.4	0.00e+00	0	49	0	1225785344	73	4267
2026-01-16 09:41:45.21	334.97	17.85	-51.4	-52.4	19.3	0.00e+00	0	49	0	1227882496	73	4272
2026-01-16 09:41:46.22	334.97	17.73	-51.4	-52.5	19.3	0.00e+00	0	49	0	1228931072	73	4315
2026-01-16 09:41:47.23	334.98	17.61	-51.4	-52.5	19.3	0.00e+00	0	49	0	1231028224	73	4296
2026-01-16 09:41:48.23	334.98	17.49	-51.4	-52.5	19.3	0.00e+00	0	49	0	1233125376	73	4304
2026-01-16 09:41:49.24	334.98	17.37	-51.5	-52.6	19.2	0.00e+00	0	50	0	1235222528	73	4352
2026-01-16 09:41:50.25	334.98	17.26	-51.4	-52.5	19.2	0.00e+00	0	49	0	1236271104	73	4310
2026-01-16 09:41:51.26	334.98	17.14	-51.6	-52.7	19.1	0.00e+00	0	49	0	1238368256	73	4393
2026-01-16 09:41:52.27	334.98	17.02	-51.5	-52.6	19.1	0.00e+00	0	49	0	1240465408	73	4378
2026-01-16 09:41:53.27	334.98	16.91	-51.5	-52.6	19.1	0.00e+00	0	49	0	1242562560	73	4367
2026-01-16 09:41:54.28	334.98	16.79	-51.5	-52.6	19.1	0.00e+00	0	50	0	1244659712	73	4362
