passes_logs/2026/01/16/R3.2S_Murmansk/R3.2S_Murmansk__20260116_151400_FENGYUN_3D_rec.log

#Pass ID: 20260116_151400_FENGYUN 3D
#Satellite: FENGYUN 3D
#Configuration: FENGYUN 3D
#almurnet v.1.7.20251203
#Start time: 2026-01-16 15:13:59

#Version: 2.2.20231116
#Station: R3.2S_Murmansk
#Location: 33.079688 lon 68.888172 lat
#TLE: 1 43010U 17072A   26015.99024095 -.00000189  00000+0 -67463-4 0  9996
#TLE: 2 43010  98.9932 347.8215 0002366 106.5594 253.5841 14.19694691423396

#Time	Az	El	Level	Level2	SNR	BER	BlckErr	Temp	State	Recorded	gain1	gain2
2026-01-16 15:13:59.90	248.35	1.97	-51.9	-63.9	3.8	8.47e-01	0	31	0	0	75	14321
2026-01-16 15:14:00.91	248.45	2.02	-51.9	-63.9	3.8	8.46e-01	0	31	104	0	74	15167
2026-01-16 15:14:01.92	248.56	2.06	-51.9	-63.9	3.8	8.46e-01	0	31	104	0	74	15175
2026-01-16 15:14:02.92	248.66	2.10	-51.9	-63.9	3.8	8.46e-01	0	31	104	0	74	15106
2026-01-16 15:14:03.93	248.77	2.14	-51.9	-63.9	3.8	8.46e-01	0	31	104	0	74	15056
2026-01-16 15:14:04.94	248.87	2.18	-51.9	-63.9	3.8	8.46e-01	0	31	104	0	74	15120
2026-01-16 15:14:05.95	248.98	2.23	-51.9	-63.9	3.8	8.47e-01	0	31	104	0	74	15128
2026-01-16 15:14:06.96	249.09	2.27	-51.9	-63.9	3.8	8.46e-01	0	31	104	0	74	15082
2026-01-16 15:14:07.97	249.19	2.31	-51.9	-63.9	3.8	8.47e-01	0	31	104	0	74	15148
2026-01-16 15:14:08.98	249.30	2.35	-51.9	-63.9	3.8	8.46e-01	0	31	104	0	74	15139
2026-01-16 15:14:09.98	249.41	2.39	-51.9	-63.9	3.8	8.46e-01	0	31	104	0	74	15141
2026-01-16 15:14:10.99	249.52	2.44	-51.9	-63.9	3.8	8.45e-01	0	31	104	0	74	15121
2026-01-16 15:14:12.00	249.62	2.48	-51.9	-63.9	3.8	8.46e-01	0	31	104	0	74	15122
2026-01-16 15:14:13.01	249.73	2.52	-51.9	-63.9	3.8	8.47e-01	0	32	104	0	74	15104
2026-01-16 15:14:14.02	249.84	2.56	-51.9	-63.9	3.8	8.46e-01	0	31	104	0	74	15064
2026-01-16 15:14:15.03	249.95	2.61	-51.9	-63.8	3.8	8.45e-01	0	32	104	0	74	14998
2026-01-16 15:14:16.03	250.06	2.65	-51.9	-63.8	3.8	8.46e-01	0	32	104	0	74	15026
2026-01-16 15:14:17.04	250.17	2.69	-51.9	-63.8	3.8	8.46e-01	0	32	104	0	74	14978
2026-01-16 15:14:18.05	250.28	2.73	-51.9	-63.8	3.8	8.46e-01	0	32	104	0	74	14969
2026-01-16 15:14:19.06	250.39	2.77	-51.9	-63.7	3.8	8.46e-01	0	31	104	0	74	14817
2026-01-16 15:14:20.07	250.50	2.81	-51.9	-63.8	3.8	8.47e-01	0	32	104	0	74	14967
2026-01-16 15:14:21.07	250.61	2.86	-51.9	-63.8	3.8	8.46e-01	0	32	104	0	74	14954
2026-01-16 15:14:22.08	250.72	2.90	-51.9	-63.8	3.8	8.46e-01	0	32	104	0	74	15003
2026-01-16 15:14:23.09	250.83	2.94	-51.9	-63.8	3.8	8.47e-01	0	32	104	0	74	15024
2026-01-16 15:14:24.10	250.94	2.98	-51.9	-63.9	3.8	8.47e-01	0	32	104	0	74	15060
2026-01-16 15:14:25.11	251.05	3.02	-51.9	-63.8	3.8	8.46e-01	0	32	104	0	74	15038
2026-01-16 15:14:26.12	251.17	3.07	-51.9	-63.9	3.8	8.47e-01	0	32	104	0	74	15060
2026-01-16 15:14:27.13	251.28	3.11	-51.9	-63.9	3.8	8.46e-01	0	32	104	0	74	15083
2026-01-16 15:14:28.14	251.39	3.15	-51.9	-63.8	3.8	8.45e-01	0	32	104	0	74	15037
2026-01-16 15:14:29.15	251.51	3.19	-51.9	-63.8	3.8	8.46e-01	0	32	104	0	74	14968
2026-01-16 15:14:30.16	251.62	3.23	-51.9	-63.8	3.8	8.46e-01	0	32	104	0	74	14887
2026-01-16 15:14:31.17	251.73	3.27	-51.9	-63.7	3.8	8.45e-01	0	32	104	0	74	14827
2026-01-16 15:14:32.17	251.85	3.32	-51.9	-63.7	3.8	8.47e-01	0	32	104	0	74	14711
2026-01-16 15:14:33.18	251.96	3.36	-51.9	-63.7	3.8	8.46e-01	0	32	104	0	74	14820
2026-01-16 15:14:34.19	252.07	3.40	-51.9	-63.7	3.8	8.47e-01	0	32	104	0	74	14820
2026-01-16 15:14:35.20	252.19	3.44	-51.9	-63.7	3.8	8.46e-01	0	32	104	0	74	14800
2026-01-16 15:14:36.21	252.31	3.48	-51.9	-63.6	3.8	8.46e-01	0	32	104	0	74	14646
2026-01-16 15:14:37.21	252.42	3.52	-51.9	-63.7	3.8	8.47e-01	0	32	104	0	74	14856
2026-01-16 15:14:38.22	252.54	3.56	-51.9	-63.7	3.8	8.46e-01	0	32	104	0	74	14749
2026-01-16 15:14:39.23	252.65	3.61	-51.9	-63.7	3.8	8.45e-01	0	32	104	0	74	14799
2026-01-16 15:14:40.24	252.77	3.65	-51.9	-63.8	3.8	8.45e-01	0	32	104	0	74	14952
2026-01-16 15:14:41.25	252.89	3.69	-51.9	-63.8	3.8	8.47e-01	0	32	104	0	74	15008
2026-01-16 15:14:42.26	253.00	3.73	-51.9	-63.8	3.8	8.47e-01	0	32	104	0	74	14954
2026-01-16 15:14:43.26	253.12	3.77	-51.9	-63.8	3.8	8.45e-01	0	32	104	0	74	14998
2026-01-16 15:14:44.27	253.24	3.81	-51.9	-63.8	3.8	8.47e-01	0	32	104	0	74	14882
2026-01-16 15:14:45.28	253.36	3.85	-51.9	-63.7	3.8	8.46e-01	0	32	104	0	74	14877
2026-01-16 15:14:46.29	253.47	3.89	-51.9	-63.8	3.8	8.46e-01	0	33	104	0	74	14890
2026-01-16 15:14:47.30	253.59	3.94	-51.9	-63.8	3.8	8.47e-01	0	32	104	0	74	15028
2026-01-16 15:14:48.31	253.71	3.98	-51.9	-63.8	3.8	8.47e-01	0	32	104	0	74	15051
2026-01-16 15:14:49.32	253.83	4.02	-51.9	-63.9	3.8	8.46e-01	0	32	104	0	74	15113
2026-01-16 15:14:50.33	253.95	4.06	-51.9	-63.9	3.8	8.45e-01	0	32	104	0	74	15080
2026-01-16 15:14:51.34	254.07	4.10	-51.9	-63.8	3.8	8.47e-01	0	32	104	0	74	14926
2026-01-16 15:14:52.34	254.19	4.14	-51.9	-63.7	3.8	8.46e-01	0	32	104	0	74	14803
2026-01-16 15:14:53.35	254.31	4.18	-51.9	-63.7	3.8	8.45e-01	0	32	104	0	74	14792
2026-01-16 15:14:54.36	254.43	4.22	-51.9	-63.6	3.9	8.45e-01	0	32	104	0	74	14578
2026-01-16 15:14:55.37	254.55	4.26	-51.9	-63.6	3.8	8.46e-01	0	33	104	0	74	14592
2026-01-16 15:14:56.38	254.68	4.30	-51.9	-63.6	3.8	8.47e-01	0	32	104	0	74	14648
2026-01-16 15:14:57.39	254.80	4.35	-51.9	-63.7	3.8	8.47e-01	0	32	104	0	74	14723
2026-01-16 15:14:58.40	254.92	4.39	-51.9	-63.4	3.8	8.46e-01	0	33	104	0	74	14255
2026-01-16 15:14:59.41	255.04	4.43	-51.9	-63.2	3.8	8.47e-01	0	32	104	0	74	13898
2026-01-16 15:15:00.42	255.17	4.47	-51.8	-63.3	3.8	8.45e-01	0	32	104	0	74	14081
2026-01-16 15:15:01.42	255.29	4.51	-51.9	-63.4	3.8	8.47e-01	0	33	104	0	74	14345
2026-01-16 15:15:02.43	255.41	4.55	-51.9	-63.8	3.8	8.46e-01	0	33	104	0	74	15046
2026-01-16 15:15:03.44	255.54	4.59	-51.9	-63.4	3.8	8.45e-01	0	33	104	0	74	14299
2026-01-16 15:15:04.45	255.66	4.63	-51.7	-61.5	4.0	8.45e-01	0	33	104	0	74	11419
2026-01-16 15:15:05.46	255.78	4.67	-51.4	-59.6	4.4	8.36e-01	0	32	0	0	74	9201
2026-01-16 15:15:06.47	255.91	4.71	-51.1	-58.0	5.2	7.66e-01	0	33	0	0	74	7672
2026-01-16 15:15:07.48	256.03	4.75	-50.6	-56.1	6.5	3.32e-01	0	33	0	3145728	73	6568
2026-01-16 15:15:08.49	256.16	4.79	-50.4	-55.6	7.0	1.82e-01	0	33	0	8388608	72	6541
2026-01-16 15:15:09.50	256.29	4.83	-49.9	-54.0	8.7	6.58e-02	0	33	0	14680064	71	5747
2026-01-16 15:15:10.51	256.41	4.87	-48.4	-51.1	11.6	1.97e-03	0	33	0	20971520	68	4926
2026-01-16 15:15:11.52	256.54	4.91	-47.1	-49.2	13.6	2.48e-04	0	33	0	26214400	66	4398
2026-01-16 15:15:12.53	256.67	4.95	-45.4	-46.9	16.0	0.00e+00	0	33	0	31457280	62	4268
2026-01-16 15:15:13.54	256.79	4.99	-45.1	-46.5	16.4	0.00e+00	0	33	0	37748736	62	4098
2026-01-16 15:15:14.54	256.92	5.03	-44.8	-46.2	16.8	0.00e+00	0	33	0	42991616	60	4409
2026-01-16 15:15:15.55	257.05	5.07	-46.5	-48.4	14.6	0.00e+00	0	33	0	49283072	63	4793
2026-01-16 15:15:16.56	257.18	5.11	-44.4	-45.7	17.2	1.17e-04	0	33	0	54525952	60	4170
2026-01-16 15:15:17.57	257.31	5.15	-44.5	-45.8	17.0	0.00e+00	0	33	0	59768832	60	4232
2026-01-16 15:15:18.57	257.43	5.19	-43.7	-44.9	18.4	1.10e-06	0	33	0	66060288	59	4050
2026-01-16 15:15:19.59	257.56	5.23	-46.4	-48.2	14.7	2.12e-04	0	33	0	71303168	64	4414
2026-01-16 15:15:20.59	257.69	5.27	-44.0	-45.2	17.7	0.00e+00	0	33	0	77594624	60	3957
2026-01-16 15:15:21.60	257.82	5.31	-44.4	-45.6	17.7	0.00e+00	0	33	0	82837504	59	4383
2026-01-16 15:15:22.61	257.95	5.35	-43.9	-45.1	18.2	0.00e+00	0	33	0	89128960	59	4144
2026-01-16 15:15:23.62	258.08	5.39	-43.7	-44.8	18.5	0.00e+00	0	33	0	94371840	59	4004
2026-01-16 15:15:24.62	258.21	5.43	-43.3	-44.4	18.9	0.00e+00	0	33	0	99614720	58	4024
2026-01-16 15:15:25.63	258.34	5.47	-43.8	-45.0	18.3	0.00e+00	0	33	0	105906176	58	4313
2026-01-16 15:15:26.64	258.48	5.50	-43.6	-44.7	18.5	0.00e+00	0	33	0	111149056	58	4182
2026-01-16 15:15:27.65	258.61	5.54	-43.4	-44.6	18.7	0.00e+00	0	33	0	116391936	58	4101
2026-01-16 15:15:28.66	258.74	5.58	-43.4	-44.6	18.7	0.00e+00	0	33	0	122683392	58	4102
2026-01-16 15:15:29.66	258.87	5.62	-43.3	-44.4	18.9	0.00e+00	0	33	0	127926272	58	4022
2026-01-16 15:15:30.67	259.00	5.66	-43.5	-44.7	18.6	0.00e+00	0	33	0	134217728	58	4150
2026-01-16 15:15:31.68	259.14	5.70	-43.3	-44.4	18.9	0.00e+00	0	33	0	139460608	58	4021
2026-01-16 15:15:32.69	259.27	5.74	-43.3	-44.4	18.8	0.00e+00	0	33	0	144703488	58	4049
2026-01-16 15:15:33.70	259.41	5.78	-43.5	-44.6	18.7	0.00e+00	0	33	0	150994944	58	4114
2026-01-16 15:15:34.70	259.54	5.81	-43.2	-44.3	19.0	0.00e+00	0	33	0	157286400	58	3966
2026-01-16 15:15:35.71	259.67	5.85	-43.4	-44.5	18.8	0.00e+00	0	33	0	162529280	58	4096
2026-01-16 15:15:36.72	259.81	5.89	-43.2	-44.3	19.0	0.00e+00	0	33	0	167772160	58	3980
2026-01-16 15:15:37.73	259.94	5.93	-43.3	-44.4	18.9	0.00e+00	0	33	0	174063616	58	4030
2026-01-16 15:15:38.73	260.08	5.97	-43.1	-44.2	19.1	0.00e+00	0	33	0	179306496	58	3946
2026-01-16 15:15:39.74	260.21	6.01	-43.2	-44.3	19.1	0.00e+00	0	33	0	184549376	58	3966
2026-01-16 15:15:40.75	260.35	6.04	-43.2	-44.3	19.0	0.00e+00	0	33	0	190840832	58	3977
2026-01-16 15:15:41.76	260.49	6.08	-43.3	-44.4	18.9	0.00e+00	0	33	0	196083712	58	4046
2026-01-16 15:15:42.77	260.63	6.12	-43.1	-44.2	19.1	0.00e+00	0	33	0	201326592	58	3942
2026-01-16 15:15:43.77	260.76	6.16	-43.3	-44.4	19.0	0.00e+00	0	33	0	207618048	58	4030
2026-01-16 15:15:44.78	260.90	6.20	-43.1	-44.2	19.2	0.00e+00	0	33	0	212860928	58	3921
2026-01-16 15:15:45.79	261.04	6.23	-43.0	-44.1	19.3	0.00e+00	0	33	0	219152384	57	4101
2026-01-16 15:15:46.80	261.18	6.27	-43.4	-44.5	18.8	0.00e+00	0	33	0	224395264	57	4335
2026-01-16 15:15:47.81	261.31	6.31	-43.1	-44.2	19.2	0.00e+00	0	33	0	230686720	57	4174
2026-01-16 15:15:48.82	261.45	6.35	-43.3	-44.4	19.0	0.00e+00	0	33	0	235929600	57	4252
2026-01-16 15:15:49.83	261.59	6.38	-43.2	-44.2	19.1	0.00e+00	0	33	0	242221056	57	4188
2026-01-16 15:15:50.84	261.73	6.42	-43.3	-44.4	19.0	0.00e+00	0	33	0	247463936	57	4284
2026-01-16 15:15:51.84	261.87	6.46	-43.1	-44.1	19.3	0.00e+00	0	33	0	252706816	57	4137
2026-01-16 15:15:52.85	262.01	6.50	-43.2	-44.3	19.1	0.00e+00	0	33	0	258998272	57	4234
2026-01-16 15:15:53.86	262.15	6.53	-43.1	-44.1	19.3	0.00e+00	0	33	0	264241152	57	4140
2026-01-16 15:15:54.87	262.30	6.57	-43.2	-44.3	19.2	0.00e+00	0	33	0	269484032	57	4202
2026-01-16 15:15:55.88	262.44	6.61	-43.3	-44.4	19.0	0.00e+00	0	33	0	275775488	57	4269
2026-01-16 15:15:56.89	262.58	6.64	-43.3	-44.4	19.1	0.00e+00	0	33	0	281018368	57	4253
2026-01-16 15:15:57.90	262.72	6.68	-43.1	-44.2	19.3	0.00e+00	0	33	0	287309824	57	4148
2026-01-16 15:15:58.90	262.86	6.72	-42.9	-43.9	19.5	0.00e+00	0	33	0	292552704	57	4047
2026-01-16 15:15:59.91	263.01	6.75	-42.9	-43.9	19.5	0.00e+00	0	33	0	298844160	57	4037
2026-01-16 15:16:00.92	263.15	6.79	-42.8	-43.8	19.7	0.00e+00	0	33	0	304087040	57	3975
2026-01-16 15:16:01.93	263.29	6.83	-43.1	-44.1	19.3	0.00e+00	0	33	0	309329920	57	4134
2026-01-16 15:16:02.94	263.44	6.86	-43.0	-44.1	19.3	0.00e+00	0	33	0	315621376	57	4116
2026-01-16 15:16:03.94	263.58	6.90	-43.0	-44.0	19.4	0.00e+00	0	33	0	320864256	57	4092
2026-01-16 15:16:04.95	263.72	6.93	-43.1	-44.2	19.3	0.00e+00	0	33	0	327155712	57	4174
2026-01-16 15:16:05.96	263.87	6.97	-43.2	-44.2	19.2	0.00e+00	0	33	0	332398592	57	4185
2026-01-16 15:16:06.97	264.01	7.01	-43.2	-44.2	19.2	0.00e+00	0	33	0	337641472	57	4192
2026-01-16 15:16:07.98	264.16	7.04	-43.0	-44.0	19.4	0.00e+00	0	33	0	343932928	57	4092
2026-01-16 15:16:08.98	264.31	7.08	-43.0	-44.0	19.4	0.00e+00	0	33	0	349175808	57	4097
2026-01-16 15:16:09.99	264.45	7.11	-43.1	-44.2	19.3	0.00e+00	0	33	0	355467264	57	4156
2026-01-16 15:16:11.00	264.60	7.15	-43.1	-44.1	19.4	0.00e+00	0	33	0	360710144	57	4139
2026-01-16 15:16:12.01	264.75	7.18	-43.1	-44.2	19.3	0.00e+00	0	33	0	367001600	57	4156
2026-01-16 15:16:13.02	264.89	7.22	-43.1	-44.2	19.4	0.00e+00	0	33	0	372244480	57	4154
2026-01-16 15:16:14.02	265.04	7.25	-42.8	-43.9	19.7	0.00e+00	0	33	0	377487360	57	4022
2026-01-16 15:16:15.03	265.19	7.29	-42.9	-44.0	19.5	0.00e+00	0	33	0	383778816	57	4060
2026-01-16 15:16:16.04	265.34	7.32	-42.9	-44.0	19.5	0.00e+00	0	33	0	389021696	57	4071
2026-01-16 15:16:17.05	265.48	7.36	-42.9	-43.9	19.6	0.00e+00	0	33	0	394264576	57	4030
2026-01-16 15:16:18.06	265.63	7.39	-42.9	-44.0	19.5	0.00e+00	0	33	0	400556032	57	4071
2026-01-16 15:16:19.07	265.78	7.43	-42.7	-43.7	19.8	0.00e+00	0	33	0	405798912	57	3950
2026-01-16 15:16:20.08	265.93	7.46	-42.8	-43.8	19.6	0.00e+00	0	33	0	412090368	57	3987
2026-01-16 15:16:21.09	266.08	7.50	-42.5	-43.5	19.9	0.00e+00	0	33	0	417333248	57	3859
2026-01-16 15:16:22.10	266.23	7.53	-42.5	-43.5	19.8	0.00e+00	0	33	0	423624704	56	4090
2026-01-16 15:16:23.10	266.38	7.56	-42.6	-43.6	19.7	0.00e+00	0	33	0	428867584	56	4115
2026-01-16 15:16:24.11	266.53	7.60	-42.7	-43.7	19.6	0.00e+00	0	33	0	435159040	56	4176
2026-01-16 15:16:25.12	266.69	7.63	-42.7	-43.8	19.5	0.00e+00	0	33	0	440401920	56	4208
2026-01-16 15:16:26.13	266.84	7.66	-42.7	-43.7	19.4	0.00e+00	0	33	0	445644800	56	4190
2026-01-16 15:16:27.14	266.99	7.70	-42.9	-44.0	19.1	0.00e+00	0	33	0	451936256	56	4315
2026-01-16 15:16:28.14	267.14	7.73	-42.9	-44.1	18.8	0.00e+00	0	33	0	457179136	56	4349
2026-01-16 15:16:29.15	267.29	7.76	-43.5	-44.7	18.2	0.00e+00	0	33	0	462422016	57	4405
2026-01-16 15:16:30.16	267.45	7.80	-43.8	-45.1	17.7	0.00e+00	0	33	0	468713472	58	4354
2026-01-16 15:16:31.17	267.60	7.83	-44.6	-46.0	16.7	0.00e+00	0	33	0	473956352	59	4597
2026-01-16 15:16:32.18	267.75	7.86	-45.0	-46.6	15.6	0.00e+00	0	33	0	479199232	60	4645
2026-01-16 15:16:33.18	267.91	7.90	-45.7	-47.6	14.6	1.10e-06	0	33	0	485490688	61	4884
2026-01-16 15:16:34.19	268.06	7.93	-46.2	-48.3	13.7	1.25e-05	0	33	0	491782144	63	4723
2026-01-16 15:16:35.20	268.22	7.96	-46.5	-48.7	13.2	2.51e-05	0	33	0	497025024	63	4958
2026-01-16 15:16:36.21	268.37	7.99	-46.8	-49.3	12.4	1.10e-04	0	33	0	502267904	64	4985
2026-01-16 15:16:37.22	268.53	8.03	-47.1	-49.9	11.8	4.94e-04	0	33	0	508559360	64	5346
2026-01-16 15:16:38.22	268.68	8.06	-47.6	-50.7	10.8	2.83e-03	0	33	0	513802240	65	5576
2026-01-16 15:16:39.23	268.84	8.09	-48.0	-51.4	10.1	6.61e-03	0	33	0	520093696	66	5664
2026-01-16 15:16:40.24	268.99	8.12	-48.3	-52.0	9.4	1.72e-02	0	33	0	525336576	67	5757
2026-01-16 15:16:41.24	269.15	8.15	-48.1	-51.6	9.9	1.56e-02	0	33	0	530579456	67	5496
2026-01-16 15:16:42.25	269.31	8.18	-48.0	-51.2	10.4	6.56e-03	0	33	0	536870912	67	5247
2026-01-16 15:16:43.26	269.46	8.21	-47.6	-50.5	11.2	3.00e-03	0	33	0	542113792	67	4855
2026-01-16 15:16:44.27	269.62	8.25	-46.8	-49.2	12.7	3.17e-04	0	33	0	547356672	65	4687
2026-01-16 15:16:45.28	269.78	8.28	-46.1	-48.2	13.9	2.28e-05	0	33	0	553648128	64	4395
2026-01-16 15:16:46.29	269.94	8.31	-45.5	-47.2	15.1	0.00e+00	0	33	0	558891008	62	4427
2026-01-16 15:16:47.30	270.10	8.34	-44.7	-46.1	16.3	0.00e+00	0	33	0	565182464	61	4139
2026-01-16 15:16:48.30	270.25	8.37	-44.5	-46.0	16.7	0.00e+00	0	33	0	570425344	60	4294
2026-01-16 15:16:49.31	270.41	8.40	-44.3	-45.6	17.5	0.00e+00	0	33	0	576716800	59	4369
2026-01-16 15:16:50.32	270.57	8.43	-44.1	-45.3	17.8	0.00e+00	0	33	0	581959680	59	4228
2026-01-16 15:16:51.33	270.73	8.46	-43.8	-45.0	18.3	0.00e+00	0	33	0	587202560	59	4054
2026-01-16 15:16:52.34	270.89	8.49	-43.4	-44.5	18.9	0.00e+00	0	33	0	593494016	58	4070
2026-01-16 15:16:53.34	271.05	8.52	-43.1	-44.2	19.3	0.00e+00	0	33	0	598736896	58	3939
2026-01-16 15:16:54.35	271.21	8.55	-43.0	-44.1	19.5	0.00e+00	0	33	0	605028352	58	3874
2026-01-16 15:16:55.36	271.38	8.58	-42.6	-43.6	19.9	0.00e+00	0	33	0	610271232	57	3902
2026-01-16 15:16:56.37	271.54	8.61	-42.5	-43.5	20.0	0.00e+00	0	33	0	615514112	56	4071
2026-01-16 15:16:57.38	271.70	8.64	-42.3	-43.2	20.3	0.00e+00	0	33	0	621805568	56	3957
2026-01-16 15:16:58.38	271.86	8.67	-42.4	-43.4	20.2	0.00e+00	0	33	0	627048448	56	4031
2026-01-16 15:16:59.39	272.02	8.69	-42.4	-43.4	20.2	0.00e+00	0	33	0	633339904	56	4038
2026-01-16 15:17:00.40	272.19	8.72	-42.3	-43.3	20.3	0.00e+00	0	33	0	638582784	56	3974
2026-01-16 15:17:01.41	272.35	8.75	-42.4	-43.4	20.2	0.00e+00	0	33	0	644874240	56	4009
2026-01-16 15:17:02.42	272.51	8.78	-42.3	-43.2	20.4	0.00e+00	0	33	0	650117120	56	3943
2026-01-16 15:17:03.42	272.67	8.81	-42.3	-43.3	20.3	0.00e+00	0	33	0	655360000	56	3983
2026-01-16 15:17:04.43	272.84	8.84	-42.2	-43.2	20.4	0.00e+00	0	33	0	661651456	56	3942
2026-01-16 15:17:05.44	273.00	8.86	-42.3	-43.3	20.3	0.00e+00	0	33	0	666894336	56	3973
2026-01-16 15:17:06.45	273.17	8.89	-42.3	-43.3	20.3	0.00e+00	0	33	0	672137216	56	3984
2026-01-16 15:17:07.46	273.33	8.92	-42.3	-43.3	20.4	0.00e+00	0	33	0	678428672	56	3960
2026-01-16 15:17:08.46	273.50	8.95	-42.2	-43.1	20.5	0.00e+00	0	33	0	683671552	56	3909
2026-01-16 15:17:09.47	273.66	8.97	-42.4	-43.3	20.3	0.00e+00	0	33	0	689963008	56	3997
2026-01-16 15:17:10.48	273.83	9.00	-42.4	-43.4	20.3	0.00e+00	0	33	0	695205888	56	4007
2026-01-16 15:17:11.49	273.99	9.03	-42.5	-43.5	20.1	0.00e+00	0	33	0	700448768	56	4094
2026-01-16 15:17:12.50	274.16	9.05	-42.6	-43.6	20.1	0.00e+00	0	33	0	706740224	56	4100
2026-01-16 15:17:13.50	274.33	9.08	-42.5	-43.5	20.1	0.00e+00	0	33	0	713031680	56	4097
2026-01-16 15:17:14.51	274.49	9.11	-42.4	-43.4	20.2	0.00e+00	0	33	0	718274560	56	4037
2026-01-16 15:17:15.52	274.66	9.13	-42.5	-43.4	20.2	0.00e+00	0	33	0	723517440	56	4047
2026-01-16 15:17:16.53	274.83	9.16	-42.3	-43.3	20.3	0.00e+00	0	33	0	729808896	56	3995
2026-01-16 15:17:17.54	275.00	9.18	-42.4	-43.4	20.3	0.00e+00	0	33	0	735051776	56	4013
2026-01-16 15:17:18.54	275.16	9.21	-42.3	-43.2	20.4	0.00e+00	0	33	0	740294656	56	3951
2026-01-16 15:17:19.55	275.33	9.23	-42.3	-43.3	20.4	0.00e+00	0	33	0	746586112	56	3960
2026-01-16 15:17:20.56	275.50	9.26	-42.3	-43.3	20.4	0.00e+00	0	33	0	751828992	56	3991
2026-01-16 15:17:21.57	275.67	9.28	-42.5	-43.5	20.2	0.00e+00	0	33	0	757071872	56	4052
2026-01-16 15:17:22.58	275.84	9.31	-42.6	-43.6	20.1	0.00e+00	0	33	0	763363328	56	4111
2026-01-16 15:17:23.59	276.01	9.33	-42.5	-43.5	20.2	0.00e+00	0	33	0	768606208	56	4080
2026-01-16 15:17:24.60	276.18	9.36	-42.5	-43.5	20.1	0.00e+00	0	33	0	774897664	56	4088
2026-01-16 15:17:25.60	276.35	9.38	-42.4	-43.4	20.2	0.00e+00	0	33	0	780140544	56	4034
2026-01-16 15:17:26.61	276.52	9.41	-42.5	-43.5	20.2	0.00e+00	0	33	0	786432000	56	4057
2026-01-16 15:17:27.62	276.69	9.43	-42.5	-43.5	20.2	0.00e+00	0	33	0	791674880	56	4060
2026-01-16 15:17:28.63	276.86	9.45	-42.4	-43.4	20.3	0.00e+00	0	33	0	797966336	56	4027
2026-01-16 15:17:29.64	277.03	9.48	-42.5	-43.5	20.2	0.00e+00	0	33	0	803209216	56	4074
2026-01-16 15:17:30.64	277.20	9.50	-42.4	-43.4	20.3	0.00e+00	0	33	0	808452096	56	4029
2026-01-16 15:17:31.65	277.37	9.52	-42.3	-43.3	20.4	0.00e+00	0	33	0	814743552	56	3987
2026-01-16 15:17:32.66	277.54	9.55	-42.3	-43.3	20.4	0.00e+00	0	33	0	819986432	56	3984
2026-01-16 15:17:33.67	277.71	9.57	-42.4	-43.4	20.3	0.00e+00	0	33	0	825229312	56	4024
2026-01-16 15:17:34.68	277.89	9.59	-42.5	-43.4	20.2	0.00e+00	0	33	0	831520768	56	4049
2026-01-16 15:17:35.69	278.06	9.61	-42.5	-43.5	20.3	0.00e+00	0	33	0	836763648	56	4054
2026-01-16 15:17:36.70	278.23	9.63	-42.6	-43.7	20.1	0.00e+00	0	33	0	843055104	56	4151
2026-01-16 15:17:37.70	278.40	9.66	-42.5	-43.5	20.3	0.00e+00	0	33	0	848297984	56	4059
2026-01-16 15:17:38.71	278.58	9.68	-42.6	-43.6	20.1	0.00e+00	0	33	0	854589440	56	4141
2026-01-16 15:17:39.72	278.75	9.70	-42.6	-43.6	20.2	0.00e+00	0	33	0	859832320	56	4104
2026-01-16 15:17:40.73	278.93	9.72	-42.5	-43.5	20.3	0.00e+00	0	33	0	865075200	56	4059
2026-01-16 15:17:41.74	279.10	9.74	-42.5	-43.5	20.3	0.00e+00	0	33	0	871366656	56	4063
2026-01-16 15:17:42.74	279.27	9.76	-42.4	-43.3	20.4	0.00e+00	0	33	0	876609536	56	3994
2026-01-16 15:17:43.75	279.45	9.78	-42.4	-43.4	20.3	0.00e+00	0	33	0	882900992	56	4021
2026-01-16 15:17:44.76	279.62	9.80	-42.4	-43.4	20.4	0.00e+00	0	33	0	888143872	56	4006
2026-01-16 15:17:45.77	279.80	9.82	-42.2	-43.2	20.6	0.00e+00	0	33	0	893386752	56	3919
2026-01-16 15:17:46.78	279.97	9.84	-42.3	-43.2	20.5	0.00e+00	0	33	0	899678208	56	3951
2026-01-16 15:17:47.78	280.15	9.86	-42.2	-43.2	20.6	0.00e+00	0	33	0	904921088	56	3920
2026-01-16 15:17:48.79	280.32	9.88	-42.2	-43.1	20.7	0.00e+00	0	33	0	911212544	56	3887
2026-01-16 15:17:49.80	280.50	9.90	-42.2	-43.1	20.7	0.00e+00	0	33	0	916455424	56	3886
2026-01-16 15:17:50.81	280.67	9.92	-42.1	-43.1	20.7	0.00e+00	0	33	0	922746880	56	3871
2026-01-16 15:17:51.82	280.85	9.94	-42.2	-43.1	20.7	0.00e+00	0	33	0	927989760	56	3892
2026-01-16 15:17:52.83	281.03	9.96	-42.2	-43.2	20.5	0.00e+00	0	33	0	933232640	56	3932
2026-01-16 15:17:53.84	281.20	9.97	-42.2	-43.1	20.7	0.00e+00	0	33	0	939524096	56	3893
2026-01-16 15:17:54.84	281.38	9.99	-42.2	-43.2	20.6	0.00e+00	0	33	0	944766976	56	3915
2026-01-16 15:17:55.85	281.56	10.01	-42.2	-43.1	20.6	0.00e+00	0	33	0	950009856	56	3903
2026-01-16 15:17:56.86	281.73	10.03	-42.2	-43.1	20.6	0.00e+00	0	33	0	956301312	56	3898
2026-01-16 15:17:57.87	281.91	10.05	-42.3	-43.2	20.6	0.00e+00	0	33	0	961544192	56	3942
2026-01-16 15:17:58.88	282.09	10.06	-42.0	-43.0	20.8	0.00e+00	0	33	0	967835648	56	3831
2026-01-16 15:17:59.89	282.27	10.08	-42.1	-43.0	20.8	0.00e+00	0	33	0	973078528	56	3840
2026-01-16 15:18:00.90	282.45	10.10	-41.8	-42.7	21.0	0.00e+00	0	33	0	979369984	55	3915
2026-01-16 15:18:01.91	282.63	10.11	-41.7	-42.6	21.1	0.00e+00	0	33	0	984612864	55	3902
2026-01-16 15:18:02.92	282.80	10.13	-41.8	-42.7	21.0	0.00e+00	0	33	0	990904320	55	3917
2026-01-16 15:18:03.92	282.98	10.15	-41.8	-42.7	21.0	0.00e+00	0	33	0	996147200	55	3922
2026-01-16 15:18:04.93	283.16	10.16	-41.9	-42.8	20.9	0.00e+00	0	33	0	1001390080	55	3962
2026-01-16 15:18:05.94	283.34	10.18	-41.9	-42.8	20.9	0.00e+00	0	33	0	1007681536	55	3992
2026-01-16 15:18:06.95	283.52	10.19	-42.0	-42.9	20.8	0.00e+00	0	33	0	1012924416	55	4029
2026-01-16 15:18:07.96	283.70	10.21	-42.1	-43.0	20.7	0.00e+00	0	33	0	1018167296	55	4082
2026-01-16 15:18:08.97	283.88	10.22	-42.2	-43.1	20.6	0.00e+00	0	34	0	1024458752	55	4138
2026-01-16 15:18:09.98	284.06	10.24	-42.3	-43.2	20.5	0.00e+00	0	33	0	1029701632	55	4192
2026-01-16 15:18:10.99	284.24	10.25	-42.3	-43.3	20.5	0.00e+00	0	33	0	1035993088	55	4209
2026-01-16 15:18:11.99	284.42	10.26	-42.4	-43.3	20.4	0.00e+00	0	34	0	1041235968	55	4234
2026-01-16 15:18:13.00	284.60	10.28	-42.1	-43.0	20.7	0.00e+00	0	33	0	1047527424	55	4094
2026-01-16 15:18:14.01	284.78	10.29	-42.1	-43.1	20.7	0.00e+00	0	33	0	1052770304	55	4100
2026-01-16 15:18:15.02	284.96	10.31	-42.2	-43.1	20.6	0.00e+00	0	33	0	1058013184	55	4129
2026-01-16 15:18:16.03	285.14	10.32	-42.0	-42.9	20.8	0.00e+00	0	33	0	1064304640	55	4047
2026-01-16 15:18:17.04	285.32	10.33	-42.1	-43.0	20.7	0.00e+00	0	33	0	1069547520	55	4089
2026-01-16 15:18:18.05	285.50	10.34	-42.1	-43.0	20.8	0.00e+00	0	33	0	1075838976	55	4078
2026-01-16 15:18:19.06	285.68	10.36	-42.0	-42.9	20.8	0.00e+00	0	33	0	1081081856	55	4042
2026-01-16 15:18:20.07	285.87	10.37	-42.2	-43.2	20.6	0.00e+00	0	33	0	1086324736	55	4159
2026-01-16 15:18:21.08	286.05	10.38	-42.3	-43.2	20.6	0.00e+00	0	33	0	1092616192	55	4170
2026-01-16 15:18:22.09	286.23	10.39	-42.3	-43.3	20.5	0.00e+00	0	34	0	1097859072	55	4199
2026-01-16 15:18:23.09	286.41	10.40	-42.4	-43.3	20.5	0.00e+00	0	33	0	1104150528	55	4234
2026-01-16 15:18:24.10	286.59	10.41	-42.4	-43.3	20.5	0.00e+00	0	33	0	1109393408	55	4227
2026-01-16 15:18:25.11	286.77	10.43	-42.4	-43.4	20.4	0.00e+00	0	33	0	1115684864	55	4267
2026-01-16 15:18:26.12	286.96	10.44	-42.6	-43.5	20.3	0.00e+00	0	33	0	1120927744	55	4340
2026-01-16 15:18:27.13	287.14	10.45	-42.6	-43.5	20.3	0.00e+00	0	34	0	1126170624	55	4329
2026-01-16 15:18:28.14	287.32	10.46	-42.5	-43.4	20.4	0.00e+00	0	33	0	1132462080	55	4270
2026-01-16 15:18:29.14	287.50	10.47	-42.4	-43.3	20.5	0.00e+00	0	34	0	1137704960	55	4230
2026-01-16 15:18:30.15	287.68	10.48	-42.3	-43.3	20.6	0.00e+00	0	33	0	1142947840	55	4205
2026-01-16 15:18:31.16	287.87	10.49	-42.4	-43.4	20.4	0.00e+00	0	34	0	1149239296	55	4270
2026-01-16 15:18:32.17	288.05	10.49	-42.5	-43.5	20.4	0.00e+00	0	33	0	1154482176	55	4305
2026-01-16 15:18:33.18	288.23	10.50	-42.4	-43.4	20.5	0.00e+00	0	33	0	1160773632	55	4253
2026-01-16 15:18:34.19	288.42	10.51	-42.5	-43.4	20.4	0.00e+00	0	34	0	1166016512	55	4271
2026-01-16 15:18:35.20	288.60	10.52	-42.3	-43.2	20.6	0.00e+00	0	34	0	1172307968	55	4191
2026-01-16 15:18:36.21	288.78	10.53	-42.3	-43.2	20.6	0.00e+00	0	34	0	1177550848	55	4187
2026-01-16 15:18:37.22	288.97	10.54	-42.3	-43.3	20.6	0.00e+00	0	33	0	1183842304	55	4196
2026-01-16 15:18:38.22	289.15	10.54	-42.4	-43.3	20.6	0.00e+00	0	33	0	1189085184	55	4230
2026-01-16 15:18:39.23	289.33	10.55	-42.4	-43.3	20.6	0.00e+00	0	33	0	1194328064	55	4227
2026-01-16 15:18:40.24	289.52	10.56	-42.3	-43.2	20.7	0.00e+00	0	34	0	1200619520	55	4169
2026-01-16 15:18:41.25	289.70	10.57	-42.2	-43.2	20.7	0.00e+00	0	34	0	1205862400	55	4156
2026-01-16 15:18:42.26	289.89	10.57	-42.1	-43.1	20.8	0.00e+00	0	34	0	1211105280	55	4104
2026-01-16 15:18:43.26	290.07	10.58	-42.2	-43.1	20.7	0.00e+00	0	34	0	1217396736	55	4127
2026-01-16 15:18:44.27	290.25	10.58	-42.2	-43.2	20.7	0.00e+00	0	34	0	1222639616	55	4148
2026-01-16 15:18:45.28	290.44	10.59	-42.4	-43.3	20.6	0.00e+00	0	34	0	1227882496	55	4223
2026-01-16 15:18:46.29	290.62	10.60	-42.2	-43.1	20.8	0.00e+00	0	34	0	1234173952	55	4117
2026-01-16 15:18:47.30	290.80	10.60	-42.3	-43.2	20.7	0.00e+00	0	33	0	1240465408	55	4159
2026-01-16 15:18:48.30	290.99	10.61	-42.4	-43.3	20.6	0.00e+00	0	34	0	1245708288	55	4234
2026-01-16 15:18:49.31	291.17	10.61	-42.4	-43.4	20.5	0.00e+00	0	33	0	1250951168	55	4244
2026-01-16 15:18:50.32	291.36	10.62	-42.5	-43.5	20.4	0.00e+00	0	34	0	1257242624	55	4313
2026-01-16 15:18:51.33	291.54	10.62	-42.6	-43.5	20.4	0.00e+00	0	34	0	1262485504	55	4326
2026-01-16 15:18:52.34	291.73	10.62	-42.5	-43.5	20.4	0.00e+00	0	34	0	1268776960	55	4316
2026-01-16 15:18:53.35	291.91	10.63	-42.5	-43.5	20.4	0.00e+00	0	33	0	1274019840	55	4314
2026-01-16 15:18:54.36	292.09	10.63	-42.6	-43.6	20.3	0.00e+00	0	34	0	1279262720	55	4344
2026-01-16 15:18:55.36	292.28	10.63	-42.6	-43.6	20.3	0.00e+00	0	34	0	1285554176	55	4370
2026-01-16 15:18:56.37	292.46	10.64	-42.5	-43.4	20.5	0.00e+00	0	33	0	1290797056	55	4278
2026-01-16 15:18:57.38	292.65	10.64	-42.4	-43.4	20.5	0.00e+00	0	34	0	1296039936	55	4257
2026-01-16 15:18:58.39	292.83	10.64	-42.3	-43.2	20.7	0.00e+00	0	34	0	1302331392	55	4184
2026-01-16 15:18:59.40	293.02	10.64	-42.2	-43.2	20.7	0.00e+00	0	33	0	1308622848	55	4149
2026-01-16 15:19:00.41	293.20	10.65	-42.2	-43.1	20.8	0.00e+00	0	33	0	1313865728	55	4114
2026-01-16 15:19:01.42	293.39	10.65	-42.2	-43.2	20.7	0.00e+00	0	34	0	1319108608	55	4150
2026-01-16 15:19:02.42	293.57	10.65	-42.2	-43.1	20.7	0.00e+00	0	33	0	1325400064	55	4131
2026-01-16 15:19:03.43	293.75	10.65	-42.2	-43.1	20.7	0.00e+00	0	33	0	1330642944	55	4143
2026-01-16 15:19:04.44	293.94	10.65	-42.2	-43.2	20.7	0.00e+00	0	33	0	1335885824	55	4153
2026-01-16 15:19:05.45	294.12	10.65	-42.3	-43.3	20.6	0.00e+00	0	34	0	1342177280	55	4196
2026-01-16 15:19:06.46	294.31	10.65	-42.3	-43.3	20.6	0.00e+00	0	33	0	1347420160	55	4205
2026-01-16 15:19:07.46	294.49	10.65	-42.3	-43.2	20.7	0.00e+00	0	33	0	1353711616	55	4188
2026-01-16 15:19:08.47	294.68	10.65	-42.4	-43.3	20.6	0.00e+00	0	34	0	1358954496	55	4236
2026-01-16 15:19:09.48	294.86	10.65	-42.3	-43.3	20.6	0.00e+00	0	34	0	1364197376	55	4219
2026-01-16 15:19:10.49	295.05	10.65	-42.3	-43.3	20.6	0.00e+00	0	33	0	1370488832	55	4201
2026-01-16 15:19:11.50	295.23	10.65	-42.4	-43.3	20.6	0.00e+00	0	34	0	1376780288	55	4234
2026-01-16 15:19:12.51	295.42	10.65	-42.3	-43.2	20.6	0.00e+00	0	33	0	1382023168	55	4189
2026-01-16 15:19:13.51	295.60	10.65	-42.3	-43.3	20.6	0.00e+00	0	33	0	1387266048	55	4214
2026-01-16 15:19:14.52	295.79	10.65	-42.3	-43.3	20.6	0.00e+00	0	34	0	1393557504	55	4194
2026-01-16 15:19:15.53	295.97	10.64	-42.3	-43.3	20.6	0.00e+00	0	33	0	1398800384	55	4205
2026-01-16 15:19:16.54	296.16	10.64	-42.4	-43.4	20.5	0.00e+00	0	34	0	1404043264	55	4254
2026-01-16 15:19:17.55	296.34	10.64	-42.5	-43.5	20.4	0.00e+00	0	33	0	1410334720	55	4311
2026-01-16 15:19:18.56	296.52	10.64	-42.6	-43.6	20.4	0.00e+00	0	33	0	1415577600	55	4353
2026-01-16 15:19:19.57	296.71	10.63	-42.7	-43.7	20.3	0.00e+00	0	33	0	1421869056	55	4403
2026-01-16 15:19:20.58	296.89	10.63	-42.6	-43.6	20.4	0.00e+00	0	34	0	1427111936	55	4346
2026-01-16 15:19:21.59	297.08	10.63	-42.7	-43.6	20.3	0.00e+00	0	34	0	1432354816	55	4386
2026-01-16 15:19:22.59	297.26	10.62	-42.5	-43.5	20.4	0.00e+00	0	33	0	1438646272	55	4317
2026-01-16 15:19:23.60	297.45	10.62	-42.4	-43.3	20.6	0.00e+00	0	33	0	1443889152	55	4226
2026-01-16 15:19:24.61	297.63	10.61	-42.5	-43.4	20.5	0.00e+00	0	33	0	1450180608	55	4264
2026-01-16 15:19:25.62	297.81	10.61	-42.4	-43.4	20.5	0.00e+00	0	33	0	1455423488	55	4264
2026-01-16 15:19:26.63	298.00	10.60	-42.5	-43.4	20.5	0.00e+00	0	34	0	1461714944	55	4279
2026-01-16 15:19:27.64	298.18	10.60	-42.4	-43.4	20.5	0.00e+00	0	33	0	1466957824	55	4265
2026-01-16 15:19:28.65	298.37	10.59	-42.5	-43.4	20.5	0.00e+00	0	33	0	1472200704	55	4269
2026-01-16 15:19:29.66	298.55	10.59	-42.4	-43.4	20.5	0.00e+00	0	33	0	1478492160	55	4251
2026-01-16 15:19:30.67	298.74	10.58	-42.4	-43.4	20.5	0.00e+00	0	34	0	1483735040	55	4255
2026-01-16 15:19:31.68	298.92	10.58	-42.5	-43.5	20.5	0.00e+00	0	33	0	1488977920	55	4310
2026-01-16 15:19:32.68	299.10	10.57	-42.4	-43.4	20.6	0.00e+00	0	33	0	1495269376	55	4258
2026-01-16 15:19:33.69	299.29	10.56	-42.4	-43.4	20.5	0.00e+00	0	33	0	1501560832	55	4263
2026-01-16 15:19:34.70	299.47	10.56	-42.5	-43.5	20.5	0.00e+00	0	33	0	1506803712	55	4294
2026-01-16 15:19:35.71	299.65	10.55	-42.5	-43.4	20.5	0.00e+00	0	33	0	1512046592	55	4282
2026-01-16 15:19:36.72	299.84	10.54	-42.4	-43.3	20.6	0.00e+00	0	33	0	1518338048	55	4219
2026-01-16 15:19:37.72	300.02	10.53	-42.4	-43.3	20.6	0.00e+00	0	34	0	1523580928	55	4221
2026-01-16 15:19:38.73	300.20	10.53	-42.4	-43.4	20.5	0.00e+00	0	33	0	1528823808	55	4258
2026-01-16 15:19:39.74	300.39	10.52	-42.6	-43.6	20.3	0.00e+00	0	33	0	1535115264	55	4351
2026-01-16 15:19:40.74	300.57	10.51	-42.7	-43.7	20.3	0.00e+00	0	33	0	1540358144	55	4404
2026-01-16 15:19:41.75	300.75	10.50	-42.8	-43.8	20.2	0.00e+00	0	33	0	1546649600	56	4212
2026-01-16 15:19:42.76	300.93	10.49	-42.8	-43.8	20.3	0.00e+00	0	33	0	1551892480	56	4203
2026-01-16 15:19:43.77	301.12	10.48	-42.9	-43.9	20.2	0.00e+00	0	34	0	1557135360	56	4248
2026-01-16 15:19:44.78	301.30	10.47	-42.8	-43.8	20.2	0.00e+00	0	34	0	1563426816	56	4223
2026-01-16 15:19:45.78	301.48	10.46	-42.8	-43.8	20.2	0.00e+00	0	34	0	1568669696	56	4228
2026-01-16 15:19:46.79	301.66	10.45	-42.8	-43.9	20.2	0.00e+00	0	34	0	1574961152	56	4244
2026-01-16 15:19:47.80	301.84	10.44	-42.8	-43.9	20.2	0.00e+00	0	33	0	1580204032	56	4243
2026-01-16 15:19:48.81	302.03	10.43	-42.8	-43.8	20.2	0.00e+00	0	34	0	1586495488	56	4198
2026-01-16 15:19:49.82	302.21	10.42	-42.8	-43.7	20.3	0.00e+00	0	33	0	1591738368	56	4179
2026-01-16 15:19:50.82	302.39	10.41	-42.6	-43.6	20.4	0.00e+00	0	33	0	1596981248	56	4103
2026-01-16 15:19:51.83	302.57	10.40	-42.6	-43.6	20.4	0.00e+00	0	34	0	1603272704	56	4114
2026-01-16 15:19:52.84	302.75	10.39	-42.7	-43.7	20.4	0.00e+00	0	33	0	1608515584	56	4146
2026-01-16 15:19:53.85	302.93	10.38	-42.6	-43.6	20.4	0.00e+00	0	33	0	1614807040	56	4101
2026-01-16 15:19:54.86	303.12	10.36	-42.5	-43.5	20.5	0.00e+00	0	34	0	1620049920	56	4055
2026-01-16 15:19:55.87	303.30	10.35	-42.4	-43.4	20.6	0.00e+00	0	34	0	1625292800	56	4021
2026-01-16 15:19:56.88	303.48	10.34	-42.5	-43.5	20.5	0.00e+00	0	34	0	1631584256	56	4070
2026-01-16 15:19:57.89	303.66	10.33	-42.5	-43.4	20.6	0.00e+00	0	33	0	1636827136	56	4048
2026-01-16 15:19:58.89	303.84	10.31	-42.4	-43.4	20.6	0.00e+00	0	34	0	1643118592	56	4015
2026-01-16 15:19:59.90	304.02	10.30	-42.4	-43.3	20.7	0.00e+00	0	34	0	1648361472	56	3977
2026-01-16 15:20:00.91	304.20	10.29	-42.3	-43.3	20.7	0.00e+00	0	34	0	1654652928	56	3966
2026-01-16 15:20:01.91	304.38	10.27	-42.4	-43.3	20.6	0.00e+00	0	33	0	1659895808	56	3985
2026-01-16 15:20:02.92	304.56	10.26	-42.5	-43.5	20.5	0.00e+00	0	34	0	1665138688	56	4063
2026-01-16 15:20:03.93	304.74	10.25	-42.6	-43.6	20.4	0.00e+00	0	34	0	1671430144	56	4132
2026-01-16 15:20:04.94	304.92	10.23	-42.6	-43.6	20.3	0.00e+00	0	33	0	1676673024	56	4112
2026-01-16 15:20:05.95	305.10	10.22	-42.8	-43.8	20.2	0.00e+00	0	34	0	1681915904	56	4208
2026-01-16 15:20:06.95	305.27	10.20	-42.6	-43.6	20.4	0.00e+00	0	33	0	1688207360	56	4114
2026-01-16 15:20:07.96	305.45	10.19	-42.6	-43.5	20.4	0.00e+00	0	33	0	1693450240	56	4091
2026-01-16 15:20:08.97	305.63	10.17	-42.6	-43.5	20.4	0.00e+00	0	33	0	1699741696	56	4086
2026-01-16 15:20:09.98	305.81	10.16	-42.4	-43.3	20.6	0.00e+00	0	34	0	1704984576	56	4004
2026-01-16 15:20:10.99	305.99	10.14	-42.3	-43.3	20.7	0.00e+00	0	34	0	1710227456	56	3961
2026-01-16 15:20:11.99	306.17	10.13	-42.3	-43.3	20.6	0.00e+00	0	34	0	1716518912	56	3968
2026-01-16 15:20:13.00	306.35	10.11	-42.4	-43.3	20.6	0.00e+00	0	34	0	1721761792	56	4004
2026-01-16 15:20:14.01	306.52	10.09	-42.4	-43.3	20.6	0.00e+00	0	34	0	1728053248	56	3996
2026-01-16 15:20:15.02	306.70	10.08	-42.5	-43.4	20.5	0.00e+00	0	34	0	1733296128	56	4034
2026-01-16 15:20:16.03	306.88	10.06	-42.5	-43.5	20.4	0.00e+00	0	34	0	1739587584	56	4063
2026-01-16 15:20:17.03	307.06	10.04	-42.6	-43.6	20.4	0.00e+00	0	33	0	1744830464	56	4106
2026-01-16 15:20:18.04	307.23	10.02	-42.6	-43.6	20.3	0.00e+00	0	34	0	1750073344	56	4121
2026-01-16 15:20:19.05	307.41	10.01	-42.5	-43.5	20.5	0.00e+00	0	34	0	1756364800	56	4053
2026-01-16 15:20:20.06	307.59	9.99	-42.6	-43.6	20.3	0.00e+00	0	34	0	1761607680	56	4130
2026-01-16 15:20:21.07	307.76	9.97	-42.7	-43.7	20.2	0.00e+00	0	34	0	1766850560	56	4184
2026-01-16 15:20:22.08	307.94	9.95	-42.8	-43.8	20.2	0.00e+00	0	33	0	1773142016	56	4200
2026-01-16 15:20:23.09	308.12	9.93	-42.7	-43.6	20.3	0.00e+00	0	33	0	1778384896	56	4144
2026-01-16 15:20:24.10	308.29	9.92	-42.7	-43.7	20.3	0.00e+00	0	34	0	1784676352	56	4159
2026-01-16 15:20:25.10	308.47	9.90	-42.6	-43.6	20.3	0.00e+00	0	34	0	1789919232	56	4127
2026-01-16 15:20:26.11	308.64	9.88	-42.7	-43.7	20.2	0.00e+00	0	34	0	1796210688	56	4161
2026-01-16 15:20:27.12	308.82	9.86	-42.8	-43.8	20.1	0.00e+00	0	34	0	1801453568	56	4225
2026-01-16 15:20:28.13	308.99	9.84	-42.7	-43.7	20.2	0.00e+00	0	34	0	1806696448	56	4152
2026-01-16 15:20:29.14	309.17	9.82	-42.6	-43.5	20.4	0.00e+00	0	33	0	1812987904	56	4091
2026-01-16 15:20:30.15	309.34	9.80	-42.6	-43.6	20.2	0.00e+00	0	33	0	1818230784	56	4125
2026-01-16 15:20:31.15	309.52	9.78	-42.7	-43.7	20.2	0.00e+00	0	33	0	1824522240	56	4148
2026-01-16 15:20:32.16	309.69	9.76	-42.7	-43.7	20.2	0.00e+00	0	33	0	1829765120	56	4152
2026-01-16 15:20:33.17	309.86	9.74	-42.8	-43.8	20.1	0.00e+00	0	33	0	1835008000	56	4214
2026-01-16 15:20:34.18	310.04	9.72	-42.7	-43.7	20.2	0.00e+00	0	33	0	1841299456	56	4177
2026-01-16 15:20:35.19	310.21	9.70	-42.6	-43.6	20.3	0.00e+00	0	34	0	1846542336	56	4122
2026-01-16 15:20:36.19	310.38	9.67	-42.5	-43.5	20.4	0.00e+00	0	34	0	1852833792	56	4066
2026-01-16 15:20:37.20	310.56	9.65	-42.6	-43.5	20.3	0.00e+00	0	34	0	1858076672	56	4084
2026-01-16 15:20:38.21	310.73	9.63	-42.6	-43.5	20.3	0.00e+00	0	33	0	1864368128	56	4098
2026-01-16 15:20:39.22	310.90	9.61	-42.7	-43.6	20.2	0.00e+00	0	33	0	1869611008	56	4145
2026-01-16 15:20:40.23	311.07	9.59	-42.7	-43.6	20.2	0.00e+00	0	33	0	1874853888	56	4137
2026-01-16 15:20:41.23	311.24	9.56	-42.6	-43.6	20.3	0.00e+00	0	33	0	1881145344	56	4117
2026-01-16 15:20:42.24	311.41	9.54	-42.6	-43.6	20.3	0.00e+00	0	33	0	1886388224	56	4102
2026-01-16 15:20:43.25	311.59	9.52	-42.6	-43.6	20.3	0.00e+00	0	34	0	1892679680	56	4116
2026-01-16 15:20:44.26	311.76	9.50	-42.7	-43.6	20.2	0.00e+00	0	33	0	1897922560	56	4135
2026-01-16 15:20:45.27	311.93	9.47	-42.6	-43.6	20.2	0.00e+00	0	34	0	1903165440	56	4117
2026-01-16 15:20:46.28	312.10	9.45	-42.5	-43.5	20.4	0.00e+00	0	33	0	1909456896	56	4078
2026-01-16 15:20:47.29	312.27	9.43	-42.6	-43.6	20.3	0.00e+00	0	33	0	1914699776	56	4115
2026-01-16 15:20:48.29	312.44	9.40	-42.7	-43.7	20.1	0.00e+00	0	33	0	1919942656	56	4175
2026-01-16 15:20:49.30	312.61	9.38	-42.7	-43.7	20.2	0.00e+00	0	33	0	1926234112	56	4158
2026-01-16 15:20:50.30	312.78	9.35	-42.9	-43.9	19.9	0.00e+00	0	34	0	1932525568	56	4285
2026-01-16 15:20:51.31	312.95	9.33	-42.8	-43.8	20.1	0.00e+00	0	33	0	1937768448	56	4229
2026-01-16 15:20:52.32	313.11	9.31	-42.8	-43.8	20.1	0.00e+00	0	33	0	1943011328	56	4211
2026-01-16 15:20:53.33	313.28	9.28	-42.9	-43.9	20.0	0.00e+00	0	34	0	1949302784	56	4257
2026-01-16 15:20:54.34	313.45	9.26	-42.8	-43.8	20.0	0.00e+00	0	34	0	1954545664	56	4221
2026-01-16 15:20:55.34	313.62	9.23	-42.9	-44.0	19.9	0.00e+00	0	33	0	1959788544	56	4305
2026-01-16 15:20:56.35	313.79	9.21	-42.8	-43.8	20.0	0.00e+00	0	33	0	1966080000	56	4206
2026-01-16 15:20:57.36	313.95	9.18	-42.9	-43.9	19.9	0.00e+00	0	34	0	1971322880	56	4266
2026-01-16 15:20:58.37	314.12	9.16	-42.8	-43.8	20.0	0.00e+00	0	33	0	1977614336	56	4219
2026-01-16 15:20:59.38	314.29	9.13	-43.0	-44.1	19.7	0.00e+00	0	33	0	1982857216	56	4351
2026-01-16 15:21:00.39	314.46	9.10	-43.0	-44.1	19.8	0.00e+00	0	33	0	1988100096	56	4344
2026-01-16 15:21:01.40	314.62	9.08	-42.9	-43.9	19.9	0.00e+00	0	34	0	1994391552	56	4288
2026-01-16 15:21:02.40	314.79	9.05	-42.9	-43.9	19.9	0.00e+00	0	34	0	1999634432	56	4279
2026-01-16 15:21:03.41	314.95	9.02	-43.0	-44.0	19.8	0.00e+00	0	34	0	2005925888	56	4316
2026-01-16 15:21:04.42	315.12	9.00	-43.0	-44.0	19.8	0.00e+00	0	33	0	2011168768	56	4329
2026-01-16 15:21:05.43	315.28	8.97	-42.9	-44.0	19.8	0.00e+00	0	34	0	2017460224	56	4298
2026-01-16 15:21:06.44	315.45	8.94	-43.0	-44.0	19.8	0.00e+00	0	33	0	2022703104	56	4320
2026-01-16 15:21:07.45	315.61	8.92	-43.1	-44.1	19.7	0.00e+00	0	33	0	2027945984	56	4362
2026-01-16 15:21:08.45	315.78	8.89	-42.9	-44.0	19.8	0.00e+00	0	33	0	2034237440	56	4297
2026-01-16 15:21:09.46	315.94	8.86	-43.0	-44.0	19.8	0.00e+00	0	33	0	2039480320	56	4323
2026-01-16 15:21:10.47	316.10	8.83	-43.0	-44.0	19.7	0.00e+00	0	33	0	2044723200	56	4340
2026-01-16 15:21:11.48	316.27	8.81	-42.9	-43.9	19.9	0.00e+00	0	33	0	2051014656	56	4289
2026-01-16 15:21:12.49	316.43	8.78	-42.9	-44.0	19.8	0.00e+00	0	33	0	2057306112	56	4297
2026-01-16 15:21:13.50	316.59	8.75	-43.0	-44.0	19.8	0.00e+00	0	34	0	2062548992	56	4309
2026-01-16 15:21:14.51	316.76	8.72	-43.0	-44.0	19.8	0.00e+00	0	33	0	2067791872	56	4297
2026-01-16 15:21:15.51	316.92	8.69	-42.8	-43.7	20.0	0.00e+00	0	33	0	2074083328	56	4193
2026-01-16 15:21:16.52	317.08	8.66	-42.9	-43.9	19.9	0.00e+00	0	33	0	2079326208	56	4280
2026-01-16 15:21:17.53	317.24	8.64	-42.8	-43.8	20.0	0.00e+00	0	33	0	2084569088	56	4222
2026-01-16 15:21:18.54	317.40	8.61	-42.8	-43.8	20.0	0.00e+00	0	34	0	2090860544	56	4217
2026-01-16 15:21:19.55	317.56	8.58	-42.9	-43.9	19.9	0.00e+00	0	34	0	2096103424	56	4251
2026-01-16 15:21:20.56	317.72	8.55	-43.0	-44.0	19.8	0.00e+00	0	33	0	2102394880	56	4312
2026-01-16 15:21:21.57	317.89	8.52	-42.9	-44.0	19.8	0.00e+00	0	33	0	2107637760	56	4294
2026-01-16 15:21:22.58	318.05	8.49	-43.0	-44.1	19.7	0.00e+00	0	33	0	2112880640	56	4349
2026-01-16 15:21:23.59	318.21	8.46	-43.0	-44.1	19.7	0.00e+00	0	34	0	2119172096	56	4346
2026-01-16 15:21:24.60	318.36	8.43	-43.0	-44.0	19.7	0.00e+00	0	34	0	2125463552	56	4332
2026-01-16 15:21:25.60	318.52	8.40	-43.1	-44.1	19.7	0.00e+00	0	33	0	2130706432	56	4361
2026-01-16 15:21:26.61	318.68	8.37	-43.1	-44.2	19.6	0.00e+00	0	34	0	2135949312	56	4397
2026-01-16 15:21:27.62	318.84	8.34	-43.2	-44.2	19.5	0.00e+00	0	33	0	2142240768	57	4186
2026-01-16 15:21:28.63	319.00	8.31	-43.1	-44.2	19.6	0.00e+00	0	34	0	2147483648	57	4151
2026-01-16 15:21:29.63	319.15	8.28	-43.1	-44.2	19.5	0.00e+00	0	34	0	2152726528	57	4163
2026-01-16 15:21:30.64	319.31	8.25	-43.1	-44.2	19.5	0.00e+00	0	33	0	2159017984	57	4167
2026-01-16 15:21:31.65	319.47	8.22	-43.2	-44.2	19.5	0.00e+00	0	33	0	2164260864	57	4186
2026-01-16 15:21:32.66	319.63	8.18	-43.3	-44.4	19.4	0.00e+00	0	34	0	2170552320	57	4258
2026-01-16 15:21:33.67	319.78	8.15	-43.2	-44.3	19.4	0.00e+00	0	34	0	2175795200	57	4226
2026-01-16 15:21:34.68	319.94	8.12	-43.1	-44.1	19.6	0.00e+00	0	33	0	2181038080	57	4143
2026-01-16 15:21:35.69	320.09	8.09	-43.1	-44.1	19.6	0.00e+00	0	33	0	2187329536	57	4138
2026-01-16 15:21:36.70	320.25	8.06	-43.2	-44.2	19.5	0.00e+00	0	33	0	2192572416	57	4181
2026-01-16 15:21:37.71	320.41	8.03	-43.1	-44.2	19.5	0.00e+00	0	33	0	2198863872	57	4155
2026-01-16 15:21:38.72	320.56	7.99	-42.9	-43.9	19.7	0.00e+00	0	34	0	2204106752	57	4049
2026-01-16 15:21:39.72	320.71	7.96	-43.0	-44.0	19.7	0.00e+00	0	34	0	2210398208	57	4060
2026-01-16 15:21:40.73	320.87	7.93	-42.8	-43.8	19.8	0.00e+00	0	34	0	2215641088	57	4000
2026-01-16 15:21:41.74	321.02	7.90	-42.9	-43.9	19.8	0.00e+00	0	34	0	2220883968	57	4031
2026-01-16 15:21:42.75	321.18	7.86	-43.0	-44.0	19.7	0.00e+00	0	34	0	2227175424	57	4071
2026-01-16 15:21:43.76	321.33	7.83	-43.0	-44.0	19.6	0.00e+00	0	34	0	2232418304	57	4097
2026-01-16 15:21:44.77	321.48	7.80	-43.1	-44.2	19.5	0.00e+00	0	34	0	2237661184	57	4158
2026-01-16 15:21:45.78	321.63	7.77	-43.2	-44.2	19.4	0.00e+00	0	34	0	2243952640	57	4184
2026-01-16 15:21:46.79	321.79	7.73	-43.3	-44.4	19.3	0.00e+00	0	33	0	2249195520	57	4246
2026-01-16 15:21:47.80	321.94	7.70	-43.4	-44.5	19.2	0.00e+00	0	34	0	2255486976	57	4303
2026-01-16 15:21:48.81	322.09	7.67	-43.5	-44.6	19.1	0.00e+00	0	34	0	2260729856	57	4364
2026-01-16 15:21:49.81	322.24	7.63	-43.3	-44.4	19.3	0.00e+00	0	34	0	2267021312	57	4246
2026-01-16 15:21:50.82	322.39	7.60	-43.4	-44.5	19.2	0.00e+00	0	34	0	2272264192	57	4300
2026-01-16 15:21:51.83	322.54	7.57	-43.5	-44.6	19.1	0.00e+00	0	34	0	2277507072	57	4358
2026-01-16 15:21:52.84	322.69	7.53	-43.4	-44.5	19.2	0.00e+00	0	34	0	2283798528	57	4313
2026-01-16 15:21:53.85	322.84	7.50	-43.4	-44.5	19.2	0.00e+00	0	34	0	2289041408	57	4317
2026-01-16 15:21:54.86	322.99	7.46	-43.5	-44.6	19.0	0.00e+00	0	34	0	2295332864	57	4366
2026-01-16 15:21:55.87	323.14	7.43	-43.4	-44.5	19.1	0.00e+00	0	34	0	2300575744	57	4316
2026-01-16 15:21:56.87	323.29	7.40	-43.3	-44.4	19.2	0.00e+00	0	33	0	2305818624	57	4266
2026-01-16 15:21:57.89	323.44	7.36	-43.3	-44.4	19.2	0.00e+00	0	33	0	2312110080	57	4260
2026-01-16 15:21:58.89	323.59	7.33	-43.4	-44.5	19.2	0.00e+00	0	34	0	2318401536	57	4309
2026-01-16 15:21:59.90	323.73	7.29	-43.5	-44.6	19.0	0.00e+00	0	33	0	2323644416	57	4383
2026-01-16 15:22:00.91	323.88	7.26	-43.5	-44.6	19.0	0.00e+00	0	34	0	2328887296	57	4370
2026-01-16 15:22:01.92	324.03	7.22	-43.4	-44.5	19.2	0.00e+00	0	34	0	2335178752	57	4296
2026-01-16 15:22:02.93	324.18	7.19	-43.5	-44.6	19.1	0.00e+00	0	34	0	2340421632	57	4344
2026-01-16 15:22:03.94	324.32	7.15	-43.4	-44.5	19.1	0.00e+00	0	34	0	2345664512	57	4306
2026-01-16 15:22:04.95	324.47	7.12	-43.3	-44.4	19.2	0.00e+00	0	34	0	2351955968	57	4245
2026-01-16 15:22:05.96	324.61	7.08	-43.4	-44.5	19.1	0.00e+00	0	34	0	2357198848	57	4313
2026-01-16 15:22:06.97	324.76	7.05	-43.4	-44.5	19.1	0.00e+00	0	33	0	2362441728	57	4322
2026-01-16 15:22:07.98	324.90	7.01	-43.6	-44.7	18.9	0.00e+00	0	34	0	2368733184	57	4419
2026-01-16 15:22:08.99	325.05	6.98	-43.3	-44.4	19.2	0.00e+00	0	33	0	2373976064	57	4282
2026-01-16 15:22:10.00	325.19	6.94	-43.3	-44.3	19.2	0.00e+00	0	34	0	2380267520	57	4236
2026-01-16 15:22:11.00	325.34	6.90	-43.2	-44.3	19.3	0.00e+00	0	34	0	2385510400	57	4212
2026-01-16 15:22:12.01	325.48	6.87	-43.4	-44.5	19.1	0.00e+00	0	34	0	2391801856	57	4308
2026-01-16 15:22:13.02	325.62	6.83	-43.4	-44.5	19.0	0.00e+00	0	34	0	2397044736	57	4334
2026-01-16 15:22:14.03	325.77	6.80	-43.3	-44.4	19.2	0.00e+00	0	34	0	2403336192	57	4258
2026-01-16 15:22:15.04	325.91	6.76	-43.4	-44.4	19.1	0.00e+00	0	33	0	2408579072	57	4285
2026-01-16 15:22:16.05	326.05	6.72	-43.4	-44.5	19.1	0.00e+00	0	33	0	2413821952	57	4293
2026-01-16 15:22:17.06	326.20	6.69	-43.3	-44.4	19.1	0.00e+00	0	34	0	2420113408	57	4265
2026-01-16 15:22:18.07	326.34	6.65	-43.5	-44.6	19.0	0.00e+00	0	33	0	2425356288	57	4356
2026-01-16 15:22:19.08	326.48	6.61	-43.6	-44.7	18.8	0.00e+00	0	33	0	2430599168	57	4432
2026-01-16 15:22:20.09	326.62	6.58	-43.7	-44.9	18.7	0.00e+00	0	34	0	2436890624	58	4265
2026-01-16 15:22:21.09	326.76	6.54	-43.9	-45.0	18.5	0.00e+00	0	34	0	2442133504	58	4333
2026-01-16 15:22:22.10	326.90	6.50	-43.7	-44.9	18.7	0.00e+00	0	34	0	2448424960	58	4258
2026-01-16 15:22:23.11	327.04	6.47	-43.6	-44.8	18.7	0.00e+00	0	34	0	2453667840	58	4218
2026-01-16 15:22:24.12	327.18	6.43	-43.7	-44.9	18.6	0.00e+00	0	33	0	2459959296	58	4276
2026-01-16 15:22:25.12	327.32	6.39	-43.8	-45.0	18.5	0.00e+00	0	34	0	2465202176	58	4315
2026-01-16 15:22:26.13	327.46	6.36	-43.9	-45.1	18.4	0.00e+00	0	34	0	2470445056	58	4364
2026-01-16 15:22:27.14	327.59	6.32	-43.9	-45.1	18.4	0.00e+00	0	34	0	2476736512	58	4349
2026-01-16 15:22:28.15	327.73	6.28	-43.8	-45.0	18.5	0.00e+00	0	34	0	2481979392	58	4301
2026-01-16 15:22:29.15	327.87	6.25	-43.7	-44.9	18.6	0.00e+00	0	34	0	2488270848	58	4248
2026-01-16 15:22:30.16	328.01	6.21	-43.7	-44.8	18.7	0.00e+00	0	33	0	2493513728	58	4227
2026-01-16 15:22:31.17	328.14	6.17	-43.7	-44.9	18.6	0.00e+00	0	33	0	2498756608	58	4243
2026-01-16 15:22:32.18	328.28	6.13	-43.7	-44.9	18.6	0.00e+00	0	34	0	2505048064	58	4245
2026-01-16 15:22:33.18	328.42	6.10	-43.6	-44.7	18.7	0.00e+00	0	34	0	2510290944	58	4185
2026-01-16 15:22:34.19	328.55	6.06	-43.7	-44.8	18.7	0.00e+00	0	34	0	2516582400	58	4213
2026-01-16 15:22:35.20	328.69	6.02	-43.5	-44.6	18.8	0.00e+00	0	34	0	2521825280	58	4126
2026-01-16 15:22:36.21	328.83	5.98	-43.6	-44.7	18.7	0.00e+00	0	34	0	2528116736	58	4186
2026-01-16 15:22:37.22	328.96	5.94	-43.7	-44.9	18.6	0.00e+00	0	34	0	2533359616	58	4265
2026-01-16 15:22:38.23	329.10	5.90	-44.1	-45.3	18.1	0.00e+00	0	33	0	2538602496	58	4489
2026-01-16 15:22:39.24	329.23	5.87	-43.9	-45.1	18.4	0.00e+00	0	34	0	2544893952	58	4351
2026-01-16 15:22:40.25	329.36	5.83	-44.2	-45.5	18.0	0.00e+00	0	34	0	2550136832	58	4548
2026-01-16 15:22:41.26	329.50	5.79	-43.7	-44.9	18.6	0.00e+00	0	34	0	2555379712	59	4028
2026-01-16 15:22:42.26	329.63	5.75	-44.0	-45.2	18.2	0.00e+00	0	33	0	2561671168	59	4176
2026-01-16 15:22:43.27	329.76	5.71	-44.2	-45.5	18.0	0.00e+00	0	34	0	2566914048	59	4316
2026-01-16 15:22:44.28	329.90	5.67	-44.2	-45.5	17.9	0.00e+00	0	33	0	2573205504	59	4321
2026-01-16 15:22:45.29	330.03	5.64	-44.1	-45.3	18.1	0.00e+00	0	34	0	2578448384	59	4218
2026-01-16 15:22:46.30	330.16	5.60	-43.8	-45.0	18.4	0.00e+00	0	33	0	2584739840	59	4070
2026-01-16 15:22:47.31	330.29	5.56	-43.8	-45.0	18.4	0.00e+00	0	34	0	2589982720	59	4089
2026-01-16 15:22:48.31	330.42	5.52	-43.9	-45.0	18.4	0.00e+00	0	34	0	2596274176	59	4096
2026-01-16 15:22:49.32	330.56	5.48	-43.7	-44.8	18.6	0.00e+00	0	34	0	2601517056	59	3993
2026-01-16 15:22:50.33	330.69	5.44	-43.6	-44.8	18.6	0.00e+00	0	34	0	2606759936	59	3967
2026-01-16 15:22:51.35	330.82	5.40	-43.9	-45.1	18.3	0.00e+00	0	34	0	2613051392	59	4114
2026-01-16 15:22:52.35	330.95	5.36	-43.7	-44.8	18.6	0.00e+00	0	34	0	2618294272	59	3984
2026-01-16 15:22:53.36	331.08	5.32	-43.6	-44.7	18.6	0.00e+00	0	34	0	2623537152	59	3950
2026-01-16 15:22:54.37	331.21	5.29	-43.4	-44.5	18.8	0.00e+00	0	34	0	2629828608	58	4097
2026-01-16 15:22:55.38	331.34	5.25	-43.8	-44.9	18.4	0.00e+00	0	34	0	2635071488	58	4290
2026-01-16 15:22:56.39	331.46	5.21	-43.8	-45.0	18.3	0.00e+00	0	34	0	2641362944	58	4310
2026-01-16 15:22:57.39	331.59	5.17	-43.7	-44.9	18.4	0.00e+00	0	33	0	2646605824	58	4257
2026-01-16 15:22:58.40	331.72	5.13	-43.9	-45.1	18.2	0.00e+00	0	34	0	2652897280	58	4349
2026-01-16 15:22:59.41	331.85	5.09	-44.0	-45.1	18.2	0.00e+00	0	34	0	2658140160	58	4389
2026-01-16 15:23:00.42	331.98	5.05	-44.1	-45.4	18.0	0.00e+00	0	33	0	2663383040	58	4497
2026-01-16 15:23:01.43	332.10	5.01	-44.4	-45.7	17.7	0.00e+00	0	34	0	2669674496	59	4401
2026-01-16 15:23:02.44	332.23	4.97	-52.4	-64.2	3.8	8.26e-01	0	34	104	2672820224	75	14796
2026-01-16 15:23:03.45	332.36	4.93	-52.7	-64.7	3.8	8.47e-01	0	34	104	2672820224	75	15631
2026-01-16 15:23:04.46	332.48	4.89	-52.9	-64.9	3.8	8.46e-01	0	34	104	2672820224	76	15124
2026-01-16 15:23:05.46	332.61	4.85	-53.0	-65.0	3.8	8.46e-01	0	34	104	2672820224	76	15398
2026-01-16 15:23:06.47	332.73	4.81	-53.2	-65.1	3.8	8.46e-01	0	34	104	2672820224	76	15561
2026-01-16 15:23:07.48	332.86	4.77	-53.3	-65.2	3.8	8.47e-01	0	34	104	2672820224	77	14823
2026-01-16 15:23:08.49	332.98	4.73	-53.3	-65.3	3.8	8.46e-01	0	34	104	2672820224	77	15014
2026-01-16 15:23:09.50	333.11	4.69	-53.4	-65.4	3.8	8.46e-01	0	34	104	2672820224	77	15166
2026-01-16 15:23:10.50	333.23	4.65	-53.5	-65.5	3.8	8.45e-01	0	33	104	2672820224	77	15278
2026-01-16 15:23:11.51	333.36	4.61	-53.5	-65.5	3.8	8.47e-01	0	34	104	2672820224	77	15398
2026-01-16 15:23:12.52	333.48	4.57	-53.6	-65.6	3.9	8.47e-01	0	34	104	2672820224	77	15416
2026-01-16 15:23:13.53	333.60	4.53	-53.6	-65.6	3.8	8.46e-01	0	34	104	2672820224	77	15476
2026-01-16 15:23:14.54	333.73	4.49	-53.6	-65.6	3.8	8.45e-01	0	34	104	2672820224	77	15491
2026-01-16 15:23:15.55	333.85	4.45	-53.6	-65.6	3.8	8.46e-01	0	34	104	2672820224	77	15439
2026-01-16 15:23:16.56	333.97	4.41	-53.6	-65.6	3.8	8.45e-01	0	34	104	2672820224	77	15463
2026-01-16 15:23:17.57	334.09	4.37	-53.6	-65.6	3.8	8.47e-01	0	34	104	2672820224	77	15465
2026-01-16 15:23:18.58	334.21	4.33	-53.5	-65.5	3.8	8.46e-01	0	34	104	2672820224	77	15392
2026-01-16 15:23:19.58	334.33	4.29	-53.5	-65.5	3.8	8.47e-01	0	33	104	2672820224	77	15396
2026-01-16 15:23:20.59	334.46	4.25	-53.5	-65.5	3.8	8.46e-01	0	33	104	2672820224	77	15282
2026-01-16 15:23:21.60	334.58	4.21	-53.4	-65.5	3.8	8.45e-01	0	34	104	2672820224	77	15239
2026-01-16 15:23:22.61	334.70	4.17	-53.5	-65.4	3.8	8.46e-01	0	34	104	2672820224	77	15216
2026-01-16 15:23:23.62	334.82	4.13	-53.4	-65.4	3.8	8.46e-01	0	34	104	2672820224	77	15175
2026-01-16 15:23:24.63	334.94	4.09	-53.4	-65.4	3.8	8.46e-01	0	34	104	2672820224	77	15129
2026-01-16 15:23:25.64	335.06	4.04	-53.4	-65.4	3.8	8.46e-01	0	34	104	2672820224	77	15134
2026-01-16 15:23:26.65	335.17	4.00	-53.4	-65.4	3.8	8.46e-01	0	33	104	2672820224	77	15109
2026-01-16 15:23:27.66	335.29	3.96	-53.4	-65.4	3.8	8.46e-01	0	34	104	2672820224	77	15124
2026-01-16 15:23:28.66	335.41	3.92	-53.3	-65.4	3.8	8.46e-01	0	34	104	2672820224	77	15086
2026-01-16 15:23:29.67	335.53	3.88	-53.4	-65.4	3.8	8.47e-01	0	34	104	2672820224	77	15079
2026-01-16 15:23:30.68	335.65	3.84	-53.3	-65.4	3.8	8.46e-01	0	34	104	2672820224	77	15079
2026-01-16 15:23:31.69	335.76	3.80	-53.3	-65.4	3.8	8.46e-01	0	34	104	2672820224	77	15078
2026-01-16 15:23:32.70	335.88	3.76	-53.3	-65.3	3.8	8.45e-01	0	34	104	2672820224	77	15026
2026-01-16 15:23:33.71	336.00	3.72	-53.3	-65.4	3.8	8.46e-01	0	34	104	2672820224	77	15060
2026-01-16 15:23:34.72	336.12	3.68	-53.3	-65.4	3.8	8.47e-01	0	34	104	2672820224	77	15074
2026-01-16 15:23:35.72	336.23	3.64	-53.3	-65.3	3.8	8.46e-01	0	34	104	2672820224	77	15020
2026-01-16 15:23:36.73	336.35	3.60	-53.3	-65.3	3.8	8.46e-01	0	34	104	2672820224	77	15002
2026-01-16 15:23:37.74	336.46	3.55	-53.3	-65.3	3.8	8.46e-01	0	34	104	2672820224	77	14980
2026-01-16 15:23:38.75	336.58	3.51	-53.3	-65.3	3.8	8.45e-01	0	34	104	2672820224	77	14967
2026-01-16 15:23:39.76	336.69	3.47	-53.3	-65.3	3.8	8.46e-01	0	34	104	2672820224	77	15007
2026-01-16 15:23:40.77	336.81	3.43	-53.3	-65.3	3.8	8.46e-01	0	34	104	2672820224	77	14967
2026-01-16 15:23:41.78	336.92	3.39	-53.3	-65.3	3.8	8.45e-01	0	34	104	2672820224	77	14989
2026-01-16 15:23:42.79	337.04	3.35	-53.3	-65.3	3.8	8.45e-01	0	34	104	2672820224	77	14966
2026-01-16 15:23:43.80	337.15	3.31	-53.3	-65.3	3.8	8.46e-01	0	34	104	2672820224	77	14961
2026-01-16 15:23:44.80	337.26	3.27	-53.3	-65.3	3.8	8.46e-01	0	34	104	2672820224	77	14999
2026-01-16 15:23:45.81	337.38	3.22	-53.3	-65.3	3.8	8.47e-01	0	34	104	2672820224	77	14969
2026-01-16 15:23:46.82	337.49	3.18	-53.3	-65.3	3.8	8.46e-01	0	34	104	2672820224	77	14985
2026-01-16 15:23:47.83	337.60	3.14	-53.3	-65.3	3.8	8.46e-01	0	34	104	2672820224	77	14962
2026-01-16 15:23:48.84	337.71	3.10	-53.3	-65.3	3.8	8.46e-01	0	34	104	2672820224	77	15021
2026-01-16 15:23:49.85	337.83	3.06	-53.3	-65.3	3.8	8.47e-01	0	34	104	2672820224	77	14954
2026-01-16 15:23:50.86	337.94	3.02	-53.3	-65.3	3.8	8.46e-01	0	34	104	2672820224	77	14943
2026-01-16 15:23:51.87	338.05	2.98	-53.3	-65.3	3.8	8.45e-01	0	34	104	2672820224	77	14914
2026-01-16 15:23:52.88	338.16	2.93	-53.3	-65.3	3.8	8.45e-01	0	34	104	2672820224	77	14982
2026-01-16 15:23:53.88	338.27	2.89	-53.2	-65.2	3.8	8.45e-01	0	34	104	2672820224	77	14875
2026-01-16 15:23:54.89	338.38	2.85	-53.2	-65.2	3.8	8.46e-01	0	34	104	2672820224	77	14879
2026-01-16 15:23:55.90	338.49	2.81	-53.2	-65.3	3.8	8.46e-01	0	34	104	2672820224	77	14884
2026-01-16 15:23:56.91	338.60	2.77	-53.2	-65.2	3.8	8.46e-01	0	34	104	2672820224	77	14850
2026-01-16 15:23:57.92	338.71	2.73	-53.2	-65.2	3.8	8.45e-01	0	34	104	2672820224	77	14838
2026-01-16 15:23:58.93	338.82	2.68	-53.2	-65.2	3.8	8.45e-01	0	34	104	2672820224	77	14829
2026-01-16 15:23:59.94	338.93	2.64	-53.2	-65.3	3.8	8.46e-01	0	34	104	2672820224	77	14881
2026-01-16 15:24:00.95	339.04	2.60	-53.2	-65.2	3.8	8.45e-01	0	34	104	2672820224	77	14824
2026-01-16 15:24:01.96	339.15	2.56	-53.2	-65.2	3.8	8.46e-01	0	34	104	2672820224	77	14816
2026-01-16 15:24:02.96	339.25	2.52	-53.2	-65.2	3.8	8.47e-01	0	34	104	2672820224	77	14862
2026-01-16 15:24:03.97	339.36	2.48	-53.2	-65.2	3.8	8.46e-01	0	34	104	2672820224	77	14835
2026-01-16 15:24:04.98	339.47	2.43	-53.2	-65.2	3.8	8.47e-01	0	34	104	2672820224	77	14829
2026-01-16 15:24:05.99	339.58	2.39	-53.2	-65.2	3.8	8.46e-01	0	34	104	2672820224	77	14791
2026-01-16 15:24:07.00	339.68	2.35	-53.2	-65.2	3.8	8.47e-01	0	34	104	2672820224	77	14837
2026-01-16 15:24:08.01	339.79	2.31	-53.2	-65.2	3.9	8.45e-01	0	34	104	2672820224	77	14844
2026-01-16 15:24:09.02	339.90	2.27	-53.2	-65.2	3.8	8.46e-01	0	34	104	2672820224	77	14843
2026-01-16 15:24:10.02	340.00	2.23	-53.2	-65.2	3.8	8.47e-01	0	34	104	2672820224	77	14808
2026-01-16 15:24:11.03	340.11	2.18	-53.2	-65.2	3.8	8.46e-01	0	34	104	2672820224	77	14796
2026-01-16 15:24:12.04	340.21	2.14	-53.2	-65.2	3.8	8.47e-01	0	34	104	2672820224	77	14813
2026-01-16 15:24:13.05	340.32	2.10	-53.2	-65.3	3.8	8.46e-01	0	34	104	2672820224	77	14885
2026-01-16 15:24:14.06	340.42	2.06	-53.2	-65.2	3.8	8.47e-01	0	34	104	2672820224	77	14821
2026-01-16 15:24:15.07	340.53	2.02	-53.2	-65.2	3.8	8.46e-01	0	34	104	2672820224	77	14868
2026-01-16 15:24:16.08	340.63	1.97	-53.2	-65.2	3.8	8.46e-01	0	34	104	2672820224	77	14858

#Closed at: 2026-01-16 15:24:17
#Recorded file [2672 MB]: D:/lorett/data/31041_260116_181359.dat