passes_logs/2026/01/16/R3.2S_Murmansk/R3.2S_Murmansk__20260116_061157_NOAA_20_JPSS-1_rec.log

#Pass ID: 20260116_061157_NOAA 20 (JPSS-1)
#Satellite: NOAA 20 (JPSS-1)
#Configuration: NOAA 20
#almurnet v.1.7.20251203
#Start time: 2026-01-16 06:11:57

#Version: 2.2.20231116
#Station: R3.2S_Murmansk
#Location: 33.079688 lon 68.888172 lat
#TLE: 1 43013U 17073A   26015.89389188  .00000026  00000+0  33113-4 0  9999
#TLE: 2 43013  98.7636 316.8238 0001460  37.8997 322.2282 14.19536128422860

#Time	Az	El	Level	Level2	SNR	BER	BlckErr	Temp	State	Recorded	gain1	gain2
2026-01-16 06:11:57.42	79.40	2.01	-56.5	-71.4	3.8	1.49e+00	0	42	0	0	84	20245
2026-01-16 06:11:58.42	79.34	2.07	-56.4	-71.4	3.8	1.49e+00	0	42	104	0	83	21307
2026-01-16 06:11:59.43	79.28	2.13	-56.4	-71.3	3.8	1.49e+00	0	42	104	0	83	21201
2026-01-16 06:12:00.44	79.22	2.18	-56.4	-71.4	3.8	1.49e+00	0	42	104	0	83	21266
2026-01-16 06:12:01.45	79.15	2.24	-56.4	-71.3	3.8	1.49e+00	0	42	104	0	83	21225
2026-01-16 06:12:02.46	79.09	2.30	-56.4	-71.3	3.8	1.49e+00	0	42	104	0	83	21206
2026-01-16 06:12:03.47	79.03	2.36	-56.4	-71.3	3.8	1.49e+00	0	42	104	0	83	21199
2026-01-16 06:12:04.48	78.97	2.42	-56.4	-71.3	3.8	1.49e+00	0	42	104	0	83	21197
2026-01-16 06:12:05.49	78.91	2.48	-56.4	-71.3	3.8	1.49e+00	0	43	104	0	83	21115
2026-01-16 06:12:06.50	78.85	2.54	-56.4	-71.3	3.8	1.49e+00	0	42	104	0	83	21226
2026-01-16 06:12:07.51	78.78	2.60	-56.4	-71.3	3.8	1.49e+00	0	42	104	0	83	21152
2026-01-16 06:12:08.52	78.72	2.66	-56.4	-71.3	3.8	1.49e+00	0	43	104	0	83	21179
2026-01-16 06:12:09.53	78.66	2.71	-56.4	-71.3	3.8	1.49e+00	0	42	104	0	83	21141
2026-01-16 06:12:10.55	78.59	2.77	-56.4	-71.3	3.8	1.49e+00	0	43	104	0	83	21160
2026-01-16 06:12:11.56	78.53	2.83	-56.4	-71.3	3.8	1.49e+00	0	43	104	0	83	21219
2026-01-16 06:12:12.57	78.47	2.89	-56.4	-71.3	3.8	1.49e+00	0	43	104	0	83	21252
2026-01-16 06:12:13.58	78.40	2.95	-56.4	-71.3	3.8	1.49e+00	0	43	104	0	83	21241
2026-01-16 06:12:14.59	78.34	3.01	-56.4	-71.3	3.8	1.49e+00	0	43	104	0	83	21203
2026-01-16 06:12:15.60	78.27	3.07	-56.4	-71.3	3.8	1.49e+00	0	43	104	0	83	21114
2026-01-16 06:12:16.61	78.21	3.13	-56.4	-71.3	3.8	1.49e+00	0	43	104	0	83	21084
2026-01-16 06:12:17.62	78.14	3.19	-56.4	-71.3	3.8	1.49e+00	0	43	104	0	83	21179
2026-01-16 06:12:18.63	78.08	3.25	-56.4	-71.3	3.8	1.49e+00	0	43	104	0	83	21110
2026-01-16 06:12:19.64	78.01	3.31	-56.4	-71.3	3.8	1.49e+00	0	43	104	0	83	21202
2026-01-16 06:12:20.65	77.94	3.37	-56.4	-71.3	3.8	1.49e+00	0	43	104	0	83	21247
2026-01-16 06:12:21.66	77.88	3.43	-56.4	-71.3	3.8	1.49e+00	0	43	104	0	83	21170
2026-01-16 06:12:22.67	77.81	3.49	-56.4	-71.3	3.8	1.49e+00	0	44	104	0	83	21165
2026-01-16 06:12:23.68	77.74	3.56	-56.4	-71.3	3.8	1.49e+00	0	43	104	0	83	21108
2026-01-16 06:12:24.70	77.68	3.62	-56.4	-71.3	3.8	1.49e+00	0	43	104	0	83	21133
2026-01-16 06:12:25.71	77.61	3.68	-56.4	-71.2	3.8	1.49e+00	0	43	104	0	83	21001
2026-01-16 06:12:26.72	77.54	3.74	-56.4	-71.3	3.8	1.49e+00	0	44	104	0	83	21056
2026-01-16 06:12:27.73	77.47	3.80	-56.4	-71.3	3.8	1.49e+00	0	43	104	0	83	21068
2026-01-16 06:12:28.74	77.40	3.86	-56.4	-71.3	3.8	1.49e+00	0	43	104	0	83	21142
2026-01-16 06:12:29.75	77.34	3.92	-56.3	-71.3	3.8	1.49e+00	0	44	104	0	83	21131
2026-01-16 06:12:30.76	77.27	3.98	-56.4	-71.2	3.8	1.49e+00	0	44	104	0	83	20855
2026-01-16 06:12:31.77	77.20	4.04	-56.3	-71.1	3.8	1.49e+00	0	44	104	0	83	20550
2026-01-16 06:12:32.78	77.13	4.11	-56.3	-70.7	3.8	1.49e+00	0	44	104	0	83	19766
2026-01-16 06:12:33.79	77.06	4.17	-56.3	-70.5	3.8	1.49e+00	0	44	104	0	83	19337
2026-01-16 06:12:34.80	76.99	4.23	-56.3	-69.8	3.8	1.49e+00	0	44	104	0	83	17831
2026-01-16 06:12:35.81	76.92	4.29	-56.3	-69.2	3.9	1.49e+00	0	44	104	0	83	16555
2026-01-16 06:12:36.82	76.85	4.35	-56.2	-68.8	4.0	1.48e+00	0	44	104	0	83	15850
2026-01-16 06:12:37.83	76.77	4.41	-56.2	-68.1	4.1	1.44e+00	0	44	0	0	83	14610
2026-01-16 06:12:38.84	76.70	4.48	-56.1	-66.7	4.5	1.32e+00	4	44	0	0	83	12519
2026-01-16 06:12:39.85	76.63	4.54	-56.0	-65.7	5.0	9.35e-01	0	44	0	2097152	83	11056
2026-01-16 06:12:40.86	76.56	4.60	-55.9	-65.1	5.4	5.02e-01	0	44	0	4194304	83	10339
2026-01-16 06:12:41.87	76.49	4.66	-55.7	-63.5	6.6	2.61e-01	0	44	0	5242880	83	8585
2026-01-16 06:12:42.88	76.41	4.73	-55.5	-62.8	7.3	1.58e-01	0	44	0	7340032	83	7907
2026-01-16 06:12:43.89	76.34	4.79	-55.4	-62.1	7.9	1.12e-01	0	44	0	9437184	82	7755
2026-01-16 06:12:44.90	76.27	4.85	-55.3	-61.6	8.3	6.40e-02	0	44	0	11534336	82	7327
2026-01-16 06:12:45.91	76.19	4.91	-55.3	-61.8	8.2	4.40e-02	0	44	0	13631488	82	7526
2026-01-16 06:12:46.92	76.12	4.98	-55.3	-61.8	8.2	4.53e-02	0	44	0	14680064	82	7509
2026-01-16 06:12:47.93	76.04	5.04	-55.4	-62.2	7.8	7.07e-02	0	44	0	16777216	82	7857
2026-01-16 06:12:48.94	75.97	5.10	-54.0	-57.6	12.9	7.28e-03	0	45	0	18874368	79	5489
2026-01-16 06:12:49.94	75.90	5.17	-55.5	-62.2	8.0	1.19e-03	0	44	0	20971520	81	8351
2026-01-16 06:12:50.95	75.82	5.23	-56.1	-66.6	4.6	3.02e-01	0	45	0	23068672	82	13045
2026-01-16 06:12:51.96	75.74	5.29	-53.5	-56.7	13.9	5.32e-02	0	45	0	25165824	79	4940
2026-01-16 06:12:52.97	75.67	5.36	-56.0	-66.1	4.9	2.91e-02	0	45	0	26214400	82	12317
2026-01-16 06:12:53.98	75.59	5.42	-53.7	-56.9	13.6	4.55e-01	0	45	0	28311552	79	5088
2026-01-16 06:12:54.99	75.51	5.48	-53.4	-56.4	14.3	7.00e-07	0	45	0	30408704	78	5047
2026-01-16 06:12:56.00	75.44	5.55	-53.4	-56.5	14.1	1.50e-06	0	45	0	32505856	78	5151
2026-01-16 06:12:57.01	75.36	5.61	-52.9	-55.6	15.0	7.00e-07	0	45	0	33554432	77	4926
2026-01-16 06:12:58.03	75.28	5.68	-53.2	-56.1	14.6	0.00e+00	0	45	0	35651584	77	5163
2026-01-16 06:12:59.04	75.20	5.74	-53.1	-55.8	14.8	0.00e+00	0	45	0	37748736	77	5032
2026-01-16 06:13:00.05	75.12	5.80	-53.2	-56.1	14.6	0.00e+00	0	45	0	39845888	77	5218
2026-01-16 06:13:01.06	75.05	5.87	-53.1	-55.8	14.9	0.00e+00	0	45	0	41943040	77	5037
2026-01-16 06:13:02.07	74.97	5.93	-53.1	-56.0	14.8	7.00e-07	0	45	0	44040192	77	5104
2026-01-16 06:13:03.08	74.89	6.00	-53.1	-56.0	14.8	0.00e+00	0	45	0	45088768	77	5128
2026-01-16 06:13:04.09	74.81	6.06	-53.0	-55.8	14.9	0.00e+00	0	45	0	47185920	77	5011
2026-01-16 06:13:05.10	74.73	6.13	-53.2	-56.0	14.7	7.00e-07	0	45	0	49283072	77	5157
2026-01-16 06:13:06.11	74.64	6.19	-52.9	-55.6	15.1	0.00e+00	0	45	0	51380224	77	4926
2026-01-16 06:13:07.12	74.56	6.26	-53.0	-55.7	15.1	0.00e+00	0	45	0	53477376	77	4941
2026-01-16 06:13:08.13	74.48	6.32	-52.9	-55.6	15.2	7.00e-07	0	45	0	55574528	77	4909
2026-01-16 06:13:09.14	74.40	6.39	-52.9	-55.5	15.3	0.00e+00	0	45	0	56623104	77	4854
2026-01-16 06:13:10.14	74.32	6.45	-53.0	-55.7	15.1	0.00e+00	0	45	0	58720256	77	4948
2026-01-16 06:13:11.15	74.24	6.52	-53.0	-55.7	15.1	0.00e+00	0	45	0	60817408	77	4949
2026-01-16 06:13:12.16	74.15	6.58	-52.8	-55.4	15.4	0.00e+00	0	45	0	62914560	77	4794
2026-01-16 06:13:13.17	74.07	6.65	-53.1	-55.9	15.0	0.00e+00	0	45	0	63963136	77	5043
2026-01-16 06:13:14.18	73.98	6.71	-52.9	-55.5	15.4	7.00e-07	0	45	0	66060288	77	4823
2026-01-16 06:13:15.19	73.90	6.78	-53.1	-55.8	15.1	0.00e+00	0	45	0	68157440	77	4998
2026-01-16 06:13:16.20	73.82	6.85	-53.3	-56.1	14.7	0.00e+00	0	45	0	70254592	77	5190
2026-01-16 06:13:17.21	73.73	6.91	-53.4	-56.2	14.6	0.00e+00	0	45	0	72351744	77	5277
2026-01-16 06:13:18.22	73.65	6.98	-53.3	-56.1	14.8	0.00e+00	0	46	0	73400320	77	5189
2026-01-16 06:13:19.23	73.56	7.04	-53.0	-55.7	15.2	0.00e+00	0	45	0	75497472	77	4938
2026-01-16 06:13:20.24	73.47	7.11	-52.9	-55.5	15.4	0.00e+00	0	45	0	77594624	77	4848
2026-01-16 06:13:21.25	73.39	7.18	-52.9	-55.4	15.5	0.00e+00	0	45	0	79691776	77	4790
2026-01-16 06:13:22.26	73.30	7.24	-53.0	-55.6	15.3	0.00e+00	0	46	0	81788928	77	4913
2026-01-16 06:13:23.26	73.21	7.31	-52.9	-55.5	15.4	0.00e+00	0	45	0	83886080	77	4842
2026-01-16 06:13:24.27	73.12	7.38	-53.0	-55.7	15.2	7.00e-07	0	46	0	84934656	77	4953
2026-01-16 06:13:25.28	73.04	7.44	-52.9	-55.5	15.4	0.00e+00	0	46	0	87031808	77	4848
2026-01-16 06:13:26.30	72.95	7.51	-52.9	-55.4	15.5	0.00e+00	0	46	0	89128960	77	4794
2026-01-16 06:13:27.30	72.86	7.58	-53.0	-55.6	15.4	0.00e+00	0	46	0	91226112	77	4893
2026-01-16 06:13:28.32	72.77	7.65	-53.0	-55.6	15.4	0.00e+00	0	46	0	92274688	77	4883
2026-01-16 06:13:29.32	72.68	7.71	-52.9	-55.5	15.5	0.00e+00	0	46	0	94371840	77	4820
2026-01-16 06:13:30.33	72.59	7.78	-52.9	-55.5	15.4	0.00e+00	0	46	0	96468992	77	4848
2026-01-16 06:13:31.34	72.50	7.85	-52.8	-55.2	15.7	0.00e+00	0	46	0	98566144	77	4698
2026-01-16 06:13:32.35	72.41	7.92	-52.9	-55.4	15.6	0.00e+00	0	46	0	100663296	77	4773
2026-01-16 06:13:33.36	72.31	7.98	-52.8	-55.3	15.7	0.00e+00	0	46	0	102760448	77	4746
2026-01-16 06:13:34.37	72.22	8.05	-52.8	-55.3	15.7	0.00e+00	0	46	0	103809024	77	4718
2026-01-16 06:13:35.38	72.13	8.12	-52.7	-55.1	15.9	0.00e+00	0	46	0	105906176	77	4620
2026-01-16 06:13:36.39	72.04	8.19	-52.9	-55.4	15.7	0.00e+00	0	46	0	108003328	77	4766
2026-01-16 06:13:37.40	71.94	8.26	-52.7	-55.1	15.9	0.00e+00	0	46	0	110100480	77	4630
2026-01-16 06:13:38.41	71.85	8.32	-52.8	-55.3	15.8	0.00e+00	0	46	0	112197632	77	4706
2026-01-16 06:13:39.42	71.75	8.39	-52.9	-55.4	15.6	0.00e+00	0	46	0	113246208	77	4788
2026-01-16 06:13:40.43	71.66	8.46	-52.7	-55.1	15.9	0.00e+00	0	46	0	115343360	77	4619
2026-01-16 06:13:41.44	71.56	8.53	-52.8	-55.2	15.8	0.00e+00	0	46	0	117440512	77	4701
2026-01-16 06:13:42.45	71.47	8.60	-52.8	-55.3	15.8	0.00e+00	0	46	0	119537664	77	4711
2026-01-16 06:13:43.47	71.37	8.67	-52.8	-55.3	15.8	0.00e+00	0	46	0	121634816	77	4725
2026-01-16 06:13:44.47	71.27	8.74	-52.9	-55.3	15.7	0.00e+00	0	46	0	122683392	77	4744
2026-01-16 06:13:45.48	71.18	8.81	-52.8	-55.3	15.8	0.00e+00	0	46	0	124780544	77	4732
2026-01-16 06:13:46.50	71.08	8.88	-52.8	-55.3	15.8	0.00e+00	0	46	0	126877696	77	4712
2026-01-16 06:13:47.50	70.98	8.94	-52.9	-55.4	15.7	0.00e+00	0	46	0	128974848	77	4782
2026-01-16 06:13:48.51	70.88	9.01	-52.8	-55.3	15.8	0.00e+00	0	46	0	131072000	77	4723
2026-01-16 06:13:49.52	70.78	9.08	-52.7	-55.1	16.0	0.00e+00	0	46	0	132120576	77	4641
2026-01-16 06:13:50.53	70.68	9.15	-52.8	-55.3	15.8	0.00e+00	0	46	0	134217728	77	4723
2026-01-16 06:13:51.54	70.58	9.22	-52.8	-55.3	15.8	0.00e+00	0	46	0	136314880	77	4718
2026-01-16 06:13:52.54	70.48	9.29	-52.8	-55.3	15.8	0.00e+00	0	46	0	138412032	77	4719
2026-01-16 06:13:53.55	70.38	9.36	-52.7	-55.0	16.1	0.00e+00	0	46	0	140509184	77	4598
2026-01-16 06:13:54.56	70.28	9.43	-52.7	-55.0	16.1	0.00e+00	0	46	0	141557760	77	4591
2026-01-16 06:13:55.57	70.18	9.50	-52.6	-54.9	16.2	0.00e+00	0	46	0	143654912	77	4523
2026-01-16 06:13:56.58	70.07	9.57	-52.6	-55.0	16.2	0.00e+00	0	46	0	145752064	77	4546
2026-01-16 06:13:57.59	69.97	9.64	-52.5	-54.7	16.4	0.00e+00	0	46	0	147849216	77	4436
2026-01-16 06:13:58.60	69.87	9.71	-52.5	-54.7	16.4	0.00e+00	0	47	0	149946368	77	4421
2026-01-16 06:13:59.61	69.76	9.78	-52.4	-54.6	16.6	0.00e+00	0	46	0	150994944	76	4638
2026-01-16 06:14:00.62	69.66	9.86	-52.5	-54.7	16.5	0.00e+00	0	46	0	153092096	76	4657
2026-01-16 06:14:01.63	69.55	9.93	-52.4	-54.7	16.5	0.00e+00	0	46	0	155189248	76	4654
2026-01-16 06:14:02.64	69.45	10.00	-52.4	-54.6	16.6	0.00e+00	0	46	0	157286400	76	4608
2026-01-16 06:14:03.65	69.34	10.07	-52.4	-54.7	16.5	0.00e+00	0	47	0	159383552	76	4653
2026-01-16 06:14:04.66	69.23	10.14	-52.5	-54.7	16.5	0.00e+00	0	46	0	161480704	76	4679
2026-01-16 06:14:05.67	69.13	10.21	-52.5	-54.7	16.5	0.00e+00	0	47	0	162529280	76	4659
2026-01-16 06:14:06.68	69.02	10.28	-52.3	-54.4	16.8	0.00e+00	0	47	0	164626432	76	4529
2026-01-16 06:14:07.69	68.91	10.35	-52.4	-54.6	16.6	0.00e+00	0	47	0	166723584	76	4599
2026-01-16 06:14:08.70	68.80	10.43	-52.3	-54.5	16.7	0.00e+00	0	47	0	168820736	76	4552
2026-01-16 06:14:09.71	68.69	10.50	-52.4	-54.5	16.6	0.00e+00	0	47	0	169869312	76	4595
2026-01-16 06:14:10.72	68.58	10.57	-52.3	-54.4	16.8	0.00e+00	0	47	0	171966464	76	4531
2026-01-16 06:14:11.73	68.47	10.64	-52.3	-54.4	16.8	0.00e+00	0	46	0	174063616	76	4541
2026-01-16 06:14:12.74	68.36	10.71	-52.3	-54.4	16.8	0.00e+00	0	46	0	176160768	76	4520
2026-01-16 06:14:13.75	68.25	10.78	-52.3	-54.4	16.8	0.00e+00	0	47	0	178257920	76	4538
2026-01-16 06:14:14.76	68.13	10.86	-52.4	-54.5	16.7	0.00e+00	0	47	0	180355072	76	4578
2026-01-16 06:14:15.76	68.02	10.93	-52.4	-54.6	16.6	0.00e+00	0	47	0	181403648	76	4619
2026-01-16 06:14:16.78	67.91	11.00	-52.5	-54.7	16.6	0.00e+00	0	47	0	183500800	76	4665
2026-01-16 06:14:17.79	67.79	11.07	-52.4	-54.6	16.6	0.00e+00	0	47	0	185597952	76	4641
2026-01-16 06:14:18.79	67.68	11.15	-52.4	-54.6	16.6	0.00e+00	0	47	0	187695104	76	4635
2026-01-16 06:14:19.80	67.56	11.22	-52.4	-54.6	16.7	0.00e+00	0	47	0	189792256	76	4615
2026-01-16 06:14:20.81	67.45	11.29	-52.4	-54.6	16.7	0.00e+00	0	47	0	190840832	76	4619
2026-01-16 06:14:21.82	67.33	11.36	-52.4	-54.6	16.7	0.00e+00	0	47	0	192937984	76	4618
2026-01-16 06:14:22.83	67.22	11.44	-52.5	-54.6	16.6	0.00e+00	0	47	0	195035136	76	4643
2026-01-16 06:14:23.84	67.10	11.51	-52.4	-54.6	16.7	0.00e+00	0	47	0	197132288	76	4634
2026-01-16 06:14:24.84	66.98	11.58	-52.4	-54.6	16.7	0.00e+00	0	47	0	199229440	76	4617
2026-01-16 06:14:25.86	66.86	11.66	-52.4	-54.6	16.7	0.00e+00	0	47	0	200278016	76	4609
2026-01-16 06:14:26.87	66.74	11.73	-52.4	-54.5	16.8	0.00e+00	0	47	0	202375168	76	4574
2026-01-16 06:14:27.88	66.62	11.80	-52.3	-54.4	16.9	0.00e+00	0	47	0	204472320	76	4529
2026-01-16 06:14:28.88	66.50	11.88	-52.2	-54.3	17.0	0.00e+00	0	47	0	206569472	76	4470
2026-01-16 06:14:29.89	66.38	11.95	-52.3	-54.4	16.9	0.00e+00	0	47	0	208666624	76	4523
2026-01-16 06:14:30.90	66.26	12.02	-52.3	-54.4	16.9	0.00e+00	0	47	0	209715200	76	4532
2026-01-16 06:14:31.91	66.14	12.10	-52.2	-54.2	17.1	0.00e+00	0	47	0	211812352	76	4425
2026-01-16 06:14:32.92	66.01	12.17	-52.2	-54.2	17.1	0.00e+00	0	47	0	213909504	76	4432
2026-01-16 06:14:33.93	65.89	12.25	-52.2	-54.2	17.2	0.00e+00	0	47	0	216006656	76	4410
2026-01-16 06:14:34.94	65.76	12.32	-52.1	-54.1	17.2	0.00e+00	0	47	0	218103808	76	4389
2026-01-16 06:14:35.95	65.64	12.40	-52.1	-54.1	17.2	0.00e+00	0	47	0	219152384	76	4366
2026-01-16 06:14:36.96	65.51	12.47	-52.2	-54.3	17.1	0.00e+00	0	47	0	221249536	76	4445
2026-01-16 06:14:37.96	65.39	12.54	-52.2	-54.3	17.0	0.00e+00	0	47	0	223346688	76	4457
2026-01-16 06:14:38.97	65.26	12.62	-52.1	-54.1	17.2	0.00e+00	0	47	0	225443840	76	4368
2026-01-16 06:14:39.98	65.13	12.69	-52.1	-54.0	17.3	0.00e+00	0	47	0	227540992	76	4339
2026-01-16 06:14:40.99	65.00	12.77	-52.0	-54.0	17.3	0.00e+00	0	47	0	228589568	76	4325
2026-01-16 06:14:42.00	64.87	12.84	-52.0	-54.0	17.4	0.00e+00	0	47	0	230686720	76	4311
2026-01-16 06:14:43.01	64.74	12.92	-52.0	-54.0	17.4	0.00e+00	0	47	0	232783872	76	4301
2026-01-16 06:14:44.02	64.61	12.99	-52.0	-54.0	17.4	0.00e+00	0	47	0	234881024	76	4316
2026-01-16 06:14:45.03	64.48	13.07	-52.1	-54.0	17.3	0.00e+00	0	47	0	236978176	76	4329
2026-01-16 06:14:46.04	64.35	13.14	-51.8	-53.7	17.6	0.00e+00	0	47	0	239075328	75	4428
2026-01-16 06:14:47.05	64.22	13.22	-51.9	-53.8	17.6	0.00e+00	0	47	0	240123904	75	4447
2026-01-16 06:14:48.06	64.09	13.29	-51.8	-53.7	17.7	0.00e+00	0	47	0	242221056	75	4415
2026-01-16 06:14:49.07	63.95	13.37	-51.9	-53.8	17.6	0.00e+00	0	47	0	244318208	75	4453
2026-01-16 06:14:50.08	63.82	13.44	-51.9	-53.8	17.6	0.00e+00	0	47	0	246415360	75	4442
2026-01-16 06:14:51.08	63.68	13.52	-51.9	-53.9	17.5	0.00e+00	0	47	0	248512512	75	4514
2026-01-16 06:14:52.09	63.55	13.59	-51.9	-53.9	17.5	0.00e+00	0	47	0	249561088	75	4509
2026-01-16 06:14:53.10	63.41	13.67	-52.0	-53.9	17.5	0.00e+00	0	47	0	251658240	75	4537
2026-01-16 06:14:54.11	63.27	13.74	-52.0	-54.0	17.4	0.00e+00	0	47	0	253755392	75	4580
2026-01-16 06:14:55.12	63.14	13.82	-52.0	-53.9	17.5	0.00e+00	0	47	0	255852544	75	4533
2026-01-16 06:14:56.13	63.00	13.90	-52.0	-53.9	17.4	0.00e+00	0	47	0	257949696	75	4540
2026-01-16 06:14:57.14	62.86	13.97	-51.9	-53.8	17.6	0.00e+00	0	48	0	258998272	75	4464
2026-01-16 06:14:58.15	62.72	14.05	-51.8	-53.7	17.7	0.00e+00	0	47	0	261095424	75	4396
2026-01-16 06:14:59.16	62.58	14.12	-51.7	-53.5	17.9	0.00e+00	0	47	0	263192576	75	4337
2026-01-16 06:15:00.17	62.43	14.20	-51.8	-53.6	17.7	0.00e+00	0	48	0	265289728	75	4391
2026-01-16 06:15:01.18	62.29	14.28	-51.8	-53.6	17.7	0.00e+00	0	47	0	267386880	75	4387
2026-01-16 06:15:02.19	62.15	14.35	-51.7	-53.6	17.8	0.00e+00	0	47	0	268435456	75	4352
2026-01-16 06:15:03.20	62.00	14.43	-51.7	-53.5	17.9	0.00e+00	0	47	0	270532608	75	4315
2026-01-16 06:15:04.20	61.86	14.50	-51.8	-53.6	17.8	0.00e+00	0	48	0	272629760	75	4366
2026-01-16 06:15:05.21	61.71	14.58	-51.7	-53.5	17.9	0.00e+00	0	47	0	274726912	75	4324
2026-01-16 06:15:06.22	61.57	14.66	-51.6	-53.4	18.0	0.00e+00	0	48	0	276824064	75	4253
2026-01-16 06:15:07.23	61.42	14.73	-51.7	-53.5	17.9	0.00e+00	0	47	0	277872640	75	4310
2026-01-16 06:15:08.24	61.27	14.81	-51.5	-53.2	18.2	0.00e+00	0	48	0	279969792	75	4182
2026-01-16 06:15:09.25	61.12	14.89	-51.5	-53.2	18.2	0.00e+00	0	48	0	282066944	74	4439
2026-01-16 06:15:10.26	60.98	14.96	-51.4	-53.2	18.2	0.00e+00	0	48	0	284164096	74	4399
2026-01-16 06:15:11.27	60.83	15.04	-51.4	-53.1	18.3	0.00e+00	0	48	0	286261248	74	4361
2026-01-16 06:15:12.28	60.67	15.12	-51.4	-53.2	18.3	0.00e+00	0	47	0	287309824	74	4408
2026-01-16 06:15:13.29	60.52	15.19	-51.4	-53.2	18.3	0.00e+00	0	48	0	289406976	74	4404
2026-01-16 06:15:14.30	60.37	15.27	-51.4	-53.1	18.3	0.00e+00	0	48	0	291504128	74	4380
2026-01-16 06:15:15.31	60.22	15.35	-51.5	-53.2	18.2	0.00e+00	0	48	0	293601280	74	4424
2026-01-16 06:15:16.31	60.06	15.42	-51.5	-53.2	18.2	0.00e+00	0	48	0	295698432	74	4434
2026-01-16 06:15:17.32	59.91	15.50	-51.6	-53.4	18.1	0.00e+00	0	47	0	297795584	74	4516
2026-01-16 06:15:18.34	59.75	15.58	-51.6	-53.4	18.1	0.00e+00	0	48	0	298844160	74	4507
2026-01-16 06:15:19.34	59.60	15.65	-51.7	-53.5	18.0	0.00e+00	0	48	0	300941312	74	4558
2026-01-16 06:15:20.35	59.44	15.73	-51.6	-53.4	18.0	0.00e+00	0	48	0	303038464	74	4539
2026-01-16 06:15:21.36	59.28	15.81	-51.7	-53.6	17.9	0.00e+00	0	48	0	305135616	74	4603
2026-01-16 06:15:22.37	59.12	15.88	-51.7	-53.5	17.9	0.00e+00	0	48	0	306184192	74	4598
2026-01-16 06:15:23.38	58.96	15.96	-51.7	-53.6	17.9	0.00e+00	0	48	0	308281344	74	4601
2026-01-16 06:15:24.39	58.80	16.04	-51.7	-53.5	17.9	0.00e+00	0	48	0	310378496	74	4591
2026-01-16 06:15:25.40	58.64	16.12	-51.8	-53.6	17.9	0.00e+00	0	48	0	312475648	74	4622
2026-01-16 06:15:26.41	58.48	16.19	-51.8	-53.6	17.9	0.00e+00	0	48	0	314572800	74	4610
2026-01-16 06:15:27.41	58.32	16.27	-51.8	-53.6	17.9	0.00e+00	0	48	0	315621376	74	4641
2026-01-16 06:15:28.42	58.15	16.35	-51.8	-53.6	17.9	0.00e+00	0	48	0	317718528	74	4612
2026-01-16 06:15:29.43	57.99	16.42	-51.7	-53.6	17.9	0.00e+00	0	48	0	319815680	74	4605
2026-01-16 06:15:30.44	57.82	16.50	-51.8	-53.7	17.8	0.00e+00	0	48	0	321912832	74	4670
2026-01-16 06:15:31.45	57.65	16.58	-51.7	-53.6	17.9	0.00e+00	0	48	0	324009984	74	4600
2026-01-16 06:15:32.46	57.49	16.65	-51.8	-53.7	17.8	0.00e+00	0	48	0	326107136	74	4672
2026-01-16 06:15:33.47	57.32	16.73	-51.9	-53.8	17.7	0.00e+00	0	48	0	327155712	74	4707
2026-01-16 06:15:34.48	57.15	16.81	-51.8	-53.7	17.8	0.00e+00	0	48	0	329252864	74	4669
2026-01-16 06:15:35.49	56.98	16.88	-51.9	-53.7	17.8	0.00e+00	0	48	0	331350016	74	4695
2026-01-16 06:15:36.50	56.81	16.96	-51.8	-53.6	17.9	0.00e+00	0	48	0	333447168	74	4647
2026-01-16 06:15:37.50	56.64	17.04	-51.9	-53.8	17.7	0.00e+00	0	48	0	334495744	74	4718
2026-01-16 06:15:38.51	56.46	17.11	-51.9	-53.7	17.8	0.00e+00	0	48	0	336592896	74	4697
2026-01-16 06:15:39.52	56.29	17.19	-51.8	-53.7	17.8	0.00e+00	0	48	0	338690048	74	4661
2026-01-16 06:15:40.53	56.12	17.27	-51.9	-53.7	17.8	0.00e+00	0	48	0	340787200	74	4700
2026-01-16 06:15:41.54	55.94	17.34	-51.9	-53.8	17.8	0.00e+00	0	48	0	342884352	74	4716
2026-01-16 06:15:42.55	55.76	17.42	-51.9	-53.7	17.8	0.00e+00	0	48	0	344981504	74	4700
2026-01-16 06:15:43.56	55.59	17.50	-52.0	-53.8	17.7	0.00e+00	0	48	0	346030080	74	4753
2026-01-16 06:15:44.57	55.41	17.57	-52.1	-54.0	17.5	0.00e+00	0	48	0	348127232	74	4849
2026-01-16 06:15:45.58	55.23	17.65	-52.1	-54.0	17.5	0.00e+00	0	48	0	350224384	74	4844
2026-01-16 06:15:46.59	55.05	17.73	-52.2	-54.1	17.4	0.00e+00	0	48	0	352321536	74	4911
2026-01-16 06:15:47.60	54.87	17.80	-52.1	-54.1	17.5	0.00e+00	0	48	0	354418688	74	4874
2026-01-16 06:15:48.61	54.69	17.88	-52.1	-54.0	17.5	0.00e+00	0	48	0	355467264	74	4849
2026-01-16 06:15:49.62	54.50	17.96	-52.1	-54.0	17.6	0.00e+00	0	48	0	357564416	74	4825
2026-01-16 06:15:50.63	54.32	18.03	-52.0	-53.8	17.7	0.00e+00	0	48	0	359661568	74	4746
2026-01-16 06:15:51.63	54.14	18.11	-51.9	-53.7	17.8	0.00e+00	0	48	0	361758720	74	4694
2026-01-16 06:15:52.64	53.95	18.19	-51.8	-53.7	17.9	0.00e+00	0	48	0	363855872	74	4655
2026-01-16 06:15:53.65	53.76	18.26	-51.9	-53.7	17.9	0.00e+00	0	48	0	364904448	74	4674
2026-01-16 06:15:54.66	53.58	18.34	-51.9	-53.8	17.8	0.00e+00	0	48	0	367001600	74	4711
2026-01-16 06:15:55.67	53.39	18.41	-51.9	-53.7	17.9	0.00e+00	0	48	0	369098752	74	4672
2026-01-16 06:15:56.68	53.20	18.49	-52.0	-53.8	17.8	0.00e+00	0	48	0	371195904	74	4742
2026-01-16 06:15:57.69	53.01	18.56	-51.9	-53.7	17.8	0.00e+00	0	48	0	373293056	74	4705
2026-01-16 06:15:58.70	52.82	18.64	-51.8	-53.5	18.0	0.00e+00	0	48	0	374341632	74	4594
2026-01-16 06:15:59.71	52.62	18.72	-51.6	-53.4	18.2	0.00e+00	0	48	0	376438784	74	4522
2026-01-16 06:16:00.72	52.43	18.79	-51.6	-53.4	18.2	0.00e+00	0	48	0	378535936	74	4509
2026-01-16 06:16:01.73	52.24	18.87	-51.5	-53.3	18.3	0.00e+00	0	48	0	380633088	74	4444
2026-01-16 06:16:02.74	52.04	18.94	-51.6	-53.3	18.3	0.00e+00	0	48	0	382730240	74	4476
2026-01-16 06:16:03.75	51.84	19.02	-51.6	-53.4	18.2	0.00e+00	0	48	0	384827392	74	4512
2026-01-16 06:16:04.76	51.65	19.09	-51.5	-53.2	18.4	0.00e+00	0	48	0	385875968	74	4406
2026-01-16 06:16:05.77	51.45	19.17	-51.4	-53.1	18.4	0.00e+00	0	48	0	387973120	74	4384
2026-01-16 06:16:06.78	51.25	19.24	-51.4	-53.1	18.5	0.00e+00	0	48	0	390070272	74	4355
2026-01-16 06:16:07.79	51.05	19.32	-51.4	-53.0	18.5	0.00e+00	0	48	0	392167424	74	4333
2026-01-16 06:16:08.80	50.85	19.39	-51.3	-52.9	18.7	0.00e+00	0	48	0	393216000	74	4278
2026-01-16 06:16:09.81	50.65	19.46	-51.3	-52.9	18.6	0.00e+00	0	48	0	395313152	74	4281
2026-01-16 06:16:10.82	50.44	19.54	-51.2	-52.8	18.8	0.00e+00	0	48	0	397410304	74	4200
2026-01-16 06:16:11.82	50.24	19.61	-51.1	-52.7	18.9	0.00e+00	0	48	0	399507456	74	4146
2026-01-16 06:16:12.83	50.04	19.68	-50.9	-52.4	19.1	0.00e+00	0	48	0	401604608	73	4266
2026-01-16 06:16:13.84	49.83	19.76	-50.8	-52.4	19.1	0.00e+00	0	48	0	403701760	73	4251
2026-01-16 06:16:14.85	49.62	19.83	-50.6	-52.1	19.4	0.00e+00	0	48	0	404750336	73	4131
2026-01-16 06:16:15.86	49.41	19.90	-50.5	-52.0	19.5	0.00e+00	0	48	0	406847488	73	4073
2026-01-16 06:16:16.87	49.20	19.98	-50.6	-52.0	19.5	0.00e+00	0	48	0	408944640	73	4081
2026-01-16 06:16:17.88	48.99	20.05	-50.5	-51.9	19.6	0.00e+00	0	48	0	411041792	73	4030
2026-01-16 06:16:18.89	48.78	20.12	-50.1	-51.5	20.0	0.00e+00	0	48	0	413138944	72	4062
2026-01-16 06:16:19.90	48.57	20.20	-50.0	-51.3	20.2	0.00e+00	0	48	0	414187520	72	4001
2026-01-16 06:16:20.91	48.36	20.27	-50.0	-51.3	20.3	0.00e+00	0	48	0	416284672	71	4215
2026-01-16 06:16:21.92	48.14	20.34	-50.1	-51.4	20.2	0.00e+00	0	48	0	418381824	71	4278
2026-01-16 06:16:22.92	47.93	20.41	-50.0	-51.3	20.3	0.00e+00	0	48	0	420478976	71	4215
2026-01-16 06:16:23.94	47.71	20.48	-50.0	-51.3	20.2	0.00e+00	0	48	0	422576128	71	4242
2026-01-16 06:16:24.94	47.50	20.55	-50.0	-51.3	20.3	0.00e+00	0	48	0	423624704	71	4210
2026-01-16 06:16:25.95	47.28	20.62	-49.9	-51.3	20.3	0.00e+00	0	48	0	425721856	71	4195
2026-01-16 06:16:26.96	47.06	20.70	-49.9	-51.3	20.3	0.00e+00	0	48	0	427819008	71	4199
2026-01-16 06:16:27.97	46.84	20.77	-50.0	-51.3	20.3	0.00e+00	0	48	0	429916160	71	4239
2026-01-16 06:16:28.98	46.62	20.84	-50.0	-51.3	20.3	0.00e+00	0	48	0	432013312	71	4232
2026-01-16 06:16:29.99	46.40	20.91	-50.0	-51.3	20.3	0.00e+00	0	48	0	433061888	71	4224
2026-01-16 06:16:31.00	46.17	20.98	-49.9	-51.2	20.4	0.00e+00	0	48	0	435159040	71	4159
2026-01-16 06:16:32.01	45.95	21.05	-49.9	-51.2	20.4	0.00e+00	0	48	0	437256192	71	4165
2026-01-16 06:16:33.02	45.72	21.11	-49.9	-51.2	20.2	0.00e+00	0	48	0	439353344	71	4193
2026-01-16 06:16:34.02	45.50	21.18	-49.8	-51.1	20.3	0.00e+00	0	48	0	441450496	71	4104
2026-01-16 06:16:35.03	45.27	21.25	-49.8	-51.1	20.5	0.00e+00	0	48	0	442499072	71	4132
2026-01-16 06:16:36.04	45.04	21.32	-49.7	-51.0	20.6	0.00e+00	0	48	0	444596224	71	4083
2026-01-16 06:16:37.05	44.81	21.39	-49.8	-51.1	20.6	0.00e+00	0	48	0	446693376	71	4101
2026-01-16 06:16:38.06	44.58	21.46	-49.7	-50.9	20.6	0.00e+00	0	48	0	448790528	71	4046
2026-01-16 06:16:39.07	44.35	21.52	-49.6	-50.9	20.7	0.00e+00	0	48	0	450887680	71	4019
2026-01-16 06:16:40.08	44.12	21.59	-49.7	-51.0	20.6	0.00e+00	0	48	0	451936256	71	4057
2026-01-16 06:16:41.08	43.89	21.66	-49.8	-51.1	20.6	0.00e+00	0	48	0	454033408	71	4099
2026-01-16 06:16:42.09	43.65	21.72	-49.6	-50.9	20.7	0.00e+00	0	48	0	456130560	71	4021
2026-01-16 06:16:43.10	43.42	21.79	-49.6	-50.9	20.7	0.00e+00	0	48	0	458227712	71	4024
2026-01-16 06:16:44.11	43.18	21.85	-49.6	-50.9	20.7	0.00e+00	0	49	0	460324864	71	4010
2026-01-16 06:16:45.12	42.94	21.92	-49.7	-51.0	20.7	0.00e+00	0	48	0	461373440	71	4055
2026-01-16 06:16:46.13	42.70	21.98	-49.6	-50.9	20.8	0.00e+00	0	48	0	463470592	71	4005
2026-01-16 06:16:47.14	42.46	22.05	-49.7	-50.9	20.7	0.00e+00	0	48	0	465567744	71	4049
2026-01-16 06:16:48.15	42.22	22.11	-49.8	-51.1	20.5	0.00e+00	0	48	0	467664896	71	4124
2026-01-16 06:16:49.16	41.98	22.18	-49.9	-51.2	20.5	0.00e+00	0	48	0	469762048	71	4181
2026-01-16 06:16:50.17	41.74	22.24	-50.0	-51.3	20.4	0.00e+00	0	49	0	470810624	71	4217
2026-01-16 06:16:51.18	41.50	22.30	-50.0	-51.3	20.3	0.00e+00	0	49	0	472907776	71	4238
2026-01-16 06:16:52.19	41.25	22.37	-50.0	-51.3	20.3	0.00e+00	0	48	0	475004928	71	4228
2026-01-16 06:16:53.20	41.01	22.43	-49.9	-51.2	20.4	0.00e+00	0	48	0	477102080	71	4168
2026-01-16 06:16:54.21	40.76	22.49	-50.0	-51.3	20.4	0.00e+00	0	48	0	479199232	71	4201
2026-01-16 06:16:55.22	40.51	22.55	-49.9	-51.1	20.5	0.00e+00	0	48	0	480247808	71	4142
2026-01-16 06:16:56.22	40.27	22.61	-50.0	-51.3	20.4	0.00e+00	0	48	0	482344960	71	4213
2026-01-16 06:16:57.24	40.01	22.67	-50.0	-51.3	20.3	0.00e+00	0	48	0	484442112	71	4235
2026-01-16 06:16:58.24	39.76	22.73	-50.0	-51.4	20.3	0.00e+00	0	48	0	486539264	71	4245
2026-01-16 06:16:59.25	39.51	22.79	-50.0	-51.4	20.3	0.00e+00	0	48	0	488636416	71	4251
2026-01-16 06:17:00.27	39.26	22.85	-49.9	-51.2	20.4	0.00e+00	0	48	0	490733568	71	4162
2026-01-16 06:17:01.28	39.01	22.91	-49.8	-51.0	20.7	0.00e+00	0	49	0	491782144	71	4077
2026-01-16 06:17:02.29	38.75	22.97	-49.8	-51.1	20.5	0.00e+00	0	48	0	493879296	71	4132
2026-01-16 06:17:03.29	38.50	23.03	-49.8	-51.1	20.6	0.00e+00	0	48	0	495976448	71	4114
2026-01-16 06:17:04.30	38.24	23.08	-49.7	-51.0	20.7	0.00e+00	0	48	0	498073600	71	4072
2026-01-16 06:17:05.31	37.98	23.14	-49.8	-51.0	20.6	0.00e+00	0	48	0	499122176	71	4085
2026-01-16 06:17:06.32	37.73	23.20	-49.7	-51.0	20.7	0.00e+00	0	49	0	501219328	71	4069
2026-01-16 06:17:07.33	37.47	23.25	-49.8	-51.1	20.6	0.00e+00	0	49	0	503316480	71	4124
2026-01-16 06:17:08.34	37.21	23.31	-49.8	-51.1	20.6	0.00e+00	0	48	0	505413632	71	4131
2026-01-16 06:17:09.35	36.95	23.36	-49.9	-51.2	20.5	0.00e+00	0	48	0	507510784	71	4158
2026-01-16 06:17:10.36	36.68	23.42	-49.7	-50.9	20.7	0.00e+00	0	49	0	509607936	71	4042
2026-01-16 06:17:11.37	36.42	23.47	-49.6	-50.8	20.9	0.00e+00	0	48	0	510656512	71	3982
2026-01-16 06:17:12.37	36.16	23.52	-49.6	-50.9	20.8	0.00e+00	0	48	0	512753664	71	4006
2026-01-16 06:17:13.38	35.90	23.58	-49.6	-50.8	20.8	0.00e+00	0	49	0	514850816	71	4002
2026-01-16 06:17:14.39	35.63	23.63	-49.6	-50.8	20.8	0.00e+00	0	49	0	516947968	71	3990
2026-01-16 06:17:15.40	35.36	23.68	-49.5	-50.7	20.9	0.00e+00	0	48	0	519045120	71	3943
2026-01-16 06:17:16.41	35.10	23.73	-49.5	-50.7	20.9	0.00e+00	0	48	0	520093696	70	4193
2026-01-16 06:17:17.42	34.83	23.78	-49.4	-50.6	21.1	0.00e+00	0	48	0	522190848	70	4112
2026-01-16 06:17:18.43	34.56	23.83	-49.2	-50.4	21.2	0.00e+00	0	49	0	524288000	70	4024
2026-01-16 06:17:19.44	34.29	23.88	-49.4	-50.6	21.1	0.00e+00	0	49	0	526385152	70	4121
2026-01-16 06:17:20.45	34.02	23.93	-49.4	-50.6	21.0	0.00e+00	0	49	0	528482304	70	4127
2026-01-16 06:17:21.46	33.75	23.98	-49.5	-50.7	21.0	0.00e+00	0	49	0	529530880	70	4161
2026-01-16 06:17:22.46	33.48	24.02	-49.5	-50.8	20.9	0.00e+00	0	49	0	531628032	70	4202
2026-01-16 06:17:23.47	33.20	24.07	-49.6	-50.9	20.8	0.00e+00	0	49	0	533725184	70	4256
2026-01-16 06:17:24.48	32.93	24.12	-49.7	-51.0	20.7	0.00e+00	0	49	0	535822336	70	4309
2026-01-16 06:17:25.49	32.66	24.16	-49.8	-51.1	20.6	0.00e+00	0	48	0	537919488	70	4345
2026-01-16 06:17:26.50	32.38	24.21	-49.9	-51.2	20.5	0.00e+00	0	49	0	538968064	70	4426
2026-01-16 06:17:27.51	32.10	24.25	-49.9	-51.2	20.4	0.00e+00	0	48	0	541065216	70	4426
2026-01-16 06:17:28.52	31.83	24.29	-49.8	-51.1	20.6	0.00e+00	0	48	0	543162368	70	4368
2026-01-16 06:17:29.53	31.55	24.34	-49.8	-51.1	20.6	0.00e+00	0	49	0	545259520	70	4351
2026-01-16 06:17:30.54	31.27	24.38	-49.9	-51.2	20.5	0.00e+00	0	49	0	547356672	70	4420
2026-01-16 06:17:31.55	30.99	24.42	-50.0	-51.3	20.4	0.00e+00	0	49	0	549453824	70	4468
2026-01-16 06:17:32.56	30.71	24.46	-50.0	-51.3	20.4	0.00e+00	0	48	0	550502400	70	4466
2026-01-16 06:17:33.57	30.43	24.50	-50.2	-51.5	20.2	0.00e+00	0	49	0	552599552	70	4565
2026-01-16 06:17:34.58	30.15	24.54	-50.2	-51.6	20.1	0.00e+00	0	49	0	554696704	70	4601
2026-01-16 06:17:35.59	29.87	24.58	-50.3	-51.6	19.8	0.00e+00	0	49	0	556793856	71	4391
2026-01-16 06:17:36.60	29.58	24.62	-50.4	-51.8	19.9	0.00e+00	0	49	0	557842432	71	4490
2026-01-16 06:17:37.61	29.30	24.65	-50.6	-52.0	19.8	0.00e+00	0	49	0	559939584	71	4557
2026-01-16 06:17:38.62	29.02	24.69	-50.6	-52.0	19.7	0.00e+00	0	49	0	562036736	71	4554
2026-01-16 06:17:39.63	28.73	24.73	-50.6	-52.1	19.5	0.00e+00	0	49	0	564133888	72	4353
2026-01-16 06:17:40.64	28.44	24.76	-50.9	-52.3	19.4	0.00e+00	0	49	0	566231040	72	4489
2026-01-16 06:17:41.65	28.16	24.80	-51.0	-52.5	19.2	0.00e+00	0	48	0	568328192	72	4580
2026-01-16 06:17:42.66	27.87	24.83	-51.0	-52.5	19.1	0.00e+00	0	48	0	569376768	72	4577
2026-01-16 06:17:43.67	27.58	24.86	-50.9	-52.4	19.2	0.00e+00	0	49	0	571473920	72	4544
2026-01-16 06:17:44.68	27.30	24.89	-50.8	-52.3	19.3	0.00e+00	0	49	0	573571072	72	4489
2026-01-16 06:17:45.69	27.01	24.93	-51.0	-52.6	19.1	0.00e+00	0	49	0	575668224	72	4607
2026-01-16 06:17:46.70	26.72	24.96	-51.2	-52.7	19.0	0.00e+00	0	49	0	577765376	72	4704
2026-01-16 06:17:47.70	26.43	24.99	-51.1	-52.6	19.1	0.00e+00	0	49	0	578813952	72	4633
2026-01-16 06:17:48.71	26.14	25.02	-51.1	-52.7	19.0	0.00e+00	0	48	0	580911104	72	4686
2026-01-16 06:17:49.72	25.85	25.04	-51.2	-52.7	19.0	0.00e+00	0	49	0	583008256	72	4702
2026-01-16 06:17:50.73	25.56	25.07	-51.1	-52.7	19.0	0.00e+00	0	49	0	585105408	73	4417
2026-01-16 06:17:51.74	25.27	25.10	-51.2	-52.7	19.0	0.00e+00	0	49	0	587202560	73	4423
2026-01-16 06:17:52.75	24.97	25.12	-51.3	-52.9	18.8	0.00e+00	0	49	0	588251136	73	4521
2026-01-16 06:17:53.76	24.68	25.15	-51.3	-52.9	18.8	0.00e+00	0	49	0	590348288	73	4522
2026-01-16 06:17:54.77	24.39	25.17	-51.3	-52.9	18.8	0.00e+00	0	49	0	592445440	73	4501
2026-01-16 06:17:55.78	24.09	25.20	-51.3	-52.9	18.8	0.00e+00	0	49	0	594542592	73	4504
2026-01-16 06:17:56.79	23.80	25.22	-51.3	-52.9	18.9	0.00e+00	0	49	0	596639744	73	4509
2026-01-16 06:17:57.79	23.51	25.24	-51.5	-53.1	18.6	0.00e+00	0	49	0	597688320	73	4631
2026-01-16 06:17:58.80	23.21	25.26	-51.6	-53.4	18.4	0.00e+00	0	49	0	599785472	73	4763
2026-01-16 06:17:59.81	22.92	25.28	-51.6	-53.3	18.4	0.00e+00	0	49	0	601882624	73	4723
2026-01-16 06:18:00.82	22.62	25.30	-51.7	-53.4	18.4	0.00e+00	0	49	0	603979776	73	4761
2026-01-16 06:18:01.83	22.33	25.32	-51.5	-53.1	18.6	0.00e+00	0	48	0	606076928	73	4639
2026-01-16 06:18:02.84	22.03	25.34	-51.5	-53.1	18.6	0.00e+00	0	49	0	607125504	73	4632
2026-01-16 06:18:03.85	21.73	25.36	-51.5	-53.1	18.6	0.00e+00	0	49	0	609222656	73	4620
2026-01-16 06:18:04.86	21.44	25.37	-51.5	-53.1	18.7	0.00e+00	0	49	0	611319808	73	4625
2026-01-16 06:18:05.87	21.14	25.39	-51.4	-53.0	18.7	0.00e+00	0	49	0	613416960	73	4595
2026-01-16 06:18:06.88	20.84	25.40	-51.3	-52.9	18.8	0.00e+00	0	49	0	615514112	73	4540
2026-01-16 06:18:07.89	20.54	25.42	-51.3	-52.9	18.8	0.00e+00	0	48	0	616562688	73	4531
2026-01-16 06:18:08.90	20.25	25.43	-51.4	-53.1	18.6	0.00e+00	0	49	0	618659840	73	4609
2026-01-16 06:18:09.91	19.95	25.44	-51.5	-53.2	18.6	0.00e+00	0	49	0	620756992	73	4672
2026-01-16 06:18:10.92	19.65	25.45	-51.7	-53.4	18.4	0.00e+00	0	49	0	622854144	73	4769
2026-01-16 06:18:11.93	19.35	25.46	-51.8	-53.5	18.3	0.00e+00	0	49	0	624951296	74	4567
2026-01-16 06:18:12.94	19.05	25.47	-51.7	-53.3	18.4	0.00e+00	0	49	0	627048448	74	4491
2026-01-16 06:18:13.95	18.75	25.48	-51.5	-53.2	18.6	0.00e+00	0	49	0	628097024	74	4406
2026-01-16 06:18:14.96	18.45	25.49	-51.5	-53.2	18.6	0.00e+00	0	49	0	630194176	74	4394
2026-01-16 06:18:15.96	18.16	25.50	-51.4	-53.0	18.7	0.00e+00	0	49	0	632291328	74	4321
2026-01-16 06:18:16.97	17.86	25.50	-51.4	-53.0	18.8	0.00e+00	0	49	0	634388480	74	4305
2026-01-16 06:18:17.98	17.56	25.51	-51.2	-52.8	18.9	0.00e+00	0	49	0	635437056	74	4230
2026-01-16 06:18:18.99	17.26	25.51	-51.2	-52.7	19.0	0.00e+00	0	49	0	637534208	74	4170
2026-01-16 06:18:20.00	16.96	25.52	-51.2	-52.7	19.0	0.00e+00	0	49	0	639631360	74	4189
2026-01-16 06:18:21.01	16.66	25.52	-51.1	-52.6	19.1	0.00e+00	0	49	0	641728512	74	4142
2026-01-16 06:18:22.01	16.36	25.52	-51.2	-52.8	19.0	0.00e+00	0	49	0	643825664	74	4225
2026-01-16 06:18:23.02	16.06	25.52	-51.1	-52.7	19.1	0.00e+00	0	49	0	645922816	74	4166
2026-01-16 06:18:24.03	15.76	25.52	-51.1	-52.6	19.1	0.00e+00	0	49	0	646971392	74	4134
2026-01-16 06:18:25.04	15.46	25.52	-50.9	-52.4	19.4	0.00e+00	0	49	0	649068544	73	4267
2026-01-16 06:18:26.05	15.16	25.52	-50.7	-52.2	19.5	0.00e+00	0	49	0	651165696	73	4168
2026-01-16 06:18:27.06	14.86	25.52	-50.6	-52.0	19.7	0.00e+00	0	49	0	653262848	73	4085
2026-01-16 06:18:28.07	14.56	25.51	-50.5	-51.9	19.8	0.00e+00	0	49	0	655360000	72	4272
2026-01-16 06:18:29.08	14.26	25.51	-50.5	-51.9	19.9	0.00e+00	0	49	0	656408576	72	4252
2026-01-16 06:18:30.09	13.96	25.50	-50.5	-51.9	19.8	0.00e+00	0	49	0	658505728	72	4268
2026-01-16 06:18:31.10	13.66	25.50	-50.4	-51.8	20.0	0.00e+00	0	49	0	660602880	72	4201
2026-01-16 06:18:32.11	13.36	25.49	-50.2	-51.5	20.2	0.00e+00	0	49	0	662700032	72	4074
2026-01-16 06:18:33.12	13.06	25.48	-50.2	-51.5	20.2	0.00e+00	0	49	0	663748608	72	4087
2026-01-16 06:18:34.13	12.76	25.47	-50.1	-51.5	20.3	0.00e+00	0	49	0	665845760	72	4052
2026-01-16 06:18:35.13	12.47	25.46	-50.1	-51.4	20.3	0.00e+00	0	49	0	667942912	72	4039
2026-01-16 06:18:36.14	12.17	25.45	-50.0	-51.3	20.5	0.00e+00	0	49	0	670040064	71	4195
2026-01-16 06:18:37.15	11.87	25.44	-49.9	-51.1	20.6	0.00e+00	0	49	0	672137216	71	4139
2026-01-16 06:18:38.16	11.57	25.43	-49.9	-51.1	20.6	0.00e+00	0	49	0	674234368	71	4142
2026-01-16 06:18:39.18	11.27	25.42	-49.8	-51.0	20.7	0.00e+00	0	49	0	675282944	71	4093
2026-01-16 06:18:40.19	10.97	25.40	-49.7	-51.0	20.8	0.00e+00	0	49	0	677380096	71	4055
2026-01-16 06:18:41.19	10.68	25.39	-49.7	-50.9	20.8	0.00e+00	0	49	0	679477248	71	4036
2026-01-16 06:18:42.20	10.38	25.37	-49.4	-50.6	21.1	0.00e+00	0	49	0	681574400	70	4132
2026-01-16 06:18:43.21	10.08	25.36	-49.4	-50.6	21.1	0.00e+00	0	49	0	683671552	70	4141
2026-01-16 06:18:44.22	9.79	25.34	-49.3	-50.5	21.1	0.00e+00	0	49	0	684720128	70	4084
2026-01-16 06:18:45.23	9.49	25.32	-49.3	-50.5	21.2	0.00e+00	0	49	0	686817280	70	4064
2026-01-16 06:18:46.24	9.19	25.31	-49.3	-50.5	21.2	0.00e+00	0	49	0	688914432	70	4054
2026-01-16 06:18:47.25	8.90	25.29	-49.4	-50.5	21.2	0.00e+00	0	49	0	691011584	70	4090
2026-01-16 06:18:48.26	8.60	25.27	-49.3	-50.4	21.2	0.00e+00	0	49	0	693108736	70	4037
2026-01-16 06:18:49.27	8.31	25.24	-49.3	-50.5	21.2	0.00e+00	0	49	0	694157312	70	4083
2026-01-16 06:18:50.28	8.01	25.22	-49.4	-50.5	21.2	0.00e+00	0	49	0	696254464	70	4095
2026-01-16 06:18:51.29	7.72	25.20	-49.4	-50.6	21.1	0.00e+00	0	49	0	698351616	70	4124
2026-01-16 06:18:52.30	7.42	25.18	-49.3	-50.4	21.2	0.00e+00	0	49	0	700448768	70	4050
2026-01-16 06:18:53.31	7.13	25.15	-49.2	-50.4	21.4	0.00e+00	0	49	0	702545920	70	4023
2026-01-16 06:18:54.32	6.84	25.13	-49.2	-50.4	21.3	0.00e+00	0	49	0	703594496	70	4029
2026-01-16 06:18:55.33	6.55	25.10	-49.2	-50.4	21.3	0.00e+00	0	49	0	705691648	70	4035
2026-01-16 06:18:56.34	6.25	25.07	-49.4	-50.6	21.2	0.00e+00	0	49	0	707788800	70	4114
2026-01-16 06:18:57.35	5.96	25.05	-49.5	-50.7	21.0	0.00e+00	0	49	0	709885952	70	4184
2026-01-16 06:18:58.36	5.67	25.02	-49.6	-50.9	20.8	0.00e+00	0	49	0	711983104	70	4263
2026-01-16 06:18:59.37	5.38	24.99	-49.7	-51.0	20.8	0.00e+00	0	49	0	714080256	70	4306
2026-01-16 06:19:00.37	5.10	24.96	-49.8	-51.0	20.7	0.00e+00	0	49	0	715128832	70	4338
2026-01-16 06:19:01.38	4.81	24.93	-49.8	-51.1	20.7	0.00e+00	0	49	0	717225984	70	4341
2026-01-16 06:19:02.39	4.52	24.90	-49.6	-50.9	20.8	0.00e+00	0	49	0	719323136	70	4265
2026-01-16 06:19:03.40	4.23	24.87	-49.6	-50.8	20.9	0.00e+00	0	49	0	721420288	70	4218
2026-01-16 06:19:04.41	3.94	24.83	-49.6	-50.9	20.9	0.00e+00	0	49	0	722468864	70	4248
2026-01-16 06:19:05.42	3.66	24.80	-49.8	-51.0	20.7	0.00e+00	0	49	0	724566016	70	4321
2026-01-16 06:19:06.43	3.37	24.77	-49.9	-51.2	20.6	0.00e+00	0	49	0	726663168	70	4428
2026-01-16 06:19:07.44	3.08	24.73	-50.0	-51.3	20.5	0.00e+00	0	49	0	728760320	70	4442
2026-01-16 06:19:08.45	2.80	24.69	-50.1	-51.4	20.4	0.00e+00	0	49	0	730857472	70	4518
2026-01-16 06:19:09.46	2.52	24.66	-50.1	-51.4	20.4	0.00e+00	0	49	0	732954624	70	4518
2026-01-16 06:19:10.47	2.23	24.62	-50.1	-51.4	20.4	0.00e+00	0	49	0	734003200	70	4505
2026-01-16 06:19:11.48	1.95	24.58	-50.1	-51.4	20.3	0.00e+00	0	49	0	736100352	70	4544
2026-01-16 06:19:12.49	1.67	24.54	-50.2	-51.5	20.3	0.00e+00	0	49	0	738197504	70	4588
2026-01-16 06:19:13.50	1.39	24.50	-50.2	-51.5	20.3	0.00e+00	0	49	0	740294656	71	4330
2026-01-16 06:19:14.51	1.10	24.46	-50.2	-51.5	20.3	0.00e+00	0	49	0	742391808	71	4330
2026-01-16 06:19:15.52	0.82	24.42	-50.2	-51.5	20.2	0.00e+00	0	49	0	743440384	71	4332
2026-01-16 06:19:16.53	0.55	24.38	-50.3	-51.6	20.2	0.00e+00	0	49	0	745537536	71	4383
2026-01-16 06:19:17.54	0.27	24.34	-50.4	-51.8	20.0	0.00e+00	0	49	0	747634688	71	4463
2026-01-16 06:19:18.55	359.99	24.30	-50.6	-52.0	19.8	0.00e+00	0	49	0	749731840	71	4564
2026-01-16 06:19:19.56	359.71	24.25	-50.6	-52.1	19.7	0.00e+00	0	49	0	751828992	71	4600
2026-01-16 06:19:20.57	359.44	24.21	-50.7	-52.2	19.6	0.00e+00	0	49	0	752877568	72	4413
2026-01-16 06:19:21.57	359.16	24.17	-50.8	-52.3	19.4	0.00e+00	0	49	0	754974720	72	4473
2026-01-16 06:19:22.58	358.89	24.12	-50.9	-52.3	19.4	0.00e+00	0	49	0	757071872	72	4488
2026-01-16 06:19:23.59	358.62	24.08	-51.0	-52.5	19.3	0.00e+00	0	49	0	759169024	72	4563
2026-01-16 06:19:24.60	358.34	24.03	-50.9	-52.4	19.3	0.00e+00	0	49	0	761266176	72	4514
2026-01-16 06:19:25.61	358.07	23.98	-50.9	-52.5	19.3	0.00e+00	0	49	0	762314752	72	4552
2026-01-16 06:19:26.62	357.80	23.93	-51.0	-52.5	19.2	0.00e+00	0	49	0	764411904	72	4580
2026-01-16 06:19:27.63	357.53	23.89	-51.0	-52.6	19.2	0.00e+00	0	49	0	766509056	72	4612
2026-01-16 06:19:28.64	357.26	23.84	-51.1	-52.7	19.1	0.00e+00	0	49	0	768606208	72	4673
2026-01-16 06:19:29.65	356.99	23.79	-51.0	-52.6	19.1	0.00e+00	0	49	0	770703360	72	4619
2026-01-16 06:19:30.66	356.72	23.74	-51.1	-52.7	19.0	0.00e+00	0	49	0	771751936	72	4673
2026-01-16 06:19:31.67	356.45	23.69	-51.0	-52.5	19.2	0.00e+00	0	49	0	773849088	72	4598
2026-01-16 06:19:32.68	356.19	23.63	-51.3	-52.9	18.9	0.00e+00	0	49	0	775946240	73	4505
2026-01-16 06:19:33.68	355.93	23.58	-51.5	-53.1	18.6	0.00e+00	0	49	0	778043392	73	4632
2026-01-16 06:19:34.69	355.66	23.53	-51.4	-53.1	18.7	0.00e+00	0	49	0	780140544	73	4616
2026-01-16 06:19:35.70	355.40	23.48	-51.5	-53.1	18.6	0.00e+00	0	49	0	781189120	73	4641
2026-01-16 06:19:36.71	355.14	23.42	-51.4	-53.0	18.7	0.00e+00	0	49	0	783286272	73	4595
2026-01-16 06:19:37.72	354.87	23.37	-51.3	-52.9	18.9	0.00e+00	0	49	0	785383424	73	4499
2026-01-16 06:19:38.73	354.61	23.32	-51.1	-52.7	19.0	0.00e+00	0	49	0	787480576	73	4416
2026-01-16 06:19:39.74	354.35	23.26	-51.2	-52.7	19.0	0.00e+00	0	49	0	789577728	73	4426
2026-01-16 06:19:40.75	354.09	23.20	-51.0	-52.5	19.2	0.00e+00	0	49	0	791674880	73	4327
2026-01-16 06:19:41.76	353.84	23.15	-51.1	-52.7	19.1	0.00e+00	0	49	0	792723456	73	4398
2026-01-16 06:19:42.77	353.58	23.09	-51.1	-52.7	19.0	0.00e+00	0	49	0	794820608	73	4418
2026-01-16 06:19:43.78	353.32	23.03	-51.2	-52.8	18.9	0.00e+00	0	49	0	796917760	73	4467
2026-01-16 06:19:44.79	353.07	22.98	-51.3	-52.9	18.8	0.00e+00	0	49	0	799014912	73	4533
2026-01-16 06:19:45.80	352.81	22.92	-51.6	-53.2	18.5	0.00e+00	0	49	0	800063488	73	4701
2026-01-16 06:19:46.81	352.56	22.86	-51.7	-53.4	18.4	0.00e+00	0	49	0	802160640	73	4766
2026-01-16 06:19:47.82	352.31	22.80	-51.6	-53.3	18.4	0.00e+00	0	49	0	804257792	73	4759
2026-01-16 06:19:48.83	352.06	22.74	-51.4	-53.0	18.8	0.00e+00	0	49	0	806354944	73	4554
2026-01-16 06:19:49.84	351.81	22.68	-51.3	-53.0	18.8	0.00e+00	0	49	0	808452096	73	4552
2026-01-16 06:19:50.85	351.56	22.62	-51.1	-52.6	19.1	0.00e+00	0	49	0	810549248	73	4388
2026-01-16 06:19:51.86	351.31	22.56	-51.1	-52.7	19.1	0.00e+00	0	49	0	811597824	73	4407
2026-01-16 06:19:52.87	351.06	22.50	-51.2	-52.8	19.0	0.00e+00	0	49	0	813694976	73	4442
2026-01-16 06:19:53.88	350.81	22.44	-51.2	-52.8	18.9	0.00e+00	0	49	0	815792128	73	4489
2026-01-16 06:19:54.88	350.57	22.38	-51.4	-53.0	18.7	0.00e+00	0	49	0	817889280	73	4570
2026-01-16 06:19:55.89	350.33	22.31	-51.3	-52.9	18.8	0.00e+00	0	49	0	819986432	73	4525
2026-01-16 06:19:56.90	350.08	22.25	-51.3	-52.9	18.8	0.00e+00	0	49	0	821035008	73	4532
2026-01-16 06:19:57.91	349.84	22.19	-51.2	-52.8	19.0	0.00e+00	0	49	0	823132160	73	4448
2026-01-16 06:19:58.92	349.60	22.12	-51.2	-52.7	18.9	0.00e+00	0	49	0	825229312	73	4435
2026-01-16 06:19:59.93	349.36	22.06	-51.1	-52.7	19.1	0.00e+00	0	49	0	827326464	73	4396
2026-01-16 06:20:00.94	349.12	21.99	-50.9	-52.5	19.2	0.00e+00	0	49	0	829423616	73	4294
2026-01-16 06:20:01.95	348.88	21.93	-50.8	-52.2	19.5	0.00e+00	0	49	0	830472192	73	4191
2026-01-16 06:20:02.96	348.64	21.86	-50.8	-52.3	19.4	0.00e+00	0	49	0	832569344	73	4214
2026-01-16 06:20:03.96	348.41	21.80	-50.7	-52.1	19.6	0.00e+00	0	49	0	834666496	73	4137
2026-01-16 06:20:04.97	348.18	21.73	-50.7	-52.1	19.6	0.00e+00	0	49	0	836763648	73	4136
2026-01-16 06:20:05.98	347.94	21.67	-50.6	-52.0	19.7	0.00e+00	0	49	0	838860800	73	4092
2026-01-16 06:20:06.99	347.71	21.60	-50.6	-52.0	19.7	0.00e+00	0	49	0	839909376	73	4065
2026-01-16 06:20:08.00	347.48	21.53	-50.5	-51.9	19.8	0.00e+00	0	49	0	842006528	72	4259
2026-01-16 06:20:09.01	347.24	21.47	-50.5	-51.8	19.9	0.00e+00	0	49	0	844103680	72	4238
2026-01-16 06:20:10.02	347.01	21.40	-50.5	-51.9	19.8	0.00e+00	0	49	0	846200832	72	4275
2026-01-16 06:20:11.03	346.78	21.33	-50.4	-51.8	19.9	0.00e+00	0	49	0	848297984	72	4220
2026-01-16 06:20:12.04	346.56	21.26	-50.3	-51.7	19.9	0.00e+00	0	49	0	850395136	72	4179
2026-01-16 06:20:13.05	346.33	21.19	-50.4	-51.7	20.0	0.00e+00	0	49	0	851443712	72	4185
2026-01-16 06:20:14.06	346.10	21.12	-50.4	-51.7	19.9	0.00e+00	0	49	0	853540864	72	4193
2026-01-16 06:20:15.07	345.88	21.06	-50.4	-51.8	19.9	0.00e+00	0	49	0	855638016	72	4196
2026-01-16 06:20:16.08	345.65	20.99	-50.4	-51.8	19.8	0.00e+00	0	49	0	857735168	72	4242
2026-01-16 06:20:17.09	345.43	20.92	-50.4	-51.8	19.9	0.00e+00	0	49	0	858783744	72	4217
2026-01-16 06:20:18.10	345.21	20.85	-50.4	-51.7	19.9	0.00e+00	0	49	0	860880896	72	4189
2026-01-16 06:20:19.11	344.99	20.78	-50.3	-51.7	20.0	0.00e+00	0	49	0	862978048	72	4171
2026-01-16 06:20:20.12	344.77	20.71	-50.4	-51.7	19.9	0.00e+00	0	49	0	865075200	72	4186
2026-01-16 06:20:21.12	344.55	20.64	-50.3	-51.7	19.9	0.00e+00	0	49	0	867172352	72	4171
2026-01-16 06:20:22.13	344.33	20.57	-50.4	-51.8	19.9	0.00e+00	0	49	0	869269504	72	4206
2026-01-16 06:20:23.14	344.11	20.49	-50.4	-51.8	19.8	0.00e+00	0	49	0	870318080	72	4224
2026-01-16 06:20:24.15	343.90	20.42	-50.5	-52.0	19.7	0.00e+00	0	49	0	872415232	72	4297
2026-01-16 06:20:25.16	343.68	20.35	-50.5	-51.9	19.7	0.00e+00	0	49	0	874512384	72	4273
2026-01-16 06:20:26.17	343.47	20.28	-50.5	-52.0	19.7	0.00e+00	0	49	0	876609536	72	4299
2026-01-16 06:20:27.18	343.26	20.21	-50.6	-52.1	19.6	0.00e+00	0	49	0	878706688	72	4354
2026-01-16 06:20:28.19	343.04	20.13	-50.5	-51.9	19.7	0.00e+00	0	49	0	879755264	72	4269
2026-01-16 06:20:29.20	342.83	20.06	-50.5	-51.9	19.8	0.00e+00	0	49	0	881852416	72	4258
2026-01-16 06:20:30.21	342.62	19.99	-50.5	-51.9	19.8	0.00e+00	0	49	0	883949568	72	4259
2026-01-16 06:20:31.22	342.41	19.92	-50.4	-51.9	19.8	0.00e+00	0	49	0	886046720	72	4244
2026-01-16 06:20:32.23	342.21	19.84	-50.4	-51.7	19.9	0.00e+00	0	49	0	888143872	72	4191
2026-01-16 06:20:33.24	342.00	19.77	-50.3	-51.7	20.0	0.00e+00	0	49	0	889192448	72	4157
2026-01-16 06:20:34.25	341.79	19.70	-50.3	-51.6	20.0	0.00e+00	0	49	0	891289600	72	4145
2026-01-16 06:20:35.26	341.59	19.62	-50.2	-51.6	20.0	0.00e+00	0	49	0	893386752	72	4112
2026-01-16 06:20:36.27	341.38	19.55	-50.1	-51.5	20.1	0.00e+00	0	49	0	895483904	72	4058
2026-01-16 06:20:37.28	341.18	19.48	-50.2	-51.5	20.1	0.00e+00	0	49	0	897581056	72	4091
2026-01-16 06:20:38.28	340.98	19.40	-50.0	-51.4	20.2	0.00e+00	0	50	0	898629632	72	4015
2026-01-16 06:20:39.29	340.78	19.33	-50.0	-51.4	20.3	0.00e+00	0	49	0	900726784	71	4249
2026-01-16 06:20:40.30	340.58	19.25	-50.1	-51.4	20.3	0.00e+00	0	49	0	902823936	71	4275
2026-01-16 06:20:41.31	340.38	19.18	-50.1	-51.4	20.3	0.00e+00	0	49	0	904921088	71	4280
2026-01-16 06:20:42.32	340.18	19.10	-50.1	-51.4	20.2	0.00e+00	0	49	0	907018240	71	4273
2026-01-16 06:20:43.33	339.99	19.03	-50.1	-51.4	20.3	0.00e+00	0	49	0	908066816	71	4277
2026-01-16 06:20:44.34	339.79	18.96	-49.9	-51.2	20.4	0.00e+00	0	49	0	910163968	71	4189
2026-01-16 06:20:45.35	339.60	18.88	-50.0	-51.3	20.3	0.00e+00	0	49	0	912261120	71	4236
2026-01-16 06:20:46.36	339.40	18.81	-49.9	-51.2	20.4	0.00e+00	0	49	0	914358272	71	4167
2026-01-16 06:20:47.37	339.21	18.73	-49.9	-51.1	20.5	0.00e+00	0	49	0	916455424	71	4145
2026-01-16 06:20:48.38	339.02	18.65	-49.9	-51.2	20.5	0.00e+00	0	49	0	917504000	71	4152
2026-01-16 06:20:49.39	338.83	18.58	-49.8	-51.1	20.6	0.00e+00	0	49	0	919601152	71	4104
2026-01-16 06:20:50.40	338.63	18.50	-49.7	-50.9	20.7	0.00e+00	0	49	0	921698304	71	4044
2026-01-16 06:20:51.41	338.45	18.43	-49.7	-50.9	20.7	0.00e+00	0	49	0	923795456	71	4051
2026-01-16 06:20:52.42	338.26	18.35	-49.5	-50.7	20.9	0.00e+00	0	49	0	925892608	71	3945
2026-01-16 06:20:53.43	338.07	18.28	-49.6	-50.8	20.8	0.00e+00	0	49	0	927989760	70	4216
2026-01-16 06:20:54.44	337.88	18.20	-49.6	-50.8	20.8	0.00e+00	0	49	0	929038336	70	4225
2026-01-16 06:20:55.45	337.70	18.12	-49.6	-50.9	20.7	0.00e+00	0	49	0	931135488	70	4255
2026-01-16 06:20:56.46	337.51	18.05	-49.5	-50.8	20.8	0.00e+00	0	49	0	933232640	70	4212
2026-01-16 06:20:57.47	337.33	17.97	-49.6	-50.8	20.7	0.00e+00	0	49	0	935329792	70	4240
2026-01-16 06:20:58.48	337.15	17.90	-49.7	-50.9	20.7	0.00e+00	0	49	0	936378368	70	4279
2026-01-16 06:20:59.49	336.97	17.82	-49.5	-50.8	20.8	0.00e+00	0	49	0	938475520	70	4209
2026-01-16 06:21:00.50	336.78	17.74	-49.5	-50.7	20.9	0.00e+00	0	49	0	940572672	70	4190
2026-01-16 06:21:01.51	336.60	17.67	-49.5	-50.7	20.9	0.00e+00	0	50	0	942669824	70	4164
2026-01-16 06:21:02.52	336.43	17.59	-49.5	-50.7	20.9	0.00e+00	0	49	0	944766976	70	4175
2026-01-16 06:21:03.53	336.25	17.51	-49.5	-50.7	20.8	7.00e-07	0	49	0	946864128	70	4183
2026-01-16 06:21:04.53	336.07	17.44	-49.5	-50.8	20.9	0.00e+00	0	49	0	947912704	70	4203
2026-01-16 06:21:05.55	335.89	17.36	-49.3	-50.5	21.0	0.00e+00	0	49	0	950009856	70	4093
2026-01-16 06:21:06.55	335.72	17.28	-49.4	-50.6	20.9	0.00e+00	0	49	0	952107008	70	4137
2026-01-16 06:21:07.56	335.55	17.21	-49.5	-50.7	20.9	0.00e+00	0	49	0	954204160	70	4163
2026-01-16 06:21:08.57	335.37	17.13	-49.6	-50.8	20.8	0.00e+00	0	49	0	956301312	70	4223
2026-01-16 06:21:09.58	335.20	17.05	-49.6	-50.9	20.7	0.00e+00	0	49	0	957349888	70	4267
2026-01-16 06:21:10.59	335.03	16.98	-49.7	-51.0	20.6	0.00e+00	0	49	0	959447040	70	4308
2026-01-16 06:21:11.60	334.86	16.90	-49.7	-51.0	20.6	0.00e+00	0	49	0	961544192	70	4304
2026-01-16 06:21:12.60	334.69	16.82	-49.7	-51.0	20.6	0.00e+00	0	49	0	963641344	70	4312
2026-01-16 06:21:13.61	334.52	16.75	-49.7	-51.0	20.6	0.00e+00	0	49	0	964689920	70	4302
2026-01-16 06:21:14.62	334.35	16.67	-49.6	-50.9	20.6	0.00e+00	0	49	0	966787072	70	4273
2026-01-16 06:21:15.63	334.19	16.59	-49.7	-50.9	20.6	0.00e+00	0	49	0	968884224	70	4291
2026-01-16 06:21:16.64	334.02	16.52	-49.7	-51.0	20.6	0.00e+00	0	49	0	970981376	70	4299
2026-01-16 06:21:17.65	333.85	16.44	-49.8	-51.1	20.4	0.00e+00	0	49	0	973078528	70	4371
2026-01-16 06:21:18.66	333.69	16.36	-49.7	-51.0	20.6	0.00e+00	0	49	0	975175680	70	4319
2026-01-16 06:21:19.67	333.52	16.29	-49.8	-51.1	20.5	0.00e+00	0	50	0	976224256	70	4351
2026-01-16 06:21:20.68	333.36	16.21	-49.7	-50.9	20.7	0.00e+00	0	49	0	978321408	70	4278
2026-01-16 06:21:21.69	333.20	16.13	-49.7	-51.0	20.5	0.00e+00	0	49	0	980418560	70	4329
2026-01-16 06:21:22.70	333.04	16.06	-49.8	-51.1	20.5	0.00e+00	0	49	0	982515712	70	4346
2026-01-16 06:21:23.71	332.88	15.98	-49.8	-51.0	20.5	0.00e+00	0	49	0	984612864	70	4334
2026-01-16 06:21:24.71	332.72	15.90	-49.9	-51.2	20.4	0.00e+00	0	49	0	985661440	70	4405
2026-01-16 06:21:25.72	332.56	15.83	-49.8	-51.1	20.4	0.00e+00	0	49	0	987758592	70	4385
2026-01-16 06:21:26.73	332.40	15.75	-50.0	-51.3	20.2	0.00e+00	0	49	0	989855744	70	4491
2026-01-16 06:21:27.74	332.25	15.67	-50.1	-51.5	20.1	0.00e+00	0	49	0	991952896	70	4570
2026-01-16 06:21:28.75	332.09	15.60	-50.2	-51.6	20.0	0.00e+00	0	49	0	994050048	71	4371
2026-01-16 06:21:29.76	331.93	15.52	-50.4	-51.8	19.8	0.00e+00	0	49	0	995098624	71	4462
2026-01-16 06:21:30.77	331.78	15.44	-50.3	-51.8	19.8	0.00e+00	0	49	0	997195776	71	4447
2026-01-16 06:21:31.78	331.62	15.37	-50.5	-51.9	19.7	0.00e+00	0	49	0	999292928	71	4542
2026-01-16 06:21:32.79	331.47	15.29	-50.5	-52.0	19.6	0.00e+00	0	49	0	1001390080	71	4570
2026-01-16 06:21:33.80	331.32	15.21	-50.6	-52.1	19.4	0.00e+00	0	49	0	1003487232	71	4642
2026-01-16 06:21:34.81	331.17	15.14	-50.6	-52.1	19.5	0.00e+00	0	49	0	1004535808	71	4609
2026-01-16 06:21:35.82	331.02	15.06	-50.6	-52.1	19.5	0.00e+00	0	49	0	1006632960	71	4612
2026-01-16 06:21:36.83	330.87	14.98	-50.6	-52.1	19.5	0.00e+00	0	49	0	1008730112	71	4614
2026-01-16 06:21:37.84	330.72	14.91	-50.5	-52.0	19.6	0.00e+00	0	49	0	1010827264	71	4563
2026-01-16 06:21:38.85	330.57	14.83	-50.6	-52.0	19.5	0.00e+00	0	49	0	1012924416	71	4586
2026-01-16 06:21:39.86	330.42	14.75	-50.6	-52.0	19.5	1.50e-06	0	49	0	1015021568	71	4598
2026-01-16 06:21:40.87	330.28	14.68	-50.6	-52.1	19.4	0.00e+00	0	49	0	1016070144	71	4631
2026-01-16 06:21:41.88	330.13	14.60	-50.6	-52.1	19.5	7.00e-07	0	49	0	1018167296	71	4631
2026-01-16 06:21:42.89	329.98	14.52	-50.6	-52.0	19.5	0.00e+00	0	49	0	1020264448	71	4596
2026-01-16 06:21:43.90	329.84	14.45	-50.7	-52.1	19.4	0.00e+00	0	49	0	1022361600	71	4643
2026-01-16 06:21:44.91	329.70	14.37	-50.7	-52.2	19.2	0.00e+00	0	49	0	1023410176	72	4434
2026-01-16 06:21:45.92	329.55	14.30	-50.7	-52.2	19.3	0.00e+00	0	49	0	1025507328	72	4415
2026-01-16 06:21:46.93	329.41	14.22	-50.8	-52.3	19.2	0.00e+00	0	49	0	1027604480	72	4459
2026-01-16 06:21:47.94	329.27	14.14	-50.8	-52.3	19.2	0.00e+00	0	49	0	1029701632	72	4472
2026-01-16 06:21:48.95	329.13	14.07	-50.8	-52.3	19.2	0.00e+00	0	49	0	1031798784	72	4479
2026-01-16 06:21:49.95	328.99	13.99	-50.9	-52.5	19.0	0.00e+00	0	49	0	1033895936	72	4547
2026-01-16 06:21:50.96	328.85	13.92	-50.8	-52.3	19.2	0.00e+00	0	49	0	1034944512	72	4471
2026-01-16 06:21:51.97	328.71	13.84	-50.7	-52.2	19.2	0.00e+00	0	49	0	1037041664	72	4437
2026-01-16 06:21:52.98	328.57	13.77	-50.7	-52.3	19.2	0.00e+00	0	49	0	1039138816	72	4462
2026-01-16 06:21:53.99	328.44	13.69	-50.8	-52.3	19.1	0.00e+00	0	49	0	1041235968	72	4490
2026-01-16 06:21:55.00	328.30	13.61	-50.8	-52.3	19.1	0.00e+00	0	49	0	1043333120	72	4476
2026-01-16 06:21:56.01	328.16	13.54	-50.8	-52.4	19.1	0.00e+00	0	49	0	1044381696	72	4501
2026-01-16 06:21:57.02	328.03	13.46	-50.9	-52.5	19.0	0.00e+00	0	49	0	1046478848	72	4555
2026-01-16 06:21:58.03	327.89	13.39	-50.9	-52.5	18.9	0.00e+00	0	50	0	1048576000	72	4593
2026-01-16 06:21:59.04	327.76	13.31	-51.0	-52.6	18.8	0.00e+00	0	49	0	1050673152	72	4619
2026-01-16 06:22:00.05	327.63	13.24	-51.0	-52.6	18.9	0.00e+00	0	49	0	1052770304	72	4605
2026-01-16 06:22:01.06	327.50	13.16	-51.0	-52.6	18.8	0.00e+00	0	49	0	1053818880	72	4600
2026-01-16 06:22:02.07	327.36	13.09	-50.9	-52.5	18.9	0.00e+00	0	49	0	1055916032	72	4578
2026-01-16 06:22:03.08	327.23	13.01	-51.1	-52.7	18.7	0.00e+00	0	49	0	1058013184	72	4661
2026-01-16 06:22:04.09	327.10	12.94	-51.0	-52.6	18.9	0.00e+00	0	49	0	1060110336	72	4605
2026-01-16 06:22:05.09	326.98	12.86	-51.0	-52.6	18.8	0.00e+00	0	50	0	1062207488	72	4625
2026-01-16 06:22:06.10	326.85	12.79	-51.1	-52.7	18.7	0.00e+00	0	49	0	1063256064	72	4680
2026-01-16 06:22:07.11	326.72	12.72	-51.2	-52.8	18.6	0.00e+00	0	49	0	1065353216	72	4742
2026-01-16 06:22:08.12	326.59	12.64	-51.3	-53.0	18.5	0.00e+00	0	49	0	1067450368	73	4546
2026-01-16 06:22:09.13	326.46	12.57	-51.4	-53.1	18.3	0.00e+00	0	50	0	1069547520	73	4623
2026-01-16 06:22:10.14	326.34	12.49	-51.3	-53.0	18.4	0.00e+00	0	49	0	1071644672	73	4574
2026-01-16 06:22:11.15	326.21	12.42	-51.3	-53.0	18.4	0.00e+00	0	49	0	1072693248	73	4588
2026-01-16 06:22:12.16	326.09	12.34	-51.4	-53.1	18.2	0.00e+00	0	49	0	1074790400	73	4616
2026-01-16 06:22:13.17	325.96	12.27	-51.3	-53.0	18.5	0.00e+00	0	49	0	1076887552	73	4546
2026-01-16 06:22:14.18	325.84	12.20	-51.3	-53.0	18.5	0.00e+00	0	50	0	1078984704	73	4549
2026-01-16 06:22:15.19	325.72	12.12	-51.3	-53.0	18.4	0.00e+00	0	49	0	1081081856	73	4551
2026-01-16 06:22:16.20	325.59	12.05	-51.2	-52.9	18.5	0.00e+00	0	49	0	1082130432	73	4521
2026-01-16 06:22:17.21	325.47	11.97	-51.4	-53.1	18.3	0.00e+00	0	49	0	1084227584	73	4615
2026-01-16 06:22:18.22	325.35	11.90	-51.2	-52.9	18.5	0.00e+00	0	50	0	1086324736	73	4516
2026-01-16 06:22:19.23	325.23	11.83	-51.3	-53.0	18.4	0.00e+00	0	49	0	1088421888	73	4589
2026-01-16 06:22:20.24	325.11	11.75	-51.3	-53.1	18.3	0.00e+00	0	49	0	1090519040	73	4606
2026-01-16 06:22:21.24	324.99	11.68	-51.4	-53.1	18.2	0.00e+00	0	49	0	1092616192	73	4634
2026-01-16 06:22:22.25	324.87	11.61	-51.5	-53.2	18.1	0.00e+00	0	49	0	1093664768	73	4687
2026-01-16 06:22:23.26	324.76	11.53	-51.5	-53.3	18.1	0.00e+00	0	49	0	1095761920	73	4711
2026-01-16 06:22:24.27	324.64	11.46	-51.6	-53.4	18.0	0.00e+00	0	49	0	1097859072	73	4765
2026-01-16 06:22:25.28	324.52	11.39	-51.7	-53.5	17.9	0.00e+00	0	49	0	1099956224	73	4836
2026-01-16 06:22:26.29	324.40	11.32	-51.6	-53.5	17.9	0.00e+00	0	49	0	1101004800	73	4820
2026-01-16 06:22:27.30	324.29	11.24	-51.7	-53.5	17.9	0.00e+00	0	50	0	1103101952	74	4572
2026-01-16 06:22:28.31	324.17	11.17	-51.7	-53.6	17.8	0.00e+00	0	49	0	1105199104	74	4628
2026-01-16 06:22:29.32	324.06	11.10	-51.8	-53.7	17.7	0.00e+00	0	49	0	1107296256	74	4667
2026-01-16 06:22:30.33	323.95	11.03	-51.8	-53.7	17.6	0.00e+00	0	49	0	1109393408	74	4686
2026-01-16 06:22:31.34	323.83	10.95	-51.9	-53.8	17.5	0.00e+00	0	49	0	1111490560	74	4735
2026-01-16 06:22:32.35	323.72	10.88	-52.0	-53.9	17.4	0.00e+00	0	50	0	1112539136	74	4797
2026-01-16 06:22:33.36	323.61	10.81	-52.0	-53.9	17.4	0.00e+00	0	49	0	1114636288	74	4807
2026-01-16 06:22:34.37	323.50	10.74	-52.0	-54.0	17.4	0.00e+00	0	49	0	1116733440	74	4815
2026-01-16 06:22:35.38	323.38	10.66	-52.0	-54.0	17.4	0.00e+00	0	49	0	1118830592	74	4817
2026-01-16 06:22:36.39	323.27	10.59	-52.0	-54.0	17.3	0.00e+00	0	49	0	1120927744	74	4849
2026-01-16 06:22:37.40	323.16	10.52	-52.1	-54.1	17.2	0.00e+00	0	50	0	1121976320	74	4883
2026-01-16 06:22:38.41	323.05	10.45	-52.1	-54.1	17.2	0.00e+00	0	49	0	1124073472	74	4900
2026-01-16 06:22:39.42	322.95	10.38	-52.0	-54.0	17.3	0.00e+00	0	49	0	1126170624	74	4857
2026-01-16 06:22:40.43	322.84	10.31	-52.2	-54.2	17.1	0.00e+00	0	49	0	1128267776	74	4964
2026-01-16 06:22:41.44	322.73	10.24	-52.2	-54.3	17.0	0.00e+00	0	49	0	1130364928	75	4738
2026-01-16 06:22:42.45	322.62	10.16	-52.3	-54.4	16.9	0.00e+00	0	49	0	1131413504	75	4803
2026-01-16 06:22:43.46	322.52	10.09	-52.3	-54.4	16.9	0.00e+00	0	49	0	1133510656	75	4783
2026-01-16 06:22:44.47	322.41	10.02	-52.4	-54.5	16.8	0.00e+00	0	49	0	1135607808	75	4839
2026-01-16 06:22:45.48	322.30	9.95	-52.4	-54.5	16.7	0.00e+00	0	49	0	1137704960	75	4863
2026-01-16 06:22:46.49	322.20	9.88	-52.3	-54.5	16.8	0.00e+00	0	49	0	1139802112	75	4830
2026-01-16 06:22:47.50	322.09	9.81	-52.3	-54.4	16.8	0.00e+00	0	50	0	1140850688	75	4806
2026-01-16 06:22:48.51	321.99	9.74	-52.2	-54.3	16.9	0.00e+00	0	49	0	1142947840	75	4731
2026-01-16 06:22:49.51	321.89	9.67	-52.2	-54.3	16.9	0.00e+00	0	49	0	1145044992	75	4732
2026-01-16 06:22:50.52	321.79	9.60	-52.3	-54.4	16.9	0.00e+00	0	49	0	1147142144	75	4763
2026-01-16 06:22:51.53	321.68	9.53	-52.3	-54.4	16.8	0.00e+00	0	49	0	1149239296	75	4781
2026-01-16 06:22:52.54	321.58	9.46	-52.2	-54.3	16.9	0.00e+00	0	49	0	1151336448	75	4755
2026-01-16 06:22:53.55	321.48	9.39	-52.3	-54.5	16.8	0.00e+00	0	50	0	1152385024	75	4835
2026-01-16 06:22:54.56	321.38	9.32	-52.3	-54.4	16.8	0.00e+00	0	49	0	1154482176	75	4802
2026-01-16 06:22:55.57	321.28	9.25	-52.2	-54.3	16.9	0.00e+00	0	49	0	1156579328	75	4723
2026-01-16 06:22:56.58	321.18	9.18	-52.3	-54.4	16.8	0.00e+00	0	49	0	1158676480	75	4773
2026-01-16 06:22:57.59	321.08	9.11	-52.2	-54.3	16.9	0.00e+00	0	49	0	1159725056	75	4720
2026-01-16 06:22:58.60	320.98	9.04	-52.2	-54.3	16.9	0.00e+00	0	49	0	1161822208	75	4744
2026-01-16 06:22:59.61	320.88	8.97	-52.2	-54.3	16.9	0.00e+00	0	49	0	1163919360	75	4725
2026-01-16 06:23:00.62	320.78	8.90	-52.2	-54.3	16.9	0.00e+00	0	50	0	1166016512	75	4754
2026-01-16 06:23:01.63	320.68	8.83	-52.3	-54.4	16.9	0.00e+00	0	49	0	1168113664	75	4781
2026-01-16 06:23:02.64	320.59	8.76	-52.4	-54.5	16.7	0.00e+00	0	49	0	1170210816	75	4852
2026-01-16 06:23:03.65	320.49	8.69	-52.4	-54.6	16.6	0.00e+00	0	49	0	1171259392	75	4900
2026-01-16 06:23:04.66	320.40	8.63	-52.4	-54.6	16.6	0.00e+00	0	49	0	1173356544	75	4887
2026-01-16 06:23:05.66	320.30	8.56	-52.5	-54.7	16.5	0.00e+00	0	49	0	1175453696	75	4974
2026-01-16 06:23:06.67	320.21	8.49	-52.4	-54.7	16.5	0.00e+00	0	49	0	1177550848	75	4931
2026-01-16 06:23:07.68	320.11	8.42	-52.5	-54.7	16.4	0.00e+00	0	49	0	1179648000	75	4952
2026-01-16 06:23:08.69	320.02	8.35	-52.4	-54.7	16.5	0.00e+00	0	49	0	1180696576	75	4936
2026-01-16 06:23:09.70	319.92	8.28	-52.5	-54.7	16.4	0.00e+00	0	49	0	1182793728	75	4948
2026-01-16 06:23:10.70	319.83	8.22	-52.6	-54.9	16.3	0.00e+00	0	49	0	1184890880	75	5045
2026-01-16 06:23:11.71	319.74	8.15	-52.6	-54.8	16.3	0.00e+00	0	49	0	1186988032	75	5041
2026-01-16 06:23:12.72	319.64	8.08	-52.6	-54.9	16.3	0.00e+00	0	49	0	1188036608	75	5066
2026-01-16 06:23:13.73	319.55	8.01	-52.7	-55.1	16.0	0.00e+00	0	49	0	1190133760	76	4890
2026-01-16 06:23:14.74	319.46	7.94	-52.8	-55.2	15.9	0.00e+00	0	50	0	1192230912	76	4975
2026-01-16 06:23:15.75	319.37	7.88	-52.8	-55.3	15.9	0.00e+00	0	49	0	1194328064	76	4985
2026-01-16 06:23:16.76	319.28	7.81	-52.8	-55.1	15.9	0.00e+00	0	49	0	1196425216	76	4925
2026-01-16 06:23:17.77	319.19	7.74	-52.9	-55.3	15.7	0.00e+00	0	49	0	1198522368	76	5023
2026-01-16 06:23:18.78	319.10	7.67	-53.0	-55.5	15.6	0.00e+00	0	49	0	1199570944	76	5128
2026-01-16 06:23:19.79	319.01	7.61	-52.9	-55.3	15.7	0.00e+00	0	49	0	1201668096	76	5038
2026-01-16 06:23:20.80	318.92	7.54	-52.9	-55.4	15.7	0.00e+00	0	49	0	1203765248	76	5090
2026-01-16 06:23:21.81	318.83	7.47	-53.1	-55.8	15.3	0.00e+00	0	49	0	1205862400	76	5287
2026-01-16 06:23:22.82	318.74	7.41	-53.1	-55.7	15.4	0.00e+00	0	49	0	1207959552	76	5234
2026-01-16 06:23:23.82	318.66	7.34	-53.1	-55.8	15.3	0.00e+00	0	49	0	1209008128	76	5295
2026-01-16 06:23:24.83	318.57	7.27	-53.2	-55.9	15.1	0.00e+00	0	49	0	1211105280	76	5355
2026-01-16 06:23:25.84	318.48	7.21	-53.1	-55.8	15.3	0.00e+00	0	50	0	1213202432	77	5002
2026-01-16 06:23:26.85	318.40	7.14	-53.1	-55.7	15.3	0.00e+00	0	50	0	1215299584	77	4978
2026-01-16 06:23:27.86	318.31	7.07	-53.1	-55.7	15.3	0.00e+00	0	50	0	1217396736	77	4928
2026-01-16 06:23:28.87	318.22	7.01	-53.0	-55.7	15.3	0.00e+00	0	50	0	1218445312	77	4933
2026-01-16 06:23:29.88	318.14	6.94	-53.1	-55.8	15.2	0.00e+00	0	49	0	1220542464	77	5004
2026-01-16 06:23:30.89	318.05	6.88	-53.1	-55.8	15.2	0.00e+00	0	49	0	1222639616	77	4990
2026-01-16 06:23:31.90	317.97	6.81	-53.2	-56.0	15.0	0.00e+00	0	49	0	1224736768	77	5113
2026-01-16 06:23:32.91	317.89	6.74	-53.1	-55.7	15.2	0.00e+00	0	50	0	1226833920	77	4975
2026-01-16 06:23:33.92	317.80	6.68	-53.1	-55.7	15.2	0.00e+00	0	49	0	1227882496	77	4979
2026-01-16 06:23:34.93	317.72	6.61	-53.0	-55.7	15.3	0.00e+00	0	49	0	1229979648	77	4951
2026-01-16 06:23:35.93	317.64	6.55	-53.1	-55.7	15.2	0.00e+00	0	49	0	1232076800	77	4965
2026-01-16 06:23:36.94	317.55	6.48	-53.1	-55.8	15.1	0.00e+00	0	49	0	1234173952	77	5036
