passes_logs/2026/01/16/R3.2S_Murmansk/R3.2S_Murmansk__20260116_043536_AQUA_rec.log

#Pass ID: 20260116_043536_AQUA
#Satellite: AQUA
#Configuration: AQUA
#almurnet v.1.7.20251203
#Start time: 2026-01-16 04:35:37

#Version: 2.2.20231116
#Station: R3.2S_Murmansk
#Location: 33.079688 lon 68.888172 lat
#TLE: 1 27424U 02022A   26015.51279194  .00000651  00000+0  14022-3 0  9990
#TLE: 2 27424  98.4082 341.9487 0002034  77.6776  33.2672 14.61821775260965

#Time	Az	El	Level	Level2	SNR	BER	BlckErr	Temp	State	Recorded	gain1	gain2
2026-01-16 04:35:37.20	33.76	2.06	-57.5	-75.3	3.8	7.48e-01	0	41	0	0	87	26587
2026-01-16 04:35:38.21	33.71	2.13	-57.5	-75.3	3.8	7.43e-01	0	42	104	0	85	29901
2026-01-16 04:35:39.22	33.65	2.19	-57.5	-75.3	3.8	7.46e-01	0	41	104	0	85	29851
2026-01-16 04:35:40.23	33.59	2.25	-57.5	-75.3	3.8	7.45e-01	0	42	104	0	85	29803
2026-01-16 04:35:41.24	33.53	2.31	-57.5	-75.3	3.8	7.44e-01	0	42	104	0	85	29829
2026-01-16 04:35:42.25	33.47	2.38	-57.5	-75.3	3.8	7.43e-01	0	42	104	0	85	29723
2026-01-16 04:35:43.26	33.41	2.44	-57.5	-75.3	3.8	7.44e-01	0	42	104	0	85	29773
2026-01-16 04:35:44.27	33.35	2.50	-57.5	-75.3	3.8	7.46e-01	0	42	104	0	85	29719
2026-01-16 04:35:45.28	33.29	2.56	-57.5	-75.3	3.8	7.45e-01	0	42	104	0	85	29734
2026-01-16 04:35:46.29	33.23	2.63	-57.5	-75.3	3.8	7.49e-01	0	42	104	0	85	29770
2026-01-16 04:35:47.30	33.17	2.69	-57.5	-75.3	3.8	7.45e-01	0	42	104	0	85	29708
2026-01-16 04:35:48.31	33.10	2.75	-57.5	-75.3	3.8	7.44e-01	0	42	104	0	85	29762
2026-01-16 04:35:49.32	33.04	2.82	-57.5	-75.3	3.8	7.46e-01	0	42	104	0	85	29700
2026-01-16 04:35:50.33	32.98	2.88	-57.5	-75.3	3.8	7.47e-01	0	42	104	0	85	29726
2026-01-16 04:35:51.34	32.92	2.95	-57.5	-75.2	3.8	7.47e-01	0	42	104	0	85	29668
2026-01-16 04:35:52.35	32.86	3.01	-57.5	-75.2	3.8	7.49e-01	0	42	104	0	85	29626
2026-01-16 04:35:53.36	32.79	3.07	-57.5	-75.2	3.8	7.44e-01	0	42	104	0	85	29660
2026-01-16 04:35:54.37	32.73	3.14	-57.5	-75.2	3.8	7.47e-01	0	43	104	0	85	29600
2026-01-16 04:35:55.38	32.67	3.20	-57.5	-75.3	3.8	7.49e-01	0	43	104	0	85	29733
2026-01-16 04:35:56.39	32.60	3.27	-57.5	-75.2	3.8	7.45e-01	0	43	104	0	85	29655
2026-01-16 04:35:57.40	32.54	3.33	-57.5	-75.2	3.8	7.42e-01	0	43	104	0	85	29539
2026-01-16 04:35:58.41	32.47	3.40	-57.5	-75.2	3.8	7.44e-01	0	43	104	0	85	29668
2026-01-16 04:35:59.42	32.41	3.46	-57.5	-75.3	3.8	7.44e-01	0	43	104	0	85	29692
2026-01-16 04:36:00.43	32.34	3.52	-57.5	-75.2	3.8	7.43e-01	0	43	104	0	85	29476
2026-01-16 04:36:01.44	32.28	3.59	-57.4	-75.2	3.8	7.45e-01	0	43	104	0	85	29453
2026-01-16 04:36:02.45	32.21	3.66	-57.4	-75.2	3.8	7.45e-01	0	43	104	0	85	29495
2026-01-16 04:36:03.46	32.14	3.72	-57.5	-75.2	3.8	7.45e-01	0	43	104	0	85	29621
2026-01-16 04:36:04.47	32.08	3.79	-57.5	-75.3	3.8	7.47e-01	0	43	104	0	85	29710
2026-01-16 04:36:05.48	32.01	3.85	-57.5	-75.3	3.8	7.46e-01	0	43	104	0	85	29698
2026-01-16 04:36:06.49	31.94	3.92	-57.5	-75.1	3.8	7.43e-01	0	43	104	0	85	29222
2026-01-16 04:36:07.50	31.88	3.98	-57.4	-74.9	3.8	7.45e-01	0	43	104	0	85	28485
2026-01-16 04:36:08.51	31.81	4.05	-57.4	-74.7	3.8	7.46e-01	0	43	104	0	85	27816
2026-01-16 04:36:09.52	31.74	4.12	-57.3	-74.3	3.8	7.47e-01	0	43	104	0	85	26749
2026-01-16 04:36:10.53	31.67	4.18	-57.3	-74.2	3.8	7.47e-01	0	43	104	0	85	26165
2026-01-16 04:36:11.54	31.60	4.25	-57.1	-73.3	3.8	7.46e-01	0	43	104	0	85	23612
2026-01-16 04:36:12.55	31.53	4.31	-56.8	-72.4	3.8	7.43e-01	0	43	104	0	85	21469
2026-01-16 04:36:13.56	31.46	4.38	-56.6	-71.6	3.8	7.49e-01	0	43	104	0	85	19536
2026-01-16 04:36:14.57	31.39	4.45	-56.3	-70.9	3.8	7.45e-01	0	43	104	0	84	18949
2026-01-16 04:36:15.58	31.32	4.52	-56.3	-70.8	3.8	7.44e-01	0	43	104	0	84	18937
2026-01-16 04:36:16.59	31.25	4.58	-55.9	-69.9	3.8	7.43e-01	0	44	104	0	83	18045
2026-01-16 04:36:17.60	31.18	4.65	-55.8	-69.7	3.8	7.44e-01	0	44	104	0	83	17638
2026-01-16 04:36:18.61	31.11	4.72	-55.7	-69.5	3.8	7.48e-01	0	44	104	0	83	17099
2026-01-16 04:36:19.62	31.03	4.79	-55.8	-69.8	3.8	7.45e-01	0	44	104	0	83	17733
2026-01-16 04:36:20.63	30.96	4.85	-55.7	-69.6	3.8	7.44e-01	0	44	104	0	83	17295
2026-01-16 04:36:21.64	30.89	4.92	-55.8	-69.7	3.8	7.47e-01	0	44	104	0	83	17610
2026-01-16 04:36:22.65	30.82	4.99	-56.1	-70.4	3.8	7.43e-01	0	44	104	0	83	19080
2026-01-16 04:36:23.66	30.74	5.06	-55.8	-69.5	3.8	7.46e-01	0	44	104	0	83	17256
2026-01-16 04:36:24.67	30.67	5.13	-55.8	-69.4	3.8	7.44e-01	0	44	104	0	83	16888
2026-01-16 04:36:25.68	30.59	5.19	-56.3	-70.9	3.8	7.48e-01	0	44	104	0	83	20123
2026-01-16 04:36:26.69	30.52	5.26	-54.4	-66.4	3.9	7.44e-01	0	44	104	0	80	14235
2026-01-16 04:36:27.69	30.44	5.33	-56.6	-71.1	3.8	7.48e-01	0	44	104	0	83	20606
2026-01-16 04:36:28.70	30.37	5.40	-54.7	-67.2	3.8	7.43e-01	0	44	104	0	81	14728
2026-01-16 04:36:29.72	30.29	5.47	-53.5	-65.2	3.8	7.42e-01	0	44	104	0	78	13886
2026-01-16 04:36:30.73	30.21	5.54	-52.8	-64.3	3.8	7.45e-01	0	44	104	0	77	13380
2026-01-16 04:36:31.74	30.14	5.61	-56.9	-71.2	3.8	7.49e-01	0	44	104	0	84	19737
2026-01-16 04:36:32.75	30.06	5.68	-52.6	-64.0	3.8	7.46e-01	0	44	104	0	76	13695
2026-01-16 04:36:33.76	29.98	5.75	-57.5	-73.8	3.8	7.46e-01	0	44	104	0	85	25152
2026-01-16 04:36:34.77	29.90	5.82	-54.8	-67.1	3.9	7.46e-01	0	44	104	0	81	14631
2026-01-16 04:36:35.78	29.82	5.89	-55.4	-68.2	3.8	7.48e-01	0	44	104	0	81	16662
2026-01-16 04:36:36.79	29.75	5.96	-54.5	-66.7	3.8	7.44e-01	0	44	104	0	81	14046
2026-01-16 04:36:37.80	29.67	6.03	-53.5	-65.2	3.8	7.45e-01	0	44	104	0	79	13202
2026-01-16 04:36:38.81	29.59	6.10	-52.8	-64.4	3.8	7.43e-01	0	44	104	0	77	13443
2026-01-16 04:36:39.82	29.51	6.17	-52.5	-63.9	3.8	7.44e-01	0	44	104	0	76	13449
2026-01-16 04:36:40.83	29.42	6.24	-53.2	-64.7	3.8	7.47e-01	0	44	104	0	76	14848
2026-01-16 04:36:41.84	29.34	6.31	-57.9	-74.8	3.8	7.46e-01	0	45	104	0	86	26649
2026-01-16 04:36:42.85	29.26	6.38	-54.3	-66.3	3.8	7.45e-01	0	44	104	0	80	14074
2026-01-16 04:36:43.86	29.18	6.45	-56.2	-69.6	3.8	7.49e-01	0	44	104	0	82	18485
2026-01-16 04:36:44.87	29.10	6.53	-53.8	-65.6	3.8	7.44e-01	0	44	104	0	79	13833
2026-01-16 04:36:45.88	29.01	6.60	-53.2	-64.8	3.8	7.47e-01	0	45	104	0	78	13309
2026-01-16 04:36:46.89	28.93	6.67	-53.0	-64.5	3.8	7.45e-01	0	45	104	0	77	13610
2026-01-16 04:36:47.90	28.85	6.74	-52.5	-63.8	3.8	7.45e-01	0	45	104	0	76	13343
2026-01-16 04:36:48.91	28.76	6.81	-53.0	-64.5	3.8	7.44e-01	0	45	104	0	76	14504
2026-01-16 04:36:49.92	28.68	6.89	-58.1	-75.5	3.8	7.48e-01	0	45	104	0	86	28791
2026-01-16 04:36:50.92	28.59	6.96	-54.0	-65.8	3.9	7.48e-01	0	45	104	0	79	14120
2026-01-16 04:36:51.93	28.51	7.03	-56.7	-70.4	3.8	7.44e-01	0	45	104	0	83	19139
2026-01-16 04:36:52.94	28.42	7.10	-53.5	-65.2	3.8	7.43e-01	0	45	104	0	79	13143
2026-01-16 04:36:53.95	28.33	7.18	-53.3	-64.9	3.8	7.43e-01	0	45	104	0	78	13565
2026-01-16 04:36:54.96	28.24	7.25	-53.2	-64.8	3.8	7.45e-01	0	45	104	0	78	13303
2026-01-16 04:36:55.97	28.16	7.32	-53.1	-64.7	3.8	7.45e-01	0	45	104	0	76	14760
2026-01-16 04:36:56.98	28.07	7.40	-53.0	-64.5	3.8	7.43e-01	0	45	104	0	76	14440
2026-01-16 04:36:57.99	27.98	7.47	-58.2	-75.5	3.8	7.48e-01	0	45	104	0	86	28917
2026-01-16 04:36:59.00	27.89	7.54	-53.8	-65.5	3.8	7.46e-01	0	45	104	0	79	13634
2026-01-16 04:37:00.01	27.80	7.62	-57.0	-71.2	3.8	7.47e-01	0	45	104	0	84	19725
2026-01-16 04:37:01.02	27.71	7.69	-53.2	-64.7	3.8	7.43e-01	0	45	104	0	78	13205
2026-01-16 04:37:02.03	27.62	7.77	-52.5	-63.8	3.8	7.46e-01	0	45	104	0	77	12607
2026-01-16 04:37:03.04	27.53	7.84	-52.6	-64.0	3.8	7.45e-01	0	45	104	0	76	13573
2026-01-16 04:37:04.04	27.43	7.92	-52.7	-64.1	3.9	7.44e-01	0	45	104	0	76	13861
2026-01-16 04:37:05.05	27.34	7.99	-52.9	-64.4	3.9	7.46e-01	0	45	104	0	76	14211
2026-01-16 04:37:06.06	27.25	8.07	-58.4	-75.9	3.8	7.48e-01	0	45	104	0	87	28560
2026-01-16 04:37:07.07	27.15	8.14	-53.7	-65.4	3.8	7.47e-01	0	45	104	0	79	13460
2026-01-16 04:37:08.08	27.06	8.22	-57.0	-71.1	3.8	7.46e-01	0	45	104	0	84	19539
2026-01-16 04:37:09.09	26.97	8.29	-53.1	-64.6	3.8	7.45e-01	0	45	104	0	78	13089
2026-01-16 04:37:10.10	26.87	8.37	-53.0	-64.4	3.8	7.49e-01	0	45	104	0	77	13483
2026-01-16 04:37:11.11	26.77	8.45	-52.8	-64.2	3.8	7.42e-01	0	45	104	0	77	13135
2026-01-16 04:37:12.12	26.68	8.52	-53.1	-64.6	3.8	7.43e-01	0	45	104	0	76	14566
2026-01-16 04:37:13.13	26.58	8.60	-52.9	-64.3	3.8	7.44e-01	0	45	104	0	76	14126
2026-01-16 04:37:14.14	26.48	8.67	-58.4	-75.7	3.8	7.43e-01	0	45	104	0	87	28018
2026-01-16 04:37:15.15	26.38	8.75	-53.5	-65.1	3.8	7.44e-01	0	46	104	0	79	13063
2026-01-16 04:37:16.16	26.29	8.83	-57.0	-70.9	3.8	7.47e-01	0	45	104	0	84	19096
2026-01-16 04:37:17.17	26.19	8.91	-52.9	-64.3	3.8	7.44e-01	0	45	104	0	77	13345
2026-01-16 04:37:18.18	26.09	8.98	-52.1	-63.4	3.8	7.48e-01	0	45	104	0	76	12699
2026-01-16 04:37:19.19	25.99	9.06	-51.4	-62.5	3.8	7.42e-01	0	46	104	0	74	12904
2026-01-16 04:37:20.20	25.88	9.14	-52.0	-63.3	3.8	7.44e-01	0	46	104	0	75	13339
2026-01-16 04:37:21.21	25.78	9.22	-53.7	-65.3	3.8	7.44e-01	0	46	104	0	77	14983
2026-01-16 04:37:22.22	25.68	9.29	-58.1	-74.6	3.9	7.37e-01	0	46	104	0	87	24417
2026-01-16 04:37:23.23	25.58	9.37	-52.9	-64.0	3.8	7.45e-01	0	45	104	0	77	12838
2026-01-16 04:37:24.24	25.47	9.45	-56.5	-69.9	3.8	7.43e-01	0	46	104	0	83	17924
2026-01-16 04:37:25.25	25.37	9.53	-52.7	-64.0	3.8	7.44e-01	0	46	104	0	77	12931
2026-01-16 04:37:26.26	25.26	9.61	-52.1	-63.3	3.8	7.47e-01	0	46	104	0	76	12555
2026-01-16 04:37:27.27	25.16	9.69	-51.3	-62.4	3.8	7.46e-01	0	46	104	0	74	12710
2026-01-16 04:37:28.28	25.05	9.77	-51.8	-63.0	3.8	7.43e-01	0	46	104	0	75	12881
2026-01-16 04:37:29.29	24.94	9.85	-53.5	-65.0	3.8	7.43e-01	0	46	104	0	77	14402
2026-01-16 04:37:30.30	24.84	9.93	-57.6	-72.7	3.9	7.44e-01	0	46	104	0	87	19628
2026-01-16 04:37:31.32	24.73	10.01	-52.3	-63.5	3.9	7.42e-01	0	46	104	0	76	12948
2026-01-16 04:37:32.33	24.62	10.09	-56.0	-68.9	3.9	7.40e-01	0	46	104	0	84	15113
2026-01-16 04:37:33.34	24.51	10.17	-52.4	-63.6	3.8	7.44e-01	0	46	104	0	76	13074
2026-01-16 04:37:34.35	24.40	10.25	-52.1	-63.3	3.8	7.46e-01	0	46	104	0	76	12632
2026-01-16 04:37:35.36	24.29	10.33	-52.6	-63.9	3.8	7.47e-01	0	46	104	0	75	14247
2026-01-16 04:37:36.37	24.18	10.41	-54.7	-66.7	3.8	7.42e-01	0	46	104	0	80	14750
2026-01-16 04:37:37.37	24.07	10.49	-54.8	-66.4	3.8	7.45e-01	0	46	104	0	79	15194
2026-01-16 04:37:38.38	23.95	10.57	-57.5	-72.4	3.9	7.42e-01	0	46	104	0	87	19166
2026-01-16 04:37:39.40	23.84	10.65	-52.4	-63.6	3.9	7.46e-01	0	46	104	0	76	13005
2026-01-16 04:37:40.40	23.72	10.73	-55.0	-67.2	3.9	7.43e-01	0	46	104	0	82	13998
2026-01-16 04:37:41.42	23.61	10.82	-52.5	-63.7	3.8	7.44e-01	0	46	104	0	76	13186
2026-01-16 04:37:42.43	23.49	10.90	-52.3	-63.5	3.8	7.40e-01	0	46	104	0	76	12926
2026-01-16 04:37:43.44	23.38	10.98	-51.3	-62.4	3.9	7.48e-01	0	46	104	0	74	12701
2026-01-16 04:37:44.45	23.26	11.06	-51.5	-62.7	3.8	7.43e-01	0	46	104	0	75	12378
2026-01-16 04:37:45.46	23.14	11.14	-55.3	-67.5	3.8	7.45e-01	0	46	104	0	80	16134
2026-01-16 04:37:46.46	23.02	11.23	-56.5	-69.8	3.9	7.44e-01	0	46	104	0	85	15913
2026-01-16 04:37:47.48	22.90	11.31	-52.0	-63.1	3.8	7.44e-01	0	46	104	0	76	12275
2026-01-16 04:37:48.48	22.78	11.39	-54.7	-66.8	3.8	7.48e-01	0	46	104	0	81	14149
2026-01-16 04:37:49.49	22.66	11.48	-52.0	-63.2	3.8	7.42e-01	0	46	104	0	76	12407
2026-01-16 04:37:50.51	22.54	11.56	-51.7	-62.9	3.9	7.42e-01	0	46	104	0	75	12690
2026-01-16 04:37:51.51	22.42	11.64	-51.8	-62.8	3.8	7.44e-01	0	46	104	0	74	13382
2026-01-16 04:37:52.52	22.29	11.73	-51.3	-62.4	3.9	7.43e-01	0	46	104	0	74	12711
2026-01-16 04:37:53.53	22.17	11.81	-56.0	-68.8	3.8	7.45e-01	0	46	104	0	82	16729
2026-01-16 04:37:54.54	22.05	11.89	-55.2	-67.4	3.9	7.44e-01	0	46	104	0	82	14366
2026-01-16 04:37:55.55	21.92	11.98	-52.3	-63.5	3.9	7.45e-01	0	46	104	0	75	13638
2026-01-16 04:37:56.56	21.79	12.06	-53.4	-65.0	3.8	7.43e-01	0	46	104	0	79	12942
2026-01-16 04:37:57.57	21.67	12.15	-51.9	-63.0	3.8	7.48e-01	0	46	104	0	75	12892
2026-01-16 04:37:58.58	21.54	12.23	-51.4	-62.4	3.8	7.44e-01	0	46	104	0	74	12797
2026-01-16 04:37:59.59	21.41	12.32	-51.8	-62.8	3.9	7.47e-01	0	47	104	0	74	13297
2026-01-16 04:38:00.60	21.28	12.40	-51.5	-62.6	3.8	7.46e-01	0	46	104	0	75	12334
2026-01-16 04:38:01.60	21.15	12.49	-57.1	-70.7	3.8	7.44e-01	0	46	104	0	84	18560
2026-01-16 04:38:02.61	21.02	12.57	-54.2	-66.0	3.9	7.45e-01	0	46	104	0	80	13588
2026-01-16 04:38:03.62	20.89	12.66	-52.9	-64.2	3.8	7.45e-01	0	46	104	0	76	14032
2026-01-16 04:38:04.63	20.75	12.75	-52.5	-63.8	3.9	7.42e-01	0	46	104	0	77	12604
2026-01-16 04:38:05.64	20.62	12.83	-51.4	-62.4	3.8	7.47e-01	0	46	104	0	74	12681
2026-01-16 04:38:06.65	20.48	12.92	-51.0	-62.0	3.8	7.44e-01	0	47	104	0	73	12874
2026-01-16 04:38:07.66	20.35	13.01	-51.1	-62.1	3.8	7.46e-01	0	46	104	0	73	13048
2026-01-16 04:38:08.67	20.21	13.09	-51.0	-62.0	3.8	7.45e-01	0	47	104	0	74	12146
2026-01-16 04:38:09.67	20.08	13.18	-57.0	-70.5	3.8	7.46e-01	0	46	104	0	84	18230
2026-01-16 04:38:10.68	19.94	13.27	-54.1	-65.8	3.8	7.42e-01	0	47	104	0	80	13294
2026-01-16 04:38:11.69	19.80	13.35	-52.7	-63.9	3.8	7.48e-01	0	47	104	0	75	14333
2026-01-16 04:38:12.70	19.66	13.44	-51.8	-63.0	3.9	7.46e-01	0	46	104	0	75	12836
2026-01-16 04:38:13.71	19.52	13.53	-51.7	-62.7	3.8	7.43e-01	0	47	104	0	75	12506
2026-01-16 04:38:14.72	19.38	13.62	-50.8	-61.7	3.8	7.47e-01	0	47	104	0	73	12504
2026-01-16 04:38:15.73	19.23	13.71	-51.7	-62.8	3.9	7.48e-01	0	47	104	0	73	14132
2026-01-16 04:38:16.74	19.09	13.80	-50.9	-61.8	3.8	7.45e-01	0	46	104	0	73	12645
2026-01-16 04:38:17.75	18.94	13.88	-57.8	-72.7	3.8	7.47e-01	0	47	104	0	86	20785
2026-01-16 04:38:18.76	18.80	13.97	-53.8	-65.3	3.8	7.44e-01	0	46	104	0	79	13385
2026-01-16 04:38:19.77	18.65	14.06	-54.3	-65.7	3.8	7.46e-01	0	46	104	0	78	14754
2026-01-16 04:38:20.78	18.50	14.15	-51.8	-62.9	3.9	7.45e-01	0	46	104	0	75	12721
2026-01-16 04:38:21.79	18.36	14.24	-51.3	-62.3	3.8	7.47e-01	0	47	104	0	74	12611
2026-01-16 04:38:22.79	18.21	14.33	-50.9	-61.9	3.8	7.45e-01	0	47	104	0	73	12714
2026-01-16 04:38:23.80	18.06	14.42	-53.7	-65.2	3.9	7.47e-01	0	47	104	0	77	14813
2026-01-16 04:38:24.81	17.90	14.51	-50.9	-61.9	3.8	7.43e-01	0	47	104	0	73	12681
2026-01-16 04:38:25.82	17.75	14.60	-58.4	-74.2	3.7	7.42e-01	0	47	104	0	87	23471
2026-01-16 04:38:26.83	17.60	14.69	-53.6	-65.1	3.9	7.41e-01	0	47	104	0	79	12966
2026-01-16 04:38:27.84	17.44	14.78	-54.6	-66.4	3.8	7.47e-01	0	47	104	0	79	15123
2026-01-16 04:38:28.85	17.29	14.87	-51.4	-62.3	3.9	7.45e-01	0	47	104	0	74	12661
2026-01-16 04:38:29.86	17.13	14.96	-50.9	-61.8	3.8	7.44e-01	0	47	104	0	73	12639
2026-01-16 04:38:30.87	16.97	15.05	-50.4	-61.3	3.8	7.46e-01	0	47	104	0	72	12600
2026-01-16 04:38:31.88	16.81	15.14	-53.2	-64.6	3.9	7.46e-01	0	47	104	0	76	14588
2026-01-16 04:38:32.89	16.65	15.23	-50.8	-61.7	3.8	7.44e-01	0	47	104	0	73	12497
2026-01-16 04:38:33.90	16.49	15.32	-58.5	-74.4	3.7	7.44e-01	0	47	104	0	87	24017
2026-01-16 04:38:34.90	16.33	15.42	-53.4	-64.8	3.8	7.44e-01	0	47	104	0	78	13293
2026-01-16 04:38:35.91	16.17	15.51	-55.4	-67.7	3.9	7.46e-01	0	47	104	0	81	15669
2026-01-16 04:38:36.92	16.01	15.60	-51.2	-62.2	3.8	7.44e-01	0	47	104	0	74	12467
2026-01-16 04:38:37.93	15.84	15.69	-50.8	-61.7	3.8	7.43e-01	0	47	104	0	73	12509
2026-01-16 04:38:38.94	15.67	15.78	-50.7	-61.6	3.8	7.46e-01	0	47	104	0	73	12267
2026-01-16 04:38:39.95	15.51	15.88	-53.1	-64.4	3.8	7.44e-01	0	47	104	0	76	14330
2026-01-16 04:38:40.96	15.34	15.97	-50.8	-61.6	3.8	7.47e-01	0	47	104	0	73	12368
2026-01-16 04:38:41.97	15.17	16.06	-58.7	-75.2	3.7	7.47e-01	0	47	104	0	87	26309
2026-01-16 04:38:42.98	15.00	16.15	-53.5	-65.0	3.8	7.44e-01	0	47	104	0	79	12818
2026-01-16 04:38:43.99	14.83	16.25	-55.2	-67.3	3.8	7.42e-01	0	47	104	0	80	15815
2026-01-16 04:38:45.00	14.65	16.34	-51.3	-62.3	3.8	7.42e-01	0	47	104	0	74	12550
2026-01-16 04:38:46.01	14.48	16.43	-51.2	-62.2	3.8	7.42e-01	0	47	104	0	74	12505
2026-01-16 04:38:47.02	14.30	16.53	-50.8	-61.7	3.8	7.44e-01	0	47	104	0	73	12498
2026-01-16 04:38:48.03	14.13	16.62	-54.4	-66.2	3.8	7.45e-01	0	47	104	0	79	14709
2026-01-16 04:38:49.04	13.95	16.71	-50.9	-61.8	3.8	7.44e-01	0	47	104	0	73	12593
2026-01-16 04:38:50.05	13.77	16.81	-58.8	-75.8	3.8	7.46e-01	0	47	104	0	88	26480
2026-01-16 04:38:51.06	13.59	16.90	-53.7	-65.1	3.8	7.42e-01	0	47	104	0	79	13087
2026-01-16 04:38:52.06	13.41	16.99	-55.6	-68.0	3.8	7.47e-01	0	47	104	0	81	16192
2026-01-16 04:38:53.07	13.23	17.09	-51.2	-62.2	3.8	7.45e-01	0	47	104	0	74	12431
2026-01-16 04:38:54.08	13.04	17.18	-50.8	-61.7	3.8	7.49e-01	0	47	104	0	73	12507
2026-01-16 04:38:55.09	12.86	17.27	-50.2	-61.0	3.8	7.47e-01	0	47	104	0	72	12232
2026-01-16 04:38:56.09	12.67	17.37	-53.2	-64.7	3.8	7.45e-01	0	47	104	0	77	13926
2026-01-16 04:38:57.10	12.48	17.46	-51.3	-62.3	3.8	7.44e-01	0	47	104	0	73	13316
2026-01-16 04:38:58.11	12.29	17.56	-58.5	-74.8	3.8	7.43e-01	0	47	104	0	88	23613
2026-01-16 04:38:59.12	12.10	17.65	-52.9	-64.0	3.8	7.43e-01	0	47	104	0	77	12894
2026-01-16 04:39:00.13	11.91	17.75	-55.2	-67.4	3.8	7.45e-01	0	47	104	0	81	15109
2026-01-16 04:39:01.13	11.72	17.84	-51.1	-62.0	3.8	7.45e-01	0	47	104	0	74	12216
2026-01-16 04:39:02.14	11.53	17.93	-51.1	-62.1	3.8	7.46e-01	0	47	104	0	74	12253
2026-01-16 04:39:03.15	11.33	18.03	-50.5	-61.4	3.8	7.47e-01	0	47	104	0	73	12084
2026-01-16 04:39:04.16	11.14	18.12	-54.1	-65.9	3.9	7.42e-01	0	47	104	0	80	13417
2026-01-16 04:39:05.17	10.94	18.22	-51.3	-62.2	3.8	7.49e-01	0	47	104	0	73	13171
2026-01-16 04:39:06.18	10.74	18.31	-58.5	-74.7	3.9	7.45e-01	0	47	104	0	88	23472
2026-01-16 04:39:07.18	10.54	18.41	-53.1	-64.4	3.8	7.46e-01	0	47	104	0	78	12800
2026-01-16 04:39:08.19	10.34	18.50	-55.3	-67.5	3.8	7.46e-01	0	47	104	0	81	15236
2026-01-16 04:39:09.20	10.13	18.60	-51.2	-62.1	3.8	7.44e-01	0	47	104	0	74	12254
2026-01-16 04:39:10.21	9.93	18.69	-50.5	-61.4	3.8	7.43e-01	0	47	104	0	73	12078
2026-01-16 04:39:11.21	9.72	18.79	-50.0	-60.9	3.8	7.45e-01	0	47	104	0	71	12713
2026-01-16 04:39:12.22	9.52	18.88	-52.6	-63.9	3.8	7.40e-01	0	47	104	0	77	12695
2026-01-16 04:39:13.23	9.31	18.98	-52.0	-63.0	3.8	7.46e-01	0	47	104	0	74	13719
2026-01-16 04:39:14.24	9.10	19.07	-58.0	-73.0	3.9	7.40e-01	0	47	104	0	88	19337
2026-01-16 04:39:15.25	8.88	19.17	-52.2	-63.4	3.8	7.45e-01	0	47	104	0	76	12694
2026-01-16 04:39:16.26	8.67	19.27	-54.8	-66.8	3.8	7.44e-01	0	47	104	0	81	14101
2026-01-16 04:39:17.27	8.46	19.36	-51.1	-62.0	3.8	7.42e-01	0	48	104	0	73	12893
2026-01-16 04:39:18.28	8.24	19.46	-51.0	-62.1	3.8	7.48e-01	0	47	104	0	73	12973
2026-01-16 04:39:19.28	8.02	19.55	-50.6	-61.5	3.8	7.46e-01	0	48	104	0	73	12112
2026-01-16 04:39:20.29	7.81	19.65	-54.0	-65.7	3.8	7.45e-01	0	47	104	0	80	13138
2026-01-16 04:39:21.30	7.59	19.74	-53.4	-64.9	3.8	7.43e-01	0	47	104	0	77	14266
2026-01-16 04:39:22.31	7.36	19.84	-57.1	-70.6	3.9	7.44e-01	0	47	104	0	86	16403
2026-01-16 04:39:23.32	7.14	19.93	-51.6	-62.6	3.9	7.44e-01	0	47	104	0	75	12308
2026-01-16 04:39:24.33	6.91	20.03	-53.9	-65.5	3.9	7.47e-01	0	47	104	0	79	13574
2026-01-16 04:39:25.34	6.69	20.12	-51.0	-62.0	3.9	7.44e-01	0	47	104	0	73	12811
2026-01-16 04:39:26.35	6.46	20.22	-50.3	-61.1	3.8	7.47e-01	0	47	104	0	72	12370
2026-01-16 04:39:27.36	6.23	20.31	-50.1	-60.9	3.9	7.44e-01	0	47	104	0	71	12724
2026-01-16 04:39:28.37	6.00	20.41	-52.0	-63.1	3.8	7.45e-01	0	47	104	0	76	12331
2026-01-16 04:39:29.38	5.77	20.50	-53.1	-64.3	3.8	7.45e-01	0	47	104	0	76	14200
2026-01-16 04:39:30.39	5.53	20.60	-57.0	-70.4	3.8	7.44e-01	0	47	104	0	86	16021
2026-01-16 04:39:31.40	5.30	20.69	-50.9	-61.5	3.8	7.41e-01	0	47	104	0	73	12204
2026-01-16 04:39:32.41	5.06	20.79	-52.8	-64.0	3.8	7.45e-01	0	48	104	0	77	12942
2026-01-16 04:39:33.41	4.82	20.88	-51.0	-61.9	3.8	7.44e-01	0	48	104	0	73	12754
2026-01-16 04:39:34.42	4.58	20.97	-50.8	-61.7	3.8	7.44e-01	0	47	104	0	73	12431
2026-01-16 04:39:35.43	4.34	21.07	-51.3	-62.5	3.8	7.47e-01	0	47	104	0	73	13692
2026-01-16 04:39:36.44	4.10	21.16	-52.1	-63.2	3.8	7.46e-01	0	47	104	0	76	12448
2026-01-16 04:39:37.45	3.85	21.26	-54.5	-66.1	3.8	7.46e-01	0	48	104	0	79	14608
2026-01-16 04:39:38.46	3.61	21.35	-55.9	-68.4	3.9	7.44e-01	0	48	104	0	84	14238
2026-01-16 04:39:39.47	3.36	21.44	-51.2	-62.1	3.9	7.46e-01	0	47	104	0	74	12330
2026-01-16 04:39:40.47	3.11	21.54	-52.9	-64.0	3.8	7.40e-01	0	48	104	0	77	12814
2026-01-16 04:39:41.48	2.86	21.63	-51.2	-62.1	3.8	7.45e-01	0	47	104	0	74	12362
2026-01-16 04:39:42.50	2.60	21.72	-51.1	-62.1	3.8	7.50e-01	0	47	104	0	74	12289
2026-01-16 04:39:43.50	2.35	21.81	-52.0	-63.1	3.8	7.43e-01	0	48	104	0	74	13774
2026-01-16 04:39:44.51	2.10	21.91	-51.6	-62.6	3.8	7.45e-01	0	47	104	0	75	12301
2026-01-16 04:39:45.53	1.84	22.00	-55.7	-67.9	3.8	7.43e-01	0	48	104	0	81	15991
2026-01-16 04:39:46.54	1.58	22.09	-54.9	-66.5	3.9	7.44e-01	0	48	104	0	81	13578
2026-01-16 04:39:47.54	1.32	22.18	-51.0	-61.9	3.8	7.46e-01	0	47	104	0	73	12759
2026-01-16 04:39:48.56	1.05	22.28	-52.5	-63.7	3.8	7.45e-01	0	47	104	0	77	12392
2026-01-16 04:39:49.57	0.79	22.37	-51.4	-62.4	3.8	7.45e-01	0	48	104	0	74	12748
2026-01-16 04:39:50.58	0.52	22.46	-51.4	-62.5	3.8	7.43e-01	0	48	104	0	74	12831
2026-01-16 04:39:51.59	0.25	22.55	-50.7	-61.6	3.8	7.44e-01	0	48	104	0	73	12326
2026-01-16 04:39:52.60	359.98	22.64	-50.6	-61.5	3.8	7.44e-01	0	48	104	0	73	12160
2026-01-16 04:39:53.61	359.71	22.73	-56.7	-69.6	3.8	7.44e-01	0	48	104	0	83	17370
2026-01-16 04:39:54.62	359.44	22.82	-54.4	-66.0	3.9	7.44e-01	0	48	104	0	80	13613
2026-01-16 04:39:55.63	359.17	22.91	-51.5	-62.5	3.8	7.44e-01	0	48	104	0	73	13598
2026-01-16 04:39:56.64	358.89	23.00	-51.1	-62.0	3.8	7.43e-01	0	48	104	0	74	12162
2026-01-16 04:39:57.65	358.61	23.09	-50.9	-61.7	3.8	7.42e-01	0	47	104	0	73	12501
2026-01-16 04:39:58.66	358.33	23.17	-50.5	-61.3	3.8	7.44e-01	0	48	104	0	73	11955
2026-01-16 04:39:59.67	358.05	23.26	-54.5	-66.2	3.8	7.43e-01	0	48	104	0	79	14769
2026-01-16 04:40:00.68	357.77	23.35	-51.2	-62.2	3.9	7.47e-01	0	48	104	0	74	12469
2026-01-16 04:40:01.69	357.48	23.44	-56.7	-69.5	3.8	7.46e-01	0	48	104	0	83	17214
2026-01-16 04:40:02.70	357.20	23.52	-54.3	-65.9	3.8	7.42e-01	0	48	104	0	80	13505
2026-01-16 04:40:03.71	356.91	23.61	-52.5	-63.6	3.8	7.46e-01	0	48	104	0	75	13771
2026-01-16 04:40:04.72	356.62	23.70	-50.8	-61.6	3.8	7.44e-01	0	48	104	0	73	12293
2026-01-16 04:40:05.73	356.33	23.78	-50.7	-61.5	3.8	7.46e-01	0	48	104	0	73	12205
2026-01-16 04:40:06.74	356.04	23.87	-50.6	-61.5	3.8	7.44e-01	0	47	104	0	73	12152
2026-01-16 04:40:07.75	355.74	23.95	-54.6	-66.3	3.8	7.48e-01	0	48	104	0	79	14946
2026-01-16 04:40:08.76	355.45	24.04	-50.7	-61.6	3.8	7.43e-01	0	48	104	0	73	12352
2026-01-16 04:40:09.77	355.15	24.12	-57.6	-71.2	3.8	7.42e-01	0	48	104	0	85	18689
2026-01-16 04:40:10.78	354.85	24.20	-54.4	-66.0	3.8	7.45e-01	0	48	104	0	80	13668
2026-01-16 04:40:11.79	354.55	24.28	-52.4	-63.7	3.8	7.42e-01	0	48	104	0	75	13900
2026-01-16 04:40:12.79	354.25	24.37	-51.3	-62.2	3.8	7.44e-01	0	48	104	0	74	12498
2026-01-16 04:40:13.80	353.94	24.45	-50.9	-61.8	3.8	7.43e-01	0	48	104	0	73	12531
2026-01-16 04:40:14.81	353.64	24.53	-50.5	-61.4	3.8	7.43e-01	0	48	104	0	73	11989
2026-01-16 04:40:15.82	353.33	24.61	-51.4	-62.5	3.9	7.46e-01	0	48	104	0	73	13623
2026-01-16 04:40:16.83	353.02	24.69	-50.4	-61.3	3.8	7.47e-01	0	48	104	0	72	12610
2026-01-16 04:40:17.84	352.71	24.77	-58.2	-72.8	3.8	7.46e-01	0	48	104	0	86	21075
2026-01-16 04:40:18.85	352.40	24.84	-54.7	-66.5	3.8	7.47e-01	0	48	104	0	81	13714
2026-01-16 04:40:19.86	352.08	24.92	-53.8	-65.0	3.8	7.46e-01	0	48	104	0	77	14466
2026-01-16 04:40:20.87	351.77	25.00	-51.0	-61.9	3.8	7.47e-01	0	48	104	0	74	12022
2026-01-16 04:40:21.88	351.45	25.07	-50.7	-61.6	3.8	7.43e-01	0	48	104	0	73	12292
2026-01-16 04:40:22.89	351.13	25.15	-50.7	-61.6	3.8	7.43e-01	0	48	104	0	73	12293
2026-01-16 04:40:23.90	350.81	25.22	-53.4	-64.8	3.8	7.44e-01	0	48	104	0	77	14066
2026-01-16 04:40:24.91	350.49	25.30	-50.3	-61.1	3.8	7.43e-01	0	48	104	0	72	12341
2026-01-16 04:40:25.92	350.16	25.37	-58.6	-73.9	3.8	7.47e-01	0	48	104	0	87	22629
2026-01-16 04:40:26.93	349.84	25.44	-54.5	-66.2	3.8	7.44e-01	0	48	104	0	80	13936
2026-01-16 04:40:27.94	349.51	25.52	-54.0	-65.5	3.8	7.46e-01	0	48	104	0	78	14509
2026-01-16 04:40:28.95	349.18	25.59	-51.0	-61.9	3.8	7.44e-01	0	48	104	0	73	12718
2026-01-16 04:40:29.96	348.85	25.66	-50.9	-61.9	3.8	7.44e-01	0	48	104	0	73	12716
2026-01-16 04:40:30.97	348.52	25.73	-50.5	-61.4	3.8	7.45e-01	0	48	104	0	73	11993
2026-01-16 04:40:31.97	348.19	25.79	-51.3	-62.3	3.8	7.44e-01	0	48	104	0	73	13297
2026-01-16 04:40:32.98	347.85	25.86	-50.2	-61.0	3.8	7.43e-01	0	48	104	0	72	12118
2026-01-16 04:40:33.99	347.52	25.93	-58.5	-73.5	3.9	7.47e-01	0	48	104	0	87	21689
2026-01-16 04:40:35.00	347.18	26.00	-54.1	-65.7	3.9	7.43e-01	0	48	104	0	80	13243
2026-01-16 04:40:36.01	346.84	26.06	-54.3	-66.0	3.8	7.44e-01	0	48	104	0	79	14468
2026-01-16 04:40:37.02	346.50	26.12	-50.4	-61.3	3.8	7.45e-01	0	48	104	0	72	12614
2026-01-16 04:40:38.03	346.16	26.19	-50.2	-61.0	3.8	7.46e-01	0	48	104	0	72	12231
2026-01-16 04:40:39.04	345.82	26.25	-50.0	-60.8	3.8	7.46e-01	0	48	104	0	71	12558
2026-01-16 04:40:40.05	345.47	26.31	-53.9	-65.5	3.8	7.40e-01	0	48	104	0	78	14520
2026-01-16 04:40:41.06	345.12	26.37	-50.1	-60.9	3.8	7.43e-01	0	48	104	0	72	12034
2026-01-16 04:40:42.07	344.78	26.43	-58.5	-73.7	3.8	7.45e-01	0	48	104	0	87	22182
2026-01-16 04:40:43.08	344.43	26.49	-54.2	-65.8	3.8	7.44e-01	0	48	104	0	80	13377
2026-01-16 04:40:44.09	344.08	26.55	-54.3	-66.0	3.8	7.45e-01	0	48	104	0	79	14396
2026-01-16 04:40:45.10	343.73	26.60	-50.4	-61.1	3.8	7.46e-01	0	48	104	0	72	12364
2026-01-16 04:40:46.11	343.37	26.66	-50.2	-61.0	3.8	7.44e-01	0	48	104	0	72	12217
2026-01-16 04:40:47.12	343.02	26.71	-50.1	-60.9	3.8	7.47e-01	0	48	104	0	72	12064
2026-01-16 04:40:48.13	342.66	26.77	-51.2	-62.3	3.8	7.45e-01	0	48	104	0	74	12605
2026-01-16 04:40:49.14	342.31	26.82	-50.3	-61.1	3.8	7.42e-01	0	48	104	0	72	12304
2026-01-16 04:40:50.15	341.95	26.87	-57.8	-71.9	3.9	7.44e-01	0	48	104	0	87	18079
2026-01-16 04:40:51.16	341.59	26.92	-53.0	-64.3	3.9	7.45e-01	0	48	104	0	78	12534
2026-01-16 04:40:52.17	341.23	26.97	-54.2	-65.8	3.8	7.44e-01	0	48	104	0	78	15000
2026-01-16 04:40:53.18	340.87	27.02	-50.5	-61.3	3.8	7.43e-01	0	48	104	0	72	12584
2026-01-16 04:40:54.19	340.50	27.06	-50.2	-61.0	3.8	7.43e-01	0	48	104	0	72	12169
2026-01-16 04:40:55.20	340.14	27.11	-49.8	-60.6	3.8	7.43e-01	0	48	104	0	71	12307
2026-01-16 04:40:56.21	339.78	27.15	-51.3	-62.3	3.9	7.44e-01	0	48	104	0	74	12644
2026-01-16 04:40:57.22	339.41	27.20	-50.8	-61.7	3.8	7.45e-01	0	48	104	0	72	13166
2026-01-16 04:40:58.23	339.04	27.24	-57.2	-70.5	3.9	7.44e-01	0	48	104	0	86	16205
2026-01-16 04:40:59.24	338.68	27.28	-52.2	-63.3	3.8	7.45e-01	0	48	104	0	76	12559
2026-01-16 04:41:00.25	338.31	27.32	-53.9	-65.5	3.8	7.42e-01	0	48	104	0	79	13579
2026-01-16 04:41:01.26	337.94	27.36	-50.5	-61.3	3.8	7.44e-01	0	48	104	0	72	12655
2026-01-16 04:41:02.27	337.57	27.39	-50.0	-60.8	3.8	7.46e-01	0	48	104	0	72	11858
2026-01-16 04:41:03.28	337.19	27.43	-49.8	-60.5	3.8	7.43e-01	0	48	104	0	71	12228
2026-01-16 04:41:04.29	336.82	27.46	-51.9	-62.8	3.8	7.45e-01	0	48	104	0	75	12561
2026-01-16 04:41:05.29	336.45	27.50	-50.8	-61.7	3.8	7.44e-01	0	48	104	0	72	13217
2026-01-16 04:41:06.30	336.08	27.53	-56.0	-68.4	3.8	7.44e-01	0	48	104	0	84	14245
2026-01-16 04:41:07.31	335.70	27.56	-50.8	-61.7	3.8	7.45e-01	0	48	104	0	73	12386
2026-01-16 04:41:08.32	335.33	27.59	-53.0	-64.4	3.9	7.44e-01	0	48	104	0	78	12666
2026-01-16 04:41:09.33	334.95	27.62	-50.1	-60.9	3.8	7.42e-01	0	48	104	0	72	12071
2026-01-16 04:41:10.34	334.57	27.65	-50.0	-60.8	3.8	7.45e-01	0	48	104	0	71	12556
2026-01-16 04:41:11.35	334.20	27.67	-50.2	-61.0	3.8	7.45e-01	0	48	104	0	71	12936
2026-01-16 04:41:12.36	333.82	27.70	-51.5	-62.5	3.8	7.45e-01	0	48	104	0	75	12109
2026-01-16 04:41:13.37	333.44	27.72	-51.8	-63.1	3.8	7.44e-01	0	48	104	0	74	13800
2026-01-16 04:41:14.38	333.06	27.74	-56.0	-68.3	3.8	7.47e-01	0	48	104	0	84	14187
2026-01-16 04:41:15.39	332.68	27.76	-50.7	-61.5	3.8	7.46e-01	0	48	104	0	73	12221
2026-01-16 04:41:16.39	332.30	27.78	-52.9	-64.0	3.8	7.48e-01	0	48	104	0	77	12898
2026-01-16 04:41:17.41	331.92	27.80	-50.4	-61.2	3.8	7.45e-01	0	48	104	0	72	12490
2026-01-16 04:41:18.42	331.54	27.81	-50.2	-61.0	3.8	7.46e-01	0	48	104	0	72	12203
2026-01-16 04:41:19.42	331.16	27.83	-50.2	-61.0	3.8	7.45e-01	0	48	104	0	71	12859
2026-01-16 04:41:20.44	330.77	27.84	-50.7	-61.6	3.8	7.46e-01	0	48	104	0	73	12294
2026-01-16 04:41:21.45	330.39	27.85	-53.2	-64.3	3.8	7.43e-01	0	48	104	0	76	14195
2026-01-16 04:41:22.46	330.01	27.86	-55.1	-66.8	3.8	7.45e-01	0	48	104	0	82	13394
2026-01-16 04:41:23.47	329.63	27.87	-50.2	-61.1	3.9	7.47e-01	0	48	104	0	72	12264
2026-01-16 04:41:24.47	329.25	27.88	-52.1	-63.3	3.8	7.44e-01	0	48	104	0	76	12635
2026-01-16 04:41:25.48	328.86	27.89	-50.2	-61.0	3.8	7.46e-01	0	48	104	0	72	12154
2026-01-16 04:41:26.49	328.48	27.89	-50.3	-61.1	3.8	7.45e-01	0	48	104	0	72	12263
2026-01-16 04:41:27.50	328.10	27.90	-51.0	-61.9	3.8	7.44e-01	0	48	104	0	72	13506
2026-01-16 04:41:28.51	327.71	27.90	-50.8	-61.7	3.9	7.44e-01	0	48	104	0	73	12402
2026-01-16 04:41:29.52	327.33	27.90	-54.8	-66.5	3.8	7.45e-01	0	48	104	0	80	14510
2026-01-16 04:41:30.53	326.94	27.90	-53.9	-65.5	3.8	7.43e-01	0	48	104	0	80	12906
2026-01-16 04:41:31.55	326.56	27.90	-50.2	-61.0	3.8	7.40e-01	0	48	104	0	72	12183
2026-01-16 04:41:32.56	326.17	27.90	-51.2	-62.2	3.8	7.48e-01	0	48	104	0	74	12391
2026-01-16 04:41:33.57	325.79	27.89	-50.2	-61.0	3.8	7.45e-01	0	48	104	0	72	12150
2026-01-16 04:41:34.58	325.41	27.89	-50.0	-60.8	3.8	7.43e-01	0	48	104	0	72	11828
2026-01-16 04:41:35.59	325.02	27.88	-51.2	-62.2	3.8	7.45e-01	0	48	104	0	72	14023
2026-01-16 04:41:36.60	324.64	27.87	-50.3	-61.2	3.8	7.44e-01	0	48	104	0	72	12510
2026-01-16 04:41:37.61	324.26	27.86	-55.9	-68.1	3.8	7.46e-01	0	48	104	0	82	15463
2026-01-16 04:41:38.62	323.87	27.85	-54.2	-65.7	3.8	7.45e-01	0	48	104	0	80	13239
2026-01-16 04:41:39.63	323.49	27.84	-50.8	-61.6	3.8	7.45e-01	0	48	104	0	72	12992
2026-01-16 04:41:40.64	323.11	27.82	-50.8	-61.8	3.9	7.47e-01	0	48	104	0	73	12664
2026-01-16 04:41:41.65	322.73	27.81	-50.4	-61.2	3.8	7.44e-01	0	48	104	0	72	12462
2026-01-16 04:41:42.66	322.35	27.79	-50.4	-61.1	3.8	7.45e-01	0	48	104	0	72	12337
2026-01-16 04:41:43.66	321.97	27.77	-50.5	-61.3	3.8	7.46e-01	0	48	104	0	72	12625
2026-01-16 04:41:44.67	321.59	27.75	-50.3	-61.2	3.8	7.47e-01	0	48	104	0	72	12508
2026-01-16 04:41:45.68	321.21	27.73	-55.7	-58.7	17.9	6.04e-01	0	48	0	0	81	5554
2026-01-16 04:41:46.69	320.83	27.71	-54.7	-57.2	19.1	6.03e-01	0	48	0	2097152	81	4656
2026-01-16 04:41:47.70	320.45	27.69	-52.0	-53.5	23.0	6.02e-01	0	48	0	4194304	74	4593
2026-01-16 04:41:48.71	320.07	27.66	-50.7	-52.0	24.0	6.03e-01	0	48	0	5767168	73	4088
2026-01-16 04:41:49.72	319.69	27.64	-50.8	-52.1	24.0	6.05e-01	0	48	0	7864320	73	4145
2026-01-16 04:41:50.73	319.32	27.61	-50.9	-52.3	23.9	6.04e-01	0	48	0	9437184	73	4239
2026-01-16 04:41:51.74	318.94	27.58	-50.9	-52.3	24.0	6.05e-01	0	48	0	11534336	72	4446
2026-01-16 04:41:52.75	318.57	27.55	-50.5	-51.8	24.3	6.01e-01	0	48	0	13107200	72	4218
2026-01-16 04:41:53.77	318.19	27.52	-50.3	-51.6	24.6	6.04e-01	0	48	0	15204352	72	4119
2026-01-16 04:41:54.77	317.82	27.49	-50.3	-51.6	24.5	6.05e-01	0	48	0	17301504	72	4123
2026-01-16 04:41:55.78	317.44	27.45	-50.5	-51.9	24.1	6.03e-01	0	48	0	18874368	72	4249
2026-01-16 04:41:56.79	317.07	27.42	-50.7	-52.1	24.2	6.01e-01	0	48	0	20971520	71	4629
2026-01-16 04:41:57.80	316.70	27.38	-50.4	-51.8	24.5	6.04e-01	0	48	0	23068672	71	4448
2026-01-16 04:41:58.81	316.33	27.34	-49.6	-50.8	25.5	6.01e-01	0	48	0	24641536	70	4207
2026-01-16 04:41:59.82	315.96	27.31	-49.3	-50.5	25.7	6.04e-01	0	48	0	26738688	70	4071
2026-01-16 04:42:00.83	315.59	27.27	-49.8	-51.0	25.0	6.03e-01	0	48	0	28311552	71	4065
2026-01-16 04:42:01.84	315.22	27.22	-50.5	-51.9	24.1	6.02e-01	0	48	0	30408704	72	4244
2026-01-16 04:42:02.85	314.86	27.18	-50.6	-52.1	24.3	6.05e-01	0	48	0	32505856	71	4608
2026-01-16 04:42:03.86	314.49	27.14	-49.8	-51.1	25.2	6.05e-01	0	48	0	34078720	70	4346
2026-01-16 04:42:04.87	314.13	27.09	-49.4	-50.6	25.6	6.04e-01	0	48	0	36175872	70	4112
2026-01-16 04:42:05.88	313.76	27.05	-49.7	-50.9	25.0	6.04e-01	0	48	0	37748736	71	4032
2026-01-16 04:42:06.88	313.40	27.00	-50.4	-51.7	24.0	6.05e-01	0	48	0	39845888	72	4191
2026-01-16 04:42:07.89	313.04	26.95	-50.7	-52.2	23.9	6.05e-01	0	49	0	41418752	72	4396
2026-01-16 04:42:08.90	312.68	26.90	-50.4	-51.8	24.4	6.04e-01	0	49	0	43515904	71	4443
2026-01-16 04:42:09.91	312.32	26.85	-49.7	-50.9	25.4	6.03e-01	0	48	0	45613056	71	4013
2026-01-16 04:42:10.92	311.96	26.80	-49.7	-50.9	25.2	6.05e-01	0	48	0	47185920	71	4020
2026-01-16 04:42:11.93	311.61	26.75	-50.5	-51.9	24.4	6.01e-01	0	48	0	49283072	71	4521
2026-01-16 04:42:12.94	311.25	26.70	-50.4	-51.7	24.6	6.03e-01	0	49	0	51380224	71	4430
2026-01-16 04:42:13.95	310.90	26.64	-49.6	-50.8	25.5	6.05e-01	0	48	0	52953088	71	3992
2026-01-16 04:42:14.96	310.54	26.59	-49.9	-51.1	25.0	6.03e-01	0	48	0	55050240	71	4129
2026-01-16 04:42:15.97	310.19	26.53	-50.3	-51.7	24.5	6.05e-01	0	48	0	56623104	71	4406
2026-01-16 04:42:16.98	309.84	26.47	-50.4	-51.7	24.6	6.04e-01	0	49	0	58720256	71	4440
2026-01-16 04:42:17.99	309.49	26.41	-50.1	-51.4	24.8	6.03e-01	0	48	0	60817408	71	4268
2026-01-16 04:42:19.00	309.15	26.35	-50.4	-51.7	24.5	6.02e-01	0	48	0	62390272	71	4440
2026-01-16 04:42:20.01	308.80	26.29	-50.7	-52.1	24.1	6.02e-01	0	48	0	64487424	72	4371
2026-01-16 04:42:21.02	308.45	26.23	-50.0	-51.3	25.0	6.04e-01	0	48	0	66584576	71	4198
2026-01-16 04:42:22.02	308.11	26.17	-50.0	-51.2	24.9	6.05e-01	0	49	0	68157440	71	4190
2026-01-16 04:42:23.03	307.77	26.10	-50.3	-51.6	24.6	6.05e-01	0	49	0	70254592	71	4373
2026-01-16 04:42:24.05	307.43	26.04	-50.4	-51.7	24.6	6.05e-01	0	49	0	71827456	71	4411
2026-01-16 04:42:25.06	307.09	25.97	-50.2	-51.5	24.7	6.02e-01	0	48	0	73924608	71	4336
2026-01-16 04:42:26.07	306.75	25.91	-50.1	-51.4	24.9	6.03e-01	0	49	0	75497472	71	4259
2026-01-16 04:42:27.07	306.42	25.84	-50.3	-51.6	24.7	6.04e-01	0	49	0	77594624	71	4368
2026-01-16 04:42:28.08	306.08	25.77	-50.5	-51.9	24.4	6.03e-01	0	48	0	79691776	71	4495
2026-01-16 04:42:29.09	305.75	25.70	-50.4	-51.7	24.4	6.05e-01	0	48	0	81264640	71	4438
2026-01-16 04:42:30.10	305.42	25.63	-50.6	-52.0	24.2	6.06e-01	0	49	0	83361792	71	4593
2026-01-16 04:42:31.11	305.09	25.56	-50.9	-52.3	23.8	6.04e-01	0	48	0	85458944	72	4491
2026-01-16 04:42:32.12	304.76	25.49	-50.1	-51.4	24.8	6.02e-01	0	48	0	87031808	72	4013
2026-01-16 04:42:33.13	304.43	25.42	-50.4	-51.7	24.2	6.04e-01	0	48	0	89128960	72	4160
2026-01-16 04:42:34.14	304.11	25.35	-50.6	-52.0	24.2	6.04e-01	0	48	0	90701824	72	4300
2026-01-16 04:42:35.15	303.78	25.27	-50.4	-51.7	24.5	6.03e-01	0	48	0	92798976	72	4182
2026-01-16 04:42:36.16	303.46	25.20	-50.2	-51.4	24.8	6.03e-01	0	48	0	94896128	72	4051
2026-01-16 04:42:37.17	303.14	25.12	-50.1	-51.4	24.6	6.03e-01	0	48	0	96468992	72	4007
2026-01-16 04:42:38.18	302.82	25.05	-51.0	-52.5	23.7	6.04e-01	0	48	0	98566144	72	4564
2026-01-16 04:42:39.19	302.50	24.97	-50.6	-52.0	24.2	6.07e-01	0	48	0	100139008	72	4316
2026-01-16 04:42:40.20	302.19	24.89	-50.1	-51.3	24.9	6.05e-01	0	48	0	102236160	72	3978
2026-01-16 04:42:41.21	301.87	24.82	-50.5	-51.8	23.9	6.04e-01	0	48	0	104333312	73	3990
2026-01-16 04:42:42.22	301.56	24.74	-51.2	-52.7	23.6	6.03e-01	0	49	0	105906176	72	4663
2026-01-16 04:42:43.23	301.25	24.66	-50.2	-51.5	24.7	6.04e-01	0	48	0	108003328	72	4060
2026-01-16 04:42:44.23	300.94	24.58	-50.4	-51.8	24.1	6.02e-01	0	48	0	110100480	72	4202
2026-01-16 04:42:45.24	300.63	24.50	-51.2	-52.7	23.5	6.04e-01	0	49	0	111673344	72	4682
2026-01-16 04:42:46.25	300.33	24.42	-50.7	-52.0	23.1	6.05e-01	0	48	0	113770496	72	4334
2026-01-16 04:42:47.26	300.02	24.34	-50.4	-51.7	24.3	6.04e-01	0	48	0	115343360	72	4175
2026-01-16 04:42:48.27	299.72	24.25	-50.9	-52.4	23.7	6.05e-01	0	48	0	117440512	72	4502
2026-01-16 04:42:49.28	299.42	24.17	-50.6	-52.0	24.2	6.03e-01	0	49	0	119013376	72	4293
2026-01-16 04:42:50.29	299.12	24.09	-50.3	-51.6	24.5	6.03e-01	0	48	0	121110528	72	4127
2026-01-16 04:42:51.30	298.82	24.00	-51.2	-52.7	23.4	6.02e-01	0	49	0	123207680	73	4411
2026-01-16 04:42:52.31	298.53	23.92	-50.4	-51.7	24.4	6.07e-01	0	49	0	125304832	71	4423
2026-01-16 04:42:53.32	298.23	23.84	-50.1	-51.4	24.4	6.06e-01	0	49	0	126877696	72	4035
2026-01-16 04:42:54.33	297.94	23.75	-50.6	-52.0	24.2	6.03e-01	0	48	0	128974848	71	4587
2026-01-16 04:42:55.34	297.65	23.66	-50.2	-51.5	24.6	6.03e-01	0	49	0	130547712	72	4092
2026-01-16 04:42:56.34	297.36	23.58	-50.7	-52.1	24.2	6.02e-01	0	48	0	132644864	72	4363
2026-01-16 04:42:57.36	297.07	23.49	-50.4	-51.7	24.4	6.03e-01	0	49	0	134217728	72	4189
2026-01-16 04:42:58.36	296.79	23.41	-50.4	-51.7	24.5	6.02e-01	0	49	0	136314880	72	4169
2026-01-16 04:42:59.38	296.50	23.32	-50.5	-51.8	24.4	6.04e-01	0	49	0	138412032	72	4231
2026-01-16 04:43:00.39	296.22	23.23	-50.3	-51.6	24.5	6.03e-01	0	49	0	139984896	72	4138
2026-01-16 04:43:01.40	295.94	23.14	-50.3	-51.6	24.4	6.03e-01	0	48	0	142082048	72	4114
2026-01-16 04:43:02.41	295.66	23.05	-50.4	-51.7	24.5	6.03e-01	0	48	0	144179200	72	4159
2026-01-16 04:43:03.42	295.38	22.96	-50.5	-51.9	24.3	6.02e-01	0	48	0	145752064	72	4244
2026-01-16 04:43:04.43	295.10	22.87	-50.7	-52.1	24.0	6.02e-01	0	49	0	147849216	72	4388
2026-01-16 04:43:05.44	294.83	22.78	-50.4	-51.8	24.4	6.03e-01	0	48	0	149422080	72	4202
2026-01-16 04:43:06.45	294.56	22.69	-50.7	-52.1	24.1	6.03e-01	0	48	0	151519232	72	4353
2026-01-16 04:43:07.45	294.29	22.60	-50.1	-51.4	24.8	6.04e-01	0	49	0	153616384	71	4244
2026-01-16 04:43:08.46	294.02	22.51	-50.8	-52.2	23.9	6.05e-01	0	48	0	155189248	72	4439
2026-01-16 04:43:09.47	293.75	22.42	-50.1	-51.3	24.8	6.02e-01	0	49	0	157286400	72	4002
2026-01-16 04:43:10.48	293.48	22.33	-50.7	-52.1	24.1	6.03e-01	0	49	0	158859264	72	4343
2026-01-16 04:43:11.49	293.22	22.24	-50.4	-51.8	24.4	6.04e-01	0	49	0	160956416	72	4197
2026-01-16 04:43:12.50	292.96	22.15	-51.0	-52.5	23.7	6.05e-01	0	48	0	163053568	72	4552
2026-01-16 04:43:13.51	292.70	22.06	-50.5	-51.9	24.2	6.02e-01	0	49	0	164626432	72	4256
2026-01-16 04:43:14.52	292.44	21.96	-50.4	-51.8	24.3	6.04e-01	0	49	0	166723584	72	4201
2026-01-16 04:43:15.53	292.18	21.87	-50.7	-52.1	24.1	6.05e-01	0	48	0	168820736	72	4357
2026-01-16 04:43:16.54	291.92	21.78	-50.6	-52.0	24.2	6.03e-01	0	49	0	170393600	72	4316
2026-01-16 04:43:17.54	291.67	21.69	-50.8	-52.2	23.8	6.05e-01	0	48	0	172490752	72	4439
2026-01-16 04:43:18.56	291.41	21.59	-50.3	-51.6	24.6	6.04e-01	0	49	0	174063616	72	4116
2026-01-16 04:43:19.57	291.16	21.50	-51.0	-52.4	23.7	6.04e-01	0	48	0	176160768	72	4537
2026-01-16 04:43:20.58	290.91	21.40	-50.2	-51.4	24.6	6.03e-01	0	48	0	177733632	72	4037
2026-01-16 04:43:21.58	290.67	21.31	-50.9	-52.3	23.8	6.03e-01	0	49	0	179830784	72	4465
2026-01-16 04:43:22.59	290.42	21.22	-50.5	-51.9	23.8	6.03e-01	0	49	0	181927936	72	4279
2026-01-16 04:43:23.60	290.18	21.12	-50.2	-51.5	24.6	6.02e-01	0	49	0	183500800	71	4305
2026-01-16 04:43:24.61	289.93	21.03	-50.9	-52.4	23.7	6.04e-01	0	48	0	185597952	72	4494
2026-01-16 04:43:25.62	289.69	20.94	-49.9	-51.2	24.9	6.05e-01	0	48	0	187695104	71	4156
2026-01-16 04:43:26.63	289.45	20.84	-50.9	-52.3	23.8	6.04e-01	0	48	0	189267968	72	4489
2026-01-16 04:43:27.64	289.21	20.75	-50.3	-51.6	24.3	6.05e-01	0	49	0	191365120	72	4140
2026-01-16 04:43:28.65	288.97	20.65	-50.1	-51.4	24.7	6.02e-01	0	48	0	192937984	72	4014
2026-01-16 04:43:29.66	288.74	20.56	-50.6	-52.0	24.2	6.03e-01	0	49	0	195035136	72	4298
2026-01-16 04:43:30.67	288.50	20.46	-50.3	-51.6	24.3	6.01e-01	0	48	0	197132288	72	4131
2026-01-16 04:43:31.68	288.27	20.37	-50.3	-51.6	24.4	6.03e-01	0	49	0	198705152	72	4137
2026-01-16 04:43:32.69	288.04	20.27	-50.9	-52.4	23.7	6.04e-01	0	48	0	200802304	72	4529
2026-01-16 04:43:33.70	287.81	20.18	-49.8	-51.0	25.0	6.05e-01	0	48	0	202899456	71	4098
2026-01-16 04:43:34.71	287.58	20.08	-50.3	-51.7	24.4	6.03e-01	0	48	0	204472320	71	4395
2026-01-16 04:43:35.72	287.36	19.98	-50.7	-52.1	23.9	6.04e-01	0	49	0	206569472	72	4369
2026-01-16 04:43:36.73	287.13	19.89	-50.2	-51.4	24.7	6.04e-01	0	49	0	208142336	72	4043
2026-01-16 04:43:37.74	286.91	19.79	-50.8	-52.2	23.9	6.04e-01	0	49	0	210239488	72	4439
2026-01-16 04:43:38.75	286.68	19.70	-50.7	-52.1	23.8	6.03e-01	0	49	0	211812352	72	4366
2026-01-16 04:43:39.76	286.46	19.60	-50.6	-51.9	24.2	6.03e-01	0	49	0	213909504	72	4276
2026-01-16 04:43:40.76	286.25	19.51	-51.1	-52.5	23.5	6.05e-01	0	49	0	216006656	72	4595
2026-01-16 04:43:41.77	286.03	19.41	-51.0	-52.5	23.4	6.06e-01	0	49	0	217579520	73	4300
2026-01-16 04:43:42.78	285.81	19.32	-49.9	-51.1	24.9	6.02e-01	0	49	0	219676672	71	4138
2026-01-16 04:43:43.79	285.60	19.22	-50.3	-51.6	24.4	6.03e-01	0	49	0	221249536	71	4381
2026-01-16 04:43:44.80	285.38	19.13	-50.7	-52.2	23.9	6.01e-01	0	49	0	223346688	72	4393
2026-01-16 04:43:45.81	285.17	19.03	-50.2	-51.5	24.5	6.03e-01	0	49	0	225443840	72	4079
2026-01-16 04:43:46.82	284.96	18.93	-50.3	-51.6	24.4	6.04e-01	0	48	0	227016704	72	4118
2026-01-16 04:43:47.83	284.75	18.84	-51.1	-52.6	23.5	6.04e-01	0	49	0	229113856	72	4621
2026-01-16 04:43:48.84	284.54	18.74	-50.4	-51.7	23.9	6.03e-01	0	49	0	231211008	72	4192
2026-01-16 04:43:49.85	284.34	18.65	-49.7	-50.9	25.1	6.05e-01	0	49	0	232783872	71	4050
2026-01-16 04:43:50.86	284.13	18.55	-50.2	-51.5	24.4	6.02e-01	0	49	0	234881024	71	4295
2026-01-16 04:43:51.87	283.93	18.46	-50.9	-52.5	23.7	6.03e-01	0	49	0	236453888	72	4553
2026-01-16 04:43:52.88	283.73	18.36	-50.5	-51.9	23.8	6.04e-01	0	48	0	238551040	72	4251
2026-01-16 04:43:53.89	283.53	18.27	-50.2	-51.5	24.5	6.02e-01	0	49	0	240123904	72	4057
2026-01-16 04:43:54.89	283.33	18.17	-50.6	-52.0	24.0	6.06e-01	0	48	0	242221056	72	4321
2026-01-16 04:43:55.90	283.13	18.08	-50.6	-52.0	23.9	6.02e-01	0	48	0	244318208	72	4333
2026-01-16 04:43:56.91	282.93	17.98	-50.4	-51.8	24.2	6.05e-01	0	49	0	246415360	72	4198
2026-01-16 04:43:57.92	282.74	17.89	-50.5	-51.8	24.2	6.03e-01	0	49	0	247988224	72	4231
2026-01-16 04:43:58.93	282.54	17.79	-50.5	-51.9	24.0	6.06e-01	0	49	0	250085376	72	4252
2026-01-16 04:43:59.94	282.35	17.70	-51.0	-52.6	23.5	6.03e-01	0	49	0	251658240	72	4611
2026-01-16 04:44:00.95	282.16	17.60	-50.6	-52.0	23.8	6.03e-01	0	49	0	253755392	72	4300
2026-01-16 04:44:01.96	281.97	17.51	-50.0	-51.3	24.7	6.05e-01	0	49	0	255328256	72	3967
2026-01-16 04:44:02.97	281.78	17.41	-50.2	-51.5	24.5	6.04e-01	0	49	0	257425408	72	4072
2026-01-16 04:44:03.98	281.59	17.32	-50.5	-51.9	24.1	6.06e-01	0	48	0	259522560	72	4270
2026-01-16 04:44:04.99	281.40	17.22	-50.7	-52.2	23.8	6.03e-01	0	49	0	261095424	72	4393
2026-01-16 04:44:06.00	281.22	17.13	-50.4	-51.7	24.2	6.03e-01	0	49	0	263192576	72	4168
2026-01-16 04:44:07.01	281.04	17.04	-50.3	-51.6	24.3	6.05e-01	0	49	0	265289728	72	4140
2026-01-16 04:44:08.02	280.85	16.94	-50.4	-51.7	24.2	6.02e-01	0	49	0	266862592	72	4174
2026-01-16 04:44:09.03	280.67	16.85	-50.5	-52.0	24.1	6.04e-01	0	49	0	268959744	72	4299
2026-01-16 04:44:10.04	280.49	16.75	-50.6	-52.1	23.9	6.05e-01	0	49	0	270532608	72	4354
2026-01-16 04:44:11.04	280.31	16.66	-50.3	-51.6	24.2	6.04e-01	0	49	0	272629760	72	4144
2026-01-16 04:44:12.05	280.13	16.57	-50.2	-51.5	24.4	6.03e-01	0	49	0	274726912	72	4064
2026-01-16 04:44:13.06	279.96	16.47	-50.3	-51.6	24.3	6.02e-01	0	49	0	276299776	72	4134
2026-01-16 04:44:14.07	279.78	16.38	-50.5	-51.9	24.1	6.03e-01	0	49	0	278396928	72	4245
2026-01-16 04:44:15.08	279.61	16.29	-50.7	-52.1	24.0	6.05e-01	0	49	0	279969792	72	4357
2026-01-16 04:44:16.09	279.43	16.19	-50.7	-52.1	23.8	6.05e-01	0	49	0	282066944	72	4390
2026-01-16 04:44:17.10	279.26	16.10	-50.4	-51.8	24.1	6.03e-01	0	49	0	284164096	72	4205
2026-01-16 04:44:18.11	279.09	16.01	-50.3	-51.7	24.2	6.02e-01	0	49	0	285736960	72	4147
2026-01-16 04:44:19.12	278.92	15.91	-50.5	-51.8	24.1	6.05e-01	0	49	0	287834112	72	4227
2026-01-16 04:44:20.13	278.75	15.82	-50.4	-51.8	24.1	6.03e-01	0	49	0	289931264	72	4216
2026-01-16 04:44:21.14	278.58	15.73	-50.4	-51.7	24.2	6.05e-01	0	49	0	291504128	72	4188
2026-01-16 04:44:22.15	278.42	15.64	-50.4	-51.8	24.1	6.05e-01	0	49	0	293601280	72	4232
2026-01-16 04:44:23.16	278.25	15.55	-50.4	-51.8	24.1	6.04e-01	0	49	0	295174144	72	4225
2026-01-16 04:44:24.17	278.09	15.45	-50.5	-51.8	24.1	6.03e-01	0	49	0	297271296	72	4236
2026-01-16 04:44:25.18	277.93	15.36	-50.3	-51.6	24.3	6.04e-01	0	49	0	298844160	72	4142
2026-01-16 04:44:26.19	277.76	15.27	-50.0	-51.4	24.5	6.05e-01	0	49	0	300941312	72	4005
2026-01-16 04:44:27.20	277.60	15.18	-50.4	-51.8	24.1	6.04e-01	0	49	0	303038464	72	4222
2026-01-16 04:44:28.21	277.44	15.09	-50.5	-51.9	24.0	6.04e-01	0	49	0	304611328	72	4263
2026-01-16 04:44:29.22	277.28	15.00	-50.5	-52.0	24.0	6.04e-01	0	49	0	306708480	72	4292
2026-01-16 04:44:30.23	277.13	14.90	-50.7	-52.1	23.8	6.03e-01	0	49	0	308805632	72	4384
2026-01-16 04:44:31.24	276.97	14.81	-50.4	-51.8	24.1	6.03e-01	0	49	0	310378496	72	4201
2026-01-16 04:44:32.25	276.81	14.72	-50.4	-51.8	24.1	6.04e-01	0	49	0	312475648	72	4196
2026-01-16 04:44:33.26	276.66	14.63	-50.2	-51.5	24.3	6.03e-01	0	48	0	314048512	72	4094
2026-01-16 04:44:34.27	276.50	14.54	-50.1	-51.5	24.4	6.04e-01	0	49	0	316145664	72	4058
2026-01-16 04:44:35.28	276.35	14.45	-50.1	-51.4	24.4	6.03e-01	0	48	0	318242816	72	4044
2026-01-16 04:44:36.29	276.20	14.36	-50.1	-51.5	24.4	6.03e-01	0	49	0	319815680	72	4057
2026-01-16 04:44:37.29	276.05	14.27	-50.2	-51.6	24.3	6.05e-01	0	49	0	321912832	72	4130
2026-01-16 04:44:38.30	275.90	14.18	-50.5	-52.0	23.9	6.05e-01	0	49	0	324009984	72	4300
2026-01-16 04:44:39.31	275.75	14.09	-50.5	-51.9	23.9	6.04e-01	0	49	0	325582848	72	4265
2026-01-16 04:44:40.32	275.60	14.00	-50.5	-52.0	23.9	6.03e-01	0	48	0	327680000	72	4294
2026-01-16 04:44:41.33	275.46	13.92	-50.4	-51.8	24.0	6.04e-01	0	48	0	329252864	72	4216
2026-01-16 04:44:42.34	275.31	13.83	-50.4	-51.8	24.0	6.04e-01	0	49	0	331350016	72	4240
2026-01-16 04:44:43.35	275.17	13.74	-50.5	-51.9	24.0	6.04e-01	0	49	0	333447168	72	4246
2026-01-16 04:44:44.36	275.02	13.65	-50.4	-51.7	24.1	6.04e-01	0	48	0	335020032	72	4179
2026-01-16 04:44:45.37	274.88	13.56	-50.3	-51.6	24.2	6.03e-01	0	49	0	337117184	72	4132
2026-01-16 04:44:46.38	274.74	13.47	-50.2	-51.5	24.3	6.02e-01	0	49	0	338690048	72	4074
2026-01-16 04:44:47.39	274.60	13.38	-50.3	-51.6	24.2	6.05e-01	0	49	0	340787200	72	4139
2026-01-16 04:44:48.40	274.46	13.30	-50.4	-51.7	24.1	6.04e-01	0	49	0	342884352	72	4192
2026-01-16 04:44:49.41	274.32	13.21	-50.5	-52.0	23.9	6.03e-01	0	49	0	344457216	72	4294
2026-01-16 04:44:50.41	274.18	13.12	-50.7	-52.2	23.7	6.05e-01	0	49	0	346554368	72	4394
2026-01-16 04:44:51.42	274.04	13.04	-50.6	-52.1	23.7	6.02e-01	0	49	0	348127232	72	4356
2026-01-16 04:44:52.43	273.90	12.95	-50.7	-52.2	23.6	6.06e-01	0	48	0	350224384	72	4397
2026-01-16 04:44:53.44	273.77	12.86	-50.5	-51.9	23.8	6.04e-01	0	49	0	352321536	72	4256
2026-01-16 04:44:54.45	273.63	12.77	-50.5	-51.9	23.8	6.02e-01	0	49	0	353894400	72	4278
2026-01-16 04:44:55.46	273.50	12.69	-50.4	-51.8	24.0	6.03e-01	0	49	0	355991552	72	4205
2026-01-16 04:44:56.47	273.37	12.60	-50.3	-51.7	24.0	6.04e-01	0	49	0	357564416	72	4181
2026-01-16 04:44:57.48	273.23	12.52	-50.3	-51.6	24.1	6.02e-01	0	49	0	359661568	72	4126
2026-01-16 04:44:58.49	273.10	12.43	-50.3	-51.7	24.1	6.02e-01	0	49	0	361758720	72	4162
2026-01-16 04:44:59.50	272.97	12.34	-50.4	-51.8	23.9	6.03e-01	0	49	0	363331584	72	4212
2026-01-16 04:45:00.51	272.84	12.26	-50.3	-51.7	24.1	6.04e-01	0	49	0	365428736	72	4168
2026-01-16 04:45:01.52	272.71	12.17	-50.5	-51.9	23.8	6.04e-01	0	49	0	367525888	72	4262
2026-01-16 04:45:02.53	272.58	12.09	-50.4	-51.9	23.8	6.05e-01	0	49	0	369098752	72	4247
2026-01-16 04:45:03.53	272.46	12.00	-50.7	-52.2	23.5	6.05e-01	0	49	0	371195904	72	4397
2026-01-16 04:45:04.55	272.33	11.92	-50.5	-52.0	23.7	6.03e-01	0	49	0	372768768	72	4304
2026-01-16 04:45:05.55	272.21	11.83	-50.6	-52.1	23.6	6.04e-01	0	49	0	374865920	72	4344
2026-01-16 04:45:06.56	272.08	11.75	-50.6	-52.0	23.7	6.04e-01	0	49	0	376438784	72	4331
2026-01-16 04:45:07.57	271.96	11.67	-50.6	-52.0	23.6	6.05e-01	0	49	0	378535936	72	4326
2026-01-16 04:45:08.58	271.83	11.58	-50.6	-52.0	23.7	6.02e-01	0	49	0	380633088	72	4325
2026-01-16 04:45:09.59	271.71	11.50	-50.5	-51.9	23.7	6.05e-01	0	49	0	382205952	72	4273
2026-01-16 04:45:10.60	271.59	11.41	-50.7	-52.2	23.5	6.00e-01	0	48	0	384303104	72	4398
2026-01-16 04:45:11.61	271.47	11.33	-50.6	-52.0	23.7	6.02e-01	0	49	0	386400256	72	4308
2026-01-16 04:45:12.62	271.35	11.25	-50.8	-52.2	23.4	6.02e-01	0	49	0	387973120	72	4441
2026-01-16 04:45:13.63	271.23	11.17	-50.7	-52.1	23.5	6.02e-01	0	49	0	390070272	72	4378
2026-01-16 04:45:14.64	271.11	11.08	-50.5	-52.0	23.6	6.04e-01	0	49	0	391643136	72	4306
2026-01-16 04:45:15.65	270.99	11.00	-50.7	-52.2	23.4	6.02e-01	0	49	0	393740288	72	4425
2026-01-16 04:45:16.66	270.87	10.92	-50.7	-52.2	23.3	6.02e-01	0	48	0	395837440	72	4434
2026-01-16 04:45:17.67	270.75	10.84	-50.8	-52.3	23.3	6.04e-01	0	49	0	397410304	72	4488
2026-01-16 04:45:18.68	270.64	10.75	-50.8	-52.4	23.2	6.03e-01	0	49	0	399507456	72	4501
2026-01-16 04:45:19.69	270.52	10.67	-51.0	-52.6	23.0	6.01e-01	0	49	0	401080320	72	4626
2026-01-16 04:45:20.70	270.41	10.59	-51.3	-52.9	22.6	6.04e-01	0	49	0	403177472	73	4515
2026-01-16 04:45:21.70	270.30	10.51	-51.5	-53.1	22.3	6.04e-01	0	49	0	405274624	73	4640
2026-01-16 04:45:22.72	270.18	10.43	-51.7	-53.4	22.0	6.02e-01	0	49	0	406847488	73	4814
2026-01-16 04:45:23.72	270.07	10.35	-51.8	-53.5	21.8	6.04e-01	0	49	0	408944640	74	4592
2026-01-16 04:45:24.73	269.96	10.27	-51.9	-53.7	21.6	6.05e-01	0	49	0	411041792	74	4692
2026-01-16 04:45:25.74	269.85	10.19	-51.7	-53.5	21.7	6.04e-01	0	48	0	412614656	74	4593
2026-01-16 04:45:26.75	269.74	10.10	-51.9	-53.8	21.5	6.04e-01	0	49	0	414711808	74	4722
2026-01-16 04:45:27.76	269.63	10.02	-51.9	-53.8	21.4	6.04e-01	0	49	0	416284672	74	4728
2026-01-16 04:45:28.77	269.52	9.94	-52.0	-53.9	21.2	6.05e-01	0	49	0	418381824	74	4779
2026-01-16 04:45:29.78	269.41	9.86	-52.2	-54.2	20.9	6.04e-01	0	49	0	419954688	75	4686
2026-01-16 04:45:30.79	269.30	9.78	-52.8	-55.0	20.0	6.05e-01	0	49	0	422051840	76	4861
2026-01-16 04:45:31.80	269.19	9.71	-53.5	-56.0	19.0	6.04e-01	0	48	0	424148992	77	5112
2026-01-16 04:45:32.82	269.09	9.63	-54.2	-57.1	17.8	6.02e-01	0	49	0	426246144	78	5513
2026-01-16 04:45:33.83	268.98	9.55	-54.7	-58.3	16.4	6.03e-01	0	49	0	427819008	80	5620
2026-01-16 04:45:34.84	268.88	9.47	-55.4	-59.7	15.0	6.03e-01	0	49	0	429916160	81	6207
2026-01-16 04:45:35.85	268.77	9.39	-55.8	-60.9	13.5	6.06e-01	0	49	0	431489024	82	6793
2026-01-16 04:45:36.86	268.67	9.31	-56.0	-61.4	13.0	6.05e-01	0	49	0	433586176	82	7132
2026-01-16 04:45:37.87	268.56	9.23	-55.8	-61.0	13.3	6.06e-01	0	49	0	435159040	82	6874
2026-01-16 04:45:38.88	268.46	9.15	-55.6	-60.4	14.1	6.05e-01	0	49	0	437256192	82	6360
2026-01-16 04:45:39.89	268.36	9.08	-55.2	-59.4	15.0	6.03e-01	0	49	0	439353344	82	5706
2026-01-16 04:45:40.90	268.26	9.00	-54.4	-58.0	16.3	6.05e-01	0	49	0	440926208	80	5433
2026-01-16 04:45:41.91	268.16	8.92	-54.0	-57.1	17.3	6.03e-01	0	49	0	443023360	79	5191
2026-01-16 04:45:42.92	268.06	8.84	-53.7	-56.6	17.9	6.03e-01	0	48	0	445120512	79	4879
2026-01-16 04:45:43.93	267.96	8.77	-53.9	-56.9	17.7	6.04e-01	0	49	0	446693376	79	5066
2026-01-16 04:45:44.94	267.86	8.69	-54.0	-57.1	17.5	6.02e-01	0	49	0	448790528	79	5215
2026-01-16 04:45:45.95	267.76	8.61	-54.1	-57.2	17.5	6.05e-01	0	49	0	450363392	79	5220
2026-01-16 04:45:46.96	267.66	8.53	-53.8	-56.7	18.0	6.05e-01	0	49	0	452460544	79	4947
2026-01-16 04:45:47.97	267.56	8.46	-53.8	-56.6	18.2	6.03e-01	0	49	0	454557696	79	4908
2026-01-16 04:45:48.97	267.47	8.38	-53.6	-56.2	18.5	6.03e-01	0	48	0	456130560	79	4685
2026-01-16 04:45:49.98	267.37	8.31	-53.1	-55.6	19.2	6.03e-01	0	49	0	458227712	78	4622
2026-01-16 04:45:51.00	267.28	8.23	-52.7	-55.0	19.8	6.03e-01	0	49	0	459800576	77	4565
2026-01-16 04:45:52.00	267.18	8.15	-52.2	-54.3	20.5	6.03e-01	0	49	0	461897728	76	4466
2026-01-16 04:45:53.01	267.09	8.08	-51.9	-53.8	20.9	6.03e-01	0	49	0	463994880	75	4483
2026-01-16 04:45:54.02	266.99	8.00	-51.6	-53.5	21.4	6.05e-01	0	49	0	465567744	75	4304
2026-01-16 04:45:55.03	266.90	7.93	-51.7	-53.5	21.4	6.05e-01	0	49	0	467664896	75	4339
2026-01-16 04:45:56.04	266.81	7.85	-51.6	-53.4	21.5	6.03e-01	0	49	0	469237760	75	4272
2026-01-16 04:45:57.05	266.71	7.78	-51.6	-53.5	21.5	6.02e-01	0	49	0	471334912	75	4305
2026-01-16 04:45:58.06	266.62	7.70	-51.4	-53.2	21.3	6.04e-01	0	48	0	473432064	74	4418
2026-01-16 04:45:59.07	266.53	7.63	-51.5	-53.3	21.8	6.06e-01	0	49	0	475004928	74	4452
2026-01-16 04:46:00.09	266.44	7.55	-51.6	-53.4	21.8	6.04e-01	0	49	0	477102080	74	4536
2026-01-16 04:46:01.09	266.35	7.48	-51.2	-52.9	22.4	6.03e-01	0	49	0	478674944	74	4258
2026-01-16 04:46:02.10	266.26	7.41	-51.2	-52.9	22.4	6.05e-01	0	49	0	480772096	74	4244
2026-01-16 04:46:03.11	266.17	7.33	-51.2	-52.9	22.4	6.03e-01	0	49	0	482869248	74	4256
2026-01-16 04:46:04.12	266.08	7.26	-51.1	-52.7	22.6	6.02e-01	0	49	0	484442112	74	4158
2026-01-16 04:46:05.13	265.99	7.19	-51.8	-53.6	21.8	6.05e-01	0	49	0	486539264	74	4622
2026-01-16 04:46:06.15	265.90	7.11	-51.8	-53.6	21.8	6.04e-01	0	49	0	488636416	74	4632
2026-01-16 04:46:07.15	265.82	7.04	-51.6	-53.4	21.9	6.02e-01	0	49	0	490209280	74	4512
2026-01-16 04:46:08.16	265.73	6.97	-51.8	-53.6	21.7	6.06e-01	0	49	0	492306432	74	4638
2026-01-16 04:46:09.17	265.64	6.89	-51.6	-53.4	22.0	6.03e-01	0	49	0	493879296	74	4495
2026-01-16 04:46:10.18	265.56	6.82	-51.5	-53.2	22.1	6.03e-01	0	49	0	495976448	74	4433
2026-01-16 04:46:11.19	265.47	6.75	-51.5	-53.2	22.1	6.05e-01	0	49	0	497549312	74	4431
2026-01-16 04:46:12.20	265.39	6.68	-51.7	-53.5	21.8	6.05e-01	0	49	0	499646464	74	4569
2026-01-16 04:46:13.21	265.30	6.60	-51.2	-52.9	22.5	6.01e-01	0	49	0	501743616	74	4259
2026-01-16 04:46:14.22	265.22	6.53	-51.5	-53.1	22.1	6.02e-01	0	49	0	503840768	74	4382
2026-01-16 04:46:15.23	265.14	6.46	-51.4	-53.1	22.2	6.05e-01	0	49	0	505413632	74	4350
2026-01-16 04:46:16.24	265.05	6.39	-51.6	-53.3	22.0	6.03e-01	0	49	0	507510784	74	4477
2026-01-16 04:46:17.25	264.97	6.32	-51.7	-53.4	21.8	6.03e-01	0	49	0	509083648	74	4530
2026-01-16 04:46:18.26	264.89	6.25	-51.6	-53.3	21.9	6.02e-01	0	48	0	511180800	74	4479
2026-01-16 04:46:19.27	264.81	6.17	-51.7	-53.4	21.9	6.04e-01	0	49	0	512753664	74	4541
2026-01-16 04:46:20.29	264.72	6.10	-52.1	-54.0	21.3	6.05e-01	0	49	0	514850816	74	4854
2026-01-16 04:46:21.29	264.64	6.03	-51.9	-53.7	21.5	6.05e-01	0	49	0	516947968	75	4439
2026-01-16 04:46:22.31	264.56	5.96	-52.0	-53.8	21.4	6.03e-01	0	49	0	519045120	75	4489
2026-01-16 04:46:23.32	264.48	5.89	-52.0	-53.8	21.5	6.05e-01	0	49	0	520617984	75	4471
2026-01-16 04:46:24.33	264.40	5.82	-52.2	-54.1	21.2	6.03e-01	0	49	0	522715136	75	4641
2026-01-16 04:46:25.34	264.33	5.75	-51.9	-53.7	21.6	6.02e-01	0	49	0	524288000	75	4413
2026-01-16 04:46:26.35	264.25	5.68	-52.8	-54.9	20.3	6.04e-01	0	49	0	526385152	76	4776
2026-01-16 04:46:27.36	264.17	5.61	-52.3	-54.2	21.1	6.03e-01	0	49	0	527958016	76	4401
2026-01-16 04:46:28.36	264.09	5.54	-52.4	-54.4	20.8	6.02e-01	0	49	0	530055168	76	4502
2026-01-16 04:46:29.37	264.01	5.47	-52.2	-54.1	21.0	6.06e-01	0	49	0	532152320	76	4372
2026-01-16 04:46:30.38	263.94	5.40	-51.8	-53.6	21.5	6.02e-01	0	49	0	533725184	75	4386
2026-01-16 04:46:31.39	263.86	5.33	-52.3	-54.2	20.9	6.04e-01	0	49	0	535822336	75	4705
2026-01-16 04:46:32.40	263.79	5.26	-52.0	-53.9	21.2	6.03e-01	0	49	0	537919488	75	4535
2026-01-16 04:46:33.41	263.71	5.20	-52.2	-54.1	21.0	6.04e-01	0	49	0	539492352	75	4635
2026-01-16 04:46:34.42	263.63	5.13	-52.3	-54.2	20.8	6.04e-01	0	49	0	541589504	75	4702
2026-01-16 04:46:35.43	263.56	5.06	-52.2	-54.1	20.9	6.05e-01	0	49	0	543162368	75	4651
2026-01-16 04:46:36.44	263.48	4.99	-53.2	-55.6	19.9	6.03e-01	0	49	0	545259520	76	5163
2026-01-16 04:46:37.45	263.41	4.92	-58.7	-76.3	3.8	7.47e-01	0	49	104	545783808	87	29775
2026-01-16 04:46:38.46	263.34	4.85	-58.9	-76.7	3.8	7.45e-01	0	49	104	545783808	88	29367
2026-01-16 04:46:39.47	263.26	4.79	-59.2	-76.9	3.8	7.47e-01	0	49	104	545783808	88	30341
2026-01-16 04:46:40.48	263.19	4.72	-59.3	-77.0	3.8	7.46e-01	0	49	104	545783808	89	28979
2026-01-16 04:46:41.49	263.12	4.65	-59.4	-77.2	3.8	7.44e-01	0	49	104	545783808	89	29371
2026-01-16 04:46:42.50	263.05	4.58	-59.5	-77.3	3.8	7.42e-01	0	49	104	545783808	89	29750
2026-01-16 04:46:43.51	262.97	4.52	-59.6	-77.4	3.8	7.44e-01	0	49	104	545783808	89	30079
2026-01-16 04:46:44.52	262.90	4.45	-59.7	-77.4	3.8	7.43e-01	0	49	104	545783808	89	30333
2026-01-16 04:46:45.53	262.83	4.38	-59.7	-77.5	3.8	7.48e-01	0	49	104	545783808	89	30584
2026-01-16 04:46:46.54	262.76	4.31	-59.8	-77.5	3.8	7.44e-01	0	49	104	545783808	90	28975
2026-01-16 04:46:47.55	262.69	4.25	-59.8	-77.6	3.8	7.45e-01	0	49	104	545783808	90	29196
2026-01-16 04:46:48.56	262.62	4.18	-59.8	-77.6	3.8	7.44e-01	0	49	104	545783808	90	29272
2026-01-16 04:46:49.57	262.55	4.11	-59.9	-77.6	3.8	7.45e-01	0	49	104	545783808	90	29335
2026-01-16 04:46:50.58	262.48	4.05	-59.9	-77.7	3.8	7.47e-01	0	49	104	545783808	90	29374
2026-01-16 04:46:51.59	262.41	3.98	-59.9	-77.7	3.8	7.47e-01	0	49	104	545783808	90	29491
2026-01-16 04:46:52.60	262.35	3.92	-59.9	-77.7	3.8	7.45e-01	0	49	104	545783808	90	29553
2026-01-16 04:46:53.61	262.28	3.85	-60.0	-77.7	3.8	7.45e-01	0	49	104	545783808	90	29639
2026-01-16 04:46:54.62	262.21	3.78	-60.0	-77.8	3.8	7.45e-01	0	49	104	545783808	90	29688
2026-01-16 04:46:55.63	262.14	3.72	-60.0	-77.8	3.8	7.45e-01	0	49	104	545783808	90	29890
2026-01-16 04:46:56.64	262.08	3.65	-60.1	-77.8	3.8	7.43e-01	0	49	104	545783808	90	30030
2026-01-16 04:46:57.65	262.01	3.59	-60.0	-77.8	3.8	7.44e-01	0	49	104	545783808	90	29836
2026-01-16 04:46:58.66	261.94	3.52	-59.9	-77.7	3.8	7.45e-01	0	49	104	545783808	90	29676
2026-01-16 04:46:59.66	261.88	3.46	-59.9	-77.7	3.8	7.46e-01	0	49	104	545783808	90	29510
2026-01-16 04:47:00.67	261.81	3.39	-59.9	-77.7	3.8	7.47e-01	0	49	104	545783808	90	29430
2026-01-16 04:47:01.69	261.75	3.33	-59.9	-77.7	3.8	7.45e-01	0	49	104	545783808	90	29366
2026-01-16 04:47:02.70	261.68	3.26	-59.8	-77.6	3.8	7.46e-01	0	49	104	545783808	90	29286
2026-01-16 04:47:03.71	261.62	3.20	-59.9	-77.7	3.8	7.43e-01	0	49	104	545783808	90	29450
2026-01-16 04:47:04.72	261.55	3.13	-59.8	-77.6	3.8	7.48e-01	0	49	104	545783808	90	29267
2026-01-16 04:47:05.73	261.49	3.07	-59.8	-77.6	3.8	7.44e-01	0	49	104	545783808	90	29215
2026-01-16 04:47:06.74	261.42	3.01	-59.8	-77.6	3.8	7.45e-01	0	49	104	545783808	90	29085
2026-01-16 04:47:07.74	261.36	2.94	-59.8	-77.6	3.8	7.46e-01	0	49	104	545783808	90	29100
2026-01-16 04:47:08.75	261.30	2.88	-59.8	-77.5	3.8	7.45e-01	0	49	104	545783808	90	29008
2026-01-16 04:47:09.76	261.23	2.81	-59.7	-77.5	3.8	7.47e-01	0	49	104	545783808	90	28985
2026-01-16 04:47:10.77	261.17	2.75	-59.8	-77.6	3.8	7.47e-01	0	49	104	545783808	90	29253
2026-01-16 04:47:11.78	261.11	2.69	-59.8	-77.6	3.8	7.44e-01	0	49	104	545783808	90	29242
2026-01-16 04:47:12.79	261.05	2.62	-59.8	-77.6	3.8	7.44e-01	0	49	104	545783808	90	29208
2026-01-16 04:47:13.80	260.99	2.56	-59.8	-77.6	3.8	7.49e-01	0	49	104	545783808	90	29077
2026-01-16 04:47:14.81	260.93	2.50	-59.8	-77.6	3.8	7.47e-01	0	49	104	545783808	90	29044
2026-01-16 04:47:15.82	260.86	2.43	-59.8	-77.6	3.8	7.48e-01	0	49	104	545783808	90	29055
2026-01-16 04:47:16.83	260.80	2.37	-59.8	-77.6	3.8	7.47e-01	0	49	104	545783808	90	29103
2026-01-16 04:47:17.84	260.74	2.31	-59.7	-77.5	3.8	7.46e-01	0	49	104	545783808	90	28999
2026-01-16 04:47:18.85	260.68	2.25	-59.7	-77.5	3.8	7.42e-01	0	49	104	545783808	90	28876
2026-01-16 04:47:19.86	260.62	2.18	-59.7	-77.5	3.8	7.44e-01	0	49	104	545783808	90	28855
2026-01-16 04:47:20.87	260.56	2.12	-59.7	-77.5	3.8	7.45e-01	0	49	104	545783808	90	28800
2026-01-16 04:47:21.88	260.50	2.06	-59.7	-77.5	3.8	7.49e-01	0	49	104	545783808	90	28818
2026-01-16 04:47:22.89	260.45	2.00	-59.7	-77.5	3.8	7.46e-01	0	49	104	545783808	90	28792
2026-01-16 04:47:23.90	260.39	1.93	-59.7	-77.5	3.8	7.44e-01	0	49	104	545783808	90	28691
2026-01-16 04:47:24.91	260.33	1.87	-59.7	-77.5	3.8	7.44e-01	0	49	104	545783808	90	28807

#Closed at: 2026-01-16 04:47:25
#Recorded file [545 MB]: D:/lorett/data/31041_260116_073537.dat