passes_logs/2026/01/16/R3.2S_Murmansk/R3.2S_Murmansk__20260116_231403_NOAA_20_JPSS-1_rec.log

#Pass ID: 20260116_231403_NOAA 20 (JPSS-1)
#Satellite: NOAA 20 (JPSS-1)
#Configuration: NOAA 20
#almurnet v.1.7.20251203
#Start time: 2026-01-16 23:14:05

#Version: 2.2.20231116
#Station: R3.2S_Murmansk
#Location: 33.079688 lon 68.888172 lat
#TLE: 1 43013U 17073A   26015.89389188  .00000026  00000+0  33113-4 0  9999
#TLE: 2 43013  98.7636 316.8238 0001460  37.8997 322.2282 14.19536128422860

#Time	Az	El	Level	Level2	SNR	BER	BlckErr	Temp	State	Recorded	gain1	gain2
2026-01-16 23:14:05.70	20.36	2.13	-51.7	-66.6	3.8	1.49e+00	0	34	0	0	75	19522
2026-01-16 23:14:06.70	20.40	2.19	-51.7	-66.4	3.8	1.49e+00	0	34	104	0	73	21402
2026-01-16 23:14:07.71	20.45	2.25	-51.7	-66.2	3.8	1.49e+00	0	34	104	0	73	20862
2026-01-16 23:14:08.72	20.49	2.32	-51.7	-66.1	3.8	1.49e+00	0	34	104	0	73	20736
2026-01-16 23:14:09.73	20.54	2.38	-51.7	-66.1	3.8	1.49e+00	0	34	104	0	73	20661
2026-01-16 23:14:10.74	20.58	2.44	-51.6	-65.8	3.8	1.49e+00	0	34	104	0	73	19949
2026-01-16 23:14:11.74	20.63	2.50	-51.6	-66.0	3.8	1.49e+00	0	34	104	0	73	20317
2026-01-16 23:14:12.75	20.68	2.56	-51.6	-65.8	3.8	1.49e+00	0	34	104	0	73	20056
2026-01-16 23:14:13.76	20.72	2.62	-51.7	-65.7	3.8	1.49e+00	0	34	104	0	73	19762
2026-01-16 23:14:14.77	20.77	2.69	-51.6	-65.8	3.8	1.49e+00	0	34	104	0	73	19871
2026-01-16 23:14:15.78	20.81	2.75	-51.6	-65.7	3.8	1.49e+00	0	34	104	0	73	19694
2026-01-16 23:14:16.78	20.86	2.81	-51.6	-65.2	3.8	1.49e+00	0	34	104	0	73	18728
2026-01-16 23:14:17.79	20.91	2.87	-51.6	-65.0	3.8	1.49e+00	0	34	104	0	73	18267
2026-01-16 23:14:18.80	20.96	2.94	-51.6	-64.8	3.8	1.49e+00	0	34	104	0	73	17872
2026-01-16 23:14:19.81	21.00	3.00	-51.5	-63.6	4.1	1.49e+00	0	34	104	0	73	15579
2026-01-16 23:14:20.82	21.05	3.06	-51.5	-63.6	4.1	1.48e+00	0	34	104	0	73	15495
2026-01-16 23:14:21.82	21.10	3.12	-51.5	-63.2	4.1	1.42e+00	0	34	0	0	73	14878
2026-01-16 23:14:22.83	21.15	3.19	-51.5	-62.7	4.3	1.41e+00	48	34	0	0	73	13990
2026-01-16 23:14:23.84	21.19	3.25	-51.4	-62.4	4.4	1.33e+00	158	34	0	1048576	73	13562
2026-01-16 23:14:24.85	21.24	3.31	-51.4	-62.4	4.4	1.18e+00	57	34	0	2097152	73	13437
2026-01-16 23:14:25.86	21.29	3.38	-51.4	-62.5	4.4	1.19e+00	131	34	0	4194304	73	13592
2026-01-16 23:14:26.87	21.34	3.44	-51.4	-62.1	4.5	1.09e+00	12	34	0	6291456	73	12994
2026-01-16 23:14:27.88	21.39	3.51	-51.3	-61.6	4.8	1.01e+00	0	34	0	8388608	73	12266
2026-01-16 23:14:28.89	21.44	3.57	-51.4	-61.7	4.7	7.37e-01	0	34	0	9437184	73	12485
2026-01-16 23:14:29.90	21.49	3.63	-51.3	-60.9	5.1	8.76e-01	0	34	0	11534336	73	11367
2026-01-16 23:14:30.90	21.54	3.70	-51.2	-60.0	5.7	4.64e-01	0	34	0	13631488	73	10268
2026-01-16 23:14:31.91	21.59	3.76	-51.1	-59.4	6.1	4.56e-01	0	34	0	15728640	73	9588
2026-01-16 23:14:32.92	21.64	3.83	-50.8	-58.1	7.3	2.15e-01	0	34	0	17825792	73	8226
2026-01-16 23:14:33.93	21.69	3.89	-50.7	-57.5	7.8	1.04e-01	0	34	0	19922944	73	7689
2026-01-16 23:14:34.94	21.74	3.96	-50.5	-56.5	8.8	2.72e-02	0	34	0	20971520	72	7268
2026-01-16 23:14:35.94	21.79	4.02	-50.2	-55.6	9.8	1.99e-02	0	34	0	23068672	72	6535
2026-01-16 23:14:36.95	21.84	4.08	-50.1	-55.1	10.3	4.84e-03	0	34	0	25165824	71	6564
2026-01-16 23:14:37.96	21.89	4.15	-49.8	-54.3	11.3	2.49e-03	0	34	0	27262976	71	5925
2026-01-16 23:14:38.97	21.94	4.22	-49.7	-54.2	11.3	6.55e-04	0	34	0	28311552	71	5911
2026-01-16 23:14:39.98	21.99	4.28	-49.8	-54.3	11.3	1.26e-03	0	34	0	30408704	71	5934
2026-01-16 23:14:40.99	22.04	4.35	-49.8	-54.4	11.1	1.72e-03	0	34	0	32505856	71	6048
2026-01-16 23:14:42.00	22.09	4.41	-49.9	-54.5	11.0	8.86e-04	0	34	0	34603008	71	6128
2026-01-16 23:14:43.01	22.15	4.48	-49.8	-54.5	11.1	1.90e-03	0	34	0	36700160	71	6070
2026-01-16 23:14:44.02	22.20	4.54	-50.1	-55.3	10.2	4.34e-03	0	34	0	38797312	71	6701
2026-01-16 23:14:45.02	22.25	4.61	-50.2	-55.5	10.0	1.16e-02	0	34	0	39845888	71	6873
2026-01-16 23:14:46.03	22.30	4.68	-50.7	-57.2	8.3	1.30e-02	0	34	0	41943040	71	8281
2026-01-16 23:14:47.04	22.36	4.74	-50.6	-57.0	8.4	3.54e-02	0	34	0	44040192	71	8170
2026-01-16 23:14:48.05	22.41	4.81	-50.9	-58.2	7.2	1.11e-01	0	34	0	46137344	72	8835
2026-01-16 23:14:49.06	22.46	4.88	-50.9	-58.2	7.1	1.26e-01	0	34	0	48234496	72	8841
2026-01-16 23:14:50.07	22.52	4.94	-51.1	-59.4	6.1	3.03e-01	0	34	0	49283072	72	10088
2026-01-16 23:14:51.08	22.57	5.01	-51.1	-59.2	6.3	2.97e-01	0	34	0	51380224	72	9927
2026-01-16 23:14:52.09	22.62	5.08	-51.2	-60.3	5.5	3.17e-01	0	34	0	53477376	73	10635
2026-01-16 23:14:53.10	22.68	5.15	-51.4	-63.8	4.0	8.50e-01	0	34	0	54525952	73	15826
2026-01-16 23:14:54.10	22.73	5.21	-50.8	-57.3	8.2	1.42e-01	0	34	0	54525952	73	7494
2026-01-16 23:14:55.11	22.79	5.28	-49.2	-52.7	13.3	2.62e-03	0	34	0	56623104	70	5257
2026-01-16 23:14:56.12	22.84	5.35	-51.4	-61.4	4.9	6.23e-01	0	34	0	58720256	73	12018
2026-01-16 23:14:57.13	22.90	5.42	-49.2	-52.6	13.3	4.89e-03	0	34	0	60817408	70	5207
2026-01-16 23:14:58.14	22.95	5.48	-49.3	-52.9	13.1	1.98e-05	0	34	0	61865984	70	5367
2026-01-16 23:14:59.14	23.01	5.55	-49.1	-52.4	13.5	4.50e-05	0	34	0	63963136	70	5076
2026-01-16 23:15:00.15	23.06	5.62	-49.1	-52.4	13.6	8.30e-06	0	34	0	66060288	70	5046
2026-01-16 23:15:01.16	23.12	5.69	-49.1	-52.5	13.5	2.20e-06	0	34	0	68157440	69	5439
2026-01-16 23:15:02.17	23.17	5.76	-49.3	-52.8	13.2	1.22e-05	0	34	0	70254592	69	5616
2026-01-16 23:15:03.18	23.23	5.83	-49.1	-52.6	13.5	1.98e-05	0	34	0	71303168	69	5468
2026-01-16 23:15:04.18	23.29	5.90	-49.2	-52.6	13.4	9.90e-06	0	34	0	73400320	69	5488
2026-01-16 23:15:05.19	23.34	5.96	-49.2	-52.6	13.4	9.90e-06	0	34	0	75497472	69	5501
2026-01-16 23:15:06.20	23.40	6.03	-49.1	-52.4	13.7	1.06e-05	0	34	0	77594624	69	5373
2026-01-16 23:15:07.21	23.46	6.10	-48.7	-51.6	14.5	1.50e-06	0	34	0	79691776	69	4919
2026-01-16 23:15:08.22	23.52	6.17	-49.0	-52.2	13.9	7.00e-07	0	34	0	81788928	69	5220
2026-01-16 23:15:09.22	23.57	6.24	-49.0	-52.2	13.9	3.00e-06	0	34	0	82837504	69	5220
2026-01-16 23:15:10.23	23.63	6.31	-48.8	-51.8	14.3	7.00e-07	0	34	0	84934656	69	5018
2026-01-16 23:15:11.24	23.69	6.38	-48.8	-51.8	14.4	0.00e+00	0	34	0	87031808	69	4997
2026-01-16 23:15:12.25	23.75	6.45	-48.9	-51.9	14.2	0.00e+00	0	34	0	89128960	69	5075
2026-01-16 23:15:13.25	23.81	6.52	-48.7	-51.6	14.6	7.00e-07	0	34	0	90177536	69	4905
2026-01-16 23:15:14.26	23.87	6.59	-48.8	-51.7	14.5	7.00e-07	0	34	0	92274688	69	4978
2026-01-16 23:15:15.27	23.93	6.67	-48.7	-51.5	14.7	0.00e+00	0	34	0	94371840	69	4865
2026-01-16 23:15:16.28	23.99	6.74	-48.6	-51.4	14.8	0.00e+00	0	34	0	96468992	69	4783
2026-01-16 23:15:17.28	24.05	6.81	-48.2	-50.8	15.5	0.00e+00	0	34	0	98566144	68	4722
2026-01-16 23:15:18.29	24.11	6.88	-48.7	-51.6	14.6	7.00e-07	0	34	0	99614720	68	5170
2026-01-16 23:15:19.30	24.17	6.95	-48.3	-51.0	15.3	0.00e+00	0	34	0	101711872	68	4815
2026-01-16 23:15:20.31	24.23	7.02	-48.1	-50.7	15.5	0.00e+00	0	34	0	103809024	68	4673
2026-01-16 23:15:21.32	24.29	7.09	-48.5	-51.2	15.1	0.00e+00	0	34	0	105906176	68	4947
2026-01-16 23:15:22.32	24.35	7.17	-48.3	-51.0	15.3	0.00e+00	0	34	0	108003328	68	4828
2026-01-16 23:15:23.33	24.41	7.24	-48.4	-51.2	15.1	0.00e+00	0	34	0	110100480	68	4929
2026-01-16 23:15:24.34	24.48	7.31	-48.3	-50.9	15.3	0.00e+00	0	34	0	111149056	68	4813
2026-01-16 23:15:25.35	24.54	7.38	-48.2	-50.8	15.5	0.00e+00	0	34	0	113246208	68	4717
2026-01-16 23:15:26.36	24.60	7.46	-48.3	-50.9	15.4	0.00e+00	0	34	0	115343360	68	4799
2026-01-16 23:15:27.36	24.66	7.53	-48.3	-51.0	15.4	0.00e+00	0	34	0	117440512	68	4828
2026-01-16 23:15:28.37	24.73	7.60	-48.1	-50.6	15.7	0.00e+00	0	34	0	118489088	68	4638
2026-01-16 23:15:29.38	24.79	7.68	-48.2	-50.7	15.7	0.00e+00	0	34	0	120586240	68	4662
2026-01-16 23:15:30.39	24.85	7.75	-48.3	-51.0	15.4	0.00e+00	0	34	0	122683392	68	4819
2026-01-16 23:15:31.40	24.92	7.82	-48.2	-50.8	15.6	0.00e+00	0	34	0	124780544	68	4713
2026-01-16 23:15:32.40	24.98	7.90	-48.1	-50.5	15.8	0.00e+00	0	34	0	126877696	68	4578
2026-01-16 23:15:33.41	25.05	7.97	-48.2	-50.8	15.5	0.00e+00	0	34	0	128974848	68	4715
2026-01-16 23:15:34.42	25.11	8.05	-48.2	-50.7	15.7	0.00e+00	0	34	0	130023424	68	4659
2026-01-16 23:15:35.43	25.18	8.12	-48.1	-50.5	15.8	0.00e+00	0	34	0	132120576	68	4582
2026-01-16 23:15:36.44	25.24	8.20	-48.1	-50.5	15.9	0.00e+00	0	34	0	134217728	68	4575
2026-01-16 23:15:37.44	25.31	8.27	-48.1	-50.6	15.8	0.00e+00	0	34	0	136314880	68	4600
2026-01-16 23:15:38.45	25.37	8.34	-47.8	-50.1	16.1	0.00e+00	0	34	0	138412032	67	4633
2026-01-16 23:15:39.46	25.44	8.42	-47.8	-50.2	16.1	0.00e+00	0	34	0	139460608	67	4664
2026-01-16 23:15:40.47	25.51	8.50	-47.9	-50.2	16.0	0.00e+00	0	34	0	141557760	67	4692
2026-01-16 23:15:41.48	25.57	8.57	-47.8	-50.1	16.1	0.00e+00	0	34	0	143654912	67	4627
2026-01-16 23:15:42.49	25.64	8.65	-47.8	-50.1	16.2	0.00e+00	0	34	0	145752064	67	4648
2026-01-16 23:15:43.49	25.71	8.72	-47.8	-50.2	16.1	0.00e+00	0	34	0	146800640	67	4675
2026-01-16 23:15:44.50	25.78	8.80	-47.7	-49.9	16.4	0.00e+00	0	34	0	148897792	67	4526
2026-01-16 23:15:45.51	25.85	8.88	-47.8	-50.1	16.1	0.00e+00	0	34	0	150994944	67	4650
2026-01-16 23:15:46.52	25.91	8.95	-47.4	-49.5	16.8	0.00e+00	0	34	0	153092096	66	4596
2026-01-16 23:15:47.52	25.98	9.03	-47.7	-50.0	16.3	0.00e+00	0	34	0	155189248	66	4858
2026-01-16 23:15:48.53	26.05	9.11	-47.5	-49.6	16.7	0.00e+00	0	34	0	157286400	66	4649
2026-01-16 23:15:49.54	26.12	9.18	-47.6	-49.8	16.6	0.00e+00	0	34	0	158334976	66	4713
2026-01-16 23:15:50.55	26.19	9.26	-47.5	-49.7	16.7	0.00e+00	0	34	0	160432128	66	4663
2026-01-16 23:15:51.56	26.26	9.34	-47.5	-49.6	16.8	0.00e+00	0	34	0	162529280	66	4633
2026-01-16 23:15:52.56	26.33	9.42	-47.4	-49.6	16.8	0.00e+00	0	34	0	164626432	66	4604
2026-01-16 23:15:53.57	26.40	9.49	-47.4	-49.5	16.8	0.00e+00	0	34	0	166723584	66	4581
2026-01-16 23:15:54.58	26.48	9.57	-47.3	-49.3	17.1	0.00e+00	0	34	0	167772160	66	4473
2026-01-16 23:15:55.59	26.55	9.65	-47.3	-49.3	17.0	0.00e+00	0	34	0	169869312	66	4481
2026-01-16 23:15:56.60	26.62	9.73	-47.3	-49.4	17.0	0.00e+00	0	34	0	171966464	66	4497
2026-01-16 23:15:57.60	26.69	9.81	-47.3	-49.3	17.1	0.00e+00	0	34	0	174063616	66	4464
2026-01-16 23:15:58.61	26.77	9.89	-47.5	-49.6	16.8	0.00e+00	0	34	0	176160768	66	4601
2026-01-16 23:15:59.62	26.84	9.97	-47.1	-49.1	17.3	0.00e+00	0	34	0	177209344	66	4380
2026-01-16 23:16:00.63	26.91	10.05	-47.3	-49.3	17.1	0.00e+00	0	34	0	179306496	66	4462
2026-01-16 23:16:01.64	26.99	10.13	-47.0	-49.0	17.4	0.00e+00	0	34	0	181403648	66	4293
2026-01-16 23:16:02.64	27.06	10.21	-47.1	-49.0	17.4	0.00e+00	0	34	0	183500800	66	4314
2026-01-16 23:16:03.65	27.14	10.29	-46.9	-48.8	17.6	0.00e+00	0	34	0	185597952	65	4480
2026-01-16 23:16:04.66	27.21	10.37	-47.0	-48.9	17.5	0.00e+00	0	34	0	186646528	65	4539
2026-01-16 23:16:05.67	27.29	10.45	-47.0	-49.0	17.5	0.00e+00	0	34	0	188743680	65	4560
2026-01-16 23:16:06.67	27.36	10.53	-47.0	-49.0	17.5	0.00e+00	0	34	0	190840832	65	4547
2026-01-16 23:16:07.68	27.44	10.61	-46.9	-48.7	17.7	0.00e+00	0	34	0	192937984	65	4432
2026-01-16 23:16:08.69	27.52	10.69	-47.2	-49.2	17.3	0.00e+00	0	34	0	195035136	65	4661
2026-01-16 23:16:09.70	27.59	10.77	-46.9	-48.8	17.6	0.00e+00	0	34	0	196083712	65	4468
2026-01-16 23:16:10.71	27.67	10.86	-46.9	-48.8	17.7	0.00e+00	0	34	0	198180864	65	4449
2026-01-16 23:16:11.71	27.75	10.94	-46.9	-48.7	17.7	0.00e+00	0	34	0	200278016	65	4425
2026-01-16 23:16:12.72	27.83	11.02	-46.9	-48.8	17.6	0.00e+00	0	34	0	202375168	65	4466
2026-01-16 23:16:13.73	27.91	11.10	-46.9	-48.7	17.7	0.00e+00	0	34	0	204472320	65	4437
2026-01-16 23:16:14.74	27.99	11.19	-46.8	-48.6	17.9	0.00e+00	0	34	0	205520896	65	4376
2026-01-16 23:16:15.75	28.07	11.27	-46.9	-48.7	17.7	0.00e+00	0	34	0	207618048	65	4431
2026-01-16 23:16:16.76	28.15	11.35	-46.9	-48.7	17.8	0.00e+00	0	34	0	209715200	65	4427
2026-01-16 23:16:17.76	28.23	11.43	-46.8	-48.6	17.8	0.00e+00	0	34	0	211812352	65	4384
2026-01-16 23:16:18.77	28.31	11.52	-46.8	-48.7	17.8	0.00e+00	0	34	0	213909504	65	4399
2026-01-16 23:16:19.78	28.39	11.60	-46.8	-48.6	17.9	0.00e+00	0	34	0	214958080	65	4346
2026-01-16 23:16:20.79	28.47	11.69	-46.8	-48.6	17.9	0.00e+00	0	34	0	217055232	65	4370
2026-01-16 23:16:21.80	28.55	11.77	-46.6	-48.3	18.2	0.00e+00	0	34	0	219152384	65	4223
2026-01-16 23:16:22.80	28.63	11.86	-46.7	-48.4	18.1	0.00e+00	0	34	0	221249536	65	4286
2026-01-16 23:16:23.81	28.72	11.94	-46.6	-48.3	18.2	0.00e+00	0	34	0	223346688	65	4235
2026-01-16 23:16:24.82	28.80	12.03	-46.7	-48.4	18.1	0.00e+00	0	34	0	224395264	65	4280
2026-01-16 23:16:25.83	28.89	12.11	-46.6	-48.3	18.2	0.00e+00	0	34	0	226492416	65	4225
2026-01-16 23:16:26.84	28.97	12.20	-46.6	-48.3	18.3	0.00e+00	0	34	0	228589568	65	4216
2026-01-16 23:16:27.85	29.06	12.28	-46.5	-48.3	18.2	0.00e+00	0	34	0	230686720	65	4206
2026-01-16 23:16:28.86	29.14	12.37	-46.4	-48.1	18.4	0.00e+00	0	34	0	232783872	64	4362
2026-01-16 23:16:29.86	29.23	12.46	-46.5	-48.3	18.2	0.00e+00	0	34	0	233832448	64	4443
2026-01-16 23:16:30.87	29.31	12.54	-46.5	-48.1	18.4	0.00e+00	0	34	0	235929600	64	4391
2026-01-16 23:16:31.88	29.40	12.63	-46.5	-48.2	18.3	0.00e+00	0	34	0	238026752	64	4405
2026-01-16 23:16:32.89	29.49	12.72	-46.5	-48.2	18.3	0.00e+00	0	34	0	240123904	64	4415
2026-01-16 23:16:33.90	29.58	12.80	-46.3	-47.9	18.6	0.00e+00	0	34	0	242221056	64	4271
2026-01-16 23:16:34.91	29.66	12.89	-46.3	-48.0	18.6	0.00e+00	0	34	0	244318208	64	4293
2026-01-16 23:16:35.92	29.75	12.98	-46.4	-48.0	18.5	0.00e+00	0	34	0	245366784	64	4340
2026-01-16 23:16:36.92	29.84	13.07	-46.3	-48.0	18.6	0.00e+00	0	34	0	247463936	64	4319
2026-01-16 23:16:37.93	29.93	13.16	-46.3	-48.0	18.6	0.00e+00	0	34	0	249561088	64	4304
2026-01-16 23:16:38.94	30.02	13.25	-46.2	-47.8	18.8	0.00e+00	0	34	0	251658240	64	4213
2026-01-16 23:16:39.95	30.11	13.33	-46.2	-47.8	18.7	0.00e+00	0	34	0	252706816	64	4235
2026-01-16 23:16:40.96	30.21	13.42	-46.2	-47.7	18.8	0.00e+00	0	34	0	254803968	64	4191
2026-01-16 23:16:41.97	30.30	13.51	-46.1	-47.7	18.8	0.00e+00	0	34	0	256901120	64	4187
2026-01-16 23:16:42.98	30.39	13.60	-46.1	-47.7	18.7	0.00e+00	0	34	0	258998272	64	4176
2026-01-16 23:16:43.98	30.48	13.69	-46.1	-47.7	18.9	0.00e+00	0	34	0	261095424	64	4179
2026-01-16 23:16:44.99	30.58	13.78	-46.1	-47.7	18.9	0.00e+00	0	34	0	262144000	64	4154
2026-01-16 23:16:46.00	30.67	13.87	-46.0	-47.6	18.9	0.00e+00	0	34	0	264241152	64	4124
2026-01-16 23:16:47.01	30.77	13.97	-46.0	-47.6	19.0	0.00e+00	0	34	0	266338304	64	4122
2026-01-16 23:16:48.02	30.86	14.06	-46.1	-47.6	18.9	0.00e+00	0	34	0	268435456	64	4133
2026-01-16 23:16:49.03	30.96	14.15	-46.0	-47.6	19.0	0.00e+00	0	34	0	270532608	64	4127
2026-01-16 23:16:50.04	31.05	14.24	-46.1	-47.7	18.9	0.00e+00	0	34	0	272629760	64	4177
2026-01-16 23:16:51.04	31.15	14.33	-46.1	-47.6	19.1	0.00e+00	0	34	0	273678336	63	4364
2026-01-16 23:16:52.05	31.25	14.42	-46.2	-47.8	18.9	0.00e+00	0	34	0	275775488	63	4449
2026-01-16 23:16:53.06	31.35	14.52	-46.1	-47.6	19.1	0.00e+00	0	34	0	277872640	63	4388
2026-01-16 23:16:54.07	31.44	14.61	-46.2	-47.7	19.0	0.00e+00	0	34	0	279969792	63	4441
2026-01-16 23:16:55.08	31.54	14.70	-46.1	-47.7	19.0	0.00e+00	0	34	0	281018368	63	4392
2026-01-16 23:16:56.08	31.64	14.80	-46.1	-47.6	19.1	0.00e+00	0	34	0	283115520	63	4368
2026-01-16 23:16:57.09	31.74	14.89	-46.2	-47.8	18.9	0.00e+00	0	34	0	285212672	63	4473
2026-01-16 23:16:58.10	31.84	14.98	-46.0	-47.6	19.1	0.00e+00	0	34	0	287309824	63	4352
2026-01-16 23:16:59.11	31.95	15.08	-46.1	-47.7	19.0	0.00e+00	0	34	0	289406976	63	4411
2026-01-16 23:17:00.12	32.05	15.17	-46.1	-47.6	19.1	0.00e+00	0	34	0	291504128	63	4381
2026-01-16 23:17:01.12	32.15	15.27	-45.9	-47.4	19.3	0.00e+00	0	34	0	292552704	63	4274
2026-01-16 23:17:02.13	32.25	15.36	-45.9	-47.5	19.3	0.00e+00	0	34	0	294649856	63	4295
2026-01-16 23:17:03.14	32.36	15.46	-46.0	-47.5	19.2	0.00e+00	0	34	0	296747008	63	4332
2026-01-16 23:17:04.15	32.46	15.55	-45.9	-47.4	19.4	0.00e+00	0	34	0	298844160	63	4249
2026-01-16 23:17:05.16	32.57	15.65	-45.9	-47.4	19.4	0.00e+00	0	34	0	300941312	63	4257
2026-01-16 23:17:06.17	32.68	15.75	-46.0	-47.5	19.2	0.00e+00	0	34	0	301989888	63	4321
2026-01-16 23:17:07.18	32.78	15.84	-46.0	-47.6	19.2	0.00e+00	0	34	0	304087040	63	4348
2026-01-16 23:17:08.19	32.89	15.94	-46.1	-47.7	19.1	0.00e+00	0	34	0	306184192	63	4394
2026-01-16 23:17:09.20	33.00	16.04	-46.3	-47.8	19.0	0.00e+00	0	34	0	308281344	63	4493
2026-01-16 23:17:10.20	33.11	16.13	-46.2	-47.7	19.1	0.00e+00	0	34	0	310378496	63	4424
2026-01-16 23:17:11.21	33.22	16.23	-46.3	-47.8	18.9	0.00e+00	0	34	0	311427072	63	4481
2026-01-16 23:17:12.22	33.33	16.33	-46.3	-47.8	18.9	0.00e+00	0	34	0	313524224	63	4485
2026-01-16 23:17:13.23	33.44	16.43	-46.4	-47.9	18.8	0.00e+00	0	34	0	315621376	63	4544
2026-01-16 23:17:14.24	33.55	16.53	-46.4	-48.0	18.8	0.00e+00	0	34	0	317718528	63	4570
2026-01-16 23:17:15.25	33.66	16.63	-46.4	-48.0	18.8	0.00e+00	0	34	0	319815680	63	4579
2026-01-16 23:17:16.26	33.77	16.73	-46.4	-48.0	18.8	0.00e+00	0	34	0	320864256	63	4553
2026-01-16 23:17:17.27	33.89	16.83	-46.4	-48.0	18.8	0.00e+00	0	34	0	322961408	63	4588
2026-01-16 23:17:18.28	34.00	16.93	-46.5	-48.1	18.7	0.00e+00	0	34	0	325058560	63	4620
2026-01-16 23:17:19.29	34.12	17.03	-46.4	-47.9	18.9	0.00e+00	0	34	0	327155712	63	4540
2026-01-16 23:17:20.29	34.23	17.13	-46.4	-48.0	18.8	0.00e+00	0	34	0	329252864	63	4585
2026-01-16 23:17:21.31	34.35	17.23	-46.4	-48.1	18.7	0.00e+00	0	34	0	331350016	63	4606
2026-01-16 23:17:22.31	34.47	17.33	-46.5	-48.1	18.7	0.00e+00	0	34	0	332398592	63	4621
2026-01-16 23:17:23.32	34.58	17.43	-46.6	-48.2	18.6	0.00e+00	0	34	0	334495744	63	4690
2026-01-16 23:17:24.33	34.70	17.53	-46.5	-48.1	18.7	0.00e+00	0	34	0	336592896	63	4630
2026-01-16 23:17:25.34	34.82	17.63	-46.5	-48.2	18.6	0.00e+00	0	34	0	338690048	63	4660
2026-01-16 23:17:26.35	34.94	17.74	-46.5	-48.1	18.7	0.00e+00	0	34	0	339738624	63	4635
2026-01-16 23:17:27.36	35.07	17.84	-46.5	-48.1	18.7	0.00e+00	0	34	0	341835776	63	4639
2026-01-16 23:17:28.37	35.19	17.94	-46.5	-48.2	18.6	0.00e+00	0	34	0	343932928	63	4664
2026-01-16 23:17:29.38	35.31	18.04	-46.5	-48.2	18.7	0.00e+00	0	34	0	346030080	63	4668
2026-01-16 23:17:30.38	35.43	18.15	-46.5	-48.2	18.7	0.00e+00	0	34	0	348127232	63	4667
2026-01-16 23:17:31.39	35.56	18.25	-46.7	-48.4	18.5	0.00e+00	0	34	0	349175808	63	4767
2026-01-16 23:17:32.40	35.68	18.36	-46.6	-48.3	18.6	0.00e+00	0	34	0	351272960	63	4723
2026-01-16 23:17:33.41	35.81	18.46	-46.6	-48.3	18.6	0.00e+00	0	34	0	353370112	63	4730
2026-01-16 23:17:34.42	35.94	18.57	-46.7	-48.4	18.4	0.00e+00	0	34	0	355467264	64	4528
2026-01-16 23:17:35.42	36.06	18.67	-46.7	-48.4	18.3	0.00e+00	0	34	0	357564416	64	4540
2026-01-16 23:17:36.43	36.19	18.78	-46.8	-48.5	18.3	0.00e+00	0	34	0	359661568	64	4556
2026-01-16 23:17:37.44	36.32	18.88	-46.8	-48.5	18.3	0.00e+00	0	34	0	360710144	64	4579
2026-01-16 23:17:38.45	36.45	18.99	-46.7	-48.5	18.3	0.00e+00	0	34	0	362807296	64	4553
2026-01-16 23:17:39.46	36.58	19.09	-46.9	-48.7	18.2	0.00e+00	0	34	0	364904448	64	4658
2026-01-16 23:17:40.47	36.72	19.20	-46.9	-48.6	18.2	0.00e+00	0	34	0	367001600	64	4647
2026-01-16 23:17:41.48	36.85	19.31	-46.9	-48.7	18.1	0.00e+00	0	34	0	368050176	64	4692
2026-01-16 23:17:42.49	36.98	19.42	-46.9	-48.7	18.1	0.00e+00	0	34	0	370147328	64	4664
2026-01-16 23:17:43.50	37.12	19.52	-47.0	-48.7	18.1	0.00e+00	0	34	0	372244480	64	4693
2026-01-16 23:17:44.51	37.25	19.63	-47.0	-48.8	18.0	0.00e+00	0	34	0	374341632	64	4727
2026-01-16 23:17:45.52	37.39	19.74	-47.1	-48.9	18.0	0.00e+00	0	34	0	376438784	64	4794
2026-01-16 23:17:46.52	37.53	19.85	-47.1	-49.0	17.8	0.00e+00	0	34	0	378535936	64	4837
2026-01-16 23:17:47.53	37.66	19.96	-47.2	-49.0	17.8	0.00e+00	0	34	0	379584512	64	4857
2026-01-16 23:17:48.54	37.80	20.07	-47.2	-49.1	17.8	0.00e+00	0	34	0	381681664	65	4614
2026-01-16 23:17:49.55	37.95	20.18	-47.1	-48.9	17.9	0.00e+00	0	34	0	383778816	65	4535
2026-01-16 23:17:50.56	38.09	20.29	-47.1	-48.9	17.9	0.00e+00	0	34	0	385875968	65	4511
2026-01-16 23:17:51.57	38.23	20.40	-47.1	-48.9	17.9	0.00e+00	0	34	0	387973120	65	4530
2026-01-16 23:17:52.58	38.37	20.51	-47.0	-48.8	18.0	0.00e+00	0	34	0	389021696	65	4485
2026-01-16 23:17:53.59	38.52	20.62	-46.8	-48.6	18.3	0.00e+00	0	34	0	391118848	65	4351
2026-01-16 23:17:54.60	38.66	20.73	-46.9	-48.6	18.2	0.00e+00	0	34	0	393216000	65	4376
2026-01-16 23:17:55.61	38.81	20.84	-46.8	-48.5	18.3	0.00e+00	0	34	0	395313152	65	4323
2026-01-16 23:17:56.62	38.96	20.95	-46.8	-48.5	18.3	0.00e+00	0	34	0	397410304	65	4321
2026-01-16 23:17:57.62	39.10	21.07	-46.8	-48.5	18.3	0.00e+00	0	34	0	398458880	65	4324
2026-01-16 23:17:58.63	39.25	21.18	-46.8	-48.5	18.3	0.00e+00	0	34	0	400556032	65	4336
2026-01-16 23:17:59.64	39.40	21.29	-46.8	-48.5	18.3	0.00e+00	0	34	0	402653184	65	4338
2026-01-16 23:18:00.65	39.56	21.40	-46.9	-48.7	18.2	0.00e+00	0	34	0	404750336	65	4395
2026-01-16 23:18:01.66	39.71	21.52	-46.9	-48.6	18.2	0.00e+00	0	34	0	406847488	65	4379
2026-01-16 23:18:02.67	39.86	21.63	-46.7	-48.4	18.4	0.00e+00	0	34	0	407896064	65	4260
2026-01-16 23:18:03.68	40.02	21.75	-46.7	-48.4	18.4	0.00e+00	0	34	0	409993216	65	4275
2026-01-16 23:18:04.69	40.18	21.86	-46.9	-48.6	18.3	0.00e+00	0	34	0	412090368	65	4375
2026-01-16 23:18:05.70	40.33	21.98	-46.9	-48.6	18.3	0.00e+00	0	34	0	414187520	65	4368
2026-01-16 23:18:06.70	40.49	22.09	-47.0	-48.7	18.1	0.00e+00	0	34	0	416284672	65	4438
2026-01-16 23:18:07.71	40.65	22.20	-47.0	-48.8	18.1	0.00e+00	0	34	0	417333248	65	4445
2026-01-16 23:18:08.72	40.81	22.32	-47.0	-48.8	18.1	0.00e+00	0	34	0	419430400	65	4462
2026-01-16 23:18:09.73	40.97	22.44	-46.9	-48.6	18.3	0.00e+00	0	34	0	421527552	65	4371
2026-01-16 23:18:10.74	41.13	22.55	-46.9	-48.6	18.3	0.00e+00	0	34	0	423624704	65	4351
2026-01-16 23:18:11.75	41.30	22.67	-46.7	-48.4	18.5	0.00e+00	0	34	0	425721856	65	4273
2026-01-16 23:18:12.76	41.46	22.79	-46.8	-48.4	18.5	0.00e+00	0	34	0	426770432	65	4291
2026-01-16 23:18:13.76	41.63	22.90	-46.6	-48.3	18.6	0.00e+00	0	34	0	428867584	65	4194
2026-01-16 23:18:14.77	41.80	23.02	-46.6	-48.3	18.6	0.00e+00	0	34	0	430964736	65	4206
2026-01-16 23:18:15.78	41.97	23.14	-46.6	-48.3	18.6	0.00e+00	0	34	0	433061888	65	4207
2026-01-16 23:18:16.79	42.14	23.26	-46.7	-48.4	18.5	0.00e+00	0	34	0	435159040	65	4249
2026-01-16 23:18:17.80	42.31	23.37	-46.8	-48.6	18.4	0.00e+00	0	34	0	436207616	65	4342
2026-01-16 23:18:18.80	42.48	23.49	-46.8	-48.5	18.4	0.00e+00	0	34	0	438304768	65	4338
2026-01-16 23:18:19.81	42.65	23.61	-46.9	-48.6	18.3	0.00e+00	0	34	0	440401920	65	4371
2026-01-16 23:18:20.82	42.83	23.73	-46.7	-48.4	18.5	0.00e+00	0	34	0	442499072	65	4272
2026-01-16 23:18:21.83	43.01	23.85	-46.6	-48.2	18.7	0.00e+00	0	34	0	444596224	65	4171
2026-01-16 23:18:22.84	43.18	23.97	-46.4	-48.0	18.9	0.00e+00	0	34	0	445644800	64	4307
2026-01-16 23:18:23.85	43.36	24.09	-46.2	-47.7	19.1	0.00e+00	0	34	0	447741952	64	4189
2026-01-16 23:18:24.86	43.54	24.21	-46.1	-47.6	19.3	0.00e+00	0	34	0	449839104	64	4120
2026-01-16 23:18:25.86	43.72	24.33	-46.1	-47.6	19.3	0.00e+00	0	34	0	451936256	64	4125
2026-01-16 23:18:26.87	43.91	24.45	-46.1	-47.5	19.4	0.00e+00	0	34	0	454033408	63	4327
2026-01-16 23:18:27.88	44.09	24.57	-46.2	-47.7	19.3	0.00e+00	0	34	0	455081984	63	4416
2026-01-16 23:18:28.89	44.28	24.69	-46.2	-47.7	19.3	0.00e+00	0	34	0	457179136	63	4406
2026-01-16 23:18:29.90	44.47	24.81	-46.2	-47.7	19.3	0.00e+00	0	34	0	459276288	63	4439
2026-01-16 23:18:30.91	44.66	24.94	-46.3	-47.8	19.2	0.00e+00	0	34	0	461373440	63	4469
2026-01-16 23:18:31.91	44.84	25.06	-46.3	-47.9	19.1	0.00e+00	0	34	0	463470592	63	4507
2026-01-16 23:18:32.92	45.04	25.18	-46.4	-48.0	19.0	0.00e+00	0	34	0	465567744	63	4550
2026-01-16 23:18:33.93	45.23	25.30	-46.1	-47.6	19.4	0.00e+00	0	34	0	466616320	63	4368
2026-01-16 23:18:34.94	45.42	25.42	-46.0	-47.5	19.5	0.00e+00	0	34	0	468713472	63	4303
2026-01-16 23:18:35.94	45.62	25.55	-46.0	-47.5	19.5	0.00e+00	0	34	0	470810624	63	4321
2026-01-16 23:18:36.95	45.82	25.67	-46.0	-47.4	19.5	0.00e+00	0	34	0	472907776	63	4287
2026-01-16 23:18:37.96	46.02	25.79	-46.0	-47.4	19.6	0.00e+00	0	34	0	473956352	63	4271
2026-01-16 23:18:38.97	46.22	25.92	-45.9	-47.3	19.7	0.00e+00	0	34	0	476053504	63	4210
2026-01-16 23:18:39.97	46.42	26.04	-46.0	-47.5	19.5	0.00e+00	0	34	0	478150656	63	4295
2026-01-16 23:18:40.98	46.62	26.16	-46.2	-47.7	19.3	0.00e+00	0	34	0	480247808	63	4410
2026-01-16 23:18:41.99	46.83	26.29	-46.3	-47.8	19.2	0.00e+00	0	34	0	482344960	63	4476
2026-01-16 23:18:43.00	47.03	26.41	-46.4	-48.0	19.0	0.00e+00	0	34	0	483393536	63	4570
2026-01-16 23:18:44.00	47.24	26.54	-46.5	-48.0	19.0	0.00e+00	0	34	0	485490688	63	4597
2026-01-16 23:18:45.01	47.45	26.66	-46.4	-48.0	19.1	0.00e+00	0	34	0	487587840	63	4550
2026-01-16 23:18:46.02	47.66	26.79	-46.3	-47.9	19.2	0.00e+00	0	34	0	489684992	63	4496
2026-01-16 23:18:47.03	47.88	26.91	-46.1	-47.6	19.4	0.00e+00	0	34	0	491782144	63	4373
2026-01-16 23:18:48.04	48.09	27.04	-46.1	-47.5	19.5	0.00e+00	0	34	0	493879296	63	4335
2026-01-16 23:18:49.04	48.31	27.16	-46.2	-47.6	19.4	0.00e+00	0	34	0	494927872	63	4386
2026-01-16 23:18:50.05	48.52	27.29	-46.2	-47.8	19.2	0.00e+00	0	34	0	497025024	63	4446
2026-01-16 23:18:51.06	48.74	27.41	-46.5	-48.1	18.9	0.00e+00	0	34	0	499122176	63	4619
2026-01-16 23:18:52.07	48.97	27.54	-46.7	-48.3	18.8	0.00e+00	0	34	0	501219328	63	4726
2026-01-16 23:18:53.08	49.19	27.67	-46.7	-48.4	18.6	0.00e+00	0	34	0	502267904	64	4501
2026-01-16 23:18:54.08	49.41	27.79	-46.7	-48.3	18.7	0.00e+00	0	34	0	504365056	64	4479
2026-01-16 23:18:55.09	49.64	27.92	-46.6	-48.2	18.8	0.00e+00	0	34	0	506462208	64	4409
2026-01-16 23:18:56.10	49.87	28.04	-46.5	-48.1	18.9	0.00e+00	0	34	0	508559360	64	4343
2026-01-16 23:18:57.11	50.10	28.17	-46.5	-48.0	18.9	0.00e+00	0	34	0	510656512	64	4339
2026-01-16 23:18:58.12	50.33	28.30	-46.5	-48.1	18.9	0.00e+00	0	34	0	512753664	64	4356
2026-01-16 23:18:59.12	50.56	28.42	-46.6	-48.2	18.8	0.00e+00	0	34	0	513802240	64	4435
2026-01-16 23:19:00.13	50.80	28.55	-46.7	-48.4	18.6	0.00e+00	0	34	0	515899392	64	4499
2026-01-16 23:19:01.14	51.04	28.68	-46.9	-48.6	18.4	0.00e+00	0	34	0	517996544	64	4629
2026-01-16 23:19:02.15	51.28	28.80	-47.0	-48.8	18.2	0.00e+00	0	34	0	520093696	64	4716
2026-01-16 23:19:03.16	51.52	28.93	-47.0	-48.7	18.3	0.00e+00	0	34	0	522190848	64	4691
2026-01-16 23:19:04.16	51.76	29.06	-47.0	-48.7	18.3	0.00e+00	0	34	0	523239424	64	4703
2026-01-16 23:19:05.17	52.00	29.18	-46.9	-48.6	18.3	0.00e+00	0	34	0	525336576	64	4640
2026-01-16 23:19:06.18	52.25	29.31	-47.0	-48.7	18.3	0.00e+00	0	34	0	527433728	64	4689
2026-01-16 23:19:07.19	52.50	29.44	-47.0	-48.7	18.3	0.00e+00	0	34	0	529530880	64	4702
2026-01-16 23:19:08.20	52.75	29.56	-47.2	-49.0	18.0	0.00e+00	0	34	0	530579456	64	4838
2026-01-16 23:19:09.21	53.01	29.69	-47.5	-49.4	17.7	0.00e+00	0	34	0	532676608	65	4764
2026-01-16 23:19:10.22	53.26	29.82	-47.7	-49.7	17.4	0.00e+00	0	34	0	534773760	65	4936
2026-01-16 23:19:11.22	53.51	29.94	-47.9	-49.9	17.1	0.00e+00	0	34	0	536870912	66	4804
2026-01-16 23:19:12.23	53.77	30.07	-47.9	-49.9	17.2	0.00e+00	0	34	0	538968064	66	4781
2026-01-16 23:19:13.24	54.03	30.20	-47.8	-49.8	17.2	0.00e+00	0	34	0	541065216	66	4738
2026-01-16 23:19:14.25	54.30	30.33	-47.8	-49.8	17.2	0.00e+00	0	34	0	542113792	66	4731
2026-01-16 23:19:15.26	54.56	30.45	-47.6	-49.5	17.6	0.00e+00	0	34	0	544210944	66	4568
2026-01-16 23:19:16.26	54.83	30.58	-47.7	-49.7	17.4	0.00e+00	0	34	0	546308096	66	4666
2026-01-16 23:19:17.27	55.10	30.70	-47.8	-49.8	17.3	0.00e+00	0	34	0	548405248	66	4730
2026-01-16 23:19:18.28	55.37	30.83	-47.8	-49.8	17.2	0.00e+00	0	34	0	550502400	66	4737
2026-01-16 23:19:19.29	55.64	30.96	-48.0	-50.1	17.0	0.00e+00	0	34	0	551550976	66	4897
2026-01-16 23:19:20.30	55.92	31.08	-48.2	-50.4	16.6	0.00e+00	0	34	0	553648128	67	4800
2026-01-16 23:19:21.31	56.19	31.21	-48.6	-50.9	16.2	0.00e+00	0	34	0	555745280	67	5064
2026-01-16 23:19:22.31	56.47	31.33	-48.9	-51.4	15.8	0.00e+00	0	34	0	557842432	68	5077
2026-01-16 23:19:23.32	56.75	31.46	-49.1	-51.8	15.4	0.00e+00	0	34	0	559939584	68	5282
2026-01-16 23:19:24.33	57.04	31.58	-49.4	-52.1	15.0	0.00e+00	0	34	0	560988160	69	5189
2026-01-16 23:19:25.34	57.32	31.71	-49.5	-52.3	14.9	7.00e-07	0	34	0	563085312	69	5296
2026-01-16 23:19:26.35	57.61	31.83	-49.6	-52.4	14.7	0.00e+00	0	34	0	565182464	69	5379
2026-01-16 23:19:27.36	57.90	31.96	-49.8	-52.8	14.4	0.00e+00	0	34	0	567279616	70	5306
2026-01-16 23:19:28.36	58.19	32.08	-49.9	-53.1	14.2	2.20e-06	0	34	0	569376768	70	5468
2026-01-16 23:19:29.37	58.48	32.21	-50.0	-53.3	13.9	1.50e-06	0	34	0	570425344	70	5598
2026-01-16 23:19:30.38	58.78	32.33	-50.1	-53.4	13.7	3.00e-06	0	34	0	572522496	70	5696
2026-01-16 23:19:31.39	59.08	32.45	-50.0	-53.2	14.0	5.30e-06	0	34	0	574619648	70	5532
2026-01-16 23:19:32.40	59.38	32.58	-49.9	-53.0	14.1	5.30e-06	0	34	0	576716800	70	5452
2026-01-16 23:19:33.41	59.69	32.70	-49.6	-52.5	14.6	0.00e+00	0	34	0	578813952	70	5139
2026-01-16 23:19:34.41	59.99	32.82	-49.6	-52.5	14.6	7.00e-07	0	34	0	580911104	70	5139
2026-01-16 23:19:35.42	60.30	32.94	-49.6	-52.5	14.7	0.00e+00	0	34	0	581959680	70	5154
2026-01-16 23:19:36.43	60.61	33.06	-49.9	-53.0	14.1	7.00e-07	0	34	0	584056832	70	5439
2026-01-16 23:19:37.44	60.92	33.19	-50.2	-53.6	13.6	2.20e-06	0	34	0	586153984	70	5793
2026-01-16 23:19:38.45	61.23	33.31	-50.5	-54.2	12.9	3.66e-05	0	34	0	588251136	71	5869
2026-01-16 23:19:39.46	61.55	33.43	-50.6	-54.4	12.7	7.62e-05	0	34	0	589299712	71	6057
2026-01-16 23:19:40.46	61.87	33.54	-50.5	-54.1	13.1	5.49e-05	0	34	0	591396864	71	5811
2026-01-16 23:19:41.47	62.19	33.66	-50.3	-53.8	13.4	2.21e-05	0	34	0	593494016	71	5612
2026-01-16 23:19:42.48	62.52	33.78	-49.9	-53.1	14.1	6.10e-06	0	34	0	595591168	71	5173
2026-01-16 23:19:43.49	62.84	33.90	-49.5	-52.3	14.9	7.00e-07	0	34	0	597688320	70	4988
2026-01-16 23:19:44.50	63.17	34.02	-49.4	-52.1	15.1	0.00e+00	0	34	0	598736896	70	4889
2026-01-16 23:19:45.50	63.50	34.13	-49.2	-51.8	15.4	0.00e+00	0	34	0	600834048	70	4748
2026-01-16 23:19:46.51	63.83	34.25	-49.1	-51.7	15.5	0.00e+00	0	34	0	602931200	70	4677
2026-01-16 23:19:47.52	64.17	34.37	-49.3	-51.9	15.3	0.00e+00	0	34	0	605028352	70	4791
2026-01-16 23:19:48.53	64.51	34.48	-49.4	-52.1	15.1	0.00e+00	0	34	0	607125504	70	4882
2026-01-16 23:19:49.54	64.85	34.60	-49.4	-52.2	15.1	0.00e+00	0	34	0	609222656	70	4933
2026-01-16 23:19:50.54	65.19	34.71	-49.3	-52.0	15.2	0.00e+00	0	34	0	610271232	70	4852
2026-01-16 23:19:51.55	65.53	34.82	-49.1	-51.7	15.5	0.00e+00	0	34	0	612368384	70	4666
2026-01-16 23:19:52.56	65.88	34.93	-48.9	-51.4	15.9	0.00e+00	0	34	0	614465536	69	4767
2026-01-16 23:19:53.57	66.23	35.05	-48.8	-51.2	16.0	0.00e+00	0	34	0	616562688	69	4675
2026-01-16 23:19:54.58	66.58	35.16	-48.7	-51.1	16.1	0.00e+00	0	34	0	617611264	69	4624
2026-01-16 23:19:55.58	66.93	35.27	-48.7	-51.0	16.2	0.00e+00	0	34	0	619708416	69	4570
2026-01-16 23:19:56.59	67.29	35.37	-48.7	-51.0	16.2	0.00e+00	0	34	0	621805568	69	4577
2026-01-16 23:19:57.60	67.65	35.48	-48.4	-50.6	16.6	0.00e+00	0	34	0	623902720	68	4637
2026-01-16 23:19:58.61	68.01	35.59	-48.1	-50.2	17.0	0.00e+00	0	34	0	625999872	68	4410
2026-01-16 23:19:59.62	68.38	35.70	-47.8	-49.8	17.3	0.00e+00	0	34	0	628097024	67	4448
2026-01-16 23:20:00.62	68.74	35.80	-47.7	-49.6	17.6	0.00e+00	0	34	0	629145600	67	4358
2026-01-16 23:20:01.63	69.11	35.91	-47.7	-49.6	17.6	0.00e+00	0	34	0	631242752	67	4350
2026-01-16 23:20:02.64	69.48	36.01	-47.8	-49.7	17.4	0.00e+00	0	34	0	633339904	67	4435
2026-01-16 23:20:03.65	69.85	36.11	-47.6	-49.6	17.6	0.00e+00	0	34	0	635437056	67	4343
2026-01-16 23:20:04.66	70.23	36.21	-47.6	-49.6	17.6	0.00e+00	0	34	0	637534208	67	4346
2026-01-16 23:20:05.66	70.61	36.31	-47.2	-48.9	18.2	0.00e+00	0	34	0	638582784	66	4279
2026-01-16 23:20:06.67	70.99	36.41	-46.5	-48.1	19.0	0.00e+00	0	34	0	640679936	65	4113
2026-01-16 23:20:07.68	71.37	36.51	-46.1	-47.5	19.5	0.00e+00	0	34	0	642777088	64	4097
2026-01-16 23:20:08.68	71.75	36.61	-46.1	-47.6	19.5	0.00e+00	0	34	0	644874240	64	4114
2026-01-16 23:20:09.69	72.14	36.71	-46.4	-47.9	19.2	0.00e+00	0	34	0	645922816	64	4279
2026-01-16 23:20:10.70	72.53	36.80	-46.7	-48.3	18.8	0.00e+00	0	34	0	648019968	64	4445
2026-01-16 23:20:11.71	72.92	36.89	-46.9	-48.6	18.5	0.00e+00	0	34	0	650117120	64	4625
2026-01-16 23:20:12.72	73.31	36.99	-47.3	-49.2	18.0	0.00e+00	0	34	0	652214272	65	4656
2026-01-16 23:20:13.73	73.71	37.08	-47.3	-49.2	18.0	0.00e+00	0	34	0	654311424	65	4658
2026-01-16 23:20:14.73	74.10	37.17	-47.2	-49.0	18.1	0.00e+00	0	34	0	656408576	65	4560
2026-01-16 23:20:15.74	74.50	37.26	-47.0	-48.7	18.4	0.00e+00	0	34	0	657457152	65	4411
2026-01-16 23:20:16.75	74.91	37.34	-46.8	-48.4	18.7	0.00e+00	0	34	0	659554304	65	4264
2026-01-16 23:20:17.75	75.31	37.43	-46.8	-48.4	18.7	0.00e+00	0	34	0	661651456	65	4276
2026-01-16 23:20:18.76	75.72	37.51	-47.1	-48.8	18.3	0.00e+00	0	34	0	663748608	65	4463
2026-01-16 23:20:19.77	76.12	37.60	-47.4	-49.2	17.9	0.00e+00	0	34	0	665845760	65	4701
2026-01-16 23:20:20.78	76.54	37.68	-48.0	-50.0	17.2	0.00e+00	0	34	0	666894336	66	4847
2026-01-16 23:20:21.79	76.95	37.76	-48.1	-50.3	16.9	0.00e+00	0	34	0	668991488	66	4985
2026-01-16 23:20:22.80	77.36	37.84	-48.1	-50.2	17.0	0.00e+00	0	34	0	671088640	66	4932
2026-01-16 23:20:23.80	77.78	37.92	-47.9	-49.9	17.3	0.00e+00	0	34	0	673185792	66	4773
2026-01-16 23:20:24.81	78.20	37.99	-47.6	-49.5	17.6	0.00e+00	0	34	0	675282944	66	4584
2026-01-16 23:20:25.82	78.62	38.07	-47.5	-49.4	17.8	0.00e+00	0	34	0	676331520	66	4498
2026-01-16 23:20:26.83	79.04	38.14	-47.2	-49.0	18.0	0.00e+00	0	34	0	678428672	66	4306
2026-01-16 23:20:27.84	79.47	38.21	-47.3	-49.1	18.0	0.00e+00	0	34	0	680525824	66	4370
2026-01-16 23:20:28.85	79.89	38.28	-47.5	-49.4	17.8	0.00e+00	0	34	0	682622976	66	4496
2026-01-16 23:20:29.86	80.32	38.35	-47.7	-49.6	17.5	0.00e+00	0	34	0	684720128	66	4646
2026-01-16 23:20:30.86	80.75	38.42	-47.7	-49.7	17.5	0.00e+00	0	34	0	685768704	66	4672
2026-01-16 23:20:31.87	81.18	38.48	-47.9	-49.8	17.3	0.00e+00	0	34	0	687865856	66	4750
2026-01-16 23:20:32.88	81.61	38.55	-48.0	-50.0	17.1	0.00e+00	0	34	0	689963008	66	4847
2026-01-16 23:20:33.89	82.05	38.61	-48.0	-50.1	17.0	0.00e+00	0	34	0	692060160	66	4892
2026-01-16 23:20:34.90	82.49	38.67	-48.1	-50.1	16.9	0.00e+00	0	34	0	694157312	66	4920
2026-01-16 23:20:35.91	82.92	38.73	-47.9	-49.8	17.2	0.00e+00	0	34	0	695205888	66	4757
2026-01-16 23:20:36.92	83.36	38.78	-47.9	-50.0	17.2	0.00e+00	0	34	0	697303040	66	4816
2026-01-16 23:20:37.92	83.80	38.84	-47.6	-49.5	17.6	0.00e+00	0	34	0	699400192	66	4565
2026-01-16 23:20:38.93	84.24	38.89	-47.7	-49.6	17.5	0.00e+00	0	34	0	701497344	66	4637
2026-01-16 23:20:39.94	84.69	38.94	-47.8	-49.8	17.3	0.00e+00	0	34	0	703594496	66	4733
2026-01-16 23:20:40.95	85.13	38.99	-48.0	-50.1	17.0	0.00e+00	0	34	0	704643072	66	4905
2026-01-16 23:20:41.96	85.58	39.04	-48.2	-50.3	16.8	0.00e+00	0	34	0	706740224	66	5013
2026-01-16 23:20:42.96	86.03	39.09	-48.4	-50.6	16.6	0.00e+00	0	34	0	708837376	67	4902
2026-01-16 23:20:43.97	86.48	39.13	-48.2	-50.3	16.8	0.00e+00	0	34	0	710934528	67	4742
2026-01-16 23:20:44.98	86.93	39.17	-48.1	-50.1	17.0	0.00e+00	0	34	0	713031680	67	4648
2026-01-16 23:20:45.99	87.38	39.21	-47.8	-49.8	17.4	0.00e+00	0	34	0	714080256	67	4458
2026-01-16 23:20:47.00	87.83	39.25	-47.8	-49.8	17.4	0.00e+00	0	34	0	716177408	67	4461
2026-01-16 23:20:48.01	88.29	39.29	-48.1	-50.2	16.9	0.00e+00	0	34	0	718274560	67	4690
2026-01-16 23:20:49.02	88.74	39.32	-48.6	-50.8	16.3	0.00e+00	0	34	0	720371712	67	5037
2026-01-16 23:20:50.03	89.20	39.35	-49.1	-51.7	15.6	0.00e+00	0	34	0	722468864	68	5219
2026-01-16 23:20:51.04	89.65	39.38	-49.4	-52.1	15.1	0.00e+00	0	34	0	723517440	69	5207
2026-01-16 23:20:52.04	90.11	39.41	-49.4	-52.1	15.1	0.00e+00	0	34	0	725614592	69	5206
2026-01-16 23:20:53.06	90.57	39.44	-49.2	-51.8	15.4	0.00e+00	0	34	0	727711744	69	5028
2026-01-16 23:20:54.07	91.03	39.46	-49.1	-51.5	15.7	0.00e+00	0	34	0	729808896	69	4868
2026-01-16 23:20:55.08	91.49	39.48	-48.9	-51.4	15.8	0.00e+00	0	34	0	731906048	69	4765
2026-01-16 23:20:56.08	91.94	39.50	-49.0	-51.5	15.7	0.00e+00	0	34	0	732954624	69	4845
2026-01-16 23:20:57.09	92.41	39.52	-49.3	-51.9	15.3	0.00e+00	0	34	0	735051776	69	5059
2026-01-16 23:20:58.10	92.87	39.54	-49.6	-52.5	14.7	0.00e+00	0	34	0	737148928	69	5411
2026-01-16 23:20:59.11	93.33	39.55	-49.8	-53.0	14.3	7.00e-07	0	34	0	739246080	70	5403
2026-01-16 23:21:00.12	93.79	39.57	-49.9	-53.0	14.2	1.50e-06	0	34	0	741343232	70	5418
2026-01-16 23:21:01.13	94.25	39.58	-49.9	-53.0	14.3	1.50e-06	0	34	0	743440384	70	5415
2026-01-16 23:21:02.14	94.72	39.58	-49.7	-52.6	14.6	7.00e-07	0	34	0	744488960	70	5183
2026-01-16 23:21:03.14	95.18	39.59	-49.4	-52.1	15.2	7.00e-07	0	34	0	746586112	70	4884
2026-01-16 23:21:04.15	95.64	39.59	-48.9	-51.3	15.8	0.00e+00	0	34	0	748683264	69	4747
2026-01-16 23:21:05.16	96.10	39.60	-48.4	-50.5	16.7	0.00e+00	0	34	0	750780416	68	4586
2026-01-16 23:21:06.17	96.57	39.60	-48.1	-50.2	17.0	0.00e+00	0	34	0	751828992	68	4404
2026-01-16 23:21:07.18	97.03	39.59	-48.1	-50.1	17.1	0.00e+00	0	34	0	753926144	68	4372
2026-01-16 23:21:08.19	97.49	39.59	-48.2	-50.3	16.9	0.00e+00	0	34	0	756023296	68	4463
2026-01-16 23:21:09.20	97.96	39.58	-48.3	-50.4	16.8	0.00e+00	0	34	0	758120448	68	4531
2026-01-16 23:21:10.21	98.42	39.58	-48.2	-50.3	17.0	0.00e+00	0	34	0	760217600	68	4460
2026-01-16 23:21:11.22	98.88	39.56	-48.0	-50.1	17.2	0.00e+00	0	34	0	762314752	68	4345
2026-01-16 23:21:12.22	99.34	39.55	-47.7	-49.7	17.4	0.00e+00	0	34	0	763363328	67	4405
2026-01-16 23:21:13.23	99.80	39.54	-47.8	-49.7	17.4	0.00e+00	0	34	0	765460480	67	4420
2026-01-16 23:21:14.24	100.26	39.52	-48.0	-50.1	17.1	0.00e+00	0	34	0	767557632	67	4611
2026-01-16 23:21:15.25	100.72	39.50	-48.4	-50.7	16.4	0.00e+00	0	34	0	769654784	67	4947
2026-01-16 23:21:16.26	101.18	39.48	-48.6	-50.9	16.2	0.00e+00	0	34	0	771751936	67	5055
2026-01-16 23:21:17.27	101.64	39.46	-48.5	-50.7	16.4	0.00e+00	0	34	0	772800512	67	4945
2026-01-16 23:21:18.28	102.10	39.44	-48.0	-50.1	17.0	0.00e+00	0	34	0	774897664	67	4602
2026-01-16 23:21:19.28	102.56	39.41	-48.2	-50.3	16.8	0.00e+00	0	34	0	776994816	67	4726
2026-01-16 23:21:20.29	103.02	39.38	-48.7	-51.1	16.0	0.00e+00	0	34	0	779091968	67	5162
2026-01-16 23:21:21.30	103.47	39.35	-49.3	-52.0	15.2	0.00e+00	0	34	0	781189120	69	5121
2026-01-16 23:21:22.31	103.93	39.32	-49.4	-52.1	15.1	0.00e+00	0	34	0	782237696	69	5217
2026-01-16 23:21:23.32	104.39	39.28	-49.4	-52.1	15.2	0.00e+00	0	34	0	784334848	69	5186
2026-01-16 23:21:24.32	104.83	39.25	-49.5	-52.3	14.8	0.00e+00	0	34	0	786432000	69	5330
2026-01-16 23:21:25.33	105.29	39.21	-49.4	-52.2	15.0	0.00e+00	0	34	0	788529152	69	5243
2026-01-16 23:21:26.34	105.74	39.17	-49.5	-52.3	14.9	0.00e+00	0	34	0	790626304	69	5300
2026-01-16 23:21:27.35	106.19	39.13	-49.4	-52.2	15.1	0.00e+00	0	34	0	791674880	69	5231
2026-01-16 23:21:28.35	106.64	39.08	-49.5	-52.3	14.8	0.00e+00	0	34	0	793772032	69	5310
2026-01-16 23:21:29.36	107.09	39.04	-48.8	-51.2	16.1	0.00e+00	0	34	0	795869184	69	4654
2026-01-16 23:21:30.37	107.53	38.99	-48.2	-50.3	16.9	0.00e+00	0	34	0	797966336	68	4459
2026-01-16 23:21:31.38	107.98	38.94	-48.5	-50.7	16.5	0.00e+00	0	34	0	800063488	68	4652
2026-01-16 23:21:32.39	108.42	38.89	-49.0	-51.5	15.7	0.00e+00	0	34	0	801112064	68	5110
2026-01-16 23:21:33.40	108.87	38.83	-48.9	-51.3	15.9	0.00e+00	0	34	0	803209216	68	5031
2026-01-16 23:21:34.41	109.31	38.78	-48.5	-50.7	16.5	0.00e+00	0	34	0	805306368	68	4657
2026-01-16 23:21:35.42	109.75	38.72	-48.1	-50.2	17.0	0.00e+00	0	34	0	807403520	68	4402
2026-01-16 23:21:36.42	110.18	38.66	-47.8	-49.8	17.3	0.00e+00	0	34	0	809500672	67	4474
2026-01-16 23:21:37.43	110.62	38.60	-48.4	-50.7	16.4	0.00e+00	0	34	0	810549248	67	4960
2026-01-16 23:21:38.44	111.06	38.54	-48.7	-51.1	16.1	0.00e+00	0	34	0	812646400	68	4906
2026-01-16 23:21:39.45	111.49	38.48	-48.0	-50.1	17.1	0.00e+00	0	34	0	814743552	68	4345
2026-01-16 23:21:40.46	111.92	38.41	-47.2	-49.0	18.1	0.00e+00	0	34	0	816840704	66	4296
2026-01-16 23:21:41.47	112.36	38.34	-46.8	-48.5	18.5	0.00e+00	0	34	0	818937856	65	4317
2026-01-16 23:21:42.48	112.78	38.28	-46.9	-48.6	18.5	0.00e+00	0	34	0	819986432	65	4341
2026-01-16 23:21:43.49	113.21	38.21	-47.1	-48.9	18.1	0.00e+00	0	34	0	822083584	65	4522
2026-01-16 23:21:44.49	113.63	38.13	-47.4	-49.2	17.9	0.00e+00	0	34	0	824180736	65	4686
2026-01-16 23:21:45.50	114.06	38.06	-47.2	-48.9	18.1	0.00e+00	0	34	0	826277888	65	4532
2026-01-16 23:21:46.51	114.48	37.99	-46.6	-48.2	18.8	0.00e+00	0	34	0	828375040	65	4172
2026-01-16 23:21:47.52	114.90	37.91	-46.4	-47.9	19.1	0.00e+00	0	34	0	830472192	64	4257
2026-01-16 23:21:48.52	115.31	37.83	-46.4	-47.9	19.1	0.00e+00	0	34	0	831520768	64	4264
2026-01-16 23:21:49.53	115.73	37.75	-46.8	-48.5	18.6	0.00e+00	0	34	0	833617920	64	4560
2026-01-16 23:21:50.54	116.14	37.67	-46.6	-48.2	18.9	0.00e+00	0	34	0	835715072	64	4403
2026-01-16 23:21:51.55	116.55	37.59	-46.0	-47.5	19.6	0.00e+00	0	34	0	837812224	63	4309
2026-01-16 23:21:52.56	116.96	37.50	-45.9	-47.3	19.8	0.00e+00	0	34	0	838860800	63	4205
2026-01-16 23:21:53.56	117.37	37.42	-45.6	-46.9	20.2	0.00e+00	0	34	0	840957952	63	4025
2026-01-16 23:21:54.57	117.77	37.33	-46.0	-47.5	19.6	0.00e+00	0	34	0	843055104	63	4305
2026-01-16 23:21:55.58	118.17	37.24	-46.6	-48.2	19.0	0.00e+00	0	34	0	845152256	63	4656
2026-01-16 23:21:56.59	118.57	37.16	-46.9	-48.6	18.4	0.00e+00	0	34	0	847249408	64	4638
2026-01-16 23:21:57.60	118.97	37.06	-46.3	-47.9	19.2	0.00e+00	0	34	0	849346560	64	4244
2026-01-16 23:21:58.61	119.37	36.97	-45.6	-46.9	20.2	0.00e+00	0	34	0	850395136	63	4032
2026-01-16 23:21:59.62	119.77	36.88	-45.3	-46.6	20.5	0.00e+00	0	34	0	852492288	62	4122
2026-01-16 23:22:00.62	120.15	36.79	-45.2	-46.4	20.6	0.00e+00	0	34	0	854589440	62	4049
2026-01-16 23:22:01.63	120.54	36.69	-45.3	-46.5	20.5	0.00e+00	0	34	0	856686592	62	4092
2026-01-16 23:22:02.64	120.93	36.59	-45.0	-46.2	20.9	0.00e+00	0	34	0	858783744	62	3949
2026-01-16 23:22:03.65	121.32	36.50	-44.4	-45.5	21.4	0.00e+00	0	34	0	859832320	60	4094
2026-01-16 23:22:04.66	121.70	36.40	-44.2	-45.3	21.6	0.00e+00	0	34	0	861929472	60	4002
2026-01-16 23:22:05.66	122.08	36.30	-44.5	-45.6	21.4	0.00e+00	0	34	0	864026624	60	4139
2026-01-16 23:22:06.67	122.46	36.20	-45.0	-46.2	20.8	0.00e+00	0	34	0	866123776	60	4427
2026-01-16 23:22:07.68	122.83	36.10	-45.3	-46.6	20.4	0.00e+00	0	34	0	867172352	61	4362
2026-01-16 23:22:08.69	123.21	35.99	-45.3	-46.5	20.5	0.00e+00	0	34	0	869269504	61	4334
2026-01-16 23:22:09.70	123.58	35.89	-45.2	-46.4	20.6	0.00e+00	0	34	0	871366656	61	4282
2026-01-16 23:22:10.71	123.95	35.78	-45.1	-46.3	20.7	0.00e+00	0	34	0	873463808	61	4240
2026-01-16 23:22:11.72	124.32	35.68	-45.2	-46.5	20.5	0.00e+00	0	34	0	875560960	61	4319
2026-01-16 23:22:12.73	124.68	35.57	-45.9	-47.3	19.7	0.00e+00	0	34	0	877658112	62	4475
2026-01-16 23:22:13.74	125.04	35.46	-46.6	-48.2	19.0	0.00e+00	0	34	0	878706688	63	4668
2026-01-16 23:22:14.74	125.40	35.35	-46.7	-48.3	18.7	0.00e+00	0	34	0	880803840	64	4486
2026-01-16 23:22:15.75	125.76	35.24	-46.2	-47.7	19.3	0.00e+00	0	34	0	882900992	64	4187
2026-01-16 23:22:16.76	126.11	35.13	-46.0	-47.4	19.7	0.00e+00	0	34	0	884998144	63	4286
2026-01-16 23:22:17.77	126.47	35.02	-46.2	-47.7	19.5	0.00e+00	0	34	0	887095296	63	4393
2026-01-16 23:22:18.78	126.82	34.91	-46.6	-48.2	18.9	0.00e+00	0	34	0	888143872	63	4682
2026-01-16 23:22:19.78	127.16	34.80	-46.8	-48.5	18.6	0.00e+00	0	34	0	890241024	64	4557
2026-01-16 23:22:20.79	127.51	34.69	-46.4	-48.0	19.0	0.00e+00	0	34	0	892338176	64	4316
2026-01-16 23:22:21.80	127.85	34.57	-46.0	-47.4	19.6	0.00e+00	0	34	0	894435328	63	4272
2026-01-16 23:22:22.81	128.19	34.46	-45.9	-47.3	19.8	0.00e+00	0	34	0	896532480	63	4225
2026-01-16 23:22:23.82	128.53	34.34	-46.3	-47.9	19.2	0.00e+00	0	34	0	897581056	63	4507
2026-01-16 23:22:24.83	128.87	34.22	-46.7	-48.4	18.6	0.00e+00	0	34	0	899678208	64	4507
2026-01-16 23:22:25.84	129.20	34.11	-47.2	-49.0	18.0	0.00e+00	0	34	0	901775360	65	4596
2026-01-16 23:22:26.84	129.53	33.99	-47.2	-49.0	18.0	0.00e+00	0	34	0	903872512	65	4559
2026-01-16 23:22:27.85	129.86	33.87	-46.9	-48.6	18.3	0.00e+00	0	34	0	905969664	65	4367
2026-01-16 23:22:28.86	130.19	33.75	-46.9	-48.5	18.5	0.00e+00	0	34	0	907018240	65	4339
2026-01-16 23:22:29.87	130.51	33.63	-47.2	-49.0	18.1	0.00e+00	0	34	0	909115392	65	4549
2026-01-16 23:22:30.88	130.83	33.51	-47.8	-49.8	17.3	0.00e+00	0	34	0	911212544	66	4742
2026-01-16 23:22:31.89	131.15	33.39	-48.2	-50.4	16.7	0.00e+00	0	34	0	913309696	66	5063
2026-01-16 23:22:32.90	131.47	33.27	-48.0	-50.2	16.8	0.00e+00	0	34	0	915406848	66	4951
2026-01-16 23:22:33.90	131.78	33.15	-47.5	-49.4	17.6	0.00e+00	0	34	0	916455424	66	4537
2026-01-16 23:22:34.91	132.10	33.03	-47.5	-49.4	17.7	0.00e+00	0	34	0	918552576	66	4501
2026-01-16 23:22:35.92	132.41	32.91	-47.6	-49.5	17.5	0.00e+00	0	34	0	920649728	66	4597
2026-01-16 23:22:36.93	132.72	32.79	-48.2	-50.4	16.5	0.00e+00	0	34	0	922746880	67	4812
2026-01-16 23:22:37.94	133.02	32.66	-49.0	-51.6	15.5	0.00e+00	0	34	0	924844032	68	5207
2026-01-16 23:22:38.94	133.32	32.54	-48.9	-51.4	15.7	0.00e+00	0	34	0	925892608	68	5052
2026-01-16 23:22:39.95	133.63	32.42	-47.8	-49.8	17.2	0.00e+00	0	34	0	927989760	67	4459
2026-01-16 23:22:40.96	133.93	32.29	-46.7	-48.3	18.7	0.00e+00	0	34	0	930086912	65	4201
2026-01-16 23:22:41.97	134.22	32.17	-46.5	-48.1	18.8	0.00e+00	0	34	0	932184064	65	4125
2026-01-16 23:22:42.98	134.52	32.04	-46.9	-48.6	18.3	0.00e+00	0	34	0	934281216	65	4382
2026-01-16 23:22:43.99	134.81	31.92	-47.9	-49.9	17.1	0.00e+00	0	34	0	935329792	66	4802
2026-01-16 23:22:45.00	135.10	31.79	-48.7	-51.1	15.9	0.00e+00	0	34	0	937426944	67	5214
2026-01-16 23:22:46.00	135.39	31.67	-49.0	-51.6	15.5	0.00e+00	0	34	0	939524096	68	5184
2026-01-16 23:22:47.01	135.67	31.54	-48.5	-50.8	16.2	0.00e+00	0	34	0	941621248	68	4739
2026-01-16 23:22:48.02	135.96	31.42	-47.8	-49.8	17.2	0.00e+00	0	34	0	943718400	67	4473
2026-01-16 23:22:49.03	136.24	31.29	-47.8	-49.8	17.2	0.00e+00	0	34	0	944766976	67	4482
2026-01-16 23:22:50.04	136.52	31.17	-48.1	-50.2	16.7	0.00e+00	0	34	0	946864128	67	4702
2026-01-16 23:22:51.04	136.80	31.04	-48.5	-50.8	16.2	0.00e+00	0	34	0	948961280	67	5001
2026-01-16 23:22:52.05	137.07	30.91	-49.1	-51.7	15.3	0.00e+00	0	34	0	951058432	68	5257
2026-01-16 23:22:53.06	137.34	30.79	-48.9	-51.5	15.6	0.00e+00	0	34	0	953155584	68	5106
2026-01-16 23:22:54.07	137.62	30.66	-48.1	-50.2	16.7	0.00e+00	0	34	0	954204160	68	4426
2026-01-16 23:22:55.08	137.89	30.53	-47.3	-49.1	17.8	0.00e+00	0	34	0	956301312	66	4370
2026-01-16 23:22:56.08	138.15	30.41	-47.2	-49.0	18.0	0.00e+00	0	34	0	958398464	66	4298
2026-01-16 23:22:57.09	138.42	30.28	-47.2	-49.0	17.9	0.00e+00	0	34	0	960495616	65	4577
2026-01-16 23:22:58.10	138.68	30.15	-47.7	-49.7	17.2	0.00e+00	0	34	0	962592768	65	4967
2026-01-16 23:22:59.11	138.94	30.02	-48.4	-50.7	16.2	0.00e+00	0	34	0	964689920	67	4957
2026-01-16 23:23:00.12	139.20	29.90	-48.8	-51.4	15.6	0.00e+00	0	34	0	965738496	68	5055
2026-01-16 23:23:01.12	139.45	29.77	-48.2	-50.5	16.6	0.00e+00	0	34	0	967835648	68	4548
2026-01-16 23:23:02.13	139.71	29.64	-47.1	-48.9	18.0	0.00e+00	0	34	0	969932800	66	4257
2026-01-16 23:23:03.14	139.96	29.52	-46.7	-48.3	18.6	0.00e+00	0	34	0	972029952	65	4232
2026-01-16 23:23:04.15	140.21	29.39	-46.3	-47.8	19.1	0.00e+00	0	34	0	973078528	64	4212
2026-01-16 23:23:05.16	140.46	29.26	-46.6	-48.3	18.6	0.00e+00	0	34	0	975175680	64	4458
2026-01-16 23:23:06.16	140.71	29.13	-47.4	-49.3	17.7	0.00e+00	0	34	0	977272832	65	4715
2026-01-16 23:23:07.17	140.95	29.01	-48.0	-50.2	16.8	0.00e+00	0	34	0	979369984	66	4931
2026-01-16 23:23:08.18	141.20	28.88	-48.0	-50.1	16.8	0.00e+00	0	34	0	981467136	66	4906
2026-01-16 23:23:09.19	141.44	28.75	-47.5	-49.4	17.5	0.00e+00	0	34	0	982515712	66	4533
2026-01-16 23:23:10.20	141.68	28.62	-47.1	-48.9	18.0	0.00e+00	0	34	0	984612864	66	4282
2026-01-16 23:23:11.20	141.91	28.50	-46.6	-48.2	18.6	0.00e+00	0	34	0	986710016	65	4191
2026-01-16 23:23:12.21	142.15	28.37	-46.4	-48.0	18.9	0.00e+00	0	34	0	988807168	64	4317
2026-01-16 23:23:13.22	142.39	28.24	-46.0	-47.5	19.3	0.00e+00	0	34	0	990904320	64	4060
2026-01-16 23:23:14.23	142.62	28.11	-46.4	-47.9	19.0	0.00e+00	0	34	0	993001472	63	4545
2026-01-16 23:23:15.24	142.85	27.99	-46.9	-48.7	18.2	0.00e+00	0	34	0	994050048	64	4662
2026-01-16 23:23:16.24	143.08	27.86	-46.9	-48.7	18.1	0.00e+00	0	34	0	996147200	64	4680
2026-01-16 23:23:17.25	143.30	27.73	-46.7	-48.4	18.4	0.00e+00	0	34	0	998244352	64	4507
2026-01-16 23:23:18.26	143.53	27.61	-45.9	-47.3	19.5	0.00e+00	0	34	0	1000341504	63	4238
2026-01-16 23:23:19.27	143.75	27.48	-45.1	-46.4	20.4	0.00e+00	0	34	0	1001390080	62	4026
2026-01-16 23:23:20.28	143.97	27.35	-44.8	-46.0	20.8	0.00e+00	0	34	0	1003487232	61	4084
2026-01-16 23:23:21.28	144.19	27.23	-44.7	-45.9	20.9	0.00e+00	0	34	0	1005584384	61	4027
2026-01-16 23:23:22.29	144.41	27.10	-44.8	-46.0	20.9	0.00e+00	0	34	0	1007681536	61	4071
2026-01-16 23:23:23.30	144.63	26.98	-45.4	-46.8	20.1	0.00e+00	0	34	0	1009778688	61	4445
2026-01-16 23:23:24.31	144.84	26.85	-46.3	-47.8	19.1	0.00e+00	0	34	0	1011875840	63	4472
2026-01-16 23:23:25.32	145.06	26.72	-46.9	-48.7	18.2	0.00e+00	0	34	0	1012924416	64	4656
2026-01-16 23:23:26.32	145.27	26.60	-46.5	-48.2	18.6	0.00e+00	0	34	0	1015021568	64	4415
2026-01-16 23:23:27.33	145.48	26.47	-45.9	-47.4	19.5	0.00e+00	0	34	0	1017118720	63	4263
2026-01-16 23:23:28.34	145.69	26.35	-45.2	-46.6	20.2	0.00e+00	0	34	0	1019215872	62	4105
2026-01-16 23:23:29.35	145.89	26.22	-44.9	-46.2	20.6	0.00e+00	0	34	0	1021313024	61	4167
2026-01-16 23:23:30.36	146.10	26.10	-44.7	-45.9	20.9	0.00e+00	0	34	0	1022361600	61	4011
2026-01-16 23:23:31.36	146.30	25.98	-44.4	-45.6	21.2	0.00e+00	0	34	0	1024458752	60	4107
2026-01-16 23:23:32.37	146.50	25.85	-44.3	-45.5	21.3	0.00e+00	0	34	0	1026555904	60	4069
2026-01-16 23:23:33.38	146.70	25.73	-44.8	-46.0	20.8	0.00e+00	0	34	0	1028653056	60	4319
2026-01-16 23:23:34.39	146.90	25.60	-45.3	-46.7	20.2	0.00e+00	0	34	0	1029701632	61	4401
2026-01-16 23:23:35.40	147.10	25.48	-45.5	-46.9	19.9	0.00e+00	0	34	0	1031798784	61	4515
2026-01-16 23:23:36.40	147.30	25.36	-45.5	-46.8	20.0	0.00e+00	0	34	0	1033895936	61	4490
2026-01-16 23:23:37.41	147.49	25.23	-45.1	-46.4	20.4	0.00e+00	0	34	0	1035993088	61	4261
2026-01-16 23:23:38.42	147.68	25.11	-44.4	-45.5	21.2	0.00e+00	0	34	0	1038090240	60	4094
2026-01-16 23:23:39.43	147.88	24.99	-44.1	-45.2	21.5	0.00e+00	0	34	0	1040187392	60	3943
2026-01-16 23:23:40.44	148.07	24.86	-44.1	-45.3	21.5	0.00e+00	0	34	0	1041235968	60	3964
2026-01-16 23:23:41.44	148.25	24.74	-44.2	-45.3	21.4	0.00e+00	0	34	0	1043333120	60	3999
2026-01-16 23:23:42.45	148.44	24.62	-44.4	-45.6	21.1	0.00e+00	0	34	0	1045430272	60	4122
2026-01-16 23:23:43.46	148.63	24.50	-44.7	-45.9	20.9	0.00e+00	0	34	0	1047527424	60	4268
2026-01-16 23:23:44.47	148.81	24.38	-44.9	-46.2	20.6	0.00e+00	0	34	0	1049624576	60	4430
2026-01-16 23:23:45.48	149.00	24.25	-45.0	-46.3	20.5	0.00e+00	0	34	0	1050673152	60	4464
2026-01-16 23:23:46.49	149.18	24.13	-45.0	-46.3	20.5	0.00e+00	0	34	0	1052770304	60	4469
2026-01-16 23:23:47.49	149.36	24.01	-45.0	-46.3	20.4	0.00e+00	0	34	0	1054867456	60	4474
2026-01-16 23:23:48.50	149.54	23.89	-44.7	-45.9	20.8	0.00e+00	0	34	0	1056964608	60	4285
2026-01-16 23:23:49.51	149.71	23.77	-44.6	-45.9	20.9	0.00e+00	0	34	0	1059061760	60	4255
2026-01-16 23:23:50.52	149.89	23.65	-44.6	-45.8	20.9	0.00e+00	0	34	0	1060110336	60	4213
2026-01-16 23:23:51.53	150.07	23.53	-44.7	-46.0	20.8	0.00e+00	0	34	0	1062207488	60	4305
2026-01-16 23:23:52.53	150.24	23.41	-44.9	-46.1	20.6	0.00e+00	0	34	0	1064304640	60	4376
2026-01-16 23:23:53.54	150.41	23.30	-45.0	-46.3	20.5	0.00e+00	0	34	0	1066401792	60	4444
2026-01-16 23:23:54.55	150.58	23.18	-45.2	-46.6	20.1	0.00e+00	0	34	0	1068498944	61	4345
2026-01-16 23:23:55.56	150.75	23.06	-45.2	-46.5	20.3	0.00e+00	0	34	0	1069547520	61	4309
2026-01-16 23:23:56.56	150.92	22.94	-45.2	-46.5	20.2	0.00e+00	0	34	0	1071644672	61	4336
2026-01-16 23:23:57.57	151.09	22.82	-45.1	-46.4	20.4	0.00e+00	0	34	0	1073741824	61	4248
2026-01-16 23:23:58.58	151.26	22.70	-45.0	-46.3	20.5	0.00e+00	0	34	0	1075838976	61	4205
2026-01-16 23:23:59.59	151.42	22.59	-45.1	-46.4	20.4	0.00e+00	0	34	0	1077936128	61	4257
2026-01-16 23:24:00.60	151.59	22.47	-45.1	-46.4	20.4	0.00e+00	0	34	0	1078984704	61	4246
2026-01-16 23:24:01.60	151.75	22.35	-45.2	-46.5	20.3	0.00e+00	0	34	0	1081081856	61	4301
2026-01-16 23:24:02.61	151.91	22.24	-45.4	-46.8	20.0	0.00e+00	0	34	0	1083179008	61	4460
2026-01-16 23:24:03.62	152.07	22.12	-45.5	-46.9	19.9	0.00e+00	0	34	0	1085276160	61	4512
2026-01-16 23:24:04.63	152.23	22.01	-45.6	-47.0	19.8	0.00e+00	0	34	0	1087373312	61	4577
2026-01-16 23:24:05.63	152.39	21.89	-45.5	-46.9	19.8	0.00e+00	0	34	0	1088421888	61	4537
2026-01-16 23:24:06.64	152.54	21.78	-45.5	-46.9	19.8	0.00e+00	0	34	0	1090519040	61	4515
2026-01-16 23:24:07.65	152.70	21.66	-45.5	-46.9	19.9	0.00e+00	0	34	0	1092616192	61	4496
2026-01-16 23:24:08.66	152.85	21.55	-45.5	-46.9	19.8	0.00e+00	0	34	0	1094713344	61	4524
2026-01-16 23:24:09.67	153.01	21.43	-45.3	-46.7	20.1	0.00e+00	0	34	0	1096810496	61	4411
2026-01-16 23:24:10.68	153.16	21.32	-45.3	-46.7	20.0	0.00e+00	0	34	0	1097859072	61	4418
2026-01-16 23:24:11.69	153.31	21.20	-45.4	-46.8	19.9	0.00e+00	0	34	0	1099956224	61	4470
2026-01-16 23:24:12.70	153.46	21.09	-45.8	-47.2	19.5	0.00e+00	0	34	0	1102053376	62	4431
2026-01-16 23:24:13.70	153.61	20.98	-46.1	-47.6	19.1	0.00e+00	0	34	0	1104150528	62	4650
2026-01-16 23:24:14.71	153.76	20.87	-46.3	-47.9	18.9	0.00e+00	0	34	0	1106247680	63	4540
2026-01-16 23:24:15.72	153.91	20.75	-46.5	-48.2	18.6	0.00e+00	0	34	0	1108344832	63	4691
2026-01-16 23:24:16.73	154.05	20.64	-46.6	-48.3	18.5	0.00e+00	0	34	0	1109393408	63	4712
2026-01-16 23:24:17.74	154.20	20.53	-46.6	-48.3	18.5	0.00e+00	0	34	0	1111490560	63	4714
2026-01-16 23:24:18.74	154.34	20.42	-46.5	-48.1	18.6	0.00e+00	0	34	0	1113587712	63	4644
2026-01-16 23:24:19.75	154.49	20.31	-46.3	-47.9	18.8	0.00e+00	0	34	0	1115684864	63	4524
2026-01-16 23:24:20.76	154.63	20.20	-46.3	-47.9	18.8	0.00e+00	0	34	0	1116733440	63	4518
2026-01-16 23:24:21.77	154.77	20.09	-46.3	-47.9	18.9	0.00e+00	0	34	0	1118830592	63	4507
2026-01-16 23:24:22.78	154.91	19.98	-46.0	-47.5	19.2	0.00e+00	0	34	0	1120927744	63	4324
2026-01-16 23:24:23.79	155.05	19.87	-45.9	-47.4	19.3	0.00e+00	0	34	0	1123024896	63	4255
2026-01-16 23:24:24.80	155.19	19.76	-46.0	-47.5	19.2	0.00e+00	0	34	0	1125122048	63	4324
2026-01-16 23:24:25.80	155.33	19.65	-46.1	-47.6	19.1	0.00e+00	0	34	0	1127219200	63	4360
2026-01-16 23:24:26.81	155.46	19.54	-46.1	-47.6	19.1	0.00e+00	0	34	0	1128267776	63	4362
2026-01-16 23:24:27.82	155.60	19.43	-46.3	-48.0	18.8	0.00e+00	0	34	0	1130364928	63	4554
2026-01-16 23:24:28.83	155.73	19.32	-46.4	-48.0	18.7	0.00e+00	0	34	0	1132462080	63	4573
2026-01-16 23:24:29.84	155.87	19.21	-46.5	-48.2	18.6	0.00e+00	0	34	0	1134559232	63	4659
2026-01-16 23:24:30.84	156.00	19.11	-46.4	-48.1	18.6	0.00e+00	0	34	0	1136656384	63	4617
2026-01-16 23:24:31.85	156.13	19.00	-46.5	-48.2	18.5	0.00e+00	0	34	0	1137704960	63	4685
2026-01-16 23:24:32.86	156.26	18.89	-46.5	-48.2	18.5	0.00e+00	0	34	0	1139802112	63	4654
2026-01-16 23:24:33.87	156.39	18.79	-46.2	-47.8	18.8	0.00e+00	0	34	0	1141899264	63	4485
2026-01-16 23:24:34.88	156.52	18.68	-46.2	-47.7	19.0	0.00e+00	0	34	0	1143996416	63	4430
2026-01-16 23:24:35.89	156.65	18.57	-46.1	-47.6	19.1	0.00e+00	0	34	0	1145044992	63	4391
2026-01-16 23:24:36.89	156.78	18.47	-45.9	-47.4	19.3	0.00e+00	0	34	0	1147142144	63	4278
2026-01-16 23:24:37.90	156.90	18.36	-46.0	-47.5	19.2	0.00e+00	0	34	0	1149239296	63	4316
2026-01-16 23:24:38.91	157.03	18.26	-45.8	-47.3	19.4	0.00e+00	0	34	0	1151336448	63	4225
2026-01-16 23:24:39.92	157.15	18.15	-45.8	-47.3	19.4	0.00e+00	0	34	0	1153433600	63	4209
2026-01-16 23:24:40.92	157.28	18.05	-45.8	-47.3	19.4	0.00e+00	0	34	0	1155530752	63	4202
2026-01-16 23:24:41.93	157.40	17.95	-45.9	-47.4	19.3	0.00e+00	0	34	0	1156579328	63	4260
2026-01-16 23:24:42.94	157.52	17.84	-45.7	-47.2	19.5	0.00e+00	0	34	0	1158676480	63	4147
2026-01-16 23:24:43.95	157.64	17.74	-45.9	-47.4	19.3	0.00e+00	0	34	0	1160773632	63	4263
2026-01-16 23:24:44.96	157.77	17.63	-45.9	-47.4	19.2	0.00e+00	0	34	0	1162870784	63	4283
2026-01-16 23:24:45.96	157.89	17.53	-46.1	-47.6	19.0	0.00e+00	0	34	0	1164967936	63	4375
2026-01-16 23:24:46.97	158.00	17.43	-46.1	-47.7	19.0	0.00e+00	0	34	0	1166016512	63	4393
2026-01-16 23:24:47.98	158.12	17.33	-46.1	-47.6	19.0	0.00e+00	0	34	0	1168113664	63	4374
2026-01-16 23:24:48.99	158.24	17.23	-46.2	-47.8	18.9	0.00e+00	0	34	0	1170210816	63	4457
2026-01-16 23:24:50.00	158.36	17.12	-46.3	-47.9	18.8	0.00e+00	0	34	0	1172307968	63	4510
2026-01-16 23:24:51.00	158.47	17.02	-46.1	-47.7	19.0	0.00e+00	0	34	0	1174405120	63	4404
2026-01-16 23:24:52.01	158.59	16.92	-46.2	-47.7	18.9	0.00e+00	0	34	0	1175453696	63	4436
2026-01-16 23:24:53.02	158.70	16.82	-46.2	-47.8	18.8	0.00e+00	0	34	0	1177550848	63	4460
2026-01-16 23:24:54.03	158.82	16.72	-46.2	-47.8	18.8	0.00e+00	0	34	0	1179648000	63	4478
2026-01-16 23:24:55.04	158.93	16.62	-46.2	-47.8	18.8	0.00e+00	0	34	0	1181745152	63	4478
2026-01-16 23:24:56.04	159.04	16.52	-46.1	-47.6	19.0	0.00e+00	0	34	0	1183842304	63	4375
2026-01-16 23:24:57.05	159.16	16.42	-46.1	-47.6	19.0	0.00e+00	0	34	0	1184890880	63	4377
2026-01-16 23:24:58.06	159.27	16.32	-46.2	-47.8	18.8	0.00e+00	0	34	0	1186988032	63	4445
2026-01-16 23:24:59.07	159.38	16.22	-46.2	-47.8	18.8	0.00e+00	0	34	0	1189085184	63	4449
2026-01-16 23:25:00.08	159.49	16.13	-46.4	-48.0	18.6	0.00e+00	0	34	0	1191182336	63	4568
2026-01-16 23:25:01.08	159.60	16.03	-46.4	-48.1	18.5	0.00e+00	0	34	0	1193279488	63	4626
2026-01-16 23:25:02.09	159.71	15.93	-46.6	-48.3	18.3	0.00e+00	0	34	0	1194328064	63	4724
2026-01-16 23:25:03.10	159.81	15.83	-46.7	-48.4	18.2	0.00e+00	0	34	0	1196425216	63	4807
2026-01-16 23:25:04.11	159.92	15.73	-46.6	-48.4	18.1	0.00e+00	0	34	0	1198522368	64	4521
2026-01-16 23:25:05.12	160.03	15.64	-46.7	-48.5	18.0	0.00e+00	0	34	0	1200619520	64	4595
2026-01-16 23:25:06.12	160.13	15.54	-46.7	-48.5	18.0	0.00e+00	0	34	0	1202716672	64	4572
2026-01-16 23:25:07.13	160.24	15.45	-46.7	-48.6	17.9	0.00e+00	0	34	0	1203765248	64	4607
2026-01-16 23:25:08.14	160.34	15.35	-46.7	-48.5	18.0	0.00e+00	0	34	0	1205862400	64	4574
2026-01-16 23:25:09.15	160.45	15.25	-46.7	-48.5	18.0	0.00e+00	0	34	0	1207959552	64	4589
2026-01-16 23:25:10.16	160.55	15.16	-46.9	-48.7	17.8	0.00e+00	0	34	0	1210056704	64	4695
2026-01-16 23:25:11.16	160.65	15.06	-46.5	-48.2	18.2	0.00e+00	0	34	0	1212153856	64	4440
2026-01-16 23:25:12.17	160.75	14.97	-46.4	-48.1	18.4	0.00e+00	0	34	0	1213202432	64	4364
2026-01-16 23:25:13.18	160.85	14.87	-46.4	-48.1	18.4	0.00e+00	0	34	0	1215299584	64	4356
2026-01-16 23:25:14.19	160.96	14.78	-46.3	-47.9	18.5	0.00e+00	0	34	0	1217396736	64	4282
2026-01-16 23:25:15.20	161.06	14.68	-46.2	-47.9	18.6	0.00e+00	0	34	0	1219493888	64	4271
2026-01-16 23:25:16.20	161.15	14.59	-46.1	-47.8	18.7	0.00e+00	0	34	0	1221591040	64	4206
2026-01-16 23:25:17.21	161.25	14.50	-46.1	-47.7	18.7	0.00e+00	0	34	0	1222639616	64	4166
2026-01-16 23:25:18.22	161.35	14.40	-46.2	-47.9	18.6	0.00e+00	0	34	0	1224736768	64	4244
2026-01-16 23:25:19.23	161.45	14.31	-46.1	-47.7	18.7	0.00e+00	0	34	0	1226833920	64	4168
2026-01-16 23:25:20.24	161.55	14.22	-46.2	-47.8	18.6	0.00e+00	0	34	0	1228931072	64	4205
2026-01-16 23:25:21.24	161.64	14.13	-46.1	-47.7	18.7	0.00e+00	0	34	0	1231028224	64	4171
2026-01-16 23:25:22.25	161.74	14.03	-46.2	-47.8	18.6	0.00e+00	0	34	0	1232076800	64	4238
2026-01-16 23:25:23.26	161.83	13.94	-46.3	-47.9	18.5	0.00e+00	0	34	0	1234173952	64	4277
2026-01-16 23:25:24.27	161.93	13.85	-46.3	-47.9	18.5	0.00e+00	0	34	0	1236271104	64	4274
2026-01-16 23:25:25.28	162.02	13.76	-46.4	-48.0	18.4	0.00e+00	0	34	0	1238368256	64	4336
2026-01-16 23:25:26.29	162.12	13.67	-46.4	-48.1	18.3	0.00e+00	0	34	0	1240465408	64	4356
2026-01-16 23:25:27.29	162.21	13.58	-46.4	-48.2	18.3	0.00e+00	0	34	0	1241513984	64	4397
2026-01-16 23:25:28.30	162.30	13.49	-46.5	-48.2	18.2	0.00e+00	0	34	0	1243611136	64	4403
2026-01-16 23:25:29.31	162.40	13.40	-46.6	-48.3	18.1	0.00e+00	0	34	0	1245708288	64	4481
2026-01-16 23:25:30.32	162.49	13.31	-46.6	-48.3	18.1	0.00e+00	0	34	0	1247805440	64	4479
2026-01-16 23:25:31.32	162.58	13.22	-46.6	-48.4	18.0	0.00e+00	0	34	0	1249902592	64	4542
2026-01-16 23:25:32.33	162.67	13.13	-46.7	-48.5	17.9	0.00e+00	0	34	0	1250951168	64	4564
2026-01-16 23:25:33.34	162.76	13.04	-46.8	-48.7	17.8	0.00e+00	0	34	0	1253048320	64	4652
2026-01-16 23:25:34.35	162.85	12.95	-46.8	-48.7	17.8	0.00e+00	0	34	0	1255145472	64	4657
2026-01-16 23:25:35.36	162.94	12.86	-46.8	-48.6	17.8	0.00e+00	0	34	0	1257242624	64	4647
2026-01-16 23:25:36.36	163.03	12.77	-46.8	-48.7	17.7	0.00e+00	0	34	0	1259339776	64	4693
2026-01-16 23:25:37.37	163.11	12.69	-46.8	-48.7	17.7	0.00e+00	0	34	0	1260388352	64	4698
2026-01-16 23:25:38.38	163.20	12.60	-46.8	-48.8	17.6	0.00e+00	0	34	0	1262485504	64	4713
2026-01-16 23:25:39.39	163.29	12.51	-46.8	-48.7	17.7	0.00e+00	0	34	0	1264582656	64	4685
2026-01-16 23:25:40.40	163.37	12.42	-46.8	-48.7	17.6	0.00e+00	0	34	0	1266679808	64	4688
