passes_logs/2026/01/16/R3.2S_Murmansk/R3.2S_Murmansk__20260116_023256_SUOMI_NPP_rec.log

#Pass ID: 20260116_023256_SUOMI NPP
#Satellite: SUOMI NPP
#Configuration: NPP
#almurnet v.1.7.20251203
#Start time: 2026-01-16 02:32:56

#Version: 2.2.20231116
#Station: R3.2S_Murmansk
#Location: 33.079688 lon 68.888172 lat
#TLE: 1 37849U 11061A   26015.52691075  .00000052  00000+0  45753-4 0  9993
#TLE: 2 37849  98.7811 317.5709 0002448  62.7632 297.3794 14.19525354736784

#Time	Az	El	Level	Level2	SNR	BER	BlckErr	Temp	State	Recorded	gain1	gain2
2026-01-16 02:32:56.02	33.79	1.98	-56.3	-71.3	3.8	1.49e+00	0	41	0	0	84	19922
2026-01-16 02:32:57.03	33.75	2.04	-56.2	-71.2	3.8	1.49e+00	0	41	104	0	83	20879
2026-01-16 02:32:58.04	33.71	2.11	-56.2	-71.2	3.8	1.49e+00	0	41	104	0	83	20870
2026-01-16 02:32:59.05	33.67	2.17	-56.2	-71.2	3.8	1.49e+00	0	41	104	0	83	20918
2026-01-16 02:33:00.06	33.63	2.23	-56.2	-71.2	3.8	1.49e+00	0	41	104	0	83	20873
2026-01-16 02:33:01.06	33.60	2.29	-56.2	-71.2	3.8	1.49e+00	0	41	104	0	83	20866
2026-01-16 02:33:02.07	33.56	2.36	-56.2	-71.2	3.8	1.49e+00	0	41	104	0	83	20824
2026-01-16 02:33:03.08	33.52	2.42	-56.2	-71.2	3.8	1.49e+00	0	41	104	0	83	20836
2026-01-16 02:33:04.09	33.48	2.48	-56.2	-71.2	3.8	1.49e+00	0	42	104	0	83	20845
2026-01-16 02:33:05.10	33.44	2.54	-56.2	-71.2	3.8	1.49e+00	0	42	104	0	83	20789
2026-01-16 02:33:06.11	33.40	2.61	-56.2	-71.1	3.8	1.49e+00	0	41	104	0	83	20771
2026-01-16 02:33:07.12	33.36	2.67	-56.2	-71.2	3.8	1.49e+00	0	42	104	0	83	20836
2026-01-16 02:33:08.13	33.32	2.73	-56.2	-71.2	3.8	1.49e+00	0	42	104	0	83	20840
2026-01-16 02:33:09.14	33.28	2.80	-56.2	-71.2	3.8	1.49e+00	0	42	104	0	83	20873
2026-01-16 02:33:10.15	33.24	2.86	-56.2	-71.2	3.8	1.49e+00	0	42	104	0	83	20869
2026-01-16 02:33:11.16	33.20	2.92	-56.2	-71.2	3.8	1.49e+00	0	42	104	0	83	20803
2026-01-16 02:33:12.17	33.16	2.99	-56.2	-71.1	3.8	1.49e+00	0	42	104	0	83	20715
2026-01-16 02:33:13.18	33.12	3.05	-56.2	-71.1	3.8	1.49e+00	0	42	104	0	83	20669
2026-01-16 02:33:14.19	33.08	3.12	-56.2	-70.9	3.8	1.49e+00	0	42	104	0	83	20274
2026-01-16 02:33:15.20	33.04	3.18	-56.2	-71.0	3.8	1.49e+00	0	42	104	0	83	20429
2026-01-16 02:33:16.21	32.99	3.25	-56.2	-71.0	3.8	1.49e+00	0	42	104	0	83	20332
2026-01-16 02:33:17.22	32.95	3.31	-56.2	-70.7	3.8	1.49e+00	0	42	104	0	83	19805
2026-01-16 02:33:18.23	32.91	3.38	-56.2	-70.4	3.8	1.49e+00	0	42	104	0	83	18958
2026-01-16 02:33:19.24	32.87	3.44	-56.2	-70.7	3.8	1.49e+00	0	42	104	0	83	19788
2026-01-16 02:33:20.25	32.83	3.51	-56.2	-70.5	3.8	1.49e+00	0	42	104	0	83	19360
2026-01-16 02:33:21.26	32.78	3.57	-56.2	-70.4	3.8	1.49e+00	0	42	104	0	83	18972
2026-01-16 02:33:22.27	32.74	3.64	-56.2	-70.0	3.8	1.49e+00	0	43	104	0	83	18151
2026-01-16 02:33:23.28	32.70	3.70	-56.2	-69.6	3.8	1.49e+00	0	42	104	0	83	17450
2026-01-16 02:33:24.29	32.66	3.77	-56.2	-70.4	3.8	1.49e+00	0	43	104	0	83	19033
2026-01-16 02:33:25.30	32.61	3.83	-56.2	-70.1	3.8	1.49e+00	0	43	104	0	83	18484
2026-01-16 02:33:26.31	32.57	3.90	-56.2	-70.3	3.8	1.49e+00	0	43	104	0	83	18900
2026-01-16 02:33:27.32	32.53	3.96	-56.2	-70.6	3.8	1.49e+00	0	43	104	0	83	19395
2026-01-16 02:33:28.33	32.48	4.03	-56.2	-70.5	3.8	1.49e+00	0	43	104	0	83	19253
2026-01-16 02:33:29.34	32.44	4.10	-56.1	-69.6	3.8	1.49e+00	0	43	104	0	83	17436
2026-01-16 02:33:30.35	32.39	4.16	-56.1	-68.9	3.8	1.49e+00	0	43	104	0	83	16114
2026-01-16 02:33:31.36	32.35	4.23	-55.9	-66.7	4.5	1.41e+00	60	43	104	0	83	12412
2026-01-16 02:33:32.37	32.30	4.30	-55.8	-65.5	5.1	7.95e-01	0	43	0	1048576	83	10815
2026-01-16 02:33:33.38	32.26	4.36	-55.6	-64.0	6.1	3.70e-01	0	43	0	3145728	83	9146
2026-01-16 02:33:34.39	32.21	4.43	-55.3	-62.5	7.3	1.94e-01	0	43	0	5242880	82	8146
2026-01-16 02:33:35.40	32.17	4.50	-55.1	-61.5	8.3	1.53e-01	0	43	0	7340032	82	7227
2026-01-16 02:33:36.41	32.12	4.56	-55.1	-61.6	8.3	1.77e-02	0	43	0	9437184	81	7787
2026-01-16 02:33:37.42	32.08	4.63	-54.6	-59.7	10.1	1.91e-02	0	43	0	10485760	81	6267
2026-01-16 02:33:38.43	32.03	4.70	-54.6	-59.9	10.0	1.01e-02	0	43	0	12582912	81	6348
2026-01-16 02:33:39.44	31.98	4.77	-54.8	-60.6	9.2	1.86e-02	0	43	0	14680064	81	6937
2026-01-16 02:33:40.44	31.94	4.83	-54.5	-59.5	10.4	8.11e-03	0	43	0	16777216	80	6476
2026-01-16 02:33:41.46	31.89	4.90	-54.7	-60.2	9.7	9.76e-03	0	43	0	18874368	80	7007
2026-01-16 02:33:42.46	31.84	4.97	-55.0	-61.1	8.7	2.71e-02	0	43	0	19922944	80	7806
2026-01-16 02:33:43.47	31.80	5.04	-54.4	-59.2	10.8	2.22e-02	0	43	0	22020096	80	6203
2026-01-16 02:33:44.48	31.75	5.11	-53.8	-57.5	12.7	4.30e-03	0	43	0	24117248	79	5449
2026-01-16 02:33:45.49	31.70	5.18	-55.3	-60.1	10.5	7.00e-07	0	43	0	26214400	80	6933
2026-01-16 02:33:46.50	31.65	5.25	-55.3	-61.9	7.8	4.76e-01	0	44	0	28311552	81	7995
2026-01-16 02:33:47.51	31.60	5.31	-52.6	-55.3	15.1	9.90e-06	0	43	0	29360128	77	4756
2026-01-16 02:33:48.52	31.55	5.38	-54.6	-59.5	10.4	1.17e-01	0	44	0	31457280	81	6089
2026-01-16 02:33:49.53	31.51	5.45	-52.7	-55.4	15.0	3.80e-06	0	44	0	33554432	77	4787
2026-01-16 02:33:50.53	31.46	5.52	-52.8	-55.6	14.9	0.00e+00	0	44	0	35651584	76	5214
2026-01-16 02:33:51.54	31.41	5.59	-52.9	-55.9	14.7	0.00e+00	0	44	0	37748736	76	5344
2026-01-16 02:33:52.55	31.36	5.66	-52.8	-55.6	14.9	0.00e+00	0	44	0	38797312	76	5202
2026-01-16 02:33:53.56	31.31	5.73	-53.1	-56.1	14.4	0.00e+00	0	44	0	40894464	77	5202
2026-01-16 02:33:54.57	31.26	5.80	-53.0	-55.9	14.7	7.00e-07	0	44	0	42991616	77	5067
2026-01-16 02:33:55.58	31.21	5.87	-53.1	-56.2	14.4	2.20e-06	0	44	0	45088768	77	5243
2026-01-16 02:33:56.59	31.16	5.94	-52.9	-55.8	14.8	0.00e+00	0	44	0	47185920	77	5011
2026-01-16 02:33:57.60	31.11	6.01	-53.1	-56.1	14.4	0.00e+00	0	44	0	48234496	77	5191
2026-01-16 02:33:58.61	31.06	6.08	-53.1	-56.2	14.5	0.00e+00	0	44	0	50331648	77	5220
2026-01-16 02:33:59.62	31.00	6.15	-53.0	-55.9	14.7	0.00e+00	0	44	0	52428800	77	5077
2026-01-16 02:34:00.63	30.95	6.23	-52.9	-55.7	14.9	0.00e+00	0	44	0	54525952	77	4933
2026-01-16 02:34:01.64	30.90	6.30	-53.2	-56.3	14.4	0.00e+00	0	44	0	56623104	77	5297
2026-01-16 02:34:02.65	30.85	6.37	-52.8	-55.6	15.1	0.00e+00	0	44	0	58720256	77	4881
2026-01-16 02:34:03.66	30.80	6.44	-53.0	-55.9	14.8	0.00e+00	0	44	0	59768832	77	5062
2026-01-16 02:34:04.67	30.74	6.51	-52.6	-55.3	15.4	0.00e+00	0	44	0	61865984	77	4725
2026-01-16 02:34:05.68	30.69	6.58	-52.6	-55.1	15.5	0.00e+00	0	44	0	63963136	77	4651
2026-01-16 02:34:06.69	30.64	6.66	-52.6	-55.2	15.6	0.00e+00	0	44	0	66060288	77	4655
2026-01-16 02:34:07.70	30.58	6.73	-52.6	-55.2	15.5	0.00e+00	0	44	0	67108864	76	4944
2026-01-16 02:34:08.71	30.53	6.80	-52.6	-55.2	15.5	0.00e+00	0	44	0	69206016	76	4953
2026-01-16 02:34:09.72	30.47	6.87	-52.6	-55.2	15.5	0.00e+00	0	44	0	71303168	76	4938
2026-01-16 02:34:10.72	30.42	6.95	-52.4	-54.9	15.9	0.00e+00	0	44	0	73400320	76	4776
2026-01-16 02:34:11.73	30.37	7.02	-52.3	-54.7	16.0	0.00e+00	0	44	0	75497472	76	4689
2026-01-16 02:34:12.74	30.31	7.09	-52.3	-54.8	16.0	0.00e+00	0	44	0	77594624	76	4723
2026-01-16 02:34:13.75	30.25	7.17	-52.5	-55.0	15.7	0.00e+00	0	44	0	78643200	76	4864
2026-01-16 02:34:14.76	30.20	7.24	-52.3	-54.7	16.1	0.00e+00	0	44	0	80740352	76	4657
2026-01-16 02:34:15.77	30.14	7.31	-52.4	-54.9	15.8	0.00e+00	0	45	0	82837504	76	4792
2026-01-16 02:34:16.78	30.09	7.39	-52.3	-54.7	16.0	0.00e+00	0	45	0	84934656	76	4660
2026-01-16 02:34:17.79	30.03	7.46	-52.4	-54.9	15.9	0.00e+00	0	45	0	87031808	76	4766
2026-01-16 02:34:18.80	29.97	7.54	-52.6	-55.1	15.7	0.00e+00	0	45	0	88080384	76	4898
2026-01-16 02:34:19.81	29.92	7.61	-52.5	-54.9	15.9	0.00e+00	0	45	0	90177536	76	4812
2026-01-16 02:34:20.82	29.86	7.69	-52.6	-55.2	15.7	0.00e+00	0	45	0	92274688	76	4939
2026-01-16 02:34:21.83	29.80	7.76	-52.5	-55.0	15.8	0.00e+00	0	45	0	94371840	76	4857
2026-01-16 02:34:22.84	29.74	7.84	-52.1	-54.4	16.4	0.00e+00	0	45	0	96468992	76	4515
2026-01-16 02:34:23.85	29.68	7.91	-52.0	-54.2	16.6	0.00e+00	0	45	0	97517568	75	4682
2026-01-16 02:34:24.86	29.62	7.99	-51.9	-54.2	16.7	0.00e+00	0	45	0	99614720	75	4656
2026-01-16 02:34:25.87	29.57	8.06	-52.0	-54.2	16.6	0.00e+00	0	45	0	101711872	75	4680
2026-01-16 02:34:26.88	29.51	8.14	-52.1	-54.4	16.5	0.00e+00	0	45	0	103809024	75	4782
2026-01-16 02:34:27.89	29.45	8.21	-52.2	-54.5	16.3	0.00e+00	0	45	0	105906176	75	4854
2026-01-16 02:34:28.89	29.39	8.29	-52.1	-54.3	16.5	0.00e+00	0	45	0	106954752	75	4746
2026-01-16 02:34:29.90	29.33	8.37	-52.1	-54.3	16.6	0.00e+00	0	45	0	109051904	75	4749
2026-01-16 02:34:30.91	29.27	8.44	-52.2	-54.5	16.4	0.00e+00	0	45	0	111149056	75	4833
2026-01-16 02:34:31.93	29.20	8.52	-52.2	-54.5	16.4	0.00e+00	0	45	0	113246208	75	4856
2026-01-16 02:34:32.94	29.14	8.60	-52.1	-54.3	16.6	0.00e+00	0	45	0	115343360	75	4748
2026-01-16 02:34:33.94	29.08	8.67	-52.2	-54.6	16.3	0.00e+00	0	45	0	117440512	75	4885
2026-01-16 02:34:34.96	29.02	8.75	-52.2	-54.6	16.2	0.00e+00	0	45	0	118489088	75	4890
2026-01-16 02:34:35.97	28.96	8.83	-52.0	-54.3	16.6	0.00e+00	0	45	0	120586240	75	4714
2026-01-16 02:34:36.97	28.89	8.91	-51.9	-54.1	16.8	0.00e+00	0	45	0	122683392	75	4643
2026-01-16 02:34:37.98	28.83	8.99	-51.9	-54.1	16.8	0.00e+00	0	45	0	124780544	75	4639
2026-01-16 02:34:39.00	28.77	9.07	-51.9	-54.1	16.9	0.00e+00	0	45	0	125829120	75	4609
2026-01-16 02:34:40.00	28.70	9.14	-52.2	-54.5	16.5	0.00e+00	0	45	0	127926272	75	4818
2026-01-16 02:34:41.01	28.64	9.22	-52.1	-54.4	16.6	0.00e+00	0	45	0	130023424	75	4763
2026-01-16 02:34:42.02	28.57	9.30	-51.8	-53.9	17.0	0.00e+00	0	45	0	132120576	75	4529
2026-01-16 02:34:43.03	28.51	9.38	-51.8	-53.9	17.0	0.00e+00	0	45	0	134217728	75	4542
2026-01-16 02:34:44.04	28.44	9.46	-52.0	-54.1	16.8	0.00e+00	0	45	0	136314880	75	4643
2026-01-16 02:34:45.05	28.38	9.54	-52.0	-54.2	16.7	0.00e+00	0	46	0	137363456	75	4697
2026-01-16 02:34:46.06	28.31	9.62	-51.9	-54.1	17.0	0.00e+00	0	45	0	139460608	75	4611
2026-01-16 02:34:47.07	28.24	9.70	-51.8	-53.9	17.0	0.00e+00	0	45	0	141557760	75	4541
2026-01-16 02:34:48.07	28.18	9.78	-51.8	-54.0	17.0	0.00e+00	0	46	0	143654912	75	4564
2026-01-16 02:34:49.08	28.11	9.86	-51.6	-53.7	17.3	0.00e+00	0	46	0	145752064	75	4401
2026-01-16 02:34:50.10	28.04	9.94	-51.9	-54.0	17.0	0.00e+00	0	46	0	146800640	75	4574
2026-01-16 02:34:51.11	27.97	10.02	-51.9	-54.1	16.9	0.00e+00	0	46	0	148897792	75	4603
2026-01-16 02:34:52.11	27.90	10.10	-51.7	-53.8	17.1	0.00e+00	0	45	0	150994944	75	4464
2026-01-16 02:34:53.12	27.84	10.18	-51.7	-53.7	17.2	0.00e+00	0	46	0	153092096	75	4432
2026-01-16 02:34:54.13	27.77	10.26	-51.6	-53.6	17.4	0.00e+00	0	46	0	155189248	75	4345
2026-01-16 02:34:55.14	27.70	10.35	-51.4	-53.3	17.7	0.00e+00	0	46	0	156237824	74	4452
2026-01-16 02:34:56.15	27.63	10.43	-51.4	-53.3	17.6	0.00e+00	0	46	0	158334976	74	4492
2026-01-16 02:34:57.16	27.56	10.51	-51.4	-53.3	17.7	0.00e+00	0	46	0	160432128	74	4480
2026-01-16 02:34:58.17	27.48	10.59	-51.4	-53.3	17.7	0.00e+00	0	46	0	162529280	74	4480
2026-01-16 02:34:59.18	27.41	10.68	-51.3	-53.2	17.8	0.00e+00	0	46	0	164626432	74	4415
2026-01-16 02:35:00.19	27.34	10.76	-51.4	-53.4	17.7	0.00e+00	0	46	0	165675008	74	4495
2026-01-16 02:35:01.20	27.27	10.84	-51.5	-53.5	17.5	0.00e+00	0	46	0	167772160	74	4556
2026-01-16 02:35:02.20	27.20	10.92	-51.4	-53.3	17.7	0.00e+00	0	46	0	169869312	74	4479
2026-01-16 02:35:03.21	27.12	11.01	-51.4	-53.3	17.7	0.00e+00	0	46	0	171966464	74	4455
2026-01-16 02:35:04.22	27.05	11.09	-51.4	-53.4	17.6	0.00e+00	0	46	0	174063616	74	4501
2026-01-16 02:35:05.23	26.98	11.18	-51.4	-53.4	17.7	0.00e+00	0	46	0	175112192	74	4495
2026-01-16 02:35:06.24	26.90	11.26	-51.4	-53.2	17.7	0.00e+00	0	46	0	177209344	74	4439
2026-01-16 02:35:07.25	26.83	11.35	-51.5	-53.5	17.6	0.00e+00	0	46	0	179306496	74	4549
2026-01-16 02:35:08.26	26.75	11.43	-51.5	-53.4	17.6	0.00e+00	0	46	0	181403648	74	4512
2026-01-16 02:35:09.27	26.67	11.52	-51.5	-53.4	17.7	0.00e+00	0	46	0	183500800	74	4521
2026-01-16 02:35:10.28	26.60	11.60	-51.4	-53.2	17.8	0.00e+00	0	46	0	184549376	74	4437
2026-01-16 02:35:11.28	26.52	11.69	-51.5	-53.4	17.7	0.00e+00	0	46	0	186646528	74	4500
2026-01-16 02:35:12.29	26.44	11.77	-51.4	-53.3	17.8	0.00e+00	0	46	0	188743680	74	4451
2026-01-16 02:35:13.30	26.37	11.86	-51.4	-53.4	17.8	0.00e+00	0	46	0	190840832	74	4494
2026-01-16 02:35:14.31	26.29	11.94	-51.3	-53.1	18.0	0.00e+00	0	46	0	192937984	74	4372
2026-01-16 02:35:15.32	26.21	12.03	-51.3	-53.2	17.9	0.00e+00	0	46	0	195035136	74	4405
2026-01-16 02:35:16.33	26.13	12.12	-51.4	-53.3	17.8	0.00e+00	0	46	0	196083712	74	4447
2026-01-16 02:35:17.34	26.05	12.21	-51.4	-53.3	17.8	0.00e+00	0	46	0	198180864	74	4474
2026-01-16 02:35:18.35	25.97	12.29	-51.4	-53.3	17.8	0.00e+00	0	46	0	200278016	74	4475
2026-01-16 02:35:19.36	25.89	12.38	-51.4	-53.3	17.9	0.00e+00	0	46	0	202375168	74	4447
2026-01-16 02:35:20.37	25.81	12.47	-51.4	-53.3	17.9	0.00e+00	0	46	0	203423744	74	4447
2026-01-16 02:35:21.38	25.73	12.56	-51.4	-53.2	17.9	0.00e+00	0	46	0	205520896	74	4441
2026-01-16 02:35:22.38	25.64	12.64	-51.3	-53.1	18.0	0.00e+00	0	46	0	207618048	74	4375
2026-01-16 02:35:23.39	25.56	12.73	-51.2	-53.0	18.1	0.00e+00	0	46	0	209715200	74	4328
2026-01-16 02:35:24.40	25.48	12.82	-51.3	-53.1	18.0	0.00e+00	0	46	0	211812352	74	4378
2026-01-16 02:35:25.41	25.39	12.91	-51.3	-53.1	18.0	0.00e+00	0	46	0	212860928	74	4348
2026-01-16 02:35:26.42	25.31	13.00	-51.2	-52.9	18.2	0.00e+00	0	46	0	214958080	74	4287
2026-01-16 02:35:27.43	25.22	13.09	-51.2	-53.0	18.1	0.00e+00	0	46	0	217055232	74	4309
2026-01-16 02:35:28.44	25.14	13.18	-51.4	-53.2	17.9	0.00e+00	0	46	0	219152384	74	4421
2026-01-16 02:35:29.45	25.05	13.27	-51.4	-53.3	17.9	0.00e+00	0	46	0	221249536	74	4466
2026-01-16 02:35:30.46	24.97	13.36	-51.1	-52.9	18.2	0.00e+00	0	46	0	223346688	74	4262
2026-01-16 02:35:31.46	24.88	13.45	-51.3	-53.2	17.9	0.00e+00	0	46	0	224395264	74	4412
2026-01-16 02:35:32.47	24.79	13.54	-51.4	-53.3	17.8	0.00e+00	0	46	0	226492416	74	4462
2026-01-16 02:35:33.48	24.70	13.63	-51.4	-53.3	17.9	0.00e+00	0	46	0	228589568	74	4456
2026-01-16 02:35:34.49	24.62	13.72	-51.6	-53.6	17.6	0.00e+00	0	46	0	230686720	74	4628
2026-01-16 02:35:35.50	24.53	13.82	-51.8	-53.9	17.3	0.00e+00	0	47	0	231735296	74	4768
2026-01-16 02:35:36.51	24.44	13.91	-51.6	-53.6	17.5	0.00e+00	0	46	0	233832448	74	4628
2026-01-16 02:35:37.52	24.35	14.00	-51.5	-53.4	17.7	0.00e+00	0	46	0	235929600	74	4519
2026-01-16 02:35:38.53	24.25	14.09	-51.5	-53.4	17.8	0.00e+00	0	46	0	238026752	74	4533
2026-01-16 02:35:39.54	24.16	14.19	-51.5	-53.4	17.8	0.00e+00	0	47	0	240123904	74	4508
2026-01-16 02:35:40.55	24.07	14.28	-51.5	-53.4	17.7	0.00e+00	0	47	0	242221056	74	4543
2026-01-16 02:35:41.56	23.98	14.37	-51.6	-53.5	17.7	0.00e+00	0	46	0	243269632	74	4585
2026-01-16 02:35:42.57	23.88	14.47	-51.4	-53.2	17.9	0.00e+00	0	46	0	245366784	74	4437
2026-01-16 02:35:43.58	23.79	14.56	-51.1	-52.8	18.4	0.00e+00	0	47	0	247463936	74	4215
2026-01-16 02:35:44.59	23.70	14.66	-51.2	-53.0	18.2	0.00e+00	0	47	0	249561088	73	4553
2026-01-16 02:35:45.60	23.60	14.75	-50.9	-52.6	18.6	0.00e+00	0	47	0	251658240	73	4362
2026-01-16 02:35:46.60	23.50	14.84	-50.9	-52.5	18.6	0.00e+00	0	47	0	252706816	73	4337
2026-01-16 02:35:47.61	23.41	14.94	-51.0	-52.7	18.5	0.00e+00	0	47	0	254803968	73	4407
2026-01-16 02:35:48.62	23.31	15.04	-51.0	-52.7	18.5	0.00e+00	0	47	0	256901120	73	4429
2026-01-16 02:35:49.63	23.21	15.13	-51.0	-52.7	18.5	0.00e+00	0	47	0	258998272	73	4418
2026-01-16 02:35:50.64	23.11	15.23	-51.0	-52.7	18.5	0.00e+00	0	47	0	261095424	73	4422
2026-01-16 02:35:51.65	23.01	15.32	-50.6	-52.2	18.9	0.00e+00	0	47	0	262144000	73	4192
2026-01-16 02:35:52.66	22.91	15.42	-51.0	-52.7	18.5	0.00e+00	0	47	0	264241152	73	4432
2026-01-16 02:35:53.67	22.81	15.52	-51.0	-52.7	18.5	0.00e+00	0	47	0	266338304	73	4405
2026-01-16 02:35:54.68	22.71	15.61	-51.0	-52.7	18.5	0.00e+00	0	47	0	268435456	73	4428
2026-01-16 02:35:55.69	22.61	15.71	-51.1	-52.7	18.5	0.00e+00	0	47	0	270532608	73	4440
2026-01-16 02:35:56.70	22.51	15.81	-51.0	-52.7	18.6	0.00e+00	0	47	0	271581184	73	4419
2026-01-16 02:35:57.71	22.40	15.91	-51.4	-53.2	18.1	0.00e+00	0	47	0	273678336	73	4669
2026-01-16 02:35:58.72	22.30	16.01	-51.0	-52.7	18.7	0.00e+00	0	47	0	275775488	73	4409
2026-01-16 02:35:59.73	22.20	16.11	-50.8	-52.4	18.8	0.00e+00	0	47	0	277872640	73	4290
2026-01-16 02:36:00.73	22.09	16.20	-51.2	-53.0	18.3	0.00e+00	0	47	0	279969792	73	4553
2026-01-16 02:36:01.74	21.98	16.30	-51.2	-53.0	18.3	0.00e+00	0	47	0	282066944	73	4573
2026-01-16 02:36:02.75	21.88	16.40	-51.3	-53.1	18.2	0.00e+00	0	47	0	283115520	73	4636
2026-01-16 02:36:03.76	21.77	16.50	-51.5	-53.3	18.0	0.00e+00	0	47	0	285212672	73	4754
2026-01-16 02:36:04.77	21.66	16.60	-51.3	-53.1	18.2	0.00e+00	0	47	0	287309824	73	4645
2026-01-16 02:36:05.78	21.55	16.70	-51.4	-53.2	18.1	0.00e+00	0	47	0	289406976	73	4686
2026-01-16 02:36:06.79	21.44	16.80	-51.4	-53.2	18.1	0.00e+00	0	47	0	290455552	73	4654
2026-01-16 02:36:07.80	21.33	16.91	-50.9	-52.5	18.7	0.00e+00	0	47	0	292552704	73	4338
2026-01-16 02:36:08.81	21.22	17.01	-51.1	-52.9	18.4	0.00e+00	0	47	0	294649856	73	4505
2026-01-16 02:36:09.82	21.11	17.11	-51.2	-52.9	18.5	0.00e+00	0	47	0	296747008	73	4525
2026-01-16 02:36:10.83	20.99	17.21	-51.1	-52.9	18.4	0.00e+00	0	47	0	298844160	73	4503
2026-01-16 02:36:11.84	20.88	17.31	-51.1	-52.8	18.6	0.00e+00	0	47	0	300941312	73	4482
2026-01-16 02:36:12.85	20.77	17.42	-51.0	-52.7	18.5	0.00e+00	0	47	0	301989888	73	4429
2026-01-16 02:36:13.86	20.65	17.52	-51.1	-52.8	18.2	0.00e+00	0	47	0	304087040	73	4466
2026-01-16 02:36:14.86	20.54	17.62	-51.1	-52.8	18.5	0.00e+00	0	47	0	306184192	73	4446
2026-01-16 02:36:15.87	20.42	17.73	-51.1	-52.8	18.6	0.00e+00	0	47	0	308281344	73	4457
2026-01-16 02:36:16.88	20.30	17.83	-51.3	-53.0	18.3	0.00e+00	0	47	0	310378496	73	4575
2026-01-16 02:36:17.89	20.18	17.93	-51.2	-52.9	18.4	0.00e+00	0	47	0	311427072	73	4545
2026-01-16 02:36:18.90	20.06	18.04	-51.3	-53.0	18.3	0.00e+00	0	47	0	313524224	73	4587
2026-01-16 02:36:19.91	19.94	18.14	-51.1	-52.7	18.5	0.00e+00	0	47	0	315621376	73	4438
2026-01-16 02:36:20.92	19.82	18.25	-51.1	-52.7	18.5	0.00e+00	0	47	0	317718528	73	4432
2026-01-16 02:36:21.93	19.70	18.35	-51.3	-53.0	18.4	0.00e+00	0	47	0	319815680	73	4560
2026-01-16 02:36:22.93	19.58	18.46	-51.1	-52.8	18.5	0.00e+00	0	47	0	320864256	73	4456
2026-01-16 02:36:23.94	19.45	18.56	-50.8	-52.4	18.9	0.00e+00	0	47	0	322961408	73	4268
2026-01-16 02:36:24.95	19.33	18.67	-51.0	-52.6	18.8	0.00e+00	0	47	0	325058560	73	4357
2026-01-16 02:36:25.96	19.20	18.78	-50.9	-52.5	18.8	0.00e+00	0	47	0	327155712	73	4315
2026-01-16 02:36:26.97	19.08	18.89	-51.0	-52.6	18.7	0.00e+00	0	47	0	329252864	73	4353
2026-01-16 02:36:27.98	18.95	18.99	-51.0	-52.7	18.7	0.00e+00	0	47	0	330301440	73	4407
2026-01-16 02:36:28.99	18.82	19.10	-51.1	-52.7	18.6	0.00e+00	0	48	0	332398592	73	4427
2026-01-16 02:36:30.00	18.69	19.21	-51.0	-52.6	18.7	0.00e+00	0	47	0	334495744	73	4375
2026-01-16 02:36:31.01	18.56	19.32	-51.1	-52.7	18.6	0.00e+00	0	47	0	336592896	73	4438
2026-01-16 02:36:32.02	18.43	19.43	-51.1	-52.8	18.6	0.00e+00	0	47	0	338690048	73	4460
2026-01-16 02:36:33.03	18.30	19.53	-51.0	-52.7	18.7	0.00e+00	0	47	0	339738624	73	4395
2026-01-16 02:36:34.04	18.16	19.64	-51.2	-52.8	18.6	0.00e+00	0	48	0	341835776	73	4489
2026-01-16 02:36:35.05	18.03	19.75	-51.1	-52.7	18.6	0.00e+00	0	47	0	343932928	73	4439
2026-01-16 02:36:36.06	17.89	19.86	-51.1	-52.7	18.7	0.00e+00	0	47	0	346030080	73	4427
2026-01-16 02:36:37.06	17.76	19.97	-51.0	-52.6	18.8	0.00e+00	0	47	0	348127232	73	4382
2026-01-16 02:36:38.07	17.62	20.08	-51.2	-52.9	18.5	0.00e+00	0	47	0	349175808	73	4503
2026-01-16 02:36:39.09	17.48	20.20	-51.3	-53.0	18.4	0.00e+00	0	48	0	351272960	73	4573
2026-01-16 02:36:40.10	17.34	20.31	-51.4	-53.2	18.2	0.00e+00	0	47	0	353370112	73	4694
2026-01-16 02:36:41.11	17.20	20.42	-51.3	-53.0	18.3	0.00e+00	0	47	0	355467264	73	4595
2026-01-16 02:36:42.12	17.06	20.53	-51.3	-53.0	18.4	0.00e+00	0	47	0	357564416	73	4582
2026-01-16 02:36:43.12	16.92	20.64	-51.4	-53.1	18.3	0.00e+00	0	47	0	359661568	73	4638
2026-01-16 02:36:44.13	16.78	20.75	-51.2	-52.9	18.5	0.00e+00	0	47	0	360710144	73	4507
2026-01-16 02:36:45.15	16.63	20.87	-51.2	-52.8	18.5	0.00e+00	0	47	0	362807296	73	4487
2026-01-16 02:36:46.15	16.48	20.98	-51.2	-52.9	18.5	0.00e+00	0	47	0	364904448	73	4529
2026-01-16 02:36:47.16	16.34	21.09	-51.0	-52.7	18.7	0.00e+00	0	47	0	367001600	73	4392
2026-01-16 02:36:48.17	16.19	21.21	-51.0	-52.6	18.7	0.00e+00	0	47	0	368050176	73	4388
2026-01-16 02:36:49.18	16.04	21.32	-51.0	-52.7	18.7	0.00e+00	0	47	0	370147328	73	4402
2026-01-16 02:36:50.19	15.89	21.43	-51.1	-52.9	18.6	0.00e+00	0	47	0	372244480	73	4497
2026-01-16 02:36:51.20	15.74	21.55	-51.1	-52.7	18.6	0.00e+00	0	48	0	374341632	73	4437
2026-01-16 02:36:52.21	15.59	21.66	-51.3	-53.1	18.3	0.00e+00	0	48	0	376438784	73	4602
2026-01-16 02:36:53.22	15.43	21.78	-51.3	-53.1	18.3	0.00e+00	0	48	0	378535936	73	4621
2026-01-16 02:36:54.23	15.28	21.89	-51.6	-53.5	17.9	0.00e+00	0	48	0	379584512	73	4847
2026-01-16 02:36:55.24	15.12	22.01	-51.9	-53.9	17.6	0.00e+00	0	48	0	381681664	74	4764
2026-01-16 02:36:56.25	14.97	22.13	-51.8	-53.7	17.7	0.00e+00	0	48	0	383778816	74	4672
2026-01-16 02:36:57.26	14.81	22.24	-51.7	-53.6	17.8	0.00e+00	0	48	0	385875968	74	4641
2026-01-16 02:36:58.27	14.65	22.36	-52.0	-54.0	17.4	0.00e+00	0	48	0	387973120	74	4846
2026-01-16 02:36:59.28	14.49	22.48	-51.7	-53.6	17.9	0.00e+00	0	47	0	389021696	74	4604
2026-01-16 02:37:00.29	14.33	22.59	-51.8	-53.7	17.8	0.00e+00	0	48	0	391118848	74	4665
2026-01-16 02:37:01.30	14.16	22.71	-51.8	-53.7	17.8	0.00e+00	0	48	0	393216000	74	4652
2026-01-16 02:37:02.30	14.00	22.83	-51.9	-53.8	17.7	0.00e+00	0	48	0	395313152	74	4737
2026-01-16 02:37:03.32	13.83	22.95	-51.9	-53.8	17.7	0.00e+00	0	48	0	396361728	74	4759
2026-01-16 02:37:04.33	13.66	23.06	-52.1	-54.1	17.5	0.00e+00	0	48	0	398458880	74	4881
2026-01-16 02:37:05.34	13.50	23.18	-51.9	-53.9	17.6	0.00e+00	0	48	0	400556032	74	4763
2026-01-16 02:37:06.35	13.33	23.30	-51.8	-53.6	17.8	0.00e+00	0	48	0	402653184	74	4637
2026-01-16 02:37:07.36	13.16	23.42	-51.7	-53.6	17.9	0.00e+00	0	48	0	404750336	74	4614
2026-01-16 02:37:08.37	12.98	23.54	-51.6	-53.4	18.0	0.00e+00	0	48	0	406847488	74	4529
2026-01-16 02:37:09.38	12.81	23.66	-51.4	-53.2	18.3	0.00e+00	0	48	0	407896064	74	4419
2026-01-16 02:37:10.38	12.64	23.78	-51.3	-53.0	18.5	0.00e+00	0	48	0	409993216	74	4336
2026-01-16 02:37:11.39	12.46	23.90	-51.2	-52.9	18.6	0.00e+00	0	48	0	412090368	74	4285
2026-01-16 02:37:12.40	12.28	24.02	-51.2	-52.8	18.7	0.00e+00	0	48	0	414187520	74	4240
2026-01-16 02:37:13.41	12.10	24.14	-51.3	-53.0	18.5	0.00e+00	0	48	0	416284672	74	4306
2026-01-16 02:37:14.42	11.92	24.26	-50.8	-52.3	19.1	0.00e+00	0	48	0	418381824	73	4213
2026-01-16 02:37:15.43	11.74	24.38	-51.2	-52.8	18.6	0.00e+00	0	48	0	419430400	73	4493
2026-01-16 02:37:16.44	11.56	24.50	-51.2	-52.8	18.6	0.00e+00	0	48	0	421527552	73	4482
2026-01-16 02:37:17.45	11.37	24.63	-50.9	-52.5	18.9	0.00e+00	0	48	0	423624704	73	4333
2026-01-16 02:37:18.46	11.18	24.75	-50.9	-52.4	19.0	0.00e+00	0	48	0	425721856	73	4280
2026-01-16 02:37:19.47	11.00	24.87	-50.8	-52.3	19.1	0.00e+00	0	48	0	426770432	73	4235
2026-01-16 02:37:20.48	10.81	24.99	-50.8	-52.3	19.1	0.00e+00	0	48	0	428867584	72	4482
2026-01-16 02:37:21.49	10.62	25.12	-50.7	-52.3	19.2	0.00e+00	0	48	0	430964736	72	4446
2026-01-16 02:37:22.50	10.42	25.24	-50.7	-52.2	19.2	0.00e+00	0	48	0	433061888	72	4440
2026-01-16 02:37:23.51	10.23	25.36	-51.2	-52.9	18.6	0.00e+00	0	48	0	435159040	73	4527
2026-01-16 02:37:24.52	10.04	25.48	-51.5	-53.3	18.2	0.00e+00	0	48	0	437256192	73	4739
2026-01-16 02:37:25.52	9.84	25.61	-51.9	-53.8	17.7	0.00e+00	0	48	0	438304768	74	4747
2026-01-16 02:37:26.54	9.64	25.73	-51.9	-53.8	17.8	0.00e+00	0	48	0	440401920	74	4730
2026-01-16 02:37:27.54	9.44	25.85	-51.9	-53.8	17.6	0.00e+00	0	48	0	442499072	74	4742
2026-01-16 02:37:28.55	9.24	25.98	-51.9	-53.9	17.7	0.00e+00	0	48	0	444596224	74	4765
2026-01-16 02:37:29.56	9.04	26.10	-51.9	-53.8	17.8	0.00e+00	0	48	0	446693376	74	4727
2026-01-16 02:37:30.57	8.83	26.23	-51.9	-53.9	17.8	0.00e+00	0	48	0	447741952	74	4762
2026-01-16 02:37:31.58	8.62	26.35	-52.1	-54.1	17.6	0.00e+00	0	48	0	449839104	75	4600
2026-01-16 02:37:32.59	8.42	26.48	-52.3	-54.5	17.2	0.00e+00	0	48	0	451936256	75	4815
2026-01-16 02:37:33.60	8.21	26.60	-52.7	-55.0	16.5	0.00e+00	0	48	0	454033408	76	4851
2026-01-16 02:37:34.61	8.00	26.73	-52.7	-55.0	16.6	0.00e+00	0	48	0	455081984	76	4857
2026-01-16 02:37:35.62	7.78	26.85	-52.6	-54.8	16.7	0.00e+00	0	48	0	457179136	76	4726
2026-01-16 02:37:36.63	7.57	26.98	-52.7	-55.0	16.5	0.00e+00	0	48	0	459276288	76	4836
2026-01-16 02:37:37.64	7.35	27.10	-52.7	-55.0	16.5	0.00e+00	0	48	0	461373440	76	4860
2026-01-16 02:37:38.65	7.13	27.23	-53.0	-55.4	16.3	0.00e+00	0	48	0	463470592	76	5042
2026-01-16 02:37:39.66	6.91	27.35	-53.2	-55.7	15.9	0.00e+00	0	48	0	465567744	76	5263
2026-01-16 02:37:40.67	6.69	27.48	-53.2	-55.7	15.9	0.00e+00	0	48	0	466616320	77	4982
2026-01-16 02:37:41.68	6.47	27.60	-53.3	-55.9	15.7	0.00e+00	0	48	0	468713472	77	5100
2026-01-16 02:37:42.69	6.24	27.73	-53.6	-56.4	15.3	0.00e+00	0	48	0	470810624	77	5359
2026-01-16 02:37:43.69	6.02	27.85	-53.2	-55.7	15.8	0.00e+00	0	48	0	472907776	77	4952
2026-01-16 02:37:44.70	5.79	27.98	-53.2	-55.8	15.9	0.00e+00	0	48	0	475004928	77	4996
2026-01-16 02:37:45.72	5.55	28.11	-52.9	-55.3	16.3	0.00e+00	0	48	0	476053504	77	4756
2026-01-16 02:37:46.73	5.32	28.23	-52.7	-55.0	16.6	0.00e+00	0	48	0	478150656	77	4589
2026-01-16 02:37:47.74	5.09	28.36	-52.4	-54.6	17.0	0.00e+00	0	48	0	480247808	76	4617
2026-01-16 02:37:48.75	4.85	28.49	-52.3	-54.4	17.2	0.00e+00	0	48	0	482344960	76	4521
2026-01-16 02:37:49.75	4.61	28.61	-52.3	-54.3	17.3	0.00e+00	0	48	0	484442112	76	4468
2026-01-16 02:37:50.76	4.37	28.74	-52.5	-54.6	17.0	0.00e+00	0	48	0	485490688	76	4637
2026-01-16 02:37:51.77	4.13	28.86	-52.2	-54.2	17.5	0.00e+00	0	48	0	487587840	76	4430
2026-01-16 02:37:52.78	3.89	28.99	-52.4	-54.5	17.2	0.00e+00	0	48	0	489684992	76	4546
2026-01-16 02:37:53.79	3.64	29.12	-52.3	-54.3	17.3	0.00e+00	0	48	0	491782144	76	4451
2026-01-16 02:37:54.80	3.39	29.24	-52.2	-54.2	17.3	0.00e+00	0	48	0	493879296	75	4699
2026-01-16 02:37:55.81	3.14	29.37	-52.0	-53.9	17.7	0.00e+00	0	48	0	494927872	75	4508
2026-01-16 02:37:56.82	2.89	29.49	-51.8	-53.6	18.0	0.00e+00	0	48	0	497025024	75	4380
2026-01-16 02:37:57.83	2.63	29.62	-52.1	-54.1	17.6	0.00e+00	0	48	0	499122176	75	4607
2026-01-16 02:37:58.84	2.38	29.75	-52.1	-54.0	17.6	0.00e+00	0	48	0	501219328	75	4588
2026-01-16 02:37:59.85	2.12	29.87	-52.1	-54.1	17.6	0.00e+00	0	48	0	503316480	75	4607
2026-01-16 02:38:00.85	1.86	30.00	-52.1	-54.1	17.6	0.00e+00	0	48	0	504365056	75	4601
2026-01-16 02:38:01.87	1.60	30.12	-52.3	-54.2	17.4	0.00e+00	0	48	0	506462208	75	4700
2026-01-16 02:38:02.88	1.33	30.25	-52.5	-54.7	17.1	0.00e+00	0	48	0	508559360	76	4652
2026-01-16 02:38:03.88	1.07	30.37	-52.6	-54.7	16.9	0.00e+00	0	48	0	510656512	76	4701
2026-01-16 02:38:04.89	0.80	30.50	-53.0	-55.3	16.4	0.00e+00	0	48	0	512753664	76	5036
2026-01-16 02:38:05.90	0.53	30.62	-52.8	-55.0	16.6	0.00e+00	0	48	0	513802240	76	4828
2026-01-16 02:38:06.91	0.26	30.75	-52.9	-55.2	16.5	0.00e+00	0	48	0	515899392	76	4949
2026-01-16 02:38:07.92	359.98	30.87	-52.9	-55.1	16.6	0.00e+00	0	48	0	517996544	76	4921
2026-01-16 02:38:08.93	359.71	31.00	-52.7	-54.9	16.9	0.00e+00	0	48	0	520093696	76	4778
2026-01-16 02:38:09.94	359.43	31.12	-52.7	-54.9	16.8	0.00e+00	0	48	0	522190848	76	4781
2026-01-16 02:38:10.95	359.15	31.24	-52.5	-54.6	17.1	0.00e+00	0	48	0	524288000	76	4606
2026-01-16 02:38:11.96	358.86	31.37	-52.5	-54.5	17.2	0.00e+00	0	48	0	525336576	76	4597
2026-01-16 02:38:12.97	358.58	31.49	-52.3	-54.3	17.6	0.00e+00	0	48	0	527433728	76	4476
2026-01-16 02:38:13.98	358.29	31.61	-52.5	-54.6	17.1	0.00e+00	0	48	0	529530880	76	4633
2026-01-16 02:38:14.99	358.00	31.74	-52.4	-54.4	17.4	0.00e+00	0	48	0	531628032	76	4511
2026-01-16 02:38:16.00	357.71	31.86	-52.2	-54.2	17.5	0.00e+00	0	48	0	532676608	76	4408
2026-01-16 02:38:17.01	357.41	31.98	-52.2	-54.2	17.6	0.00e+00	0	48	0	534773760	76	4431
2026-01-16 02:38:18.02	357.11	32.10	-52.3	-54.3	17.4	0.00e+00	0	48	0	536870912	76	4478
2026-01-16 02:38:19.03	356.82	32.22	-52.3	-54.3	17.4	0.00e+00	0	48	0	538968064	76	4491
2026-01-16 02:38:20.04	356.51	32.34	-52.4	-54.4	17.3	0.00e+00	0	48	0	541065216	76	4526
2026-01-16 02:38:21.05	356.21	32.46	-52.6	-54.8	16.9	0.00e+00	0	48	0	543162368	76	4725
2026-01-16 02:38:22.06	355.90	32.58	-52.6	-54.8	16.9	0.00e+00	0	48	0	544210944	76	4745
2026-01-16 02:38:23.06	355.60	32.70	-52.8	-55.1	16.6	0.00e+00	0	48	0	546308096	76	4894
2026-01-16 02:38:24.07	355.29	32.82	-53.0	-55.4	16.1	0.00e+00	0	48	0	548405248	76	5099
2026-01-16 02:38:25.08	354.98	32.94	-52.8	-55.2	16.4	0.00e+00	0	48	0	550502400	76	4950
2026-01-16 02:38:26.09	354.66	33.06	-53.0	-55.5	16.1	0.00e+00	0	48	0	552599552	76	5153
2026-01-16 02:38:27.10	354.34	33.18	-53.1	-55.7	15.9	0.00e+00	0	48	0	553648128	77	4966
2026-01-16 02:38:28.11	354.02	33.29	-53.3	-56.0	15.7	0.00e+00	0	48	0	555745280	77	5126
2026-01-16 02:38:29.12	353.70	33.41	-53.1	-55.6	16.1	0.00e+00	0	48	0	557842432	77	4898
2026-01-16 02:38:30.13	353.38	33.53	-53.5	-56.4	15.2	0.00e+00	0	48	0	559939584	77	5393
2026-01-16 02:38:31.14	353.05	33.64	-54.0	-57.3	14.4	0.00e+00	0	48	0	562036736	78	5618
2026-01-16 02:38:32.15	352.72	33.75	-53.7	-56.7	15.0	0.00e+00	0	48	0	563085312	78	5253
2026-01-16 02:38:33.16	352.39	33.87	-53.8	-56.9	14.9	0.00e+00	0	48	0	565182464	78	5369
2026-01-16 02:38:34.17	352.06	33.98	-54.1	-57.5	14.5	0.00e+00	0	48	0	567279616	78	5739
2026-01-16 02:38:35.18	351.72	34.09	-54.0	-57.3	14.4	7.00e-07	0	48	0	569376768	79	5290
2026-01-16 02:38:36.19	351.38	34.21	-54.3	-57.7	14.0	3.80e-06	0	48	0	571473920	79	5581
2026-01-16 02:38:37.20	351.04	34.32	-55.0	-59.4	11.9	1.98e-05	0	49	0	572522496	80	6383
2026-01-16 02:38:38.21	350.70	34.43	-54.8	-58.9	12.7	2.74e-05	0	48	0	574619648	80	5996
2026-01-16 02:38:39.22	350.35	34.54	-55.0	-59.2	12.4	1.11e-04	0	48	0	576716800	80	6211
2026-01-16 02:38:40.23	350.01	34.64	-54.8	-58.8	12.7	1.90e-04	0	48	0	578813952	80	5991
2026-01-16 02:38:41.24	349.66	34.75	-54.6	-58.2	13.4	2.28e-05	0	48	0	580911104	80	5590
2026-01-16 02:38:42.25	349.30	34.86	-53.8	-56.7	14.8	3.00e-06	0	48	0	583008256	79	4966
2026-01-16 02:38:43.26	348.95	34.97	-53.8	-56.7	15.0	0.00e+00	0	48	0	584056832	79	4981
2026-01-16 02:38:44.27	348.59	35.07	-53.5	-56.1	15.6	0.00e+00	0	48	0	586153984	78	4916
2026-01-16 02:38:45.27	348.24	35.17	-52.6	-54.7	16.9	0.00e+00	0	48	0	588251136	76	4695
2026-01-16 02:38:46.28	347.87	35.28	-52.7	-55.1	16.6	0.00e+00	0	48	0	590348288	76	4871
2026-01-16 02:38:47.29	347.51	35.38	-52.6	-54.8	16.8	0.00e+00	0	48	0	591396864	76	4752
2026-01-16 02:38:48.30	347.14	35.48	-52.7	-55.0	16.7	0.00e+00	0	48	0	593494016	76	4831
2026-01-16 02:38:49.31	346.77	35.58	-53.0	-55.4	16.2	0.00e+00	0	48	0	595591168	76	5082
2026-01-16 02:38:50.32	346.40	35.68	-53.7	-56.7	14.9	0.00e+00	0	48	0	597688320	77	5553
2026-01-16 02:38:51.33	346.03	35.78	-53.7	-56.6	15.1	0.00e+00	0	48	0	599785472	78	5189
2026-01-16 02:38:52.34	345.66	35.87	-53.4	-56.2	15.5	0.00e+00	0	48	0	601882624	78	4975
2026-01-16 02:38:53.35	345.28	35.97	-53.1	-55.6	16.1	0.00e+00	0	48	0	602931200	78	4638
2026-01-16 02:38:54.36	344.90	36.06	-52.9	-55.3	16.5	0.00e+00	0	48	0	605028352	77	4719
2026-01-16 02:38:55.37	344.52	36.16	-52.9	-55.3	16.4	0.00e+00	0	48	0	607125504	77	4726
2026-01-16 02:38:56.38	344.13	36.25	-53.4	-56.2	15.6	0.00e+00	0	48	0	609222656	77	5243
2026-01-16 02:38:57.39	343.75	36.34	-53.5	-56.4	15.4	0.00e+00	0	48	0	611319808	77	5355
2026-01-16 02:38:58.40	343.36	36.43	-53.1	-55.6	16.2	0.00e+00	0	48	0	612368384	77	4892
2026-01-16 02:38:59.41	342.97	36.52	-52.5	-54.7	17.0	0.00e+00	0	48	0	614465536	77	4429
2026-01-16 02:39:00.42	342.57	36.61	-51.6	-53.4	18.2	0.00e+00	0	48	0	616562688	75	4255
2026-01-16 02:39:01.43	342.18	36.69	-51.1	-52.8	18.7	0.00e+00	0	48	0	618659840	74	4205
2026-01-16 02:39:02.44	341.78	36.78	-51.0	-52.7	18.8	0.00e+00	0	48	0	620756992	74	4176
2026-01-16 02:39:03.45	341.38	36.86	-51.4	-53.3	18.2	0.00e+00	0	48	0	621805568	74	4448
2026-01-16 02:39:04.46	340.98	36.94	-51.6	-53.5	18.1	0.00e+00	0	48	0	623902720	74	4553
2026-01-16 02:39:05.47	340.58	37.02	-51.5	-53.4	18.1	0.00e+00	0	48	0	625999872	74	4540
2026-01-16 02:39:06.48	340.17	37.10	-51.2	-52.9	18.7	0.00e+00	0	48	0	628097024	74	4270
2026-01-16 02:39:07.49	339.77	37.18	-50.7	-52.3	19.3	0.00e+00	0	48	0	630194176	73	4196
2026-01-16 02:39:08.50	339.36	37.26	-50.7	-52.4	19.1	0.00e+00	0	48	0	631242752	73	4255
2026-01-16 02:39:09.51	338.95	37.33	-51.0	-52.7	18.9	0.00e+00	0	48	0	633339904	73	4417
2026-01-16 02:39:10.52	338.53	37.40	-51.1	-52.8	18.8	0.00e+00	0	48	0	635437056	73	4475
2026-01-16 02:39:11.53	338.12	37.48	-50.7	-52.3	19.3	0.00e+00	0	48	0	637534208	73	4197
2026-01-16 02:39:12.54	337.70	37.55	-50.6	-52.1	19.4	0.00e+00	0	48	0	639631360	73	4138
2026-01-16 02:39:13.55	337.28	37.61	-50.6	-52.1	19.5	0.00e+00	0	48	0	640679936	72	4390
2026-01-16 02:39:14.56	336.86	37.68	-50.7	-52.4	19.2	0.00e+00	0	48	0	642777088	72	4513
2026-01-16 02:39:15.57	336.44	37.75	-51.1	-52.8	18.9	0.00e+00	0	48	0	644874240	72	4730
2026-01-16 02:39:16.58	336.02	37.81	-51.2	-52.9	18.7	0.00e+00	0	48	0	646971392	73	4534
2026-01-16 02:39:17.59	335.59	37.87	-51.4	-53.3	18.4	0.00e+00	0	48	0	649068544	73	4707
2026-01-16 02:39:18.60	335.17	37.93	-51.5	-53.4	18.3	0.00e+00	0	49	0	650117120	73	4783
2026-01-16 02:39:19.61	334.74	37.99	-51.6	-53.6	18.1	0.00e+00	0	48	0	652214272	73	4899
2026-01-16 02:39:20.62	334.31	38.05	-50.9	-52.7	18.9	0.00e+00	0	48	0	654311424	73	4410
2026-01-16 02:39:21.63	333.88	38.10	-50.8	-52.5	19.1	0.00e+00	0	48	0	656408576	73	4306
2026-01-16 02:39:22.64	333.44	38.15	-50.4	-52.0	19.5	0.00e+00	0	48	0	658505728	72	4305
2026-01-16 02:39:23.65	333.01	38.20	-49.7	-51.1	20.4	0.00e+00	0	48	0	660602880	71	4113
2026-01-16 02:39:24.66	332.57	38.25	-49.3	-50.6	20.9	0.00e+00	0	48	0	661651456	70	4103
2026-01-16 02:39:25.67	332.14	38.30	-49.1	-50.4	21.1	0.00e+00	0	48	0	663748608	70	4020
2026-01-16 02:39:26.68	331.70	38.35	-49.3	-50.6	21.0	0.00e+00	0	48	0	665845760	70	4103
2026-01-16 02:39:27.69	331.26	38.39	-49.3	-50.6	21.0	0.00e+00	0	48	0	667942912	70	4131
2026-01-16 02:39:28.70	330.82	38.43	-49.6	-51.0	20.7	0.00e+00	0	48	0	668991488	70	4295
2026-01-16 02:39:29.71	330.38	38.47	-49.6	-50.9	20.8	0.00e+00	0	48	0	671088640	70	4266
2026-01-16 02:39:30.72	329.93	38.51	-49.8	-51.1	20.6	0.00e+00	0	48	0	673185792	70	4343
2026-01-16 02:39:31.73	329.49	38.55	-50.2	-51.6	20.1	0.00e+00	0	48	0	675282944	71	4370
2026-01-16 02:39:32.74	329.05	38.58	-50.3	-51.7	20.0	0.00e+00	0	48	0	677380096	71	4440
2026-01-16 02:39:33.75	328.60	38.62	-50.1	-51.4	20.3	0.00e+00	0	48	0	679477248	71	4274
2026-01-16 02:39:34.76	328.15	38.65	-50.0	-51.3	20.4	0.00e+00	0	48	0	680525824	71	4225
2026-01-16 02:39:35.77	327.71	38.67	-50.0	-51.4	20.3	0.00e+00	0	48	0	682622976	71	4268
2026-01-16 02:39:36.78	327.26	38.70	-50.5	-52.0	19.8	0.00e+00	0	48	0	684720128	71	4555
2026-01-16 02:39:37.78	326.81	38.73	-50.5	-52.0	19.7	0.00e+00	0	48	0	686817280	72	4311
2026-01-16 02:39:38.80	326.36	38.75	-50.3	-51.8	19.9	0.00e+00	0	48	0	688914432	72	4210
2026-01-16 02:39:39.80	325.91	38.77	-50.1	-51.5	20.2	0.00e+00	0	48	0	689963008	72	4079
2026-01-16 02:39:40.81	325.46	38.79	-50.1	-51.5	20.1	0.00e+00	0	48	0	692060160	72	4085
2026-01-16 02:39:41.82	325.01	38.80	-50.0	-51.3	20.4	0.00e+00	0	48	0	694157312	71	4213
2026-01-16 02:39:42.83	324.56	38.82	-50.2	-51.6	20.2	0.00e+00	0	48	0	696254464	71	4374
2026-01-16 02:39:43.84	324.11	38.83	-50.7	-52.1	19.7	0.00e+00	0	48	0	698351616	71	4643
2026-01-16 02:39:44.85	323.66	38.84	-50.7	-52.2	19.6	0.00e+00	0	48	0	699400192	72	4420
2026-01-16 02:39:45.86	323.20	38.85	-50.2	-51.6	20.1	0.00e+00	0	48	0	701497344	72	4110
2026-01-16 02:39:46.87	322.75	38.86	-49.8	-51.0	20.7	0.00e+00	0	48	0	703594496	71	4095
2026-01-16 02:39:47.88	322.30	38.86	-49.8	-51.1	20.6	0.00e+00	0	48	0	705691648	71	4116
2026-01-16 02:39:48.89	321.85	38.86	-50.5	-52.0	19.9	0.00e+00	0	48	0	707788800	71	4569
2026-01-16 02:39:49.90	321.39	38.86	-51.0	-52.6	19.2	0.00e+00	0	49	0	708837376	72	4618
2026-01-16 02:39:50.91	320.94	38.86	-51.8	-53.7	18.1	0.00e+00	0	48	0	710934528	74	4693
2026-01-16 02:39:51.92	320.49	38.86	-52.0	-53.9	18.0	0.00e+00	0	48	0	713031680	74	4794
2026-01-16 02:39:52.93	320.03	38.85	-52.1	-54.1	17.8	0.00e+00	0	48	0	715128832	74	4880
2026-01-16 02:39:53.94	319.58	38.85	-52.1	-54.1	17.9	0.00e+00	0	48	0	717225984	74	4879
2026-01-16 02:39:54.95	319.13	38.84	-51.6	-53.4	18.5	0.00e+00	0	48	0	719323136	74	4507
2026-01-16 02:39:55.96	318.68	38.82	-51.4	-53.1	18.8	0.00e+00	0	48	0	720371712	74	4380
2026-01-16 02:39:56.97	318.22	38.81	-51.8	-53.6	18.0	0.00e+00	0	48	0	722468864	74	4619
2026-01-16 02:39:57.98	317.77	38.79	-51.9	-53.8	18.1	0.00e+00	0	48	0	724566016	74	4707
2026-01-16 02:39:58.99	317.32	38.78	-52.1	-54.1	17.8	0.00e+00	0	48	0	726663168	74	4884
2026-01-16 02:40:00.00	316.87	38.76	-52.2	-54.2	17.7	0.00e+00	0	48	0	727711744	75	4694
2026-01-16 02:40:01.01	316.42	38.73	-52.1	-54.1	17.8	0.00e+00	0	48	0	729808896	75	4599
2026-01-16 02:40:02.02	315.97	38.71	-51.9	-53.8	18.1	0.00e+00	0	48	0	731906048	75	4443
2026-01-16 02:40:03.03	315.52	38.68	-51.5	-53.2	18.6	0.00e+00	0	49	0	734003200	74	4407
2026-01-16 02:40:04.04	315.08	38.66	-51.5	-53.2	18.6	0.00e+00	0	48	0	736100352	74	4440
2026-01-16 02:40:05.05	314.63	38.63	-52.5	-54.6	17.2	0.00e+00	0	48	0	738197504	75	4909
2026-01-16 02:40:06.05	314.19	38.59	-53.6	-56.4	15.5	0.00e+00	0	48	0	739246080	77	5380
2026-01-16 02:40:07.06	313.74	38.56	-54.0	-57.0	14.8	0.00e+00	0	48	0	741343232	78	5464
2026-01-16 02:40:08.07	313.30	38.53	-53.8	-56.7	15.1	0.00e+00	0	48	0	743440384	78	5269
2026-01-16 02:40:09.08	312.86	38.49	-53.0	-55.4	16.6	0.00e+00	0	48	0	745537536	77	4763
2026-01-16 02:40:10.09	312.41	38.45	-52.7	-55.0	16.8	0.00e+00	0	48	0	747634688	77	4562
2026-01-16 02:40:11.10	311.97	38.41	-52.7	-55.0	16.8	0.00e+00	0	48	0	748683264	76	4817
2026-01-16 02:40:12.11	311.53	38.36	-53.0	-55.5	16.3	0.00e+00	0	49	0	750780416	76	5109
2026-01-16 02:40:13.12	311.09	38.32	-53.1	-55.6	16.2	0.00e+00	0	48	0	752877568	77	4922
2026-01-16 02:40:14.13	310.66	38.27	-53.8	-56.7	15.1	0.00e+00	0	48	0	754974720	78	5273
2026-01-16 02:40:15.14	310.22	38.22	-53.9	-57.0	14.7	0.00e+00	0	48	0	757071872	78	5461
2026-01-16 02:40:16.15	309.78	38.17	-53.8	-56.7	15.1	0.00e+00	0	49	0	758120448	79	4955
2026-01-16 02:40:17.16	309.35	38.12	-53.4	-56.1	15.8	0.00e+00	0	48	0	760217600	78	4886
2026-01-16 02:40:18.17	308.92	38.07	-52.6	-54.9	16.9	0.00e+00	0	48	0	762314752	77	4531
2026-01-16 02:40:19.18	308.49	38.01	-52.3	-54.5	17.3	0.00e+00	0	49	0	764411904	76	4563
2026-01-16 02:40:20.18	308.06	37.95	-52.2	-54.2	17.5	0.00e+00	0	48	0	766509056	76	4439
2026-01-16 02:40:21.20	307.63	37.89	-51.8	-53.8	17.9	0.00e+00	0	49	0	767557632	75	4477
2026-01-16 02:40:22.20	307.21	37.83	-52.5	-54.8	17.0	0.00e+00	0	49	0	769654784	75	5008
2026-01-16 02:40:23.21	306.78	37.77	-53.0	-55.6	16.1	0.00e+00	0	48	0	771751936	76	5201
2026-01-16 02:40:24.22	306.36	37.70	-54.1	-57.7	14.1	7.00e-07	0	49	0	773849088	78	5861
2026-01-16 02:40:25.24	305.94	37.64	-54.7	-58.9	12.9	6.10e-06	0	49	0	775946240	79	6408
2026-01-16 02:40:26.24	305.52	37.57	-54.6	-58.8	13.0	8.77e-05	0	48	0	776994816	80	5941
2026-01-16 02:40:27.25	305.10	37.50	-53.9	-57.2	14.4	3.00e-06	0	49	0	779091968	79	5252
2026-01-16 02:40:28.26	304.69	37.43	-53.0	-55.7	15.9	7.00e-07	0	48	0	781189120	78	4675
2026-01-16 02:40:29.27	304.27	37.36	-52.5	-54.9	16.6	0.00e+00	0	48	0	783286272	76	4768
2026-01-16 02:40:30.28	303.86	37.28	-51.9	-54.0	17.6	0.00e+00	0	49	0	785383424	75	4583
2026-01-16 02:40:31.29	303.45	37.21	-51.7	-53.7	17.9	0.00e+00	0	49	0	786432000	75	4430
2026-01-16 02:40:32.30	303.04	37.13	-51.9	-54.0	17.7	0.00e+00	0	49	0	788529152	75	4568
2026-01-16 02:40:33.31	302.64	37.05	-52.4	-54.6	17.1	0.00e+00	0	49	0	790626304	75	4923
2026-01-16 02:40:34.32	302.23	36.97	-52.7	-55.1	16.7	0.00e+00	0	48	0	792723456	76	4913
2026-01-16 02:40:35.33	301.83	36.89	-52.2	-54.3	17.3	0.00e+00	0	48	0	794820608	76	4491
2026-01-16 02:40:36.34	301.43	36.81	-50.8	-52.4	19.3	0.00e+00	0	48	0	796917760	73	4256
2026-01-16 02:40:37.35	301.03	36.72	-49.8	-51.1	20.5	0.00e+00	0	48	0	797966336	71	4107
2026-01-16 02:40:38.36	300.64	36.64	-49.4	-50.7	20.9	0.00e+00	0	48	0	800063488	70	4155
2026-01-16 02:40:39.37	300.24	36.55	-49.6	-50.9	20.7	0.00e+00	0	48	0	802160640	70	4265
2026-01-16 02:40:40.38	299.85	36.46	-49.8	-51.1	20.5	0.00e+00	0	48	0	804257792	70	4377
2026-01-16 02:40:41.38	299.46	36.37	-50.1	-51.5	20.2	0.00e+00	0	49	0	805306368	70	4550
2026-01-16 02:40:42.39	299.08	36.28	-50.5	-52.1	19.6	0.00e+00	0	49	0	807403520	71	4610
2026-01-16 02:40:43.40	298.69	36.19	-50.4	-52.0	19.7	0.00e+00	0	48	0	809500672	72	4318
2026-01-16 02:40:44.41	298.31	36.10	-50.8	-52.4	19.2	0.00e+00	0	49	0	811597824	72	4545
2026-01-16 02:40:45.42	297.93	36.00	-51.0	-52.7	19.0	0.00e+00	0	49	0	813694976	72	4697
2026-01-16 02:40:46.43	297.55	35.91	-51.1	-52.9	18.8	0.00e+00	0	49	0	815792128	73	4507
2026-01-16 02:40:47.44	297.17	35.81	-51.3	-53.1	18.7	0.00e+00	0	49	0	816840704	73	4620
2026-01-16 02:40:48.45	296.80	35.71	-50.6	-52.1	19.5	0.00e+00	0	48	0	818937856	73	4124
2026-01-16 02:40:49.46	296.42	35.61	-50.5	-52.0	19.7	0.00e+00	0	49	0	821035008	73	4095
2026-01-16 02:40:50.47	296.05	35.52	-51.6	-53.4	18.4	0.00e+00	0	49	0	823132160	73	4773
2026-01-16 02:40:51.48	295.69	35.41	-52.2	-54.3	17.6	0.00e+00	0	49	0	825229312	74	4996
2026-01-16 02:40:52.49	295.32	35.31	-52.3	-54.5	17.3	0.00e+00	0	49	0	826277888	75	4834
2026-01-16 02:40:53.50	294.96	35.21	-52.1	-54.1	17.7	0.00e+00	0	49	0	828375040	75	4604
2026-01-16 02:40:54.51	294.60	35.11	-52.4	-54.6	17.3	0.00e+00	0	49	0	830472192	75	4898
2026-01-16 02:40:55.52	294.24	35.00	-52.7	-55.0	16.8	0.00e+00	0	48	0	832569344	76	4864
2026-01-16 02:40:56.53	293.88	34.89	-52.3	-54.3	17.5	0.00e+00	0	49	0	834666496	76	4477
2026-01-16 02:40:57.54	293.53	34.79	-51.9	-53.8	18.0	0.00e+00	0	49	0	835715072	75	4448
2026-01-16 02:40:58.55	293.18	34.68	-51.9	-53.8	18.0	0.00e+00	0	49	0	837812224	75	4486
2026-01-16 02:40:59.56	292.83	34.57	-51.3	-53.1	18.7	0.00e+00	0	48	0	839909376	74	4343
2026-01-16 02:41:00.57	292.48	34.46	-51.4	-53.1	18.7	0.00e+00	0	49	0	842006528	74	4362
2026-01-16 02:41:01.58	292.14	34.35	-50.8	-52.3	19.4	0.00e+00	0	49	0	844103680	73	4196
2026-01-16 02:41:02.58	291.80	34.24	-50.9	-52.4	19.3	0.00e+00	0	49	0	845152256	73	4279
2026-01-16 02:41:03.59	291.46	34.13	-51.5	-53.2	18.5	0.00e+00	0	49	0	847249408	73	4699
2026-01-16 02:41:04.61	291.12	34.02	-52.0	-53.9	17.8	0.00e+00	0	49	0	849346560	74	4793
2026-01-16 02:41:05.61	290.79	33.91	-51.8	-53.6	18.1	0.00e+00	0	48	0	851443712	74	4604
2026-01-16 02:41:06.62	290.45	33.79	-51.1	-52.6	19.1	0.00e+00	0	49	0	853540864	74	4133
2026-01-16 02:41:07.63	290.12	33.68	-50.5	-51.9	19.7	0.00e+00	0	49	0	855638016	73	4045
2026-01-16 02:41:08.64	289.80	33.56	-51.1	-52.7	19.0	0.00e+00	0	48	0	856686592	73	4433
2026-01-16 02:41:09.65	289.47	33.45	-51.9	-53.7	18.1	0.00e+00	0	48	0	858783744	74	4688
2026-01-16 02:41:10.66	289.15	33.33	-52.2	-54.2	17.7	0.00e+00	0	48	0	860880896	75	4686
2026-01-16 02:41:11.67	288.83	33.21	-51.9	-53.7	17.9	0.00e+00	0	49	0	862978048	75	4412
2026-01-16 02:41:12.68	288.51	33.10	-51.8	-53.6	18.2	0.00e+00	0	48	0	864026624	75	4372
2026-01-16 02:41:13.69	288.19	32.98	-51.9	-53.8	18.0	0.00e+00	0	49	0	866123776	75	4456
2026-01-16 02:41:14.70	287.88	32.86	-51.7	-53.4	18.3	0.00e+00	0	48	0	868220928	75	4284
2026-01-16 02:41:15.71	287.56	32.74	-51.2	-52.8	18.9	0.00e+00	0	48	0	870318080	74	4197
2026-01-16 02:41:16.72	287.26	32.62	-51.2	-52.9	18.9	0.00e+00	0	48	0	872415232	74	4255
2026-01-16 02:41:17.73	286.95	32.50	-51.8	-53.6	18.2	0.00e+00	0	48	0	874512384	74	4619
2026-01-16 02:41:18.74	286.64	32.38	-52.4	-54.5	17.3	0.00e+00	0	49	0	875560960	75	4835
2026-01-16 02:41:19.75	286.34	32.26	-52.1	-54.1	17.7	0.00e+00	0	49	0	877658112	75	4600
2026-01-16 02:41:20.76	286.04	32.14	-52.4	-54.5	17.3	0.00e+00	0	49	0	879755264	75	4850
2026-01-16 02:41:21.77	285.74	32.02	-52.8	-55.1	16.7	0.00e+00	0	49	0	881852416	76	4886
2026-01-16 02:41:22.78	285.45	31.89	-53.3	-55.7	16.2	0.00e+00	0	48	0	883949568	77	4968
2026-01-16 02:41:23.79	285.15	31.77	-53.7	-56.4	15.5	0.00e+00	0	49	0	884998144	77	5398
2026-01-16 02:41:24.80	284.86	31.65	-53.8	-56.6	15.3	0.00e+00	0	49	0	887095296	78	5197
2026-01-16 02:41:25.81	284.57	31.53	-53.7	-56.3	15.5	0.00e+00	0	49	0	889192448	78	5039
2026-01-16 02:41:26.82	284.28	31.40	-53.4	-55.8	16.0	0.00e+00	0	49	0	891289600	78	4744
2026-01-16 02:41:27.83	284.00	31.28	-53.1	-55.4	16.6	0.00e+00	0	49	0	893386752	77	4771
2026-01-16 02:41:28.84	283.72	31.16	-53.4	-55.8	16.1	0.00e+00	0	49	0	894435328	77	5000
2026-01-16 02:41:29.85	283.44	31.03	-53.5	-56.0	15.9	0.00e+00	0	49	0	896532480	77	5111
2026-01-16 02:41:30.86	283.16	30.91	-53.2	-55.6	16.2	0.00e+00	0	48	0	898629632	77	4900
2026-01-16 02:41:31.87	282.88	30.78	-52.9	-55.1	16.7	0.00e+00	0	49	0	900726784	77	4631
2026-01-16 02:41:32.88	282.61	30.66	-52.4	-54.3	17.4	0.00e+00	0	48	0	902823936	76	4472
2026-01-16 02:41:33.89	282.34	30.53	-51.9	-53.7	18.0	0.00e+00	0	49	0	903872512	75	4414
2026-01-16 02:41:34.90	282.07	30.41	-51.7	-53.4	18.4	0.00e+00	0	48	0	905969664	75	4247
2026-01-16 02:41:35.91	281.80	30.28	-51.3	-52.9	18.9	0.00e+00	0	49	0	908066816	74	4247
2026-01-16 02:41:36.92	281.53	30.16	-50.8	-52.3	19.4	0.00e+00	0	49	0	910163968	73	4223
2026-01-16 02:41:37.93	281.27	30.03	-50.5	-51.9	19.8	0.00e+00	0	49	0	912261120	73	4026
2026-01-16 02:41:38.94	281.01	29.90	-50.3	-51.7	20.0	0.00e+00	0	49	0	913309696	72	4172
2026-01-16 02:41:39.95	280.75	29.78	-50.7	-52.1	19.6	0.00e+00	0	49	0	915406848	72	4380
2026-01-16 02:41:40.96	280.49	29.65	-51.0	-52.5	19.2	0.00e+00	0	49	0	917504000	72	4576
2026-01-16 02:41:41.97	280.24	29.53	-51.6	-53.4	18.3	0.00e+00	0	49	0	919601152	74	4509
2026-01-16 02:41:42.98	279.98	29.40	-52.1	-54.0	17.8	0.00e+00	0	49	0	921698304	74	4838
2026-01-16 02:41:43.99	279.73	29.27	-52.4	-54.5	17.4	0.00e+00	0	48	0	922746880	75	4819
2026-01-16 02:41:45.00	279.48	29.15	-53.0	-55.2	16.6	0.00e+00	0	49	0	924844032	76	4975
2026-01-16 02:41:46.01	279.23	29.02	-53.1	-55.4	16.5	0.00e+00	0	49	0	926941184	76	5071
2026-01-16 02:41:47.02	278.99	28.89	-53.1	-55.4	16.4	0.00e+00	0	49	0	929038336	77	4787
2026-01-16 02:41:48.03	278.75	28.77	-52.6	-54.7	17.1	0.00e+00	0	49	0	931135488	77	4403
2026-01-16 02:41:49.04	278.50	28.64	-52.5	-54.6	17.2	0.00e+00	0	49	0	933232640	76	4617
2026-01-16 02:41:50.04	278.27	28.52	-52.0	-53.9	17.9	0.00e+00	0	49	0	934281216	75	4535
2026-01-16 02:41:51.05	278.03	28.39	-51.7	-53.5	18.3	0.00e+00	0	49	0	936378368	75	4300
2026-01-16 02:41:52.06	277.79	28.26	-51.6	-53.4	18.4	0.00e+00	0	49	0	938475520	74	4501
2026-01-16 02:41:53.08	277.56	28.14	-51.8	-53.7	18.1	0.00e+00	0	49	0	940572672	74	4677
2026-01-16 02:41:54.09	277.32	28.01	-51.5	-53.2	18.5	0.00e+00	0	49	0	941621248	74	4407
2026-01-16 02:41:55.10	277.09	27.88	-51.3	-53.0	18.8	0.00e+00	0	49	0	943718400	74	4302
2026-01-16 02:41:56.11	276.87	27.76	-51.0	-52.6	19.1	0.00e+00	0	49	0	945815552	73	4375
2026-01-16 02:41:57.12	276.64	27.63	-50.7	-52.2	19.5	0.00e+00	0	49	0	947912704	73	4171
2026-01-16 02:41:58.13	276.41	27.50	-50.7	-52.2	19.4	0.00e+00	0	48	0	950009856	73	4189
2026-01-16 02:41:59.14	276.19	27.38	-50.4	-51.9	19.7	0.00e+00	0	49	0	952107008	72	4261
2026-01-16 02:42:00.15	275.97	27.25	-50.4	-51.8	19.8	0.00e+00	0	49	0	953155584	72	4213
2026-01-16 02:42:01.16	275.75	27.13	-50.4	-51.8	19.8	0.00e+00	0	48	0	955252736	72	4226
2026-01-16 02:42:02.17	275.53	27.00	-50.4	-51.8	19.8	0.00e+00	0	48	0	957349888	72	4214
2026-01-16 02:42:03.18	275.32	26.88	-50.4	-51.8	19.8	0.00e+00	0	49	0	959447040	72	4211
2026-01-16 02:42:04.18	275.10	26.75	-50.7	-52.2	19.4	0.00e+00	0	49	0	961544192	72	4392
2026-01-16 02:42:05.19	274.89	26.63	-51.0	-52.6	19.1	0.00e+00	0	49	0	962592768	72	4611
2026-01-16 02:42:06.20	274.68	26.50	-51.3	-52.9	18.8	0.00e+00	0	49	0	964689920	73	4537
2026-01-16 02:42:07.21	274.47	26.38	-51.6	-53.4	18.2	0.00e+00	0	49	0	966787072	73	4810
2026-01-16 02:42:08.22	274.26	26.25	-51.9	-53.8	17.8	0.00e+00	0	49	0	968884224	74	4722
2026-01-16 02:42:09.24	274.06	26.13	-52.0	-54.0	17.8	0.00e+00	0	49	0	970981376	74	4829
2026-01-16 02:42:10.24	273.85	26.00	-51.7	-53.5	18.0	0.00e+00	0	48	0	972029952	74	4556
2026-01-16 02:42:11.25	273.65	25.88	-51.9	-53.8	17.9	0.00e+00	0	49	0	974127104	74	4737
2026-01-16 02:42:12.26	273.45	25.75	-52.0	-53.9	17.8	0.00e+00	0	49	0	976224256	74	4793
2026-01-16 02:42:13.27	273.25	25.63	-51.7	-53.5	18.1	0.00e+00	0	49	0	978321408	74	4579
2026-01-16 02:42:14.28	273.05	25.51	-51.8	-53.6	18.1	0.00e+00	0	49	0	980418560	74	4629
2026-01-16 02:42:15.29	272.86	25.38	-51.6	-53.4	18.3	0.00e+00	0	48	0	981467136	74	4509
2026-01-16 02:42:16.31	272.66	25.26	-51.6	-53.4	18.3	0.00e+00	0	49	0	983564288	74	4497
2026-01-16 02:42:17.32	272.47	25.13	-51.3	-53.0	18.7	0.00e+00	0	49	0	985661440	74	4317
2026-01-16 02:42:18.33	272.27	25.01	-51.4	-53.2	18.4	0.00e+00	0	48	0	987758592	74	4397
2026-01-16 02:42:19.34	272.08	24.89	-51.0	-52.6	19.0	0.00e+00	0	48	0	989855744	74	4122
2026-01-16 02:42:20.35	271.89	24.77	-51.1	-52.7	18.9	0.00e+00	0	49	0	990904320	73	4406
2026-01-16 02:42:21.36	271.71	24.64	-51.0	-52.6	19.0	0.00e+00	0	49	0	993001472	73	4360
2026-01-16 02:42:22.37	271.52	24.52	-51.0	-52.6	18.9	0.00e+00	0	49	0	995098624	73	4382
2026-01-16 02:42:23.38	271.34	24.40	-51.2	-52.9	18.8	0.00e+00	0	49	0	997195776	73	4526
2026-01-16 02:42:24.39	271.15	24.28	-51.1	-52.7	18.9	0.00e+00	0	49	0	999292928	73	4426
2026-01-16 02:42:25.40	270.97	24.16	-51.2	-52.9	18.7	0.00e+00	0	48	0	1000341504	73	4524
2026-01-16 02:42:26.41	270.79	24.04	-51.1	-52.7	18.9	0.00e+00	0	49	0	1002438656	73	4430
2026-01-16 02:42:27.42	270.61	23.92	-51.2	-52.8	18.8	0.00e+00	0	48	0	1004535808	73	4483
2026-01-16 02:42:28.43	270.44	23.79	-51.2	-52.9	18.8	0.00e+00	0	48	0	1006632960	73	4511
2026-01-16 02:42:29.44	270.26	23.67	-51.5	-53.3	18.4	0.00e+00	0	49	0	1008730112	73	4722
2026-01-16 02:42:30.45	270.09	23.55	-51.4	-53.1	18.5	0.00e+00	0	48	0	1010827264	73	4611
2026-01-16 02:42:31.46	269.91	23.43	-51.4	-53.1	18.6	0.00e+00	0	49	0	1011875840	73	4629
2026-01-16 02:42:32.47	269.74	23.32	-51.6	-53.4	18.2	0.00e+00	0	49	0	1013972992	74	4537
2026-01-16 02:42:33.48	269.57	23.20	-51.8	-53.7	17.9	0.00e+00	0	49	0	1016070144	74	4668
2026-01-16 02:42:34.49	269.40	23.08	-51.9	-53.7	17.9	0.00e+00	0	49	0	1018167296	74	4704
2026-01-16 02:42:35.50	269.23	22.96	-52.1	-54.1	17.6	0.00e+00	0	49	0	1020264448	74	4886
2026-01-16 02:42:36.51	269.07	22.84	-52.3	-54.4	17.3	0.00e+00	0	49	0	1021313024	75	4770
2026-01-16 02:42:37.52	268.90	22.72	-52.1	-54.0	17.6	0.00e+00	0	48	0	1023410176	75	4595
2026-01-16 02:42:38.53	268.74	22.60	-52.3	-54.4	17.3	0.00e+00	0	48	0	1025507328	75	4777
2026-01-16 02:42:39.54	268.57	22.49	-52.2	-54.3	17.5	0.00e+00	0	49	0	1027604480	75	4709
2026-01-16 02:42:40.55	268.41	22.37	-51.9	-53.8	17.7	0.00e+00	0	49	0	1029701632	75	4488
2026-01-16 02:42:41.56	268.25	22.25	-51.5	-53.3	18.3	0.00e+00	0	48	0	1030750208	75	4217
2026-01-16 02:42:42.57	268.09	22.14	-51.4	-53.2	18.4	0.00e+00	0	49	0	1032847360	74	4395
2026-01-16 02:42:43.58	267.93	22.02	-50.8	-52.4	19.1	0.00e+00	0	48	0	1034944512	73	4262
2026-01-16 02:42:44.59	267.78	21.90	-50.6	-52.1	19.4	0.00e+00	0	49	0	1037041664	73	4141
2026-01-16 02:42:45.60	267.62	21.79	-50.7	-52.3	19.2	0.00e+00	0	49	0	1039138816	73	4211
2026-01-16 02:42:46.61	267.47	21.67	-50.6	-52.1	19.5	0.00e+00	0	48	0	1040187392	72	4343
2026-01-16 02:42:47.62	267.31	21.56	-51.0	-52.5	19.0	0.00e+00	0	48	0	1042284544	72	4597
2026-01-16 02:42:48.62	267.16	21.44	-51.3	-53.0	18.6	0.00e+00	0	49	0	1044381696	73	4551
2026-01-16 02:42:49.64	267.01	21.33	-51.4	-53.1	18.4	0.00e+00	0	48	0	1046478848	73	4637
2026-01-16 02:42:50.64	266.86	21.21	-51.2	-52.9	18.6	0.00e+00	0	49	0	1048576000	73	4512
2026-01-16 02:42:51.65	266.71	21.10	-51.3	-53.0	18.5	0.00e+00	0	49	0	1049624576	73	4572
2026-01-16 02:42:52.66	266.57	20.99	-51.1	-52.7	18.8	0.00e+00	0	48	0	1051721728	73	4429
2026-01-16 02:42:53.67	266.42	20.87	-50.9	-52.5	19.0	0.00e+00	0	49	0	1053818880	73	4298
2026-01-16 02:42:54.68	266.28	20.76	-50.5	-52.0	19.5	0.00e+00	0	49	0	1055916032	73	4075
2026-01-16 02:42:55.69	266.13	20.65	-50.5	-52.0	19.5	0.00e+00	0	49	0	1058013184	72	4294
2026-01-16 02:42:56.70	265.99	20.53	-50.3	-51.8	19.6	0.00e+00	0	49	0	1059061760	72	4216
2026-01-16 02:42:57.71	265.85	20.42	-50.2	-51.6	19.8	0.00e+00	0	49	0	1061158912	72	4118
2026-01-16 02:42:58.72	265.70	20.31	-50.7	-52.2	19.2	0.00e+00	0	49	0	1063256064	72	4439
2026-01-16 02:42:59.73	265.56	20.20	-51.1	-52.8	18.7	0.00e+00	0	49	0	1065353216	72	4730
2026-01-16 02:43:00.74	265.43	20.09	-51.4	-53.2	18.4	0.00e+00	0	49	0	1067450368	73	4661
2026-01-16 02:43:01.75	265.29	19.98	-51.9	-53.8	17.7	0.00e+00	0	48	0	1069547520	74	4747
2026-01-16 02:43:02.76	265.15	19.87	-52.6	-54.8	16.8	0.00e+00	0	48	0	1070596096	75	5024
2026-01-16 02:43:03.76	265.02	19.76	-52.9	-55.3	16.4	0.00e+00	0	49	0	1072693248	76	4986
2026-01-16 02:43:04.77	264.88	19.65	-53.4	-56.0	15.6	0.00e+00	0	49	0	1074790400	77	5139
2026-01-16 02:43:05.78	264.75	19.54	-53.4	-56.1	15.5	0.00e+00	0	49	0	1076887552	77	5186
2026-01-16 02:43:06.79	264.61	19.43	-53.4	-56.0	15.6	0.00e+00	0	49	0	1077936128	78	4839
2026-01-16 02:43:07.80	264.48	19.32	-53.5	-56.3	15.2	0.00e+00	0	49	0	1080033280	78	5007
2026-01-16 02:43:08.81	264.35	19.21	-53.4	-56.1	15.5	0.00e+00	0	49	0	1082130432	78	4906
2026-01-16 02:43:09.82	264.22	19.10	-53.1	-55.6	16.0	0.00e+00	0	49	0	1084227584	78	4604
2026-01-16 02:43:10.83	264.09	18.99	-52.8	-55.2	16.4	0.00e+00	0	49	0	1086324736	77	4656
2026-01-16 02:43:11.84	263.96	18.89	-52.5	-54.6	16.9	0.00e+00	0	49	0	1088421888	76	4641
2026-01-16 02:43:12.85	263.84	18.78	-52.1	-54.1	17.4	0.00e+00	0	49	0	1089470464	76	4343
2026-01-16 02:43:13.86	263.71	18.67	-51.7	-53.5	18.0	0.00e+00	0	49	0	1091567616	75	4339
2026-01-16 02:43:14.87	263.58	18.57	-51.7	-53.5	17.9	0.00e+00	0	49	0	1093664768	75	4337
2026-01-16 02:43:15.88	263.46	18.46	-51.7	-53.6	17.9	0.00e+00	0	49	0	1095761920	75	4345
2026-01-16 02:43:16.89	263.33	18.35	-51.9	-53.8	17.7	0.00e+00	0	49	0	1097859072	75	4463
2026-01-16 02:43:17.90	263.21	18.25	-52.1	-54.2	17.3	0.00e+00	0	49	0	1098907648	75	4673
2026-01-16 02:43:18.91	263.09	18.14	-52.2	-54.3	17.3	0.00e+00	0	49	0	1101004800	75	4720
2026-01-16 02:43:19.92	262.97	18.04	-52.4	-54.6	16.9	0.00e+00	0	49	0	1103101952	75	4889
2026-01-16 02:43:20.93	262.85	17.93	-52.7	-54.9	16.6	0.00e+00	0	49	0	1105199104	76	4811
2026-01-16 02:43:21.93	262.73	17.83	-52.6	-54.8	16.7	0.00e+00	0	49	0	1107296256	76	4722
2026-01-16 02:43:22.94	262.61	17.72	-52.3	-54.5	17.0	0.00e+00	0	49	0	1108344832	76	4554
2026-01-16 02:43:23.95	262.49	17.62	-52.0	-54.0	17.5	0.00e+00	0	49	0	1110441984	76	4304
2026-01-16 02:43:24.96	262.38	17.52	-51.8	-53.7	17.8	0.00e+00	0	49	0	1112539136	75	4397
2026-01-16 02:43:25.97	262.26	17.41	-51.3	-53.0	18.3	0.00e+00	0	49	0	1114636288	74	4340
2026-01-16 02:43:26.98	262.14	17.31	-51.2	-52.9	18.5	0.00e+00	0	49	0	1116733440	74	4259
2026-01-16 02:43:27.99	262.03	17.21	-51.1	-52.8	18.6	0.00e+00	0	49	0	1117782016	74	4234
2026-01-16 02:43:29.00	261.92	17.10	-51.0	-52.7	18.7	0.00e+00	0	49	0	1119879168	73	4396
2026-01-16 02:43:30.01	261.80	17.00	-50.9	-52.6	18.8	0.00e+00	0	49	0	1121976320	73	4352
2026-01-16 02:43:31.02	261.69	16.90	-51.0	-52.7	18.6	0.00e+00	0	49	0	1124073472	73	4427
2026-01-16 02:43:32.03	261.58	16.80	-51.4	-53.2	18.2	0.00e+00	0	49	0	1126170624	73	4678
2026-01-16 02:43:33.04	261.47	16.70	-51.5	-53.4	18.0	0.00e+00	0	48	0	1127219200	73	4762
2026-01-16 02:43:34.05	261.36	16.60	-51.6	-53.4	17.9	0.00e+00	0	49	0	1129316352	73	4814
2026-01-16 02:43:35.06	261.25	16.50	-51.9	-53.9	17.5	0.00e+00	0	49	0	1131413504	74	4784
2026-01-16 02:43:36.07	261.14	16.40	-51.8	-53.7	17.7	0.00e+00	0	49	0	1133510656	74	4677
2026-01-16 02:43:37.08	261.03	16.30	-51.9	-53.8	17.6	0.00e+00	0	49	0	1135607808	74	4746
2026-01-16 02:43:38.09	260.93	16.20	-51.8	-53.7	17.7	0.00e+00	0	49	0	1136656384	74	4687
2026-01-16 02:43:39.10	260.82	16.10	-51.7	-53.6	17.8	0.00e+00	0	49	0	1138753536	74	4641
2026-01-16 02:43:40.11	260.72	16.00	-51.7	-53.6	17.8	0.00e+00	0	49	0	1140850688	74	4627
2026-01-16 02:43:41.12	260.61	15.90	-51.7	-53.6	17.8	0.00e+00	0	49	0	1142947840	74	4609
2026-01-16 02:43:42.13	260.51	15.80	-51.8	-53.7	17.7	0.00e+00	0	49	0	1145044992	74	4683
2026-01-16 02:43:43.14	260.40	15.70	-51.9	-53.8	17.6	0.00e+00	0	49	0	1147142144	74	4726
2026-01-16 02:43:44.15	260.30	15.60	-52.1	-54.1	17.4	0.00e+00	0	49	0	1148190720	74	4885
2026-01-16 02:43:45.16	260.20	15.51	-51.8	-53.7	17.7	0.00e+00	0	49	0	1150287872	74	4663
2026-01-16 02:43:46.17	260.10	15.41	-51.9	-53.9	17.5	0.00e+00	0	49	0	1152385024	74	4772
2026-01-16 02:43:47.18	260.00	15.31	-51.9	-53.9	17.5	0.00e+00	0	49	0	1154482176	74	4784
2026-01-16 02:43:48.19	259.90	15.22	-51.8	-53.8	17.6	0.00e+00	0	49	0	1155530752	74	4708
2026-01-16 02:43:49.20	259.80	15.12	-51.7	-53.5	17.8	0.00e+00	0	49	0	1157627904	74	4573
2026-01-16 02:43:50.20	259.70	15.02	-51.6	-53.5	17.9	0.00e+00	0	49	0	1159725056	74	4549
2026-01-16 02:43:51.21	259.60	14.93	-51.6	-53.4	17.9	0.00e+00	0	49	0	1161822208	74	4545
2026-01-16 02:43:52.22	259.50	14.83	-51.4	-53.2	18.1	0.00e+00	0	49	0	1163919360	74	4421
2026-01-16 02:43:53.23	259.41	14.74	-51.6	-53.4	18.0	0.00e+00	0	49	0	1166016512	74	4502
2026-01-16 02:43:54.24	259.31	14.64	-51.7	-53.6	17.8	0.00e+00	0	49	0	1167065088	74	4631
2026-01-16 02:43:55.25	259.22	14.55	-51.7	-53.5	17.8	0.00e+00	0	49	0	1169162240	74	4595
2026-01-16 02:43:56.25	259.12	14.46	-51.8	-53.8	17.6	0.00e+00	0	49	0	1171259392	74	4706
2026-01-16 02:43:57.26	259.03	14.36	-52.1	-54.1	17.3	0.00e+00	0	49	0	1173356544	74	4897
2026-01-16 02:43:58.27	258.93	14.27	-52.2	-54.3	17.0	0.00e+00	0	49	0	1175453696	75	4751
2026-01-16 02:43:59.28	258.84	14.17	-52.5	-54.7	16.7	0.00e+00	0	49	0	1176502272	75	4941
2026-01-16 02:44:00.29	258.75	14.08	-52.9	-55.3	16.1	0.00e+00	0	49	0	1178599424	76	4987
2026-01-16 02:44:01.30	258.66	13.99	-52.8	-55.1	16.3	0.00e+00	0	49	0	1180696576	76	4898
2026-01-16 02:44:02.31	258.57	13.90	-52.9	-55.3	16.0	0.00e+00	0	49	0	1182793728	76	5004
2026-01-16 02:44:03.32	258.48	13.80	-52.9	-55.3	16.1	0.00e+00	0	49	0	1184890880	76	5021
2026-01-16 02:44:04.33	258.39	13.71	-52.8	-55.2	16.1	0.00e+00	0	49	0	1185939456	76	4970
2026-01-16 02:44:05.34	258.30	13.62	-52.6	-54.9	16.4	0.00e+00	0	49	0	1188036608	76	4797
2026-01-16 02:44:06.35	258.21	13.53	-52.6	-54.8	16.5	0.00e+00	0	49	0	1190133760	76	4757
2026-01-16 02:44:07.36	258.12	13.44	-52.4	-54.6	16.7	0.00e+00	0	49	0	1192230912	76	4635
2026-01-16 02:44:08.37	258.03	13.34	-52.1	-54.2	17.2	0.00e+00	0	49	0	1194328064	76	4395
2026-01-16 02:44:09.38	257.94	13.25	-51.8	-53.8	17.5	0.00e+00	0	49	0	1195376640	75	4476
2026-01-16 02:44:10.39	257.86	13.16	-51.7	-53.6	17.7	0.00e+00	0	49	0	1197473792	75	4362
2026-01-16 02:44:11.40	257.77	13.07	-51.6	-53.5	17.8	0.00e+00	0	49	0	1199570944	75	4318
2026-01-16 02:44:12.41	257.69	12.98	-51.6	-53.5	17.8	0.00e+00	0	49	0	1201668096	75	4314
2026-01-16 02:44:13.41	257.60	12.89	-51.5	-53.3	17.9	0.00e+00	0	49	0	1203765248	74	4481
2026-01-16 02:44:14.42	257.52	12.81	-51.5	-53.4	17.9	0.00e+00	0	49	0	1205862400	74	4502
2026-01-16 02:44:15.43	257.43	12.72	-51.5	-53.4	17.8	0.00e+00	0	49	0	1206910976	74	4507
2026-01-16 02:44:16.44	257.35	12.63	-51.5	-53.3	17.9	0.00e+00	0	49	0	1209008128	74	4479
2026-01-16 02:44:17.45	257.27	12.54	-51.7	-53.6	17.6	0.00e+00	0	49	0	1211105280	74	4622
2026-01-16 02:44:18.46	257.18	12.45	-51.6	-53.5	17.7	0.00e+00	0	49	0	1213202432	74	4577
2026-01-16 02:44:19.47	257.10	12.36	-51.5	-53.4	17.9	0.00e+00	0	49	0	1214251008	74	4494
2026-01-16 02:44:20.48	257.02	12.27	-51.5	-53.3	17.9	0.00e+00	0	49	0	1216348160	74	4467
2026-01-16 02:44:21.49	256.94	12.19	-51.5	-53.4	17.8	0.00e+00	0	49	0	1218445312	74	4497
2026-01-16 02:44:22.50	256.86	12.10	-51.6	-53.4	17.8	0.00e+00	0	49	0	1220542464	74	4536
2026-01-16 02:44:23.51	256.78	12.01	-51.6	-53.5	17.7	0.00e+00	0	49	0	1222639616	74	4585
2026-01-16 02:44:24.52	256.70	11.93	-51.6	-53.5	17.7	0.00e+00	0	49	0	1224736768	74	4590
2026-01-16 02:44:25.53	256.62	11.84	-51.6	-53.5	17.7	0.00e+00	0	49	0	1225785344	74	4548
2026-01-16 02:44:26.54	256.54	11.75	-51.6	-53.4	17.7	0.00e+00	0	49	0	1227882496	74	4535
2026-01-16 02:44:27.55	256.47	11.67	-51.8	-53.7	17.5	0.00e+00	0	49	0	1229979648	74	4685
2026-01-16 02:44:28.56	256.39	11.58	-51.7	-53.7	17.6	0.00e+00	0	49	0	1232076800	74	4659
2026-01-16 02:44:29.56	256.31	11.50	-51.8	-53.7	17.5	0.00e+00	0	49	0	1234173952	74	4678
2026-01-16 02:44:30.58	256.23	11.41	-51.8	-53.8	17.4	0.00e+00	0	49	0	1235222528	74	4728
2026-01-16 02:44:31.58	256.16	11.33	-51.7	-53.6	17.6	0.00e+00	0	49	0	1237319680	74	4624
2026-01-16 02:44:32.59	256.08	11.24	-51.8	-53.7	17.5	0.00e+00	0	49	0	1239416832	74	4668
