passes_logs/2026/01/16/R3.2S_Murmansk/R3.2S_Murmansk__20260116_222336_NOAA_21_JPSS-2_rec.log

#Pass ID: 20260116_222336_NOAA 21 (JPSS-2)
#Satellite: NOAA 21 (JPSS-2)
#Configuration: NOAA-21
#almurnet v.1.7.20251203
#Start time: 2026-01-16 22:23:37

#Version: 2.2.20231116
#Station: R3.2S_Murmansk
#Location: 33.079688 lon 68.888172 lat
#TLE: 1 54234U 22150A   26015.92901934  .00000025  00000+0  32700-4 0  9991
#TLE: 2 54234  98.7499 316.8175 0000634 284.8145  75.2961 14.19534841164946

#Time	Az	El	Level	Level2	SNR	BER	BlckErr	Temp	State	Recorded	gain1	gain2
2026-01-16 22:23:37.29	18.83	2.02	-51.6	-64.3	3.8	1.49e+00	0	31	0	0	75	14998
2026-01-16 22:23:38.29	18.90	2.08	-51.5	-64.2	3.8	1.49e+00	0	31	104	0	73	16656
2026-01-16 22:23:39.30	18.97	2.13	-51.5	-64.3	3.8	1.49e+00	0	31	104	0	73	16721
2026-01-16 22:23:40.30	19.04	2.19	-51.5	-64.2	3.8	1.49e+00	0	31	104	0	73	16599
2026-01-16 22:23:41.31	19.11	2.24	-51.5	-64.2	3.8	1.49e+00	0	32	104	0	73	16674
2026-01-16 22:23:42.32	19.18	2.30	-51.5	-64.2	3.8	1.49e+00	0	32	104	0	73	16658
2026-01-16 22:23:43.33	19.25	2.36	-51.5	-64.2	3.8	1.49e+00	0	31	104	0	73	16677
2026-01-16 22:23:44.34	19.32	2.41	-51.5	-64.3	3.8	1.49e+00	0	32	104	0	73	16707
2026-01-16 22:23:45.35	19.39	2.47	-51.5	-64.3	3.8	1.49e+00	0	32	104	0	73	16716
2026-01-16 22:23:46.36	19.46	2.52	-51.5	-64.2	3.8	1.49e+00	0	32	104	0	73	16669
2026-01-16 22:23:47.36	19.53	2.58	-51.5	-64.2	3.8	1.49e+00	0	31	104	0	73	16684
2026-01-16 22:23:48.37	19.60	2.64	-51.5	-64.2	3.8	1.49e+00	0	32	104	0	73	16570
2026-01-16 22:23:49.38	19.67	2.69	-51.5	-64.2	3.8	1.49e+00	0	32	104	0	73	16559
2026-01-16 22:23:50.39	19.75	2.75	-51.5	-64.2	3.8	1.49e+00	0	32	104	0	73	16538
2026-01-16 22:23:51.40	19.82	2.81	-51.5	-64.2	3.8	1.49e+00	0	32	104	0	73	16668
2026-01-16 22:23:52.40	19.89	2.86	-51.5	-64.3	3.8	1.49e+00	0	32	104	0	73	16790
2026-01-16 22:23:53.41	19.96	2.92	-51.5	-64.3	3.8	1.49e+00	0	32	104	0	73	16806
2026-01-16 22:23:54.42	20.04	2.98	-51.5	-64.3	3.8	1.49e+00	0	32	104	0	73	16742
2026-01-16 22:23:55.43	20.11	3.03	-51.5	-64.2	3.8	1.49e+00	0	32	104	0	73	16547
2026-01-16 22:23:56.44	20.18	3.09	-51.5	-64.0	3.8	1.49e+00	0	32	104	0	73	16294
2026-01-16 22:23:57.45	20.26	3.15	-51.5	-63.9	3.8	1.49e+00	0	32	104	0	73	16099
2026-01-16 22:23:58.46	20.33	3.21	-51.5	-63.7	3.8	1.49e+00	0	32	104	0	73	15666
2026-01-16 22:23:59.46	20.40	3.26	-51.5	-63.6	3.8	1.49e+00	0	32	104	0	73	15521
2026-01-16 22:24:00.47	20.48	3.32	-51.5	-63.7	3.8	1.49e+00	0	32	104	0	73	15601
2026-01-16 22:24:01.48	20.55	3.38	-51.5	-63.7	3.8	1.49e+00	0	32	104	0	73	15637
2026-01-16 22:24:02.49	20.63	3.44	-51.5	-63.7	3.8	1.49e+00	0	32	104	0	73	15731
2026-01-16 22:24:03.50	20.70	3.49	-51.5	-63.9	3.8	1.49e+00	0	32	104	0	73	16054
2026-01-16 22:24:04.51	20.78	3.55	-51.5	-63.9	3.8	1.49e+00	0	32	104	0	73	16018
2026-01-16 22:24:05.52	20.85	3.61	-51.5	-63.7	3.8	1.49e+00	0	32	104	0	73	15644
2026-01-16 22:24:06.53	20.93	3.67	-51.4	-63.3	3.8	1.49e+00	0	32	104	0	73	15030
2026-01-16 22:24:07.54	21.01	3.73	-51.4	-63.0	3.8	1.49e+00	0	32	104	0	73	14461
2026-01-16 22:24:08.55	21.08	3.79	-51.4	-62.5	3.8	1.49e+00	0	33	104	0	73	13630
2026-01-16 22:24:09.56	21.16	3.84	-51.3	-62.1	3.9	1.49e+00	0	32	104	0	73	13043
2026-01-16 22:24:10.57	21.24	3.90	-51.3	-62.2	3.9	1.49e+00	0	32	104	0	73	13205
2026-01-16 22:24:11.58	21.32	3.96	-51.4	-62.2	3.9	1.48e+00	0	32	104	0	73	13123
2026-01-16 22:24:12.59	21.39	4.02	-51.4	-62.6	3.8	1.49e+00	0	32	104	0	73	13815
2026-01-16 22:24:13.60	21.47	4.08	-51.4	-62.6	3.8	1.49e+00	0	32	104	0	73	13875
2026-01-16 22:24:14.60	21.55	4.14	-51.3	-61.4	4.1	1.47e+00	0	32	104	0	73	11960
2026-01-16 22:24:15.61	21.63	4.19	-51.1	-59.9	4.5	1.46e+00	0	32	104	0	73	10087
2026-01-16 22:24:16.62	21.71	4.25	-50.9	-58.8	4.9	1.13e+00	0	32	104	0	73	8910
2026-01-16 22:24:17.63	21.79	4.31	-50.6	-57.2	6.0	3.76e-01	0	32	0	2097152	73	7385
2026-01-16 22:24:18.64	21.87	4.37	-50.3	-56.2	6.9	2.10e-01	0	32	0	5242880	72	6969
2026-01-16 22:24:19.65	21.95	4.43	-50.2	-55.6	7.4	1.08e-01	0	33	0	8388608	72	6554
2026-01-16 22:24:20.66	22.03	4.49	-49.7	-54.2	8.8	4.69e-02	0	33	0	11534336	71	5895
2026-01-16 22:24:21.67	22.11	4.55	-49.6	-54.0	9.1	2.20e-02	0	33	0	14680064	71	5750
2026-01-16 22:24:22.68	22.19	4.61	-49.5	-53.6	9.5	1.15e-02	0	33	0	17825792	70	5795
2026-01-16 22:24:23.69	22.27	4.67	-49.4	-53.4	9.7	1.25e-02	0	33	0	20971520	70	5703
2026-01-16 22:24:24.69	22.35	4.73	-49.5	-53.8	9.3	1.40e-02	0	33	0	24117248	70	5941
2026-01-16 22:24:25.70	22.43	4.79	-49.7	-54.1	9.0	2.17e-02	0	33	0	27262976	70	6160
2026-01-16 22:24:26.71	22.51	4.85	-49.6	-54.0	9.1	2.95e-02	0	33	0	30408704	70	6110
2026-01-16 22:24:27.72	22.60	4.91	-49.8	-54.6	8.5	3.80e-02	0	33	0	33554432	70	6512
2026-01-16 22:24:28.73	22.68	4.97	-50.1	-55.4	7.7	5.95e-02	0	33	0	36700160	70	7177
2026-01-16 22:24:29.73	22.76	5.03	-50.1	-55.3	7.8	7.37e-02	0	33	0	39845888	70	7080
2026-01-16 22:24:30.74	22.84	5.09	-47.7	-50.1	13.1	1.06e-02	0	33	0	42991616	67	4642
2026-01-16 22:24:31.75	22.93	5.15	-50.7	-58.2	5.4	9.88e-02	0	33	0	46137344	72	8799
2026-01-16 22:24:32.76	23.01	5.21	-49.1	-52.6	10.6	7.51e-02	0	33	0	47185920	70	5174
2026-01-16 22:24:33.77	23.10	5.27	-45.9	-47.5	15.9	1.52e-05	0	33	0	50331648	63	4325
2026-01-16 22:24:34.78	23.18	5.33	-50.1	-55.0	8.5	6.71e-05	0	33	0	53477376	70	6825
2026-01-16 22:24:35.79	23.27	5.39	-46.6	-48.5	14.8	6.86e-03	0	33	0	56623104	65	4308
2026-01-16 22:24:36.80	23.35	5.45	-45.8	-47.4	16.2	0.00e+00	0	33	0	59768832	63	4246
2026-01-16 22:24:37.81	23.44	5.51	-45.8	-47.4	16.2	0.00e+00	0	33	0	62914560	63	4279
2026-01-16 22:24:38.81	23.52	5.57	-45.6	-47.1	16.5	0.00e+00	0	33	0	66060288	63	4127
2026-01-16 22:24:39.82	23.61	5.63	-45.7	-47.3	16.3	0.00e+00	0	33	0	69206016	62	4445
2026-01-16 22:24:40.83	23.70	5.69	-45.3	-46.8	16.8	0.00e+00	0	33	0	72351744	62	4213
2026-01-16 22:24:41.84	23.78	5.75	-45.3	-46.8	16.8	0.00e+00	0	33	0	75497472	62	4206
2026-01-16 22:24:42.85	23.87	5.82	-45.3	-46.8	16.8	0.00e+00	0	33	0	78643200	62	4210
2026-01-16 22:24:43.86	23.96	5.88	-45.1	-46.6	17.0	0.00e+00	0	33	0	81788928	62	4102
2026-01-16 22:24:44.86	24.04	5.94	-44.9	-46.2	17.4	0.00e+00	0	33	0	84934656	61	4190
2026-01-16 22:24:45.87	24.13	6.00	-45.2	-46.6	17.0	0.00e+00	0	33	0	88080384	61	4369
2026-01-16 22:24:46.88	24.22	6.06	-45.3	-46.8	16.8	0.00e+00	0	33	0	91226112	61	4455
2026-01-16 22:24:47.89	24.31	6.12	-45.3	-46.8	16.9	0.00e+00	0	33	0	94371840	61	4474
2026-01-16 22:24:48.90	24.40	6.18	-45.3	-46.7	16.9	0.00e+00	0	33	0	97517568	61	4418
2026-01-16 22:24:49.90	24.49	6.25	-44.9	-46.3	17.4	0.00e+00	0	33	0	100663296	61	4201
2026-01-16 22:24:50.91	24.58	6.31	-45.0	-46.3	17.3	0.00e+00	0	33	0	103809024	61	4235
2026-01-16 22:24:51.92	24.67	6.37	-44.4	-45.7	18.0	0.00e+00	0	33	0	106954752	60	4157
2026-01-16 22:24:52.93	24.76	6.43	-45.2	-46.6	17.1	0.00e+00	0	33	0	110100480	61	4364
2026-01-16 22:24:53.94	24.85	6.49	-45.2	-46.6	17.1	0.00e+00	0	33	0	113246208	61	4367
2026-01-16 22:24:54.94	24.94	6.56	-44.9	-46.3	17.4	0.00e+00	0	33	0	116391936	61	4214
2026-01-16 22:24:55.95	25.04	6.62	-45.2	-46.6	17.1	0.00e+00	0	33	0	119537664	61	4376
2026-01-16 22:24:56.96	25.13	6.68	-44.9	-46.3	17.5	0.00e+00	0	33	0	122683392	61	4208
2026-01-16 22:24:57.97	25.22	6.74	-45.6	-47.1	16.8	0.00e+00	0	33	0	125829120	61	4599
2026-01-16 22:24:58.98	25.31	6.81	-45.6	-47.0	16.8	0.00e+00	0	33	0	128974848	61	4594
2026-01-16 22:24:59.98	25.41	6.87	-45.2	-46.6	17.2	0.00e+00	0	33	0	132120576	61	4352
2026-01-16 22:25:00.99	25.50	6.93	-45.1	-46.5	17.3	0.00e+00	0	33	0	136314880	61	4324
2026-01-16 22:25:02.00	25.59	6.99	-45.3	-46.8	17.0	0.00e+00	0	33	0	139460608	61	4453
2026-01-16 22:25:03.01	25.69	7.06	-45.5	-47.0	16.9	0.00e+00	0	33	0	142606336	61	4550
2026-01-16 22:25:04.02	25.78	7.12	-45.0	-46.4	17.4	0.00e+00	0	33	0	145752064	61	4262
2026-01-16 22:25:05.03	25.88	7.18	-45.0	-46.3	17.5	0.00e+00	0	33	0	147849216	61	4229
2026-01-16 22:25:06.04	25.98	7.25	-44.8	-46.1	17.7	0.00e+00	0	33	0	150994944	61	4141
2026-01-16 22:25:07.04	26.07	7.31	-44.7	-46.0	17.8	0.00e+00	0	33	0	154140672	61	4075
2026-01-16 22:25:08.05	26.17	7.37	-44.8	-46.1	17.7	0.00e+00	0	33	0	157286400	61	4111
2026-01-16 22:25:09.06	26.26	7.44	-44.8	-46.0	17.8	0.00e+00	0	33	0	160432128	61	4091
2026-01-16 22:25:10.07	26.36	7.50	-44.9	-46.2	17.7	0.00e+00	0	33	0	163577856	61	4162
2026-01-16 22:25:11.08	26.46	7.57	-44.6	-45.9	18.0	0.00e+00	0	33	0	166723584	61	4034
2026-01-16 22:25:12.08	26.56	7.63	-44.9	-46.1	17.8	0.00e+00	0	33	0	169869312	61	4145
2026-01-16 22:25:13.09	26.66	7.69	-45.0	-46.3	17.6	0.00e+00	0	33	0	174063616	61	4235
2026-01-16 22:25:14.10	26.75	7.76	-44.9	-46.2	17.7	0.00e+00	0	33	0	177209344	61	4180
2026-01-16 22:25:15.11	26.85	7.82	-44.8	-46.1	17.8	0.00e+00	0	33	0	180355072	61	4128
2026-01-16 22:25:16.12	26.95	7.89	-44.7	-45.9	18.0	0.00e+00	0	33	0	183500800	61	4048
2026-01-16 22:25:17.12	27.05	7.95	-44.5	-45.8	18.2	0.00e+00	0	33	0	186646528	61	3965
2026-01-16 22:25:18.13	27.15	8.01	-44.8	-46.0	17.9	0.00e+00	0	33	0	189792256	61	4097
2026-01-16 22:25:19.14	27.26	8.08	-44.6	-45.8	18.2	0.00e+00	0	33	0	192937984	61	3980
2026-01-16 22:25:20.15	27.36	8.14	-44.7	-45.9	18.0	0.00e+00	0	33	0	195035136	61	4026
2026-01-16 22:25:21.16	27.46	8.21	-44.5	-45.7	18.2	0.00e+00	0	33	0	198180864	60	4189
2026-01-16 22:25:22.16	27.56	8.27	-44.5	-45.8	18.2	0.00e+00	0	33	0	201326592	60	4204
2026-01-16 22:25:23.17	27.66	8.34	-44.6	-45.9	18.1	0.00e+00	0	33	0	204472320	60	4250
2026-01-16 22:25:24.18	27.77	8.40	-44.7	-45.9	18.1	0.00e+00	0	33	0	207618048	60	4267
2026-01-16 22:25:25.19	27.87	8.47	-44.6	-45.9	18.1	0.00e+00	0	33	0	211812352	60	4250
2026-01-16 22:25:26.20	27.97	8.53	-44.6	-45.8	18.2	0.00e+00	0	33	0	214958080	60	4213
2026-01-16 22:25:27.21	28.08	8.60	-44.6	-45.9	18.1	0.00e+00	0	33	0	218103808	60	4245
2026-01-16 22:25:28.22	28.18	8.66	-44.5	-45.7	18.2	0.00e+00	0	33	0	221249536	60	4183
2026-01-16 22:25:29.23	28.29	8.73	-44.6	-45.8	18.2	0.00e+00	0	33	0	224395264	60	4207
2026-01-16 22:25:30.24	28.40	8.79	-44.7	-45.9	18.1	0.00e+00	0	33	0	227540992	60	4265
2026-01-16 22:25:31.25	28.50	8.86	-44.7	-45.9	18.1	0.00e+00	0	33	0	230686720	60	4267
2026-01-16 22:25:32.26	28.61	8.93	-44.7	-45.9	18.1	0.00e+00	0	33	0	233832448	60	4262
2026-01-16 22:25:33.27	28.72	8.99	-44.6	-45.8	18.2	0.00e+00	0	33	0	236978176	60	4241
2026-01-16 22:25:34.28	28.82	9.06	-44.4	-45.6	18.4	0.00e+00	0	33	0	240123904	60	4116
2026-01-16 22:25:35.28	28.93	9.12	-44.3	-45.5	18.5	0.00e+00	0	33	0	242221056	60	4090
2026-01-16 22:25:36.29	29.04	9.19	-44.4	-45.6	18.4	0.00e+00	0	33	0	246415360	60	4120
2026-01-16 22:25:37.30	29.15	9.25	-44.4	-45.6	18.4	0.00e+00	0	33	0	249561088	60	4110
2026-01-16 22:25:38.31	29.26	9.32	-44.4	-45.6	18.4	0.00e+00	0	33	0	252706816	60	4108
2026-01-16 22:25:39.32	29.37	9.39	-44.2	-45.4	18.7	0.00e+00	0	33	0	255852544	60	4017
2026-01-16 22:25:40.32	29.48	9.45	-44.2	-45.4	18.7	0.00e+00	0	33	0	258998272	60	4018
2026-01-16 22:25:41.33	29.59	9.52	-44.4	-45.5	18.5	0.00e+00	0	33	0	262144000	60	4084
2026-01-16 22:25:42.34	29.70	9.59	-44.2	-45.4	18.7	0.00e+00	0	33	0	265289728	60	4009
2026-01-16 22:25:43.35	29.81	9.65	-44.2	-45.4	18.6	0.00e+00	0	33	0	268435456	60	4034
2026-01-16 22:25:44.35	29.93	9.72	-44.3	-45.5	18.6	0.00e+00	0	34	0	271581184	60	4062
2026-01-16 22:25:45.36	30.04	9.79	-44.1	-45.3	18.8	0.00e+00	0	33	0	274726912	60	3979
2026-01-16 22:25:46.37	30.15	9.85	-44.2	-45.4	18.7	0.00e+00	0	33	0	277872640	60	4036
2026-01-16 22:25:47.38	30.27	9.92	-44.1	-45.2	18.9	0.00e+00	0	33	0	281018368	60	3949
2026-01-16 22:25:48.39	30.38	9.99	-44.1	-45.2	18.8	0.00e+00	0	33	0	284164096	60	3950
2026-01-16 22:25:49.40	30.50	10.05	-44.0	-45.2	18.9	0.00e+00	0	33	0	287309824	60	3915
2026-01-16 22:25:50.41	30.61	10.12	-44.4	-45.5	18.8	0.00e+00	0	33	0	290455552	59	4332
2026-01-16 22:25:51.42	30.73	10.19	-44.2	-45.4	19.0	0.00e+00	0	34	0	293601280	59	4255
2026-01-16 22:25:52.43	30.84	10.26	-44.2	-45.4	19.0	0.00e+00	0	33	0	296747008	59	4245
2026-01-16 22:25:53.43	30.96	10.32	-44.2	-45.3	19.0	0.00e+00	0	33	0	299892736	59	4225
2026-01-16 22:25:54.44	31.08	10.39	-44.2	-45.3	19.0	0.00e+00	0	33	0	303038464	59	4230
2026-01-16 22:25:55.45	31.20	10.46	-44.1	-45.2	19.1	0.00e+00	0	33	0	306184192	59	4191
2026-01-16 22:25:56.46	31.31	10.53	-44.1	-45.2	19.1	0.00e+00	0	33	0	309329920	59	4183
2026-01-16 22:25:57.47	31.43	10.60	-44.1	-45.2	19.2	0.00e+00	0	33	0	312475648	59	4161
2026-01-16 22:25:58.48	31.55	10.66	-44.1	-45.2	19.2	0.00e+00	0	33	0	315621376	59	4157
2026-01-16 22:25:59.49	31.67	10.73	-44.1	-45.2	19.2	0.00e+00	0	33	0	318767104	59	4151
2026-01-16 22:26:00.49	31.79	10.80	-44.1	-45.2	19.2	0.00e+00	0	33	0	321912832	59	4150
2026-01-16 22:26:01.50	31.92	10.87	-44.0	-45.1	19.3	0.00e+00	0	33	0	325058560	59	4125
2026-01-16 22:26:02.51	32.04	10.94	-44.2	-45.4	19.0	0.00e+00	0	34	0	328204288	59	4251
2026-01-16 22:26:03.52	32.16	11.00	-44.3	-45.4	18.9	0.00e+00	0	34	0	331350016	59	4284
2026-01-16 22:26:04.53	32.28	11.07	-44.3	-45.4	19.0	0.00e+00	0	33	0	334495744	59	4269
2026-01-16 22:26:05.53	32.40	11.14	-44.1	-45.3	19.1	0.00e+00	0	33	0	337641472	59	4208
2026-01-16 22:26:06.54	32.53	11.21	-44.1	-45.3	19.1	0.00e+00	0	33	0	340787200	59	4198
2026-01-16 22:26:07.55	32.65	11.28	-44.0	-45.1	19.3	0.00e+00	0	33	0	343932928	59	4124
2026-01-16 22:26:08.56	32.78	11.35	-43.9	-45.0	19.4	0.00e+00	0	34	0	347078656	59	4054
2026-01-16 22:26:09.57	32.90	11.41	-43.8	-44.9	19.5	0.00e+00	0	34	0	350224384	59	4034
2026-01-16 22:26:10.58	33.03	11.48	-43.8	-44.9	19.5	0.00e+00	0	33	0	353370112	59	4039
2026-01-16 22:26:11.59	33.16	11.55	-43.9	-45.0	19.4	0.00e+00	0	33	0	356515840	59	4064
2026-01-16 22:26:12.60	33.29	11.62	-43.7	-44.8	19.7	0.00e+00	0	34	0	359661568	59	3959
2026-01-16 22:26:13.61	33.41	11.69	-43.6	-44.7	19.7	0.00e+00	0	34	0	362807296	59	3921
2026-01-16 22:26:14.62	33.54	11.76	-43.6	-44.7	19.7	0.00e+00	0	33	0	365953024	59	3922
2026-01-16 22:26:15.63	33.67	11.83	-43.6	-44.7	19.7	0.00e+00	0	33	0	369098752	59	3927
2026-01-16 22:26:16.64	33.80	11.90	-43.5	-44.5	19.8	0.00e+00	0	34	0	372244480	59	3862
2026-01-16 22:26:17.64	33.93	11.97	-43.5	-44.5	19.9	0.00e+00	0	34	0	375390208	59	3867
2026-01-16 22:26:18.65	34.06	12.04	-43.5	-44.6	19.8	0.00e+00	0	33	0	378535936	59	3875
2026-01-16 22:26:19.66	34.19	12.11	-43.6	-44.6	19.8	0.00e+00	0	33	0	381681664	58	4116
2026-01-16 22:26:20.67	34.32	12.18	-43.5	-44.5	19.8	0.00e+00	0	33	0	384827392	58	4097
2026-01-16 22:26:21.68	34.46	12.25	-43.6	-44.6	19.8	0.00e+00	0	33	0	387973120	58	4112
2026-01-16 22:26:22.69	34.59	12.32	-43.6	-44.7	19.7	0.00e+00	0	33	0	391118848	58	4161
2026-01-16 22:26:23.70	34.73	12.39	-43.6	-44.7	19.8	0.00e+00	0	33	0	394264576	58	4160
2026-01-16 22:26:24.71	34.86	12.46	-43.7	-44.7	19.7	0.00e+00	0	34	0	397410304	58	4183
2026-01-16 22:26:25.72	35.00	12.53	-43.6	-44.7	19.7	0.00e+00	0	34	0	400556032	58	4159
2026-01-16 22:26:26.72	35.13	12.59	-43.5	-44.6	19.9	0.00e+00	0	33	0	403701760	58	4101
2026-01-16 22:26:27.73	35.27	12.66	-43.5	-44.5	19.9	0.00e+00	0	34	0	406847488	58	4062
2026-01-16 22:26:28.74	35.40	12.73	-43.4	-44.5	20.0	0.00e+00	0	33	0	409993216	58	4053
2026-01-16 22:26:29.75	35.54	12.80	-43.4	-44.4	20.0	0.00e+00	0	34	0	413138944	58	4039
2026-01-16 22:26:30.76	35.68	12.88	-43.3	-44.3	20.1	0.00e+00	0	33	0	416284672	58	3988
2026-01-16 22:26:31.77	35.82	12.95	-43.4	-44.4	20.0	0.00e+00	0	33	0	419430400	58	4034
2026-01-16 22:26:32.77	35.96	13.02	-43.3	-44.3	20.1	0.00e+00	0	33	0	422576128	58	3963
2026-01-16 22:26:33.78	36.10	13.09	-43.3	-44.3	20.2	0.00e+00	0	34	0	425721856	58	3962
2026-01-16 22:26:34.79	36.24	13.16	-43.4	-44.4	20.1	0.00e+00	0	34	0	428867584	58	4022
2026-01-16 22:26:35.80	36.38	13.23	-43.4	-44.4	20.0	0.00e+00	0	34	0	432013312	58	4034
2026-01-16 22:26:36.80	36.52	13.30	-43.5	-44.5	19.9	0.00e+00	0	34	0	435159040	58	4091
2026-01-16 22:26:37.81	36.66	13.37	-43.5	-44.5	20.0	0.00e+00	0	33	0	438304768	58	4060
2026-01-16 22:26:38.82	36.81	13.44	-43.7	-44.7	19.8	0.00e+00	0	33	0	441450496	58	4178
2026-01-16 22:26:39.83	36.95	13.51	-43.5	-44.5	19.9	0.00e+00	0	34	0	444596224	58	4078
2026-01-16 22:26:40.84	37.10	13.58	-43.6	-44.6	19.8	0.00e+00	0	34	0	447741952	58	4144
2026-01-16 22:26:41.85	37.24	13.65	-43.6	-44.6	19.9	0.00e+00	0	34	0	450887680	58	4115
2026-01-16 22:26:42.86	37.39	13.72	-43.5	-44.6	19.9	0.00e+00	0	34	0	454033408	58	4112
2026-01-16 22:26:43.87	37.53	13.79	-43.6	-44.6	19.8	0.00e+00	0	34	0	457179136	58	4123
2026-01-16 22:26:44.88	37.68	13.86	-43.5	-44.5	19.9	0.00e+00	0	34	0	460324864	58	4090
2026-01-16 22:26:45.88	37.83	13.93	-43.4	-44.4	20.0	0.00e+00	0	34	0	463470592	58	4023
2026-01-16 22:26:46.89	37.98	14.00	-43.4	-44.4	20.1	0.00e+00	0	34	0	466616320	58	4013
2026-01-16 22:26:47.90	38.13	14.07	-43.3	-44.3	20.2	0.00e+00	0	34	0	469762048	58	3961
2026-01-16 22:26:48.91	38.28	14.14	-43.5	-44.5	20.0	0.00e+00	0	33	0	472907776	58	4083
2026-01-16 22:26:49.92	38.43	14.22	-43.4	-44.4	20.1	0.00e+00	0	34	0	476053504	58	4010
2026-01-16 22:26:50.93	38.58	14.29	-43.5	-44.5	20.0	0.00e+00	0	33	0	479199232	58	4070
2026-01-16 22:26:51.94	38.73	14.36	-43.4	-44.4	20.0	0.00e+00	0	33	0	482344960	58	4044
2026-01-16 22:26:52.95	38.89	14.43	-43.6	-44.6	19.9	0.00e+00	0	34	0	485490688	58	4128
2026-01-16 22:26:53.96	39.04	14.50	-43.7	-44.7	19.8	0.00e+00	0	34	0	488636416	58	4164
2026-01-16 22:26:54.97	39.19	14.57	-43.7	-44.8	19.7	0.00e+00	0	34	0	491782144	58	4197
2026-01-16 22:26:55.98	39.35	14.64	-43.6	-44.7	19.8	0.00e+00	0	34	0	494927872	58	4159
2026-01-16 22:26:56.98	39.50	14.71	-43.6	-44.6	19.9	0.00e+00	0	34	0	498073600	58	4118
2026-01-16 22:26:57.99	39.66	14.78	-43.6	-44.6	19.9	0.00e+00	0	34	0	501219328	58	4121
2026-01-16 22:26:59.00	39.82	14.86	-43.6	-44.6	19.9	0.00e+00	0	34	0	504365056	58	4111
2026-01-16 22:27:00.01	39.98	14.93	-43.4	-44.4	20.1	0.00e+00	0	34	0	507510784	58	4026
2026-01-16 22:27:01.02	40.13	15.00	-43.2	-44.2	20.3	0.00e+00	0	34	0	510656512	58	3934
2026-01-16 22:27:02.03	40.29	15.07	-43.3	-44.3	20.2	0.00e+00	0	34	0	513802240	58	3989
2026-01-16 22:27:03.04	40.45	15.14	-43.3	-44.3	20.1	0.00e+00	0	34	0	516947968	58	3987
2026-01-16 22:27:04.05	40.62	15.21	-43.3	-44.2	20.2	0.00e+00	0	34	0	520093696	58	3951
2026-01-16 22:27:05.06	40.78	15.28	-43.4	-44.4	20.1	0.00e+00	0	34	0	523239424	58	4033
2026-01-16 22:27:06.07	40.94	15.35	-43.4	-44.4	20.1	0.00e+00	0	34	0	526385152	58	4025
2026-01-16 22:27:07.07	41.10	15.42	-43.5	-44.5	20.0	0.00e+00	0	34	0	529530880	58	4075
2026-01-16 22:27:08.08	41.27	15.50	-43.5	-44.6	20.0	0.00e+00	0	34	0	532676608	58	4102
2026-01-16 22:27:09.09	41.43	15.57	-43.6	-44.6	20.0	0.00e+00	0	34	0	535822336	58	4108
2026-01-16 22:27:10.10	41.60	15.64	-43.6	-44.7	19.9	0.00e+00	0	34	0	538968064	58	4151
2026-01-16 22:27:11.10	41.76	15.71	-43.6	-44.6	20.0	0.00e+00	0	34	0	542113792	58	4105
2026-01-16 22:27:12.11	41.93	15.78	-43.2	-44.2	20.3	0.00e+00	0	33	0	545259520	58	3942
2026-01-16 22:27:13.12	42.10	15.85	-43.2	-44.2	20.3	0.00e+00	0	34	0	548405248	58	3924
2026-01-16 22:27:14.13	42.26	15.92	-43.2	-44.2	20.3	0.00e+00	0	34	0	551550976	58	3940
2026-01-16 22:27:15.14	42.43	15.99	-43.3	-44.2	20.3	0.00e+00	0	34	0	554696704	58	3946
2026-01-16 22:27:16.15	42.60	16.06	-43.3	-44.3	20.2	0.00e+00	0	34	0	557842432	58	3961
2026-01-16 22:27:17.16	42.78	16.14	-43.2	-44.2	20.3	0.00e+00	0	34	0	560988160	58	3928
2026-01-16 22:27:18.16	42.95	16.21	-43.3	-44.3	20.3	0.00e+00	0	34	0	564133888	58	3959
2026-01-16 22:27:19.17	43.12	16.28	-43.4	-44.3	20.2	0.00e+00	0	34	0	567279616	58	4000
2026-01-16 22:27:20.18	43.29	16.35	-43.4	-44.4	20.1	0.00e+00	0	34	0	570425344	58	4036
2026-01-16 22:27:21.19	43.47	16.42	-43.4	-44.4	20.1	0.00e+00	0	34	0	573571072	58	4024
2026-01-16 22:27:22.20	43.64	16.49	-43.3	-44.3	20.2	0.00e+00	0	34	0	576716800	58	3976
2026-01-16 22:27:23.21	43.82	16.56	-43.2	-44.1	20.4	0.00e+00	0	34	0	579862528	58	3899
2026-01-16 22:27:24.22	43.99	16.63	-43.2	-44.2	20.3	0.00e+00	0	33	0	583008256	58	3928
2026-01-16 22:27:25.22	44.17	16.70	-43.1	-44.1	20.4	0.00e+00	0	34	0	586153984	58	3882
2026-01-16 22:27:26.23	44.35	16.77	-43.1	-44.1	20.5	0.00e+00	0	33	0	589299712	58	3878
2026-01-16 22:27:27.24	44.53	16.84	-42.9	-43.8	20.6	0.00e+00	0	34	0	592445440	57	4002
2026-01-16 22:27:28.25	44.71	16.91	-42.9	-43.8	20.7	0.00e+00	0	34	0	595591168	57	3974
2026-01-16 22:27:29.26	44.89	16.98	-43.0	-43.9	20.6	0.00e+00	0	34	0	598736896	57	4038
2026-01-16 22:27:30.28	45.07	17.05	-43.0	-43.9	20.6	0.00e+00	0	34	0	601882624	57	4036
2026-01-16 22:27:31.28	45.25	17.12	-43.0	-44.0	20.5	0.00e+00	0	34	0	605028352	57	4070
2026-01-16 22:27:32.29	45.43	17.19	-43.1	-44.1	20.4	0.00e+00	0	34	0	608174080	57	4114
2026-01-16 22:27:33.30	45.62	17.26	-43.0	-43.9	20.6	0.00e+00	0	33	0	611319808	57	4020
2026-01-16 22:27:34.31	45.80	17.33	-43.1	-44.1	20.4	0.00e+00	0	34	0	614465536	57	4104
2026-01-16 22:27:35.32	45.99	17.40	-43.1	-44.0	20.5	0.00e+00	0	34	0	617611264	57	4089
2026-01-16 22:27:36.33	46.17	17.47	-43.0	-44.0	20.5	0.00e+00	0	34	0	620756992	57	4058
2026-01-16 22:27:37.34	46.36	17.54	-43.1	-44.0	20.5	0.00e+00	0	34	0	623902720	57	4071
2026-01-16 22:27:38.34	46.55	17.61	-43.2	-44.1	20.4	0.00e+00	0	34	0	627048448	57	4127
2026-01-16 22:27:39.35	46.74	17.68	-43.0	-43.9	20.6	0.00e+00	0	34	0	630194176	57	4037
2026-01-16 22:27:40.36	46.93	17.75	-43.0	-43.9	20.5	0.00e+00	0	33	0	633339904	57	4038
2026-01-16 22:27:41.37	47.12	17.82	-43.0	-44.0	20.5	0.00e+00	0	34	0	636485632	57	4059
2026-01-16 22:27:42.38	47.31	17.89	-43.0	-44.0	20.5	0.00e+00	0	34	0	639631360	57	4061
2026-01-16 22:27:43.39	47.50	17.96	-43.1	-44.0	20.5	0.00e+00	0	34	0	642777088	57	4068
2026-01-16 22:27:44.40	47.69	18.03	-43.1	-44.0	20.5	0.00e+00	0	34	0	646971392	57	4086
2026-01-16 22:27:45.41	47.89	18.10	-43.1	-44.0	20.5	0.00e+00	0	34	0	650117120	57	4098
2026-01-16 22:27:46.42	48.08	18.17	-43.1	-44.1	20.4	0.00e+00	0	34	0	652214272	57	4116
2026-01-16 22:27:47.43	48.28	18.24	-43.2	-44.2	20.4	0.00e+00	0	34	0	655360000	57	4177
2026-01-16 22:27:48.43	48.47	18.31	-43.3	-44.3	20.3	0.00e+00	0	34	0	658505728	57	4206
2026-01-16 22:27:49.44	48.67	18.37	-43.2	-44.2	20.4	0.00e+00	0	34	0	661651456	57	4175
2026-01-16 22:27:50.45	48.87	18.44	-43.2	-44.2	20.4	0.00e+00	0	33	0	664797184	57	4164
2026-01-16 22:27:51.46	49.07	18.51	-43.2	-44.2	20.4	0.00e+00	0	34	0	667942912	57	4168
2026-01-16 22:27:52.47	49.27	18.58	-43.3	-44.3	20.3	0.00e+00	0	34	0	671088640	57	4205
2026-01-16 22:27:53.48	49.47	18.65	-43.1	-44.1	20.5	0.00e+00	0	34	0	674234368	57	4101
2026-01-16 22:27:54.49	49.67	18.71	-43.1	-44.1	20.5	0.00e+00	0	34	0	677380096	57	4126
2026-01-16 22:27:55.50	49.88	18.78	-43.0	-44.0	20.5	0.00e+00	0	34	0	681574400	57	4067
2026-01-16 22:27:56.50	50.08	18.85	-43.1	-44.0	20.6	0.00e+00	0	34	0	684720128	57	4079
2026-01-16 22:27:57.51	50.28	18.92	-43.0	-44.0	20.6	0.00e+00	0	34	0	687865856	57	4060
2026-01-16 22:27:58.52	50.49	18.98	-43.2	-44.2	20.4	0.00e+00	0	34	0	691011584	57	4166
2026-01-16 22:27:59.53	50.69	19.05	-43.3	-44.3	20.3	0.00e+00	0	34	0	694157312	57	4203
2026-01-16 22:28:00.54	50.90	19.12	-43.3	-44.3	20.3	0.00e+00	0	34	0	697303040	57	4231
2026-01-16 22:28:01.55	51.11	19.18	-43.4	-44.4	20.2	0.00e+00	0	34	0	700448768	57	4266
2026-01-16 22:28:02.56	51.32	19.25	-43.5	-44.5	20.1	0.00e+00	0	34	0	702545920	57	4317
2026-01-16 22:28:03.57	51.53	19.32	-43.6	-44.6	20.1	0.00e+00	0	34	0	705691648	57	4365
2026-01-16 22:28:04.58	51.74	19.38	-43.6	-44.6	20.0	0.00e+00	0	34	0	708837376	57	4382
2026-01-16 22:28:05.58	51.95	19.45	-43.6	-44.6	20.0	0.00e+00	0	34	0	711983104	57	4351
2026-01-16 22:28:06.59	52.16	19.51	-43.6	-44.6	20.0	0.00e+00	0	33	0	716177408	57	4363
2026-01-16 22:28:07.60	52.37	19.58	-43.4	-44.4	20.3	0.00e+00	0	34	0	719323136	57	4251
2026-01-16 22:28:08.61	52.59	19.64	-43.4	-44.4	20.2	0.00e+00	0	34	0	722468864	57	4254
2026-01-16 22:28:09.62	52.80	19.71	-43.4	-44.3	20.3	0.00e+00	0	34	0	725614592	57	4234
2026-01-16 22:28:10.63	53.02	19.77	-43.2	-44.1	20.4	0.00e+00	0	34	0	728760320	57	4145
2026-01-16 22:28:11.64	53.24	19.84	-43.2	-44.1	20.4	0.00e+00	0	34	0	731906048	57	4134
2026-01-16 22:28:12.65	53.46	19.90	-43.3	-44.2	20.3	0.00e+00	0	34	0	735051776	57	4176
2026-01-16 22:28:13.66	53.67	19.97	-43.5	-44.5	20.1	0.00e+00	0	33	0	738197504	57	4295
2026-01-16 22:28:14.67	53.89	20.03	-43.5	-44.5	20.2	0.00e+00	0	34	0	741343232	57	4300
2026-01-16 22:28:15.67	54.11	20.09	-43.6	-44.6	20.1	0.00e+00	0	34	0	744488960	57	4348
2026-01-16 22:28:16.68	54.33	20.16	-43.7	-44.7	19.9	0.00e+00	0	34	0	747634688	57	4432
2026-01-16 22:28:17.69	54.56	20.22	-43.5	-44.5	20.1	0.00e+00	0	34	0	749731840	58	4093
2026-01-16 22:28:18.70	54.78	20.28	-43.4	-44.4	20.2	0.00e+00	0	34	0	753926144	58	4029
2026-01-16 22:28:19.71	55.00	20.34	-43.3	-44.3	20.3	0.00e+00	0	34	0	757071872	58	3985
2026-01-16 22:28:20.72	55.23	20.41	-43.2	-44.1	20.4	0.00e+00	0	34	0	760217600	58	3909
2026-01-16 22:28:21.72	55.45	20.47	-43.0	-43.9	20.7	0.00e+00	0	34	0	763363328	58	3812
2026-01-16 22:28:22.73	55.68	20.53	-42.9	-43.9	20.7	0.00e+00	0	34	0	766509056	57	4011
2026-01-16 22:28:23.74	55.91	20.59	-42.8	-43.7	20.8	0.00e+00	0	34	0	769654784	57	3955
2026-01-16 22:28:24.75	56.14	20.65	-42.9	-43.9	20.7	0.00e+00	0	34	0	772800512	57	4014
2026-01-16 22:28:25.76	56.37	20.71	-43.0	-44.0	20.6	0.00e+00	0	34	0	775946240	57	4060
2026-01-16 22:28:26.76	56.59	20.77	-43.2	-44.2	20.4	0.00e+00	0	34	0	779091968	57	4164
2026-01-16 22:28:27.77	56.82	20.83	-43.3	-44.3	20.4	0.00e+00	0	34	0	782237696	57	4197
2026-01-16 22:28:28.78	57.06	20.89	-43.3	-44.3	20.3	0.00e+00	0	34	0	785383424	57	4219
2026-01-16 22:28:29.79	57.29	20.95	-43.3	-44.3	20.3	0.00e+00	0	34	0	788529152	57	4212
2026-01-16 22:28:30.80	57.52	21.01	-43.3	-44.3	20.3	0.00e+00	0	34	0	791674880	57	4233
2026-01-16 22:28:31.81	57.76	21.07	-43.3	-44.2	20.4	0.00e+00	0	34	0	794820608	57	4184
2026-01-16 22:28:32.81	57.99	21.13	-43.2	-44.1	20.5	0.00e+00	0	34	0	797966336	57	4123
2026-01-16 22:28:33.82	58.23	21.19	-42.9	-43.8	20.8	0.00e+00	0	34	0	801112064	57	3992
2026-01-16 22:28:34.83	58.47	21.24	-42.9	-43.8	20.8	0.00e+00	0	34	0	804257792	57	3969
2026-01-16 22:28:35.84	58.70	21.30	-42.8	-43.7	20.9	0.00e+00	0	34	0	807403520	57	3938
2026-01-16 22:28:36.85	58.94	21.36	-42.9	-43.8	20.8	0.00e+00	0	34	0	810549248	57	3991
2026-01-16 22:28:37.86	59.18	21.42	-43.1	-44.0	20.6	0.00e+00	0	34	0	813694976	57	4080
2026-01-16 22:28:38.87	59.42	21.47	-43.1	-44.0	20.6	0.00e+00	0	34	0	816840704	57	4075
2026-01-16 22:28:39.87	59.66	21.53	-43.2	-44.1	20.6	0.00e+00	0	34	0	819986432	57	4128
2026-01-16 22:28:40.88	59.91	21.58	-43.3	-44.2	20.5	0.00e+00	0	34	0	823132160	57	4191
2026-01-16 22:28:41.89	60.15	21.64	-43.2	-44.1	20.5	0.00e+00	0	34	0	826277888	57	4124
2026-01-16 22:28:42.90	60.39	21.69	-43.1	-44.0	20.6	0.00e+00	0	34	0	829423616	57	4070
2026-01-16 22:28:43.91	60.64	21.75	-42.8	-43.7	20.9	0.00e+00	0	34	0	832569344	57	3939
2026-01-16 22:28:44.92	60.88	21.80	-42.9	-43.8	20.8	0.00e+00	0	34	0	835715072	57	3976
2026-01-16 22:28:45.93	61.13	21.85	-42.7	-43.6	20.9	0.00e+00	0	34	0	838860800	57	3893
2026-01-16 22:28:46.93	61.38	21.91	-42.6	-43.5	21.1	0.00e+00	0	34	0	842006528	57	3833
2026-01-16 22:28:47.94	61.62	21.96	-42.7	-43.6	21.0	0.00e+00	0	34	0	845152256	57	3888
2026-01-16 22:28:48.95	61.87	22.01	-42.7	-43.6	21.0	0.00e+00	0	34	0	848297984	57	3908
2026-01-16 22:28:49.96	62.12	22.06	-42.7	-43.6	21.0	0.00e+00	0	34	0	851443712	57	3885
2026-01-16 22:28:50.97	62.38	22.12	-42.8	-43.7	20.9	0.00e+00	0	34	0	854589440	57	3926
2026-01-16 22:28:51.98	62.63	22.17	-42.7	-43.6	20.9	0.00e+00	0	34	0	857735168	57	3911
2026-01-16 22:28:52.98	62.88	22.22	-42.8	-43.7	21.0	0.00e+00	0	34	0	860880896	57	3915
2026-01-16 22:28:53.99	63.13	22.27	-42.8	-43.7	21.0	0.00e+00	0	34	0	864026624	57	3916
2026-01-16 22:28:55.00	63.38	22.32	-42.9	-43.8	20.9	0.00e+00	0	34	0	867172352	57	3961
2026-01-16 22:28:56.01	63.64	22.36	-42.9	-43.8	20.7	0.00e+00	0	34	0	870318080	57	3989
2026-01-16 22:28:57.02	63.89	22.41	-43.0	-43.9	20.7	0.00e+00	0	34	0	873463808	57	4047
2026-01-16 22:28:58.02	64.15	22.46	-43.1	-44.0	20.6	0.00e+00	0	34	0	876609536	57	4095
2026-01-16 22:28:59.03	64.41	22.51	-43.0	-43.9	20.7	0.00e+00	0	34	0	879755264	57	4043
2026-01-16 22:29:00.04	64.66	22.56	-42.9	-43.9	20.8	0.00e+00	0	34	0	882900992	57	4005
2026-01-16 22:29:01.05	64.92	22.60	-42.8	-43.7	20.9	0.00e+00	0	34	0	886046720	57	3940
2026-01-16 22:29:02.06	65.18	22.65	-42.8	-43.7	20.9	0.00e+00	0	34	0	889192448	57	3946
2026-01-16 22:29:03.07	65.44	22.69	-42.7	-43.6	21.0	0.00e+00	0	34	0	892338176	57	3873
2026-01-16 22:29:04.08	65.70	22.74	-42.8	-43.7	20.9	0.00e+00	0	34	0	895483904	57	3945
2026-01-16 22:29:05.08	65.96	22.78	-42.8	-43.7	20.9	0.00e+00	0	34	0	898629632	57	3927
2026-01-16 22:29:06.09	66.23	22.83	-42.9	-43.8	20.8	0.00e+00	0	34	0	901775360	57	3989
2026-01-16 22:29:07.10	66.49	22.87	-43.1	-44.0	20.6	0.00e+00	0	34	0	904921088	57	4081
2026-01-16 22:29:08.11	66.75	22.91	-43.1	-44.0	20.6	0.00e+00	0	34	0	908066816	57	4089
2026-01-16 22:29:09.12	67.02	22.96	-42.9	-43.9	20.8	0.00e+00	0	34	0	911212544	57	4013
2026-01-16 22:29:10.13	67.28	23.00	-42.9	-43.8	20.9	0.00e+00	0	34	0	914358272	57	3970
2026-01-16 22:29:11.14	67.55	23.04	-42.8	-43.7	20.9	0.00e+00	0	34	0	917504000	57	3954
2026-01-16 22:29:12.15	67.82	23.08	-42.7	-43.6	21.0	0.00e+00	0	34	0	920649728	57	3895
2026-01-16 22:29:13.16	68.08	23.12	-42.7	-43.6	21.0	0.00e+00	0	34	0	923795456	57	3876
2026-01-16 22:29:14.17	68.35	23.16	-42.7	-43.6	20.9	0.00e+00	0	34	0	926941184	57	3912
2026-01-16 22:29:15.18	68.62	23.20	-42.8	-43.7	20.9	0.00e+00	0	34	0	930086912	57	3916
2026-01-16 22:29:16.19	68.89	23.24	-42.7	-43.6	21.0	0.00e+00	0	34	0	933232640	57	3902
2026-01-16 22:29:17.20	69.16	23.28	-42.8	-43.7	20.9	0.00e+00	0	34	0	936378368	57	3950
2026-01-16 22:29:18.21	69.43	23.31	-42.8	-43.8	20.9	0.00e+00	0	34	0	939524096	57	3964
2026-01-16 22:29:19.21	69.70	23.35	-42.8	-43.7	20.9	0.00e+00	0	34	0	942669824	57	3950
2026-01-16 22:29:20.22	69.97	23.39	-42.8	-43.7	20.9	0.00e+00	0	34	0	945815552	57	3941
2026-01-16 22:29:21.23	70.24	23.42	-42.7	-43.6	20.9	0.00e+00	0	34	0	948961280	57	3909
2026-01-16 22:29:22.24	70.52	23.46	-42.8	-43.7	20.9	0.00e+00	0	34	0	952107008	57	3921
2026-01-16 22:29:23.24	70.79	23.49	-42.7	-43.6	21.0	0.00e+00	0	34	0	955252736	57	3897
2026-01-16 22:29:24.25	71.06	23.52	-42.6	-43.5	21.1	0.00e+00	0	34	0	958398464	57	3849
2026-01-16 22:29:25.26	71.34	23.56	-42.5	-43.3	21.2	0.00e+00	0	34	0	961544192	56	3999
2026-01-16 22:29:26.27	71.61	23.59	-42.4	-43.2	21.3	0.00e+00	0	34	0	964689920	56	3958
2026-01-16 22:29:27.28	71.89	23.62	-42.4	-43.3	21.2	0.00e+00	0	34	0	967835648	56	3989
2026-01-16 22:29:28.29	72.17	23.65	-42.6	-43.5	21.1	0.00e+00	0	34	0	970981376	56	4070
2026-01-16 22:29:29.30	72.44	23.68	-42.6	-43.5	21.0	0.00e+00	0	34	0	974127104	56	4091
2026-01-16 22:29:30.31	72.72	23.71	-42.8	-43.7	21.0	0.00e+00	0	34	0	977272832	56	4149
2026-01-16 22:29:31.32	73.00	23.74	-42.8	-43.7	21.0	0.00e+00	0	34	0	980418560	56	4161
2026-01-16 22:29:32.33	73.28	23.77	-42.8	-43.7	21.0	0.00e+00	0	34	0	983564288	56	4174
2026-01-16 22:29:33.34	73.56	23.80	-42.8	-43.7	20.9	0.00e+00	0	33	0	986710016	56	4183
2026-01-16 22:29:34.35	73.84	23.82	-42.6	-43.5	21.1	0.00e+00	0	34	0	989855744	56	4080
2026-01-16 22:29:35.35	74.11	23.85	-42.6	-43.5	21.1	0.00e+00	0	34	0	993001472	56	4070
2026-01-16 22:29:36.36	74.40	23.88	-42.6	-43.4	21.2	0.00e+00	0	34	0	996147200	56	4045
2026-01-16 22:29:37.37	74.68	23.90	-42.4	-43.3	21.3	0.00e+00	0	34	0	999292928	56	3994
2026-01-16 22:29:38.38	74.96	23.93	-42.5	-43.4	21.2	0.00e+00	0	34	0	1002438656	56	4024
2026-01-16 22:29:39.39	75.24	23.95	-42.5	-43.3	21.2	0.00e+00	0	34	0	1005584384	56	3997
2026-01-16 22:29:40.39	75.52	23.97	-42.5	-43.4	21.2	0.00e+00	0	34	0	1008730112	56	4007
2026-01-16 22:29:41.40	75.80	23.99	-42.3	-43.2	21.4	0.00e+00	0	34	0	1011875840	56	3936
2026-01-16 22:29:42.41	76.09	24.02	-42.4	-43.2	21.3	0.00e+00	0	34	0	1015021568	56	3957
2026-01-16 22:29:43.42	76.37	24.04	-42.5	-43.3	21.2	0.00e+00	0	34	0	1018167296	56	3999
2026-01-16 22:29:44.42	76.65	24.06	-42.5	-43.4	21.1	0.00e+00	0	34	0	1021313024	56	4038
2026-01-16 22:29:45.43	76.93	24.08	-42.6	-43.5	21.1	0.00e+00	0	34	0	1024458752	56	4077
2026-01-16 22:29:46.44	77.22	24.10	-42.6	-43.5	21.0	0.00e+00	0	34	0	1027604480	56	4086
2026-01-16 22:29:47.45	77.50	24.11	-42.4	-43.3	21.3	0.00e+00	0	33	0	1030750208	56	3959
2026-01-16 22:29:48.46	77.79	24.13	-42.4	-43.3	21.3	0.00e+00	0	34	0	1033895936	56	3961
2026-01-16 22:29:49.47	78.07	24.15	-42.3	-43.1	21.4	0.00e+00	0	34	0	1037041664	56	3901
2026-01-16 22:29:50.48	78.36	24.16	-42.4	-43.2	21.3	0.00e+00	0	34	0	1040187392	56	3950
2026-01-16 22:29:51.49	78.65	24.18	-42.6	-43.5	21.0	0.00e+00	0	34	0	1043333120	56	4058
2026-01-16 22:29:52.50	78.93	24.19	-42.7	-43.7	20.9	0.00e+00	0	34	0	1046478848	56	4153
2026-01-16 22:29:53.51	79.22	24.21	-42.8	-43.8	20.9	0.00e+00	0	33	0	1049624576	56	4198
2026-01-16 22:29:54.51	79.50	24.22	-42.8	-43.7	20.9	0.00e+00	0	34	0	1052770304	56	4173
2026-01-16 22:29:55.52	79.79	24.23	-42.8	-43.7	20.9	0.00e+00	0	34	0	1055916032	56	4157
2026-01-16 22:29:56.53	80.08	24.24	-42.8	-43.7	20.9	0.00e+00	0	34	0	1059061760	56	4185
2026-01-16 22:29:57.54	80.37	24.26	-42.9	-43.9	20.7	0.00e+00	0	34	0	1062207488	56	4252
2026-01-16 22:29:58.55	80.65	24.27	-42.9	-43.9	20.7	0.00e+00	0	34	0	1065353216	56	4249
2026-01-16 22:29:59.55	80.94	24.27	-43.0	-44.0	20.7	0.00e+00	0	34	0	1068498944	56	4302
2026-01-16 22:30:00.56	81.23	24.28	-42.8	-43.7	21.0	0.00e+00	0	34	0	1071644672	56	4163
2026-01-16 22:30:01.57	81.52	24.29	-42.8	-43.7	21.0	0.00e+00	0	34	0	1074790400	56	4171
2026-01-16 22:30:02.58	81.80	24.30	-42.7	-43.6	21.0	0.00e+00	0	33	0	1077936128	56	4127
2026-01-16 22:30:03.59	82.09	24.31	-42.8	-43.7	20.9	0.00e+00	0	33	0	1081081856	56	4179
2026-01-16 22:30:04.60	82.38	24.31	-42.6	-43.5	21.0	0.00e+00	0	34	0	1084227584	56	4079
2026-01-16 22:30:05.60	82.67	24.32	-42.5	-43.4	21.2	0.00e+00	0	33	0	1087373312	56	4024
2026-01-16 22:30:06.61	82.96	24.32	-42.6	-43.4	21.1	0.00e+00	0	34	0	1090519040	56	4045
2026-01-16 22:30:07.62	83.25	24.32	-42.6	-43.5	21.0	0.00e+00	0	34	0	1093664768	56	4082
2026-01-16 22:30:08.63	83.53	24.33	-42.5	-43.4	21.2	0.00e+00	0	34	0	1096810496	56	4042
2026-01-16 22:30:09.64	83.82	24.33	-42.5	-43.4	21.2	0.00e+00	0	34	0	1099956224	56	4009
2026-01-16 22:30:10.65	84.11	24.33	-42.5	-43.3	21.2	0.00e+00	0	34	0	1103101952	56	3999
2026-01-16 22:30:11.66	84.40	24.33	-42.6	-43.5	21.1	0.00e+00	0	33	0	1106247680	56	4053
2026-01-16 22:30:12.67	84.69	24.33	-42.6	-43.5	21.1	0.00e+00	0	34	0	1109393408	56	4052
2026-01-16 22:30:13.68	84.98	24.33	-42.8	-43.7	20.9	0.00e+00	0	34	0	1112539136	56	4154
2026-01-16 22:30:14.68	85.27	24.33	-42.6	-43.5	21.1	0.00e+00	0	34	0	1115684864	56	4073
2026-01-16 22:30:15.69	85.56	24.32	-42.6	-43.6	21.0	0.00e+00	0	34	0	1118830592	56	4100
2026-01-16 22:30:16.70	85.85	24.32	-42.7	-43.6	21.0	0.00e+00	0	33	0	1121976320	56	4102
2026-01-16 22:30:17.71	86.13	24.32	-42.8	-43.7	20.9	0.00e+00	0	34	0	1125122048	56	4147
2026-01-16 22:30:18.72	86.42	24.31	-42.6	-43.5	21.1	0.00e+00	0	34	0	1128267776	56	4069
2026-01-16 22:30:19.72	86.71	24.31	-42.6	-43.5	21.1	0.00e+00	0	34	0	1131413504	56	4074
2026-01-16 22:30:20.73	87.00	24.30	-42.6	-43.4	21.0	0.00e+00	0	34	0	1134559232	56	4050
2026-01-16 22:30:21.74	87.29	24.29	-42.5	-43.4	21.2	0.00e+00	0	34	0	1137704960	56	4013
2026-01-16 22:30:22.75	87.57	24.29	-42.5	-43.4	21.1	0.00e+00	0	34	0	1140850688	56	4041
2026-01-16 22:30:23.76	87.86	24.28	-42.4	-43.3	21.2	0.00e+00	0	34	0	1143996416	56	3990
2026-01-16 22:30:24.77	88.15	24.27	-42.3	-43.2	21.2	0.00e+00	0	34	0	1147142144	56	3941
2026-01-16 22:30:25.78	88.44	24.26	-42.3	-43.2	21.3	0.00e+00	0	34	0	1150287872	56	3934
2026-01-16 22:30:26.79	88.73	24.25	-42.4	-43.2	21.3	0.00e+00	0	34	0	1153433600	56	3957
2026-01-16 22:30:27.79	89.01	24.24	-42.5	-43.4	21.2	0.00e+00	0	34	0	1157627904	56	4008
2026-01-16 22:30:28.80	89.30	24.22	-42.4	-43.3	21.2	0.00e+00	0	34	0	1159725056	56	3974
2026-01-16 22:30:29.81	89.59	24.21	-42.5	-43.4	21.2	0.00e+00	0	34	0	1162870784	56	4015
2026-01-16 22:30:30.82	89.87	24.20	-42.3	-43.2	21.3	0.00e+00	0	34	0	1166016512	56	3935
2026-01-16 22:30:31.83	90.16	24.18	-42.4	-43.3	21.2	0.00e+00	0	34	0	1169162240	56	3990
2026-01-16 22:30:32.84	90.45	24.17	-42.4	-43.3	21.2	0.00e+00	0	34	0	1172307968	56	3977
2026-01-16 22:30:33.85	90.73	24.15	-42.4	-43.2	21.3	0.00e+00	0	34	0	1175453696	56	3951
2026-01-16 22:30:34.85	91.02	24.14	-42.3	-43.1	21.4	0.00e+00	0	34	0	1178599424	56	3895
2026-01-16 22:30:35.86	91.30	24.12	-42.2	-43.0	21.5	0.00e+00	0	34	0	1181745152	56	3845
2026-01-16 22:30:36.87	91.59	24.10	-42.2	-43.1	21.4	0.00e+00	0	34	0	1184890880	56	3880
2026-01-16 22:30:37.88	91.87	24.08	-42.3	-43.1	21.4	0.00e+00	0	34	0	1188036608	56	3894
2026-01-16 22:30:38.88	92.15	24.06	-42.3	-43.1	21.4	0.00e+00	0	34	0	1191182336	56	3891
2026-01-16 22:30:39.89	92.44	24.04	-42.3	-43.1	21.4	0.00e+00	0	34	0	1195376640	56	3913
2026-01-16 22:30:40.90	92.72	24.02	-42.3	-43.2	21.3	0.00e+00	0	34	0	1198522368	56	3924
2026-01-16 22:30:41.91	93.01	24.00	-42.3	-43.1	21.4	0.00e+00	0	34	0	1201668096	56	3906
2026-01-16 22:30:42.92	93.29	23.98	-42.3	-43.1	21.4	0.00e+00	0	34	0	1204813824	56	3909
2026-01-16 22:30:43.93	93.57	23.95	-42.4	-43.2	21.3	0.00e+00	0	34	0	1206910976	56	3950
2026-01-16 22:30:44.94	93.86	23.93	-42.5	-43.4	21.1	0.00e+00	0	34	0	1210056704	56	4030
2026-01-16 22:30:45.94	94.13	23.91	-42.5	-43.4	21.1	0.00e+00	0	34	0	1213202432	56	4019
2026-01-16 22:30:46.95	94.42	23.88	-42.5	-43.4	21.1	0.00e+00	0	34	0	1216348160	56	4033
2026-01-16 22:30:47.96	94.70	23.86	-42.7	-43.6	20.9	0.00e+00	0	34	0	1219493888	56	4131
2026-01-16 22:30:48.97	94.98	23.83	-42.6	-43.5	21.0	0.00e+00	0	34	0	1222639616	56	4065
2026-01-16 22:30:49.98	95.26	23.80	-42.5	-43.3	21.2	0.00e+00	0	34	0	1225785344	56	4000
2026-01-16 22:30:50.98	95.54	23.77	-42.5	-43.4	21.1	0.00e+00	0	34	0	1228931072	56	4032
2026-01-16 22:30:51.99	95.81	23.75	-42.5	-43.4	21.1	0.00e+00	0	34	0	1233125376	56	4035
2026-01-16 22:30:53.00	96.09	23.72	-42.7	-43.6	21.0	0.00e+00	0	34	0	1236271104	56	4109
2026-01-16 22:30:54.01	96.37	23.69	-42.6	-43.6	21.0	0.00e+00	0	34	0	1239416832	56	4102
2026-01-16 22:30:55.02	96.65	23.66	-42.8	-43.7	20.9	0.00e+00	0	34	0	1242562560	56	4150
2026-01-16 22:30:56.02	96.92	23.63	-42.6	-43.5	21.0	0.00e+00	0	34	0	1245708288	56	4085
2026-01-16 22:30:57.03	97.20	23.60	-42.6	-43.5	21.0	0.00e+00	0	34	0	1248854016	56	4062
2026-01-16 22:30:58.04	97.48	23.56	-42.6	-43.5	21.0	0.00e+00	0	34	0	1251999744	56	4058
2026-01-16 22:30:59.05	97.75	23.53	-42.5	-43.4	21.1	0.00e+00	0	34	0	1254096896	56	4031
2026-01-16 22:31:00.06	98.03	23.50	-42.5	-43.3	21.2	0.00e+00	0	34	0	1257242624	56	4000
2026-01-16 22:31:01.07	98.30	23.46	-42.5	-43.4	21.1	0.00e+00	0	34	0	1260388352	56	4009
2026-01-16 22:31:02.08	98.58	23.43	-42.5	-43.4	21.1	0.00e+00	0	34	0	1263534080	56	4036
2026-01-16 22:31:03.09	98.85	23.39	-42.4	-43.2	21.3	0.00e+00	0	34	0	1266679808	56	3958
2026-01-16 22:31:04.10	99.12	23.36	-42.3	-43.1	21.4	0.00e+00	0	34	0	1270874112	56	3900
2026-01-16 22:31:05.11	99.39	23.32	-42.5	-43.3	21.2	0.00e+00	0	33	0	1274019840	56	4000
2026-01-16 22:31:06.11	99.66	23.28	-42.6	-43.5	21.1	0.00e+00	0	34	0	1277165568	56	4059
2026-01-16 22:31:07.12	99.93	23.24	-42.6	-43.5	21.0	0.00e+00	0	34	0	1280311296	56	4084
2026-01-16 22:31:08.13	100.20	23.21	-42.6	-43.5	21.0	0.00e+00	0	34	0	1283457024	56	4096
2026-01-16 22:31:09.14	100.47	23.17	-42.7	-43.6	20.9	0.00e+00	0	34	0	1286602752	56	4118
2026-01-16 22:31:10.15	100.74	23.13	-42.8	-43.7	20.9	0.00e+00	0	34	0	1289748480	56	4156
2026-01-16 22:31:11.16	101.01	23.09	-42.6	-43.5	21.0	0.00e+00	0	34	0	1292894208	56	4098
2026-01-16 22:31:12.17	101.28	23.05	-42.5	-43.4	21.1	0.00e+00	0	34	0	1296039936	56	4028
2026-01-16 22:31:13.18	101.54	23.01	-42.6	-43.4	21.1	0.00e+00	0	34	0	1299185664	56	4049
2026-01-16 22:31:14.18	101.81	22.96	-42.6	-43.5	21.0	0.00e+00	0	34	0	1301282816	56	4097
2026-01-16 22:31:15.19	102.07	22.92	-42.7	-43.6	20.9	0.00e+00	0	34	0	1305477120	56	4113
2026-01-16 22:31:16.20	102.34	22.88	-42.6	-43.5	21.0	0.00e+00	0	34	0	1308622848	56	4058
2026-01-16 22:31:17.21	102.60	22.83	-42.6	-43.5	21.0	0.00e+00	0	34	0	1311768576	56	4086
2026-01-16 22:31:18.22	102.87	22.79	-42.6	-43.5	21.1	0.00e+00	0	34	0	1314914304	56	4062
2026-01-16 22:31:19.23	103.13	22.75	-42.7	-43.6	21.0	0.00e+00	0	34	0	1318060032	56	4100
2026-01-16 22:31:20.24	103.39	22.70	-42.8	-43.7	20.8	0.00e+00	0	34	0	1321205760	56	4148
2026-01-16 22:31:21.25	103.65	22.66	-42.8	-43.7	20.8	0.00e+00	0	34	0	1324351488	56	4187
2026-01-16 22:31:22.25	103.91	22.61	-42.8	-43.7	20.9	0.00e+00	0	34	0	1327497216	56	4155
2026-01-16 22:31:23.26	104.17	22.56	-42.8	-43.8	20.8	0.00e+00	0	34	0	1330642944	56	4200
2026-01-16 22:31:24.27	104.43	22.52	-42.8	-43.7	20.8	0.00e+00	0	34	0	1333788672	56	4182
2026-01-16 22:31:25.28	104.69	22.47	-42.8	-43.7	20.8	0.00e+00	0	34	0	1336934400	56	4191
2026-01-16 22:31:26.29	104.94	22.42	-42.8	-43.7	20.8	0.00e+00	0	34	0	1340080128	56	4182
2026-01-16 22:31:27.30	105.20	22.37	-42.8	-43.8	20.8	0.00e+00	0	34	0	1343225856	56	4194
2026-01-16 22:31:28.31	105.46	22.32	-43.0	-43.9	20.6	0.00e+00	0	34	0	1346371584	56	4271
2026-01-16 22:31:29.31	105.71	22.27	-43.0	-43.9	20.7	0.00e+00	0	34	0	1349517312	56	4285
2026-01-16 22:31:30.32	105.96	22.22	-42.9	-43.8	20.8	0.00e+00	0	34	0	1352663040	56	4218
2026-01-16 22:31:31.33	106.22	22.17	-42.8	-43.7	20.9	0.00e+00	0	34	0	1355808768	56	4153
2026-01-16 22:31:32.34	106.47	22.12	-42.8	-43.7	20.8	0.00e+00	0	34	0	1358954496	56	4174
2026-01-16 22:31:33.34	106.72	22.07	-42.7	-43.6	20.9	0.00e+00	0	34	0	1362100224	56	4120
2026-01-16 22:31:34.35	106.97	22.02	-42.8	-43.7	20.8	0.00e+00	0	34	0	1365245952	56	4190
2026-01-16 22:31:35.36	107.22	21.97	-42.9	-43.9	20.7	0.00e+00	0	34	0	1368391680	56	4244
2026-01-16 22:31:36.37	107.47	21.91	-42.8	-43.8	20.7	0.00e+00	0	34	0	1371537408	56	4196
2026-01-16 22:31:37.38	107.72	21.86	-43.0	-43.9	20.6	0.00e+00	0	34	0	1374683136	56	4271
2026-01-16 22:31:38.38	107.96	21.81	-42.8	-43.7	20.8	0.00e+00	0	34	0	1377828864	56	4174
2026-01-16 22:31:39.39	108.21	21.75	-42.8	-43.7	20.8	0.00e+00	0	34	0	1380974592	56	4189
2026-01-16 22:31:40.40	108.46	21.70	-42.9	-43.8	20.7	0.00e+00	0	34	0	1384120320	56	4238
2026-01-16 22:31:41.41	108.70	21.64	-42.8	-43.8	20.7	0.00e+00	0	34	0	1387266048	56	4194
2026-01-16 22:31:42.42	108.95	21.59	-42.8	-43.7	20.8	0.00e+00	0	34	0	1390411776	56	4183
2026-01-16 22:31:43.42	109.19	21.53	-42.8	-43.8	20.8	0.00e+00	0	34	0	1393557504	56	4201
2026-01-16 22:31:44.43	109.43	21.48	-42.6	-43.5	21.0	0.00e+00	0	34	0	1396703232	56	4095
2026-01-16 22:31:45.44	109.67	21.42	-42.7	-43.7	20.8	0.00e+00	0	34	0	1399848960	56	4146
2026-01-16 22:31:46.45	109.91	21.36	-42.7	-43.6	20.9	0.00e+00	0	34	0	1402994688	56	4127
2026-01-16 22:31:47.46	110.15	21.30	-42.7	-43.6	20.9	0.00e+00	0	34	0	1406140416	56	4127
2026-01-16 22:31:48.47	110.39	21.25	-42.8	-43.7	20.8	0.00e+00	0	34	0	1409286144	56	4157
2026-01-16 22:31:49.48	110.63	21.19	-42.9	-43.9	20.7	0.00e+00	0	34	0	1412431872	56	4246
2026-01-16 22:31:50.49	110.87	21.13	-42.9	-43.9	20.6	0.00e+00	0	34	0	1415577600	56	4258
2026-01-16 22:31:51.50	111.10	21.07	-43.0	-44.0	20.5	0.00e+00	0	34	0	1418723328	56	4320
2026-01-16 22:31:52.51	111.34	21.01	-43.0	-43.9	20.6	0.00e+00	0	34	0	1421869056	56	4288
2026-01-16 22:31:53.51	111.57	20.95	-42.8	-43.8	20.7	0.00e+00	0	34	0	1425014784	56	4195
2026-01-16 22:31:54.52	111.81	20.89	-42.9	-43.8	20.7	0.00e+00	0	34	0	1428160512	56	4221
2026-01-16 22:31:55.53	112.04	20.83	-42.9	-43.9	20.6	0.00e+00	0	34	0	1431306240	56	4253
2026-01-16 22:31:56.54	112.27	20.77	-42.9	-43.9	20.6	0.00e+00	0	34	0	1434451968	56	4251
2026-01-16 22:31:57.54	112.50	20.71	-42.6	-43.5	20.9	0.00e+00	0	34	0	1437597696	56	4080
2026-01-16 22:31:58.55	112.73	20.65	-42.7	-43.6	20.9	0.00e+00	0	34	0	1440743424	56	4101
2026-01-16 22:31:59.56	112.96	20.59	-42.7	-43.6	20.9	0.00e+00	0	34	0	1443889152	56	4126
2026-01-16 22:32:00.57	113.19	20.53	-42.8	-43.7	20.8	0.00e+00	0	34	0	1447034880	56	4182
2026-01-16 22:32:01.58	113.42	20.47	-42.9	-43.8	20.7	0.00e+00	0	34	0	1450180608	56	4219
2026-01-16 22:32:02.58	113.64	20.41	-42.9	-43.9	20.6	0.00e+00	0	34	0	1453326336	56	4252
2026-01-16 22:32:03.59	113.87	20.34	-43.1	-44.0	20.5	0.00e+00	0	34	0	1456472064	56	4333
2026-01-16 22:32:04.60	114.09	20.28	-43.1	-44.1	20.4	0.00e+00	0	34	0	1459617792	56	4369
2026-01-16 22:32:05.61	114.32	20.22	-43.1	-44.0	20.5	0.00e+00	0	34	0	1462763520	56	4339
2026-01-16 22:32:06.62	114.54	20.15	-43.0	-44.0	20.5	0.00e+00	0	34	0	1465909248	56	4308
2026-01-16 22:32:07.62	114.76	20.09	-43.0	-43.9	20.6	0.00e+00	0	34	0	1469054976	56	4275
2026-01-16 22:32:08.63	114.98	20.03	-43.0	-43.9	20.5	0.00e+00	0	34	0	1472200704	56	4291
2026-01-16 22:32:09.64	115.20	19.96	-42.9	-43.8	20.6	0.00e+00	0	34	0	1475346432	56	4198
2026-01-16 22:32:10.65	115.42	19.90	-42.7	-43.6	20.7	0.00e+00	0	34	0	1478492160	56	4142
2026-01-16 22:32:11.66	115.64	19.83	-42.8	-43.8	20.6	0.00e+00	0	34	0	1481637888	56	4199
2026-01-16 22:32:12.66	115.86	19.77	-42.8	-43.7	20.7	0.00e+00	0	34	0	1484783616	56	4156
2026-01-16 22:32:13.67	116.07	19.71	-42.7	-43.6	20.7	0.00e+00	0	34	0	1487929344	56	4135
2026-01-16 22:32:14.68	116.29	19.64	-42.7	-43.7	20.8	0.00e+00	0	33	0	1491075072	56	4146
2026-01-16 22:32:15.69	116.50	19.57	-42.7	-43.6	20.8	0.00e+00	0	34	0	1494220800	56	4142
2026-01-16 22:32:16.70	116.72	19.51	-42.8	-43.7	20.8	0.00e+00	0	34	0	1497366528	56	4165
2026-01-16 22:32:17.71	116.93	19.44	-42.8	-43.7	20.7	0.00e+00	0	34	0	1500512256	56	4190
2026-01-16 22:32:18.71	117.14	19.38	-42.9	-43.9	20.6	0.00e+00	0	34	0	1503657984	56	4254
2026-01-16 22:32:19.72	117.35	19.31	-42.9	-43.8	20.6	0.00e+00	0	33	0	1506803712	56	4221
2026-01-16 22:32:20.73	117.57	19.24	-42.9	-43.9	20.5	0.00e+00	0	34	0	1509949440	56	4262
2026-01-16 22:32:21.74	117.78	19.18	-42.9	-43.8	20.6	0.00e+00	0	34	0	1513095168	56	4236
2026-01-16 22:32:22.74	117.98	19.11	-42.9	-43.8	20.5	0.00e+00	0	34	0	1516240896	56	4239
2026-01-16 22:32:23.75	118.19	19.04	-42.9	-43.9	20.5	0.00e+00	0	34	0	1519386624	56	4247
2026-01-16 22:32:24.76	118.40	18.98	-42.8	-43.8	20.6	0.00e+00	0	34	0	1522532352	56	4207
2026-01-16 22:32:25.77	118.60	18.91	-42.9	-43.8	20.6	0.00e+00	0	34	0	1525678080	56	4241
2026-01-16 22:32:26.78	118.81	18.84	-42.9	-43.8	20.6	0.00e+00	0	34	0	1528823808	56	4241
2026-01-16 22:32:27.79	119.01	18.77	-43.0	-43.9	20.5	0.00e+00	0	34	0	1531969536	56	4275
2026-01-16 22:32:28.80	119.22	18.71	-42.9	-43.8	20.6	0.00e+00	0	34	0	1535115264	56	4238
2026-01-16 22:32:29.80	119.42	18.64	-42.9	-43.8	20.6	0.00e+00	0	34	0	1538260992	56	4231
2026-01-16 22:32:30.81	119.62	18.57	-42.9	-43.8	20.6	0.00e+00	0	34	0	1541406720	56	4225
2026-01-16 22:32:31.82	119.82	18.50	-42.8	-43.8	20.7	0.00e+00	0	34	0	1544552448	56	4206
2026-01-16 22:32:32.83	120.02	18.43	-42.9	-43.8	20.6	0.00e+00	0	34	0	1547698176	56	4219
2026-01-16 22:32:33.84	120.22	18.36	-43.0	-43.9	20.6	0.00e+00	0	34	0	1550843904	56	4277
2026-01-16 22:32:34.84	120.42	18.29	-43.0	-44.0	20.5	0.00e+00	0	34	0	1553989632	56	4296
2026-01-16 22:32:35.85	120.62	18.23	-43.1	-44.1	20.4	0.00e+00	0	34	0	1557135360	56	4372
2026-01-16 22:32:36.86	120.81	18.16	-43.2	-44.1	20.4	0.00e+00	0	34	0	1560281088	56	4380
2026-01-16 22:32:37.87	121.01	18.09	-43.1	-44.1	20.4	0.00e+00	0	34	0	1563426816	56	4347
2026-01-16 22:32:38.88	121.20	18.02	-43.1	-44.1	20.4	0.00e+00	0	34	0	1566572544	56	4350
2026-01-16 22:32:39.88	121.40	17.95	-43.1	-44.0	20.4	0.00e+00	0	34	0	1569718272	56	4324
2026-01-16 22:32:40.89	121.59	17.88	-43.0	-44.0	20.5	0.00e+00	0	33	0	1572864000	56	4294
2026-01-16 22:32:41.90	121.78	17.81	-43.1	-44.0	20.4	0.00e+00	0	34	0	1576009728	56	4339
2026-01-16 22:32:42.90	121.97	17.74	-43.0	-44.0	20.4	0.00e+00	0	34	0	1579155456	56	4313
2026-01-16 22:32:43.91	122.16	17.67	-43.0	-44.0	20.4	0.00e+00	0	34	0	1582301184	56	4310
2026-01-16 22:32:44.92	122.35	17.60	-43.1	-44.0	20.4	0.00e+00	0	34	0	1585446912	56	4331
2026-01-16 22:32:45.93	122.54	17.53	-43.1	-44.0	20.4	0.00e+00	0	34	0	1588592640	56	4332
2026-01-16 22:32:46.94	122.73	17.46	-43.0	-44.0	20.4	0.00e+00	0	34	0	1591738368	56	4310
2026-01-16 22:32:47.94	122.91	17.39	-43.1	-44.1	20.3	0.00e+00	0	34	0	1594884096	56	4346
2026-01-16 22:32:48.95	123.10	17.32	-43.2	-44.2	20.2	0.00e+00	0	33	0	1598029824	57	4168
2026-01-16 22:32:49.96	123.29	17.25	-43.2	-44.2	20.3	0.00e+00	0	34	0	1601175552	57	4160
2026-01-16 22:32:50.97	123.47	17.18	-43.3	-44.3	20.2	0.00e+00	0	34	0	1604321280	57	4197
2026-01-16 22:32:51.98	123.65	17.11	-43.3	-44.3	20.2	0.00e+00	0	34	0	1607467008	57	4197
2026-01-16 22:32:52.98	123.84	17.04	-43.2	-44.2	20.2	0.00e+00	0	34	0	1610612736	57	4154
2026-01-16 22:32:53.99	124.02	16.97	-43.3	-44.3	20.1	0.00e+00	0	34	0	1613758464	57	4219
2026-01-16 22:32:55.00	124.20	16.90	-43.3	-44.3	20.1	0.00e+00	0	34	0	1616904192	57	4219
2026-01-16 22:32:56.01	124.38	16.82	-43.3	-44.3	20.2	0.00e+00	0	34	0	1620049920	57	4204
2026-01-16 22:32:57.02	124.56	16.75	-43.3	-44.3	20.1	0.00e+00	0	34	0	1623195648	57	4235
2026-01-16 22:32:58.02	124.74	16.68	-43.3	-44.3	20.1	0.00e+00	0	34	0	1626341376	57	4210
2026-01-16 22:32:59.03	124.92	16.61	-43.1	-44.1	20.3	0.00e+00	0	34	0	1629487104	57	4125
2026-01-16 22:33:00.04	125.09	16.54	-43.3	-44.3	20.1	0.00e+00	0	34	0	1632632832	57	4220
2026-01-16 22:33:01.04	125.27	16.47	-43.3	-44.2	20.1	0.00e+00	0	34	0	1635778560	57	4192
2026-01-16 22:33:02.05	125.44	16.40	-43.3	-44.3	20.0	0.00e+00	0	34	0	1638924288	57	4240
2026-01-16 22:33:03.06	125.62	16.33	-43.3	-44.3	20.0	0.00e+00	0	34	0	1642070016	57	4235
2026-01-16 22:33:04.07	125.79	16.26	-43.4	-44.4	19.9	0.00e+00	0	34	0	1645215744	57	4270
2026-01-16 22:33:05.07	125.96	16.18	-43.5	-44.6	19.8	0.00e+00	0	34	0	1648361472	57	4352
2026-01-16 22:33:06.07	126.13	16.11	-43.6	-44.6	19.7	0.00e+00	0	34	0	1651507200	57	4391
2026-01-16 22:33:07.08	126.31	16.04	-43.6	-44.6	19.8	0.00e+00	0	34	0	1654652928	57	4377
2026-01-16 22:33:08.08	126.48	15.97	-43.6	-44.6	19.8	0.00e+00	0	34	0	1657798656	57	4385
2026-01-16 22:33:09.09	126.65	15.90	-43.7	-44.7	19.7	0.00e+00	0	34	0	1660944384	57	4416
2026-01-16 22:33:10.09	126.81	15.83	-43.8	-44.9	19.5	0.00e+00	0	34	0	1664090112	58	4260
2026-01-16 22:33:11.10	126.98	15.76	-43.9	-45.0	19.4	0.00e+00	0	34	0	1667235840	58	4312
2026-01-16 22:33:12.10	127.15	15.69	-43.9	-44.9	19.5	0.00e+00	0	34	0	1670381568	58	4287
2026-01-16 22:33:13.11	127.32	15.61	-43.9	-45.0	19.4	0.00e+00	0	34	0	1673527296	58	4299
2026-01-16 22:33:14.12	127.48	15.54	-43.7	-44.7	19.6	0.00e+00	0	34	0	1676673024	58	4179
2026-01-16 22:33:15.13	127.65	15.47	-43.9	-45.0	19.4	0.00e+00	0	34	0	1679818752	58	4301
2026-01-16 22:33:16.14	127.81	15.40	-43.9	-45.0	19.4	0.00e+00	0	34	0	1682964480	58	4323
2026-01-16 22:33:17.14	127.97	15.33	-44.2	-45.4	19.1	0.00e+00	0	34	0	1686110208	59	4253
2026-01-16 22:33:18.15	128.14	15.26	-43.9	-45.0	19.3	0.00e+00	0	34	0	1689255936	59	4088
2026-01-16 22:33:19.16	128.30	15.18	-43.9	-45.0	19.3	0.00e+00	0	34	0	1692401664	59	4091
2026-01-16 22:33:20.16	128.46	15.11	-43.9	-44.9	19.4	0.00e+00	0	34	0	1695547392	59	4039
2026-01-16 22:33:21.17	128.62	15.04	-43.8	-44.9	19.5	0.00e+00	0	34	0	1698693120	59	4010
2026-01-16 22:33:22.18	128.78	14.97	-43.9	-44.9	19.4	0.00e+00	0	34	0	1701838848	59	4039
2026-01-16 22:33:23.19	128.94	14.90	-43.8	-44.9	19.4	0.00e+00	0	34	0	1704984576	59	4040
2026-01-16 22:33:24.20	129.10	14.83	-43.9	-45.0	19.4	0.00e+00	0	34	0	1708130304	59	4060
2026-01-16 22:33:25.20	129.26	14.76	-44.0	-45.0	19.3	0.00e+00	0	33	0	1711276032	59	4090
2026-01-16 22:33:26.21	129.41	14.68	-43.9	-45.0	19.3	0.00e+00	0	34	0	1714421760	59	4076
2026-01-16 22:33:27.22	129.57	14.61	-43.8	-44.9	19.5	0.00e+00	0	34	0	1717567488	59	4012
2026-01-16 22:33:28.23	129.73	14.54	-43.9	-45.0	19.4	0.00e+00	0	34	0	1720713216	59	4053
2026-01-16 22:33:29.23	129.88	14.47	-43.8	-44.9	19.5	0.00e+00	0	34	0	1723858944	59	4013
2026-01-16 22:33:30.24	130.03	14.40	-44.0	-45.1	19.3	0.00e+00	0	34	0	1727004672	59	4106
2026-01-16 22:33:31.25	130.19	14.33	-44.1	-45.2	19.1	0.00e+00	0	34	0	1730150400	59	4191
2026-01-16 22:33:32.26	130.34	14.25	-44.3	-45.4	18.9	0.00e+00	0	34	0	1733296128	59	4278
2026-01-16 22:33:33.26	130.49	14.18	-44.3	-45.4	18.9	0.00e+00	0	34	0	1736441856	59	4277
2026-01-16 22:33:34.27	130.64	14.11	-44.2	-45.4	19.0	0.00e+00	0	34	0	1739587584	59	4250
2026-01-16 22:33:35.27	130.79	14.04	-44.1	-45.2	19.1	0.00e+00	0	34	0	1742733312	59	4187
2026-01-16 22:33:36.28	130.94	13.97	-44.2	-45.4	19.0	0.00e+00	0	34	0	1745879040	59	4253
2026-01-16 22:33:37.29	131.09	13.90	-44.1	-45.3	19.1	0.00e+00	0	34	0	1749024768	59	4199
2026-01-16 22:33:38.30	131.24	13.83	-44.1	-45.2	19.1	0.00e+00	0	34	0	1752170496	59	4183
2026-01-16 22:33:39.31	131.39	13.76	-44.2	-45.4	19.0	0.00e+00	0	34	0	1755316224	59	4253
2026-01-16 22:33:40.31	131.53	13.69	-44.2	-45.4	19.0	0.00e+00	0	34	0	1758461952	59	4246
2026-01-16 22:33:41.32	131.68	13.61	-44.2	-45.3	19.0	0.00e+00	0	34	0	1761607680	59	4206
2026-01-16 22:33:42.33	131.83	13.54	-44.2	-45.3	18.9	0.00e+00	0	34	0	1764753408	59	4237
2026-01-16 22:33:43.34	131.97	13.47	-44.1	-45.2	19.1	0.00e+00	0	34	0	1767899136	59	4192
2026-01-16 22:33:44.34	132.12	13.40	-44.0	-45.1	19.2	0.00e+00	0	34	0	1771044864	59	4135
2026-01-16 22:33:45.35	132.26	13.33	-44.0	-45.1	19.2	0.00e+00	0	34	0	1774190592	59	4120
2026-01-16 22:33:46.36	132.40	13.26	-44.0	-45.1	19.2	0.00e+00	0	34	0	1777336320	59	4110
2026-01-16 22:33:47.36	132.54	13.19	-43.8	-44.9	19.4	0.00e+00	0	34	0	1780482048	59	4031
2026-01-16 22:33:48.37	132.69	13.12	-43.9	-45.0	19.3	0.00e+00	0	34	0	1783627776	59	4076
2026-01-16 22:33:49.37	132.83	13.05	-44.2	-45.3	19.0	0.00e+00	0	34	0	1786773504	59	4216
2026-01-16 22:33:50.38	132.97	12.98	-44.2	-45.4	18.9	0.00e+00	0	34	0	1789919232	59	4245
2026-01-16 22:33:51.39	133.11	12.91	-44.4	-45.5	18.8	0.00e+00	0	34	0	1793064960	59	4337
2026-01-16 22:33:52.40	133.25	12.83	-44.3	-45.5	18.8	0.00e+00	0	34	0	1796210688	59	4295
2026-01-16 22:33:53.40	133.38	12.76	-44.4	-45.6	18.7	0.00e+00	0	34	0	1799356416	59	4348
2026-01-16 22:33:54.41	133.52	12.69	-44.4	-45.6	18.6	0.00e+00	0	34	0	1802502144	59	4375
2026-01-16 22:33:55.42	133.66	12.62	-44.3	-45.5	18.8	0.00e+00	0	34	0	1805647872	59	4325
2026-01-16 22:33:56.43	133.80	12.55	-44.4	-45.6	18.7	0.00e+00	0	34	0	1808793600	59	4362
2026-01-16 22:33:57.44	133.93	12.48	-44.3	-45.5	18.8	0.00e+00	0	34	0	1811939328	59	4323
2026-01-16 22:33:58.45	134.07	12.41	-44.4	-45.6	18.6	0.00e+00	0	34	0	1815085056	59	4383
2026-01-16 22:33:59.46	134.20	12.34	-44.4	-45.6	18.6	0.00e+00	0	34	0	1818230784	59	4374
2026-01-16 22:34:00.47	134.34	12.27	-44.4	-45.6	18.6	0.00e+00	0	34	0	1821376512	59	4382
2026-01-16 22:34:01.48	134.47	12.20	-44.3	-45.5	18.8	0.00e+00	0	34	0	1824522240	59	4305
2026-01-16 22:34:02.48	134.60	12.13	-44.3	-45.4	18.8	0.00e+00	0	34	0	1827667968	59	4280
2026-01-16 22:34:03.49	134.74	12.06	-44.3	-45.5	18.8	0.00e+00	0	34	0	1830813696	59	4299
2026-01-16 22:34:04.50	134.87	11.99	-44.3	-45.4	18.8	0.00e+00	0	34	0	1833959424	59	4287
2026-01-16 22:34:05.51	135.00	11.92	-44.3	-45.4	18.7	0.00e+00	0	34	0	1837105152	59	4281
2026-01-16 22:34:06.52	135.13	11.85	-44.3	-45.5	18.7	0.00e+00	0	34	0	1840250880	59	4296
2026-01-16 22:34:07.52	135.26	11.78	-44.4	-45.5	18.6	0.00e+00	0	34	0	1843396608	59	4335
2026-01-16 22:34:08.53	135.39	11.71	-44.3	-45.5	18.7	0.00e+00	0	34	0	1846542336	59	4331
2026-01-16 22:34:09.54	135.52	11.64	-44.4	-45.6	18.6	0.00e+00	0	34	0	1849688064	59	4356
2026-01-16 22:34:10.55	135.65	11.57	-44.4	-45.5	18.6	0.00e+00	0	34	0	1852833792	59	4339
2026-01-16 22:34:11.56	135.78	11.50	-44.3	-45.4	18.7	0.00e+00	0	34	0	1855979520	59	4286
2026-01-16 22:34:12.57	135.90	11.43	-44.3	-45.5	18.6	0.00e+00	0	34	0	1859125248	59	4320
2026-01-16 22:34:13.58	136.03	11.36	-44.5	-45.8	18.4	0.00e+00	0	34	0	1862270976	59	4448
2026-01-16 22:34:14.59	136.16	11.29	-44.4	-45.6	18.6	0.00e+00	0	34	0	1865416704	59	4371
2026-01-16 22:34:15.59	136.28	11.23	-44.6	-45.8	18.4	0.00e+00	0	34	0	1868562432	59	4479
2026-01-16 22:34:16.60	136.40	11.16	-44.4	-45.6	18.6	0.00e+00	0	34	0	1871708160	59	4354
2026-01-16 22:34:17.61	136.53	11.09	-44.6	-45.8	18.4	0.00e+00	0	34	0	1874853888	59	4459
2026-01-16 22:34:18.62	136.65	11.02	-44.3	-45.5	18.6	0.00e+00	0	34	0	1877999616	59	4331
2026-01-16 22:34:19.63	136.78	10.95	-44.3	-45.5	18.6	0.00e+00	0	34	0	1881145344	59	4326
2026-01-16 22:34:20.64	136.90	10.88	-44.4	-45.6	18.6	0.00e+00	0	34	0	1884291072	59	4353
2026-01-16 22:34:21.65	137.02	10.81	-44.4	-45.6	18.5	0.00e+00	0	34	0	1887436800	59	4382
2026-01-16 22:34:22.66	137.14	10.74	-44.6	-45.9	18.3	0.00e+00	0	34	0	1890582528	59	4496
2026-01-16 22:34:23.66	137.26	10.67	-44.6	-45.9	18.3	0.00e+00	0	34	0	1893728256	59	4498
2026-01-16 22:34:24.67	137.38	10.61	-44.5	-45.7	18.4	0.00e+00	0	34	0	1896873984	59	4430
2026-01-16 22:34:25.68	137.50	10.54	-44.4	-45.7	18.5	0.00e+00	0	34	0	1900019712	59	4395
2026-01-16 22:34:26.69	137.62	10.47	-44.4	-45.6	18.6	0.00e+00	0	34	0	1903165440	59	4360
2026-01-16 22:34:27.70	137.74	10.40	-44.4	-45.6	18.5	0.00e+00	0	34	0	1906311168	59	4390
2026-01-16 22:34:28.71	137.86	10.33	-44.5	-45.7	18.4	0.00e+00	0	34	0	1909456896	59	4414
2026-01-16 22:34:29.72	137.98	10.26	-44.5	-45.7	18.4	0.00e+00	0	34	0	1912602624	59	4422
2026-01-16 22:34:30.72	138.09	10.20	-44.4	-45.6	18.5	0.00e+00	0	34	0	1915748352	59	4390
2026-01-16 22:34:31.73	138.21	10.13	-44.3	-45.4	18.7	0.00e+00	0	34	0	1918894080	59	4287
2026-01-16 22:34:32.74	138.33	10.06	-44.4	-45.6	18.5	0.00e+00	0	34	0	1922039808	59	4371
2026-01-16 22:34:33.75	138.44	9.99	-44.4	-45.6	18.5	0.00e+00	0	34	0	1925185536	59	4365
2026-01-16 22:34:34.76	138.56	9.93	-44.4	-45.6	18.5	0.00e+00	0	34	0	1928331264	59	4366
2026-01-16 22:34:35.76	138.67	9.86	-44.5	-45.7	18.4	0.00e+00	0	34	0	1931476992	59	4426
2026-01-16 22:34:36.77	138.79	9.79	-44.4	-45.6	18.5	0.00e+00	0	34	0	1934622720	59	4385
2026-01-16 22:34:37.78	138.90	9.72	-44.5	-45.7	18.4	0.00e+00	0	34	0	1937768448	59	4437
2026-01-16 22:34:38.79	139.01	9.66	-44.5	-45.8	18.3	0.00e+00	0	34	0	1941962752	59	4453
2026-01-16 22:34:39.80	139.13	9.59	-44.6	-45.8	18.3	0.00e+00	0	34	0	1945108480	59	4478
2026-01-16 22:34:40.81	139.24	9.52	-44.4	-45.6	18.2	0.00e+00	0	34	0	1948254208	60	4141
2026-01-16 22:34:41.82	139.35	9.45	-44.5	-45.8	18.0	0.00e+00	0	34	0	1950351360	60	4224
2026-01-16 22:34:42.83	139.46	9.39	-44.4	-45.6	18.2	0.00e+00	0	34	0	1953497088	60	4127
2026-01-16 22:34:43.84	139.57	9.32	-44.5	-45.8	17.9	0.00e+00	0	34	0	1956642816	60	4230
2026-01-16 22:34:44.85	139.68	9.25	-44.5	-45.8	18.0	0.00e+00	0	34	0	1959788544	60	4195
2026-01-16 22:34:45.86	139.79	9.19	-44.5	-45.8	18.0	0.00e+00	0	34	0	1962934272	60	4226
2026-01-16 22:34:46.86	139.90	9.12	-44.6	-45.8	17.9	0.00e+00	0	34	0	1966080000	60	4242
2026-01-16 22:34:47.87	140.01	9.05	-44.4	-45.7	18.0	0.00e+00	0	34	0	1969225728	60	4173
2026-01-16 22:34:48.88	140.12	8.99	-44.5	-45.8	17.9	0.00e+00	0	34	0	1972371456	60	4205
2026-01-16 22:34:49.89	140.23	8.92	-44.6	-45.8	17.9	0.00e+00	0	34	0	1975517184	60	4234
2026-01-16 22:34:50.90	140.33	8.85	-44.5	-45.8	17.9	0.00e+00	0	34	0	1979711488	60	4196
2026-01-16 22:34:51.90	140.44	8.79	-44.6	-45.9	17.8	0.00e+00	0	34	0	1982857216	60	4272
2026-01-16 22:34:52.91	140.55	8.72	-44.6	-45.9	17.8	0.00e+00	0	34	0	1986002944	60	4278
2026-01-16 22:34:53.92	140.65	8.66	-44.6	-45.9	17.8	0.00e+00	0	34	0	1989148672	60	4264
2026-01-16 22:34:54.93	140.76	8.59	-44.6	-45.9	17.8	0.00e+00	0	34	0	1992294400	60	4268
2026-01-16 22:34:55.94	140.86	8.52	-44.7	-46.0	17.7	0.00e+00	0	34	0	1995440128	60	4309
2026-01-16 22:34:56.95	140.97	8.46	-44.6	-45.9	17.8	0.00e+00	0	34	0	1997537280	60	4274
2026-01-16 22:34:57.96	141.07	8.39	-44.6	-45.9	17.8	0.00e+00	0	34	0	2000683008	60	4284
2026-01-16 22:34:58.96	141.17	8.33	-44.7	-46.0	17.7	0.00e+00	0	34	0	2003828736	60	4304
2026-01-16 22:34:59.97	141.28	8.26	-44.9	-46.2	17.5	0.00e+00	0	34	0	2006974464	60	4421
2026-01-16 22:35:00.98	141.38	8.20	-44.7	-46.0	17.6	0.00e+00	0	34	0	2010120192	60	4337
2026-01-16 22:35:01.99	141.48	8.13	-44.6	-45.8	17.8	0.00e+00	0	34	0	2013265920	60	4237
2026-01-16 22:35:03.00	141.58	8.07	-44.7	-46.1	17.6	0.00e+00	0	34	0	2017460224	60	4341
2026-01-16 22:35:04.01	141.69	8.00	-44.8	-46.2	17.5	0.00e+00	0	34	0	2020605952	60	4393
2026-01-16 22:35:05.01	141.79	7.94	-44.8	-46.1	17.5	0.00e+00	0	34	0	2023751680	60	4386
2026-01-16 22:35:06.02	141.89	7.87	-45.0	-46.3	17.3	0.00e+00	0	34	0	2026897408	60	4488
2026-01-16 22:35:07.03	141.99	7.81	-45.0	-46.4	17.3	0.00e+00	0	34	0	2030043136	60	4502
2026-01-16 22:35:08.04	142.09	7.74	-45.1	-46.6	17.1	0.00e+00	0	34	0	2033188864	60	4607
2026-01-16 22:35:09.04	142.19	7.68	-45.2	-46.6	17.0	0.00e+00	0	34	0	2036334592	60	4640
2026-01-16 22:35:10.05	142.28	7.61	-45.0	-46.4	17.2	0.00e+00	0	34	0	2039480320	61	4290
2026-01-16 22:35:11.06	142.38	7.55	-45.1	-46.5	17.1	0.00e+00	0	34	0	2042626048	61	4334
2026-01-16 22:35:12.07	142.48	7.48	-45.3	-46.7	16.9	0.00e+00	0	34	0	2044723200	61	4437
