passes_logs/2026/01/16/R3.2S_Murmansk/R3.2S_Murmansk__20260116_102216_TY-42_rec.log

#Pass ID: 20260116_102216_TY-42
#Satellite: TY-42
#Configuration: TY-42_900M
#almurnet v.1.7.20251203
#Start time: 2026-01-16 10:22:17

#Version: 2.2.20231116
#Station: R3.2S_Murmansk
#Location: 33.079688 lon 68.888172 lat
#TLE: 1 64048U 25103A   26016.24410880  .00008011  00000-0  38191-3 0 09990
#TLE: 2 64048 097.4123 091.6382 0001701 090.6906 049.3125 15.19172310 37002

#Time	Az	El	Level	Level2	SNR	BER	BlckErr	Temp	State	Recorded	gain1	gain2
2026-01-16 10:22:17.86	21.78	2.12	-53.9	-55.9	12.6	1.14e-04	0	44	0	0	78	4762
2026-01-16 10:22:18.86	21.74	2.18	-57.6	-59.4	6.2	0.00e+00	0	49	104	0	87	16980
2026-01-16 10:22:19.87	21.70	2.25	-57.6	-59.3	6.2	0.00e+00	0	49	104	0	87	16902
2026-01-16 10:22:20.88	21.66	2.32	-57.6	-59.3	6.2	0.00e+00	0	49	104	0	87	16882
2026-01-16 10:22:21.89	21.62	2.39	-57.7	-59.3	6.2	0.00e+00	0	49	104	0	87	16875
2026-01-16 10:22:22.90	21.58	2.46	-57.7	-59.3	6.2	0.00e+00	0	49	104	0	87	16945
2026-01-16 10:22:23.91	21.54	2.53	-57.7	-59.3	6.2	0.00e+00	0	50	104	0	87	16951
2026-01-16 10:22:24.91	21.50	2.60	-57.6	-59.3	6.2	0.00e+00	0	50	104	0	87	16867
2026-01-16 10:22:25.92	21.46	2.67	-57.6	-59.3	6.2	0.00e+00	0	50	104	0	87	16920
2026-01-16 10:22:26.93	21.42	2.74	-57.6	-59.3	6.2	0.00e+00	0	50	104	0	87	16878
2026-01-16 10:22:27.94	21.38	2.82	-57.7	-59.3	6.2	0.00e+00	0	50	104	0	87	16855
2026-01-16 10:22:28.95	21.34	2.89	-57.6	-59.3	6.2	0.00e+00	0	51	104	0	87	16916
2026-01-16 10:22:29.96	21.30	2.96	-57.6	-59.3	6.2	0.00e+00	0	50	104	0	87	16890
2026-01-16 10:22:30.97	21.26	3.03	-57.6	-59.3	6.2	0.00e+00	0	51	104	0	87	16936
2026-01-16 10:22:31.98	21.21	3.10	-57.6	-59.3	6.2	0.00e+00	0	51	104	0	87	16934
2026-01-16 10:22:32.99	21.17	3.17	-57.6	-59.4	6.2	0.00e+00	0	51	104	0	87	17000
2026-01-16 10:22:34.00	21.13	3.25	-57.6	-59.3	6.2	0.00e+00	0	51	104	0	87	16922
2026-01-16 10:22:35.00	21.09	3.32	-57.6	-59.3	6.2	0.00e+00	0	51	104	0	87	16894
2026-01-16 10:22:36.01	21.04	3.39	-57.6	-59.3	6.2	0.00e+00	0	51	104	0	87	16901
2026-01-16 10:22:37.02	21.00	3.46	-57.6	-59.3	6.2	0.00e+00	0	52	104	0	87	16900
2026-01-16 10:22:38.03	20.96	3.54	-57.6	-59.3	6.2	0.00e+00	0	52	104	0	87	16917
2026-01-16 10:22:39.04	20.91	3.61	-57.6	-59.3	6.2	0.00e+00	0	52	104	0	87	16847
2026-01-16 10:22:40.05	20.87	3.68	-57.6	-59.3	6.2	0.00e+00	0	52	104	0	87	16893
2026-01-16 10:22:41.06	20.82	3.76	-57.6	-59.3	6.2	0.00e+00	0	52	104	0	87	16849
2026-01-16 10:22:42.07	20.78	3.83	-57.6	-59.3	6.2	0.00e+00	0	52	104	0	87	16911
2026-01-16 10:22:43.08	20.73	3.91	-57.6	-59.3	6.2	0.00e+00	0	53	104	0	87	16819
2026-01-16 10:22:44.08	20.69	3.98	-57.6	-59.3	6.2	0.00e+00	0	53	104	0	87	16882
2026-01-16 10:22:45.09	20.64	4.06	-57.6	-59.3	6.2	0.00e+00	0	53	104	0	87	16843
2026-01-16 10:22:46.10	20.59	4.13	-57.6	-59.3	6.2	0.00e+00	0	53	104	0	87	16801
2026-01-16 10:22:47.11	20.55	4.21	-57.6	-59.3	6.2	0.00e+00	0	53	104	0	87	16851
2026-01-16 10:22:48.12	20.50	4.28	-57.6	-59.3	6.2	0.00e+00	0	53	104	0	87	16840
2026-01-16 10:22:49.13	20.45	4.36	-57.6	-59.3	6.2	0.00e+00	0	53	104	0	87	16885
2026-01-16 10:22:50.14	20.41	4.44	-57.6	-59.3	6.2	0.00e+00	0	54	104	0	87	16835
2026-01-16 10:22:51.15	20.36	4.51	-57.6	-59.3	6.2	0.00e+00	0	54	104	0	87	16832
2026-01-16 10:22:52.16	20.31	4.59	-57.6	-59.3	6.2	0.00e+00	0	54	104	0	87	16847
2026-01-16 10:22:53.16	20.26	4.67	-57.6	-59.3	6.2	0.00e+00	0	54	104	0	87	16851
2026-01-16 10:22:54.17	20.21	4.74	-57.6	-59.3	6.2	0.00e+00	0	54	104	0	87	16821
2026-01-16 10:22:55.18	20.16	4.82	-57.6	-59.3	6.2	0.00e+00	0	54	104	0	87	16817
2026-01-16 10:22:56.19	20.11	4.90	-57.6	-59.3	6.2	0.00e+00	0	55	104	0	87	16808
2026-01-16 10:22:57.20	20.06	4.98	-57.6	-59.3	6.2	0.00e+00	0	55	104	0	87	16837
2026-01-16 10:22:58.21	20.01	5.06	-57.6	-59.3	6.2	0.00e+00	0	55	104	0	87	16872
2026-01-16 10:22:59.21	19.96	5.14	-57.9	-59.5	6.2	0.00e+00	0	55	104	0	87	17337
2026-01-16 10:23:00.22	19.91	5.21	-57.7	-59.4	6.2	0.00e+00	0	55	104	0	87	17057
2026-01-16 10:23:01.23	19.86	5.29	-57.6	-59.2	6.2	0.00e+00	0	55	104	0	87	16730
2026-01-16 10:23:02.24	19.81	5.37	-57.8	-59.4	6.2	0.00e+00	0	55	104	0	87	17144
2026-01-16 10:23:03.25	19.75	5.45	-57.6	-59.3	6.2	0.00e+00	0	55	104	0	87	16849
2026-01-16 10:23:04.25	19.70	5.53	-57.8	-59.4	6.2	0.00e+00	0	55	104	0	87	17126
2026-01-16 10:23:05.27	19.65	5.62	-57.7	-59.3	6.2	0.00e+00	0	55	104	0	87	16945
2026-01-16 10:23:06.27	19.60	5.70	-57.8	-59.5	6.2	0.00e+00	0	56	104	0	87	17179
2026-01-16 10:23:07.28	19.54	5.78	-57.7	-59.3	6.2	0.00e+00	0	53	0	0	87	16889
2026-01-16 10:23:08.29	19.49	5.86	-57.7	-59.3	6.2	0.00e+00	0	52	0	0	87	16889
2026-01-16 10:23:09.30	19.43	5.94	-57.7	-59.3	6.2	0.00e+00	0	51	0	0	87	16889
2026-01-16 10:23:10.30	19.38	6.02	-57.7	-59.3	6.2	0.00e+00	0	51	0	0	87	16889
2026-01-16 10:23:11.31	19.32	6.10	-57.7	-59.3	6.2	0.00e+00	0	51	0	0	87	16889
2026-01-16 10:23:12.32	19.27	6.19	-57.7	-59.3	6.2	0.00e+00	0	51	0	0	87	16889
2026-01-16 10:23:13.33	19.21	6.27	-57.7	-59.3	6.2	0.00e+00	0	51	0	0	87	16889
2026-01-16 10:23:14.33	19.15	6.35	-57.7	-59.3	6.2	0.00e+00	0	51	0	0	87	16889
2026-01-16 10:23:15.34	19.09	6.44	-57.7	-59.3	6.2	0.00e+00	0	51	0	0	87	16889
2026-01-16 10:23:16.35	19.04	6.52	-57.7	-59.3	6.2	0.00e+00	0	51	0	0	87	16889
2026-01-16 10:23:17.36	18.98	6.61	-57.7	-59.3	6.2	0.00e+00	0	50	0	0	87	16889
2026-01-16 10:23:18.37	18.92	6.69	-57.7	-59.3	6.2	0.00e+00	0	50	0	0	87	16889
2026-01-16 10:23:19.37	18.86	6.78	-57.7	-59.3	6.2	0.00e+00	0	50	0	0	87	16889
2026-01-16 10:23:20.38	18.80	6.86	-57.7	-59.3	6.2	0.00e+00	0	50	0	0	87	16889
2026-01-16 10:23:21.39	18.74	6.95	-57.7	-59.3	6.2	0.00e+00	0	50	0	0	87	16889
2026-01-16 10:23:22.40	18.68	7.03	-57.7	-59.3	6.2	0.00e+00	0	50	0	0	87	16889
2026-01-16 10:23:23.41	18.62	7.12	-57.7	-59.3	6.2	0.00e+00	0	50	0	0	87	16889
2026-01-16 10:23:24.41	18.56	7.21	-57.7	-59.3	6.2	0.00e+00	0	50	0	0	87	16889
2026-01-16 10:23:25.42	18.50	7.29	-57.7	-59.3	6.2	0.00e+00	0	49	0	0	87	16889
2026-01-16 10:23:26.43	18.43	7.38	-57.7	-59.3	6.2	0.00e+00	0	49	0	0	87	16889
2026-01-16 10:23:27.44	18.37	7.47	-57.7	-59.3	6.2	0.00e+00	0	49	0	0	87	16889
2026-01-16 10:23:28.45	18.31	7.56	-57.7	-59.3	6.2	0.00e+00	0	49	0	0	87	16889
2026-01-16 10:23:29.46	18.24	7.65	-57.7	-59.3	6.2	0.00e+00	0	49	0	0	87	16889
2026-01-16 10:23:30.47	18.18	7.74	-57.7	-59.3	6.2	0.00e+00	0	49	0	0	87	16889
2026-01-16 10:23:31.48	18.11	7.83	-57.7	-59.3	6.2	0.00e+00	0	49	0	0	87	16889
2026-01-16 10:23:32.48	18.05	7.92	-57.7	-59.3	6.2	0.00e+00	0	49	0	0	87	16889
2026-01-16 10:23:33.49	17.98	8.01	-57.7	-59.3	6.2	0.00e+00	0	49	0	0	87	16889
2026-01-16 10:23:34.50	17.92	8.10	-57.7	-59.3	6.2	0.00e+00	0	49	0	0	87	16889
2026-01-16 10:23:35.51	17.85	8.19	-57.7	-59.3	6.2	0.00e+00	0	48	0	0	87	16889
2026-01-16 10:23:36.52	17.78	8.28	-57.7	-59.3	6.2	0.00e+00	0	48	0	0	87	16889
2026-01-16 10:23:37.53	17.71	8.37	-57.7	-59.3	6.2	0.00e+00	0	48	0	0	87	16889
2026-01-16 10:23:38.54	17.64	8.46	-57.7	-59.3	6.2	0.00e+00	0	48	0	0	87	16889
2026-01-16 10:23:39.54	17.57	8.56	-57.7	-59.3	6.2	0.00e+00	0	48	0	0	87	16889
2026-01-16 10:23:40.55	17.50	8.65	-57.7	-59.3	6.2	0.00e+00	0	48	0	0	87	16889
2026-01-16 10:23:41.56	17.43	8.74	-57.7	-59.3	6.2	0.00e+00	0	48	0	0	87	16889
2026-01-16 10:23:42.57	17.36	8.84	-57.7	-59.3	6.2	0.00e+00	0	48	0	0	87	16889
2026-01-16 10:23:43.58	17.29	8.93	-57.7	-59.3	6.2	0.00e+00	0	48	0	0	87	16889
2026-01-16 10:23:44.58	17.22	9.03	-57.7	-59.3	6.2	0.00e+00	0	48	0	0	87	16889
2026-01-16 10:23:45.59	17.15	9.12	-57.7	-59.3	6.2	0.00e+00	0	48	0	0	87	16889
2026-01-16 10:23:46.60	17.07	9.22	-57.7	-59.3	6.2	0.00e+00	0	47	0	0	87	16889
2026-01-16 10:23:47.61	17.00	9.31	-57.7	-59.3	6.2	0.00e+00	0	47	0	0	87	16889
2026-01-16 10:23:48.61	16.92	9.41	-57.7	-59.3	6.2	0.00e+00	0	47	0	0	87	16889
2026-01-16 10:23:49.62	16.85	9.51	-57.7	-59.3	6.2	0.00e+00	0	47	0	0	87	16889
2026-01-16 10:23:50.63	16.77	9.61	-57.7	-59.3	6.2	0.00e+00	0	47	0	0	87	16889
2026-01-16 10:23:51.64	16.69	9.70	-57.7	-59.3	6.2	0.00e+00	0	47	0	0	87	16889
2026-01-16 10:23:52.65	16.62	9.80	-57.7	-59.3	6.2	0.00e+00	0	47	0	0	87	16889
2026-01-16 10:23:53.66	16.54	9.90	-57.7	-59.3	6.2	0.00e+00	0	47	0	0	87	16889
2026-01-16 10:23:54.67	16.46	10.00	-57.7	-59.3	6.2	0.00e+00	0	47	0	0	87	16889
2026-01-16 10:23:55.67	16.38	10.10	-57.7	-59.3	6.2	0.00e+00	0	47	0	0	87	16889
2026-01-16 10:23:56.68	16.30	10.20	-57.7	-59.3	6.2	0.00e+00	0	46	0	0	87	16889
2026-01-16 10:23:57.69	16.22	10.30	-57.7	-59.3	6.2	0.00e+00	0	47	0	0	87	16889
2026-01-16 10:23:58.70	16.14	10.40	-57.7	-59.3	6.2	0.00e+00	0	46	0	0	87	16889
2026-01-16 10:23:59.71	16.05	10.51	-57.7	-59.3	6.2	0.00e+00	0	47	0	0	87	16889
2026-01-16 10:24:00.71	15.97	10.61	-57.7	-59.3	6.2	0.00e+00	0	46	0	0	87	16889
2026-01-16 10:24:01.72	15.89	10.71	-57.7	-59.3	6.2	0.00e+00	0	46	0	0	87	16889
2026-01-16 10:24:02.73	15.80	10.81	-57.7	-59.3	6.2	0.00e+00	0	46	0	0	87	16889
2026-01-16 10:24:03.74	15.72	10.92	-57.7	-59.3	6.2	0.00e+00	0	46	0	0	87	16889
2026-01-16 10:24:04.75	15.63	11.02	-57.7	-59.3	6.2	0.00e+00	0	46	0	0	87	16889
2026-01-16 10:24:05.76	15.54	11.13	-57.7	-59.3	6.2	0.00e+00	0	46	0	0	87	16889
2026-01-16 10:24:06.76	15.46	11.23	-57.7	-59.3	6.2	0.00e+00	0	46	0	0	87	16889
2026-01-16 10:24:07.77	15.37	11.34	-57.7	-59.3	6.2	0.00e+00	0	46	0	0	87	16889
2026-01-16 10:24:08.78	15.28	11.45	-57.7	-59.3	6.2	0.00e+00	0	46	0	0	87	16889
2026-01-16 10:24:09.79	15.19	11.55	-57.7	-59.3	6.2	0.00e+00	0	46	0	0	87	16889
2026-01-16 10:24:10.80	15.10	11.66	-57.7	-59.3	6.2	0.00e+00	0	46	0	0	87	16889
2026-01-16 10:24:11.80	15.01	11.77	-57.7	-59.3	6.2	0.00e+00	0	46	0	0	87	16889
2026-01-16 10:24:12.81	14.91	11.88	-57.7	-59.3	6.2	0.00e+00	0	45	0	0	87	16889
2026-01-16 10:24:13.82	14.82	11.99	-57.7	-59.3	6.2	0.00e+00	0	45	0	0	87	16889
2026-01-16 10:24:14.83	14.72	12.10	-57.7	-59.3	6.2	0.00e+00	0	45	0	0	87	16889
2026-01-16 10:24:15.84	14.63	12.21	-57.7	-59.3	6.2	0.00e+00	0	45	0	0	87	16889
2026-01-16 10:24:16.85	14.53	12.32	-57.7	-59.3	6.2	0.00e+00	0	45	0	0	87	16889
2026-01-16 10:24:17.86	14.43	12.43	-57.7	-59.3	6.2	0.00e+00	0	45	0	0	87	16889
2026-01-16 10:24:18.86	14.34	12.54	-57.7	-59.3	6.2	0.00e+00	0	45	0	0	87	16889
2026-01-16 10:24:19.87	14.24	12.66	-57.7	-59.3	6.2	0.00e+00	0	45	0	0	87	16889
2026-01-16 10:24:20.88	14.14	12.77	-57.7	-59.3	6.2	0.00e+00	0	45	0	0	87	16889
2026-01-16 10:24:21.89	14.04	12.89	-57.7	-59.3	6.2	0.00e+00	0	45	0	0	87	16889
2026-01-16 10:24:22.90	13.93	13.00	-57.7	-59.3	6.2	0.00e+00	0	45	0	0	87	16889
2026-01-16 10:24:23.90	13.83	13.12	-57.7	-59.3	6.2	0.00e+00	0	45	0	0	87	16889
2026-01-16 10:24:24.91	13.73	13.23	-57.7	-59.3	6.2	0.00e+00	0	45	0	0	87	16889
2026-01-16 10:24:25.92	13.62	13.35	-57.7	-59.3	6.2	0.00e+00	0	45	0	0	87	16889
2026-01-16 10:24:26.93	13.52	13.47	-57.7	-59.3	6.2	0.00e+00	0	45	0	0	87	16889
2026-01-16 10:24:27.94	13.41	13.59	-57.7	-59.3	6.2	0.00e+00	0	44	0	0	87	16889
2026-01-16 10:24:28.94	13.30	13.70	-57.7	-59.3	6.2	0.00e+00	0	44	0	0	87	16889
2026-01-16 10:24:29.95	13.19	13.82	-57.7	-59.3	6.2	0.00e+00	0	44	0	0	87	16889
2026-01-16 10:24:30.96	13.08	13.94	-57.7	-59.3	6.2	0.00e+00	0	44	0	0	87	16889
2026-01-16 10:24:31.96	12.97	14.06	-57.7	-59.3	6.2	0.00e+00	0	44	0	0	87	16889
2026-01-16 10:24:32.97	12.86	14.19	-57.7	-59.3	6.2	0.00e+00	0	44	0	0	87	16889
2026-01-16 10:24:33.98	12.75	14.31	-57.7	-59.3	6.2	0.00e+00	0	44	0	0	87	16889
2026-01-16 10:24:34.99	12.63	14.43	-57.7	-59.3	6.2	0.00e+00	0	44	0	0	87	16889
2026-01-16 10:24:36.00	12.51	14.55	-57.7	-59.3	6.2	0.00e+00	0	44	0	0	87	16889
2026-01-16 10:24:37.00	12.40	14.68	-57.7	-59.3	6.2	0.00e+00	0	44	0	0	87	16889
2026-01-16 10:24:38.02	12.28	14.80	-57.7	-59.3	6.2	0.00e+00	0	44	0	0	87	16889
2026-01-16 10:24:39.03	12.16	14.93	-57.7	-59.3	6.2	0.00e+00	0	44	0	0	87	16889
2026-01-16 10:24:40.03	12.04	15.06	-57.7	-59.3	6.2	0.00e+00	0	44	0	0	87	16889
2026-01-16 10:24:41.04	11.92	15.18	-57.7	-59.3	6.2	0.00e+00	0	44	0	0	87	16889
2026-01-16 10:24:42.05	11.79	15.31	-57.7	-59.3	6.2	0.00e+00	0	44	0	0	87	16889
2026-01-16 10:24:43.06	11.67	15.44	-57.7	-59.3	6.2	0.00e+00	0	44	0	0	87	16889
2026-01-16 10:24:44.07	11.54	15.57	-57.7	-59.3	6.2	0.00e+00	0	43	0	0	87	16889
2026-01-16 10:24:45.08	11.41	15.70	-57.7	-59.3	6.2	0.00e+00	0	43	0	0	87	16889
2026-01-16 10:24:46.09	11.28	15.83	-57.7	-59.3	6.2	0.00e+00	0	43	0	0	87	16889
2026-01-16 10:24:47.10	11.15	15.96	-57.7	-59.3	6.2	0.00e+00	0	43	0	0	87	16889
2026-01-16 10:24:48.10	11.02	16.09	-57.7	-59.3	6.2	0.00e+00	0	43	0	0	87	16889
2026-01-16 10:24:49.11	10.89	16.23	-57.7	-59.3	6.2	0.00e+00	0	43	0	0	87	16889
2026-01-16 10:24:50.12	10.76	16.36	-57.7	-59.3	6.2	0.00e+00	0	43	0	0	87	16889
2026-01-16 10:24:51.13	10.62	16.50	-57.7	-59.3	6.2	0.00e+00	0	43	0	0	87	16889
2026-01-16 10:24:52.14	10.48	16.63	-57.7	-59.3	6.2	0.00e+00	0	43	0	0	87	16889
2026-01-16 10:24:53.15	10.34	16.77	-57.7	-59.3	6.2	0.00e+00	0	43	0	0	87	16889
2026-01-16 10:24:54.16	10.20	16.91	-57.7	-59.3	6.2	0.00e+00	0	43	0	0	87	16889
2026-01-16 10:24:55.17	10.06	17.05	-57.7	-59.3	6.2	0.00e+00	0	43	0	0	87	16889
2026-01-16 10:24:56.17	9.92	17.18	-57.7	-59.3	6.2	0.00e+00	0	43	0	0	87	16889
2026-01-16 10:24:57.18	9.77	17.33	-57.7	-59.3	6.2	0.00e+00	0	43	0	0	87	16889
2026-01-16 10:24:58.19	9.63	17.47	-57.7	-59.3	6.2	0.00e+00	0	43	0	0	87	16889
2026-01-16 10:24:59.20	9.48	17.61	-57.7	-59.3	6.2	0.00e+00	0	43	0	0	87	16889
2026-01-16 10:25:00.21	9.33	17.75	-57.7	-59.3	6.2	0.00e+00	0	43	0	0	87	16889
2026-01-16 10:25:01.22	9.18	17.89	-57.7	-59.3	6.2	0.00e+00	0	43	0	0	87	16889
2026-01-16 10:25:02.22	9.03	18.04	-57.7	-59.3	6.2	0.00e+00	0	43	0	0	87	16889
2026-01-16 10:25:03.23	8.87	18.18	-57.7	-59.3	6.2	0.00e+00	0	43	0	0	87	16889
2026-01-16 10:25:04.24	8.71	18.33	-57.7	-59.3	6.2	0.00e+00	0	42	0	0	87	16889
2026-01-16 10:25:05.25	8.55	18.48	-57.7	-59.3	6.2	0.00e+00	0	42	0	0	87	16889
2026-01-16 10:25:06.26	8.39	18.62	-57.7	-59.3	6.2	0.00e+00	0	42	0	0	87	16889
2026-01-16 10:25:07.26	8.23	18.77	-57.7	-59.3	6.2	0.00e+00	0	42	0	0	87	16889
2026-01-16 10:25:08.27	8.07	18.92	-57.7	-59.3	6.2	0.00e+00	0	42	0	0	87	16889
2026-01-16 10:25:09.28	7.90	19.07	-57.7	-59.3	6.2	0.00e+00	0	42	0	0	87	16889
2026-01-16 10:25:10.29	7.73	19.22	-57.7	-59.3	6.2	0.00e+00	0	42	0	0	87	16889
2026-01-16 10:25:11.30	7.56	19.38	-57.7	-59.3	6.2	0.00e+00	0	42	0	0	87	16889
2026-01-16 10:25:12.31	7.39	19.53	-57.7	-59.3	6.2	0.00e+00	0	42	0	0	87	16889
2026-01-16 10:25:13.32	7.22	19.69	-57.7	-59.3	6.2	0.00e+00	0	42	0	0	87	16889
2026-01-16 10:25:14.33	7.04	19.84	-57.7	-59.3	6.2	0.00e+00	0	42	0	0	87	16889
2026-01-16 10:25:15.34	6.86	20.00	-57.7	-59.3	6.2	0.00e+00	0	42	0	0	87	16889
2026-01-16 10:25:16.35	6.68	20.16	-57.7	-59.3	6.2	0.00e+00	0	42	0	0	87	16889
2026-01-16 10:25:17.36	6.50	20.31	-57.7	-59.3	6.2	0.00e+00	0	42	0	0	87	16889
2026-01-16 10:25:18.36	6.32	20.47	-57.7	-59.3	6.2	0.00e+00	0	42	0	0	87	16889
2026-01-16 10:25:19.37	6.13	20.63	-57.7	-59.3	6.2	0.00e+00	0	42	0	0	87	16889
2026-01-16 10:25:20.38	5.94	20.79	-57.7	-59.3	6.2	0.00e+00	0	42	0	0	87	16889
2026-01-16 10:25:21.39	5.75	20.96	-57.7	-59.3	6.2	0.00e+00	0	42	0	0	87	16889
2026-01-16 10:25:22.40	5.55	21.12	-57.7	-59.3	6.2	0.00e+00	0	42	0	0	87	16889
2026-01-16 10:25:23.40	5.36	21.28	-57.7	-59.3	6.2	0.00e+00	0	42	0	0	87	16889
2026-01-16 10:25:24.41	5.16	21.45	-57.7	-59.3	6.2	0.00e+00	0	42	0	0	87	16889
2026-01-16 10:25:25.42	4.96	21.61	-57.7	-59.3	6.2	0.00e+00	0	42	0	0	87	16889
2026-01-16 10:25:26.43	4.76	21.78	-57.7	-59.3	6.2	0.00e+00	0	41	0	0	87	16889
2026-01-16 10:25:27.44	4.55	21.95	-57.7	-59.3	6.2	0.00e+00	0	41	0	0	87	16889
2026-01-16 10:25:28.44	4.34	22.12	-57.7	-59.3	6.2	0.00e+00	0	41	0	0	87	16889
2026-01-16 10:25:29.45	4.13	22.29	-57.7	-59.3	6.2	0.00e+00	0	42	0	0	87	16889
2026-01-16 10:25:30.46	3.92	22.46	-57.7	-59.3	6.2	0.00e+00	0	41	0	0	87	16889
2026-01-16 10:25:31.47	3.70	22.63	-57.7	-59.3	6.2	0.00e+00	0	41	0	0	87	16889
2026-01-16 10:25:32.48	3.48	22.81	-57.7	-59.3	6.2	0.00e+00	0	41	0	0	87	16889
2026-01-16 10:25:33.48	3.26	22.98	-57.7	-59.3	6.2	0.00e+00	0	41	0	0	87	16889
2026-01-16 10:25:34.49	3.03	23.15	-57.7	-59.3	6.2	0.00e+00	0	41	0	0	87	16889
2026-01-16 10:25:35.50	2.81	23.33	-57.7	-59.3	6.2	0.00e+00	0	41	0	0	87	16889
2026-01-16 10:25:36.51	2.58	23.51	-57.7	-59.3	6.2	0.00e+00	0	41	0	0	87	16889
2026-01-16 10:25:37.52	2.34	23.69	-57.7	-59.3	6.2	0.00e+00	0	41	0	0	87	16889
2026-01-16 10:25:38.52	2.11	23.87	-57.7	-59.3	6.2	0.00e+00	0	41	0	0	87	16889
2026-01-16 10:25:39.53	1.87	24.05	-57.7	-59.3	6.2	0.00e+00	0	41	0	0	87	16889
2026-01-16 10:25:40.54	1.62	24.23	-57.7	-59.3	6.2	0.00e+00	0	41	0	0	87	16889
2026-01-16 10:25:41.55	1.38	24.41	-57.7	-59.3	6.2	0.00e+00	0	41	0	0	87	16889
2026-01-16 10:25:42.56	1.13	24.60	-57.7	-59.3	6.2	0.00e+00	0	41	0	0	87	16889
2026-01-16 10:25:43.56	0.87	24.78	-57.7	-59.3	6.2	0.00e+00	0	41	0	0	87	16889
2026-01-16 10:25:44.57	0.62	24.96	-57.7	-59.3	6.2	0.00e+00	0	41	0	0	87	16889
2026-01-16 10:25:45.58	0.36	25.15	-57.7	-59.3	6.2	0.00e+00	0	41	0	0	87	16889
2026-01-16 10:25:46.59	0.09	25.34	-57.7	-59.3	6.2	0.00e+00	0	41	0	0	87	16889
2026-01-16 10:25:47.60	359.83	25.53	-57.7	-59.3	6.2	0.00e+00	0	41	0	0	87	16889
2026-01-16 10:25:48.60	359.56	25.72	-57.7	-59.3	6.2	0.00e+00	0	41	0	0	87	16889
2026-01-16 10:25:49.61	359.28	25.91	-57.7	-59.3	6.2	0.00e+00	0	41	0	0	87	16889
2026-01-16 10:25:50.62	359.01	26.10	-57.7	-59.3	6.2	0.00e+00	0	41	0	0	87	16889
2026-01-16 10:25:51.63	358.72	26.29	-57.7	-59.3	6.2	0.00e+00	0	41	0	0	87	16889
2026-01-16 10:25:52.64	358.44	26.49	-57.7	-59.3	6.2	0.00e+00	0	41	0	0	87	16889
2026-01-16 10:25:53.64	358.15	26.68	-57.7	-59.3	6.2	0.00e+00	0	41	0	0	87	16889
2026-01-16 10:25:54.65	357.86	26.88	-57.7	-59.3	6.2	0.00e+00	0	41	0	0	87	16889
2026-01-16 10:25:55.66	357.56	27.07	-57.7	-59.3	6.2	0.00e+00	0	41	0	0	87	16889
2026-01-16 10:25:56.67	357.26	27.27	-57.7	-59.3	6.2	0.00e+00	0	41	0	0	87	16889
2026-01-16 10:25:57.67	356.96	27.47	-57.7	-59.3	6.2	0.00e+00	0	41	0	0	87	16889
2026-01-16 10:25:58.68	356.65	27.67	-57.7	-59.3	6.2	0.00e+00	0	41	0	0	87	16889
2026-01-16 10:25:59.69	356.33	27.87	-57.7	-59.3	6.2	0.00e+00	0	41	0	0	87	16889
2026-01-16 10:26:00.70	356.01	28.07	-57.7	-59.3	6.2	0.00e+00	0	41	0	0	87	16889
2026-01-16 10:26:01.71	355.69	28.27	-57.7	-59.3	6.2	0.00e+00	0	40	0	0	87	16889
2026-01-16 10:26:02.72	355.36	28.47	-57.7	-59.3	6.2	0.00e+00	0	40	0	0	87	16889
2026-01-16 10:26:03.72	355.03	28.67	-57.7	-59.3	6.2	0.00e+00	0	41	0	0	87	16889
2026-01-16 10:26:04.74	354.69	28.88	-57.7	-59.3	6.2	0.00e+00	0	40	0	0	87	16889
2026-01-16 10:26:05.74	354.35	29.08	-57.7	-59.3	6.2	0.00e+00	0	40	0	0	87	16889
2026-01-16 10:26:06.75	354.01	29.29	-57.7	-59.3	6.2	0.00e+00	0	40	0	0	87	16889
2026-01-16 10:26:07.76	353.66	29.49	-57.7	-59.3	6.2	0.00e+00	0	40	0	0	87	16889
2026-01-16 10:26:08.77	353.30	29.70	-57.7	-59.3	6.2	0.00e+00	0	40	0	0	87	16889
2026-01-16 10:26:09.78	352.94	29.91	-57.7	-59.3	6.2	0.00e+00	0	40	0	0	87	16889
2026-01-16 10:26:10.79	352.57	30.12	-57.7	-59.3	6.2	0.00e+00	0	40	0	0	87	16889
2026-01-16 10:26:11.79	352.20	30.32	-57.7	-59.3	6.2	0.00e+00	0	40	0	0	87	16889
2026-01-16 10:26:12.80	351.83	30.53	-57.7	-59.3	6.2	0.00e+00	0	40	0	0	87	16889
2026-01-16 10:26:13.81	351.44	30.74	-57.7	-59.3	6.2	0.00e+00	0	40	0	0	87	16889
2026-01-16 10:26:14.82	351.06	30.95	-57.7	-59.3	6.2	0.00e+00	0	40	0	0	87	16889
2026-01-16 10:26:15.83	350.66	31.16	-57.7	-59.3	6.2	0.00e+00	0	40	0	0	87	16889
2026-01-16 10:26:16.84	350.26	31.37	-57.7	-59.3	6.2	0.00e+00	0	40	0	0	87	16889
2026-01-16 10:26:17.85	349.86	31.58	-57.7	-59.3	6.2	0.00e+00	0	40	0	0	87	16889
2026-01-16 10:26:18.86	349.45	31.80	-57.7	-59.3	6.2	0.00e+00	0	40	0	0	87	16889
2026-01-16 10:26:19.87	349.03	32.01	-57.7	-59.3	6.2	0.00e+00	0	40	0	0	87	16889
2026-01-16 10:26:20.87	348.61	32.22	-57.7	-59.3	6.2	0.00e+00	0	40	0	0	87	16889
2026-01-16 10:26:21.88	348.19	32.43	-57.7	-59.3	6.2	0.00e+00	0	40	0	0	87	16889
2026-01-16 10:26:22.89	347.75	32.64	-57.7	-59.3	6.2	0.00e+00	0	40	0	0	87	16889
2026-01-16 10:26:23.90	347.31	32.85	-57.7	-59.3	6.2	0.00e+00	0	40	0	0	87	16889
2026-01-16 10:26:24.91	346.87	33.06	-57.7	-59.3	6.2	0.00e+00	0	40	0	0	87	16889
2026-01-16 10:26:25.91	346.42	33.27	-57.7	-59.3	6.2	0.00e+00	0	40	0	0	87	16889
2026-01-16 10:26:26.92	345.96	33.48	-57.7	-59.3	6.2	0.00e+00	0	40	0	0	87	16889
2026-01-16 10:26:27.93	345.49	33.69	-57.7	-59.3	6.2	0.00e+00	0	40	0	0	87	16889
2026-01-16 10:26:28.94	345.02	33.91	-57.7	-59.3	6.2	0.00e+00	0	40	0	0	87	16889
2026-01-16 10:26:29.95	344.54	34.12	-57.7	-59.3	6.2	0.00e+00	0	40	0	0	87	16889
2026-01-16 10:26:30.95	344.06	34.32	-57.7	-59.3	6.2	0.00e+00	0	40	0	0	87	16889
2026-01-16 10:26:31.96	343.57	34.53	-57.7	-59.3	6.2	0.00e+00	0	40	0	0	87	16889
2026-01-16 10:26:32.97	343.07	34.74	-57.7	-59.3	6.2	0.00e+00	0	40	0	0	87	16889
2026-01-16 10:26:33.98	342.56	34.95	-57.7	-59.3	6.2	0.00e+00	0	40	0	0	87	16889
2026-01-16 10:26:34.99	342.05	35.15	-57.7	-59.3	6.2	0.00e+00	0	40	0	0	87	16889
2026-01-16 10:26:36.00	341.53	35.36	-57.7	-59.3	6.2	0.00e+00	0	40	0	0	87	16889
2026-01-16 10:26:37.00	341.01	35.56	-57.7	-59.3	6.2	0.00e+00	0	40	0	0	87	16889
2026-01-16 10:26:38.01	340.48	35.77	-57.7	-59.3	6.2	0.00e+00	0	40	0	0	87	16889
2026-01-16 10:26:39.02	339.94	35.97	-57.7	-59.3	6.2	0.00e+00	0	40	0	0	87	16889
2026-01-16 10:26:40.03	339.39	36.17	-57.7	-59.3	6.2	0.00e+00	0	39	0	0	87	16889
2026-01-16 10:26:41.04	338.83	36.37	-57.7	-59.3	6.2	0.00e+00	0	40	0	0	87	16889
2026-01-16 10:26:42.04	338.28	36.56	-57.7	-59.3	6.2	0.00e+00	0	40	0	0	87	16889
2026-01-16 10:26:43.05	337.71	36.76	-57.7	-59.3	6.2	0.00e+00	0	40	0	0	87	16889
2026-01-16 10:26:44.06	337.13	36.95	-57.7	-59.3	6.2	0.00e+00	0	40	0	0	87	16889
2026-01-16 10:26:45.07	336.55	37.15	-57.7	-59.3	6.2	0.00e+00	0	40	0	0	87	16889
2026-01-16 10:26:46.07	335.96	37.34	-57.7	-59.3	6.2	0.00e+00	0	39	0	0	87	16889
2026-01-16 10:26:47.08	335.36	37.52	-57.7	-59.3	6.2	0.00e+00	0	40	0	0	87	16889
2026-01-16 10:26:48.10	334.75	37.71	-57.7	-59.3	6.2	0.00e+00	0	39	0	0	87	16889
2026-01-16 10:26:49.10	334.14	37.89	-57.7	-59.3	6.2	0.00e+00	0	39	0	0	87	16889
2026-01-16 10:26:50.11	333.52	38.08	-57.7	-59.3	6.2	0.00e+00	0	39	0	0	87	16889
2026-01-16 10:26:51.12	332.89	38.25	-57.7	-59.3	6.2	0.00e+00	0	39	0	0	87	16889
2026-01-16 10:26:52.13	332.26	38.43	-57.7	-59.3	6.2	0.00e+00	0	39	0	0	87	16889
2026-01-16 10:26:53.14	331.62	38.60	-57.7	-59.3	6.2	0.00e+00	0	39	0	0	87	16889
2026-01-16 10:26:54.15	330.97	38.77	-57.7	-59.3	6.2	0.00e+00	0	39	0	0	87	16889
2026-01-16 10:26:55.16	330.31	38.94	-57.7	-59.3	6.2	0.00e+00	0	39	0	0	87	16889
2026-01-16 10:26:56.16	329.65	39.10	-57.7	-59.3	6.2	0.00e+00	0	39	0	0	87	16889
2026-01-16 10:26:57.17	328.98	39.26	-57.7	-59.3	6.2	0.00e+00	0	39	0	0	87	16889
2026-01-16 10:26:58.18	328.30	39.42	-57.7	-59.3	6.2	0.00e+00	0	39	0	0	87	16889
2026-01-16 10:26:59.19	327.62	39.57	-57.7	-59.3	6.2	0.00e+00	0	39	0	0	87	16889
2026-01-16 10:27:00.19	326.93	39.72	-57.7	-59.3	6.2	0.00e+00	0	39	0	0	87	16889
2026-01-16 10:27:01.20	326.23	39.87	-57.7	-59.3	6.2	0.00e+00	0	39	0	0	87	16889
2026-01-16 10:27:02.21	325.53	40.01	-57.7	-59.3	6.2	0.00e+00	0	39	0	0	87	16889
2026-01-16 10:27:03.22	324.82	40.15	-57.7	-59.3	6.2	0.00e+00	0	39	0	0	87	16889
2026-01-16 10:27:04.23	324.10	40.28	-57.7	-59.3	6.2	0.00e+00	0	39	0	0	87	16889
2026-01-16 10:27:05.23	323.39	40.41	-57.7	-59.3	6.2	0.00e+00	0	39	0	0	87	16889
2026-01-16 10:27:06.24	322.66	40.53	-57.7	-59.3	6.2	0.00e+00	0	39	0	0	87	16889
2026-01-16 10:27:07.25	321.92	40.65	-57.7	-59.3	6.2	0.00e+00	0	39	0	0	87	16889
2026-01-16 10:27:08.26	321.18	40.77	-57.7	-59.3	6.2	0.00e+00	0	39	0	0	87	16889
2026-01-16 10:27:09.27	320.43	40.88	-57.7	-59.3	6.2	0.00e+00	0	39	0	0	87	16889
2026-01-16 10:27:10.27	319.69	40.98	-57.7	-59.3	6.2	0.00e+00	0	39	0	0	87	16889
2026-01-16 10:27:11.28	318.93	41.08	-57.7	-59.3	6.2	0.00e+00	0	39	0	0	87	16889
2026-01-16 10:27:12.29	318.17	41.18	-57.7	-59.3	6.2	0.00e+00	0	39	0	0	87	16889
2026-01-16 10:27:13.30	317.40	41.27	-57.7	-59.3	6.2	0.00e+00	0	39	0	0	87	16889
2026-01-16 10:27:14.31	316.63	41.35	-57.7	-59.3	6.2	0.00e+00	0	39	0	0	87	16889
2026-01-16 10:27:15.32	315.86	41.43	-57.7	-59.3	6.2	0.00e+00	0	39	0	0	87	16889
2026-01-16 10:27:16.32	315.09	41.51	-57.7	-59.3	6.2	0.00e+00	0	39	0	0	87	16889
2026-01-16 10:27:17.33	314.31	41.57	-57.7	-59.3	6.2	0.00e+00	0	39	0	0	87	16889
2026-01-16 10:27:18.34	313.52	41.64	-57.7	-59.3	6.2	0.00e+00	0	39	0	0	87	16889
2026-01-16 10:27:19.35	312.73	41.69	-57.7	-59.3	6.2	0.00e+00	0	39	0	0	87	16889
2026-01-16 10:27:20.35	311.95	41.74	-57.7	-59.3	6.2	0.00e+00	0	39	0	0	87	16889
2026-01-16 10:27:21.36	311.16	41.79	-57.7	-59.3	6.2	0.00e+00	0	39	0	0	87	16889
2026-01-16 10:27:22.37	310.36	41.83	-57.7	-59.3	6.2	0.00e+00	0	39	0	0	87	16889
2026-01-16 10:27:23.38	309.56	41.86	-57.7	-59.3	6.2	0.00e+00	0	39	0	0	87	16889
2026-01-16 10:27:24.39	308.76	41.89	-57.7	-59.3	6.2	0.00e+00	0	39	0	0	87	16889
2026-01-16 10:27:25.39	307.97	41.91	-57.7	-59.3	6.2	0.00e+00	0	39	0	0	87	16889
2026-01-16 10:27:26.40	307.17	41.92	-57.7	-59.3	6.2	0.00e+00	0	39	0	0	87	16889
2026-01-16 10:27:27.41	306.37	41.93	-57.7	-59.3	6.2	0.00e+00	0	39	0	0	87	16889
2026-01-16 10:27:28.42	305.56	41.94	-57.7	-59.3	6.2	0.00e+00	0	39	0	0	87	16889
2026-01-16 10:27:29.43	304.76	41.93	-57.7	-59.3	6.2	0.00e+00	0	39	0	0	87	16889
2026-01-16 10:27:30.44	303.96	41.92	-57.7	-59.3	6.2	0.00e+00	0	39	0	0	87	16889
2026-01-16 10:27:31.44	303.17	41.91	-57.7	-59.3	6.2	0.00e+00	0	39	0	0	87	16889
2026-01-16 10:27:32.45	302.37	41.89	-57.7	-59.3	6.2	0.00e+00	0	39	0	0	87	16889
2026-01-16 10:27:33.46	301.57	41.86	-57.7	-59.3	6.2	0.00e+00	0	39	0	0	87	16889
2026-01-16 10:27:34.47	300.77	41.82	-57.7	-59.3	6.2	0.00e+00	0	39	0	0	87	16889
2026-01-16 10:27:35.47	299.98	41.78	-57.7	-59.3	6.2	0.00e+00	0	39	0	0	87	16889
2026-01-16 10:27:36.48	299.19	41.74	-57.7	-59.3	6.2	0.00e+00	0	39	0	0	87	16889
2026-01-16 10:27:37.49	298.40	41.69	-57.7	-59.3	6.2	0.00e+00	0	39	0	0	87	16889
2026-01-16 10:27:38.50	297.61	41.63	-57.7	-59.3	6.2	0.00e+00	0	39	0	0	87	16889
2026-01-16 10:27:39.51	296.82	41.57	-57.7	-59.3	6.2	0.00e+00	0	39	0	0	87	16889
2026-01-16 10:27:40.51	296.05	41.50	-57.7	-59.3	6.2	0.00e+00	0	39	0	0	87	16889
2026-01-16 10:27:41.52	295.27	41.42	-57.7	-59.3	6.2	0.00e+00	0	39	0	0	87	16889
2026-01-16 10:27:42.53	294.49	41.34	-57.7	-59.3	6.2	0.00e+00	0	39	0	0	87	16889
2026-01-16 10:27:43.54	293.72	41.26	-57.7	-59.3	6.2	0.00e+00	0	39	0	0	87	16889
2026-01-16 10:27:44.55	292.96	41.17	-57.7	-59.3	6.2	0.00e+00	0	39	0	0	87	16889
2026-01-16 10:27:45.56	292.19	41.07	-57.7	-59.3	6.2	0.00e+00	0	39	0	0	87	16889
2026-01-16 10:27:46.56	291.45	40.97	-57.7	-59.3	6.2	0.00e+00	0	39	0	0	87	16889
2026-01-16 10:27:47.57	290.69	40.87	-57.7	-59.3	6.2	0.00e+00	0	39	0	0	87	16889
2026-01-16 10:27:48.58	289.95	40.76	-57.7	-59.3	6.2	0.00e+00	0	39	0	0	87	16889
2026-01-16 10:27:49.59	289.21	40.64	-57.7	-59.3	6.2	0.00e+00	0	39	0	0	87	16889
2026-01-16 10:27:50.60	288.47	40.52	-57.7	-59.3	6.2	0.00e+00	0	39	0	0	87	16889
2026-01-16 10:27:51.60	287.75	40.39	-57.7	-59.3	6.2	0.00e+00	0	38	0	0	87	16889
2026-01-16 10:27:52.61	287.02	40.26	-57.7	-59.3	6.2	0.00e+00	0	38	0	0	87	16889
2026-01-16 10:27:53.62	286.31	40.13	-57.7	-59.3	6.2	0.00e+00	0	39	0	0	87	16889
2026-01-16 10:27:54.63	285.59	39.99	-57.7	-59.3	6.2	0.00e+00	0	38	0	0	87	16889
2026-01-16 10:27:55.63	284.90	39.85	-57.7	-59.3	6.2	0.00e+00	0	39	0	0	87	16889
2026-01-16 10:27:56.64	284.20	39.70	-57.7	-59.3	6.2	0.00e+00	0	38	0	0	87	16889
2026-01-16 10:27:57.65	283.51	39.55	-57.7	-59.3	6.2	0.00e+00	0	38	0	0	87	16889
2026-01-16 10:27:58.66	282.82	39.40	-57.7	-59.3	6.2	0.00e+00	0	38	0	0	87	16889
2026-01-16 10:27:59.67	282.14	39.24	-57.7	-59.3	6.2	0.00e+00	0	39	0	0	87	16889
2026-01-16 10:28:00.68	281.47	39.08	-57.7	-59.3	6.2	0.00e+00	0	39	0	0	87	16889
2026-01-16 10:28:01.68	280.81	38.92	-57.7	-59.3	6.2	0.00e+00	0	38	0	0	87	16889
2026-01-16 10:28:02.69	280.16	38.75	-57.7	-59.3	6.2	0.00e+00	0	38	0	0	87	16889
2026-01-16 10:28:03.70	279.51	38.58	-57.7	-59.3	6.2	0.00e+00	0	39	0	0	87	16889
2026-01-16 10:28:04.71	278.86	38.40	-57.7	-59.3	6.2	0.00e+00	0	38	0	0	87	16889
2026-01-16 10:28:05.72	278.23	38.23	-57.7	-59.3	6.2	0.00e+00	0	38	0	0	87	16889
2026-01-16 10:28:06.73	277.60	38.05	-57.7	-59.3	6.2	0.00e+00	0	38	0	0	87	16889
2026-01-16 10:28:07.73	276.98	37.87	-57.7	-59.3	6.2	0.00e+00	0	38	0	0	87	16889
2026-01-16 10:28:08.74	276.37	37.68	-57.7	-59.3	6.2	0.00e+00	0	38	0	0	87	16889
2026-01-16 10:28:09.75	275.76	37.50	-57.7	-59.3	6.2	0.00e+00	0	38	0	0	87	16889
2026-01-16 10:28:10.76	275.16	37.31	-57.7	-59.3	6.2	0.00e+00	0	38	0	0	87	16889
2026-01-16 10:28:11.77	274.57	37.12	-57.7	-59.3	6.2	0.00e+00	0	38	0	0	87	16889
2026-01-16 10:28:12.78	273.99	36.92	-57.7	-59.3	6.2	0.00e+00	0	38	0	0	87	16889
2026-01-16 10:28:13.79	273.41	36.73	-57.7	-59.3	6.2	0.00e+00	0	38	0	0	87	16889
2026-01-16 10:28:14.79	272.85	36.53	-57.7	-59.3	6.2	0.00e+00	0	38	0	0	87	16889
2026-01-16 10:28:15.80	272.28	36.33	-57.7	-59.3	6.2	0.00e+00	0	38	0	0	87	16889
2026-01-16 10:28:16.81	271.73	36.13	-57.7	-59.3	6.2	0.00e+00	0	38	0	0	87	16889
2026-01-16 10:28:17.82	271.18	35.93	-57.7	-59.3	6.2	0.00e+00	0	38	0	0	87	16889
2026-01-16 10:28:18.83	270.64	35.73	-57.7	-59.3	6.2	0.00e+00	0	38	0	0	87	16889
2026-01-16 10:28:19.84	270.10	35.52	-57.7	-59.3	6.2	0.00e+00	0	38	0	0	87	16889
2026-01-16 10:28:20.85	269.58	35.32	-57.7	-59.3	6.2	0.00e+00	0	38	0	0	87	16889
2026-01-16 10:28:21.85	269.06	35.11	-57.7	-59.3	6.2	0.00e+00	0	38	0	0	87	16889
2026-01-16 10:28:22.86	268.55	34.91	-57.7	-59.3	6.2	0.00e+00	0	38	0	0	87	16889
2026-01-16 10:28:23.87	268.04	34.70	-57.7	-59.3	6.2	0.00e+00	0	38	0	0	87	16889
2026-01-16 10:28:24.88	267.55	34.49	-57.7	-59.3	6.2	0.00e+00	0	38	0	0	87	16889
2026-01-16 10:28:25.89	267.05	34.28	-57.7	-59.3	6.2	0.00e+00	0	38	0	0	87	16889
2026-01-16 10:28:26.89	266.57	34.07	-57.7	-59.3	6.2	0.00e+00	0	38	0	0	87	16889
2026-01-16 10:28:27.90	266.09	33.86	-57.7	-59.3	6.2	0.00e+00	0	38	0	0	87	16889
2026-01-16 10:28:28.91	265.62	33.65	-57.7	-59.3	6.2	0.00e+00	0	38	0	0	87	16889
2026-01-16 10:28:29.92	265.15	33.44	-57.7	-59.3	6.2	0.00e+00	0	38	0	0	87	16889
2026-01-16 10:28:30.93	264.69	33.23	-57.7	-59.3	6.2	0.00e+00	0	38	0	0	87	16889
2026-01-16 10:28:31.94	264.24	33.01	-57.7	-59.3	6.2	0.00e+00	0	38	0	0	87	16889
2026-01-16 10:28:32.95	263.80	32.80	-57.7	-59.3	6.2	0.00e+00	0	38	0	0	87	16889
2026-01-16 10:28:33.96	263.35	32.59	-57.7	-59.3	6.2	0.00e+00	0	38	0	0	87	16889
2026-01-16 10:28:34.96	262.92	32.38	-57.7	-59.3	6.2	0.00e+00	0	38	0	0	87	16889
2026-01-16 10:28:35.97	262.50	32.17	-57.7	-59.3	6.2	0.00e+00	0	38	0	0	87	16889
2026-01-16 10:28:36.98	262.07	31.95	-57.7	-59.3	6.2	0.00e+00	0	38	0	0	87	16889
2026-01-16 10:28:37.99	261.66	31.74	-57.7	-59.3	6.2	0.00e+00	0	38	0	0	87	16889
2026-01-16 10:28:38.99	261.25	31.53	-57.7	-59.3	6.2	0.00e+00	0	38	0	0	87	16889
2026-01-16 10:28:40.00	260.85	31.32	-57.7	-59.3	6.2	0.00e+00	0	38	0	0	87	16889
2026-01-16 10:28:41.01	260.45	31.11	-57.7	-59.3	6.2	0.00e+00	0	38	0	0	87	16889
2026-01-16 10:28:42.02	260.05	30.90	-57.7	-59.3	6.2	0.00e+00	0	38	0	0	87	16889
2026-01-16 10:28:43.03	259.66	30.69	-57.7	-59.3	6.2	0.00e+00	0	38	0	0	87	16889
2026-01-16 10:28:44.04	259.28	30.48	-57.7	-59.3	6.2	0.00e+00	0	38	0	0	87	16889
2026-01-16 10:28:45.04	258.91	30.27	-57.7	-59.3	6.2	0.00e+00	0	38	0	0	87	16889
2026-01-16 10:28:46.05	258.54	30.06	-57.7	-59.3	6.2	0.00e+00	0	38	0	0	87	16889
2026-01-16 10:28:47.06	258.17	29.85	-57.7	-59.3	6.2	0.00e+00	0	38	0	0	87	16889
2026-01-16 10:28:48.98	257.49	29.45	-57.7	-59.3	6.2	0.00e+00	0	38	0	0	87	16889
2026-01-16 10:28:49.56	257.28	29.33	-57.7	-59.3	6.2	0.00e+00	0	38	0	0	87	16889
2026-01-16 10:28:51.14	256.74	29.01	-57.7	-59.3	6.2	0.00e+00	0	38	0	0	87	16889
2026-01-16 10:28:52.20	256.38	28.80	-57.7	-59.3	6.2	0.00e+00	0	38	0	0	87	16889
2026-01-16 10:28:53.06	256.09	28.62	-57.7	-59.3	6.2	0.00e+00	0	38	0	0	87	16889
2026-01-16 10:28:54.21	255.71	28.39	-57.7	-59.3	6.2	0.00e+00	0	38	0	0	87	16889
2026-01-16 10:28:55.08	255.43	28.21	-57.7	-59.3	6.2	0.00e+00	0	38	0	0	87	16889
2026-01-16 10:28:56.23	255.06	27.98	-57.7	-59.3	6.2	0.00e+00	0	38	0	0	87	16889
2026-01-16 10:28:57.09	254.79	27.81	-57.7	-59.3	6.2	0.00e+00	0	38	0	0	87	16889
2026-01-16 10:28:58.24	254.43	27.58	-57.7	-59.3	6.2	0.00e+00	0	38	0	0	87	16889
2026-01-16 10:28:59.11	254.16	27.41	-57.7	-59.3	6.2	0.00e+00	0	38	0	0	87	16889
2026-01-16 10:29:00.26	253.82	27.18	-57.7	-59.3	6.2	0.00e+00	0	38	0	0	87	16889
2026-01-16 10:29:01.12	253.56	27.02	-57.7	-59.3	6.2	0.00e+00	0	38	0	0	87	16889
2026-01-16 10:29:02.27	253.22	26.79	-57.7	-59.3	6.2	0.00e+00	0	38	0	0	87	16889
2026-01-16 10:29:03.14	252.97	26.62	-57.7	-59.3	6.2	0.00e+00	0	38	0	0	87	16889
2026-01-16 10:29:04.29	252.64	26.40	-57.7	-59.3	6.2	0.00e+00	0	38	0	0	87	16889
2026-01-16 10:29:05.15	252.39	26.23	-57.7	-59.3	6.2	0.00e+00	0	38	0	0	87	16889
2026-01-16 10:29:06.31	252.07	26.01	-57.7	-59.3	6.2	0.00e+00	0	38	0	0	87	16889
2026-01-16 10:29:07.17	251.83	25.85	-57.7	-59.3	6.2	0.00e+00	0	38	0	0	87	16889
2026-01-16 10:29:08.33	251.52	25.63	-57.7	-59.3	6.2	0.00e+00	0	38	0	0	87	16889
2026-01-16 10:29:09.19	251.29	25.47	-57.7	-59.3	6.2	0.00e+00	0	38	0	0	87	16889
2026-01-16 10:29:10.34	250.98	25.25	-57.7	-59.3	6.2	0.00e+00	0	38	0	0	87	16889
2026-01-16 10:29:11.20	250.76	25.09	-57.7	-59.3	6.2	0.00e+00	0	38	0	0	87	16889
2026-01-16 10:29:12.36	250.46	24.87	-57.7	-59.3	6.2	0.00e+00	0	38	0	0	87	16889
2026-01-16 10:29:13.22	250.24	24.71	-57.7	-59.3	6.2	0.00e+00	0	38	0	0	87	16889
2026-01-16 10:29:14.37	249.95	24.50	-57.7	-59.3	6.2	0.00e+00	0	38	0	0	87	16889
2026-01-16 10:29:15.24	249.73	24.34	-57.7	-59.3	6.2	0.00e+00	0	38	0	0	87	16889
2026-01-16 10:29:16.39	249.45	24.14	-57.7	-59.3	6.2	0.00e+00	0	38	0	0	87	16889
2026-01-16 10:29:17.26	249.24	23.98	-57.7	-59.3	6.2	0.00e+00	0	38	0	0	87	16889
2026-01-16 10:29:18.41	248.97	23.77	-57.7	-59.3	6.2	0.00e+00	0	38	0	0	87	16889
2026-01-16 10:29:19.28	248.76	23.62	-57.7	-59.3	6.2	0.00e+00	0	38	0	0	87	16889
2026-01-16 10:29:20.43	248.50	23.41	-57.7	-59.3	6.2	0.00e+00	0	38	0	0	87	16889
2026-01-16 10:29:21.29	248.30	23.26	-57.7	-59.3	6.2	0.00e+00	0	38	0	0	87	16889
2026-01-16 10:29:22.45	248.04	23.06	-57.7	-59.3	6.2	0.00e+00	0	37	0	0	87	16889
2026-01-16 10:29:23.31	247.85	22.91	-57.7	-59.3	6.2	0.00e+00	0	38	0	0	87	16889
2026-01-16 10:29:24.46	247.59	22.71	-57.7	-59.3	6.2	0.00e+00	0	38	0	0	87	16889
2026-01-16 10:29:25.33	247.40	22.56	-57.7	-59.3	6.2	0.00e+00	0	38	0	0	87	16889
2026-01-16 10:29:26.48	247.16	22.36	-57.7	-59.3	6.2	0.00e+00	0	38	0	0	87	16889
2026-01-16 10:29:27.35	246.97	22.21	-57.7	-59.3	6.2	0.00e+00	0	38	0	0	87	16889
2026-01-16 10:29:28.50	246.73	22.02	-57.7	-59.3	6.2	0.00e+00	0	38	0	0	87	16889
2026-01-16 10:29:29.36	246.55	21.87	-57.7	-59.3	6.2	0.00e+00	0	37	0	0	87	16889
2026-01-16 10:29:30.51	246.32	21.68	-57.7	-59.3	6.2	0.00e+00	0	38	0	0	87	16889
2026-01-16 10:29:31.38	246.14	21.54	-57.7	-59.3	6.2	0.00e+00	0	38	0	0	87	16889
2026-01-16 10:29:32.53	245.91	21.35	-57.7	-59.3	6.2	0.00e+00	0	37	0	0	87	16889
2026-01-16 10:29:33.39	245.74	21.21	-57.7	-59.3	6.2	0.00e+00	0	38	0	0	87	16889
2026-01-16 10:29:34.55	245.52	21.02	-57.7	-59.3	6.2	0.00e+00	0	38	0	0	87	16889
2026-01-16 10:29:35.41	245.35	20.88	-57.7	-59.3	6.2	0.00e+00	0	38	0	0	87	16889
2026-01-16 10:29:36.57	245.13	20.69	-57.7	-59.3	6.2	0.00e+00	0	37	0	0	87	16889
2026-01-16 10:29:37.43	244.97	20.55	-57.7	-59.3	6.2	0.00e+00	0	38	0	0	87	16889
2026-01-16 10:29:38.58	244.75	20.37	-57.7	-59.3	6.2	0.00e+00	0	38	0	0	87	16889
2026-01-16 10:29:39.45	244.60	20.23	-57.7	-59.3	6.2	0.00e+00	0	38	0	0	87	16889
2026-01-16 10:29:40.60	244.39	20.05	-57.7	-59.3	6.2	0.00e+00	0	38	0	0	87	16889
2026-01-16 10:29:41.47	244.23	19.91	-57.7	-59.3	6.2	0.00e+00	0	38	0	0	87	16889
2026-01-16 10:29:42.62	244.03	19.74	-57.7	-59.3	6.2	0.00e+00	0	37	0	0	87	16889
2026-01-16 10:29:43.48	243.88	19.60	-57.7	-59.3	6.2	0.00e+00	0	38	0	0	87	16889
2026-01-16 10:29:44.63	243.68	19.43	-57.7	-59.3	6.2	0.00e+00	0	38	0	0	87	16889
2026-01-16 10:29:45.50	243.53	19.29	-57.7	-59.3	6.2	0.00e+00	0	38	0	0	87	16889
2026-01-16 10:29:46.65	243.34	19.12	-57.7	-59.3	6.2	0.00e+00	0	38	0	0	87	16889
2026-01-16 10:29:47.51	243.19	18.99	-57.7	-59.3	6.2	0.00e+00	0	37	0	0	87	16889
2026-01-16 10:29:48.66	243.00	18.82	-57.7	-59.3	6.2	0.00e+00	0	38	0	0	87	16889
2026-01-16 10:29:49.53	242.86	18.69	-57.7	-59.3	6.2	0.00e+00	0	38	0	0	87	16889
2026-01-16 10:29:50.68	242.68	18.52	-57.7	-59.3	6.2	0.00e+00	0	37	0	0	87	16889
2026-01-16 10:29:51.55	242.54	18.39	-57.7	-59.3	6.2	0.00e+00	0	38	0	0	87	16889
2026-01-16 10:29:52.70	242.36	18.22	-57.7	-59.3	6.2	0.00e+00	0	38	0	0	87	16889
2026-01-16 10:29:53.57	242.22	18.10	-57.7	-59.3	6.2	0.00e+00	0	37	0	0	87	16889
2026-01-16 10:29:54.72	242.04	17.93	-57.7	-59.3	6.2	0.00e+00	0	37	0	0	87	16889
2026-01-16 10:29:55.58	241.91	17.81	-57.7	-59.3	6.2	0.00e+00	0	37	0	0	87	16889
2026-01-16 10:29:56.74	241.74	17.64	-57.7	-59.3	6.2	0.00e+00	0	37	0	0	87	16889
2026-01-16 10:29:57.60	241.61	17.52	-57.7	-59.3	6.2	0.00e+00	0	38	0	0	87	16889
2026-01-16 10:29:58.76	241.44	17.36	-57.7	-59.3	6.2	0.00e+00	0	38	0	0	87	16889
2026-01-16 10:29:59.62	241.31	17.24	-57.7	-59.3	6.2	0.00e+00	0	37	0	0	87	16889
2026-01-16 10:30:00.77	241.15	17.08	-57.7	-59.3	6.2	0.00e+00	0	37	0	0	87	16889
2026-01-16 10:30:01.64	241.03	16.96	-57.7	-59.3	6.2	0.00e+00	0	37	0	0	87	16889
2026-01-16 10:30:02.79	240.86	16.80	-57.7	-59.3	6.2	0.00e+00	0	38	0	0	87	16889
2026-01-16 10:30:03.65	240.74	16.68	-57.7	-59.3	6.2	0.00e+00	0	37	0	0	87	16889
2026-01-16 10:30:04.80	240.58	16.52	-57.7	-59.3	6.2	0.00e+00	0	38	0	0	87	16889
2026-01-16 10:30:05.67	240.47	16.41	-57.7	-59.3	6.2	0.00e+00	0	38	0	0	87	16889
2026-01-16 10:30:06.82	240.31	16.25	-57.7	-59.3	6.2	0.00e+00	0	37	0	0	87	16889
2026-01-16 10:30:07.69	240.19	16.14	-57.7	-59.3	6.2	0.00e+00	0	37	0	0	87	16889
2026-01-16 10:30:08.84	240.04	15.98	-57.7	-59.3	6.2	0.00e+00	0	37	0	0	87	16889
2026-01-16 10:30:09.71	239.93	15.87	-57.7	-59.3	6.2	0.00e+00	0	37	0	0	87	16889
2026-01-16 10:30:10.86	239.78	15.72	-57.7	-59.3	6.2	0.00e+00	0	37	0	0	87	16889
2026-01-16 10:30:11.72	239.67	15.61	-57.7	-59.3	6.2	0.00e+00	0	37	0	0	87	16889
2026-01-16 10:30:12.87	239.53	15.46	-57.7	-59.3	6.2	0.00e+00	0	37	0	0	87	16889
2026-01-16 10:30:13.74	239.42	15.35	-57.7	-59.3	6.2	0.00e+00	0	37	0	0	87	16889
2026-01-16 10:30:14.89	239.27	15.20	-57.7	-59.3	6.2	0.00e+00	0	37	0	0	87	16889
2026-01-16 10:30:15.75	239.17	15.09	-57.7	-59.3	6.2	0.00e+00	0	37	0	0	87	16889
2026-01-16 10:30:16.91	239.03	14.94	-57.7	-59.3	6.2	0.00e+00	0	37	0	0	87	16889
2026-01-16 10:30:17.77	238.92	14.84	-57.7	-59.3	6.2	0.00e+00	0	37	0	0	87	16889
2026-01-16 10:30:18.92	238.79	14.69	-57.7	-59.3	6.2	0.00e+00	0	37	0	0	87	16889
2026-01-16 10:30:19.79	238.68	14.58	-57.7	-59.3	6.2	0.00e+00	0	37	0	0	87	16889
2026-01-16 10:30:20.94	238.55	14.44	-57.7	-59.3	6.2	0.00e+00	0	37	0	0	87	16889
2026-01-16 10:30:21.80	238.45	14.34	-57.7	-59.3	6.2	0.00e+00	0	37	0	0	87	16889
2026-01-16 10:30:22.95	238.32	14.20	-57.7	-59.3	6.2	0.00e+00	0	37	0	0	87	16889
2026-01-16 10:30:23.82	238.22	14.09	-57.7	-59.3	6.2	0.00e+00	0	37	0	0	87	16889
2026-01-16 10:30:24.97	238.09	13.95	-57.7	-59.3	6.2	0.00e+00	0	37	0	0	87	16889
2026-01-16 10:30:25.83	238.00	13.85	-57.7	-59.3	6.2	0.00e+00	0	37	0	0	87	16889
2026-01-16 10:30:26.99	237.87	13.71	-57.7	-59.3	6.2	0.00e+00	0	37	0	0	87	16889
2026-01-16 10:30:27.85	237.78	13.61	-57.7	-59.3	6.2	0.00e+00	0	37	0	0	87	16889
2026-01-16 10:30:29.00	237.65	13.47	-57.7	-59.3	6.2	0.00e+00	0	38	0	0	87	16889
2026-01-16 10:30:29.87	237.56	13.37	-57.7	-59.3	6.2	0.00e+00	0	37	0	0	87	16889
2026-01-16 10:30:31.02	237.44	13.24	-57.7	-59.3	6.2	0.00e+00	0	37	0	0	87	16889
2026-01-16 10:30:31.88	237.35	13.14	-57.7	-59.3	6.2	0.00e+00	0	37	0	0	87	16889
2026-01-16 10:30:33.04	237.23	13.00	-57.7	-59.3	6.2	0.00e+00	0	37	0	0	87	16889
2026-01-16 10:30:33.90	237.14	12.90	-57.7	-59.3	6.2	0.00e+00	0	37	0	0	87	16889
2026-01-16 10:30:35.06	237.02	12.77	-57.7	-59.3	6.2	0.00e+00	0	38	0	0	87	16889
2026-01-16 10:30:35.92	236.94	12.67	-57.7	-59.3	6.2	0.00e+00	0	37	0	0	87	16889
2026-01-16 10:30:37.07	236.82	12.54	-57.7	-59.3	6.2	0.00e+00	0	37	0	0	87	16889
2026-01-16 10:30:37.93	236.74	12.45	-57.7	-59.3	6.2	0.00e+00	0	37	0	0	87	16889
2026-01-16 10:30:39.09	236.62	12.32	-57.7	-59.3	6.2	0.00e+00	0	37	0	0	87	16889
2026-01-16 10:30:39.95	236.54	12.22	-57.7	-59.3	6.2	0.00e+00	0	37	0	0	87	16889
2026-01-16 10:30:41.10	236.43	12.09	-57.7	-59.3	6.2	0.00e+00	0	37	0	0	87	16889
2026-01-16 10:30:41.97	236.35	12.00	-57.7	-59.3	6.2	0.00e+00	0	38	0	0	87	16889
2026-01-16 10:30:43.12	236.24	11.87	-57.7	-59.3	6.2	0.00e+00	0	37	0	0	87	16889
2026-01-16 10:30:43.98	236.16	11.78	-57.7	-59.3	6.2	0.00e+00	0	37	0	0	87	16889
2026-01-16 10:30:45.13	236.05	11.65	-57.7	-59.3	6.2	0.00e+00	0	37	0	0	87	16889
2026-01-16 10:30:46.00	235.97	11.56	-57.7	-59.3	6.2	0.00e+00	0	37	0	0	87	16889
2026-01-16 10:30:47.15	235.87	11.44	-57.7	-59.3	6.2	0.00e+00	0	37	0	0	87	16889
2026-01-16 10:30:48.02	235.79	11.34	-57.7	-59.3	6.2	0.00e+00	0	37	0	0	87	16889
2026-01-16 10:30:49.17	235.69	11.22	-57.7	-59.3	6.2	0.00e+00	0	38	0	0	87	16889
2026-01-16 10:30:50.03	235.61	11.13	-57.7	-59.3	6.2	0.00e+00	0	37	0	0	87	16889
2026-01-16 10:30:51.19	235.51	11.01	-57.7	-59.3	6.2	0.00e+00	0	37	0	0	87	16889
2026-01-16 10:30:52.05	235.44	10.92	-57.7	-59.3	6.2	0.00e+00	0	37	0	0	87	16889
2026-01-16 10:30:53.20	235.34	10.80	-57.7	-59.3	6.2	0.00e+00	0	37	0	0	87	16889
2026-01-16 10:30:54.07	235.26	10.71	-57.7	-59.3	6.2	0.00e+00	0	37	0	0	87	16889
2026-01-16 10:30:55.22	235.17	10.59	-57.7	-59.3	6.2	0.00e+00	0	37	0	0	87	16889
2026-01-16 10:30:56.08	235.10	10.51	-57.7	-59.3	6.2	0.00e+00	0	37	0	0	87	16889
2026-01-16 10:30:57.24	235.00	10.39	-57.7	-59.3	6.2	0.00e+00	0	37	0	0	87	16889
2026-01-16 10:30:58.10	234.93	10.30	-57.7	-59.3	6.2	0.00e+00	0	37	0	0	87	16889
2026-01-16 10:30:59.25	234.83	10.18	-57.7	-59.3	6.2	0.00e+00	0	38	0	0	87	16889
2026-01-16 10:31:00.11	234.77	10.10	-57.7	-59.3	6.2	0.00e+00	0	37	0	0	87	16889
2026-01-16 10:31:01.27	234.67	9.98	-57.7	-59.3	6.2	0.00e+00	0	37	0	0	87	16889
2026-01-16 10:31:02.13	234.60	9.90	-57.7	-59.3	6.2	0.00e+00	0	37	0	0	87	16889
2026-01-16 10:31:03.28	234.51	9.78	-57.7	-59.3	6.2	0.00e+00	0	37	0	0	87	16889
2026-01-16 10:31:04.15	234.45	9.70	-57.7	-59.3	6.2	0.00e+00	0	37	0	0	87	16889
2026-01-16 10:31:05.30	234.36	9.58	-57.7	-59.3	6.2	0.00e+00	0	37	0	0	87	16889
2026-01-16 10:31:06.16	234.29	9.50	-57.7	-59.3	6.2	0.00e+00	0	37	0	0	87	16889
2026-01-16 10:31:07.31	234.20	9.39	-57.7	-59.3	6.2	0.00e+00	0	37	0	0	87	16889
2026-01-16 10:31:08.17	234.14	9.31	-57.7	-59.3	6.2	0.00e+00	0	37	0	0	87	16889
2026-01-16 10:31:09.33	234.05	9.20	-57.7	-59.3	6.2	0.00e+00	0	37	0	0	87	16889
2026-01-16 10:31:10.19	233.99	9.11	-57.7	-59.3	6.2	0.00e+00	0	37	0	0	87	16889
2026-01-16 10:31:11.34	233.90	9.00	-57.7	-59.3	6.2	0.00e+00	0	37	0	0	87	16889
2026-01-16 10:31:12.21	233.84	8.92	-57.7	-59.3	6.2	0.00e+00	0	37	0	0	87	16889
2026-01-16 10:31:13.36	233.76	8.81	-57.7	-59.3	6.2	0.00e+00	0	38	0	0	87	16889
2026-01-16 10:31:14.23	233.70	8.73	-57.7	-59.3	6.2	0.00e+00	0	37	0	0	87	16889
2026-01-16 10:31:15.38	233.61	8.62	-57.7	-59.3	6.2	0.00e+00	0	37	0	0	87	16889
2026-01-16 10:31:16.24	233.55	8.54	-57.7	-59.3	6.2	0.00e+00	0	37	0	0	87	16889
2026-01-16 10:31:17.40	233.47	8.44	-57.7	-59.3	6.2	0.00e+00	0	38	0	0	87	16889
2026-01-16 10:31:18.26	233.41	8.36	-57.7	-59.3	6.2	0.00e+00	0	37	0	0	87	16889
2026-01-16 10:31:19.41	233.33	8.25	-57.7	-59.3	6.2	0.00e+00	0	37	0	0	87	16889
2026-01-16 10:31:20.27	233.28	8.17	-57.7	-59.3	6.2	0.00e+00	0	37	0	0	87	16889
2026-01-16 10:31:21.43	233.20	8.07	-57.7	-59.3	6.2	0.00e+00	0	37	0	0	87	16889
2026-01-16 10:31:22.29	233.14	7.99	-57.7	-59.3	6.2	0.00e+00	0	38	0	0	87	16889
2026-01-16 10:31:23.44	233.06	7.89	-57.7	-59.3	6.2	0.00e+00	0	37	0	0	87	16889
2026-01-16 10:31:24.31	233.01	7.81	-57.7	-59.3	6.2	0.00e+00	0	37	0	0	87	16889
2026-01-16 10:31:25.46	232.93	7.71	-57.7	-59.3	6.2	0.00e+00	0	37	0	0	87	16889
2026-01-16 10:31:26.32	232.87	7.63	-57.7	-59.3	6.2	0.00e+00	0	37	0	0	87	16889
2026-01-16 10:31:27.47	232.80	7.53	-57.7	-59.3	6.2	0.00e+00	0	37	0	0	87	16889
2026-01-16 10:31:28.34	232.74	7.45	-57.7	-59.3	6.2	0.00e+00	0	37	0	0	87	16889
2026-01-16 10:31:29.49	232.67	7.35	-57.7	-59.3	6.2	0.00e+00	0	37	0	0	87	16889
2026-01-16 10:31:30.35	232.62	7.27	-57.7	-59.3	6.2	0.00e+00	0	37	0	0	87	16889
2026-01-16 10:31:31.51	232.55	7.17	-57.7	-59.3	6.2	0.00e+00	0	37	0	0	87	16889
2026-01-16 10:31:32.37	232.49	7.10	-57.7	-59.3	6.2	0.00e+00	0	37	0	0	87	16889
2026-01-16 10:31:33.52	232.42	7.00	-57.7	-59.3	6.2	0.00e+00	0	37	0	0	87	16889
2026-01-16 10:31:34.39	232.37	6.92	-57.7	-59.3	6.2	0.00e+00	0	37	0	0	87	16889
2026-01-16 10:31:35.54	232.30	6.83	-57.7	-59.3	6.2	0.00e+00	0	37	0	0	87	16889
2026-01-16 10:31:36.40	232.25	6.75	-57.7	-59.3	6.2	0.00e+00	0	37	0	0	87	16889
2026-01-16 10:31:37.55	232.18	6.65	-57.7	-59.3	6.2	0.00e+00	0	37	0	0	87	16889
2026-01-16 10:31:38.42	232.13	6.58	-57.7	-59.3	6.2	0.00e+00	0	37	0	0	87	16889
2026-01-16 10:31:39.57	232.06	6.48	-57.7	-59.3	6.2	0.00e+00	0	37	0	0	87	16889
2026-01-16 10:31:40.43	232.01	6.41	-57.7	-59.3	6.2	0.00e+00	0	37	0	0	87	16889
2026-01-16 10:31:41.59	231.94	6.32	-57.7	-59.3	6.2	0.00e+00	0	37	0	0	87	16889
2026-01-16 10:31:42.45	231.89	6.24	-57.7	-59.3	6.2	0.00e+00	0	37	0	0	87	16889
2026-01-16 10:31:43.60	231.83	6.15	-57.7	-59.3	6.2	0.00e+00	0	37	0	0	87	16889
2026-01-16 10:31:44.47	231.78	6.08	-57.7	-59.3	6.2	0.00e+00	0	37	0	0	87	16889
2026-01-16 10:31:45.62	231.71	5.98	-57.7	-59.3	6.2	0.00e+00	0	37	0	0	87	16889
2026-01-16 10:31:46.49	231.67	5.91	-57.7	-59.3	6.2	0.00e+00	0	37	0	0	87	16889
2026-01-16 10:31:47.64	231.60	5.82	-57.7	-59.3	6.2	0.00e+00	0	37	0	0	87	16889
2026-01-16 10:31:48.51	231.55	5.75	-57.7	-59.3	6.2	0.00e+00	0	37	0	0	87	16889
2026-01-16 10:31:49.66	231.49	5.65	-57.7	-59.3	6.2	0.00e+00	0	37	0	0	87	16889
2026-01-16 10:31:50.52	231.45	5.58	-57.7	-59.3	6.2	0.00e+00	0	37	0	0	87	16889
2026-01-16 10:31:51.67	231.38	5.49	-57.7	-59.3	6.2	0.00e+00	0	37	0	0	87	16889
2026-01-16 10:31:52.54	231.34	5.42	-57.7	-59.3	6.2	0.00e+00	0	37	0	0	87	16889
2026-01-16 10:31:53.69	231.28	5.33	-57.7	-59.3	6.2	0.00e+00	0	37	0	0	87	16889
2026-01-16 10:31:54.56	231.23	5.26	-57.7	-59.3	6.2	0.00e+00	0	37	0	0	87	16889
2026-01-16 10:31:55.71	231.17	5.17	-57.7	-59.3	6.2	0.00e+00	0	37	0	0	87	16889
2026-01-16 10:31:56.57	231.13	5.10	-57.7	-59.3	6.2	0.00e+00	0	37	0	0	87	16889
2026-01-16 10:31:57.72	231.07	5.01	-57.7	-59.3	6.2	0.00e+00	0	37	0	0	87	16889
2026-01-16 10:31:58.59	231.02	4.94	-57.7	-59.3	6.2	0.00e+00	0	37	0	0	87	16889
2026-01-16 10:31:59.74	230.97	4.85	-57.7	-59.3	6.2	0.00e+00	0	37	0	0	87	16889
2026-01-16 10:32:00.61	230.92	4.79	-57.7	-59.3	6.2	0.00e+00	0	37	0	0	87	16889
2026-01-16 10:32:01.76	230.87	4.70	-57.7	-59.3	6.2	0.00e+00	0	37	0	0	87	16889
2026-01-16 10:32:02.62	230.82	4.63	-57.7	-59.3	6.2	0.00e+00	0	37	0	0	87	16889
2026-01-16 10:32:03.78	230.77	4.54	-57.7	-59.3	6.2	0.00e+00	0	37	0	0	87	16889
2026-01-16 10:32:04.64	230.72	4.48	-57.7	-59.3	6.2	0.00e+00	0	37	0	0	87	16889
2026-01-16 10:32:05.79	230.67	4.39	-57.7	-59.3	6.2	0.00e+00	0	37	0	0	87	16889
2026-01-16 10:32:06.66	230.63	4.32	-57.7	-59.3	6.2	0.00e+00	0	37	0	0	87	16889
2026-01-16 10:32:07.81	230.57	4.24	-57.7	-59.3	6.2	0.00e+00	0	37	0	0	87	16889
2026-01-16 10:32:08.67	230.53	4.17	-57.7	-59.3	6.2	0.00e+00	0	37	0	0	87	16889
2026-01-16 10:32:09.82	230.48	4.08	-57.7	-59.3	6.2	0.00e+00	0	37	0	0	87	16889
2026-01-16 10:32:10.69	230.44	4.02	-57.7	-59.3	6.2	0.00e+00	0	37	0	0	87	16889
2026-01-16 10:32:11.84	230.38	3.93	-57.7	-59.3	6.2	0.00e+00	0	37	0	0	87	16889
2026-01-16 10:32:12.70	230.34	3.87	-57.7	-59.3	6.2	0.00e+00	0	37	0	0	87	16889
2026-01-16 10:32:13.86	230.29	3.78	-57.7	-59.3	6.2	0.00e+00	0	37	0	0	87	16889
2026-01-16 10:32:14.72	230.25	3.72	-57.7	-59.3	6.2	0.00e+00	0	37	0	0	87	16889
2026-01-16 10:32:15.87	230.20	3.63	-57.7	-59.3	6.2	0.00e+00	0	37	0	0	87	16889
2026-01-16 10:32:16.74	230.16	3.57	-57.7	-59.3	6.2	0.00e+00	0	37	0	0	87	16889
2026-01-16 10:32:17.89	230.11	3.49	-57.7	-59.3	6.2	0.00e+00	0	37	0	0	87	16889
2026-01-16 10:32:18.75	230.07	3.42	-57.7	-59.3	6.2	0.00e+00	0	37	0	0	87	16889
2026-01-16 10:32:19.90	230.02	3.34	-57.7	-59.3	6.2	0.00e+00	0	37	0	0	87	16889
2026-01-16 10:32:20.77	229.98	3.28	-57.7	-59.3	6.2	0.00e+00	0	37	0	0	87	16889
2026-01-16 10:32:21.92	229.93	3.19	-57.7	-59.3	6.2	0.00e+00	0	37	0	0	87	16889
2026-01-16 10:32:22.78	229.89	3.13	-57.7	-59.3	6.2	0.00e+00	0	37	0	0	87	16889
2026-01-16 10:32:23.93	229.85	3.05	-57.7	-59.3	6.2	0.00e+00	0	37	0	0	87	16889
2026-01-16 10:32:24.80	229.81	2.99	-57.7	-59.3	6.2	0.00e+00	0	37	0	0	87	16889
2026-01-16 10:32:25.95	229.76	2.91	-57.7	-59.3	6.2	0.00e+00	0	37	0	0	87	16889
2026-01-16 10:32:26.82	229.72	2.84	-57.7	-59.3	6.2	0.00e+00	0	37	0	0	87	16889
2026-01-16 10:32:27.97	229.68	2.76	-57.7	-59.3	6.2	0.00e+00	0	37	0	0	87	16889
2026-01-16 10:32:28.83	229.64	2.70	-57.7	-59.3	6.2	0.00e+00	0	37	0	0	87	16889
2026-01-16 10:32:29.99	229.59	2.62	-57.7	-59.3	6.2	0.00e+00	0	37	0	0	87	16889
2026-01-16 10:32:30.85	229.56	2.56	-57.7	-59.3	6.2	0.00e+00	0	37	0	0	87	16889
2026-01-16 10:32:32.00	229.51	2.48	-57.7	-59.3	6.2	0.00e+00	0	37	0	0	87	16889
2026-01-16 10:32:32.87	229.48	2.42	-57.7	-59.3	6.2	0.00e+00	0	37	0	0	87	16889
2026-01-16 10:32:34.02	229.43	2.34	-57.7	-59.3	6.2	0.00e+00	0	37	0	0	87	16889
2026-01-16 10:32:34.89	229.39	2.28	-57.7	-59.3	6.2	0.00e+00	0	37	0	0	87	16889
2026-01-16 10:32:36.04	229.35	2.20	-57.7	-59.3	6.2	0.00e+00	0	37	0	0	87	16889
2026-01-16 10:32:36.90	229.32	2.14	-57.7	-59.3	6.2	0.00e+00	0	37	0	0	87	16889
2026-01-16 10:32:38.06	229.27	2.06	-57.7	-59.3	6.2	0.00e+00	0	37	0	0	87	16889
2026-01-16 10:32:38.92	229.24	2.00	-57.7	-59.3	6.2	0.00e+00	0	37	0	0	87	16889
2026-01-16 10:32:40.08	229.19	1.92	-57.7	-59.3	6.2	0.00e+00	0	37	0	0	87	16889

#Closed at: 2026-01-16 10:32:40
#Recorded file [0 MB]: D:/lorett/data/31041_260116_132217.dat