passes_logs/2026/01/16/R3.2S_Murmansk/R3.2S_Murmansk__20260116_051156_FENGYUN_3D_rec.log

#Pass ID: 20260116_051156_FENGYUN 3D
#Satellite: FENGYUN 3D
#Configuration: FENGYUN 3D
#almurnet v.1.7.20251203
#Start time: 2026-01-16 05:11:57

#Version: 2.2.20231116
#Station: R3.2S_Murmansk
#Location: 33.079688 lon 68.888172 lat
#TLE: 1 43010U 17072A   26015.49690188 -.00000192  00000+0 -69217-4 0  9996
#TLE: 2 43010  98.9932 347.3205 0002350 106.2275 253.9159 14.19694721423329

#Time	Az	El	Level	Level2	SNR	BER	BlckErr	Temp	State	Recorded	gain1	gain2
2026-01-16 05:11:57.37	39.29	2.03	-56.3	-68.3	3.8	8.46e-01	0	41	0	0	84	14049
2026-01-16 05:11:58.37	39.24	2.09	-56.2	-68.2	3.8	8.46e-01	0	42	104	0	83	14732
2026-01-16 05:11:59.38	39.19	2.15	-56.2	-68.2	3.8	8.46e-01	0	42	104	0	83	14728
2026-01-16 05:12:00.39	39.15	2.21	-56.2	-68.2	3.8	8.46e-01	0	42	104	0	83	14732
2026-01-16 05:12:01.40	39.10	2.27	-56.2	-68.2	3.8	8.47e-01	0	42	104	0	83	14750
2026-01-16 05:12:02.41	39.05	2.33	-56.2	-68.1	3.8	8.46e-01	0	42	104	0	83	14695
2026-01-16 05:12:03.42	39.00	2.39	-56.2	-68.1	3.8	8.46e-01	0	41	104	0	83	14667
2026-01-16 05:12:04.43	38.95	2.46	-56.2	-68.1	3.8	8.46e-01	0	42	104	0	83	14677
2026-01-16 05:12:05.44	38.90	2.52	-56.2	-68.1	3.8	8.46e-01	0	42	104	0	83	14656
2026-01-16 05:12:06.45	38.85	2.58	-56.2	-68.1	3.8	8.46e-01	0	42	104	0	83	14566
2026-01-16 05:12:07.46	38.80	2.64	-56.2	-68.1	3.8	8.47e-01	0	42	104	0	83	14615
2026-01-16 05:12:08.47	38.75	2.70	-56.2	-68.0	3.8	8.46e-01	0	42	104	0	83	14519
2026-01-16 05:12:09.48	38.70	2.76	-56.2	-68.0	3.8	8.47e-01	0	42	104	0	83	14518
2026-01-16 05:12:10.49	38.65	2.83	-56.2	-68.1	3.8	8.46e-01	0	42	104	0	83	14598
2026-01-16 05:12:11.50	38.60	2.89	-56.2	-68.1	3.8	8.45e-01	0	42	104	0	83	14594
2026-01-16 05:12:12.51	38.54	2.95	-56.2	-68.1	3.8	8.46e-01	0	42	104	0	83	14665
2026-01-16 05:12:13.52	38.49	3.01	-56.2	-68.1	3.8	8.46e-01	0	42	104	0	83	14685
2026-01-16 05:12:14.54	38.44	3.08	-56.2	-68.1	3.8	8.46e-01	0	42	104	0	83	14676
2026-01-16 05:12:15.54	38.39	3.14	-56.2	-68.1	3.8	8.46e-01	0	43	104	0	83	14558
2026-01-16 05:12:16.55	38.34	3.20	-56.2	-68.0	3.8	8.46e-01	0	43	104	0	83	14456
2026-01-16 05:12:17.56	38.28	3.26	-56.2	-68.0	3.8	8.46e-01	0	43	104	0	83	14526
2026-01-16 05:12:18.58	38.23	3.33	-56.2	-68.0	3.8	8.46e-01	0	43	104	0	83	14378
2026-01-16 05:12:19.59	38.18	3.39	-56.2	-68.0	3.8	8.45e-01	0	43	104	0	83	14515
2026-01-16 05:12:20.60	38.12	3.45	-56.2	-68.0	3.8	8.46e-01	0	43	104	0	83	14519
2026-01-16 05:12:21.61	38.07	3.52	-56.2	-68.0	3.8	8.47e-01	0	43	104	0	83	14460
2026-01-16 05:12:22.62	38.02	3.58	-56.2	-68.0	3.8	8.47e-01	0	43	104	0	83	14479
2026-01-16 05:12:23.63	37.96	3.64	-56.2	-67.8	3.8	8.45e-01	0	43	104	0	83	14144
2026-01-16 05:12:24.64	37.91	3.71	-56.2	-67.5	3.8	8.46e-01	0	43	104	0	83	13614
2026-01-16 05:12:25.65	37.85	3.77	-56.1	-67.3	3.8	8.46e-01	0	43	104	0	83	13384
2026-01-16 05:12:26.66	37.80	3.83	-56.1	-66.9	3.8	8.47e-01	0	43	104	0	83	12737
2026-01-16 05:12:27.67	37.75	3.90	-56.1	-66.7	3.8	8.45e-01	0	43	104	0	83	12400
2026-01-16 05:12:28.68	37.69	3.96	-56.0	-66.1	3.8	8.45e-01	0	43	104	0	83	11665
2026-01-16 05:12:29.69	37.63	4.03	-55.9	-65.4	4.0	8.45e-01	0	43	104	0	83	10769
2026-01-16 05:12:30.70	37.58	4.09	-55.9	-64.7	4.2	8.41e-01	0	43	0	0	83	9931
2026-01-16 05:12:31.71	37.52	4.15	-55.6	-63.1	4.8	8.17e-01	0	43	0	0	83	8222
2026-01-16 05:12:32.72	37.47	4.22	-55.5	-62.7	4.9	7.97e-01	0	43	0	0	83	7814
2026-01-16 05:12:33.73	37.41	4.28	-55.1	-61.1	6.0	4.14e-01	0	43	0	3145728	82	6909
2026-01-16 05:12:34.74	37.35	4.35	-54.9	-60.4	6.5	1.90e-01	0	43	0	8388608	81	6774
2026-01-16 05:12:35.75	37.30	4.41	-54.6	-59.6	7.2	1.83e-01	0	43	0	13631488	81	6177
2026-01-16 05:12:36.76	37.24	4.48	-54.5	-59.1	7.7	1.25e-01	0	43	0	19922944	80	6138
2026-01-16 05:12:37.77	37.18	4.54	-53.9	-57.7	9.3	3.06e-02	0	44	0	26214400	79	5533
2026-01-16 05:12:38.78	37.12	4.61	-53.8	-57.5	9.5	2.59e-02	0	44	0	31457280	79	5416
2026-01-16 05:12:39.79	37.06	4.68	-53.9	-57.7	9.3	1.81e-02	0	44	0	36700160	79	5580
2026-01-16 05:12:40.80	37.01	4.74	-53.7	-57.2	9.7	1.82e-02	0	44	0	42991616	79	5261
2026-01-16 05:12:41.82	36.95	4.81	-53.9	-57.8	9.2	2.44e-02	0	44	0	48234496	79	5613
2026-01-16 05:12:42.82	36.89	4.87	-53.9	-57.6	9.4	1.29e-02	0	44	0	54525952	79	5502
2026-01-16 05:12:43.84	36.83	4.94	-53.9	-57.7	9.3	1.86e-02	0	44	0	59768832	79	5566
2026-01-16 05:12:44.84	36.77	5.00	-54.2	-58.2	8.7	4.18e-02	0	44	0	65011712	79	5915
2026-01-16 05:12:45.86	36.71	5.07	-53.7	-57.2	9.9	1.36e-02	0	44	0	71303168	79	5239
2026-01-16 05:12:46.87	36.65	5.14	-53.8	-57.3	9.8	1.75e-02	0	44	0	76546048	79	5330
2026-01-16 05:12:47.88	36.59	5.20	-55.3	-62.0	5.3	2.17e-01	0	44	0	82837504	81	8146
2026-01-16 05:12:48.89	36.53	5.27	-50.2	-51.7	15.7	1.05e-02	0	44	0	87031808	72	4184
2026-01-16 05:12:49.90	36.47	5.34	-55.4	-62.2	5.3	2.18e-01	0	44	0	92274688	81	8351
2026-01-16 05:12:50.91	36.40	5.40	-51.6	-53.6	13.9	8.61e-03	0	44	0	96468992	75	4348
2026-01-16 05:12:51.92	36.34	5.47	-50.8	-52.5	15.0	0.00e+00	0	44	0	101711872	73	4313
2026-01-16 05:12:52.93	36.28	5.54	-51.7	-53.7	13.8	0.00e+00	0	44	0	106954752	74	4688
2026-01-16 05:12:53.94	36.22	5.61	-50.9	-52.7	14.9	0.00e+00	0	44	0	113246208	73	4402
2026-01-16 05:12:54.94	36.16	5.67	-51.0	-52.8	14.7	0.00e+00	0	44	0	118489088	73	4463
2026-01-16 05:12:55.95	36.09	5.74	-50.3	-51.9	15.7	0.00e+00	0	44	0	123731968	72	4273
2026-01-16 05:12:56.96	36.03	5.81	-49.2	-50.5	17.2	0.00e+00	0	45	0	130023424	70	4053
2026-01-16 05:12:57.97	35.97	5.88	-50.0	-51.4	16.3	0.00e+00	0	45	0	136314880	70	4539
2026-01-16 05:12:58.98	35.90	5.94	-49.6	-51.0	16.7	0.00e+00	0	45	0	141557760	70	4329
2026-01-16 05:12:59.99	35.84	6.01	-49.6	-51.0	16.8	0.00e+00	0	45	0	146800640	70	4322
2026-01-16 05:13:01.00	35.77	6.08	-49.5	-50.9	16.9	0.00e+00	0	45	0	153092096	70	4254
2026-01-16 05:13:02.01	35.71	6.15	-48.9	-50.2	17.6	0.00e+00	0	45	0	158334976	69	4161
2026-01-16 05:13:03.02	35.64	6.22	-49.4	-50.7	17.1	0.00e+00	0	44	0	164626432	69	4431
2026-01-16 05:13:04.03	35.58	6.29	-49.6	-51.0	16.8	0.00e+00	0	45	0	169869312	69	4589
2026-01-16 05:13:05.04	35.51	6.36	-49.4	-50.7	17.1	0.00e+00	0	45	0	175112192	70	4171
2026-01-16 05:13:06.05	35.45	6.43	-49.3	-50.6	17.1	0.00e+00	0	45	0	181403648	70	4145
2026-01-16 05:13:07.06	35.38	6.49	-49.5	-50.8	17.0	0.00e+00	0	45	0	186646528	70	4241
2026-01-16 05:13:08.08	35.31	6.56	-48.7	-49.9	17.9	0.00e+00	0	45	0	192937984	69	4013
2026-01-16 05:13:09.09	35.25	6.63	-48.6	-49.8	18.0	0.00e+00	0	45	0	198180864	68	4202
2026-01-16 05:13:10.10	35.18	6.70	-48.6	-49.8	18.0	0.00e+00	0	45	0	204472320	68	4235
2026-01-16 05:13:11.11	35.11	6.77	-48.6	-49.7	18.1	0.00e+00	0	45	0	209715200	68	4191
2026-01-16 05:13:12.12	35.04	6.84	-48.2	-49.3	18.6	0.00e+00	0	45	0	214958080	68	3980
2026-01-16 05:13:13.13	34.97	6.91	-48.3	-49.4	18.4	0.00e+00	0	45	0	221249536	68	4050
2026-01-16 05:13:14.14	34.90	6.98	-47.7	-48.7	19.1	0.00e+00	0	45	0	226492416	67	3958
2026-01-16 05:13:15.15	34.84	7.05	-48.1	-49.2	18.6	0.00e+00	0	45	0	231735296	67	4184
2026-01-16 05:13:16.16	34.77	7.13	-47.8	-48.9	19.0	0.00e+00	0	45	0	238026752	67	4011
2026-01-16 05:13:17.17	34.70	7.20	-48.0	-49.2	18.7	0.00e+00	0	45	0	244318208	67	4150
2026-01-16 05:13:18.18	34.63	7.27	-47.9	-49.0	18.9	0.00e+00	0	45	0	249561088	67	4055
2026-01-16 05:13:19.19	34.56	7.34	-48.0	-49.1	18.7	0.00e+00	0	45	0	254803968	67	4117
2026-01-16 05:13:20.20	34.48	7.41	-48.2	-49.3	18.6	0.00e+00	0	45	0	261095424	67	4212
2026-01-16 05:13:21.21	34.41	7.48	-48.0	-49.1	18.8	0.00e+00	0	45	0	266338304	67	4121
2026-01-16 05:13:22.22	34.34	7.55	-47.9	-49.0	18.9	0.00e+00	0	45	0	272629760	67	4059
2026-01-16 05:13:23.23	34.27	7.62	-47.8	-48.9	18.9	0.00e+00	0	45	0	277872640	67	4046
2026-01-16 05:13:24.24	34.20	7.70	-47.9	-49.0	18.9	0.00e+00	0	45	0	283115520	67	4068
2026-01-16 05:13:25.25	34.12	7.77	-47.7	-48.7	19.1	0.00e+00	0	45	0	289406976	67	3958
2026-01-16 05:13:26.26	34.05	7.84	-47.8	-48.9	19.0	0.00e+00	0	45	0	294649856	67	4014
2026-01-16 05:13:27.27	33.98	7.91	-48.0	-49.1	18.8	0.00e+00	0	45	0	300941312	67	4115
2026-01-16 05:13:28.28	33.90	7.98	-48.0	-49.1	18.8	0.00e+00	0	45	0	306184192	67	4128
2026-01-16 05:13:29.29	33.83	8.06	-47.8	-48.9	19.0	0.00e+00	0	45	0	312475648	67	4008
2026-01-16 05:13:30.30	33.75	8.13	-48.0	-49.1	18.9	0.00e+00	0	45	0	317718528	67	4104
2026-01-16 05:13:31.30	33.68	8.20	-47.6	-48.6	19.3	0.00e+00	0	45	0	322961408	67	3887
2026-01-16 05:13:32.32	33.60	8.28	-47.6	-48.6	19.3	0.00e+00	0	46	0	329252864	66	4114
2026-01-16 05:13:33.33	33.53	8.35	-47.6	-48.6	19.3	0.00e+00	0	45	0	334495744	66	4145
2026-01-16 05:13:34.34	33.45	8.42	-47.5	-48.6	19.4	0.00e+00	0	45	0	339738624	66	4099
2026-01-16 05:13:35.35	33.37	8.50	-47.5	-48.6	19.4	0.00e+00	0	46	0	346030080	66	4109
2026-01-16 05:13:36.36	33.30	8.57	-47.4	-48.4	19.5	0.00e+00	0	46	0	351272960	66	4044
2026-01-16 05:13:37.37	33.22	8.64	-47.4	-48.4	19.5	0.00e+00	0	45	0	357564416	66	4042
2026-01-16 05:13:38.37	33.14	8.72	-47.4	-48.4	19.5	0.00e+00	0	46	0	362807296	66	4046
2026-01-16 05:13:39.39	33.06	8.79	-47.7	-48.7	19.3	0.00e+00	0	46	0	369098752	66	4164
2026-01-16 05:13:40.40	32.98	8.87	-47.5	-48.6	19.4	0.00e+00	0	46	0	374341632	66	4105
2026-01-16 05:13:41.41	32.90	8.94	-47.3	-48.3	19.7	0.00e+00	0	46	0	380633088	66	3996
2026-01-16 05:13:42.42	32.82	9.02	-47.2	-48.2	19.8	0.00e+00	0	46	0	385875968	66	3916
2026-01-16 05:13:43.43	32.74	9.09	-47.1	-48.1	19.9	0.00e+00	0	46	0	391118848	66	3890
2026-01-16 05:13:44.44	32.66	9.17	-47.0	-48.0	20.0	0.00e+00	0	46	0	397410304	66	3832
2026-01-16 05:13:45.45	32.58	9.24	-47.1	-48.1	19.9	0.00e+00	0	46	0	402653184	65	4110
2026-01-16 05:13:46.46	32.50	9.32	-47.1	-48.0	20.0	0.00e+00	0	46	0	407896064	65	4088
2026-01-16 05:13:47.47	32.42	9.39	-47.1	-48.1	20.0	0.00e+00	0	46	0	414187520	65	4107
2026-01-16 05:13:48.48	32.34	9.47	-47.1	-48.1	19.9	0.00e+00	0	46	0	420478976	65	4115
2026-01-16 05:13:49.49	32.25	9.54	-47.3	-48.3	19.7	0.00e+00	0	46	0	425721856	65	4232
2026-01-16 05:13:50.50	32.17	9.62	-47.1	-48.0	20.0	0.00e+00	0	46	0	430964736	65	4097
2026-01-16 05:13:51.51	32.09	9.70	-47.0	-48.0	20.1	0.00e+00	0	46	0	437256192	65	4060
2026-01-16 05:13:52.52	32.00	9.77	-47.1	-48.1	19.9	0.00e+00	0	46	0	442499072	65	4130
2026-01-16 05:13:53.53	31.92	9.85	-47.0	-48.0	20.0	0.00e+00	0	46	0	447741952	65	4085
2026-01-16 05:13:54.54	31.83	9.93	-47.0	-47.9	20.2	0.00e+00	0	46	0	454033408	65	4036
2026-01-16 05:13:55.55	31.75	10.00	-46.8	-47.8	20.3	0.00e+00	0	46	0	459276288	65	3963
2026-01-16 05:13:56.56	31.66	10.08	-47.1	-48.0	20.0	0.00e+00	0	46	0	465567744	65	4086
2026-01-16 05:13:57.57	31.57	10.16	-47.1	-48.1	20.0	0.00e+00	0	46	0	470810624	65	4100
2026-01-16 05:13:58.58	31.49	10.23	-47.0	-48.0	20.1	0.00e+00	0	46	0	477102080	65	4061
2026-01-16 05:13:59.58	31.40	10.31	-47.2	-48.1	19.9	0.00e+00	0	46	0	482344960	65	4139
2026-01-16 05:14:00.60	31.31	10.39	-46.8	-47.7	20.4	0.00e+00	0	46	0	488636416	65	3941
2026-01-16 05:14:01.61	31.22	10.47	-46.9	-47.8	20.3	0.00e+00	0	46	0	493879296	65	3987
2026-01-16 05:14:02.61	31.14	10.55	-46.9	-47.8	20.3	0.00e+00	0	46	0	499122176	65	3994
2026-01-16 05:14:03.63	31.05	10.63	-46.8	-47.7	20.3	0.00e+00	0	46	0	505413632	65	3950
2026-01-16 05:14:04.64	30.96	10.70	-46.7	-47.6	20.5	0.00e+00	0	46	0	510656512	65	3896
2026-01-16 05:14:05.65	30.87	10.78	-46.6	-47.5	20.6	0.00e+00	0	46	0	515899392	65	3843
2026-01-16 05:14:06.66	30.77	10.86	-46.8	-47.7	20.4	0.00e+00	0	46	0	522190848	65	3937
2026-01-16 05:14:07.67	30.68	10.94	-46.6	-47.5	20.5	0.00e+00	0	46	0	528482304	65	3857
2026-01-16 05:14:08.68	30.59	11.02	-46.7	-47.7	20.4	0.00e+00	0	46	0	533725184	65	3926
2026-01-16 05:14:09.69	30.50	11.10	-46.7	-47.7	20.4	0.00e+00	0	46	0	538968064	65	3917
2026-01-16 05:14:10.70	30.41	11.18	-46.7	-47.6	20.5	0.00e+00	0	46	0	545259520	65	3905
2026-01-16 05:14:11.71	30.31	11.26	-46.8	-47.7	20.4	0.00e+00	0	46	0	550502400	65	3938
2026-01-16 05:14:12.72	30.22	11.34	-46.7	-47.6	20.5	0.00e+00	0	46	0	555745280	65	3910
2026-01-16 05:14:13.73	30.12	11.42	-46.9	-47.8	20.3	0.00e+00	0	47	0	562036736	65	3999
2026-01-16 05:14:14.74	30.03	11.50	-46.8	-47.7	20.4	0.00e+00	0	46	0	567279616	65	3956
2026-01-16 05:14:15.75	29.93	11.58	-46.7	-47.7	20.5	0.00e+00	0	47	0	573571072	65	3917
2026-01-16 05:14:16.76	29.84	11.66	-46.9	-47.8	20.4	0.00e+00	0	46	0	578813952	65	3981
2026-01-16 05:14:17.77	29.74	11.74	-46.9	-47.9	20.3	0.00e+00	0	47	0	585105408	65	4006
2026-01-16 05:14:18.78	29.64	11.82	-47.0	-48.0	20.2	0.00e+00	0	46	0	590348288	65	4068
2026-01-16 05:14:19.79	29.54	11.90	-46.8	-47.8	20.4	0.00e+00	0	46	0	596639744	65	3978
2026-01-16 05:14:20.80	29.45	11.99	-46.8	-47.8	20.4	0.00e+00	0	46	0	601882624	65	3964
2026-01-16 05:14:21.81	29.35	12.07	-46.7	-47.6	20.5	0.00e+00	0	47	0	607125504	65	3906
2026-01-16 05:14:22.82	29.25	12.15	-46.5	-47.4	20.8	0.00e+00	0	47	0	613416960	64	4022
2026-01-16 05:14:23.83	29.15	12.23	-46.6	-47.5	20.6	0.00e+00	0	47	0	618659840	64	4085
2026-01-16 05:14:24.84	29.05	12.31	-46.5	-47.4	20.7	0.00e+00	0	47	0	623902720	64	4040
2026-01-16 05:14:25.85	28.94	12.40	-46.5	-47.4	20.7	0.00e+00	0	47	0	630194176	64	4037
2026-01-16 05:14:26.86	28.84	12.48	-46.4	-47.3	20.8	0.00e+00	0	47	0	635437056	64	3996
2026-01-16 05:14:27.87	28.74	12.56	-46.5	-47.4	20.8	0.00e+00	0	47	0	641728512	64	4027
2026-01-16 05:14:28.88	28.64	12.64	-46.5	-47.4	20.8	0.00e+00	0	47	0	646971392	64	4034
2026-01-16 05:14:29.89	28.53	12.73	-46.6	-47.5	20.7	0.00e+00	0	47	0	653262848	64	4069
2026-01-16 05:14:30.89	28.43	12.81	-46.4	-47.3	20.9	0.00e+00	0	47	0	658505728	64	3999
2026-01-16 05:14:31.91	28.32	12.89	-46.4	-47.3	20.9	0.00e+00	0	47	0	663748608	64	3997
2026-01-16 05:14:32.91	28.22	12.98	-46.5	-47.5	20.7	0.00e+00	0	47	0	670040064	64	4056
2026-01-16 05:14:33.93	28.11	13.06	-46.3	-47.2	21.0	0.00e+00	0	47	0	675282944	64	3941
2026-01-16 05:14:34.93	28.01	13.15	-46.3	-47.2	21.0	0.00e+00	0	47	0	681574400	64	3933
2026-01-16 05:14:35.94	27.90	13.23	-46.3	-47.2	21.0	0.00e+00	0	47	0	686817280	64	3928
2026-01-16 05:14:36.95	27.79	13.31	-46.2	-47.1	21.2	0.00e+00	0	47	0	692060160	64	3873
2026-01-16 05:14:37.96	27.68	13.40	-46.1	-47.0	21.2	0.00e+00	0	47	0	698351616	64	3833
2026-01-16 05:14:38.97	27.57	13.48	-46.2	-47.1	21.1	0.00e+00	0	47	0	704643072	64	3888
2026-01-16 05:14:39.98	27.46	13.57	-46.1	-47.0	21.2	0.00e+00	0	47	0	709885952	64	3845
2026-01-16 05:14:40.99	27.35	13.65	-46.0	-46.9	21.4	0.00e+00	0	47	0	715128832	63	4022
2026-01-16 05:14:42.00	27.24	13.74	-46.1	-47.0	21.3	0.00e+00	0	47	0	721420288	63	4074
2026-01-16 05:14:43.01	27.13	13.83	-46.1	-47.0	21.3	0.00e+00	0	47	0	726663168	63	4070
2026-01-16 05:14:44.02	27.02	13.91	-46.2	-47.1	21.2	0.00e+00	0	47	0	731906048	63	4113
2026-01-16 05:14:45.04	26.90	14.00	-46.1	-46.9	21.3	0.00e+00	0	47	0	738197504	63	4050
2026-01-16 05:14:46.05	26.79	14.08	-46.1	-47.0	21.3	0.00e+00	0	47	0	743440384	63	4080
2026-01-16 05:14:47.05	26.67	14.17	-46.1	-47.0	21.3	0.00e+00	0	47	0	748683264	63	4060
2026-01-16 05:14:48.06	26.56	14.26	-46.2	-47.0	21.2	0.00e+00	0	47	0	754974720	63	4093
2026-01-16 05:14:49.07	26.44	14.34	-46.0	-46.8	21.5	0.00e+00	0	47	0	761266176	63	3991
2026-01-16 05:14:50.08	26.33	14.43	-46.0	-46.8	21.5	0.00e+00	0	47	0	766509056	63	3986
2026-01-16 05:14:51.09	26.21	14.52	-46.1	-46.9	21.4	0.00e+00	0	47	0	771751936	63	4046
2026-01-16 05:14:52.10	26.09	14.60	-46.1	-46.9	21.4	0.00e+00	0	47	0	778043392	63	4035
2026-01-16 05:14:53.11	25.97	14.69	-46.3	-47.1	21.2	0.00e+00	0	47	0	783286272	63	4137
2026-01-16 05:14:54.12	25.85	14.78	-46.4	-47.3	21.1	0.00e+00	0	47	0	789577728	63	4209
2026-01-16 05:14:55.13	25.73	14.87	-46.2	-47.1	21.3	0.00e+00	0	47	0	794820608	63	4104
2026-01-16 05:14:56.14	25.61	14.96	-46.1	-47.0	21.4	0.00e+00	0	47	0	800063488	63	4065
2026-01-16 05:14:57.15	25.49	15.04	-46.2	-47.0	21.3	0.00e+00	0	47	0	806354944	63	4097
2026-01-16 05:14:58.16	25.37	15.13	-45.9	-46.8	21.5	0.00e+00	0	47	0	811597824	63	3984
2026-01-16 05:14:59.17	25.24	15.22	-45.8	-46.7	21.7	0.00e+00	0	47	0	817889280	63	3916
2026-01-16 05:15:00.18	25.12	15.31	-45.6	-46.5	21.9	0.00e+00	0	47	0	823132160	63	3825
2026-01-16 05:15:01.19	24.99	15.40	-45.7	-46.5	21.8	0.00e+00	0	47	0	829423616	63	3851
2026-01-16 05:15:02.21	24.87	15.49	-45.6	-46.4	21.9	0.00e+00	0	47	0	834666496	63	3824
2026-01-16 05:15:03.22	24.74	15.58	-45.7	-46.5	21.8	0.00e+00	0	47	0	839909376	63	3852
2026-01-16 05:15:04.23	24.61	15.67	-45.7	-46.5	21.8	0.00e+00	0	47	0	846200832	63	3858
2026-01-16 05:15:05.24	24.48	15.76	-45.7	-46.6	21.8	0.00e+00	0	47	0	851443712	63	3886
2026-01-16 05:15:06.25	24.36	15.85	-45.8	-46.6	21.7	0.00e+00	0	47	0	856686592	63	3903
2026-01-16 05:15:07.26	24.23	15.94	-45.7	-46.6	21.8	0.00e+00	0	47	0	862978048	63	3877
2026-01-16 05:15:08.27	24.10	16.03	-45.5	-46.3	22.0	0.00e+00	0	47	0	869269504	63	3780
2026-01-16 05:15:09.28	23.96	16.12	-45.6	-46.4	22.0	0.00e+00	0	47	0	874512384	63	3803
2026-01-16 05:15:10.29	23.83	16.21	-45.6	-46.4	21.9	0.00e+00	0	47	0	879755264	63	3816
2026-01-16 05:15:11.30	23.70	16.30	-45.6	-46.4	22.0	0.00e+00	0	47	0	886046720	63	3797
2026-01-16 05:15:12.31	23.57	16.39	-45.5	-46.3	22.0	0.00e+00	0	47	0	891289600	62	3991
2026-01-16 05:15:13.32	23.43	16.48	-45.3	-46.1	22.2	0.00e+00	0	48	0	897581056	62	3896
2026-01-16 05:15:14.33	23.30	16.57	-45.2	-46.0	22.3	0.00e+00	0	47	0	902823936	62	3865
2026-01-16 05:15:15.34	23.16	16.67	-45.2	-46.0	22.4	0.00e+00	0	48	0	908066816	62	3832
2026-01-16 05:15:16.35	23.02	16.76	-45.2	-46.0	22.4	0.00e+00	0	47	0	914358272	62	3833
2026-01-16 05:15:17.36	22.88	16.85	-45.1	-45.9	22.5	0.00e+00	0	47	0	919601152	62	3792
2026-01-16 05:15:18.37	22.75	16.94	-45.2	-46.0	22.4	0.00e+00	0	48	0	925892608	62	3847
2026-01-16 05:15:19.38	22.61	17.03	-45.3	-46.1	22.3	0.00e+00	0	48	0	931135488	62	3873
2026-01-16 05:15:20.39	22.47	17.13	-45.4	-46.2	22.2	0.00e+00	0	48	0	937426944	62	3936
2026-01-16 05:15:21.40	22.32	17.22	-45.4	-46.2	22.2	0.00e+00	0	47	0	942669824	62	3935
2026-01-16 05:15:22.41	22.18	17.31	-45.5	-46.3	22.1	0.00e+00	0	48	0	947912704	62	3978
2026-01-16 05:15:23.42	22.04	17.41	-45.4	-46.3	22.1	0.00e+00	0	48	0	954204160	62	3962
2026-01-16 05:15:24.43	21.89	17.50	-45.3	-46.1	22.3	0.00e+00	0	48	0	959447040	62	3888
2026-01-16 05:15:25.44	21.75	17.59	-45.2	-46.0	22.4	0.00e+00	0	47	0	964689920	62	3851
2026-01-16 05:15:26.45	21.60	17.68	-45.1	-45.9	22.5	0.00e+00	0	48	0	970981376	62	3804
2026-01-16 05:15:27.46	21.46	17.78	-45.1	-45.9	22.4	0.00e+00	0	48	0	976224256	62	3823
2026-01-16 05:15:28.47	21.31	17.87	-44.9	-45.7	22.7	0.00e+00	0	48	0	982515712	61	3937
2026-01-16 05:15:29.48	21.16	17.97	-44.9	-45.7	22.7	0.00e+00	0	48	0	987758592	61	3941
2026-01-16 05:15:30.49	21.01	18.06	-44.9	-45.7	22.7	0.00e+00	0	48	0	994050048	61	3935
2026-01-16 05:15:31.50	20.86	18.15	-44.8	-45.6	22.8	0.00e+00	0	48	0	999292928	61	3879
2026-01-16 05:15:32.51	20.71	18.25	-44.8	-45.6	22.8	0.00e+00	0	48	0	1005584384	61	3900
2026-01-16 05:15:33.52	20.56	18.34	-44.8	-45.6	22.8	0.00e+00	0	48	0	1010827264	61	3871
2026-01-16 05:15:34.53	20.40	18.44	-44.8	-45.6	22.8	0.00e+00	0	48	0	1016070144	61	3902
2026-01-16 05:15:35.54	20.25	18.53	-44.8	-45.6	22.8	0.00e+00	0	48	0	1022361600	61	3886
2026-01-16 05:15:36.55	20.09	18.63	-44.8	-45.5	22.8	0.00e+00	0	48	0	1027604480	61	3867
2026-01-16 05:15:37.56	19.94	18.72	-44.8	-45.6	22.8	0.00e+00	0	48	0	1032847360	61	3877
2026-01-16 05:15:38.57	19.78	18.82	-44.9	-45.7	22.7	0.00e+00	0	48	0	1039138816	61	3923
2026-01-16 05:15:39.58	19.62	18.91	-44.9	-45.7	22.7	0.00e+00	0	48	0	1045430272	61	3941
2026-01-16 05:15:40.59	19.46	19.01	-45.1	-45.9	22.5	0.00e+00	0	48	0	1050673152	61	4032
2026-01-16 05:15:41.60	19.30	19.10	-44.9	-45.7	22.7	0.00e+00	0	48	0	1055916032	61	3956
2026-01-16 05:15:42.61	19.14	19.20	-44.9	-45.8	22.7	0.00e+00	0	48	0	1062207488	61	3959
2026-01-16 05:15:43.62	18.98	19.30	-44.8	-45.6	22.8	0.00e+00	0	48	0	1067450368	61	3890
2026-01-16 05:15:44.63	18.81	19.39	-44.6	-45.4	23.1	0.00e+00	0	48	0	1072693248	61	3784
2026-01-16 05:15:45.64	18.65	19.49	-44.5	-45.3	23.1	0.00e+00	0	48	0	1078984704	61	3759
2026-01-16 05:15:46.65	18.48	19.58	-44.6	-45.4	23.0	0.00e+00	0	48	0	1084227584	61	3800
2026-01-16 05:15:47.66	18.31	19.68	-44.3	-45.1	23.3	0.00e+00	0	48	0	1090519040	60	3889
2026-01-16 05:15:48.67	18.15	19.78	-44.3	-45.1	23.3	0.00e+00	0	48	0	1095761920	60	3872
2026-01-16 05:15:49.68	17.98	19.87	-44.4	-45.1	23.3	0.00e+00	0	48	0	1102053376	60	3906
2026-01-16 05:15:50.69	17.81	19.97	-44.4	-45.2	23.2	0.00e+00	0	48	0	1107296256	60	3915
2026-01-16 05:15:51.70	17.64	20.07	-44.4	-45.2	23.2	0.00e+00	0	48	0	1113587712	60	3941
2026-01-16 05:15:52.71	17.46	20.16	-44.5	-45.2	23.2	0.00e+00	0	48	0	1118830592	60	3950
2026-01-16 05:15:53.72	17.29	20.26	-44.5	-45.3	23.1	0.00e+00	0	48	0	1124073472	60	3979
2026-01-16 05:15:54.73	17.12	20.36	-44.6	-45.4	23.0	0.00e+00	0	48	0	1130364928	60	4035
2026-01-16 05:15:55.74	16.94	20.46	-44.6	-45.4	23.0	0.00e+00	0	48	0	1135607808	60	4030
2026-01-16 05:15:56.75	16.76	20.55	-44.7	-45.5	23.0	0.00e+00	0	48	0	1140850688	60	4053
2026-01-16 05:15:57.76	16.59	20.65	-44.6	-45.4	23.1	0.00e+00	0	48	0	1147142144	60	4017
2026-01-16 05:15:58.77	16.41	20.75	-44.6	-45.3	23.1	0.00e+00	0	48	0	1153433600	60	4002
2026-01-16 05:15:59.78	16.23	20.85	-44.5	-45.3	23.1	0.00e+00	0	48	0	1158676480	60	3977
2026-01-16 05:16:00.79	16.04	20.94	-44.6	-45.4	23.1	0.00e+00	0	48	0	1163919360	60	4018
2026-01-16 05:16:01.80	15.86	21.04	-44.5	-45.3	23.1	0.00e+00	0	48	0	1170210816	60	3984
2026-01-16 05:16:02.81	15.68	21.14	-44.4	-45.2	23.3	0.00e+00	0	48	0	1175453696	60	3922
2026-01-16 05:16:03.82	15.49	21.24	-44.3	-45.1	23.3	0.00e+00	0	48	0	1180696576	60	3883
2026-01-16 05:16:04.83	15.31	21.33	-44.4	-45.1	23.3	0.00e+00	0	48	0	1186988032	60	3901
2026-01-16 05:16:05.84	15.12	21.43	-44.3	-45.0	23.4	0.00e+00	0	48	0	1192230912	60	3858
2026-01-16 05:16:06.85	14.93	21.53	-44.3	-45.0	23.4	0.00e+00	0	48	0	1198522368	60	3863
2026-01-16 05:16:07.87	14.74	21.63	-44.2	-44.9	23.5	0.00e+00	0	48	0	1203765248	60	3816
2026-01-16 05:16:08.87	14.55	21.73	-44.2	-45.0	23.5	0.00e+00	0	48	0	1210056704	60	3837
2026-01-16 05:16:09.89	14.36	21.83	-44.2	-44.9	23.5	0.00e+00	0	48	0	1215299584	60	3824
2026-01-16 05:16:10.90	14.16	21.92	-44.3	-45.0	23.4	0.00e+00	0	48	0	1221591040	60	3865
2026-01-16 05:16:11.91	13.97	22.02	-44.3	-45.0	23.4	0.00e+00	0	48	0	1226833920	60	3866
2026-01-16 05:16:12.92	13.77	22.12	-44.4	-45.2	23.3	0.00e+00	0	48	0	1232076800	60	3927
2026-01-16 05:16:13.93	13.57	22.22	-44.5	-45.3	23.2	0.00e+00	0	48	0	1238368256	60	3970
2026-01-16 05:16:14.94	13.38	22.32	-44.4	-45.2	23.3	0.00e+00	0	48	0	1243611136	60	3927
2026-01-16 05:16:15.95	13.18	22.41	-44.4	-45.2	23.3	0.00e+00	0	48	0	1248854016	60	3930
2026-01-16 05:16:16.96	12.98	22.51	-44.3	-45.0	23.5	0.00e+00	0	48	0	1255145472	60	3861
2026-01-16 05:16:17.97	12.77	22.61	-44.1	-44.8	23.6	0.00e+00	0	48	0	1261436928	60	3761
2026-01-16 05:16:18.98	12.57	22.71	-44.3	-45.1	23.5	0.00e+00	0	48	0	1266679808	59	4126
2026-01-16 05:16:19.99	12.36	22.81	-44.4	-45.1	23.5	0.00e+00	0	48	0	1271922688	59	4145
2026-01-16 05:16:21.00	12.16	22.91	-44.5	-45.3	23.4	0.00e+00	0	48	0	1278214144	59	4210
2026-01-16 05:16:22.01	11.95	23.00	-44.6	-45.4	23.3	0.00e+00	0	48	0	1283457024	59	4243
2026-01-16 05:16:23.02	11.74	23.10	-44.5	-45.3	23.4	0.00e+00	0	48	0	1288699904	59	4202
2026-01-16 05:16:24.03	11.53	23.20	-44.5	-45.3	23.4	0.00e+00	0	48	0	1294991360	59	4227
2026-01-16 05:16:25.04	11.32	23.30	-44.6	-45.4	23.3	0.00e+00	0	48	0	1300234240	59	4259
2026-01-16 05:16:26.05	11.11	23.40	-44.6	-45.3	23.3	0.00e+00	0	48	0	1306525696	59	4237
2026-01-16 05:16:27.06	10.89	23.49	-44.5	-45.2	23.4	0.00e+00	0	48	0	1311768576	59	4183
2026-01-16 05:16:28.07	10.68	23.59	-44.5	-45.2	23.4	0.00e+00	0	48	0	1318060032	59	4189
2026-01-16 05:16:29.08	10.46	23.69	-44.4	-45.1	23.5	0.00e+00	0	48	0	1323302912	59	4145
2026-01-16 05:16:30.09	10.24	23.79	-44.1	-44.9	23.7	0.00e+00	0	48	0	1329594368	59	4035
2026-01-16 05:16:31.10	10.02	23.88	-44.1	-44.8	23.8	0.00e+00	0	48	0	1334837248	59	3999
2026-01-16 05:16:32.11	9.80	23.98	-44.0	-44.8	23.9	0.00e+00	0	48	0	1340080128	59	3959
2026-01-16 05:16:33.12	9.58	24.08	-43.9	-44.6	24.0	0.00e+00	0	48	0	1346371584	59	3903
2026-01-16 05:16:34.13	9.35	24.18	-44.0	-44.7	23.9	0.00e+00	0	48	0	1351614464	59	3934
2026-01-16 05:16:35.14	9.13	24.27	-44.0	-44.7	23.9	0.00e+00	0	48	0	1356857344	59	3934
2026-01-16 05:16:36.15	8.90	24.37	-44.0	-44.7	23.9	0.00e+00	0	48	0	1363148800	59	3953
2026-01-16 05:16:37.16	8.67	24.47	-44.0	-44.7	23.9	0.00e+00	0	48	0	1368391680	59	3955
2026-01-16 05:16:38.17	8.44	24.56	-44.0	-44.7	23.9	0.00e+00	0	48	0	1374683136	59	3937
2026-01-16 05:16:39.18	8.21	24.66	-44.0	-44.8	23.9	0.00e+00	0	48	0	1379926016	59	3975
2026-01-16 05:16:40.19	7.98	24.76	-44.0	-44.7	24.0	0.00e+00	0	48	0	1386217472	59	3942
2026-01-16 05:16:41.20	7.74	24.85	-43.9	-44.6	24.0	0.00e+00	0	48	0	1391460352	59	3900
2026-01-16 05:16:42.21	7.51	24.95	-43.9	-44.7	24.0	0.00e+00	0	48	0	1396703232	59	3924
2026-01-16 05:16:43.22	7.27	25.04	-43.9	-44.6	24.0	0.00e+00	0	48	0	1402994688	59	3896
2026-01-16 05:16:44.23	7.03	25.14	-43.9	-44.7	24.0	0.00e+00	0	48	0	1408237568	59	3918
2026-01-16 05:16:45.24	6.79	25.24	-43.9	-44.7	24.0	0.00e+00	0	48	0	1414529024	59	3934
2026-01-16 05:16:46.25	6.55	25.33	-43.8	-44.6	24.1	0.00e+00	0	48	0	1419771904	59	3884
2026-01-16 05:16:47.26	6.31	25.43	-43.9	-44.6	24.0	0.00e+00	0	48	0	1425014784	59	3905
2026-01-16 05:16:48.27	6.07	25.52	-43.9	-44.6	24.1	0.00e+00	0	48	0	1431306240	59	3887
2026-01-16 05:16:49.29	5.82	25.62	-43.7	-44.5	24.2	0.00e+00	0	48	0	1437597696	59	3841
2026-01-16 05:16:50.29	5.57	25.71	-43.8	-44.5	24.1	0.00e+00	0	49	0	1442840576	59	3855
2026-01-16 05:16:51.30	5.32	25.80	-43.8	-44.6	24.1	0.00e+00	0	48	0	1448083456	59	3871
2026-01-16 05:16:52.32	5.07	25.90	-43.7	-44.4	24.3	0.00e+00	0	49	0	1454374912	59	3804
2026-01-16 05:16:53.33	4.82	25.99	-43.7	-44.4	24.2	0.00e+00	0	48	0	1459617792	59	3816
2026-01-16 05:16:54.34	4.57	26.08	-43.7	-44.4	24.2	0.00e+00	0	48	0	1464860672	59	3815
2026-01-16 05:16:55.35	4.31	26.18	-43.7	-44.5	24.2	0.00e+00	0	49	0	1471152128	59	3841
2026-01-16 05:16:56.36	4.06	26.27	-43.8	-44.5	24.1	0.00e+00	0	48	0	1476395008	59	3851
2026-01-16 05:16:57.37	3.80	26.36	-43.8	-44.5	24.1	0.00e+00	0	48	0	1481637888	59	3860
2026-01-16 05:16:58.37	3.54	26.45	-43.8	-44.6	24.1	0.00e+00	0	48	0	1487929344	59	3885
2026-01-16 05:16:59.38	3.28	26.54	-43.7	-44.5	24.2	0.00e+00	0	48	0	1494220800	59	3840
2026-01-16 05:17:00.39	3.02	26.64	-43.8	-44.5	24.2	0.00e+00	0	49	0	1499463680	59	3846
2026-01-16 05:17:01.40	2.75	26.73	-43.8	-44.6	24.1	0.00e+00	0	49	0	1504706560	59	3886
2026-01-16 05:17:02.41	2.49	26.82	-43.6	-44.4	24.3	0.00e+00	0	48	0	1510998016	59	3782
2026-01-16 05:17:03.42	2.22	26.91	-43.6	-44.3	24.4	0.00e+00	0	48	0	1516240896	59	3756
2026-01-16 05:17:04.43	1.95	27.00	-43.6	-44.4	24.3	0.00e+00	0	49	0	1522532352	59	3796
2026-01-16 05:17:05.44	1.68	27.09	-43.7	-44.5	24.2	0.00e+00	0	48	0	1527775232	59	3829
2026-01-16 05:17:06.45	1.41	27.18	-43.5	-44.3	24.4	0.00e+00	0	48	0	1533018112	59	3745
2026-01-16 05:17:07.46	1.14	27.26	-43.6	-44.3	24.3	0.00e+00	0	48	0	1539309568	59	3780
2026-01-16 05:17:08.47	0.86	27.35	-43.8	-44.5	24.2	0.00e+00	0	49	0	1545601024	59	3850
2026-01-16 05:17:09.49	0.58	27.44	-43.8	-44.5	24.2	0.00e+00	0	48	0	1550843904	59	3863
2026-01-16 05:17:10.49	0.31	27.53	-43.9	-44.7	24.0	0.00e+00	0	48	0	1556086784	59	3931
2026-01-16 05:17:11.50	0.03	27.61	-43.7	-44.4	24.3	0.00e+00	0	48	0	1562378240	59	3823
2026-01-16 05:17:12.51	359.75	27.70	-43.6	-44.4	24.3	0.00e+00	0	49	0	1567621120	59	3788
2026-01-16 05:17:13.52	359.47	27.78	-43.5	-44.3	24.4	0.00e+00	0	49	0	1572864000	59	3743
2026-01-16 05:17:14.53	359.18	27.87	-43.4	-44.1	24.6	0.00e+00	0	48	0	1579155456	58	3895
2026-01-16 05:17:15.54	358.90	27.95	-43.5	-44.2	24.5	0.00e+00	0	48	0	1584398336	58	3932
2026-01-16 05:17:16.55	358.61	28.04	-43.4	-44.1	24.6	0.00e+00	0	49	0	1589641216	58	3897
2026-01-16 05:17:17.56	358.32	28.12	-43.4	-44.2	24.5	0.00e+00	0	48	0	1595932672	58	3920
2026-01-16 05:17:18.57	358.03	28.20	-43.4	-44.2	24.5	0.00e+00	0	49	0	1602224128	58	3925
2026-01-16 05:17:19.58	357.74	28.29	-43.3	-44.0	24.6	0.00e+00	0	48	0	1607467008	58	3860
2026-01-16 05:17:20.60	357.45	28.37	-43.3	-44.0	24.7	0.00e+00	0	48	0	1612709888	58	3854
2026-01-16 05:17:21.61	357.15	28.45	-43.4	-44.2	24.5	0.00e+00	0	48	0	1619001344	58	3914
2026-01-16 05:17:22.61	356.86	28.53	-43.5	-44.3	24.4	0.00e+00	0	49	0	1624244224	58	3972
2026-01-16 05:17:23.62	356.56	28.61	-43.5	-44.2	24.5	0.00e+00	0	48	0	1630535680	58	3934
2026-01-16 05:17:24.63	356.26	28.69	-43.4	-44.2	24.5	0.00e+00	0	48	0	1635778560	58	3925
2026-01-16 05:17:25.64	355.96	28.77	-43.3	-44.0	24.7	0.00e+00	0	49	0	1641021440	58	3845
2026-01-16 05:17:26.65	355.66	28.85	-43.3	-44.1	24.6	0.00e+00	0	48	0	1647312896	58	3873
2026-01-16 05:17:27.66	355.36	28.92	-43.5	-44.2	24.5	0.00e+00	0	48	0	1652555776	58	3948
2026-01-16 05:17:28.67	355.05	29.00	-43.6	-44.3	24.4	0.00e+00	0	49	0	1658847232	58	3978
2026-01-16 05:17:29.68	354.75	29.08	-43.7	-44.4	24.3	0.00e+00	0	49	0	1664090112	58	4023
2026-01-16 05:17:30.69	354.44	29.15	-43.6	-44.3	24.4	0.00e+00	0	49	0	1670381568	58	4004
2026-01-16 05:17:31.70	354.13	29.23	-43.6	-44.3	24.4	0.00e+00	0	49	0	1675624448	58	3997
2026-01-16 05:17:32.71	353.82	29.30	-43.5	-44.2	24.5	0.00e+00	0	49	0	1680867328	58	3949
2026-01-16 05:17:33.72	353.51	29.37	-43.4	-44.1	24.6	0.00e+00	0	49	0	1687158784	58	3890
2026-01-16 05:17:34.73	353.19	29.44	-43.4	-44.2	24.5	0.00e+00	0	48	0	1692401664	58	3914
2026-01-16 05:17:35.74	352.88	29.52	-43.4	-44.1	24.6	0.00e+00	0	49	0	1697644544	58	3896
2026-01-16 05:17:36.75	352.56	29.59	-43.5	-44.2	24.5	0.00e+00	0	49	0	1703936000	58	3937
2026-01-16 05:17:37.76	352.25	29.66	-43.3	-44.0	24.7	0.00e+00	0	48	0	1709178880	58	3857
2026-01-16 05:17:38.78	351.92	29.73	-43.3	-44.1	24.7	0.00e+00	0	48	0	1715470336	58	3877
2026-01-16 05:17:39.79	351.60	29.79	-43.4	-44.1	24.6	0.00e+00	0	49	0	1720713216	58	3905
2026-01-16 05:17:40.80	351.28	29.86	-43.4	-44.1	24.6	0.00e+00	0	49	0	1727004672	58	3901
2026-01-16 05:17:41.81	350.96	29.93	-43.2	-43.9	24.8	0.00e+00	0	49	0	1732247552	58	3799
2026-01-16 05:17:42.81	350.64	29.99	-42.9	-43.6	25.1	0.00e+00	0	49	0	1738539008	57	3871
2026-01-16 05:17:43.82	350.31	30.06	-43.0	-43.7	25.0	0.00e+00	0	48	0	1743781888	57	3938
2026-01-16 05:17:44.84	349.98	30.12	-43.1	-43.8	24.8	0.00e+00	0	48	0	1749024768	57	3998
2026-01-16 05:17:45.85	349.65	30.18	-43.2	-43.9	24.8	0.00e+00	0	49	0	1755316224	57	4016
2026-01-16 05:17:46.86	349.32	30.25	-43.2	-43.9	24.8	0.00e+00	0	48	0	1760559104	57	4039
2026-01-16 05:17:47.86	348.99	30.31	-43.3	-44.0	24.7	0.00e+00	0	48	0	1765801984	57	4067
2026-01-16 05:17:48.87	348.66	30.37	-43.1	-43.8	24.9	0.00e+00	0	49	0	1772093440	57	3997
2026-01-16 05:17:49.88	348.33	30.42	-43.0	-43.7	24.9	0.00e+00	0	49	0	1778384896	57	3954
2026-01-16 05:17:50.89	347.99	30.48	-43.0	-43.7	25.0	0.00e+00	0	48	0	1783627776	57	3940
2026-01-16 05:17:51.90	347.66	30.54	-43.1	-43.8	24.9	0.00e+00	0	49	0	1788870656	57	3985
2026-01-16 05:17:52.91	347.32	30.60	-43.2	-43.9	24.8	0.00e+00	0	49	0	1795162112	57	4039
2026-01-16 05:17:53.92	346.98	30.65	-43.4	-44.1	24.6	0.00e+00	0	49	0	1800404992	57	4131
2026-01-16 05:17:54.94	346.64	30.71	-43.2	-43.9	24.8	0.00e+00	0	48	0	1805647872	57	4047
2026-01-16 05:17:55.95	346.30	30.76	-43.2	-43.9	24.8	0.00e+00	0	49	0	1811939328	57	4038
2026-01-16 05:17:56.96	345.96	30.81	-43.2	-43.9	24.8	0.00e+00	0	49	0	1817182208	57	4026
2026-01-16 05:17:57.96	345.62	30.86	-43.1	-43.8	24.9	0.00e+00	0	48	0	1823473664	57	3986
2026-01-16 05:17:58.97	345.27	30.91	-43.1	-43.8	24.9	0.00e+00	0	49	0	1828716544	57	4001
2026-01-16 05:17:59.98	344.93	30.96	-43.1	-43.8	24.9	0.00e+00	0	48	0	1835008000	57	3998
2026-01-16 05:18:00.99	344.58	31.01	-43.3	-44.0	24.7	0.00e+00	0	48	0	1840250880	57	4071
2026-01-16 05:18:02.01	344.23	31.05	-43.2	-43.9	24.8	0.00e+00	0	49	0	1846542336	57	4039
2026-01-16 05:18:03.01	343.89	31.10	-43.2	-43.9	24.8	0.00e+00	0	48	0	1851785216	57	4020
2026-01-16 05:18:04.02	343.54	31.14	-43.2	-43.9	24.8	0.00e+00	0	49	0	1857028096	57	4037
2026-01-16 05:18:05.03	343.19	31.19	-43.3	-44.0	24.8	0.00e+00	0	48	0	1863319552	57	4069
2026-01-16 05:18:06.04	342.84	31.23	-43.1	-43.8	24.9	0.00e+00	0	49	0	1868562432	57	3987
2026-01-16 05:18:07.05	342.49	31.27	-43.1	-43.8	25.0	0.00e+00	0	49	0	1873805312	57	3963
2026-01-16 05:18:08.06	342.14	31.31	-43.1	-43.8	24.9	0.00e+00	0	49	0	1880096768	57	3989
2026-01-16 05:18:09.08	341.78	31.35	-43.0	-43.7	25.0	0.00e+00	0	49	0	1886388224	57	3942
2026-01-16 05:18:10.09	341.42	31.38	-43.1	-43.8	24.9	0.00e+00	0	49	0	1891631104	57	3979
2026-01-16 05:18:11.10	341.07	31.42	-43.0	-43.8	25.0	0.00e+00	0	49	0	1896873984	57	3960
2026-01-16 05:18:12.11	340.71	31.45	-43.0	-43.7	25.0	0.00e+00	0	49	0	1903165440	57	3929
2026-01-16 05:18:13.12	340.36	31.49	-43.1	-43.8	24.9	0.00e+00	0	49	0	1908408320	57	3995
2026-01-16 05:18:14.13	340.00	31.52	-43.1	-43.8	25.0	0.00e+00	0	49	0	1913651200	57	3977
2026-01-16 05:18:15.14	339.64	31.55	-43.2	-43.9	24.9	0.00e+00	0	49	0	1919942656	57	4020
2026-01-16 05:18:16.15	339.28	31.58	-43.1	-43.8	24.9	0.00e+00	0	49	0	1925185536	57	3996
2026-01-16 05:18:17.16	338.92	31.61	-43.0	-43.7	25.1	0.00e+00	0	49	0	1931476992	57	3925
2026-01-16 05:18:18.17	338.56	31.64	-42.9	-43.6	25.1	0.00e+00	0	49	0	1936719872	57	3905
2026-01-16 05:18:19.18	338.20	31.66	-43.0	-43.7	25.1	0.00e+00	0	49	0	1943011328	57	3923
2026-01-16 05:18:20.19	337.84	31.69	-43.1	-43.8	25.0	0.00e+00	0	49	0	1948254208	57	3972
2026-01-16 05:18:21.20	337.48	31.71	-43.0	-43.7	25.1	0.00e+00	0	49	0	1954545664	57	3935
2026-01-16 05:18:22.21	337.12	31.74	-43.0	-43.7	25.1	0.00e+00	0	49	0	1959788544	57	3923
2026-01-16 05:18:23.22	336.75	31.76	-42.8	-43.5	25.2	0.00e+00	0	49	0	1965031424	57	3868
2026-01-16 05:18:24.23	336.39	31.78	-42.7	-43.4	25.3	0.00e+00	0	49	0	1971322880	57	3801
2026-01-16 05:18:25.24	336.03	31.79	-42.8	-43.5	25.3	0.00e+00	0	49	0	1976565760	57	3835
2026-01-16 05:18:26.25	335.66	31.81	-42.7	-43.4	25.3	0.00e+00	0	49	0	1981808640	57	3817
2026-01-16 05:18:27.26	335.30	31.83	-42.9	-43.6	25.1	0.00e+00	0	49	0	1988100096	57	3899
2026-01-16 05:18:28.27	334.93	31.84	-43.1	-43.8	25.0	0.00e+00	0	49	0	1994391552	57	3971
2026-01-16 05:18:29.28	334.57	31.86	-43.2	-43.9	24.9	0.00e+00	0	49	0	1999634432	57	4032
2026-01-16 05:18:30.29	334.20	31.87	-43.2	-43.9	24.9	0.00e+00	0	49	0	2004877312	57	4043
2026-01-16 05:18:31.30	333.84	31.88	-43.2	-43.9	24.9	0.00e+00	0	49	0	2011168768	57	4019
2026-01-16 05:18:32.31	333.47	31.89	-43.2	-43.9	24.9	0.00e+00	0	49	0	2016411648	57	4037
2026-01-16 05:18:33.32	333.11	31.90	-43.3	-44.0	24.8	0.00e+00	0	49	0	2021654528	57	4059
2026-01-16 05:18:34.33	332.74	31.90	-43.1	-43.9	24.9	0.00e+00	0	49	0	2027945984	57	4006
2026-01-16 05:18:35.34	332.37	31.91	-43.1	-43.8	25.0	0.00e+00	0	48	0	2033188864	57	3963
2026-01-16 05:18:36.35	332.01	31.91	-43.0	-43.7	25.1	0.00e+00	0	49	0	2039480320	57	3920
2026-01-16 05:18:37.36	331.64	31.91	-42.9	-43.6	25.2	0.00e+00	0	49	0	2044723200	57	3883
2026-01-16 05:18:38.37	331.27	31.92	-42.8	-43.6	25.2	0.00e+00	0	49	0	2051014656	57	3873
2026-01-16 05:18:39.38	330.91	31.92	-42.8	-43.5	25.2	0.00e+00	0	49	0	2056257536	57	3844
2026-01-16 05:18:40.39	330.54	31.91	-43.0	-43.7	25.1	0.00e+00	0	49	0	2062548992	57	3924
2026-01-16 05:18:41.40	330.17	31.91	-43.0	-43.7	25.0	0.00e+00	0	49	0	2067791872	57	3947
2026-01-16 05:18:42.41	329.81	31.91	-43.0	-43.7	25.1	0.00e+00	0	49	0	2073034752	57	3932
2026-01-16 05:18:43.42	329.44	31.90	-43.0	-43.7	25.0	0.00e+00	0	49	0	2079326208	57	3957
2026-01-16 05:18:44.43	329.07	31.90	-42.9	-43.7	25.1	0.00e+00	0	49	0	2084569088	57	3921
2026-01-16 05:18:45.44	328.71	31.89	-42.9	-43.6	25.1	0.00e+00	0	49	0	2089811968	57	3910
2026-01-16 05:18:46.45	328.34	31.88	-42.9	-43.6	25.1	0.00e+00	0	49	0	2096103424	57	3902
2026-01-16 05:18:47.46	327.97	31.87	-43.1	-43.8	25.0	0.00e+00	0	49	0	2101346304	57	3992
2026-01-16 05:18:48.47	327.61	31.86	-43.3	-44.0	24.8	0.00e+00	0	49	0	2107637760	57	4071
2026-01-16 05:18:49.48	327.24	31.84	-43.3	-44.1	24.7	0.00e+00	0	49	0	2112880640	57	4104
2026-01-16 05:18:50.49	326.88	31.83	-43.1	-43.8	25.0	0.00e+00	0	49	0	2119172096	57	3966
2026-01-16 05:18:51.50	326.51	31.81	-43.2	-43.9	24.9	0.00e+00	0	48	0	2124414976	57	4018
2026-01-16 05:18:52.51	326.15	31.80	-43.1	-43.9	24.9	0.00e+00	0	49	0	2129657856	57	4008
2026-01-16 05:18:53.52	325.79	31.78	-43.0	-43.7	25.1	0.00e+00	0	49	0	2135949312	57	3945
2026-01-16 05:18:54.53	325.42	31.76	-42.9	-43.6	25.2	0.00e+00	0	49	0	2141192192	57	3893
2026-01-16 05:18:55.54	325.06	31.74	-42.6	-43.3	25.4	0.00e+00	0	49	0	2147483648	57	3775
2026-01-16 05:18:56.55	324.70	31.71	-42.6	-43.2	25.5	0.00e+00	0	49	0	2152726528	57	3737
2026-01-16 05:18:57.56	324.34	31.69	-42.7	-43.4	25.4	0.00e+00	0	49	0	2157969408	57	3796
2026-01-16 05:18:58.57	323.97	31.67	-42.8	-43.5	25.3	0.00e+00	0	49	0	2164260864	57	3833
2026-01-16 05:18:59.58	323.61	31.64	-43.0	-43.7	25.1	0.00e+00	0	49	0	2169503744	57	3925
2026-01-16 05:19:00.59	323.25	31.61	-43.0	-43.7	25.1	0.00e+00	0	49	0	2175795200	57	3954
2026-01-16 05:19:01.60	322.89	31.58	-43.1	-43.9	25.0	0.00e+00	0	49	0	2181038080	57	4007
2026-01-16 05:19:02.61	322.53	31.55	-43.1	-43.8	25.0	0.00e+00	0	49	0	2187329536	57	3980
2026-01-16 05:19:03.62	322.18	31.52	-43.3	-44.0	24.8	0.00e+00	0	49	0	2192572416	57	4065
2026-01-16 05:19:04.63	321.82	31.49	-43.4	-44.2	24.7	0.00e+00	0	49	0	2197815296	57	4150
2026-01-16 05:19:05.64	321.46	31.46	-43.6	-44.3	24.6	0.00e+00	0	49	0	2204106752	57	4221
2026-01-16 05:19:06.65	321.11	31.42	-43.6	-44.3	24.5	0.00e+00	0	49	0	2209349632	57	4236
2026-01-16 05:19:07.66	320.75	31.39	-43.6	-44.3	24.6	0.00e+00	0	49	0	2214592512	57	4213
2026-01-16 05:19:08.67	320.40	31.35	-43.4	-44.2	24.7	0.00e+00	0	49	0	2220883968	57	4151
2026-01-16 05:19:09.68	320.04	31.31	-43.4	-44.1	24.7	0.00e+00	0	49	0	2227175424	57	4121
2026-01-16 05:19:10.69	319.69	31.27	-43.2	-43.9	24.9	0.00e+00	0	49	0	2232418304	57	4047
2026-01-16 05:19:11.70	319.34	31.23	-42.9	-43.6	25.2	0.00e+00	0	49	0	2237661184	57	3891
2026-01-16 05:19:12.71	318.99	31.19	-42.8	-43.5	25.2	0.00e+00	0	49	0	2243952640	57	3865
2026-01-16 05:19:13.72	318.64	31.15	-42.8	-43.5	25.3	0.00e+00	0	49	0	2249195520	57	3841
2026-01-16 05:19:14.73	318.29	31.10	-42.8	-43.5	25.2	0.00e+00	0	49	0	2254438400	57	3852
2026-01-16 05:19:15.74	317.94	31.06	-42.8	-43.5	25.3	0.00e+00	0	49	0	2260729856	57	3837
2026-01-16 05:19:16.75	317.59	31.01	-42.9	-43.6	25.1	0.00e+00	0	49	0	2265972736	57	3902
2026-01-16 05:19:17.76	317.24	30.96	-42.9	-43.6	25.1	0.00e+00	0	49	0	2272264192	57	3912
2026-01-16 05:19:18.77	316.90	30.91	-43.0	-43.7	25.0	0.00e+00	0	49	0	2277507072	57	3946
2026-01-16 05:19:19.78	316.55	30.86	-43.1	-43.8	25.0	0.00e+00	0	49	0	2283798528	57	3964
2026-01-16 05:19:20.79	316.21	30.81	-43.1	-43.8	25.0	0.00e+00	0	49	0	2289041408	57	3998
2026-01-16 05:19:21.80	315.87	30.76	-43.2	-44.0	24.9	0.00e+00	0	49	0	2295332864	57	4057
2026-01-16 05:19:22.81	315.53	30.71	-43.4	-44.1	24.7	0.00e+00	0	49	0	2300575744	57	4135
2026-01-16 05:19:23.82	315.19	30.66	-43.4	-44.1	24.7	0.00e+00	0	49	0	2305818624	57	4137
2026-01-16 05:19:24.83	314.85	30.60	-43.3	-44.0	24.8	0.00e+00	0	49	0	2312110080	57	4081
2026-01-16 05:19:25.84	314.51	30.54	-43.4	-44.1	24.7	0.00e+00	0	49	0	2317352960	57	4114
2026-01-16 05:19:26.85	314.18	30.49	-43.3	-44.0	24.8	0.00e+00	0	49	0	2322595840	57	4066
2026-01-16 05:19:27.86	313.84	30.43	-43.3	-44.0	24.8	0.00e+00	0	49	0	2328887296	57	4091
2026-01-16 05:19:28.87	313.51	30.37	-43.1	-43.8	25.0	0.00e+00	0	49	0	2335178752	57	3990
2026-01-16 05:19:29.88	313.17	30.31	-43.0	-43.7	25.1	0.00e+00	0	49	0	2340421632	57	3920
2026-01-16 05:19:30.89	312.84	30.25	-42.9	-43.5	25.2	0.00e+00	0	49	0	2345664512	57	3867
2026-01-16 05:19:31.90	312.51	30.19	-42.9	-43.6	25.2	0.00e+00	0	49	0	2351955968	57	3904
2026-01-16 05:19:32.91	312.18	30.13	-43.2	-43.9	24.9	0.00e+00	0	49	0	2357198848	57	4016
2026-01-16 05:19:33.92	311.86	30.06	-43.3	-44.0	24.8	0.00e+00	0	49	0	2362441728	57	4076
2026-01-16 05:19:34.92	311.53	30.00	-43.3	-44.0	24.8	0.00e+00	0	49	0	2368733184	57	4082
2026-01-16 05:19:35.93	311.21	29.93	-43.2	-44.0	24.8	0.00e+00	0	49	0	2373976064	57	4058
2026-01-16 05:19:36.94	310.88	29.87	-43.2	-43.9	24.9	0.00e+00	0	49	0	2380267520	57	4051
2026-01-16 05:19:37.95	310.56	29.80	-43.2	-43.9	24.9	0.00e+00	0	49	0	2385510400	57	4049
2026-01-16 05:19:38.96	310.24	29.73	-43.4	-44.1	24.7	0.00e+00	0	49	0	2390753280	57	4136
2026-01-16 05:19:39.97	309.92	29.66	-43.5	-44.2	24.6	0.00e+00	0	49	0	2397044736	57	4181
2026-01-16 05:19:40.98	309.60	29.59	-43.6	-44.3	24.5	0.00e+00	0	49	0	2403336192	57	4218
2026-01-16 05:19:41.99	309.29	29.52	-43.7	-44.5	24.4	0.00e+00	0	49	0	2408579072	57	4292
2026-01-16 05:19:43.00	308.97	29.45	-43.7	-44.4	24.4	0.00e+00	0	49	0	2413821952	58	4041
2026-01-16 05:19:44.01	308.66	29.38	-43.6	-44.3	24.5	0.00e+00	0	49	0	2420113408	58	3986
2026-01-16 05:19:45.02	308.34	29.30	-43.6	-44.3	24.5	0.00e+00	0	49	0	2425356288	58	4001
2026-01-16 05:19:46.03	308.03	29.23	-43.5	-44.2	24.6	0.00e+00	0	49	0	2430599168	58	3949
2026-01-16 05:19:47.04	307.72	29.16	-43.5	-44.2	24.6	0.00e+00	0	49	0	2436890624	58	3938
2026-01-16 05:19:48.05	307.42	29.08	-43.5	-44.2	24.6	0.00e+00	0	49	0	2442133504	58	3942
2026-01-16 05:19:49.06	307.11	29.01	-43.4	-44.1	24.7	0.00e+00	0	49	0	2448424960	58	3897
2026-01-16 05:19:50.07	306.80	28.93	-43.3	-44.0	24.8	0.00e+00	0	49	0	2453667840	58	3854
2026-01-16 05:19:51.08	306.50	28.85	-43.4	-44.1	24.8	0.00e+00	0	49	0	2459959296	58	3886
2026-01-16 05:19:52.08	306.20	28.77	-43.4	-44.1	24.8	0.00e+00	0	49	0	2465202176	58	3878
2026-01-16 05:19:53.10	305.90	28.69	-43.4	-44.2	24.7	0.00e+00	0	49	0	2470445056	58	3929
2026-01-16 05:19:54.10	305.60	28.62	-43.5	-44.3	24.6	0.00e+00	0	49	0	2476736512	58	3965
2026-01-16 05:19:55.11	305.30	28.54	-43.4	-44.2	24.7	0.00e+00	0	49	0	2481979392	58	3920
2026-01-16 05:19:56.13	305.00	28.46	-43.6	-44.3	24.6	0.00e+00	0	49	0	2488270848	58	3969
2026-01-16 05:19:57.14	304.71	28.37	-43.4	-44.1	24.7	0.00e+00	0	49	0	2493513728	58	3895
2026-01-16 05:19:58.15	304.41	28.29	-43.4	-44.1	24.8	0.00e+00	0	49	0	2498756608	58	3884
2026-01-16 05:19:59.16	304.12	28.21	-43.4	-44.1	24.7	0.00e+00	0	49	0	2505048064	58	3909
2026-01-16 05:20:00.17	303.83	28.13	-43.6	-44.3	24.5	0.00e+00	0	49	0	2511339520	58	4001
2026-01-16 05:20:01.18	303.54	28.04	-43.6	-44.4	24.5	0.00e+00	0	49	0	2516582400	58	4018
2026-01-16 05:20:02.19	303.25	27.96	-43.5	-44.2	24.6	0.00e+00	0	49	0	2521825280	58	3939
2026-01-16 05:20:03.20	302.97	27.87	-43.5	-44.2	24.6	0.00e+00	0	49	0	2528116736	58	3942
2026-01-16 05:20:04.21	302.68	27.79	-43.5	-44.2	24.6	0.00e+00	0	49	0	2533359616	58	3942
2026-01-16 05:20:05.22	302.40	27.70	-43.5	-44.2	24.6	0.00e+00	0	49	0	2538602496	58	3952
2026-01-16 05:20:06.23	302.12	27.62	-43.5	-44.2	24.6	0.00e+00	0	49	0	2544893952	58	3953
2026-01-16 05:20:07.24	301.84	27.53	-43.5	-44.3	24.6	0.00e+00	0	49	0	2550136832	58	3966
2026-01-16 05:20:08.25	301.56	27.44	-43.6	-44.4	24.5	0.00e+00	0	49	0	2555379712	58	4020
2026-01-16 05:20:09.26	301.29	27.36	-43.7	-44.4	24.5	0.00e+00	0	49	0	2561671168	58	4029
2026-01-16 05:20:10.27	301.01	27.27	-43.7	-44.4	24.5	0.00e+00	0	49	0	2567962624	58	4021
2026-01-16 05:20:11.28	300.74	27.18	-43.7	-44.5	24.4	0.00e+00	0	49	0	2573205504	58	4065
2026-01-16 05:20:12.29	300.46	27.09	-43.7	-44.4	24.5	0.00e+00	0	49	0	2578448384	58	4020
2026-01-16 05:20:13.30	300.19	27.00	-43.7	-44.4	24.4	0.00e+00	0	49	0	2584739840	58	4051
2026-01-16 05:20:14.31	299.93	26.91	-43.9	-44.6	24.3	0.00e+00	0	49	0	2589982720	58	4120
2026-01-16 05:20:15.32	299.66	26.82	-44.0	-44.8	24.1	0.00e+00	0	49	0	2596274176	58	4202
2026-01-16 05:20:16.33	299.39	26.73	-44.0	-44.8	24.1	0.00e+00	0	49	0	2601517056	58	4200
2026-01-16 05:20:17.34	299.13	26.64	-44.2	-44.9	24.0	0.00e+00	0	49	0	2606759936	58	4264
2026-01-16 05:20:18.35	298.86	26.55	-43.9	-44.7	24.2	0.00e+00	0	49	0	2613051392	58	4153
2026-01-16 05:20:19.36	298.60	26.46	-43.9	-44.7	24.2	0.00e+00	0	49	0	2618294272	58	4151
2026-01-16 05:20:20.37	298.34	26.36	-44.0	-44.7	24.1	0.00e+00	0	49	0	2624585728	58	4193
2026-01-16 05:20:21.38	298.08	26.27	-44.0	-44.8	24.1	0.00e+00	0	49	0	2629828608	58	4206
2026-01-16 05:20:22.39	297.83	26.18	-44.0	-44.7	24.2	0.00e+00	0	49	0	2636120064	58	4172
2026-01-16 05:20:23.40	297.57	26.09	-44.0	-44.7	24.1	0.00e+00	0	49	0	2641362944	58	4184
2026-01-16 05:20:24.41	297.32	25.99	-44.1	-44.8	24.1	0.00e+00	0	49	0	2646605824	58	4219
2026-01-16 05:20:25.42	297.07	25.90	-44.0	-44.7	24.2	0.00e+00	0	49	0	2652897280	58	4166
2026-01-16 05:20:26.43	296.81	25.80	-44.0	-44.8	24.1	0.00e+00	0	49	0	2658140160	58	4203
2026-01-16 05:20:27.44	296.57	25.71	-44.1	-44.9	24.0	0.00e+00	0	49	0	2663383040	58	4255
2026-01-16 05:20:28.45	296.32	25.62	-44.0	-44.7	24.1	0.00e+00	0	49	0	2669674496	58	4183
2026-01-16 05:20:29.46	296.07	25.52	-43.9	-44.7	24.2	0.00e+00	0	49	0	2674917376	58	4166
2026-01-16 05:20:30.47	295.83	25.43	-43.9	-44.6	24.3	0.00e+00	0	49	0	2681208832	58	4124
2026-01-16 05:20:31.48	295.58	25.33	-44.0	-44.7	24.1	0.00e+00	0	49	0	2686451712	58	4171
2026-01-16 05:20:32.49	295.34	25.24	-44.0	-44.8	24.1	0.00e+00	0	49	0	2692743168	58	4205
2026-01-16 05:20:33.50	295.10	25.14	-43.9	-44.6	24.2	0.00e+00	0	49	0	2697986048	58	4122
2026-01-16 05:20:34.52	294.86	25.04	-44.0	-44.7	24.2	0.00e+00	0	49	0	2704277504	58	4162
2026-01-16 05:20:35.52	294.62	24.95	-44.1	-44.8	24.1	0.00e+00	0	49	0	2709520384	58	4235
2026-01-16 05:20:36.53	294.39	24.85	-44.0	-44.8	24.1	0.00e+00	0	49	0	2714763264	58	4205
2026-01-16 05:20:37.54	294.15	24.76	-44.1	-44.8	24.1	0.00e+00	0	49	0	2721054720	58	4215
2026-01-16 05:20:38.55	293.92	24.66	-44.1	-44.8	24.0	0.00e+00	0	49	0	2726297600	58	4242
2026-01-16 05:20:39.56	293.69	24.56	-44.0	-44.7	24.1	0.00e+00	0	49	0	2731540480	58	4169
2026-01-16 05:20:40.57	293.46	24.47	-43.9	-44.6	24.3	0.00e+00	0	49	0	2737831936	58	4115
2026-01-16 05:20:41.58	293.23	24.37	-43.9	-44.6	24.2	0.00e+00	0	49	0	2744123392	58	4138
2026-01-16 05:20:42.59	293.00	24.27	-44.0	-44.8	24.1	0.00e+00	0	49	0	2749366272	58	4205
2026-01-16 05:20:43.60	292.78	24.17	-44.2	-45.0	23.9	0.00e+00	0	49	0	2754609152	58	4306
2026-01-16 05:20:44.61	292.55	24.08	-44.2	-45.0	23.9	0.00e+00	0	49	0	2760900608	58	4293
2026-01-16 05:20:45.62	292.33	23.98	-44.2	-45.0	23.9	0.00e+00	0	49	0	2766143488	59	4054
2026-01-16 05:20:46.63	292.11	23.88	-44.3	-45.1	23.8	0.00e+00	0	49	0	2771386368	59	4115
2026-01-16 05:20:47.64	291.88	23.78	-44.3	-45.0	23.8	0.00e+00	0	49	0	2777677824	59	4098
2026-01-16 05:20:48.65	291.67	23.69	-44.2	-44.9	23.9	0.00e+00	0	49	0	2782920704	59	4042
2026-01-16 05:20:49.66	291.45	23.59	-44.2	-45.0	23.9	0.00e+00	0	49	0	2789212160	59	4066
2026-01-16 05:20:50.67	291.23	23.49	-44.3	-45.1	23.8	0.00e+00	0	49	0	2794455040	59	4126
2026-01-16 05:20:51.68	291.02	23.39	-44.3	-45.1	23.8	0.00e+00	0	49	0	2800746496	59	4127
2026-01-16 05:20:52.69	290.80	23.29	-44.4	-45.1	23.8	0.00e+00	0	49	0	2805989376	59	4145
2026-01-16 05:20:53.70	290.59	23.20	-44.3	-45.1	23.8	0.00e+00	0	49	0	2812280832	59	4122
2026-01-16 05:20:54.71	290.38	23.10	-44.2	-45.0	23.9	0.00e+00	0	49	0	2817523712	59	4071
2026-01-16 05:20:55.72	290.17	23.00	-44.4	-45.2	23.7	0.00e+00	0	49	0	2822766592	59	4151
2026-01-16 05:20:56.73	289.96	22.90	-44.3	-45.1	23.8	0.00e+00	0	49	0	2829058048	59	4127
2026-01-16 05:20:57.74	289.76	22.80	-44.5	-45.2	23.7	0.00e+00	0	49	0	2834300928	59	4192
2026-01-16 05:20:58.75	289.55	22.70	-44.5	-45.2	23.7	0.00e+00	0	49	0	2839543808	59	4178
2026-01-16 05:20:59.76	289.35	22.61	-44.4	-45.2	23.7	0.00e+00	0	49	0	2845835264	59	4166
2026-01-16 05:21:00.77	289.14	22.51	-44.6	-45.4	23.5	0.00e+00	0	49	0	2852126720	59	4256
2026-01-16 05:21:01.78	288.94	22.41	-44.4	-45.2	23.7	0.00e+00	0	49	0	2857369600	59	4148
2026-01-16 05:21:02.79	288.74	22.31	-44.5	-45.2	23.6	0.00e+00	0	49	0	2862612480	59	4190
2026-01-16 05:21:03.80	288.54	22.21	-44.5	-45.3	23.6	0.00e+00	0	49	0	2868903936	59	4209
2026-01-16 05:21:04.81	288.34	22.11	-44.5	-45.2	23.6	0.00e+00	0	49	0	2874146816	59	4192
2026-01-16 05:21:05.82	288.15	22.02	-44.6	-45.4	23.5	0.00e+00	0	49	0	2879389696	59	4244
2026-01-16 05:21:06.83	287.95	21.92	-44.5	-45.3	23.6	0.00e+00	0	49	0	2885681152	59	4215
2026-01-16 05:21:07.84	287.76	21.82	-44.5	-45.3	23.6	0.00e+00	0	49	0	2890924032	59	4227
2026-01-16 05:21:08.85	287.56	21.72	-44.5	-45.3	23.6	0.00e+00	0	49	0	2897215488	59	4213
2026-01-16 05:21:09.86	287.37	21.62	-44.5	-45.2	23.6	0.00e+00	0	49	0	2902458368	59	4182
2026-01-16 05:21:10.87	287.18	21.52	-44.6	-45.4	23.5	0.00e+00	0	49	0	2908749824	59	4250
2026-01-16 05:21:11.88	286.99	21.43	-44.6	-45.3	23.5	0.00e+00	0	49	0	2913992704	59	4241
2026-01-16 05:21:12.89	286.81	21.33	-44.5	-45.2	23.6	0.00e+00	0	49	0	2920284160	59	4180
2026-01-16 05:21:13.90	286.62	21.23	-44.5	-45.2	23.6	0.00e+00	0	49	0	2925527040	59	4183
2026-01-16 05:21:14.91	286.43	21.13	-44.4	-45.2	23.7	0.00e+00	0	49	0	2930769920	59	4161
2026-01-16 05:21:15.92	286.25	21.03	-44.3	-45.1	23.7	0.00e+00	0	49	0	2937061376	59	4118
2026-01-16 05:21:16.93	286.07	20.94	-44.4	-45.2	23.7	0.00e+00	0	49	0	2942304256	59	4152
2026-01-16 05:21:17.94	285.88	20.84	-44.4	-45.1	23.7	0.00e+00	0	49	0	2947547136	59	4127
2026-01-16 05:21:18.95	285.70	20.74	-44.4	-45.2	23.7	0.00e+00	0	49	0	2953838592	59	4153
2026-01-16 05:21:19.96	285.52	20.64	-44.3	-45.1	23.7	0.00e+00	0	49	0	2959081472	59	4116
2026-01-16 05:21:20.97	285.34	20.55	-44.4	-45.2	23.7	0.00e+00	0	49	0	2965372928	59	4148
2026-01-16 05:21:21.98	285.17	20.45	-44.4	-45.2	23.6	0.00e+00	0	49	0	2970615808	59	4171
2026-01-16 05:21:22.99	284.99	20.35	-44.4	-45.2	23.7	0.00e+00	0	49	0	2976907264	59	4149
2026-01-16 05:21:24.00	284.82	20.25	-44.4	-45.1	23.7	0.00e+00	0	49	0	2982150144	59	4144
2026-01-16 05:21:25.01	284.64	20.16	-44.4	-45.2	23.6	0.00e+00	0	49	0	2987393024	59	4166
2026-01-16 05:21:26.02	284.47	20.06	-44.6	-45.4	23.5	0.00e+00	0	49	0	2993684480	59	4251
2026-01-16 05:21:27.03	284.30	19.96	-44.6	-45.3	23.5	0.00e+00	0	49	0	2998927360	59	4232
2026-01-16 05:21:28.04	284.13	19.86	-44.7	-45.4	23.4	0.00e+00	0	49	0	3005218816	59	4291
2026-01-16 05:21:29.05	283.96	19.77	-44.4	-45.2	23.5	0.00e+00	0	49	0	3010461696	60	3915
2026-01-16 05:21:30.06	283.79	19.67	-44.4	-45.1	23.5	0.00e+00	0	49	0	3015704576	60	3912
2026-01-16 05:21:31.07	283.62	19.57	-44.7	-45.4	23.2	0.00e+00	0	49	0	3021996032	60	4044
2026-01-16 05:21:32.08	283.45	19.48	-44.5	-45.3	23.4	0.00e+00	0	49	0	3028287488	60	3981
2026-01-16 05:21:33.10	283.29	19.38	-44.6	-45.4	23.3	0.00e+00	0	49	0	3033530368	60	4010
2026-01-16 05:21:34.11	283.12	19.28	-44.6	-45.4	23.3	0.00e+00	0	49	0	3038773248	60	4010
2026-01-16 05:21:35.12	282.96	19.19	-44.5	-45.2	23.4	0.00e+00	0	49	0	3045064704	60	3949
2026-01-16 05:21:36.13	282.80	19.09	-44.5	-45.2	23.4	0.00e+00	0	49	0	3050307584	60	3945
2026-01-16 05:21:37.14	282.64	19.00	-44.5	-45.2	23.4	0.00e+00	0	49	0	3055550464	60	3947
2026-01-16 05:21:38.15	282.48	18.90	-44.6	-45.3	23.3	0.00e+00	0	49	0	3061841920	60	3996
2026-01-16 05:21:39.16	282.32	18.81	-44.6	-45.4	23.3	0.00e+00	0	49	0	3067084800	60	4008
2026-01-16 05:21:40.17	282.16	18.71	-44.7	-45.5	23.1	0.00e+00	0	49	0	3073376256	60	4067
2026-01-16 05:21:41.18	282.00	18.61	-44.8	-45.5	23.1	0.00e+00	0	49	0	3078619136	60	4089
2026-01-16 05:21:42.19	281.85	18.52	-44.7	-45.5	23.2	0.00e+00	0	49	0	3084910592	60	4057
2026-01-16 05:21:43.20	281.69	18.42	-44.8	-45.5	23.1	0.00e+00	0	49	0	3090153472	60	4092
2026-01-16 05:21:44.21	281.54	18.33	-44.8	-45.6	23.0	0.00e+00	0	49	0	3095396352	60	4127
2026-01-16 05:21:45.22	281.38	18.23	-44.9	-45.7	23.0	0.00e+00	0	49	0	3101687808	60	4155
2026-01-16 05:21:46.23	281.23	18.14	-44.8	-45.6	23.0	0.00e+00	0	49	0	3106930688	60	4125
2026-01-16 05:21:47.24	281.08	18.05	-44.9	-45.7	22.9	0.00e+00	0	49	0	3113222144	60	4152
2026-01-16 05:21:48.25	280.93	17.95	-45.1	-45.8	22.8	0.00e+00	0	49	0	3118465024	60	4242
2026-01-16 05:21:49.26	280.78	17.86	-45.1	-45.9	22.8	0.00e+00	0	49	0	3123707904	60	4249
2026-01-16 05:21:50.27	280.63	17.76	-45.0	-45.8	22.8	0.00e+00	0	49	0	3129999360	60	4227
2026-01-16 05:21:51.28	280.49	17.67	-45.1	-45.9	22.7	0.00e+00	0	49	0	3136290816	60	4289
2026-01-16 05:21:52.29	280.34	17.58	-45.1	-45.9	22.7	0.00e+00	0	49	0	3141533696	60	4268
2026-01-16 05:21:53.30	280.19	17.48	-45.0	-45.8	22.8	0.00e+00	0	49	0	3146776576	60	4233
2026-01-16 05:21:54.31	280.05	17.39	-45.0	-45.8	22.8	0.00e+00	0	49	0	3153068032	60	4205
2026-01-16 05:21:55.32	279.91	17.30	-45.0	-45.8	22.8	0.00e+00	0	49	0	3158310912	60	4196
2026-01-16 05:21:56.33	279.76	17.20	-45.0	-45.8	22.8	0.00e+00	0	49	0	3163553792	60	4199
2026-01-16 05:21:57.34	279.62	17.11	-45.0	-45.8	22.8	0.00e+00	0	49	0	3169845248	60	4222
2026-01-16 05:21:58.35	279.48	17.02	-45.2	-46.0	22.6	0.00e+00	0	49	0	3175088128	60	4308
2026-01-16 05:21:59.36	279.34	16.92	-45.2	-46.0	22.6	0.00e+00	0	49	0	3180331008	60	4294
2026-01-16 05:22:00.37	279.20	16.83	-45.2	-46.0	22.6	0.00e+00	0	49	0	3186622464	61	4087
2026-01-16 05:22:01.38	279.06	16.74	-45.2	-46.0	22.6	0.00e+00	0	49	0	3192913920	61	4091
2026-01-16 05:22:02.39	278.92	16.65	-45.4	-46.2	22.4	0.00e+00	0	49	0	3198156800	61	4154
2026-01-16 05:22:03.40	278.79	16.56	-45.3	-46.1	22.5	0.00e+00	0	49	0	3203399680	61	4130
2026-01-16 05:22:04.41	278.65	16.47	-45.3	-46.1	22.5	0.00e+00	0	49	0	3209691136	61	4132
2026-01-16 05:22:05.42	278.52	16.37	-45.4	-46.2	22.4	0.00e+00	0	49	0	3214934016	61	4147
2026-01-16 05:22:06.43	278.38	16.28	-45.5	-46.3	22.3	0.00e+00	0	49	0	3221225472	61	4197
2026-01-16 05:22:07.44	278.25	16.19	-45.4	-46.2	22.4	0.00e+00	0	49	0	3226468352	61	4156
2026-01-16 05:22:08.45	278.12	16.10	-45.4	-46.2	22.4	0.00e+00	0	49	0	3231711232	61	4164
2026-01-16 05:22:09.46	277.99	16.01	-45.5	-46.3	22.3	0.00e+00	0	49	0	3238002688	61	4207
2026-01-16 05:22:10.47	277.85	15.92	-45.5	-46.4	22.2	0.00e+00	0	49	0	3244294144	61	4244
2026-01-16 05:22:11.48	277.72	15.83	-45.5	-46.3	22.2	0.00e+00	0	49	0	3249537024	61	4240
2026-01-16 05:22:12.49	277.59	15.74	-45.6	-46.5	22.1	0.00e+00	0	49	0	3254779904	61	4295
2026-01-16 05:22:13.50	277.47	15.65	-45.7	-46.6	22.0	0.00e+00	0	49	0	3261071360	62	4108
2026-01-16 05:22:14.51	277.34	15.56	-45.8	-46.7	21.9	0.00e+00	0	49	0	3266314240	62	4158
2026-01-16 05:22:15.51	277.21	15.47	-45.9	-46.7	21.9	0.00e+00	0	49	0	3271557120	62	4189
2026-01-16 05:22:16.52	277.09	15.38	-45.8	-46.7	21.9	0.00e+00	0	49	0	3277848576	62	4148
2026-01-16 05:22:17.53	276.96	15.29	-45.9	-46.7	21.9	0.00e+00	0	49	0	3283091456	62	4176
2026-01-16 05:22:18.55	276.84	15.20	-45.8	-46.6	22.0	0.00e+00	0	49	0	3288334336	62	4130
2026-01-16 05:22:19.56	276.71	15.11	-45.7	-46.5	22.1	0.00e+00	0	49	0	3294625792	62	4087
2026-01-16 05:22:20.56	276.59	15.02	-45.9	-46.7	21.9	0.00e+00	0	49	0	3299868672	62	4168
2026-01-16 05:22:21.57	276.47	14.94	-45.7	-46.6	22.0	0.00e+00	0	49	0	3306160128	62	4104
2026-01-16 05:22:22.58	276.35	14.85	-45.8	-46.6	22.0	0.00e+00	0	49	0	3311403008	62	4139
2026-01-16 05:22:23.59	276.22	14.76	-45.9	-46.7	21.9	0.00e+00	0	49	0	3317694464	62	4172
2026-01-16 05:22:24.60	276.10	14.67	-45.8	-46.7	21.9	0.00e+00	0	49	0	3322937344	62	4160
2026-01-16 05:22:25.61	275.99	14.58	-45.9	-46.7	21.9	0.00e+00	0	49	0	3329228800	62	4175
2026-01-16 05:22:26.62	275.87	14.50	-45.8	-46.7	21.9	0.00e+00	0	49	0	3334471680	62	4155
2026-01-16 05:22:27.63	275.75	14.41	-46.0	-46.8	21.7	0.00e+00	0	49	0	3339714560	62	4225
2026-01-16 05:22:28.64	275.63	14.32	-46.0	-46.8	21.7	0.00e+00	0	49	0	3346006016	62	4241
2026-01-16 05:22:29.64	275.52	14.24	-46.0	-46.9	21.7	0.00e+00	0	49	0	3351248896	62	4261
2026-01-16 05:22:30.65	275.40	14.15	-45.8	-46.7	21.8	0.00e+00	0	49	0	3356491776	62	4159
2026-01-16 05:22:31.66	275.28	14.06	-45.9	-46.8	21.7	0.00e+00	0	49	0	3362783232	62	4211
2026-01-16 05:22:32.67	275.17	13.98	-46.0	-46.8	21.7	0.00e+00	0	49	0	3369074688	62	4225
2026-01-16 05:22:33.68	275.06	13.89	-46.0	-46.8	21.7	0.00e+00	0	49	0	3374317568	62	4233
2026-01-16 05:22:34.69	274.94	13.80	-46.1	-46.9	21.6	0.00e+00	0	49	0	3379560448	62	4279
2026-01-16 05:22:35.70	274.83	13.72	-46.0	-46.8	21.7	0.00e+00	0	49	0	3385851904	62	4214
2026-01-16 05:22:36.71	274.72	13.63	-46.0	-46.9	21.6	0.00e+00	0	49	0	3391094784	62	4251
2026-01-16 05:22:37.71	274.61	13.55	-46.0	-46.9	21.6	0.00e+00	0	49	0	3396337664	62	4253
2026-01-16 05:22:38.72	274.50	13.46	-46.1	-47.0	21.5	0.00e+00	0	49	0	3402629120	62	4292
2026-01-16 05:22:39.73	274.39	13.38	-46.3	-47.1	21.4	0.00e+00	0	49	0	3407872000	63	4139
2026-01-16 05:22:40.74	274.28	13.29	-46.3	-47.1	21.4	0.00e+00	0	49	0	3414163456	63	4135
2026-01-16 05:22:41.75	274.17	13.21	-46.2	-47.1	21.4	0.00e+00	0	49	0	3419406336	63	4116
2026-01-16 05:22:42.76	274.06	13.12	-46.2	-47.1	21.4	0.00e+00	0	49	0	3424649216	63	4113
2026-01-16 05:22:43.77	273.96	13.04	-46.2	-47.1	21.4	0.00e+00	0	49	0	3430940672	63	4105
2026-01-16 05:22:44.78	273.85	12.95	-46.3	-47.2	21.3	0.00e+00	0	49	0	3437232128	63	4160
2026-01-16 05:22:45.79	273.74	12.87	-46.3	-47.2	21.3	0.00e+00	0	49	0	3442475008	63	4159
2026-01-16 05:22:46.80	273.64	12.79	-46.3	-47.2	21.3	0.00e+00	0	49	0	3447717888	63	4161
2026-01-16 05:22:47.81	273.53	12.70	-46.2	-47.1	21.4	0.00e+00	0	49	0	3454009344	63	4116
2026-01-16 05:22:48.82	273.43	12.62	-46.3	-47.1	21.3	0.00e+00	0	49	0	3459252224	63	4144
2026-01-16 05:22:49.83	273.32	12.54	-46.5	-47.4	21.1	0.00e+00	0	49	0	3464495104	63	4252
2026-01-16 05:22:50.84	273.22	12.45	-46.5	-47.4	21.0	0.00e+00	0	49	0	3470786560	63	4279
2026-01-16 05:22:51.85	273.12	12.37	-46.3	-47.2	21.2	0.00e+00	0	49	0	3476029440	63	4185
2026-01-16 05:22:52.86	273.02	12.29	-46.5	-47.4	21.1	0.00e+00	0	49	0	3481272320	63	4244
2026-01-16 05:22:53.87	272.92	12.21	-46.4	-47.3	21.1	0.00e+00	0	49	0	3487563776	63	4233
2026-01-16 05:22:54.88	272.81	12.12	-46.4	-47.3	21.2	0.00e+00	0	49	0	3493855232	63	4219
2026-01-16 05:22:55.88	272.72	12.04	-46.5	-47.4	21.0	0.00e+00	0	50	0	3499098112	63	4263
2026-01-16 05:22:56.89	272.62	11.96	-46.6	-47.6	20.9	0.00e+00	0	49	0	3504340992	63	4343
2026-01-16 05:22:57.90	272.52	11.88	-46.5	-47.4	21.0	0.00e+00	0	49	0	3510632448	63	4267
2026-01-16 05:22:58.91	272.42	11.80	-46.6	-47.5	21.0	0.00e+00	0	49	0	3515875328	63	4292
2026-01-16 05:22:59.92	272.32	11.72	-46.4	-47.4	21.0	0.00e+00	0	49	0	3522166784	63	4243
2026-01-16 05:23:00.93	272.22	11.64	-46.4	-47.3	21.1	0.00e+00	0	49	0	3527409664	63	4216
2026-01-16 05:23:01.94	272.13	11.55	-46.4	-47.3	21.1	0.00e+00	0	49	0	3532652544	63	4211
2026-01-16 05:23:02.95	272.03	11.47	-46.5	-47.4	21.0	0.00e+00	0	49	0	3538944000	63	4280
2026-01-16 05:23:03.96	271.94	11.39	-46.5	-47.4	21.0	0.00e+00	0	49	0	3544186880	63	4248
2026-01-16 05:23:04.97	271.84	11.31	-46.6	-47.5	20.9	0.00e+00	0	49	0	3550478336	63	4314
2026-01-16 05:23:05.98	271.75	11.23	-46.5	-47.4	21.0	0.00e+00	0	49	0	3555721216	63	4245
2026-01-16 05:23:06.99	271.65	11.15	-46.6	-47.5	20.9	0.00e+00	0	49	0	3562012672	63	4310
2026-01-16 05:23:08.00	271.56	11.07	-46.6	-47.5	20.7	0.00e+00	0	49	0	3567255552	64	4087
2026-01-16 05:23:09.01	271.47	10.99	-46.6	-47.5	20.7	0.00e+00	0	49	0	3572498432	64	4074
2026-01-16 05:23:10.02	271.37	10.91	-46.6	-47.5	20.7	0.00e+00	0	49	0	3578789888	64	4097
2026-01-16 05:23:11.03	271.28	10.83	-46.5	-47.4	20.8	0.00e+00	0	49	0	3584032768	64	4037
2026-01-16 05:23:12.04	271.19	10.76	-46.4	-47.3	20.9	0.00e+00	0	49	0	3589275648	64	3969
2026-01-16 05:23:13.05	271.10	10.68	-46.5	-47.4	20.8	0.00e+00	0	49	0	3595567104	64	4025
2026-01-16 05:23:14.06	271.01	10.60	-46.4	-47.3	20.8	0.00e+00	0	49	0	3600809984	64	3999
2026-01-16 05:23:15.07	270.92	10.52	-46.4	-47.3	20.8	0.00e+00	0	49	0	3607101440	64	4003
2026-01-16 05:23:16.07	270.83	10.44	-46.6	-47.5	20.6	0.00e+00	0	49	0	3612344320	64	4097
2026-01-16 05:23:17.09	270.74	10.36	-46.9	-47.8	20.3	0.00e+00	0	49	0	3618635776	64	4223
2026-01-16 05:23:18.10	270.65	10.28	-47.2	-48.2	19.8	0.00e+00	0	49	0	3623878656	64	4423
2026-01-16 05:23:19.10	270.56	10.21	-47.5	-48.5	19.5	0.00e+00	0	49	0	3630170112	65	4321
2026-01-16 05:23:20.11	270.48	10.13	-47.8	-48.8	19.1	0.00e+00	0	49	0	3635412992	66	4230
2026-01-16 05:23:21.13	270.39	10.05	-48.0	-49.1	18.8	0.00e+00	0	49	0	3640655872	66	4351
2026-01-16 05:23:22.14	270.30	9.97	-48.3	-49.4	18.4	0.00e+00	0	49	0	3646947328	67	4282
2026-01-16 05:23:23.14	270.22	9.90	-48.2	-49.4	18.3	0.00e+00	0	49	0	3652190208	67	4263
2026-01-16 05:23:24.16	270.13	9.82	-48.3	-49.5	18.2	0.00e+00	0	49	0	3657433088	67	4317
2026-01-16 05:23:25.17	270.05	9.74	-48.4	-49.6	18.0	0.00e+00	0	49	0	3663724544	67	4356
2026-01-16 05:23:26.18	269.96	9.67	-48.5	-49.8	17.8	0.00e+00	0	49	0	3670016000	67	4449
2026-01-16 05:23:27.19	269.88	9.59	-49.0	-50.3	17.3	0.00e+00	0	49	0	3675258880	68	4467
2026-01-16 05:23:28.19	269.79	9.51	-49.0	-50.3	17.2	0.00e+00	0	49	0	3680501760	68	4457
2026-01-16 05:23:29.20	269.71	9.44	-49.3	-50.7	16.7	0.00e+00	0	49	0	3686793216	69	4441
2026-01-16 05:23:30.22	269.63	9.36	-49.8	-51.3	16.0	0.00e+00	0	49	0	3692036096	70	4492
