passes_logs/2026/01/16/R3.2S_Murmansk/R3.2S_Murmansk__20260116_041239_SUOMI_NPP_rec.log

#Pass ID: 20260116_041239_SUOMI NPP
#Satellite: SUOMI NPP
#Configuration: NPP
#almurnet v.1.7.20251203
#Start time: 2026-01-16 04:12:39

#Version: 2.2.20231116
#Station: R3.2S_Murmansk
#Location: 33.079688 lon 68.888172 lat
#TLE: 1 37849U 11061A   26015.52691075  .00000052  00000+0  45753-4 0  9993
#TLE: 2 37849  98.7811 317.5709 0002448  62.7632 297.3794 14.19525354736784

#Time	Az	El	Level	Level2	SNR	BER	BlckErr	Temp	State	Recorded	gain1	gain2
2026-01-16 04:12:39.91	48.61	2.05	-56.4	-71.4	3.8	1.49e+00	0	47	0	0	84	20090
2026-01-16 04:12:40.92	48.55	2.11	-56.3	-71.3	3.8	1.49e+00	0	47	104	0	83	21078
2026-01-16 04:12:41.93	48.49	2.17	-56.3	-71.3	3.8	1.49e+00	0	47	104	0	83	21034
2026-01-16 04:12:42.94	48.43	2.22	-56.3	-71.3	3.8	1.49e+00	0	47	104	0	83	21041
2026-01-16 04:12:43.95	48.36	2.28	-56.3	-71.2	3.8	1.49e+00	0	47	104	0	83	20972
2026-01-16 04:12:44.96	48.30	2.34	-56.3	-71.3	3.8	1.49e+00	0	47	104	0	83	21084
2026-01-16 04:12:45.97	48.24	2.40	-56.3	-71.2	3.8	1.49e+00	0	47	104	0	83	21000
2026-01-16 04:12:46.98	48.18	2.46	-56.3	-71.2	3.8	1.49e+00	0	47	104	0	83	21016
2026-01-16 04:12:47.99	48.11	2.52	-56.3	-71.3	3.8	1.49e+00	0	47	104	0	83	21040
2026-01-16 04:12:49.01	48.05	2.58	-56.3	-71.2	3.8	1.49e+00	0	47	104	0	83	20973
2026-01-16 04:12:50.02	47.99	2.64	-56.3	-71.2	3.8	1.49e+00	0	47	104	0	83	21015
2026-01-16 04:12:51.03	47.92	2.70	-56.3	-71.2	3.8	1.49e+00	0	47	104	0	83	20965
2026-01-16 04:12:52.04	47.86	2.75	-56.3	-71.3	3.8	1.49e+00	0	47	104	0	83	21054
2026-01-16 04:12:53.05	47.80	2.81	-56.3	-71.3	3.8	1.49e+00	0	47	104	0	83	21103
2026-01-16 04:12:54.06	47.73	2.87	-56.3	-71.3	3.8	1.49e+00	0	47	104	0	83	21034
2026-01-16 04:12:55.07	47.67	2.93	-56.3	-71.3	3.8	1.49e+00	0	47	104	0	83	21083
2026-01-16 04:12:56.08	47.60	2.99	-56.3	-71.2	3.8	1.49e+00	0	47	104	0	83	20995
2026-01-16 04:12:57.09	47.54	3.05	-56.3	-71.3	3.8	1.49e+00	0	47	104	0	83	21043
2026-01-16 04:12:58.10	47.47	3.11	-56.3	-71.2	3.8	1.49e+00	0	47	104	0	83	20911
2026-01-16 04:12:59.11	47.41	3.17	-56.3	-71.2	3.8	1.49e+00	0	47	104	0	83	21004
2026-01-16 04:13:00.12	47.34	3.23	-56.3	-71.2	3.8	1.49e+00	0	47	104	0	83	20984
2026-01-16 04:13:01.13	47.28	3.29	-56.3	-71.2	3.8	1.49e+00	0	47	104	0	83	20998
2026-01-16 04:13:02.14	47.21	3.35	-56.3	-71.3	3.8	1.49e+00	0	47	104	0	83	21045
2026-01-16 04:13:03.15	47.14	3.41	-56.3	-71.3	3.8	1.49e+00	0	47	104	0	83	21068
2026-01-16 04:13:04.16	47.08	3.47	-56.3	-71.3	3.8	1.49e+00	0	47	104	0	83	21031
2026-01-16 04:13:05.17	47.01	3.53	-56.3	-71.3	3.8	1.49e+00	0	47	104	0	83	21084
2026-01-16 04:13:06.18	46.94	3.59	-56.3	-71.2	3.8	1.49e+00	0	47	104	0	83	20914
2026-01-16 04:13:07.19	46.87	3.65	-56.3	-71.2	3.8	1.49e+00	0	47	104	0	83	20942
2026-01-16 04:13:08.20	46.80	3.71	-56.3	-71.2	3.8	1.49e+00	0	47	104	0	83	20856
2026-01-16 04:13:09.21	46.74	3.77	-56.3	-71.2	3.8	1.49e+00	0	47	104	0	83	20897
2026-01-16 04:13:10.22	46.67	3.83	-56.3	-71.2	3.8	1.49e+00	0	47	104	0	83	20972
2026-01-16 04:13:11.23	46.60	3.90	-56.3	-71.2	3.8	1.49e+00	0	47	104	0	83	20991
2026-01-16 04:13:12.24	46.53	3.96	-56.3	-71.2	3.8	1.49e+00	0	47	104	0	83	20841
2026-01-16 04:13:13.26	46.46	4.02	-56.3	-71.0	3.8	1.49e+00	0	47	104	0	83	20435
2026-01-16 04:13:14.27	46.39	4.08	-56.3	-70.7	3.8	1.49e+00	0	47	104	0	83	19775
2026-01-16 04:13:15.28	46.32	4.14	-56.3	-70.4	3.8	1.49e+00	0	47	104	0	83	18983
2026-01-16 04:13:16.29	46.25	4.20	-56.3	-70.2	3.8	1.49e+00	0	47	104	0	83	18614
2026-01-16 04:13:17.30	46.18	4.26	-56.2	-69.6	3.8	1.49e+00	0	47	104	0	83	17463
2026-01-16 04:13:18.31	46.10	4.32	-56.2	-69.6	3.8	1.49e+00	0	47	104	0	83	17301
2026-01-16 04:13:19.32	46.03	4.39	-56.2	-68.6	3.9	1.49e+00	0	47	104	0	83	15564
2026-01-16 04:13:20.33	45.96	4.45	-56.2	-68.6	3.9	1.47e+00	0	47	104	0	83	15579
2026-01-16 04:13:21.34	45.89	4.51	-56.1	-67.3	4.3	1.38e+00	0	47	0	0	83	13317
2026-01-16 04:13:22.35	45.82	4.57	-56.0	-66.4	4.7	9.40e-01	0	47	0	1048576	83	12002
2026-01-16 04:13:23.36	45.74	4.63	-55.9	-65.4	5.2	7.17e-01	0	47	0	3145728	83	10691
2026-01-16 04:13:24.37	45.67	4.70	-55.6	-63.8	6.3	3.52e-01	0	47	0	5242880	83	8879
2026-01-16 04:13:25.38	45.60	4.76	-55.6	-63.9	6.2	2.90e-01	0	47	0	7340032	83	8982
2026-01-16 04:13:26.39	45.52	4.82	-55.5	-62.9	7.2	1.83e-01	0	47	0	8388608	82	8477
2026-01-16 04:13:27.40	45.45	4.88	-55.5	-63.0	7.0	2.08e-01	0	47	0	10485760	82	8612
2026-01-16 04:13:28.41	45.37	4.95	-55.5	-63.1	6.9	1.56e-01	0	47	0	12582912	82	8694
2026-01-16 04:13:29.42	45.30	5.01	-55.5	-63.1	6.9	1.26e-01	0	48	0	14680064	82	8711
2026-01-16 04:13:30.43	45.22	5.07	-55.5	-63.2	6.8	1.76e-01	0	47	0	16777216	82	8847
2026-01-16 04:13:31.44	45.15	5.13	-54.8	-60.0	9.9	1.14e-01	0	47	0	17825792	81	6466
2026-01-16 04:13:32.45	45.07	5.20	-55.2	-61.3	9.1	6.79e-05	0	47	0	19922944	80	7972
2026-01-16 04:13:33.46	45.00	5.26	-55.7	-64.0	6.0	1.20e+00	0	47	0	20971520	82	9615
2026-01-16 04:13:34.47	44.92	5.32	-53.7	-57.2	13.1	3.14e-03	0	47	0	23068672	79	5255
2026-01-16 04:13:35.48	44.84	5.39	-54.6	-59.5	10.6	2.66e-02	0	47	0	25165824	81	6098
2026-01-16 04:13:36.49	44.77	5.45	-53.8	-57.6	12.9	5.11e-05	0	48	0	27262976	79	5472
2026-01-16 04:13:37.50	44.69	5.51	-54.1	-58.0	12.5	9.46e-05	0	48	0	29360128	79	5751
2026-01-16 04:13:38.51	44.61	5.58	-53.6	-57.0	13.4	7.09e-05	0	47	0	30408704	78	5454
2026-01-16 04:13:39.52	44.53	5.64	-53.6	-57.0	13.5	2.20e-06	0	47	0	32505856	78	5451
2026-01-16 04:13:40.53	44.45	5.70	-53.3	-56.5	14.0	5.30e-06	0	48	0	34603008	78	5109
2026-01-16 04:13:41.54	44.37	5.77	-53.2	-56.3	14.2	0.00e+00	0	47	0	36700160	78	5019
2026-01-16 04:13:42.55	44.29	5.83	-52.7	-55.4	15.1	7.00e-07	0	48	0	38797312	77	4806
2026-01-16 04:13:43.56	44.21	5.90	-53.1	-56.1	14.6	0.00e+00	0	48	0	39845888	77	5165
2026-01-16 04:13:44.57	44.13	5.96	-52.8	-55.6	15.0	0.00e+00	0	48	0	41943040	77	4885
2026-01-16 04:13:45.58	44.05	6.03	-52.8	-55.6	15.0	0.00e+00	0	48	0	44040192	77	4904
2026-01-16 04:13:46.59	43.97	6.09	-52.8	-55.7	15.0	0.00e+00	0	48	0	46137344	77	4928
2026-01-16 04:13:47.60	43.89	6.15	-52.9	-55.7	14.9	0.00e+00	0	48	0	48234496	77	4951
2026-01-16 04:13:48.61	43.81	6.22	-52.6	-55.3	15.3	0.00e+00	0	48	0	49283072	77	4739
2026-01-16 04:13:49.62	43.73	6.28	-52.8	-55.6	15.0	0.00e+00	0	48	0	51380224	77	4911
2026-01-16 04:13:50.63	43.65	6.35	-52.8	-55.6	15.1	0.00e+00	0	48	0	53477376	77	4881
2026-01-16 04:13:51.64	43.56	6.41	-52.9	-55.8	14.8	2.20e-06	0	48	0	55574528	77	5006
2026-01-16 04:13:52.65	43.48	6.48	-53.2	-56.3	14.5	7.00e-07	0	47	0	57671680	77	5300
2026-01-16 04:13:53.66	43.40	6.54	-52.4	-55.0	15.7	0.00e+00	0	48	0	59768832	76	4834
2026-01-16 04:13:54.66	43.31	6.61	-52.9	-55.7	15.0	0.00e+00	0	48	0	60817408	76	5276
2026-01-16 04:13:55.68	43.23	6.67	-53.0	-55.9	14.7	7.00e-07	0	48	0	62914560	76	5372
2026-01-16 04:13:56.68	43.14	6.74	-52.8	-55.6	15.1	0.00e+00	0	48	0	65011712	76	5169
2026-01-16 04:13:57.69	43.06	6.80	-52.7	-55.4	15.3	0.00e+00	0	48	0	67108864	76	5099
2026-01-16 04:13:58.70	42.97	6.87	-52.8	-55.6	15.2	0.00e+00	0	48	0	68157440	76	5165
2026-01-16 04:13:59.71	42.89	6.94	-52.5	-55.0	15.7	0.00e+00	0	48	0	70254592	76	4863
2026-01-16 04:14:00.72	42.80	7.00	-52.9	-55.6	15.2	0.00e+00	0	48	0	72351744	76	5179
2026-01-16 04:14:01.73	42.71	7.07	-52.7	-55.4	15.4	0.00e+00	0	48	0	74448896	76	5063
2026-01-16 04:14:02.74	42.63	7.13	-52.9	-55.7	15.1	0.00e+00	0	48	0	76546048	76	5226
2026-01-16 04:14:03.75	42.54	7.20	-52.9	-55.6	15.2	0.00e+00	0	48	0	78643200	76	5190
2026-01-16 04:14:04.76	42.45	7.27	-53.0	-55.8	15.0	0.00e+00	0	48	0	79691776	76	5299
2026-01-16 04:14:05.77	42.36	7.33	-53.0	-55.8	15.0	0.00e+00	0	48	0	81788928	76	5335
2026-01-16 04:14:06.78	42.27	7.40	-53.1	-55.9	14.9	0.00e+00	0	48	0	83886080	76	5356
2026-01-16 04:14:07.79	42.18	7.47	-53.1	-56.0	14.9	7.00e-07	0	48	0	85983232	76	5420
2026-01-16 04:14:08.80	42.10	7.53	-53.2	-56.1	14.8	0.00e+00	0	48	0	88080384	77	5189
2026-01-16 04:14:09.81	42.01	7.60	-53.3	-56.3	14.5	0.00e+00	0	48	0	90177536	77	5323
2026-01-16 04:14:10.82	41.91	7.67	-53.3	-56.2	14.6	0.00e+00	0	48	0	91226112	77	5237
2026-01-16 04:14:11.83	41.82	7.73	-53.0	-55.7	15.2	0.00e+00	0	48	0	93323264	77	4943
2026-01-16 04:14:12.84	41.73	7.80	-52.9	-55.6	15.2	0.00e+00	0	48	0	95420416	77	4898
2026-01-16 04:14:13.85	41.64	7.87	-53.1	-55.9	15.0	0.00e+00	0	48	0	97517568	77	5075
2026-01-16 04:14:14.86	41.55	7.93	-52.9	-55.6	15.2	0.00e+00	0	48	0	98566144	77	4925
2026-01-16 04:14:15.86	41.46	8.00	-52.9	-55.6	15.1	0.00e+00	0	48	0	100663296	77	4883
2026-01-16 04:14:16.87	41.36	8.07	-52.9	-55.5	15.4	0.00e+00	0	48	0	102760448	77	4854
2026-01-16 04:14:17.88	41.27	8.14	-52.9	-55.6	15.2	0.00e+00	0	48	0	104857600	77	4922
2026-01-16 04:14:18.89	41.18	8.20	-53.3	-56.2	14.6	0.00e+00	0	48	0	106954752	77	5263
2026-01-16 04:14:19.90	41.08	8.27	-53.3	-56.2	14.7	0.00e+00	0	48	0	108003328	77	5235
2026-01-16 04:14:20.91	40.99	8.34	-53.5	-56.6	14.2	0.00e+00	0	48	0	110100480	77	5511
2026-01-16 04:14:21.92	40.89	8.41	-53.6	-56.9	14.1	2.20e-06	0	48	0	112197632	77	5673
2026-01-16 04:14:22.93	40.79	8.48	-53.3	-56.4	14.5	0.00e+00	0	48	0	114294784	77	5355
2026-01-16 04:14:23.94	40.70	8.54	-53.3	-56.3	14.7	0.00e+00	0	48	0	116391936	77	5290
2026-01-16 04:14:24.95	40.60	8.61	-53.1	-55.9	14.9	0.00e+00	0	48	0	118489088	77	5098
2026-01-16 04:14:25.96	40.50	8.68	-52.9	-55.6	15.2	0.00e+00	0	48	0	119537664	77	4914
2026-01-16 04:14:26.97	40.41	8.75	-52.8	-55.5	15.4	0.00e+00	0	48	0	121634816	77	4826
2026-01-16 04:14:27.98	40.31	8.82	-52.7	-55.4	15.6	0.00e+00	0	48	0	123731968	77	4762
2026-01-16 04:14:28.99	40.21	8.89	-52.6	-55.1	15.8	0.00e+00	0	48	0	125829120	77	4617
2026-01-16 04:14:30.00	40.11	8.96	-52.7	-55.3	15.6	0.00e+00	0	48	0	126877696	77	4758
2026-01-16 04:14:31.01	40.01	9.03	-52.7	-55.2	15.7	0.00e+00	0	48	0	128974848	77	4689
2026-01-16 04:14:32.02	39.91	9.09	-52.9	-55.6	15.4	0.00e+00	0	48	0	131072000	77	4900
2026-01-16 04:14:33.02	39.81	9.16	-52.7	-55.3	15.7	0.00e+00	0	48	0	133169152	77	4727
2026-01-16 04:14:34.03	39.71	9.23	-52.7	-55.3	15.7	0.00e+00	0	48	0	135266304	77	4746
2026-01-16 04:14:35.04	39.61	9.30	-52.6	-55.1	15.9	0.00e+00	0	48	0	137363456	76	4888
2026-01-16 04:14:36.05	39.51	9.37	-52.4	-54.8	16.2	0.00e+00	0	48	0	138412032	76	4713
2026-01-16 04:14:37.06	39.40	9.44	-52.2	-54.5	16.4	0.00e+00	0	48	0	140509184	76	4597
2026-01-16 04:14:38.07	39.30	9.51	-52.3	-54.7	16.3	0.00e+00	0	48	0	142606336	76	4671
2026-01-16 04:14:39.09	39.19	9.58	-52.5	-54.9	16.1	0.00e+00	0	48	0	144703488	76	4798
2026-01-16 04:14:40.09	39.09	9.65	-52.5	-55.0	16.0	0.00e+00	0	48	0	146800640	76	4826
2026-01-16 04:14:41.10	38.99	9.72	-52.2	-54.5	16.5	0.00e+00	0	48	0	147849216	76	4553
2026-01-16 04:14:42.11	38.88	9.79	-52.1	-54.4	16.6	0.00e+00	0	48	0	149946368	76	4519
2026-01-16 04:14:43.12	38.78	9.86	-52.3	-54.6	16.4	0.00e+00	0	48	0	152043520	76	4633
2026-01-16 04:14:44.13	38.67	9.93	-52.2	-54.5	16.5	0.00e+00	0	48	0	154140672	76	4581
2026-01-16 04:14:45.14	38.56	10.00	-52.0	-54.3	16.7	0.00e+00	0	48	0	156237824	76	4443
2026-01-16 04:14:46.14	38.46	10.07	-52.2	-54.4	16.6	0.00e+00	0	48	0	157286400	76	4529
2026-01-16 04:14:47.16	38.35	10.14	-51.9	-54.1	16.9	0.00e+00	0	48	0	159383552	75	4619
2026-01-16 04:14:48.16	38.24	10.21	-51.9	-54.1	16.9	0.00e+00	0	48	0	161480704	75	4633
2026-01-16 04:14:49.17	38.13	10.28	-51.9	-54.1	17.0	0.00e+00	0	48	0	163577856	75	4604
2026-01-16 04:14:50.18	38.02	10.36	-51.9	-54.1	16.9	0.00e+00	0	48	0	165675008	75	4621
2026-01-16 04:14:51.19	37.91	10.43	-52.0	-54.2	16.8	0.00e+00	0	48	0	166723584	75	4670
2026-01-16 04:14:52.20	37.80	10.50	-52.1	-54.3	16.7	0.00e+00	0	48	0	168820736	75	4740
2026-01-16 04:14:53.22	37.69	10.57	-52.2	-54.4	16.6	0.00e+00	0	48	0	170917888	75	4806
2026-01-16 04:14:54.22	37.58	10.64	-52.2	-54.5	16.6	0.00e+00	0	48	0	173015040	75	4822
2026-01-16 04:14:55.23	37.47	10.71	-52.2	-54.4	16.6	0.00e+00	0	48	0	175112192	75	4788
2026-01-16 04:14:56.24	37.35	10.78	-52.1	-54.3	16.7	0.00e+00	0	48	0	176160768	75	4732
2026-01-16 04:14:57.25	37.24	10.86	-51.9	-54.0	17.0	0.00e+00	0	48	0	178257920	75	4571
2026-01-16 04:14:58.26	37.12	10.93	-52.0	-54.2	16.9	0.00e+00	0	48	0	180355072	75	4681
2026-01-16 04:14:59.27	37.01	11.00	-52.1	-54.3	16.8	0.00e+00	0	48	0	182452224	75	4746
2026-01-16 04:15:00.28	36.89	11.07	-52.3	-54.6	16.6	0.00e+00	0	48	0	184549376	75	4874
2026-01-16 04:15:01.29	36.78	11.14	-52.3	-54.6	16.5	0.00e+00	0	48	0	185597952	75	4881
2026-01-16 04:15:02.30	36.66	11.22	-52.2	-54.4	16.7	0.00e+00	0	48	0	187695104	75	4786
2026-01-16 04:15:03.31	36.55	11.29	-52.1	-54.3	16.8	0.00e+00	0	48	0	189792256	75	4720
2026-01-16 04:15:04.32	36.43	11.36	-52.1	-54.3	16.8	0.00e+00	0	48	0	191889408	75	4722
2026-01-16 04:15:05.33	36.31	11.43	-52.1	-54.2	16.9	0.00e+00	0	48	0	193986560	75	4695
2026-01-16 04:15:06.34	36.19	11.50	-52.2	-54.4	16.6	0.00e+00	0	48	0	196083712	75	4809
2026-01-16 04:15:07.35	36.07	11.58	-52.1	-54.3	16.7	0.00e+00	0	48	0	197132288	75	4752
2026-01-16 04:15:08.36	35.95	11.65	-52.3	-54.5	16.6	0.00e+00	0	48	0	199229440	75	4860
2026-01-16 04:15:09.37	35.83	11.72	-52.2	-54.4	16.7	0.00e+00	0	48	0	201326592	75	4763
2026-01-16 04:15:10.38	35.71	11.80	-52.2	-54.4	16.6	0.00e+00	0	48	0	203423744	75	4814
2026-01-16 04:15:11.39	35.59	11.87	-52.3	-54.6	16.5	0.00e+00	0	48	0	204472320	75	4907
2026-01-16 04:15:12.40	35.47	11.94	-52.3	-54.6	16.5	0.00e+00	0	48	0	206569472	75	4884
2026-01-16 04:15:13.41	35.34	12.02	-52.6	-55.0	16.1	0.00e+00	0	48	0	208666624	75	5142
2026-01-16 04:15:14.42	35.22	12.09	-52.6	-55.1	16.0	0.00e+00	0	48	0	210763776	75	5167
2026-01-16 04:15:15.43	35.09	12.16	-52.5	-54.9	16.2	0.00e+00	0	48	0	212860928	75	5075
2026-01-16 04:15:16.44	34.97	12.24	-52.4	-54.7	16.4	0.00e+00	0	48	0	214958080	75	4955
2026-01-16 04:15:17.45	34.84	12.31	-52.3	-54.6	16.6	0.00e+00	0	48	0	216006656	75	4878
2026-01-16 04:15:18.46	34.72	12.38	-52.1	-54.2	16.8	0.00e+00	0	48	0	218103808	75	4698
2026-01-16 04:15:19.47	34.59	12.46	-52.1	-54.2	16.9	0.00e+00	0	49	0	220200960	75	4659
2026-01-16 04:15:20.48	34.46	12.53	-52.1	-54.2	16.8	0.00e+00	0	48	0	222298112	75	4684
2026-01-16 04:15:21.49	34.34	12.60	-51.8	-53.8	17.3	0.00e+00	0	48	0	224395264	75	4467
2026-01-16 04:15:22.50	34.21	12.68	-51.9	-53.9	17.2	0.00e+00	0	48	0	225443840	75	4529
2026-01-16 04:15:23.51	34.08	12.75	-51.8	-53.8	17.3	0.00e+00	0	48	0	227540992	75	4481
2026-01-16 04:15:24.51	33.95	12.82	-51.5	-53.4	17.7	0.00e+00	0	48	0	229638144	75	4257
2026-01-16 04:15:25.52	33.82	12.90	-51.5	-53.3	17.8	0.00e+00	0	48	0	231735296	74	4486
2026-01-16 04:15:26.53	33.69	12.97	-51.3	-53.1	17.9	0.00e+00	0	48	0	233832448	74	4391
2026-01-16 04:15:27.54	33.55	13.05	-51.3	-53.1	18.1	0.00e+00	0	48	0	234881024	74	4348
2026-01-16 04:15:28.55	33.42	13.12	-51.1	-52.9	18.3	0.00e+00	0	48	0	236978176	74	4250
2026-01-16 04:15:29.56	33.29	13.20	-51.1	-52.8	18.3	0.00e+00	0	48	0	239075328	74	4234
2026-01-16 04:15:30.57	33.15	13.27	-51.3	-53.1	18.0	0.00e+00	0	48	0	241172480	74	4364
2026-01-16 04:15:31.58	33.02	13.35	-51.2	-53.0	18.1	0.00e+00	0	48	0	243269632	74	4310
2026-01-16 04:15:32.59	32.88	13.42	-51.3	-53.2	18.0	0.00e+00	0	48	0	244318208	74	4392
2026-01-16 04:15:33.60	32.75	13.49	-51.1	-52.9	18.2	0.00e+00	0	48	0	246415360	74	4253
2026-01-16 04:15:34.61	32.61	13.57	-51.1	-52.9	18.2	0.00e+00	0	49	0	248512512	74	4268
2026-01-16 04:15:35.62	32.47	13.64	-51.2	-52.9	18.2	0.00e+00	0	48	0	250609664	74	4281
2026-01-16 04:15:36.64	32.33	13.72	-51.2	-53.0	18.1	0.00e+00	0	49	0	252706816	74	4311
2026-01-16 04:15:37.64	32.19	13.79	-51.3	-53.1	18.1	0.00e+00	0	48	0	254803968	74	4353
2026-01-16 04:15:38.65	32.05	13.87	-51.2	-53.0	18.2	0.00e+00	0	48	0	255852544	74	4296
2026-01-16 04:15:39.66	31.91	13.94	-51.2	-53.1	18.1	0.00e+00	0	48	0	257949696	74	4341
2026-01-16 04:15:40.67	31.77	14.02	-51.4	-53.3	17.8	0.00e+00	0	48	0	260046848	74	4462
2026-01-16 04:15:41.68	31.63	14.09	-51.4	-53.2	18.0	0.00e+00	0	49	0	262144000	74	4427
2026-01-16 04:15:42.69	31.49	14.17	-51.3	-53.1	18.1	0.00e+00	0	48	0	263192576	74	4350
2026-01-16 04:15:43.70	31.34	14.25	-51.3	-53.1	18.1	0.00e+00	0	49	0	265289728	74	4348
2026-01-16 04:15:44.71	31.20	14.32	-51.3	-53.1	18.1	0.00e+00	0	48	0	267386880	74	4368
2026-01-16 04:15:45.72	31.05	14.40	-51.1	-52.9	18.3	0.00e+00	0	49	0	269484032	74	4253
2026-01-16 04:15:46.73	30.91	14.47	-51.0	-52.7	18.4	0.00e+00	0	49	0	271581184	73	4418
2026-01-16 04:15:47.74	30.76	14.55	-51.2	-53.0	18.2	0.00e+00	0	48	0	273678336	73	4570
2026-01-16 04:15:48.75	30.61	14.62	-51.2	-53.0	18.1	0.00e+00	0	49	0	274726912	73	4562
2026-01-16 04:15:49.76	30.46	14.70	-51.2	-53.0	18.2	0.00e+00	0	48	0	276824064	73	4554
2026-01-16 04:15:50.77	30.32	14.77	-51.2	-53.0	18.2	0.00e+00	0	48	0	278921216	73	4551
2026-01-16 04:15:51.78	30.17	14.85	-51.3	-53.1	18.0	0.00e+00	0	48	0	281018368	73	4639
2026-01-16 04:15:52.79	30.02	14.92	-51.1	-52.9	18.3	0.00e+00	0	48	0	283115520	73	4508
2026-01-16 04:15:53.80	29.86	15.00	-51.1	-52.8	18.3	0.00e+00	0	49	0	284164096	73	4478
2026-01-16 04:15:54.81	29.71	15.08	-51.0	-52.7	18.5	0.00e+00	0	48	0	286261248	73	4408
2026-01-16 04:15:55.82	29.56	15.15	-51.0	-52.7	18.4	0.00e+00	0	48	0	288358400	73	4425
2026-01-16 04:15:56.83	29.41	15.23	-51.0	-52.7	18.3	0.00e+00	0	49	0	290455552	73	4434
2026-01-16 04:15:57.84	29.25	15.30	-51.3	-53.1	18.0	0.00e+00	0	48	0	292552704	73	4646
2026-01-16 04:15:58.85	29.10	15.38	-51.5	-53.5	17.6	0.00e+00	0	48	0	293601280	73	4854
2026-01-16 04:15:59.85	28.94	15.45	-51.6	-53.7	17.5	0.00e+00	0	48	0	295698432	73	4931
2026-01-16 04:16:00.87	28.78	15.53	-51.6	-53.5	17.6	0.00e+00	0	48	0	297795584	73	4865
2026-01-16 04:16:01.88	28.63	15.61	-51.6	-53.6	17.5	0.00e+00	0	48	0	299892736	73	4921
2026-01-16 04:16:02.89	28.47	15.68	-51.6	-53.6	17.7	0.00e+00	0	49	0	301989888	73	4871
2026-01-16 04:16:03.89	28.31	15.76	-51.6	-53.6	17.5	0.00e+00	0	49	0	303038464	73	4917
2026-01-16 04:16:04.90	28.15	15.83	-51.7	-53.7	17.4	0.00e+00	0	48	0	305135616	74	4690
2026-01-16 04:16:05.91	27.99	15.91	-51.9	-54.0	17.3	0.00e+00	0	48	0	307232768	74	4817
2026-01-16 04:16:06.92	27.83	15.99	-52.0	-54.1	17.1	0.00e+00	0	49	0	309329920	74	4910
2026-01-16 04:16:07.93	27.66	16.06	-52.0	-54.2	17.1	0.00e+00	0	49	0	311427072	74	4941
2026-01-16 04:16:08.94	27.50	16.14	-51.8	-53.8	17.4	0.00e+00	0	49	0	312475648	74	4750
2026-01-16 04:16:09.95	27.34	16.21	-51.8	-53.8	17.5	0.00e+00	0	49	0	314572800	74	4728
2026-01-16 04:16:10.96	27.17	16.29	-51.6	-53.6	17.6	0.00e+00	0	49	0	316669952	74	4615
2026-01-16 04:16:11.97	27.00	16.37	-51.6	-53.5	17.7	0.00e+00	0	48	0	318767104	74	4584
2026-01-16 04:16:12.98	26.84	16.44	-51.7	-53.7	17.6	0.00e+00	0	48	0	320864256	74	4693
2026-01-16 04:16:13.99	26.67	16.52	-51.9	-54.0	17.3	0.00e+00	0	49	0	321912832	74	4824
2026-01-16 04:16:15.00	26.50	16.59	-51.9	-53.9	17.3	0.00e+00	0	49	0	324009984	74	4813
2026-01-16 04:16:16.01	26.33	16.67	-51.8	-53.8	17.4	0.00e+00	0	48	0	326107136	74	4719
2026-01-16 04:16:17.02	26.16	16.75	-51.8	-53.8	17.5	0.00e+00	0	48	0	328204288	74	4746
2026-01-16 04:16:18.03	25.99	16.82	-51.8	-53.7	17.5	0.00e+00	0	49	0	330301440	74	4686
2026-01-16 04:16:19.04	25.82	16.90	-51.8	-53.8	17.4	0.00e+00	0	49	0	332398592	74	4738
2026-01-16 04:16:20.05	25.65	16.97	-51.7	-53.7	17.5	0.00e+00	0	49	0	333447168	74	4669
2026-01-16 04:16:21.06	25.47	17.05	-51.8	-53.8	17.4	0.00e+00	0	49	0	335544320	74	4716
2026-01-16 04:16:22.07	25.30	17.12	-51.7	-53.7	17.5	0.00e+00	0	49	0	337641472	74	4692
2026-01-16 04:16:23.08	25.12	17.20	-51.7	-53.7	17.5	0.00e+00	0	49	0	339738624	74	4676
2026-01-16 04:16:24.09	24.94	17.27	-51.8	-53.8	17.4	0.00e+00	0	49	0	340787200	74	4744
2026-01-16 04:16:25.10	24.77	17.35	-51.7	-53.7	17.5	0.00e+00	0	49	0	342884352	74	4687
2026-01-16 04:16:26.11	24.59	17.43	-51.4	-53.2	17.9	0.00e+00	0	49	0	344981504	74	4439
2026-01-16 04:16:27.12	24.41	17.50	-51.2	-53.0	18.2	0.00e+00	0	49	0	347078656	74	4335
2026-01-16 04:16:28.13	24.23	17.58	-51.4	-53.2	18.0	0.00e+00	0	48	0	349175808	74	4439
2026-01-16 04:16:29.14	24.05	17.65	-51.6	-53.5	17.8	0.00e+00	0	49	0	351272960	74	4572
2026-01-16 04:16:30.15	23.87	17.73	-51.8	-53.8	17.5	0.00e+00	0	49	0	352321536	74	4729
2026-01-16 04:16:31.16	23.68	17.80	-51.7	-53.7	17.6	0.00e+00	0	49	0	354418688	74	4654
2026-01-16 04:16:32.17	23.50	17.88	-51.7	-53.6	17.6	0.00e+00	0	49	0	356515840	74	4651
2026-01-16 04:16:33.17	23.32	17.95	-51.7	-53.7	17.5	0.00e+00	0	49	0	358612992	74	4688
2026-01-16 04:16:34.18	23.13	18.03	-51.6	-53.5	17.7	0.00e+00	0	49	0	360710144	74	4589
2026-01-16 04:16:35.19	22.94	18.10	-51.5	-53.4	17.9	0.00e+00	0	48	0	361758720	74	4514
2026-01-16 04:16:36.20	22.76	18.18	-51.5	-53.4	17.9	0.00e+00	0	48	0	363855872	74	4513
2026-01-16 04:16:37.21	22.57	18.25	-51.5	-53.4	17.9	0.00e+00	0	49	0	365953024	74	4508
2026-01-16 04:16:38.22	22.38	18.33	-51.4	-53.2	18.1	0.00e+00	0	48	0	368050176	74	4413
2026-01-16 04:16:39.23	22.19	18.40	-51.4	-53.3	18.0	0.00e+00	0	49	0	370147328	74	4449
2026-01-16 04:16:40.24	22.00	18.47	-51.6	-53.5	17.9	0.00e+00	0	49	0	371195904	74	4555
2026-01-16 04:16:41.25	21.81	18.55	-51.5	-53.4	17.9	0.00e+00	0	48	0	373293056	74	4495
2026-01-16 04:16:42.26	21.61	18.62	-51.3	-53.2	18.2	0.00e+00	0	49	0	375390208	74	4393
2026-01-16 04:16:43.27	21.42	18.70	-51.5	-53.4	17.9	0.00e+00	0	49	0	377487360	74	4538
2026-01-16 04:16:44.28	21.22	18.77	-51.6	-53.5	17.8	0.00e+00	0	48	0	379584512	74	4562
2026-01-16 04:16:45.29	21.03	18.84	-52.0	-54.1	17.3	0.00e+00	0	49	0	380633088	74	4888
2026-01-16 04:16:46.30	20.83	18.92	-51.8	-53.9	17.5	0.00e+00	0	48	0	382730240	74	4764
2026-01-16 04:16:47.31	20.63	18.99	-51.7	-53.6	17.7	0.00e+00	0	49	0	384827392	74	4622
2026-01-16 04:16:48.32	20.43	19.06	-51.5	-53.4	17.9	0.00e+00	0	49	0	386924544	74	4520
2026-01-16 04:16:49.33	20.23	19.14	-51.3	-53.1	18.2	0.00e+00	0	48	0	389021696	74	4354
2026-01-16 04:16:50.34	20.03	19.21	-51.6	-53.5	17.9	0.00e+00	0	49	0	391118848	74	4562
2026-01-16 04:16:51.35	19.83	19.28	-51.4	-53.2	18.1	0.00e+00	0	49	0	392167424	74	4422
2026-01-16 04:16:52.36	19.63	19.36	-51.3	-53.1	18.2	0.00e+00	0	49	0	394264576	74	4382
2026-01-16 04:16:53.37	19.42	19.43	-51.2	-53.0	18.3	0.00e+00	0	48	0	396361728	74	4314
2026-01-16 04:16:54.38	19.22	19.50	-51.1	-52.8	18.5	0.00e+00	0	48	0	398458880	74	4240
2026-01-16 04:16:55.39	19.01	19.57	-50.8	-52.5	18.8	0.00e+00	0	49	0	399507456	73	4327
2026-01-16 04:16:56.39	18.81	19.64	-50.6	-52.2	19.0	0.00e+00	0	49	0	401604608	73	4172
2026-01-16 04:16:57.41	18.60	19.72	-50.6	-52.3	18.9	0.00e+00	0	49	0	403701760	73	4225
2026-01-16 04:16:58.41	18.39	19.79	-50.8	-52.5	18.7	0.00e+00	0	49	0	405798912	73	4336
2026-01-16 04:16:59.42	18.18	19.86	-50.8	-52.6	18.6	0.00e+00	0	49	0	407896064	73	4368
2026-01-16 04:17:00.43	17.97	19.93	-50.8	-52.6	18.7	0.00e+00	0	48	0	409993216	73	4349
2026-01-16 04:17:01.44	17.76	20.00	-50.5	-52.1	19.2	0.00e+00	0	48	0	411041792	72	4347
2026-01-16 04:17:02.45	17.55	20.07	-50.1	-51.6	19.6	0.00e+00	0	49	0	413138944	72	4099
2026-01-16 04:17:03.46	17.33	20.14	-50.0	-51.5	19.8	0.00e+00	0	49	0	415236096	71	4310
2026-01-16 04:17:04.47	17.12	20.21	-50.0	-51.5	19.8	0.00e+00	0	49	0	417333248	71	4305
2026-01-16 04:17:05.48	16.90	20.28	-50.1	-51.6	19.7	0.00e+00	0	49	0	419430400	71	4359
2026-01-16 04:17:06.49	16.68	20.35	-50.2	-51.7	19.6	0.00e+00	0	49	0	420478976	71	4410
2026-01-16 04:17:07.49	16.47	20.42	-50.2	-51.7	19.6	0.00e+00	0	49	0	422576128	71	4407
2026-01-16 04:17:08.50	16.25	20.49	-50.1	-51.6	19.7	0.00e+00	0	49	0	424673280	71	4373
2026-01-16 04:17:09.52	16.03	20.56	-50.2	-51.7	19.6	0.00e+00	0	49	0	426770432	71	4423
2026-01-16 04:17:10.52	15.81	20.63	-50.1	-51.6	19.7	0.00e+00	0	48	0	428867584	71	4355
2026-01-16 04:17:11.53	15.59	20.70	-50.0	-51.5	19.8	0.00e+00	0	49	0	429916160	71	4303
2026-01-16 04:17:12.54	15.36	20.77	-50.2	-51.7	19.6	0.00e+00	0	48	0	432013312	71	4400
2026-01-16 04:17:13.55	15.14	20.83	-50.3	-51.9	19.4	0.00e+00	0	49	0	434110464	71	4511
2026-01-16 04:17:14.56	14.92	20.90	-50.3	-51.9	19.4	0.00e+00	0	49	0	436207616	71	4511
2026-01-16 04:17:15.57	14.69	20.97	-50.1	-51.6	19.7	0.00e+00	0	48	0	438304768	71	4360
2026-01-16 04:17:16.58	14.46	21.04	-49.9	-51.3	20.0	0.00e+00	0	49	0	439353344	71	4199
2026-01-16 04:17:17.58	14.24	21.10	-49.9	-51.3	20.0	0.00e+00	0	49	0	441450496	71	4215
2026-01-16 04:17:18.59	14.01	21.17	-50.0	-51.5	19.8	0.00e+00	0	48	0	443547648	71	4304
2026-01-16 04:17:19.60	13.78	21.23	-50.0	-51.5	19.8	0.00e+00	0	49	0	445644800	71	4319
2026-01-16 04:17:20.61	13.55	21.30	-50.0	-51.4	19.9	0.00e+00	0	49	0	447741952	71	4272
2026-01-16 04:17:21.61	13.32	21.37	-50.0	-51.4	19.8	0.00e+00	0	49	0	448790528	71	4279
2026-01-16 04:17:22.62	13.09	21.43	-49.9	-51.3	19.9	0.00e+00	0	49	0	450887680	71	4239
2026-01-16 04:17:23.63	12.85	21.50	-49.9	-51.4	19.9	0.00e+00	0	49	0	452984832	71	4250
2026-01-16 04:17:24.64	12.62	21.56	-49.7	-51.2	20.1	0.00e+00	0	49	0	455081984	71	4151
2026-01-16 04:17:25.65	12.38	21.62	-49.7	-51.2	20.1	0.00e+00	0	49	0	457179136	71	4156
2026-01-16 04:17:26.66	12.15	21.69	-49.8	-51.2	20.1	0.00e+00	0	49	0	458227712	71	4168
2026-01-16 04:17:27.66	11.91	21.75	-49.9	-51.3	20.0	0.00e+00	0	49	0	460324864	71	4233
2026-01-16 04:17:28.67	11.67	21.81	-49.8	-51.2	20.0	0.00e+00	0	49	0	462422016	71	4179
2026-01-16 04:17:29.68	11.43	21.88	-49.5	-50.9	20.4	0.00e+00	0	49	0	464519168	71	4021
2026-01-16 04:17:30.69	11.19	21.94	-49.4	-50.8	20.5	0.00e+00	0	49	0	466616320	70	4204
2026-01-16 04:17:31.70	10.95	22.00	-49.4	-50.7	20.5	0.00e+00	0	48	0	467664896	70	4180
2026-01-16 04:17:32.71	10.71	22.06	-49.6	-50.9	20.4	0.00e+00	0	49	0	469762048	70	4258
2026-01-16 04:17:33.72	10.46	22.12	-49.6	-50.9	20.4	0.00e+00	0	49	0	471859200	70	4277
2026-01-16 04:17:34.73	10.22	22.18	-49.7	-51.0	20.3	0.00e+00	0	49	0	473956352	70	4327
2026-01-16 04:17:35.73	9.98	22.24	-49.6	-50.9	20.4	0.00e+00	0	49	0	476053504	70	4265
2026-01-16 04:17:36.74	9.73	22.30	-49.4	-50.8	20.5	0.00e+00	0	49	0	477102080	70	4199
2026-01-16 04:17:37.75	9.48	22.36	-49.5	-50.8	20.5	0.00e+00	0	49	0	479199232	70	4239
2026-01-16 04:17:38.76	9.24	22.42	-49.4	-50.7	20.6	0.00e+00	0	49	0	481296384	70	4184
2026-01-16 04:17:39.77	8.99	22.48	-49.5	-50.8	20.5	0.00e+00	0	49	0	483393536	70	4224
2026-01-16 04:17:40.78	8.74	22.54	-49.5	-50.8	20.5	0.00e+00	0	49	0	485490688	70	4205
2026-01-16 04:17:41.79	8.48	22.60	-49.5	-50.8	20.5	0.00e+00	0	49	0	486539264	70	4226
2026-01-16 04:17:42.80	8.23	22.65	-49.6	-50.9	20.4	0.00e+00	0	49	0	488636416	70	4260
2026-01-16 04:17:43.81	7.98	22.71	-49.2	-50.5	20.8	0.00e+00	0	49	0	490733568	70	4077
2026-01-16 04:17:44.81	7.73	22.77	-49.1	-50.4	20.9	0.00e+00	0	49	0	492830720	70	4010
2026-01-16 04:17:45.82	7.47	22.82	-49.3	-50.6	20.7	0.00e+00	0	49	0	494927872	70	4105
2026-01-16 04:17:46.83	7.22	22.88	-49.5	-50.8	20.5	0.00e+00	0	49	0	497025024	70	4208
2026-01-16 04:17:47.84	6.96	22.93	-49.5	-50.8	20.5	0.00e+00	0	49	0	498073600	70	4220
2026-01-16 04:17:48.85	6.70	22.99	-49.4	-50.7	20.6	0.00e+00	0	49	0	500170752	70	4153
2026-01-16 04:17:49.86	6.44	23.04	-49.5	-50.8	20.6	0.00e+00	0	49	0	502267904	70	4227
2026-01-16 04:17:50.87	6.19	23.09	-49.6	-50.9	20.4	0.00e+00	0	49	0	504365056	70	4279
2026-01-16 04:17:51.88	5.92	23.15	-49.9	-51.3	20.0	0.00e+00	0	48	0	505413632	70	4468
2026-01-16 04:17:52.89	5.66	23.20	-49.9	-51.3	20.1	0.00e+00	0	49	0	507510784	70	4459
2026-01-16 04:17:53.89	5.40	23.25	-49.9	-51.3	20.1	0.00e+00	0	49	0	509607936	70	4447
2026-01-16 04:17:54.90	5.14	23.30	-49.8	-51.2	20.1	0.00e+00	0	49	0	511705088	70	4425
2026-01-16 04:17:55.91	4.88	23.35	-49.8	-51.1	20.3	0.00e+00	0	49	0	513802240	70	4374
2026-01-16 04:17:56.92	4.61	23.40	-49.8	-51.2	20.1	0.00e+00	0	49	0	515899392	70	4406
2026-01-16 04:17:57.93	4.35	23.45	-49.6	-50.9	20.5	0.00e+00	0	49	0	516947968	70	4270
2026-01-16 04:17:58.94	4.08	23.50	-49.6	-50.9	20.4	0.00e+00	0	49	0	519045120	70	4279
2026-01-16 04:17:59.95	3.81	23.55	-49.8	-51.2	20.2	0.00e+00	0	49	0	521142272	70	4406
2026-01-16 04:18:00.96	3.55	23.60	-49.7	-51.0	20.4	0.00e+00	0	49	0	523239424	70	4311
2026-01-16 04:18:01.97	3.28	23.64	-49.4	-50.7	20.6	0.00e+00	0	49	0	525336576	70	4186
2026-01-16 04:18:02.98	3.01	23.69	-49.3	-50.5	20.8	0.00e+00	0	49	0	526385152	70	4085
2026-01-16 04:18:03.99	2.74	23.74	-49.2	-50.5	20.8	0.00e+00	0	49	0	528482304	70	4057
2026-01-16 04:18:05.00	2.47	23.78	-49.3	-50.5	20.8	0.00e+00	0	49	0	530579456	70	4093
2026-01-16 04:18:06.00	2.20	23.83	-49.4	-50.7	20.6	0.00e+00	0	49	0	532676608	70	4161
2026-01-16 04:18:07.01	1.92	23.87	-49.4	-50.7	20.6	0.00e+00	0	49	0	534773760	70	4165
2026-01-16 04:18:08.02	1.65	23.91	-49.3	-50.5	20.7	0.00e+00	0	48	0	535822336	70	4086
2026-01-16 04:18:09.03	1.38	23.96	-48.9	-50.0	21.2	0.00e+00	0	49	0	537919488	69	4088
2026-01-16 04:18:10.04	1.10	24.00	-48.9	-50.1	21.2	0.00e+00	0	49	0	540016640	69	4101
2026-01-16 04:18:11.05	0.82	24.04	-48.9	-50.0	21.2	0.00e+00	0	49	0	542113792	69	4090
2026-01-16 04:18:12.06	0.55	24.08	-49.1	-50.3	21.0	0.00e+00	0	49	0	544210944	69	4201
2026-01-16 04:18:13.07	0.27	24.12	-49.5	-50.8	20.5	0.00e+00	0	49	0	545259520	69	4464
2026-01-16 04:18:14.08	359.99	24.16	-49.5	-50.8	20.6	0.00e+00	0	49	0	547356672	69	4456
2026-01-16 04:18:15.09	359.71	24.20	-49.6	-50.9	20.5	0.00e+00	0	49	0	549453824	69	4517
2026-01-16 04:18:16.09	359.44	24.24	-49.9	-51.2	20.2	0.00e+00	0	49	0	551550976	70	4428
2026-01-16 04:18:17.10	359.16	24.27	-50.1	-51.5	19.9	0.00e+00	0	49	0	553648128	70	4575
2026-01-16 04:18:18.11	358.88	24.31	-50.4	-51.9	19.6	0.00e+00	0	49	0	555745280	71	4525
2026-01-16 04:18:19.12	358.60	24.35	-50.8	-52.5	19.0	0.00e+00	0	49	0	556793856	72	4557
2026-01-16 04:18:20.13	358.31	24.38	-51.3	-53.1	18.4	0.00e+00	0	49	0	558891008	73	4604
2026-01-16 04:18:21.14	358.03	24.42	-51.4	-53.2	18.3	0.00e+00	0	49	0	560988160	73	4676
2026-01-16 04:18:22.14	357.75	24.45	-51.4	-53.2	18.2	0.00e+00	0	48	0	563085312	73	4697
2026-01-16 04:18:23.16	357.46	24.48	-51.4	-53.1	18.4	0.00e+00	0	49	0	564133888	73	4632
2026-01-16 04:18:24.16	357.18	24.52	-51.1	-52.8	18.6	0.00e+00	0	49	0	566231040	73	4484
2026-01-16 04:18:25.17	356.90	24.55	-51.1	-52.8	18.6	0.00e+00	0	49	0	568328192	73	4449
2026-01-16 04:18:26.18	356.61	24.58	-51.0	-52.7	18.9	0.00e+00	0	49	0	570425344	73	4402
2026-01-16 04:18:27.19	356.33	24.61	-50.8	-52.4	19.0	0.00e+00	0	49	0	572522496	73	4266
2026-01-16 04:18:28.20	356.04	24.64	-50.7	-52.2	19.2	0.00e+00	0	49	0	573571072	73	4191
2026-01-16 04:18:29.21	355.75	24.67	-50.4	-51.9	19.4	0.00e+00	0	49	0	575668224	72	4277
2026-01-16 04:18:30.22	355.46	24.69	-50.5	-52.1	19.3	0.00e+00	0	49	0	577765376	72	4345
2026-01-16 04:18:31.23	355.18	24.72	-50.6	-52.1	19.3	0.00e+00	0	49	0	579862528	72	4375
2026-01-16 04:18:32.24	354.89	24.75	-50.8	-52.5	19.0	0.00e+00	0	48	0	581959680	72	4546
2026-01-16 04:18:33.25	354.60	24.77	-51.0	-52.7	18.7	0.00e+00	0	49	0	584056832	72	4680
2026-01-16 04:18:34.26	354.31	24.80	-50.8	-52.4	19.0	0.00e+00	0	49	0	585105408	72	4499
2026-01-16 04:18:35.27	354.02	24.82	-50.8	-52.5	19.0	0.00e+00	0	49	0	587202560	72	4552
2026-01-16 04:18:36.28	353.73	24.85	-50.8	-52.4	18.9	0.00e+00	0	49	0	589299712	72	4530
2026-01-16 04:18:37.29	353.44	24.87	-50.8	-52.5	18.9	0.00e+00	0	49	0	591396864	72	4546
2026-01-16 04:18:38.29	353.15	24.89	-51.2	-52.9	18.5	0.00e+00	0	49	0	592445440	72	4809
2026-01-16 04:18:39.30	352.85	24.91	-51.7	-53.6	17.9	0.00e+00	0	49	0	594542592	73	4890
2026-01-16 04:18:40.31	352.56	24.93	-51.6	-53.5	17.9	0.00e+00	0	49	0	596639744	74	4591
2026-01-16 04:18:41.32	352.27	24.95	-51.5	-53.3	18.1	0.00e+00	0	49	0	598736896	74	4484
2026-01-16 04:18:42.33	351.98	24.97	-51.7	-53.5	17.9	0.00e+00	0	49	0	600834048	74	4574
2026-01-16 04:18:43.34	351.68	24.99	-51.2	-52.9	18.5	0.00e+00	0	49	0	602931200	74	4270
2026-01-16 04:18:44.35	351.39	25.00	-51.2	-53.0	18.4	0.00e+00	0	49	0	603979776	74	4312
2026-01-16 04:18:45.36	351.10	25.02	-51.6	-53.5	18.0	0.00e+00	0	49	0	606076928	74	4547
2026-01-16 04:18:46.37	350.80	25.04	-51.6	-53.4	18.1	0.00e+00	0	49	0	608174080	74	4535
2026-01-16 04:18:47.38	350.51	25.05	-51.5	-53.3	18.1	0.00e+00	0	49	0	610271232	74	4485
2026-01-16 04:18:48.39	350.21	25.06	-51.5	-53.3	18.2	0.00e+00	0	49	0	612368384	74	4484
2026-01-16 04:18:49.40	349.92	25.08	-51.2	-52.9	18.6	0.00e+00	0	49	0	613416960	74	4254
2026-01-16 04:18:50.41	349.62	25.09	-51.0	-52.6	18.8	0.00e+00	0	49	0	615514112	73	4377
2026-01-16 04:18:51.42	349.33	25.10	-51.2	-53.0	18.5	0.00e+00	0	49	0	617611264	73	4554
2026-01-16 04:18:52.43	349.03	25.11	-51.6	-53.5	18.0	0.00e+00	0	49	0	619708416	73	4850
2026-01-16 04:18:53.44	348.73	25.12	-51.8	-53.7	17.8	0.00e+00	0	49	0	621805568	74	4692
2026-01-16 04:18:54.45	348.44	25.13	-52.0	-54.1	17.5	0.00e+00	0	49	0	622854144	74	4875
2026-01-16 04:18:55.46	348.14	25.14	-52.0	-54.0	17.5	0.00e+00	0	49	0	624951296	74	4835
2026-01-16 04:18:56.47	347.85	25.14	-51.7	-53.6	18.0	0.00e+00	0	49	0	627048448	74	4599
2026-01-16 04:18:57.48	347.55	25.15	-51.4	-53.2	18.3	0.00e+00	0	49	0	629145600	74	4413
2026-01-16 04:18:58.49	347.25	25.16	-51.3	-53.1	18.5	0.00e+00	0	49	0	631242752	74	4349
2026-01-16 04:18:59.50	346.96	25.16	-50.8	-52.4	19.1	0.00e+00	0	49	0	632291328	73	4274
2026-01-16 04:19:00.51	346.66	25.16	-50.7	-52.3	19.1	0.00e+00	0	49	0	634388480	73	4214
2026-01-16 04:19:01.52	346.36	25.17	-50.8	-52.3	19.1	0.00e+00	0	49	0	636485632	73	4237
2026-01-16 04:19:02.53	346.07	25.17	-50.7	-52.3	19.1	0.00e+00	0	49	0	638582784	73	4236
2026-01-16 04:19:03.54	345.77	25.17	-51.0	-52.6	19.0	0.00e+00	0	49	0	640679936	73	4385
2026-01-16 04:19:04.55	345.47	25.17	-51.2	-52.9	18.6	0.00e+00	0	49	0	641728512	73	4508
2026-01-16 04:19:05.56	345.17	25.17	-51.2	-53.0	18.5	0.00e+00	0	49	0	643825664	73	4559
2026-01-16 04:19:06.57	344.88	25.17	-51.1	-52.9	18.6	0.00e+00	0	49	0	645922816	73	4505
2026-01-16 04:19:07.58	344.58	25.17	-51.3	-53.1	18.4	0.00e+00	0	49	0	648019968	73	4605
2026-01-16 04:19:08.59	344.28	25.16	-51.3	-53.1	18.3	0.00e+00	0	48	0	650117120	73	4637
2026-01-16 04:19:09.60	343.99	25.16	-51.5	-53.3	18.1	0.00e+00	0	49	0	651165696	73	4756
2026-01-16 04:19:10.61	343.69	25.15	-51.4	-53.3	18.2	0.00e+00	0	49	0	653262848	73	4715
2026-01-16 04:19:11.62	343.39	25.15	-51.6	-53.6	18.0	0.00e+00	0	49	0	655360000	73	4884
2026-01-16 04:19:12.63	343.10	25.14	-51.2	-53.0	18.5	0.00e+00	0	49	0	657457152	73	4557
2026-01-16 04:19:13.64	342.80	25.13	-50.8	-52.4	19.0	0.00e+00	0	49	0	659554304	73	4286
2026-01-16 04:19:14.65	342.50	25.13	-50.6	-52.2	19.2	0.00e+00	0	48	0	661651456	72	4398
2026-01-16 04:19:15.66	342.21	25.12	-50.0	-51.4	19.9	0.00e+00	0	48	0	662700032	72	4014
2026-01-16 04:19:16.67	341.91	25.11	-49.9	-51.3	20.1	0.00e+00	0	49	0	664797184	71	4220
2026-01-16 04:19:17.68	341.62	25.10	-49.9	-51.3	20.1	0.00e+00	0	49	0	666894336	71	4222
2026-01-16 04:19:18.69	341.32	25.09	-50.1	-51.5	20.0	0.00e+00	0	49	0	668991488	71	4305
2026-01-16 04:19:19.70	341.03	25.07	-50.4	-51.8	19.8	0.00e+00	0	49	0	670040064	71	4488
2026-01-16 04:19:20.71	340.73	25.06	-50.4	-51.8	19.7	0.00e+00	0	49	0	672137216	71	4474
2026-01-16 04:19:21.72	340.44	25.05	-50.3	-51.7	19.7	0.00e+00	0	49	0	674234368	71	4441
2026-01-16 04:19:22.73	340.14	25.03	-50.2	-51.7	19.8	0.00e+00	0	49	0	676331520	71	4405
2026-01-16 04:19:23.74	339.85	25.02	-50.2	-51.6	19.9	0.00e+00	0	49	0	678428672	71	4361
2026-01-16 04:19:24.75	339.55	25.00	-50.1	-51.5	19.9	0.00e+00	0	49	0	680525824	71	4329
2026-01-16 04:19:25.75	339.26	24.98	-50.0	-51.4	20.1	0.00e+00	0	49	0	681574400	71	4252
2026-01-16 04:19:26.76	338.97	24.97	-49.6	-50.9	20.5	0.00e+00	0	49	0	683671552	71	4021
2026-01-16 04:19:27.77	338.68	24.95	-49.6	-50.9	20.6	0.00e+00	0	49	0	685768704	71	4011
2026-01-16 04:19:28.78	338.38	24.93	-49.2	-50.4	20.9	0.00e+00	0	49	0	687865856	70	4042
2026-01-16 04:19:29.79	338.09	24.91	-49.4	-50.7	20.7	0.00e+00	0	49	0	689963008	70	4161
2026-01-16 04:19:30.80	337.80	24.89	-49.5	-50.8	20.6	0.00e+00	0	49	0	691011584	70	4212
2026-01-16 04:19:31.81	337.51	24.86	-49.6	-50.9	20.6	0.00e+00	0	49	0	693108736	70	4248
2026-01-16 04:19:32.82	337.22	24.84	-49.5	-50.7	20.7	0.00e+00	0	49	0	695205888	70	4188
2026-01-16 04:19:33.83	336.93	24.82	-49.0	-50.1	21.2	0.00e+00	0	48	0	697303040	70	3912
2026-01-16 04:19:34.84	336.64	24.79	-48.7	-49.9	21.4	0.00e+00	0	49	0	699400192	69	4005
2026-01-16 04:19:35.85	336.35	24.77	-48.8	-49.9	21.4	0.00e+00	0	49	0	700448768	69	4051
2026-01-16 04:19:36.86	336.06	24.74	-49.0	-50.1	21.2	0.00e+00	0	49	0	702545920	69	4136
2026-01-16 04:19:37.87	335.77	24.72	-49.1	-50.3	21.0	0.00e+00	0	49	0	704643072	69	4225
2026-01-16 04:19:38.88	335.48	24.69	-49.1	-50.3	21.0	0.00e+00	0	49	0	706740224	69	4235
2026-01-16 04:19:39.89	335.19	24.66	-49.3	-50.5	20.9	0.00e+00	0	49	0	708837376	69	4321
2026-01-16 04:19:40.90	334.91	24.63	-49.5	-50.7	20.7	0.00e+00	0	49	0	709885952	69	4435
2026-01-16 04:19:41.91	334.62	24.60	-49.7	-51.1	20.4	0.00e+00	0	49	0	711983104	70	4343
2026-01-16 04:19:42.92	334.33	24.57	-49.8	-51.1	20.4	0.00e+00	0	49	0	714080256	70	4378
2026-01-16 04:19:43.93	334.05	24.54	-49.6	-50.9	20.6	0.00e+00	0	49	0	716177408	70	4248
2026-01-16 04:19:44.94	333.76	24.51	-49.6	-50.9	20.5	0.00e+00	0	49	0	718274560	70	4271
2026-01-16 04:19:45.95	333.48	24.48	-49.8	-51.1	20.4	0.00e+00	0	49	0	720371712	70	4365
2026-01-16 04:19:46.96	333.19	24.44	-49.8	-51.1	20.3	0.00e+00	0	49	0	721420288	70	4386
2026-01-16 04:19:47.97	332.91	24.41	-49.8	-51.1	20.3	0.00e+00	0	49	0	723517440	70	4391
2026-01-16 04:19:48.97	332.63	24.37	-49.9	-51.2	20.4	0.00e+00	0	49	0	725614592	70	4408
2026-01-16 04:19:49.98	332.35	24.34	-49.7	-50.9	20.5	0.00e+00	0	49	0	727711744	70	4283
2026-01-16 04:19:50.99	332.07	24.30	-49.9	-51.2	20.3	0.00e+00	0	49	0	728760320	70	4417
2026-01-16 04:19:52.00	331.79	24.26	-50.3	-51.7	19.8	0.00e+00	0	49	0	730857472	71	4439
2026-01-16 04:19:53.01	331.51	24.23	-50.6	-52.1	19.5	0.00e+00	0	49	0	732954624	71	4636
2026-01-16 04:19:54.02	331.23	24.19	-50.6	-52.1	19.4	0.00e+00	0	48	0	735051776	72	4363
2026-01-16 04:19:55.03	330.95	24.15	-50.2	-51.6	19.8	0.00e+00	0	49	0	737148928	72	4122
2026-01-16 04:19:56.05	330.67	24.11	-49.9	-51.2	20.3	0.00e+00	0	49	0	739246080	71	4189
2026-01-16 04:19:57.05	330.39	24.07	-49.6	-50.8	20.6	0.00e+00	0	49	0	740294656	71	3998
2026-01-16 04:19:58.06	330.12	24.03	-49.8	-51.1	20.4	0.00e+00	0	49	0	742391808	71	4103
2026-01-16 04:19:59.07	329.84	23.99	-49.9	-51.2	20.3	0.00e+00	0	49	0	744488960	71	4164
2026-01-16 04:20:00.08	329.57	23.95	-50.1	-51.4	20.1	0.00e+00	0	49	0	746586112	71	4289
2026-01-16 04:20:01.09	329.29	23.90	-50.2	-51.7	19.9	0.00e+00	0	49	0	748683264	71	4395
2026-01-16 04:20:02.10	329.02	23.86	-50.5	-51.9	19.6	0.00e+00	0	49	0	749731840	71	4530
2026-01-16 04:20:03.11	328.75	23.81	-50.5	-52.0	19.5	0.00e+00	0	49	0	751828992	72	4314
2026-01-16 04:20:04.12	328.47	23.77	-50.9	-52.4	19.1	0.00e+00	0	49	0	753926144	72	4540
2026-01-16 04:20:05.13	328.20	23.72	-50.7	-52.3	19.2	0.00e+00	0	49	0	756023296	72	4448
2026-01-16 04:20:06.13	327.94	23.68	-50.9	-52.5	19.0	0.00e+00	0	49	0	758120448	72	4551
2026-01-16 04:20:07.14	327.67	23.63	-51.0	-52.6	18.8	0.00e+00	0	49	0	759169024	72	4649
2026-01-16 04:20:08.15	327.40	23.58	-51.2	-52.9	18.6	0.00e+00	0	49	0	761266176	72	4797
2026-01-16 04:20:09.16	327.13	23.54	-51.4	-53.2	18.3	0.00e+00	0	49	0	763363328	73	4682
2026-01-16 04:20:10.17	326.86	23.49	-51.5	-53.3	18.2	0.00e+00	0	48	0	765460480	73	4744
2026-01-16 04:20:11.18	326.60	23.44	-51.5	-53.4	18.1	0.00e+00	0	48	0	767557632	74	4501
2026-01-16 04:20:12.19	326.33	23.39	-51.0	-52.7	18.8	1.50e-06	0	49	0	768606208	74	4176
2026-01-16 04:20:13.20	326.07	23.34	-50.9	-52.5	19.0	0.00e+00	0	49	0	770703360	73	4303
2026-01-16 04:20:14.21	325.80	23.29	-50.8	-52.4	19.0	0.00e+00	0	49	0	772800512	73	4280
2026-01-16 04:20:15.22	325.54	23.24	-50.8	-52.4	19.1	0.00e+00	0	49	0	774897664	73	4262
2026-01-16 04:20:16.23	325.28	23.19	-50.8	-52.4	19.1	0.00e+00	0	49	0	776994816	73	4266
2026-01-16 04:20:17.24	325.02	23.13	-51.1	-52.7	18.7	0.00e+00	0	49	0	778043392	73	4437
2026-01-16 04:20:18.25	324.76	23.08	-51.3	-53.0	18.4	0.00e+00	0	49	0	780140544	73	4577
2026-01-16 04:20:19.26	324.50	23.03	-51.7	-53.5	18.0	0.00e+00	0	49	0	782237696	73	4861
2026-01-16 04:20:20.27	324.24	22.97	-51.9	-53.9	17.7	0.00e+00	0	49	0	784334848	74	4777
2026-01-16 04:20:21.28	323.98	22.92	-51.6	-53.5	18.1	0.00e+00	0	49	0	786432000	74	4558
2026-01-16 04:20:22.29	323.72	22.86	-51.5	-53.3	18.2	0.00e+00	0	49	0	787480576	74	4485
2026-01-16 04:20:23.30	323.47	22.81	-51.4	-53.2	18.3	0.00e+00	0	49	0	789577728	74	4432
2026-01-16 04:20:24.31	323.21	22.75	-51.3	-53.1	18.4	0.00e+00	0	49	0	791674880	74	4363
2026-01-16 04:20:25.32	322.96	22.70	-51.4	-53.1	18.4	0.00e+00	0	49	0	793772032	74	4382
2026-01-16 04:20:26.33	322.71	22.64	-51.4	-53.2	18.3	0.00e+00	0	49	0	795869184	74	4436
2026-01-16 04:20:27.34	322.46	22.58	-51.4	-53.2	18.4	0.00e+00	0	49	0	797966336	74	4399
2026-01-16 04:20:28.35	322.20	22.52	-51.3	-53.1	18.4	0.00e+00	0	49	0	799014912	74	4369
2026-01-16 04:20:29.36	321.95	22.47	-51.3	-53.1	18.4	0.00e+00	0	49	0	801112064	74	4372
2026-01-16 04:20:30.37	321.71	22.41	-51.7	-53.5	18.0	0.00e+00	0	49	0	803209216	74	4596
2026-01-16 04:20:31.38	321.46	22.35	-51.9	-53.9	17.6	0.00e+00	0	49	0	805306368	74	4793
2026-01-16 04:20:32.39	321.21	22.29	-51.7	-53.6	17.9	0.00e+00	0	49	0	806354944	74	4637
2026-01-16 04:20:33.40	320.96	22.23	-51.6	-53.4	18.1	0.00e+00	0	49	0	808452096	74	4521
2026-01-16 04:20:34.41	320.72	22.17	-51.2	-52.9	18.6	0.00e+00	0	49	0	810549248	74	4261
2026-01-16 04:20:35.42	320.47	22.11	-51.0	-52.6	18.8	0.00e+00	0	49	0	812646400	73	4391
2026-01-16 04:20:36.43	320.23	22.05	-50.7	-52.4	19.0	0.00e+00	0	49	0	814743552	73	4249
2026-01-16 04:20:37.44	319.99	21.98	-51.2	-53.0	18.5	0.00e+00	0	49	0	816840704	73	4561
2026-01-16 04:20:38.45	319.75	21.92	-51.3	-53.1	18.4	0.00e+00	0	49	0	817889280	73	4610
2026-01-16 04:20:39.46	319.51	21.86	-51.7	-53.7	17.8	0.00e+00	0	49	0	819986432	73	4959
2026-01-16 04:20:40.47	319.27	21.80	-52.1	-54.3	17.2	0.00e+00	0	49	0	822083584	74	5005
2026-01-16 04:20:41.48	319.03	21.73	-52.5	-54.9	16.7	0.00e+00	0	49	0	824180736	75	5064
2026-01-16 04:20:42.49	318.79	21.67	-52.3	-54.5	17.0	0.00e+00	0	49	0	826277888	75	4858
2026-01-16 04:20:43.50	318.55	21.61	-52.4	-54.7	16.7	0.00e+00	0	49	0	827326464	75	4981
2026-01-16 04:20:44.51	318.32	21.54	-52.0	-54.2	17.3	0.00e+00	0	49	0	829423616	75	4658
2026-01-16 04:20:45.52	318.08	21.48	-51.7	-53.6	17.8	0.00e+00	0	49	0	831520768	75	4369
2026-01-16 04:20:46.53	317.85	21.41	-51.0	-52.7	18.7	0.00e+00	0	49	0	833617920	74	4191
2026-01-16 04:20:47.54	317.62	21.35	-50.8	-52.4	19.1	0.00e+00	0	49	0	835715072	73	4254
2026-01-16 04:20:48.55	317.39	21.28	-50.8	-52.5	18.9	0.00e+00	0	49	0	836763648	73	4317
2026-01-16 04:20:49.56	317.16	21.21	-50.7	-52.3	19.1	0.00e+00	0	49	0	838860800	73	4210
2026-01-16 04:20:50.57	316.93	21.15	-50.6	-52.2	19.2	0.00e+00	0	49	0	840957952	73	4190
2026-01-16 04:20:51.58	316.70	21.08	-50.8	-52.5	18.9	0.00e+00	0	49	0	843055104	73	4312
2026-01-16 04:20:52.59	316.47	21.01	-51.0	-52.7	18.7	0.00e+00	0	49	0	845152256	73	4407
2026-01-16 04:20:53.60	316.24	20.95	-50.9	-52.5	18.9	0.00e+00	0	49	0	846200832	73	4333
2026-01-16 04:20:54.61	316.02	20.88	-50.8	-52.5	18.9	0.00e+00	0	49	0	848297984	73	4329
2026-01-16 04:20:55.62	315.79	20.81	-50.5	-52.1	19.3	0.00e+00	0	49	0	850395136	73	4103
2026-01-16 04:20:56.63	315.57	20.74	-50.4	-52.0	19.3	0.00e+00	0	49	0	852492288	72	4305
2026-01-16 04:20:57.64	315.35	20.68	-50.1	-51.5	19.8	0.00e+00	0	49	0	854589440	72	4082
2026-01-16 04:20:58.65	315.13	20.61	-50.1	-51.5	19.9	0.00e+00	0	49	0	856686592	71	4302
2026-01-16 04:20:59.66	314.91	20.54	-49.9	-51.2	20.2	0.00e+00	0	49	0	857735168	71	4185
2026-01-16 04:21:00.67	314.69	20.47	-49.6	-50.9	20.4	0.00e+00	0	49	0	859832320	71	4007
2026-01-16 04:21:01.68	314.47	20.40	-49.4	-50.7	20.6	0.00e+00	0	49	0	861929472	70	4184
2026-01-16 04:21:02.68	314.25	20.33	-49.2	-50.5	20.8	0.00e+00	0	49	0	864026624	70	4074
2026-01-16 04:21:03.70	314.03	20.26	-49.4	-50.7	20.5	0.00e+00	0	49	0	865075200	70	4151
2026-01-16 04:21:04.71	313.82	20.19	-49.7	-51.0	20.3	0.00e+00	0	49	0	867172352	70	4338
2026-01-16 04:21:05.72	313.60	20.12	-50.1	-51.6	19.8	0.00e+00	0	49	0	869269504	70	4613
2026-01-16 04:21:06.73	313.39	20.05	-50.2	-51.6	19.8	0.00e+00	0	49	0	871366656	71	4376
2026-01-16 04:21:07.74	313.18	19.98	-50.5	-52.1	19.3	0.00e+00	0	49	0	873463808	71	4602
2026-01-16 04:21:08.75	312.96	19.91	-50.6	-52.2	19.2	0.00e+00	0	49	0	875560960	71	4701
2026-01-16 04:21:09.76	312.75	19.83	-50.7	-52.3	19.0	0.00e+00	0	49	0	876609536	72	4491
2026-01-16 04:21:10.77	312.54	19.76	-50.8	-52.5	18.8	0.00e+00	0	49	0	878706688	72	4570
2026-01-16 04:21:11.78	312.34	19.69	-50.9	-52.7	18.7	0.00e+00	0	49	0	880803840	72	4659
2026-01-16 04:21:12.79	312.13	19.62	-50.9	-52.7	18.7	0.00e+00	0	49	0	882900992	72	4668
2026-01-16 04:21:13.80	311.92	19.55	-50.8	-52.5	18.8	0.00e+00	0	49	0	884998144	72	4597
2026-01-16 04:21:14.81	311.72	19.48	-50.5	-52.1	19.2	0.00e+00	0	49	0	886046720	72	4370
2026-01-16 04:21:15.82	311.51	19.40	-50.6	-52.3	19.1	0.00e+00	0	49	0	888143872	72	4445
2026-01-16 04:21:16.83	311.31	19.33	-50.7	-52.4	19.0	0.00e+00	0	48	0	890241024	72	4498
2026-01-16 04:21:17.84	311.10	19.26	-50.6	-52.2	19.0	0.00e+00	0	48	0	892338176	72	4408
2026-01-16 04:21:18.85	310.90	19.18	-50.5	-52.2	19.2	0.00e+00	0	49	0	894435328	72	4392
2026-01-16 04:21:19.86	310.70	19.11	-50.4	-52.0	19.3	0.00e+00	0	49	0	895483904	72	4334
2026-01-16 04:21:20.87	310.50	19.04	-50.1	-51.6	19.7	0.00e+00	0	49	0	897581056	72	4129
2026-01-16 04:21:21.88	310.30	18.96	-50.1	-51.6	19.7	0.00e+00	0	49	0	899678208	72	4128
2026-01-16 04:21:22.89	310.11	18.89	-50.4	-52.0	19.4	0.00e+00	0	49	0	901775360	72	4303
2026-01-16 04:21:23.90	309.91	18.82	-50.6	-52.3	19.1	0.00e+00	0	49	0	903872512	72	4446
2026-01-16 04:21:24.91	309.71	18.74	-50.8	-52.5	18.9	0.00e+00	0	49	0	905969664	72	4557
2026-01-16 04:21:25.92	309.52	18.67	-50.9	-52.5	18.8	0.00e+00	0	49	0	907018240	72	4598
2026-01-16 04:21:26.93	309.32	18.60	-50.8	-52.5	18.9	0.00e+00	0	49	0	909115392	72	4549
2026-01-16 04:21:27.94	309.13	18.52	-50.6	-52.2	19.1	0.00e+00	0	49	0	911212544	72	4416
2026-01-16 04:21:28.95	308.94	18.45	-50.3	-51.8	19.5	0.00e+00	0	49	0	913309696	72	4229
2026-01-16 04:21:29.96	308.75	18.37	-50.2	-51.7	19.6	0.00e+00	0	49	0	914358272	72	4155
2026-01-16 04:21:30.97	308.56	18.30	-50.1	-51.6	19.7	0.00e+00	0	49	0	916455424	72	4128
2026-01-16 04:21:31.98	308.37	18.22	-50.3	-51.8	19.5	0.00e+00	0	49	0	918552576	72	4219
2026-01-16 04:21:32.99	308.18	18.15	-50.3	-51.8	19.4	0.00e+00	0	49	0	920649728	72	4216
2026-01-16 04:21:34.00	307.99	18.07	-50.6	-52.2	19.2	0.00e+00	0	49	0	922746880	72	4409
2026-01-16 04:21:35.01	307.80	18.00	-50.6	-52.3	19.1	0.00e+00	0	49	0	923795456	72	4465
2026-01-16 04:21:36.02	307.62	17.92	-50.5	-52.1	19.2	0.00e+00	0	49	0	925892608	72	4380
2026-01-16 04:21:37.03	307.43	17.85	-50.2	-51.7	19.6	0.00e+00	0	49	0	927989760	72	4173
2026-01-16 04:21:38.04	307.25	17.77	-50.2	-51.7	19.6	0.00e+00	0	49	0	930086912	72	4178
2026-01-16 04:21:39.05	307.07	17.70	-50.1	-51.6	19.7	0.00e+00	0	49	0	932184064	72	4129
2026-01-16 04:21:40.05	306.89	17.62	-49.9	-51.4	20.0	0.00e+00	0	49	0	934281216	71	4252
2026-01-16 04:21:41.06	306.71	17.55	-49.9	-51.3	20.0	0.00e+00	0	49	0	935329792	71	4219
2026-01-16 04:21:42.07	306.53	17.47	-49.8	-51.2	20.1	0.00e+00	0	49	0	937426944	71	4172
2026-01-16 04:21:43.08	306.35	17.40	-49.7	-51.1	20.2	0.00e+00	0	49	0	939524096	71	4117
2026-01-16 04:21:44.09	306.17	17.32	-49.6	-50.9	20.3	0.00e+00	0	49	0	941621248	71	4049
2026-01-16 04:21:45.10	305.99	17.25	-49.6	-51.0	20.3	0.00e+00	0	49	0	942669824	71	4070
2026-01-16 04:21:46.11	305.82	17.17	-49.7	-51.1	20.2	0.00e+00	0	49	0	944766976	71	4116
2026-01-16 04:21:47.12	305.64	17.10	-49.9	-51.3	20.0	0.00e+00	0	49	0	946864128	71	4214
2026-01-16 04:21:48.13	305.47	17.02	-50.2	-51.7	19.7	0.00e+00	0	49	0	948961280	71	4392
2026-01-16 04:21:49.14	305.29	16.94	-50.2	-51.7	19.5	0.00e+00	0	49	0	951058432	71	4393
2026-01-16 04:21:50.15	305.12	16.87	-50.2	-51.7	19.7	0.00e+00	0	49	0	953155584	71	4414
2026-01-16 04:21:51.16	304.95	16.79	-50.2	-51.6	19.8	0.00e+00	0	49	0	954204160	71	4360
2026-01-16 04:21:52.16	304.78	16.72	-50.0	-51.4	20.0	0.00e+00	0	49	0	956301312	71	4243
2026-01-16 04:21:53.17	304.61	16.64	-49.5	-50.8	20.5	0.00e+00	0	49	0	958398464	71	3960
2026-01-16 04:21:54.18	304.44	16.57	-49.3	-50.6	20.6	0.00e+00	0	49	0	960495616	70	4127
2026-01-16 04:21:55.19	304.27	16.49	-49.4	-50.7	20.6	0.00e+00	0	49	0	962592768	70	4151
2026-01-16 04:21:56.20	304.10	16.41	-49.3	-50.5	20.7	0.00e+00	0	49	0	963641344	70	4084
2026-01-16 04:21:57.21	303.94	16.34	-49.3	-50.6	20.7	0.00e+00	0	49	0	965738496	70	4121
2026-01-16 04:21:58.22	303.77	16.26	-49.4	-50.7	20.5	0.00e+00	0	49	0	967835648	70	4179
2026-01-16 04:21:59.23	303.60	16.19	-49.7	-51.0	20.3	0.00e+00	0	49	0	969932800	70	4324
2026-01-16 04:22:00.24	303.44	16.11	-49.6	-51.0	20.4	0.00e+00	0	49	0	972029952	70	4296
2026-01-16 04:22:01.25	303.28	16.03	-49.7	-51.1	20.2	0.00e+00	0	49	0	973078528	70	4353
2026-01-16 04:22:02.26	303.11	15.96	-49.9	-51.3	20.1	0.00e+00	0	49	0	975175680	70	4468
2026-01-16 04:22:03.27	302.95	15.88	-49.9	-51.3	20.0	0.00e+00	0	49	0	977272832	70	4456
2026-01-16 04:22:04.28	302.79	15.81	-50.0	-51.4	20.0	0.00e+00	0	49	0	979369984	70	4509
2026-01-16 04:22:05.29	302.63	15.73	-50.0	-51.4	20.0	0.00e+00	0	49	0	981467136	70	4507
2026-01-16 04:22:06.30	302.47	15.65	-50.0	-51.4	19.9	0.00e+00	0	49	0	982515712	70	4539
2026-01-16 04:22:07.31	302.31	15.58	-49.9	-51.3	20.0	0.00e+00	0	49	0	984612864	70	4446
2026-01-16 04:22:08.32	302.16	15.50	-49.7	-51.0	20.2	0.00e+00	0	49	0	986710016	70	4337
2026-01-16 04:22:09.33	302.00	15.43	-49.5	-50.8	20.5	0.00e+00	0	49	0	988807168	70	4209
2026-01-16 04:22:10.34	301.84	15.35	-49.3	-50.6	20.6	0.00e+00	0	49	0	990904320	70	4113
2026-01-16 04:22:11.35	301.69	15.28	-49.5	-50.8	20.5	0.00e+00	0	49	0	993001472	70	4229
2026-01-16 04:22:12.36	301.53	15.20	-49.6	-50.9	20.3	0.00e+00	0	49	0	994050048	70	4269
2026-01-16 04:22:13.37	301.38	15.12	-49.8	-51.2	20.0	0.00e+00	0	49	0	996147200	70	4422
2026-01-16 04:22:14.38	301.23	15.05	-50.2	-51.7	19.7	0.00e+00	0	49	0	998244352	71	4401
2026-01-16 04:22:15.38	301.08	14.97	-50.5	-52.1	19.2	0.00e+00	0	49	0	1000341504	71	4616
2026-01-16 04:22:16.39	300.93	14.90	-50.8	-52.4	18.9	0.00e+00	0	49	0	1001390080	72	4515
2026-01-16 04:22:17.40	300.78	14.82	-50.9	-52.6	18.8	0.00e+00	0	49	0	1003487232	72	4626
2026-01-16 04:22:18.41	300.63	14.75	-50.7	-52.3	19.0	0.00e+00	0	49	0	1005584384	72	4464
2026-01-16 04:22:19.42	300.48	14.67	-50.7	-52.2	19.1	0.00e+00	0	49	0	1007681536	72	4433
2026-01-16 04:22:20.43	300.33	14.59	-50.4	-51.9	19.3	0.00e+00	0	49	0	1009778688	72	4281
2026-01-16 04:22:21.44	300.18	14.52	-50.6	-52.1	19.2	0.00e+00	0	49	0	1011875840	72	4382
2026-01-16 04:22:22.45	300.04	14.44	-50.2	-51.7	19.5	0.00e+00	0	49	0	1012924416	72	4164
2026-01-16 04:22:23.46	299.89	14.37	-50.1	-51.5	19.7	0.00e+00	0	49	0	1015021568	72	4096
2026-01-16 04:22:24.47	299.74	14.29	-50.2	-51.6	19.6	0.00e+00	0	49	0	1017118720	72	4133
2026-01-16 04:22:25.48	299.60	14.22	-50.1	-51.6	19.6	0.00e+00	0	49	0	1019215872	72	4128
2026-01-16 04:22:26.49	299.46	14.14	-50.1	-51.6	19.7	0.00e+00	0	49	0	1021313024	71	4361
2026-01-16 04:22:27.50	299.31	14.07	-50.1	-51.5	19.8	0.00e+00	0	49	0	1022361600	71	4302
2026-01-16 04:22:28.51	299.17	13.99	-50.0	-51.4	19.9	0.00e+00	0	49	0	1024458752	71	4268
2026-01-16 04:22:29.52	299.03	13.92	-49.9	-51.2	20.0	0.00e+00	0	49	0	1026555904	71	4184
2026-01-16 04:22:30.53	298.89	13.84	-50.0	-51.4	19.9	0.00e+00	0	49	0	1028653056	71	4244
2026-01-16 04:22:31.54	298.75	13.77	-50.2	-51.6	19.6	0.00e+00	0	49	0	1030750208	71	4390
2026-01-16 04:22:32.55	298.61	13.69	-50.3	-51.8	19.5	0.00e+00	0	49	0	1031798784	71	4469
2026-01-16 04:22:33.56	298.47	13.62	-50.7	-52.2	19.1	0.00e+00	0	49	0	1033895936	71	4692
2026-01-16 04:22:34.56	298.34	13.54	-50.9	-52.6	18.7	0.00e+00	0	49	0	1035993088	72	4627
2026-01-16 04:22:35.57	298.20	13.47	-51.3	-53.1	18.3	0.00e+00	0	49	0	1038090240	73	4604
2026-01-16 04:22:36.58	298.06	13.39	-51.4	-53.2	18.1	0.00e+00	0	49	0	1040187392	73	4703
2026-01-16 04:22:37.59	297.93	13.32	-51.7	-53.6	17.8	0.00e+00	0	49	0	1041235968	73	4881
2026-01-16 04:22:38.60	297.79	13.24	-51.4	-53.3	18.1	0.00e+00	0	49	0	1043333120	73	4713
2026-01-16 04:22:39.61	297.66	13.17	-51.4	-53.2	18.2	0.00e+00	0	49	0	1045430272	73	4670
2026-01-16 04:22:40.62	297.52	13.09	-51.1	-52.7	18.6	0.00e+00	0	49	0	1047527424	73	4438
2026-01-16 04:22:41.63	297.39	13.02	-50.9	-52.5	18.8	0.00e+00	0	49	0	1049624576	73	4309
2026-01-16 04:22:42.64	297.26	12.95	-50.6	-52.1	19.1	0.00e+00	0	49	0	1050673152	73	4142
2026-01-16 04:22:43.65	297.13	12.87	-50.4	-51.9	19.4	0.00e+00	0	49	0	1052770304	72	4245
2026-01-16 04:22:44.66	297.00	12.80	-50.3	-51.8	19.5	0.00e+00	0	49	0	1054867456	72	4196
2026-01-16 04:22:45.67	296.87	12.72	-50.2	-51.6	19.6	0.00e+00	0	49	0	1056964608	72	4131
2026-01-16 04:22:46.68	296.74	12.65	-50.4	-52.0	19.3	0.00e+00	0	49	0	1059061760	72	4293
2026-01-16 04:22:47.69	296.61	12.58	-50.3	-51.8	19.4	0.00e+00	0	49	0	1060110336	72	4233
2026-01-16 04:22:48.70	296.48	12.50	-50.5	-52.1	19.2	0.00e+00	0	49	0	1062207488	72	4344
2026-01-16 04:22:49.71	296.35	12.43	-50.6	-52.2	19.1	0.00e+00	0	49	0	1064304640	72	4413
2026-01-16 04:22:50.72	296.23	12.35	-50.6	-52.1	19.1	0.00e+00	0	49	0	1066401792	72	4391
2026-01-16 04:22:51.72	296.10	12.28	-50.4	-51.9	19.4	0.00e+00	0	49	0	1068498944	72	4250
2026-01-16 04:22:52.74	295.97	12.21	-50.4	-51.9	19.3	0.00e+00	0	49	0	1070596096	72	4250
2026-01-16 04:22:53.74	295.85	12.13	-50.6	-52.1	19.1	0.00e+00	0	49	0	1071644672	72	4382
2026-01-16 04:22:54.75	295.73	12.06	-50.5	-52.0	19.3	0.00e+00	0	49	0	1073741824	72	4293
2026-01-16 04:22:55.76	295.60	11.99	-50.6	-52.1	19.1	0.00e+00	0	49	0	1075838976	72	4358
2026-01-16 04:22:56.78	295.48	11.91	-50.7	-52.3	18.9	0.00e+00	0	49	0	1077936128	72	4482
2026-01-16 04:22:57.78	295.36	11.84	-50.8	-52.5	18.8	0.00e+00	0	49	0	1078984704	72	4557
2026-01-16 04:22:58.79	295.23	11.77	-50.9	-52.6	18.7	0.00e+00	0	49	0	1081081856	72	4602
2026-01-16 04:22:59.80	295.11	11.70	-51.3	-53.1	18.2	0.00e+00	0	49	0	1083179008	73	4620
2026-01-16 04:23:00.81	294.99	11.62	-51.5	-53.3	18.0	0.00e+00	0	49	0	1085276160	73	4738
2026-01-16 04:23:01.82	294.87	11.55	-51.5	-53.4	17.9	0.00e+00	0	49	0	1087373312	73	4784
2026-01-16 04:23:02.83	294.75	11.48	-51.6	-53.5	17.8	0.00e+00	0	49	0	1089470464	74	4568
2026-01-16 04:23:03.84	294.63	11.40	-51.3	-53.1	18.2	0.00e+00	0	49	0	1090519040	74	4356
2026-01-16 04:23:04.85	294.52	11.33	-51.5	-53.3	18.0	0.00e+00	0	49	0	1092616192	74	4490
2026-01-16 04:23:05.86	294.40	11.26	-51.6	-53.4	17.8	0.00e+00	0	49	0	1094713344	74	4533
2026-01-16 04:23:06.87	294.28	11.19	-51.4	-53.3	18.0	0.00e+00	0	49	0	1096810496	74	4464
2026-01-16 04:23:07.88	294.17	11.12	-51.7	-53.7	17.6	0.00e+00	0	49	0	1098907648	74	4653
2026-01-16 04:23:08.88	294.05	11.04	-51.8	-53.7	17.6	0.00e+00	0	49	0	1099956224	74	4682
2026-01-16 04:23:09.89	293.94	10.97	-52.0	-54.0	17.3	0.00e+00	0	49	0	1102053376	74	4853
2026-01-16 04:23:10.90	293.82	10.90	-52.0	-54.0	17.2	0.00e+00	0	49	0	1104150528	74	4856
2026-01-16 04:23:11.91	293.71	10.83	-52.4	-54.6	16.7	0.00e+00	0	49	0	1106247680	75	4907
2026-01-16 04:23:12.92	293.59	10.76	-52.2	-54.4	16.9	0.00e+00	0	49	0	1108344832	75	4766
2026-01-16 04:23:13.93	293.48	10.69	-52.1	-54.2	17.0	0.00e+00	0	49	0	1109393408	75	4685
2026-01-16 04:23:14.94	293.37	10.61	-52.2	-54.3	17.1	0.00e+00	0	49	0	1111490560	75	4708
2026-01-16 04:23:15.95	293.26	10.54	-52.1	-54.2	17.1	0.00e+00	0	49	0	1113587712	75	4689
2026-01-16 04:23:16.96	293.15	10.47	-52.0	-54.1	17.2	0.00e+00	0	49	0	1115684864	75	4615
2026-01-16 04:23:17.97	293.03	10.40	-51.8	-53.7	17.5	0.00e+00	0	49	0	1117782016	75	4430
2026-01-16 04:23:18.98	292.92	10.33	-51.6	-53.5	17.8	0.00e+00	0	49	0	1118830592	75	4310
2026-01-16 04:23:19.99	292.82	10.26	-51.4	-53.2	18.0	0.00e+00	0	49	0	1120927744	74	4419
2026-01-16 04:23:21.00	292.71	10.19	-51.1	-52.8	18.3	0.00e+00	0	49	0	1123024896	74	4239
2026-01-16 04:23:22.00	292.60	10.12	-51.2	-52.9	18.3	0.00e+00	0	49	0	1125122048	74	4256
2026-01-16 04:23:23.02	292.49	10.05	-51.1	-52.8	18.3	0.00e+00	0	49	0	1127219200	74	4236
2026-01-16 04:23:24.02	292.38	9.98	-51.2	-53.0	18.2	0.00e+00	0	49	0	1128267776	74	4302
2026-01-16 04:23:25.03	292.28	9.90	-51.0	-52.6	18.6	0.00e+00	0	49	0	1130364928	73	4383
2026-01-16 04:23:26.04	292.17	9.83	-51.2	-52.9	18.3	0.00e+00	0	49	0	1132462080	73	4514
2026-01-16 04:23:27.05	292.06	9.76	-51.5	-53.3	17.9	0.00e+00	0	49	0	1134559232	73	4724
2026-01-16 04:23:28.06	291.96	9.69	-51.7	-53.6	17.6	0.00e+00	0	49	0	1136656384	74	4649
2026-01-16 04:23:29.07	291.85	9.62	-51.7	-53.6	17.6	0.00e+00	0	49	0	1137704960	74	4640
2026-01-16 04:23:30.08	291.75	9.55	-51.9	-53.8	17.4	0.00e+00	0	49	0	1139802112	74	4749
2026-01-16 04:23:31.09	291.65	9.48	-51.8	-53.8	17.4	0.00e+00	0	49	0	1141899264	74	4738
2026-01-16 04:23:32.10	291.54	9.41	-51.8	-53.8	17.4	0.00e+00	0	49	0	1143996416	74	4741
2026-01-16 04:23:33.11	291.44	9.34	-52.0	-54.1	17.1	0.00e+00	0	49	0	1146093568	74	4875
2026-01-16 04:23:34.12	291.34	9.27	-51.9	-53.9	17.3	0.00e+00	0	49	0	1148190720	74	4772
2026-01-16 04:23:35.13	291.24	9.21	-51.8	-53.7	17.5	0.00e+00	0	49	0	1149239296	74	4680
2026-01-16 04:23:36.14	291.13	9.14	-51.6	-53.4	17.7	0.00e+00	0	49	0	1151336448	74	4541
2026-01-16 04:23:37.15	291.03	9.07	-51.6	-53.4	17.7	0.00e+00	0	49	0	1153433600	74	4543
2026-01-16 04:23:38.16	290.93	9.00	-51.5	-53.4	17.8	0.00e+00	0	49	0	1155530752	74	4516
2026-01-16 04:23:39.17	290.83	8.93	-51.6	-53.5	17.7	0.00e+00	0	49	0	1156579328	74	4576
2026-01-16 04:23:40.18	290.73	8.86	-51.4	-53.2	18.0	0.00e+00	0	49	0	1158676480	74	4406
2026-01-16 04:23:41.19	290.64	8.79	-51.5	-53.3	17.8	0.00e+00	0	49	0	1160773632	74	4490
2026-01-16 04:23:42.20	290.54	8.72	-51.6	-53.4	17.7	0.00e+00	0	49	0	1162870784	74	4543
2026-01-16 04:23:43.21	290.44	8.65	-51.5	-53.3	17.8	0.00e+00	0	49	0	1164967936	74	4470
2026-01-16 04:23:44.22	290.34	8.59	-51.4	-53.3	17.9	0.00e+00	0	49	0	1167065088	74	4458
2026-01-16 04:23:45.23	290.25	8.52	-51.5	-53.4	17.8	0.00e+00	0	49	0	1168113664	74	4510
2026-01-16 04:23:46.24	290.15	8.45	-51.9	-53.9	17.3	0.00e+00	0	49	0	1170210816	74	4766
2026-01-16 04:23:47.25	290.05	8.38	-52.1	-54.1	17.0	0.00e+00	0	49	0	1172307968	74	4918
2026-01-16 04:23:48.26	289.96	8.31	-51.9	-53.9	17.3	0.00e+00	0	49	0	1174405120	74	4797
2026-01-16 04:23:49.27	289.86	8.24	-52.1	-54.2	16.9	0.00e+00	0	49	0	1176502272	74	4976
2026-01-16 04:23:50.28	289.77	8.18	-52.1	-54.3	16.9	0.00e+00	0	49	0	1177550848	74	4996
2026-01-16 04:23:51.29	289.67	8.11	-52.5	-54.8	16.4	0.00e+00	0	49	0	1179648000	75	4994
2026-01-16 04:23:52.30	289.58	8.04	-52.5	-54.8	16.3	0.00e+00	0	49	0	1181745152	75	4998
2026-01-16 04:23:53.31	289.49	7.97	-52.5	-54.8	16.4	0.00e+00	0	49	0	1183842304	75	5012
2026-01-16 04:23:54.32	289.39	7.91	-52.8	-55.2	16.0	0.00e+00	0	49	0	1185939456	76	4951
2026-01-16 04:23:55.33	289.30	7.84	-53.0	-55.6	15.6	0.00e+00	0	49	0	1186988032	76	5166
2026-01-16 04:23:56.34	289.21	7.77	-52.9	-55.4	15.8	0.00e+00	0	49	0	1189085184	76	5061
2026-01-16 04:23:57.35	289.12	7.70	-53.0	-55.5	15.7	0.00e+00	0	49	0	1191182336	76	5141
2026-01-16 04:23:58.36	289.03	7.64	-53.1	-55.7	15.4	0.00e+00	0	49	0	1193279488	76	5274
2026-01-16 04:23:59.37	288.94	7.57	-53.4	-56.2	14.9	0.00e+00	0	49	0	1195376640	77	5252
2026-01-16 04:24:00.38	288.85	7.50	-53.0	-55.6	15.6	0.00e+00	0	49	0	1196425216	77	4872
2026-01-16 04:24:01.39	288.76	7.44	-53.2	-55.9	15.2	0.00e+00	0	49	0	1198522368	77	5098
2026-01-16 04:24:02.40	288.67	7.37	-53.3	-56.0	15.0	0.00e+00	0	49	0	1200619520	77	5153
2026-01-16 04:24:03.41	288.58	7.30	-53.2	-55.9	15.2	0.00e+00	0	49	0	1202716672	77	5047
2026-01-16 04:24:04.42	288.49	7.24	-53.3	-56.0	15.0	0.00e+00	0	49	0	1204813824	77	5156
2026-01-16 04:24:05.43	288.40	7.17	-53.1	-55.7	15.3	0.00e+00	0	49	0	1206910976	77	4964
2026-01-16 04:24:06.44	288.31	7.10	-52.9	-55.5	15.7	0.00e+00	0	49	0	1207959552	77	4837
2026-01-16 04:24:07.45	288.23	7.04	-53.4	-56.2	14.9	0.00e+00	0	49	0	1210056704	77	5234
2026-01-16 04:24:08.46	288.14	6.97	-53.4	-56.3	14.8	0.00e+00	0	49	0	1212153856	77	5280
2026-01-16 04:24:09.47	288.05	6.91	-53.4	-56.3	14.8	0.00e+00	0	49	0	1214251008	77	5303
2026-01-16 04:24:10.48	287.97	6.84	-53.1	-55.7	15.3	0.00e+00	0	49	0	1215299584	77	4952
2026-01-16 04:24:11.49	287.88	6.78	-53.3	-56.1	14.9	0.00e+00	0	49	0	1217396736	77	5178
2026-01-16 04:24:12.50	287.80	6.71	-53.3	-56.1	14.9	0.00e+00	0	49	0	1219493888	77	5192
2026-01-16 04:24:13.51	287.71	6.64	-53.4	-56.3	14.7	0.00e+00	0	49	0	1221591040	77	5310
2026-01-16 04:24:14.52	287.63	6.58	-53.3	-56.1	14.8	0.00e+00	0	49	0	1223688192	77	5202
2026-01-16 04:24:15.53	287.54	6.51	-53.5	-56.4	14.5	0.00e+00	0	49	0	1225785344	77	5394
2026-01-16 04:24:16.54	287.46	6.45	-53.4	-56.4	14.6	7.00e-07	0	49	0	1226833920	77	5367
2026-01-16 04:24:17.55	287.38	6.38	-53.8	-57.1	13.9	2.20e-06	0	49	0	1228931072	78	5469
2026-01-16 04:24:18.56	287.29	6.32	-53.7	-56.8	14.1	2.20e-06	0	49	0	1231028224	78	5326
