passes_logs/2026/01/16/R3.2S_Murmansk/R3.2S_Murmansk__20260116_110104_AQUA_rec.log

#Pass ID: 20260116_110104_AQUA
#Satellite: AQUA
#Configuration: AQUA
#almurnet v.1.7.20251203
#Start time: 2026-01-16 11:01:06

#Version: 2.2.20231116
#Station: R3.2S_Murmansk
#Location: 33.079688 lon 68.888172 lat
#TLE: 1 27424U 02022A   26015.92015591  .00000664  00000+0  14289-3 0  9993
#TLE: 2 27424  98.4082 342.3630 0002020  77.1389  16.3168 14.61822470261023

#Time	Az	El	Level	Level2	SNR	BER	BlckErr	Temp	State	Recorded	gain1	gain2
2026-01-16 11:01:06.42	145.64	2.12	-60.0	-77.4	3.8	7.47e-01	0	42	0	0	90	28356
2026-01-16 11:01:07.43	145.63	2.19	-60.0	-77.4	3.8	7.46e-01	0	42	104	0	90	28444
2026-01-16 11:01:08.44	145.62	2.26	-60.0	-77.4	3.8	7.46e-01	0	42	104	0	90	28454
2026-01-16 11:01:09.45	145.62	2.32	-60.0	-77.4	3.8	7.44e-01	0	42	104	0	90	28390
2026-01-16 11:01:10.46	145.61	2.39	-60.0	-77.4	3.8	7.44e-01	0	42	104	0	90	28427
2026-01-16 11:01:11.47	145.60	2.46	-60.0	-77.3	3.8	7.44e-01	0	42	104	0	90	28350
2026-01-16 11:01:12.48	145.60	2.53	-60.0	-77.3	3.8	7.48e-01	0	42	104	0	90	28349
2026-01-16 11:01:13.48	145.59	2.60	-60.0	-77.4	3.8	7.45e-01	0	43	104	0	90	28371
2026-01-16 11:01:14.49	145.58	2.67	-60.0	-77.4	3.8	7.45e-01	0	43	104	0	90	28359
2026-01-16 11:01:15.50	145.58	2.73	-60.0	-77.4	3.8	7.44e-01	0	43	104	0	90	28382
2026-01-16 11:01:16.51	145.57	2.80	-60.0	-77.4	3.8	7.46e-01	0	42	104	0	90	28383
2026-01-16 11:01:17.51	145.56	2.87	-60.0	-77.4	3.8	7.46e-01	0	42	104	0	90	28377
2026-01-16 11:01:18.52	145.55	2.94	-60.0	-77.4	3.8	7.46e-01	0	43	104	0	90	28358
2026-01-16 11:01:19.54	145.55	3.01	-60.0	-77.3	3.8	7.44e-01	0	43	104	0	90	28329
2026-01-16 11:01:20.54	145.54	3.08	-60.0	-77.3	3.8	7.48e-01	0	43	104	0	90	28334
2026-01-16 11:01:21.55	145.53	3.15	-60.0	-77.4	3.8	7.44e-01	0	43	104	0	90	28426
2026-01-16 11:01:22.56	145.52	3.22	-60.0	-77.4	3.8	7.46e-01	0	43	104	0	90	28354
2026-01-16 11:01:23.57	145.52	3.29	-60.0	-77.4	3.8	7.45e-01	0	43	104	0	90	28375
2026-01-16 11:01:24.58	145.51	3.36	-60.0	-77.4	3.8	7.43e-01	0	43	104	0	90	28373
2026-01-16 11:01:25.59	145.50	3.43	-60.0	-77.4	3.8	7.44e-01	0	43	104	0	90	28364
2026-01-16 11:01:26.59	145.49	3.51	-60.0	-77.4	3.8	7.44e-01	0	43	104	0	90	28386
2026-01-16 11:01:27.60	145.48	3.58	-60.0	-77.4	3.8	7.45e-01	0	43	104	0	90	28418
2026-01-16 11:01:28.61	145.48	3.65	-60.0	-77.3	3.8	7.48e-01	0	43	104	0	90	28304
2026-01-16 11:01:29.62	145.47	3.72	-60.0	-77.3	3.8	7.45e-01	0	43	104	0	90	28338
2026-01-16 11:01:30.63	145.46	3.79	-60.0	-77.4	3.8	7.47e-01	0	43	104	0	90	28363
2026-01-16 11:01:31.64	145.45	3.86	-60.0	-77.4	3.8	7.41e-01	0	43	104	0	90	28380
2026-01-16 11:01:32.65	145.44	3.94	-60.0	-77.4	3.8	7.43e-01	0	43	104	0	90	28399
2026-01-16 11:01:33.66	145.44	4.01	-60.0	-77.4	3.8	7.45e-01	0	43	104	0	90	28360
2026-01-16 11:01:34.67	145.43	4.08	-60.0	-77.4	3.8	7.44e-01	0	43	104	0	90	28385
2026-01-16 11:01:35.68	145.42	4.16	-60.0	-77.4	3.8	7.46e-01	0	43	104	0	90	28352
2026-01-16 11:01:36.68	145.41	4.23	-60.0	-77.3	3.8	7.49e-01	0	44	104	0	90	28309
2026-01-16 11:01:37.69	145.40	4.30	-60.0	-77.3	3.8	7.45e-01	0	44	104	0	90	28342
2026-01-16 11:01:38.70	145.39	4.38	-60.0	-77.3	3.8	7.46e-01	0	44	104	0	90	28337
2026-01-16 11:01:39.71	145.39	4.45	-60.0	-77.4	3.8	7.47e-01	0	44	104	0	90	28370
2026-01-16 11:01:40.72	145.38	4.52	-60.0	-77.4	3.8	7.45e-01	0	44	104	0	90	28411
2026-01-16 11:01:41.72	145.37	4.60	-60.0	-77.4	3.8	7.47e-01	0	44	104	0	90	28402
2026-01-16 11:01:42.73	145.36	4.67	-60.0	-77.4	3.8	7.48e-01	0	44	104	0	90	28443
2026-01-16 11:01:43.74	145.35	4.75	-60.0	-77.4	3.8	7.47e-01	0	44	104	0	90	28377
2026-01-16 11:01:44.75	145.34	4.82	-60.0	-77.4	3.8	7.47e-01	0	44	104	0	90	28420
2026-01-16 11:01:45.76	145.33	4.90	-60.0	-77.4	3.8	7.45e-01	0	44	104	0	90	28366
2026-01-16 11:01:46.77	145.32	4.97	-60.0	-77.4	3.8	7.48e-01	0	44	104	0	90	28425
2026-01-16 11:01:47.78	145.31	5.05	-60.0	-77.4	3.8	7.49e-01	0	44	104	0	90	28390
2026-01-16 11:01:48.78	145.30	5.12	-60.0	-77.4	3.8	7.47e-01	0	44	104	0	90	28391
2026-01-16 11:01:49.79	145.30	5.20	-60.0	-77.4	3.8	7.46e-01	0	44	104	0	90	28383
2026-01-16 11:01:50.80	145.29	5.28	-60.0	-77.4	3.8	7.42e-01	0	44	104	0	90	28379
2026-01-16 11:01:51.81	145.28	5.35	-60.0	-77.4	3.8	7.43e-01	0	44	104	0	90	28422
2026-01-16 11:01:52.81	145.27	5.43	-60.0	-77.3	3.8	7.45e-01	0	44	104	0	90	28341
2026-01-16 11:01:53.82	145.26	5.51	-60.0	-77.4	3.8	7.47e-01	0	45	104	0	90	28447
2026-01-16 11:01:54.83	145.25	5.58	-60.0	-77.4	3.8	7.46e-01	0	45	104	0	90	28359
2026-01-16 11:01:55.84	145.24	5.66	-60.0	-77.4	3.8	7.43e-01	0	45	104	0	90	28416
2026-01-16 11:01:56.85	145.23	5.74	-60.0	-77.4	3.8	7.48e-01	0	44	104	0	90	28374
2026-01-16 11:01:57.86	145.22	5.82	-60.0	-77.4	3.8	7.48e-01	0	45	104	0	90	28392
2026-01-16 11:01:58.87	145.21	5.90	-60.0	-77.4	3.8	7.47e-01	0	44	104	0	90	28388
2026-01-16 11:01:59.88	145.20	5.98	-60.0	-77.3	3.8	7.46e-01	0	45	104	0	90	28314
2026-01-16 11:02:00.89	145.19	6.06	-60.0	-77.4	3.8	7.44e-01	0	44	104	0	90	28375
2026-01-16 11:02:01.90	145.18	6.14	-60.0	-77.4	3.8	7.48e-01	0	45	104	0	90	28410
2026-01-16 11:02:02.90	145.17	6.21	-60.0	-77.4	3.8	7.45e-01	0	45	104	0	90	28368
2026-01-16 11:02:03.91	145.16	6.29	-60.0	-77.4	3.8	7.44e-01	0	45	104	0	90	28500
2026-01-16 11:02:04.92	145.15	6.37	-60.0	-77.4	3.8	7.45e-01	0	45	104	0	90	28372
2026-01-16 11:02:05.93	145.14	6.45	-60.0	-77.4	3.8	7.45e-01	0	45	104	0	90	28358
2026-01-16 11:02:06.94	145.13	6.54	-60.0	-77.4	3.8	7.44e-01	0	45	104	0	90	28414
2026-01-16 11:02:07.95	145.11	6.62	-60.0	-77.4	3.8	7.46e-01	0	45	104	0	90	28448
2026-01-16 11:02:08.95	145.10	6.70	-60.0	-77.4	3.8	7.45e-01	0	45	104	0	90	28407
2026-01-16 11:02:09.96	145.09	6.78	-60.0	-77.3	3.8	7.44e-01	0	45	104	0	90	28336
2026-01-16 11:02:10.97	145.08	6.86	-60.1	-77.4	3.8	7.48e-01	0	45	104	0	90	28453
2026-01-16 11:02:11.98	145.07	6.94	-60.0	-77.4	3.8	7.45e-01	0	45	104	0	90	28397
2026-01-16 11:02:12.99	145.06	7.03	-60.0	-77.4	3.8	7.48e-01	0	45	104	0	90	28403
2026-01-16 11:02:14.00	145.05	7.11	-60.0	-77.4	3.8	7.44e-01	0	45	104	0	90	28391
2026-01-16 11:02:15.01	145.04	7.19	-60.0	-77.4	3.8	7.44e-01	0	45	104	0	90	28429
2026-01-16 11:02:16.02	145.03	7.27	-60.0	-77.4	3.8	7.47e-01	0	45	104	0	90	28467
2026-01-16 11:02:17.03	145.01	7.36	-60.1	-77.4	3.8	7.46e-01	0	45	104	0	90	28407
2026-01-16 11:02:18.04	145.00	7.44	-60.0	-77.4	3.8	7.42e-01	0	45	104	0	90	28411
2026-01-16 11:02:19.04	144.99	7.53	-60.0	-77.4	3.8	7.47e-01	0	45	104	0	90	28378
2026-01-16 11:02:20.05	144.98	7.61	-60.0	-77.3	3.8	7.50e-01	0	45	104	0	90	28284
2026-01-16 11:02:21.06	144.97	7.70	-60.0	-77.4	3.8	7.43e-01	0	45	104	0	90	28370
2026-01-16 11:02:22.07	144.96	7.78	-60.0	-77.4	3.8	7.50e-01	0	45	104	0	90	28360
2026-01-16 11:02:23.08	144.94	7.87	-60.1	-77.4	3.8	7.45e-01	0	45	104	0	90	28416
2026-01-16 11:02:24.09	144.93	7.95	-60.0	-77.4	3.8	7.48e-01	0	45	104	0	90	28384
2026-01-16 11:02:25.09	144.92	8.04	-60.0	-77.4	3.8	7.47e-01	0	45	104	0	90	28403
2026-01-16 11:02:26.10	144.91	8.12	-60.0	-77.4	3.8	7.44e-01	0	45	104	0	90	28400
2026-01-16 11:02:27.12	144.89	8.21	-60.0	-77.3	3.8	7.44e-01	0	45	104	0	90	28319
2026-01-16 11:02:28.12	144.88	8.30	-60.0	-77.4	3.8	7.46e-01	0	45	104	0	90	28383
2026-01-16 11:02:29.13	144.87	8.39	-60.1	-77.4	3.8	7.47e-01	0	45	104	0	90	28385
2026-01-16 11:02:30.14	144.86	8.47	-60.0	-77.4	3.8	7.46e-01	0	45	104	0	90	28385
2026-01-16 11:02:31.15	144.84	8.56	-60.0	-77.4	3.8	7.44e-01	0	46	104	0	90	28391
2026-01-16 11:02:32.16	144.83	8.65	-60.1	-77.4	3.8	7.44e-01	0	46	104	0	90	28420
2026-01-16 11:02:33.16	144.82	8.74	-60.0	-77.4	3.8	7.45e-01	0	46	104	0	90	28380
2026-01-16 11:02:34.17	144.80	8.83	-60.0	-77.4	3.8	7.44e-01	0	46	104	0	90	28486
2026-01-16 11:02:35.18	144.79	8.92	-60.0	-77.4	3.8	7.45e-01	0	46	104	0	90	28466
2026-01-16 11:02:36.19	144.78	9.01	-60.0	-77.4	3.8	7.45e-01	0	46	104	0	90	28409
2026-01-16 11:02:37.20	144.76	9.10	-60.0	-77.3	3.8	7.46e-01	0	46	104	0	90	28333
2026-01-16 11:02:38.20	144.75	9.19	-60.0	-77.4	3.8	7.44e-01	0	46	104	0	90	28377
2026-01-16 11:02:39.21	144.74	9.28	-60.0	-77.4	3.8	7.46e-01	0	46	104	0	90	28364
2026-01-16 11:02:40.22	144.72	9.37	-60.0	-77.3	3.8	7.41e-01	0	46	104	0	90	28304
2026-01-16 11:02:41.23	144.71	9.46	-60.0	-77.4	3.8	7.45e-01	0	46	104	0	90	28361
2026-01-16 11:02:42.24	144.69	9.55	-60.0	-77.3	3.8	7.46e-01	0	46	104	0	90	28349
2026-01-16 11:02:43.25	144.68	9.65	-60.0	-77.4	3.8	7.42e-01	0	46	104	0	90	28416
2026-01-16 11:02:44.25	144.66	9.74	-60.0	-77.4	3.8	7.42e-01	0	46	104	0	90	28413
2026-01-16 11:02:45.26	144.65	9.83	-60.0	-77.4	3.8	7.46e-01	0	46	104	0	90	28448
2026-01-16 11:02:46.27	144.64	9.93	-60.0	-77.4	3.8	7.43e-01	0	46	104	0	90	28447
2026-01-16 11:02:47.28	144.62	10.02	-60.0	-77.4	3.8	7.42e-01	0	46	104	0	90	28445
2026-01-16 11:02:48.29	144.61	10.11	-60.1	-77.4	3.8	7.46e-01	0	46	104	0	90	28450
2026-01-16 11:02:49.30	144.59	10.21	-60.0	-77.4	3.8	7.45e-01	0	46	104	0	90	28442
2026-01-16 11:02:50.30	144.58	10.30	-60.0	-77.4	3.8	7.44e-01	0	46	104	0	90	28414
2026-01-16 11:02:51.31	144.56	10.40	-60.0	-77.4	3.8	7.45e-01	0	46	104	0	90	28412
2026-01-16 11:02:52.32	144.55	10.50	-60.1	-77.4	3.8	7.47e-01	0	46	104	0	90	28448
2026-01-16 11:02:53.33	144.53	10.59	-60.0	-77.4	3.8	7.45e-01	0	46	104	0	90	28387
2026-01-16 11:02:54.33	144.51	10.69	-60.0	-77.4	3.8	7.47e-01	0	46	104	0	90	28416
2026-01-16 11:02:55.34	144.50	10.79	-60.1	-77.4	3.8	7.47e-01	0	46	104	0	90	28439
2026-01-16 11:02:56.35	144.48	10.88	-60.0	-77.4	3.8	7.44e-01	0	46	104	0	90	28424
2026-01-16 11:02:57.36	144.47	10.98	-60.1	-77.4	3.8	7.41e-01	0	46	104	0	90	28401
2026-01-16 11:02:58.37	144.45	11.08	-60.0	-77.4	3.8	7.45e-01	0	47	104	0	90	28387
2026-01-16 11:02:59.38	144.43	11.18	-60.1	-77.4	3.8	7.45e-01	0	46	104	0	90	28395
2026-01-16 11:03:00.38	144.42	11.28	-60.0	-77.4	3.8	7.44e-01	0	46	104	0	90	28403
2026-01-16 11:03:01.39	144.40	11.38	-60.0	-77.4	3.8	7.44e-01	0	46	104	0	90	28411
2026-01-16 11:03:02.40	144.38	11.48	-60.1	-77.4	3.8	7.44e-01	0	46	104	0	90	28439
2026-01-16 11:03:03.41	144.37	11.58	-60.0	-77.4	3.8	7.45e-01	0	46	104	0	90	28444
2026-01-16 11:03:04.41	144.35	11.68	-60.1	-77.3	3.8	7.48e-01	0	46	104	0	90	28340
2026-01-16 11:03:05.42	144.33	11.78	-60.1	-77.4	3.8	7.44e-01	0	47	104	0	90	28424
2026-01-16 11:03:06.43	144.31	11.88	-60.1	-77.4	3.8	7.44e-01	0	47	104	0	90	28407
2026-01-16 11:03:07.44	144.30	11.99	-60.1	-77.4	3.8	7.45e-01	0	46	104	0	90	28408
2026-01-16 11:03:08.45	144.28	12.09	-60.1	-77.4	3.8	7.44e-01	0	47	104	0	90	28507
2026-01-16 11:03:09.46	144.26	12.19	-60.1	-77.3	3.8	7.43e-01	0	47	104	0	90	28340
2026-01-16 11:03:10.46	144.24	12.30	-60.1	-77.4	3.8	7.40e-01	0	47	104	0	90	28455
2026-01-16 11:03:11.47	144.23	12.40	-60.1	-77.4	3.8	7.49e-01	0	47	104	0	90	28496
2026-01-16 11:03:12.48	144.21	12.51	-60.1	-77.4	3.8	7.43e-01	0	47	104	0	90	28446
2026-01-16 11:03:13.48	144.19	12.61	-60.1	-77.4	3.8	7.44e-01	0	47	104	0	90	28517
2026-01-16 11:03:14.49	144.17	12.72	-60.1	-77.4	3.8	7.43e-01	0	47	104	0	90	28493
2026-01-16 11:03:15.50	144.15	12.83	-60.1	-77.4	3.8	7.46e-01	0	47	104	0	90	28491
2026-01-16 11:03:16.51	144.13	12.93	-60.1	-77.4	3.8	7.46e-01	0	47	104	0	90	28402
2026-01-16 11:03:17.52	144.11	13.04	-60.1	-77.4	3.8	7.42e-01	0	47	104	0	90	28434
2026-01-16 11:03:18.53	144.09	13.15	-60.1	-77.4	3.8	7.48e-01	0	47	104	0	90	28435
2026-01-16 11:03:19.53	144.07	13.26	-60.1	-77.4	3.8	7.46e-01	0	47	104	0	90	28440
2026-01-16 11:03:20.54	144.05	13.37	-60.1	-77.4	3.8	7.46e-01	0	47	104	0	90	28417
2026-01-16 11:03:21.55	144.03	13.48	-60.1	-77.4	3.8	7.46e-01	0	47	104	0	90	28441
2026-01-16 11:03:22.56	144.01	13.59	-60.1	-77.4	3.8	7.45e-01	0	47	104	0	90	28482
2026-01-16 11:03:23.57	143.99	13.70	-60.1	-77.4	3.8	7.43e-01	0	47	104	0	90	28497
2026-01-16 11:03:24.57	143.97	13.81	-60.1	-77.4	3.8	7.43e-01	0	47	104	0	90	28434
2026-01-16 11:03:25.58	143.95	13.92	-60.1	-77.4	3.8	7.45e-01	0	47	104	0	90	28533
2026-01-16 11:03:26.59	143.93	14.03	-60.1	-77.4	3.8	7.43e-01	0	47	104	0	90	28443
2026-01-16 11:03:27.60	143.91	14.15	-60.1	-77.4	3.8	7.44e-01	0	47	104	0	90	28490
2026-01-16 11:03:28.61	143.89	14.26	-60.1	-77.4	3.8	7.45e-01	0	47	104	0	90	28507
2026-01-16 11:03:29.62	143.87	14.37	-60.1	-77.4	3.8	7.44e-01	0	47	104	0	90	28470
2026-01-16 11:03:30.62	143.84	14.49	-60.1	-77.4	3.8	7.45e-01	0	47	104	0	90	28443
2026-01-16 11:03:31.63	143.82	14.60	-60.1	-77.4	3.8	7.45e-01	0	47	104	0	90	28473
2026-01-16 11:03:32.64	143.80	14.72	-60.1	-77.4	3.8	7.44e-01	0	47	104	0	90	28453
2026-01-16 11:03:33.65	143.78	14.84	-60.1	-77.4	3.8	7.44e-01	0	47	104	0	90	28519
2026-01-16 11:03:34.66	143.76	14.96	-60.1	-77.4	3.8	7.44e-01	0	47	104	0	90	28419
2026-01-16 11:03:35.67	143.73	15.07	-60.1	-77.4	3.8	7.42e-01	0	47	104	0	90	28430
2026-01-16 11:03:36.68	143.71	15.19	-60.1	-77.4	3.8	7.43e-01	0	47	104	0	90	28412
2026-01-16 11:03:37.69	143.69	15.31	-60.1	-77.4	3.8	7.44e-01	0	47	104	0	90	28478
2026-01-16 11:03:38.70	143.66	15.43	-60.1	-77.4	3.8	7.46e-01	0	47	104	0	90	28414
2026-01-16 11:03:39.71	143.64	15.55	-60.1	-77.4	3.8	7.43e-01	0	47	104	0	90	28443
2026-01-16 11:03:40.72	143.61	15.67	-60.1	-77.4	3.8	7.47e-01	0	47	104	0	90	28498
2026-01-16 11:03:41.73	143.59	15.80	-60.1	-77.4	3.8	7.47e-01	0	47	104	0	90	28453
2026-01-16 11:03:42.74	143.57	15.92	-60.1	-77.4	3.8	7.47e-01	0	47	104	0	90	28489
2026-01-16 11:03:43.75	143.54	16.04	-60.1	-77.4	3.8	7.44e-01	0	47	104	0	90	28514
2026-01-16 11:03:44.76	143.52	16.17	-60.1	-77.4	3.8	7.44e-01	0	47	104	0	90	28501
2026-01-16 11:03:45.76	143.49	16.29	-60.1	-77.4	3.8	7.46e-01	0	47	104	0	90	28465
2026-01-16 11:03:46.77	143.47	16.42	-60.1	-77.4	3.8	7.46e-01	0	47	104	0	90	28511
2026-01-16 11:03:47.78	143.44	16.54	-60.1	-77.4	3.8	7.47e-01	0	48	104	0	90	28478
2026-01-16 11:03:48.79	143.41	16.67	-60.1	-77.4	3.8	7.47e-01	0	48	104	0	90	28477
2026-01-16 11:03:49.80	143.39	16.80	-60.1	-77.4	3.8	7.43e-01	0	47	104	0	90	28472
2026-01-16 11:03:50.81	143.36	16.92	-60.1	-77.4	3.8	7.44e-01	0	47	104	0	90	28463
2026-01-16 11:03:51.82	143.33	17.05	-60.1	-77.4	3.8	7.44e-01	0	47	104	0	90	28440
2026-01-16 11:03:52.82	143.31	17.18	-60.1	-77.4	3.8	7.47e-01	0	47	104	0	90	28459
2026-01-16 11:03:53.83	143.28	17.31	-60.1	-77.4	3.8	7.45e-01	0	48	104	0	90	28462
2026-01-16 11:03:54.84	143.25	17.44	-60.1	-77.4	3.8	7.47e-01	0	47	104	0	90	28490
2026-01-16 11:03:55.85	143.22	17.58	-60.1	-77.4	3.8	7.44e-01	0	47	104	0	90	28476
2026-01-16 11:03:56.86	143.20	17.71	-60.1	-77.4	3.8	7.47e-01	0	48	104	0	90	28505
2026-01-16 11:03:57.86	143.17	17.84	-60.1	-77.4	3.8	7.45e-01	0	48	104	0	90	28465
2026-01-16 11:03:58.88	143.14	17.98	-60.1	-77.4	3.8	7.41e-01	0	48	104	0	90	28475
2026-01-16 11:03:59.88	143.11	18.11	-60.1	-77.4	3.8	7.45e-01	0	48	104	0	90	28482
2026-01-16 11:04:00.89	143.08	18.25	-60.1	-77.4	3.8	7.43e-01	0	48	104	0	90	28545
2026-01-16 11:04:01.90	143.05	18.38	-60.1	-77.4	3.8	7.48e-01	0	48	104	0	90	28568
2026-01-16 11:04:02.91	143.02	18.52	-60.1	-77.4	3.8	7.43e-01	0	48	104	0	90	28530
2026-01-16 11:04:03.91	142.99	18.66	-60.1	-77.4	3.8	7.44e-01	0	48	104	0	90	28497
2026-01-16 11:04:04.92	142.96	18.80	-60.1	-77.4	3.8	7.47e-01	0	48	104	0	90	28548
2026-01-16 11:04:05.93	142.93	18.94	-60.1	-77.4	3.8	7.47e-01	0	48	104	0	90	28479
2026-01-16 11:04:06.94	142.90	19.08	-60.1	-77.4	3.8	7.48e-01	0	48	104	0	90	28460
2026-01-16 11:04:07.95	142.87	19.22	-60.1	-77.4	3.8	7.45e-01	0	48	104	0	90	28539
2026-01-16 11:04:08.96	142.83	19.37	-60.1	-77.4	3.8	7.43e-01	0	48	104	0	90	28508
2026-01-16 11:04:09.96	142.80	19.51	-60.1	-77.4	3.8	7.43e-01	0	48	104	0	90	28514
2026-01-16 11:04:10.97	142.77	19.65	-60.1	-77.4	3.8	7.47e-01	0	48	104	0	90	28480
2026-01-16 11:04:11.98	142.74	19.80	-60.1	-77.4	3.8	7.47e-01	0	48	104	0	90	28541
2026-01-16 11:04:12.99	142.70	19.95	-60.1	-77.4	3.8	7.45e-01	0	48	104	0	90	28493
2026-01-16 11:04:14.00	142.67	20.09	-60.1	-77.4	3.8	7.42e-01	0	48	104	0	90	28517
2026-01-16 11:04:15.01	142.63	20.24	-60.1	-77.4	3.8	7.44e-01	0	48	104	0	90	28488
2026-01-16 11:04:16.02	142.60	20.39	-60.1	-77.4	3.8	7.45e-01	0	48	104	0	90	28507
2026-01-16 11:04:17.03	142.56	20.54	-60.1	-77.4	3.8	7.49e-01	0	48	104	0	90	28435
2026-01-16 11:04:18.04	142.53	20.69	-60.1	-77.4	3.8	7.45e-01	0	48	104	0	90	28508
2026-01-16 11:04:19.04	142.49	20.84	-60.1	-77.4	3.8	7.47e-01	0	48	104	0	90	28533
2026-01-16 11:04:20.05	142.46	21.00	-60.1	-77.4	3.8	7.44e-01	0	48	104	0	90	28457
2026-01-16 11:04:21.07	142.42	21.15	-60.1	-77.4	3.8	7.43e-01	0	48	104	0	90	28544
2026-01-16 11:04:22.07	142.38	21.31	-60.1	-77.4	3.8	7.48e-01	0	48	104	0	90	28477
2026-01-16 11:04:23.08	142.35	21.46	-60.1	-77.4	3.8	7.44e-01	0	48	104	0	90	28471
2026-01-16 11:04:24.09	142.31	21.62	-60.1	-77.4	3.8	7.47e-01	0	48	104	0	90	28449
2026-01-16 11:04:25.10	142.27	21.78	-60.1	-77.4	3.8	7.50e-01	0	48	104	0	90	28475
2026-01-16 11:04:26.11	142.23	21.94	-60.1	-77.4	3.8	7.43e-01	0	48	104	0	90	28419
2026-01-16 11:04:27.11	142.19	22.10	-60.1	-77.4	3.8	7.41e-01	0	48	104	0	90	28448
2026-01-16 11:04:28.12	142.15	22.26	-60.1	-77.4	3.8	7.45e-01	0	48	104	0	90	28526
2026-01-16 11:04:29.13	142.11	22.42	-60.1	-77.4	3.8	7.42e-01	0	48	104	0	90	28487
2026-01-16 11:04:30.14	142.07	22.59	-60.1	-77.4	3.8	7.48e-01	0	48	104	0	90	28501
2026-01-16 11:04:31.15	142.03	22.75	-60.1	-77.4	3.8	7.46e-01	0	48	104	0	90	28522
2026-01-16 11:04:32.15	141.99	22.92	-60.1	-77.4	3.8	7.46e-01	0	48	104	0	90	28423
2026-01-16 11:04:33.16	141.94	23.08	-60.1	-77.4	3.8	7.43e-01	0	48	104	0	90	28503
2026-01-16 11:04:34.17	141.90	23.25	-60.1	-77.4	3.8	7.49e-01	0	48	104	0	90	28506
2026-01-16 11:04:35.18	141.86	23.42	-60.1	-77.4	3.8	7.46e-01	0	48	104	0	90	28562
2026-01-16 11:04:36.19	141.81	23.59	-60.1	-77.4	3.8	7.45e-01	0	48	104	0	90	28486
2026-01-16 11:04:37.20	141.77	23.77	-60.1	-77.4	3.8	7.43e-01	0	48	104	0	90	28523
2026-01-16 11:04:38.21	141.73	23.94	-60.1	-77.4	3.8	7.46e-01	0	48	104	0	90	28460
2026-01-16 11:04:39.22	141.68	24.11	-60.1	-77.4	3.8	7.46e-01	0	48	104	0	90	28458
2026-01-16 11:04:40.23	141.63	24.29	-60.1	-77.4	3.8	7.44e-01	0	48	104	0	90	28493
2026-01-16 11:04:41.23	141.59	24.47	-60.1	-77.4	3.8	7.46e-01	0	48	104	0	90	28485
2026-01-16 11:04:42.24	141.54	24.64	-60.1	-77.4	3.8	7.45e-01	0	48	104	0	90	28557
2026-01-16 11:04:43.25	141.49	24.82	-60.1	-77.4	3.8	7.46e-01	0	48	104	0	90	28456
2026-01-16 11:04:44.26	141.44	25.00	-60.1	-77.4	3.8	7.48e-01	0	48	104	0	90	28484
2026-01-16 11:04:45.27	141.39	25.19	-60.1	-77.4	3.8	7.44e-01	0	48	104	0	90	28538
2026-01-16 11:04:46.28	141.35	25.37	-60.1	-77.4	3.8	7.45e-01	0	48	104	0	90	28530
2026-01-16 11:04:47.29	141.29	25.56	-60.1	-77.4	3.8	7.45e-01	0	48	104	0	90	28464
2026-01-16 11:04:48.30	141.24	25.74	-60.1	-77.4	3.8	7.44e-01	0	48	104	0	90	28468
2026-01-16 11:04:49.31	141.19	25.93	-60.1	-77.4	3.8	7.46e-01	0	48	104	0	90	28540
2026-01-16 11:04:50.32	141.14	26.12	-60.1	-77.4	3.8	7.48e-01	0	48	104	0	90	28523
2026-01-16 11:04:51.32	141.09	26.31	-60.1	-77.4	3.8	7.48e-01	0	48	104	0	90	28525
2026-01-16 11:04:52.33	141.03	26.50	-60.1	-77.4	3.8	7.47e-01	0	48	104	0	90	28505
2026-01-16 11:04:53.34	140.98	26.69	-60.1	-77.4	3.8	7.44e-01	0	48	104	0	90	28556
2026-01-16 11:04:54.35	140.92	26.89	-60.1	-77.4	3.8	7.41e-01	0	48	104	0	90	28552
2026-01-16 11:04:55.36	140.87	27.09	-60.1	-77.4	3.8	7.43e-01	0	48	104	0	90	28541
2026-01-16 11:04:56.37	140.81	27.28	-60.1	-77.4	3.8	7.47e-01	0	48	104	0	90	28469
2026-01-16 11:04:57.37	140.75	27.48	-60.1	-77.4	3.8	7.43e-01	0	48	104	0	90	28485
2026-01-16 11:04:58.38	140.69	27.68	-60.1	-77.4	3.8	7.46e-01	0	48	104	0	90	28472
2026-01-16 11:04:59.39	140.64	27.89	-60.1	-77.4	3.8	7.47e-01	0	48	104	0	90	28519
2026-01-16 11:05:00.40	140.58	28.09	-60.1	-77.4	3.8	7.46e-01	0	48	104	0	90	28456
2026-01-16 11:05:01.41	140.51	28.30	-60.1	-77.4	3.8	7.45e-01	0	48	104	0	90	28493
2026-01-16 11:05:02.41	140.45	28.50	-60.1	-77.4	3.8	7.47e-01	0	48	104	0	90	28519
2026-01-16 11:05:03.42	140.39	28.71	-60.1	-77.4	3.8	7.45e-01	0	48	104	0	90	28492
2026-01-16 11:05:04.43	140.33	28.92	-60.1	-77.4	3.8	7.46e-01	0	48	104	0	90	28512
2026-01-16 11:05:05.44	140.26	29.13	-60.1	-77.4	3.8	7.44e-01	0	48	104	0	90	28497
2026-01-16 11:05:06.45	140.20	29.35	-60.1	-77.4	3.8	7.49e-01	0	48	104	0	90	28497
2026-01-16 11:05:07.46	140.13	29.56	-60.1	-77.4	3.8	7.46e-01	0	48	104	0	90	28537
2026-01-16 11:05:08.47	140.06	29.78	-60.1	-77.4	3.8	7.45e-01	0	48	104	0	90	28502
2026-01-16 11:05:09.48	140.00	30.00	-60.1	-77.4	3.8	7.45e-01	0	49	104	0	90	28502
2026-01-16 11:05:10.48	139.93	30.22	-60.1	-77.4	3.8	7.46e-01	0	48	104	0	90	28515
2026-01-16 11:05:11.49	139.86	30.44	-60.1	-77.4	3.8	7.47e-01	0	48	104	0	90	28502
2026-01-16 11:05:12.50	139.79	30.67	-60.1	-77.4	3.8	7.47e-01	0	48	104	0	90	28514
2026-01-16 11:05:13.51	139.71	30.89	-60.1	-77.4	3.8	7.43e-01	0	48	104	0	90	28509
2026-01-16 11:05:14.52	139.64	31.12	-60.1	-77.4	3.8	7.49e-01	0	48	104	0	90	28571
2026-01-16 11:05:15.53	139.56	31.35	-60.1	-77.4	3.8	7.41e-01	0	48	104	0	90	28490
2026-01-16 11:05:16.54	139.49	31.58	-60.1	-77.4	3.8	7.47e-01	0	48	104	0	90	28553
2026-01-16 11:05:17.55	139.41	31.82	-60.1	-77.4	3.8	7.42e-01	0	48	104	0	90	28516
2026-01-16 11:05:18.56	139.33	32.05	-60.1	-77.4	3.8	7.46e-01	0	48	104	0	90	28567
2026-01-16 11:05:19.57	139.25	32.29	-60.1	-77.4	3.8	7.44e-01	0	48	104	0	90	28565
2026-01-16 11:05:20.58	139.17	32.53	-60.1	-77.4	3.8	7.46e-01	0	48	104	0	90	28473
2026-01-16 11:05:21.58	139.09	32.77	-60.1	-77.4	3.8	7.47e-01	0	48	104	0	90	28560
2026-01-16 11:05:22.59	139.01	33.01	-60.1	-77.4	3.8	7.45e-01	0	48	104	0	90	28553
2026-01-16 11:05:23.60	138.92	33.26	-60.1	-77.4	3.8	7.43e-01	0	48	104	0	90	28496
2026-01-16 11:05:24.61	138.84	33.51	-60.1	-77.4	3.8	7.46e-01	0	48	104	0	90	28520
2026-01-16 11:05:25.62	138.75	33.76	-60.1	-77.4	3.8	7.48e-01	0	48	104	0	90	28509
2026-01-16 11:05:26.62	138.66	34.01	-60.1	-77.4	3.8	7.48e-01	0	48	104	0	90	28530
2026-01-16 11:05:27.63	138.57	34.26	-60.1	-77.4	3.8	7.48e-01	0	48	104	0	90	28525
2026-01-16 11:05:28.64	138.48	34.52	-60.1	-77.4	3.8	7.47e-01	0	48	104	0	90	28579
2026-01-16 11:05:29.65	138.39	34.78	-60.1	-77.4	3.8	7.45e-01	0	49	104	0	90	28512
2026-01-16 11:05:30.66	138.29	35.04	-60.1	-77.4	3.8	7.45e-01	0	48	104	0	90	28505
2026-01-16 11:05:31.67	138.19	35.30	-60.1	-77.4	3.8	7.47e-01	0	48	104	0	90	28513
2026-01-16 11:05:32.68	138.10	35.57	-60.1	-77.4	3.8	7.45e-01	0	49	104	0	90	28547
2026-01-16 11:05:33.68	138.00	35.83	-60.1	-77.4	3.8	7.44e-01	0	48	104	0	90	28581
2026-01-16 11:05:34.69	137.89	36.10	-60.1	-77.4	3.8	7.45e-01	0	48	104	0	90	28514
2026-01-16 11:05:35.70	137.79	36.37	-60.1	-77.4	3.8	7.45e-01	0	49	104	0	90	28522
2026-01-16 11:05:36.71	137.69	36.65	-60.1	-77.4	3.8	7.44e-01	0	49	104	0	90	28558
2026-01-16 11:05:37.72	137.58	36.92	-60.1	-77.4	3.8	7.46e-01	0	49	104	0	90	28476
2026-01-16 11:05:38.73	137.47	37.20	-60.1	-77.4	3.8	7.41e-01	0	48	104	0	90	28553
2026-01-16 11:05:39.74	137.36	37.48	-60.1	-77.4	3.8	7.46e-01	0	49	104	0	90	28568
2026-01-16 11:05:40.75	137.24	37.77	-60.1	-77.4	3.8	7.46e-01	0	49	104	0	90	28543
2026-01-16 11:05:41.75	137.13	38.05	-60.1	-77.4	3.8	7.46e-01	0	49	104	0	90	28535
2026-01-16 11:05:42.76	137.01	38.34	-60.1	-77.4	3.8	7.46e-01	0	49	104	0	90	28521
2026-01-16 11:05:43.77	136.89	38.63	-60.1	-77.4	3.8	7.45e-01	0	49	104	0	90	28528
2026-01-16 11:05:44.78	136.77	38.92	-60.1	-77.4	3.8	7.42e-01	0	49	104	0	90	28446
2026-01-16 11:05:45.79	136.65	39.22	-60.1	-77.4	3.8	7.46e-01	0	49	104	0	90	28543
2026-01-16 11:05:46.80	136.52	39.52	-60.1	-77.4	3.8	7.46e-01	0	49	104	0	90	28528
2026-01-16 11:05:47.81	136.39	39.82	-60.1	-77.4	3.8	7.44e-01	0	49	104	0	90	28499
2026-01-16 11:05:48.81	136.26	40.12	-60.1	-77.4	3.8	7.45e-01	0	49	104	0	90	28512
2026-01-16 11:05:49.82	136.12	40.43	-60.1	-77.4	3.8	7.46e-01	0	49	104	0	90	28507
2026-01-16 11:05:50.83	135.99	40.74	-60.1	-77.4	3.8	7.45e-01	0	49	104	0	90	28600
2026-01-16 11:05:51.84	135.85	41.05	-60.1	-77.4	3.8	7.46e-01	0	49	104	0	90	28540
2026-01-16 11:05:52.85	135.70	41.36	-60.1	-77.4	3.8	7.42e-01	0	49	104	0	90	28530
2026-01-16 11:05:53.86	135.56	41.68	-60.1	-77.4	3.8	7.47e-01	0	49	104	0	90	28520
2026-01-16 11:05:54.87	135.41	42.00	-60.1	-77.4	3.8	7.43e-01	0	49	104	0	90	28566
2026-01-16 11:05:55.88	135.26	42.32	-60.1	-77.4	3.8	7.46e-01	0	49	104	0	90	28483
2026-01-16 11:05:56.89	135.10	42.65	-60.1	-77.4	3.8	7.46e-01	0	49	104	0	90	28521
2026-01-16 11:05:57.90	134.94	42.97	-60.1	-77.4	3.8	7.45e-01	0	49	104	0	90	28542
2026-01-16 11:05:58.90	134.78	43.30	-60.1	-77.4	3.8	7.47e-01	0	49	104	0	90	28523
2026-01-16 11:05:59.91	134.62	43.63	-60.1	-77.4	3.8	7.42e-01	0	49	104	0	90	28563
2026-01-16 11:06:00.92	134.45	43.97	-60.1	-77.4	3.8	7.46e-01	0	49	104	0	90	28504
2026-01-16 11:06:01.93	134.28	44.31	-60.1	-77.4	3.8	7.45e-01	0	49	104	0	90	28542
2026-01-16 11:06:02.94	134.10	44.65	-60.1	-77.4	3.8	7.49e-01	0	49	104	0	90	28503
2026-01-16 11:06:03.94	133.92	44.99	-60.1	-77.4	3.8	7.46e-01	0	49	104	0	90	28560
2026-01-16 11:06:04.95	133.74	45.34	-60.1	-77.4	3.8	7.43e-01	0	49	104	0	90	28534
2026-01-16 11:06:05.96	133.55	45.69	-60.1	-77.4	3.8	7.45e-01	0	49	104	0	90	28552
2026-01-16 11:06:06.97	133.36	46.04	-60.1	-77.4	3.8	7.46e-01	0	48	104	0	90	28559
2026-01-16 11:06:07.97	133.16	46.39	-60.1	-77.4	3.8	7.42e-01	0	49	104	0	90	28453
2026-01-16 11:06:08.98	132.96	46.75	-60.1	-77.4	3.8	7.46e-01	0	49	104	0	90	28511
2026-01-16 11:06:09.99	132.75	47.11	-60.1	-77.4	3.8	7.44e-01	0	49	104	0	90	28546
2026-01-16 11:06:11.00	132.54	47.48	-60.1	-77.4	3.8	7.45e-01	0	49	104	0	90	28495
2026-01-16 11:06:12.01	132.32	47.85	-60.1	-77.4	3.8	7.44e-01	0	49	104	0	90	28567
2026-01-16 11:06:13.02	132.10	48.22	-60.1	-77.4	3.8	7.46e-01	0	49	104	0	90	28572
2026-01-16 11:06:14.03	131.87	48.59	-60.1	-77.4	3.8	7.46e-01	0	49	104	0	90	28456
2026-01-16 11:06:15.04	131.64	48.96	-60.1	-77.4	3.8	7.43e-01	0	49	104	0	90	28530
2026-01-16 11:06:16.05	131.40	49.34	-60.1	-77.4	3.8	7.45e-01	0	49	104	0	90	28493
2026-01-16 11:06:17.06	131.15	49.72	-60.1	-77.4	3.8	7.46e-01	0	49	104	0	90	28545
2026-01-16 11:06:18.06	130.90	50.10	-60.1	-77.4	3.8	7.44e-01	0	49	104	0	90	28499
2026-01-16 11:06:19.08	130.64	50.49	-60.1	-77.4	3.8	7.49e-01	0	49	104	0	90	28500
2026-01-16 11:06:20.08	130.38	50.88	-60.1	-77.4	3.8	7.44e-01	0	49	104	0	90	28543
2026-01-16 11:06:21.09	130.10	51.27	-60.1	-77.4	3.8	7.45e-01	0	49	104	0	90	28488
2026-01-16 11:06:22.10	129.82	51.67	-60.1	-77.4	3.8	7.43e-01	0	49	104	0	90	28545
2026-01-16 11:06:23.11	129.53	52.06	-60.1	-77.4	3.8	7.46e-01	0	49	104	0	90	28544
2026-01-16 11:06:24.12	129.24	52.46	-60.1	-77.4	3.8	7.48e-01	0	49	104	0	90	28526
2026-01-16 11:06:25.12	128.94	52.86	-60.1	-77.4	3.8	7.46e-01	0	49	104	0	90	28486
2026-01-16 11:06:26.13	128.62	53.27	-60.1	-77.4	3.8	7.44e-01	0	49	104	0	90	28582
2026-01-16 11:06:27.14	128.30	53.68	-60.1	-77.4	3.8	7.46e-01	0	49	104	0	90	28518
2026-01-16 11:06:28.15	127.97	54.09	-60.1	-77.4	3.8	7.45e-01	0	49	104	0	90	28501
2026-01-16 11:06:29.16	127.63	54.50	-60.1	-77.4	3.8	7.44e-01	0	49	104	0	90	28520
2026-01-16 11:06:30.17	127.27	54.91	-60.1	-77.4	3.8	7.47e-01	0	49	104	0	90	28547
2026-01-16 11:06:31.18	126.91	55.33	-60.1	-77.4	3.8	7.43e-01	0	49	104	0	90	28548
2026-01-16 11:06:32.19	126.54	55.75	-60.1	-77.4	3.8	7.42e-01	0	49	104	0	90	28558
2026-01-16 11:06:33.20	126.15	56.17	-60.1	-77.4	3.8	7.48e-01	0	49	104	0	90	28575
2026-01-16 11:06:34.21	125.76	56.60	-60.1	-77.4	3.8	7.47e-01	0	49	104	0	90	28540
2026-01-16 11:06:35.22	125.35	57.02	-60.1	-77.4	3.8	7.45e-01	0	49	104	0	90	28564
2026-01-16 11:06:36.23	124.92	57.45	-60.1	-77.4	3.8	7.43e-01	0	49	104	0	90	28561
2026-01-16 11:06:37.24	124.49	57.88	-60.1	-77.4	3.8	7.45e-01	0	49	104	0	90	28533
2026-01-16 11:06:38.24	124.04	58.31	-60.1	-77.4	3.8	7.44e-01	0	49	104	0	90	28545
2026-01-16 11:06:39.25	123.58	58.74	-60.1	-77.4	3.8	7.47e-01	0	49	104	0	90	28598
2026-01-16 11:06:40.26	123.09	59.17	-60.1	-77.4	3.8	7.46e-01	0	49	104	0	90	28610
2026-01-16 11:06:41.27	122.60	59.61	-60.1	-77.4	3.8	7.44e-01	0	49	104	0	90	28532
2026-01-16 11:06:42.27	122.09	60.04	-60.1	-77.4	3.8	7.45e-01	0	49	104	0	90	28621
2026-01-16 11:06:43.28	121.55	60.48	-60.1	-77.4	3.8	7.50e-01	0	49	104	0	90	28570
2026-01-16 11:06:44.29	121.00	60.92	-60.1	-77.4	3.8	7.45e-01	0	49	104	0	90	28528
2026-01-16 11:06:45.30	120.43	61.36	-60.1	-77.4	3.8	7.45e-01	0	49	104	0	90	28514
2026-01-16 11:06:46.31	119.84	61.79	-60.1	-77.4	3.8	7.46e-01	0	49	104	0	90	28527
2026-01-16 11:06:47.32	119.22	62.23	-60.1	-77.4	3.8	7.44e-01	0	49	104	0	90	28539
2026-01-16 11:06:48.33	118.59	62.67	-60.1	-77.4	3.8	7.43e-01	0	49	104	0	90	28608
2026-01-16 11:06:49.34	117.93	63.11	-60.1	-77.4	3.8	7.46e-01	0	49	104	0	90	28587
2026-01-16 11:06:50.34	117.25	63.55	-60.1	-77.4	3.8	7.42e-01	0	49	104	0	90	28555
2026-01-16 11:06:51.35	116.53	63.98	-60.1	-77.4	3.8	7.41e-01	0	49	104	0	90	28550
2026-01-16 11:06:52.36	115.80	64.42	-60.1	-77.4	3.8	7.48e-01	0	49	104	0	90	28545
2026-01-16 11:06:53.37	115.03	64.86	-60.1	-77.4	3.8	7.43e-01	0	49	104	0	90	28553
2026-01-16 11:06:54.38	114.23	65.29	-60.1	-77.4	3.8	7.48e-01	0	49	104	0	90	28590
2026-01-16 11:06:55.39	113.40	65.72	-60.1	-77.4	3.8	7.46e-01	0	49	104	0	90	28579
2026-01-16 11:06:56.40	112.53	66.15	-60.1	-77.4	3.8	7.48e-01	0	49	104	0	90	28546
2026-01-16 11:06:57.41	111.63	66.58	-60.1	-77.4	3.8	7.47e-01	0	49	104	0	90	28555
2026-01-16 11:06:58.41	110.71	67.00	-60.1	-77.4	3.8	7.47e-01	0	49	104	0	90	28482
2026-01-16 11:06:59.42	109.73	67.42	-60.1	-77.4	3.8	7.44e-01	0	49	104	0	90	28532
2026-01-16 11:07:00.43	108.72	67.83	-60.1	-77.4	3.8	7.44e-01	0	49	104	0	90	28511
2026-01-16 11:07:01.44	107.66	68.24	-60.1	-77.4	3.8	7.44e-01	0	49	104	0	90	28493
2026-01-16 11:07:02.45	106.56	68.65	-60.1	-77.4	3.8	7.44e-01	0	49	104	0	90	28577
2026-01-16 11:07:03.46	105.41	69.05	-60.1	-77.4	3.8	7.43e-01	0	49	104	0	90	28529
2026-01-16 11:07:04.46	104.23	69.44	-60.1	-77.4	3.8	7.47e-01	0	49	104	0	90	28526
2026-01-16 11:07:05.47	102.99	69.83	-60.1	-77.4	3.8	7.48e-01	0	49	104	0	90	28525
2026-01-16 11:07:06.48	101.69	70.21	-60.1	-77.4	3.8	7.48e-01	0	49	104	0	90	28540
2026-01-16 11:07:07.49	100.34	70.58	-60.1	-77.4	3.8	7.43e-01	0	49	104	0	90	28532
2026-01-16 11:07:08.50	98.93	70.94	-60.1	-77.4	3.8	7.47e-01	0	49	104	0	90	28552
2026-01-16 11:07:09.50	97.49	71.29	-60.1	-77.4	3.8	7.43e-01	0	49	104	0	90	28554
2026-01-16 11:07:10.51	95.96	71.63	-60.1	-77.4	3.8	7.46e-01	0	49	104	0	90	28588
2026-01-16 11:07:11.52	94.38	71.96	-60.1	-77.4	3.8	7.44e-01	0	49	104	0	90	28529
2026-01-16 11:07:12.53	92.74	72.27	-60.1	-77.4	3.8	7.44e-01	0	49	104	0	90	28551
2026-01-16 11:07:13.54	91.04	72.58	-60.1	-77.4	3.8	7.49e-01	0	49	104	0	90	28571
2026-01-16 11:07:14.54	89.29	72.86	-60.1	-77.4	3.8	7.46e-01	0	49	104	0	90	28587
2026-01-16 11:07:15.55	87.46	73.13	-60.1	-77.4	3.8	7.47e-01	0	49	104	0	90	28573
2026-01-16 11:07:16.56	85.57	73.39	-60.1	-77.4	3.8	7.46e-01	0	49	104	0	90	28605
2026-01-16 11:07:17.57	83.62	73.63	-60.1	-77.4	3.8	7.46e-01	0	49	104	0	90	28621
2026-01-16 11:07:18.57	81.63	73.85	-60.1	-77.4	3.8	7.47e-01	0	49	104	0	90	28540
2026-01-16 11:07:19.58	79.57	74.05	-60.1	-77.4	3.8	7.45e-01	0	49	104	0	90	28530
2026-01-16 11:07:20.59	77.45	74.24	-60.1	-77.4	3.8	7.45e-01	0	49	104	0	90	28538
2026-01-16 11:07:21.60	75.29	74.40	-60.1	-77.4	3.8	7.46e-01	0	49	104	0	90	28531
2026-01-16 11:07:22.61	73.08	74.54	-60.1	-77.4	3.8	7.43e-01	0	49	104	0	90	28517
2026-01-16 11:07:23.62	70.83	74.65	-60.1	-77.4	3.8	7.46e-01	0	49	104	0	90	28556
2026-01-16 11:07:24.62	68.57	74.75	-60.1	-77.4	3.8	7.46e-01	0	49	104	0	90	28577
2026-01-16 11:07:25.63	66.27	74.82	-60.1	-77.4	3.8	7.48e-01	0	49	104	0	90	28593
2026-01-16 11:07:26.64	63.94	74.87	-60.1	-77.4	3.8	7.46e-01	0	49	104	0	90	28566
2026-01-16 11:07:27.65	61.61	74.89	-60.1	-77.4	3.8	7.43e-01	0	49	104	0	90	28561
2026-01-16 11:07:28.66	59.27	74.89	-60.1	-77.4	3.8	7.47e-01	0	49	104	0	90	28548
2026-01-16 11:07:29.67	56.93	74.86	-60.1	-77.4	3.8	7.45e-01	0	49	104	0	90	28566
2026-01-16 11:07:30.68	54.61	74.81	-60.1	-77.4	3.8	7.48e-01	0	49	104	0	90	28567
2026-01-16 11:07:31.69	52.30	74.74	-60.1	-77.4	3.8	7.41e-01	0	49	104	0	90	28573
2026-01-16 11:07:32.70	50.03	74.64	-60.1	-77.4	3.8	7.44e-01	0	49	104	0	90	28547
2026-01-16 11:07:33.71	47.78	74.52	-60.1	-77.4	3.8	7.46e-01	0	49	104	0	90	28580
2026-01-16 11:07:34.71	45.60	74.38	-60.1	-77.4	3.8	7.45e-01	0	49	104	0	90	28500
2026-01-16 11:07:35.72	43.44	74.22	-60.1	-77.4	3.8	7.46e-01	0	49	104	0	90	28576
2026-01-16 11:07:36.73	41.33	74.04	-60.1	-77.4	3.8	7.45e-01	0	49	104	0	90	28589
2026-01-16 11:07:37.74	39.27	73.83	-60.1	-77.4	3.8	7.44e-01	0	49	104	0	90	28534
2026-01-16 11:07:38.75	37.27	73.61	-60.1	-77.4	3.8	7.46e-01	0	49	104	0	90	28538
2026-01-16 11:07:39.76	35.32	73.37	-60.1	-77.4	3.8	7.46e-01	0	49	104	0	90	28371
2026-01-16 11:07:40.76	33.46	73.11	-60.1	-77.4	3.8	7.44e-01	0	49	104	0	90	28509
2026-01-16 11:07:41.77	31.64	72.84	-60.1	-77.4	3.8	7.45e-01	0	49	104	0	90	28559
2026-01-16 11:07:42.78	29.88	72.55	-60.1	-77.4	3.8	7.47e-01	0	49	104	0	90	28588
2026-01-16 11:07:43.79	28.18	72.24	-60.1	-77.4	3.8	7.43e-01	0	49	104	0	90	28616
2026-01-16 11:07:44.80	26.55	71.93	-60.1	-77.4	3.8	7.46e-01	0	49	104	0	90	28529
2026-01-16 11:07:45.80	24.99	71.60	-60.1	-77.4	3.8	7.46e-01	0	49	104	0	90	28513
2026-01-16 11:07:46.81	23.47	71.26	-60.1	-77.4	3.8	7.44e-01	0	49	104	0	90	28537
2026-01-16 11:07:47.82	22.02	70.91	-60.1	-77.4	3.8	7.48e-01	0	49	104	0	90	28588
2026-01-16 11:07:48.83	20.62	70.55	-60.1	-77.4	3.8	7.44e-01	0	49	104	0	90	28522
2026-01-16 11:07:49.84	19.27	70.17	-60.1	-77.4	3.8	7.45e-01	0	49	104	0	90	28584
2026-01-16 11:07:50.84	17.99	69.80	-60.1	-77.4	3.8	7.49e-01	0	49	104	0	90	28550
2026-01-16 11:07:51.85	16.75	69.41	-60.1	-77.4	3.8	7.43e-01	0	49	104	0	90	28502
2026-01-16 11:07:52.86	15.57	69.02	-60.1	-77.4	3.8	7.42e-01	0	49	104	0	90	28596
2026-01-16 11:07:53.87	14.42	68.62	-60.1	-77.4	3.8	7.45e-01	0	49	104	0	90	28553
2026-01-16 11:07:54.88	13.33	68.21	-60.1	-77.4	3.8	7.47e-01	0	49	104	0	90	28596
2026-01-16 11:07:55.88	12.29	67.81	-60.1	-77.4	3.8	7.48e-01	0	49	104	0	90	28598
2026-01-16 11:07:56.89	11.28	67.39	-60.1	-77.4	3.8	7.44e-01	0	50	104	0	90	28569
2026-01-16 11:07:57.90	10.30	66.97	-60.1	-77.4	3.8	7.44e-01	0	49	104	0	90	28492
2026-01-16 11:07:58.91	9.37	66.55	-60.1	-77.4	3.8	7.50e-01	0	49	104	0	90	28573
2026-01-16 11:07:59.92	8.48	66.12	-60.1	-77.4	3.8	7.47e-01	0	49	104	0	90	28572
2026-01-16 11:08:00.92	7.63	65.70	-60.1	-77.4	3.8	7.47e-01	0	49	104	0	90	28582
2026-01-16 11:08:01.93	6.80	65.27	-60.1	-77.4	3.8	7.43e-01	0	49	104	0	90	28540
2026-01-16 11:08:02.94	6.00	64.83	-60.1	-77.4	3.8	7.48e-01	0	49	104	0	90	28536
2026-01-16 11:08:03.95	5.24	64.40	-60.1	-77.4	3.8	7.45e-01	0	49	104	0	90	28576
2026-01-16 11:08:04.96	4.50	63.96	-60.1	-77.4	3.8	7.46e-01	0	49	104	0	90	28529
2026-01-16 11:08:05.96	3.80	63.53	-60.1	-77.4	3.8	7.44e-01	0	49	104	0	90	28577
2026-01-16 11:08:06.97	3.12	63.09	-60.1	-77.4	3.8	7.44e-01	0	49	104	0	90	28586
2026-01-16 11:08:07.98	2.46	62.65	-60.1	-77.4	3.8	7.48e-01	0	49	104	0	90	28540
2026-01-16 11:08:08.99	1.82	62.21	-60.1	-77.4	3.8	7.43e-01	0	49	104	0	90	28536
2026-01-16 11:08:10.00	1.21	61.78	-60.1	-77.4	3.8	7.44e-01	0	49	104	0	90	28548
2026-01-16 11:08:11.01	0.62	61.34	-60.1	-77.4	3.8	7.45e-01	0	49	104	0	90	28582
2026-01-16 11:08:12.01	0.06	60.90	-60.1	-77.4	3.8	7.43e-01	0	49	104	0	90	28582
2026-01-16 11:08:13.02	359.51	60.47	-60.1	-77.4	3.8	7.48e-01	0	49	104	0	90	28528
2026-01-16 11:08:14.04	358.97	60.03	-60.1	-77.4	3.8	7.47e-01	0	49	104	0	90	28535
2026-01-16 11:08:15.04	358.46	59.60	-60.1	-77.4	3.8	7.49e-01	0	49	104	0	90	28584
2026-01-16 11:08:16.05	357.97	59.16	-60.1	-77.4	3.8	7.47e-01	0	49	104	0	90	28588
2026-01-16 11:08:17.06	357.49	58.73	-60.1	-77.4	3.8	7.43e-01	0	49	104	0	90	28584
2026-01-16 11:08:18.07	357.02	58.30	-60.1	-77.4	3.8	7.45e-01	0	49	104	0	90	28567
2026-01-16 11:08:19.08	356.57	57.87	-60.1	-77.4	3.8	7.46e-01	0	49	104	0	90	28611
2026-01-16 11:08:20.09	356.14	57.44	-60.1	-77.4	3.8	7.43e-01	0	49	104	0	90	28565
2026-01-16 11:08:21.10	355.72	57.01	-60.1	-77.4	3.8	7.44e-01	0	49	104	0	90	28555
2026-01-16 11:08:22.10	355.31	56.59	-60.1	-77.4	3.8	7.44e-01	0	49	104	0	90	28551
2026-01-16 11:08:23.11	354.92	56.17	-60.1	-77.4	3.8	7.50e-01	0	49	104	0	90	28502
2026-01-16 11:08:24.12	354.53	55.75	-60.1	-77.4	3.8	7.45e-01	0	49	104	0	90	28604
2026-01-16 11:08:25.13	354.16	55.33	-60.1	-77.4	3.8	7.46e-01	0	49	104	0	90	28571
2026-01-16 11:08:26.13	353.80	54.92	-60.1	-77.4	3.8	7.45e-01	0	49	104	0	90	28540
2026-01-16 11:08:27.14	353.45	54.50	-60.1	-77.4	3.8	7.46e-01	0	49	104	0	90	28546
2026-01-16 11:08:28.15	353.11	54.09	-60.1	-77.4	3.8	7.46e-01	0	49	104	0	90	28570
2026-01-16 11:08:29.16	352.78	53.68	-60.1	-77.4	3.8	7.43e-01	0	49	104	0	90	28544
2026-01-16 11:08:30.17	352.46	53.28	-60.1	-77.4	3.8	7.43e-01	0	49	104	0	90	28553
2026-01-16 11:08:31.18	352.15	52.87	-60.1	-77.4	3.8	7.44e-01	0	49	104	0	90	28587
2026-01-16 11:08:32.19	351.84	52.47	-60.1	-77.4	3.8	7.45e-01	0	49	104	0	90	28506
2026-01-16 11:08:33.20	351.55	52.07	-60.1	-77.4	3.8	7.45e-01	0	49	104	0	90	28545
2026-01-16 11:08:34.21	351.26	51.68	-60.1	-77.4	3.8	7.46e-01	0	49	104	0	90	28565
2026-01-16 11:08:35.21	350.98	51.29	-60.1	-77.4	3.8	7.47e-01	0	49	104	0	90	28628
2026-01-16 11:08:36.22	350.71	50.89	-60.1	-77.4	3.8	7.44e-01	0	49	104	0	90	28561
2026-01-16 11:08:37.23	350.45	50.51	-60.1	-77.4	3.8	7.44e-01	0	49	104	0	90	28586
2026-01-16 11:08:38.24	350.19	50.12	-60.1	-77.4	3.8	7.46e-01	0	49	104	0	90	28556
2026-01-16 11:08:39.25	349.94	49.74	-60.1	-77.4	3.8	7.46e-01	0	49	104	0	90	28573
2026-01-16 11:08:40.26	349.69	49.36	-60.1	-77.4	3.8	7.50e-01	0	49	104	0	90	28560
2026-01-16 11:08:41.27	349.45	48.98	-60.1	-77.4	3.8	7.44e-01	0	49	104	0	90	28552
2026-01-16 11:08:42.28	349.22	48.61	-60.1	-77.4	3.8	7.43e-01	0	49	104	0	90	28571
2026-01-16 11:08:43.29	348.99	48.23	-60.1	-77.4	3.8	7.45e-01	0	49	104	0	90	28618
2026-01-16 11:08:44.30	348.77	47.87	-60.1	-77.4	3.8	7.45e-01	0	49	104	0	90	28546
2026-01-16 11:08:45.30	348.55	47.50	-60.1	-77.4	3.8	7.48e-01	0	49	104	0	90	28552
2026-01-16 11:08:46.31	348.34	47.14	-60.1	-77.4	3.8	7.43e-01	0	49	104	0	90	28551
2026-01-16 11:08:47.32	348.14	46.78	-60.1	-77.4	3.8	7.48e-01	0	49	104	0	90	28600
2026-01-16 11:08:48.33	347.93	46.42	-60.1	-77.4	3.8	7.42e-01	0	49	104	0	90	28562
2026-01-16 11:08:49.34	347.74	46.07	-60.1	-77.4	3.8	7.44e-01	0	49	104	0	90	28606
2026-01-16 11:08:50.35	347.55	45.72	-60.1	-77.4	3.8	7.49e-01	0	49	104	0	90	28644
2026-01-16 11:08:51.36	347.36	45.37	-60.1	-77.4	3.8	7.46e-01	0	49	104	0	90	28594
2026-01-16 11:08:52.37	347.17	45.02	-60.1	-77.4	3.8	7.44e-01	0	49	104	0	90	28548
2026-01-16 11:08:53.38	346.99	44.68	-60.1	-77.4	3.8	7.44e-01	0	49	104	0	90	28565
2026-01-16 11:08:54.39	346.82	44.34	-60.1	-77.4	3.8	7.44e-01	0	49	104	0	90	28658
2026-01-16 11:08:55.40	346.65	44.00	-60.1	-77.4	3.8	7.45e-01	0	49	104	0	90	28584
2026-01-16 11:08:56.40	346.48	43.67	-60.1	-77.4	3.8	7.44e-01	0	49	104	0	90	28523
2026-01-16 11:08:57.41	346.31	43.34	-60.1	-77.4	3.8	7.46e-01	0	49	104	0	90	28540
2026-01-16 11:08:58.42	346.15	43.01	-60.1	-77.4	3.8	7.44e-01	0	49	104	0	90	28629
2026-01-16 11:08:59.43	345.99	42.68	-60.1	-77.4	3.8	7.43e-01	0	49	104	0	90	28554
2026-01-16 11:09:00.43	345.84	42.36	-60.1	-77.4	3.8	7.44e-01	0	49	104	0	90	28547
2026-01-16 11:09:01.44	345.69	42.04	-60.1	-77.4	3.8	7.42e-01	0	49	104	0	90	28556
2026-01-16 11:09:02.45	345.54	41.72	-60.1	-77.4	3.8	7.43e-01	0	49	104	0	90	28564
2026-01-16 11:09:03.46	345.40	41.40	-60.1	-77.4	3.8	7.44e-01	0	49	104	0	90	28623
2026-01-16 11:09:04.47	345.25	41.09	-60.1	-77.4	3.8	7.47e-01	0	49	104	0	90	28557
2026-01-16 11:09:05.48	345.12	40.78	-60.1	-77.4	3.8	7.42e-01	0	49	104	0	90	28557
2026-01-16 11:09:06.49	344.98	40.47	-60.1	-77.4	3.8	7.50e-01	0	50	104	0	90	28600
2026-01-16 11:09:07.50	344.84	40.17	-60.1	-77.4	3.8	7.47e-01	0	49	104	0	90	28571
2026-01-16 11:09:08.50	344.71	39.87	-60.1	-77.4	3.8	7.47e-01	0	49	104	0	90	28559
2026-01-16 11:09:09.51	344.59	39.57	-60.1	-77.4	3.8	7.41e-01	0	49	104	0	90	28558
2026-01-16 11:09:10.52	344.46	39.27	-60.1	-77.4	3.8	7.45e-01	0	49	104	0	90	28560
2026-01-16 11:09:11.53	344.33	38.97	-60.1	-77.4	3.8	7.44e-01	0	49	104	0	90	28590
2026-01-16 11:09:12.54	344.21	38.68	-60.1	-77.4	3.8	7.47e-01	0	49	104	0	90	28556
2026-01-16 11:09:13.55	344.09	38.39	-60.1	-77.4	3.8	7.46e-01	0	49	104	0	90	28616
2026-01-16 11:09:14.56	343.98	38.10	-60.1	-77.4	3.8	7.46e-01	0	49	104	0	90	28562
2026-01-16 11:09:15.56	343.86	37.82	-60.1	-77.4	3.8	7.46e-01	0	49	104	0	90	28569
2026-01-16 11:09:16.58	343.75	37.53	-60.1	-77.4	3.8	7.46e-01	0	49	104	0	90	28572
2026-01-16 11:09:17.58	343.64	37.26	-60.1	-77.4	3.8	7.42e-01	0	49	104	0	90	28534
2026-01-16 11:09:18.59	343.53	36.98	-60.1	-77.4	3.8	7.48e-01	0	49	104	0	90	28592
2026-01-16 11:09:19.60	343.42	36.70	-60.1	-77.4	3.8	7.44e-01	0	49	104	0	90	28553
2026-01-16 11:09:20.61	343.32	36.43	-60.1	-77.4	3.8	7.45e-01	0	49	104	0	90	28548
2026-01-16 11:09:21.62	343.21	36.16	-60.1	-77.4	3.8	7.43e-01	0	49	104	0	90	28528
2026-01-16 11:09:22.63	343.11	35.89	-60.1	-77.4	3.8	7.44e-01	0	49	104	0	90	28528
2026-01-16 11:09:23.64	343.01	35.62	-60.1	-77.4	3.8	7.45e-01	0	50	104	0	90	28579
2026-01-16 11:09:24.65	342.91	35.36	-60.1	-77.4	3.8	7.44e-01	0	49	104	0	90	28571
2026-01-16 11:09:25.66	342.82	35.10	-60.1	-77.4	3.8	7.45e-01	0	49	104	0	90	28565
2026-01-16 11:09:26.66	342.72	34.84	-60.1	-77.4	3.8	7.46e-01	0	49	104	0	90	28606
2026-01-16 11:09:27.67	342.63	34.58	-60.1	-77.5	3.8	7.45e-01	0	50	104	0	90	28717
2026-01-16 11:09:28.68	342.54	34.33	-60.1	-77.4	3.8	7.43e-01	0	49	104	0	90	28581
2026-01-16 11:09:29.69	342.45	34.07	-60.1	-77.4	3.8	7.44e-01	0	50	104	0	90	28591
2026-01-16 11:09:30.69	342.36	33.82	-60.1	-77.4	3.8	7.44e-01	0	49	104	0	90	28579
2026-01-16 11:09:31.70	342.27	33.58	-60.1	-77.4	3.8	7.48e-01	0	49	104	0	90	28593
2026-01-16 11:09:32.71	342.19	33.33	-60.1	-77.4	3.8	7.44e-01	0	49	104	0	90	28575
2026-01-16 11:09:33.72	342.10	33.08	-60.1	-77.4	3.8	7.46e-01	0	49	104	0	90	28582
2026-01-16 11:09:34.73	342.02	32.84	-60.1	-77.4	3.8	7.47e-01	0	49	104	0	90	28588
2026-01-16 11:09:35.74	341.94	32.60	-60.1	-77.4	3.8	7.46e-01	0	50	104	0	90	28547
2026-01-16 11:09:36.75	341.86	32.36	-60.1	-77.4	3.8	7.46e-01	0	49	104	0	90	28594
2026-01-16 11:09:37.75	341.78	32.13	-60.1	-77.4	3.8	7.50e-01	0	49	104	0	90	28498
2026-01-16 11:09:38.76	341.70	31.89	-60.1	-77.4	3.8	7.47e-01	0	49	104	0	90	28553
2026-01-16 11:09:39.77	341.63	31.66	-60.1	-77.4	3.8	7.45e-01	0	49	104	0	90	28569
2026-01-16 11:09:40.78	341.55	31.43	-60.1	-77.4	3.8	7.46e-01	0	49	104	0	90	28576
2026-01-16 11:09:41.79	341.48	31.20	-60.1	-77.4	3.8	7.45e-01	0	50	104	0	90	28585
2026-01-16 11:09:42.80	341.40	30.97	-60.1	-77.4	3.8	7.43e-01	0	49	104	0	90	28569
2026-01-16 11:09:43.80	341.33	30.74	-60.1	-77.4	3.8	7.43e-01	0	49	104	0	90	28546
2026-01-16 11:09:44.81	341.26	30.52	-60.1	-77.4	3.8	7.43e-01	0	49	104	0	90	28601
2026-01-16 11:09:45.82	341.19	30.30	-60.1	-77.4	3.8	7.49e-01	0	49	104	0	90	28555
2026-01-16 11:09:46.83	341.12	30.08	-60.1	-77.4	3.8	7.45e-01	0	49	104	0	90	28483
2026-01-16 11:09:47.84	341.05	29.86	-60.1	-77.4	3.8	7.45e-01	0	49	104	0	90	28464
2026-01-16 11:09:48.84	340.99	29.64	-60.1	-77.4	3.8	7.45e-01	0	49	104	0	90	28550
2026-01-16 11:09:49.85	340.92	29.43	-60.1	-77.4	3.8	7.44e-01	0	49	104	0	90	28595
2026-01-16 11:09:50.86	340.86	29.22	-60.1	-77.4	3.8	7.48e-01	0	49	104	0	90	28539
2026-01-16 11:09:51.87	340.79	29.00	-60.1	-77.4	3.8	7.47e-01	0	49	104	0	90	28559
2026-01-16 11:09:52.88	340.73	28.79	-60.1	-77.4	3.8	7.44e-01	0	49	104	0	90	28600
2026-01-16 11:09:53.88	340.67	28.59	-60.1	-77.4	3.8	7.47e-01	0	50	104	0	90	28564
2026-01-16 11:09:54.89	340.61	28.38	-60.1	-77.4	3.8	7.46e-01	0	49	104	0	90	28584
2026-01-16 11:09:55.90	340.55	28.18	-60.1	-77.4	3.8	7.45e-01	0	49	104	0	90	28554
2026-01-16 11:09:56.91	340.49	27.97	-60.1	-77.4	3.8	7.44e-01	0	50	104	0	90	28530
2026-01-16 11:09:57.92	340.43	27.77	-60.1	-77.4	3.8	7.46e-01	0	49	104	0	90	28599
2026-01-16 11:09:58.93	340.37	27.57	-60.1	-77.4	3.8	7.47e-01	0	49	104	0	90	28581
2026-01-16 11:09:59.93	340.31	27.37	-60.1	-77.4	3.8	7.46e-01	0	49	104	0	90	28619
2026-01-16 11:10:00.94	340.26	27.17	-60.1	-77.4	3.8	7.44e-01	0	49	104	0	90	28574
2026-01-16 11:10:01.95	340.20	26.98	-60.1	-77.4	3.8	7.45e-01	0	49	104	0	90	28600
2026-01-16 11:10:02.96	340.15	26.78	-60.1	-77.4	3.8	7.45e-01	0	49	104	0	90	28560
2026-01-16 11:10:03.97	340.09	26.59	-60.1	-77.4	3.8	7.47e-01	0	49	104	0	90	28524
2026-01-16 11:10:04.97	340.04	26.40	-60.1	-77.4	3.8	7.43e-01	0	49	104	0	90	28642
2026-01-16 11:10:05.98	339.99	26.21	-60.1	-77.4	3.8	7.45e-01	0	49	104	0	90	28551
2026-01-16 11:10:06.99	339.93	26.02	-60.1	-77.4	3.8	7.45e-01	0	50	104	0	90	28564
2026-01-16 11:10:08.00	339.88	25.83	-60.1	-77.4	3.8	7.46e-01	0	50	104	0	90	28566
2026-01-16 11:10:09.01	339.83	25.65	-60.1	-77.4	3.8	7.47e-01	0	49	104	0	90	28666
2026-01-16 11:10:10.02	339.78	25.46	-60.1	-77.4	3.8	7.48e-01	0	49	104	0	90	28636
2026-01-16 11:10:11.02	339.73	25.28	-60.1	-77.4	3.8	7.47e-01	0	49	104	0	90	28556
2026-01-16 11:10:12.03	339.68	25.10	-60.1	-77.4	3.8	7.44e-01	0	49	104	0	90	28605
2026-01-16 11:10:13.04	339.64	24.92	-60.1	-77.4	3.8	7.45e-01	0	49	104	0	90	28534
2026-01-16 11:10:14.05	339.59	24.74	-60.1	-77.4	3.8	7.44e-01	0	49	104	0	90	28577
2026-01-16 11:10:15.06	339.54	24.56	-60.1	-77.4	3.8	7.45e-01	0	49	104	0	90	28582
2026-01-16 11:10:16.07	339.49	24.39	-60.1	-77.4	3.8	7.46e-01	0	49	104	0	90	28529
2026-01-16 11:10:17.08	339.45	24.21	-60.1	-77.4	3.8	7.47e-01	0	49	104	0	90	28544
2026-01-16 11:10:18.09	339.40	24.04	-60.1	-77.4	3.8	7.43e-01	0	49	104	0	90	28645
2026-01-16 11:10:19.09	339.36	23.86	-60.1	-77.4	3.8	7.45e-01	0	49	104	0	90	28559
2026-01-16 11:10:20.10	339.32	23.69	-60.1	-77.4	3.8	7.45e-01	0	49	104	0	90	28556
2026-01-16 11:10:21.11	339.27	23.52	-60.1	-77.4	3.8	7.46e-01	0	49	104	0	90	28595
2026-01-16 11:10:22.12	339.23	23.35	-60.1	-77.4	3.8	7.48e-01	0	49	104	0	90	28549
2026-01-16 11:10:23.13	339.19	23.18	-60.1	-77.4	3.8	7.47e-01	0	49	104	0	90	28575
2026-01-16 11:10:24.14	339.14	23.02	-60.1	-77.4	3.8	7.48e-01	0	49	104	0	90	28599
2026-01-16 11:10:25.14	339.10	22.85	-60.1	-77.4	3.8	7.45e-01	0	49	104	0	90	28617
2026-01-16 11:10:26.16	339.06	22.69	-60.1	-77.4	3.8	7.47e-01	0	49	104	0	90	28533
2026-01-16 11:10:27.16	339.02	22.52	-60.1	-77.4	3.8	7.46e-01	0	49	104	0	90	28603
2026-01-16 11:10:28.17	338.98	22.36	-60.1	-77.4	3.8	7.45e-01	0	49	104	0	90	28610
2026-01-16 11:10:29.18	338.94	22.20	-60.1	-77.4	3.8	7.47e-01	0	49	104	0	90	28566
2026-01-16 11:10:30.19	338.90	22.04	-60.1	-77.4	3.8	7.46e-01	0	49	104	0	90	28586
2026-01-16 11:10:31.19	338.87	21.88	-60.1	-77.4	3.8	7.47e-01	0	49	104	0	90	28628
2026-01-16 11:10:32.20	338.83	21.72	-60.1	-77.4	3.8	7.45e-01	0	49	104	0	90	28571
2026-01-16 11:10:33.22	338.79	21.57	-60.1	-77.4	3.8	7.49e-01	0	50	104	0	90	28564
2026-01-16 11:10:34.22	338.75	21.41	-60.1	-77.4	3.8	7.49e-01	0	49	104	0	90	28532
2026-01-16 11:10:35.23	338.72	21.26	-60.1	-77.4	3.8	7.44e-01	0	49	104	0	90	28569
2026-01-16 11:10:36.24	338.68	21.10	-60.1	-77.4	3.8	7.45e-01	0	50	104	0	90	28596
2026-01-16 11:10:37.25	338.64	20.95	-60.1	-77.4	3.8	7.43e-01	0	49	104	0	90	28590
2026-01-16 11:10:38.25	338.61	20.80	-60.1	-77.4	3.8	7.47e-01	0	49	104	0	90	28580
2026-01-16 11:10:39.26	338.57	20.65	-60.1	-77.4	3.8	7.47e-01	0	49	104	0	90	28613
2026-01-16 11:10:40.27	338.54	20.50	-60.1	-77.4	3.8	7.42e-01	0	49	104	0	90	28621
2026-01-16 11:10:41.28	338.50	20.35	-60.1	-77.4	3.8	7.47e-01	0	49	104	0	90	28537
2026-01-16 11:10:42.29	338.47	20.20	-60.1	-77.4	3.8	7.47e-01	0	50	104	0	90	28514
2026-01-16 11:10:43.30	338.44	20.05	-60.1	-77.4	3.8	7.44e-01	0	49	104	0	90	28582
2026-01-16 11:10:44.31	338.40	19.91	-60.1	-77.4	3.8	7.47e-01	0	50	104	0	90	28602
2026-01-16 11:10:45.31	338.37	19.76	-60.1	-77.4	3.8	7.42e-01	0	49	104	0	90	28492
2026-01-16 11:10:46.32	338.34	19.62	-60.1	-77.4	3.8	7.46e-01	0	49	104	0	90	28543
2026-01-16 11:10:47.33	338.31	19.48	-60.1	-77.4	3.8	7.47e-01	0	50	104	0	90	28570
2026-01-16 11:10:48.34	338.28	19.33	-60.1	-77.4	3.8	7.44e-01	0	49	104	0	90	28556
2026-01-16 11:10:49.35	338.24	19.19	-60.1	-77.4	3.8	7.46e-01	0	49	104	0	90	28579
2026-01-16 11:10:50.36	338.21	19.05	-60.1	-77.4	3.8	7.45e-01	0	49	104	0	90	28544
2026-01-16 11:10:51.36	338.18	18.91	-60.1	-77.4	3.8	7.44e-01	0	49	104	0	90	28487
2026-01-16 11:10:52.38	338.15	18.77	-60.1	-77.4	3.8	7.43e-01	0	49	104	0	90	28576
2026-01-16 11:10:53.39	338.12	18.63	-60.1	-77.4	3.8	7.46e-01	0	50	104	0	90	28527
2026-01-16 11:10:54.40	338.09	18.49	-60.1	-77.4	3.8	7.46e-01	0	49	104	0	90	28515
2026-01-16 11:10:55.40	338.06	18.36	-60.1	-77.4	3.8	7.46e-01	0	49	104	0	90	28593
2026-01-16 11:10:56.41	338.03	18.22	-60.1	-77.4	3.8	7.46e-01	0	49	104	0	90	28545
2026-01-16 11:10:57.42	338.01	18.09	-60.1	-77.4	3.8	7.45e-01	0	50	104	0	90	28542
2026-01-16 11:10:58.43	337.98	17.95	-60.1	-77.4	3.8	7.44e-01	0	50	104	0	90	28558
2026-01-16 11:10:59.44	337.95	17.82	-60.1	-77.4	3.8	7.48e-01	0	49	104	0	90	28543
2026-01-16 11:11:00.45	337.92	17.69	-60.1	-77.4	3.8	7.45e-01	0	49	104	0	90	28533
2026-01-16 11:11:01.46	337.89	17.56	-60.1	-77.4	3.8	7.44e-01	0	49	104	0	90	28601
2026-01-16 11:11:02.47	337.87	17.43	-60.1	-77.4	3.8	7.43e-01	0	49	104	0	90	28490
2026-01-16 11:11:03.47	337.84	17.30	-60.1	-77.4	3.8	7.49e-01	0	49	104	0	90	28528
2026-01-16 11:11:04.48	337.81	17.17	-60.1	-77.4	3.8	7.46e-01	0	49	104	0	90	28555
2026-01-16 11:11:05.49	337.79	17.04	-60.1	-77.4	3.8	7.45e-01	0	49	104	0	90	28606
2026-01-16 11:11:06.50	337.76	16.91	-60.1	-77.4	3.8	7.44e-01	0	50	104	0	90	28490
2026-01-16 11:11:07.51	337.74	16.78	-60.1	-77.4	3.8	7.45e-01	0	50	104	0	90	28544
2026-01-16 11:11:08.52	337.71	16.66	-60.1	-77.4	3.8	7.47e-01	0	49	104	0	90	28607
2026-01-16 11:11:09.53	337.68	16.53	-60.1	-77.4	3.8	7.47e-01	0	50	104	0	90	28546
2026-01-16 11:11:10.54	337.66	16.40	-60.1	-77.4	3.8	7.44e-01	0	50	104	0	90	28573
2026-01-16 11:11:11.54	337.63	16.28	-60.1	-77.4	3.8	7.45e-01	0	49	104	0	90	28599
2026-01-16 11:11:12.55	337.61	16.16	-60.1	-77.4	3.8	7.45e-01	0	49	104	0	90	28507
2026-01-16 11:11:13.56	337.59	16.03	-60.1	-77.4	3.8	7.43e-01	0	49	104	0	90	28567
2026-01-16 11:11:14.57	337.56	15.91	-60.1	-77.4	3.8	7.44e-01	0	49	104	0	90	28524
2026-01-16 11:11:15.57	337.54	15.79	-60.1	-77.4	3.8	7.44e-01	0	49	104	0	90	28621
2026-01-16 11:11:16.58	337.51	15.67	-60.1	-77.4	3.8	7.41e-01	0	49	104	0	90	28551
2026-01-16 11:11:17.59	337.49	15.55	-60.1	-77.4	3.8	7.43e-01	0	49	104	0	90	28611
2026-01-16 11:11:18.60	337.47	15.43	-60.1	-77.4	3.8	7.46e-01	0	49	104	0	90	28607
2026-01-16 11:11:19.61	337.45	15.31	-60.1	-77.4	3.8	7.48e-01	0	49	104	0	90	28549
2026-01-16 11:11:20.62	337.42	15.19	-60.1	-77.4	3.8	7.44e-01	0	50	104	0	90	28606
2026-01-16 11:11:21.63	337.40	15.07	-60.1	-77.4	3.8	7.46e-01	0	49	104	0	90	28623
2026-01-16 11:11:22.64	337.38	14.96	-60.1	-77.4	3.8	7.45e-01	0	49	104	0	90	28576
2026-01-16 11:11:23.65	337.36	14.84	-60.1	-77.4	3.8	7.45e-01	0	50	104	0	90	28655
2026-01-16 11:11:24.66	337.33	14.72	-60.1	-77.4	3.8	7.43e-01	0	50	104	0	90	28580
2026-01-16 11:11:25.66	337.31	14.61	-60.1	-77.4	3.8	7.46e-01	0	49	104	0	90	28630
2026-01-16 11:11:26.67	337.29	14.49	-60.1	-77.4	3.8	7.46e-01	0	50	104	0	90	28560
2026-01-16 11:11:27.68	337.27	14.38	-60.1	-77.4	3.8	7.47e-01	0	49	104	0	90	28519
2026-01-16 11:11:28.69	337.25	14.27	-60.1	-77.4	3.8	7.46e-01	0	49	104	0	90	28585
2026-01-16 11:11:29.69	337.23	14.15	-60.1	-77.4	3.8	7.45e-01	0	49	104	0	90	28599
2026-01-16 11:11:30.70	337.21	14.04	-60.1	-77.4	3.8	7.45e-01	0	49	104	0	90	28616
2026-01-16 11:11:31.71	337.19	13.93	-60.1	-77.4	3.8	7.45e-01	0	50	104	0	90	28553
2026-01-16 11:11:32.72	337.17	13.82	-60.1	-77.4	3.8	7.44e-01	0	50	104	0	90	28583
2026-01-16 11:11:33.73	337.15	13.71	-60.1	-77.4	3.8	7.44e-01	0	49	104	0	90	28561
2026-01-16 11:11:34.74	337.13	13.60	-60.1	-77.4	3.8	7.41e-01	0	49	104	0	90	28641
2026-01-16 11:11:35.74	337.11	13.49	-60.1	-77.4	3.8	7.47e-01	0	49	104	0	90	28570
2026-01-16 11:11:36.75	337.09	13.38	-60.1	-77.4	3.8	7.48e-01	0	49	104	0	90	28572
2026-01-16 11:11:37.76	337.07	13.27	-60.1	-77.4	3.8	7.49e-01	0	50	104	0	90	28595
2026-01-16 11:11:38.77	337.05	13.16	-60.1	-77.4	3.8	7.40e-01	0	50	104	0	90	28650
2026-01-16 11:11:39.78	337.03	13.06	-60.1	-77.4	3.8	7.45e-01	0	50	104	0	90	28610
2026-01-16 11:11:40.78	337.01	12.95	-60.1	-77.4	3.8	7.44e-01	0	50	104	0	90	28554
2026-01-16 11:11:41.79	337.00	12.84	-60.1	-77.4	3.8	7.43e-01	0	50	104	0	90	28584
2026-01-16 11:11:42.80	336.98	12.74	-60.1	-77.4	3.8	7.45e-01	0	49	104	0	90	28555
2026-01-16 11:11:43.81	336.96	12.63	-60.1	-77.4	3.8	7.45e-01	0	49	104	0	90	28521
2026-01-16 11:11:44.81	336.94	12.53	-60.1	-77.4	3.8	7.45e-01	0	50	104	0	90	28591
2026-01-16 11:11:45.82	336.92	12.42	-60.1	-77.4	3.8	7.43e-01	0	49	104	0	90	28634
2026-01-16 11:11:46.83	336.91	12.32	-60.1	-77.4	3.8	7.46e-01	0	50	104	0	90	28491
2026-01-16 11:11:47.84	336.89	12.21	-60.1	-77.4	3.8	7.46e-01	0	50	104	0	90	28589
2026-01-16 11:11:48.85	336.87	12.11	-60.1	-77.4	3.8	7.44e-01	0	49	104	0	90	28546
2026-01-16 11:11:49.85	336.85	12.01	-60.1	-77.4	3.8	7.47e-01	0	49	104	0	90	28615
2026-01-16 11:11:50.86	336.84	11.91	-60.1	-77.4	3.8	7.46e-01	0	50	104	0	90	28588
2026-01-16 11:11:51.87	336.82	11.81	-60.1	-77.4	3.8	7.47e-01	0	50	104	0	90	28541
2026-01-16 11:11:52.88	336.80	11.70	-60.1	-77.4	3.8	7.42e-01	0	50	104	0	90	28536
2026-01-16 11:11:53.89	336.79	11.60	-60.1	-77.4	3.8	7.47e-01	0	49	104	0	90	28605
2026-01-16 11:11:54.90	336.77	11.50	-60.1	-77.4	3.8	7.49e-01	0	50	104	0	90	28554
2026-01-16 11:11:55.91	336.76	11.40	-60.1	-77.4	3.8	7.46e-01	0	50	104	0	90	28553
2026-01-16 11:11:56.92	336.74	11.30	-60.1	-77.4	3.8	7.43e-01	0	50	104	0	90	28599
2026-01-16 11:11:57.93	336.72	11.21	-60.1	-77.4	3.8	7.48e-01	0	50	104	0	90	28604
2026-01-16 11:11:58.94	336.71	11.11	-60.1	-77.4	3.8	7.47e-01	0	50	104	0	90	28592
2026-01-16 11:11:59.95	336.69	11.01	-60.1	-77.4	3.8	7.47e-01	0	49	104	0	90	28584
2026-01-16 11:12:00.96	336.68	10.91	-60.1	-77.4	3.8	7.43e-01	0	50	104	0	90	28549
2026-01-16 11:12:01.97	336.66	10.81	-60.1	-77.4	3.8	7.43e-01	0	50	104	0	90	28529
2026-01-16 11:12:02.98	336.65	10.72	-60.1	-77.4	3.8	7.47e-01	0	50	104	0	90	28565
2026-01-16 11:12:03.98	336.63	10.62	-60.1	-77.4	3.8	7.46e-01	0	50	104	0	90	28568
2026-01-16 11:12:04.99	336.62	10.53	-60.1	-77.4	3.8	7.43e-01	0	49	104	0	90	28604
2026-01-16 11:12:06.00	336.60	10.43	-60.1	-77.4	3.8	7.46e-01	0	50	104	0	90	28575
2026-01-16 11:12:07.01	336.59	10.33	-60.1	-77.4	3.8	7.47e-01	0	50	104	0	90	28501
2026-01-16 11:12:08.02	336.57	10.24	-60.1	-77.4	3.8	7.48e-01	0	50	104	0	90	28592
2026-01-16 11:12:09.02	336.56	10.15	-60.1	-77.4	3.8	7.45e-01	0	50	104	0	90	28537
2026-01-16 11:12:10.03	336.54	10.05	-60.1	-77.4	3.8	7.45e-01	0	50	104	0	90	28598
2026-01-16 11:12:11.04	336.53	9.96	-60.1	-77.4	3.8	7.48e-01	0	50	104	0	90	28554
2026-01-16 11:12:12.05	336.52	9.87	-60.1	-77.4	3.8	7.44e-01	0	50	104	0	90	28554
2026-01-16 11:12:13.06	336.50	9.77	-60.1	-77.4	3.8	7.45e-01	0	50	104	0	90	28529
2026-01-16 11:12:14.06	336.49	9.68	-60.1	-77.4	3.8	7.45e-01	0	50	104	0	90	28616
2026-01-16 11:12:15.08	336.47	9.59	-60.1	-77.4	3.8	7.46e-01	0	50	104	0	90	28582
2026-01-16 11:12:16.09	336.46	9.50	-60.1	-77.4	3.8	7.45e-01	0	50	104	0	90	28597
2026-01-16 11:12:17.10	336.45	9.41	-60.1	-77.4	3.8	7.44e-01	0	50	104	0	90	28533
2026-01-16 11:12:18.10	336.43	9.32	-60.1	-77.4	3.8	7.47e-01	0	49	104	0	90	28615
2026-01-16 11:12:19.11	336.42	9.23	-60.1	-77.4	3.8	7.45e-01	0	49	104	0	90	28561
2026-01-16 11:12:20.12	336.41	9.14	-60.1	-77.4	3.8	7.44e-01	0	50	104	0	90	28534
2026-01-16 11:12:21.13	336.40	9.05	-60.1	-77.4	3.8	7.45e-01	0	50	104	0	90	28590
2026-01-16 11:12:22.14	336.38	8.96	-60.1	-77.4	3.8	7.44e-01	0	50	104	0	90	28611
2026-01-16 11:12:23.14	336.37	8.87	-60.1	-77.4	3.8	7.45e-01	0	50	104	0	90	28570
2026-01-16 11:12:24.15	336.36	8.78	-60.1	-77.4	3.8	7.43e-01	0	50	104	0	90	28554
2026-01-16 11:12:25.16	336.35	8.69	-60.1	-77.4	3.8	7.47e-01	0	50	104	0	90	28550
2026-01-16 11:12:26.17	336.33	8.60	-60.1	-77.4	3.8	7.50e-01	0	49	104	0	90	28605
2026-01-16 11:12:27.17	336.32	8.52	-60.1	-77.4	3.8	7.47e-01	0	50	104	0	90	28619
2026-01-16 11:12:28.18	336.31	8.43	-60.1	-77.4	3.8	7.46e-01	0	50	104	0	90	28544
2026-01-16 11:12:29.19	336.30	8.34	-60.1	-77.4	3.8	7.46e-01	0	50	104	0	90	28527
2026-01-16 11:12:30.20	336.28	8.25	-60.1	-77.4	3.8	7.47e-01	0	50	104	0	90	28534
2026-01-16 11:12:31.21	336.27	8.17	-60.1	-77.4	3.8	7.46e-01	0	50	104	0	90	28558
2026-01-16 11:12:32.22	336.26	8.08	-60.1	-77.4	3.8	7.50e-01	0	50	104	0	90	28565
2026-01-16 11:12:33.23	336.25	8.00	-60.1	-77.4	3.8	7.45e-01	0	49	104	0	90	28517
2026-01-16 11:12:34.24	336.24	7.91	-60.1	-77.4	3.8	7.46e-01	0	50	104	0	90	28579
2026-01-16 11:12:35.25	336.23	7.83	-60.1	-77.4	3.8	7.47e-01	0	50	104	0	90	28592
2026-01-16 11:12:36.26	336.22	7.74	-60.1	-77.4	3.8	7.41e-01	0	50	104	0	90	28557
2026-01-16 11:12:37.27	336.20	7.66	-60.1	-77.4	3.8	7.44e-01	0	50	104	0	90	28564
2026-01-16 11:12:38.28	336.19	7.57	-60.1	-77.4	3.8	7.48e-01	0	50	104	0	90	28506
2026-01-16 11:12:39.29	336.18	7.49	-60.1	-77.4	3.8	7.50e-01	0	50	104	0	90	28579
2026-01-16 11:12:40.30	336.17	7.40	-60.1	-77.4	3.8	7.45e-01	0	50	104	0	90	28503
2026-01-16 11:12:41.30	336.16	7.32	-60.1	-77.4	3.8	7.44e-01	0	50	104	0	90	28587
2026-01-16 11:12:42.31	336.15	7.24	-60.1	-77.4	3.8	7.48e-01	0	50	104	0	90	28557
2026-01-16 11:12:43.32	336.14	7.16	-60.1	-77.4	3.8	7.45e-01	0	50	104	0	90	28601
2026-01-16 11:12:44.33	336.13	7.07	-60.1	-77.4	3.8	7.45e-01	0	50	104	0	90	28568
2026-01-16 11:12:45.34	336.12	6.99	-60.1	-77.4	3.8	7.42e-01	0	50	104	0	90	28538
2026-01-16 11:12:46.35	336.11	6.91	-60.1	-77.4	3.8	7.44e-01	0	50	104	0	90	28531
2026-01-16 11:12:47.36	336.10	6.83	-60.1	-77.4	3.8	7.45e-01	0	50	104	0	90	28569
2026-01-16 11:12:48.36	336.09	6.75	-60.1	-77.4	3.8	7.45e-01	0	50	104	0	90	28574
2026-01-16 11:12:49.37	336.08	6.67	-60.1	-77.4	3.8	7.46e-01	0	50	104	0	90	28580
2026-01-16 11:12:50.38	336.07	6.59	-60.1	-77.4	3.8	7.46e-01	0	50	104	0	90	28532
2026-01-16 11:12:51.39	336.06	6.51	-60.1	-77.4	3.8	7.44e-01	0	50	104	0	90	28559
2026-01-16 11:12:52.39	336.05	6.43	-60.1	-77.4	3.8	7.45e-01	0	50	104	0	90	28565
2026-01-16 11:12:53.40	336.04	6.35	-60.1	-77.4	3.8	7.43e-01	0	50	104	0	90	28560
2026-01-16 11:12:54.41	336.03	6.27	-60.1	-77.4	3.8	7.44e-01	0	50	104	0	90	28610
2026-01-16 11:12:55.42	336.02	6.19	-60.1	-77.4	3.8	7.45e-01	0	50	104	0	90	28593
2026-01-16 11:12:56.43	336.01	6.11	-60.1	-77.4	3.8	7.44e-01	0	49	104	0	90	28583
2026-01-16 11:12:57.44	336.00	6.03	-60.1	-77.4	3.8	7.46e-01	0	50	104	0	90	28558
2026-01-16 11:12:58.45	335.99	5.95	-60.1	-77.4	3.8	7.43e-01	0	50	104	0	90	28572
2026-01-16 11:12:59.46	335.98	5.87	-60.1	-77.4	3.8	7.46e-01	0	50	104	0	90	28529
2026-01-16 11:13:00.47	335.97	5.80	-60.1	-77.4	3.8	7.44e-01	0	50	104	0	90	28566
2026-01-16 11:13:01.48	335.96	5.72	-60.1	-77.4	3.8	7.44e-01	0	50	104	0	90	28589
2026-01-16 11:13:02.48	335.95	5.64	-60.1	-77.4	3.8	7.44e-01	0	50	104	0	90	28574
2026-01-16 11:13:03.49	335.94	5.56	-60.1	-77.4	3.8	7.43e-01	0	50	104	0	90	28588
2026-01-16 11:13:04.51	335.94	5.49	-60.1	-77.4	3.8	7.45e-01	0	49	104	0	90	28617
2026-01-16 11:13:05.51	335.93	5.41	-60.1	-77.4	3.8	7.42e-01	0	50	104	0	90	28570
2026-01-16 11:13:06.52	335.92	5.33	-60.1	-77.4	3.8	7.49e-01	0	50	104	0	90	28560
2026-01-16 11:13:07.53	335.91	5.26	-60.1	-77.4	3.8	7.44e-01	0	50	104	0	90	28624
2026-01-16 11:13:08.54	335.90	5.18	-60.1	-77.4	3.8	7.43e-01	0	50	104	0	90	28559
2026-01-16 11:13:09.55	335.89	5.11	-60.1	-77.4	3.8	7.42e-01	0	50	104	0	90	28586
2026-01-16 11:13:10.56	335.88	5.03	-60.1	-77.4	3.8	7.45e-01	0	50	104	0	90	28603
2026-01-16 11:13:11.56	335.88	4.96	-60.1	-77.4	3.8	7.44e-01	0	50	104	0	90	28606
2026-01-16 11:13:12.58	335.87	4.88	-60.1	-77.4	3.8	7.46e-01	0	50	104	0	90	28497
2026-01-16 11:13:13.58	335.86	4.81	-60.1	-77.4	3.8	7.44e-01	0	50	104	0	90	28534
2026-01-16 11:13:14.59	335.85	4.73	-60.1	-77.4	3.8	7.47e-01	0	50	104	0	90	28556
2026-01-16 11:13:15.60	335.84	4.66	-60.1	-77.4	3.8	7.49e-01	0	50	104	0	90	28560
2026-01-16 11:13:16.61	335.83	4.58	-60.1	-77.4	3.8	7.44e-01	0	50	104	0	90	28612
2026-01-16 11:13:17.62	335.83	4.51	-60.1	-77.4	3.8	7.43e-01	0	50	104	0	90	28594
2026-01-16 11:13:18.63	335.82	4.44	-60.1	-77.4	3.8	7.46e-01	0	50	104	0	90	28554
2026-01-16 11:13:19.64	335.81	4.36	-60.1	-77.4	3.8	7.45e-01	0	50	104	0	90	28566
2026-01-16 11:13:20.65	335.80	4.29	-60.1	-77.4	3.8	7.42e-01	0	50	104	0	90	28551
2026-01-16 11:13:21.65	335.80	4.22	-60.1	-77.4	3.8	7.46e-01	0	50	104	0	90	28476
2026-01-16 11:13:22.66	335.79	4.14	-60.1	-77.4	3.8	7.44e-01	0	50	104	0	90	28568
2026-01-16 11:13:23.67	335.78	4.07	-60.1	-77.4	3.8	7.47e-01	0	50	104	0	90	28521
2026-01-16 11:13:24.68	335.77	4.00	-60.1	-77.4	3.8	7.45e-01	0	50	104	0	90	28611
2026-01-16 11:13:25.69	335.77	3.93	-60.1	-77.4	3.8	7.46e-01	0	50	104	0	90	28634
2026-01-16 11:13:26.70	335.76	3.86	-60.1	-77.4	3.8	7.41e-01	0	50	104	0	90	28574
2026-01-16 11:13:27.70	335.75	3.78	-60.1	-77.4	3.8	7.48e-01	0	50	104	0	90	28571
2026-01-16 11:13:28.71	335.74	3.71	-60.1	-77.4	3.8	7.45e-01	0	50	104	0	90	28613
2026-01-16 11:13:29.72	335.74	3.64	-60.1	-77.4	3.8	7.45e-01	0	50	104	0	90	28607
