passes_logs/2026/01/05/R2.0S_Moscow/R2.0S_Moscow__20260105_120618_AQUA_rec.log

#Pass ID: 20260105_120618_AQUA
#Satellite: AQUA
#Configuration: AQUA
#almurnet v.1.7.20251203
#Start time: 2026-01-05 12:13:45

#Version: 2.2.20231116
#Station: R2.0S_Moscow
#Location: 37.707566 lon 55.798166 lat
#TLE: 1 27424U 02022A   26003.93831470  .00001925  00000+0  39553-3 0  9995
#TLE: 2 27424  98.4067 330.1809 0002003  92.1713 343.8415 14.61796291259276

#Time	Az	El	Level	Level2	SNR	BER	BlckErr	Temp	State	Recorded	gain1	gain2
2026-01-05 12:13:45.39	306.49	44.45	-45.3	-56.4	3.8	8.46e-01	0	57	0	0	60	13439
2026-01-05 12:13:46.39	306.92	44.19	-46.1	-64.7	3.8	7.45e-01	0	57	104	0	62	33210
2026-01-05 12:13:47.40	307.35	43.93	-46.1	-64.3	3.8	7.44e-01	0	57	104	0	62	31789
2026-01-05 12:13:48.41	307.77	43.67	-46.1	-63.7	3.8	7.47e-01	0	57	104	0	62	29597
2026-01-05 12:13:49.43	308.18	43.41	-46.1	-64.8	3.8	7.48e-01	0	57	104	0	62	33565
2026-01-05 12:13:50.44	308.59	43.15	-46.0	-64.9	3.8	7.44e-01	0	57	104	0	62	33789
2026-01-05 12:13:51.45	308.99	42.89	-46.0	-64.8	3.8	7.46e-01	0	57	104	0	62	33520
2026-01-05 12:13:52.46	309.39	42.63	-46.0	-64.8	3.8	7.46e-01	0	57	104	0	62	33419
2026-01-05 12:13:53.47	309.77	42.37	-46.0	-64.8	3.8	7.44e-01	0	57	104	0	62	33541
2026-01-05 12:13:54.48	310.15	42.11	-46.0	-64.8	3.8	7.48e-01	0	57	104	0	62	33392
2026-01-05 12:13:55.49	310.53	41.85	-46.0	-64.7	3.8	7.47e-01	0	57	104	0	62	33234
2026-01-05 12:13:56.50	310.90	41.59	-46.0	-64.8	3.8	7.46e-01	0	57	104	0	62	33346
2026-01-05 12:13:57.51	311.26	41.33	-46.0	-64.8	3.8	7.44e-01	0	57	104	0	62	33425
2026-01-05 12:13:58.53	311.62	41.08	-46.0	-64.8	3.8	7.44e-01	0	57	104	0	62	33454
2026-01-05 12:13:59.54	311.97	40.82	-46.0	-64.8	3.8	7.48e-01	0	57	104	0	62	33444
2026-01-05 12:14:00.54	312.32	40.57	-46.0	-64.8	3.8	7.44e-01	0	57	104	0	62	33525
2026-01-05 12:14:01.55	312.66	40.31	-46.0	-64.8	3.8	7.45e-01	0	57	104	0	62	33505
2026-01-05 12:14:02.56	312.99	40.06	-46.0	-64.8	3.8	7.44e-01	0	57	104	0	62	33398
2026-01-05 12:14:03.58	313.33	39.81	-46.0	-64.8	3.8	7.46e-01	0	57	104	0	62	33313
2026-01-05 12:14:04.59	313.65	39.55	-46.0	-64.7	3.8	7.46e-01	0	57	104	0	62	33177
2026-01-05 12:14:05.60	313.97	39.30	-46.0	-64.7	3.8	7.47e-01	0	57	104	0	62	33203
2026-01-05 12:14:06.61	314.29	39.05	-46.0	-64.7	3.8	7.47e-01	0	57	104	0	62	33017
2026-01-05 12:14:07.62	314.60	38.81	-46.0	-64.6	3.8	7.44e-01	0	57	104	0	62	32678
2026-01-05 12:14:08.63	314.90	38.56	-46.0	-64.6	3.8	7.44e-01	0	57	104	0	62	32604
2026-01-05 12:14:09.64	315.21	38.31	-46.0	-64.6	3.8	7.49e-01	0	57	104	0	62	32920
2026-01-05 12:14:10.65	315.50	38.07	-46.0	-64.7	3.8	7.44e-01	0	57	104	0	62	33255
2026-01-05 12:14:11.66	315.79	37.82	-46.0	-64.8	3.8	7.44e-01	0	57	104	0	62	33316
2026-01-05 12:14:12.67	316.08	37.58	-46.0	-64.7	3.8	7.43e-01	0	57	104	0	62	33252
2026-01-05 12:14:13.69	316.37	37.34	-46.0	-64.7	3.8	7.47e-01	0	57	104	0	62	33133
2026-01-05 12:14:14.69	316.64	37.10	-46.0	-64.7	3.8	7.44e-01	0	57	104	0	62	33234
2026-01-05 12:14:15.71	316.92	36.85	-46.0	-64.8	3.8	7.47e-01	0	57	104	0	62	33383
2026-01-05 12:14:16.72	317.19	36.62	-46.0	-64.8	3.8	7.44e-01	0	57	104	0	62	33457
2026-01-05 12:14:17.73	317.46	36.38	-46.0	-64.7	3.8	7.45e-01	0	57	104	0	62	33086
2026-01-05 12:14:18.74	317.72	36.14	-45.9	-64.4	3.8	7.43e-01	0	57	104	0	62	31856
2026-01-05 12:14:19.75	317.98	35.91	-45.9	-63.9	3.8	7.45e-01	0	57	104	0	62	30329
2026-01-05 12:14:20.76	318.24	35.67	-45.9	-63.8	3.8	7.46e-01	0	57	104	0	62	29968
2026-01-05 12:14:21.77	318.49	35.44	-45.9	-64.1	3.8	7.43e-01	0	57	104	0	62	30839
2026-01-05 12:14:22.79	318.74	35.21	-45.9	-64.6	3.8	7.49e-01	0	57	104	0	62	32607
2026-01-05 12:14:23.80	318.99	34.98	-46.0	-64.8	3.8	7.44e-01	0	57	104	0	62	33355
2026-01-05 12:14:24.81	319.23	34.75	-45.9	-64.3	3.8	7.45e-01	0	57	104	0	62	31703
2026-01-05 12:14:25.82	319.47	34.52	-45.9	-63.0	3.8	7.44e-01	0	57	104	0	62	27260
2026-01-05 12:14:26.83	319.70	34.29	-45.9	-61.3	4.2	7.34e-01	0	57	104	0	62	22379
2026-01-05 12:14:27.84	319.93	34.07	-45.8	-61.1	3.9	7.40e-01	0	57	104	0	62	21847
2026-01-05 12:14:28.85	320.16	33.85	-45.9	-61.0	4.2	7.29e-01	0	57	104	0	62	21737
2026-01-05 12:14:29.86	320.39	33.62	-45.9	-61.2	4.0	7.38e-01	0	57	104	0	62	22251
2026-01-05 12:14:30.87	320.61	33.40	-45.8	-60.3	4.5	7.24e-01	0	57	104	0	62	20011
2026-01-05 12:14:31.88	320.83	33.18	-45.8	-59.3	5.0	7.11e-01	0	57	0	0	62	17713
2026-01-05 12:14:32.90	321.04	32.96	-45.7	-58.1	5.6	6.94e-01	8	57	0	0	62	15579
2026-01-05 12:14:33.91	321.26	32.74	-45.4	-54.9	8.4	6.42e-01	10	57	0	1572864	62	10701
2026-01-05 12:14:34.92	321.47	32.53	-44.4	-50.5	13.0	6.08e-01	0	57	0	3670016	60	7270
2026-01-05 12:14:35.93	321.68	32.31	-43.1	-47.0	17.0	6.07e-01	0	57	0	5242880	58	5422
2026-01-05 12:14:36.94	321.88	32.10	-41.2	-43.9	20.0	6.07e-01	0	57	0	7340032	54	4792
2026-01-05 12:14:37.95	322.08	31.89	-39.7	-41.8	22.2	6.05e-01	0	57	0	8912896	51	4458
2026-01-05 12:14:38.96	322.28	31.67	-38.8	-40.7	23.3	6.06e-01	0	57	0	11010048	49	4414
2026-01-05 12:14:39.97	322.48	31.46	-43.8	-48.5	15.8	6.05e-01	0	57	0	13107200	58	6473
2026-01-05 12:14:40.98	322.67	31.26	-43.9	-48.6	15.6	6.06e-01	0	57	0	14680064	58	6553
2026-01-05 12:14:41.99	322.86	31.05	-42.9	-46.6	17.9	6.07e-01	0	57	0	16777216	56	5841
2026-01-05 12:14:43.00	323.05	30.84	-43.4	-47.5	16.4	6.06e-01	0	57	0	18350080	57	6103
2026-01-05 12:14:44.01	323.24	30.64	-42.2	-45.4	19.1	6.06e-01	0	57	0	20447232	54	5664
2026-01-05 12:14:45.02	323.42	30.43	-39.8	-41.9	22.2	6.05e-01	0	57	0	22544384	51	4514
2026-01-05 12:14:46.03	323.61	30.23	-39.2	-41.2	22.8	6.07e-01	0	57	0	24117248	50	4398
2026-01-05 12:14:47.04	323.79	30.03	-39.2	-41.2	22.8	6.05e-01	0	57	0	26214400	50	4433
2026-01-05 12:14:48.05	323.96	29.83	-39.2	-41.2	22.7	6.06e-01	0	57	0	28311552	50	4429
2026-01-05 12:14:49.06	324.14	29.63	-39.0	-41.0	23.0	6.06e-01	0	57	0	29884416	50	4302
2026-01-05 12:14:50.06	324.31	29.43	-39.0	-40.9	23.0	6.07e-01	0	57	0	31981568	50	4267
2026-01-05 12:14:51.07	324.48	29.24	-39.0	-40.9	23.0	6.07e-01	0	57	0	33554432	49	4518
2026-01-05 12:14:52.08	324.65	29.04	-39.1	-41.1	22.9	6.05e-01	0	57	0	35651584	49	4605
2026-01-05 12:14:53.09	324.82	28.85	-39.2	-41.2	22.8	6.06e-01	0	57	0	37748736	49	4652
2026-01-05 12:14:54.10	324.98	28.66	-39.1	-41.1	22.8	6.07e-01	0	57	0	39321600	49	4621
2026-01-05 12:14:55.11	325.15	28.47	-39.1	-41.1	22.8	6.07e-01	0	57	0	41418752	49	4603
2026-01-05 12:14:56.12	325.31	28.27	-39.2	-41.1	22.8	6.07e-01	0	57	0	42991616	49	4650
2026-01-05 12:14:57.13	325.47	28.09	-39.1	-41.1	22.9	6.06e-01	0	57	0	45088768	49	4604
2026-01-05 12:14:58.14	325.62	27.90	-39.1	-41.1	22.8	6.08e-01	0	57	0	47185920	49	4617
2026-01-05 12:14:59.16	325.78	27.71	-39.2	-41.2	22.7	6.04e-01	0	57	0	48758784	49	4660
2026-01-05 12:15:00.16	325.93	27.52	-39.3	-41.3	22.7	6.07e-01	0	57	0	50855936	49	4714
2026-01-05 12:15:01.17	326.09	27.34	-39.4	-41.5	22.5	6.07e-01	0	57	0	52428800	49	4820
2026-01-05 12:15:02.18	326.24	27.16	-39.5	-41.6	22.3	6.05e-01	0	57	0	54525952	49	4922
2026-01-05 12:15:03.19	326.38	26.97	-39.6	-41.7	22.2	6.07e-01	0	57	0	56623104	49	4967
2026-01-05 12:15:04.20	326.53	26.79	-39.6	-41.7	22.2	6.07e-01	0	57	0	58195968	49	4961
2026-01-05 12:15:05.21	326.68	26.61	-39.5	-41.6	22.3	6.04e-01	0	56	0	60293120	49	4902
2026-01-05 12:15:06.22	326.82	26.43	-39.5	-41.6	22.3	6.07e-01	0	57	0	61865984	49	4904
2026-01-05 12:15:07.23	326.96	26.26	-39.6	-41.6	22.3	6.06e-01	0	56	0	63963136	49	4913
2026-01-05 12:15:08.24	327.10	26.08	-39.5	-41.6	22.3	6.04e-01	0	57	0	66060288	49	4913
2026-01-05 12:15:09.25	327.24	25.90	-39.5	-41.6	22.3	6.08e-01	0	57	0	67633152	49	4905
2026-01-05 12:15:10.26	327.38	25.73	-39.5	-41.6	22.3	6.07e-01	0	56	0	69730304	49	4920
2026-01-05 12:15:11.27	327.51	25.56	-39.6	-41.7	22.3	6.06e-01	0	57	0	71827456	49	4932
2026-01-05 12:15:12.28	327.65	25.38	-39.4	-41.5	22.4	6.06e-01	0	57	0	73400320	49	4841
2026-01-05 12:15:13.28	327.78	25.21	-39.4	-41.4	22.5	6.06e-01	0	56	0	75497472	49	4793
2026-01-05 12:15:14.29	327.91	25.04	-39.4	-41.5	22.4	6.06e-01	0	56	0	77070336	49	4843
2026-01-05 12:15:15.30	328.04	24.87	-39.4	-41.5	22.4	6.07e-01	0	57	0	79167488	49	4850
2026-01-05 12:15:16.31	328.17	24.71	-39.6	-41.6	22.3	6.06e-01	0	57	0	81264640	49	4926
2026-01-05 12:15:17.32	328.29	24.54	-39.6	-41.7	22.2	6.07e-01	0	57	0	82837504	49	4931
2026-01-05 12:15:18.33	328.42	24.37	-39.6	-41.7	22.2	6.07e-01	0	56	0	84934656	49	4964
2026-01-05 12:15:19.34	328.54	24.21	-39.7	-41.8	22.0	6.05e-01	0	56	0	86507520	49	5035
2026-01-05 12:15:20.35	328.67	24.04	-39.5	-41.6	22.2	6.05e-01	0	57	0	88604672	49	4910
2026-01-05 12:15:21.36	328.79	23.88	-39.5	-41.6	22.3	6.05e-01	0	56	0	90701824	49	4880
2026-01-05 12:15:22.37	328.91	23.72	-39.5	-41.6	22.3	6.06e-01	0	56	0	92274688	49	4881
2026-01-05 12:15:23.38	329.03	23.56	-39.6	-41.7	22.2	6.04e-01	0	56	0	94371840	49	4935
2026-01-05 12:15:24.39	329.14	23.40	-39.5	-41.5	22.3	6.06e-01	0	57	0	96468992	49	4867
2026-01-05 12:15:25.40	329.26	23.24	-39.5	-41.5	22.3	6.06e-01	0	56	0	98041856	49	4870
2026-01-05 12:15:26.41	329.38	23.08	-39.5	-41.6	22.3	6.05e-01	0	57	0	100139008	49	4884
2026-01-05 12:15:27.42	329.49	22.92	-39.5	-41.6	22.3	6.07e-01	0	57	0	101711872	49	4886
2026-01-05 12:15:28.43	329.60	22.77	-39.5	-41.7	22.2	6.06e-01	0	56	0	103809024	49	4931
2026-01-05 12:15:29.44	329.72	22.61	-39.5	-41.5	22.3	6.05e-01	0	57	0	105381888	49	4864
2026-01-05 12:15:30.45	329.83	22.46	-39.5	-41.6	22.2	6.08e-01	0	57	0	107479040	49	4889
2026-01-05 12:15:31.45	329.94	22.30	-39.5	-41.7	22.1	6.07e-01	0	57	0	109576192	49	4938
2026-01-05 12:15:32.46	330.05	22.15	-39.5	-41.6	22.2	6.06e-01	0	56	0	111149056	49	4875
2026-01-05 12:15:33.47	330.15	22.00	-39.5	-41.6	22.2	6.05e-01	0	57	0	113246208	49	4877
2026-01-05 12:15:34.48	330.26	21.85	-39.4	-41.5	22.3	6.04e-01	0	56	0	114819072	49	4846
2026-01-05 12:15:35.49	330.37	21.70	-39.4	-41.5	22.3	6.06e-01	0	56	0	116916224	49	4830
2026-01-05 12:15:36.50	330.47	21.55	-39.4	-41.5	22.3	6.08e-01	0	57	0	119013376	49	4860
2026-01-05 12:15:37.51	330.57	21.40	-39.4	-41.5	22.3	6.05e-01	0	56	0	120586240	49	4824
2026-01-05 12:15:38.52	330.68	21.25	-39.4	-41.5	22.3	6.05e-01	0	56	0	122683392	49	4828
2026-01-05 12:15:39.53	330.78	21.11	-39.4	-41.6	22.1	5.98e-01	0	57	0	124780544	49	4880
2026-01-05 12:15:40.54	330.88	20.96	-39.5	-41.6	22.2	6.00e-01	0	56	0	126353408	49	4887
2026-01-05 12:15:41.55	330.98	20.82	-39.3	-41.4	22.3	6.03e-01	0	56	0	128450560	49	4762
2026-01-05 12:15:42.56	331.08	20.67	-39.3	-41.3	22.4	6.01e-01	0	56	0	130023424	49	4751
2026-01-05 12:15:43.57	331.17	20.53	-39.3	-41.3	22.4	5.99e-01	0	56	0	132120576	49	4739
2026-01-05 12:15:44.58	331.27	20.39	-39.1	-41.1	22.6	6.00e-01	0	57	0	134217728	49	4649
2026-01-05 12:15:45.59	331.37	20.24	-39.2	-41.2	22.5	6.00e-01	0	56	0	135790592	49	4680
2026-01-05 12:15:46.60	331.46	20.10	-39.1	-41.2	22.5	6.04e-01	0	57	0	137887744	49	4671
2026-01-05 12:15:47.61	331.56	19.96	-39.1	-41.1	22.6	6.01e-01	0	56	0	139460608	49	4632
2026-01-05 12:15:48.62	331.65	19.82	-39.1	-41.1	22.6	6.03e-01	0	57	0	141557760	49	4645
2026-01-05 12:15:49.62	331.74	19.69	-39.2	-41.3	22.4	6.02e-01	0	57	0	143654912	49	4712
2026-01-05 12:15:50.63	331.83	19.55	-39.1	-41.1	22.5	6.02e-01	0	56	0	145227776	49	4631
2026-01-05 12:15:51.64	331.92	19.41	-39.1	-41.1	22.6	6.01e-01	0	56	0	147324928	49	4624
2026-01-05 12:15:52.65	332.01	19.28	-39.1	-41.2	22.5	6.01e-01	0	56	0	149422080	49	4668
2026-01-05 12:15:53.66	332.10	19.14	-39.2	-41.2	22.4	5.99e-01	0	56	0	150994944	49	4697
2026-01-05 12:15:54.67	332.19	19.01	-39.2	-41.2	22.4	6.00e-01	0	56	0	153092096	49	4691
2026-01-05 12:15:55.68	332.28	18.87	-39.1	-41.2	22.5	6.01e-01	0	56	0	154664960	49	4654
2026-01-05 12:15:56.69	332.37	18.74	-39.1	-41.2	22.5	6.01e-01	0	56	0	156762112	49	4667
2026-01-05 12:15:57.70	332.45	18.61	-39.2	-41.3	22.3	6.04e-01	0	56	0	158859264	49	4717
2026-01-05 12:15:58.71	332.54	18.47	-39.2	-41.2	22.3	5.99e-01	0	56	0	160432128	49	4703
2026-01-05 12:15:59.72	332.62	18.34	-39.1	-41.2	22.4	5.99e-01	0	57	0	162529280	49	4687
2026-01-05 12:16:00.73	332.71	18.21	-39.3	-41.4	22.2	6.01e-01	0	56	0	164102144	49	4774
2026-01-05 12:16:01.74	332.79	18.08	-39.3	-41.5	22.1	6.02e-01	0	57	0	166199296	49	4837
2026-01-05 12:16:02.75	332.87	17.95	-39.4	-41.6	22.0	6.00e-01	0	56	0	168296448	49	4872
2026-01-05 12:16:03.76	332.95	17.83	-39.5	-41.6	21.9	6.05e-01	0	56	0	169869312	49	4924
2026-01-05 12:16:04.77	333.04	17.70	-39.4	-41.6	22.0	6.01e-01	0	56	0	171966464	49	4877
2026-01-05 12:16:05.78	333.12	17.57	-39.3	-41.5	22.0	6.02e-01	0	57	0	173539328	49	4837
2026-01-05 12:16:06.79	333.20	17.45	-39.4	-41.5	22.0	6.01e-01	0	56	0	175636480	49	4867
2026-01-05 12:16:07.79	333.27	17.32	-39.3	-41.5	22.0	6.03e-01	0	56	0	177733632	49	4860
2026-01-05 12:16:08.80	333.35	17.20	-39.3	-41.5	22.0	6.02e-01	0	56	0	179306496	49	4823
2026-01-05 12:16:09.81	333.43	17.07	-39.4	-41.6	21.8	6.02e-01	0	56	0	181403648	49	4925
2026-01-05 12:16:10.82	333.51	16.95	-39.3	-41.5	22.0	6.01e-01	0	56	0	182976512	49	4819
2026-01-05 12:16:11.83	333.58	16.83	-39.2	-41.3	22.2	6.00e-01	0	56	0	185073664	49	4742
2026-01-05 12:16:12.84	333.66	16.70	-39.1	-41.3	22.2	6.01e-01	0	56	0	187170816	49	4708
2026-01-05 12:16:13.85	333.74	16.58	-39.1	-41.2	22.2	6.00e-01	0	56	0	188743680	49	4685
2026-01-05 12:16:14.87	333.81	16.46	-39.2	-41.3	22.1	6.03e-01	0	56	0	190840832	49	4732
2026-01-05 12:16:15.88	333.89	16.34	-39.2	-41.3	22.1	6.01e-01	0	56	0	192937984	49	4737
2026-01-05 12:16:16.89	333.96	16.22	-39.1	-41.2	22.3	5.99e-01	0	56	0	194510848	49	4656
2026-01-05 12:16:17.90	334.03	16.10	-39.1	-41.2	22.2	6.00e-01	0	56	0	196608000	49	4680
2026-01-05 12:16:18.90	334.10	15.98	-39.1	-41.2	22.2	6.01e-01	0	56	0	198180864	49	4688
2026-01-05 12:16:19.91	334.18	15.87	-39.0	-41.1	22.3	5.99e-01	0	56	0	200278016	49	4634
2026-01-05 12:16:20.92	334.25	15.75	-39.1	-41.2	22.2	6.01e-01	0	56	0	202375168	49	4672
2026-01-05 12:16:21.93	334.32	15.63	-39.1	-41.2	22.2	6.01e-01	0	56	0	203948032	49	4702
2026-01-05 12:16:22.95	334.39	15.51	-39.3	-41.4	22.0	6.01e-01	0	56	0	206045184	49	4797
2026-01-05 12:16:23.95	334.46	15.40	-39.3	-41.4	21.9	6.00e-01	0	56	0	207618048	49	4808
2026-01-05 12:16:24.97	334.53	15.28	-39.1	-41.2	22.1	6.03e-01	0	56	0	209715200	49	4694
2026-01-05 12:16:25.98	334.59	15.17	-39.0	-41.1	22.3	6.00e-01	0	56	0	211812352	49	4614
2026-01-05 12:16:26.99	334.66	15.06	-39.0	-41.1	22.3	6.04e-01	0	56	0	213385216	49	4639
2026-01-05 12:16:28.00	334.73	14.94	-39.0	-41.2	22.2	6.03e-01	0	56	0	215482368	49	4653
2026-01-05 12:16:29.01	334.80	14.83	-39.0	-41.1	22.2	6.02e-01	0	56	0	217579520	49	4630
2026-01-05 12:16:30.02	334.86	14.72	-39.0	-41.1	22.3	6.02e-01	0	56	0	219152384	49	4632
2026-01-05 12:16:31.02	334.93	14.61	-39.0	-41.1	22.2	6.01e-01	0	56	0	221249536	49	4621
2026-01-05 12:16:32.03	334.99	14.50	-39.0	-41.1	22.2	6.01e-01	0	56	0	222822400	49	4643
2026-01-05 12:16:33.04	335.06	14.38	-39.1	-41.3	22.0	5.98e-01	0	56	0	224919552	49	4714
2026-01-05 12:16:34.05	335.12	14.27	-39.2	-41.4	21.9	5.99e-01	0	56	0	227016704	49	4778
2026-01-05 12:16:35.06	335.19	14.17	-39.2	-41.4	21.9	6.01e-01	0	57	0	228589568	49	4771
2026-01-05 12:16:36.07	335.25	14.06	-39.2	-41.4	21.9	5.99e-01	0	57	0	230686720	49	4782
2026-01-05 12:16:37.08	335.31	13.95	-39.2	-41.5	21.8	6.02e-01	0	56	0	232259584	49	4816
2026-01-05 12:16:38.09	335.38	13.84	-39.3	-41.6	21.7	6.03e-01	0	56	0	234356736	49	4884
2026-01-05 12:16:39.10	335.44	13.73	-39.4	-41.6	21.6	6.01e-01	0	56	0	236453888	49	4911
2026-01-05 12:16:40.11	335.50	13.63	-39.5	-41.8	21.5	6.00e-01	0	56	0	238026752	49	4988
2026-01-05 12:16:41.12	335.56	13.52	-39.4	-41.7	21.6	6.01e-01	0	56	0	240123904	49	4938
2026-01-05 12:16:42.13	335.62	13.41	-39.3	-41.5	21.6	6.02e-01	0	57	0	241696768	49	4865
2026-01-05 12:16:43.14	335.68	13.31	-39.3	-41.5	21.7	6.00e-01	0	56	0	243793920	49	4842
2026-01-05 12:16:44.15	335.74	13.20	-39.2	-41.4	21.8	6.02e-01	0	56	0	245891072	49	4761
2026-01-05 12:16:45.16	335.80	13.10	-39.2	-41.4	21.7	6.00e-01	0	56	0	247463936	49	4797
2026-01-05 12:16:46.17	335.86	12.99	-39.1	-41.4	21.8	5.99e-01	0	56	0	249561088	49	4763
2026-01-05 12:16:47.18	335.92	12.89	-39.3	-41.5	21.6	6.00e-01	0	56	0	251133952	49	4864
2026-01-05 12:16:48.19	335.98	12.79	-39.2	-41.5	21.6	6.01e-01	0	56	0	253231104	49	4842
2026-01-05 12:16:49.20	336.04	12.68	-39.2	-41.4	21.7	5.99e-01	0	56	0	255328256	49	4793
2026-01-05 12:16:50.21	336.10	12.58	-39.2	-41.5	21.6	6.01e-01	0	56	0	256901120	49	4821
2026-01-05 12:16:51.22	336.15	12.48	-39.2	-41.5	21.6	6.00e-01	0	56	0	258998272	49	4857
2026-01-05 12:16:52.23	336.21	12.38	-39.3	-41.6	21.5	6.01e-01	0	56	0	261095424	49	4877
2026-01-05 12:16:53.24	336.27	12.28	-39.3	-41.7	21.4	6.00e-01	0	56	0	262668288	49	4928
2026-01-05 12:16:54.25	336.32	12.18	-39.4	-41.8	21.3	6.00e-01	0	56	0	264765440	49	5013
2026-01-05 12:16:55.26	336.38	12.08	-39.5	-42.0	21.1	6.03e-01	0	56	0	266338304	49	5111
2026-01-05 12:16:56.27	336.43	11.98	-39.4	-41.8	21.1	6.02e-01	0	56	0	268435456	49	5032
2026-01-05 12:16:57.28	336.49	11.88	-39.4	-41.9	21.1	6.02e-01	0	56	0	270532608	49	5042
2026-01-05 12:16:58.29	336.54	11.78	-39.3	-41.7	21.2	6.02e-01	0	56	0	272105472	49	4973
2026-01-05 12:16:59.29	336.60	11.68	-39.4	-41.8	21.1	6.00e-01	0	56	0	274202624	49	5020
2026-01-05 12:17:00.30	336.65	11.58	-39.4	-41.9	21.0	6.01e-01	0	56	0	275775488	49	5053
2026-01-05 12:17:01.31	336.70	11.49	-39.3	-41.8	21.1	6.04e-01	0	56	0	277872640	49	5005
2026-01-05 12:17:02.32	336.76	11.39	-39.4	-41.9	20.9	6.00e-01	0	56	0	279969792	49	5049
2026-01-05 12:17:03.33	336.81	11.29	-39.5	-42.0	20.8	6.03e-01	0	56	0	281542656	49	5132
2026-01-05 12:17:04.34	336.86	11.20	-39.6	-42.2	20.6	6.03e-01	0	56	0	283639808	49	5260
2026-01-05 12:17:05.35	336.91	11.10	-39.7	-42.4	20.4	6.00e-01	0	56	0	285736960	49	5351
2026-01-05 12:17:06.36	336.96	11.01	-39.7	-42.4	20.3	6.01e-01	0	56	0	287309824	50	5073
2026-01-05 12:17:07.37	337.02	10.91	-39.8	-42.5	20.2	6.00e-01	0	56	0	289406976	50	5108
2026-01-05 12:17:08.38	337.07	10.82	-39.5	-42.1	20.5	6.00e-01	0	56	0	290979840	50	4913
2026-01-05 12:17:09.39	337.12	10.72	-39.4	-42.0	20.7	6.01e-01	0	56	0	293076992	50	4835
2026-01-05 12:17:10.40	337.17	10.63	-39.2	-41.7	20.9	6.01e-01	0	56	0	295174144	50	4687
2026-01-05 12:17:11.41	337.22	10.53	-39.3	-41.8	20.7	6.01e-01	0	56	0	296747008	50	4732
2026-01-05 12:17:12.42	337.27	10.44	-39.1	-41.6	20.8	6.00e-01	0	56	0	298844160	50	4646
2026-01-05 12:17:13.43	337.32	10.35	-39.2	-41.8	20.7	5.99e-01	0	56	0	300417024	50	4709
2026-01-05 12:17:14.43	337.37	10.26	-39.4	-42.0	20.4	6.00e-01	0	56	0	302514176	50	4855
2026-01-05 12:17:15.44	337.41	10.16	-39.4	-42.1	20.3	6.02e-01	0	56	0	304611328	50	4892
2026-01-05 12:17:16.45	337.46	10.07	-39.5	-42.2	20.1	6.02e-01	0	56	0	306184192	50	4937
2026-01-05 12:17:17.46	337.51	9.98	-39.6	-42.4	19.9	6.02e-01	0	56	0	308281344	50	5084
2026-01-05 12:17:18.47	337.56	9.89	-39.8	-42.7	19.6	6.01e-01	0	56	0	309854208	50	5248
2026-01-05 12:17:19.48	337.61	9.80	-39.7	-42.6	19.6	5.99e-01	0	56	0	311951360	50	5205
2026-01-05 12:17:20.49	337.65	9.71	-39.7	-42.6	19.6	6.02e-01	0	56	0	314048512	50	5175
2026-01-05 12:17:21.50	337.70	9.62	-39.6	-42.5	19.7	6.03e-01	0	56	0	315621376	50	5128
2026-01-05 12:17:22.51	337.75	9.53	-39.6	-42.5	19.7	6.00e-01	0	56	0	317718528	50	5130
2026-01-05 12:17:23.52	337.80	9.44	-39.6	-42.4	19.7	5.98e-01	0	56	0	319291392	50	5090
2026-01-05 12:17:24.53	337.84	9.35	-39.5	-42.4	19.7	6.00e-01	0	56	0	321388544	50	5068
2026-01-05 12:17:25.54	337.89	9.26	-39.5	-42.3	19.7	6.03e-01	0	56	0	323485696	50	5031
2026-01-05 12:17:26.55	337.93	9.18	-39.5	-42.4	19.7	6.02e-01	0	56	0	325058560	50	5054
2026-01-05 12:17:27.56	337.98	9.09	-39.4	-42.2	19.8	6.03e-01	0	56	0	327155712	50	4944
2026-01-05 12:17:28.57	338.02	9.00	-39.4	-42.2	19.7	5.97e-01	0	56	0	329252864	50	4956
2026-01-05 12:17:29.58	338.07	8.91	-39.4	-42.2	19.7	5.99e-01	0	56	0	330825728	50	4929
2026-01-05 12:17:30.59	338.11	8.83	-39.4	-42.2	19.7	6.02e-01	0	56	0	332922880	50	4936
2026-01-05 12:17:31.60	338.16	8.74	-39.4	-42.3	19.5	6.00e-01	0	56	0	334495744	50	4998
2026-01-05 12:17:32.61	338.20	8.65	-39.4	-42.2	19.6	5.99e-01	0	56	0	336592896	50	4961
2026-01-05 12:17:33.62	338.25	8.57	-39.5	-42.4	19.3	6.02e-01	0	56	0	338690048	50	5085
2026-01-05 12:17:34.63	338.29	8.48	-39.3	-42.2	19.5	6.01e-01	0	56	0	340262912	50	4963
2026-01-05 12:17:35.64	338.33	8.40	-39.3	-42.1	19.5	6.04e-01	0	56	0	342360064	50	4911
2026-01-05 12:17:36.65	338.38	8.31	-39.3	-42.2	19.5	6.02e-01	0	56	0	343932928	50	4961
2026-01-05 12:17:37.66	338.42	8.23	-39.3	-42.3	19.4	6.02e-01	0	56	0	346030080	50	4999
2026-01-05 12:17:38.67	338.46	8.14	-39.3	-42.1	19.5	6.02e-01	0	56	0	348127232	50	4909
2026-01-05 12:17:39.68	338.50	8.06	-39.3	-42.3	19.4	6.03e-01	0	56	0	349700096	50	4984
2026-01-05 12:17:40.69	338.55	7.98	-44.0	-57.7	9.3	6.62e-01	45	56	0	351797248	58	18635
2026-01-05 12:17:41.70	338.59	7.89	-45.1	-63.6	3.8	7.43e-01	0	56	104	351797248	60	32598
2026-01-05 12:17:42.71	338.63	7.81	-45.5	-64.0	3.8	7.45e-01	0	56	104	351797248	61	32449
2026-01-05 12:17:43.72	338.67	7.73	-45.8	-64.6	3.8	7.46e-01	0	56	104	351797248	62	32761
2026-01-05 12:17:44.73	338.71	7.64	-46.0	-64.8	3.8	7.46e-01	0	56	104	351797248	62	33415
2026-01-05 12:17:45.74	338.75	7.56	-46.1	-64.9	3.8	7.46e-01	0	56	104	351797248	62	33759
2026-01-05 12:17:46.75	338.79	7.48	-46.1	-64.9	3.8	7.46e-01	0	56	104	351797248	62	34034
2026-01-05 12:17:47.76	338.83	7.40	-46.2	-65.0	3.8	7.45e-01	0	56	104	351797248	62	34330
2026-01-05 12:17:48.77	338.88	7.32	-46.2	-65.0	3.8	7.45e-01	0	56	104	351797248	63	32533
2026-01-05 12:17:49.78	338.92	7.24	-46.2	-65.1	3.8	7.41e-01	0	56	104	351797248	63	32697
2026-01-05 12:17:50.79	338.96	7.15	-46.2	-65.1	3.8	7.41e-01	0	56	104	351797248	63	32615
2026-01-05 12:17:51.80	338.99	7.07	-46.2	-65.0	3.8	7.44e-01	0	56	104	351797248	63	32481
2026-01-05 12:17:52.81	339.03	6.99	-46.1	-65.0	3.8	7.45e-01	0	56	104	351797248	63	32422
2026-01-05 12:17:53.83	339.07	6.91	-46.1	-65.0	3.8	7.50e-01	0	56	104	351797248	63	32253
2026-01-05 12:17:54.84	339.11	6.83	-46.1	-65.0	3.8	7.49e-01	0	56	104	351797248	63	32211
2026-01-05 12:17:55.85	339.15	6.75	-46.1	-65.0	3.8	7.46e-01	0	56	104	351797248	63	32198
2026-01-05 12:17:56.86	339.19	6.67	-46.0	-64.9	3.8	7.46e-01	0	56	104	351797248	63	32038
2026-01-05 12:17:57.87	339.23	6.60	-46.0	-64.9	3.8	7.45e-01	0	56	104	351797248	63	32093
2026-01-05 12:17:58.88	339.27	6.52	-46.0	-64.9	3.8	7.46e-01	0	56	104	351797248	63	31995
2026-01-05 12:17:59.89	339.31	6.44	-46.0	-64.9	3.8	7.44e-01	0	56	104	351797248	63	31921
2026-01-05 12:18:00.90	339.34	6.36	-46.0	-64.9	3.8	7.46e-01	0	56	104	351797248	63	31836
2026-01-05 12:18:01.91	339.38	6.28	-46.0	-64.9	3.8	7.45e-01	0	56	104	351797248	63	31939
2026-01-05 12:18:02.92	339.42	6.20	-46.0	-64.9	3.8	7.46e-01	0	57	104	351797248	63	31947
2026-01-05 12:18:03.93	339.46	6.13	-46.0	-64.9	3.8	7.45e-01	0	56	104	351797248	63	31896
2026-01-05 12:18:04.95	339.49	6.05	-46.0	-64.9	3.8	7.45e-01	0	56	104	351797248	63	31945
2026-01-05 12:18:05.96	339.53	5.97	-46.0	-64.9	3.8	7.44e-01	0	57	104	351797248	63	31937
2026-01-05 12:18:06.97	339.57	5.90	-46.0	-64.9	3.8	7.49e-01	0	56	104	351797248	63	31915
2026-01-05 12:18:07.98	339.60	5.82	-46.0	-64.9	3.8	7.47e-01	0	56	104	351797248	63	31847
2026-01-05 12:18:08.99	339.64	5.74	-46.0	-64.9	3.8	7.45e-01	0	56	104	351797248	63	31849
2026-01-05 12:18:10.00	339.68	5.67	-46.0	-64.9	3.8	7.40e-01	0	56	104	351797248	63	31884
2026-01-05 12:18:11.01	339.71	5.59	-46.0	-64.9	3.8	7.43e-01	0	56	104	351797248	63	31833
2026-01-05 12:18:12.02	339.75	5.52	-46.0	-64.8	3.8	7.47e-01	0	57	104	351797248	63	31766
2026-01-05 12:18:13.03	339.78	5.44	-46.0	-64.9	3.8	7.47e-01	0	56	104	351797248	63	31834
2026-01-05 12:18:14.05	339.82	5.37	-46.0	-64.9	3.8	7.47e-01	0	56	104	351797248	62	33744
2026-01-05 12:18:15.06	339.85	5.29	-46.0	-64.9	3.8	7.43e-01	0	56	104	351797248	62	33719
2026-01-05 12:18:16.07	339.89	5.22	-46.0	-64.9	3.8	7.46e-01	0	57	104	351797248	62	33777
2026-01-05 12:18:17.08	339.92	5.14	-46.0	-64.8	3.8	7.42e-01	0	56	104	351797248	62	33690
2026-01-05 12:18:18.09	339.96	5.07	-45.9	-64.8	3.8	7.45e-01	0	56	104	351797248	62	33554
2026-01-05 12:18:19.10	339.99	4.99	-45.9	-64.8	3.8	7.47e-01	0	56	104	351797248	62	33584
2026-01-05 12:18:20.11	340.03	4.92	-45.9	-64.8	3.8	7.44e-01	0	56	104	351797248	62	33573
2026-01-05 12:18:21.12	340.06	4.85	-45.9	-64.8	3.8	7.43e-01	0	57	104	351797248	62	33679
2026-01-05 12:18:22.13	340.10	4.77	-46.0	-64.8	3.8	7.46e-01	0	57	104	351797248	62	33683
2026-01-05 12:18:23.15	340.13	4.70	-46.0	-64.8	3.8	7.44e-01	0	57	104	351797248	62	33636
2026-01-05 12:18:24.16	340.17	4.63	-45.9	-64.8	3.8	7.45e-01	0	57	104	351797248	62	33593
2026-01-05 12:18:25.17	340.20	4.55	-45.9	-64.8	3.8	7.50e-01	0	56	104	351797248	62	33621
2026-01-05 12:18:26.18	340.23	4.48	-45.9	-64.8	3.8	7.45e-01	0	56	104	351797248	62	33645
2026-01-05 12:18:27.19	340.27	4.41	-45.9	-64.8	3.8	7.45e-01	0	57	104	351797248	62	33669
2026-01-05 12:18:28.20	340.30	4.34	-46.0	-64.8	3.8	7.46e-01	0	57	104	351797248	62	33623
2026-01-05 12:18:29.21	340.33	4.27	-45.9	-64.8	3.8	7.44e-01	0	57	104	351797248	62	33525
2026-01-05 12:18:30.22	340.36	4.19	-45.9	-64.8	3.8	7.46e-01	0	56	104	351797248	62	33545
2026-01-05 12:18:31.23	340.40	4.12	-45.9	-64.8	3.8	7.46e-01	0	57	104	351797248	62	33612
2026-01-05 12:18:32.24	340.43	4.05	-45.9	-64.8	3.8	7.47e-01	0	57	104	351797248	62	33581
2026-01-05 12:18:33.25	340.46	3.98	-45.9	-64.8	3.8	7.45e-01	0	56	104	351797248	62	33623
2026-01-05 12:18:34.26	340.49	3.91	-45.9	-64.8	3.8	7.44e-01	0	57	104	351797248	62	33648
2026-01-05 12:18:35.27	340.53	3.84	-45.9	-64.8	3.8	7.47e-01	0	56	104	351797248	62	33600
2026-01-05 12:18:36.29	340.56	3.77	-45.9	-64.8	3.8	7.48e-01	0	56	104	351797248	62	33612
2026-01-05 12:18:37.30	340.59	3.70	-45.6	-64.8	3.8	7.46e-01	0	57	104	351797248	62	33592
2026-01-05 12:18:38.31	340.62	3.63	-45.9	-64.8	3.8	7.43e-01	0	56	104	351797248	62	33589
2026-01-05 12:18:39.32	340.65	3.56	-45.9	-64.8	3.8	7.44e-01	0	57	104	351797248	62	33556
2026-01-05 12:18:40.33	340.69	3.49	-45.9	-64.8	3.8	7.45e-01	0	57	104	351797248	62	33616
2026-01-05 12:18:41.34	340.72	3.42	-45.9	-64.8	3.8	7.46e-01	0	56	104	351797248	62	33583
2026-01-05 12:18:42.35	340.75	3.35	-45.9	-64.8	3.8	7.47e-01	0	57	104	351797248	62	33515
2026-01-05 12:18:43.36	340.78	3.28	-45.9	-64.8	3.8	7.47e-01	0	57	104	351797248	62	33532
2026-01-05 12:18:44.37	340.81	3.21	-45.9	-64.8	3.8	7.48e-01	0	57	104	351797248	62	33578
2026-01-05 12:18:45.39	340.84	3.14	-45.9	-64.8	3.8	7.49e-01	0	57	104	351797248	62	33557
2026-01-05 12:18:46.40	340.87	3.08	-45.9	-64.8	3.8	7.46e-01	0	57	104	351797248	62	33555
2026-01-05 12:18:47.41	340.90	3.01	-45.9	-64.8	3.8	7.45e-01	0	56	104	351797248	62	33584
2026-01-05 12:18:48.42	340.93	2.94	-45.9	-64.8	3.8	7.41e-01	0	57	104	351797248	62	33590
2026-01-05 12:18:49.43	340.96	2.87	-45.9	-64.8	3.8	7.45e-01	0	56	104	351797248	62	33617
2026-01-05 12:18:50.44	340.99	2.80	-45.9	-64.8	3.8	7.44e-01	0	57	104	351797248	62	33565
2026-01-05 12:18:51.45	341.02	2.74	-45.9	-64.8	3.8	7.45e-01	0	57	104	351797248	62	33599
2026-01-05 12:18:52.46	341.05	2.67	-45.9	-64.8	3.8	7.46e-01	0	57	104	351797248	62	33536
2026-01-05 12:18:53.47	341.08	2.60	-45.9	-64.8	3.8	7.45e-01	0	57	104	351797248	62	33587
2026-01-05 12:18:54.48	341.11	2.53	-45.9	-64.8	3.8	7.47e-01	0	57	104	351797248	62	33530
2026-01-05 12:18:55.49	341.14	2.47	-45.9	-64.8	3.8	7.45e-01	0	57	104	351797248	62	33593
2026-01-05 12:18:56.50	341.17	2.40	-45.9	-64.8	3.8	7.47e-01	0	57	104	351797248	62	33546
2026-01-05 12:18:57.52	341.20	2.33	-45.6	-64.8	3.8	7.47e-01	0	57	104	351797248	62	33601
2026-01-05 12:18:58.53	341.23	2.27	-45.9	-64.8	3.8	7.46e-01	0	56	104	351797248	62	33561
2026-01-05 12:18:59.54	341.26	2.20	-45.9	-64.8	3.8	7.45e-01	0	57	104	351797248	62	33566
2026-01-05 12:19:00.55	341.29	2.14	-45.9	-64.8	3.8	7.49e-01	0	57	104	351797248	62	33533
2026-01-05 12:19:01.56	341.32	2.07	-45.9	-64.8	3.8	7.44e-01	0	57	104	351797248	62	33538
2026-01-05 12:19:02.57	341.34	2.00	-45.9	-64.8	3.8	7.43e-01	0	56	104	351797248	62	33510
2026-01-05 12:19:03.58	341.37	1.94	-45.9	-64.8	3.8	7.44e-01	0	57	104	351797248	62	33538

#Closed at: 2026-01-05 12:19:04
#Recorded file [351 MB]: D:/lorett/data/31039_260105_151345.dat