passes_logs/2026/01/05/R2.0S_Moscow/R2.0S_Moscow__20260105_084327_NOAA_21_JPSS-2_rec.log

#Pass ID: 20260105_084327_NOAA 21 (JPSS-2)
#Satellite: NOAA 21 (JPSS-2)
#Configuration: NOAA-21
#almurnet v.1.7.20251203
#Start time: 2026-01-05 08:43:51

#Version: 2.2.20231116
#Station: R2.0S_Moscow
#Location: 37.707566 lon 55.798166 lat
#TLE: 1 54234U 22150A   26004.22845673  .00000174  00000+0  10347-3 0  9996
#TLE: 2 54234  98.7489 305.2591 0001115 345.0884  15.0259 14.19531906163281

#Time	Az	El	Level	Level2	SNR	BER	BlckErr	Temp	State	Recorded	gain1	gain2
2026-01-05 08:43:51.63	124.53	3.50	-44.7	-57.3	3.8	1.49e+00	0	55	0	0	60	15917
2026-01-05 08:43:52.66	124.47	3.56	-45.1	-57.7	3.8	1.49e+00	0	56	104	0	61	15670
2026-01-05 08:43:53.54	124.42	3.62	-45.1	-57.7	3.8	1.49e+00	0	55	104	0	61	15641
2026-01-05 08:43:54.70	124.36	3.69	-45.1	-57.7	3.8	1.49e+00	0	55	104	0	61	15581
2026-01-05 08:43:55.57	124.31	3.74	-45.1	-57.6	3.8	1.49e+00	0	55	104	0	61	15525
2026-01-05 08:43:56.72	124.25	3.82	-45.0	-57.5	3.8	1.49e+00	0	56	104	0	61	15381
2026-01-05 08:43:57.59	124.20	3.87	-45.0	-57.5	3.8	1.49e+00	0	56	104	0	61	15242
2026-01-05 08:43:58.74	124.14	3.95	-44.9	-57.4	3.8	1.49e+00	0	55	104	0	61	15075
2026-01-05 08:43:59.61	124.09	4.00	-44.8	-57.2	3.8	1.49e+00	0	55	104	0	61	14860
2026-01-05 08:44:00.76	124.02	4.08	-44.5	-57.0	3.8	1.49e+00	0	55	104	0	60	15340
2026-01-05 08:44:01.63	123.98	4.13	-43.5	-56.5	3.9	1.49e+00	0	55	104	0	58	16195
2026-01-05 08:44:02.78	123.91	4.21	-25.2	-47.7	4.4	1.51e+00	0	55	104	0	26	37202
2026-01-05 08:44:03.65	123.86	4.26	-15.9	-35.3	4.5	1.50e+00	0	56	104	0	12	19905
2026-01-05 08:44:04.81	123.79	4.34	-19.6	-39.3	3.7	1.50e+00	0	55	104	0	13	29773
2026-01-05 08:44:05.67	123.74	4.39	-22.4	-42.7	3.8	1.50e+00	0	56	104	0	13	44001
2026-01-05 08:44:06.83	123.68	4.47	-23.9	-45.9	4.1	1.50e+00	0	56	104	0	18	47917
2026-01-05 08:44:07.70	123.63	4.52	-23.3	-44.0	4.1	1.50e+00	0	56	104	0	17	40755
2026-01-05 08:44:08.85	123.56	4.60	-23.5	-44.8	3.8	1.51e+00	0	56	104	0	16	47508
2026-01-05 08:44:09.72	123.51	4.65	-23.8	-43.9	4.0	1.50e+00	0	56	104	0	14	47888
2026-01-05 08:44:10.87	123.44	4.73	-24.0	-45.1	4.1	1.50e+00	0	55	104	0	18	43693
2026-01-05 08:44:11.74	123.39	4.79	-22.2	-45.9	4.2	1.50e+00	0	56	104	0	18	47724
2026-01-05 08:44:12.89	123.32	4.86	-23.8	-42.9	3.9	1.50e+00	0	56	104	0	15	40193
2026-01-05 08:44:13.76	123.27	4.92	-22.2	-41.6	3.5	1.50e+00	0	55	104	0	14	36802
2026-01-05 08:44:14.92	123.20	5.00	-23.5	-43.2	3.9	1.50e+00	0	56	104	0	15	41580
2026-01-05 08:44:15.78	123.15	5.05	-22.6	-45.2	4.2	1.50e+00	0	56	104	0	17	46783
2026-01-05 08:44:16.94	123.08	5.13	-24.6	-42.8	3.8	1.50e+00	0	56	104	0	16	37763
2026-01-05 08:44:17.80	123.03	5.19	-21.6	-38.2	3.5	1.50e+00	0	55	104	0	13	26452
2026-01-05 08:44:18.96	122.96	5.26	-21.5	-44.2	4.1	1.50e+00	0	55	104	0	13	52638
2026-01-05 08:44:19.83	122.90	5.32	-24.8	-45.7	4.1	1.50e+00	0	56	104	0	18	47036
2026-01-05 08:44:20.98	122.83	5.40	-20.6	-42.7	3.2	1.51e+00	0	56	104	0	11	49361
2026-01-05 08:44:21.85	122.78	5.46	-20.3	-44.7	4.0	1.50e+00	0	56	104	0	16	46765
2026-01-05 08:44:23.00	122.71	5.53	-22.4	-43.8	4.2	1.50e+00	0	56	104	0	16	42187
2026-01-05 08:44:23.87	122.65	5.59	-20.6	-37.7	3.6	1.50e+00	0	56	104	0	11	27765
2026-01-05 08:44:25.02	122.58	5.67	-21.6	-41.8	4.1	1.50e+00	0	55	104	0	15	35575
2026-01-05 08:44:25.89	122.52	5.73	-19.1	-36.9	3.9	1.50e+00	0	56	104	0	4	38243
2026-01-05 08:44:27.05	122.45	5.80	-21.9	-43.5	4.5	1.50e+00	0	56	104	0	9	60833
2026-01-05 08:44:27.91	122.40	5.86	-8.7	-37.5	3.2	1.50e+00	0	56	104	0	2	45639
2026-01-05 08:44:29.07	122.32	5.94	-22.5	-38.9	3.6	1.51e+00	0	56	104	0	1	56629
2026-01-05 08:44:29.93	122.27	6.00	-7.2	-33.8	3.8	1.50e+00	0	56	104	0	0	33607
2026-01-05 08:44:31.09	122.19	6.08	-16.7	-34.8	4.2	1.51e+00	0	56	104	0	0	37745
2026-01-05 08:44:31.96	122.13	6.14	-22.9	-43.0	3.4	1.50e+00	0	56	104	0	15	40808
2026-01-05 08:44:33.11	122.06	6.22	-23.0	-38.9	4.7	1.51e+00	0	56	104	0	13	28378
2026-01-05 08:44:33.98	122.00	6.28	-22.6	-43.3	4.1	1.50e+00	0	56	104	0	14	44524
2026-01-05 08:44:35.13	121.93	6.36	-20.3	-41.1	3.4	1.50e+00	0	56	104	0	9	46071
2026-01-05 08:44:36.00	121.87	6.42	-10.2	-32.2	3.7	1.50e+00	0	56	104	0	10	15705
2026-01-05 08:44:37.16	121.79	6.50	-22.5	-44.3	4.2	1.50e+00	0	56	104	0	15	47418
2026-01-05 08:44:38.02	121.73	6.55	-24.1	-44.6	4.1	1.50e+00	0	56	104	0	16	46079
2026-01-05 08:44:39.18	121.66	6.63	-23.3	-39.0	5.6	1.50e+00	0	56	104	0	13	28928
2026-01-05 08:44:40.04	121.60	6.69	-22.7	-44.9	4.8	1.50e+00	0	56	104	0	13	56990
2026-01-05 08:44:41.20	121.52	6.78	-22.1	-42.3	4.0	1.50e+00	0	56	104	0	15	37583
2026-01-05 08:44:42.07	121.46	6.84	-23.7	-45.1	4.1	1.50e+00	0	56	104	0	16	49011
2026-01-05 08:44:43.22	121.38	6.92	-11.5	-32.5	3.6	1.50e+00	0	56	104	0	6	20529
2026-01-05 08:44:44.09	121.32	6.98	-24.0	-44.0	3.6	1.50e+00	0	56	104	0	16	43289
2026-01-05 08:44:45.24	121.24	7.06	-23.0	-44.9	4.2	1.50e+00	0	56	104	0	14	53828
2026-01-05 08:44:46.11	121.18	7.12	-23.2	-41.4	4.0	1.50e+00	0	56	104	0	14	35841
2026-01-05 08:44:47.27	121.10	7.20	-22.6	-45.0	4.4	1.50e+00	0	56	104	0	14	54611
2026-01-05 08:44:48.13	121.04	7.26	-23.7	-41.4	3.8	1.50e+00	0	56	104	0	14	35828
2026-01-05 08:44:49.29	120.96	7.34	-23.3	-43.3	5.6	1.50e+00	0	56	104	0	14	44500
2026-01-05 08:44:50.15	120.90	7.40	-24.4	-43.6	4.9	1.49e+00	0	56	104	0	16	41164
2026-01-05 08:44:51.31	120.81	7.49	-17.0	-38.4	4.2	1.50e+00	0	56	104	0	11	30262
2026-01-05 08:44:52.18	120.75	7.55	-10.1	-31.5	4.0	1.50e+00	0	56	104	0	11	13595
2026-01-05 08:44:53.33	120.67	7.63	-22.5	-40.9	3.9	1.49e+00	0	56	104	0	13	35821
2026-01-05 08:44:54.20	120.60	7.69	-20.0	-41.8	4.9	1.49e+00	0	56	104	0	16	33671
2026-01-05 08:44:55.35	120.52	7.78	-14.7	-33.7	3.9	1.48e+00	0	56	104	0	12	16645
2026-01-05 08:44:56.22	120.46	7.84	-20.8	-41.0	4.3	1.48e+00	0	56	104	0	14	34442
2026-01-05 08:44:57.38	120.37	7.92	-22.0	-41.0	4.9	1.46e+00	0	56	104	0	17	28831
2026-01-05 08:44:58.24	120.31	7.98	-20.4	-40.2	4.6	1.46e+00	0	56	104	0	12	35264
2026-01-05 08:44:59.40	120.22	8.07	-22.1	-40.0	4.7	1.44e+00	0	56	104	0	13	32274
2026-01-05 08:45:00.27	120.16	8.13	-23.9	-40.9	4.8	1.47e+00	0	56	104	0	15	31815
2026-01-05 08:45:01.42	120.07	8.21	-18.6	-38.2	4.9	1.49e+00	0	56	104	0	19	18556
2026-01-05 08:45:02.29	120.00	8.28	-19.8	-37.2	4.1	1.48e+00	0	56	104	0	15	21017
2026-01-05 08:45:03.44	119.92	8.36	-20.8	-38.4	4.2	1.49e+00	0	56	104	0	14	25293
2026-01-05 08:45:04.31	119.85	8.43	-22.2	-39.1	4.1	1.50e+00	0	56	104	0	9	36611
2026-01-05 08:45:05.46	119.76	8.51	-12.3	-37.0	4.0	1.48e+00	0	56	104	0	5	36339
2026-01-05 08:45:06.33	119.69	8.57	-22.4	-39.3	4.7	1.48e+00	0	56	104	0	13	29894
2026-01-05 08:45:07.48	119.60	8.66	-22.9	-35.8	4.3	1.48e+00	0	56	104	0	14	18811
2026-01-05 08:45:08.35	119.54	8.72	-23.1	-38.4	4.0	1.49e+00	0	56	104	0	12	28430
2026-01-05 08:45:09.50	119.45	8.81	-22.1	-36.0	4.5	1.46e+00	0	56	104	0	15	18201
2026-01-05 08:45:10.37	119.38	8.87	-22.8	-42.0	4.4	1.48e+00	0	56	104	0	10	48444
2026-01-05 08:45:11.52	119.29	8.96	-16.3	-35.8	4.7	1.47e+00	0	56	104	0	15	17704
2026-01-05 08:45:12.39	119.22	9.02	-23.3	-41.0	4.1	1.50e+00	0	56	104	0	13	36478
2026-01-05 08:45:13.55	119.12	9.11	-21.6	-38.8	4.0	1.48e+00	0	56	104	0	11	31755
2026-01-05 08:45:14.41	119.05	9.17	-21.8	-37.6	4.1	1.49e+00	0	56	104	0	14	23302
2026-01-05 08:45:15.57	118.96	9.26	-22.3	-39.2	5.0	1.47e+00	0	56	104	0	16	24948
2026-01-05 08:45:16.43	118.89	9.33	-24.5	-38.9	5.1	1.44e+00	0	56	104	0	17	22668
2026-01-05 08:45:17.58	118.80	9.41	-22.6	-37.2	4.5	1.46e+00	0	56	104	0	14	22151
2026-01-05 08:45:18.45	118.72	9.48	-17.7	-37.5	3.9	1.50e+00	0	56	104	0	22	14447
2026-01-05 08:45:19.60	118.63	9.57	-23.0	-38.0	4.8	1.45e+00	0	56	104	0	17	20379
2026-01-05 08:45:20.47	118.56	9.63	-22.4	-40.0	4.8	1.46e+00	0	56	104	0	17	25667
2026-01-05 08:45:21.62	118.46	9.72	-22.7	-38.3	4.4	1.48e+00	0	56	104	0	14	25088
2026-01-05 08:45:22.49	118.39	9.78	-24.8	-39.9	4.8	1.45e+00	0	56	104	0	17	25379
2026-01-05 08:45:23.65	118.29	9.87	-23.7	-39.9	5.1	1.45e+00	0	56	104	0	17	25322
2026-01-05 08:45:24.51	118.22	9.94	-16.6	-33.9	4.6	1.45e+00	0	56	104	0	18	12060
2026-01-05 08:45:25.67	118.12	10.03	-24.4	-38.9	4.5	1.45e+00	0	56	104	0	20	19079
2026-01-05 08:45:26.53	118.04	10.09	-34.5	-43.9	5.6	1.39e+00	0	56	104	0	37	12753
2026-01-05 08:45:27.68	117.94	10.18	-25.5	-38.1	4.8	1.44e+00	0	56	104	0	22	15437
2026-01-05 08:45:28.55	117.87	10.25	-20.9	-35.7	4.0	1.46e+00	0	56	104	0	13	19786
2026-01-05 08:45:29.70	117.77	10.34	-31.9	-40.5	7.3	1.41e+00	6	56	104	0	33	10842
2026-01-05 08:45:30.57	117.69	10.41	-34.0	-42.2	6.3	5.39e-01	9	56	0	0	36	11128
2026-01-05 08:45:31.72	117.59	10.50	-31.2	-43.3	4.1	1.24e+00	0	56	104	0	36	12591
2026-01-05 08:45:32.59	117.51	10.56	-36.2	-43.7	5.7	1.27e+00	17	56	104	0	36	13117
2026-01-05 08:45:33.74	117.41	10.65	-36.5	-45.9	5.4	9.90e-01	4	56	0	0	44	10730
2026-01-05 08:45:34.61	117.33	10.72	-34.2	-47.3	4.3	1.45e+00	0	56	104	0	41	14979
2026-01-05 08:45:35.76	117.23	10.81	-38.4	-47.5	5.8	1.45e+00	4	56	104	0	47	10814
2026-01-05 08:45:36.63	117.15	10.88	-36.8	-48.8	4.2	1.45e+00	0	56	104	0	45	14205
2026-01-05 08:45:37.78	117.04	10.97	-39.5	-49.3	4.1	1.29e+00	0	56	104	0	48	12592
2026-01-05 08:45:38.65	116.96	11.04	-39.0	-46.9	4.5	6.08e-01	0	56	104	0	49	9009
2026-01-05 08:45:39.80	116.86	11.13	-37.6	-44.0	7.9	2.35e-01	9	56	0	1048576	45	8171
2026-01-05 08:45:40.67	116.78	11.20	-36.7	-44.7	6.7	2.78e-01	12	56	0	3145728	45	8796
2026-01-05 08:45:41.82	116.67	11.29	-36.9	-46.3	6.9	9.85e-01	8	56	104	5242880	49	8395
2026-01-05 08:45:42.69	116.59	11.36	-39.1	-46.9	6.0	5.37e-01	3	56	0	5242880	48	9550
2026-01-05 08:45:43.84	116.48	11.46	-38.1	-46.4	6.1	5.12e-01	2	56	0	6291456	47	9567
2026-01-05 08:45:44.71	116.40	11.52	-36.6	-45.1	7.9	3.36e-01	7	56	0	7340032	48	7733
2026-01-05 08:45:45.86	116.29	11.62	-39.0	-44.4	9.2	1.93e-01	4	56	0	10485760	49	6740
2026-01-05 08:45:46.73	116.20	11.69	-36.5	-43.4	7.5	1.65e-01	1	56	0	12582912	45	7555
2026-01-05 08:45:47.88	116.09	11.78	-38.1	-41.9	11.4	5.16e-02	0	56	0	16777216	47	5716
2026-01-05 08:45:48.75	116.01	11.85	-37.5	-40.8	11.1	3.73e-02	0	56	0	18874368	43	6302
2026-01-05 08:45:49.90	115.90	11.94	-36.6	-39.6	12.4	2.43e-02	0	56	0	22020096	43	5522
2026-01-05 08:45:50.77	115.81	12.02	-36.2	-39.4	12.9	6.65e-02	1	56	0	25165824	43	5378
2026-01-05 08:45:51.92	115.70	12.11	-35.0	-39.3	12.8	1.71e-02	0	56	0	28311552	41	5962
2026-01-05 08:45:52.79	115.61	12.18	-36.2	-39.6	12.7	1.56e-02	0	56	0	31457280	42	5801
2026-01-05 08:45:53.94	115.49	12.27	-37.2	-40.1	13.8	1.14e-02	0	56	0	35651584	45	5166
2026-01-05 08:45:54.81	115.41	12.35	-36.9	-39.9	14.0	1.04e-02	0	56	0	37748736	44	5370
2026-01-05 08:45:55.96	115.29	12.44	-36.4	-39.4	14.3	1.17e-02	0	56	0	41943040	43	5352
2026-01-05 08:45:56.82	115.20	12.51	-31.2	-39.2	12.4	4.99e-02	0	56	0	44040192	41	5909
2026-01-05 08:45:57.97	115.09	12.61	-36.5	-39.2	14.6	8.32e-03	0	56	0	47185920	43	5260
2026-01-05 08:45:58.84	115.00	12.68	-37.0	-39.5	15.0	1.15e-02	0	56	0	50331648	44	5110
2026-01-05 08:46:00.00	114.88	12.78	-37.1	-39.5	14.8	1.26e-02	0	56	0	54525952	44	5101
2026-01-05 08:46:00.86	114.79	12.85	-37.0	-39.5	15.1	3.80e-03	0	56	0	56623104	44	5108
2026-01-05 08:46:02.01	114.67	12.94	-37.1	-39.4	15.2	5.55e-03	0	56	0	60817408	45	4805
2026-01-05 08:46:02.88	114.57	13.02	-36.7	-39.3	15.5	3.34e-03	0	56	0	62914560	44	5015
2026-01-05 08:46:04.03	114.45	13.11	-36.8	-39.1	15.2	4.56e-03	0	57	0	67108864	43	5185
2026-01-05 08:46:04.90	114.36	13.19	-37.1	-39.3	15.5	4.90e-03	0	56	0	69206016	45	4742
2026-01-05 08:46:06.06	114.24	13.28	-37.4	-39.3	15.7	6.05e-04	0	56	0	73400320	45	4736
2026-01-05 08:46:06.92	114.14	13.36	-37.5	-39.4	15.4	2.69e-04	0	56	0	75497472	45	4768
2026-01-05 08:46:08.07	114.02	13.45	-37.5	-39.4	15.8	1.92e-04	0	56	0	79691776	45	4765
2026-01-05 08:46:08.94	113.92	13.53	-37.6	-39.4	15.7	3.90e-04	0	56	0	81788928	45	4798
2026-01-05 08:46:10.09	113.80	13.62	-37.7	-39.5	15.8	1.67e-05	0	56	0	85983232	45	4822
2026-01-05 08:46:10.96	113.70	13.70	-37.6	-39.4	15.8	5.30e-06	0	56	0	88080384	45	4788
2026-01-05 08:46:12.11	113.57	13.80	-37.6	-39.4	15.9	2.20e-06	0	56	0	92274688	45	4785
2026-01-05 08:46:12.98	113.48	13.87	-37.6	-39.4	15.8	1.50e-06	0	56	0	94371840	45	4813
2026-01-05 08:46:14.13	113.35	13.97	-37.7	-39.5	15.8	0.00e+00	0	56	0	98566144	46	4546
2026-01-05 08:46:15.00	113.25	14.04	-37.6	-39.4	15.9	0.00e+00	0	56	0	100663296	46	4498
2026-01-05 08:46:16.15	113.12	14.14	-37.6	-39.3	15.9	0.00e+00	0	57	0	104857600	46	4485
2026-01-05 08:46:17.01	113.02	14.22	-37.5	-39.2	16.1	0.00e+00	0	57	0	106954752	46	4441
2026-01-05 08:46:18.17	112.89	14.32	-37.0	-39.2	16.1	0.00e+00	0	56	0	111149056	46	4421
2026-01-05 08:46:19.03	112.79	14.39	-37.4	-39.1	16.1	0.00e+00	0	56	0	113246208	45	4648
2026-01-05 08:46:20.19	112.65	14.49	-37.5	-39.2	16.1	7.00e-07	0	56	0	117440512	45	4674
2026-01-05 08:46:21.05	112.55	14.57	-37.4	-39.1	16.1	7.00e-07	0	56	0	119537664	45	4642
2026-01-05 08:46:22.21	112.41	14.67	-37.5	-39.2	16.1	7.00e-07	0	56	0	123731968	45	4665
2026-01-05 08:46:23.07	112.31	14.75	-37.4	-39.2	16.1	7.00e-07	0	57	0	125829120	45	4694
2026-01-05 08:46:24.23	112.17	14.85	-37.4	-39.2	16.1	4.50e-06	0	56	0	130023424	45	4661
2026-01-05 08:46:25.09	112.07	14.92	-37.4	-39.1	16.2	0.00e+00	0	57	0	132120576	45	4645
2026-01-05 08:46:26.25	111.93	15.03	-37.4	-39.1	16.3	0.00e+00	0	56	0	136314880	45	4604
2026-01-05 08:46:27.12	111.82	15.10	-37.4	-39.1	16.2	0.00e+00	0	56	0	138412032	45	4621
2026-01-05 08:46:28.27	111.68	15.20	-37.5	-39.2	16.2	7.00e-07	0	56	0	142606336	45	4664
2026-01-05 08:46:29.14	111.58	15.28	-37.4	-39.2	16.2	2.05e-04	0	56	0	144703488	45	4656
2026-01-05 08:46:30.29	111.43	15.38	-37.5	-39.2	16.1	0.00e+00	0	56	0	148897792	45	4672
2026-01-05 08:46:31.16	111.33	15.46	-37.5	-39.2	16.2	0.00e+00	0	56	0	150994944	45	4663
2026-01-05 08:46:32.31	111.18	15.56	-37.5	-39.2	16.2	0.00e+00	0	56	0	155189248	45	4681
2026-01-05 08:46:33.17	111.07	15.64	-37.5	-39.2	16.1	0.00e+00	0	57	0	157286400	45	4695
2026-01-05 08:46:34.33	110.93	15.74	-37.5	-39.2	16.2	0.00e+00	0	56	0	161480704	45	4656
2026-01-05 08:46:35.20	110.82	15.82	-37.6	-39.3	16.1	0.00e+00	0	56	0	163577856	45	4723
2026-01-05 08:46:36.35	110.67	15.93	-37.6	-39.3	16.1	0.00e+00	0	57	0	167772160	45	4742
2026-01-05 08:46:37.22	110.56	16.00	-37.6	-39.3	16.1	0.00e+00	0	56	0	169869312	45	4724
2026-01-05 08:46:38.37	110.41	16.11	-37.6	-39.3	16.1	0.00e+00	0	57	0	174063616	45	4725
2026-01-05 08:46:39.24	110.29	16.19	-37.6	-39.3	16.1	0.00e+00	0	56	0	177209344	45	4741
2026-01-05 08:46:40.39	110.14	16.29	-37.6	-39.3	16.1	0.00e+00	0	56	0	180355072	45	4737
2026-01-05 08:46:41.25	110.03	16.37	-37.7	-39.4	16.1	0.00e+00	0	56	0	183500800	45	4770
2026-01-05 08:46:42.41	109.87	16.48	-37.6	-39.3	16.1	0.00e+00	0	56	0	186646528	45	4759
2026-01-05 08:46:43.28	109.76	16.56	-37.7	-39.4	16.0	0.00e+00	0	57	0	188743680	45	4796
2026-01-05 08:46:44.43	109.60	16.66	-37.7	-39.5	16.0	0.00e+00	0	57	0	192937984	46	4547
2026-01-05 08:46:45.29	109.48	16.74	-37.7	-39.4	16.0	0.00e+00	0	57	0	196083712	46	4524
2026-01-05 08:46:46.45	109.33	16.85	-37.7	-39.5	16.0	0.00e+00	0	57	0	199229440	46	4553
2026-01-05 08:46:47.31	109.21	16.93	-37.7	-39.4	16.0	0.00e+00	0	57	0	202375168	46	4542
2026-01-05 08:46:48.47	109.05	17.03	-37.7	-39.4	16.0	0.00e+00	0	56	0	205520896	46	4538
2026-01-05 08:46:49.33	108.93	17.11	-37.7	-39.4	16.1	0.00e+00	0	56	0	208666624	46	4520
2026-01-05 08:46:50.48	108.77	17.22	-37.6	-39.3	16.2	0.00e+00	0	57	0	211812352	46	4468
2026-01-05 08:46:51.35	108.64	17.30	-37.6	-39.2	16.2	0.00e+00	0	56	0	214958080	46	4431
2026-01-05 08:46:52.50	108.48	17.41	-37.5	-39.1	16.4	0.00e+00	0	57	0	218103808	46	4367
2026-01-05 08:46:53.37	108.36	17.49	-37.5	-39.1	16.4	0.00e+00	0	56	0	221249536	46	4369
2026-01-05 08:46:54.53	108.19	17.59	-37.4	-39.1	16.4	0.00e+00	0	56	0	224395264	46	4365
2026-01-05 08:46:55.39	108.06	17.67	-37.4	-39.1	16.4	0.00e+00	0	56	0	227540992	46	4353
2026-01-05 08:46:56.54	107.90	17.78	-37.5	-39.1	16.4	0.00e+00	0	56	0	230686720	46	4375
2026-01-05 08:46:57.41	107.77	17.86	-37.5	-39.2	16.3	0.00e+00	0	56	0	233832448	46	4403
2026-01-05 08:46:58.57	107.60	17.97	-37.6	-39.3	16.2	0.00e+00	0	56	0	236978176	46	4451
2026-01-05 08:46:59.43	107.47	18.05	-37.5	-39.1	16.3	0.00e+00	0	56	0	240123904	46	4389
2026-01-05 08:47:00.59	107.30	18.16	-37.4	-39.1	16.4	0.00e+00	0	56	0	243269632	46	4349
2026-01-05 08:47:01.45	107.17	18.24	-37.4	-39.1	16.4	0.00e+00	0	56	0	246415360	46	4349
2026-01-05 08:47:02.61	106.99	18.35	-37.4	-39.0	16.5	0.00e+00	0	57	0	249561088	46	4301
2026-01-05 08:47:03.47	106.86	18.44	-37.3	-39.0	16.5	0.00e+00	0	56	0	252706816	46	4301
2026-01-05 08:47:04.63	106.69	18.55	-37.3	-38.9	16.6	0.00e+00	0	57	0	255852544	46	4274
2026-01-05 08:47:05.49	106.55	18.63	-37.3	-38.9	16.6	0.00e+00	0	57	0	258998272	46	4260
2026-01-05 08:47:06.65	106.37	18.74	-37.3	-38.9	16.6	0.00e+00	0	56	0	262144000	46	4271
2026-01-05 08:47:07.51	106.24	18.82	-37.3	-38.9	16.6	0.00e+00	0	56	0	265289728	46	4252
2026-01-05 08:47:08.67	106.06	18.93	-37.2	-38.8	16.7	0.00e+00	0	56	0	268435456	46	4238
2026-01-05 08:47:09.53	105.92	19.01	-37.3	-38.8	16.7	0.00e+00	0	57	0	271581184	46	4240
2026-01-05 08:47:10.69	105.74	19.12	-37.3	-38.9	16.6	0.00e+00	0	57	0	274726912	46	4253
2026-01-05 08:47:11.55	105.60	19.21	-37.2	-38.8	16.7	0.00e+00	0	57	0	277872640	46	4215
2026-01-05 08:47:12.71	105.41	19.32	-37.2	-38.8	16.7	0.00e+00	0	56	0	281018368	46	4215
2026-01-05 08:47:13.57	105.27	19.40	-37.1	-38.7	16.8	0.00e+00	0	57	0	284164096	46	4150
2026-01-05 08:47:14.73	105.08	19.51	-37.1	-38.6	16.9	0.00e+00	0	57	0	287309824	46	4136
2026-01-05 08:47:15.59	104.94	19.60	-37.1	-38.6	16.9	0.00e+00	0	57	0	290455552	46	4127
2026-01-05 08:47:16.75	104.75	19.71	-37.0	-38.6	16.9	0.00e+00	0	56	0	293601280	46	4117
2026-01-05 08:47:17.62	104.61	19.79	-37.0	-38.6	16.9	0.00e+00	0	56	0	296747008	46	4120
2026-01-05 08:47:18.77	104.41	19.90	-37.1	-38.6	16.9	0.00e+00	0	57	0	299892736	46	4119
2026-01-05 08:47:19.64	104.27	19.99	-37.1	-38.6	16.9	0.00e+00	0	57	0	303038464	46	4130
2026-01-05 08:47:20.79	104.07	20.10	-37.1	-38.6	16.9	0.00e+00	0	57	0	306184192	46	4123
2026-01-05 08:47:21.66	103.92	20.18	-37.0	-38.6	16.9	0.00e+00	0	57	0	309329920	46	4108
2026-01-05 08:47:22.81	103.73	20.29	-37.0	-38.5	17.0	0.00e+00	0	57	0	312475648	46	4095
2026-01-05 08:47:23.68	103.58	20.38	-36.9	-38.4	17.1	0.00e+00	0	56	0	315621376	45	4287
2026-01-05 08:47:24.83	103.38	20.49	-36.8	-38.3	17.2	0.00e+00	0	57	0	318767104	45	4234
2026-01-05 08:47:25.70	103.22	20.58	-36.8	-38.3	17.2	0.00e+00	0	57	0	321912832	45	4205
2026-01-05 08:47:26.85	103.02	20.69	-36.7	-38.2	17.3	0.00e+00	0	57	0	325058560	45	4167
2026-01-05 08:47:27.72	102.87	20.77	-36.7	-38.1	17.3	0.00e+00	0	57	0	328204288	45	4144
2026-01-05 08:47:28.87	102.66	20.89	-36.8	-38.3	17.2	0.00e+00	0	57	0	331350016	45	4197
2026-01-05 08:47:29.74	102.50	20.97	-36.8	-38.3	17.2	0.00e+00	0	56	0	334495744	45	4199
2026-01-05 08:47:30.89	102.30	21.08	-36.8	-38.3	17.2	0.00e+00	0	56	0	337641472	45	4228
2026-01-05 08:47:31.75	102.14	21.17	-36.9	-38.4	17.2	0.00e+00	0	56	0	340787200	45	4262
2026-01-05 08:47:32.91	101.93	21.28	-36.9	-38.4	17.1	0.00e+00	0	57	0	343932928	45	4266
2026-01-05 08:47:33.77	101.77	21.37	-36.9	-38.4	17.2	0.00e+00	0	57	0	347078656	45	4259
2026-01-05 08:47:34.93	101.55	21.48	-36.8	-38.3	17.2	0.00e+00	0	56	0	351272960	45	4219
2026-01-05 08:47:35.79	101.39	21.57	-36.8	-38.2	17.3	0.00e+00	0	57	0	353370112	45	4192
2026-01-05 08:47:36.95	101.17	21.68	-36.8	-38.3	17.2	0.00e+00	0	57	0	357564416	45	4224
2026-01-05 08:47:37.81	101.01	21.76	-36.8	-38.3	17.3	0.00e+00	0	57	0	359661568	45	4221
2026-01-05 08:47:38.97	100.79	21.88	-36.8	-38.3	17.3	0.00e+00	0	56	0	362807296	45	4199
2026-01-05 08:47:39.83	100.63	21.96	-36.8	-38.3	17.2	0.00e+00	0	57	0	365953024	45	4222
2026-01-05 08:47:40.99	100.40	22.08	-36.9	-38.4	17.2	0.00e+00	0	56	0	370147328	45	4248
2026-01-05 08:47:41.85	100.23	22.16	-36.9	-38.4	17.2	0.00e+00	0	56	0	372244480	45	4250
2026-01-05 08:47:43.01	100.01	22.28	-36.9	-38.4	17.1	0.00e+00	0	56	0	376438784	45	4284
2026-01-05 08:47:43.87	99.84	22.36	-37.0	-38.5	17.1	0.00e+00	0	56	0	378535936	45	4324
2026-01-05 08:47:45.03	99.61	22.48	-37.0	-38.6	17.0	0.00e+00	0	56	0	382730240	45	4352
2026-01-05 08:47:45.89	99.44	22.56	-36.9	-38.5	17.1	0.00e+00	0	56	0	384827392	45	4300
2026-01-05 08:47:47.05	99.20	22.67	-36.9	-38.3	17.2	0.00e+00	0	57	0	389021696	45	4239
2026-01-05 08:47:47.91	99.03	22.76	-36.7	-38.2	17.4	0.00e+00	0	57	0	391118848	45	4165
2026-01-05 08:47:49.07	98.79	22.87	-36.6	-38.1	17.5	0.00e+00	0	56	0	395313152	45	4124
2026-01-05 08:47:49.94	98.62	22.96	-36.7	-38.1	17.4	0.00e+00	0	57	0	397410304	45	4135
2026-01-05 08:47:51.09	98.38	23.07	-36.8	-38.2	17.3	0.00e+00	0	57	0	401604608	45	4181
2026-01-05 08:47:51.96	98.20	23.16	-36.8	-38.3	17.2	0.00e+00	0	57	0	403701760	45	4233
2026-01-05 08:47:53.11	97.96	23.27	-36.9	-38.4	17.1	0.00e+00	0	57	0	407896064	45	4281
2026-01-05 08:47:53.98	97.78	23.36	-36.8	-38.4	17.2	0.00e+00	0	57	0	409993216	45	4245
2026-01-05 08:47:55.13	97.53	23.47	-36.8	-38.3	17.3	0.00e+00	0	56	0	414187520	45	4198
2026-01-05 08:47:55.99	97.35	23.56	-36.7	-38.1	17.4	0.00e+00	0	56	0	416284672	45	4131
2026-01-05 08:47:57.15	97.10	23.67	-36.5	-38.0	17.6	0.00e+00	0	57	0	420478976	45	4060
2026-01-05 08:47:58.01	96.92	23.75	-36.5	-37.9	17.7	0.00e+00	0	56	0	422576128	44	4261
2026-01-05 08:47:59.17	96.67	23.87	-36.4	-37.8	17.8	0.00e+00	0	57	0	426770432	44	4214
2026-01-05 08:48:00.03	96.48	23.95	-36.3	-37.7	17.8	0.00e+00	0	57	0	428867584	44	4175
2026-01-05 08:48:01.19	96.23	24.07	-36.4	-37.8	17.8	0.00e+00	0	57	0	433061888	44	4215
2026-01-05 08:48:02.05	96.04	24.15	-36.5	-37.9	17.6	0.00e+00	0	56	0	435159040	44	4278
2026-01-05 08:48:03.20	95.78	24.26	-36.5	-37.9	17.6	0.00e+00	0	57	0	439353344	44	4283
2026-01-05 08:48:04.07	95.59	24.35	-36.5	-38.0	17.6	0.00e+00	0	57	0	441450496	44	4315
2026-01-05 08:48:05.22	95.33	24.46	-36.6	-38.0	17.6	0.00e+00	0	57	0	445644800	44	4325
2026-01-05 08:48:06.09	95.13	24.55	-36.5	-38.0	17.6	0.00e+00	0	57	0	447741952	44	4303
2026-01-05 08:48:07.24	94.87	24.66	-36.6	-38.0	17.5	0.00e+00	0	57	0	451936256	44	4334
2026-01-05 08:48:08.10	94.67	24.74	-36.6	-38.1	17.5	0.00e+00	0	56	0	454033408	44	4344
2026-01-05 08:48:09.26	94.40	24.85	-36.7	-38.1	17.4	0.00e+00	0	57	0	458227712	44	4391
2026-01-05 08:48:10.13	94.20	24.94	-36.8	-38.2	17.3	0.00e+00	0	57	0	460324864	44	4438
2026-01-05 08:48:11.28	93.93	25.05	-36.9	-38.5	17.1	0.00e+00	0	57	0	464519168	44	4554
2026-01-05 08:48:12.15	93.73	25.13	-37.1	-38.7	17.0	0.00e+00	0	57	0	466616320	44	4656
2026-01-05 08:48:13.30	93.46	25.24	-37.2	-38.7	16.9	0.00e+00	0	56	0	470810624	44	4703
2026-01-05 08:48:14.16	93.25	25.33	-37.2	-38.8	16.9	0.00e+00	0	57	0	472907776	44	4707
2026-01-05 08:48:15.32	92.97	25.44	-37.2	-38.8	16.8	0.00e+00	0	57	0	477102080	45	4452
2026-01-05 08:48:16.18	92.77	25.52	-37.2	-38.7	16.9	0.00e+00	0	57	0	480247808	45	4427
2026-01-05 08:48:17.34	92.48	25.63	-37.1	-38.6	17.0	0.00e+00	0	57	0	483393536	45	4353
2026-01-05 08:48:18.20	92.27	25.71	-37.0	-38.5	17.1	0.00e+00	0	57	0	485490688	45	4337
2026-01-05 08:48:19.36	91.99	25.82	-37.1	-38.6	17.0	0.00e+00	0	56	0	489684992	45	4369
2026-01-05 08:48:20.22	91.78	25.91	-37.1	-38.7	17.0	0.00e+00	0	56	0	491782144	45	4400
2026-01-05 08:48:21.38	91.49	26.02	-37.1	-38.6	17.1	0.00e+00	0	56	0	495976448	45	4357
2026-01-05 08:48:22.24	91.27	26.10	-37.0	-38.5	17.1	0.00e+00	0	57	0	499122176	45	4304
2026-01-05 08:48:23.40	90.98	26.21	-36.9	-38.4	17.2	0.00e+00	0	57	0	502267904	45	4284
2026-01-05 08:48:24.26	90.76	26.29	-36.9	-38.4	17.2	0.00e+00	0	57	0	504365056	45	4284
2026-01-05 08:48:25.41	90.47	26.39	-37.0	-38.5	17.1	0.00e+00	0	57	0	508559360	45	4340
2026-01-05 08:48:26.28	90.25	26.48	-37.1	-38.6	17.0	0.00e+00	0	57	0	510656512	45	4366
2026-01-05 08:48:27.43	89.95	26.58	-37.2	-38.7	16.9	0.00e+00	0	57	0	514850816	45	4427
2026-01-05 08:48:28.29	89.73	26.66	-37.3	-38.8	16.8	0.00e+00	0	57	0	517996544	45	4491
2026-01-05 08:48:29.45	89.43	26.77	-37.3	-38.9	16.7	0.00e+00	0	57	0	521142272	45	4533
2026-01-05 08:48:30.31	89.20	26.85	-37.3	-38.9	16.7	0.00e+00	0	57	0	524288000	45	4528
2026-01-05 08:48:31.47	88.90	26.95	-37.3	-38.9	16.8	0.00e+00	0	57	0	527433728	45	4502
2026-01-05 08:48:32.34	88.67	27.03	-37.2	-38.8	16.9	0.00e+00	0	57	0	530579456	45	4458
2026-01-05 08:48:33.49	88.36	27.14	-37.3	-38.8	16.8	0.00e+00	0	57	0	533725184	45	4490
2026-01-05 08:48:34.36	88.13	27.22	-37.3	-38.9	16.8	0.00e+00	0	56	0	536870912	45	4500
2026-01-05 08:48:35.51	87.82	27.32	-37.4	-39.0	16.7	0.00e+00	0	57	0	540016640	45	4562
2026-01-05 08:48:36.38	87.58	27.40	-37.4	-38.9	16.8	0.00e+00	0	57	0	543162368	45	4539
2026-01-05 08:48:37.53	87.27	27.50	-37.3	-38.9	16.8	0.00e+00	0	57	0	546308096	45	4514
2026-01-05 08:48:38.40	87.03	27.58	-37.3	-38.9	16.8	0.00e+00	0	57	0	549453824	45	4505
2026-01-05 08:48:39.55	86.71	27.68	-37.3	-38.8	16.9	0.00e+00	0	57	0	552599552	45	4480
2026-01-05 08:48:40.42	86.47	27.75	-37.2	-38.8	16.9	0.00e+00	0	57	0	555745280	45	4449
2026-01-05 08:48:41.57	86.15	27.86	-37.1	-38.6	17.1	0.00e+00	0	57	0	558891008	45	4385
2026-01-05 08:48:42.44	85.90	27.93	-37.0	-38.5	17.2	0.00e+00	0	57	0	562036736	45	4332
2026-01-05 08:48:43.59	85.58	28.03	-37.0	-38.5	17.2	0.00e+00	0	57	0	565182464	45	4316
2026-01-05 08:48:44.46	85.33	28.10	-37.1	-38.7	17.0	0.00e+00	0	57	0	568328192	45	4403
2026-01-05 08:48:45.61	85.00	28.20	-37.3	-38.9	16.9	0.00e+00	0	57	0	571473920	45	4495
2026-01-05 08:48:46.47	84.76	28.28	-37.3	-38.9	16.8	0.00e+00	0	57	0	574619648	45	4519
2026-01-05 08:48:47.63	84.42	28.37	-37.3	-38.9	16.8	0.00e+00	0	57	0	577765376	45	4519
2026-01-05 08:48:48.49	84.17	28.44	-37.3	-38.9	16.9	0.00e+00	0	57	0	580911104	45	4495
2026-01-05 08:48:49.65	83.84	28.54	-37.3	-38.8	16.9	0.00e+00	0	57	0	584056832	45	4480
2026-01-05 08:48:50.51	83.58	28.61	-37.4	-38.9	16.8	0.00e+00	0	56	0	587202560	45	4539
2026-01-05 08:48:51.67	83.24	28.71	-37.4	-39.0	16.8	0.00e+00	0	57	0	590348288	45	4558
2026-01-05 08:48:52.54	82.98	28.78	-37.5	-39.1	16.7	0.00e+00	0	57	0	593494016	45	4615
2026-01-05 08:48:53.69	82.64	28.87	-37.5	-39.1	16.7	0.00e+00	0	57	0	596639744	45	4610
2026-01-05 08:48:54.55	82.39	28.94	-37.4	-38.9	16.8	0.00e+00	0	57	0	599785472	45	4529
2026-01-05 08:48:55.71	82.04	29.03	-37.1	-38.6	17.1	0.00e+00	0	56	0	602931200	45	4390
2026-01-05 08:48:56.57	81.78	29.10	-37.1	-38.6	17.2	0.00e+00	0	57	0	606076928	45	4347
2026-01-05 08:48:57.73	81.43	29.19	-37.2	-38.7	17.0	0.00e+00	0	57	0	609222656	45	4406
2026-01-05 08:48:58.59	81.16	29.26	-37.3	-38.8	17.0	0.00e+00	0	57	0	612368384	45	4468
2026-01-05 08:48:59.74	80.81	29.34	-37.3	-38.8	16.9	0.00e+00	0	57	0	615514112	45	4464
2026-01-05 08:49:00.61	80.54	29.41	-37.2	-38.7	17.0	0.00e+00	0	57	0	618659840	45	4431
2026-01-05 08:49:01.76	80.19	29.50	-37.2	-38.7	17.1	0.00e+00	0	57	0	621805568	45	4418
2026-01-05 08:49:02.63	79.92	29.56	-37.2	-38.7	17.1	0.00e+00	0	57	0	624951296	45	4409
2026-01-05 08:49:03.78	79.56	29.64	-37.2	-38.7	17.1	0.00e+00	0	57	0	628097024	45	4411
2026-01-05 08:49:04.64	79.29	29.71	-37.3	-38.8	17.0	0.00e+00	0	57	0	631242752	45	4455
2026-01-05 08:49:05.80	78.92	29.79	-37.5	-39.1	16.7	0.00e+00	0	57	0	634388480	45	4605
2026-01-05 08:49:06.66	78.65	29.85	-37.5	-39.1	16.7	0.00e+00	0	57	0	637534208	45	4644
2026-01-05 08:49:07.82	78.28	29.93	-37.6	-39.2	16.6	0.00e+00	0	57	0	640679936	45	4692
2026-01-05 08:49:08.68	78.01	29.99	-37.6	-39.2	16.6	0.00e+00	0	57	0	643825664	45	4693
2026-01-05 08:49:09.84	77.64	30.07	-37.6	-39.2	16.6	0.00e+00	0	57	0	646971392	45	4686
2026-01-05 08:49:10.70	77.36	30.13	-37.6	-39.2	16.6	0.00e+00	0	57	0	650117120	45	4668
2026-01-05 08:49:11.86	76.98	30.21	-37.6	-39.2	16.6	0.00e+00	0	57	0	653262848	45	4698
2026-01-05 08:49:12.72	76.70	30.27	-37.6	-39.2	16.6	0.00e+00	0	57	0	656408576	45	4687
2026-01-05 08:49:13.88	76.33	30.34	-37.6	-39.3	16.6	0.00e+00	0	57	0	659554304	45	4718
2026-01-05 08:49:14.74	76.04	30.40	-37.7	-39.3	16.5	0.00e+00	0	57	0	662700032	45	4741
2026-01-05 08:49:15.89	75.67	30.47	-37.6	-39.2	16.7	0.00e+00	0	57	0	665845760	45	4673
2026-01-05 08:49:16.76	75.38	30.52	-37.5	-39.1	16.8	0.00e+00	0	57	0	668991488	45	4599
2026-01-05 08:49:17.91	75.00	30.59	-37.5	-39.0	16.8	0.00e+00	0	57	0	672137216	45	4580
2026-01-05 08:49:18.78	74.71	30.65	-37.5	-39.0	16.8	0.00e+00	0	57	0	675282944	45	4593
2026-01-05 08:49:19.93	74.33	30.72	-37.5	-39.0	16.8	0.00e+00	0	57	0	678428672	45	4592
2026-01-05 08:49:20.80	74.03	30.77	-37.5	-39.1	16.7	0.00e+00	0	57	0	681574400	45	4617
2026-01-05 08:49:21.95	73.65	30.83	-37.7	-39.3	16.6	0.00e+00	0	57	0	684720128	45	4725
2026-01-05 08:49:22.82	73.35	30.88	-37.7	-39.3	16.5	0.00e+00	0	57	0	687865856	46	4486
2026-01-05 08:49:23.97	72.96	30.95	-37.7	-39.3	16.6	0.00e+00	0	57	0	691011584	46	4482
2026-01-05 08:49:24.84	72.67	30.99	-37.7	-39.4	16.5	0.00e+00	0	57	0	694157312	46	4497
2026-01-05 08:49:25.99	72.28	31.05	-37.8	-39.4	16.5	0.00e+00	0	57	0	698351616	46	4523
2026-01-05 08:49:26.86	71.98	31.10	-37.9	-39.5	16.4	0.00e+00	0	57	0	700448768	46	4576
2026-01-05 08:49:28.01	71.59	31.16	-37.9	-39.6	16.3	0.00e+00	0	57	0	703594496	46	4609
2026-01-05 08:49:28.87	71.29	31.20	-38.0	-39.8	16.2	0.00e+00	0	57	0	706740224	46	4708
2026-01-05 08:49:30.03	70.89	31.26	-38.1	-39.8	16.1	0.00e+00	0	57	0	709885952	46	4736
2026-01-05 08:49:30.89	70.59	31.30	-38.1	-39.9	16.1	0.00e+00	0	57	0	713031680	46	4760
2026-01-05 08:49:32.05	70.19	31.35	-38.2	-40.0	15.9	0.00e+00	0	57	0	717225984	47	4562
2026-01-05 08:49:32.91	69.89	31.39	-38.3	-40.1	15.8	0.00e+00	0	57	0	719323136	47	4633
2026-01-05 08:49:34.06	69.49	31.44	-38.3	-40.1	15.8	0.00e+00	0	57	0	723517440	47	4634
2026-01-05 08:49:34.93	69.18	31.48	-38.2	-39.9	16.0	0.00e+00	0	57	0	725614592	47	4513
2026-01-05 08:49:36.08	68.78	31.53	-38.1	-39.8	16.1	0.00e+00	0	57	0	729808896	47	4491
2026-01-05 08:49:36.95	68.47	31.57	-38.1	-39.7	16.1	0.00e+00	0	57	0	731906048	47	4440
2026-01-05 08:49:38.10	68.07	31.61	-38.1	-39.8	16.1	0.00e+00	0	57	0	736100352	47	4480
2026-01-05 08:49:38.97	67.76	31.65	-38.2	-39.9	16.0	0.00e+00	0	57	0	738197504	47	4531
2026-01-05 08:49:40.12	67.35	31.69	-38.2	-39.9	16.0	0.00e+00	0	57	0	742391808	47	4513
2026-01-05 08:49:40.99	67.04	31.72	-38.2	-39.9	16.1	0.00e+00	0	57	0	744488960	47	4499
2026-01-05 08:49:42.14	66.63	31.76	-37.9	-39.5	16.4	0.00e+00	0	57	0	748683264	47	4330
2026-01-05 08:49:43.01	66.32	31.79	-37.7	-39.3	16.6	0.00e+00	0	57	0	750780416	47	4216
2026-01-05 08:49:44.16	65.91	31.83	-37.7	-39.2	16.7	0.00e+00	0	57	0	754974720	47	4192
2026-01-05 08:49:45.03	65.60	31.86	-37.7	-39.3	16.6	0.00e+00	0	57	0	757071872	47	4234
2026-01-05 08:49:46.18	65.18	31.89	-37.7	-39.3	16.6	0.00e+00	0	57	0	761266176	47	4227
2026-01-05 08:49:47.04	64.88	31.92	-37.8	-39.4	16.5	0.00e+00	0	57	0	763363328	47	4260
2026-01-05 08:49:48.20	64.46	31.95	-38.0	-39.7	16.3	0.00e+00	0	57	0	767557632	47	4400
2026-01-05 08:49:49.06	64.15	31.97	-38.1	-39.8	16.1	0.00e+00	0	57	0	769654784	47	4475
2026-01-05 08:49:50.22	63.73	32.00	-38.1	-39.8	16.1	0.00e+00	0	56	0	773849088	47	4478
2026-01-05 08:49:51.08	63.42	32.02	-38.2	-39.9	16.1	0.00e+00	0	57	0	775946240	47	4510
2026-01-05 08:49:52.24	63.00	32.05	-38.1	-39.8	16.1	0.00e+00	0	57	0	780140544	47	4476
2026-01-05 08:49:53.10	62.68	32.06	-38.1	-39.9	16.1	0.00e+00	0	57	0	782237696	47	4496
2026-01-05 08:49:54.26	62.26	32.09	-38.1	-39.8	16.1	0.00e+00	0	57	0	786432000	47	4470
2026-01-05 08:49:55.13	61.94	32.10	-38.0	-39.7	16.3	0.00e+00	0	57	0	788529152	47	4413
2026-01-05 08:49:56.28	61.53	32.12	-38.2	-39.9	16.1	0.00e+00	0	57	0	792723456	47	4516
2026-01-05 08:49:57.15	61.21	32.14	-38.1	-39.8	16.2	0.00e+00	0	57	0	794820608	47	4459
2026-01-05 08:49:58.30	60.79	32.15	-38.1	-39.8	16.1	0.00e+00	0	57	0	799014912	47	4467
2026-01-05 08:49:59.17	60.47	32.17	-38.1	-39.9	16.1	0.00e+00	0	57	0	801112064	47	4500
2026-01-05 08:50:00.32	60.05	32.18	-38.3	-40.1	15.9	0.00e+00	0	57	0	805306368	47	4604
2026-01-05 08:50:01.19	59.73	32.19	-38.4	-40.2	15.8	0.00e+00	0	57	0	807403520	47	4676
2026-01-05 08:50:02.34	59.31	32.20	-38.3	-40.1	15.9	0.00e+00	0	57	0	811597824	47	4628
2026-01-05 08:50:03.21	58.99	32.21	-38.3	-40.1	15.9	0.00e+00	0	57	0	813694976	47	4629
2026-01-05 08:50:04.36	58.57	32.21	-38.4	-40.1	15.8	0.00e+00	0	57	0	817889280	47	4630
2026-01-05 08:50:05.23	58.25	32.22	-38.3	-40.0	15.9	0.00e+00	0	57	0	819986432	47	4588
2026-01-05 08:50:06.38	57.83	32.22	-38.2	-40.0	16.0	0.00e+00	0	57	0	824180736	47	4558
2026-01-05 08:50:07.25	57.51	32.23	-38.3	-40.0	16.0	0.00e+00	0	57	0	826277888	47	4563
2026-01-05 08:50:08.40	57.09	32.23	-38.2	-40.0	16.0	0.00e+00	0	57	0	830472192	47	4556
2026-01-05 08:50:09.27	56.77	32.23	-38.1	-39.8	16.2	0.00e+00	0	57	0	832569344	47	4465
2026-01-05 08:50:10.42	56.35	32.23	-38.1	-39.8	16.1	0.00e+00	0	57	0	836763648	47	4478
2026-01-05 08:50:11.29	56.03	32.22	-38.0	-39.7	16.3	0.00e+00	0	57	0	839909376	47	4406
2026-01-05 08:50:12.44	55.61	32.22	-38.0	-39.6	16.3	0.00e+00	0	57	0	843055104	47	4389
2026-01-05 08:50:13.31	55.29	32.21	-37.9	-39.5	16.4	0.00e+00	0	57	0	845152256	47	4336
2026-01-05 08:50:14.46	54.87	32.21	-38.0	-39.7	16.3	0.00e+00	0	57	0	849346560	47	4408
2026-01-05 08:50:15.33	54.55	32.20	-38.2	-39.9	16.1	0.00e+00	0	57	0	852492288	47	4506
2026-01-05 08:50:16.48	54.13	32.19	-38.2	-39.9	16.1	0.00e+00	0	57	0	855638016	47	4498
2026-01-05 08:50:17.35	53.81	32.18	-38.1	-39.7	16.2	0.00e+00	0	57	0	858783744	47	4429
2026-01-05 08:50:18.50	53.39	32.17	-37.9	-39.5	16.4	0.00e+00	0	57	0	861929472	47	4336
2026-01-05 08:50:19.37	53.07	32.15	-38.0	-39.6	16.4	0.00e+00	0	57	0	865075200	47	4371
2026-01-05 08:50:20.52	52.65	32.14	-38.0	-39.7	16.3	0.00e+00	0	57	0	868220928	47	4404
2026-01-05 08:50:21.39	52.33	32.12	-38.1	-39.8	16.2	0.00e+00	0	57	0	871366656	47	4463
2026-01-05 08:50:22.54	51.91	32.10	-38.2	-40.0	16.0	0.00e+00	0	57	0	874512384	47	4548
2026-01-05 08:50:23.41	51.60	32.09	-38.1	-39.8	16.2	0.00e+00	0	57	0	877658112	47	4473
2026-01-05 08:50:24.56	51.18	32.06	-38.0	-39.7	16.3	0.00e+00	0	57	0	880803840	47	4419
2026-01-05 08:50:25.43	50.86	32.05	-38.0	-39.7	16.2	0.00e+00	0	57	0	883949568	47	4422
2026-01-05 08:50:26.58	50.45	32.02	-38.0	-39.7	16.3	0.00e+00	0	57	0	887095296	47	4417
2026-01-05 08:50:27.45	50.13	32.00	-38.0	-39.7	16.3	0.00e+00	0	57	0	890241024	47	4398
2026-01-05 08:50:28.60	49.72	31.97	-38.1	-39.8	16.2	0.00e+00	0	57	0	893386752	47	4473
2026-01-05 08:50:29.47	49.40	31.95	-38.2	-40.0	16.1	0.00e+00	0	57	0	896532480	47	4548
2026-01-05 08:50:30.62	48.99	31.92	-38.3	-40.1	15.9	0.00e+00	0	56	0	899678208	47	4624
2026-01-05 08:50:31.49	48.68	31.89	-38.2	-39.9	16.1	0.00e+00	0	57	0	902823936	47	4519
2026-01-05 08:50:32.64	48.27	31.86	-38.0	-39.6	16.3	0.00e+00	0	57	0	905969664	47	4390
2026-01-05 08:50:33.50	47.96	31.83	-37.9	-39.6	16.4	0.00e+00	0	57	0	909115392	47	4366
2026-01-05 08:50:34.66	47.54	31.79	-37.9	-39.6	16.4	0.00e+00	0	57	0	912261120	47	4347
2026-01-05 08:50:35.52	47.24	31.76	-38.0	-39.7	16.4	0.00e+00	0	57	0	915406848	47	4395
2026-01-05 08:50:36.67	46.83	31.72	-37.8	-39.4	16.6	0.00e+00	0	57	0	918552576	47	4281
2026-01-05 08:50:37.54	46.52	31.69	-37.8	-39.4	16.6	0.00e+00	0	57	0	921698304	47	4261
2026-01-05 08:50:38.69	46.11	31.65	-37.8	-39.5	16.5	0.00e+00	0	57	0	924844032	47	4295
2026-01-05 08:50:39.56	45.80	31.61	-37.9	-39.6	16.4	0.00e+00	0	57	0	927989760	47	4357
2026-01-05 08:50:40.71	45.40	31.57	-38.1	-39.8	16.1	0.00e+00	0	57	0	931135488	47	4488
2026-01-05 08:50:41.58	45.09	31.53	-38.3	-40.0	16.0	0.00e+00	0	57	0	934281216	47	4588
2026-01-05 08:50:42.73	44.69	31.48	-38.3	-40.1	16.0	0.00e+00	0	57	0	937426944	47	4604
2026-01-05 08:50:43.60	44.39	31.44	-38.2	-39.9	16.0	0.00e+00	0	57	0	940572672	47	4539
2026-01-05 08:50:44.75	43.98	31.39	-38.1	-39.8	16.2	0.00e+00	0	57	0	943718400	47	4485
2026-01-05 08:50:45.62	43.68	31.35	-37.9	-39.6	16.4	0.00e+00	0	57	0	946864128	47	4355
2026-01-05 08:50:46.77	43.28	31.30	-37.8	-39.4	16.6	0.00e+00	0	57	0	950009856	47	4251
2026-01-05 08:50:47.63	42.99	31.26	-37.7	-39.3	16.6	0.00e+00	0	57	0	953155584	47	4230
2026-01-05 08:50:48.79	42.59	31.20	-37.9	-39.5	16.4	0.00e+00	0	57	0	956301312	47	4334
2026-01-05 08:50:49.65	42.29	31.16	-38.1	-39.8	16.1	0.00e+00	0	57	0	959447040	47	4478
2026-01-05 08:50:50.80	41.90	31.10	-38.5	-40.2	15.7	0.00e+00	0	57	0	962592768	47	4705
2026-01-05 08:50:51.67	41.60	31.06	-38.7	-40.5	15.5	0.00e+00	0	57	0	965738496	47	4857
2026-01-05 08:50:52.82	41.21	30.99	-38.5	-40.3	15.7	0.00e+00	0	57	0	968884224	47	4730
2026-01-05 08:50:53.69	40.91	30.95	-38.3	-40.1	15.9	0.00e+00	0	57	0	972029952	47	4601
2026-01-05 08:50:54.84	40.53	30.88	-38.0	-39.6	16.3	0.00e+00	0	57	0	975175680	47	4372
2026-01-05 08:50:55.71	40.23	30.83	-37.7	-39.3	16.6	0.00e+00	0	57	0	978321408	47	4227
2026-01-05 08:50:56.86	39.85	30.77	-37.5	-39.1	16.9	0.00e+00	0	57	0	981467136	47	4101
2026-01-05 08:50:57.73	39.56	30.72	-37.5	-39.0	17.0	0.00e+00	0	57	0	984612864	46	4320
2026-01-05 08:50:58.88	39.17	30.65	-37.7	-39.3	16.7	0.00e+00	0	57	0	987758592	46	4461
2026-01-05 08:50:59.75	38.89	30.60	-37.9	-39.6	16.4	0.00e+00	0	57	0	990904320	46	4626
2026-01-05 08:51:00.90	38.51	30.53	-38.2	-39.9	16.1	0.00e+00	0	57	0	994050048	46	4797
2026-01-05 08:51:01.77	38.22	30.47	-38.2	-39.9	16.1	0.00e+00	0	57	0	997195776	46	4803
2026-01-05 08:51:02.92	37.84	30.40	-38.0	-39.7	16.3	0.00e+00	0	57	0	1000341504	46	4671
2026-01-05 08:51:03.79	37.56	30.34	-37.9	-39.6	16.4	0.00e+00	0	57	0	1003487232	46	4621
2026-01-05 08:51:04.94	37.18	30.27	-37.9	-39.5	16.5	0.00e+00	0	57	0	1006632960	46	4578
2026-01-05 08:51:05.81	36.90	30.21	-37.7	-39.3	16.7	0.00e+00	0	57	0	1009778688	46	4472
2026-01-05 08:51:06.97	36.53	30.13	-37.6	-39.2	16.7	0.00e+00	0	57	0	1012924416	46	4424
2026-01-05 08:51:07.83	36.25	30.08	-37.7	-39.3	16.7	0.00e+00	0	57	0	1016070144	46	4455
2026-01-05 08:51:08.99	35.88	30.00	-37.8	-39.4	16.5	0.00e+00	0	57	0	1019215872	46	4545
2026-01-05 08:51:09.85	35.61	29.94	-37.8	-39.4	16.5	0.00e+00	0	57	0	1022361600	46	4530
2026-01-05 08:51:11.01	35.24	29.86	-37.7	-39.3	16.7	0.00e+00	0	57	0	1025507328	46	4465
2026-01-05 08:51:11.87	34.97	29.79	-37.5	-39.1	16.9	0.00e+00	0	57	0	1028653056	46	4365
2026-01-05 08:51:13.03	34.61	29.71	-37.5	-39.1	16.9	0.00e+00	0	57	0	1032847360	46	4361
2026-01-05 08:51:13.89	34.34	29.65	-37.6	-39.2	16.8	0.00e+00	0	57	0	1034944512	46	4411
2026-01-05 08:51:15.05	33.98	29.56	-37.9	-39.5	16.5	0.00e+00	0	57	0	1039138816	46	4572
2026-01-05 08:51:15.92	33.71	29.50	-38.1	-39.8	16.2	0.00e+00	0	57	0	1041235968	46	4728
2026-01-05 08:51:17.07	33.35	29.41	-38.3	-40.1	15.9	0.00e+00	0	57	0	1044381696	47	4616
2026-01-05 08:51:17.94	33.08	29.35	-38.4	-40.1	15.8	0.00e+00	0	57	0	1047527424	47	4636
2026-01-05 08:51:19.09	32.73	29.26	-38.2	-39.9	16.1	0.00e+00	0	57	0	1051721728	47	4516
2026-01-05 08:51:19.96	32.47	29.19	-38.0	-39.7	16.2	0.00e+00	0	57	0	1053818880	47	4418
2026-01-05 08:51:21.11	32.12	29.10	-37.9	-39.5	16.4	0.00e+00	0	57	0	1058013184	47	4318
2026-01-05 08:51:21.98	31.86	29.04	-37.7	-39.3	16.6	0.00e+00	0	57	0	1060110336	47	4215
2026-01-05 08:51:23.13	31.52	28.95	-37.6	-39.2	16.7	0.00e+00	0	57	0	1064304640	47	4151
2026-01-05 08:51:24.00	31.26	28.88	-37.8	-39.4	16.5	0.00e+00	0	57	0	1066401792	47	4274
2026-01-05 08:51:25.15	30.92	28.78	-38.1	-39.8	16.2	0.00e+00	0	57	0	1070596096	47	4463
2026-01-05 08:51:26.02	30.66	28.71	-38.4	-40.2	15.8	0.00e+00	0	57	0	1072693248	47	4688
2026-01-05 08:51:27.17	30.32	28.62	-38.7	-40.5	15.4	0.00e+00	0	57	0	1076887552	47	4858
2026-01-05 08:51:28.04	30.07	28.55	-38.5	-40.4	15.6	0.00e+00	0	57	0	1078984704	47	4764
2026-01-05 08:51:29.19	29.73	28.45	-38.1	-39.8	16.1	0.00e+00	0	57	0	1083179008	47	4471
2026-01-05 08:51:30.05	29.49	28.38	-37.9	-39.5	16.4	0.00e+00	0	57	0	1085276160	47	4320
2026-01-05 08:51:31.21	29.15	28.28	-37.7	-39.3	16.6	0.00e+00	0	57	0	1089470464	47	4236
2026-01-05 08:51:32.07	28.91	28.21	-37.8	-39.4	16.5	0.00e+00	0	57	0	1091567616	47	4288
2026-01-05 08:51:33.23	28.58	28.11	-38.0	-39.8	16.3	0.00e+00	0	57	0	1095761920	47	4442
2026-01-05 08:51:34.09	28.34	28.04	-38.2	-39.9	16.1	0.00e+00	0	57	0	1097859072	47	4541
2026-01-05 08:51:35.25	28.01	27.94	-38.2	-39.9	16.2	0.00e+00	0	57	0	1102053376	47	4508
2026-01-05 08:51:36.11	27.77	27.87	-37.9	-39.6	16.4	0.00e+00	0	57	0	1104150528	47	4358
2026-01-05 08:51:37.27	27.45	27.76	-37.5	-39.1	16.9	0.00e+00	0	57	0	1108344832	47	4100
2026-01-05 08:51:38.13	27.21	27.69	-37.2	-38.7	17.2	0.00e+00	0	57	0	1110441984	46	4189
2026-01-05 08:51:39.28	26.89	27.59	-37.0	-38.5	17.4	0.00e+00	0	57	0	1114636288	46	4076
2026-01-05 08:51:40.15	26.66	27.51	-37.1	-38.5	17.4	0.00e+00	0	57	0	1116733440	46	4088
2026-01-05 08:51:41.30	26.34	27.41	-36.8	-38.2	17.7	0.00e+00	0	57	0	1120927744	45	4180
2026-01-05 08:51:42.17	26.11	27.33	-36.8	-38.2	17.7	0.00e+00	0	57	0	1123024896	45	4178
2026-01-05 08:51:43.32	25.80	27.23	-37.0	-38.5	17.4	0.00e+00	0	57	0	1127219200	45	4314
2026-01-05 08:51:44.19	25.57	27.15	-37.2	-38.8	17.2	0.00e+00	0	57	0	1129316352	45	4442
2026-01-05 08:51:45.34	25.26	27.05	-37.4	-39.0	17.0	0.00e+00	0	57	0	1133510656	45	4553
2026-01-05 08:51:46.21	25.03	26.97	-37.4	-38.9	17.0	0.00e+00	0	57	0	1135607808	45	4540
2026-01-05 08:51:47.36	24.73	26.86	-37.4	-38.9	17.0	0.00e+00	0	57	0	1139802112	45	4532
2026-01-05 08:51:48.23	24.50	26.78	-37.3	-38.8	17.1	0.00e+00	0	57	0	1141899264	45	4491
2026-01-05 08:51:49.38	24.20	26.68	-37.3	-38.8	17.1	0.00e+00	0	57	0	1146093568	45	4465
2026-01-05 08:51:50.25	23.98	26.60	-37.3	-38.9	17.1	0.00e+00	0	57	0	1148190720	45	4504
2026-01-05 08:51:51.40	23.68	26.49	-37.3	-38.9	17.1	0.00e+00	0	57	0	1152385024	45	4496
2026-01-05 08:51:52.27	23.46	26.41	-37.4	-38.9	17.0	0.00e+00	0	57	0	1154482176	45	4540
2026-01-05 08:51:53.42	23.17	26.30	-37.4	-38.9	17.1	0.00e+00	0	57	0	1158676480	45	4503
2026-01-05 08:51:54.29	22.95	26.22	-37.3	-38.8	17.1	0.00e+00	0	57	0	1160773632	45	4478
2026-01-05 08:51:55.44	22.66	26.12	-37.2	-38.7	17.2	0.00e+00	0	57	0	1164967936	45	4426
2026-01-05 08:51:56.30	22.45	26.03	-37.1	-38.6	17.3	0.00e+00	0	57	0	1167065088	45	4364
2026-01-05 08:51:57.46	22.16	25.92	-37.2	-38.7	17.2	0.00e+00	0	57	0	1171259392	45	4413
2026-01-05 08:51:58.32	21.95	25.84	-37.3	-38.9	17.1	0.00e+00	0	57	0	1173356544	45	4494
2026-01-05 08:51:59.47	21.67	25.73	-37.5	-39.0	16.9	0.00e+00	0	57	0	1177550848	45	4583
2026-01-05 08:52:00.34	21.46	25.65	-37.6	-39.2	16.7	0.00e+00	0	57	0	1180696576	45	4678
2026-01-05 08:52:01.49	21.18	25.54	-37.6	-39.3	16.7	0.00e+00	0	57	0	1183842304	45	4709
2026-01-05 08:52:02.36	20.97	25.46	-37.6	-39.3	16.6	0.00e+00	0	57	0	1185939456	45	4717
2026-01-05 08:52:03.51	20.70	25.35	-37.7	-39.4	16.5	0.00e+00	0	57	0	1190133760	46	4502
2026-01-05 08:52:04.38	20.49	25.27	-37.5	-39.1	16.7	0.00e+00	0	57	0	1193279488	46	4382
2026-01-05 08:52:05.53	20.22	25.16	-37.4	-38.9	16.9	0.00e+00	0	57	0	1196425216	46	4286
2026-01-05 08:52:06.40	20.02	25.07	-37.3	-38.9	17.0	0.00e+00	0	57	0	1199570944	46	4256
2026-01-05 08:52:07.55	19.75	24.96	-37.3	-38.9	17.0	0.00e+00	0	57	0	1202716672	46	4253
2026-01-05 08:52:08.42	19.55	24.88	-37.3	-38.8	17.1	0.00e+00	0	57	0	1205862400	46	4216
2026-01-05 08:52:09.57	19.29	24.77	-37.3	-38.9	17.0	0.00e+00	0	57	0	1209008128	46	4258
2026-01-05 08:52:10.44	19.09	24.68	-37.4	-39.0	16.9	0.00e+00	0	57	0	1212153856	46	4298
2026-01-05 08:52:11.59	18.83	24.57	-37.4	-38.9	16.9	0.00e+00	0	57	0	1215299584	46	4282
2026-01-05 08:52:12.46	18.63	24.49	-37.3	-38.9	17.0	0.00e+00	0	57	0	1218445312	46	4257
2026-01-05 08:52:13.61	18.38	24.37	-37.2	-38.7	17.1	0.00e+00	0	57	0	1221591040	46	4182
2026-01-05 08:52:14.48	18.18	24.29	-37.2	-38.7	17.2	0.00e+00	0	57	0	1224736768	46	4165
2026-01-05 08:52:15.64	17.93	24.18	-37.2	-38.7	17.2	0.00e+00	0	57	0	1227882496	46	4155
2026-01-05 08:52:16.50	17.74	24.09	-37.0	-38.5	17.3	0.00e+00	0	57	0	1231028224	46	4084
2026-01-05 08:52:17.66	17.48	23.98	-37.0	-38.4	17.4	0.00e+00	0	57	0	1234173952	45	4284
2026-01-05 08:52:18.52	17.30	23.90	-36.9	-38.4	17.5	0.00e+00	0	57	0	1237319680	45	4259
2026-01-05 08:52:19.68	17.05	23.78	-36.9	-38.4	17.5	0.00e+00	0	57	0	1240465408	45	4270
2026-01-05 08:52:20.54	16.86	23.70	-37.1	-38.6	17.3	0.00e+00	0	57	0	1243611136	45	4341
2026-01-05 08:52:21.70	16.62	23.59	-37.2	-38.7	17.1	0.00e+00	0	57	0	1246756864	45	4420
2026-01-05 08:52:22.56	16.43	23.50	-37.4	-38.9	16.9	0.00e+00	0	57	0	1249902592	45	4538
2026-01-05 08:52:23.71	16.19	23.39	-37.5	-39.1	16.8	0.00e+00	0	57	0	1253048320	45	4633
2026-01-05 08:52:24.58	16.01	23.30	-37.6	-39.2	16.6	0.00e+00	0	57	0	1256194048	45	4704
2026-01-05 08:52:25.73	15.77	23.19	-37.5	-39.2	16.7	0.00e+00	0	57	0	1259339776	45	4654
2026-01-05 08:52:26.60	15.59	23.11	-37.5	-39.1	16.8	0.00e+00	0	57	0	1262485504	45	4606
2026-01-05 08:52:27.75	15.36	22.99	-37.7	-39.3	16.5	0.00e+00	0	57	0	1265631232	45	4734
2026-01-05 08:52:28.61	15.18	22.91	-37.7	-39.4	16.5	0.00e+00	0	57	0	1268776960	46	4529
2026-01-05 08:52:29.77	14.95	22.79	-38.0	-39.7	16.2	0.00e+00	0	57	0	1271922688	46	4666
2026-01-05 08:52:30.63	14.78	22.71	-38.1	-39.8	16.1	0.00e+00	0	57	0	1275068416	46	4752
2026-01-05 08:52:31.79	14.54	22.60	-38.2	-40.0	15.9	0.00e+00	0	57	0	1278214144	47	4558
2026-01-05 08:52:32.65	14.37	22.51	-38.1	-39.8	16.1	0.00e+00	0	57	0	1281359872	47	4467
2026-01-05 08:52:33.81	14.15	22.40	-37.9	-39.6	16.3	0.00e+00	0	57	0	1284505600	47	4369
2026-01-05 08:52:34.67	13.98	22.31	-37.8	-39.5	16.4	0.00e+00	0	57	0	1287651328	47	4302
2026-01-05 08:52:35.83	13.75	22.20	-37.7	-39.3	16.5	0.00e+00	0	57	0	1290797056	47	4236
2026-01-05 08:52:36.69	13.59	22.12	-37.4	-39.0	16.9	0.00e+00	0	57	0	1293942784	46	4313
2026-01-05 08:52:37.84	13.37	22.00	-37.3	-38.8	17.0	0.00e+00	0	57	0	1297088512	46	4230
2026-01-05 08:52:38.71	13.20	21.92	-37.3	-38.8	17.0	0.00e+00	0	57	0	1300234240	46	4239
2026-01-05 08:52:39.87	12.98	21.80	-37.4	-39.0	16.9	0.00e+00	0	57	0	1303379968	46	4292
2026-01-05 08:52:40.73	12.82	21.72	-37.6	-39.2	16.7	0.00e+00	0	57	0	1306525696	46	4405
2026-01-05 08:52:41.88	12.60	21.61	-37.7	-39.3	16.5	0.00e+00	0	57	0	1309671424	46	4486
2026-01-05 08:52:42.75	12.44	21.52	-37.8	-39.5	16.4	0.00e+00	0	57	0	1312817152	46	4566
2026-01-05 08:52:43.90	12.23	21.41	-37.8	-39.4	16.4	0.00e+00	0	57	0	1315962880	46	4523
2026-01-05 08:52:44.77	12.07	21.32	-37.5	-39.2	16.7	0.00e+00	0	57	0	1319108608	46	4396
2026-01-05 08:52:45.92	11.86	21.21	-37.3	-38.8	17.0	0.00e+00	0	57	0	1322254336	46	4233
2026-01-05 08:52:46.79	11.70	21.13	-37.2	-38.7	17.1	0.00e+00	0	57	0	1325400064	46	4169
2026-01-05 08:52:47.94	11.50	21.01	-37.0	-38.5	17.3	0.00e+00	0	57	0	1328545792	46	4097
2026-01-05 08:52:48.81	11.34	20.93	-37.0	-38.5	17.3	0.00e+00	0	57	0	1331691520	46	4065
2026-01-05 08:52:49.96	11.14	20.82	-37.0	-38.6	17.3	0.00e+00	0	57	0	1334837248	46	4099
2026-01-05 08:52:50.83	10.98	20.73	-37.1	-38.6	17.1	0.00e+00	0	57	0	1337982976	46	4141
2026-01-05 08:52:51.98	10.78	20.62	-37.0	-38.5	17.3	0.00e+00	0	57	0	1341128704	46	4066
2026-01-05 08:52:52.85	10.63	20.54	-36.9	-38.3	17.4	0.00e+00	0	57	0	1344274432	45	4235
2026-01-05 08:52:54.00	10.43	20.43	-36.9	-38.4	17.4	0.00e+00	0	57	0	1347420160	45	4251
2026-01-05 08:52:54.87	10.28	20.34	-36.9	-38.4	17.4	0.00e+00	0	57	0	1350565888	45	4273
2026-01-05 08:52:56.02	10.09	20.23	-37.0	-38.5	17.3	0.00e+00	0	57	0	1353711616	45	4295
2026-01-05 08:52:56.89	9.94	20.15	-37.0	-38.5	17.2	0.00e+00	0	57	0	1356857344	45	4339
2026-01-05 08:52:58.04	9.74	20.04	-37.0	-38.5	17.2	0.00e+00	0	57	0	1360003072	45	4316
2026-01-05 08:52:58.91	9.60	19.95	-36.9	-38.4	17.4	0.00e+00	0	57	0	1363148800	45	4250
2026-01-05 08:53:00.06	9.41	19.84	-36.8	-38.3	17.4	0.00e+00	0	57	0	1366294528	45	4216
2026-01-05 08:53:00.93	9.26	19.76	-36.8	-38.3	17.4	0.00e+00	0	57	0	1369440256	45	4212
2026-01-05 08:53:02.08	9.07	19.65	-36.8	-38.3	17.4	0.00e+00	0	57	0	1373634560	45	4207
2026-01-05 08:53:02.95	8.93	19.56	-36.8	-38.2	17.4	0.00e+00	0	57	0	1375731712	45	4193
2026-01-05 08:53:04.10	8.75	19.45	-36.8	-38.3	17.4	0.00e+00	0	57	0	1379926016	45	4222
2026-01-05 08:53:04.97	8.61	19.37	-36.9	-38.4	17.3	0.00e+00	0	57	0	1382023168	45	4247
2026-01-05 08:53:06.12	8.42	19.26	-37.1	-38.6	17.1	0.00e+00	0	57	0	1385168896	45	4376
2026-01-05 08:53:06.99	8.28	19.18	-37.2	-38.8	16.9	0.00e+00	0	57	0	1388314624	45	4468
2026-01-05 08:53:08.14	8.10	19.07	-37.4	-39.0	16.7	0.00e+00	0	57	0	1392508928	45	4557
2026-01-05 08:53:09.01	7.97	18.98	-37.5	-39.1	16.6	0.00e+00	0	57	0	1394606080	45	4616
2026-01-05 08:53:10.16	7.79	18.88	-37.6	-39.3	16.4	0.00e+00	0	57	0	1398800384	45	4706
2026-01-05 08:53:11.02	7.65	18.79	-37.5	-39.2	16.4	0.00e+00	0	57	0	1400897536	45	4670
2026-01-05 08:53:12.18	7.47	18.68	-37.4	-39.1	16.6	0.00e+00	0	57	0	1405091840	45	4604
2026-01-05 08:53:13.05	7.34	18.60	-37.4	-39.0	16.6	0.00e+00	0	57	0	1407188992	45	4587
2026-01-05 08:53:14.20	7.17	18.49	-37.3	-38.8	16.7	0.00e+00	0	57	0	1411383296	45	4485
2026-01-05 08:53:15.07	7.04	18.41	-37.2	-38.7	16.8	0.00e+00	0	57	0	1413480448	45	4436
2026-01-05 08:53:16.22	6.86	18.30	-37.1	-38.6	16.9	0.00e+00	0	57	0	1417674752	45	4390
2026-01-05 08:53:17.09	6.73	18.22	-37.1	-38.6	16.9	0.00e+00	0	57	0	1419771904	45	4384
2026-01-05 08:53:18.24	6.56	18.11	-37.1	-38.6	16.9	0.00e+00	0	57	0	1423966208	45	4383
2026-01-05 08:53:19.10	6.44	18.03	-37.1	-38.7	16.9	0.00e+00	0	57	0	1426063360	45	4406
2026-01-05 08:53:20.26	6.27	17.92	-37.2	-38.8	16.7	0.00e+00	0	57	0	1430257664	45	4484
2026-01-05 08:53:21.12	6.14	17.84	-37.3	-38.9	16.6	0.00e+00	0	57	0	1432354816	45	4523
2026-01-05 08:53:22.27	5.98	17.74	-37.4	-39.1	16.5	0.00e+00	0	57	0	1436549120	45	4601
2026-01-05 08:53:23.14	5.85	17.66	-37.5	-39.1	16.4	0.00e+00	0	57	0	1438646272	45	4651
2026-01-05 08:53:24.29	5.69	17.55	-37.6	-39.3	16.2	0.00e+00	0	57	0	1442840576	45	4712
2026-01-05 08:53:25.16	5.56	17.47	-37.6	-39.3	16.2	0.00e+00	0	57	0	1444937728	45	4745
2026-01-05 08:53:26.31	5.40	17.36	-37.7	-39.5	16.0	0.00e+00	0	57	0	1449132032	46	4554
2026-01-05 08:53:27.18	5.28	17.28	-37.8	-39.5	16.0	0.00e+00	0	57	0	1451229184	46	4594
2026-01-05 08:53:28.33	5.12	17.18	-37.7	-39.4	16.1	0.00e+00	0	57	0	1455423488	46	4510
2026-01-05 08:53:29.20	5.00	17.10	-37.7	-39.4	16.1	0.00e+00	0	57	0	1457520640	46	4532
2026-01-05 08:53:30.35	4.84	16.99	-37.7	-39.5	16.0	0.00e+00	0	57	0	1461714944	46	4567
2026-01-05 08:53:31.22	4.72	16.91	-37.7	-39.5	15.9	0.00e+00	0	57	0	1463812096	46	4570
2026-01-05 08:53:32.37	4.57	16.81	-37.5	-39.2	16.3	0.00e+00	0	57	0	1468006400	46	4393
2026-01-05 08:53:33.24	4.45	16.73	-37.4	-39.1	16.3	0.00e+00	0	57	0	1470103552	46	4367
2026-01-05 08:53:34.39	4.30	16.62	-37.4	-39.1	16.3	0.00e+00	0	57	0	1474297856	46	4344
2026-01-05 08:53:35.26	4.18	16.54	-37.4	-39.1	16.3	0.00e+00	0	57	0	1476395008	46	4354
2026-01-05 08:53:36.41	4.03	16.44	-37.5	-39.2	16.2	0.00e+00	0	57	0	1480589312	46	4425
2026-01-05 08:53:37.28	3.91	16.36	-37.6	-39.4	16.0	0.00e+00	0	57	0	1482686464	46	4495
2026-01-05 08:53:38.43	3.76	16.26	-37.7	-39.4	16.0	0.00e+00	0	57	0	1486880768	46	4530
2026-01-05 08:53:39.30	3.65	16.18	-37.8	-39.6	15.8	0.00e+00	0	57	0	1488977920	46	4610
2026-01-05 08:53:40.46	3.50	16.07	-37.9	-39.7	15.6	0.00e+00	0	57	0	1493172224	46	4700
2026-01-05 08:53:41.32	3.39	16.00	-38.0	-39.9	15.5	0.00e+00	0	57	0	1495269376	46	4770
2026-01-05 08:53:42.48	3.24	15.89	-38.1	-40.1	15.2	0.00e+00	0	57	0	1499463680	46	4875
2026-01-05 08:53:43.34	3.13	15.81	-37.9	-39.8	15.4	0.00e+00	0	57	0	1501560832	46	4744
2026-01-05 08:53:44.50	2.99	15.71	-37.9	-39.8	15.4	0.00e+00	0	57	0	1505755136	46	4735
2026-01-05 08:53:45.36	2.88	15.63	-38.1	-40.0	15.2	0.00e+00	0	57	0	1507852288	46	4840
2026-01-05 08:53:46.52	2.74	15.53	-37.8	-39.6	15.4	0.00e+00	0	57	0	1512046592	46	4650
2026-01-05 08:53:47.38	2.63	15.46	-37.9	-39.8	15.2	0.00e+00	0	57	0	1515192320	46	4720
2026-01-05 08:53:48.54	2.49	15.35	-38.1	-40.1	14.9	7.00e-07	0	57	0	1518338048	46	4879
2026-01-05 08:53:49.40	2.38	15.28	-38.0	-40.0	14.9	0.00e+00	0	57	0	1521483776	46	4860
2026-01-05 08:53:50.56	2.24	15.17	-37.9	-39.9	14.9	0.00e+00	0	57	0	1524629504	46	4808
2026-01-05 08:53:51.42	2.14	15.10	-37.9	-39.9	14.9	0.00e+00	0	57	0	1526726656	46	4791
2026-01-05 08:53:52.58	2.00	15.00	-37.8	-39.9	14.8	0.00e+00	0	57	0	1530920960	46	4780
2026-01-05 08:53:53.44	1.90	14.92	-37.8	-39.8	14.8	0.00e+00	0	57	0	1534066688	46	4732
2026-01-05 08:53:54.60	1.76	14.82	-37.6	-39.6	15.0	0.00e+00	0	57	0	1537212416	46	4599
2026-01-05 08:53:55.46	1.66	14.75	-37.5	-39.5	15.1	0.00e+00	0	57	0	1540358144	46	4548
2026-01-05 08:53:56.62	1.52	14.65	-37.5	-39.5	15.0	0.00e+00	0	57	0	1543503872	46	4548
2026-01-05 08:53:57.48	1.42	14.57	-37.6	-39.7	14.7	0.00e+00	0	57	0	1546649600	46	4678
2026-01-05 08:53:58.64	1.29	14.47	-37.7	-39.9	14.5	7.00e-07	0	57	0	1549795328	46	4768
2026-01-05 08:53:59.51	1.19	14.39	-37.9	-40.1	14.2	0.00e+00	0	57	0	1552941056	46	4907
2026-01-05 08:54:00.66	1.06	14.30	-38.0	-40.2	14.1	3.00e-06	0	57	0	1556086784	46	4963
2026-01-05 08:54:01.53	0.96	14.22	-37.9	-40.2	14.1	3.00e-06	0	57	0	1559232512	46	4951
2026-01-05 08:54:02.68	0.83	14.12	-37.8	-40.0	14.2	7.00e-07	0	57	0	1562378240	46	4854
2026-01-05 08:54:03.55	0.73	14.05	-37.6	-39.8	14.4	0.00e+00	0	57	0	1565523968	46	4727
2026-01-05 08:54:04.70	0.61	13.95	-37.3	-39.5	14.5	0.00e+00	0	57	0	1568669696	46	4554
2026-01-05 08:54:05.56	0.51	13.88	-37.2	-39.4	14.4	7.00e-07	0	57	0	1571815424	46	4512
2026-01-05 08:54:06.72	0.38	13.78	-37.2	-39.5	14.1	4.50e-06	0	57	0	1574961152	46	4564
2026-01-05 08:54:07.58	0.29	13.70	-37.4	-39.8	13.6	8.30e-06	0	57	0	1578106880	46	4726
2026-01-05 08:54:08.73	0.16	13.61	-37.9	-40.6	12.6	3.89e-05	0	57	0	1581252608	46	5192
2026-01-05 08:54:09.60	0.07	13.53	-38.4	-41.5	11.5	5.87e-04	0	57	0	1584398336	47	5405
2026-01-05 08:54:10.75	359.95	13.44	-39.0	-42.7	10.1	4.82e-03	0	57	0	1587544064	48	5909
2026-01-05 08:54:11.62	359.85	13.36	-39.3	-43.4	9.3	1.32e-02	0	57	0	1590689792	49	6015
2026-01-05 08:54:12.77	359.73	13.27	-39.6	-44.4	8.0	6.13e-02	0	57	0	1593835520	49	6789
2026-01-05 08:54:13.64	359.64	13.19	-39.9	-45.5	6.9	1.33e-01	0	57	0	1596981248	50	7206
2026-01-05 08:54:14.79	359.52	13.10	-40.2	-47.0	5.5	3.60e-01	0	57	0	1600126976	50	8605
2026-01-05 08:54:15.65	359.43	13.03	-40.2	-47.8	4.9	7.05e-01	0	57	0	1603272704	51	8962
2026-01-05 08:54:16.81	359.31	12.93	-40.3	-49.3	4.0	1.05e+00	0	57	104	1604321280	51	10602
2026-01-05 08:54:17.67	359.22	12.86	-40.3	-49.4	3.9	1.42e+00	0	57	104	1604321280	51	10755
2026-01-05 08:54:18.83	359.10	12.76	-40.3	-50.5	3.9	1.47e+00	0	57	104	1604321280	51	12119
2026-01-05 08:54:19.69	359.01	12.69	-40.3	-50.2	4.0	1.48e+00	0	57	104	1604321280	51	11791
2026-01-05 08:54:20.85	358.90	12.60	-40.0	-52.3	3.8	1.49e+00	0	57	104	1604321280	51	14893
2026-01-05 08:54:21.71	358.81	12.53	-40.3	-51.9	3.8	1.49e+00	0	57	104	1604321280	51	14287
2026-01-05 08:54:22.87	358.69	12.43	-41.2	-51.6	3.8	1.49e+00	0	57	104	1604321280	52	13022
2026-01-05 08:54:23.73	358.61	12.36	-40.0	-52.4	3.8	1.49e+00	0	57	104	1604321280	51	15159
2026-01-05 08:54:24.89	358.49	12.27	-41.0	-52.5	3.8	1.49e+00	0	57	104	1604321280	52	14498
2026-01-05 08:54:25.75	358.41	12.20	-41.1	-52.5	3.8	1.49e+00	0	57	104	1604321280	52	14533
2026-01-05 08:54:26.90	358.30	12.10	-41.0	-52.7	3.8	1.49e+00	0	57	104	1604321280	52	14720
2026-01-05 08:54:27.77	358.21	12.03	-41.7	-53.2	3.8	1.49e+00	0	57	104	1604321280	53	14731
2026-01-05 08:54:28.93	358.10	11.94	-40.2	-52.4	3.8	1.49e+00	0	57	104	1604321280	52	14344
2026-01-05 08:54:29.79	358.02	11.87	-40.0	-52.3	3.8	1.49e+00	0	57	104	1604321280	51	14903
2026-01-05 08:54:30.95	357.91	11.78	-40.5	-52.4	3.8	1.49e+00	0	57	104	1604321280	51	15176
2026-01-05 08:54:31.81	357.82	11.71	-39.9	-52.3	3.8	1.49e+00	0	57	104	1604321280	51	14971
2026-01-05 08:54:32.97	357.71	11.61	-40.3	-52.0	3.8	1.49e+00	0	57	104	1604321280	51	14506
2026-01-05 08:54:33.83	357.63	11.54	-39.9	-52.3	3.8	1.49e+00	0	57	104	1604321280	51	14930
2026-01-05 08:54:34.99	357.53	11.45	-39.5	-52.1	3.8	1.49e+00	0	57	104	1604321280	50	15558
2026-01-05 08:54:35.85	357.45	11.38	-39.9	-52.3	3.8	1.49e+00	0	57	104	1604321280	50	15920
2026-01-05 08:54:37.01	357.34	11.29	-39.3	-52.1	3.8	1.49e+00	0	57	104	1604321280	50	15488
2026-01-05 08:54:37.87	357.26	11.22	-39.9	-52.3	3.8	1.49e+00	0	57	104	1604321280	50	15834
2026-01-05 08:54:39.03	357.15	11.13	-40.2	-52.7	3.8	1.49e+00	0	57	104	1604321280	50	16537
2026-01-05 08:54:39.89	357.08	11.06	-39.3	-52.2	3.8	1.49e+00	0	57	104	1604321280	50	15646
2026-01-05 08:54:41.05	356.97	10.97	-40.1	-52.5	3.8	1.49e+00	0	57	104	1604321280	50	16296
2026-01-05 08:54:41.91	356.89	10.91	-39.2	-52.2	3.8	1.49e+00	0	57	104	1604321280	50	15631
2026-01-05 08:54:43.07	356.79	10.81	-39.1	-52.1	3.8	1.49e+00	0	57	104	1604321280	49	16372
2026-01-05 08:54:43.94	356.71	10.75	-39.9	-52.2	3.8	1.49e+00	0	57	104	1604321280	50	15735
2026-01-05 08:54:45.09	356.61	10.66	-39.1	-52.1	3.8	1.49e+00	0	57	104	1604321280	50	15473
2026-01-05 08:54:45.95	356.54	10.59	-39.7	-52.2	3.8	1.49e+00	0	57	104	1604321280	50	15625
2026-01-05 08:54:47.11	356.43	10.50	-39.9	-52.3	3.8	1.49e+00	0	57	104	1604321280	50	15792
2026-01-05 08:54:47.97	356.36	10.43	-39.1	-52.1	3.8	1.49e+00	0	57	104	1604321280	49	16352
2026-01-05 08:54:49.12	356.26	10.34	-39.8	-52.3	3.8	1.49e+00	0	57	104	1604321280	50	15763
2026-01-05 08:54:49.99	356.19	10.28	-39.3	-52.0	3.8	1.49e+00	0	57	104	1604321280	49	16310
2026-01-05 08:54:51.15	356.09	10.19	-39.5	-52.1	3.8	1.49e+00	0	57	104	1604321280	49	16426
2026-01-05 08:54:52.01	356.01	10.12	-39.1	-52.1	3.8	1.49e+00	0	57	104	1604321280	49	16338
2026-01-05 08:54:53.17	355.92	10.03	-39.6	-52.1	3.8	1.49e+00	0	57	104	1604321280	49	16466
2026-01-05 08:54:54.03	355.84	9.97	-39.0	-52.1	3.8	1.49e+00	0	57	104	1604321280	49	16348
2026-01-05 08:54:55.18	355.75	9.88	-39.8	-52.2	3.8	1.49e+00	0	57	104	1604321280	50	15671
2026-01-05 08:54:56.05	355.68	9.81	-39.7	-52.1	3.8	1.49e+00	0	57	104	1604321280	50	15482
2026-01-05 08:54:57.21	355.58	9.73	-39.8	-52.2	3.8	1.49e+00	0	57	104	1604321280	50	15711
2026-01-05 08:54:58.07	355.51	9.66	-39.7	-52.1	3.8	1.49e+00	0	57	104	1604321280	50	15550
2026-01-05 08:54:59.23	355.41	9.57	-39.8	-52.2	3.8	1.49e+00	0	57	104	1604321280	50	15714
2026-01-05 08:55:00.09	355.34	9.51	-39.2	-52.1	3.8	1.49e+00	0	57	104	1604321280	50	15514
2026-01-05 08:55:01.25	355.25	9.42	-39.8	-52.2	3.8	1.49e+00	0	57	104	1604321280	50	15703
2026-01-05 08:55:02.11	355.18	9.36	-39.3	-52.1	3.8	1.49e+00	0	57	104	1604321280	50	15509
2026-01-05 08:55:03.27	355.09	9.27	-39.9	-52.2	3.8	1.49e+00	0	57	104	1604321280	50	15705
2026-01-05 08:55:04.13	355.02	9.21	-39.8	-52.3	3.8	1.49e+00	0	57	104	1604321280	50	15818
2026-01-05 08:55:05.29	354.93	9.12	-39.9	-52.2	3.8	1.49e+00	0	57	104	1604321280	50	15697
2026-01-05 08:55:06.15	354.86	9.06	-39.9	-52.3	3.8	1.49e+00	0	57	104	1604321280	50	15902
2026-01-05 08:55:07.31	354.77	8.97	-39.9	-52.3	3.8	1.49e+00	0	57	104	1604321280	50	15903
2026-01-05 08:55:08.18	354.70	8.91	-39.7	-52.2	3.8	1.49e+00	0	57	104	1604321280	50	15645
2026-01-05 08:55:09.33	354.61	8.82	-40.0	-52.3	3.8	1.49e+00	0	57	104	1604321280	50	15919
2026-01-05 08:55:10.19	354.55	8.76	-39.7	-52.2	3.8	1.49e+00	0	57	104	1604321280	50	15598
2026-01-05 08:55:11.35	354.46	8.67	-39.9	-52.3	3.8	1.49e+00	0	57	104	1604321280	50	15800
2026-01-05 08:55:12.21	354.39	8.61	-40.0	-52.3	3.8	1.49e+00	0	57	104	1604321280	50	15889
2026-01-05 08:55:13.36	354.31	8.53	-39.9	-52.3	3.8	1.49e+00	0	57	104	1604321280	50	15811
2026-01-05 08:55:14.23	354.24	8.46	-40.0	-52.3	3.8	1.49e+00	0	57	104	1604321280	50	15779
2026-01-05 08:55:15.38	354.15	8.38	-40.1	-52.4	3.8	1.49e+00	0	57	104	1604321280	50	16011
2026-01-05 08:55:16.25	354.09	8.32	-39.9	-52.3	3.8	1.49e+00	0	57	104	1604321280	50	15826
2026-01-05 08:55:17.40	354.00	8.23	-40.1	-52.4	3.8	1.49e+00	0	57	104	1604321280	50	15968
2026-01-05 08:55:18.27	353.94	8.17	-39.9	-52.3	3.8	1.49e+00	0	57	104	1604321280	50	15805
2026-01-05 08:55:19.42	353.86	8.09	-40.1	-52.4	3.8	1.49e+00	0	57	104	1604321280	50	16048
2026-01-05 08:55:20.29	353.79	8.02	-39.9	-52.2	3.8	1.49e+00	0	57	104	1604321280	50	15649
2026-01-05 08:55:21.44	353.71	7.94	-40.0	-52.7	3.8	1.49e+00	0	57	104	1604321280	50	16676
2026-01-05 08:55:22.31	353.65	7.88	-43.6	-55.9	3.8	1.49e+00	0	57	104	1604321280	57	16097
2026-01-05 08:55:23.47	353.56	7.80	-44.7	-57.0	3.8	1.49e+00	0	57	104	1604321280	59	16150
2026-01-05 08:55:24.33	353.50	7.74	-44.8	-57.4	3.8	1.49e+00	0	57	104	1604321280	60	15982
2026-01-05 08:55:25.49	353.42	7.65	-45.0	-57.5	3.8	1.49e+00	0	57	104	1604321280	60	16230
2026-01-05 08:55:26.36	353.36	7.59	-45.1	-57.6	3.8	1.49e+00	0	57	104	1604321280	60	16363
2026-01-05 08:55:27.51	353.28	7.51	-45.1	-57.6	3.8	1.49e+00	0	57	104	1604321280	60	16450
2026-01-05 08:55:28.38	353.21	7.45	-45.1	-57.7	3.8	1.49e+00	0	57	104	1604321280	60	16547
2026-01-05 08:55:29.54	353.13	7.37	-45.1	-57.7	3.8	1.49e+00	0	57	104	1604321280	60	16555
2026-01-05 08:55:30.40	353.07	7.31	-44.1	-57.7	3.8	1.49e+00	0	57	104	1604321280	60	16610
2026-01-05 08:55:31.56	352.99	7.22	-45.1	-57.7	3.8	1.49e+00	0	57	104	1604321280	60	16510
