passes_logs/2026/01/05/R2.0S_Moscow/R2.0S_Moscow__20260105_091233_SUOMI_NPP_rec.log

#Pass ID: 20260105_091233_SUOMI NPP
#Satellite: SUOMI NPP
#Configuration: NPP
#almurnet v.1.7.20251203
#Start time: 2026-01-05 09:12:35

#Version: 2.2.20231116
#Station: R2.0S_Moscow
#Location: 37.707566 lon 55.798166 lat
#TLE: 1 37849U 11061A   26003.96724563  .00000164  00000+0  98899-4 0  9990
#TLE: 2 37849  98.7800 306.1116 0002573  82.3190 277.8279 14.19522066735141

#Time	Az	El	Level	Level2	SNR	BER	BlckErr	Temp	State	Recorded	gain1	gain2
2026-01-05 09:12:35.30	137.78	2.14	-27.3	-49.1	4.2	1.51e+00	0	47	0	0	33	29272
2026-01-05 09:12:36.31	137.74	2.21	-28.7	-48.4	4.2	1.51e+00	0	47	104	0	31	30265
2026-01-05 09:12:37.32	137.71	2.27	-30.5	-43.7	3.8	1.51e+00	0	47	104	0	25	24702
2026-01-05 09:12:38.34	137.68	2.34	-19.2	-41.8	3.8	1.51e+00	0	47	104	0	23	22267
2026-01-05 09:12:39.35	137.65	2.40	-24.4	-40.5	3.7	1.51e+00	0	47	104	0	20	22883
2026-01-05 09:12:40.36	137.61	2.46	-28.7	-45.9	6.9	1.52e+00	0	47	104	0	23	35844
2026-01-05 09:12:41.37	137.58	2.53	-31.6	-49.0	4.4	1.51e+00	0	47	104	0	32	30384
2026-01-05 09:12:42.38	137.55	2.59	-30.9	-48.5	4.1	1.51e+00	0	47	104	0	31	30668
2026-01-05 09:12:43.39	137.51	2.66	-32.5	-50.1	4.3	1.51e+00	0	48	104	0	31	36699
2026-01-05 09:12:44.40	137.48	2.72	-31.8	-48.6	4.5	1.52e+00	0	48	0	0	33	27392
2026-01-05 09:12:45.41	137.45	2.79	-28.5	-46.7	4.5	1.51e+00	0	48	104	0	32	23566
2026-01-05 09:12:46.43	137.41	2.85	-28.9	-45.4	4.5	1.51e+00	0	48	104	0	31	21413
2026-01-05 09:12:47.43	137.38	2.92	-18.1	-41.9	3.6	1.51e+00	0	48	104	0	22	24107
2026-01-05 09:12:48.45	137.34	2.98	-29.3	-47.2	4.4	1.51e+00	0	48	104	0	33	23528
2026-01-05 09:12:49.46	137.31	3.05	-32.2	-50.7	4.5	1.51e+00	0	48	104	0	34	33285
2026-01-05 09:12:50.47	137.27	3.11	-29.1	-49.6	4.2	1.51e+00	0	48	104	0	35	27389
2026-01-05 09:12:51.48	137.24	3.18	-31.2	-49.3	4.4	1.51e+00	0	48	104	0	34	28290
2026-01-05 09:12:52.49	137.20	3.25	-31.6	-48.1	4.4	1.51e+00	0	48	104	0	32	27615
2026-01-05 09:12:53.50	137.17	3.31	-26.9	-49.2	4.4	1.51e+00	0	48	104	0	32	31410
2026-01-05 09:12:54.51	137.13	3.38	-30.6	-49.2	4.4	1.51e+00	0	48	104	0	31	33296
2026-01-05 09:12:55.52	137.10	3.44	-31.0	-46.7	4.2	1.51e+00	0	48	104	0	28	29539
2026-01-05 09:12:56.53	137.06	3.51	-32.8	-50.3	4.5	1.51e+00	0	48	104	0	34	31608
2026-01-05 09:12:57.54	137.03	3.58	-31.5	-50.4	4.2	1.51e+00	0	48	104	0	34	31978
2026-01-05 09:12:58.55	136.99	3.64	-28.9	-45.6	4.3	1.51e+00	0	48	104	0	27	27452
2026-01-05 09:12:59.56	136.96	3.71	-22.3	-43.6	3.6	1.50e+00	0	49	104	0	19	34524
2026-01-05 09:13:00.58	136.92	3.78	-32.3	-50.3	4.2	1.51e+00	0	49	104	0	33	33449
2026-01-05 09:13:01.59	136.88	3.85	-31.2	-49.5	4.4	1.51e+00	0	49	104	0	33	30651
2026-01-05 09:13:02.60	136.85	3.91	-30.1	-47.2	4.3	1.51e+00	0	49	104	0	32	24811
2026-01-05 09:13:03.61	136.81	3.98	-24.2	-41.6	3.8	1.51e+00	0	49	104	0	26	18325
2026-01-05 09:13:04.62	136.77	4.05	-25.1	-40.0	4.0	1.51e+00	0	49	104	0	29	12954
2026-01-05 09:13:05.63	136.73	4.12	-17.3	-39.1	4.3	1.51e+00	0	49	104	0	16	24565
2026-01-05 09:13:06.64	136.70	4.18	-24.1	-38.8	3.8	1.51e+00	0	49	104	0	19	19873
2026-01-05 09:13:07.65	136.66	4.25	-23.5	-39.3	3.9	1.51e+00	0	49	104	0	24	15935
2026-01-05 09:13:08.67	136.62	4.32	-26.2	-42.8	3.9	1.51e+00	0	49	104	0	24	23791
2026-01-05 09:13:09.68	136.58	4.39	-33.7	-48.0	4.2	1.51e+00	0	49	104	0	31	29006
2026-01-05 09:13:10.69	136.55	4.46	-30.6	-48.9	4.3	1.51e+00	0	49	104	0	35	25366
2026-01-05 09:13:11.70	136.51	4.53	-23.9	-43.0	4.2	1.51e+00	0	49	104	0	20	30482
2026-01-05 09:13:12.71	136.47	4.60	-31.7	-50.3	4.7	1.52e+00	0	50	104	0	33	33437
2026-01-05 09:13:13.72	136.43	4.67	-18.1	-43.2	3.7	1.51e+00	0	49	104	0	8	62525
2026-01-05 09:13:14.73	136.39	4.74	-28.5	-47.5	4.4	1.51e+00	0	50	104	0	29	30413
2026-01-05 09:13:15.74	136.35	4.80	-32.3	-45.9	4.4	1.51e+00	0	50	104	0	26	30312
2026-01-05 09:13:16.75	136.31	4.87	-29.6	-48.2	4.5	1.51e+00	0	50	0	0	32	27851
2026-01-05 09:13:17.77	136.27	4.95	-26.1	-45.1	4.1	1.51e+00	0	50	104	0	27	25945
2026-01-05 09:13:18.78	136.23	5.02	-29.2	-47.9	4.2	1.51e+00	0	50	104	0	32	26766
2026-01-05 09:13:19.79	136.19	5.09	-32.4	-48.3	4.3	1.51e+00	0	50	104	0	33	26691
2026-01-05 09:13:20.80	136.15	5.16	-32.4	-49.6	4.5	1.51e+00	0	50	104	0	35	27516
2026-01-05 09:13:21.81	136.11	5.23	-27.8	-48.8	4.3	1.51e+00	0	50	104	0	33	28196
2026-01-05 09:13:22.82	136.07	5.30	-30.2	-49.1	4.5	1.51e+00	0	50	104	0	34	27706
2026-01-05 09:13:23.83	136.03	5.37	-28.3	-45.3	4.0	1.51e+00	0	50	104	0	25	29863
2026-01-05 09:13:24.85	135.99	5.44	-30.9	-49.1	4.4	1.51e+00	0	50	104	0	31	32909
2026-01-05 09:13:25.86	135.95	5.51	-16.9	-42.6	3.6	1.51e+00	0	50	104	0	6	65535
2026-01-05 09:13:26.87	135.91	5.58	-21.5	-41.8	4.2	1.51e+00	0	50	104	0	28	16751
2026-01-05 09:13:27.88	135.87	5.65	-31.4	-48.8	4.1	1.51e+00	0	50	104	0	32	29974
2026-01-05 09:13:28.89	135.83	5.73	-31.5	-47.1	4.1	1.51e+00	0	50	104	0	29	29099
2026-01-05 09:13:29.90	135.78	5.80	-27.9	-42.6	4.1	1.51e+00	0	50	104	0	24	23099
2026-01-05 09:13:30.91	135.74	5.87	-29.9	-48.4	5.6	1.51e+00	0	50	104	0	24	45318
2026-01-05 09:13:31.92	135.70	5.94	-30.0	-50.3	4.1	1.51e+00	0	50	104	0	31	37800
2026-01-05 09:13:32.93	135.66	6.01	-29.4	-47.9	4.2	1.51e+00	0	51	104	0	27	35714
2026-01-05 09:13:33.94	135.61	6.09	-28.4	-47.6	4.3	1.51e+00	0	50	104	0	30	29203
2026-01-05 09:13:34.95	135.57	6.16	-30.6	-48.5	4.0	1.51e+00	0	51	104	0	30	32476
2026-01-05 09:13:35.97	135.53	6.23	-21.9	-44.7	4.0	1.51e+00	0	50	104	0	27	24921
2026-01-05 09:13:36.98	135.48	6.31	-27.5	-45.7	4.1	1.51e+00	0	51	0	0	27	27965
2026-01-05 09:13:37.99	135.44	6.38	-27.8	-43.3	4.1	1.51e+00	0	51	104	0	26	22408
2026-01-05 09:13:39.00	135.40	6.45	-29.2	-47.9	4.1	1.51e+00	0	51	104	0	29	32013
2026-01-05 09:13:40.01	135.35	6.53	-32.9	-50.0	4.2	1.51e+00	0	51	104	0	33	32408
2026-01-05 09:13:41.02	135.31	6.60	-21.7	-42.4	3.8	1.51e+00	0	51	104	0	20	28648
2026-01-05 09:13:42.03	135.26	6.68	-26.3	-48.0	4.4	1.51e+00	0	51	104	0	24	43088
2026-01-05 09:13:43.05	135.22	6.75	-30.9	-50.0	4.3	1.51e+00	0	51	104	0	33	32212
2026-01-05 09:13:44.06	135.17	6.83	-31.2	-49.6	4.1	1.51e+00	0	51	104	0	35	27630
2026-01-05 09:13:45.07	135.13	6.90	-25.8	-47.7	4.3	1.51e+00	0	51	104	0	30	29408
2026-01-05 09:13:46.08	135.08	6.98	-28.5	-44.2	4.2	1.51e+00	0	51	104	0	27	23342
2026-01-05 09:13:47.09	135.03	7.05	-29.2	-45.9	4.2	1.51e+00	0	51	104	0	28	26892
2026-01-05 09:13:48.10	134.99	7.13	-29.8	-46.7	4.1	1.51e+00	0	51	104	0	27	31166
2026-01-05 09:13:49.11	134.94	7.20	-28.3	-44.5	4.0	1.51e+00	0	51	104	0	25	27363
2026-01-05 09:13:50.12	134.90	7.28	-33.8	-50.6	4.3	1.51e+00	0	51	104	0	35	30802
2026-01-05 09:13:51.13	134.85	7.35	-31.2	-49.5	4.5	1.51e+00	0	51	104	0	35	27077
2026-01-05 09:13:52.14	134.80	7.43	-30.9	-48.8	4.4	1.51e+00	0	51	104	0	34	26612
2026-01-05 09:13:53.16	134.75	7.51	-32.6	-49.8	4.4	1.51e+00	0	51	104	0	32	33364
2026-01-05 09:13:54.17	134.71	7.58	-33.3	-52.1	4.3	1.51e+00	0	52	104	0	38	31011
2026-01-05 09:13:55.18	134.66	7.66	-30.5	-49.2	4.2	1.51e+00	0	52	104	0	29	37085
2026-01-05 09:13:56.19	134.61	7.74	-30.1	-47.0	3.7	1.51e+00	0	52	104	0	24	38380
2026-01-05 09:13:57.20	134.56	7.82	-30.6	-46.9	3.7	1.51e+00	0	52	104	0	27	31877
2026-01-05 09:13:58.21	134.51	7.89	-30.5	-50.2	4.3	1.51e+00	0	52	0	0	35	29535
2026-01-05 09:13:59.22	134.46	7.97	-27.5	-49.2	4.1	1.51e+00	0	52	104	0	32	31434
2026-01-05 09:14:00.23	134.41	8.05	-30.2	-46.2	4.1	1.51e+00	0	52	104	0	29	26413
2026-01-05 09:14:01.24	134.36	8.13	-38.7	-56.4	4.1	1.50e+00	0	52	104	0	51	23943
2026-01-05 09:14:02.25	134.31	8.21	-28.8	-46.8	4.3	1.51e+00	0	52	104	0	28	29770
2026-01-05 09:14:03.26	134.26	8.28	-33.2	-53.4	4.0	1.50e+00	0	52	104	0	40	31932
2026-01-05 09:14:04.27	134.21	8.36	-24.1	-42.6	4.0	1.51e+00	0	52	104	0	27	19417
2026-01-05 09:14:05.28	134.16	8.44	-21.8	-39.8	3.9	1.50e+00	0	52	104	0	21	19893
2026-01-05 09:14:06.29	134.11	8.52	-25.0	-40.2	3.5	1.50e+00	0	52	104	0	18	24796
2026-01-05 09:14:07.30	134.06	8.60	-26.5	-43.4	3.7	1.50e+00	0	52	104	0	24	25509
2026-01-05 09:14:08.31	134.01	8.68	-26.6	-44.7	3.9	1.50e+00	0	52	104	0	25	27771
2026-01-05 09:14:09.32	133.96	8.76	-25.1	-44.0	3.9	1.50e+00	0	52	104	0	27	22972
2026-01-05 09:14:10.33	133.90	8.84	-28.5	-46.1	3.8	1.50e+00	0	52	104	0	25	32683
2026-01-05 09:14:11.34	133.85	8.92	-25.2	-44.5	4.2	1.51e+00	0	52	104	0	26	25777
2026-01-05 09:14:12.35	133.80	9.00	-27.9	-44.7	4.0	1.51e+00	0	52	104	0	26	26230
2026-01-05 09:14:13.36	133.74	9.08	-32.4	-51.6	4.2	1.50e+00	0	52	104	0	39	27408
2026-01-05 09:14:14.37	133.69	9.16	-30.1	-47.9	4.2	1.51e+00	0	52	104	0	34	24045
2026-01-05 09:14:15.38	133.64	9.25	-28.0	-43.6	4.2	1.51e+00	0	52	104	0	27	21833
2026-01-05 09:14:16.39	133.58	9.33	-30.9	-46.9	3.8	1.51e+00	0	52	104	0	29	28495
2026-01-05 09:14:17.40	133.53	9.41	-29.9	-45.7	4.2	1.51e+00	0	53	104	0	28	26189
2026-01-05 09:14:18.40	133.47	9.49	-27.8	-46.1	4.2	1.51e+00	0	52	104	0	28	27537
2026-01-05 09:14:19.42	133.42	9.57	-25.2	-41.6	3.6	1.50e+00	0	52	104	0	20	26045
2026-01-05 09:14:20.43	133.36	9.66	-21.4	-43.0	4.1	1.50e+00	0	52	0	0	26	21588
2026-01-05 09:14:21.44	133.31	9.74	-27.1	-44.7	4.0	1.51e+00	0	52	0	0	24	29496
2026-01-05 09:14:22.45	133.25	9.82	-28.1	-45.4	3.8	1.51e+00	0	52	0	0	26	28584
2026-01-05 09:14:23.46	133.20	9.91	-22.8	-42.4	3.9	1.51e+00	0	52	104	0	22	25340
2026-01-05 09:14:24.47	133.14	9.99	-21.6	-39.9	3.7	1.51e+00	0	52	0	0	21	20109
2026-01-05 09:14:25.48	133.08	10.07	-16.6	-35.9	3.8	1.51e+00	0	52	0	0	18	15137
2026-01-05 09:14:26.49	133.02	10.16	-25.6	-44.4	4.0	1.50e+00	0	53	0	0	27	24130
2026-01-05 09:14:27.50	132.97	10.24	-27.9	-46.9	4.1	1.51e+00	0	52	0	0	30	26815
2026-01-05 09:14:28.51	132.91	10.33	-27.8	-44.8	4.1	1.50e+00	0	53	0	0	26	26588
2026-01-05 09:14:29.52	132.85	10.41	-27.0	-46.4	4.0	1.50e+00	0	52	104	0	28	28652
2026-01-05 09:14:30.53	132.79	10.50	-26.9	-45.2	4.1	1.50e+00	0	53	0	0	26	27769
2026-01-05 09:14:31.54	132.73	10.58	-25.0	-42.1	3.2	1.50e+00	0	53	104	0	11	46099
2026-01-05 09:14:32.55	132.67	10.67	-19.3	-37.1	3.7	1.50e+00	0	53	104	0	11	26019
2026-01-05 09:14:33.56	132.61	10.75	-29.0	-46.2	4.6	1.50e+00	0	53	0	0	30	24803
2026-01-05 09:14:34.57	132.55	10.84	-29.3	-43.2	4.8	1.50e+00	0	53	104	0	25	23450
2026-01-05 09:14:35.58	132.49	10.93	-20.4	-37.5	4.5	1.46e+00	0	53	104	0	17	19195
2026-01-05 09:14:36.59	132.43	11.01	-19.4	-34.7	3.9	1.49e+00	0	53	0	0	11	19663
2026-01-05 09:14:37.60	132.37	11.10	-23.7	-37.8	4.4	1.50e+00	0	53	104	0	17	19936
2026-01-05 09:14:38.62	132.31	11.19	-25.0	-40.2	5.0	1.41e+00	0	53	104	0	23	18658
2026-01-05 09:14:39.62	132.25	11.28	-25.2	-41.6	5.0	1.43e+00	0	53	104	0	24	20674
2026-01-05 09:14:40.63	132.18	11.36	-24.8	-41.0	4.7	1.43e+00	0	53	104	0	24	19378
2026-01-05 09:14:41.64	132.12	11.45	-27.2	-39.8	5.1	1.41e+00	0	53	104	0	23	17856
2026-01-05 09:14:42.65	132.06	11.54	-25.3	-38.4	4.5	1.43e+00	0	53	104	0	21	17033
2026-01-05 09:14:43.66	131.99	11.63	-26.1	-41.3	4.5	1.43e+00	0	53	104	0	22	22269
2026-01-05 09:14:44.67	131.93	11.72	-27.6	-41.6	5.2	1.42e+00	0	53	104	0	25	19457
2026-01-05 09:14:45.68	131.86	11.81	-25.9	-42.4	4.9	1.43e+00	0	53	104	0	27	19012
2026-01-05 09:14:46.69	131.80	11.90	-25.9	-41.5	5.0	1.43e+00	0	53	104	0	22	22971
2026-01-05 09:14:47.70	131.73	11.99	-22.5	-38.0	3.7	1.43e+00	0	53	104	0	17	20364
2026-01-05 09:14:48.71	131.67	12.08	-24.4	-41.1	5.1	1.43e+00	0	53	104	0	25	18358
2026-01-05 09:14:49.72	131.60	12.17	-26.2	-41.6	5.2	1.39e+00	0	53	104	0	26	18449
2026-01-05 09:14:50.73	131.54	12.26	-26.5	-41.1	4.9	1.37e+00	0	53	104	0	26	17457
2026-01-05 09:14:51.75	131.47	12.35	-22.8	-40.0	4.3	1.36e+00	0	53	104	0	23	18139
2026-01-05 09:14:52.76	131.40	12.44	-26.3	-36.1	3.9	1.41e+00	0	53	104	0	18	15514
2026-01-05 09:14:53.77	131.33	12.54	-25.7	-40.2	4.8	1.40e+00	0	53	104	0	24	17491
2026-01-05 09:14:54.78	131.26	12.63	-28.5	-41.4	4.5	1.42e+00	0	53	104	0	28	16099
2026-01-05 09:14:55.79	131.20	12.72	-20.3	-36.7	4.3	1.40e+00	0	53	104	0	22	13201
2026-01-05 09:14:56.80	131.13	12.81	-27.2	-42.3	4.9	1.37e+00	0	53	104	0	28	17841
2026-01-05 09:14:57.81	131.06	12.91	-28.8	-43.5	5.0	1.43e+00	0	53	104	0	30	18234
2026-01-05 09:14:58.82	130.99	13.00	-28.3	-44.1	5.0	1.42e+00	0	53	104	0	30	19567
2026-01-05 09:14:59.83	130.92	13.09	-27.9	-41.9	4.9	1.38e+00	0	53	104	0	31	14230
2026-01-05 09:15:00.84	130.84	13.19	-27.4	-42.8	4.8	1.39e+00	0	53	104	0	26	21186
2026-01-05 09:15:01.85	130.77	13.28	-31.7	-43.5	5.1	1.36e+00	0	53	104	0	32	16232
2026-01-05 09:15:02.85	130.70	13.37	-29.0	-42.9	7.4	5.33e-01	0	53	0	0	34	13456
2026-01-05 09:15:03.86	130.63	13.47	-31.0	-43.7	7.8	3.99e-01	0	54	0	2097152	38	11719
2026-01-05 09:15:04.87	130.56	13.56	-32.9	-42.5	8.3	3.73e-01	0	53	0	4194304	35	12121
2026-01-05 09:15:05.88	130.48	13.66	-30.4	-42.6	7.8	3.42e-01	0	53	0	6291456	35	12315
2026-01-05 09:15:06.90	130.41	13.76	-30.1	-43.0	7.4	3.12e-01	0	54	0	7340032	38	10794
2026-01-05 09:15:07.91	130.33	13.85	-33.5	-44.0	8.3	3.33e-01	0	53	0	9437184	41	10258
2026-01-05 09:15:08.92	130.26	13.95	-34.3	-44.7	7.3	2.80e-01	0	54	0	11534336	37	14019
2026-01-05 09:15:09.93	130.18	14.05	-35.3	-45.1	8.0	2.69e-01	0	53	0	13631488	42	11024
2026-01-05 09:15:10.93	130.11	14.14	-36.3	-45.4	8.4	2.89e-01	0	54	0	15728640	45	9550
2026-01-05 09:15:11.94	130.03	14.24	-38.3	-45.3	9.4	1.97e-01	0	54	0	16777216	47	8427
2026-01-05 09:15:12.95	129.95	14.34	-38.2	-45.1	9.4	1.24e-01	0	54	0	18874368	45	9247
2026-01-05 09:15:13.96	129.88	14.44	-38.6	-44.9	10.2	1.67e-01	0	54	0	20971520	48	7569
2026-01-05 09:15:14.97	129.80	14.54	-38.2	-44.4	9.9	1.39e-01	0	54	0	23068672	47	7551
2026-01-05 09:15:15.98	129.72	14.63	-39.0	-44.7	10.8	5.89e-02	0	54	0	25165824	50	6637
2026-01-05 09:15:16.99	129.64	14.73	-39.1	-44.9	10.7	6.01e-02	0	54	0	26214400	50	6775
2026-01-05 09:15:18.00	129.56	14.83	-39.2	-44.7	11.8	4.32e-02	0	54	0	28311552	51	6270
2026-01-05 09:15:19.01	129.48	14.93	-40.3	-45.1	11.1	2.64e-02	0	54	0	30408704	52	6170
2026-01-05 09:15:20.01	129.40	15.03	-39.4	-45.6	10.7	2.60e-02	0	54	0	32505856	51	6931
2026-01-05 09:15:21.03	129.32	15.13	-40.3	-45.1	11.3	1.58e-02	0	54	0	34603008	51	6529
2026-01-05 09:15:22.03	129.24	15.23	-40.6	-45.3	11.8	1.03e-02	0	54	0	35651584	52	6315
2026-01-05 09:15:23.04	129.15	15.34	-40.8	-44.5	12.7	7.48e-03	0	54	0	37748736	52	5751
2026-01-05 09:15:24.05	129.07	15.44	-40.6	-44.0	13.3	1.05e-03	0	54	0	39845888	51	5757
2026-01-05 09:15:25.06	128.99	15.54	-40.5	-44.1	13.3	9.36e-04	0	54	0	41943040	52	5485
2026-01-05 09:15:26.07	128.90	15.64	-40.4	-43.4	13.9	2.06e-04	0	54	0	44040192	51	5398
2026-01-05 09:15:27.08	128.82	15.75	-40.5	-43.6	13.9	5.26e-04	0	54	0	46137344	51	5475
2026-01-05 09:15:28.09	128.73	15.85	-40.3	-43.4	14.1	1.23e-04	0	54	0	47185920	51	5362
2026-01-05 09:15:29.10	128.65	15.95	-40.5	-43.6	14.0	2.51e-05	0	54	0	49283072	51	5478
2026-01-05 09:15:30.11	128.56	16.06	-40.6	-43.7	13.9	5.11e-04	0	54	0	51380224	51	5572
2026-01-05 09:15:31.12	128.47	16.16	-40.6	-43.8	13.7	5.35e-04	0	54	0	53477376	51	5620
2026-01-05 09:15:32.13	128.39	16.27	-40.4	-43.7	13.8	3.25e-04	0	54	0	55574528	51	5531
2026-01-05 09:15:33.14	128.30	16.37	-40.1	-43.9	13.1	4.22e-04	0	54	0	56623104	51	5666
2026-01-05 09:15:34.15	128.21	16.48	-39.3	-43.5	13.4	1.80e-03	0	54	0	58720256	50	5729
2026-01-05 09:15:35.16	128.12	16.58	-40.4	-43.3	14.4	8.32e-04	0	54	0	60817408	51	5299
2026-01-05 09:15:36.17	128.03	16.69	-40.5	-43.4	14.3	2.59e-05	0	54	0	62914560	51	5341
2026-01-05 09:15:37.18	127.94	16.80	-40.6	-43.6	14.0	8.30e-06	0	54	0	65011712	51	5521
2026-01-05 09:15:38.19	127.84	16.90	-40.6	-43.7	13.9	3.80e-06	0	54	0	66060288	52	5249
2026-01-05 09:15:39.20	127.75	17.01	-40.7	-43.9	13.7	1.52e-05	0	54	0	68157440	52	5374
2026-01-05 09:15:40.21	127.66	17.12	-40.8	-44.1	13.5	9.10e-06	0	54	0	70254592	52	5488
2026-01-05 09:15:41.22	127.56	17.23	-40.8	-44.1	13.5	7.60e-06	0	54	0	72351744	52	5507
2026-01-05 09:15:42.22	127.47	17.33	-40.5	-43.6	14.1	7.00e-07	0	54	0	74448896	52	5172
2026-01-05 09:15:43.23	127.38	17.44	-40.4	-43.3	14.4	9.10e-06	0	54	0	75497472	51	5311
2026-01-05 09:15:44.24	127.28	17.55	-40.3	-43.1	14.7	0.00e+00	0	54	0	77594624	51	5190
2026-01-05 09:15:45.25	127.18	17.66	-40.3	-43.1	14.6	7.00e-07	0	54	0	79691776	51	5181
2026-01-05 09:15:46.26	127.09	17.77	-40.2	-43.0	14.8	0.00e+00	0	54	0	81788928	51	5110
2026-01-05 09:15:47.27	126.99	17.88	-40.0	-42.8	15.0	0.00e+00	0	54	0	83886080	51	5000
2026-01-05 09:15:48.28	126.89	18.00	-40.2	-43.0	14.8	7.00e-07	0	54	0	84934656	51	5108
2026-01-05 09:15:49.29	126.79	18.11	-40.4	-43.3	14.5	0.00e+00	0	54	0	87031808	51	5316
2026-01-05 09:15:50.30	126.69	18.22	-40.3	-43.1	14.7	0.00e+00	0	54	0	89128960	51	5198
2026-01-05 09:15:51.31	126.59	18.33	-40.3	-43.1	14.6	0.00e+00	0	54	0	91226112	51	5208
2026-01-05 09:15:52.32	126.49	18.44	-40.2	-42.9	14.9	4.34e-05	0	54	0	93323264	51	5058
2026-01-05 09:15:53.33	126.38	18.56	-40.0	-42.6	15.2	0.00e+00	0	54	0	94371840	51	4896
2026-01-05 09:15:54.34	126.28	18.67	-40.0	-42.6	15.2	7.00e-07	0	55	0	96468992	51	4925
2026-01-05 09:15:55.35	126.18	18.78	-40.1	-42.8	15.1	0.00e+00	0	54	0	98566144	51	4998
2026-01-05 09:15:56.36	126.07	18.90	-40.3	-43.0	14.8	0.00e+00	0	54	0	100663296	51	5113
2026-01-05 09:15:57.38	125.96	19.02	-40.5	-43.4	14.4	0.00e+00	0	54	0	102760448	51	5345
2026-01-05 09:15:58.39	125.86	19.13	-40.7	-43.7	14.2	7.00e-07	0	55	0	103809024	51	5546
2026-01-05 09:15:59.40	125.75	19.25	-40.6	-43.5	14.3	7.00e-07	0	54	0	105906176	51	5437
2026-01-05 09:16:00.41	125.64	19.36	-40.4	-43.2	14.6	7.00e-07	0	54	0	108003328	51	5262
2026-01-05 09:16:01.41	125.53	19.48	-40.3	-43.0	14.9	0.00e+00	0	54	0	110100480	51	5105
2026-01-05 09:16:02.42	125.42	19.60	-40.3	-43.1	14.8	0.00e+00	0	55	0	112197632	51	5161
2026-01-05 09:16:03.43	125.31	19.71	-40.2	-42.8	15.1	0.00e+00	0	55	0	114294784	51	4992
2026-01-05 09:16:04.44	125.20	19.83	-40.3	-43.0	14.9	0.00e+00	0	54	0	115343360	51	5117
2026-01-05 09:16:05.45	125.09	19.95	-40.3	-43.0	14.9	1.50e-06	0	55	0	117440512	51	5101
2026-01-05 09:16:06.46	124.97	20.07	-40.4	-43.1	14.7	0.00e+00	0	54	0	119537664	51	5210
2026-01-05 09:16:07.47	124.86	20.19	-40.5	-43.4	14.6	0.00e+00	0	55	0	121634816	51	5361
2026-01-05 09:16:08.48	124.74	20.31	-40.2	-42.9	15.0	0.00e+00	0	55	0	123731968	51	5079
2026-01-05 09:16:09.49	124.63	20.43	-40.3	-43.0	14.9	0.00e+00	0	55	0	124780544	51	5125
2026-01-05 09:16:10.50	124.51	20.55	-40.1	-42.7	15.2	0.00e+00	0	55	0	126877696	51	4947
2026-01-05 09:16:11.51	124.39	20.67	-39.9	-42.4	15.5	0.00e+00	0	55	0	128974848	51	4768
2026-01-05 09:16:12.52	124.27	20.79	-39.9	-42.5	15.4	0.00e+00	0	55	0	131072000	51	4827
2026-01-05 09:16:13.53	124.15	20.91	-40.2	-42.8	15.1	0.00e+00	0	55	0	133169152	51	4986
2026-01-05 09:16:14.54	124.03	21.04	-40.2	-42.9	15.1	0.00e+00	0	55	0	134217728	51	5063
2026-01-05 09:16:15.55	123.91	21.16	-40.3	-43.0	14.8	0.00e+00	0	55	0	136314880	51	5141
2026-01-05 09:16:16.56	123.79	21.28	-40.4	-43.2	14.7	0.00e+00	0	54	0	138412032	51	5233
2026-01-05 09:16:17.57	123.66	21.41	-40.2	-42.7	15.2	0.00e+00	0	55	0	140509184	51	4975
2026-01-05 09:16:18.58	123.54	21.53	-40.2	-42.8	15.1	0.00e+00	0	55	0	142606336	51	5011
2026-01-05 09:16:19.58	123.41	21.65	-40.4	-43.1	14.8	0.00e+00	0	55	0	143654912	51	5171
2026-01-05 09:16:20.59	123.28	21.78	-40.6	-43.4	14.6	0.00e+00	0	55	0	145752064	51	5368
2026-01-05 09:16:21.60	123.16	21.91	-40.7	-43.6	14.3	7.00e-07	0	55	0	147849216	51	5474
2026-01-05 09:16:22.61	123.03	22.03	-40.8	-43.9	13.9	2.20e-06	0	55	0	149946368	52	5383
2026-01-05 09:16:23.62	122.90	22.16	-40.8	-43.9	13.9	7.60e-06	0	55	0	152043520	52	5394
2026-01-05 09:16:24.63	122.77	22.29	-40.8	-43.9	14.0	3.80e-06	0	55	0	153092096	52	5348
2026-01-05 09:16:25.64	122.63	22.41	-40.7	-43.6	14.3	3.80e-06	0	55	0	155189248	52	5190
2026-01-05 09:16:26.65	122.50	22.54	-40.5	-43.3	14.5	0.00e+00	0	55	0	157286400	52	5035
2026-01-05 09:16:27.66	122.36	22.67	-40.5	-43.3	14.6	0.00e+00	0	55	0	159383552	52	5000
2026-01-05 09:16:28.67	122.23	22.80	-40.5	-43.3	14.5	0.00e+00	0	55	0	161480704	52	5037
2026-01-05 09:16:29.68	122.09	22.93	-40.6	-43.4	14.5	7.00e-07	0	55	0	162529280	52	5093
2026-01-05 09:16:30.69	121.95	23.06	-40.9	-43.9	14.0	0.00e+00	0	55	0	164626432	52	5392
2026-01-05 09:16:31.70	121.81	23.19	-40.6	-43.5	14.4	3.80e-06	0	55	0	166723584	52	5119
2026-01-05 09:16:32.71	121.67	23.32	-40.6	-43.5	14.4	7.00e-07	0	55	0	168820736	52	5137
2026-01-05 09:16:33.72	121.53	23.45	-40.5	-43.3	14.6	7.00e-07	0	55	0	170917888	52	5041
2026-01-05 09:16:34.73	121.39	23.58	-40.5	-43.3	14.6	0.00e+00	0	55	0	171966464	52	5029
2026-01-05 09:16:35.74	121.24	23.72	-40.7	-43.7	14.3	0.00e+00	0	55	0	174063616	52	5219
2026-01-05 09:16:36.75	121.10	23.85	-40.8	-43.8	14.0	3.80e-06	0	55	0	176160768	52	5324
2026-01-05 09:16:37.76	120.95	23.98	-41.2	-44.6	13.3	3.80e-06	0	55	0	178257920	53	5471
2026-01-05 09:16:38.77	120.80	24.12	-41.1	-44.3	13.6	7.60e-06	0	55	0	180355072	53	5340
2026-01-05 09:16:39.78	120.65	24.25	-40.7	-43.6	14.3	1.50e-06	0	55	0	182452224	53	4881
2026-01-05 09:16:40.79	120.50	24.38	-40.8	-43.7	14.2	1.50e-06	0	55	0	183500800	53	4959
2026-01-05 09:16:41.80	120.35	24.52	-40.7	-43.6	14.3	1.50e-06	0	55	0	185597952	53	4901
2026-01-05 09:16:42.81	120.20	24.66	-40.8	-43.7	14.2	0.00e+00	0	55	0	187695104	52	5276
2026-01-05 09:16:43.82	120.04	24.79	-40.6	-43.4	14.5	7.00e-07	0	55	0	189792256	52	5094
2026-01-05 09:16:44.83	119.89	24.93	-40.6	-43.5	14.4	1.50e-06	0	55	0	191889408	52	5143
2026-01-05 09:16:45.84	119.73	25.07	-40.7	-43.7	14.2	7.00e-07	0	55	0	192937984	52	5252
2026-01-05 09:16:46.85	119.57	25.20	-40.5	-43.3	14.7	2.20e-06	0	55	0	195035136	52	5007
2026-01-05 09:16:47.86	119.41	25.34	-40.3	-42.9	15.0	0.00e+00	0	55	0	197132288	52	4803
2026-01-05 09:16:48.87	119.25	25.48	-40.1	-42.7	15.3	0.00e+00	0	55	0	199229440	52	4674
2026-01-05 09:16:49.88	119.09	25.62	-40.3	-43.0	15.0	0.00e+00	0	55	0	201326592	52	4836
2026-01-05 09:16:50.89	118.92	25.76	-40.6	-43.4	14.5	0.00e+00	0	55	0	202375168	52	5091
2026-01-05 09:16:51.90	118.76	25.90	-40.8	-43.7	14.3	1.50e-06	0	55	0	204472320	52	5246
2026-01-05 09:16:52.91	118.59	26.04	-40.8	-43.8	14.2	3.80e-06	0	55	0	206569472	52	5303
2026-01-05 09:16:53.92	118.42	26.18	-40.7	-43.6	14.4	7.00e-07	0	55	0	208666624	52	5197
2026-01-05 09:16:54.93	118.25	26.32	-40.4	-43.1	14.8	7.00e-07	0	55	0	210763776	52	4925
2026-01-05 09:16:55.95	118.08	26.46	-40.5	-43.2	14.7	7.00e-07	0	55	0	211812352	52	4978
2026-01-05 09:16:56.95	117.91	26.61	-40.4	-43.1	14.9	0.00e+00	0	55	0	213909504	52	4913
2026-01-05 09:16:57.96	117.73	26.75	-40.5	-43.2	14.8	7.00e-07	0	55	0	216006656	52	4975
2026-01-05 09:16:58.97	117.55	26.89	-40.7	-43.6	14.3	0.00e+00	0	55	0	218103808	52	5203
2026-01-05 09:16:59.98	117.37	27.03	-40.8	-43.8	14.2	2.20e-06	0	55	0	220200960	52	5301
2026-01-05 09:17:00.99	117.19	27.18	-40.9	-43.9	14.1	7.00e-07	0	55	0	221249536	52	5389
2026-01-05 09:17:02.00	117.01	27.32	-41.0	-44.1	13.9	3.80e-06	0	55	0	223346688	52	5482
2026-01-05 09:17:03.00	116.83	27.47	-40.9	-43.9	14.1	3.00e-06	0	55	0	225443840	52	5355
2026-01-05 09:17:04.01	116.65	27.61	-41.2	-44.3	13.7	6.80e-06	0	55	0	227540992	53	5330
2026-01-05 09:17:05.02	116.46	27.76	-41.4	-44.7	13.3	1.37e-05	0	55	0	229638144	53	5583
2026-01-05 09:17:06.03	116.27	27.90	-41.2	-44.5	13.5	1.37e-05	0	55	0	230686720	53	5427
2026-01-05 09:17:07.04	116.08	28.05	-41.3	-44.5	13.5	1.52e-05	0	55	0	232783872	53	5451
2026-01-05 09:17:08.05	115.89	28.20	-41.3	-44.6	13.4	6.10e-06	0	55	0	234881024	53	5499
2026-01-05 09:17:09.06	115.70	28.35	-41.2	-44.4	13.6	3.80e-06	0	55	0	236978176	53	5396
2026-01-05 09:17:10.07	115.50	28.49	-41.0	-44.0	14.0	2.20e-06	0	55	0	239075328	53	5156
2026-01-05 09:17:11.08	115.30	28.64	-40.8	-43.7	14.3	3.80e-06	0	55	0	240123904	53	4983
2026-01-05 09:17:12.09	115.10	28.79	-40.9	-43.8	14.1	2.20e-06	0	55	0	242221056	53	5040
2026-01-05 09:17:13.10	114.90	28.94	-41.2	-44.4	13.7	2.20e-06	0	55	0	244318208	53	5356
2026-01-05 09:17:14.11	114.70	29.09	-41.4	-44.8	13.2	1.67e-05	0	55	0	246415360	53	5613
2026-01-05 09:17:15.12	114.49	29.24	-41.3	-44.5	13.4	2.21e-05	0	55	0	248512512	53	5463
2026-01-05 09:17:16.14	114.29	29.39	-41.4	-44.8	13.2	2.05e-05	0	55	0	250609664	53	5633
2026-01-05 09:17:17.14	114.08	29.54	-41.7	-45.3	12.7	1.67e-05	0	55	0	251658240	53	5987
2026-01-05 09:17:18.15	113.87	29.69	-41.6	-45.0	12.9	2.51e-05	0	55	0	253755392	54	5463
2026-01-05 09:17:19.16	113.66	29.84	-41.8	-45.5	12.5	9.84e-05	0	55	0	255852544	54	5745
2026-01-05 09:17:20.17	113.44	30.00	-41.9	-45.6	12.5	3.42e-04	0	55	0	257949696	55	5475
2026-01-05 09:17:21.18	113.22	30.15	-41.7	-45.3	12.7	1.94e-04	0	55	0	260046848	55	5314
2026-01-05 09:17:22.19	113.00	30.30	-41.6	-45.0	12.9	5.03e-05	0	55	0	261095424	55	5157
2026-01-05 09:17:23.20	112.78	30.45	-41.9	-45.6	12.5	1.17e-04	0	55	0	263192576	55	5473
2026-01-05 09:17:24.21	112.56	30.61	-42.3	-46.4	11.6	2.21e-04	0	55	0	265289728	55	6014
2026-01-05 09:17:25.22	112.34	30.76	-42.6	-47.3	10.7	1.81e-03	0	56	0	267386880	55	6650
2026-01-05 09:17:26.23	112.11	30.91	-42.4	-46.8	11.2	2.00e-03	0	55	0	269484032	55	6296
2026-01-05 09:17:27.24	111.88	31.07	-42.2	-46.3	11.8	6.25e-04	0	55	0	270532608	55	5945
2026-01-05 09:17:28.25	111.65	31.22	-42.3	-46.5	11.5	7.78e-04	0	55	0	272629760	55	6111
2026-01-05 09:17:29.26	111.41	31.38	-42.3	-46.4	11.6	8.13e-04	0	55	0	274726912	55	6004
2026-01-05 09:17:30.27	111.18	31.53	-42.7	-47.3	10.8	1.32e-03	0	55	0	276824064	55	6682
2026-01-05 09:17:31.28	110.94	31.69	-42.4	-46.5	11.7	9.94e-04	0	55	0	278921216	56	5732
2026-01-05 09:17:32.29	110.70	31.84	-42.3	-46.3	11.8	6.15e-04	0	55	0	279969792	56	5642
2026-01-05 09:17:33.30	110.45	32.00	-42.4	-46.3	11.9	3.73e-04	0	56	0	282066944	56	5648
2026-01-05 09:17:34.31	110.21	32.15	-42.5	-46.6	11.6	5.33e-04	0	55	0	284164096	56	5817
2026-01-05 09:17:35.32	109.96	32.31	-42.7	-47.1	11.0	8.75e-04	0	56	0	286261248	56	6182
2026-01-05 09:17:36.33	109.71	32.47	-42.5	-46.6	11.6	1.16e-03	0	55	0	288358400	56	5798
2026-01-05 09:17:37.34	109.46	32.62	-42.2	-46.1	12.1	3.62e-04	0	55	0	289406976	56	5498
2026-01-05 09:17:38.35	109.20	32.78	-42.2	-46.1	12.1	1.75e-04	0	55	0	291504128	56	5470
2026-01-05 09:17:39.36	108.94	32.94	-42.3	-46.1	12.2	1.20e-04	0	56	0	293601280	56	5511
2026-01-05 09:17:40.37	108.68	33.09	-42.7	-47.2	11.0	7.64e-04	0	55	0	295698432	56	6222
2026-01-05 09:17:41.38	108.42	33.25	-42.9	-47.8	10.3	2.83e-03	0	56	0	297795584	56	6669
2026-01-05 09:17:42.38	108.16	33.40	-43.1	-48.2	10.0	6.19e-03	0	55	0	298844160	56	6981
2026-01-05 09:17:43.39	107.89	33.56	-42.8	-47.5	10.7	4.07e-03	0	56	0	300941312	56	6432
2026-01-05 09:17:44.40	107.62	33.72	-42.5	-46.7	11.5	1.05e-03	0	56	0	303038464	56	5888
2026-01-05 09:17:45.41	107.34	33.88	-42.1	-45.7	12.5	1.87e-04	0	56	0	305135616	56	5276
2026-01-05 09:17:46.42	107.07	34.03	-41.3	-44.4	13.7	3.58e-05	0	55	0	307232768	54	5066
2026-01-05 09:17:47.43	106.79	34.19	-40.9	-43.8	14.3	3.80e-06	0	55	0	308281344	53	5027
2026-01-05 09:17:48.44	106.51	34.35	-40.7	-43.4	14.6	7.00e-07	0	56	0	310378496	53	4798
2026-01-05 09:17:49.45	106.22	34.51	-40.7	-43.5	14.6	7.00e-07	0	56	0	312475648	53	4839
2026-01-05 09:17:50.46	105.94	34.66	-40.8	-43.6	14.5	0.00e+00	0	55	0	314572800	53	4878
2026-01-05 09:17:51.47	105.65	34.82	-40.7	-43.4	14.7	0.00e+00	0	56	0	316669952	53	4785
2026-01-05 09:17:52.48	105.35	34.98	-40.7	-43.4	14.6	0.00e+00	0	56	0	318767104	53	4809
2026-01-05 09:17:53.49	105.06	35.14	-40.9	-43.8	14.3	7.00e-07	0	56	0	319815680	53	5029
2026-01-05 09:17:54.50	104.76	35.29	-41.2	-44.3	13.9	3.00e-06	0	56	0	321912832	53	5299
2026-01-05 09:17:55.51	104.46	35.45	-41.5	-44.9	13.3	1.60e-05	0	56	0	324009984	53	5661
2026-01-05 09:17:56.52	104.15	35.61	-41.7	-45.1	13.0	3.20e-05	0	56	0	326107136	54	5511
2026-01-05 09:17:57.53	103.85	35.76	-41.6	-45.0	13.1	3.66e-05	0	56	0	328204288	54	5444
2026-01-05 09:17:58.54	103.54	35.92	-41.6	-45.0	13.2	2.36e-05	0	56	0	329252864	54	5403
2026-01-05 09:17:59.55	103.22	36.08	-41.6	-44.9	13.4	2.74e-05	0	56	0	331350016	54	5389
2026-01-05 09:18:00.56	102.91	36.23	-41.8	-45.3	12.8	2.44e-05	0	55	0	333447168	54	5632
2026-01-05 09:18:01.57	102.59	36.39	-41.9	-45.5	12.7	7.09e-05	0	56	0	335544320	54	5754
2026-01-05 09:18:02.58	102.27	36.55	-41.8	-45.3	12.7	7.78e-05	0	56	0	337641472	54	5624
2026-01-05 09:18:03.59	101.94	36.70	-41.7	-45.3	12.9	1.16e-04	0	55	0	338690048	54	5605
2026-01-05 09:18:04.60	101.61	36.86	-41.5	-44.7	13.4	2.28e-05	0	56	0	340787200	54	5270
2026-01-05 09:18:05.61	101.28	37.01	-41.4	-44.7	13.5	9.10e-06	0	56	0	342884352	54	5237
2026-01-05 09:18:06.61	100.95	37.16	-41.5	-44.8	13.3	9.90e-06	0	56	0	344981504	54	5312
2026-01-05 09:18:07.63	100.61	37.32	-42.0	-45.7	12.4	4.73e-05	0	56	0	347078656	54	5910
2026-01-05 09:18:08.64	100.27	37.47	-42.1	-46.0	12.1	1.73e-04	0	56	0	348127232	54	6103
2026-01-05 09:18:09.65	99.92	37.63	-42.2	-46.2	11.9	4.44e-04	0	56	0	350224384	55	5874
2026-01-05 09:18:10.65	99.58	37.78	-42.5	-46.8	11.3	1.11e-03	0	56	0	352321536	55	6338
2026-01-05 09:18:11.66	99.23	37.93	-42.5	-46.8	11.3	1.53e-03	0	55	0	354418688	55	6344
2026-01-05 09:18:12.67	98.87	38.08	-42.5	-46.8	11.3	1.26e-03	0	56	0	356515840	55	6301
2026-01-05 09:18:13.68	98.52	38.23	-42.2	-46.3	11.9	7.68e-04	0	56	0	357564416	55	5951
2026-01-05 09:18:14.69	98.15	38.38	-42.0	-45.7	12.4	1.53e-04	0	56	0	359661568	55	5554
2026-01-05 09:18:15.70	97.79	38.53	-41.5	-44.8	13.2	6.79e-05	0	56	0	361758720	55	5017
2026-01-05 09:18:16.71	97.42	38.68	-41.7	-45.2	12.9	6.10e-05	0	56	0	363855872	55	5259
2026-01-05 09:18:17.72	97.05	38.83	-41.7	-45.1	13.1	3.50e-05	0	56	0	365953024	55	5162
2026-01-05 09:18:18.73	96.68	38.97	-41.4	-45.2	12.6	4.27e-05	0	56	0	367001600	54	5577
2026-01-05 09:18:19.74	96.30	39.12	-41.4	-45.2	12.7	7.32e-05	0	56	0	369098752	54	5555
2026-01-05 09:18:20.75	95.92	39.27	-41.1	-44.6	13.3	2.36e-05	0	56	0	371195904	54	5200
2026-01-05 09:18:21.76	95.53	39.41	-40.8	-44.0	13.9	8.30e-06	0	56	0	373293056	53	5153
2026-01-05 09:18:22.77	95.15	39.56	-40.7	-43.8	14.1	3.00e-06	0	56	0	375390208	53	5025
2026-01-05 09:18:23.78	94.75	39.70	-40.9	-44.3	13.6	3.00e-06	0	56	0	376438784	53	5317
2026-01-05 09:18:24.79	94.36	39.84	-40.5	-43.5	14.5	3.00e-06	0	56	0	378535936	52	5155
2026-01-05 09:18:25.81	93.96	39.98	-40.5	-43.6	14.4	0.00e+00	0	56	0	380633088	52	5209
2026-01-05 09:18:26.81	93.56	40.12	-40.9	-44.3	13.7	1.50e-06	0	56	0	382730240	52	5618
2026-01-05 09:18:27.82	93.15	40.26	-41.2	-44.9	13.0	1.75e-05	0	56	0	384827392	53	5713
2026-01-05 09:18:28.83	92.74	40.40	-41.0	-44.6	13.2	1.44e-05	0	56	0	386924544	53	5476
2026-01-05 09:18:29.85	92.33	40.54	-41.1	-44.7	13.3	1.44e-05	0	56	0	387973120	53	5557
2026-01-05 09:18:30.85	91.92	40.67	-40.6	-43.8	14.2	7.00e-07	0	56	0	390070272	53	4988
2026-01-05 09:18:31.86	91.50	40.81	-40.2	-43.1	14.9	0.00e+00	0	56	0	392167424	52	4901
2026-01-05 09:18:32.87	91.07	40.94	-40.0	-42.6	15.4	0.00e+00	0	56	0	394264576	51	4925
2026-01-05 09:18:33.89	90.64	41.07	-39.9	-42.5	15.6	0.00e+00	0	56	0	396361728	51	4847
2026-01-05 09:18:34.90	90.21	41.20	-40.3	-43.2	14.9	0.00e+00	0	56	0	397410304	51	5237
2026-01-05 09:18:35.90	89.78	41.33	-40.3	-43.2	14.9	7.00e-07	0	56	0	399507456	51	5257
2026-01-05 09:18:36.91	89.35	41.46	-40.2	-43.0	15.1	0.00e+00	0	56	0	401604608	51	5123
2026-01-05 09:18:37.92	88.91	41.59	-39.5	-42.0	16.1	0.00e+00	0	56	0	403701760	51	4568
2026-01-05 09:18:38.93	88.46	41.71	-39.9	-42.6	15.5	0.00e+00	0	56	0	405798912	51	4897
2026-01-05 09:18:39.94	88.01	41.83	-40.1	-43.0	15.0	0.00e+00	0	56	0	406847488	51	5123
2026-01-05 09:18:40.95	87.56	41.96	-40.3	-43.4	14.6	0.00e+00	0	56	0	408944640	51	5382
2026-01-05 09:18:41.96	87.11	42.08	-40.7	-44.0	14.0	0.00e+00	0	56	0	411041792	51	5787
2026-01-05 09:18:42.97	86.65	42.20	-41.0	-44.8	13.2	3.80e-06	0	56	0	413138944	52	5957
2026-01-05 09:18:43.98	86.19	42.31	-41.0	-44.6	13.3	2.89e-05	0	56	0	415236096	52	5848
2026-01-05 09:18:45.00	85.72	42.43	-40.6	-43.9	14.1	1.60e-05	0	56	0	416284672	52	5342
2026-01-05 09:18:46.00	85.26	42.54	-40.5	-43.7	14.1	7.00e-07	0	56	0	418381824	52	5272
2026-01-05 09:18:47.01	84.79	42.65	-40.3	-43.3	14.6	0.00e+00	0	56	0	420478976	52	5039
2026-01-05 09:18:48.02	84.32	42.76	-40.4	-43.5	14.5	7.00e-07	0	56	0	422576128	52	5122
2026-01-05 09:18:49.03	83.84	42.87	-40.4	-43.5	14.6	7.00e-07	0	56	0	424673280	52	5101
2026-01-05 09:18:50.04	83.36	42.97	-40.0	-42.8	15.2	0.00e+00	0	56	0	425721856	51	5003
2026-01-05 09:18:51.05	82.88	43.08	-40.5	-43.6	14.5	0.00e+00	0	56	0	427819008	51	5468
2026-01-05 09:18:52.06	82.39	43.18	-40.7	-43.9	14.2	2.20e-06	0	56	0	429916160	51	5696
2026-01-05 09:18:53.07	81.90	43.28	-40.6	-43.8	14.3	3.80e-06	0	56	0	432013312	52	5320
2026-01-05 09:18:54.08	81.41	43.38	-40.8	-44.2	13.9	2.20e-06	0	56	0	434110464	52	5530
2026-01-05 09:18:55.09	80.91	43.47	-40.9	-44.4	13.6	2.20e-06	0	56	0	435159040	52	5665
2026-01-05 09:18:56.10	80.41	43.57	-41.0	-44.4	13.6	3.80e-06	0	56	0	437256192	52	5714
2026-01-05 09:18:57.11	79.91	43.66	-40.9	-44.2	13.8	1.52e-05	0	56	0	439353344	52	5587
2026-01-05 09:18:58.12	79.41	43.74	-40.9	-44.2	14.0	4.50e-06	0	56	0	441450496	52	5566
2026-01-05 09:18:59.13	78.90	43.83	-40.6	-43.7	14.3	1.50e-06	0	56	0	443547648	53	4950
2026-01-05 09:19:00.13	78.40	43.91	-40.5	-43.4	14.6	1.50e-06	0	56	0	444596224	52	5099
2026-01-05 09:19:01.14	77.88	44.00	-40.5	-43.4	14.7	7.00e-07	0	56	0	446693376	52	5090
2026-01-05 09:19:02.15	77.37	44.07	-40.7	-43.8	14.4	7.00e-07	0	56	0	448790528	52	5283
2026-01-05 09:19:03.16	76.85	44.15	-41.1	-44.7	13.5	1.06e-05	0	56	0	450887680	52	5866
2026-01-05 09:19:04.17	76.33	44.23	-41.1	-44.7	13.4	1.60e-05	0	56	0	452984832	53	5530
2026-01-05 09:19:05.18	75.81	44.30	-41.0	-44.4	13.7	9.10e-06	0	56	0	455081984	53	5382
2026-01-05 09:19:06.19	75.28	44.37	-41.4	-45.2	13.1	1.90e-05	0	56	0	456130560	53	5881
2026-01-05 09:19:07.20	74.76	44.43	-41.8	-46.1	11.9	6.17e-05	0	56	0	458227712	54	6173
2026-01-05 09:19:08.21	74.23	44.50	-41.5	-45.4	12.6	1.86e-04	0	56	0	460324864	54	5674
2026-01-05 09:19:09.22	73.70	44.56	-41.2	-44.7	13.3	4.04e-05	0	56	0	462422016	54	5262
2026-01-05 09:19:10.23	73.16	44.62	-41.1	-44.6	13.5	6.80e-06	0	56	0	464519168	53	5481
2026-01-05 09:19:11.24	72.63	44.67	-40.7	-43.9	14.1	9.90e-06	0	56	0	465567744	53	5066
2026-01-05 09:19:12.25	72.09	44.73	-40.3	-43.1	14.9	0.00e+00	0	56	0	467664896	52	4912
2026-01-05 09:19:13.26	71.55	44.78	-40.3	-43.1	15.1	0.00e+00	0	56	0	469762048	51	5182
2026-01-05 09:19:14.27	71.01	44.83	-40.8	-44.1	14.1	0.00e+00	0	56	0	471859200	52	5487
2026-01-05 09:19:15.28	70.47	44.87	-41.6	-45.7	12.4	9.68e-05	0	56	0	473956352	53	6222
2026-01-05 09:19:16.29	69.93	44.91	-41.7	-45.9	12.1	2.53e-04	0	56	0	475004928	54	6033
2026-01-05 09:19:17.30	69.38	44.95	-41.7	-45.8	12.3	2.22e-04	0	56	0	477102080	54	5973
2026-01-05 09:19:18.31	68.84	44.99	-42.1	-46.9	11.2	9.15e-04	0	56	0	479199232	54	6747
2026-01-05 09:19:19.32	68.29	45.02	-42.1	-46.9	11.2	1.58e-03	0	56	0	481296384	55	6371
2026-01-05 09:19:20.33	67.74	45.05	-42.1	-46.8	11.2	1.35e-03	0	56	0	483393536	55	6300
2026-01-05 09:19:21.34	67.19	45.08	-41.6	-45.7	12.3	4.38e-04	0	56	0	484442112	55	5565
2026-01-05 09:19:22.35	66.64	45.11	-41.6	-45.8	12.2	3.96e-04	0	56	0	486539264	54	5960
2026-01-05 09:19:23.36	66.09	45.13	-41.3	-45.4	12.7	1.20e-04	0	56	0	488636416	54	5657
2026-01-05 09:19:24.37	65.54	45.15	-40.9	-44.5	13.4	1.98e-05	0	56	0	490733568	53	5450
2026-01-05 09:19:25.38	64.99	45.16	-41.1	-44.8	13.1	1.44e-05	0	56	0	492830720	53	5653
2026-01-05 09:19:26.39	64.44	45.18	-41.3	-45.4	12.6	3.20e-05	0	56	0	493879296	53	6054
2026-01-05 09:19:27.40	63.88	45.19	-41.6	-46.0	12.0	2.26e-04	0	56	0	495976448	53	6463
2026-01-05 09:19:28.40	63.33	45.20	-41.2	-45.0	13.0	5.56e-05	0	56	0	498073600	53	5756
2026-01-05 09:19:29.41	62.78	45.20	-40.2	-43.1	15.0	0.00e+00	0	56	0	500170752	52	4893
2026-01-05 09:19:30.42	62.23	45.20	-40.2	-43.1	14.9	0.00e+00	0	56	0	502267904	52	4908
2026-01-05 09:19:31.43	61.67	45.20	-40.7	-44.0	14.1	7.00e-07	0	56	0	503316480	52	5443
2026-01-05 09:19:32.44	61.12	45.20	-41.0	-44.6	13.4	3.00e-06	0	56	0	505413632	52	5832
2026-01-05 09:19:33.45	60.57	45.19	-41.3	-45.4	12.6	5.03e-05	0	56	0	507510784	53	6000
2026-01-05 09:19:34.46	60.01	45.18	-41.7	-46.4	11.7	9.76e-05	0	56	0	509607936	53	6748
2026-01-05 09:19:35.47	59.46	45.16	-41.7	-46.2	11.7	2.62e-04	0	56	0	511705088	54	6266
2026-01-05 09:19:36.48	58.91	45.15	-41.4	-45.5	12.5	1.27e-04	0	56	0	512753664	54	5781
2026-01-05 09:19:37.49	58.36	45.13	-41.3	-45.3	12.7	1.19e-04	0	56	0	514850816	54	5640
2026-01-05 09:19:38.50	57.81	45.11	-41.4	-45.6	12.6	1.35e-04	0	56	0	516947968	54	5817
2026-01-05 09:19:39.51	57.26	45.08	-41.2	-45.0	13.1	5.87e-05	0	56	0	519045120	54	5451
2026-01-05 09:19:40.52	56.71	45.05	-40.9	-44.3	13.7	1.14e-05	0	56	0	521142272	53	5336
2026-01-05 09:19:41.53	56.16	45.02	-41.0	-44.5	13.6	5.30e-06	0	56	0	523239424	53	5454
2026-01-05 09:19:42.54	55.61	44.99	-41.6	-45.9	12.2	4.88e-05	0	56	0	524288000	53	6362
2026-01-05 09:19:43.55	55.07	44.95	-41.7	-46.0	12.0	1.98e-04	0	56	0	526385152	54	6120
2026-01-05 09:19:44.56	54.52	44.91	-41.8	-46.2	11.9	4.10e-04	0	56	0	528482304	54	6204
2026-01-05 09:19:45.57	53.98	44.87	-41.7	-46.1	12.0	3.75e-04	0	56	0	530579456	54	6132
2026-01-05 09:19:46.58	53.44	44.82	-41.4	-45.3	12.8	1.68e-04	0	56	0	532676608	54	5593
2026-01-05 09:19:47.59	52.90	44.78	-40.7	-44.1	14.0	9.10e-06	0	56	0	533725184	53	5160
2026-01-05 09:19:48.60	52.36	44.73	-40.4	-43.6	14.5	0.00e+00	0	56	0	535822336	52	5180
2026-01-05 09:19:49.61	51.83	44.67	-41.1	-44.7	13.3	5.30e-06	0	56	0	537919488	52	5914
2026-01-05 09:19:50.62	51.29	44.62	-41.4	-45.4	12.6	5.34e-05	0	56	0	540016640	53	6036
2026-01-05 09:19:51.63	50.76	44.56	-41.0	-44.7	13.3	5.87e-05	0	56	0	542113792	53	5578
2026-01-05 09:19:52.64	50.23	44.50	-41.0	-44.8	13.2	1.44e-05	0	56	0	543162368	53	5600
2026-01-05 09:19:53.65	49.70	44.43	-40.9	-44.6	13.3	8.30e-06	0	56	0	545259520	53	5527
2026-01-05 09:19:54.66	49.17	44.36	-40.9	-44.6	13.4	3.58e-05	0	56	0	547356672	53	5497
2026-01-05 09:19:55.67	48.65	44.30	-40.5	-43.9	14.1	6.80e-06	0	56	0	549453824	53	5073
2026-01-05 09:19:56.68	48.13	44.22	-40.6	-44.1	13.9	4.50e-06	0	56	0	551550976	53	5180
2026-01-05 09:19:57.69	47.61	44.15	-40.7	-44.3	13.7	3.00e-06	0	56	0	552599552	53	5326
2026-01-05 09:19:58.70	47.09	44.07	-40.7	-44.2	13.8	6.80e-06	0	56	0	554696704	53	5265
2026-01-05 09:19:59.71	46.58	43.99	-40.8	-44.4	13.6	9.10e-06	0	56	0	556793856	53	5371
2026-01-05 09:20:00.72	46.07	43.91	-40.6	-44.0	13.9	5.30e-06	0	56	0	558891008	53	5139
2026-01-05 09:20:01.73	45.56	43.83	-40.5	-43.9	14.2	1.50e-06	0	56	0	560988160	52	5357
2026-01-05 09:20:02.74	45.05	43.74	-40.5	-43.8	14.2	4.50e-06	0	56	0	562036736	52	5335
2026-01-05 09:20:03.75	44.55	43.65	-40.5	-43.9	14.2	0.00e+00	0	56	0	564133888	52	5360
2026-01-05 09:20:04.76	44.05	43.56	-40.7	-44.2	13.9	2.20e-06	0	56	0	566231040	52	5571
2026-01-05 09:20:05.77	43.55	43.47	-40.1	-43.1	14.9	7.00e-07	0	56	0	568328192	52	4903
2026-01-05 09:20:06.78	43.06	43.37	-39.6	-42.1	15.9	0.00e+00	0	56	0	570425344	51	4651
2026-01-05 09:20:07.79	42.57	43.28	-39.4	-41.9	16.2	0.00e+00	0	56	0	571473920	50	4792
2026-01-05 09:20:08.80	42.08	43.18	-39.7	-42.4	15.7	0.00e+00	0	56	0	573571072	50	5087
2026-01-05 09:20:09.81	41.59	43.08	-40.3	-43.4	14.7	0.00e+00	0	56	0	575668224	51	5384
2026-01-05 09:20:10.82	41.11	42.97	-40.7	-44.2	13.9	7.00e-07	0	56	0	577765376	52	5563
2026-01-05 09:20:11.83	40.63	42.87	-40.9	-44.5	13.6	6.10e-06	0	56	0	579862528	52	5756
2026-01-05 09:20:12.84	40.15	42.76	-40.3	-43.4	14.6	7.00e-07	0	56	0	580911104	52	5086
2026-01-05 09:20:13.85	39.68	42.65	-39.8	-42.5	15.7	0.00e+00	0	56	0	583008256	51	4853
2026-01-05 09:20:14.86	39.21	42.54	-39.9	-42.6	15.6	0.00e+00	0	56	0	585105408	51	4916
2026-01-05 09:20:15.87	38.75	42.43	-40.0	-42.7	15.5	0.00e+00	0	56	0	587202560	51	4944
2026-01-05 09:20:16.88	38.28	42.31	-40.1	-42.9	15.3	0.00e+00	0	56	0	589299712	51	5100
2026-01-05 09:20:17.89	37.82	42.19	-39.7	-42.3	16.0	0.00e+00	0	56	0	591396864	51	4712
2026-01-05 09:20:18.90	37.37	42.08	-39.3	-41.7	16.6	0.00e+00	0	56	0	592445440	50	4681
2026-01-05 09:20:19.91	36.91	41.96	-39.1	-41.3	16.9	0.00e+00	0	56	0	594542592	50	4487
2026-01-05 09:20:20.92	36.47	41.84	-39.2	-41.5	16.7	0.00e+00	0	56	0	596639744	50	4582
2026-01-05 09:20:21.92	36.02	41.71	-38.9	-41.0	17.2	0.00e+00	0	56	0	598736896	49	4587
2026-01-05 09:20:22.94	35.58	41.59	-38.5	-40.6	17.6	0.00e+00	0	56	0	600834048	49	4352
2026-01-05 09:20:23.95	35.14	41.46	-38.4	-40.4	17.9	0.00e+00	0	56	0	601882624	48	4505
2026-01-05 09:20:24.96	34.70	41.33	-38.4	-40.3	17.9	0.00e+00	0	56	0	603979776	48	4489
2026-01-05 09:20:25.96	34.27	41.21	-37.9	-39.8	18.3	0.00e+00	0	56	0	606076928	47	4470
2026-01-05 09:20:26.97	33.85	41.08	-38.6	-40.6	17.5	0.00e+00	0	56	0	608174080	47	4924
2026-01-05 09:20:27.98	33.42	40.94	-38.9	-41.0	17.2	0.00e+00	0	56	0	610271232	48	4868
2026-01-05 09:20:28.99	33.00	40.81	-38.8	-40.9	17.3	0.00e+00	0	56	0	611319808	48	4800
2026-01-05 09:20:30.00	32.58	40.68	-38.5	-40.5	17.7	0.00e+00	0	56	0	613416960	48	4584
2026-01-05 09:20:31.01	32.17	40.54	-38.3	-40.2	18.0	0.00e+00	0	56	0	615514112	48	4434
2026-01-05 09:20:32.02	31.75	40.41	-38.7	-40.8	17.5	0.00e+00	0	56	0	617611264	48	4719
2026-01-05 09:20:33.03	31.35	40.27	-38.9	-41.1	17.1	0.00e+00	0	56	0	619708416	48	4900
2026-01-05 09:20:34.04	30.94	40.13	-38.9	-41.0	17.2	0.00e+00	0	56	0	620756992	48	4851
2026-01-05 09:20:35.04	30.55	39.99	-39.3	-41.7	16.6	0.00e+00	0	56	0	622854144	49	4945
2026-01-05 09:20:36.05	30.15	39.85	-40.1	-42.7	15.6	0.00e+00	0	56	0	624951296	50	5276
2026-01-05 09:20:37.06	29.75	39.71	-40.6	-43.5	14.8	0.00e+00	0	56	0	627048448	51	5441
2026-01-05 09:20:38.07	29.36	39.57	-40.4	-43.2	15.1	0.00e+00	0	56	0	629145600	51	5227
2026-01-05 09:20:39.08	28.98	39.42	-39.8	-42.2	16.1	0.00e+00	0	56	0	630194176	51	4679
2026-01-05 09:20:40.09	28.59	39.28	-39.8	-42.2	16.2	0.00e+00	0	56	0	632291328	51	4691
2026-01-05 09:20:41.10	28.21	39.13	-39.9	-42.5	15.9	0.00e+00	0	56	0	634388480	51	4827
2026-01-05 09:20:42.11	27.84	38.99	-40.1	-42.7	15.7	0.00e+00	0	56	0	636485632	51	4940
2026-01-05 09:20:43.12	27.46	38.84	-39.9	-42.4	15.9	0.00e+00	0	56	0	638582784	51	4779
2026-01-05 09:20:44.13	27.09	38.69	-40.2	-42.9	15.4	0.00e+00	0	56	0	639631360	51	5066
2026-01-05 09:20:45.14	26.73	38.54	-40.1	-42.7	15.6	0.00e+00	0	56	0	641728512	51	4949
2026-01-05 09:20:46.15	26.36	38.39	-40.1	-42.8	15.6	0.00e+00	0	56	0	643825664	51	4984
2026-01-05 09:20:47.16	26.01	38.24	-39.9	-42.5	15.9	0.00e+00	0	56	0	645922816	51	4826
2026-01-05 09:20:48.17	25.65	38.09	-40.0	-42.5	15.9	0.00e+00	0	56	0	648019968	51	4840
2026-01-05 09:20:49.18	25.30	37.94	-40.2	-42.8	15.5	0.00e+00	0	56	0	649068544	51	5030
2026-01-05 09:20:50.19	24.95	37.79	-40.5	-43.4	15.0	0.00e+00	0	56	0	651165696	51	5350
2026-01-05 09:20:51.20	24.60	37.64	-40.2	-42.9	15.4	0.00e+00	0	56	0	653262848	51	5061
2026-01-05 09:20:52.20	24.26	37.49	-39.8	-42.2	16.2	0.00e+00	0	56	0	655360000	51	4663
2026-01-05 09:20:53.21	23.92	37.34	-39.4	-41.7	16.7	0.00e+00	0	56	0	657457152	50	4660
2026-01-05 09:20:54.22	23.58	37.18	-39.6	-42.0	16.4	0.00e+00	0	56	0	659554304	50	4828
2026-01-05 09:20:55.23	23.25	37.03	-39.9	-42.3	16.1	0.00e+00	0	56	0	660602880	50	4996
2026-01-05 09:20:56.24	22.92	36.88	-40.0	-42.5	15.9	0.00e+00	0	56	0	662700032	50	5120
2026-01-05 09:20:57.25	22.59	36.72	-40.5	-43.3	15.0	0.00e+00	0	56	0	664797184	51	5286
2026-01-05 09:20:58.26	22.27	36.57	-41.0	-44.2	14.0	7.00e-07	0	56	0	666894336	52	5551
2026-01-05 09:20:59.27	21.95	36.41	-41.3	-44.7	13.5	1.22e-05	0	56	0	668991488	53	5544
2026-01-05 09:21:00.28	21.63	36.26	-41.4	-44.8	13.4	2.59e-05	0	56	0	670040064	53	5644
2026-01-05 09:21:01.29	21.31	36.10	-40.9	-44.0	14.1	5.30e-06	0	56	0	672137216	53	5147
2026-01-05 09:21:02.30	21.00	35.94	-40.9	-44.0	14.2	7.00e-07	0	56	0	674234368	53	5121
2026-01-05 09:21:03.30	20.69	35.79	-41.3	-44.8	13.4	1.29e-05	0	56	0	676331520	53	5594
2026-01-05 09:21:04.31	20.39	35.63	-41.9	-46.0	12.2	7.70e-05	0	56	0	678428672	54	6105
2026-01-05 09:21:05.32	20.09	35.48	-42.1	-46.3	11.9	5.61e-04	0	56	0	679477248	54	6318
2026-01-05 09:21:06.33	19.79	35.32	-41.8	-45.8	12.4	2.91e-04	0	56	0	681574400	55	5593
2026-01-05 09:21:07.34	19.49	35.16	-42.1	-46.4	11.8	5.18e-04	0	56	0	683671552	55	6007
2026-01-05 09:21:08.35	19.19	35.01	-42.5	-47.3	10.8	8.71e-04	0	56	0	685768704	55	6689
2026-01-05 09:21:09.36	18.90	34.85	-42.7	-47.5	10.6	5.03e-03	0	56	0	687865856	56	6482
2026-01-05 09:21:10.37	18.61	34.69	-42.4	-46.9	11.4	2.81e-03	0	56	0	688914432	56	6011
2026-01-05 09:21:11.38	18.33	34.54	-41.6	-45.3	12.9	3.20e-04	0	56	0	691011584	55	5316
2026-01-05 09:21:12.39	18.04	34.38	-41.4	-44.9	13.3	6.80e-06	0	56	0	693108736	54	5357
2026-01-05 09:21:13.40	17.76	34.22	-41.9	-45.8	12.5	7.09e-05	0	56	0	695205888	54	5937
2026-01-05 09:21:14.41	17.49	34.07	-42.5	-47.3	10.8	7.35e-04	0	56	0	697303040	55	6658
2026-01-05 09:21:15.42	17.21	33.91	-43.2	-48.8	9.3	1.38e-02	0	56	0	698351616	56	7533
2026-01-05 09:21:16.43	16.94	33.75	-42.9	-47.8	10.3	1.57e-02	0	56	0	700448768	57	6342
2026-01-05 09:21:17.44	16.67	33.60	-42.6	-47.3	10.9	4.08e-03	0	56	0	702545920	57	5977
2026-01-05 09:21:18.45	16.40	33.44	-42.5	-46.9	11.3	1.31e-03	0	56	0	704643072	56	6045
2026-01-05 09:21:19.46	16.14	33.28	-42.4	-46.9	11.5	1.40e-03	0	56	0	706740224	56	6002
2026-01-05 09:21:20.47	15.88	33.13	-42.5	-47.0	11.2	1.26e-03	0	56	0	707788800	56	6113
2026-01-05 09:21:21.48	15.62	32.97	-42.4	-46.8	11.4	8.33e-04	0	56	0	709885952	56	5957
2026-01-05 09:21:22.49	15.36	32.81	-42.0	-46.0	12.3	3.43e-04	0	56	0	711983104	56	5436
2026-01-05 09:21:23.50	15.11	32.66	-42.5	-47.1	11.2	7.93e-04	0	56	0	714080256	56	6139
2026-01-05 09:21:24.51	14.85	32.50	-42.3	-46.5	11.8	1.23e-03	0	56	0	716177408	56	5756
2026-01-05 09:21:25.52	14.60	32.35	-42.2	-46.3	12.0	3.01e-04	0	56	0	717225984	56	5628
2026-01-05 09:21:26.53	14.36	32.19	-41.3	-44.8	13.5	3.96e-05	0	56	0	719323136	54	5284
2026-01-05 09:21:27.54	14.11	32.04	-41.3	-44.7	13.5	3.80e-06	0	56	0	721420288	53	5559
2026-01-05 09:21:28.55	13.87	31.88	-40.9	-44.1	14.1	2.20e-06	0	56	0	723517440	53	5180
2026-01-05 09:21:29.56	13.63	31.73	-41.1	-44.3	13.9	5.30e-06	0	56	0	725614592	53	5324
2026-01-05 09:21:30.57	13.39	31.57	-41.3	-44.7	13.4	1.06e-05	0	56	0	727711744	53	5563
2026-01-05 09:21:31.58	13.16	31.42	-41.9	-46.0	12.1	1.66e-04	0	56	0	728760320	54	6122
2026-01-05 09:21:32.59	12.92	31.26	-42.0	-46.3	11.8	5.05e-04	0	56	0	730857472	54	6278
2026-01-05 09:21:33.60	12.69	31.11	-42.0	-46.1	11.9	3.50e-04	0	56	0	732954624	54	6198
2026-01-05 09:21:34.60	12.47	30.96	-41.9	-46.0	12.1	1.81e-04	0	56	0	735051776	54	6081
2026-01-05 09:21:35.61	12.24	30.81	-41.9	-46.1	12.0	9.91e-05	0	56	0	737148928	54	6136
2026-01-05 09:21:36.62	12.02	30.65	-41.8	-45.8	12.3	2.47e-04	0	56	0	738197504	54	5938
2026-01-05 09:21:37.63	11.79	30.50	-41.6	-45.3	12.9	1.27e-04	0	56	0	740294656	54	5621
2026-01-05 09:21:38.64	11.57	30.35	-41.7	-45.4	12.7	1.12e-04	0	56	0	742391808	54	5705
2026-01-05 09:21:39.65	11.36	30.20	-41.5	-45.0	13.1	4.50e-05	0	56	0	744488960	54	5449
2026-01-05 09:21:40.66	11.14	30.05	-41.3	-44.6	13.5	2.51e-05	0	56	0	746586112	54	5201
2026-01-05 09:21:41.67	10.93	29.89	-40.9	-44.0	14.2	3.80e-06	0	56	0	747634688	53	5129
2026-01-05 09:21:42.68	10.71	29.74	-40.9	-44.0	14.2	1.50e-06	0	56	0	749731840	53	5118
2026-01-05 09:21:43.69	10.50	29.59	-40.9	-44.0	14.2	3.80e-06	0	56	0	751828992	53	5103
2026-01-05 09:21:44.70	10.30	29.44	-41.0	-44.3	13.8	8.30e-06	0	56	0	753926144	53	5296
2026-01-05 09:21:45.71	10.09	29.29	-41.3	-44.8	13.2	8.30e-06	0	56	0	756023296	53	5645
2026-01-05 09:21:46.72	9.89	29.14	-41.7	-45.5	12.6	6.79e-05	0	56	0	757071872	53	6096
2026-01-05 09:21:47.73	9.68	29.00	-41.6	-45.3	12.8	5.79e-05	0	56	0	759169024	54	5599
2026-01-05 09:21:48.74	9.48	28.85	-41.3	-44.9	13.2	3.58e-05	0	56	0	761266176	54	5342
2026-01-05 09:21:49.75	9.29	28.70	-40.9	-44.0	14.1	4.50e-06	0	56	0	763363328	53	5129
2026-01-05 09:21:50.76	9.09	28.55	-40.8	-43.9	14.1	1.50e-06	0	56	0	765460480	53	5086
2026-01-05 09:21:51.77	8.89	28.40	-40.5	-43.3	14.8	0.00e+00	0	56	0	766509056	52	5002
2026-01-05 09:21:52.78	8.70	28.26	-40.3	-43.1	15.0	0.00e+00	0	56	0	768606208	52	4882
2026-01-05 09:21:53.78	8.51	28.11	-40.4	-43.2	14.9	0.00e+00	0	56	0	770703360	52	4946
2026-01-05 09:21:54.79	8.32	27.97	-40.8	-43.9	14.3	1.50e-06	0	56	0	772800512	52	5342
2026-01-05 09:21:55.80	8.14	27.82	-41.1	-44.4	13.7	2.20e-06	0	56	0	774897664	52	5687
2026-01-05 09:21:56.82	7.95	27.67	-41.7	-45.6	12.5	2.67e-05	0	56	0	775946240	54	5818
2026-01-05 09:21:57.83	7.76	27.53	-42.1	-46.3	11.7	5.75e-04	0	56	0	778043392	54	6345
2026-01-05 09:21:58.84	7.58	27.38	-42.4	-47.0	11.0	1.39e-03	0	56	0	780140544	55	6477
2026-01-05 09:21:59.85	7.40	27.24	-42.4	-47.0	11.0	1.89e-03	0	56	0	782237696	55	6471
2026-01-05 09:22:00.86	7.22	27.10	-42.3	-46.7	11.2	1.13e-03	0	56	0	784334848	55	6273
2026-01-05 09:22:01.87	7.04	26.95	-42.1	-46.3	11.7	6.24e-04	0	56	0	785383424	55	5970
2026-01-05 09:22:02.88	6.87	26.81	-41.3	-44.8	13.2	9.46e-05	0	56	0	787480576	54	5321
2026-01-05 09:22:03.89	6.69	26.67	-41.3	-44.8	13.3	2.05e-05	0	57	0	789577728	54	5294
2026-01-05 09:22:04.89	6.52	26.53	-41.0	-44.3	13.7	6.10e-06	0	56	0	791674880	53	5320
2026-01-05 09:22:05.90	6.35	26.39	-41.0	-44.2	13.8	5.30e-06	0	56	0	793772032	53	5252
2026-01-05 09:22:06.91	6.18	26.25	-40.8	-43.9	14.1	0.00e+00	0	56	0	795869184	53	5089
2026-01-05 09:22:07.93	6.01	26.11	-41.1	-44.5	13.6	6.80e-06	0	56	0	796917760	53	5411
2026-01-05 09:22:08.93	5.85	25.97	-41.1	-44.4	13.7	8.30e-06	0	56	0	799014912	53	5356
2026-01-05 09:22:09.95	5.68	25.83	-41.0	-44.3	13.8	6.10e-06	0	56	0	801112064	53	5291
2026-01-05 09:22:10.95	5.52	25.69	-41.2	-44.6	13.4	1.67e-05	0	56	0	803209216	53	5476
2026-01-05 09:22:11.97	5.36	25.55	-41.2	-44.7	13.4	1.67e-05	0	56	0	805306368	53	5548
2026-01-05 09:22:12.97	5.20	25.41	-41.1	-44.4	13.6	1.60e-05	0	57	0	806354944	53	5384
2026-01-05 09:22:13.98	5.04	25.27	-41.2	-44.6	13.4	9.10e-06	0	56	0	808452096	53	5474
2026-01-05 09:22:15.00	4.88	25.14	-41.3	-44.8	13.1	2.05e-05	0	56	0	810549248	53	5650
2026-01-05 09:22:16.01	4.72	25.00	-41.3	-44.9	13.1	2.67e-05	0	56	0	812646400	53	5680
2026-01-05 09:22:17.01	4.57	24.86	-41.7	-45.6	12.4	1.43e-04	0	56	0	814743552	53	6138
2026-01-05 09:22:18.02	4.41	24.73	-42.0	-46.2	11.7	2.59e-04	0	56	0	815792128	54	6265
2026-01-05 09:22:19.03	4.26	24.59	-42.1	-46.5	11.5	7.24e-04	0	56	0	817889280	54	6485
2026-01-05 09:22:20.04	4.11	24.46	-42.0	-46.2	11.7	8.64e-04	0	56	0	819986432	54	6242
2026-01-05 09:22:21.05	3.96	24.33	-41.8	-45.9	11.9	3.46e-04	0	56	0	822083584	54	6054
2026-01-05 09:22:22.06	3.81	24.19	-41.5	-45.2	12.8	1.81e-04	0	56	0	824180736	54	5548
2026-01-05 09:22:23.07	3.67	24.06	-41.2	-44.6	13.3	4.65e-05	0	56	0	825229312	54	5207
2026-01-05 09:22:24.08	3.52	23.93	-40.9	-44.1	13.8	5.30e-06	0	56	0	827326464	53	5177
2026-01-05 09:22:25.09	3.38	23.79	-40.7	-43.8	14.2	7.00e-07	0	56	0	829423616	53	5034
2026-01-05 09:22:26.10	3.23	23.66	-40.7	-43.8	14.2	0.00e+00	0	57	0	831520768	53	5010
2026-01-05 09:22:27.11	3.09	23.53	-40.5	-43.5	14.4	0.00e+00	0	56	0	833617920	52	5149
2026-01-05 09:22:28.12	2.95	23.40	-40.7	-43.8	14.1	7.00e-07	0	56	0	834666496	52	5314
2026-01-05 09:22:29.13	2.81	23.27	-40.7	-43.8	14.2	1.50e-06	0	56	0	836763648	52	5292
2026-01-05 09:22:30.14	2.67	23.14	-40.8	-44.0	14.0	1.50e-06	0	56	0	838860800	52	5406
2026-01-05 09:22:31.15	2.53	23.01	-40.7	-43.8	14.1	5.30e-06	0	56	0	840957952	52	5299
2026-01-05 09:22:32.16	2.40	22.88	-40.8	-44.1	13.8	5.30e-06	0	56	0	843055104	52	5497
2026-01-05 09:22:33.17	2.26	22.75	-40.8	-44.0	13.9	7.00e-07	0	56	0	844103680	52	5438
2026-01-05 09:22:34.18	2.13	22.62	-40.8	-44.0	14.0	3.00e-06	0	57	0	846200832	52	5435
2026-01-05 09:22:35.19	1.99	22.50	-40.9	-44.2	13.7	7.60e-06	0	56	0	848297984	52	5567
2026-01-05 09:22:36.19	1.86	22.37	-40.8	-44.2	13.7	6.10e-06	0	56	0	850395136	52	5530
2026-01-05 09:22:37.20	1.73	22.24	-40.8	-44.1	13.8	5.30e-06	0	56	0	852492288	52	5474
2026-01-05 09:22:38.21	1.60	22.12	-40.7	-43.9	13.9	4.50e-06	0	56	0	853540864	52	5390
2026-01-05 09:22:39.22	1.48	21.99	-40.6	-43.7	14.1	3.00e-06	0	57	0	855638016	52	5252
2026-01-05 09:22:40.23	1.35	21.87	-40.4	-43.4	14.5	1.50e-06	0	56	0	857735168	52	5060
2026-01-05 09:22:41.24	1.22	21.74	-40.3	-43.3	14.6	7.00e-07	0	56	0	859832320	52	4992
2026-01-05 09:22:42.25	1.10	21.62	-40.0	-42.8	15.0	0.00e+00	0	56	0	861929472	52	4739
2026-01-05 09:22:43.26	0.97	21.49	-40.2	-43.1	14.8	0.00e+00	0	56	0	864026624	52	4893
2026-01-05 09:22:44.27	0.85	21.37	-40.4	-43.3	14.5	0.00e+00	0	56	0	865075200	52	5040
2026-01-05 09:22:45.28	0.73	21.25	-40.7	-43.9	13.9	0.00e+00	0	56	0	867172352	52	5381
2026-01-05 09:22:46.29	0.61	21.12	-41.1	-44.6	13.2	9.90e-06	0	56	0	869269504	52	5814
2026-01-05 09:22:47.30	0.49	21.00	-41.5	-45.4	12.4	7.17e-05	0	56	0	871366656	53	6025
2026-01-05 09:22:48.31	0.37	20.88	-41.8	-46.0	11.7	2.97e-04	0	56	0	873463808	54	6090
2026-01-05 09:22:49.32	0.25	20.76	-42.0	-46.5	11.2	1.28e-03	0	56	0	874512384	54	6458
2026-01-05 09:22:50.33	0.13	20.64	-42.0	-46.6	11.1	1.62e-03	0	56	0	876609536	54	6556
2026-01-05 09:22:51.34	0.01	20.52	-41.8	-46.2	11.5	1.24e-03	0	56	0	878706688	54	6269
2026-01-05 09:22:52.35	359.90	20.40	-41.7	-46.0	11.7	6.03e-04	0	56	0	880803840	54	6100
2026-01-05 09:22:53.36	359.78	20.28	-41.6	-45.6	12.1	3.91e-04	0	56	0	882900992	54	5842
2026-01-05 09:22:54.37	359.67	20.16	-41.4	-45.4	12.3	1.93e-04	0	57	0	883949568	54	5681
2026-01-05 09:22:55.38	359.56	20.04	-41.3	-45.1	12.5	1.90e-04	0	56	0	886046720	54	5513
2026-01-05 09:22:56.39	359.45	19.92	-41.2	-44.9	12.7	9.53e-05	0	57	0	888143872	54	5397
2026-01-05 09:22:57.40	359.34	19.81	-41.1	-44.7	13.0	5.03e-05	0	57	0	890241024	54	5246
2026-01-05 09:22:58.41	359.23	19.69	-41.0	-44.5	13.1	3.35e-05	0	56	0	892338176	53	5439
2026-01-05 09:22:59.42	359.12	19.57	-41.1	-44.7	12.9	6.33e-05	0	57	0	893386752	53	5547
2026-01-05 09:23:00.43	359.01	19.46	-41.0	-44.5	13.0	2.28e-05	0	56	0	895483904	53	5463
2026-01-05 09:23:01.44	358.90	19.34	-40.8	-44.3	13.4	2.21e-05	0	57	0	897581056	53	5284
2026-01-05 09:23:02.45	358.79	19.23	-40.8	-44.2	13.4	1.75e-05	0	57	0	899678208	53	5233
2026-01-05 09:23:03.46	358.69	19.11	-40.7	-44.1	13.5	1.29e-05	0	56	0	901775360	53	5191
2026-01-05 09:23:04.47	358.58	19.00	-40.7	-44.1	13.4	1.60e-05	0	56	0	902823936	53	5177
2026-01-05 09:23:05.48	358.48	18.88	-40.6	-44.0	13.5	1.60e-05	0	56	0	904921088	53	5110
2026-01-05 09:23:06.49	358.37	18.77	-40.5	-43.8	13.6	8.30e-06	0	57	0	907018240	52	5340
2026-01-05 09:23:07.50	358.27	18.66	-40.4	-43.7	13.7	3.00e-06	0	57	0	909115392	52	5239
2026-01-05 09:23:08.50	358.17	18.54	-40.5	-43.8	13.6	4.50e-06	0	56	0	911212544	52	5338
2026-01-05 09:23:09.51	358.07	18.43	-40.5	-43.8	13.6	6.10e-06	0	57	0	912261120	52	5312
2026-01-05 09:23:10.52	357.97	18.32	-40.4	-43.8	13.5	1.22e-05	0	57	0	914358272	52	5310
2026-01-05 09:23:11.53	357.87	18.21	-40.6	-44.0	13.4	9.10e-06	0	56	0	916455424	52	5443
2026-01-05 09:23:12.54	357.77	18.10	-40.4	-43.7	13.5	1.44e-05	0	57	0	918552576	52	5271
2026-01-05 09:23:13.55	357.67	17.99	-40.4	-43.7	13.5	1.67e-05	0	56	0	920649728	52	5269
2026-01-05 09:23:14.56	357.58	17.88	-40.5	-43.9	13.3	1.44e-05	0	57	0	921698304	52	5401
2026-01-05 09:23:15.57	357.48	17.77	-40.3	-43.6	13.5	7.60e-06	0	57	0	923795456	52	5215
2026-01-05 09:23:16.58	357.38	17.66	-40.3	-43.6	13.5	6.10e-06	0	57	0	925892608	52	5216
2026-01-05 09:23:17.59	357.29	17.55	-40.3	-43.8	13.3	1.83e-05	0	56	0	927989760	52	5307
2026-01-05 09:23:18.60	357.19	17.44	-40.3	-43.8	13.2	1.67e-05	0	57	0	930086912	52	5311
2026-01-05 09:23:19.61	357.10	17.33	-40.3	-43.8	13.2	1.52e-05	0	57	0	931135488	52	5313
2026-01-05 09:23:20.62	357.01	17.22	-40.3	-43.9	13.0	3.66e-05	0	56	0	933232640	52	5402
2026-01-05 09:23:21.63	356.92	17.11	-40.3	-44.0	13.0	4.27e-05	0	57	0	935329792	52	5409
2026-01-05 09:23:22.64	356.82	17.01	-40.4	-44.2	12.7	8.31e-05	0	56	0	937426944	52	5535
2026-01-05 09:23:23.65	356.73	16.90	-40.5	-44.5	12.1	1.34e-04	0	57	0	939524096	52	5775
2026-01-05 09:23:24.66	356.64	16.79	-40.6	-44.8	11.8	2.83e-04	0	57	0	941621248	52	5959
2026-01-05 09:23:25.67	356.55	16.69	-40.5	-44.6	11.9	4.34e-04	0	57	0	942669824	52	5829
2026-01-05 09:23:26.68	356.46	16.58	-40.7	-45.2	11.1	9.37e-04	0	57	0	944766976	52	6254
2026-01-05 09:23:27.69	356.38	16.48	-40.6	-45.2	10.9	2.66e-03	0	57	0	946864128	52	6237
2026-01-05 09:23:28.70	356.29	16.37	-40.7	-45.8	10.0	4.60e-03	0	57	0	948961280	52	6672
2026-01-05 09:23:29.71	356.20	16.27	-40.7	-46.2	9.5	1.07e-02	0	56	0	951058432	52	7007
2026-01-05 09:23:30.72	356.11	16.16	-40.8	-46.7	8.7	2.48e-02	0	57	0	952107008	52	7441
2026-01-05 09:23:31.73	356.03	16.06	-40.9	-47.4	7.9	5.86e-02	0	56	0	954204160	52	8073
2026-01-05 09:23:32.74	355.94	15.96	-40.9	-48.0	7.1	1.21e-01	0	56	0	956301312	52	8646
2026-01-05 09:23:33.75	355.86	15.85	-41.0	-48.9	6.2	2.03e-01	0	56	0	958398464	52	9530
2026-01-05 09:23:34.76	355.77	15.75	-41.0	-49.6	5.6	4.10e-01	0	56	0	960495616	52	10356
2026-01-05 09:23:35.77	355.69	15.65	-40.9	-50.5	4.9	6.25e-01	0	56	0	961544192	52	11494
2026-01-05 09:23:36.78	355.61	15.55	-40.9	-51.2	4.6	8.55e-01	0	57	0	963641344	52	12431
2026-01-05 09:23:37.79	355.53	15.45	-40.8	-51.9	4.2	1.21e+00	0	57	0	964689920	52	13506
2026-01-05 09:23:38.80	355.44	15.35	-40.8	-52.6	4.0	1.44e+00	0	57	0	964689920	52	14659
2026-01-05 09:23:39.81	355.36	15.24	-40.7	-53.2	3.8	1.48e+00	0	57	104	964689920	52	15751
2026-01-05 09:23:40.82	355.28	15.14	-40.6	-53.7	3.8	1.49e+00	0	56	104	964689920	52	16667
2026-01-05 09:23:41.83	355.20	15.04	-40.6	-54.0	3.8	1.49e+00	0	57	104	964689920	52	17182
2026-01-05 09:23:42.84	355.12	14.94	-40.5	-54.3	3.8	1.49e+00	0	56	104	964689920	52	17774
2026-01-05 09:23:43.85	355.05	14.84	-40.5	-54.5	3.8	1.49e+00	0	56	104	964689920	52	18104
2026-01-05 09:23:44.86	354.97	14.75	-40.4	-54.5	3.8	1.49e+00	0	57	104	964689920	52	18259
2026-01-05 09:23:45.87	354.89	14.65	-40.4	-54.6	3.8	1.49e+00	0	56	104	964689920	52	18481
2026-01-05 09:23:46.88	354.81	14.55	-40.4	-54.8	3.8	1.49e+00	0	57	104	964689920	52	18765
2026-01-05 09:23:47.89	354.74	14.45	-40.6	-55.0	3.8	1.49e+00	0	57	104	964689920	52	19383
2026-01-05 09:23:48.90	354.66	14.35	-40.3	-54.8	3.8	1.49e+00	0	57	104	964689920	52	18826
2026-01-05 09:23:49.91	354.58	14.26	-40.6	-54.9	3.8	1.49e+00	0	56	104	964689920	52	19039
2026-01-05 09:23:50.92	354.51	14.16	-40.2	-54.8	3.8	1.49e+00	0	57	104	964689920	52	18755
2026-01-05 09:23:51.93	354.43	14.06	-40.5	-54.9	3.8	1.49e+00	0	57	104	964689920	52	18974
2026-01-05 09:23:52.94	354.36	13.97	-40.3	-54.8	3.8	1.49e+00	0	56	104	964689920	52	18837
2026-01-05 09:23:53.95	354.29	13.87	-40.2	-54.8	3.8	1.49e+00	0	57	104	964689920	52	18740
2026-01-05 09:23:54.96	354.21	13.77	-40.3	-54.9	3.8	1.49e+00	0	56	104	964689920	52	18995
2026-01-05 09:23:55.97	354.14	13.68	-40.1	-54.7	3.8	1.49e+00	0	57	104	964689920	52	18663
2026-01-05 09:23:56.98	354.07	13.58	-40.1	-54.7	3.8	1.49e+00	0	57	104	964689920	52	18707
2026-01-05 09:23:57.99	354.00	13.49	-40.4	-54.9	3.8	1.49e+00	0	56	104	964689920	52	19005
2026-01-05 09:23:59.00	353.93	13.40	-40.0	-54.8	3.8	1.49e+00	0	57	104	964689920	52	18736
2026-01-05 09:24:00.01	353.86	13.30	-40.4	-54.9	3.8	1.49e+00	0	57	104	964689920	52	18972
2026-01-05 09:24:01.02	353.79	13.21	-40.3	-54.9	3.8	1.49e+00	0	57	104	964689920	52	19152
2026-01-05 09:24:02.03	353.72	13.11	-40.1	-54.7	3.8	1.49e+00	0	57	104	964689920	52	18579
2026-01-05 09:24:03.04	353.65	13.02	-40.4	-55.0	3.8	1.49e+00	0	57	104	964689920	52	19219
2026-01-05 09:24:04.05	353.58	12.93	-40.1	-54.7	3.8	1.49e+00	0	56	104	964689920	52	18593
2026-01-05 09:24:05.05	353.51	12.84	-39.9	-55.0	3.8	1.49e+00	0	57	104	964689920	51	20309
2026-01-05 09:24:06.06	353.44	12.75	-40.3	-54.8	3.8	1.49e+00	0	57	104	964689920	51	19928
2026-01-05 09:24:07.08	353.37	12.65	-40.0	-55.0	3.8	1.49e+00	0	57	104	964689920	51	20468
2026-01-05 09:24:08.09	353.31	12.56	-40.3	-54.8	3.8	1.49e+00	0	56	104	964689920	51	19923
2026-01-05 09:24:09.09	353.24	12.47	-40.5	-55.1	3.8	1.49e+00	0	56	104	964689920	51	20633
2026-01-05 09:24:10.10	353.17	12.38	-39.9	-54.7	3.8	1.49e+00	0	56	104	964689920	51	19698
2026-01-05 09:24:11.11	353.11	12.29	-40.4	-55.1	3.8	1.49e+00	0	57	104	964689920	51	20696
2026-01-05 09:24:12.12	353.04	12.20	-39.8	-54.7	3.8	1.49e+00	0	57	104	964689920	51	19673
2026-01-05 09:24:13.13	352.98	12.11	-40.3	-55.1	3.8	1.49e+00	0	56	104	964689920	51	20667
2026-01-05 09:24:14.15	352.91	12.02	-40.1	-54.8	3.8	1.49e+00	0	56	104	964689920	51	20047
2026-01-05 09:24:15.16	352.85	11.93	-40.4	-55.1	3.8	1.49e+00	0	57	104	964689920	51	20558
2026-01-05 09:24:16.17	352.79	11.84	-40.0	-54.9	3.8	1.49e+00	0	57	104	964689920	51	20082
2026-01-05 09:24:17.18	352.72	11.75	-40.5	-55.1	3.8	1.49e+00	0	57	104	964689920	51	20670
2026-01-05 09:24:18.19	352.66	11.66	-39.9	-54.7	3.8	1.49e+00	0	57	104	964689920	51	19729
2026-01-05 09:24:19.20	352.60	11.57	-40.5	-55.1	3.8	1.49e+00	0	57	104	964689920	51	20758
2026-01-05 09:24:20.21	352.54	11.49	-40.1	-54.7	3.8	1.49e+00	0	57	104	964689920	51	19725
2026-01-05 09:24:21.21	352.48	11.40	-40.3	-54.9	3.8	1.49e+00	0	57	104	964689920	51	20136
