passes_logs/2026/01/05/R2.0S_Moscow/R2.0S_Moscow__20260105_235555_AQUA_rec.log

#Pass ID: 20260105_235555_AQUA
#Satellite: AQUA
#Configuration: AQUA
#almurnet v.1.7.20251203
#Start time: 2026-01-05 23:55:56

#Version: 2.2.20231116
#Station: R2.0S_Moscow
#Location: 37.707566 lon 55.798166 lat
#TLE: 1 27424U 02022A   26004.96787593  .00001598  00000+0  32997-3 0  9996
#TLE: 2 27424  98.4069 331.2279 0002002  90.2377   0.6092 14.61798176259425

#Time	Az	El	Level	Level2	SNR	BER	BlckErr	Temp	State	Recorded	gain1	gain2
2026-01-05 23:55:56.10	26.90	2.03	-42.3	-62.0	3.8	7.46e-01	0	47	0	0	56	34122
2026-01-05 23:55:57.10	26.98	2.09	-42.1	-61.9	3.8	7.43e-01	0	48	104	0	54	37857
2026-01-05 23:55:58.11	27.07	2.15	-42.1	-61.8	3.8	7.44e-01	0	48	104	0	54	37789
2026-01-05 23:55:59.12	27.15	2.20	-42.1	-61.8	3.8	7.47e-01	0	48	104	0	54	37760
2026-01-05 23:56:00.14	27.23	2.26	-42.1	-61.8	3.8	7.44e-01	0	48	104	0	54	37751
2026-01-05 23:56:01.15	27.31	2.32	-42.1	-61.8	3.8	7.43e-01	0	48	104	0	54	37806
2026-01-05 23:56:02.16	27.40	2.38	-42.1	-61.9	3.8	7.46e-01	0	48	104	0	54	37854
2026-01-05 23:56:03.17	27.48	2.43	-42.1	-61.9	3.8	7.45e-01	0	48	104	0	54	37893
2026-01-05 23:56:04.18	27.56	2.49	-42.1	-61.9	3.8	7.46e-01	0	48	104	0	54	37876
2026-01-05 23:56:05.19	27.65	2.55	-42.1	-61.9	3.8	7.46e-01	0	48	104	0	54	37902
2026-01-05 23:56:06.20	27.73	2.61	-42.1	-61.9	3.8	7.47e-01	0	48	104	0	54	37878
2026-01-05 23:56:07.21	27.82	2.66	-42.1	-61.9	3.8	7.47e-01	0	48	104	0	54	37885
2026-01-05 23:56:08.22	27.90	2.72	-42.1	-61.8	3.8	7.45e-01	0	48	104	0	54	37769
2026-01-05 23:56:09.24	27.99	2.78	-42.1	-61.8	3.8	7.45e-01	0	48	104	0	54	37804
2026-01-05 23:56:10.24	28.07	2.84	-42.1	-61.9	3.8	7.47e-01	0	48	104	0	54	37810
2026-01-05 23:56:11.26	28.16	2.90	-42.1	-61.9	3.8	7.48e-01	0	48	104	0	54	37855
2026-01-05 23:56:12.27	28.24	2.95	-42.1	-61.8	3.8	7.48e-01	0	49	104	0	54	37759
2026-01-05 23:56:13.28	28.33	3.01	-42.1	-61.8	3.8	7.44e-01	0	49	104	0	54	37754
2026-01-05 23:56:14.29	28.42	3.07	-42.1	-61.8	3.8	7.46e-01	0	49	104	0	54	37801
2026-01-05 23:56:15.30	28.51	3.13	-42.1	-61.8	3.8	7.45e-01	0	49	104	0	54	37763
2026-01-05 23:56:16.31	28.59	3.19	-42.1	-61.9	3.8	7.48e-01	0	49	104	0	54	37811
2026-01-05 23:56:17.32	28.68	3.25	-42.1	-61.9	3.8	7.46e-01	0	49	104	0	54	37809
2026-01-05 23:56:18.33	28.77	3.30	-42.1	-61.8	3.8	7.46e-01	0	49	104	0	54	37745
2026-01-05 23:56:19.34	28.86	3.36	-42.1	-61.8	3.8	7.47e-01	0	49	104	0	54	37773
2026-01-05 23:56:20.35	28.95	3.42	-42.1	-61.9	3.8	7.45e-01	0	49	104	0	54	37828
2026-01-05 23:56:21.37	29.04	3.48	-42.1	-61.8	3.8	7.43e-01	0	49	104	0	54	37722
2026-01-05 23:56:22.38	29.13	3.54	-42.1	-61.8	3.8	7.48e-01	0	49	104	0	54	37784
2026-01-05 23:56:23.39	29.22	3.60	-42.1	-61.8	3.8	7.44e-01	0	49	104	0	54	37757
2026-01-05 23:56:24.40	29.31	3.66	-42.1	-61.8	3.8	7.45e-01	0	49	104	0	54	37770
2026-01-05 23:56:25.41	29.40	3.72	-42.1	-61.8	3.8	7.46e-01	0	50	104	0	54	37757
2026-01-05 23:56:26.42	29.49	3.78	-42.1	-61.9	3.8	7.46e-01	0	50	104	0	54	37833
2026-01-05 23:56:27.43	29.58	3.84	-42.1	-61.8	3.8	7.45e-01	0	50	104	0	54	37767
2026-01-05 23:56:28.44	29.68	3.90	-42.1	-61.8	3.8	7.45e-01	0	50	104	0	54	37793
2026-01-05 23:56:29.45	29.77	3.96	-42.1	-61.8	3.8	7.44e-01	0	50	104	0	54	37783
2026-01-05 23:56:30.46	29.86	4.02	-42.1	-61.9	3.8	7.46e-01	0	50	104	0	54	37811
2026-01-05 23:56:31.48	29.96	4.08	-42.0	-61.8	3.8	7.47e-01	0	50	104	0	54	37774
2026-01-05 23:56:32.49	30.05	4.14	-42.1	-61.8	3.8	7.45e-01	0	50	104	0	54	37728
2026-01-05 23:56:33.50	30.14	4.20	-42.1	-61.8	3.8	7.47e-01	0	50	104	0	54	37739
2026-01-05 23:56:34.51	30.24	4.26	-42.1	-61.8	3.8	7.46e-01	0	50	104	0	54	37704
2026-01-05 23:56:35.52	30.33	4.32	-42.1	-61.8	3.8	7.44e-01	0	50	104	0	54	37723
2026-01-05 23:56:36.53	30.43	4.38	-42.1	-61.9	3.8	7.45e-01	0	50	104	0	54	37860
2026-01-05 23:56:37.54	30.53	4.44	-42.1	-61.9	3.8	7.42e-01	0	50	104	0	54	37842
2026-01-05 23:56:38.55	30.62	4.50	-42.1	-61.8	3.8	7.42e-01	0	50	104	0	54	37749
2026-01-05 23:56:39.56	30.72	4.56	-42.1	-61.8	3.8	7.46e-01	0	50	104	0	54	37778
2026-01-05 23:56:40.57	30.82	4.62	-42.1	-61.8	3.8	7.44e-01	0	50	104	0	54	37685
2026-01-05 23:56:41.59	30.91	4.68	-42.1	-61.8	3.8	7.48e-01	0	51	104	0	54	37701
2026-01-05 23:56:42.60	31.01	4.74	-42.1	-61.8	3.8	7.46e-01	0	50	104	0	54	37726
2026-01-05 23:56:43.61	31.11	4.80	-42.1	-61.8	3.8	7.44e-01	0	50	104	0	54	37699
2026-01-05 23:56:44.62	31.21	4.86	-42.1	-61.8	3.8	7.47e-01	0	50	104	0	54	37765
2026-01-05 23:56:45.63	31.31	4.92	-42.1	-61.8	3.8	7.43e-01	0	51	104	0	54	37793
2026-01-05 23:56:46.64	31.41	4.98	-42.1	-61.9	3.8	7.44e-01	0	51	104	0	54	37820
2026-01-05 23:56:47.65	31.51	5.05	-42.1	-61.8	3.8	7.45e-01	0	51	104	0	54	37754
2026-01-05 23:56:48.66	31.61	5.11	-42.1	-61.8	3.8	7.45e-01	0	51	104	0	54	37720
2026-01-05 23:56:49.67	31.71	5.17	-42.1	-61.9	3.8	7.47e-01	0	51	104	0	54	37857
2026-01-05 23:56:50.69	31.81	5.23	-42.1	-61.8	3.8	7.43e-01	0	51	104	0	54	37764
2026-01-05 23:56:51.70	31.92	5.29	-42.1	-61.9	3.8	7.45e-01	0	51	104	0	54	37883
2026-01-05 23:56:52.71	32.02	5.35	-42.1	-61.9	3.8	7.48e-01	0	51	104	0	54	37842
2026-01-05 23:56:53.72	32.12	5.42	-42.1	-61.8	3.8	7.45e-01	0	51	104	0	54	37747
2026-01-05 23:56:54.73	32.22	5.48	-42.1	-61.9	3.8	7.42e-01	0	51	104	0	54	37847
2026-01-05 23:56:55.74	32.33	5.54	-42.1	-61.8	3.8	7.43e-01	0	51	104	0	54	37744
2026-01-05 23:56:56.75	32.43	5.60	-42.1	-61.8	3.8	7.48e-01	0	51	104	0	54	37707
2026-01-05 23:56:57.76	32.54	5.66	-42.1	-61.8	3.8	7.41e-01	0	51	104	0	54	37752
2026-01-05 23:56:58.77	32.64	5.73	-42.1	-61.8	3.8	7.44e-01	0	51	104	0	54	37750
2026-01-05 23:56:59.78	32.75	5.79	-42.1	-61.9	3.8	7.45e-01	0	51	104	0	54	37847
2026-01-05 23:57:00.79	32.85	5.85	-42.1	-61.8	3.8	7.45e-01	0	51	104	0	54	37676
2026-01-05 23:57:01.81	32.96	5.92	-42.1	-61.8	3.8	7.44e-01	0	51	104	0	54	37756
2026-01-05 23:57:02.82	33.07	5.98	-42.2	-61.9	3.8	7.46e-01	0	51	104	0	54	37816
2026-01-05 23:57:03.83	33.18	6.04	-42.1	-61.8	3.8	7.46e-01	0	52	104	0	54	37629
2026-01-05 23:57:04.84	33.28	6.10	-42.1	-61.8	3.8	7.43e-01	0	51	104	0	54	37614
2026-01-05 23:57:05.85	33.39	6.17	-42.1	-61.8	3.8	7.45e-01	0	52	104	0	54	37627
2026-01-05 23:57:06.86	33.50	6.23	-42.1	-61.8	3.8	7.42e-01	0	52	104	0	54	37586
2026-01-05 23:57:07.87	33.61	6.29	-42.1	-61.8	3.8	7.47e-01	0	52	104	0	54	37542
2026-01-05 23:57:08.88	33.72	6.36	-42.2	-61.8	3.8	7.46e-01	0	52	104	0	54	37408
2026-01-05 23:57:09.89	33.83	6.42	-42.1	-61.7	3.8	7.46e-01	0	52	104	0	54	37070
2026-01-05 23:57:10.91	33.94	6.48	-42.1	-61.7	3.8	7.46e-01	0	52	104	0	54	37181
2026-01-05 23:57:11.92	34.05	6.55	-42.2	-61.7	3.8	7.44e-01	0	52	104	0	54	37022
2026-01-05 23:57:12.93	34.17	6.61	-42.1	-61.7	3.8	7.44e-01	0	52	104	0	54	37370
2026-01-05 23:57:13.94	34.28	6.67	-42.1	-61.6	3.8	7.45e-01	0	52	104	0	54	36941
2026-01-05 23:57:14.95	34.39	6.74	-42.1	-61.8	3.8	7.45e-01	0	52	104	0	54	37463
2026-01-05 23:57:15.96	34.51	6.80	-42.1	-61.7	3.8	7.44e-01	0	52	104	0	54	37182
2026-01-05 23:57:16.97	34.62	6.87	-42.1	-61.7	3.8	7.46e-01	0	52	104	0	54	37189
2026-01-05 23:57:17.98	34.73	6.93	-42.1	-61.5	3.8	7.45e-01	0	52	104	0	54	36421
2026-01-05 23:57:19.00	34.85	6.99	-42.1	-61.4	3.8	7.44e-01	0	52	104	0	54	35913
2026-01-05 23:57:20.01	34.97	7.06	-42.1	-61.8	3.8	7.43e-01	0	52	104	0	54	37414
2026-01-05 23:57:21.02	35.08	7.12	-42.1	-61.7	3.8	7.43e-01	0	52	104	0	54	37270
2026-01-05 23:57:22.03	35.20	7.19	-42.1	-61.4	3.8	7.49e-01	0	53	104	0	54	36001
2026-01-05 23:57:23.04	35.32	7.25	-42.1	-61.7	3.8	7.47e-01	0	52	104	0	54	37340
2026-01-05 23:57:24.05	35.43	7.32	-42.1	-61.5	3.8	7.48e-01	0	52	104	0	54	36271
2026-01-05 23:57:25.06	35.55	7.38	-42.1	-61.6	3.8	7.43e-01	0	52	104	0	54	36846
2026-01-05 23:57:26.07	35.67	7.45	-42.1	-61.6	3.8	7.45e-01	0	52	104	0	54	36606
2026-01-05 23:57:27.08	35.79	7.51	-42.2	-61.2	3.8	7.44e-01	0	52	104	0	54	35108
2026-01-05 23:57:28.09	35.91	7.58	-42.1	-59.5	3.8	7.42e-01	0	52	104	0	54	28761
2026-01-05 23:57:29.11	36.03	7.64	-42.0	-58.5	4.1	7.35e-01	0	52	104	0	54	25815
2026-01-05 23:57:30.12	36.15	7.71	-42.0	-56.0	5.1	7.05e-01	15	52	0	0	54	19306
2026-01-05 23:57:31.13	36.28	7.77	-41.8	-53.8	6.7	6.69e-01	90	53	0	1048576	54	14948
2026-01-05 23:57:32.14	36.40	7.84	-41.5	-50.9	9.6	6.21e-01	0	53	0	2621440	54	10721
2026-01-05 23:57:33.15	36.52	7.90	-41.2	-49.1	11.6	6.10e-01	0	53	0	4718592	54	8686
2026-01-05 23:57:34.16	36.64	7.97	-40.6	-46.8	13.9	6.01e-01	0	53	0	6291456	53	7114
2026-01-05 23:57:35.17	36.77	8.03	-40.1	-45.3	15.4	6.00e-01	0	53	0	8388608	52	6319
2026-01-05 23:57:36.18	36.89	8.10	-39.9	-43.5	18.2	6.02e-01	0	53	0	10485760	51	5431
2026-01-05 23:57:37.19	37.02	8.16	-40.4	-52.0	8.0	6.43e-01	75	53	0	12058624	51	14406
2026-01-05 23:57:38.20	37.14	8.23	-41.4	-45.9	16.5	6.02e-01	0	53	0	14155776	54	6016
2026-01-05 23:57:39.20	37.27	8.30	-41.1	-45.1	17.0	6.00e-01	0	53	0	16252928	53	5854
2026-01-05 23:57:40.21	37.40	8.36	-41.7	-48.0	13.4	6.02e-01	0	53	0	17825792	53	8127
2026-01-05 23:57:41.22	37.52	8.43	-40.4	-43.9	18.4	6.00e-01	0	53	0	19922944	52	5363
2026-01-05 23:57:42.23	37.65	8.49	-40.2	-43.6	18.7	6.01e-01	0	53	0	21495808	52	5189
2026-01-05 23:57:43.24	37.78	8.56	-40.0	-43.2	19.2	6.01e-01	0	53	0	23592960	52	4951
2026-01-05 23:57:44.25	37.91	8.63	-40.3	-43.6	18.9	6.02e-01	0	53	0	25690112	51	5496
2026-01-05 23:57:45.26	38.04	8.69	-40.3	-43.5	18.9	6.01e-01	0	53	0	27262976	51	5456
2026-01-05 23:57:46.27	38.17	8.76	-40.1	-43.3	19.2	6.01e-01	0	53	0	29360128	51	5300
2026-01-05 23:57:47.28	38.30	8.83	-40.2	-43.4	19.1	6.00e-01	0	53	0	30932992	51	5376
2026-01-05 23:57:48.29	38.43	8.89	-40.2	-43.3	19.2	6.04e-01	0	53	0	33030144	51	5340
2026-01-05 23:57:49.30	38.57	8.96	-40.1	-43.2	19.3	6.01e-01	0	53	0	34603008	51	5248
2026-01-05 23:57:50.31	38.70	9.03	-40.2	-43.4	19.2	6.00e-01	0	53	0	36700160	51	5393
2026-01-05 23:57:51.32	38.83	9.09	-40.1	-43.2	19.4	6.03e-01	0	53	0	38797312	51	5270
2026-01-05 23:57:52.33	38.97	9.16	-40.2	-43.4	19.3	6.01e-01	0	53	0	40370176	51	5346
2026-01-05 23:57:53.33	39.10	9.23	-40.3	-43.4	19.2	6.02e-01	0	53	0	42467328	51	5383
2026-01-05 23:57:54.34	39.24	9.29	-40.2	-43.2	19.4	6.02e-01	0	53	0	44564480	51	5274
2026-01-05 23:57:55.36	39.38	9.36	-40.0	-42.9	19.8	6.01e-01	0	53	0	46137344	51	5098
2026-01-05 23:57:56.36	39.51	9.43	-40.1	-43.1	19.7	6.02e-01	0	53	0	48234496	51	5177
2026-01-05 23:57:57.37	39.65	9.49	-40.2	-43.1	19.7	6.02e-01	0	53	0	49807360	51	5217
2026-01-05 23:57:58.39	39.79	9.56	-40.1	-42.9	19.9	6.01e-01	0	53	0	51904512	51	5096
2026-01-05 23:57:59.40	39.93	9.63	-40.1	-43.1	19.8	5.98e-01	0	54	0	54001664	51	5160
2026-01-05 23:58:00.41	40.07	9.70	-40.1	-43.0	19.8	5.99e-01	0	54	0	55574528	51	5124
2026-01-05 23:58:01.42	40.21	9.76	-40.1	-43.0	19.7	5.99e-01	0	54	0	57671680	51	5118
2026-01-05 23:58:02.43	40.35	9.83	-40.1	-42.9	19.7	6.01e-01	0	54	0	59768832	51	5083
2026-01-05 23:58:03.43	40.49	9.90	-40.0	-42.8	19.9	6.00e-01	0	54	0	61341696	51	5018
2026-01-05 23:58:04.44	40.63	9.97	-40.1	-42.9	19.9	6.02e-01	0	54	0	63438848	51	5093
2026-01-05 23:58:05.45	40.78	10.03	-40.1	-42.9	20.1	6.00e-01	0	54	0	65011712	51	5080
2026-01-05 23:58:06.46	40.92	10.10	-40.1	-42.9	20.1	6.01e-01	0	54	0	67108864	51	5083
2026-01-05 23:58:07.47	41.06	10.17	-40.1	-42.9	20.1	5.99e-01	0	54	0	69206016	51	5061
2026-01-05 23:58:08.48	41.21	10.24	-40.2	-43.0	20.0	6.02e-01	0	54	0	70778880	51	5125
2026-01-05 23:58:09.49	41.36	10.31	-40.0	-42.8	20.2	6.02e-01	0	53	0	72876032	51	5002
2026-01-05 23:58:10.50	41.50	10.37	-40.0	-42.8	20.2	6.00e-01	0	54	0	74448896	51	4998
2026-01-05 23:58:11.51	41.65	10.44	-40.0	-42.6	20.4	5.99e-01	0	54	0	76546048	51	4920
2026-01-05 23:58:12.52	41.80	10.51	-39.9	-42.6	20.4	6.02e-01	0	54	0	78643200	51	4904
2026-01-05 23:58:13.53	41.95	10.58	-39.9	-42.5	20.5	6.00e-01	0	54	0	80216064	51	4863
2026-01-05 23:58:14.54	42.10	10.65	-40.0	-42.6	20.4	6.00e-01	0	54	0	82313216	51	4911
2026-01-05 23:58:15.55	42.25	10.71	-40.0	-42.7	20.4	6.02e-01	0	54	0	83886080	51	4973
2026-01-05 23:58:16.56	42.40	10.78	-40.0	-42.7	20.5	5.99e-01	0	54	0	85983232	51	4936
2026-01-05 23:58:17.57	42.55	10.85	-40.0	-42.6	20.6	6.00e-01	0	54	0	88080384	51	4875
2026-01-05 23:58:18.58	42.70	10.92	-39.8	-42.3	20.8	5.99e-01	0	54	0	89653248	51	4756
2026-01-05 23:58:19.59	42.86	10.99	-39.8	-42.2	20.9	6.02e-01	0	54	0	91750400	51	4697
2026-01-05 23:58:20.60	43.01	11.06	-39.8	-42.3	20.9	6.01e-01	0	54	0	93323264	51	4730
2026-01-05 23:58:21.61	43.16	11.13	-39.9	-42.4	20.8	6.01e-01	0	54	0	95420416	51	4783
2026-01-05 23:58:22.61	43.32	11.19	-39.9	-42.5	20.7	5.99e-01	0	54	0	97517568	51	4835
2026-01-05 23:58:23.62	43.47	11.26	-39.9	-42.5	20.8	6.00e-01	0	54	0	99090432	51	4827
2026-01-05 23:58:24.63	43.63	11.33	-39.9	-42.4	20.8	6.00e-01	0	54	0	101187584	51	4782
2026-01-05 23:58:25.64	43.79	11.40	-39.8	-42.3	21.0	6.02e-01	0	54	0	102760448	51	4713
2026-01-05 23:58:26.65	43.95	11.47	-39.8	-42.2	21.1	6.02e-01	0	54	0	104857600	51	4666
2026-01-05 23:58:27.66	44.11	11.54	-39.8	-42.3	21.0	6.02e-01	0	54	0	106954752	51	4728
2026-01-05 23:58:28.67	44.27	11.61	-39.9	-42.4	20.9	6.00e-01	0	54	0	108527616	51	4771
2026-01-05 23:58:29.68	44.43	11.67	-39.9	-42.4	20.9	6.02e-01	0	54	0	110624768	51	4766
2026-01-05 23:58:30.69	44.59	11.74	-39.8	-42.3	21.0	6.00e-01	0	54	0	112721920	51	4730
2026-01-05 23:58:31.70	44.75	11.81	-39.8	-42.2	21.1	6.04e-01	0	54	0	114294784	51	4693
2026-01-05 23:58:32.71	44.92	11.88	-39.7	-42.1	21.2	6.02e-01	0	54	0	116391936	51	4625
2026-01-05 23:58:33.72	45.08	11.95	-39.7	-42.1	21.2	6.03e-01	0	54	0	117964800	51	4644
2026-01-05 23:58:34.73	45.25	12.02	-39.8	-42.2	21.1	6.02e-01	0	54	0	120061952	51	4684
2026-01-05 23:58:35.74	45.41	12.09	-39.8	-42.2	21.1	5.99e-01	0	54	0	122159104	51	4689
2026-01-05 23:58:36.75	45.58	12.16	-39.8	-42.3	21.1	6.03e-01	0	54	0	123731968	51	4715
2026-01-05 23:58:37.76	45.75	12.23	-39.8	-42.2	21.1	6.00e-01	0	54	0	125829120	51	4664
2026-01-05 23:58:38.77	45.91	12.30	-39.7	-42.1	21.3	6.00e-01	0	54	0	127926272	51	4604
2026-01-05 23:58:39.78	46.08	12.36	-39.6	-42.0	21.4	6.00e-01	0	54	0	129499136	51	4554
2026-01-05 23:58:40.79	46.25	12.43	-39.7	-42.0	21.4	6.02e-01	0	54	0	131596288	51	4571
2026-01-05 23:58:41.80	46.42	12.50	-39.7	-42.1	21.2	5.99e-01	0	54	0	133169152	51	4638
2026-01-05 23:58:42.81	46.60	12.57	-39.8	-42.2	21.2	6.01e-01	0	54	0	135266304	51	4675
2026-01-05 23:58:43.82	46.77	12.64	-39.8	-42.2	21.2	6.00e-01	0	54	0	137363456	51	4664
2026-01-05 23:58:44.83	46.94	12.71	-39.7	-42.0	21.3	6.02e-01	0	54	0	138936320	51	4579
2026-01-05 23:58:45.84	47.12	12.78	-39.6	-41.9	21.5	6.01e-01	0	54	0	141033472	51	4502
2026-01-05 23:58:46.85	47.29	12.85	-39.6	-41.9	21.5	6.02e-01	0	54	0	142606336	51	4521
2026-01-05 23:58:47.86	47.47	12.92	-39.7	-42.0	21.4	6.02e-01	0	54	0	144703488	51	4567
2026-01-05 23:58:48.87	47.64	12.99	-39.7	-42.1	21.3	6.00e-01	0	55	0	146800640	51	4606
2026-01-05 23:58:49.88	47.82	13.05	-39.7	-42.1	21.3	6.01e-01	0	54	0	148373504	51	4612
2026-01-05 23:58:50.89	48.00	13.12	-39.7	-42.0	21.4	6.01e-01	0	55	0	150470656	51	4563
2026-01-05 23:58:51.90	48.18	13.19	-39.6	-41.9	21.5	6.00e-01	0	55	0	152567808	51	4521
2026-01-05 23:58:52.91	48.36	13.26	-39.6	-41.8	21.5	6.02e-01	0	55	0	154140672	51	4493
2026-01-05 23:58:53.92	48.54	13.33	-39.5	-41.8	21.6	6.02e-01	0	54	0	156237824	51	4460
2026-01-05 23:58:54.93	48.72	13.40	-39.6	-41.9	21.6	6.04e-01	0	55	0	157810688	51	4504
2026-01-05 23:58:55.94	48.91	13.47	-39.6	-41.9	21.5	6.02e-01	0	54	0	159907840	51	4519
2026-01-05 23:58:56.95	49.09	13.54	-39.6	-41.9	21.5	6.02e-01	0	54	0	162004992	51	4523
2026-01-05 23:58:57.96	49.27	13.61	-39.5	-41.8	21.6	6.01e-01	0	54	0	163577856	51	4477
2026-01-05 23:58:58.97	49.46	13.67	-39.5	-41.7	21.7	5.99e-01	0	54	0	165675008	50	4699
2026-01-05 23:58:59.98	49.65	13.74	-39.5	-41.7	21.7	6.01e-01	0	54	0	167247872	50	4705
2026-01-05 23:59:00.99	49.83	13.81	-39.5	-41.8	21.7	6.01e-01	0	55	0	169345024	50	4715
2026-01-05 23:59:02.00	50.02	13.88	-39.5	-41.8	21.6	6.02e-01	0	55	0	171442176	50	4742
2026-01-05 23:59:03.01	50.21	13.95	-39.5	-41.8	21.7	5.99e-01	0	55	0	173015040	50	4734
2026-01-05 23:59:04.02	50.40	14.02	-39.5	-41.8	21.7	5.99e-01	0	55	0	175112192	50	4713
2026-01-05 23:59:05.03	50.59	14.09	-39.5	-41.8	21.7	6.02e-01	0	54	0	176685056	50	4712
2026-01-05 23:59:06.04	50.78	14.15	-39.5	-41.8	21.7	6.00e-01	0	54	0	178782208	50	4721
2026-01-05 23:59:07.06	50.98	14.22	-39.5	-41.8	21.7	6.02e-01	0	54	0	180879360	50	4711
2026-01-05 23:59:08.06	51.17	14.29	-39.4	-41.7	21.7	6.00e-01	0	55	0	182452224	50	4659
2026-01-05 23:59:09.08	51.37	14.36	-39.5	-41.7	21.7	6.00e-01	0	55	0	184549376	50	4701
2026-01-05 23:59:10.09	51.56	14.43	-39.5	-41.8	21.7	6.00e-01	0	55	0	186122240	50	4721
2026-01-05 23:59:11.10	51.76	14.49	-39.5	-41.8	21.7	6.03e-01	0	55	0	188219392	50	4707
2026-01-05 23:59:12.11	51.96	14.56	-39.4	-41.7	21.8	6.02e-01	0	55	0	190316544	50	4654
2026-01-05 23:59:13.12	52.16	14.63	-39.4	-41.6	21.9	5.99e-01	0	55	0	191889408	50	4638
2026-01-05 23:59:14.13	52.36	14.70	-39.4	-41.6	21.8	6.01e-01	0	55	0	193986560	50	4647
2026-01-05 23:59:15.14	52.56	14.77	-39.5	-41.7	21.7	6.02e-01	0	55	0	196083712	50	4687
2026-01-05 23:59:16.15	52.76	14.83	-39.5	-41.7	21.8	6.01e-01	0	55	0	197656576	50	4693
2026-01-05 23:59:17.16	52.96	14.90	-39.4	-41.7	21.8	6.03e-01	0	55	0	199753728	50	4657
2026-01-05 23:59:18.17	53.16	14.97	-39.4	-41.6	21.9	6.02e-01	0	55	0	201326592	50	4601
2026-01-05 23:59:19.18	53.37	15.03	-39.3	-41.5	22.0	5.98e-01	0	55	0	203423744	50	4570
2026-01-05 23:59:20.19	53.57	15.10	-39.4	-41.5	21.9	6.00e-01	0	55	0	205520896	50	4595
2026-01-05 23:59:21.20	53.78	15.17	-39.4	-41.6	21.9	6.00e-01	0	55	0	207093760	50	4641
2026-01-05 23:59:22.21	53.99	15.23	-39.4	-41.6	21.8	6.00e-01	0	55	0	209190912	50	4648
2026-01-05 23:59:23.22	54.20	15.30	-39.4	-41.6	21.8	6.00e-01	0	55	0	210763776	50	4643
2026-01-05 23:59:24.22	54.40	15.37	-39.4	-41.6	21.9	6.02e-01	0	55	0	212860928	50	4627
2026-01-05 23:59:25.23	54.61	15.43	-39.3	-41.5	22.0	6.02e-01	0	55	0	214958080	50	4585
2026-01-05 23:59:26.24	54.82	15.50	-39.4	-41.6	21.9	6.00e-01	0	55	0	216530944	50	4628
2026-01-05 23:59:27.25	55.04	15.57	-39.4	-41.6	21.9	6.04e-01	0	55	0	218628096	50	4642
2026-01-05 23:59:28.26	55.25	15.63	-39.4	-41.6	21.9	6.01e-01	0	55	0	220725248	50	4610
2026-01-05 23:59:29.27	55.46	15.70	-39.3	-41.5	22.0	6.01e-01	0	55	0	222298112	50	4558
2026-01-05 23:59:30.28	55.68	15.76	-39.4	-41.6	22.0	6.02e-01	0	55	0	224395264	50	4606
2026-01-05 23:59:31.29	55.89	15.83	-39.4	-41.6	21.9	6.02e-01	0	55	0	225968128	50	4634
2026-01-05 23:59:32.30	56.11	15.89	-39.4	-41.6	21.9	6.01e-01	0	55	0	228065280	50	4617
2026-01-05 23:59:33.31	56.33	15.96	-39.3	-41.5	21.9	5.98e-01	0	55	0	230162432	50	4561
2026-01-05 23:59:34.32	56.55	16.02	-39.4	-41.5	22.0	6.02e-01	0	55	0	231735296	50	4582
2026-01-05 23:59:35.33	56.77	16.09	-39.4	-41.5	22.0	6.00e-01	0	55	0	233832448	50	4597
2026-01-05 23:59:36.34	56.99	16.15	-39.4	-41.7	21.8	6.01e-01	0	55	0	235405312	50	4653
2026-01-05 23:59:37.35	57.21	16.22	-39.5	-41.7	21.8	5.99e-01	0	55	0	237502464	50	4672
2026-01-05 23:59:38.36	57.43	16.28	-39.4	-41.5	22.0	6.02e-01	0	55	0	239599616	50	4582
2026-01-05 23:59:39.37	57.66	16.35	-39.3	-41.5	22.1	6.00e-01	0	55	0	241172480	50	4547
2026-01-05 23:59:40.38	57.88	16.41	-39.4	-41.6	22.0	6.01e-01	0	55	0	243269632	50	4599
2026-01-05 23:59:41.39	58.11	16.47	-39.4	-41.6	21.9	6.01e-01	0	55	0	244842496	50	4611
2026-01-05 23:59:42.40	58.34	16.54	-39.4	-41.6	21.9	6.01e-01	0	55	0	246939648	50	4622
2026-01-05 23:59:43.41	58.56	16.60	-39.4	-41.6	22.0	6.00e-01	0	55	0	249036800	50	4604
2026-01-05 23:59:44.42	58.79	16.66	-39.3	-41.5	22.0	6.03e-01	0	55	0	250609664	50	4579
2026-01-05 23:59:45.43	59.02	16.72	-39.4	-41.6	21.9	6.01e-01	0	55	0	252706816	50	4606
2026-01-05 23:59:46.44	59.25	16.79	-39.4	-41.7	21.9	6.01e-01	0	55	0	254279680	50	4655
2026-01-05 23:59:47.45	59.49	16.85	-39.4	-41.6	21.9	6.01e-01	0	55	0	256376832	50	4604
2026-01-05 23:59:48.46	59.72	16.91	-39.4	-41.6	21.9	6.02e-01	0	55	0	258473984	50	4622
2026-01-05 23:59:49.47	59.95	16.97	-39.4	-41.6	21.9	6.00e-01	0	55	0	260046848	50	4641
2026-01-05 23:59:50.47	60.18	17.03	-39.4	-41.6	21.9	6.02e-01	0	55	0	262144000	50	4601
2026-01-05 23:59:51.48	60.42	17.09	-39.4	-41.5	22.0	6.03e-01	0	55	0	264241152	50	4589
2026-01-05 23:59:52.49	60.66	17.15	-39.4	-41.6	21.9	6.02e-01	0	55	0	265814016	50	4611
2026-01-05 23:59:53.50	60.90	17.21	-39.4	-41.5	22.0	6.03e-01	0	55	0	267911168	50	4578
2026-01-05 23:59:54.51	61.13	17.27	-39.4	-41.6	21.9	6.03e-01	0	55	0	269484032	50	4608
2026-01-05 23:59:55.52	61.37	17.33	-39.3	-41.5	22.0	6.01e-01	0	55	0	271581184	50	4563
2026-01-05 23:59:56.53	61.62	17.39	-39.4	-41.6	21.9	6.02e-01	0	55	0	273678336	50	4623
2026-01-05 23:59:57.54	61.86	17.45	-39.4	-41.5	22.0	6.03e-01	0	55	0	275251200	50	4579
2026-01-05 23:59:58.55	62.10	17.51	-39.3	-41.5	22.0	5.99e-01	0	55	0	277348352	50	4583
2026-01-05 23:59:59.56	62.34	17.57	-39.4	-41.6	21.9	6.01e-01	0	55	0	278921216	50	4611
2026-01-06 00:00:00.57	62.59	17.63	-39.4	-41.6	21.9	6.01e-01	0	55	0	281018368	50	4639
2026-01-06 00:00:01.58	62.84	17.69	-39.4	-41.5	22.0	6.03e-01	0	56	0	283115520	50	4581
2026-01-06 00:00:02.59	63.08	17.74	-39.3	-41.5	22.0	6.00e-01	0	55	0	284688384	50	4569
2026-01-06 00:00:03.60	63.33	17.80	-39.3	-41.5	22.0	6.01e-01	0	55	0	286785536	50	4547
2026-01-06 00:00:04.61	63.58	17.86	-39.3	-41.5	22.0	6.01e-01	0	55	0	288882688	50	4571
2026-01-06 00:00:05.62	63.83	17.92	-39.4	-41.6	21.9	6.02e-01	0	55	0	290455552	50	4627
2026-01-06 00:00:06.63	64.08	17.97	-39.4	-41.6	21.9	6.01e-01	0	55	0	292552704	50	4614
2026-01-06 00:00:07.64	64.33	18.03	-39.3	-41.4	22.0	6.03e-01	0	55	0	294125568	50	4541
2026-01-06 00:00:08.65	64.58	18.08	-39.3	-41.5	22.0	6.01e-01	0	55	0	296222720	50	4550
2026-01-06 00:00:09.66	64.84	18.14	-39.4	-41.6	21.8	5.99e-01	0	55	0	298319872	50	4639
2026-01-06 00:00:10.67	65.09	18.19	-39.5	-41.7	21.7	6.02e-01	0	55	0	299892736	50	4686
2026-01-06 00:00:11.68	65.35	18.25	-39.4	-41.6	21.8	6.02e-01	0	55	0	301989888	50	4628
2026-01-06 00:00:12.69	65.60	18.30	-39.4	-41.6	21.8	6.05e-01	0	55	0	303562752	50	4617
2026-01-06 00:00:13.70	65.86	18.35	-39.5	-41.7	21.7	6.02e-01	0	55	0	305659904	50	4678
2026-01-06 00:00:14.71	66.12	18.41	-39.4	-41.6	21.8	6.01e-01	0	55	0	307757056	50	4609
2026-01-06 00:00:15.72	66.38	18.46	-39.4	-41.6	21.8	6.00e-01	0	55	0	309329920	50	4613
2026-01-06 00:00:16.73	66.64	18.51	-39.4	-41.7	21.6	6.00e-01	0	56	0	311427072	50	4682
2026-01-06 00:00:17.74	66.90	18.56	-39.6	-41.9	21.4	6.02e-01	0	56	0	312999936	50	4767
2026-01-06 00:00:18.75	67.16	18.62	-39.5	-41.8	21.4	6.02e-01	0	56	0	315097088	50	4749
2026-01-06 00:00:19.76	67.43	18.67	-39.4	-41.7	21.5	6.02e-01	0	55	0	317194240	50	4704
2026-01-06 00:00:20.77	67.69	18.72	-39.5	-41.9	21.2	6.01e-01	0	55	0	318767104	50	4790
2026-01-06 00:00:21.78	67.96	18.77	-39.6	-42.1	21.0	6.00e-01	0	55	0	320864256	50	4890
2026-01-06 00:00:22.79	68.22	18.82	-39.7	-42.2	20.9	6.01e-01	0	56	0	322437120	50	4929
2026-01-06 00:00:23.80	68.49	18.87	-39.6	-42.1	20.8	6.01e-01	0	55	0	324534272	50	4895
2026-01-06 00:00:24.81	68.76	18.91	-39.7	-42.3	20.4	5.99e-01	0	56	0	326631424	50	5038
2026-01-06 00:00:25.82	69.02	18.96	-39.9	-42.6	20.1	6.02e-01	0	56	0	328204288	50	5196
2026-01-06 00:00:26.83	69.29	19.01	-39.9	-42.6	19.9	6.01e-01	0	56	0	330301440	50	5211
2026-01-06 00:00:27.84	69.56	19.06	-39.9	-42.7	19.8	6.02e-01	0	55	0	332398592	50	5255
2026-01-06 00:00:28.85	69.83	19.10	-40.0	-42.9	19.4	6.02e-01	0	56	0	333971456	50	5382
2026-01-06 00:00:29.86	70.11	19.15	-40.0	-43.1	19.2	6.02e-01	0	56	0	336068608	50	5488
2026-01-06 00:00:30.87	70.38	19.20	-40.1	-43.2	19.0	6.00e-01	0	55	0	337641472	50	5551
2026-01-06 00:00:31.88	70.65	19.24	-40.0	-43.3	18.7	6.00e-01	0	56	0	339738624	50	5607
2026-01-06 00:00:32.89	70.93	19.28	-40.1	-43.4	18.6	6.00e-01	0	56	0	341835776	50	5703
2026-01-06 00:00:33.90	71.20	19.33	-40.1	-43.5	18.4	6.02e-01	0	56	0	343408640	50	5744
2026-01-06 00:00:34.91	71.48	19.37	-40.1	-43.6	18.3	6.00e-01	0	56	0	345505792	50	5793
2026-01-06 00:00:35.92	71.76	19.42	-40.2	-43.7	18.2	6.01e-01	0	56	0	347078656	50	5863
2026-01-06 00:00:36.93	72.03	19.46	-40.2	-43.7	18.1	6.00e-01	0	55	0	349175808	50	5907
2026-01-06 00:00:37.94	72.31	19.50	-40.2	-43.7	18.1	6.02e-01	0	56	0	351272960	51	5569
2026-01-06 00:00:38.95	72.59	19.54	-40.4	-44.0	17.9	6.01e-01	0	56	0	352845824	51	5728
2026-01-06 00:00:39.96	72.87	19.58	-40.5	-44.1	17.8	6.01e-01	0	56	0	354942976	51	5830
2026-01-06 00:00:40.97	73.15	19.62	-40.4	-44.0	17.8	6.01e-01	0	56	0	357040128	51	5777
2026-01-06 00:00:41.98	73.44	19.66	-40.3	-43.7	18.1	6.00e-01	0	56	0	358612992	51	5582
2026-01-06 00:00:42.99	73.72	19.70	-40.2	-43.6	18.2	6.02e-01	0	56	0	360710144	51	5507
2026-01-06 00:00:44.00	74.00	19.74	-40.1	-43.4	18.3	5.98e-01	0	56	0	362283008	51	5396
2026-01-06 00:00:45.01	74.29	19.78	-40.0	-43.3	18.4	6.00e-01	0	56	0	364380160	51	5334
2026-01-06 00:00:46.02	74.57	19.81	-40.0	-43.3	18.4	6.00e-01	0	56	0	366477312	51	5337
2026-01-06 00:00:47.02	74.85	19.85	-40.2	-43.7	18.1	6.00e-01	0	56	0	368050176	51	5551
2026-01-06 00:00:48.03	75.14	19.89	-40.2	-43.6	18.1	6.01e-01	0	56	0	370147328	51	5511
2026-01-06 00:00:49.04	75.43	19.92	-40.0	-43.3	18.4	5.99e-01	0	56	0	371720192	51	5333
2026-01-06 00:00:50.05	75.71	19.95	-40.0	-43.3	18.5	6.04e-01	0	56	0	373817344	51	5292
2026-01-06 00:00:51.06	76.00	19.99	-40.0	-43.3	18.6	6.03e-01	0	56	0	375914496	51	5300
2026-01-06 00:00:52.07	76.29	20.02	-40.0	-43.2	18.7	6.00e-01	0	56	0	377487360	51	5224
2026-01-06 00:00:53.08	76.58	20.06	-40.0	-43.1	18.9	6.00e-01	0	56	0	379584512	51	5188
2026-01-06 00:00:54.09	76.87	20.09	-40.0	-43.1	18.9	6.04e-01	0	56	0	381157376	51	5203
2026-01-06 00:00:55.10	77.16	20.12	-40.1	-43.1	19.0	6.01e-01	0	56	0	383254528	51	5213
2026-01-06 00:00:56.11	77.45	20.15	-40.0	-43.1	19.1	6.02e-01	0	56	0	385351680	51	5170
2026-01-06 00:00:57.12	77.75	20.18	-40.1	-43.2	19.0	6.03e-01	0	56	0	386924544	51	5231
2026-01-06 00:00:58.13	78.04	20.21	-40.1	-43.2	19.0	6.03e-01	0	56	0	389021696	51	5220
2026-01-06 00:00:59.14	78.33	20.24	-40.1	-43.3	18.9	6.02e-01	0	56	0	390594560	51	5280
2026-01-06 00:01:00.15	78.63	20.27	-40.1	-43.3	18.9	6.00e-01	0	55	0	392691712	51	5286
2026-01-06 00:01:01.16	78.92	20.29	-40.1	-43.3	18.9	6.02e-01	0	56	0	394788864	51	5283
2026-01-06 00:01:02.17	79.21	20.32	-40.0	-43.0	19.2	6.02e-01	0	56	0	396361728	51	5122
2026-01-06 00:01:03.18	79.51	20.35	-40.0	-43.1	19.1	6.03e-01	0	56	0	398458880	51	5206
2026-01-06 00:01:04.19	79.81	20.37	-40.0	-43.0	19.2	6.01e-01	0	56	0	400556032	51	5113
2026-01-06 00:01:05.20	80.10	20.40	-39.9	-42.8	19.4	5.99e-01	0	56	0	402128896	51	5019
2026-01-06 00:01:06.21	80.40	20.42	-39.9	-42.7	19.6	5.98e-01	0	56	0	404226048	51	4978
2026-01-06 00:01:07.22	80.70	20.44	-39.9	-42.7	19.7	6.00e-01	0	56	0	405798912	51	4942
2026-01-06 00:01:08.23	80.99	20.46	-39.9	-42.6	19.9	6.02e-01	0	56	0	407896064	51	4922
2026-01-06 00:01:09.23	81.29	20.49	-39.9	-42.6	20.0	6.03e-01	0	56	0	409993216	51	4893
2026-01-06 00:01:10.24	81.59	20.51	-39.8	-42.5	20.1	5.99e-01	0	56	0	411566080	51	4840
2026-01-06 00:01:11.25	81.89	20.53	-39.8	-42.5	20.2	6.00e-01	0	56	0	413663232	51	4842
2026-01-06 00:01:12.26	82.19	20.55	-39.8	-42.4	20.3	6.03e-01	0	56	0	415236096	51	4766
2026-01-06 00:01:13.27	82.49	20.57	-39.8	-42.4	20.3	6.00e-01	0	56	0	417333248	51	4778
2026-01-06 00:01:14.28	82.79	20.58	-39.8	-42.5	20.3	6.00e-01	0	56	0	419430400	51	4817
2026-01-06 00:01:15.29	83.09	20.60	-39.8	-42.4	20.3	6.00e-01	0	56	0	421003264	51	4783
2026-01-06 00:01:16.30	83.39	20.62	-39.8	-42.5	20.2	6.02e-01	0	56	0	423100416	51	4857
2026-01-06 00:01:17.31	83.69	20.63	-39.9	-42.6	20.1	6.02e-01	0	56	0	425197568	51	4894
2026-01-06 00:01:18.32	83.99	20.65	-39.8	-42.5	20.2	6.02e-01	0	56	0	426770432	51	4832
2026-01-06 00:01:19.33	84.30	20.66	-39.8	-42.5	20.0	6.02e-01	0	56	0	428867584	51	4865
2026-01-06 00:01:20.34	84.60	20.68	-39.9	-42.7	19.8	6.04e-01	0	56	0	430440448	51	4958
2026-01-06 00:01:21.35	84.90	20.69	-40.1	-43.0	19.4	6.03e-01	0	56	0	432537600	51	5159
2026-01-06 00:01:22.36	85.20	20.70	-40.1	-43.1	19.3	6.00e-01	0	56	0	434634752	51	5193
2026-01-06 00:01:23.37	85.51	20.71	-39.9	-42.9	19.4	6.02e-01	0	56	0	436207616	51	5050
2026-01-06 00:01:24.38	85.81	20.72	-40.0	-43.0	19.3	6.00e-01	0	56	0	438304768	51	5128
2026-01-06 00:01:25.39	86.11	20.73	-40.1	-43.2	19.1	6.00e-01	0	56	0	439877632	51	5242
2026-01-06 00:01:26.40	86.42	20.74	-40.1	-43.2	19.1	6.00e-01	0	56	0	441974784	51	5223
2026-01-06 00:01:27.41	86.72	20.75	-40.1	-43.2	19.0	6.02e-01	0	56	0	444071936	51	5261
2026-01-06 00:01:28.42	87.03	20.76	-40.1	-43.2	19.0	6.03e-01	0	56	0	445644800	51	5245
2026-01-06 00:01:29.43	87.33	20.76	-40.1	-43.1	19.1	5.99e-01	0	56	0	447741952	51	5190
2026-01-06 00:01:30.43	87.63	20.77	-40.1	-43.1	19.1	5.99e-01	0	56	0	449314816	51	5208
2026-01-06 00:01:31.44	87.94	20.77	-40.0	-43.0	19.3	6.02e-01	0	56	0	451411968	51	5128
2026-01-06 00:01:32.45	88.24	20.78	-40.0	-42.9	19.4	6.01e-01	0	56	0	453509120	51	5087
2026-01-06 00:01:33.46	88.55	20.78	-40.0	-42.8	19.6	6.02e-01	0	56	0	455081984	51	5027
2026-01-06 00:01:34.47	88.85	20.79	-39.9	-42.6	19.9	6.00e-01	0	56	0	457179136	51	4921
2026-01-06 00:01:35.48	89.16	20.79	-39.9	-42.6	20.0	6.02e-01	0	56	0	458752000	51	4890
2026-01-06 00:01:36.49	89.46	20.79	-39.8	-42.4	20.2	6.00e-01	0	56	0	460849152	51	4808
2026-01-06 00:01:37.50	89.77	20.79	-39.9	-42.5	20.3	6.01e-01	0	56	0	462946304	51	4825
2026-01-06 00:01:38.51	90.07	20.79	-39.9	-42.4	20.5	6.00e-01	0	56	0	464519168	51	4797
2026-01-06 00:01:39.52	90.38	20.79	-39.8	-42.3	20.7	5.99e-01	0	56	0	466616320	51	4756
2026-01-06 00:01:40.53	90.68	20.79	-39.9	-42.4	20.7	6.01e-01	0	56	0	468713472	51	4797
2026-01-06 00:01:41.54	90.99	20.78	-39.8	-42.3	20.9	6.02e-01	0	56	0	470286336	51	4713
2026-01-06 00:01:42.55	91.29	20.78	-39.6	-41.9	21.2	5.99e-01	0	56	0	472383488	51	4544
2026-01-06 00:01:43.56	91.60	20.78	-39.6	-42.0	21.3	6.02e-01	0	56	0	473956352	51	4564
2026-01-06 00:01:44.57	91.90	20.77	-39.8	-42.1	21.2	6.01e-01	0	56	0	476053504	51	4634
2026-01-06 00:01:45.58	92.20	20.76	-39.8	-42.2	21.2	6.01e-01	0	56	0	478150656	51	4665
2026-01-06 00:01:46.59	92.51	20.76	-39.7	-42.1	21.3	6.01e-01	0	56	0	479723520	51	4615
2026-01-06 00:01:47.60	92.81	20.75	-39.7	-42.0	21.4	5.99e-01	0	56	0	481820672	51	4578
2026-01-06 00:01:48.61	93.12	20.74	-39.6	-41.9	21.6	6.00e-01	0	56	0	483393536	51	4496
2026-01-06 00:01:49.62	93.42	20.73	-39.6	-41.8	21.6	6.02e-01	0	56	0	485490688	51	4490
2026-01-06 00:01:50.62	93.72	20.72	-39.6	-41.9	21.6	5.99e-01	0	56	0	487587840	51	4507
2026-01-06 00:01:51.64	94.03	20.71	-39.7	-41.9	21.6	6.00e-01	0	56	0	489160704	51	4539
2026-01-06 00:01:52.65	94.33	20.70	-39.6	-41.9	21.7	6.00e-01	0	56	0	491257856	51	4499
2026-01-06 00:01:53.66	94.64	20.69	-39.7	-42.0	21.5	6.01e-01	0	56	0	493355008	51	4584
2026-01-06 00:01:54.67	94.94	20.68	-39.8	-42.1	21.5	6.01e-01	0	56	0	494927872	51	4608
2026-01-06 00:01:55.67	95.24	20.66	-39.7	-42.0	21.6	6.00e-01	0	56	0	497025024	51	4556
2026-01-06 00:01:56.68	95.54	20.65	-39.6	-41.8	21.7	6.02e-01	0	56	0	498597888	51	4481
2026-01-06 00:01:57.69	95.84	20.63	-39.6	-41.9	21.7	6.03e-01	0	56	0	500695040	51	4495
2026-01-06 00:01:58.70	96.15	20.62	-39.7	-41.9	21.7	6.02e-01	0	56	0	502792192	51	4529
2026-01-06 00:01:59.71	96.45	20.60	-39.7	-42.0	21.6	5.99e-01	0	56	0	504365056	51	4568
2026-01-06 00:02:00.72	96.75	20.58	-39.7	-41.9	21.7	6.02e-01	0	56	0	506462208	51	4526
2026-01-06 00:02:01.73	97.05	20.57	-39.7	-41.9	21.7	6.00e-01	0	56	0	508035072	51	4537
2026-01-06 00:02:02.74	97.35	20.55	-39.7	-42.0	21.7	6.02e-01	0	56	0	510132224	51	4548
2026-01-06 00:02:03.75	97.65	20.53	-39.7	-42.0	21.6	6.00e-01	0	56	0	511705088	51	4548
2026-01-06 00:02:04.76	97.95	20.51	-39.6	-41.8	21.7	6.01e-01	0	56	0	513802240	51	4490
2026-01-06 00:02:05.77	98.25	20.49	-39.6	-41.8	21.8	6.02e-01	0	56	0	515899392	51	4463
2026-01-06 00:02:06.78	98.55	20.47	-39.6	-41.8	21.8	6.01e-01	0	56	0	517472256	51	4452
2026-01-06 00:02:07.79	98.85	20.44	-39.7	-41.9	21.7	6.00e-01	0	56	0	519569408	51	4527
2026-01-06 00:02:08.79	99.14	20.42	-39.8	-42.0	21.6	6.01e-01	0	56	0	521666560	51	4578
2026-01-06 00:02:09.81	99.44	20.40	-39.6	-41.9	21.7	6.02e-01	0	56	0	523239424	51	4502
2026-01-06 00:02:10.82	99.74	20.37	-39.6	-41.8	21.9	6.01e-01	0	56	0	525336576	50	4706
2026-01-06 00:02:11.83	100.04	20.35	-39.6	-41.8	21.8	6.03e-01	0	56	0	526909440	50	4758
2026-01-06 00:02:12.83	100.33	20.32	-39.8	-42.1	21.5	6.01e-01	0	56	0	529006592	50	4921
2026-01-06 00:02:13.84	100.62	20.29	-39.8	-42.0	21.6	6.02e-01	0	56	0	531103744	50	4852
2026-01-06 00:02:14.85	100.92	20.27	-39.6	-41.8	21.8	6.03e-01	0	56	0	532676608	50	4716
2026-01-06 00:02:15.86	101.21	20.24	-39.7	-41.9	21.7	6.02e-01	0	56	0	534773760	50	4794
2026-01-06 00:02:16.87	101.51	20.21	-39.7	-42.0	21.6	6.02e-01	0	56	0	536870912	50	4843
2026-01-06 00:02:17.88	101.80	20.18	-39.7	-41.9	21.7	6.00e-01	0	56	0	538443776	50	4811
2026-01-06 00:02:18.89	102.09	20.15	-39.6	-41.8	21.8	6.02e-01	0	56	0	540540928	50	4745
2026-01-06 00:02:19.90	102.39	20.12	-39.6	-41.8	21.8	6.01e-01	0	56	0	542113792	50	4739
2026-01-06 00:02:20.91	102.68	20.09	-39.7	-41.9	21.7	5.99e-01	0	56	0	544210944	50	4774
2026-01-06 00:02:21.92	102.97	20.05	-39.8	-42.0	21.6	5.98e-01	0	56	0	546308096	50	4851
2026-01-06 00:02:22.93	103.26	20.02	-39.7	-41.9	21.6	6.01e-01	0	56	0	547880960	50	4813
2026-01-06 00:02:23.94	103.55	19.99	-39.6	-41.8	21.7	6.01e-01	0	56	0	549978112	50	4730
2026-01-06 00:02:24.95	103.84	19.95	-39.6	-41.8	21.8	6.02e-01	0	56	0	551550976	50	4738
2026-01-06 00:02:25.96	104.13	19.92	-39.7	-42.0	21.6	6.00e-01	0	56	0	553648128	50	4835
2026-01-06 00:02:26.97	104.41	19.88	-39.6	-41.9	21.7	6.01e-01	0	56	0	555745280	50	4768
2026-01-06 00:02:27.98	104.70	19.85	-39.6	-41.8	21.8	5.97e-01	0	56	0	557318144	50	4730
2026-01-06 00:02:28.99	104.99	19.81	-39.7	-41.9	21.7	6.00e-01	0	56	0	559415296	50	4796
2026-01-06 00:02:30.00	105.27	19.77	-39.7	-41.9	21.3	5.99e-01	0	56	0	560988160	50	4798
2026-01-06 00:02:31.00	105.56	19.74	-39.6	-41.9	21.7	6.01e-01	0	56	0	563085312	50	4761
2026-01-06 00:02:32.01	105.84	19.70	-39.6	-41.8	21.8	5.99e-01	0	56	0	565182464	50	4716
2026-01-06 00:02:33.02	106.12	19.66	-39.7	-41.9	21.7	6.00e-01	0	56	0	566755328	50	4793
2026-01-06 00:02:34.03	106.41	19.62	-39.7	-41.9	21.7	5.99e-01	0	56	0	568852480	50	4797
2026-01-06 00:02:35.04	106.69	19.58	-39.7	-41.9	21.7	6.01e-01	0	56	0	570425344	50	4785
2026-01-06 00:02:36.05	106.97	19.54	-39.7	-41.9	21.7	6.00e-01	0	56	0	572522496	50	4790
2026-01-06 00:02:37.06	107.25	19.50	-39.6	-41.8	21.7	6.02e-01	0	56	0	574619648	50	4757
2026-01-06 00:02:38.07	107.53	19.45	-39.7	-41.9	21.7	6.01e-01	0	56	0	576192512	50	4781
2026-01-06 00:02:39.08	107.81	19.41	-39.6	-41.8	21.8	6.04e-01	0	56	0	578289664	50	4724
2026-01-06 00:02:40.09	108.09	19.37	-39.6	-41.8	21.8	6.00e-01	0	56	0	579862528	50	4710
2026-01-06 00:02:41.10	108.36	19.33	-39.5	-41.7	21.9	6.03e-01	0	56	0	581959680	50	4690
2026-01-06 00:02:42.11	108.64	19.28	-39.5	-41.7	21.9	6.03e-01	0	56	0	584056832	50	4666
2026-01-06 00:02:43.12	108.91	19.24	-39.6	-41.8	21.9	6.02e-01	0	56	0	585629696	50	4706
2026-01-06 00:02:44.13	109.19	19.19	-39.6	-41.9	21.7	6.01e-01	0	56	0	587726848	50	4768
2026-01-06 00:02:45.15	109.47	19.14	-39.6	-41.8	21.8	6.05e-01	0	56	0	589824000	50	4743
2026-01-06 00:02:46.15	109.74	19.10	-39.5	-41.7	21.8	6.00e-01	0	56	0	591396864	50	4697
2026-01-06 00:02:47.16	110.01	19.05	-39.5	-41.7	21.9	6.01e-01	0	56	0	593494016	50	4688
2026-01-06 00:02:48.17	110.28	19.00	-39.6	-41.8	21.8	6.01e-01	0	56	0	595066880	50	4717
2026-01-06 00:02:49.18	110.55	18.96	-39.7	-41.9	21.7	5.99e-01	0	56	0	597164032	50	4779
2026-01-06 00:02:50.19	110.82	18.91	-39.6	-41.8	21.8	6.02e-01	0	56	0	599261184	50	4721
2026-01-06 00:02:51.20	111.09	18.86	-39.6	-41.8	21.8	6.04e-01	0	56	0	600834048	50	4727
2026-01-06 00:02:52.21	111.36	18.81	-39.5	-41.7	21.9	6.01e-01	0	56	0	602931200	50	4664
2026-01-06 00:02:53.22	111.62	18.76	-39.5	-41.7	21.9	6.02e-01	0	56	0	605028352	50	4668
2026-01-06 00:02:54.23	111.89	18.71	-39.6	-41.8	21.8	6.00e-01	0	56	0	606601216	50	4735
2026-01-06 00:02:55.24	112.15	18.66	-39.6	-41.8	21.6	6.02e-01	0	56	0	608698368	50	4754
2026-01-06 00:02:56.25	112.42	18.61	-39.6	-41.8	21.7	6.01e-01	0	56	0	610271232	50	4742
2026-01-06 00:02:57.26	112.68	18.56	-39.6	-41.9	21.6	6.01e-01	0	56	0	612368384	50	4765
2026-01-06 00:02:58.27	112.94	18.50	-39.7	-41.9	21.5	6.00e-01	0	56	0	614465536	50	4798
2026-01-06 00:02:59.28	113.21	18.45	-39.6	-41.8	21.6	6.03e-01	0	56	0	616038400	50	4724
2026-01-06 00:03:00.29	113.47	18.40	-39.5	-41.7	21.6	6.01e-01	0	56	0	618135552	49	4935
2026-01-06 00:03:01.30	113.73	18.34	-39.4	-41.5	20.8	6.02e-01	0	56	0	619708416	49	4859
2026-01-06 00:03:02.31	113.98	18.29	-39.3	-41.6	20.1	6.01e-01	0	56	0	621805568	49	4880
2026-01-06 00:03:03.32	114.24	18.24	-39.5	-41.7	21.6	6.01e-01	0	56	0	623902720	49	4927
2026-01-06 00:03:04.33	114.50	18.18	-39.5	-41.8	20.2	6.03e-01	0	56	0	625475584	49	4985
2026-01-06 00:03:05.34	114.75	18.13	-39.1	-41.8	20.4	6.01e-01	0	56	0	627572736	49	4995
2026-01-06 00:03:06.35	115.01	18.07	-39.6	-41.9	19.2	6.05e-01	0	56	0	629669888	49	5050
2026-01-06 00:03:07.36	115.26	18.02	-39.3	-41.7	20.7	6.05e-01	0	56	0	631242752	49	4976
2026-01-06 00:03:08.37	115.52	17.96	-39.4	-41.6	21.1	6.01e-01	0	56	0	633339904	49	4916
2026-01-06 00:03:09.38	115.77	17.90	-39.1	-41.5	20.2	5.99e-01	0	56	0	634912768	49	4849
2026-01-06 00:03:10.39	116.02	17.85	-39.4	-41.6	20.9	6.01e-01	0	56	0	637009920	49	4888
2026-01-06 00:03:11.40	116.27	17.79	-39.4	-41.6	19.6	6.02e-01	0	56	0	638582784	49	4903
2026-01-06 00:03:12.41	116.52	17.73	-39.4	-41.6	18.7	6.02e-01	0	56	0	640679936	49	4915
2026-01-06 00:03:13.42	116.77	17.67	-39.2	-41.6	21.0	5.99e-01	0	56	0	642777088	49	4872
2026-01-06 00:03:14.43	117.01	17.61	-39.2	-41.6	19.8	6.04e-01	0	56	0	644349952	49	4924
2026-01-06 00:03:15.44	117.26	17.56	-39.2	-41.7	20.1	6.01e-01	0	56	0	646447104	49	4937
2026-01-06 00:03:16.45	117.50	17.50	-39.4	-41.7	20.0	6.05e-01	0	56	0	648019968	49	4958
2026-01-06 00:03:17.46	117.75	17.44	-39.4	-41.7	19.3	6.03e-01	0	56	0	650117120	49	4966
2026-01-06 00:03:18.47	117.99	17.38	-39.4	-41.7	20.3	6.01e-01	0	56	0	652214272	49	4962
2026-01-06 00:03:19.48	118.23	17.32	-39.4	-41.6	20.6	6.03e-01	0	56	0	653787136	49	4920
2026-01-06 00:03:20.49	118.47	17.26	-39.2	-41.5	20.8	6.05e-01	0	56	0	655884288	49	4863
2026-01-06 00:03:21.50	118.71	17.20	-38.6	-41.4	19.7	6.03e-01	0	56	0	657981440	49	4803
2026-01-06 00:03:22.51	118.95	17.14	-39.3	-41.5	20.8	6.01e-01	0	56	0	659554304	48	5146
2026-01-06 00:03:23.52	119.19	17.07	-39.4	-41.6	20.4	6.00e-01	0	56	0	661651456	49	4917
2026-01-06 00:03:24.53	119.43	17.01	-39.3	-41.6	20.6	6.02e-01	0	56	0	663224320	49	4910
2026-01-06 00:03:25.54	119.66	16.95	-39.4	-41.7	20.7	6.03e-01	0	56	0	665321472	49	4958
2026-01-06 00:03:26.55	119.90	16.89	-39.3	-41.7	20.9	6.02e-01	0	56	0	667418624	49	4964
2026-01-06 00:03:27.56	120.13	16.83	-39.4	-41.7	20.6	6.01e-01	0	56	0	668991488	49	4952
2026-01-06 00:03:28.57	120.37	16.76	-39.4	-41.7	20.2	6.02e-01	0	56	0	671088640	49	4958
2026-01-06 00:03:29.58	120.60	16.70	-39.4	-41.7	20.9	6.00e-01	0	56	0	672661504	49	4933
2026-01-06 00:03:30.59	120.83	16.64	-39.4	-41.6	20.0	5.99e-01	0	56	0	674758656	49	4917
2026-01-06 00:03:31.60	121.06	16.58	-39.4	-41.6	21.2	5.99e-01	0	56	0	676855808	49	4920
2026-01-06 00:03:32.61	121.29	16.51	-39.2	-41.6	21.3	6.00e-01	0	56	0	678428672	49	4883
2026-01-06 00:03:33.62	121.52	16.45	-39.3	-41.6	21.1	6.03e-01	0	56	0	680525824	49	4889
2026-01-06 00:03:34.62	121.74	16.38	-39.3	-41.6	21.1	6.01e-01	0	56	0	682622976	49	4885
2026-01-06 00:03:35.63	121.97	16.32	-39.4	-41.6	21.6	6.02e-01	0	56	0	684195840	49	4926
2026-01-06 00:03:36.64	122.19	16.26	-39.3	-41.7	20.8	6.01e-01	0	56	0	686292992	49	4946
2026-01-06 00:03:37.65	122.42	16.19	-39.4	-41.7	21.5	6.02e-01	0	56	0	687865856	49	4966
2026-01-06 00:03:38.66	122.64	16.13	-39.4	-41.6	21.6	6.00e-01	0	56	0	689963008	49	4915
2026-01-06 00:03:39.67	122.86	16.06	-39.3	-41.7	20.5	6.01e-01	0	56	0	692060160	49	4944
2026-01-06 00:03:40.68	123.08	16.00	-39.4	-41.8	21.1	6.02e-01	0	56	0	693633024	49	5017
2026-01-06 00:03:41.69	123.30	15.93	-39.1	-41.7	21.6	6.01e-01	0	56	0	695730176	49	4957
2026-01-06 00:03:42.70	123.52	15.86	-39.3	-41.6	21.7	6.01e-01	0	56	0	697303040	49	4884
2026-01-06 00:03:43.71	123.74	15.80	-39.3	-41.6	21.7	6.01e-01	0	56	0	699400192	49	4893
2026-01-06 00:03:44.72	123.96	15.73	-39.4	-41.6	19.7	6.02e-01	0	56	0	701497344	49	4909
2026-01-06 00:03:45.73	124.17	15.67	-39.4	-41.6	21.4	6.01e-01	0	56	0	703070208	49	4897
2026-01-06 00:03:46.74	124.39	15.60	-39.4	-41.6	21.7	6.02e-01	0	56	0	705167360	49	4917
2026-01-06 00:03:47.75	124.60	15.53	-39.2	-41.6	21.7	6.04e-01	0	56	0	707264512	49	4919
2026-01-06 00:03:48.76	124.81	15.47	-39.4	-41.6	21.6	6.02e-01	0	56	0	708837376	49	4904
2026-01-06 00:03:49.77	125.03	15.40	-39.5	-41.8	21.5	6.02e-01	0	57	0	710934528	49	4988
2026-01-06 00:03:50.78	125.24	15.33	-39.5	-41.7	21.5	6.00e-01	0	56	0	712507392	49	4982
2026-01-06 00:03:51.79	125.45	15.27	-39.5	-41.8	21.4	6.02e-01	0	57	0	714604544	49	5013
2026-01-06 00:03:52.80	125.66	15.20	-39.4	-41.7	21.2	6.03e-01	0	56	0	716701696	49	4966
2026-01-06 00:03:53.81	125.87	15.13	-39.4	-41.8	21.2	6.00e-01	0	56	0	718274560	49	4994
2026-01-06 00:03:54.82	126.07	15.06	-39.4	-41.7	21.4	6.02e-01	0	56	0	720371712	49	4961
2026-01-06 00:03:55.83	126.28	15.00	-39.1	-41.6	21.0	6.00e-01	0	56	0	721944576	49	4874
2026-01-06 00:03:56.84	126.48	14.93	-39.3	-41.5	20.6	6.00e-01	0	56	0	724041728	49	4847
2026-01-06 00:03:57.85	126.69	14.86	-39.5	-41.8	19.5	6.01e-01	0	56	0	726138880	49	5037
2026-01-06 00:03:58.86	126.89	14.79	-38.4	-41.6	17.4	6.01e-01	0	56	0	727711744	47	5509
2026-01-06 00:03:59.87	127.09	14.73	-38.9	-42.0	20.7	6.00e-01	0	56	0	729808896	49	5119
2026-01-06 00:04:00.88	127.30	14.66	-38.8	-41.8	20.6	5.99e-01	0	56	0	731381760	49	5034
2026-01-06 00:04:01.89	127.50	14.59	-39.1	-41.8	18.5	6.03e-01	5	56	0	733478912	49	4999
2026-01-06 00:04:02.90	127.70	14.52	-36.9	-41.2	19.2	6.04e-01	0	56	0	735051776	46	5585
2026-01-06 00:04:03.91	127.89	14.45	-37.3	-40.9	14.9	6.10e-01	13	56	0	737148928	46	5369
2026-01-06 00:04:04.92	128.09	14.38	-35.3	-41.2	11.8	6.16e-01	23	56	0	738721792	42	7024
2026-01-06 00:04:05.93	128.29	14.31	-35.9	-40.8	15.3	6.03e-01	15	57	0	740818944	43	6315
2026-01-06 00:04:06.94	128.48	14.25	-37.6	-41.3	17.2	6.09e-01	11	56	0	742391808	44	6318
2026-01-06 00:04:07.95	128.68	14.18	-37.3	-41.4	17.7	5.99e-01	3	57	0	744488960	45	6020
2026-01-06 00:04:08.96	128.87	14.11	-35.1	-41.9	10.0	6.19e-01	31	56	0	746586112	39	8972
2026-01-06 00:04:09.97	129.07	14.04	-34.9	-41.5	16.6	6.03e-01	5	57	0	748158976	43	6861
2026-01-06 00:04:10.98	129.26	13.97	-35.4	-41.0	9.7	6.29e-01	28	56	0	750256128	37	9159
2026-01-06 00:04:11.99	129.45	13.90	-35.3	-41.3	16.2	6.06e-01	7	56	0	751828992	41	7483
2026-01-06 00:04:13.00	129.64	13.83	-34.6	-41.1	12.5	6.09e-01	27	56	0	753926144	40	7758
2026-01-06 00:04:14.01	129.83	13.76	-35.4	-41.6	14.7	6.08e-01	8	56	0	755499008	42	7330
2026-01-06 00:04:15.02	130.02	13.69	-24.0	-40.1	10.0	6.26e-01	37	56	0	757596160	35	9182
2026-01-06 00:04:16.03	130.20	13.62	-35.4	-41.6	13.6	6.09e-01	14	57	0	759169024	40	8269
2026-01-06 00:04:17.04	130.39	13.56	-28.3	-41.5	4.3	7.13e-01	0	56	104	760741888	29	15315
2026-01-06 00:04:18.05	130.57	13.49	-33.1	-41.5	12.9	6.12e-01	21	56	0	761266176	37	9625
2026-01-06 00:04:19.06	130.76	13.42	-31.4	-40.2	11.1	6.16e-01	70	57	0	763363328	33	10432
2026-01-06 00:04:20.06	130.94	13.35	-31.9	-41.7	13.6	6.11e-01	25	56	0	764936192	40	8274
2026-01-06 00:04:21.07	131.12	13.28	-30.3	-40.2	11.4	6.28e-01	60	57	0	767033344	34	9890
2026-01-06 00:04:22.08	131.31	13.21	-32.3	-41.4	13.0	6.11e-01	38	56	0	768606208	37	9554
2026-01-06 00:04:23.09	131.49	13.14	-33.1	-41.6	12.5	6.14e-01	39	57	0	770703360	37	9750
2026-01-06 00:04:24.10	131.67	13.07	-32.1	-40.9	10.5	6.19e-01	53	56	0	772276224	32	12066
2026-01-06 00:04:25.11	131.85	13.00	-32.3	-40.6	11.4	6.21e-01	44	56	0	774373376	34	10325
2026-01-06 00:04:26.12	132.02	12.93	-30.2	-40.9	11.9	6.19e-01	49	57	0	775946240	33	11339
2026-01-06 00:04:27.13	132.20	12.86	-28.3	-39.9	9.1	6.49e-01	72	56	0	777519104	28	13437
2026-01-06 00:04:28.14	132.38	12.79	-30.4	-40.3	10.0	6.11e-01	26	57	0	779091968	30	12622
2026-01-06 00:04:29.15	132.55	12.72	-30.9	-41.3	5.2	7.12e-01	0	57	104	779091968	33	11830
2026-01-06 00:04:30.16	132.73	12.65	-30.3	-40.3	10.0	6.21e-01	18	56	0	780140544	34	10059
2026-01-06 00:04:31.17	132.90	12.58	-31.8	-41.0	11.8	6.24e-01	23	56	0	781713408	35	10219
2026-01-06 00:04:32.18	133.08	12.51	-24.5	-40.9	10.8	6.18e-01	39	57	0	783286272	34	10680
2026-01-06 00:04:33.19	133.25	12.44	-32.2	-40.7	9.9	6.22e-01	53	57	0	784859136	34	10526
2026-01-06 00:04:34.20	133.42	12.37	-32.2	-42.2	10.7	6.24e-01	36	57	0	786956288	39	9359
2026-01-06 00:04:35.21	133.59	12.30	-34.4	-41.1	10.8	6.27e-01	29	57	0	788529152	35	10391
2026-01-06 00:04:36.22	133.76	12.23	-29.8	-40.1	9.9	6.26e-01	66	57	0	790626304	32	10934
2026-01-06 00:04:37.23	133.93	12.16	-33.5	-42.1	10.2	6.23e-01	24	56	0	792199168	37	10325
2026-01-06 00:04:38.24	134.10	12.09	-28.4	-41.3	12.2	6.13e-01	37	57	0	794296320	40	7907
2026-01-06 00:04:39.25	134.27	12.02	-35.5	-42.1	14.0	6.12e-01	13	57	0	795869184	39	9198
2026-01-06 00:04:40.26	134.43	11.95	-33.6	-42.0	10.9	6.19e-01	45	56	0	797966336	41	8119
2026-01-06 00:04:41.26	134.60	11.89	-31.0	-40.8	9.9	6.28e-01	91	57	0	799539200	35	10012
2026-01-06 00:04:42.27	134.76	11.82	-24.9	-40.0	9.0	6.48e-01	65	57	0	801112064	30	12232
2026-01-06 00:04:43.28	134.92	11.75	-37.2	-42.1	16.6	6.04e-01	4	57	0	803209216	46	6194
2026-01-06 00:04:44.29	135.09	11.68	-37.2	-42.2	16.3	6.06e-01	5	57	0	804782080	45	6595
2026-01-06 00:04:45.30	135.25	11.61	-38.1	-42.2	17.1	6.04e-01	2	57	0	806879232	46	6210
2026-01-06 00:04:46.31	135.41	11.54	-38.2	-42.2	17.7	6.03e-01	1	57	0	808976384	46	6219
2026-01-06 00:04:47.32	135.57	11.47	-37.2	-41.9	18.2	6.04e-01	0	57	0	810549248	45	6400
2026-01-06 00:04:48.33	135.73	11.40	-37.0	-41.9	12.9	6.15e-01	35	57	0	812646400	40	8561
2026-01-06 00:04:49.34	135.89	11.33	-37.7	-42.4	13.5	6.03e-01	17	57	0	814219264	43	7605
2026-01-06 00:04:50.35	136.05	11.26	-32.5	-41.0	7.6	6.48e-01	42	57	0	816316416	35	10241
2026-01-06 00:04:51.36	136.21	11.19	-38.7	-41.8	15.2	6.05e-01	9	56	0	817889280	45	6322
2026-01-06 00:04:52.37	136.36	11.12	-39.5	-42.6	19.3	6.03e-01	0	56	0	819986432	49	5497
2026-01-06 00:04:53.38	136.52	11.05	-39.8	-43.0	19.1	6.02e-01	0	57	0	821559296	50	5461
2026-01-06 00:04:54.39	136.68	10.98	-39.7	-42.7	19.1	6.04e-01	0	56	0	823656448	49	5570
2026-01-06 00:04:55.40	136.83	10.91	-36.0	-41.4	15.2	6.07e-01	2	57	0	825753600	42	7175
2026-01-06 00:04:56.41	136.98	10.84	-38.2	-40.8	20.1	6.02e-01	0	56	0	827326464	47	4996
2026-01-06 00:04:57.42	137.14	10.78	-38.1	-41.1	12.0	6.16e-01	60	56	0	829423616	40	7796
2026-01-06 00:04:58.43	137.29	10.71	-38.6	-41.3	19.9	6.04e-01	0	56	0	831520768	47	5286
2026-01-06 00:04:59.43	137.44	10.64	-39.3	-42.5	18.7	6.03e-01	0	57	0	833093632	49	5431
2026-01-06 00:05:00.44	137.59	10.57	-39.8	-43.1	18.4	6.04e-01	0	57	0	835190784	50	5524
2026-01-06 00:05:01.45	137.74	10.50	-40.3	-45.6	15.2	6.05e-01	7	57	0	836763648	52	6546
2026-01-06 00:05:02.47	137.89	10.43	-41.5	-49.4	11.1	6.10e-01	5	57	0	838860800	54	9033
2026-01-06 00:05:03.47	138.04	10.36	-42.3	-51.6	8.9	6.32e-01	15	57	0	840433664	54	11658
2026-01-06 00:05:04.48	138.19	10.29	-42.2	-50.0	10.9	6.11e-01	2	57	0	842530816	55	9152
2026-01-06 00:05:05.49	138.33	10.22	-41.3	-51.9	9.0	6.30e-01	11	57	0	844627968	55	11300
2026-01-06 00:05:06.51	138.48	10.16	-39.8	-58.9	4.1	7.41e-01	0	57	104	845676544	56	23960
2026-01-06 00:05:07.51	138.62	10.09	-43.3	-59.8	3.4	7.39e-01	0	57	104	845676544	57	25068
2026-01-06 00:05:08.52	138.77	10.02	-40.0	-51.3	8.2	6.39e-01	49	57	0	846200832	52	12543
2026-01-06 00:05:09.53	138.91	9.95	-42.4	-50.7	10.4	6.20e-01	2	57	0	848297984	55	9917
2026-01-06 00:05:10.54	139.06	9.88	-39.7	-52.7	7.3	6.38e-01	46	57	0	848822272	56	11806
2026-01-06 00:05:11.55	139.20	9.81	-40.3	-47.0	14.0	6.05e-01	0	57	0	850395136	53	7217
2026-01-06 00:05:12.56	139.34	9.75	-40.3	-44.0	17.5	6.00e-01	0	57	0	852492288	51	5723
2026-01-06 00:05:13.57	139.48	9.68	-39.4	-42.3	18.7	6.05e-01	0	57	0	854065152	49	5281
2026-01-06 00:05:14.58	139.62	9.61	-39.3	-42.5	19.0	6.05e-01	0	56	0	856162304	49	5422
2026-01-06 00:05:15.59	139.76	9.54	-40.6	-44.1	18.1	6.01e-01	0	57	0	858259456	51	5812
2026-01-06 00:05:16.60	139.90	9.47	-40.0	-43.1	19.1	6.04e-01	0	57	0	859832320	52	4895
2026-01-06 00:05:17.61	140.04	9.40	-40.4	-43.5	19.0	6.01e-01	0	57	0	861929472	51	5463
2026-01-06 00:05:18.62	140.18	9.34	-40.2	-43.1	19.4	6.03e-01	0	57	0	863502336	51	5184
2026-01-06 00:05:19.63	140.32	9.27	-40.2	-43.1	19.5	6.03e-01	0	57	0	865599488	51	5189
2026-01-06 00:05:20.64	140.45	9.20	-39.9	-42.7	19.8	6.01e-01	0	57	0	867696640	51	4966
2026-01-06 00:05:21.65	140.59	9.13	-39.9	-42.7	19.9	6.05e-01	0	57	0	869269504	51	4960
2026-01-06 00:05:22.66	140.73	9.07	-40.0	-42.8	19.7	6.02e-01	0	57	0	871366656	51	5032
2026-01-06 00:05:23.67	140.86	9.00	-40.0	-42.8	19.8	6.01e-01	0	57	0	873463808	51	5011
2026-01-06 00:05:24.68	140.99	8.93	-40.0	-42.8	19.8	6.03e-01	0	57	0	875036672	51	5031
2026-01-06 00:05:25.69	141.13	8.86	-40.1	-42.9	19.8	6.03e-01	0	57	0	877133824	51	5060
2026-01-06 00:05:26.70	141.26	8.80	-40.2	-43.0	19.7	6.01e-01	0	56	0	878706688	51	5156
2026-01-06 00:05:27.70	141.39	8.73	-40.2	-43.0	19.7	6.03e-01	0	57	0	880803840	51	5113
2026-01-06 00:05:28.72	141.52	8.66	-40.0	-42.8	19.9	6.01e-01	0	57	0	882900992	51	5003
2026-01-06 00:05:29.73	141.65	8.59	-40.2	-43.0	19.8	6.04e-01	0	57	0	884473856	51	5134
2026-01-06 00:05:30.74	141.79	8.53	-40.3	-43.1	19.7	6.02e-01	0	57	0	886571008	51	5186
2026-01-06 00:05:31.75	141.91	8.46	-40.2	-43.0	19.8	6.01e-01	0	57	0	888143872	51	5144
2026-01-06 00:05:32.76	142.04	8.39	-40.3	-43.1	19.7	6.02e-01	0	57	0	890241024	51	5173
2026-01-06 00:05:33.77	142.17	8.33	-40.3	-43.2	19.6	6.02e-01	0	57	0	892338176	51	5252
2026-01-06 00:05:34.78	142.30	8.26	-40.4	-43.3	19.5	6.00e-01	0	57	0	893911040	51	5313
2026-01-06 00:05:35.79	142.43	8.19	-40.3	-43.1	19.6	6.01e-01	0	57	0	896008192	51	5209
2026-01-06 00:05:36.80	142.55	8.13	-40.3	-43.1	19.7	6.03e-01	0	57	0	897581056	51	5187
2026-01-06 00:05:37.81	142.68	8.06	-40.3	-43.2	19.5	6.00e-01	0	57	0	899678208	51	5260
2026-01-06 00:05:38.82	142.80	7.99	-44.5	-60.7	3.6	7.43e-01	0	57	104	901251072	60	23431
2026-01-06 00:05:39.83	142.93	7.93	-44.3	-63.2	3.9	7.49e-01	0	57	104	901251072	59	33278
2026-01-06 00:05:40.84	143.05	7.86	-45.6	-64.3	3.8	7.48e-01	0	57	104	901251072	61	33695
2026-01-06 00:05:41.85	143.18	7.80	-45.9	-64.7	3.8	7.44e-01	0	57	104	901251072	62	32949
2026-01-06 00:05:42.86	143.30	7.73	-46.1	-64.8	3.8	7.50e-01	0	57	104	901251072	62	33582
2026-01-06 00:05:43.87	143.42	7.66	-46.2	-65.0	3.8	7.45e-01	0	57	104	901251072	62	34111
2026-01-06 00:05:44.88	143.54	7.60	-46.3	-65.1	3.8	7.47e-01	0	57	104	901251072	63	32608
2026-01-06 00:05:45.89	143.66	7.53	-46.3	-65.1	3.8	7.45e-01	0	57	104	901251072	63	32612
2026-01-06 00:05:46.90	143.79	7.47	-46.3	-65.2	3.8	7.44e-01	0	57	104	901251072	63	32954
2026-01-06 00:05:47.91	143.91	7.40	-46.4	-65.2	3.8	7.44e-01	0	57	104	901251072	63	32953
2026-01-06 00:05:48.92	144.02	7.34	-46.2	-65.1	3.8	7.46e-01	0	57	104	901251072	63	32710
2026-01-06 00:05:49.93	144.14	7.27	-46.2	-65.0	3.8	7.46e-01	0	57	104	901251072	63	32417
2026-01-06 00:05:50.94	144.26	7.21	-46.1	-65.0	3.8	7.44e-01	0	57	104	901251072	63	32314
2026-01-06 00:05:51.95	144.38	7.14	-46.1	-64.9	3.8	7.46e-01	0	57	104	901251072	63	32154
2026-01-06 00:05:52.96	144.50	7.07	-46.1	-64.9	3.8	7.44e-01	0	57	104	901251072	63	32133
2026-01-06 00:05:53.97	144.61	7.01	-46.0	-64.9	3.8	7.47e-01	0	57	104	901251072	63	31892
2026-01-06 00:05:54.99	144.73	6.94	-46.0	-64.9	3.8	7.47e-01	0	57	104	901251072	63	31876
2026-01-06 00:05:56.00	144.85	6.88	-46.0	-64.9	3.8	7.42e-01	0	57	104	901251072	63	31819
2026-01-06 00:05:57.01	144.96	6.81	-46.0	-64.9	3.8	7.46e-01	0	57	104	901251072	63	31867
2026-01-06 00:05:58.02	145.08	6.75	-46.0	-64.8	3.8	7.44e-01	0	57	104	901251072	63	31798
2026-01-06 00:05:59.03	145.19	6.69	-46.0	-64.9	3.8	7.46e-01	0	57	104	901251072	63	31885
2026-01-06 00:06:00.04	145.30	6.62	-46.0	-64.8	3.8	7.44e-01	0	57	104	901251072	63	31804
2026-01-06 00:06:01.05	145.42	6.56	-46.0	-64.9	3.8	7.47e-01	0	57	104	901251072	63	31861
2026-01-06 00:06:02.06	145.53	6.49	-46.0	-64.9	3.8	7.45e-01	0	57	104	901251072	63	31908
2026-01-06 00:06:03.07	145.64	6.43	-46.0	-64.8	3.8	7.46e-01	0	57	104	901251072	63	31809
2026-01-06 00:06:04.08	145.75	6.36	-46.0	-64.8	3.8	7.47e-01	0	57	104	901251072	63	31699
2026-01-06 00:06:05.09	145.86	6.30	-46.0	-64.8	3.8	7.47e-01	0	57	104	901251072	63	31806
2026-01-06 00:06:06.10	145.97	6.24	-46.0	-64.9	3.8	7.44e-01	0	57	104	901251072	63	31822
2026-01-06 00:06:07.12	146.08	6.17	-46.0	-64.9	3.8	7.47e-01	0	57	104	901251072	63	31833
2026-01-06 00:06:08.13	146.19	6.11	-46.0	-64.8	3.8	7.45e-01	0	57	104	901251072	63	31749
2026-01-06 00:06:09.14	146.30	6.04	-46.0	-64.8	3.8	7.45e-01	0	57	104	901251072	63	31757
2026-01-06 00:06:10.15	146.41	5.98	-46.0	-64.9	3.8	7.47e-01	0	57	104	901251072	63	31845
2026-01-06 00:06:11.16	146.52	5.92	-46.0	-64.8	3.8	7.45e-01	0	57	104	901251072	63	31785
2026-01-06 00:06:12.17	146.63	5.85	-46.0	-64.8	3.8	7.44e-01	0	57	104	901251072	63	31760
2026-01-06 00:06:13.18	146.73	5.79	-46.0	-64.8	3.8	7.49e-01	0	57	104	901251072	63	31795
2026-01-06 00:06:14.19	146.84	5.73	-46.0	-64.9	3.8	7.42e-01	0	57	104	901251072	63	31818
2026-01-06 00:06:15.21	146.95	5.66	-46.0	-64.8	3.8	7.45e-01	0	57	104	901251072	63	31740
2026-01-06 00:06:16.22	147.05	5.60	-46.0	-64.8	3.8	7.46e-01	0	57	104	901251072	63	31805
2026-01-06 00:06:17.23	147.16	5.54	-46.0	-64.9	3.8	7.46e-01	0	57	104	901251072	63	31824
2026-01-06 00:06:18.24	147.26	5.47	-46.0	-64.8	3.8	7.47e-01	0	57	104	901251072	63	31784
2026-01-06 00:06:19.25	147.36	5.41	-46.0	-64.8	3.8	7.47e-01	0	57	104	901251072	63	31794
2026-01-06 00:06:20.26	147.47	5.35	-46.0	-64.8	3.8	7.45e-01	0	57	104	901251072	63	31724
2026-01-06 00:06:21.27	147.57	5.29	-46.0	-64.8	3.8	7.47e-01	0	57	104	901251072	63	31752
2026-01-06 00:06:22.28	147.67	5.22	-46.0	-64.8	3.8	7.43e-01	0	57	104	901251072	63	31722
2026-01-06 00:06:23.29	147.77	5.16	-46.0	-64.8	3.8	7.46e-01	0	57	104	901251072	63	31738
2026-01-06 00:06:24.30	147.88	5.10	-46.0	-64.8	3.8	7.45e-01	0	57	104	901251072	63	31722
2026-01-06 00:06:25.32	147.98	5.04	-46.0	-64.8	3.8	7.43e-01	0	57	104	901251072	63	31771
2026-01-06 00:06:26.33	148.08	4.98	-46.0	-64.8	3.8	7.48e-01	0	57	104	901251072	63	31731
2026-01-06 00:06:27.34	148.18	4.91	-46.0	-64.8	3.8	7.44e-01	0	57	104	901251072	63	31799
2026-01-06 00:06:28.35	148.28	4.85	-46.0	-64.8	3.8	7.46e-01	0	57	104	901251072	63	31708
2026-01-06 00:06:29.36	148.38	4.79	-46.0	-64.8	3.8	7.42e-01	0	57	104	901251072	63	31764
2026-01-06 00:06:30.37	148.48	4.73	-46.0	-64.8	3.8	7.47e-01	0	57	104	901251072	63	31734
2026-01-06 00:06:31.38	148.58	4.67	-46.0	-64.8	3.8	7.48e-01	0	57	104	901251072	63	31701
2026-01-06 00:06:32.39	148.67	4.60	-46.0	-64.8	3.8	7.42e-01	0	57	104	901251072	63	31789
2026-01-06 00:06:33.39	148.77	4.54	-46.0	-64.8	3.8	7.45e-01	0	57	104	901251072	63	31741
2026-01-06 00:06:34.40	148.87	4.48	-46.0	-64.8	3.8	7.47e-01	0	57	104	901251072	63	31702
2026-01-06 00:06:35.42	148.97	4.42	-46.0	-64.8	3.8	7.45e-01	0	57	104	901251072	63	31715
2026-01-06 00:06:36.43	149.06	4.36	-46.0	-64.8	3.8	7.44e-01	0	57	104	901251072	63	31682
2026-01-06 00:06:37.44	149.16	4.30	-46.0	-64.8	3.8	7.46e-01	0	57	104	901251072	63	31761
2026-01-06 00:06:38.45	149.25	4.24	-46.0	-64.8	3.8	7.46e-01	0	57	104	901251072	63	31721
2026-01-06 00:06:39.46	149.35	4.18	-46.0	-64.8	3.8	7.45e-01	0	57	104	901251072	63	31670
2026-01-06 00:06:40.47	149.44	4.12	-46.0	-64.8	3.8	7.45e-01	0	57	104	901251072	63	31679
2026-01-06 00:06:41.48	149.54	4.06	-46.0	-64.8	3.8	7.48e-01	0	57	104	901251072	63	31671
2026-01-06 00:06:42.49	149.63	3.99	-46.0	-64.8	3.8	7.43e-01	0	57	104	901251072	63	31664
2026-01-06 00:06:43.50	149.72	3.93	-46.0	-64.8	3.8	7.44e-01	0	57	104	901251072	63	31704
2026-01-06 00:06:44.51	149.82	3.87	-46.0	-64.8	3.8	7.42e-01	0	57	104	901251072	63	31604
2026-01-06 00:06:45.53	149.91	3.81	-46.0	-64.8	3.8	7.47e-01	0	57	104	901251072	63	31697
2026-01-06 00:06:46.54	150.00	3.75	-46.0	-64.8	3.8	7.49e-01	0	57	104	901251072	63	31653
2026-01-06 00:06:47.55	150.09	3.69	-46.0	-64.8	3.8	7.48e-01	0	57	104	901251072	63	31714
2026-01-06 00:06:48.56	150.19	3.63	-46.0	-64.8	3.8	7.40e-01	0	57	104	901251072	63	31677
2026-01-06 00:06:49.57	150.28	3.57	-46.0	-64.8	3.8	7.48e-01	0	57	104	901251072	63	31668
2026-01-06 00:06:50.58	150.37	3.51	-46.0	-64.8	3.8	7.43e-01	0	57	104	901251072	63	31634
2026-01-06 00:06:51.59	150.46	3.45	-46.0	-64.8	3.8	7.45e-01	0	57	104	901251072	63	31679
2026-01-06 00:06:52.60	150.55	3.39	-46.0	-64.8	3.8	7.48e-01	0	57	104	901251072	63	31632
2026-01-06 00:06:53.61	150.64	3.33	-46.0	-64.8	3.8	7.49e-01	0	57	104	901251072	63	31685
2026-01-06 00:06:54.62	150.73	3.27	-46.0	-64.8	3.8	7.48e-01	0	57	104	901251072	63	31659
2026-01-06 00:06:55.63	150.82	3.22	-46.0	-64.8	3.8	7.46e-01	0	57	104	901251072	63	31646
2026-01-06 00:06:56.65	150.90	3.16	-45.9	-64.8	3.8	7.43e-01	0	57	104	901251072	63	31645
2026-01-06 00:06:57.66	150.99	3.10	-46.0	-64.8	3.8	7.46e-01	0	57	104	901251072	63	31668
2026-01-06 00:06:58.67	151.08	3.04	-45.9	-64.8	3.8	7.44e-01	0	57	104	901251072	63	31689
2026-01-06 00:06:59.68	151.17	2.98	-45.9	-64.8	3.8	7.44e-01	0	57	104	901251072	63	31708
2026-01-06 00:07:00.69	151.25	2.92	-46.0	-64.8	3.8	7.44e-01	0	57	104	901251072	63	31677
2026-01-06 00:07:01.70	151.34	2.86	-46.0	-64.8	3.8	7.46e-01	0	57	104	901251072	63	31649
2026-01-06 00:07:02.71	151.43	2.80	-46.0	-64.8	3.8	7.46e-01	0	57	104	901251072	63	31670
2026-01-06 00:07:03.72	151.51	2.74	-46.0	-64.8	3.8	7.45e-01	0	57	104	901251072	63	31702
2026-01-06 00:07:04.73	151.60	2.68	-46.0	-64.8	3.8	7.43e-01	0	57	104	901251072	63	31683
2026-01-06 00:07:05.74	151.68	2.63	-46.0	-64.8	3.8	7.42e-01	0	57	104	901251072	63	31637
2026-01-06 00:07:06.76	151.77	2.57	-46.0	-64.8	3.8	7.46e-01	0	57	104	901251072	63	31607
2026-01-06 00:07:07.77	151.85	2.51	-45.9	-64.8	3.8	7.48e-01	0	57	104	901251072	63	31553
2026-01-06 00:07:08.78	151.94	2.45	-45.9	-64.8	3.8	7.46e-01	0	57	104	901251072	63	31657
2026-01-06 00:07:09.79	152.02	2.39	-45.9	-64.8	3.8	7.47e-01	0	57	104	901251072	63	31614
2026-01-06 00:07:10.80	152.10	2.33	-45.9	-64.8	3.8	7.44e-01	0	57	104	901251072	63	31747
2026-01-06 00:07:11.81	152.19	2.28	-46.0	-64.8	3.8	7.44e-01	0	57	104	901251072	63	31558
2026-01-06 00:07:12.82	152.27	2.22	-45.9	-64.8	3.8	7.44e-01	0	57	104	901251072	63	31592
2026-01-06 00:07:13.83	152.35	2.16	-46.0	-64.8	3.8	7.45e-01	0	57	104	901251072	63	31667
2026-01-06 00:07:14.84	152.43	2.10	-45.9	-64.8	3.8	7.46e-01	0	57	104	901251072	63	31685
2026-01-06 00:07:15.86	152.52	2.04	-46.0	-64.8	3.8	7.43e-01	0	57	104	901251072	63	31634
2026-01-06 00:07:16.87	152.60	1.99	-46.0	-64.8	3.8	7.47e-01	0	57	104	901251072	63	31682
2026-01-06 00:07:17.88	152.68	1.93	-46.0	-64.8	3.8	7.45e-01	0	57	104	901251072	63	31677
2026-01-06 00:07:18.89	152.76	1.87	-46.0	-64.8	3.8	7.47e-01	0	57	104	901251072	63	31636

#Closed at: 2026-01-06 00:07:19
#Recorded file [901 MB]: D:/lorett/data/31039_260106_025555.dat