passes_logs/2026/01/05/R2.0S_Moscow/R2.0S_Moscow__20260105_105251_SUOMI_NPP_rec.log

#Pass ID: 20260105_105251_SUOMI NPP
#Satellite: SUOMI NPP
#Configuration: NPP
#almurnet v.1.7.20251203
#Start time: 2026-01-05 10:52:51

#Version: 2.2.20231116
#Station: R2.0S_Moscow
#Location: 37.707566 lon 55.798166 lat
#TLE: 1 37849U 11061A   26003.96724563  .00000164  00000+0  98899-4 0  9990
#TLE: 2 37849  98.7800 306.1116 0002573  82.3190 277.8279 14.19522066735141

#Time	Az	El	Level	Level2	SNR	BER	BlckErr	Temp	State	Recorded	gain1	gain2
2026-01-05 10:52:51.38	186.94	1.98	-44.0	-58.5	3.8	1.49e+00	0	47	0	0	59	19385
2026-01-05 10:52:52.39	186.99	2.04	-44.0	-58.5	3.8	1.49e+00	0	47	104	0	59	19382
2026-01-05 10:52:53.40	187.03	2.10	-44.0	-58.5	3.8	1.49e+00	0	47	104	0	59	19389
2026-01-05 10:52:54.41	187.07	2.17	-44.0	-58.6	3.8	1.49e+00	0	47	104	0	59	19398
2026-01-05 10:52:55.42	187.12	2.23	-44.0	-58.5	3.8	1.49e+00	0	47	104	0	59	19300
2026-01-05 10:52:56.43	187.16	2.29	-44.0	-58.5	3.8	1.49e+00	0	47	104	0	59	19381
2026-01-05 10:52:57.44	187.20	2.35	-44.0	-58.6	3.8	1.49e+00	0	47	104	0	59	19436
2026-01-05 10:52:58.45	187.25	2.42	-44.0	-58.5	3.8	1.49e+00	0	48	104	0	59	19344
2026-01-05 10:52:59.47	187.29	2.48	-44.0	-58.5	3.8	1.49e+00	0	48	104	0	59	19326
2026-01-05 10:53:00.48	187.34	2.54	-44.0	-58.5	3.8	1.49e+00	0	47	104	0	59	19340
2026-01-05 10:53:01.49	187.38	2.61	-44.0	-58.5	3.8	1.49e+00	0	48	104	0	59	19375
2026-01-05 10:53:02.50	187.43	2.67	-44.0	-58.5	3.8	1.49e+00	0	48	104	0	59	19387
2026-01-05 10:53:03.51	187.47	2.73	-44.0	-58.5	3.8	1.49e+00	0	48	104	0	59	19362
2026-01-05 10:53:04.52	187.52	2.80	-44.0	-58.5	3.8	1.49e+00	0	48	104	0	59	19363
2026-01-05 10:53:05.53	187.56	2.86	-44.0	-58.5	3.8	1.49e+00	0	48	104	0	59	19356
2026-01-05 10:53:06.54	187.61	2.92	-44.0	-58.5	3.8	1.49e+00	0	48	104	0	59	19352
2026-01-05 10:53:07.55	187.65	2.99	-44.0	-58.5	3.8	1.49e+00	0	48	104	0	59	19384
2026-01-05 10:53:08.56	187.70	3.05	-44.0	-58.5	3.8	1.49e+00	0	48	104	0	59	19311
2026-01-05 10:53:09.58	187.75	3.11	-44.0	-58.5	3.8	1.49e+00	0	48	104	0	59	19377
2026-01-05 10:53:10.58	187.79	3.18	-44.0	-58.5	3.8	1.49e+00	0	48	104	0	59	19383
2026-01-05 10:53:11.60	187.84	3.24	-44.0	-58.5	3.8	1.49e+00	0	48	104	0	59	19366
2026-01-05 10:53:12.61	187.89	3.31	-44.0	-58.5	3.8	1.49e+00	0	48	104	0	59	19380
2026-01-05 10:53:13.62	187.93	3.37	-44.0	-58.5	3.8	1.49e+00	0	49	104	0	59	19386
2026-01-05 10:53:14.63	187.98	3.44	-44.0	-58.5	3.8	1.49e+00	0	49	104	0	59	19365
2026-01-05 10:53:15.64	188.03	3.50	-44.0	-58.6	3.8	1.49e+00	0	49	104	0	59	19425
2026-01-05 10:53:16.65	188.07	3.57	-44.0	-58.5	3.8	1.49e+00	0	49	104	0	59	19384
2026-01-05 10:53:17.66	188.12	3.63	-44.0	-58.5	3.8	1.49e+00	0	49	104	0	59	19375
2026-01-05 10:53:18.67	188.17	3.70	-44.0	-58.5	3.8	1.49e+00	0	49	104	0	59	19342
2026-01-05 10:53:19.68	188.22	3.76	-44.0	-58.5	3.8	1.49e+00	0	49	104	0	59	19317
2026-01-05 10:53:20.69	188.27	3.83	-44.0	-58.5	3.8	1.49e+00	0	49	104	0	59	19336
2026-01-05 10:53:21.71	188.32	3.89	-44.0	-58.5	3.8	1.49e+00	0	49	104	0	59	19376
2026-01-05 10:53:22.72	188.36	3.96	-44.0	-58.5	3.8	1.49e+00	0	49	104	0	59	19365
2026-01-05 10:53:23.73	188.41	4.03	-44.0	-58.5	3.8	1.49e+00	0	49	104	0	59	19327
2026-01-05 10:53:24.74	188.46	4.09	-44.0	-58.5	3.8	1.49e+00	0	49	104	0	59	19297
2026-01-05 10:53:25.75	188.51	4.16	-44.0	-58.5	3.8	1.49e+00	0	49	104	0	59	19323
2026-01-05 10:53:26.76	188.56	4.23	-44.0	-58.5	3.8	1.49e+00	0	49	104	0	59	19330
2026-01-05 10:53:27.77	188.61	4.29	-44.0	-58.5	3.8	1.49e+00	0	49	104	0	59	19289
2026-01-05 10:53:28.78	188.66	4.36	-44.0	-58.5	3.8	1.49e+00	0	49	104	0	59	19196
2026-01-05 10:53:29.79	188.71	4.43	-44.0	-58.4	3.8	1.49e+00	0	49	104	0	59	18999
2026-01-05 10:53:30.80	188.76	4.49	-44.0	-58.3	3.8	1.49e+00	0	50	104	0	59	18762
2026-01-05 10:53:31.82	188.81	4.56	-44.0	-58.2	3.8	1.49e+00	0	50	104	0	59	18620
2026-01-05 10:53:32.82	188.86	4.63	-44.0	-58.1	3.8	1.49e+00	0	50	104	0	59	18487
2026-01-05 10:53:33.84	188.91	4.70	-44.0	-58.0	3.8	1.49e+00	0	50	104	0	59	18182
2026-01-05 10:53:34.85	188.97	4.76	-44.0	-57.9	3.8	1.49e+00	0	50	104	0	59	17969
2026-01-05 10:53:35.86	189.02	4.83	-44.0	-57.7	3.8	1.49e+00	0	50	104	0	59	17615
2026-01-05 10:53:36.87	189.07	4.90	-44.0	-57.7	3.8	1.49e+00	0	50	104	0	59	17611
2026-01-05 10:53:37.88	189.12	4.97	-43.9	-57.7	3.8	1.49e+00	0	50	104	0	59	17568
2026-01-05 10:53:38.89	189.17	5.03	-44.0	-57.8	3.8	1.49e+00	0	50	104	0	59	17714
2026-01-05 10:53:39.90	189.23	5.10	-44.0	-57.6	3.8	1.49e+00	0	50	104	0	59	17466
2026-01-05 10:53:40.91	189.28	5.17	-44.0	-57.6	3.8	1.49e+00	0	50	104	0	59	17455
2026-01-05 10:53:41.92	189.33	5.24	-43.9	-57.6	3.8	1.49e+00	0	50	104	0	59	17365
2026-01-05 10:53:42.93	189.38	5.31	-44.0	-57.6	3.8	1.49e+00	0	50	104	0	59	17371
2026-01-05 10:53:43.95	189.44	5.38	-44.0	-57.7	3.8	1.49e+00	0	50	104	0	59	17615
2026-01-05 10:53:44.96	189.49	5.45	-44.0	-57.8	3.8	1.49e+00	0	50	104	0	59	17747
2026-01-05 10:53:45.97	189.55	5.52	-44.0	-57.9	3.8	1.49e+00	0	50	104	0	59	18044
2026-01-05 10:53:46.98	189.60	5.59	-44.0	-58.0	3.8	1.49e+00	0	50	104	0	59	18214
2026-01-05 10:53:47.99	189.65	5.66	-44.0	-58.0	3.8	1.49e+00	0	51	104	0	59	18298
2026-01-05 10:53:49.00	189.71	5.73	-44.0	-58.2	3.8	1.49e+00	0	51	104	0	59	18532
2026-01-05 10:53:50.01	189.76	5.80	-44.0	-58.2	3.8	1.49e+00	0	51	104	0	59	18674
2026-01-05 10:53:51.02	189.82	5.87	-44.0	-58.2	3.8	1.49e+00	0	51	104	0	59	18544
2026-01-05 10:53:52.03	189.87	5.94	-44.0	-58.1	3.8	1.49e+00	0	51	104	0	59	18347
2026-01-05 10:53:53.04	189.93	6.01	-44.0	-58.1	3.8	1.49e+00	0	51	104	0	59	18366
2026-01-05 10:53:54.06	189.99	6.08	-44.0	-58.2	3.8	1.49e+00	0	51	104	0	59	18541
2026-01-05 10:53:55.07	190.04	6.15	-44.0	-58.0	3.8	1.49e+00	0	51	104	0	59	18263
2026-01-05 10:53:56.08	190.10	6.22	-44.0	-58.0	3.8	1.49e+00	0	51	104	0	59	18148
2026-01-05 10:53:57.09	190.16	6.29	-44.0	-58.2	3.8	1.49e+00	0	51	104	0	59	18550
2026-01-05 10:53:58.10	190.21	6.36	-44.0	-57.9	3.8	1.49e+00	0	51	104	0	59	17904
2026-01-05 10:53:59.11	190.27	6.44	-44.0	-57.9	3.8	1.49e+00	0	51	104	0	59	18003
2026-01-05 10:54:00.12	190.33	6.51	-44.0	-57.6	3.8	1.49e+00	0	51	104	0	59	17481
2026-01-05 10:54:01.13	190.39	6.58	-43.9	-57.1	3.8	1.49e+00	0	51	104	0	59	16402
2026-01-05 10:54:02.14	190.44	6.65	-43.9	-56.7	3.8	1.49e+00	0	51	104	0	59	15603
2026-01-05 10:54:03.15	190.50	6.72	-43.9	-56.0	3.8	1.49e+00	0	51	104	0	59	14454
2026-01-05 10:54:04.16	190.56	6.80	-43.8	-55.1	4.2	1.43e+00	0	51	0	0	59	12979
2026-01-05 10:54:05.17	190.62	6.87	-43.7	-54.0	4.6	1.26e+00	0	51	0	1048576	59	11459
2026-01-05 10:54:06.18	190.68	6.94	-43.6	-53.1	5.0	8.23e-01	0	51	0	2097152	59	10326
2026-01-05 10:54:07.19	190.74	7.02	-43.4	-51.9	5.7	5.20e-01	0	51	0	4194304	58	9535
2026-01-05 10:54:08.21	190.80	7.09	-43.2	-50.8	6.5	2.71e-01	0	51	0	6291456	58	8420
2026-01-05 10:54:09.22	190.86	7.16	-43.0	-49.8	7.4	1.80e-01	0	51	0	8388608	58	7532
2026-01-05 10:54:10.23	190.92	7.24	-42.8	-49.1	8.1	8.00e-02	0	51	0	10485760	57	7310
2026-01-05 10:54:11.24	190.98	7.31	-42.6	-48.4	8.8	4.18e-02	0	51	0	11534336	57	6776
2026-01-05 10:54:12.25	191.04	7.38	-42.3	-47.7	9.6	2.00e-02	0	51	0	13631488	56	6588
2026-01-05 10:54:13.26	191.10	7.46	-42.1	-46.9	10.3	5.93e-03	0	51	0	15728640	56	6049
2026-01-05 10:54:14.27	191.16	7.53	-41.8	-46.4	10.7	3.06e-03	0	51	0	17825792	55	6023
2026-01-05 10:54:15.28	191.22	7.61	-41.5	-45.7	11.4	1.72e-03	0	52	0	19922944	55	5592
2026-01-05 10:54:16.29	191.29	7.68	-41.3	-45.4	11.8	5.92e-04	0	52	0	20971520	54	5703
2026-01-05 10:54:17.30	191.35	7.76	-41.2	-45.1	12.1	4.42e-04	0	52	0	23068672	54	5525
2026-01-05 10:54:18.31	191.41	7.83	-41.1	-45.0	12.2	3.36e-04	0	52	0	25165824	54	5449
2026-01-05 10:54:19.32	191.47	7.91	-41.1	-45.0	12.2	1.89e-04	0	52	0	27262976	54	5440
2026-01-05 10:54:20.33	191.54	7.98	-41.2	-45.1	12.1	2.04e-04	0	52	0	29360128	54	5502
2026-01-05 10:54:21.34	191.60	8.06	-41.2	-45.1	12.2	2.39e-04	0	52	0	30408704	54	5469
2026-01-05 10:54:22.35	191.66	8.13	-42.4	-48.0	9.1	1.93e-02	0	52	0	32505856	55	7267
2026-01-05 10:54:23.36	191.73	8.21	-42.7	-48.8	8.1	8.25e-01	0	52	0	34603008	57	7085
2026-01-05 10:54:24.37	191.79	8.29	-42.2	-47.3	9.9	8.91e-03	0	52	0	36700160	55	6705
2026-01-05 10:54:25.38	191.86	8.36	-41.4	-45.5	11.6	1.98e-02	0	52	0	38797312	55	5417
2026-01-05 10:54:26.39	191.92	8.44	-42.6	-48.4	8.8	1.01e-01	0	52	0	40894464	56	7145
2026-01-05 10:54:27.40	191.99	8.52	-41.4	-45.4	11.9	9.01e-04	0	52	0	41943040	54	5667
2026-01-05 10:54:28.41	192.05	8.59	-41.3	-45.3	12.0	2.98e-04	0	52	0	44040192	54	5619
2026-01-05 10:54:29.42	192.12	8.67	-41.4	-45.3	12.0	3.51e-04	0	52	0	46137344	54	5649
2026-01-05 10:54:30.43	192.19	8.75	-41.3	-45.2	12.1	2.49e-04	0	52	0	48234496	54	5573
2026-01-05 10:54:31.44	192.25	8.83	-41.2	-45.1	12.3	1.52e-04	0	52	0	50331648	54	5468
2026-01-05 10:54:32.45	192.32	8.90	-41.2	-44.9	12.4	1.72e-04	0	52	0	51380224	54	5372
2026-01-05 10:54:33.46	192.39	8.98	-41.1	-44.8	12.5	1.46e-04	0	52	0	53477376	54	5321
2026-01-05 10:54:34.47	192.46	9.06	-41.2	-44.9	12.4	1.02e-04	0	52	0	55574528	54	5384
2026-01-05 10:54:35.48	192.52	9.14	-41.0	-44.6	12.8	8.31e-05	0	52	0	57671680	54	5195
2026-01-05 10:54:36.49	192.59	9.22	-41.2	-44.9	12.6	8.46e-05	0	52	0	59768832	54	5347
2026-01-05 10:54:37.50	192.66	9.30	-41.1	-44.7	12.8	1.08e-04	0	52	0	60817408	54	5235
2026-01-05 10:54:38.51	192.73	9.38	-41.0	-44.6	12.9	5.18e-05	0	53	0	62914560	54	5180
2026-01-05 10:54:39.52	192.80	9.46	-41.1	-44.8	12.6	7.93e-05	0	52	0	65011712	54	5312
2026-01-05 10:54:40.53	192.87	9.54	-41.1	-44.7	12.8	7.01e-05	0	52	0	67108864	54	5254
2026-01-05 10:54:41.54	192.94	9.62	-41.1	-44.6	12.8	4.95e-05	0	52	0	69206016	54	5216
2026-01-05 10:54:42.55	193.01	9.70	-41.1	-44.7	12.8	7.01e-05	0	52	0	70254592	54	5225
2026-01-05 10:54:43.56	193.08	9.78	-41.2	-44.8	12.7	5.72e-05	0	53	0	72351744	54	5339
2026-01-05 10:54:44.57	193.15	9.86	-41.1	-44.8	12.7	6.48e-05	0	52	0	74448896	54	5298
2026-01-05 10:54:45.58	193.23	9.94	-41.0	-44.5	13.0	4.42e-05	0	53	0	76546048	54	5155
2026-01-05 10:54:46.59	193.30	10.02	-41.2	-44.8	12.7	6.17e-05	0	53	0	78643200	54	5333
2026-01-05 10:54:47.60	193.37	10.10	-41.0	-44.5	13.0	5.18e-05	0	53	0	79691776	54	5128
2026-01-05 10:54:48.61	193.44	10.18	-40.9	-44.3	13.2	2.21e-05	0	53	0	81788928	53	5316
2026-01-05 10:54:49.62	193.52	10.26	-40.8	-44.1	13.5	1.29e-05	0	53	0	83886080	53	5179
2026-01-05 10:54:50.63	193.59	10.35	-40.7	-43.9	13.6	1.22e-05	0	53	0	85983232	53	5085
2026-01-05 10:54:51.64	193.67	10.43	-40.8	-44.1	13.4	1.90e-05	0	53	0	88080384	53	5205
2026-01-05 10:54:52.65	193.74	10.51	-40.7	-43.9	13.6	1.06e-05	0	53	0	89128960	53	5070
2026-01-05 10:54:53.66	193.82	10.59	-40.8	-44.0	13.6	6.80e-06	0	53	0	91226112	53	5128
2026-01-05 10:54:54.66	193.89	10.67	-40.5	-43.6	13.9	9.90e-06	0	53	0	93323264	53	4920
2026-01-05 10:54:55.67	193.97	10.76	-40.5	-43.6	14.0	3.80e-06	0	53	0	95420416	53	4903
2026-01-05 10:54:56.68	194.04	10.84	-40.4	-43.5	14.0	2.20e-06	0	53	0	97517568	52	5138
2026-01-05 10:54:57.69	194.12	10.92	-40.4	-43.4	14.1	1.50e-06	0	53	0	98566144	52	5096
2026-01-05 10:54:58.70	194.20	11.01	-40.4	-43.4	14.1	1.50e-06	0	53	0	100663296	52	5087
2026-01-05 10:54:59.71	194.27	11.09	-40.4	-43.4	14.1	1.50e-06	0	53	0	102760448	52	5064
2026-01-05 10:55:00.72	194.35	11.18	-40.3	-43.3	14.2	2.20e-06	0	53	0	104857600	52	5030
2026-01-05 10:55:01.73	194.43	11.26	-40.4	-43.4	14.2	7.00e-07	0	53	0	106954752	52	5059
2026-01-05 10:55:02.74	194.51	11.35	-40.3	-43.2	14.3	0.00e+00	0	53	0	109051904	52	4951
2026-01-05 10:55:03.75	194.59	11.43	-40.3	-43.2	14.3	0.00e+00	0	53	0	110100480	52	4974
2026-01-05 10:55:04.76	194.67	11.52	-40.3	-43.2	14.3	7.00e-07	0	53	0	112197632	52	4978
2026-01-05 10:55:05.77	194.75	11.60	-40.2	-43.1	14.5	0.00e+00	0	53	0	114294784	52	4881
2026-01-05 10:55:06.78	194.83	11.69	-40.2	-43.2	14.4	7.00e-07	0	53	0	116391936	52	4934
2026-01-05 10:55:07.79	194.91	11.77	-40.2	-43.0	14.6	7.00e-07	0	53	0	118489088	52	4847
2026-01-05 10:55:08.80	194.99	11.86	-40.2	-43.1	14.5	0.00e+00	0	53	0	119537664	52	4894
2026-01-05 10:55:09.81	195.07	11.95	-40.1	-42.9	14.7	0.00e+00	0	53	0	121634816	52	4791
2026-01-05 10:55:10.82	195.15	12.03	-40.1	-42.8	14.7	7.00e-07	0	53	0	123731968	52	4756
2026-01-05 10:55:11.83	195.24	12.12	-40.0	-42.8	14.8	0.00e+00	0	53	0	125829120	52	4732
2026-01-05 10:55:12.84	195.32	12.21	-40.1	-42.8	15.0	0.00e+00	0	53	0	127926272	51	4985
2026-01-05 10:55:13.85	195.40	12.30	-40.0	-42.7	15.1	0.00e+00	0	53	0	128974848	51	4944
2026-01-05 10:55:14.86	195.49	12.38	-39.9	-42.5	15.3	0.00e+00	0	53	0	131072000	51	4828
2026-01-05 10:55:15.87	195.57	12.47	-39.9	-42.5	15.3	0.00e+00	0	53	0	133169152	51	4837
2026-01-05 10:55:16.88	195.66	12.56	-39.9	-42.4	15.4	0.00e+00	0	53	0	135266304	51	4812
2026-01-05 10:55:17.89	195.75	12.65	-39.7	-42.2	15.5	0.00e+00	0	54	0	137363456	51	4700
2026-01-05 10:55:18.90	195.83	12.74	-39.7	-42.2	15.5	0.00e+00	0	54	0	138412032	51	4700
2026-01-05 10:55:19.90	195.92	12.83	-39.7	-42.2	15.5	0.00e+00	0	54	0	140509184	51	4681
2026-01-05 10:55:20.91	196.00	12.92	-39.8	-42.3	15.4	0.00e+00	0	54	0	142606336	51	4723
2026-01-05 10:55:21.92	196.09	13.01	-39.7	-42.1	15.6	0.00e+00	0	53	0	144703488	51	4627
2026-01-05 10:55:22.93	196.18	13.10	-39.6	-42.0	15.7	0.00e+00	0	54	0	146800640	51	4582
2026-01-05 10:55:23.94	196.27	13.19	-39.7	-42.2	15.6	0.00e+00	0	53	0	147849216	51	4659
2026-01-05 10:55:24.95	196.36	13.28	-39.7	-42.1	15.7	0.00e+00	0	54	0	149946368	51	4628
2026-01-05 10:55:25.96	196.45	13.37	-39.7	-42.2	15.6	0.00e+00	0	54	0	152043520	51	4687
2026-01-05 10:55:26.97	196.54	13.46	-39.7	-42.2	15.6	0.00e+00	0	54	0	154140672	51	4689
2026-01-05 10:55:27.98	196.63	13.55	-39.7	-42.2	15.7	0.00e+00	0	54	0	156237824	51	4675
2026-01-05 10:55:28.99	196.72	13.64	-39.9	-42.4	15.5	0.00e+00	0	54	0	157286400	51	4787
2026-01-05 10:55:30.00	196.81	13.73	-39.9	-42.4	15.5	0.00e+00	0	54	0	159383552	51	4800
2026-01-05 10:55:31.00	196.90	13.83	-39.9	-42.5	15.3	0.00e+00	0	54	0	161480704	51	4846
2026-01-05 10:55:32.01	197.00	13.92	-40.0	-42.6	15.2	0.00e+00	0	54	0	163577856	51	4899
2026-01-05 10:55:33.02	197.09	14.01	-39.8	-42.5	15.3	0.00e+00	0	54	0	165675008	51	4817
2026-01-05 10:55:34.03	197.19	14.10	-39.9	-42.5	15.3	0.00e+00	0	54	0	166723584	51	4859
2026-01-05 10:55:35.04	197.28	14.20	-39.7	-42.3	15.5	0.00e+00	0	54	0	168820736	51	4722
2026-01-05 10:55:36.05	197.38	14.29	-39.9	-42.4	15.3	0.00e+00	0	54	0	170917888	51	4811
2026-01-05 10:55:37.07	197.47	14.39	-39.8	-42.3	15.5	0.00e+00	0	54	0	173015040	51	4745
2026-01-05 10:55:38.08	197.57	14.48	-39.8	-42.3	15.5	0.00e+00	0	54	0	175112192	51	4757
2026-01-05 10:55:39.09	197.67	14.58	-39.8	-42.4	15.5	0.00e+00	0	54	0	177209344	51	4772
2026-01-05 10:55:40.10	197.76	14.67	-39.9	-42.5	15.4	0.00e+00	0	54	0	178257920	51	4839
2026-01-05 10:55:41.11	197.86	14.77	-40.0	-42.6	15.3	0.00e+00	0	54	0	180355072	51	4882
2026-01-05 10:55:42.11	197.96	14.86	-39.9	-42.4	15.5	0.00e+00	0	54	0	182452224	51	4814
2026-01-05 10:55:43.12	198.06	14.96	-39.9	-42.5	15.5	0.00e+00	0	54	0	184549376	51	4848
2026-01-05 10:55:44.14	198.16	15.05	-40.0	-42.5	15.4	0.00e+00	0	54	0	186646528	51	4850
2026-01-05 10:55:45.14	198.26	15.15	-40.0	-42.6	15.4	0.00e+00	0	54	0	187695104	51	4874
2026-01-05 10:55:46.15	198.36	15.25	-40.0	-42.6	15.3	0.00e+00	0	54	0	189792256	51	4906
2026-01-05 10:55:47.16	198.47	15.34	-40.2	-42.8	15.1	0.00e+00	0	54	0	191889408	51	5015
2026-01-05 10:55:48.17	198.57	15.44	-40.3	-43.0	15.0	7.00e-07	0	54	0	193986560	51	5123
2026-01-05 10:55:49.18	198.67	15.54	-40.1	-42.8	15.2	0.00e+00	0	54	0	196083712	51	5002
2026-01-05 10:55:50.19	198.78	15.64	-40.2	-42.8	15.1	0.00e+00	0	54	0	197132288	51	5030
2026-01-05 10:55:51.20	198.88	15.73	-40.2	-42.9	15.0	7.00e-07	0	54	0	199229440	51	5059
2026-01-05 10:55:52.21	198.99	15.83	-40.2	-42.8	15.1	0.00e+00	0	54	0	201326592	51	5019
2026-01-05 10:55:53.22	199.09	15.93	-40.2	-42.9	15.1	0.00e+00	0	54	0	203423744	51	5043
2026-01-05 10:55:54.24	199.20	16.03	-40.2	-42.8	15.1	0.00e+00	0	54	0	205520896	51	5037
2026-01-05 10:55:55.25	199.31	16.13	-40.2	-42.8	15.2	0.00e+00	0	54	0	206569472	51	4999
2026-01-05 10:55:56.26	199.41	16.23	-40.2	-42.7	15.2	0.00e+00	0	54	0	208666624	51	4981
2026-01-05 10:55:57.27	199.52	16.33	-40.1	-42.7	15.3	0.00e+00	0	54	0	210763776	51	4927
2026-01-05 10:55:58.28	199.63	16.43	-40.2	-42.9	15.1	0.00e+00	0	54	0	212860928	51	5062
2026-01-05 10:55:59.29	199.74	16.53	-40.2	-42.8	15.2	0.00e+00	0	54	0	214958080	51	5006
2026-01-05 10:56:00.30	199.85	16.63	-40.3	-43.0	15.0	0.00e+00	0	54	0	216006656	51	5142
2026-01-05 10:56:01.30	199.96	16.73	-40.4	-43.2	14.8	0.00e+00	0	54	0	218103808	51	5236
2026-01-05 10:56:02.31	200.08	16.84	-40.3	-42.9	15.0	0.00e+00	0	54	0	220200960	51	5094
2026-01-05 10:56:03.32	200.19	16.94	-40.3	-43.0	15.0	0.00e+00	0	54	0	222298112	51	5145
2026-01-05 10:56:04.33	200.30	17.04	-40.5	-43.3	14.6	7.00e-07	0	54	0	224395264	51	5331
2026-01-05 10:56:05.35	200.42	17.14	-40.4	-43.1	14.9	7.00e-07	0	54	0	225443840	51	5203
2026-01-05 10:56:06.36	200.54	17.25	-40.3	-43.1	14.9	0.00e+00	0	54	0	227540992	51	5171
2026-01-05 10:56:07.37	200.65	17.35	-40.4	-43.1	14.8	0.00e+00	0	54	0	229638144	51	5213
2026-01-05 10:56:08.37	200.77	17.45	-40.1	-42.8	15.2	0.00e+00	0	54	0	231735296	51	5003
2026-01-05 10:56:09.38	200.88	17.56	-40.2	-42.8	15.2	0.00e+00	0	54	0	233832448	51	4998
2026-01-05 10:56:10.39	201.00	17.66	-40.2	-42.8	15.3	0.00e+00	0	54	0	234881024	51	4986
2026-01-05 10:56:11.40	201.12	17.77	-40.1	-42.6	15.4	0.00e+00	0	55	0	236978176	51	4922
2026-01-05 10:56:12.41	201.24	17.87	-40.1	-42.7	15.3	0.00e+00	0	54	0	239075328	51	4933
2026-01-05 10:56:13.42	201.36	17.98	-40.0	-42.6	15.5	0.00e+00	0	54	0	241172480	51	4874
2026-01-05 10:56:14.43	201.49	18.08	-40.1	-42.7	15.3	0.00e+00	0	55	0	243269632	51	4960
2026-01-05 10:56:15.44	201.61	18.19	-40.2	-42.8	15.2	0.00e+00	0	54	0	245366784	51	5006
2026-01-05 10:56:16.45	201.73	18.29	-40.2	-42.8	15.2	0.00e+00	0	55	0	246415360	51	5001
2026-01-05 10:56:17.46	201.86	18.40	-39.9	-42.4	15.6	0.00e+00	0	55	0	248512512	51	4785
2026-01-05 10:56:18.46	201.98	18.51	-40.0	-42.5	15.5	0.00e+00	0	55	0	250609664	51	4856
2026-01-05 10:56:19.47	202.11	18.61	-40.1	-42.7	15.4	0.00e+00	0	55	0	252706816	51	4933
2026-01-05 10:56:20.49	202.23	18.72	-39.9	-42.4	15.7	0.00e+00	0	54	0	254803968	51	4771
2026-01-05 10:56:21.50	202.36	18.83	-40.1	-42.7	15.4	0.00e+00	0	54	0	255852544	51	4935
2026-01-05 10:56:22.50	202.49	18.94	-40.0	-42.5	15.6	0.00e+00	0	55	0	257949696	51	4849
2026-01-05 10:56:23.51	202.62	19.05	-40.1	-42.6	15.5	0.00e+00	0	55	0	260046848	51	4884
2026-01-05 10:56:24.52	202.75	19.15	-40.2	-42.8	15.2	0.00e+00	0	54	0	262144000	51	5031
2026-01-05 10:56:25.54	202.88	19.27	-40.3	-42.9	15.2	0.00e+00	0	55	0	264241152	51	5067
2026-01-05 10:56:26.54	203.01	19.37	-40.4	-43.2	15.0	0.00e+00	0	55	0	265289728	51	5220
2026-01-05 10:56:27.55	203.14	19.48	-40.2	-42.8	15.3	0.00e+00	0	55	0	267386880	51	5028
2026-01-05 10:56:28.56	203.28	19.59	-40.3	-42.9	15.2	7.00e-07	0	55	0	269484032	51	5097
2026-01-05 10:56:29.57	203.41	19.70	-40.3	-42.9	15.2	0.00e+00	0	55	0	271581184	51	5079
2026-01-05 10:56:30.58	203.55	19.82	-40.4	-43.1	15.0	0.00e+00	0	54	0	273678336	51	5205
2026-01-05 10:56:31.59	203.69	19.93	-40.5	-43.3	14.9	0.00e+00	0	55	0	274726912	51	5302
2026-01-05 10:56:32.60	203.82	20.04	-40.3	-42.9	15.2	0.00e+00	0	55	0	276824064	51	5080
2026-01-05 10:56:33.61	203.96	20.15	-40.3	-42.9	15.2	0.00e+00	0	55	0	278921216	51	5080
2026-01-05 10:56:34.62	204.10	20.26	-40.2	-42.8	15.4	7.00e-07	0	55	0	281018368	51	4999
2026-01-05 10:56:35.63	204.24	20.38	-40.4	-43.1	15.1	7.00e-07	0	55	0	283115520	51	5185
2026-01-05 10:56:36.64	204.38	20.49	-40.5	-43.2	14.9	0.00e+00	0	55	0	284164096	51	5252
2026-01-05 10:56:37.65	204.53	20.60	-40.7	-43.5	14.7	0.00e+00	0	55	0	286261248	51	5403
2026-01-05 10:56:38.66	204.67	20.72	-40.4	-43.1	14.9	0.00e+00	0	55	0	288358400	52	4926
2026-01-05 10:56:39.67	204.82	20.83	-40.4	-43.2	14.9	0.00e+00	0	55	0	290455552	52	4942
2026-01-05 10:56:40.68	204.96	20.94	-40.6	-43.4	14.7	0.00e+00	0	55	0	292552704	52	5086
2026-01-05 10:56:41.69	205.11	21.06	-40.5	-43.2	14.8	0.00e+00	0	55	0	293601280	52	4960
2026-01-05 10:56:42.70	205.26	21.17	-40.5	-43.2	14.9	0.00e+00	0	55	0	295698432	52	4946
2026-01-05 10:56:43.71	205.41	21.29	-40.5	-43.3	14.8	0.00e+00	0	55	0	297795584	52	4996
2026-01-05 10:56:44.72	205.56	21.41	-40.4	-43.0	15.1	0.00e+00	0	55	0	299892736	52	4855
2026-01-05 10:56:45.73	205.71	21.52	-40.4	-43.1	15.0	0.00e+00	0	55	0	301989888	52	4896
2026-01-05 10:56:46.74	205.86	21.64	-40.6	-43.4	14.8	1.50e-06	0	55	0	303038464	52	5053
2026-01-05 10:56:47.75	206.01	21.75	-40.7	-43.6	14.5	7.00e-07	0	55	0	305135616	52	5179
2026-01-05 10:56:48.76	206.17	21.87	-40.6	-43.4	14.6	0.00e+00	0	55	0	307232768	52	5093
2026-01-05 10:56:49.77	206.32	21.99	-40.8	-43.7	14.3	7.00e-07	0	55	0	309329920	52	5273
2026-01-05 10:56:50.78	206.48	22.11	-40.8	-43.7	14.5	7.00e-07	0	55	0	311427072	52	5229
2026-01-05 10:56:51.79	206.64	22.23	-40.8	-43.7	14.4	0.00e+00	0	55	0	313524224	52	5250
2026-01-05 10:56:52.80	206.80	22.34	-40.8	-43.8	14.3	2.20e-06	0	55	0	314572800	52	5310
2026-01-05 10:56:53.81	206.96	22.46	-40.9	-43.9	14.3	2.20e-06	0	55	0	316669952	52	5371
2026-01-05 10:56:54.82	207.12	22.58	-40.7	-43.5	14.6	7.00e-07	0	55	0	318767104	52	5150
2026-01-05 10:56:55.83	207.28	22.70	-40.7	-43.5	14.7	0.00e+00	0	55	0	320864256	52	5126
2026-01-05 10:56:56.84	207.45	22.82	-40.7	-43.5	14.6	0.00e+00	0	55	0	322961408	52	5144
2026-01-05 10:56:57.85	207.61	22.94	-40.7	-43.6	14.6	7.00e-07	0	55	0	324009984	52	5168
2026-01-05 10:56:58.86	207.78	23.06	-40.6	-43.4	14.7	7.00e-07	0	55	0	326107136	52	5075
2026-01-05 10:56:59.87	207.95	23.18	-40.6	-43.4	14.8	0.00e+00	0	55	0	328204288	52	5054
2026-01-05 10:57:00.88	208.12	23.30	-40.3	-43.0	15.1	7.00e-07	0	55	0	330301440	52	4822
2026-01-05 10:57:01.89	208.29	23.42	-40.2	-42.7	15.4	0.00e+00	0	55	0	332398592	52	4682
2026-01-05 10:57:02.90	208.46	23.55	-40.1	-42.5	15.6	0.00e+00	0	55	0	333447168	52	4590
2026-01-05 10:57:03.91	208.63	23.67	-40.0	-42.4	15.7	0.00e+00	0	55	0	335544320	52	4531
2026-01-05 10:57:04.92	208.81	23.79	-39.9	-42.2	16.0	0.00e+00	0	55	0	337641472	51	4700
2026-01-05 10:57:05.93	208.98	23.91	-39.6	-41.9	16.3	0.00e+00	0	55	0	339738624	51	4521
2026-01-05 10:57:06.94	209.16	24.04	-39.6	-41.9	16.4	0.00e+00	0	55	0	341835776	51	4502
2026-01-05 10:57:07.95	209.34	24.16	-39.8	-42.0	16.2	0.00e+00	0	55	0	342884352	51	4598
2026-01-05 10:57:08.96	209.52	24.28	-39.8	-42.1	16.0	0.00e+00	0	55	0	344981504	51	4648
2026-01-05 10:57:09.97	209.70	24.41	-39.9	-42.2	16.0	0.00e+00	0	55	0	347078656	51	4679
2026-01-05 10:57:10.98	209.88	24.53	-40.2	-42.7	15.5	0.00e+00	0	55	0	349175808	51	4970
2026-01-05 10:57:11.99	210.06	24.65	-40.3	-42.8	15.4	0.00e+00	0	55	0	351272960	51	5020
2026-01-05 10:57:13.00	210.25	24.78	-40.4	-43.0	15.2	0.00e+00	0	55	0	352321536	51	5144
2026-01-05 10:57:14.01	210.44	24.90	-40.5	-43.2	15.0	0.00e+00	0	55	0	354418688	51	5262
2026-01-05 10:57:15.02	210.62	25.03	-40.6	-43.4	14.7	0.00e+00	0	55	0	356515840	52	5091
2026-01-05 10:57:16.03	210.81	25.15	-40.6	-43.4	14.8	0.00e+00	0	55	0	358612992	52	5054
2026-01-05 10:57:17.04	211.01	25.28	-40.5	-43.2	15.0	7.00e-07	0	55	0	360710144	52	4958
2026-01-05 10:57:18.05	211.20	25.41	-40.3	-42.9	15.2	0.00e+00	0	55	0	361758720	52	4786
2026-01-05 10:57:19.06	211.39	25.53	-40.1	-42.6	15.6	0.00e+00	0	55	0	363855872	52	4639
2026-01-05 10:57:20.07	211.59	25.66	-40.0	-42.5	15.7	0.00e+00	0	55	0	365953024	52	4561
2026-01-05 10:57:21.08	211.78	25.79	-40.2	-42.7	15.6	0.00e+00	0	55	0	368050176	51	4953
2026-01-05 10:57:22.09	211.98	25.91	-40.4	-42.9	15.3	0.00e+00	0	55	0	370147328	51	5092
2026-01-05 10:57:23.09	212.18	26.04	-40.6	-43.3	15.0	0.00e+00	0	55	0	371195904	51	5282
2026-01-05 10:57:24.10	212.38	26.17	-40.6	-43.3	14.9	0.00e+00	0	55	0	373293056	52	5012
2026-01-05 10:57:25.11	212.59	26.29	-40.8	-43.6	14.5	1.50e-06	0	55	0	375390208	52	5212
2026-01-05 10:57:26.12	212.79	26.42	-41.1	-44.2	14.0	3.80e-06	0	55	0	377487360	52	5561
2026-01-05 10:57:27.13	213.00	26.55	-41.1	-44.2	14.0	7.00e-07	0	55	0	379584512	52	5545
2026-01-05 10:57:28.14	213.21	26.68	-41.1	-44.1	14.0	1.50e-06	0	55	0	381681664	52	5511
2026-01-05 10:57:29.15	213.42	26.81	-40.9	-43.8	14.4	0.00e+00	0	55	0	382730240	52	5287
2026-01-05 10:57:30.16	213.63	26.94	-40.9	-43.8	14.3	0.00e+00	0	55	0	384827392	52	5337
2026-01-05 10:57:31.17	213.84	27.07	-40.7	-43.4	14.8	7.00e-07	0	55	0	386924544	52	5099
2026-01-05 10:57:32.18	214.06	27.19	-40.7	-43.5	14.7	0.00e+00	0	55	0	389021696	52	5156
2026-01-05 10:57:33.19	214.27	27.32	-40.8	-43.7	14.4	7.00e-07	0	55	0	391118848	52	5272
2026-01-05 10:57:34.20	214.49	27.45	-40.8	-43.6	14.6	0.00e+00	0	55	0	392167424	52	5185
2026-01-05 10:57:35.21	214.71	27.58	-41.0	-44.0	14.2	2.20e-06	0	55	0	394264576	52	5424
2026-01-05 10:57:36.22	214.93	27.71	-40.9	-43.8	14.3	2.20e-06	0	55	0	396361728	52	5333
2026-01-05 10:57:37.23	215.16	27.84	-41.3	-44.4	13.8	5.30e-06	0	55	0	398458880	53	5396
2026-01-05 10:57:38.24	215.38	27.97	-41.4	-44.6	13.5	5.30e-06	0	55	0	400556032	53	5505
2026-01-05 10:57:39.25	215.61	28.10	-41.5	-44.9	13.3	1.83e-05	0	55	0	401604608	53	5710
2026-01-05 10:57:40.25	215.84	28.23	-41.2	-44.3	13.9	6.10e-06	0	55	0	403701760	53	5314
2026-01-05 10:57:41.26	216.07	28.36	-41.1	-44.2	14.0	8.30e-06	0	55	0	405798912	53	5246
2026-01-05 10:57:42.27	216.30	28.49	-40.9	-43.8	14.4	3.00e-06	0	55	0	407896064	53	5026
2026-01-05 10:57:43.28	216.54	28.63	-40.7	-43.5	14.7	1.50e-06	0	55	0	409993216	53	4821
2026-01-05 10:57:44.30	216.78	28.76	-40.7	-43.4	14.8	0.00e+00	0	55	0	411041792	52	5081
2026-01-05 10:57:45.30	217.01	28.89	-40.6	-43.3	14.9	0.00e+00	0	56	0	413138944	52	5034
2026-01-05 10:57:46.32	217.25	29.02	-40.6	-43.4	14.8	0.00e+00	0	55	0	415236096	52	5065
2026-01-05 10:57:47.33	217.50	29.15	-41.0	-44.0	14.3	0.00e+00	0	55	0	417333248	52	5406
2026-01-05 10:57:48.34	217.74	29.28	-41.1	-44.1	14.2	7.00e-07	0	55	0	419430400	52	5490
2026-01-05 10:57:49.34	217.99	29.41	-41.2	-44.3	13.9	1.50e-06	0	55	0	420478976	53	5320
2026-01-05 10:57:50.36	218.24	29.54	-41.1	-44.1	14.1	1.50e-06	0	55	0	422576128	53	5181
2026-01-05 10:57:51.37	218.49	29.68	-40.8	-43.6	14.6	0.00e+00	0	55	0	424673280	53	4917
2026-01-05 10:57:52.37	218.74	29.81	-40.7	-43.5	14.6	0.00e+00	0	55	0	426770432	53	4857
2026-01-05 10:57:53.38	218.99	29.94	-40.7	-43.4	14.8	7.00e-07	0	56	0	428867584	53	4800
2026-01-05 10:57:54.39	219.25	30.07	-40.5	-43.2	15.0	0.00e+00	0	55	0	429916160	53	4684
2026-01-05 10:57:55.41	219.51	30.20	-40.7	-43.4	14.8	0.00e+00	0	55	0	432013312	53	4797
2026-01-05 10:57:56.41	219.77	30.33	-40.9	-43.9	14.3	7.00e-07	0	56	0	434110464	53	5045
2026-01-05 10:57:57.42	220.03	30.46	-41.0	-44.0	14.2	0.00e+00	0	56	0	436207616	53	5128
2026-01-05 10:57:58.43	220.29	30.59	-41.2	-44.4	13.8	3.00e-06	0	55	0	438304768	53	5375
2026-01-05 10:57:59.44	220.56	30.73	-41.1	-44.2	14.0	3.00e-06	0	56	0	439353344	53	5261
2026-01-05 10:58:00.45	220.83	30.86	-41.3	-44.5	13.8	1.50e-06	0	55	0	441450496	53	5431
2026-01-05 10:58:01.46	221.10	30.99	-41.1	-44.1	14.3	2.20e-06	0	56	0	443547648	53	5167
2026-01-05 10:58:02.47	221.37	31.12	-40.8	-43.7	14.5	2.20e-06	0	56	0	445644800	53	4962
2026-01-05 10:58:03.48	221.65	31.25	-40.8	-43.7	14.5	2.20e-06	0	55	0	447741952	53	4973
2026-01-05 10:58:04.49	221.92	31.38	-40.9	-43.8	14.4	0.00e+00	0	56	0	449839104	53	5024
2026-01-05 10:58:05.50	222.20	31.51	-41.1	-44.2	14.1	1.50e-06	0	56	0	450887680	53	5223
2026-01-05 10:58:06.51	222.49	31.64	-41.1	-44.1	14.2	7.00e-07	0	56	0	452984832	53	5169
2026-01-05 10:58:07.52	222.77	31.77	-41.3	-44.5	13.8	2.20e-06	0	55	0	455081984	53	5424
2026-01-05 10:58:08.53	223.06	31.90	-41.5	-44.8	13.4	9.10e-06	0	56	0	457179136	53	5639
2026-01-05 10:58:09.54	223.35	32.03	-42.0	-45.8	12.5	2.44e-05	0	56	0	459276288	54	5929
2026-01-05 10:58:10.54	223.63	32.16	-42.5	-46.8	11.3	1.01e-03	0	56	0	460324864	55	6334
2026-01-05 10:58:11.55	223.93	32.29	-43.1	-48.0	10.3	2.57e-03	0	56	0	462422016	56	6836
2026-01-05 10:58:12.56	224.22	32.42	-43.4	-48.8	9.5	7.01e-03	0	56	0	464519168	57	7104
2026-01-05 10:58:13.57	224.52	32.55	-43.3	-48.6	9.8	7.39e-03	0	56	0	466616320	57	6887
2026-01-05 10:58:14.58	224.82	32.67	-42.6	-46.9	11.6	2.62e-03	0	56	0	467664896	57	5678
2026-01-05 10:58:15.59	225.12	32.80	-42.4	-46.3	12.1	4.30e-04	0	56	0	469762048	56	5623
2026-01-05 10:58:16.60	225.43	32.93	-42.2	-45.9	12.5	1.64e-04	0	56	0	471859200	56	5350
2026-01-05 10:58:17.61	225.73	33.06	-42.4	-46.3	12.1	2.20e-04	0	56	0	473956352	56	5617
2026-01-05 10:58:18.62	226.04	33.19	-42.5	-46.6	11.7	3.51e-04	0	56	0	476053504	56	5850
2026-01-05 10:58:19.63	226.36	33.31	-42.7	-46.9	11.5	5.13e-04	0	56	0	478150656	56	6054
2026-01-05 10:58:20.64	226.67	33.44	-42.9	-47.4	11.0	2.11e-03	0	55	0	479199232	56	6383
2026-01-05 10:58:21.65	226.99	33.56	-43.2	-48.2	10.3	4.12e-03	0	56	0	481296384	56	7037
2026-01-05 10:58:22.66	227.31	33.69	-42.9	-47.5	10.8	5.42e-03	0	56	0	483393536	57	6103
2026-01-05 10:58:23.66	227.62	33.81	-42.9	-47.6	10.6	3.34e-03	0	56	0	485490688	57	6154
2026-01-05 10:58:24.67	227.95	33.94	-43.0	-47.8	10.5	4.34e-03	0	56	0	487587840	57	6315
2026-01-05 10:58:25.68	228.27	34.06	-43.1	-47.9	10.4	3.91e-03	0	56	0	488636416	57	6388
2026-01-05 10:58:26.69	228.60	34.19	-42.8	-47.3	11.2	1.29e-03	0	56	0	490733568	57	5935
2026-01-05 10:58:27.70	228.93	34.31	-42.4	-46.3	12.1	4.84e-04	0	56	0	492830720	56	5611
2026-01-05 10:58:28.71	229.27	34.43	-42.6	-46.8	11.7	4.30e-04	0	56	0	494927872	56	5932
2026-01-05 10:58:29.72	229.60	34.55	-42.8	-47.2	11.1	1.03e-03	0	56	0	497025024	56	6252
2026-01-05 10:58:30.73	229.94	34.67	-43.0	-47.6	10.7	2.17e-03	0	56	0	498073600	56	6540
2026-01-05 10:58:31.74	230.28	34.79	-43.1	-48.0	10.4	4.05e-03	0	56	0	500170752	56	6827
2026-01-05 10:58:32.75	230.63	34.91	-43.2	-48.1	10.2	5.86e-03	0	56	0	502267904	57	6542
2026-01-05 10:58:33.77	230.98	35.03	-43.0	-47.8	10.4	6.09e-03	0	56	0	504365056	57	6297
2026-01-05 10:58:34.78	231.33	35.15	-42.9	-47.4	10.9	4.13e-03	0	56	0	506462208	57	6048
2026-01-05 10:58:35.79	231.68	35.27	-42.8	-47.2	11.1	2.29e-03	0	56	0	507510784	57	5916
2026-01-05 10:58:36.80	232.03	35.39	-42.9	-47.5	10.9	1.46e-03	0	56	0	509607936	57	6092
2026-01-05 10:58:37.81	232.39	35.50	-42.8	-47.1	11.2	1.56e-03	0	56	0	511705088	57	5828
2026-01-05 10:58:38.82	232.75	35.62	-42.8	-47.2	11.2	9.02e-04	0	56	0	513802240	57	5901
2026-01-05 10:58:39.82	233.10	35.73	-42.7	-47.0	11.4	1.52e-03	0	56	0	515899392	57	5766
2026-01-05 10:58:40.83	233.47	35.85	-42.6	-46.8	11.6	1.53e-03	0	56	0	517996544	57	5652
2026-01-05 10:58:41.84	233.83	35.96	-42.8	-47.2	11.3	1.22e-03	0	56	0	519045120	57	5914
2026-01-05 10:58:42.85	234.20	36.07	-42.8	-47.2	11.1	9.27e-04	0	56	0	521142272	57	5895
2026-01-05 10:58:43.86	234.57	36.18	-42.5	-46.4	12.0	8.03e-04	0	56	0	523239424	56	5718
2026-01-05 10:58:44.87	234.95	36.29	-42.4	-46.3	12.1	3.04e-04	0	56	0	525336576	56	5601
2026-01-05 10:58:45.88	235.32	36.40	-42.2	-45.9	12.5	1.26e-04	0	56	0	526385152	56	5398
2026-01-05 10:58:46.89	235.70	36.51	-42.4	-46.2	12.1	3.00e-04	0	56	0	528482304	56	5590
2026-01-05 10:58:47.90	236.08	36.61	-42.7	-46.9	11.5	8.16e-04	0	56	0	530579456	56	6051
2026-01-05 10:58:48.91	236.47	36.72	-42.6	-46.7	11.8	1.33e-03	0	56	0	532676608	56	5871
2026-01-05 10:58:49.92	236.85	36.83	-42.6	-46.7	11.7	4.75e-04	0	56	0	534773760	56	5902
2026-01-05 10:58:50.93	237.24	36.93	-42.4	-46.4	12.1	2.44e-04	0	56	0	535822336	56	5666
2026-01-05 10:58:51.94	237.63	37.03	-41.7	-45.1	13.3	1.05e-04	0	56	0	537919488	55	5169
2026-01-05 10:58:52.95	238.02	37.13	-41.4	-44.5	13.7	9.90e-06	0	56	0	540016640	54	5148
2026-01-05 10:58:53.96	238.42	37.23	-41.1	-44.1	14.2	2.20e-06	0	56	0	542113792	54	4905
2026-01-05 10:58:54.97	238.82	37.33	-41.3	-44.4	13.8	9.10e-06	0	56	0	544210944	54	5086
2026-01-05 10:58:55.98	239.22	37.43	-41.4	-44.5	13.7	8.30e-06	0	56	0	546308096	54	5156
2026-01-05 10:58:56.99	239.62	37.53	-41.4	-44.5	13.8	3.00e-06	0	56	0	547356672	54	5129
2026-01-05 10:58:57.99	240.02	37.62	-41.3	-44.3	14.0	7.00e-07	0	56	0	549453824	54	5039
2026-01-05 10:58:59.00	240.43	37.72	-41.4	-44.6	13.7	3.00e-06	0	56	0	551550976	54	5171
2026-01-05 10:59:00.01	240.84	37.81	-41.4	-44.7	13.6	1.50e-06	0	56	0	553648128	54	5232
2026-01-05 10:59:01.02	241.25	37.90	-41.2	-44.3	14.1	6.10e-06	0	56	0	555745280	54	4988
2026-01-05 10:59:02.03	241.66	37.99	-41.3	-44.4	13.9	2.20e-06	0	56	0	556793856	54	5063
2026-01-05 10:59:03.04	242.08	38.08	-41.5	-44.7	13.6	5.30e-06	0	56	0	558891008	54	5235
2026-01-05 10:59:04.05	242.50	38.16	-41.4	-44.7	13.6	8.30e-06	0	56	0	560988160	54	5227
2026-01-05 10:59:05.06	242.92	38.25	-41.7	-45.2	13.1	9.90e-06	0	56	0	563085312	54	5553
2026-01-05 10:59:06.07	243.34	38.33	-41.8	-45.3	13.0	2.36e-05	0	56	0	565182464	54	5594
2026-01-05 10:59:07.08	243.77	38.42	-41.6	-45.0	13.2	3.73e-05	0	56	0	566231040	54	5452
2026-01-05 10:59:08.09	244.19	38.50	-41.7	-45.1	13.2	3.50e-05	0	56	0	568328192	54	5480
2026-01-05 10:59:09.10	244.62	38.58	-41.1	-44.1	14.2	6.10e-06	0	56	0	570425344	54	4875
2026-01-05 10:59:10.10	245.05	38.65	-41.0	-43.9	14.4	2.20e-06	0	56	0	572522496	53	5095
2026-01-05 10:59:11.11	245.48	38.73	-41.0	-44.0	14.2	2.20e-06	0	56	0	574619648	53	5121
2026-01-05 10:59:12.12	245.92	38.80	-41.3	-44.4	13.9	3.80e-06	0	56	0	575668224	53	5396
2026-01-05 10:59:13.13	246.35	38.88	-41.9	-45.5	12.8	1.98e-05	0	56	0	577765376	54	5783
2026-01-05 10:59:14.14	246.79	38.95	-42.4	-46.5	11.8	9.99e-05	0	56	0	579862528	55	6123
2026-01-05 10:59:15.15	247.23	39.02	-42.9	-47.5	10.9	1.80e-03	0	56	0	581959680	56	6488
2026-01-05 10:59:16.16	247.68	39.08	-42.7	-46.9	11.5	1.59e-03	0	56	0	584056832	56	6019
2026-01-05 10:59:17.17	248.12	39.15	-42.3	-46.1	12.3	6.07e-04	0	56	0	585105408	56	5469
2026-01-05 10:59:18.18	248.57	39.21	-41.8	-45.4	12.9	3.73e-05	0	56	0	587202560	55	5344
2026-01-05 10:59:19.19	249.02	39.28	-41.5	-44.8	13.4	1.60e-05	0	56	0	589299712	55	5021
2026-01-05 10:59:20.20	249.47	39.34	-41.5	-44.7	13.6	1.06e-05	0	56	0	591396864	54	5244
2026-01-05 10:59:21.21	249.92	39.40	-41.5	-44.7	13.7	5.30e-06	0	56	0	593494016	54	5234
2026-01-05 10:59:22.22	250.37	39.45	-41.7	-45.1	13.3	1.67e-05	0	56	0	594542592	54	5481
2026-01-05 10:59:23.23	250.82	39.51	-42.3	-46.4	11.9	1.16e-04	0	56	0	596639744	55	6053
2026-01-05 10:59:24.24	251.28	39.56	-42.4	-46.6	11.6	4.36e-04	0	56	0	598736896	55	6202
2026-01-05 10:59:25.25	251.74	39.61	-42.1	-45.9	12.4	4.26e-04	0	56	0	600834048	55	5706
2026-01-05 10:59:26.26	252.20	39.66	-42.0	-45.7	12.6	9.99e-05	0	56	0	602931200	55	5565
2026-01-05 10:59:27.27	252.66	39.71	-42.1	-45.9	12.4	9.84e-05	0	56	0	603979776	55	5695
2026-01-05 10:59:28.28	253.12	39.75	-42.1	-46.0	12.4	1.94e-04	0	56	0	606076928	55	5755
2026-01-05 10:59:29.28	253.57	39.80	-41.9	-45.5	12.8	1.60e-04	0	56	0	608174080	55	5430
2026-01-05 10:59:30.29	254.04	39.84	-41.3	-44.4	13.9	1.98e-05	0	56	0	610271232	54	5060
2026-01-05 10:59:31.30	254.50	39.88	-40.9	-43.8	14.6	0.00e+00	0	56	0	612368384	53	5003
2026-01-05 10:59:32.31	254.97	39.91	-41.3	-44.4	13.9	3.00e-06	0	56	0	614465536	53	5381
2026-01-05 10:59:33.32	255.44	39.95	-42.1	-45.9	12.4	2.59e-05	0	56	0	615514112	54	6028
2026-01-05 10:59:34.33	255.90	39.98	-42.5	-46.7	11.5	7.63e-04	0	56	0	617611264	55	6266
2026-01-05 10:59:35.34	256.37	40.01	-42.4	-46.6	11.7	9.68e-04	0	56	0	619708416	55	6147
2026-01-05 10:59:36.35	256.84	40.04	-42.1	-45.9	12.4	6.29e-04	0	56	0	621805568	55	5685
2026-01-05 10:59:37.36	257.31	40.07	-42.0	-45.7	12.6	1.61e-04	0	56	0	623902720	55	5532
2026-01-05 10:59:38.37	257.78	40.09	-41.6	-44.9	13.4	3.20e-05	0	56	0	624951296	55	5048
2026-01-05 10:59:39.38	258.25	40.11	-41.5	-44.8	13.5	1.29e-05	0	56	0	627048448	55	5006
2026-01-05 10:59:40.39	258.73	40.13	-41.7	-45.2	13.3	7.60e-06	0	56	0	629145600	54	5530
2026-01-05 10:59:41.40	259.20	40.15	-42.1	-45.8	12.5	7.01e-05	0	56	0	631242752	54	5952
2026-01-05 10:59:42.40	259.67	40.17	-42.6	-46.8	11.5	4.03e-04	0	56	0	633339904	55	6299
2026-01-05 10:59:43.41	260.14	40.18	-43.4	-48.5	9.9	3.39e-03	0	56	0	634388480	57	6871
2026-01-05 10:59:44.42	260.62	40.19	-43.6	-49.1	9.2	1.83e-02	0	56	0	636485632	57	7327
2026-01-05 10:59:45.43	261.09	40.20	-43.5	-48.9	9.4	1.58e-02	0	56	0	638582784	57	7174
2026-01-05 10:59:46.44	261.57	40.21	-43.0	-47.6	10.7	1.12e-02	0	56	0	640679936	57	6191
2026-01-05 10:59:47.45	262.04	40.22	-42.5	-46.6	11.8	1.10e-03	0	56	0	642777088	57	5466
2026-01-05 10:59:48.46	262.52	40.22	-42.3	-46.1	12.3	2.12e-04	0	56	0	643825664	56	5528
2026-01-05 10:59:49.47	262.99	40.22	-41.6	-44.8	13.5	4.19e-05	0	56	0	645922816	55	5028
2026-01-05 10:59:50.48	263.46	40.22	-41.4	-44.5	13.9	3.00e-06	0	56	0	648019968	54	5116
2026-01-05 10:59:51.49	263.94	40.22	-42.1	-45.9	12.6	3.20e-05	0	56	0	650117120	54	5993
2026-01-05 10:59:52.50	264.41	40.21	-43.1	-47.9	10.5	9.32e-04	0	56	0	652214272	56	6727
2026-01-05 10:59:53.51	264.89	40.20	-43.5	-49.0	9.2	9.00e-03	0	56	0	653262848	57	7278
2026-01-05 10:59:54.52	265.36	40.19	-43.2	-48.3	10.0	1.35e-02	0	56	0	655360000	57	6667
2026-01-05 10:59:55.53	265.84	40.18	-42.6	-46.7	11.7	1.73e-03	0	56	0	657457152	57	5553
2026-01-05 10:59:56.54	266.31	40.17	-42.2	-46.0	12.5	2.05e-04	0	56	0	659554304	56	5417
2026-01-05 10:59:57.55	266.78	40.15	-41.7	-45.1	13.2	2.89e-05	0	56	0	661651456	55	5202
2026-01-05 10:59:58.56	267.26	40.13	-41.0	-43.9	14.5	3.80e-06	0	56	0	662700032	54	4798
2026-01-05 10:59:59.57	267.73	40.11	-40.6	-43.2	15.1	0.00e+00	0	56	0	664797184	52	4953
2026-01-05 11:00:00.58	268.20	40.09	-40.6	-43.3	15.0	7.00e-07	0	56	0	666894336	52	5013
2026-01-05 11:00:01.59	268.67	40.06	-40.7	-43.4	14.9	0.00e+00	0	56	0	668991488	52	5098
2026-01-05 11:00:02.60	269.14	40.04	-40.7	-43.4	14.9	0.00e+00	0	56	0	671088640	52	5063
2026-01-05 11:00:03.61	269.61	40.01	-40.3	-42.8	15.6	7.00e-07	0	56	0	672137216	52	4715
2026-01-05 11:00:04.62	270.08	39.98	-40.1	-42.5	15.8	0.00e+00	0	56	0	674234368	52	4588
2026-01-05 11:00:05.63	270.54	39.94	-40.7	-43.5	14.9	0.00e+00	0	56	0	676331520	52	5119
2026-01-05 11:00:06.64	271.01	39.91	-41.6	-45.0	13.4	1.50e-06	0	56	0	678428672	53	5733
2026-01-05 11:00:07.64	271.47	39.87	-41.9	-45.6	12.8	6.63e-05	0	56	0	680525824	54	5800
2026-01-05 11:00:08.66	271.94	39.83	-41.6	-45.0	13.4	3.12e-05	0	56	0	682622976	54	5407
2026-01-05 11:00:09.67	272.40	39.79	-41.3	-44.3	13.9	8.30e-06	0	56	0	683671552	54	5032
2026-01-05 11:00:10.68	272.86	39.75	-41.2	-44.3	14.0	0.00e+00	0	56	0	685768704	54	5028
2026-01-05 11:00:11.69	273.32	39.70	-41.5	-44.8	13.4	5.30e-06	0	56	0	687865856	54	5325
2026-01-05 11:00:12.70	273.78	39.65	-41.5	-44.8	13.5	9.90e-06	0	56	0	689963008	54	5321
2026-01-05 11:00:13.71	274.24	39.60	-41.4	-44.5	13.8	6.10e-06	0	56	0	692060160	54	5154
2026-01-05 11:00:14.72	274.70	39.55	-41.3	-44.5	13.9	2.20e-06	0	56	0	693108736	54	5121
2026-01-05 11:00:15.73	275.15	39.50	-41.4	-44.7	13.7	6.10e-06	0	56	0	695205888	54	5235
2026-01-05 11:00:16.74	275.61	39.44	-41.6	-44.9	13.4	7.60e-06	0	56	0	697303040	54	5392
2026-01-05 11:00:17.75	276.06	39.39	-41.4	-44.5	13.7	1.83e-05	0	56	0	699400192	54	5159
2026-01-05 11:00:18.76	276.51	39.33	-40.7	-43.5	14.8	0.00e+00	0	56	0	701497344	53	4826
2026-01-05 11:00:19.77	276.96	39.27	-40.2	-42.7	15.6	7.00e-07	0	56	0	702545920	52	4698
2026-01-05 11:00:20.78	277.40	39.21	-40.2	-42.7	15.7	0.00e+00	0	56	0	704643072	52	4652
2026-01-05 11:00:21.79	277.85	39.14	-40.6	-43.4	15.0	0.00e+00	0	56	0	706740224	52	5045
2026-01-05 11:00:22.80	278.29	39.08	-40.6	-43.3	15.1	0.00e+00	0	56	0	708837376	52	4988
2026-01-05 11:00:23.80	278.73	39.01	-40.5	-43.2	15.2	0.00e+00	0	56	0	710934528	52	4932
2026-01-05 11:00:24.81	279.17	38.94	-40.5	-43.2	15.1	0.00e+00	0	56	0	711983104	52	4951
2026-01-05 11:00:25.82	279.61	38.87	-40.5	-43.1	15.3	0.00e+00	0	56	0	714080256	52	4906
2026-01-05 11:00:26.83	280.04	38.80	-40.3	-42.9	15.4	0.00e+00	0	56	0	716177408	52	4767
2026-01-05 11:00:27.84	280.48	38.72	-40.1	-42.5	15.8	0.00e+00	0	56	0	718274560	52	4550
2026-01-05 11:00:28.85	280.91	38.64	-39.8	-42.1	16.3	0.00e+00	0	56	0	720371712	51	4606
2026-01-05 11:00:29.86	281.34	38.57	-39.8	-42.1	16.2	0.00e+00	0	56	0	721420288	51	4638
2026-01-05 11:00:30.87	281.77	38.49	-40.0	-42.3	16.1	0.00e+00	0	56	0	723517440	51	4745
2026-01-05 11:00:31.88	282.19	38.41	-39.6	-41.8	16.6	0.00e+00	0	56	0	725614592	51	4480
2026-01-05 11:00:32.89	282.62	38.32	-39.7	-41.9	16.5	0.00e+00	0	56	0	727711744	51	4501
2026-01-05 11:00:33.90	283.04	38.24	-39.3	-41.4	16.9	0.00e+00	0	56	0	729808896	50	4536
2026-01-05 11:00:34.91	283.46	38.16	-39.7	-41.9	16.5	0.00e+00	0	56	0	730857472	50	4771
2026-01-05 11:00:35.92	283.87	38.07	-40.1	-42.6	15.8	0.00e+00	0	56	0	732954624	50	5160
2026-01-05 11:00:36.93	284.29	37.98	-40.6	-43.4	15.0	0.00e+00	0	56	0	735051776	52	5050
2026-01-05 11:00:37.94	284.70	37.89	-40.8	-43.7	14.6	0.00e+00	0	56	0	737148928	52	5254
2026-01-05 11:00:38.95	285.11	37.80	-40.6	-43.3	15.0	0.00e+00	0	56	0	739246080	52	5008
2026-01-05 11:00:39.96	285.52	37.71	-40.2	-42.7	15.6	0.00e+00	0	56	0	740294656	52	4673
2026-01-05 11:00:40.97	285.93	37.61	-40.1	-42.5	15.9	0.00e+00	0	56	0	742391808	51	4839
2026-01-05 11:00:41.97	286.33	37.52	-40.2	-42.7	15.7	0.00e+00	0	56	0	744488960	51	4968
2026-01-05 11:00:42.98	286.73	37.42	-39.7	-42.0	16.3	0.00e+00	0	56	0	746586112	51	4586
2026-01-05 11:00:44.00	287.13	37.32	-38.9	-40.9	17.4	0.00e+00	0	56	0	748683264	49	4496
2026-01-05 11:00:45.00	287.52	37.23	-38.4	-40.2	18.2	0.00e+00	0	56	0	750780416	48	4402
2026-01-05 11:00:46.01	287.92	37.13	-38.5	-40.3	18.0	0.00e+00	0	56	0	751828992	48	4492
2026-01-05 11:00:47.02	288.31	37.03	-39.3	-41.4	17.0	0.00e+00	0	56	0	753926144	49	4764
2026-01-05 11:00:48.03	288.70	36.92	-40.4	-42.9	15.5	0.00e+00	0	56	0	756023296	51	5068
2026-01-05 11:00:49.04	289.09	36.82	-40.6	-43.2	15.2	0.00e+00	0	56	0	758120448	51	5260
2026-01-05 11:00:50.05	289.47	36.71	-40.2	-42.7	15.7	0.00e+00	0	56	0	760217600	51	4955
2026-01-05 11:00:51.06	289.85	36.61	-39.5	-41.7	16.7	0.00e+00	0	56	0	761266176	51	4399
2026-01-05 11:00:52.07	290.23	36.50	-39.4	-41.5	16.9	0.00e+00	0	56	0	763363328	50	4565
2026-01-05 11:00:53.08	290.61	36.39	-39.2	-41.2	17.1	0.00e+00	0	56	0	765460480	50	4439
2026-01-05 11:00:54.09	290.98	36.29	-38.8	-40.7	17.6	0.00e+00	0	56	0	767557632	49	4417
2026-01-05 11:00:55.10	291.35	36.18	-38.1	-39.8	18.4	0.00e+00	0	56	0	769654784	48	4202
2026-01-05 11:00:56.11	291.72	36.07	-37.5	-39.1	19.0	0.00e+00	0	56	0	770703360	46	4386
2026-01-05 11:00:57.12	292.09	35.95	-37.8	-39.5	18.7	0.00e+00	0	56	0	772800512	46	4547
2026-01-05 11:00:58.13	292.46	35.84	-38.3	-40.1	18.1	0.00e+00	0	56	0	774897664	47	4637
2026-01-05 11:00:59.14	292.82	35.73	-39.2	-41.2	17.1	0.00e+00	0	56	0	776994816	48	4978
2026-01-05 11:01:00.15	293.18	35.62	-39.9	-42.3	16.1	0.00e+00	0	56	0	779091968	50	4998
2026-01-05 11:01:01.16	293.53	35.50	-39.9	-42.3	16.1	0.00e+00	0	56	0	780140544	50	4992
2026-01-05 11:01:02.17	293.89	35.38	-40.1	-42.5	15.9	0.00e+00	0	56	0	782237696	50	5125
2026-01-05 11:01:03.18	294.24	35.27	-40.1	-42.5	15.8	0.00e+00	0	56	0	784334848	50	5120
2026-01-05 11:01:04.18	294.59	35.15	-40.3	-42.8	15.5	0.00e+00	0	56	0	786432000	51	5028
2026-01-05 11:01:05.19	294.94	35.03	-40.9	-43.7	14.6	0.00e+00	0	56	0	788529152	52	5271
2026-01-05 11:01:06.20	295.28	34.92	-41.5	-44.8	13.6	1.50e-06	0	56	0	789577728	53	5596
2026-01-05 11:01:07.21	295.62	34.80	-41.5	-44.9	13.4	6.10e-06	0	56	0	791674880	53	5663
2026-01-05 11:01:08.22	295.96	34.68	-41.2	-44.3	13.9	3.00e-06	0	56	0	793772032	53	5325
2026-01-05 11:01:09.23	296.30	34.56	-41.0	-43.9	14.3	2.20e-06	0	56	0	795869184	53	5065
2026-01-05 11:01:10.24	296.63	34.44	-41.2	-44.2	14.1	7.00e-07	0	56	0	797966336	53	5267
2026-01-05 11:01:11.25	296.97	34.31	-41.4	-44.6	13.6	9.10e-06	0	56	0	799014912	53	5525
2026-01-05 11:01:12.26	297.30	34.19	-42.2	-46.2	12.0	1.54e-04	0	56	0	801112064	55	5893
2026-01-05 11:01:13.27	297.62	34.07	-42.6	-47.0	11.1	8.73e-04	0	56	0	803209216	55	6451
2026-01-05 11:01:14.28	297.95	33.95	-42.4	-46.5	11.5	1.37e-03	0	56	0	805306368	55	6117
2026-01-05 11:01:15.28	298.27	33.82	-42.3	-46.4	11.8	3.33e-04	0	56	0	807403520	55	6014
2026-01-05 11:01:16.29	298.59	33.70	-42.2	-46.2	12.0	3.36e-04	0	56	0	808452096	55	5874
2026-01-05 11:01:17.31	298.91	33.57	-42.4	-46.4	11.8	3.13e-04	0	56	0	810549248	55	6061
2026-01-05 11:01:18.32	299.23	33.45	-43.1	-48.1	10.3	1.28e-03	0	56	0	812646400	56	6880
2026-01-05 11:01:19.33	299.54	33.32	-43.6	-49.5	8.8	1.61e-02	0	56	0	814743552	57	7631
2026-01-05 11:01:20.33	299.85	33.20	-44.0	-50.8	7.5	7.18e-02	0	56	0	816840704	58	8446
2026-01-05 11:01:21.34	300.15	33.07	-43.5	-49.1	9.2	8.69e-02	0	56	0	818937856	58	6915
2026-01-05 11:01:22.35	300.46	32.94	-42.6	-47.0	11.4	1.65e-03	0	56	0	819986432	57	5733
2026-01-05 11:01:23.36	300.76	32.82	-42.0	-45.5	12.8	2.50e-04	0	56	0	822083584	56	5148
2026-01-05 11:01:24.37	301.07	32.69	-41.6	-44.9	13.3	1.37e-05	0	56	0	824180736	55	5082
2026-01-05 11:01:25.38	301.36	32.56	-42.2	-46.2	12.1	1.18e-04	0	56	0	826277888	55	5871
2026-01-05 11:01:26.39	301.66	32.43	-43.3	-48.6	9.7	2.28e-03	0	56	0	828375040	57	6927
2026-01-05 11:01:27.40	301.95	32.31	-43.7	-49.9	8.4	3.58e-02	0	56	0	829423616	57	7992
2026-01-05 11:01:28.41	302.25	32.18	-43.4	-49.0	9.3	2.28e-02	0	56	0	831520768	58	6845
2026-01-05 11:01:29.42	302.54	32.05	-42.9	-47.5	10.8	6.91e-03	0	56	0	833617920	57	6116
2026-01-05 11:01:30.43	302.82	31.92	-42.2	-45.9	12.4	5.83e-04	0	56	0	835715072	56	5387
2026-01-05 11:01:31.44	303.11	31.79	-41.5	-44.9	13.4	1.98e-05	0	56	0	837812224	54	5369
2026-01-05 11:01:32.45	303.39	31.66	-41.4	-44.7	13.6	5.30e-06	0	56	0	838860800	54	5255
2026-01-05 11:01:33.46	303.67	31.53	-41.7	-45.3	12.9	3.05e-05	0	56	0	840957952	54	5617
2026-01-05 11:01:34.47	303.95	31.40	-41.7	-45.1	13.1	1.03e-04	0	56	0	843055104	54	5512
2026-01-05 11:01:35.48	304.23	31.27	-41.2	-44.3	13.9	7.60e-06	0	56	0	845152256	54	5009
2026-01-05 11:01:36.49	304.50	31.14	-41.0	-43.9	14.3	2.20e-06	0	56	0	847249408	54	4792
2026-01-05 11:01:37.50	304.77	31.01	-40.5	-43.2	15.0	0.00e+00	0	56	0	848297984	53	4654
2026-01-05 11:01:38.51	305.04	30.88	-40.7	-43.5	14.7	0.00e+00	0	56	0	850395136	52	5120
2026-01-05 11:01:39.52	305.31	30.75	-41.3	-44.5	13.7	5.30e-06	0	56	0	852492288	53	5436
2026-01-05 11:01:40.53	305.58	30.62	-41.7	-45.2	13.0	2.89e-05	0	56	0	854589440	53	5894
2026-01-05 11:01:41.54	305.84	30.49	-41.8	-45.4	12.8	5.11e-05	0	56	0	856686592	54	5711
2026-01-05 11:01:42.55	306.10	30.36	-41.5	-44.8	13.4	3.73e-05	0	56	0	857735168	54	5323
2026-01-05 11:01:43.56	306.36	30.23	-41.0	-44.0	14.2	6.10e-06	0	56	0	859832320	54	4856
2026-01-05 11:01:44.57	306.62	30.10	-40.3	-42.9	15.3	0.00e+00	0	56	0	861929472	52	4799
2026-01-05 11:01:45.58	306.87	29.97	-40.3	-42.9	15.3	0.00e+00	0	56	0	864026624	52	4795
2026-01-05 11:01:46.59	307.13	29.84	-40.6	-43.4	14.8	0.00e+00	0	56	0	866123776	52	5077
2026-01-05 11:01:47.60	307.38	29.71	-41.3	-44.5	13.8	3.00e-06	0	56	0	867172352	53	5430
2026-01-05 11:01:48.61	307.63	29.58	-41.6	-45.1	13.1	2.36e-05	0	56	0	869269504	53	5805
2026-01-05 11:01:49.62	307.88	29.45	-41.1	-44.2	13.9	1.75e-05	0	56	0	871366656	53	5279
2026-01-05 11:01:50.63	308.12	29.32	-40.4	-43.1	15.1	0.00e+00	0	56	0	873463808	52	4892
2026-01-05 11:01:51.64	308.36	29.19	-40.0	-42.5	15.8	0.00e+00	0	56	0	875560960	51	4824
2026-01-05 11:01:52.65	308.61	29.05	-39.6	-41.8	16.4	0.00e+00	0	56	0	876609536	51	4485
2026-01-05 11:01:53.65	308.84	28.93	-39.6	-41.8	16.5	0.00e+00	0	56	0	878706688	50	4731
2026-01-05 11:01:54.66	309.08	28.80	-40.1	-42.6	15.7	0.00e+00	0	56	0	880803840	50	5186
2026-01-05 11:01:55.67	309.32	28.67	-40.6	-43.4	14.9	0.00e+00	0	56	0	882900992	51	5366
2026-01-05 11:01:56.68	309.55	28.54	-40.4	-43.0	15.3	0.00e+00	0	56	0	884998144	51	5122
2026-01-05 11:01:57.69	309.78	28.41	-39.9	-42.3	16.0	0.00e+00	0	56	0	887095296	51	4724
2026-01-05 11:01:58.70	310.01	28.28	-39.5	-41.7	16.5	0.00e+00	0	56	0	888143872	51	4402
2026-01-05 11:01:59.71	310.24	28.15	-39.0	-41.1	17.1	0.00e+00	0	56	0	890241024	50	4344
2026-01-05 11:02:00.72	310.47	28.02	-38.8	-40.8	17.4	0.00e+00	0	56	0	892338176	49	4453
2026-01-05 11:02:01.73	310.69	27.89	-39.1	-41.2	17.0	0.00e+00	0	56	0	894435328	49	4678
2026-01-05 11:02:02.74	310.92	27.76	-39.9	-42.2	16.1	0.00e+00	0	56	0	896532480	50	4963
2026-01-05 11:02:03.75	311.14	27.63	-40.6	-43.4	14.8	0.00e+00	0	56	0	897581056	51	5398
2026-01-05 11:02:04.76	311.36	27.50	-40.9	-43.9	14.3	3.80e-06	0	56	0	899678208	52	5398
2026-01-05 11:02:05.77	311.57	27.37	-40.7	-43.6	14.6	1.50e-06	0	56	0	901775360	52	5166
2026-01-05 11:02:06.77	311.79	27.24	-40.3	-43.0	15.1	0.00e+00	0	56	0	903872512	52	4839
2026-01-05 11:02:07.78	312.00	27.12	-39.5	-41.8	16.4	0.00e+00	0	56	0	905969664	51	4471
2026-01-05 11:02:08.79	312.21	26.99	-39.0	-41.0	17.2	0.00e+00	0	56	0	907018240	50	4314
2026-01-05 11:02:09.80	312.43	26.86	-38.5	-40.4	17.8	0.00e+00	0	56	0	909115392	49	4269
2026-01-05 11:02:10.81	312.64	26.73	-38.5	-40.4	17.8	0.00e+00	0	56	0	911212544	48	4513
2026-01-05 11:02:11.82	312.84	26.61	-38.7	-40.6	17.5	0.00e+00	0	56	0	913309696	48	4635
2026-01-05 11:02:12.83	313.05	26.48	-39.1	-41.2	17.0	0.00e+00	0	56	0	915406848	48	4947
2026-01-05 11:02:13.84	313.25	26.35	-39.3	-41.4	16.7	0.00e+00	0	56	0	916455424	49	4802
2026-01-05 11:02:14.85	313.46	26.22	-39.4	-41.6	16.6	0.00e+00	0	56	0	918552576	49	4893
2026-01-05 11:02:15.87	313.66	26.10	-39.4	-41.6	16.6	0.00e+00	0	56	0	920649728	49	4893
2026-01-05 11:02:16.88	313.86	25.97	-39.0	-41.1	17.0	0.00e+00	0	56	0	922746880	49	4639
2026-01-05 11:02:17.89	314.06	25.84	-39.0	-41.0	17.2	0.00e+00	0	56	0	924844032	49	4571
2026-01-05 11:02:18.90	314.25	25.72	-38.8	-40.7	17.4	0.00e+00	0	56	0	925892608	49	4436
2026-01-05 11:02:19.91	314.45	25.59	-38.8	-40.8	17.4	0.00e+00	0	56	0	927989760	49	4485
2026-01-05 11:02:20.92	314.64	25.47	-39.2	-41.3	17.0	0.00e+00	0	56	0	930086912	49	4714
2026-01-05 11:02:21.93	314.84	25.34	-39.5	-41.7	16.5	0.00e+00	0	56	0	932184064	49	4981
2026-01-05 11:02:22.94	315.03	25.22	-39.8	-42.2	16.0	0.00e+00	0	56	0	934281216	50	4956
2026-01-05 11:02:23.95	315.22	25.09	-40.2	-42.7	15.5	0.00e+00	0	56	0	935329792	50	5263
2026-01-05 11:02:24.96	315.40	24.97	-40.0	-42.5	15.7	0.00e+00	0	56	0	937426944	50	5143
2026-01-05 11:02:25.97	315.59	24.84	-39.6	-41.8	16.3	0.00e+00	0	56	0	939524096	50	4757
2026-01-05 11:02:26.98	315.77	24.72	-39.2	-41.4	16.8	0.00e+00	0	56	0	941621248	50	4525
2026-01-05 11:02:27.99	315.96	24.60	-39.1	-41.1	17.0	0.00e+00	0	56	0	943718400	50	4390
2026-01-05 11:02:29.00	316.14	24.47	-38.5	-40.5	17.6	0.00e+00	0	56	0	944766976	49	4295
2026-01-05 11:02:30.00	316.32	24.35	-38.3	-40.2	17.9	0.00e+00	0	56	0	946864128	48	4413
2026-01-05 11:02:31.01	316.50	24.23	-38.4	-40.2	17.9	0.00e+00	0	56	0	948961280	48	4426
2026-01-05 11:02:32.02	316.68	24.11	-38.5	-40.4	17.7	0.00e+00	0	56	0	951058432	48	4527
2026-01-05 11:02:33.03	316.85	23.99	-38.7	-40.7	17.4	0.00e+00	0	56	0	953155584	48	4702
2026-01-05 11:02:34.04	317.03	23.86	-39.0	-41.0	17.1	0.00e+00	0	56	0	955252736	48	4855
2026-01-05 11:02:35.05	317.20	23.74	-39.0	-41.1	17.1	0.00e+00	0	56	0	956301312	48	4878
2026-01-05 11:02:36.06	317.37	23.62	-39.1	-41.3	16.9	0.00e+00	0	56	0	958398464	48	4991
2026-01-05 11:02:37.07	317.55	23.50	-39.1	-41.1	16.9	0.00e+00	0	56	0	960495616	48	4921
2026-01-05 11:02:38.08	317.72	23.38	-38.9	-41.0	17.2	0.00e+00	0	56	0	962592768	48	4820
2026-01-05 11:02:39.09	317.88	23.26	-38.7	-40.7	17.4	0.00e+00	0	56	0	964689920	48	4690
2026-01-05 11:02:40.10	318.05	23.14	-38.5	-40.4	17.7	0.00e+00	0	56	0	965738496	48	4518
2026-01-05 11:02:41.11	318.22	23.02	-38.5	-40.4	17.7	0.00e+00	0	56	0	967835648	48	4529
2026-01-05 11:02:42.12	318.38	22.90	-38.7	-40.6	17.5	0.00e+00	0	56	0	969932800	48	4637
2026-01-05 11:02:43.13	318.55	22.78	-38.6	-40.5	17.6	0.00e+00	0	56	0	972029952	48	4597
2026-01-05 11:02:44.14	318.71	22.66	-38.8	-40.8	17.3	0.00e+00	0	56	0	974127104	48	4748
2026-01-05 11:02:45.15	318.87	22.55	-38.9	-40.9	17.1	0.00e+00	0	56	0	975175680	48	4813
2026-01-05 11:02:46.16	319.03	22.43	-38.9	-41.0	17.1	0.00e+00	0	56	0	977272832	48	4842
2026-01-05 11:02:47.17	319.19	22.31	-39.1	-41.3	16.9	0.00e+00	0	56	0	979369984	48	4992
2026-01-05 11:02:48.18	319.35	22.19	-39.1	-41.3	16.8	0.00e+00	0	56	0	981467136	48	5016
2026-01-05 11:02:49.19	319.51	22.08	-39.2	-41.4	16.7	0.00e+00	0	56	0	983564288	49	4778
2026-01-05 11:02:50.20	319.66	21.96	-39.2	-41.4	16.7	0.00e+00	0	56	0	984612864	49	4782
2026-01-05 11:02:51.21	319.82	21.84	-39.2	-41.4	16.7	0.00e+00	0	56	0	986710016	49	4785
2026-01-05 11:02:52.22	319.97	21.73	-39.1	-41.2	16.9	0.00e+00	0	56	0	988807168	49	4676
2026-01-05 11:02:53.23	320.12	21.61	-39.2	-41.4	16.8	0.00e+00	0	56	0	990904320	49	4769
2026-01-05 11:02:54.24	320.27	21.50	-39.3	-41.4	16.7	0.00e+00	0	56	0	993001472	49	4813
2026-01-05 11:02:55.25	320.42	21.38	-39.2	-41.4	16.7	0.00e+00	0	56	0	994050048	49	4775
2026-01-05 11:02:56.26	320.57	21.27	-39.3	-41.4	16.7	0.00e+00	0	56	0	996147200	49	4800
2026-01-05 11:02:57.27	320.72	21.15	-39.4	-41.6	16.5	0.00e+00	0	56	0	998244352	49	4914
2026-01-05 11:02:58.28	320.87	21.04	-39.3	-41.5	16.6	0.00e+00	0	56	0	1000341504	49	4830
2026-01-05 11:02:59.29	321.01	20.93	-39.4	-41.7	16.4	0.00e+00	0	56	0	1002438656	49	4941
2026-01-05 11:03:00.29	321.16	20.81	-39.3	-41.5	16.6	0.00e+00	0	56	0	1003487232	49	4838
2026-01-05 11:03:01.30	321.30	20.70	-39.3	-41.5	16.6	0.00e+00	0	56	0	1005584384	49	4838
2026-01-05 11:03:02.31	321.44	20.59	-39.3	-41.5	16.6	0.00e+00	0	56	0	1007681536	49	4838
2026-01-05 11:03:03.32	321.58	20.48	-39.3	-41.5	16.6	0.00e+00	0	56	0	1009778688	49	4842
2026-01-05 11:03:04.33	321.72	20.36	-39.4	-41.6	16.5	0.00e+00	0	56	0	1011875840	49	4916
2026-01-05 11:03:05.34	321.86	20.25	-39.5	-41.8	16.3	0.00e+00	0	56	0	1012924416	49	5002
2026-01-05 11:03:06.35	322.00	20.14	-39.6	-41.9	16.1	0.00e+00	0	56	0	1015021568	49	5097
2026-01-05 11:03:07.36	322.14	20.03	-39.8	-42.2	15.9	0.00e+00	0	56	0	1017118720	50	4950
2026-01-05 11:03:08.37	322.28	19.92	-39.7	-42.1	16.0	0.00e+00	0	56	0	1019215872	50	4922
2026-01-05 11:03:09.38	322.41	19.81	-39.9	-42.4	15.7	0.00e+00	0	56	0	1021313024	50	5066
2026-01-05 11:03:10.39	322.55	19.70	-39.9	-42.4	15.7	0.00e+00	0	56	0	1023410176	50	5055
2026-01-05 11:03:11.40	322.68	19.59	-39.9	-42.3	15.7	0.00e+00	0	56	0	1024458752	50	5031
2026-01-05 11:03:12.40	322.81	19.48	-40.1	-42.6	15.4	0.00e+00	0	56	0	1026555904	50	5210
2026-01-05 11:03:13.42	322.95	19.37	-40.1	-42.6	15.4	0.00e+00	0	56	0	1028653056	51	4904
2026-01-05 11:03:14.42	323.08	19.26	-40.2	-42.8	15.3	0.00e+00	0	56	0	1030750208	51	5028
2026-01-05 11:03:15.43	323.21	19.16	-40.7	-43.6	14.5	7.00e-07	0	56	0	1032847360	51	5475
2026-01-05 11:03:16.44	323.34	19.05	-40.7	-43.6	14.3	0.00e+00	0	56	0	1033895936	52	5187
2026-01-05 11:03:17.45	323.47	18.94	-41.2	-44.5	13.5	0.00e+00	0	56	0	1035993088	52	5743
2026-01-05 11:03:18.46	323.59	18.83	-41.2	-44.5	13.4	1.52e-05	0	56	0	1038090240	53	5442
2026-01-05 11:03:19.47	323.72	18.73	-41.4	-45.0	12.9	2.21e-05	0	56	0	1040187392	53	5743
2026-01-05 11:03:20.48	323.85	18.62	-41.8	-45.7	12.2	8.77e-05	0	56	0	1042284544	54	5922
2026-01-05 11:03:21.49	323.97	18.51	-41.5	-45.1	12.8	1.06e-04	0	56	0	1043333120	54	5496
2026-01-05 11:03:22.50	324.10	18.41	-41.5	-45.1	12.9	3.73e-05	0	56	0	1045430272	54	5476
2026-01-05 11:03:23.51	324.22	18.30	-41.2	-44.6	13.3	5.11e-05	0	56	0	1047527424	54	5197
2026-01-05 11:03:24.52	324.34	18.20	-40.8	-43.9	14.0	5.30e-06	0	56	0	1049624576	53	5049
2026-01-05 11:03:25.53	324.47	18.09	-40.7	-43.8	14.1	7.00e-07	0	56	0	1051721728	53	5020
2026-01-05 11:03:26.54	324.59	17.99	-40.4	-43.2	14.7	2.20e-06	0	56	0	1052770304	52	4979
2026-01-05 11:03:27.55	324.71	17.88	-40.2	-43.0	15.0	0.00e+00	0	56	0	1054867456	52	4820
2026-01-05 11:03:28.56	324.83	17.78	-40.1	-42.8	15.1	0.00e+00	0	56	0	1056964608	52	4732
2026-01-05 11:03:29.57	324.94	17.68	-40.1	-42.8	15.1	0.00e+00	0	56	0	1059061760	52	4732
2026-01-05 11:03:30.58	325.06	17.57	-40.2	-42.8	15.2	0.00e+00	0	56	0	1061158912	51	5006
2026-01-05 11:03:31.59	325.18	17.47	-40.1	-42.7	15.3	0.00e+00	0	57	0	1062207488	51	4931
2026-01-05 11:03:32.60	325.30	17.37	-40.1	-42.7	15.2	0.00e+00	0	56	0	1064304640	51	4954
2026-01-05 11:03:33.61	325.41	17.26	-40.4	-43.1	14.9	0.00e+00	0	56	0	1066401792	51	5199
2026-01-05 11:03:34.62	325.53	17.16	-40.3	-43.0	15.0	0.00e+00	0	57	0	1068498944	51	5123
2026-01-05 11:03:35.62	325.64	17.06	-40.4	-43.2	14.7	0.00e+00	0	56	0	1070596096	51	5275
2026-01-05 11:03:36.63	325.75	16.96	-40.5	-43.3	14.6	7.00e-07	0	56	0	1071644672	51	5337
2026-01-05 11:03:37.64	325.87	16.86	-40.4	-43.2	14.7	0.00e+00	0	57	0	1073741824	51	5278
2026-01-05 11:03:38.65	325.98	16.76	-40.4	-43.2	14.8	7.00e-07	0	56	0	1075838976	51	5224
2026-01-05 11:03:39.66	326.09	16.66	-40.4	-43.3	14.7	0.00e+00	0	57	0	1077936128	51	5288
2026-01-05 11:03:40.67	326.20	16.56	-40.4	-43.2	14.7	0.00e+00	0	57	0	1080033280	51	5243
2026-01-05 11:03:41.68	326.31	16.46	-40.4	-43.3	14.6	7.00e-07	0	57	0	1081081856	51	5296
2026-01-05 11:03:42.69	326.42	16.36	-40.3	-43.0	14.9	0.00e+00	0	56	0	1083179008	51	5146
2026-01-05 11:03:43.70	326.53	16.26	-40.2	-42.9	15.0	0.00e+00	0	56	0	1085276160	51	5073
2026-01-05 11:03:44.71	326.63	16.16	-40.3	-43.0	14.9	0.00e+00	0	56	0	1087373312	51	5129
2026-01-05 11:03:45.72	326.74	16.06	-40.1	-42.7	15.1	0.00e+00	0	56	0	1089470464	51	4969
2026-01-05 11:03:46.73	326.85	15.96	-40.1	-42.7	15.2	0.00e+00	0	56	0	1090519040	51	4941
2026-01-05 11:03:47.74	326.95	15.87	-40.1	-42.8	15.1	0.00e+00	0	56	0	1092616192	51	4984
2026-01-05 11:03:48.75	327.06	15.77	-40.2	-42.9	15.0	0.00e+00	0	56	0	1094713344	51	5044
2026-01-05 11:03:49.76	327.16	15.67	-40.2	-43.0	14.9	0.00e+00	0	56	0	1096810496	51	5106
2026-01-05 11:03:50.77	327.27	15.57	-40.4	-43.2	14.7	0.00e+00	0	56	0	1098907648	51	5236
2026-01-05 11:03:51.78	327.37	15.48	-40.2	-42.9	14.9	7.00e-07	0	56	0	1099956224	51	5071
2026-01-05 11:03:52.79	327.47	15.38	-40.2	-43.0	14.9	0.00e+00	0	57	0	1102053376	51	5132
2026-01-05 11:03:53.80	327.57	15.29	-40.3	-43.0	14.9	0.00e+00	0	56	0	1104150528	51	5148
2026-01-05 11:03:54.81	327.68	15.19	-40.2	-43.0	14.9	0.00e+00	0	56	0	1106247680	51	5126
2026-01-05 11:03:55.82	327.78	15.09	-40.3	-43.2	14.6	7.00e-07	0	57	0	1108344832	51	5239
2026-01-05 11:03:56.82	327.87	15.00	-40.3	-43.1	14.7	7.00e-07	0	56	0	1109393408	51	5212
2026-01-05 11:03:57.83	327.97	14.91	-40.3	-43.1	14.7	0.00e+00	0	56	0	1111490560	51	5196
2026-01-05 11:03:58.84	328.07	14.81	-40.2	-43.0	14.8	7.00e-07	0	56	0	1113587712	51	5147
2026-01-05 11:03:59.85	328.17	14.72	-40.1	-42.8	15.0	0.00e+00	0	56	0	1115684864	51	5023
2026-01-05 11:04:00.86	328.27	14.62	-40.1	-42.9	15.0	0.00e+00	0	57	0	1117782016	51	5043
2026-01-05 11:04:01.87	328.37	14.53	-40.1	-42.8	15.0	0.00e+00	0	56	0	1118830592	51	5039
2026-01-05 11:04:02.88	328.46	14.44	-40.0	-42.7	15.1	0.00e+00	0	56	0	1120927744	51	4968
2026-01-05 11:04:03.89	328.56	14.34	-40.0	-42.7	15.1	0.00e+00	0	56	0	1123024896	51	4968
2026-01-05 11:04:04.90	328.65	14.25	-40.1	-42.8	14.9	0.00e+00	0	57	0	1125122048	51	5037
2026-01-05 11:04:05.91	328.75	14.16	-40.0	-42.6	15.2	0.00e+00	0	56	0	1127219200	51	4913
2026-01-05 11:04:06.92	328.84	14.06	-40.1	-42.8	14.9	0.00e+00	0	56	0	1129316352	51	5037
2026-01-05 11:04:07.93	328.94	13.97	-40.1	-42.8	15.0	0.00e+00	0	56	0	1130364928	51	5011
2026-01-05 11:04:08.94	329.03	13.88	-40.3	-43.2	14.6	0.00e+00	0	56	0	1132462080	51	5268
2026-01-05 11:04:09.94	329.12	13.79	-40.4	-43.4	14.4	7.00e-07	0	57	0	1134559232	51	5342
2026-01-05 11:04:10.95	329.21	13.70	-40.5	-43.5	14.2	0.00e+00	0	57	0	1136656384	51	5441
2026-01-05 11:04:11.96	329.30	13.61	-40.7	-43.7	14.0	3.80e-06	0	56	0	1138753536	51	5578
2026-01-05 11:04:12.97	329.40	13.52	-40.7	-43.8	13.8	3.80e-06	0	56	0	1139802112	52	5333
2026-01-05 11:04:13.98	329.49	13.43	-40.9	-44.2	13.5	1.14e-05	0	57	0	1141899264	52	5536
2026-01-05 11:04:14.99	329.58	13.34	-41.1	-44.6	13.1	2.67e-05	0	57	0	1143996416	52	5802
2026-01-05 11:04:16.00	329.66	13.25	-41.1	-44.6	13.1	4.42e-05	0	57	0	1146093568	52	5823
2026-01-05 11:04:17.01	329.75	13.16	-41.3	-45.0	12.6	7.17e-05	0	57	0	1148190720	53	5737
2026-01-05 11:04:18.02	329.84	13.07	-41.3	-45.0	12.6	8.77e-05	0	56	0	1149239296	53	5748
2026-01-05 11:04:19.03	329.93	12.98	-41.3	-45.1	12.5	8.62e-05	0	57	0	1151336448	53	5802
2026-01-05 11:04:20.04	330.02	12.89	-41.4	-45.2	12.4	1.27e-04	0	56	0	1153433600	53	5869
2026-01-05 11:04:21.05	330.10	12.80	-41.3	-45.1	12.5	1.63e-04	0	56	0	1155530752	53	5835
2026-01-05 11:04:22.06	330.19	12.72	-41.3	-45.0	12.5	1.33e-04	0	56	0	1157627904	53	5784
2026-01-05 11:04:23.07	330.28	12.63	-41.3	-45.1	12.5	1.41e-04	0	57	0	1158676480	53	5830
2026-01-05 11:04:24.09	330.36	12.54	-41.2	-44.8	12.7	7.24e-05	0	56	0	1160773632	53	5649
2026-01-05 11:04:25.09	330.45	12.45	-41.1	-44.7	12.8	4.34e-05	0	56	0	1162870784	53	5590
2026-01-05 11:04:26.10	330.53	12.37	-41.1	-44.6	12.9	5.64e-05	0	56	0	1164967936	53	5520
2026-01-05 11:04:27.11	330.61	12.28	-40.9	-44.4	13.1	3.05e-05	0	56	0	1167065088	53	5365
