passes_logs/2026/01/05/R2.0S_Moscow/R2.0S_Moscow__20260105_133501_FENGYUN_3D_rec.log

#Pass ID: 20260105_133501_FENGYUN 3D
#Satellite: FENGYUN 3D
#Configuration: FENGYUN 3D
#almurnet v.1.7.20251203
#Start time: 2026-01-05 13:35:01

#Version: 2.2.20231116
#Station: R2.0S_Moscow
#Location: 37.707566 lon 55.798166 lat
#TLE: 1 43010U 17072A   26004.99581904 -.00000126  00000+0 -37613-4 0  9996
#TLE: 2 43010  98.9917 336.6574 0001994 126.4096 233.7264 14.19691690421839

#Time	Az	El	Level	Level2	SNR	BER	BlckErr	Temp	State	Recorded	gain1	gain2
2026-01-05 13:35:01.01	210.33	1.98	-43.9	-55.5	3.8	8.47e-01	0	47	0	0	59	13667
2026-01-05 13:35:02.01	210.41	2.03	-43.8	-55.5	3.8	8.45e-01	0	47	104	0	59	13664
2026-01-05 13:35:03.02	210.48	2.08	-43.9	-55.5	3.8	8.45e-01	0	47	104	0	59	13637
2026-01-05 13:35:04.03	210.56	2.14	-43.8	-55.5	3.8	8.47e-01	0	47	104	0	59	13629
2026-01-05 13:35:05.04	210.64	2.19	-43.8	-55.5	3.8	8.48e-01	0	47	104	0	59	13657
2026-01-05 13:35:06.05	210.72	2.25	-43.8	-55.5	3.8	8.46e-01	0	47	104	0	59	13656
2026-01-05 13:35:07.06	210.79	2.30	-43.8	-55.5	3.8	8.47e-01	0	47	104	0	59	13637
2026-01-05 13:35:08.08	210.87	2.36	-43.8	-55.5	3.8	8.46e-01	0	47	104	0	59	13660
2026-01-05 13:35:09.09	210.95	2.41	-43.8	-55.5	3.8	8.45e-01	0	47	104	0	59	13667
2026-01-05 13:35:10.10	211.03	2.47	-43.8	-55.5	3.8	8.46e-01	0	47	104	0	59	13648
2026-01-05 13:35:11.11	211.11	2.52	-43.8	-55.5	3.8	8.46e-01	0	48	104	0	59	13655
2026-01-05 13:35:12.12	211.19	2.58	-43.8	-55.5	3.8	8.46e-01	0	48	104	0	59	13638
2026-01-05 13:35:13.13	211.27	2.63	-43.8	-55.5	3.8	8.47e-01	0	48	104	0	59	13673
2026-01-05 13:35:14.14	211.35	2.69	-43.8	-55.5	3.8	8.46e-01	0	48	104	0	59	13651
2026-01-05 13:35:15.16	211.43	2.74	-43.9	-55.5	3.8	8.46e-01	0	48	104	0	59	13659
2026-01-05 13:35:16.17	211.51	2.80	-43.8	-55.5	3.8	8.47e-01	0	48	104	0	59	13623
2026-01-05 13:35:17.18	211.59	2.85	-43.9	-55.5	3.8	8.47e-01	0	48	104	0	59	13686
2026-01-05 13:35:18.19	211.67	2.91	-43.8	-55.5	3.8	8.46e-01	0	48	104	0	59	13600
2026-01-05 13:35:19.20	211.76	2.96	-43.8	-55.5	3.8	8.46e-01	0	48	104	0	59	13622
2026-01-05 13:35:20.21	211.84	3.02	-43.8	-55.5	3.8	8.46e-01	0	48	104	0	59	13657
2026-01-05 13:35:21.22	211.92	3.07	-43.8	-55.5	3.8	8.46e-01	0	48	104	0	59	13599
2026-01-05 13:35:22.23	212.00	3.13	-43.8	-55.5	3.8	8.47e-01	0	48	104	0	59	13652
2026-01-05 13:35:23.24	212.09	3.18	-43.8	-55.5	3.8	8.45e-01	0	48	104	0	59	13642
2026-01-05 13:35:24.26	212.17	3.24	-43.8	-55.5	3.8	8.46e-01	0	48	104	0	59	13668
2026-01-05 13:35:25.27	212.25	3.30	-43.8	-55.5	3.8	8.46e-01	0	48	104	0	59	13619
2026-01-05 13:35:26.28	212.34	3.35	-43.8	-55.5	3.8	8.46e-01	0	49	104	0	59	13660
2026-01-05 13:35:27.29	212.42	3.41	-43.8	-55.5	3.8	8.45e-01	0	49	104	0	59	13679
2026-01-05 13:35:28.30	212.50	3.46	-43.8	-55.5	3.8	8.47e-01	0	49	104	0	59	13642
2026-01-05 13:35:29.31	212.59	3.52	-43.8	-55.5	3.8	8.47e-01	0	49	104	0	59	13627
2026-01-05 13:35:30.32	212.67	3.57	-43.8	-55.5	3.8	8.47e-01	0	49	104	0	59	13654
2026-01-05 13:35:31.33	212.76	3.63	-43.8	-55.5	3.8	8.47e-01	0	49	104	0	59	13651
2026-01-05 13:35:32.34	212.85	3.69	-43.8	-55.5	3.8	8.47e-01	0	49	104	0	59	13683
2026-01-05 13:35:33.35	212.93	3.74	-43.9	-55.5	3.8	8.46e-01	0	49	104	0	59	13706
2026-01-05 13:35:34.37	213.02	3.80	-43.8	-55.5	3.8	8.45e-01	0	49	104	0	59	13615
2026-01-05 13:35:35.38	213.10	3.86	-43.9	-55.5	3.8	8.46e-01	0	49	104	0	59	13631
2026-01-05 13:35:36.39	213.19	3.91	-43.8	-55.5	3.8	8.46e-01	0	49	104	0	59	13642
2026-01-05 13:35:37.40	213.28	3.97	-43.9	-55.5	3.8	8.47e-01	0	49	104	0	59	13642
2026-01-05 13:35:38.41	213.37	4.03	-43.9	-55.5	3.8	8.46e-01	0	50	104	0	59	13673
2026-01-05 13:35:39.42	213.45	4.08	-43.9	-55.5	3.8	8.45e-01	0	49	104	0	59	13667
2026-01-05 13:35:40.43	213.54	4.14	-43.9	-55.5	3.8	8.46e-01	0	50	104	0	59	13661
2026-01-05 13:35:41.44	213.63	4.20	-43.9	-55.5	3.8	8.46e-01	0	50	104	0	59	13674
2026-01-05 13:35:42.45	213.72	4.25	-43.9	-55.5	3.8	8.47e-01	0	50	104	0	59	13598
2026-01-05 13:35:43.47	213.81	4.31	-43.8	-55.5	3.8	8.45e-01	0	50	104	0	59	13635
2026-01-05 13:35:44.48	213.90	4.37	-43.8	-55.5	3.8	8.45e-01	0	50	104	0	59	13627
2026-01-05 13:35:45.49	213.99	4.42	-43.9	-55.5	3.8	8.46e-01	0	50	104	0	59	13641
2026-01-05 13:35:46.50	214.08	4.48	-43.8	-55.5	3.8	8.47e-01	0	50	104	0	59	13643
2026-01-05 13:35:47.51	214.17	4.54	-43.8	-55.5	3.8	8.46e-01	0	50	104	0	59	13629
2026-01-05 13:35:48.52	214.26	4.59	-43.9	-55.5	3.8	8.46e-01	0	50	104	0	59	13677
2026-01-05 13:35:49.53	214.35	4.65	-43.9	-55.5	3.8	8.47e-01	0	50	104	0	59	13660
2026-01-05 13:35:50.54	214.44	4.71	-43.8	-55.5	3.8	8.46e-01	0	50	104	0	59	13649
2026-01-05 13:35:51.56	214.54	4.77	-43.8	-55.5	3.8	8.46e-01	0	50	104	0	59	13607
2026-01-05 13:35:52.56	214.63	4.82	-43.8	-55.4	3.8	8.47e-01	0	50	104	0	59	13542
2026-01-05 13:35:53.58	214.72	4.88	-43.8	-55.4	3.8	8.47e-01	0	50	104	0	59	13529
2026-01-05 13:35:54.59	214.81	4.94	-43.8	-55.4	3.8	8.46e-01	0	50	104	0	59	13563
2026-01-05 13:35:55.60	214.91	5.00	-43.8	-55.3	3.8	8.46e-01	0	50	104	0	59	13383
2026-01-05 13:35:56.61	215.00	5.05	-43.8	-55.3	3.8	8.46e-01	0	51	104	0	59	13350
2026-01-05 13:35:57.62	215.09	5.11	-43.8	-55.3	3.8	8.45e-01	0	50	104	0	59	13329
2026-01-05 13:35:58.63	215.19	5.17	-43.8	-55.2	3.8	8.46e-01	0	50	104	0	59	13142
2026-01-05 13:35:59.64	215.28	5.23	-43.8	-55.1	3.8	8.46e-01	0	51	104	0	59	13005
2026-01-05 13:36:00.65	215.38	5.29	-43.8	-55.3	3.8	8.46e-01	0	50	104	0	59	13273
2026-01-05 13:36:01.66	215.47	5.34	-43.8	-55.1	3.8	8.45e-01	0	50	104	0	59	13022
2026-01-05 13:36:02.67	215.57	5.40	-43.8	-55.2	3.8	8.46e-01	0	51	104	0	59	13148
2026-01-05 13:36:03.68	215.66	5.46	-43.8	-55.3	3.8	8.46e-01	0	51	104	0	59	13304
2026-01-05 13:36:04.70	215.76	5.52	-43.8	-55.3	3.8	8.46e-01	0	51	104	0	59	13326
2026-01-05 13:36:05.71	215.86	5.58	-43.8	-55.5	3.8	8.45e-01	0	51	104	0	59	13591
2026-01-05 13:36:06.72	215.96	5.63	-43.8	-55.4	3.8	8.47e-01	0	51	104	0	59	13515
2026-01-05 13:36:07.73	216.05	5.69	-43.8	-55.5	3.8	8.45e-01	0	51	104	0	59	13599
2026-01-05 13:36:08.74	216.15	5.75	-43.8	-55.4	3.8	8.46e-01	0	51	104	0	59	13467
2026-01-05 13:36:09.75	216.25	5.81	-43.8	-55.1	3.8	8.46e-01	0	51	104	0	59	13034
2026-01-05 13:36:10.76	216.35	5.87	-43.8	-54.9	3.8	8.46e-01	0	51	104	0	59	12801
2026-01-05 13:36:11.78	216.45	5.93	-43.7	-54.7	3.8	8.46e-01	0	51	104	0	59	12519
2026-01-05 13:36:12.78	216.55	5.99	-43.7	-54.4	3.8	8.47e-01	0	51	104	0	59	12082
2026-01-05 13:36:13.80	216.65	6.04	-43.7	-54.1	3.8	8.46e-01	0	51	104	0	59	11669
2026-01-05 13:36:14.81	216.75	6.10	-43.6	-53.6	3.8	8.45e-01	0	51	104	0	59	10999
2026-01-05 13:36:15.82	216.85	6.16	-43.6	-53.1	3.9	8.45e-01	0	51	104	0	59	10402
2026-01-05 13:36:16.83	216.95	6.22	-43.5	-52.9	3.9	8.44e-01	0	51	104	0	59	10104
2026-01-05 13:36:17.84	217.05	6.28	-43.5	-52.9	4.0	8.44e-01	0	51	104	0	59	10093
2026-01-05 13:36:18.85	217.15	6.34	-43.5	-53.1	3.9	8.43e-01	0	51	104	0	59	10323
2026-01-05 13:36:19.86	217.26	6.40	-43.6	-53.5	3.8	8.45e-01	0	51	104	0	59	10786
2026-01-05 13:36:20.87	217.36	6.46	-43.6	-53.8	3.8	8.45e-01	0	51	104	0	59	11262
2026-01-05 13:36:21.88	217.46	6.52	-43.7	-54.1	3.8	8.46e-01	0	52	104	0	59	11639
2026-01-05 13:36:22.89	217.57	6.58	-43.7	-54.2	3.8	8.46e-01	0	51	104	0	59	11804
2026-01-05 13:36:23.90	217.67	6.64	-43.7	-54.2	3.8	8.46e-01	0	52	104	0	59	11776
2026-01-05 13:36:24.91	217.77	6.69	-43.7	-54.1	3.8	8.46e-01	0	51	104	0	59	11674
2026-01-05 13:36:25.93	217.88	6.75	-43.7	-54.1	3.8	8.46e-01	0	52	104	0	59	11610
2026-01-05 13:36:26.94	217.98	6.81	-43.7	-54.2	3.8	8.46e-01	0	52	104	0	59	11688
2026-01-05 13:36:27.94	218.09	6.87	-43.7	-54.1	3.8	8.45e-01	0	52	104	0	59	11659
2026-01-05 13:36:28.95	218.20	6.93	-43.7	-54.1	3.8	8.46e-01	0	52	104	0	59	11594
2026-01-05 13:36:29.96	218.30	6.99	-43.6	-53.8	3.8	8.45e-01	0	52	104	0	59	11231
2026-01-05 13:36:30.97	218.41	7.05	-43.5	-53.2	3.9	8.45e-01	0	52	104	0	59	10443
2026-01-05 13:36:31.98	218.52	7.11	-43.5	-52.4	4.1	8.42e-01	0	52	0	0	58	10122
2026-01-05 13:36:32.99	218.62	7.17	-43.2	-51.1	4.4	8.32e-01	0	52	0	0	58	8723
2026-01-05 13:36:34.01	218.73	7.23	-43.0	-49.9	5.1	7.78e-01	0	52	0	0	58	7547
2026-01-05 13:36:35.01	218.84	7.29	-42.5	-48.2	6.1	5.01e-01	0	52	0	2097152	57	6616
2026-01-05 13:36:36.03	218.95	7.35	-42.0	-46.7	7.5	1.42e-01	0	52	0	7340032	56	5875
2026-01-05 13:36:37.04	219.06	7.41	-41.4	-45.5	8.6	6.15e-02	0	52	0	12582912	54	5731
2026-01-05 13:36:38.05	219.17	7.47	-40.7	-44.2	9.9	1.47e-02	0	52	0	18874368	53	5222
2026-01-05 13:36:39.06	219.28	7.53	-40.1	-43.1	11.1	4.27e-03	0	52	0	24117248	52	4873
2026-01-05 13:36:40.07	219.39	7.59	-39.4	-42.0	12.2	6.69e-04	0	52	0	30408704	50	4864
2026-01-05 13:36:41.08	219.50	7.65	-38.9	-41.2	13.1	9.95e-05	0	52	0	35651584	49	4666
2026-01-05 13:36:42.09	219.61	7.71	-38.4	-40.5	13.9	1.83e-05	0	52	0	40894464	48	4552
2026-01-05 13:36:43.10	219.72	7.77	-37.9	-39.9	14.4	5.70e-06	0	52	0	47185920	47	4507
2026-01-05 13:36:44.11	219.84	7.83	-37.6	-39.6	14.7	0.00e+00	0	52	0	52428800	47	4343
2026-01-05 13:36:45.12	219.95	7.89	-37.3	-39.2	15.1	0.00e+00	0	52	0	58720256	46	4411
2026-01-05 13:36:46.14	220.06	7.95	-37.3	-39.1	15.1	0.00e+00	0	52	0	63963136	46	4385
2026-01-05 13:36:47.15	220.18	8.02	-37.2	-39.1	15.2	0.00e+00	0	52	0	70254592	46	4342
2026-01-05 13:36:48.16	220.29	8.08	-37.7	-39.6	14.7	0.00e+00	0	52	0	75497472	46	4618
2026-01-05 13:36:49.17	220.41	8.14	-38.0	-40.0	14.3	5.70e-06	0	53	0	81788928	47	4579
2026-01-05 13:36:50.18	220.52	8.20	-40.9	-44.7	9.4	4.03e-03	0	53	0	87031808	52	5877
2026-01-05 13:36:51.19	220.64	8.26	-42.7	-49.0	5.4	8.13e-01	0	53	0	90177536	56	7711
2026-01-05 13:36:52.20	220.75	8.32	-39.3	-41.7	12.8	1.71e-05	0	53	0	96468992	50	4654
2026-01-05 13:36:53.21	220.87	8.38	-36.9	-38.6	15.8	0.00e+00	0	53	0	101711872	45	4344
2026-01-05 13:36:54.22	220.99	8.44	-37.0	-38.7	15.7	0.00e+00	0	53	0	106954752	45	4420
2026-01-05 13:36:55.23	221.11	8.50	-37.0	-38.7	15.7	0.00e+00	0	53	0	113246208	45	4421
2026-01-05 13:36:56.24	221.22	8.56	-36.9	-38.6	15.9	0.00e+00	0	53	0	118489088	45	4345
2026-01-05 13:36:57.25	221.34	8.62	-36.9	-38.5	15.9	0.00e+00	0	53	0	124780544	45	4316
2026-01-05 13:36:58.26	221.46	8.68	-36.9	-38.5	15.9	0.00e+00	0	53	0	130023424	45	4328
2026-01-05 13:36:59.27	221.58	8.75	-36.8	-38.5	16.0	0.00e+00	0	53	0	135266304	45	4297
2026-01-05 13:37:00.28	221.70	8.81	-36.7	-38.3	16.1	0.00e+00	0	53	0	141557760	45	4234
2026-01-05 13:37:01.29	221.82	8.87	-36.8	-38.5	16.0	0.00e+00	0	53	0	146800640	45	4295
2026-01-05 13:37:02.30	221.94	8.93	-36.6	-38.2	16.3	0.00e+00	0	53	0	153092096	45	4164
2026-01-05 13:37:03.31	222.06	8.99	-36.6	-38.2	16.3	0.00e+00	0	53	0	158334976	45	4170
2026-01-05 13:37:04.32	222.19	9.05	-36.6	-38.1	16.4	0.00e+00	0	53	0	164626432	45	4140
2026-01-05 13:37:05.33	222.31	9.11	-36.5	-38.1	16.4	0.00e+00	0	53	0	169869312	45	4124
2026-01-05 13:37:06.34	222.43	9.17	-36.5	-38.1	16.4	0.00e+00	0	53	0	175112192	44	4361
2026-01-05 13:37:07.36	222.56	9.24	-36.5	-38.0	16.5	0.00e+00	0	53	0	181403648	44	4320
2026-01-05 13:37:08.37	222.68	9.30	-36.5	-38.1	16.5	0.00e+00	0	53	0	186646528	44	4352
2026-01-05 13:37:09.38	222.80	9.36	-36.5	-38.1	16.4	0.00e+00	0	53	0	192937984	44	4374
2026-01-05 13:37:10.38	222.93	9.42	-36.5	-38.0	16.5	0.00e+00	0	53	0	198180864	44	4315
2026-01-05 13:37:11.40	223.05	9.48	-36.5	-38.0	16.5	0.00e+00	0	53	0	203423744	44	4329
2026-01-05 13:37:12.41	223.18	9.54	-36.5	-38.1	16.5	0.00e+00	0	53	0	209715200	44	4343
2026-01-05 13:37:13.42	223.31	9.60	-36.5	-38.1	16.5	0.00e+00	0	54	0	214958080	44	4351
2026-01-05 13:37:14.43	223.43	9.67	-36.6	-38.2	16.4	0.00e+00	0	53	0	221249536	44	4395
2026-01-05 13:37:15.44	223.56	9.73	-36.5	-38.0	16.5	0.00e+00	0	53	0	226492416	44	4335
2026-01-05 13:37:16.45	223.69	9.79	-36.5	-38.1	16.5	0.00e+00	0	53	0	232783872	44	4358
2026-01-05 13:37:17.46	223.82	9.85	-36.5	-38.0	16.6	0.00e+00	0	53	0	238026752	44	4328
2026-01-05 13:37:18.47	223.95	9.91	-36.6	-38.2	16.4	0.00e+00	0	53	0	243269632	44	4400
2026-01-05 13:37:19.48	224.08	9.98	-36.6	-38.2	16.4	0.00e+00	0	53	0	249561088	44	4406
2026-01-05 13:37:20.49	224.21	10.04	-36.6	-38.2	16.5	0.00e+00	0	53	0	254803968	44	4397
2026-01-05 13:37:21.50	224.34	10.10	-36.5	-38.1	16.5	0.00e+00	0	54	0	261095424	44	4381
2026-01-05 13:37:22.51	224.47	10.16	-36.5	-38.1	16.5	0.00e+00	0	53	0	266338304	44	4351
2026-01-05 13:37:23.52	224.60	10.22	-36.4	-37.9	16.7	0.00e+00	0	54	0	272629760	44	4273
2026-01-05 13:37:24.53	224.73	10.28	-36.3	-37.8	16.8	0.00e+00	0	54	0	277872640	44	4228
2026-01-05 13:37:25.54	224.87	10.35	-36.2	-37.7	16.9	0.00e+00	0	53	0	283115520	44	4175
2026-01-05 13:37:26.55	225.00	10.41	-36.1	-37.6	17.0	0.00e+00	0	53	0	289406976	44	4130
2026-01-05 13:37:27.57	225.13	10.47	-36.1	-37.6	17.0	0.00e+00	0	53	0	294649856	44	4130
2026-01-05 13:37:28.58	225.27	10.53	-36.1	-37.6	17.1	0.00e+00	0	53	0	300941312	44	4111
2026-01-05 13:37:29.59	225.40	10.59	-36.0	-37.5	17.2	0.00e+00	0	54	0	306184192	44	4055
2026-01-05 13:37:30.59	225.54	10.66	-36.1	-37.5	17.2	0.00e+00	0	54	0	311427072	44	4081
2026-01-05 13:37:31.60	225.67	10.72	-36.1	-37.5	17.1	0.00e+00	0	53	0	317718528	44	4090
2026-01-05 13:37:32.62	225.81	10.78	-36.2	-37.6	17.0	0.00e+00	0	54	0	322961408	44	4143
2026-01-05 13:37:33.63	225.95	10.84	-36.3	-37.8	16.9	0.00e+00	0	54	0	329252864	44	4206
2026-01-05 13:37:34.64	226.09	10.90	-36.3	-37.8	16.9	0.00e+00	0	54	0	334495744	44	4215
2026-01-05 13:37:35.65	226.23	10.97	-36.3	-37.8	16.8	0.00e+00	0	54	0	340787200	44	4238
2026-01-05 13:37:36.66	226.36	11.03	-36.3	-37.8	16.9	0.00e+00	0	54	0	346030080	44	4226
2026-01-05 13:37:37.67	226.50	11.09	-36.3	-37.8	16.8	0.00e+00	0	54	0	351272960	44	4238
2026-01-05 13:37:38.68	226.64	11.15	-36.3	-37.8	16.9	0.00e+00	0	54	0	357564416	44	4230
2026-01-05 13:37:39.69	226.78	11.22	-36.4	-37.9	16.8	0.00e+00	0	54	0	362807296	44	4267
2026-01-05 13:37:40.70	226.93	11.28	-36.3	-37.8	16.9	0.00e+00	0	54	0	369098752	44	4200
2026-01-05 13:37:41.71	227.07	11.34	-36.2	-37.6	17.0	0.00e+00	0	54	0	374341632	44	4140
2026-01-05 13:37:42.72	227.21	11.40	-36.2	-37.7	17.1	0.00e+00	0	54	0	380633088	44	4146
2026-01-05 13:37:43.73	227.35	11.46	-36.2	-37.7	17.1	0.00e+00	0	54	0	385875968	44	4151
2026-01-05 13:37:44.75	227.50	11.53	-36.1	-37.6	17.1	0.00e+00	0	54	0	391118848	44	4102
2026-01-05 13:37:45.75	227.64	11.59	-36.1	-37.5	17.2	0.00e+00	0	54	0	397410304	44	4098
2026-01-05 13:37:46.76	227.79	11.65	-36.0	-37.5	17.3	0.00e+00	0	54	0	402653184	44	4061
2026-01-05 13:37:47.77	227.93	11.71	-36.1	-37.5	17.2	0.00e+00	0	54	0	408944640	44	4083
2026-01-05 13:37:48.78	228.08	11.77	-36.0	-37.4	17.3	0.00e+00	0	54	0	414187520	44	4037
2026-01-05 13:37:49.79	228.22	11.84	-35.8	-37.2	17.3	0.00e+00	0	54	0	419430400	43	4184
2026-01-05 13:37:50.80	228.37	11.90	-35.8	-37.2	17.4	0.00e+00	0	54	0	425721856	43	4172
2026-01-05 13:37:51.81	228.52	11.96	-35.8	-37.3	17.3	0.00e+00	0	54	0	430964736	43	4209
2026-01-05 13:37:52.82	228.67	12.02	-35.8	-37.2	17.3	0.00e+00	0	54	0	437256192	43	4188
2026-01-05 13:37:53.83	228.82	12.08	-35.8	-37.3	17.3	0.00e+00	0	54	0	442499072	43	4196
2026-01-05 13:37:54.84	228.97	12.15	-35.8	-37.3	17.3	0.00e+00	0	54	0	447741952	43	4197
2026-01-05 13:37:55.85	229.12	12.21	-35.8	-37.2	17.4	0.00e+00	0	54	0	454033408	43	4169
2026-01-05 13:37:56.86	229.27	12.27	-35.8	-37.2	17.4	0.00e+00	0	54	0	459276288	43	4182
2026-01-05 13:37:57.87	229.42	12.33	-35.7	-37.1	17.4	0.00e+00	0	54	0	465567744	43	4140
2026-01-05 13:37:58.88	229.57	12.39	-35.7	-37.1	17.5	0.00e+00	0	54	0	470810624	43	4119
2026-01-05 13:37:59.89	229.72	12.46	-35.7	-37.2	17.4	0.00e+00	0	54	0	477102080	43	4152
2026-01-05 13:38:00.90	229.88	12.52	-35.7	-37.1	17.5	0.00e+00	0	54	0	482344960	43	4125
2026-01-05 13:38:01.91	230.03	12.58	-35.6	-37.0	17.6	0.00e+00	0	54	0	488636416	43	4068
2026-01-05 13:38:02.92	230.18	12.64	-35.5	-36.9	17.7	0.00e+00	0	54	0	493879296	43	4031
2026-01-05 13:38:03.93	230.34	12.70	-35.5	-36.9	17.7	0.00e+00	0	54	0	499122176	43	4011
2026-01-05 13:38:04.94	230.50	12.77	-35.5	-36.9	17.7	0.00e+00	0	54	0	505413632	42	4262
2026-01-05 13:38:05.95	230.65	12.83	-35.5	-36.8	17.8	0.00e+00	0	54	0	510656512	42	4238
2026-01-05 13:38:06.96	230.81	12.89	-35.5	-36.9	17.7	0.00e+00	0	54	0	516947968	42	4247
2026-01-05 13:38:07.97	230.97	12.95	-35.5	-36.9	17.7	0.00e+00	0	54	0	522190848	42	4279
2026-01-05 13:38:08.98	231.13	13.01	-35.6	-37.0	17.7	0.00e+00	0	54	0	527433728	42	4300
2026-01-05 13:38:09.99	231.28	13.07	-35.6	-37.0	17.7	0.00e+00	0	55	0	533725184	42	4314
2026-01-05 13:38:11.00	231.44	13.13	-35.6	-37.0	17.7	0.00e+00	0	54	0	538968064	42	4295
2026-01-05 13:38:12.01	231.60	13.20	-35.6	-36.9	17.7	0.00e+00	0	54	0	545259520	42	4285
2026-01-05 13:38:13.02	231.77	13.26	-35.5	-36.8	17.8	0.00e+00	0	54	0	550502400	42	4234
2026-01-05 13:38:14.03	231.93	13.32	-35.4	-36.7	17.9	0.00e+00	0	55	0	555745280	42	4179
2026-01-05 13:38:15.04	232.09	13.38	-35.3	-36.7	18.0	0.00e+00	0	54	0	562036736	42	4161
2026-01-05 13:38:16.05	232.25	13.44	-35.3	-36.6	18.0	0.00e+00	0	54	0	567279616	42	4123
2026-01-05 13:38:17.06	232.42	13.50	-35.3	-36.6	18.0	0.00e+00	0	54	0	573571072	42	4145
2026-01-05 13:38:18.07	232.58	13.56	-35.4	-36.8	17.9	0.00e+00	0	54	0	578813952	42	4196
2026-01-05 13:38:19.08	232.74	13.62	-35.4	-36.8	17.9	0.00e+00	0	55	0	585105408	42	4200
2026-01-05 13:38:20.09	232.91	13.69	-35.5	-36.9	17.8	0.00e+00	0	54	0	590348288	42	4276
2026-01-05 13:38:21.10	233.08	13.75	-35.5	-36.9	17.8	0.00e+00	0	54	0	595591168	42	4268
2026-01-05 13:38:22.11	233.24	13.81	-35.6	-37.0	17.7	0.00e+00	0	54	0	601882624	42	4311
2026-01-05 13:38:23.12	233.41	13.87	-35.5	-36.9	17.7	0.00e+00	0	54	0	607125504	42	4280
2026-01-05 13:38:24.13	233.58	13.93	-35.5	-36.9	17.8	0.00e+00	0	54	0	613416960	42	4259
2026-01-05 13:38:25.14	233.75	13.99	-35.6	-37.0	17.7	0.00e+00	0	54	0	618659840	42	4304
2026-01-05 13:38:26.15	233.92	14.05	-35.6	-37.0	17.7	0.00e+00	0	54	0	624951296	42	4311
2026-01-05 13:38:27.16	234.09	14.11	-35.6	-37.0	17.7	0.00e+00	0	54	0	630194176	42	4305
2026-01-05 13:38:28.17	234.26	14.17	-35.6	-36.9	17.7	0.00e+00	0	54	0	635437056	42	4291
2026-01-05 13:38:29.18	234.43	14.23	-35.6	-36.9	17.8	0.00e+00	0	54	0	641728512	42	4291
2026-01-05 13:38:30.19	234.60	14.29	-35.4	-36.8	17.9	0.00e+00	0	54	0	646971392	42	4219
2026-01-05 13:38:31.20	234.78	14.35	-35.3	-36.6	18.1	0.00e+00	0	54	0	653262848	42	4124
2026-01-05 13:38:32.21	234.95	14.41	-35.2	-36.5	18.2	0.00e+00	0	55	0	658505728	42	4071
2026-01-05 13:38:33.22	235.12	14.47	-35.2	-36.5	18.2	0.00e+00	0	55	0	663748608	42	4072
2026-01-05 13:38:34.23	235.30	14.53	-35.1	-36.4	18.3	0.00e+00	0	54	0	670040064	42	4025
2026-01-05 13:38:35.24	235.47	14.59	-35.2	-36.5	18.2	0.00e+00	0	55	0	675282944	42	4078
2026-01-05 13:38:36.25	235.65	14.65	-35.2	-36.5	18.2	0.00e+00	0	55	0	681574400	42	4098
2026-01-05 13:38:37.26	235.83	14.71	-35.3	-36.7	18.0	0.00e+00	0	54	0	686817280	42	4161
2026-01-05 13:38:38.27	236.01	14.77	-35.3	-36.7	18.0	0.00e+00	0	54	0	693108736	42	4171
2026-01-05 13:38:39.28	236.18	14.83	-35.4	-36.7	18.0	0.00e+00	0	55	0	698351616	42	4185
2026-01-05 13:38:40.29	236.36	14.89	-35.3	-36.6	18.1	0.00e+00	0	54	0	703594496	42	4134
2026-01-05 13:38:41.30	236.54	14.95	-35.2	-36.6	18.1	0.00e+00	0	55	0	709885952	42	4101
2026-01-05 13:38:42.31	236.72	15.01	-35.2	-36.4	18.2	0.00e+00	0	55	0	715128832	42	4049
2026-01-05 13:38:43.32	236.90	15.06	-35.2	-36.5	18.2	0.00e+00	0	55	0	721420288	42	4076
2026-01-05 13:38:44.33	237.09	15.12	-35.1	-36.4	18.3	0.00e+00	0	55	0	726663168	42	4027
2026-01-05 13:38:45.34	237.27	15.18	-35.1	-36.4	18.3	0.00e+00	0	55	0	731906048	42	4049
2026-01-05 13:38:46.35	237.45	15.24	-35.2	-36.5	18.3	0.00e+00	0	55	0	738197504	42	4059
2026-01-05 13:38:47.36	237.64	15.30	-35.1	-36.4	18.3	0.00e+00	0	55	0	743440384	42	4020
2026-01-05 13:38:48.37	237.82	15.36	-35.1	-36.4	18.4	0.00e+00	0	55	0	749731840	42	4011
2026-01-05 13:38:49.38	238.01	15.41	-35.0	-36.3	18.4	0.00e+00	0	55	0	754974720	42	3963
2026-01-05 13:38:50.40	238.19	15.47	-34.9	-36.2	18.5	0.00e+00	0	55	0	760217600	41	4156
2026-01-05 13:38:51.41	238.38	15.53	-34.9	-36.1	18.6	0.00e+00	0	55	0	766509056	41	4131
2026-01-05 13:38:52.42	238.57	15.59	-34.9	-36.1	18.6	0.00e+00	0	55	0	771751936	41	4144
2026-01-05 13:38:53.43	238.76	15.65	-34.9	-36.2	18.5	0.00e+00	0	55	0	778043392	41	4155
2026-01-05 13:38:54.44	238.95	15.70	-34.9	-36.2	18.5	0.00e+00	0	55	0	783286272	41	4168
2026-01-05 13:38:55.44	239.13	15.76	-34.9	-36.2	18.5	0.00e+00	0	55	0	789577728	41	4161
2026-01-05 13:38:56.45	239.32	15.82	-34.9	-36.2	18.5	0.00e+00	0	55	0	794820608	41	4169
2026-01-05 13:38:57.46	239.51	15.87	-34.9	-36.2	18.6	0.00e+00	0	55	0	801112064	41	4149
2026-01-05 13:38:58.48	239.71	15.93	-35.0	-36.3	18.5	0.00e+00	0	55	0	806354944	41	4199
2026-01-05 13:38:59.49	239.90	15.99	-34.9	-36.2	18.5	0.00e+00	0	55	0	811597824	41	4173
2026-01-05 13:39:00.50	240.09	16.04	-34.8	-36.1	18.6	0.00e+00	0	55	0	817889280	41	4118
2026-01-05 13:39:01.51	240.29	16.10	-34.8	-36.1	18.6	0.00e+00	0	55	0	823132160	41	4120
2026-01-05 13:39:02.52	240.48	16.16	-34.8	-36.1	18.6	0.00e+00	0	55	0	829423616	41	4105
2026-01-05 13:39:03.53	240.68	16.21	-34.8	-36.1	18.7	0.00e+00	0	55	0	834666496	41	4105
2026-01-05 13:39:04.54	240.87	16.27	-34.8	-36.1	18.7	0.00e+00	0	55	0	839909376	41	4100
2026-01-05 13:39:05.55	241.07	16.32	-34.8	-36.0	18.7	0.00e+00	0	55	0	846200832	41	4085
2026-01-05 13:39:06.56	241.27	16.38	-34.7	-35.9	18.8	0.00e+00	0	55	0	851443712	41	4048
2026-01-05 13:39:07.57	241.46	16.43	-34.7	-35.9	18.8	0.00e+00	0	55	0	857735168	41	4041
2026-01-05 13:39:08.58	241.66	16.49	-34.6	-35.9	18.9	0.00e+00	0	55	0	862978048	41	4014
2026-01-05 13:39:09.59	241.86	16.54	-34.6	-35.8	18.9	0.00e+00	0	55	0	868220928	41	3979
2026-01-05 13:39:10.60	242.06	16.60	-34.5	-35.8	18.9	0.00e+00	0	55	0	874512384	41	3970
2026-01-05 13:39:11.61	242.26	16.65	-34.6	-35.8	19.0	0.00e+00	0	55	0	879755264	41	3975
2026-01-05 13:39:12.62	242.47	16.70	-34.5	-35.8	19.0	0.00e+00	0	55	0	886046720	41	3965
2026-01-05 13:39:13.63	242.67	16.76	-34.6	-35.8	18.9	0.00e+00	0	55	0	891289600	41	4002
2026-01-05 13:39:14.64	242.87	16.81	-34.7	-35.9	18.8	0.00e+00	0	55	0	897581056	41	4031
2026-01-05 13:39:15.65	243.07	16.86	-34.7	-36.0	18.8	0.00e+00	0	55	0	902823936	41	4054
2026-01-05 13:39:16.66	243.28	16.92	-34.7	-36.0	18.8	0.00e+00	0	55	0	909115392	41	4067
2026-01-05 13:39:17.67	243.48	16.97	-34.7	-36.0	18.7	0.00e+00	0	55	0	914358272	41	4069
2026-01-05 13:39:18.68	243.69	17.02	-34.7	-35.9	18.8	0.00e+00	0	55	0	919601152	41	4048
2026-01-05 13:39:19.69	243.90	17.07	-34.7	-36.0	18.8	0.00e+00	0	55	0	925892608	41	4057
2026-01-05 13:39:20.70	244.10	17.13	-34.6	-35.9	18.9	0.00e+00	0	55	0	931135488	41	4028
2026-01-05 13:39:21.71	244.31	17.18	-34.6	-35.9	18.9	0.00e+00	0	55	0	937426944	41	4014
2026-01-05 13:39:22.72	244.52	17.23	-34.5	-35.8	19.0	0.00e+00	0	55	0	942669824	41	3965
2026-01-05 13:39:23.73	244.73	17.28	-34.6	-35.8	19.0	0.00e+00	0	55	0	947912704	41	3972
2026-01-05 13:39:24.74	244.94	17.33	-34.6	-35.8	19.0	0.00e+00	0	55	0	954204160	41	3978
2026-01-05 13:39:25.75	245.15	17.38	-34.6	-35.8	18.9	0.00e+00	0	55	0	959447040	41	4003
2026-01-05 13:39:26.76	245.36	17.43	-34.6	-35.9	18.9	0.00e+00	0	55	0	965738496	41	4016
2026-01-05 13:39:27.77	245.57	17.48	-34.6	-35.9	18.9	0.00e+00	0	55	0	970981376	41	4017
2026-01-05 13:39:28.78	245.78	17.53	-34.7	-35.9	18.8	0.00e+00	0	55	0	976224256	41	4037
2026-01-05 13:39:29.79	246.00	17.58	-34.6	-35.9	18.9	0.00e+00	0	55	0	982515712	41	4020
2026-01-05 13:39:30.80	246.21	17.63	-34.5	-35.8	19.0	0.00e+00	0	55	0	987758592	41	3972
2026-01-05 13:39:31.81	246.43	17.68	-34.5	-35.7	19.0	0.00e+00	0	55	0	994050048	41	3952
2026-01-05 13:39:32.82	246.64	17.73	-34.5	-35.7	19.0	0.00e+00	0	55	0	999292928	41	3941
2026-01-05 13:39:33.83	246.86	17.78	-34.5	-35.7	19.0	0.00e+00	0	55	0	1005584384	40	4175
2026-01-05 13:39:34.84	247.07	17.83	-34.4	-35.7	19.1	0.00e+00	0	55	0	1010827264	40	4151
2026-01-05 13:39:35.85	247.29	17.87	-34.4	-35.6	19.2	0.00e+00	0	55	0	1017118720	40	4129
2026-01-05 13:39:36.86	247.51	17.92	-34.4	-35.6	19.2	0.00e+00	0	55	0	1022361600	40	4119
2026-01-05 13:39:37.87	247.73	17.97	-34.4	-35.6	19.2	0.00e+00	0	55	0	1027604480	40	4127
2026-01-05 13:39:38.88	247.95	18.02	-34.4	-35.7	19.1	0.00e+00	0	55	0	1033895936	40	4152
2026-01-05 13:39:39.89	248.17	18.06	-34.4	-35.7	19.1	0.00e+00	0	55	0	1039138816	40	4153
2026-01-05 13:39:40.90	248.39	18.11	-34.4	-35.7	19.1	0.00e+00	0	55	0	1045430272	40	4151
2026-01-05 13:39:41.91	248.61	18.16	-34.4	-35.6	19.2	0.00e+00	0	55	0	1050673152	40	4130
2026-01-05 13:39:42.92	248.83	18.20	-34.4	-35.6	19.2	0.00e+00	0	55	0	1055916032	40	4110
2026-01-05 13:39:43.93	249.06	18.25	-34.3	-35.5	19.3	0.00e+00	0	55	0	1062207488	40	4057
2026-01-05 13:39:44.94	249.28	18.29	-34.2	-35.4	19.4	0.00e+00	0	55	0	1067450368	40	4026
2026-01-05 13:39:45.96	249.50	18.34	-34.2	-35.4	19.4	0.00e+00	0	55	0	1073741824	40	4008
2026-01-05 13:39:46.97	249.73	18.38	-34.2	-35.4	19.4	0.00e+00	0	55	0	1078984704	40	4011
2026-01-05 13:39:47.98	249.95	18.42	-34.1	-35.3	19.5	0.00e+00	0	55	0	1084227584	40	3978
2026-01-05 13:39:48.99	250.18	18.47	-34.2	-35.4	19.4	0.00e+00	0	55	0	1090519040	40	4010
2026-01-05 13:39:50.00	250.41	18.51	-34.2	-35.4	19.4	0.00e+00	0	55	0	1095761920	40	4030
2026-01-05 13:39:51.01	250.63	18.55	-34.3	-35.5	19.2	0.00e+00	0	55	0	1102053376	40	4095
2026-01-05 13:39:52.02	250.86	18.60	-34.4	-35.6	19.2	0.00e+00	0	56	0	1107296256	40	4117
2026-01-05 13:39:53.03	251.09	18.64	-34.4	-35.6	19.2	0.00e+00	0	55	0	1113587712	40	4121
2026-01-05 13:39:54.04	251.32	18.68	-34.4	-35.6	19.2	0.00e+00	0	56	0	1118830592	40	4135
2026-01-05 13:39:55.05	251.55	18.72	-34.4	-35.6	19.2	0.00e+00	0	55	0	1124073472	40	4115
2026-01-05 13:39:56.06	251.78	18.76	-34.2	-35.4	19.3	0.00e+00	0	55	0	1130364928	40	4049
2026-01-05 13:39:57.07	252.01	18.80	-34.2	-35.4	19.4	0.00e+00	0	55	0	1135607808	40	4014
2026-01-05 13:39:58.08	252.24	18.84	-34.1	-35.3	19.5	0.00e+00	0	55	0	1141899264	40	3968
2026-01-05 13:39:59.09	252.47	18.88	-34.2	-35.4	19.4	0.00e+00	0	56	0	1147142144	40	4022
2026-01-05 13:40:00.10	252.70	18.92	-34.4	-35.6	19.2	0.00e+00	0	55	0	1153433600	40	4110
2026-01-05 13:40:01.11	252.94	18.96	-34.4	-35.6	19.2	0.00e+00	0	55	0	1158676480	40	4106
2026-01-05 13:40:02.12	253.17	19.00	-34.3	-35.5	19.2	0.00e+00	0	55	0	1163919360	40	4095
2026-01-05 13:40:03.13	253.41	19.04	-34.3	-35.5	19.3	0.00e+00	0	56	0	1170210816	40	4085
2026-01-05 13:40:04.14	253.64	19.08	-34.2	-35.4	19.4	0.00e+00	0	56	0	1175453696	40	4023
2026-01-05 13:40:05.15	253.88	19.11	-34.0	-35.2	19.6	0.00e+00	0	55	0	1181745152	40	3935
2026-01-05 13:40:06.16	254.11	19.15	-34.1	-35.2	19.5	0.00e+00	0	56	0	1186988032	40	3952
2026-01-05 13:40:07.17	254.35	19.19	-34.2	-35.4	19.4	0.00e+00	0	56	0	1192230912	40	4016
2026-01-05 13:40:08.18	254.59	19.22	-34.2	-35.4	19.4	0.00e+00	0	55	0	1198522368	40	4023
2026-01-05 13:40:09.19	254.82	19.26	-34.2	-35.4	19.4	0.00e+00	0	55	0	1203765248	40	4022
2026-01-05 13:40:10.20	255.06	19.30	-34.1	-35.3	19.5	0.00e+00	0	55	0	1210056704	40	3977
2026-01-05 13:40:11.21	255.30	19.33	-34.1	-35.3	19.5	0.00e+00	0	56	0	1215299584	40	3974
2026-01-05 13:40:12.23	255.54	19.36	-34.1	-35.3	19.5	0.00e+00	0	55	0	1221591040	40	3969
2026-01-05 13:40:13.24	255.78	19.40	-34.0	-35.2	19.6	0.00e+00	0	55	0	1226833920	40	3941
2026-01-05 13:40:14.25	256.02	19.43	-34.0	-35.2	19.6	0.00e+00	0	56	0	1232076800	40	3923
2026-01-05 13:40:15.26	256.26	19.47	-34.1	-35.3	19.6	0.00e+00	0	55	0	1238368256	39	4200
2026-01-05 13:40:16.27	256.50	19.50	-34.2	-35.3	19.5	0.00e+00	0	55	0	1243611136	39	4232
2026-01-05 13:40:17.28	256.75	19.53	-34.2	-35.3	19.5	0.00e+00	0	55	0	1249902592	39	4233
2026-01-05 13:40:18.29	256.99	19.56	-34.1	-35.3	19.5	0.00e+00	0	56	0	1255145472	39	4227
2026-01-05 13:40:19.30	257.23	19.59	-34.1	-35.2	19.6	0.00e+00	0	55	0	1260388352	39	4180
2026-01-05 13:40:20.31	257.47	19.62	-34.0	-35.2	19.7	0.00e+00	0	55	0	1266679808	39	4160
2026-01-05 13:40:21.32	257.72	19.65	-33.9	-35.0	19.8	0.00e+00	0	56	0	1271922688	39	4087
2026-01-05 13:40:22.33	257.96	19.68	-33.9	-35.0	19.8	0.00e+00	0	56	0	1278214144	39	4082
2026-01-05 13:40:23.34	258.21	19.71	-33.9	-35.1	19.8	0.00e+00	0	55	0	1283457024	39	4116
2026-01-05 13:40:24.35	258.45	19.74	-34.0	-35.1	19.8	0.00e+00	0	55	0	1289748480	39	4131
2026-01-05 13:40:25.36	258.70	19.77	-33.9	-35.1	19.8	0.00e+00	0	56	0	1294991360	39	4121
2026-01-05 13:40:26.37	258.94	19.80	-33.9	-35.1	19.8	0.00e+00	0	56	0	1300234240	39	4104
2026-01-05 13:40:27.38	259.19	19.83	-33.9	-35.0	19.8	0.00e+00	0	56	0	1306525696	39	4095
2026-01-05 13:40:28.39	259.43	19.85	-33.9	-35.0	19.8	0.00e+00	0	56	0	1311768576	39	4077
2026-01-05 13:40:29.40	259.68	19.88	-34.0	-35.1	19.8	0.00e+00	0	56	0	1318060032	39	4128
2026-01-05 13:40:30.41	259.93	19.90	-34.0	-35.2	19.7	0.00e+00	0	56	0	1323302912	39	4161
2026-01-05 13:40:31.42	260.18	19.93	-34.1	-35.3	19.6	0.00e+00	0	55	0	1329594368	39	4211
2026-01-05 13:40:32.43	260.43	19.96	-34.1	-35.3	19.6	0.00e+00	0	56	0	1334837248	39	4196
2026-01-05 13:40:33.44	260.67	19.98	-34.1	-35.3	19.6	0.00e+00	0	56	0	1340080128	39	4218
2026-01-05 13:40:34.45	260.92	20.00	-34.1	-35.2	19.6	0.00e+00	0	56	0	1346371584	39	4189
2026-01-05 13:40:35.46	261.17	20.03	-34.2	-35.3	19.5	0.00e+00	0	56	0	1351614464	39	4240
2026-01-05 13:40:36.47	261.42	20.05	-34.1	-35.3	19.6	0.00e+00	0	55	0	1357905920	39	4216
2026-01-05 13:40:37.49	261.68	20.07	-34.0	-35.2	19.7	0.00e+00	0	56	0	1363148800	39	4172
2026-01-05 13:40:38.49	261.92	20.09	-34.0	-35.2	19.7	0.00e+00	0	56	0	1368391680	39	4180
2026-01-05 13:40:39.50	262.17	20.11	-34.0	-35.1	19.7	0.00e+00	0	56	0	1374683136	39	4137
2026-01-05 13:40:40.52	262.43	20.14	-33.9	-35.1	19.8	0.00e+00	0	56	0	1379926016	39	4118
2026-01-05 13:40:41.53	262.68	20.16	-33.9	-35.0	19.8	0.00e+00	0	56	0	1386217472	39	4096
2026-01-05 13:40:42.54	262.93	20.18	-34.0	-35.1	19.8	0.00e+00	0	56	0	1391460352	39	4136
2026-01-05 13:40:43.55	263.18	20.19	-34.1	-35.3	19.6	0.00e+00	0	56	0	1397751808	39	4195
2026-01-05 13:40:44.56	263.44	20.21	-34.1	-35.3	19.6	0.00e+00	0	56	0	1402994688	39	4208
2026-01-05 13:40:45.57	263.69	20.23	-34.1	-35.2	19.7	0.00e+00	0	56	0	1408237568	39	4180
2026-01-05 13:40:46.57	263.94	20.25	-34.1	-35.2	19.6	0.00e+00	0	56	0	1414529024	39	4185
2026-01-05 13:40:47.58	264.19	20.27	-34.0	-35.2	19.7	0.00e+00	0	56	0	1419771904	39	4169
2026-01-05 13:40:48.59	264.45	20.28	-34.0	-35.2	19.7	0.00e+00	0	56	0	1425014784	39	4169
2026-01-05 13:40:49.60	264.70	20.30	-33.9	-35.1	19.7	0.00e+00	0	55	0	1431306240	39	4127
2026-01-05 13:40:50.61	264.95	20.31	-33.9	-35.1	19.8	0.00e+00	0	56	0	1437597696	39	4101
2026-01-05 13:40:51.62	265.21	20.33	-33.9	-35.1	19.8	0.00e+00	0	56	0	1442840576	39	4101
2026-01-05 13:40:52.63	265.46	20.34	-33.9	-35.1	19.8	0.00e+00	0	56	0	1448083456	39	4115
2026-01-05 13:40:53.64	265.72	20.36	-34.1	-35.2	19.6	0.00e+00	0	56	0	1454374912	39	4192
2026-01-05 13:40:54.65	265.97	20.37	-34.1	-35.3	19.6	0.00e+00	0	56	0	1459617792	39	4198
2026-01-05 13:40:55.66	266.23	20.38	-34.0	-35.2	19.7	0.00e+00	0	56	0	1465909248	39	4189
2026-01-05 13:40:56.67	266.48	20.39	-33.9	-35.1	19.8	0.00e+00	0	56	0	1471152128	39	4099
2026-01-05 13:40:57.68	266.74	20.41	-33.8	-35.0	19.9	0.00e+00	0	56	0	1476395008	39	4056
2026-01-05 13:40:58.69	266.99	20.42	-33.9	-35.0	19.9	0.00e+00	0	56	0	1482686464	39	4075
2026-01-05 13:40:59.70	267.25	20.43	-33.9	-35.0	19.8	0.00e+00	0	56	0	1487929344	39	4092
2026-01-05 13:41:00.71	267.51	20.44	-33.9	-35.1	19.8	0.00e+00	0	56	0	1494220800	39	4105
2026-01-05 13:41:01.72	267.76	20.45	-33.9	-35.1	19.8	0.00e+00	0	56	0	1499463680	39	4126
2026-01-05 13:41:02.73	268.02	20.45	-33.9	-35.0	19.8	0.00e+00	0	56	0	1504706560	39	4096
2026-01-05 13:41:03.74	268.28	20.46	-33.8	-35.0	19.9	0.00e+00	0	56	0	1510998016	39	4061
2026-01-05 13:41:04.75	268.53	20.47	-33.8	-34.9	19.9	0.00e+00	0	56	0	1516240896	39	4051
2026-01-05 13:41:05.76	268.79	20.48	-33.8	-34.9	20.0	0.00e+00	0	55	0	1522532352	39	4037
2026-01-05 13:41:06.77	269.05	20.48	-33.8	-35.0	19.9	0.00e+00	0	56	0	1527775232	39	4074
2026-01-05 13:41:07.78	269.30	20.49	-33.9	-35.1	19.8	0.00e+00	0	56	0	1534066688	39	4105
2026-01-05 13:41:08.79	269.56	20.49	-33.9	-35.1	19.8	0.00e+00	0	56	0	1539309568	39	4101
2026-01-05 13:41:09.80	269.82	20.50	-33.9	-35.0	19.8	0.00e+00	0	56	0	1545601024	39	4090
2026-01-05 13:41:10.81	270.07	20.50	-33.8	-35.0	19.9	0.00e+00	0	56	0	1550843904	39	4062
2026-01-05 13:41:11.82	270.33	20.51	-33.8	-35.0	19.9	0.00e+00	0	56	0	1556086784	39	4070
2026-01-05 13:41:12.83	270.59	20.51	-33.9	-35.0	19.9	0.00e+00	0	56	0	1562378240	39	4086
2026-01-05 13:41:13.84	270.85	20.51	-33.9	-35.1	19.8	0.00e+00	0	56	0	1567621120	39	4125
2026-01-05 13:41:14.84	271.10	20.51	-34.0	-35.1	19.7	0.00e+00	0	56	0	1572864000	39	4145
2026-01-05 13:41:15.85	271.36	20.51	-33.9	-35.1	19.8	0.00e+00	0	56	0	1579155456	39	4124
2026-01-05 13:41:16.86	271.62	20.52	-34.0	-35.1	19.7	0.00e+00	0	56	0	1584398336	39	4134
2026-01-05 13:41:17.87	271.87	20.52	-33.9	-35.1	19.8	0.00e+00	0	56	0	1590689792	39	4106
2026-01-05 13:41:18.88	272.13	20.51	-33.9	-35.0	19.8	0.00e+00	0	56	0	1595932672	39	4088
2026-01-05 13:41:19.89	272.39	20.51	-34.0	-35.1	19.7	0.00e+00	0	56	0	1601175552	39	4138
2026-01-05 13:41:20.90	272.64	20.51	-34.0	-35.2	19.7	0.00e+00	0	56	0	1607467008	39	4164
2026-01-05 13:41:21.91	272.90	20.51	-34.0	-35.2	19.7	0.00e+00	0	56	0	1612709888	39	4155
2026-01-05 13:41:22.93	273.16	20.51	-33.9	-35.1	19.7	0.00e+00	0	56	0	1619001344	39	4119
2026-01-05 13:41:23.93	273.42	20.50	-33.9	-35.1	19.8	0.00e+00	0	56	0	1624244224	39	4108
2026-01-05 13:41:24.95	273.68	20.50	-33.9	-35.0	19.8	0.00e+00	0	56	0	1630535680	39	4085
2026-01-05 13:41:25.96	273.93	20.49	-33.9	-35.0	19.8	0.00e+00	0	56	0	1635778560	39	4097
2026-01-05 13:41:26.97	274.19	20.49	-34.0	-35.2	19.7	0.00e+00	0	56	0	1642070016	39	4152
2026-01-05 13:41:27.97	274.44	20.48	-34.0	-35.1	19.8	0.00e+00	0	56	0	1647312896	39	4132
2026-01-05 13:41:28.98	274.70	20.48	-33.9	-35.1	19.8	0.00e+00	0	56	0	1652555776	39	4099
2026-01-05 13:41:29.99	274.96	20.47	-33.9	-35.1	19.8	0.00e+00	0	56	0	1658847232	39	4113
2026-01-05 13:41:31.00	275.21	20.46	-33.9	-35.0	19.8	0.00e+00	0	56	0	1664090112	39	4097
2026-01-05 13:41:32.01	275.47	20.46	-33.9	-35.1	19.8	0.00e+00	0	56	0	1670381568	39	4118
2026-01-05 13:41:33.02	275.73	20.45	-34.0	-35.1	19.7	0.00e+00	0	56	0	1675624448	39	4144
2026-01-05 13:41:34.03	275.98	20.44	-34.0	-35.2	19.7	0.00e+00	0	56	0	1680867328	39	4155
2026-01-05 13:41:35.04	276.24	20.43	-34.0	-35.1	19.7	0.00e+00	0	56	0	1687158784	39	4136
2026-01-05 13:41:36.05	276.49	20.42	-34.0	-35.2	19.7	0.00e+00	0	56	0	1692401664	39	4150
2026-01-05 13:41:37.06	276.75	20.41	-34.0	-35.2	19.7	0.00e+00	0	56	0	1698693120	39	4159
2026-01-05 13:41:38.07	277.00	20.40	-34.1	-35.3	19.6	0.00e+00	0	56	0	1703936000	39	4214
2026-01-05 13:41:39.08	277.26	20.38	-34.2	-35.4	19.5	0.00e+00	0	56	0	1709178880	39	4261
2026-01-05 13:41:40.09	277.51	20.37	-34.2	-35.4	19.5	0.00e+00	0	56	0	1715470336	39	4258
2026-01-05 13:41:41.10	277.77	20.36	-34.1	-35.3	19.6	0.00e+00	0	56	0	1720713216	39	4224
2026-01-05 13:41:42.11	278.02	20.35	-34.0	-35.2	19.7	0.00e+00	0	56	0	1727004672	39	4160
2026-01-05 13:41:43.12	278.28	20.33	-33.9	-35.1	19.7	0.00e+00	0	56	0	1732247552	39	4124
2026-01-05 13:41:44.13	278.53	20.32	-33.9	-35.0	19.8	0.00e+00	0	56	0	1738539008	39	4082
2026-01-05 13:41:45.13	278.78	20.30	-33.8	-35.0	19.9	0.00e+00	0	56	0	1743781888	39	4053
2026-01-05 13:41:46.14	279.04	20.29	-33.7	-34.9	20.0	0.00e+00	0	56	0	1749024768	39	4008
2026-01-05 13:41:47.15	279.29	20.27	-33.7	-34.8	20.0	0.00e+00	0	56	0	1755316224	39	3979
2026-01-05 13:41:48.17	279.55	20.25	-33.7	-34.8	20.0	0.00e+00	0	56	0	1760559104	39	3978
2026-01-05 13:41:49.18	279.80	20.24	-33.7	-34.9	19.9	0.00e+00	0	56	0	1766850560	39	4018
2026-01-05 13:41:50.19	280.05	20.22	-33.8	-35.0	19.8	0.00e+00	0	56	0	1772093440	39	4066
2026-01-05 13:41:51.20	280.30	20.20	-34.0	-35.2	19.6	0.00e+00	0	56	0	1777336320	39	4169
2026-01-05 13:41:52.21	280.55	20.18	-34.1	-35.3	19.6	0.00e+00	0	56	0	1783627776	39	4208
2026-01-05 13:41:53.21	280.80	20.16	-34.2	-35.4	19.5	0.00e+00	0	56	0	1788870656	39	4263
2026-01-05 13:41:54.22	281.05	20.14	-34.2	-35.4	19.5	0.00e+00	0	56	0	1795162112	39	4249
2026-01-05 13:41:55.23	281.31	20.12	-34.2	-35.4	19.5	0.00e+00	0	56	0	1800404992	39	4245
2026-01-05 13:41:56.24	281.56	20.10	-34.2	-35.4	19.5	0.00e+00	0	56	0	1805647872	39	4258
2026-01-05 13:41:57.25	281.81	20.08	-34.3	-35.5	19.4	0.00e+00	0	56	0	1811939328	39	4305
2026-01-05 13:41:58.26	282.06	20.06	-34.4	-35.6	19.2	0.00e+00	0	56	0	1817182208	39	4369
2026-01-05 13:41:59.27	282.31	20.03	-34.5	-35.7	19.2	0.00e+00	0	56	0	1823473664	39	4416
2026-01-05 13:42:00.28	282.55	20.01	-34.5	-35.7	19.1	0.00e+00	0	56	0	1828716544	39	4417
2026-01-05 13:42:01.29	282.80	19.99	-34.5	-35.7	19.1	0.00e+00	0	56	0	1835008000	39	4436
2026-01-05 13:42:02.30	283.05	19.96	-34.5	-35.7	19.2	0.00e+00	0	56	0	1840250880	39	4411
2026-01-05 13:42:03.31	283.30	19.94	-34.4	-35.6	19.2	0.00e+00	0	56	0	1846542336	39	4387
2026-01-05 13:42:04.32	283.55	19.91	-34.4	-35.6	19.3	0.00e+00	0	56	0	1851785216	39	4351
2026-01-05 13:42:05.33	283.79	19.89	-34.3	-35.5	19.3	0.00e+00	0	56	0	1857028096	39	4333
2026-01-05 13:42:06.34	284.04	19.86	-34.3	-35.5	19.3	0.00e+00	0	56	0	1863319552	39	4312
2026-01-05 13:42:07.35	284.29	19.83	-34.3	-35.5	19.4	0.00e+00	0	56	0	1868562432	39	4304
2026-01-05 13:42:08.36	284.53	19.81	-34.3	-35.5	19.4	0.00e+00	0	56	0	1874853888	39	4301
2026-01-05 13:42:09.37	284.78	19.78	-34.3	-35.5	19.3	0.00e+00	0	56	0	1880096768	39	4312
2026-01-05 13:42:10.38	285.02	19.75	-34.3	-35.6	19.3	0.00e+00	0	56	0	1885339648	39	4341
2026-01-05 13:42:11.39	285.27	19.72	-34.4	-35.6	19.2	0.00e+00	0	56	0	1891631104	39	4384
2026-01-05 13:42:12.40	285.51	19.69	-34.4	-35.6	19.2	0.00e+00	0	56	0	1896873984	39	4389
2026-01-05 13:42:13.41	285.76	19.66	-34.4	-35.6	19.3	0.00e+00	0	56	0	1903165440	39	4364
2026-01-05 13:42:14.42	286.00	19.63	-34.3	-35.6	19.3	0.00e+00	0	56	0	1908408320	39	4344
2026-01-05 13:42:15.43	286.24	19.60	-34.3	-35.5	19.3	0.00e+00	0	56	0	1913651200	39	4320
2026-01-05 13:42:16.44	286.48	19.57	-34.3	-35.5	19.3	0.00e+00	0	56	0	1919942656	39	4314
2026-01-05 13:42:17.44	286.72	19.54	-34.2	-35.4	19.4	0.00e+00	0	56	0	1925185536	39	4262
2026-01-05 13:42:18.45	286.96	19.51	-34.2	-35.4	19.4	0.00e+00	0	56	0	1931476992	39	4258
2026-01-05 13:42:19.46	287.21	19.48	-34.2	-35.4	19.4	0.00e+00	0	56	0	1936719872	39	4265
2026-01-05 13:42:20.47	287.45	19.44	-34.2	-35.4	19.4	0.00e+00	0	56	0	1943011328	39	4283
2026-01-05 13:42:21.49	287.69	19.41	-34.3	-35.5	19.3	0.00e+00	0	56	0	1948254208	39	4315
2026-01-05 13:42:22.50	287.93	19.38	-34.3	-35.5	19.3	0.00e+00	0	56	0	1953497088	39	4325
2026-01-05 13:42:23.50	288.16	19.34	-34.3	-35.5	19.3	0.00e+00	0	56	0	1959788544	39	4316
2026-01-05 13:42:24.52	288.40	19.31	-34.3	-35.5	19.4	0.00e+00	0	56	0	1965031424	39	4299
2026-01-05 13:42:25.53	288.64	19.27	-34.2	-35.4	19.4	0.00e+00	0	56	0	1971322880	39	4285
2026-01-05 13:42:26.54	288.88	19.24	-34.2	-35.4	19.4	0.00e+00	0	56	0	1976565760	39	4259
2026-01-05 13:42:27.55	289.11	19.20	-34.2	-35.4	19.4	0.00e+00	0	56	0	1982857216	39	4256
2026-01-05 13:42:28.56	289.35	19.17	-34.3	-35.5	19.3	0.00e+00	0	56	0	1988100096	39	4301
2026-01-05 13:42:29.57	289.59	19.13	-34.3	-35.5	19.3	0.00e+00	0	56	0	1993342976	39	4336
2026-01-05 13:42:30.58	289.82	19.09	-34.4	-35.6	19.3	0.00e+00	0	56	0	1999634432	39	4359
2026-01-05 13:42:31.59	290.05	19.05	-34.4	-35.6	19.2	0.00e+00	0	56	0	2004877312	39	4379
2026-01-05 13:42:32.60	290.29	19.02	-34.4	-35.7	19.2	0.00e+00	0	56	0	2010120192	39	4393
2026-01-05 13:42:33.61	290.52	18.98	-34.4	-35.6	19.2	0.00e+00	0	56	0	2016411648	39	4387
2026-01-05 13:42:34.61	290.75	18.94	-34.5	-35.7	19.1	0.00e+00	0	56	0	2021654528	39	4424
2026-01-05 13:42:35.62	290.98	18.90	-34.5	-35.8	19.1	0.00e+00	0	56	0	2027945984	39	4448
2026-01-05 13:42:36.63	291.21	18.86	-34.6	-35.8	19.0	0.00e+00	0	56	0	2033188864	39	4486
2026-01-05 13:42:37.64	291.45	18.82	-34.6	-35.9	19.0	0.00e+00	0	56	0	2039480320	39	4497
2026-01-05 13:42:38.65	291.68	18.78	-34.6	-35.9	19.0	0.00e+00	0	56	0	2044723200	39	4498
2026-01-05 13:42:39.66	291.91	18.74	-34.6	-35.8	19.0	0.00e+00	0	56	0	2051014656	39	4466
2026-01-05 13:42:40.67	292.13	18.70	-34.5	-35.8	19.0	0.00e+00	0	56	0	2056257536	39	4447
2026-01-05 13:42:41.68	292.36	18.66	-34.5	-35.8	19.0	0.00e+00	0	56	0	2061500416	39	4446
2026-01-05 13:42:42.69	292.59	18.62	-34.6	-35.9	19.0	0.00e+00	0	56	0	2067791872	39	4494
2026-01-05 13:42:43.70	292.82	18.57	-34.7	-35.9	18.9	0.00e+00	0	56	0	2073034752	39	4526
2026-01-05 13:42:44.71	293.04	18.53	-34.7	-35.9	18.8	0.00e+00	0	56	0	2079326208	40	4270
2026-01-05 13:42:45.72	293.27	18.49	-34.7	-35.9	18.8	0.00e+00	0	56	0	2084569088	40	4291
2026-01-05 13:42:46.73	293.50	18.45	-34.7	-36.0	18.8	0.00e+00	0	56	0	2089811968	40	4292
2026-01-05 13:42:47.74	293.72	18.40	-34.7	-36.0	18.8	0.00e+00	0	56	0	2096103424	40	4296
2026-01-05 13:42:48.75	293.94	18.36	-34.6	-35.9	18.8	0.00e+00	0	56	0	2101346304	40	4272
2026-01-05 13:42:49.76	294.17	18.31	-34.7	-35.9	18.8	0.00e+00	0	56	0	2107637760	40	4283
2026-01-05 13:42:50.77	294.39	18.27	-34.7	-35.9	18.8	0.00e+00	0	56	0	2112880640	40	4291
2026-01-05 13:42:51.78	294.61	18.22	-34.7	-36.0	18.7	0.00e+00	0	56	0	2118123520	40	4322
2026-01-05 13:42:52.79	294.83	18.18	-34.8	-36.1	18.7	0.00e+00	0	56	0	2124414976	40	4352
2026-01-05 13:42:53.80	295.05	18.13	-34.8	-36.1	18.6	0.00e+00	0	56	0	2129657856	40	4370
2026-01-05 13:42:54.81	295.27	18.09	-34.8	-36.1	18.6	0.00e+00	0	56	0	2135949312	40	4385
2026-01-05 13:42:55.82	295.49	18.04	-34.8	-36.1	18.6	0.00e+00	0	56	0	2141192192	40	4380
2026-01-05 13:42:56.83	295.71	17.99	-34.8	-36.1	18.7	0.00e+00	0	56	0	2147483648	40	4348
2026-01-05 13:42:57.84	295.93	17.95	-34.8	-36.1	18.6	0.00e+00	0	56	0	2152726528	40	4343
2026-01-05 13:42:58.85	296.15	17.90	-34.8	-36.0	18.6	0.00e+00	0	56	0	2159017984	40	4333
2026-01-05 13:42:59.86	296.36	17.85	-34.8	-36.1	18.6	0.00e+00	0	56	0	2164260864	40	4358
2026-01-05 13:43:00.87	296.58	17.81	-34.8	-36.1	18.6	0.00e+00	0	56	0	2169503744	40	4345
2026-01-05 13:43:01.88	296.80	17.76	-34.8	-36.1	18.6	0.00e+00	0	56	0	2175795200	40	4343
2026-01-05 13:43:02.89	297.01	17.71	-34.8	-36.1	18.6	0.00e+00	0	56	0	2181038080	40	4361
2026-01-05 13:43:03.90	297.22	17.66	-34.8	-36.1	18.6	0.00e+00	0	56	0	2187329536	40	4383
2026-01-05 13:43:04.91	297.44	17.61	-34.8	-36.1	18.6	0.00e+00	0	56	0	2192572416	40	4380
2026-01-05 13:43:05.92	297.65	17.56	-34.8	-36.1	18.6	0.00e+00	0	56	0	2197815296	40	4368
2026-01-05 13:43:06.93	297.86	17.51	-34.8	-36.1	18.6	0.00e+00	0	56	0	2204106752	40	4350
2026-01-05 13:43:07.94	298.07	17.46	-34.7	-36.0	18.7	0.00e+00	0	56	0	2209349632	40	4318
2026-01-05 13:43:08.95	298.28	17.41	-34.8	-36.0	18.7	0.00e+00	0	56	0	2215641088	40	4325
2026-01-05 13:43:09.96	298.49	17.36	-34.7	-36.0	18.7	0.00e+00	0	56	0	2220883968	40	4308
2026-01-05 13:43:10.97	298.70	17.31	-34.8	-36.1	18.6	0.00e+00	0	56	0	2226126848	40	4355
2026-01-05 13:43:11.98	298.91	17.26	-34.9	-36.1	18.6	0.00e+00	0	56	0	2232418304	40	4379
2026-01-05 13:43:12.99	299.12	17.21	-34.9	-36.2	18.5	0.00e+00	0	56	0	2237661184	40	4414
2026-01-05 13:43:14.00	299.33	17.16	-34.9	-36.2	18.5	0.00e+00	0	56	0	2243952640	40	4419
2026-01-05 13:43:15.01	299.53	17.11	-34.9	-36.2	18.5	0.00e+00	0	56	0	2249195520	40	4431
2026-01-05 13:43:16.02	299.74	17.06	-34.9	-36.2	18.5	0.00e+00	0	56	0	2255486976	40	4410
2026-01-05 13:43:17.04	299.95	17.00	-34.9	-36.1	18.5	0.00e+00	0	56	0	2260729856	40	4388
2026-01-05 13:43:18.05	300.15	16.95	-34.8	-36.1	18.5	0.00e+00	0	57	0	2265972736	40	4383
2026-01-05 13:43:19.06	300.36	16.90	-34.9	-36.1	18.5	0.00e+00	0	56	0	2272264192	40	4389
2026-01-05 13:43:20.07	300.56	16.85	-34.8	-36.1	18.6	0.00e+00	0	56	0	2277507072	40	4369
2026-01-05 13:43:21.08	300.76	16.79	-34.8	-36.0	18.6	0.00e+00	0	56	0	2283798528	40	4336
2026-01-05 13:43:22.09	300.96	16.74	-34.8	-36.0	18.6	0.00e+00	0	56	0	2289041408	40	4335
2026-01-05 13:43:23.10	301.16	16.69	-34.8	-36.0	18.6	0.00e+00	0	56	0	2295332864	40	4339
2026-01-05 13:43:24.11	301.36	16.63	-34.8	-36.1	18.6	0.00e+00	0	56	0	2300575744	40	4357
2026-01-05 13:43:25.12	301.56	16.58	-34.9	-36.2	18.5	0.00e+00	0	56	0	2305818624	40	4401
2026-01-05 13:43:26.13	301.76	16.52	-35.0	-36.4	18.3	0.00e+00	0	56	0	2312110080	40	4494
2026-01-05 13:43:27.14	301.96	16.47	-35.1	-36.5	18.2	0.00e+00	0	56	0	2317352960	40	4561
2026-01-05 13:43:28.15	302.16	16.42	-35.2	-36.5	18.1	0.00e+00	0	56	0	2323644416	41	4340
2026-01-05 13:43:29.16	302.35	16.36	-35.2	-36.6	18.1	0.00e+00	0	56	0	2328887296	41	4350
2026-01-05 13:43:30.17	302.55	16.31	-35.3	-36.7	18.0	0.00e+00	0	56	0	2334130176	41	4393
2026-01-05 13:43:31.18	302.75	16.25	-35.3	-36.6	18.1	0.00e+00	0	57	0	2340421632	41	4373
2026-01-05 13:43:32.19	302.94	16.20	-35.3	-36.6	18.1	0.00e+00	0	56	0	2345664512	41	4375
2026-01-05 13:43:33.20	303.13	16.14	-35.3	-36.6	18.1	0.00e+00	0	56	0	2351955968	41	4371
2026-01-05 13:43:34.21	303.33	16.09	-35.3	-36.6	18.0	0.00e+00	0	57	0	2357198848	41	4385
2026-01-05 13:43:35.22	303.52	16.03	-35.3	-36.6	18.1	0.00e+00	0	57	0	2363490304	41	4378
2026-01-05 13:43:36.23	303.71	15.97	-35.2	-36.5	18.2	0.00e+00	0	57	0	2368733184	41	4305
2026-01-05 13:43:37.23	303.90	15.92	-35.2	-36.5	18.1	0.00e+00	0	56	0	2373976064	41	4340
2026-01-05 13:43:38.24	304.09	15.86	-35.2	-36.5	18.1	0.00e+00	0	56	0	2380267520	41	4336
2026-01-05 13:43:39.25	304.28	15.81	-35.2	-36.5	18.2	0.00e+00	0	56	0	2385510400	41	4314
2026-01-05 13:43:40.26	304.47	15.75	-35.2	-36.5	18.1	0.00e+00	0	56	0	2391801856	41	4335
2026-01-05 13:43:41.27	304.66	15.69	-35.1	-36.5	18.2	0.00e+00	0	56	0	2397044736	41	4295
2026-01-05 13:43:42.28	304.85	15.64	-35.1	-36.5	18.2	0.00e+00	0	56	0	2402287616	41	4299
2026-01-05 13:43:43.29	305.03	15.58	-35.2	-36.5	18.2	0.00e+00	0	57	0	2408579072	41	4309
2026-01-05 13:43:44.30	305.22	15.52	-35.2	-36.5	18.2	0.00e+00	0	57	0	2413821952	41	4307
2026-01-05 13:43:45.32	305.41	15.46	-35.2	-36.5	18.1	0.00e+00	0	56	0	2420113408	41	4325
2026-01-05 13:43:46.33	305.59	15.41	-35.3	-36.6	18.1	0.00e+00	0	56	0	2425356288	41	4365
2026-01-05 13:43:47.34	305.78	15.35	-35.3	-36.7	17.9	0.00e+00	0	56	0	2430599168	41	4417
2026-01-05 13:43:48.35	305.96	15.29	-35.4	-36.7	17.9	0.00e+00	0	56	0	2436890624	41	4422
2026-01-05 13:43:49.36	306.14	15.23	-35.4	-36.8	17.9	0.00e+00	0	56	0	2442133504	41	4452
2026-01-05 13:43:50.37	306.32	15.17	-35.6	-37.0	17.7	0.00e+00	0	56	0	2448424960	41	4546
2026-01-05 13:43:51.38	306.51	15.12	-35.5	-36.9	17.7	0.00e+00	0	56	0	2453667840	41	4531
2026-01-05 13:43:52.39	306.69	15.06	-35.6	-37.0	17.7	0.00e+00	0	56	0	2459959296	41	4550
2026-01-05 13:43:53.40	306.87	15.00	-35.6	-37.0	17.7	0.00e+00	0	56	0	2465202176	41	4556
2026-01-05 13:43:54.41	307.05	14.94	-35.6	-37.0	17.6	0.00e+00	0	56	0	2471493632	41	4573
2026-01-05 13:43:55.42	307.22	14.88	-35.7	-37.1	17.5	0.00e+00	0	56	0	2476736512	41	4617
2026-01-05 13:43:56.43	307.40	14.82	-35.8	-37.2	17.5	0.00e+00	0	56	0	2481979392	42	4396
2026-01-05 13:43:57.44	307.58	14.77	-35.8	-37.2	17.4	0.00e+00	0	56	0	2488270848	42	4418
2026-01-05 13:43:58.45	307.76	14.71	-35.9	-37.3	17.3	0.00e+00	0	56	0	2493513728	42	4483
2026-01-05 13:43:59.46	307.93	14.65	-35.9	-37.4	17.3	0.00e+00	0	56	0	2499805184	42	4510
2026-01-05 13:44:00.47	308.11	14.59	-36.0	-37.5	17.2	0.00e+00	0	56	0	2505048064	42	4548
2026-01-05 13:44:01.48	308.28	14.53	-35.9	-37.4	17.3	0.00e+00	0	56	0	2510290944	42	4512
2026-01-05 13:44:02.49	308.46	14.47	-35.9	-37.3	17.3	0.00e+00	0	57	0	2516582400	42	4478
2026-01-05 13:44:03.50	308.63	14.41	-35.8	-37.3	17.4	0.00e+00	0	56	0	2521825280	42	4445
2026-01-05 13:44:04.51	308.80	14.35	-35.7	-37.1	17.5	0.00e+00	0	56	0	2528116736	42	4362
2026-01-05 13:44:05.52	308.97	14.29	-35.6	-37.0	17.6	0.00e+00	0	56	0	2533359616	42	4293
2026-01-05 13:44:06.53	309.14	14.23	-35.5	-36.9	17.7	0.00e+00	0	56	0	2538602496	42	4263
2026-01-05 13:44:07.54	309.32	14.17	-35.5	-36.8	17.8	0.00e+00	0	56	0	2544893952	42	4227
2026-01-05 13:44:08.55	309.49	14.11	-35.5	-36.8	17.8	0.00e+00	0	56	0	2550136832	42	4238
2026-01-05 13:44:09.56	309.65	14.05	-35.5	-36.8	17.8	0.00e+00	0	56	0	2556428288	42	4235
2026-01-05 13:44:10.57	309.82	13.99	-35.4	-36.8	17.8	0.00e+00	0	56	0	2561671168	42	4222
2026-01-05 13:44:11.58	309.99	13.93	-35.5	-36.9	17.6	0.00e+00	0	56	0	2567962624	42	4288
2026-01-05 13:44:12.59	310.16	13.87	-35.6	-37.0	17.6	0.00e+00	0	56	0	2573205504	42	4305
2026-01-05 13:44:13.60	310.32	13.81	-35.6	-37.0	17.6	0.00e+00	0	56	0	2579496960	42	4335
2026-01-05 13:44:14.61	310.49	13.75	-35.6	-37.0	17.6	0.00e+00	0	56	0	2584739840	42	4324
2026-01-05 13:44:15.61	310.65	13.69	-35.6	-37.0	17.6	0.00e+00	0	56	0	2589982720	42	4308
2026-01-05 13:44:16.62	310.82	13.63	-35.6	-37.0	17.6	0.00e+00	0	56	0	2596274176	42	4293
2026-01-05 13:44:17.63	310.98	13.57	-35.6	-37.0	17.6	0.00e+00	0	56	0	2601517056	42	4306
2026-01-05 13:44:18.64	311.15	13.51	-35.6	-37.0	17.6	0.00e+00	0	56	0	2606759936	42	4310
2026-01-05 13:44:19.65	311.31	13.45	-35.6	-37.0	17.6	0.00e+00	0	56	0	2613051392	42	4313
2026-01-05 13:44:20.67	311.47	13.39	-35.6	-37.0	17.5	0.00e+00	0	56	0	2618294272	42	4329
2026-01-05 13:44:21.68	311.63	13.33	-35.7	-37.1	17.5	0.00e+00	0	56	0	2624585728	42	4358
2026-01-05 13:44:22.69	311.79	13.27	-35.7	-37.1	17.5	0.00e+00	0	56	0	2629828608	42	4362
2026-01-05 13:44:23.70	311.95	13.21	-35.8	-37.2	17.4	0.00e+00	0	57	0	2636120064	42	4414
2026-01-05 13:44:24.71	312.11	13.14	-35.9	-37.3	17.2	0.00e+00	0	56	0	2641362944	42	4478
2026-01-05 13:44:25.72	312.27	13.08	-35.9	-37.4	17.1	0.00e+00	0	57	0	2646605824	42	4521
2026-01-05 13:44:26.73	312.43	13.02	-36.0	-37.5	17.1	0.00e+00	0	56	0	2652897280	42	4551
2026-01-05 13:44:27.74	312.59	12.96	-36.0	-37.5	17.0	0.00e+00	0	57	0	2658140160	42	4588
2026-01-05 13:44:28.75	312.74	12.90	-36.1	-37.5	17.0	0.00e+00	0	57	0	2664431616	42	4597
2026-01-05 13:44:29.76	312.90	12.84	-36.1	-37.6	17.0	0.00e+00	0	57	0	2669674496	42	4607
2026-01-05 13:44:30.77	313.06	12.78	-36.1	-37.6	16.9	0.00e+00	0	56	0	2675965952	42	4637
2026-01-05 13:44:31.77	313.21	12.72	-36.1	-37.6	16.9	0.00e+00	0	57	0	2681208832	42	4638
2026-01-05 13:44:32.78	313.36	12.66	-36.1	-37.6	16.9	0.00e+00	0	56	0	2686451712	42	4625
2026-01-05 13:44:33.79	313.52	12.60	-36.1	-37.6	16.9	0.00e+00	0	56	0	2692743168	42	4646
2026-01-05 13:44:34.80	313.67	12.53	-36.1	-37.6	16.9	0.00e+00	0	57	0	2697986048	42	4635
2026-01-05 13:44:35.81	313.82	12.47	-36.2	-37.7	16.8	0.00e+00	0	57	0	2704277504	42	4664
2026-01-05 13:44:36.82	313.97	12.41	-36.1	-37.6	16.9	0.00e+00	0	56	0	2709520384	42	4650
2026-01-05 13:44:37.83	314.13	12.35	-36.2	-37.7	16.8	0.00e+00	0	56	0	2714763264	42	4670
2026-01-05 13:44:38.85	314.28	12.29	-36.2	-37.7	16.8	0.00e+00	0	56	0	2721054720	42	4674
2026-01-05 13:44:39.86	314.43	12.23	-36.1	-37.6	16.9	0.00e+00	0	56	0	2726297600	42	4642
2026-01-05 13:44:40.87	314.58	12.17	-36.2	-37.7	16.8	0.00e+00	0	56	0	2732589056	42	4678
2026-01-05 13:44:41.88	314.73	12.10	-36.2	-37.7	16.8	0.00e+00	0	57	0	2737831936	42	4664
2026-01-05 13:44:42.89	314.87	12.04	-36.2	-37.7	16.8	0.00e+00	0	56	0	2743074816	42	4681
2026-01-05 13:44:43.90	315.02	11.98	-36.1	-37.6	16.8	0.00e+00	0	56	0	2749366272	42	4633
2026-01-05 13:44:44.91	315.17	11.92	-36.1	-37.6	16.8	0.00e+00	0	56	0	2754609152	42	4644
2026-01-05 13:44:45.92	315.32	11.86	-36.1	-37.7	16.8	0.00e+00	0	56	0	2760900608	42	4653
2026-01-05 13:44:46.93	315.46	11.80	-36.1	-37.6	16.8	0.00e+00	0	57	0	2766143488	42	4627
2026-01-05 13:44:47.94	315.61	11.74	-36.2	-37.7	16.8	0.00e+00	0	56	0	2772434944	42	4658
2026-01-05 13:44:48.95	315.75	11.67	-36.1	-37.6	16.8	0.00e+00	0	56	0	2777677824	42	4650
2026-01-05 13:44:49.96	315.90	11.61	-36.1	-37.7	16.8	0.00e+00	0	57	0	2782920704	42	4659
2026-01-05 13:44:50.97	316.04	11.55	-36.2	-37.7	16.8	0.00e+00	0	56	0	2789212160	42	4667
2026-01-05 13:44:51.98	316.18	11.49	-36.1	-37.6	16.8	0.00e+00	0	56	0	2794455040	42	4633
2026-01-05 13:44:52.99	316.32	11.43	-36.2	-37.7	16.8	0.00e+00	0	57	0	2800746496	42	4675
2026-01-05 13:44:54.00	316.47	11.37	-36.1	-37.6	16.8	0.00e+00	0	56	0	2805989376	42	4649
2026-01-05 13:44:55.01	316.61	11.31	-36.2	-37.7	16.7	0.00e+00	0	57	0	2812280832	42	4696
2026-01-05 13:44:56.02	316.75	11.24	-36.2	-37.7	16.7	0.00e+00	0	56	0	2817523712	43	4414
2026-01-05 13:44:57.03	316.89	11.18	-36.2	-37.8	16.6	0.00e+00	0	56	0	2822766592	43	4453
2026-01-05 13:44:58.04	317.03	11.12	-36.3	-37.8	16.6	0.00e+00	0	56	0	2829058048	43	4485
2026-01-05 13:44:59.05	317.17	11.06	-36.3	-37.8	16.6	0.00e+00	0	57	0	2834300928	43	4478
2026-01-05 13:45:00.06	317.30	11.00	-36.3	-37.9	16.5	0.00e+00	0	56	0	2840592384	43	4496
2026-01-05 13:45:01.07	317.44	10.94	-36.2	-37.8	16.6	0.00e+00	0	57	0	2845835264	43	4446
2026-01-05 13:45:02.08	317.58	10.87	-36.4	-37.9	16.4	0.00e+00	0	56	0	2851078144	43	4534
2026-01-05 13:45:03.09	317.72	10.81	-36.4	-37.9	16.5	0.00e+00	0	56	0	2857369600	43	4522
2026-01-05 13:45:04.10	317.85	10.75	-36.3	-37.8	16.6	0.00e+00	0	57	0	2862612480	43	4481
2026-01-05 13:45:05.11	317.99	10.69	-36.4	-37.9	16.4	0.00e+00	0	56	0	2868903936	43	4537
2026-01-05 13:45:06.12	318.12	10.63	-36.5	-38.1	16.3	0.00e+00	0	56	0	2874146816	43	4608
2026-01-05 13:45:07.13	318.26	10.57	-36.6	-38.2	16.2	0.00e+00	0	56	0	2879389696	43	4654
2026-01-05 13:45:08.14	318.39	10.51	-36.9	-38.6	15.9	0.00e+00	0	56	0	2885681152	44	4616
2026-01-05 13:45:09.15	318.52	10.45	-37.0	-38.7	15.9	0.00e+00	0	56	0	2890924032	44	4668
2026-01-05 13:45:10.16	318.66	10.38	-37.1	-38.8	15.7	0.00e+00	0	56	0	2897215488	44	4729
2026-01-05 13:45:11.17	318.79	10.32	-37.2	-38.9	15.6	0.00e+00	0	56	0	2902458368	44	4787
2026-01-05 13:45:12.18	318.92	10.26	-37.1	-38.8	15.7	0.00e+00	0	56	0	2908749824	45	4458
2026-01-05 13:45:13.19	319.05	10.20	-37.0	-38.7	15.7	0.00e+00	0	56	0	2913992704	45	4440
2026-01-05 13:45:14.20	319.18	10.14	-37.1	-38.8	15.7	0.00e+00	0	56	0	2920284160	45	4455
2026-01-05 13:45:15.21	319.31	10.08	-37.0	-38.7	15.8	0.00e+00	0	57	0	2925527040	45	4419
2026-01-05 13:45:16.22	319.44	10.02	-37.1	-38.8	15.7	0.00e+00	0	56	0	2930769920	45	4449
2026-01-05 13:45:17.23	319.57	9.96	-37.0	-38.7	15.8	0.00e+00	0	56	0	2937061376	45	4396
2026-01-05 13:45:18.24	319.70	9.89	-37.0	-38.6	15.8	0.00e+00	0	56	0	2942304256	45	4372
2026-01-05 13:45:19.25	319.83	9.83	-36.9	-38.6	15.8	0.00e+00	0	57	0	2948595712	45	4373
2026-01-05 13:45:20.26	319.96	9.77	-36.9	-38.6	15.9	0.00e+00	0	56	0	2953838592	45	4346
2026-01-05 13:45:21.27	320.08	9.71	-36.9	-38.5	15.9	0.00e+00	0	57	0	2959081472	45	4333
2026-01-05 13:45:22.28	320.21	9.65	-36.9	-38.6	15.9	0.00e+00	0	56	0	2965372928	45	4346
2026-01-05 13:45:23.29	320.34	9.59	-37.0	-38.7	15.7	0.00e+00	0	56	0	2970615808	45	4411
2026-01-05 13:45:24.30	320.46	9.53	-36.9	-38.6	15.8	0.00e+00	0	56	0	2976907264	45	4363
2026-01-05 13:45:25.31	320.59	9.47	-37.0	-38.7	15.7	0.00e+00	0	57	0	2982150144	45	4429
2026-01-05 13:45:26.32	320.71	9.41	-37.1	-38.8	15.6	0.00e+00	0	56	0	2987393024	45	4447
2026-01-05 13:45:27.33	320.84	9.35	-37.1	-38.9	15.5	0.00e+00	0	56	0	2993684480	45	4503
2026-01-05 13:45:28.34	320.96	9.29	-37.2	-39.0	15.4	0.00e+00	0	56	0	2998927360	45	4564
2026-01-05 13:45:29.35	321.08	9.22	-37.4	-39.2	15.2	0.00e+00	0	56	0	3005218816	45	4676
2026-01-05 13:45:30.36	321.20	9.16	-37.3	-39.1	15.3	0.00e+00	0	57	0	3010461696	45	4621
2026-01-05 13:45:31.37	321.33	9.10	-37.3	-39.1	15.2	0.00e+00	0	56	0	3016753152	45	4640
2026-01-05 13:45:32.38	321.45	9.04	-37.3	-39.1	15.3	0.00e+00	0	56	0	3021996032	45	4608
2026-01-05 13:45:33.39	321.57	8.98	-37.3	-39.1	15.2	0.00e+00	0	56	0	3027238912	45	4637
2026-01-05 13:45:34.39	321.69	8.92	-37.3	-39.0	15.3	0.00e+00	0	56	0	3033530368	45	4590
2026-01-05 13:45:35.40	321.81	8.86	-37.3	-39.1	15.2	0.00e+00	0	57	0	3038773248	45	4650
2026-01-05 13:45:36.41	321.93	8.80	-37.4	-39.2	15.2	0.00e+00	0	57	0	3045064704	45	4656
2026-01-05 13:45:37.42	322.05	8.74	-37.3	-39.1	15.2	0.00e+00	0	56	0	3050307584	45	4641
2026-01-05 13:45:38.43	322.17	8.68	-37.4	-39.2	15.1	0.00e+00	0	57	0	3055550464	45	4679
2026-01-05 13:45:39.44	322.28	8.62	-37.3	-39.1	15.2	0.00e+00	0	57	0	3061841920	45	4632
2026-01-05 13:45:40.45	322.40	8.56	-37.4	-39.2	15.1	0.00e+00	0	57	0	3067084800	45	4658
2026-01-05 13:45:41.46	322.52	8.50	-37.2	-39.0	15.3	0.00e+00	0	57	0	3073376256	45	4564
2026-01-05 13:45:42.47	322.64	8.44	-37.2	-39.0	15.3	0.00e+00	0	56	0	3078619136	45	4546
2026-01-05 13:45:43.48	322.75	8.38	-37.2	-39.0	15.3	0.00e+00	0	57	0	3083862016	45	4560
2026-01-05 13:45:44.49	322.87	8.32	-37.3	-39.1	15.2	0.00e+00	0	57	0	3090153472	45	4610
2026-01-05 13:45:45.50	322.98	8.26	-37.4	-39.2	15.1	0.00e+00	0	56	0	3095396352	45	4676
2026-01-05 13:45:46.51	323.10	8.20	-37.4	-39.2	15.0	0.00e+00	0	56	0	3101687808	45	4702
2026-01-05 13:45:47.52	323.21	8.14	-37.4	-39.3	15.0	0.00e+00	0	56	0	3106930688	45	4706
2026-01-05 13:45:48.53	323.33	8.08	-37.4	-39.2	15.1	0.00e+00	0	57	0	3113222144	45	4654
2026-01-05 13:45:49.54	323.44	8.02	-40.4	-43.0	12.1	0.00e+00	0	56	0	3118465024	50	5435
2026-01-05 13:45:50.55	323.56	7.96	-44.4	-55.9	3.8	8.47e-01	0	57	104	3118465024	59	14233
2026-01-05 13:45:51.56	323.67	7.90	-44.6	-56.2	3.8	8.45e-01	0	57	104	3118465024	59	14752
2026-01-05 13:45:52.57	323.78	7.84	-44.7	-56.5	3.8	8.46e-01	0	56	104	3118465024	60	14445
2026-01-05 13:45:53.58	323.89	7.78	-44.9	-56.7	3.8	8.46e-01	0	56	104	3118465024	60	14773
2026-01-05 13:45:54.59	324.00	7.72	-45.0	-56.8	3.8	8.46e-01	0	57	104	3118465024	60	14917
2026-01-05 13:45:55.61	324.12	7.66	-45.0	-56.8	3.8	8.48e-01	0	57	104	3118465024	60	14996
2026-01-05 13:45:56.62	324.23	7.60	-45.0	-56.9	3.8	8.48e-01	0	56	104	3118465024	60	15115
2026-01-05 13:45:57.63	324.34	7.54	-45.0	-56.9	3.8	8.46e-01	0	56	104	3118465024	60	15144
2026-01-05 13:45:58.64	324.45	7.48	-44.9	-56.8	3.8	8.46e-01	0	57	104	3118465024	60	15038
2026-01-05 13:45:59.65	324.56	7.42	-45.0	-56.9	3.8	8.47e-01	0	57	104	3118465024	60	15150
2026-01-05 13:46:00.66	324.66	7.36	-45.0	-56.9	3.8	8.46e-01	0	57	104	3118465024	60	15093
2026-01-05 13:46:01.67	324.77	7.30	-45.0	-56.8	3.8	8.45e-01	0	56	104	3118465024	60	15000
2026-01-05 13:46:02.68	324.88	7.24	-45.0	-56.8	3.8	8.46e-01	0	57	104	3118465024	60	15018
2026-01-05 13:46:03.69	324.99	7.19	-45.0	-56.8	3.8	8.45e-01	0	57	104	3118465024	60	15041
2026-01-05 13:46:04.70	325.10	7.13	-44.9	-56.8	3.8	8.45e-01	0	56	104	3118465024	60	14993
2026-01-05 13:46:05.71	325.20	7.07	-44.9	-56.8	3.8	8.46e-01	0	57	104	3118465024	60	14948
2026-01-05 13:46:06.72	325.31	7.01	-44.9	-56.8	3.8	8.47e-01	0	56	104	3118465024	60	14965
2026-01-05 13:46:07.73	325.41	6.95	-44.9	-56.8	3.8	8.46e-01	0	57	104	3118465024	60	14989
2026-01-05 13:46:08.74	325.52	6.89	-44.9	-56.8	3.8	8.47e-01	0	56	104	3118465024	60	14950
2026-01-05 13:46:09.75	325.62	6.83	-44.9	-56.8	3.8	8.48e-01	0	57	104	3118465024	60	14922
2026-01-05 13:46:10.76	325.73	6.77	-44.9	-56.8	3.8	8.46e-01	0	57	104	3118465024	60	14910
2026-01-05 13:46:11.77	325.83	6.71	-44.9	-56.8	3.8	8.46e-01	0	57	104	3118465024	60	14899
2026-01-05 13:46:12.78	325.94	6.66	-44.9	-56.7	3.8	8.47e-01	0	57	104	3118465024	60	14877
2026-01-05 13:46:13.79	326.04	6.60	-44.9	-56.8	3.8	8.46e-01	0	56	104	3118465024	60	14901
2026-01-05 13:46:14.81	326.15	6.54	-44.9	-56.8	3.8	8.46e-01	0	57	104	3118465024	60	14936
2026-01-05 13:46:15.82	326.25	6.48	-44.9	-56.8	3.8	8.47e-01	0	57	104	3118465024	60	14944
2026-01-05 13:46:16.83	326.35	6.42	-44.9	-56.7	3.8	8.47e-01	0	57	104	3118465024	60	14869
2026-01-05 13:46:17.84	326.45	6.36	-44.9	-56.8	3.8	8.46e-01	0	57	104	3118465024	60	14883
2026-01-05 13:46:18.85	326.55	6.30	-44.9	-56.8	3.8	8.46e-01	0	56	104	3118465024	60	14929
2026-01-05 13:46:19.86	326.66	6.25	-44.9	-56.8	3.8	8.46e-01	0	57	104	3118465024	60	14937
2026-01-05 13:46:20.87	326.76	6.19	-44.9	-56.8	3.8	8.46e-01	0	57	104	3118465024	60	14908
2026-01-05 13:46:21.88	326.86	6.13	-44.9	-56.7	3.8	8.47e-01	0	56	104	3118465024	60	14868
2026-01-05 13:46:22.89	326.96	6.07	-44.9	-56.8	3.8	8.46e-01	0	57	104	3118465024	60	14885
2026-01-05 13:46:23.90	327.06	6.01	-44.9	-56.8	3.8	8.46e-01	0	57	104	3118465024	60	14908
2026-01-05 13:46:24.91	327.16	5.96	-44.9	-56.7	3.8	8.46e-01	0	56	104	3118465024	60	14846
2026-01-05 13:46:25.92	327.25	5.90	-44.9	-56.8	3.8	8.46e-01	0	57	104	3118465024	60	14924
2026-01-05 13:46:26.94	327.35	5.84	-44.9	-56.8	3.8	8.46e-01	0	57	104	3118465024	60	14957
2026-01-05 13:46:27.95	327.45	5.78	-44.9	-56.8	3.8	8.46e-01	0	57	104	3118465024	60	14890
2026-01-05 13:46:28.96	327.55	5.72	-44.9	-56.8	3.8	8.47e-01	0	57	104	3118465024	60	14934
2026-01-05 13:46:29.97	327.65	5.67	-44.9	-56.8	3.8	8.46e-01	0	57	104	3118465024	60	14926
2026-01-05 13:46:30.98	327.74	5.61	-44.9	-56.8	3.8	8.45e-01	0	57	104	3118465024	60	14907
2026-01-05 13:46:31.99	327.84	5.55	-44.9	-56.8	3.8	8.46e-01	0	57	104	3118465024	60	14902
2026-01-05 13:46:33.00	327.94	5.49	-44.9	-56.8	3.8	8.45e-01	0	57	104	3118465024	60	14914
2026-01-05 13:46:34.01	328.03	5.44	-44.9	-56.8	3.8	8.46e-01	0	57	104	3118465024	60	14881
