passes_logs/2026/01/05/R2.0S_Moscow/R2.0S_Moscow__20260105_223318_NOAA_21_JPSS-2_rec.log

#Pass ID: 20260105_223318_NOAA 21 (JPSS-2)
#Satellite: NOAA 21 (JPSS-2)
#Configuration: NOAA-21
#almurnet v.1.7.20251203
#Start time: 2026-01-05 22:33:18

#Version: 2.2.20231116
#Station: R2.0S_Moscow
#Location: 37.707566 lon 55.798166 lat
#TLE: 1 54234U 22150A   26005.21525222  .00000150  00000+0  91957-4 0  9992
#TLE: 2 54234  98.7490 306.2339 0001053 341.6032  18.5106 14.19532220163427

#Time	Az	El	Level	Level2	SNR	BER	BlckErr	Temp	State	Recorded	gain1	gain2
2026-01-05 22:33:18.80	22.24	2.01	-42.7	-55.5	3.8	1.49e+00	0	47	0	0	57	15340
2026-01-05 22:33:19.80	22.29	2.07	-42.5	-55.3	3.8	1.49e+00	0	47	104	0	55	16860
2026-01-05 22:33:20.82	22.35	2.13	-42.5	-55.3	3.8	1.49e+00	0	47	104	0	55	16836
2026-01-05 22:33:21.83	22.40	2.19	-42.5	-55.3	3.8	1.49e+00	0	47	104	0	55	16847
2026-01-05 22:33:22.83	22.46	2.25	-42.5	-55.3	3.8	1.49e+00	0	47	104	0	55	16845
2026-01-05 22:33:23.85	22.51	2.31	-42.5	-55.3	3.8	1.49e+00	0	47	104	0	55	16842
2026-01-05 22:33:24.86	22.57	2.37	-42.5	-55.3	3.8	1.49e+00	0	47	104	0	55	16770
2026-01-05 22:33:25.87	22.62	2.43	-42.5	-55.3	3.8	1.49e+00	0	48	104	0	55	16796
2026-01-05 22:33:26.88	22.68	2.49	-42.5	-55.3	3.8	1.49e+00	0	48	104	0	55	16860
2026-01-05 22:33:27.89	22.73	2.55	-42.5	-55.3	3.8	1.49e+00	0	48	104	0	55	16783
2026-01-05 22:33:28.90	22.79	2.61	-42.5	-55.3	3.8	1.49e+00	0	48	104	0	55	16797
2026-01-05 22:33:29.91	22.85	2.67	-42.5	-55.3	3.8	1.49e+00	0	48	104	0	55	16853
2026-01-05 22:33:30.92	22.90	2.73	-42.5	-55.3	3.8	1.49e+00	0	48	104	0	55	16794
2026-01-05 22:33:31.93	22.96	2.79	-42.5	-55.3	3.8	1.49e+00	0	48	104	0	55	16756
2026-01-05 22:33:32.94	23.02	2.85	-42.4	-55.3	3.8	1.49e+00	0	49	104	0	55	16812
2026-01-05 22:33:33.95	23.07	2.91	-42.5	-55.3	3.8	1.49e+00	0	48	104	0	55	16808
2026-01-05 22:33:34.96	23.13	2.97	-42.5	-55.3	3.8	1.49e+00	0	48	104	0	55	16785
2026-01-05 22:33:35.98	23.19	3.03	-42.5	-55.3	3.8	1.49e+00	0	49	104	0	55	16792
2026-01-05 22:33:36.99	23.25	3.09	-42.5	-55.3	3.8	1.49e+00	0	49	104	0	55	16791
2026-01-05 22:33:38.00	23.31	3.15	-42.5	-55.3	3.8	1.49e+00	0	49	104	0	55	16837
2026-01-05 22:33:39.01	23.36	3.22	-42.5	-55.3	3.8	1.49e+00	0	49	104	0	55	16854
2026-01-05 22:33:40.02	23.42	3.28	-42.5	-55.3	3.8	1.49e+00	0	49	104	0	55	16811
2026-01-05 22:33:41.03	23.48	3.34	-42.5	-55.3	3.8	1.49e+00	0	49	104	0	55	16773
2026-01-05 22:33:42.04	23.54	3.40	-42.5	-55.3	3.8	1.49e+00	0	49	104	0	55	16784
2026-01-05 22:33:43.05	23.60	3.46	-42.5	-55.3	3.8	1.49e+00	0	49	104	0	55	16768
2026-01-05 22:33:44.06	23.66	3.52	-42.5	-55.3	3.8	1.49e+00	0	49	104	0	55	16785
2026-01-05 22:33:45.07	23.72	3.59	-42.5	-55.3	3.8	1.49e+00	0	49	104	0	55	16814
2026-01-05 22:33:46.08	23.78	3.65	-42.5	-55.3	3.8	1.49e+00	0	49	104	0	55	16780
2026-01-05 22:33:47.10	23.84	3.71	-42.5	-55.3	3.8	1.49e+00	0	49	104	0	55	16751
2026-01-05 22:33:48.11	23.90	3.77	-42.5	-55.3	3.8	1.49e+00	0	49	104	0	55	16850
2026-01-05 22:33:49.12	23.96	3.84	-42.5	-55.3	3.8	1.49e+00	0	49	104	0	55	16788
2026-01-05 22:33:50.13	24.02	3.90	-42.5	-55.3	3.8	1.49e+00	0	50	104	0	55	16802
2026-01-05 22:33:51.14	24.08	3.96	-42.5	-55.3	3.8	1.49e+00	0	50	104	0	55	16737
2026-01-05 22:33:52.15	24.14	4.02	-42.5	-55.3	3.8	1.49e+00	0	50	104	0	55	16800
2026-01-05 22:33:53.16	24.20	4.09	-42.5	-55.3	3.8	1.49e+00	0	50	104	0	55	16834
2026-01-05 22:33:54.18	24.27	4.15	-42.5	-55.3	3.8	1.49e+00	0	50	104	0	55	16777
2026-01-05 22:33:55.19	24.33	4.21	-42.5	-55.3	3.8	1.49e+00	0	50	104	0	55	16798
2026-01-05 22:33:56.20	24.39	4.28	-42.5	-55.3	3.8	1.49e+00	0	50	104	0	55	16764
2026-01-05 22:33:57.21	24.45	4.34	-42.5	-55.3	3.8	1.49e+00	0	50	104	0	55	16813
2026-01-05 22:33:58.22	24.51	4.40	-42.4	-55.3	3.8	1.49e+00	0	50	104	0	55	16731
2026-01-05 22:33:59.23	24.58	4.47	-42.5	-55.3	3.8	1.49e+00	0	50	104	0	55	16810
2026-01-05 22:34:00.24	24.64	4.53	-42.5	-55.3	3.8	1.49e+00	0	50	104	0	55	16814
2026-01-05 22:34:01.25	24.70	4.60	-42.5	-55.3	3.8	1.49e+00	0	50	104	0	55	16796
2026-01-05 22:34:02.26	24.77	4.66	-42.5	-55.3	3.8	1.49e+00	0	50	104	0	55	16829
2026-01-05 22:34:03.27	24.83	4.72	-42.5	-55.3	3.8	1.49e+00	0	50	104	0	55	16788
2026-01-05 22:34:04.28	24.90	4.79	-42.5	-55.3	3.8	1.49e+00	0	50	104	0	55	16794
2026-01-05 22:34:05.30	24.96	4.85	-42.5	-55.3	3.8	1.49e+00	0	50	104	0	55	16796
2026-01-05 22:34:06.31	25.03	4.92	-42.5	-55.3	3.8	1.49e+00	0	50	104	0	55	16761
2026-01-05 22:34:07.32	25.09	4.98	-42.5	-55.3	3.8	1.49e+00	0	50	104	0	55	16785
2026-01-05 22:34:08.33	25.16	5.05	-42.5	-55.3	3.8	1.49e+00	0	50	104	0	55	16841
2026-01-05 22:34:09.34	25.22	5.11	-42.5	-55.3	3.8	1.49e+00	0	51	104	0	55	16750
2026-01-05 22:34:10.35	25.29	5.18	-42.5	-55.3	3.8	1.49e+00	0	50	104	0	55	16772
2026-01-05 22:34:11.36	25.35	5.24	-42.4	-55.3	3.8	1.49e+00	0	50	104	0	55	16801
2026-01-05 22:34:12.37	25.42	5.31	-42.5	-55.3	3.8	1.49e+00	0	51	104	0	55	16834
2026-01-05 22:34:13.38	25.49	5.37	-42.5	-55.3	3.8	1.49e+00	0	51	104	0	55	16799
2026-01-05 22:34:14.40	25.56	5.44	-42.5	-55.3	3.8	1.49e+00	0	51	104	0	55	16801
2026-01-05 22:34:15.41	25.62	5.51	-42.5	-55.3	3.8	1.49e+00	0	51	104	0	55	16764
2026-01-05 22:34:16.42	25.69	5.57	-42.5	-55.3	3.8	1.49e+00	0	51	104	0	55	16768
2026-01-05 22:34:17.43	25.76	5.64	-42.5	-55.3	3.8	1.49e+00	0	51	104	0	55	16729
2026-01-05 22:34:18.44	25.83	5.70	-42.5	-55.3	3.8	1.49e+00	0	51	104	0	55	16767
2026-01-05 22:34:19.45	25.89	5.77	-42.4	-55.3	3.8	1.49e+00	0	51	104	0	55	16761
2026-01-05 22:34:20.46	25.96	5.84	-42.5	-55.3	3.8	1.49e+00	0	51	104	0	55	16700
2026-01-05 22:34:21.47	26.03	5.90	-42.5	-55.3	3.8	1.49e+00	0	51	104	0	55	16775
2026-01-05 22:34:22.48	26.10	5.97	-42.5	-55.3	3.8	1.49e+00	0	51	104	0	55	16728
2026-01-05 22:34:23.49	26.17	6.04	-42.5	-55.3	3.8	1.49e+00	0	51	104	0	55	16706
2026-01-05 22:34:24.50	26.24	6.10	-42.5	-55.3	3.8	1.49e+00	0	51	104	0	55	16722
2026-01-05 22:34:25.51	26.31	6.17	-42.5	-55.3	3.8	1.49e+00	0	51	104	0	55	16710
2026-01-05 22:34:26.53	26.38	6.24	-42.5	-55.3	3.8	1.49e+00	0	51	104	0	55	16754
2026-01-05 22:34:27.54	26.45	6.31	-42.5	-55.3	3.8	1.49e+00	0	51	104	0	55	16775
2026-01-05 22:34:28.55	26.52	6.37	-42.5	-55.3	3.8	1.49e+00	0	52	104	0	55	16783
2026-01-05 22:34:29.56	26.60	6.44	-42.5	-55.2	3.8	1.49e+00	0	51	104	0	55	16656
2026-01-05 22:34:30.57	26.67	6.51	-42.5	-55.2	3.8	1.49e+00	0	52	104	0	55	16564
2026-01-05 22:34:31.58	26.74	6.58	-42.4	-55.3	3.8	1.49e+00	0	52	104	0	55	16769
2026-01-05 22:34:32.59	26.81	6.65	-42.5	-55.2	3.8	1.49e+00	0	52	104	0	55	16614
2026-01-05 22:34:33.60	26.88	6.71	-42.4	-55.2	3.8	1.49e+00	0	52	104	0	55	16689
2026-01-05 22:34:34.61	26.96	6.78	-42.5	-55.2	3.8	1.49e+00	0	52	104	0	55	16619
2026-01-05 22:34:35.63	27.03	6.85	-42.5	-55.2	3.8	1.49e+00	0	52	104	0	55	16513
2026-01-05 22:34:36.64	27.10	6.92	-42.4	-55.1	3.8	1.49e+00	0	52	104	0	55	16399
2026-01-05 22:34:37.65	27.18	6.99	-42.5	-55.0	3.8	1.49e+00	0	52	104	0	55	16187
2026-01-05 22:34:38.66	27.25	7.06	-42.4	-54.7	3.8	1.49e+00	0	52	104	0	55	15654
2026-01-05 22:34:39.67	27.33	7.13	-42.2	-52.4	3.9	1.49e+00	0	52	104	0	55	11980
2026-01-05 22:34:40.68	27.40	7.20	-41.7	-49.3	5.2	6.62e-01	0	52	0	0	55	8395
2026-01-05 22:34:41.69	27.48	7.27	-41.2	-47.3	6.8	2.95e-01	0	52	0	3145728	54	7043
2026-01-05 22:34:42.70	27.55	7.34	-40.8	-45.8	8.2	8.72e-02	0	52	0	6291456	53	6286
2026-01-05 22:34:43.71	27.63	7.41	-40.2	-44.4	9.6	1.98e-02	0	52	0	9437184	52	5678
2026-01-05 22:34:44.72	27.71	7.48	-40.0	-43.9	10.2	6.88e-03	0	52	0	12582912	51	5695
2026-01-05 22:34:45.73	27.78	7.55	-39.7	-43.2	10.9	2.92e-03	0	52	0	15728640	51	5238
2026-01-05 22:34:46.74	27.86	7.62	-39.2	-42.4	11.8	5.89e-04	0	52	0	18874368	50	5048
2026-01-05 22:34:47.75	27.94	7.69	-38.8	-41.6	12.5	1.52e-04	0	52	0	22020096	49	4924
2026-01-05 22:34:48.76	28.01	7.76	-38.7	-41.5	12.8	7.17e-05	0	52	0	26214400	49	4821
2026-01-05 22:34:49.78	28.09	7.83	-38.8	-41.7	12.5	1.15e-04	0	52	0	28311552	49	4929
2026-01-05 22:34:50.79	28.17	7.90	-38.5	-41.3	12.9	5.41e-05	0	52	0	31457280	49	4723
2026-01-05 22:34:51.80	28.25	7.97	-38.6	-41.3	12.9	3.43e-05	0	52	0	34603008	48	5026
2026-01-05 22:34:52.81	28.33	8.04	-39.1	-42.3	11.9	3.49e-04	0	52	0	38797312	48	5600
2026-01-05 22:34:53.82	28.41	8.11	-39.0	-41.8	12.6	8.77e-05	0	52	0	41943040	48	5283
2026-01-05 22:34:54.83	28.49	8.18	-39.9	-43.0	11.5	5.46e-04	0	53	0	45088768	50	5461
2026-01-05 22:34:55.84	28.57	8.26	-40.7	-46.2	7.9	2.45e-04	0	53	0	48234496	51	7385
2026-01-05 22:34:56.85	28.65	8.33	-41.2	-49.4	5.0	1.59e-01	0	52	0	51380224	53	9546
2026-01-05 22:34:57.86	28.73	8.40	-39.8	-42.8	12.1	2.38e-04	0	52	0	52428800	50	5291
2026-01-05 22:34:58.87	28.81	8.47	-39.0	-41.5	13.2	7.01e-05	0	53	0	55574528	50	4569
2026-01-05 22:34:59.88	28.89	8.54	-38.9	-41.4	13.3	1.75e-05	0	53	0	58720256	49	4768
2026-01-05 22:35:00.89	28.98	8.62	-38.6	-41.0	13.7	4.50e-06	0	53	0	61865984	49	4560
2026-01-05 22:35:01.90	29.06	8.69	-38.7	-41.1	13.7	3.00e-06	0	53	0	65011712	49	4617
2026-01-05 22:35:02.91	29.14	8.76	-38.7	-41.0	13.7	9.10e-06	0	53	0	68157440	49	4583
2026-01-05 22:35:03.92	29.22	8.84	-38.6	-40.9	13.9	8.30e-06	0	53	0	71303168	49	4524
2026-01-05 22:35:04.93	29.31	8.91	-38.6	-40.9	13.9	0.00e+00	0	53	0	74448896	49	4529
2026-01-05 22:35:05.94	29.39	8.98	-38.5	-40.7	14.1	0.00e+00	0	53	0	77594624	49	4436
2026-01-05 22:35:06.95	29.48	9.06	-38.8	-41.1	13.7	9.10e-06	0	53	0	80740352	49	4640
2026-01-05 22:35:07.96	29.56	9.13	-38.8	-41.1	13.7	5.30e-06	0	53	0	83886080	49	4645
2026-01-05 22:35:08.97	29.65	9.20	-38.8	-41.1	13.8	1.50e-06	0	53	0	87031808	49	4615
2026-01-05 22:35:09.98	29.73	9.28	-38.8	-41.1	13.9	1.50e-06	0	53	0	90177536	49	4605
2026-01-05 22:35:10.99	29.82	9.35	-38.8	-41.1	13.8	4.50e-06	0	53	0	93323264	49	4638
2026-01-05 22:35:12.00	29.91	9.43	-38.7	-41.0	13.9	3.80e-06	0	53	0	96468992	49	4552
2026-01-05 22:35:13.01	29.99	9.50	-38.7	-41.0	14.0	3.00e-06	0	53	0	99614720	49	4554
2026-01-05 22:35:14.03	30.08	9.57	-38.6	-40.9	14.1	1.50e-06	0	53	0	102760448	49	4510
2026-01-05 22:35:15.04	30.17	9.65	-38.6	-40.7	14.2	1.50e-06	0	53	0	105906176	49	4440
2026-01-05 22:35:16.05	30.26	9.72	-38.6	-40.8	14.2	7.00e-07	0	53	0	109051904	49	4451
2026-01-05 22:35:17.06	30.35	9.80	-38.5	-40.7	14.4	7.00e-07	0	53	0	112197632	49	4395
2026-01-05 22:35:18.07	30.43	9.88	-38.5	-40.7	14.3	7.00e-07	0	53	0	115343360	48	4672
2026-01-05 22:35:19.08	30.52	9.95	-38.5	-40.7	14.4	7.00e-07	0	53	0	118489088	48	4654
2026-01-05 22:35:20.09	30.61	10.03	-38.5	-40.6	14.5	0.00e+00	0	53	0	121634816	48	4612
2026-01-05 22:35:21.10	30.70	10.10	-38.6	-40.8	14.3	7.00e-07	0	53	0	124780544	48	4707
2026-01-05 22:35:22.11	30.80	10.18	-38.5	-40.5	14.6	0.00e+00	0	53	0	127926272	48	4594
2026-01-05 22:35:23.12	30.89	10.25	-38.5	-40.6	14.5	0.00e+00	0	53	0	131072000	48	4609
2026-01-05 22:35:24.13	30.98	10.33	-38.5	-40.6	14.5	0.00e+00	0	53	0	134217728	48	4636
2026-01-05 22:35:25.14	31.07	10.41	-38.4	-40.4	14.7	7.00e-07	0	53	0	137363456	48	4529
2026-01-05 22:35:26.15	31.16	10.48	-38.5	-40.6	14.6	7.00e-07	0	53	0	140509184	48	4621
2026-01-05 22:35:27.16	31.26	10.56	-38.4	-40.4	14.8	0.00e+00	0	53	0	143654912	48	4543
2026-01-05 22:35:28.17	31.35	10.64	-38.3	-40.3	14.9	0.00e+00	0	53	0	146800640	48	4460
2026-01-05 22:35:29.18	31.44	10.71	-38.4	-40.4	14.9	7.00e-07	0	54	0	149946368	48	4498
2026-01-05 22:35:30.19	31.54	10.79	-38.3	-40.3	14.9	0.00e+00	0	54	0	153092096	48	4457
2026-01-05 22:35:31.20	31.63	10.87	-38.3	-40.2	15.0	0.00e+00	0	54	0	156237824	48	4441
2026-01-05 22:35:32.21	31.73	10.95	-38.3	-40.2	15.1	0.00e+00	0	54	0	159383552	48	4409
2026-01-05 22:35:33.22	31.82	11.03	-38.1	-40.1	15.2	0.00e+00	0	54	0	162529280	48	4351
2026-01-05 22:35:34.23	31.92	11.10	-38.1	-40.0	15.3	0.00e+00	0	54	0	165675008	48	4335
2026-01-05 22:35:35.24	32.02	11.18	-38.1	-40.0	15.3	7.00e-07	0	54	0	168820736	48	4319
2026-01-05 22:35:36.24	32.11	11.26	-38.2	-40.1	15.2	0.00e+00	0	54	0	171966464	48	4380
2026-01-05 22:35:37.25	32.21	11.34	-38.1	-40.0	15.4	0.00e+00	0	54	0	175112192	48	4300
2026-01-05 22:35:38.26	32.31	11.42	-38.1	-39.9	15.4	0.00e+00	0	54	0	178257920	48	4286
2026-01-05 22:35:39.27	32.41	11.50	-38.1	-39.9	15.4	0.00e+00	0	54	0	181403648	48	4279
2026-01-05 22:35:40.28	32.51	11.58	-38.0	-39.8	15.6	0.00e+00	0	54	0	184549376	48	4236
2026-01-05 22:35:41.29	32.61	11.65	-37.9	-39.8	15.5	0.00e+00	0	54	0	187695104	47	4477
2026-01-05 22:35:42.30	32.71	11.73	-38.0	-39.8	15.5	0.00e+00	0	54	0	190840832	47	4490
2026-01-05 22:35:43.31	32.81	11.81	-37.7	-39.5	15.8	0.00e+00	0	54	0	193986560	47	4307
2026-01-05 22:35:44.32	32.91	11.89	-37.8	-39.6	15.7	0.00e+00	0	54	0	197132288	47	4383
2026-01-05 22:35:45.33	33.01	11.97	-38.0	-39.8	15.5	0.00e+00	0	54	0	200278016	47	4474
2026-01-05 22:35:46.34	33.12	12.05	-37.8	-39.7	15.7	0.00e+00	0	54	0	203423744	47	4398
2026-01-05 22:35:47.35	33.22	12.14	-37.8	-39.6	15.7	0.00e+00	0	54	0	206569472	47	4371
2026-01-05 22:35:48.36	33.32	12.22	-37.8	-39.6	15.8	0.00e+00	0	54	0	209715200	47	4362
2026-01-05 22:35:49.37	33.43	12.30	-37.8	-39.6	15.8	0.00e+00	0	54	0	212860928	47	4350
2026-01-05 22:35:50.38	33.53	12.38	-37.9	-39.7	15.7	0.00e+00	0	54	0	216006656	47	4400
2026-01-05 22:35:51.40	33.64	12.46	-37.8	-39.6	15.8	0.00e+00	0	54	0	219152384	47	4374
2026-01-05 22:35:52.40	33.74	12.54	-37.9	-39.7	15.7	7.00e-07	0	54	0	222298112	47	4393
2026-01-05 22:35:53.41	33.85	12.62	-37.9	-39.7	15.7	0.00e+00	0	54	0	225443840	47	4430
2026-01-05 22:35:54.42	33.96	12.70	-37.9	-39.7	15.7	0.00e+00	0	54	0	228589568	47	4412
2026-01-05 22:35:55.43	34.07	12.79	-37.9	-39.7	15.7	0.00e+00	0	54	0	231735296	47	4419
2026-01-05 22:35:56.44	34.17	12.87	-37.9	-39.7	15.7	0.00e+00	0	54	0	234881024	47	4426
2026-01-05 22:35:57.45	34.28	12.95	-37.9	-39.7	15.7	0.00e+00	0	54	0	238026752	47	4409
2026-01-05 22:35:58.46	34.39	13.03	-37.8	-39.6	15.8	0.00e+00	0	54	0	241172480	47	4368
2026-01-05 22:35:59.47	34.50	13.12	-37.8	-39.6	15.8	0.00e+00	0	54	0	244318208	47	4385
2026-01-05 22:36:00.48	34.61	13.20	-37.8	-39.6	15.8	0.00e+00	0	54	0	247463936	47	4354
2026-01-05 22:36:01.49	34.72	13.28	-37.5	-39.2	16.3	0.00e+00	0	54	0	250609664	47	4150
2026-01-05 22:36:02.51	34.84	13.37	-37.9	-39.7	15.7	0.00e+00	0	54	0	253755392	46	4695
2026-01-05 22:36:03.52	34.95	13.45	-38.0	-39.8	15.7	0.00e+00	0	54	0	256901120	46	4712
2026-01-05 22:36:04.53	35.06	13.53	-37.9	-39.6	15.8	0.00e+00	0	54	0	260046848	46	4651
2026-01-05 22:36:05.54	35.17	13.62	-37.7	-39.5	16.0	0.00e+00	0	54	0	263192576	46	4567
2026-01-05 22:36:06.55	35.29	13.70	-37.9	-39.7	15.8	0.00e+00	0	54	0	266338304	46	4673
2026-01-05 22:36:07.56	35.40	13.79	-37.8	-39.5	15.9	0.00e+00	0	54	0	269484032	46	4598
2026-01-05 22:36:08.57	35.52	13.87	-37.8	-39.6	15.9	0.00e+00	0	54	0	272629760	46	4616
2026-01-05 22:36:09.58	35.64	13.95	-37.9	-39.7	15.7	0.00e+00	0	54	0	275775488	46	4701
2026-01-05 22:36:10.59	35.75	14.04	-37.9	-39.7	15.8	0.00e+00	0	54	0	278921216	46	4669
2026-01-05 22:36:11.60	35.87	14.12	-37.9	-39.7	15.8	0.00e+00	0	55	0	282066944	46	4668
2026-01-05 22:36:12.61	35.99	14.21	-38.0	-39.8	15.7	0.00e+00	0	54	0	285212672	46	4708
2026-01-05 22:36:13.62	36.11	14.30	-37.8	-39.6	15.9	0.00e+00	0	54	0	288358400	46	4629
2026-01-05 22:36:14.63	36.23	14.38	-37.8	-39.5	15.9	0.00e+00	0	54	0	291504128	46	4580
2026-01-05 22:36:15.64	36.35	14.47	-37.8	-39.5	16.0	0.00e+00	0	54	0	294649856	46	4583
2026-01-05 22:36:16.65	36.47	14.55	-37.9	-39.6	15.9	0.00e+00	0	55	0	297795584	46	4634
2026-01-05 22:36:17.66	36.59	14.64	-37.8	-39.6	15.9	0.00e+00	0	55	0	300941312	46	4605
2026-01-05 22:36:18.67	36.71	14.73	-37.8	-39.6	15.9	0.00e+00	0	54	0	304087040	46	4622
2026-01-05 22:36:19.68	36.83	14.81	-37.8	-39.6	15.9	0.00e+00	0	55	0	307232768	46	4626
2026-01-05 22:36:20.69	36.95	14.90	-37.9	-39.6	15.9	0.00e+00	0	54	0	310378496	46	4629
2026-01-05 22:36:21.70	37.08	14.99	-37.8	-39.6	15.9	0.00e+00	0	54	0	313524224	46	4618
2026-01-05 22:36:22.72	37.21	15.07	-37.9	-39.6	15.9	0.00e+00	0	55	0	317718528	46	4631
2026-01-05 22:36:23.73	37.33	15.16	-38.0	-39.7	15.8	0.00e+00	0	55	0	320864256	46	4703
2026-01-05 22:36:24.73	37.46	15.25	-37.9	-39.7	15.8	0.00e+00	0	54	0	324009984	46	4694
2026-01-05 22:36:25.75	37.58	15.34	-38.0	-39.8	15.8	0.00e+00	0	55	0	326107136	46	4725
2026-01-05 22:36:26.76	37.71	15.42	-38.0	-39.7	15.8	0.00e+00	0	55	0	330301440	46	4699
2026-01-05 22:36:27.77	37.84	15.51	-37.9	-39.7	15.9	0.00e+00	0	55	0	333447168	46	4682
2026-01-05 22:36:28.78	37.97	15.60	-38.0	-39.7	15.8	0.00e+00	0	55	0	336592896	46	4703
2026-01-05 22:36:29.78	38.10	15.69	-38.0	-39.7	15.8	0.00e+00	0	55	0	339738624	46	4703
2026-01-05 22:36:30.79	38.23	15.78	-38.0	-39.8	15.8	0.00e+00	0	55	0	342884352	46	4717
2026-01-05 22:36:31.81	38.36	15.87	-37.9	-39.7	15.9	0.00e+00	0	55	0	346030080	46	4681
2026-01-05 22:36:32.81	38.49	15.95	-38.0	-39.8	15.8	0.00e+00	0	55	0	349175808	46	4711
2026-01-05 22:36:33.82	38.62	16.04	-38.0	-39.8	15.8	0.00e+00	0	55	0	352321536	46	4753
2026-01-05 22:36:34.83	38.76	16.13	-38.0	-39.8	15.8	0.00e+00	0	55	0	355467264	46	4757
2026-01-05 22:36:35.84	38.89	16.22	-38.2	-40.0	15.6	0.00e+00	0	55	0	358612992	46	4843
2026-01-05 22:36:36.85	39.03	16.31	-38.1	-39.9	15.7	0.00e+00	0	55	0	361758720	46	4776
2026-01-05 22:36:37.86	39.16	16.40	-38.1	-40.0	15.7	0.00e+00	0	55	0	364904448	46	4820
2026-01-05 22:36:38.87	39.30	16.49	-38.1	-40.0	15.7	0.00e+00	0	55	0	368050176	46	4837
2026-01-05 22:36:39.88	39.44	16.58	-38.1	-40.0	15.7	0.00e+00	0	55	0	371195904	46	4826
2026-01-05 22:36:40.89	39.58	16.67	-38.1	-39.9	15.8	0.00e+00	0	55	0	374341632	46	4770
2026-01-05 22:36:41.90	39.71	16.76	-38.1	-40.0	15.7	0.00e+00	0	55	0	377487360	46	4831
2026-01-05 22:36:42.91	39.85	16.86	-38.1	-39.9	15.8	0.00e+00	0	55	0	380633088	46	4770
2026-01-05 22:36:43.92	40.00	16.95	-38.0	-39.8	15.8	0.00e+00	0	55	0	383778816	46	4748
2026-01-05 22:36:44.93	40.14	17.04	-38.0	-39.8	15.9	0.00e+00	0	55	0	386924544	46	4730
2026-01-05 22:36:45.94	40.28	17.13	-38.0	-39.7	16.0	0.00e+00	0	55	0	390070272	46	4683
2026-01-05 22:36:46.95	40.42	17.22	-38.0	-39.7	15.9	0.00e+00	0	55	0	393216000	46	4693
2026-01-05 22:36:47.96	40.57	17.31	-37.9	-39.6	16.1	0.00e+00	0	55	0	396361728	46	4622
2026-01-05 22:36:48.97	40.71	17.40	-37.8	-39.5	16.2	0.00e+00	0	55	0	399507456	46	4573
2026-01-05 22:36:49.98	40.86	17.50	-37.8	-39.6	16.1	0.00e+00	0	55	0	402653184	46	4599
2026-01-05 22:36:50.99	41.00	17.59	-37.8	-39.5	16.2	0.00e+00	0	55	0	405798912	46	4546
2026-01-05 22:36:52.00	41.15	17.68	-37.7	-39.4	16.3	0.00e+00	0	55	0	408944640	46	4502
2026-01-05 22:36:53.01	41.30	17.77	-37.7	-39.4	16.3	0.00e+00	0	55	0	412090368	46	4528
2026-01-05 22:36:54.02	41.45	17.87	-37.8	-39.5	16.2	0.00e+00	0	55	0	415236096	46	4552
2026-01-05 22:36:55.03	41.60	17.96	-37.7	-39.3	16.4	0.00e+00	0	55	0	418381824	46	4487
2026-01-05 22:36:56.04	41.75	18.05	-37.7	-39.4	16.4	0.00e+00	0	55	0	421527552	46	4501
2026-01-05 22:36:57.05	41.90	18.15	-37.6	-39.2	16.5	0.00e+00	0	55	0	424673280	46	4412
2026-01-05 22:36:58.05	42.05	18.24	-37.5	-39.1	16.6	0.00e+00	0	55	0	427819008	46	4348
2026-01-05 22:36:59.06	42.21	18.33	-37.4	-39.1	16.6	0.00e+00	0	55	0	430964736	46	4346
2026-01-05 22:37:00.08	42.36	18.43	-37.4	-39.0	16.7	0.00e+00	0	55	0	434110464	46	4309
2026-01-05 22:37:01.09	42.52	18.52	-37.3	-38.9	16.8	0.00e+00	0	55	0	437256192	46	4265
2026-01-05 22:37:02.09	42.67	18.61	-37.3	-38.8	16.9	0.00e+00	0	55	0	440401920	46	4236
2026-01-05 22:37:03.10	42.83	18.71	-37.3	-38.8	16.9	0.00e+00	0	55	0	443547648	46	4218
2026-01-05 22:37:04.12	42.99	18.80	-37.2	-38.8	16.9	0.00e+00	0	55	0	446693376	46	4216
2026-01-05 22:37:05.13	43.15	18.90	-37.3	-38.9	16.8	0.00e+00	0	55	0	449839104	46	4260
2026-01-05 22:37:06.14	43.31	18.99	-37.3	-38.9	16.8	0.00e+00	0	55	0	452984832	46	4265
2026-01-05 22:37:07.15	43.47	19.09	-37.3	-38.9	16.8	0.00e+00	0	55	0	456130560	46	4291
2026-01-05 22:37:08.16	43.64	19.18	-37.4	-39.0	16.8	0.00e+00	0	55	0	459276288	46	4292
2026-01-05 22:37:09.17	43.80	19.28	-37.4	-39.0	16.7	0.00e+00	0	55	0	462422016	46	4330
2026-01-05 22:37:10.18	43.96	19.37	-37.5	-39.1	16.6	0.00e+00	0	55	0	465567744	46	4367
2026-01-05 22:37:11.19	44.13	19.47	-37.5	-39.1	16.6	0.00e+00	0	55	0	468713472	46	4387
2026-01-05 22:37:12.20	44.30	19.57	-37.4	-39.0	16.7	0.00e+00	0	55	0	471859200	46	4323
2026-01-05 22:37:13.20	44.46	19.66	-37.4	-39.0	16.7	0.00e+00	0	55	0	475004928	46	4335
2026-01-05 22:37:14.21	44.63	19.76	-37.5	-39.1	16.7	0.00e+00	0	55	0	478150656	46	4371
2026-01-05 22:37:15.22	44.80	19.85	-37.4	-39.0	16.7	0.00e+00	0	55	0	481296384	46	4329
2026-01-05 22:37:16.23	44.97	19.95	-37.4	-39.0	16.8	0.00e+00	0	55	0	484442112	46	4302
2026-01-05 22:37:17.24	45.14	20.04	-37.4	-38.9	16.8	0.00e+00	0	55	0	487587840	46	4291
2026-01-05 22:37:18.25	45.31	20.14	-37.3	-38.9	16.9	0.00e+00	0	55	0	490733568	46	4251
2026-01-05 22:37:19.26	45.49	20.24	-37.3	-38.9	16.9	0.00e+00	0	55	0	493879296	46	4253
2026-01-05 22:37:20.27	45.66	20.33	-37.3	-38.8	16.9	0.00e+00	0	55	0	497025024	46	4227
2026-01-05 22:37:21.28	45.84	20.43	-37.3	-38.9	16.9	0.00e+00	0	55	0	500170752	46	4263
2026-01-05 22:37:22.29	46.01	20.53	-37.3	-38.9	16.9	0.00e+00	0	55	0	503316480	46	4244
2026-01-05 22:37:23.30	46.19	20.62	-37.2	-38.8	17.0	0.00e+00	0	55	0	506462208	46	4208
2026-01-05 22:37:24.31	46.37	20.72	-37.2	-38.7	17.1	0.00e+00	0	55	0	509607936	46	4176
2026-01-05 22:37:25.32	46.55	20.82	-37.1	-38.7	17.1	0.00e+00	0	56	0	512753664	46	4159
2026-01-05 22:37:26.33	46.73	20.92	-37.1	-38.6	17.1	0.00e+00	0	55	0	515899392	46	4137
2026-01-05 22:37:27.34	46.92	21.01	-37.0	-38.5	17.2	0.00e+00	0	55	0	519045120	46	4089
2026-01-05 22:37:28.35	47.10	21.11	-36.9	-38.3	17.4	0.00e+00	0	55	0	522190848	45	4241
2026-01-05 22:37:29.36	47.28	21.21	-36.8	-38.3	17.5	0.00e+00	0	55	0	525336576	45	4207
2026-01-05 22:37:30.37	47.47	21.31	-36.8	-38.3	17.5	0.00e+00	0	55	0	528482304	45	4198
2026-01-05 22:37:31.38	47.66	21.40	-36.8	-38.3	17.4	0.00e+00	0	56	0	531628032	45	4221
2026-01-05 22:37:32.39	47.84	21.50	-36.8	-38.3	17.4	0.00e+00	0	56	0	534773760	45	4223
2026-01-05 22:37:33.40	48.03	21.60	-36.8	-38.3	17.5	0.00e+00	0	55	0	537919488	45	4202
2026-01-05 22:37:34.41	48.22	21.70	-37.0	-38.4	17.3	0.00e+00	0	55	0	541065216	45	4285
2026-01-05 22:37:35.42	48.42	21.80	-37.0	-38.5	17.3	0.00e+00	0	56	0	544210944	45	4334
2026-01-05 22:37:36.43	48.61	21.89	-37.1	-38.6	17.2	0.00e+00	0	55	0	547356672	45	4366
2026-01-05 22:37:37.44	48.80	21.99	-37.0	-38.5	17.3	0.00e+00	0	55	0	550502400	45	4294
2026-01-05 22:37:38.45	49.00	22.09	-37.0	-38.5	17.3	0.00e+00	0	55	0	553648128	45	4296
2026-01-05 22:37:39.46	49.19	22.19	-36.9	-38.4	17.3	0.00e+00	0	56	0	556793856	45	4282
2026-01-05 22:37:40.47	49.39	22.29	-37.0	-38.5	17.3	0.00e+00	0	56	0	559939584	45	4311
2026-01-05 22:37:41.48	49.59	22.38	-36.9	-38.4	17.3	0.00e+00	0	55	0	563085312	45	4281
2026-01-05 22:37:42.49	49.79	22.48	-36.9	-38.4	17.4	0.00e+00	0	55	0	566231040	45	4262
2026-01-05 22:37:43.50	49.99	22.58	-36.9	-38.4	17.4	0.00e+00	0	56	0	569376768	45	4254
2026-01-05 22:37:44.51	50.19	22.68	-36.9	-38.4	17.4	0.00e+00	0	56	0	572522496	45	4256
2026-01-05 22:37:45.53	50.40	22.78	-36.9	-38.3	17.5	0.00e+00	0	56	0	575668224	45	4239
2026-01-05 22:37:46.54	50.61	22.88	-36.9	-38.3	17.4	0.00e+00	0	56	0	578813952	45	4241
2026-01-05 22:37:47.55	50.81	22.98	-36.8	-38.3	17.5	0.00e+00	0	56	0	581959680	45	4210
2026-01-05 22:37:48.55	51.02	23.07	-36.8	-38.2	17.6	0.00e+00	0	56	0	585105408	45	4185
2026-01-05 22:37:49.57	51.23	23.17	-36.8	-38.3	17.5	0.00e+00	0	56	0	588251136	45	4220
2026-01-05 22:37:50.58	51.44	23.27	-36.8	-38.3	17.5	0.00e+00	0	56	0	591396864	45	4221
2026-01-05 22:37:51.59	51.65	23.37	-36.9	-38.4	17.4	0.00e+00	0	56	0	594542592	45	4248
2026-01-05 22:37:52.59	51.86	23.47	-36.9	-38.4	17.4	0.00e+00	0	56	0	597688320	45	4268
2026-01-05 22:37:53.61	52.08	23.57	-36.9	-38.4	17.4	0.00e+00	0	55	0	600834048	45	4264
2026-01-05 22:37:54.62	52.29	23.66	-37.0	-38.5	17.3	0.00e+00	0	55	0	603979776	45	4310
2026-01-05 22:37:55.63	52.51	23.76	-37.0	-38.5	17.3	0.00e+00	0	56	0	607125504	45	4316
2026-01-05 22:37:56.64	52.73	23.86	-37.1	-38.6	17.2	0.00e+00	0	56	0	610271232	45	4369
2026-01-05 22:37:57.65	52.95	23.96	-37.0	-38.5	17.3	0.00e+00	0	55	0	614465536	45	4326
2026-01-05 22:37:58.66	53.17	24.06	-37.0	-38.5	17.3	0.00e+00	0	56	0	617611264	45	4335
2026-01-05 22:37:59.67	53.39	24.16	-37.2	-38.8	17.1	0.00e+00	0	55	0	619708416	45	4445
2026-01-05 22:38:00.68	53.61	24.25	-37.3	-38.9	17.0	0.00e+00	0	56	0	622854144	45	4499
2026-01-05 22:38:01.69	53.84	24.35	-37.2	-38.8	17.1	0.00e+00	0	56	0	625999872	45	4443
2026-01-05 22:38:02.70	54.07	24.45	-37.2	-38.7	17.1	0.00e+00	0	56	0	630194176	45	4436
2026-01-05 22:38:03.71	54.29	24.55	-37.2	-38.8	17.1	0.00e+00	0	56	0	633339904	45	4451
2026-01-05 22:38:04.72	54.52	24.64	-37.2	-38.7	17.1	0.00e+00	0	56	0	636485632	45	4421
2026-01-05 22:38:05.73	54.75	24.74	-37.1	-38.6	17.3	0.00e+00	0	56	0	639631360	45	4351
2026-01-05 22:38:06.74	54.98	24.84	-37.1	-38.6	17.2	0.00e+00	0	56	0	641728512	45	4361
2026-01-05 22:38:07.75	55.22	24.94	-37.0	-38.5	17.3	0.00e+00	0	56	0	645922816	45	4310
2026-01-05 22:38:08.76	55.45	25.03	-37.0	-38.5	17.3	0.00e+00	0	56	0	649068544	45	4301
2026-01-05 22:38:09.77	55.69	25.13	-37.0	-38.5	17.3	0.00e+00	0	56	0	652214272	45	4331
2026-01-05 22:38:10.78	55.93	25.23	-37.0	-38.5	17.3	0.00e+00	0	56	0	655360000	45	4326
2026-01-05 22:38:11.79	56.17	25.32	-37.1	-38.6	17.3	0.00e+00	0	56	0	658505728	45	4343
2026-01-05 22:38:12.80	56.41	25.42	-37.0	-38.5	17.3	0.00e+00	0	56	0	661651456	45	4330
2026-01-05 22:38:13.81	56.65	25.52	-37.2	-38.7	17.1	0.00e+00	0	56	0	664797184	45	4407
2026-01-05 22:38:14.82	56.89	25.61	-37.2	-38.7	17.1	0.00e+00	0	56	0	667942912	45	4434
2026-01-05 22:38:15.83	57.14	25.71	-37.3	-38.8	17.1	0.00e+00	0	56	0	671088640	45	4476
2026-01-05 22:38:16.83	57.38	25.80	-37.3	-38.9	17.0	0.00e+00	0	56	0	674234368	45	4507
2026-01-05 22:38:17.84	57.63	25.90	-37.3	-38.9	17.0	0.00e+00	0	56	0	677380096	45	4498
2026-01-05 22:38:18.85	57.88	25.99	-37.3	-38.9	17.0	0.00e+00	0	56	0	680525824	45	4507
2026-01-05 22:38:19.86	58.13	26.09	-37.2	-38.8	17.1	0.00e+00	0	56	0	683671552	45	4448
2026-01-05 22:38:20.87	58.38	26.18	-37.2	-38.7	17.2	0.00e+00	0	56	0	686817280	45	4414
2026-01-05 22:38:21.88	58.63	26.28	-37.0	-38.6	17.3	0.00e+00	0	56	0	689963008	45	4349
2026-01-05 22:38:22.89	58.89	26.37	-37.0	-38.5	17.4	0.00e+00	0	56	0	693108736	45	4321
2026-01-05 22:38:23.90	59.14	26.47	-37.1	-38.6	17.3	0.00e+00	0	56	0	696254464	45	4353
2026-01-05 22:38:24.91	59.40	26.56	-37.1	-38.7	17.2	0.00e+00	0	56	0	699400192	45	4394
2026-01-05 22:38:25.92	59.66	26.66	-37.3	-38.8	17.1	0.00e+00	0	56	0	702545920	45	4474
2026-01-05 22:38:26.93	59.92	26.75	-37.3	-38.9	17.0	0.00e+00	0	56	0	705691648	45	4525
2026-01-05 22:38:27.94	60.19	26.84	-37.3	-38.9	17.0	0.00e+00	0	56	0	708837376	45	4508
2026-01-05 22:38:28.95	60.45	26.93	-37.3	-38.9	17.0	0.00e+00	0	56	0	711983104	45	4519
2026-01-05 22:38:29.96	60.72	27.03	-37.3	-38.8	17.1	0.00e+00	0	56	0	715128832	45	4488
2026-01-05 22:38:30.97	60.98	27.12	-37.3	-38.8	17.1	0.00e+00	0	56	0	718274560	45	4460
2026-01-05 22:38:31.98	61.25	27.21	-37.2	-38.7	17.2	0.00e+00	0	56	0	721420288	45	4421
2026-01-05 22:38:32.99	61.52	27.30	-37.2	-38.7	17.2	0.00e+00	0	56	0	724566016	45	4419
2026-01-05 22:38:34.00	61.79	27.39	-37.2	-38.7	17.1	0.00e+00	0	56	0	727711744	45	4432
2026-01-05 22:38:35.01	62.07	27.48	-37.2	-38.7	17.2	0.00e+00	0	56	0	730857472	45	4409
2026-01-05 22:38:36.02	62.34	27.57	-37.1	-38.6	17.3	0.00e+00	0	56	0	734003200	45	4369
2026-01-05 22:38:37.03	62.62	27.66	-37.0	-38.5	17.4	0.00e+00	0	56	0	737148928	45	4315
2026-01-05 22:38:38.04	62.90	27.75	-37.0	-38.5	17.4	0.00e+00	0	56	0	740294656	45	4292
2026-01-05 22:38:39.05	63.18	27.84	-36.9	-38.4	17.5	0.00e+00	0	56	0	743440384	45	4261
2026-01-05 22:38:40.06	63.46	27.93	-36.8	-38.3	17.6	0.00e+00	0	56	0	746586112	45	4198
2026-01-05 22:38:41.07	63.74	28.02	-36.9	-38.3	17.6	0.00e+00	0	56	0	749731840	45	4209
2026-01-05 22:38:42.08	64.02	28.11	-36.9	-38.3	17.6	0.00e+00	0	56	0	752877568	45	4218
2026-01-05 22:38:43.09	64.31	28.19	-36.9	-38.4	17.5	0.00e+00	0	56	0	756023296	45	4258
2026-01-05 22:38:44.10	64.60	28.28	-37.0	-38.5	17.4	0.00e+00	0	56	0	759169024	45	4304
2026-01-05 22:38:45.11	64.88	28.37	-37.0	-38.5	17.4	0.00e+00	0	56	0	762314752	45	4303
2026-01-05 22:38:46.12	65.17	28.45	-37.1	-38.5	17.3	0.00e+00	0	56	0	765460480	45	4337
2026-01-05 22:38:47.13	65.47	28.54	-37.1	-38.6	17.3	0.00e+00	0	56	0	768606208	45	4382
2026-01-05 22:38:48.14	65.76	28.62	-37.1	-38.6	17.3	0.00e+00	0	56	0	771751936	45	4379
2026-01-05 22:38:49.15	66.05	28.71	-37.0	-38.5	17.4	0.00e+00	0	56	0	774897664	45	4308
2026-01-05 22:38:50.16	66.35	28.79	-36.9	-38.3	17.6	0.00e+00	0	56	0	778043392	45	4237
2026-01-05 22:38:51.17	66.65	28.87	-36.8	-38.2	17.7	0.00e+00	0	56	0	781189120	45	4190
2026-01-05 22:38:52.18	66.95	28.95	-36.9	-38.4	17.6	0.00e+00	0	56	0	784334848	45	4250
2026-01-05 22:38:53.19	67.25	29.04	-37.1	-38.5	17.4	0.00e+00	0	56	0	787480576	45	4329
2026-01-05 22:38:54.20	67.55	29.12	-37.2	-38.7	17.2	0.00e+00	0	56	0	790626304	45	4438
2026-01-05 22:38:55.21	67.85	29.20	-37.3	-38.8	17.1	0.00e+00	0	56	0	793772032	45	4485
2026-01-05 22:38:56.22	68.16	29.28	-37.4	-38.9	17.1	0.00e+00	0	56	0	796917760	45	4519
2026-01-05 22:38:57.23	68.47	29.36	-37.3	-38.8	17.1	0.00e+00	0	56	0	800063488	45	4477
2026-01-05 22:38:58.24	68.77	29.44	-37.2	-38.7	17.2	0.00e+00	0	56	0	803209216	45	4438
2026-01-05 22:38:59.25	69.08	29.51	-37.2	-38.7	17.3	0.00e+00	0	56	0	806354944	45	4410
2026-01-05 22:39:00.26	69.40	29.59	-37.1	-38.6	17.3	0.00e+00	0	56	0	809500672	45	4387
2026-01-05 22:39:01.27	69.71	29.67	-37.1	-38.6	17.3	0.00e+00	0	56	0	812646400	45	4380
2026-01-05 22:39:02.29	70.03	29.74	-37.2	-38.7	17.2	0.00e+00	0	56	0	815792128	45	4437
2026-01-05 22:39:03.30	70.34	29.82	-37.2	-38.7	17.3	0.00e+00	0	56	0	818937856	45	4408
2026-01-05 22:39:04.30	70.66	29.89	-37.3	-38.8	17.1	0.00e+00	0	56	0	822083584	45	4468
2026-01-05 22:39:05.31	70.97	29.97	-37.3	-38.8	17.1	0.00e+00	0	56	0	825229312	45	4493
2026-01-05 22:39:06.32	71.29	30.04	-37.3	-38.8	17.1	0.00e+00	0	56	0	828375040	45	4477
2026-01-05 22:39:07.33	71.61	30.11	-37.4	-38.9	17.0	0.00e+00	0	56	0	831520768	45	4510
2026-01-05 22:39:08.34	71.94	30.18	-37.4	-38.9	17.0	0.00e+00	0	56	0	834666496	45	4509
2026-01-05 22:39:09.35	72.26	30.25	-37.3	-38.9	17.1	0.00e+00	0	56	0	837812224	45	4513
2026-01-05 22:39:10.36	72.59	30.32	-37.3	-38.8	17.2	0.00e+00	0	56	0	840957952	45	4461
2026-01-05 22:39:11.37	72.91	30.39	-37.2	-38.7	17.2	0.00e+00	0	56	0	844103680	45	4422
2026-01-05 22:39:12.38	73.24	30.46	-37.2	-38.7	17.3	0.00e+00	0	56	0	847249408	45	4423
2026-01-05 22:39:13.39	73.57	30.53	-37.2	-38.7	17.2	0.00e+00	0	56	0	850395136	45	4418
2026-01-05 22:39:14.40	73.90	30.59	-37.3	-38.8	17.1	0.00e+00	0	56	0	853540864	45	4487
2026-01-05 22:39:15.41	74.24	30.66	-37.5	-39.1	16.9	0.00e+00	0	56	0	856686592	45	4614
2026-01-05 22:39:16.42	74.57	30.72	-37.8	-39.4	16.6	0.00e+00	0	56	0	859832320	46	4512
2026-01-05 22:39:17.43	74.91	30.79	-37.8	-39.5	16.5	0.00e+00	0	56	0	862978048	46	4557
2026-01-05 22:39:18.44	75.24	30.85	-37.8	-39.5	16.6	0.00e+00	0	56	0	866123776	46	4546
2026-01-05 22:39:19.45	75.58	30.91	-37.7	-39.2	16.8	0.00e+00	0	56	0	869269504	46	4436
2026-01-05 22:39:20.46	75.92	30.97	-37.5	-39.0	17.0	0.00e+00	0	56	0	872415232	46	4337
2026-01-05 22:39:21.47	76.26	31.03	-37.5	-39.0	17.0	0.00e+00	0	56	0	875560960	46	4321
2026-01-05 22:39:22.48	76.60	31.09	-37.5	-39.0	17.0	0.00e+00	0	56	0	878706688	46	4324
2026-01-05 22:39:23.49	76.94	31.15	-37.5	-39.1	16.9	0.00e+00	0	56	0	881852416	46	4362
2026-01-05 22:39:24.50	77.29	31.20	-37.7	-39.3	16.7	0.00e+00	0	56	0	884998144	46	4468
2026-01-05 22:39:25.51	77.63	31.26	-37.9	-39.5	16.5	0.00e+00	0	56	0	888143872	46	4573
2026-01-05 22:39:26.52	77.98	31.32	-37.9	-39.5	16.5	0.00e+00	0	56	0	891289600	46	4584
2026-01-05 22:39:27.53	78.32	31.37	-37.7	-39.3	16.7	0.00e+00	0	56	0	894435328	46	4457
2026-01-05 22:39:28.54	78.67	31.42	-37.6	-39.1	16.9	0.00e+00	0	56	0	897581056	46	4388
2026-01-05 22:39:29.55	79.02	31.47	-37.5	-39.1	16.9	0.00e+00	0	56	0	900726784	46	4353
2026-01-05 22:39:30.56	79.37	31.52	-37.6	-39.2	16.8	0.00e+00	0	56	0	903872512	46	4432
2026-01-05 22:39:31.57	79.73	31.57	-37.7	-39.4	16.6	0.00e+00	0	56	0	907018240	46	4504
2026-01-05 22:39:32.58	80.08	31.62	-37.8	-39.5	16.5	0.00e+00	0	56	0	910163968	46	4555
2026-01-05 22:39:33.59	80.43	31.67	-37.8	-39.4	16.6	0.00e+00	0	56	0	913309696	46	4519
2026-01-05 22:39:34.61	80.79	31.72	-37.7	-39.3	16.7	0.00e+00	0	56	0	916455424	46	4472
2026-01-05 22:39:35.61	81.14	31.76	-37.8	-39.4	16.6	0.00e+00	0	56	0	919601152	46	4508
2026-01-05 22:39:36.62	81.50	31.81	-37.8	-39.5	16.6	0.00e+00	0	56	0	922746880	46	4551
2026-01-05 22:39:37.63	81.86	31.85	-37.9	-39.6	16.4	0.00e+00	0	56	0	925892608	46	4609
2026-01-05 22:39:38.65	82.22	31.89	-37.9	-39.5	16.5	0.00e+00	0	56	0	930086912	46	4584
2026-01-05 22:39:39.65	82.58	31.93	-37.7	-39.3	16.7	0.00e+00	0	56	0	933232640	46	4482
2026-01-05 22:39:40.67	82.94	31.97	-37.6	-39.1	16.9	0.00e+00	0	56	0	935329792	46	4385
2026-01-05 22:39:41.68	83.30	32.01	-37.4	-38.9	17.1	0.00e+00	0	56	0	938475520	46	4262
2026-01-05 22:39:42.69	83.66	32.04	-37.5	-39.1	17.0	0.00e+00	0	56	0	941621248	46	4346
2026-01-05 22:39:43.70	84.03	32.08	-37.7	-39.3	16.7	0.00e+00	0	56	0	945815552	46	4459
2026-01-05 22:39:44.71	84.39	32.12	-37.9	-39.5	16.5	0.00e+00	0	56	0	948961280	46	4562
2026-01-05 22:39:45.72	84.76	32.15	-38.0	-39.6	16.4	0.00e+00	0	56	0	952107008	46	4650
2026-01-05 22:39:46.73	85.12	32.18	-37.9	-39.5	16.5	0.00e+00	0	56	0	955252736	46	4591
2026-01-05 22:39:47.74	85.49	32.21	-37.8	-39.5	16.6	0.00e+00	0	56	0	957349888	46	4561
2026-01-05 22:39:48.75	85.85	32.24	-37.8	-39.4	16.6	0.00e+00	0	56	0	961544192	46	4528
2026-01-05 22:39:49.76	86.22	32.27	-37.9	-39.5	16.5	0.00e+00	0	56	0	964689920	46	4590
2026-01-05 22:39:50.77	86.59	32.30	-37.9	-39.6	16.5	0.00e+00	0	56	0	967835648	46	4634
2026-01-05 22:39:51.78	86.96	32.32	-37.8	-39.4	16.7	0.00e+00	0	56	0	970981376	46	4514
2026-01-05 22:39:52.79	87.33	32.35	-37.7	-39.3	16.7	0.00e+00	0	56	0	974127104	46	4474
2026-01-05 22:39:53.80	87.70	32.37	-37.9	-39.6	16.4	0.00e+00	0	56	0	977272832	46	4620
2026-01-05 22:39:54.81	88.07	32.39	-38.0	-39.7	16.4	0.00e+00	0	56	0	980418560	46	4652
2026-01-05 22:39:55.82	88.44	32.41	-38.0	-39.7	16.3	0.00e+00	0	56	0	983564288	46	4687
2026-01-05 22:39:56.83	88.81	32.43	-38.0	-39.7	16.3	0.00e+00	0	56	0	986710016	46	4684
2026-01-05 22:39:57.84	89.18	32.45	-38.0	-39.7	16.4	0.00e+00	0	56	0	989855744	46	4656
2026-01-05 22:39:58.85	89.55	32.47	-38.0	-39.7	16.4	0.00e+00	0	56	0	993001472	46	4661
2026-01-05 22:39:59.86	89.93	32.48	-38.0	-39.7	16.4	0.00e+00	0	56	0	996147200	46	4668
2026-01-05 22:40:00.87	90.30	32.50	-38.0	-39.6	16.5	0.00e+00	0	56	0	999292928	46	4616
2026-01-05 22:40:01.88	90.67	32.51	-37.9	-39.5	16.5	0.00e+00	0	56	0	1002438656	46	4581
2026-01-05 22:40:02.89	91.05	32.52	-38.0	-39.6	16.4	0.00e+00	0	56	0	1005584384	46	4632
2026-01-05 22:40:03.90	91.42	32.53	-38.2	-39.9	16.2	0.00e+00	0	56	0	1008730112	46	4764
2026-01-05 22:40:04.91	91.79	32.54	-38.2	-39.9	16.1	0.00e+00	0	56	0	1011875840	47	4510
2026-01-05 22:40:05.92	92.17	32.55	-38.2	-39.9	16.2	0.00e+00	0	56	0	1015021568	47	4495
2026-01-05 22:40:06.93	92.54	32.56	-38.3	-40.0	16.0	0.00e+00	0	56	0	1018167296	47	4579
2026-01-05 22:40:07.94	92.92	32.56	-38.1	-39.7	16.3	0.00e+00	0	56	0	1021313024	47	4431
2026-01-05 22:40:08.95	93.29	32.56	-37.8	-39.4	16.6	0.00e+00	0	56	0	1024458752	47	4280
2026-01-05 22:40:09.96	93.66	32.57	-37.9	-39.5	16.5	0.00e+00	0	56	0	1027604480	47	4334
2026-01-05 22:40:10.97	94.04	32.57	-37.9	-39.6	16.5	0.00e+00	0	56	0	1030750208	47	4357
2026-01-05 22:40:11.98	94.41	32.57	-37.8	-39.4	16.5	0.00e+00	0	56	0	1033895936	47	4272
2026-01-05 22:40:12.99	94.79	32.56	-37.8	-39.4	16.6	0.00e+00	0	56	0	1037041664	47	4264
2026-01-05 22:40:14.00	95.16	32.56	-37.8	-39.3	16.7	0.00e+00	0	56	0	1040187392	47	4237
2026-01-05 22:40:15.00	95.53	32.56	-37.6	-39.2	16.8	0.00e+00	0	56	0	1043333120	47	4159
2026-01-05 22:40:16.01	95.91	32.55	-37.8	-39.4	16.6	0.00e+00	0	56	0	1046478848	47	4253
2026-01-05 22:40:17.02	96.28	32.54	-37.9	-39.5	16.5	0.00e+00	0	56	0	1049624576	47	4309
2026-01-05 22:40:18.03	96.66	32.54	-37.7	-39.3	16.7	0.00e+00	0	56	0	1052770304	47	4213
2026-01-05 22:40:19.04	97.03	32.53	-37.6	-39.2	16.9	0.00e+00	0	56	0	1055916032	47	4154
2026-01-05 22:40:20.05	97.40	32.52	-37.5	-39.0	17.0	0.00e+00	0	56	0	1059061760	46	4321
2026-01-05 22:40:21.06	97.78	32.50	-37.5	-39.0	17.0	0.00e+00	0	56	0	1062207488	46	4326
2026-01-05 22:40:22.07	98.15	32.49	-37.5	-39.1	16.9	0.00e+00	0	56	0	1065353216	46	4351
2026-01-05 22:40:23.08	98.52	32.47	-37.8	-39.4	16.6	0.00e+00	0	56	0	1068498944	46	4537
2026-01-05 22:40:24.09	98.90	32.46	-37.9	-39.5	16.5	0.00e+00	0	56	0	1071644672	46	4590
2026-01-05 22:40:25.10	99.27	32.44	-37.8	-39.4	16.6	0.00e+00	0	56	0	1074790400	46	4525
2026-01-05 22:40:26.11	99.64	32.42	-37.9	-39.5	16.4	0.00e+00	0	56	0	1077936128	46	4581
2026-01-05 22:40:27.12	100.01	32.40	-37.9	-39.5	16.5	0.00e+00	0	56	0	1081081856	46	4569
2026-01-05 22:40:28.13	100.38	32.38	-37.8	-39.4	16.6	0.00e+00	0	56	0	1084227584	46	4513
2026-01-05 22:40:29.14	100.75	32.36	-37.8	-39.4	16.6	0.00e+00	0	56	0	1087373312	46	4537
2026-01-05 22:40:30.15	101.12	32.33	-37.8	-39.4	16.6	0.00e+00	0	56	0	1090519040	46	4535
2026-01-05 22:40:31.16	101.49	32.31	-37.8	-39.4	16.7	0.00e+00	0	56	0	1093664768	46	4500
2026-01-05 22:40:32.17	101.86	32.28	-37.7	-39.3	16.7	0.00e+00	0	56	0	1096810496	46	4483
2026-01-05 22:40:33.18	102.23	32.25	-37.9	-39.5	16.5	0.00e+00	0	56	0	1099956224	46	4561
2026-01-05 22:40:34.19	102.60	32.22	-37.9	-39.5	16.6	0.00e+00	0	56	0	1103101952	46	4574
2026-01-05 22:40:35.20	102.96	32.19	-37.8	-39.3	16.7	0.00e+00	0	56	0	1106247680	46	4493
2026-01-05 22:40:36.21	103.33	32.16	-37.7	-39.2	16.8	0.00e+00	0	56	0	1109393408	46	4423
2026-01-05 22:40:37.22	103.70	32.13	-37.7	-39.2	16.8	0.00e+00	0	56	0	1112539136	46	4431
2026-01-05 22:40:38.23	104.06	32.10	-37.7	-39.3	16.7	0.00e+00	0	56	0	1115684864	46	4459
2026-01-05 22:40:39.24	104.42	32.06	-37.6	-39.2	16.8	0.00e+00	0	56	0	1118830592	46	4416
2026-01-05 22:40:40.25	104.79	32.02	-37.9	-39.5	16.5	0.00e+00	0	56	0	1121976320	46	4579
2026-01-05 22:40:41.26	105.15	31.99	-38.0	-39.7	16.3	0.00e+00	0	56	0	1125122048	46	4682
2026-01-05 22:40:42.28	105.52	31.95	-38.1	-39.8	16.3	0.00e+00	0	56	0	1128267776	46	4721
2026-01-05 22:40:43.29	105.88	31.91	-38.0	-39.6	16.4	0.00e+00	0	56	0	1131413504	46	4636
2026-01-05 22:40:44.30	106.24	31.87	-37.9	-39.6	16.4	0.00e+00	0	56	0	1134559232	46	4604
2026-01-05 22:40:45.31	106.59	31.82	-37.8	-39.4	16.6	0.00e+00	0	56	0	1137704960	46	4529
2026-01-05 22:40:46.32	106.95	31.78	-37.7	-39.3	16.7	0.00e+00	0	56	0	1140850688	46	4459
2026-01-05 22:40:47.33	107.31	31.73	-37.8	-39.4	16.6	0.00e+00	0	56	0	1143996416	46	4526
2026-01-05 22:40:48.34	107.67	31.69	-37.8	-39.4	16.6	0.00e+00	0	56	0	1147142144	46	4541
2026-01-05 22:40:49.34	108.02	31.64	-37.8	-39.4	16.6	0.00e+00	0	56	0	1150287872	46	4542
2026-01-05 22:40:50.35	108.37	31.59	-37.8	-39.3	16.7	0.00e+00	0	56	0	1153433600	46	4491
2026-01-05 22:40:51.36	108.72	31.54	-37.7	-39.3	16.7	0.00e+00	0	56	0	1156579328	46	4485
2026-01-05 22:40:52.38	109.08	31.49	-37.7	-39.2	16.8	0.00e+00	0	56	0	1159725056	46	4439
2026-01-05 22:40:53.39	109.43	31.44	-37.6	-39.2	16.8	0.00e+00	0	56	0	1162870784	46	4422
2026-01-05 22:40:54.40	109.78	31.39	-37.7	-39.3	16.7	0.00e+00	0	56	0	1166016512	46	4471
2026-01-05 22:40:55.41	110.13	31.34	-37.6	-39.2	16.8	0.00e+00	0	56	0	1169162240	46	4423
2026-01-05 22:40:56.42	110.48	31.28	-37.6	-39.1	16.8	0.00e+00	0	56	0	1172307968	46	4391
2026-01-05 22:40:57.43	110.82	31.23	-37.7	-39.2	16.8	0.00e+00	0	56	0	1175453696	46	4430
2026-01-05 22:40:58.44	111.17	31.17	-37.8	-39.5	16.6	0.00e+00	0	56	0	1178599424	46	4548
2026-01-05 22:40:59.45	111.51	31.11	-37.9	-39.5	16.5	0.00e+00	0	56	0	1181745152	46	4567
2026-01-05 22:41:00.46	111.86	31.05	-37.7	-39.3	16.7	0.00e+00	0	56	0	1184890880	46	4473
2026-01-05 22:41:01.47	112.20	30.99	-37.6	-39.2	16.8	0.00e+00	0	56	0	1188036608	46	4421
2026-01-05 22:41:02.47	112.53	30.93	-37.6	-39.1	16.9	0.00e+00	0	56	0	1191182336	46	4378
2026-01-05 22:41:03.49	112.88	30.87	-37.4	-38.9	17.0	0.00e+00	0	56	0	1194328064	46	4283
2026-01-05 22:41:04.50	113.21	30.81	-37.4	-38.9	17.1	0.00e+00	0	56	0	1197473792	46	4255
2026-01-05 22:41:05.51	113.55	30.75	-37.3	-38.8	17.2	0.00e+00	0	56	0	1200619520	46	4208
2026-01-05 22:41:06.52	113.89	30.68	-37.4	-38.9	17.1	0.00e+00	0	56	0	1203765248	46	4272
2026-01-05 22:41:07.53	114.22	30.62	-37.5	-39.0	17.0	0.00e+00	0	56	0	1206910976	46	4322
2026-01-05 22:41:08.54	114.55	30.55	-37.7	-39.2	16.8	0.00e+00	0	56	0	1210056704	46	4428
2026-01-05 22:41:09.55	114.88	30.48	-37.8	-39.4	16.6	0.00e+00	0	56	0	1213202432	46	4511
2026-01-05 22:41:10.56	115.21	30.41	-37.7	-39.3	16.7	0.00e+00	0	56	0	1216348160	46	4482
2026-01-05 22:41:11.57	115.54	30.35	-37.6	-39.1	16.8	0.00e+00	0	56	0	1219493888	46	4388
2026-01-05 22:41:12.58	115.87	30.28	-37.4	-38.9	17.1	0.00e+00	0	56	0	1222639616	46	4272
2026-01-05 22:41:13.59	116.20	30.21	-37.2	-38.7	17.3	0.00e+00	0	57	0	1225785344	46	4163
2026-01-05 22:41:14.60	116.52	30.13	-37.2	-38.7	17.3	0.00e+00	0	56	0	1228931072	46	4174
2026-01-05 22:41:15.61	116.84	30.06	-37.2	-38.7	17.2	0.00e+00	0	56	0	1232076800	46	4182
2026-01-05 22:41:16.62	117.16	29.99	-37.3	-38.8	17.1	0.00e+00	0	56	0	1235222528	46	4235
2026-01-05 22:41:17.62	117.48	29.92	-37.4	-38.9	17.1	0.00e+00	0	56	0	1238368256	46	4255
2026-01-05 22:41:18.63	117.80	29.84	-37.3	-38.8	17.2	0.00e+00	0	56	0	1241513984	46	4202
2026-01-05 22:41:19.64	118.12	29.77	-37.3	-38.8	17.2	0.00e+00	0	56	0	1244659712	46	4214
2026-01-05 22:41:20.65	118.43	29.69	-37.3	-38.8	17.1	0.00e+00	0	56	0	1248854016	46	4235
2026-01-05 22:41:21.66	118.75	29.61	-37.3	-38.8	17.2	0.00e+00	0	56	0	1250951168	46	4223
2026-01-05 22:41:22.67	119.06	29.54	-37.2	-38.7	17.3	0.00e+00	0	56	0	1254096896	46	4161
2026-01-05 22:41:23.68	119.37	29.46	-37.0	-38.5	17.5	0.00e+00	0	56	0	1257242624	46	4069
2026-01-05 22:41:24.69	119.68	29.38	-36.8	-38.3	17.7	0.00e+00	0	57	0	1260388352	45	4198
2026-01-05 22:41:25.70	119.99	29.30	-36.9	-38.3	17.6	0.00e+00	0	56	0	1264582656	45	4220
2026-01-05 22:41:26.71	120.30	29.22	-37.0	-38.4	17.4	0.00e+00	0	56	0	1267728384	45	4277
2026-01-05 22:41:27.72	120.60	29.14	-37.1	-38.6	17.3	0.00e+00	0	57	0	1270874112	45	4361
2026-01-05 22:41:28.73	120.91	29.06	-37.2	-38.7	17.2	0.00e+00	0	56	0	1274019840	45	4431
2026-01-05 22:41:29.74	121.21	28.98	-37.1	-38.6	17.3	0.00e+00	0	56	0	1276116992	45	4370
2026-01-05 22:41:30.75	121.51	28.89	-37.0	-38.5	17.4	0.00e+00	0	56	0	1280311296	45	4298
2026-01-05 22:41:31.76	121.81	28.81	-36.9	-38.4	17.5	0.00e+00	0	57	0	1283457024	45	4252
2026-01-05 22:41:32.77	122.11	28.73	-36.9	-38.3	17.5	0.00e+00	0	56	0	1286602752	45	4239
2026-01-05 22:41:33.78	122.40	28.64	-36.9	-38.3	17.5	0.00e+00	0	56	0	1289748480	45	4235
2026-01-05 22:41:34.79	122.70	28.56	-36.9	-38.4	17.5	0.00e+00	0	56	0	1292894208	45	4261
2026-01-05 22:41:35.80	122.99	28.47	-36.7	-38.1	17.8	0.00e+00	0	56	0	1296039936	45	4108
2026-01-05 22:41:36.82	123.29	28.38	-36.6	-38.0	17.8	0.00e+00	0	56	0	1299185664	45	4090
2026-01-05 22:41:37.83	123.58	28.30	-36.7	-38.1	17.8	0.00e+00	0	57	0	1302331392	45	4136
2026-01-05 22:41:38.84	123.87	28.21	-36.6	-38.0	17.8	0.00e+00	0	56	0	1305477120	45	4080
2026-01-05 22:41:39.85	124.15	28.12	-36.7	-38.1	17.8	0.00e+00	0	56	0	1308622848	45	4105
2026-01-05 22:41:40.86	124.44	28.04	-36.7	-38.1	17.8	0.00e+00	0	56	0	1311768576	45	4119
2026-01-05 22:41:41.87	124.72	27.95	-36.8	-38.2	17.7	0.00e+00	0	56	0	1314914304	45	4173
2026-01-05 22:41:42.88	125.00	27.86	-36.7	-38.1	17.8	0.00e+00	0	56	0	1318060032	45	4130
2026-01-05 22:41:43.89	125.29	27.77	-36.8	-38.2	17.7	0.00e+00	0	56	0	1321205760	45	4157
2026-01-05 22:41:44.90	125.57	27.68	-36.8	-38.2	17.7	0.00e+00	0	56	0	1324351488	45	4182
2026-01-05 22:41:45.91	125.84	27.59	-37.0	-38.5	17.4	0.00e+00	0	56	0	1327497216	45	4301
2026-01-05 22:41:46.92	126.12	27.50	-37.0	-38.5	17.4	0.00e+00	0	56	0	1330642944	45	4312
2026-01-05 22:41:47.93	126.39	27.41	-36.9	-38.4	17.5	0.00e+00	0	56	0	1333788672	45	4258
2026-01-05 22:41:48.94	126.67	27.32	-36.8	-38.2	17.7	0.00e+00	0	56	0	1336934400	45	4147
2026-01-05 22:41:49.95	126.94	27.22	-36.7	-38.1	17.8	0.00e+00	0	56	0	1340080128	45	4117
2026-01-05 22:41:50.96	127.21	27.13	-36.6	-38.0	17.9	0.00e+00	0	56	0	1343225856	45	4068
2026-01-05 22:41:51.97	127.48	27.04	-36.6	-38.0	17.9	0.00e+00	0	57	0	1346371584	45	4072
2026-01-05 22:41:52.98	127.75	26.95	-36.6	-38.0	17.9	0.00e+00	0	56	0	1349517312	45	4052
2026-01-05 22:41:53.99	128.01	26.85	-36.7	-38.1	17.7	0.00e+00	0	56	0	1352663040	45	4135
2026-01-05 22:41:55.00	128.28	26.76	-36.7	-38.1	17.8	0.00e+00	0	56	0	1355808768	45	4140
2026-01-05 22:41:56.00	128.54	26.67	-36.8	-38.2	17.7	0.00e+00	0	57	0	1358954496	45	4157
2026-01-05 22:41:57.01	128.80	26.57	-36.8	-38.2	17.7	0.00e+00	0	56	0	1362100224	45	4177
2026-01-05 22:41:58.02	129.06	26.48	-36.8	-38.3	17.6	0.00e+00	0	56	0	1365245952	45	4211
2026-01-05 22:41:59.03	129.32	26.38	-36.8	-38.2	17.7	0.00e+00	0	56	0	1368391680	45	4182
2026-01-05 22:42:00.04	129.57	26.29	-36.6	-38.0	17.8	0.00e+00	0	57	0	1371537408	45	4087
2026-01-05 22:42:01.05	129.83	26.19	-36.6	-38.0	17.9	0.00e+00	0	56	0	1374683136	45	4071
2026-01-05 22:42:02.06	130.08	26.10	-36.6	-38.0	17.9	0.00e+00	0	56	0	1377828864	45	4052
2026-01-05 22:42:03.07	130.33	26.00	-36.6	-38.0	17.9	0.00e+00	0	57	0	1380974592	45	4058
2026-01-05 22:42:04.08	130.58	25.91	-36.7	-38.1	17.8	0.00e+00	0	56	0	1384120320	45	4125
2026-01-05 22:42:05.10	130.84	25.81	-36.7	-38.1	17.8	0.00e+00	0	56	0	1387266048	45	4118
2026-01-05 22:42:06.11	131.08	25.71	-36.7	-38.1	17.8	0.00e+00	0	56	0	1390411776	45	4103
2026-01-05 22:42:07.12	131.33	25.62	-36.7	-38.1	17.7	0.00e+00	0	57	0	1393557504	45	4132
2026-01-05 22:42:08.13	131.57	25.52	-36.8	-38.2	17.7	0.00e+00	0	56	0	1396703232	45	4169
2026-01-05 22:42:09.14	131.82	25.42	-36.9	-38.3	17.6	0.00e+00	0	57	0	1399848960	45	4218
2026-01-05 22:42:10.15	132.06	25.32	-37.0	-38.4	17.5	0.00e+00	0	56	0	1402994688	45	4284
2026-01-05 22:42:11.16	132.30	25.23	-37.0	-38.5	17.4	0.00e+00	0	56	0	1406140416	45	4303
2026-01-05 22:42:12.17	132.54	25.13	-37.1	-38.5	17.3	0.00e+00	0	57	0	1409286144	45	4338
2026-01-05 22:42:13.18	132.78	25.03	-37.0	-38.5	17.4	0.00e+00	0	57	0	1412431872	45	4303
2026-01-05 22:42:14.19	133.01	24.93	-37.1	-38.5	17.3	0.00e+00	0	56	0	1415577600	45	4336
2026-01-05 22:42:15.20	133.25	24.84	-37.0	-38.5	17.4	0.00e+00	0	56	0	1418723328	45	4315
2026-01-05 22:42:16.21	133.48	24.74	-37.0	-38.5	17.4	0.00e+00	0	56	0	1421869056	45	4323
2026-01-05 22:42:17.22	133.71	24.64	-37.1	-38.5	17.3	0.00e+00	0	56	0	1425014784	45	4324
2026-01-05 22:42:18.23	133.94	24.54	-37.0	-38.5	17.4	0.00e+00	0	56	0	1428160512	45	4310
2026-01-05 22:42:19.24	134.17	24.44	-37.1	-38.5	17.3	0.00e+00	0	56	0	1431306240	45	4329
2026-01-05 22:42:20.25	134.40	24.34	-37.1	-38.6	17.3	0.00e+00	0	57	0	1434451968	45	4362
2026-01-05 22:42:21.26	134.63	24.25	-37.0	-38.5	17.4	0.00e+00	0	56	0	1437597696	45	4319
2026-01-05 22:42:22.28	134.85	24.15	-37.0	-38.4	17.4	0.00e+00	0	57	0	1440743424	45	4288
2026-01-05 22:42:23.29	135.08	24.05	-37.0	-38.4	17.4	0.00e+00	0	56	0	1443889152	45	4278
2026-01-05 22:42:24.30	135.30	23.95	-37.0	-38.5	17.4	0.00e+00	0	56	0	1447034880	45	4304
2026-01-05 22:42:25.31	135.52	23.85	-37.0	-38.4	17.4	0.00e+00	0	57	0	1450180608	45	4286
2026-01-05 22:42:26.32	135.74	23.75	-37.0	-38.5	17.4	0.00e+00	0	56	0	1453326336	45	4293
2026-01-05 22:42:27.33	135.96	23.65	-36.9	-38.4	17.5	0.00e+00	0	56	0	1456472064	45	4260
2026-01-05 22:42:28.34	136.17	23.55	-36.9	-38.4	17.5	0.00e+00	0	56	0	1459617792	45	4271
2026-01-05 22:42:29.35	136.39	23.45	-37.0	-38.4	17.4	0.00e+00	0	57	0	1462763520	45	4267
2026-01-05 22:42:30.36	136.60	23.35	-37.0	-38.4	17.4	0.00e+00	0	57	0	1465909248	45	4285
2026-01-05 22:42:31.37	136.82	23.26	-37.0	-38.5	17.4	0.00e+00	0	56	0	1469054976	45	4308
2026-01-05 22:42:32.38	137.03	23.16	-37.0	-38.5	17.4	0.00e+00	0	56	0	1472200704	45	4300
2026-01-05 22:42:33.39	137.24	23.06	-37.1	-38.5	17.3	0.00e+00	0	56	0	1475346432	45	4333
2026-01-05 22:42:34.40	137.45	22.96	-37.0	-38.4	17.4	0.00e+00	0	57	0	1478492160	45	4286
2026-01-05 22:42:35.41	137.65	22.86	-37.0	-38.5	17.3	0.00e+00	0	57	0	1481637888	45	4323
2026-01-05 22:42:36.42	137.86	22.76	-37.0	-38.5	17.3	0.00e+00	0	57	0	1484783616	45	4315
2026-01-05 22:42:37.43	138.06	22.66	-37.0	-38.5	17.4	0.00e+00	0	56	0	1487929344	45	4298
2026-01-05 22:42:38.44	138.27	22.56	-37.0	-38.5	17.4	0.00e+00	0	56	0	1491075072	45	4300
2026-01-05 22:42:39.45	138.47	22.46	-37.0	-38.5	17.4	0.00e+00	0	57	0	1494220800	45	4294
2026-01-05 22:42:40.46	138.67	22.36	-37.0	-38.5	17.4	0.00e+00	0	57	0	1497366528	45	4294
2026-01-05 22:42:41.47	138.87	22.26	-37.0	-38.5	17.4	0.00e+00	0	56	0	1500512256	45	4295
2026-01-05 22:42:42.48	139.07	22.16	-37.0	-38.5	17.3	0.00e+00	0	56	0	1503657984	45	4317
2026-01-05 22:42:43.49	139.27	22.07	-37.1	-38.6	17.3	0.00e+00	0	56	0	1506803712	45	4354
2026-01-05 22:42:44.50	139.46	21.97	-37.2	-38.8	17.1	0.00e+00	0	57	0	1509949440	45	4450
2026-01-05 22:42:45.51	139.66	21.87	-37.3	-38.8	17.0	0.00e+00	0	56	0	1513095168	45	4472
2026-01-05 22:42:46.52	139.85	21.77	-37.3	-38.8	17.0	0.00e+00	0	57	0	1516240896	45	4476
2026-01-05 22:42:47.53	140.05	21.67	-37.3	-38.8	17.0	0.00e+00	0	56	0	1519386624	45	4474
2026-01-05 22:42:48.54	140.24	21.57	-37.3	-38.8	17.0	0.00e+00	0	57	0	1522532352	45	4482
2026-01-05 22:42:49.55	140.43	21.47	-37.3	-38.9	17.0	0.00e+00	0	57	0	1525678080	45	4509
2026-01-05 22:42:50.56	140.62	21.37	-37.3	-38.9	16.9	0.00e+00	0	56	0	1528823808	45	4522
2026-01-05 22:42:51.57	140.80	21.28	-37.2	-38.8	17.1	0.00e+00	0	57	0	1531969536	45	4453
2026-01-05 22:42:52.58	140.99	21.18	-37.2	-38.7	17.1	0.00e+00	0	57	0	1535115264	45	4422
2026-01-05 22:42:53.59	141.18	21.08	-37.1	-38.6	17.2	0.00e+00	0	57	0	1539309568	45	4363
2026-01-05 22:42:54.60	141.36	20.98	-37.1	-38.6	17.2	0.00e+00	0	57	0	1542455296	45	4388
2026-01-05 22:42:55.61	141.54	20.88	-37.1	-38.6	17.2	0.00e+00	0	57	0	1544552448	45	4346
2026-01-05 22:42:56.62	141.73	20.78	-37.1	-38.6	17.2	0.00e+00	0	57	0	1547698176	45	4356
2026-01-05 22:42:57.63	141.91	20.69	-37.0	-38.5	17.3	0.00e+00	0	57	0	1550843904	45	4322
2026-01-05 22:42:58.64	142.09	20.59	-37.0	-38.5	17.3	0.00e+00	0	57	0	1553989632	45	4294
2026-01-05 22:42:59.65	142.27	20.49	-37.0	-38.5	17.3	0.00e+00	0	57	0	1558183936	45	4299
2026-01-05 22:43:00.66	142.44	20.39	-37.1	-38.5	17.3	0.00e+00	0	57	0	1561329664	45	4339
2026-01-05 22:43:01.67	142.62	20.30	-37.1	-38.5	17.3	0.00e+00	0	57	0	1564475392	45	4338
2026-01-05 22:43:02.68	142.80	20.20	-37.1	-38.6	17.2	0.00e+00	0	57	0	1566572544	45	4367
2026-01-05 22:43:03.69	142.97	20.10	-37.1	-38.6	17.2	0.00e+00	0	57	0	1569718272	45	4389
2026-01-05 22:43:04.70	143.14	20.00	-37.1	-38.6	17.1	0.00e+00	0	57	0	1573912576	45	4386
2026-01-05 22:43:05.71	143.32	19.91	-37.1	-38.6	17.2	0.00e+00	0	57	0	1577058304	45	4372
2026-01-05 22:43:06.72	143.49	19.81	-37.1	-38.6	17.2	0.00e+00	0	57	0	1580204032	45	4352
2026-01-05 22:43:07.73	143.66	19.71	-37.1	-38.6	17.2	0.00e+00	0	57	0	1583349760	45	4373
2026-01-05 22:43:08.74	143.83	19.62	-37.0	-38.5	17.3	0.00e+00	0	56	0	1586495488	45	4306
2026-01-05 22:43:09.75	143.99	19.52	-37.0	-38.5	17.2	0.00e+00	0	57	0	1589641216	45	4331
2026-01-05 22:43:10.76	144.16	19.42	-37.0	-38.6	17.2	0.00e+00	0	57	0	1592786944	45	4343
2026-01-05 22:43:11.77	144.33	19.33	-37.0	-38.5	17.2	0.00e+00	0	57	0	1595932672	45	4340
2026-01-05 22:43:12.79	144.49	19.23	-37.1	-38.6	17.2	0.00e+00	0	57	0	1599078400	45	4373
2026-01-05 22:43:13.80	144.66	19.13	-37.1	-38.6	17.2	0.00e+00	0	57	0	1602224128	45	4356
2026-01-05 22:43:14.81	144.82	19.04	-37.1	-38.6	17.2	0.00e+00	0	57	0	1605369856	45	4345
2026-01-05 22:43:15.82	144.98	18.94	-37.1	-38.6	17.2	0.00e+00	0	57	0	1608515584	45	4354
2026-01-05 22:43:16.83	145.14	18.85	-37.0	-38.5	17.3	0.00e+00	0	57	0	1611661312	45	4304
2026-01-05 22:43:17.83	145.30	18.75	-37.0	-38.5	17.3	0.00e+00	0	57	0	1614807040	45	4302
2026-01-05 22:43:18.85	145.46	18.65	-36.9	-38.4	17.4	0.00e+00	0	57	0	1617952768	45	4243
2026-01-05 22:43:19.85	145.62	18.56	-36.9	-38.4	17.3	0.00e+00	0	57	0	1621098496	45	4262
2026-01-05 22:43:20.86	145.78	18.47	-36.9	-38.3	17.4	0.00e+00	0	56	0	1624244224	45	4238
2026-01-05 22:43:21.87	145.93	18.37	-36.9	-38.4	17.3	0.00e+00	0	57	0	1627389952	45	4282
2026-01-05 22:43:22.89	146.09	18.28	-37.0	-38.5	17.2	0.00e+00	0	57	0	1630535680	45	4306
2026-01-05 22:43:23.90	146.24	18.18	-37.1	-38.6	17.1	0.00e+00	0	57	0	1633681408	45	4352
2026-01-05 22:43:24.91	146.40	18.09	-37.2	-38.7	17.0	0.00e+00	0	57	0	1636827136	45	4403
2026-01-05 22:43:25.92	146.55	17.99	-37.3	-38.9	16.9	0.00e+00	0	57	0	1639972864	45	4504
2026-01-05 22:43:26.93	146.70	17.90	-37.3	-38.9	16.9	0.00e+00	0	56	0	1643118592	45	4508
2026-01-05 22:43:27.94	146.85	17.80	-37.3	-38.9	16.9	0.00e+00	0	57	0	1646264320	45	4494
2026-01-05 22:43:28.95	147.00	17.71	-37.3	-38.9	16.9	0.00e+00	0	57	0	1649410048	45	4504
2026-01-05 22:43:29.96	147.15	17.62	-37.3	-38.9	16.8	0.00e+00	0	57	0	1652555776	45	4517
2026-01-05 22:43:30.97	147.30	17.52	-37.4	-38.9	16.8	0.00e+00	0	57	0	1655701504	45	4534
2026-01-05 22:43:31.98	147.45	17.43	-37.4	-39.0	16.8	0.00e+00	0	57	0	1658847232	45	4547
2026-01-05 22:43:32.99	147.59	17.34	-37.5	-39.0	16.7	0.00e+00	0	57	0	1661992960	45	4593
2026-01-05 22:43:33.99	147.74	17.25	-37.5	-39.2	16.6	0.00e+00	0	57	0	1665138688	45	4656
2026-01-05 22:43:35.00	147.88	17.15	-37.6	-39.2	16.5	0.00e+00	0	57	0	1668284416	45	4687
2026-01-05 22:43:36.01	148.02	17.06	-37.6	-39.2	16.5	0.00e+00	0	57	0	1671430144	45	4699
2026-01-05 22:43:37.02	148.17	16.97	-37.6	-39.2	16.5	0.00e+00	0	57	0	1674575872	45	4679
2026-01-05 22:43:38.03	148.31	16.88	-37.6	-39.2	16.5	0.00e+00	0	57	0	1677721600	45	4680
2026-01-05 22:43:39.04	148.45	16.78	-37.6	-39.3	16.4	0.00e+00	0	57	0	1680867328	45	4717
2026-01-05 22:43:40.06	148.59	16.69	-37.6	-39.2	16.5	0.00e+00	0	57	0	1684013056	45	4681
2026-01-05 22:43:41.07	148.73	16.60	-37.7	-39.4	16.3	0.00e+00	0	57	0	1687158784	45	4772
2026-01-05 22:43:42.08	148.87	16.51	-37.7	-39.4	16.4	0.00e+00	0	57	0	1690304512	46	4497
2026-01-05 22:43:43.09	149.01	16.42	-37.7	-39.4	16.3	0.00e+00	0	57	0	1693450240	46	4523
2026-01-05 22:43:44.10	149.14	16.33	-37.7	-39.4	16.4	0.00e+00	0	57	0	1696595968	46	4497
2026-01-05 22:43:45.11	149.28	16.24	-37.8	-39.5	16.3	0.00e+00	0	57	0	1699741696	46	4548
2026-01-05 22:43:46.12	149.42	16.15	-37.8	-39.4	16.2	0.00e+00	0	57	0	1702887424	46	4545
2026-01-05 22:43:47.13	149.55	16.06	-37.9	-39.6	16.1	0.00e+00	0	57	0	1706033152	46	4629
2026-01-05 22:43:48.14	149.68	15.97	-37.9	-39.6	16.1	0.00e+00	0	57	0	1709178880	46	4635
2026-01-05 22:43:49.15	149.82	15.88	-38.0	-39.8	15.9	0.00e+00	0	56	0	1712324608	46	4706
2026-01-05 22:43:50.16	149.95	15.79	-38.0	-39.7	16.0	0.00e+00	0	57	0	1715470336	46	4669
2026-01-05 22:43:51.17	150.08	15.70	-38.0	-39.7	16.0	0.00e+00	0	57	0	1718616064	46	4677
2026-01-05 22:43:52.18	150.21	15.61	-38.0	-39.7	16.0	0.00e+00	0	57	0	1721761792	46	4675
2026-01-05 22:43:53.19	150.34	15.52	-38.0	-39.8	15.9	0.00e+00	0	57	0	1724907520	46	4725
2026-01-05 22:43:54.20	150.47	15.43	-38.0	-39.8	15.9	0.00e+00	0	57	0	1728053248	46	4713
2026-01-05 22:43:55.21	150.60	15.34	-38.1	-39.8	15.8	0.00e+00	0	57	0	1731198976	46	4734
2026-01-05 22:43:56.22	150.73	15.25	-38.1	-39.8	15.8	0.00e+00	0	57	0	1734344704	46	4734
2026-01-05 22:43:57.23	150.85	15.16	-38.1	-39.9	15.7	0.00e+00	0	57	0	1737490432	46	4800
2026-01-05 22:43:58.24	150.98	15.07	-38.1	-39.9	15.7	0.00e+00	0	57	0	1740636160	46	4785
2026-01-05 22:43:59.25	151.11	14.99	-38.2	-40.0	15.7	0.00e+00	0	57	0	1743781888	46	4828
2026-01-05 22:44:00.26	151.23	14.90	-38.2	-40.0	15.6	0.00e+00	0	57	0	1746927616	46	4850
2026-01-05 22:44:01.27	151.36	14.81	-38.3	-40.1	15.5	0.00e+00	0	57	0	1750073344	47	4614
2026-01-05 22:44:02.29	151.48	14.72	-38.3	-40.1	15.5	0.00e+00	0	57	0	1753219072	47	4624
2026-01-05 22:44:03.30	151.60	14.63	-38.2	-40.0	15.5	0.00e+00	0	57	0	1756364800	47	4598
2026-01-05 22:44:04.31	151.73	14.55	-38.2	-40.0	15.6	0.00e+00	0	57	0	1759510528	47	4548
2026-01-05 22:44:05.32	151.85	14.46	-38.1	-39.9	15.7	0.00e+00	0	57	0	1762656256	47	4534
2026-01-05 22:44:06.33	151.97	14.37	-38.1	-39.9	15.7	0.00e+00	0	57	0	1765801984	47	4544
2026-01-05 22:44:07.34	152.09	14.29	-38.1	-39.9	15.7	0.00e+00	0	57	0	1768947712	47	4534
2026-01-05 22:44:08.35	152.21	14.20	-38.0	-39.7	15.8	0.00e+00	0	57	0	1772093440	47	4436
2026-01-05 22:44:09.36	152.33	14.11	-38.0	-39.8	15.8	0.00e+00	0	57	0	1775239168	47	4456
2026-01-05 22:44:10.37	152.44	14.03	-38.1	-39.8	15.7	0.00e+00	0	57	0	1778384896	47	4488
2026-01-05 22:44:11.38	152.56	13.94	-38.0	-39.8	15.8	0.00e+00	0	57	0	1781530624	47	4447
2026-01-05 22:44:12.39	152.68	13.86	-38.1	-39.8	15.7	0.00e+00	0	57	0	1784676352	47	4487
2026-01-05 22:44:13.40	152.79	13.77	-38.1	-39.9	15.6	0.00e+00	0	57	0	1787822080	47	4526
2026-01-05 22:44:14.41	152.91	13.69	-38.1	-39.9	15.6	0.00e+00	0	57	0	1790967808	47	4542
2026-01-05 22:44:15.42	153.02	13.60	-38.2	-40.0	15.5	0.00e+00	0	57	0	1794113536	47	4586
2026-01-05 22:44:16.43	153.14	13.52	-38.2	-40.0	15.5	0.00e+00	0	57	0	1797259264	47	4587
2026-01-05 22:44:17.44	153.25	13.43	-38.2	-40.0	15.6	0.00e+00	0	57	0	1800404992	47	4559
2026-01-05 22:44:18.45	153.36	13.35	-38.2	-40.1	15.5	0.00e+00	0	57	0	1803550720	47	4613
2026-01-05 22:44:19.46	153.48	13.26	-38.2	-40.0	15.5	0.00e+00	0	57	0	1806696448	47	4575
2026-01-05 22:44:20.47	153.59	13.18	-38.2	-40.0	15.5	0.00e+00	0	57	0	1809842176	47	4596
2026-01-05 22:44:21.48	153.70	13.09	-38.2	-40.1	15.4	0.00e+00	0	57	0	1812987904	47	4605
2026-01-05 22:44:22.49	153.81	13.01	-38.2	-40.0	15.5	0.00e+00	0	57	0	1816133632	47	4559
2026-01-05 22:44:23.50	153.92	12.93	-38.2	-40.0	15.5	0.00e+00	0	57	0	1819279360	47	4566
2026-01-05 22:44:24.51	154.03	12.84	-38.2	-40.0	15.5	0.00e+00	0	57	0	1822425088	47	4559
2026-01-05 22:44:25.52	154.14	12.76	-38.2	-40.0	15.5	0.00e+00	0	57	0	1825570816	47	4562
2026-01-05 22:44:26.53	154.24	12.68	-38.1	-39.9	15.5	0.00e+00	0	56	0	1828716544	47	4545
2026-01-05 22:44:27.54	154.35	12.60	-38.1	-39.9	15.5	0.00e+00	0	57	0	1832910848	47	4532
2026-01-05 22:44:28.55	154.46	12.51	-38.1	-39.9	15.6	0.00e+00	0	57	0	1835008000	47	4519
2026-01-05 22:44:29.56	154.57	12.43	-38.1	-39.9	15.5	0.00e+00	0	57	0	1838153728	47	4527
2026-01-05 22:44:30.58	154.67	12.35	-38.0	-39.8	15.6	0.00e+00	0	57	0	1841299456	47	4475
2026-01-05 22:44:31.59	154.78	12.27	-38.0	-39.9	15.6	0.00e+00	0	57	0	1844445184	47	4497
2026-01-05 22:44:32.59	154.88	12.18	-38.0	-39.8	15.6	0.00e+00	0	57	0	1847590912	47	4484
2026-01-05 22:44:33.60	154.98	12.10	-38.1	-39.9	15.5	0.00e+00	0	57	0	1851785216	47	4518
2026-01-05 22:44:34.61	155.09	12.02	-38.0	-39.9	15.6	0.00e+00	0	57	0	1854930944	47	4494
2026-01-05 22:44:35.62	155.19	11.94	-37.9	-39.7	15.7	0.00e+00	0	57	0	1857028096	47	4425
2026-01-05 22:44:36.63	155.29	11.86	-38.0	-39.8	15.7	0.00e+00	0	57	0	1860173824	47	4447
2026-01-05 22:44:37.64	155.40	11.78	-38.0	-39.9	15.5	0.00e+00	0	57	0	1863319552	47	4502
2026-01-05 22:44:38.65	155.50	11.70	-37.9	-39.6	15.8	0.00e+00	0	57	0	1867513856	47	4384
2026-01-05 22:44:39.66	155.60	11.62	-37.9	-39.7	15.7	0.00e+00	0	57	0	1870659584	47	4394
2026-01-05 22:44:40.67	155.70	11.54	-37.9	-39.7	15.7	0.00e+00	0	57	0	1873805312	47	4407
2026-01-05 22:44:41.68	155.80	11.46	-37.9	-39.7	15.7	0.00e+00	0	57	0	1876951040	47	4423
2026-01-05 22:44:42.69	155.90	11.38	-38.0	-39.9	15.5	0.00e+00	0	57	0	1880096768	47	4498
2026-01-05 22:44:43.70	156.00	11.30	-38.0	-39.8	15.5	0.00e+00	0	57	0	1883242496	47	4486
2026-01-05 22:44:44.71	156.09	11.22	-38.0	-39.9	15.5	0.00e+00	0	57	0	1886388224	47	4497
2026-01-05 22:44:45.72	156.19	11.14	-38.0	-39.9	15.5	0.00e+00	0	57	0	1889533952	47	4494
2026-01-05 22:44:46.73	156.29	11.06	-38.0	-39.8	15.5	7.00e-07	0	56	0	1892679680	47	4487
2026-01-05 22:44:47.74	156.39	10.98	-38.1	-39.9	15.4	0.00e+00	0	57	0	1895825408	47	4519
2026-01-05 22:44:48.75	156.48	10.90	-38.1	-40.0	15.3	7.00e-07	0	57	0	1898971136	47	4572
2026-01-05 22:44:49.76	156.58	10.82	-38.3	-40.2	15.1	0.00e+00	0	57	0	1902116864	47	4655
2026-01-05 22:44:50.77	156.67	10.74	-38.2	-40.1	15.2	0.00e+00	0	57	0	1905262592	47	4609
2026-01-05 22:44:51.78	156.77	10.67	-38.2	-40.1	15.2	0.00e+00	0	57	0	1908408320	47	4620
2026-01-05 22:44:52.79	156.86	10.59	-38.4	-40.4	14.9	0.00e+00	0	57	0	1911554048	47	4765
2026-01-05 22:44:53.80	156.95	10.51	-38.3	-40.2	15.1	0.00e+00	0	57	0	1914699776	47	4679
2026-01-05 22:44:54.81	157.05	10.43	-38.3	-40.2	15.0	0.00e+00	0	57	0	1917845504	47	4692
2026-01-05 22:44:55.82	157.14	10.36	-38.4	-40.3	15.0	0.00e+00	0	56	0	1920991232	47	4742
2026-01-05 22:44:56.83	157.23	10.28	-38.4	-40.3	14.9	0.00e+00	0	57	0	1924136960	47	4753
2026-01-05 22:44:57.84	157.32	10.20	-38.4	-40.4	14.8	0.00e+00	0	57	0	1927282688	47	4790
