passes_logs/2026/01/05/R2.0S_Moscow/R2.0S_Moscow__20260105_111410_NOAA_20_JPSS-1_rec.log

#Pass ID: 20260105_111410_NOAA 20 (JPSS-1)
#Satellite: NOAA 20 (JPSS-1)
#Configuration: NOAA 20
#almurnet v.1.7.20251203
#Start time: 2026-01-05 11:14:10

#Version: 2.2.20231116
#Station: R2.0S_Moscow
#Location: 37.707566 lon 55.798166 lat
#TLE: 1 43013U 17073A   26004.47528369  .00000132  00000+0  83671-4 0  9999
#TLE: 2 43013  98.7626 305.5264 0001854  54.5883 305.5466 14.19533142421242

#Time	Az	El	Level	Level2	SNR	BER	BlckErr	Temp	State	Recorded	gain1	gain2
2026-01-05 11:14:10.96	200.20	2.02	-43.9	-58.4	3.8	1.49e+00	0	47	0	0	59	19098
2026-01-05 11:14:11.97	200.26	2.07	-43.9	-58.4	3.8	1.49e+00	0	48	104	0	59	19153
2026-01-05 11:14:12.98	200.33	2.13	-43.9	-58.4	3.8	1.49e+00	0	48	104	0	59	19125
2026-01-05 11:14:13.99	200.39	2.19	-43.9	-58.4	3.8	1.49e+00	0	48	104	0	59	19128
2026-01-05 11:14:15.00	200.45	2.25	-43.9	-58.4	3.8	1.49e+00	0	48	104	0	59	19119
2026-01-05 11:14:16.01	200.52	2.31	-43.9	-58.4	3.8	1.49e+00	0	48	104	0	59	19084
2026-01-05 11:14:17.02	200.58	2.37	-43.9	-58.4	3.8	1.49e+00	0	48	104	0	59	19144
2026-01-05 11:14:18.03	200.64	2.42	-43.9	-58.4	3.8	1.49e+00	0	48	104	0	59	19133
2026-01-05 11:14:19.04	200.71	2.48	-43.9	-58.4	3.8	1.49e+00	0	48	104	0	59	19076
2026-01-05 11:14:20.05	200.77	2.54	-43.9	-58.4	3.8	1.49e+00	0	48	104	0	59	19112
2026-01-05 11:14:21.06	200.84	2.60	-43.9	-58.4	3.8	1.49e+00	0	48	104	0	59	19110
2026-01-05 11:14:22.07	200.90	2.66	-43.9	-58.4	3.8	1.49e+00	0	48	104	0	59	19086
2026-01-05 11:14:23.08	200.97	2.72	-43.9	-58.4	3.8	1.49e+00	0	48	104	0	59	19125
2026-01-05 11:14:24.09	201.03	2.78	-43.9	-58.4	3.8	1.49e+00	0	48	104	0	59	19128
2026-01-05 11:14:25.10	201.10	2.84	-43.9	-58.4	3.8	1.49e+00	0	49	104	0	59	19118
2026-01-05 11:14:26.12	201.17	2.90	-43.9	-58.4	3.8	1.49e+00	0	49	104	0	59	19118
2026-01-05 11:14:27.13	201.23	2.96	-43.9	-58.4	3.8	1.49e+00	0	49	104	0	59	19120
2026-01-05 11:14:28.14	201.30	3.02	-43.9	-58.4	3.8	1.49e+00	0	49	104	0	59	19129
2026-01-05 11:14:29.15	201.37	3.08	-43.9	-58.4	3.8	1.49e+00	0	49	104	0	59	19093
2026-01-05 11:14:30.16	201.43	3.14	-43.9	-58.4	3.8	1.49e+00	0	49	104	0	59	19147
2026-01-05 11:14:31.17	201.50	3.20	-43.9	-58.4	3.8	1.49e+00	0	49	104	0	59	19106
2026-01-05 11:14:32.18	201.57	3.26	-43.9	-58.4	3.8	1.49e+00	0	49	104	0	59	19073
2026-01-05 11:14:33.19	201.63	3.32	-43.9	-58.4	3.8	1.49e+00	0	49	104	0	59	19101
2026-01-05 11:14:34.20	201.70	3.38	-43.9	-58.4	3.8	1.49e+00	0	49	104	0	59	19086
2026-01-05 11:14:35.21	201.77	3.44	-43.9	-58.4	3.8	1.49e+00	0	49	104	0	59	19077
2026-01-05 11:14:36.22	201.84	3.50	-43.9	-58.4	3.8	1.49e+00	0	49	104	0	59	19093
2026-01-05 11:14:37.23	201.91	3.56	-43.9	-58.4	3.8	1.49e+00	0	49	104	0	59	19065
2026-01-05 11:14:38.25	201.98	3.62	-43.9	-58.4	3.8	1.49e+00	0	49	104	0	59	19118
2026-01-05 11:14:39.26	202.05	3.68	-43.9	-58.4	3.8	1.49e+00	0	49	104	0	59	19084
2026-01-05 11:14:40.27	202.12	3.74	-43.9	-58.4	3.8	1.49e+00	0	49	104	0	59	19125
2026-01-05 11:14:41.28	202.19	3.80	-43.9	-58.4	3.8	1.49e+00	0	50	104	0	59	19089
2026-01-05 11:14:42.29	202.26	3.87	-43.9	-58.4	3.8	1.49e+00	0	50	104	0	59	19123
2026-01-05 11:14:43.30	202.33	3.93	-43.9	-58.4	3.8	1.49e+00	0	49	104	0	59	19065
2026-01-05 11:14:44.31	202.40	3.99	-43.9	-58.4	3.8	1.49e+00	0	50	104	0	59	19148
2026-01-05 11:14:45.32	202.47	4.05	-43.9	-58.4	3.8	1.49e+00	0	50	104	0	59	19126
2026-01-05 11:14:46.33	202.54	4.11	-43.9	-58.4	3.8	1.49e+00	0	50	104	0	59	19066
2026-01-05 11:14:47.34	202.61	4.17	-43.9	-58.4	3.8	1.49e+00	0	50	104	0	59	19089
2026-01-05 11:14:48.36	202.69	4.24	-43.9	-58.4	3.8	1.49e+00	0	50	104	0	59	19100
2026-01-05 11:14:49.37	202.76	4.30	-43.9	-58.4	3.8	1.49e+00	0	50	104	0	59	19133
2026-01-05 11:14:50.38	202.83	4.36	-43.9	-58.4	3.8	1.49e+00	0	50	104	0	59	19111
2026-01-05 11:14:51.39	202.90	4.42	-43.9	-58.4	3.8	1.49e+00	0	50	104	0	59	19116
2026-01-05 11:14:52.40	202.98	4.48	-43.9	-58.4	3.8	1.49e+00	0	50	104	0	59	19091
2026-01-05 11:14:53.41	203.05	4.55	-43.9	-58.4	3.8	1.49e+00	0	50	104	0	59	19114
2026-01-05 11:14:54.42	203.12	4.61	-43.9	-58.4	3.8	1.49e+00	0	50	104	0	59	19088
2026-01-05 11:14:55.43	203.20	4.67	-43.9	-58.4	3.8	1.49e+00	0	50	104	0	59	19096
2026-01-05 11:14:56.44	203.27	4.73	-43.9	-58.4	3.8	1.49e+00	0	50	104	0	59	19113
2026-01-05 11:14:57.45	203.35	4.80	-43.9	-58.4	3.8	1.49e+00	0	50	104	0	59	19090
2026-01-05 11:14:58.47	203.42	4.86	-43.9	-58.4	3.8	1.49e+00	0	51	104	0	59	19062
2026-01-05 11:14:59.48	203.50	4.92	-43.9	-58.4	3.8	1.49e+00	0	51	104	0	59	19054
2026-01-05 11:15:00.49	203.57	4.99	-43.9	-58.4	3.8	1.49e+00	0	51	104	0	59	19099
2026-01-05 11:15:01.50	203.65	5.05	-43.9	-58.4	3.8	1.49e+00	0	51	104	0	59	19038
2026-01-05 11:15:02.51	203.73	5.11	-43.9	-58.4	3.8	1.49e+00	0	51	104	0	59	19023
2026-01-05 11:15:03.52	203.80	5.18	-43.9	-58.4	3.8	1.49e+00	0	51	104	0	59	19068
2026-01-05 11:15:04.53	203.88	5.24	-43.9	-58.4	3.8	1.49e+00	0	51	104	0	59	19086
2026-01-05 11:15:05.54	203.96	5.30	-43.9	-58.4	3.8	1.49e+00	0	51	104	0	59	19087
2026-01-05 11:15:06.56	204.03	5.37	-43.9	-58.4	3.8	1.49e+00	0	51	104	0	59	19067
2026-01-05 11:15:07.57	204.11	5.43	-43.9	-58.3	3.8	1.49e+00	0	51	104	0	59	18870
2026-01-05 11:15:08.58	204.19	5.50	-43.9	-58.2	3.8	1.49e+00	0	51	104	0	59	18710
2026-01-05 11:15:09.59	204.27	5.56	-43.9	-58.1	3.8	1.49e+00	0	51	104	0	59	18478
2026-01-05 11:15:10.60	204.35	5.62	-43.9	-57.8	3.8	1.49e+00	0	51	104	0	59	17822
2026-01-05 11:15:11.61	204.43	5.69	-43.8	-57.7	3.8	1.49e+00	0	51	104	0	59	17592
2026-01-05 11:15:12.62	204.51	5.75	-43.8	-57.5	3.8	1.49e+00	0	51	104	0	59	17138
2026-01-05 11:15:13.63	204.59	5.82	-43.8	-57.3	3.8	1.49e+00	0	51	104	0	59	16877
2026-01-05 11:15:14.64	204.67	5.88	-43.8	-57.2	3.8	1.49e+00	0	51	104	0	59	16547
2026-01-05 11:15:15.66	204.75	5.95	-43.8	-57.2	3.8	1.49e+00	0	51	104	0	59	16644
2026-01-05 11:15:16.67	204.83	6.01	-43.8	-57.2	3.8	1.49e+00	0	51	104	0	59	16522
2026-01-05 11:15:17.68	204.91	6.08	-43.8	-57.3	3.8	1.49e+00	0	51	104	0	59	16791
2026-01-05 11:15:18.69	204.99	6.14	-43.8	-57.6	3.8	1.49e+00	0	52	104	0	59	17331
2026-01-05 11:15:19.70	205.07	6.21	-43.9	-57.8	3.8	1.49e+00	0	51	104	0	59	17765
2026-01-05 11:15:20.71	205.16	6.27	-43.9	-58.0	3.8	1.49e+00	0	52	104	0	59	18149
2026-01-05 11:15:21.72	205.24	6.34	-43.9	-57.9	3.8	1.49e+00	0	52	104	0	59	18028
2026-01-05 11:15:22.73	205.32	6.40	-43.8	-57.6	3.8	1.49e+00	0	52	104	0	59	17427
2026-01-05 11:15:23.74	205.40	6.47	-43.9	-57.8	3.8	1.49e+00	0	52	104	0	59	17788
2026-01-05 11:15:24.75	205.49	6.54	-43.9	-57.9	3.8	1.49e+00	0	52	104	0	59	17993
2026-01-05 11:15:25.76	205.57	6.60	-43.9	-57.8	3.8	1.49e+00	0	52	104	0	59	17787
2026-01-05 11:15:26.77	205.66	6.67	-43.8	-57.6	3.8	1.49e+00	0	52	104	0	59	17366
2026-01-05 11:15:27.78	205.74	6.73	-43.8	-57.5	3.8	1.49e+00	0	52	104	0	59	17252
2026-01-05 11:15:28.79	205.83	6.80	-43.8	-57.2	3.8	1.49e+00	0	52	104	0	59	16666
2026-01-05 11:15:29.81	205.91	6.87	-43.8	-56.8	3.8	1.49e+00	0	52	104	0	59	15833
2026-01-05 11:15:30.82	206.00	6.93	-43.8	-56.2	3.8	1.49e+00	0	52	104	0	59	14741
2026-01-05 11:15:31.83	206.08	7.00	-43.7	-55.0	4.1	1.46e+00	0	52	0	0	59	12937
2026-01-05 11:15:32.84	206.17	7.07	-43.6	-53.9	4.5	1.24e+00	14	52	0	0	59	11402
2026-01-05 11:15:33.85	206.26	7.13	-43.4	-52.7	5.1	7.91e-01	0	52	0	2097152	58	10471
2026-01-05 11:15:34.86	206.35	7.20	-43.2	-51.5	5.9	4.83e-01	0	52	0	4194304	58	9085
2026-01-05 11:15:35.87	206.43	7.27	-43.0	-50.1	7.0	1.89e-01	0	52	0	6291456	58	7804
2026-01-05 11:15:36.88	206.52	7.33	-42.7	-48.9	8.2	8.35e-02	0	52	0	7340032	57	7175
2026-01-05 11:15:37.90	206.61	7.40	-42.4	-48.1	9.1	3.75e-02	0	52	0	9437184	56	6882
2026-01-05 11:15:38.91	206.70	7.47	-42.1	-47.2	9.9	1.56e-02	0	52	0	11534336	56	6265
2026-01-05 11:15:39.92	206.79	7.54	-41.6	-46.1	10.9	3.21e-03	0	52	0	13631488	55	5826
2026-01-05 11:15:40.93	206.88	7.61	-41.3	-45.5	11.6	1.02e-03	0	52	0	15728640	54	5772
2026-01-05 11:15:41.94	206.97	7.67	-41.1	-45.0	12.1	6.06e-04	0	52	0	16777216	54	5448
2026-01-05 11:15:42.95	207.06	7.74	-40.8	-44.4	12.7	1.22e-04	0	53	0	18874368	53	5385
2026-01-05 11:15:43.96	207.15	7.81	-40.7	-44.4	12.8	7.01e-05	0	52	0	20971520	53	5343
2026-01-05 11:15:44.97	207.24	7.88	-40.6	-44.1	13.0	4.65e-05	0	52	0	23068672	53	5203
2026-01-05 11:15:45.98	207.33	7.95	-40.7	-44.3	12.8	5.87e-05	0	53	0	25165824	53	5322
2026-01-05 11:15:46.99	207.43	8.01	-40.7	-44.3	12.9	5.11e-05	0	53	0	26214400	53	5292
2026-01-05 11:15:48.00	207.52	8.08	-40.8	-44.3	12.9	3.58e-05	0	52	0	28311552	53	5308
2026-01-05 11:15:49.01	207.61	8.15	-41.6	-45.9	11.3	7.44e-04	0	52	0	30408704	53	6405
2026-01-05 11:15:50.02	207.71	8.22	-42.7	-50.1	6.9	4.65e-03	0	52	0	32505856	55	9231
2026-01-05 11:15:51.03	207.80	8.29	-43.4	-54.8	4.2	2.75e-01	0	53	0	33554432	57	14068
2026-01-05 11:15:52.04	207.89	8.36	-42.0	-47.0	10.2	1.84e-01	0	53	0	35651584	54	6860
2026-01-05 11:15:53.04	207.99	8.43	-40.5	-43.7	13.5	3.20e-05	0	53	0	37748736	52	5275
2026-01-05 11:15:54.05	208.08	8.50	-40.4	-43.7	13.6	6.10e-06	0	53	0	39845888	52	5243
2026-01-05 11:15:55.06	208.18	8.57	-40.4	-43.6	13.7	6.80e-06	0	53	0	40894464	52	5177
2026-01-05 11:15:56.07	208.28	8.64	-40.4	-43.6	13.7	9.90e-06	0	53	0	42991616	52	5190
2026-01-05 11:15:57.08	208.37	8.71	-40.4	-43.6	13.7	3.00e-06	0	53	0	45088768	52	5216
2026-01-05 11:15:58.09	208.47	8.78	-40.4	-43.6	13.7	4.50e-06	0	53	0	47185920	52	5216
2026-01-05 11:15:59.10	208.57	8.85	-40.4	-43.7	13.7	1.06e-05	0	53	0	49283072	52	5235
2026-01-05 11:16:00.11	208.66	8.92	-40.4	-43.6	13.8	2.20e-06	0	53	0	50331648	52	5165
2026-01-05 11:16:01.12	208.76	8.99	-40.5	-43.7	13.7	2.20e-06	0	53	0	52428800	52	5252
2026-01-05 11:16:02.13	208.86	9.06	-40.4	-43.5	13.8	2.20e-06	0	53	0	54525952	52	5143
2026-01-05 11:16:03.14	208.96	9.13	-40.4	-43.5	13.8	2.20e-06	0	53	0	56623104	52	5155
2026-01-05 11:16:04.15	209.06	9.20	-40.4	-43.5	13.8	1.50e-06	0	53	0	58720256	52	5150
2026-01-05 11:16:05.16	209.16	9.27	-40.4	-43.6	13.8	1.50e-06	0	53	0	59768832	52	5171
2026-01-05 11:16:06.17	209.26	9.34	-40.3	-43.5	13.9	3.00e-06	0	53	0	61865984	52	5119
2026-01-05 11:16:07.18	209.36	9.41	-40.4	-43.5	13.9	5.30e-06	0	53	0	63963136	52	5122
2026-01-05 11:16:08.19	209.46	9.48	-40.4	-43.5	13.9	4.50e-06	0	53	0	66060288	52	5137
2026-01-05 11:16:09.20	209.57	9.55	-40.3	-43.4	14.0	5.30e-06	0	53	0	68157440	52	5098
2026-01-05 11:16:10.20	209.67	9.62	-40.4	-43.6	13.8	3.00e-06	0	53	0	70254592	52	5173
2026-01-05 11:16:11.21	209.77	9.69	-40.4	-43.6	13.9	2.20e-06	0	53	0	71303168	52	5176
2026-01-05 11:16:12.22	209.87	9.77	-40.4	-43.6	13.9	3.00e-06	0	53	0	73400320	52	5182
2026-01-05 11:16:13.23	209.98	9.84	-40.4	-43.6	13.9	4.50e-06	0	53	0	75497472	52	5176
2026-01-05 11:16:14.24	210.08	9.91	-40.4	-43.5	14.0	1.50e-06	0	53	0	77594624	52	5101
2026-01-05 11:16:15.25	210.19	9.98	-40.4	-43.4	14.0	5.30e-06	0	53	0	79691776	52	5100
2026-01-05 11:16:16.26	210.29	10.05	-40.4	-43.4	14.1	2.20e-06	0	53	0	80740352	52	5100
2026-01-05 11:16:17.27	210.40	10.13	-40.4	-43.4	14.1	1.50e-06	0	53	0	82837504	52	5082
2026-01-05 11:16:18.28	210.51	10.20	-40.3	-43.3	14.2	0.00e+00	0	53	0	84934656	52	5021
2026-01-05 11:16:19.29	210.61	10.27	-40.3	-43.3	14.2	2.20e-06	0	54	0	87031808	52	5016
2026-01-05 11:16:20.30	210.72	10.34	-40.3	-43.3	14.2	7.00e-07	0	53	0	89128960	52	5014
2026-01-05 11:16:21.31	210.83	10.42	-40.2	-43.2	14.4	2.20e-06	0	53	0	90177536	52	4931
2026-01-05 11:16:22.32	210.94	10.49	-40.2	-43.2	14.4	7.00e-07	0	53	0	92274688	52	4945
2026-01-05 11:16:23.32	211.05	10.56	-40.1	-43.0	14.6	0.00e+00	0	54	0	94371840	52	4841
2026-01-05 11:16:24.33	211.15	10.63	-40.1	-43.0	14.6	0.00e+00	0	54	0	96468992	52	4831
2026-01-05 11:16:25.34	211.27	10.71	-40.2	-43.0	14.6	1.50e-06	0	54	0	98566144	52	4850
2026-01-05 11:16:26.35	211.38	10.78	-40.1	-43.0	14.6	0.00e+00	0	54	0	99614720	52	4849
2026-01-05 11:16:27.36	211.49	10.85	-40.1	-43.0	14.6	7.00e-07	0	54	0	101711872	52	4836
2026-01-05 11:16:28.37	211.60	10.93	-40.1	-43.0	14.7	0.00e+00	0	54	0	103809024	52	4823
2026-01-05 11:16:29.38	211.71	11.00	-40.2	-43.1	14.6	0.00e+00	0	54	0	105906176	52	4881
2026-01-05 11:16:30.39	211.82	11.08	-40.1	-43.0	14.7	0.00e+00	0	53	0	108003328	52	4824
2026-01-05 11:16:31.40	211.94	11.15	-40.2	-43.0	14.6	0.00e+00	0	54	0	109051904	52	4856
2026-01-05 11:16:32.41	212.05	11.22	-40.1	-42.9	14.7	0.00e+00	0	54	0	111149056	52	4810
2026-01-05 11:16:33.42	212.17	11.30	-40.2	-43.1	14.6	1.50e-06	0	54	0	113246208	52	4882
2026-01-05 11:16:34.43	212.28	11.37	-40.2	-43.1	14.6	0.00e+00	0	54	0	115343360	52	4892
2026-01-05 11:16:35.44	212.40	11.45	-40.2	-43.0	14.6	0.00e+00	0	54	0	117440512	52	4852
2026-01-05 11:16:36.45	212.51	11.52	-40.2	-43.1	14.6	0.00e+00	0	54	0	118489088	52	4890
2026-01-05 11:16:37.46	212.63	11.60	-40.3	-43.2	14.5	0.00e+00	0	54	0	120586240	52	4930
2026-01-05 11:16:38.47	212.75	11.67	-40.3	-43.2	14.5	7.00e-07	0	54	0	122683392	52	4961
2026-01-05 11:16:39.48	212.87	11.75	-40.3	-43.2	14.5	7.00e-07	0	54	0	124780544	52	4946
2026-01-05 11:16:40.49	212.98	11.82	-40.4	-43.3	14.4	0.00e+00	0	54	0	126877696	52	4994
2026-01-05 11:16:41.50	213.10	11.90	-40.4	-43.3	14.4	0.00e+00	0	54	0	127926272	52	5036
2026-01-05 11:16:42.51	213.22	11.97	-40.4	-43.3	14.4	0.00e+00	0	54	0	130023424	52	5011
2026-01-05 11:16:43.52	213.34	12.05	-40.4	-43.4	14.3	0.00e+00	0	54	0	132120576	52	5047
2026-01-05 11:16:44.53	213.46	12.12	-40.3	-43.2	14.5	2.20e-06	0	54	0	134217728	52	4968
2026-01-05 11:16:45.54	213.59	12.20	-40.3	-43.1	14.6	0.00e+00	0	54	0	136314880	52	4924
2026-01-05 11:16:46.55	213.71	12.28	-40.3	-43.2	14.6	7.00e-07	0	54	0	138412032	52	4930
2026-01-05 11:16:47.56	213.83	12.35	-40.2	-43.0	14.7	7.00e-07	0	54	0	139460608	52	4862
2026-01-05 11:16:48.57	213.95	12.43	-40.2	-43.0	14.7	0.00e+00	0	54	0	141557760	52	4858
2026-01-05 11:16:49.58	214.08	12.50	-40.2	-42.9	14.8	0.00e+00	0	54	0	143654912	52	4809
2026-01-05 11:16:50.59	214.20	12.58	-40.1	-42.9	14.9	0.00e+00	0	54	0	145752064	52	4778
2026-01-05 11:16:51.60	214.33	12.66	-40.1	-42.9	14.9	0.00e+00	0	54	0	147849216	52	4761
2026-01-05 11:16:52.60	214.45	12.73	-40.2	-42.9	14.9	0.00e+00	0	54	0	148897792	52	4797
2026-01-05 11:16:53.61	214.58	12.81	-40.1	-42.9	14.9	0.00e+00	0	54	0	150994944	52	4789
2026-01-05 11:16:54.62	214.71	12.89	-40.1	-42.9	14.9	7.00e-07	0	54	0	153092096	52	4771
2026-01-05 11:16:55.63	214.83	12.96	-40.2	-42.9	14.9	7.00e-07	0	54	0	155189248	52	4809
2026-01-05 11:16:56.64	214.96	13.04	-40.2	-42.9	14.9	7.00e-07	0	54	0	157286400	52	4801
2026-01-05 11:16:57.65	215.09	13.12	-40.1	-42.8	15.0	0.00e+00	0	54	0	158334976	52	4754
2026-01-05 11:16:58.66	215.22	13.19	-40.1	-42.8	14.9	0.00e+00	0	54	0	160432128	52	4748
2026-01-05 11:16:59.67	215.35	13.27	-40.1	-42.8	15.0	0.00e+00	0	54	0	162529280	52	4741
2026-01-05 11:17:00.68	215.48	13.35	-40.1	-42.8	15.0	0.00e+00	0	54	0	164626432	52	4726
2026-01-05 11:17:01.69	215.61	13.43	-40.1	-42.8	15.0	1.50e-06	0	54	0	166723584	52	4708
2026-01-05 11:17:02.70	215.75	13.50	-40.1	-42.8	15.0	0.00e+00	0	54	0	167772160	52	4728
2026-01-05 11:17:03.71	215.88	13.58	-40.0	-42.7	15.1	0.00e+00	0	54	0	169869312	52	4671
2026-01-05 11:17:04.72	216.01	13.66	-40.1	-42.8	15.0	7.00e-07	0	54	0	171966464	52	4721
2026-01-05 11:17:05.73	216.15	13.74	-40.1	-42.8	15.1	7.00e-07	0	54	0	174063616	52	4714
2026-01-05 11:17:06.73	216.28	13.82	-40.1	-42.8	15.0	0.00e+00	0	54	0	176160768	52	4723
2026-01-05 11:17:07.74	216.42	13.89	-40.0	-42.7	15.1	0.00e+00	0	54	0	177209344	52	4687
2026-01-05 11:17:08.75	216.55	13.97	-40.2	-43.0	14.9	0.00e+00	0	54	0	179306496	52	4818
2026-01-05 11:17:09.77	216.69	14.05	-40.2	-42.9	14.9	0.00e+00	0	54	0	181403648	52	4789
2026-01-05 11:17:10.77	216.83	14.13	-40.3	-43.2	14.7	0.00e+00	0	54	0	183500800	52	4931
2026-01-05 11:17:11.78	216.97	14.21	-40.4	-43.2	14.6	0.00e+00	0	55	0	185597952	52	4956
2026-01-05 11:17:12.79	217.11	14.29	-40.3	-43.2	14.7	7.00e-07	0	54	0	186646528	52	4931
2026-01-05 11:17:13.80	217.25	14.37	-40.4	-43.2	14.6	7.00e-07	0	54	0	188743680	52	4972
2026-01-05 11:17:14.81	217.39	14.44	-40.4	-43.2	14.7	0.00e+00	0	54	0	190840832	52	4958
2026-01-05 11:17:15.82	217.53	14.52	-40.4	-43.3	14.6	0.00e+00	0	54	0	192937984	52	4986
2026-01-05 11:17:16.83	217.67	14.60	-40.3	-43.1	14.8	0.00e+00	0	55	0	195035136	52	4879
2026-01-05 11:17:17.84	217.81	14.68	-40.2	-43.0	14.9	0.00e+00	0	54	0	196083712	52	4834
2026-01-05 11:17:18.85	217.96	14.76	-40.2	-42.9	15.1	7.00e-07	0	54	0	198180864	52	4762
2026-01-05 11:17:19.86	218.10	14.84	-40.2	-42.9	15.0	0.00e+00	0	55	0	200278016	52	4792
2026-01-05 11:17:20.86	218.25	14.92	-40.2	-42.9	15.0	0.00e+00	0	54	0	202375168	52	4775
2026-01-05 11:17:21.87	218.39	15.00	-40.2	-42.9	15.0	0.00e+00	0	54	0	204472320	52	4796
2026-01-05 11:17:22.88	218.54	15.08	-40.2	-42.9	15.0	0.00e+00	0	54	0	206569472	52	4813
2026-01-05 11:17:23.90	218.69	15.16	-40.2	-43.0	15.0	0.00e+00	0	55	0	207618048	52	4818
2026-01-05 11:17:24.90	218.84	15.24	-40.2	-43.0	15.0	0.00e+00	0	55	0	209715200	52	4823
2026-01-05 11:17:25.91	218.98	15.32	-40.2	-43.0	15.0	0.00e+00	0	54	0	211812352	52	4817
2026-01-05 11:17:26.92	219.13	15.40	-40.2	-42.9	15.0	7.00e-07	0	55	0	213909504	52	4801
2026-01-05 11:17:27.93	219.28	15.48	-40.2	-42.9	15.0	0.00e+00	0	55	0	216006656	52	4782
2026-01-05 11:17:28.94	219.44	15.56	-40.2	-42.9	15.1	7.00e-07	0	55	0	217055232	52	4789
2026-01-05 11:17:29.95	219.59	15.64	-40.1	-42.8	15.2	0.00e+00	0	55	0	219152384	52	4715
2026-01-05 11:17:30.96	219.74	15.72	-40.1	-42.7	15.3	0.00e+00	0	55	0	221249536	52	4676
2026-01-05 11:17:31.97	219.89	15.80	-40.0	-42.6	15.3	0.00e+00	0	55	0	223346688	52	4648
2026-01-05 11:17:32.98	220.05	15.88	-40.0	-42.6	15.4	0.00e+00	0	55	0	225443840	52	4622
2026-01-05 11:17:33.99	220.20	15.96	-40.0	-42.6	15.4	7.00e-07	0	55	0	226492416	52	4621
2026-01-05 11:17:35.00	220.36	16.04	-40.0	-42.6	15.4	0.00e+00	0	55	0	228589568	52	4632
2026-01-05 11:17:36.01	220.52	16.12	-40.0	-42.6	15.4	0.00e+00	0	55	0	230686720	52	4641
2026-01-05 11:17:37.02	220.68	16.20	-40.0	-42.6	15.4	0.00e+00	0	55	0	232783872	52	4635
2026-01-05 11:17:38.03	220.83	16.28	-40.0	-42.6	15.4	0.00e+00	0	55	0	234881024	52	4605
2026-01-05 11:17:39.04	220.99	16.36	-40.0	-42.5	15.5	0.00e+00	0	55	0	235929600	51	4869
2026-01-05 11:17:40.05	221.15	16.45	-40.0	-42.6	15.4	0.00e+00	0	55	0	238026752	51	4889
2026-01-05 11:17:41.06	221.32	16.53	-40.0	-42.5	15.5	0.00e+00	0	55	0	240123904	51	4860
2026-01-05 11:17:42.06	221.48	16.61	-40.0	-42.6	15.5	0.00e+00	0	55	0	242221056	51	4873
2026-01-05 11:17:43.07	221.64	16.69	-40.0	-42.5	15.6	0.00e+00	0	55	0	244318208	51	4824
2026-01-05 11:17:44.08	221.80	16.77	-39.9	-42.4	15.7	0.00e+00	0	55	0	245366784	51	4793
2026-01-05 11:17:45.09	221.97	16.85	-39.9	-42.4	15.7	0.00e+00	0	55	0	247463936	51	4777
2026-01-05 11:17:46.10	222.13	16.93	-39.9	-42.3	15.8	0.00e+00	0	55	0	249561088	51	4755
2026-01-05 11:17:47.11	222.30	17.01	-39.8	-42.2	15.9	0.00e+00	0	55	0	251658240	51	4688
2026-01-05 11:17:48.12	222.47	17.09	-39.8	-42.2	15.9	0.00e+00	0	55	0	253755392	51	4663
2026-01-05 11:17:49.13	222.63	17.18	-39.8	-42.2	15.9	0.00e+00	0	55	0	254803968	51	4659
2026-01-05 11:17:50.14	222.80	17.26	-39.7	-42.1	15.9	0.00e+00	0	55	0	256901120	51	4644
2026-01-05 11:17:51.15	222.97	17.34	-39.8	-42.2	15.9	0.00e+00	0	55	0	258998272	51	4695
2026-01-05 11:17:52.16	223.14	17.42	-39.8	-42.2	15.8	0.00e+00	0	55	0	261095424	51	4701
2026-01-05 11:17:53.17	223.31	17.50	-39.8	-42.3	15.8	0.00e+00	0	55	0	263192576	51	4728
2026-01-05 11:17:54.18	223.49	17.58	-39.8	-42.2	15.9	0.00e+00	0	55	0	264241152	51	4695
2026-01-05 11:17:55.19	223.66	17.66	-39.8	-42.2	15.9	0.00e+00	0	55	0	266338304	51	4701
2026-01-05 11:17:56.20	223.84	17.75	-39.8	-42.3	15.8	0.00e+00	0	55	0	268435456	51	4728
2026-01-05 11:17:57.21	224.01	17.83	-39.9	-42.3	15.8	0.00e+00	0	55	0	270532608	51	4736
2026-01-05 11:17:58.22	224.19	17.91	-39.8	-42.3	15.8	0.00e+00	0	55	0	272629760	51	4723
2026-01-05 11:17:59.23	224.36	17.99	-39.8	-42.2	15.9	0.00e+00	0	55	0	274726912	51	4686
2026-01-05 11:18:00.24	224.54	18.07	-39.8	-42.3	15.8	0.00e+00	0	55	0	275775488	51	4720
2026-01-05 11:18:01.25	224.72	18.15	-39.7	-42.1	16.0	0.00e+00	0	55	0	277872640	51	4642
2026-01-05 11:18:02.26	224.90	18.24	-39.8	-42.2	15.9	0.00e+00	0	55	0	279969792	51	4693
2026-01-05 11:18:03.27	225.08	18.32	-39.8	-42.2	15.9	0.00e+00	0	55	0	282066944	51	4656
2026-01-05 11:18:04.28	225.26	18.40	-39.7	-42.1	16.0	0.00e+00	0	55	0	284164096	51	4627
2026-01-05 11:18:05.29	225.45	18.48	-39.7	-42.1	16.0	0.00e+00	0	55	0	285212672	51	4623
2026-01-05 11:18:06.30	225.63	18.56	-39.7	-42.1	16.1	0.00e+00	0	55	0	287309824	51	4613
2026-01-05 11:18:07.31	225.81	18.64	-39.6	-42.0	16.1	0.00e+00	0	55	0	289406976	51	4554
2026-01-05 11:18:08.32	226.00	18.72	-39.6	-41.9	16.2	0.00e+00	0	55	0	291504128	51	4511
2026-01-05 11:18:09.33	226.19	18.81	-39.5	-41.8	16.3	0.00e+00	0	55	0	293601280	51	4455
2026-01-05 11:18:10.34	226.37	18.89	-39.5	-41.8	16.3	0.00e+00	0	55	0	294649856	51	4475
2026-01-05 11:18:11.34	226.56	18.97	-39.5	-41.8	16.3	0.00e+00	0	55	0	296747008	50	4724
2026-01-05 11:18:12.36	226.75	19.05	-39.5	-41.7	16.4	0.00e+00	0	55	0	298844160	50	4705
2026-01-05 11:18:13.37	226.94	19.13	-39.5	-41.7	16.4	0.00e+00	0	55	0	300941312	50	4701
2026-01-05 11:18:14.38	227.13	19.21	-39.4	-41.7	16.5	0.00e+00	0	55	0	303038464	50	4654
2026-01-05 11:18:15.39	227.33	19.29	-39.5	-41.7	16.4	0.00e+00	0	55	0	304087040	50	4683
2026-01-05 11:18:16.40	227.52	19.38	-39.4	-41.6	16.5	0.00e+00	0	55	0	306184192	50	4625
2026-01-05 11:18:17.41	227.72	19.46	-39.4	-41.6	16.5	0.00e+00	0	55	0	308281344	50	4639
2026-01-05 11:18:18.42	227.91	19.54	-39.4	-41.6	16.5	0.00e+00	0	55	0	310378496	50	4634
2026-01-05 11:18:19.42	228.11	19.62	-39.4	-41.6	16.6	0.00e+00	0	55	0	312475648	50	4623
2026-01-05 11:18:20.43	228.30	19.70	-39.4	-41.6	16.5	0.00e+00	0	55	0	313524224	50	4633
2026-01-05 11:18:21.45	228.50	19.78	-39.4	-41.6	16.5	0.00e+00	0	55	0	315621376	50	4639
2026-01-05 11:18:22.46	228.70	19.86	-39.4	-41.6	16.5	0.00e+00	0	55	0	317718528	50	4627
2026-01-05 11:18:23.47	228.90	19.94	-39.4	-41.6	16.6	0.00e+00	0	55	0	319815680	50	4600
2026-01-05 11:18:24.47	229.10	20.02	-39.3	-41.5	16.7	0.00e+00	0	55	0	321912832	50	4557
2026-01-05 11:18:25.48	229.31	20.10	-39.3	-41.5	16.7	0.00e+00	0	55	0	322961408	50	4558
2026-01-05 11:18:26.49	229.51	20.18	-39.3	-41.4	16.7	0.00e+00	0	55	0	325058560	50	4544
2026-01-05 11:18:27.50	229.71	20.26	-39.3	-41.5	16.7	0.00e+00	0	55	0	327155712	50	4553
2026-01-05 11:18:28.51	229.92	20.34	-39.3	-41.5	16.7	0.00e+00	0	56	0	329252864	50	4560
2026-01-05 11:18:29.52	230.13	20.42	-39.3	-41.4	16.8	0.00e+00	0	56	0	331350016	50	4539
2026-01-05 11:18:30.53	230.34	20.50	-39.2	-41.4	16.8	0.00e+00	0	56	0	332398592	50	4507
2026-01-05 11:18:31.54	230.54	20.58	-39.1	-41.2	17.0	0.00e+00	0	55	0	334495744	50	4426
2026-01-05 11:18:32.55	230.75	20.66	-39.2	-41.3	16.9	0.00e+00	0	55	0	336592896	50	4453
2026-01-05 11:18:33.56	230.97	20.74	-39.2	-41.3	16.9	0.00e+00	0	55	0	338690048	50	4467
2026-01-05 11:18:34.57	231.18	20.82	-39.2	-41.3	16.9	0.00e+00	0	55	0	340787200	50	4469
2026-01-05 11:18:35.58	231.39	20.90	-39.3	-41.4	16.8	0.00e+00	0	55	0	342884352	50	4541
2026-01-05 11:18:36.59	231.61	20.98	-39.3	-41.5	16.7	0.00e+00	0	55	0	343932928	50	4569
2026-01-05 11:18:37.60	231.82	21.06	-39.4	-41.6	16.7	0.00e+00	0	55	0	346030080	50	4610
2026-01-05 11:18:38.61	232.04	21.14	-39.4	-41.6	16.7	0.00e+00	0	56	0	348127232	50	4602
2026-01-05 11:18:39.62	232.25	21.22	-39.3	-41.5	16.8	0.00e+00	0	56	0	350224384	50	4547
2026-01-05 11:18:40.63	232.47	21.30	-39.3	-41.4	16.8	0.00e+00	0	56	0	352321536	50	4530
2026-01-05 11:18:41.64	232.69	21.38	-39.2	-41.3	16.9	0.00e+00	0	55	0	353370112	50	4477
2026-01-05 11:18:42.65	232.91	21.45	-39.2	-41.3	16.9	0.00e+00	0	55	0	355467264	50	4487
2026-01-05 11:18:43.66	233.14	21.53	-39.2	-41.3	16.9	0.00e+00	0	55	0	357564416	50	4493
2026-01-05 11:18:44.67	233.36	21.61	-39.2	-41.4	16.9	0.00e+00	0	55	0	359661568	50	4508
2026-01-05 11:18:45.68	233.58	21.69	-39.2	-41.3	16.9	0.00e+00	0	55	0	361758720	50	4491
2026-01-05 11:18:46.69	233.81	21.77	-39.2	-41.3	16.9	0.00e+00	0	56	0	362807296	50	4487
2026-01-05 11:18:47.70	234.03	21.84	-39.2	-41.3	16.9	0.00e+00	0	55	0	364904448	50	4459
2026-01-05 11:18:48.71	234.26	21.92	-39.2	-41.3	16.9	0.00e+00	0	55	0	367001600	50	4471
2026-01-05 11:18:49.72	234.49	22.00	-39.2	-41.3	16.9	0.00e+00	0	55	0	369098752	50	4482
2026-01-05 11:18:50.73	234.72	22.07	-39.2	-41.4	16.9	0.00e+00	0	55	0	371195904	50	4501
2026-01-05 11:18:51.74	234.95	22.15	-39.1	-41.2	17.1	0.00e+00	0	56	0	372244480	50	4400
2026-01-05 11:18:52.75	235.18	22.23	-39.1	-41.1	17.1	0.00e+00	0	56	0	374341632	50	4380
2026-01-05 11:18:53.76	235.42	22.30	-38.9	-41.0	17.2	0.00e+00	0	56	0	376438784	49	4559
2026-01-05 11:18:54.77	235.65	22.38	-38.9	-41.0	17.3	0.00e+00	0	55	0	378535936	49	4547
2026-01-05 11:18:55.78	235.88	22.45	-38.9	-41.0	17.3	0.00e+00	0	56	0	380633088	49	4550
2026-01-05 11:18:56.79	236.12	22.53	-39.0	-41.0	17.2	0.00e+00	0	56	0	381681664	49	4591
2026-01-05 11:18:57.80	236.36	22.60	-39.1	-41.2	17.0	0.00e+00	0	55	0	383778816	49	4702
2026-01-05 11:18:58.81	236.60	22.68	-39.1	-41.3	17.0	0.00e+00	0	56	0	385875968	49	4709
2026-01-05 11:18:59.82	236.84	22.75	-39.1	-41.3	17.0	0.00e+00	0	56	0	387973120	49	4713
2026-01-05 11:19:00.82	237.07	22.82	-39.2	-41.3	16.9	0.00e+00	0	55	0	390070272	49	4727
2026-01-05 11:19:01.83	237.32	22.90	-39.2	-41.3	16.9	0.00e+00	0	56	0	391118848	49	4759
2026-01-05 11:19:02.85	237.56	22.97	-39.2	-41.4	16.9	0.00e+00	0	56	0	393216000	49	4763
2026-01-05 11:19:03.86	237.81	23.04	-39.2	-41.4	16.8	0.00e+00	0	56	0	395313152	49	4771
2026-01-05 11:19:04.86	238.05	23.12	-39.3	-41.5	16.8	0.00e+00	0	56	0	397410304	49	4817
2026-01-05 11:19:05.87	238.29	23.19	-39.4	-41.6	16.6	0.00e+00	0	56	0	399507456	49	4914
2026-01-05 11:19:06.88	238.54	23.26	-39.5	-41.8	16.5	0.00e+00	0	55	0	400556032	49	4998
2026-01-05 11:19:07.90	238.79	23.33	-39.6	-41.9	16.3	0.00e+00	0	56	0	402653184	49	5088
2026-01-05 11:19:08.90	239.04	23.40	-39.8	-42.1	16.1	0.00e+00	0	56	0	404750336	50	4901
2026-01-05 11:19:09.91	239.29	23.47	-39.9	-42.3	16.0	0.00e+00	0	55	0	406847488	50	5002
2026-01-05 11:19:10.92	239.54	23.55	-40.0	-42.4	15.9	0.00e+00	0	56	0	408944640	50	5046
2026-01-05 11:19:11.94	239.80	23.62	-40.0	-42.4	15.9	0.00e+00	0	56	0	411041792	50	5090
2026-01-05 11:19:12.95	240.05	23.69	-39.9	-42.3	16.0	0.00e+00	0	56	0	412090368	50	4996
2026-01-05 11:19:13.96	240.31	23.76	-39.9	-42.3	16.0	0.00e+00	0	56	0	414187520	50	4997
2026-01-05 11:19:14.97	240.56	23.82	-39.8	-42.2	16.1	0.00e+00	0	56	0	416284672	50	4950
2026-01-05 11:19:15.97	240.82	23.89	-39.7	-42.0	16.3	0.00e+00	0	55	0	418381824	50	4828
2026-01-05 11:19:16.98	241.08	23.96	-39.6	-41.9	16.4	0.00e+00	0	55	0	420478976	50	4793
2026-01-05 11:19:17.99	241.34	24.03	-39.6	-41.9	16.4	0.00e+00	0	56	0	421527552	50	4800
2026-01-05 11:19:19.00	241.60	24.10	-39.7	-42.0	16.3	0.00e+00	0	56	0	423624704	50	4849
2026-01-05 11:19:20.01	241.86	24.16	-39.7	-42.1	16.2	0.00e+00	0	56	0	425721856	50	4872
2026-01-05 11:19:21.02	242.12	24.23	-39.8	-42.1	16.2	0.00e+00	0	56	0	427819008	50	4912
2026-01-05 11:19:22.03	242.39	24.29	-39.8	-42.2	16.1	0.00e+00	0	56	0	429916160	50	4930
2026-01-05 11:19:23.04	242.65	24.36	-39.8	-42.2	16.1	0.00e+00	0	56	0	430964736	50	4956
2026-01-05 11:19:24.05	242.92	24.43	-39.9	-42.3	16.1	0.00e+00	0	56	0	433061888	50	4986
2026-01-05 11:19:25.06	243.18	24.49	-40.0	-42.5	15.8	0.00e+00	0	56	0	435159040	50	5111
2026-01-05 11:19:26.07	243.45	24.55	-40.0	-42.5	15.8	0.00e+00	0	56	0	437256192	50	5120
2026-01-05 11:19:27.08	243.72	24.62	-40.0	-42.5	15.9	0.00e+00	0	56	0	439353344	50	5111
2026-01-05 11:19:28.09	243.99	24.68	-40.0	-42.4	15.9	0.00e+00	0	56	0	440401920	50	5066
2026-01-05 11:19:29.10	244.26	24.74	-39.9	-42.3	16.0	0.00e+00	0	56	0	442499072	50	4995
2026-01-05 11:19:30.11	244.54	24.81	-40.0	-42.3	16.0	0.00e+00	0	56	0	444596224	50	5037
2026-01-05 11:19:31.12	244.81	24.87	-40.0	-42.5	15.8	0.00e+00	0	56	0	446693376	50	5108
2026-01-05 11:19:32.13	245.08	24.93	-40.2	-42.7	15.7	0.00e+00	0	56	0	448790528	50	5219
2026-01-05 11:19:33.14	245.36	24.99	-40.3	-42.8	15.5	0.00e+00	0	56	0	449839104	51	5026
2026-01-05 11:19:34.15	245.64	25.05	-40.3	-42.9	15.4	0.00e+00	0	56	0	451936256	51	5070
2026-01-05 11:19:35.16	245.91	25.11	-40.4	-43.0	15.3	0.00e+00	0	56	0	454033408	51	5111
2026-01-05 11:19:36.17	246.19	25.17	-40.5	-43.2	15.1	0.00e+00	0	56	0	456130560	51	5236
2026-01-05 11:19:37.18	246.47	25.22	-40.6	-43.3	15.0	0.00e+00	0	56	0	458227712	51	5290
2026-01-05 11:19:38.19	246.75	25.28	-40.6	-43.3	15.0	0.00e+00	0	56	0	459276288	51	5292
2026-01-05 11:19:39.20	247.03	25.34	-40.6	-43.3	15.0	0.00e+00	0	56	0	461373440	51	5303
2026-01-05 11:19:40.20	247.31	25.39	-40.5	-43.3	15.0	0.00e+00	0	56	0	463470592	51	5280
2026-01-05 11:19:41.22	247.60	25.45	-40.6	-43.3	15.0	7.00e-07	0	56	0	465567744	51	5314
2026-01-05 11:19:42.22	247.88	25.51	-40.6	-43.3	15.0	0.00e+00	0	56	0	467664896	51	5335
2026-01-05 11:19:43.23	248.17	25.56	-40.6	-43.4	14.9	0.00e+00	0	56	0	468713472	51	5353
2026-01-05 11:19:44.24	248.45	25.61	-40.8	-43.6	14.6	0.00e+00	0	56	0	470810624	52	5195
2026-01-05 11:19:45.25	248.74	25.67	-40.8	-43.8	14.5	0.00e+00	0	56	0	472907776	52	5287
2026-01-05 11:19:46.26	249.03	25.72	-41.0	-43.9	14.3	1.50e-06	0	56	0	475004928	52	5401
2026-01-05 11:19:47.27	249.32	25.77	-41.1	-44.1	14.1	4.50e-06	0	56	0	477102080	52	5511
2026-01-05 11:19:48.28	249.61	25.82	-41.2	-44.3	13.9	3.00e-06	0	56	0	479199232	52	5619
2026-01-05 11:19:49.29	249.90	25.87	-41.2	-44.4	13.7	7.60e-06	0	56	0	480247808	53	5390
2026-01-05 11:19:50.30	250.19	25.92	-41.3	-44.5	13.7	3.80e-06	0	56	0	482344960	53	5437
2026-01-05 11:19:51.31	250.48	25.97	-41.2	-44.4	13.8	4.50e-06	0	56	0	484442112	53	5379
2026-01-05 11:19:52.32	250.78	26.02	-41.3	-44.5	13.7	5.30e-06	0	56	0	486539264	53	5419
2026-01-05 11:19:53.33	251.07	26.07	-41.4	-44.7	13.5	9.10e-06	0	56	0	488636416	53	5582
2026-01-05 11:19:54.34	251.37	26.12	-41.5	-44.9	13.3	1.98e-05	0	56	0	489684992	53	5704
2026-01-05 11:19:55.35	251.66	26.16	-41.6	-45.0	13.2	2.21e-05	0	56	0	491782144	53	5758
2026-01-05 11:19:56.36	251.96	26.21	-41.7	-45.2	12.9	3.73e-05	0	56	0	493879296	53	5910
2026-01-05 11:19:57.36	252.26	26.25	-41.8	-45.3	12.8	5.95e-05	0	56	0	495976448	54	5648
2026-01-05 11:19:58.37	252.55	26.30	-41.8	-45.4	12.8	5.56e-05	0	56	0	498073600	54	5700
2026-01-05 11:19:59.38	252.85	26.34	-41.8	-45.4	12.8	4.88e-05	0	56	0	499122176	54	5661
2026-01-05 11:20:00.39	253.15	26.38	-41.7	-45.2	13.0	4.11e-05	0	56	0	501219328	54	5548
2026-01-05 11:20:01.40	253.46	26.43	-41.7	-45.2	13.0	4.19e-05	0	56	0	503316480	54	5582
2026-01-05 11:20:02.41	253.76	26.47	-41.7	-45.2	13.0	4.04e-05	0	56	0	505413632	54	5569
2026-01-05 11:20:03.42	254.06	26.51	-41.7	-45.2	13.0	3.20e-05	0	56	0	507510784	54	5566
2026-01-05 11:20:04.43	254.36	26.55	-41.8	-45.3	12.9	4.65e-05	0	56	0	508559360	54	5637
2026-01-05 11:20:05.44	254.67	26.59	-41.7	-45.3	12.9	4.11e-05	0	56	0	510656512	54	5605
2026-01-05 11:20:06.45	254.97	26.62	-41.8	-45.4	12.8	6.33e-05	0	56	0	512753664	54	5707
2026-01-05 11:20:07.46	255.28	26.66	-41.7	-45.2	13.0	5.26e-05	0	56	0	514850816	54	5567
2026-01-05 11:20:08.47	255.59	26.70	-41.6	-45.1	13.1	2.89e-05	0	56	0	516947968	54	5471
2026-01-05 11:20:09.48	255.89	26.73	-41.8	-45.4	12.9	4.11e-05	0	56	0	517996544	54	5660
2026-01-05 11:20:10.49	256.20	26.77	-41.7	-45.2	13.0	3.50e-05	0	56	0	520093696	54	5550
2026-01-05 11:20:11.50	256.51	26.80	-41.7	-45.2	13.1	2.97e-05	0	56	0	522190848	54	5536
2026-01-05 11:20:12.51	256.82	26.84	-41.7	-45.3	13.0	3.73e-05	0	56	0	524288000	54	5608
2026-01-05 11:20:13.52	257.13	26.87	-41.8	-45.4	12.8	5.03e-05	0	56	0	526385152	54	5689
2026-01-05 11:20:14.53	257.44	26.90	-41.7	-45.3	12.8	5.56e-05	0	56	0	527433728	54	5636
2026-01-05 11:20:15.54	257.75	26.93	-41.7	-45.2	13.0	5.11e-05	0	56	0	529530880	54	5577
2026-01-05 11:20:16.55	258.06	26.96	-41.6	-45.1	13.1	4.27e-05	0	56	0	531628032	54	5512
2026-01-05 11:20:17.56	258.37	26.99	-41.6	-45.0	13.2	2.44e-05	0	56	0	533725184	54	5458
2026-01-05 11:20:18.57	258.68	27.02	-41.6	-44.9	13.3	2.28e-05	0	56	0	535822336	54	5397
2026-01-05 11:20:19.58	259.00	27.04	-41.6	-45.0	13.2	1.83e-05	0	56	0	536870912	54	5415
2026-01-05 11:20:20.59	259.31	27.07	-41.5	-44.9	13.3	2.28e-05	0	56	0	538968064	54	5360
2026-01-05 11:20:21.59	259.62	27.09	-41.4	-44.8	13.5	1.14e-05	0	56	0	541065216	54	5291
2026-01-05 11:20:22.60	259.93	27.12	-41.2	-44.4	13.8	5.30e-06	0	56	0	543162368	54	5062
2026-01-05 11:20:23.61	260.25	27.14	-41.1	-44.1	14.2	3.00e-06	0	56	0	545259520	54	4882
2026-01-05 11:20:24.62	260.56	27.17	-41.0	-44.0	14.2	3.00e-06	0	56	0	547356672	54	4864
2026-01-05 11:20:25.63	260.88	27.19	-41.1	-44.2	14.0	0.00e+00	0	56	0	548405248	54	4953
2026-01-05 11:20:26.64	261.20	27.21	-41.3	-44.5	13.7	3.00e-06	0	56	0	550502400	54	5123
2026-01-05 11:20:27.65	261.51	27.23	-41.4	-44.7	13.5	9.10e-06	0	56	0	552599552	54	5252
2026-01-05 11:20:28.66	261.83	27.25	-41.6	-44.9	13.3	1.44e-05	0	56	0	554696704	54	5401
2026-01-05 11:20:29.67	262.15	27.27	-41.6	-45.0	13.2	2.89e-05	0	56	0	556793856	54	5408
2026-01-05 11:20:30.68	262.46	27.28	-41.6	-45.0	13.1	1.83e-05	0	56	0	557842432	54	5453
2026-01-05 11:20:31.69	262.78	27.30	-41.6	-45.0	13.3	2.59e-05	0	56	0	559939584	54	5433
2026-01-05 11:20:32.70	263.10	27.31	-41.5	-44.8	13.5	1.44e-05	0	56	0	562036736	54	5311
2026-01-05 11:20:33.71	263.42	27.33	-41.5	-44.8	13.5	9.90e-06	0	56	0	564133888	54	5286
2026-01-05 11:20:34.72	263.74	27.34	-41.4	-44.6	13.6	1.44e-05	0	56	0	566231040	54	5209
2026-01-05 11:20:35.73	264.06	27.36	-41.4	-44.7	13.5	8.30e-06	0	56	0	567279616	54	5249
2026-01-05 11:20:36.74	264.38	27.37	-41.5	-44.8	13.5	1.06e-05	0	56	0	569376768	54	5290
2026-01-05 11:20:37.75	264.69	27.38	-41.4	-44.7	13.6	9.10e-06	0	56	0	571473920	54	5227
2026-01-05 11:20:38.76	265.01	27.39	-41.4	-44.6	13.6	7.60e-06	0	56	0	573571072	54	5218
2026-01-05 11:20:39.77	265.33	27.40	-41.3	-44.5	13.7	7.60e-06	0	56	0	575668224	54	5106
2026-01-05 11:20:40.78	265.65	27.40	-41.2	-44.3	13.9	3.80e-06	0	56	0	576716800	54	5022
2026-01-05 11:20:41.79	265.97	27.41	-41.1	-44.1	14.1	0.00e+00	0	56	0	578813952	54	4900
2026-01-05 11:20:42.79	266.29	27.42	-40.9	-43.8	14.4	0.00e+00	0	56	0	580911104	53	5026
2026-01-05 11:20:43.80	266.61	27.42	-40.8	-43.7	14.5	7.00e-07	0	56	0	583008256	53	4958
2026-01-05 11:20:44.81	266.93	27.43	-40.7	-43.6	14.6	0.00e+00	0	56	0	585105408	53	4875
2026-01-05 11:20:45.82	267.25	27.43	-40.6	-43.4	14.8	0.00e+00	0	56	0	586153984	53	4782
2026-01-05 11:20:46.83	267.57	27.43	-40.6	-43.4	14.9	7.00e-07	0	56	0	588251136	53	4777
2026-01-05 11:20:47.84	267.89	27.43	-40.7	-43.5	14.8	0.00e+00	0	56	0	590348288	53	4824
2026-01-05 11:20:48.85	268.21	27.43	-40.7	-43.5	14.8	0.00e+00	0	56	0	592445440	53	4820
2026-01-05 11:20:49.86	268.53	27.43	-40.7	-43.5	14.7	0.00e+00	0	56	0	594542592	53	4849
2026-01-05 11:20:50.87	268.85	27.43	-40.8	-43.6	14.6	7.00e-07	0	56	0	595591168	53	4903
2026-01-05 11:20:51.88	269.18	27.43	-40.8	-43.7	14.5	7.00e-07	0	56	0	597688320	53	4931
2026-01-05 11:20:52.89	269.50	27.43	-40.8	-43.6	14.6	7.00e-07	0	56	0	599785472	53	4908
2026-01-05 11:20:53.90	269.82	27.42	-40.6	-43.4	14.9	0.00e+00	0	56	0	601882624	53	4768
2026-01-05 11:20:54.90	270.13	27.42	-40.4	-43.1	15.1	0.00e+00	0	56	0	603979776	52	4897
2026-01-05 11:20:55.92	270.46	27.41	-40.2	-42.8	15.5	0.00e+00	0	56	0	605028352	52	4720
2026-01-05 11:20:56.93	270.78	27.40	-40.0	-42.5	15.8	0.00e+00	0	56	0	607125504	52	4562
2026-01-05 11:20:57.94	271.10	27.40	-40.1	-42.5	15.8	0.00e+00	0	56	0	609222656	51	4842
2026-01-05 11:20:58.95	271.42	27.39	-40.2	-42.7	15.6	0.00e+00	0	56	0	611319808	51	4976
2026-01-05 11:20:59.96	271.73	27.38	-40.5	-43.1	15.3	0.00e+00	0	56	0	613416960	51	5179
2026-01-05 11:21:00.96	272.05	27.37	-40.6	-43.3	15.1	0.00e+00	0	56	0	615514112	51	5299
2026-01-05 11:21:01.97	272.37	27.35	-40.7	-43.5	14.7	0.00e+00	0	56	0	616562688	52	5132
2026-01-05 11:21:02.98	272.69	27.34	-40.7	-43.5	14.8	0.00e+00	0	56	0	618659840	52	5134
2026-01-05 11:21:03.99	273.01	27.33	-40.7	-43.6	14.7	0.00e+00	0	56	0	620756992	52	5179
2026-01-05 11:21:05.00	273.33	27.31	-40.7	-43.5	14.7	0.00e+00	0	56	0	622854144	52	5133
2026-01-05 11:21:06.01	273.64	27.30	-40.7	-43.5	14.7	0.00e+00	0	56	0	623902720	52	5127
2026-01-05 11:21:07.02	273.96	27.28	-40.6	-43.4	14.9	0.00e+00	0	56	0	625999872	52	5053
2026-01-05 11:21:08.03	274.28	27.26	-40.6	-43.4	14.8	7.00e-07	0	56	0	628097024	52	5076
2026-01-05 11:21:09.04	274.59	27.25	-40.7	-43.5	14.8	0.00e+00	0	56	0	630194176	52	5119
2026-01-05 11:21:10.05	274.91	27.23	-40.9	-43.8	14.5	0.00e+00	0	56	0	632291328	52	5301
2026-01-05 11:21:11.06	275.23	27.21	-41.1	-44.1	14.2	1.50e-06	0	56	0	633339904	52	5488
2026-01-05 11:21:12.07	275.54	27.18	-41.2	-44.4	13.9	2.20e-06	0	56	0	635437056	52	5674
2026-01-05 11:21:13.07	275.85	27.16	-41.3	-44.5	13.7	9.10e-06	0	56	0	637534208	53	5445
2026-01-05 11:21:14.08	276.17	27.14	-41.3	-44.5	13.7	5.30e-06	0	56	0	639631360	53	5453
2026-01-05 11:21:15.10	276.49	27.12	-41.2	-44.4	13.9	4.50e-06	0	56	0	641728512	53	5367
2026-01-05 11:21:16.10	276.80	27.09	-41.1	-44.1	14.1	3.80e-06	0	56	0	643825664	53	5213
2026-01-05 11:21:17.11	277.11	27.07	-40.8	-43.7	14.5	7.00e-07	0	56	0	644874240	53	4971
2026-01-05 11:21:18.12	277.42	27.04	-40.6	-43.4	14.9	0.00e+00	0	56	0	646971392	53	4772
2026-01-05 11:21:19.13	277.74	27.01	-40.5	-43.2	15.0	0.00e+00	0	56	0	649068544	53	4703
2026-01-05 11:21:20.14	278.05	26.99	-40.5	-43.1	15.1	0.00e+00	0	56	0	651165696	52	4907
2026-01-05 11:21:21.15	278.36	26.96	-40.5	-43.3	15.0	0.00e+00	0	56	0	653262848	52	4992
2026-01-05 11:21:22.16	278.67	26.93	-40.7	-43.4	14.8	0.00e+00	0	56	0	654311424	52	5096
2026-01-05 11:21:23.17	278.98	26.90	-40.9	-43.8	14.5	0.00e+00	0	56	0	656408576	52	5297
2026-01-05 11:21:24.18	279.29	26.86	-40.9	-43.9	14.4	0.00e+00	0	56	0	658505728	52	5370
2026-01-05 11:21:25.19	279.60	26.83	-40.9	-43.8	14.5	0.00e+00	0	56	0	660602880	52	5317
2026-01-05 11:21:26.20	279.91	26.80	-40.8	-43.6	14.6	7.00e-07	0	56	0	662700032	52	5206
2026-01-05 11:21:27.21	280.21	26.76	-40.6	-43.4	14.8	0.00e+00	0	56	0	663748608	52	5064
2026-01-05 11:21:28.22	280.52	26.73	-40.6	-43.4	14.9	0.00e+00	0	56	0	665845760	52	5044
2026-01-05 11:21:29.23	280.83	26.69	-40.6	-43.3	15.0	0.00e+00	0	56	0	667942912	52	4999
2026-01-05 11:21:30.23	281.13	26.66	-40.6	-43.3	15.0	0.00e+00	0	56	0	670040064	52	5002
2026-01-05 11:21:31.25	281.44	26.62	-40.5	-43.2	15.0	0.00e+00	0	56	0	672137216	52	4950
2026-01-05 11:21:32.26	281.74	26.58	-40.5	-43.2	15.0	0.00e+00	0	56	0	673185792	52	4982
2026-01-05 11:21:33.27	282.04	26.54	-40.6	-43.4	14.8	0.00e+00	0	56	0	675282944	52	5066
2026-01-05 11:21:34.27	282.34	26.50	-40.6	-43.4	14.8	0.00e+00	0	56	0	677380096	52	5064
2026-01-05 11:21:35.28	282.65	26.46	-40.7	-43.5	14.8	0.00e+00	0	56	0	679477248	52	5125
2026-01-05 11:21:36.29	282.95	26.42	-40.7	-43.5	14.8	0.00e+00	0	56	0	681574400	52	5130
2026-01-05 11:21:37.30	283.25	26.38	-40.7	-43.5	14.8	0.00e+00	0	56	0	682622976	52	5123
2026-01-05 11:21:38.31	283.55	26.34	-40.7	-43.5	14.8	7.00e-07	0	56	0	684720128	52	5117
2026-01-05 11:21:39.32	283.85	26.30	-40.6	-43.3	15.0	0.00e+00	0	56	0	686817280	52	5004
2026-01-05 11:21:40.33	284.14	26.25	-40.4	-43.1	15.2	0.00e+00	0	56	0	688914432	52	4888
2026-01-05 11:21:41.34	284.44	26.21	-40.3	-42.9	15.3	0.00e+00	0	56	0	691011584	52	4802
2026-01-05 11:21:42.35	284.74	26.16	-40.2	-42.8	15.5	0.00e+00	0	56	0	692060160	52	4734
2026-01-05 11:21:43.36	285.03	26.11	-40.2	-42.8	15.5	0.00e+00	0	56	0	694157312	52	4706
2026-01-05 11:21:44.37	285.33	26.07	-40.2	-42.7	15.5	0.00e+00	0	56	0	696254464	52	4686
2026-01-05 11:21:45.38	285.62	26.02	-40.1	-42.6	15.6	0.00e+00	0	56	0	698351616	52	4626
2026-01-05 11:21:46.39	285.91	25.97	-40.0	-42.4	15.9	0.00e+00	0	56	0	700448768	51	4800
2026-01-05 11:21:47.40	286.20	25.92	-39.8	-42.2	16.2	0.00e+00	0	56	0	701497344	51	4653
2026-01-05 11:21:48.41	286.50	25.87	-39.6	-41.9	16.4	0.00e+00	0	56	0	703594496	51	4514
2026-01-05 11:21:49.42	286.79	25.82	-39.7	-42.0	16.3	0.00e+00	0	56	0	705691648	51	4569
2026-01-05 11:21:50.43	287.08	25.77	-39.7	-42.0	16.3	0.00e+00	0	56	0	707788800	51	4585
2026-01-05 11:21:51.44	287.36	25.72	-39.7	-41.9	16.4	0.00e+00	0	56	0	709885952	51	4544
2026-01-05 11:21:52.45	287.65	25.67	-39.7	-41.9	16.4	0.00e+00	0	56	0	711983104	51	4545
2026-01-05 11:21:53.45	287.93	25.61	-39.6	-41.8	16.5	0.00e+00	0	56	0	713031680	51	4458
2026-01-05 11:21:54.46	288.22	25.56	-39.5	-41.7	16.6	0.00e+00	0	56	0	715128832	51	4416
2026-01-05 11:21:55.47	288.50	25.51	-39.5	-41.7	16.6	0.00e+00	0	56	0	717225984	51	4418
2026-01-05 11:21:56.48	288.79	25.45	-39.6	-41.9	16.4	0.00e+00	0	56	0	719323136	51	4500
2026-01-05 11:21:57.49	289.07	25.40	-39.7	-42.0	16.4	0.00e+00	0	56	0	721420288	51	4548
2026-01-05 11:21:58.51	289.35	25.34	-39.7	-42.0	16.3	0.00e+00	0	56	0	722468864	51	4582
2026-01-05 11:21:59.51	289.63	25.28	-39.6	-41.9	16.4	0.00e+00	0	56	0	724566016	51	4509
2026-01-05 11:22:00.52	289.91	25.23	-39.5	-41.7	16.6	0.00e+00	0	56	0	726663168	50	4653
2026-01-05 11:22:01.53	290.19	25.17	-39.2	-41.4	16.9	0.00e+00	0	56	0	728760320	50	4499
2026-01-05 11:22:02.54	290.47	25.11	-39.1	-41.1	17.1	0.00e+00	0	56	0	730857472	50	4387
2026-01-05 11:22:03.55	290.74	25.05	-39.1	-41.2	17.1	0.00e+00	0	56	0	731906048	50	4402
2026-01-05 11:22:04.56	291.02	24.99	-39.2	-41.3	17.1	0.00e+00	0	56	0	734003200	50	4442
2026-01-05 11:22:05.57	291.29	24.93	-39.4	-41.5	16.8	0.00e+00	0	56	0	736100352	50	4593
2026-01-05 11:22:06.58	291.57	24.87	-39.6	-41.8	16.5	0.00e+00	0	56	0	738197504	50	4745
2026-01-05 11:22:07.59	291.84	24.81	-39.7	-42.0	16.3	0.00e+00	0	56	0	740294656	50	4846
2026-01-05 11:22:08.60	292.11	24.75	-39.7	-42.0	16.3	0.00e+00	0	56	0	741343232	50	4825
2026-01-05 11:22:09.61	292.38	24.68	-39.6	-41.9	16.4	0.00e+00	0	56	0	743440384	50	4773
2026-01-05 11:22:10.62	292.65	24.62	-39.5	-41.7	16.6	0.00e+00	0	56	0	745537536	50	4653
2026-01-05 11:22:11.63	292.92	24.56	-39.3	-41.4	16.8	0.00e+00	0	56	0	747634688	50	4542
2026-01-05 11:22:12.64	293.19	24.49	-39.2	-41.3	17.0	0.00e+00	0	56	0	749731840	50	4458
2026-01-05 11:22:13.65	293.45	24.43	-39.2	-41.3	17.0	0.00e+00	0	56	0	750780416	50	4443
2026-01-05 11:22:14.66	293.72	24.37	-39.2	-41.3	17.0	0.00e+00	0	56	0	752877568	50	4462
2026-01-05 11:22:15.67	293.98	24.30	-39.3	-41.4	16.9	0.00e+00	0	56	0	754974720	50	4521
2026-01-05 11:22:16.68	294.24	24.24	-39.4	-41.6	16.7	0.00e+00	0	56	0	757071872	50	4602
2026-01-05 11:22:17.69	294.50	24.17	-39.5	-41.7	16.5	0.00e+00	0	56	0	759169024	50	4704
2026-01-05 11:22:18.70	294.76	24.10	-39.6	-41.9	16.4	0.00e+00	0	56	0	760217600	50	4790
2026-01-05 11:22:19.71	295.02	24.04	-39.8	-42.1	16.1	0.00e+00	0	56	0	762314752	50	4907
2026-01-05 11:22:20.72	295.28	23.97	-40.0	-42.4	15.9	0.00e+00	0	56	0	764411904	50	5089
2026-01-05 11:22:21.73	295.54	23.90	-40.1	-42.6	15.6	0.00e+00	0	56	0	766509056	50	5203
2026-01-05 11:22:22.74	295.80	23.83	-40.2	-42.8	15.5	0.00e+00	0	56	0	768606208	51	5003
2026-01-05 11:22:23.75	296.05	23.76	-40.3	-42.9	15.4	0.00e+00	0	56	0	769654784	51	5056
2026-01-05 11:22:24.75	296.30	23.70	-40.2	-42.7	15.6	0.00e+00	0	56	0	771751936	51	4942
2026-01-05 11:22:25.77	296.56	23.63	-40.0	-42.5	15.8	0.00e+00	0	56	0	773849088	51	4819
2026-01-05 11:22:26.78	296.81	23.56	-39.9	-42.3	16.0	0.00e+00	0	56	0	775946240	51	4724
2026-01-05 11:22:27.79	297.06	23.49	-39.9	-42.3	16.0	0.00e+00	0	56	0	778043392	51	4709
2026-01-05 11:22:28.79	297.31	23.42	-39.9	-42.3	16.0	0.00e+00	0	56	0	779091968	51	4737
2026-01-05 11:22:29.80	297.56	23.35	-40.0	-42.5	15.8	0.00e+00	0	56	0	781189120	51	4837
2026-01-05 11:22:30.81	297.80	23.27	-40.1	-42.6	15.6	0.00e+00	0	56	0	783286272	51	4917
2026-01-05 11:22:31.82	298.05	23.20	-40.1	-42.6	15.7	0.00e+00	0	56	0	785383424	51	4874
2026-01-05 11:22:32.83	298.30	23.13	-40.1	-42.6	15.7	0.00e+00	0	56	0	787480576	51	4892
2026-01-05 11:22:33.84	298.54	23.06	-40.2	-42.7	15.5	0.00e+00	0	56	0	789577728	51	4968
2026-01-05 11:22:34.86	298.78	22.99	-40.3	-42.9	15.4	0.00e+00	0	56	0	790626304	51	5053
2026-01-05 11:22:35.87	299.03	22.91	-40.2	-42.8	15.5	0.00e+00	0	56	0	792723456	51	4997
2026-01-05 11:22:36.88	299.27	22.84	-40.2	-42.7	15.5	0.00e+00	0	56	0	794820608	51	4966
2026-01-05 11:22:37.89	299.51	22.77	-40.2	-42.7	15.5	0.00e+00	0	56	0	796917760	51	4967
2026-01-05 11:22:38.90	299.74	22.69	-40.1	-42.6	15.6	0.00e+00	0	56	0	799014912	51	4915
2026-01-05 11:22:39.91	299.98	22.62	-40.1	-42.6	15.6	0.00e+00	0	56	0	800063488	51	4921
2026-01-05 11:22:40.92	300.22	22.54	-40.0	-42.5	15.7	0.00e+00	0	56	0	802160640	51	4844
2026-01-05 11:22:41.93	300.45	22.47	-40.0	-42.5	15.7	0.00e+00	0	56	0	804257792	51	4848
2026-01-05 11:22:42.94	300.69	22.40	-40.2	-42.7	15.5	0.00e+00	0	56	0	806354944	51	4952
2026-01-05 11:22:43.95	300.92	22.32	-40.2	-42.8	15.4	0.00e+00	0	56	0	808452096	51	5005
2026-01-05 11:22:44.96	301.15	22.24	-40.3	-43.0	15.2	0.00e+00	0	56	0	809500672	51	5120
2026-01-05 11:22:45.97	301.38	22.17	-40.4	-43.1	15.1	0.00e+00	0	56	0	811597824	51	5170
2026-01-05 11:22:46.98	301.61	22.09	-40.3	-42.8	15.3	7.00e-07	0	56	0	813694976	51	5036
2026-01-05 11:22:47.99	301.84	22.02	-40.1	-42.6	15.6	0.00e+00	0	56	0	815792128	51	4888
2026-01-05 11:22:49.00	302.07	21.94	-40.0	-42.4	15.8	0.00e+00	0	56	0	817889280	51	4796
2026-01-05 11:22:50.00	302.29	21.87	-40.0	-42.4	15.7	0.00e+00	0	56	0	818937856	51	4811
2026-01-05 11:22:51.01	302.52	21.79	-40.0	-42.5	15.7	0.00e+00	0	56	0	821035008	51	4849
2026-01-05 11:22:52.02	302.74	21.71	-40.2	-42.7	15.5	0.00e+00	0	56	0	823132160	51	4982
2026-01-05 11:22:53.04	302.97	21.63	-40.1	-42.7	15.5	0.00e+00	0	56	0	825229312	51	4946
2026-01-05 11:22:54.04	303.19	21.56	-40.2	-42.8	15.4	0.00e+00	0	56	0	827326464	51	5001
2026-01-05 11:22:55.05	303.41	21.48	-40.1	-42.6	15.7	0.00e+00	0	56	0	828375040	51	4872
2026-01-05 11:22:56.06	303.63	21.40	-39.9	-42.3	15.8	0.00e+00	0	56	0	830472192	51	4744
2026-01-05 11:22:57.07	303.85	21.33	-39.9	-42.3	15.8	0.00e+00	0	56	0	832569344	51	4752
2026-01-05 11:22:58.08	304.06	21.25	-39.9	-42.3	15.9	0.00e+00	0	56	0	834666496	51	4723
2026-01-05 11:22:59.09	304.28	21.17	-39.8	-42.2	16.0	0.00e+00	0	56	0	836763648	51	4688
2026-01-05 11:23:00.10	304.50	21.09	-40.0	-42.4	15.7	0.00e+00	0	56	0	837812224	51	4806
2026-01-05 11:23:01.11	304.71	21.01	-40.1	-42.7	15.5	0.00e+00	0	56	0	839909376	51	4942
2026-01-05 11:23:02.12	304.92	20.93	-40.2	-42.8	15.4	0.00e+00	0	56	0	842006528	51	5000
2026-01-05 11:23:03.13	305.14	20.85	-40.2	-42.7	15.5	0.00e+00	0	56	0	844103680	51	4949
2026-01-05 11:23:04.14	305.35	20.78	-40.1	-42.7	15.5	0.00e+00	0	56	0	846200832	51	4943
2026-01-05 11:23:05.15	305.56	20.70	-40.1	-42.7	15.5	0.00e+00	0	56	0	847249408	51	4948
2026-01-05 11:23:06.16	305.77	20.62	-40.3	-42.9	15.3	0.00e+00	0	56	0	849346560	51	5080
2026-01-05 11:23:07.17	305.98	20.54	-40.4	-43.1	15.0	0.00e+00	0	56	0	851443712	51	5216
2026-01-05 11:23:08.18	306.18	20.46	-40.7	-43.5	14.5	0.00e+00	0	56	0	853540864	52	5156
2026-01-05 11:23:09.19	306.39	20.38	-41.0	-44.1	13.9	1.50e-06	0	56	0	855638016	52	5512
2026-01-05 11:23:10.20	306.59	20.30	-41.1	-44.3	13.7	4.50e-06	0	56	0	857735168	52	5633
2026-01-05 11:23:11.21	306.80	20.22	-41.2	-44.4	13.6	9.10e-06	0	56	0	858783744	52	5707
2026-01-05 11:23:12.22	307.00	20.14	-41.0	-44.2	13.9	6.10e-06	0	56	0	860880896	52	5536
2026-01-05 11:23:13.22	307.20	20.06	-40.8	-43.7	14.3	3.00e-06	0	56	0	862978048	52	5273
2026-01-05 11:23:14.23	307.40	19.98	-40.7	-43.7	14.4	0.00e+00	0	56	0	865075200	52	5223
2026-01-05 11:23:15.24	307.60	19.90	-40.5	-43.2	14.9	0.00e+00	0	56	0	867172352	52	4962
2026-01-05 11:23:16.25	307.80	19.82	-40.5	-43.4	14.7	0.00e+00	0	56	0	868220928	52	5051
2026-01-05 11:23:17.26	308.00	19.74	-40.6	-43.4	14.7	0.00e+00	0	56	0	870318080	52	5084
2026-01-05 11:23:18.27	308.19	19.66	-40.8	-43.8	14.2	0.00e+00	0	56	0	872415232	52	5317
2026-01-05 11:23:19.28	308.39	19.58	-41.0	-44.1	14.0	3.80e-06	0	56	0	874512384	52	5478
2026-01-05 11:23:20.29	308.58	19.50	-40.9	-44.0	14.0	2.20e-06	0	57	0	876609536	52	5461
2026-01-05 11:23:21.30	308.78	19.42	-40.8	-43.8	14.2	7.00e-07	0	56	0	877658112	52	5313
2026-01-05 11:23:22.31	308.97	19.34	-40.6	-43.4	14.6	0.00e+00	0	56	0	879755264	52	5094
2026-01-05 11:23:23.32	309.16	19.26	-40.5	-43.2	14.8	7.00e-07	0	56	0	881852416	52	4978
2026-01-05 11:23:24.33	309.35	19.18	-40.3	-42.9	15.1	0.00e+00	0	56	0	883949568	52	4795
2026-01-05 11:23:25.34	309.54	19.10	-40.2	-42.8	15.2	0.00e+00	0	57	0	886046720	52	4755
2026-01-05 11:23:26.35	309.73	19.02	-40.4	-43.1	14.9	0.00e+00	0	56	0	887095296	52	4907
2026-01-05 11:23:27.36	309.92	18.94	-40.6	-43.4	14.6	0.00e+00	0	56	0	889192448	52	5068
2026-01-05 11:23:28.37	310.11	18.86	-40.8	-43.8	14.3	7.00e-07	0	56	0	891289600	52	5297
2026-01-05 11:23:29.38	310.29	18.77	-40.9	-44.0	14.1	7.00e-07	0	56	0	893386752	52	5411
2026-01-05 11:23:30.39	310.48	18.69	-40.9	-44.0	14.0	2.20e-06	0	56	0	895483904	52	5455
2026-01-05 11:23:31.40	310.66	18.61	-40.8	-43.8	14.2	3.00e-06	0	56	0	896532480	52	5285
2026-01-05 11:23:32.41	310.84	18.53	-40.5	-43.2	14.8	7.00e-07	0	56	0	898629632	52	4981
2026-01-05 11:23:33.42	311.03	18.45	-40.3	-43.0	15.0	0.00e+00	0	56	0	900726784	52	4835
2026-01-05 11:23:34.43	311.21	18.37	-40.3	-43.0	15.0	0.00e+00	0	56	0	902823936	52	4841
2026-01-05 11:23:35.44	311.39	18.29	-40.5	-43.3	14.8	0.00e+00	0	56	0	904921088	52	4998
2026-01-05 11:23:36.45	311.57	18.21	-40.7	-43.7	14.4	7.00e-07	0	56	0	905969664	52	5229
2026-01-05 11:23:37.46	311.74	18.13	-41.0	-44.1	14.0	7.00e-07	0	57	0	908066816	52	5486
2026-01-05 11:23:38.46	311.92	18.05	-41.0	-44.2	13.8	3.00e-06	0	56	0	910163968	52	5587
2026-01-05 11:23:39.47	312.10	17.97	-40.9	-44.0	14.0	3.00e-06	0	56	0	912261120	52	5456
2026-01-05 11:23:40.48	312.27	17.89	-40.7	-43.7	14.3	3.00e-06	0	56	0	914358272	52	5235
2026-01-05 11:23:41.49	312.45	17.81	-40.5	-43.3	14.7	0.00e+00	0	56	0	915406848	52	5016
2026-01-05 11:23:42.50	312.62	17.72	-40.2	-42.9	15.1	0.00e+00	0	56	0	917504000	52	4793
2026-01-05 11:23:43.52	312.80	17.64	-40.0	-42.6	15.5	0.00e+00	0	56	0	919601152	51	4875
2026-01-05 11:23:44.52	312.97	17.56	-39.9	-42.3	15.8	0.00e+00	0	56	0	921698304	51	4749
2026-01-05 11:23:45.53	313.14	17.48	-40.0	-42.5	15.6	0.00e+00	0	56	0	923795456	51	4854
2026-01-05 11:23:46.54	313.31	17.40	-40.4	-43.1	15.0	0.00e+00	0	56	0	925892608	51	5187
2026-01-05 11:23:47.55	313.48	17.32	-40.7	-43.6	14.4	0.00e+00	0	56	0	926941184	51	5520
2026-01-05 11:23:48.56	313.64	17.24	-41.0	-44.1	13.9	1.50e-06	0	56	0	929038336	52	5501
2026-01-05 11:23:49.57	313.81	17.16	-41.2	-44.5	13.4	1.29e-05	0	56	0	931135488	52	5756
2026-01-05 11:23:50.58	313.98	17.08	-41.2	-44.6	13.3	9.90e-06	0	56	0	933232640	53	5481
2026-01-05 11:23:51.59	314.14	17.00	-41.2	-44.5	13.5	1.14e-05	0	56	0	935329792	53	5426
2026-01-05 11:23:52.60	314.31	16.92	-40.9	-44.0	13.9	6.80e-06	0	56	0	936378368	53	5133
2026-01-05 11:23:53.61	314.47	16.84	-40.7	-43.6	14.3	2.20e-06	0	56	0	938475520	53	4912
2026-01-05 11:23:54.62	314.64	16.76	-40.6	-43.5	14.4	2.20e-06	0	56	0	940572672	53	4848
2026-01-05 11:23:55.63	314.80	16.68	-40.4	-43.2	14.8	0.00e+00	0	56	0	942669824	52	4943
2026-01-05 11:23:56.64	314.96	16.60	-40.4	-43.2	14.7	7.00e-07	0	56	0	944766976	52	4976
2026-01-05 11:23:57.65	315.12	16.52	-40.5	-43.4	14.6	7.00e-07	0	56	0	945815552	52	5058
2026-01-05 11:23:58.66	315.28	16.44	-40.6	-43.5	14.4	7.00e-07	0	56	0	947912704	52	5158
2026-01-05 11:23:59.67	315.44	16.36	-40.6	-43.6	14.3	1.50e-06	0	56	0	950009856	52	5188
2026-01-05 11:24:00.68	315.60	16.28	-40.7	-43.6	14.3	1.50e-06	0	56	0	952107008	52	5205
2026-01-05 11:24:01.69	315.76	16.20	-40.6	-43.5	14.5	7.00e-07	0	56	0	954204160	52	5131
2026-01-05 11:24:02.70	315.91	16.12	-40.5	-43.4	14.6	2.20e-06	0	56	0	955252736	52	5049
2026-01-05 11:24:03.71	316.07	16.04	-40.4	-43.2	14.8	7.00e-07	0	56	0	957349888	52	4941
2026-01-05 11:24:04.72	316.22	15.96	-40.3	-43.1	14.8	0.00e+00	0	56	0	959447040	52	4897
2026-01-05 11:24:05.73	316.38	15.88	-40.3	-43.1	14.8	0.00e+00	0	56	0	961544192	52	4895
2026-01-05 11:24:06.73	316.53	15.80	-40.3	-43.1	14.9	0.00e+00	0	56	0	963641344	52	4884
2026-01-05 11:24:07.74	316.68	15.72	-40.3	-43.1	14.8	0.00e+00	0	56	0	964689920	52	4891
2026-01-05 11:24:08.75	316.83	15.64	-40.4	-43.3	14.6	0.00e+00	0	56	0	966787072	52	4995
2026-01-05 11:24:09.76	316.98	15.56	-40.6	-43.5	14.4	0.00e+00	0	56	0	968884224	52	5133
2026-01-05 11:24:10.77	317.13	15.48	-40.6	-43.6	14.3	0.00e+00	0	57	0	970981376	52	5184
2026-01-05 11:24:11.78	317.28	15.40	-40.8	-43.8	14.1	3.00e-06	0	57	0	973078528	52	5327
2026-01-05 11:24:12.79	317.43	15.32	-40.7	-43.8	14.1	0.00e+00	0	56	0	974127104	52	5310
2026-01-05 11:24:13.80	317.58	15.24	-40.6	-43.6	14.3	0.00e+00	0	57	0	976224256	52	5209
2026-01-05 11:24:14.81	317.73	15.16	-40.6	-43.5	14.4	1.50e-06	0	57	0	978321408	52	5131
2026-01-05 11:24:15.82	317.87	15.08	-40.4	-43.2	14.7	7.00e-07	0	56	0	980418560	52	4977
2026-01-05 11:24:16.83	318.02	15.01	-40.4	-43.2	14.7	0.00e+00	0	56	0	982515712	52	4939
2026-01-05 11:24:17.84	318.16	14.93	-40.3	-43.1	14.8	0.00e+00	0	56	0	983564288	52	4919
2026-01-05 11:24:18.85	318.31	14.85	-40.2	-43.0	14.9	0.00e+00	0	56	0	985661440	52	4836
2026-01-05 11:24:19.86	318.45	14.77	-40.3	-43.0	14.9	0.00e+00	0	56	0	987758592	52	4858
2026-01-05 11:24:20.87	318.59	14.69	-40.4	-43.2	14.7	7.00e-07	0	56	0	989855744	52	4959
2026-01-05 11:24:21.88	318.74	14.61	-40.4	-43.2	14.6	0.00e+00	0	56	0	991952896	52	4982
2026-01-05 11:24:22.88	318.88	14.53	-40.5	-43.4	14.5	0.00e+00	0	56	0	994050048	52	5064
2026-01-05 11:24:23.89	319.02	14.46	-40.5	-43.5	14.4	0.00e+00	0	56	0	995098624	52	5103
2026-01-05 11:24:24.90	319.16	14.38	-40.4	-43.3	14.6	7.00e-07	0	56	0	997195776	52	5010
2026-01-05 11:24:25.91	319.30	14.30	-40.4	-43.3	14.6	7.00e-07	0	56	0	999292928	52	4991
2026-01-05 11:24:26.92	319.43	14.22	-40.3	-43.1	14.7	7.00e-07	0	56	0	1001390080	52	4915
2026-01-05 11:24:27.93	319.57	14.14	-40.4	-43.2	14.7	0.00e+00	0	56	0	1003487232	52	4966
2026-01-05 11:24:28.94	319.71	14.07	-40.4	-43.2	14.7	7.00e-07	0	56	0	1004535808	52	4953
2026-01-05 11:24:29.95	319.85	13.99	-40.4	-43.2	14.7	0.00e+00	0	57	0	1006632960	52	4960
2026-01-05 11:24:30.96	319.98	13.91	-40.4	-43.2	14.7	0.00e+00	0	56	0	1008730112	52	4954
2026-01-05 11:24:31.97	320.12	13.83	-40.4	-43.2	14.6	7.00e-07	0	57	0	1010827264	52	4969
2026-01-05 11:24:32.98	320.25	13.76	-40.3	-43.1	14.7	7.00e-07	0	56	0	1012924416	52	4924
2026-01-05 11:24:33.99	320.38	13.68	-40.4	-43.4	14.5	0.00e+00	0	56	0	1013972992	52	5047
2026-01-05 11:24:35.00	320.52	13.60	-40.4	-43.2	14.6	0.00e+00	0	56	0	1016070144	52	4973
2026-01-05 11:24:36.01	320.65	13.53	-40.4	-43.3	14.6	0.00e+00	0	56	0	1018167296	52	4988
2026-01-05 11:24:37.02	320.78	13.45	-40.4	-43.4	14.5	1.50e-06	0	56	0	1020264448	52	5043
2026-01-05 11:24:38.03	320.91	13.37	-40.4	-43.3	14.5	0.00e+00	0	56	0	1022361600	52	5032
2026-01-05 11:24:39.04	321.04	13.30	-40.5	-43.4	14.4	0.00e+00	0	56	0	1023410176	52	5087
2026-01-05 11:24:40.05	321.17	13.22	-40.5	-43.5	14.2	2.20e-06	0	56	0	1025507328	52	5153
2026-01-05 11:24:41.05	321.30	13.14	-40.5	-43.5	14.3	1.50e-06	0	56	0	1027604480	52	5147
2026-01-05 11:24:42.06	321.43	13.07	-40.6	-43.6	14.2	2.20e-06	0	56	0	1029701632	52	5183
2026-01-05 11:24:43.07	321.56	12.99	-40.6	-43.7	14.1	7.00e-07	0	57	0	1031798784	52	5220
2026-01-05 11:24:44.08	321.68	12.92	-40.5	-43.5	14.3	0.00e+00	0	56	0	1032847360	52	5136
2026-01-05 11:24:45.09	321.81	12.84	-40.7	-43.7	14.0	4.50e-06	0	57	0	1034944512	52	5277
2026-01-05 11:24:46.10	321.93	12.76	-40.6	-43.6	14.2	1.50e-06	0	57	0	1037041664	52	5171
2026-01-05 11:24:47.11	322.06	12.69	-40.6	-43.7	14.1	2.20e-06	0	56	0	1039138816	52	5230
2026-01-05 11:24:48.12	322.18	12.61	-40.7	-43.8	14.0	3.80e-06	0	56	0	1041235968	52	5295
2026-01-05 11:24:49.13	322.31	12.54	-40.6	-43.7	14.1	4.50e-06	0	56	0	1042284544	52	5247
2026-01-05 11:24:50.14	322.43	12.46	-40.7	-43.8	13.9	3.00e-06	0	56	0	1044381696	52	5317
2026-01-05 11:24:51.15	322.55	12.39	-40.7	-43.8	14.0	1.50e-06	0	57	0	1046478848	52	5303
2026-01-05 11:24:52.16	322.68	12.31	-40.8	-44.0	13.8	3.00e-06	0	57	0	1048576000	52	5410
2026-01-05 11:24:53.17	322.80	12.24	-40.8	-44.0	13.7	1.50e-06	0	56	0	1050673152	52	5446
2026-01-05 11:24:54.18	322.92	12.16	-40.8	-44.0	13.8	3.00e-06	0	56	0	1051721728	52	5405
2026-01-05 11:24:55.19	323.04	12.09	-40.8	-44.0	13.7	6.10e-06	0	56	0	1053818880	52	5430
2026-01-05 11:24:56.20	323.16	12.01	-40.8	-43.9	13.8	7.60e-06	0	56	0	1055916032	52	5393
2026-01-05 11:24:57.21	323.28	11.94	-40.8	-43.9	13.8	3.00e-06	0	56	0	1058013184	52	5398
2026-01-05 11:24:58.21	323.40	11.86	-40.9	-44.1	13.6	6.10e-06	0	56	0	1060110336	52	5488
2026-01-05 11:24:59.22	323.51	11.79	-40.7	-43.9	13.8	3.00e-06	0	56	0	1062207488	52	5355
2026-01-05 11:25:00.23	323.63	11.71	-40.6	-43.7	14.0	3.00e-06	0	56	0	1063256064	52	5274
2026-01-05 11:25:01.24	323.75	11.64	-40.7	-43.8	13.9	4.50e-06	0	57	0	1065353216	52	5314
2026-01-05 11:25:02.25	323.87	11.57	-40.6	-43.6	14.1	4.50e-06	0	57	0	1067450368	52	5213
2026-01-05 11:25:03.26	323.98	11.49	-40.6	-43.8	13.9	3.00e-06	0	57	0	1069547520	52	5296
2026-01-05 11:25:04.27	324.10	11.42	-40.7	-43.9	13.8	5.30e-06	0	57	0	1071644672	52	5356
2026-01-05 11:25:05.28	324.21	11.35	-40.8	-44.0	13.7	7.60e-06	0	57	0	1072693248	52	5463
2026-01-05 11:25:06.29	324.32	11.27	-40.8	-44.1	13.5	9.90e-06	0	56	0	1074790400	52	5509
2026-01-05 11:25:07.30	324.44	11.20	-40.9	-44.3	13.4	6.10e-06	0	56	0	1076887552	52	5607
2026-01-05 11:25:08.31	324.55	11.13	-41.0	-44.5	13.2	2.21e-05	0	56	0	1078984704	52	5749
2026-01-05 11:25:09.32	324.66	11.05	-41.1	-44.6	13.0	3.43e-05	0	57	0	1081081856	52	5853
2026-01-05 11:25:10.33	324.78	10.98	-41.1	-44.6	13.0	4.73e-05	0	56	0	1082130432	52	5849
2026-01-05 11:25:11.34	324.89	10.91	-41.2	-44.9	12.7	7.47e-05	0	56	0	1084227584	53	5680
2026-01-05 11:25:12.34	325.00	10.83	-41.3	-45.1	12.5	9.00e-05	0	57	0	1086324736	53	5789
2026-01-05 11:25:13.35	325.11	10.76	-41.3	-45.0	12.6	1.20e-04	0	56	0	1088421888	53	5762
2026-01-05 11:25:14.36	325.22	10.69	-41.4	-45.2	12.4	1.40e-04	0	57	0	1090519040	53	5868
2026-01-05 11:25:15.37	325.33	10.62	-41.5	-45.3	12.2	1.89e-04	0	57	0	1091567616	53	5981
2026-01-05 11:25:16.38	325.44	10.55	-41.5	-45.4	12.1	1.93e-04	0	57	0	1093664768	53	6035
2026-01-05 11:25:17.39	325.54	10.47	-41.5	-45.4	12.1	2.96e-04	0	56	0	1095761920	53	6049
2026-01-05 11:25:18.40	325.65	10.40	-41.5	-45.4	12.1	3.04e-04	0	56	0	1097859072	53	6059
2026-01-05 11:25:19.41	325.76	10.33	-41.5	-45.5	12.0	3.38e-04	0	56	0	1099956224	53	6090
2026-01-05 11:25:20.42	325.87	10.26	-41.5	-45.5	12.0	3.33e-04	0	56	0	1101004800	53	6118
2026-01-05 11:25:21.43	325.97	10.19	-41.6	-45.6	11.9	3.14e-04	0	56	0	1103101952	53	6178
2026-01-05 11:25:22.45	326.08	10.11	-41.5	-45.4	12.1	3.21e-04	0	57	0	1105199104	53	6050
2026-01-05 11:25:23.45	326.18	10.04	-41.4	-45.4	12.1	2.59e-04	0	56	0	1107296256	53	6010
2026-01-05 11:25:24.46	326.29	9.97	-41.5	-45.5	12.0	3.53e-04	0	57	0	1109393408	53	6095
2026-01-05 11:25:25.47	326.39	9.90	-41.4	-45.4	12.1	2.21e-04	0	57	0	1110441984	53	5993
2026-01-05 11:25:26.48	326.50	9.83	-41.4	-45.2	12.3	2.48e-04	0	57	0	1112539136	53	5901
2026-01-05 11:25:27.49	326.60	9.76	-41.4	-45.4	12.1	2.82e-04	0	56	0	1114636288	53	5993
2026-01-05 11:25:28.50	326.70	9.69	-41.4	-45.3	12.1	2.08e-04	0	56	0	1116733440	53	5963
2026-01-05 11:25:29.51	326.80	9.62	-41.5	-45.5	12.0	2.66e-04	0	56	0	1118830592	53	6080
2026-01-05 11:25:30.52	326.91	9.55	-41.4	-45.3	12.1	2.59e-04	0	56	0	1119879168	53	5989
2026-01-05 11:25:31.53	327.01	9.48	-41.3	-45.2	12.2	2.73e-04	0	56	0	1121976320	53	5879
2026-01-05 11:25:32.54	327.11	9.41	-41.3	-45.2	12.2	2.23e-04	0	57	0	1124073472	53	5910
2026-01-05 11:25:33.55	327.21	9.34	-41.3	-45.1	12.3	2.04e-04	0	57	0	1126170624	53	5855
2026-01-05 11:25:34.56	327.31	9.27	-41.2	-45.0	12.5	1.46e-04	0	57	0	1128267776	53	5732
2026-01-05 11:25:35.57	327.41	9.20	-41.1	-44.9	12.5	1.36e-04	0	56	0	1130364928	53	5682
2026-01-05 11:25:36.58	327.51	9.13	-41.1	-44.9	12.6	1.07e-04	0	57	0	1131413504	53	5664
2026-01-05 11:25:37.59	327.61	9.06	-41.1	-44.8	12.6	9.15e-05	0	56	0	1133510656	53	5604
2026-01-05 11:25:38.60	327.71	8.99	-41.1	-44.8	12.6	9.84e-05	0	56	0	1135607808	53	5632
2026-01-05 11:25:39.61	327.80	8.92	-41.1	-44.9	12.5	1.21e-04	0	56	0	1137704960	53	5659
2026-01-05 11:25:40.61	327.90	8.85	-41.2	-44.9	12.4	1.60e-04	0	56	0	1139802112	53	5713
2026-01-05 11:25:41.62	328.00	8.78	-41.1	-44.8	12.5	1.37e-04	0	57	0	1140850688	53	5643
2026-01-05 11:25:42.63	328.09	8.71	-41.1	-44.8	12.5	1.16e-04	0	56	0	1142947840	53	5652
2026-01-05 11:25:43.64	328.19	8.64	-41.2	-45.0	12.3	1.68e-04	0	57	0	1145044992	53	5747
2026-01-05 11:25:44.65	328.28	8.57	-41.3	-45.3	12.0	2.84e-04	0	56	0	1147142144	53	5929
2026-01-05 11:25:45.66	328.38	8.51	-41.3	-45.3	12.0	2.41e-04	0	56	0	1148190720	53	5953
2026-01-05 11:25:46.67	328.47	8.44	-41.3	-45.4	11.9	3.75e-04	0	57	0	1150287872	53	6017
2026-01-05 11:25:47.68	328.57	8.37	-41.3	-45.4	11.9	5.48e-04	0	56	0	1152385024	53	6021
