passes_logs/2026/01/05/R2.0S_Moscow/R2.0S_Moscow__20260105_152051_FENGYUN_3E_rec.log

#Pass ID: 20260105_152051_FENGYUN 3E
#Satellite: FENGYUN 3E
#Configuration: FENGYUN 3E
#almurnet v.1.7.20251203
#Start time: 2026-01-05 15:20:52

#Version: 2.2.20231116
#Station: R2.0S_Moscow
#Location: 37.707566 lon 55.798166 lat
#TLE: 1 49008U 21062A   26004.99925679  .00000018  00000+0  29282-4 0  9995
#TLE: 2 49008  98.7472  10.2448 0001540 159.6420 200.4818 14.19883565233423

#Time	Az	El	Level	Level2	SNR	BER	BlckErr	Temp	State	Recorded	gain1	gain2
2026-01-05 15:20:52.28	194.93	2.08	-44.1	-54.8	3.8	8.47e-01	0	47	0	0	59	11945
2026-01-05 15:20:53.28	194.99	2.14	-44.1	-54.8	3.8	8.47e-01	0	47	104	0	59	11936
2026-01-05 15:20:54.29	195.04	2.20	-44.1	-54.8	3.8	8.45e-01	0	47	104	0	59	11915
2026-01-05 15:20:55.30	195.10	2.26	-44.1	-54.8	3.8	8.46e-01	0	47	104	0	59	11941
2026-01-05 15:20:56.32	195.16	2.32	-44.1	-54.8	3.8	8.46e-01	0	48	104	0	59	11910
2026-01-05 15:20:57.33	195.21	2.38	-44.1	-54.8	3.8	8.46e-01	0	48	104	0	59	11904
2026-01-05 15:20:58.34	195.27	2.44	-44.1	-54.8	3.8	8.45e-01	0	47	104	0	59	11949
2026-01-05 15:20:59.35	195.32	2.50	-44.1	-54.8	3.8	8.46e-01	0	48	104	0	59	11928
2026-01-05 15:21:00.36	195.38	2.56	-44.1	-54.8	3.8	8.46e-01	0	48	104	0	59	11926
2026-01-05 15:21:01.37	195.44	2.62	-44.1	-54.8	3.8	8.46e-01	0	48	104	0	59	11917
2026-01-05 15:21:02.38	195.49	2.68	-44.1	-54.9	3.8	8.46e-01	0	48	104	0	59	11963
2026-01-05 15:21:03.39	195.55	2.74	-44.1	-54.8	3.8	8.45e-01	0	48	104	0	59	11943
2026-01-05 15:21:04.40	195.61	2.80	-44.1	-54.8	3.8	8.46e-01	0	48	104	0	59	11909
2026-01-05 15:21:05.42	195.67	2.87	-44.1	-54.8	3.8	8.47e-01	0	48	104	0	59	11907
2026-01-05 15:21:06.43	195.72	2.93	-44.1	-54.9	3.8	8.46e-01	0	48	104	0	59	11959
2026-01-05 15:21:07.44	195.78	2.99	-44.1	-54.8	3.8	8.46e-01	0	48	104	0	59	11940
2026-01-05 15:21:08.45	195.84	3.05	-44.1	-54.8	3.8	8.47e-01	0	48	104	0	59	11922
2026-01-05 15:21:09.46	195.90	3.11	-44.1	-54.8	3.8	8.46e-01	0	48	104	0	59	11893
2026-01-05 15:21:10.47	195.96	3.17	-44.1	-54.8	3.8	8.47e-01	0	49	104	0	59	11929
2026-01-05 15:21:11.48	196.02	3.24	-44.1	-54.8	3.8	8.46e-01	0	48	104	0	59	11947
2026-01-05 15:21:12.49	196.08	3.30	-44.1	-54.8	3.8	8.46e-01	0	49	104	0	59	11920
2026-01-05 15:21:13.50	196.14	3.36	-44.1	-54.8	3.8	8.46e-01	0	49	104	0	59	11914
2026-01-05 15:21:14.51	196.20	3.42	-44.1	-54.9	3.8	8.46e-01	0	49	104	0	59	11966
2026-01-05 15:21:15.53	196.26	3.49	-44.1	-54.8	3.8	8.47e-01	0	49	104	0	59	11913
2026-01-05 15:21:16.54	196.32	3.55	-44.1	-54.8	3.8	8.47e-01	0	49	104	0	59	11954
2026-01-05 15:21:17.55	196.38	3.61	-44.1	-54.8	3.8	8.45e-01	0	49	104	0	59	11930
2026-01-05 15:21:18.56	196.44	3.67	-44.1	-54.8	3.8	8.47e-01	0	49	104	0	59	11915
2026-01-05 15:21:19.57	196.50	3.74	-44.1	-54.8	3.8	8.46e-01	0	49	104	0	59	11943
2026-01-05 15:21:20.58	196.56	3.80	-44.1	-54.8	3.8	8.46e-01	0	49	104	0	59	11952
2026-01-05 15:21:21.59	196.62	3.86	-44.1	-54.8	3.8	8.46e-01	0	49	104	0	59	11933
2026-01-05 15:21:22.60	196.68	3.93	-44.1	-54.8	3.8	8.47e-01	0	49	104	0	59	11885
2026-01-05 15:21:23.61	196.75	3.99	-44.1	-54.8	3.8	8.46e-01	0	49	104	0	59	11905
2026-01-05 15:21:24.62	196.81	4.05	-44.1	-54.8	3.8	8.45e-01	0	49	104	0	59	11879
2026-01-05 15:21:25.63	196.87	4.12	-44.1	-54.8	3.8	8.45e-01	0	49	104	0	59	11824
2026-01-05 15:21:26.64	196.93	4.18	-44.1	-54.8	3.8	8.46e-01	0	49	104	0	59	11891
2026-01-05 15:21:27.65	197.00	4.24	-44.1	-54.8	3.8	8.48e-01	0	50	104	0	59	11875
2026-01-05 15:21:28.66	197.06	4.31	-44.1	-54.7	3.8	8.46e-01	0	50	104	0	59	11818
2026-01-05 15:21:29.67	197.12	4.37	-44.0	-54.7	3.8	8.47e-01	0	50	104	0	59	11808
2026-01-05 15:21:30.68	197.19	4.44	-44.1	-54.8	3.8	8.47e-01	0	50	104	0	59	11851
2026-01-05 15:21:31.69	197.25	4.50	-44.1	-54.8	3.8	8.47e-01	0	50	104	0	59	11919
2026-01-05 15:21:32.71	197.32	4.57	-44.1	-54.7	3.8	8.45e-01	0	50	104	0	59	11768
2026-01-05 15:21:33.72	197.38	4.63	-44.1	-54.7	3.8	8.46e-01	0	50	104	0	59	11805
2026-01-05 15:21:34.73	197.45	4.70	-44.1	-54.7	3.8	8.45e-01	0	50	104	0	59	11755
2026-01-05 15:21:35.74	197.51	4.76	-44.1	-54.7	3.8	8.46e-01	0	50	104	0	59	11811
2026-01-05 15:21:36.75	197.58	4.83	-44.0	-54.6	3.8	8.46e-01	0	50	104	0	59	11607
2026-01-05 15:21:37.76	197.64	4.89	-44.1	-54.6	3.8	8.46e-01	0	50	104	0	59	11597
2026-01-05 15:21:38.77	197.71	4.96	-44.0	-54.4	3.8	8.46e-01	0	50	104	0	59	11297
2026-01-05 15:21:39.78	197.77	5.02	-44.0	-54.0	3.8	8.46e-01	0	50	104	0	58	11548
2026-01-05 15:21:40.80	197.84	5.09	-43.9	-53.8	3.8	8.46e-01	0	50	104	0	58	11276
2026-01-05 15:21:41.81	197.91	5.15	-43.9	-53.6	3.8	8.47e-01	0	50	104	0	58	10983
2026-01-05 15:21:42.82	197.98	5.22	-43.9	-53.6	3.8	8.45e-01	0	51	104	0	58	10986
2026-01-05 15:21:43.83	198.04	5.29	-43.9	-53.7	3.8	8.45e-01	0	51	104	0	58	11131
2026-01-05 15:21:44.84	198.11	5.35	-43.8	-52.9	3.8	8.46e-01	0	51	104	0	58	10175
2026-01-05 15:21:45.85	198.18	5.42	-43.7	-52.3	4.0	8.44e-01	0	51	104	0	58	9486
2026-01-05 15:21:46.86	198.25	5.48	-43.7	-52.7	3.8	8.44e-01	0	51	104	0	58	9941
2026-01-05 15:21:47.87	198.32	5.55	-43.8	-53.0	3.8	8.46e-01	0	51	104	0	58	10207
2026-01-05 15:21:48.88	198.39	5.62	-43.7	-52.8	3.8	8.45e-01	0	51	104	0	58	9961
2026-01-05 15:21:49.89	198.45	5.68	-43.7	-52.5	3.8	8.45e-01	0	51	104	0	58	9677
2026-01-05 15:21:50.91	198.52	5.75	-43.7	-52.8	3.8	8.44e-01	0	51	104	0	58	9956
2026-01-05 15:21:51.92	198.59	5.82	-43.8	-52.9	3.8	8.45e-01	0	51	104	0	58	10060
2026-01-05 15:21:52.93	198.66	5.89	-43.7	-52.7	3.8	8.43e-01	0	51	104	0	58	9892
2026-01-05 15:21:53.94	198.74	5.95	-43.8	-52.6	3.9	8.45e-01	0	51	104	0	58	9829
2026-01-05 15:21:54.95	198.81	6.02	-43.8	-53.0	3.9	8.44e-01	0	51	104	0	58	10191
2026-01-05 15:21:55.96	198.88	6.09	-43.8	-53.1	3.8	8.45e-01	0	51	104	0	58	10398
2026-01-05 15:21:56.97	198.95	6.16	-43.8	-53.2	3.8	8.46e-01	0	51	104	0	58	10478
2026-01-05 15:21:57.98	199.02	6.22	-43.8	-53.2	3.8	8.46e-01	0	51	104	0	58	10478
2026-01-05 15:21:58.99	199.09	6.29	-43.8	-52.9	3.8	8.45e-01	0	51	104	0	58	10078
2026-01-05 15:22:00.01	199.17	6.36	-43.8	-52.7	3.8	8.45e-01	0	51	104	0	58	9878
2026-01-05 15:22:01.02	199.24	6.43	-43.8	-52.9	3.8	8.45e-01	0	52	104	0	58	10142
2026-01-05 15:22:02.03	199.31	6.50	-43.8	-53.2	3.8	8.45e-01	0	51	104	0	58	10509
2026-01-05 15:22:03.04	199.38	6.57	-43.8	-53.0	3.8	8.45e-01	0	51	104	0	58	10265
2026-01-05 15:22:04.05	199.46	6.63	-43.8	-53.0	3.8	8.45e-01	0	52	104	0	58	10178
2026-01-05 15:22:05.06	199.53	6.70	-43.7	-52.3	3.9	8.44e-01	0	52	104	0	58	9450
2026-01-05 15:22:06.07	199.61	6.77	-43.5	-51.3	4.2	8.39e-01	0	52	0	0	58	8440
2026-01-05 15:22:07.08	199.68	6.84	-43.4	-50.8	4.3	8.34e-01	0	52	0	0	57	8431
2026-01-05 15:22:08.09	199.76	6.91	-43.1	-49.8	4.7	8.06e-01	0	52	0	0	57	7482
2026-01-05 15:22:09.10	199.83	6.98	-42.8	-48.6	5.4	7.36e-01	0	52	0	0	56	6883
2026-01-05 15:22:10.11	199.91	7.05	-42.2	-47.4	6.1	4.37e-01	0	52	0	3145728	55	6369
2026-01-05 15:22:11.13	199.98	7.12	-41.6	-46.1	7.3	1.61e-01	0	52	0	10485760	54	5808
2026-01-05 15:22:12.13	200.06	7.19	-41.0	-44.9	8.5	6.60e-02	0	52	0	17825792	53	5352
2026-01-05 15:22:13.15	200.14	7.26	-40.2	-43.5	10.0	1.22e-02	0	52	0	25165824	51	5109
2026-01-05 15:22:14.16	200.22	7.33	-39.8	-42.8	10.6	5.56e-03	0	52	0	32505856	50	5031
2026-01-05 15:22:15.17	200.29	7.40	-39.2	-42.1	11.4	1.26e-03	0	52	0	39845888	49	4879
2026-01-05 15:22:16.18	200.37	7.47	-38.6	-41.3	12.2	3.62e-04	0	52	0	46137344	48	4716
2026-01-05 15:22:17.19	200.45	7.54	-37.5	-40.3	12.8	8.46e-05	0	52	0	54525952	46	4708
2026-01-05 15:22:18.20	200.53	7.61	-37.6	-40.0	13.3	3.66e-05	0	52	0	60817408	46	4569
2026-01-05 15:22:19.21	200.61	7.68	-37.2	-39.5	13.7	4.50e-06	0	52	0	68157440	45	4576
2026-01-05 15:22:20.22	200.69	7.75	-36.9	-39.2	14.1	2.20e-06	0	52	0	75497472	44	4691
2026-01-05 15:22:21.23	200.77	7.83	-36.8	-39.0	14.3	0.00e+00	0	52	0	82837504	44	4578
2026-01-05 15:22:22.25	200.85	7.90	-36.8	-39.0	14.2	0.00e+00	0	52	0	90177536	44	4592
2026-01-05 15:22:23.26	200.93	7.97	-36.7	-39.0	14.3	0.00e+00	0	52	0	97517568	44	4553
2026-01-05 15:22:24.27	201.01	8.04	-36.2	-38.3	14.9	0.00e+00	0	52	0	104857600	43	4464
2026-01-05 15:22:25.28	201.09	8.11	-44.4	-53.7	3.9	8.41e-01	0	53	104	106954752	58	11150
2026-01-05 15:22:26.29	201.17	8.19	-40.8	-44.6	8.4	7.08e-01	0	53	0	109051904	52	5471
2026-01-05 15:22:27.30	201.25	8.26	-39.5	-42.4	11.4	1.13e-03	0	53	0	116391936	49	5066
2026-01-05 15:22:28.31	201.33	8.33	-38.5	-41.0	12.7	6.36e-04	0	53	0	123731968	48	4587
2026-01-05 15:22:29.32	201.42	8.40	-39.8	-42.9	10.6	8.26e-03	0	53	0	131072000	50	5096
2026-01-05 15:22:30.33	201.50	8.48	-37.3	-39.6	13.9	6.80e-06	0	53	0	138412032	45	4622
2026-01-05 15:22:31.34	201.58	8.55	-37.4	-39.7	13.8	4.50e-06	0	53	0	145752064	45	4704
2026-01-05 15:22:32.35	201.67	8.62	-37.2	-39.5	14.1	6.80e-06	0	53	0	153092096	45	4555
2026-01-05 15:22:33.36	201.75	8.69	-37.1	-39.4	14.2	0.00e+00	0	53	0	160432128	45	4506
2026-01-05 15:22:34.37	201.84	8.77	-36.9	-39.0	14.5	0.00e+00	0	53	0	167772160	44	4590
2026-01-05 15:22:35.38	201.92	8.84	-36.8	-39.0	14.5	0.00e+00	0	53	0	175112192	44	4577
2026-01-05 15:22:36.39	202.01	8.91	-36.7	-38.9	14.7	1.10e-06	0	53	0	182452224	44	4500
2026-01-05 15:22:37.40	202.09	8.99	-36.8	-39.0	14.6	0.00e+00	0	53	0	189792256	44	4559
2026-01-05 15:22:38.41	202.18	9.06	-36.7	-38.9	14.7	0.00e+00	0	53	0	197132288	44	4508
2026-01-05 15:22:39.42	202.27	9.14	-36.7	-38.8	14.7	0.00e+00	0	53	0	204472320	44	4492
2026-01-05 15:22:40.43	202.35	9.21	-36.6	-38.7	14.9	0.00e+00	0	53	0	210763776	44	4430
2026-01-05 15:22:41.44	202.44	9.29	-36.6	-38.7	14.9	0.00e+00	0	53	0	219152384	44	4412
2026-01-05 15:22:42.45	202.53	9.36	-36.7	-38.8	14.9	0.00e+00	0	53	0	226492416	44	4451
2026-01-05 15:22:43.46	202.62	9.43	-36.6	-38.7	14.9	0.00e+00	0	53	0	232783872	44	4405
2026-01-05 15:22:44.47	202.71	9.51	-36.7	-38.8	14.9	1.10e-06	0	53	0	240123904	44	4449
2026-01-05 15:22:45.48	202.80	9.59	-36.7	-38.8	14.9	0.00e+00	0	53	0	247463936	44	4444
2026-01-05 15:22:46.49	202.89	9.66	-36.8	-38.9	14.8	0.00e+00	0	53	0	254803968	44	4521
2026-01-05 15:22:47.50	202.98	9.74	-36.9	-38.9	14.8	0.00e+00	0	53	0	262144000	44	4541
2026-01-05 15:22:48.51	203.07	9.81	-36.8	-38.8	14.9	0.00e+00	0	53	0	269484032	44	4478
2026-01-05 15:22:49.52	203.16	9.89	-36.7	-38.7	15.0	0.00e+00	0	53	0	276824064	44	4412
2026-01-05 15:22:50.53	203.25	9.96	-36.3	-38.3	15.3	0.00e+00	0	53	0	284164096	43	4452
2026-01-05 15:22:51.54	203.34	10.04	-36.3	-38.2	15.4	0.00e+00	0	53	0	291504128	43	4425
2026-01-05 15:22:52.55	203.44	10.12	-36.2	-38.1	15.5	0.00e+00	0	53	0	298844160	43	4381
2026-01-05 15:22:53.56	203.53	10.19	-36.3	-38.3	15.4	0.00e+00	0	53	0	306184192	43	4449
2026-01-05 15:22:54.57	203.62	10.27	-36.3	-38.2	15.4	0.00e+00	0	53	0	313524224	43	4418
2026-01-05 15:22:55.58	203.72	10.35	-36.1	-38.0	15.6	0.00e+00	0	53	0	320864256	43	4318
2026-01-05 15:22:56.59	203.81	10.42	-36.1	-38.0	15.7	0.00e+00	0	53	0	328204288	42	4566
2026-01-05 15:22:57.60	203.91	10.50	-36.1	-38.0	15.6	0.00e+00	0	53	0	335544320	42	4589
2026-01-05 15:22:58.61	204.00	10.58	-36.2	-38.2	15.5	0.00e+00	0	53	0	342884352	42	4659
2026-01-05 15:22:59.62	204.10	10.66	-36.0	-37.9	15.8	0.00e+00	0	54	0	350224384	42	4523
2026-01-05 15:23:00.63	204.20	10.73	-36.2	-38.1	15.6	0.00e+00	0	54	0	357564416	42	4634
2026-01-05 15:23:01.64	204.29	10.81	-36.1	-38.0	15.7	0.00e+00	0	54	0	364904448	42	4587
2026-01-05 15:23:02.65	204.39	10.89	-36.1	-38.0	15.7	0.00e+00	0	53	0	372244480	42	4572
2026-01-05 15:23:03.66	204.49	10.97	-36.1	-38.0	15.8	0.00e+00	0	54	0	379584512	42	4551
2026-01-05 15:23:04.67	204.59	11.05	-36.1	-37.9	15.8	0.00e+00	0	54	0	385875968	42	4545
2026-01-05 15:23:05.68	204.69	11.12	-36.0	-37.9	15.9	0.00e+00	0	54	0	393216000	42	4506
2026-01-05 15:23:06.69	204.78	11.20	-36.0	-37.8	16.0	0.00e+00	0	54	0	401604608	42	4475
2026-01-05 15:23:07.70	204.88	11.28	-35.9	-37.8	15.9	0.00e+00	0	54	0	407896064	42	4477
2026-01-05 15:23:08.71	204.99	11.36	-35.9	-37.7	16.1	0.00e+00	0	54	0	415236096	42	4430
2026-01-05 15:23:09.72	205.09	11.44	-35.8	-37.7	16.1	0.00e+00	0	54	0	422576128	42	4399
2026-01-05 15:23:10.73	205.19	11.52	-35.8	-37.6	16.2	0.00e+00	0	54	0	429916160	42	4358
2026-01-05 15:23:11.75	205.29	11.60	-35.8	-37.6	16.2	0.00e+00	0	54	0	437256192	42	4375
2026-01-05 15:23:12.76	205.39	11.68	-35.8	-37.6	16.2	0.00e+00	0	54	0	444596224	42	4377
2026-01-05 15:23:13.77	205.50	11.76	-35.6	-37.5	16.3	0.00e+00	0	54	0	451936256	42	4309
2026-01-05 15:23:14.78	205.60	11.84	-35.7	-37.6	16.2	0.00e+00	0	54	0	459276288	42	4344
2026-01-05 15:23:15.79	205.71	11.92	-35.6	-37.4	16.4	0.00e+00	0	54	0	466616320	42	4286
2026-01-05 15:23:16.80	205.81	12.00	-35.6	-37.4	16.4	0.00e+00	0	54	0	473956352	41	4545
2026-01-05 15:23:17.81	205.92	12.08	-35.5	-37.4	16.4	0.00e+00	0	54	0	481296384	41	4509
2026-01-05 15:23:18.82	206.02	12.16	-35.5	-37.4	16.4	0.00e+00	0	54	0	488636416	41	4512
2026-01-05 15:23:19.83	206.13	12.24	-35.5	-37.4	16.4	0.00e+00	0	54	0	495976448	41	4519
2026-01-05 15:23:20.84	206.23	12.33	-35.5	-37.3	16.5	0.00e+00	0	54	0	503316480	41	4480
2026-01-05 15:23:21.85	206.34	12.41	-35.6	-37.5	16.4	0.00e+00	0	54	0	510656512	41	4551
2026-01-05 15:23:22.86	206.45	12.49	-35.5	-37.4	16.5	0.00e+00	0	54	0	517996544	41	4494
2026-01-05 15:23:23.87	206.56	12.57	-35.5	-37.4	16.5	0.00e+00	0	54	0	525336576	41	4508
2026-01-05 15:23:24.88	206.67	12.65	-35.5	-37.4	16.5	0.00e+00	0	54	0	532676608	41	4510
2026-01-05 15:23:25.89	206.78	12.74	-35.4	-37.4	16.5	0.00e+00	0	54	0	540016640	41	4508
2026-01-05 15:23:26.90	206.89	12.82	-35.3	-37.2	16.6	0.00e+00	0	54	0	547356672	41	4436
2026-01-05 15:23:27.91	207.00	12.90	-35.5	-37.5	16.4	0.00e+00	0	54	0	553648128	41	4571
2026-01-05 15:23:28.92	207.11	12.98	-35.4	-37.4	16.5	0.00e+00	0	54	0	560988160	41	4515
2026-01-05 15:23:29.93	207.23	13.07	-35.4	-37.4	16.5	0.00e+00	0	54	0	568328192	41	4513
2026-01-05 15:23:30.94	207.34	13.15	-35.4	-37.4	16.5	0.00e+00	0	54	0	575668224	41	4507
2026-01-05 15:23:31.95	207.45	13.23	-35.3	-37.3	16.6	1.10e-06	0	54	0	583008256	41	4448
2026-01-05 15:23:32.96	207.57	13.32	-35.3	-37.3	16.5	0.00e+00	0	54	0	590348288	41	4463
2026-01-05 15:23:33.97	207.68	13.40	-35.3	-37.3	16.5	0.00e+00	0	54	0	597688320	41	4456
2026-01-05 15:23:34.98	207.80	13.48	-35.2	-37.2	16.6	0.00e+00	0	54	0	605028352	41	4409
2026-01-05 15:23:35.99	207.91	13.57	-35.2	-37.1	16.6	0.00e+00	0	54	0	612368384	41	4383
2026-01-05 15:23:37.00	208.03	13.65	-35.2	-37.1	16.6	0.00e+00	0	54	0	619708416	41	4389
2026-01-05 15:23:38.00	208.15	13.74	-35.1	-37.1	16.7	0.00e+00	0	54	0	627048448	41	4363
2026-01-05 15:23:39.01	208.26	13.82	-35.1	-37.1	16.7	0.00e+00	0	54	0	634388480	41	4351
2026-01-05 15:23:40.02	208.38	13.91	-35.1	-37.1	16.7	0.00e+00	0	54	0	641728512	41	4353
2026-01-05 15:23:41.03	208.50	13.99	-35.1	-37.1	16.6	0.00e+00	0	55	0	649068544	41	4388
2026-01-05 15:23:42.04	208.62	14.08	-35.0	-37.0	16.7	0.00e+00	0	54	0	656408576	41	4337
2026-01-05 15:23:43.05	208.74	14.16	-35.1	-37.1	16.7	0.00e+00	0	55	0	663748608	40	4611
2026-01-05 15:23:44.06	208.86	14.25	-35.1	-37.1	16.7	0.00e+00	0	55	0	671088640	40	4613
2026-01-05 15:23:45.07	208.99	14.33	-35.0	-37.0	16.7	0.00e+00	0	54	0	678428672	40	4598
2026-01-05 15:23:46.08	209.11	14.42	-35.0	-37.0	16.8	0.00e+00	0	54	0	684720128	40	4548
2026-01-05 15:23:47.09	209.23	14.50	-34.9	-36.9	16.8	0.00e+00	0	55	0	693108736	40	4527
2026-01-05 15:23:48.10	209.36	14.59	-34.9	-36.8	17.0	0.00e+00	0	55	0	700448768	40	4472
2026-01-05 15:23:49.11	209.48	14.68	-34.8	-36.7	17.1	0.00e+00	0	55	0	706740224	40	4418
2026-01-05 15:23:50.12	209.61	14.76	-34.8	-36.7	17.0	0.00e+00	0	55	0	714080256	40	4420
2026-01-05 15:23:51.13	209.73	14.85	-34.7	-36.6	17.2	0.00e+00	0	55	0	721420288	40	4352
2026-01-05 15:23:52.14	209.86	14.94	-34.6	-36.5	17.3	0.00e+00	0	54	0	728760320	40	4312
2026-01-05 15:23:53.15	209.99	15.02	-34.6	-36.5	17.3	0.00e+00	0	55	0	736100352	40	4293
2026-01-05 15:23:54.16	210.12	15.11	-34.7	-36.5	17.3	0.00e+00	0	55	0	743440384	40	4325
2026-01-05 15:23:55.17	210.25	15.20	-34.7	-36.5	17.3	0.00e+00	0	55	0	750780416	40	4323
2026-01-05 15:23:56.17	210.37	15.29	-34.6	-36.4	17.3	0.00e+00	0	55	0	758120448	40	4291
2026-01-05 15:23:57.19	210.51	15.38	-34.6	-36.4	17.4	0.00e+00	0	55	0	765460480	40	4281
2026-01-05 15:23:58.20	210.64	15.46	-34.6	-36.4	17.4	0.00e+00	0	55	0	772800512	40	4288
2026-01-05 15:23:59.21	210.77	15.55	-34.6	-36.4	17.4	0.00e+00	0	55	0	780140544	40	4282
2026-01-05 15:24:00.22	210.90	15.64	-34.6	-36.5	17.4	0.00e+00	0	55	0	787480576	40	4295
2026-01-05 15:24:01.23	211.04	15.73	-34.7	-36.5	17.4	0.00e+00	0	55	0	794820608	40	4305
2026-01-05 15:24:02.24	211.17	15.82	-34.7	-36.5	17.3	0.00e+00	0	55	0	802160640	40	4325
2026-01-05 15:24:03.25	211.31	15.91	-34.6	-36.4	17.4	0.00e+00	0	55	0	809500672	40	4289
2026-01-05 15:24:04.25	211.44	16.00	-34.6	-36.4	17.4	0.00e+00	0	55	0	816840704	40	4281
2026-01-05 15:24:05.26	211.58	16.08	-34.7	-36.6	17.3	0.00e+00	0	55	0	824180736	40	4345
2026-01-05 15:24:06.27	211.72	16.17	-34.7	-36.5	17.4	0.00e+00	0	55	0	831520768	40	4292
2026-01-05 15:24:07.28	211.85	16.26	-34.6	-36.4	17.5	0.00e+00	0	55	0	837812224	40	4272
2026-01-05 15:24:08.29	211.99	16.35	-34.7	-36.5	17.4	0.00e+00	0	55	0	846200832	40	4306
2026-01-05 15:24:09.30	212.13	16.44	-34.6	-36.4	17.5	0.00e+00	0	55	0	853540864	40	4266
2026-01-05 15:24:10.31	212.27	16.53	-34.6	-36.3	17.6	0.00e+00	0	55	0	859832320	40	4232
2026-01-05 15:24:11.32	212.42	16.62	-34.6	-36.3	17.6	0.00e+00	0	55	0	867172352	40	4227
2026-01-05 15:24:12.33	212.56	16.72	-34.6	-36.3	17.6	0.00e+00	0	55	0	875560960	40	4233
2026-01-05 15:24:13.34	212.70	16.81	-34.5	-36.2	17.7	0.00e+00	0	55	0	881852416	40	4181
2026-01-05 15:24:14.36	212.85	16.90	-34.6	-36.3	17.7	0.00e+00	0	55	0	889192448	39	4492
2026-01-05 15:24:15.37	212.99	16.99	-34.5	-36.2	17.8	1.10e-06	0	55	0	896532480	39	4426
2026-01-05 15:24:16.38	213.14	17.08	-34.5	-36.2	17.8	0.00e+00	0	55	0	903872512	39	4401
2026-01-05 15:24:17.39	213.29	17.17	-34.4	-36.0	18.0	0.00e+00	0	55	0	911212544	39	4323
2026-01-05 15:24:18.40	213.43	17.26	-34.3	-35.9	18.2	0.00e+00	0	55	0	918552576	39	4246
2026-01-05 15:24:19.40	213.58	17.35	-34.2	-35.8	18.2	0.00e+00	0	55	0	925892608	39	4222
2026-01-05 15:24:20.41	213.73	17.45	-34.2	-35.8	18.2	0.00e+00	0	55	0	933232640	39	4232
2026-01-05 15:24:21.42	213.88	17.54	-34.2	-35.8	18.3	0.00e+00	0	55	0	940572672	39	4204
2026-01-05 15:24:22.43	214.03	17.63	-34.2	-35.8	18.2	0.00e+00	0	55	0	947912704	39	4236
2026-01-05 15:24:23.44	214.18	17.72	-34.2	-35.8	18.2	0.00e+00	0	55	0	955252736	39	4242
2026-01-05 15:24:24.45	214.34	17.82	-34.3	-35.9	18.2	0.00e+00	0	55	0	962592768	39	4284
2026-01-05 15:24:25.46	214.49	17.91	-34.3	-36.0	18.1	0.00e+00	0	55	0	969932800	39	4296
2026-01-05 15:24:26.47	214.64	18.00	-34.3	-36.0	18.1	1.10e-06	0	55	0	977272832	39	4302
2026-01-05 15:24:27.48	214.80	18.09	-34.3	-36.0	18.1	4.50e-06	0	55	0	983564288	39	4296
2026-01-05 15:24:28.49	214.96	18.19	-34.1	-35.8	18.3	0.00e+00	0	55	0	991952896	39	4222
2026-01-05 15:24:29.50	215.11	18.28	-34.2	-35.9	18.2	0.00e+00	0	55	0	999292928	39	4262
2026-01-05 15:24:30.51	215.27	18.37	-34.1	-35.8	18.2	0.00e+00	0	55	0	1005584384	38	4486
2026-01-05 15:24:31.52	215.43	18.47	-34.0	-35.7	18.3	0.00e+00	0	55	0	1012924416	38	4436
2026-01-05 15:24:32.52	215.59	18.56	-34.0	-35.8	18.3	0.00e+00	0	55	0	1020264448	38	4442
2026-01-05 15:24:33.53	215.75	18.65	-34.0	-35.8	18.3	0.00e+00	0	55	0	1027604480	38	4450
2026-01-05 15:24:34.54	215.91	18.75	-33.9	-35.7	18.3	0.00e+00	0	55	0	1034944512	38	4407
2026-01-05 15:24:35.55	216.08	18.84	-34.0	-35.7	18.3	0.00e+00	0	55	0	1042284544	38	4431
2026-01-05 15:24:36.56	216.24	18.94	-33.9	-35.6	18.4	0.00e+00	0	55	0	1049624576	38	4382
2026-01-05 15:24:37.57	216.41	19.03	-33.8	-35.6	18.4	0.00e+00	0	55	0	1056964608	38	4362
2026-01-05 15:24:38.58	216.57	19.12	-33.8	-35.5	18.4	1.10e-06	0	55	0	1064304640	38	4315
2026-01-05 15:24:39.60	216.74	19.22	-33.8	-35.5	18.5	0.00e+00	0	55	0	1071644672	38	4318
2026-01-05 15:24:40.61	216.91	19.32	-33.7	-35.4	18.5	1.10e-06	0	55	0	1078984704	38	4278
2026-01-05 15:24:41.62	217.08	19.41	-33.6	-35.2	18.7	0.00e+00	0	55	0	1086324736	38	4192
2026-01-05 15:24:42.63	217.25	19.51	-33.5	-35.1	18.8	0.00e+00	0	55	0	1093664768	37	4379
2026-01-05 15:24:43.64	217.42	19.60	-33.6	-35.2	18.7	0.00e+00	0	55	0	1101004800	37	4431
2026-01-05 15:24:44.65	217.59	19.70	-33.6	-35.3	18.6	0.00e+00	0	55	0	1108344832	37	4456
2026-01-05 15:24:45.65	217.77	19.79	-33.6	-35.3	18.6	0.00e+00	0	55	0	1115684864	37	4469
2026-01-05 15:24:46.66	217.94	19.89	-33.7	-35.4	18.5	0.00e+00	0	55	0	1123024896	37	4522
2026-01-05 15:24:47.67	218.12	19.98	-33.7	-35.5	18.5	3.40e-06	0	55	0	1130364928	37	4549
2026-01-05 15:24:48.68	218.29	20.08	-33.8	-35.5	18.4	2.20e-06	0	55	0	1137704960	37	4595
2026-01-05 15:24:49.69	218.47	20.17	-33.9	-35.6	18.3	1.14e-05	0	55	0	1145044992	37	4644
2026-01-05 15:24:50.71	218.65	20.27	-33.8	-35.6	18.3	0.00e+00	0	55	0	1152385024	37	4616
2026-01-05 15:24:51.72	218.83	20.36	-33.9	-35.6	18.3	3.89e-05	0	55	0	1158676480	37	4639
2026-01-05 15:24:52.73	219.01	20.46	-33.8	-35.6	18.4	1.94e-05	0	55	0	1166016512	37	4614
2026-01-05 15:24:53.74	219.19	20.56	-33.8	-35.6	18.4	4.69e-05	0	55	0	1174405120	37	4599
2026-01-05 15:24:54.75	219.38	20.65	-33.7	-35.4	18.5	1.10e-06	0	56	0	1180696576	37	4514
2026-01-05 15:24:55.76	219.56	20.75	-33.8	-35.5	18.4	0.00e+00	0	55	0	1188036608	37	4571
2026-01-05 15:24:56.76	219.75	20.84	-33.7	-35.4	18.5	0.00e+00	0	56	0	1195376640	37	4496
2026-01-05 15:24:57.77	219.93	20.94	-33.7	-35.3	18.6	0.00e+00	0	56	0	1202716672	37	4493
2026-01-05 15:24:58.79	220.12	21.04	-33.7	-35.3	18.6	0.00e+00	0	56	0	1210056704	37	4485
2026-01-05 15:24:59.80	220.31	21.14	-33.7	-35.4	18.5	0.00e+00	0	56	0	1217396736	37	4500
2026-01-05 15:25:00.81	220.50	21.23	-33.7	-35.3	18.6	0.00e+00	0	56	0	1224736768	37	4490
2026-01-05 15:25:01.82	220.69	21.33	-33.7	-35.3	18.6	0.00e+00	0	56	0	1232076800	37	4491
2026-01-05 15:25:02.83	220.88	21.43	-33.7	-35.3	18.6	0.00e+00	0	56	0	1239416832	37	4484
2026-01-05 15:25:03.84	221.08	21.52	-33.6	-35.3	18.6	0.00e+00	0	55	0	1246756864	37	4443
2026-01-05 15:25:04.85	221.27	21.62	-33.6	-35.2	18.7	0.00e+00	0	56	0	1254096896	37	4431
2026-01-05 15:25:05.86	221.47	21.72	-33.6	-35.2	18.7	0.00e+00	0	55	0	1261436928	37	4427
2026-01-05 15:25:06.87	221.67	21.81	-33.7	-35.4	18.6	0.00e+00	0	56	0	1268776960	37	4496
2026-01-05 15:25:07.88	221.86	21.91	-33.6	-35.3	18.6	0.00e+00	0	56	0	1276116992	37	4455
2026-01-05 15:25:08.89	222.06	22.01	-33.6	-35.3	18.6	0.00e+00	0	56	0	1283457024	37	4482
2026-01-05 15:25:09.90	222.26	22.10	-33.7	-35.4	18.6	0.00e+00	0	56	0	1290797056	37	4510
2026-01-05 15:25:10.91	222.47	22.20	-33.7	-35.4	18.6	0.00e+00	0	56	0	1298137088	37	4527
2026-01-05 15:25:11.92	222.67	22.30	-33.7	-35.5	18.5	0.00e+00	0	56	0	1304428544	37	4555
2026-01-05 15:25:12.93	222.87	22.39	-33.7	-35.4	18.7	3.40e-06	0	56	0	1311768576	37	4499
2026-01-05 15:25:13.94	223.08	22.49	-33.6	-35.2	18.8	0.00e+00	0	56	0	1320157184	37	4439
2026-01-05 15:25:14.95	223.29	22.59	-33.6	-35.2	18.8	0.00e+00	0	56	0	1326448640	37	4429
2026-01-05 15:25:15.96	223.49	22.68	-33.5	-35.2	18.8	0.00e+00	0	56	0	1333788672	37	4433
2026-01-05 15:25:16.97	223.70	22.78	-33.5	-35.2	18.8	0.00e+00	0	56	0	1341128704	37	4432
2026-01-05 15:25:17.98	223.92	22.88	-33.6	-35.3	18.7	0.00e+00	0	56	0	1348468736	37	4486
2026-01-05 15:25:18.99	224.13	22.98	-33.6	-35.3	18.7	9.10e-06	0	56	0	1355808768	37	4490
2026-01-05 15:25:20.00	224.34	23.07	-33.5	-35.2	18.8	0.00e+00	0	56	0	1363148800	37	4435
2026-01-05 15:25:21.01	224.56	23.17	-33.6	-35.3	18.7	1.71e-05	0	56	0	1370488832	37	4455
2026-01-05 15:25:22.02	224.77	23.27	-33.5	-35.2	18.8	0.00e+00	0	56	0	1377828864	37	4421
2026-01-05 15:25:23.03	224.99	23.36	-33.5	-35.2	18.8	1.10e-06	0	56	0	1385168896	37	4405
2026-01-05 15:25:24.04	225.21	23.46	-33.4	-35.1	18.9	0.00e+00	0	56	0	1392508928	37	4365
2026-01-05 15:25:25.05	225.43	23.56	-33.3	-35.0	18.9	0.00e+00	0	56	0	1399848960	37	4331
2026-01-05 15:25:26.06	225.65	23.65	-33.3	-35.0	18.9	0.00e+00	0	56	0	1407188992	37	4336
2026-01-05 15:25:27.07	225.87	23.75	-33.2	-34.8	19.1	0.00e+00	0	56	0	1414529024	37	4241
2026-01-05 15:25:28.08	226.09	23.84	-33.1	-34.8	19.1	0.00e+00	0	56	0	1421869056	37	4220
2026-01-05 15:25:29.09	226.32	23.94	-33.2	-34.8	19.1	0.00e+00	0	56	0	1429209088	37	4235
2026-01-05 15:25:30.10	226.55	24.04	-33.2	-34.9	19.0	0.00e+00	0	56	0	1436549120	37	4272
2026-01-05 15:25:31.11	226.77	24.13	-33.2	-35.0	18.9	0.00e+00	0	56	0	1443889152	37	4294
2026-01-05 15:25:32.12	227.00	24.23	-33.4	-35.1	18.8	0.00e+00	0	56	0	1451229184	37	4357
2026-01-05 15:25:33.13	227.23	24.32	-33.4	-35.2	18.7	0.00e+00	0	56	0	1458569216	37	4394
2026-01-05 15:25:34.14	227.47	24.42	-33.4	-35.2	18.7	0.00e+00	0	56	0	1465909248	37	4396
2026-01-05 15:25:35.15	227.70	24.52	-33.4	-35.1	18.8	0.00e+00	0	56	0	1473249280	37	4359
2026-01-05 15:25:36.17	227.94	24.61	-33.4	-35.1	18.8	0.00e+00	0	56	0	1479540736	37	4374
2026-01-05 15:25:37.18	228.17	24.71	-33.3	-35.0	18.9	0.00e+00	0	56	0	1486880768	37	4307
2026-01-05 15:25:38.19	228.41	24.80	-33.3	-34.9	19.0	0.00e+00	0	56	0	1495269376	37	4284
2026-01-05 15:25:39.20	228.65	24.90	-33.3	-35.0	18.9	0.00e+00	0	56	0	1501560832	37	4317
2026-01-05 15:25:40.21	228.89	24.99	-33.3	-35.0	18.9	0.00e+00	0	56	0	1508900864	37	4326
2026-01-05 15:25:41.22	229.13	25.09	-33.4	-35.1	18.8	0.00e+00	0	56	0	1516240896	37	4352
2026-01-05 15:25:42.23	229.38	25.18	-33.4	-35.1	18.8	0.00e+00	0	56	0	1523580928	37	4372
2026-01-05 15:25:43.24	229.62	25.27	-33.3	-35.0	18.9	0.00e+00	0	56	0	1530920960	37	4324
2026-01-05 15:25:44.25	229.87	25.37	-33.3	-35.0	18.9	0.00e+00	0	56	0	1538260992	37	4306
2026-01-05 15:25:45.26	230.11	25.46	-33.2	-34.9	19.0	0.00e+00	0	56	0	1545601024	37	4273
2026-01-05 15:25:46.26	230.36	25.55	-33.1	-34.8	19.1	0.00e+00	0	56	0	1552941056	37	4202
2026-01-05 15:25:47.28	230.61	25.65	-33.1	-34.7	19.2	0.00e+00	0	56	0	1560281088	37	4174
2026-01-05 15:25:48.28	230.86	25.74	-33.1	-34.7	19.2	0.00e+00	0	56	0	1567621120	37	4178
2026-01-05 15:25:49.30	231.12	25.83	-33.2	-34.9	19.0	0.00e+00	0	56	0	1574961152	37	4250
2026-01-05 15:25:50.31	231.37	25.93	-33.2	-34.9	19.0	0.00e+00	0	56	0	1582301184	37	4250
2026-01-05 15:25:51.32	231.63	26.02	-33.2	-34.9	19.0	0.00e+00	0	56	0	1589641216	37	4245
2026-01-05 15:25:52.32	231.88	26.11	-33.2	-34.9	19.0	0.00e+00	0	56	0	1596981248	37	4258
2026-01-05 15:25:53.33	232.14	26.20	-33.1	-34.8	19.1	0.00e+00	0	56	0	1604321280	37	4214
2026-01-05 15:25:54.34	232.40	26.29	-33.0	-34.6	19.2	0.00e+00	0	56	0	1611661312	36	4375
2026-01-05 15:25:55.36	232.67	26.38	-32.9	-34.6	19.3	0.00e+00	0	56	0	1619001344	36	4352
2026-01-05 15:25:56.37	232.93	26.47	-33.0	-34.6	19.3	0.00e+00	0	56	0	1625292800	36	4367
2026-01-05 15:25:57.38	233.20	26.57	-33.0	-34.7	19.2	0.00e+00	0	56	0	1632632832	36	4395
2026-01-05 15:25:58.39	233.46	26.65	-33.0	-34.6	19.3	0.00e+00	0	56	0	1641021440	36	4380
2026-01-05 15:25:59.40	233.73	26.74	-33.0	-34.7	19.3	0.00e+00	0	56	0	1647312896	36	4394
2026-01-05 15:26:00.41	234.00	26.83	-33.1	-34.8	19.2	0.00e+00	0	56	0	1654652928	36	4463
2026-01-05 15:26:01.41	234.27	26.92	-33.1	-34.8	19.2	0.00e+00	0	56	0	1661992960	36	4455
2026-01-05 15:26:02.42	234.54	27.01	-33.1	-34.7	19.2	0.00e+00	0	56	0	1669332992	36	4438
2026-01-05 15:26:03.44	234.82	27.10	-33.0	-34.7	19.3	0.00e+00	0	56	0	1676673024	36	4402
2026-01-05 15:26:04.45	235.09	27.19	-32.9	-34.5	19.4	0.00e+00	0	56	0	1684013056	36	4330
2026-01-05 15:26:05.46	235.37	27.27	-32.9	-34.6	19.4	0.00e+00	0	56	0	1691353088	36	4347
2026-01-05 15:26:06.47	235.65	27.36	-32.9	-34.5	19.4	0.00e+00	0	56	0	1698693120	36	4340
2026-01-05 15:26:07.48	235.93	27.45	-32.9	-34.6	19.4	0.00e+00	0	56	0	1706033152	36	4348
2026-01-05 15:26:08.49	236.21	27.53	-33.0	-34.6	19.3	0.00e+00	0	56	0	1713373184	36	4372
2026-01-05 15:26:09.50	236.49	27.62	-32.9	-34.6	19.3	0.00e+00	0	56	0	1720713216	36	4352
2026-01-05 15:26:10.51	236.78	27.70	-33.0	-34.6	19.3	0.00e+00	0	56	0	1728053248	36	4382
2026-01-05 15:26:11.52	237.06	27.79	-32.9	-34.6	19.3	0.00e+00	0	56	0	1735393280	36	4352
2026-01-05 15:26:12.53	237.35	27.87	-32.8	-34.4	19.4	0.00e+00	0	56	0	1742733312	36	4287
2026-01-05 15:26:13.54	237.64	27.95	-32.8	-34.4	19.4	0.00e+00	0	56	0	1750073344	36	4281
2026-01-05 15:26:14.55	237.93	28.04	-32.8	-34.4	19.4	0.00e+00	0	56	0	1757413376	36	4259
2026-01-05 15:26:15.56	238.22	28.12	-32.8	-34.4	19.4	0.00e+00	0	56	0	1764753408	36	4265
2026-01-05 15:26:16.57	238.51	28.20	-32.9	-34.5	19.3	0.00e+00	0	56	0	1772093440	36	4324
2026-01-05 15:26:17.58	238.81	28.28	-32.9	-34.6	19.3	0.00e+00	0	56	0	1778384896	36	4359
2026-01-05 15:26:18.59	239.10	28.36	-33.0	-34.7	19.1	0.00e+00	0	56	0	1786773504	36	4433
2026-01-05 15:26:19.60	239.40	28.44	-33.0	-34.7	19.2	0.00e+00	0	56	0	1794113536	36	4407
2026-01-05 15:26:20.61	239.70	28.52	-33.0	-34.7	19.2	0.00e+00	0	56	0	1800404992	36	4410
2026-01-05 15:26:21.62	240.00	28.60	-33.0	-34.6	19.3	0.00e+00	0	56	0	1807745024	36	4378
2026-01-05 15:26:22.63	240.30	28.68	-32.9	-34.5	19.4	0.00e+00	0	56	0	1815085056	36	4313
2026-01-05 15:26:23.64	240.61	28.76	-32.9	-34.5	19.3	0.00e+00	0	56	0	1822425088	36	4328
2026-01-05 15:26:24.65	240.91	28.84	-32.9	-34.6	19.3	0.00e+00	0	56	0	1829765120	36	4349
2026-01-05 15:26:25.66	241.22	28.91	-32.9	-34.5	19.4	0.00e+00	0	56	0	1837105152	36	4323
2026-01-05 15:26:26.67	241.52	28.99	-32.9	-34.5	19.4	0.00e+00	0	56	0	1844445184	36	4326
2026-01-05 15:26:27.68	241.83	29.06	-32.8	-34.5	19.5	0.00e+00	0	56	0	1851785216	36	4296
2026-01-05 15:26:28.69	242.14	29.14	-32.9	-34.5	19.4	0.00e+00	0	56	0	1859125248	36	4322
2026-01-05 15:26:29.70	242.46	29.21	-32.8	-34.4	19.5	0.00e+00	0	56	0	1866465280	36	4271
2026-01-05 15:26:30.71	242.77	29.28	-32.8	-34.5	19.5	0.00e+00	0	56	0	1873805312	36	4302
2026-01-05 15:26:31.72	243.08	29.35	-32.8	-34.5	19.5	0.00e+00	0	56	0	1881145344	36	4299
2026-01-05 15:26:32.73	243.40	29.43	-32.8	-34.4	19.5	0.00e+00	0	56	0	1888485376	36	4271
2026-01-05 15:26:33.74	243.72	29.50	-32.9	-34.6	19.3	0.00e+00	0	56	0	1895825408	36	4360
2026-01-05 15:26:34.75	244.04	29.57	-33.0	-34.6	19.3	0.00e+00	0	56	0	1903165440	36	4371
2026-01-05 15:26:35.76	244.36	29.64	-32.9	-34.6	19.3	0.00e+00	0	56	0	1910505472	36	4348
2026-01-05 15:26:36.77	244.68	29.70	-32.9	-34.5	19.3	0.00e+00	0	56	0	1917845504	36	4332
2026-01-05 15:26:37.78	245.00	29.77	-32.7	-34.4	19.4	0.00e+00	0	56	0	1924136960	36	4256
2026-01-05 15:26:38.79	245.32	29.84	-32.8	-34.5	19.4	0.00e+00	0	56	0	1932525568	36	4297
2026-01-05 15:26:39.79	245.65	29.90	-32.9	-34.6	19.3	0.00e+00	0	56	0	1939865600	36	4353
2026-01-05 15:26:40.80	245.97	29.97	-32.9	-34.6	19.3	0.00e+00	0	56	0	1946157056	36	4343
2026-01-05 15:26:41.81	246.30	30.03	-32.8	-34.5	19.3	0.00e+00	0	56	0	1953497088	36	4324
2026-01-05 15:26:42.83	246.63	30.10	-32.8	-34.5	19.3	0.00e+00	0	56	0	1960837120	36	4336
2026-01-05 15:26:43.84	246.96	30.16	-32.8	-34.5	19.3	0.00e+00	0	57	0	1968177152	36	4313
2026-01-05 15:26:44.85	247.29	30.22	-32.9	-34.6	19.3	0.00e+00	0	56	0	1975517184	36	4345
2026-01-05 15:26:45.86	247.63	30.28	-32.9	-34.5	19.3	0.00e+00	0	56	0	1982857216	36	4326
2026-01-05 15:26:46.87	247.96	30.34	-32.9	-34.5	19.3	0.00e+00	0	56	0	1990197248	36	4335
2026-01-05 15:26:47.87	248.29	30.40	-32.9	-34.5	19.4	0.00e+00	0	56	0	1997537280	36	4329
2026-01-05 15:26:48.88	248.63	30.46	-32.8	-34.4	19.5	0.00e+00	0	56	0	2004877312	36	4252
2026-01-05 15:26:49.89	248.97	30.51	-32.8	-34.4	19.5	0.00e+00	0	56	0	2012217344	36	4259
2026-01-05 15:26:50.90	249.31	30.57	-32.7	-34.3	19.6	0.00e+00	0	56	0	2019557376	36	4200
2026-01-05 15:26:51.91	249.65	30.62	-32.6	-34.2	19.6	0.00e+00	0	56	0	2026897408	36	4183
2026-01-05 15:26:52.93	249.99	30.68	-32.6	-34.2	19.6	0.00e+00	0	56	0	2034237440	36	4186
2026-01-05 15:26:53.94	250.33	30.73	-32.6	-34.3	19.6	0.00e+00	0	56	0	2041577472	36	4203
2026-01-05 15:26:54.95	250.67	30.78	-32.7	-34.3	19.5	0.00e+00	0	56	0	2048917504	36	4228
2026-01-05 15:26:55.96	251.02	30.83	-32.7	-34.4	19.5	0.00e+00	0	57	0	2056257536	36	4265
2026-01-05 15:26:56.97	251.36	30.88	-32.8	-34.5	19.4	0.00e+00	0	57	0	2063597568	36	4308
2026-01-05 15:26:57.98	251.71	30.93	-32.9	-34.6	19.3	0.00e+00	0	56	0	2070937600	36	4363
2026-01-05 15:26:58.99	252.06	30.98	-32.9	-34.5	19.3	0.00e+00	0	56	0	2078277632	36	4326
2026-01-05 15:26:59.99	252.40	31.02	-32.8	-34.5	19.3	0.00e+00	0	56	0	2085617664	36	4318
2026-01-05 15:27:01.00	252.75	31.07	-32.8	-34.4	19.4	0.00e+00	0	56	0	2092957696	36	4288
2026-01-05 15:27:02.01	253.10	31.11	-32.7	-34.4	19.5	0.00e+00	0	56	0	2099249152	36	4246
2026-01-05 15:27:03.02	253.45	31.16	-33.4	-34.4	20.2	0.00e+00	0	56	0	2106589184	36	4277
2026-01-05 15:27:04.03	253.81	31.20	-33.3	-34.4	20.3	0.00e+00	0	56	0	2114977792	36	4246
2026-01-05 15:27:05.04	254.16	31.24	-33.4	-34.5	20.3	0.00e+00	0	56	0	2121269248	36	4293
2026-01-05 15:27:06.05	254.51	31.28	-33.4	-34.4	20.3	0.00e+00	0	56	0	2128609280	36	4266
2026-01-05 15:27:07.06	254.87	31.32	-33.4	-34.4	20.4	0.00e+00	0	56	0	2135949312	36	4246
2026-01-05 15:27:08.07	255.22	31.36	-33.3	-34.3	20.4	0.00e+00	0	56	0	2143289344	36	4220
2026-01-05 15:27:09.08	255.58	31.39	-33.1	-34.1	20.6	0.00e+00	0	57	0	2150629376	36	4117
2026-01-05 15:27:10.09	255.94	31.43	-33.2	-34.1	20.6	0.00e+00	0	56	0	2157969408	36	4141
2026-01-05 15:27:11.10	256.29	31.46	-33.2	-34.2	20.5	0.00e+00	0	56	0	2165309440	36	4162
2026-01-05 15:27:12.11	256.65	31.50	-33.2	-34.2	20.5	0.00e+00	0	56	0	2172649472	36	4163
2026-01-05 15:27:13.12	257.01	31.53	-33.3	-34.3	20.4	0.00e+00	0	56	0	2179989504	36	4214
2026-01-05 15:27:14.13	257.37	31.56	-33.3	-34.3	20.4	0.00e+00	0	56	0	2187329536	36	4213
2026-01-05 15:27:15.14	257.73	31.59	-33.2	-34.2	20.5	0.00e+00	0	56	0	2194669568	36	4163
2026-01-05 15:27:16.15	258.09	31.62	-33.1	-34.1	20.6	0.00e+00	0	56	0	2202009600	36	4101
2026-01-05 15:27:17.17	258.46	31.64	-33.2	-34.1	20.6	0.00e+00	0	56	0	2209349632	36	4139
2026-01-05 15:27:18.18	258.82	31.67	-33.3	-34.3	20.4	0.00e+00	0	56	0	2216689664	36	4195
2026-01-05 15:27:19.19	259.18	31.70	-33.3	-34.3	20.4	0.00e+00	0	56	0	2224029696	36	4231
2026-01-05 15:27:20.19	259.54	31.72	-33.4	-34.4	20.3	0.00e+00	0	56	0	2231369728	36	4283
2026-01-05 15:27:21.20	259.91	31.74	-33.4	-34.4	20.3	0.00e+00	0	56	0	2238709760	36	4278
2026-01-05 15:27:22.21	260.27	31.76	-33.4	-34.4	20.3	0.00e+00	0	56	0	2245001216	36	4287
2026-01-05 15:27:23.22	260.64	31.78	-33.3	-34.3	20.4	0.00e+00	0	56	0	2252341248	36	4215
2026-01-05 15:27:24.23	261.00	31.80	-33.2	-34.2	20.5	0.00e+00	0	56	0	2259681280	36	4171
2026-01-05 15:27:25.24	261.37	31.82	-33.2	-34.1	20.6	0.00e+00	0	56	0	2267021312	36	4144
2026-01-05 15:27:26.25	261.73	31.83	-33.2	-34.2	20.5	0.00e+00	0	56	0	2274361344	36	4158
2026-01-05 15:27:27.26	262.10	31.85	-33.3	-34.3	20.4	0.00e+00	0	56	0	2281701376	36	4201
2026-01-05 15:27:28.27	262.47	31.86	-33.5	-34.5	20.2	0.00e+00	0	56	0	2289041408	36	4307
2026-01-05 15:27:29.28	262.83	31.87	-33.5	-34.5	20.2	0.00e+00	0	56	0	2296381440	36	4309
2026-01-05 15:27:30.29	263.20	31.88	-33.5	-34.5	20.3	0.00e+00	0	56	0	2303721472	36	4311
2026-01-05 15:27:31.30	263.57	31.89	-33.4	-34.4	20.3	0.00e+00	0	56	0	2311061504	36	4259
2026-01-05 15:27:32.31	263.93	31.90	-33.3	-34.3	20.4	0.00e+00	0	56	0	2318401536	36	4239
2026-01-05 15:27:33.32	264.30	31.91	-33.3	-34.3	20.4	0.00e+00	0	56	0	2325741568	36	4229
2026-01-05 15:27:34.33	264.67	31.91	-33.3	-34.3	20.4	0.00e+00	0	56	0	2333081600	36	4230
2026-01-05 15:27:35.34	265.04	31.92	-33.3	-34.3	20.4	0.00e+00	0	56	0	2340421632	36	4234
2026-01-05 15:27:36.35	265.41	31.92	-33.2	-34.2	20.5	0.00e+00	0	56	0	2347761664	36	4178
2026-01-05 15:27:37.36	265.77	31.92	-33.1	-34.1	20.6	0.00e+00	0	56	0	2355101696	36	4117
2026-01-05 15:27:38.37	266.14	31.92	-33.1	-34.1	20.6	0.00e+00	0	56	0	2362441728	36	4124
2026-01-05 15:27:39.38	266.51	31.92	-33.1	-34.0	20.7	0.00e+00	0	56	0	2369781760	36	4092
2026-01-05 15:27:40.39	266.88	31.92	-33.1	-34.0	20.7	0.00e+00	0	56	0	2377121792	36	4089
2026-01-05 15:27:41.40	267.25	31.92	-33.0	-34.0	20.8	0.00e+00	0	56	0	2384461824	36	4053
2026-01-05 15:27:42.41	267.61	31.91	-33.0	-34.0	20.7	0.00e+00	0	56	0	2391801856	36	4057
2026-01-05 15:27:43.42	267.98	31.91	-33.0	-33.9	20.8	0.00e+00	0	56	0	2398093312	36	4032
2026-01-05 15:27:44.43	268.35	31.90	-32.9	-33.9	20.8	0.00e+00	0	56	0	2405433344	36	4014
2026-01-05 15:27:45.44	268.72	31.89	-32.8	-33.8	20.9	0.00e+00	0	56	0	2413821952	36	3968
2026-01-05 15:27:46.45	269.08	31.88	-32.9	-33.8	20.9	0.00e+00	0	56	0	2420113408	36	3987
2026-01-05 15:27:47.46	269.45	31.87	-33.1	-34.0	20.7	0.00e+00	0	57	0	2427453440	36	4085
2026-01-05 15:27:48.47	269.82	31.86	-33.2	-34.2	20.5	0.00e+00	0	57	0	2434793472	36	4186
2026-01-05 15:27:49.49	270.19	31.85	-33.4	-34.4	20.4	0.00e+00	0	56	0	2442133504	36	4244
2026-01-05 15:27:50.50	270.55	31.83	-33.5	-34.5	20.2	0.00e+00	0	57	0	2449473536	36	4325
2026-01-05 15:27:51.51	270.92	31.82	-33.5	-34.6	20.2	0.00e+00	0	57	0	2456813568	36	4344
2026-01-05 15:27:52.52	271.28	31.80	-33.4	-34.4	20.3	0.00e+00	0	56	0	2464153600	36	4280
2026-01-05 15:27:53.53	271.65	31.78	-33.3	-34.2	20.5	0.00e+00	0	56	0	2471493632	36	4192
2026-01-05 15:27:54.54	272.01	31.76	-33.2	-34.2	20.5	0.00e+00	0	56	0	2478833664	36	4158
2026-01-05 15:27:55.55	272.38	31.74	-33.2	-34.2	20.5	0.00e+00	0	56	0	2486173696	36	4162
2026-01-05 15:27:56.56	272.74	31.72	-33.3	-34.3	20.4	0.00e+00	0	57	0	2493513728	36	4220
2026-01-05 15:27:57.57	273.10	31.69	-33.4	-34.4	20.3	0.00e+00	0	56	0	2500853760	36	4253
2026-01-05 15:27:58.58	273.47	31.67	-33.4	-34.4	20.3	0.00e+00	0	57	0	2508193792	36	4278
2026-01-05 15:27:59.59	273.83	31.64	-33.5	-34.5	20.2	0.00e+00	0	57	0	2515533824	36	4317
2026-01-05 15:28:00.60	274.19	31.62	-33.4	-34.4	20.3	0.00e+00	0	57	0	2522873856	36	4291
2026-01-05 15:28:01.61	274.55	31.59	-33.4	-34.4	20.3	0.00e+00	0	57	0	2530213888	36	4246
2026-01-05 15:28:02.62	274.91	31.56	-33.2	-34.2	20.5	0.00e+00	0	56	0	2537553920	36	4172
2026-01-05 15:28:03.63	275.27	31.53	-33.2	-34.1	20.6	0.00e+00	0	57	0	2544893952	36	4137
2026-01-05 15:28:04.64	275.63	31.50	-33.1	-34.0	20.7	0.00e+00	0	56	0	2552233984	36	4091
2026-01-05 15:28:05.65	275.99	31.46	-33.0	-34.0	20.7	0.00e+00	0	57	0	2559574016	36	4074
2026-01-05 15:28:06.66	276.34	31.43	-33.1	-34.1	20.7	0.00e+00	0	56	0	2565865472	36	4108
2026-01-05 15:28:07.68	276.70	31.39	-33.2	-34.2	20.5	0.00e+00	0	57	0	2573205504	36	4185
2026-01-05 15:28:08.69	277.06	31.36	-33.3	-34.3	20.4	0.00e+00	0	57	0	2581594112	36	4235
2026-01-05 15:28:09.70	277.41	31.32	-33.3	-34.3	20.4	0.00e+00	0	57	0	2587885568	36	4237
2026-01-05 15:28:10.71	277.77	31.28	-33.4	-34.4	20.3	0.00e+00	0	57	0	2595225600	36	4263
2026-01-05 15:28:11.72	278.12	31.24	-33.4	-34.4	20.3	0.00e+00	0	57	0	2602565632	36	4244
2026-01-05 15:28:12.73	278.47	31.20	-33.2	-34.2	20.5	0.00e+00	0	57	0	2609905664	36	4180
2026-01-05 15:28:13.74	278.82	31.16	-33.2	-34.2	20.5	0.00e+00	0	57	0	2617245696	36	4166
2026-01-05 15:28:14.75	279.17	31.11	-33.3	-34.3	20.4	0.00e+00	0	57	0	2624585728	36	4214
2026-01-05 15:28:15.76	279.52	31.07	-33.4	-34.4	20.3	0.00e+00	0	57	0	2631925760	36	4281
2026-01-05 15:28:16.77	279.87	31.02	-33.5	-34.5	20.2	0.00e+00	0	57	0	2639265792	36	4300
2026-01-05 15:28:17.78	280.22	30.98	-33.6	-34.6	20.1	0.00e+00	0	57	0	2646605824	36	4362
2026-01-05 15:28:18.79	280.57	30.93	-33.6	-34.6	20.1	0.00e+00	0	57	0	2653945856	36	4361
2026-01-05 15:28:19.79	280.91	30.88	-33.6	-34.6	20.1	0.00e+00	0	57	0	2661285888	36	4378
2026-01-05 15:28:20.80	281.25	30.83	-33.5	-34.5	20.2	0.00e+00	0	57	0	2668625920	36	4333
2026-01-05 15:28:21.81	281.60	30.78	-33.5	-34.5	20.3	0.00e+00	0	57	0	2675965952	36	4313
2026-01-05 15:28:22.82	281.94	30.73	-33.4	-34.4	20.4	0.00e+00	0	57	0	2683305984	36	4256
2026-01-05 15:28:23.83	282.28	30.68	-33.4	-34.4	20.3	0.00e+00	0	57	0	2690646016	36	4273
2026-01-05 15:28:24.85	282.62	30.62	-33.4	-34.4	20.3	0.00e+00	0	57	0	2697986048	36	4275
2026-01-05 15:28:25.86	282.96	30.57	-33.4	-34.4	20.3	0.00e+00	0	57	0	2705326080	36	4284
2026-01-05 15:28:26.87	283.30	30.51	-33.5	-34.5	20.2	0.00e+00	0	57	0	2712666112	36	4334
2026-01-05 15:28:27.88	283.64	30.45	-33.5	-34.5	20.2	0.00e+00	0	57	0	2718957568	36	4320
2026-01-05 15:28:28.89	283.97	30.40	-33.4	-34.4	20.3	0.00e+00	0	57	0	2727346176	36	4268
2026-01-05 15:28:29.90	284.31	30.34	-33.5	-34.5	20.2	0.00e+00	0	57	0	2734686208	36	4319
2026-01-05 15:28:30.91	284.64	30.28	-33.5	-34.5	20.2	0.00e+00	0	57	0	2740977664	36	4324
2026-01-05 15:28:31.92	284.97	30.22	-33.5	-34.6	20.1	0.00e+00	0	57	0	2748317696	36	4343
2026-01-05 15:28:32.93	285.30	30.16	-33.5	-34.5	20.2	0.00e+00	0	57	0	2755657728	36	4337
2026-01-05 15:28:33.94	285.63	30.10	-33.6	-34.6	20.1	0.00e+00	0	57	0	2762997760	36	4360
2026-01-05 15:28:34.95	285.96	30.03	-33.5	-34.5	20.2	0.00e+00	0	57	0	2770337792	36	4335
2026-01-05 15:28:35.96	286.29	29.97	-33.5	-34.6	20.1	0.00e+00	0	57	0	2777677824	36	4341
2026-01-05 15:28:36.97	286.61	29.90	-33.4	-34.3	19.9	0.00e+00	0	57	0	2785017856	36	4241
2026-01-05 15:28:37.98	286.94	29.84	-33.4	-34.4	20.3	0.00e+00	0	56	0	2792357888	36	4279
2026-01-05 15:28:38.99	287.26	29.77	-33.4	-34.4	20.3	0.00e+00	0	57	0	2799697920	36	4243
2026-01-05 15:28:40.00	287.58	29.70	-33.4	-34.4	20.3	0.00e+00	0	56	0	2807037952	36	4254
2026-01-05 15:28:41.01	287.90	29.64	-33.4	-34.4	20.3	0.00e+00	0	57	0	2814377984	36	4260
2026-01-05 15:28:42.02	288.22	29.57	-33.4	-34.4	20.3	0.00e+00	0	56	0	2821718016	36	4257
2026-01-05 15:28:43.03	288.54	29.50	-33.4	-34.4	20.3	0.00e+00	0	57	0	2829058048	36	4261
2026-01-05 15:28:44.03	288.85	29.43	-33.4	-34.4	20.2	0.00e+00	0	57	0	2836398080	36	4268
2026-01-05 15:28:45.04	289.17	29.36	-33.5	-34.5	20.2	0.00e+00	0	57	0	2843738112	36	4321
2026-01-05 15:28:46.05	289.48	29.29	-33.5	-34.5	20.2	0.00e+00	0	57	0	2851078144	36	4340
2026-01-05 15:28:47.06	289.79	29.21	-33.4	-34.4	20.2	0.00e+00	0	57	0	2858418176	36	4289
2026-01-05 15:28:48.07	290.10	29.14	-33.5	-34.6	20.2	0.00e+00	0	57	0	2865758208	36	4343
2026-01-05 15:28:49.08	290.41	29.07	-33.5	-34.5	20.2	0.00e+00	0	57	0	2872049664	36	4307
2026-01-05 15:28:50.09	290.72	28.99	-33.5	-34.5	20.2	0.00e+00	0	56	0	2880438272	36	4296
2026-01-05 15:28:51.10	291.03	28.92	-33.5	-34.5	20.2	0.00e+00	0	57	0	2887778304	36	4311
2026-01-05 15:28:52.11	291.33	28.84	-33.5	-34.4	20.2	0.00e+00	0	57	0	2894069760	36	4289
2026-01-05 15:28:53.12	291.63	28.76	-33.5	-34.5	20.2	0.00e+00	0	57	0	2901409792	36	4299
2026-01-05 15:28:54.13	291.94	28.69	-33.5	-34.5	20.2	0.00e+00	0	57	0	2908749824	36	4319
2026-01-05 15:28:55.14	292.24	28.61	-33.6	-34.6	20.0	0.00e+00	0	57	0	2916089856	36	4385
2026-01-05 15:28:56.15	292.54	28.53	-33.5	-34.5	20.1	0.00e+00	0	57	0	2923429888	36	4322
2026-01-05 15:28:57.17	292.84	28.45	-33.5	-34.5	20.1	0.00e+00	0	57	0	2930769920	36	4332
2026-01-05 15:28:58.18	293.13	28.37	-33.5	-34.5	20.1	0.00e+00	0	57	0	2938109952	36	4306
2026-01-05 15:28:59.19	293.43	28.29	-33.4	-34.4	20.2	0.00e+00	0	57	0	2945449984	36	4284
2026-01-05 15:29:00.19	293.72	28.21	-33.5	-34.5	20.1	0.00e+00	0	57	0	2952790016	36	4326
2026-01-05 15:29:01.20	294.01	28.13	-33.5	-34.5	20.1	0.00e+00	0	57	0	2960130048	36	4337
2026-01-05 15:29:02.22	294.30	28.05	-33.7	-34.7	20.0	0.00e+00	0	56	0	2967470080	36	4431
2026-01-05 15:29:03.23	294.59	27.96	-33.7	-34.8	19.9	0.00e+00	0	57	0	2974810112	37	4203
2026-01-05 15:29:04.24	294.88	27.88	-33.7	-34.7	19.9	0.00e+00	0	57	0	2982150144	37	4183
2026-01-05 15:29:05.25	295.17	27.80	-33.5	-34.6	20.1	0.00e+00	0	57	0	2989490176	37	4101
2026-01-05 15:29:06.26	295.45	27.71	-33.5	-34.5	20.2	0.00e+00	0	57	0	2996830208	37	4075
2026-01-05 15:29:07.27	295.74	27.63	-33.4	-34.4	20.2	0.00e+00	0	57	0	3004170240	37	4028
2026-01-05 15:29:08.28	296.02	27.54	-33.4	-34.4	20.2	0.00e+00	0	57	0	3011510272	37	4022
2026-01-05 15:29:09.29	296.30	27.46	-33.5	-34.5	20.1	0.00e+00	0	57	0	3018850304	37	4097
2026-01-05 15:29:10.30	296.58	27.37	-33.6	-34.6	20.0	0.00e+00	0	57	0	3026190336	37	4142
2026-01-05 15:29:11.31	296.85	27.29	-33.8	-34.8	19.9	0.00e+00	0	57	0	3033530368	37	4216
2026-01-05 15:29:12.32	297.13	27.20	-33.8	-34.8	19.9	0.00e+00	0	57	0	3039821824	37	4222
2026-01-05 15:29:13.33	297.40	27.11	-33.8	-34.8	19.8	0.00e+00	0	57	0	3047161856	37	4237
2026-01-05 15:29:14.34	297.68	27.03	-33.8	-34.8	19.8	0.00e+00	0	57	0	3055550464	37	4224
2026-01-05 15:29:15.35	297.95	26.94	-33.8	-34.8	19.9	0.00e+00	0	57	0	3061841920	37	4205
2026-01-05 15:29:16.36	298.22	26.85	-33.7	-34.7	19.9	0.00e+00	0	57	0	3069181952	37	4180
2026-01-05 15:29:17.37	298.49	26.76	-33.6	-34.6	20.0	0.00e+00	0	57	0	3076521984	37	4143
2026-01-05 15:29:18.38	298.75	26.67	-33.6	-34.6	20.0	0.00e+00	0	57	0	3083862016	37	4132
2026-01-05 15:29:19.39	299.02	26.58	-33.7	-34.7	19.9	0.00e+00	0	57	0	3091202048	37	4172
2026-01-05 15:29:20.40	299.28	26.49	-33.7	-34.7	19.9	0.00e+00	0	57	0	3098542080	37	4177
2026-01-05 15:29:21.41	299.55	26.40	-33.7	-34.7	19.9	0.00e+00	0	57	0	3105882112	37	4174
2026-01-05 15:29:22.42	299.81	26.31	-33.7	-34.7	19.9	0.00e+00	0	57	0	3113222144	37	4166
2026-01-05 15:29:23.43	300.07	26.22	-33.7	-34.7	19.9	0.00e+00	0	57	0	3120562176	37	4177
2026-01-05 15:29:24.44	300.32	26.13	-33.7	-34.7	19.9	0.00e+00	0	57	0	3127902208	37	4156
2026-01-05 15:29:25.45	300.58	26.04	-33.7	-34.7	19.9	0.00e+00	0	57	0	3135242240	37	4168
2026-01-05 15:29:26.46	300.84	25.95	-33.7	-34.8	19.9	0.00e+00	0	57	0	3142582272	37	4208
2026-01-05 15:29:27.47	301.09	25.86	-33.8	-34.8	19.8	0.00e+00	0	57	0	3149922304	37	4224
2026-01-05 15:29:28.48	301.34	25.76	-33.8	-34.9	19.8	0.00e+00	0	57	0	3157262336	37	4248
2026-01-05 15:29:29.49	301.59	25.67	-33.7	-34.8	19.8	0.00e+00	0	57	0	3164602368	37	4201
2026-01-05 15:29:30.50	301.84	25.58	-33.8	-34.9	19.7	0.00e+00	0	57	0	3171942400	37	4260
2026-01-05 15:29:31.51	302.09	25.49	-33.9	-34.9	19.7	0.00e+00	0	57	0	3179282432	37	4269
2026-01-05 15:29:32.52	302.34	25.39	-33.9	-35.0	19.6	0.00e+00	0	57	0	3186622464	37	4309
2026-01-05 15:29:33.53	302.58	25.30	-34.0	-35.1	19.6	0.00e+00	0	57	0	3192913920	37	4341
2026-01-05 15:29:34.54	302.83	25.21	-34.1	-35.1	19.4	0.00e+00	0	57	0	3201302528	37	4388
2026-01-05 15:29:35.55	303.07	25.11	-34.1	-35.2	19.4	0.00e+00	0	57	0	3208642560	37	4408
2026-01-05 15:29:36.56	303.31	25.02	-34.1	-35.2	19.4	0.00e+00	0	57	0	3214934016	37	4423
2026-01-05 15:29:37.57	303.55	24.93	-34.1	-35.2	19.4	0.00e+00	0	57	0	3222274048	37	4410
2026-01-05 15:29:38.58	303.79	24.83	-33.9	-35.0	19.6	0.00e+00	0	57	0	3229614080	37	4304
2026-01-05 15:29:39.59	304.02	24.74	-33.8	-34.9	19.7	0.00e+00	0	57	0	3236954112	37	4244
2026-01-05 15:29:40.60	304.26	24.64	-33.9	-34.9	19.6	0.00e+00	0	57	0	3244294144	37	4290
2026-01-05 15:29:41.62	304.50	24.55	-33.8	-34.8	19.7	0.00e+00	0	57	0	3251634176	37	4235
2026-01-05 15:29:42.63	304.73	24.45	-33.8	-34.9	19.7	0.00e+00	0	57	0	3258974208	37	4250
2026-01-05 15:29:43.63	304.96	24.36	-33.9	-34.9	19.7	0.00e+00	0	57	0	3266314240	37	4279
2026-01-05 15:29:44.64	305.19	24.26	-33.8	-34.9	19.7	0.00e+00	0	57	0	3273654272	37	4244
2026-01-05 15:29:45.65	305.42	24.17	-33.9	-34.9	19.6	0.00e+00	0	57	0	3280994304	37	4286
2026-01-05 15:29:46.66	305.64	24.07	-33.9	-34.9	19.6	0.00e+00	0	57	0	3288334336	37	4277
2026-01-05 15:29:47.67	305.87	23.98	-34.0	-35.1	19.5	0.00e+00	0	57	0	3295674368	37	4342
2026-01-05 15:29:48.68	306.09	23.88	-34.0	-35.1	19.5	0.00e+00	0	57	0	3303014400	37	4364
2026-01-05 15:29:49.69	306.32	23.79	-34.2	-35.2	19.3	0.00e+00	0	57	0	3310354432	37	4429
2026-01-05 15:29:50.71	306.54	23.69	-34.2	-35.3	19.3	0.00e+00	0	57	0	3317694464	37	4461
2026-01-05 15:29:51.72	306.76	23.59	-34.3	-35.4	19.2	0.00e+00	0	57	0	3325034496	38	4245
2026-01-05 15:29:52.73	306.98	23.50	-34.2	-35.3	19.2	0.00e+00	0	57	0	3332374528	38	4236
2026-01-05 15:29:53.74	307.20	23.40	-34.2	-35.3	19.3	0.00e+00	0	57	0	3339714560	38	4207
2026-01-05 15:29:54.75	307.41	23.31	-34.3	-35.4	19.2	0.00e+00	0	57	0	3347054592	38	4249
2026-01-05 15:29:55.75	307.63	23.21	-34.2	-35.3	19.3	0.00e+00	0	57	0	3354394624	38	4199
2026-01-05 15:29:56.77	307.84	23.11	-34.2	-35.2	19.3	0.00e+00	0	57	0	3360686080	38	4189
2026-01-05 15:29:57.78	308.06	23.02	-34.2	-35.2	19.3	0.00e+00	0	57	0	3368026112	38	4190
2026-01-05 15:29:58.79	308.27	22.92	-34.1	-35.2	19.4	0.00e+00	0	57	0	3376414720	38	4154
2026-01-05 15:29:59.79	308.48	22.83	-34.1	-35.1	19.4	0.00e+00	0	57	0	3382706176	38	4132
2026-01-05 15:30:00.80	308.68	22.73	-34.0	-35.0	19.5	0.00e+00	0	57	0	3390046208	38	4091
2026-01-05 15:30:01.81	308.89	22.63	-34.0	-35.1	19.4	0.00e+00	0	57	0	3397386240	38	4118
2026-01-05 15:30:02.82	309.10	22.54	-34.0	-35.1	19.5	0.00e+00	0	57	0	3404726272	38	4113
2026-01-05 15:30:03.83	309.30	22.44	-34.1	-35.2	19.4	0.00e+00	0	57	0	3412066304	38	4155
2026-01-05 15:30:04.84	309.51	22.35	-34.2	-35.3	19.3	0.00e+00	0	57	0	3419406336	38	4202
2026-01-05 15:30:05.85	309.71	22.25	-34.3	-35.4	19.2	0.00e+00	0	57	0	3426746368	38	4260
2026-01-05 15:30:06.86	309.91	22.15	-34.4	-35.5	19.0	0.00e+00	0	57	0	3434086400	38	4327
2026-01-05 15:30:07.87	310.11	22.06	-34.5	-35.6	19.0	0.00e+00	0	57	0	3441426432	38	4383
2026-01-05 15:30:08.88	310.31	21.96	-34.6	-35.7	18.8	0.00e+00	0	57	0	3448766464	38	4425
2026-01-05 15:30:09.89	310.51	21.87	-34.6	-35.8	18.8	0.00e+00	0	57	0	3456106496	38	4445
2026-01-05 15:30:10.90	310.70	21.77	-34.7	-35.8	18.7	0.00e+00	0	57	0	3463446528	38	4474
2026-01-05 15:30:11.91	310.90	21.67	-34.7	-35.8	18.8	0.00e+00	0	57	0	3470786560	39	4208
2026-01-05 15:30:12.92	311.09	21.58	-34.7	-35.8	18.8	0.00e+00	0	57	0	3478126592	39	4208
2026-01-05 15:30:13.93	311.29	21.48	-34.6	-35.7	18.8	0.00e+00	0	57	0	3485466624	39	4167
2026-01-05 15:30:14.94	311.48	21.39	-34.6	-35.7	18.9	0.00e+00	0	57	0	3492806656	39	4157
2026-01-05 15:30:15.95	311.67	21.29	-34.5	-35.6	18.9	0.00e+00	0	57	0	3500146688	39	4136
2026-01-05 15:30:16.96	311.86	21.19	-34.5	-35.6	19.0	0.00e+00	0	57	0	3507486720	39	4103
2026-01-05 15:30:17.98	312.05	21.10	-34.4	-35.5	19.0	0.00e+00	0	57	0	3513778176	39	4075
2026-01-05 15:30:18.99	312.24	21.00	-34.4	-35.5	19.0	0.00e+00	0	57	0	3522166784	39	4077
2026-01-05 15:30:20.00	312.42	20.91	-34.5	-35.6	18.9	0.00e+00	0	57	0	3529506816	39	4115
2026-01-05 15:30:21.01	312.61	20.81	-34.5	-35.6	18.9	0.00e+00	0	57	0	3535798272	39	4133
2026-01-05 15:30:22.02	312.79	20.71	-34.6	-35.7	18.8	0.00e+00	0	57	0	3543138304	39	4181
2026-01-05 15:30:23.03	312.97	20.62	-34.6	-35.8	18.8	0.00e+00	0	57	0	3550478336	39	4197
2026-01-05 15:30:24.04	313.16	20.52	-34.8	-35.9	18.5	0.00e+00	0	57	0	3557818368	39	4257
2026-01-05 15:30:25.05	313.34	20.43	-34.8	-36.0	18.5	0.00e+00	0	57	0	3565158400	39	4308
2026-01-05 15:30:26.06	313.52	20.33	-35.0	-36.1	18.4	0.00e+00	0	57	0	3572498432	39	4382
2026-01-05 15:30:27.07	313.69	20.24	-35.0	-36.1	18.3	0.00e+00	0	57	0	3579838464	39	4374
2026-01-05 15:30:28.08	313.87	20.14	-35.1	-36.3	18.2	0.00e+00	0	57	0	3587178496	39	4458
2026-01-05 15:30:29.09	314.05	20.05	-35.1	-36.3	18.2	0.00e+00	0	57	0	3594518528	39	4465
2026-01-05 15:30:30.10	314.22	19.95	-35.0	-36.2	18.3	0.00e+00	0	57	0	3601858560	39	4411
2026-01-05 15:30:31.11	314.40	19.86	-35.0	-36.2	18.3	0.00e+00	0	57	0	3609198592	39	4406
2026-01-05 15:30:32.12	314.57	19.76	-34.9	-36.1	18.4	0.00e+00	0	57	0	3616538624	39	4359
2026-01-05 15:30:33.13	314.74	19.67	-34.9	-36.0	18.5	0.00e+00	0	57	0	3623878656	39	4319
2026-01-05 15:30:34.14	314.91	19.58	-34.7	-35.9	18.6	0.00e+00	0	57	0	3631218688	39	4257
2026-01-05 15:30:35.15	315.08	19.48	-34.7	-35.8	18.6	0.00e+00	0	57	0	3638558720	39	4225
2026-01-05 15:30:36.16	315.25	19.39	-34.7	-35.8	18.6	0.00e+00	0	57	0	3645898752	39	4220
2026-01-05 15:30:37.17	315.42	19.29	-34.5	-35.6	18.8	0.00e+00	0	57	0	3653238784	39	4138
2026-01-05 15:30:38.18	315.59	19.20	-34.6	-35.7	18.8	0.00e+00	0	57	0	3659530240	39	4151
2026-01-05 15:30:39.19	315.75	19.11	-34.5	-35.6	18.9	0.00e+00	0	57	0	3667918848	39	4119
2026-01-05 15:30:40.20	315.92	19.01	-34.5	-35.6	18.8	0.00e+00	0	57	0	3675258880	39	4136
2026-01-05 15:30:41.21	316.08	18.92	-34.6	-35.7	18.7	0.00e+00	0	57	0	3681550336	39	4187
2026-01-05 15:30:42.22	316.25	18.83	-34.7	-35.8	18.7	0.00e+00	0	57	0	3688890368	39	4218
2026-01-05 15:30:43.23	316.41	18.73	-34.8	-36.0	18.4	0.00e+00	0	57	0	3696230400	39	4309
2026-01-05 15:30:44.24	316.57	18.64	-35.0	-36.2	18.3	0.00e+00	0	57	0	3703570432	39	4392
2026-01-05 15:30:45.25	316.73	18.55	-35.1	-36.3	18.2	0.00e+00	0	57	0	3710910464	39	4468
2026-01-05 15:30:46.26	316.89	18.45	-35.2	-36.4	18.0	0.00e+00	0	57	0	3718250496	40	4253
2026-01-05 15:30:47.27	317.05	18.36	-35.3	-36.5	17.9	0.00e+00	0	57	0	3725590528	40	4329
2026-01-05 15:30:48.28	317.20	18.27	-35.5	-36.7	17.7	0.00e+00	0	57	0	3732930560	40	4416
2026-01-05 15:30:49.29	317.36	18.18	-35.5	-36.8	17.6	0.00e+00	0	57	0	3740270592	40	4455
2026-01-05 15:30:50.30	317.52	18.08	-35.6	-36.8	17.6	0.00e+00	0	57	0	3747610624	40	4467
2026-01-05 15:30:51.31	317.67	17.99	-35.5	-36.7	17.7	0.00e+00	0	57	0	3754950656	40	4436
2026-01-05 15:30:52.32	317.82	17.90	-35.5	-36.7	17.6	0.00e+00	0	57	0	3762290688	40	4430
2026-01-05 15:30:53.33	317.98	17.81	-35.5	-36.8	17.6	0.00e+00	0	57	0	3769630720	40	4450
2026-01-05 15:30:54.34	318.13	17.72	-35.4	-36.6	17.8	0.00e+00	0	57	0	3776970752	40	4370
2026-01-05 15:30:55.35	318.28	17.62	-35.4	-36.6	17.8	0.00e+00	0	57	0	3784310784	40	4352
2026-01-05 15:30:56.36	318.43	17.53	-35.2	-36.4	18.0	0.00e+00	0	57	0	3791650816	40	4270
2026-01-05 15:30:57.37	318.58	17.44	-35.2	-36.4	17.9	0.00e+00	0	57	0	3798990848	40	4275
2026-01-05 15:30:58.38	318.73	17.35	-35.1	-36.3	18.0	0.00e+00	0	57	0	3806330880	40	4229
2026-01-05 15:30:59.39	318.87	17.26	-35.1	-36.3	18.1	0.00e+00	0	57	0	3813670912	40	4212
2026-01-05 15:31:00.40	319.02	17.17	-35.1	-36.3	18.0	0.00e+00	0	57	0	3821010944	40	4234
2026-01-05 15:31:01.41	319.17	17.08	-35.2	-36.4	18.0	0.00e+00	0	57	0	3828350976	40	4247
2026-01-05 15:31:02.42	319.31	16.99	-35.1	-36.3	18.0	0.00e+00	0	57	0	3834642432	40	4233
2026-01-05 15:31:03.43	319.46	16.90	-35.2	-36.4	18.0	0.00e+00	0	57	0	3841982464	40	4243
2026-01-05 15:31:04.44	319.60	16.81	-35.2	-36.4	18.0	0.00e+00	0	57	0	3850371072	40	4250
2026-01-05 15:31:05.46	319.74	16.72	-35.3	-36.5	17.9	0.00e+00	0	57	0	3856662528	40	4300
2026-01-05 15:31:06.47	319.88	16.63	-35.4	-36.7	17.6	0.00e+00	0	57	0	3864002560	40	4408
2026-01-05 15:31:07.48	320.02	16.54	-35.3	-36.6	17.7	0.00e+00	0	57	0	3871342592	40	4348
2026-01-05 15:31:08.49	320.16	16.45	-35.3	-36.5	17.8	0.00e+00	0	57	0	3878682624	40	4336
2026-01-05 15:31:09.50	320.30	16.36	-35.4	-36.6	17.7	0.00e+00	0	57	0	3886022656	40	4379
2026-01-05 15:31:10.51	320.44	16.27	-35.4	-36.6	17.7	0.00e+00	0	57	0	3893362688	40	4380
2026-01-05 15:31:11.52	320.58	16.18	-35.5	-36.8	17.5	0.00e+00	0	57	0	3900702720	40	4466
2026-01-05 15:31:12.53	320.72	16.09	-35.6	-36.9	17.4	0.00e+00	0	57	0	3908042752	40	4500
2026-01-05 15:31:13.54	320.85	16.01	-35.7	-37.0	17.3	0.00e+00	0	57	0	3915382784	41	4304
2026-01-05 15:31:14.55	320.99	15.92	-35.8	-37.1	17.2	0.00e+00	0	57	0	3922722816	41	4341
2026-01-05 15:31:15.56	321.12	15.83	-35.8	-37.1	17.2	0.00e+00	0	57	0	3930062848	41	4364
2026-01-05 15:31:16.57	321.26	15.74	-35.9	-37.2	17.1	0.00e+00	0	57	0	3937402880	41	4423
2026-01-05 15:31:17.58	321.39	15.65	-35.9	-37.2	17.0	0.00e+00	0	57	0	3944742912	41	4429
2026-01-05 15:31:18.59	321.52	15.57	-36.1	-37.4	16.9	0.00e+00	0	57	0	3952082944	41	4510
2026-01-05 15:31:19.60	321.65	15.48	-36.1	-37.4	16.8	0.00e+00	0	57	0	3959422976	41	4521
2026-01-05 15:31:20.61	321.78	15.39	-36.1	-37.4	16.9	0.00e+00	0	57	0	3966763008	41	4520
2026-01-05 15:31:21.62	321.91	15.30	-35.9	-37.2	17.1	0.00e+00	0	57	0	3974103040	41	4398
2026-01-05 15:31:22.63	322.04	15.22	-35.9	-37.2	17.0	0.00e+00	0	57	0	3980394496	41	4428
2026-01-05 15:31:23.64	322.17	15.13	-35.9	-37.2	17.0	0.00e+00	0	57	0	3988783104	41	4403
2026-01-05 15:31:24.64	322.30	15.04	-35.7	-36.9	17.3	0.00e+00	0	57	0	3996123136	41	4283
2026-01-05 15:31:25.65	322.42	14.96	-35.5	-36.7	17.5	0.00e+00	0	57	0	4002414592	41	4190
2026-01-05 15:31:26.66	322.55	14.87	-35.4	-36.7	17.5	0.00e+00	0	57	0	4009754624	41	4166
2026-01-05 15:31:27.67	322.68	14.79	-35.4	-36.7	17.5	0.00e+00	0	57	0	4017094656	41	4158
2026-01-05 15:31:28.68	322.80	14.70	-35.5	-36.7	17.5	0.00e+00	0	57	0	4024434688	41	4167
2026-01-05 15:31:29.69	322.93	14.61	-35.6	-36.9	17.3	0.00e+00	0	57	0	4031774720	41	4255
2026-01-05 15:31:30.70	323.05	14.53	-35.5	-36.8	17.5	0.00e+00	0	57	0	4039114752	41	4195
2026-01-05 15:31:31.71	323.17	14.44	-35.5	-36.8	17.4	0.00e+00	0	57	0	4046454784	41	4212
2026-01-05 15:31:32.72	323.29	14.36	-35.5	-36.7	17.5	0.00e+00	0	57	0	4053794816	41	4183
2026-01-05 15:31:33.73	323.42	14.27	-35.6	-36.8	17.4	0.00e+00	0	57	0	4061134848	41	4225
2026-01-05 15:31:34.74	323.54	14.19	-35.6	-36.9	17.3	0.00e+00	0	57	0	4068474880	41	4246
2026-01-05 15:31:35.75	323.66	14.10	-35.8	-37.0	17.2	0.00e+00	0	57	0	4075814912	41	4331
2026-01-05 15:31:36.76	323.78	14.02	-35.8	-37.0	17.2	0.00e+00	0	57	0	4083154944	41	4335
2026-01-05 15:31:37.77	323.90	13.94	-35.9	-37.2	17.0	0.00e+00	0	57	0	4090494976	41	4418
2026-01-05 15:31:38.78	324.01	13.85	-35.8	-37.1	17.1	0.00e+00	0	57	0	4097835008	41	4357
2026-01-05 15:31:39.79	324.13	13.77	-36.0	-37.3	16.8	0.00e+00	0	57	0	4105175040	41	4487
2026-01-05 15:31:40.80	324.25	13.68	-35.9	-37.2	17.0	0.00e+00	0	57	0	4112515072	41	4418
2026-01-05 15:31:41.80	324.36	13.60	-36.0	-37.3	16.8	0.00e+00	0	57	0	4119855104	41	4489
2026-01-05 15:31:42.81	324.48	13.52	-36.1	-37.4	16.7	0.00e+00	0	57	0	4127195136	41	4532
2026-01-05 15:31:43.83	324.60	13.43	-36.1	-37.4	16.7	0.00e+00	0	57	0	4133486592	41	4517
2026-01-05 15:31:44.84	324.71	13.35	-36.1	-37.5	16.6	0.00e+00	0	57	0	4141875200	41	4549
2026-01-05 15:31:45.85	324.82	13.27	-36.0	-37.3	16.8	0.00e+00	0	57	0	4149215232	41	4475
2026-01-05 15:31:46.85	324.94	13.19	-36.1	-37.4	16.7	0.00e+00	0	57	0	4155506688	41	4532
2026-01-05 15:31:47.86	325.05	13.11	-36.1	-37.4	16.7	0.00e+00	0	57	0	4162846720	41	4514
2026-01-05 15:31:48.87	325.16	13.02	-36.1	-37.4	16.8	0.00e+00	0	57	0	4170186752	41	4500
2026-01-05 15:31:49.88	325.27	12.94	-36.0	-37.4	16.8	0.00e+00	0	57	0	4177526784	41	4506
2026-01-05 15:31:50.90	325.39	12.86	-36.0	-37.3	16.8	0.00e+00	0	57	0	4184866816	41	4480
2026-01-05 15:31:51.91	325.50	12.78	-36.1	-37.4	16.7	0.00e+00	0	57	0	4192206848	41	4511
2026-01-05 15:31:52.91	325.60	12.70	-36.0	-37.4	16.7	0.00e+00	0	57	0	4199546880	41	4507
2026-01-05 15:31:53.92	325.71	12.62	-36.1	-37.4	16.7	0.00e+00	0	57	0	4206886912	41	4540
2026-01-05 15:31:54.93	325.82	12.53	-36.2	-37.6	16.5	0.00e+00	0	57	0	4214226944	42	4364
2026-01-05 15:31:55.94	325.93	12.45	-36.2	-37.5	16.6	0.00e+00	0	57	0	4221566976	42	4318
2026-01-05 15:31:56.95	326.04	12.37	-36.2	-37.6	16.5	0.00e+00	0	57	0	4228907008	42	4353
2026-01-05 15:31:57.96	326.14	12.29	-36.3	-37.7	16.4	0.00e+00	0	57	0	4236247040	42	4434
2026-01-05 15:31:58.97	326.25	12.21	-36.4	-37.7	16.3	0.00e+00	0	57	0	4243587072	42	4436
2026-01-05 15:31:59.98	326.36	12.13	-36.5	-37.8	16.2	0.00e+00	0	57	0	4250927104	42	4493
2026-01-05 15:32:00.99	326.46	12.05	-36.4	-37.8	16.3	0.00e+00	0	57	0	4258267136	42	4446
2026-01-05 15:32:02.00	326.57	11.97	-36.4	-37.8	16.3	0.00e+00	0	57	0	4265607168	42	4469
2026-01-05 15:32:03.01	326.67	11.89	-36.4	-37.9	16.2	0.00e+00	0	57	0	4272947200	42	4494
2026-01-05 15:32:04.02	326.77	11.81	-36.4	-37.8	16.2	0.00e+00	0	57	0	4279238656	42	4482
2026-01-05 15:32:05.03	326.88	11.73	-36.4	-37.8	16.2	0.00e+00	0	57	0	4286578688	42	4481
2026-01-05 15:32:06.04	326.98	11.65	-36.4	-37.8	16.3	0.00e+00	0	57	0	4294967296	42	4455
2026-01-05 15:32:07.05	327.08	11.58	-36.4	-37.9	16.2	0.00e+00	0	57	0	4301258752	42	4497
2026-01-05 15:32:08.06	327.18	11.50	-36.5	-38.0	16.1	0.00e+00	0	57	0	4308598784	42	4550
2026-01-05 15:32:09.07	327.28	11.42	-36.3	-37.7	16.3	0.00e+00	0	57	0	4315938816	42	4433
2026-01-05 15:32:10.08	327.38	11.34	-36.3	-37.7	16.3	0.00e+00	0	57	0	4323278848	42	4431
2026-01-05 15:32:11.09	327.48	11.26	-36.5	-37.9	16.1	0.00e+00	0	57	0	4330618880	42	4513
2026-01-05 15:32:12.10	327.58	11.18	-36.3	-37.7	16.3	0.00e+00	0	57	0	4337958912	42	4406
2026-01-05 15:32:13.11	327.68	11.11	-36.5	-37.9	16.1	0.00e+00	0	57	0	4345298944	42	4505
2026-01-05 15:32:14.12	327.78	11.03	-36.3	-37.8	16.3	0.00e+00	0	57	0	4352638976	42	4444
2026-01-05 15:32:15.14	327.88	10.95	-36.4	-37.8	16.2	0.00e+00	0	57	0	4359979008	42	4445
2026-01-05 15:32:16.15	327.98	10.87	-36.3	-37.7	16.3	0.00e+00	0	57	0	4367319040	42	4395
2026-01-05 15:32:17.15	328.07	10.80	-36.4	-37.8	16.2	0.00e+00	0	57	0	4374659072	42	4446
2026-01-05 15:32:18.16	328.17	10.72	-36.4	-37.8	16.1	0.00e+00	0	57	0	4381999104	42	4488
2026-01-05 15:32:19.17	328.27	10.64	-36.4	-37.8	16.2	0.00e+00	0	57	0	4389339136	42	4485
2026-01-05 15:32:20.18	328.36	10.57	-36.5	-37.9	16.0	0.00e+00	0	57	0	4396679168	42	4536
2026-01-05 15:32:21.20	328.46	10.49	-36.6	-38.1	15.8	0.00e+00	0	57	0	4404019200	42	4625
2026-01-05 15:32:22.21	328.55	10.41	-36.6	-38.0	15.9	0.00e+00	0	57	0	4411359232	42	4595
2026-01-05 15:32:23.22	328.65	10.34	-36.6	-38.1	15.8	0.00e+00	0	57	0	4418699264	42	4622
2026-01-05 15:32:24.23	328.74	10.26	-36.6	-38.0	15.9	0.00e+00	0	57	0	4426039296	42	4591
