passes_logs/2026/01/05/R2.0S_Moscow/R2.0S_Moscow__20260105_230248_SUOMI_NPP_rec.log

#Pass ID: 20260105_230248_SUOMI NPP
#Satellite: SUOMI NPP
#Configuration: NPP
#almurnet v.1.7.20251203
#Start time: 2026-01-05 23:02:50

#Version: 2.2.20231116
#Station: R2.0S_Moscow
#Location: 37.707566 lon 55.798166 lat
#TLE: 1 37849U 11061A   26004.95404768  .00000136  00000+0  85334-4 0  9991
#TLE: 2 37849  98.7801 307.0898 0002575  80.6707 279.4760 14.19522289735281

#Time	Az	El	Level	Level2	SNR	BER	BlckErr	Temp	State	Recorded	gain1	gain2
2026-01-05 23:02:50.04	19.77	2.10	-41.0	-56.1	3.8	1.49e+00	0	47	0	0	53	20726
2026-01-05 23:02:51.04	19.81	2.17	-41.0	-56.1	3.8	1.49e+00	0	48	104	0	53	20717
2026-01-05 23:02:52.05	19.85	2.23	-41.0	-56.1	3.8	1.49e+00	0	48	104	0	53	20726
2026-01-05 23:02:53.06	19.88	2.29	-41.0	-56.1	3.8	1.49e+00	0	48	104	0	53	20766
2026-01-05 23:02:54.07	19.92	2.36	-41.0	-56.1	3.8	1.49e+00	0	48	104	0	53	20730
2026-01-05 23:02:55.09	19.95	2.42	-41.0	-56.1	3.8	1.49e+00	0	48	104	0	53	20700
2026-01-05 23:02:56.10	19.99	2.48	-41.0	-56.2	3.8	1.49e+00	0	48	104	0	53	20804
2026-01-05 23:02:57.11	20.03	2.55	-41.0	-56.1	3.8	1.49e+00	0	48	104	0	53	20751
2026-01-05 23:02:58.12	20.06	2.61	-41.0	-56.1	3.8	1.49e+00	0	48	104	0	53	20732
2026-01-05 23:02:59.13	20.10	2.67	-41.0	-56.1	3.8	1.49e+00	0	48	104	0	53	20772
2026-01-05 23:03:00.14	20.14	2.74	-41.0	-56.1	3.8	1.49e+00	0	48	104	0	53	20682
2026-01-05 23:03:01.15	20.17	2.80	-41.0	-56.1	3.8	1.49e+00	0	48	104	0	53	20774
2026-01-05 23:03:02.16	20.21	2.86	-41.0	-56.1	3.8	1.49e+00	0	48	104	0	53	20751
2026-01-05 23:03:03.17	20.25	2.93	-41.0	-56.1	3.8	1.49e+00	0	48	104	0	53	20776
2026-01-05 23:03:04.18	20.29	2.99	-41.0	-56.1	3.8	1.49e+00	0	49	104	0	53	20715
2026-01-05 23:03:05.20	20.32	3.06	-41.0	-56.1	3.8	1.49e+00	0	49	104	0	53	20755
2026-01-05 23:03:06.21	20.36	3.12	-41.0	-56.2	3.8	1.49e+00	0	49	104	0	53	20790
2026-01-05 23:03:07.22	20.40	3.19	-41.0	-56.1	3.8	1.49e+00	0	49	104	0	53	20743
2026-01-05 23:03:08.23	20.44	3.25	-41.0	-56.1	3.8	1.49e+00	0	49	104	0	53	20720
2026-01-05 23:03:09.24	20.48	3.32	-41.0	-56.1	3.8	1.49e+00	0	49	104	0	53	20721
2026-01-05 23:03:10.25	20.51	3.38	-41.0	-56.1	3.8	1.49e+00	0	49	104	0	53	20718
2026-01-05 23:03:11.26	20.55	3.45	-41.0	-56.1	3.8	1.49e+00	0	49	104	0	53	20717
2026-01-05 23:03:12.27	20.59	3.51	-41.0	-56.2	3.8	1.49e+00	0	49	104	0	53	20785
2026-01-05 23:03:13.28	20.63	3.58	-41.0	-56.1	3.8	1.49e+00	0	49	104	0	53	20729
2026-01-05 23:03:14.29	20.67	3.64	-41.0	-56.1	3.8	1.49e+00	0	49	104	0	53	20728
2026-01-05 23:03:15.31	20.71	3.71	-41.0	-56.1	3.8	1.49e+00	0	49	104	0	53	20741
2026-01-05 23:03:16.32	20.75	3.78	-41.0	-56.1	3.8	1.49e+00	0	49	104	0	53	20722
2026-01-05 23:03:17.33	20.79	3.84	-41.0	-56.1	3.8	1.49e+00	0	49	104	0	53	20653
2026-01-05 23:03:18.34	20.83	3.91	-41.0	-56.1	3.8	1.49e+00	0	49	104	0	53	20724
2026-01-05 23:03:19.35	20.87	3.98	-41.0	-56.1	3.8	1.49e+00	0	49	104	0	53	20722
2026-01-05 23:03:20.36	20.91	4.04	-41.0	-56.1	3.8	1.49e+00	0	49	104	0	53	20720
2026-01-05 23:03:21.37	20.95	4.11	-41.0	-56.1	3.8	1.49e+00	0	50	104	0	53	20690
2026-01-05 23:03:22.38	20.99	4.18	-41.0	-56.1	3.8	1.49e+00	0	50	104	0	53	20713
2026-01-05 23:03:23.39	21.03	4.24	-41.0	-56.1	3.8	1.49e+00	0	50	104	0	53	20768
2026-01-05 23:03:24.41	21.07	4.31	-41.0	-56.1	3.8	1.49e+00	0	50	104	0	53	20718
2026-01-05 23:03:25.42	21.11	4.38	-41.0	-56.1	3.8	1.49e+00	0	50	104	0	53	20738
2026-01-05 23:03:26.42	21.15	4.44	-41.0	-56.1	3.8	1.49e+00	0	50	104	0	53	20711
2026-01-05 23:03:27.43	21.19	4.51	-41.0	-56.1	3.8	1.49e+00	0	50	104	0	53	20672
2026-01-05 23:03:28.45	21.23	4.58	-40.9	-56.1	3.8	1.49e+00	0	50	104	0	53	20739
2026-01-05 23:03:29.46	21.27	4.65	-41.0	-56.1	3.8	1.49e+00	0	50	104	0	53	20700
2026-01-05 23:03:30.47	21.32	4.72	-41.0	-56.1	3.8	1.49e+00	0	50	104	0	53	20702
2026-01-05 23:03:31.48	21.36	4.79	-41.0	-56.1	3.8	1.49e+00	0	50	104	0	53	20711
2026-01-05 23:03:32.49	21.40	4.85	-40.9	-56.1	3.8	1.49e+00	0	50	104	0	53	20740
2026-01-05 23:03:33.50	21.44	4.92	-41.0	-56.1	3.8	1.49e+00	0	50	104	0	53	20722
2026-01-05 23:03:34.51	21.48	4.99	-41.0	-56.1	3.8	1.49e+00	0	50	104	0	53	20716
2026-01-05 23:03:35.52	21.53	5.06	-41.0	-56.1	3.8	1.49e+00	0	51	104	0	53	20677
2026-01-05 23:03:36.54	21.57	5.13	-41.0	-56.1	3.8	1.49e+00	0	51	104	0	53	20722
2026-01-05 23:03:37.55	21.61	5.20	-41.0	-56.1	3.8	1.49e+00	0	51	104	0	53	20726
2026-01-05 23:03:38.55	21.65	5.27	-41.0	-56.1	3.8	1.49e+00	0	50	104	0	53	20661
2026-01-05 23:03:39.57	21.70	5.34	-41.0	-56.1	3.8	1.49e+00	0	50	104	0	53	20727
2026-01-05 23:03:40.58	21.74	5.41	-41.0	-56.1	3.8	1.49e+00	0	51	104	0	53	20709
2026-01-05 23:03:41.59	21.79	5.48	-41.0	-56.1	3.8	1.49e+00	0	51	104	0	53	20699
2026-01-05 23:03:42.60	21.83	5.55	-41.0	-56.1	3.8	1.49e+00	0	51	104	0	53	20744
2026-01-05 23:03:43.61	21.87	5.62	-41.0	-56.1	3.8	1.49e+00	0	51	104	0	53	20686
2026-01-05 23:03:44.62	21.92	5.69	-41.0	-56.1	3.8	1.49e+00	0	51	104	0	53	20717
2026-01-05 23:03:45.63	21.96	5.76	-41.0	-56.1	3.8	1.49e+00	0	51	104	0	53	20717
2026-01-05 23:03:46.64	22.01	5.83	-41.0	-56.1	3.8	1.49e+00	0	51	104	0	53	20675
2026-01-05 23:03:47.65	22.05	5.90	-41.0	-56.1	3.8	1.49e+00	0	51	104	0	53	20761
2026-01-05 23:03:48.66	22.10	5.98	-41.0	-56.1	3.8	1.49e+00	0	51	104	0	53	20727
2026-01-05 23:03:49.68	22.14	6.05	-40.9	-56.1	3.8	1.49e+00	0	51	104	0	53	20715
2026-01-05 23:03:50.69	22.19	6.12	-41.0	-56.1	3.8	1.49e+00	0	51	104	0	53	20720
2026-01-05 23:03:51.70	22.23	6.19	-40.9	-56.1	3.8	1.49e+00	0	51	104	0	53	20752
2026-01-05 23:03:52.71	22.28	6.26	-41.0	-56.1	3.8	1.49e+00	0	52	104	0	53	20715
2026-01-05 23:03:53.72	22.32	6.34	-41.0	-56.1	3.8	1.49e+00	0	52	104	0	53	20677
2026-01-05 23:03:54.73	22.37	6.41	-41.0	-56.1	3.8	1.49e+00	0	51	104	0	53	20651
2026-01-05 23:03:55.74	22.42	6.48	-41.0	-56.1	3.8	1.49e+00	0	51	104	0	53	20626
2026-01-05 23:03:56.75	22.46	6.55	-41.0	-56.1	3.8	1.49e+00	0	51	104	0	53	20616
2026-01-05 23:03:57.76	22.51	6.63	-41.0	-56.1	3.8	1.49e+00	0	52	104	0	53	20642
2026-01-05 23:03:58.78	22.56	6.70	-41.0	-56.1	3.8	1.49e+00	0	52	104	0	53	20649
2026-01-05 23:03:59.79	22.60	6.77	-40.9	-56.1	3.8	1.49e+00	0	52	104	0	53	20675
2026-01-05 23:04:00.80	22.65	6.85	-41.0	-56.1	3.8	1.49e+00	0	51	104	0	53	20671
2026-01-05 23:04:01.81	22.70	6.92	-41.0	-56.0	3.8	1.49e+00	0	52	104	0	53	20532
2026-01-05 23:04:02.82	22.75	7.00	-40.9	-55.9	3.8	1.49e+00	0	52	104	0	53	20189
2026-01-05 23:04:03.83	22.79	7.07	-41.0	-55.7	3.8	1.49e+00	0	52	104	0	53	19839
2026-01-05 23:04:04.84	22.84	7.14	-40.9	-55.5	3.8	1.49e+00	0	52	104	0	53	19239
2026-01-05 23:04:05.85	22.89	7.22	-40.9	-55.2	3.8	1.49e+00	0	52	104	0	53	18710
2026-01-05 23:04:06.86	22.94	7.29	-40.9	-55.2	3.8	1.49e+00	0	52	104	0	53	18531
2026-01-05 23:04:07.87	22.99	7.37	-40.9	-55.1	3.8	1.49e+00	0	52	104	0	53	18349
2026-01-05 23:04:08.88	23.04	7.44	-40.9	-54.9	3.8	1.49e+00	0	52	104	0	53	17913
2026-01-05 23:04:09.90	23.09	7.52	-40.9	-54.5	3.8	1.49e+00	0	52	104	0	53	17150
2026-01-05 23:04:10.91	23.14	7.60	-40.8	-53.9	3.9	1.49e+00	0	52	104	0	53	16093
2026-01-05 23:04:11.92	23.19	7.67	-40.8	-53.5	3.8	1.47e+00	0	52	104	0	53	15346
2026-01-05 23:04:12.93	23.24	7.75	-40.8	-52.5	4.2	1.43e+00	0	52	0	0	53	13589
2026-01-05 23:04:13.94	23.29	7.82	-40.7	-51.5	4.5	1.27e+00	0	52	0	1048576	53	12142
2026-01-05 23:04:14.95	23.34	7.90	-40.6	-50.6	5.0	7.76e-01	0	52	0	2097152	53	10959
2026-01-05 23:04:15.96	23.39	7.98	-40.4	-49.0	6.0	4.70e-01	0	52	0	4194304	52	9652
2026-01-05 23:04:16.97	23.44	8.05	-40.1	-48.0	6.8	2.39e-01	0	52	0	6291456	52	8582
2026-01-05 23:04:17.98	23.49	8.13	-40.0	-45.8	9.6	8.88e-02	0	52	0	8388608	51	7075
2026-01-05 23:04:18.99	23.54	8.21	-41.2	-46.7	9.6	8.09e-03	0	52	0	10485760	52	7433
2026-01-05 23:04:20.00	23.60	8.29	-40.5	-50.4	4.9	2.87e-02	0	53	0	11534336	51	12043
2026-01-05 23:04:21.01	23.65	8.36	-40.8	-52.6	4.1	6.85e-01	0	52	0	13631488	52	14547
2026-01-05 23:04:22.02	23.70	8.44	-40.9	-45.8	10.8	5.32e-04	0	53	0	14680064	52	6651
2026-01-05 23:04:23.03	23.75	8.52	-40.1	-44.6	11.7	5.52e-04	0	53	0	16777216	52	5821
2026-01-05 23:04:24.05	23.81	8.60	-40.3	-44.6	11.9	3.18e-04	0	53	0	18874368	52	5825
2026-01-05 23:04:25.05	23.86	8.68	-40.5	-44.8	11.7	5.49e-04	0	52	0	20971520	52	5964
2026-01-05 23:04:26.06	23.91	8.76	-40.4	-44.5	12.1	4.27e-04	0	53	0	23068672	52	5766
2026-01-05 23:04:27.07	23.97	8.84	-40.3	-44.3	12.3	2.33e-04	0	53	0	24117248	52	5613
2026-01-05 23:04:28.09	24.02	8.92	-40.4	-44.4	12.2	2.01e-04	0	53	0	26214400	52	5687
2026-01-05 23:04:29.10	24.07	9.00	-40.4	-44.4	12.2	2.43e-04	0	53	0	28311552	52	5663
2026-01-05 23:04:30.11	24.13	9.08	-40.5	-44.6	12.1	3.11e-04	0	53	0	30408704	52	5800
2026-01-05 23:04:31.12	24.18	9.16	-40.5	-44.6	12.0	2.59e-04	0	53	0	32505856	52	5816
2026-01-05 23:04:32.13	24.24	9.24	-40.5	-44.6	12.1	2.90e-04	0	53	0	34603008	52	5805
2026-01-05 23:04:33.13	24.29	9.32	-40.6	-44.6	12.1	2.11e-04	0	53	0	35651584	52	5833
2026-01-05 23:04:34.15	24.35	9.40	-40.8	-45.0	11.7	3.11e-04	0	53	0	37748736	52	6117
2026-01-05 23:04:35.15	24.40	9.48	-40.6	-44.7	12.1	4.21e-04	0	53	0	39845888	52	5871
2026-01-05 23:04:36.17	24.46	9.56	-40.7	-44.8	11.9	2.62e-04	0	53	0	41943040	52	5992
2026-01-05 23:04:37.17	24.52	9.64	-40.8	-44.9	11.9	3.37e-04	0	53	0	44040192	52	6056
2026-01-05 23:04:38.18	24.57	9.72	-40.7	-44.8	12.0	4.60e-04	0	53	0	45088768	52	5937
2026-01-05 23:04:39.19	24.63	9.81	-40.6	-44.5	12.3	1.71e-04	0	53	0	47185920	52	5771
2026-01-05 23:04:40.20	24.69	9.89	-40.6	-44.5	12.4	2.10e-04	0	53	0	49283072	52	5745
2026-01-05 23:04:41.21	24.75	9.97	-40.6	-44.5	12.5	1.49e-04	0	53	0	51380224	52	5726
2026-01-05 23:04:42.22	24.80	10.05	-40.6	-44.5	12.4	8.85e-05	0	53	0	53477376	52	5760
2026-01-05 23:04:43.23	24.86	10.14	-40.6	-44.4	12.6	1.28e-04	0	53	0	54525952	52	5690
2026-01-05 23:04:44.24	24.92	10.22	-40.7	-44.6	12.4	1.01e-04	0	53	0	56623104	52	5832
2026-01-05 23:04:45.25	24.98	10.30	-40.7	-44.4	12.6	8.92e-05	0	53	0	58720256	52	5720
2026-01-05 23:04:46.26	25.04	10.39	-40.6	-44.2	12.9	8.16e-05	0	53	0	60817408	52	5587
2026-01-05 23:04:47.26	25.10	10.47	-40.7	-44.4	12.8	5.49e-05	0	53	0	62914560	52	5676
2026-01-05 23:04:48.27	25.16	10.56	-40.5	-43.9	13.2	1.75e-05	0	53	0	63963136	52	5398
2026-01-05 23:04:49.28	25.22	10.64	-40.5	-44.0	13.2	3.05e-05	0	54	0	66060288	52	5448
2026-01-05 23:04:50.29	25.28	10.73	-40.5	-44.0	13.2	1.83e-05	0	53	0	68157440	52	5428
2026-01-05 23:04:51.30	25.34	10.81	-40.5	-44.0	13.3	9.10e-06	0	53	0	70254592	52	5406
2026-01-05 23:04:52.31	25.40	10.90	-40.4	-43.7	13.6	1.44e-05	0	54	0	72351744	52	5225
2026-01-05 23:04:53.32	25.46	10.98	-40.3	-43.5	13.8	8.30e-06	0	53	0	73400320	52	5128
2026-01-05 23:04:54.33	25.52	11.07	-40.4	-43.7	13.6	1.06e-05	0	54	0	75497472	52	5233
2026-01-05 23:04:55.34	25.58	11.15	-40.3	-43.5	13.8	1.50e-06	0	53	0	77594624	52	5154
2026-01-05 23:04:56.35	25.65	11.24	-40.2	-43.3	14.0	3.80e-06	0	54	0	79691776	52	5027
2026-01-05 23:04:57.36	25.71	11.33	-40.2	-43.4	14.0	3.00e-06	0	54	0	81788928	52	5065
2026-01-05 23:04:58.37	25.77	11.41	-40.2	-43.3	14.1	2.20e-06	0	53	0	82837504	52	5008
2026-01-05 23:04:59.38	25.84	11.50	-40.2	-43.3	14.1	7.00e-07	0	54	0	84934656	52	5023
2026-01-05 23:05:00.39	25.90	11.59	-40.2	-43.2	14.2	2.20e-06	0	54	0	87031808	52	4981
2026-01-05 23:05:01.40	25.96	11.68	-40.1	-43.2	14.3	1.50e-06	0	54	0	89128960	52	4927
2026-01-05 23:05:02.41	26.03	11.77	-40.1	-43.1	14.3	2.20e-06	0	54	0	91226112	52	4906
2026-01-05 23:05:03.42	26.09	11.86	-40.0	-43.0	14.4	2.20e-06	0	54	0	92274688	52	4841
2026-01-05 23:05:04.43	26.16	11.94	-40.1	-43.1	14.4	1.50e-06	0	54	0	94371840	52	4879
2026-01-05 23:05:05.43	26.22	12.03	-40.0	-43.0	14.5	2.20e-06	0	54	0	96468992	52	4846
2026-01-05 23:05:06.44	26.29	12.12	-40.1	-43.1	14.4	1.50e-06	0	54	0	98566144	52	4872
2026-01-05 23:05:07.45	26.36	12.21	-40.1	-43.1	14.3	0.00e+00	0	54	0	100663296	52	4903
2026-01-05 23:05:08.47	26.42	12.30	-40.0	-43.0	14.5	1.50e-06	0	54	0	102760448	52	4825
2026-01-05 23:05:09.47	26.49	12.39	-40.0	-42.9	14.6	0.00e+00	0	54	0	103809024	51	5081
2026-01-05 23:05:10.48	26.56	12.48	-40.1	-43.0	14.6	7.00e-07	0	54	0	105906176	51	5115
2026-01-05 23:05:11.49	26.63	12.57	-40.0	-42.9	14.7	7.00e-07	0	54	0	108003328	51	5046
2026-01-05 23:05:12.50	26.69	12.67	-39.9	-42.7	14.8	0.00e+00	0	54	0	110100480	51	4975
2026-01-05 23:05:13.51	26.76	12.76	-40.0	-42.8	14.7	0.00e+00	0	54	0	112197632	51	5033
2026-01-05 23:05:14.53	26.83	12.85	-39.9	-42.7	14.9	7.00e-07	0	54	0	113246208	51	4942
2026-01-05 23:05:15.54	26.90	12.94	-39.9	-42.7	14.9	0.00e+00	0	54	0	115343360	51	4943
2026-01-05 23:05:16.54	26.97	13.03	-39.8	-42.5	15.1	0.00e+00	0	54	0	117440512	51	4850
2026-01-05 23:05:17.56	27.04	13.13	-39.7	-42.4	15.2	0.00e+00	0	54	0	119537664	51	4788
2026-01-05 23:05:18.57	27.11	13.22	-39.6	-42.2	15.4	0.00e+00	0	54	0	121634816	51	4670
2026-01-05 23:05:19.58	27.18	13.31	-39.6	-42.3	15.3	0.00e+00	0	54	0	122683392	51	4708
2026-01-05 23:05:20.58	27.25	13.41	-39.5	-42.0	15.6	0.00e+00	0	54	0	124780544	50	4857
2026-01-05 23:05:21.59	27.33	13.50	-39.5	-42.1	15.5	0.00e+00	0	54	0	126877696	50	4907
2026-01-05 23:05:22.60	27.40	13.60	-39.5	-42.1	15.5	0.00e+00	0	54	0	128974848	50	4917
2026-01-05 23:05:23.61	27.47	13.69	-39.5	-42.1	15.6	0.00e+00	0	54	0	131072000	50	4873
2026-01-05 23:05:24.62	27.55	13.79	-39.5	-42.0	15.7	0.00e+00	0	54	0	132120576	50	4859
2026-01-05 23:05:25.63	27.62	13.88	-39.4	-41.9	15.8	0.00e+00	0	54	0	134217728	50	4776
2026-01-05 23:05:26.64	27.69	13.98	-39.5	-42.1	15.7	0.00e+00	0	54	0	136314880	50	4878
2026-01-05 23:05:27.65	27.77	14.07	-39.6	-42.2	15.5	0.00e+00	0	54	0	138412032	50	4928
2026-01-05 23:05:28.66	27.84	14.17	-39.4	-41.9	15.8	0.00e+00	0	54	0	140509184	50	4802
2026-01-05 23:05:29.67	27.92	14.27	-39.4	-41.9	15.8	0.00e+00	0	54	0	141557760	50	4798
2026-01-05 23:05:30.68	27.99	14.36	-39.4	-41.9	15.8	0.00e+00	0	54	0	143654912	50	4804
2026-01-05 23:05:31.69	28.07	14.46	-39.4	-41.9	15.9	0.00e+00	0	54	0	145752064	50	4778
2026-01-05 23:05:32.70	28.15	14.56	-39.4	-42.0	15.8	0.00e+00	0	54	0	147849216	50	4815
2026-01-05 23:05:33.71	28.23	14.66	-39.4	-41.9	15.9	0.00e+00	0	54	0	149946368	50	4781
2026-01-05 23:05:34.72	28.30	14.76	-39.6	-42.1	15.6	0.00e+00	0	54	0	150994944	50	4922
2026-01-05 23:05:35.73	28.38	14.86	-39.4	-41.9	15.9	0.00e+00	0	54	0	153092096	50	4761
2026-01-05 23:05:36.74	28.46	14.95	-39.4	-41.9	15.9	0.00e+00	0	54	0	155189248	50	4792
2026-01-05 23:05:37.75	28.54	15.05	-39.4	-41.9	15.8	0.00e+00	0	54	0	157286400	50	4812
2026-01-05 23:05:38.76	28.62	15.15	-39.3	-41.7	16.0	0.00e+00	0	54	0	159383552	50	4701
2026-01-05 23:05:39.77	28.70	15.26	-39.5	-42.1	15.7	0.00e+00	0	55	0	160432128	50	4892
2026-01-05 23:05:40.78	28.78	15.36	-39.5	-42.0	15.8	0.00e+00	0	54	0	162529280	50	4827
2026-01-05 23:05:41.79	28.86	15.46	-39.3	-41.8	16.0	0.00e+00	0	55	0	164626432	50	4730
2026-01-05 23:05:42.80	28.95	15.56	-39.6	-42.2	15.6	0.00e+00	0	54	0	166723584	50	4959
2026-01-05 23:05:43.81	29.03	15.66	-39.5	-42.1	15.7	0.00e+00	0	54	0	168820736	50	4904
2026-01-05 23:05:44.82	29.11	15.76	-39.6	-42.2	15.6	0.00e+00	0	54	0	170917888	50	4952
2026-01-05 23:05:45.82	29.19	15.86	-39.7	-42.4	15.4	0.00e+00	0	54	0	171966464	50	5067
2026-01-05 23:05:46.83	29.28	15.97	-39.9	-42.6	15.2	0.00e+00	0	55	0	174063616	50	5177
2026-01-05 23:05:47.84	29.36	16.07	-39.9	-42.7	15.1	0.00e+00	0	55	0	176160768	50	5254
2026-01-05 23:05:48.85	29.45	16.18	-40.0	-42.8	15.0	0.00e+00	0	54	0	178257920	50	5313
2026-01-05 23:05:49.86	29.53	16.28	-40.0	-42.8	15.0	7.00e-07	0	55	0	180355072	50	5310
2026-01-05 23:05:50.87	29.62	16.38	-40.1	-42.9	14.9	0.00e+00	0	54	0	181403648	50	5391
2026-01-05 23:05:51.88	29.71	16.49	-39.9	-42.7	15.1	0.00e+00	0	55	0	183500800	50	5260
2026-01-05 23:05:52.89	29.79	16.59	-39.9	-42.7	15.2	0.00e+00	0	55	0	185597952	50	5239
2026-01-05 23:05:53.90	29.88	16.70	-40.0	-42.7	15.1	0.00e+00	0	55	0	187695104	50	5252
2026-01-05 23:05:54.91	29.97	16.81	-40.1	-42.9	14.9	0.00e+00	0	55	0	189792256	50	5358
2026-01-05 23:05:55.92	30.06	16.91	-40.0	-42.8	15.0	7.00e-07	0	55	0	190840832	50	5321
2026-01-05 23:05:56.93	30.15	17.02	-39.9	-42.7	15.2	0.00e+00	0	55	0	192937984	50	5228
2026-01-05 23:05:57.94	30.24	17.13	-40.0	-42.8	15.1	0.00e+00	0	55	0	195035136	50	5305
2026-01-05 23:05:58.95	30.33	17.24	-40.0	-42.8	15.0	0.00e+00	0	55	0	197132288	50	5329
2026-01-05 23:05:59.96	30.42	17.34	-39.9	-42.7	15.2	0.00e+00	0	54	0	199229440	50	5231
2026-01-05 23:06:00.97	30.52	17.45	-40.1	-43.0	14.9	0.00e+00	0	55	0	200278016	50	5431
2026-01-05 23:06:01.98	30.61	17.56	-40.1	-43.0	15.0	0.00e+00	0	55	0	202375168	50	5404
2026-01-05 23:06:02.99	30.70	17.67	-39.9	-42.7	15.2	0.00e+00	0	55	0	204472320	50	5235
2026-01-05 23:06:03.99	30.80	17.78	-40.0	-42.7	15.2	7.00e-07	0	55	0	206569472	50	5264
2026-01-05 23:06:05.00	30.89	17.89	-40.0	-42.9	15.1	0.00e+00	0	55	0	208666624	50	5342
2026-01-05 23:06:06.01	30.99	18.00	-39.9	-42.6	15.3	0.00e+00	0	55	0	209715200	50	5212
2026-01-05 23:06:07.02	31.08	18.11	-39.8	-42.6	15.4	0.00e+00	0	55	0	211812352	50	5162
2026-01-05 23:06:08.03	31.18	18.22	-40.1	-42.9	15.1	0.00e+00	0	55	0	213909504	50	5385
2026-01-05 23:06:09.04	31.28	18.34	-40.0	-42.8	15.2	7.00e-07	0	55	0	216006656	50	5307
2026-01-05 23:06:10.05	31.38	18.45	-39.9	-42.6	15.4	0.00e+00	0	55	0	218103808	50	5176
2026-01-05 23:06:11.06	31.48	18.56	-39.9	-42.6	15.4	0.00e+00	0	55	0	219152384	50	5191
2026-01-05 23:06:12.07	31.58	18.68	-39.9	-42.6	15.3	0.00e+00	0	55	0	221249536	50	5192
2026-01-05 23:06:13.08	31.68	18.79	-39.9	-42.7	15.4	0.00e+00	0	55	0	223346688	50	5229
2026-01-05 23:06:14.09	31.78	18.90	-40.1	-42.8	15.1	0.00e+00	0	55	0	225443840	50	5328
2026-01-05 23:06:15.10	31.88	19.02	-40.0	-42.7	15.2	0.00e+00	0	55	0	227540992	50	5257
2026-01-05 23:06:16.11	31.98	19.13	-40.2	-43.1	14.9	0.00e+00	0	55	0	228589568	50	5485
2026-01-05 23:06:17.12	32.09	19.25	-40.2	-43.0	15.0	0.00e+00	0	55	0	230686720	51	5159
2026-01-05 23:06:18.13	32.19	19.36	-40.3	-43.2	14.9	0.00e+00	0	55	0	232783872	51	5222
2026-01-05 23:06:19.14	32.30	19.48	-40.4	-43.5	14.5	0.00e+00	0	55	0	234881024	51	5430
2026-01-05 23:06:20.15	32.40	19.60	-40.3	-43.3	14.7	7.00e-07	0	55	0	236978176	51	5304
2026-01-05 23:06:21.16	32.51	19.72	-40.4	-43.4	14.6	7.00e-07	0	55	0	239075328	51	5357
2026-01-05 23:06:22.17	32.61	19.83	-40.2	-43.1	14.9	0.00e+00	0	55	0	240123904	51	5192
2026-01-05 23:06:23.18	32.72	19.95	-40.3	-43.2	14.8	0.00e+00	0	55	0	242221056	51	5267
2026-01-05 23:06:24.19	32.83	20.07	-40.1	-43.0	15.0	0.00e+00	0	55	0	244318208	51	5114
2026-01-05 23:06:25.20	32.94	20.19	-40.1	-43.0	15.0	7.00e-07	0	55	0	246415360	51	5130
2026-01-05 23:06:26.21	33.05	20.31	-40.2	-43.1	14.8	0.00e+00	0	55	0	248512512	51	5206
2026-01-05 23:06:27.22	33.16	20.43	-40.1	-42.9	15.1	0.00e+00	0	55	0	249561088	51	5052
2026-01-05 23:06:28.23	33.28	20.55	-40.0	-42.7	15.3	0.00e+00	0	55	0	251658240	51	4971
2026-01-05 23:06:29.24	33.39	20.67	-40.0	-42.7	15.3	0.00e+00	0	55	0	253755392	51	4967
2026-01-05 23:06:30.25	33.50	20.79	-40.0	-42.8	15.2	0.00e+00	0	55	0	255852544	51	4996
2026-01-05 23:06:31.25	33.62	20.92	-40.0	-42.7	15.3	0.00e+00	0	55	0	257949696	51	4975
2026-01-05 23:06:32.26	33.73	21.04	-40.0	-42.8	15.2	0.00e+00	0	55	0	258998272	51	5030
2026-01-05 23:06:33.26	33.85	21.16	-40.1	-42.9	15.2	0.00e+00	0	55	0	261095424	51	5055
2026-01-05 23:06:34.27	33.97	21.28	-40.2	-43.1	14.9	7.00e-07	0	55	0	263192576	51	5165
2026-01-05 23:06:35.29	34.08	21.41	-40.2	-43.1	14.9	7.00e-07	0	55	0	265289728	51	5205
2026-01-05 23:06:36.29	34.20	21.53	-40.2	-43.0	14.9	0.00e+00	0	55	0	267386880	51	5119
2026-01-05 23:06:37.30	34.32	21.66	-40.3	-43.2	14.8	7.00e-07	0	55	0	268435456	51	5248
2026-01-05 23:06:38.31	34.44	21.78	-40.2	-43.0	15.0	7.00e-07	0	55	0	270532608	51	5140
2026-01-05 23:06:39.32	34.57	21.91	-40.2	-43.1	15.0	0.00e+00	0	55	0	272629760	51	5177
2026-01-05 23:06:40.33	34.69	22.04	-40.2	-43.1	14.9	0.00e+00	0	55	0	274726912	51	5205
2026-01-05 23:06:41.34	34.81	22.16	-40.2	-43.0	15.0	0.00e+00	0	55	0	276824064	51	5154
2026-01-05 23:06:42.35	34.94	22.29	-40.3	-43.1	14.9	0.00e+00	0	55	0	277872640	51	5217
2026-01-05 23:06:43.36	35.06	22.42	-40.2	-43.1	14.9	0.00e+00	0	55	0	279969792	51	5202
2026-01-05 23:06:44.37	35.19	22.55	-40.4	-43.3	14.7	0.00e+00	0	55	0	282066944	51	5310
2026-01-05 23:06:45.38	35.32	22.68	-40.3	-43.2	14.8	0.00e+00	0	55	0	284164096	51	5276
2026-01-05 23:06:46.39	35.45	22.81	-40.3	-43.3	14.8	0.00e+00	0	55	0	286261248	51	5314
2026-01-05 23:06:47.40	35.58	22.94	-40.2	-43.0	15.1	0.00e+00	0	55	0	287309824	51	5127
2026-01-05 23:06:48.41	35.71	23.07	-40.1	-42.9	15.1	7.00e-07	0	55	0	289406976	51	5065
2026-01-05 23:06:49.42	35.84	23.20	-40.1	-42.9	15.1	0.00e+00	0	55	0	291504128	51	5079
2026-01-05 23:06:50.43	35.98	23.33	-40.3	-43.2	14.9	0.00e+00	0	55	0	293601280	51	5263
2026-01-05 23:06:51.44	36.11	23.47	-40.2	-43.1	15.0	0.00e+00	0	55	0	295698432	51	5174
2026-01-05 23:06:52.45	36.25	23.60	-40.1	-42.8	15.3	0.00e+00	0	55	0	296747008	51	5023
2026-01-05 23:06:53.45	36.38	23.73	-40.1	-42.8	15.3	0.00e+00	0	55	0	298844160	51	5018
2026-01-05 23:06:54.46	36.52	23.86	-40.2	-43.0	15.1	0.00e+00	0	55	0	300941312	51	5149
2026-01-05 23:06:55.47	36.66	24.00	-40.0	-42.7	15.4	0.00e+00	0	55	0	303038464	51	4962
2026-01-05 23:06:56.48	36.80	24.13	-40.1	-42.9	15.2	0.00e+00	0	55	0	305135616	51	5084
2026-01-05 23:06:57.49	36.94	24.27	-40.0	-42.7	15.4	0.00e+00	0	55	0	307232768	51	4975
2026-01-05 23:06:58.50	37.08	24.41	-40.0	-42.6	15.5	0.00e+00	0	56	0	308281344	51	4926
2026-01-05 23:06:59.51	37.23	24.54	-40.0	-42.7	15.4	7.00e-07	0	55	0	310378496	51	4949
2026-01-05 23:07:00.52	37.37	24.68	-40.1	-42.8	15.3	0.00e+00	0	56	0	312475648	51	5025
2026-01-05 23:07:01.53	37.52	24.82	-40.1	-42.9	15.3	0.00e+00	0	55	0	314572800	51	5056
2026-01-05 23:07:02.54	37.66	24.96	-40.2	-42.9	15.2	0.00e+00	0	55	0	316669952	51	5096
2026-01-05 23:07:03.55	37.81	25.09	-40.1	-42.8	15.3	0.00e+00	0	56	0	317718528	51	5020
2026-01-05 23:07:04.56	37.96	25.23	-39.9	-42.6	15.6	0.00e+00	0	56	0	319815680	51	4876
2026-01-05 23:07:05.57	38.11	25.37	-40.2	-42.9	15.2	0.00e+00	0	56	0	321912832	51	5074
2026-01-05 23:07:06.58	38.27	25.51	-40.1	-42.8	15.3	0.00e+00	0	55	0	324009984	51	5024
2026-01-05 23:07:07.59	38.42	25.66	-39.8	-42.4	15.8	0.00e+00	0	55	0	326107136	51	4768
2026-01-05 23:07:08.60	38.58	25.80	-40.0	-42.7	15.5	0.00e+00	0	55	0	327155712	51	4931
2026-01-05 23:07:09.61	38.73	25.94	-39.9	-42.5	15.7	0.00e+00	0	56	0	329252864	51	4837
2026-01-05 23:07:10.62	38.89	26.08	-39.8	-42.4	15.9	0.00e+00	0	55	0	331350016	51	4760
2026-01-05 23:07:11.62	39.05	26.22	-40.0	-42.7	15.5	0.00e+00	0	56	0	333447168	51	4939
2026-01-05 23:07:12.63	39.21	26.37	-40.1	-42.9	15.3	0.00e+00	0	55	0	335544320	51	5067
2026-01-05 23:07:13.64	39.37	26.51	-40.2	-42.9	15.2	0.00e+00	0	56	0	336592896	51	5095
2026-01-05 23:07:14.65	39.54	26.66	-40.3	-43.0	15.2	0.00e+00	0	56	0	338690048	51	5155
2026-01-05 23:07:15.66	39.70	26.80	-40.2	-43.0	15.2	7.00e-07	0	55	0	340787200	51	5119
2026-01-05 23:07:16.67	39.87	26.95	-40.2	-42.9	15.2	0.00e+00	0	56	0	342884352	51	5087
2026-01-05 23:07:17.68	40.03	27.09	-40.3	-43.1	15.2	0.00e+00	0	56	0	344981504	51	5167
2026-01-05 23:07:18.69	40.20	27.24	-40.0	-42.7	15.5	0.00e+00	0	56	0	346030080	51	4929
2026-01-05 23:07:19.70	40.38	27.39	-40.0	-42.6	15.6	0.00e+00	0	56	0	348127232	51	4887
2026-01-05 23:07:20.71	40.55	27.54	-40.0	-42.7	15.5	0.00e+00	0	56	0	350224384	51	4953
2026-01-05 23:07:21.72	40.72	27.68	-39.9	-42.4	15.8	0.00e+00	0	56	0	352321536	51	4796
2026-01-05 23:07:22.73	40.90	27.83	-39.9	-42.5	15.7	0.00e+00	0	56	0	354418688	51	4841
2026-01-05 23:07:23.73	41.07	27.98	-40.2	-43.0	15.2	0.00e+00	0	56	0	355467264	51	5101
2026-01-05 23:07:24.75	41.25	28.13	-40.2	-43.0	15.3	0.00e+00	0	56	0	357564416	51	5110
2026-01-05 23:07:25.76	41.44	28.28	-40.2	-42.9	15.3	0.00e+00	0	56	0	359661568	51	5074
2026-01-05 23:07:26.77	41.62	28.43	-40.5	-43.3	14.9	7.00e-07	0	56	0	361758720	51	5313
2026-01-05 23:07:27.78	41.80	28.59	-40.6	-43.5	14.7	0.00e+00	0	56	0	363855872	52	5127
2026-01-05 23:07:28.78	41.99	28.74	-40.8	-43.9	14.3	0.00e+00	0	56	0	364904448	52	5343
2026-01-05 23:07:29.79	42.17	28.89	-40.9	-44.0	14.2	1.50e-06	0	56	0	367001600	52	5450
2026-01-05 23:07:30.80	42.36	29.04	-41.1	-44.3	13.8	4.50e-06	0	56	0	369098752	52	5638
2026-01-05 23:07:31.81	42.55	29.20	-41.1	-44.4	13.8	3.80e-06	0	56	0	371195904	52	5693
2026-01-05 23:07:32.82	42.75	29.35	-41.0	-44.2	14.0	7.00e-07	0	56	0	373293056	52	5563
2026-01-05 23:07:33.83	42.94	29.51	-41.1	-44.3	13.9	6.10e-06	0	56	0	375390208	53	5305
2026-01-05 23:07:34.84	43.14	29.66	-41.1	-44.5	13.6	3.80e-06	0	56	0	376438784	53	5405
2026-01-05 23:07:35.85	43.34	29.82	-41.1	-44.4	13.8	6.10e-06	0	56	0	378535936	53	5350
2026-01-05 23:07:36.86	43.54	29.97	-41.1	-44.4	13.7	7.60e-06	0	56	0	380633088	53	5379
2026-01-05 23:07:37.87	43.74	30.13	-41.2	-44.6	13.7	9.90e-06	0	56	0	382730240	53	5479
2026-01-05 23:07:38.88	43.94	30.29	-41.3	-44.9	13.4	1.22e-05	0	56	0	384827392	53	5701
2026-01-05 23:07:39.89	44.15	30.45	-41.4	-45.0	13.2	1.37e-05	0	56	0	385875968	53	5755
2026-01-05 23:07:40.90	44.36	30.60	-41.3	-44.9	13.2	2.28e-05	0	56	0	387973120	53	5718
2026-01-05 23:07:41.91	44.57	30.76	-41.1	-44.4	13.7	1.06e-05	0	56	0	390070272	53	5370
2026-01-05 23:07:42.92	44.78	30.92	-41.1	-44.4	13.8	4.50e-06	0	56	0	392167424	53	5388
2026-01-05 23:07:43.93	44.99	31.08	-40.9	-44.1	14.1	3.00e-06	0	56	0	393216000	53	5174
2026-01-05 23:07:44.94	45.21	31.24	-40.9	-44.1	14.1	6.10e-06	0	56	0	395313152	53	5166
2026-01-05 23:07:45.95	45.43	31.40	-40.8	-43.9	14.3	2.20e-06	0	56	0	397410304	53	5074
2026-01-05 23:07:46.96	45.65	31.56	-40.9	-44.1	14.0	1.50e-06	0	56	0	399507456	53	5216
2026-01-05 23:07:47.97	45.87	31.72	-40.5	-43.4	14.8	0.00e+00	0	56	0	401604608	53	4800
2026-01-05 23:07:48.98	46.09	31.89	-40.7	-43.8	14.4	0.00e+00	0	56	0	403701760	53	4998
2026-01-05 23:07:49.99	46.32	32.05	-40.8	-43.9	14.4	7.00e-07	0	56	0	404750336	53	5050
2026-01-05 23:07:51.00	46.55	32.21	-41.0	-44.3	14.0	0.00e+00	0	56	0	406847488	53	5301
2026-01-05 23:07:52.01	46.78	32.37	-41.1	-44.4	13.8	3.00e-06	0	56	0	408944640	53	5375
2026-01-05 23:07:53.01	47.01	32.53	-41.3	-44.7	13.5	9.10e-06	0	56	0	411041792	53	5592
2026-01-05 23:07:54.02	47.25	32.70	-41.5	-45.2	13.0	1.83e-05	0	56	0	413138944	53	5914
2026-01-05 23:07:55.03	47.49	32.86	-41.3	-45.0	13.1	4.42e-05	0	56	0	414187520	53	5767
2026-01-05 23:07:56.04	47.73	33.03	-41.3	-45.0	13.1	4.19e-05	0	56	0	416284672	53	5746
2026-01-05 23:07:57.05	47.97	33.19	-41.3	-44.9	13.3	2.82e-05	0	56	0	418381824	53	5699
2026-01-05 23:07:58.06	48.22	33.36	-41.1	-44.6	13.5	1.98e-05	0	56	0	420478976	53	5478
2026-01-05 23:07:59.07	48.47	33.52	-40.9	-44.3	13.9	6.10e-06	0	56	0	422576128	53	5292
2026-01-05 23:08:00.08	48.72	33.69	-40.7	-43.8	14.4	2.20e-06	0	56	0	423624704	53	5031
2026-01-05 23:08:01.09	48.97	33.85	-40.7	-43.8	14.4	7.00e-07	0	56	0	425721856	53	5020
2026-01-05 23:08:02.10	49.23	34.02	-40.6	-43.7	14.5	1.50e-06	0	56	0	427819008	53	4943
2026-01-05 23:08:03.11	49.48	34.19	-40.5	-43.3	14.8	0.00e+00	0	56	0	429916160	52	5036
2026-01-05 23:08:04.12	49.74	34.35	-40.7	-43.8	14.4	7.00e-07	0	56	0	432013312	52	5287
2026-01-05 23:08:05.13	50.01	34.52	-40.5	-43.4	14.7	7.00e-07	0	56	0	433061888	52	5091
2026-01-05 23:08:06.14	50.27	34.69	-40.6	-43.7	14.5	0.00e+00	0	56	0	435159040	52	5242
2026-01-05 23:08:07.15	50.54	34.86	-40.6	-43.8	14.4	3.00e-06	0	56	0	437256192	52	5281
2026-01-05 23:08:08.16	50.81	35.03	-40.7	-43.9	14.3	3.80e-06	0	56	0	439353344	52	5381
2026-01-05 23:08:09.17	51.09	35.19	-40.9	-44.2	14.0	2.20e-06	0	56	0	441450496	52	5555
2026-01-05 23:08:10.18	51.37	35.36	-40.8	-44.1	14.2	2.20e-06	0	56	0	442499072	52	5479
2026-01-05 23:08:11.19	51.65	35.53	-40.4	-43.5	14.6	0.00e+00	0	56	0	444596224	52	5124
2026-01-05 23:08:12.19	51.93	35.70	-40.0	-42.9	15.2	0.00e+00	0	56	0	446693376	52	4763
2026-01-05 23:08:13.20	52.21	35.87	-39.8	-42.4	15.7	0.00e+00	0	56	0	448790528	51	4808
2026-01-05 23:08:14.21	52.50	36.03	-39.6	-42.1	16.2	0.00e+00	0	56	0	450887680	51	4625
2026-01-05 23:08:15.23	52.80	36.20	-39.5	-42.1	16.2	0.00e+00	0	56	0	451936256	51	4609
2026-01-05 23:08:16.23	53.09	36.37	-39.8	-42.4	15.8	0.00e+00	0	56	0	454033408	50	5065
2026-01-05 23:08:17.24	53.39	36.54	-40.0	-42.8	15.5	0.00e+00	0	56	0	456130560	50	5285
2026-01-05 23:08:18.25	53.69	36.71	-40.3	-43.3	15.0	0.00e+00	0	56	0	458227712	51	5304
2026-01-05 23:08:19.27	53.99	36.88	-40.0	-42.9	15.4	0.00e+00	0	56	0	460324864	51	5042
2026-01-05 23:08:20.27	54.30	37.05	-40.0	-42.9	15.3	0.00e+00	0	56	0	461373440	51	5076
2026-01-05 23:08:21.28	54.61	37.22	-39.8	-42.5	15.6	0.00e+00	0	56	0	463470592	51	4847
2026-01-05 23:08:22.29	54.92	37.39	-39.8	-42.5	15.7	0.00e+00	0	56	0	465567744	51	4868
2026-01-05 23:08:23.30	55.24	37.56	-39.5	-42.1	16.0	0.00e+00	0	56	0	467664896	50	4904
2026-01-05 23:08:24.31	55.56	37.72	-39.5	-42.0	16.2	0.00e+00	0	56	0	469762048	50	4851
2026-01-05 23:08:25.32	55.88	37.89	-39.3	-41.7	16.4	0.00e+00	0	56	0	471859200	50	4696
2026-01-05 23:08:26.33	56.21	38.06	-39.6	-42.2	16.0	0.00e+00	0	56	0	472907776	50	4970
2026-01-05 23:08:27.34	56.54	38.23	-39.6	-42.4	15.8	7.00e-07	0	56	0	475004928	50	5043
2026-01-05 23:08:28.35	56.87	38.40	-39.9	-42.8	15.4	0.00e+00	0	56	0	477102080	50	5320
2026-01-05 23:08:29.36	57.21	38.57	-40.0	-42.9	15.3	0.00e+00	0	56	0	479199232	50	5368
2026-01-05 23:08:30.37	57.55	38.73	-39.5	-42.1	16.1	0.00e+00	0	56	0	481296384	50	4906
2026-01-05 23:08:31.38	57.89	38.90	-39.8	-42.5	15.7	0.00e+00	0	56	0	482344960	50	5114
2026-01-05 23:08:32.39	58.24	39.07	-40.1	-42.9	15.3	0.00e+00	0	56	0	484442112	50	5390
2026-01-05 23:08:33.40	58.59	39.23	-40.1	-43.0	15.4	0.00e+00	0	56	0	486539264	50	5411
2026-01-05 23:08:34.41	58.94	39.40	-40.0	-42.8	15.5	0.00e+00	0	56	0	488636416	50	5285
2026-01-05 23:08:35.42	59.30	39.57	-39.8	-42.5	15.7	0.00e+00	0	56	0	490733568	50	5124
2026-01-05 23:08:36.42	59.66	39.73	-39.7	-42.2	16.0	0.00e+00	0	56	0	491782144	50	4958
2026-01-05 23:08:37.43	60.02	39.89	-39.4	-41.8	16.4	0.00e+00	0	56	0	493879296	50	4752
2026-01-05 23:08:38.44	60.39	40.06	-39.6	-42.1	16.1	0.00e+00	0	56	0	495976448	50	4925
2026-01-05 23:08:39.45	60.76	40.22	-39.7	-42.3	16.0	0.00e+00	0	56	0	498073600	50	4995
2026-01-05 23:08:40.46	61.14	40.39	-39.9	-42.6	15.7	0.00e+00	0	56	0	500170752	50	5213
2026-01-05 23:08:41.47	61.52	40.55	-39.8	-42.4	15.9	0.00e+00	0	56	0	501219328	50	5051
2026-01-05 23:08:42.48	61.90	40.71	-39.7	-42.2	16.1	0.00e+00	0	56	0	503316480	50	4938
2026-01-05 23:08:43.49	62.29	40.87	-39.6	-42.0	16.3	0.00e+00	0	56	0	505413632	50	4855
2026-01-05 23:08:44.50	62.68	41.03	-40.1	-42.8	15.5	0.00e+00	0	56	0	507510784	50	5326
2026-01-05 23:08:45.51	63.08	41.19	-40.6	-43.6	14.7	0.00e+00	0	56	0	509607936	51	5482
2026-01-05 23:08:46.52	63.48	41.35	-40.5	-43.5	15.0	0.00e+00	0	56	0	510656512	51	5409
2026-01-05 23:08:47.53	63.88	41.51	-40.2	-43.0	15.2	0.00e+00	0	56	0	512753664	52	4854
2026-01-05 23:08:48.54	64.29	41.67	-40.1	-42.8	15.5	0.00e+00	0	56	0	514850816	52	4749
2026-01-05 23:08:49.55	64.70	41.82	-39.9	-42.3	16.0	0.00e+00	0	56	0	516947968	51	4756
2026-01-05 23:08:50.56	65.11	41.98	-39.8	-42.3	16.0	0.00e+00	0	56	0	519045120	51	4719
2026-01-05 23:08:51.57	65.53	42.13	-40.1	-42.7	15.6	0.00e+00	0	56	0	520093696	51	4973
2026-01-05 23:08:52.58	65.95	42.29	-40.3	-43.0	15.4	0.00e+00	0	56	0	522190848	51	5111
2026-01-05 23:08:53.59	66.38	42.44	-40.5	-43.4	14.9	0.00e+00	0	56	0	524288000	52	5069
2026-01-05 23:08:54.60	66.81	42.59	-40.9	-44.0	14.4	7.00e-07	0	56	0	526385152	52	5420
2026-01-05 23:08:55.61	67.25	42.74	-41.0	-44.2	14.2	2.20e-06	0	56	0	528482304	52	5541
2026-01-05 23:08:56.62	67.68	42.89	-40.8	-43.8	14.5	0.00e+00	0	56	0	529530880	52	5280
2026-01-05 23:08:57.63	68.13	43.04	-40.5	-43.3	14.9	0.00e+00	0	56	0	531628032	52	5041
2026-01-05 23:08:58.65	68.58	43.19	-40.3	-43.0	15.3	0.00e+00	0	56	0	533725184	52	4856
2026-01-05 23:08:59.65	69.03	43.33	-40.5	-43.4	14.9	0.00e+00	0	56	0	535822336	52	5051
2026-01-05 23:09:00.67	69.48	43.47	-40.9	-44.0	14.3	0.00e+00	0	56	0	537919488	52	5412
2026-01-05 23:09:01.68	69.94	43.62	-40.7	-43.6	14.7	7.00e-07	0	56	0	540016640	52	5200
2026-01-05 23:09:02.69	70.41	43.76	-40.9	-44.0	14.3	0.00e+00	0	56	0	541065216	52	5448
2026-01-05 23:09:03.70	70.87	43.90	-41.3	-44.7	13.5	2.20e-06	0	56	0	543162368	53	5555
2026-01-05 23:09:04.71	71.35	44.03	-41.4	-45.0	13.3	1.60e-05	0	56	0	545259520	53	5733
2026-01-05 23:09:05.72	71.82	44.17	-41.4	-45.0	13.3	5.41e-05	0	56	0	547356672	53	5776
2026-01-05 23:09:06.73	72.30	44.30	-41.0	-44.2	14.1	9.10e-06	0	56	0	549453824	53	5232
2026-01-05 23:09:07.74	72.78	44.43	-40.6	-43.5	14.8	0.00e+00	0	56	0	550502400	53	4829
2026-01-05 23:09:08.75	73.27	44.57	-40.4	-43.3	14.9	0.00e+00	0	56	0	552599552	52	5040
2026-01-05 23:09:09.76	73.76	44.69	-41.1	-44.6	13.7	1.50e-06	0	56	0	554696704	52	5824
2026-01-05 23:09:10.77	74.26	44.82	-41.7	-45.8	12.5	7.32e-05	0	56	0	556793856	53	6279
2026-01-05 23:09:11.78	74.76	44.95	-41.7	-45.8	12.4	3.45e-04	0	56	0	558891008	54	5970
2026-01-05 23:09:12.79	75.26	45.07	-41.8	-46.0	12.3	1.06e-04	0	56	0	559939584	54	6062
2026-01-05 23:09:13.80	75.77	45.19	-41.7	-45.8	12.7	7.40e-05	0	56	0	562036736	54	5970
2026-01-05 23:09:14.81	76.28	45.31	-42.2	-46.9	11.4	4.13e-04	0	56	0	564133888	54	6769
2026-01-05 23:09:15.81	76.78	45.42	-42.5	-47.6	10.5	4.21e-03	0	56	0	566231040	55	6936
2026-01-05 23:09:16.82	77.30	45.54	-42.2	-46.7	11.5	2.75e-03	0	56	0	568328192	55	6274
2026-01-05 23:09:17.83	77.82	45.65	-41.4	-45.1	13.0	1.39e-04	0	56	0	569376768	54	5508
2026-01-05 23:09:18.84	78.35	45.76	-41.5	-45.3	13.0	3.20e-05	0	56	0	571473920	54	5614
2026-01-05 23:09:19.85	78.88	45.87	-42.0	-46.2	12.1	5.41e-05	0	56	0	573571072	54	6254
2026-01-05 23:09:20.86	79.41	45.97	-42.5	-47.4	10.8	1.64e-03	0	56	0	575668224	55	6794
2026-01-05 23:09:21.87	79.95	46.08	-42.2	-46.6	11.6	1.84e-03	0	56	0	577765376	55	6201
2026-01-05 23:09:22.88	80.49	46.18	-41.7	-45.5	12.7	2.30e-04	0	56	0	579862528	55	5458
2026-01-05 23:09:23.89	81.03	46.28	-41.8	-45.9	12.4	6.71e-05	0	56	0	580911104	55	5673
2026-01-05 23:09:24.90	81.58	46.37	-42.6	-47.9	10.4	9.13e-04	0	56	0	583008256	55	7144
2026-01-05 23:09:25.91	82.13	46.46	-42.8	-48.4	9.9	1.17e-02	0	57	0	585105408	56	7145
2026-01-05 23:09:26.92	82.68	46.55	-42.7	-48.0	10.3	7.53e-03	0	56	0	587202560	56	6820
2026-01-05 23:09:27.93	83.24	46.64	-42.3	-46.9	11.5	1.84e-03	0	56	0	589299712	56	6026
2026-01-05 23:09:28.94	83.79	46.73	-41.8	-45.9	12.3	2.62e-04	0	56	0	590348288	55	5683
2026-01-05 23:09:29.95	84.36	46.81	-41.3	-44.9	13.4	7.32e-05	0	57	0	592445440	54	5346
2026-01-05 23:09:30.96	84.92	46.89	-41.0	-44.3	13.9	5.30e-06	0	57	0	594542592	53	5337
2026-01-05 23:09:31.97	85.49	46.96	-40.5	-43.6	14.6	0.00e+00	0	56	0	596639744	53	4877
2026-01-05 23:09:32.98	86.06	47.04	-40.7	-43.8	14.4	7.00e-07	0	56	0	598736896	52	5328
2026-01-05 23:09:33.99	86.63	47.11	-40.8	-44.1	14.1	0.00e+00	0	56	0	599785472	52	5485
2026-01-05 23:09:35.00	87.21	47.18	-41.2	-44.7	13.5	2.20e-06	0	57	0	601882624	52	5914
2026-01-05 23:09:36.01	87.79	47.24	-41.8	-45.9	12.3	1.83e-05	0	56	0	603979776	54	6011
2026-01-05 23:09:37.02	88.37	47.30	-41.9	-46.0	12.3	1.20e-04	0	57	0	606076928	54	6089
2026-01-05 23:09:38.03	88.95	47.36	-41.4	-45.0	13.3	7.09e-05	0	57	0	608174080	54	5403
2026-01-05 23:09:39.04	89.53	47.42	-40.8	-43.9	14.4	4.50e-06	0	57	0	609222656	53	5061
2026-01-05 23:09:40.05	90.12	47.47	-40.5	-43.4	14.9	0.00e+00	0	56	0	611319808	52	5080
2026-01-05 23:09:41.06	90.71	47.52	-41.1	-44.5	13.8	0.00e+00	0	57	0	613416960	52	5758
2026-01-05 23:09:42.07	91.30	47.56	-41.5	-45.2	13.0	1.14e-05	0	57	0	615514112	53	5893
2026-01-05 23:09:43.08	91.89	47.61	-41.9	-46.2	12.0	1.54e-04	0	56	0	617611264	54	6214
2026-01-05 23:09:44.09	92.49	47.65	-42.2	-46.8	11.4	4.19e-04	0	56	0	618659840	55	6298
2026-01-05 23:09:45.10	93.08	47.68	-42.4	-47.3	11.0	1.82e-03	0	56	0	620756992	55	6662
2026-01-05 23:09:46.11	93.68	47.72	-42.1	-46.5	11.6	1.46e-03	0	57	0	622854144	55	6084
2026-01-05 23:09:47.12	94.28	47.75	-41.5	-45.3	12.9	6.33e-05	0	57	0	624951296	55	5315
2026-01-05 23:09:48.13	94.87	47.77	-41.2	-44.6	13.7	4.50e-06	0	57	0	627048448	54	5186
2026-01-05 23:09:49.14	95.47	47.80	-41.7	-45.7	12.6	2.21e-05	0	57	0	628097024	54	5906
2026-01-05 23:09:50.15	96.07	47.82	-42.4	-47.3	11.0	1.09e-03	0	56	0	630194176	55	6651
2026-01-05 23:09:51.16	96.68	47.83	-42.1	-46.6	11.6	1.10e-03	0	57	0	632291328	55	6182
2026-01-05 23:09:52.17	97.28	47.84	-41.7	-45.5	12.8	1.23e-04	0	56	0	634388480	55	5422
2026-01-05 23:09:53.18	97.88	47.85	-41.5	-45.0	13.2	2.13e-05	0	57	0	636485632	54	5464
2026-01-05 23:09:54.19	98.48	47.86	-41.7	-45.4	12.9	2.59e-05	0	57	0	637534208	54	5696
2026-01-05 23:09:55.20	99.09	47.86	-42.0	-46.0	12.3	1.04e-04	0	56	0	639631360	54	6121
2026-01-05 23:09:56.20	99.68	47.86	-41.9	-45.9	12.5	2.19e-04	0	56	0	641728512	54	5996
2026-01-05 23:09:57.21	100.29	47.86	-41.7	-45.4	12.9	1.16e-04	0	56	0	643825664	54	5706
2026-01-05 23:09:58.22	100.89	47.85	-41.9	-46.0	12.3	9.30e-05	0	57	0	645922816	54	6069
2026-01-05 23:09:59.23	101.49	47.84	-42.1	-46.4	11.8	6.83e-04	0	56	0	646971392	55	6010
2026-01-05 23:10:00.24	102.09	47.83	-41.7	-45.0	13.4	2.75e-04	0	57	0	649068544	55	5112
2026-01-05 23:10:01.25	102.69	47.81	-40.9	-43.5	14.8	0.00e+00	0	56	0	651165696	53	4867
2026-01-05 23:10:02.26	103.30	47.79	-40.8	-43.4	15.0	0.00e+00	0	57	0	653262848	53	4791
2026-01-05 23:10:03.27	103.90	47.77	-41.2	-44.1	14.4	0.00e+00	0	57	0	655360000	53	5173
2026-01-05 23:10:04.28	104.49	47.74	-41.8	-45.1	13.3	1.22e-05	0	57	0	657457152	54	5503
2026-01-05 23:10:05.29	105.09	47.71	-42.0	-45.5	12.8	4.42e-05	0	56	0	658505728	54	5775
2026-01-05 23:10:06.30	105.69	47.68	-42.1	-45.7	12.6	4.88e-05	0	56	0	660602880	54	5912
2026-01-05 23:10:07.31	106.28	47.64	-42.4	-46.4	11.8	2.30e-04	0	57	0	662700032	55	6029
2026-01-05 23:10:08.32	106.88	47.60	-42.1	-45.9	12.5	5.22e-04	0	56	0	664797184	55	5680
2026-01-05 23:10:09.33	107.47	47.56	-42.3	-46.2	12.2	2.78e-04	0	56	0	666894336	55	5891
2026-01-05 23:10:10.34	108.06	47.51	-42.3	-46.3	12.0	2.15e-04	0	56	0	667942912	55	5943
2026-01-05 23:10:11.35	108.65	47.46	-42.7	-46.9	11.5	1.01e-03	0	57	0	670040064	56	6029
2026-01-05 23:10:12.36	109.24	47.41	-42.7	-46.9	11.7	6.48e-04	0	57	0	672137216	56	6051
2026-01-05 23:10:13.37	109.82	47.35	-43.0	-47.5	11.0	1.43e-03	0	57	0	674234368	56	6452
2026-01-05 23:10:14.38	110.40	47.29	-42.8	-46.9	11.5	1.16e-03	0	56	0	676331520	56	6059
2026-01-05 23:10:15.39	110.98	47.23	-42.2	-45.7	12.8	1.11e-04	0	57	0	677380096	56	5226
2026-01-05 23:10:16.40	111.56	47.16	-41.7	-44.9	13.4	3.58e-05	0	56	0	679477248	55	5079
2026-01-05 23:10:17.41	112.14	47.09	-41.7	-45.0	13.4	8.30e-06	0	57	0	681574400	54	5435
2026-01-05 23:10:18.42	112.71	47.02	-40.4	-42.9	15.3	3.00e-06	0	57	0	683671552	52	4787
2026-01-05 23:10:19.43	113.28	46.95	-40.0	-42.3	16.1	0.00e+00	0	57	0	685768704	51	4726
2026-01-05 23:10:20.44	113.85	46.87	-40.6	-43.1	15.3	0.00e+00	0	56	0	686817280	51	5216
2026-01-05 23:10:21.45	114.42	46.79	-42.1	-45.9	12.5	6.10e-06	0	57	0	688914432	54	6015
2026-01-05 23:10:22.46	114.98	46.71	-42.7	-46.9	11.7	1.09e-03	0	57	0	691011584	56	5999
2026-01-05 23:10:23.47	115.54	46.62	-41.7	-44.9	13.5	2.44e-04	0	56	0	693108736	55	5095
2026-01-05 23:10:24.48	116.09	46.54	-40.6	-43.2	15.1	1.50e-06	0	57	0	695205888	53	4695
2026-01-05 23:10:25.49	116.65	46.44	-41.0	-43.8	14.5	1.50e-06	0	56	0	696254464	53	5006
2026-01-05 23:10:26.50	117.20	46.35	-41.3	-44.2	14.2	1.06e-05	0	56	0	698351616	53	5266
2026-01-05 23:10:27.51	117.74	46.26	-41.2	-44.1	14.2	8.30e-06	0	57	0	700448768	53	5203
2026-01-05 23:10:28.52	118.29	46.16	-40.8	-43.6	14.7	1.50e-06	0	57	0	702545920	53	4880
2026-01-05 23:10:29.53	118.83	46.06	-40.5	-43.0	15.3	0.00e+00	0	57	0	704643072	52	4858
2026-01-05 23:10:30.54	119.36	45.95	-41.1	-44.0	14.4	0.00e+00	0	56	0	705691648	52	5435
2026-01-05 23:10:31.55	119.90	45.85	-42.7	-47.1	11.6	2.15e-04	0	57	0	707788800	55	6537
2026-01-05 23:10:32.56	120.42	45.74	-43.3	-48.4	10.2	5.04e-03	0	57	0	709885952	57	6785
2026-01-05 23:10:33.57	120.95	45.63	-42.1	-45.7	12.8	7.38e-04	0	56	0	711983104	56	5239
2026-01-05 23:10:34.58	121.47	45.51	-40.6	-43.3	15.1	4.50e-06	0	56	0	714080256	53	4712
2026-01-05 23:10:35.59	121.99	45.40	-40.5	-43.0	15.4	0.00e+00	0	57	0	715128832	52	4864
2026-01-05 23:10:36.60	122.51	45.28	-41.3	-44.3	14.0	7.00e-07	0	57	0	717225984	53	5337
2026-01-05 23:10:37.61	123.02	45.16	-41.1	-44.0	14.3	1.44e-05	0	57	0	719323136	53	5151
2026-01-05 23:10:38.62	123.52	45.04	-40.5	-43.1	15.3	0.00e+00	0	57	0	721420288	53	4617
2026-01-05 23:10:39.63	124.03	44.91	-40.2	-42.6	15.8	0.00e+00	0	57	0	723517440	52	4630
2026-01-05 23:10:40.64	124.53	44.79	-39.9	-42.1	16.3	0.00e+00	0	57	0	725614592	51	4642
2026-01-05 23:10:41.65	125.02	44.66	-40.4	-42.8	15.6	0.00e+00	0	56	0	726663168	51	5028
2026-01-05 23:10:42.66	125.51	44.53	-41.1	-43.9	14.4	0.00e+00	0	56	0	728760320	52	5385
2026-01-05 23:10:43.67	126.00	44.40	-40.4	-42.9	15.5	7.00e-07	0	57	0	730857472	52	4768
2026-01-05 23:10:44.68	126.48	44.27	-39.3	-41.3	17.1	0.00e+00	0	56	0	732954624	50	4459
2026-01-05 23:10:45.69	126.96	44.13	-39.0	-41.0	17.5	0.00e+00	0	56	0	735051776	49	4547
2026-01-05 23:10:46.70	127.44	44.00	-39.8	-42.1	16.4	0.00e+00	0	57	0	736100352	50	4888
2026-01-05 23:10:47.71	127.91	43.86	-40.0	-42.4	16.0	0.00e+00	0	57	0	738197504	50	5057
2026-01-05 23:10:48.72	128.38	43.72	-39.6	-41.7	16.7	0.00e+00	0	57	0	740294656	50	4683
2026-01-05 23:10:49.73	128.84	43.58	-38.8	-40.6	17.7	0.00e+00	0	57	0	742391808	49	4379
2026-01-05 23:10:50.74	129.30	43.43	-39.0	-41.0	17.4	0.00e+00	0	57	0	744488960	49	4551
2026-01-05 23:10:51.75	129.75	43.29	-39.8	-42.0	16.4	0.00e+00	0	56	0	745537536	50	4849
2026-01-05 23:10:52.76	130.21	43.14	-39.9	-42.2	16.2	0.00e+00	0	57	0	747634688	50	4947
2026-01-05 23:10:53.77	130.65	43.00	-39.7	-41.9	16.5	0.00e+00	0	57	0	749731840	50	4791
2026-01-05 23:10:54.78	131.10	42.85	-38.8	-40.7	17.7	0.00e+00	0	57	0	751828992	49	4424
2026-01-05 23:10:55.79	131.53	42.70	-38.4	-40.2	18.1	0.00e+00	0	57	0	753926144	48	4395
2026-01-05 23:10:56.80	131.97	42.55	-38.7	-40.6	17.8	0.00e+00	0	57	0	754974720	48	4611
2026-01-05 23:10:57.81	132.40	42.39	-39.0	-40.9	17.4	0.00e+00	0	57	0	757071872	48	4794
2026-01-05 23:10:58.82	132.83	42.24	-39.1	-41.1	17.3	0.00e+00	0	57	0	759169024	49	4608
2026-01-05 23:10:59.83	133.25	42.09	-38.5	-40.2	18.1	0.00e+00	0	57	0	761266176	48	4437
2026-01-05 23:11:00.84	133.67	41.93	-38.1	-39.8	18.5	0.00e+00	0	57	0	763363328	48	4239
2026-01-05 23:11:01.84	134.08	41.78	-38.8	-40.7	17.7	0.00e+00	0	57	0	764411904	48	4689
2026-01-05 23:11:02.85	134.49	41.62	-39.4	-41.5	16.8	0.00e+00	0	57	0	766509056	49	4848
2026-01-05 23:11:03.86	134.90	41.46	-38.7	-40.6	17.6	0.00e+00	0	57	0	768606208	49	4376
2026-01-05 23:11:04.87	135.30	41.30	-37.6	-39.2	19.0	0.00e+00	0	56	0	770703360	47	4164
2026-01-05 23:11:05.88	135.70	41.14	-37.1	-38.6	19.5	0.00e+00	0	56	0	772800512	46	4118
2026-01-05 23:11:06.89	136.10	40.98	-37.5	-39.1	19.1	0.00e+00	0	56	0	773849088	46	4384
2026-01-05 23:11:07.90	136.49	40.82	-38.9	-40.9	17.5	0.00e+00	0	57	0	775946240	48	4760
2026-01-05 23:11:08.91	136.88	40.66	-39.9	-42.1	16.3	0.00e+00	0	57	0	778043392	50	4919
2026-01-05 23:11:09.92	137.26	40.49	-39.7	-41.9	16.5	0.00e+00	0	57	0	780140544	50	4802
2026-01-05 23:11:10.93	137.64	40.33	-38.9	-40.9	17.5	0.00e+00	0	57	0	782237696	49	4508
2026-01-05 23:11:11.94	138.02	40.17	-38.8	-40.7	17.6	0.00e+00	0	57	0	783286272	49	4407
2026-01-05 23:11:12.95	138.39	40.00	-39.2	-41.3	17.1	0.00e+00	0	57	0	785383424	49	4712
2026-01-05 23:11:13.96	138.76	39.84	-40.4	-42.9	15.5	0.00e+00	0	57	0	787480576	51	5099
2026-01-05 23:11:14.97	139.12	39.67	-41.7	-45.1	13.3	4.50e-06	0	57	0	789577728	53	5805
2026-01-05 23:11:15.98	139.48	39.50	-41.8	-45.3	13.1	2.89e-05	0	57	0	791674880	54	5614
2026-01-05 23:11:16.99	139.84	39.34	-41.3	-44.3	14.0	1.50e-06	0	57	0	793772032	54	5029
2026-01-05 23:11:18.00	140.20	39.17	-40.8	-43.4	14.9	0.00e+00	0	57	0	794820608	53	4809
2026-01-05 23:11:19.01	140.55	39.00	-41.2	-44.1	14.3	0.00e+00	0	57	0	796917760	53	5196
2026-01-05 23:11:20.01	140.89	38.84	-41.9	-45.5	12.9	9.90e-06	0	57	0	799014912	54	5750
2026-01-05 23:11:21.02	141.23	38.67	-42.4	-46.4	11.9	3.19e-04	0	57	0	801112064	55	6015
2026-01-05 23:11:22.03	141.57	38.50	-42.3	-46.2	12.0	3.29e-04	0	57	0	803209216	55	5904
2026-01-05 23:11:23.04	141.91	38.33	-41.9	-45.3	13.0	5.95e-05	0	57	0	804257792	55	5328
2026-01-05 23:11:24.05	142.24	38.16	-41.7	-45.0	13.4	1.60e-05	0	57	0	806354944	55	5115
2026-01-05 23:11:25.06	142.57	37.99	-42.1	-45.7	12.6	3.81e-05	0	57	0	808452096	55	5581
2026-01-05 23:11:26.07	142.90	37.82	-42.0	-45.6	12.6	1.27e-04	0	57	0	810549248	55	5512
2026-01-05 23:11:27.08	143.22	37.65	-42.5	-46.6	11.6	4.14e-04	0	57	0	812646400	55	6186
2026-01-05 23:11:28.09	143.54	37.48	-43.2	-48.1	10.3	2.58e-03	0	57	0	813694976	56	6919
2026-01-05 23:11:29.10	143.86	37.31	-43.0	-47.7	10.7	5.61e-03	0	57	0	815792128	57	6213
2026-01-05 23:11:30.11	144.17	37.14	-42.5	-46.6	11.9	6.68e-04	0	57	0	817889280	57	5476
2026-01-05 23:11:31.12	144.48	36.97	-42.3	-46.1	12.4	3.34e-04	0	57	0	819986432	56	5526
2026-01-05 23:11:32.12	144.79	36.81	-41.9	-45.5	12.8	1.12e-04	0	57	0	822083584	55	5444
2026-01-05 23:11:33.14	145.10	36.63	-42.4	-46.4	11.9	1.46e-04	0	57	0	823132160	55	6020
2026-01-05 23:11:34.15	145.40	36.46	-43.0	-47.6	10.7	3.14e-03	0	57	0	825229312	56	6559
2026-01-05 23:11:35.16	145.69	36.29	-43.4	-48.6	9.7	1.01e-02	0	57	0	827326464	57	6907
2026-01-05 23:11:36.16	145.99	36.13	-43.4	-48.6	9.8	7.63e-03	0	57	0	829423616	57	6919
2026-01-05 23:11:37.17	146.28	35.96	-43.0	-47.6	10.8	2.43e-03	0	57	0	831520768	57	6182
2026-01-05 23:11:38.18	146.57	35.79	-43.2	-48.1	10.4	1.63e-03	0	57	0	832569344	57	6530
2026-01-05 23:11:39.19	146.85	35.62	-43.2	-48.1	10.3	2.92e-03	0	57	0	834666496	57	6514
2026-01-05 23:11:40.20	147.14	35.45	-43.2	-48.0	10.4	4.47e-03	0	57	0	836763648	57	6429
2026-01-05 23:11:41.21	147.42	35.28	-43.1	-47.7	10.6	4.78e-03	0	57	0	838860800	57	6269
2026-01-05 23:11:42.22	147.69	35.11	-43.3	-48.4	9.8	6.04e-03	0	57	0	840957952	57	6794
2026-01-05 23:11:43.23	147.97	34.94	-43.8	-49.8	8.6	2.67e-02	0	57	0	842006528	58	7471
2026-01-05 23:11:44.24	148.24	34.77	-43.5	-48.8	9.4	2.79e-02	0	57	0	844103680	58	6706
2026-01-05 23:11:45.25	148.51	34.60	-42.7	-47.0	11.4	3.92e-03	0	57	0	846200832	57	5748
2026-01-05 23:11:46.26	148.77	34.43	-41.7	-45.1	13.2	3.78e-04	0	57	0	848297984	55	5163
2026-01-05 23:11:47.27	149.04	34.27	-41.0	-43.9	14.4	2.20e-06	0	57	0	850395136	54	4775
2026-01-05 23:11:48.28	149.30	34.10	-40.6	-43.2	15.1	0.00e+00	0	57	0	851443712	53	4705
2026-01-05 23:11:49.29	149.56	33.93	-40.9	-43.7	14.7	0.00e+00	0	57	0	853540864	53	4938
2026-01-05 23:11:50.30	149.81	33.76	-41.5	-44.7	13.6	7.00e-07	0	57	0	855638016	53	5583
2026-01-05 23:11:51.30	150.06	33.60	-42.4	-46.4	12.0	4.95e-05	0	57	0	857735168	55	5997
2026-01-05 23:11:52.31	150.31	33.43	-43.2	-48.1	10.3	1.73e-03	0	57	0	859832320	56	6916
2026-01-05 23:11:53.32	150.56	33.27	-43.4	-48.6	9.7	1.30e-02	0	57	0	860880896	57	6926
2026-01-05 23:11:54.33	150.81	33.10	-42.9	-47.5	10.9	4.36e-03	0	57	0	862978048	57	6121
2026-01-05 23:11:55.34	151.05	32.93	-42.4	-46.1	12.2	1.13e-03	0	57	0	865075200	56	5525
2026-01-05 23:11:56.35	151.29	32.77	-41.7	-45.1	13.2	2.28e-05	0	57	0	867172352	55	5182
2026-01-05 23:11:57.36	151.53	32.60	-41.4	-44.5	13.8	8.30e-06	0	57	0	869269504	54	5116
2026-01-05 23:11:58.37	151.77	32.44	-41.1	-43.9	14.4	0.00e+00	0	57	0	870318080	54	4811
2026-01-05 23:11:59.38	152.00	32.27	-41.2	-44.1	14.2	0.00e+00	0	57	0	872415232	54	4895
2026-01-05 23:12:00.37	152.23	32.11	-41.7	-45.1	13.3	7.60e-06	0	57	0	874512384	54	5470
2026-01-05 23:12:01.38	152.45	31.95	-41.6	-44.9	13.3	1.98e-05	0	57	0	876609536	54	5397
2026-01-05 23:12:02.39	152.68	31.79	-41.7	-45.1	13.2	2.05e-05	0	57	0	878706688	54	5473
2026-01-05 23:12:03.40	152.91	31.62	-41.5	-44.7	13.6	6.80e-06	0	57	0	879755264	54	5243
2026-01-05 23:12:04.41	153.13	31.46	-40.9	-43.6	14.7	1.50e-06	0	57	0	881852416	53	4916
2026-01-05 23:12:05.42	153.35	31.30	-40.6	-43.3	15.0	7.00e-07	0	57	0	883949568	53	4740
2026-01-05 23:12:06.43	153.57	31.14	-40.5	-43.1	15.2	0.00e+00	0	57	0	886046720	53	4628
2026-01-05 23:12:07.44	153.78	30.98	-40.5	-43.2	15.2	0.00e+00	0	57	0	888143872	52	4935
2026-01-05 23:12:08.45	154.00	30.82	-40.7	-43.4	14.8	0.00e+00	0	57	0	890241024	52	5093
2026-01-05 23:12:09.46	154.21	30.66	-41.0	-43.9	14.3	2.20e-06	0	57	0	891289600	52	5393
2026-01-05 23:12:10.47	154.42	30.50	-41.6	-44.9	13.4	7.60e-06	0	57	0	893386752	53	5701
2026-01-05 23:12:11.48	154.63	30.34	-41.7	-45.1	13.2	2.89e-05	0	57	0	895483904	54	5486
2026-01-05 23:12:12.49	154.83	30.18	-41.6	-45.0	13.2	2.89e-05	0	57	0	897581056	54	5463
2026-01-05 23:12:13.50	155.04	30.02	-41.3	-44.4	13.9	1.22e-05	0	57	0	899678208	54	5050
2026-01-05 23:12:14.51	155.24	29.86	-41.2	-44.2	14.1	3.80e-06	0	57	0	900726784	54	4941
2026-01-05 23:12:15.52	155.44	29.71	-41.3	-44.4	13.9	1.50e-06	0	57	0	902823936	54	5093
2026-01-05 23:12:16.53	155.64	29.55	-40.7	-43.4	14.7	7.00e-07	0	57	0	904921088	53	4812
2026-01-05 23:12:17.54	155.83	29.40	-41.0	-43.9	14.3	7.00e-07	0	57	0	907018240	53	5083
2026-01-05 23:12:18.54	156.03	29.24	-40.9	-43.7	14.5	7.00e-07	0	57	0	909115392	53	4978
2026-01-05 23:12:19.55	156.22	29.09	-40.8	-43.6	14.7	0.00e+00	0	57	0	910163968	53	4885
2026-01-05 23:12:20.57	156.41	28.93	-41.0	-44.0	14.3	7.00e-07	0	57	0	912261120	53	5131
2026-01-05 23:12:21.58	156.60	28.78	-40.9	-43.7	14.5	0.00e+00	0	57	0	914358272	53	4951
2026-01-05 23:12:22.59	156.79	28.62	-41.2	-44.2	14.0	1.50e-06	0	57	0	916455424	53	5255
2026-01-05 23:12:23.60	156.97	28.47	-41.1	-44.1	14.1	3.00e-06	0	57	0	918552576	53	5174
2026-01-05 23:12:24.60	157.15	28.32	-41.1	-44.1	14.1	1.50e-06	0	57	0	919601152	53	5212
2026-01-05 23:12:25.61	157.34	28.17	-41.3	-44.4	13.8	3.80e-06	0	57	0	921698304	53	5389
2026-01-05 23:12:26.62	157.52	28.02	-41.2	-44.2	14.0	4.50e-06	0	57	0	923795456	53	5248
2026-01-05 23:12:27.63	157.70	27.86	-40.8	-43.6	14.6	7.00e-07	0	57	0	925892608	53	4916
2026-01-05 23:12:28.64	157.87	27.71	-40.4	-43.0	15.2	0.00e+00	0	57	0	927989760	52	4823
2026-01-05 23:12:29.65	158.05	27.56	-40.1	-42.5	15.7	0.00e+00	0	57	0	929038336	52	4573
2026-01-05 23:12:30.66	158.22	27.41	-39.9	-42.3	16.1	0.00e+00	0	57	0	931135488	51	4710
2026-01-05 23:12:31.67	158.39	27.27	-39.8	-42.1	16.2	0.00e+00	0	57	0	933232640	51	4606
2026-01-05 23:12:32.68	158.57	27.12	-40.0	-42.3	16.0	0.00e+00	0	57	0	935329792	51	4740
2026-01-05 23:12:33.69	158.73	26.97	-39.6	-41.8	16.5	0.00e+00	0	57	0	937426944	51	4468
2026-01-05 23:12:34.70	158.90	26.82	-39.9	-42.3	16.0	0.00e+00	0	57	0	938475520	51	4740
2026-01-05 23:12:35.71	159.07	26.68	-39.9	-42.3	16.0	0.00e+00	0	57	0	940572672	51	4729
2026-01-05 23:12:36.72	159.23	26.53	-40.1	-42.6	15.7	0.00e+00	0	57	0	942669824	51	4872
2026-01-05 23:12:37.73	159.40	26.38	-40.6	-43.3	15.0	0.00e+00	0	57	0	944766976	51	5306
2026-01-05 23:12:38.74	159.56	26.24	-40.5	-43.2	15.1	0.00e+00	0	57	0	946864128	51	5237
2026-01-05 23:12:39.75	159.72	26.10	-40.7	-43.5	14.6	0.00e+00	0	57	0	947912704	52	5157
2026-01-05 23:12:40.76	159.88	25.95	-40.7	-43.4	14.8	0.00e+00	0	57	0	950009856	52	5092
2026-01-05 23:12:41.76	160.03	25.81	-40.2	-42.8	15.4	0.00e+00	0	57	0	952107008	52	4707
2026-01-05 23:12:42.77	160.19	25.67	-40.2	-42.7	15.5	0.00e+00	0	57	0	954204160	52	4664
2026-01-05 23:12:43.78	160.34	25.52	-40.0	-42.3	15.9	0.00e+00	0	57	0	956301312	51	4743
2026-01-05 23:12:44.79	160.50	25.38	-39.7	-42.0	16.2	0.00e+00	0	57	0	958398464	51	4577
2026-01-05 23:12:45.80	160.65	25.24	-39.9	-42.3	16.0	0.00e+00	0	57	0	959447040	51	4706
2026-01-05 23:12:46.81	160.80	25.10	-39.7	-42.0	16.2	0.00e+00	0	57	0	961544192	51	4572
2026-01-05 23:12:47.82	160.95	24.96	-40.0	-42.3	15.9	0.00e+00	0	57	0	963641344	51	4740
2026-01-05 23:12:48.83	161.10	24.82	-40.1	-42.6	15.7	0.00e+00	0	57	0	965738496	51	4889
2026-01-05 23:12:49.84	161.25	24.68	-40.4	-43.0	15.2	0.00e+00	0	57	0	967835648	51	5122
2026-01-05 23:12:50.85	161.39	24.54	-40.6	-43.2	15.0	0.00e+00	0	57	0	968884224	51	5262
2026-01-05 23:12:51.86	161.54	24.41	-40.5	-43.2	15.1	0.00e+00	0	57	0	970981376	51	5223
2026-01-05 23:12:52.87	161.68	24.27	-40.3	-42.9	15.3	0.00e+00	0	57	0	973078528	51	5080
2026-01-05 23:12:53.88	161.82	24.13	-40.2	-42.7	15.5	0.00e+00	0	57	0	975175680	51	4960
2026-01-05 23:12:54.89	161.96	24.00	-39.9	-42.2	16.0	0.00e+00	0	57	0	977272832	51	4681
2026-01-05 23:12:55.90	162.10	23.86	-39.8	-42.1	16.1	0.00e+00	0	57	0	978321408	51	4610
2026-01-05 23:12:56.91	162.24	23.73	-39.8	-42.1	16.1	0.00e+00	0	57	0	980418560	51	4643
2026-01-05 23:12:57.92	162.38	23.59	-39.9	-42.3	15.9	0.00e+00	0	57	0	982515712	51	4730
2026-01-05 23:12:58.93	162.51	23.46	-40.0	-42.4	15.8	0.00e+00	0	57	0	984612864	51	4790
2026-01-05 23:12:59.94	162.65	23.32	-40.1	-42.6	15.6	0.00e+00	0	57	0	986710016	51	4900
2026-01-05 23:13:00.95	162.78	23.19	-40.2	-42.7	15.5	0.00e+00	0	57	0	987758592	51	4960
2026-01-05 23:13:01.96	162.92	23.06	-40.2	-42.7	15.5	0.00e+00	0	57	0	989855744	51	4980
2026-01-05 23:13:02.97	163.05	22.93	-40.5	-43.2	15.0	0.00e+00	0	57	0	991952896	51	5245
2026-01-05 23:13:03.98	163.18	22.79	-40.6	-43.3	14.9	0.00e+00	0	57	0	994050048	52	5033
2026-01-05 23:13:04.99	163.31	22.66	-40.7	-43.6	14.6	0.00e+00	0	57	0	996147200	52	5160
2026-01-05 23:13:06.00	163.44	22.53	-40.9	-43.9	14.2	0.00e+00	0	57	0	997195776	52	5400
2026-01-05 23:13:07.01	163.57	22.40	-40.8	-43.7	14.4	7.00e-07	0	57	0	999292928	52	5256
2026-01-05 23:13:08.02	163.69	22.27	-40.9	-43.9	14.3	7.00e-07	0	57	0	1001390080	52	5361
2026-01-05 23:13:09.03	163.82	22.14	-40.6	-43.5	14.7	0.00e+00	0	57	0	1003487232	52	5125
2026-01-05 23:13:10.04	163.94	22.02	-40.5	-43.3	14.8	0.00e+00	0	57	0	1005584384	52	5015
2026-01-05 23:13:11.05	164.07	21.89	-40.5	-43.3	14.9	0.00e+00	0	57	0	1006632960	52	4990
2026-01-05 23:13:12.06	164.19	21.76	-40.1	-42.7	15.4	0.00e+00	0	57	0	1008730112	52	4675
2026-01-05 23:13:13.07	164.31	21.63	-40.1	-42.7	15.4	0.00e+00	0	57	0	1010827264	52	4683
2026-01-05 23:13:14.08	164.43	21.51	-40.0	-42.5	15.6	0.00e+00	0	57	0	1012924416	52	4573
2026-01-05 23:13:15.09	164.55	21.38	-39.8	-42.1	16.0	0.00e+00	0	57	0	1015021568	51	4641
2026-01-05 23:13:16.10	164.67	21.26	-40.0	-42.5	15.7	0.00e+00	0	57	0	1016070144	51	4832
2026-01-05 23:13:17.11	164.79	21.13	-39.8	-42.2	16.0	0.00e+00	0	57	0	1018167296	51	4676
2026-01-05 23:13:18.12	164.90	21.01	-40.0	-42.5	15.7	0.00e+00	0	57	0	1020264448	51	4840
2026-01-05 23:13:19.13	165.02	20.88	-40.2	-42.7	15.4	0.00e+00	0	57	0	1022361600	51	4978
2026-01-05 23:13:20.14	165.14	20.76	-40.3	-43.0	15.2	0.00e+00	0	57	0	1024458752	51	5116
2026-01-05 23:13:21.15	165.25	20.64	-40.7	-43.6	14.5	7.00e-07	0	57	0	1026555904	52	5197
2026-01-05 23:13:22.16	165.36	20.52	-40.9	-43.9	14.1	2.20e-06	0	57	0	1027604480	52	5378
2026-01-05 23:13:23.17	165.48	20.39	-40.9	-43.9	14.2	3.00e-06	0	57	0	1029701632	52	5366
2026-01-05 23:13:24.18	165.59	20.27	-41.2	-44.4	13.7	9.10e-06	0	57	0	1031798784	52	5666
2026-01-05 23:13:25.19	165.70	20.15	-41.1	-44.3	13.8	1.22e-05	0	57	0	1033895936	53	5285
2026-01-05 23:13:26.20	165.81	20.03	-41.4	-44.8	13.3	6.10e-06	0	57	0	1035993088	53	5620
2026-01-05 23:13:27.21	165.92	19.91	-41.4	-44.8	13.3	2.13e-05	0	57	0	1037041664	53	5615
2026-01-05 23:13:28.22	166.03	19.79	-41.2	-44.5	13.6	8.30e-06	0	57	0	1039138816	53	5432
2026-01-05 23:13:29.22	166.13	19.67	-41.3	-44.6	13.5	6.80e-06	0	57	0	1041235968	53	5477
2026-01-05 23:13:30.23	166.24	19.55	-40.9	-43.9	14.1	3.80e-06	0	57	0	1043333120	53	5094
2026-01-05 23:13:31.24	166.34	19.44	-40.7	-43.6	14.4	0.00e+00	0	57	0	1045430272	53	4924
2026-01-05 23:13:32.25	166.45	19.32	-40.6	-43.4	14.7	1.50e-06	0	57	0	1046478848	53	4780
2026-01-05 23:13:33.26	166.55	19.20	-40.3	-43.0	15.0	0.00e+00	0	57	0	1048576000	52	4839
2026-01-05 23:13:34.27	166.66	19.09	-40.3	-43.0	15.1	0.00e+00	0	57	0	1050673152	52	4824
2026-01-05 23:13:35.28	166.76	18.97	-40.2	-42.8	15.3	0.00e+00	0	57	0	1052770304	52	4713
2026-01-05 23:13:36.29	166.86	18.85	-40.0	-42.5	15.6	0.00e+00	0	57	0	1054867456	51	4838
2026-01-05 23:13:37.30	166.96	18.74	-40.2	-42.8	15.3	0.00e+00	0	57	0	1055916032	51	5024
2026-01-05 23:13:38.31	167.06	18.62	-40.1	-42.6	15.5	0.00e+00	0	57	0	1058013184	51	4922
2026-01-05 23:13:39.32	167.16	18.51	-40.1	-42.5	15.6	0.00e+00	0	57	0	1060110336	51	4870
2026-01-05 23:13:40.33	167.26	18.40	-40.2	-42.8	15.3	0.00e+00	0	57	0	1062207488	51	5010
2026-01-05 23:13:41.34	167.36	18.28	-40.2	-42.8	15.3	0.00e+00	0	57	0	1064304640	51	5007
2026-01-05 23:13:42.35	167.46	18.17	-40.4	-43.1	14.9	0.00e+00	0	57	0	1065353216	51	5215
2026-01-05 23:13:43.36	167.56	18.06	-40.5	-43.2	14.8	0.00e+00	0	57	0	1067450368	51	5273
2026-01-05 23:13:44.37	167.65	17.94	-40.6	-43.4	14.7	7.00e-07	0	57	0	1069547520	51	5354
2026-01-05 23:13:45.38	167.75	17.83	-40.7	-43.6	14.5	7.00e-07	0	57	0	1071644672	51	5475
2026-01-05 23:13:46.39	167.84	17.72	-40.6	-43.5	14.6	0.00e+00	0	57	0	1073741824	51	5429
2026-01-05 23:13:47.40	167.94	17.61	-40.6	-43.4	14.6	0.00e+00	0	57	0	1074790400	51	5402
2026-01-05 23:13:48.41	168.03	17.50	-40.4	-43.2	14.9	0.00e+00	0	57	0	1076887552	51	5235
2026-01-05 23:13:49.42	168.12	17.39	-40.4	-43.2	14.8	0.00e+00	0	57	0	1078984704	51	5256
2026-01-05 23:13:50.43	168.22	17.28	-40.5	-43.2	14.8	7.00e-07	0	57	0	1081081856	51	5278
2026-01-05 23:13:51.44	168.31	17.17	-40.4	-43.1	14.9	0.00e+00	0	57	0	1083179008	51	5208
2026-01-05 23:13:52.45	168.40	17.06	-40.2	-42.9	15.2	0.00e+00	0	57	0	1084227584	51	5063
2026-01-05 23:13:53.46	168.49	16.95	-40.1	-42.6	15.4	0.00e+00	0	57	0	1086324736	51	4920
2026-01-05 23:13:54.47	168.58	16.85	-39.9	-42.4	15.7	0.00e+00	0	57	0	1088421888	51	4788
2026-01-05 23:13:55.48	168.67	16.74	-39.8	-42.2	15.8	0.00e+00	0	57	0	1090519040	51	4703
2026-01-05 23:13:56.49	168.76	16.63	-39.7	-42.0	16.0	0.00e+00	0	57	0	1092616192	51	4594
2026-01-05 23:13:57.50	168.85	16.52	-39.7	-42.0	16.0	0.00e+00	0	57	0	1094713344	51	4570
2026-01-05 23:13:58.51	168.93	16.42	-39.7	-42.1	15.9	0.00e+00	0	57	0	1095761920	51	4643
2026-01-05 23:13:59.52	169.02	16.31	-39.7	-42.0	16.0	0.00e+00	0	57	0	1097859072	51	4580
2026-01-05 23:14:00.53	169.11	16.21	-39.6	-41.9	16.1	0.00e+00	0	57	0	1099956224	51	4515
2026-01-05 23:14:01.54	169.19	16.10	-39.4	-41.6	16.4	0.00e+00	0	57	0	1102053376	50	4645
2026-01-05 23:14:02.55	169.28	16.00	-39.5	-41.7	16.3	0.00e+00	0	57	0	1104150528	50	4701
2026-01-05 23:14:03.56	169.36	15.89	-39.5	-41.8	16.2	0.00e+00	0	57	0	1105199104	50	4740
2026-01-05 23:14:04.56	169.44	15.79	-39.5	-41.8	16.2	0.00e+00	0	57	0	1107296256	50	4739
2026-01-05 23:14:05.57	169.53	15.69	-39.5	-41.8	16.2	0.00e+00	0	57	0	1109393408	50	4755
2026-01-05 23:14:06.58	169.61	15.58	-39.6	-41.9	16.1	0.00e+00	0	57	0	1111490560	50	4800
2026-01-05 23:14:07.59	169.69	15.48	-39.8	-42.2	15.8	0.00e+00	0	57	0	1113587712	50	4942
2026-01-05 23:14:08.60	169.78	15.38	-39.8	-42.3	15.7	0.00e+00	0	57	0	1114636288	50	5000
2026-01-05 23:14:09.61	169.86	15.28	-39.9	-42.5	15.5	0.00e+00	0	57	0	1116733440	50	5105
2026-01-05 23:14:10.62	169.94	15.18	-40.1	-42.7	15.3	0.00e+00	0	57	0	1118830592	50	5263
2026-01-05 23:14:11.63	170.02	15.07	-40.2	-42.8	15.2	0.00e+00	0	57	0	1120927744	50	5308
2026-01-05 23:14:12.64	170.10	14.97	-40.2	-42.9	15.0	0.00e+00	0	57	0	1123024896	51	5093
2026-01-05 23:14:13.65	170.18	14.87	-40.4	-43.2	14.7	0.00e+00	0	57	0	1124073472	51	5269
2026-01-05 23:14:14.66	170.25	14.77	-40.5	-43.4	14.6	0.00e+00	0	57	0	1126170624	51	5344
2026-01-05 23:14:15.67	170.33	14.67	-40.6	-43.6	14.3	0.00e+00	0	57	0	1128267776	52	5176
2026-01-05 23:14:16.68	170.41	14.57	-40.7	-43.8	14.0	3.00e-06	0	57	0	1130364928	52	5327
2026-01-05 23:14:17.69	170.49	14.47	-40.9	-44.2	13.7	3.80e-06	0	57	0	1132462080	52	5548
2026-01-05 23:14:18.70	170.56	14.38	-41.0	-44.3	13.5	6.80e-06	0	57	0	1133510656	52	5617
2026-01-05 23:14:19.71	170.64	14.28	-41.1	-44.4	13.4	1.22e-05	0	57	0	1135607808	52	5720
2026-01-05 23:14:20.72	170.72	14.18	-41.1	-44.4	13.4	1.37e-05	0	57	0	1137704960	52	5715
2026-01-05 23:14:21.73	170.79	14.08	-41.0	-44.3	13.5	2.21e-05	0	57	0	1139802112	52	5634
2026-01-05 23:14:22.74	170.87	13.98	-41.0	-44.4	13.4	1.60e-05	0	57	0	1141899264	52	5671
2026-01-05 23:14:23.75	170.94	13.89	-41.1	-44.4	13.4	7.60e-06	0	57	0	1142947840	52	5721
2026-01-05 23:14:24.76	171.01	13.79	-41.1	-44.5	13.3	1.67e-05	0	57	0	1145044992	52	5732
2026-01-05 23:14:25.77	171.09	13.69	-41.0	-44.3	13.5	1.22e-05	0	57	0	1147142144	52	5622
2026-01-05 23:14:26.78	171.16	13.60	-41.0	-44.3	13.5	1.29e-05	0	57	0	1149239296	52	5643
2026-01-05 23:14:27.79	171.23	13.50	-40.9	-44.2	13.6	1.06e-05	0	57	0	1151336448	52	5531
2026-01-05 23:14:28.80	171.31	13.41	-40.8	-44.0	13.7	7.60e-06	0	57	0	1152385024	52	5461
2026-01-05 23:14:29.81	171.38	13.31	-40.6	-43.6	14.0	5.30e-06	0	57	0	1154482176	52	5215
2026-01-05 23:14:30.82	171.45	13.22	-40.4	-43.3	14.4	2.20e-06	0	57	0	1156579328	52	5026
2026-01-05 23:14:31.83	171.52	13.12	-40.3	-43.1	14.6	0.00e+00	0	57	0	1158676480	52	4886
