passes_logs/2026/01/05/R2.0S_Moscow/R2.0S_Moscow__20260105_115312_FENGYUN_3D_rec.log

#Pass ID: 20260105_115312_FENGYUN 3D
#Satellite: FENGYUN 3D
#Configuration: FENGYUN 3D
#almurnet v.1.7.20251203
#Start time: 2026-01-05 11:53:13

#Version: 2.2.20231116
#Station: R2.0S_Moscow
#Location: 37.707566 lon 55.798166 lat
#TLE: 1 43010U 17072A   26004.50247883 -.00000063  00000+0 -78815-5 0  9998
#TLE: 2 43010  98.9915 336.1565 0001968 126.3752 233.7605 14.19691805421760

#Time	Az	El	Level	Level2	SNR	BER	BlckErr	Temp	State	Recorded	gain1	gain2
2026-01-05 11:53:13.19	158.72	2.03	-44.0	-55.5	3.8	8.47e-01	0	47	0	0	59	13692
2026-01-05 11:53:14.20	158.72	2.09	-43.9	-55.5	3.8	8.46e-01	0	47	104	0	59	13621
2026-01-05 11:53:15.21	158.72	2.16	-43.9	-55.5	3.8	8.46e-01	0	47	104	0	59	13613
2026-01-05 11:53:16.22	158.72	2.22	-43.9	-55.4	3.8	8.47e-01	0	47	104	0	59	13563
2026-01-05 11:53:17.23	158.72	2.29	-43.9	-55.5	3.8	8.46e-01	0	47	104	0	59	13604
2026-01-05 11:53:18.24	158.72	2.35	-43.9	-55.5	3.8	8.47e-01	0	47	104	0	59	13577
2026-01-05 11:53:19.25	158.72	2.42	-43.9	-55.5	3.8	8.46e-01	0	47	104	0	59	13630
2026-01-05 11:53:20.26	158.72	2.49	-43.9	-55.5	3.8	8.47e-01	0	47	104	0	59	13652
2026-01-05 11:53:21.27	158.72	2.55	-43.9	-55.5	3.8	8.46e-01	0	47	104	0	59	13612
2026-01-05 11:53:22.29	158.72	2.62	-43.9	-55.5	3.8	8.47e-01	0	47	104	0	59	13655
2026-01-05 11:53:23.30	158.72	2.69	-43.9	-55.4	3.8	8.46e-01	0	48	104	0	59	13559
2026-01-05 11:53:24.31	158.72	2.75	-43.9	-55.5	3.8	8.47e-01	0	48	104	0	59	13596
2026-01-05 11:53:25.32	158.72	2.82	-43.9	-55.5	3.8	8.46e-01	0	48	104	0	59	13576
2026-01-05 11:53:26.33	158.72	2.89	-43.9	-55.4	3.8	8.47e-01	0	48	104	0	59	13550
2026-01-05 11:53:27.34	158.72	2.95	-43.9	-55.5	3.8	8.47e-01	0	48	104	0	59	13584
2026-01-05 11:53:28.35	158.72	3.02	-43.9	-55.4	3.8	8.46e-01	0	48	104	0	59	13568
2026-01-05 11:53:29.36	158.72	3.09	-43.9	-55.4	3.8	8.45e-01	0	48	104	0	59	13554
2026-01-05 11:53:30.38	158.72	3.16	-43.9	-55.5	3.8	8.46e-01	0	48	104	0	59	13591
2026-01-05 11:53:31.39	158.72	3.22	-43.9	-55.5	3.8	8.46e-01	0	48	104	0	59	13600
2026-01-05 11:53:32.40	158.72	3.29	-43.9	-55.5	3.8	8.45e-01	0	48	104	0	59	13591
2026-01-05 11:53:33.41	158.72	3.36	-43.9	-55.5	3.8	8.46e-01	0	48	104	0	59	13595
2026-01-05 11:53:34.42	158.72	3.43	-43.9	-55.4	3.8	8.45e-01	0	48	104	0	59	13553
2026-01-05 11:53:35.43	158.72	3.50	-43.9	-55.5	3.8	8.46e-01	0	48	104	0	59	13575
2026-01-05 11:53:36.44	158.72	3.57	-43.9	-55.4	3.8	8.46e-01	0	49	104	0	59	13552
2026-01-05 11:53:37.45	158.72	3.64	-43.9	-55.4	3.8	8.46e-01	0	49	104	0	59	13524
2026-01-05 11:53:38.46	158.72	3.70	-43.9	-55.4	3.8	8.46e-01	0	49	104	0	59	13553
2026-01-05 11:53:39.47	158.72	3.77	-43.9	-55.4	3.8	8.46e-01	0	49	104	0	59	13531
2026-01-05 11:53:40.49	158.72	3.84	-43.9	-55.5	3.8	8.46e-01	0	49	104	0	59	13585
2026-01-05 11:53:41.50	158.72	3.91	-43.9	-55.4	3.8	8.45e-01	0	49	104	0	59	13550
2026-01-05 11:53:42.51	158.72	3.98	-43.9	-55.4	3.8	8.46e-01	0	49	104	0	59	13533
2026-01-05 11:53:43.52	158.72	4.05	-43.9	-55.4	3.8	8.47e-01	0	49	104	0	59	13555
2026-01-05 11:53:44.53	158.72	4.12	-43.9	-55.4	3.8	8.45e-01	0	49	104	0	59	13557
2026-01-05 11:53:45.54	158.72	4.19	-43.9	-55.4	3.8	8.46e-01	0	49	104	0	59	13549
2026-01-05 11:53:46.55	158.72	4.26	-43.9	-55.5	3.8	8.46e-01	0	49	104	0	59	13570
2026-01-05 11:53:47.56	158.72	4.33	-43.9	-55.4	3.8	8.45e-01	0	49	104	0	59	13569
2026-01-05 11:53:48.57	158.72	4.40	-43.9	-55.4	3.8	8.46e-01	0	49	104	0	59	13508
2026-01-05 11:53:49.58	158.72	4.48	-43.9	-55.4	3.8	8.46e-01	0	49	104	0	59	13563
2026-01-05 11:53:50.59	158.72	4.55	-43.9	-55.5	3.8	8.46e-01	0	49	104	0	59	13598
2026-01-05 11:53:51.61	158.72	4.62	-43.9	-55.5	3.8	8.45e-01	0	49	104	0	59	13580
2026-01-05 11:53:52.62	158.71	4.69	-43.9	-55.4	3.8	8.44e-01	0	49	104	0	59	13530
2026-01-05 11:53:53.63	158.71	4.76	-43.9	-55.4	3.8	8.46e-01	0	49	104	0	59	13509
2026-01-05 11:53:54.64	158.71	4.83	-43.9	-55.4	3.8	8.46e-01	0	50	104	0	59	13464
2026-01-05 11:53:55.65	158.71	4.91	-43.9	-55.4	3.8	8.46e-01	0	50	104	0	59	13466
2026-01-05 11:53:56.66	158.71	4.98	-43.9	-55.3	3.8	8.47e-01	0	50	104	0	59	13412
2026-01-05 11:53:57.67	158.71	5.05	-43.9	-55.3	3.8	8.47e-01	0	50	104	0	59	13293
2026-01-05 11:53:58.68	158.71	5.12	-43.9	-55.2	3.8	8.46e-01	0	50	104	0	59	13113
2026-01-05 11:53:59.70	158.71	5.20	-43.9	-55.0	3.8	8.46e-01	0	50	104	0	59	12924
2026-01-05 11:54:00.71	158.71	5.27	-43.8	-54.9	3.8	8.47e-01	0	50	104	0	59	12680
2026-01-05 11:54:01.72	158.71	5.34	-43.8	-54.9	3.8	8.46e-01	0	50	104	0	59	12747
2026-01-05 11:54:02.73	158.71	5.42	-43.8	-54.9	3.8	8.47e-01	0	50	104	0	59	12685
2026-01-05 11:54:03.74	158.71	5.49	-43.9	-54.9	3.8	8.46e-01	0	50	104	0	59	12767
2026-01-05 11:54:04.75	158.71	5.57	-43.9	-55.0	3.8	8.46e-01	0	50	104	0	59	12928
2026-01-05 11:54:05.76	158.71	5.64	-43.9	-55.2	3.8	8.46e-01	0	50	104	0	59	13156
2026-01-05 11:54:06.77	158.71	5.71	-43.9	-55.2	3.8	8.47e-01	0	50	104	0	59	13172
2026-01-05 11:54:07.78	158.71	5.79	-43.9	-55.1	3.8	8.47e-01	0	51	104	0	59	12963
2026-01-05 11:54:08.79	158.71	5.86	-43.9	-55.0	3.8	8.47e-01	0	51	104	0	59	12827
2026-01-05 11:54:09.81	158.71	5.94	-43.9	-55.0	3.8	8.46e-01	0	51	104	0	59	12847
2026-01-05 11:54:10.82	158.71	6.02	-43.9	-55.0	3.8	8.45e-01	0	50	104	0	59	12945
2026-01-05 11:54:11.83	158.71	6.09	-43.9	-55.1	3.8	8.44e-01	0	51	104	0	59	12964
2026-01-05 11:54:12.84	158.71	6.17	-43.9	-55.0	3.8	8.46e-01	0	51	104	0	59	12900
2026-01-05 11:54:13.85	158.71	6.24	-43.9	-55.1	3.8	8.47e-01	0	51	104	0	59	12971
2026-01-05 11:54:14.86	158.71	6.32	-43.9	-55.1	3.8	8.45e-01	0	51	104	0	59	13003
2026-01-05 11:54:15.87	158.70	6.40	-43.9	-55.2	3.8	8.46e-01	0	51	104	0	59	13139
2026-01-05 11:54:16.88	158.70	6.47	-43.9	-55.2	3.8	8.47e-01	0	51	104	0	59	13160
2026-01-05 11:54:17.89	158.70	6.55	-43.9	-55.2	3.8	8.47e-01	0	51	104	0	59	13119
2026-01-05 11:54:18.90	158.70	6.63	-43.9	-55.1	3.8	8.46e-01	0	51	104	0	59	13102
2026-01-05 11:54:19.92	158.70	6.70	-43.8	-54.9	3.8	8.47e-01	0	51	104	0	59	12726
2026-01-05 11:54:20.93	158.70	6.78	-43.8	-54.3	3.8	8.46e-01	0	51	104	0	59	11833
2026-01-05 11:54:21.94	158.70	6.86	-43.7	-53.5	3.8	8.46e-01	0	51	104	0	59	10871
2026-01-05 11:54:22.95	158.70	6.94	-43.5	-52.4	4.1	8.43e-01	0	51	104	0	59	9560
2026-01-05 11:54:23.96	158.70	7.02	-43.3	-51.2	4.4	8.35e-01	0	51	0	0	58	8801
2026-01-05 11:54:24.97	158.70	7.09	-43.0	-50.0	4.9	7.92e-01	0	51	0	0	58	7648
2026-01-05 11:54:25.98	158.70	7.17	-42.7	-48.6	5.8	6.93e-01	0	51	0	0	57	6902
2026-01-05 11:54:26.99	158.70	7.25	-42.3	-47.4	6.7	2.45e-01	0	52	0	6291456	56	6373
2026-01-05 11:54:28.00	158.70	7.33	-41.6	-45.9	8.0	1.16e-01	0	51	0	11534336	55	5718
2026-01-05 11:54:29.01	158.69	7.41	-41.0	-44.9	9.1	3.54e-02	0	52	0	17825792	54	5351
2026-01-05 11:54:30.02	158.69	7.49	-40.6	-44.0	10.0	1.46e-02	0	51	0	23068672	53	5110
2026-01-05 11:54:31.03	158.69	7.57	-40.1	-43.2	10.8	5.32e-03	0	52	0	29360128	52	4939
2026-01-05 11:54:32.04	158.69	7.65	-39.6	-42.4	11.7	1.43e-03	0	51	0	34603008	51	4765
2026-01-05 11:54:33.06	158.69	7.73	-39.2	-41.8	12.4	2.89e-04	0	52	0	40894464	50	4710
2026-01-05 11:54:34.07	158.69	7.81	-38.8	-41.2	12.9	9.04e-05	0	51	0	46137344	49	4659
2026-01-05 11:54:35.08	158.69	7.89	-38.4	-40.7	13.4	2.74e-05	0	52	0	51380224	48	4670
2026-01-05 11:54:36.09	158.69	7.97	-38.1	-40.2	13.9	9.10e-06	0	52	0	57671680	48	4424
2026-01-05 11:54:37.10	158.69	8.06	-37.8	-39.9	14.1	5.70e-06	0	52	0	62914560	47	4539
2026-01-05 11:54:38.11	158.69	8.14	-38.3	-40.6	13.6	1.48e-05	0	52	0	69206016	47	4885
2026-01-05 11:54:39.12	158.69	8.22	-42.9	-48.7	5.6	1.96e-01	0	52	0	73400320	56	7456
2026-01-05 11:54:40.13	158.68	8.30	-40.4	-43.7	10.0	4.27e-03	0	52	0	78643200	51	5587
2026-01-05 11:54:41.14	158.68	8.38	-41.0	-44.7	9.1	7.66e-03	0	52	0	84934656	52	5919
2026-01-05 11:54:42.15	158.68	8.47	-38.1	-40.4	13.7	9.10e-06	0	52	0	90177536	47	4760
2026-01-05 11:54:43.16	158.68	8.55	-37.3	-39.2	14.8	1.10e-06	0	52	0	96468992	46	4439
2026-01-05 11:54:44.17	158.68	8.63	-37.3	-39.3	14.7	0.00e+00	0	52	0	101711872	46	4465
2026-01-05 11:54:45.18	158.68	8.72	-37.4	-39.3	14.8	0.00e+00	0	52	0	108003328	46	4478
2026-01-05 11:54:46.19	158.68	8.80	-37.3	-39.2	14.8	0.00e+00	0	52	0	113246208	46	4428
2026-01-05 11:54:47.20	158.68	8.89	-37.3	-39.2	14.9	0.00e+00	0	52	0	119537664	46	4424
2026-01-05 11:54:48.21	158.67	8.97	-37.3	-39.2	14.9	0.00e+00	0	52	0	124780544	46	4420
2026-01-05 11:54:49.22	158.67	9.06	-37.1	-39.0	15.1	0.00e+00	0	52	0	130023424	46	4339
2026-01-05 11:54:50.23	158.67	9.14	-37.1	-38.9	15.2	0.00e+00	0	52	0	136314880	46	4285
2026-01-05 11:54:51.24	158.67	9.23	-37.1	-38.9	15.2	0.00e+00	0	52	0	141557760	46	4285
2026-01-05 11:54:52.25	158.67	9.31	-37.1	-39.0	15.2	1.10e-06	0	52	0	147849216	46	4333
2026-01-05 11:54:53.26	158.67	9.40	-37.2	-39.1	15.1	0.00e+00	0	52	0	153092096	46	4343
2026-01-05 11:54:54.27	158.67	9.48	-37.1	-38.9	15.3	0.00e+00	0	52	0	158334976	46	4263
2026-01-05 11:54:55.28	158.67	9.57	-36.9	-38.8	15.4	0.00e+00	0	52	0	164626432	45	4457
2026-01-05 11:54:56.29	158.66	9.66	-36.9	-38.8	15.4	0.00e+00	0	52	0	169869312	45	4459
2026-01-05 11:54:57.30	158.66	9.75	-36.9	-38.7	15.5	0.00e+00	0	53	0	176160768	45	4402
2026-01-05 11:54:58.31	158.66	9.83	-36.9	-38.7	15.5	0.00e+00	0	53	0	181403648	45	4402
2026-01-05 11:54:59.32	158.66	9.92	-36.8	-38.6	15.6	0.00e+00	0	53	0	186646528	45	4358
2026-01-05 11:55:00.33	158.66	10.01	-36.7	-38.5	15.8	0.00e+00	0	53	0	192937984	45	4308
2026-01-05 11:55:01.34	158.66	10.10	-36.6	-38.4	15.9	1.10e-06	0	53	0	198180864	45	4262
2026-01-05 11:55:02.35	158.65	10.19	-36.7	-38.5	15.8	0.00e+00	0	53	0	204472320	45	4311
2026-01-05 11:55:03.36	158.65	10.28	-36.8	-38.5	15.8	0.00e+00	0	53	0	209715200	45	4328
2026-01-05 11:55:04.37	158.65	10.36	-36.6	-38.4	15.9	0.00e+00	0	53	0	216006656	45	4247
2026-01-05 11:55:05.38	158.65	10.45	-36.7	-38.4	15.9	0.00e+00	0	53	0	221249536	45	4266
2026-01-05 11:55:06.39	158.65	10.54	-36.6	-38.4	15.9	0.00e+00	0	53	0	227540992	45	4268
2026-01-05 11:55:07.40	158.65	10.63	-36.6	-38.3	16.0	0.00e+00	0	53	0	232783872	45	4237
2026-01-05 11:55:08.41	158.64	10.73	-36.6	-38.3	16.0	0.00e+00	0	53	0	238026752	45	4241
2026-01-05 11:55:09.43	158.64	10.82	-36.6	-38.3	16.1	0.00e+00	0	53	0	244318208	45	4209
2026-01-05 11:55:10.44	158.64	10.91	-36.5	-38.2	16.1	0.00e+00	0	53	0	249561088	45	4180
2026-01-05 11:55:11.45	158.64	11.00	-36.5	-38.2	16.1	0.00e+00	0	53	0	255852544	45	4190
2026-01-05 11:55:12.46	158.64	11.09	-36.5	-38.2	16.2	0.00e+00	0	53	0	261095424	44	4396
2026-01-05 11:55:13.47	158.64	11.19	-36.6	-38.3	16.1	0.00e+00	0	53	0	266338304	44	4464
2026-01-05 11:55:14.48	158.63	11.28	-36.5	-38.2	16.2	0.00e+00	0	53	0	272629760	44	4435
2026-01-05 11:55:15.49	158.63	11.37	-36.5	-38.2	16.2	0.00e+00	0	53	0	277872640	44	4395
2026-01-05 11:55:16.50	158.63	11.47	-36.5	-38.2	16.2	0.00e+00	0	53	0	284164096	44	4417
2026-01-05 11:55:17.51	158.63	11.56	-36.5	-38.2	16.3	0.00e+00	0	53	0	289406976	44	4400
2026-01-05 11:55:18.52	158.63	11.65	-36.5	-38.2	16.2	0.00e+00	0	53	0	294649856	44	4412
2026-01-05 11:55:19.53	158.62	11.75	-36.5	-38.2	16.3	0.00e+00	0	53	0	300941312	44	4405
2026-01-05 11:55:20.54	158.62	11.84	-36.5	-38.2	16.3	0.00e+00	0	53	0	306184192	44	4392
2026-01-05 11:55:21.55	158.62	11.94	-36.4	-38.1	16.4	0.00e+00	0	53	0	312475648	44	4365
2026-01-05 11:55:22.56	158.62	12.03	-36.4	-38.1	16.4	0.00e+00	0	53	0	317718528	44	4348
2026-01-05 11:55:23.57	158.61	12.13	-36.4	-38.1	16.4	0.00e+00	0	53	0	324009984	44	4362
2026-01-05 11:55:24.58	158.61	12.23	-36.3	-38.0	16.5	0.00e+00	0	53	0	329252864	44	4308
2026-01-05 11:55:25.59	158.61	12.32	-36.4	-38.0	16.5	0.00e+00	0	53	0	334495744	44	4320
2026-01-05 11:55:26.60	158.61	12.42	-36.4	-38.0	16.5	0.00e+00	0	53	0	340787200	44	4327
2026-01-05 11:55:27.61	158.61	12.52	-36.3	-37.9	16.6	0.00e+00	0	53	0	346030080	44	4281
2026-01-05 11:55:28.62	158.60	12.62	-36.3	-37.9	16.6	0.00e+00	0	53	0	352321536	44	4261
2026-01-05 11:55:29.63	158.60	12.72	-36.3	-37.9	16.6	0.00e+00	0	53	0	357564416	44	4258
2026-01-05 11:55:30.64	158.60	12.81	-36.3	-37.9	16.7	0.00e+00	0	53	0	362807296	44	4254
2026-01-05 11:55:31.65	158.60	12.91	-36.2	-37.8	16.8	0.00e+00	0	54	0	369098752	44	4203
2026-01-05 11:55:32.66	158.59	13.01	-36.2	-37.8	16.8	0.00e+00	0	53	0	374341632	44	4197
2026-01-05 11:55:33.67	158.59	13.11	-36.1	-37.7	16.9	0.00e+00	0	53	0	380633088	44	4146
2026-01-05 11:55:34.68	158.59	13.21	-36.1	-37.6	16.9	0.00e+00	0	53	0	385875968	44	4137
2026-01-05 11:55:35.69	158.59	13.31	-36.0	-37.6	17.0	0.00e+00	0	53	0	391118848	44	4106
2026-01-05 11:55:36.70	158.58	13.42	-35.8	-37.3	17.1	0.00e+00	0	53	0	397410304	43	4242
2026-01-05 11:55:37.71	158.58	13.52	-35.7	-37.3	17.2	0.00e+00	0	53	0	402653184	43	4208
2026-01-05 11:55:38.72	158.58	13.62	-35.7	-37.2	17.2	0.00e+00	0	53	0	408944640	43	4169
2026-01-05 11:55:39.73	158.58	13.72	-35.7	-37.2	17.3	0.00e+00	0	54	0	414187520	43	4161
2026-01-05 11:55:40.74	158.57	13.83	-35.6	-37.1	17.3	0.00e+00	0	54	0	420478976	43	4143
2026-01-05 11:55:41.75	158.57	13.93	-35.6	-37.1	17.3	0.00e+00	0	53	0	425721856	43	4117
2026-01-05 11:55:42.76	158.57	14.03	-35.5	-37.0	17.4	0.00e+00	0	54	0	432013312	43	4089
2026-01-05 11:55:43.77	158.56	14.14	-35.5	-37.0	17.5	0.00e+00	0	53	0	437256192	43	4069
2026-01-05 11:55:44.78	158.56	14.24	-35.4	-36.9	17.5	0.00e+00	0	54	0	442499072	42	4282
2026-01-05 11:55:45.79	158.56	14.35	-35.4	-36.9	17.5	0.00e+00	0	54	0	448790528	42	4282
2026-01-05 11:55:46.80	158.55	14.45	-35.4	-36.9	17.6	0.00e+00	0	54	0	454033408	42	4270
2026-01-05 11:55:47.81	158.55	14.56	-35.4	-36.9	17.6	0.00e+00	0	54	0	460324864	42	4247
2026-01-05 11:55:48.82	158.55	14.67	-35.4	-36.8	17.6	0.00e+00	0	54	0	465567744	42	4237
2026-01-05 11:55:49.83	158.55	14.77	-35.3	-36.8	17.7	0.00e+00	0	54	0	470810624	42	4209
2026-01-05 11:55:50.84	158.54	14.88	-35.3	-36.8	17.7	0.00e+00	0	54	0	477102080	42	4205
2026-01-05 11:55:51.85	158.54	14.99	-35.3	-36.8	17.7	0.00e+00	0	54	0	482344960	42	4196
2026-01-05 11:55:52.86	158.54	15.10	-35.3	-36.7	17.8	0.00e+00	0	54	0	488636416	42	4170
2026-01-05 11:55:53.86	158.53	15.21	-35.2	-36.7	17.8	0.00e+00	0	54	0	493879296	42	4149
2026-01-05 11:55:54.87	158.53	15.32	-35.2	-36.7	17.8	0.00e+00	0	54	0	499122176	42	4164
2026-01-05 11:55:55.89	158.53	15.43	-35.2	-36.7	17.8	0.00e+00	0	54	0	505413632	42	4146
2026-01-05 11:55:56.90	158.52	15.54	-35.2	-36.6	17.8	0.00e+00	0	54	0	510656512	42	4144
2026-01-05 11:55:57.91	158.52	15.65	-35.2	-36.6	17.9	0.00e+00	0	54	0	516947968	42	4136
2026-01-05 11:55:58.91	158.52	15.76	-35.1	-36.6	17.9	0.00e+00	0	54	0	522190848	42	4112
2026-01-05 11:55:59.92	158.51	15.87	-35.1	-36.6	17.9	0.00e+00	0	54	0	528482304	42	4115
2026-01-05 11:56:00.93	158.51	15.98	-35.1	-36.6	17.9	0.00e+00	0	54	0	533725184	42	4099
2026-01-05 11:56:01.94	158.50	16.10	-35.1	-36.5	18.0	0.00e+00	0	54	0	538968064	42	4084
2026-01-05 11:56:02.95	158.50	16.21	-35.1	-36.5	18.0	0.00e+00	0	54	0	545259520	42	4089
2026-01-05 11:56:03.96	158.50	16.32	-35.0	-36.5	18.0	0.00e+00	0	54	0	550502400	42	4062
2026-01-05 11:56:04.97	158.49	16.44	-35.0	-36.4	18.1	0.00e+00	0	54	0	556793856	42	4025
2026-01-05 11:56:05.98	158.49	16.55	-34.9	-36.4	18.1	0.00e+00	0	54	0	562036736	41	4254
2026-01-05 11:56:06.99	158.48	16.67	-34.9	-36.4	18.2	0.00e+00	0	54	0	567279616	41	4243
2026-01-05 11:56:08.00	158.48	16.79	-34.9	-36.3	18.2	0.00e+00	0	54	0	573571072	41	4227
2026-01-05 11:56:09.01	158.48	16.90	-34.8	-36.2	18.3	0.00e+00	0	54	0	578813952	41	4184
2026-01-05 11:56:10.02	158.47	17.02	-34.8	-36.2	18.3	0.00e+00	0	54	0	585105408	41	4156
2026-01-05 11:56:11.02	158.47	17.14	-34.7	-36.0	18.4	0.00e+00	0	54	0	590348288	41	4094
2026-01-05 11:56:12.03	158.46	17.26	-34.6	-36.0	18.5	0.00e+00	0	54	0	595591168	41	4057
2026-01-05 11:56:13.04	158.46	17.38	-34.6	-36.0	18.5	0.00e+00	0	54	0	601882624	41	4072
2026-01-05 11:56:14.05	158.46	17.50	-34.6	-35.9	18.6	0.00e+00	0	54	0	607125504	41	4041
2026-01-05 11:56:15.06	158.45	17.62	-34.5	-35.9	18.6	0.00e+00	0	54	0	613416960	41	4028
2026-01-05 11:56:16.07	158.45	17.74	-34.5	-35.8	18.7	0.00e+00	0	54	0	618659840	40	4221
2026-01-05 11:56:17.08	158.44	17.86	-34.4	-35.8	18.8	0.00e+00	0	54	0	624951296	40	4202
2026-01-05 11:56:18.10	158.44	17.98	-34.4	-35.8	18.7	0.00e+00	0	54	0	630194176	40	4196
2026-01-05 11:56:19.11	158.43	18.10	-34.4	-35.7	18.8	0.00e+00	0	54	0	636485632	40	4180
2026-01-05 11:56:20.12	158.43	18.23	-34.3	-35.7	18.8	0.00e+00	0	54	0	641728512	40	4148
2026-01-05 11:56:21.13	158.42	18.35	-34.3	-35.6	18.9	0.00e+00	0	54	0	646971392	40	4112
2026-01-05 11:56:22.14	158.42	18.48	-34.2	-35.6	18.9	0.00e+00	0	54	0	653262848	40	4099
2026-01-05 11:56:23.15	158.41	18.60	-34.2	-35.5	19.0	0.00e+00	0	54	0	658505728	40	4065
2026-01-05 11:56:24.16	158.41	18.73	-34.2	-35.5	19.0	0.00e+00	0	54	0	664797184	40	4056
2026-01-05 11:56:25.17	158.40	18.85	-34.1	-35.4	19.0	0.00e+00	0	55	0	670040064	40	4047
2026-01-05 11:56:26.18	158.40	18.98	-34.1	-35.4	19.1	0.00e+00	0	54	0	675282944	40	4045
2026-01-05 11:56:27.19	158.39	19.11	-34.1	-35.5	19.0	0.00e+00	0	55	0	681574400	40	4060
2026-01-05 11:56:28.20	158.39	19.24	-34.2	-35.5	19.0	0.00e+00	0	55	0	686817280	40	4066
2026-01-05 11:56:29.21	158.38	19.37	-34.2	-35.5	19.0	0.00e+00	0	55	0	693108736	40	4068
2026-01-05 11:56:30.22	158.38	19.50	-34.2	-35.5	19.0	0.00e+00	0	54	0	698351616	40	4071
2026-01-05 11:56:31.23	158.37	19.63	-34.2	-35.6	18.9	0.00e+00	0	54	0	703594496	40	4099
2026-01-05 11:56:32.24	158.37	19.76	-34.3	-35.6	18.9	0.00e+00	0	54	0	709885952	40	4115
2026-01-05 11:56:33.25	158.36	19.89	-34.2	-35.6	18.9	0.00e+00	0	55	0	715128832	40	4107
2026-01-05 11:56:34.26	158.36	20.02	-34.3	-35.6	18.8	0.00e+00	0	54	0	721420288	40	4139
2026-01-05 11:56:35.27	158.35	20.16	-34.3	-35.7	18.8	0.00e+00	0	55	0	726663168	40	4152
2026-01-05 11:56:36.29	158.34	20.29	-34.3	-35.7	18.8	0.00e+00	0	54	0	732954624	40	4172
2026-01-05 11:56:37.30	158.34	20.43	-34.3	-35.7	18.8	0.00e+00	0	55	0	738197504	40	4159
2026-01-05 11:56:38.31	158.33	20.56	-34.4	-35.7	18.7	0.00e+00	0	54	0	744488960	40	4174
2026-01-05 11:56:39.32	158.33	20.70	-34.3	-35.7	18.8	0.00e+00	0	54	0	749731840	40	4162
2026-01-05 11:56:40.33	158.32	20.84	-34.3	-35.7	18.8	0.00e+00	0	55	0	754974720	40	4175
2026-01-05 11:56:41.34	158.31	20.97	-34.3	-35.7	18.8	0.00e+00	0	55	0	761266176	40	4155
2026-01-05 11:56:42.35	158.31	21.11	-34.2	-35.6	18.8	0.00e+00	0	55	0	766509056	40	4127
2026-01-05 11:56:43.36	158.30	21.25	-34.2	-35.6	18.9	0.00e+00	0	55	0	772800512	40	4105
2026-01-05 11:56:44.37	158.29	21.39	-34.2	-35.5	18.9	0.00e+00	0	55	0	778043392	40	4081
2026-01-05 11:56:45.38	158.29	21.53	-34.1	-35.5	19.0	0.00e+00	0	55	0	783286272	40	4058
2026-01-05 11:56:46.39	158.28	21.68	-34.1	-35.4	19.0	0.00e+00	0	55	0	789577728	40	4036
2026-01-05 11:56:47.40	158.27	21.82	-34.0	-35.4	19.1	0.00e+00	0	55	0	794820608	40	4005
2026-01-05 11:56:48.41	158.27	21.96	-34.0	-35.3	19.1	0.00e+00	0	55	0	801112064	40	3997
2026-01-05 11:56:49.42	158.26	22.11	-34.0	-35.3	19.2	0.00e+00	0	55	0	806354944	39	4240
2026-01-05 11:56:50.43	158.25	22.25	-34.0	-35.3	19.2	0.00e+00	0	55	0	811597824	39	4204
2026-01-05 11:56:51.44	158.25	22.40	-33.9	-35.3	19.3	0.00e+00	0	55	0	817889280	39	4195
2026-01-05 11:56:52.45	158.24	22.54	-33.9	-35.3	19.3	0.00e+00	0	55	0	823132160	39	4201
2026-01-05 11:56:53.46	158.23	22.69	-33.9	-35.2	19.3	0.00e+00	0	55	0	829423616	39	4189
2026-01-05 11:56:54.47	158.23	22.84	-33.9	-35.2	19.3	0.00e+00	0	55	0	834666496	39	4170
2026-01-05 11:56:55.48	158.22	22.99	-33.9	-35.2	19.3	0.00e+00	0	55	0	840957952	39	4163
2026-01-05 11:56:56.49	158.21	23.14	-33.8	-35.1	19.4	0.00e+00	0	55	0	846200832	39	4139
2026-01-05 11:56:57.50	158.20	23.29	-33.8	-35.1	19.4	0.00e+00	0	55	0	852492288	39	4143
2026-01-05 11:56:58.51	158.20	23.44	-33.8	-35.1	19.4	0.00e+00	0	55	0	857735168	39	4131
2026-01-05 11:56:59.52	158.19	23.59	-33.8	-35.1	19.4	0.00e+00	0	55	0	862978048	39	4111
2026-01-05 11:57:00.53	158.18	23.75	-33.8	-35.0	19.5	0.00e+00	0	55	0	869269504	39	4091
2026-01-05 11:57:01.54	158.17	23.90	-33.7	-35.0	19.5	0.00e+00	0	55	0	874512384	39	4084
2026-01-05 11:57:02.55	158.16	24.06	-33.6	-34.9	19.6	0.00e+00	0	55	0	880803840	39	4030
2026-01-05 11:57:03.56	158.15	24.21	-33.6	-34.9	19.6	0.00e+00	0	55	0	886046720	39	4020
2026-01-05 11:57:04.57	158.15	24.37	-33.6	-34.8	19.7	0.00e+00	0	55	0	891289600	39	3996
2026-01-05 11:57:05.58	158.14	24.53	-33.6	-34.8	19.7	0.00e+00	0	55	0	897581056	39	3992
2026-01-05 11:57:06.59	158.13	24.69	-33.6	-34.8	19.7	0.00e+00	0	55	0	902823936	39	4004
2026-01-05 11:57:07.60	158.12	24.85	-33.6	-34.9	19.7	0.00e+00	0	55	0	909115392	39	4015
2026-01-05 11:57:08.61	158.11	25.01	-33.6	-34.9	19.6	0.00e+00	0	55	0	914358272	39	4025
2026-01-05 11:57:09.62	158.10	25.17	-33.6	-34.9	19.7	0.00e+00	0	55	0	919601152	39	4026
2026-01-05 11:57:10.63	158.09	25.33	-33.7	-34.9	19.6	0.00e+00	0	55	0	925892608	39	4044
2026-01-05 11:57:11.64	158.08	25.50	-33.7	-34.9	19.6	0.00e+00	0	55	0	931135488	39	4048
2026-01-05 11:57:12.65	158.07	25.66	-33.7	-35.0	19.6	0.00e+00	0	55	0	937426944	39	4060
2026-01-05 11:57:13.66	158.07	25.83	-33.7	-34.9	19.6	0.00e+00	0	55	0	942669824	39	4042
2026-01-05 11:57:14.67	158.06	26.00	-33.6	-34.9	19.7	0.00e+00	0	55	0	948961280	39	4021
2026-01-05 11:57:15.68	158.05	26.16	-33.6	-34.8	19.7	0.00e+00	0	55	0	954204160	39	3999
2026-01-05 11:57:16.69	158.04	26.33	-33.6	-34.8	19.7	0.00e+00	0	55	0	959447040	39	3995
2026-01-05 11:57:17.70	158.03	26.50	-33.5	-34.8	19.8	0.00e+00	0	55	0	965738496	39	3966
2026-01-05 11:57:18.71	158.02	26.68	-33.5	-34.8	19.8	0.00e+00	0	55	0	970981376	39	3960
2026-01-05 11:57:19.72	158.01	26.85	-33.5	-34.8	19.8	0.00e+00	0	55	0	977272832	39	3962
2026-01-05 11:57:20.73	158.00	27.02	-33.5	-34.8	19.8	0.00e+00	0	55	0	982515712	39	3973
2026-01-05 11:57:21.74	157.98	27.20	-33.6	-34.8	19.7	0.00e+00	0	55	0	988807168	39	3988
2026-01-05 11:57:22.75	157.97	27.37	-33.6	-34.8	19.7	0.00e+00	0	55	0	994050048	39	3994
2026-01-05 11:57:23.76	157.96	27.55	-33.6	-34.8	19.7	0.00e+00	0	55	0	999292928	39	4002
2026-01-05 11:57:24.78	157.95	27.73	-33.6	-34.9	19.6	0.00e+00	0	55	0	1005584384	39	4018
2026-01-05 11:57:25.78	157.94	27.91	-33.6	-34.9	19.6	0.00e+00	0	55	0	1010827264	39	4013
2026-01-05 11:57:26.79	157.93	28.09	-33.6	-34.9	19.6	0.00e+00	0	55	0	1016070144	39	4033
2026-01-05 11:57:27.80	157.92	28.27	-33.6	-34.9	19.6	0.00e+00	0	55	0	1022361600	39	4028
2026-01-05 11:57:28.81	157.91	28.45	-33.6	-34.9	19.6	0.00e+00	0	55	0	1027604480	39	4039
2026-01-05 11:57:29.82	157.89	28.64	-33.7	-34.9	19.5	0.00e+00	0	55	0	1033895936	39	4050
2026-01-05 11:57:30.83	157.88	28.82	-33.7	-35.0	19.5	0.00e+00	0	55	0	1039138816	39	4065
2026-01-05 11:57:31.85	157.87	29.01	-33.7	-35.0	19.5	0.00e+00	0	55	0	1045430272	39	4075
2026-01-05 11:57:32.86	157.86	29.20	-33.7	-35.0	19.5	0.00e+00	0	55	0	1050673152	39	4078
2026-01-05 11:57:33.87	157.84	29.39	-33.6	-34.9	19.5	0.00e+00	0	55	0	1056964608	39	4051
2026-01-05 11:57:34.88	157.83	29.58	-33.6	-34.9	19.6	0.00e+00	0	55	0	1062207488	39	4017
2026-01-05 11:57:35.89	157.82	29.77	-33.5	-34.8	19.7	0.00e+00	0	55	0	1067450368	39	3971
2026-01-05 11:57:36.90	157.81	29.96	-33.4	-34.7	19.8	0.00e+00	0	55	0	1073741824	38	4164
2026-01-05 11:57:37.91	157.79	30.16	-33.3	-34.6	19.9	0.00e+00	0	55	0	1078984704	38	4120
2026-01-05 11:57:38.92	157.78	30.35	-33.2	-34.5	20.0	0.00e+00	0	55	0	1085276160	38	4075
2026-01-05 11:57:39.93	157.76	30.55	-33.1	-34.3	20.2	0.00e+00	0	55	0	1090519040	38	3997
2026-01-05 11:57:40.94	157.75	30.75	-33.1	-34.3	20.2	0.00e+00	0	55	0	1095761920	38	3969
2026-01-05 11:57:41.95	157.74	30.95	-32.9	-34.1	20.3	0.00e+00	0	55	0	1102053376	37	4136
2026-01-05 11:57:42.96	157.72	31.15	-32.9	-34.1	20.4	0.00e+00	0	55	0	1107296256	37	4110
2026-01-05 11:57:43.97	157.71	31.35	-32.9	-34.1	20.4	0.00e+00	0	55	0	1113587712	37	4125
2026-01-05 11:57:44.98	157.69	31.56	-33.0	-34.2	20.3	0.00e+00	0	55	0	1118830592	37	4156
2026-01-05 11:57:45.99	157.68	31.76	-33.0	-34.2	20.3	0.00e+00	0	55	0	1124073472	37	4158
2026-01-05 11:57:47.00	157.66	31.97	-33.0	-34.2	20.3	0.00e+00	0	55	0	1130364928	37	4190
2026-01-05 11:57:48.01	157.65	32.18	-33.0	-34.3	20.3	0.00e+00	0	55	0	1135607808	37	4208
2026-01-05 11:57:49.01	157.63	32.38	-33.1	-34.4	20.1	0.00e+00	0	55	0	1141899264	37	4253
2026-01-05 11:57:50.02	157.62	32.59	-33.1	-34.4	20.1	0.00e+00	0	55	0	1147142144	37	4264
2026-01-05 11:57:51.04	157.60	32.81	-33.2	-34.5	20.0	0.00e+00	0	55	0	1153433600	37	4307
2026-01-05 11:57:52.04	157.58	33.02	-33.3	-34.5	20.0	0.00e+00	0	55	0	1158676480	37	4331
2026-01-05 11:57:53.06	157.57	33.24	-33.3	-34.5	20.1	0.00e+00	0	55	0	1164967936	37	4324
2026-01-05 11:57:54.07	157.55	33.46	-33.1	-34.4	20.2	0.00e+00	0	55	0	1170210816	37	4257
2026-01-05 11:57:55.08	157.53	33.67	-33.1	-34.3	20.3	0.00e+00	0	55	0	1175453696	37	4213
2026-01-05 11:57:56.08	157.51	33.89	-33.0	-34.2	20.3	0.00e+00	0	55	0	1181745152	37	4188
2026-01-05 11:57:57.09	157.50	34.11	-33.0	-34.2	20.3	0.00e+00	0	55	0	1186988032	37	4174
2026-01-05 11:57:58.11	157.48	34.34	-33.0	-34.2	20.4	0.00e+00	0	55	0	1193279488	37	4170
2026-01-05 11:57:59.11	157.46	34.56	-32.9	-34.2	20.4	0.00e+00	0	55	0	1198522368	37	4148
2026-01-05 11:58:00.12	157.44	34.79	-32.9	-34.2	20.4	0.00e+00	0	56	0	1203765248	37	4149
2026-01-05 11:58:01.14	157.42	35.02	-32.9	-34.1	20.5	0.00e+00	0	55	0	1210056704	37	4110
2026-01-05 11:58:02.14	157.40	35.25	-32.8	-34.0	20.5	0.00e+00	0	55	0	1215299584	37	4075
2026-01-05 11:58:03.16	157.38	35.48	-32.8	-34.0	20.6	0.00e+00	0	55	0	1221591040	37	4063
2026-01-05 11:58:04.16	157.36	35.71	-32.8	-34.0	20.5	0.00e+00	0	55	0	1226833920	37	4054
2026-01-05 11:58:05.17	157.34	35.95	-32.7	-33.9	20.6	0.00e+00	0	55	0	1232076800	37	4040
2026-01-05 11:58:06.18	157.32	36.18	-32.7	-33.9	20.6	0.00e+00	0	56	0	1238368256	37	4019
2026-01-05 11:58:07.19	157.30	36.42	-32.7	-33.9	20.6	0.00e+00	0	55	0	1243611136	37	4021
2026-01-05 11:58:08.20	157.28	36.66	-32.8	-34.0	20.5	0.00e+00	0	55	0	1249902592	37	4059
2026-01-05 11:58:09.21	157.26	36.90	-32.8	-34.0	20.5	0.00e+00	0	55	0	1255145472	37	4097
2026-01-05 11:58:10.22	157.24	37.15	-32.9	-34.1	20.5	0.00e+00	0	55	0	1261436928	37	4107
2026-01-05 11:58:11.24	157.21	37.40	-32.8	-34.0	20.5	0.00e+00	0	56	0	1266679808	37	4098
2026-01-05 11:58:12.24	157.19	37.64	-32.7	-33.9	20.7	0.00e+00	0	55	0	1272971264	37	4012
2026-01-05 11:58:13.25	157.17	37.89	-32.6	-33.8	20.8	0.00e+00	0	56	0	1278214144	37	3989
2026-01-05 11:58:14.26	157.14	38.14	-32.6	-33.8	20.8	0.00e+00	0	55	0	1283457024	37	3984
2026-01-05 11:58:15.27	157.12	38.40	-32.6	-33.8	20.8	0.00e+00	0	55	0	1289748480	37	3978
2026-01-05 11:58:16.28	157.09	38.65	-32.7	-33.9	20.7	0.00e+00	0	56	0	1294991360	37	4014
2026-01-05 11:58:17.29	157.07	38.91	-32.9	-34.0	20.5	0.00e+00	0	56	0	1300234240	37	4098
2026-01-05 11:58:18.30	157.04	39.17	-33.1	-34.3	20.3	0.00e+00	0	55	0	1306525696	37	4212
2026-01-05 11:58:19.31	157.02	39.43	-33.3	-34.6	20.0	0.00e+00	0	55	0	1311768576	37	4358
2026-01-05 11:58:20.32	156.99	39.69	-33.5	-34.8	19.9	0.00e+00	0	56	0	1318060032	37	4443
2026-01-05 11:58:21.33	156.97	39.95	-33.6	-34.9	19.8	0.00e+00	0	55	0	1323302912	37	4496
2026-01-05 11:58:22.34	156.94	40.22	-33.6	-34.9	19.7	0.00e+00	0	56	0	1328545792	37	4535
2026-01-05 11:58:23.35	156.91	40.49	-33.7	-35.0	19.7	0.00e+00	0	55	0	1334837248	37	4561
2026-01-05 11:58:24.36	156.88	40.76	-33.8	-35.1	19.6	0.00e+00	0	56	0	1340080128	38	4369
2026-01-05 11:58:25.37	156.85	41.03	-33.8	-35.1	19.7	0.00e+00	0	56	0	1346371584	38	4349
2026-01-05 11:58:26.38	156.82	41.31	-33.7	-35.0	19.8	0.00e+00	0	56	0	1351614464	38	4297
2026-01-05 11:58:27.39	156.79	41.58	-33.5	-34.8	20.0	0.00e+00	0	55	0	1357905920	38	4208
2026-01-05 11:58:28.40	156.76	41.86	-33.4	-34.7	20.1	0.00e+00	0	56	0	1363148800	38	4160
2026-01-05 11:58:29.41	156.73	42.14	-33.4	-34.7	20.1	0.00e+00	0	56	0	1369440256	38	4146
2026-01-05 11:58:30.42	156.70	42.43	-33.4	-34.6	20.1	0.00e+00	0	56	0	1374683136	38	4128
2026-01-05 11:58:31.43	156.67	42.71	-33.2	-34.5	20.3	0.00e+00	0	56	0	1379926016	38	4053
2026-01-05 11:58:32.44	156.63	43.00	-33.2	-34.4	20.4	0.00e+00	0	56	0	1386217472	38	4029
2026-01-05 11:58:33.45	156.60	43.29	-33.2	-34.4	20.3	0.00e+00	0	55	0	1391460352	38	4033
2026-01-05 11:58:34.46	156.57	43.58	-33.3	-34.5	20.3	0.00e+00	0	55	0	1397751808	38	4052
2026-01-05 11:58:35.47	156.53	43.88	-33.2	-34.4	20.4	0.00e+00	0	56	0	1402994688	38	4021
2026-01-05 11:58:36.48	156.50	44.17	-33.3	-34.4	20.4	0.00e+00	0	56	0	1408237568	38	4048
2026-01-05 11:58:37.49	156.46	44.47	-33.3	-34.5	20.3	0.00e+00	0	56	0	1414529024	38	4078
2026-01-05 11:58:38.50	156.42	44.77	-33.3	-34.6	20.3	0.00e+00	0	56	0	1419771904	38	4102
2026-01-05 11:58:39.51	156.38	45.08	-33.3	-34.6	20.3	0.00e+00	0	56	0	1426063360	38	4105
2026-01-05 11:58:40.52	156.35	45.38	-33.3	-34.5	20.3	0.00e+00	0	56	0	1431306240	38	4083
2026-01-05 11:58:41.53	156.31	45.69	-33.4	-34.6	20.2	0.00e+00	0	56	0	1436549120	38	4112
2026-01-05 11:58:42.54	156.27	46.00	-33.3	-34.5	20.3	0.00e+00	0	56	0	1442840576	38	4074
2026-01-05 11:58:43.55	156.22	46.31	-33.2	-34.4	20.4	0.00e+00	0	56	0	1448083456	38	4022
2026-01-05 11:58:44.56	156.18	46.63	-32.9	-34.1	20.7	0.00e+00	0	56	0	1454374912	37	4122
2026-01-05 11:58:45.58	156.14	46.95	-32.8	-34.0	20.8	0.00e+00	0	56	0	1459617792	37	4054
2026-01-05 11:58:46.59	156.09	47.27	-32.8	-34.0	20.8	0.00e+00	0	56	0	1465909248	37	4058
2026-01-05 11:58:47.60	156.05	47.59	-33.0	-34.2	20.7	0.00e+00	0	56	0	1471152128	37	4151
2026-01-05 11:58:48.61	156.00	47.91	-33.2	-34.4	20.4	0.00e+00	0	56	0	1477443584	37	4272
2026-01-05 11:58:49.62	155.96	48.24	-33.5	-34.7	20.2	0.00e+00	0	56	0	1482686464	37	4426
2026-01-05 11:58:50.62	155.91	48.57	-33.6	-34.8	20.1	0.00e+00	0	56	0	1487929344	37	4465
2026-01-05 11:58:51.63	155.86	48.90	-33.6	-34.8	20.2	0.00e+00	0	56	0	1494220800	37	4442
2026-01-05 11:58:52.64	155.81	49.23	-33.6	-34.8	20.1	0.00e+00	0	56	0	1499463680	37	4482
2026-01-05 11:58:53.65	155.76	49.57	-34.0	-35.3	19.7	0.00e+00	0	56	0	1505755136	38	4461
2026-01-05 11:58:54.66	155.70	49.91	-34.2	-35.5	19.4	0.00e+00	0	56	0	1510998016	39	4334
2026-01-05 11:58:55.67	155.65	50.25	-34.1	-35.4	19.6	0.00e+00	0	56	0	1516240896	39	4246
2026-01-05 11:58:56.68	155.59	50.60	-33.9	-35.1	19.9	0.00e+00	0	56	0	1522532352	39	4122
2026-01-05 11:58:57.69	155.54	50.94	-33.9	-35.2	19.8	0.00e+00	0	56	0	1527775232	39	4152
2026-01-05 11:58:58.70	155.48	51.29	-34.1	-35.3	19.6	0.00e+00	0	56	0	1534066688	39	4236
2026-01-05 11:58:59.71	155.42	51.65	-34.4	-35.7	19.3	0.00e+00	0	56	0	1539309568	39	4397
2026-01-05 11:59:00.72	155.36	52.00	-34.6	-35.9	19.1	0.00e+00	0	56	0	1544552448	39	4540
2026-01-05 11:59:01.73	155.30	52.36	-34.5	-35.8	19.1	0.00e+00	0	56	0	1550843904	39	4471
2026-01-05 11:59:02.74	155.23	52.72	-34.2	-35.5	19.4	0.00e+00	0	56	0	1556086784	39	4317
2026-01-05 11:59:03.75	155.16	53.08	-34.1	-35.4	19.4	0.00e+00	0	56	0	1562378240	39	4259
2026-01-05 11:59:04.76	155.10	53.45	-34.3	-35.6	19.3	0.00e+00	0	56	0	1567621120	39	4353
2026-01-05 11:59:05.77	155.03	53.81	-34.5	-35.9	19.0	0.00e+00	0	56	0	1573912576	39	4509
2026-01-05 11:59:06.79	154.96	54.19	-34.7	-36.0	18.8	0.00e+00	0	56	0	1579155456	39	4596
2026-01-05 11:59:07.79	154.88	54.56	-34.7	-36.0	18.8	0.00e+00	0	56	0	1585446912	40	4336
2026-01-05 11:59:08.80	154.81	54.93	-34.6	-35.9	18.9	0.00e+00	0	56	0	1590689792	40	4289
2026-01-05 11:59:09.81	154.73	55.31	-34.5	-35.8	19.1	0.00e+00	0	56	0	1595932672	40	4224
2026-01-05 11:59:10.82	154.65	55.69	-34.2	-35.5	19.4	0.00e+00	0	56	0	1602224128	40	4083
2026-01-05 11:59:11.83	154.57	56.07	-34.0	-35.3	19.6	0.00e+00	0	56	0	1607467008	40	3980
2026-01-05 11:59:12.84	154.48	56.46	-33.9	-35.1	19.8	0.00e+00	0	56	0	1612709888	39	4140
2026-01-05 11:59:13.85	154.40	56.85	-34.0	-35.2	19.8	0.00e+00	0	56	0	1619001344	39	4179
2026-01-05 11:59:14.86	154.31	57.24	-34.0	-35.3	19.7	0.00e+00	0	56	0	1624244224	39	4220
2026-01-05 11:59:15.87	154.21	57.63	-33.9	-35.1	19.9	0.00e+00	0	56	0	1630535680	39	4122
2026-01-05 11:59:16.88	154.12	58.03	-33.4	-34.6	20.4	0.00e+00	0	56	0	1635778560	38	4107
2026-01-05 11:59:17.89	154.02	58.43	-33.1	-34.3	20.6	0.00e+00	0	56	0	1641021440	38	3979
2026-01-05 11:59:18.90	153.92	58.83	-33.2	-34.4	20.5	0.00e+00	0	56	0	1647312896	38	4015
2026-01-05 11:59:19.91	153.82	59.24	-33.3	-34.5	20.3	0.00e+00	0	56	0	1652555776	38	4092
2026-01-05 11:59:20.91	153.71	59.64	-33.3	-34.5	20.4	0.00e+00	0	56	0	1658847232	38	4067
2026-01-05 11:59:21.92	153.60	60.05	-33.2	-34.4	20.4	0.00e+00	0	55	0	1664090112	38	4030
2026-01-05 11:59:22.93	153.48	60.46	-33.3	-34.5	20.3	0.00e+00	0	56	0	1670381568	38	4079
2026-01-05 11:59:23.94	153.36	60.88	-33.4	-34.6	20.2	0.00e+00	0	56	0	1675624448	38	4125
2026-01-05 11:59:24.95	153.24	61.29	-33.4	-34.7	20.2	0.00e+00	0	56	0	1681915904	38	4156
2026-01-05 11:59:25.96	153.11	61.71	-33.4	-34.7	20.3	0.00e+00	0	56	0	1687158784	38	4158
2026-01-05 11:59:26.97	152.98	62.14	-33.6	-34.9	20.0	0.00e+00	0	56	0	1692401664	38	4256
2026-01-05 11:59:27.98	152.85	62.56	-33.3	-34.6	20.3	0.00e+00	0	56	0	1698693120	38	4104
2026-01-05 11:59:29.00	152.70	62.99	-32.9	-34.1	20.7	0.00e+00	0	56	0	1703936000	37	4106
2026-01-05 11:59:30.01	152.56	63.42	-32.8	-34.0	20.8	0.00e+00	0	56	0	1710227456	37	4067
2026-01-05 11:59:31.02	152.40	63.85	-32.7	-33.8	20.9	0.00e+00	0	56	0	1715470336	37	3998
2026-01-05 11:59:32.03	152.24	64.29	-32.5	-33.6	21.2	0.00e+00	0	56	0	1720713216	36	4116
2026-01-05 11:59:33.04	152.08	64.72	-32.6	-33.7	21.1	0.00e+00	0	56	0	1727004672	36	4173
2026-01-05 11:59:34.05	151.91	65.16	-32.6	-33.8	20.9	0.00e+00	0	56	0	1732247552	36	4220
2026-01-05 11:59:35.06	151.73	65.61	-32.6	-33.8	20.9	0.00e+00	0	56	0	1738539008	36	4195
2026-01-05 11:59:36.07	151.54	66.05	-32.4	-33.6	21.1	0.00e+00	0	56	0	1743781888	36	4117
2026-01-05 11:59:37.08	151.35	66.50	-32.5	-33.7	21.0	0.00e+00	0	56	0	1749024768	36	4164
2026-01-05 11:59:38.09	151.15	66.94	-32.6	-33.8	20.9	0.00e+00	0	56	0	1755316224	36	4216
2026-01-05 11:59:39.10	150.94	67.39	-32.6	-33.8	20.9	0.00e+00	0	56	0	1760559104	36	4216
2026-01-05 11:59:40.11	150.72	67.85	-32.5	-33.6	21.0	0.00e+00	0	56	0	1766850560	36	4126
2026-01-05 11:59:41.12	150.49	68.30	-32.2	-33.3	21.3	0.00e+00	0	56	0	1772093440	36	4000
2026-01-05 11:59:42.13	150.24	68.76	-32.1	-33.2	21.4	0.00e+00	0	56	0	1778384896	36	3943
2026-01-05 11:59:43.14	149.99	69.21	-31.3	-32.4	21.4	0.00e+00	0	56	0	1783627776	34	4038
2026-01-05 11:59:44.15	149.73	69.67	-31.0	-32.1	21.7	0.00e+00	0	56	0	1789919232	34	3876
2026-01-05 11:59:45.16	149.45	70.14	-31.1	-32.2	21.5	0.00e+00	0	56	0	1795162112	33	4192
2026-01-05 11:59:46.17	149.15	70.60	-31.4	-32.5	21.3	0.00e+00	0	56	0	1800404992	33	4325
2026-01-05 11:59:47.18	148.84	71.07	-31.2	-32.4	21.4	0.00e+00	0	56	0	1806696448	33	4248
2026-01-05 11:59:48.19	148.52	71.53	-31.2	-32.4	21.5	0.00e+00	0	56	0	1811939328	33	4249
2026-01-05 11:59:49.20	148.17	72.00	-31.2	-32.3	21.5	0.00e+00	0	56	0	1818230784	33	4240
2026-01-05 11:59:50.21	147.81	72.47	-31.4	-32.5	21.3	0.00e+00	0	56	0	1823473664	33	4335
2026-01-05 11:59:51.22	147.43	72.94	-31.2	-32.3	21.4	0.00e+00	0	56	0	1828716544	33	4232
2026-01-05 11:59:52.23	147.02	73.41	-31.0	-32.1	21.6	0.00e+00	0	56	0	1835008000	33	4145
2026-01-05 11:59:53.24	146.58	73.89	-30.9	-32.0	21.7	0.00e+00	0	56	0	1840250880	33	4066
2026-01-05 11:59:54.25	146.12	74.36	-30.9	-32.0	21.6	0.00e+00	0	56	0	1846542336	33	4091
2026-01-05 11:59:55.26	145.63	74.84	-31.1	-32.3	21.3	0.00e+00	0	56	0	1851785216	33	4194
2026-01-05 11:59:56.27	145.11	75.31	-31.1	-32.3	21.3	0.00e+00	0	56	0	1857028096	33	4216
2026-01-05 11:59:57.29	144.54	75.79	-30.9	-32.1	21.5	0.00e+00	0	56	0	1863319552	33	4107
2026-01-05 11:59:58.30	143.94	76.27	-30.9	-32.0	21.5	0.00e+00	0	56	0	1868562432	33	4093
2026-01-05 11:59:59.31	143.29	76.74	-30.9	-32.0	21.6	0.00e+00	0	56	0	1874853888	33	4085
2026-01-05 12:00:00.32	142.59	77.22	-30.5	-31.6	22.0	0.00e+00	0	56	0	1880096768	33	3878
2026-01-05 12:00:01.33	141.84	77.69	-30.3	-31.4	22.2	0.00e+00	0	56	0	1886388224	32	4026
2026-01-05 12:00:02.34	141.02	78.17	-30.4	-31.5	22.1	0.00e+00	0	56	0	1891631104	32	4082
2026-01-05 12:00:03.35	140.14	78.64	-30.2	-31.4	22.1	0.00e+00	0	56	0	1897922560	32	4008
2026-01-05 12:00:04.36	139.18	79.11	-29.6	-30.6	22.6	0.00e+00	0	56	0	1903165440	31	3913
2026-01-05 12:00:05.37	138.12	79.58	-29.7	-30.8	22.4	0.00e+00	0	56	0	1908408320	31	3992
2026-01-05 12:00:06.38	136.97	80.05	-29.9	-31.0	22.3	0.00e+00	0	56	0	1914699776	31	4076
2026-01-05 12:00:07.39	135.70	80.51	-29.8	-30.9	22.4	0.00e+00	0	56	0	1919942656	31	4022
2026-01-05 12:00:08.40	134.30	80.97	-29.6	-30.7	22.6	0.00e+00	0	56	0	1926234112	31	3916
2026-01-05 12:00:09.41	132.74	81.43	-29.5	-30.5	22.7	0.00e+00	0	56	0	1931476992	30	4079
2026-01-05 12:00:10.42	131.01	81.87	-29.5	-30.6	22.6	0.00e+00	0	56	0	1936719872	30	4128
2026-01-05 12:00:11.43	129.08	82.31	-29.5	-30.5	22.7	0.00e+00	0	56	0	1943011328	30	4094
2026-01-05 12:00:12.44	126.91	82.75	-29.2	-30.2	22.9	0.00e+00	0	56	0	1948254208	30	3932
2026-01-05 12:00:13.45	124.47	83.17	-29.4	-30.5	22.7	0.00e+00	0	56	0	1954545664	30	4063
2026-01-05 12:00:14.46	121.71	83.57	-29.3	-30.4	22.8	0.00e+00	0	56	0	1959788544	30	4019
2026-01-05 12:00:15.47	118.58	83.97	-29.6	-30.6	22.6	0.00e+00	0	56	0	1965031424	30	4136
2026-01-05 12:00:16.48	115.03	84.34	-30.0	-31.1	22.2	0.00e+00	0	56	0	1971322880	30	4363
2026-01-05 12:00:17.50	110.95	84.69	-30.1	-31.3	22.1	0.00e+00	0	56	0	1976565760	30	4442
2026-01-05 12:00:18.51	106.37	85.00	-30.3	-31.4	22.0	0.00e+00	0	56	0	1982857216	31	4277
2026-01-05 12:00:19.52	101.20	85.29	-30.5	-31.6	21.8	0.00e+00	0	56	0	1988100096	31	4363
2026-01-05 12:00:20.53	95.43	85.52	-30.3	-31.4	22.0	0.00e+00	0	56	0	1994391552	31	4266
2026-01-05 12:00:21.54	89.08	85.71	-30.4	-31.5	21.7	0.00e+00	0	56	0	1999634432	31	4332
2026-01-05 12:00:22.55	82.24	85.84	-30.2	-31.3	21.9	0.00e+00	0	56	0	2005925888	31	4233
2026-01-05 12:00:23.56	75.05	85.91	-30.4	-31.5	21.7	0.00e+00	0	56	0	2011168768	31	4327
2026-01-05 12:00:24.57	67.74	85.92	-30.5	-31.7	21.6	0.00e+00	0	56	0	2016411648	31	4411
2026-01-05 12:00:25.58	60.54	85.85	-30.4	-31.6	21.7	0.00e+00	0	56	0	2022703104	31	4344
2026-01-05 12:00:26.59	53.65	85.73	-30.5	-31.7	21.6	0.00e+00	0	56	0	2027945984	31	4407
2026-01-05 12:00:27.60	47.25	85.55	-30.5	-31.6	21.8	0.00e+00	0	56	0	2034237440	31	4363
2026-01-05 12:00:28.61	41.42	85.31	-30.4	-31.5	21.9	0.00e+00	0	56	0	2039480320	31	4323
2026-01-05 12:00:29.62	36.19	85.03	-30.3	-31.4	21.9	0.00e+00	0	56	0	2044723200	31	4280
2026-01-05 12:00:30.62	31.59	84.72	-30.1	-31.2	22.1	0.00e+00	0	56	0	2051014656	31	4164
2026-01-05 12:00:31.63	27.50	84.38	-29.8	-30.9	22.3	0.00e+00	0	56	0	2056257536	31	4041
2026-01-05 12:00:32.64	23.89	84.01	-29.6	-30.7	22.5	0.00e+00	0	56	0	2061500416	31	3945
2026-01-05 12:00:33.65	20.71	83.62	-29.8	-30.9	22.4	0.00e+00	0	56	0	2067791872	31	4031
2026-01-05 12:00:34.66	17.92	83.22	-29.7	-30.8	22.5	0.00e+00	0	56	0	2073034752	31	3990
2026-01-05 12:00:35.67	15.44	82.80	-29.6	-30.7	22.6	0.00e+00	0	56	0	2079326208	31	3925
2026-01-05 12:00:36.68	13.24	82.37	-29.8	-30.9	22.5	0.00e+00	0	56	0	2084569088	31	4025
2026-01-05 12:00:37.69	11.28	81.93	-29.7	-30.8	22.5	0.00e+00	0	56	0	2090860544	31	3979
2026-01-05 12:00:38.70	9.53	81.48	-29.5	-30.6	22.7	0.00e+00	0	56	0	2096103424	31	3877
2026-01-05 12:00:39.71	7.96	81.03	-29.7	-30.8	22.5	0.00e+00	0	56	0	2101346304	30	4202
2026-01-05 12:00:40.72	6.54	80.57	-29.8	-30.9	22.3	0.00e+00	0	56	0	2107637760	30	4261
2026-01-05 12:00:41.73	5.25	80.11	-29.5	-30.6	22.6	0.00e+00	0	56	0	2112880640	30	4101
2026-01-05 12:00:42.74	4.09	79.64	-29.5	-30.5	22.7	0.00e+00	0	56	0	2119172096	30	4091
2026-01-05 12:00:43.75	3.02	79.17	-29.6	-30.7	22.6	0.00e+00	0	56	0	2124414976	30	4173
2026-01-05 12:00:44.76	2.05	78.70	-29.8	-30.8	22.5	0.00e+00	0	56	0	2130706432	30	4229
2026-01-05 12:00:45.77	1.15	78.23	-29.9	-30.9	22.5	0.00e+00	0	56	0	2135949312	30	4283
2026-01-05 12:00:46.78	0.33	77.76	-30.2	-31.4	22.1	0.00e+00	0	56	0	2141192192	31	4245
2026-01-05 12:00:47.79	359.57	77.28	-30.4	-31.6	21.9	0.00e+00	0	56	0	2147483648	31	4357
2026-01-05 12:00:48.80	358.87	76.81	-30.4	-31.5	22.0	0.00e+00	0	56	0	2152726528	31	4299
2026-01-05 12:00:49.81	358.22	76.33	-30.4	-31.5	22.0	0.00e+00	0	56	0	2159017984	31	4315
2026-01-05 12:00:50.82	357.61	75.86	-30.4	-31.5	22.0	0.00e+00	0	56	0	2164260864	31	4340
2026-01-05 12:00:51.83	357.04	75.38	-30.6	-31.7	21.8	0.00e+00	0	56	0	2169503744	31	4438
2026-01-05 12:00:52.84	356.51	74.91	-30.6	-31.7	21.9	0.00e+00	0	56	0	2175795200	31	4408
2026-01-05 12:00:53.85	356.02	74.43	-30.5	-31.6	21.9	0.00e+00	0	56	0	2181038080	31	4364
2026-01-05 12:00:54.86	355.55	73.96	-30.9	-32.1	21.7	0.00e+00	0	56	0	2187329536	32	4348
2026-01-05 12:00:55.87	355.12	73.49	-31.2	-32.4	21.4	0.00e+00	0	56	0	2192572416	33	4261
2026-01-05 12:00:56.88	354.70	73.02	-31.0	-32.1	21.6	0.00e+00	0	56	0	2197815296	33	4142
2026-01-05 12:00:57.89	354.32	72.55	-30.9	-32.0	21.7	0.00e+00	0	56	0	2204106752	33	4097
2026-01-05 12:00:58.90	353.95	72.08	-31.2	-32.4	21.4	0.00e+00	0	56	0	2209349632	33	4264
2026-01-05 12:00:59.91	353.60	71.61	-31.2	-32.4	21.4	0.00e+00	0	56	0	2215641088	33	4261
2026-01-05 12:01:00.92	353.28	71.14	-31.3	-32.4	21.4	0.00e+00	0	56	0	2220883968	33	4288
2026-01-05 12:01:01.93	352.97	70.68	-31.4	-32.6	21.3	0.00e+00	0	56	0	2227175424	33	4354
2026-01-05 12:01:02.94	352.67	70.22	-31.3	-32.4	21.4	0.00e+00	0	56	0	2232418304	33	4279
2026-01-05 12:01:03.95	352.39	69.75	-31.7	-32.8	21.1	0.00e+00	0	56	0	2238709760	33	4490
2026-01-05 12:01:04.96	352.12	69.30	-32.0	-33.2	20.8	0.00e+00	0	56	0	2243952640	34	4410
2026-01-05 12:01:05.97	351.87	68.84	-31.5	-32.7	21.2	0.00e+00	0	56	0	2249195520	34	4147
2026-01-05 12:01:06.98	351.62	68.38	-31.6	-32.7	21.1	0.00e+00	0	56	0	2255486976	34	4180
2026-01-05 12:01:07.99	351.39	67.93	-31.9	-33.2	20.7	0.00e+00	0	56	0	2260729856	34	4405
2026-01-05 12:01:09.00	351.17	67.48	-31.9	-33.1	20.7	0.00e+00	0	56	0	2267021312	34	4364
2026-01-05 12:01:10.01	350.96	67.03	-31.5	-32.6	21.2	0.00e+00	0	56	0	2272264192	34	4136
2026-01-05 12:01:11.02	350.76	66.58	-31.5	-32.7	21.2	0.00e+00	0	56	0	2277507072	34	4148
2026-01-05 12:01:12.03	350.56	66.13	-31.6	-32.7	21.1	0.00e+00	0	56	0	2283798528	34	4190
2026-01-05 12:01:13.04	350.37	65.69	-31.6	-32.8	21.1	0.00e+00	0	56	0	2289041408	34	4197
2026-01-05 12:01:14.05	350.20	65.25	-31.5	-32.6	21.3	0.00e+00	0	56	0	2295332864	34	4117
2026-01-05 12:01:15.06	350.02	64.81	-31.6	-32.7	21.3	0.00e+00	0	56	0	2300575744	34	4168
2026-01-05 12:01:16.07	349.86	64.38	-31.6	-32.7	21.3	0.00e+00	0	56	0	2305818624	34	4163
2026-01-05 12:01:17.08	349.70	63.94	-31.6	-32.7	21.3	0.00e+00	0	56	0	2312110080	34	4177
2026-01-05 12:01:18.09	349.55	63.51	-31.6	-32.8	21.3	0.00e+00	0	56	0	2317352960	34	4200
2026-01-05 12:01:19.10	349.40	63.08	-31.6	-32.7	21.4	0.00e+00	0	56	0	2323644416	34	4170
2026-01-05 12:01:20.11	349.26	62.66	-31.6	-32.7	21.3	0.00e+00	0	56	0	2328887296	34	4188
2026-01-05 12:01:21.12	349.12	62.23	-31.7	-32.9	21.2	0.00e+00	0	56	0	2335178752	34	4244
2026-01-05 12:01:22.13	348.99	61.81	-31.9	-33.1	21.0	0.00e+00	0	56	0	2340421632	34	4341
2026-01-05 12:01:23.14	348.86	61.39	-32.1	-33.2	20.9	0.00e+00	0	56	0	2345664512	34	4435
2026-01-05 12:01:24.15	348.74	60.97	-32.1	-33.3	20.8	0.00e+00	0	56	0	2351955968	34	4470
2026-01-05 12:01:25.16	348.62	60.56	-32.1	-33.3	20.8	0.00e+00	0	56	0	2357198848	34	4458
2026-01-05 12:01:26.17	348.50	60.15	-32.3	-33.5	20.6	0.00e+00	0	56	0	2363490304	35	4296
2026-01-05 12:01:27.18	348.39	59.74	-32.6	-33.8	20.2	0.00e+00	0	56	0	2368733184	35	4490
2026-01-05 12:01:28.20	348.28	59.33	-32.6	-34.0	20.1	0.00e+00	0	56	0	2375024640	35	4546
2026-01-05 12:01:29.21	348.18	58.93	-32.6	-33.8	20.3	0.00e+00	0	56	0	2380267520	35	4491
2026-01-05 12:01:30.22	348.08	58.53	-32.7	-33.9	20.2	0.00e+00	0	56	0	2385510400	35	4542
2026-01-05 12:01:31.23	347.98	58.13	-33.6	-34.8	20.1	0.00e+00	0	56	0	2391801856	37	4493
2026-01-05 12:01:32.24	347.88	57.73	-33.9	-35.2	19.7	0.00e+00	0	56	0	2397044736	38	4436
2026-01-05 12:01:33.25	347.79	57.34	-33.9	-35.1	19.8	0.00e+00	0	56	0	2403336192	38	4369
2026-01-05 12:01:34.26	347.70	56.95	-33.7	-34.9	20.1	0.00e+00	0	56	0	2408579072	38	4274
2026-01-05 12:01:35.27	347.61	56.56	-33.8	-35.1	19.9	0.00e+00	0	56	0	2413821952	38	4352
2026-01-05 12:01:36.28	347.53	56.17	-34.2	-35.5	19.5	0.00e+00	0	56	0	2420113408	38	4548
2026-01-05 12:01:37.29	347.45	55.79	-34.3	-35.6	19.4	0.00e+00	0	56	0	2425356288	39	4371
2026-01-05 12:01:38.30	347.37	55.41	-34.3	-35.6	19.4	0.00e+00	0	56	0	2431647744	39	4341
2026-01-05 12:01:39.31	347.29	55.03	-34.2	-35.5	19.5	0.00e+00	0	56	0	2436890624	39	4297
2026-01-05 12:01:40.32	347.21	54.66	-34.3	-35.6	19.4	0.00e+00	0	56	0	2443182080	39	4351
2026-01-05 12:01:41.33	347.14	54.29	-34.3	-35.6	19.3	0.00e+00	0	56	0	2448424960	39	4368
2026-01-05 12:01:42.34	347.07	53.92	-34.1	-35.4	19.5	0.00e+00	0	56	0	2454716416	39	4263
2026-01-05 12:01:43.35	347.00	53.55	-34.0	-35.3	19.6	0.00e+00	0	56	0	2459959296	39	4200
2026-01-05 12:01:44.36	346.93	53.19	-34.0	-35.3	19.6	0.00e+00	0	56	0	2465202176	39	4216
2026-01-05 12:01:45.38	346.86	52.82	-34.2	-35.4	19.9	0.00e+00	0	56	0	2471493632	39	4282
2026-01-05 12:01:46.38	346.80	52.47	-34.1	-35.3	20.1	0.00e+00	0	56	0	2476736512	39	4207
2026-01-05 12:01:47.39	346.74	52.11	-33.7	-34.8	20.5	0.00e+00	0	56	0	2483027968	39	4001
2026-01-05 12:01:48.40	346.68	51.76	-33.5	-34.6	20.7	0.00e+00	0	56	0	2488270848	39	3891
2026-01-05 12:01:49.41	346.62	51.40	-33.6	-34.7	20.7	0.00e+00	0	56	0	2493513728	39	3920
2026-01-05 12:01:50.42	346.56	51.06	-33.6	-34.7	20.6	0.00e+00	0	56	0	2499805184	39	3944
2026-01-05 12:01:51.43	346.50	50.71	-33.4	-34.5	20.8	0.00e+00	0	56	0	2505048064	38	4091
2026-01-05 12:01:52.44	346.45	50.37	-33.2	-34.2	21.1	2.20e-06	0	56	0	2510290944	38	3947
2026-01-05 12:01:53.45	346.39	50.02	-33.0	-34.0	21.2	0.00e+00	0	56	0	2516582400	38	3857
2026-01-05 12:01:54.46	346.34	49.69	-32.9	-33.9	21.3	0.00e+00	0	56	0	2521825280	37	4045
2026-01-05 12:01:55.47	346.29	49.35	-33.1	-34.2	21.1	0.00e+00	0	56	0	2528116736	37	4178
2026-01-05 12:01:56.48	346.24	49.02	-33.3	-34.4	20.9	0.00e+00	0	56	0	2533359616	37	4279
2026-01-05 12:01:57.49	346.19	48.68	-33.2	-34.3	21.0	0.00e+00	0	56	0	2539651072	37	4236
2026-01-05 12:01:58.49	346.14	48.36	-33.0	-34.0	21.2	0.00e+00	0	56	0	2544893952	37	4096
2026-01-05 12:01:59.51	346.09	48.03	-32.8	-33.9	21.4	0.00e+00	0	56	0	2551185408	37	4009
2026-01-05 12:02:00.51	346.05	47.71	-32.8	-33.8	21.4	0.00e+00	0	56	0	2556428288	37	3991
2026-01-05 12:02:01.52	346.00	47.39	-33.0	-34.0	21.2	0.00e+00	0	56	0	2561671168	37	4087
2026-01-05 12:02:02.53	345.96	47.07	-33.1	-34.2	21.1	0.00e+00	0	56	0	2567962624	37	4147
2026-01-05 12:02:03.54	345.92	46.75	-33.2	-34.3	21.0	0.00e+00	0	56	0	2573205504	37	4204
2026-01-05 12:02:04.55	345.87	46.44	-33.2	-34.3	21.0	0.00e+00	0	56	0	2579496960	37	4241
2026-01-05 12:02:05.56	345.83	46.12	-33.2	-34.3	21.0	0.00e+00	0	56	0	2584739840	37	4213
2026-01-05 12:02:06.57	345.79	45.82	-33.2	-34.2	21.1	0.00e+00	0	56	0	2589982720	37	4187
2026-01-05 12:02:07.58	345.75	45.51	-33.1	-34.2	21.1	0.00e+00	0	56	0	2596274176	37	4160
2026-01-05 12:02:08.59	345.72	45.20	-33.0	-34.1	21.2	0.00e+00	0	56	0	2601517056	37	4105
2026-01-05 12:02:09.60	345.68	44.90	-32.9	-34.0	21.2	0.00e+00	0	56	0	2607808512	37	4074
2026-01-05 12:02:10.61	345.64	44.60	-32.9	-33.9	21.3	0.00e+00	0	56	0	2613051392	37	4043
2026-01-05 12:02:11.63	345.60	44.30	-32.9	-34.0	21.3	0.00e+00	0	56	0	2618294272	37	4056
2026-01-05 12:02:12.63	345.57	44.01	-33.0	-34.1	21.2	0.00e+00	0	56	0	2624585728	37	4106
2026-01-05 12:02:13.64	345.53	43.71	-33.2	-34.3	21.0	0.00e+00	0	56	0	2629828608	37	4196
2026-01-05 12:02:14.65	345.50	43.42	-33.3	-34.4	20.9	0.00e+00	0	56	0	2636120064	37	4262
2026-01-05 12:02:15.66	345.47	43.13	-33.4	-34.5	20.8	0.00e+00	0	56	0	2641362944	37	4313
2026-01-05 12:02:16.67	345.43	42.85	-33.3	-34.4	20.9	0.00e+00	0	56	0	2647654400	37	4280
2026-01-05 12:02:17.68	345.40	42.56	-33.2	-34.3	20.9	0.00e+00	0	56	0	2652897280	37	4233
2026-01-05 12:02:18.69	345.37	42.28	-33.1	-34.1	21.2	0.00e+00	0	56	0	2659188736	37	4127
2026-01-05 12:02:19.71	345.34	41.99	-32.9	-34.0	21.3	0.00e+00	0	56	0	2664431616	37	4066
2026-01-05 12:02:20.72	345.31	41.72	-32.8	-33.8	21.4	0.00e+00	0	56	0	2669674496	37	3987
2026-01-05 12:02:21.73	345.28	41.44	-32.7	-33.8	21.5	0.00e+00	0	56	0	2675965952	37	3960
2026-01-05 12:02:22.74	345.25	41.17	-32.7	-33.8	21.4	0.00e+00	0	56	0	2681208832	37	3960
2026-01-05 12:02:23.75	345.22	40.89	-32.8	-33.8	21.4	0.00e+00	0	56	0	2687500288	37	3985
2026-01-05 12:02:24.76	345.19	40.62	-32.7	-33.8	21.4	0.00e+00	0	56	0	2692743168	37	3973
2026-01-05 12:02:25.77	345.17	40.36	-32.7	-33.8	21.4	0.00e+00	0	56	0	2697986048	37	3975
2026-01-05 12:02:26.78	345.14	40.09	-32.7	-33.7	21.5	0.00e+00	0	56	0	2704277504	37	3949
2026-01-05 12:02:27.79	345.11	39.83	-32.6	-33.7	21.6	0.00e+00	0	56	0	2709520384	37	3914
2026-01-05 12:02:28.80	345.09	39.56	-32.5	-33.5	21.7	0.00e+00	0	56	0	2715811840	36	4079
2026-01-05 12:02:29.80	345.06	39.31	-32.4	-33.4	21.8	0.00e+00	0	56	0	2721054720	36	4024
2026-01-05 12:02:30.81	345.04	39.05	-32.2	-33.3	21.9	0.00e+00	0	56	0	2726297600	36	3962
2026-01-05 12:02:31.82	345.01	38.79	-32.2	-33.2	22.0	0.00e+00	0	56	0	2732589056	36	3934
2026-01-05 12:02:32.83	344.99	38.54	-32.1	-33.1	22.0	0.00e+00	0	56	0	2737831936	36	3900
2026-01-05 12:02:33.84	344.96	38.28	-32.1	-33.1	22.0	0.00e+00	0	56	0	2744123392	36	3888
2026-01-05 12:02:34.85	344.94	38.03	-32.2	-33.2	21.9	0.00e+00	0	56	0	2749366272	36	3929
2026-01-05 12:02:35.86	344.92	37.78	-32.4	-33.4	21.8	0.00e+00	0	56	0	2755657728	36	4014
2026-01-05 12:02:36.87	344.89	37.54	-32.6	-33.6	21.6	0.00e+00	0	56	0	2760900608	36	4120
2026-01-05 12:02:37.88	344.87	37.29	-32.7	-33.8	21.4	0.00e+00	0	56	0	2766143488	36	4218
2026-01-05 12:02:38.89	344.85	37.05	-32.9	-34.0	21.2	0.00e+00	0	56	0	2772434944	36	4307
2026-01-05 12:02:39.90	344.83	36.81	-33.0	-34.1	21.1	0.00e+00	0	56	0	2777677824	36	4368
2026-01-05 12:02:40.91	344.81	36.57	-33.0	-34.1	21.1	0.00e+00	0	56	0	2783969280	36	4372
2026-01-05 12:02:41.93	344.79	36.33	-33.0	-34.1	21.1	0.00e+00	0	56	0	2789212160	36	4382
2026-01-05 12:02:42.94	344.77	36.09	-32.9	-34.0	21.2	0.00e+00	0	56	0	2794455040	36	4323
2026-01-05 12:02:43.95	344.75	35.86	-32.9	-34.0	21.2	0.00e+00	0	56	0	2800746496	36	4295
2026-01-05 12:02:44.96	344.73	35.62	-32.7	-33.8	21.4	0.00e+00	0	56	0	2805989376	36	4201
2026-01-05 12:02:45.97	344.71	35.39	-32.6	-33.6	21.5	0.00e+00	0	56	0	2812280832	36	4143
2026-01-05 12:02:46.98	344.69	35.16	-32.5	-33.6	21.6	0.00e+00	0	56	0	2817523712	36	4105
2026-01-05 12:02:47.99	344.67	34.94	-32.5	-33.6	21.6	0.00e+00	0	56	0	2822766592	36	4105
2026-01-05 12:02:49.00	344.65	34.71	-32.5	-33.6	21.5	0.00e+00	0	56	0	2829058048	36	4103
2026-01-05 12:02:50.01	344.63	34.48	-32.6	-33.6	21.5	0.00e+00	0	56	0	2834300928	36	4121
2026-01-05 12:02:51.02	344.62	34.26	-32.7	-33.7	21.4	0.00e+00	0	56	0	2840592384	36	4173
2026-01-05 12:02:52.03	344.60	34.04	-32.8	-33.8	21.3	0.00e+00	0	56	0	2845835264	36	4220
2026-01-05 12:02:53.04	344.58	33.82	-32.9	-33.9	21.2	0.00e+00	0	56	0	2852126720	36	4269
2026-01-05 12:02:54.05	344.57	33.60	-33.0	-34.1	21.1	0.00e+00	0	56	0	2857369600	36	4347
2026-01-05 12:02:55.06	344.55	33.39	-33.1	-34.2	20.9	0.00e+00	0	56	0	2863661056	36	4400
2026-01-05 12:02:56.07	344.53	33.17	-33.2	-34.3	20.8	0.00e+00	0	56	0	2868903936	36	4470
2026-01-05 12:02:57.08	344.52	32.96	-33.3	-34.4	20.7	0.00e+00	0	56	0	2874146816	37	4269
2026-01-05 12:02:58.09	344.50	32.75	-33.3	-34.5	20.6	0.00e+00	0	56	0	2880438272	37	4301
2026-01-05 12:02:59.10	344.49	32.53	-33.4	-34.5	20.6	0.00e+00	0	56	0	2885681152	37	4325
2026-01-05 12:03:00.11	344.47	32.33	-33.4	-34.5	20.6	0.00e+00	0	56	0	2891972608	37	4322
2026-01-05 12:03:01.12	344.45	32.12	-33.3	-34.5	20.6	0.00e+00	0	56	0	2897215488	37	4303
2026-01-05 12:03:02.13	344.44	31.91	-33.3	-34.4	20.7	0.00e+00	0	56	0	2902458368	37	4270
2026-01-05 12:03:03.14	344.43	31.71	-33.3	-34.4	20.7	0.00e+00	0	56	0	2908749824	37	4253
2026-01-05 12:03:04.15	344.41	31.50	-33.2	-34.3	20.8	0.00e+00	0	56	0	2913992704	37	4216
2026-01-05 12:03:05.16	344.40	31.30	-33.2	-34.2	20.8	0.00e+00	0	56	0	2920284160	37	4190
2026-01-05 12:03:06.17	344.38	31.10	-33.1	-34.2	20.9	0.00e+00	0	56	0	2925527040	37	4149
2026-01-05 12:03:07.18	344.37	30.90	-33.0	-34.1	20.9	0.00e+00	0	56	0	2930769920	37	4131
2026-01-05 12:03:08.19	344.36	30.70	-33.0	-34.1	21.0	0.00e+00	0	56	0	2937061376	37	4116
2026-01-05 12:03:09.20	344.34	30.51	-33.0	-34.1	20.9	0.00e+00	0	56	0	2942304256	37	4115
2026-01-05 12:03:10.21	344.33	30.31	-33.0	-34.1	21.0	0.00e+00	0	56	0	2948595712	37	4110
2026-01-05 12:03:11.22	344.32	30.12	-33.0	-34.1	21.0	0.00e+00	0	56	0	2953838592	37	4113
2026-01-05 12:03:12.23	344.30	29.93	-33.1	-34.1	20.9	0.00e+00	0	56	0	2960130048	37	4139
2026-01-05 12:03:13.24	344.29	29.73	-33.1	-34.2	20.9	0.00e+00	0	56	0	2965372928	37	4146
2026-01-05 12:03:14.25	344.28	29.54	-33.1	-34.2	20.9	0.00e+00	0	56	0	2971664384	37	4150
2026-01-05 12:03:15.25	344.27	29.36	-33.1	-34.2	20.9	0.00e+00	0	56	0	2976907264	37	4156
2026-01-05 12:03:16.26	344.26	29.17	-33.1	-34.2	20.9	0.00e+00	0	56	0	2982150144	37	4153
2026-01-05 12:03:17.27	344.24	28.98	-33.1	-34.2	20.8	0.00e+00	0	56	0	2988441600	37	4162
2026-01-05 12:03:18.29	344.23	28.80	-33.0	-34.1	20.9	0.00e+00	0	56	0	2993684480	37	4132
2026-01-05 12:03:19.30	344.22	28.61	-33.0	-34.1	20.9	0.00e+00	0	56	0	2999975936	37	4122
2026-01-05 12:03:20.30	344.21	28.43	-33.0	-34.1	20.9	0.00e+00	0	56	0	3005218816	37	4101
2026-01-05 12:03:21.31	344.20	28.25	-33.0	-34.0	20.9	0.00e+00	0	56	0	3010461696	37	4095
2026-01-05 12:03:22.32	344.19	28.07	-32.9	-34.0	21.0	0.00e+00	0	56	0	3016753152	37	4065
2026-01-05 12:03:23.33	344.18	27.89	-32.8	-33.9	21.1	0.00e+00	0	57	0	3021996032	37	4031
2026-01-05 12:03:24.35	344.17	27.71	-32.8	-33.9	21.1	0.00e+00	0	56	0	3028287488	37	4026
2026-01-05 12:03:25.36	344.16	27.54	-32.8	-33.9	21.1	0.00e+00	0	56	0	3033530368	37	4007
2026-01-05 12:03:26.37	344.15	27.36	-32.8	-33.9	21.1	0.00e+00	0	56	0	3038773248	37	4025
2026-01-05 12:03:27.38	344.14	27.19	-32.8	-33.9	21.0	0.00e+00	0	56	0	3045064704	37	4021
2026-01-05 12:03:28.39	344.13	27.01	-32.9	-33.9	21.0	0.00e+00	0	57	0	3050307584	37	4038
2026-01-05 12:03:29.40	344.12	26.84	-32.9	-34.0	20.9	0.00e+00	0	56	0	3056599040	37	4074
2026-01-05 12:03:30.41	344.11	26.67	-33.0	-34.1	20.8	0.00e+00	0	56	0	3061841920	37	4107
2026-01-05 12:03:31.41	344.10	26.50	-33.0	-34.1	20.8	0.00e+00	0	56	0	3068133376	37	4126
2026-01-05 12:03:32.42	344.09	26.33	-33.1	-34.2	20.7	0.00e+00	0	56	0	3073376256	37	4164
2026-01-05 12:03:33.43	344.08	26.16	-33.2	-34.3	20.6	0.00e+00	0	56	0	3078619136	37	4210
2026-01-05 12:03:34.44	344.07	26.00	-33.2	-34.3	20.6	0.00e+00	0	56	0	3084910592	37	4241
2026-01-05 12:03:35.45	344.06	25.83	-33.3	-34.4	20.5	0.00e+00	0	56	0	3090153472	37	4288
2026-01-05 12:03:36.46	344.05	25.67	-33.3	-34.4	20.4	0.00e+00	0	56	0	3096444928	37	4287
2026-01-05 12:03:37.47	344.04	25.50	-33.4	-34.5	20.3	0.00e+00	0	56	0	3101687808	37	4337
2026-01-05 12:03:38.48	344.03	25.34	-33.4	-34.5	20.4	0.00e+00	0	56	0	3106930688	37	4324
2026-01-05 12:03:39.50	344.03	25.18	-33.4	-34.6	20.3	0.00e+00	0	56	0	3113222144	37	4361
2026-01-05 12:03:40.51	344.02	25.01	-33.4	-34.6	20.3	0.00e+00	0	56	0	3118465024	37	4343
2026-01-05 12:03:41.52	344.01	24.85	-33.4	-34.6	20.3	0.00e+00	0	56	0	3124756480	37	4356
2026-01-05 12:03:42.53	344.00	24.70	-33.5	-34.6	20.2	0.00e+00	0	56	0	3129999360	37	4367
2026-01-05 12:03:43.54	343.99	24.54	-33.4	-34.6	20.2	0.00e+00	0	56	0	3135242240	37	4347
2026-01-05 12:03:44.55	343.99	24.38	-33.5	-34.6	20.2	0.00e+00	0	57	0	3141533696	37	4375
2026-01-05 12:03:45.56	343.98	24.22	-33.4	-34.6	20.2	0.00e+00	0	57	0	3146776576	37	4346
2026-01-05 12:03:46.57	343.97	24.07	-33.4	-34.6	20.2	0.00e+00	0	56	0	3153068032	37	4354
2026-01-05 12:03:47.58	343.96	23.92	-33.6	-34.7	20.0	0.00e+00	0	56	0	3158310912	37	4435
2026-01-05 12:03:48.59	343.96	23.76	-33.5	-34.6	20.1	0.00e+00	0	56	0	3164602368	37	4371
2026-01-05 12:03:49.60	343.95	23.61	-33.4	-34.5	20.1	0.00e+00	0	56	0	3169845248	37	4326
2026-01-05 12:03:50.61	343.94	23.46	-33.6	-34.8	19.8	0.00e+00	0	57	0	3176136704	37	4462
2026-01-05 12:03:51.62	343.93	23.31	-33.7	-34.9	19.7	0.00e+00	0	56	0	3181379584	38	4262
2026-01-05 12:03:52.63	343.93	23.16	-33.5	-34.7	19.8	0.00e+00	0	57	0	3186622464	38	4156
2026-01-05 12:03:53.63	343.92	23.01	-33.5	-34.7	19.7	0.00e+00	0	56	0	3192913920	38	4158
2026-01-05 12:03:54.64	343.91	22.86	-33.8	-35.0	19.3	0.00e+00	0	57	0	3198156800	38	4314
2026-01-05 12:03:55.65	343.91	22.72	-34.0	-35.2	19.0	0.00e+00	0	56	0	3204448256	38	4427
2026-01-05 12:03:56.66	343.90	22.57	-33.9	-35.2	19.0	0.00e+00	0	56	0	3209691136	38	4401
2026-01-05 12:03:57.67	343.89	22.42	-33.8	-35.1	19.0	0.00e+00	0	57	0	3214934016	38	4344
2026-01-05 12:03:58.68	343.89	22.28	-33.6	-34.9	19.1	0.00e+00	0	56	0	3221225472	38	4262
2026-01-05 12:03:59.69	343.88	22.14	-33.5	-34.8	19.2	0.00e+00	0	56	0	3226468352	38	4197
2026-01-05 12:04:00.70	343.88	21.99	-33.4	-34.7	19.2	0.00e+00	0	57	0	3232759808	38	4151
2026-01-05 12:04:01.71	343.87	21.85	-33.4	-34.7	19.1	0.00e+00	0	57	0	3238002688	38	4157
2026-01-05 12:04:02.72	343.86	21.71	-33.7	-35.0	18.7	0.00e+00	0	56	0	3243245568	38	4309
2026-01-05 12:04:03.73	343.86	21.57	-34.1	-35.4	18.2	0.00e+00	0	57	0	3249537024	38	4527
2026-01-05 12:04:04.74	343.85	21.43	-34.7	-36.2	17.2	0.00e+00	0	56	0	3254779904	39	4678
2026-01-05 12:04:05.75	343.85	21.29	-35.4	-37.1	15.9	0.00e+00	0	56	0	3261071360	41	4637
2026-01-05 12:04:06.76	343.84	21.15	-36.4	-38.3	14.5	0.00e+00	0	56	0	3266314240	43	4748
2026-01-05 12:04:07.77	343.84	21.01	-37.4	-39.8	12.8	5.26e-05	0	56	0	3272605696	45	5008
2026-01-05 12:04:08.79	343.83	20.87	-38.2	-41.3	11.0	1.05e-03	0	57	0	3277848576	46	5593
2026-01-05 12:04:09.80	343.82	20.74	-39.0	-42.9	9.1	2.05e-02	0	56	0	3284140032	48	6002
2026-01-05 12:04:10.81	343.82	20.60	-39.5	-44.3	7.4	9.20e-02	0	56	0	3289382912	49	6707
2026-01-05 12:04:11.82	343.81	20.47	-39.8	-45.8	5.9	2.65e-01	0	56	0	3294625792	50	7520
2026-01-05 12:04:12.83	343.81	20.33	-40.1	-47.3	4.9	7.61e-01	0	57	0	3296722944	50	8904
2026-01-05 12:04:13.84	343.80	20.20	-40.2	-48.6	4.3	8.22e-01	0	56	0	3296722944	50	10325
2026-01-05 12:04:14.85	343.80	20.07	-40.3	-49.8	3.8	8.43e-01	0	56	104	3296722944	51	11263
2026-01-05 12:04:15.86	343.79	19.94	-40.3	-50.7	3.8	8.45e-01	0	56	104	3296722944	51	12422
2026-01-05 12:04:16.87	343.79	19.81	-40.4	-51.3	3.8	8.47e-01	0	57	104	3296722944	51	13387
2026-01-05 12:04:17.87	343.79	19.68	-40.4	-51.8	3.8	8.46e-01	0	57	104	3296722944	51	14051
2026-01-05 12:04:18.89	343.78	19.55	-40.5	-52.0	3.8	8.46e-01	0	56	104	3296722944	51	14494
2026-01-05 12:04:19.90	343.78	19.42	-40.6	-52.2	3.8	8.46e-01	0	57	104	3296722944	51	14762
2026-01-05 12:04:20.91	343.77	19.29	-40.6	-52.2	3.8	8.46e-01	0	57	104	3296722944	51	14761
2026-01-05 12:04:21.92	343.77	19.16	-40.5	-52.3	3.8	8.45e-01	0	56	104	3296722944	51	14963
2026-01-05 12:04:22.93	343.76	19.03	-40.5	-52.0	3.8	8.47e-01	0	56	104	3296722944	51	14487
2026-01-05 12:04:23.94	343.76	18.91	-40.5	-52.3	3.8	8.46e-01	0	56	104	3296722944	51	15049
2026-01-05 12:04:24.95	343.75	18.78	-40.5	-52.2	3.8	8.46e-01	0	56	104	3296722944	51	14709
2026-01-05 12:04:25.96	343.75	18.66	-40.5	-52.2	3.8	8.46e-01	0	56	104	3296722944	51	14779
2026-01-05 12:04:26.97	343.75	18.53	-40.6	-52.3	3.8	8.46e-01	0	57	104	3296722944	51	14934
2026-01-05 12:04:27.98	343.74	18.41	-40.5	-52.2	3.8	8.46e-01	0	56	104	3296722944	51	14793
2026-01-05 12:04:28.99	343.74	18.29	-40.7	-52.4	3.8	8.46e-01	0	57	104	3296722944	51	15069
2026-01-05 12:04:30.00	343.73	18.16	-40.6	-52.4	3.8	8.46e-01	0	57	104	3296722944	52	14218
2026-01-05 12:04:31.01	343.73	18.04	-40.4	-52.1	3.8	8.46e-01	0	57	104	3296722944	52	13745
2026-01-05 12:04:32.02	343.73	17.92	-40.5	-52.3	3.8	8.47e-01	0	57	104	3296722944	52	14147
2026-01-05 12:04:33.03	343.72	17.80	-40.4	-52.1	3.8	8.45e-01	0	57	104	3296722944	52	13762
2026-01-05 12:04:34.03	343.72	17.68	-40.1	-52.3	3.8	8.46e-01	0	56	104	3296722944	52	14158
2026-01-05 12:04:35.04	343.72	17.56	-41.0	-52.6	3.8	8.47e-01	0	56	104	3296722944	52	14635
2026-01-05 12:04:36.05	343.71	17.44	-40.1	-52.3	3.8	8.44e-01	0	57	104	3296722944	52	14158
2026-01-05 12:04:37.06	343.71	17.32	-41.0	-52.6	3.8	8.47e-01	0	57	104	3296722944	52	14608
2026-01-05 12:04:38.07	343.71	17.20	-40.6	-52.3	3.8	8.45e-01	0	57	104	3296722944	52	14051
2026-01-05 12:04:39.08	343.70	17.09	-40.5	-52.2	3.8	8.45e-01	0	56	104	3296722944	52	14036
2026-01-05 12:04:40.09	343.70	16.97	-40.7	-52.3	3.8	8.46e-01	0	56	104	3296722944	52	14115
2026-01-05 12:04:41.10	343.70	16.85	-40.5	-52.3	3.8	8.46e-01	0	57	104	3296722944	52	14115
2026-01-05 12:04:42.11	343.69	16.74	-40.2	-52.3	3.8	8.47e-01	0	56	104	3296722944	52	14115
2026-01-05 12:04:43.12	343.69	16.62	-40.8	-52.4	3.8	8.46e-01	0	56	104	3296722944	52	14257
2026-01-05 12:04:44.13	343.69	16.51	-40.3	-52.3	3.8	8.46e-01	0	57	104	3296722944	52	14132
