passes_logs/2026/01/05/R2.0S_Moscow/R2.0S_Moscow__20260105_101437_FENGYUN_3D_rec.log

#Pass ID: 20260105_101437_FENGYUN 3D
#Satellite: FENGYUN 3D
#Configuration: FENGYUN 3D
#almurnet v.1.7.20251203
#Start time: 2026-01-05 10:14:37

#Version: 2.2.20231116
#Station: R2.0S_Moscow
#Location: 37.707566 lon 55.798166 lat
#TLE: 1 43010U 17072A   26004.50247883 -.00000063  00000+0 -78815-5 0  9998
#TLE: 2 43010  98.9915 336.1565 0001968 126.3752 233.7605 14.19691805421760

#Time	Az	El	Level	Level2	SNR	BER	BlckErr	Temp	State	Recorded	gain1	gain2
2026-01-05 10:14:37.64	110.54	2.03	-34.9	-49.9	4.0	8.41e-01	0	46	0	0	46	15181
2026-01-05 10:14:38.66	110.47	2.09	-38.0	-50.7	4.0	8.42e-01	0	47	104	0	44	18528
2026-01-05 10:14:39.67	110.40	2.15	-37.2	-50.8	4.0	8.42e-01	0	47	104	0	44	18776
2026-01-05 10:14:40.68	110.33	2.21	-33.5	-50.2	4.1	8.40e-01	0	47	104	0	39	23360
2026-01-05 10:14:41.69	110.27	2.26	-35.6	-49.5	3.9	8.40e-01	0	47	104	0	41	19321
2026-01-05 10:14:42.70	110.20	2.32	-33.7	-48.7	4.0	8.39e-01	0	47	104	0	43	15587
2026-01-05 10:14:43.71	110.13	2.38	-34.2	-46.4	4.1	8.43e-01	0	47	104	0	35	18965
2026-01-05 10:14:44.72	110.06	2.43	-38.0	-51.2	4.2	8.41e-01	0	48	104	0	45	18672
2026-01-05 10:14:45.74	109.99	2.49	-33.3	-49.6	4.0	8.40e-01	0	48	104	0	45	15497
2026-01-05 10:14:46.74	109.92	2.55	-36.0	-51.2	4.3	8.43e-01	0	48	104	0	40	24823
2026-01-05 10:14:47.76	109.84	2.61	-38.9	-52.0	4.0	8.40e-01	0	48	104	0	44	21514
2026-01-05 10:14:48.77	109.77	2.66	-37.5	-50.6	3.8	8.41e-01	0	48	104	0	45	17390
2026-01-05 10:14:49.78	109.70	2.72	-36.5	-51.1	4.0	8.41e-01	0	48	104	0	44	19550
2026-01-05 10:14:50.79	109.63	2.78	-36.0	-50.8	4.1	8.38e-01	0	48	104	0	39	25046
2026-01-05 10:14:51.80	109.56	2.84	-35.8	-49.2	4.1	8.40e-01	0	48	104	0	41	18620
2026-01-05 10:14:52.81	109.48	2.89	-37.1	-51.4	4.1	8.39e-01	0	48	104	0	46	17904
2026-01-05 10:14:53.82	109.41	2.95	-34.8	-49.7	3.7	8.41e-01	0	48	104	0	39	22124
2026-01-05 10:14:54.83	109.34	3.01	-36.0	-49.8	4.1	8.39e-01	0	48	104	0	44	16707
2026-01-05 10:14:55.85	109.26	3.07	-37.2	-50.1	4.1	8.39e-01	0	48	104	0	41	20612
2026-01-05 10:14:56.86	109.19	3.13	-32.3	-47.3	4.0	8.36e-01	0	48	104	0	35	21041
2026-01-05 10:14:57.87	109.12	3.18	-37.2	-50.2	4.1	8.41e-01	0	48	104	0	42	19647
2026-01-05 10:14:58.88	109.04	3.24	-31.4	-47.4	4.0	8.41e-01	0	49	104	0	29	30207
2026-01-05 10:14:59.89	108.97	3.30	-34.9	-50.4	4.0	8.40e-01	0	49	104	0	41	21494
2026-01-05 10:15:00.90	108.89	3.36	-37.1	-50.7	4.1	8.40e-01	0	49	104	0	40	23550
2026-01-05 10:15:01.91	108.82	3.42	-32.5	-48.0	4.4	8.37e-01	0	49	104	0	43	14462
2026-01-05 10:15:02.92	108.74	3.47	-30.2	-47.7	4.3	8.40e-01	0	49	104	0	31	27864
2026-01-05 10:15:03.93	108.67	3.53	-37.9	-50.3	4.1	8.40e-01	0	49	104	0	45	16809
2026-01-05 10:15:04.94	108.59	3.59	-36.0	-50.7	4.1	8.39e-01	0	49	104	0	45	17655
2026-01-05 10:15:05.96	108.51	3.65	-35.6	-49.4	3.9	8.41e-01	0	49	104	0	45	15054
2026-01-05 10:15:06.97	108.44	3.71	-37.8	-50.1	4.3	8.40e-01	0	49	104	0	34	31078
2026-01-05 10:15:07.98	108.36	3.77	-31.1	-49.2	4.0	8.38e-01	0	49	104	0	40	19655
2026-01-05 10:15:08.99	108.28	3.83	-36.3	-49.5	4.1	8.42e-01	0	49	104	0	41	19226
2026-01-05 10:15:10.00	108.21	3.89	-36.4	-50.8	4.2	8.42e-01	0	49	104	0	41	22372
2026-01-05 10:15:11.01	108.13	3.95	-36.8	-50.9	4.1	8.37e-01	0	49	104	0	43	20162
2026-01-05 10:15:12.02	108.05	4.01	-37.6	-51.2	4.0	8.41e-01	0	49	104	0	43	20939
2026-01-05 10:15:13.03	107.97	4.06	-35.4	-51.0	4.0	8.39e-01	0	49	104	0	42	21713
2026-01-05 10:15:14.05	107.89	4.12	-37.7	-50.9	3.9	8.40e-01	0	49	104	0	42	21298
2026-01-05 10:15:15.06	107.81	4.18	-36.2	-48.7	3.6	8.40e-01	0	50	104	0	28	37034
2026-01-05 10:15:16.07	107.73	4.24	-36.9	-50.3	4.1	8.38e-01	0	50	104	0	44	17882
2026-01-05 10:15:17.08	107.65	4.30	-36.7	-50.5	4.1	8.38e-01	0	50	104	0	45	17234
2026-01-05 10:15:18.09	107.57	4.36	-30.3	-44.8	3.8	8.41e-01	0	50	104	0	41	11217
2026-01-05 10:15:19.10	107.49	4.42	-36.4	-50.9	4.3	8.38e-01	0	50	104	0	44	19136
2026-01-05 10:15:20.11	107.41	4.48	-28.6	-46.7	3.7	8.37e-01	0	50	104	0	33	22115
2026-01-05 10:15:21.12	107.33	4.54	-36.8	-50.8	4.2	8.39e-01	0	50	104	0	45	17846
2026-01-05 10:15:22.13	107.25	4.60	-35.6	-49.4	4.0	8.40e-01	0	50	104	0	44	16065
2026-01-05 10:15:23.14	107.17	4.66	-34.6	-49.5	4.1	8.39e-01	0	50	104	0	40	20494
2026-01-05 10:15:24.15	107.08	4.72	-38.5	-51.2	3.9	8.39e-01	0	50	104	0	46	17499
2026-01-05 10:15:25.16	107.00	4.78	-37.4	-51.5	3.9	8.41e-01	0	50	104	0	46	18239
2026-01-05 10:15:26.18	106.92	4.84	-36.2	-51.3	4.1	8.38e-01	0	50	104	0	43	21151
2026-01-05 10:15:27.19	106.83	4.90	-37.5	-50.9	4.2	8.38e-01	0	50	104	0	40	23965
2026-01-05 10:15:28.20	106.75	4.96	-37.1	-51.3	4.0	8.40e-01	0	50	104	0	43	21149
2026-01-05 10:15:29.21	106.67	5.02	-36.9	-51.7	3.9	8.42e-01	0	50	104	0	45	19615
2026-01-05 10:15:30.22	106.58	5.09	-36.6	-50.8	4.0	8.38e-01	0	50	104	0	42	21095
2026-01-05 10:15:31.23	106.50	5.15	-36.7	-50.6	3.6	8.40e-01	0	51	104	0	36	29287
2026-01-05 10:15:32.24	106.41	5.21	-38.0	-51.6	3.8	8.40e-01	0	50	104	0	46	18467
2026-01-05 10:15:33.25	106.33	5.27	-37.2	-49.4	4.0	8.40e-01	0	51	104	0	43	16902
2026-01-05 10:15:34.26	106.24	5.33	-35.0	-49.7	4.0	8.42e-01	0	51	104	0	42	18621
2026-01-05 10:15:35.27	106.15	5.39	-30.1	-48.1	4.0	8.41e-01	0	51	104	0	35	23120
2026-01-05 10:15:36.29	106.07	5.45	-31.4	-48.9	4.0	8.42e-01	0	51	104	0	36	24116
2026-01-05 10:15:37.30	105.98	5.51	-37.9	-51.2	4.2	8.39e-01	0	51	104	0	46	17576
2026-01-05 10:15:38.31	105.89	5.57	-36.2	-50.4	4.0	8.39e-01	0	51	104	0	40	22603
2026-01-05 10:15:39.32	105.81	5.64	-34.5	-50.1	4.1	8.41e-01	0	51	104	0	44	17329
2026-01-05 10:15:40.33	105.72	5.70	-37.5	-51.4	4.1	8.40e-01	0	51	104	0	45	19160
2026-01-05 10:15:41.34	105.63	5.76	-38.3	-51.2	3.8	8.39e-01	0	51	104	0	44	19776
2026-01-05 10:15:42.35	105.54	5.82	-38.6	-51.4	3.3	8.39e-01	0	51	104	0	42	22721
2026-01-05 10:15:43.36	105.45	5.88	-36.3	-51.3	3.9	8.41e-01	0	51	104	0	45	18823
2026-01-05 10:15:44.37	105.36	5.94	-37.0	-51.0	3.8	8.39e-01	0	51	104	0	45	18220
2026-01-05 10:15:45.38	105.27	6.01	-37.3	-47.8	3.8	8.40e-01	0	51	104	0	35	22391
2026-01-05 10:15:46.39	105.18	6.07	-37.5	-50.6	4.0	8.41e-01	0	51	104	0	42	20747
2026-01-05 10:15:47.41	105.09	6.13	-37.1	-51.0	3.7	8.41e-01	0	51	104	0	44	19348
2026-01-05 10:15:48.42	105.00	6.19	-36.8	-50.9	3.8	8.40e-01	0	51	104	0	42	21277
2026-01-05 10:15:49.43	104.91	6.25	-36.1	-50.5	4.0	8.41e-01	0	52	104	0	41	21530
2026-01-05 10:15:50.44	104.81	6.32	-37.2	-48.9	4.0	8.39e-01	0	51	104	0	40	18989
2026-01-05 10:15:51.45	104.72	6.38	-36.2	-50.7	4.0	8.39e-01	0	51	104	0	42	20956
2026-01-05 10:15:52.46	104.63	6.44	-34.1	-50.3	4.1	8.41e-01	0	51	104	0	44	17866
2026-01-05 10:15:53.47	104.53	6.50	-34.4	-49.8	3.8	8.41e-01	0	52	104	0	39	22420
2026-01-05 10:15:54.48	104.44	6.57	-35.8	-49.8	4.0	8.40e-01	0	52	104	0	41	19909
2026-01-05 10:15:55.49	104.35	6.63	-34.9	-50.6	4.0	8.41e-01	0	51	104	0	37	27570
2026-01-05 10:15:56.51	104.25	6.69	-37.5	-50.5	4.1	8.42e-01	0	51	104	0	41	21602
2026-01-05 10:15:57.52	104.16	6.75	-33.3	-48.8	4.1	8.39e-01	0	52	104	0	38	21096
2026-01-05 10:15:58.53	104.06	6.82	-30.9	-48.7	4.3	8.40e-01	0	52	104	0	38	20851
2026-01-05 10:15:59.54	103.97	6.88	-35.0	-50.2	3.9	8.40e-01	0	52	104	0	40	22096
2026-01-05 10:16:00.55	103.87	6.94	-36.9	-51.3	3.9	8.41e-01	0	52	104	0	44	19892
2026-01-05 10:16:01.56	103.77	7.01	-37.3	-51.1	4.2	8.39e-01	0	52	104	0	44	19410
2026-01-05 10:16:02.57	103.68	7.07	-32.9	-49.6	4.1	8.39e-01	0	52	104	0	43	17305
2026-01-05 10:16:03.58	103.58	7.13	-38.3	-51.0	3.8	8.41e-01	0	52	104	0	45	18162
2026-01-05 10:16:04.59	103.48	7.20	-35.9	-50.6	4.0	8.42e-01	0	52	104	0	41	21786
2026-01-05 10:16:05.61	103.38	7.26	-33.8	-46.4	3.8	8.40e-01	0	52	104	0	39	15081
2026-01-05 10:16:06.62	103.28	7.32	-31.4	-47.1	3.9	8.41e-01	0	52	104	0	42	13837
2026-01-05 10:16:07.63	103.18	7.39	-30.5	-46.3	4.0	8.41e-01	0	52	104	0	41	13412
2026-01-05 10:16:08.64	103.08	7.45	-37.1	-47.1	4.1	8.42e-01	0	52	104	0	39	16475
2026-01-05 10:16:09.65	102.98	7.51	-33.3	-43.3	4.1	8.40e-01	0	52	104	0	39	10643
2026-01-05 10:16:10.66	102.88	7.58	-35.2	-45.2	4.5	8.35e-01	0	52	104	0	40	12462
2026-01-05 10:16:11.67	102.78	7.64	-36.4	-43.6	6.5	6.52e-01	0	52	0	0	43	8710
2026-01-05 10:16:12.68	102.68	7.71	-33.9	-40.6	6.3	4.91e-01	0	52	0	1048576	31	12334
2026-01-05 10:16:13.69	102.58	7.77	-35.4	-40.3	8.1	2.60e-01	0	52	0	5242880	38	7917
2026-01-05 10:16:14.70	102.48	7.83	-32.7	-38.4	9.3	1.81e-01	0	52	0	10485760	34	8043
2026-01-05 10:16:15.71	102.37	7.90	-29.2	-37.9	8.7	1.01e-01	0	52	0	15728640	32	8466
2026-01-05 10:16:16.72	102.27	7.96	-35.3	-39.1	9.4	1.21e-01	0	53	0	20971520	39	6507
2026-01-05 10:16:17.73	102.17	8.03	-35.3	-39.1	9.7	1.84e-01	0	52	0	26214400	39	6524
2026-01-05 10:16:18.74	102.06	8.09	-38.9	-51.1	4.0	4.99e-01	0	53	104	29360128	44	19536
2026-01-05 10:16:19.76	101.96	8.16	-38.8	-50.5	3.9	8.41e-01	0	52	104	29360128	47	15243
2026-01-05 10:16:20.77	101.85	8.22	-36.2	-40.5	9.3	2.06e-01	0	52	0	31457280	40	7249
2026-01-05 10:16:21.78	101.74	8.29	-37.7	-43.8	6.6	3.83e-01	0	53	0	34603008	42	9398
2026-01-05 10:16:22.79	101.64	8.35	-35.3	-42.9	6.0	1.85e-01	0	53	0	38797312	40	9585
2026-01-05 10:16:23.80	101.53	8.42	-35.6	-43.0	6.3	7.24e-01	0	52	0	38797312	39	10200
2026-01-05 10:16:24.81	101.42	8.48	-36.2	-43.9	6.0	6.19e-01	0	53	0	40894464	41	10150
2026-01-05 10:16:25.82	101.32	8.55	-34.8	-42.9	6.2	6.33e-01	0	53	0	41943040	42	8549
2026-01-05 10:16:26.83	101.21	8.61	-36.5	-43.4	4.5	7.03e-01	0	53	104	42991616	42	9034
2026-01-05 10:16:27.84	101.10	8.68	-36.4	-44.3	5.5	7.11e-01	0	53	0	42991616	41	10579
2026-01-05 10:16:28.85	100.99	8.74	-35.0	-45.4	4.3	8.32e-01	0	53	104	42991616	43	10719
2026-01-05 10:16:29.86	100.88	8.81	-36.2	-47.6	4.2	8.40e-01	0	53	104	42991616	42	14621
2026-01-05 10:16:30.87	100.77	8.87	-36.2	-47.0	4.2	8.39e-01	0	53	104	42991616	42	13705
2026-01-05 10:16:31.88	100.66	8.94	-36.4	-44.4	5.5	8.33e-01	0	53	104	42991616	43	9561
2026-01-05 10:16:32.89	100.55	9.00	-35.0	-43.1	6.2	6.77e-01	0	53	0	42991616	38	10931
2026-01-05 10:16:33.90	100.44	9.07	-35.4	-42.3	4.8	8.35e-01	0	53	104	42991616	31	15014
2026-01-05 10:16:34.91	100.33	9.13	-25.2	-39.9	6.3	6.53e-01	0	53	0	42991616	31	11337
2026-01-05 10:16:35.92	100.21	9.20	-33.6	-39.3	8.3	4.45e-01	0	53	0	45088768	41	5935
2026-01-05 10:16:36.93	100.10	9.26	-34.8	-38.7	9.9	4.87e-01	0	53	0	48234496	39	6220
2026-01-05 10:16:37.94	99.99	9.33	-34.3	-38.5	9.8	1.96e-01	0	53	0	52428800	38	6429
2026-01-05 10:16:38.95	99.87	9.40	-31.9	-37.8	9.8	2.73e-01	0	53	0	57671680	33	7945
2026-01-05 10:16:39.96	99.76	9.46	-34.7	-39.1	9.5	2.29e-01	0	53	0	61865984	40	6136
2026-01-05 10:16:40.97	99.64	9.53	-28.5	-37.4	5.5	3.33e-01	0	53	0	66060288	31	8509
2026-01-05 10:16:41.98	99.53	9.59	-25.0	-35.8	4.9	7.32e-01	0	53	0	68157440	21	12612
2026-01-05 10:16:42.99	99.41	9.66	-34.4	-38.2	6.5	4.43e-01	0	53	0	71303168	29	10533
2026-01-05 10:16:44.00	99.29	9.73	-34.4	-38.4	9.5	1.85e-01	0	53	0	75497472	38	6417
2026-01-05 10:16:45.01	99.18	9.79	-34.0	-38.9	10.3	2.00e-01	0	53	0	79691776	38	6735
2026-01-05 10:16:46.02	99.06	9.86	-34.6	-38.8	9.0	2.20e-01	0	53	0	84934656	38	6681
2026-01-05 10:16:47.03	98.94	9.92	-31.2	-38.9	9.9	2.88e-01	0	53	0	89128960	38	6778
2026-01-05 10:16:48.03	98.82	9.99	-33.7	-37.7	7.2	3.93e-01	0	53	0	94371840	27	11156
2026-01-05 10:16:49.04	98.70	10.06	-34.5	-38.6	10.1	1.66e-01	0	53	0	98566144	38	6570
2026-01-05 10:16:50.05	98.58	10.12	-34.2	-38.3	10.2	1.27e-01	0	54	0	103809024	37	6712
2026-01-05 10:16:51.07	98.46	10.19	-32.7	-38.5	8.8	1.58e-01	0	53	0	109051904	37	6840
2026-01-05 10:16:52.08	98.34	10.26	-34.4	-38.2	10.5	1.56e-01	0	53	0	114294784	37	6642
2026-01-05 10:16:53.09	98.22	10.32	-34.5	-38.5	9.3	3.27e-01	0	53	0	118489088	36	7222
2026-01-05 10:16:54.10	98.09	10.39	-24.0	-35.6	4.9	5.85e-01	0	53	0	121634816	18	14547
2026-01-05 10:16:55.11	97.97	10.46	-24.5	-36.0	5.3	6.59e-02	0	53	0	125829120	21	12956
2026-01-05 10:16:56.12	97.85	10.52	-28.9	-37.6	10.5	1.67e-01	0	53	0	130023424	37	6147
2026-01-05 10:16:57.13	97.72	10.59	-33.9	-38.4	11.5	7.59e-02	0	53	0	135266304	37	6773
2026-01-05 10:16:58.14	97.60	10.66	-35.0	-38.4	12.3	5.32e-02	0	53	0	141557760	40	5683
2026-01-05 10:16:59.15	97.47	10.72	-33.4	-38.2	11.1	7.37e-02	0	54	0	146800640	37	6609
2026-01-05 10:17:00.16	97.35	10.79	-35.3	-38.0	12.6	4.03e-02	0	54	0	152043520	40	5449
2026-01-05 10:17:01.17	97.22	10.86	-35.5	-38.0	13.3	9.39e-03	0	54	0	158334976	41	5110
2026-01-05 10:17:02.18	97.09	10.93	-35.6	-37.8	11.6	6.66e-03	0	54	0	163577856	40	5336
2026-01-05 10:17:03.19	96.97	10.99	-34.9	-38.0	13.7	5.26e-03	0	54	0	168820736	40	5405
2026-01-05 10:17:04.19	96.84	11.06	-35.8	-37.9	14.2	3.04e-03	0	54	0	175112192	42	4790
2026-01-05 10:17:05.20	96.71	11.13	-35.3	-37.8	14.0	1.08e-03	0	54	0	180355072	42	4716
2026-01-05 10:17:06.21	96.58	11.19	-35.8	-37.9	14.4	7.16e-04	0	54	0	186646528	42	4790
2026-01-05 10:17:07.22	96.45	11.26	-35.8	-37.9	14.8	4.62e-04	0	54	0	191889408	42	4770
2026-01-05 10:17:08.23	96.32	11.33	-35.7	-37.7	14.8	2.82e-04	0	54	0	198180864	42	4693
2026-01-05 10:17:09.24	96.19	11.40	-35.9	-37.8	15.0	3.51e-04	0	54	0	203423744	42	4729
2026-01-05 10:17:10.25	96.06	11.46	-36.0	-38.0	14.9	4.46e-05	0	54	0	209715200	42	4847
2026-01-05 10:17:11.26	95.92	11.53	-36.0	-38.0	15.0	5.14e-05	0	54	0	214958080	42	4815
2026-01-05 10:17:12.27	95.79	11.60	-36.1	-38.0	15.0	8.81e-05	0	54	0	220200960	42	4860
2026-01-05 10:17:13.28	95.66	11.67	-36.1	-38.0	15.0	1.10e-06	0	54	0	226492416	42	4866
2026-01-05 10:17:14.29	95.52	11.73	-36.3	-38.2	14.9	1.10e-06	0	54	0	231735296	43	4673
2026-01-05 10:17:15.30	95.39	11.80	-36.2	-38.2	15.0	0.00e+00	0	54	0	238026752	43	4675
2026-01-05 10:17:16.31	95.25	11.87	-36.3	-38.3	14.9	1.10e-06	0	54	0	243269632	43	4713
2026-01-05 10:17:17.32	95.12	11.94	-36.2	-38.1	15.0	0.00e+00	0	54	0	248512512	43	4628
2026-01-05 10:17:18.33	94.98	12.00	-36.2	-38.1	15.1	0.00e+00	0	54	0	254803968	43	4613
2026-01-05 10:17:19.34	94.84	12.07	-36.1	-38.0	15.2	0.00e+00	0	54	0	260046848	43	4555
2026-01-05 10:17:20.35	94.70	12.14	-36.1	-38.1	15.2	0.00e+00	0	54	0	266338304	43	4599
2026-01-05 10:17:21.36	94.56	12.21	-36.2	-38.1	15.1	0.00e+00	0	54	0	271581184	43	4633
2026-01-05 10:17:22.37	94.42	12.28	-36.2	-38.1	15.2	0.00e+00	0	54	0	276824064	43	4604
2026-01-05 10:17:23.38	94.28	12.34	-36.1	-38.0	15.3	0.00e+00	0	54	0	283115520	43	4554
2026-01-05 10:17:24.39	94.14	12.41	-36.0	-37.8	15.4	0.00e+00	0	54	0	288358400	43	4479
2026-01-05 10:17:25.40	94.00	12.48	-35.9	-37.7	15.5	0.00e+00	0	54	0	294649856	43	4436
2026-01-05 10:17:26.41	93.86	12.55	-35.9	-37.7	15.6	0.00e+00	0	54	0	299892736	43	4417
2026-01-05 10:17:27.42	93.72	12.61	-35.9	-37.7	15.6	0.00e+00	0	54	0	306184192	43	4424
2026-01-05 10:17:28.43	93.57	12.68	-35.9	-37.7	15.6	0.00e+00	0	54	0	311427072	43	4429
2026-01-05 10:17:29.44	93.43	12.75	-35.8	-37.6	15.6	0.00e+00	0	54	0	316669952	43	4386
2026-01-05 10:17:30.45	93.29	12.82	-35.8	-37.5	15.7	0.00e+00	0	54	0	322961408	43	4338
2026-01-05 10:17:31.46	93.14	12.89	-35.8	-37.6	15.7	0.00e+00	0	54	0	328204288	43	4360
2026-01-05 10:17:32.47	92.99	12.95	-35.9	-37.7	15.5	0.00e+00	0	54	0	334495744	43	4427
2026-01-05 10:17:33.48	92.85	13.02	-35.8	-37.5	15.7	0.00e+00	0	54	0	339738624	43	4339
2026-01-05 10:17:34.49	92.70	13.09	-35.9	-37.7	15.6	0.00e+00	0	54	0	346030080	43	4404
2026-01-05 10:17:35.50	92.55	13.16	-35.6	-37.4	15.8	0.00e+00	0	54	0	351272960	43	4260
2026-01-05 10:17:36.51	92.40	13.23	-35.8	-37.6	15.6	0.00e+00	0	54	0	356515840	43	4366
2026-01-05 10:17:37.52	92.25	13.29	-35.6	-37.4	15.8	0.00e+00	0	54	0	362807296	43	4260
2026-01-05 10:17:38.54	92.10	13.36	-35.8	-37.6	15.6	0.00e+00	0	54	0	368050176	43	4363
2026-01-05 10:17:39.54	91.95	13.43	-35.8	-37.6	15.6	0.00e+00	0	54	0	373293056	43	4359
2026-01-05 10:17:40.55	91.80	13.50	-35.6	-37.4	15.8	0.00e+00	0	54	0	379584512	43	4255
2026-01-05 10:17:41.56	91.65	13.57	-35.6	-37.4	15.8	0.00e+00	0	54	0	384827392	43	4257
2026-01-05 10:17:42.57	91.49	13.63	-35.8	-37.7	15.5	0.00e+00	0	54	0	391118848	43	4404
2026-01-05 10:17:43.58	91.34	13.70	-35.8	-37.6	15.5	0.00e+00	0	55	0	396361728	43	4387
2026-01-05 10:17:44.59	91.19	13.77	-35.6	-37.3	15.8	0.00e+00	0	54	0	402653184	43	4233
2026-01-05 10:17:45.61	91.03	13.84	-35.3	-37.0	16.1	0.00e+00	0	54	0	407896064	42	4305
2026-01-05 10:17:46.62	90.87	13.91	-35.2	-36.9	16.2	0.00e+00	0	55	0	414187520	42	4252
2026-01-05 10:17:47.63	90.72	13.97	-35.2	-36.9	16.2	0.00e+00	0	55	0	419430400	42	4284
2026-01-05 10:17:48.64	90.56	14.04	-35.3	-37.0	16.1	0.00e+00	0	55	0	424673280	42	4324
2026-01-05 10:17:49.65	90.40	14.11	-35.3	-37.0	16.0	0.00e+00	0	55	0	430964736	42	4337
2026-01-05 10:17:50.65	90.24	14.18	-35.1	-36.8	16.1	0.00e+00	0	54	0	436207616	42	4242
2026-01-05 10:17:51.66	90.08	14.24	-35.0	-36.7	16.3	0.00e+00	0	55	0	442499072	42	4155
2026-01-05 10:17:52.68	89.92	14.31	-34.9	-36.6	16.3	0.00e+00	0	55	0	447741952	41	4375
2026-01-05 10:17:53.69	89.76	14.38	-35.1	-36.9	16.1	0.00e+00	0	55	0	452984832	41	4510
2026-01-05 10:17:54.70	89.60	14.45	-35.5	-37.4	15.6	0.00e+00	0	54	0	459276288	41	4760
2026-01-05 10:17:55.71	89.44	14.51	-35.8	-37.6	15.3	0.00e+00	0	55	0	464519168	42	4646
2026-01-05 10:17:56.72	89.27	14.58	-36.1	-38.0	14.9	0.00e+00	0	55	0	470810624	42	4868
2026-01-05 10:17:57.73	89.11	14.65	-36.2	-38.2	14.7	0.00e+00	0	55	0	476053504	43	4677
2026-01-05 10:17:58.74	88.94	14.72	-36.2	-38.1	14.8	0.00e+00	0	55	0	481296384	43	4644
2026-01-05 10:17:59.75	88.78	14.78	-36.1	-38.0	14.8	2.20e-06	0	55	0	487587840	43	4598
2026-01-05 10:18:00.76	88.61	14.85	-36.0	-38.0	14.8	1.10e-06	0	55	0	492830720	43	4561
2026-01-05 10:18:01.76	88.45	14.92	-35.9	-37.8	14.9	0.00e+00	0	55	0	499122176	43	4486
2026-01-05 10:18:02.77	88.28	14.99	-36.0	-37.9	14.8	1.10e-06	0	55	0	504365056	43	4529
2026-01-05 10:18:03.78	88.11	15.05	-36.1	-38.1	14.5	1.10e-06	0	55	0	510656512	43	4617
2026-01-05 10:18:04.80	87.94	15.12	-36.3	-38.3	14.2	2.20e-06	0	55	0	515899392	43	4753
2026-01-05 10:18:05.80	87.77	15.19	-36.4	-38.5	13.9	5.70e-06	0	55	0	522190848	43	4858
2026-01-05 10:18:06.81	87.60	15.25	-36.4	-38.5	13.8	5.70e-06	0	55	0	527433728	43	4868
2026-01-05 10:18:07.82	87.43	15.32	-36.4	-38.6	13.7	1.14e-05	0	55	0	532676608	43	4885
2026-01-05 10:18:08.83	87.25	15.39	-36.5	-38.7	13.6	8.00e-06	0	55	0	538968064	43	4966
2026-01-05 10:18:09.84	87.08	15.45	-36.6	-38.9	13.3	2.86e-05	0	55	0	544210944	43	5086
2026-01-05 10:18:10.85	86.91	15.52	-36.6	-39.0	13.1	3.43e-05	0	55	0	550502400	43	5146
2026-01-05 10:18:11.86	86.73	15.59	-36.9	-39.3	12.9	7.78e-05	0	55	0	555745280	44	5033
2026-01-05 10:18:12.87	86.56	15.65	-37.1	-39.6	12.5	1.36e-04	0	55	0	560988160	44	5196
2026-01-05 10:18:13.88	86.38	15.72	-37.2	-39.9	12.2	2.87e-04	0	55	0	567279616	45	5055
2026-01-05 10:18:14.89	86.20	15.79	-37.3	-40.0	12.0	4.51e-04	0	55	0	572522496	45	5135
2026-01-05 10:18:15.90	86.03	15.85	-37.3	-40.1	11.9	5.76e-04	0	55	0	578813952	45	5175
2026-01-05 10:18:16.91	85.85	15.92	-37.4	-40.1	11.8	6.65e-04	0	55	0	584056832	45	5198
2026-01-05 10:18:17.92	85.67	15.98	-37.4	-40.2	11.7	8.57e-04	0	55	0	589299712	45	5247
2026-01-05 10:18:18.93	85.49	16.05	-37.4	-40.2	11.7	9.13e-04	0	55	0	595591168	45	5251
2026-01-05 10:18:19.94	85.31	16.11	-37.4	-40.1	11.8	8.99e-04	0	55	0	600834048	45	5200
2026-01-05 10:18:20.95	85.12	16.18	-37.2	-39.9	12.2	4.07e-04	0	55	0	607125504	45	5051
2026-01-05 10:18:21.96	84.94	16.25	-37.2	-39.8	12.4	2.75e-04	0	55	0	612368384	45	4998
2026-01-05 10:18:22.97	84.76	16.31	-37.3	-39.8	12.4	2.25e-04	0	55	0	618659840	45	5035
2026-01-05 10:18:23.98	84.57	16.38	-37.1	-39.6	12.7	1.92e-04	0	55	0	623902720	45	4901
2026-01-05 10:18:24.99	84.39	16.44	-37.0	-39.4	13.1	6.29e-05	0	55	0	629145600	45	4776
2026-01-05 10:18:26.00	84.20	16.51	-36.9	-39.2	13.4	2.40e-05	0	55	0	635437056	45	4666
2026-01-05 10:18:27.01	84.01	16.57	-37.0	-39.2	13.4	2.05e-05	0	55	0	640679936	45	4703
2026-01-05 10:18:28.02	83.83	16.64	-37.1	-39.3	13.4	2.51e-05	0	55	0	646971392	45	4757
2026-01-05 10:18:29.03	83.64	16.70	-36.8	-39.0	13.7	6.80e-06	0	55	0	652214272	45	4579
2026-01-05 10:18:30.05	83.45	16.77	-36.7	-38.9	13.9	1.02e-05	0	55	0	658505728	45	4507
2026-01-05 10:18:31.06	83.26	16.83	-36.7	-38.8	14.0	6.80e-06	0	55	0	663748608	45	4463
2026-01-05 10:18:32.07	83.07	16.89	-36.7	-38.8	14.1	5.70e-06	0	55	0	668991488	45	4452
2026-01-05 10:18:33.08	82.87	16.96	-36.5	-38.6	14.3	0.00e+00	0	55	0	675282944	45	4372
2026-01-05 10:18:34.09	82.68	17.02	-36.4	-38.5	14.5	1.10e-06	0	55	0	680525824	44	4557
2026-01-05 10:18:35.10	82.49	17.09	-36.4	-38.4	14.6	0.00e+00	0	55	0	686817280	44	4513
2026-01-05 10:18:36.11	82.29	17.15	-36.1	-38.1	14.9	0.00e+00	0	55	0	692060160	44	4349
2026-01-05 10:18:37.12	82.10	17.21	-35.8	-37.7	15.2	0.00e+00	0	55	0	697303040	43	4396
2026-01-05 10:18:38.13	81.90	17.27	-35.8	-37.7	15.2	0.00e+00	0	55	0	703594496	43	4413
2026-01-05 10:18:39.14	81.71	17.34	-36.0	-37.9	14.9	0.00e+00	0	55	0	708837376	43	4505
2026-01-05 10:18:40.15	81.51	17.40	-36.2	-38.2	14.5	1.10e-06	0	55	0	715128832	43	4681
2026-01-05 10:18:41.16	81.31	17.46	-36.4	-38.5	14.1	0.00e+00	0	55	0	720371712	43	4853
2026-01-05 10:18:42.17	81.11	17.53	-36.3	-38.4	14.1	4.50e-06	0	55	0	726663168	43	4794
2026-01-05 10:18:43.18	80.91	17.59	-36.2	-38.2	14.2	1.10e-06	0	55	0	731906048	43	4703
2026-01-05 10:18:44.19	80.71	17.65	-36.2	-38.4	13.9	5.70e-06	0	55	0	737148928	43	4769
2026-01-05 10:18:45.20	80.51	17.71	-36.3	-38.5	13.7	1.02e-05	0	55	0	743440384	43	4826
2026-01-05 10:18:46.20	80.31	17.77	-36.3	-38.6	13.5	1.71e-05	0	55	0	748683264	43	4873
2026-01-05 10:18:47.21	80.10	17.83	-36.4	-38.7	13.2	2.74e-05	0	55	0	754974720	43	4972
2026-01-05 10:18:48.22	79.90	17.89	-36.5	-38.9	13.0	6.63e-05	0	55	0	760217600	43	5058
2026-01-05 10:18:49.23	79.70	17.95	-36.6	-39.0	12.9	6.63e-05	0	55	0	765460480	43	5137
2026-01-05 10:18:50.24	79.49	18.02	-36.6	-39.0	12.8	9.04e-05	0	55	0	771751936	43	5143
2026-01-05 10:18:51.25	79.28	18.08	-36.6	-39.0	12.8	8.92e-05	0	55	0	776994816	43	5155
2026-01-05 10:18:52.26	79.08	18.14	-36.6	-39.0	12.8	1.03e-04	0	55	0	783286272	43	5143
2026-01-05 10:18:53.27	78.87	18.20	-36.6	-39.0	12.9	8.23e-05	0	56	0	788529152	43	5122
2026-01-05 10:18:54.28	78.66	18.26	-36.6	-39.0	12.9	6.75e-05	0	55	0	793772032	43	5119
2026-01-05 10:18:55.29	78.45	18.31	-36.4	-38.7	13.3	2.74e-05	0	55	0	800063488	43	4972
2026-01-05 10:18:56.30	78.24	18.37	-36.3	-38.5	13.6	1.60e-05	0	55	0	805306368	43	4848
2026-01-05 10:18:57.31	78.03	18.43	-36.2	-38.5	13.7	1.71e-05	0	55	0	811597824	43	4816
2026-01-05 10:18:58.32	77.81	18.49	-36.1	-38.3	13.9	5.70e-06	0	56	0	816840704	43	4739
2026-01-05 10:18:59.33	77.60	18.55	-36.2	-38.3	13.9	6.80e-06	0	55	0	823132160	43	4743
2026-01-05 10:19:00.34	77.39	18.61	-36.0	-38.1	14.2	5.70e-06	0	56	0	828375040	43	4637
2026-01-05 10:19:01.35	77.17	18.67	-36.0	-38.1	14.2	2.20e-06	0	55	0	834666496	43	4629
2026-01-05 10:19:02.36	76.96	18.72	-36.0	-38.0	14.3	1.10e-06	0	56	0	839909376	43	4596
2026-01-05 10:19:03.37	76.74	18.78	-35.9	-38.0	14.3	0.00e+00	0	55	0	845152256	43	4555
2026-01-05 10:19:04.38	76.52	18.84	-35.9	-37.9	14.3	1.10e-06	0	56	0	851443712	43	4526
2026-01-05 10:19:05.39	76.30	18.89	-35.9	-37.9	14.3	3.40e-06	0	56	0	856686592	43	4528
2026-01-05 10:19:06.40	76.08	18.95	-35.8	-37.9	14.3	6.80e-06	0	55	0	862978048	43	4505
2026-01-05 10:19:07.41	75.87	19.01	-35.8	-37.8	14.4	0.00e+00	0	56	0	868220928	43	4473
2026-01-05 10:19:08.42	75.64	19.06	-35.7	-37.7	14.5	1.10e-06	0	56	0	873463808	43	4418
2026-01-05 10:19:09.43	75.42	19.12	-35.6	-37.6	14.7	1.10e-06	0	55	0	879755264	43	4353
2026-01-05 10:19:10.44	75.20	19.17	-35.5	-37.5	14.9	0.00e+00	0	56	0	884998144	43	4294
2026-01-05 10:19:11.45	74.98	19.23	-35.4	-37.3	15.1	0.00e+00	0	55	0	891289600	42	4448
2026-01-05 10:19:12.46	74.75	19.28	-35.3	-37.2	15.2	1.10e-06	0	56	0	896532480	42	4410
2026-01-05 10:19:13.47	74.53	19.34	-35.3	-37.2	15.3	0.00e+00	0	55	0	901775360	42	4392
2026-01-05 10:19:14.48	74.30	19.39	-35.4	-37.2	15.2	0.00e+00	0	56	0	908066816	42	4435
2026-01-05 10:19:15.49	74.08	19.44	-35.4	-37.3	15.2	0.00e+00	0	55	0	913309696	42	4456
2026-01-05 10:19:16.50	73.85	19.50	-35.4	-37.3	15.3	0.00e+00	0	56	0	919601152	42	4454
2026-01-05 10:19:17.51	73.62	19.55	-35.4	-37.2	15.4	0.00e+00	0	56	0	924844032	42	4412
2026-01-05 10:19:18.53	73.39	19.60	-35.3	-37.1	15.6	0.00e+00	0	56	0	931135488	42	4346
2026-01-05 10:19:19.54	73.16	19.65	-35.3	-37.0	15.7	0.00e+00	0	55	0	936378368	42	4333
2026-01-05 10:19:20.55	72.93	19.70	-35.3	-37.1	15.7	0.00e+00	0	55	0	942669824	42	4354
2026-01-05 10:19:21.56	72.70	19.75	-35.3	-37.1	15.7	0.00e+00	0	56	0	947912704	42	4374
2026-01-05 10:19:22.57	72.47	19.81	-35.4	-37.2	15.7	0.00e+00	0	56	0	953155584	42	4410
2026-01-05 10:19:23.58	72.24	19.86	-35.4	-37.2	15.7	0.00e+00	0	56	0	959447040	42	4407
2026-01-05 10:19:24.58	72.01	19.91	-35.3	-37.0	15.9	0.00e+00	0	56	0	964689920	42	4333
2026-01-05 10:19:25.59	71.77	19.96	-35.1	-36.9	16.1	0.00e+00	0	55	0	970981376	42	4254
2026-01-05 10:19:26.61	71.54	20.00	-35.1	-36.8	16.3	0.00e+00	0	55	0	976224256	42	4202
2026-01-05 10:19:27.62	71.30	20.05	-35.1	-36.8	16.4	0.00e+00	0	56	0	981467136	42	4203
2026-01-05 10:19:28.62	71.07	20.10	-35.1	-36.8	16.4	0.00e+00	0	56	0	987758592	42	4216
2026-01-05 10:19:29.63	70.83	20.15	-35.1	-36.8	16.5	0.00e+00	0	56	0	993001472	42	4197
2026-01-05 10:19:30.64	70.59	20.20	-35.0	-36.6	16.8	0.00e+00	0	55	0	998244352	42	4142
2026-01-05 10:19:31.65	70.35	20.24	-34.9	-36.5	17.0	0.00e+00	0	56	0	1004535808	41	4326
2026-01-05 10:19:32.66	70.11	20.29	-34.9	-36.4	17.2	0.00e+00	0	56	0	1009778688	41	4288
2026-01-05 10:19:33.67	69.87	20.34	-34.8	-36.4	17.4	0.00e+00	0	56	0	1016070144	41	4250
2026-01-05 10:19:34.69	69.63	20.38	-34.7	-36.2	17.6	0.00e+00	0	56	0	1021313024	41	4160
2026-01-05 10:19:35.69	69.39	20.43	-34.6	-36.1	17.8	0.00e+00	0	55	0	1027604480	41	4117
2026-01-05 10:19:36.70	69.15	20.47	-34.4	-35.8	18.0	0.00e+00	0	56	0	1032847360	40	4239
2026-01-05 10:19:37.71	68.91	20.52	-34.2	-35.7	18.3	0.00e+00	0	56	0	1039138816	40	4146
2026-01-05 10:19:38.72	68.66	20.56	-34.2	-35.6	18.4	0.00e+00	0	56	0	1044381696	40	4109
2026-01-05 10:19:39.74	68.42	20.60	-34.1	-35.5	18.6	0.00e+00	0	56	0	1049624576	40	4054
2026-01-05 10:19:40.75	68.17	20.65	-34.0	-35.4	18.7	0.00e+00	0	56	0	1055916032	39	4254
2026-01-05 10:19:41.76	67.93	20.69	-33.9	-35.3	18.9	0.00e+00	0	56	0	1061158912	39	4202
2026-01-05 10:19:42.77	67.68	20.73	-33.8	-35.1	19.0	0.00e+00	0	56	0	1067450368	39	4137
2026-01-05 10:19:43.78	67.43	20.77	-33.7	-35.1	19.1	0.00e+00	0	56	0	1072693248	39	4099
2026-01-05 10:19:44.79	67.19	20.81	-33.7	-35.0	19.2	0.00e+00	0	56	0	1077936128	39	4085
2026-01-05 10:19:45.80	66.94	20.85	-33.7	-35.0	19.1	0.00e+00	0	56	0	1084227584	39	4073
2026-01-05 10:19:46.80	66.69	20.89	-33.7	-35.0	19.2	0.00e+00	0	56	0	1089470464	39	4063
2026-01-05 10:19:47.81	66.44	20.93	-33.7	-35.0	19.2	0.00e+00	0	56	0	1095761920	39	4072
2026-01-05 10:19:48.82	66.19	20.97	-33.7	-35.0	19.1	0.00e+00	0	55	0	1101004800	39	4096
2026-01-05 10:19:49.83	65.94	21.01	-33.8	-35.1	19.1	0.00e+00	0	56	0	1106247680	39	4117
2026-01-05 10:19:50.84	65.69	21.05	-33.8	-35.1	19.1	0.00e+00	0	56	0	1112539136	39	4114
2026-01-05 10:19:51.85	65.44	21.09	-33.7	-35.0	19.2	0.00e+00	0	56	0	1117782016	39	4084
2026-01-05 10:19:52.86	65.19	21.12	-33.7	-35.0	19.2	0.00e+00	0	56	0	1124073472	39	4097
2026-01-05 10:19:53.87	64.93	21.16	-33.8	-35.1	19.1	0.00e+00	0	56	0	1129316352	39	4143
2026-01-05 10:19:54.88	64.68	21.20	-33.9	-35.2	19.1	0.00e+00	0	56	0	1135607808	39	4169
2026-01-05 10:19:55.89	64.42	21.23	-33.9	-35.2	19.0	0.00e+00	0	56	0	1140850688	39	4182
2026-01-05 10:19:56.90	64.17	21.27	-34.0	-35.3	19.0	0.00e+00	0	56	0	1147142144	39	4219
2026-01-05 10:19:57.91	63.91	21.30	-34.0	-35.3	19.0	0.00e+00	0	56	0	1152385024	39	4215
2026-01-05 10:19:58.92	63.66	21.33	-33.9	-35.3	19.0	0.00e+00	0	56	0	1157627904	39	4209
2026-01-05 10:19:59.93	63.40	21.37	-33.9	-35.3	19.0	0.00e+00	0	55	0	1163919360	39	4200
2026-01-05 10:20:00.94	63.14	21.40	-33.9	-35.3	19.0	0.00e+00	0	56	0	1169162240	39	4207
2026-01-05 10:20:01.95	62.89	21.43	-33.9	-35.3	19.0	0.00e+00	0	56	0	1175453696	39	4201
2026-01-05 10:20:02.97	62.63	21.46	-34.0	-35.3	18.9	0.00e+00	0	56	0	1180696576	39	4223
2026-01-05 10:20:03.97	62.37	21.49	-34.1	-35.4	18.8	0.00e+00	0	56	0	1185939456	39	4273
2026-01-05 10:20:04.98	62.11	21.52	-34.1	-35.5	18.8	0.00e+00	0	56	0	1192230912	39	4304
2026-01-05 10:20:05.99	61.85	21.55	-34.1	-35.5	18.7	0.00e+00	0	56	0	1197473792	39	4325
2026-01-05 10:20:07.00	61.59	21.58	-34.1	-35.5	18.8	0.00e+00	0	56	0	1203765248	39	4303
2026-01-05 10:20:08.01	61.33	21.61	-34.0	-35.4	18.9	0.00e+00	0	56	0	1209008128	39	4246
2026-01-05 10:20:09.02	61.07	21.64	-33.9	-35.2	19.0	0.00e+00	0	56	0	1214251008	39	4186
2026-01-05 10:20:10.03	60.81	21.67	-33.7	-35.0	19.3	0.00e+00	0	56	0	1220542464	39	4057
2026-01-05 10:20:11.04	60.55	21.69	-33.6	-34.9	19.4	0.00e+00	0	56	0	1225785344	39	4025
2026-01-05 10:20:12.05	60.28	21.72	-33.6	-34.9	19.3	0.00e+00	0	56	0	1232076800	39	4034
2026-01-05 10:20:13.05	60.02	21.74	-33.7	-35.0	19.3	0.00e+00	0	56	0	1237319680	39	4070
2026-01-05 10:20:14.06	59.76	21.77	-33.7	-35.0	19.3	0.00e+00	0	56	0	1243611136	39	4060
2026-01-05 10:20:15.07	59.50	21.79	-33.7	-35.0	19.3	0.00e+00	0	56	0	1248854016	39	4067
2026-01-05 10:20:16.09	59.23	21.82	-33.6	-34.9	19.3	0.00e+00	0	56	0	1254096896	39	4049
2026-01-05 10:20:17.10	58.96	21.84	-33.6	-35.0	19.3	0.00e+00	0	56	0	1260388352	39	4054
2026-01-05 10:20:18.11	58.70	21.86	-33.6	-34.9	19.4	0.00e+00	0	56	0	1265631232	39	4026
2026-01-05 10:20:19.12	58.43	21.88	-33.6	-34.9	19.4	0.00e+00	0	56	0	1271922688	39	4018
2026-01-05 10:20:20.13	58.17	21.90	-33.7	-35.0	19.3	0.00e+00	0	56	0	1277165568	39	4058
2026-01-05 10:20:21.14	57.90	21.92	-33.7	-35.0	19.3	0.00e+00	0	56	0	1282408448	39	4063
2026-01-05 10:20:22.15	57.64	21.94	-33.6	-34.9	19.3	0.00e+00	0	56	0	1288699904	39	4042
2026-01-05 10:20:23.16	57.37	21.96	-33.6	-34.9	19.4	0.00e+00	0	56	0	1293942784	39	4013
2026-01-05 10:20:24.17	57.10	21.98	-33.5	-34.8	19.5	0.00e+00	0	56	0	1300234240	39	3972
2026-01-05 10:20:25.18	56.83	22.00	-33.5	-34.7	19.6	0.00e+00	0	56	0	1305477120	38	4186
2026-01-05 10:20:26.19	56.57	22.01	-33.5	-34.8	19.5	0.00e+00	0	56	0	1310720000	38	4206
2026-01-05 10:20:27.20	56.30	22.03	-33.6	-34.9	19.4	0.00e+00	0	56	0	1317011456	38	4272
2026-01-05 10:20:28.21	56.03	22.05	-33.7	-35.0	19.3	0.00e+00	0	56	0	1322254336	38	4319
2026-01-05 10:20:29.21	55.76	22.06	-34.0	-35.1	19.6	0.00e+00	0	56	0	1328545792	38	4386
2026-01-05 10:20:30.22	55.50	22.08	-34.0	-35.2	19.6	0.00e+00	0	56	0	1333788672	38	4418
2026-01-05 10:20:31.24	55.22	22.09	-34.1	-35.3	19.5	0.00e+00	0	56	0	1340080128	38	4461
2026-01-05 10:20:32.25	54.95	22.10	-34.1	-35.3	19.5	0.00e+00	0	56	0	1345323008	38	4486
2026-01-05 10:20:33.26	54.69	22.12	-34.1	-35.3	19.5	0.00e+00	0	56	0	1351614464	38	4465
2026-01-05 10:20:34.27	54.42	22.13	-34.0	-35.2	19.6	0.00e+00	0	56	0	1356857344	38	4427
2026-01-05 10:20:35.28	54.15	22.14	-33.9	-35.1	19.7	0.00e+00	0	56	0	1362100224	38	4345
2026-01-05 10:20:36.29	53.88	22.15	-33.7	-34.9	19.9	0.00e+00	0	56	0	1368391680	38	4259
2026-01-05 10:20:37.30	53.61	22.16	-33.7	-34.8	20.0	0.00e+00	0	56	0	1373634560	38	4215
2026-01-05 10:20:38.31	53.34	22.17	-33.6	-34.7	20.1	0.00e+00	0	56	0	1379926016	38	4192
2026-01-05 10:20:39.32	53.06	22.18	-33.6	-34.7	20.1	0.00e+00	0	56	0	1385168896	38	4177
2026-01-05 10:20:40.32	52.80	22.18	-33.7	-34.8	20.0	0.00e+00	0	56	0	1390411776	38	4233
2026-01-05 10:20:41.33	52.53	22.19	-33.7	-34.8	20.0	0.00e+00	0	56	0	1396703232	38	4235
2026-01-05 10:20:42.35	52.25	22.20	-33.7	-34.9	19.9	0.00e+00	0	56	0	1401946112	38	4266
2026-01-05 10:20:43.36	51.98	22.20	-33.8	-34.9	19.9	0.00e+00	0	56	0	1408237568	38	4283
2026-01-05 10:20:44.36	51.71	22.21	-33.8	-34.9	19.9	0.00e+00	0	56	0	1413480448	38	4289
2026-01-05 10:20:45.37	51.44	22.21	-33.8	-35.0	19.8	0.00e+00	0	56	0	1418723328	38	4294
2026-01-05 10:20:46.38	51.17	22.22	-33.9	-35.0	19.8	0.00e+00	0	56	0	1425014784	38	4319
2026-01-05 10:20:47.39	50.90	22.22	-33.9	-35.0	19.8	0.00e+00	0	56	0	1430257664	38	4322
2026-01-05 10:20:48.40	50.63	22.22	-33.9	-35.1	19.7	0.00e+00	0	56	0	1436549120	38	4366
2026-01-05 10:20:49.41	50.36	22.22	-34.0	-35.2	19.6	0.00e+00	0	56	0	1441792000	38	4410
2026-01-05 10:20:50.42	50.09	22.22	-34.1	-35.3	19.6	0.00e+00	0	56	0	1448083456	38	4447
2026-01-05 10:20:51.43	49.81	22.22	-34.1	-35.3	19.6	0.00e+00	0	56	0	1453326336	38	4454
2026-01-05 10:20:52.44	49.54	22.22	-34.1	-35.2	19.6	0.00e+00	0	56	0	1458569216	38	4435
2026-01-05 10:20:53.45	49.27	22.22	-34.0	-35.2	19.6	0.00e+00	0	56	0	1464860672	38	4419
2026-01-05 10:20:54.45	49.00	22.22	-34.0	-35.2	19.7	0.00e+00	0	56	0	1470103552	38	4401
2026-01-05 10:20:55.46	48.73	22.22	-34.1	-35.3	19.6	0.00e+00	0	56	0	1476395008	38	4447
2026-01-05 10:20:56.48	48.46	22.21	-34.1	-35.2	19.6	0.00e+00	0	56	0	1481637888	38	4435
2026-01-05 10:20:57.49	48.19	22.21	-33.9	-35.1	19.7	0.00e+00	0	56	0	1486880768	38	4362
2026-01-05 10:20:58.49	47.92	22.21	-33.8	-34.9	19.9	0.00e+00	0	56	0	1493172224	38	4270
2026-01-05 10:20:59.50	47.65	22.20	-33.7	-34.8	20.0	0.00e+00	0	56	0	1498415104	38	4216
2026-01-05 10:21:00.51	47.38	22.19	-33.6	-34.8	20.0	0.00e+00	0	56	0	1504706560	38	4206
2026-01-05 10:21:01.52	47.11	22.19	-33.7	-34.8	20.0	0.00e+00	0	56	0	1509949440	38	4242
2026-01-05 10:21:02.53	46.84	22.18	-33.7	-34.8	20.0	0.00e+00	0	56	0	1515192320	38	4242
2026-01-05 10:21:03.55	46.56	22.17	-33.6	-34.8	20.1	0.00e+00	0	56	0	1521483776	38	4198
2026-01-05 10:21:04.56	46.29	22.16	-33.6	-34.7	20.1	0.00e+00	0	56	0	1526726656	38	4192
2026-01-05 10:21:05.57	46.02	22.15	-33.7	-34.8	20.1	0.00e+00	0	56	0	1533018112	38	4215
2026-01-05 10:21:06.58	45.75	22.14	-33.8	-34.9	19.9	0.00e+00	0	56	0	1538260992	38	4269
2026-01-05 10:21:07.59	45.48	22.13	-33.8	-35.0	19.9	0.00e+00	0	56	0	1544552448	38	4316
2026-01-05 10:21:08.60	45.21	22.12	-33.9	-35.0	19.8	0.00e+00	0	56	0	1549795328	38	4336
2026-01-05 10:21:09.60	44.95	22.11	-33.8	-35.0	19.8	0.00e+00	0	56	0	1556086784	38	4311
2026-01-05 10:21:10.61	44.68	22.10	-33.8	-34.9	19.9	0.00e+00	0	56	0	1561329664	38	4280
2026-01-05 10:21:11.62	44.41	22.08	-33.8	-34.9	19.9	0.00e+00	0	56	0	1566572544	38	4278
2026-01-05 10:21:12.63	44.14	22.07	-33.9	-35.0	19.8	0.00e+00	0	56	0	1572864000	38	4317
2026-01-05 10:21:13.64	43.87	22.06	-33.9	-35.1	19.8	0.00e+00	0	56	0	1578106880	38	4343
2026-01-05 10:21:14.65	43.60	22.04	-33.9	-35.1	19.7	0.00e+00	0	56	0	1584398336	38	4365
2026-01-05 10:21:15.66	43.33	22.02	-33.8	-35.0	19.8	0.00e+00	0	56	0	1589641216	38	4310
2026-01-05 10:21:16.67	43.07	22.01	-33.8	-35.0	19.9	0.00e+00	0	56	0	1594884096	38	4297
2026-01-05 10:21:17.68	42.80	21.99	-33.7	-34.8	20.0	0.00e+00	0	56	0	1601175552	38	4232
2026-01-05 10:21:18.69	42.53	21.97	-33.7	-34.8	20.0	0.00e+00	0	56	0	1606418432	38	4213
2026-01-05 10:21:19.70	42.27	21.95	-33.8	-34.9	19.9	0.00e+00	0	56	0	1612709888	38	4266
2026-01-05 10:21:20.71	42.00	21.93	-33.8	-34.9	19.9	0.00e+00	0	56	0	1617952768	38	4291
2026-01-05 10:21:21.72	41.73	21.91	-33.8	-35.0	19.8	0.00e+00	0	56	0	1623195648	38	4303
2026-01-05 10:21:22.73	41.47	21.89	-33.9	-35.1	19.8	0.00e+00	0	56	0	1629487104	38	4341
2026-01-05 10:21:23.74	41.20	21.87	-33.8	-35.0	19.8	0.00e+00	0	56	0	1634729984	38	4320
2026-01-05 10:21:24.75	40.94	21.85	-33.8	-35.0	19.8	0.00e+00	0	56	0	1641021440	38	4308
2026-01-05 10:21:25.76	40.67	21.83	-33.8	-34.9	19.9	0.00e+00	0	56	0	1646264320	38	4267
2026-01-05 10:21:26.77	40.41	21.81	-33.8	-34.9	19.9	0.00e+00	0	56	0	1652555776	38	4282
2026-01-05 10:21:27.78	40.15	21.78	-33.8	-35.0	19.9	0.00e+00	0	56	0	1657798656	38	4297
2026-01-05 10:21:28.79	39.88	21.76	-33.8	-35.0	19.9	0.00e+00	0	56	0	1663041536	38	4298
2026-01-05 10:21:29.80	39.62	21.73	-33.7	-34.9	20.0	0.00e+00	0	56	0	1669332992	38	4252
2026-01-05 10:21:30.82	39.35	21.71	-33.7	-34.8	20.0	0.00e+00	0	56	0	1674575872	38	4230
2026-01-05 10:21:31.83	39.09	21.68	-33.7	-34.8	20.1	0.00e+00	0	56	0	1680867328	38	4218
2026-01-05 10:21:32.84	38.83	21.65	-33.7	-34.9	20.0	0.00e+00	0	56	0	1686110208	38	4252
2026-01-05 10:21:33.84	38.57	21.63	-33.7	-34.9	19.9	0.00e+00	0	56	0	1691353088	38	4257
2026-01-05 10:21:34.85	38.31	21.60	-33.9	-35.0	19.8	0.00e+00	0	56	0	1697644544	38	4322
2026-01-05 10:21:35.86	38.05	21.57	-34.0	-35.2	19.7	0.00e+00	0	56	0	1702887424	38	4403
2026-01-05 10:21:36.87	37.79	21.54	-34.1	-35.2	19.6	0.00e+00	0	56	0	1709178880	38	4436
2026-01-05 10:21:37.88	37.53	21.51	-34.1	-35.2	19.6	0.00e+00	0	56	0	1714421760	38	4431
2026-01-05 10:21:38.89	37.27	21.48	-34.0	-35.2	19.7	0.00e+00	0	56	0	1720713216	38	4392
2026-01-05 10:21:39.91	37.01	21.45	-33.9	-35.1	19.8	0.00e+00	0	56	0	1725956096	38	4358
2026-01-05 10:21:40.92	36.76	21.42	-33.9	-35.1	19.8	0.00e+00	0	56	0	1731198976	38	4342
2026-01-05 10:21:41.93	36.50	21.39	-33.9	-35.1	19.7	0.00e+00	0	56	0	1737490432	38	4366
2026-01-05 10:21:42.94	36.24	21.35	-34.0	-35.2	19.7	0.00e+00	0	56	0	1742733312	38	4415
2026-01-05 10:21:43.95	35.99	21.32	-34.1	-35.3	19.6	0.00e+00	0	56	0	1749024768	38	4449
2026-01-05 10:21:44.96	35.73	21.29	-34.1	-35.3	19.5	0.00e+00	0	56	0	1754267648	38	4479
2026-01-05 10:21:45.97	35.48	21.25	-34.1	-35.3	19.6	0.00e+00	0	56	0	1760559104	38	4451
2026-01-05 10:21:46.98	35.22	21.22	-34.0	-35.1	19.7	0.00e+00	0	56	0	1765801984	38	4373
2026-01-05 10:21:47.99	34.97	21.18	-33.9	-35.0	19.8	0.00e+00	0	56	0	1771044864	38	4320
2026-01-05 10:21:49.00	34.72	21.14	-33.9	-35.1	19.8	0.00e+00	0	56	0	1777336320	38	4344
2026-01-05 10:21:50.00	34.47	21.11	-33.9	-35.0	19.8	0.00e+00	0	56	0	1782579200	38	4335
2026-01-05 10:21:51.02	34.21	21.07	-33.9	-35.0	19.8	0.00e+00	0	56	0	1788870656	38	4317
2026-01-05 10:21:52.03	33.96	21.03	-33.9	-35.0	19.8	0.00e+00	0	56	0	1794113536	38	4332
2026-01-05 10:21:53.04	33.71	21.00	-33.9	-35.1	19.8	0.00e+00	0	56	0	1799356416	38	4350
2026-01-05 10:21:54.05	33.46	20.96	-34.0	-35.1	19.7	0.00e+00	0	56	0	1805647872	38	4391
2026-01-05 10:21:55.06	33.21	20.92	-33.9	-35.1	19.8	0.00e+00	0	56	0	1810890752	38	4351
2026-01-05 10:21:56.07	32.96	20.88	-34.0	-35.1	19.7	0.00e+00	0	56	0	1817182208	38	4384
2026-01-05 10:21:57.08	32.72	20.84	-34.0	-35.1	19.7	0.00e+00	0	56	0	1822425088	38	4382
2026-01-05 10:21:58.09	32.47	20.80	-34.0	-35.2	19.6	0.00e+00	0	56	0	1827667968	38	4407
2026-01-05 10:21:59.10	32.22	20.76	-34.0	-35.2	19.6	0.00e+00	0	56	0	1833959424	38	4421
2026-01-05 10:22:00.11	31.98	20.71	-34.1	-35.2	19.6	0.00e+00	0	56	0	1839202304	38	4428
2026-01-05 10:22:01.12	31.73	20.67	-34.1	-35.2	19.6	0.00e+00	0	56	0	1845493760	38	4439
2026-01-05 10:22:02.13	31.49	20.63	-34.2	-35.3	19.5	0.00e+00	0	56	0	1850736640	38	4484
2026-01-05 10:22:03.14	31.24	20.59	-34.2	-35.4	19.4	0.00e+00	0	56	0	1857028096	38	4507
2026-01-05 10:22:04.15	31.00	20.54	-34.3	-35.5	19.4	0.00e+00	0	56	0	1862270976	39	4306
2026-01-05 10:22:05.16	30.76	20.50	-34.3	-35.5	19.4	0.00e+00	0	56	0	1868562432	39	4312
2026-01-05 10:22:06.17	30.51	20.45	-34.3	-35.5	19.4	0.00e+00	0	56	0	1873805312	39	4304
2026-01-05 10:22:07.18	30.27	20.41	-34.2	-35.4	19.4	0.00e+00	0	56	0	1879048192	39	4283
2026-01-05 10:22:08.19	30.03	20.36	-34.1	-35.3	19.5	0.00e+00	0	56	0	1885339648	39	4229
2026-01-05 10:22:09.20	29.79	20.32	-34.1	-35.2	19.6	0.00e+00	0	56	0	1890582528	39	4185
2026-01-05 10:22:10.21	29.55	20.27	-34.0	-35.2	19.6	0.00e+00	0	56	0	1896873984	39	4158
2026-01-05 10:22:11.22	29.32	20.23	-34.1	-35.3	19.6	0.00e+00	0	56	0	1902116864	39	4197
2026-01-05 10:22:12.23	29.08	20.18	-34.2	-35.4	19.4	0.00e+00	0	56	0	1907359744	39	4251
2026-01-05 10:22:13.24	28.84	20.13	-34.2	-35.3	19.5	0.00e+00	0	56	0	1913651200	39	4238
2026-01-05 10:22:14.25	28.61	20.08	-34.2	-35.3	19.5	0.00e+00	0	56	0	1918894080	39	4238
2026-01-05 10:22:15.26	28.37	20.03	-34.2	-35.3	19.5	0.00e+00	0	56	0	1925185536	39	4231
2026-01-05 10:22:16.27	28.14	19.99	-34.2	-35.4	19.5	0.00e+00	0	56	0	1930428416	39	4250
2026-01-05 10:22:17.28	27.90	19.94	-34.3	-35.5	19.4	0.00e+00	0	56	0	1935671296	39	4296
2026-01-05 10:22:18.29	27.67	19.89	-34.3	-35.5	19.4	0.00e+00	0	56	0	1941962752	39	4303
2026-01-05 10:22:19.30	27.44	19.84	-34.3	-35.4	19.4	0.00e+00	0	57	0	1947205632	39	4289
2026-01-05 10:22:20.31	27.21	19.79	-34.3	-35.5	19.4	0.00e+00	0	57	0	1953497088	39	4298
2026-01-05 10:22:21.32	26.98	19.74	-34.3	-35.6	19.3	0.00e+00	0	56	0	1958739968	39	4342
2026-01-05 10:22:22.33	26.75	19.68	-34.3	-35.5	19.3	0.00e+00	0	56	0	1965031424	39	4338
2026-01-05 10:22:23.34	26.52	19.63	-34.4	-35.7	19.2	0.00e+00	0	56	0	1970274304	39	4398
2026-01-05 10:22:24.35	26.29	19.58	-34.5	-35.7	19.1	0.00e+00	0	56	0	1976565760	39	4433
2026-01-05 10:22:25.36	26.06	19.53	-34.5	-35.7	19.1	0.00e+00	0	56	0	1981808640	39	4441
2026-01-05 10:22:26.37	25.83	19.48	-34.5	-35.7	19.2	0.00e+00	0	56	0	1987051520	39	4401
2026-01-05 10:22:27.38	25.61	19.42	-34.4	-35.6	19.2	0.00e+00	0	56	0	1993342976	39	4373
2026-01-05 10:22:28.39	25.38	19.37	-34.5	-35.7	19.2	0.00e+00	0	56	0	1998585856	39	4400
2026-01-05 10:22:29.40	25.16	19.32	-34.5	-35.8	19.1	0.00e+00	0	57	0	2004877312	39	4449
2026-01-05 10:22:30.41	24.94	19.26	-34.7	-35.9	18.9	0.00e+00	0	57	0	2010120192	39	4523
2026-01-05 10:22:31.42	24.71	19.21	-34.7	-35.9	18.8	0.00e+00	0	57	0	2015363072	40	4289
2026-01-05 10:22:32.43	24.49	19.15	-34.6	-35.9	18.9	0.00e+00	0	56	0	2021654528	40	4251
2026-01-05 10:22:33.44	24.27	19.10	-34.6	-35.8	18.9	0.00e+00	0	57	0	2026897408	40	4217
2026-01-05 10:22:34.45	24.05	19.04	-34.5	-35.7	19.1	0.00e+00	0	56	0	2033188864	40	4167
2026-01-05 10:22:35.46	23.83	18.99	-34.4	-35.7	19.1	0.00e+00	0	56	0	2038431744	40	4151
2026-01-05 10:22:36.47	23.61	18.93	-34.5	-35.7	19.1	0.00e+00	0	56	0	2043674624	40	4154
2026-01-05 10:22:37.48	23.39	18.87	-34.5	-35.7	19.0	0.00e+00	0	56	0	2049966080	40	4173
2026-01-05 10:22:38.49	23.18	18.82	-34.5	-35.7	19.0	0.00e+00	0	56	0	2055208960	40	4174
2026-01-05 10:22:39.50	22.96	18.76	-34.5	-35.8	19.0	0.00e+00	0	56	0	2061500416	40	4207
2026-01-05 10:22:40.51	22.75	18.70	-34.5	-35.8	19.0	0.00e+00	0	56	0	2066743296	40	4206
2026-01-05 10:22:41.52	22.53	18.65	-34.5	-35.8	19.0	0.00e+00	0	56	0	2073034752	40	4201
2026-01-05 10:22:42.53	22.32	18.59	-34.5	-35.7	19.0	0.00e+00	0	56	0	2078277632	40	4187
2026-01-05 10:22:43.54	22.10	18.53	-34.7	-35.9	18.8	0.00e+00	0	56	0	2083520512	40	4262
2026-01-05 10:22:44.55	21.89	18.47	-34.7	-35.9	18.8	0.00e+00	0	56	0	2089811968	40	4272
2026-01-05 10:22:45.56	21.68	18.41	-34.7	-36.0	18.8	0.00e+00	0	56	0	2095054848	40	4296
2026-01-05 10:22:46.57	21.47	18.36	-34.7	-36.0	18.7	0.00e+00	0	56	0	2101346304	40	4314
2026-01-05 10:22:47.58	21.26	18.30	-34.8	-36.1	18.7	0.00e+00	0	56	0	2106589184	40	4353
2026-01-05 10:22:48.59	21.05	18.24	-34.9	-36.2	18.5	0.00e+00	0	56	0	2111832064	40	4422
2026-01-05 10:22:49.60	20.84	18.18	-35.1	-36.4	18.4	0.00e+00	0	56	0	2118123520	40	4502
2026-01-05 10:22:50.61	20.64	18.12	-35.1	-36.4	18.3	0.00e+00	0	56	0	2123366400	40	4521
2026-01-05 10:22:51.61	20.43	18.06	-35.0	-36.3	18.4	0.00e+00	0	56	0	2129657856	40	4491
2026-01-05 10:22:52.62	20.23	18.00	-34.9	-36.2	18.5	0.00e+00	0	56	0	2134900736	40	4416
2026-01-05 10:22:53.63	20.02	17.94	-34.9	-36.1	18.6	0.00e+00	0	57	0	2140143616	40	4390
2026-01-05 10:22:54.64	19.82	17.88	-34.9	-36.2	18.5	0.00e+00	0	56	0	2146435072	40	4407
2026-01-05 10:22:55.65	19.62	17.82	-35.0	-36.3	18.4	0.00e+00	0	56	0	2151677952	40	4459
2026-01-05 10:22:56.66	19.41	17.75	-35.1	-36.4	18.3	0.00e+00	0	56	0	2157969408	40	4500
2026-01-05 10:22:57.67	19.21	17.69	-35.0	-36.3	18.4	0.00e+00	0	56	0	2163212288	40	4487
2026-01-05 10:22:58.68	19.01	17.63	-35.0	-36.3	18.4	0.00e+00	0	57	0	2169503744	40	4474
2026-01-05 10:22:59.69	18.81	17.57	-34.8	-36.1	18.6	0.00e+00	0	56	0	2174746624	40	4359
2026-01-05 10:23:00.70	18.61	17.51	-34.7	-36.0	18.7	0.00e+00	0	56	0	2181038080	40	4301
2026-01-05 10:23:01.71	18.42	17.45	-34.8	-36.0	18.7	0.00e+00	0	56	0	2186280960	40	4318
2026-01-05 10:23:02.72	18.22	17.38	-34.8	-36.1	18.6	0.00e+00	0	56	0	2191523840	40	4345
2026-01-05 10:23:03.73	18.02	17.32	-34.9	-36.1	18.5	0.00e+00	0	57	0	2197815296	40	4387
2026-01-05 10:23:04.75	17.83	17.26	-34.9	-36.2	18.5	0.00e+00	0	56	0	2203058176	40	4422
2026-01-05 10:23:05.76	17.63	17.19	-34.9	-36.2	18.5	0.00e+00	0	56	0	2209349632	40	4410
2026-01-05 10:23:06.77	17.44	17.13	-34.8	-36.1	18.6	0.00e+00	0	56	0	2214592512	40	4362
2026-01-05 10:23:07.78	17.24	17.07	-34.8	-36.1	18.6	0.00e+00	0	56	0	2219835392	40	4373
2026-01-05 10:23:08.78	17.05	17.01	-34.8	-36.1	18.7	0.00e+00	0	56	0	2226126848	40	4349
2026-01-05 10:23:09.79	16.86	16.94	-34.8	-36.0	18.6	0.00e+00	0	56	0	2231369728	40	4340
2026-01-05 10:23:10.80	16.67	16.88	-34.9	-36.2	18.5	0.00e+00	0	57	0	2237661184	40	4431
2026-01-05 10:23:11.81	16.48	16.81	-35.0	-36.3	18.4	0.00e+00	0	57	0	2242904064	40	4450
2026-01-05 10:23:12.82	16.29	16.75	-35.0	-36.3	18.4	0.00e+00	0	57	0	2248146944	40	4481
2026-01-05 10:23:13.83	16.11	16.69	-35.0	-36.3	18.4	0.00e+00	0	56	0	2254438400	40	4472
2026-01-05 10:23:14.84	15.92	16.62	-35.0	-36.3	18.4	0.00e+00	0	56	0	2259681280	40	4449
2026-01-05 10:23:15.85	15.73	16.56	-34.9	-36.1	18.5	0.00e+00	0	56	0	2265972736	40	4374
2026-01-05 10:23:16.86	15.55	16.49	-34.9	-36.2	18.5	0.00e+00	0	56	0	2271215616	40	4418
2026-01-05 10:23:17.87	15.36	16.43	-34.9	-36.2	18.5	0.00e+00	0	56	0	2277507072	40	4418
2026-01-05 10:23:18.88	15.18	16.36	-35.0	-36.3	18.4	0.00e+00	0	56	0	2282749952	40	4465
2026-01-05 10:23:19.89	14.99	16.30	-35.0	-36.3	18.4	0.00e+00	0	57	0	2287992832	40	4480
2026-01-05 10:23:20.90	14.81	16.23	-35.0	-36.3	18.3	0.00e+00	0	56	0	2294284288	40	4489
2026-01-05 10:23:21.91	14.63	16.17	-34.9	-36.2	18.4	0.00e+00	0	56	0	2299527168	40	4430
2026-01-05 10:23:22.92	14.45	16.10	-34.9	-36.2	18.4	0.00e+00	0	57	0	2305818624	40	4435
2026-01-05 10:23:23.93	14.27	16.04	-34.9	-36.2	18.4	0.00e+00	0	56	0	2311061504	40	4419
2026-01-05 10:23:24.94	14.09	15.97	-34.9	-36.2	18.4	0.00e+00	0	56	0	2316304384	40	4421
2026-01-05 10:23:25.95	13.91	15.90	-35.0	-36.3	18.3	0.00e+00	0	57	0	2322595840	40	4461
2026-01-05 10:23:26.96	13.73	15.84	-35.0	-36.3	18.3	0.00e+00	0	56	0	2327838720	40	4491
2026-01-05 10:23:27.97	13.56	15.77	-35.1	-36.4	18.2	3.40e-06	0	56	0	2334130176	40	4507
2026-01-05 10:23:28.98	13.38	15.71	-35.1	-36.5	18.1	0.00e+00	0	56	0	2339373056	40	4555
2026-01-05 10:23:29.99	13.21	15.64	-35.2	-36.5	18.1	0.00e+00	0	56	0	2344615936	40	4560
2026-01-05 10:23:31.00	13.03	15.57	-35.2	-36.6	18.0	0.00e+00	0	56	0	2350907392	41	4357
2026-01-05 10:23:32.01	12.86	15.51	-35.3	-36.6	18.0	0.00e+00	0	56	0	2356150272	41	4360
2026-01-05 10:23:33.01	12.69	15.44	-35.4	-36.7	17.8	0.00e+00	0	56	0	2362441728	41	4441
2026-01-05 10:23:34.02	12.52	15.38	-35.4	-36.8	17.8	0.00e+00	0	56	0	2367684608	41	4474
2026-01-05 10:23:35.03	12.34	15.31	-35.5	-36.9	17.8	0.00e+00	0	57	0	2373976064	41	4500
2026-01-05 10:23:36.04	12.17	15.24	-35.5	-36.8	17.8	0.00e+00	0	56	0	2379218944	41	4487
2026-01-05 10:23:37.05	12.00	15.18	-35.5	-36.9	17.7	0.00e+00	0	56	0	2384461824	41	4525
2026-01-05 10:23:38.06	11.84	15.11	-35.5	-36.9	17.7	0.00e+00	0	57	0	2390753280	41	4530
2026-01-05 10:23:39.07	11.67	15.04	-35.5	-36.9	17.6	0.00e+00	0	56	0	2395996160	41	4538
2026-01-05 10:23:40.08	11.50	14.98	-35.5	-36.9	17.6	0.00e+00	0	57	0	2402287616	41	4513
2026-01-05 10:23:41.09	11.33	14.91	-35.5	-36.9	17.6	0.00e+00	0	56	0	2407530496	41	4516
2026-01-05 10:23:42.10	11.17	14.84	-35.6	-37.0	17.5	0.00e+00	0	57	0	2413821952	41	4556
2026-01-05 10:23:43.11	11.00	14.77	-35.6	-37.0	17.5	0.00e+00	0	57	0	2419064832	41	4557
2026-01-05 10:23:44.12	10.84	14.71	-35.6	-37.0	17.4	0.00e+00	0	56	0	2424307712	41	4587
2026-01-05 10:23:45.13	10.67	14.64	-35.6	-37.0	17.4	0.00e+00	0	57	0	2430599168	41	4575
2026-01-05 10:23:46.14	10.51	14.57	-35.5	-36.9	17.6	0.00e+00	0	57	0	2435842048	41	4512
2026-01-05 10:23:47.15	10.35	14.51	-35.3	-36.7	17.7	0.00e+00	0	56	0	2442133504	41	4401
2026-01-05 10:23:48.16	10.19	14.44	-35.3	-36.7	17.7	0.00e+00	0	56	0	2447376384	41	4396
2026-01-05 10:23:49.17	10.03	14.37	-35.4	-36.8	17.5	0.00e+00	0	56	0	2452619264	41	4463
2026-01-05 10:23:50.18	9.87	14.30	-35.5	-36.9	17.4	0.00e+00	0	56	0	2458910720	41	4522
2026-01-05 10:23:51.19	9.71	14.24	-35.5	-36.9	17.4	0.00e+00	0	56	0	2464153600	41	4519
2026-01-05 10:23:52.20	9.55	14.17	-35.4	-36.8	17.4	0.00e+00	0	56	0	2470445056	41	4489
2026-01-05 10:23:53.21	9.39	14.10	-35.5	-37.0	17.2	0.00e+00	0	57	0	2475687936	41	4577
2026-01-05 10:23:54.22	9.24	14.03	-35.7	-37.2	17.0	0.00e+00	0	56	0	2480930816	42	4394
2026-01-05 10:23:55.23	9.08	13.97	-35.6	-37.1	17.0	0.00e+00	0	56	0	2487222272	42	4367
2026-01-05 10:23:56.24	8.92	13.90	-35.6	-37.1	17.0	0.00e+00	0	57	0	2492465152	42	4371
2026-01-05 10:23:57.25	8.77	13.83	-35.6	-37.0	17.0	0.00e+00	0	57	0	2498756608	42	4338
2026-01-05 10:23:58.25	8.62	13.76	-35.7	-37.2	16.8	0.00e+00	0	57	0	2503999488	42	4408
2026-01-05 10:23:59.26	8.46	13.70	-35.8	-37.3	16.7	0.00e+00	0	56	0	2510290944	42	4465
2026-01-05 10:24:00.27	8.31	13.63	-35.7	-37.3	16.7	0.00e+00	0	57	0	2515533824	42	4468
2026-01-05 10:24:01.29	8.16	13.56	-35.7	-37.3	16.6	0.00e+00	0	56	0	2520776704	42	4449
2026-01-05 10:24:02.30	8.01	13.49	-35.6	-37.2	16.6	0.00e+00	0	57	0	2527068160	42	4399
2026-01-05 10:24:03.31	7.86	13.42	-35.5	-37.0	16.8	0.00e+00	0	57	0	2532311040	42	4314
2026-01-05 10:24:04.32	7.71	13.36	-35.4	-36.9	16.8	0.00e+00	0	57	0	2538602496	42	4256
2026-01-05 10:24:05.33	7.56	13.29	-35.5	-37.0	16.6	0.00e+00	0	57	0	2543845376	42	4312
2026-01-05 10:24:06.34	7.41	13.22	-35.6	-37.2	16.3	0.00e+00	0	56	0	2549088256	42	4420
2026-01-05 10:24:07.35	7.26	13.15	-35.8	-37.5	16.1	0.00e+00	0	57	0	2555379712	42	4564
2026-01-05 10:24:08.36	7.11	13.09	-35.9	-37.6	15.9	0.00e+00	0	57	0	2560622592	42	4607
2026-01-05 10:24:09.36	6.97	13.02	-35.9	-37.6	15.8	0.00e+00	0	56	0	2566914048	42	4637
2026-01-05 10:24:10.38	6.82	12.95	-35.8	-37.4	15.9	0.00e+00	0	57	0	2572156928	42	4535
2026-01-05 10:24:11.39	6.68	12.88	-35.9	-37.6	15.6	0.00e+00	0	57	0	2577399808	42	4616
2026-01-05 10:24:12.40	6.53	12.81	-35.5	-37.1	16.1	0.00e+00	0	56	0	2583691264	42	4384
2026-01-05 10:24:13.40	6.39	12.75	-35.6	-37.2	16.1	0.00e+00	0	56	0	2588934144	42	4414
2026-01-05 10:24:14.41	6.25	12.68	-35.3	-37.0	16.2	0.00e+00	0	56	0	2595225600	42	4292
2026-01-05 10:24:15.42	6.11	12.61	-35.3	-36.9	16.2	0.00e+00	0	57	0	2600468480	42	4275
2026-01-05 10:24:16.43	5.96	12.54	-35.4	-37.0	16.0	0.00e+00	0	57	0	2606759936	42	4333
2026-01-05 10:24:17.44	5.82	12.48	-35.6	-37.4	15.6	0.00e+00	0	57	0	2612002816	42	4516
2026-01-05 10:24:18.45	5.68	12.41	-35.8	-37.6	15.2	0.00e+00	0	57	0	2618294272	42	4634
2026-01-05 10:24:19.46	5.54	12.34	-36.1	-38.1	14.6	1.10e-06	0	57	0	2623537152	42	4880
2026-01-05 10:24:20.47	5.40	12.27	-36.4	-38.5	14.1	1.10e-06	0	57	0	2628780032	43	4860
2026-01-05 10:24:21.49	5.26	12.21	-36.5	-38.7	13.7	5.70e-06	0	57	0	2635071488	43	4930
2026-01-05 10:24:22.50	5.13	12.14	-37.0	-39.3	13.1	2.17e-05	0	57	0	2640314368	44	5009
2026-01-05 10:24:23.51	4.99	12.07	-37.5	-40.2	11.8	5.42e-04	0	57	0	2646605824	45	5264
2026-01-05 10:24:24.52	4.85	12.00	-38.5	-42.0	9.8	5.87e-03	0	57	0	2651848704	47	5776
2026-01-05 10:24:25.53	4.72	11.94	-39.4	-44.0	7.6	8.57e-02	0	57	0	2657091584	49	6451
2026-01-05 10:24:26.54	4.58	11.87	-40.0	-46.0	5.8	3.14e-01	0	57	0	2663383040	50	7634
2026-01-05 10:24:27.55	4.45	11.80	-40.4	-48.2	4.5	8.10e-01	0	57	0	2664431616	51	9312
2026-01-05 10:24:28.55	4.32	11.73	-40.5	-49.8	3.8	8.41e-01	0	57	104	2664431616	51	11184
2026-01-05 10:24:29.56	4.18	11.67	-40.5	-50.6	3.8	8.45e-01	0	57	104	2664431616	51	12330
2026-01-05 10:24:30.57	4.05	11.60	-40.4	-51.4	3.8	8.46e-01	0	56	104	2664431616	51	13454
2026-01-05 10:24:31.58	3.92	11.53	-40.4	-51.6	3.8	8.47e-01	0	57	104	2664431616	51	13878
2026-01-05 10:24:32.59	3.79	11.47	-40.3	-51.7	3.8	8.47e-01	0	57	104	2664431616	51	13940
2026-01-05 10:24:33.60	3.66	11.40	-40.3	-51.8	3.8	8.47e-01	0	57	104	2664431616	51	14206
2026-01-05 10:24:34.61	3.53	11.33	-40.2	-51.8	3.8	8.46e-01	0	57	104	2664431616	51	14162
2026-01-05 10:24:35.62	3.40	11.26	-40.2	-51.9	3.8	8.45e-01	0	57	104	2664431616	51	14269
2026-01-05 10:24:36.63	3.27	11.20	-40.2	-51.7	3.8	8.45e-01	0	57	104	2664431616	51	13997
2026-01-05 10:24:37.64	3.14	11.13	-40.0	-51.6	3.8	8.46e-01	0	57	104	2664431616	51	13782
2026-01-05 10:24:38.64	3.01	11.06	-40.1	-51.7	3.8	8.46e-01	0	57	104	2664431616	51	14029
2026-01-05 10:24:39.65	2.89	11.00	-40.0	-51.6	3.8	8.46e-01	0	57	104	2664431616	51	13770
2026-01-05 10:24:40.66	2.76	10.93	-40.1	-51.6	3.8	8.46e-01	0	57	104	2664431616	51	13881
2026-01-05 10:24:41.67	2.63	10.86	-40.1	-51.8	3.8	8.46e-01	0	57	104	2664431616	51	14128
2026-01-05 10:24:42.68	2.51	10.80	-40.0	-51.5	3.8	8.47e-01	0	57	104	2664431616	51	13716
2026-01-05 10:24:43.69	2.38	10.73	-40.1	-51.6	3.8	8.45e-01	0	57	104	2664431616	51	13823
2026-01-05 10:24:44.70	2.26	10.66	-39.9	-51.5	3.8	8.46e-01	0	57	104	2664431616	51	13707
2026-01-05 10:24:45.71	2.14	10.60	-39.9	-51.5	3.8	8.46e-01	0	57	104	2664431616	51	13616
2026-01-05 10:24:46.72	2.01	10.53	-40.0	-51.5	3.8	8.46e-01	0	57	104	2664431616	51	13707
2026-01-05 10:24:47.73	1.89	10.46	-39.8	-51.5	3.8	8.45e-01	0	57	104	2664431616	51	13643
2026-01-05 10:24:48.74	1.77	10.40	-39.9	-51.5	3.8	8.46e-01	0	57	104	2664431616	51	13637
2026-01-05 10:24:49.76	1.65	10.33	-40.0	-51.6	3.8	8.46e-01	0	57	104	2664431616	51	13742
2026-01-05 10:24:50.77	1.53	10.26	-39.9	-51.5	3.8	8.46e-01	0	57	104	2664431616	51	13666
2026-01-05 10:24:51.77	1.41	10.20	-40.0	-51.6	3.8	8.46e-01	0	57	104	2664431616	51	13751
2026-01-05 10:24:52.78	1.29	10.13	-39.8	-51.5	3.8	8.47e-01	0	57	104	2664431616	51	13599
2026-01-05 10:24:53.79	1.17	10.06	-39.7	-51.5	3.8	8.46e-01	0	57	104	2664431616	51	13609
2026-01-05 10:24:54.80	1.05	10.00	-39.8	-51.5	3.8	8.46e-01	0	57	104	2664431616	51	13598
2026-01-05 10:24:55.81	0.93	9.93	-39.7	-51.4	3.8	8.47e-01	0	57	104	2664431616	51	13557
2026-01-05 10:24:56.82	0.82	9.87	-39.8	-51.4	3.8	8.46e-01	0	57	104	2664431616	51	13562
2026-01-05 10:24:57.83	0.70	9.80	-39.9	-51.6	3.8	8.47e-01	0	57	104	2664431616	51	13728
2026-01-05 10:24:58.84	0.58	9.73	-39.6	-51.5	3.8	8.46e-01	0	57	104	2664431616	51	13578
2026-01-05 10:24:59.85	0.47	9.67	-39.8	-51.6	3.8	8.46e-01	0	57	104	2664431616	51	13734
2026-01-05 10:25:00.86	0.35	9.60	-39.6	-51.5	3.8	8.46e-01	0	57	104	2664431616	51	13588
2026-01-05 10:25:01.87	0.24	9.54	-39.5	-51.5	3.8	8.47e-01	0	57	104	2664431616	51	13661
2026-01-05 10:25:02.88	0.12	9.47	-39.7	-51.5	3.8	8.46e-01	0	57	104	2664431616	50	14381
2026-01-05 10:25:03.89	0.01	9.40	-39.4	-51.5	3.8	8.46e-01	0	57	104	2664431616	50	14418
2026-01-05 10:25:04.90	359.90	9.34	-39.7	-51.5	3.8	8.46e-01	0	57	104	2664431616	50	14383
2026-01-05 10:25:05.91	359.78	9.27	-39.5	-51.4	3.8	8.47e-01	0	57	104	2664431616	50	14338
2026-01-05 10:25:06.92	359.67	9.21	-39.5	-51.5	3.8	8.46e-01	0	57	104	2664431616	50	14467
2026-01-05 10:25:07.93	359.56	9.14	-39.5	-51.4	3.8	8.46e-01	0	57	104	2664431616	50	14329
2026-01-05 10:25:08.94	359.45	9.08	-39.4	-51.5	3.8	8.46e-01	0	57	104	2664431616	50	14442
2026-01-05 10:25:09.95	359.34	9.01	-39.2	-51.4	3.8	8.46e-01	0	57	104	2664431616	50	14218
2026-01-05 10:25:10.96	359.23	8.95	-39.5	-51.5	3.8	8.46e-01	0	57	104	2664431616	50	14397
2026-01-05 10:25:11.97	359.12	8.88	-39.0	-51.3	3.8	8.46e-01	0	57	104	2664431616	50	14182
2026-01-05 10:25:12.98	359.01	8.82	-39.4	-51.5	3.8	8.47e-01	0	57	104	2664431616	49	15245
2026-01-05 10:25:14.00	358.90	8.75	-39.5	-51.4	3.8	8.46e-01	0	57	104	2664431616	49	15114
2026-01-05 10:25:15.00	358.79	8.69	-39.3	-51.4	3.8	8.46e-01	0	57	104	2664431616	49	15116
2026-01-05 10:25:16.02	358.69	8.62	-39.4	-51.4	3.8	8.47e-01	0	57	104	2664431616	49	15119
2026-01-05 10:25:17.03	358.58	8.56	-39.2	-51.3	3.8	8.47e-01	0	57	104	2664431616	49	15050
2026-01-05 10:25:18.04	358.47	8.49	-38.2	-51.3	3.8	8.47e-01	0	57	104	2664431616	48	15846
2026-01-05 10:25:19.04	358.37	8.43	-39.3	-51.4	3.8	8.45e-01	0	57	104	2664431616	49	15122
2026-01-05 10:25:20.05	358.26	8.36	-38.3	-51.2	3.8	8.46e-01	0	57	104	2664431616	48	15732
2026-01-05 10:25:21.06	358.16	8.30	-39.2	-51.4	3.8	8.45e-01	0	57	104	2664431616	49	15079
2026-01-05 10:25:22.07	358.05	8.23	-39.0	-51.3	3.8	8.46e-01	0	57	104	2664431616	49	15051
2026-01-05 10:25:23.08	357.95	8.17	-38.7	-51.3	3.8	8.46e-01	0	57	104	2664431616	48	15815
2026-01-05 10:25:24.10	357.84	8.10	-38.9	-51.4	3.8	8.45e-01	0	57	104	2664431616	48	15957
2026-01-05 10:25:25.11	357.74	8.04	-38.8	-51.2	3.8	8.47e-01	0	57	104	2664431616	48	15747
2026-01-05 10:25:26.12	357.64	7.98	-39.6	-51.5	3.8	8.45e-01	0	57	104	2664431616	49	15232
2026-01-05 10:25:27.13	357.54	7.91	-43.2	-54.9	3.8	8.46e-01	0	57	104	2664431616	56	15067
2026-01-05 10:25:28.14	357.43	7.85	-44.7	-56.2	3.8	8.47e-01	0	57	104	2664431616	59	14816
2026-01-05 10:25:29.15	357.33	7.78	-44.9	-56.6	3.8	8.46e-01	0	57	104	2664431616	60	14686
2026-01-05 10:25:30.16	357.23	7.72	-45.0	-56.8	3.8	8.47e-01	0	57	104	2664431616	60	14894
2026-01-05 10:25:31.17	357.13	7.66	-45.1	-56.9	3.8	8.46e-01	0	57	104	2664431616	60	15089
2026-01-05 10:25:32.19	357.03	7.59	-45.2	-56.9	3.8	8.46e-01	0	57	104	2664431616	60	15213
2026-01-05 10:25:33.19	356.93	7.53	-45.1	-57.0	3.8	8.46e-01	0	57	104	2664431616	60	15300
2026-01-05 10:25:34.21	356.83	7.47	-45.2	-57.0	3.8	8.47e-01	0	57	104	2664431616	60	15325
2026-01-05 10:25:35.22	356.73	7.40	-45.1	-57.0	3.8	8.46e-01	0	57	104	2664431616	60	15291
2026-01-05 10:25:36.23	356.64	7.34	-45.1	-57.0	3.8	8.46e-01	0	57	104	2664431616	60	15229
2026-01-05 10:25:37.24	356.54	7.28	-45.0	-56.9	3.8	8.48e-01	0	57	104	2664431616	60	15188
2026-01-05 10:25:38.25	356.44	7.21	-44.9	-56.9	3.8	8.46e-01	0	57	104	2664431616	60	15068
2026-01-05 10:25:39.26	356.35	7.15	-45.0	-56.9	3.8	8.45e-01	0	57	104	2664431616	60	15097
2026-01-05 10:25:40.27	356.25	7.09	-45.0	-56.9	3.8	8.46e-01	0	57	104	2664431616	60	15116
2026-01-05 10:25:41.28	356.15	7.02	-45.0	-56.9	3.8	8.46e-01	0	57	104	2664431616	60	15083
2026-01-05 10:25:42.29	356.06	6.96	-45.0	-56.8	3.8	8.45e-01	0	57	104	2664431616	60	15035
2026-01-05 10:25:43.30	355.96	6.90	-44.9	-56.8	3.8	8.46e-01	0	57	104	2664431616	60	15015
2026-01-05 10:25:44.32	355.87	6.83	-44.9	-56.8	3.8	8.45e-01	0	57	104	2664431616	60	15011
2026-01-05 10:25:45.33	355.77	6.77	-44.9	-56.8	3.8	8.46e-01	0	57	104	2664431616	60	15041
2026-01-05 10:25:46.34	355.68	6.71	-44.9	-56.8	3.8	8.47e-01	0	57	104	2664431616	60	15037
2026-01-05 10:25:47.35	355.59	6.65	-44.6	-56.8	3.8	8.46e-01	0	57	104	2664431616	60	15028
2026-01-05 10:25:48.36	355.49	6.58	-44.9	-56.8	3.8	8.47e-01	0	57	104	2664431616	60	15023
2026-01-05 10:25:49.37	355.40	6.52	-44.9	-56.8	3.8	8.46e-01	0	57	104	2664431616	60	15040
2026-01-05 10:25:50.38	355.31	6.46	-44.9	-56.8	3.8	8.45e-01	0	57	104	2664431616	60	14967
2026-01-05 10:25:51.39	355.22	6.40	-44.9	-56.8	3.8	8.47e-01	0	57	104	2664431616	60	15019
2026-01-05 10:25:52.40	355.13	6.33	-44.9	-56.8	3.8	8.45e-01	0	57	104	2664431616	60	15022
2026-01-05 10:25:53.41	355.03	6.27	-44.9	-56.8	3.8	8.45e-01	0	57	104	2664431616	60	15023
2026-01-05 10:25:54.43	354.94	6.21	-44.9	-56.8	3.8	8.46e-01	0	57	104	2664431616	60	15001
2026-01-05 10:25:55.44	354.85	6.15	-44.9	-56.8	3.8	8.46e-01	0	57	104	2664431616	60	14972
2026-01-05 10:25:56.45	354.76	6.09	-44.9	-56.8	3.8	8.46e-01	0	57	104	2664431616	60	15007
2026-01-05 10:25:57.46	354.67	6.02	-44.5	-56.8	3.8	8.46e-01	0	57	104	2664431616	60	14974
2026-01-05 10:25:58.47	354.59	5.96	-44.8	-56.8	3.8	8.47e-01	0	57	104	2664431616	60	14986
2026-01-05 10:25:59.48	354.50	5.90	-44.9	-56.8	3.8	8.46e-01	0	57	104	2664431616	60	15011
2026-01-05 10:26:00.49	354.41	5.84	-44.9	-56.8	3.8	8.47e-01	0	57	104	2664431616	60	14972
2026-01-05 10:26:01.50	354.32	5.78	-44.9	-56.8	3.8	8.47e-01	0	57	104	2664431616	60	14991
2026-01-05 10:26:02.51	354.23	5.72	-44.9	-56.8	3.8	8.46e-01	0	57	104	2664431616	60	14979
2026-01-05 10:26:03.53	354.15	5.66	-44.9	-56.8	3.8	8.46e-01	0	57	104	2664431616	60	15018
2026-01-05 10:26:04.54	354.06	5.59	-44.9	-56.8	3.8	8.45e-01	0	57	104	2664431616	60	14951
2026-01-05 10:26:05.55	353.97	5.53	-44.9	-56.8	3.8	8.46e-01	0	57	104	2664431616	60	14972
2026-01-05 10:26:06.56	353.89	5.47	-44.9	-56.8	3.8	8.46e-01	0	57	104	2664431616	60	14960
2026-01-05 10:26:07.57	353.80	5.41	-44.9	-56.8	3.8	8.46e-01	0	57	104	2664431616	60	14971
2026-01-05 10:26:08.58	353.72	5.35	-44.9	-56.8	3.8	8.46e-01	0	57	104	2664431616	60	14963
2026-01-05 10:26:09.59	353.63	5.29	-44.9	-56.8	3.8	8.46e-01	0	57	104	2664431616	60	14962
2026-01-05 10:26:10.60	353.55	5.23	-44.9	-56.8	3.8	8.46e-01	0	57	104	2664431616	60	14978
2026-01-05 10:26:11.61	353.46	5.17	-44.9	-56.8	3.8	8.46e-01	0	57	104	2664431616	60	14991
2026-01-05 10:26:12.62	353.38	5.11	-44.9	-56.8	3.8	8.46e-01	0	57	104	2664431616	60	14976
2026-01-05 10:26:13.63	353.30	5.05	-44.9	-56.8	3.8	8.47e-01	0	57	104	2664431616	60	14951
2026-01-05 10:26:14.64	353.21	4.99	-44.9	-56.8	3.8	8.46e-01	0	57	104	2664431616	60	14993
2026-01-05 10:26:15.66	353.13	4.93	-44.9	-56.8	3.8	8.47e-01	0	57	104	2664431616	60	14932
2026-01-05 10:26:16.67	353.05	4.87	-44.9	-56.8	3.8	8.46e-01	0	57	104	2664431616	60	14926
