passes_logs/2026/01/05/R2.0S_Moscow/R2.0S_Moscow__20260105_232332_NOAA_20_JPSS-1_rec.log

#Pass ID: 20260105_232332_NOAA 20 (JPSS-1)
#Satellite: NOAA 20 (JPSS-1)
#Configuration: NOAA 20
#almurnet v.1.7.20251203
#Start time: 2026-01-05 23:23:33

#Version: 2.2.20231116
#Station: R2.0S_Moscow
#Location: 37.707566 lon 55.798166 lat
#TLE: 1 43013U 17073A   26005.46207808  .00000128  00000+0  81791-4 0  9997
#TLE: 2 43013  98.7627 306.5027 0001826  53.0458 307.0885 14.19533487421381

#Time	Az	El	Level	Level2	SNR	BER	BlckErr	Temp	State	Recorded	gain1	gain2
2026-01-05 23:23:33.22	17.47	2.05	-40.8	-56.0	3.8	1.49e+00	0	48	0	0	53	20468
2026-01-05 23:23:34.22	17.49	2.12	-40.8	-56.0	3.8	1.49e+00	0	49	104	0	53	20452
2026-01-05 23:23:35.23	17.50	2.18	-40.9	-56.0	3.8	1.49e+00	0	49	104	0	53	20397
2026-01-05 23:23:36.25	17.52	2.24	-40.8	-56.0	3.8	1.49e+00	0	48	104	0	53	20407
2026-01-05 23:23:37.26	17.54	2.31	-40.9	-56.0	3.8	1.49e+00	0	49	104	0	53	20421
2026-01-05 23:23:38.27	17.55	2.37	-40.8	-56.0	3.8	1.49e+00	0	49	104	0	53	20406
2026-01-05 23:23:39.28	17.57	2.44	-40.9	-56.0	3.8	1.49e+00	0	49	104	0	53	20406
2026-01-05 23:23:40.29	17.59	2.50	-40.8	-56.0	3.8	1.49e+00	0	49	104	0	53	20445
2026-01-05 23:23:41.30	17.60	2.57	-40.8	-56.0	3.8	1.49e+00	0	49	104	0	53	20409
2026-01-05 23:23:42.31	17.62	2.63	-40.8	-56.0	3.8	1.49e+00	0	49	104	0	53	20475
2026-01-05 23:23:43.32	17.64	2.70	-40.8	-56.0	3.8	1.49e+00	0	49	104	0	53	20389
2026-01-05 23:23:44.33	17.65	2.77	-40.9	-56.0	3.8	1.49e+00	0	49	104	0	53	20447
2026-01-05 23:23:45.34	17.67	2.83	-40.9	-56.0	3.8	1.49e+00	0	49	104	0	53	20440
2026-01-05 23:23:46.35	17.69	2.90	-40.8	-56.0	3.8	1.49e+00	0	49	104	0	53	20458
2026-01-05 23:23:47.37	17.70	2.96	-40.8	-56.0	3.8	1.49e+00	0	49	104	0	53	20392
2026-01-05 23:23:48.38	17.72	3.03	-40.8	-56.0	3.8	1.49e+00	0	49	104	0	53	20460
2026-01-05 23:23:49.39	17.74	3.10	-40.8	-56.0	3.8	1.49e+00	0	50	104	0	53	20349
2026-01-05 23:23:50.40	17.76	3.16	-40.8	-56.0	3.8	1.49e+00	0	50	104	0	53	20449
2026-01-05 23:23:51.41	17.77	3.23	-40.9	-56.0	3.8	1.49e+00	0	50	104	0	53	20450
2026-01-05 23:23:52.42	17.79	3.30	-40.8	-56.0	3.8	1.49e+00	0	50	104	0	53	20375
2026-01-05 23:23:53.43	17.81	3.36	-40.9	-56.0	3.8	1.49e+00	0	50	104	0	53	20443
2026-01-05 23:23:54.44	17.83	3.43	-40.8	-56.0	3.8	1.49e+00	0	50	104	0	53	20421
2026-01-05 23:23:55.46	17.84	3.50	-40.8	-56.0	3.8	1.49e+00	0	50	104	0	53	20346
2026-01-05 23:23:56.47	17.86	3.57	-40.8	-56.0	3.8	1.49e+00	0	50	104	0	53	20423
2026-01-05 23:23:57.48	17.88	3.63	-40.8	-56.0	3.8	1.49e+00	0	50	104	0	53	20399
2026-01-05 23:23:58.49	17.90	3.70	-40.8	-56.0	3.8	1.49e+00	0	50	104	0	53	20429
2026-01-05 23:23:59.50	17.91	3.77	-40.8	-56.0	3.8	1.49e+00	0	50	104	0	53	20370
2026-01-05 23:24:00.51	17.93	3.84	-40.8	-56.0	3.8	1.49e+00	0	50	104	0	53	20440
2026-01-05 23:24:01.52	17.95	3.91	-40.8	-56.0	3.8	1.49e+00	0	50	104	0	53	20420
2026-01-05 23:24:02.53	17.97	3.97	-40.8	-56.0	3.8	1.49e+00	0	50	104	0	53	20391
2026-01-05 23:24:03.54	17.99	4.04	-40.8	-56.0	3.8	1.49e+00	0	50	104	0	53	20393
2026-01-05 23:24:04.55	18.00	4.11	-40.8	-56.0	3.8	1.49e+00	0	50	104	0	53	20410
2026-01-05 23:24:05.56	18.02	4.18	-40.8	-56.0	3.8	1.49e+00	0	50	104	0	53	20442
2026-01-05 23:24:06.58	18.04	4.25	-40.8	-56.0	3.8	1.49e+00	0	51	104	0	53	20342
2026-01-05 23:24:07.59	18.06	4.32	-40.9	-56.0	3.8	1.49e+00	0	51	104	0	53	20386
2026-01-05 23:24:08.60	18.08	4.39	-40.9	-56.0	3.8	1.49e+00	0	51	104	0	53	20337
2026-01-05 23:24:09.61	18.10	4.46	-40.8	-56.0	3.8	1.49e+00	0	51	104	0	53	20419
2026-01-05 23:24:10.62	18.12	4.53	-40.8	-56.0	3.8	1.49e+00	0	51	104	0	53	20368
2026-01-05 23:24:11.63	18.13	4.60	-40.8	-56.0	3.8	1.49e+00	0	51	104	0	53	20420
2026-01-05 23:24:12.64	18.15	4.67	-40.8	-56.0	3.8	1.49e+00	0	51	104	0	53	20362
2026-01-05 23:24:13.65	18.17	4.74	-40.8	-56.0	3.8	1.49e+00	0	51	104	0	53	20335
2026-01-05 23:24:14.66	18.19	4.81	-40.8	-56.0	3.8	1.49e+00	0	51	104	0	53	20368
2026-01-05 23:24:15.67	18.21	4.88	-40.8	-56.0	3.8	1.49e+00	0	51	104	0	53	20468
2026-01-05 23:24:16.69	18.23	4.95	-40.8	-56.0	3.8	1.49e+00	0	51	104	0	53	20354
2026-01-05 23:24:17.70	18.25	5.03	-40.8	-56.0	3.8	1.49e+00	0	51	104	0	53	20379
2026-01-05 23:24:18.71	18.27	5.10	-40.8	-56.0	3.8	1.49e+00	0	51	104	0	53	20432
2026-01-05 23:24:19.72	18.29	5.17	-40.8	-56.0	3.8	1.49e+00	0	51	104	0	53	20426
2026-01-05 23:24:20.73	18.30	5.24	-40.8	-56.0	3.8	1.49e+00	0	51	104	0	53	20368
2026-01-05 23:24:21.74	18.32	5.31	-40.8	-56.0	3.8	1.49e+00	0	51	104	0	53	20381
2026-01-05 23:24:22.75	18.34	5.38	-40.8	-56.0	3.8	1.49e+00	0	51	104	0	53	20415
2026-01-05 23:24:23.76	18.36	5.46	-40.8	-56.0	3.8	1.49e+00	0	51	104	0	53	20413
2026-01-05 23:24:24.77	18.38	5.53	-40.8	-56.0	3.8	1.49e+00	0	51	104	0	53	20367
2026-01-05 23:24:25.78	18.40	5.60	-40.8	-56.0	3.8	1.49e+00	0	51	104	0	53	20318
2026-01-05 23:24:26.79	18.42	5.68	-40.9	-56.0	3.8	1.49e+00	0	52	104	0	53	20331
2026-01-05 23:24:27.81	18.44	5.75	-40.8	-56.0	3.8	1.49e+00	0	52	104	0	53	20325
2026-01-05 23:24:28.82	18.46	5.82	-40.8	-56.0	3.8	1.49e+00	0	52	104	0	53	20343
2026-01-05 23:24:29.83	18.48	5.90	-40.9	-56.0	3.8	1.49e+00	0	52	104	0	53	20371
2026-01-05 23:24:30.84	18.50	5.97	-40.8	-56.0	3.8	1.49e+00	0	52	104	0	53	20306
2026-01-05 23:24:31.85	18.52	6.04	-40.8	-56.0	3.8	1.49e+00	0	52	104	0	53	20394
2026-01-05 23:24:32.86	18.54	6.12	-40.8	-56.0	3.8	1.49e+00	0	52	104	0	53	20394
2026-01-05 23:24:33.87	18.56	6.19	-40.9	-56.0	3.8	1.49e+00	0	52	104	0	53	20366
2026-01-05 23:24:34.88	18.58	6.27	-40.8	-55.9	3.8	1.49e+00	0	52	104	0	53	20271
2026-01-05 23:24:35.89	18.60	6.34	-40.8	-55.9	3.8	1.49e+00	0	52	104	0	53	20281
2026-01-05 23:24:36.90	18.62	6.42	-40.9	-55.9	3.8	1.49e+00	0	52	104	0	53	20280
2026-01-05 23:24:37.92	18.64	6.49	-40.8	-56.0	3.8	1.49e+00	0	52	104	0	53	20309
2026-01-05 23:24:38.93	18.66	6.57	-40.8	-56.0	3.8	1.49e+00	0	52	104	0	53	20311
2026-01-05 23:24:39.94	18.68	6.64	-40.8	-56.0	3.8	1.49e+00	0	52	104	0	53	20339
2026-01-05 23:24:40.95	18.71	6.72	-40.8	-55.9	3.8	1.49e+00	0	52	104	0	53	20275
2026-01-05 23:24:41.96	18.73	6.80	-40.8	-55.9	3.8	1.49e+00	0	52	104	0	53	20196
2026-01-05 23:24:42.97	18.75	6.87	-40.8	-55.8	3.8	1.49e+00	0	53	104	0	53	19969
2026-01-05 23:24:43.98	18.77	6.95	-40.8	-55.7	3.8	1.49e+00	0	52	104	0	53	19620
2026-01-05 23:24:44.99	18.79	7.03	-40.8	-55.5	3.8	1.49e+00	0	52	104	0	53	19314
2026-01-05 23:24:46.00	18.81	7.10	-40.8	-55.4	3.8	1.49e+00	0	52	104	0	53	19041
2026-01-05 23:24:47.02	18.83	7.18	-40.8	-55.3	3.8	1.49e+00	0	52	104	0	53	18770
2026-01-05 23:24:48.03	18.85	7.26	-40.8	-55.2	3.8	1.49e+00	0	53	104	0	53	18570
2026-01-05 23:24:49.04	18.88	7.34	-40.8	-55.1	3.8	1.49e+00	0	53	104	0	53	18408
2026-01-05 23:24:50.05	18.90	7.42	-40.8	-55.0	3.8	1.49e+00	0	53	104	0	53	18214
2026-01-05 23:24:51.06	18.92	7.49	-40.8	-54.9	3.8	1.49e+00	0	53	104	0	53	18005
2026-01-05 23:24:52.07	18.94	7.57	-40.8	-54.5	3.8	1.49e+00	0	53	104	0	53	17252
2026-01-05 23:24:53.08	18.96	7.65	-40.7	-54.1	3.8	1.49e+00	0	53	104	0	53	16466
2026-01-05 23:24:54.09	18.98	7.73	-40.7	-53.5	4.0	1.49e+00	0	53	104	0	53	15389
2026-01-05 23:24:55.10	19.01	7.81	-40.6	-52.8	4.1	1.44e+00	0	53	0	0	53	14134
2026-01-05 23:24:56.11	19.03	7.89	-40.6	-51.8	4.4	1.35e+00	41	53	0	0	53	12635
2026-01-05 23:24:57.13	19.05	7.97	-40.5	-50.9	4.8	1.05e+00	0	53	0	2097152	53	11338
2026-01-05 23:24:58.14	19.07	8.05	-40.4	-49.9	5.3	6.22e-01	0	53	0	3145728	52	10734
2026-01-05 23:24:59.15	19.10	8.13	-40.4	-47.6	7.6	1.70e-01	0	53	0	5242880	52	8186
2026-01-05 23:25:00.16	19.12	8.21	-41.3	-47.1	9.1	3.28e-02	0	53	0	7340032	53	7363
2026-01-05 23:25:01.17	19.14	8.29	-40.7	-52.9	3.9	1.27e-01	0	53	104	8388608	52	15203
2026-01-05 23:25:02.18	19.16	8.37	-40.5	-47.4	7.5	2.59e-01	0	53	0	9437184	52	8006
2026-01-05 23:25:03.19	19.19	8.45	-40.8	-45.3	11.4	2.78e-04	0	53	0	10485760	52	6305
2026-01-05 23:25:04.20	19.21	8.53	-39.4	-42.7	13.9	6.25e-05	0	53	0	12582912	50	5265
2026-01-05 23:25:05.20	19.23	8.62	-39.6	-42.9	13.8	3.00e-06	0	53	0	14680064	50	5375
2026-01-05 23:25:06.21	19.26	8.70	-39.6	-43.0	13.7	3.80e-06	0	53	0	16777216	50	5417
2026-01-05 23:25:07.22	19.28	8.78	-40.0	-43.5	13.3	7.60e-06	0	53	0	17825792	50	5758
2026-01-05 23:25:08.23	19.30	8.86	-40.1	-43.6	13.2	2.67e-05	0	53	0	19922944	50	5835
2026-01-05 23:25:09.24	19.33	8.94	-40.2	-43.8	13.1	2.89e-05	0	53	0	22020096	50	5939
2026-01-05 23:25:10.25	19.35	9.03	-40.1	-43.7	13.2	2.36e-05	0	53	0	24117248	50	5883
2026-01-05 23:25:11.26	19.37	9.11	-40.0	-43.5	13.4	1.75e-05	0	53	0	26214400	50	5757
2026-01-05 23:25:12.27	19.40	9.20	-39.9	-43.3	13.6	8.30e-06	0	53	0	28311552	50	5630
2026-01-05 23:25:13.28	19.42	9.28	-40.0	-43.3	13.7	9.90e-06	0	53	0	29360128	50	5637
2026-01-05 23:25:14.29	19.45	9.36	-40.1	-43.5	13.5	9.90e-06	0	53	0	31457280	50	5753
2026-01-05 23:25:15.30	19.47	9.45	-40.2	-43.6	13.4	1.29e-05	0	53	0	33554432	50	5838
2026-01-05 23:25:16.31	19.49	9.53	-40.1	-43.4	13.6	9.90e-06	0	53	0	35651584	50	5713
2026-01-05 23:25:17.32	19.52	9.62	-40.0	-43.3	13.7	1.06e-05	0	53	0	37748736	50	5648
2026-01-05 23:25:18.33	19.54	9.70	-40.0	-43.3	13.8	3.80e-06	0	53	0	38797312	50	5617
2026-01-05 23:25:19.34	19.57	9.79	-40.0	-43.3	13.9	3.00e-06	0	53	0	40894464	50	5603
2026-01-05 23:25:20.35	19.59	9.87	-40.1	-43.3	13.9	5.30e-06	0	53	0	42991616	50	5598
2026-01-05 23:25:21.36	19.62	9.96	-40.0	-43.1	14.1	7.60e-06	0	53	0	45088768	50	5522
2026-01-05 23:25:22.37	19.64	10.05	-40.1	-43.2	14.0	2.20e-06	0	53	0	47185920	50	5582
2026-01-05 23:25:23.38	19.67	10.13	-40.0	-43.1	14.2	3.00e-06	0	54	0	48234496	50	5501
2026-01-05 23:25:24.39	19.69	10.22	-40.2	-43.3	14.0	2.20e-06	0	53	0	50331648	50	5628
2026-01-05 23:25:25.40	19.72	10.31	-40.2	-43.3	14.0	4.50e-06	0	53	0	52428800	50	5633
2026-01-05 23:25:26.41	19.74	10.40	-40.1	-43.1	14.2	4.50e-06	0	54	0	54525952	51	5213
2026-01-05 23:25:27.42	19.77	10.49	-40.1	-43.1	14.3	1.50e-06	0	53	0	56623104	51	5177
2026-01-05 23:25:28.43	19.79	10.57	-40.0	-42.9	14.5	7.00e-07	0	54	0	57671680	51	5058
2026-01-05 23:25:29.44	19.82	10.66	-40.0	-42.9	14.5	0.00e+00	0	54	0	59768832	51	5098
2026-01-05 23:25:30.45	19.85	10.75	-40.3	-43.3	14.1	1.50e-06	0	54	0	61865984	51	5296
2026-01-05 23:25:31.46	19.87	10.84	-40.2	-43.1	14.3	0.00e+00	0	54	0	63963136	51	5191
2026-01-05 23:25:32.47	19.90	10.93	-40.1	-43.0	14.5	0.00e+00	0	54	0	66060288	51	5108
2026-01-05 23:25:33.48	19.93	11.02	-40.1	-42.9	14.5	0.00e+00	0	54	0	68157440	51	5097
2026-01-05 23:25:34.49	19.95	11.11	-40.1	-43.1	14.4	7.00e-07	0	54	0	69206016	51	5170
2026-01-05 23:25:35.50	19.98	11.20	-40.0	-42.9	14.6	0.00e+00	0	54	0	71303168	51	5048
2026-01-05 23:25:36.51	20.01	11.29	-40.0	-42.9	14.6	7.00e-07	0	54	0	73400320	51	5046
2026-01-05 23:25:37.52	20.03	11.38	-40.1	-42.9	14.6	7.00e-07	0	54	0	75497472	51	5057
2026-01-05 23:25:38.52	20.06	11.47	-40.0	-42.8	14.8	0.00e+00	0	54	0	77594624	51	4993
2026-01-05 23:25:39.53	20.09	11.57	-39.9	-42.6	14.9	0.00e+00	0	54	0	78643200	51	4917
2026-01-05 23:25:40.54	20.11	11.66	-39.9	-42.6	15.0	0.00e+00	0	54	0	80740352	51	4881
2026-01-05 23:25:41.55	20.14	11.75	-39.8	-42.5	15.0	0.00e+00	0	54	0	82837504	51	4852
2026-01-05 23:25:42.56	20.17	11.84	-39.9	-42.6	15.0	0.00e+00	0	54	0	84934656	51	4874
2026-01-05 23:25:43.57	20.20	11.94	-39.9	-42.5	15.1	0.00e+00	0	54	0	85983232	51	4865
2026-01-05 23:25:44.58	20.22	12.03	-39.9	-42.6	15.0	0.00e+00	0	54	0	88080384	51	4885
2026-01-05 23:25:45.59	20.25	12.13	-39.9	-42.6	15.1	7.00e-07	0	54	0	90177536	51	4888
2026-01-05 23:25:46.60	20.28	12.22	-40.0	-42.7	15.0	0.00e+00	0	54	0	92274688	51	4957
2026-01-05 23:25:47.61	20.31	12.32	-39.9	-42.6	15.1	0.00e+00	0	54	0	94371840	51	4919
2026-01-05 23:25:48.62	20.34	12.41	-39.9	-42.6	15.1	0.00e+00	0	54	0	96468992	51	4920
2026-01-05 23:25:49.63	20.37	12.51	-39.9	-42.6	15.1	0.00e+00	0	54	0	97517568	51	4918
2026-01-05 23:25:50.64	20.40	12.60	-39.9	-42.6	15.1	0.00e+00	0	54	0	99614720	51	4896
2026-01-05 23:25:51.65	20.42	12.70	-40.0	-42.7	15.1	0.00e+00	0	54	0	101711872	51	4954
2026-01-05 23:25:52.66	20.45	12.80	-40.0	-42.7	15.1	0.00e+00	0	54	0	103809024	51	4948
2026-01-05 23:25:53.67	20.48	12.89	-40.0	-42.7	15.1	7.00e-07	0	54	0	105906176	51	4961
2026-01-05 23:25:54.68	20.51	12.99	-40.0	-42.7	15.1	0.00e+00	0	54	0	106954752	51	4944
2026-01-05 23:25:55.69	20.54	13.09	-40.0	-42.7	15.0	0.00e+00	0	55	0	109051904	51	4959
2026-01-05 23:25:56.70	20.57	13.19	-40.1	-42.8	15.0	7.00e-07	0	54	0	111149056	51	5010
2026-01-05 23:25:57.71	20.60	13.29	-40.1	-42.9	14.9	0.00e+00	0	54	0	113246208	51	5058
2026-01-05 23:25:58.72	20.63	13.38	-40.2	-42.9	14.8	0.00e+00	0	54	0	115343360	51	5097
2026-01-05 23:25:59.72	20.66	13.48	-40.1	-42.8	15.0	0.00e+00	0	54	0	116391936	51	4992
2026-01-05 23:26:00.73	20.69	13.58	-40.0	-42.6	15.1	0.00e+00	0	54	0	118489088	51	4925
2026-01-05 23:26:01.75	20.72	13.68	-40.0	-42.7	15.1	0.00e+00	0	55	0	120586240	51	4970
2026-01-05 23:26:02.75	20.76	13.78	-40.0	-42.7	15.1	0.00e+00	0	54	0	122683392	51	4964
2026-01-05 23:26:03.76	20.79	13.88	-40.0	-42.7	15.1	0.00e+00	0	54	0	124780544	51	4966
2026-01-05 23:26:04.78	20.82	13.99	-40.1	-42.8	15.0	0.00e+00	0	55	0	125829120	51	4996
2026-01-05 23:26:05.78	20.85	14.09	-40.1	-42.8	14.9	0.00e+00	0	54	0	127926272	51	5033
2026-01-05 23:26:06.79	20.88	14.19	-40.1	-42.9	14.9	0.00e+00	0	54	0	130023424	51	5049
2026-01-05 23:26:07.80	20.91	14.29	-40.1	-42.7	15.1	0.00e+00	0	55	0	132120576	51	4977
2026-01-05 23:26:08.82	20.95	14.40	-40.1	-42.8	15.1	0.00e+00	0	55	0	134217728	51	4995
2026-01-05 23:26:09.83	20.98	14.50	-40.2	-42.9	14.9	0.00e+00	0	54	0	136314880	51	5085
2026-01-05 23:26:10.84	21.01	14.61	-40.2	-42.9	14.9	0.00e+00	0	55	0	137363456	51	5090
2026-01-05 23:26:11.85	21.04	14.71	-40.1	-42.8	15.0	0.00e+00	0	55	0	139460608	51	5022
2026-01-05 23:26:12.86	21.08	14.81	-40.1	-42.7	15.1	0.00e+00	0	55	0	141557760	51	4980
2026-01-05 23:26:13.86	21.11	14.92	-40.1	-42.8	15.0	0.00e+00	0	55	0	143654912	51	5038
2026-01-05 23:26:14.87	21.14	15.02	-40.2	-42.9	15.0	0.00e+00	0	55	0	144703488	51	5087
2026-01-05 23:26:15.88	21.18	15.13	-40.1	-42.8	15.1	0.00e+00	0	55	0	146800640	51	5013
2026-01-05 23:26:16.89	21.21	15.24	-40.1	-42.8	15.1	0.00e+00	0	55	0	148897792	51	5003
2026-01-05 23:26:17.90	21.24	15.35	-40.1	-42.8	15.1	0.00e+00	0	55	0	150994944	51	5011
2026-01-05 23:26:18.91	21.28	15.45	-40.1	-42.7	15.2	0.00e+00	0	55	0	153092096	51	4968
2026-01-05 23:26:19.92	21.31	15.56	-40.1	-42.7	15.3	0.00e+00	0	55	0	154140672	51	4939
2026-01-05 23:26:20.93	21.35	15.67	-40.1	-42.7	15.2	0.00e+00	0	55	0	156237824	51	4970
2026-01-05 23:26:21.94	21.38	15.78	-40.1	-42.7	15.3	0.00e+00	0	55	0	158334976	51	4967
2026-01-05 23:26:22.95	21.42	15.89	-40.2	-42.8	15.2	0.00e+00	0	55	0	160432128	51	5014
2026-01-05 23:26:23.96	21.45	16.00	-40.2	-42.8	15.2	0.00e+00	0	55	0	162529280	51	5023
2026-01-05 23:26:24.97	21.49	16.11	-40.2	-42.9	15.1	0.00e+00	0	55	0	164626432	51	5067
2026-01-05 23:26:25.98	21.52	16.22	-40.2	-42.9	15.2	0.00e+00	0	55	0	165675008	51	5045
2026-01-05 23:26:26.99	21.56	16.33	-40.2	-42.9	15.1	0.00e+00	0	55	0	167772160	51	5065
2026-01-05 23:26:28.00	21.59	16.44	-40.2	-42.9	15.2	0.00e+00	0	55	0	169869312	51	5067
2026-01-05 23:26:29.01	21.63	16.56	-40.3	-43.0	15.1	0.00e+00	0	55	0	171966464	51	5104
2026-01-05 23:26:30.02	21.67	16.67	-40.4	-43.1	15.0	0.00e+00	0	55	0	174063616	51	5190
2026-01-05 23:26:31.03	21.70	16.78	-40.5	-43.3	14.8	0.00e+00	0	55	0	175112192	51	5296
2026-01-05 23:26:32.04	21.74	16.90	-40.4	-43.1	15.0	7.00e-07	0	55	0	177209344	51	5189
2026-01-05 23:26:33.05	21.78	17.01	-40.4	-43.2	14.9	0.00e+00	0	55	0	179306496	51	5238
2026-01-05 23:26:34.06	21.82	17.13	-40.4	-43.1	14.9	0.00e+00	0	55	0	181403648	51	5191
2026-01-05 23:26:35.07	21.85	17.24	-40.4	-43.1	14.9	7.00e-07	0	55	0	183500800	51	5207
2026-01-05 23:26:36.08	21.89	17.36	-40.3	-43.1	15.0	0.00e+00	0	55	0	184549376	51	5170
2026-01-05 23:26:37.09	21.93	17.48	-40.4	-43.1	15.0	0.00e+00	0	55	0	186646528	51	5209
2026-01-05 23:26:38.10	21.97	17.59	-40.3	-43.0	15.0	7.00e-07	0	55	0	188743680	51	5156
2026-01-05 23:26:39.11	22.01	17.71	-40.3	-43.0	15.1	0.00e+00	0	55	0	190840832	51	5115
2026-01-05 23:26:40.12	22.05	17.83	-40.4	-43.1	14.9	0.00e+00	0	55	0	192937984	51	5193
2026-01-05 23:26:41.13	22.09	17.95	-40.3	-43.0	15.1	0.00e+00	0	55	0	193986560	51	5128
2026-01-05 23:26:42.14	22.13	18.07	-40.4	-43.1	15.0	0.00e+00	0	55	0	196083712	51	5174
2026-01-05 23:26:43.15	22.17	18.19	-40.3	-43.0	15.1	7.00e-07	0	55	0	198180864	51	5106
2026-01-05 23:26:44.16	22.21	18.31	-40.3	-43.0	15.1	0.00e+00	0	55	0	200278016	51	5107
2026-01-05 23:26:45.17	22.25	18.43	-40.3	-43.0	15.2	0.00e+00	0	55	0	202375168	51	5105
2026-01-05 23:26:46.18	22.29	18.56	-40.3	-43.0	15.2	0.00e+00	0	55	0	204472320	51	5123
2026-01-05 23:26:47.19	22.33	18.68	-40.3	-43.0	15.2	0.00e+00	0	55	0	205520896	51	5131
2026-01-05 23:26:48.20	22.37	18.80	-40.3	-43.0	15.2	7.00e-07	0	55	0	207618048	51	5107
2026-01-05 23:26:49.21	22.41	18.92	-40.4	-43.0	15.2	0.00e+00	0	55	0	209715200	51	5140
2026-01-05 23:26:50.22	22.46	19.05	-40.4	-43.1	15.1	0.00e+00	0	55	0	211812352	51	5169
2026-01-05 23:26:51.23	22.50	19.17	-40.4	-43.0	15.2	0.00e+00	0	55	0	213909504	51	5150
2026-01-05 23:26:52.24	22.54	19.30	-40.4	-43.1	15.1	0.00e+00	0	55	0	214958080	51	5179
2026-01-05 23:26:53.25	22.58	19.43	-40.4	-43.1	15.1	7.00e-07	0	55	0	217055232	51	5191
2026-01-05 23:26:54.26	22.63	19.55	-40.5	-43.2	15.0	0.00e+00	0	55	0	219152384	51	5232
2026-01-05 23:26:55.27	22.67	19.68	-40.5	-43.2	15.0	0.00e+00	0	55	0	221249536	51	5269
2026-01-05 23:26:56.28	22.71	19.81	-40.5	-43.3	14.9	0.00e+00	0	55	0	223346688	51	5287
2026-01-05 23:26:57.29	22.76	19.94	-40.6	-43.4	14.8	0.00e+00	0	55	0	224395264	51	5370
2026-01-05 23:26:58.30	22.80	20.07	-40.7	-43.5	14.7	0.00e+00	0	55	0	226492416	51	5427
2026-01-05 23:26:59.31	22.85	20.20	-40.7	-43.5	14.7	0.00e+00	0	55	0	228589568	51	5439
2026-01-05 23:27:00.32	22.89	20.33	-40.7	-43.6	14.6	1.50e-06	0	55	0	230686720	52	5169
2026-01-05 23:27:01.32	22.94	20.46	-40.7	-43.6	14.6	7.00e-07	0	55	0	232783872	52	5176
2026-01-05 23:27:02.33	22.99	20.59	-40.7	-43.6	14.6	7.00e-07	0	55	0	233832448	52	5162
2026-01-05 23:27:03.34	23.03	20.72	-40.7	-43.6	14.5	0.00e+00	0	55	0	235929600	52	5204
2026-01-05 23:27:04.35	23.08	20.86	-40.8	-43.7	14.4	1.50e-06	0	55	0	238026752	52	5273
2026-01-05 23:27:05.36	23.13	20.99	-40.9	-43.9	14.3	7.00e-07	0	56	0	240123904	52	5373
2026-01-05 23:27:06.37	23.17	21.13	-40.8	-43.7	14.5	7.00e-07	0	55	0	242221056	52	5228
2026-01-05 23:27:07.38	23.22	21.26	-40.7	-43.5	14.7	0.00e+00	0	55	0	243269632	52	5108
2026-01-05 23:27:08.39	23.27	21.40	-40.6	-43.4	14.8	0.00e+00	0	55	0	245366784	52	5093
2026-01-05 23:27:09.40	23.32	21.54	-40.7	-43.5	14.7	7.00e-07	0	56	0	247463936	52	5105
2026-01-05 23:27:10.41	23.37	21.68	-40.6	-43.4	14.9	7.00e-07	0	56	0	249561088	52	5049
2026-01-05 23:27:11.42	23.42	21.81	-40.6	-43.3	14.9	0.00e+00	0	55	0	251658240	52	4999
2026-01-05 23:27:12.43	23.47	21.95	-40.6	-43.3	14.9	0.00e+00	0	55	0	252706816	52	5021
2026-01-05 23:27:13.44	23.52	22.09	-40.6	-43.3	14.9	0.00e+00	0	56	0	254803968	52	5013
2026-01-05 23:27:14.45	23.57	22.23	-40.6	-43.4	14.9	0.00e+00	0	55	0	256901120	52	5043
2026-01-05 23:27:15.46	23.62	22.38	-40.6	-43.3	14.9	0.00e+00	0	55	0	258998272	52	5022
2026-01-05 23:27:16.47	23.67	22.52	-40.7	-43.5	14.7	0.00e+00	0	56	0	261095424	52	5126
2026-01-05 23:27:17.48	23.72	22.66	-40.6	-43.3	14.9	0.00e+00	0	56	0	262144000	52	5022
2026-01-05 23:27:18.49	23.78	22.81	-40.5	-43.2	15.0	0.00e+00	0	55	0	264241152	52	4961
2026-01-05 23:27:19.50	23.83	22.95	-40.6	-43.3	15.0	7.00e-07	0	56	0	266338304	52	5003
2026-01-05 23:27:20.51	23.88	23.10	-40.6	-43.3	14.9	0.00e+00	0	55	0	268435456	52	5021
2026-01-05 23:27:21.52	23.94	23.24	-40.7	-43.5	14.7	7.00e-07	0	56	0	270532608	52	5156
2026-01-05 23:27:22.53	23.99	23.39	-40.7	-43.5	14.7	0.00e+00	0	56	0	272629760	52	5122
2026-01-05 23:27:23.54	24.05	23.54	-40.6	-43.3	15.0	7.00e-07	0	56	0	273678336	52	5023
2026-01-05 23:27:24.55	24.10	23.69	-40.5	-43.2	15.0	0.00e+00	0	56	0	275775488	52	4970
2026-01-05 23:27:25.56	24.16	23.84	-40.5	-43.2	15.1	0.00e+00	0	56	0	277872640	52	4951
2026-01-05 23:27:26.57	24.21	23.99	-40.5	-43.1	15.2	0.00e+00	0	56	0	279969792	52	4905
2026-01-05 23:27:27.58	24.27	24.14	-40.5	-43.1	15.2	0.00e+00	0	56	0	282066944	52	4905
2026-01-05 23:27:28.59	24.33	24.29	-40.4	-43.1	15.2	0.00e+00	0	56	0	283115520	52	4877
2026-01-05 23:27:29.60	24.39	24.44	-40.5	-43.1	15.1	0.00e+00	0	56	0	285212672	52	4918
2026-01-05 23:27:30.61	24.45	24.60	-40.5	-43.1	15.2	0.00e+00	0	56	0	287309824	52	4902
2026-01-05 23:27:31.62	24.50	24.75	-40.6	-43.3	15.0	0.00e+00	0	56	0	289406976	52	4984
2026-01-05 23:27:32.63	24.56	24.91	-40.5	-43.2	15.1	7.00e-07	0	55	0	291504128	52	4930
2026-01-05 23:27:33.64	24.62	25.07	-40.4	-43.0	15.3	0.00e+00	0	56	0	292552704	52	4835
2026-01-05 23:27:34.64	24.68	25.22	-40.5	-43.1	15.2	0.00e+00	0	56	0	294649856	52	4894
2026-01-05 23:27:35.65	24.74	25.38	-40.4	-43.1	15.2	0.00e+00	0	56	0	296747008	52	4887
2026-01-05 23:27:36.66	24.81	25.54	-40.5	-43.2	15.1	0.00e+00	0	56	0	298844160	52	4941
2026-01-05 23:27:37.67	24.87	25.70	-40.4	-43.1	15.3	0.00e+00	0	56	0	300941312	52	4872
2026-01-05 23:27:38.68	24.93	25.86	-40.4	-43.1	15.2	0.00e+00	0	56	0	301989888	52	4878
2026-01-05 23:27:39.69	25.00	26.03	-40.5	-43.1	15.1	0.00e+00	0	55	0	304087040	52	4924
2026-01-05 23:27:40.70	25.06	26.19	-40.5	-43.1	15.2	0.00e+00	0	56	0	306184192	52	4897
2026-01-05 23:27:41.71	25.12	26.35	-40.4	-43.0	15.3	0.00e+00	0	56	0	308281344	52	4843
2026-01-05 23:27:42.72	25.19	26.52	-40.4	-43.0	15.3	0.00e+00	0	56	0	310378496	52	4841
2026-01-05 23:27:43.73	25.26	26.68	-40.4	-43.0	15.3	0.00e+00	0	56	0	311427072	52	4850
2026-01-05 23:27:44.74	25.32	26.85	-40.4	-43.0	15.4	0.00e+00	0	56	0	313524224	52	4832
2026-01-05 23:27:45.75	25.39	27.02	-40.4	-42.9	15.4	0.00e+00	0	56	0	315621376	52	4800
2026-01-05 23:27:46.76	25.46	27.19	-40.4	-43.0	15.4	0.00e+00	0	56	0	317718528	52	4832
2026-01-05 23:27:47.78	25.53	27.36	-40.5	-43.1	15.3	0.00e+00	0	56	0	319815680	52	4876
2026-01-05 23:27:48.79	25.60	27.53	-40.5	-43.1	15.3	0.00e+00	0	56	0	320864256	52	4874
2026-01-05 23:27:49.80	25.67	27.70	-40.5	-43.1	15.3	0.00e+00	0	56	0	322961408	52	4872
2026-01-05 23:27:50.80	25.74	27.88	-40.4	-43.0	15.4	0.00e+00	0	56	0	325058560	52	4841
2026-01-05 23:27:51.81	25.81	28.05	-40.3	-42.9	15.5	0.00e+00	0	56	0	327155712	52	4778
2026-01-05 23:27:52.82	25.88	28.23	-40.3	-42.8	15.6	0.00e+00	0	56	0	329252864	52	4709
2026-01-05 23:27:53.83	25.95	28.40	-40.3	-42.9	15.5	0.00e+00	0	56	0	331350016	52	4773
2026-01-05 23:27:54.84	26.03	28.58	-40.4	-43.0	15.4	0.00e+00	0	56	0	332398592	52	4827
2026-01-05 23:27:55.85	26.10	28.76	-40.5	-43.2	15.2	0.00e+00	0	56	0	334495744	52	4930
2026-01-05 23:27:56.86	26.18	28.94	-40.6	-43.3	15.0	0.00e+00	0	56	0	336592896	52	5019
2026-01-05 23:27:57.87	26.25	29.12	-40.7	-43.4	14.9	0.00e+00	0	56	0	338690048	52	5091
2026-01-05 23:27:58.88	26.33	29.30	-40.8	-43.6	14.7	7.00e-07	0	56	0	340787200	52	5203
2026-01-05 23:27:59.89	26.41	29.49	-40.9	-43.7	14.7	0.00e+00	0	56	0	341835776	52	5227
2026-01-05 23:28:00.90	26.49	29.67	-40.9	-43.8	14.6	0.00e+00	0	56	0	343932928	52	5296
2026-01-05 23:28:01.91	26.57	29.86	-41.0	-43.9	14.5	0.00e+00	0	56	0	346030080	52	5385
2026-01-05 23:28:02.92	26.65	30.04	-41.1	-44.0	14.4	7.00e-07	0	56	0	348127232	52	5433
2026-01-05 23:28:03.93	26.73	30.23	-41.2	-44.2	14.2	1.50e-06	0	56	0	350224384	52	5578
2026-01-05 23:28:04.94	26.81	30.42	-41.3	-44.4	14.0	7.00e-07	0	56	0	351272960	53	5357
2026-01-05 23:28:05.95	26.89	30.61	-41.4	-44.5	13.8	2.20e-06	0	56	0	353370112	53	5449
2026-01-05 23:28:06.96	26.98	30.80	-41.5	-44.7	13.6	9.10e-06	0	56	0	355467264	53	5575
2026-01-05 23:28:07.97	27.06	30.99	-41.6	-44.9	13.5	5.30e-06	0	56	0	357564416	53	5687
2026-01-05 23:28:08.98	27.15	31.19	-41.7	-45.1	13.3	1.14e-05	0	56	0	359661568	53	5802
2026-01-05 23:28:09.99	27.24	31.38	-41.8	-45.2	13.1	3.35e-05	0	56	0	360710144	54	5581
2026-01-05 23:28:11.00	27.33	31.58	-41.8	-45.3	13.1	2.05e-05	0	56	0	362807296	54	5602
2026-01-05 23:28:12.01	27.41	31.78	-41.9	-45.5	12.8	4.11e-05	0	56	0	364904448	54	5757
2026-01-05 23:28:13.02	27.50	31.98	-41.9	-45.4	12.9	4.80e-05	0	56	0	367001600	54	5706
2026-01-05 23:28:14.02	27.59	32.17	-41.9	-45.4	13.0	2.67e-05	0	56	0	369098752	54	5690
2026-01-05 23:28:15.03	27.69	32.38	-41.8	-45.3	13.1	3.96e-05	0	56	0	370147328	54	5608
2026-01-05 23:28:16.04	27.78	32.58	-41.8	-45.2	13.2	2.67e-05	0	56	0	372244480	54	5564
2026-01-05 23:28:17.05	27.88	32.78	-41.6	-44.9	13.4	1.52e-05	0	56	0	374341632	54	5402
2026-01-05 23:28:18.06	27.97	32.99	-41.5	-44.8	13.6	6.80e-06	0	56	0	376438784	54	5280
2026-01-05 23:28:19.07	28.07	33.19	-41.5	-44.7	13.7	9.10e-06	0	56	0	378535936	54	5244
2026-01-05 23:28:20.08	28.17	33.40	-41.5	-44.6	13.8	8.30e-06	0	56	0	379584512	54	5197
2026-01-05 23:28:21.09	28.26	33.61	-41.4	-44.5	13.9	3.00e-06	0	56	0	381681664	54	5143
2026-01-05 23:28:22.10	28.37	33.82	-41.4	-44.5	13.9	2.20e-06	0	56	0	383778816	54	5149
2026-01-05 23:28:23.11	28.47	34.04	-41.4	-44.6	13.8	1.50e-06	0	56	0	385875968	54	5190
2026-01-05 23:28:24.12	28.57	34.25	-41.5	-44.7	13.7	4.50e-06	0	56	0	387973120	54	5271
2026-01-05 23:28:25.13	28.67	34.46	-41.4	-44.5	13.9	3.00e-06	0	56	0	389021696	54	5138
2026-01-05 23:28:26.14	28.78	34.68	-41.4	-44.5	13.9	4.50e-06	0	56	0	391118848	54	5152
2026-01-05 23:28:27.15	28.89	34.90	-41.4	-44.5	13.9	3.00e-06	0	56	0	393216000	54	5140
2026-01-05 23:28:28.16	29.00	35.12	-41.6	-44.8	13.7	7.00e-07	0	56	0	395313152	54	5288
2026-01-05 23:28:29.17	29.11	35.34	-41.5	-44.6	13.7	7.60e-06	0	56	0	397410304	54	5204
2026-01-05 23:28:30.18	29.22	35.56	-41.5	-44.8	13.6	6.80e-06	0	56	0	398458880	54	5285
2026-01-05 23:28:31.19	29.33	35.78	-41.6	-44.9	13.6	9.10e-06	0	56	0	400556032	54	5343
2026-01-05 23:28:32.20	29.44	36.01	-41.7	-45.0	13.5	8.30e-06	0	56	0	402653184	54	5421
2026-01-05 23:28:33.21	29.56	36.23	-41.7	-45.0	13.4	1.67e-05	0	56	0	404750336	54	5433
2026-01-05 23:28:34.22	29.68	36.46	-41.7	-45.1	13.3	1.14e-05	0	56	0	406847488	54	5485
2026-01-05 23:28:35.23	29.80	36.69	-41.9	-45.3	13.1	2.13e-05	0	56	0	408944640	54	5628
2026-01-05 23:28:36.24	29.92	36.92	-41.9	-45.5	12.9	3.28e-05	0	56	0	409993216	54	5736
2026-01-05 23:28:37.25	30.04	37.16	-41.9	-45.4	13.0	6.02e-05	0	56	0	412090368	54	5683
2026-01-05 23:28:38.26	30.16	37.39	-42.1	-45.8	12.6	5.87e-05	0	56	0	414187520	54	5949
2026-01-05 23:28:39.27	30.29	37.62	-42.1	-45.8	12.6	8.69e-05	0	56	0	416284672	54	5978
2026-01-05 23:28:40.28	30.42	37.86	-42.1	-45.8	12.7	1.01e-04	0	56	0	418381824	54	5937
2026-01-05 23:28:41.29	30.54	38.10	-42.1	-45.7	12.6	8.54e-05	0	56	0	419430400	54	5914
2026-01-05 23:28:42.30	30.68	38.34	-42.2	-46.0	12.4	1.14e-04	0	56	0	421527552	55	5748
2026-01-05 23:28:43.31	30.81	38.58	-42.2	-46.1	12.3	1.61e-04	0	56	0	423624704	55	5791
2026-01-05 23:28:44.32	30.94	38.82	-42.4	-46.4	12.0	1.81e-04	0	56	0	425721856	55	5998
2026-01-05 23:28:45.33	31.08	39.07	-42.4	-46.5	11.9	4.71e-04	0	56	0	427819008	55	6072
2026-01-05 23:28:46.34	31.22	39.32	-42.5	-46.6	11.7	4.69e-04	0	56	0	428867584	55	6197
2026-01-05 23:28:47.35	31.36	39.56	-42.5	-46.6	11.8	6.26e-04	0	56	0	430964736	55	6138
2026-01-05 23:28:48.36	31.50	39.81	-42.5	-46.6	11.8	4.71e-04	0	56	0	433061888	55	6164
2026-01-05 23:28:49.37	31.65	40.06	-42.5	-46.6	11.8	4.81e-04	0	56	0	435159040	55	6169
2026-01-05 23:28:50.38	31.80	40.32	-42.5	-46.5	11.9	3.17e-04	0	56	0	437256192	55	6090
2026-01-05 23:28:51.39	31.95	40.57	-42.5	-46.6	11.8	4.23e-04	0	56	0	438304768	55	6162
2026-01-05 23:28:52.40	32.10	40.83	-42.5	-46.6	11.8	4.44e-04	0	56	0	440401920	55	6152
2026-01-05 23:28:53.41	32.25	41.08	-42.5	-46.5	11.9	5.13e-04	0	56	0	442499072	55	6073
2026-01-05 23:28:54.42	32.41	41.34	-42.4	-46.4	12.0	2.62e-04	0	56	0	444596224	55	6039
2026-01-05 23:28:55.43	32.57	41.60	-42.5	-46.5	11.9	3.53e-04	0	56	0	446693376	55	6086
2026-01-05 23:28:56.44	32.73	41.87	-42.3	-46.2	12.2	2.77e-04	0	56	0	447741952	55	5911
2026-01-05 23:28:57.44	32.89	42.13	-42.3	-46.1	12.3	1.81e-04	0	56	0	449839104	55	5835
2026-01-05 23:28:58.45	33.06	42.39	-42.2	-45.9	12.5	1.60e-04	0	56	0	451936256	55	5662
2026-01-05 23:28:59.46	33.23	42.66	-42.0	-45.5	12.9	7.32e-05	0	56	0	454033408	55	5463
2026-01-05 23:29:00.47	33.40	42.93	-42.0	-45.5	13.0	4.50e-05	0	56	0	456130560	55	5418
2026-01-05 23:29:01.48	33.58	43.20	-41.9	-45.3	13.1	2.13e-05	0	56	0	457179136	55	5323
2026-01-05 23:29:02.49	33.76	43.47	-41.9	-45.3	13.1	2.59e-05	0	56	0	459276288	55	5334
2026-01-05 23:29:03.50	33.94	43.75	-42.0	-45.6	12.8	4.57e-05	0	56	0	461373440	55	5517
2026-01-05 23:29:04.51	34.12	44.02	-42.2	-45.9	12.5	7.70e-05	0	56	0	463470592	55	5681
2026-01-05 23:29:05.52	34.31	44.30	-42.2	-46.0	12.4	1.32e-04	0	56	0	465567744	55	5783
2026-01-05 23:29:06.53	34.50	44.58	-42.3	-46.2	12.2	1.69e-04	0	56	0	467664896	55	5909
2026-01-05 23:29:07.54	34.70	44.86	-42.4	-46.3	12.1	1.92e-04	0	57	0	468713472	55	5949
2026-01-05 23:29:08.55	34.89	45.14	-42.2	-46.0	12.4	1.68e-04	0	56	0	470810624	55	5754
2026-01-05 23:29:09.56	35.10	45.43	-42.0	-45.4	12.9	7.47e-05	0	56	0	472907776	55	5399
2026-01-05 23:29:10.56	35.30	45.71	-41.8	-45.2	13.3	3.96e-05	0	56	0	475004928	55	5239
2026-01-05 23:29:11.58	35.51	46.00	-41.9	-45.3	13.1	2.13e-05	0	56	0	477102080	55	5327
2026-01-05 23:29:12.59	35.72	46.29	-42.0	-45.5	12.9	3.12e-05	0	56	0	478150656	55	5421
2026-01-05 23:29:13.59	35.93	46.58	-42.2	-45.9	12.5	6.02e-05	0	56	0	480247808	55	5701
2026-01-05 23:29:14.60	36.15	46.87	-42.3	-46.2	12.2	1.49e-04	0	56	0	482344960	55	5884
2026-01-05 23:29:15.61	36.38	47.16	-42.3	-46.1	12.3	1.79e-04	0	56	0	484442112	55	5829
2026-01-05 23:29:16.62	36.61	47.46	-42.4	-46.2	12.2	1.81e-04	0	56	0	485490688	55	5906
2026-01-05 23:29:17.63	36.84	47.76	-42.3	-46.2	12.3	1.97e-04	0	56	0	487587840	55	5907
2026-01-05 23:29:18.64	37.08	48.05	-42.2	-45.9	12.6	1.26e-04	0	56	0	489684992	55	5706
2026-01-05 23:29:19.65	37.32	48.35	-42.2	-45.8	12.6	7.93e-05	0	56	0	491782144	55	5642
2026-01-05 23:29:20.66	37.56	48.66	-42.2	-45.9	12.6	8.54e-05	0	57	0	493879296	55	5673
2026-01-05 23:29:21.67	37.82	48.96	-42.0	-45.5	13.0	3.73e-05	0	56	0	495976448	55	5414
2026-01-05 23:29:22.68	38.07	49.26	-41.6	-44.8	13.7	1.75e-05	0	56	0	497025024	55	5035
2026-01-05 23:29:23.69	38.33	49.57	-41.2	-44.1	14.4	3.80e-06	0	57	0	499122176	54	4896
2026-01-05 23:29:24.69	38.60	49.88	-40.9	-43.6	14.9	0.00e+00	0	56	0	501219328	53	4898
2026-01-05 23:29:25.70	38.87	50.18	-40.7	-43.4	15.1	7.00e-07	0	57	0	503316480	53	4794
2026-01-05 23:29:26.71	39.15	50.50	-40.4	-42.9	15.7	0.00e+00	0	56	0	505413632	52	4770
2026-01-05 23:29:27.72	39.43	50.81	-40.2	-42.5	16.0	0.00e+00	0	56	0	506462208	52	4596
2026-01-05 23:29:28.73	39.72	51.12	-40.0	-42.3	16.4	0.00e+00	0	56	0	508559360	51	4714
2026-01-05 23:29:29.74	40.01	51.44	-39.8	-42.0	16.6	0.00e+00	0	56	0	510656512	51	4593
2026-01-05 23:29:30.75	40.31	51.75	-39.6	-41.7	16.9	0.00e+00	0	56	0	512753664	51	4422
2026-01-05 23:29:31.76	40.62	52.07	-39.2	-41.1	17.5	0.00e+00	0	56	0	514850816	50	4389
2026-01-05 23:29:32.77	40.93	52.39	-38.7	-40.6	18.0	0.00e+00	0	56	0	515899392	49	4341
2026-01-05 23:29:33.78	41.25	52.71	-38.4	-40.2	18.4	0.00e+00	0	57	0	517996544	48	4402
2026-01-05 23:29:34.79	41.58	53.03	-38.3	-40.0	18.6	0.00e+00	0	56	0	520093696	48	4310
2026-01-05 23:29:35.80	41.92	53.35	-38.1	-39.7	18.8	0.00e+00	0	56	0	522190848	48	4192
2026-01-05 23:29:36.81	42.26	53.67	-38.0	-39.6	19.0	0.00e+00	0	57	0	524288000	48	4137
2026-01-05 23:29:37.82	42.61	54.00	-37.9	-39.6	18.8	0.00e+00	0	56	0	525336576	47	4386
2026-01-05 23:29:38.83	42.97	54.32	-38.2	-39.9	18.6	0.00e+00	0	56	0	527433728	47	4522
2026-01-05 23:29:39.84	43.33	54.65	-38.4	-40.2	18.3	0.00e+00	0	57	0	529530880	47	4692
2026-01-05 23:29:40.85	43.71	54.98	-38.6	-40.4	18.1	0.00e+00	0	56	0	531628032	47	4798
2026-01-05 23:29:41.85	44.09	55.30	-38.9	-40.7	17.9	0.00e+00	0	57	0	533725184	48	4698
2026-01-05 23:29:42.86	44.48	55.63	-39.2	-41.2	17.4	0.00e+00	0	56	0	534773760	49	4699
2026-01-05 23:29:43.88	44.88	55.96	-39.6	-41.7	16.9	0.00e+00	0	56	0	536870912	49	4976
2026-01-05 23:29:44.89	45.30	56.29	-39.8	-42.1	16.6	0.00e+00	0	56	0	538968064	50	4871
2026-01-05 23:29:45.89	45.71	56.62	-40.0	-42.3	16.3	0.00e+00	0	56	0	541065216	50	5032
2026-01-05 23:29:46.90	46.14	56.95	-40.0	-42.4	16.3	0.00e+00	0	56	0	543162368	50	5044
2026-01-05 23:29:47.92	46.59	57.29	-40.0	-42.3	16.4	0.00e+00	0	57	0	544210944	50	5001
2026-01-05 23:29:48.93	47.04	57.62	-40.0	-42.2	16.5	0.00e+00	0	56	0	546308096	50	4962
2026-01-05 23:29:49.94	47.50	57.95	-40.3	-42.6	16.0	0.00e+00	0	56	0	548405248	51	4924
2026-01-05 23:29:50.95	47.98	58.28	-40.3	-42.7	15.9	0.00e+00	0	56	0	550502400	51	4983
2026-01-05 23:29:51.96	48.46	58.61	-40.2	-42.6	16.0	0.00e+00	0	56	0	552599552	51	4912
2026-01-05 23:29:52.97	48.96	58.95	-40.0	-42.2	16.4	0.00e+00	0	57	0	553648128	51	4703
2026-01-05 23:29:53.98	49.47	59.28	-39.8	-42.0	16.7	0.00e+00	0	56	0	555745280	51	4549
2026-01-05 23:29:54.99	50.00	59.61	-39.7	-41.9	16.8	0.00e+00	0	56	0	557842432	51	4507
2026-01-05 23:29:56.00	50.54	59.94	-39.5	-41.6	17.0	0.00e+00	0	56	0	559939584	51	4367
2026-01-05 23:29:57.01	51.09	60.27	-39.2	-41.2	17.4	0.00e+00	0	57	0	562036736	50	4429
2026-01-05 23:29:58.01	51.65	60.60	-39.4	-41.4	17.2	0.00e+00	0	57	0	564133888	50	4529
2026-01-05 23:29:59.02	52.23	60.93	-39.5	-41.6	17.0	0.00e+00	0	57	0	565182464	50	4601
2026-01-05 23:30:00.03	52.82	61.26	-39.2	-41.2	17.4	0.00e+00	0	56	0	567279616	50	4404
2026-01-05 23:30:01.04	53.44	61.58	-38.9	-40.9	17.8	0.00e+00	0	57	0	569376768	49	4494
2026-01-05 23:30:02.05	54.06	61.91	-38.8	-40.7	17.9	0.00e+00	0	57	0	571473920	49	4415
2026-01-05 23:30:03.06	54.71	62.23	-38.6	-40.4	18.2	0.00e+00	0	57	0	573571072	49	4251
2026-01-05 23:30:04.07	55.37	62.56	-38.7	-40.6	18.0	0.00e+00	0	56	0	574619648	49	4345
2026-01-05 23:30:05.08	56.05	62.88	-38.9	-40.8	17.8	0.00e+00	0	56	0	576716800	49	4470
2026-01-05 23:30:06.09	56.75	63.20	-39.2	-41.2	17.4	0.00e+00	0	57	0	578813952	49	4670
2026-01-05 23:30:07.10	57.47	63.51	-39.6	-41.7	16.9	0.00e+00	0	57	0	580911104	49	4952
2026-01-05 23:30:08.11	58.20	63.83	-39.6	-41.8	16.8	0.00e+00	0	57	0	583008256	49	4995
2026-01-05 23:30:09.12	58.96	64.14	-39.8	-42.0	16.6	0.00e+00	0	56	0	584056832	50	4835
2026-01-05 23:30:10.13	59.74	64.45	-39.9	-42.2	16.4	0.00e+00	0	56	0	586153984	50	4956
2026-01-05 23:30:11.14	60.53	64.76	-40.0	-42.3	16.3	0.00e+00	0	56	0	588251136	50	5000
2026-01-05 23:30:12.15	61.35	65.06	-39.8	-42.0	16.6	0.00e+00	0	56	0	590348288	50	4835
2026-01-05 23:30:13.16	62.20	65.36	-39.8	-42.0	16.6	0.00e+00	0	56	0	592445440	50	4832
2026-01-05 23:30:14.16	63.05	65.65	-40.2	-42.6	16.1	0.00e+00	0	57	0	593494016	50	5170
2026-01-05 23:30:15.17	63.94	65.95	-40.6	-43.2	15.5	0.00e+00	0	57	0	595591168	51	5252
2026-01-05 23:30:16.18	64.85	66.23	-40.5	-43.0	15.6	0.00e+00	0	56	0	597688320	51	5149
2026-01-05 23:30:17.19	65.79	66.52	-40.2	-42.6	16.0	0.00e+00	0	57	0	599785472	51	4874
2026-01-05 23:30:18.20	66.75	66.80	-40.0	-42.4	16.3	0.00e+00	0	57	0	601882624	51	4762
2026-01-05 23:30:19.21	67.74	67.07	-40.1	-42.5	16.1	0.00e+00	0	56	0	602931200	51	4858
2026-01-05 23:30:20.22	68.75	67.34	-40.4	-42.9	15.7	0.00e+00	0	57	0	605028352	51	5070
2026-01-05 23:30:21.23	69.79	67.60	-40.6	-43.3	15.3	0.00e+00	0	57	0	607125504	52	4985
2026-01-05 23:30:22.24	70.85	67.86	-40.6	-43.3	15.2	7.00e-07	0	57	0	609222656	52	5013
2026-01-05 23:30:23.25	71.95	68.11	-40.8	-43.5	15.0	0.00e+00	0	57	0	611319808	52	5157
2026-01-05 23:30:24.26	73.06	68.35	-41.1	-44.0	14.4	0.00e+00	0	57	0	612368384	53	5150
2026-01-05 23:30:25.26	74.20	68.58	-41.3	-44.4	14.1	1.50e-06	0	57	0	614465536	53	5393
2026-01-05 23:30:26.27	75.37	68.81	-41.0	-43.8	14.8	7.00e-07	0	57	0	616562688	53	5001
2026-01-05 23:30:27.29	76.58	69.03	-40.8	-43.6	14.9	0.00e+00	0	57	0	618659840	53	4902
2026-01-05 23:30:28.30	77.81	69.25	-41.0	-43.8	14.6	7.00e-07	0	57	0	620756992	53	5035
2026-01-05 23:30:29.30	79.05	69.45	-41.3	-44.4	14.1	1.50e-06	0	56	0	621805568	53	5370
2026-01-05 23:30:30.31	80.33	69.64	-41.3	-44.4	14.1	2.20e-06	0	57	0	623902720	53	5356
2026-01-05 23:30:31.32	81.63	69.83	-41.2	-44.3	14.2	2.20e-06	0	57	0	625999872	53	5285
2026-01-05 23:30:32.33	82.97	70.01	-41.1	-44.0	14.5	3.00e-06	0	57	0	628097024	53	5137
2026-01-05 23:30:33.34	84.32	70.17	-40.9	-43.7	14.8	0.00e+00	0	57	0	630194176	53	4955
2026-01-05 23:30:34.35	85.70	70.33	-40.9	-43.7	14.8	0.00e+00	0	56	0	632291328	53	4941
2026-01-05 23:30:35.36	87.10	70.47	-41.0	-43.9	14.6	0.00e+00	0	57	0	633339904	53	5058
2026-01-05 23:30:36.37	88.53	70.61	-40.9	-43.7	14.8	0.00e+00	0	57	0	635437056	53	4944
2026-01-05 23:30:37.38	89.97	70.73	-40.6	-43.3	15.1	0.00e+00	0	56	0	637534208	53	4751
2026-01-05 23:30:38.39	91.43	70.85	-40.4	-42.9	15.5	0.00e+00	0	57	0	639631360	52	4784
2026-01-05 23:30:39.40	92.91	70.95	-40.1	-42.5	16.0	0.00e+00	0	56	0	641728512	52	4554
2026-01-05 23:30:40.41	94.41	71.03	-39.8	-42.1	16.5	0.00e+00	0	57	0	642777088	51	4602
2026-01-05 23:30:41.41	95.90	71.11	-39.5	-41.7	16.9	0.00e+00	0	56	0	644874240	51	4403
2026-01-05 23:30:42.42	97.43	71.18	-39.5	-41.6	17.0	0.00e+00	0	56	0	646971392	50	4611
2026-01-05 23:30:43.43	98.96	71.23	-39.7	-41.9	16.7	0.00e+00	0	57	0	649068544	50	4772
2026-01-05 23:30:44.44	100.50	71.27	-39.8	-42.0	16.5	0.00e+00	0	57	0	651165696	50	4851
2026-01-05 23:30:45.45	102.04	71.29	-39.5	-41.7	16.9	0.00e+00	0	56	0	652214272	50	4660
2026-01-05 23:30:46.46	103.59	71.31	-39.2	-41.3	17.3	0.00e+00	0	57	0	654311424	50	4455
2026-01-05 23:30:47.47	105.14	71.31	-39.5	-41.6	16.9	0.00e+00	0	56	0	656408576	50	4647
2026-01-05 23:30:48.48	106.69	71.30	-39.5	-41.7	16.9	0.00e+00	0	56	0	658505728	50	4652
2026-01-05 23:30:49.49	108.24	71.27	-39.3	-41.3	17.2	0.00e+00	0	57	0	660602880	50	4468
2026-01-05 23:30:50.50	109.78	71.23	-39.4	-41.5	17.1	0.00e+00	0	57	0	661651456	50	4553
2026-01-05 23:30:51.51	111.31	71.18	-39.6	-41.8	16.8	0.00e+00	0	57	0	663748608	50	4725
2026-01-05 23:30:52.52	112.84	71.12	-40.1	-42.5	16.1	0.00e+00	0	57	0	665845760	50	5117
2026-01-05 23:30:53.53	114.35	71.05	-40.6	-43.2	15.4	0.00e+00	0	57	0	667942912	51	5257
2026-01-05 23:30:54.54	115.85	70.96	-40.5	-43.0	15.5	0.00e+00	0	57	0	670040064	51	5126
2026-01-05 23:30:55.55	117.33	70.86	-40.5	-43.1	15.4	0.00e+00	0	56	0	671088640	51	5204
2026-01-05 23:30:56.56	118.80	70.75	-40.7	-43.4	15.1	0.00e+00	0	57	0	673185792	52	5048
2026-01-05 23:30:57.57	120.25	70.63	-40.6	-43.2	15.3	0.00e+00	0	57	0	675282944	52	4927
2026-01-05 23:30:58.58	121.67	70.49	-40.7	-43.5	15.0	0.00e+00	0	57	0	677380096	52	5104
2026-01-05 23:30:59.59	123.08	70.35	-41.2	-44.3	14.2	0.00e+00	0	57	0	679477248	53	5296
2026-01-05 23:31:00.60	124.46	70.19	-41.2	-44.2	14.2	0.00e+00	0	57	0	680525824	53	5250
2026-01-05 23:31:01.61	125.82	70.03	-41.2	-44.2	14.2	0.00e+00	0	57	0	682622976	53	5230
2026-01-05 23:31:02.62	127.16	69.85	-41.0	-43.9	14.4	7.00e-07	0	57	0	684720128	53	5098
2026-01-05 23:31:03.63	128.47	69.67	-41.0	-44.0	14.5	1.50e-06	0	57	0	686817280	53	5121
2026-01-05 23:31:04.64	129.75	69.47	-41.0	-43.9	14.6	7.00e-07	0	57	0	688914432	53	5059
2026-01-05 23:31:05.65	131.01	69.27	-40.9	-43.8	14.7	0.00e+00	0	57	0	689963008	53	4992
2026-01-05 23:31:06.66	132.24	69.06	-40.7	-43.4	15.2	0.00e+00	0	57	0	692060160	53	4793
2026-01-05 23:31:07.67	133.45	68.84	-40.7	-43.4	15.0	0.00e+00	0	57	0	694157312	53	4773
2026-01-05 23:31:08.68	134.62	68.61	-40.9	-43.7	14.8	0.00e+00	0	57	0	696254464	53	4928
2026-01-05 23:31:09.69	135.77	68.38	-40.4	-43.0	15.5	0.00e+00	0	57	0	698351616	52	4816
2026-01-05 23:31:10.70	136.90	68.13	-40.8	-43.6	14.9	0.00e+00	0	56	0	700448768	52	5203
2026-01-05 23:31:11.71	137.99	67.88	-41.8	-45.2	13.3	3.80e-06	0	57	0	701497344	54	5548
2026-01-05 23:31:12.71	139.05	67.63	-41.9	-45.4	13.0	3.81e-05	0	57	0	703594496	54	5703
2026-01-05 23:31:13.72	140.09	67.37	-41.6	-44.8	13.5	2.59e-05	0	57	0	705691648	54	5337
2026-01-05 23:31:14.73	141.11	67.10	-42.0	-45.6	12.8	2.89e-05	0	57	0	707788800	54	5828
2026-01-05 23:31:15.74	142.10	66.83	-42.1	-45.9	12.5	1.17e-04	0	57	0	709885952	54	5996
2026-01-05 23:31:16.75	143.07	66.55	-42.2	-45.9	12.5	9.84e-05	0	57	0	710934528	54	6052
2026-01-05 23:31:17.76	144.01	66.27	-42.5	-46.6	11.7	2.20e-04	0	57	0	713031680	55	6176
2026-01-05 23:31:18.77	144.93	65.98	-42.1	-45.8	12.6	3.13e-04	0	57	0	715128832	55	5654
2026-01-05 23:31:19.78	145.82	65.69	-41.2	-44.2	14.3	9.10e-06	0	57	0	717225984	54	4929
2026-01-05 23:31:20.79	146.69	65.39	-41.1	-44.1	14.4	1.50e-06	0	57	0	719323136	54	4875
2026-01-05 23:31:21.80	147.53	65.09	-40.9	-43.6	14.8	0.00e+00	0	57	0	720371712	53	4913
2026-01-05 23:31:22.81	148.36	64.79	-40.5	-43.1	15.3	0.00e+00	0	57	0	722468864	53	4631
2026-01-05 23:31:23.82	149.16	64.48	-40.1	-42.4	16.1	0.00e+00	0	57	0	724566016	52	4526
2026-01-05 23:31:24.83	149.94	64.17	-39.5	-41.6	16.9	0.00e+00	0	57	0	726663168	51	4369
2026-01-05 23:31:25.84	150.70	63.86	-38.5	-40.3	18.3	0.00e+00	0	57	0	728760320	49	4219
2026-01-05 23:31:26.85	151.44	63.54	-38.2	-39.9	18.6	0.00e+00	0	56	0	729808896	48	4283
2026-01-05 23:31:27.86	152.16	63.22	-38.4	-40.2	18.4	0.00e+00	0	57	0	731906048	48	4425
2026-01-05 23:31:28.87	152.86	62.90	-38.4	-40.1	18.4	0.00e+00	0	57	0	734003200	48	4387
2026-01-05 23:31:29.88	153.54	62.58	-37.4	-39.0	19.5	0.00e+00	0	57	0	736100352	46	4330
2026-01-05 23:31:30.89	154.21	62.26	-36.9	-38.3	20.1	0.00e+00	0	57	0	738197504	45	4236
2026-01-05 23:31:31.90	154.86	61.93	-37.0	-38.6	19.9	0.00e+00	0	57	0	739246080	45	4348
2026-01-05 23:31:32.91	155.49	61.61	-37.5	-39.1	19.4	0.00e+00	0	57	0	741343232	45	4604
2026-01-05 23:31:33.92	156.10	61.28	-38.3	-40.1	18.5	0.00e+00	0	57	0	743440384	47	4608
2026-01-05 23:31:34.93	156.70	60.95	-37.9	-39.6	18.9	0.00e+00	0	57	0	745537536	47	4355
2026-01-05 23:31:35.94	157.28	60.62	-37.3	-38.9	19.6	0.00e+00	0	57	0	747634688	46	4273
2026-01-05 23:31:36.95	157.85	60.29	-37.8	-39.4	19.1	0.00e+00	0	57	0	748683264	46	4533
2026-01-05 23:31:37.96	158.40	59.96	-39.0	-41.0	17.7	0.00e+00	0	57	0	750780416	48	4816
2026-01-05 23:31:38.97	158.94	59.62	-40.2	-42.6	16.0	0.00e+00	0	57	0	752877568	50	5198
2026-01-05 23:31:39.98	159.47	59.29	-39.8	-42.0	16.6	0.00e+00	0	57	0	754974720	51	4578
2026-01-05 23:31:40.99	159.98	58.96	-39.1	-41.1	17.5	0.00e+00	0	57	0	757071872	50	4380
2026-01-05 23:31:41.99	160.48	58.63	-39.4	-41.5	17.2	0.00e+00	0	57	0	758120448	50	4547
2026-01-05 23:31:43.00	160.97	58.30	-40.1	-42.4	16.2	0.00e+00	0	57	0	760217600	50	5086
2026-01-05 23:31:44.01	161.44	57.96	-41.4	-44.6	14.0	0.00e+00	0	57	0	762314752	53	5474
2026-01-05 23:31:45.02	161.91	57.63	-41.8	-45.3	13.2	2.13e-05	0	57	0	764411904	54	5632
2026-01-05 23:31:46.03	162.36	57.30	-40.4	-42.9	15.6	7.00e-07	0	57	0	766509056	52	4773
2026-01-05 23:31:47.04	162.81	56.96	-38.5	-40.2	18.3	0.00e+00	0	57	0	768606208	49	4182
2026-01-05 23:31:48.05	163.24	56.63	-38.1	-39.8	18.7	0.00e+00	0	56	0	769654784	47	4442
2026-01-05 23:31:49.06	163.66	56.30	-38.9	-40.8	17.9	0.00e+00	0	57	0	771751936	48	4716
2026-01-05 23:31:50.07	164.07	55.97	-39.8	-42.1	16.6	0.00e+00	0	57	0	773849088	50	4894
2026-01-05 23:31:51.08	164.47	55.64	-40.0	-42.3	16.2	0.00e+00	0	57	0	775946240	50	5040
2026-01-05 23:31:52.09	164.87	55.31	-39.2	-41.2	17.4	0.00e+00	0	57	0	778043392	50	4403
2026-01-05 23:31:53.10	165.25	54.98	-38.6	-40.5	18.1	0.00e+00	0	57	0	779091968	49	4295
2026-01-05 23:31:54.11	165.63	54.65	-38.4	-40.2	18.4	0.00e+00	0	57	0	781189120	48	4404
2026-01-05 23:31:55.12	166.00	54.32	-38.2	-39.9	18.7	0.00e+00	0	57	0	783286272	48	4269
2026-01-05 23:31:56.13	166.35	54.00	-38.2	-40.0	18.6	0.00e+00	0	57	0	785383424	48	4309
2026-01-05 23:31:57.14	166.71	53.67	-39.1	-41.1	17.6	0.00e+00	0	57	0	787480576	48	4873
2026-01-05 23:31:58.15	167.05	53.35	-39.4	-41.5	17.1	0.00e+00	0	57	0	788529152	49	4831
2026-01-05 23:31:59.16	167.38	53.02	-38.5	-40.3	18.2	0.00e+00	0	57	0	790626304	49	4216
2026-01-05 23:32:00.17	167.71	52.70	-37.7	-39.4	19.1	0.00e+00	0	57	0	792723456	47	4260
2026-01-05 23:32:01.18	168.04	52.38	-38.0	-39.7	18.8	0.00e+00	0	57	0	794820608	47	4432
2026-01-05 23:32:02.19	168.35	52.06	-38.9	-40.8	17.9	0.00e+00	0	57	0	796917760	48	4712
2026-01-05 23:32:03.20	168.66	51.74	-39.5	-41.6	17.0	0.00e+00	0	57	0	797966336	49	4898
2026-01-05 23:32:04.21	168.96	51.42	-40.1	-42.4	16.1	0.00e+00	0	57	0	800063488	50	5094
2026-01-05 23:32:05.22	169.26	51.11	-40.5	-43.2	15.2	0.00e+00	0	57	0	802160640	51	5250
2026-01-05 23:32:06.23	169.55	50.79	-40.7	-43.7	14.4	0.00e+00	0	57	0	804257792	52	5242
2026-01-05 23:32:07.24	169.83	50.48	-40.8	-43.8	14.1	2.20e-06	0	57	0	806354944	52	5318
2026-01-05 23:32:08.25	170.11	50.17	-40.4	-43.3	14.7	7.00e-07	0	57	0	807403520	52	4999
2026-01-05 23:32:09.26	170.38	49.86	-40.3	-42.9	15.1	0.00e+00	0	57	0	809500672	52	4812
2026-01-05 23:32:10.27	170.65	49.55	-41.3	-44.5	13.6	3.00e-06	0	57	0	811597824	53	5462
2026-01-05 23:32:11.28	170.91	49.24	-43.0	-47.8	10.7	3.22e-04	0	57	0	813694976	56	6717
2026-01-05 23:32:12.29	171.16	48.93	-43.8	-50.0	8.4	2.02e-02	0	57	0	815792128	58	7672
2026-01-05 23:32:13.29	171.41	48.63	-43.0	-47.7	10.7	9.64e-03	0	57	0	816840704	58	5903
2026-01-05 23:32:14.30	171.66	48.33	-41.4	-44.6	13.8	6.79e-05	0	57	0	818937856	54	5205
2026-01-05 23:32:15.31	171.90	48.03	-40.5	-43.1	15.3	0.00e+00	0	57	0	821035008	53	4633
2026-01-05 23:32:16.32	172.14	47.73	-40.4	-42.9	15.6	0.00e+00	0	57	0	823132160	52	4764
2026-01-05 23:32:17.33	172.37	47.43	-40.5	-43.1	15.4	0.00e+00	0	57	0	825229312	52	4874
2026-01-05 23:32:18.34	172.60	47.13	-40.7	-43.4	15.1	0.00e+00	0	57	0	826277888	52	5082
2026-01-05 23:32:19.35	172.83	46.84	-41.2	-44.3	14.2	0.00e+00	0	57	0	828375040	53	5300
2026-01-05 23:32:20.36	173.05	46.54	-41.7	-45.1	13.3	1.14e-05	0	57	0	830472192	54	5516
2026-01-05 23:32:21.37	173.26	46.25	-41.9	-45.4	13.0	5.11e-05	0	57	0	832569344	54	5707
2026-01-05 23:32:22.38	173.48	45.96	-41.1	-44.1	14.3	6.10e-06	0	57	0	834666496	54	4890
2026-01-05 23:32:23.39	173.68	45.67	-40.4	-43.0	15.5	7.00e-07	0	57	0	835715072	52	4824
2026-01-05 23:32:24.40	173.89	45.39	-39.8	-42.0	16.5	0.00e+00	0	57	0	837812224	51	4565
2026-01-05 23:32:25.41	174.09	45.10	-39.5	-41.6	17.0	0.00e+00	0	57	0	839909376	50	4612
2026-01-05 23:32:26.42	174.29	44.82	-39.2	-41.3	17.3	0.00e+00	0	57	0	842006528	50	4446
2026-01-05 23:32:27.43	174.48	44.54	-39.7	-41.8	16.7	0.00e+00	0	57	0	844103680	50	4755
2026-01-05 23:32:28.44	174.67	44.25	-40.2	-42.6	15.9	0.00e+00	0	57	0	846200832	50	5197
2026-01-05 23:32:29.45	174.86	43.98	-40.6	-43.3	15.3	0.00e+00	0	57	0	847249408	51	5295
2026-01-05 23:32:30.46	175.05	43.70	-40.5	-43.2	15.3	0.00e+00	0	57	0	849346560	52	4934
2026-01-05 23:32:31.47	175.23	43.42	-40.1	-42.5	16.0	0.00e+00	0	57	0	851443712	52	4575
2026-01-05 23:32:32.48	175.41	43.15	-39.8	-42.1	16.4	0.00e+00	0	57	0	853540864	51	4611
2026-01-05 23:32:33.49	175.58	42.88	-39.5	-41.6	16.9	0.00e+00	0	57	0	855638016	50	4636
2026-01-05 23:32:34.50	175.76	42.61	-39.4	-41.5	17.1	0.00e+00	0	57	0	856686592	50	4573
2026-01-05 23:32:35.51	175.93	42.34	-39.0	-41.0	17.5	0.00e+00	0	57	0	858783744	50	4331
2026-01-05 23:32:36.51	176.09	42.07	-39.1	-41.1	17.5	0.00e+00	0	57	0	860880896	50	4366
2026-01-05 23:32:37.52	176.26	41.81	-39.6	-41.7	16.8	0.00e+00	0	57	0	862978048	50	4686
2026-01-05 23:32:38.53	176.42	41.55	-40.2	-42.7	15.7	0.00e+00	0	57	0	865075200	51	4975
2026-01-05 23:32:39.54	176.58	41.28	-41.2	-44.4	14.1	0.00e+00	0	57	0	866123776	52	5680
2026-01-05 23:32:40.55	176.73	41.02	-42.0	-45.8	12.6	4.80e-05	0	57	0	868220928	54	5933
2026-01-05 23:32:41.56	176.89	40.76	-42.1	-46.0	12.3	1.91e-04	0	57	0	870318080	54	6101
2026-01-05 23:32:42.57	177.04	40.51	-41.4	-44.7	13.7	2.13e-05	0	57	0	872415232	54	5258
2026-01-05 23:32:43.59	177.19	40.25	-40.6	-43.3	15.0	1.50e-06	0	57	0	874512384	53	4726
2026-01-05 23:32:44.60	177.34	40.00	-40.0	-42.4	16.0	0.00e+00	0	57	0	875560960	52	4513
2026-01-05 23:32:45.61	177.48	39.74	-40.0	-42.3	16.2	0.00e+00	0	57	0	877658112	51	4732
2026-01-05 23:32:46.62	177.63	39.49	-40.1	-42.4	16.1	0.00e+00	0	57	0	879755264	51	4805
2026-01-05 23:32:47.62	177.77	39.25	-40.3	-42.8	15.7	0.00e+00	0	57	0	881852416	51	4994
2026-01-05 23:32:48.63	177.91	39.00	-40.7	-43.4	15.0	0.00e+00	0	57	0	883949568	52	5068
2026-01-05 23:32:49.64	178.04	38.75	-41.1	-44.1	14.3	0.00e+00	0	57	0	884998144	52	5525
2026-01-05 23:32:50.65	178.18	38.51	-41.6	-45.1	13.3	3.80e-06	0	57	0	887095296	53	5792
2026-01-05 23:32:51.66	178.31	38.27	-41.9	-45.5	12.8	2.36e-05	0	57	0	889192448	54	5779
2026-01-05 23:32:52.67	178.44	38.02	-41.9	-45.6	12.7	6.94e-05	0	57	0	891289600	54	5844
2026-01-05 23:32:53.68	178.57	37.78	-41.4	-44.7	13.6	3.12e-05	0	57	0	893386752	54	5251
2026-01-05 23:32:54.69	178.70	37.55	-41.0	-44.0	14.3	2.20e-06	0	57	0	894435328	54	4864
2026-01-05 23:32:55.70	178.82	37.31	-40.6	-43.3	15.0	0.00e+00	0	57	0	896532480	53	4753
2026-01-05 23:32:56.71	178.95	37.08	-40.2	-42.7	15.6	0.00e+00	0	57	0	898629632	52	4692
2026-01-05 23:32:57.71	179.07	36.84	-40.0	-42.4	16.0	0.00e+00	0	57	0	900726784	52	4509
2026-01-05 23:32:58.72	179.19	36.61	-39.8	-42.0	16.4	0.00e+00	0	57	0	902823936	51	4575
2026-01-05 23:32:59.73	179.31	36.38	-39.8	-42.1	16.4	0.00e+00	0	57	0	903872512	51	4616
2026-01-05 23:33:00.74	179.43	36.15	-39.8	-42.0	16.4	0.00e+00	0	57	0	905969664	51	4597
2026-01-05 23:33:01.75	179.54	35.93	-40.1	-42.4	16.0	0.00e+00	0	57	0	908066816	51	4810
2026-01-05 23:33:02.76	179.65	35.70	-40.2	-42.7	15.8	0.00e+00	0	57	0	910163968	51	4945
2026-01-05 23:33:03.77	179.77	35.47	-40.3	-42.8	15.6	0.00e+00	0	57	0	912261120	51	5011
2026-01-05 23:33:04.78	179.88	35.25	-40.5	-43.1	15.3	0.00e+00	0	57	0	914358272	51	5192
2026-01-05 23:33:05.79	179.99	35.03	-40.6	-43.3	15.1	0.00e+00	0	57	0	915406848	51	5302
2026-01-05 23:33:06.80	180.10	34.81	-40.7	-43.4	14.9	7.00e-07	0	57	0	917504000	52	5100
2026-01-05 23:33:07.81	180.20	34.59	-40.9	-43.8	14.6	0.00e+00	0	57	0	919601152	52	5291
2026-01-05 23:33:08.81	180.31	34.38	-40.9	-43.9	14.5	0.00e+00	0	57	0	921698304	52	5354
2026-01-05 23:33:09.82	180.41	34.16	-41.0	-44.1	14.3	0.00e+00	0	57	0	922746880	52	5474
2026-01-05 23:33:10.83	180.51	33.95	-41.1	-44.2	14.1	5.30e-06	0	57	0	924844032	52	5583
2026-01-05 23:33:11.84	180.62	33.73	-41.1	-44.2	14.1	5.30e-06	0	57	0	926941184	53	5273
2026-01-05 23:33:12.85	180.72	33.52	-41.1	-44.2	14.1	2.20e-06	0	57	0	929038336	53	5239
2026-01-05 23:33:13.86	180.82	33.31	-41.0	-43.9	14.4	1.50e-06	0	57	0	931135488	53	5077
2026-01-05 23:33:14.87	180.91	33.10	-40.7	-43.6	14.8	0.00e+00	0	57	0	932184064	53	4874
2026-01-05 23:33:15.88	181.01	32.89	-40.6	-43.4	15.0	0.00e+00	0	57	0	934281216	53	4761
2026-01-05 23:33:16.89	181.10	32.69	-40.6	-43.4	14.9	0.00e+00	0	57	0	936378368	53	4769
2026-01-05 23:33:17.90	181.20	32.48	-40.6	-43.3	15.0	0.00e+00	0	57	0	938475520	53	4706
2026-01-05 23:33:18.92	181.29	32.28	-40.7	-43.5	14.7	7.00e-07	0	57	0	940572672	53	4869
2026-01-05 23:33:19.93	181.39	32.07	-40.9	-43.8	14.5	0.00e+00	0	57	0	942669824	53	5015
2026-01-05 23:33:20.94	181.48	31.87	-41.1	-44.1	14.2	7.00e-07	0	57	0	943718400	53	5179
2026-01-05 23:33:21.95	181.57	31.67	-41.1	-44.1	14.1	7.00e-07	0	57	0	945815552	53	5198
2026-01-05 23:33:22.96	181.65	31.47	-41.3	-44.4	13.8	2.20e-06	0	57	0	947912704	53	5392
2026-01-05 23:33:23.97	181.74	31.28	-41.4	-44.7	13.6	9.90e-06	0	57	0	950009856	53	5532
2026-01-05 23:33:24.98	181.83	31.08	-41.4	-44.7	13.5	3.00e-06	0	57	0	952107008	53	5542
2026-01-05 23:33:25.99	181.91	30.89	-41.4	-44.7	13.6	1.06e-05	0	57	0	953155584	53	5530
2026-01-05 23:33:27.00	182.00	30.69	-41.3	-44.6	13.7	1.06e-05	0	57	0	955252736	53	5477
2026-01-05 23:33:28.01	182.08	30.50	-41.3	-44.5	13.8	5.30e-06	0	57	0	957349888	53	5418
2026-01-05 23:33:29.02	182.17	30.31	-41.3	-44.5	13.7	3.00e-06	0	57	0	959447040	53	5426
2026-01-05 23:33:30.03	182.25	30.12	-41.2	-44.3	13.9	2.20e-06	0	57	0	961544192	53	5326
2026-01-05 23:33:31.03	182.33	29.93	-41.0	-44.1	14.2	1.50e-06	0	57	0	962592768	53	5172
2026-01-05 23:33:32.04	182.41	29.75	-40.9	-43.9	14.4	0.00e+00	0	57	0	964689920	53	5058
2026-01-05 23:33:33.05	182.49	29.56	-40.7	-43.5	14.8	3.00e-06	0	57	0	966787072	53	4817
2026-01-05 23:33:34.06	182.57	29.37	-40.5	-43.1	15.1	0.00e+00	0	57	0	968884224	53	4650
2026-01-05 23:33:35.07	182.64	29.19	-40.3	-42.9	15.3	0.00e+00	0	57	0	970981376	52	4792
2026-01-05 23:33:36.08	182.72	29.01	-40.1	-42.6	15.7	0.00e+00	0	57	0	972029952	52	4622
2026-01-05 23:33:37.09	182.80	28.82	-40.0	-42.4	15.9	0.00e+00	0	57	0	974127104	51	4764
2026-01-05 23:33:38.09	182.87	28.65	-39.9	-42.2	16.1	0.00e+00	0	57	0	976224256	51	4685
2026-01-05 23:33:39.10	182.94	28.47	-39.8	-42.1	16.2	0.00e+00	0	57	0	978321408	51	4624
2026-01-05 23:33:40.11	183.02	28.29	-39.8	-42.1	16.2	0.00e+00	0	57	0	980418560	51	4624
2026-01-05 23:33:41.12	183.09	28.11	-39.7	-41.9	16.4	0.00e+00	0	57	0	982515712	51	4538
2026-01-05 23:33:42.13	183.16	27.93	-39.7	-42.0	16.3	0.00e+00	0	57	0	983564288	51	4562
2026-01-05 23:33:43.14	183.23	27.76	-39.6	-41.8	16.5	0.00e+00	0	57	0	985661440	51	4464
2026-01-05 23:33:44.15	183.30	27.58	-39.5	-41.7	16.6	0.00e+00	0	57	0	987758592	51	4408
2026-01-05 23:33:45.16	183.37	27.41	-39.5	-41.7	16.5	0.00e+00	0	57	0	989855744	51	4431
2026-01-05 23:33:46.17	183.44	27.24	-39.5	-41.8	16.5	0.00e+00	0	57	0	990904320	51	4460
2026-01-05 23:33:47.18	183.51	27.07	-39.6	-41.8	16.5	0.00e+00	0	57	0	993001472	51	4482
2026-01-05 23:33:48.19	183.58	26.90	-39.7	-42.0	16.2	0.00e+00	0	57	0	995098624	51	4586
2026-01-05 23:33:49.20	183.65	26.73	-39.7	-42.0	16.2	0.00e+00	0	57	0	997195776	51	4598
2026-01-05 23:33:50.21	183.71	26.56	-39.8	-42.2	16.1	0.00e+00	0	57	0	999292928	51	4672
2026-01-05 23:33:51.22	183.78	26.39	-39.8	-42.1	16.1	0.00e+00	0	57	0	1000341504	51	4643
2026-01-05 23:33:52.23	183.84	26.23	-39.9	-42.3	15.9	0.00e+00	0	57	0	1002438656	51	4749
2026-01-05 23:33:53.24	183.91	26.06	-40.0	-42.4	15.9	0.00e+00	0	57	0	1004535808	51	4788
2026-01-05 23:33:54.25	183.97	25.90	-39.9	-42.3	15.9	0.00e+00	0	57	0	1006632960	51	4740
2026-01-05 23:33:55.26	184.03	25.74	-40.0	-42.4	15.9	0.00e+00	0	57	0	1008730112	51	4783
2026-01-05 23:33:56.27	184.10	25.57	-39.9	-42.3	16.0	0.00e+00	0	57	0	1010827264	51	4717
2026-01-05 23:33:57.28	184.16	25.41	-39.8	-42.1	16.2	0.00e+00	0	57	0	1011875840	51	4626
2026-01-05 23:33:58.29	184.22	25.25	-39.7	-42.0	16.3	0.00e+00	0	57	0	1013972992	51	4562
2026-01-05 23:33:59.30	184.28	25.09	-39.6	-41.9	16.3	0.00e+00	0	57	0	1016070144	51	4521
2026-01-05 23:34:00.31	184.34	24.94	-39.5	-41.7	16.6	0.00e+00	0	57	0	1018167296	50	4675
2026-01-05 23:34:01.32	184.40	24.78	-39.4	-41.6	16.6	0.00e+00	0	57	0	1020264448	50	4637
2026-01-05 23:34:02.33	184.46	24.62	-39.4	-41.6	16.7	0.00e+00	0	57	0	1021313024	50	4624
2026-01-05 23:34:03.34	184.52	24.47	-39.3	-41.5	16.7	0.00e+00	0	57	0	1023410176	50	4561
2026-01-05 23:34:04.35	184.57	24.31	-39.3	-41.4	16.8	0.00e+00	0	57	0	1025507328	50	4532
2026-01-05 23:34:05.36	184.63	24.16	-39.3	-41.5	16.7	0.00e+00	0	57	0	1027604480	50	4567
2026-01-05 23:34:06.37	184.69	24.00	-39.3	-41.5	16.8	0.00e+00	0	57	0	1029701632	50	4556
2026-01-05 23:34:07.38	184.75	23.85	-39.3	-41.5	16.7	0.00e+00	0	57	0	1030750208	50	4569
2026-01-05 23:34:08.39	184.80	23.70	-39.3	-41.5	16.8	0.00e+00	0	57	0	1032847360	50	4548
2026-01-05 23:34:09.40	184.86	23.55	-39.2	-41.3	16.9	0.00e+00	0	57	0	1034944512	50	4477
2026-01-05 23:34:10.41	184.91	23.40	-39.2	-41.3	16.9	0.00e+00	0	57	0	1037041664	50	4463
2026-01-05 23:34:11.42	184.97	23.25	-39.1	-41.2	17.0	0.00e+00	0	57	0	1039138816	50	4416
2026-01-05 23:34:12.42	185.02	23.11	-39.1	-41.2	17.0	0.00e+00	0	57	0	1040187392	50	4415
2026-01-05 23:34:13.43	185.07	22.96	-39.1	-41.1	17.1	0.00e+00	0	57	0	1042284544	50	4384
2026-01-05 23:34:14.44	185.12	22.81	-39.0	-41.1	17.1	0.00e+00	0	57	0	1044381696	50	4359
2026-01-05 23:34:15.45	185.18	22.67	-39.0	-41.1	17.1	0.00e+00	0	57	0	1046478848	50	4341
2026-01-05 23:34:16.46	185.23	22.52	-38.9	-41.0	17.2	0.00e+00	0	57	0	1048576000	49	4550
2026-01-05 23:34:17.47	185.28	22.38	-39.0	-41.0	17.2	0.00e+00	0	57	0	1050673152	49	4574
2026-01-05 23:34:18.48	185.33	22.24	-39.0	-41.0	17.1	0.00e+00	0	57	0	1051721728	49	4581
2026-01-05 23:34:19.49	185.38	22.09	-38.8	-40.8	17.3	0.00e+00	0	57	0	1053818880	49	4485
2026-01-05 23:34:20.50	185.43	21.95	-38.9	-40.9	17.3	0.00e+00	0	57	0	1055916032	49	4512
2026-01-05 23:34:21.51	185.48	21.81	-38.9	-40.9	17.2	0.00e+00	0	57	0	1058013184	49	4525
2026-01-05 23:34:22.52	185.53	21.67	-38.9	-40.9	17.2	0.00e+00	0	57	0	1060110336	49	4519
2026-01-05 23:34:23.53	185.58	21.53	-38.9	-41.0	17.2	0.00e+00	0	57	0	1061158912	49	4555
2026-01-05 23:34:24.54	185.63	21.39	-39.0	-41.0	17.1	0.00e+00	0	57	0	1063256064	49	4588
2026-01-05 23:34:25.55	185.68	21.26	-39.0	-41.1	17.0	0.00e+00	0	57	0	1065353216	49	4617
2026-01-05 23:34:26.56	185.73	21.12	-38.9	-40.9	17.2	0.00e+00	0	57	0	1067450368	49	4534
2026-01-05 23:34:27.58	185.77	20.98	-39.0	-41.0	17.1	0.00e+00	0	57	0	1069547520	49	4582
2026-01-05 23:34:28.59	185.82	20.85	-39.0	-41.0	17.1	0.00e+00	0	57	0	1070596096	49	4575
2026-01-05 23:34:29.60	185.87	20.71	-39.0	-41.1	17.1	0.00e+00	0	57	0	1072693248	49	4612
2026-01-05 23:34:30.60	185.91	20.58	-39.0	-41.1	17.1	0.00e+00	0	57	0	1074790400	49	4601
2026-01-05 23:34:31.61	185.96	20.44	-39.1	-41.1	17.0	0.00e+00	0	57	0	1076887552	49	4647
2026-01-05 23:34:32.62	186.00	20.31	-39.0	-41.1	17.0	0.00e+00	0	57	0	1078984704	49	4620
2026-01-05 23:34:33.63	186.05	20.18	-39.1	-41.2	17.0	0.00e+00	0	57	0	1080033280	49	4672
2026-01-05 23:34:34.64	186.09	20.05	-39.1	-41.2	16.9	0.00e+00	0	57	0	1082130432	49	4683
2026-01-05 23:34:35.65	186.14	19.92	-39.2	-41.3	16.8	0.00e+00	0	57	0	1084227584	49	4742
2026-01-05 23:34:36.66	186.18	19.79	-39.2	-41.4	16.8	0.00e+00	0	57	0	1086324736	49	4767
2026-01-05 23:34:37.67	186.23	19.66	-39.3	-41.5	16.7	0.00e+00	0	57	0	1088421888	49	4820
2026-01-05 23:34:38.68	186.27	19.53	-39.3	-41.5	16.7	0.00e+00	0	57	0	1089470464	49	4823
2026-01-05 23:34:39.69	186.31	19.40	-39.3	-41.5	16.6	0.00e+00	0	57	0	1091567616	49	4869
2026-01-05 23:34:40.70	186.36	19.27	-39.3	-41.5	16.6	0.00e+00	0	57	0	1093664768	49	4845
2026-01-05 23:34:41.71	186.40	19.15	-39.4	-41.6	16.5	0.00e+00	0	57	0	1095761920	49	4893
2026-01-05 23:34:42.72	186.44	19.02	-39.4	-41.6	16.5	0.00e+00	0	57	0	1097859072	49	4911
2026-01-05 23:34:43.73	186.48	18.89	-39.5	-41.7	16.4	0.00e+00	0	57	0	1098907648	49	4970
2026-01-05 23:34:44.74	186.52	18.77	-39.4	-41.7	16.5	0.00e+00	0	57	0	1101004800	49	4953
2026-01-05 23:34:45.75	186.56	18.65	-39.5	-41.7	16.4	0.00e+00	0	57	0	1103101952	49	4969
2026-01-05 23:34:46.76	186.61	18.52	-39.5	-41.7	16.4	0.00e+00	0	57	0	1105199104	49	4958
2026-01-05 23:34:47.77	186.65	18.40	-39.4	-41.7	16.4	0.00e+00	0	57	0	1107296256	49	4934
2026-01-05 23:34:48.78	186.69	18.28	-39.5	-41.7	16.4	0.00e+00	0	57	0	1108344832	49	4976
2026-01-05 23:34:49.79	186.73	18.15	-39.4	-41.7	16.4	0.00e+00	0	57	0	1110441984	49	4940
2026-01-05 23:34:50.80	186.77	18.03	-39.5	-41.8	16.3	0.00e+00	0	57	0	1112539136	49	4998
2026-01-05 23:34:51.81	186.80	17.91	-39.6	-41.9	16.2	0.00e+00	0	57	0	1114636288	49	5053
2026-01-05 23:34:52.82	186.84	17.79	-39.5	-41.8	16.3	0.00e+00	0	57	0	1116733440	49	5011
2026-01-05 23:34:53.83	186.88	17.67	-39.5	-41.8	16.3	0.00e+00	0	57	0	1118830592	49	5001
2026-01-05 23:34:54.84	186.92	17.55	-39.6	-41.9	16.2	0.00e+00	0	57	0	1119879168	49	5071
2026-01-05 23:34:55.85	186.96	17.44	-39.6	-41.8	16.2	0.00e+00	0	57	0	1121976320	49	5030
2026-01-05 23:34:56.86	187.00	17.32	-39.6	-42.0	16.1	0.00e+00	0	57	0	1124073472	49	5110
2026-01-05 23:34:57.87	187.03	17.20	-39.6	-42.0	16.1	0.00e+00	0	57	0	1126170624	49	5113
2026-01-05 23:34:58.88	187.07	17.08	-39.7	-42.0	16.1	0.00e+00	0	57	0	1128267776	49	5146
2026-01-05 23:34:59.89	187.11	16.97	-39.8	-42.1	16.0	0.00e+00	0	57	0	1129316352	50	4909
2026-01-05 23:35:00.90	187.15	16.85	-39.7	-42.1	16.0	0.00e+00	0	57	0	1131413504	50	4904
2026-01-05 23:35:01.91	187.18	16.74	-39.7	-42.1	16.0	0.00e+00	0	57	0	1133510656	50	4888
2026-01-05 23:35:02.92	187.22	16.62	-39.7	-42.1	16.0	0.00e+00	0	57	0	1135607808	50	4889
2026-01-05 23:35:03.93	187.26	16.51	-39.8	-42.2	15.9	0.00e+00	0	57	0	1137704960	50	4929
2026-01-05 23:35:04.94	187.29	16.39	-39.8	-42.2	15.9	0.00e+00	0	57	0	1138753536	50	4939
2026-01-05 23:35:05.95	187.33	16.28	-39.8	-42.2	15.9	0.00e+00	0	57	0	1140850688	50	4976
2026-01-05 23:35:06.96	187.36	16.17	-39.8	-42.2	15.9	0.00e+00	0	57	0	1142947840	50	4978
2026-01-05 23:35:07.97	187.40	16.06	-39.9	-42.3	15.8	0.00e+00	0	57	0	1145044992	50	5011
2026-01-05 23:35:08.98	187.43	15.94	-39.9	-42.3	15.8	0.00e+00	0	57	0	1147142144	50	5018
2026-01-05 23:35:09.98	187.47	15.83	-39.9	-42.4	15.7	0.00e+00	0	57	0	1148190720	50	5060
2026-01-05 23:35:10.99	187.50	15.72	-39.9	-42.3	15.7	0.00e+00	0	57	0	1150287872	50	5040
2026-01-05 23:35:12.00	187.53	15.61	-39.9	-42.4	15.7	0.00e+00	0	57	0	1152385024	50	5056
2026-01-05 23:35:13.01	187.57	15.50	-39.9	-42.4	15.7	0.00e+00	0	57	0	1154482176	50	5054
2026-01-05 23:35:14.02	187.60	15.40	-39.9	-42.4	15.7	0.00e+00	0	57	0	1156579328	50	5053
