passes_logs/2026/01/05/R2.0S_Moscow/R2.0S_Moscow__20260105_093301_NOAA_20_JPSS-1_rec.log

#Pass ID: 20260105_093301_NOAA 20 (JPSS-1)
#Satellite: NOAA 20 (JPSS-1)
#Configuration: NOAA 20
#almurnet v.1.7.20251203
#Start time: 2026-01-05 09:33:01

#Version: 2.2.20231116
#Station: R2.0S_Moscow
#Location: 37.707566 lon 55.798166 lat
#TLE: 1 43013U 17073A   26004.47528369  .00000132  00000+0  83671-4 0  9999
#TLE: 2 43013  98.7626 305.5264 0001854  54.5883 305.5466 14.19533142421242

#Time	Az	El	Level	Level2	SNR	BER	BlckErr	Temp	State	Recorded	gain1	gain2
2026-01-05 09:33:01.75	149.87	2.02	-43.8	-58.3	3.8	1.49e+00	0	48	0	0	58	19904
2026-01-05 09:33:02.77	149.86	2.08	-43.8	-58.3	3.8	1.49e+00	0	48	104	0	59	18777
2026-01-05 09:33:03.78	149.85	2.15	-43.8	-58.3	3.8	1.49e+00	0	48	104	0	59	18747
2026-01-05 09:33:04.79	149.83	2.21	-43.8	-58.3	3.8	1.49e+00	0	48	104	0	59	18737
2026-01-05 09:33:05.80	149.82	2.28	-43.8	-58.3	3.8	1.49e+00	0	48	104	0	59	18733
2026-01-05 09:33:06.81	149.80	2.34	-43.8	-58.3	3.8	1.49e+00	0	48	104	0	59	18732
2026-01-05 09:33:07.82	149.79	2.41	-43.8	-58.3	3.8	1.49e+00	0	48	104	0	59	18733
2026-01-05 09:33:08.83	149.77	2.47	-43.8	-58.2	3.8	1.49e+00	0	48	104	0	59	18695
2026-01-05 09:33:09.84	149.76	2.54	-43.8	-58.2	3.8	1.49e+00	0	48	104	0	59	18673
2026-01-05 09:33:10.85	149.74	2.61	-43.8	-58.2	3.8	1.49e+00	0	48	104	0	59	18691
2026-01-05 09:33:11.87	149.73	2.67	-43.7	-58.2	3.8	1.49e+00	0	48	104	0	59	18710
2026-01-05 09:33:12.88	149.71	2.74	-43.8	-58.3	3.8	1.49e+00	0	48	104	0	59	18754
2026-01-05 09:33:13.89	149.70	2.80	-43.8	-58.3	3.8	1.49e+00	0	48	104	0	59	18791
2026-01-05 09:33:14.90	149.68	2.87	-43.8	-58.2	3.8	1.49e+00	0	49	104	0	58	19814
2026-01-05 09:33:15.91	149.67	2.94	-43.8	-58.3	3.8	1.49e+00	0	49	104	0	58	19849
2026-01-05 09:33:16.92	149.65	3.01	-43.8	-58.3	3.8	1.49e+00	0	49	104	0	58	19846
2026-01-05 09:33:17.93	149.64	3.07	-43.8	-58.2	3.8	1.49e+00	0	49	104	0	58	19822
2026-01-05 09:33:18.94	149.62	3.14	-43.4	-58.2	3.8	1.49e+00	0	49	104	0	58	19771
2026-01-05 09:33:19.95	149.61	3.21	-43.8	-58.2	3.8	1.49e+00	0	49	104	0	58	19821
2026-01-05 09:33:20.97	149.59	3.28	-43.8	-58.2	3.8	1.49e+00	0	49	104	0	58	19819
2026-01-05 09:33:21.98	149.58	3.34	-43.8	-58.3	3.8	1.49e+00	0	49	104	0	58	19865
2026-01-05 09:33:22.99	149.56	3.41	-43.8	-58.2	3.8	1.49e+00	0	49	104	0	58	19767
2026-01-05 09:33:24.00	149.55	3.48	-43.8	-58.2	3.8	1.49e+00	0	49	104	0	58	19840
2026-01-05 09:33:25.01	149.53	3.55	-43.8	-58.2	3.8	1.49e+00	0	49	104	0	58	19831
2026-01-05 09:33:26.02	149.51	3.62	-43.8	-58.2	3.8	1.49e+00	0	49	104	0	58	19810
2026-01-05 09:33:27.03	149.50	3.68	-43.8	-58.2	3.8	1.49e+00	0	49	104	0	58	19781
2026-01-05 09:33:28.04	149.48	3.75	-43.8	-58.2	3.8	1.49e+00	0	50	104	0	58	19799
2026-01-05 09:33:29.05	149.47	3.82	-43.8	-58.2	3.8	1.49e+00	0	50	104	0	58	19801
2026-01-05 09:33:30.06	149.45	3.89	-43.8	-58.2	3.8	1.49e+00	0	50	104	0	58	19813
2026-01-05 09:33:31.08	149.43	3.96	-43.8	-58.2	3.8	1.49e+00	0	49	104	0	58	19830
2026-01-05 09:33:32.09	149.42	4.03	-43.8	-58.3	3.8	1.49e+00	0	50	104	0	58	19863
2026-01-05 09:33:33.10	149.40	4.10	-43.8	-58.2	3.8	1.49e+00	0	50	104	0	58	19819
2026-01-05 09:33:34.11	149.38	4.17	-43.8	-58.3	3.8	1.49e+00	0	50	104	0	58	19866
2026-01-05 09:33:35.12	149.37	4.24	-43.8	-58.3	3.8	1.49e+00	0	50	104	0	58	19873
2026-01-05 09:33:36.13	149.35	4.31	-43.8	-58.3	3.8	1.49e+00	0	50	104	0	58	19859
2026-01-05 09:33:37.14	149.33	4.38	-43.8	-58.2	3.8	1.49e+00	0	50	104	0	58	19821
2026-01-05 09:33:38.15	149.32	4.45	-43.8	-58.2	3.8	1.49e+00	0	50	104	0	58	19804
2026-01-05 09:33:39.16	149.30	4.52	-43.8	-58.2	3.8	1.49e+00	0	50	104	0	58	19809
2026-01-05 09:33:40.18	149.28	4.59	-43.8	-58.2	3.8	1.49e+00	0	50	104	0	58	19825
2026-01-05 09:33:41.19	149.26	4.66	-43.8	-58.2	3.8	1.49e+00	0	50	104	0	58	19827
2026-01-05 09:33:42.20	149.25	4.74	-43.8	-58.2	3.8	1.49e+00	0	50	104	0	58	19805
2026-01-05 09:33:43.21	149.23	4.81	-43.8	-58.2	3.8	1.49e+00	0	50	104	0	58	19786
2026-01-05 09:33:44.22	149.21	4.88	-43.8	-58.2	3.8	1.49e+00	0	50	104	0	58	19788
2026-01-05 09:33:45.23	149.19	4.95	-43.8	-58.2	3.8	1.49e+00	0	51	104	0	58	19785
2026-01-05 09:33:46.24	149.18	5.02	-43.8	-58.2	3.8	1.49e+00	0	50	104	0	58	19762
2026-01-05 09:33:47.25	149.16	5.09	-43.8	-58.2	3.8	1.49e+00	0	51	104	0	58	19785
2026-01-05 09:33:48.26	149.14	5.17	-43.8	-58.2	3.8	1.49e+00	0	51	104	0	58	19706
2026-01-05 09:33:49.27	149.12	5.24	-43.8	-58.2	3.8	1.49e+00	0	51	104	0	58	19791
2026-01-05 09:33:50.29	149.10	5.31	-43.8	-58.2	3.8	1.49e+00	0	51	104	0	58	19736
2026-01-05 09:33:51.30	149.09	5.39	-43.8	-58.2	3.8	1.49e+00	0	51	104	0	58	19710
2026-01-05 09:33:52.31	149.07	5.46	-43.8	-58.2	3.8	1.49e+00	0	51	104	0	58	19716
2026-01-05 09:33:53.32	149.05	5.53	-43.8	-58.2	3.8	1.49e+00	0	51	104	0	58	19637
2026-01-05 09:33:54.33	149.03	5.61	-43.8	-58.1	3.8	1.49e+00	0	51	104	0	58	19554
2026-01-05 09:33:55.34	149.01	5.68	-43.8	-58.1	3.8	1.49e+00	0	51	104	0	58	19433
2026-01-05 09:33:56.35	148.99	5.75	-43.8	-58.1	3.8	1.49e+00	0	51	104	0	58	19404
2026-01-05 09:33:57.36	148.97	5.83	-43.8	-57.9	3.8	1.49e+00	0	51	104	0	58	19130
2026-01-05 09:33:58.37	148.96	5.90	-43.8	-57.8	3.8	1.49e+00	0	51	104	0	58	18930
2026-01-05 09:33:59.38	148.94	5.98	-43.8	-57.8	3.8	1.49e+00	0	51	104	0	58	18737
2026-01-05 09:34:00.39	148.92	6.05	-43.8	-57.7	3.8	1.49e+00	0	51	104	0	58	18648
2026-01-05 09:34:01.41	148.90	6.13	-43.8	-57.7	3.8	1.49e+00	0	51	104	0	58	18570
2026-01-05 09:34:02.42	148.88	6.20	-43.8	-57.6	3.8	1.49e+00	0	51	104	0	58	18421
2026-01-05 09:34:03.43	148.86	6.28	-43.7	-57.6	3.8	1.49e+00	0	51	104	0	58	18368
2026-01-05 09:34:04.44	148.84	6.35	-43.7	-57.6	3.8	1.49e+00	0	51	104	0	58	18368
2026-01-05 09:34:05.45	148.82	6.43	-43.8	-57.7	3.8	1.49e+00	0	51	104	0	58	18662
2026-01-05 09:34:06.46	148.80	6.51	-43.8	-57.8	3.8	1.49e+00	0	51	104	0	58	18925
2026-01-05 09:34:07.47	148.78	6.58	-43.8	-57.8	3.8	1.49e+00	0	52	104	0	58	18918
2026-01-05 09:34:08.48	148.76	6.66	-43.8	-57.8	3.8	1.49e+00	0	51	104	0	58	18886
2026-01-05 09:34:09.49	148.74	6.74	-43.8	-57.9	3.8	1.49e+00	0	52	104	0	58	18989
2026-01-05 09:34:10.50	148.72	6.81	-43.8	-57.7	3.8	1.49e+00	0	52	104	0	58	18600
2026-01-05 09:34:11.51	148.70	6.89	-43.7	-57.0	3.8	1.49e+00	0	52	104	0	58	17123
2026-01-05 09:34:12.52	148.68	6.97	-43.7	-56.1	3.8	1.49e+00	0	52	104	0	58	15428
2026-01-05 09:34:13.54	148.66	7.05	-43.6	-55.0	4.1	1.48e+00	0	52	0	0	58	13692
2026-01-05 09:34:14.55	148.64	7.12	-43.4	-53.2	4.7	1.09e+00	0	52	0	0	58	11097
2026-01-05 09:34:15.56	148.61	7.20	-43.3	-52.3	5.2	7.30e-01	0	52	0	2097152	58	10020
2026-01-05 09:34:16.57	148.59	7.28	-43.0	-50.8	6.2	4.70e-01	0	52	0	4194304	58	8440
2026-01-05 09:34:17.58	148.57	7.36	-42.8	-49.7	7.2	1.79e-01	0	52	0	6291456	57	7876
2026-01-05 09:34:18.59	148.55	7.44	-42.5	-48.5	8.4	7.30e-02	0	52	0	8388608	56	7243
2026-01-05 09:34:19.60	148.53	7.52	-42.2	-47.7	9.2	3.15e-02	0	52	0	10485760	56	6632
2026-01-05 09:34:20.61	148.51	7.60	-41.7	-46.5	10.2	7.96e-03	0	52	0	11534336	55	6123
2026-01-05 09:34:21.62	148.49	7.68	-41.4	-45.9	10.9	3.64e-03	0	52	0	13631488	54	6039
2026-01-05 09:34:22.63	148.46	7.76	-41.1	-45.1	11.8	1.07e-03	0	52	0	15728640	54	5510
2026-01-05 09:34:23.65	148.44	7.84	-40.8	-44.5	12.4	2.32e-04	0	52	0	17825792	53	5433
2026-01-05 09:34:24.66	148.42	7.92	-40.5	-44.1	12.8	8.85e-05	0	53	0	19922944	53	5180
2026-01-05 09:34:25.67	148.40	8.00	-40.4	-43.8	13.1	3.58e-05	0	52	0	20971520	52	5307
2026-01-05 09:34:26.68	148.37	8.08	-44.0	-56.1	4.1	2.06e-01	31	53	0	23068672	58	15485
2026-01-05 09:34:27.69	148.35	8.16	-43.4	-51.7	4.4	1.49e+00	0	52	104	23068672	58	9308
2026-01-05 09:34:28.70	148.33	8.24	-40.1	-43.2	13.8	9.22e-02	0	52	0	24117248	52	4959
2026-01-05 09:34:29.71	148.31	8.32	-42.2	-47.5	9.6	2.07e-03	0	52	0	25165824	54	7233
2026-01-05 09:34:30.72	148.28	8.41	-40.8	-44.6	12.5	1.28e-02	0	52	0	27262976	52	5810
2026-01-05 09:34:31.73	148.26	8.49	-40.6	-44.3	12.5	6.06e-02	0	52	0	29360128	53	5285
2026-01-05 09:34:32.74	148.24	8.57	-40.1	-43.3	13.7	2.05e-05	0	52	0	31457280	52	4993
2026-01-05 09:34:33.75	148.21	8.65	-40.1	-43.2	13.9	7.00e-07	0	52	0	33554432	52	4928
2026-01-05 09:34:34.76	148.19	8.74	-40.1	-43.1	14.0	3.00e-06	0	52	0	34603008	51	5180
2026-01-05 09:34:35.77	148.17	8.82	-39.8	-42.9	14.2	7.00e-07	0	53	0	36700160	51	5083
2026-01-05 09:34:36.78	148.14	8.90	-40.0	-43.0	14.2	7.00e-07	0	53	0	38797312	51	5140
2026-01-05 09:34:37.79	148.12	8.99	-40.0	-43.0	14.2	0.00e+00	0	53	0	40894464	51	5148
2026-01-05 09:34:38.80	148.09	9.07	-40.0	-42.8	14.3	1.50e-06	0	53	0	42991616	51	5037
2026-01-05 09:34:39.81	148.07	9.16	-39.9	-42.8	14.4	7.00e-07	0	53	0	44040192	51	5022
2026-01-05 09:34:40.82	148.04	9.24	-39.9	-42.7	14.6	0.00e+00	0	53	0	46137344	51	4944
2026-01-05 09:34:41.83	148.02	9.33	-39.8	-42.7	14.6	0.00e+00	0	53	0	48234496	51	4927
2026-01-05 09:34:42.84	148.00	9.41	-39.8	-42.6	14.7	7.00e-07	0	53	0	50331648	51	4907
2026-01-05 09:34:43.85	147.97	9.50	-39.8	-42.5	14.8	0.00e+00	0	53	0	52428800	51	4849
2026-01-05 09:34:44.86	147.94	9.58	-39.7	-42.4	14.9	0.00e+00	0	53	0	54525952	51	4797
2026-01-05 09:34:45.87	147.92	9.67	-39.7	-42.3	15.0	0.00e+00	0	53	0	55574528	51	4751
2026-01-05 09:34:46.88	147.89	9.75	-39.7	-42.4	15.0	0.00e+00	0	53	0	57671680	51	4770
2026-01-05 09:34:47.89	147.87	9.84	-39.7	-42.3	15.0	0.00e+00	0	53	0	59768832	51	4749
2026-01-05 09:34:48.90	147.84	9.93	-39.6	-42.2	15.1	7.00e-07	0	53	0	61865984	51	4693
2026-01-05 09:34:49.91	147.82	10.02	-39.7	-42.4	15.0	0.00e+00	0	53	0	63963136	51	4763
2026-01-05 09:34:50.92	147.79	10.10	-39.6	-42.2	15.2	7.00e-07	0	53	0	65011712	50	4982
2026-01-05 09:34:51.93	147.76	10.19	-39.7	-42.3	15.1	0.00e+00	0	53	0	67108864	50	5006
2026-01-05 09:34:52.94	147.74	10.28	-39.7	-42.3	15.1	0.00e+00	0	53	0	69206016	50	5017
2026-01-05 09:34:53.95	147.71	10.37	-39.7	-42.3	15.1	0.00e+00	0	53	0	71303168	50	5041
2026-01-05 09:34:54.96	147.68	10.46	-39.7	-42.3	15.2	7.00e-07	0	53	0	73400320	50	5005
2026-01-05 09:34:55.97	147.66	10.55	-39.7	-42.4	15.1	0.00e+00	0	53	0	74448896	50	5043
2026-01-05 09:34:56.98	147.63	10.64	-39.7	-42.3	15.2	0.00e+00	0	53	0	76546048	50	5020
2026-01-05 09:34:57.99	147.60	10.72	-39.6	-42.2	15.3	0.00e+00	0	53	0	78643200	50	4942
2026-01-05 09:34:59.00	147.57	10.81	-39.5	-42.0	15.5	0.00e+00	0	53	0	80740352	50	4855
2026-01-05 09:35:00.01	147.55	10.91	-39.6	-42.1	15.4	0.00e+00	0	54	0	82837504	50	4903
2026-01-05 09:35:01.02	147.52	11.00	-39.6	-42.1	15.4	0.00e+00	0	53	0	83886080	50	4900
2026-01-05 09:35:02.03	147.49	11.09	-39.5	-42.0	15.5	0.00e+00	0	54	0	85983232	50	4837
2026-01-05 09:35:03.04	147.46	11.18	-39.5	-42.0	15.6	0.00e+00	0	53	0	88080384	50	4820
2026-01-05 09:35:04.05	147.43	11.27	-39.5	-42.0	15.6	0.00e+00	0	54	0	90177536	50	4840
2026-01-05 09:35:05.05	147.41	11.36	-39.5	-42.0	15.6	0.00e+00	0	53	0	92274688	50	4857
2026-01-05 09:35:06.06	147.38	11.45	-39.5	-42.0	15.6	0.00e+00	0	54	0	93323264	50	4826
2026-01-05 09:35:07.07	147.35	11.55	-39.6	-42.1	15.5	0.00e+00	0	53	0	95420416	50	4875
2026-01-05 09:35:08.08	147.32	11.64	-39.5	-42.0	15.6	0.00e+00	0	53	0	97517568	50	4862
2026-01-05 09:35:09.09	147.29	11.73	-39.6	-42.1	15.5	0.00e+00	0	54	0	99614720	50	4899
2026-01-05 09:35:10.10	147.26	11.83	-39.6	-42.1	15.6	0.00e+00	0	54	0	101711872	50	4877
2026-01-05 09:35:11.11	147.23	11.92	-39.6	-42.1	15.6	0.00e+00	0	54	0	102760448	50	4895
2026-01-05 09:35:12.12	147.20	12.02	-39.6	-42.1	15.6	0.00e+00	0	54	0	104857600	50	4903
2026-01-05 09:35:13.13	147.17	12.11	-39.6	-42.0	15.6	0.00e+00	0	54	0	106954752	50	4864
2026-01-05 09:35:14.14	147.14	12.21	-39.6	-42.1	15.6	0.00e+00	0	54	0	109051904	50	4885
2026-01-05 09:35:15.15	147.11	12.30	-39.6	-42.0	15.7	0.00e+00	0	54	0	111149056	50	4858
2026-01-05 09:35:16.16	147.08	12.40	-39.5	-41.9	15.7	0.00e+00	0	54	0	112197632	50	4813
2026-01-05 09:35:17.17	147.04	12.49	-39.6	-42.0	15.7	0.00e+00	0	54	0	114294784	50	4856
2026-01-05 09:35:18.18	147.01	12.59	-39.5	-42.0	15.7	0.00e+00	0	54	0	116391936	50	4843
2026-01-05 09:35:19.19	146.98	12.69	-39.5	-42.0	15.7	0.00e+00	0	54	0	118489088	50	4820
2026-01-05 09:35:20.20	146.95	12.79	-39.5	-41.9	15.8	0.00e+00	0	54	0	120586240	50	4766
2026-01-05 09:35:21.21	146.92	12.88	-39.5	-41.9	15.8	0.00e+00	0	54	0	122683392	50	4804
2026-01-05 09:35:22.22	146.88	12.98	-39.5	-41.9	15.8	0.00e+00	0	54	0	123731968	50	4790
2026-01-05 09:35:23.23	146.85	13.08	-39.5	-41.9	15.8	0.00e+00	0	54	0	125829120	50	4797
2026-01-05 09:35:24.23	146.82	13.18	-39.5	-41.9	15.8	0.00e+00	0	54	0	127926272	50	4808
2026-01-05 09:35:25.24	146.79	13.28	-39.5	-41.9	15.9	0.00e+00	0	54	0	130023424	50	4763
2026-01-05 09:35:26.25	146.75	13.38	-39.5	-41.9	15.8	0.00e+00	0	54	0	131072000	50	4797
2026-01-05 09:35:27.26	146.72	13.48	-39.4	-41.8	16.0	0.00e+00	0	54	0	133169152	50	4744
2026-01-05 09:35:28.27	146.69	13.58	-39.5	-41.9	15.9	0.00e+00	0	54	0	135266304	50	4777
2026-01-05 09:35:29.28	146.65	13.68	-39.5	-41.9	15.9	0.00e+00	0	54	0	137363456	50	4770
2026-01-05 09:35:30.28	146.62	13.78	-39.5	-41.8	16.0	0.00e+00	0	54	0	139460608	50	4758
2026-01-05 09:35:31.29	146.58	13.88	-39.5	-41.8	16.0	0.00e+00	0	54	0	141557760	50	4750
2026-01-05 09:35:32.30	146.55	13.98	-39.4	-41.7	16.1	0.00e+00	0	54	0	142606336	50	4705
2026-01-05 09:35:33.31	146.51	14.09	-39.4	-41.7	16.1	0.00e+00	0	54	0	144703488	50	4676
2026-01-05 09:35:34.33	146.48	14.19	-39.4	-41.7	16.1	0.00e+00	0	54	0	146800640	50	4704
2026-01-05 09:35:35.34	146.44	14.29	-39.4	-41.8	16.0	0.00e+00	0	54	0	148897792	50	4733
2026-01-05 09:35:36.35	146.41	14.40	-39.5	-41.9	16.0	0.00e+00	0	54	0	150994944	50	4768
2026-01-05 09:35:37.35	146.37	14.50	-39.5	-41.9	16.0	0.00e+00	0	54	0	152043520	50	4783
2026-01-05 09:35:38.36	146.33	14.61	-39.4	-41.8	16.1	0.00e+00	0	54	0	154140672	50	4706
2026-01-05 09:35:39.37	146.30	14.71	-39.5	-41.8	16.1	0.00e+00	0	54	0	156237824	50	4721
2026-01-05 09:35:40.38	146.26	14.82	-39.4	-41.7	16.2	0.00e+00	0	54	0	158334976	50	4673
2026-01-05 09:35:41.39	146.22	14.92	-39.3	-41.6	16.2	0.00e+00	0	54	0	160432128	50	4642
2026-01-05 09:35:42.40	146.19	15.03	-39.4	-41.6	16.2	0.00e+00	0	54	0	161480704	50	4651
2026-01-05 09:35:43.41	146.15	15.14	-39.4	-41.7	16.2	0.00e+00	0	54	0	163577856	50	4652
2026-01-05 09:35:44.42	146.11	15.25	-39.4	-41.7	16.2	0.00e+00	0	54	0	165675008	50	4662
2026-01-05 09:35:45.43	146.07	15.35	-39.3	-41.6	16.3	0.00e+00	0	54	0	167772160	50	4633
2026-01-05 09:35:46.45	146.03	15.46	-39.3	-41.6	16.3	0.00e+00	0	54	0	169869312	50	4619
2026-01-05 09:35:47.46	145.99	15.57	-39.4	-41.6	16.3	0.00e+00	0	54	0	170917888	50	4634
2026-01-05 09:35:48.47	145.95	15.68	-39.3	-41.6	16.3	0.00e+00	0	54	0	173015040	50	4634
2026-01-05 09:35:49.48	145.91	15.79	-39.4	-41.7	16.3	0.00e+00	0	54	0	175112192	50	4656
2026-01-05 09:35:50.49	145.87	15.90	-39.4	-41.7	16.2	0.00e+00	0	54	0	177209344	50	4692
2026-01-05 09:35:51.50	145.83	16.01	-39.5	-41.8	16.2	0.00e+00	0	54	0	179306496	50	4723
2026-01-05 09:35:52.51	145.79	16.12	-39.5	-41.8	16.1	0.00e+00	0	54	0	180355072	50	4738
2026-01-05 09:35:53.51	145.75	16.24	-39.5	-41.8	16.1	0.00e+00	0	54	0	182452224	50	4752
2026-01-05 09:35:54.52	145.71	16.35	-39.5	-41.8	16.1	0.00e+00	0	54	0	184549376	50	4752
2026-01-05 09:35:55.53	145.67	16.46	-39.5	-41.9	16.1	0.00e+00	0	54	0	186646528	50	4766
2026-01-05 09:35:56.54	145.63	16.57	-39.5	-41.9	16.1	0.00e+00	0	54	0	188743680	50	4780
2026-01-05 09:35:57.55	145.59	16.69	-39.5	-41.8	16.2	0.00e+00	0	54	0	190840832	50	4736
2026-01-05 09:35:58.57	145.54	16.80	-39.4	-41.7	16.3	0.00e+00	0	55	0	191889408	50	4672
2026-01-05 09:35:59.58	145.50	16.92	-39.4	-41.7	16.2	0.00e+00	0	55	0	193986560	50	4694
2026-01-05 09:36:00.59	145.46	17.03	-39.4	-41.7	16.3	0.00e+00	0	55	0	196083712	50	4687
2026-01-05 09:36:01.60	145.41	17.15	-39.4	-41.7	16.3	0.00e+00	0	54	0	198180864	50	4666
2026-01-05 09:36:02.61	145.37	17.27	-39.4	-41.7	16.3	0.00e+00	0	55	0	200278016	50	4686
2026-01-05 09:36:03.62	145.32	17.38	-39.4	-41.7	16.3	0.00e+00	0	54	0	201326592	50	4660
2026-01-05 09:36:04.62	145.28	17.50	-39.4	-41.7	16.3	0.00e+00	0	55	0	203423744	50	4655
2026-01-05 09:36:05.63	145.23	17.62	-39.5	-41.8	16.2	0.00e+00	0	55	0	205520896	50	4734
2026-01-05 09:36:06.64	145.19	17.74	-39.5	-41.8	16.3	0.00e+00	0	55	0	207618048	50	4718
2026-01-05 09:36:07.65	145.14	17.86	-39.5	-41.7	16.3	0.00e+00	0	55	0	209715200	50	4701
2026-01-05 09:36:08.66	145.10	17.98	-39.5	-41.8	16.2	0.00e+00	0	55	0	210763776	50	4717
2026-01-05 09:36:09.67	145.05	18.10	-39.4	-41.7	16.4	0.00e+00	0	54	0	212860928	50	4652
2026-01-05 09:36:10.68	145.00	18.22	-39.4	-41.6	16.4	0.00e+00	0	55	0	214958080	50	4635
2026-01-05 09:36:11.69	144.96	18.34	-39.3	-41.5	16.5	0.00e+00	0	55	0	217055232	50	4590
2026-01-05 09:36:12.70	144.91	18.46	-39.3	-41.4	16.6	0.00e+00	0	55	0	219152384	50	4531
2026-01-05 09:36:13.71	144.86	18.58	-39.2	-41.4	16.6	0.00e+00	0	55	0	220200960	50	4517
2026-01-05 09:36:14.72	144.81	18.71	-39.2	-41.4	16.7	0.00e+00	0	55	0	222298112	50	4510
2026-01-05 09:36:15.73	144.76	18.83	-39.2	-41.4	16.7	0.00e+00	0	55	0	224395264	50	4504
2026-01-05 09:36:16.74	144.71	18.96	-39.2	-41.4	16.6	0.00e+00	0	55	0	226492416	50	4532
2026-01-05 09:36:17.75	144.66	19.08	-39.3	-41.4	16.6	0.00e+00	0	55	0	228589568	50	4536
2026-01-05 09:36:18.76	144.61	19.21	-39.3	-41.5	16.6	0.00e+00	0	55	0	229638144	50	4571
2026-01-05 09:36:19.77	144.56	19.33	-39.4	-41.6	16.5	0.00e+00	0	55	0	231735296	50	4633
2026-01-05 09:36:20.78	144.51	19.46	-39.5	-41.7	16.4	0.00e+00	0	55	0	233832448	50	4697
2026-01-05 09:36:21.79	144.46	19.59	-39.4	-41.6	16.5	0.00e+00	0	55	0	235929600	50	4647
2026-01-05 09:36:22.80	144.41	19.72	-39.4	-41.6	16.5	0.00e+00	0	55	0	238026752	50	4648
2026-01-05 09:36:23.81	144.35	19.85	-39.3	-41.5	16.6	0.00e+00	0	55	0	239075328	50	4597
2026-01-05 09:36:24.82	144.30	19.98	-39.3	-41.5	16.6	0.00e+00	0	55	0	241172480	50	4565
2026-01-05 09:36:25.83	144.25	20.11	-39.2	-41.4	16.8	0.00e+00	0	55	0	243269632	50	4506
2026-01-05 09:36:26.84	144.19	20.24	-39.2	-41.3	16.9	0.00e+00	0	55	0	245366784	50	4459
2026-01-05 09:36:27.84	144.14	20.37	-39.1	-41.3	16.9	0.00e+00	0	55	0	247463936	50	4443
2026-01-05 09:36:28.85	144.08	20.50	-39.2	-41.3	16.8	0.00e+00	0	55	0	248512512	50	4474
2026-01-05 09:36:29.85	144.03	20.63	-39.2	-41.3	16.8	0.00e+00	0	55	0	250609664	50	4482
2026-01-05 09:36:30.86	143.97	20.76	-39.2	-41.4	16.8	0.00e+00	0	55	0	252706816	50	4499
2026-01-05 09:36:31.87	143.92	20.90	-39.2	-41.4	16.7	0.00e+00	0	55	0	254803968	50	4512
2026-01-05 09:36:32.88	143.86	21.03	-39.3	-41.4	16.7	0.00e+00	0	55	0	256901120	50	4540
2026-01-05 09:36:33.89	143.80	21.17	-39.3	-41.4	16.7	0.00e+00	0	55	0	258998272	50	4534
2026-01-05 09:36:34.90	143.74	21.30	-39.2	-41.4	16.8	0.00e+00	0	55	0	260046848	50	4508
2026-01-05 09:36:35.91	143.69	21.44	-39.2	-41.3	16.8	0.00e+00	0	55	0	262144000	50	4482
2026-01-05 09:36:36.92	143.63	21.58	-39.1	-41.2	16.9	0.00e+00	0	55	0	264241152	50	4441
2026-01-05 09:36:37.93	143.57	21.72	-39.1	-41.2	17.0	0.00e+00	0	55	0	266338304	50	4403
2026-01-05 09:36:38.94	143.51	21.86	-39.1	-41.1	17.1	0.00e+00	0	55	0	267386880	50	4385
2026-01-05 09:36:39.95	143.45	22.00	-39.0	-41.1	17.1	0.00e+00	0	55	0	269484032	50	4360
2026-01-05 09:36:40.96	143.38	22.14	-39.1	-41.2	17.0	0.00e+00	0	55	0	271581184	50	4406
2026-01-05 09:36:41.97	143.32	22.28	-39.2	-41.2	16.9	0.00e+00	0	55	0	273678336	50	4437
2026-01-05 09:36:42.98	143.26	22.42	-39.2	-41.2	16.9	0.00e+00	0	55	0	275775488	50	4438
2026-01-05 09:36:43.99	143.20	22.56	-39.3	-41.5	16.7	0.00e+00	0	55	0	277872640	50	4546
2026-01-05 09:36:45.00	143.13	22.71	-39.4	-41.5	16.7	0.00e+00	0	55	0	278921216	50	4589
2026-01-05 09:36:46.01	143.07	22.85	-39.4	-41.6	16.6	0.00e+00	0	55	0	281018368	50	4632
2026-01-05 09:36:47.02	143.00	23.00	-39.5	-41.7	16.5	0.00e+00	0	55	0	283115520	50	4664
2026-01-05 09:36:48.03	142.94	23.14	-39.4	-41.7	16.6	0.00e+00	0	55	0	285212672	50	4658
2026-01-05 09:36:49.03	142.87	23.29	-39.5	-41.7	16.5	0.00e+00	0	55	0	287309824	50	4676
2026-01-05 09:36:50.04	142.81	23.44	-39.5	-41.8	16.5	0.00e+00	0	55	0	288358400	50	4715
2026-01-05 09:36:51.05	142.74	23.58	-39.5	-41.8	16.5	0.00e+00	0	55	0	290455552	50	4714
2026-01-05 09:36:52.06	142.67	23.73	-39.6	-41.9	16.4	0.00e+00	0	55	0	292552704	50	4784
2026-01-05 09:36:53.07	142.60	23.88	-39.7	-42.0	16.3	0.00e+00	0	55	0	294649856	50	4825
2026-01-05 09:36:54.08	142.53	24.03	-39.7	-42.0	16.3	0.00e+00	0	55	0	296747008	50	4831
2026-01-05 09:36:55.09	142.46	24.19	-39.7	-42.0	16.2	0.00e+00	0	55	0	297795584	50	4861
2026-01-05 09:36:56.10	142.39	24.34	-39.8	-42.1	16.2	0.00e+00	0	55	0	299892736	50	4885
2026-01-05 09:36:57.11	142.32	24.49	-39.8	-42.2	16.1	0.00e+00	0	55	0	301989888	50	4930
2026-01-05 09:36:58.12	142.25	24.65	-39.9	-42.2	16.0	0.00e+00	0	55	0	304087040	50	4982
2026-01-05 09:36:59.13	142.17	24.80	-40.0	-42.4	15.9	0.00e+00	0	55	0	306184192	50	5050
2026-01-05 09:37:00.14	142.10	24.96	-39.9	-42.3	16.0	0.00e+00	0	55	0	307232768	50	5028
2026-01-05 09:37:01.15	142.02	25.11	-40.0	-42.4	15.9	0.00e+00	0	55	0	309329920	50	5056
2026-01-05 09:37:02.16	141.95	25.27	-40.0	-42.4	15.9	0.00e+00	0	55	0	311427072	50	5087
2026-01-05 09:37:03.17	141.87	25.43	-40.0	-42.5	15.8	0.00e+00	0	55	0	313524224	50	5107
2026-01-05 09:37:04.17	141.80	25.59	-40.1	-42.5	15.8	0.00e+00	0	55	0	315621376	50	5151
2026-01-05 09:37:05.18	141.72	25.75	-40.2	-42.7	15.6	0.00e+00	0	55	0	316669952	50	5238
2026-01-05 09:37:06.19	141.64	25.91	-40.2	-42.8	15.5	0.00e+00	0	55	0	318767104	51	4987
2026-01-05 09:37:07.20	141.56	26.07	-40.4	-42.9	15.3	0.00e+00	0	55	0	320864256	51	5100
2026-01-05 09:37:08.21	141.48	26.23	-40.4	-43.0	15.3	0.00e+00	0	55	0	322961408	51	5138
2026-01-05 09:37:09.22	141.40	26.40	-40.5	-43.2	15.1	0.00e+00	0	55	0	325058560	51	5248
2026-01-05 09:37:10.23	141.32	26.56	-40.6	-43.4	14.9	0.00e+00	0	55	0	326107136	51	5344
2026-01-05 09:37:11.24	141.23	26.73	-40.7	-43.4	14.9	0.00e+00	0	55	0	328204288	51	5386
2026-01-05 09:37:12.25	141.15	26.89	-40.7	-43.5	14.7	7.00e-07	0	55	0	330301440	52	5139
2026-01-05 09:37:13.26	141.06	27.06	-40.8	-43.7	14.5	0.00e+00	0	55	0	332398592	52	5255
2026-01-05 09:37:14.27	140.98	27.23	-41.0	-43.9	14.3	7.00e-07	0	55	0	334495744	52	5384
2026-01-05 09:37:15.28	140.89	27.40	-41.1	-44.1	14.1	7.00e-07	0	55	0	335544320	52	5498
2026-01-05 09:37:16.29	140.80	27.57	-41.2	-44.3	13.9	7.00e-07	0	55	0	337641472	52	5598
2026-01-05 09:37:17.30	140.72	27.74	-41.2	-44.2	14.0	3.80e-06	0	56	0	339738624	52	5590
2026-01-05 09:37:18.31	140.63	27.92	-41.2	-44.4	13.8	3.80e-06	0	55	0	341835776	53	5346
2026-01-05 09:37:19.32	140.53	28.09	-41.4	-44.6	13.6	4.50e-06	0	55	0	343932928	53	5489
2026-01-05 09:37:20.33	140.44	28.26	-41.5	-44.8	13.4	6.10e-06	0	55	0	346030080	53	5616
2026-01-05 09:37:21.34	140.35	28.44	-41.4	-44.7	13.5	1.06e-05	0	55	0	347078656	53	5553
2026-01-05 09:37:22.35	140.26	28.62	-41.4	-44.7	13.5	1.29e-05	0	55	0	349175808	53	5554
2026-01-05 09:37:23.36	140.16	28.79	-41.5	-44.8	13.4	1.29e-05	0	56	0	351272960	53	5631
2026-01-05 09:37:24.37	140.07	28.97	-41.6	-45.0	13.2	2.36e-05	0	55	0	353370112	53	5725
2026-01-05 09:37:25.38	139.97	29.15	-41.6	-44.9	13.3	1.29e-05	0	56	0	355467264	53	5697
2026-01-05 09:37:26.39	139.87	29.33	-41.5	-44.9	13.3	2.89e-05	0	55	0	356515840	53	5658
2026-01-05 09:37:27.40	139.77	29.52	-41.6	-44.9	13.3	2.21e-05	0	56	0	358612992	53	5696
2026-01-05 09:37:28.41	139.67	29.70	-41.7	-45.2	13.0	3.43e-05	0	56	0	360710144	53	5883
2026-01-05 09:37:29.41	139.57	29.88	-41.7	-45.1	13.1	3.20e-05	0	56	0	362807296	54	5507
2026-01-05 09:37:30.42	139.47	30.07	-41.8	-45.2	13.0	2.97e-05	0	56	0	364904448	54	5576
2026-01-05 09:37:31.43	139.36	30.25	-41.8	-45.3	12.9	3.89e-05	0	56	0	365953024	54	5619
2026-01-05 09:37:32.44	139.26	30.44	-41.7	-45.1	13.2	2.97e-05	0	56	0	368050176	54	5489
2026-01-05 09:37:33.45	139.15	30.63	-41.8	-45.2	13.0	3.58e-05	0	56	0	370147328	54	5585
2026-01-05 09:37:34.46	139.05	30.82	-41.8	-45.3	13.0	3.89e-05	0	55	0	372244480	54	5624
2026-01-05 09:37:35.47	138.94	31.01	-41.8	-45.3	13.0	3.12e-05	0	56	0	374341632	54	5601
2026-01-05 09:37:36.48	138.83	31.20	-41.8	-45.3	13.0	3.28e-05	0	56	0	375390208	54	5613
2026-01-05 09:37:37.49	138.71	31.39	-41.9	-45.4	12.8	4.57e-05	0	56	0	377487360	54	5712
2026-01-05 09:37:38.50	138.60	31.59	-41.9	-45.6	12.7	8.31e-05	0	56	0	379584512	54	5810
2026-01-05 09:37:39.51	138.49	31.78	-42.1	-45.8	12.4	1.40e-04	0	56	0	381681664	54	5989
2026-01-05 09:37:40.52	138.37	31.98	-42.1	-45.9	12.3	1.56e-04	0	55	0	383778816	54	6057
2026-01-05 09:37:41.53	138.25	32.18	-42.1	-45.8	12.4	1.86e-04	0	56	0	384827392	54	5991
2026-01-05 09:37:42.54	138.13	32.38	-42.1	-45.8	12.4	1.80e-04	0	56	0	386924544	54	5952
2026-01-05 09:37:43.55	138.01	32.58	-42.1	-45.8	12.4	1.55e-04	0	56	0	389021696	54	5992
2026-01-05 09:37:44.56	137.89	32.78	-42.0	-45.7	12.6	1.15e-04	0	55	0	391118848	54	5869
2026-01-05 09:37:45.57	137.77	32.98	-42.0	-45.6	12.7	7.32e-05	0	56	0	393216000	54	5826
2026-01-05 09:37:46.58	137.64	33.18	-42.0	-45.6	12.7	8.31e-05	0	56	0	394264576	54	5829
2026-01-05 09:37:47.59	137.52	33.39	-41.9	-45.6	12.7	6.63e-05	0	56	0	396361728	54	5789
2026-01-05 09:37:48.60	137.39	33.59	-42.0	-45.7	12.6	7.93e-05	0	56	0	398458880	54	5884
2026-01-05 09:37:49.61	137.26	33.80	-42.0	-45.7	12.6	8.92e-05	0	56	0	400556032	54	5894
2026-01-05 09:37:50.62	137.13	34.01	-42.1	-45.9	12.4	7.01e-05	0	56	0	402653184	54	6047
2026-01-05 09:37:51.63	136.99	34.22	-42.1	-45.9	12.4	1.88e-04	0	56	0	403701760	54	6059
2026-01-05 09:37:52.64	136.86	34.43	-42.1	-45.9	12.4	1.85e-04	0	56	0	405798912	54	6037
2026-01-05 09:37:53.65	136.72	34.64	-42.2	-46.1	12.2	1.89e-04	0	56	0	407896064	55	5815
2026-01-05 09:37:54.66	136.58	34.86	-42.2	-46.0	12.2	2.57e-04	0	56	0	409993216	55	5778
2026-01-05 09:37:55.67	136.44	35.07	-42.3	-46.3	12.0	2.16e-04	0	56	0	412090368	55	5934
2026-01-05 09:37:56.68	136.30	35.29	-42.2	-46.0	12.3	2.49e-04	0	56	0	414187520	55	5785
2026-01-05 09:37:57.69	136.16	35.50	-42.3	-46.3	12.0	3.34e-04	0	56	0	415236096	55	5960
2026-01-05 09:37:58.69	136.01	35.72	-42.3	-46.4	11.9	4.69e-04	0	56	0	417333248	55	5994
2026-01-05 09:37:59.71	135.86	35.94	-42.3	-46.3	12.0	3.75e-04	0	56	0	419430400	55	5950
2026-01-05 09:38:00.72	135.71	36.16	-42.2	-46.1	12.2	3.58e-04	0	56	0	421527552	55	5821
2026-01-05 09:38:01.73	135.56	36.39	-42.2	-46.0	12.2	2.63e-04	0	56	0	423624704	55	5768
2026-01-05 09:38:02.73	135.40	36.61	-42.2	-46.0	12.2	1.88e-04	0	56	0	424673280	55	5771
2026-01-05 09:38:03.74	135.25	36.83	-42.2	-46.1	12.2	2.04e-04	0	56	0	426770432	55	5812
2026-01-05 09:38:04.76	135.09	37.06	-42.3	-46.2	12.1	2.10e-04	0	56	0	428867584	55	5861
2026-01-05 09:38:05.77	134.93	37.29	-42.1	-45.8	12.5	1.28e-04	0	56	0	430964736	55	5627
2026-01-05 09:38:06.78	134.76	37.52	-42.1	-45.7	12.6	8.46e-05	0	56	0	433061888	55	5589
2026-01-05 09:38:07.79	134.60	37.75	-41.9	-45.4	12.9	4.73e-05	0	56	0	434110464	55	5376
2026-01-05 09:38:08.80	134.43	37.98	-41.8	-45.3	13.1	3.58e-05	0	56	0	436207616	55	5286
2026-01-05 09:38:09.81	134.26	38.21	-41.8	-45.2	13.2	2.05e-05	0	56	0	438304768	55	5226
2026-01-05 09:38:10.82	134.08	38.45	-41.8	-45.3	13.1	3.20e-05	0	56	0	440401920	55	5282
2026-01-05 09:38:11.82	133.91	38.68	-41.9	-45.4	13.0	2.89e-05	0	56	0	442499072	55	5341
2026-01-05 09:38:12.83	133.73	38.92	-41.8	-45.1	13.2	3.35e-05	0	56	0	443547648	55	5207
2026-01-05 09:38:13.84	133.55	39.15	-41.6	-44.8	13.6	2.21e-05	0	56	0	445644800	55	5017
2026-01-05 09:38:14.85	133.37	39.39	-41.5	-44.6	13.8	6.80e-06	0	56	0	447741952	54	5203
2026-01-05 09:38:15.86	133.18	39.64	-41.4	-44.5	13.9	4.50e-06	0	56	0	449839104	54	5134
2026-01-05 09:38:16.87	132.99	39.88	-41.2	-44.2	14.1	3.00e-06	0	56	0	451936256	54	4980
2026-01-05 09:38:17.88	132.80	40.12	-41.1	-44.1	14.3	2.20e-06	0	56	0	452984832	54	4896
2026-01-05 09:38:18.89	132.60	40.36	-41.2	-44.1	14.3	2.20e-06	0	56	0	455081984	54	4922
2026-01-05 09:38:19.90	132.40	40.61	-41.1	-44.1	14.3	2.20e-06	0	56	0	457179136	54	4893
2026-01-05 09:38:20.91	132.20	40.86	-41.2	-44.2	14.2	7.00e-07	0	56	0	459276288	54	4944
2026-01-05 09:38:21.92	132.00	41.11	-41.4	-44.6	13.9	2.20e-06	0	56	0	461373440	54	5183
2026-01-05 09:38:22.93	131.79	41.36	-41.4	-44.6	13.9	3.80e-06	0	56	0	462422016	54	5183
2026-01-05 09:38:23.94	131.58	41.61	-41.5	-44.6	13.8	3.00e-06	0	56	0	464519168	54	5205
2026-01-05 09:38:24.95	131.36	41.86	-41.6	-44.8	13.6	5.30e-06	0	56	0	466616320	54	5340
2026-01-05 09:38:25.96	131.15	42.11	-41.6	-44.9	13.5	9.10e-06	0	56	0	468713472	54	5390
2026-01-05 09:38:26.97	130.92	42.37	-41.7	-45.0	13.4	1.29e-05	0	56	0	470810624	54	5433
2026-01-05 09:38:27.97	130.70	42.62	-41.5	-44.7	13.7	8.30e-06	0	56	0	471859200	54	5275
2026-01-05 09:38:28.98	130.47	42.88	-41.4	-44.6	13.9	6.80e-06	0	56	0	473956352	54	5177
2026-01-05 09:38:29.99	130.24	43.14	-41.4	-44.4	14.0	3.00e-06	0	56	0	476053504	54	5078
2026-01-05 09:38:31.00	130.01	43.40	-41.5	-44.7	13.8	3.80e-06	0	56	0	478150656	54	5222
2026-01-05 09:38:32.01	129.77	43.66	-41.4	-44.5	13.9	1.50e-06	0	56	0	480247808	54	5133
2026-01-05 09:38:33.02	129.52	43.92	-41.3	-44.4	14.1	3.00e-06	0	56	0	482344960	54	5054
2026-01-05 09:38:34.03	129.27	44.18	-41.3	-44.3	14.1	4.50e-06	0	56	0	483393536	54	5008
2026-01-05 09:38:35.04	129.02	44.45	-40.9	-43.7	14.7	7.00e-07	0	56	0	485490688	53	4968
2026-01-05 09:38:36.05	128.76	44.72	-40.9	-43.6	14.8	0.00e+00	0	56	0	487587840	53	4925
2026-01-05 09:38:37.06	128.50	44.98	-40.8	-43.5	14.9	0.00e+00	0	56	0	489684992	53	4851
2026-01-05 09:38:38.07	128.24	45.25	-40.8	-43.4	15.0	0.00e+00	0	56	0	491782144	53	4814
2026-01-05 09:38:39.08	127.97	45.52	-40.7	-43.3	15.1	0.00e+00	0	56	0	492830720	53	4732
2026-01-05 09:38:40.09	127.69	45.79	-40.6	-43.1	15.3	0.00e+00	0	56	0	494927872	53	4643
2026-01-05 09:38:41.10	127.41	46.06	-40.5	-43.1	15.4	0.00e+00	0	56	0	497025024	53	4630
2026-01-05 09:38:42.11	127.13	46.33	-40.6	-43.2	15.2	0.00e+00	0	56	0	499122176	53	4672
2026-01-05 09:38:43.12	126.84	46.61	-40.9	-43.6	14.7	0.00e+00	0	56	0	501219328	53	4925
2026-01-05 09:38:44.13	126.55	46.88	-41.0	-43.9	14.5	7.00e-07	0	56	0	502267904	53	5067
2026-01-05 09:38:45.14	126.25	47.16	-41.1	-44.0	14.5	1.50e-06	0	56	0	504365056	53	5144
2026-01-05 09:38:46.15	125.94	47.43	-41.0	-43.9	14.6	7.00e-07	0	56	0	506462208	53	5061
2026-01-05 09:38:47.16	125.63	47.71	-41.0	-43.8	14.6	7.00e-07	0	56	0	508559360	53	5029
2026-01-05 09:38:48.17	125.31	47.99	-40.9	-43.7	14.8	0.00e+00	0	56	0	510656512	53	4927
2026-01-05 09:38:49.18	124.99	48.26	-40.9	-43.7	14.7	0.00e+00	0	56	0	511705088	53	4961
2026-01-05 09:38:50.18	124.67	48.54	-40.9	-43.6	14.8	0.00e+00	0	56	0	513802240	53	4914
2026-01-05 09:38:51.19	124.33	48.82	-40.7	-43.3	15.2	0.00e+00	0	56	0	515899392	53	4742
2026-01-05 09:38:52.20	123.99	49.10	-40.6	-43.2	15.3	0.00e+00	0	56	0	517996544	53	4697
2026-01-05 09:38:53.21	123.65	49.38	-40.6	-43.3	15.2	0.00e+00	0	56	0	520093696	53	4706
2026-01-05 09:38:54.23	123.29	49.67	-40.4	-42.9	15.6	0.00e+00	0	56	0	521142272	52	4764
2026-01-05 09:38:55.24	122.93	49.95	-40.2	-42.6	15.8	0.00e+00	0	56	0	523239424	52	4629
2026-01-05 09:38:56.25	122.56	50.24	-40.2	-42.7	15.8	0.00e+00	0	56	0	525336576	52	4672
2026-01-05 09:38:57.26	122.19	50.52	-40.2	-42.7	15.8	0.00e+00	0	56	0	527433728	52	4659
2026-01-05 09:38:58.27	121.81	50.80	-40.3	-42.7	15.8	0.00e+00	0	56	0	529530880	52	4698
2026-01-05 09:38:59.28	121.42	51.09	-40.4	-43.0	15.5	0.00e+00	0	56	0	530579456	52	4816
2026-01-05 09:39:00.29	121.03	51.37	-40.3	-42.8	15.6	0.00e+00	0	56	0	532676608	52	4748
2026-01-05 09:39:01.29	120.63	51.65	-40.3	-42.7	15.7	0.00e+00	0	56	0	534773760	52	4684
2026-01-05 09:39:02.31	120.21	51.94	-40.0	-42.3	16.1	0.00e+00	0	56	0	536870912	52	4485
2026-01-05 09:39:03.32	119.80	52.23	-40.0	-42.2	16.3	0.00e+00	0	56	0	538968064	51	4699
2026-01-05 09:39:04.33	119.37	52.51	-39.7	-41.8	16.7	0.00e+00	0	56	0	540016640	51	4487
2026-01-05 09:39:05.33	118.94	52.80	-39.7	-41.8	16.6	0.00e+00	0	56	0	542113792	51	4491
2026-01-05 09:39:06.34	118.49	53.08	-39.7	-41.9	16.7	0.00e+00	0	56	0	544210944	51	4504
2026-01-05 09:39:07.35	118.04	53.37	-39.6	-41.7	16.8	0.00e+00	0	56	0	546308096	51	4417
2026-01-05 09:39:08.36	117.58	53.65	-39.7	-41.8	16.6	0.00e+00	0	56	0	548405248	51	4482
2026-01-05 09:39:09.37	117.11	53.94	-39.7	-41.9	16.6	0.00e+00	0	56	0	550502400	51	4541
2026-01-05 09:39:10.38	116.63	54.22	-39.9	-42.1	16.4	0.00e+00	0	56	0	551550976	51	4642
2026-01-05 09:39:11.39	116.14	54.50	-40.1	-42.4	16.1	0.00e+00	0	56	0	553648128	51	4809
2026-01-05 09:39:12.40	115.64	54.79	-40.2	-42.6	15.9	0.00e+00	0	56	0	555745280	51	4886
2026-01-05 09:39:13.41	115.13	55.07	-40.2	-42.6	15.9	0.00e+00	0	56	0	557842432	51	4899
2026-01-05 09:39:14.42	114.61	55.35	-40.1	-42.5	16.0	0.00e+00	0	56	0	559939584	51	4837
2026-01-05 09:39:15.43	114.08	55.63	-40.2	-42.6	15.8	0.00e+00	0	56	0	560988160	51	4926
2026-01-05 09:39:16.44	113.54	55.91	-40.3	-42.8	15.7	0.00e+00	0	56	0	563085312	51	4991
2026-01-05 09:39:17.45	112.98	56.19	-40.3	-42.8	15.7	0.00e+00	0	56	0	565182464	51	5003
2026-01-05 09:39:18.46	112.42	56.46	-40.4	-42.9	15.5	0.00e+00	0	56	0	567279616	51	5098
2026-01-05 09:39:19.47	111.85	56.74	-40.6	-43.3	15.0	0.00e+00	0	56	0	569376768	52	5019
2026-01-05 09:39:20.48	111.26	57.01	-40.8	-43.6	14.8	0.00e+00	0	56	0	570425344	52	5193
2026-01-05 09:39:21.49	110.66	57.29	-41.0	-43.9	14.5	0.00e+00	0	56	0	572522496	52	5342
2026-01-05 09:39:22.50	110.05	57.56	-41.2	-44.1	14.3	0.00e+00	0	56	0	574619648	52	5503
2026-01-05 09:39:23.51	109.43	57.83	-41.3	-44.4	13.9	0.00e+00	0	56	0	576716800	53	5394
2026-01-05 09:39:24.52	108.79	58.09	-41.6	-44.8	13.6	8.30e-06	0	56	0	578813952	53	5651
2026-01-05 09:39:25.53	108.15	58.36	-41.6	-44.8	13.6	9.10e-06	0	56	0	579862528	53	5640
2026-01-05 09:39:26.55	107.48	58.62	-41.5	-44.6	13.7	1.60e-05	0	56	0	581959680	53	5516
2026-01-05 09:39:27.56	106.80	58.88	-41.2	-44.3	14.0	2.20e-06	0	56	0	584056832	53	5288
2026-01-05 09:39:28.57	106.12	59.14	-41.1	-44.0	14.3	7.00e-07	0	56	0	586153984	53	5114
2026-01-05 09:39:29.57	105.42	59.39	-40.6	-43.2	15.1	0.00e+00	0	56	0	588251136	53	4687
2026-01-05 09:39:30.59	104.70	59.64	-40.6	-43.2	15.2	0.00e+00	0	56	0	589299712	53	4666
2026-01-05 09:39:31.60	103.97	59.89	-40.4	-42.9	15.5	0.00e+00	0	56	0	591396864	52	4804
2026-01-05 09:39:32.60	103.24	60.14	-40.4	-42.9	15.5	0.00e+00	0	56	0	593494016	52	4762
2026-01-05 09:39:33.62	102.47	60.38	-40.5	-43.0	15.4	0.00e+00	0	56	0	595591168	52	4840
2026-01-05 09:39:34.63	101.70	60.62	-40.3	-42.8	15.6	0.00e+00	0	56	0	597688320	52	4748
2026-01-05 09:39:35.64	100.91	60.85	-40.2	-42.7	15.6	0.00e+00	0	56	0	598736896	52	4683
2026-01-05 09:39:36.64	100.12	61.08	-39.9	-42.2	16.2	0.00e+00	0	56	0	600834048	51	4690
2026-01-05 09:39:37.65	99.30	61.30	-39.4	-41.5	16.9	0.00e+00	0	56	0	602931200	50	4589
2026-01-05 09:39:38.66	98.47	61.52	-39.3	-41.3	17.2	0.00e+00	0	56	0	605028352	50	4464
2026-01-05 09:39:39.67	97.63	61.74	-39.2	-41.2	17.3	0.00e+00	0	56	0	607125504	50	4415
2026-01-05 09:39:40.68	96.77	61.95	-38.9	-40.8	17.7	0.00e+00	0	56	0	608174080	49	4472
2026-01-05 09:39:41.69	95.90	62.16	-38.5	-40.3	18.1	0.00e+00	0	56	0	610271232	49	4238
2026-01-05 09:39:42.70	95.01	62.36	-38.5	-40.3	18.2	0.00e+00	0	56	0	612368384	49	4198
2026-01-05 09:39:43.71	94.10	62.56	-38.4	-40.2	18.3	0.00e+00	0	56	0	614465536	48	4402
2026-01-05 09:39:44.73	93.17	62.75	-38.3	-40.0	18.5	0.00e+00	0	56	0	616562688	48	4321
2026-01-05 09:39:45.73	92.25	62.93	-38.2	-40.0	18.5	0.00e+00	0	56	0	618659840	48	4303
2026-01-05 09:39:46.74	91.30	63.11	-38.4	-40.2	18.4	0.00e+00	0	56	0	619708416	48	4402
2026-01-05 09:39:47.75	90.34	63.28	-38.6	-40.4	18.1	0.00e+00	0	56	0	621805568	48	4543
2026-01-05 09:39:48.76	89.37	63.45	-38.9	-40.8	17.7	0.00e+00	0	56	0	623902720	48	4714
2026-01-05 09:39:49.77	88.38	63.61	-39.0	-40.9	17.5	0.00e+00	0	56	0	625999872	48	4797
2026-01-05 09:39:50.78	87.38	63.76	-39.3	-41.3	17.2	0.00e+00	0	56	0	628097024	49	4743
2026-01-05 09:39:51.79	86.36	63.91	-39.4	-41.6	16.9	0.00e+00	0	56	0	629145600	49	4884
2026-01-05 09:39:52.80	85.33	64.05	-39.4	-41.4	17.0	0.00e+00	0	56	0	631242752	49	4810
2026-01-05 09:39:53.81	84.29	64.18	-39.2	-41.2	17.3	0.00e+00	0	56	0	633339904	49	4702
2026-01-05 09:39:54.82	83.24	64.30	-39.1	-41.1	17.5	0.00e+00	0	56	0	635437056	49	4617
2026-01-05 09:39:55.84	82.17	64.42	-39.2	-41.3	17.2	0.00e+00	0	56	0	637534208	49	4720
2026-01-05 09:39:56.84	81.11	64.53	-39.2	-41.2	17.3	0.00e+00	0	56	0	638582784	49	4682
2026-01-05 09:39:57.85	80.02	64.63	-39.3	-41.4	17.1	0.00e+00	0	56	0	640679936	49	4782
2026-01-05 09:39:58.86	78.93	64.72	-39.3	-41.3	17.2	0.00e+00	0	56	0	642777088	49	4735
2026-01-05 09:39:59.88	77.82	64.80	-39.3	-41.3	17.2	0.00e+00	0	56	0	644874240	49	4742
2026-01-05 09:40:00.89	76.71	64.88	-39.2	-41.2	17.3	0.00e+00	0	56	0	646971392	49	4683
2026-01-05 09:40:01.89	75.61	64.95	-38.8	-40.7	17.8	0.00e+00	0	56	0	648019968	49	4424
2026-01-05 09:40:02.90	74.49	65.01	-38.8	-40.6	17.9	0.00e+00	0	56	0	650117120	49	4380
2026-01-05 09:40:03.91	73.36	65.06	-39.0	-41.0	17.5	0.00e+00	0	56	0	652214272	49	4562
2026-01-05 09:40:04.92	72.23	65.10	-39.3	-41.4	17.1	0.00e+00	0	56	0	654311424	49	4783
2026-01-05 09:40:05.93	71.09	65.13	-39.1	-41.1	17.4	0.00e+00	0	56	0	656408576	49	4616
2026-01-05 09:40:06.94	69.95	65.15	-38.6	-40.4	18.0	0.00e+00	0	56	0	658505728	49	4289
2026-01-05 09:40:07.95	68.81	65.17	-38.4	-40.2	18.3	0.00e+00	0	56	0	659554304	48	4394
2026-01-05 09:40:08.96	67.67	65.17	-38.6	-40.5	18.0	0.00e+00	0	56	0	661651456	48	4558
2026-01-05 09:40:09.98	66.52	65.17	-39.0	-41.0	17.5	0.00e+00	0	56	0	663748608	48	4831
2026-01-05 09:40:10.99	65.38	65.16	-39.1	-41.1	17.3	0.00e+00	0	56	0	665845760	48	4914
2026-01-05 09:40:11.99	64.25	65.14	-39.3	-41.4	17.0	0.00e+00	0	56	0	667942912	49	4798
2026-01-05 09:40:13.00	63.12	65.11	-39.8	-42.1	16.4	0.00e+00	0	56	0	668991488	50	4905
2026-01-05 09:40:14.01	61.98	65.07	-39.8	-42.1	16.4	0.00e+00	0	56	0	671088640	50	4872
2026-01-05 09:40:15.02	60.86	65.02	-39.7	-41.9	16.6	0.00e+00	0	56	0	673185792	50	4802
2026-01-05 09:40:16.03	59.73	64.97	-39.7	-41.9	16.6	0.00e+00	0	56	0	675282944	50	4810
2026-01-05 09:40:17.04	58.62	64.90	-39.6	-41.8	16.8	0.00e+00	0	56	0	677380096	50	4732
2026-01-05 09:40:18.05	57.51	64.83	-39.6	-41.8	16.7	0.00e+00	0	56	0	678428672	50	4748
2026-01-05 09:40:19.07	56.39	64.75	-39.7	-41.9	16.6	0.00e+00	0	56	0	680525824	50	4781
2026-01-05 09:40:20.08	55.30	64.66	-39.6	-41.7	16.9	0.00e+00	0	56	0	682622976	50	4697
2026-01-05 09:40:21.09	54.21	64.56	-39.5	-41.6	17.0	0.00e+00	0	56	0	684720128	50	4619
2026-01-05 09:40:22.10	53.14	64.46	-39.6	-41.7	16.8	0.00e+00	0	56	0	686817280	50	4698
2026-01-05 09:40:23.11	52.07	64.34	-39.4	-41.5	17.0	0.00e+00	0	56	0	687865856	50	4584
2026-01-05 09:40:24.12	51.02	64.22	-39.3	-41.3	17.2	0.00e+00	0	56	0	689963008	50	4489
2026-01-05 09:40:25.13	49.98	64.09	-39.3	-41.3	17.2	0.00e+00	0	56	0	692060160	50	4484
2026-01-05 09:40:26.14	48.95	63.96	-39.0	-41.0	17.6	0.00e+00	0	56	0	694157312	50	4300
2026-01-05 09:40:27.15	47.93	63.81	-38.8	-40.7	17.8	0.00e+00	0	56	0	696254464	49	4411
2026-01-05 09:40:28.16	46.92	63.66	-38.7	-40.6	18.0	0.00e+00	0	56	0	697303040	49	4341
2026-01-05 09:40:29.17	45.93	63.51	-38.2	-39.9	18.6	0.00e+00	0	56	0	699400192	48	4284
2026-01-05 09:40:30.18	44.95	63.34	-38.1	-39.9	18.7	0.00e+00	0	56	0	701497344	48	4251
2026-01-05 09:40:31.19	43.99	63.17	-38.5	-40.4	18.2	0.00e+00	0	56	0	703594496	48	4507
2026-01-05 09:40:32.20	43.03	63.00	-38.7	-40.6	18.0	0.00e+00	0	56	0	705691648	48	4608
2026-01-05 09:40:33.21	42.10	62.81	-38.8	-40.7	17.8	0.00e+00	0	56	0	706740224	48	4687
2026-01-05 09:40:34.22	41.18	62.62	-39.1	-41.2	17.5	0.00e+00	0	56	0	708837376	48	4932
2026-01-05 09:40:35.23	40.27	62.43	-39.1	-41.2	17.5	0.00e+00	0	56	0	710934528	49	4657
2026-01-05 09:40:36.23	39.38	62.23	-39.4	-41.6	17.1	0.00e+00	0	56	0	713031680	49	4878
2026-01-05 09:40:37.24	38.51	62.03	-40.1	-42.5	16.1	0.00e+00	0	56	0	715128832	50	5131
2026-01-05 09:40:38.25	37.64	61.82	-40.5	-43.0	15.6	0.00e+00	0	56	0	716177408	51	5140
2026-01-05 09:40:39.26	36.79	61.60	-40.2	-42.6	16.0	0.00e+00	0	56	0	718274560	51	4894
2026-01-05 09:40:40.27	35.96	61.39	-40.2	-42.6	15.9	0.00e+00	0	56	0	720371712	51	4900
2026-01-05 09:40:41.28	35.14	61.16	-40.6	-43.3	15.4	0.00e+00	0	56	0	722468864	51	5287
2026-01-05 09:40:42.29	34.34	60.93	-41.0	-43.9	14.6	7.00e-07	0	56	0	724566016	52	5376
2026-01-05 09:40:43.30	33.55	60.70	-41.6	-44.8	13.6	2.20e-06	0	56	0	726663168	53	5634
2026-01-05 09:40:44.31	32.77	60.47	-41.9	-45.3	13.1	1.83e-05	0	56	0	727711744	54	5646
2026-01-05 09:40:45.32	32.01	60.23	-41.8	-45.2	13.3	1.90e-05	0	56	0	729808896	54	5579
2026-01-05 09:40:46.33	31.26	59.98	-41.8	-45.2	13.3	1.67e-05	0	56	0	731906048	54	5540
2026-01-05 09:40:47.34	30.53	59.74	-41.8	-45.2	13.3	1.44e-05	0	56	0	734003200	54	5589
2026-01-05 09:40:48.35	29.81	59.49	-41.9	-45.4	13.0	2.74e-05	0	56	0	736100352	54	5697
2026-01-05 09:40:49.36	29.11	59.23	-42.0	-45.6	12.9	5.11e-05	0	56	0	737148928	54	5825
2026-01-05 09:40:50.37	28.42	58.98	-42.3	-46.3	12.2	1.29e-04	0	56	0	739246080	55	5925
2026-01-05 09:40:51.38	27.74	58.72	-42.6	-46.9	11.6	4.64e-04	0	56	0	741343232	55	6376
2026-01-05 09:40:52.38	27.08	58.46	-42.2	-46.0	12.5	3.07e-04	0	56	0	743440384	55	5723
2026-01-05 09:40:53.39	26.43	58.20	-41.8	-45.1	13.3	2.13e-05	0	56	0	745537536	55	5204
2026-01-05 09:40:54.40	25.79	57.94	-41.8	-45.2	13.3	1.14e-05	0	56	0	746586112	55	5226
2026-01-05 09:40:55.41	25.17	57.67	-41.8	-45.2	13.3	9.90e-06	0	56	0	748683264	55	5248
2026-01-05 09:40:56.42	24.55	57.40	-41.8	-45.3	13.2	1.67e-05	0	56	0	750780416	55	5299
2026-01-05 09:40:57.43	23.95	57.13	-41.7	-45.0	13.6	2.67e-05	0	56	0	752877568	55	5104
2026-01-05 09:40:58.44	23.36	56.85	-41.3	-44.4	14.2	4.50e-06	0	57	0	754974720	54	5044
2026-01-05 09:40:59.45	22.78	56.58	-41.1	-44.0	14.6	7.00e-07	0	56	0	756023296	54	4860
2026-01-05 09:41:00.46	22.22	56.31	-40.8	-43.6	14.9	7.00e-07	0	56	0	758120448	53	4893
2026-01-05 09:41:01.47	21.66	56.03	-40.4	-42.9	15.7	0.00e+00	0	56	0	760217600	52	4785
2026-01-05 09:41:02.48	21.12	55.75	-40.1	-42.5	16.1	0.00e+00	0	56	0	762314752	52	4563
2026-01-05 09:41:03.49	20.58	55.47	-39.9	-42.2	16.4	0.00e+00	0	56	0	764411904	51	4673
2026-01-05 09:41:04.50	20.06	55.19	-40.1	-42.4	16.3	0.00e+00	0	56	0	765460480	51	4769
2026-01-05 09:41:05.51	19.55	54.91	-40.2	-42.6	16.0	0.00e+00	0	56	0	767557632	51	4920
2026-01-05 09:41:06.52	19.05	54.63	-40.5	-43.0	15.6	0.00e+00	0	56	0	769654784	51	5122
2026-01-05 09:41:07.53	18.55	54.35	-40.4	-42.9	15.7	0.00e+00	0	56	0	771751936	51	5095
2026-01-05 09:41:08.54	18.07	54.06	-40.3	-42.7	15.9	0.00e+00	0	56	0	773849088	51	4972
2026-01-05 09:41:09.55	17.60	53.78	-40.2	-42.6	16.0	0.00e+00	0	56	0	774897664	51	4922
2026-01-05 09:41:10.56	17.13	53.50	-40.3	-42.7	15.9	0.00e+00	0	56	0	776994816	51	4942
2026-01-05 09:41:11.57	16.68	53.21	-40.4	-42.9	15.7	0.00e+00	0	56	0	779091968	51	5077
2026-01-05 09:41:12.58	16.23	52.93	-40.6	-43.1	15.5	0.00e+00	0	56	0	781189120	51	5202
2026-01-05 09:41:13.59	15.80	52.64	-40.8	-43.6	15.0	0.00e+00	0	56	0	783286272	52	5171
2026-01-05 09:41:14.60	15.37	52.36	-40.9	-43.7	14.9	0.00e+00	0	56	0	784334848	52	5219
2026-01-05 09:41:15.61	14.95	52.07	-40.8	-43.5	15.0	0.00e+00	0	56	0	786432000	52	5126
2026-01-05 09:41:16.62	14.53	51.79	-40.7	-43.3	15.2	0.00e+00	0	56	0	788529152	52	5019
2026-01-05 09:41:17.63	14.13	51.51	-40.7	-43.4	15.1	0.00e+00	0	56	0	790626304	52	5063
2026-01-05 09:41:18.63	13.74	51.23	-40.9	-43.7	14.8	0.00e+00	0	56	0	792723456	52	5269
2026-01-05 09:41:19.64	13.35	50.94	-41.0	-43.8	14.7	0.00e+00	0	56	0	793772032	52	5326
2026-01-05 09:41:20.65	12.96	50.66	-41.1	-44.0	14.5	0.00e+00	0	56	0	795869184	52	5423
2026-01-05 09:41:21.66	12.59	50.38	-41.4	-44.6	13.9	2.20e-06	0	56	0	797966336	53	5482
2026-01-05 09:41:22.67	12.22	50.09	-41.5	-44.8	13.7	6.10e-06	0	56	0	800063488	53	5608
2026-01-05 09:41:23.68	11.86	49.81	-41.6	-44.8	13.7	6.80e-06	0	57	0	802160640	53	5630
2026-01-05 09:41:24.69	11.51	49.53	-41.5	-44.7	13.9	3.00e-06	0	56	0	803209216	53	5530
2026-01-05 09:41:25.70	11.16	49.25	-41.4	-44.5	14.0	3.00e-06	0	56	0	805306368	53	5410
2026-01-05 09:41:26.71	10.82	48.97	-41.2	-44.2	14.3	0.00e+00	0	56	0	807403520	53	5271
2026-01-05 09:41:27.72	10.48	48.69	-41.3	-44.3	14.2	1.50e-06	0	56	0	809500672	53	5327
2026-01-05 09:41:28.73	10.15	48.41	-41.4	-44.4	14.1	7.00e-07	0	56	0	811597824	53	5395
2026-01-05 09:41:29.74	9.83	48.13	-41.5	-44.7	13.8	2.20e-06	0	57	0	813694976	53	5532
2026-01-05 09:41:30.75	9.51	47.86	-41.4	-44.6	13.9	3.00e-06	0	56	0	814743552	53	5491
2026-01-05 09:41:31.76	9.20	47.58	-41.3	-44.4	14.1	7.00e-07	0	57	0	816840704	53	5359
2026-01-05 09:41:32.77	8.89	47.31	-41.3	-44.3	14.1	1.50e-06	0	56	0	818937856	53	5337
2026-01-05 09:41:33.78	8.59	47.03	-41.5	-44.7	13.7	1.50e-06	0	56	0	821035008	53	5566
2026-01-05 09:41:34.79	8.29	46.76	-41.4	-44.6	13.8	3.00e-06	0	56	0	823132160	53	5514
2026-01-05 09:41:35.80	8.00	46.48	-41.5	-44.7	13.8	3.80e-06	0	56	0	824180736	53	5532
2026-01-05 09:41:36.81	7.72	46.21	-41.2	-44.1	14.3	2.20e-06	0	57	0	826277888	53	5217
2026-01-05 09:41:37.83	7.44	45.94	-41.3	-44.4	14.1	0.00e+00	0	57	0	828375040	53	5383
2026-01-05 09:41:38.83	7.16	45.67	-41.4	-44.6	13.8	2.20e-06	0	56	0	830472192	53	5477
2026-01-05 09:41:39.85	6.89	45.40	-41.5	-44.8	13.6	1.22e-05	0	56	0	832569344	53	5619
2026-01-05 09:41:40.86	6.62	45.13	-41.6	-44.9	13.6	4.50e-06	0	57	0	833617920	53	5666
2026-01-05 09:41:41.87	6.36	44.87	-41.9	-45.4	13.0	2.21e-05	0	56	0	835715072	54	5678
2026-01-05 09:41:42.88	6.10	44.60	-41.9	-45.5	13.0	2.59e-05	0	56	0	837812224	54	5743
2026-01-05 09:41:43.89	5.85	44.34	-41.9	-45.5	12.9	3.73e-05	0	56	0	839909376	54	5772
2026-01-05 09:41:44.90	5.60	44.08	-41.7	-45.1	13.3	1.90e-05	0	56	0	842006528	54	5473
2026-01-05 09:41:45.91	5.36	43.82	-41.8	-45.2	13.2	1.29e-05	0	56	0	843055104	54	5581
2026-01-05 09:41:46.92	5.12	43.55	-42.0	-45.6	12.8	3.05e-05	0	57	0	845152256	54	5824
2026-01-05 09:41:47.93	4.88	43.30	-42.1	-45.9	12.5	1.33e-04	0	56	0	847249408	54	6053
2026-01-05 09:41:48.94	4.65	43.04	-42.2	-46.0	12.4	1.27e-04	0	56	0	849346560	54	6089
2026-01-05 09:41:49.95	4.42	42.78	-42.3	-46.3	12.1	1.72e-04	0	56	0	851443712	55	5966
2026-01-05 09:41:50.96	4.19	42.53	-42.5	-46.6	11.7	4.19e-04	0	56	0	852492288	55	6165
2026-01-05 09:41:51.97	3.97	42.27	-42.5	-46.7	11.6	7.14e-04	0	56	0	854589440	55	6248
2026-01-05 09:41:52.98	3.75	42.02	-42.3	-46.2	12.1	3.47e-04	0	56	0	856686592	55	5890
2026-01-05 09:41:53.99	3.54	41.77	-42.3	-46.2	12.1	2.72e-04	0	57	0	858783744	55	5909
2026-01-05 09:41:54.99	3.33	41.52	-42.3	-46.2	12.1	2.68e-04	0	56	0	860880896	55	5900
2026-01-05 09:41:56.00	3.12	41.27	-42.5	-46.6	11.7	3.99e-04	0	57	0	861929472	55	6153
2026-01-05 09:41:57.01	2.91	41.02	-42.6	-46.9	11.4	6.08e-04	0	56	0	864026624	55	6387
2026-01-05 09:41:58.03	2.71	40.77	-42.7	-47.2	11.1	1.28e-03	0	57	0	866123776	55	6628
2026-01-05 09:41:59.03	2.51	40.53	-42.8	-47.2	11.3	1.16e-03	0	57	0	868220928	56	6221
2026-01-05 09:42:00.04	2.32	40.28	-42.9	-47.4	11.1	1.37e-03	0	57	0	870318080	56	6380
2026-01-05 09:42:01.05	2.12	40.04	-43.0	-47.6	10.9	2.00e-03	0	57	0	872415232	56	6510
2026-01-05 09:42:02.06	1.93	39.80	-43.1	-47.8	10.7	3.03e-03	0	56	0	873463808	56	6678
2026-01-05 09:42:03.07	1.75	39.56	-42.9	-47.5	10.9	3.33e-03	0	57	0	875560960	56	6459
2026-01-05 09:42:04.08	1.56	39.32	-42.8	-47.3	11.2	1.78e-03	0	56	0	877658112	56	6282
2026-01-05 09:42:05.09	1.38	39.08	-42.5	-46.6	11.9	6.83e-04	0	56	0	879755264	56	5843
2026-01-05 09:42:06.10	1.20	38.85	-42.3	-46.0	12.4	2.37e-04	0	57	0	881852416	56	5436
2026-01-05 09:42:07.11	1.03	38.61	-42.2	-45.9	12.7	1.32e-04	0	56	0	882900992	56	5350
2026-01-05 09:42:08.12	0.85	38.38	-42.2	-45.9	12.7	6.40e-05	0	56	0	884998144	56	5341
2026-01-05 09:42:09.13	0.68	38.15	-42.2	-46.0	12.6	1.31e-04	0	57	0	887095296	56	5427
2026-01-05 09:42:10.14	0.51	37.92	-42.3	-46.1	12.4	1.35e-04	0	56	0	889192448	56	5507
2026-01-05 09:42:11.15	0.35	37.69	-42.2	-45.9	12.6	1.34e-04	0	56	0	891289600	56	5373
2026-01-05 09:42:12.16	0.18	37.46	-42.2	-45.9	12.6	6.94e-05	0	56	0	892338176	56	5384
2026-01-05 09:42:13.17	0.02	37.23	-42.2	-45.9	12.6	9.46e-05	0	56	0	894435328	56	5395
2026-01-05 09:42:14.17	359.86	37.01	-42.0	-45.6	12.9	5.49e-05	0	57	0	896532480	56	5172
2026-01-05 09:42:15.19	359.70	36.78	-42.1	-45.7	12.8	7.93e-05	0	56	0	898629632	56	5237
2026-01-05 09:42:16.19	359.55	36.56	-42.1	-45.7	12.9	4.50e-05	0	56	0	900726784	56	5236
2026-01-05 09:42:17.20	359.40	36.34	-41.8	-45.3	13.0	4.11e-05	0	56	0	901775360	55	5326
2026-01-05 09:42:18.21	359.25	36.12	-41.7	-45.2	13.1	2.82e-05	0	57	0	903872512	55	5259
2026-01-05 09:42:19.22	359.10	35.90	-41.6	-44.9	13.4	2.67e-05	0	57	0	905969664	55	5077
2026-01-05 09:42:20.23	358.95	35.68	-41.6	-44.9	13.4	1.14e-05	0	56	0	908066816	55	5096
2026-01-05 09:42:21.24	358.81	35.46	-41.6	-45.0	13.3	1.44e-05	0	56	0	910163968	55	5140
2026-01-05 09:42:22.25	358.67	35.25	-41.7	-45.1	13.3	1.60e-05	0	56	0	911212544	55	5170
2026-01-05 09:42:23.26	358.52	35.03	-41.7	-45.1	13.2	1.83e-05	0	56	0	913309696	55	5205
2026-01-05 09:42:24.27	358.39	34.82	-41.6	-45.0	13.3	1.29e-05	0	56	0	915406848	55	5121
2026-01-05 09:42:25.28	358.25	34.61	-41.7	-45.1	13.2	6.80e-06	0	56	0	917504000	55	5192
2026-01-05 09:42:26.29	358.11	34.40	-41.6	-45.0	13.3	1.29e-05	0	57	0	919601152	55	5114
2026-01-05 09:42:27.30	357.98	34.19	-41.6	-45.0	13.3	1.29e-05	0	57	0	920649728	55	5143
2026-01-05 09:42:28.31	357.85	33.98	-41.8	-45.2	13.1	2.44e-05	0	57	0	922746880	55	5278
2026-01-05 09:42:29.32	357.72	33.77	-41.9	-45.6	12.7	5.64e-05	0	57	0	924844032	55	5496
2026-01-05 09:42:30.33	357.59	33.57	-42.1	-45.9	12.4	1.11e-04	0	57	0	926941184	55	5678
2026-01-05 09:42:31.34	357.46	33.36	-42.1	-46.0	12.2	1.65e-04	0	57	0	929038336	55	5761
2026-01-05 09:42:32.35	357.34	33.16	-42.2	-46.2	12.0	2.62e-04	0	56	0	930086912	55	5903
2026-01-05 09:42:33.36	357.22	32.96	-42.3	-46.5	11.8	4.48e-04	0	56	0	932184064	55	6083
2026-01-05 09:42:34.37	357.09	32.76	-42.4	-46.5	11.7	5.37e-04	0	56	0	934281216	55	6127
2026-01-05 09:42:35.38	356.97	32.56	-42.5	-46.8	11.4	7.13e-04	0	56	0	936378368	55	6302
2026-01-05 09:42:36.38	356.86	32.36	-42.6	-47.0	11.2	1.13e-03	0	57	0	938475520	55	6460
2026-01-05 09:42:37.40	356.74	32.16	-42.6	-47.1	11.1	1.34e-03	0	57	0	940572672	55	6512
2026-01-05 09:42:38.41	356.62	31.96	-42.9	-47.5	10.8	2.05e-03	0	56	0	941621248	56	6492
2026-01-05 09:42:39.42	356.51	31.77	-42.9	-47.5	10.9	2.27e-03	0	57	0	943718400	56	6424
2026-01-05 09:42:40.42	356.39	31.58	-43.0	-47.7	10.7	2.63e-03	0	57	0	945815552	56	6595
2026-01-05 09:42:41.43	356.28	31.38	-42.9	-47.6	10.7	3.32e-03	0	57	0	947912704	56	6567
2026-01-05 09:42:42.44	356.17	31.19	-43.0	-47.9	10.4	3.85e-03	0	57	0	950009856	56	6737
2026-01-05 09:42:43.45	356.06	31.00	-43.0	-47.9	10.5	4.98e-03	0	56	0	951058432	56	6727
2026-01-05 09:42:44.46	355.96	30.81	-43.0	-47.9	10.4	4.66e-03	0	56	0	953155584	56	6754
2026-01-05 09:42:45.47	355.85	30.63	-43.0	-47.8	10.5	4.44e-03	0	56	0	955252736	56	6680
2026-01-05 09:42:46.48	355.74	30.44	-42.9	-47.6	10.7	2.89e-03	0	57	0	957349888	56	6565
2026-01-05 09:42:47.49	355.64	30.25	-42.8	-47.4	10.9	2.17e-03	0	56	0	958398464	56	6363
2026-01-05 09:42:48.50	355.54	30.07	-42.8	-47.2	11.0	2.03e-03	0	57	0	960495616	56	6272
2026-01-05 09:42:49.51	355.44	29.88	-42.7	-47.2	11.1	1.76e-03	0	56	0	962592768	56	6215
2026-01-05 09:42:50.52	355.34	29.70	-42.7	-47.1	11.2	1.44e-03	0	57	0	964689920	56	6192
2026-01-05 09:42:51.53	355.24	29.52	-42.7	-47.1	11.2	1.37e-03	0	57	0	966787072	56	6158
2026-01-05 09:42:52.54	355.14	29.34	-42.8	-47.3	11.0	1.44e-03	0	57	0	968884224	56	6314
2026-01-05 09:42:53.55	355.04	29.16	-42.7	-47.1	11.1	1.68e-03	0	57	0	969932800	56	6194
2026-01-05 09:42:54.56	354.95	28.98	-42.7	-47.1	11.2	1.51e-03	0	56	0	972029952	56	6188
2026-01-05 09:42:55.57	354.85	28.80	-42.7	-47.1	11.1	1.58e-03	0	57	0	974127104	56	6154
2026-01-05 09:42:56.58	354.76	28.63	-42.6	-47.0	11.3	1.16e-03	0	57	0	976224256	56	6071
2026-01-05 09:42:57.59	354.67	28.45	-42.6	-47.0	11.3	1.05e-03	0	57	0	978321408	56	6102
2026-01-05 09:42:58.59	354.58	28.28	-42.6	-47.0	11.3	1.27e-03	0	57	0	979369984	56	6111
2026-01-05 09:42:59.60	354.49	28.11	-42.6	-46.9	11.4	1.08e-03	0	56	0	981467136	56	5998
2026-01-05 09:43:00.61	354.40	27.93	-42.6	-47.0	11.2	1.18e-03	0	57	0	983564288	56	6114
2026-01-05 09:43:01.63	354.31	27.76	-42.7	-47.2	11.1	1.46e-03	0	56	0	985661440	56	6212
2026-01-05 09:43:02.63	354.22	27.59	-42.7	-47.3	11.0	1.66e-03	0	57	0	987758592	56	6286
2026-01-05 09:43:03.64	354.13	27.42	-42.6	-47.0	11.2	1.32e-03	0	57	0	988807168	56	6122
2026-01-05 09:43:04.65	354.05	27.25	-42.6	-47.2	11.1	1.53e-03	0	57	0	990904320	56	6206
2026-01-05 09:43:05.66	353.96	27.09	-42.5	-46.9	11.3	1.61e-03	0	57	0	993001472	56	6040
2026-01-05 09:43:06.67	353.88	26.92	-42.5	-46.8	11.4	1.01e-03	0	57	0	995098624	56	5945
2026-01-05 09:43:07.68	353.80	26.75	-42.4	-46.6	11.6	8.88e-04	0	57	0	997195776	56	5832
2026-01-05 09:43:08.69	353.72	26.59	-42.3	-46.5	11.7	6.22e-04	0	57	0	998244352	56	5725
2026-01-05 09:43:09.70	353.64	26.43	-42.3	-46.3	11.9	4.87e-04	0	57	0	1000341504	56	5643
2026-01-05 09:43:10.71	353.56	26.26	-42.2	-46.2	12.0	3.84e-04	0	57	0	1002438656	56	5570
2026-01-05 09:43:11.72	353.48	26.10	-42.2	-46.2	12.0	3.84e-04	0	57	0	1004535808	56	5568
2026-01-05 09:43:12.73	353.40	25.94	-42.2	-46.1	12.1	2.62e-04	0	57	0	1006632960	56	5500
2026-01-05 09:43:13.74	353.32	25.78	-42.2	-46.2	12.0	3.06e-04	0	56	0	1007681536	56	5554
2026-01-05 09:43:14.75	353.24	25.62	-42.0	-45.9	12.3	3.02e-04	0	56	0	1009778688	56	5378
2026-01-05 09:43:15.76	353.17	25.46	-41.7	-45.4	12.7	8.46e-05	0	57	0	1011875840	55	5354
2026-01-05 09:43:16.77	353.09	25.30	-41.5	-45.0	13.0	5.18e-05	0	57	0	1013972992	55	5112
2026-01-05 09:43:17.78	353.02	25.15	-41.4	-44.8	13.2	1.98e-05	0	57	0	1016070144	54	5319
2026-01-05 09:43:18.79	352.94	24.99	-41.4	-44.8	13.2	2.13e-05	0	57	0	1017118720	54	5319
2026-01-05 09:43:19.80	352.87	24.84	-41.3	-44.8	13.2	2.44e-05	0	57	0	1019215872	54	5297
2026-01-05 09:43:20.80	352.80	24.69	-41.3	-44.7	13.3	3.43e-05	0	57	0	1021313024	54	5256
2026-01-05 09:43:21.82	352.73	24.53	-41.2	-44.5	13.5	1.98e-05	0	57	0	1023410176	54	5132
2026-01-05 09:43:22.83	352.66	24.38	-41.2	-44.6	13.4	9.10e-06	0	57	0	1025507328	54	5190
2026-01-05 09:43:23.84	352.59	24.23	-41.2	-44.6	13.4	1.75e-05	0	57	0	1026555904	54	5190
2026-01-05 09:43:24.85	352.52	24.08	-41.2	-44.6	13.4	8.30e-06	0	57	0	1028653056	54	5172
2026-01-05 09:43:25.86	352.45	23.93	-41.2	-44.6	13.3	1.22e-05	0	57	0	1030750208	54	5204
2026-01-05 09:43:26.87	352.38	23.78	-41.1	-44.5	13.4	2.36e-05	0	56	0	1032847360	54	5119
2026-01-05 09:43:27.87	352.32	23.63	-40.9	-44.2	13.6	6.10e-06	0	56	0	1034944512	53	5252
2026-01-05 09:43:28.88	352.25	23.48	-41.0	-44.3	13.4	1.14e-05	0	57	0	1037041664	53	5319
2026-01-05 09:43:29.89	352.18	23.34	-41.0	-44.4	13.2	1.52e-05	0	57	0	1038090240	53	5383
2026-01-05 09:43:30.90	352.12	23.19	-40.7	-43.9	13.6	2.51e-05	0	57	0	1040187392	53	5099
2026-01-05 09:43:31.91	352.05	23.05	-40.5	-43.7	13.8	4.50e-06	0	57	0	1042284544	53	4945
2026-01-05 09:43:32.92	351.99	22.90	-40.6	-43.9	13.6	0.00e+00	0	57	0	1044381696	53	5072
2026-01-05 09:43:33.93	351.93	22.76	-40.6	-44.0	13.3	1.14e-05	0	57	0	1046478848	53	5143
2026-01-05 09:43:34.94	351.86	22.62	-40.6	-44.1	13.2	1.83e-05	0	57	0	1047527424	53	5163
2026-01-05 09:43:35.95	351.80	22.47	-40.5	-43.9	13.4	1.90e-05	0	56	0	1049624576	53	5069
2026-01-05 09:43:36.96	351.74	22.33	-40.4	-43.8	13.4	6.10e-06	0	57	0	1051721728	52	5326
2026-01-05 09:43:37.97	351.68	22.19	-40.3	-43.6	13.5	1.52e-05	0	57	0	1053818880	52	5167
2026-01-05 09:43:38.98	351.62	22.05	-40.0	-43.3	13.8	5.30e-06	0	57	0	1055916032	52	4989
2026-01-05 09:43:39.99	351.56	21.91	-40.1	-43.4	13.7	3.00e-06	0	57	0	1056964608	51	5349
2026-01-05 09:43:41.00	351.50	21.78	-39.9	-43.1	13.8	3.00e-06	0	57	0	1059061760	51	5174
2026-01-05 09:43:42.01	351.44	21.64	-40.0	-43.4	13.3	1.67e-05	0	57	0	1061158912	51	5396
2026-01-05 09:43:43.02	351.38	21.50	-40.2	-43.9	12.7	5.34e-05	0	57	0	1063256064	51	5658
2026-01-05 09:43:44.02	351.33	21.37	-40.5	-44.7	11.6	2.39e-04	0	57	0	1065353216	51	6236
2026-01-05 09:43:45.03	351.27	21.23	-40.7	-45.7	10.2	3.79e-03	0	57	0	1066401792	52	6580
2026-01-05 09:43:46.04	351.21	21.10	-40.9	-46.8	8.8	1.73e-02	0	57	0	1068498944	52	7484
2026-01-05 09:43:47.05	351.16	20.96	-41.0	-48.2	7.1	6.73e-02	0	57	0	1070596096	52	8770
2026-01-05 09:43:48.06	351.10	20.83	-41.1	-49.4	5.9	3.11e-01	0	57	0	1072693248	52	10130
2026-01-05 09:43:49.07	351.05	20.70	-41.1	-50.7	4.9	6.26e-01	0	57	0	1074790400	52	11815
2026-01-05 09:43:50.08	350.99	20.57	-41.0	-51.9	4.3	1.05e+00	39	57	0	1075838976	52	13471
2026-01-05 09:43:51.09	350.94	20.43	-40.9	-53.1	3.9	1.48e+00	0	57	104	1075838976	52	15537
2026-01-05 09:43:52.10	350.88	20.30	-40.8	-53.7	3.8	1.49e+00	0	57	104	1075838976	52	16637
2026-01-05 09:43:53.11	350.83	20.17	-40.7	-54.2	3.8	1.49e+00	0	57	104	1075838976	52	17620
2026-01-05 09:43:54.12	350.78	20.04	-40.7	-54.5	3.8	1.49e+00	0	57	104	1075838976	52	18124
2026-01-05 09:43:55.13	350.73	19.91	-40.6	-54.7	3.8	1.49e+00	0	57	104	1075838976	52	18589
2026-01-05 09:43:56.14	350.68	19.79	-40.6	-54.8	3.8	1.49e+00	0	57	104	1075838976	52	18845
2026-01-05 09:43:57.16	350.62	19.66	-40.8	-54.9	3.8	1.49e+00	0	57	104	1075838976	52	18980
2026-01-05 09:43:58.17	350.57	19.53	-40.5	-55.1	3.8	1.49e+00	0	57	104	1075838976	52	19437
2026-01-05 09:43:59.18	350.52	19.41	-40.6	-55.0	3.8	1.49e+00	0	57	104	1075838976	52	19346
2026-01-05 09:44:00.19	350.47	19.28	-40.5	-55.0	3.8	1.49e+00	0	57	104	1075838976	52	19317
2026-01-05 09:44:01.20	350.42	19.15	-40.6	-55.1	3.8	1.49e+00	0	57	104	1075838976	52	19418
2026-01-05 09:44:02.21	350.37	19.03	-40.5	-55.0	3.8	1.49e+00	0	57	104	1075838976	52	19321
2026-01-05 09:44:03.22	350.33	18.91	-40.7	-55.2	3.8	1.49e+00	0	57	104	1075838976	52	19706
2026-01-05 09:44:04.23	350.28	18.78	-40.6	-55.0	3.8	1.49e+00	0	57	104	1075838976	52	19364
2026-01-05 09:44:05.24	350.23	18.66	-40.7	-55.3	3.8	1.49e+00	0	57	104	1075838976	52	20033
2026-01-05 09:44:06.25	350.18	18.54	-40.5	-55.0	3.8	1.49e+00	0	57	104	1075838976	52	19305
2026-01-05 09:44:07.26	350.14	18.42	-40.5	-55.0	3.8	1.49e+00	0	57	104	1075838976	52	19353
2026-01-05 09:44:08.27	350.09	18.30	-40.7	-55.3	3.8	1.49e+00	0	57	104	1075838976	52	20045
2026-01-05 09:44:09.28	350.04	18.18	-40.5	-55.1	3.8	1.49e+00	0	57	104	1075838976	52	19472
2026-01-05 09:44:10.29	350.00	18.06	-40.6	-55.5	3.8	1.49e+00	0	57	104	1075838976	52	20466
2026-01-05 09:44:11.30	349.95	17.94	-40.7	-55.4	3.8	1.49e+00	0	57	104	1075838976	52	20112
2026-01-05 09:44:12.30	349.91	17.82	-40.6	-55.1	3.8	1.49e+00	0	57	104	1075838976	52	19613
2026-01-05 09:44:13.31	349.86	17.70	-40.7	-55.4	3.8	1.49e+00	0	57	104	1075838976	52	20075
2026-01-05 09:44:14.32	349.82	17.58	-40.6	-55.1	3.8	1.49e+00	0	57	104	1075838976	52	19586
2026-01-05 09:44:15.34	349.78	17.47	-40.8	-55.4	3.8	1.49e+00	0	57	104	1075838976	52	20200
2026-01-05 09:44:16.35	349.73	17.35	-40.6	-55.4	3.8	1.49e+00	0	57	104	1075838976	52	20094
2026-01-05 09:44:17.36	349.69	17.23	-40.9	-55.5	3.8	1.49e+00	0	57	104	1075838976	52	20425
2026-01-05 09:44:18.37	349.65	17.12	-40.6	-55.2	3.8	1.49e+00	0	57	104	1075838976	52	19625
2026-01-05 09:44:19.37	349.61	17.00	-40.8	-55.3	3.8	1.49e+00	0	57	104	1075838976	52	19990
2026-01-05 09:44:20.38	349.56	16.89	-40.7	-55.4	3.8	1.49e+00	0	57	104	1075838976	52	20132
2026-01-05 09:44:21.39	349.52	16.78	-40.7	-55.3	3.8	1.49e+00	0	57	104	1075838976	52	20048
2026-01-05 09:44:22.40	349.48	16.66	-40.8	-55.4	3.8	1.49e+00	0	57	104	1075838976	52	20270
2026-01-05 09:44:23.41	349.44	16.55	-40.9	-55.5	3.8	1.49e+00	0	57	104	1075838976	53	19221
2026-01-05 09:44:24.42	349.40	16.44	-40.5	-55.1	3.8	1.49e+00	0	57	104	1075838976	52	19525
2026-01-05 09:44:25.43	349.36	16.33	-40.4	-55.2	3.8	1.49e+00	0	57	104	1075838976	52	19812
2026-01-05 09:44:26.44	349.32	16.22	-40.3	-55.3	3.8	1.49e+00	0	57	104	1075838976	52	19871
2026-01-05 09:44:27.45	349.28	16.10	-40.3	-55.3	3.8	1.49e+00	0	57	104	1075838976	52	19998
2026-01-05 09:44:28.46	349.24	15.99	-40.3	-55.3	3.8	1.49e+00	0	57	104	1075838976	52	19973
2026-01-05 09:44:29.47	349.20	15.88	-40.2	-55.4	3.8	1.49e+00	0	57	104	1075838976	52	20195
2026-01-05 09:44:30.48	349.16	15.78	-41.0	-55.7	3.8	1.49e+00	0	57	104	1075838976	53	19794
2026-01-05 09:44:31.50	349.12	15.67	-40.6	-55.4	3.8	1.49e+00	0	57	104	1075838976	52	20234
2026-01-05 09:44:32.51	349.09	15.56	-40.3	-55.3	3.8	1.49e+00	0	57	104	1075838976	52	19919
2026-01-05 09:44:33.52	349.05	15.45	-40.3	-55.4	3.8	1.49e+00	0	57	104	1075838976	52	20154
2026-01-05 09:44:34.53	349.01	15.34	-40.4	-55.4	3.8	1.49e+00	0	57	104	1075838976	52	20206
2026-01-05 09:44:35.54	348.97	15.23	-40.6	-55.4	3.8	1.49e+00	0	57	104	1075838976	52	20226
2026-01-05 09:44:36.55	348.94	15.13	-40.5	-55.5	3.8	1.49e+00	0	57	104	1075838976	52	20376
2026-01-05 09:44:37.56	348.90	15.02	-41.0	-55.6	3.8	1.49e+00	0	57	104	1075838976	52	20691
2026-01-05 09:44:38.57	348.86	14.92	-41.2	-55.8	3.8	1.49e+00	0	57	104	1075838976	52	21051
