passes_logs/2026/01/05/R2.0S_Moscow/R2.0S_Moscow__20260105_102258_NOAA_21_JPSS-2_rec.log

#Pass ID: 20260105_102258_NOAA 21 (JPSS-2)
#Satellite: NOAA 21 (JPSS-2)
#Configuration: NOAA-21
#almurnet v.1.7.20251203
#Start time: 2026-01-05 10:27:13

#Version: 2.2.20231116
#Station: R2.0S_Moscow
#Location: 37.707566 lon 55.798166 lat
#TLE: 1 54234U 22150A   26004.22845673  .00000174  00000+0  10347-3 0  9996
#TLE: 2 54234  98.7489 305.2591 0001115 345.0884  15.0259 14.19531906163281

#Time	Az	El	Level	Level2	SNR	BER	BlckErr	Temp	State	Recorded	gain1	gain2
2026-01-05 10:27:13.53	186.87	26.91	-44.9	-56.8	3.8	8.47e-01	0	57	0	0	60	14906
2026-01-05 10:27:14.54	186.98	27.07	-45.1	-57.6	3.8	1.49e+00	0	57	104	0	61	15537
2026-01-05 10:27:15.55	187.10	27.23	-45.1	-57.7	3.8	1.49e+00	0	57	104	0	61	15594
2026-01-05 10:27:16.56	187.21	27.40	-45.1	-57.6	3.8	1.49e+00	0	57	104	0	61	15571
2026-01-05 10:27:17.57	187.32	27.56	-45.1	-57.6	3.8	1.49e+00	0	57	104	0	61	15554
2026-01-05 10:27:18.58	187.44	27.73	-45.1	-57.6	3.8	1.49e+00	0	57	104	0	61	15461
2026-01-05 10:27:19.59	187.56	27.90	-45.1	-57.5	3.8	1.49e+00	0	57	104	0	61	15332
2026-01-05 10:27:20.60	187.68	28.07	-45.0	-57.5	3.8	1.49e+00	0	57	104	0	61	15302
2026-01-05 10:27:21.62	187.80	28.24	-45.0	-57.5	3.8	1.49e+00	0	57	104	0	61	15257
2026-01-05 10:27:22.63	187.92	28.41	-45.0	-57.4	3.8	1.49e+00	0	57	104	0	61	15204
2026-01-05 10:27:23.64	188.04	28.58	-45.0	-57.5	3.8	1.49e+00	0	57	104	0	61	15252
2026-01-05 10:27:24.65	188.16	28.75	-45.0	-57.4	3.8	1.49e+00	0	57	104	0	61	15180
2026-01-05 10:27:25.66	188.29	28.92	-45.0	-57.4	3.8	1.49e+00	0	57	104	0	61	15165
2026-01-05 10:27:26.67	188.41	29.10	-45.0	-57.5	3.8	1.49e+00	0	57	104	0	61	15296
2026-01-05 10:27:27.68	188.54	29.27	-45.0	-57.5	3.8	1.49e+00	0	57	104	0	61	15320
2026-01-05 10:27:28.69	188.67	29.45	-45.0	-57.5	3.8	1.49e+00	0	57	104	0	61	15272
2026-01-05 10:27:29.70	188.80	29.62	-45.0	-57.5	3.8	1.49e+00	0	57	104	0	61	15321
2026-01-05 10:27:30.71	188.93	29.80	-45.0	-57.5	3.8	1.49e+00	0	57	104	0	61	15254
2026-01-05 10:27:31.72	189.06	29.98	-45.0	-57.5	3.8	1.49e+00	0	57	104	0	61	15275
2026-01-05 10:27:32.74	189.20	30.16	-45.0	-57.5	3.8	1.49e+00	0	57	104	0	61	15253
2026-01-05 10:27:33.75	189.34	30.34	-45.0	-57.5	3.8	1.49e+00	0	57	104	0	61	15288
2026-01-05 10:27:34.76	189.47	30.52	-45.0	-57.5	3.8	1.49e+00	0	57	104	0	61	15285
2026-01-05 10:27:35.77	189.61	30.70	-45.0	-57.5	3.8	1.49e+00	0	57	104	0	61	15268
2026-01-05 10:27:36.78	189.75	30.89	-45.0	-57.4	3.8	1.49e+00	0	57	104	0	61	15222
2026-01-05 10:27:37.79	189.89	31.07	-45.0	-57.4	3.8	1.49e+00	0	57	104	0	61	15109
2026-01-05 10:27:38.80	190.04	31.26	-45.0	-57.3	3.8	1.49e+00	0	57	104	0	61	15051
2026-01-05 10:27:39.81	190.18	31.44	-45.0	-57.3	3.8	1.49e+00	0	57	104	0	61	14967
2026-01-05 10:27:40.82	190.33	31.63	-45.0	-57.3	3.8	1.49e+00	0	57	104	0	61	14983
2026-01-05 10:27:41.84	190.48	31.82	-45.0	-57.3	3.8	1.49e+00	0	57	104	0	61	15003
2026-01-05 10:27:42.85	190.63	32.01	-44.9	-57.3	3.8	1.49e+00	0	57	104	0	61	14897
2026-01-05 10:27:43.86	190.78	32.20	-44.9	-57.2	3.8	1.49e+00	0	57	104	0	61	14717
2026-01-05 10:27:44.87	190.93	32.39	-44.9	-57.1	3.8	1.49e+00	0	57	104	0	61	14657
2026-01-05 10:27:45.88	191.09	32.58	-44.9	-57.1	3.8	1.49e+00	0	57	104	0	61	14624
2026-01-05 10:27:46.89	191.25	32.78	-44.9	-57.2	3.8	1.49e+00	0	57	104	0	61	14824
2026-01-05 10:27:47.90	191.41	32.97	-44.9	-57.4	3.8	1.49e+00	0	57	104	0	61	15066
2026-01-05 10:27:48.91	191.57	33.17	-44.9	-57.4	3.8	1.49e+00	0	57	104	0	61	15192
2026-01-05 10:27:49.92	191.73	33.36	-44.9	-57.4	3.8	1.49e+00	0	57	104	0	61	15062
2026-01-05 10:27:50.94	191.90	33.56	-44.9	-57.1	3.8	1.49e+00	0	57	104	0	61	14707
2026-01-05 10:27:51.95	192.06	33.76	-44.9	-56.8	3.8	1.49e+00	0	57	104	0	61	14048
2026-01-05 10:27:52.96	192.23	33.96	-44.8	-56.4	3.8	1.49e+00	0	57	104	0	61	13458
2026-01-05 10:27:53.97	192.40	34.16	-44.8	-56.0	3.8	1.49e+00	0	57	104	0	61	12936
2026-01-05 10:27:54.98	192.57	34.36	-44.8	-55.9	3.8	1.49e+00	0	57	104	0	61	12755
2026-01-05 10:27:55.99	192.75	34.56	-44.8	-56.2	3.8	1.49e+00	0	57	104	0	61	13167
2026-01-05 10:27:57.00	192.93	34.77	-44.8	-56.4	3.8	1.49e+00	0	57	104	0	61	13443
2026-01-05 10:27:58.01	193.11	34.97	-44.8	-56.4	3.8	1.49e+00	0	57	104	0	61	13427
2026-01-05 10:27:59.02	193.29	35.18	-44.8	-56.2	3.8	1.49e+00	0	57	104	0	61	13229
2026-01-05 10:28:00.04	193.47	35.39	-44.8	-56.1	3.8	1.49e+00	0	57	104	0	61	13025
2026-01-05 10:28:01.05	193.66	35.59	-44.8	-55.8	3.8	1.49e+00	0	57	104	0	61	12556
2026-01-05 10:28:02.06	193.85	35.80	-44.6	-54.1	3.9	1.47e+00	0	57	104	0	61	10323
2026-01-05 10:28:03.07	194.04	36.01	-44.1	-51.0	5.5	7.16e-01	0	57	0	0	60	7692
2026-01-05 10:28:04.08	194.23	36.22	-43.2	-48.1	8.0	1.29e-01	0	57	0	3145728	58	6140
2026-01-05 10:28:05.09	194.43	36.44	-42.1	-45.6	10.5	8.47e-03	0	57	0	6291456	56	5177
2026-01-05 10:28:06.10	194.62	36.65	-40.8	-43.5	12.5	2.72e-04	0	57	0	9437184	53	4826
2026-01-05 10:28:07.11	194.82	36.86	-40.0	-42.2	13.9	4.50e-06	0	57	0	12582912	51	4681
2026-01-05 10:28:08.12	195.03	37.08	-39.5	-41.5	14.6	0.00e+00	0	57	0	15728640	50	4571
2026-01-05 10:28:09.13	195.23	37.29	-44.9	-56.7	3.8	1.49e+00	0	57	104	17825792	60	14722
2026-01-05 10:28:10.15	195.44	37.51	-42.0	-45.4	10.6	2.18e-02	0	57	0	17825792	56	5086
2026-01-05 10:28:11.16	195.65	37.73	-43.0	-47.4	8.7	5.94e-03	0	57	0	20971520	56	6411
2026-01-05 10:28:12.17	195.87	37.95	-44.1	-51.3	4.2	7.59e-01	0	57	104	24117248	59	8421
2026-01-05 10:28:13.18	196.09	38.17	-41.3	-44.2	11.8	4.44e-04	0	57	0	25165824	53	5259
2026-01-05 10:28:14.19	196.30	38.39	-39.8	-41.9	14.2	9.10e-06	0	57	0	28311552	51	4531
2026-01-05 10:28:15.20	196.53	38.61	-39.4	-41.4	14.7	0.00e+00	0	57	0	31457280	50	4523
2026-01-05 10:28:16.21	196.75	38.83	-39.1	-41.0	15.2	0.00e+00	0	57	0	34603008	50	4301
2026-01-05 10:28:17.21	196.98	39.05	-38.7	-40.6	15.6	0.00e+00	0	57	0	37748736	49	4343
2026-01-05 10:28:18.22	197.21	39.28	-38.7	-40.5	15.6	0.00e+00	0	57	0	40894464	49	4307
2026-01-05 10:28:19.23	197.45	39.50	-38.6	-40.3	15.8	0.00e+00	0	57	0	44040192	49	4228
2026-01-05 10:28:20.24	197.68	39.73	-38.5	-40.2	15.9	0.00e+00	0	57	0	47185920	48	4411
2026-01-05 10:28:21.25	197.93	39.96	-38.6	-40.4	15.7	0.00e+00	0	57	0	50331648	48	4501
2026-01-05 10:28:22.26	198.17	40.19	-38.9	-40.7	15.4	0.00e+00	0	57	0	53477376	48	4694
2026-01-05 10:28:23.27	198.42	40.42	-39.1	-41.0	15.1	0.00e+00	0	57	0	56623104	48	4859
2026-01-05 10:28:24.28	198.67	40.65	-39.3	-41.3	14.9	0.00e+00	0	57	0	59768832	49	4722
2026-01-05 10:28:25.29	198.93	40.88	-39.3	-41.3	14.8	0.00e+00	0	57	0	62914560	49	4756
2026-01-05 10:28:26.30	199.19	41.11	-39.2	-41.1	15.1	0.00e+00	0	57	0	66060288	49	4617
2026-01-05 10:28:27.31	199.45	41.34	-39.1	-41.0	15.1	0.00e+00	0	57	0	69206016	49	4577
2026-01-05 10:28:28.32	199.71	41.58	-39.2	-41.1	15.0	0.00e+00	0	57	0	72351744	49	4625
2026-01-05 10:28:29.33	199.98	41.81	-39.3	-41.3	14.8	0.00e+00	0	57	0	75497472	49	4732
2026-01-05 10:28:30.34	200.26	42.04	-39.5	-41.6	14.6	2.20e-06	0	57	0	78643200	49	4897
2026-01-05 10:28:31.35	200.54	42.28	-39.6	-41.8	14.4	1.50e-06	0	57	0	81788928	49	4988
2026-01-05 10:28:32.36	200.82	42.52	-39.9	-42.0	14.1	1.50e-06	0	57	0	84934656	50	4867
2026-01-05 10:28:33.37	201.10	42.75	-40.0	-42.3	13.8	2.20e-06	0	57	0	88080384	50	5016
2026-01-05 10:28:34.38	201.40	42.99	-40.2	-42.5	13.7	5.30e-06	0	57	0	91226112	50	5123
2026-01-05 10:28:35.39	201.69	43.23	-40.2	-42.6	13.6	4.50e-06	0	57	0	94371840	51	4880
2026-01-05 10:28:36.40	201.99	43.47	-40.4	-42.8	13.4	1.06e-05	0	57	0	97517568	51	4995
2026-01-05 10:28:37.41	202.29	43.71	-40.2	-42.6	13.6	1.06e-05	0	57	0	100663296	51	4874
2026-01-05 10:28:38.42	202.60	43.95	-40.1	-42.3	13.8	2.20e-06	0	57	0	103809024	51	4752
2026-01-05 10:28:39.43	202.91	44.19	-40.1	-42.3	13.9	3.80e-06	0	57	0	106954752	51	4733
2026-01-05 10:28:40.44	203.23	44.43	-40.2	-42.5	13.7	3.80e-06	0	57	0	110100480	51	4847
2026-01-05 10:28:41.45	203.55	44.68	-40.3	-42.7	13.5	1.75e-05	0	57	0	113246208	51	4970
2026-01-05 10:28:42.46	203.88	44.92	-40.4	-42.9	13.3	1.67e-05	0	57	0	116391936	51	5070
2026-01-05 10:28:43.47	204.21	45.16	-40.2	-42.5	13.6	7.60e-06	0	57	0	119537664	51	4848
2026-01-05 10:28:44.48	204.55	45.41	-39.8	-41.9	14.2	2.20e-06	0	57	0	122683392	51	4540
2026-01-05 10:28:45.49	204.89	45.65	-39.7	-41.8	14.3	0.00e+00	0	57	0	126877696	51	4475
2026-01-05 10:28:46.49	205.23	45.89	-39.6	-41.7	14.5	0.00e+00	0	57	0	130023424	51	4423
2026-01-05 10:28:47.50	205.59	46.14	-39.3	-41.8	14.3	1.79e-04	0	57	0	132120576	49	5040
2026-01-05 10:28:48.51	205.95	46.38	-39.6	-41.8	14.4	4.50e-06	0	57	0	135266304	49	4992
2026-01-05 10:28:49.53	206.31	46.63	-39.6	-41.7	14.5	2.20e-06	0	57	0	138412032	50	4674
2026-01-05 10:28:50.54	206.68	46.88	-39.4	-41.5	14.7	0.00e+00	0	57	0	142606336	50	4550
2026-01-05 10:28:51.55	207.06	47.12	-39.2	-41.2	15.0	0.00e+00	0	57	0	145752064	50	4412
2026-01-05 10:28:52.56	207.44	47.37	-38.9	-40.8	15.4	0.00e+00	0	57	0	148897792	49	4442
2026-01-05 10:28:53.57	207.83	47.61	-39.0	-40.9	15.3	0.00e+00	0	57	0	152043520	49	4500
2026-01-05 10:28:54.58	208.22	47.86	-39.2	-41.2	15.0	0.00e+00	0	57	0	154140672	49	4674
2026-01-05 10:28:55.59	208.62	48.11	-39.5	-41.6	14.6	7.00e-07	0	57	0	158334976	49	4875
2026-01-05 10:28:56.60	209.02	48.35	-39.6	-41.8	14.4	7.00e-07	0	57	0	161480704	49	4988
2026-01-05 10:28:57.61	209.44	48.60	-39.8	-42.0	14.3	7.00e-07	0	57	0	164626432	50	4817
2026-01-05 10:28:58.62	209.86	48.84	-39.7	-41.8	14.4	1.50e-06	0	57	0	167772160	50	4712
2026-01-05 10:28:59.63	210.28	49.09	-39.6	-41.6	14.6	0.00e+00	0	57	0	170917888	50	4629
2026-01-05 10:29:00.64	210.71	49.33	-39.4	-41.4	14.8	0.00e+00	0	57	0	174063616	50	4539
2026-01-05 10:29:01.65	211.15	49.58	-39.2	-41.1	15.1	0.00e+00	0	57	0	177209344	50	4348
2026-01-05 10:29:02.66	211.60	49.82	-38.9	-40.8	15.4	0.00e+00	0	57	0	180355072	49	4470
2026-01-05 10:29:03.67	212.05	50.06	-38.9	-40.7	15.5	0.00e+00	0	57	0	183500800	49	4407
2026-01-05 10:29:04.68	212.51	50.31	-38.7	-40.5	15.7	0.00e+00	0	57	0	186646528	49	4303
2026-01-05 10:29:05.69	212.98	50.55	-38.7	-40.5	15.7	0.00e+00	0	57	0	189792256	49	4292
2026-01-05 10:29:06.70	213.45	50.79	-38.9	-40.8	15.4	0.00e+00	0	57	0	192937984	49	4466
2026-01-05 10:29:07.71	213.94	51.03	-39.0	-40.8	15.3	0.00e+00	0	57	0	196083712	49	4485
2026-01-05 10:29:08.72	214.43	51.27	-39.0	-40.8	15.4	1.50e-06	0	57	0	199229440	49	4486
2026-01-05 10:29:09.73	214.93	51.51	-39.0	-40.9	15.3	0.00e+00	0	57	0	202375168	49	4504
2026-01-05 10:29:10.74	215.43	51.75	-39.1	-41.1	15.1	7.00e-07	0	57	0	205520896	49	4600
2026-01-05 10:29:11.75	215.95	51.98	-39.0	-40.8	15.4	0.00e+00	0	57	0	208666624	49	4488
2026-01-05 10:29:12.76	216.47	52.22	-38.8	-40.7	15.5	0.00e+00	0	57	0	211812352	49	4401
2026-01-05 10:29:13.77	217.00	52.45	-38.6	-40.4	15.8	0.00e+00	0	57	0	214958080	49	4278
2026-01-05 10:29:14.78	217.54	52.69	-38.6	-40.4	15.8	0.00e+00	0	57	0	218103808	49	4262
2026-01-05 10:29:15.79	218.08	52.92	-38.7	-40.5	15.7	0.00e+00	0	57	0	221249536	49	4292
2026-01-05 10:29:16.80	218.64	53.15	-38.7	-40.5	15.7	0.00e+00	0	57	0	224395264	49	4300
2026-01-05 10:29:17.81	219.21	53.37	-38.6	-40.4	15.7	0.00e+00	0	57	0	227540992	49	4269
2026-01-05 10:29:18.82	219.78	53.60	-38.4	-40.1	16.0	0.00e+00	0	57	0	230686720	48	4381
2026-01-05 10:29:19.83	220.36	53.82	-38.4	-40.1	16.0	0.00e+00	0	57	0	233832448	48	4363
2026-01-05 10:29:20.84	220.95	54.04	-38.3	-40.0	16.1	0.00e+00	0	57	0	236978176	48	4326
2026-01-05 10:29:21.85	221.55	54.26	-38.3	-40.0	16.1	0.00e+00	0	57	0	240123904	48	4337
2026-01-05 10:29:22.86	222.16	54.48	-38.4	-40.2	15.9	0.00e+00	0	56	0	243269632	48	4395
2026-01-05 10:29:23.87	222.78	54.70	-38.3	-40.1	16.1	0.00e+00	0	57	0	246415360	48	4341
2026-01-05 10:29:24.88	223.41	54.91	-38.4	-40.2	16.0	0.00e+00	0	57	0	249561088	48	4393
2026-01-05 10:29:25.89	224.05	55.12	-38.3	-39.9	16.2	0.00e+00	0	57	0	252706816	48	4281
2026-01-05 10:29:26.90	224.69	55.33	-38.2	-39.8	16.3	5.30e-06	0	57	0	255852544	48	4238
2026-01-05 10:29:27.91	225.35	55.53	-38.2	-39.9	16.2	6.25e-05	0	57	0	258998272	47	4502
2026-01-05 10:29:28.92	226.02	55.73	-38.1	-39.7	16.3	0.00e+00	0	57	0	262144000	47	4437
2026-01-05 10:29:29.93	226.69	55.93	-37.9	-39.5	16.5	0.00e+00	0	57	0	265289728	47	4329
2026-01-05 10:29:30.94	227.38	56.13	-38.1	-39.8	16.3	0.00e+00	0	57	0	268435456	47	4457
2026-01-05 10:29:31.95	228.07	56.32	-37.9	-39.5	16.5	0.00e+00	0	57	0	271581184	47	4329
2026-01-05 10:29:32.96	228.77	56.51	-37.4	-38.9	17.2	0.00e+00	0	57	0	274726912	46	4284
2026-01-05 10:29:33.97	229.49	56.70	-37.2	-38.6	17.4	0.00e+00	0	57	0	277872640	46	4142
2026-01-05 10:29:34.98	230.21	56.88	-37.2	-38.7	17.4	0.00e+00	0	56	0	281018368	46	4148
2026-01-05 10:29:35.99	230.94	57.05	-37.3	-38.8	17.2	0.00e+00	0	57	0	284164096	46	4215
2026-01-05 10:29:37.00	231.68	57.23	-37.6	-39.2	16.9	0.00e+00	0	57	0	287309824	46	4398
2026-01-05 10:29:38.01	232.44	57.40	-37.8	-39.4	16.6	2.84e-04	0	57	0	290455552	46	4527
2026-01-05 10:29:39.02	233.20	57.56	-37.8	-39.4	16.7	0.00e+00	0	57	0	293601280	46	4519
2026-01-05 10:29:40.03	233.97	57.73	-37.7	-39.2	16.8	0.00e+00	0	57	0	296747008	46	4441
2026-01-05 10:29:41.04	234.74	57.88	-37.5	-39.1	16.9	0.00e+00	0	57	0	299892736	46	4351
2026-01-05 10:29:42.05	235.53	58.03	-37.6	-39.2	16.7	0.00e+00	0	57	0	303038464	46	4440
2026-01-05 10:29:43.06	236.33	58.18	-37.5	-39.0	17.1	0.00e+00	0	57	0	306184192	46	4320
2026-01-05 10:29:44.07	237.13	58.33	-37.1	-38.6	17.4	0.00e+00	0	56	0	309329920	46	4123
2026-01-05 10:29:45.08	237.94	58.46	-36.9	-38.3	17.8	0.00e+00	0	57	0	312475648	45	4217
2026-01-05 10:29:46.09	238.77	58.60	-36.9	-38.4	17.7	0.00e+00	0	57	0	315621376	45	4257
2026-01-05 10:29:47.10	239.60	58.72	-37.2	-38.7	17.3	0.00e+00	0	57	0	318767104	45	4423
2026-01-05 10:29:48.11	240.43	58.85	-37.1	-38.6	17.4	0.00e+00	0	57	0	321912832	45	4359
2026-01-05 10:29:49.12	241.28	58.96	-37.1	-38.5	17.5	0.00e+00	0	57	0	325058560	45	4329
2026-01-05 10:29:50.13	242.13	59.08	-36.9	-38.3	17.7	0.00e+00	0	57	0	328204288	45	4200
2026-01-05 10:29:51.14	242.99	59.18	-37.1	-38.6	17.4	0.00e+00	0	57	0	331350016	45	4365
2026-01-05 10:29:52.15	243.85	59.28	-37.1	-38.6	17.4	0.00e+00	0	57	0	334495744	45	4374
2026-01-05 10:29:53.16	244.73	59.38	-37.1	-38.6	17.5	0.00e+00	0	57	0	337641472	45	4344
2026-01-05 10:29:54.17	245.61	59.46	-37.0	-38.5	17.5	0.00e+00	0	57	0	340787200	45	4303
2026-01-05 10:29:55.18	246.49	59.55	-37.1	-38.6	17.5	0.00e+00	0	57	0	343932928	45	4345
2026-01-05 10:29:56.19	247.38	59.62	-37.1	-38.6	17.5	0.00e+00	0	57	0	347078656	45	4343
2026-01-05 10:29:57.20	248.27	59.69	-36.9	-38.4	17.6	0.00e+00	0	57	0	350224384	45	4262
2026-01-05 10:29:58.21	249.17	59.76	-37.3	-38.8	17.3	0.00e+00	0	57	0	353370112	45	4464
2026-01-05 10:29:59.22	250.08	59.82	-37.4	-38.9	17.1	0.00e+00	0	57	0	356515840	45	4539
2026-01-05 10:30:00.23	250.98	59.87	-37.3	-38.9	17.2	0.00e+00	0	57	0	359661568	45	4505
2026-01-05 10:30:01.24	251.89	59.91	-37.3	-38.9	17.2	0.00e+00	0	56	0	362807296	45	4504
2026-01-05 10:30:02.24	252.80	59.95	-37.2	-38.7	17.4	0.00e+00	0	56	0	365953024	45	4407
2026-01-05 10:30:03.25	253.71	59.98	-37.2	-38.7	17.4	0.00e+00	0	57	0	369098752	45	4407
2026-01-05 10:30:04.27	254.64	60.01	-37.1	-38.6	17.5	0.00e+00	0	57	0	372244480	45	4350
2026-01-05 10:30:05.27	255.55	60.03	-37.1	-38.5	17.5	0.00e+00	0	57	0	375390208	45	4328
2026-01-05 10:30:06.29	256.48	60.04	-37.0	-38.4	17.6	0.00e+00	0	57	0	378535936	45	4272
2026-01-05 10:30:07.30	257.40	60.05	-36.8	-38.2	17.8	0.00e+00	0	57	0	381681664	45	4193
2026-01-05 10:30:08.31	258.32	60.05	-36.7	-38.2	17.8	0.00e+00	0	57	0	384827392	45	4147
2026-01-05 10:30:09.32	259.24	60.04	-36.8	-38.2	17.8	0.00e+00	0	57	0	387973120	45	4184
2026-01-05 10:30:10.33	260.17	60.03	-37.3	-38.8	17.3	0.00e+00	0	57	0	391118848	45	4490
2026-01-05 10:30:11.34	261.08	60.01	-37.0	-38.5	17.6	0.00e+00	0	57	0	394264576	45	4300
2026-01-05 10:30:12.35	262.00	59.98	-36.6	-37.9	18.1	0.00e+00	0	57	0	397410304	45	4050
2026-01-05 10:30:13.36	262.92	59.95	-36.6	-37.9	18.0	0.00e+00	0	57	0	400556032	45	4046
2026-01-05 10:30:14.37	263.83	59.91	-36.5	-37.9	18.1	0.00e+00	0	57	0	403701760	44	4269
2026-01-05 10:30:15.38	264.74	59.86	-36.5	-37.9	18.1	0.00e+00	0	57	0	406847488	44	4268
2026-01-05 10:30:16.39	265.65	59.81	-36.4	-37.7	18.2	0.00e+00	0	57	0	409993216	44	4191
2026-01-05 10:30:17.40	266.55	59.75	-36.6	-37.9	17.9	0.00e+00	0	57	0	413138944	44	4290
2026-01-05 10:30:18.41	267.45	59.69	-36.9	-38.4	17.6	0.00e+00	0	57	0	416284672	44	4518
2026-01-05 10:30:19.42	268.34	59.62	-36.8	-38.2	17.8	0.00e+00	0	57	0	419430400	44	4419
2026-01-05 10:30:20.43	269.23	59.54	-36.6	-38.0	18.0	0.00e+00	0	57	0	422576128	44	4317
2026-01-05 10:30:21.44	270.11	59.45	-37.1	-38.6	17.5	0.00e+00	0	57	0	425721856	44	4609
2026-01-05 10:30:22.46	271.00	59.36	-37.5	-39.1	17.0	0.00e+00	0	57	0	428867584	45	4614
2026-01-05 10:30:23.46	271.86	59.27	-37.5	-39.1	17.0	0.00e+00	0	57	0	432013312	45	4606
2026-01-05 10:30:24.47	272.72	59.17	-37.6	-39.1	16.9	0.00e+00	0	57	0	435159040	45	4636
2026-01-05 10:30:25.48	273.58	59.06	-37.4	-38.9	17.1	0.00e+00	0	57	0	439353344	45	4535
2026-01-05 10:30:26.49	274.43	58.95	-37.3	-38.8	17.3	0.00e+00	0	57	0	442499072	45	4469
2026-01-05 10:30:27.50	275.27	58.83	-36.9	-38.4	17.6	0.00e+00	0	57	0	445644800	45	4257
2026-01-05 10:30:28.52	276.12	58.71	-36.8	-38.3	17.8	0.00e+00	0	57	0	447741952	45	4194
2026-01-05 10:30:29.53	276.94	58.58	-37.0	-38.5	17.5	0.00e+00	0	57	0	450887680	45	4313
2026-01-05 10:30:30.54	277.76	58.45	-37.1	-38.6	17.3	0.00e+00	0	57	0	455081984	45	4375
2026-01-05 10:30:31.55	278.57	58.31	-37.2	-38.7	17.3	0.00e+00	0	56	0	458227712	45	4412
2026-01-05 10:30:32.56	279.38	58.17	-37.1	-38.6	17.4	0.00e+00	0	57	0	461373440	45	4365
2026-01-05 10:30:33.57	280.17	58.02	-37.2	-38.7	17.3	0.00e+00	0	57	0	464519168	45	4429
2026-01-05 10:30:34.58	280.96	57.87	-37.3	-38.8	17.2	0.00e+00	0	57	0	467664896	45	4484
2026-01-05 10:30:35.59	281.73	57.71	-37.5	-39.0	16.9	0.00e+00	0	57	0	470810624	45	4588
2026-01-05 10:30:36.60	282.50	57.55	-37.9	-39.6	16.5	0.00e+00	0	57	0	473956352	46	4611
2026-01-05 10:30:37.61	283.26	57.38	-38.1	-39.8	16.3	0.00e+00	0	57	0	477102080	46	4728
2026-01-05 10:30:38.62	284.00	57.21	-38.0	-39.6	16.5	0.00e+00	0	57	0	480247808	46	4646
2026-01-05 10:30:39.63	284.74	57.04	-37.6	-39.1	16.8	0.00e+00	0	57	0	483393536	46	4369
2026-01-05 10:30:40.64	285.47	56.86	-37.6	-39.1	16.7	0.00e+00	0	56	0	486539264	46	4383
2026-01-05 10:30:41.65	286.19	56.68	-37.9	-39.6	16.5	0.00e+00	0	57	0	489684992	46	4605
2026-01-05 10:30:42.66	286.90	56.49	-37.8	-39.5	16.6	0.00e+00	0	57	0	492830720	46	4549
2026-01-05 10:30:43.67	287.61	56.30	-38.0	-39.7	16.4	0.00e+00	0	57	0	495976448	46	4682
2026-01-05 10:30:44.68	288.30	56.11	-38.1	-39.8	16.3	0.00e+00	0	57	0	499122176	46	4729
2026-01-05 10:30:45.69	288.98	55.92	-38.2	-40.0	16.1	0.00e+00	0	57	0	502267904	47	4567
2026-01-05 10:30:46.70	289.65	55.72	-37.7	-39.2	16.8	0.00e+00	0	57	0	505413632	47	4187
2026-01-05 10:30:47.71	290.32	55.52	-37.6	-39.1	16.9	0.00e+00	0	57	0	508559360	46	4382
2026-01-05 10:30:48.72	290.97	55.31	-37.8	-39.4	16.6	0.00e+00	0	57	0	511705088	46	4522
2026-01-05 10:30:49.73	291.61	55.11	-38.3	-40.0	16.1	0.00e+00	0	57	0	514850816	47	4587
2026-01-05 10:30:50.74	292.25	54.90	-38.4	-40.1	15.9	0.00e+00	0	57	0	517996544	47	4643
2026-01-05 10:30:51.75	292.88	54.68	-38.2	-39.9	16.1	0.00e+00	0	57	0	521142272	47	4540
2026-01-05 10:30:52.76	293.49	54.47	-38.5	-40.4	15.7	0.00e+00	0	57	0	524288000	47	4766
2026-01-05 10:30:53.77	294.10	54.25	-38.4	-40.2	15.7	0.00e+00	0	57	0	527433728	47	4702
2026-01-05 10:30:54.78	294.70	54.03	-38.1	-39.8	16.3	0.00e+00	0	57	0	530579456	47	4457
2026-01-05 10:30:55.79	295.29	53.81	-37.7	-39.3	16.8	0.00e+00	0	57	0	533725184	47	4224
2026-01-05 10:30:56.80	295.87	53.59	-37.8	-39.3	16.7	0.00e+00	0	57	0	536870912	47	4235
2026-01-05 10:30:57.81	296.44	53.36	-37.8	-39.4	16.6	0.00e+00	0	57	0	540016640	47	4279
2026-01-05 10:30:58.82	297.00	53.14	-37.9	-39.6	16.5	0.00e+00	0	57	0	543162368	47	4346
2026-01-05 10:30:59.83	297.55	52.91	-38.2	-40.0	16.2	0.00e+00	0	57	0	546308096	47	4550
2026-01-05 10:31:00.84	298.10	52.68	-38.5	-40.4	15.7	0.00e+00	0	57	0	549453824	47	4774
2026-01-05 10:31:01.84	298.63	52.45	-38.9	-40.8	15.5	0.00e+00	0	57	0	552599552	48	4706
2026-01-05 10:31:02.86	299.17	52.21	-38.6	-40.4	15.7	0.00e+00	0	57	0	555745280	48	4532
2026-01-05 10:31:03.87	299.69	51.98	-38.4	-40.1	16.0	0.00e+00	0	57	0	558891008	48	4368
2026-01-05 10:31:04.88	300.20	51.74	-38.5	-40.3	15.7	0.00e+00	0	57	0	562036736	48	4484
2026-01-05 10:31:05.89	300.70	51.51	-38.6	-40.4	15.7	0.00e+00	0	57	0	565182464	48	4544
2026-01-05 10:31:06.90	301.20	51.27	-38.4	-40.1	16.1	0.00e+00	0	57	0	568328192	48	4366
2026-01-05 10:31:07.91	301.69	51.03	-38.4	-40.2	15.9	0.00e+00	0	57	0	571473920	48	4404
2026-01-05 10:31:08.92	302.17	50.79	-38.8	-40.7	15.5	0.00e+00	0	57	0	574619648	48	4686
2026-01-05 10:31:09.93	302.64	50.55	-39.1	-41.0	15.2	0.00e+00	0	57	0	577765376	48	4854
2026-01-05 10:31:10.94	303.11	50.31	-39.2	-41.2	15.0	0.00e+00	0	57	0	580911104	49	4662
2026-01-05 10:31:11.95	303.57	50.07	-39.0	-40.9	15.3	0.00e+00	0	57	0	584056832	49	4512
2026-01-05 10:31:12.96	304.02	49.82	-38.9	-40.7	15.3	0.00e+00	0	57	0	587202560	49	4438
2026-01-05 10:31:13.97	304.46	49.58	-39.0	-40.9	15.3	0.00e+00	0	57	0	590348288	49	4521
2026-01-05 10:31:14.98	304.90	49.34	-38.9	-40.8	15.4	0.00e+00	0	57	0	593494016	49	4450
2026-01-05 10:31:15.99	305.33	49.09	-39.0	-40.9	15.2	0.00e+00	0	57	0	596639744	49	4538
2026-01-05 10:31:17.00	305.75	48.85	-39.2	-41.2	15.1	0.00e+00	0	57	0	599785472	49	4653
2026-01-05 10:31:18.00	306.17	48.61	-39.3	-41.3	14.8	0.00e+00	0	57	0	602931200	49	4743
2026-01-05 10:31:19.01	306.58	48.36	-39.5	-41.5	14.7	7.00e-07	0	57	0	606076928	49	4861
2026-01-05 10:31:20.02	306.98	48.12	-39.6	-41.8	14.5	0.00e+00	0	57	0	609222656	49	4985
2026-01-05 10:31:21.03	307.38	47.88	-40.0	-42.2	14.0	7.00e-07	0	57	0	612368384	50	4949
2026-01-05 10:31:22.04	307.77	47.63	-40.1	-42.4	13.9	3.00e-06	0	57	0	615514112	50	5067
2026-01-05 10:31:23.05	308.16	47.39	-40.0	-42.2	14.1	2.20e-06	0	57	0	618659840	50	4955
2026-01-05 10:31:24.06	308.54	47.14	-39.7	-41.9	14.4	1.50e-06	0	57	0	621805568	50	4766
2026-01-05 10:31:25.07	308.91	46.90	-39.2	-41.1	15.1	0.00e+00	0	57	0	624951296	50	4381
2026-01-05 10:31:26.08	309.28	46.65	-38.8	-40.6	15.6	0.00e+00	0	57	0	628097024	49	4389
2026-01-05 10:31:27.09	309.64	46.41	-39.0	-40.9	15.3	0.00e+00	0	57	0	631242752	49	4506
2026-01-05 10:31:28.10	310.00	46.16	-39.4	-41.4	14.9	0.00e+00	0	57	0	634388480	49	4760
2026-01-05 10:31:29.11	310.35	45.92	-39.5	-41.5	14.7	7.00e-07	0	57	0	637534208	49	4852
2026-01-05 10:31:30.12	310.70	45.68	-39.6	-41.7	14.5	0.00e+00	0	57	0	640679936	49	4959
2026-01-05 10:31:31.13	311.04	45.44	-39.8	-42.0	14.2	0.00e+00	0	57	0	643825664	50	4861
2026-01-05 10:31:32.14	311.37	45.19	-40.0	-42.3	13.9	8.30e-06	0	57	0	646971392	50	5024
2026-01-05 10:31:33.15	311.70	44.95	-39.8	-42.0	14.2	7.00e-07	0	57	0	650117120	50	4841
2026-01-05 10:31:34.16	312.03	44.71	-39.2	-41.1	15.0	0.00e+00	0	57	0	653262848	50	4385
2026-01-05 10:31:35.17	312.35	44.47	-38.8	-40.6	15.5	0.00e+00	0	57	0	656408576	49	4360
2026-01-05 10:31:36.18	312.67	44.23	-38.9	-40.7	15.4	0.00e+00	0	57	0	659554304	49	4429
2026-01-05 10:31:37.19	312.98	43.99	-39.1	-41.0	15.2	0.00e+00	0	57	0	662700032	49	4596
2026-01-05 10:31:38.20	313.29	43.75	-39.2	-41.1	15.0	0.00e+00	0	57	0	665845760	49	4648
2026-01-05 10:31:39.21	313.59	43.51	-39.5	-41.5	14.7	0.00e+00	0	57	0	668991488	49	4836
2026-01-05 10:31:40.22	313.89	43.27	-39.8	-42.0	14.3	1.50e-06	0	57	0	672137216	50	4831
2026-01-05 10:31:41.23	314.18	43.03	-40.2	-42.5	13.7	1.50e-06	0	57	0	675282944	50	5147
2026-01-05 10:31:42.24	314.47	42.80	-40.4	-42.8	13.4	9.10e-06	0	57	0	678428672	51	5014
2026-01-05 10:31:43.25	314.76	42.56	-40.5	-42.9	13.2	1.90e-05	0	56	0	681574400	51	5072
2026-01-05 10:31:44.26	315.04	42.33	-40.4	-42.8	13.3	2.36e-05	0	57	0	684720128	51	4991
2026-01-05 10:31:45.27	315.32	42.09	-40.3	-42.7	13.4	1.44e-05	0	57	0	687865856	51	4932
2026-01-05 10:31:46.28	315.59	41.86	-40.3	-42.7	13.4	1.22e-05	0	57	0	691011584	51	4940
2026-01-05 10:31:47.30	315.86	41.62	-40.3	-42.6	13.6	6.80e-06	0	57	0	694157312	51	4916
2026-01-05 10:31:48.31	316.13	41.39	-39.9	-42.2	14.0	6.10e-06	0	57	0	697303040	51	4664
2026-01-05 10:31:49.32	316.39	41.16	-39.5	-41.6	14.6	0.00e+00	0	57	0	700448768	51	4342
2026-01-05 10:31:50.33	316.65	40.93	-39.4	-41.5	14.7	7.00e-07	0	57	0	703594496	50	4547
2026-01-05 10:31:51.34	316.90	40.70	-39.7	-41.7	14.5	7.00e-07	0	57	0	706740224	50	4703
2026-01-05 10:31:52.35	317.15	40.47	-40.0	-42.3	13.9	4.50e-06	0	57	0	709885952	50	4997
2026-01-05 10:31:53.36	317.40	40.24	-40.2	-42.6	13.6	9.90e-06	0	57	0	713031680	51	4905
2026-01-05 10:31:54.37	317.64	40.01	-40.2	-42.5	13.7	9.90e-06	0	57	0	716177408	51	4865
2026-01-05 10:31:55.38	317.89	39.79	-39.8	-42.0	14.2	7.00e-07	0	57	0	719323136	51	4579
2026-01-05 10:31:56.39	318.12	39.56	-39.5	-41.5	14.7	7.00e-07	0	57	0	722468864	50	4570
2026-01-05 10:31:57.40	318.36	39.34	-39.4	-41.4	14.8	0.00e+00	0	57	0	725614592	50	4539
2026-01-05 10:31:58.41	318.59	39.12	-39.0	-40.9	15.3	7.00e-07	0	57	0	728760320	50	4275
2026-01-05 10:31:59.42	318.82	38.89	-38.8	-40.7	15.5	0.00e+00	0	57	0	731906048	49	4405
2026-01-05 10:32:00.43	319.04	38.67	-38.8	-40.6	15.6	0.00e+00	0	57	0	736100352	49	4351
2026-01-05 10:32:01.44	319.26	38.45	-38.9	-40.7	15.5	0.00e+00	0	57	0	738197504	49	4418
2026-01-05 10:32:02.45	319.48	38.23	-38.9	-40.8	15.4	0.00e+00	0	57	0	741343232	49	4449
2026-01-05 10:32:03.46	319.70	38.01	-38.8	-40.6	15.6	0.00e+00	0	57	0	744488960	49	4360
2026-01-05 10:32:04.48	319.92	37.79	-38.8	-40.7	15.5	0.00e+00	0	57	0	747634688	49	4394
2026-01-05 10:32:05.49	320.13	37.58	-38.8	-40.6	15.6	0.00e+00	0	57	0	751828992	49	4350
2026-01-05 10:32:06.50	320.34	37.36	-38.7	-40.6	15.6	0.00e+00	0	57	0	754974720	49	4345
2026-01-05 10:32:07.51	320.54	37.15	-38.7	-40.5	15.7	0.00e+00	0	57	0	758120448	49	4294
2026-01-05 10:32:08.52	320.74	36.93	-38.6	-40.4	15.8	0.00e+00	0	57	0	761266176	49	4245
2026-01-05 10:32:09.53	320.94	36.72	-38.6	-40.4	15.8	0.00e+00	0	57	0	763363328	49	4283
2026-01-05 10:32:10.54	321.14	36.51	-38.7	-40.6	15.6	0.00e+00	0	57	0	767557632	49	4343
2026-01-05 10:32:11.55	321.34	36.30	-38.7	-40.5	15.6	0.00e+00	0	57	0	770703360	49	4334
2026-01-05 10:32:12.56	321.53	36.09	-38.5	-40.2	15.9	0.00e+00	0	57	0	773849088	48	4428
2026-01-05 10:32:13.57	321.72	35.88	-38.4	-40.1	16.1	0.00e+00	0	57	0	776994816	48	4366
2026-01-05 10:32:14.58	321.91	35.67	-38.2	-39.9	16.3	0.00e+00	0	57	0	780140544	48	4255
2026-01-05 10:32:15.59	322.09	35.47	-38.0	-39.7	16.5	0.00e+00	0	57	0	783286272	48	4162
2026-01-05 10:32:16.60	322.28	35.26	-38.0	-39.6	16.5	0.00e+00	0	57	0	786432000	48	4128
2026-01-05 10:32:17.61	322.46	35.06	-38.2	-39.8	16.3	0.00e+00	0	57	0	789577728	48	4227
2026-01-05 10:32:18.62	322.64	34.86	-38.4	-40.1	16.0	0.00e+00	0	57	0	792723456	48	4358
2026-01-05 10:32:19.63	322.81	34.65	-38.7	-40.4	15.6	0.00e+00	0	57	0	795869184	48	4545
2026-01-05 10:32:20.64	322.99	34.45	-38.8	-40.7	15.3	0.00e+00	0	57	0	799014912	48	4682
2026-01-05 10:32:21.65	323.16	34.25	-39.0	-41.0	15.1	0.00e+00	0	57	0	802160640	48	4827
2026-01-05 10:32:22.66	323.33	34.05	-39.1	-41.1	15.0	0.00e+00	0	57	0	805306368	48	4876
2026-01-05 10:32:23.67	323.50	33.85	-38.8	-40.7	15.4	0.00e+00	0	57	0	808452096	48	4659
2026-01-05 10:32:24.68	323.67	33.66	-38.5	-40.3	15.7	0.00e+00	0	57	0	811597824	48	4483
2026-01-05 10:32:25.69	323.83	33.46	-38.4	-40.2	15.9	0.00e+00	0	57	0	814743552	48	4403
2026-01-05 10:32:26.70	323.99	33.27	-38.4	-40.1	15.9	0.00e+00	0	57	0	817889280	48	4387
2026-01-05 10:32:27.71	324.15	33.07	-38.3	-40.0	16.0	0.00e+00	0	57	0	821035008	48	4340
2026-01-05 10:32:28.72	324.31	32.88	-38.4	-40.1	16.0	0.00e+00	0	57	0	824180736	48	4367
2026-01-05 10:32:29.72	324.47	32.69	-38.2	-39.9	16.2	0.00e+00	0	57	0	827326464	48	4267
2026-01-05 10:32:30.74	324.63	32.49	-38.2	-39.9	16.1	0.00e+00	0	57	0	830472192	48	4256
2026-01-05 10:32:31.75	324.78	32.30	-38.3	-40.1	16.0	0.00e+00	0	57	0	833617920	48	4342
2026-01-05 10:32:32.76	324.93	32.12	-38.5	-40.3	15.8	0.00e+00	0	57	0	836763648	48	4451
2026-01-05 10:32:33.76	325.08	31.93	-38.6	-40.4	15.7	0.00e+00	0	57	0	839909376	48	4507
2026-01-05 10:32:34.77	325.23	31.74	-38.6	-40.4	15.7	0.00e+00	0	57	0	843055104	48	4507
2026-01-05 10:32:35.78	325.37	31.56	-38.3	-40.0	16.1	0.00e+00	0	57	0	846200832	48	4308
2026-01-05 10:32:36.79	325.52	31.37	-38.1	-39.8	16.3	0.00e+00	0	57	0	849346560	48	4199
2026-01-05 10:32:37.81	325.66	31.18	-38.0	-39.7	16.4	0.00e+00	0	57	0	852492288	48	4154
2026-01-05 10:32:38.82	325.81	31.00	-37.9	-39.5	16.4	0.00e+00	0	57	0	855638016	47	4324
2026-01-05 10:32:39.83	325.95	30.82	-37.8	-39.5	16.5	0.00e+00	0	57	0	858783744	47	4304
2026-01-05 10:32:40.84	326.09	30.64	-37.7	-39.3	16.7	0.00e+00	0	57	0	861929472	47	4228
2026-01-05 10:32:41.85	326.22	30.46	-37.7	-39.3	16.7	0.00e+00	0	57	0	865075200	47	4200
2026-01-05 10:32:42.85	326.36	30.28	-37.4	-39.0	17.0	0.00e+00	0	57	0	868220928	46	4308
2026-01-05 10:32:43.86	326.49	30.10	-37.4	-39.0	17.0	0.00e+00	0	57	0	871366656	46	4298
2026-01-05 10:32:44.87	326.63	29.92	-37.5	-39.0	16.9	0.00e+00	0	57	0	874512384	46	4331
2026-01-05 10:32:45.88	326.76	29.75	-37.5	-39.1	16.8	0.00e+00	0	57	0	877658112	46	4380
2026-01-05 10:32:46.89	326.89	29.57	-37.5	-39.0	16.9	0.00e+00	0	56	0	880803840	46	4333
2026-01-05 10:32:47.90	327.02	29.40	-37.3	-38.8	17.0	0.00e+00	0	57	0	883949568	46	4219
2026-01-05 10:32:48.91	327.14	29.22	-37.2	-38.7	17.1	0.00e+00	0	57	0	887095296	46	4147
2026-01-05 10:32:49.92	327.27	29.05	-37.1	-38.6	17.2	0.00e+00	0	57	0	890241024	46	4112
2026-01-05 10:32:50.93	327.39	28.88	-37.0	-38.5	17.3	0.00e+00	0	57	0	893386752	46	4059
2026-01-05 10:32:51.94	327.52	28.71	-37.1	-38.6	17.2	0.00e+00	0	57	0	896532480	46	4105
2026-01-05 10:32:52.95	327.64	28.54	-37.1	-38.6	17.2	0.00e+00	0	57	0	899678208	46	4131
2026-01-05 10:32:53.96	327.76	28.37	-37.1	-38.6	17.2	0.00e+00	0	57	0	902823936	46	4129
2026-01-05 10:32:54.97	327.88	28.20	-37.2	-38.7	17.1	0.00e+00	0	57	0	905969664	46	4154
2026-01-05 10:32:55.98	328.00	28.03	-37.1	-38.6	17.2	0.00e+00	0	57	0	909115392	46	4137
2026-01-05 10:32:56.99	328.12	27.87	-37.1	-38.6	17.2	0.00e+00	0	57	0	912261120	46	4137
2026-01-05 10:32:58.00	328.23	27.70	-37.3	-38.8	17.1	0.00e+00	0	57	0	915406848	46	4209
2026-01-05 10:32:59.01	328.35	27.54	-37.4	-38.9	17.0	0.00e+00	0	57	0	918552576	46	4267
2026-01-05 10:33:00.02	328.46	27.37	-37.3	-38.8	17.0	0.00e+00	0	57	0	921698304	46	4224
2026-01-05 10:33:01.03	328.58	27.21	-37.2	-38.7	17.2	0.00e+00	0	57	0	924844032	46	4178
2026-01-05 10:33:02.04	328.69	27.05	-37.2	-38.7	17.2	0.00e+00	0	57	0	927989760	46	4160
2026-01-05 10:33:03.05	328.80	26.89	-37.2	-38.7	17.2	0.00e+00	0	57	0	931135488	46	4158
2026-01-05 10:33:04.06	328.91	26.73	-37.0	-38.5	17.4	0.00e+00	0	57	0	934281216	46	4078
2026-01-05 10:33:05.07	329.02	26.57	-36.9	-38.4	17.5	0.00e+00	0	57	0	937426944	45	4271
2026-01-05 10:33:06.08	329.12	26.41	-36.9	-38.3	17.6	0.00e+00	0	57	0	940572672	45	4230
2026-01-05 10:33:07.09	329.23	26.25	-36.9	-38.3	17.6	0.00e+00	0	57	0	943718400	45	4235
2026-01-05 10:33:08.10	329.34	26.09	-36.9	-38.4	17.5	0.00e+00	0	57	0	946864128	45	4266
2026-01-05 10:33:09.11	329.44	25.94	-36.9	-38.3	17.5	0.00e+00	0	57	0	950009856	45	4236
2026-01-05 10:33:10.12	329.54	25.78	-36.8	-38.3	17.6	0.00e+00	0	57	0	953155584	45	4225
2026-01-05 10:33:11.13	329.65	25.63	-36.9	-38.4	17.5	0.00e+00	0	57	0	956301312	45	4262
2026-01-05 10:33:12.14	329.75	25.47	-37.0	-38.5	17.4	0.00e+00	0	57	0	959447040	45	4321
2026-01-05 10:33:13.15	329.85	25.32	-37.1	-38.7	17.2	0.00e+00	0	57	0	962592768	45	4399
2026-01-05 10:33:14.16	329.95	25.17	-37.0	-38.5	17.3	0.00e+00	0	57	0	965738496	45	4328
2026-01-05 10:33:15.17	330.05	25.02	-37.0	-38.5	17.4	0.00e+00	0	57	0	968884224	45	4317
2026-01-05 10:33:16.18	330.15	24.86	-37.0	-38.5	17.4	0.00e+00	0	57	0	972029952	45	4296
2026-01-05 10:33:17.19	330.24	24.71	-37.0	-38.5	17.4	0.00e+00	0	57	0	975175680	45	4306
2026-01-05 10:33:18.20	330.34	24.57	-36.8	-38.3	17.6	0.00e+00	0	57	0	978321408	45	4217
2026-01-05 10:33:19.21	330.44	24.42	-36.7	-38.2	17.7	0.00e+00	0	57	0	981467136	45	4149
2026-01-05 10:33:20.22	330.53	24.27	-36.7	-38.1	17.7	0.00e+00	0	57	0	984612864	45	4138
2026-01-05 10:33:21.23	330.62	24.12	-36.7	-38.2	17.7	0.00e+00	0	57	0	987758592	45	4157
2026-01-05 10:33:22.24	330.72	23.98	-36.8	-38.3	17.6	0.00e+00	0	57	0	990904320	45	4205
2026-01-05 10:33:23.25	330.81	23.83	-36.8	-38.2	17.6	0.00e+00	0	57	0	994050048	45	4167
2026-01-05 10:33:24.26	330.90	23.69	-36.8	-38.3	17.6	0.00e+00	0	57	0	997195776	45	4204
2026-01-05 10:33:25.27	330.99	23.54	-36.9	-38.3	17.5	0.00e+00	0	57	0	1000341504	45	4232
2026-01-05 10:33:26.28	331.08	23.40	-36.9	-38.4	17.5	0.00e+00	0	57	0	1003487232	45	4258
2026-01-05 10:33:27.29	331.17	23.26	-37.0	-38.5	17.3	0.00e+00	0	57	0	1006632960	45	4296
2026-01-05 10:33:28.30	331.26	23.12	-37.0	-38.5	17.3	0.00e+00	0	57	0	1009778688	45	4309
2026-01-05 10:33:29.32	331.34	22.97	-37.0	-38.5	17.3	0.00e+00	0	57	0	1012924416	45	4338
2026-01-05 10:33:30.33	331.43	22.83	-37.0	-38.6	17.3	0.00e+00	0	57	0	1016070144	45	4348
2026-01-05 10:33:31.33	331.52	22.70	-37.1	-38.6	17.2	0.00e+00	0	57	0	1019215872	45	4382
2026-01-05 10:33:32.35	331.60	22.56	-37.1	-38.7	17.2	0.00e+00	0	57	0	1022361600	45	4395
2026-01-05 10:33:33.36	331.69	22.42	-37.0	-38.5	17.3	0.00e+00	0	57	0	1025507328	45	4319
2026-01-05 10:33:34.37	331.77	22.28	-36.9	-38.4	17.4	0.00e+00	0	57	0	1028653056	45	4250
2026-01-05 10:33:35.38	331.85	22.14	-37.0	-38.4	17.3	0.00e+00	0	57	0	1031798784	45	4291
2026-01-05 10:33:36.39	331.94	22.01	-36.9	-38.4	17.4	0.00e+00	0	57	0	1034944512	45	4276
2026-01-05 10:33:37.40	332.02	21.87	-36.9	-38.4	17.4	0.00e+00	0	57	0	1038090240	45	4272
2026-01-05 10:33:38.41	332.10	21.74	-37.0	-38.5	17.3	0.00e+00	0	57	0	1041235968	45	4318
2026-01-05 10:33:39.42	332.18	21.60	-37.0	-38.5	17.3	0.00e+00	0	57	0	1044381696	45	4316
2026-01-05 10:33:40.43	332.26	21.47	-37.0	-38.5	17.3	0.00e+00	0	57	0	1047527424	45	4304
2026-01-05 10:33:41.44	332.34	21.34	-37.1	-38.6	17.2	0.00e+00	0	57	0	1051721728	45	4369
2026-01-05 10:33:42.45	332.41	21.20	-37.1	-38.6	17.2	0.00e+00	0	57	0	1053818880	45	4358
2026-01-05 10:33:43.46	332.49	21.07	-37.0	-38.5	17.3	0.00e+00	0	57	0	1056964608	45	4317
2026-01-05 10:33:44.47	332.57	20.94	-37.0	-38.5	17.2	0.00e+00	0	57	0	1060110336	45	4337
2026-01-05 10:33:45.48	332.65	20.81	-37.1	-38.6	17.1	0.00e+00	0	57	0	1063256064	45	4384
2026-01-05 10:33:46.49	332.72	20.68	-37.0	-38.6	17.2	0.00e+00	0	57	0	1067450368	45	4344
2026-01-05 10:33:47.50	332.80	20.55	-37.1	-38.6	17.1	0.00e+00	0	57	0	1070596096	45	4374
2026-01-05 10:33:48.51	332.87	20.43	-37.1	-38.7	17.1	0.00e+00	0	57	0	1073741824	45	4394
2026-01-05 10:33:49.52	332.95	20.30	-37.2	-38.8	16.9	0.00e+00	0	57	0	1076887552	45	4461
2026-01-05 10:33:50.53	333.02	20.17	-37.2	-38.8	17.0	0.00e+00	0	57	0	1078984704	45	4450
2026-01-05 10:33:51.54	333.09	20.04	-37.1	-38.7	17.0	0.00e+00	0	57	0	1083179008	45	4403
2026-01-05 10:33:52.55	333.16	19.92	-37.1	-38.6	17.1	0.00e+00	0	57	0	1086324736	45	4377
2026-01-05 10:33:53.56	333.24	19.79	-37.1	-38.7	17.0	0.00e+00	0	57	0	1089470464	45	4393
2026-01-05 10:33:54.57	333.31	19.67	-37.2	-38.8	16.9	0.00e+00	0	57	0	1092616192	45	4477
2026-01-05 10:33:55.58	333.38	19.54	-37.3	-38.8	16.8	0.00e+00	0	57	0	1095761920	45	4491
2026-01-05 10:33:56.59	333.45	19.42	-37.3	-38.9	16.8	0.00e+00	0	57	0	1098907648	45	4494
2026-01-05 10:33:57.60	333.52	19.30	-37.2	-38.8	16.9	0.00e+00	0	57	0	1102053376	45	4450
2026-01-05 10:33:58.61	333.59	19.18	-37.2	-38.8	16.9	0.00e+00	0	57	0	1105199104	45	4450
2026-01-05 10:33:59.62	333.66	19.05	-37.2	-38.8	16.8	0.00e+00	0	56	0	1108344832	45	4481
2026-01-05 10:34:00.63	333.72	18.93	-37.3	-38.9	16.7	0.00e+00	0	57	0	1111490560	45	4519
2026-01-05 10:34:01.64	333.79	18.81	-37.4	-39.0	16.6	0.00e+00	0	57	0	1114636288	45	4589
2026-01-05 10:34:02.65	333.86	18.69	-37.5	-39.2	16.5	0.00e+00	0	57	0	1117782016	45	4664
2026-01-05 10:34:03.66	333.93	18.57	-37.6	-39.2	16.4	0.00e+00	0	57	0	1120927744	45	4698
2026-01-05 10:34:04.67	333.99	18.45	-37.4	-39.1	16.5	0.00e+00	0	57	0	1124073472	45	4616
2026-01-05 10:34:05.68	334.06	18.33	-37.4	-39.0	16.5	0.00e+00	0	57	0	1127219200	45	4586
2026-01-05 10:34:06.69	334.12	18.22	-37.4	-39.0	16.5	0.00e+00	0	57	0	1130364928	45	4592
2026-01-05 10:34:07.70	334.19	18.10	-37.4	-39.1	16.4	0.00e+00	0	57	0	1133510656	45	4624
2026-01-05 10:34:08.71	334.25	17.98	-37.5	-39.2	16.3	0.00e+00	0	57	0	1136656384	45	4682
2026-01-05 10:34:09.72	334.32	17.87	-37.5	-39.2	16.4	0.00e+00	0	57	0	1139802112	45	4656
2026-01-05 10:34:10.73	334.38	17.75	-37.5	-39.1	16.4	0.00e+00	0	57	0	1142947840	45	4634
2026-01-05 10:34:11.75	334.44	17.63	-37.5	-39.1	16.3	0.00e+00	0	57	0	1146093568	45	4647
2026-01-05 10:34:12.76	334.50	17.52	-37.5	-39.2	16.3	0.00e+00	0	57	0	1149239296	45	4685
2026-01-05 10:34:13.77	334.57	17.40	-37.6	-39.3	16.2	0.00e+00	0	57	0	1152385024	45	4728
2026-01-05 10:34:14.77	334.63	17.29	-37.6	-39.3	16.2	0.00e+00	0	57	0	1155530752	45	4721
2026-01-05 10:34:15.79	334.69	17.18	-37.6	-39.3	16.2	0.00e+00	0	57	0	1158676480	45	4736
2026-01-05 10:34:16.80	334.75	17.06	-37.7	-39.4	16.1	0.00e+00	0	57	0	1161822208	45	4769
2026-01-05 10:34:17.81	334.81	16.95	-37.6	-39.3	16.0	0.00e+00	0	57	0	1164967936	45	4747
2026-01-05 10:34:18.82	334.87	16.84	-37.7	-39.5	15.8	0.00e+00	0	57	0	1168113664	46	4563
2026-01-05 10:34:19.83	334.93	16.73	-37.9	-39.6	15.8	0.00e+00	0	57	0	1171259392	46	4642
2026-01-05 10:34:20.84	334.99	16.62	-37.8	-39.6	15.9	0.00e+00	0	57	0	1174405120	46	4613
2026-01-05 10:34:21.85	335.05	16.51	-37.8	-39.6	15.9	0.00e+00	0	57	0	1177550848	46	4599
2026-01-05 10:34:22.86	335.11	16.40	-37.9	-39.6	15.8	0.00e+00	0	57	0	1180696576	46	4650
2026-01-05 10:34:23.87	335.16	16.29	-37.9	-39.7	15.7	0.00e+00	0	57	0	1183842304	46	4690
2026-01-05 10:34:24.88	335.22	16.18	-37.9	-39.7	15.7	0.00e+00	0	57	0	1186988032	46	4661
2026-01-05 10:34:25.89	335.28	16.07	-37.8	-39.6	15.8	0.00e+00	0	57	0	1190133760	46	4604
2026-01-05 10:34:26.90	335.33	15.96	-37.8	-39.6	15.8	0.00e+00	0	57	0	1193279488	46	4620
2026-01-05 10:34:27.91	335.39	15.85	-37.8	-39.5	15.8	0.00e+00	0	57	0	1196425216	46	4589
2026-01-05 10:34:28.92	335.45	15.75	-37.8	-39.6	15.8	0.00e+00	0	57	0	1199570944	46	4624
2026-01-05 10:34:29.93	335.50	15.64	-37.8	-39.7	15.7	0.00e+00	0	57	0	1202716672	46	4652
2026-01-05 10:34:30.94	335.56	15.53	-37.8	-39.6	15.8	0.00e+00	0	57	0	1205862400	46	4620
2026-01-05 10:34:31.95	335.61	15.43	-37.8	-39.6	15.7	0.00e+00	0	57	0	1209008128	46	4635
2026-01-05 10:34:32.96	335.67	15.32	-37.8	-39.6	15.7	0.00e+00	0	57	0	1212153856	46	4641
2026-01-05 10:34:33.97	335.72	15.22	-37.8	-39.5	15.8	0.00e+00	0	57	0	1215299584	46	4595
2026-01-05 10:34:34.98	335.78	15.11	-37.8	-39.6	15.7	0.00e+00	0	57	0	1218445312	46	4621
2026-01-05 10:34:35.99	335.83	15.01	-37.9	-39.7	15.6	0.00e+00	0	57	0	1221591040	46	4671
2026-01-05 10:34:37.00	335.88	14.91	-37.9	-39.8	15.5	0.00e+00	0	57	0	1224736768	46	4737
2026-01-05 10:34:38.01	335.93	14.80	-38.0	-39.8	15.4	0.00e+00	0	57	0	1227882496	46	4758
2026-01-05 10:34:39.02	335.99	14.70	-38.0	-39.9	15.4	0.00e+00	0	57	0	1231028224	46	4799
2026-01-05 10:34:40.03	336.04	14.60	-38.0	-39.8	15.4	0.00e+00	0	57	0	1234173952	46	4756
2026-01-05 10:34:41.04	336.09	14.50	-38.0	-39.9	15.3	0.00e+00	0	57	0	1237319680	46	4776
2026-01-05 10:34:42.05	336.14	14.39	-38.0	-39.9	15.4	0.00e+00	0	57	0	1240465408	46	4762
2026-01-05 10:34:43.06	336.19	14.29	-37.9	-39.7	15.5	0.00e+00	0	57	0	1243611136	46	4695
2026-01-05 10:34:44.07	336.24	14.19	-38.0	-39.9	15.3	7.00e-07	0	57	0	1246756864	46	4761
2026-01-05 10:34:45.08	336.30	14.09	-38.0	-39.9	15.3	0.00e+00	0	57	0	1249902592	46	4794
2026-01-05 10:34:46.09	336.35	13.99	-38.0	-39.9	15.3	0.00e+00	0	57	0	1253048320	46	4782
2026-01-05 10:34:47.10	336.40	13.89	-37.9	-39.8	15.3	0.00e+00	0	57	0	1256194048	46	4749
2026-01-05 10:34:48.11	336.44	13.79	-37.9	-39.7	15.4	0.00e+00	0	57	0	1259339776	46	4698
2026-01-05 10:34:49.12	336.49	13.69	-37.8	-39.7	15.4	0.00e+00	0	57	0	1262485504	46	4683
2026-01-05 10:34:50.13	336.54	13.60	-37.8	-39.7	15.5	0.00e+00	0	57	0	1265631232	46	4659
2026-01-05 10:34:51.15	336.59	13.50	-37.7	-39.5	15.5	0.00e+00	0	57	0	1268776960	46	4593
2026-01-05 10:34:52.16	336.64	13.40	-37.7	-39.6	15.5	0.00e+00	0	57	0	1271922688	46	4605
2026-01-05 10:34:53.17	336.69	13.30	-37.8	-39.7	15.4	0.00e+00	0	57	0	1275068416	46	4661
2026-01-05 10:34:54.18	336.74	13.21	-37.8	-39.7	15.3	0.00e+00	0	57	0	1278214144	46	4688
2026-01-05 10:34:55.19	336.78	13.11	-37.9	-39.8	15.1	0.00e+00	0	57	0	1281359872	46	4745
2026-01-05 10:34:56.20	336.83	13.01	-38.0	-40.0	14.9	0.00e+00	0	57	0	1284505600	46	4846
2026-01-05 10:34:57.21	336.88	12.92	-38.1	-40.1	14.8	0.00e+00	0	57	0	1287651328	46	4920
2026-01-05 10:34:58.22	336.93	12.82	-38.1	-40.1	14.8	0.00e+00	0	57	0	1290797056	46	4904
2026-01-05 10:34:59.23	336.97	12.73	-38.0	-40.0	14.9	0.00e+00	0	57	0	1293942784	46	4853
2026-01-05 10:35:00.24	337.02	12.63	-37.9	-40.0	14.9	0.00e+00	0	57	0	1297088512	46	4817
2026-01-05 10:35:01.25	337.06	12.54	-37.8	-39.8	15.0	0.00e+00	0	57	0	1300234240	46	4726
2026-01-05 10:35:02.26	337.11	12.44	-37.7	-39.6	15.2	0.00e+00	0	57	0	1303379968	46	4638
2026-01-05 10:35:03.27	337.15	12.35	-37.7	-39.6	15.2	0.00e+00	0	57	0	1306525696	46	4648
2026-01-05 10:35:04.28	337.20	12.26	-37.7	-39.6	15.2	0.00e+00	0	57	0	1309671424	46	4634
2026-01-05 10:35:05.29	337.24	12.16	-37.7	-39.7	15.1	0.00e+00	0	57	0	1312817152	46	4660
2026-01-05 10:35:06.30	337.29	12.07	-37.8	-39.8	15.0	7.00e-07	0	57	0	1315962880	46	4713
2026-01-05 10:35:07.31	337.33	11.98	-37.9	-39.9	14.8	7.00e-07	0	57	0	1319108608	46	4784
2026-01-05 10:35:08.32	337.38	11.89	-37.9	-39.9	14.8	7.00e-07	0	57	0	1322254336	46	4793
2026-01-05 10:35:09.33	337.42	11.79	-37.9	-40.0	14.6	7.00e-07	0	56	0	1325400064	46	4865
2026-01-05 10:35:10.34	337.47	11.70	-38.0	-40.1	14.4	7.00e-07	0	57	0	1328545792	46	4926
2026-01-05 10:35:11.35	337.51	11.61	-38.1	-40.3	14.3	1.50e-06	0	57	0	1331691520	46	4995
2026-01-05 10:35:12.36	337.55	11.52	-38.2	-40.4	14.1	0.00e+00	0	57	0	1334837248	47	4786
2026-01-05 10:35:13.37	337.59	11.43	-38.2	-40.4	14.1	7.00e-07	0	57	0	1337982976	47	4807
2026-01-05 10:35:14.38	337.64	11.34	-38.2	-40.5	14.0	7.00e-07	0	57	0	1342177280	47	4835
2026-01-05 10:35:15.39	337.68	11.25	-38.3	-40.6	13.9	3.00e-06	0	57	0	1345323008	47	4877
2026-01-05 10:35:16.41	337.72	11.16	-38.2	-40.5	13.9	6.10e-06	0	57	0	1347420160	47	4845
2026-01-05 10:35:17.42	337.76	11.07	-38.2	-40.5	13.9	6.80e-06	0	57	0	1350565888	47	4834
2026-01-05 10:35:18.43	337.81	10.98	-38.1	-40.4	14.0	1.50e-06	0	57	0	1353711616	47	4776
2026-01-05 10:35:19.44	337.85	10.89	-38.1	-40.3	14.1	7.00e-07	0	57	0	1357905920	47	4730
2026-01-05 10:35:20.45	337.89	10.81	-38.0	-40.2	14.1	2.20e-06	0	57	0	1361051648	47	4670
2026-01-05 10:35:21.46	337.93	10.72	-38.0	-40.2	14.1	2.20e-06	0	57	0	1364197376	47	4692
2026-01-05 10:35:22.47	337.97	10.63	-38.0	-40.3	14.0	2.20e-06	0	57	0	1367343104	47	4721
2026-01-05 10:35:23.48	338.01	10.54	-38.0	-40.2	14.0	3.00e-06	0	57	0	1369440256	47	4694
2026-01-05 10:35:24.49	338.05	10.46	-37.9	-40.1	14.2	0.00e+00	0	57	0	1373634560	47	4611
2026-01-05 10:35:25.50	338.09	10.37	-37.8	-40.1	14.1	7.00e-07	0	57	0	1376780288	47	4610
2026-01-05 10:35:26.51	338.13	10.28	-37.8	-40.0	14.1	2.20e-06	0	57	0	1379926016	47	4584
2026-01-05 10:35:27.52	338.17	10.20	-37.8	-40.1	14.1	7.00e-07	0	57	0	1383071744	47	4609
2026-01-05 10:35:28.53	338.21	10.11	-37.8	-40.0	14.1	1.50e-06	0	57	0	1386217472	47	4562
2026-01-05 10:35:29.54	338.25	10.03	-37.8	-39.9	14.2	7.00e-07	0	57	0	1389363200	47	4543
2026-01-05 10:35:30.55	338.29	9.94	-37.8	-40.0	14.1	3.00e-06	0	57	0	1392508928	47	4583
2026-01-05 10:35:31.56	338.33	9.86	-37.8	-40.0	14.0	3.00e-06	0	57	0	1395654656	47	4595
2026-01-05 10:35:32.57	338.37	9.77	-37.8	-40.1	14.0	2.20e-06	0	57	0	1398800384	47	4617
2026-01-05 10:35:33.58	338.41	9.69	-38.0	-40.3	13.8	3.00e-06	0	57	0	1401946112	47	4712
2026-01-05 10:35:34.59	338.44	9.60	-38.2	-40.6	13.5	7.60e-06	0	57	0	1405091840	47	4899
2026-01-05 10:35:35.60	338.48	9.52	-38.2	-40.6	13.5	1.44e-05	0	57	0	1408237568	47	4889
2026-01-05 10:35:36.61	338.52	9.44	-38.1	-40.5	13.5	9.90e-06	0	57	0	1411383296	47	4828
2026-01-05 10:35:37.62	338.56	9.35	-38.1	-40.5	13.4	9.90e-06	0	57	0	1414529024	47	4864
2026-01-05 10:35:38.63	338.60	9.27	-38.2	-40.7	13.3	1.22e-05	0	57	0	1417674752	47	4940
2026-01-05 10:35:39.64	338.63	9.19	-38.3	-40.8	13.0	2.21e-05	0	57	0	1420820480	47	5039
2026-01-05 10:35:40.65	338.67	9.11	-38.4	-41.0	12.9	4.95e-05	0	57	0	1423966208	47	5133
2026-01-05 10:35:41.66	338.71	9.02	-38.4	-41.1	12.7	7.93e-05	0	57	0	1427111936	47	5186
2026-01-05 10:35:42.67	338.75	8.94	-38.6	-41.4	12.4	1.18e-04	0	57	0	1430257664	47	5385
2026-01-05 10:35:43.68	338.78	8.86	-38.7	-41.5	12.2	2.17e-04	0	57	0	1433403392	47	5421
2026-01-05 10:35:44.69	338.82	8.78	-38.8	-41.7	12.1	2.63e-04	0	57	0	1436549120	48	5241
2026-01-05 10:35:45.70	338.85	8.70	-39.0	-42.0	11.7	5.12e-04	0	57	0	1439694848	48	5429
2026-01-05 10:35:46.71	338.89	8.62	-39.1	-42.2	11.5	7.54e-04	0	57	0	1442840576	48	5535
2026-01-05 10:35:47.72	338.93	8.54	-39.2	-42.4	11.2	1.13e-03	0	57	0	1445986304	48	5658
2026-01-05 10:35:48.73	338.96	8.46	-39.4	-42.8	10.7	2.00e-03	0	57	0	1449132032	49	5631
2026-01-05 10:35:49.74	339.00	8.37	-39.3	-42.8	10.6	3.37e-03	0	57	0	1452277760	49	5647
2026-01-05 10:35:50.75	339.03	8.30	-39.5	-43.1	10.2	4.95e-03	0	57	0	1455423488	49	5832
2026-01-05 10:35:51.76	339.07	8.22	-39.6	-43.5	9.7	1.06e-02	0	57	0	1458569216	49	6099
2026-01-05 10:35:52.77	339.10	8.14	-39.8	-43.8	9.4	1.27e-02	0	57	0	1461714944	50	5966
2026-01-05 10:35:53.78	339.14	8.06	-39.9	-44.1	9.0	2.69e-02	0	57	0	1464860672	50	6153
2026-01-05 10:35:54.79	339.17	7.98	-43.0	-54.5	3.8	7.15e-01	0	57	104	1466957824	56	14471
2026-01-05 10:35:55.80	339.21	7.90	-44.3	-56.6	3.8	1.49e+00	0	57	104	1466957824	59	15529
2026-01-05 10:35:56.81	339.24	7.82	-44.7	-57.0	3.8	1.49e+00	0	57	104	1466957824	59	16220
2026-01-05 10:35:57.82	339.28	7.74	-44.8	-57.4	3.8	1.49e+00	0	57	104	1466957824	60	15972
2026-01-05 10:35:58.83	339.31	7.66	-45.0	-57.5	3.8	1.49e+00	0	57	104	1466957824	60	16214
2026-01-05 10:35:59.84	339.35	7.59	-45.1	-57.6	3.8	1.49e+00	0	57	104	1466957824	60	16407
2026-01-05 10:36:00.85	339.38	7.51	-45.1	-57.7	3.8	1.49e+00	0	57	104	1466957824	60	16525
2026-01-05 10:36:01.86	339.41	7.43	-45.2	-57.7	3.8	1.49e+00	0	57	104	1466957824	60	16658
2026-01-05 10:36:02.88	339.45	7.35	-45.2	-57.8	3.8	1.49e+00	0	57	104	1466957824	60	16701
2026-01-05 10:36:03.88	339.48	7.28	-45.1	-57.8	3.8	1.49e+00	0	57	104	1466957824	60	16734
2026-01-05 10:36:04.90	339.51	7.20	-45.2	-57.8	3.8	1.49e+00	0	57	104	1466957824	60	16764
2026-01-05 10:36:05.91	339.55	7.12	-45.1	-57.7	3.8	1.49e+00	0	57	104	1466957824	60	16608
2026-01-05 10:36:06.92	339.58	7.05	-45.0	-57.7	3.8	1.49e+00	0	57	104	1466957824	60	16517
2026-01-05 10:36:07.93	339.61	6.97	-45.1	-57.6	3.8	1.49e+00	0	57	104	1466957824	60	16477
2026-01-05 10:36:08.94	339.64	6.90	-45.0	-57.6	3.8	1.49e+00	0	57	104	1466957824	60	16459
2026-01-05 10:36:09.95	339.68	6.82	-45.0	-57.6	3.8	1.49e+00	0	57	104	1466957824	60	16487
2026-01-05 10:36:10.96	339.71	6.75	-45.0	-57.6	3.8	1.49e+00	0	57	104	1466957824	60	16458
2026-01-05 10:36:11.97	339.74	6.67	-45.0	-57.6	3.8	1.49e+00	0	57	104	1466957824	60	16441
2026-01-05 10:36:12.98	339.77	6.60	-45.0	-57.6	3.8	1.49e+00	0	57	104	1466957824	60	16408
2026-01-05 10:36:13.99	339.81	6.52	-45.0	-57.6	3.8	1.49e+00	0	57	104	1466957824	60	16474
2026-01-05 10:36:15.00	339.84	6.45	-45.0	-57.6	3.8	1.49e+00	0	57	104	1466957824	60	16460
2026-01-05 10:36:16.01	339.87	6.37	-45.0	-57.6	3.8	1.49e+00	0	57	104	1466957824	60	16414
2026-01-05 10:36:17.02	339.90	6.30	-45.0	-57.6	3.8	1.49e+00	0	57	104	1466957824	60	16463
2026-01-05 10:36:18.04	339.93	6.22	-45.0	-57.6	3.8	1.49e+00	0	57	104	1466957824	60	16435
2026-01-05 10:36:19.05	339.96	6.15	-45.0	-57.6	3.8	1.49e+00	0	57	104	1466957824	60	16399
2026-01-05 10:36:20.06	339.99	6.08	-45.0	-57.6	3.8	1.49e+00	0	57	104	1466957824	60	16371
2026-01-05 10:36:21.07	340.03	6.00	-45.0	-57.6	3.8	1.49e+00	0	57	104	1466957824	60	16372
2026-01-05 10:36:22.08	340.06	5.93	-45.0	-57.6	3.8	1.49e+00	0	57	104	1466957824	60	16403
2026-01-05 10:36:23.09	340.09	5.86	-45.0	-57.6	3.8	1.49e+00	0	57	104	1466957824	60	16396
2026-01-05 10:36:24.10	340.12	5.79	-45.0	-57.6	3.8	1.49e+00	0	57	104	1466957824	60	16343
2026-01-05 10:36:25.11	340.15	5.71	-45.0	-57.6	3.8	1.49e+00	0	57	104	1466957824	60	16423
2026-01-05 10:36:26.12	340.18	5.64	-45.0	-57.6	3.8	1.49e+00	0	57	104	1466957824	60	16421
2026-01-05 10:36:27.13	340.21	5.57	-45.0	-57.6	3.8	1.49e+00	0	57	104	1466957824	60	16344
2026-01-05 10:36:28.13	340.24	5.50	-45.0	-57.6	3.8	1.49e+00	0	57	104	1466957824	60	16386
2026-01-05 10:36:29.14	340.27	5.43	-45.0	-57.6	3.8	1.49e+00	0	57	104	1466957824	60	16394
2026-01-05 10:36:30.16	340.30	5.35	-45.0	-57.6	3.8	1.49e+00	0	57	104	1466957824	60	16409
2026-01-05 10:36:31.17	340.33	5.28	-45.0	-57.6	3.8	1.49e+00	0	57	104	1466957824	60	16362
2026-01-05 10:36:32.18	340.36	5.21	-45.0	-57.6	3.8	1.49e+00	0	57	104	1466957824	60	16335
2026-01-05 10:36:33.19	340.39	5.14	-45.0	-57.6	3.8	1.49e+00	0	57	104	1466957824	60	16367
2026-01-05 10:36:34.20	340.42	5.07	-45.0	-57.6	3.8	1.49e+00	0	57	104	1466957824	60	16412
2026-01-05 10:36:35.21	340.45	5.00	-45.0	-57.6	3.8	1.49e+00	0	57	104	1466957824	60	16357
2026-01-05 10:36:36.22	340.47	4.93	-45.0	-57.6	3.8	1.49e+00	0	57	104	1466957824	60	16387
2026-01-05 10:36:37.23	340.50	4.86	-45.0	-57.6	3.8	1.49e+00	0	57	104	1466957824	60	16403
2026-01-05 10:36:38.25	340.53	4.79	-45.0	-57.6	3.8	1.49e+00	0	57	104	1466957824	60	16388
2026-01-05 10:36:39.26	340.56	4.72	-45.0	-57.6	3.8	1.49e+00	0	57	104	1466957824	60	16366
2026-01-05 10:36:40.27	340.59	4.65	-45.0	-57.6	3.8	1.49e+00	0	57	104	1466957824	60	16372
2026-01-05 10:36:41.28	340.62	4.58	-45.0	-57.6	3.8	1.49e+00	0	57	104	1466957824	60	16371
2026-01-05 10:36:42.29	340.65	4.51	-45.0	-57.6	3.8	1.49e+00	0	57	104	1466957824	60	16379
2026-01-05 10:36:43.30	340.68	4.44	-45.0	-57.6	3.8	1.49e+00	0	57	104	1466957824	60	16372
2026-01-05 10:36:44.31	340.70	4.37	-45.0	-57.6	3.8	1.49e+00	0	57	104	1466957824	60	16367
2026-01-05 10:36:45.32	340.73	4.30	-45.0	-57.6	3.8	1.49e+00	0	57	104	1466957824	60	16331
2026-01-05 10:36:46.33	340.76	4.23	-45.0	-57.6	3.8	1.49e+00	0	57	104	1466957824	60	16371
2026-01-05 10:36:47.35	340.79	4.17	-45.0	-57.6	3.8	1.49e+00	0	57	104	1466957824	60	16360
2026-01-05 10:36:48.36	340.82	4.10	-45.0	-57.6	3.8	1.49e+00	0	57	104	1466957824	60	16339
2026-01-05 10:36:49.37	340.84	4.03	-45.0	-57.6	3.8	1.49e+00	0	57	104	1466957824	60	16408
2026-01-05 10:36:50.38	340.87	3.96	-45.0	-57.6	3.8	1.49e+00	0	57	104	1466957824	60	16333
2026-01-05 10:36:51.39	340.90	3.89	-45.0	-57.6	3.8	1.49e+00	0	57	104	1466957824	60	16383
2026-01-05 10:36:52.40	340.93	3.83	-45.0	-57.6	3.8	1.49e+00	0	57	104	1466957824	60	16394
2026-01-05 10:36:53.41	340.95	3.76	-45.0	-57.6	3.8	1.49e+00	0	57	104	1466957824	60	16386
2026-01-05 10:36:54.42	340.98	3.69	-45.0	-57.5	3.8	1.49e+00	0	57	104	1466957824	60	16306
2026-01-05 10:36:55.43	341.01	3.62	-45.0	-57.6	3.8	1.49e+00	0	57	104	1466957824	60	16354
2026-01-05 10:36:56.45	341.03	3.56	-45.0	-57.6	3.8	1.49e+00	0	57	104	1466957824	60	16373
2026-01-05 10:36:57.46	341.06	3.49	-45.0	-57.5	3.8	1.49e+00	0	57	104	1466957824	60	16296
2026-01-05 10:36:58.47	341.09	3.42	-45.0	-57.6	3.8	1.49e+00	0	57	104	1466957824	60	16330
2026-01-05 10:36:59.48	341.11	3.36	-45.0	-57.6	3.8	1.49e+00	0	57	104	1466957824	60	16338
2026-01-05 10:37:00.49	341.14	3.29	-45.0	-57.6	3.8	1.49e+00	0	57	104	1466957824	60	16361
2026-01-05 10:37:01.50	341.17	3.22	-45.0	-57.6	3.8	1.49e+00	0	57	104	1466957824	60	16376
2026-01-05 10:37:02.51	341.19	3.16	-45.0	-57.6	3.8	1.49e+00	0	57	104	1466957824	60	16379
2026-01-05 10:37:03.52	341.22	3.09	-45.0	-57.6	3.8	1.49e+00	0	57	104	1466957824	60	16331
2026-01-05 10:37:04.53	341.25	3.03	-45.0	-57.6	3.8	1.49e+00	0	57	104	1466957824	60	16355
2026-01-05 10:37:05.54	341.27	2.96	-45.0	-57.6	3.8	1.49e+00	0	57	104	1466957824	60	16393
2026-01-05 10:37:06.56	341.30	2.90	-45.0	-57.6	3.8	1.49e+00	0	57	104	1466957824	60	16376
2026-01-05 10:37:07.57	341.32	2.83	-45.0	-57.6	3.8	1.49e+00	0	57	104	1466957824	60	16386
2026-01-05 10:37:08.58	341.35	2.77	-45.0	-57.6	3.8	1.49e+00	0	57	104	1466957824	60	16338
2026-01-05 10:37:09.59	341.37	2.70	-45.0	-57.6	3.8	1.49e+00	0	57	104	1466957824	60	16371
2026-01-05 10:37:10.60	341.40	2.64	-45.0	-57.6	3.8	1.49e+00	0	57	104	1466957824	60	16422
2026-01-05 10:37:11.61	341.43	2.57	-45.0	-57.6	3.8	1.49e+00	0	57	104	1466957824	60	16339
2026-01-05 10:37:12.62	341.45	2.51	-44.7	-57.6	3.8	1.49e+00	0	57	104	1466957824	60	16365
2026-01-05 10:37:13.63	341.48	2.44	-45.0	-57.6	3.8	1.49e+00	0	57	104	1466957824	60	16325
2026-01-05 10:37:14.64	341.50	2.38	-45.0	-57.5	3.8	1.49e+00	0	57	104	1466957824	60	16301
2026-01-05 10:37:15.65	341.53	2.31	-45.0	-57.6	3.8	1.49e+00	0	57	104	1466957824	60	16413
2026-01-05 10:37:16.67	341.55	2.25	-45.0	-57.6	3.8	1.49e+00	0	57	104	1466957824	60	16375
2026-01-05 10:37:17.68	341.58	2.19	-45.0	-57.6	3.8	1.49e+00	0	57	104	1466957824	60	16377
2026-01-05 10:37:18.69	341.60	2.12	-44.9	-57.5	3.8	1.49e+00	0	57	104	1466957824	60	16309
2026-01-05 10:37:19.70	341.63	2.06	-45.0	-57.6	3.8	1.49e+00	0	57	104	1466957824	60	16372
2026-01-05 10:37:20.71	341.65	2.00	-45.0	-57.6	3.8	1.49e+00	0	57	104	1466957824	60	16331

#Closed at: 2026-01-05 10:37:21
#Recorded file [1466 MB]: D:/lorett/data/31039_260105_132713.dat