passes_logs/2026/01/05/R2.0S_Moscow/R2.0S_Moscow__20260105_134003_FENGYUN_3E_rec.log

#Pass ID: 20260105_134003_FENGYUN 3E
#Satellite: FENGYUN 3E
#Configuration: FENGYUN 3E
#almurnet v.1.7.20251203
#Start time: 2026-01-05 13:47:45

#Version: 2.2.20231116
#Station: R2.0S_Moscow
#Location: 37.707566 lon 55.798166 lat
#TLE: 1 49008U 21062A   26004.99925679  .00000018  00000+0  29282-4 0  9995
#TLE: 2 49008  98.7472  10.2448 0001540 159.6420 200.4818 14.19883565233423

#Time	Az	El	Level	Level2	SNR	BER	BlckErr	Temp	State	Recorded	gain1	gain2
2026-01-05 13:47:45.87	38.10	52.82	-44.9	-56.7	3.8	8.47e-01	0	56	0	0	60	14810
2026-01-05 13:47:46.87	37.48	52.65	-45.6	-56.4	3.8	8.47e-01	0	56	104	0	62	12053
2026-01-05 13:47:47.89	36.85	52.48	-45.6	-56.3	3.8	8.46e-01	0	57	104	0	62	11868
2026-01-05 13:47:48.90	36.24	52.31	-45.6	-56.6	3.8	8.45e-01	0	57	104	0	62	12318
2026-01-05 13:47:49.91	35.64	52.13	-45.5	-56.6	3.8	8.47e-01	0	57	104	0	62	12290
2026-01-05 13:47:50.92	35.05	51.95	-45.5	-56.6	3.8	8.46e-01	0	56	104	0	62	12282
2026-01-05 13:47:51.93	34.46	51.77	-45.5	-56.6	3.8	8.46e-01	0	57	104	0	62	12285
2026-01-05 13:47:52.94	33.88	51.58	-45.5	-56.6	3.8	8.46e-01	0	57	104	0	62	12283
2026-01-05 13:47:53.95	33.30	51.40	-45.5	-56.6	3.8	8.46e-01	0	57	104	0	62	12289
2026-01-05 13:47:54.96	32.74	51.21	-45.5	-56.6	3.8	8.46e-01	0	57	104	0	61	12967
2026-01-05 13:47:55.97	32.18	51.01	-45.5	-56.5	3.8	8.46e-01	0	57	104	0	61	12930
2026-01-05 13:47:56.98	31.62	50.82	-45.5	-56.5	3.8	8.46e-01	0	57	104	0	61	12936
2026-01-05 13:47:58.00	31.07	50.62	-45.5	-56.5	3.8	8.47e-01	0	57	104	0	61	12954
2026-01-05 13:47:59.01	30.53	50.43	-45.5	-56.6	3.8	8.47e-01	0	57	104	0	61	12990
2026-01-05 13:48:00.02	30.00	50.23	-45.4	-56.5	3.8	8.46e-01	0	57	104	0	61	12891
2026-01-05 13:48:01.03	29.48	50.03	-45.4	-56.5	3.8	8.46e-01	0	57	104	0	61	12875
2026-01-05 13:48:02.04	28.96	49.82	-45.4	-56.5	3.8	8.46e-01	0	57	104	0	61	12873
2026-01-05 13:48:03.05	28.45	49.62	-45.4	-56.5	3.8	8.48e-01	0	57	104	0	61	12836
2026-01-05 13:48:04.06	27.95	49.41	-45.4	-56.5	3.8	8.47e-01	0	57	104	0	61	12889
2026-01-05 13:48:05.07	27.45	49.21	-45.4	-56.5	3.8	8.46e-01	0	57	104	0	61	12919
2026-01-05 13:48:06.08	26.96	49.00	-45.4	-56.6	3.8	8.46e-01	0	57	104	0	61	12966
2026-01-05 13:48:07.10	26.48	48.79	-45.5	-56.6	3.8	8.45e-01	0	57	104	0	61	12976
2026-01-05 13:48:08.11	26.00	48.58	-45.5	-56.5	3.8	8.46e-01	0	57	104	0	61	12926
2026-01-05 13:48:09.12	25.53	48.37	-45.4	-56.4	3.8	8.45e-01	0	57	104	0	61	12763
2026-01-05 13:48:10.13	25.07	48.15	-45.4	-56.3	3.8	8.46e-01	0	57	104	0	61	12584
2026-01-05 13:48:11.14	24.61	47.94	-45.4	-56.2	3.8	8.45e-01	0	57	104	0	61	12504
2026-01-05 13:48:12.15	24.16	47.73	-45.4	-56.2	3.8	8.46e-01	0	57	104	0	61	12516
2026-01-05 13:48:13.16	23.71	47.51	-45.4	-56.3	3.8	8.46e-01	0	57	104	0	61	12612
2026-01-05 13:48:14.18	23.27	47.29	-45.4	-56.4	3.8	8.46e-01	0	57	104	0	61	12778
2026-01-05 13:48:15.19	22.84	47.08	-45.4	-56.4	3.8	8.46e-01	0	57	104	0	61	12798
2026-01-05 13:48:16.20	22.41	46.86	-45.4	-56.4	3.8	8.46e-01	0	57	104	0	61	12686
2026-01-05 13:48:17.21	21.99	46.64	-45.4	-56.4	3.8	8.46e-01	0	57	104	0	61	12772
2026-01-05 13:48:18.22	21.58	46.42	-45.4	-56.4	3.8	8.47e-01	0	57	104	0	61	12750
2026-01-05 13:48:19.23	21.17	46.20	-45.4	-56.5	3.8	8.45e-01	0	57	104	0	61	12822
2026-01-05 13:48:20.24	20.77	45.98	-45.4	-56.5	3.8	8.46e-01	0	57	104	0	61	12842
2026-01-05 13:48:21.26	20.36	45.76	-45.4	-56.3	3.8	8.47e-01	0	57	104	0	61	12575
2026-01-05 13:48:22.27	19.97	45.54	-45.4	-56.2	3.8	8.46e-01	0	57	104	0	61	12391
2026-01-05 13:48:23.28	19.59	45.32	-45.4	-56.1	3.8	8.46e-01	0	57	104	0	61	12349
2026-01-05 13:48:24.29	19.21	45.10	-45.4	-56.3	3.8	8.46e-01	0	57	104	0	61	12660
2026-01-05 13:48:25.30	18.83	44.88	-45.4	-56.5	3.8	8.46e-01	0	57	104	0	61	12926
2026-01-05 13:48:26.31	18.46	44.66	-45.4	-56.5	3.8	8.47e-01	0	57	104	0	61	12955
2026-01-05 13:48:27.32	18.10	44.44	-45.4	-56.1	3.8	8.46e-01	0	57	104	0	61	12363
2026-01-05 13:48:28.33	17.74	44.22	-45.3	-55.5	3.8	8.46e-01	0	57	104	0	61	11458
2026-01-05 13:48:29.34	17.38	43.99	-45.2	-54.8	3.9	8.45e-01	0	57	104	0	61	10559
2026-01-05 13:48:30.35	17.03	43.77	-45.1	-54.2	3.9	8.46e-01	0	57	104	0	61	9912
2026-01-05 13:48:31.37	16.68	43.55	-45.0	-53.1	4.2	8.44e-01	0	57	104	0	61	8664
2026-01-05 13:48:32.38	16.34	43.33	-44.7	-51.6	4.7	8.14e-01	0	57	0	0	60	7767
2026-01-05 13:48:33.39	16.01	43.11	-44.5	-50.9	5.0	7.74e-01	0	57	0	0	60	7195
2026-01-05 13:48:34.40	15.67	42.89	-44.5	-50.9	5.0	7.68e-01	0	57	0	0	60	7135
2026-01-05 13:48:35.41	15.35	42.67	-44.0	-48.9	6.2	4.45e-01	0	57	0	1048576	59	6054
2026-01-05 13:48:36.42	15.03	42.45	-41.9	-44.9	10.1	2.77e-02	0	57	0	8388608	54	5069
2026-01-05 13:48:37.43	14.71	42.23	-39.1	-40.9	14.3	1.14e-05	0	57	0	15728640	49	4253
2026-01-05 13:48:38.44	14.39	42.01	-36.7	-38.0	17.0	0.00e+00	0	57	0	23068672	44	4088
2026-01-05 13:48:39.45	14.09	41.79	-35.0	-36.1	18.7	0.00e+00	0	57	0	30408704	41	3908
2026-01-05 13:48:40.46	13.78	41.57	-34.2	-35.3	19.7	0.00e+00	0	57	0	37748736	39	3965
2026-01-05 13:48:41.48	13.48	41.35	-35.6	-36.8	18.1	0.00e+00	0	57	0	45088768	40	4468
2026-01-05 13:48:42.48	13.18	41.14	-34.5	-35.6	19.2	0.00e+00	0	57	0	52428800	40	3898
2026-01-05 13:48:43.49	12.89	40.92	-36.3	-37.5	17.4	0.00e+00	0	57	0	59768832	43	4071
2026-01-05 13:48:44.50	12.60	40.70	-34.5	-35.6	19.3	0.00e+00	0	57	0	67108864	40	3888
2026-01-05 13:48:45.51	12.32	40.49	-39.2	-40.9	14.2	5.08e-03	0	57	0	74448896	49	4256
2026-01-05 13:48:46.52	12.04	40.27	-34.8	-35.9	18.9	0.00e+00	0	57	0	81788928	40	4013
2026-01-05 13:48:47.53	11.76	40.05	-34.6	-35.7	19.1	0.00e+00	0	57	0	89128960	40	3954
2026-01-05 13:48:48.54	11.49	39.84	-34.5	-35.6	19.4	0.00e+00	0	57	0	96468992	39	4102
2026-01-05 13:48:49.55	11.22	39.63	-34.0	-35.1	19.8	0.00e+00	0	57	0	103809024	39	3871
2026-01-05 13:48:50.56	10.95	39.41	-33.8	-34.8	20.1	0.00e+00	0	57	0	110100480	38	3980
2026-01-05 13:48:51.58	10.68	39.20	-33.8	-34.8	20.1	0.00e+00	0	57	0	118489088	38	3976
2026-01-05 13:48:52.59	10.43	38.98	-33.8	-34.8	20.0	0.00e+00	0	57	0	125829120	38	3988
2026-01-05 13:48:53.59	10.17	38.78	-33.9	-34.9	20.0	0.00e+00	0	57	0	132120576	38	4039
2026-01-05 13:48:54.60	9.92	38.56	-33.9	-34.9	20.0	0.00e+00	0	57	0	139460608	38	4025
2026-01-05 13:48:55.61	9.67	38.35	-33.9	-34.9	20.0	0.00e+00	0	57	0	146800640	38	4025
2026-01-05 13:48:56.62	9.42	38.14	-33.8	-34.9	20.0	0.00e+00	0	57	0	154140672	38	4011
2026-01-05 13:48:57.63	9.18	37.94	-33.9	-34.9	19.8	0.00e+00	0	57	0	161480704	38	4025
2026-01-05 13:48:58.64	8.94	37.73	-33.9	-35.0	19.8	0.00e+00	0	57	0	168820736	38	4054
2026-01-05 13:48:59.65	8.71	37.52	-34.0	-35.1	19.8	0.00e+00	0	57	0	176160768	38	4119
2026-01-05 13:49:00.66	8.47	37.31	-34.1	-35.2	19.5	0.00e+00	0	57	0	183500800	38	4163
2026-01-05 13:49:01.67	8.24	37.11	-34.2	-35.2	19.6	1.10e-06	0	57	0	190840832	38	4185
2026-01-05 13:49:02.68	8.01	36.90	-34.1	-35.2	19.7	0.00e+00	0	57	0	198180864	38	4164
2026-01-05 13:49:03.69	7.79	36.70	-34.1	-35.1	19.8	0.00e+00	0	57	0	205520896	38	4125
2026-01-05 13:49:04.70	7.57	36.49	-33.7	-34.8	20.1	0.00e+00	0	57	0	212860928	38	3963
2026-01-05 13:49:05.71	7.35	36.29	-33.7	-34.7	20.1	0.00e+00	0	57	0	220200960	38	3934
2026-01-05 13:49:06.72	7.13	36.09	-33.6	-34.6	20.2	1.10e-06	0	57	0	227540992	38	3901
2026-01-05 13:49:07.73	6.92	35.89	-33.6	-34.6	20.2	0.00e+00	0	57	0	234881024	38	3909
2026-01-05 13:49:08.74	6.71	35.69	-33.7	-34.7	20.1	0.00e+00	0	57	0	242221056	38	3935
2026-01-05 13:49:09.75	6.50	35.49	-33.7	-34.8	20.1	0.00e+00	0	57	0	249561088	38	3967
2026-01-05 13:49:10.76	6.29	35.29	-33.7	-34.8	20.1	0.00e+00	0	57	0	255852544	38	3963
2026-01-05 13:49:11.77	6.09	35.09	-33.6	-34.6	20.2	0.00e+00	0	57	0	263192576	38	3890
2026-01-05 13:49:12.78	5.89	34.89	-33.3	-34.3	20.5	0.00e+00	0	57	0	271581184	37	3998
2026-01-05 13:49:13.79	5.69	34.70	-33.3	-34.2	20.5	0.00e+00	0	57	0	277872640	37	3954
2026-01-05 13:49:14.80	5.49	34.50	-33.2	-34.2	20.6	0.00e+00	0	57	0	285212672	37	3928
2026-01-05 13:49:15.81	5.30	34.31	-33.3	-34.3	20.4	0.00e+00	0	57	0	292552704	37	3994
2026-01-05 13:49:16.82	5.11	34.11	-33.6	-34.6	20.2	0.00e+00	0	57	0	299892736	37	4112
2026-01-05 13:49:17.83	4.92	33.92	-33.7	-34.8	19.8	0.00e+00	0	57	0	307232768	37	4202
2026-01-05 13:49:18.85	4.73	33.72	-33.9	-35.0	19.8	0.00e+00	0	57	0	314572800	37	4316
2026-01-05 13:49:19.86	4.55	33.53	-34.0	-35.1	19.7	1.10e-06	0	57	0	321912832	37	4363
2026-01-05 13:49:20.87	4.36	33.34	-34.0	-35.1	19.6	1.10e-06	0	57	0	329252864	37	4374
2026-01-05 13:49:21.88	4.18	33.15	-34.0	-35.1	19.7	0.00e+00	0	57	0	336592896	37	4363
2026-01-05 13:49:22.89	4.01	32.96	-33.9	-35.0	19.8	0.00e+00	0	57	0	343932928	37	4304
2026-01-05 13:49:23.90	3.83	32.78	-33.9	-35.0	19.8	6.80e-06	0	57	0	351272960	37	4297
2026-01-05 13:49:24.91	3.66	32.59	-34.0	-35.0	19.7	6.80e-06	0	57	0	358612992	37	4317
2026-01-05 13:49:25.92	3.48	32.40	-33.8	-34.8	19.9	0.00e+00	0	57	0	365953024	37	4231
2026-01-05 13:49:26.93	3.31	32.22	-33.8	-34.8	19.9	0.00e+00	0	57	0	373293056	37	4215
2026-01-05 13:49:27.94	3.15	32.03	-33.6	-34.7	20.1	0.00e+00	0	57	0	380633088	37	4149
2026-01-05 13:49:28.96	2.98	31.85	-33.5	-34.5	20.1	0.00e+00	0	57	0	387973120	37	4096
2026-01-05 13:49:29.97	2.81	31.67	-33.4	-34.4	20.3	0.00e+00	0	57	0	395313152	37	4034
2026-01-05 13:49:30.98	2.65	31.48	-33.4	-34.4	20.3	0.00e+00	0	57	0	402653184	37	4019
2026-01-05 13:49:31.99	2.49	31.30	-33.4	-34.3	20.3	0.00e+00	0	57	0	409993216	37	4002
2026-01-05 13:49:33.00	2.33	31.12	-33.4	-34.4	20.3	0.00e+00	0	57	0	417333248	37	4030
2026-01-05 13:49:34.01	2.18	30.94	-33.4	-34.4	20.3	0.00e+00	0	57	0	424673280	37	4043
2026-01-05 13:49:35.02	2.02	30.77	-33.5	-34.5	20.2	0.00e+00	0	57	0	430964736	37	4070
2026-01-05 13:49:36.03	1.87	30.59	-33.5	-34.5	20.1	0.00e+00	0	57	0	439353344	37	4098
2026-01-05 13:49:37.04	1.72	30.41	-33.5	-34.6	20.1	0.00e+00	0	57	0	446693376	37	4102
2026-01-05 13:49:38.04	1.57	30.24	-33.5	-34.5	20.1	0.00e+00	0	57	0	452984832	37	4095
2026-01-05 13:49:39.05	1.42	30.06	-33.6	-34.6	20.1	0.00e+00	0	57	0	460324864	37	4124
2026-01-05 13:49:40.06	1.27	29.89	-33.6	-34.6	20.0	0.00e+00	0	57	0	467664896	37	4126
2026-01-05 13:49:41.07	1.13	29.71	-33.6	-34.7	20.0	0.00e+00	0	57	0	475004928	37	4148
2026-01-05 13:49:42.08	0.99	29.54	-33.7	-34.7	19.9	0.00e+00	0	57	0	482344960	37	4189
2026-01-05 13:49:43.09	0.84	29.37	-33.8	-34.8	19.9	0.00e+00	0	57	0	489684992	37	4212
2026-01-05 13:49:44.11	0.70	29.20	-33.8	-34.9	19.8	0.00e+00	0	57	0	497025024	37	4251
2026-01-05 13:49:45.12	0.56	29.03	-33.9	-34.9	19.8	0.00e+00	0	57	0	504365056	37	4274
2026-01-05 13:49:46.13	0.43	28.86	-33.9	-35.0	19.7	0.00e+00	0	57	0	511705088	37	4305
2026-01-05 13:49:47.13	0.29	28.69	-34.0	-35.0	19.6	0.00e+00	0	57	0	519045120	37	4337
2026-01-05 13:49:48.15	0.16	28.52	-34.1	-35.2	19.5	0.00e+00	0	57	0	526385152	37	4399
2026-01-05 13:49:49.16	0.02	28.36	-34.2	-35.2	19.3	0.00e+00	0	57	0	533725184	38	4186
2026-01-05 13:49:50.17	359.89	28.19	-34.2	-35.3	19.4	0.00e+00	0	57	0	541065216	38	4204
2026-01-05 13:49:51.18	359.76	28.03	-34.3	-35.4	19.3	0.00e+00	0	57	0	548405248	38	4260
2026-01-05 13:49:52.19	359.63	27.86	-34.4	-35.5	19.2	0.00e+00	0	57	0	555745280	38	4306
2026-01-05 13:49:53.20	359.51	27.70	-34.3	-35.4	19.3	0.00e+00	0	57	0	563085312	38	4255
2026-01-05 13:49:54.20	359.38	27.54	-34.3	-35.3	19.3	0.00e+00	0	57	0	570425344	38	4242
2026-01-05 13:49:55.21	359.26	27.38	-34.2	-35.3	19.3	0.00e+00	0	57	0	576716800	38	4207
2026-01-05 13:49:56.22	359.13	27.22	-34.2	-35.2	19.4	0.00e+00	0	57	0	584056832	38	4189
2026-01-05 13:49:57.23	359.01	27.06	-34.1	-35.1	19.5	0.00e+00	0	57	0	592445440	38	4141
2026-01-05 13:49:58.24	358.89	26.90	-34.1	-35.1	19.5	0.00e+00	0	57	0	598736896	38	4140
2026-01-05 13:49:59.25	358.77	26.74	-34.0	-35.1	19.5	0.00e+00	0	57	0	606076928	38	4103
2026-01-05 13:50:00.26	358.65	26.58	-34.0	-35.0	19.6	0.00e+00	0	57	0	613416960	38	4081
2026-01-05 13:50:01.27	358.53	26.42	-34.0	-35.0	19.6	0.00e+00	0	57	0	620756992	38	4087
2026-01-05 13:50:02.28	358.42	26.27	-34.0	-35.1	19.5	0.00e+00	0	57	0	628097024	38	4111
2026-01-05 13:50:03.29	358.30	26.11	-34.1	-35.1	19.5	0.00e+00	0	57	0	635437056	38	4128
2026-01-05 13:50:04.30	358.19	25.96	-34.1	-35.2	19.4	0.00e+00	0	57	0	642777088	38	4171
2026-01-05 13:50:05.31	358.08	25.80	-34.2	-35.3	19.3	0.00e+00	0	57	0	650117120	38	4207
2026-01-05 13:50:06.32	357.97	25.65	-34.2	-35.3	19.3	0.00e+00	0	57	0	657457152	38	4232
2026-01-05 13:50:07.32	357.86	25.50	-34.2	-35.3	19.3	0.00e+00	0	57	0	664797184	38	4219
2026-01-05 13:50:08.34	357.75	25.35	-34.4	-35.5	19.0	0.00e+00	0	57	0	672137216	38	4305
2026-01-05 13:50:09.35	357.64	25.20	-34.3	-35.4	19.2	0.00e+00	0	57	0	679477248	38	4277
2026-01-05 13:50:10.36	357.53	25.05	-34.3	-35.4	19.2	0.00e+00	0	57	0	686817280	38	4246
2026-01-05 13:50:11.36	357.42	24.90	-34.3	-35.4	19.2	0.00e+00	0	57	0	694157312	38	4248
2026-01-05 13:50:12.37	357.32	24.75	-34.3	-35.4	19.2	0.00e+00	0	57	0	701497344	38	4264
2026-01-05 13:50:13.38	357.22	24.60	-34.3	-35.4	19.2	0.00e+00	0	57	0	708837376	38	4248
2026-01-05 13:50:14.39	357.11	24.45	-34.2	-35.3	19.2	0.00e+00	0	57	0	716177408	38	4227
2026-01-05 13:50:15.40	357.01	24.31	-34.3	-35.4	19.2	0.00e+00	0	57	0	723517440	38	4246
2026-01-05 13:50:16.41	356.91	24.16	-34.3	-35.4	19.2	0.00e+00	0	57	0	729808896	38	4251
2026-01-05 13:50:17.42	356.81	24.02	-34.3	-35.4	19.2	0.00e+00	0	57	0	737148928	38	4249
2026-01-05 13:50:18.43	356.71	23.87	-34.3	-35.4	19.1	0.00e+00	0	57	0	745537536	38	4246
2026-01-05 13:50:19.44	356.61	23.73	-34.4	-35.5	19.0	0.00e+00	0	57	0	751828992	38	4316
2026-01-05 13:50:20.45	356.51	23.59	-34.4	-35.5	19.0	0.00e+00	0	57	0	759169024	38	4306
2026-01-05 13:50:21.46	356.42	23.44	-34.4	-35.5	18.9	0.00e+00	0	57	0	766509056	38	4319
2026-01-05 13:50:22.47	356.32	23.30	-34.4	-35.5	18.9	0.00e+00	0	57	0	773849088	38	4305
2026-01-05 13:50:23.48	356.23	23.16	-34.2	-35.3	19.1	0.00e+00	0	57	0	781189120	38	4222
2026-01-05 13:50:24.50	356.13	23.02	-34.2	-35.3	19.1	0.00e+00	0	57	0	788529152	38	4211
2026-01-05 13:50:25.51	356.04	22.88	-34.2	-35.3	19.1	0.00e+00	0	57	0	795869184	38	4201
2026-01-05 13:50:26.52	355.95	22.74	-34.2	-35.3	19.1	0.00e+00	0	57	0	803209216	38	4212
2026-01-05 13:50:27.53	355.86	22.60	-34.3	-35.3	18.9	0.00e+00	0	57	0	810549248	38	4241
2026-01-05 13:50:28.54	355.77	22.47	-34.2	-35.3	18.9	0.00e+00	0	57	0	817889280	38	4237
2026-01-05 13:50:29.55	355.68	22.33	-34.2	-35.3	18.8	0.00e+00	0	57	0	825229312	38	4229
2026-01-05 13:50:30.56	355.59	22.19	-34.1	-35.2	18.8	0.00e+00	0	57	0	832569344	38	4152
2026-01-05 13:50:31.56	355.50	22.06	-34.2	-35.3	18.7	0.00e+00	0	57	0	839909376	38	4231
2026-01-05 13:50:32.57	355.41	21.92	-34.4	-35.6	18.3	0.00e+00	0	57	0	847249408	38	4372
2026-01-05 13:50:33.59	355.33	21.79	-34.4	-35.6	18.3	0.00e+00	0	57	0	854589440	38	4361
2026-01-05 13:50:34.60	355.24	21.65	-34.2	-35.3	18.5	0.00e+00	0	57	0	861929472	38	4237
2026-01-05 13:50:35.60	355.16	21.52	-34.1	-35.2	18.7	0.00e+00	0	57	0	869269504	38	4173
2026-01-05 13:50:36.61	355.07	21.39	-34.1	-35.3	18.6	0.00e+00	0	57	0	875560960	38	4202
2026-01-05 13:50:37.62	354.99	21.26	-34.2	-35.4	18.4	0.00e+00	0	57	0	883949568	38	4259
2026-01-05 13:50:38.63	354.91	21.13	-34.4	-35.6	18.2	0.00e+00	0	57	0	891289600	38	4349
2026-01-05 13:50:39.64	354.83	21.00	-34.6	-35.9	17.8	0.00e+00	0	57	0	897581056	38	4494
2026-01-05 13:50:40.65	354.74	20.87	-35.2	-36.5	17.1	0.00e+00	0	57	0	904921088	39	4561
2026-01-05 13:50:41.66	354.66	20.74	-35.7	-37.1	16.2	0.00e+00	0	57	0	912261120	40	4646
2026-01-05 13:50:42.67	354.58	20.61	-36.6	-38.3	14.9	0.00e+00	0	57	0	919601152	42	4707
2026-01-05 13:50:43.68	354.50	20.48	-37.7	-39.8	13.2	8.00e-06	0	57	0	926941184	44	4992
2026-01-05 13:50:44.69	354.43	20.35	-38.7	-41.3	11.4	3.70e-04	0	57	0	934281216	46	5314
2026-01-05 13:50:45.70	354.35	20.23	-39.7	-43.1	9.3	1.20e-02	0	57	0	941621248	48	5794
2026-01-05 13:50:46.71	354.27	20.10	-40.4	-44.8	7.4	8.15e-02	0	57	0	948961280	50	6303
2026-01-05 13:50:47.72	354.20	19.97	-40.9	-46.6	5.6	4.14e-01	0	57	0	956301312	51	7311
2026-01-05 13:50:48.73	354.12	19.85	-41.2	-48.3	4.6	7.96e-01	0	57	0	957349888	51	8942
2026-01-05 13:50:49.74	354.04	19.72	-41.2	-49.6	4.1	8.40e-01	0	57	0	957349888	52	9795
2026-01-05 13:50:50.75	353.97	19.60	-41.2	-50.8	3.8	8.45e-01	0	57	104	957349888	52	11213
2026-01-05 13:50:51.76	353.90	19.48	-41.2	-51.4	3.8	8.45e-01	0	57	104	957349888	52	12087
2026-01-05 13:50:52.77	353.82	19.35	-41.2	-51.7	3.8	8.47e-01	0	57	104	957349888	52	12433
2026-01-05 13:50:53.78	353.75	19.23	-41.1	-51.9	3.8	8.46e-01	0	57	104	957349888	52	12743
2026-01-05 13:50:54.79	353.68	19.11	-41.0	-52.0	3.8	8.46e-01	0	57	104	957349888	52	12814
2026-01-05 13:50:55.80	353.61	18.99	-41.0	-52.0	3.8	8.47e-01	0	57	104	957349888	52	12850
2026-01-05 13:50:56.82	353.54	18.87	-40.9	-51.9	3.8	8.46e-01	0	57	104	957349888	52	12781
2026-01-05 13:50:57.83	353.47	18.75	-40.9	-52.0	3.8	8.46e-01	0	57	104	957349888	52	12870
2026-01-05 13:50:58.83	353.40	18.63	-40.8	-52.0	3.8	8.46e-01	0	57	104	957349888	52	12823
2026-01-05 13:50:59.84	353.33	18.51	-41.0	-52.1	3.8	8.45e-01	0	57	104	957349888	52	13004
2026-01-05 13:51:00.85	353.26	18.39	-40.8	-52.0	3.8	8.45e-01	0	57	104	957349888	52	12866
2026-01-05 13:51:01.86	353.19	18.27	-40.9	-52.0	3.8	8.45e-01	0	57	104	957349888	52	12877
2026-01-05 13:51:02.87	353.12	18.16	-40.8	-51.9	3.8	8.46e-01	0	57	104	957349888	52	12705
2026-01-05 13:51:03.88	353.06	18.04	-40.8	-51.9	3.8	8.46e-01	0	57	104	957349888	52	12772
2026-01-05 13:51:04.89	352.99	17.92	-40.9	-52.0	3.8	8.46e-01	0	57	104	957349888	52	12811
2026-01-05 13:51:05.90	352.93	17.81	-40.7	-51.8	3.8	8.47e-01	0	57	104	957349888	52	12653
2026-01-05 13:51:06.91	352.86	17.69	-40.5	-52.1	3.8	8.46e-01	0	57	104	957349888	51	13775
2026-01-05 13:51:07.92	352.80	17.58	-41.0	-52.0	3.8	8.46e-01	0	57	104	957349888	51	13615
2026-01-05 13:51:08.93	352.73	17.46	-40.5	-52.1	3.8	8.46e-01	0	57	104	957349888	51	13788
2026-01-05 13:51:09.94	352.67	17.35	-41.0	-52.0	3.8	8.46e-01	0	57	104	957349888	51	13711
2026-01-05 13:51:10.95	352.61	17.23	-41.1	-52.1	3.8	8.46e-01	0	57	104	957349888	51	13850
2026-01-05 13:51:11.96	352.54	17.12	-40.2	-52.0	3.8	8.47e-01	0	57	104	957349888	51	13612
2026-01-05 13:51:12.97	352.48	17.01	-40.9	-52.1	3.8	8.46e-01	0	57	104	957349888	51	13775
2026-01-05 13:51:13.98	352.42	16.90	-40.1	-52.0	3.8	8.46e-01	0	57	104	957349888	51	13679
2026-01-05 13:51:14.99	352.36	16.78	-40.6	-52.1	3.8	8.45e-01	0	57	104	957349888	51	13729
2026-01-05 13:51:16.00	352.30	16.67	-40.8	-52.1	3.8	8.47e-01	0	57	104	957349888	51	13777
2026-01-05 13:51:17.01	352.24	16.56	-40.7	-52.0	3.8	8.46e-01	0	57	104	957349888	51	13671
2026-01-05 13:51:18.02	352.18	16.45	-40.7	-52.1	3.8	8.46e-01	0	57	104	957349888	51	13779
2026-01-05 13:51:19.03	352.12	16.34	-40.2	-52.0	3.8	8.46e-01	0	57	104	957349888	51	13710
2026-01-05 13:51:20.04	352.06	16.23	-40.5	-52.0	3.8	8.47e-01	0	57	104	957349888	51	13723
2026-01-05 13:51:21.05	352.00	16.13	-40.1	-52.0	3.8	8.47e-01	0	57	104	957349888	51	13668
2026-01-05 13:51:22.06	351.94	16.02	-40.7	-52.1	3.8	8.45e-01	0	57	104	957349888	51	13749
2026-01-05 13:51:23.07	351.89	15.91	-40.9	-52.0	3.8	8.47e-01	0	57	104	957349888	51	13625
2026-01-05 13:51:24.08	351.83	15.80	-40.5	-52.1	3.8	8.47e-01	0	57	104	957349888	51	13787
2026-01-05 13:51:25.09	351.77	15.69	-40.9	-52.0	3.8	8.47e-01	0	57	104	957349888	51	13595
2026-01-05 13:51:26.10	351.72	15.59	-40.4	-52.1	3.8	8.46e-01	0	57	104	957349888	51	13776
2026-01-05 13:51:27.11	351.66	15.48	-40.5	-52.1	3.8	8.47e-01	0	57	104	957349888	51	13774
2026-01-05 13:51:28.12	351.60	15.38	-41.0	-52.0	3.8	8.46e-01	0	57	104	957349888	51	13638
2026-01-05 13:51:29.14	351.55	15.27	-40.7	-52.1	3.8	8.47e-01	0	57	104	957349888	51	13869
2026-01-05 13:51:30.15	351.49	15.17	-41.0	-52.0	3.8	8.45e-01	0	57	104	957349888	51	13634
2026-01-05 13:51:31.16	351.44	15.06	-41.0	-52.0	3.8	8.47e-01	0	57	104	957349888	51	13705
2026-01-05 13:51:32.17	351.39	14.96	-40.8	-52.0	3.8	8.46e-01	0	57	104	957349888	51	13643
2026-01-05 13:51:33.18	351.33	14.85	-41.0	-52.1	3.8	8.46e-01	0	57	104	957349888	51	13750
2026-01-05 13:51:34.19	351.28	14.75	-40.8	-52.0	3.8	8.47e-01	0	57	104	957349888	51	13596
2026-01-05 13:51:35.20	351.23	14.65	-41.1	-52.2	3.8	8.47e-01	0	57	104	957349888	51	13997
2026-01-05 13:51:36.21	351.18	14.55	-40.9	-52.0	3.8	8.47e-01	0	57	104	957349888	51	13606
2026-01-05 13:51:37.22	351.12	14.44	-41.0	-52.2	3.8	8.47e-01	0	57	104	957349888	51	13903
2026-01-05 13:51:38.23	351.07	14.34	-40.9	-51.9	3.8	8.47e-01	0	57	104	957349888	51	13562
2026-01-05 13:51:39.24	351.02	14.24	-41.2	-52.2	3.8	8.46e-01	0	57	104	957349888	51	13949
2026-01-05 13:51:40.25	350.97	14.14	-40.9	-52.0	3.8	8.46e-01	0	57	104	957349888	51	13606
2026-01-05 13:51:41.26	350.92	14.04	-41.1	-52.2	3.8	8.46e-01	0	57	104	957349888	51	13965
2026-01-05 13:51:42.27	350.87	13.94	-40.9	-52.0	3.8	8.46e-01	0	57	104	957349888	51	13640
2026-01-05 13:51:43.28	350.82	13.84	-41.0	-52.1	3.8	8.46e-01	0	57	104	957349888	51	13857
2026-01-05 13:51:44.29	350.77	13.74	-41.0	-52.0	3.8	8.45e-01	0	57	104	957349888	51	13574
2026-01-05 13:51:45.30	350.72	13.64	-40.9	-52.2	3.8	8.45e-01	0	57	104	957349888	51	13922
2026-01-05 13:51:46.31	350.68	13.54	-40.9	-52.0	3.8	8.44e-01	0	57	104	957349888	51	13574
2026-01-05 13:51:47.32	350.63	13.45	-40.9	-52.0	3.8	8.46e-01	0	57	104	957349888	51	13626
2026-01-05 13:51:48.33	350.58	13.35	-41.1	-52.1	3.8	8.46e-01	0	57	104	957349888	51	13863
2026-01-05 13:51:49.34	350.53	13.25	-40.9	-52.0	3.8	8.45e-01	0	57	104	957349888	51	13608
2026-01-05 13:51:50.35	350.49	13.15	-41.1	-52.1	3.8	8.46e-01	0	57	104	957349888	51	13864
2026-01-05 13:51:51.36	350.44	13.06	-41.0	-52.1	3.8	8.46e-01	0	57	104	957349888	51	13850
2026-01-05 13:51:52.37	350.39	12.96	-40.9	-52.0	3.8	8.46e-01	0	57	104	957349888	51	13658
2026-01-05 13:51:53.38	350.35	12.87	-40.9	-52.1	3.8	8.46e-01	0	57	104	957349888	51	13761
2026-01-05 13:51:54.39	350.30	12.77	-41.0	-52.0	3.8	8.46e-01	0	57	104	957349888	51	13719
2026-01-05 13:51:55.40	350.26	12.68	-40.8	-51.9	3.8	8.46e-01	0	57	104	957349888	51	13564
2026-01-05 13:51:56.41	350.21	12.58	-40.9	-52.0	3.8	8.45e-01	0	57	104	957349888	51	13701
2026-01-05 13:51:57.42	350.17	12.49	-40.9	-51.9	3.8	8.46e-01	0	57	104	957349888	51	13533
2026-01-05 13:51:58.43	350.12	12.39	-40.9	-52.1	3.8	8.46e-01	0	57	104	957349888	51	13750
2026-01-05 13:51:59.44	350.08	12.30	-40.7	-51.9	3.8	8.46e-01	0	58	104	957349888	51	13510
2026-01-05 13:52:00.45	350.03	12.20	-40.9	-52.0	3.8	8.46e-01	0	57	104	957349888	51	13686
2026-01-05 13:52:01.46	349.99	12.11	-40.8	-51.9	3.8	8.46e-01	0	57	104	957349888	51	13508
2026-01-05 13:52:02.46	349.95	12.02	-40.9	-52.1	3.8	8.47e-01	0	57	104	957349888	51	13735
2026-01-05 13:52:03.48	349.90	11.93	-40.9	-52.0	3.8	8.46e-01	0	57	104	957349888	51	13649
2026-01-05 13:52:04.49	349.86	11.83	-40.9	-51.9	3.8	8.46e-01	0	57	104	957349888	51	13567
2026-01-05 13:52:05.49	349.82	11.74	-41.0	-52.0	3.8	8.45e-01	0	57	104	957349888	51	13629
2026-01-05 13:52:06.50	349.78	11.65	-40.7	-51.9	3.8	8.46e-01	0	57	104	957349888	51	13430
2026-01-05 13:52:07.52	349.73	11.56	-41.0	-52.0	3.8	8.47e-01	0	57	104	957349888	51	13608
2026-01-05 13:52:08.53	349.69	11.47	-41.0	-52.0	3.8	8.47e-01	0	57	104	957349888	51	13615
2026-01-05 13:52:09.54	349.65	11.38	-40.9	-51.9	3.8	8.47e-01	0	57	104	957349888	51	13564
2026-01-05 13:52:10.55	349.61	11.29	-40.7	-51.8	3.8	8.46e-01	0	58	104	957349888	51	13277
2026-01-05 13:52:11.56	349.57	11.20	-40.9	-51.9	3.8	8.46e-01	0	57	104	957349888	51	13506
2026-01-05 13:52:12.57	349.53	11.11	-40.9	-51.9	3.8	8.45e-01	0	57	104	957349888	51	13468
2026-01-05 13:52:13.58	349.49	11.02	-40.9	-51.9	3.8	8.45e-01	0	57	104	957349888	51	13516
2026-01-05 13:52:14.59	349.45	10.93	-41.0	-52.0	3.8	8.46e-01	0	58	104	957349888	51	13632
2026-01-05 13:52:15.60	349.41	10.84	-40.8	-51.8	3.8	8.47e-01	0	57	104	957349888	51	13280
2026-01-05 13:52:16.60	349.37	10.76	-40.9	-51.9	3.8	8.47e-01	0	58	104	957349888	51	13480
2026-01-05 13:52:17.61	349.33	10.67	-40.8	-51.8	3.8	8.46e-01	0	57	104	957349888	51	13374
2026-01-05 13:52:18.62	349.29	10.58	-41.0	-51.9	3.8	8.46e-01	0	57	104	957349888	51	13543
2026-01-05 13:52:19.63	349.25	10.49	-40.9	-51.9	3.8	8.46e-01	0	57	104	957349888	51	13433
2026-01-05 13:52:20.64	349.22	10.41	-41.1	-52.0	3.8	8.46e-01	0	57	104	957349888	51	13670
2026-01-05 13:52:21.65	349.18	10.32	-40.8	-51.8	3.8	8.46e-01	0	57	104	957349888	52	12606
2026-01-05 13:52:22.66	349.14	10.23	-41.1	-52.0	3.8	8.45e-01	0	57	104	957349888	52	12950
2026-01-05 13:52:23.67	349.10	10.15	-40.8	-51.8	3.8	8.45e-01	0	57	104	957349888	52	12554
2026-01-05 13:52:24.68	349.06	10.06	-41.1	-52.1	3.8	8.46e-01	0	57	104	957349888	52	12967
2026-01-05 13:52:25.69	349.03	9.97	-40.9	-51.8	3.8	8.46e-01	0	57	104	957349888	52	12637
2026-01-05 13:52:26.70	348.99	9.89	-41.2	-52.1	3.8	8.46e-01	0	57	104	957349888	52	13072
2026-01-05 13:52:27.71	348.95	9.80	-40.9	-51.9	3.8	8.46e-01	0	57	104	957349888	52	12718
2026-01-05 13:52:28.72	348.92	9.72	-40.8	-51.8	3.8	8.47e-01	0	57	104	957349888	52	12562
2026-01-05 13:52:29.74	348.88	9.63	-40.8	-51.8	3.8	8.45e-01	0	58	104	957349888	52	12533
2026-01-05 13:52:30.75	348.85	9.55	-40.8	-51.8	3.8	8.47e-01	0	57	104	957349888	52	12592
2026-01-05 13:52:31.76	348.81	9.47	-40.8	-51.8	3.8	8.46e-01	0	57	104	957349888	52	12589
2026-01-05 13:52:32.76	348.77	9.38	-40.9	-51.8	3.8	8.45e-01	0	57	104	957349888	52	12650
2026-01-05 13:52:33.77	348.74	9.30	-41.3	-52.2	3.8	8.46e-01	0	57	104	957349888	52	13251
2026-01-05 13:52:34.78	348.70	9.22	-41.4	-52.3	3.8	8.46e-01	0	58	104	957349888	52	13351
2026-01-05 13:52:35.79	348.67	9.13	-41.0	-51.9	3.8	8.45e-01	0	57	104	957349888	52	12791
2026-01-05 13:52:36.80	348.63	9.05	-41.4	-52.3	3.8	8.46e-01	0	57	104	957349888	52	13317
2026-01-05 13:52:37.82	348.60	8.97	-41.0	-52.0	3.8	8.46e-01	0	57	104	957349888	52	12817
2026-01-05 13:52:38.83	348.57	8.89	-41.3	-52.2	3.8	8.46e-01	0	58	104	957349888	52	13195
2026-01-05 13:52:39.84	348.53	8.80	-41.2	-52.2	3.8	8.46e-01	0	57	104	957349888	52	13134
2026-01-05 13:52:40.85	348.50	8.72	-41.3	-52.2	3.8	8.47e-01	0	57	104	957349888	52	13225
2026-01-05 13:52:41.86	348.46	8.64	-41.3	-52.2	3.8	8.47e-01	0	57	104	957349888	52	13171
2026-01-05 13:52:42.87	348.43	8.56	-41.4	-52.3	3.8	8.46e-01	0	57	104	957349888	52	13321
2026-01-05 13:52:43.88	348.40	8.48	-41.1	-52.0	3.8	8.46e-01	0	57	104	957349888	52	12876
2026-01-05 13:52:44.89	348.37	8.40	-41.3	-52.3	3.8	8.46e-01	0	58	104	957349888	52	13272
2026-01-05 13:52:45.90	348.33	8.32	-41.1	-52.0	3.8	8.45e-01	0	57	104	957349888	52	12929
2026-01-05 13:52:46.91	348.30	8.24	-41.3	-52.2	3.8	8.47e-01	0	57	104	957349888	52	13196
2026-01-05 13:52:47.92	348.27	8.16	-41.3	-52.2	3.8	8.46e-01	0	57	104	957349888	52	13229
2026-01-05 13:52:48.93	348.24	8.08	-41.3	-52.2	3.8	8.46e-01	0	58	104	957349888	52	13126
2026-01-05 13:52:49.94	348.20	8.00	-41.3	-52.3	3.8	8.47e-01	0	57	104	957349888	52	13270
2026-01-05 13:52:50.95	348.17	7.92	-41.5	-52.5	3.8	8.46e-01	0	57	104	957349888	52	13700
2026-01-05 13:52:51.97	348.14	7.84	-40.9	-51.9	3.8	8.47e-01	0	58	104	957349888	52	12787
2026-01-05 13:52:52.98	348.11	7.76	-45.0	-55.8	3.8	8.46e-01	0	57	104	957349888	59	13353
2026-01-05 13:52:53.99	348.08	7.68	-45.2	-56.3	3.8	8.46e-01	0	58	104	957349888	60	13331
2026-01-05 13:52:55.00	348.05	7.61	-45.3	-56.4	3.8	8.46e-01	0	57	104	957349888	60	13524
2026-01-05 13:52:56.01	348.02	7.53	-45.4	-56.5	3.8	8.46e-01	0	58	104	957349888	60	13641
2026-01-05 13:52:57.02	347.99	7.45	-45.4	-56.6	3.8	8.45e-01	0	58	104	957349888	60	13756
2026-01-05 13:52:58.03	347.96	7.37	-45.5	-56.6	3.8	8.47e-01	0	58	104	957349888	60	13768
2026-01-05 13:52:59.04	347.93	7.29	-45.5	-56.6	3.8	8.46e-01	0	58	104	957349888	60	13825
2026-01-05 13:53:00.05	347.90	7.22	-45.5	-56.5	3.8	8.45e-01	0	58	104	957349888	60	13612
2026-01-05 13:53:01.07	347.87	7.14	-45.5	-56.6	3.8	8.45e-01	0	57	104	957349888	60	13769
2026-01-05 13:53:02.08	347.84	7.06	-45.4	-56.5	3.8	8.45e-01	0	57	104	957349888	60	13656
2026-01-05 13:53:03.09	347.81	6.99	-45.4	-56.5	3.8	8.46e-01	0	57	104	957349888	60	13581
2026-01-05 13:53:04.10	347.78	6.91	-45.4	-56.4	3.8	8.45e-01	0	58	104	957349888	60	13551
2026-01-05 13:53:05.11	347.75	6.84	-45.3	-56.4	3.8	8.46e-01	0	57	104	957349888	60	13487
2026-01-05 13:53:06.12	347.72	6.76	-45.3	-56.4	3.8	8.47e-01	0	57	104	957349888	60	13472
2026-01-05 13:53:07.13	347.69	6.68	-45.3	-56.3	3.8	8.46e-01	0	57	104	957349888	60	13409
2026-01-05 13:53:08.14	347.66	6.61	-45.3	-56.4	3.8	8.46e-01	0	57	104	957349888	60	13442
2026-01-05 13:53:09.15	347.63	6.53	-45.3	-56.4	3.8	8.46e-01	0	57	104	957349888	60	13427
2026-01-05 13:53:10.16	347.60	6.46	-45.3	-56.3	3.8	8.47e-01	0	58	104	957349888	60	13382
2026-01-05 13:53:11.17	347.58	6.38	-45.3	-56.3	3.8	8.47e-01	0	57	104	957349888	60	13384
2026-01-05 13:53:12.18	347.55	6.31	-45.3	-56.3	3.8	8.46e-01	0	58	104	957349888	60	13356
2026-01-05 13:53:13.20	347.52	6.23	-45.3	-56.3	3.8	8.47e-01	0	58	104	957349888	60	13386
2026-01-05 13:53:14.21	347.49	6.16	-45.3	-56.3	3.8	8.47e-01	0	57	104	957349888	60	13354
2026-01-05 13:53:15.22	347.47	6.09	-45.3	-56.3	3.8	8.46e-01	0	57	104	957349888	60	13349
2026-01-05 13:53:16.23	347.44	6.01	-45.3	-56.3	3.8	8.45e-01	0	57	104	957349888	60	13381
2026-01-05 13:53:17.24	347.41	5.94	-45.3	-56.3	3.8	8.45e-01	0	57	104	957349888	60	13396
2026-01-05 13:53:18.25	347.38	5.87	-45.3	-56.3	3.8	8.47e-01	0	57	104	957349888	60	13333
2026-01-05 13:53:19.26	347.36	5.79	-45.3	-56.3	3.8	8.47e-01	0	58	104	957349888	60	13352
2026-01-05 13:53:20.27	347.33	5.72	-45.3	-56.3	3.8	8.47e-01	0	57	104	957349888	60	13358
2026-01-05 13:53:21.28	347.30	5.65	-45.3	-56.3	3.8	8.46e-01	0	57	104	957349888	60	13361
2026-01-05 13:53:22.30	347.28	5.57	-45.3	-56.3	3.8	8.46e-01	0	57	104	957349888	60	13330
2026-01-05 13:53:23.31	347.25	5.50	-45.3	-56.3	3.8	8.47e-01	0	58	104	957349888	60	13318
2026-01-05 13:53:24.32	347.23	5.43	-45.3	-56.3	3.8	8.46e-01	0	57	104	957349888	60	13371
2026-01-05 13:53:25.33	347.20	5.36	-45.3	-56.3	3.8	8.46e-01	0	57	104	957349888	60	13367
2026-01-05 13:53:26.34	347.17	5.29	-45.3	-56.3	3.8	8.45e-01	0	58	104	957349888	60	13343
2026-01-05 13:53:27.35	347.15	5.22	-45.3	-56.3	3.8	8.47e-01	0	57	104	957349888	60	13341
2026-01-05 13:53:28.36	347.12	5.14	-45.3	-56.3	3.8	8.46e-01	0	57	104	957349888	60	13349
2026-01-05 13:53:29.37	347.10	5.07	-45.3	-56.3	3.8	8.46e-01	0	57	104	957349888	60	13334
2026-01-05 13:53:30.39	347.07	5.00	-45.3	-56.3	3.8	8.46e-01	0	57	104	957349888	60	13340
2026-01-05 13:53:31.39	347.05	4.93	-45.3	-56.3	3.8	8.45e-01	0	57	104	957349888	60	13370
2026-01-05 13:53:32.41	347.02	4.86	-45.3	-56.3	3.8	8.47e-01	0	58	104	957349888	60	13383
2026-01-05 13:53:33.42	347.00	4.79	-45.3	-56.3	3.8	8.46e-01	0	57	104	957349888	60	13399
2026-01-05 13:53:34.43	346.97	4.72	-45.3	-56.3	3.8	8.45e-01	0	57	104	957349888	60	13328
2026-01-05 13:53:35.44	346.95	4.65	-45.1	-56.1	3.8	8.46e-01	0	58	104	957349888	60	13100
2026-01-05 13:53:36.45	346.92	4.58	-45.3	-56.3	3.8	8.46e-01	0	57	104	957349888	60	13293
2026-01-05 13:53:37.46	346.90	4.51	-45.3	-56.3	3.8	8.46e-01	0	57	104	957349888	60	13349
2026-01-05 13:53:38.47	346.88	4.44	-45.3	-56.3	3.8	8.45e-01	0	58	104	957349888	60	13328
2026-01-05 13:53:39.48	346.85	4.37	-45.3	-56.3	3.8	8.46e-01	0	57	104	957349888	60	13329
2026-01-05 13:53:40.49	346.83	4.30	-45.3	-56.3	3.8	8.45e-01	0	57	104	957349888	60	13351
2026-01-05 13:53:41.50	346.80	4.23	-45.3	-56.3	3.8	8.46e-01	0	57	104	957349888	60	13373
2026-01-05 13:53:42.52	346.78	4.16	-45.3	-56.3	3.8	8.46e-01	0	57	104	957349888	60	13341
2026-01-05 13:53:43.53	346.76	4.09	-45.3	-56.3	3.8	8.47e-01	0	57	104	957349888	60	13351
2026-01-05 13:53:44.54	346.73	4.03	-45.3	-56.3	3.8	8.47e-01	0	57	104	957349888	60	13350
2026-01-05 13:53:45.55	346.71	3.96	-45.1	-56.2	3.8	8.46e-01	0	58	104	957349888	60	13163
2026-01-05 13:53:46.56	346.69	3.89	-45.3	-56.3	3.8	8.45e-01	0	57	104	957349888	60	13334
2026-01-05 13:53:47.57	346.67	3.82	-45.3	-56.3	3.8	8.47e-01	0	57	104	957349888	60	13322
2026-01-05 13:53:48.58	346.64	3.75	-45.3	-56.3	3.8	8.45e-01	0	57	104	957349888	60	13382
2026-01-05 13:53:49.59	346.62	3.69	-45.3	-56.3	3.8	8.46e-01	0	58	104	957349888	60	13334
2026-01-05 13:53:50.60	346.60	3.62	-45.3	-56.3	3.8	8.46e-01	0	57	104	957349888	60	13318
2026-01-05 13:53:51.61	346.58	3.55	-45.3	-56.3	3.8	8.46e-01	0	57	104	957349888	60	13265
2026-01-05 13:53:52.63	346.55	3.48	-45.2	-56.3	3.8	8.46e-01	0	57	104	957349888	60	13330
2026-01-05 13:53:53.64	346.53	3.42	-45.3	-56.3	3.8	8.47e-01	0	58	104	957349888	60	13318
2026-01-05 13:53:54.65	346.51	3.35	-45.3	-56.3	3.8	8.46e-01	0	57	104	957349888	60	13345
2026-01-05 13:53:55.66	346.49	3.28	-45.3	-56.3	3.8	8.46e-01	0	58	104	957349888	60	13326
2026-01-05 13:53:56.67	346.46	3.22	-45.3	-56.3	3.8	8.46e-01	0	58	104	957349888	60	13356
2026-01-05 13:53:57.68	346.44	3.15	-45.3	-56.3	3.8	8.47e-01	0	58	104	957349888	60	13348
2026-01-05 13:53:58.69	346.42	3.08	-45.3	-56.3	3.8	8.45e-01	0	57	104	957349888	60	13317
2026-01-05 13:53:59.70	346.40	3.02	-45.3	-56.3	3.8	8.48e-01	0	57	104	957349888	60	13346
2026-01-05 13:54:00.71	346.38	2.95	-45.3	-56.3	3.8	8.46e-01	0	58	104	957349888	60	13350
2026-01-05 13:54:01.72	346.36	2.89	-45.3	-56.3	3.8	8.46e-01	0	58	104	957349888	60	13323
2026-01-05 13:54:02.73	346.34	2.82	-45.3	-56.3	3.8	8.47e-01	0	57	104	957349888	60	13314
2026-01-05 13:54:03.74	346.32	2.75	-45.3	-56.3	3.8	8.47e-01	0	58	104	957349888	60	13325
2026-01-05 13:54:04.75	346.29	2.69	-45.3	-56.3	3.8	8.47e-01	0	58	104	957349888	60	13353
2026-01-05 13:54:05.77	346.27	2.62	-45.3	-56.3	3.8	8.46e-01	0	57	104	957349888	60	13342
2026-01-05 13:54:06.78	346.25	2.56	-45.3	-56.3	3.8	8.47e-01	0	57	104	957349888	60	13342
2026-01-05 13:54:07.79	346.23	2.49	-45.3	-56.3	3.8	8.46e-01	0	57	104	957349888	60	13381
2026-01-05 13:54:08.80	346.21	2.43	-45.2	-56.3	3.8	8.46e-01	0	57	104	957349888	60	13311
2026-01-05 13:54:09.81	346.19	2.36	-45.3	-56.3	3.8	8.46e-01	0	58	104	957349888	60	13346
2026-01-05 13:54:10.82	346.17	2.30	-45.3	-56.3	3.8	8.46e-01	0	58	104	957349888	60	13343
2026-01-05 13:54:11.83	346.15	2.23	-45.3	-56.3	3.8	8.46e-01	0	58	104	957349888	60	13361
2026-01-05 13:54:12.84	346.13	2.17	-45.3	-56.3	3.8	8.47e-01	0	57	104	957349888	60	13346
2026-01-05 13:54:13.85	346.11	2.11	-45.3	-56.3	3.8	8.46e-01	0	57	104	957349888	60	13309
2026-01-05 13:54:14.86	346.09	2.04	-45.2	-56.3	3.8	8.46e-01	0	57	104	957349888	60	13292
2026-01-05 13:54:15.87	346.07	1.98	-45.3	-56.3	3.8	8.46e-01	0	58	104	957349888	60	13309

#Closed at: 2026-01-05 13:54:16
#Recorded file [957 MB]: D:/lorett/data/31039_260105_164745.dat