passes_logs/2026/01/10/R4.6S_Anadyr/R4.6S_Anadyr__20260110_025623_2024-110A_rec.log

#Pass ID: 20260110_025623_2024-110A
#Satellite: 2024-110A
#Configuration: 01B_900M
#almurnet v.1.7.20251203
#Start time: 2026-01-10 02:56:28

#Version: 2.2.20231116
#Station: R4.6S_Anadyr
#Location: 177.4865 lon 64.73178 lat
#TLE: 1 60012U 24110A   26008.98058397  .00007481  00000+0  45382-3 0  9996
#TLE: 2 60012  97.5751 102.0471 0010606  85.2699 274.9742 15.10780355 87850

#Time	Az	El	Level	Level2	SNR	BER	BlckErr	Temp	State	Recorded	gain1	gain2
2026-01-10 02:56:28.07	18.66	0.23	-44.4	-45.8	5.7	0.00e+00	0	24	0	0	60	23996
2026-01-10 02:56:29.08	18.57	0.29	-48.3	-50.8	6.1	7.54e-01	0	25	104	0	60	42364
2026-01-10 02:56:30.09	18.49	0.34	-48.3	-50.8	6.1	7.55e-01	0	25	104	0	60	42460
2026-01-10 02:56:31.10	18.40	0.40	-48.2	-50.7	6.1	7.54e-01	0	25	104	0	60	41983
2026-01-10 02:56:32.11	18.32	0.45	-48.3	-50.7	6.1	7.55e-01	0	25	104	0	60	42044
2026-01-10 02:56:33.12	18.23	0.51	-48.2	-50.6	6.1	7.54e-01	0	25	104	0	60	41726
2026-01-10 02:56:34.13	18.14	0.57	-48.2	-50.7	6.1	7.54e-01	0	25	104	0	60	41860
2026-01-10 02:56:35.14	18.05	0.62	-48.0	-50.5	6.1	7.54e-01	0	25	104	0	60	41008
2026-01-10 02:56:36.15	17.97	0.68	-47.7	-50.2	6.1	7.55e-01	0	25	104	0	60	39632
2026-01-10 02:56:37.15	17.88	0.73	-47.3	-49.8	6.1	7.55e-01	0	25	104	0	60	37863
2026-01-10 02:56:38.17	17.79	0.79	-47.4	-49.8	6.1	7.54e-01	0	25	104	0	60	37951
2026-01-10 02:56:39.18	17.70	0.85	-46.9	-49.5	6.1	7.55e-01	0	26	104	0	60	36371
2026-01-10 02:56:40.19	17.61	0.90	-46.6	-49.1	6.1	7.54e-01	0	25	104	0	60	34825
2026-01-10 02:56:41.19	17.52	0.96	-46.6	-49.1	6.1	7.54e-01	0	26	104	0	60	35047
2026-01-10 02:56:42.20	17.43	1.02	-46.6	-49.1	6.1	7.55e-01	0	25	104	0	60	34961
2026-01-10 02:56:43.21	17.34	1.07	-46.6	-49.1	6.1	7.55e-01	0	25	104	0	60	34874
2026-01-10 02:56:44.22	17.24	1.13	-46.6	-49.1	6.1	7.53e-01	0	25	104	0	60	35009
2026-01-10 02:56:45.23	17.15	1.19	-46.6	-49.1	6.1	7.54e-01	0	26	104	0	60	34809
2026-01-10 02:56:46.24	17.06	1.24	-46.6	-49.1	6.1	7.54e-01	0	25	104	0	60	34997
2026-01-10 02:56:47.25	16.97	1.30	-46.6	-49.0	6.1	7.55e-01	0	25	104	0	60	34577
2026-01-10 02:56:48.26	16.87	1.36	-46.6	-49.1	6.1	7.55e-01	0	25	104	0	60	34814
2026-01-10 02:56:49.27	16.78	1.42	-46.6	-49.1	6.1	7.54e-01	0	25	104	0	60	34936
2026-01-10 02:56:50.28	16.68	1.47	-46.6	-49.1	6.1	7.54e-01	0	25	104	0	60	34846
2026-01-10 02:56:51.29	16.59	1.53	-46.6	-49.1	6.1	7.55e-01	0	26	104	0	60	34814
2026-01-10 02:56:52.30	16.49	1.59	-46.6	-49.1	6.1	7.55e-01	0	26	104	0	60	34787
2026-01-10 02:56:53.30	16.40	1.65	-46.6	-49.1	6.1	7.55e-01	0	26	104	0	60	34766
2026-01-10 02:56:54.31	16.30	1.70	-46.6	-49.1	6.1	7.54e-01	0	26	104	0	60	34725
2026-01-10 02:56:55.32	16.20	1.76	-46.6	-49.1	6.1	7.55e-01	0	26	104	0	60	34731
2026-01-10 02:56:56.33	16.11	1.82	-46.6	-49.0	6.1	7.54e-01	0	26	104	0	60	34538
2026-01-10 02:56:57.34	16.01	1.88	-46.6	-49.1	6.1	7.56e-01	0	26	104	0	60	34802
2026-01-10 02:56:58.35	15.91	1.93	-46.6	-49.0	6.1	7.53e-01	0	26	104	0	60	34705
2026-01-10 02:56:59.36	15.81	1.99	-46.6	-49.0	6.1	7.55e-01	0	26	104	0	60	34682
2026-01-10 02:57:00.37	15.71	2.05	-46.5	-49.0	6.1	7.55e-01	0	25	104	0	60	34633
2026-01-10 02:57:01.38	15.61	2.11	-46.6	-49.0	6.1	7.54e-01	0	25	104	0	60	34498
2026-01-10 02:57:02.39	15.51	2.17	-46.6	-49.1	6.1	7.54e-01	0	26	104	0	60	34950
2026-01-10 02:57:03.40	15.41	2.23	-46.6	-49.1	6.1	7.54e-01	0	25	104	0	60	34767
2026-01-10 02:57:04.41	15.31	2.28	-46.6	-49.0	6.1	7.54e-01	0	26	104	0	60	34649
2026-01-10 02:57:05.42	15.20	2.34	-46.6	-49.1	6.1	7.54e-01	0	26	104	0	60	34761
2026-01-10 02:57:06.43	15.10	2.40	-46.5	-49.0	6.1	7.53e-01	0	26	104	0	60	34686
2026-01-10 02:57:07.44	15.00	2.46	-46.6	-49.0	6.1	7.55e-01	0	26	104	0	60	34662
2026-01-10 02:57:08.45	14.89	2.52	-46.5	-49.0	6.1	7.53e-01	0	26	104	0	60	34566
2026-01-10 02:57:09.46	14.79	2.58	-46.5	-49.0	6.1	7.55e-01	0	26	104	0	60	34615
2026-01-10 02:57:10.47	14.69	2.64	-46.5	-49.0	6.1	7.55e-01	0	26	104	0	60	34633
2026-01-10 02:57:11.48	14.58	2.70	-46.5	-49.0	6.1	7.55e-01	0	26	104	0	60	34612
2026-01-10 02:57:12.49	14.47	2.76	-46.6	-49.0	6.1	7.54e-01	0	26	104	0	60	34474
2026-01-10 02:57:13.50	14.37	2.82	-46.5	-49.0	6.1	7.55e-01	0	26	104	0	60	34697
2026-01-10 02:57:14.50	14.26	2.87	-46.6	-49.0	6.1	7.54e-01	0	26	104	0	60	34665
2026-01-10 02:57:15.51	14.15	2.93	-46.5	-49.0	6.1	7.55e-01	0	26	104	0	60	34560
2026-01-10 02:57:16.52	14.05	2.99	-46.6	-49.1	6.1	7.54e-01	0	26	104	0	60	34746
2026-01-10 02:57:17.53	13.94	3.05	-46.6	-49.1	6.1	7.54e-01	0	26	104	0	60	34772
2026-01-10 02:57:18.54	13.83	3.11	-46.5	-49.0	6.1	7.55e-01	0	26	104	0	60	34475
2026-01-10 02:57:19.55	13.72	3.17	-46.5	-49.1	6.1	7.54e-01	0	26	104	0	60	34769
2026-01-10 02:57:20.56	13.61	3.23	-46.5	-49.0	6.0	7.53e-01	0	26	104	0	60	34623
2026-01-10 02:57:21.57	13.50	3.29	-46.5	-49.0	6.1	7.55e-01	0	26	104	0	60	34662
2026-01-10 02:57:22.57	13.39	3.35	-46.5	-49.0	6.1	7.55e-01	0	26	104	0	60	34332
2026-01-10 02:57:23.58	13.27	3.41	-46.6	-49.1	6.1	7.55e-01	0	26	104	0	60	34956
2026-01-10 02:57:24.59	13.16	3.47	-46.4	-48.9	6.1	7.54e-01	0	26	104	0	60	34265
2026-01-10 02:57:25.60	13.05	3.53	-46.3	-48.8	6.1	7.54e-01	0	26	104	0	60	33797
2026-01-10 02:57:26.61	12.93	3.59	-46.6	-49.0	6.1	7.54e-01	0	26	104	0	60	34717
2026-01-10 02:57:27.62	12.82	3.65	-46.7	-49.2	6.1	7.54e-01	0	26	104	0	60	35259
2026-01-10 02:57:28.63	12.70	3.71	-46.7	-49.2	6.1	7.54e-01	0	26	104	0	60	35209
2026-01-10 02:57:29.64	12.59	3.77	-46.5	-49.0	6.1	7.54e-01	0	26	104	0	60	34647
2026-01-10 02:57:30.65	12.47	3.83	-46.6	-49.2	6.1	7.53e-01	0	26	104	0	60	35171
2026-01-10 02:57:31.65	12.35	3.90	-46.8	-49.3	6.1	7.54e-01	0	26	104	0	60	35659
2026-01-10 02:57:32.66	12.24	3.96	-46.5	-49.0	6.1	7.53e-01	0	26	104	0	60	34574
2026-01-10 02:57:33.67	12.12	4.02	-46.5	-49.1	6.1	7.55e-01	0	26	104	0	60	34861
2026-01-10 02:57:34.68	12.00	4.08	-46.6	-49.1	6.1	7.54e-01	0	26	104	0	60	34999
2026-01-10 02:57:35.69	11.88	4.14	-46.8	-49.3	6.1	7.56e-01	0	26	104	0	60	35708
2026-01-10 02:57:36.70	11.76	4.20	-46.6	-49.1	6.1	7.54e-01	0	26	104	0	60	35013
2026-01-10 02:57:37.71	11.64	4.26	-46.8	-49.2	6.1	7.55e-01	0	26	104	0	60	35429
2026-01-10 02:57:38.72	11.52	4.32	-46.8	-49.3	6.1	7.54e-01	0	26	104	0	60	35643
2026-01-10 02:57:39.73	11.40	4.38	-46.9	-49.4	6.1	7.53e-01	0	26	104	0	60	36084
2026-01-10 02:57:40.74	11.27	4.45	-46.8	-49.3	6.1	7.53e-01	0	26	104	0	60	35558
2026-01-10 02:57:41.75	11.15	4.51	-46.8	-49.3	6.1	7.55e-01	0	26	104	0	60	35924
2026-01-10 02:57:42.76	11.02	4.57	-46.9	-49.4	6.0	7.53e-01	0	26	104	0	60	36033
2026-01-10 02:57:43.77	10.90	4.63	-46.8	-49.4	6.1	7.53e-01	0	26	104	0	60	35981
2026-01-10 02:57:44.78	10.77	4.69	-46.8	-49.3	6.1	7.54e-01	0	26	104	0	60	35786
2026-01-10 02:57:45.79	10.65	4.75	-46.9	-49.4	6.1	7.54e-01	0	26	104	0	60	36350
2026-01-10 02:57:46.79	10.52	4.82	-46.9	-49.3	6.1	7.52e-01	0	26	104	0	60	35933
2026-01-10 02:57:47.80	10.40	4.88	-47.0	-49.5	6.1	7.54e-01	0	26	104	0	60	36771
2026-01-10 02:57:48.81	10.27	4.94	-46.8	-49.3	6.1	7.55e-01	0	26	104	0	60	35872
2026-01-10 02:57:49.82	10.14	5.00	-47.0	-49.5	6.1	7.55e-01	0	26	104	0	60	36643
2026-01-10 02:57:50.83	10.01	5.06	-47.0	-49.4	6.1	7.55e-01	0	26	104	0	60	36269
2026-01-10 02:57:51.84	9.88	5.13	-47.0	-49.5	6.1	7.55e-01	0	26	104	0	60	36549
2026-01-10 02:57:52.85	9.75	5.19	-47.0	-49.5	6.1	7.54e-01	0	26	104	0	60	36379
2026-01-10 02:57:53.86	9.62	5.25	-47.1	-49.5	6.1	7.54e-01	0	26	104	0	60	36744
2026-01-10 02:57:54.87	9.48	5.31	-47.0	-49.5	6.1	7.53e-01	0	26	104	0	60	36366
2026-01-10 02:57:55.88	9.35	5.38	-47.1	-49.6	6.1	7.53e-01	0	26	104	0	60	37022
2026-01-10 02:57:56.89	9.22	5.44	-47.0	-49.4	6.1	7.54e-01	0	26	104	0	60	36318
2026-01-10 02:57:57.90	9.08	5.50	-47.1	-49.6	6.1	7.54e-01	0	26	104	0	60	36913
2026-01-10 02:57:58.91	8.95	5.56	-47.1	-49.6	6.1	7.54e-01	0	26	104	0	60	36847
2026-01-10 02:57:59.92	8.81	5.63	-47.1	-49.6	6.1	7.55e-01	0	26	104	0	60	37060
2026-01-10 02:58:00.93	8.67	5.69	-47.0	-49.5	6.1	7.54e-01	0	26	104	0	60	36620
2026-01-10 02:58:01.93	8.54	5.75	-47.0	-49.5	6.1	7.53e-01	0	26	104	0	60	36426
2026-01-10 02:58:02.94	8.40	5.82	-47.1	-49.6	6.1	7.54e-01	0	26	104	0	60	36854
2026-01-10 02:58:03.95	8.26	5.88	-47.1	-49.6	6.1	7.55e-01	0	26	104	0	60	36898
2026-01-10 02:58:04.96	8.12	5.94	-47.0	-49.5	6.1	7.55e-01	0	26	104	0	60	36631
2026-01-10 02:58:05.97	7.98	6.00	-47.0	-49.5	6.1	7.54e-01	0	26	104	0	60	36574
2026-01-10 02:58:06.98	7.84	6.07	-46.9	-49.5	6.1	7.55e-01	0	26	104	0	60	36537
2026-01-10 02:58:07.99	7.69	6.13	-47.0	-49.5	6.1	7.53e-01	0	26	104	0	60	36517
2026-01-10 02:58:09.00	7.55	6.19	-46.9	-49.4	6.1	7.54e-01	0	26	104	0	60	36243
2026-01-10 02:58:10.01	7.41	6.26	-47.2	-49.7	6.1	7.54e-01	0	26	104	0	60	37559
2026-01-10 02:58:11.02	7.26	6.32	-47.0	-49.5	6.1	7.54e-01	0	26	104	0	60	36664
2026-01-10 02:58:12.02	7.12	6.38	-47.2	-49.7	6.1	7.54e-01	0	26	104	0	60	37571
2026-01-10 02:58:13.03	6.97	6.45	-47.1	-49.6	6.1	7.53e-01	0	26	104	0	60	36922
2026-01-10 02:58:14.04	6.83	6.51	-47.1	-49.6	6.1	7.55e-01	0	26	104	0	60	37078
2026-01-10 02:58:15.05	6.68	6.58	-47.2	-49.7	6.1	7.54e-01	0	26	104	0	60	37292
2026-01-10 02:58:16.06	6.53	6.64	-47.2	-49.7	6.1	7.53e-01	0	26	104	0	60	37494
2026-01-10 02:58:17.06	6.38	6.70	-47.2	-49.7	6.1	7.54e-01	0	26	104	0	60	37343
2026-01-10 02:58:18.07	6.23	6.77	-47.2	-49.7	6.1	7.55e-01	0	26	104	0	60	37478
2026-01-10 02:58:19.08	6.08	6.83	-47.2	-49.7	6.1	7.55e-01	0	26	104	0	60	37210
2026-01-10 02:58:20.09	5.93	6.89	-47.3	-49.8	6.1	7.53e-01	0	26	104	0	60	37942
2026-01-10 02:58:21.10	5.78	6.96	-47.0	-49.6	6.1	7.54e-01	0	26	104	0	60	36848
2026-01-10 02:58:22.11	5.62	7.02	-47.2	-49.8	6.1	7.54e-01	0	26	104	0	60	37665
2026-01-10 02:58:23.12	5.47	7.09	-47.2	-49.7	6.1	7.54e-01	0	26	104	0	60	37331
2026-01-10 02:58:24.13	5.31	7.15	-47.1	-49.7	6.1	7.54e-01	0	26	104	0	60	37274
2026-01-10 02:58:25.14	5.16	7.21	-47.2	-49.6	6.1	7.54e-01	0	26	104	0	60	37170
2026-01-10 02:58:26.15	5.00	7.28	-47.0	-49.6	6.1	7.54e-01	0	26	104	0	60	36816
2026-01-10 02:58:27.16	4.84	7.34	-47.2	-49.7	6.1	7.53e-01	0	26	104	0	60	37233
2026-01-10 02:58:28.17	4.68	7.41	-47.3	-49.8	6.1	7.53e-01	0	26	104	0	60	37771
2026-01-10 02:58:29.18	4.52	7.47	-47.2	-49.7	6.0	7.55e-01	0	26	104	0	60	37371
2026-01-10 02:58:30.19	4.36	7.54	-47.2	-49.7	6.1	7.54e-01	0	26	104	0	60	37456
2026-01-10 02:58:31.20	4.20	7.60	-47.1	-49.6	6.1	7.54e-01	0	26	104	0	60	37075
2026-01-10 02:58:32.21	4.04	7.66	-47.3	-49.8	6.1	7.55e-01	0	26	104	0	60	37802
2026-01-10 02:58:33.21	3.88	7.73	-47.0	-49.5	6.1	7.54e-01	0	26	104	0	60	36642
2026-01-10 02:58:34.22	3.71	7.79	-47.4	-49.9	6.1	7.54e-01	0	26	104	0	60	38086
2026-01-10 02:58:35.23	3.55	7.86	-47.3	-49.8	6.1	7.54e-01	0	26	104	0	60	37961
2026-01-10 02:58:36.24	3.38	7.92	-47.3	-49.8	6.1	7.54e-01	0	26	104	0	60	37918
2026-01-10 02:58:37.25	3.22	7.99	-47.3	-49.7	6.1	7.55e-01	0	26	104	0	60	37559
2026-01-10 02:58:38.26	3.05	8.05	-47.4	-49.9	6.1	7.54e-01	0	26	104	0	60	38181
2026-01-10 02:58:39.27	2.88	8.11	-47.4	-49.8	6.1	7.53e-01	0	26	104	0	60	38039
2026-01-10 02:58:40.28	2.71	8.18	-47.4	-49.9	6.1	7.54e-01	0	26	104	0	60	38460
2026-01-10 02:58:41.29	2.54	8.24	-47.3	-49.8	6.1	7.55e-01	0	26	104	0	60	37873
2026-01-10 02:58:42.30	2.37	8.31	-47.2	-49.7	6.1	7.54e-01	0	26	104	0	60	37507
2026-01-10 02:58:43.30	2.20	8.37	-47.3	-49.9	6.1	7.55e-01	0	26	104	0	60	38128
2026-01-10 02:58:44.32	2.02	8.44	-47.4	-49.9	6.1	7.55e-01	0	26	104	0	60	38150
2026-01-10 02:58:45.33	1.85	8.50	-47.1	-49.6	6.1	7.54e-01	0	26	104	0	60	37138
2026-01-10 02:58:46.34	1.67	8.57	-47.4	-49.9	6.1	7.54e-01	0	26	104	0	60	38335
2026-01-10 02:58:47.35	1.50	8.63	-47.4	-49.9	6.1	7.53e-01	0	26	104	0	60	38179
2026-01-10 02:58:48.35	1.32	8.69	-47.4	-49.9	6.1	7.54e-01	0	26	104	0	60	38434
2026-01-10 02:58:49.36	1.14	8.76	-47.4	-49.9	6.1	7.55e-01	0	26	104	0	60	38295
2026-01-10 02:58:50.37	0.96	8.82	-47.4	-49.9	6.1	7.54e-01	0	26	104	0	60	38177
2026-01-10 02:58:51.38	0.78	8.89	-47.4	-49.9	6.1	7.55e-01	0	26	104	0	60	38470
2026-01-10 02:58:52.39	0.60	8.95	-47.5	-50.0	6.1	7.55e-01	0	26	104	0	60	38608
2026-01-10 02:58:53.40	0.42	9.02	-47.4	-49.9	6.1	7.55e-01	0	26	104	0	60	38420
2026-01-10 02:58:54.41	0.24	9.08	-47.5	-49.9	6.1	7.54e-01	0	26	104	0	60	38357
2026-01-10 02:58:55.42	0.05	9.14	-47.4	-49.9	6.1	7.54e-01	0	26	104	0	60	38470
2026-01-10 02:58:56.43	359.87	9.21	-47.3	-49.9	6.1	7.55e-01	0	26	104	0	60	38153
2026-01-10 02:58:57.44	359.68	9.27	-47.1	-49.7	6.1	7.53e-01	0	26	104	0	60	37386
2026-01-10 02:58:58.45	359.49	9.34	-47.3	-49.9	6.1	7.54e-01	0	26	104	0	60	38165
2026-01-10 02:58:59.46	359.31	9.40	-47.5	-50.0	6.1	7.54e-01	0	26	104	0	60	38893
2026-01-10 02:59:00.47	359.12	9.47	-47.5	-50.0	6.1	7.54e-01	0	26	104	0	60	38678
2026-01-10 02:59:01.48	358.93	9.53	-47.4	-49.9	6.1	7.54e-01	0	26	104	0	60	38285
2026-01-10 02:59:02.49	358.74	9.59	-47.5	-50.0	6.1	7.55e-01	0	26	104	0	60	38550
2026-01-10 02:59:03.50	358.54	9.66	-47.5	-50.0	6.1	7.54e-01	0	26	104	0	60	38802
2026-01-10 02:59:04.51	358.35	9.72	-47.1	-49.7	6.1	7.54e-01	0	26	104	0	60	37339
2026-01-10 02:59:05.51	358.16	9.79	-47.4	-49.9	6.1	7.54e-01	0	26	104	0	60	38284
2026-01-10 02:59:06.52	357.96	9.85	-47.4	-49.8	6.1	7.54e-01	0	26	104	0	60	37998
2026-01-10 02:59:07.53	357.77	9.91	-47.5	-50.0	6.1	7.53e-01	0	26	104	0	60	38662
2026-01-10 02:59:08.54	357.57	9.98	-47.5	-49.9	6.1	7.55e-01	0	26	104	0	60	38432
2026-01-10 02:59:09.55	357.37	10.04	-47.4	-49.9	6.1	7.54e-01	0	26	104	0	60	38457
2026-01-10 02:59:10.56	357.17	10.10	-47.4	-49.9	6.0	7.54e-01	0	26	104	0	60	38394
2026-01-10 02:59:11.58	356.97	10.17	-47.5	-50.0	6.1	7.54e-01	0	26	104	0	60	38628
2026-01-10 02:59:12.59	356.77	10.23	-47.5	-49.9	6.1	7.53e-01	0	26	104	0	60	38491
2026-01-10 02:59:13.60	356.56	10.29	-47.4	-49.9	6.1	7.54e-01	0	26	104	0	60	38353
2026-01-10 02:59:14.60	356.36	10.36	-47.5	-50.0	6.1	7.54e-01	0	26	104	0	60	38593
2026-01-10 02:59:15.61	356.16	10.42	-47.5	-50.0	6.1	7.54e-01	0	26	104	0	60	38644
2026-01-10 02:59:16.62	355.95	10.48	-47.5	-50.0	6.1	7.55e-01	0	26	104	0	60	38630
2026-01-10 02:59:17.63	355.75	10.55	-47.4	-49.9	6.1	7.54e-01	0	26	104	0	60	38408
2026-01-10 02:59:18.64	355.54	10.61	-47.5	-50.0	6.1	7.55e-01	0	26	104	0	60	38598
2026-01-10 02:59:19.65	355.33	10.67	-47.5	-50.0	6.1	7.54e-01	0	26	104	0	60	38564
2026-01-10 02:59:20.66	355.12	10.73	-47.1	-49.7	6.1	7.54e-01	0	26	104	0	60	37320
2026-01-10 02:59:21.67	354.91	10.80	-47.5	-50.0	6.1	7.53e-01	0	26	104	0	60	38550
2026-01-10 02:59:22.68	354.69	10.86	-47.5	-49.9	6.1	7.54e-01	0	26	104	0	60	38503
2026-01-10 02:59:23.69	354.48	10.92	-47.5	-50.0	6.1	7.54e-01	0	26	104	0	60	38845
2026-01-10 02:59:24.70	354.27	10.98	-47.4	-49.9	6.1	7.54e-01	0	26	104	0	60	38437
2026-01-10 02:59:25.71	354.05	11.05	-47.5	-50.0	6.1	7.54e-01	0	26	104	0	60	38665
2026-01-10 02:59:26.72	353.83	11.11	-47.4	-49.9	6.1	7.55e-01	0	26	104	0	60	38408
2026-01-10 02:59:27.73	353.61	11.17	-47.5	-50.0	6.1	7.54e-01	0	26	104	0	60	38710
2026-01-10 02:59:28.74	353.40	11.23	-47.6	-50.0	6.1	7.54e-01	0	26	104	0	60	38863
2026-01-10 02:59:29.75	353.18	11.29	-47.5	-50.0	6.1	7.54e-01	0	26	104	0	60	38864
2026-01-10 02:59:30.75	352.96	11.35	-47.5	-50.0	6.1	7.54e-01	0	26	104	0	60	38741
2026-01-10 02:59:31.76	352.73	11.41	-47.4	-50.0	6.1	7.54e-01	0	26	104	0	60	38637
2026-01-10 02:59:32.77	352.51	11.47	-47.6	-50.1	6.1	7.55e-01	0	26	104	0	60	38998
2026-01-10 02:59:33.78	352.29	11.54	-47.5	-50.0	6.1	7.55e-01	0	26	104	0	60	38590
2026-01-10 02:59:34.79	352.06	11.60	-47.5	-50.1	6.1	7.53e-01	0	26	104	0	60	38982
2026-01-10 02:59:35.80	351.83	11.66	-47.5	-50.1	6.1	7.54e-01	0	26	104	0	60	39040
2026-01-10 02:59:36.81	351.60	11.72	-47.4	-49.9	6.1	7.55e-01	0	26	104	0	60	38349
2026-01-10 02:59:37.82	351.38	11.78	-47.4	-49.9	6.1	7.53e-01	0	26	104	0	60	38291
2026-01-10 02:59:38.83	351.15	11.84	-47.3	-49.9	6.1	7.54e-01	0	26	104	0	60	38127
2026-01-10 02:59:39.84	350.91	11.89	-47.4	-49.9	6.1	7.53e-01	0	26	104	0	60	38446
2026-01-10 02:59:40.85	350.68	11.95	-47.5	-50.0	6.1	7.54e-01	0	26	104	0	60	38761
2026-01-10 02:59:41.86	350.45	12.01	-47.5	-50.0	6.1	7.54e-01	0	26	104	0	60	38620
2026-01-10 02:59:42.87	350.21	12.07	-47.5	-50.0	6.1	7.54e-01	0	26	104	0	60	38787
2026-01-10 02:59:43.87	349.98	12.13	-47.5	-50.1	6.1	7.54e-01	0	26	104	0	60	39182
2026-01-10 02:59:44.88	349.74	12.19	-47.5	-50.0	6.0	7.54e-01	0	26	104	0	60	38901
2026-01-10 02:59:45.89	349.50	12.25	-47.6	-50.1	6.1	7.55e-01	0	26	104	0	60	39200
2026-01-10 02:59:46.90	349.26	12.30	-47.5	-50.0	6.1	7.54e-01	0	26	104	0	60	38896
2026-01-10 02:59:47.91	349.02	12.36	-47.6	-50.1	6.1	7.53e-01	0	26	104	0	60	39214
2026-01-10 02:59:48.92	348.78	12.42	-47.5	-50.0	6.1	7.54e-01	0	26	104	0	60	38869
2026-01-10 02:59:49.93	348.54	12.48	-47.5	-50.1	6.1	7.55e-01	0	26	104	0	60	38993
2026-01-10 02:59:50.93	348.30	12.53	-47.6	-50.1	6.1	7.53e-01	0	26	104	0	60	39083
2026-01-10 02:59:51.95	348.05	12.59	-47.6	-50.1	6.1	7.54e-01	0	26	104	0	60	39289
2026-01-10 02:59:52.95	347.81	12.65	-47.6	-50.0	6.1	7.55e-01	0	26	104	0	60	38901
2026-01-10 02:59:53.96	347.56	12.70	-47.6	-50.0	6.1	7.54e-01	0	26	104	0	60	38870
2026-01-10 02:59:54.97	347.31	12.76	-47.5	-50.0	6.1	7.54e-01	0	26	104	0	60	38690
2026-01-10 02:59:55.98	347.06	12.81	-47.5	-50.1	6.1	7.55e-01	0	26	104	0	60	39069
2026-01-10 02:59:56.99	346.81	12.87	-47.6	-50.1	6.1	7.55e-01	0	26	104	0	60	39148
2026-01-10 02:59:58.00	346.56	12.92	-47.6	-50.1	6.1	7.55e-01	0	26	104	0	60	39158
2026-01-10 02:59:59.01	346.31	12.98	-47.6	-50.1	6.1	7.55e-01	0	26	104	0	60	39194
2026-01-10 03:00:00.02	346.05	13.03	-47.6	-50.1	6.1	7.54e-01	0	26	104	0	60	39053
2026-01-10 03:00:01.03	345.80	13.08	-47.6	-50.0	6.1	7.54e-01	0	26	104	0	60	38860
2026-01-10 03:00:02.04	345.54	13.14	-47.6	-50.1	6.1	7.54e-01	0	26	104	0	60	39028
2026-01-10 03:00:03.05	345.28	13.19	-47.6	-50.1	6.1	7.54e-01	0	26	104	0	60	39147
2026-01-10 03:00:04.06	345.03	13.24	-47.6	-50.1	6.1	7.54e-01	0	26	104	0	60	39116
2026-01-10 03:00:05.07	344.77	13.30	-47.6	-50.1	6.1	7.54e-01	0	26	104	0	60	39107
2026-01-10 03:00:06.08	344.51	13.35	-47.5	-50.0	6.1	7.55e-01	0	26	104	0	60	38805
2026-01-10 03:00:07.09	344.24	13.40	-47.6	-50.1	6.1	7.53e-01	0	26	104	0	60	39122
2026-01-10 03:00:08.10	343.98	13.45	-47.5	-50.0	6.1	7.55e-01	0	26	104	0	60	38555
2026-01-10 03:00:09.11	343.72	13.50	-47.6	-50.1	6.1	7.55e-01	0	26	104	0	60	39257
2026-01-10 03:00:10.11	343.45	13.55	-47.6	-50.1	6.1	7.55e-01	0	26	104	0	60	39126
2026-01-10 03:00:11.13	343.19	13.60	-47.6	-50.1	6.1	7.54e-01	0	26	104	0	60	39125
2026-01-10 03:00:12.13	342.92	13.65	-47.5	-50.1	6.1	7.55e-01	0	26	104	0	60	39004
2026-01-10 03:00:13.14	342.65	13.70	-47.6	-50.0	6.1	7.54e-01	0	26	104	0	60	38764
2026-01-10 03:00:14.15	342.38	13.75	-47.6	-50.0	6.1	7.54e-01	0	26	104	0	60	38829
2026-01-10 03:00:15.16	342.11	13.80	-47.5	-50.0	6.1	7.54e-01	0	26	104	0	60	38896
2026-01-10 03:00:16.18	341.84	13.85	-47.6	-50.1	6.1	7.54e-01	0	26	104	0	60	39273
2026-01-10 03:00:17.18	341.57	13.89	-47.5	-50.0	6.1	7.54e-01	0	26	104	0	60	38575
2026-01-10 03:00:18.19	341.30	13.94	-47.6	-50.1	6.1	7.53e-01	0	26	104	0	60	39177
2026-01-10 03:00:19.20	341.02	13.99	-47.7	-50.2	6.1	7.55e-01	0	26	104	0	60	39480
2026-01-10 03:00:20.21	340.75	14.03	-47.6	-50.1	6.1	7.54e-01	0	26	104	0	60	39353
2026-01-10 03:00:21.22	340.47	14.08	-47.5	-50.1	6.1	7.54e-01	0	26	104	0	60	38976
2026-01-10 03:00:22.23	340.19	14.12	-47.6	-50.1	6.1	7.53e-01	0	26	104	0	60	39263
2026-01-10 03:00:23.24	339.92	14.17	-47.7	-50.2	6.1	7.55e-01	0	26	104	0	60	39548
2026-01-10 03:00:24.25	339.64	14.21	-47.6	-50.1	6.1	7.55e-01	0	26	104	0	60	39209
2026-01-10 03:00:25.26	339.36	14.26	-47.7	-50.2	6.1	7.52e-01	0	26	104	0	60	39593
2026-01-10 03:00:26.27	339.07	14.30	-47.7	-50.1	6.1	7.53e-01	0	26	104	0	60	39329
2026-01-10 03:00:27.28	338.79	14.34	-47.7	-50.1	6.1	7.53e-01	0	26	104	0	60	39388
2026-01-10 03:00:28.29	338.51	14.39	-47.6	-50.1	6.1	7.55e-01	0	26	104	0	60	39321
2026-01-10 03:00:29.30	338.22	14.43	-47.5	-50.1	6.1	7.54e-01	0	26	104	0	60	39083
2026-01-10 03:00:30.31	337.94	14.47	-47.6	-50.1	6.1	7.54e-01	0	26	104	0	60	39279
2026-01-10 03:00:31.31	337.66	14.51	-47.7	-50.2	6.1	7.54e-01	0	26	104	0	60	39483
2026-01-10 03:00:32.32	337.37	14.55	-47.6	-50.2	6.1	7.56e-01	0	26	104	0	60	39435
2026-01-10 03:00:33.33	337.08	14.59	-47.6	-50.1	6.1	7.53e-01	0	26	104	0	60	39361
2026-01-10 03:00:34.34	336.79	14.63	-47.6	-50.2	6.1	7.55e-01	0	26	104	0	60	39520
2026-01-10 03:00:35.35	336.50	14.67	-47.7	-50.1	6.1	7.54e-01	0	26	104	0	60	39360
2026-01-10 03:00:36.36	336.21	14.70	-47.5	-50.0	6.1	7.55e-01	0	26	104	0	60	38786
2026-01-10 03:00:37.37	335.92	14.74	-47.3	-49.8	6.1	7.54e-01	0	26	104	0	60	38022
2026-01-10 03:00:38.38	335.63	14.78	-47.6	-50.2	6.1	7.55e-01	0	26	104	0	60	39547
2026-01-10 03:00:39.39	335.33	14.81	-47.5	-50.0	6.1	7.54e-01	0	26	104	0	60	38728
2026-01-10 03:00:40.40	335.04	14.85	-47.5	-50.1	6.1	7.55e-01	0	26	104	0	60	39236
2026-01-10 03:00:41.41	334.75	14.88	-47.6	-50.2	6.1	7.54e-01	0	26	104	0	60	39546
2026-01-10 03:00:42.42	334.45	14.92	-47.5	-50.0	6.1	7.54e-01	0	26	104	0	60	38728
2026-01-10 03:00:43.42	334.16	14.95	-47.5	-50.0	6.1	7.54e-01	0	26	104	0	60	38899
2026-01-10 03:00:44.43	333.86	14.98	-47.5	-50.0	6.1	7.55e-01	0	26	104	0	60	38762
2026-01-10 03:00:45.45	333.56	15.02	-47.6	-50.2	6.1	7.55e-01	0	26	104	0	60	39451
2026-01-10 03:00:46.45	333.26	15.05	-47.5	-50.0	6.1	7.53e-01	0	26	104	0	60	38865
2026-01-10 03:00:47.46	332.96	15.08	-47.7	-50.2	6.0	7.54e-01	0	26	104	0	60	39505
2026-01-10 03:00:48.47	332.66	15.11	-47.4	-50.0	6.1	7.55e-01	0	26	104	0	60	38778
2026-01-10 03:00:49.48	332.36	15.14	-47.7	-50.1	6.1	7.54e-01	0	26	104	0	60	39364
2026-01-10 03:00:50.49	332.06	15.17	-47.6	-50.1	6.1	7.55e-01	0	26	104	0	60	39340
2026-01-10 03:00:51.50	331.76	15.20	-47.7	-50.2	6.1	7.53e-01	0	26	104	0	60	39645
2026-01-10 03:00:52.50	331.46	15.23	-47.6	-50.2	6.1	7.55e-01	0	26	104	0	60	39522
2026-01-10 03:00:53.51	331.15	15.25	-47.4	-49.9	6.1	7.53e-01	0	26	104	0	60	38336
2026-01-10 03:00:54.52	330.85	15.28	-47.5	-50.1	6.1	7.55e-01	0	26	104	0	60	39128
2026-01-10 03:00:55.53	330.55	15.30	-47.7	-50.2	6.1	7.53e-01	0	26	104	0	60	39492
2026-01-10 03:00:56.54	330.24	15.33	-47.5	-50.1	6.1	7.54e-01	0	26	104	0	60	38979
2026-01-10 03:00:57.55	329.93	15.35	-47.6	-50.1	6.1	7.53e-01	0	26	104	0	60	39304
2026-01-10 03:00:58.56	329.63	15.38	-47.7	-50.2	6.1	7.54e-01	0	26	104	0	60	39793
2026-01-10 03:00:59.57	329.32	15.40	-47.8	-50.2	6.1	7.54e-01	0	26	104	0	60	39750
2026-01-10 03:01:00.58	329.01	15.42	-47.6	-50.1	6.1	7.53e-01	0	26	104	0	60	39335
2026-01-10 03:01:01.59	328.70	15.45	-47.8	-50.2	6.1	7.55e-01	0	26	104	0	60	39730
2026-01-10 03:01:02.60	328.39	15.47	-47.7	-50.3	6.1	7.54e-01	0	26	104	0	60	39917
2026-01-10 03:01:03.61	328.09	15.49	-47.7	-50.2	6.1	7.55e-01	0	26	104	0	60	39743
2026-01-10 03:01:04.62	327.78	15.51	-47.6	-50.2	6.1	7.54e-01	0	26	104	0	60	39418
2026-01-10 03:01:05.63	327.47	15.52	-47.2	-49.8	6.1	7.53e-01	0	26	104	0	60	37972
2026-01-10 03:01:06.64	327.15	15.54	-47.3	-49.9	6.1	7.54e-01	0	26	104	0	60	38217
2026-01-10 03:01:07.65	326.84	15.56	-47.6	-50.2	6.1	7.53e-01	0	26	104	0	60	39551
2026-01-10 03:01:08.66	326.53	15.58	-47.6	-50.1	6.1	7.54e-01	0	26	104	0	60	39366
2026-01-10 03:01:09.67	326.22	15.59	-47.3	-49.9	6.1	7.53e-01	0	26	104	0	60	38165
2026-01-10 03:01:10.68	325.91	15.61	-47.4	-50.0	6.1	7.54e-01	0	26	104	0	60	38700
2026-01-10 03:01:11.69	325.59	15.62	-47.4	-49.9	6.1	7.54e-01	0	26	104	0	60	38466
2026-01-10 03:01:12.70	325.28	15.64	-47.6	-50.1	6.1	7.54e-01	0	26	104	0	60	39280
2026-01-10 03:01:13.71	324.97	15.65	-47.8	-50.3	6.1	7.54e-01	0	26	104	0	60	39966
2026-01-10 03:01:14.71	324.66	15.66	-47.6	-50.1	6.1	7.54e-01	0	26	104	0	60	39260
2026-01-10 03:01:15.73	324.34	15.67	-47.7	-50.2	6.1	7.54e-01	0	26	104	0	60	39853
2026-01-10 03:01:16.73	324.03	15.68	-47.7	-50.3	6.1	7.54e-01	0	26	104	0	60	40027
2026-01-10 03:01:17.74	323.71	15.69	-47.7	-50.3	6.1	7.55e-01	0	26	104	0	60	39959
2026-01-10 03:01:18.75	323.40	15.70	-47.7	-50.2	6.1	7.54e-01	0	26	104	0	60	39732
2026-01-10 03:01:19.76	323.08	15.71	-47.8	-50.3	6.1	7.53e-01	0	26	104	0	60	40114
2026-01-10 03:01:20.77	322.77	15.72	-47.7	-50.3	6.1	7.54e-01	0	26	104	0	60	39956
2026-01-10 03:01:21.78	322.45	15.72	-47.8	-50.3	6.1	7.53e-01	0	26	104	0	60	40139
2026-01-10 03:01:22.79	322.14	15.73	-47.8	-50.3	6.1	7.55e-01	0	26	104	0	60	40064
2026-01-10 03:01:23.80	321.82	15.73	-47.7	-50.2	6.1	7.54e-01	0	26	104	0	60	39755
2026-01-10 03:01:24.81	321.51	15.74	-47.6	-50.2	6.1	7.55e-01	0	26	104	0	60	39719
2026-01-10 03:01:25.82	321.19	15.74	-47.8	-50.3	6.1	7.54e-01	0	26	104	0	60	40024
2026-01-10 03:01:26.83	320.87	15.75	-47.7	-50.2	6.1	7.53e-01	0	26	104	0	60	39848
2026-01-10 03:01:27.84	320.56	15.75	-47.8	-50.3	6.1	7.54e-01	0	26	104	0	60	40236
2026-01-10 03:01:28.85	320.24	15.75	-47.8	-50.3	6.1	7.55e-01	0	26	104	0	60	40221
2026-01-10 03:01:29.86	319.93	15.75	-47.8	-50.3	6.1	7.55e-01	0	26	104	0	60	40286
2026-01-10 03:01:30.87	319.61	15.75	-47.8	-50.2	6.1	7.54e-01	0	26	104	0	60	39845
2026-01-10 03:01:31.88	319.29	15.75	-47.8	-50.3	6.1	7.54e-01	0	26	104	0	60	39960
2026-01-10 03:01:32.89	318.98	15.75	-47.7	-50.2	6.0	7.55e-01	0	26	104	0	60	39829
2026-01-10 03:01:33.90	318.66	15.74	-47.7	-50.2	6.1	7.55e-01	0	26	104	0	60	39843
2026-01-10 03:01:34.91	318.34	15.74	-47.7	-50.2	6.1	7.55e-01	0	26	104	0	60	39607
2026-01-10 03:01:35.92	318.03	15.74	-47.7	-50.2	6.1	7.55e-01	0	26	104	0	60	39631
2026-01-10 03:01:36.93	317.71	15.73	-47.7	-50.2	6.1	7.54e-01	0	26	104	0	60	39845
2026-01-10 03:01:37.93	317.40	15.73	-47.8	-50.3	6.1	7.53e-01	0	26	104	0	60	40292
2026-01-10 03:01:38.94	317.09	15.72	-47.8	-50.3	6.1	7.54e-01	0	26	104	0	60	40110
2026-01-10 03:01:39.95	316.77	15.71	-47.8	-50.3	6.1	7.53e-01	0	26	104	0	60	39924
2026-01-10 03:01:40.96	316.45	15.70	-47.9	-50.3	6.1	7.54e-01	0	26	104	0	60	40258
2026-01-10 03:01:41.97	316.14	15.70	-47.7	-50.2	6.1	7.55e-01	0	26	104	0	60	39580
2026-01-10 03:01:42.99	315.82	15.69	-47.6	-50.1	6.1	7.53e-01	0	26	104	0	60	39379
2026-01-10 03:01:43.99	315.51	15.68	-47.8	-50.2	6.1	7.54e-01	0	26	104	0	60	39854
2026-01-10 03:01:45.00	315.20	15.66	-47.6	-50.1	6.1	7.55e-01	0	26	104	0	60	39390
2026-01-10 03:01:46.01	314.88	15.65	-47.4	-50.0	6.1	7.53e-01	0	26	104	0	60	38773
2026-01-10 03:01:47.03	314.56	15.64	-47.8	-50.2	6.1	7.55e-01	0	26	104	0	60	39845
2026-01-10 03:01:48.04	314.25	15.63	-47.6	-50.2	6.1	7.55e-01	0	26	104	0	60	39478
2026-01-10 03:01:49.04	313.94	15.61	-47.8	-50.2	6.1	7.54e-01	0	26	104	0	60	39817
2026-01-10 03:01:50.05	313.63	15.60	-47.7	-50.2	6.1	7.55e-01	0	26	104	0	60	39559
2026-01-10 03:01:51.06	313.32	15.58	-47.7	-50.2	6.1	7.55e-01	0	26	104	0	60	39663
2026-01-10 03:01:52.07	313.00	15.57	-47.8	-50.3	6.1	7.55e-01	0	26	104	0	60	40173
2026-01-10 03:01:53.08	312.69	15.55	-47.7	-50.1	6.1	7.54e-01	0	26	104	0	60	39323
2026-01-10 03:01:54.09	312.38	15.53	-47.6	-50.1	6.1	7.53e-01	0	26	104	0	60	39076
2026-01-10 03:01:55.10	312.07	15.51	-47.4	-50.0	6.1	7.54e-01	0	26	104	0	60	38571
2026-01-10 03:01:56.11	311.76	15.49	-47.6	-50.1	6.1	7.54e-01	0	26	104	0	60	39214
2026-01-10 03:01:57.11	311.45	15.47	-47.4	-49.9	6.1	7.55e-01	0	26	104	0	60	38394
2026-01-10 03:01:58.13	311.14	15.45	-47.3	-49.9	6.1	7.55e-01	0	26	104	0	60	38196
2026-01-10 03:01:59.14	310.83	15.43	-47.4	-50.0	6.1	7.54e-01	0	26	104	0	60	38688
2026-01-10 03:02:00.14	310.53	15.41	-47.4	-50.0	6.1	7.54e-01	0	26	104	0	60	38613
2026-01-10 03:02:01.15	310.22	15.39	-47.6	-50.2	6.1	7.53e-01	0	26	104	0	60	39480
2026-01-10 03:02:02.16	309.91	15.36	-47.4	-50.0	6.1	7.54e-01	0	26	104	0	60	38836
2026-01-10 03:02:03.17	309.61	15.34	-47.6	-50.2	6.1	7.55e-01	0	26	104	0	60	39456
2026-01-10 03:02:04.18	309.30	15.31	-47.5	-50.1	6.1	7.54e-01	0	26	104	0	60	38985
2026-01-10 03:02:05.19	308.99	15.29	-47.8	-50.3	6.1	7.53e-01	0	26	104	0	60	39865
2026-01-10 03:02:06.20	308.69	15.26	-47.7	-50.2	6.1	7.54e-01	0	26	104	0	60	39575
2026-01-10 03:02:07.21	308.39	15.23	-47.7	-50.2	6.1	7.55e-01	0	26	104	0	60	39699
2026-01-10 03:02:08.22	308.08	15.21	-47.7	-50.2	6.1	7.55e-01	0	26	104	0	60	39776
2026-01-10 03:02:09.23	307.78	15.18	-47.6	-50.1	6.1	7.55e-01	0	26	104	0	60	39314
2026-01-10 03:02:10.24	307.48	15.15	-47.3	-49.9	6.1	7.54e-01	0	26	104	0	60	38134
2026-01-10 03:02:11.25	307.18	15.12	-47.2	-49.9	6.1	7.55e-01	0	26	104	0	60	38145
2026-01-10 03:02:12.26	306.88	15.09	-47.6	-50.1	6.1	7.54e-01	0	26	104	0	60	39330
2026-01-10 03:02:13.27	306.58	15.06	-47.4	-49.9	6.1	7.54e-01	0	26	104	0	60	38412
2026-01-10 03:02:14.28	306.28	15.03	-47.3	-50.0	6.1	7.54e-01	0	26	104	0	60	38568
2026-01-10 03:02:15.29	305.98	14.99	-47.0	-49.6	6.1	7.55e-01	0	26	104	0	60	37130
2026-01-10 03:02:16.30	305.68	14.96	-47.1	-49.7	6.1	7.54e-01	0	26	104	0	60	37575
2026-01-10 03:02:17.30	305.39	14.93	-47.1	-49.8	6.1	7.53e-01	0	26	104	0	60	37655
2026-01-10 03:02:18.31	305.09	14.89	-47.2	-49.8	6.1	7.55e-01	0	26	104	0	60	37696
2026-01-10 03:02:19.32	304.79	14.86	-47.3	-49.9	6.1	7.55e-01	0	26	104	0	60	38462
2026-01-10 03:02:20.33	304.50	14.82	-47.1	-49.7	6.1	7.54e-01	0	26	104	0	60	37553
2026-01-10 03:02:21.34	304.20	14.79	-47.1	-49.7	6.1	7.53e-01	0	26	104	0	60	37602
2026-01-10 03:02:22.35	303.91	14.75	-47.3	-49.9	6.1	7.55e-01	0	26	104	0	60	38253
2026-01-10 03:02:23.36	303.62	14.72	-47.4	-50.0	6.0	7.54e-01	0	26	104	0	60	38552
2026-01-10 03:02:24.37	303.33	14.68	-47.3	-49.9	6.1	7.54e-01	0	26	104	0	60	38297
2026-01-10 03:02:25.38	303.04	14.64	-47.3	-49.9	6.1	7.55e-01	0	26	104	0	60	38174
2026-01-10 03:02:26.39	302.75	14.60	-47.4	-50.0	6.1	7.54e-01	0	26	104	0	60	38598
2026-01-10 03:02:27.40	302.46	14.56	-47.5	-50.1	6.1	7.54e-01	0	26	104	0	60	39122
2026-01-10 03:02:28.41	302.17	14.52	-47.4	-50.0	6.1	7.55e-01	0	26	104	0	60	38584
2026-01-10 03:02:29.42	301.89	14.48	-47.4	-50.0	6.1	7.55e-01	0	26	104	0	60	38671
2026-01-10 03:02:30.43	301.60	14.44	-47.5	-50.1	6.1	7.56e-01	0	26	104	0	60	39124
2026-01-10 03:02:31.44	301.31	14.40	-47.6	-50.1	6.1	7.55e-01	0	26	104	0	60	39344
2026-01-10 03:02:32.45	301.03	14.36	-47.6	-50.1	6.1	7.55e-01	0	26	104	0	60	39323
2026-01-10 03:02:33.46	300.75	14.31	-47.6	-50.1	6.1	7.53e-01	0	26	104	0	60	39178
2026-01-10 03:02:34.47	300.47	14.27	-47.5	-50.1	6.1	7.55e-01	0	26	104	0	60	39031
2026-01-10 03:02:35.48	300.18	14.23	-47.4	-50.0	6.1	7.54e-01	0	26	104	0	60	38811
2026-01-10 03:02:36.49	299.90	14.18	-47.7	-50.2	6.1	7.55e-01	0	26	104	0	60	39611
2026-01-10 03:02:37.50	299.62	14.14	-47.6	-50.2	6.1	7.53e-01	0	26	104	0	60	39461
2026-01-10 03:02:38.50	299.35	14.09	-47.8	-50.3	6.1	7.54e-01	0	26	104	0	60	40181
2026-01-10 03:02:39.51	299.07	14.05	-47.6	-50.2	6.1	7.53e-01	0	26	104	0	60	39616
2026-01-10 03:02:40.52	298.80	14.00	-47.7	-50.2	6.1	7.54e-01	0	26	104	0	60	39750
2026-01-10 03:02:41.53	298.52	13.95	-47.7	-50.2	6.1	7.54e-01	0	26	104	0	60	39571
2026-01-10 03:02:42.54	298.25	13.91	-47.7	-50.2	6.1	7.53e-01	0	26	104	0	60	39715
2026-01-10 03:02:43.55	297.97	13.86	-47.6	-50.2	6.1	7.55e-01	0	26	104	0	60	39599
2026-01-10 03:02:44.56	297.70	13.81	-47.7	-50.2	6.1	7.54e-01	0	26	104	0	60	39736
2026-01-10 03:02:45.57	297.43	13.76	-47.7	-50.3	6.1	7.53e-01	0	26	104	0	60	39995
2026-01-10 03:02:46.58	297.16	13.72	-47.8	-50.2	6.1	7.55e-01	0	26	104	0	60	39848
2026-01-10 03:02:47.59	296.89	13.67	-47.7	-50.2	6.0	7.54e-01	0	26	104	0	60	39548
2026-01-10 03:02:48.60	296.62	13.62	-47.8	-50.2	6.1	7.55e-01	0	26	104	0	60	39739
2026-01-10 03:02:49.61	296.36	13.57	-47.7	-50.3	6.1	7.55e-01	0	26	104	0	60	40158
2026-01-10 03:02:50.62	296.09	13.52	-47.7	-50.2	6.1	7.54e-01	0	26	104	0	60	39684
2026-01-10 03:02:51.63	295.83	13.47	-47.7	-50.2	6.1	7.54e-01	0	26	104	0	60	39671
2026-01-10 03:02:52.64	295.56	13.41	-47.7	-50.2	6.1	7.54e-01	0	26	104	0	60	39712
2026-01-10 03:02:53.65	295.30	13.36	-47.7	-50.2	6.1	7.53e-01	0	26	104	0	60	39693
2026-01-10 03:02:54.66	295.04	13.31	-47.7	-50.3	6.1	7.54e-01	0	26	104	0	60	39893
2026-01-10 03:02:55.66	294.78	13.26	-47.7	-50.2	6.1	7.54e-01	0	26	104	0	60	39661
2026-01-10 03:02:56.67	294.52	13.21	-47.7	-50.3	6.1	7.54e-01	0	26	104	0	60	40009
2026-01-10 03:02:57.68	294.26	13.15	-47.7	-50.3	6.1	7.54e-01	0	26	104	0	60	39990
2026-01-10 03:02:58.69	294.01	13.10	-47.7	-50.2	6.1	7.54e-01	0	26	104	0	60	39585
2026-01-10 03:02:59.70	293.75	13.05	-47.7	-50.3	6.1	7.55e-01	0	26	104	0	60	39976
2026-01-10 03:03:00.69	293.50	12.99	-47.7	-50.2	6.1	7.53e-01	0	26	104	0	60	39835
2026-01-10 03:03:01.70	293.25	12.94	-47.8	-50.3	6.1	7.54e-01	0	26	104	0	60	39953
2026-01-10 03:03:02.70	293.00	12.88	-47.8	-50.3	6.1	7.54e-01	0	26	104	0	60	39998
2026-01-10 03:03:03.71	292.74	12.83	-47.7	-50.2	6.1	7.55e-01	0	26	104	0	60	39845
2026-01-10 03:03:04.72	292.49	12.77	-47.7	-50.2	6.1	7.55e-01	0	26	104	0	60	39607
2026-01-10 03:03:05.73	292.24	12.72	-47.7	-50.2	6.1	7.54e-01	0	26	104	0	60	39532
2026-01-10 03:03:06.74	292.00	12.66	-47.7	-50.2	6.1	7.54e-01	0	26	104	0	60	39635
2026-01-10 03:03:07.75	291.75	12.61	-47.7	-50.2	6.1	7.56e-01	0	26	104	0	60	39495
2026-01-10 03:03:08.76	291.50	12.55	-47.7	-50.2	6.1	7.55e-01	0	26	104	0	60	39766
2026-01-10 03:03:09.77	291.26	12.49	-47.7	-50.2	6.1	7.55e-01	0	26	104	0	60	39537
2026-01-10 03:03:10.78	291.01	12.44	-47.7	-50.2	6.1	7.55e-01	0	26	104	0	60	39537
2026-01-10 03:03:11.79	290.77	12.38	-47.7	-50.2	6.1	7.54e-01	0	26	104	0	60	39452
2026-01-10 03:03:12.79	290.53	12.32	-47.7	-50.2	6.1	7.55e-01	0	26	104	0	60	39590
2026-01-10 03:03:13.80	290.29	12.26	-47.7	-50.2	6.1	7.54e-01	0	26	104	0	60	39606
2026-01-10 03:03:14.81	290.05	12.21	-47.7	-50.2	6.1	7.54e-01	0	26	104	0	60	39551
2026-01-10 03:03:15.82	289.82	12.15	-47.6	-50.1	6.1	7.54e-01	0	26	104	0	60	39299
2026-01-10 03:03:16.83	289.58	12.09	-47.7	-50.2	6.1	7.54e-01	0	26	104	0	60	39561
2026-01-10 03:03:17.84	289.34	12.03	-47.6	-50.1	6.1	7.55e-01	0	26	104	0	60	39341
2026-01-10 03:03:18.85	289.11	11.97	-47.7	-50.2	6.1	7.53e-01	0	26	104	0	60	39454
2026-01-10 03:03:19.86	288.87	11.91	-47.7	-50.2	6.1	7.54e-01	0	26	104	0	60	39427
2026-01-10 03:03:20.87	288.64	11.85	-47.7	-50.2	6.1	7.53e-01	0	26	104	0	60	39575
2026-01-10 03:03:21.88	288.41	11.79	-47.7	-50.1	6.1	7.55e-01	0	26	104	0	60	39397
2026-01-10 03:03:22.89	288.18	11.73	-47.7	-50.1	6.1	7.55e-01	0	26	104	0	60	39372
2026-01-10 03:03:23.90	287.95	11.67	-47.7	-50.1	6.1	7.54e-01	0	26	104	0	60	39393
2026-01-10 03:03:24.91	287.72	11.61	-47.7	-50.1	6.1	7.54e-01	0	26	104	0	60	39335
2026-01-10 03:03:25.91	287.50	11.55	-47.7	-50.2	6.1	7.53e-01	0	26	104	0	60	39464
2026-01-10 03:03:26.93	287.27	11.49	-47.7	-50.2	6.1	7.53e-01	0	26	104	0	60	39433
2026-01-10 03:03:27.94	287.05	11.43	-47.7	-50.1	6.1	7.54e-01	0	26	104	0	60	39295
2026-01-10 03:03:28.95	286.82	11.37	-47.6	-50.2	6.1	7.53e-01	0	26	104	0	60	39560
2026-01-10 03:03:29.95	286.60	11.31	-47.6	-50.1	6.1	7.54e-01	0	26	104	0	60	39204
2026-01-10 03:03:30.96	286.38	11.25	-47.7	-50.2	6.1	7.53e-01	0	26	104	0	60	39665
2026-01-10 03:03:31.97	286.16	11.18	-47.6	-50.1	6.1	7.55e-01	0	26	104	0	60	39123
2026-01-10 03:03:32.98	285.94	11.12	-47.6	-50.1	6.1	7.54e-01	0	26	104	0	60	39211
2026-01-10 03:03:33.99	285.72	11.06	-47.6	-50.1	6.1	7.54e-01	0	26	104	0	60	39406
2026-01-10 03:03:35.00	285.51	11.00	-47.6	-50.1	6.1	7.55e-01	0	26	104	0	60	38989
2026-01-10 03:03:36.01	285.29	10.94	-47.7	-50.1	6.1	7.54e-01	0	26	104	0	60	39149
2026-01-10 03:03:37.02	285.08	10.87	-47.7	-50.2	6.1	7.54e-01	0	26	104	0	60	39532
2026-01-10 03:03:38.02	284.87	10.81	-47.6	-50.1	6.1	7.53e-01	0	26	104	0	60	39034
2026-01-10 03:03:39.03	284.65	10.75	-47.6	-50.1	6.1	7.53e-01	0	26	104	0	60	39270
2026-01-10 03:03:40.04	284.44	10.69	-47.6	-50.1	6.1	7.53e-01	0	26	104	0	60	39007
2026-01-10 03:03:41.05	284.23	10.62	-47.6	-50.1	6.1	7.54e-01	0	26	104	0	60	39319
2026-01-10 03:03:42.06	284.02	10.56	-47.6	-50.1	6.1	7.54e-01	0	26	104	0	60	39058
2026-01-10 03:03:43.06	283.82	10.50	-47.6	-50.1	6.1	7.54e-01	0	26	104	0	60	39234
2026-01-10 03:03:44.07	283.61	10.44	-47.6	-50.0	6.1	7.54e-01	0	26	104	0	60	38913
2026-01-10 03:03:45.08	283.40	10.37	-47.6	-50.1	6.1	7.55e-01	0	26	104	0	60	39052
2026-01-10 03:03:46.09	283.20	10.31	-47.6	-50.1	6.1	7.55e-01	0	26	104	0	60	38987
2026-01-10 03:03:47.10	283.00	10.25	-47.6	-50.1	6.1	7.54e-01	0	26	104	0	60	38972
2026-01-10 03:03:48.11	282.79	10.18	-47.6	-50.0	6.1	7.54e-01	0	26	104	0	60	38895
2026-01-10 03:03:49.11	282.59	10.12	-47.6	-50.1	6.1	7.54e-01	0	26	104	0	60	39157
2026-01-10 03:03:50.12	282.39	10.06	-47.5	-49.9	6.1	7.54e-01	0	26	104	0	60	38480
2026-01-10 03:03:51.13	282.19	9.99	-47.6	-50.1	6.1	7.54e-01	0	26	104	0	60	38992
2026-01-10 03:03:52.15	281.99	9.93	-47.6	-50.0	6.1	7.53e-01	0	26	104	0	60	38775
2026-01-10 03:03:53.16	281.80	9.86	-47.6	-50.1	6.1	7.54e-01	0	26	104	0	60	39072
2026-01-10 03:03:54.17	281.60	9.80	-47.5	-50.0	6.1	7.55e-01	0	26	104	0	60	38666
2026-01-10 03:03:55.18	281.40	9.74	-47.6	-50.0	6.1	7.55e-01	0	26	104	0	60	38822
2026-01-10 03:03:56.19	281.21	9.67	-47.5	-50.0	6.1	7.54e-01	0	26	104	0	60	38701
2026-01-10 03:03:57.19	281.02	9.61	-47.6	-50.1	6.1	7.54e-01	0	26	104	0	60	38976
2026-01-10 03:03:58.20	280.83	9.54	-47.5	-50.0	6.1	7.54e-01	0	26	104	0	60	38734
2026-01-10 03:03:59.21	280.64	9.48	-47.5	-50.1	6.1	7.55e-01	0	26	104	0	60	38958
2026-01-10 03:04:00.22	280.44	9.42	-47.5	-49.9	6.1	7.55e-01	0	26	104	0	60	38473
2026-01-10 03:04:01.23	280.26	9.35	-47.6	-50.0	6.1	7.54e-01	0	26	104	0	60	38908
2026-01-10 03:04:02.24	280.07	9.29	-47.4	-49.9	6.1	7.55e-01	0	26	104	0	60	38378
2026-01-10 03:04:03.25	279.88	9.22	-47.5	-50.0	6.1	7.55e-01	0	26	104	0	60	38625
2026-01-10 03:04:04.26	279.69	9.16	-47.5	-50.0	6.1	7.54e-01	0	26	104	0	60	38799
2026-01-10 03:04:05.27	279.51	9.09	-47.5	-50.0	6.1	7.55e-01	0	26	104	0	60	38792
2026-01-10 03:04:06.27	279.33	9.03	-47.4	-49.9	6.1	7.55e-01	0	26	104	0	60	38341
2026-01-10 03:04:07.28	279.14	8.97	-47.5	-50.0	6.1	7.54e-01	0	26	104	0	60	38569
2026-01-10 03:04:08.29	278.96	8.90	-47.5	-50.0	6.1	7.54e-01	0	26	104	0	60	38746
2026-01-10 03:04:09.30	278.78	8.84	-47.5	-50.0	6.1	7.54e-01	0	26	104	0	60	38756
2026-01-10 03:04:10.31	278.60	8.77	-47.4	-49.8	6.1	7.56e-01	0	26	104	0	60	38042
2026-01-10 03:04:11.32	278.42	8.71	-47.4	-49.9	6.1	7.55e-01	0	26	104	0	60	38455
2026-01-10 03:04:12.33	278.24	8.64	-47.4	-49.9	6.1	7.54e-01	0	26	104	0	60	38309
2026-01-10 03:04:13.34	278.07	8.58	-47.4	-49.9	6.1	7.54e-01	0	26	104	0	60	38483
2026-01-10 03:04:14.35	277.89	8.51	-47.4	-49.9	6.1	7.55e-01	0	26	104	0	60	38247
2026-01-10 03:04:15.36	277.72	8.45	-47.4	-49.9	6.1	7.55e-01	0	26	104	0	60	38156
2026-01-10 03:04:16.37	277.54	8.38	-47.4	-49.9	6.1	7.55e-01	0	26	104	0	60	38120
2026-01-10 03:04:17.38	277.37	8.32	-47.4	-49.9	6.1	7.55e-01	0	26	104	0	60	38399
2026-01-10 03:04:18.38	277.20	8.26	-47.4	-49.8	6.1	7.53e-01	0	26	104	0	60	38015
2026-01-10 03:04:19.39	277.03	8.19	-47.3	-49.9	6.1	7.54e-01	0	26	104	0	60	38150
2026-01-10 03:04:20.40	276.85	8.13	-47.4	-49.9	6.1	7.54e-01	0	26	104	0	60	38300
2026-01-10 03:04:21.41	276.69	8.06	-47.4	-49.9	6.1	7.54e-01	0	26	104	0	60	38299
2026-01-10 03:04:22.42	276.52	8.00	-47.3	-49.8	6.1	7.53e-01	0	26	104	0	60	37840
2026-01-10 03:04:23.43	276.35	7.93	-47.3	-49.8	6.1	7.55e-01	0	26	104	0	60	37834
2026-01-10 03:04:24.44	276.18	7.87	-47.4	-49.9	6.1	7.55e-01	0	26	104	0	60	38416
2026-01-10 03:04:25.45	276.02	7.80	-47.3	-49.8	6.1	7.54e-01	0	26	104	0	60	37819
2026-01-10 03:04:26.46	275.85	7.74	-47.3	-49.8	6.1	7.55e-01	0	26	104	0	60	37911
2026-01-10 03:04:27.47	275.69	7.67	-47.3	-49.8	6.1	7.55e-01	0	26	104	0	60	37769
2026-01-10 03:04:28.47	275.52	7.61	-47.4	-49.9	6.1	7.56e-01	0	26	104	0	60	38102
2026-01-10 03:04:29.48	275.36	7.55	-47.3	-49.8	6.1	7.55e-01	0	26	104	0	60	37800
2026-01-10 03:04:30.49	275.20	7.48	-47.2	-49.7	6.1	7.54e-01	0	26	104	0	60	37363
2026-01-10 03:04:31.50	275.04	7.42	-47.2	-49.7	6.1	7.55e-01	0	26	104	0	60	37545
2026-01-10 03:04:32.51	274.88	7.35	-47.3	-49.8	6.1	7.54e-01	0	26	104	0	60	37766
2026-01-10 03:04:33.52	274.72	7.29	-47.3	-49.8	6.1	7.55e-01	0	26	104	0	60	37689
2026-01-10 03:04:34.53	274.56	7.22	-47.2	-49.7	6.1	7.55e-01	0	26	104	0	60	37438
2026-01-10 03:04:35.54	274.41	7.16	-47.2	-49.7	6.1	7.54e-01	0	26	104	0	60	37371
2026-01-10 03:04:36.55	274.25	7.10	-47.2	-49.7	6.1	7.54e-01	0	26	104	0	60	37376
2026-01-10 03:04:37.56	274.10	7.03	-47.2	-49.8	6.1	7.54e-01	0	26	104	0	60	37635
2026-01-10 03:04:38.57	273.94	6.97	-47.2	-49.6	6.1	7.53e-01	0	26	104	0	60	37193
2026-01-10 03:04:39.58	273.79	6.90	-47.2	-49.7	6.1	7.54e-01	0	26	104	0	60	37549
2026-01-10 03:04:40.59	273.63	6.84	-47.3	-49.7	6.1	7.54e-01	0	26	104	0	60	37630
2026-01-10 03:04:41.60	273.48	6.78	-47.2	-49.7	6.1	7.55e-01	0	26	104	0	60	37386
2026-01-10 03:04:42.61	273.33	6.71	-47.2	-49.6	6.1	7.54e-01	0	26	104	0	60	37183
2026-01-10 03:04:43.62	273.18	6.65	-47.2	-49.7	6.1	7.54e-01	0	26	104	0	60	37370
2026-01-10 03:04:44.63	273.03	6.58	-47.2	-49.7	6.1	7.55e-01	0	26	104	0	60	37236
2026-01-10 03:04:45.64	272.88	6.52	-47.2	-49.6	6.1	7.53e-01	0	26	104	0	60	37137
2026-01-10 03:04:46.65	272.73	6.46	-47.1	-49.6	6.1	7.53e-01	0	26	104	0	60	36899
2026-01-10 03:04:47.65	272.59	6.39	-47.2	-49.7	6.1	7.56e-01	0	26	104	0	60	37283
2026-01-10 03:04:48.66	272.44	6.33	-47.2	-49.7	6.1	7.53e-01	0	26	104	0	60	37219
2026-01-10 03:04:49.67	272.30	6.27	-47.1	-49.6	6.1	7.54e-01	0	26	104	0	60	36983
2026-01-10 03:04:50.68	272.15	6.20	-47.1	-49.6	6.1	7.55e-01	0	26	104	0	60	36776
2026-01-10 03:04:51.69	272.01	6.14	-47.1	-49.6	6.1	7.54e-01	0	26	104	0	60	37134
2026-01-10 03:04:52.70	271.87	6.08	-47.1	-49.6	6.1	7.54e-01	0	26	104	0	60	36934
2026-01-10 03:04:53.71	271.72	6.01	-47.1	-49.6	6.1	7.55e-01	0	26	104	0	60	36879
2026-01-10 03:04:54.72	271.58	5.95	-47.0	-49.5	6.1	7.54e-01	0	26	104	0	60	36658
2026-01-10 03:04:55.73	271.44	5.89	-47.1	-49.5	6.1	7.55e-01	0	26	104	0	60	36697
2026-01-10 03:04:56.74	271.30	5.82	-47.1	-49.6	6.1	7.55e-01	0	26	104	0	60	36865
2026-01-10 03:04:57.75	271.16	5.76	-47.1	-49.5	6.1	7.54e-01	0	26	104	0	60	36767
2026-01-10 03:04:58.76	271.02	5.70	-47.0	-49.5	6.1	7.54e-01	0	26	104	0	60	36618
2026-01-10 03:04:59.77	270.88	5.63	-47.0	-49.5	6.1	7.55e-01	0	26	104	0	60	36753
2026-01-10 03:05:00.78	270.75	5.57	-47.1	-49.6	6.1	7.54e-01	0	26	104	0	60	36931
2026-01-10 03:05:01.79	270.61	5.51	-47.0	-49.5	6.1	7.52e-01	0	26	104	0	60	36372
2026-01-10 03:05:02.79	270.48	5.44	-47.0	-49.5	6.1	7.54e-01	0	26	104	0	60	36570
2026-01-10 03:05:03.80	270.34	5.38	-47.0	-49.5	6.1	7.55e-01	0	26	104	0	60	36591
2026-01-10 03:05:04.81	270.21	5.32	-47.1	-49.6	6.1	7.55e-01	0	26	104	0	60	36777
2026-01-10 03:05:05.82	270.07	5.26	-46.9	-49.5	6.1	7.55e-01	0	26	104	0	60	36400
2026-01-10 03:05:06.83	269.94	5.19	-46.9	-49.4	6.1	7.54e-01	0	26	104	0	60	36011
2026-01-10 03:05:07.84	269.81	5.13	-47.0	-49.5	6.1	7.55e-01	0	26	104	0	60	36361
2026-01-10 03:05:08.85	269.68	5.07	-47.0	-49.5	6.1	7.53e-01	0	26	104	0	60	36694
2026-01-10 03:05:09.86	269.55	5.01	-46.8	-49.4	6.1	7.54e-01	0	26	104	0	60	35943
2026-01-10 03:05:10.87	269.42	4.94	-46.9	-49.4	6.1	7.55e-01	0	26	104	0	60	35971
2026-01-10 03:05:11.88	269.29	4.88	-46.9	-49.4	6.1	7.55e-01	0	26	104	0	60	36103
2026-01-10 03:05:12.89	269.16	4.82	-47.0	-49.5	6.1	7.54e-01	0	26	104	0	60	36429
2026-01-10 03:05:13.90	269.03	4.76	-46.8	-49.3	6.1	7.55e-01	0	26	104	0	60	35570
2026-01-10 03:05:14.91	268.91	4.70	-46.8	-49.3	6.1	7.55e-01	0	26	104	0	60	35580
2026-01-10 03:05:15.91	268.78	4.64	-46.9	-49.4	6.1	7.54e-01	0	26	104	0	60	36158
2026-01-10 03:05:16.92	268.66	4.57	-46.9	-49.4	6.1	7.54e-01	0	26	104	0	60	36271
2026-01-10 03:05:17.93	268.53	4.51	-46.7	-49.2	6.1	7.54e-01	0	26	104	0	60	35344
2026-01-10 03:05:18.94	268.41	4.45	-46.8	-49.3	6.1	7.55e-01	0	26	104	0	60	35552
2026-01-10 03:05:19.95	268.28	4.39	-46.8	-49.3	6.1	7.55e-01	0	26	104	0	60	35823
2026-01-10 03:05:20.96	268.16	4.33	-46.9	-49.4	6.1	7.55e-01	0	26	104	0	60	36084
2026-01-10 03:05:21.97	268.04	4.27	-46.7	-49.2	6.1	7.54e-01	0	26	104	0	60	35121
2026-01-10 03:05:22.98	267.91	4.20	-46.7	-49.2	6.1	7.55e-01	0	26	104	0	60	35234
2026-01-10 03:05:23.99	267.79	4.14	-46.8	-49.3	6.1	7.56e-01	0	26	104	0	60	35634
2026-01-10 03:05:25.00	267.67	4.08	-46.8	-49.3	6.1	7.55e-01	0	26	104	0	60	35879
2026-01-10 03:05:26.01	267.55	4.02	-46.5	-49.0	6.0	7.54e-01	0	26	104	0	60	34565
2026-01-10 03:05:27.02	267.43	3.96	-46.6	-49.1	6.1	7.53e-01	0	26	104	0	60	34784
2026-01-10 03:05:28.03	267.32	3.90	-46.7	-49.2	6.1	7.53e-01	0	26	104	0	60	35280
2026-01-10 03:05:29.04	267.20	3.84	-46.8	-49.3	6.1	7.54e-01	0	26	104	0	60	35744
2026-01-10 03:05:30.05	267.08	3.78	-46.5	-48.9	6.1	7.55e-01	0	26	104	0	60	34271
2026-01-10 03:05:31.06	266.96	3.72	-46.6	-49.1	6.1	7.54e-01	0	26	104	0	60	34766
2026-01-10 03:05:32.07	266.85	3.66	-46.6	-49.2	6.1	7.54e-01	0	26	104	0	60	35149
2026-01-10 03:05:33.07	266.73	3.60	-46.7	-49.2	6.1	7.55e-01	0	26	104	0	60	35370
2026-01-10 03:05:34.08	266.62	3.53	-46.4	-48.9	6.1	7.53e-01	0	26	104	0	60	34180
2026-01-10 03:05:35.09	266.50	3.47	-46.5	-49.0	6.1	7.54e-01	0	26	104	0	60	34441
2026-01-10 03:05:36.10	266.39	3.41	-46.6	-49.1	6.1	7.54e-01	0	26	104	0	60	34746
2026-01-10 03:05:37.11	266.28	3.35	-46.7	-49.1	6.1	7.55e-01	0	26	104	0	60	35113
2026-01-10 03:05:38.12	266.16	3.29	-46.2	-48.8	6.1	7.54e-01	0	26	104	0	60	33556
2026-01-10 03:05:39.13	266.05	3.23	-46.4	-48.9	6.1	7.55e-01	0	26	104	0	60	34135
2026-01-10 03:05:40.14	265.94	3.17	-46.5	-49.0	6.1	7.55e-01	0	26	104	0	60	34558
2026-01-10 03:05:41.15	265.83	3.11	-46.6	-49.1	6.1	7.54e-01	0	26	104	0	60	35058
2026-01-10 03:05:42.15	265.72	3.05	-46.2	-48.7	6.1	7.54e-01	0	26	104	0	60	33404
2026-01-10 03:05:43.16	265.61	2.99	-46.3	-48.8	6.1	7.54e-01	0	26	104	0	60	33808
2026-01-10 03:05:44.17	265.50	2.94	-47.2	-49.7	6.1	7.54e-01	0	26	104	0	60	37362
2026-01-10 03:05:45.18	265.39	2.88	-47.6	-50.1	6.1	7.54e-01	0	26	104	0	60	39038
2026-01-10 03:05:46.19	265.29	2.82	-47.8	-50.3	6.1	7.54e-01	0	26	104	0	60	40100
2026-01-10 03:05:47.20	265.18	2.76	-48.0	-50.5	6.1	7.54e-01	0	26	104	0	60	40864
2026-01-10 03:05:48.21	265.07	2.70	-48.0	-50.5	6.1	7.54e-01	0	26	104	0	60	41165
2026-01-10 03:05:49.22	264.97	2.64	-48.1	-50.6	6.1	7.55e-01	0	26	104	0	60	41295
2026-01-10 03:05:50.23	264.86	2.58	-48.1	-50.6	6.1	7.54e-01	0	26	104	0	60	41569
2026-01-10 03:05:51.24	264.76	2.52	-48.1	-50.6	6.1	7.54e-01	0	26	104	0	60	41665
2026-01-10 03:05:52.25	264.65	2.46	-48.1	-50.6	6.1	7.54e-01	0	26	104	0	60	41677
2026-01-10 03:05:53.26	264.55	2.40	-48.1	-50.6	6.0	7.54e-01	0	26	104	0	60	41561
2026-01-10 03:05:54.27	264.44	2.34	-47.8	-50.3	6.0	7.54e-01	0	26	104	0	60	40212
2026-01-10 03:05:55.27	264.34	2.28	-47.9	-50.5	6.1	7.55e-01	0	26	104	0	60	40866
2026-01-10 03:05:56.28	264.24	2.23	-47.8	-50.3	6.1	7.54e-01	0	26	104	0	60	40219
2026-01-10 03:05:57.29	264.14	2.17	-48.0	-50.5	6.1	7.54e-01	0	26	104	0	60	40854
2026-01-10 03:05:58.30	264.03	2.11	-48.0	-50.5	6.1	7.55e-01	0	26	104	0	60	40831
2026-01-10 03:05:59.31	263.93	2.05	-48.0	-50.4	6.1	7.55e-01	0	26	104	0	60	40484
2026-01-10 03:06:00.32	263.83	1.99	-47.8	-50.3	6.1	7.52e-01	0	26	104	0	60	40300
2026-01-10 03:06:01.33	263.73	1.93	-48.1	-50.5	6.1	7.54e-01	0	26	104	0	60	41086
2026-01-10 03:06:02.34	263.63	1.88	-48.0	-50.5	6.1	7.55e-01	0	26	104	0	60	40822
2026-01-10 03:06:03.35	263.54	1.82	-48.0	-50.5	6.1	7.53e-01	0	26	104	0	60	40982
2026-01-10 03:06:04.36	263.44	1.76	-48.0	-50.5	6.1	7.54e-01	0	26	104	0	60	41051
2026-01-10 03:06:05.37	263.34	1.70	-48.0	-50.5	6.1	7.54e-01	0	26	104	0	60	41022
2026-01-10 03:06:06.38	263.24	1.64	-48.0	-50.5	6.1	7.54e-01	0	26	104	0	60	41089
2026-01-10 03:06:07.39	263.14	1.59	-48.0	-50.5	6.1	7.55e-01	0	26	104	0	60	41139
2026-01-10 03:06:08.40	263.05	1.53	-48.0	-50.5	6.1	7.55e-01	0	26	104	0	60	40965
2026-01-10 03:06:09.41	262.95	1.47	-48.0	-50.5	6.1	7.55e-01	0	26	104	0	60	41096
2026-01-10 03:06:10.42	262.86	1.41	-48.0	-50.4	6.1	7.54e-01	0	26	104	0	60	40667
2026-01-10 03:06:11.43	262.76	1.36	-48.0	-50.5	6.1	7.54e-01	0	26	104	0	60	41065
2026-01-10 03:06:12.44	262.67	1.30	-48.0	-50.5	6.1	7.55e-01	0	26	104	0	60	40909
2026-01-10 03:06:13.45	262.57	1.24	-48.0	-50.5	6.1	7.54e-01	0	26	104	0	60	40861
2026-01-10 03:06:14.46	262.48	1.18	-48.0	-50.5	6.1	7.54e-01	0	26	104	0	60	41031
2026-01-10 03:06:15.47	262.39	1.13	-48.0	-50.4	6.1	7.54e-01	0	26	104	0	60	40756
2026-01-10 03:06:16.48	262.29	1.07	-48.0	-50.4	6.1	7.53e-01	0	26	104	0	60	40780
2026-01-10 03:06:17.48	262.20	1.01	-48.0	-50.5	6.1	7.54e-01	0	26	104	0	60	40878
2026-01-10 03:06:18.50	262.11	0.96	-48.0	-50.5	6.1	7.54e-01	0	26	104	0	60	40863
2026-01-10 03:06:19.51	262.02	0.90	-48.0	-50.5	6.1	7.53e-01	0	26	104	0	60	40962
2026-01-10 03:06:20.51	261.93	0.84	-48.0	-50.5	6.1	7.54e-01	0	26	104	0	60	40997
2026-01-10 03:06:21.52	261.84	0.79	-48.0	-50.5	6.1	7.54e-01	0	26	104	0	60	40893
2026-01-10 03:06:22.53	261.75	0.73	-48.0	-50.4	6.1	7.54e-01	0	26	104	0	60	40759
2026-01-10 03:06:23.54	261.66	0.67	-47.9	-50.4	6.1	7.53e-01	0	26	104	0	60	40722
2026-01-10 03:06:24.55	261.57	0.62	-48.0	-50.5	6.1	7.54e-01	0	26	104	0	60	40828
2026-01-10 03:06:25.56	261.48	0.56	-48.0	-50.4	6.1	7.55e-01	0	26	104	0	60	40695
2026-01-10 03:06:26.57	261.39	0.51	-47.9	-50.4	6.1	7.54e-01	0	26	104	0	60	40693
2026-01-10 03:06:27.58	261.30	0.45	-48.0	-50.4	6.1	7.54e-01	0	26	104	0	60	40784
2026-01-10 03:06:28.59	261.22	0.39	-48.0	-50.5	6.1	7.54e-01	0	26	104	0	60	40876
2026-01-10 03:06:29.60	261.13	0.34	-48.0	-50.5	6.1	7.53e-01	0	26	104	0	60	40878
2026-01-10 03:06:30.61	261.04	0.28	-48.0	-50.5	6.1	7.53e-01	0	26	104	0	60	40920
2026-01-10 03:06:31.62	260.96	0.23	-48.0	-50.4	6.1	7.55e-01	0	26	104	0	60	40671
2026-01-10 03:06:32.63	260.87	0.17	-48.0	-50.5	6.1	7.54e-01	0	26	104	0	60	40907
2026-01-10 03:06:33.63	260.79	0.12	-47.9	-50.5	6.1	7.55e-01	0	26	104	0	60	40833
2026-01-10 03:06:34.65	260.70	0.06	-48.0	-50.5	6.1	7.54e-01	0	26	104	0	60	40856
2026-01-10 03:06:35.65	260.62	0.00	-48.0	-50.5	6.1	7.54e-01	0	26	104	0	60	41100
2026-01-10 03:06:36.66	260.53	-0.05	-48.0	-50.5	6.1	7.55e-01	0	26	104	0	60	41010

#Closed at: 2026-01-10 03:06:37
#Recorded file [0 MB]: D:/lorett/data/35029_260110_145628.dat