passes_logs/2026/01/10/R4.6S_Anadyr/R4.6S_Anadyr__20260110_204623_NOAA_21_JPSS-2_rec.log

#Pass ID: 20260110_204623_NOAA 21 (JPSS-2)
#Satellite: NOAA 21 (JPSS-2)
#Configuration: NOAA-21
#almurnet v.1.7.20251203
#Start time: 2026-01-10 20:46:25

#Version: 2.2.20231116
#Station: R4.6S_Anadyr
#Location: 177.4865 lon 64.73178 lat
#TLE: 1 54234U 22150A   26009.79679979  .00000100  00000+0  68070-4 0  9993
#TLE: 2 54234  98.7494 310.7596 0000833 322.2782  37.8335 14.19533646164071

#Time	Az	El	Level	Level2	SNR	BER	BlckErr	Temp	State	Recorded	gain1	gain2
2026-01-10 20:46:25.12	76.59	0.09	-48.4	-66.2	3.5	3.02e+01	0	26	0	0	60	78232
2026-01-10 20:46:26.13	76.52	0.14	-48.0	-60.9	3.5	1.52e+00	0	27	104	0	60	38988
2026-01-10 20:46:27.14	76.45	0.19	-48.1	-61.0	3.5	1.52e+00	0	27	104	0	60	39191
2026-01-10 20:46:28.15	76.38	0.24	-48.0	-60.9	3.5	1.52e+00	0	27	104	0	60	39015
2026-01-10 20:46:29.16	76.31	0.29	-48.1	-61.0	3.5	1.52e+00	0	27	104	0	60	39310
2026-01-10 20:46:30.17	76.24	0.34	-48.1	-61.0	3.5	1.52e+00	0	27	104	0	60	39311
2026-01-10 20:46:31.17	76.17	0.39	-48.1	-60.9	3.5	1.51e+00	0	27	104	0	60	39056
2026-01-10 20:46:32.18	76.09	0.44	-48.1	-61.0	3.5	1.52e+00	0	27	104	0	60	39304
2026-01-10 20:46:33.19	76.02	0.50	-47.8	-60.9	3.5	1.52e+00	0	27	104	0	60	39113
2026-01-10 20:46:34.20	75.95	0.55	-48.1	-60.9	3.5	1.52e+00	0	27	104	0	60	39008
2026-01-10 20:46:35.21	75.88	0.60	-48.0	-60.9	3.5	1.52e+00	0	27	104	0	60	38905
2026-01-10 20:46:36.22	75.81	0.65	-47.9	-60.9	3.5	1.52e+00	0	28	104	0	60	38893
2026-01-10 20:46:37.24	75.73	0.70	-47.9	-60.8	3.5	1.52e+00	0	27	104	0	60	38317
2026-01-10 20:46:38.25	75.66	0.75	-47.6	-60.7	3.5	1.51e+00	0	28	104	0	60	37859
2026-01-10 20:46:39.26	75.59	0.81	-47.0	-60.5	3.5	1.52e+00	0	28	104	0	60	37090
2026-01-10 20:46:40.27	75.51	0.86	-47.3	-60.1	3.5	1.52e+00	0	28	104	0	60	35526
2026-01-10 20:46:41.28	75.44	0.91	-46.8	-59.6	3.5	1.52e+00	0	28	104	0	60	33523
2026-01-10 20:46:42.28	75.37	0.96	-46.3	-59.2	3.5	1.52e+00	0	28	104	0	60	31978
2026-01-10 20:46:43.30	75.29	1.01	-46.3	-59.2	3.5	1.51e+00	0	28	104	0	60	31974
2026-01-10 20:46:44.31	75.22	1.06	-46.3	-59.1	3.5	1.52e+00	0	28	104	0	60	31801
2026-01-10 20:46:45.32	75.14	1.12	-46.3	-59.1	3.5	1.52e+00	0	28	104	0	60	31615
2026-01-10 20:46:46.33	75.07	1.17	-46.2	-59.1	3.5	1.52e+00	0	28	104	0	60	31670
2026-01-10 20:46:47.34	74.99	1.22	-46.3	-59.2	3.5	1.51e+00	0	28	104	0	60	31926
2026-01-10 20:46:48.34	74.92	1.27	-46.3	-59.2	3.5	1.52e+00	0	28	104	0	60	31867
2026-01-10 20:46:49.35	74.84	1.32	-46.2	-59.2	3.5	1.52e+00	0	28	104	0	60	31922
2026-01-10 20:46:50.36	74.76	1.38	-46.3	-59.2	3.5	1.52e+00	0	28	104	0	60	31887
2026-01-10 20:46:51.37	74.69	1.43	-46.3	-59.2	3.5	1.52e+00	0	28	104	0	60	31892
2026-01-10 20:46:52.38	74.61	1.48	-46.3	-59.1	3.5	1.52e+00	0	28	104	0	60	31750
2026-01-10 20:46:53.39	74.53	1.53	-46.2	-59.1	3.5	1.52e+00	0	28	104	0	60	31521
2026-01-10 20:46:54.40	74.46	1.59	-46.2	-59.0	3.5	1.52e+00	0	28	104	0	60	31452
2026-01-10 20:46:55.41	74.38	1.64	-46.2	-59.1	3.5	1.52e+00	0	28	104	0	60	31722
2026-01-10 20:46:56.42	74.30	1.69	-46.2	-59.1	3.5	1.52e+00	0	28	104	0	60	31802
2026-01-10 20:46:57.43	74.22	1.74	-46.2	-59.1	3.5	1.52e+00	0	28	104	0	60	31712
2026-01-10 20:46:58.44	74.14	1.80	-46.2	-59.1	3.5	1.52e+00	0	28	104	0	60	31631
2026-01-10 20:46:59.45	74.06	1.85	-46.2	-59.1	3.5	1.52e+00	0	28	104	0	60	31608
2026-01-10 20:47:00.46	73.99	1.90	-46.2	-58.9	3.5	1.52e+00	0	28	104	0	60	31008
2026-01-10 20:47:01.47	73.91	1.95	-46.2	-58.9	3.5	1.52e+00	0	28	104	0	60	30831
2026-01-10 20:47:02.48	73.83	2.01	-46.2	-58.8	3.4	1.51e+00	0	28	104	0	60	30509
2026-01-10 20:47:03.49	73.75	2.06	-46.2	-58.7	3.5	1.52e+00	0	28	104	0	60	30155
2026-01-10 20:47:04.50	73.67	2.11	-46.2	-58.4	3.5	1.52e+00	0	28	104	0	60	29175
2026-01-10 20:47:05.51	73.59	2.16	-46.2	-58.6	3.5	1.52e+00	0	28	104	0	60	30019
2026-01-10 20:47:06.52	73.50	2.22	-46.2	-58.9	3.5	1.52e+00	0	28	104	0	60	30800
2026-01-10 20:47:07.53	73.42	2.27	-46.2	-59.1	3.5	1.52e+00	0	28	104	0	60	31474
2026-01-10 20:47:08.54	73.34	2.32	-46.2	-59.1	3.5	1.52e+00	0	28	104	0	60	31797
2026-01-10 20:47:09.55	73.26	2.38	-46.2	-59.0	3.5	1.52e+00	0	28	104	0	60	31364
2026-01-10 20:47:10.56	73.18	2.43	-46.2	-59.0	3.5	1.52e+00	0	28	104	0	60	31183
2026-01-10 20:47:11.57	73.10	2.48	-46.2	-59.1	3.5	1.52e+00	0	28	104	0	60	31545
2026-01-10 20:47:12.58	73.01	2.54	-46.2	-59.1	3.5	1.51e+00	0	28	104	0	60	31631
2026-01-10 20:47:13.59	72.93	2.59	-46.2	-58.8	3.5	1.52e+00	0	28	104	0	60	30468
2026-01-10 20:47:14.59	72.85	2.64	-46.1	-58.0	3.5	1.52e+00	0	28	104	0	60	27891
2026-01-10 20:47:15.60	72.76	2.70	-46.1	-57.7	3.5	1.52e+00	0	28	104	0	60	27059
2026-01-10 20:47:16.61	72.68	2.75	-46.2	-58.0	3.5	1.51e+00	0	28	104	0	60	28013
2026-01-10 20:47:17.62	72.60	2.80	-46.2	-58.8	3.5	1.52e+00	0	28	104	0	60	30718
2026-01-10 20:47:18.63	72.51	2.86	-46.0	-56.9	3.6	1.51e+00	0	28	104	0	60	24425
2026-01-10 20:47:19.64	72.43	2.91	-45.1	-51.6	7.0	2.44e-01	123	28	104	0	60	13328
2026-01-10 20:47:20.65	72.34	2.96	-44.0	-47.8	10.3	2.46e-02	123	28	0	2097152	60	8591
2026-01-10 20:47:21.66	72.26	3.02	-42.4	-45.1	13.2	3.58e-05	120	28	0	5242880	58	7101
2026-01-10 20:47:22.67	72.17	3.07	-41.3	-43.5	15.0	0.00e+00	120	28	0	8388608	56	6604
2026-01-10 20:47:23.68	72.08	3.12	-46.4	-57.0	3.5	2.20e-01	0	28	104	10485760	60	24891
2026-01-10 20:47:24.69	72.00	3.18	-45.3	-51.5	10.1	1.51e+00	0	28	104	10485760	60	13201
2026-01-10 20:47:25.70	71.91	3.23	-45.9	-55.2	3.5	2.41e-03	117	28	104	10485760	60	20302
2026-01-10 20:47:26.71	71.82	3.28	-45.2	-51.5	4.1	1.48e+00	0	28	104	10485760	60	13162
2026-01-10 20:47:27.72	71.74	3.34	-37.7	-39.1	19.0	4.14e-03	123	28	0	10485760	48	6288
2026-01-10 20:47:28.73	71.65	3.39	-38.3	-39.7	18.8	0.00e+00	120	28	0	13631488	50	6000
2026-01-10 20:47:29.74	71.56	3.45	-37.4	-38.7	19.6	0.00e+00	123	28	0	16777216	48	6001
2026-01-10 20:47:30.75	71.47	3.50	-37.5	-38.7	19.7	0.00e+00	123	28	0	19922944	48	6049
2026-01-10 20:47:31.76	71.38	3.55	-37.1	-38.3	20.0	0.00e+00	122	28	0	23068672	48	5735
2026-01-10 20:47:32.77	71.29	3.61	-37.0	-38.2	20.1	0.00e+00	123	28	0	26214400	48	5699
2026-01-10 20:47:33.78	71.20	3.66	-37.0	-38.2	20.1	0.00e+00	120	28	0	29360128	48	5714
2026-01-10 20:47:34.79	71.11	3.72	-36.9	-38.1	20.2	0.00e+00	123	28	0	32505856	48	5643
2026-01-10 20:47:35.80	71.02	3.77	-36.6	-37.8	20.5	0.00e+00	123	28	0	35651584	46	6092
2026-01-10 20:47:36.81	70.93	3.83	-36.8	-38.0	20.3	0.00e+00	123	28	0	38797312	46	6231
2026-01-10 20:47:37.82	70.84	3.88	-37.1	-38.3	20.1	0.00e+00	123	28	0	41943040	46	6493
2026-01-10 20:47:38.83	70.75	3.93	-37.4	-38.7	19.8	0.00e+00	120	28	0	45088768	46	6739
2026-01-10 20:47:39.84	70.66	3.99	-36.7	-37.9	20.5	0.00e+00	118	28	0	48234496	46	6178
2026-01-10 20:47:40.85	70.57	4.04	-36.9	-38.0	20.3	0.00e+00	123	28	0	51380224	46	6256
2026-01-10 20:47:41.86	70.48	4.10	-36.9	-38.1	20.3	0.00e+00	122	28	0	54525952	46	6310
2026-01-10 20:47:42.87	70.38	4.15	-37.4	-38.7	19.8	0.00e+00	120	28	0	57671680	46	6749
2026-01-10 20:47:43.88	70.29	4.21	-37.1	-38.3	20.1	0.00e+00	122	28	0	60817408	46	6466
2026-01-10 20:47:44.88	70.20	4.26	-37.1	-38.3	20.1	0.00e+00	123	28	0	63963136	46	6443
2026-01-10 20:47:45.90	70.10	4.32	-37.9	-39.2	19.4	0.00e+00	122	28	0	67108864	48	6371
2026-01-10 20:47:46.90	70.01	4.37	-37.5	-38.7	19.8	0.00e+00	123	28	0	70254592	48	6041
2026-01-10 20:47:47.91	69.91	4.42	-37.2	-38.4	20.1	0.00e+00	122	28	0	73400320	48	5824
2026-01-10 20:47:48.92	69.82	4.48	-37.1	-38.3	20.2	0.00e+00	122	28	0	76546048	48	5791
2026-01-10 20:47:49.93	69.72	4.53	-37.2	-38.4	20.1	0.00e+00	123	28	0	79691776	48	5851
2026-01-10 20:47:50.95	69.63	4.59	-37.2	-38.4	20.1	0.00e+00	123	28	0	82837504	48	5837
2026-01-10 20:47:51.96	69.53	4.64	-37.6	-38.9	19.8	0.00e+00	120	28	0	85983232	48	6145
2026-01-10 20:47:52.97	69.44	4.70	-37.1	-38.3	20.4	0.00e+00	123	28	0	89128960	48	5766
2026-01-10 20:47:53.98	69.34	4.75	-36.7	-37.9	20.6	0.00e+00	123	28	0	92274688	46	6184
2026-01-10 20:47:54.99	69.24	4.81	-36.8	-38.0	20.6	0.00e+00	123	28	0	95420416	46	6261
2026-01-10 20:47:56.00	69.15	4.86	-37.1	-38.3	20.2	0.00e+00	122	28	0	98566144	46	6472
2026-01-10 20:47:57.01	69.05	4.92	-37.1	-38.3	20.3	0.00e+00	122	28	0	101711872	46	6444
2026-01-10 20:47:58.02	68.95	4.97	-36.9	-38.1	20.5	0.00e+00	120	28	0	104857600	46	6305
2026-01-10 20:47:59.03	68.85	5.03	-37.0	-38.2	20.4	0.00e+00	122	28	0	108003328	46	6399
2026-01-10 20:48:00.04	68.75	5.08	-37.1	-38.2	20.4	0.00e+00	120	28	0	111149056	46	6413
2026-01-10 20:48:01.05	68.65	5.14	-37.2	-38.4	20.1	0.00e+00	123	28	0	114294784	46	6547
2026-01-10 20:48:02.06	68.55	5.19	-37.1	-38.3	20.3	0.00e+00	121	28	0	117440512	46	6470
2026-01-10 20:48:03.08	68.45	5.25	-37.0	-38.1	20.4	0.00e+00	122	28	0	120586240	46	6341
2026-01-10 20:48:04.09	68.35	5.30	-37.1	-38.3	20.4	0.00e+00	123	28	0	123731968	46	6452
2026-01-10 20:48:05.10	68.25	5.36	-36.7	-37.9	20.7	0.00e+00	122	28	0	126877696	46	6135
2026-01-10 20:48:06.11	68.15	5.41	-36.8	-37.9	20.7	0.00e+00	121	28	0	130023424	46	6177
2026-01-10 20:48:07.12	68.05	5.47	-37.0	-38.2	20.4	0.00e+00	123	28	0	133169152	46	6386
2026-01-10 20:48:08.13	67.95	5.53	-36.8	-38.0	20.6	0.00e+00	120	28	0	136314880	46	6214
2026-01-10 20:48:09.14	67.84	5.58	-36.8	-38.0	20.6	0.00e+00	123	28	0	139460608	46	6227
2026-01-10 20:48:10.15	67.74	5.64	-36.6	-37.8	20.8	0.00e+00	123	28	0	142606336	46	6084
2026-01-10 20:48:11.16	67.64	5.69	-36.8	-37.9	20.7	0.00e+00	122	28	0	145752064	46	6205
2026-01-10 20:48:12.17	67.53	5.75	-36.9	-38.1	20.6	0.00e+00	122	28	0	148897792	46	6331
2026-01-10 20:48:13.18	67.43	5.80	-36.9	-38.1	20.6	0.00e+00	123	28	0	152043520	46	6316
2026-01-10 20:48:14.19	67.32	5.86	-37.0	-38.2	20.6	0.00e+00	123	28	0	155189248	46	6361
2026-01-10 20:48:15.20	67.22	5.91	-37.0	-38.2	20.6	0.00e+00	123	28	0	158334976	46	6353
2026-01-10 20:48:16.21	67.11	5.97	-37.0	-38.1	20.6	0.00e+00	123	28	0	161480704	46	6346
2026-01-10 20:48:17.22	67.01	6.02	-36.9	-38.0	20.7	0.00e+00	123	28	0	164626432	46	6253
2026-01-10 20:48:18.23	66.90	6.08	-36.9	-38.1	20.6	0.00e+00	120	28	0	167772160	46	6321
2026-01-10 20:48:19.24	66.80	6.14	-37.0	-38.2	20.7	0.00e+00	123	28	0	171966464	46	6366
2026-01-10 20:48:20.25	66.69	6.19	-36.5	-37.6	21.2	0.00e+00	122	28	0	174063616	46	5960
2026-01-10 20:48:21.26	66.58	6.25	-36.3	-37.4	21.3	0.00e+00	122	28	0	177209344	46	5846
2026-01-10 20:48:22.27	66.47	6.30	-36.2	-37.3	21.4	0.00e+00	123	28	0	180355072	46	5775
2026-01-10 20:48:23.28	66.37	6.36	-36.3	-37.4	21.2	0.00e+00	122	28	0	184549376	46	5828
2026-01-10 20:48:24.29	66.26	6.41	-36.2	-37.3	21.4	0.00e+00	120	28	0	187695104	46	5760
2026-01-10 20:48:25.30	66.15	6.47	-36.3	-37.4	21.2	0.00e+00	122	28	0	190840832	46	5797
2026-01-10 20:48:26.31	66.04	6.53	-36.3	-37.4	21.3	0.00e+00	122	28	0	193986560	46	5801
2026-01-10 20:48:27.32	65.93	6.58	-36.5	-37.6	21.0	0.00e+00	122	28	0	197132288	46	5948
2026-01-10 20:48:28.33	65.82	6.64	-36.3	-37.4	21.3	0.00e+00	122	28	0	200278016	46	5827
2026-01-10 20:48:29.35	65.71	6.69	-36.3	-37.5	21.2	0.00e+00	122	28	0	203423744	46	5890
2026-01-10 20:48:30.36	65.59	6.75	-36.4	-37.5	21.2	0.00e+00	120	28	0	206569472	46	5917
2026-01-10 20:48:31.37	65.48	6.81	-36.3	-37.4	21.3	0.00e+00	123	28	0	209715200	46	5836
2026-01-10 20:48:32.38	65.37	6.86	-36.3	-37.3	21.4	0.00e+00	123	28	0	212860928	46	5782
2026-01-10 20:48:33.39	65.26	6.92	-36.1	-37.2	21.5	0.00e+00	123	28	0	216006656	46	5690
2026-01-10 20:48:34.40	65.15	6.97	-36.1	-37.2	21.5	0.00e+00	123	28	0	219152384	46	5697
2026-01-10 20:48:35.41	65.03	7.03	-36.1	-37.2	21.7	0.00e+00	123	28	0	222298112	46	5683
2026-01-10 20:48:36.42	64.92	7.09	-35.8	-36.8	21.9	0.00e+00	122	28	0	225443840	46	5442
2026-01-10 20:48:37.43	64.80	7.14	-35.6	-36.7	22.0	0.00e+00	122	28	0	228589568	44	5995
2026-01-10 20:48:38.44	64.69	7.20	-35.6	-36.6	22.0	0.00e+00	120	28	0	231735296	44	5976
2026-01-10 20:48:39.45	64.57	7.25	-35.6	-36.6	21.9	0.00e+00	123	28	0	234881024	44	5989
2026-01-10 20:48:40.46	64.46	7.31	-35.5	-36.6	22.0	0.00e+00	123	28	0	238026752	44	5941
2026-01-10 20:48:41.47	64.34	7.37	-35.6	-36.6	21.9	0.00e+00	120	28	0	241172480	44	5994
2026-01-10 20:48:42.48	64.23	7.42	-35.6	-36.7	21.9	0.00e+00	123	28	0	244318208	44	6006
2026-01-10 20:48:43.49	64.11	7.48	-35.4	-36.5	22.1	0.00e+00	123	28	0	247463936	44	5867
2026-01-10 20:48:44.50	63.99	7.53	-35.5	-36.6	22.1	0.00e+00	123	28	0	250609664	44	5934
2026-01-10 20:48:45.51	63.87	7.59	-35.5	-36.5	22.1	0.00e+00	123	28	0	253755392	44	5885
2026-01-10 20:48:46.52	63.75	7.65	-35.5	-36.5	22.1	0.00e+00	122	28	0	256901120	44	5882
2026-01-10 20:48:47.53	63.64	7.70	-35.5	-36.6	22.1	0.00e+00	123	28	0	260046848	44	5934
2026-01-10 20:48:48.54	63.52	7.76	-35.4	-36.4	22.3	0.00e+00	122	28	0	263192576	44	5858
2026-01-10 20:48:49.55	63.40	7.81	-35.2	-36.2	22.3	0.00e+00	123	28	0	266338304	44	5709
2026-01-10 20:48:50.56	63.28	7.87	-35.2	-36.2	22.5	0.00e+00	122	28	0	269484032	44	5714
2026-01-10 20:48:51.57	63.15	7.93	-35.3	-36.3	22.4	0.00e+00	123	28	0	272629760	44	5742
2026-01-10 20:48:52.58	63.03	7.98	-35.2	-36.2	22.4	0.00e+00	121	28	0	275775488	44	5683
2026-01-10 20:48:53.59	62.91	8.04	-35.2	-36.2	22.4	0.00e+00	122	28	0	278921216	44	5672
2026-01-10 20:48:54.60	62.79	8.10	-35.1	-36.1	22.4	0.00e+00	123	28	0	282066944	44	5657
2026-01-10 20:48:55.61	62.67	8.15	-35.1	-36.1	22.5	0.00e+00	123	28	0	285212672	44	5641
2026-01-10 20:48:56.62	62.54	8.21	-35.1	-36.2	22.4	0.00e+00	122	28	0	288358400	44	5664
2026-01-10 20:48:57.63	62.42	8.26	-35.1	-36.1	22.4	0.00e+00	120	28	0	291504128	44	5631
2026-01-10 20:48:58.64	62.30	8.32	-35.0	-36.0	22.5	0.00e+00	122	28	0	294649856	44	5578
2026-01-10 20:48:59.65	62.17	8.38	-35.1	-36.1	22.4	0.00e+00	120	28	0	297795584	44	5650
2026-01-10 20:49:00.66	62.05	8.43	-34.9	-35.9	22.6	0.00e+00	122	28	0	300941312	44	5494
2026-01-10 20:49:01.67	61.92	8.49	-35.0	-36.0	22.6	0.00e+00	122	28	0	304087040	44	5563
2026-01-10 20:49:02.68	61.79	8.54	-35.0	-36.0	22.7	0.00e+00	123	28	0	307232768	44	5586
2026-01-10 20:49:03.69	61.67	8.60	-34.8	-35.8	22.7	0.00e+00	123	28	0	310378496	44	5453
2026-01-10 20:49:04.70	61.54	8.66	-34.8	-35.8	22.8	0.00e+00	122	28	0	313524224	44	5405
2026-01-10 20:49:05.71	61.41	8.71	-34.8	-35.8	22.9	0.00e+00	121	28	0	316669952	44	5433
2026-01-10 20:49:06.72	61.28	8.77	-34.9	-35.9	22.7	0.00e+00	123	28	0	319815680	44	5482
2026-01-10 20:49:07.73	61.16	8.82	-34.8	-35.8	22.8	0.00e+00	120	28	0	322961408	44	5436
2026-01-10 20:49:08.74	61.03	8.88	-34.8	-35.8	22.8	0.00e+00	122	28	0	326107136	44	5452
2026-01-10 20:49:09.74	60.90	8.94	-34.8	-35.8	22.9	0.00e+00	123	28	0	329252864	42	6086
2026-01-10 20:49:10.76	60.77	8.99	-34.8	-35.8	22.9	0.00e+00	120	28	0	332398592	42	6095
2026-01-10 20:49:11.76	60.64	9.05	-34.8	-35.8	23.0	0.00e+00	122	28	0	335544320	42	6067
2026-01-10 20:49:12.78	60.50	9.10	-34.7	-35.7	23.0	0.00e+00	123	28	0	338690048	42	6005
2026-01-10 20:49:13.79	60.37	9.16	-34.6	-35.5	23.1	0.00e+00	122	28	0	341835776	42	5895
2026-01-10 20:49:14.79	60.24	9.22	-34.5	-35.5	23.2	0.00e+00	120	28	0	344981504	42	5895
2026-01-10 20:49:15.80	60.11	9.27	-34.6	-35.6	23.0	0.00e+00	123	28	0	348127232	42	5947
2026-01-10 20:49:16.81	59.98	9.33	-34.6	-35.6	23.1	0.00e+00	122	28	0	351272960	42	5973
2026-01-10 20:49:17.82	59.84	9.38	-34.5	-35.5	23.2	0.00e+00	122	28	0	354418688	42	5864
2026-01-10 20:49:18.83	59.71	9.44	-34.5	-35.5	23.2	0.00e+00	122	28	0	357564416	42	5870
2026-01-10 20:49:19.84	59.57	9.49	-34.6	-35.5	23.1	0.00e+00	122	28	0	360710144	42	5921
2026-01-10 20:49:20.85	59.44	9.55	-34.4	-35.3	23.3	0.00e+00	122	28	0	363855872	42	5771
2026-01-10 20:49:21.87	59.30	9.61	-34.4	-35.3	23.3	0.00e+00	122	28	0	367001600	42	5763
2026-01-10 20:49:22.87	59.17	9.66	-34.4	-35.4	23.2	0.00e+00	123	28	0	370147328	42	5829
2026-01-10 20:49:23.88	59.03	9.72	-34.5	-35.4	23.2	0.00e+00	123	28	0	373293056	42	5842
2026-01-10 20:49:24.89	58.89	9.77	-34.4	-35.4	23.3	0.00e+00	120	28	0	376438784	42	5802
2026-01-10 20:49:25.90	58.75	9.83	-34.5	-35.5	23.2	0.00e+00	123	28	0	379584512	42	5875
2026-01-10 20:49:26.92	58.61	9.88	-34.7	-35.6	23.0	0.00e+00	123	28	0	382730240	42	5984
2026-01-10 20:49:27.93	58.47	9.94	-34.6	-35.6	23.2	0.00e+00	122	28	0	385875968	42	5952
2026-01-10 20:49:28.93	58.34	9.99	-34.5	-35.5	23.2	0.00e+00	123	28	0	389021696	42	5885
2026-01-10 20:49:29.94	58.20	10.05	-34.4	-35.4	23.4	0.00e+00	122	28	0	392167424	42	5821
2026-01-10 20:49:30.95	58.05	10.11	-34.5	-35.4	23.2	0.00e+00	123	28	0	395313152	42	5828
2026-01-10 20:49:31.96	57.91	10.16	-34.5	-35.4	23.3	0.00e+00	123	28	0	398458880	42	5823
2026-01-10 20:49:32.97	57.77	10.22	-34.5	-35.4	23.3	0.00e+00	123	28	0	401604608	42	5853
2026-01-10 20:49:33.98	57.63	10.27	-34.5	-35.4	23.3	0.00e+00	120	28	0	404750336	42	5849
2026-01-10 20:49:34.99	57.49	10.33	-34.5	-35.5	23.2	0.00e+00	123	28	0	407896064	42	5880
2026-01-10 20:49:36.00	57.34	10.38	-34.5	-35.5	23.3	0.00e+00	122	28	0	411041792	42	5865
2026-01-10 20:49:37.01	57.20	10.44	-34.6	-35.6	23.2	0.00e+00	122	28	0	414187520	42	5931
2026-01-10 20:49:38.02	57.05	10.49	-34.6	-35.5	23.2	0.00e+00	122	28	0	417333248	42	5915
2026-01-10 20:49:39.03	56.91	10.55	-34.5	-35.5	23.3	0.00e+00	123	28	0	420478976	42	5894
2026-01-10 20:49:40.04	56.76	10.60	-34.5	-35.4	23.3	0.00e+00	123	28	0	423624704	42	5845
2026-01-10 20:49:41.06	56.62	10.66	-34.3	-35.3	23.5	0.00e+00	122	28	0	426770432	42	5765
2026-01-10 20:49:42.07	56.47	10.71	-34.4	-35.3	23.4	0.00e+00	120	28	0	429916160	42	5763
2026-01-10 20:49:43.08	56.32	10.77	-34.5	-35.5	23.4	0.00e+00	122	28	0	433061888	42	5877
2026-01-10 20:49:44.08	56.18	10.82	-34.4	-35.3	23.3	0.00e+00	123	28	0	436207616	42	5786
2026-01-10 20:49:45.10	56.03	10.88	-34.6	-35.5	23.1	0.00e+00	123	28	0	439353344	42	5910
2026-01-10 20:49:46.11	55.88	10.93	-34.7	-35.6	23.1	0.00e+00	120	28	0	442499072	42	5974
2026-01-10 20:49:47.11	55.73	10.98	-34.7	-35.7	23.0	0.00e+00	122	28	0	445644800	42	6032
2026-01-10 20:49:48.13	55.58	11.04	-34.8	-35.8	23.0	0.00e+00	120	28	0	448790528	42	6067
2026-01-10 20:49:49.13	55.43	11.09	-35.0	-36.0	22.9	0.00e+00	122	28	0	451936256	42	6237
2026-01-10 20:49:50.15	55.27	11.15	-35.0	-36.0	22.8	0.00e+00	120	28	0	455081984	42	6226
2026-01-10 20:49:51.16	55.12	11.20	-35.0	-36.0	22.9	0.00e+00	123	28	0	458227712	42	6223
2026-01-10 20:49:52.16	54.97	11.26	-35.0	-36.0	22.9	0.00e+00	122	28	0	461373440	42	6214
2026-01-10 20:49:53.17	54.82	11.31	-35.0	-36.0	22.9	0.00e+00	122	28	0	464519168	42	6229
2026-01-10 20:49:54.18	54.67	11.36	-34.8	-35.7	23.1	0.00e+00	123	28	0	467664896	42	6061
2026-01-10 20:49:55.19	54.51	11.42	-34.9	-35.8	23.0	0.00e+00	123	28	0	470810624	42	6131
2026-01-10 20:49:56.21	54.36	11.47	-35.0	-36.0	23.0	0.00e+00	122	28	0	473956352	42	6233
2026-01-10 20:49:57.21	54.20	11.53	-34.8	-35.8	23.0	0.00e+00	123	28	0	477102080	42	6088
2026-01-10 20:49:58.22	54.05	11.58	-34.8	-35.7	23.0	0.00e+00	123	28	0	480247808	42	6045
2026-01-10 20:49:59.24	53.89	11.63	-34.8	-35.8	23.0	0.00e+00	122	28	0	484442112	42	6099
2026-01-10 20:50:00.25	53.73	11.69	-35.1	-36.1	22.9	0.00e+00	123	28	0	487587840	42	6291
2026-01-10 20:50:01.26	53.57	11.74	-34.9	-35.9	23.0	0.00e+00	123	28	0	490733568	42	6163
2026-01-10 20:50:02.27	53.41	11.79	-35.0	-36.0	23.0	0.00e+00	123	28	0	492830720	42	6252
2026-01-10 20:50:03.28	53.26	11.85	-35.0	-35.9	23.1	0.00e+00	123	28	0	495976448	42	6185
2026-01-10 20:50:04.29	53.10	11.90	-34.9	-35.9	23.0	0.00e+00	123	28	0	500170752	42	6161
2026-01-10 20:50:05.30	52.94	11.95	-35.0	-36.0	23.0	0.00e+00	122	28	0	503316480	42	6243
2026-01-10 20:50:06.31	52.78	12.00	-34.8	-35.7	23.2	0.00e+00	122	28	0	506462208	42	6056
2026-01-10 20:50:07.32	52.62	12.06	-34.9	-35.9	23.1	0.00e+00	123	28	0	509607936	42	6164
2026-01-10 20:50:08.33	52.45	12.11	-34.8	-35.7	23.2	0.00e+00	122	28	0	512753664	42	6037
2026-01-10 20:50:09.34	52.29	12.16	-34.6	-35.5	23.3	0.00e+00	122	28	0	515899392	42	5919
2026-01-10 20:50:10.35	52.13	12.21	-34.4	-35.4	23.4	0.00e+00	123	28	0	519045120	42	5804
2026-01-10 20:50:11.36	51.96	12.27	-34.4	-35.3	23.5	0.00e+00	123	28	0	522190848	42	5783
2026-01-10 20:50:12.37	51.80	12.32	-34.5	-35.5	23.3	0.00e+00	122	28	0	525336576	42	5877
2026-01-10 20:50:13.38	51.64	12.37	-34.5	-35.4	23.4	0.00e+00	123	28	0	528482304	42	5826
2026-01-10 20:50:14.39	51.47	12.42	-34.6	-35.5	23.4	0.00e+00	122	28	0	531628032	42	5899
2026-01-10 20:50:15.40	51.31	12.47	-34.4	-35.3	23.5	0.00e+00	120	28	0	534773760	42	5765
2026-01-10 20:50:16.41	51.14	12.53	-34.4	-35.3	23.6	0.00e+00	122	28	0	537919488	42	5753
2026-01-10 20:50:17.42	50.97	12.58	-34.3	-35.3	23.5	0.00e+00	123	28	0	541065216	42	5737
2026-01-10 20:50:18.43	50.80	12.63	-34.4	-35.3	23.5	0.00e+00	122	28	0	544210944	42	5785
2026-01-10 20:50:19.44	50.64	12.68	-34.3	-35.2	23.5	0.00e+00	120	28	0	547356672	42	5695
2026-01-10 20:50:20.45	50.47	12.73	-34.3	-35.3	23.4	0.00e+00	122	28	0	550502400	42	5742
2026-01-10 20:50:21.46	50.30	12.78	-34.4	-35.4	23.5	0.00e+00	120	28	0	553648128	42	5817
2026-01-10 20:50:22.47	50.13	12.83	-34.6	-35.6	23.3	0.00e+00	123	28	0	556793856	42	5961
2026-01-10 20:50:23.48	49.96	12.88	-34.7	-35.6	23.2	0.00e+00	122	28	0	559939584	42	5984
2026-01-10 20:50:24.49	49.79	12.93	-34.5	-35.5	23.4	0.00e+00	123	28	0	563085312	42	5865
2026-01-10 20:50:25.50	49.61	12.98	-34.7	-35.7	23.2	0.00e+00	122	28	0	566231040	42	6013
2026-01-10 20:50:26.51	49.44	13.03	-34.5	-35.5	23.5	0.00e+00	121	28	0	569376768	42	5881
2026-01-10 20:50:27.52	49.27	13.08	-34.5	-35.5	23.5	0.00e+00	123	28	0	572522496	42	5861
2026-01-10 20:50:28.53	49.10	13.13	-34.3	-35.3	23.5	0.00e+00	120	28	0	575668224	42	5739
2026-01-10 20:50:29.54	48.92	13.18	-34.3	-35.3	23.5	0.00e+00	123	28	0	578813952	42	5753
2026-01-10 20:50:30.55	48.75	13.23	-34.5	-35.4	23.3	0.00e+00	120	28	0	581959680	42	5842
2026-01-10 20:50:31.56	48.57	13.28	-34.6	-35.6	23.3	0.00e+00	123	28	0	585105408	42	5962
2026-01-10 20:50:32.56	48.40	13.33	-34.5	-35.4	23.5	0.00e+00	123	28	0	588251136	42	5837
2026-01-10 20:50:33.57	48.22	13.38	-34.5	-35.4	23.5	0.00e+00	123	28	0	591396864	42	5846
2026-01-10 20:50:34.58	48.04	13.43	-34.5	-35.4	23.4	0.00e+00	123	28	0	594542592	42	5858
2026-01-10 20:50:35.60	47.86	13.48	-34.5	-35.4	23.4	0.00e+00	120	28	0	597688320	42	5833
2026-01-10 20:50:36.60	47.69	13.53	-34.4	-35.4	23.4	0.00e+00	122	28	0	600834048	42	5800
2026-01-10 20:50:37.62	47.51	13.58	-34.6	-35.5	23.6	0.00e+00	120	28	0	603979776	42	5894
2026-01-10 20:50:38.62	47.33	13.62	-34.3	-35.2	23.5	0.00e+00	123	28	0	607125504	42	5716
2026-01-10 20:50:39.63	47.15	13.67	-34.2	-35.2	23.6	0.00e+00	123	28	0	610271232	42	5685
2026-01-10 20:50:40.65	46.97	13.72	-34.3	-35.2	23.6	0.00e+00	123	28	0	613416960	42	5704
2026-01-10 20:50:41.65	46.79	13.77	-34.4	-35.3	23.7	0.00e+00	120	28	0	616562688	42	5751
2026-01-10 20:50:42.66	46.61	13.81	-34.1	-35.1	23.7	0.00e+00	123	28	0	619708416	42	5603
2026-01-10 20:50:43.67	46.42	13.86	-34.2	-35.1	23.6	0.00e+00	120	28	0	622854144	42	5645
2026-01-10 20:50:44.68	46.24	13.91	-34.3	-35.3	23.6	0.00e+00	123	28	0	625999872	42	5728
2026-01-10 20:50:45.69	46.06	13.96	-34.1	-35.1	23.7	0.00e+00	123	28	0	629145600	42	5602
2026-01-10 20:50:46.70	45.87	14.00	-34.3	-35.3	23.5	0.00e+00	122	28	0	632291328	42	5754
2026-01-10 20:50:47.71	45.69	14.05	-34.4	-35.3	23.6	0.00e+00	123	28	0	635437056	42	5769
2026-01-10 20:50:48.72	45.50	14.09	-34.3	-35.2	23.6	0.00e+00	123	28	0	638582784	42	5692
2026-01-10 20:50:49.73	45.32	14.14	-34.2	-35.2	23.6	0.00e+00	122	28	0	641728512	42	5660
2026-01-10 20:50:50.74	45.13	14.19	-34.1	-35.0	23.7	0.00e+00	123	28	0	644874240	42	5576
2026-01-10 20:50:51.75	44.94	14.23	-34.2	-35.1	23.7	0.00e+00	122	28	0	648019968	42	5645
2026-01-10 20:50:52.76	44.76	14.28	-34.2	-35.2	23.7	0.00e+00	122	28	0	651165696	42	5665
2026-01-10 20:50:53.77	44.57	14.32	-34.2	-35.1	23.8	0.00e+00	123	28	0	654311424	42	5643
2026-01-10 20:50:54.79	44.38	14.37	-34.1	-35.1	23.6	0.00e+00	123	28	0	657457152	42	5622
2026-01-10 20:50:55.79	44.19	14.41	-34.4	-35.4	23.4	0.00e+00	123	28	0	660602880	42	5802
2026-01-10 20:50:56.81	44.00	14.46	-34.3	-35.2	23.6	0.00e+00	122	28	0	663748608	42	5714
2026-01-10 20:50:57.82	43.81	14.50	-34.1	-35.1	23.5	0.00e+00	120	28	0	666894336	42	5598
2026-01-10 20:50:58.83	43.62	14.54	-34.3	-35.2	23.6	0.00e+00	122	28	0	670040064	42	5697
2026-01-10 20:50:59.84	43.43	14.59	-34.1	-35.0	23.7	0.00e+00	123	28	0	673185792	42	5562
2026-01-10 20:51:00.85	43.23	14.63	-34.0	-35.0	23.9	0.00e+00	123	28	0	676331520	42	5536
2026-01-10 20:51:01.86	43.04	14.67	-34.2	-35.1	23.8	0.00e+00	122	28	0	679477248	42	5634
2026-01-10 20:51:02.87	42.85	14.72	-34.0	-34.9	23.9	0.00e+00	120	28	0	682622976	42	5530
2026-01-10 20:51:03.88	42.65	14.76	-33.8	-34.7	23.9	0.00e+00	123	28	0	685768704	42	5393
2026-01-10 20:51:04.88	42.46	14.80	-33.8	-34.7	24.0	0.00e+00	123	28	0	688914432	40	6020
2026-01-10 20:51:05.90	42.26	14.84	-33.9	-34.8	24.0	0.00e+00	123	28	0	692060160	40	6083
2026-01-10 20:51:06.91	42.07	14.89	-33.6	-34.5	24.1	0.00e+00	122	28	0	695205888	40	5907
2026-01-10 20:51:07.92	41.87	14.93	-33.7	-34.6	24.0	0.00e+00	122	28	0	698351616	40	5947
2026-01-10 20:51:08.93	41.68	14.97	-33.8	-34.7	23.9	0.00e+00	120	28	0	701497344	40	6011
2026-01-10 20:51:09.94	41.48	15.01	-33.9	-34.8	24.0	0.00e+00	123	28	0	704643072	40	6091
2026-01-10 20:51:10.94	41.28	15.05	-34.0	-35.0	23.8	0.00e+00	123	27	0	707788800	40	6210
2026-01-10 20:51:11.96	41.08	15.09	-34.1	-35.0	23.7	0.00e+00	122	28	0	710934528	40	6263
2026-01-10 20:51:12.97	40.88	15.13	-34.0	-34.9	23.9	0.00e+00	123	28	0	714080256	40	6180
2026-01-10 20:51:13.98	40.68	15.17	-34.0	-34.9	23.9	0.00e+00	123	28	0	717225984	40	6163
2026-01-10 20:51:14.99	40.48	15.21	-33.9	-34.9	23.9	0.00e+00	122	28	0	720371712	40	6156
2026-01-10 20:51:16.00	40.28	15.25	-34.0	-34.9	23.8	0.00e+00	123	27	0	723517440	40	6195
2026-01-10 20:51:17.01	40.08	15.29	-33.8	-34.7	23.9	0.00e+00	123	28	0	726663168	40	6050
2026-01-10 20:51:18.02	39.88	15.33	-33.9	-34.8	23.9	0.00e+00	123	28	0	729808896	40	6100
2026-01-10 20:51:19.03	39.68	15.37	-34.1	-35.1	23.9	0.00e+00	123	28	0	732954624	40	6278
2026-01-10 20:51:20.04	39.48	15.41	-34.1	-35.0	23.8	0.00e+00	123	28	0	736100352	40	6258
2026-01-10 20:51:21.05	39.27	15.44	-34.0	-35.0	23.7	0.00e+00	123	28	0	739246080	40	6216
2026-01-10 20:51:22.06	39.07	15.48	-34.1	-35.0	23.8	0.00e+00	122	28	0	742391808	40	6256
2026-01-10 20:51:23.06	38.87	15.52	-34.1	-35.0	23.8	0.00e+00	120	28	0	745537536	40	6268
2026-01-10 20:51:24.08	38.66	15.56	-34.1	-35.0	23.9	0.00e+00	123	28	0	748683264	40	6258
2026-01-10 20:51:25.09	38.46	15.59	-34.0	-34.9	23.9	0.00e+00	123	28	0	751828992	40	6192
2026-01-10 20:51:26.10	38.25	15.63	-34.1	-35.0	23.8	0.00e+00	120	28	0	754974720	40	6260
2026-01-10 20:51:27.10	38.05	15.66	-33.9	-34.9	23.9	0.00e+00	123	28	0	758120448	40	6135
2026-01-10 20:51:28.11	37.84	15.70	-34.1	-35.0	23.8	0.00e+00	123	28	0	761266176	40	6247
2026-01-10 20:51:29.12	37.63	15.74	-33.9	-34.9	23.8	0.00e+00	123	28	0	764411904	40	6153
2026-01-10 20:51:30.13	37.42	15.77	-33.9	-34.8	24.0	0.00e+00	123	28	0	767557632	40	6113
2026-01-10 20:51:31.14	37.22	15.81	-34.0	-35.0	23.8	0.00e+00	123	28	0	770703360	40	6208
2026-01-10 20:51:32.15	37.01	15.84	-34.0	-34.9	23.9	0.00e+00	123	28	0	773849088	40	6167
2026-01-10 20:51:33.16	36.80	15.87	-33.8	-34.7	24.0	0.00e+00	122	28	0	776994816	40	6027
2026-01-10 20:51:34.17	36.59	15.91	-33.8	-34.8	24.1	0.00e+00	122	27	0	780140544	40	6065
2026-01-10 20:51:35.18	36.38	15.94	-33.7	-34.6	24.2	0.00e+00	123	28	0	783286272	40	5948
2026-01-10 20:51:36.19	36.17	15.97	-33.6	-34.5	24.2	0.00e+00	123	27	0	786432000	40	5926
2026-01-10 20:51:37.20	35.96	16.01	-33.6	-34.5	24.1	0.00e+00	123	28	0	789577728	40	5884
2026-01-10 20:51:38.21	35.75	16.04	-33.8	-34.7	24.1	0.00e+00	120	27	0	792723456	40	6023
2026-01-10 20:51:39.22	35.53	16.07	-33.7	-34.6	24.1	0.00e+00	123	27	0	795869184	40	5980
2026-01-10 20:51:40.23	35.32	16.10	-33.7	-34.6	24.1	0.00e+00	120	27	0	799014912	40	5958
2026-01-10 20:51:41.24	35.11	16.13	-33.6	-34.6	24.2	0.00e+00	123	28	0	803209216	40	5928
2026-01-10 20:51:42.25	34.90	16.16	-33.6	-34.5	24.2	0.00e+00	122	28	0	806354944	40	5908
2026-01-10 20:51:43.26	34.68	16.19	-33.7	-34.6	24.1	0.00e+00	123	28	0	808452096	40	5984
2026-01-10 20:51:44.27	34.47	16.23	-33.7	-34.6	24.1	0.00e+00	122	28	0	811597824	40	5990
2026-01-10 20:51:45.28	34.25	16.25	-33.8	-34.7	24.0	0.00e+00	122	28	0	814743552	40	6063
2026-01-10 20:51:46.29	34.04	16.28	-33.8	-34.7	24.1	0.00e+00	122	27	0	818937856	40	6020
2026-01-10 20:51:47.30	33.82	16.31	-34.0	-34.9	23.9	0.00e+00	123	27	0	822083584	40	6172
2026-01-10 20:51:48.31	33.61	16.34	-33.8	-34.7	24.1	0.00e+00	123	27	0	825229312	40	6034
2026-01-10 20:51:49.32	33.39	16.37	-33.9	-34.8	24.0	0.00e+00	122	28	0	828375040	40	6095
2026-01-10 20:51:50.33	33.18	16.40	-33.8	-34.8	24.0	0.00e+00	122	27	0	831520768	40	6067
2026-01-10 20:51:51.34	32.96	16.43	-33.8	-34.7	24.1	0.00e+00	122	28	0	834666496	40	6064
2026-01-10 20:51:52.35	32.74	16.45	-33.8	-34.7	24.0	0.00e+00	120	28	0	837812224	40	6054
2026-01-10 20:51:53.36	32.52	16.48	-33.7	-34.6	24.2	0.00e+00	123	28	0	840957952	40	5948
2026-01-10 20:51:54.37	32.30	16.51	-33.8	-34.7	24.0	0.00e+00	120	27	0	844103680	40	6060
2026-01-10 20:51:55.38	32.09	16.53	-33.9	-34.8	24.0	0.00e+00	123	28	0	847249408	40	6093
2026-01-10 20:51:56.39	31.87	16.56	-33.8	-34.7	24.1	0.00e+00	123	28	0	850395136	40	6060
2026-01-10 20:51:57.40	31.65	16.58	-33.7	-34.6	24.2	0.00e+00	123	28	0	853540864	40	5953
2026-01-10 20:51:58.41	31.43	16.61	-33.5	-34.5	24.3	0.00e+00	123	28	0	856686592	40	5862
2026-01-10 20:51:59.42	31.21	16.63	-33.5	-34.3	24.3	0.00e+00	120	28	0	859832320	40	5791
2026-01-10 20:52:00.43	30.99	16.66	-33.4	-34.3	24.3	0.00e+00	120	28	0	862978048	40	5770
2026-01-10 20:52:01.44	30.77	16.68	-33.4	-34.3	24.3	0.00e+00	122	28	0	866123776	40	5738
2026-01-10 20:52:02.45	30.55	16.70	-33.5	-34.4	24.3	0.00e+00	120	28	0	869269504	40	5805
2026-01-10 20:52:03.46	30.32	16.72	-33.4	-34.3	24.3	0.00e+00	123	28	0	872415232	40	5760
2026-01-10 20:52:04.47	30.10	16.75	-33.5	-34.4	24.3	0.00e+00	123	28	0	875560960	40	5808
2026-01-10 20:52:05.48	29.88	16.77	-33.5	-34.4	24.2	0.00e+00	122	28	0	878706688	40	5839
2026-01-10 20:52:06.49	29.66	16.79	-33.5	-34.4	24.2	0.00e+00	123	27	0	881852416	40	5826
2026-01-10 20:52:07.50	29.44	16.81	-33.5	-34.4	24.3	0.00e+00	123	27	0	884998144	40	5819
2026-01-10 20:52:08.51	29.21	16.83	-33.5	-34.4	24.3	0.00e+00	123	27	0	888143872	40	5832
2026-01-10 20:52:09.52	28.99	16.85	-33.4	-34.3	24.3	0.00e+00	120	27	0	891289600	40	5751
2026-01-10 20:52:10.53	28.77	16.87	-33.6	-34.5	24.2	0.00e+00	122	27	0	894435328	40	5876
2026-01-10 20:52:11.54	28.54	16.89	-33.6	-34.6	24.2	0.00e+00	120	27	0	897581056	40	5933
2026-01-10 20:52:12.55	28.32	16.91	-33.8	-34.8	24.0	0.00e+00	123	27	0	900726784	40	6089
2026-01-10 20:52:13.56	28.09	16.93	-33.8	-34.7	24.0	0.00e+00	123	27	0	903872512	40	6014
2026-01-10 20:52:14.57	27.87	16.95	-33.8	-34.7	24.0	0.00e+00	122	27	0	907018240	40	6059
2026-01-10 20:52:15.58	27.64	16.96	-34.0	-34.9	23.8	0.00e+00	122	27	0	910163968	40	6180
2026-01-10 20:52:16.59	27.42	16.98	-33.9	-34.8	24.0	0.00e+00	122	27	0	913309696	40	6098
2026-01-10 20:52:17.60	27.19	17.00	-33.8	-34.7	24.1	0.00e+00	123	28	0	916455424	40	6011
2026-01-10 20:52:18.61	26.97	17.01	-33.8	-34.7	24.1	0.00e+00	123	27	0	919601152	40	6035
2026-01-10 20:52:19.62	26.74	17.03	-33.8	-34.7	24.1	0.00e+00	123	27	0	922746880	40	6001
2026-01-10 20:52:20.63	26.51	17.04	-33.6	-34.5	24.2	0.00e+00	122	27	0	925892608	40	5874
2026-01-10 20:52:21.64	26.29	17.06	-33.6	-34.5	24.2	0.00e+00	123	27	0	929038336	40	5925
2026-01-10 20:52:22.65	26.06	17.07	-33.5	-34.4	24.3	0.00e+00	123	27	0	932184064	40	5805
2026-01-10 20:52:23.66	25.83	17.09	-33.5	-34.4	24.3	0.00e+00	123	27	0	935329792	40	5831
2026-01-10 20:52:24.67	25.61	17.10	-33.5	-34.4	24.3	0.00e+00	123	27	0	938475520	40	5853
2026-01-10 20:52:25.68	25.38	17.11	-33.4	-34.3	24.4	0.00e+00	122	27	0	941621248	40	5761
2026-01-10 20:52:26.69	25.15	17.13	-33.6	-34.5	24.2	0.00e+00	122	27	0	944766976	40	5917
2026-01-10 20:52:27.70	24.92	17.14	-33.5	-34.4	24.2	0.00e+00	120	27	0	947912704	40	5817
2026-01-10 20:52:28.71	24.70	17.15	-33.5	-34.4	24.3	0.00e+00	120	27	0	951058432	40	5807
2026-01-10 20:52:29.72	24.47	17.16	-33.6	-34.6	24.2	0.00e+00	122	27	0	954204160	40	5936
2026-01-10 20:52:30.73	24.24	17.17	-33.6	-34.5	24.1	0.00e+00	120	27	0	957349888	40	5877
2026-01-10 20:52:31.74	24.01	17.18	-33.6	-34.5	24.0	0.00e+00	123	27	0	960495616	40	5912
2026-01-10 20:52:32.75	23.78	17.19	-33.7	-34.6	24.0	0.00e+00	120	27	0	963641344	40	5966
2026-01-10 20:52:33.76	23.55	17.20	-33.5	-34.5	24.2	0.00e+00	122	27	0	966787072	40	5859
2026-01-10 20:52:34.77	23.33	17.21	-33.6	-34.5	24.2	0.00e+00	120	27	0	969932800	40	5883
2026-01-10 20:52:35.78	23.10	17.22	-33.6	-34.6	24.1	0.00e+00	123	27	0	973078528	40	5934
2026-01-10 20:52:36.79	22.87	17.23	-33.8	-34.7	24.0	0.00e+00	121	27	0	976224256	40	6043
2026-01-10 20:52:37.80	22.64	17.23	-33.8	-34.7	24.0	0.00e+00	123	27	0	979369984	40	6005
2026-01-10 20:52:38.81	22.41	17.24	-33.8	-34.7	24.0	0.00e+00	123	27	0	982515712	40	6044
2026-01-10 20:52:39.82	22.18	17.25	-33.8	-34.8	23.9	0.00e+00	122	27	0	985661440	40	6077
2026-01-10 20:52:40.83	21.95	17.25	-33.9	-34.8	23.8	0.00e+00	122	27	0	988807168	40	6131
2026-01-10 20:52:41.84	21.72	17.26	-33.9	-34.9	23.8	0.00e+00	122	27	0	991952896	40	6137
2026-01-10 20:52:42.85	21.49	17.26	-34.1	-35.0	23.8	0.00e+00	122	27	0	995098624	40	6224
2026-01-10 20:52:43.86	21.26	17.27	-33.9	-34.8	24.0	0.00e+00	123	27	0	998244352	40	6118
2026-01-10 20:52:44.87	21.03	17.27	-34.0	-34.9	23.9	0.00e+00	120	27	0	1001390080	40	6158
2026-01-10 20:52:45.88	20.80	17.28	-33.9	-34.9	23.9	0.00e+00	122	27	0	1004535808	40	6139
2026-01-10 20:52:46.89	20.57	17.28	-33.7	-34.6	24.0	0.00e+00	122	27	0	1007681536	40	5963
2026-01-10 20:52:47.90	20.34	17.28	-33.8	-34.7	24.1	0.00e+00	123	27	0	1010827264	40	6018
2026-01-10 20:52:48.91	20.11	17.29	-33.6	-34.5	24.1	0.00e+00	122	27	0	1013972992	40	5906
2026-01-10 20:52:49.92	19.88	17.29	-33.6	-34.5	24.1	0.00e+00	123	27	0	1017118720	40	5892
2026-01-10 20:52:50.93	19.65	17.29	-33.4	-34.3	24.2	0.00e+00	123	27	0	1020264448	40	5776
2026-01-10 20:52:51.94	19.42	17.29	-33.5	-34.4	24.2	0.00e+00	122	27	0	1023410176	40	5804
2026-01-10 20:52:52.95	19.19	17.29	-33.5	-34.4	24.2	0.00e+00	123	27	0	1026555904	40	5838
2026-01-10 20:52:53.96	18.96	17.29	-33.5	-34.4	24.3	0.00e+00	122	27	0	1029701632	40	5798
2026-01-10 20:52:54.97	18.73	17.29	-33.3	-34.3	24.3	0.00e+00	123	27	0	1032847360	40	5727
2026-01-10 20:52:55.98	18.50	17.29	-33.3	-34.2	24.3	0.00e+00	123	27	0	1035993088	40	5715
2026-01-10 20:52:56.99	18.27	17.29	-33.3	-34.3	24.2	0.00e+00	123	27	0	1039138816	40	5735
2026-01-10 20:52:58.00	18.04	17.28	-33.3	-34.3	24.2	0.00e+00	123	27	0	1042284544	40	5739
2026-01-10 20:52:59.01	17.81	17.28	-33.5	-34.4	24.1	0.00e+00	123	27	0	1045430272	40	5827
2026-01-10 20:53:00.02	17.58	17.28	-33.7	-34.6	24.1	0.00e+00	122	27	0	1048576000	40	5960
2026-01-10 20:53:01.03	17.35	17.28	-33.4	-34.3	24.2	0.00e+00	120	27	0	1051721728	40	5767
2026-01-10 20:53:02.04	17.12	17.27	-33.5	-34.4	24.1	0.00e+00	123	27	0	1054867456	40	5814
2026-01-10 20:53:03.05	16.89	17.27	-33.4	-34.3	24.2	0.00e+00	123	27	0	1058013184	40	5745
2026-01-10 20:53:04.06	16.66	17.26	-33.4	-34.3	24.2	0.00e+00	122	27	0	1061158912	40	5737
2026-01-10 20:53:05.08	16.43	17.26	-33.4	-34.3	24.2	0.00e+00	122	27	0	1064304640	40	5753
2026-01-10 20:53:06.09	16.20	17.25	-33.3	-34.2	24.3	0.00e+00	122	27	0	1067450368	40	5701
2026-01-10 20:53:07.10	15.97	17.25	-33.4	-34.3	24.3	0.00e+00	123	28	0	1070596096	40	5762
2026-01-10 20:53:08.10	15.74	17.24	-33.3	-34.2	24.3	0.00e+00	122	28	0	1073741824	40	5712
2026-01-10 20:53:09.11	15.52	17.23	-33.4	-34.3	24.3	0.00e+00	123	28	0	1076887552	40	5745
2026-01-10 20:53:10.13	15.28	17.22	-33.4	-34.3	24.4	0.00e+00	122	28	0	1080033280	40	5738
2026-01-10 20:53:11.13	15.06	17.22	-33.4	-34.3	24.2	0.00e+00	123	28	0	1083179008	40	5782
2026-01-10 20:53:12.14	14.83	17.21	-33.5	-34.4	24.3	0.00e+00	122	28	0	1086324736	40	5825
2026-01-10 20:53:13.15	14.60	17.20	-33.5	-34.4	24.2	0.00e+00	123	28	0	1089470464	40	5827
2026-01-10 20:53:14.16	14.37	17.19	-33.4	-34.3	24.2	0.00e+00	123	28	0	1092616192	40	5760
2026-01-10 20:53:15.17	14.14	17.18	-33.5	-34.4	24.3	0.00e+00	123	28	0	1095761920	40	5836
2026-01-10 20:53:16.18	13.91	17.17	-33.4	-34.3	24.4	0.00e+00	122	28	0	1098907648	40	5734
2026-01-10 20:53:17.19	13.69	17.16	-33.3	-34.2	24.4	0.00e+00	123	28	0	1102053376	40	5722
2026-01-10 20:53:18.20	13.46	17.15	-33.5	-34.4	24.2	0.00e+00	122	28	0	1105199104	40	5821
2026-01-10 20:53:19.21	13.23	17.13	-33.5	-34.4	24.2	0.00e+00	123	27	0	1108344832	40	5857
2026-01-10 20:53:20.22	13.00	17.12	-33.7	-34.6	24.1	0.00e+00	116	28	0	1111490560	40	5946
2026-01-10 20:53:21.23	12.78	17.11	-33.5	-34.4	24.3	0.00e+00	123	28	0	1114636288	40	5847
2026-01-10 20:53:22.24	12.55	17.10	-33.6	-34.5	24.1	0.00e+00	123	28	0	1118830592	40	5883
2026-01-10 20:53:23.25	12.32	17.08	-33.7	-34.6	24.1	0.00e+00	123	28	0	1121976320	40	5945
2026-01-10 20:53:24.26	12.09	17.07	-33.6	-34.5	24.2	0.00e+00	122	28	0	1124073472	40	5917
2026-01-10 20:53:25.27	11.87	17.05	-33.6	-34.5	24.1	0.00e+00	120	28	0	1127219200	40	5895
2026-01-10 20:53:26.28	11.64	17.04	-33.7	-34.7	24.1	0.00e+00	122	28	0	1130364928	40	5995
2026-01-10 20:53:27.29	11.42	17.02	-33.9	-34.8	23.9	0.00e+00	120	28	0	1134559232	40	6102
2026-01-10 20:53:28.30	11.19	17.01	-33.9	-34.9	23.8	0.00e+00	123	28	0	1137704960	40	6155
2026-01-10 20:53:29.31	10.96	16.99	-34.0	-34.9	23.8	0.00e+00	122	28	0	1140850688	40	6196
2026-01-10 20:53:30.32	10.74	16.97	-34.0	-34.9	23.9	0.00e+00	123	28	0	1143996416	40	6161
2026-01-10 20:53:31.33	10.51	16.96	-33.9	-34.8	23.9	0.00e+00	122	27	0	1147142144	40	6122
2026-01-10 20:53:32.34	10.29	16.94	-33.8	-34.7	24.0	0.00e+00	122	28	0	1150287872	40	6021
2026-01-10 20:53:33.35	10.06	16.92	-33.6	-34.6	24.1	0.00e+00	120	28	0	1153433600	40	5929
2026-01-10 20:53:34.36	9.84	16.90	-33.7	-34.6	24.1	0.00e+00	122	28	0	1156579328	40	5965
2026-01-10 20:53:35.37	9.62	16.88	-33.8	-34.7	24.0	0.00e+00	122	28	0	1159725056	40	6054
2026-01-10 20:53:36.38	9.39	16.86	-33.7	-34.7	24.1	0.00e+00	123	28	0	1162870784	40	6005
2026-01-10 20:53:37.39	9.17	16.84	-33.7	-34.7	24.1	0.00e+00	122	28	0	1166016512	40	6001
2026-01-10 20:53:38.40	8.95	16.82	-33.7	-34.7	24.0	0.00e+00	122	28	0	1169162240	40	6018
2026-01-10 20:53:39.42	8.72	16.80	-33.8	-34.7	23.9	0.00e+00	120	28	0	1172307968	40	6060
2026-01-10 20:53:40.43	8.50	16.78	-33.9	-34.9	23.8	0.00e+00	123	28	0	1175453696	40	6141
2026-01-10 20:53:41.44	8.28	16.76	-33.9	-34.8	23.8	0.00e+00	123	28	0	1178599424	40	6113
2026-01-10 20:53:42.45	8.06	16.74	-33.7	-34.7	23.9	0.00e+00	122	28	0	1181745152	40	6031
2026-01-10 20:53:43.46	7.83	16.72	-33.8	-34.7	24.0	0.00e+00	120	28	0	1184890880	40	6045
2026-01-10 20:53:44.47	7.61	16.69	-33.7	-34.6	24.1	0.00e+00	122	28	0	1188036608	40	5970
2026-01-10 20:53:45.48	7.39	16.67	-33.6	-34.5	24.2	0.00e+00	120	28	0	1191182336	40	5887
2026-01-10 20:53:46.49	7.17	16.65	-33.6	-34.5	24.2	0.00e+00	123	28	0	1194328064	40	5883
2026-01-10 20:53:47.50	6.95	16.62	-33.6	-34.5	24.2	0.00e+00	123	28	0	1197473792	40	5898
2026-01-10 20:53:48.51	6.73	16.60	-33.6	-34.5	24.2	0.00e+00	123	28	0	1200619520	40	5912
2026-01-10 20:53:49.52	6.51	16.57	-33.6	-34.5	24.2	0.00e+00	120	28	0	1203765248	40	5915
2026-01-10 20:53:50.53	6.29	16.55	-33.6	-34.5	24.2	0.00e+00	123	28	0	1206910976	40	5917
2026-01-10 20:53:51.54	6.07	16.52	-33.6	-34.5	24.1	0.00e+00	120	28	0	1210056704	40	5905
2026-01-10 20:53:52.55	5.86	16.50	-33.7	-34.6	24.1	0.00e+00	123	28	0	1213202432	40	5944
2026-01-10 20:53:53.56	5.64	16.47	-33.5	-34.4	24.2	0.00e+00	120	28	0	1216348160	40	5824
2026-01-10 20:53:54.57	5.42	16.44	-33.6	-34.5	24.2	0.00e+00	122	28	0	1219493888	40	5885
2026-01-10 20:53:55.58	5.20	16.42	-33.6	-34.5	24.1	0.00e+00	120	28	0	1222639616	40	5910
2026-01-10 20:53:56.59	4.99	16.39	-33.6	-34.5	24.1	0.00e+00	123	28	0	1225785344	40	5913
2026-01-10 20:53:57.60	4.77	16.36	-33.6	-34.6	24.1	0.00e+00	123	28	0	1228931072	40	5937
2026-01-10 20:53:58.61	4.55	16.33	-33.5	-34.5	24.1	0.00e+00	123	28	0	1232076800	40	5884
2026-01-10 20:53:59.62	4.34	16.30	-33.5	-34.4	24.2	0.00e+00	123	28	0	1235222528	40	5821
2026-01-10 20:54:00.63	4.12	16.27	-33.5	-34.4	24.2	0.00e+00	123	28	0	1238368256	40	5825
2026-01-10 20:54:01.64	3.91	16.25	-33.6	-34.5	24.2	0.00e+00	123	28	0	1241513984	40	5899
2026-01-10 20:54:02.65	3.70	16.22	-33.5	-34.4	24.2	0.00e+00	123	28	0	1244659712	40	5804
2026-01-10 20:54:03.66	3.48	16.19	-33.6	-34.5	24.2	0.00e+00	123	28	0	1247805440	40	5903
2026-01-10 20:54:04.67	3.27	16.15	-33.7	-34.7	24.1	0.00e+00	123	28	0	1250951168	40	6006
2026-01-10 20:54:05.68	3.06	16.12	-33.7	-34.6	24.1	0.00e+00	123	28	0	1254096896	40	5959
2026-01-10 20:54:06.69	2.84	16.09	-33.5	-34.4	24.2	0.00e+00	122	28	0	1257242624	40	5813
2026-01-10 20:54:07.70	2.63	16.06	-33.6	-34.5	24.2	0.00e+00	123	28	0	1260388352	40	5873
2026-01-10 20:54:08.71	2.42	16.03	-33.6	-34.5	24.1	0.00e+00	122	28	0	1263534080	40	5918
2026-01-10 20:54:09.72	2.21	16.00	-33.7	-34.6	24.1	0.00e+00	122	28	0	1266679808	40	5970
2026-01-10 20:54:10.73	2.00	15.96	-33.5	-34.5	24.1	0.00e+00	123	28	0	1269825536	40	5859
2026-01-10 20:54:11.74	1.79	15.93	-33.7	-34.7	24.0	0.00e+00	123	28	0	1272971264	40	6018
2026-01-10 20:54:12.75	1.58	15.90	-33.7	-34.6	24.0	0.00e+00	122	28	0	1276116992	40	5951
2026-01-10 20:54:13.76	1.37	15.86	-33.7	-34.6	23.9	0.00e+00	122	28	0	1279262720	40	5982
2026-01-10 20:54:14.77	1.16	15.83	-33.6	-34.5	24.1	0.00e+00	122	28	0	1282408448	40	5924
2026-01-10 20:54:15.78	0.95	15.79	-33.8	-34.7	24.0	0.00e+00	120	28	0	1285554176	40	6045
2026-01-10 20:54:16.79	0.75	15.76	-33.8	-34.7	24.1	0.00e+00	122	28	0	1288699904	40	6032
2026-01-10 20:54:17.80	0.54	15.72	-33.7	-34.6	24.1	0.00e+00	123	28	0	1291845632	40	5950
2026-01-10 20:54:18.81	0.33	15.69	-33.7	-34.7	24.0	0.00e+00	122	28	0	1294991360	40	5996
2026-01-10 20:54:19.82	0.13	15.65	-33.9	-34.8	24.0	0.00e+00	123	28	0	1298137088	40	6095
2026-01-10 20:54:20.83	359.92	15.62	-33.8	-34.7	24.0	0.00e+00	123	28	0	1301282816	40	6013
2026-01-10 20:54:21.84	359.71	15.58	-33.8	-34.8	23.9	0.00e+00	122	28	0	1304428544	40	6076
2026-01-10 20:54:22.85	359.51	15.54	-34.0	-34.9	23.9	0.00e+00	120	28	0	1307574272	40	6164
2026-01-10 20:54:23.86	359.31	15.51	-33.8	-34.7	24.0	0.00e+00	123	28	0	1310720000	40	6034
2026-01-10 20:54:24.87	359.10	15.47	-33.7	-34.6	24.0	0.00e+00	120	28	0	1313865728	40	5992
2026-01-10 20:54:25.88	358.90	15.43	-33.6	-34.6	24.0	0.00e+00	123	28	0	1317011456	40	5942
2026-01-10 20:54:26.89	358.70	15.39	-33.7	-34.6	24.0	0.00e+00	120	28	0	1320157184	40	5979
2026-01-10 20:54:27.90	358.49	15.36	-33.6	-34.6	24.0	0.00e+00	122	28	0	1323302912	40	5941
2026-01-10 20:54:28.91	358.29	15.32	-33.8	-34.7	23.9	0.00e+00	122	28	0	1326448640	40	6049
2026-01-10 20:54:29.92	358.09	15.28	-33.7	-34.6	24.0	0.00e+00	123	28	0	1329594368	40	5980
2026-01-10 20:54:30.93	357.89	15.24	-33.6	-34.5	24.1	0.00e+00	120	28	0	1332740096	40	5916
2026-01-10 20:54:31.94	357.69	15.20	-33.7	-34.6	24.0	0.00e+00	123	28	0	1335885824	40	5978
2026-01-10 20:54:32.95	357.49	15.16	-33.7	-34.6	24.1	0.00e+00	122	28	0	1339031552	40	5945
2026-01-10 20:54:33.96	357.29	15.12	-33.8	-34.7	24.0	0.00e+00	123	28	0	1342177280	40	6043
2026-01-10 20:54:34.97	357.09	15.08	-33.9	-34.8	24.0	0.00e+00	122	28	0	1345323008	40	6105
2026-01-10 20:54:35.98	356.90	15.04	-33.9	-34.8	24.0	0.00e+00	120	28	0	1348468736	40	6098
2026-01-10 20:54:36.99	356.70	15.00	-33.9	-34.9	24.0	0.00e+00	122	28	0	1351614464	40	6156
2026-01-10 20:54:38.00	356.50	14.96	-33.8	-34.7	23.9	0.00e+00	120	28	0	1354760192	40	6045
2026-01-10 20:54:39.01	356.31	14.92	-33.8	-34.7	23.9	0.00e+00	123	28	0	1357905920	40	6034
2026-01-10 20:54:40.02	356.11	14.87	-33.8	-34.7	24.0	0.00e+00	122	28	0	1361051648	40	6031
2026-01-10 20:54:41.03	355.92	14.83	-33.7	-34.6	24.0	0.00e+00	122	28	0	1364197376	40	5962
2026-01-10 20:54:42.04	355.72	14.79	-33.8	-34.7	24.0	0.00e+00	123	28	0	1367343104	40	6026
2026-01-10 20:54:43.05	355.53	14.75	-33.7	-34.7	23.9	0.00e+00	123	28	0	1370488832	40	6038
2026-01-10 20:54:44.06	355.33	14.70	-33.8	-34.8	23.8	0.00e+00	123	28	0	1373634560	40	6090
2026-01-10 20:54:45.07	355.14	14.66	-34.0	-35.0	23.8	0.00e+00	123	28	0	1376780288	40	6222
2026-01-10 20:54:46.08	354.95	14.62	-33.9	-34.8	23.8	0.00e+00	123	28	0	1379926016	40	6131
2026-01-10 20:54:47.09	354.76	14.58	-34.0	-35.0	23.8	0.00e+00	123	28	0	1383071744	40	6252
2026-01-10 20:54:48.10	354.57	14.53	-34.0	-35.0	23.8	0.00e+00	122	28	0	1386217472	40	6221
2026-01-10 20:54:49.11	354.38	14.49	-34.1	-35.0	23.7	0.00e+00	122	28	0	1389363200	40	6275
2026-01-10 20:54:50.12	354.19	14.44	-33.9	-34.8	23.9	0.00e+00	123	28	0	1392508928	40	6117
2026-01-10 20:54:51.13	354.00	14.40	-33.9	-34.8	23.9	0.00e+00	120	28	0	1395654656	40	6122
2026-01-10 20:54:52.14	353.81	14.35	-33.7	-34.7	24.0	0.00e+00	120	28	0	1398800384	40	6019
2026-01-10 20:54:53.15	353.62	14.31	-33.8	-34.7	23.9	0.00e+00	122	28	0	1401946112	40	6060
2026-01-10 20:54:54.16	353.43	14.26	-33.7	-34.6	24.0	0.00e+00	124	28	0	1405091840	40	5985
2026-01-10 20:54:55.17	353.24	14.22	-33.8	-34.7	24.0	0.00e+00	121	28	0	1408237568	40	6027
2026-01-10 20:54:56.18	353.06	14.17	-33.8	-34.8	23.9	0.00e+00	123	28	0	1411383296	40	6088
2026-01-10 20:54:57.19	352.87	14.13	-33.7	-34.7	24.1	0.00e+00	122	28	0	1415577600	40	6019
2026-01-10 20:54:58.20	352.69	14.08	-33.9	-34.8	23.9	0.00e+00	123	28	0	1417674752	40	6118
2026-01-10 20:54:59.21	352.50	14.04	-33.9	-34.8	23.9	0.00e+00	122	28	0	1420820480	40	6095
2026-01-10 20:55:00.22	352.32	13.99	-34.0	-34.9	23.8	0.00e+00	120	28	0	1423966208	40	6197
2026-01-10 20:55:01.23	352.13	13.94	-34.0	-34.9	23.8	0.00e+00	122	28	0	1427111936	40	6199
2026-01-10 20:55:02.24	351.95	13.90	-34.0	-35.0	23.7	0.00e+00	122	28	0	1431306240	40	6209
2026-01-10 20:55:03.25	351.77	13.85	-34.0	-34.9	23.8	0.00e+00	122	28	0	1434451968	40	6161
2026-01-10 20:55:04.26	351.59	13.80	-34.0	-34.9	23.7	0.00e+00	121	28	0	1437597696	40	6205
2026-01-10 20:55:05.27	351.41	13.75	-34.1	-35.0	23.7	0.00e+00	120	28	0	1439694848	40	6245
2026-01-10 20:55:06.28	351.23	13.71	-34.1	-35.0	23.6	0.00e+00	122	28	0	1442840576	40	6277
2026-01-10 20:55:07.29	351.05	13.66	-34.0	-35.0	23.7	0.00e+00	123	28	0	1447034880	40	6226
2026-01-10 20:55:08.30	350.87	13.61	-34.1	-35.1	23.7	0.00e+00	122	29	0	1450180608	40	6282
2026-01-10 20:55:09.31	350.69	13.56	-34.2	-35.2	23.6	0.00e+00	123	28	0	1453326336	40	6393
2026-01-10 20:55:10.32	350.51	13.51	-34.3	-35.2	23.4	0.00e+00	121	28	0	1456472064	40	6402
2026-01-10 20:55:11.33	350.33	13.47	-34.4	-35.4	23.3	0.00e+00	120	28	0	1459617792	40	6528
2026-01-10 20:55:12.34	350.15	13.42	-34.6	-35.5	23.2	0.00e+00	123	28	0	1462763520	40	6643
2026-01-10 20:55:13.35	349.98	13.37	-34.6	-35.6	23.2	0.00e+00	123	28	0	1465909248	40	6651
2026-01-10 20:55:14.36	349.80	13.32	-34.6	-35.6	23.2	0.00e+00	122	28	0	1469054976	40	6659
2026-01-10 20:55:15.37	349.63	13.27	-34.6	-35.5	23.3	0.00e+00	121	28	0	1472200704	40	6635
2026-01-10 20:55:16.37	349.45	13.22	-34.4	-35.4	23.3	0.00e+00	123	28	0	1475346432	40	6550
2026-01-10 20:55:17.38	349.28	13.17	-34.3	-35.3	23.4	0.00e+00	123	28	0	1478492160	40	6466
2026-01-10 20:55:18.39	349.11	13.12	-34.1	-35.1	23.5	0.00e+00	123	29	0	1481637888	40	6309
2026-01-10 20:55:19.40	348.93	13.07	-34.2	-35.1	23.5	0.00e+00	122	29	0	1484783616	40	6325
2026-01-10 20:55:20.41	348.76	13.02	-34.1	-35.1	23.6	0.00e+00	123	29	0	1487929344	40	6314
2026-01-10 20:55:21.42	348.59	12.97	-34.2	-35.2	23.5	0.00e+00	120	29	0	1491075072	40	6367
2026-01-10 20:55:22.42	348.42	12.92	-34.1	-35.0	23.7	0.00e+00	122	29	0	1494220800	40	6276
2026-01-10 20:55:23.44	348.25	12.87	-34.1	-35.0	23.7	0.00e+00	123	29	0	1497366528	40	6240
2026-01-10 20:55:24.45	348.08	12.82	-34.1	-35.0	23.7	0.00e+00	122	29	0	1500512256	40	6238
2026-01-10 20:55:25.46	347.91	12.77	-34.0	-35.0	23.7	0.00e+00	123	29	0	1503657984	40	6214
2026-01-10 20:55:26.46	347.74	12.72	-34.0	-34.9	23.8	0.00e+00	123	29	0	1506803712	40	6186
2026-01-10 20:55:27.47	347.57	12.67	-34.0	-35.0	23.7	0.00e+00	122	29	0	1509949440	40	6236
2026-01-10 20:55:28.48	347.40	12.62	-34.0	-34.9	23.7	0.00e+00	122	28	0	1513095168	40	6175
2026-01-10 20:55:29.49	347.24	12.57	-34.0	-34.9	23.8	0.00e+00	123	28	0	1516240896	40	6190
2026-01-10 20:55:30.50	347.07	12.51	-34.1	-35.1	23.7	0.00e+00	123	29	0	1519386624	40	6299
2026-01-10 20:55:31.51	346.91	12.46	-34.0	-34.9	23.7	0.00e+00	122	29	0	1522532352	40	6173
2026-01-10 20:55:32.52	346.74	12.41	-34.0	-34.9	23.6	0.00e+00	122	29	0	1525678080	40	6183
2026-01-10 20:55:33.53	346.58	12.36	-34.0	-35.0	23.6	0.00e+00	121	29	0	1528823808	40	6252
2026-01-10 20:55:34.54	346.41	12.31	-34.2	-35.2	23.5	0.00e+00	122	29	0	1531969536	40	6363
2026-01-10 20:55:35.55	346.25	12.26	-34.2	-35.2	23.4	0.00e+00	123	29	0	1535115264	40	6379
2026-01-10 20:55:36.56	346.09	12.20	-34.4	-35.4	23.3	0.00e+00	123	29	0	1538260992	40	6527
2026-01-10 20:55:37.57	345.92	12.15	-34.5	-35.5	23.2	0.00e+00	123	29	0	1541406720	40	6641
2026-01-10 20:55:38.58	345.76	12.10	-34.4	-35.4	23.2	0.00e+00	123	29	0	1544552448	40	6538
2026-01-10 20:55:39.59	345.60	12.05	-34.4	-35.4	23.1	0.00e+00	123	29	0	1547698176	40	6538
2026-01-10 20:55:40.60	345.44	11.99	-34.4	-35.4	23.1	0.00e+00	123	29	0	1550843904	40	6554
2026-01-10 20:55:41.61	345.28	11.94	-34.4	-35.4	23.1	0.00e+00	123	29	0	1553989632	40	6556
2026-01-10 20:55:42.61	345.12	11.89	-34.4	-35.4	23.1	0.00e+00	123	29	0	1557135360	40	6548
2026-01-10 20:55:43.62	344.96	11.84	-34.6	-35.6	23.0	0.00e+00	123	29	0	1560281088	40	6711
2026-01-10 20:55:44.64	344.80	11.78	-34.6	-35.6	23.0	0.00e+00	120	29	0	1563426816	40	6675
2026-01-10 20:55:45.64	344.65	11.73	-34.7	-35.7	23.1	0.00e+00	123	29	0	1566572544	40	6759
2026-01-10 20:55:46.66	344.49	11.68	-34.8	-35.8	23.0	0.00e+00	121	29	0	1569718272	40	6842
2026-01-10 20:55:47.67	344.33	11.62	-34.8	-35.9	23.0	0.00e+00	122	29	0	1572864000	42	6135
2026-01-10 20:55:48.68	344.18	11.57	-34.9	-36.0	22.9	0.00e+00	122	29	0	1576009728	42	6208
2026-01-10 20:55:49.68	344.02	11.52	-35.0	-36.1	22.7	0.00e+00	123	29	0	1579155456	42	6288
2026-01-10 20:55:50.69	343.87	11.46	-35.2	-36.2	22.7	0.00e+00	123	29	0	1582301184	42	6370
2026-01-10 20:55:51.70	343.71	11.41	-35.0	-36.0	22.8	0.00e+00	122	29	0	1585446912	42	6261
2026-01-10 20:55:52.71	343.56	11.35	-35.0	-36.0	22.8	0.00e+00	122	29	0	1588592640	42	6228
2026-01-10 20:55:53.72	343.41	11.30	-35.1	-36.1	22.8	0.00e+00	123	29	0	1591738368	42	6346
2026-01-10 20:55:54.73	343.26	11.25	-35.1	-36.1	22.7	0.00e+00	123	29	0	1594884096	42	6349
2026-01-10 20:55:55.74	343.10	11.19	-35.2	-36.2	22.6	0.00e+00	123	29	0	1598029824	42	6403
2026-01-10 20:55:56.75	342.95	11.14	-35.4	-36.4	22.5	0.00e+00	123	29	0	1601175552	42	6573
2026-01-10 20:55:57.76	342.80	11.08	-35.2	-36.3	22.7	0.00e+00	120	29	0	1604321280	42	6457
2026-01-10 20:55:58.77	342.65	11.03	-35.1	-36.2	22.7	0.00e+00	123	29	0	1607467008	42	6374
2026-01-10 20:55:59.78	342.50	10.98	-35.3	-36.3	22.5	0.00e+00	123	29	0	1610612736	42	6461
2026-01-10 20:56:00.79	342.35	10.92	-35.2	-36.2	22.5	0.00e+00	120	29	0	1613758464	42	6401
2026-01-10 20:56:01.80	342.20	10.87	-35.3	-36.3	22.5	0.00e+00	123	29	0	1616904192	42	6470
2026-01-10 20:56:02.82	342.05	10.81	-35.2	-36.2	22.6	0.00e+00	123	29	0	1620049920	42	6411
2026-01-10 20:56:03.82	341.91	10.76	-35.2	-36.3	22.6	0.00e+00	123	29	0	1623195648	42	6432
2026-01-10 20:56:04.83	341.76	10.70	-35.0	-36.1	22.8	0.00e+00	120	29	0	1626341376	42	6294
2026-01-10 20:56:05.84	341.62	10.65	-34.9	-36.0	22.8	0.00e+00	123	29	0	1629487104	42	6218
2026-01-10 20:56:06.85	341.47	10.59	-35.0	-36.1	22.7	0.00e+00	123	29	0	1632632832	42	6298
2026-01-10 20:56:07.86	341.33	10.54	-34.8	-35.8	22.9	0.00e+00	122	29	0	1635778560	42	6082
2026-01-10 20:56:08.87	341.18	10.48	-34.8	-35.9	22.8	0.00e+00	122	29	0	1638924288	42	6135
2026-01-10 20:56:09.88	341.04	10.43	-34.8	-35.8	22.9	0.00e+00	122	29	0	1642070016	42	6097
2026-01-10 20:56:10.89	340.89	10.37	-34.8	-35.8	23.0	0.00e+00	123	29	0	1645215744	42	6084
2026-01-10 20:56:11.90	340.75	10.32	-34.8	-35.8	23.0	0.00e+00	122	29	0	1648361472	42	6083
2026-01-10 20:56:12.91	340.61	10.26	-34.9	-35.9	22.9	0.00e+00	124	29	0	1651507200	42	6162
2026-01-10 20:56:13.92	340.47	10.21	-34.8	-35.9	22.9	0.00e+00	123	29	0	1654652928	42	6135
2026-01-10 20:56:14.93	340.33	10.15	-34.9	-35.9	22.9	0.00e+00	122	29	0	1657798656	42	6199
2026-01-10 20:56:15.94	340.18	10.10	-34.9	-36.0	22.9	0.00e+00	120	29	0	1660944384	42	6215
2026-01-10 20:56:16.95	340.04	10.04	-35.0	-36.0	22.8	0.00e+00	122	29	0	1664090112	42	6244
2026-01-10 20:56:17.96	339.90	9.99	-34.9	-36.0	22.8	0.00e+00	122	29	0	1667235840	42	6207
2026-01-10 20:56:18.97	339.77	9.93	-35.0	-36.1	22.7	0.00e+00	123	29	0	1670381568	42	6284
2026-01-10 20:56:19.98	339.63	9.88	-35.0	-36.0	22.7	0.00e+00	122	29	0	1673527296	42	6272
2026-01-10 20:56:20.99	339.49	9.82	-35.0	-36.0	22.8	0.00e+00	123	29	0	1676673024	42	6234
2026-01-10 20:56:22.00	339.35	9.77	-35.1	-36.2	22.7	0.00e+00	123	29	0	1679818752	42	6353
2026-01-10 20:56:23.01	339.21	9.71	-34.9	-35.9	22.8	0.00e+00	122	29	0	1682964480	42	6199
2026-01-10 20:56:24.02	339.08	9.65	-34.8	-35.8	22.9	0.00e+00	122	29	0	1686110208	42	6119
2026-01-10 20:56:25.03	338.94	9.60	-34.8	-35.8	22.9	0.00e+00	122	29	0	1689255936	42	6121
2026-01-10 20:56:26.04	338.81	9.54	-35.1	-36.1	22.7	0.00e+00	122	29	0	1692401664	42	6299
2026-01-10 20:56:27.05	338.67	9.49	-34.9	-35.9	22.8	0.00e+00	122	29	0	1695547392	42	6191
2026-01-10 20:56:28.06	338.54	9.43	-35.0	-36.0	22.8	0.00e+00	120	29	0	1698693120	42	6251
2026-01-10 20:56:29.07	338.40	9.38	-35.0	-36.0	22.8	0.00e+00	120	29	0	1701838848	42	6217
2026-01-10 20:56:30.08	338.27	9.32	-35.1	-36.1	22.7	0.00e+00	123	29	0	1704984576	42	6321
2026-01-10 20:56:31.09	338.14	9.26	-35.1	-36.1	22.6	0.00e+00	122	29	0	1708130304	42	6305
2026-01-10 20:56:32.11	338.00	9.21	-35.1	-36.1	22.6	0.00e+00	123	29	0	1711276032	42	6311
2026-01-10 20:56:33.12	337.87	9.15	-35.2	-36.2	22.6	0.00e+00	120	29	0	1714421760	42	6399
2026-01-10 20:56:34.12	337.74	9.10	-35.3	-36.4	22.4	0.00e+00	122	29	0	1717567488	42	6499
2026-01-10 20:56:35.14	337.61	9.04	-35.4	-36.4	22.3	0.00e+00	120	29	0	1720713216	42	6567
2026-01-10 20:56:36.15	337.48	8.99	-35.1	-36.1	22.6	0.00e+00	123	29	0	1723858944	42	6347
2026-01-10 20:56:37.16	337.35	8.93	-35.2	-36.1	22.5	0.00e+00	123	29	0	1727004672	42	6349
2026-01-10 20:56:38.17	337.22	8.87	-35.1	-36.1	22.6	0.00e+00	123	29	0	1730150400	42	6326
2026-01-10 20:56:39.17	337.10	8.82	-35.1	-36.1	22.6	0.00e+00	122	29	0	1733296128	42	6307
2026-01-10 20:56:40.18	336.97	8.76	-35.1	-36.1	22.6	0.00e+00	123	29	0	1736441856	42	6345
2026-01-10 20:56:41.19	336.84	8.71	-35.3	-36.3	22.4	0.00e+00	121	29	0	1739587584	42	6447
2026-01-10 20:56:42.20	336.71	8.65	-35.2	-36.2	22.5	0.00e+00	123	29	0	1742733312	42	6371
2026-01-10 20:56:43.21	336.59	8.59	-35.3	-36.3	22.3	0.00e+00	120	29	0	1745879040	42	6493
2026-01-10 20:56:44.22	336.46	8.54	-35.4	-36.4	22.3	0.00e+00	122	29	0	1749024768	42	6513
2026-01-10 20:56:45.24	336.33	8.48	-35.6	-36.6	22.2	0.00e+00	120	29	0	1753219072	42	6689
2026-01-10 20:56:46.25	336.21	8.43	-35.6	-36.6	22.2	0.00e+00	122	29	0	1755316224	42	6697
2026-01-10 20:56:47.26	336.08	8.37	-35.6	-36.7	22.1	0.00e+00	120	29	0	1758461952	42	6746
2026-01-10 20:56:48.27	335.96	8.31	-35.7	-36.7	22.0	0.00e+00	122	29	0	1761607680	44	6015
2026-01-10 20:56:49.28	335.84	8.26	-35.7	-36.7	22.0	0.00e+00	122	29	0	1764753408	44	6037
2026-01-10 20:56:50.29	335.71	8.20	-35.8	-36.8	22.0	0.00e+00	120	29	0	1768947712	44	6108
2026-01-10 20:56:51.30	335.59	8.15	-35.5	-36.6	22.1	0.00e+00	122	29	0	1772093440	44	5934
2026-01-10 20:56:52.31	335.47	8.09	-35.5	-36.5	22.2	0.00e+00	123	29	0	1775239168	44	5925
2026-01-10 20:56:53.32	335.35	8.03	-35.5	-36.5	22.2	0.00e+00	123	29	0	1778384896	44	5885
2026-01-10 20:56:54.33	335.22	7.98	-35.5	-36.5	22.2	0.00e+00	121	29	0	1780482048	44	5901
2026-01-10 20:56:55.34	335.10	7.92	-35.3	-36.4	22.3	0.00e+00	122	29	0	1784676352	44	5792
2026-01-10 20:56:56.35	334.98	7.87	-35.4	-36.4	22.1	0.00e+00	122	29	0	1787822080	44	5848
2026-01-10 20:56:57.36	334.86	7.81	-35.6	-36.6	22.1	0.00e+00	123	29	0	1790967808	44	5977
2026-01-10 20:56:58.37	334.74	7.75	-35.5	-36.5	22.1	0.00e+00	123	29	0	1794113536	44	5886
2026-01-10 20:56:59.38	334.63	7.70	-35.7	-36.7	22.0	0.00e+00	120	29	0	1797259264	44	6038
2026-01-10 20:57:00.39	334.51	7.64	-35.8	-36.8	21.9	0.00e+00	122	29	0	1800404992	44	6099
2026-01-10 20:57:01.40	334.39	7.59	-35.7	-36.7	21.9	0.00e+00	120	29	0	1803550720	44	6063
2026-01-10 20:57:02.41	334.27	7.53	-35.8	-36.8	21.8	0.00e+00	123	29	0	1806696448	44	6129
2026-01-10 20:57:03.42	334.15	7.47	-35.8	-36.8	21.9	0.00e+00	120	29	0	1809842176	44	6132
2026-01-10 20:57:04.43	334.04	7.42	-35.7	-36.8	21.9	0.00e+00	123	29	0	1812987904	44	6086
2026-01-10 20:57:05.44	333.92	7.36	-35.7	-36.8	21.9	0.00e+00	120	29	0	1816133632	44	6068
2026-01-10 20:57:06.45	333.81	7.31	-35.8	-36.9	21.8	0.00e+00	123	29	0	1819279360	44	6137
2026-01-10 20:57:07.46	333.69	7.25	-35.6	-36.7	21.9	0.00e+00	123	29	0	1822425088	44	6025
2026-01-10 20:57:08.47	333.58	7.19	-35.7	-36.7	22.0	0.00e+00	122	29	0	1825570816	44	6053
2026-01-10 20:57:09.48	333.46	7.14	-35.5	-36.5	21.9	0.00e+00	122	29	0	1828716544	44	5925
2026-01-10 20:57:10.49	333.35	7.08	-35.4	-36.4	22.1	0.00e+00	122	29	0	1831862272	44	5821
2026-01-10 20:57:11.50	333.23	7.03	-35.5	-36.5	22.0	0.00e+00	120	29	0	1835008000	44	5903
2026-01-10 20:57:12.51	333.12	6.97	-35.5	-36.5	22.0	0.00e+00	123	29	0	1838153728	44	5917
2026-01-10 20:57:13.52	333.01	6.91	-35.2	-36.3	22.2	0.00e+00	123	29	0	1841299456	44	5733
2026-01-10 20:57:14.53	332.90	6.86	-35.3	-36.3	22.2	0.00e+00	122	29	0	1844445184	44	5789
2026-01-10 20:57:15.54	332.79	6.80	-35.3	-36.3	22.2	0.00e+00	123	29	0	1847590912	44	5765
2026-01-10 20:57:16.55	332.67	6.75	-35.5	-36.5	22.1	0.00e+00	122	29	0	1850736640	44	5924
2026-01-10 20:57:17.56	332.56	6.69	-35.6	-36.6	22.0	0.00e+00	122	29	0	1853882368	44	5991
2026-01-10 20:57:18.57	332.45	6.64	-35.5	-36.6	22.0	0.00e+00	120	29	0	1857028096	44	5942
2026-01-10 20:57:19.58	332.34	6.58	-35.7	-36.7	21.9	0.00e+00	123	29	0	1860173824	44	6037
2026-01-10 20:57:20.59	332.23	6.52	-35.7	-36.8	21.7	0.00e+00	122	29	0	1863319552	44	6087
2026-01-10 20:57:21.60	332.13	6.47	-35.8	-36.8	21.8	0.00e+00	123	29	0	1866465280	44	6120
2026-01-10 20:57:22.61	332.02	6.41	-35.7	-36.8	21.8	0.00e+00	123	29	0	1869611008	44	6075
2026-01-10 20:57:23.62	331.91	6.36	-35.9	-37.0	21.5	0.00e+00	123	29	0	1872756736	44	6265
2026-01-10 20:57:24.63	331.80	6.30	-36.2	-37.3	21.2	0.00e+00	122	29	0	1875902464	44	6471
2026-01-10 20:57:25.64	331.69	6.25	-36.2	-37.3	21.2	0.00e+00	123	29	0	1879048192	44	6451
2026-01-10 20:57:26.65	331.59	6.19	-36.4	-37.5	21.3	0.00e+00	122	29	0	1882193920	44	6578
2026-01-10 20:57:27.66	331.48	6.13	-36.3	-37.4	21.2	0.00e+00	122	29	0	1885339648	44	6544
2026-01-10 20:57:28.67	331.37	6.08	-35.9	-37.0	21.5	0.00e+00	120	29	0	1888485376	44	6251
2026-01-10 20:57:29.68	331.27	6.02	-35.9	-37.0	21.6	0.00e+00	123	29	0	1891631104	44	6217
2026-01-10 20:57:30.69	331.16	5.97	-35.7	-36.8	21.7	0.00e+00	123	29	0	1894776832	44	6067
2026-01-10 20:57:31.70	331.06	5.91	-35.8	-36.8	21.7	0.00e+00	122	29	0	1897922560	44	6123
2026-01-10 20:57:32.71	330.95	5.86	-35.7	-36.7	21.8	0.00e+00	120	29	0	1901068288	44	6026
2026-01-10 20:57:33.72	330.85	5.80	-35.8	-36.8	21.7	0.00e+00	122	29	0	1904214016	44	6128
2026-01-10 20:57:34.73	330.75	5.75	-35.7	-36.7	21.8	0.00e+00	123	29	0	1907359744	44	6048
2026-01-10 20:57:35.74	330.64	5.69	-35.9	-37.0	21.6	0.00e+00	123	29	0	1910505472	44	6216
2026-01-10 20:57:36.75	330.54	5.64	-36.0	-37.1	21.4	0.00e+00	123	29	0	1913651200	44	6325
2026-01-10 20:57:37.76	330.44	5.58	-36.1	-37.1	21.5	0.00e+00	123	29	0	1916796928	44	6341
2026-01-10 20:57:38.77	330.34	5.52	-36.2	-37.3	21.4	0.00e+00	122	29	0	1919942656	44	6424
2026-01-10 20:57:39.78	330.24	5.47	-36.4	-37.5	21.1	0.00e+00	123	29	0	1923088384	44	6586
2026-01-10 20:57:40.79	330.13	5.41	-36.7	-37.8	20.8	0.00e+00	122	29	0	1926234112	44	6860
2026-01-10 20:57:41.80	330.03	5.36	-37.0	-38.1	20.6	0.00e+00	123	29	0	1929379840	46	6348
2026-01-10 20:57:42.81	329.93	5.30	-37.1	-38.3	20.4	0.00e+00	122	29	0	1932525568	46	6450
2026-01-10 20:57:43.82	329.83	5.25	-37.2	-38.5	20.2	0.00e+00	122	29	0	1935671296	46	6574
2026-01-10 20:57:44.83	329.73	5.19	-37.1	-38.3	20.4	0.00e+00	122	29	0	1938817024	46	6442
2026-01-10 20:57:45.84	329.63	5.14	-36.9	-38.1	20.6	0.00e+00	120	29	0	1941962752	46	6301
2026-01-10 20:57:46.85	329.54	5.08	-36.9	-38.1	20.5	0.00e+00	123	29	0	1945108480	46	6315
2026-01-10 20:57:47.86	329.44	5.03	-37.5	-38.8	19.9	0.00e+00	120	29	0	1948254208	46	6834
2026-01-10 20:57:48.87	329.34	4.97	-37.5	-38.7	19.9	0.00e+00	120	29	0	1951399936	46	6784
2026-01-10 20:57:49.88	329.24	4.92	-36.8	-38.0	20.6	0.00e+00	123	29	0	1954545664	46	6229
