passes_logs/2026/01/10/R4.6S_Anadyr/R4.6S_Anadyr__20260110_033305_FENGYUN_3D_rec.log

#Pass ID: 20260110_033305_FENGYUN 3D
#Satellite: FENGYUN 3D
#Configuration: FENGYUN 3D
#almurnet v.1.7.20251203
#Start time: 2026-01-10 03:33:06

#Version: 2.2.20231116
#Station: R4.6S_Anadyr
#Location: 177.4865 lon 64.73178 lat
#TLE: 1 43010U 17072A   26008.59015185 -.00000067  00000+0 -98204-5 0  9997
#TLE: 2 43010  98.9935 340.3069 0002117 119.1923 240.9464 14.19693468422340

#Time	Az	El	Level	Level2	SNR	BER	BlckErr	Temp	State	Recorded	gain1	gain2
2026-01-10 03:33:06.24	189.28	0.03	-48.0	-49.6	5.7	7.61e-01	0	23	0	0	60	36911
2026-01-10 03:33:07.25	189.33	0.09	-47.9	-60.1	3.6	8.44e-01	0	24	104	0	60	36553
2026-01-10 03:33:08.26	189.37	0.15	-47.9	-60.0	3.6	8.45e-01	0	24	104	0	60	36231
2026-01-10 03:33:09.27	189.41	0.20	-48.0	-60.1	3.6	8.45e-01	0	24	104	0	60	36400
2026-01-10 03:33:10.28	189.46	0.26	-48.0	-60.1	3.6	8.46e-01	0	24	104	0	60	36531
2026-01-10 03:33:11.29	189.50	0.32	-48.0	-60.1	3.6	8.45e-01	0	24	104	0	60	36740
2026-01-10 03:33:12.30	189.54	0.38	-48.0	-60.1	3.6	8.46e-01	0	24	104	0	60	36718
2026-01-10 03:33:13.30	189.59	0.43	-48.0	-60.2	3.6	8.46e-01	0	25	104	0	60	36928
2026-01-10 03:33:14.31	189.63	0.49	-47.9	-60.1	3.6	8.45e-01	0	25	104	0	60	36738
2026-01-10 03:33:15.32	189.68	0.55	-47.9	-60.0	3.6	8.47e-01	0	25	104	0	60	36270
2026-01-10 03:33:16.33	189.72	0.61	-47.9	-60.0	3.6	8.47e-01	0	25	104	0	60	36150
2026-01-10 03:33:17.34	189.77	0.67	-47.7	-59.8	3.6	8.46e-01	0	25	104	0	60	35416
2026-01-10 03:33:18.35	189.81	0.73	-47.5	-59.6	3.6	8.45e-01	0	25	104	0	60	34590
2026-01-10 03:33:19.36	189.86	0.78	-47.0	-59.2	3.6	8.45e-01	0	25	104	0	60	33097
2026-01-10 03:33:20.37	189.90	0.84	-46.9	-58.9	3.6	8.46e-01	0	25	104	0	60	31847
2026-01-10 03:33:21.38	189.95	0.90	-46.6	-58.3	3.6	8.45e-01	0	25	104	0	60	29732
2026-01-10 03:33:22.39	189.99	0.96	-46.6	-58.5	3.6	8.44e-01	0	25	104	0	60	30342
2026-01-10 03:33:23.40	190.04	1.02	-46.6	-58.4	3.6	8.46e-01	0	25	104	0	60	29958
2026-01-10 03:33:24.40	190.08	1.08	-46.6	-58.5	3.5	8.45e-01	0	25	104	0	60	30469
2026-01-10 03:33:25.41	190.13	1.14	-46.6	-58.6	3.6	8.46e-01	0	25	104	0	60	30605
2026-01-10 03:33:26.42	190.17	1.20	-46.6	-58.6	3.6	8.45e-01	0	25	104	0	60	30750
2026-01-10 03:33:27.43	190.22	1.26	-46.6	-58.6	3.6	8.46e-01	0	25	104	0	60	30857
2026-01-10 03:33:28.44	190.27	1.32	-46.6	-58.6	3.6	8.46e-01	0	25	104	0	60	30806
2026-01-10 03:33:29.45	190.31	1.37	-46.6	-58.6	3.6	8.45e-01	0	25	104	0	60	30705
2026-01-10 03:33:30.46	190.36	1.43	-46.6	-58.6	3.5	8.46e-01	0	25	104	0	60	30923
2026-01-10 03:33:31.47	190.41	1.49	-46.6	-58.6	3.6	8.46e-01	0	25	104	0	60	30837
2026-01-10 03:33:32.48	190.46	1.55	-46.6	-58.6	3.6	8.45e-01	0	25	104	0	60	30902
2026-01-10 03:33:33.49	190.50	1.61	-46.5	-58.6	3.6	8.46e-01	0	25	104	0	60	30863
2026-01-10 03:33:34.50	190.55	1.67	-46.5	-58.5	3.6	8.45e-01	0	25	104	0	60	30554
2026-01-10 03:33:35.51	190.60	1.73	-46.5	-58.5	3.6	8.46e-01	0	25	104	0	60	30587
2026-01-10 03:33:36.52	190.65	1.80	-46.5	-58.5	3.6	8.45e-01	0	25	104	0	60	30384
2026-01-10 03:33:37.53	190.70	1.86	-46.5	-58.5	3.6	8.45e-01	0	25	104	0	60	30323
2026-01-10 03:33:38.54	190.74	1.92	-46.6	-58.5	3.6	8.45e-01	0	25	104	0	60	30481
2026-01-10 03:33:39.55	190.79	1.98	-46.6	-58.6	3.6	8.45e-01	0	25	104	0	60	30599
2026-01-10 03:33:40.56	190.84	2.04	-46.6	-58.6	3.6	8.45e-01	0	25	104	0	60	30630
2026-01-10 03:33:41.57	190.89	2.10	-46.6	-58.6	3.6	8.45e-01	0	25	104	0	60	30785
2026-01-10 03:33:42.58	190.94	2.16	-46.6	-58.6	3.6	8.45e-01	0	25	104	0	60	30803
2026-01-10 03:33:43.59	190.99	2.22	-46.5	-58.6	3.6	8.44e-01	0	25	104	0	60	30793
2026-01-10 03:33:44.60	191.04	2.28	-46.6	-58.6	3.6	8.45e-01	0	25	104	0	60	30776
2026-01-10 03:33:45.61	191.09	2.34	-46.5	-58.4	3.6	8.46e-01	0	25	104	0	60	30180
2026-01-10 03:33:46.62	191.14	2.41	-46.5	-58.1	3.6	8.45e-01	0	25	104	0	60	28955
2026-01-10 03:33:47.63	191.19	2.47	-46.4	-57.3	3.6	8.46e-01	0	25	104	0	60	26457
2026-01-10 03:33:48.64	191.24	2.53	-46.3	-56.4	3.7	8.45e-01	0	25	104	0	60	23986
2026-01-10 03:33:49.65	191.29	2.59	-46.4	-56.6	3.7	8.43e-01	0	25	104	0	60	24405
2026-01-10 03:33:50.66	191.34	2.65	-46.4	-57.2	3.6	8.46e-01	0	25	104	0	60	26155
2026-01-10 03:33:51.67	191.39	2.71	-46.5	-57.9	3.6	8.44e-01	0	25	104	0	60	28481
2026-01-10 03:33:52.68	191.44	2.78	-46.3	-56.4	3.6	8.44e-01	0	25	104	0	60	23934
2026-01-10 03:33:53.69	191.49	2.84	-45.6	-51.2	5.7	8.06e-01	0	25	0	0	60	13194
2026-01-10 03:33:54.70	191.54	2.90	-44.3	-47.8	9.4	4.87e-02	0	25	0	5242880	60	8830
2026-01-10 03:33:55.71	191.59	2.96	-42.4	-44.7	13.1	6.53e-04	0	25	0	11534336	58	6936
2026-01-10 03:33:56.72	191.65	3.03	-40.6	-42.2	15.7	0.00e+00	0	25	0	16777216	56	5830
2026-01-10 03:33:57.73	191.70	3.09	-38.7	-39.9	17.9	0.00e+00	0	25	0	23068672	52	5644
2026-01-10 03:33:58.74	191.75	3.15	-37.4	-38.4	19.2	0.00e+00	0	25	0	28311552	48	6010
2026-01-10 03:33:59.75	191.80	3.22	-36.1	-37.0	20.5	0.00e+00	0	25	0	33554432	46	5761
2026-01-10 03:34:00.75	191.86	3.28	-36.0	-36.9	20.6	0.00e+00	0	25	0	39845888	46	5648
2026-01-10 03:34:01.76	191.91	3.34	-35.6	-36.4	21.0	0.00e+00	0	25	0	45088768	44	6018
2026-01-10 03:34:02.77	191.96	3.41	-36.0	-36.8	20.6	0.00e+00	0	25	0	51380224	44	6316
2026-01-10 03:34:03.78	192.01	3.47	-36.6	-37.6	19.9	0.00e+00	0	25	0	56623104	44	6889
2026-01-10 03:34:04.79	192.07	3.53	-38.8	-40.0	15.9	0.00e+00	0	25	0	61865984	46	8077
2026-01-10 03:34:05.80	192.12	3.60	-38.6	-39.8	18.1	0.00e+00	0	25	0	68157440	52	5581
2026-01-10 03:34:06.81	192.18	3.66	-43.5	-46.7	8.1	0.00e+00	0	25	0	73400320	54	11003
2026-01-10 03:34:07.82	192.23	3.73	-46.0	-54.2	3.8	8.39e-01	0	25	104	74448896	60	18639
2026-01-10 03:34:08.83	192.28	3.79	-35.5	-36.3	19.4	1.35e-02	0	25	104	74448896	42	6671
2026-01-10 03:34:09.84	192.34	3.85	-36.6	-37.5	20.3	0.00e+00	0	25	0	78643200	48	5416
2026-01-10 03:34:10.85	192.39	3.92	-36.4	-37.3	20.5	0.00e+00	0	25	0	84934656	46	5921
2026-01-10 03:34:11.86	192.45	3.98	-36.6	-37.5	20.3	0.00e+00	0	25	0	90177536	46	6052
2026-01-10 03:34:12.87	192.51	4.05	-36.5	-37.4	20.3	0.00e+00	0	25	0	96468992	46	6011
2026-01-10 03:34:13.88	192.56	4.11	-36.4	-37.2	20.5	0.00e+00	0	25	0	101711872	46	5895
2026-01-10 03:34:14.89	192.62	4.18	-36.6	-37.5	20.1	0.00e+00	0	25	0	108003328	46	6099
2026-01-10 03:34:15.90	192.67	4.24	-36.6	-37.6	20.4	0.00e+00	0	25	0	113246208	46	6106
2026-01-10 03:34:16.90	192.73	4.31	-36.1	-37.0	21.0	0.00e+00	0	25	0	119537664	46	5699
2026-01-10 03:34:17.91	192.78	4.37	-35.1	-35.9	21.8	0.00e+00	0	25	0	124780544	44	5663
2026-01-10 03:34:18.92	192.84	4.44	-34.9	-35.7	22.1	0.00e+00	0	25	0	130023424	44	5554
2026-01-10 03:34:19.94	192.90	4.51	-34.7	-35.5	22.3	0.00e+00	0	25	0	136314880	42	6055
2026-01-10 03:34:20.95	192.96	4.57	-34.6	-35.4	22.3	0.00e+00	0	25	0	141557760	42	5999
2026-01-10 03:34:21.95	193.01	4.64	-34.7	-35.5	22.3	0.00e+00	0	25	0	147849216	42	6071
2026-01-10 03:34:22.97	193.07	4.70	-34.7	-35.6	22.3	0.00e+00	0	25	0	153092096	42	6105
2026-01-10 03:34:23.98	193.13	4.77	-34.6	-35.4	22.4	0.00e+00	0	25	0	158334976	42	5997
2026-01-10 03:34:24.98	193.19	4.84	-34.5	-35.3	22.5	0.00e+00	0	25	0	164626432	42	5948
2026-01-10 03:34:25.99	193.25	4.90	-34.0	-34.8	23.1	0.00e+00	0	25	0	169869312	42	5585
2026-01-10 03:34:27.00	193.30	4.97	-34.1	-34.9	22.9	0.00e+00	0	25	0	175112192	42	5633
2026-01-10 03:34:28.01	193.36	5.04	-34.1	-34.9	23.0	0.00e+00	0	25	0	181403648	42	5660
2026-01-10 03:34:29.02	193.42	5.10	-34.0	-34.7	23.0	0.00e+00	0	25	0	186646528	42	5564
2026-01-10 03:34:30.03	193.48	5.17	-34.0	-34.8	23.0	0.00e+00	0	25	0	192937984	42	5601
2026-01-10 03:34:31.04	193.54	5.24	-33.9	-34.7	23.2	0.00e+00	0	25	0	198180864	42	5522
2026-01-10 03:34:32.05	193.60	5.31	-33.9	-34.6	23.2	0.00e+00	0	25	0	204472320	42	5472
2026-01-10 03:34:33.06	193.66	5.37	-33.9	-34.6	23.2	0.00e+00	0	25	0	209715200	42	5491
2026-01-10 03:34:34.07	193.72	5.44	-33.8	-34.5	23.4	0.00e+00	0	25	0	216006656	42	5402
2026-01-10 03:34:35.08	193.78	5.51	-33.7	-34.5	23.4	0.00e+00	0	25	0	221249536	40	6057
2026-01-10 03:34:36.09	193.84	5.58	-33.6	-34.4	23.4	0.00e+00	0	25	0	226492416	40	5978
2026-01-10 03:34:37.10	193.91	5.65	-33.7	-34.4	23.5	0.00e+00	0	25	0	232783872	40	6010
2026-01-10 03:34:38.11	193.97	5.71	-33.6	-34.3	23.6	0.00e+00	0	25	0	238026752	40	5909
2026-01-10 03:34:39.12	194.03	5.78	-33.7	-34.4	23.5	0.00e+00	0	25	0	244318208	40	5982
2026-01-10 03:34:40.13	194.09	5.85	-33.3	-34.0	23.8	0.00e+00	0	25	0	249561088	40	5754
2026-01-10 03:34:41.13	194.15	5.92	-33.4	-34.1	23.8	0.00e+00	0	25	0	254803968	40	5819
2026-01-10 03:34:42.14	194.22	5.99	-33.3	-34.0	23.8	0.00e+00	0	25	0	261095424	40	5749
2026-01-10 03:34:43.15	194.28	6.06	-33.4	-34.2	23.8	0.00e+00	0	25	0	266338304	40	5841
2026-01-10 03:34:44.16	194.34	6.13	-33.6	-34.3	23.6	0.00e+00	0	25	0	272629760	40	5934
2026-01-10 03:34:45.17	194.41	6.20	-33.7	-34.4	23.5	0.00e+00	0	25	0	277872640	40	6011
2026-01-10 03:34:46.18	194.47	6.27	-33.4	-34.1	23.8	0.00e+00	0	25	0	283115520	40	5786
2026-01-10 03:34:47.19	194.53	6.34	-33.4	-34.1	23.8	0.00e+00	0	25	0	289406976	40	5780
2026-01-10 03:34:48.20	194.60	6.41	-33.4	-34.1	23.9	0.00e+00	0	25	0	294649856	40	5791
2026-01-10 03:34:49.21	194.66	6.48	-33.2	-33.9	23.9	0.00e+00	0	25	0	300941312	40	5691
2026-01-10 03:34:50.22	194.73	6.55	-33.3	-34.0	23.9	0.00e+00	0	25	0	306184192	40	5734
2026-01-10 03:34:51.23	194.79	6.62	-33.3	-34.0	23.9	0.00e+00	0	25	0	312475648	40	5739
2026-01-10 03:34:52.24	194.86	6.69	-33.2	-33.9	24.0	0.00e+00	0	25	0	317718528	40	5675
2026-01-10 03:34:53.25	194.92	6.76	-33.4	-34.1	23.9	0.00e+00	0	25	0	322961408	40	5790
2026-01-10 03:34:54.26	194.99	6.83	-33.1	-33.8	24.1	0.00e+00	0	25	0	329252864	40	5600
2026-01-10 03:34:55.27	195.06	6.90	-33.1	-33.8	24.1	0.00e+00	0	25	0	334495744	40	5629
2026-01-10 03:34:56.28	195.12	6.97	-33.1	-33.9	24.1	0.00e+00	0	25	0	340787200	40	5633
2026-01-10 03:34:57.29	195.19	7.04	-33.2	-34.0	24.0	0.00e+00	0	25	0	346030080	40	5714
2026-01-10 03:34:58.30	195.26	7.11	-33.2	-33.9	24.1	0.00e+00	0	25	0	351272960	40	5656
2026-01-10 03:34:59.30	195.33	7.19	-33.2	-33.9	24.1	0.00e+00	0	25	0	357564416	40	5692
2026-01-10 03:35:00.31	195.39	7.26	-33.2	-33.9	24.0	0.00e+00	0	25	0	362807296	40	5643
2026-01-10 03:35:01.32	195.46	7.33	-33.1	-33.9	24.2	0.00e+00	0	25	0	369098752	40	5636
2026-01-10 03:35:02.33	195.53	7.40	-33.0	-33.7	24.2	0.00e+00	0	25	0	374341632	40	5516
2026-01-10 03:35:03.34	195.60	7.47	-33.0	-33.7	24.3	0.00e+00	0	25	0	379584512	40	5532
2026-01-10 03:35:04.35	195.67	7.55	-32.9	-33.6	24.3	0.00e+00	0	25	0	385875968	40	5489
2026-01-10 03:35:05.36	195.74	7.62	-33.0	-33.7	24.2	0.00e+00	0	25	0	391118848	40	5554
2026-01-10 03:35:06.37	195.81	7.69	-33.1	-33.8	24.2	0.00e+00	0	25	0	397410304	40	5606
2026-01-10 03:35:07.38	195.88	7.77	-33.2	-33.9	24.1	0.00e+00	0	25	0	402653184	40	5688
2026-01-10 03:35:08.39	195.95	7.84	-33.1	-33.8	24.2	0.00e+00	0	25	0	408944640	40	5629
2026-01-10 03:35:09.40	196.02	7.91	-33.0	-33.7	24.3	0.00e+00	0	25	0	414187520	40	5512
2026-01-10 03:35:10.41	196.09	7.99	-33.0	-33.7	24.4	0.00e+00	0	25	0	420478976	40	5516
2026-01-10 03:35:11.42	196.16	8.06	-32.8	-33.5	24.5	0.00e+00	0	25	0	425721856	40	5394
2026-01-10 03:35:12.43	196.24	8.13	-32.9	-33.6	24.4	0.00e+00	0	25	0	430964736	40	5444
2026-01-10 03:35:13.44	196.31	8.21	-32.9	-33.5	24.4	0.00e+00	0	25	0	437256192	40	5427
2026-01-10 03:35:14.45	196.38	8.28	-32.8	-33.5	24.6	0.00e+00	0	25	0	442499072	38	6035
2026-01-10 03:35:15.46	196.45	8.36	-32.8	-33.5	24.5	0.00e+00	0	25	0	448790528	38	6060
2026-01-10 03:35:16.47	196.53	8.43	-32.9	-33.6	24.5	0.00e+00	0	25	0	454033408	38	6126
2026-01-10 03:35:17.47	196.60	8.51	-32.8	-33.5	24.6	0.00e+00	0	25	0	459276288	38	6039
2026-01-10 03:35:18.48	196.67	8.58	-32.7	-33.4	24.6	0.00e+00	0	25	0	465567744	38	6012
2026-01-10 03:35:19.49	196.75	8.66	-32.7	-33.4	24.7	0.00e+00	0	25	0	470810624	38	5991
2026-01-10 03:35:20.50	196.82	8.73	-32.8	-33.5	24.5	0.00e+00	0	25	0	477102080	38	6081
2026-01-10 03:35:21.51	196.90	8.81	-32.7	-33.4	24.6	0.00e+00	0	25	0	482344960	38	6005
2026-01-10 03:35:22.52	196.98	8.88	-32.8	-33.5	24.6	0.00e+00	0	25	0	487587840	38	6047
2026-01-10 03:35:23.53	197.05	8.96	-32.9	-33.5	24.6	0.00e+00	0	25	0	493879296	38	6076
2026-01-10 03:35:24.54	197.13	9.04	-32.7	-33.4	24.6	0.00e+00	0	25	0	499122176	38	6013
2026-01-10 03:35:25.55	197.20	9.11	-32.8	-33.5	24.6	0.00e+00	0	25	0	505413632	38	6101
2026-01-10 03:35:26.56	197.28	9.19	-32.9	-33.6	24.6	0.00e+00	0	25	0	510656512	38	6123
2026-01-10 03:35:27.57	197.36	9.27	-33.0	-33.7	24.4	0.00e+00	0	25	0	516947968	38	6210
2026-01-10 03:35:28.58	197.44	9.34	-32.7	-33.4	24.7	0.00e+00	0	25	0	522190848	38	6002
2026-01-10 03:35:29.59	197.52	9.42	-32.9	-33.5	24.5	0.00e+00	0	25	0	527433728	38	6095
2026-01-10 03:35:30.60	197.59	9.50	-32.9	-33.6	24.5	0.00e+00	0	25	0	533725184	38	6127
2026-01-10 03:35:31.61	197.67	9.58	-32.8	-33.5	24.6	0.00e+00	0	25	0	538968064	38	6052
2026-01-10 03:35:32.62	197.75	9.65	-32.8	-33.5	24.6	0.00e+00	0	26	0	545259520	38	6083
2026-01-10 03:35:33.62	197.83	9.73	-32.9	-33.6	24.5	0.00e+00	0	26	0	550502400	38	6138
2026-01-10 03:35:34.63	197.91	9.81	-32.8	-33.5	24.7	0.00e+00	0	25	0	555745280	38	6052
2026-01-10 03:35:35.64	197.99	9.89	-32.9	-33.6	24.5	0.00e+00	0	25	0	562036736	38	6168
2026-01-10 03:35:36.57	198.07	9.96	-32.7	-33.4	24.7	0.00e+00	0	25	0	567279616	38	5992
2026-01-10 03:35:37.58	198.15	10.04	-32.6	-33.3	24.8	0.00e+00	0	25	0	573571072	38	5956
2026-01-10 03:35:38.58	198.23	10.12	-32.6	-33.2	24.9	0.00e+00	0	26	0	578813952	38	5874
2026-01-10 03:35:39.59	198.31	10.20	-32.6	-33.3	24.8	0.00e+00	0	25	0	584056832	38	5936
2026-01-10 03:35:40.60	198.40	10.28	-32.6	-33.2	24.9	0.00e+00	0	26	0	590348288	38	5893
2026-01-10 03:35:41.61	198.48	10.36	-32.4	-33.1	25.0	0.00e+00	0	25	0	595591168	38	5794
2026-01-10 03:35:42.62	198.56	10.44	-32.6	-33.3	24.8	0.00e+00	0	25	0	601882624	38	5921
2026-01-10 03:35:43.63	198.65	10.52	-32.3	-33.0	25.2	0.00e+00	0	26	0	607125504	38	5698
2026-01-10 03:35:44.64	198.73	10.60	-32.4	-33.1	25.1	0.00e+00	0	25	0	613416960	38	5768
2026-01-10 03:35:45.65	198.82	10.68	-32.4	-33.1	25.1	0.00e+00	0	26	0	618659840	38	5773
2026-01-10 03:35:46.66	198.90	10.76	-32.1	-32.7	25.4	0.00e+00	0	26	0	623902720	38	5534
2026-01-10 03:35:47.67	198.99	10.84	-32.1	-32.7	25.3	0.00e+00	0	26	0	630194176	38	5561
2026-01-10 03:35:48.68	199.07	10.92	-32.0	-32.7	25.4	0.00e+00	0	26	0	635437056	38	5513
2026-01-10 03:35:49.69	199.16	11.00	-32.1	-32.8	25.3	0.00e+00	0	25	0	641728512	38	5577
2026-01-10 03:35:50.70	199.25	11.08	-31.9	-32.6	25.5	0.00e+00	0	26	0	646971392	38	5460
2026-01-10 03:35:51.70	199.33	11.16	-32.0	-32.7	25.5	0.00e+00	0	26	0	652214272	38	5512
2026-01-10 03:35:52.71	199.42	11.25	-32.0	-32.6	25.5	0.00e+00	0	26	0	658505728	38	5464
2026-01-10 03:35:53.72	199.51	11.33	-31.9	-32.5	25.6	0.00e+00	0	25	0	663748608	38	5423
2026-01-10 03:35:54.73	199.60	11.41	-31.8	-32.5	25.6	0.00e+00	0	25	0	670040064	38	5396
2026-01-10 03:35:55.74	199.69	11.49	-31.8	-32.4	25.7	0.00e+00	0	25	0	675282944	38	5367
2026-01-10 03:35:56.75	199.78	11.58	-31.9	-32.6	25.6	0.00e+00	0	25	0	680525824	38	5455
2026-01-10 03:35:57.76	199.87	11.66	-31.9	-32.5	25.6	0.00e+00	0	25	0	686817280	38	5421
2026-01-10 03:35:58.77	199.96	11.74	-32.0	-32.6	25.5	0.00e+00	0	25	0	692060160	38	5473
2026-01-10 03:35:59.78	200.05	11.82	-31.9	-32.6	25.6	0.00e+00	0	26	0	698351616	38	5456
2026-01-10 03:36:00.79	200.15	11.91	-31.8	-32.5	25.6	0.00e+00	0	26	0	703594496	38	5417
2026-01-10 03:36:01.80	200.24	11.99	-31.9	-32.5	25.6	0.00e+00	0	26	0	709885952	38	5438
2026-01-10 03:36:02.81	200.33	12.08	-31.8	-32.5	25.7	0.00e+00	0	26	0	715128832	38	5384
2026-01-10 03:36:03.82	200.43	12.16	-32.0	-32.6	25.6	0.00e+00	0	26	0	720371712	38	5500
2026-01-10 03:36:04.83	200.52	12.25	-31.7	-32.4	25.8	0.00e+00	0	26	0	726663168	36	5980
2026-01-10 03:36:05.83	200.61	12.33	-31.7	-32.4	25.8	0.00e+00	0	26	0	731906048	36	6022
2026-01-10 03:36:06.85	200.71	12.42	-31.8	-32.4	25.7	0.00e+00	0	26	0	738197504	36	6023
2026-01-10 03:36:07.85	200.80	12.50	-31.7	-32.3	25.8	0.00e+00	0	26	0	743440384	36	5951
2026-01-10 03:36:08.86	200.90	12.59	-31.6	-32.3	25.9	0.00e+00	0	25	0	748683264	36	5924
2026-01-10 03:36:09.87	201.00	12.67	-31.6	-32.3	25.9	0.00e+00	0	25	0	754974720	36	5901
2026-01-10 03:36:10.88	201.09	12.76	-31.6	-32.3	25.9	0.00e+00	0	25	0	760217600	36	5924
2026-01-10 03:36:11.89	201.19	12.84	-31.5	-32.1	26.0	0.00e+00	0	25	0	766509056	36	5802
2026-01-10 03:36:12.90	201.29	12.93	-31.5	-32.1	26.0	0.00e+00	0	25	0	771751936	36	5804
2026-01-10 03:36:13.91	201.39	13.02	-31.5	-32.1	26.0	0.00e+00	0	25	0	776994816	36	5806
2026-01-10 03:36:14.92	201.49	13.10	-31.5	-32.2	26.0	0.00e+00	0	26	0	783286272	36	5853
2026-01-10 03:36:15.93	201.59	13.19	-31.6	-32.3	25.9	0.00e+00	0	26	0	788529152	36	5911
2026-01-10 03:36:16.94	201.69	13.28	-31.7	-32.3	25.9	0.00e+00	0	25	0	794820608	36	5929
2026-01-10 03:36:17.95	201.79	13.37	-31.6	-32.2	25.9	0.00e+00	0	25	0	800063488	36	5876
2026-01-10 03:36:18.96	201.89	13.45	-31.6	-32.3	25.9	0.00e+00	0	25	0	806354944	36	5905
2026-01-10 03:36:19.97	202.00	13.54	-31.6	-32.3	25.9	0.00e+00	0	25	0	811597824	36	5920
2026-01-10 03:36:20.98	202.10	13.63	-31.7	-32.4	25.8	0.00e+00	0	25	0	817889280	36	5996
2026-01-10 03:36:21.99	202.20	13.72	-31.5	-32.2	26.0	0.00e+00	0	25	0	823132160	36	5831
2026-01-10 03:36:23.00	202.31	13.81	-31.4	-32.1	26.0	0.00e+00	0	25	0	828375040	36	5795
2026-01-10 03:36:24.01	202.41	13.90	-31.4	-32.0	26.1	0.00e+00	0	25	0	834666496	36	5761
2026-01-10 03:36:25.02	202.52	13.99	-31.4	-32.0	26.1	0.00e+00	0	25	0	839909376	36	5741
2026-01-10 03:36:26.03	202.62	14.08	-31.3	-32.0	26.2	0.00e+00	0	25	0	846200832	36	5711
2026-01-10 03:36:27.04	202.73	14.17	-31.4	-32.0	26.2	0.00e+00	0	26	0	851443712	36	5756
2026-01-10 03:36:28.05	202.84	14.26	-31.4	-32.0	26.1	0.00e+00	0	26	0	856686592	36	5726
2026-01-10 03:36:29.06	202.94	14.35	-31.3	-31.9	26.2	0.00e+00	0	25	0	862978048	36	5683
2026-01-10 03:36:30.07	203.05	14.44	-31.2	-31.9	26.3	0.00e+00	0	25	0	868220928	36	5648
2026-01-10 03:36:31.08	203.16	14.53	-31.3	-31.9	26.2	0.00e+00	0	25	0	874512384	36	5666
2026-01-10 03:36:32.09	203.27	14.62	-31.2	-31.8	26.2	0.00e+00	0	26	0	879755264	36	5611
2026-01-10 03:36:33.09	203.38	14.71	-31.3	-32.0	26.2	0.00e+00	0	26	0	884998144	36	5720
2026-01-10 03:36:34.10	203.49	14.80	-31.3	-32.0	26.2	0.00e+00	0	25	0	891289600	36	5711
2026-01-10 03:36:35.11	203.60	14.89	-31.3	-31.9	26.2	0.00e+00	0	26	0	896532480	36	5681
2026-01-10 03:36:36.12	203.72	14.98	-31.3	-31.9	26.2	0.00e+00	0	26	0	902823936	36	5690
2026-01-10 03:36:37.13	203.83	15.08	-31.1	-31.8	26.3	0.00e+00	0	26	0	908066816	36	5616
2026-01-10 03:36:38.14	203.94	15.17	-31.0	-31.7	26.5	0.00e+00	0	26	0	914358272	36	5509
2026-01-10 03:36:39.15	204.06	15.26	-31.0	-31.6	26.4	0.00e+00	0	25	0	919601152	36	5464
2026-01-10 03:36:40.16	204.17	15.35	-30.9	-31.5	26.6	0.00e+00	0	25	0	924844032	36	5422
2026-01-10 03:36:41.17	204.29	15.45	-30.8	-31.5	26.6	0.00e+00	0	26	0	931135488	36	5381
2026-01-10 03:36:42.18	204.40	15.54	-30.7	-31.3	26.7	0.00e+00	0	26	0	936378368	34	5948
2026-01-10 03:36:43.19	204.52	15.64	-30.7	-31.3	26.7	0.00e+00	0	25	0	942669824	34	5963
2026-01-10 03:36:44.20	204.64	15.73	-30.7	-31.3	26.8	0.00e+00	0	26	0	947912704	34	5928
2026-01-10 03:36:45.21	204.76	15.82	-30.7	-31.3	26.7	0.00e+00	0	26	0	953155584	34	5948
2026-01-10 03:36:46.22	204.88	15.92	-30.7	-31.3	26.8	0.00e+00	0	26	0	959447040	34	5927
2026-01-10 03:36:47.23	205.00	16.01	-30.6	-31.3	26.7	0.00e+00	0	25	0	964689920	34	5915
2026-01-10 03:36:48.24	205.12	16.11	-30.8	-31.4	26.7	0.00e+00	0	26	0	970981376	34	5973
2026-01-10 03:36:49.25	205.24	16.20	-30.8	-31.4	26.7	0.00e+00	0	26	0	976224256	34	6002
2026-01-10 03:36:50.26	205.36	16.30	-30.8	-31.5	26.7	0.00e+00	0	25	0	981467136	34	6039
2026-01-10 03:36:51.27	205.48	16.39	-30.8	-31.4	26.7	0.00e+00	0	25	0	987758592	34	6000
2026-01-10 03:36:52.28	205.61	16.49	-30.8	-31.4	26.7	0.00e+00	0	26	0	993001472	34	6015
2026-01-10 03:36:53.29	205.73	16.59	-30.9	-31.5	26.5	0.00e+00	0	26	0	999292928	34	6099
2026-01-10 03:36:54.30	205.86	16.68	-30.6	-31.2	26.8	0.00e+00	0	25	0	1004535808	34	5883
2026-01-10 03:36:55.31	205.98	16.78	-30.7	-31.4	26.7	0.00e+00	0	25	0	1010827264	34	5972
2026-01-10 03:36:56.32	206.11	16.88	-30.6	-31.3	26.8	0.00e+00	0	26	0	1016070144	34	5903
2026-01-10 03:36:57.33	206.24	16.97	-30.6	-31.3	26.8	0.00e+00	0	26	0	1022361600	34	5904
2026-01-10 03:36:58.34	206.37	17.07	-30.5	-31.1	26.8	0.00e+00	0	25	0	1027604480	34	5813
2026-01-10 03:36:59.34	206.50	17.17	-30.5	-31.2	26.9	0.00e+00	0	25	0	1032847360	34	5829
2026-01-10 03:37:00.35	206.63	17.27	-30.6	-31.2	26.9	0.00e+00	0	26	0	1039138816	34	5848
2026-01-10 03:37:01.36	206.76	17.37	-30.5	-31.1	26.9	0.00e+00	0	26	0	1044381696	34	5787
2026-01-10 03:37:02.37	206.89	17.46	-30.5	-31.2	26.8	0.00e+00	0	25	0	1050673152	34	5837
2026-01-10 03:37:03.38	207.02	17.56	-30.5	-31.1	26.8	0.00e+00	0	26	0	1055916032	34	5826
2026-01-10 03:37:04.39	207.15	17.66	-30.6	-31.2	26.8	0.00e+00	0	26	0	1061158912	34	5875
2026-01-10 03:37:05.40	207.29	17.76	-30.6	-31.2	26.8	0.00e+00	0	26	0	1067450368	34	5890
2026-01-10 03:37:06.41	207.42	17.86	-30.6	-31.2	26.8	0.00e+00	0	26	0	1072693248	34	5880
2026-01-10 03:37:07.42	207.56	17.96	-30.5	-31.1	26.9	0.00e+00	0	26	0	1077936128	34	5816
2026-01-10 03:37:08.43	207.70	18.06	-30.5	-31.1	26.9	0.00e+00	0	26	0	1084227584	34	5814
2026-01-10 03:37:09.44	207.83	18.16	-30.4	-31.1	27.0	0.00e+00	0	26	0	1089470464	34	5776
2026-01-10 03:37:10.45	207.97	18.26	-30.5	-31.1	26.9	0.00e+00	0	26	0	1095761920	34	5782
2026-01-10 03:37:11.46	208.11	18.36	-30.4	-31.0	27.0	0.00e+00	0	26	0	1101004800	34	5748
2026-01-10 03:37:12.47	208.25	18.46	-30.5	-31.2	26.9	0.00e+00	0	26	0	1107296256	34	5843
2026-01-10 03:37:13.48	208.39	18.57	-30.4	-31.0	27.1	0.00e+00	0	26	0	1112539136	34	5701
2026-01-10 03:37:14.49	208.54	18.67	-30.5	-31.2	26.9	0.00e+00	0	26	0	1118830592	34	5848
2026-01-10 03:37:15.50	208.68	18.77	-30.5	-31.1	26.9	0.00e+00	0	26	0	1124073472	34	5766
2026-01-10 03:37:16.50	208.82	18.87	-30.1	-30.7	27.3	0.00e+00	0	26	0	1129316352	34	5539
2026-01-10 03:37:17.52	208.97	18.97	-30.1	-30.7	27.3	0.00e+00	0	26	0	1135607808	34	5532
2026-01-10 03:37:18.53	209.11	19.08	-29.9	-30.5	27.4	0.00e+00	0	26	0	1140850688	34	5411
2026-01-10 03:37:19.54	209.26	19.18	-30.1	-30.7	27.3	0.00e+00	0	26	0	1147142144	34	5551
2026-01-10 03:37:20.55	209.41	19.28	-30.1	-30.8	27.2	0.00e+00	0	26	0	1152385024	34	5579
2026-01-10 03:37:21.56	209.56	19.39	-29.9	-30.5	27.4	0.00e+00	0	26	0	1157627904	34	5412
2026-01-10 03:37:22.57	209.71	19.49	-29.9	-30.5	27.5	0.00e+00	0	26	0	1163919360	34	5384
2026-01-10 03:37:23.58	209.86	19.59	-29.9	-30.5	27.5	0.00e+00	0	26	0	1169162240	34	5401
2026-01-10 03:37:24.59	210.01	19.70	-29.9	-30.5	27.4	0.00e+00	0	26	0	1175453696	34	5412
2026-01-10 03:37:25.60	210.16	19.80	-30.0	-30.6	27.3	0.00e+00	0	26	0	1180696576	34	5495
2026-01-10 03:37:26.61	210.32	19.91	-29.9	-30.5	27.4	0.00e+00	0	26	0	1185939456	34	5437
2026-01-10 03:37:27.62	210.47	20.01	-29.8	-30.4	27.5	0.00e+00	0	26	0	1192230912	32	5993
2026-01-10 03:37:28.63	210.63	20.12	-29.8	-30.4	27.5	0.00e+00	0	26	0	1197473792	32	5983
2026-01-10 03:37:29.64	210.79	20.22	-29.7	-30.3	27.5	0.00e+00	0	26	0	1203765248	32	5952
2026-01-10 03:37:30.65	210.94	20.33	-29.7	-30.3	27.6	0.00e+00	0	26	0	1209008128	32	5953
2026-01-10 03:37:31.66	211.10	20.43	-29.7	-30.4	27.5	0.00e+00	0	26	0	1215299584	32	5972
2026-01-10 03:37:32.67	211.26	20.54	-29.8	-30.4	27.5	0.00e+00	0	26	0	1220542464	32	6008
2026-01-10 03:37:33.68	211.42	20.64	-29.8	-30.4	27.5	0.00e+00	0	26	0	1226833920	32	6012
2026-01-10 03:37:34.69	211.59	20.75	-29.9	-30.5	27.5	0.00e+00	0	26	0	1232076800	32	6037
2026-01-10 03:37:35.70	211.75	20.86	-29.8	-30.4	27.5	0.00e+00	0	26	0	1237319680	32	6023
2026-01-10 03:37:36.71	211.91	20.96	-29.8	-30.5	27.5	0.00e+00	0	26	0	1243611136	32	6041
2026-01-10 03:37:37.72	212.08	21.07	-29.9	-30.5	27.3	0.00e+00	0	26	0	1248854016	32	6093
2026-01-10 03:37:38.73	212.25	21.18	-30.1	-30.8	27.3	0.00e+00	0	26	0	1255145472	32	6269
2026-01-10 03:37:39.73	212.41	21.29	-30.0	-30.7	27.3	0.00e+00	0	26	0	1260388352	32	6178
2026-01-10 03:37:40.74	212.58	21.39	-30.0	-30.7	27.3	0.00e+00	0	26	0	1265631232	32	6199
2026-01-10 03:37:41.75	212.75	21.50	-29.8	-30.4	27.5	0.00e+00	0	26	0	1271922688	32	6015
2026-01-10 03:37:42.76	212.92	21.61	-29.7	-30.3	27.6	0.00e+00	0	26	0	1277165568	32	5913
2026-01-10 03:37:43.77	213.09	21.72	-29.5	-30.1	27.8	0.00e+00	0	26	0	1283457024	32	5803
2026-01-10 03:37:44.78	213.27	21.83	-29.5	-30.1	27.7	0.00e+00	0	26	0	1288699904	32	5777
2026-01-10 03:37:45.79	213.44	21.93	-29.4	-30.1	27.9	0.00e+00	0	26	0	1293942784	32	5765
2026-01-10 03:37:46.80	213.62	22.04	-29.2	-29.8	28.0	0.00e+00	0	26	0	1300234240	32	5610
2026-01-10 03:37:47.81	213.80	22.15	-29.2	-29.8	28.0	0.00e+00	0	26	0	1305477120	32	5625
2026-01-10 03:37:48.82	213.97	22.26	-29.3	-29.9	27.9	0.00e+00	0	26	0	1311768576	32	5645
2026-01-10 03:37:49.83	214.15	22.37	-29.1	-29.7	28.0	0.00e+00	0	26	0	1317011456	32	5532
2026-01-10 03:37:50.84	214.34	22.48	-29.1	-29.7	28.0	0.00e+00	0	26	0	1323302912	32	5527
2026-01-10 03:37:51.85	214.52	22.59	-29.2	-29.8	28.0	0.00e+00	0	26	0	1328545792	32	5604
2026-01-10 03:37:52.86	214.70	22.70	-29.1	-29.7	28.1	0.00e+00	0	26	0	1333788672	32	5546
2026-01-10 03:37:53.87	214.89	22.81	-29.2	-29.8	27.9	0.00e+00	0	26	0	1340080128	32	5595
2026-01-10 03:37:54.88	215.07	22.92	-29.1	-29.7	28.1	0.00e+00	0	26	0	1345323008	32	5541
2026-01-10 03:37:55.88	215.26	23.03	-29.2	-29.8	28.0	0.00e+00	0	26	0	1351614464	32	5576
2026-01-10 03:37:56.89	215.44	23.14	-29.3	-29.9	27.9	0.00e+00	0	26	0	1356857344	32	5639
2026-01-10 03:37:57.90	215.63	23.25	-29.4	-30.0	27.8	0.00e+00	0	26	0	1362100224	32	5743
2026-01-10 03:37:58.91	215.83	23.36	-29.3	-29.9	28.0	0.00e+00	0	26	0	1368391680	32	5643
2026-01-10 03:37:59.92	216.02	23.48	-29.2	-29.9	28.0	0.00e+00	0	26	0	1373634560	32	5651
2026-01-10 03:38:00.93	216.21	23.59	-29.1	-29.7	28.1	0.00e+00	0	26	0	1379926016	32	5509
2026-01-10 03:38:01.94	216.41	23.70	-29.0	-29.6	28.1	0.00e+00	0	26	0	1385168896	32	5462
2026-01-10 03:38:02.95	216.60	23.81	-29.2	-29.8	28.0	0.00e+00	0	26	0	1390411776	32	5574
2026-01-10 03:38:03.96	216.80	23.92	-29.3	-29.9	27.9	0.00e+00	0	25	0	1396703232	32	5686
2026-01-10 03:38:04.97	217.00	24.03	-29.2	-29.8	28.0	0.00e+00	0	26	0	1401946112	32	5615
2026-01-10 03:38:05.98	217.20	24.15	-29.2	-29.8	28.0	0.00e+00	0	26	0	1408237568	32	5608
2026-01-10 03:38:06.99	217.40	24.26	-29.2	-29.8	28.0	0.00e+00	0	26	0	1413480448	32	5610
2026-01-10 03:38:08.00	217.61	24.37	-29.3	-29.9	27.8	0.00e+00	0	26	0	1419771904	32	5675
2026-01-10 03:38:09.01	217.81	24.48	-29.1	-29.7	28.1	0.00e+00	0	25	0	1425014784	32	5547
2026-01-10 03:38:10.02	218.02	24.60	-29.2	-29.8	28.0	0.00e+00	0	26	0	1430257664	32	5610
2026-01-10 03:38:11.03	218.23	24.71	-29.0	-29.6	28.1	0.00e+00	0	26	0	1436549120	32	5499
2026-01-10 03:38:12.04	218.43	24.82	-29.0	-29.6	28.1	0.00e+00	0	26	0	1441792000	32	5463
2026-01-10 03:38:13.05	218.65	24.93	-29.1	-29.7	28.1	0.00e+00	0	26	0	1448083456	32	5521
2026-01-10 03:38:14.06	218.86	25.05	-29.1	-29.7	28.1	0.00e+00	0	26	0	1453326336	32	5565
2026-01-10 03:38:15.07	219.07	25.16	-28.9	-29.6	28.1	0.00e+00	0	26	0	1458569216	32	5442
2026-01-10 03:38:16.08	219.29	25.27	-28.8	-29.4	28.3	0.00e+00	0	26	0	1464860672	32	5365
2026-01-10 03:38:17.09	219.50	25.39	-28.7	-29.2	28.4	0.00e+00	0	26	0	1470103552	30	5887
2026-01-10 03:38:18.10	219.72	25.50	-28.7	-29.3	28.4	0.00e+00	0	26	0	1476395008	30	5916
2026-01-10 03:38:19.11	219.94	25.61	-28.8	-29.4	28.3	0.00e+00	0	26	0	1481637888	30	6013
2026-01-10 03:38:20.12	220.16	25.73	-28.9	-29.5	28.3	0.00e+00	0	26	0	1486880768	30	6053
2026-01-10 03:38:21.13	220.38	25.84	-28.9	-29.5	28.1	0.00e+00	0	26	0	1493172224	30	6076
2026-01-10 03:38:22.14	220.61	25.95	-28.8	-29.4	28.4	0.00e+00	0	26	0	1498415104	30	5979
2026-01-10 03:38:23.14	220.83	26.07	-28.8	-29.4	28.3	0.00e+00	0	26	0	1504706560	30	5972
2026-01-10 03:38:24.15	221.06	26.18	-28.8	-29.4	28.3	0.00e+00	0	26	0	1509949440	30	6009
2026-01-10 03:38:25.17	221.29	26.29	-28.7	-29.2	28.5	0.00e+00	0	26	0	1516240896	30	5879
2026-01-10 03:38:26.17	221.52	26.41	-28.5	-29.1	28.5	0.00e+00	0	26	0	1521483776	30	5816
2026-01-10 03:38:27.18	221.75	26.52	-28.7	-29.2	28.5	0.00e+00	0	26	0	1527775232	30	5887
2026-01-10 03:38:28.19	221.99	26.63	-28.8	-29.3	28.3	0.00e+00	0	26	0	1533018112	30	5961
2026-01-10 03:38:29.20	222.22	26.75	-28.7	-29.3	28.4	0.00e+00	0	26	0	1538260992	30	5938
2026-01-10 03:38:30.21	222.46	26.86	-28.8	-29.5	28.3	0.00e+00	0	26	0	1544552448	30	6045
2026-01-10 03:38:31.22	222.70	26.97	-28.6	-29.2	28.4	0.00e+00	0	26	0	1549795328	30	5895
2026-01-10 03:38:32.23	222.94	27.09	-28.5	-29.1	28.5	0.00e+00	0	26	0	1556086784	30	5801
2026-01-10 03:38:33.24	223.18	27.20	-28.4	-29.0	28.6	0.00e+00	0	26	0	1561329664	30	5750
2026-01-10 03:38:34.25	223.42	27.31	-28.6	-29.2	28.5	0.00e+00	0	26	0	1566572544	30	5854
2026-01-10 03:38:35.26	223.67	27.42	-28.6	-29.2	28.5	0.00e+00	0	26	0	1572864000	30	5875
2026-01-10 03:38:36.27	223.92	27.54	-28.7	-29.3	28.4	0.00e+00	0	26	0	1578106880	30	5948
2026-01-10 03:38:37.28	224.17	27.65	-28.7	-29.3	28.4	0.00e+00	0	26	0	1584398336	30	5957
2026-01-10 03:38:38.29	224.42	27.76	-28.6	-29.2	28.5	0.00e+00	0	26	0	1589641216	30	5881
2026-01-10 03:38:39.30	224.67	27.88	-28.7	-29.3	28.4	0.00e+00	0	26	0	1594884096	30	5916
2026-01-10 03:38:40.30	224.92	27.99	-28.5	-29.1	28.5	0.00e+00	0	26	0	1601175552	30	5805
2026-01-10 03:38:41.31	225.18	28.10	-28.5	-29.1	28.5	0.00e+00	0	26	0	1606418432	30	5776
2026-01-10 03:38:42.32	225.43	28.21	-28.6	-29.1	28.6	0.00e+00	0	26	0	1612709888	30	5827
2026-01-10 03:38:43.33	225.69	28.32	-28.5	-29.1	28.6	0.00e+00	0	26	0	1617952768	30	5771
2026-01-10 03:38:44.34	225.95	28.44	-28.4	-29.0	28.6	0.00e+00	0	26	0	1624244224	30	5723
2026-01-10 03:38:45.35	226.22	28.55	-28.5	-29.1	28.6	0.00e+00	0	26	0	1629487104	30	5782
2026-01-10 03:38:46.36	226.48	28.66	-28.5	-29.1	28.5	0.00e+00	0	26	0	1634729984	30	5810
2026-01-10 03:38:47.37	226.75	28.77	-28.4	-29.0	28.7	0.00e+00	0	26	0	1641021440	30	5758
2026-01-10 03:38:48.39	227.02	28.88	-28.2	-28.8	28.7	0.00e+00	0	26	0	1646264320	30	5612
2026-01-10 03:38:49.40	227.29	28.99	-28.1	-28.8	28.8	0.00e+00	0	26	0	1652555776	30	5569
2026-01-10 03:38:50.41	227.56	29.10	-27.9	-28.5	29.0	0.00e+00	0	26	0	1657798656	30	5388
2026-01-10 03:38:51.42	227.84	29.21	-28.0	-28.6	28.9	0.00e+00	0	26	0	1663041536	30	5444
2026-01-10 03:38:52.43	228.11	29.32	-28.2	-28.8	28.8	0.00e+00	0	26	0	1669332992	30	5572
2026-01-10 03:38:53.44	228.39	29.43	-28.4	-29.0	28.5	0.00e+00	0	26	0	1674575872	30	5746
2026-01-10 03:38:54.45	228.67	29.54	-28.3	-28.9	28.7	0.00e+00	0	26	0	1680867328	30	5693
2026-01-10 03:38:55.46	228.95	29.65	-28.4	-28.9	28.7	0.00e+00	0	26	0	1686110208	30	5694
2026-01-10 03:38:56.47	229.23	29.76	-28.2	-28.8	28.8	0.00e+00	0	26	0	1691353088	30	5622
2026-01-10 03:38:57.48	229.52	29.87	-28.2	-28.8	28.8	0.00e+00	0	26	0	1697644544	30	5611
2026-01-10 03:38:58.49	229.80	29.98	-28.3	-28.9	28.6	0.00e+00	0	26	0	1702887424	30	5690
2026-01-10 03:38:59.50	230.09	30.08	-28.4	-29.0	28.7	0.00e+00	0	26	0	1709178880	30	5719
2026-01-10 03:39:00.50	230.38	30.19	-28.5	-29.1	28.5	0.00e+00	0	26	0	1714421760	30	5805
2026-01-10 03:39:01.52	230.68	30.30	-28.5	-29.1	28.6	0.00e+00	0	26	0	1720713216	30	5784
2026-01-10 03:39:02.53	230.97	30.40	-28.3	-28.9	28.7	0.00e+00	0	26	0	1725956096	30	5647
2026-01-10 03:39:03.54	231.27	30.51	-28.1	-28.7	28.8	0.00e+00	0	26	0	1732247552	30	5557
2026-01-10 03:39:04.55	231.57	30.62	-28.0	-28.6	28.7	0.00e+00	0	26	0	1737490432	30	5474
2026-01-10 03:39:05.56	231.87	30.72	-28.1	-28.7	28.7	0.00e+00	0	26	0	1742733312	30	5519
2026-01-10 03:39:06.57	232.17	30.83	-28.2	-28.8	28.7	0.00e+00	0	26	0	1749024768	30	5580
2026-01-10 03:39:07.58	232.47	30.93	-28.4	-29.0	28.6	0.00e+00	0	26	0	1754267648	30	5731
2026-01-10 03:39:08.59	232.78	31.03	-28.5	-29.1	28.5	0.00e+00	0	26	0	1760559104	30	5810
2026-01-10 03:39:09.60	233.09	31.14	-28.4	-29.0	28.5	0.00e+00	0	26	0	1765801984	30	5740
2026-01-10 03:39:10.61	233.39	31.24	-28.2	-28.7	28.7	0.00e+00	0	26	0	1771044864	30	5556
2026-01-10 03:39:11.61	233.70	31.34	-28.2	-28.8	28.8	0.00e+00	0	26	0	1777336320	30	5586
2026-01-10 03:39:12.62	234.02	31.44	-28.2	-28.7	28.8	0.00e+00	0	26	0	1782579200	30	5561
2026-01-10 03:39:13.63	234.33	31.54	-28.3	-28.8	28.7	0.00e+00	0	26	0	1788870656	30	5630
2026-01-10 03:39:14.64	234.65	31.64	-28.4	-29.0	28.6	0.00e+00	0	26	0	1794113536	30	5701
2026-01-10 03:39:15.65	234.97	31.74	-28.2	-28.8	28.7	0.00e+00	0	26	0	1799356416	30	5625
2026-01-10 03:39:16.66	235.29	31.84	-28.5	-29.1	28.6	0.00e+00	0	26	0	1805647872	30	5781
2026-01-10 03:39:17.67	235.61	31.94	-28.4	-29.0	28.5	0.00e+00	0	26	0	1810890752	30	5729
2026-01-10 03:39:18.68	235.94	32.04	-28.6	-29.2	28.5	0.00e+00	0	26	0	1817182208	30	5845
2026-01-10 03:39:19.69	236.27	32.14	-28.3	-28.9	28.6	0.00e+00	0	26	0	1822425088	30	5648
2026-01-10 03:39:20.70	236.60	32.23	-28.3	-28.9	28.6	0.00e+00	0	26	0	1828716544	30	5668
2026-01-10 03:39:21.70	236.92	32.33	-28.4	-29.0	28.7	0.00e+00	0	26	0	1833959424	30	5724
2026-01-10 03:39:22.71	237.26	32.42	-28.5	-29.1	28.5	0.00e+00	0	26	0	1839202304	30	5805
2026-01-10 03:39:23.72	237.59	32.52	-28.5	-29.1	28.5	0.00e+00	0	26	0	1845493760	30	5803
2026-01-10 03:39:24.73	237.93	32.61	-28.4	-29.0	28.6	0.00e+00	0	26	0	1850736640	30	5711
2026-01-10 03:39:25.74	238.27	32.70	-28.2	-28.8	28.8	0.00e+00	0	26	0	1857028096	30	5570
2026-01-10 03:39:26.75	238.61	32.79	-28.0	-28.7	28.8	0.00e+00	0	26	0	1862270976	30	5513
2026-01-10 03:39:27.76	238.95	32.89	-28.1	-28.7	28.9	0.00e+00	0	26	0	1867513856	30	5511
2026-01-10 03:39:28.77	239.29	32.98	-28.2	-28.8	28.7	0.00e+00	0	26	0	1873805312	30	5584
2026-01-10 03:39:29.78	239.64	33.07	-28.3	-28.9	28.5	0.00e+00	0	26	0	1879048192	30	5695
2026-01-10 03:39:30.79	239.99	33.15	-28.4	-29.0	28.6	0.00e+00	0	26	0	1885339648	30	5718
2026-01-10 03:39:31.80	240.34	33.24	-28.3	-28.9	28.8	0.00e+00	0	26	0	1890582528	30	5668
2026-01-10 03:39:32.81	240.69	33.33	-28.4	-28.9	28.6	0.00e+00	0	26	0	1895825408	30	5668
2026-01-10 03:39:33.82	241.04	33.41	-28.0	-28.5	29.0	0.00e+00	0	26	0	1902116864	30	5439
2026-01-10 03:39:34.83	241.40	33.50	-28.0	-28.6	28.9	0.00e+00	0	26	0	1907359744	30	5450
2026-01-10 03:39:35.84	241.75	33.58	-28.2	-28.8	28.8	0.00e+00	0	26	0	1913651200	30	5571
2026-01-10 03:39:36.85	242.11	33.66	-28.2	-28.9	28.7	0.00e+00	0	26	0	1918894080	30	5634
2026-01-10 03:39:37.86	242.47	33.75	-28.1	-28.7	28.8	0.00e+00	0	26	0	1925185536	30	5539
2026-01-10 03:39:38.86	242.83	33.83	-28.1	-28.7	28.9	0.00e+00	0	26	0	1930428416	30	5510
2026-01-10 03:39:39.87	243.20	33.91	-28.0	-28.5	28.9	0.00e+00	0	26	0	1935671296	30	5427
2026-01-10 03:39:40.88	243.56	33.98	-27.9	-28.6	29.1	0.00e+00	0	26	0	1941962752	30	5447
2026-01-10 03:39:41.89	243.93	34.06	-28.0	-28.5	28.9	0.00e+00	0	26	0	1947205632	30	5421
2026-01-10 03:39:42.90	244.30	34.14	-27.9	-28.5	29.0	0.00e+00	0	26	0	1953497088	30	5420
2026-01-10 03:39:43.91	244.67	34.21	-28.1	-28.6	28.8	0.00e+00	0	26	0	1958739968	30	5487
2026-01-10 03:39:44.92	245.04	34.29	-28.2	-28.7	28.8	0.00e+00	0	26	0	1963982848	30	5566
2026-01-10 03:39:45.93	245.42	34.36	-28.3	-28.9	28.7	0.00e+00	0	26	0	1970274304	30	5652
2026-01-10 03:39:46.94	245.79	34.43	-28.3	-28.9	28.6	0.00e+00	0	26	0	1975517184	30	5675
2026-01-10 03:39:47.95	246.17	34.50	-28.1	-28.7	28.8	0.00e+00	0	26	0	1981808640	30	5520
2026-01-10 03:39:48.96	246.55	34.57	-28.2	-28.8	28.7	0.00e+00	0	26	0	1987051520	30	5612
2026-01-10 03:39:49.97	246.93	34.64	-28.1	-28.7	28.8	0.00e+00	0	26	0	1992294400	30	5539
2026-01-10 03:39:50.97	247.31	34.71	-28.2	-28.8	28.8	0.00e+00	0	26	0	1998585856	30	5582
2026-01-10 03:39:51.99	247.70	34.77	-28.1	-28.7	28.8	0.00e+00	0	26	0	2003828736	30	5537
2026-01-10 03:39:53.00	248.08	34.84	-28.3	-28.9	28.8	0.00e+00	0	26	0	2010120192	30	5651
2026-01-10 03:39:54.01	248.47	34.90	-27.9	-28.6	28.9	0.00e+00	0	26	0	2015363072	30	5440
2026-01-10 03:39:55.01	248.85	34.96	-27.7	-28.2	29.1	0.00e+00	0	26	0	2021654528	28	5890
2026-01-10 03:39:56.02	249.24	35.02	-27.7	-28.3	29.1	0.00e+00	0	26	0	2026897408	28	5936
2026-01-10 03:39:57.03	249.63	35.08	-27.7	-28.2	29.1	0.00e+00	0	26	0	2033188864	28	5884
2026-01-10 03:39:58.04	250.03	35.14	-27.8	-28.3	29.1	0.00e+00	0	26	0	2038431744	28	5948
2026-01-10 03:39:59.05	250.42	35.19	-28.0	-28.5	29.0	0.00e+00	0	26	0	2043674624	28	6095
2026-01-10 03:40:00.06	250.81	35.25	-28.0	-28.6	28.8	0.00e+00	0	26	0	2049966080	28	6135
2026-01-10 03:40:01.07	251.21	35.30	-28.0	-28.6	28.8	0.00e+00	0	26	0	2055208960	28	6113
2026-01-10 03:40:02.08	251.61	35.36	-27.9	-28.4	29.0	0.00e+00	0	26	0	2061500416	28	6021
2026-01-10 03:40:03.09	252.01	35.41	-28.0	-28.6	28.8	0.00e+00	0	26	0	2066743296	28	6124
2026-01-10 03:40:04.10	252.41	35.45	-27.8	-28.4	29.0	0.00e+00	0	26	0	2071986176	28	5980
2026-01-10 03:40:05.11	252.81	35.50	-27.8	-28.4	29.0	0.00e+00	0	26	0	2078277632	28	5999
2026-01-10 03:40:06.12	253.21	35.55	-27.9	-28.4	29.0	0.00e+00	0	26	0	2083520512	28	6025
2026-01-10 03:40:07.13	253.61	35.59	-27.8	-28.4	29.0	0.00e+00	0	26	0	2089811968	28	6022
2026-01-10 03:40:08.14	254.02	35.64	-28.0	-28.6	28.8	0.00e+00	0	26	0	2095054848	28	6149
2026-01-10 03:40:09.15	254.43	35.68	-28.2	-28.7	28.8	0.00e+00	0	26	0	2100297728	28	6237
2026-01-10 03:40:10.16	254.83	35.72	-28.1	-28.7	28.8	0.00e+00	0	26	0	2106589184	28	6202
2026-01-10 03:40:11.17	255.24	35.76	-28.1	-28.7	28.8	0.00e+00	0	26	0	2111832064	28	6194
2026-01-10 03:40:12.18	255.65	35.79	-27.9	-28.5	28.9	0.00e+00	0	26	0	2118123520	28	6056
2026-01-10 03:40:13.19	256.06	35.83	-28.0	-28.6	28.9	0.00e+00	0	26	0	2123366400	28	6106
2026-01-10 03:40:14.20	256.47	35.86	-28.0	-28.6	28.8	0.00e+00	0	26	0	2129657856	28	6106
2026-01-10 03:40:15.21	256.88	35.90	-28.1	-28.7	28.9	0.00e+00	0	26	0	2134900736	28	6177
2026-01-10 03:40:16.22	257.29	35.93	-28.2	-28.8	28.8	0.00e+00	0	26	0	2140143616	28	6270
2026-01-10 03:40:17.23	257.70	35.96	-27.8	-28.4	29.1	0.00e+00	0	26	0	2146435072	28	6017
2026-01-10 03:40:18.24	258.12	35.98	-27.9	-28.5	29.0	0.00e+00	0	26	0	2151677952	28	6072
2026-01-10 03:40:19.25	258.53	36.01	-27.9	-28.5	29.0	0.00e+00	0	26	0	2157969408	28	6080
2026-01-10 03:40:20.25	258.94	36.03	-27.9	-28.4	28.9	0.00e+00	0	26	0	2163212288	28	6029
2026-01-10 03:40:21.27	259.36	36.06	-27.8	-28.3	29.0	0.00e+00	0	26	0	2168455168	28	5932
2026-01-10 03:40:22.27	259.77	36.08	-27.9	-28.5	28.9	0.00e+00	0	26	0	2174746624	28	6053
2026-01-10 03:40:23.28	260.19	36.10	-27.9	-28.5	28.9	0.00e+00	0	26	0	2179989504	28	6077
2026-01-10 03:40:24.29	260.60	36.12	-27.7	-28.4	29.1	0.00e+00	0	26	0	2186280960	28	5972
2026-01-10 03:40:25.30	261.02	36.13	-27.7	-28.3	29.1	0.00e+00	0	26	0	2191523840	28	5901
2026-01-10 03:40:26.30	261.43	36.15	-27.6	-28.2	29.1	0.00e+00	0	26	0	2196766720	28	5851
2026-01-10 03:40:27.31	261.85	36.16	-27.8	-28.4	29.1	0.00e+00	0	26	0	2203058176	28	5984
2026-01-10 03:40:28.32	262.27	36.17	-28.0	-28.6	28.9	0.00e+00	0	26	0	2208301056	28	6120
2026-01-10 03:40:29.33	262.69	36.18	-28.0	-28.6	28.9	0.00e+00	0	26	0	2214592512	28	6134
2026-01-10 03:40:30.35	263.11	36.19	-27.8	-28.4	29.0	0.00e+00	0	26	0	2219835392	28	5974
2026-01-10 03:40:31.35	263.53	36.19	-27.9	-28.4	28.9	0.00e+00	0	26	0	2226126848	28	6028
2026-01-10 03:40:32.36	263.94	36.20	-27.8	-28.4	28.9	0.00e+00	0	26	0	2231369728	28	6018
2026-01-10 03:40:33.37	264.36	36.20	-28.0	-28.7	28.8	0.00e+00	0	26	0	2236612608	28	6180
2026-01-10 03:40:34.38	264.78	36.20	-28.0	-28.5	29.0	0.00e+00	0	26	0	2242904064	28	6094
2026-01-10 03:40:35.39	265.20	36.20	-27.9	-28.5	29.0	0.00e+00	0	26	0	2248146944	28	6064
2026-01-10 03:40:36.40	265.62	36.20	-28.2	-28.7	28.8	0.00e+00	0	26	0	2254438400	28	6236
2026-01-10 03:40:37.41	266.04	36.20	-27.9	-28.5	28.9	0.00e+00	0	26	0	2259681280	28	6100
2026-01-10 03:40:38.42	266.46	36.19	-27.8	-28.4	28.9	0.00e+00	0	26	0	2264924160	28	5976
2026-01-10 03:40:39.43	266.88	36.18	-27.8	-28.4	29.1	0.00e+00	0	26	0	2271215616	28	5971
2026-01-10 03:40:40.44	267.29	36.17	-27.8	-28.4	29.0	0.00e+00	0	26	0	2276458496	28	5976
2026-01-10 03:40:41.45	267.71	36.16	-27.8	-28.4	29.0	0.00e+00	0	26	0	2282749952	28	5986
2026-01-10 03:40:42.46	268.13	36.15	-27.8	-28.5	28.7	0.00e+00	0	26	0	2287992832	28	6042
2026-01-10 03:40:43.47	268.55	36.14	-28.0	-28.6	28.8	0.00e+00	0	26	0	2293235712	28	6155
2026-01-10 03:40:44.48	268.96	36.12	-28.2	-28.8	28.6	0.00e+00	0	26	0	2299527168	28	6264
2026-01-10 03:40:45.49	269.38	36.10	-28.1	-28.7	28.6	0.00e+00	0	26	0	2304770048	28	6194
2026-01-10 03:40:46.50	269.80	36.09	-27.9	-28.5	28.8	0.00e+00	0	26	0	2311061504	28	6051
2026-01-10 03:40:47.51	270.21	36.06	-27.7	-28.4	28.9	0.00e+00	0	26	0	2316304384	28	5999
2026-01-10 03:40:48.52	270.63	36.04	-27.8	-28.4	29.1	0.00e+00	0	26	0	2322595840	28	5975
2026-01-10 03:40:49.53	271.04	36.02	-27.9	-28.5	29.0	0.00e+00	0	26	0	2327838720	28	6074
2026-01-10 03:40:50.53	271.45	35.99	-27.9	-28.4	29.0	0.00e+00	0	26	0	2334130176	28	6030
2026-01-10 03:40:51.54	271.86	35.97	-27.8	-28.4	29.0	0.00e+00	0	26	0	2339373056	28	5984
2026-01-10 03:40:52.55	272.28	35.94	-27.8	-28.4	29.0	0.00e+00	0	26	0	2344615936	28	5974
2026-01-10 03:40:53.56	272.69	35.91	-28.0	-28.7	28.7	0.00e+00	0	26	0	2350907392	28	6179
2026-01-10 03:40:54.57	273.10	35.88	-28.1	-28.6	28.8	0.00e+00	0	26	0	2356150272	28	6157
2026-01-10 03:40:55.58	273.51	35.84	-28.0	-28.6	28.8	0.00e+00	0	26	0	2362441728	28	6154
2026-01-10 03:40:56.59	273.92	35.81	-28.0	-28.6	28.9	0.00e+00	0	26	0	2367684608	28	6104
2026-01-10 03:40:57.60	274.33	35.77	-27.8	-28.4	29.0	0.00e+00	0	26	0	2372927488	28	6012
2026-01-10 03:40:58.61	274.73	35.73	-27.7	-28.3	29.1	0.00e+00	0	26	0	2379218944	28	5939
2026-01-10 03:40:59.62	275.14	35.69	-27.8	-28.3	29.0	0.00e+00	0	26	0	2384461824	28	5942
2026-01-10 03:41:00.63	275.55	35.65	-27.9	-28.5	28.9	0.00e+00	0	26	0	2390753280	28	6087
2026-01-10 03:41:01.64	275.95	35.61	-27.9	-28.5	28.9	0.00e+00	0	26	0	2395996160	28	6036
2026-01-10 03:41:02.64	276.35	35.56	-27.8	-28.4	29.1	0.00e+00	0	26	0	2401239040	28	6014
2026-01-10 03:41:03.65	276.75	35.52	-27.7	-28.2	29.0	0.00e+00	0	26	0	2407530496	28	5884
2026-01-10 03:41:04.66	277.15	35.47	-27.8	-28.3	29.0	0.00e+00	0	26	0	2412773376	28	5947
2026-01-10 03:41:05.67	277.55	35.42	-27.9	-28.5	29.0	0.00e+00	0	26	0	2419064832	28	6072
2026-01-10 03:41:06.68	277.95	35.37	-27.9	-28.5	28.9	0.00e+00	0	26	0	2424307712	28	6048
2026-01-10 03:41:07.69	278.35	35.32	-28.0	-28.6	28.8	0.00e+00	0	26	0	2430599168	28	6134
2026-01-10 03:41:08.70	278.75	35.27	-28.1	-28.7	28.8	0.00e+00	0	26	0	2435842048	28	6184
2026-01-10 03:41:09.71	279.14	35.21	-27.8	-28.4	28.9	0.00e+00	0	26	0	2441084928	28	6023
2026-01-10 03:41:10.72	279.53	35.16	-27.8	-28.5	29.0	0.00e+00	0	26	0	2447376384	28	6056
2026-01-10 03:41:11.73	279.93	35.10	-28.2	-28.8	28.7	0.00e+00	0	26	0	2452619264	28	6265
2026-01-10 03:41:12.74	280.32	35.04	-28.4	-29.0	28.7	0.00e+00	0	26	0	2458910720	28	6425
2026-01-10 03:41:13.75	280.71	34.98	-28.5	-29.2	28.5	0.00e+00	0	26	0	2464153600	28	6595
2026-01-10 03:41:14.76	281.10	34.92	-28.4	-29.0	28.6	0.00e+00	0	26	0	2469396480	28	6459
2026-01-10 03:41:15.77	281.48	34.86	-28.0	-28.5	28.9	0.00e+00	0	26	0	2475687936	28	6092
2026-01-10 03:41:16.78	281.87	34.80	-27.9	-28.6	29.0	0.00e+00	0	26	0	2480930816	28	6110
2026-01-10 03:41:17.79	282.25	34.73	-27.8	-28.3	28.9	0.00e+00	0	26	0	2487222272	28	5962
2026-01-10 03:41:18.80	282.63	34.66	-27.9	-28.6	28.9	0.00e+00	0	26	0	2492465152	28	6112
2026-01-10 03:41:19.81	283.01	34.60	-27.9	-28.6	28.9	0.00e+00	0	26	0	2497708032	28	6113
2026-01-10 03:41:20.82	283.39	34.53	-28.0	-28.5	28.8	0.00e+00	0	26	0	2503999488	28	6058
2026-01-10 03:41:21.83	283.77	34.46	-28.0	-28.7	28.8	0.00e+00	0	26	0	2509242368	28	6180
2026-01-10 03:41:22.84	284.15	34.39	-28.1	-28.7	28.6	0.00e+00	0	26	0	2515533824	28	6185
2026-01-10 03:41:23.85	284.52	34.31	-28.1	-28.6	28.7	0.00e+00	0	26	0	2520776704	28	6154
2026-01-10 03:41:24.86	284.89	34.24	-28.0	-28.6	28.8	0.00e+00	0	26	0	2527068160	28	6136
2026-01-10 03:41:25.87	285.26	34.17	-28.0	-28.5	28.9	0.00e+00	0	26	0	2532311040	28	6070
2026-01-10 03:41:26.88	285.63	34.09	-28.1	-28.7	28.7	0.00e+00	0	26	0	2538602496	28	6195
2026-01-10 03:41:27.89	286.00	34.01	-28.2	-28.8	28.7	0.00e+00	0	26	0	2543845376	28	6280
2026-01-10 03:41:28.90	286.37	33.94	-28.2	-28.7	28.7	0.00e+00	0	26	0	2549088256	28	6203
2026-01-10 03:41:29.91	286.73	33.86	-28.1	-28.8	28.8	0.00e+00	0	26	0	2555379712	28	6275
2026-01-10 03:41:30.92	287.09	33.78	-28.0	-28.7	28.8	0.00e+00	0	26	0	2560622592	28	6198
2026-01-10 03:41:31.93	287.45	33.70	-28.1	-28.8	28.6	0.00e+00	0	26	0	2566914048	28	6257
2026-01-10 03:41:32.94	287.81	33.61	-28.4	-28.9	28.5	0.00e+00	0	26	0	2572156928	28	6355
2026-01-10 03:41:33.95	288.17	33.53	-28.5	-29.0	28.5	0.00e+00	0	26	0	2577399808	28	6464
2026-01-10 03:41:34.95	288.52	33.45	-28.5	-29.2	28.5	0.00e+00	0	26	0	2583691264	28	6570
2026-01-10 03:41:35.96	288.87	33.36	-28.3	-28.9	28.7	0.00e+00	0	26	0	2588934144	28	6352
2026-01-10 03:41:36.97	289.22	33.28	-28.3	-28.8	28.6	0.00e+00	0	26	0	2594177024	28	6312
2026-01-10 03:41:37.98	289.57	33.19	-28.5	-29.0	28.5	0.00e+00	0	26	0	2600468480	28	6464
2026-01-10 03:41:38.98	289.92	33.10	-28.5	-29.0	28.5	0.00e+00	0	26	0	2605711360	28	6418
2026-01-10 03:41:39.99	290.26	33.01	-28.4	-29.1	28.5	0.00e+00	0	26	0	2612002816	28	6487
2026-01-10 03:41:41.00	290.61	32.93	-28.5	-29.1	28.5	0.00e+00	0	26	0	2617245696	28	6465
2026-01-10 03:41:42.01	290.95	32.83	-28.4	-29.1	28.4	0.00e+00	0	26	0	2623537152	28	6500
2026-01-10 03:41:43.02	291.29	32.74	-28.4	-29.0	28.6	0.00e+00	0	26	0	2628780032	28	6447
2026-01-10 03:41:44.03	291.63	32.65	-28.5	-29.1	28.5	0.00e+00	0	26	0	2635071488	28	6528
2026-01-10 03:41:45.04	291.96	32.56	-28.5	-29.2	28.5	0.00e+00	0	26	0	2640314368	28	6579
2026-01-10 03:41:46.05	292.30	32.47	-28.5	-29.2	28.5	0.00e+00	0	26	0	2645557248	28	6579
2026-01-10 03:41:47.06	292.63	32.37	-28.5	-29.1	28.5	0.00e+00	0	26	0	2651848704	28	6517
2026-01-10 03:41:48.07	292.96	32.28	-28.6	-29.2	28.4	0.00e+00	0	26	0	2657091584	28	6591
2026-01-10 03:41:49.08	293.29	32.18	-28.6	-29.1	28.3	0.00e+00	0	26	0	2663383040	28	6538
2026-01-10 03:41:50.09	293.62	32.08	-28.7	-29.3	28.4	0.00e+00	0	26	0	2668625920	28	6681
2026-01-10 03:41:51.10	293.94	31.99	-28.7	-29.3	28.3	0.00e+00	0	26	0	2673868800	28	6679
2026-01-10 03:41:52.11	294.27	31.89	-28.8	-29.5	28.3	0.00e+00	0	26	0	2680160256	30	6053
2026-01-10 03:41:53.12	294.59	31.79	-28.6	-29.2	28.3	0.00e+00	0	26	0	2685403136	30	5883
2026-01-10 03:41:54.13	294.91	31.69	-28.7	-29.4	28.3	0.00e+00	0	26	0	2691694592	30	5995
2026-01-10 03:41:55.14	295.22	31.59	-28.6	-29.1	28.5	0.00e+00	0	26	0	2696937472	30	5815
2026-01-10 03:41:56.14	295.54	31.49	-28.6	-29.2	28.5	0.00e+00	0	26	0	2702180352	30	5844
2026-01-10 03:41:57.15	295.85	31.39	-28.7	-29.2	28.3	0.00e+00	0	26	0	2708471808	30	5888
2026-01-10 03:41:58.16	296.16	31.29	-28.7	-29.4	28.3	0.00e+00	0	26	0	2713714688	30	5966
2026-01-10 03:41:59.17	296.47	31.19	-28.7	-29.3	28.4	0.00e+00	0	26	0	2720006144	30	5939
2026-01-10 03:42:00.18	296.78	31.09	-28.6	-29.1	28.4	0.00e+00	0	26	0	2725249024	30	5788
2026-01-10 03:42:01.19	297.08	30.98	-28.6	-29.2	28.4	0.00e+00	0	26	0	2731540480	30	5858
2026-01-10 03:42:02.20	297.39	30.88	-28.6	-29.2	28.3	0.00e+00	0	26	0	2736783360	30	5864
2026-01-10 03:42:03.21	297.69	30.78	-28.4	-28.9	28.5	0.00e+00	0	26	0	2742026240	30	5684
2026-01-10 03:42:04.22	297.99	30.67	-28.2	-28.8	28.5	0.00e+00	0	26	0	2748317696	30	5569
2026-01-10 03:42:05.23	298.29	30.57	-28.2	-28.7	28.7	0.00e+00	0	26	0	2753560576	30	5503
2026-01-10 03:42:06.24	298.58	30.46	-28.2	-28.9	28.5	0.00e+00	0	26	0	2759852032	30	5634
2026-01-10 03:42:07.25	298.88	30.35	-28.4	-29.1	28.4	0.00e+00	0	26	0	2765094912	30	5780
2026-01-10 03:42:08.26	299.17	30.25	-28.7	-29.2	28.3	0.00e+00	0	26	0	2770337792	30	5873
2026-01-10 03:42:09.27	299.46	30.14	-28.7	-29.4	28.2	0.00e+00	0	26	0	2776629248	30	6014
2026-01-10 03:42:10.28	299.75	30.03	-28.6	-29.2	28.3	0.00e+00	0	26	0	2781872128	30	5882
2026-01-10 03:42:11.29	300.04	29.93	-28.6	-29.3	28.4	0.00e+00	0	26	0	2788163584	30	5941
2026-01-10 03:42:12.30	300.32	29.82	-28.6	-29.2	28.4	0.00e+00	0	26	0	2793406464	30	5878
2026-01-10 03:42:13.31	300.60	29.71	-28.7	-29.2	28.3	0.00e+00	0	26	0	2798649344	30	5875
2026-01-10 03:42:14.31	300.88	29.60	-29.0	-29.7	28.0	0.00e+00	0	26	0	2804940800	30	6214
2026-01-10 03:42:15.32	301.16	29.50	-29.5	-30.1	27.7	0.00e+00	0	26	0	2810183680	30	6528
2026-01-10 03:42:16.33	301.44	29.39	-28.7	-29.2	28.2	0.00e+00	0	26	0	2816475136	30	5879
2026-01-10 03:42:17.34	301.72	29.28	-28.7	-29.2	28.3	0.00e+00	0	26	0	2821718016	30	5888
2026-01-10 03:42:18.35	301.99	29.17	-28.6	-29.3	28.3	0.00e+00	0	26	0	2828009472	30	5900
2026-01-10 03:42:19.36	302.26	29.06	-28.7	-29.3	28.2	0.00e+00	0	26	0	2833252352	30	5902
2026-01-10 03:42:20.37	302.53	28.95	-28.8	-29.3	28.2	0.00e+00	0	26	0	2839543808	30	5951
2026-01-10 03:42:21.38	302.80	28.84	-28.8	-29.5	28.2	0.00e+00	0	26	0	2844786688	30	6055
2026-01-10 03:42:22.39	303.07	28.73	-28.8	-29.4	28.2	0.00e+00	0	26	0	2850029568	30	6021
2026-01-10 03:42:23.40	303.33	28.62	-28.8	-29.3	28.2	0.00e+00	0	26	0	2856321024	30	5936
2026-01-10 03:42:24.41	303.59	28.51	-28.8	-29.3	28.2	0.00e+00	0	26	0	2861563904	30	5924
2026-01-10 03:42:25.41	303.85	28.40	-28.8	-29.4	28.1	0.00e+00	0	26	0	2866806784	30	5967
2026-01-10 03:42:26.42	304.11	28.28	-28.9	-29.5	27.9	0.00e+00	0	26	0	2873098240	30	6068
2026-01-10 03:42:27.43	304.37	28.17	-29.0	-29.6	27.8	0.00e+00	0	26	0	2878341120	30	6150
2026-01-10 03:42:28.44	304.62	28.06	-29.0	-29.5	27.9	0.00e+00	0	26	0	2884632576	30	6076
2026-01-10 03:42:29.45	304.88	27.95	-29.2	-29.9	27.6	0.00e+00	0	26	0	2889875456	30	6342
2026-01-10 03:42:30.46	305.13	27.84	-29.0	-29.6	27.8	0.00e+00	0	26	0	2895118336	30	6163
2026-01-10 03:42:31.47	305.38	27.73	-28.8	-29.5	27.9	0.00e+00	0	26	0	2901409792	30	6078
2026-01-10 03:42:32.48	305.63	27.61	-28.7	-29.4	28.0	0.00e+00	0	26	0	2906652672	30	5999
2026-01-10 03:42:33.49	305.88	27.50	-28.7	-29.4	28.1	0.00e+00	0	26	0	2912944128	30	5968
2026-01-10 03:42:34.50	306.12	27.39	-28.7	-29.3	27.9	0.00e+00	0	26	0	2918187008	30	5957
2026-01-10 03:42:35.51	306.37	27.28	-28.8	-29.5	28.2	0.00e+00	0	26	0	2924478464	30	6047
2026-01-10 03:42:36.52	306.61	27.16	-28.8	-29.3	27.9	0.00e+00	0	26	0	2929721344	30	5951
2026-01-10 03:42:37.53	306.85	27.05	-28.9	-29.5	27.9	0.00e+00	0	26	0	2936012800	30	6064
2026-01-10 03:42:38.53	307.09	26.94	-29.1	-29.7	27.8	0.00e+00	0	26	0	2941255680	30	6207
2026-01-10 03:42:39.55	307.33	26.83	-29.2	-29.8	27.7	0.00e+00	0	26	0	2946498560	30	6299
2026-01-10 03:42:40.55	307.56	26.71	-29.2	-29.7	27.7	0.00e+00	0	26	0	2952790016	30	6244
2026-01-10 03:42:41.56	307.79	26.60	-29.2	-29.9	27.9	0.00e+00	0	26	0	2958032896	30	6346
2026-01-10 03:42:42.57	308.03	26.49	-29.1	-29.7	27.9	0.00e+00	0	26	0	2964324352	30	6174
2026-01-10 03:42:43.58	308.26	26.38	-29.1	-29.6	28.0	0.00e+00	0	26	0	2969567232	30	6148
2026-01-10 03:42:44.59	308.49	26.26	-28.9	-29.6	28.0	0.00e+00	0	26	0	2974810112	30	6124
2026-01-10 03:42:45.61	308.71	26.15	-28.9	-29.6	28.1	0.00e+00	0	26	0	2981101568	30	6115
2026-01-10 03:42:46.61	308.94	26.04	-29.0	-29.6	28.0	0.00e+00	0	26	0	2986344448	30	6127
2026-01-10 03:42:47.62	309.16	25.93	-28.9	-29.4	28.1	0.00e+00	0	26	0	2992635904	30	6000
2026-01-10 03:42:48.63	309.39	25.81	-29.0	-29.5	28.0	0.00e+00	0	26	0	2997878784	30	6072
2026-01-10 03:42:49.64	309.61	25.70	-28.9	-29.4	28.1	0.00e+00	0	26	0	3003121664	30	6008
2026-01-10 03:42:50.65	309.83	25.59	-28.9	-29.6	28.1	0.00e+00	0	26	0	3009413120	30	6132
2026-01-10 03:42:51.66	310.04	25.47	-28.7	-29.4	28.2	0.00e+00	0	26	0	3014656000	30	6009
2026-01-10 03:42:52.67	310.26	25.36	-28.8	-29.3	28.0	0.00e+00	0	26	0	3020947456	30	5934
2026-01-10 03:42:53.68	310.48	25.25	-28.8	-29.3	28.1	0.00e+00	0	26	0	3026190336	30	5956
2026-01-10 03:42:54.69	310.69	25.14	-28.6	-29.3	28.2	0.00e+00	0	26	0	3032481792	30	5925
2026-01-10 03:42:55.70	310.90	25.03	-28.7	-29.2	28.2	0.00e+00	0	26	0	3037724672	30	5876
2026-01-10 03:42:56.71	311.11	24.91	-28.6	-29.3	28.3	0.00e+00	0	26	0	3042967552	30	5939
2026-01-10 03:42:57.72	311.32	24.80	-28.7	-29.4	28.2	0.00e+00	0	26	0	3049259008	30	5985
2026-01-10 03:42:58.73	311.53	24.69	-28.9	-29.6	28.1	0.00e+00	0	26	0	3054501888	30	6151
2026-01-10 03:42:59.74	311.74	24.58	-28.9	-29.6	28.1	0.00e+00	0	26	0	3060793344	30	6155
2026-01-10 03:43:00.75	311.94	24.47	-28.9	-29.6	28.1	0.00e+00	0	26	0	3066036224	30	6112
2026-01-10 03:43:01.75	312.14	24.35	-29.0	-29.7	28.0	0.00e+00	0	26	0	3071279104	30	6192
2026-01-10 03:43:02.77	312.35	24.24	-29.1	-29.6	28.0	0.00e+00	0	26	0	3077570560	30	6146
2026-01-10 03:43:03.77	312.55	24.13	-29.1	-29.8	27.9	0.00e+00	0	26	0	3082813440	30	6299
2026-01-10 03:43:04.78	312.75	24.02	-29.1	-29.7	27.9	0.00e+00	0	26	0	3089104896	30	6180
2026-01-10 03:43:05.79	312.94	23.91	-29.2	-29.9	27.7	0.00e+00	0	26	0	3094347776	30	6377
2026-01-10 03:43:06.80	313.14	23.80	-29.3	-29.9	27.7	0.00e+00	0	26	0	3099590656	30	6386
2026-01-10 03:43:07.81	313.34	23.69	-29.5	-30.2	27.6	0.00e+00	0	26	0	3105882112	30	6540
2026-01-10 03:43:08.81	313.53	23.58	-29.1	-29.8	27.9	0.00e+00	0	26	0	3111124992	30	6291
2026-01-10 03:43:09.82	313.72	23.47	-29.3	-29.8	27.8	0.00e+00	0	26	0	3117416448	30	6303
2026-01-10 03:43:10.84	313.91	23.35	-29.3	-29.9	27.7	0.00e+00	0	26	0	3122659328	30	6319
2026-01-10 03:43:11.85	314.10	23.24	-29.3	-30.0	27.7	0.00e+00	0	26	0	3128950784	30	6396
2026-01-10 03:43:12.86	314.29	23.13	-29.4	-30.1	27.7	0.00e+00	0	26	0	3134193664	30	6508
2026-01-10 03:43:13.87	314.48	23.02	-29.4	-30.1	27.7	0.00e+00	0	26	0	3139436544	30	6476
2026-01-10 03:43:14.88	314.67	22.91	-29.5	-30.2	27.6	0.00e+00	0	26	0	3145728000	30	6592
2026-01-10 03:43:15.89	314.85	22.80	-29.5	-30.2	27.6	0.00e+00	0	26	0	3150970880	30	6569
2026-01-10 03:43:16.90	315.03	22.70	-29.6	-30.2	27.6	0.00e+00	0	26	0	3157262336	30	6540
2026-01-10 03:43:17.91	315.22	22.59	-29.7	-30.3	27.4	0.00e+00	0	26	0	3162505216	30	6625
2026-01-10 03:43:18.92	315.40	22.48	-29.6	-30.1	27.6	0.00e+00	0	26	0	3167748096	32	5828
2026-01-10 03:43:19.93	315.58	22.37	-29.5	-30.2	27.6	0.00e+00	0	26	0	3174039552	32	5863
2026-01-10 03:43:20.94	315.76	22.26	-29.6	-30.2	27.5	0.00e+00	0	26	0	3179282432	32	5833
2026-01-10 03:43:21.95	315.93	22.15	-29.6	-30.3	27.5	0.00e+00	0	26	0	3185573888	32	5951
2026-01-10 03:43:22.96	316.11	22.04	-29.6	-30.2	27.5	0.00e+00	0	26	0	3190816768	32	5875
2026-01-10 03:43:23.97	316.28	21.93	-29.4	-29.9	27.7	0.00e+00	0	26	0	3196059648	32	5692
2026-01-10 03:43:24.98	316.46	21.83	-29.5	-30.0	27.6	0.00e+00	0	26	0	3202351104	32	5734
2026-01-10 03:43:25.99	316.63	21.72	-29.5	-30.0	27.6	0.00e+00	0	26	0	3207593984	32	5728
2026-01-10 03:43:27.00	316.80	21.61	-29.5	-30.2	27.5	0.00e+00	0	26	0	3213885440	32	5865
2026-01-10 03:43:28.01	316.97	21.50	-29.6	-30.1	27.4	0.00e+00	0	26	0	3219128320	32	5824
2026-01-10 03:43:29.01	317.14	21.40	-29.7	-30.4	27.4	0.00e+00	0	26	0	3225419776	32	5981
2026-01-10 03:43:30.02	317.31	21.29	-29.7	-30.4	27.4	0.00e+00	0	26	0	3230662656	32	6015
2026-01-10 03:43:31.03	317.48	21.18	-29.9	-30.5	27.2	0.00e+00	0	26	0	3236954112	32	6101
2026-01-10 03:43:32.04	317.64	21.08	-29.9	-30.6	27.3	0.00e+00	0	26	0	3242196992	32	6133
2026-01-10 03:43:33.05	317.81	20.97	-29.9	-30.6	27.2	0.00e+00	0	26	0	3247439872	32	6138
2026-01-10 03:43:34.06	317.97	20.86	-30.0	-30.7	27.2	0.00e+00	0	26	0	3253731328	32	6208
2026-01-10 03:43:35.07	318.13	20.76	-30.1	-30.6	27.1	0.00e+00	0	26	0	3258974208	32	6172
2026-01-10 03:43:36.08	318.29	20.65	-30.1	-30.8	27.1	0.00e+00	0	26	0	3265265664	32	6256
2026-01-10 03:43:37.09	318.45	20.55	-29.9	-30.4	27.3	0.00e+00	0	26	0	3270508544	32	5994
2026-01-10 03:43:38.09	318.61	20.44	-29.9	-30.5	27.3	0.00e+00	0	26	0	3275751424	32	6097
2026-01-10 03:43:39.10	318.77	20.34	-29.9	-30.6	27.2	0.00e+00	0	26	0	3282042880	32	6131
2026-01-10 03:43:40.11	318.93	20.23	-29.9	-30.5	27.3	0.00e+00	0	26	0	3287285760	32	6071
2026-01-10 03:43:41.12	319.08	20.13	-30.0	-30.7	27.2	0.00e+00	0	26	0	3292528640	32	6208
2026-01-10 03:43:42.13	319.24	20.02	-29.9	-30.6	27.2	0.00e+00	0	26	0	3298820096	32	6166
2026-01-10 03:43:43.14	319.39	19.92	-29.9	-30.6	27.2	0.00e+00	0	26	0	3304062976	32	6144
2026-01-10 03:43:44.15	319.55	19.82	-30.1	-30.8	27.0	0.00e+00	0	26	0	3310354432	32	6257
2026-01-10 03:43:45.16	319.70	19.71	-30.1	-30.6	27.1	0.00e+00	0	26	0	3315597312	32	6150
2026-01-10 03:43:46.17	319.85	19.61	-30.2	-30.9	27.0	0.00e+00	0	26	0	3321888768	32	6351
2026-01-10 03:43:47.18	320.00	19.51	-30.3	-31.0	26.9	0.00e+00	0	26	0	3327131648	32	6400
2026-01-10 03:43:48.19	320.15	19.40	-30.4	-31.0	26.7	0.00e+00	0	26	0	3333423104	32	6428
2026-01-10 03:43:49.20	320.30	19.30	-30.5	-31.0	26.8	0.00e+00	0	26	0	3338665984	32	6442
2026-01-10 03:43:50.21	320.44	19.20	-30.5	-31.0	26.7	0.00e+00	0	26	0	3343908864	32	6464
2026-01-10 03:43:51.22	320.59	19.10	-30.6	-31.1	26.7	0.00e+00	0	26	0	3350200320	32	6529
2026-01-10 03:43:52.23	320.74	19.00	-30.6	-31.2	26.7	0.00e+00	0	26	0	3355443200	32	6549
2026-01-10 03:43:53.24	320.88	18.89	-30.6	-31.2	26.7	0.00e+00	0	26	0	3361734656	32	6548
2026-01-10 03:43:54.25	321.02	18.79	-30.6	-31.1	26.7	0.00e+00	0	26	0	3366977536	32	6536
2026-01-10 03:43:55.26	321.17	18.69	-30.6	-31.1	26.6	0.00e+00	0	26	0	3372220416	32	6516
2026-01-10 03:43:56.27	321.31	18.59	-30.6	-31.2	26.7	0.00e+00	0	26	0	3378511872	32	6569
2026-01-10 03:43:57.28	321.45	18.49	-30.6	-31.2	26.6	0.00e+00	0	26	0	3383754752	34	5839
2026-01-10 03:43:58.29	321.59	18.39	-30.7	-31.3	26.6	0.00e+00	0	26	0	3390046208	34	5920
2026-01-10 03:43:59.30	321.73	18.29	-30.8	-31.5	26.5	0.00e+00	0	26	0	3395289088	34	6064
2026-01-10 03:44:00.31	321.87	18.19	-30.9	-31.4	26.4	0.00e+00	0	26	0	3400531968	34	6021
2026-01-10 03:44:01.32	322.00	18.09	-30.9	-31.5	26.4	0.00e+00	0	26	0	3406823424	34	6069
2026-01-10 03:44:02.33	322.14	17.99	-30.9	-31.5	26.4	0.00e+00	0	26	0	3412066304	34	6050
2026-01-10 03:44:03.34	322.27	17.89	-31.0	-31.6	26.3	0.00e+00	0	26	0	3418357760	34	6126
2026-01-10 03:44:04.35	322.41	17.79	-31.1	-31.6	26.3	0.00e+00	0	26	0	3423600640	34	6152
2026-01-10 03:44:05.36	322.54	17.69	-31.0	-31.6	26.3	0.00e+00	0	26	0	3429892096	34	6140
2026-01-10 03:44:06.37	322.68	17.60	-31.1	-31.7	26.2	0.00e+00	0	26	0	3435134976	34	6206
2026-01-10 03:44:07.38	322.81	17.50	-31.2	-31.8	26.1	0.00e+00	0	26	0	3441426432	34	6289
2026-01-10 03:44:08.39	322.94	17.40	-31.3	-31.9	26.0	0.00e+00	0	26	0	3446669312	34	6323
2026-01-10 03:44:09.39	323.07	17.30	-30.9	-31.4	26.4	0.00e+00	0	26	0	3451912192	34	6026
2026-01-10 03:44:10.40	323.20	17.21	-31.0	-31.5	26.4	0.00e+00	0	26	0	3458203648	34	6085
2026-01-10 03:44:11.41	323.33	17.11	-31.0	-31.5	26.4	0.00e+00	0	26	0	3463446528	34	6083
2026-01-10 03:44:12.42	323.46	17.01	-30.9	-31.4	26.4	0.00e+00	0	26	0	3469737984	34	6007
2026-01-10 03:44:13.43	323.58	16.91	-30.8	-31.4	26.4	0.00e+00	0	26	0	3474980864	34	5968
2026-01-10 03:44:14.44	323.71	16.82	-30.9	-31.4	26.3	0.00e+00	0	26	0	3480223744	34	6013
2026-01-10 03:44:15.45	323.83	16.72	-30.9	-31.6	26.3	0.00e+00	0	26	0	3486515200	34	6139
2026-01-10 03:44:16.46	323.96	16.63	-31.0	-31.8	26.3	0.00e+00	0	26	0	3491758080	34	6253
2026-01-10 03:44:17.47	324.08	16.53	-30.9	-31.6	26.4	0.00e+00	0	26	0	3497000960	34	6145
2026-01-10 03:44:18.47	324.21	16.44	-31.0	-31.7	26.2	0.00e+00	0	26	0	3503292416	34	6221
2026-01-10 03:44:19.48	324.33	16.34	-30.9	-31.5	26.4	0.00e+00	0	26	0	3508535296	34	6060
2026-01-10 03:44:20.49	324.45	16.25	-31.1	-31.7	26.2	0.00e+00	0	26	0	3514826752	34	6196
2026-01-10 03:44:21.50	324.57	16.15	-31.0	-31.5	26.3	0.00e+00	0	26	0	3520069632	34	6083
2026-01-10 03:44:22.51	324.69	16.06	-31.0	-31.6	26.3	0.00e+00	0	26	0	3526361088	34	6119
2026-01-10 03:44:23.52	324.81	15.96	-31.0	-31.6	26.3	0.00e+00	0	26	0	3531603968	34	6111
2026-01-10 03:44:24.53	324.93	15.87	-31.1	-31.7	26.1	0.00e+00	0	26	0	3537895424	34	6177
2026-01-10 03:44:25.54	325.05	15.78	-31.0	-31.6	26.2	0.00e+00	0	26	0	3543138304	34	6119
2026-01-10 03:44:26.55	325.17	15.68	-31.0	-31.6	26.1	0.00e+00	0	26	0	3548381184	34	6135
2026-01-10 03:44:27.56	325.28	15.59	-31.1	-31.7	26.1	0.00e+00	0	26	0	3554672640	34	6196
2026-01-10 03:44:28.57	325.40	15.50	-31.1	-31.7	26.2	0.00e+00	0	26	0	3559915520	34	6205
2026-01-10 03:44:29.58	325.52	15.40	-31.2	-31.8	26.1	0.00e+00	0	26	0	3566206976	34	6264
2026-01-10 03:44:30.59	325.63	15.31	-31.2	-31.8	26.0	0.00e+00	0	26	0	3571449856	34	6252
2026-01-10 03:44:31.59	325.74	15.22	-31.2	-32.0	26.0	0.00e+00	0	26	0	3576692736	34	6393
2026-01-10 03:44:32.61	325.86	15.13	-31.3	-32.0	25.9	0.00e+00	0	26	0	3582984192	34	6429
2026-01-10 03:44:33.61	325.97	15.04	-31.4	-32.1	25.9	0.00e+00	0	26	0	3588227072	34	6491
2026-01-10 03:44:34.62	326.08	14.95	-31.3	-31.9	25.9	0.00e+00	0	26	0	3594518528	34	6358
2026-01-10 03:44:35.63	326.19	14.85	-31.4	-31.9	25.9	0.00e+00	0	26	0	3599761408	34	6377
